passes_logs/2026/01/22/T1/T1__20260122_085516_SUOMI_NPP_rec.log

#Pass ID: 20260122_085516_SUOMI NPP
#Satellite: SUOMI NPP
#Configuration: NPP
#almurnet v.1.7.20251203
#Start time: 2026-01-22 08:55:18

#Version: 2.0.20230620
#Station: T1
#Location: 37.570604 lon 55.790049 lat
#TLE: 1 37849U 11061A   26021.51818991  .00000201  00000+0  11636-3 0  9995
#TLE: 2 37849  98.7819 323.5108 0002300  52.3548 307.7836 14.19527793737637

#Time	Az	El	Level	Level2	SNR	BER	BlckErr	Temp	State	Recorded	gain1	gain2
2026-01-22 08:55:18.38	126.09	5.15	-49.9	-65.2	3.8	1.49e+00	0	35	0	0	70	22031
2026-01-22 08:55:19.37	126.04	5.21	-49.9	-65.2	3.8	1.49e+00	0	35	104	0	70	22020
2026-01-22 08:55:20.36	125.98	5.28	-49.9	-65.2	3.8	1.49e+00	0	35	104	0	70	22077
2026-01-22 08:55:21.36	125.93	5.35	-49.5	-65.1	3.8	1.49e+00	0	35	104	0	70	21949
2026-01-22 08:55:22.35	125.87	5.42	-49.4	-65.1	3.8	1.49e+00	0	35	104	0	70	21874
2026-01-22 08:55:23.34	125.81	5.48	-49.9	-65.1	3.8	1.49e+00	0	35	104	0	70	21785
2026-01-22 08:55:24.34	125.76	5.55	-49.5	-65.0	3.8	1.49e+00	0	35	104	0	70	21679
2026-01-22 08:55:25.33	125.70	5.62	-49.9	-65.0	3.8	1.49e+00	0	35	104	0	70	21644
2026-01-22 08:55:26.32	125.64	5.69	-49.5	-65.0	3.8	1.49e+00	0	35	104	0	70	21567
2026-01-22 08:55:27.31	125.58	5.75	-49.9	-65.0	3.8	1.49e+00	0	35	104	0	70	21545
2026-01-22 08:55:28.31	125.53	5.82	-49.9	-65.0	3.8	1.49e+00	0	35	104	0	70	21643
2026-01-22 08:55:29.30	125.47	5.89	-49.4	-65.1	3.8	1.49e+00	0	35	104	0	70	21867
2026-01-22 08:55:30.29	125.41	5.96	-49.9	-65.1	3.8	1.49e+00	0	35	104	0	70	21955
2026-01-22 08:55:31.29	125.35	6.03	-49.4	-65.1	3.8	1.49e+00	0	36	104	0	70	21992
2026-01-22 08:55:32.28	125.29	6.10	-49.4	-65.2	3.8	1.49e+00	0	36	104	0	70	22046
2026-01-22 08:55:33.28	125.23	6.17	-49.4	-65.1	3.8	1.49e+00	0	35	104	0	70	21970
2026-01-22 08:55:34.27	125.17	6.23	-49.4	-65.2	3.8	1.49e+00	0	35	104	0	70	22022
2026-01-22 08:55:35.26	125.11	6.30	-49.9	-65.1	3.8	1.49e+00	0	36	104	0	70	21982
2026-01-22 08:55:36.26	125.05	6.37	-49.5	-65.1	3.8	1.49e+00	0	36	104	0	70	21851
2026-01-22 08:55:37.25	124.99	6.44	-49.5	-65.1	3.8	1.49e+00	0	36	104	0	70	21903
2026-01-22 08:55:38.24	124.93	6.51	-49.9	-65.1	3.8	1.49e+00	0	36	104	0	70	21864
2026-01-22 08:55:39.23	124.87	6.58	-49.4	-65.1	3.8	1.49e+00	0	36	104	0	70	21823
2026-01-22 08:55:40.23	124.80	6.65	-49.9	-65.0	3.8	1.49e+00	0	36	104	0	70	21715
2026-01-22 08:55:41.22	124.74	6.72	-49.4	-65.0	3.8	1.49e+00	0	36	104	0	70	21603
2026-01-22 08:55:42.21	124.68	6.79	-49.9	-65.0	3.8	1.49e+00	0	36	104	0	70	21595
2026-01-22 08:55:43.21	124.62	6.86	-49.9	-65.0	3.8	1.49e+00	0	36	104	0	70	21615
2026-01-22 08:55:44.20	124.55	6.93	-49.4	-65.0	3.8	1.49e+00	0	36	104	0	70	21747
2026-01-22 08:55:45.20	124.49	7.00	-49.9	-65.1	3.8	1.49e+00	0	36	104	0	70	21837
2026-01-22 08:55:46.19	124.43	7.07	-49.4	-65.0	3.8	1.49e+00	0	36	104	0	70	21724
2026-01-22 08:55:47.18	124.36	7.15	-49.4	-64.8	3.8	1.49e+00	0	36	104	0	70	21252
2026-01-22 08:55:48.17	124.30	7.22	-49.4	-64.6	3.8	1.49e+00	0	36	104	0	70	20729
2026-01-22 08:55:49.17	124.23	7.29	-49.4	-64.3	3.8	1.49e+00	0	36	104	0	70	20025
2026-01-22 08:55:50.16	124.17	7.36	-49.8	-64.1	3.8	1.49e+00	0	36	104	0	70	19557
2026-01-22 08:55:51.16	124.10	7.43	-49.4	-64.1	3.8	1.49e+00	0	36	104	0	70	19467
2026-01-22 08:55:52.15	124.04	7.50	-49.8	-64.0	3.8	1.49e+00	0	36	104	0	70	19256
2026-01-22 08:55:53.14	123.97	7.58	-49.8	-63.9	3.8	1.49e+00	0	36	104	0	70	18996
2026-01-22 08:55:54.13	123.91	7.65	-49.3	-63.3	3.8	1.49e+00	0	36	104	0	70	17850
2026-01-22 08:55:55.13	123.84	7.72	-49.7	-61.8	4.1	1.44e+00	0	36	0	0	70	14951
2026-01-22 08:55:56.12	123.77	7.79	-49.0	-59.4	5.0	9.56e-01	0	36	0	1048576	70	11294
2026-01-22 08:55:57.11	123.71	7.86	-48.9	-56.8	7.0	3.67e-01	0	36	0	2097152	69	8893
2026-01-22 08:55:58.11	123.64	7.94	-48.1	-54.1	9.4	7.19e-02	0	36	0	4194304	67	7319
2026-01-22 08:55:59.10	123.57	8.01	-46.9	-51.8	11.8	1.53e-03	0	36	0	6291456	65	6344
2026-01-22 08:56:00.09	123.50	8.08	-46.2	-49.9	13.8	4.11e-05	0	36	0	8388608	64	5383
2026-01-22 08:56:01.09	123.43	8.16	-45.5	-49.1	14.6	1.50e-06	0	36	0	10485760	63	5218
2026-01-22 08:56:02.08	123.36	8.23	-45.2	-48.4	15.4	0.00e+00	0	36	0	11534336	62	5048
2026-01-22 08:56:03.07	123.29	8.31	-45.3	-48.9	14.9	0.00e+00	0	36	0	13631488	62	5346
2026-01-22 08:56:04.06	123.22	8.38	-45.7	-49.2	14.6	0.00e+00	0	36	0	15728640	62	5568
2026-01-22 08:56:05.06	123.15	8.45	-46.4	-50.4	13.4	3.00e-06	0	37	0	17825792	63	6061
2026-01-22 08:56:06.05	123.08	8.53	-46.2	-50.6	13.2	1.37e-05	0	37	0	18874368	63	6142
2026-01-22 08:56:07.04	123.01	8.60	-46.8	-51.8	11.9	1.84e-04	0	37	0	20971520	64	6706
2026-01-22 08:56:08.04	122.94	8.68	-46.6	-50.9	12.7	1.44e-04	0	37	0	23068672	64	6035
2026-01-22 08:56:09.03	122.87	8.75	-46.7	-51.1	12.6	5.64e-05	0	37	0	25165824	64	6150
2026-01-22 08:56:10.02	122.80	8.83	-46.8	-51.2	12.5	1.11e-04	0	36	0	27262976	64	6204
2026-01-22 08:56:11.02	122.72	8.90	-46.9	-51.7	11.9	1.96e-04	0	37	0	28311552	64	6638
2026-01-22 08:56:12.01	122.65	8.98	-47.7	-52.9	10.7	1.03e-03	0	37	0	30408704	65	7184
2026-01-22 08:56:13.00	122.58	9.05	-48.3	-54.7	8.9	6.90e-03	0	36	0	32505856	67	7862
2026-01-22 08:56:14.00	122.50	9.13	-46.8	-51.6	12.1	8.78e-04	0	36	0	34603008	65	6184
2026-01-22 08:56:14.99	122.43	9.20	-48.3	-55.5	8.2	7.46e-03	0	37	0	35651584	67	8610
2026-01-22 08:56:15.99	122.36	9.28	-48.7	-59.6	5.0	7.05e-02	0	36	0	37748736	69	12316
2026-01-22 08:56:16.98	122.28	9.36	-47.2	-53.2	10.4	2.10e-02	0	37	0	39845888	66	6965
2026-01-22 08:56:17.98	122.21	9.43	-49.8	-64.6	3.8	1.03e+00	0	37	104	40894464	70	20711
2026-01-22 08:56:18.97	122.13	9.51	-48.9	-64.3	3.7	1.49e+00	0	37	104	40894464	69	21077
2026-01-22 08:56:19.97	122.05	9.59	-49.8	-64.4	3.8	1.49e+00	0	37	104	40894464	70	20131
2026-01-22 08:56:20.97	121.98	9.67	-48.9	-63.7	3.8	1.49e+00	0	37	104	40894464	69	19777
2026-01-22 08:56:21.96	121.90	9.74	-49.7	-62.4	3.9	1.48e+00	0	37	104	40894464	70	16043
2026-01-22 08:56:22.96	121.82	9.82	-49.6	-61.3	4.3	1.41e+00	0	37	0	40894464	70	14076
2026-01-22 08:56:23.95	121.74	9.90	-49.1	-59.4	5.1	7.76e-01	0	37	0	41943040	70	11343
2026-01-22 08:56:24.95	121.67	9.98	-48.8	-55.8	8.2	4.65e-02	0	37	0	44040192	68	8418
2026-01-22 08:56:25.94	121.59	10.05	-45.9	-49.4	14.5	8.52e-03	0	37	0	45088768	62	5696
2026-01-22 08:56:26.94	121.51	10.13	-49.5	-62.5	3.8	6.96e-03	0	37	104	47185920	69	17155
2026-01-22 08:56:27.93	121.43	10.21	-46.9	-51.4	12.4	7.73e-02	0	37	0	47185920	64	6368
2026-01-22 08:56:28.93	121.35	10.29	-47.2	-52.2	11.8	2.18e-04	0	37	0	49283072	65	6606
2026-01-22 08:56:29.92	121.27	10.37	-46.6	-51.9	12.0	3.56e-04	0	37	0	51380224	65	6359
2026-01-22 08:56:30.92	121.19	10.45	-47.0	-51.6	12.3	3.38e-04	0	37	0	53477376	65	6175
2026-01-22 08:56:31.91	121.11	10.53	-46.6	-50.8	12.9	8.16e-05	0	37	0	54525952	64	5970
2026-01-22 08:56:32.90	121.02	10.61	-45.8	-49.4	14.4	7.00e-07	0	37	0	56623104	63	5376
2026-01-22 08:56:33.90	120.94	10.69	-44.5	-47.7	15.9	0.00e+00	0	37	0	58720256	61	4956
2026-01-22 08:56:34.89	120.86	10.77	-44.7	-47.6	16.3	0.00e+00	0	37	0	60817408	61	4874
2026-01-22 08:56:35.95	120.77	10.85	-44.6	-47.5	16.3	0.00e+00	0	37	0	62914560	61	4849
2026-01-22 08:56:36.85	120.70	10.92	-45.0	-48.0	15.8	0.00e+00	0	37	0	63963136	61	5154
2026-01-22 08:56:37.88	120.61	11.01	-45.5	-49.0	15.0	0.00e+00	0	37	0	66060288	61	5724
2026-01-22 08:56:38.87	120.52	11.09	-46.2	-50.1	13.8	3.00e-06	0	37	0	68157440	63	5798
2026-01-22 08:56:39.86	120.44	11.17	-46.3	-50.6	13.4	6.10e-06	0	37	0	70254592	63	6157
2026-01-22 08:56:40.86	120.35	11.25	-46.4	-50.5	13.5	6.80e-06	0	37	0	71303168	63	6069
2026-01-22 08:56:41.85	120.27	11.33	-46.0	-49.7	14.3	1.22e-05	0	37	0	73400320	63	5540
2026-01-22 08:56:42.85	120.18	11.41	-44.7	-48.1	15.8	0.00e+00	0	37	0	75497472	61	5177
2026-01-22 08:56:43.84	120.09	11.49	-44.3	-47.1	16.8	0.00e+00	0	37	0	77594624	60	4899
2026-01-22 08:56:44.84	120.01	11.58	-43.9	-46.6	17.2	0.00e+00	0	37	0	79691776	59	4875
2026-01-22 08:56:45.83	119.92	11.66	-43.7	-46.3	17.5	0.00e+00	0	37	0	80740352	59	4725
2026-01-22 08:56:46.83	119.83	11.74	-43.9	-46.5	17.3	0.00e+00	0	37	0	82837504	59	4827
2026-01-22 08:56:47.82	119.74	11.82	-44.5	-47.4	16.4	0.00e+00	0	37	0	84934656	59	5371
2026-01-22 08:56:48.82	119.65	11.91	-44.8	-47.8	16.1	0.00e+00	0	37	0	87031808	60	5305
2026-01-22 08:56:49.81	119.56	11.99	-45.2	-48.4	15.5	0.00e+00	0	37	0	88080384	61	5351
2026-01-22 08:56:50.86	119.47	12.08	-45.3	-48.6	15.5	0.00e+00	0	37	0	90177536	61	5480
2026-01-22 08:56:51.82	119.38	12.16	-45.1	-48.3	15.7	0.00e+00	0	37	0	92274688	61	5324
2026-01-22 08:56:52.81	119.29	12.24	-44.5	-47.3	16.5	0.00e+00	0	37	0	94371840	61	4755
2026-01-22 08:56:53.80	119.19	12.33	-44.0	-46.6	17.3	0.00e+00	0	37	0	96468992	60	4622
2026-01-22 08:56:54.80	119.10	12.41	-43.7	-46.3	17.5	0.00e+00	0	37	0	97517568	59	4710
2026-01-22 08:56:55.80	119.01	12.49	-43.6	-46.1	17.6	0.00e+00	0	37	0	99614720	58	4924
2026-01-22 08:56:56.79	118.91	12.58	-43.8	-46.4	17.4	0.00e+00	0	37	0	101711872	58	5075
2026-01-22 08:56:57.79	118.82	12.66	-44.1	-46.9	17.0	0.00e+00	0	37	0	103809024	58	5353
2026-01-22 08:56:58.78	118.72	12.75	-44.5	-47.4	16.5	0.00e+00	0	37	0	104857600	59	5360
2026-01-22 08:56:59.78	118.63	12.83	-44.9	-48.0	16.0	0.00e+00	0	37	0	106954752	60	5408
2026-01-22 08:57:00.78	118.53	12.92	-44.7	-47.7	16.2	0.00e+00	0	37	0	109051904	60	5256
2026-01-22 08:57:01.77	118.44	13.01	-44.5	-47.3	16.6	0.00e+00	0	37	0	111149056	60	5038
2026-01-22 08:57:02.77	118.34	13.09	-44.4	-47.2	16.7	0.00e+00	0	37	0	113246208	60	4977
2026-01-22 08:57:03.76	118.24	13.18	-44.4	-47.2	16.7	0.00e+00	0	37	0	114294784	60	4978
2026-01-22 08:57:04.75	118.14	13.26	-44.0	-46.6	17.2	0.00e+00	0	37	0	116391936	59	4915
2026-01-22 08:57:05.74	118.04	13.35	-43.9	-46.5	17.3	0.00e+00	0	37	0	118489088	59	4867
2026-01-22 08:57:06.83	117.93	13.44	-44.0	-46.7	17.2	0.00e+00	0	37	0	120586240	59	4949
2026-01-22 08:57:07.72	117.84	13.52	-44.2	-46.9	17.0	0.00e+00	0	37	0	121634816	59	5060
2026-01-22 08:57:08.86	117.73	13.62	-44.2	-46.9	17.0	0.00e+00	0	37	0	123731968	59	5077
2026-01-22 08:57:09.71	117.64	13.70	-44.2	-46.9	17.0	0.00e+00	0	37	0	125829120	59	5090
2026-01-22 08:57:10.84	117.53	13.80	-44.1	-46.7	17.2	0.00e+00	0	37	0	127926272	59	4947
2026-01-22 08:57:11.69	117.44	13.87	-44.0	-46.7	17.2	0.00e+00	0	37	0	130023424	59	4945
2026-01-22 08:57:12.83	117.32	13.97	-43.9	-46.6	17.3	0.00e+00	0	37	0	132120576	59	4879
2026-01-22 08:57:13.68	117.23	14.05	-44.0	-46.6	17.3	0.00e+00	0	37	0	133169152	59	4892
2026-01-22 08:57:14.82	117.11	14.15	-44.1	-46.8	17.2	0.00e+00	0	37	0	135266304	59	5007
2026-01-22 08:57:15.68	117.02	14.23	-44.4	-47.2	16.7	0.00e+00	0	37	0	137363456	59	5259
2026-01-22 08:57:16.81	116.90	14.33	-44.4	-47.2	16.7	0.00e+00	0	37	0	139460608	59	5259
2026-01-22 08:57:17.66	116.81	14.40	-44.4	-47.1	16.8	0.00e+00	0	37	0	140509184	59	5218
2026-01-22 08:57:18.80	116.69	14.51	-44.2	-46.8	17.0	0.00e+00	0	37	0	142606336	59	5025
2026-01-22 08:57:19.65	116.59	14.58	-44.1	-46.7	17.2	0.00e+00	0	37	0	144703488	59	4951
2026-01-22 08:57:20.92	116.46	14.70	-43.9	-46.4	17.5	0.00e+00	0	37	0	146800640	59	4811
2026-01-22 08:57:21.63	116.38	14.76	-44.0	-46.6	17.4	0.00e+00	0	37	0	147849216	59	4888
2026-01-22 08:57:22.91	116.24	14.88	-44.2	-46.9	17.1	0.00e+00	0	37	0	150994944	59	5052
2026-01-22 08:57:23.62	116.16	14.94	-44.4	-47.2	16.8	0.00e+00	0	37	0	152043520	59	5223
2026-01-22 08:57:24.90	116.01	15.06	-44.4	-47.1	16.8	0.00e+00	0	37	0	154140672	59	5212
2026-01-22 08:57:25.61	115.93	15.12	-44.5	-47.4	16.6	0.00e+00	0	37	0	155189248	59	5360
2026-01-22 08:57:26.89	115.79	15.24	-44.3	-47.1	16.9	0.00e+00	0	37	0	158334976	59	5172
2026-01-22 08:57:27.61	115.71	15.31	-44.2	-46.8	17.2	0.00e+00	0	37	0	159383552	59	5002
2026-01-22 08:57:29.29	115.51	15.46	-44.0	-46.6	17.3	0.00e+00	0	37	0	162529280	59	4894
2026-01-22 08:57:29.86	115.45	15.52	-44.0	-46.6	17.3	0.00e+00	0	37	0	163577856	59	4892
2026-01-22 08:57:31.56	115.25	15.67	-44.4	-47.1	16.9	0.00e+00	0	37	0	166723584	59	5174
2026-01-22 08:57:32.13	115.18	15.73	-44.4	-47.2	16.8	0.00e+00	0	37	0	167772160	59	5250
2026-01-22 08:57:33.87	114.98	15.89	-44.4	-47.1	16.8	0.00e+00	0	37	0	170917888	59	5216
2026-01-22 08:57:34.44	114.91	15.94	-44.4	-47.1	17.0	0.00e+00	0	37	0	171966464	59	5167
2026-01-22 08:57:36.14	114.71	16.10	-44.1	-46.7	17.3	0.00e+00	0	37	0	175112192	59	4957
2026-01-22 08:57:36.71	114.64	16.16	-44.1	-46.8	17.2	0.00e+00	0	37	0	176160768	59	4992
2026-01-22 08:57:38.42	114.43	16.32	-44.1	-46.7	17.2	0.00e+00	0	37	0	179306496	59	4982
2026-01-22 08:57:38.99	114.36	16.37	-44.3	-46.9	17.1	0.00e+00	0	37	0	180355072	59	5073
2026-01-22 08:57:40.69	114.15	16.53	-44.2	-46.8	17.2	0.00e+00	0	37	0	183500800	59	5035
2026-01-22 08:57:41.26	114.08	16.59	-44.0	-46.5	17.4	0.00e+00	0	38	0	184549376	59	4849
2026-01-22 08:57:42.96	113.87	16.75	-43.9	-46.6	17.4	0.00e+00	0	37	0	187695104	59	4874
2026-01-22 08:57:43.53	113.79	16.80	-43.8	-46.3	17.6	0.00e+00	0	37	0	188743680	59	4731
2026-01-22 08:57:45.22	113.58	16.97	-44.2	-46.9	17.2	0.00e+00	0	37	0	191889408	59	5049
2026-01-22 08:57:45.79	113.51	17.02	-44.0	-46.7	17.3	0.00e+00	0	37	0	192937984	59	4959
2026-01-22 08:57:47.50	113.29	17.19	-43.8	-46.3	17.6	0.00e+00	0	37	0	197132288	59	4752
2026-01-22 08:57:48.07	113.21	17.24	-43.7	-46.2	17.7	0.00e+00	0	37	0	198180864	59	4693
2026-01-22 08:57:49.85	112.98	17.41	-43.8	-46.3	17.7	0.00e+00	0	37	0	201326592	58	5040
2026-01-22 08:57:50.42	112.90	17.47	-43.8	-46.3	17.7	0.00e+00	0	37	0	202375168	58	5029
2026-01-22 08:57:52.13	112.68	17.64	-44.3	-47.1	17.0	0.00e+00	0	37	0	205520896	59	5189
2026-01-22 08:57:52.69	112.60	17.69	-44.7	-47.7	16.5	0.00e+00	0	37	0	206569472	60	5225
2026-01-22 08:57:54.48	112.36	17.87	-44.8	-47.8	16.4	0.00e+00	0	38	0	209715200	60	5297
2026-01-22 08:57:55.05	112.28	17.92	-44.7	-47.7	16.4	0.00e+00	0	37	0	210763776	60	5239
2026-01-22 08:57:56.75	112.05	18.09	-44.6	-47.4	16.7	0.00e+00	0	37	0	213909504	60	5051
2026-01-22 08:57:57.32	111.97	18.15	-44.5	-47.4	16.8	0.00e+00	0	37	0	214958080	60	5052
2026-01-22 08:57:59.11	111.72	18.33	-44.8	-47.8	16.4	0.00e+00	0	37	0	218103808	60	5288
2026-01-22 08:57:59.68	111.64	18.38	-44.9	-47.9	16.3	0.00e+00	0	37	0	219152384	60	5375
2026-01-22 08:58:01.67	111.36	18.58	-45.2	-48.3	15.8	0.00e+00	0	37	0	223346688	61	5335
2026-01-22 08:58:02.23	111.28	18.64	-45.1	-48.1	16.1	0.00e+00	0	37	0	224395264	61	5204
2026-01-22 08:58:03.94	111.03	18.81	-44.6	-47.4	16.7	0.00e+00	0	37	0	227540992	61	4799
2026-01-22 08:58:04.51	110.95	18.87	-44.4	-47.2	16.9	0.00e+00	0	38	0	228589568	60	4944
2026-01-22 08:58:06.22	110.70	19.04	-44.4	-47.1	17.0	0.00e+00	0	38	0	231735296	60	4919
2026-01-22 08:58:06.79	110.62	19.10	-44.6	-47.4	16.7	0.00e+00	0	38	0	232783872	60	5081
2026-01-22 08:58:08.49	110.37	19.27	-44.6	-47.4	16.8	0.00e+00	0	37	0	235929600	60	5054
2026-01-22 08:58:09.06	110.28	19.33	-44.6	-47.4	16.7	0.00e+00	0	37	0	236978176	60	5055
2026-01-22 08:58:10.94	110.00	19.52	-44.4	-47.1	17.0	0.00e+00	0	37	0	240123904	60	4905
2026-01-22 08:58:11.51	109.91	19.57	-44.3	-47.0	17.1	0.00e+00	0	37	0	241172480	60	4864
2026-01-22 08:58:13.20	109.65	19.75	-44.5	-47.4	16.9	0.00e+00	0	37	0	244318208	60	5047
2026-01-22 08:58:13.77	109.56	19.81	-44.4	-47.2	16.9	0.00e+00	0	38	0	245366784	60	4938
2026-01-22 08:58:15.57	109.28	19.99	-44.3	-47.1	17.0	0.00e+00	0	37	0	249561088	60	4891
2026-01-22 08:58:16.14	109.20	20.05	-44.3	-47.1	17.0	0.00e+00	0	37	0	250609664	60	4895
2026-01-22 08:58:18.14	108.88	20.26	-44.7	-47.7	16.6	0.00e+00	0	37	0	253755392	60	5235
2026-01-22 08:58:19.06	108.73	20.35	-44.5	-47.4	16.7	0.00e+00	0	38	0	255852544	60	5083
2026-01-22 08:58:20.05	108.57	20.45	-44.4	-47.2	16.9	0.00e+00	0	37	0	257949696	60	4968
2026-01-22 08:58:21.05	108.41	20.56	-44.3	-47.0	17.1	0.00e+00	0	37	0	260046848	60	4868
2026-01-22 08:58:22.05	108.25	20.66	-44.1	-46.8	17.4	0.00e+00	0	37	0	261095424	60	4710
2026-01-22 08:58:23.04	108.09	20.76	-44.1	-46.8	17.4	0.00e+00	0	37	0	263192576	60	4706
2026-01-22 08:58:24.03	107.92	20.87	-44.2	-47.0	17.2	0.00e+00	0	38	0	265289728	60	4819
2026-01-22 08:58:25.03	107.76	20.97	-44.3	-47.1	17.0	0.00e+00	0	38	0	267386880	60	4907
2026-01-22 08:58:26.02	107.59	21.08	-44.6	-47.5	16.6	0.00e+00	0	37	0	268435456	60	5156
2026-01-22 08:58:27.02	107.42	21.18	-44.6	-47.5	16.7	0.00e+00	0	37	0	270532608	60	5104
2026-01-22 08:58:28.01	107.25	21.28	-44.3	-47.0	17.1	0.00e+00	0	37	0	272629760	60	4853
2026-01-22 08:58:29.01	107.08	21.39	-44.5	-47.3	16.9	0.00e+00	0	38	0	274726912	60	4992
2026-01-22 08:58:30.00	106.91	21.49	-44.2	-46.9	17.2	0.00e+00	0	38	0	276824064	60	4787
2026-01-22 08:58:31.00	106.74	21.60	-44.6	-47.4	16.7	0.00e+00	0	37	0	277872640	60	5082
2026-01-22 08:58:31.99	106.57	21.70	-45.0	-48.0	16.2	0.00e+00	0	37	0	279969792	60	5411
2026-01-22 08:58:32.99	106.39	21.81	-45.0	-48.1	16.1	0.00e+00	0	38	0	282066944	60	5476
2026-01-22 08:58:33.98	106.22	21.92	-44.9	-47.9	16.3	0.00e+00	0	38	0	284164096	60	5358
2026-01-22 08:58:34.97	106.04	22.02	-44.7	-47.6	16.6	0.00e+00	0	38	0	285212672	61	4881
2026-01-22 08:58:35.97	105.86	22.13	-44.8	-47.6	16.6	0.00e+00	0	37	0	287309824	61	4911
2026-01-22 08:58:36.97	105.68	22.23	-45.3	-48.3	15.9	0.00e+00	0	37	0	289406976	61	5332
2026-01-22 08:58:37.96	105.50	22.34	-45.2	-48.3	16.0	0.00e+00	0	38	0	291504128	61	5281
2026-01-22 08:58:38.96	105.32	22.45	-45.1	-48.1	16.1	0.00e+00	0	37	0	293601280	61	5171
2026-01-22 08:58:39.95	105.14	22.55	-45.0	-48.0	16.2	0.00e+00	0	38	0	294649856	61	5114
2026-01-22 08:58:40.95	104.95	22.66	-44.9	-47.8	16.4	0.00e+00	0	38	0	296747008	61	5000
2026-01-22 08:58:41.94	104.77	22.76	-44.8	-47.6	16.6	0.00e+00	0	37	0	298844160	61	4889
2026-01-22 08:58:42.94	104.58	22.87	-44.8	-47.7	16.5	0.00e+00	0	37	0	300941312	61	4929
2026-01-22 08:58:43.93	104.39	22.98	-45.0	-47.9	16.3	0.00e+00	0	38	0	301989888	61	5092
2026-01-22 08:58:44.93	104.20	23.09	-44.8	-47.7	16.7	0.00e+00	0	38	0	304087040	61	4947
2026-01-22 08:58:45.92	104.01	23.19	-44.8	-47.7	16.5	0.00e+00	0	38	0	306184192	61	4958
2026-01-22 08:58:46.92	103.82	23.30	-44.4	-47.0	17.1	0.00e+00	0	38	0	308281344	60	4868
2026-01-22 08:58:47.91	103.62	23.41	-44.3	-46.9	17.2	0.00e+00	0	38	0	310378496	60	4790
2026-01-22 08:58:48.91	103.43	23.51	-44.4	-47.0	17.1	0.00e+00	0	38	0	311427072	60	4866
2026-01-22 08:58:49.98	103.22	23.63	-44.4	-47.1	17.1	0.00e+00	0	38	0	313524224	60	4889
2026-01-22 08:58:50.84	103.04	23.72	-44.5	-47.2	17.0	0.00e+00	0	38	0	315621376	60	4959
2026-01-22 08:58:51.97	102.82	23.84	-44.0	-46.6	17.5	0.00e+00	0	37	0	317718528	60	4613
2026-01-22 08:58:52.83	102.64	23.94	-43.8	-46.2	17.8	0.00e+00	0	37	0	318767104	59	4704
2026-01-22 08:58:53.97	102.41	24.06	-44.1	-46.7	17.4	0.00e+00	0	38	0	320864256	59	4947
2026-01-22 08:58:54.82	102.24	24.15	-44.4	-47.0	17.1	0.00e+00	0	38	0	322961408	59	5135
2026-01-22 08:58:55.95	102.01	24.28	-44.6	-47.4	16.8	0.00e+00	0	37	0	325058560	60	5080
2026-01-22 08:58:56.81	101.83	24.37	-44.7	-47.6	16.7	0.00e+00	0	38	0	326107136	60	5172
2026-01-22 08:58:57.95	101.59	24.49	-44.4	-47.0	17.1	0.00e+00	0	38	0	329252864	60	4844
2026-01-22 08:58:58.80	101.41	24.58	-44.2	-46.8	17.4	0.00e+00	0	38	0	330301440	60	4737
2026-01-22 08:58:59.93	101.17	24.71	-44.2	-46.8	17.4	0.00e+00	0	38	0	332398592	60	4708
2026-01-22 08:59:00.78	100.99	24.80	-44.6	-47.3	16.8	0.00e+00	0	38	0	334495744	60	5017
2026-01-22 08:59:01.99	100.73	24.93	-44.6	-47.4	16.9	0.00e+00	0	38	0	336592896	60	5059
2026-01-22 08:59:02.84	100.55	25.02	-44.4	-47.1	17.1	0.00e+00	0	38	0	337641472	60	4914
2026-01-22 08:59:04.07	100.28	25.16	-44.1	-46.7	17.4	0.00e+00	0	38	0	339738624	60	4700
2026-01-22 08:59:04.92	100.10	25.25	-44.0	-46.6	17.6	0.00e+00	0	37	0	341835776	60	4636
2026-01-22 08:59:06.06	99.84	25.37	-44.2	-46.8	17.3	0.00e+00	0	38	0	343932928	59	5033
2026-01-22 08:59:06.92	99.65	25.46	-44.3	-47.0	17.1	0.00e+00	0	38	0	346030080	59	5142
2026-01-22 08:59:08.05	99.40	25.59	-44.6	-47.5	16.7	0.00e+00	0	38	0	348127232	60	5131
2026-01-22 08:59:08.91	99.21	25.68	-44.6	-47.4	16.8	0.00e+00	0	38	0	349175808	60	5099
2026-01-22 08:59:10.05	98.95	25.80	-44.2	-46.8	17.4	0.00e+00	0	38	0	351272960	60	4735
2026-01-22 08:59:10.90	98.75	25.90	-44.1	-46.7	17.5	0.00e+00	0	38	0	353370112	60	4674
2026-01-22 08:59:12.04	98.49	26.02	-44.3	-46.9	17.2	0.00e+00	0	37	0	355467264	59	5077
2026-01-22 08:59:12.89	98.29	26.11	-44.5	-47.3	16.9	0.00e+00	0	38	0	356515840	59	5303
2026-01-22 08:59:14.03	98.03	26.23	-44.9	-47.8	16.4	0.00e+00	0	38	0	358612992	60	5332
2026-01-22 08:59:14.88	97.83	26.33	-45.1	-48.0	16.2	0.00e+00	0	38	0	360710144	60	5459
2026-01-22 08:59:16.01	97.56	26.45	-44.9	-47.8	16.4	0.00e+00	0	37	0	362807296	60	5312
2026-01-22 08:59:16.86	97.36	26.54	-45.0	-47.9	16.3	0.00e+00	0	38	0	363855872	60	5377
2026-01-22 08:59:18.00	97.09	26.66	-44.9	-47.8	16.4	0.00e+00	0	38	0	365953024	61	5041
2026-01-22 08:59:18.86	96.88	26.75	-44.9	-47.8	16.4	0.00e+00	0	38	0	368050176	61	5036
2026-01-22 08:59:19.99	96.60	26.87	-44.9	-47.8	16.5	0.00e+00	0	38	0	370147328	61	4991
2026-01-22 08:59:20.85	96.39	26.97	-44.5	-47.2	17.1	0.00e+00	0	37	0	371195904	60	4930
2026-01-22 08:59:21.98	96.12	27.09	-43.8	-46.3	17.8	0.00e+00	0	37	0	374341632	59	4732
2026-01-22 08:59:22.83	95.91	27.18	-43.6	-46.1	18.0	0.00e+00	0	38	0	375390208	59	4606
2026-01-22 08:59:23.97	95.62	27.30	-43.4	-45.7	18.3	0.00e+00	0	38	0	377487360	58	4695
2026-01-22 08:59:24.82	95.41	27.39	-43.3	-45.6	18.5	0.00e+00	0	38	0	379584512	58	4650
2026-01-22 08:59:25.95	95.12	27.51	-43.2	-45.6	18.5	0.00e+00	0	38	0	381681664	58	4610
2026-01-22 08:59:26.81	94.90	27.60	-43.3	-45.7	18.4	0.00e+00	0	38	0	382730240	58	4677
2026-01-22 08:59:27.94	94.61	27.72	-43.4	-45.8	18.3	0.00e+00	0	38	0	384827392	58	4711
2026-01-22 08:59:28.79	94.39	27.81	-43.8	-46.2	17.9	0.00e+00	0	38	0	386924544	58	4973
2026-01-22 08:59:29.93	94.10	27.93	-44.2	-46.8	17.4	0.00e+00	0	37	0	389021696	58	5305
2026-01-22 08:59:30.78	93.88	28.02	-44.1	-46.7	17.5	0.00e+00	0	38	0	390070272	59	4956
2026-01-22 08:59:31.92	93.58	28.14	-44.3	-47.0	17.2	0.00e+00	0	38	0	392167424	59	5144
2026-01-22 08:59:32.77	93.35	28.23	-44.0	-46.6	17.6	0.00e+00	0	37	0	394264576	59	4915
2026-01-22 08:59:33.91	93.05	28.35	-44.1	-46.8	17.4	0.00e+00	0	37	0	396361728	59	4996
2026-01-22 08:59:34.77	92.82	28.44	-44.5	-47.2	17.0	0.00e+00	0	37	0	397410304	59	5266
2026-01-22 08:59:36.08	92.46	28.57	-45.0	-47.9	16.3	0.00e+00	0	38	0	400556032	60	5402
2026-01-22 08:59:36.79	92.27	28.65	-45.4	-48.5	15.8	0.00e+00	0	38	0	401604608	61	5408
2026-01-22 08:59:38.24	91.87	28.79	-45.8	-49.2	15.3	0.00e+00	0	38	0	404750336	62	5535
2026-01-22 08:59:38.95	91.68	28.87	-46.0	-49.5	14.9	0.00e+00	0	38	0	405798912	62	5726
2026-01-22 08:59:40.30	91.30	29.01	-45.8	-49.1	15.3	0.00e+00	0	37	0	407896064	62	5523
2026-01-22 08:59:41.01	91.11	29.08	-45.9	-49.3	15.0	0.00e+00	0	38	0	408944640	62	5655
2026-01-22 08:59:42.29	90.75	29.21	-45.6	-48.9	15.5	0.00e+00	0	38	0	412090368	62	5346
2026-01-22 08:59:43.00	90.55	29.28	-45.3	-48.4	15.9	0.00e+00	0	38	0	413138944	62	5100
2026-01-22 08:59:44.28	90.18	29.41	-44.9	-47.8	16.5	0.00e+00	0	38	0	415236096	61	4993
2026-01-22 08:59:45.02	89.97	29.48	-45.0	-48.0	16.3	0.00e+00	0	37	0	417333248	61	5117
2026-01-22 08:59:46.30	89.60	29.61	-45.2	-48.3	16.0	0.00e+00	0	38	0	419430400	61	5307
2026-01-22 08:59:47.03	89.39	29.68	-45.6	-48.8	15.6	0.00e+00	0	38	0	420478976	61	5628
2026-01-22 08:59:48.31	89.02	29.81	-45.7	-49.0	15.4	0.00e+00	0	38	0	423624704	62	5418
2026-01-22 08:59:49.02	88.81	29.88	-45.3	-48.4	15.9	0.00e+00	0	38	0	424673280	62	5078
2026-01-22 08:59:50.30	88.43	30.00	-46.0	-49.4	15.0	0.00e+00	0	38	0	426770432	62	5689
2026-01-22 08:59:51.01	88.22	30.07	-46.4	-50.0	14.3	0.00e+00	0	37	0	427819008	63	5766
2026-01-22 08:59:52.29	87.84	30.19	-46.7	-50.8	13.6	3.00e-06	0	38	0	430964736	64	5973
2026-01-22 08:59:53.11	87.59	30.27	-46.5	-50.4	13.9	4.50e-06	0	38	0	432013312	64	5688
2026-01-22 08:59:54.25	87.24	30.38	-46.6	-51.3	13.0	1.90e-05	0	37	0	434110464	64	6324
2026-01-22 08:59:55.10	86.99	30.46	-46.6	-51.2	13.0	5.11e-05	0	37	0	436207616	64	6252
2026-01-22 08:59:56.24	86.64	30.57	-46.8	-51.7	12.4	7.47e-05	0	38	0	438304768	64	6609
2026-01-22 08:59:57.09	86.38	30.65	-47.1	-52.4	11.8	1.14e-04	0	37	0	439353344	64	7134
2026-01-22 08:59:58.22	86.03	30.75	-46.6	-51.2	12.9	3.81e-05	0	38	0	441450496	64	6257
2026-01-22 08:59:59.07	85.76	30.83	-46.4	-50.9	13.3	7.60e-06	0	38	0	443547648	64	6024
2026-01-22 09:00:00.21	85.40	30.94	-46.2	-50.5	13.6	1.75e-05	0	38	0	445644800	64	5787
2026-01-22 09:00:01.07	85.13	31.01	-46.1	-50.2	13.9	6.10e-06	0	38	0	446693376	63	5920
2026-01-22 09:00:02.20	84.77	31.12	-45.6	-49.3	14.8	0.00e+00	0	38	0	448790528	63	5324
2026-01-22 09:00:03.05	84.50	31.19	-45.8	-49.8	14.5	0.00e+00	0	37	0	450887680	63	5595
2026-01-22 09:00:04.19	84.14	31.29	-45.7	-49.7	14.6	0.00e+00	0	38	0	452984832	62	5858
2026-01-22 09:00:05.04	83.87	31.37	-45.7	-49.6	14.6	0.00e+00	0	38	0	454033408	62	5793
2026-01-22 09:00:06.18	83.50	31.47	-45.6	-49.3	14.8	0.00e+00	0	38	0	457179136	62	5654
2026-01-22 09:00:07.03	83.22	31.54	-45.7	-49.5	14.7	7.00e-07	0	38	0	458227712	62	5743
2026-01-22 09:00:08.17	82.85	31.64	-45.7	-49.6	14.6	1.50e-06	0	38	0	460324864	62	5828
2026-01-22 09:00:09.02	82.57	31.71	-45.6	-49.3	14.8	7.00e-07	0	38	0	462422016	62	5640
2026-01-22 09:00:10.16	82.19	31.81	-45.5	-49.3	14.9	7.00e-07	0	38	0	464519168	62	5630
2026-01-22 09:00:11.01	81.91	31.88	-45.4	-49.1	15.1	0.00e+00	0	38	0	465567744	62	5475
2026-01-22 09:00:12.14	81.53	31.97	-46.1	-50.4	13.8	3.80e-06	0	38	0	467664896	62	6386
2026-01-22 09:00:13.25	81.16	32.06	-46.6	-51.3	12.9	2.97e-05	0	38	0	469762048	63	6688
2026-01-22 09:00:14.10	80.87	32.13	-46.2	-50.7	13.4	2.36e-05	0	38	0	471859200	63	6229
2026-01-22 09:00:15.24	80.48	32.22	-46.2	-50.5	13.6	1.29e-05	0	38	0	473956352	63	6127
2026-01-22 09:00:16.10	80.19	32.29	-46.0	-50.4	13.8	6.80e-06	0	38	0	475004928	63	5994
2026-01-22 09:00:17.23	79.80	32.38	-45.6	-49.5	14.6	0.00e+00	0	38	0	477102080	63	5435
2026-01-22 09:00:18.09	79.51	32.44	-45.6	-49.5	14.9	7.00e-07	0	38	0	479199232	63	5405
2026-01-22 09:00:19.22	79.12	32.53	-46.0	-50.1	14.1	3.00e-06	0	38	0	481296384	63	5851
2026-01-22 09:00:20.07	78.82	32.59	-46.4	-50.8	13.5	9.90e-06	0	38	0	482344960	63	6280
2026-01-22 09:00:21.21	78.43	32.68	-46.1	-50.2	13.9	1.06e-05	0	38	0	484442112	63	5901
2026-01-22 09:00:22.07	78.12	32.74	-45.7	-49.5	14.6	7.00e-07	0	38	0	486539264	63	5453
2026-01-22 09:00:23.21	77.72	32.82	-45.4	-49.0	15.2	0.00e+00	0	38	0	488636416	62	5450
2026-01-22 09:00:24.06	77.42	32.88	-44.8	-48.0	16.0	0.00e+00	0	38	0	489684992	61	5146
2026-01-22 09:00:25.19	77.02	32.96	-44.5	-47.6	16.5	0.00e+00	0	38	0	492830720	61	4900
2026-01-22 09:00:26.05	76.71	33.02	-44.3	-47.3	16.8	0.00e+00	0	37	0	493879296	60	4998
2026-01-22 09:00:27.18	76.31	33.09	-44.0	-46.9	17.1	0.00e+00	0	38	0	495976448	59	5096
2026-01-22 09:00:28.15	75.96	33.16	-43.9	-46.8	17.2	0.00e+00	0	38	0	498073600	59	5005
2026-01-22 09:00:29.33	75.53	33.23	-43.9	-46.8	17.3	0.00e+00	0	38	0	500170752	59	4990
2026-01-22 09:00:30.21	75.22	33.29	-43.7	-46.5	17.5	0.00e+00	0	38	0	501219328	59	4839
2026-01-22 09:00:31.52	74.74	33.37	-43.8	-46.6	17.3	0.00e+00	0	38	0	504365056	59	4882
2026-01-22 09:00:32.23	74.48	33.42	-43.7	-46.4	17.6	0.00e+00	0	38	0	505413632	59	4794
2026-01-22 09:00:33.51	74.01	33.49	-43.9	-46.7	17.4	0.00e+00	0	38	0	507510784	59	4950
2026-01-22 09:00:34.25	73.74	33.54	-44.4	-47.4	16.7	0.00e+00	0	38	0	509607936	59	5356
2026-01-22 09:00:35.53	73.26	33.61	-45.1	-48.5	15.8	0.00e+00	0	38	0	511705088	60	5746
2026-01-22 09:00:36.24	73.00	33.65	-45.1	-48.6	15.6	0.00e+00	0	38	0	512753664	61	5495
2026-01-22 09:00:37.52	72.52	33.72	-45.0	-48.4	15.8	0.00e+00	0	38	0	515899392	61	5370
2026-01-22 09:00:38.25	72.25	33.76	-44.8	-48.0	16.1	0.00e+00	0	38	0	516947968	61	5148
2026-01-22 09:00:39.84	71.66	33.84	-44.0	-46.9	17.2	0.00e+00	0	37	0	520093696	60	4762
2026-01-22 09:00:40.42	71.44	33.87	-43.8	-46.4	17.6	0.00e+00	0	38	0	521142272	59	4807
2026-01-22 09:00:41.99	70.84	33.95	-43.7	-46.3	17.7	0.00e+00	0	38	0	524288000	59	4744
2026-01-22 09:00:42.62	70.61	33.98	-43.9	-46.6	17.4	0.00e+00	0	38	0	525336576	59	4894
2026-01-22 09:00:44.18	70.01	34.05	-44.1	-46.9	17.2	0.00e+00	0	38	0	527433728	59	5051
2026-01-22 09:00:44.83	69.77	34.08	-44.0	-46.8	17.3	0.00e+00	0	38	0	529530880	59	4985
2026-01-22 09:00:46.25	69.22	34.14	-43.9	-46.5	17.5	0.00e+00	0	38	0	531628032	59	4863
2026-01-22 09:00:46.96	68.95	34.17	-43.8	-46.5	17.6	0.00e+00	0	38	0	532676608	59	4831
2026-01-22 09:00:48.24	68.46	34.23	-44.8	-47.9	16.3	0.00e+00	0	38	0	535822336	60	5385
2026-01-22 09:00:49.09	68.13	34.26	-45.2	-48.5	15.7	0.00e+00	0	38	0	536870912	61	5442
2026-01-22 09:00:50.22	67.70	34.30	-44.8	-48.0	16.1	0.00e+00	0	38	0	538968064	61	5119
2026-01-22 09:00:51.08	67.36	34.33	-44.6	-47.7	16.5	0.00e+00	0	38	0	541065216	61	4976
2026-01-22 09:00:52.58	66.78	34.38	-44.2	-47.0	17.2	0.00e+00	0	38	0	543162368	60	4846
2026-01-22 09:00:53.29	66.51	34.41	-44.1	-46.9	17.2	0.00e+00	0	38	0	545259520	60	4812
2026-01-22 09:00:54.57	66.01	34.45	-44.5	-47.5	16.7	0.00e+00	0	38	0	547356672	60	5138
2026-01-22 09:00:55.29	65.73	34.47	-44.8	-47.9	16.4	0.00e+00	0	38	0	548405248	60	5351
2026-01-22 09:00:56.57	65.23	34.51	-44.5	-47.5	16.8	0.00e+00	0	38	0	551550976	60	5131
2026-01-22 09:00:57.28	64.95	34.53	-44.6	-47.5	16.7	0.00e+00	0	38	0	552599552	60	5142
2026-01-22 09:00:58.57	64.44	34.56	-44.5	-47.4	16.8	0.00e+00	0	38	0	554696704	60	5069
2026-01-22 09:00:59.29	64.16	34.58	-44.4	-47.3	16.9	0.00e+00	0	38	0	555745280	60	4987
2026-01-22 09:01:00.57	63.66	34.60	-44.1	-46.9	17.3	0.00e+00	0	38	0	558891008	60	4775
2026-01-22 09:01:01.28	63.38	34.62	-44.0	-46.7	17.4	0.00e+00	0	38	0	559939584	59	4964
2026-01-22 09:01:02.56	62.87	34.64	-44.1	-46.9	17.3	0.00e+00	0	38	0	562036736	59	5046
2026-01-22 09:01:03.29	62.58	34.66	-44.5	-47.3	16.9	0.00e+00	0	38	0	564133888	59	5328
2026-01-22 09:01:04.57	62.08	34.68	-44.6	-47.5	16.8	0.00e+00	0	38	0	566231040	60	5114
2026-01-22 09:01:05.29	61.79	34.69	-44.5	-47.3	16.9	0.00e+00	0	38	0	567279616	60	5030
2026-01-22 09:01:06.66	61.25	34.71	-44.9	-47.9	16.4	0.00e+00	0	38	0	570425344	60	5364
2026-01-22 09:01:07.37	60.97	34.72	-44.9	-47.9	16.3	0.00e+00	0	38	0	571473920	60	5396
2026-01-22 09:01:08.65	60.46	34.73	-45.1	-48.2	16.0	0.00e+00	0	38	0	573571072	60	5586
2026-01-22 09:01:09.36	60.18	34.74	-44.9	-48.0	16.3	0.00e+00	0	38	0	574619648	61	5110
2026-01-22 09:01:10.75	59.63	34.74	-44.5	-47.4	16.8	0.00e+00	0	38	0	577765376	61	4810
2026-01-22 09:01:11.46	59.35	34.75	-44.5	-47.5	16.8	0.00e+00	0	38	0	578813952	60	5125
2026-01-22 09:01:12.74	58.84	34.75	-45.0	-48.3	15.9	0.00e+00	0	38	0	581959680	60	5612
2026-01-22 09:01:13.47	58.55	34.75	-45.1	-48.3	15.9	0.00e+00	0	38	0	583008256	60	5654
2026-01-22 09:01:14.75	58.04	34.76	-44.6	-47.5	16.7	0.00e+00	0	38	0	585105408	60	5149
2026-01-22 09:01:15.48	57.75	34.75	-44.5	-47.4	16.9	0.00e+00	0	38	0	586153984	60	5054
2026-01-22 09:01:16.75	57.25	34.75	-45.1	-48.3	15.9	0.00e+00	0	38	0	589299712	60	5644
2026-01-22 09:01:17.49	56.95	34.75	-45.1	-48.4	15.8	0.00e+00	0	38	0	590348288	60	5685
2026-01-22 09:01:18.77	56.45	34.74	-45.3	-48.7	15.5	0.00e+00	0	38	0	592445440	61	5577
2026-01-22 09:01:19.51	56.15	34.74	-45.0	-48.3	15.8	0.00e+00	0	38	0	594542592	61	5308
2026-01-22 09:01:20.79	55.64	34.72	-44.8	-47.9	16.2	0.00e+00	0	38	0	596639744	61	5095
2026-01-22 09:01:21.52	55.35	34.72	-44.6	-47.8	16.5	0.00e+00	0	38	0	597688320	61	4999
2026-01-22 09:01:22.80	54.85	34.70	-44.1	-47.0	17.1	0.00e+00	0	38	0	600834048	60	4820
2026-01-22 09:01:23.52	54.56	34.69	-44.0	-46.8	17.3	0.00e+00	0	38	0	601882624	59	5009
2026-01-22 09:01:24.80	54.06	34.67	-44.9	-48.1	16.0	0.00e+00	0	38	0	603979776	60	5514
2026-01-22 09:01:25.51	53.78	34.66	-45.2	-48.6	15.5	0.00e+00	0	38	0	605028352	61	5495
2026-01-22 09:01:26.79	53.27	34.64	-45.8	-49.7	14.6	0.00e+00	0	38	0	608174080	62	5883
2026-01-22 09:01:27.51	52.99	34.62	-45.7	-49.5	14.8	0.00e+00	0	38	0	609222656	62	5758
2026-01-22 09:01:28.79	52.48	34.60	-45.4	-49.0	15.2	0.00e+00	0	38	0	611319808	62	5439
2026-01-22 09:01:29.51	52.20	34.58	-45.2	-48.6	15.6	0.00e+00	0	38	0	612368384	62	5193
2026-01-22 09:01:30.79	51.70	34.55	-45.0	-48.3	15.9	0.00e+00	0	38	0	615514112	61	5291
2026-01-22 09:01:31.52	51.41	34.53	-44.3	-47.3	16.8	0.00e+00	0	38	0	616562688	60	4990
2026-01-22 09:01:32.80	50.91	34.50	-44.2	-47.2	16.8	0.00e+00	0	38	0	618659840	60	4953
2026-01-22 09:01:33.51	50.64	34.47	-44.5	-47.6	16.6	0.00e+00	0	38	0	620756992	60	5185
2026-01-22 09:01:34.79	50.14	34.44	-45.1	-48.4	15.8	0.00e+00	0	38	0	622854144	60	5706
2026-01-22 09:01:35.52	49.85	34.41	-45.1	-48.4	15.7	0.00e+00	0	38	0	623902720	61	5383
2026-01-22 09:01:36.80	49.36	34.37	-45.1	-48.5	15.7	0.00e+00	0	38	0	627048448	61	5462
2026-01-22 09:01:37.57	49.06	34.34	-45.1	-48.5	15.7	0.00e+00	0	38	0	628097024	61	5419
2026-01-22 09:01:38.85	48.56	34.30	-44.9	-48.3	15.8	0.00e+00	0	38	0	630194176	61	5284
2026-01-22 09:01:39.58	48.28	34.27	-44.8	-48.0	16.1	0.00e+00	0	38	0	631242752	61	5156
2026-01-22 09:01:40.85	47.79	34.22	-44.6	-47.7	16.4	0.00e+00	0	38	0	634388480	61	4976
2026-01-22 09:01:41.59	47.51	34.19	-44.5	-47.7	16.4	0.00e+00	0	38	0	635437056	60	5234
2026-01-22 09:01:42.87	47.02	34.14	-44.1	-47.0	17.1	0.00e+00	0	38	0	637534208	60	4842
2026-01-22 09:01:43.58	46.75	34.11	-43.8	-46.6	17.3	0.00e+00	0	38	0	639631360	59	4898
2026-01-22 09:01:44.86	46.26	34.05	-44.6	-47.8	16.3	0.00e+00	0	38	0	641728512	59	5606
2026-01-22 09:01:45.57	45.99	34.02	-44.7	-48.0	16.1	0.00e+00	0	38	0	642777088	60	5424
2026-01-22 09:01:46.85	45.51	33.96	-44.9	-48.2	15.9	0.00e+00	0	38	0	645922816	60	5567
2026-01-22 09:01:47.58	45.23	33.92	-44.5	-47.6	16.5	0.00e+00	0	38	0	646971392	60	5200
2026-01-22 09:01:48.86	44.75	33.86	-44.4	-47.5	16.7	0.00e+00	0	38	0	649068544	60	5128
2026-01-22 09:01:49.57	44.48	33.82	-44.2	-47.2	16.9	0.00e+00	0	38	0	650117120	60	4940
2026-01-22 09:01:50.85	44.01	33.75	-44.1	-47.1	17.0	0.00e+00	0	38	0	653262848	60	4905
2026-01-22 09:01:51.56	43.74	33.72	-43.7	-46.5	17.6	0.00e+00	0	38	0	654311424	59	4815
2026-01-22 09:01:52.84	43.27	33.65	-43.9	-46.7	17.2	0.00e+00	0	38	0	656408576	59	4979
2026-01-22 09:01:53.56	43.00	33.60	-44.0	-46.9	17.1	0.00e+00	0	38	0	657457152	59	5078
2026-01-22 09:01:54.84	42.53	33.53	-44.9	-48.2	16.0	0.00e+00	0	38	0	660602880	60	5573
2026-01-22 09:01:55.56	42.26	33.49	-45.3	-48.9	15.4	0.00e+00	0	38	0	661651456	61	5667
2026-01-22 09:01:56.83	41.80	33.41	-46.0	-50.2	14.3	0.00e+00	0	38	0	663748608	62	6210
2026-01-22 09:01:57.55	41.54	33.37	-45.7	-49.4	14.9	7.00e-07	0	38	0	665845760	62	5703
2026-01-22 09:01:58.83	41.07	33.29	-45.0	-48.3	15.9	0.00e+00	0	38	0	667942912	62	5026
2026-01-22 09:01:59.55	40.81	33.24	-44.4	-47.4	16.8	0.00e+00	0	38	0	668991488	60	5079
2026-01-22 09:02:00.83	40.35	33.16	-44.2	-47.0	17.1	0.00e+00	0	38	0	672137216	60	4857
2026-01-22 09:02:01.70	40.04	33.10	-44.3	-47.2	16.9	0.00e+00	0	38	0	673185792	60	4976
2026-01-22 09:02:02.84	39.63	33.03	-44.5	-47.6	16.6	0.00e+00	0	38	0	675282944	60	5179
2026-01-22 09:02:03.69	39.33	32.97	-44.5	-47.5	16.6	0.00e+00	0	38	0	677380096	60	5148
2026-01-22 09:02:04.83	38.92	32.89	-45.2	-48.6	15.6	0.00e+00	0	38	0	679477248	60	5801
2026-01-22 09:02:05.68	38.62	32.83	-45.4	-48.8	15.3	0.00e+00	0	38	0	680525824	61	5644
2026-01-22 09:02:06.82	38.22	32.75	-45.8	-49.6	14.6	0.00e+00	0	38	0	682622976	62	5836
2026-01-22 09:02:07.67	37.93	32.69	-46.0	-50.1	14.1	1.50e-06	0	38	0	684720128	62	6164
2026-01-22 09:02:08.89	37.50	32.60	-46.4	-50.8	13.4	1.06e-05	0	38	0	686817280	63	6332
2026-01-22 09:02:09.74	37.21	32.53	-46.4	-50.8	13.5	9.10e-06	0	38	0	687865856	63	6283
2026-01-22 09:02:10.88	36.81	32.45	-46.2	-50.3	13.9	9.90e-06	0	38	0	689963008	63	5972
2026-01-22 09:02:11.73	36.52	32.38	-46.2	-50.3	14.0	0.00e+00	0	38	0	692060160	63	5963
2026-01-22 09:02:12.87	36.13	32.29	-45.9	-49.8	14.3	1.50e-06	0	38	0	694157312	63	5644
2026-01-22 09:02:13.72	35.84	32.23	-46.1	-50.2	14.0	2.20e-06	0	38	0	696254464	63	5902
2026-01-22 09:02:15.08	35.38	32.12	-46.3	-50.7	13.5	6.80e-06	0	38	0	698351616	63	6221
2026-01-22 09:02:15.79	35.15	32.06	-46.4	-50.8	13.3	1.37e-05	0	38	0	699400192	63	6342
2026-01-22 09:02:17.27	34.65	31.94	-45.6	-49.3	14.8	0.00e+00	0	38	0	702545920	63	5322
2026-01-22 09:02:17.98	34.41	31.88	-45.2	-48.7	15.5	0.00e+00	0	38	0	703594496	62	5219
2026-01-22 09:02:19.26	33.99	31.78	-44.8	-48.1	16.1	0.00e+00	0	38	0	705691648	61	5191
2026-01-22 09:02:20.00	33.75	31.71	-44.8	-48.1	16.1	0.00e+00	0	38	0	707788800	61	5160
2026-01-22 09:02:21.28	33.33	31.61	-44.7	-48.0	16.1	0.00e+00	0	38	0	709885952	61	5108
2026-01-22 09:02:21.99	33.10	31.55	-44.3	-47.3	16.8	0.00e+00	0	38	0	710934528	60	5010
2026-01-22 09:02:23.27	32.68	31.43	-43.9	-46.7	17.3	0.00e+00	0	38	0	714080256	59	4964
2026-01-22 09:02:23.98	32.45	31.37	-43.9	-46.7	17.4	0.00e+00	0	38	0	715128832	59	4942
2026-01-22 09:02:25.26	32.04	31.26	-44.3	-47.3	16.8	0.00e+00	0	38	0	717225984	59	5333
2026-01-22 09:02:25.98	31.81	31.20	-45.0	-48.4	15.8	0.00e+00	0	38	0	719323136	60	5666
2026-01-22 09:02:27.26	31.41	31.08	-45.8	-49.7	14.6	0.00e+00	0	38	0	721420288	62	5862
2026-01-22 09:02:27.97	31.19	31.02	-45.9	-50.0	14.3	0.00e+00	0	38	0	722468864	62	6074
2026-01-22 09:02:29.25	30.78	30.90	-45.5	-49.3	14.9	0.00e+00	0	38	0	724566016	62	5604
2026-01-22 09:02:30.09	30.52	30.83	-45.1	-48.6	15.6	0.00e+00	0	38	0	726663168	62	5164
2026-01-22 09:02:31.53	30.08	30.69	-44.3	-47.4	16.8	0.00e+00	0	38	0	728760320	60	5054
2026-01-22 09:02:32.24	29.86	30.63	-44.2	-47.2	16.9	0.00e+00	0	38	0	730857472	60	4982
2026-01-22 09:02:33.74	29.40	30.49	-44.4	-47.5	16.7	0.00e+00	0	38	0	732954624	60	5139
2026-01-22 09:02:34.45	29.18	30.42	-44.9	-48.2	16.0	0.00e+00	0	37	0	735051776	60	5560
2026-01-22 09:02:35.73	28.80	30.30	-46.1	-50.2	14.1	0.00e+00	0	38	0	737148928	62	6257
2026-01-22 09:02:36.80	28.48	30.20	-46.4	-50.6	13.6	5.30e-06	0	38	0	739246080	63	6196
2026-01-22 09:02:37.65	28.22	30.11	-46.0	-50.0	14.3	3.00e-06	0	38	0	740294656	63	5740
2026-01-22 09:02:38.79	27.89	30.00	-45.8	-49.6	14.7	0.00e+00	0	38	0	742391808	63	5485
2026-01-22 09:02:39.64	27.64	29.92	-45.9	-49.8	14.5	0.00e+00	0	38	0	744488960	63	5618
2026-01-22 09:02:40.78	27.30	29.81	-45.4	-49.0	15.2	0.00e+00	0	38	0	746586112	62	5443
2026-01-22 09:02:41.63	27.06	29.73	-45.2	-48.8	15.5	0.00e+00	0	38	0	748683264	62	5299
2026-01-22 09:02:42.88	26.69	29.60	-45.5	-49.1	15.2	0.00e+00	0	38	0	750780416	62	5521
2026-01-22 09:02:43.74	26.45	29.52	-45.5	-49.1	15.2	0.00e+00	0	38	0	751828992	62	5511
2026-01-22 09:02:44.87	26.13	29.41	-45.6	-49.3	14.9	0.00e+00	0	38	0	753926144	62	5602
2026-01-22 09:02:45.72	25.88	29.32	-46.0	-49.9	14.4	7.00e-07	0	38	0	756023296	62	6023
2026-01-22 09:02:47.00	25.52	29.19	-46.4	-50.5	13.8	4.50e-06	0	38	0	758120448	63	6066
2026-01-22 09:02:47.71	25.33	29.12	-46.5	-50.7	13.6	3.00e-06	0	38	0	759169024	63	6244
2026-01-22 09:02:48.99	24.97	28.99	-45.7	-49.2	15.1	7.00e-07	0	38	0	762314752	63	5248
2026-01-22 09:02:49.72	24.77	28.92	-45.4	-48.8	15.5	0.00e+00	0	38	0	763363328	62	5301
2026-01-22 09:02:51.00	24.42	28.79	-45.0	-48.2	16.0	0.00e+00	0	38	0	765460480	62	4960
2026-01-22 09:02:51.71	24.22	28.71	-45.0	-48.2	16.0	0.00e+00	0	38	0	766509056	61	5228
2026-01-22 09:02:52.99	23.88	28.58	-45.0	-48.2	16.0	0.00e+00	0	38	0	769654784	61	5237
2026-01-22 09:02:53.72	23.68	28.51	-45.2	-48.5	15.7	0.00e+00	0	38	0	770703360	61	5462
2026-01-22 09:02:55.00	23.34	28.37	-45.2	-48.5	15.7	0.00e+00	0	38	0	772800512	61	5433
2026-01-22 09:02:55.72	23.15	28.30	-45.4	-48.9	15.4	0.00e+00	0	38	0	774897664	61	5673
2026-01-22 09:02:57.00	22.81	28.17	-45.5	-49.0	15.3	0.00e+00	0	38	0	776994816	61	5784
2026-01-22 09:02:57.73	22.62	28.09	-45.3	-48.7	15.6	0.00e+00	0	38	0	778043392	61	5530
2026-01-22 09:02:59.01	22.28	27.96	-44.4	-47.4	16.8	0.00e+00	0	38	0	781189120	60	5043
2026-01-22 09:02:59.73	22.10	27.88	-44.2	-47.1	17.1	0.00e+00	0	38	0	782237696	60	4891
2026-01-22 09:03:01.01	21.77	27.75	-43.8	-46.5	17.6	0.00e+00	0	38	0	784334848	59	4821
2026-01-22 09:03:01.74	21.58	27.67	-43.5	-46.1	18.0	0.00e+00	0	37	0	785383424	58	4919
2026-01-22 09:03:03.18	21.22	27.52	-43.7	-46.4	17.8	0.00e+00	0	38	0	788529152	58	5082
2026-01-22 09:03:03.89	21.04	27.44	-43.7	-46.5	17.6	0.00e+00	0	38	0	789577728	58	5111
2026-01-22 09:03:05.17	20.72	27.31	-44.0	-46.8	17.3	0.00e+00	0	38	0	792723456	58	5316
2026-01-22 09:03:05.89	20.54	27.23	-44.2	-47.1	17.1	0.00e+00	0	38	0	793772032	59	5175
2026-01-22 09:03:07.27	20.20	27.08	-43.9	-46.7	17.4	0.00e+00	0	38	0	795869184	59	4972
2026-01-22 09:03:07.98	20.02	27.01	-43.8	-46.6	17.5	0.00e+00	0	38	0	797966336	59	4871
2026-01-22 09:03:09.26	19.71	26.87	-43.5	-46.1	17.9	0.00e+00	0	38	0	800063488	58	4926
2026-01-22 09:03:09.97	19.54	26.80	-43.3	-45.8	18.2	0.00e+00	0	37	0	801112064	58	4745
2026-01-22 09:03:11.25	19.23	26.66	-43.0	-45.5	18.5	0.00e+00	0	38	0	803209216	58	4584
2026-01-22 09:03:11.97	19.06	26.58	-43.1	-45.6	18.4	0.00e+00	0	38	0	805306368	58	4610
2026-01-22 09:03:13.25	18.76	26.45	-43.1	-45.6	18.4	0.00e+00	0	38	0	807403520	58	4635
2026-01-22 09:03:13.97	18.59	26.37	-43.5	-46.1	18.0	0.00e+00	0	38	0	808452096	58	4899
2026-01-22 09:03:15.24	18.29	26.23	-44.0	-46.8	17.4	0.00e+00	0	38	0	811597824	58	5282
2026-01-22 09:03:15.96	18.13	26.15	-44.3	-47.2	17.0	0.00e+00	0	38	0	812646400	59	5273
2026-01-22 09:03:17.23	17.83	26.02	-44.0	-46.9	17.3	0.00e+00	0	38	0	814743552	59	5057
2026-01-22 09:03:17.96	17.67	25.94	-43.9	-46.6	17.5	0.00e+00	0	38	0	815792128	59	4920
2026-01-22 09:03:19.24	17.38	25.80	-43.5	-46.1	18.0	0.00e+00	0	38	0	818937856	58	4898
2026-01-22 09:03:19.95	17.22	25.73	-43.2	-45.8	18.3	0.00e+00	0	38	0	819986432	58	4728
2026-01-22 09:03:21.23	16.93	25.59	-43.0	-45.5	18.6	0.00e+00	0	38	0	822083584	57	4822
2026-01-22 09:03:21.94	16.77	25.51	-43.0	-45.4	18.6	0.00e+00	0	38	0	824180736	57	4792
2026-01-22 09:03:23.25	16.48	25.37	-42.9	-45.4	18.6	0.00e+00	0	38	0	826277888	57	4784
2026-01-22 09:03:23.96	16.33	25.29	-43.0	-45.5	18.6	0.00e+00	0	37	0	827326464	57	4831
2026-01-22 09:03:25.24	16.05	25.15	-43.0	-45.5	18.5	0.00e+00	0	38	0	829423616	57	4868
2026-01-22 09:03:25.95	15.89	25.08	-43.1	-45.7	18.4	0.00e+00	0	38	0	831520768	57	4937
2026-01-22 09:03:27.25	15.61	24.94	-43.0	-45.6	18.4	0.00e+00	0	38	0	833617920	57	4882
2026-01-22 09:03:27.96	15.46	24.86	-42.9	-45.5	18.6	0.00e+00	0	38	0	834666496	57	4816
2026-01-22 09:03:29.24	15.19	24.72	-43.2	-45.8	18.3	0.00e+00	0	38	0	837812224	57	4994
2026-01-22 09:03:29.98	15.04	24.64	-43.2	-45.8	18.2	0.00e+00	0	38	0	838860800	57	5019
2026-01-22 09:03:31.26	14.77	24.51	-43.0	-45.5	18.5	0.00e+00	0	38	0	840957952	57	4815
2026-01-22 09:03:31.98	14.62	24.43	-42.7	-45.0	18.9	0.00e+00	0	38	0	843055104	57	4594
2026-01-22 09:03:33.26	14.35	24.29	-42.8	-45.2	18.7	0.00e+00	0	38	0	845152256	57	4699
2026-01-22 09:03:33.97	14.21	24.21	-42.8	-45.2	18.7	0.00e+00	0	38	0	846200832	57	4702
2026-01-22 09:03:35.25	13.95	24.08	-42.9	-45.3	18.6	0.00e+00	0	38	0	848297984	57	4755
2026-01-22 09:03:36.08	13.78	23.99	-43.0	-45.5	18.5	0.00e+00	0	38	0	850395136	57	4851
2026-01-22 09:03:37.52	13.49	23.83	-43.4	-46.0	18.1	0.00e+00	0	38	0	852492288	57	5104
2026-01-22 09:03:38.23	13.35	23.75	-43.1	-45.6	18.4	0.00e+00	0	38	0	854589440	57	4920
2026-01-22 09:03:39.51	13.10	23.62	-43.5	-46.1	17.9	0.00e+00	0	38	0	856686592	57	5191
2026-01-22 09:03:40.24	12.96	23.54	-43.3	-45.8	18.3	0.00e+00	0	38	0	857735168	57	5034
2026-01-22 09:03:41.52	12.71	23.40	-43.2	-45.7	18.3	0.00e+00	0	38	0	860880896	57	4971
2026-01-22 09:03:42.23	12.57	23.33	-43.3	-45.8	18.2	0.00e+00	0	38	0	861929472	57	5036
2026-01-22 09:03:43.51	12.32	23.19	-43.7	-46.4	17.8	0.00e+00	0	38	0	864026624	57	5342
2026-01-22 09:03:44.22	12.19	23.11	-44.0	-46.7	17.4	0.00e+00	0	37	0	865075200	58	5252
2026-01-22 09:03:45.50	11.95	22.98	-44.2	-47.0	17.2	0.00e+00	0	38	0	868220928	59	5123
2026-01-22 09:03:46.21	11.81	22.90	-44.4	-47.2	16.8	0.00e+00	0	38	0	869269504	59	5276
2026-01-22 09:03:47.49	11.57	22.76	-44.5	-47.4	16.8	0.00e+00	0	38	0	871366656	60	5094
2026-01-22 09:03:48.20	11.44	22.69	-44.6	-47.6	16.7	0.00e+00	0	38	0	873463808	60	5175
2026-01-22 09:03:49.49	11.21	22.55	-44.2	-46.9	17.3	0.00e+00	0	38	0	875560960	60	4813
2026-01-22 09:03:50.20	11.08	22.47	-44.5	-47.4	16.8	0.00e+00	0	38	0	876609536	60	5050
2026-01-22 09:03:51.60	10.82	22.33	-44.2	-47.0	17.2	0.00e+00	0	38	0	879755264	60	4842
2026-01-22 09:03:52.56	10.65	22.22	-44.2	-47.1	17.1	0.00e+00	0	38	0	880803840	60	4904
2026-01-22 09:03:53.56	10.47	22.12	-44.5	-47.6	16.7	0.00e+00	0	38	0	882900992	60	5167
2026-01-22 09:03:54.55	10.29	22.01	-44.6	-47.9	16.4	0.00e+00	0	38	0	884998144	60	5346
2026-01-22 09:03:55.55	10.12	21.91	-44.5	-47.8	16.4	0.00e+00	0	38	0	887095296	60	5315
2026-01-22 09:03:56.54	9.95	21.80	-44.5	-47.8	16.4	0.00e+00	0	38	0	888143872	60	5332
2026-01-22 09:03:57.54	9.77	21.70	-44.7	-48.1	16.2	0.00e+00	0	38	0	890241024	60	5507
2026-01-22 09:03:58.53	9.60	21.59	-44.6	-47.8	16.5	0.00e+00	0	38	0	892338176	60	5293
2026-01-22 09:03:59.53	9.43	21.49	-44.7	-48.0	16.2	0.00e+00	0	38	0	894435328	60	5418
2026-01-22 09:04:00.52	9.26	21.39	-44.7	-47.9	16.3	0.00e+00	0	38	0	895483904	60	5377
2026-01-22 09:04:01.52	9.09	21.28	-44.9	-48.3	16.0	0.00e+00	0	38	0	897581056	60	5617
2026-01-22 09:04:02.51	8.92	21.18	-44.8	-48.2	16.0	0.00e+00	0	38	0	899678208	60	5550
2026-01-22 09:04:03.51	8.76	21.07	-44.9	-48.4	15.9	0.00e+00	0	38	0	901775360	60	5683
2026-01-22 09:04:04.50	8.59	20.97	-44.7	-48.2	16.0	0.00e+00	0	38	0	903872512	60	5569
2026-01-22 09:04:05.50	8.43	20.87	-44.4	-47.8	16.4	0.00e+00	0	38	0	904921088	60	5325
2026-01-22 09:04:06.50	8.27	20.76	-44.0	-47.1	17.0	0.00e+00	0	38	0	907018240	60	4914
2026-01-22 09:04:07.49	8.11	20.66	-43.7	-46.6	17.5	0.00e+00	0	38	0	909115392	59	4875
2026-01-22 09:04:08.48	7.95	20.56	-43.6	-46.4	17.7	0.00e+00	0	38	0	911212544	59	4768
2026-01-22 09:04:09.48	7.79	20.45	-43.4	-46.1	18.0	0.00e+00	0	38	0	913309696	58	4886
2026-01-22 09:04:10.47	7.63	20.35	-43.6	-46.3	17.8	0.00e+00	0	38	0	914358272	58	5021
2026-01-22 09:04:11.47	7.47	20.25	-43.6	-46.3	17.8	0.00e+00	0	38	0	916455424	58	5024
2026-01-22 09:04:12.46	7.31	20.15	-43.8	-46.6	17.5	0.00e+00	0	38	0	918552576	58	5216
2026-01-22 09:04:13.46	7.16	20.05	-44.0	-46.9	17.2	0.00e+00	0	38	0	920649728	58	5386
2026-01-22 09:04:14.48	7.00	19.94	-44.1	-47.1	17.0	0.00e+00	0	38	0	922746880	58	5528
2026-01-22 09:04:15.48	6.85	19.84	-43.9	-46.9	17.2	0.00e+00	0	38	0	923795456	58	5396
2026-01-22 09:04:16.47	6.70	19.74	-43.5	-46.4	17.6	0.00e+00	0	38	0	925892608	58	5086
2026-01-22 09:04:17.54	6.53	19.63	-43.4	-46.2	17.8	0.00e+00	0	38	0	927989760	58	4960
2026-01-22 09:04:18.40	6.40	19.54	-43.0	-45.7	18.4	0.00e+00	0	38	0	930086912	58	4671
2026-01-22 09:04:19.54	6.23	19.43	-43.1	-45.7	18.3	0.00e+00	0	38	0	932184064	58	4665
2026-01-22 09:04:20.39	6.11	19.34	-43.1	-45.7	18.3	0.00e+00	0	38	0	933232640	58	4669
2026-01-22 09:04:21.53	5.94	19.23	-43.1	-45.7	18.3	0.00e+00	0	38	0	935329792	57	4945
2026-01-22 09:04:22.38	5.81	19.14	-43.1	-45.6	18.4	0.00e+00	0	38	0	937426944	57	4919
2026-01-22 09:04:23.52	5.65	19.03	-43.2	-45.8	18.1	0.00e+00	0	38	0	939524096	57	5024
2026-01-22 09:04:24.37	5.53	18.94	-43.7	-46.4	17.6	0.00e+00	0	38	0	940572672	58	5098
2026-01-22 09:04:25.50	5.36	18.83	-43.9	-46.9	17.3	0.00e+00	0	38	0	942669824	58	5343
2026-01-22 09:04:26.36	5.24	18.74	-44.2	-47.3	16.8	0.00e+00	0	38	0	944766976	59	5312
2026-01-22 09:04:27.49	5.08	18.63	-44.8	-48.2	16.0	0.00e+00	0	38	0	946864128	60	5591
2026-01-22 09:04:28.35	4.96	18.54	-45.2	-48.9	15.3	0.00e+00	0	38	0	947912704	60	6017
2026-01-22 09:04:29.49	4.80	18.43	-45.7	-49.8	14.5	0.00e+00	0	38	0	950009856	62	5961
2026-01-22 09:04:30.34	4.68	18.35	-46.1	-50.3	13.9	7.00e-07	0	38	0	952107008	62	6344
2026-01-22 09:04:31.48	4.52	18.23	-46.2	-50.6	13.7	6.10e-06	0	38	0	954204160	63	6143
2026-01-22 09:04:32.33	4.41	18.15	-46.4	-50.8	13.5	9.90e-06	0	38	0	955252736	63	6279
2026-01-22 09:04:33.47	4.25	18.04	-46.0	-50.1	14.1	8.30e-06	0	38	0	957349888	63	5822
2026-01-22 09:04:34.32	4.14	17.96	-45.7	-49.6	14.7	7.00e-07	0	38	0	959447040	63	5525
2026-01-22 09:04:35.46	3.98	17.84	-45.1	-48.8	15.5	0.00e+00	0	38	0	961544192	62	5293
2026-01-22 09:04:36.31	3.87	17.76	-44.7	-48.1	16.1	0.00e+00	0	38	0	963641344	61	5189
2026-01-22 09:04:37.45	3.72	17.65	-44.2	-47.4	16.8	0.00e+00	0	38	0	965738496	60	5044
2026-01-22 09:04:38.30	3.61	17.57	-44.1	-47.3	16.9	0.00e+00	0	38	0	966787072	60	5004
2026-01-22 09:04:39.44	3.46	17.46	-44.2	-47.3	16.9	0.00e+00	0	38	0	968884224	60	5028
2026-01-22 09:04:40.29	3.35	17.37	-44.2	-47.2	17.0	0.00e+00	0	38	0	970981376	60	4932
2026-01-22 09:04:41.43	3.20	17.27	-44.3	-47.2	16.9	0.00e+00	0	38	0	973078528	60	4981
2026-01-22 09:04:42.28	3.09	17.18	-44.5	-47.5	16.6	0.00e+00	0	38	0	974127104	60	5146
2026-01-22 09:04:43.50	2.94	17.07	-44.9	-48.2	16.0	0.00e+00	0	38	0	976224256	60	5541
2026-01-22 09:04:44.35	2.83	16.98	-45.1	-48.4	15.8	0.00e+00	0	38	0	978321408	60	5686
2026-01-22 09:04:45.49	2.68	16.88	-45.2	-48.6	15.6	0.00e+00	0	38	0	980418560	60	5834
2026-01-22 09:04:46.34	2.58	16.79	-45.2	-48.8	15.4	0.00e+00	0	38	0	981467136	61	5595
2026-01-22 09:04:47.48	2.44	16.69	-45.0	-48.5	15.7	0.00e+00	0	38	0	983564288	61	5409
2026-01-22 09:04:48.33	2.33	16.61	-44.9	-48.3	15.9	0.00e+00	0	38	0	985661440	61	5291
2026-01-22 09:04:49.47	2.19	16.50	-44.6	-47.8	16.4	0.00e+00	0	37	0	987758592	61	5005
2026-01-22 09:04:50.40	2.08	16.41	-44.6	-47.7	16.5	0.00e+00	0	38	0	989855744	60	5240
2026-01-22 09:04:51.56	1.94	16.30	-44.3	-47.3	16.9	0.00e+00	0	38	0	991952896	60	4994
2026-01-22 09:04:52.42	1.83	16.22	-44.3	-47.3	16.8	0.00e+00	0	38	0	993001472	60	5010
2026-01-22 09:04:53.56	1.70	16.11	-44.4	-47.4	16.8	0.00e+00	0	38	0	995098624	60	5065
2026-01-22 09:04:54.41	1.60	16.03	-44.2	-47.2	16.9	0.00e+00	0	38	0	997195776	60	4970
2026-01-22 09:04:55.55	1.46	15.93	-44.3	-47.5	16.7	0.00e+00	0	38	0	999292928	60	5115
2026-01-22 09:04:56.40	1.36	15.85	-44.6	-47.9	16.3	0.00e+00	0	38	0	1000341504	60	5370
2026-01-22 09:04:57.54	1.23	15.74	-44.4	-47.7	16.4	0.00e+00	0	38	0	1003487232	60	5266
2026-01-22 09:04:58.39	1.13	15.66	-44.4	-47.8	16.3	0.00e+00	0	38	0	1004535808	60	5326
2026-01-22 09:04:59.53	1.00	15.56	-44.5	-47.9	16.2	0.00e+00	0	38	0	1006632960	60	5397
2026-01-22 09:05:00.38	0.90	15.48	-44.5	-47.9	16.2	0.00e+00	0	38	0	1008730112	60	5362
2026-01-22 09:05:01.52	0.77	15.38	-44.6	-47.9	16.2	0.00e+00	0	38	0	1010827264	60	5373
2026-01-22 09:05:02.37	0.68	15.30	-44.6	-47.9	16.3	0.00e+00	0	38	0	1011875840	60	5353
2026-01-22 09:05:03.50	0.55	15.20	-44.8	-48.1	16.0	0.00e+00	0	37	0	1013972992	60	5511
2026-01-22 09:05:04.36	0.46	15.12	-44.8	-48.0	16.1	0.00e+00	0	38	0	1016070144	60	5448
2026-01-22 09:05:05.49	0.33	15.01	-45.0	-48.3	15.9	0.00e+00	0	38	0	1018167296	60	5613
2026-01-22 09:05:06.35	0.24	14.94	-44.8	-48.0	16.1	0.00e+00	0	38	0	1019215872	60	5454
2026-01-22 09:05:07.49	0.11	14.83	-44.9	-48.2	16.0	0.00e+00	0	38	0	1021313024	60	5536
2026-01-22 09:05:08.34	0.02	14.76	-44.8	-48.0	16.1	0.00e+00	0	38	0	1023410176	60	5459
2026-01-22 09:05:09.47	359.90	14.65	-44.8	-48.0	16.1	0.00e+00	0	38	0	1025507328	60	5456
2026-01-22 09:05:10.32	359.81	14.58	-44.6	-47.8	16.3	0.00e+00	0	38	0	1026555904	60	5311
2026-01-22 09:05:11.46	359.68	14.48	-44.6	-47.8	16.3	0.00e+00	0	38	0	1028653056	60	5309
2026-01-22 09:05:12.31	359.59	14.40	-44.3	-47.4	16.7	0.00e+00	0	38	0	1030750208	60	5066
2026-01-22 09:05:13.45	359.47	14.30	-44.3	-47.3	16.8	0.00e+00	0	38	0	1032847360	60	4995
2026-01-22 09:05:14.30	359.38	14.22	-44.3	-47.2	16.9	0.00e+00	0	38	0	1033895936	60	4942
2026-01-22 09:05:15.44	359.27	14.12	-44.2	-47.0	17.0	0.00e+00	0	38	0	1037041664	60	4848
2026-01-22 09:05:16.29	359.18	14.05	-44.3	-47.2	16.9	0.00e+00	0	38	0	1038090240	60	4961
2026-01-22 09:05:17.43	359.06	13.95	-44.1	-47.0	17.1	0.00e+00	0	38	0	1040187392	60	4824
2026-01-22 09:05:18.28	358.97	13.87	-44.5	-47.4	16.7	0.00e+00	0	38	0	1042284544	60	5081
2026-01-22 09:05:19.42	358.86	13.77	-44.6	-47.6	16.4	0.00e+00	0	38	0	1044381696	60	5210
2026-01-22 09:05:20.27	358.77	13.70	-44.7	-47.9	16.2	0.00e+00	0	38	0	1045430272	60	5364
2026-01-22 09:05:21.41	358.66	13.60	-45.0	-48.5	15.7	0.00e+00	0	38	0	1047527424	60	5757
2026-01-22 09:05:22.26	358.57	13.52	-45.1	-48.8	15.3	0.00e+00	0	38	0	1049624576	61	5612
2026-01-22 09:05:23.52	358.45	13.41	-45.3	-49.2	14.9	7.00e-07	0	38	0	1051721728	61	5878
2026-01-22 09:05:24.31	358.37	13.35	-45.4	-49.4	14.7	0.00e+00	0	38	0	1052770304	61	6038
2026-01-22 09:05:25.50	358.25	13.24	-45.8	-50.1	14.1	0.00e+00	0	38	0	1054867456	62	6187
2026-01-22 09:05:26.35	358.17	13.17	-45.9	-50.1	14.1	0.00e+00	0	38	0	1056964608	62	6189
2026-01-22 09:05:27.49	358.06	13.07	-46.1	-50.4	13.8	3.00e-06	0	38	0	1059061760	62	6412
2026-01-22 09:05:28.34	357.98	13.00	-45.9	-50.0	14.1	2.20e-06	0	38	0	1061158912	62	6101
2026-01-22 09:05:29.49	357.87	12.90	-45.7	-49.6	14.6	1.50e-06	0	38	0	1063256064	62	5821
2026-01-22 09:05:30.34	357.79	12.83	-45.6	-49.4	14.8	0.00e+00	0	37	0	1064304640	62	5686
2026-01-22 09:05:31.48	357.68	12.73	-45.4	-49.1	15.1	0.00e+00	0	37	0	1066401792	62	5484
2026-01-22 09:05:32.34	357.60	12.66	-45.4	-49.1	15.0	0.00e+00	0	38	0	1068498944	62	5479
2026-01-22 09:05:33.48	357.50	12.56	-45.1	-48.5	15.6	0.00e+00	0	38	0	1070596096	62	5146
2026-01-22 09:05:34.34	357.42	12.49	-44.9	-48.5	15.6	0.00e+00	0	38	0	1071644672	61	5437
2026-01-22 09:05:35.48	357.31	12.39	-44.7	-48.4	15.7	0.00e+00	0	37	0	1073741824	61	5367
2026-01-22 09:05:36.33	357.23	12.32	-44.5	-48.1	15.9	0.00e+00	0	38	0	1075838976	60	5523
2026-01-22 09:05:37.47	357.13	12.23	-44.3	-48.0	16.1	0.00e+00	0	37	0	1077936128	60	5407
2026-01-22 09:05:38.33	357.05	12.16	-44.3	-48.0	16.1	0.00e+00	0	38	0	1078984704	60	5417
2026-01-22 09:05:39.46	356.95	12.06	-44.2	-47.9	16.1	0.00e+00	0	38	0	1081081856	60	5398
2026-01-22 09:05:40.32	356.87	11.99	-44.2	-47.9	16.1	0.00e+00	0	38	0	1083179008	60	5373
2026-01-22 09:05:41.46	356.77	11.90	-44.1	-47.7	16.3	0.00e+00	0	38	0	1085276160	60	5259
2026-01-22 09:05:42.31	356.70	11.82	-44.2	-47.9	16.1	0.00e+00	0	38	0	1087373312	60	5381
2026-01-22 09:05:43.45	356.60	11.73	-44.2	-48.0	15.9	0.00e+00	0	38	0	1089470464	60	5420
2026-01-22 09:05:44.31	356.52	11.66	-44.3	-48.0	16.1	0.00e+00	0	38	0	1090519040	60	5431
2026-01-22 09:05:45.45	356.42	11.57	-44.3	-47.9	16.2	0.00e+00	0	38	0	1092616192	60	5361
2026-01-22 09:05:46.30	356.35	11.50	-44.4	-48.1	15.9	0.00e+00	0	38	0	1094713344	60	5475
2026-01-22 09:05:47.44	356.25	11.40	-44.4	-47.9	16.1	0.00e+00	0	38	0	1096810496	60	5393
2026-01-22 09:05:48.29	356.18	11.33	-44.4	-48.0	16.1	0.00e+00	0	38	0	1097859072	60	5406
2026-01-22 09:05:49.43	356.08	11.24	-44.3	-47.9	16.1	0.00e+00	0	38	0	1099956224	60	5362
2026-01-22 09:05:50.29	356.01	11.17	-44.4	-48.1	16.0	0.00e+00	0	38	0	1102053376	60	5466
2026-01-22 09:05:51.43	355.91	11.08	-44.3	-48.0	16.1	0.00e+00	0	38	0	1104150528	60	5430
2026-01-22 09:05:52.28	355.84	11.01	-44.2	-48.0	16.0	0.00e+00	0	38	0	1105199104	60	5437
2026-01-22 09:05:53.42	355.75	10.92	-44.1	-48.1	15.9	0.00e+00	0	38	0	1107296256	60	5483
2026-01-22 09:05:54.28	355.68	10.85	-44.0	-48.0	16.0	0.00e+00	0	38	0	1109393408	60	5428
2026-01-22 09:05:55.42	355.58	10.76	-44.1	-48.3	15.7	0.00e+00	0	38	0	1111490560	59	5928
2026-01-22 09:05:56.27	355.51	10.69	-44.1	-48.4	15.6	0.00e+00	0	38	0	1112539136	59	6023
2026-01-22 09:05:57.41	355.42	10.60	-44.1	-48.6	15.4	0.00e+00	0	38	0	1115684864	59	6158
2026-01-22 09:05:58.27	355.35	10.53	-44.1	-48.6	15.4	0.00e+00	0	38	0	1116733440	59	6165
2026-01-22 09:05:59.40	355.26	10.44	-43.9	-48.5	15.5	0.00e+00	0	38	0	1118830592	59	6070
2026-01-22 09:06:00.25	355.19	10.38	-43.9	-48.5	15.5	0.00e+00	0	38	0	1120927744	59	6074
2026-01-22 09:06:01.40	355.10	10.29	-44.0	-48.6	15.3	0.00e+00	0	38	0	1123024896	59	6168
2026-01-22 09:06:02.25	355.03	10.22	-43.9	-48.5	15.5	0.00e+00	0	38	0	1124073472	59	6091
2026-01-22 09:06:03.39	354.94	10.13	-44.0	-48.6	15.3	0.00e+00	0	38	0	1126170624	59	6202
2026-01-22 09:06:04.25	354.88	10.06	-43.9	-48.7	15.2	0.00e+00	0	38	0	1128267776	59	6249
2026-01-22 09:06:05.39	354.79	9.97	-43.7	-48.6	15.3	0.00e+00	0	38	0	1130364928	59	6169
2026-01-22 09:06:06.24	354.72	9.91	-43.4	-48.6	15.3	0.00e+00	0	38	0	1131413504	58	6558
2026-01-22 09:06:07.39	354.64	9.82	-43.2	-48.5	15.4	0.00e+00	0	38	0	1133510656	58	6483
2026-01-22 09:06:08.24	354.57	9.75	-43.2	-48.8	15.1	0.00e+00	0	38	0	1135607808	58	6715
2026-01-22 09:06:09.38	354.48	9.66	-43.0	-48.8	15.1	0.00e+00	0	38	0	1137704960	58	6673
2026-01-22 09:06:10.24	354.42	9.60	-43.1	-49.2	14.7	0.00e+00	0	38	0	1139802112	58	7028
2026-01-22 09:06:11.38	354.33	9.51	-43.1	-49.2	14.7	0.00e+00	0	38	0	1141899264	58	6997
2026-01-22 09:06:12.24	354.27	9.44	-43.2	-49.3	14.6	7.00e-07	0	38	0	1142947840	58	7107
2026-01-22 09:06:13.38	354.19	9.36	-43.4	-49.5	14.4	0.00e+00	0	38	0	1145044992	58	7266
2026-01-22 09:06:14.23	354.12	9.29	-43.9	-50.1	13.9	1.50e-06	0	38	0	1147142144	58	7753
2026-01-22 09:06:15.38	354.04	9.20	-44.2	-50.0	13.9	1.50e-06	0	38	0	1149239296	59	7251
2026-01-22 09:06:16.23	353.98	9.14	-44.8	-50.7	13.4	4.50e-06	0	37	0	1150287872	59	7896
2026-01-22 09:06:17.37	353.89	9.05	-45.1	-50.6	13.4	1.22e-05	0	38	0	1152385024	61	6907
2026-01-22 09:06:18.22	353.83	8.99	-45.4	-50.7	13.3	1.60e-05	0	38	0	1154482176	61	7024
2026-01-22 09:06:19.36	353.75	8.90	-45.8	-65.4	3.8	1.23e+00	0	38	104	1155530752	63	33748
2026-01-22 09:06:20.22	353.69	8.84	-49.4	-65.7	3.8	1.49e+00	0	38	104	1155530752	69	24766
2026-01-22 09:06:21.36	353.61	8.75	-50.0	-65.7	3.8	1.49e+00	0	38	104	1155530752	70	23455
2026-01-22 09:06:22.22	353.55	8.69	-49.6	-65.8	3.8	1.49e+00	0	38	104	1155530752	70	23681
2026-01-22 09:06:23.36	353.47	8.60	-50.2	-65.8	3.8	1.49e+00	0	38	104	1155530752	71	22428
2026-01-22 09:06:24.22	353.41	8.54	-50.4	-65.9	3.8	1.49e+00	0	38	104	1155530752	71	22524
2026-01-22 09:06:25.36	353.33	8.45	-50.5	-65.8	3.8	1.49e+00	0	38	104	1155530752	71	22470
2026-01-22 09:06:26.22	353.27	8.39	-50.5	-65.9	3.8	1.49e+00	0	38	104	1155530752	71	22556
2026-01-22 09:06:27.36	353.19	8.31	-50.2	-65.9	3.8	1.49e+00	0	38	104	1155530752	71	22720
2026-01-22 09:06:28.21	353.13	8.24	-50.5	-65.9	3.8	1.49e+00	0	38	104	1155530752	71	22775
2026-01-22 09:06:29.35	353.05	8.16	-50.7	-65.9	3.8	1.49e+00	0	38	104	1155530752	72	21449
2026-01-22 09:06:30.21	353.00	8.10	-50.5	-65.9	3.8	1.49e+00	0	38	104	1155530752	72	21355
2026-01-22 09:06:31.35	352.92	8.01	-50.3	-65.9	3.8	1.49e+00	0	38	104	1155530752	72	21474
2026-01-22 09:06:32.21	352.86	7.95	-50.6	-65.9	3.8	1.49e+00	0	38	104	1155530752	72	21416
2026-01-22 09:06:33.34	352.79	7.87	-50.6	-65.9	3.8	1.49e+00	0	38	104	1155530752	72	21431
2026-01-22 09:06:34.19	352.73	7.81	-50.4	-66.0	3.8	1.49e+00	0	38	104	1155530752	72	21511
2026-01-22 09:06:35.33	352.66	7.72	-50.6	-66.0	3.8	1.49e+00	0	38	104	1155530752	72	21536
2026-01-22 09:06:36.18	352.60	7.66	-50.2	-66.0	3.8	1.49e+00	0	38	104	1155530752	72	21524
2026-01-22 09:06:37.33	352.52	7.58	-50.7	-65.9	3.8	1.49e+00	0	38	104	1155530752	72	21486
2026-01-22 09:06:38.18	352.47	7.52	-50.7	-66.0	3.8	1.49e+00	0	38	104	1155530752	72	21514
2026-01-22 09:06:39.32	352.40	7.43	-50.7	-65.9	3.8	1.49e+00	0	38	104	1155530752	72	21489
2026-01-22 09:06:40.17	352.34	7.37	-50.7	-65.9	3.8	1.49e+00	0	38	104	1155530752	72	21505
2026-01-22 09:06:41.32	352.27	7.29	-50.7	-65.9	3.8	1.49e+00	0	38	104	1155530752	72	21498
2026-01-22 09:06:42.17	352.21	7.23	-50.8	-65.9	3.8	1.49e+00	0	38	104	1155530752	72	21442
2026-01-22 09:06:43.31	352.14	7.15	-50.4	-65.9	3.8	1.49e+00	0	38	104	1155530752	72	21473
2026-01-22 09:06:44.16	352.09	7.09	-50.7	-65.9	3.8	1.49e+00	0	38	104	1155530752	72	21482
2026-01-22 09:06:45.30	352.02	7.01	-50.6	-65.9	3.8	1.49e+00	0	38	104	1155530752	72	21464
2026-01-22 09:06:46.14	351.97	6.95	-50.6	-65.9	3.8	1.49e+00	0	38	104	1155530752	72	21410
2026-01-22 09:06:47.28	351.89	6.87	-50.4	-65.9	3.8	1.49e+00	0	38	104	1155530752	72	21416
2026-01-22 09:06:48.13	351.84	6.81	-50.5	-65.9	3.8	1.49e+00	0	38	104	1155530752	72	21372
2026-01-22 09:06:49.27	351.77	6.73	-50.5	-65.9	3.8	1.49e+00	0	38	104	1155530752	72	21375
2026-01-22 09:06:50.12	351.72	6.67	-50.5	-65.9	3.8	1.49e+00	0	38	104	1155530752	72	21366
2026-01-22 09:06:51.26	351.65	6.59	-50.5	-65.9	3.8	1.49e+00	0	38	104	1155530752	72	21369
2026-01-22 09:06:52.11	351.60	6.53	-50.5	-65.9	3.8	1.49e+00	0	38	104	1155530752	72	21303
2026-01-22 09:06:53.25	351.53	6.45	-50.5	-65.9	3.8	1.49e+00	0	38	104	1155530752	72	21320
2026-01-22 09:06:54.11	351.48	6.39	-50.5	-65.9	3.8	1.49e+00	0	38	104	1155530752	72	21331
2026-01-22 09:06:55.25	351.41	6.31	-50.5	-65.9	3.8	1.49e+00	0	38	104	1155530752	72	21330
2026-01-22 09:06:56.11	351.36	6.25	-50.5	-65.9	3.8	1.49e+00	0	38	104	1155530752	72	21350
2026-01-22 09:06:57.24	351.30	6.17	-50.5	-65.9	3.8	1.49e+00	0	38	104	1155530752	72	21261
2026-01-22 09:06:58.10	351.25	6.11	-50.5	-65.9	3.8	1.49e+00	0	38	104	1155530752	72	21274
