passes_logs/2026/01/22/T1/T1__20260122_073323_KHAYYAM_rec.log

#Pass ID: 20260122_073323_KHAYYAM
#Satellite: KHAYYAM
#Configuration: KHAYYAM_480M
#almurnet v.1.7.20251203
#Start time: 2026-01-22 07:33:23

#Version: 2.0.20230620
#Station: T1
#Location: 37.570604 lon 55.790049 lat
#TLE: 1 53370U 22096A   26021.52000590  .00011540  00000+0  46934-3 0  9998
#TLE: 2 53370  97.3558 288.4131 0001849 107.9077 252.2363 15.24685516192230

#Time	Az	El	Level	Level2	SNR	BER	BlckErr	Temp	State	Recorded	gain1	gain2
2026-01-22 07:33:23.31	152.13	5.12	-52.4	-56.9	3.6	0.00e+00	0	40	0	0	75	25624
2026-01-22 07:33:24.30	152.10	5.20	-52.4	-56.9	3.7	0.00e+00	0	40	104	0	75	25504
2026-01-22 07:33:25.29	152.07	5.28	-52.4	-57.0	3.7	0.00e+00	0	40	104	0	75	25721
2026-01-22 07:33:26.28	152.04	5.36	-52.4	-57.0	3.7	0.00e+00	0	40	104	0	75	25750
2026-01-22 07:33:27.28	152.01	5.44	-52.4	-56.9	3.7	0.00e+00	0	40	104	0	75	25579
2026-01-22 07:33:28.27	151.98	5.53	-52.4	-56.9	3.7	0.00e+00	0	40	104	0	75	25675
2026-01-22 07:33:29.26	151.95	5.61	-52.4	-56.9	3.7	0.00e+00	0	40	104	0	75	25554
2026-01-22 07:33:30.25	151.92	5.69	-52.4	-56.9	3.7	0.00e+00	0	40	104	0	75	25622
2026-01-22 07:33:31.25	151.89	5.77	-52.4	-56.9	3.7	0.00e+00	0	40	104	0	75	25576
2026-01-22 07:33:32.24	151.86	5.86	-52.4	-56.9	3.7	0.00e+00	0	40	104	0	75	25602
2026-01-22 07:33:33.23	151.83	5.94	-52.4	-56.9	3.7	0.00e+00	0	41	104	0	75	25577
2026-01-22 07:33:34.23	151.80	6.03	-52.4	-56.9	3.7	0.00e+00	0	41	104	0	75	25512
2026-01-22 07:33:35.22	151.77	6.11	-52.4	-56.9	3.7	0.00e+00	0	41	104	0	75	25607
2026-01-22 07:33:36.21	151.74	6.20	-52.4	-56.9	3.6	0.00e+00	0	41	104	0	75	25610
2026-01-22 07:33:37.21	151.71	6.28	-52.3	-56.9	3.7	0.00e+00	0	41	104	0	75	25509
2026-01-22 07:33:38.20	151.68	6.37	-52.3	-56.9	3.7	0.00e+00	0	41	104	0	75	25612
2026-01-22 07:33:39.19	151.65	6.45	-52.3	-56.9	3.7	0.00e+00	0	41	104	0	75	25488
2026-01-22 07:33:40.18	151.61	6.54	-52.4	-56.9	3.7	0.00e+00	0	41	104	0	75	25540
2026-01-22 07:33:41.18	151.58	6.63	-52.4	-56.9	3.7	0.00e+00	0	41	104	0	75	25633
2026-01-22 07:33:42.17	151.55	6.72	-52.3	-56.9	3.7	0.00e+00	0	41	104	0	75	25525
2026-01-22 07:33:43.16	151.51	6.80	-52.3	-56.9	3.7	0.00e+00	0	41	104	0	75	25459
2026-01-22 07:33:44.15	151.48	6.89	-52.3	-56.9	3.7	0.00e+00	0	41	104	0	75	25515
2026-01-22 07:33:45.15	151.45	6.98	-52.3	-56.9	3.7	0.00e+00	0	41	104	0	75	25550
2026-01-22 07:33:46.14	151.41	7.07	-52.3	-56.9	3.7	0.00e+00	0	42	104	0	75	25571
2026-01-22 07:33:47.13	151.38	7.16	-52.3	-56.9	3.7	0.00e+00	0	42	104	0	75	25459
2026-01-22 07:33:48.13	151.34	7.25	-52.3	-56.9	3.7	0.00e+00	0	42	104	0	75	25515
2026-01-22 07:33:49.12	151.31	7.34	-52.3	-56.9	3.7	0.00e+00	0	42	104	0	75	25507
2026-01-22 07:33:50.11	151.27	7.43	-52.3	-56.9	3.7	0.00e+00	0	42	104	0	75	25486
2026-01-22 07:33:51.11	151.24	7.52	-52.4	-56.9	3.7	0.00e+00	0	42	104	0	75	25522
2026-01-22 07:33:52.10	151.20	7.61	-52.4	-56.9	3.7	0.00e+00	0	42	104	0	75	25604
2026-01-22 07:33:53.09	151.17	7.71	-52.3	-56.9	3.7	0.00e+00	0	42	104	0	75	25534
2026-01-22 07:33:54.08	151.13	7.80	-52.4	-56.9	3.7	0.00e+00	0	42	104	0	75	25657
2026-01-22 07:33:55.08	151.09	7.89	-52.4	-56.9	3.7	0.00e+00	0	42	104	0	75	25516
2026-01-22 07:33:56.07	151.06	7.99	-52.3	-56.9	3.7	0.00e+00	0	42	104	0	75	25504
2026-01-22 07:33:57.06	151.02	8.08	-52.3	-56.9	3.7	0.00e+00	0	42	104	0	75	25409
2026-01-22 07:33:58.05	150.98	8.17	-52.4	-56.9	3.7	0.00e+00	0	42	104	0	75	25503
2026-01-22 07:33:59.05	150.94	8.27	-52.3	-56.9	3.7	0.00e+00	0	43	104	0	75	25539
2026-01-22 07:34:00.04	150.91	8.36	-52.4	-56.9	3.7	0.00e+00	0	43	104	0	75	25633
2026-01-22 07:34:01.03	150.87	8.46	-52.4	-56.9	3.7	0.00e+00	0	43	104	0	75	25638
2026-01-22 07:34:02.03	150.83	8.56	-52.3	-56.9	3.7	0.00e+00	0	43	104	0	75	25594
2026-01-22 07:34:03.02	150.79	8.65	-52.4	-56.9	3.7	0.00e+00	0	43	104	0	75	25590
2026-01-22 07:34:04.01	150.75	8.75	-52.4	-56.9	3.7	0.00e+00	0	43	104	0	75	25609
2026-01-22 07:34:05.00	150.71	8.85	-52.3	-56.9	3.7	0.00e+00	0	43	104	0	75	25536
2026-01-22 07:34:06.00	150.67	8.95	-52.4	-56.9	3.7	0.00e+00	0	43	104	0	75	25524
2026-01-22 07:34:06.99	150.63	9.05	-52.3	-56.9	3.7	0.00e+00	0	43	104	0	75	25564
2026-01-22 07:34:07.98	150.59	9.15	-52.5	-57.1	3.7	0.00e+00	0	43	104	0	75	25983
2026-01-22 07:34:08.98	150.55	9.25	-52.0	-56.6	3.7	0.00e+00	0	43	104	0	75	24602
2026-01-22 07:34:09.97	150.50	9.35	-52.3	-56.9	3.7	0.00e+00	0	43	104	0	75	25573
2026-01-22 07:34:10.97	150.46	9.45	-52.1	-56.7	3.7	0.00e+00	0	43	104	0	75	25069
2026-01-22 07:34:11.96	150.42	9.55	-52.0	-56.5	3.7	0.00e+00	0	43	104	0	75	24510
2026-01-22 07:34:12.96	150.38	9.65	-50.1	-54.7	3.7	0.00e+00	0	43	104	0	72	23531
2026-01-22 07:34:13.95	150.33	9.75	-52.3	-56.9	3.7	0.00e+00	0	43	104	0	75	25482
2026-01-22 07:34:14.94	150.29	9.86	-49.9	-54.6	3.7	0.00e+00	0	43	104	0	71	24558
2026-01-22 07:34:15.94	150.24	9.96	-44.6	-49.2	3.7	0.00e+00	0	43	104	0	61	23668
2026-01-22 07:34:16.93	150.20	10.07	-43.4	-48.1	3.7	0.00e+00	0	43	104	0	58	24564
2026-01-22 07:34:17.93	150.15	10.17	-41.5	-46.1	3.7	0.00e+00	0	43	104	0	55	23234
2026-01-22 07:34:18.92	150.11	10.28	-40.3	-44.9	3.7	0.00e+00	0	43	104	0	52	24101
2026-01-22 07:34:19.92	150.06	10.38	-39.9	-44.5	3.7	0.00e+00	0	43	104	0	51	24389
2026-01-22 07:34:20.91	150.02	10.49	-39.2	-43.8	3.7	0.00e+00	0	43	104	0	50	23758
2026-01-22 07:34:21.91	149.97	10.60	-41.2	-45.8	3.7	0.00e+00	0	43	104	0	53	25310
2026-01-22 07:34:22.90	149.92	10.71	-48.9	-53.5	3.7	0.00e+00	0	43	104	0	68	25756
2026-01-22 07:34:23.90	149.87	10.81	-42.5	-47.1	3.7	0.00e+00	0	44	104	0	57	23333
2026-01-22 07:34:24.93	149.82	10.93	-42.5	-47.1	3.7	0.00e+00	0	44	104	0	55	26172
2026-01-22 07:34:25.96	149.77	11.04	-40.7	-45.3	3.7	0.00e+00	0	43	104	0	52	25106
2026-01-22 07:34:26.95	149.73	11.15	-41.3	-45.9	3.7	0.00e+00	0	44	104	0	53	25449
2026-01-22 07:34:27.95	149.68	11.26	-41.7	-46.3	3.7	0.00e+00	0	43	104	0	54	25337
2026-01-22 07:34:28.94	149.63	11.38	-43.0	-47.7	3.7	0.00e+00	0	44	104	0	56	26316
2026-01-22 07:34:29.94	149.57	11.49	-50.1	-54.6	3.7	0.00e+00	0	44	104	0	70	26237
2026-01-22 07:34:30.93	149.52	11.60	-46.3	-50.9	3.7	0.00e+00	0	43	104	0	64	24220
2026-01-22 07:34:31.93	149.47	11.72	-52.0	-56.5	3.7	0.00e+00	0	44	104	0	74	25902
2026-01-22 07:34:32.92	149.42	11.83	-51.9	-56.4	3.7	0.00e+00	0	44	104	0	74	25448
2026-01-22 07:34:33.91	149.37	11.95	-46.0	-50.6	3.7	0.00e+00	0	44	104	0	64	23223
2026-01-22 07:34:34.91	149.31	12.06	-47.3	-51.9	3.7	0.00e+00	0	44	104	0	65	25551
2026-01-22 07:34:35.90	149.26	12.18	-48.9	-53.4	3.7	0.00e+00	0	44	104	0	68	25592
2026-01-22 07:34:36.90	149.21	12.30	-49.9	-54.4	3.7	0.00e+00	0	44	104	0	70	25500
2026-01-22 07:34:37.89	149.15	12.42	-50.6	-55.1	3.7	0.00e+00	0	44	104	0	72	24707
2026-01-22 07:34:38.88	149.10	12.53	-50.9	-55.4	3.7	0.00e+00	0	44	104	0	72	25505
2026-01-22 07:34:39.88	149.04	12.65	-51.9	-56.5	3.7	0.00e+00	0	44	104	0	74	25683
2026-01-22 07:34:40.94	148.98	12.78	-52.6	-57.1	3.7	0.00e+00	0	44	104	0	75	26122
2026-01-22 07:34:41.85	148.93	12.89	-52.5	-57.0	3.7	0.00e+00	0	44	104	0	75	25776
2026-01-22 07:34:42.85	148.87	13.02	-52.5	-57.0	3.7	0.00e+00	0	44	104	0	75	25859
2026-01-22 07:34:43.84	148.81	13.14	-52.4	-56.9	3.7	0.00e+00	0	44	104	0	75	25631
2026-01-22 07:34:44.84	148.75	13.26	-52.4	-57.0	3.7	0.00e+00	0	44	104	0	75	25866
2026-01-22 07:34:45.83	148.69	13.39	-52.5	-57.1	3.7	0.00e+00	0	44	104	0	75	25978
2026-01-22 07:34:46.83	148.63	13.51	-52.3	-57.0	3.7	0.00e+00	0	44	104	0	75	25841
2026-01-22 07:34:47.83	148.57	13.64	-52.3	-56.9	3.7	0.00e+00	0	44	104	0	75	25602
2026-01-22 07:34:48.82	148.51	13.77	-52.3	-57.0	3.7	0.00e+00	0	44	104	0	75	25698
2026-01-22 07:34:49.81	148.45	13.90	-52.5	-57.0	3.7	0.00e+00	0	44	104	0	75	25758
2026-01-22 07:34:50.81	148.38	14.02	-52.4	-57.0	3.7	0.00e+00	0	44	104	0	75	25914
2026-01-22 07:34:51.80	148.32	14.15	-52.3	-56.9	3.7	0.00e+00	0	44	104	0	75	25528
2026-01-22 07:34:52.79	148.25	14.28	-52.7	-57.3	3.7	0.00e+00	0	44	104	0	75	26615
2026-01-22 07:34:53.79	148.19	14.42	-52.3	-56.9	3.7	0.00e+00	0	44	104	0	76	24077
2026-01-22 07:34:54.83	148.12	14.55	-52.5	-57.1	3.7	0.00e+00	0	44	104	0	76	24609
2026-01-22 07:34:55.83	148.05	14.69	-52.8	-57.3	3.7	0.00e+00	0	44	104	0	76	25215
2026-01-22 07:34:56.88	147.98	14.83	-53.0	-57.4	3.7	0.00e+00	0	44	104	0	76	25657
2026-01-22 07:34:57.79	147.92	14.95	-52.7	-57.2	3.7	0.00e+00	0	44	104	0	76	25030
2026-01-22 07:34:58.97	147.84	15.12	-52.9	-57.4	3.7	0.00e+00	0	44	104	0	76	25399
2026-01-22 07:34:59.82	147.78	15.23	-52.9	-57.4	3.7	0.00e+00	0	44	104	0	76	25424
2026-01-22 07:35:00.96	147.70	15.39	-52.3	-56.7	3.7	0.00e+00	0	44	104	0	76	23463
2026-01-22 07:35:01.81	147.64	15.51	-53.0	-57.3	3.7	0.00e+00	0	44	104	0	76	25341
2026-01-22 07:35:02.95	147.55	15.67	-51.6	-55.2	3.7	0.00e+00	0	44	104	0	75	20936
2026-01-22 07:35:03.80	147.49	15.79	-51.7	-55.8	3.7	0.00e+00	0	44	104	0	75	22577
2026-01-22 07:35:04.94	147.41	15.96	-51.7	-55.9	3.7	0.00e+00	0	44	104	0	75	22711
2026-01-22 07:35:05.79	147.34	16.08	-52.0	-56.5	3.7	0.00e+00	0	44	104	0	75	24272
2026-01-22 07:35:06.93	147.26	16.24	-52.2	-56.8	3.7	0.00e+00	0	44	104	0	75	25286
2026-01-22 07:35:07.78	147.19	16.37	-52.4	-57.0	3.7	0.00e+00	0	44	104	0	75	25715
2026-01-22 07:35:08.92	147.10	16.54	-52.4	-57.1	3.7	0.00e+00	0	44	104	0	75	26056
2026-01-22 07:35:09.77	147.03	16.66	-52.8	-57.3	3.7	0.00e+00	0	44	104	0	76	25183
2026-01-22 07:35:11.00	146.94	16.85	-52.2	-56.8	3.7	0.00e+00	0	44	104	0	76	23961
2026-01-22 07:35:11.86	146.87	16.98	-52.6	-57.1	3.7	0.00e+00	0	44	104	0	76	24784
2026-01-22 07:35:13.07	146.77	17.16	-52.8	-57.4	3.7	0.00e+00	0	44	104	0	76	25584
2026-01-22 07:35:13.92	146.70	17.29	-52.9	-57.4	3.7	0.00e+00	0	44	104	0	76	25583
2026-01-22 07:35:15.12	146.60	17.48	-52.9	-57.4	3.7	0.00e+00	0	44	104	0	76	25530
2026-01-22 07:35:15.98	146.52	17.61	-52.8	-57.4	3.7	0.00e+00	0	44	104	0	76	25496
2026-01-22 07:35:17.11	146.43	17.79	-52.8	-57.3	3.7	0.00e+00	0	45	104	0	76	25378
2026-01-22 07:35:17.97	146.35	17.92	-52.9	-57.4	3.7	0.00e+00	0	44	104	0	76	25563
2026-01-22 07:35:19.11	146.25	18.11	-53.0	-57.5	3.7	0.00e+00	0	45	104	0	76	25845
2026-01-22 07:35:19.99	146.17	18.25	-53.2	-57.6	3.7	0.00e+00	0	44	104	0	77	24606
2026-01-22 07:35:21.13	146.07	18.43	-53.0	-57.4	3.7	0.00e+00	0	44	104	0	77	24163
2026-01-22 07:35:22.04	145.99	18.58	-53.2	-57.6	3.7	0.00e+00	0	44	104	0	77	24717
2026-01-22 07:35:23.04	145.89	18.75	-53.1	-57.6	3.7	0.00e+00	0	45	104	0	77	24670
2026-01-22 07:35:24.03	145.80	18.91	-52.9	-57.5	3.7	0.00e+00	0	45	104	0	77	24371
2026-01-22 07:35:25.03	145.70	19.08	-52.6	-57.3	3.7	0.00e+00	0	45	104	0	77	23750
2026-01-22 07:35:26.02	145.61	19.24	-53.1	-57.6	3.7	0.00e+00	0	45	104	0	77	24611
2026-01-22 07:35:27.02	145.51	19.41	-52.7	-57.3	3.7	0.00e+00	0	45	104	0	77	23830
2026-01-22 07:35:28.01	145.41	19.58	-52.5	-57.2	3.7	0.00e+00	0	45	104	0	77	23535
2026-01-22 07:35:29.01	145.31	19.76	-52.5	-57.2	3.7	0.00e+00	0	45	104	0	76	24868
2026-01-22 07:35:30.01	145.21	19.93	-52.6	-57.2	3.7	0.00e+00	0	45	104	0	76	25074
2026-01-22 07:35:31.00	145.11	20.11	-52.6	-57.1	3.7	0.00e+00	0	45	104	0	76	24800
2026-01-22 07:35:31.99	145.00	20.28	-52.3	-57.1	3.7	0.00e+00	0	45	104	0	76	24656
2026-01-22 07:35:32.99	144.90	20.46	-52.0	-56.9	3.7	0.00e+00	0	45	104	0	76	24150
2026-01-22 07:35:33.99	144.79	20.64	-52.4	-57.1	3.7	0.00e+00	0	45	104	0	76	24806
2026-01-22 07:35:34.98	144.68	20.82	-52.1	-56.9	3.7	0.00e+00	0	45	104	0	76	24202
2026-01-22 07:35:35.97	144.57	21.00	-52.0	-57.0	3.7	0.00e+00	0	45	104	0	75	25691
2026-01-22 07:35:36.97	144.46	21.19	-52.1	-56.9	3.7	0.00e+00	0	45	104	0	75	25642
2026-01-22 07:35:37.96	144.35	21.37	-51.9	-56.9	3.7	0.00e+00	0	45	104	0	75	25445
2026-01-22 07:35:38.96	144.23	21.56	-52.2	-57.0	3.7	0.00e+00	0	45	104	0	75	25929
2026-01-22 07:35:39.95	144.12	21.75	-52.5	-57.3	3.7	0.00e+00	0	45	104	0	75	26622
2026-01-22 07:35:40.95	144.00	21.94	-52.9	-57.4	3.7	0.00e+00	0	45	104	0	76	25414
2026-01-22 07:35:41.95	143.88	22.14	-52.2	-57.1	3.7	0.00e+00	0	45	104	0	76	24565
2026-01-22 07:35:42.94	143.76	22.33	-52.9	-57.4	3.7	0.00e+00	0	45	104	0	76	25559
2026-01-22 07:35:43.94	143.64	22.53	-53.1	-57.6	3.7	0.00e+00	0	45	104	0	76	26201
2026-01-22 07:35:44.93	143.51	22.72	-53.3	-57.6	3.7	0.00e+00	0	45	104	0	77	24672
2026-01-22 07:35:45.92	143.38	22.92	-53.2	-57.6	3.7	0.00e+00	0	45	104	0	77	24749
2026-01-22 07:35:46.93	143.25	23.13	-53.4	-57.7	3.7	0.00e+00	0	45	104	0	77	25049
2026-01-22 07:35:47.96	143.12	23.34	-53.3	-57.7	3.7	0.00e+00	0	45	104	0	77	25052
2026-01-22 07:35:48.95	142.99	23.54	-53.1	-57.5	3.7	0.00e+00	0	45	104	0	77	24521
2026-01-22 07:35:49.95	142.85	23.75	-53.3	-57.8	3.7	0.00e+00	0	45	104	0	77	25121
2026-01-22 07:35:50.94	142.72	23.96	-53.1	-57.6	3.7	0.00e+00	0	45	104	0	77	24718
2026-01-22 07:35:51.94	142.58	24.17	-52.9	-57.4	3.7	0.00e+00	0	45	104	0	77	24236
2026-01-22 07:35:52.93	142.44	24.38	-52.6	-57.4	3.7	0.00e+00	0	45	104	0	77	24034
2026-01-22 07:35:53.92	142.29	24.59	-53.0	-57.5	3.7	0.00e+00	0	45	104	0	77	24511
2026-01-22 07:35:54.92	142.15	24.81	-52.8	-57.5	3.7	0.00e+00	0	45	104	0	77	24381
2026-01-22 07:35:55.91	142.00	25.03	-52.7	-57.4	3.7	0.00e+00	0	45	104	0	77	24028
2026-01-22 07:35:56.91	141.85	25.25	-52.9	-57.5	3.7	0.00e+00	0	45	104	0	77	24306
2026-01-22 07:35:57.90	141.70	25.47	-52.7	-57.5	3.7	0.00e+00	0	45	104	0	77	24384
2026-01-22 07:35:58.90	141.54	25.70	-53.1	-57.7	3.7	0.00e+00	0	45	104	0	77	24989
2026-01-22 07:35:59.89	141.39	25.92	-53.4	-57.8	3.7	0.00e+00	0	45	104	0	77	25127
2026-01-22 07:36:00.89	141.23	26.15	-52.8	-57.2	3.7	0.00e+00	0	45	104	0	77	23590
2026-01-22 07:36:01.88	141.06	26.38	-53.4	-57.8	3.7	0.00e+00	0	45	104	0	77	25337
2026-01-22 07:36:02.88	140.90	26.62	-53.0	-57.5	3.7	0.00e+00	0	45	104	0	77	24420
2026-01-22 07:36:03.87	140.73	26.85	-52.8	-57.5	3.7	0.00e+00	0	45	104	0	77	24260
2026-01-22 07:36:04.93	140.55	27.11	-52.7	-57.1	3.7	0.00e+00	0	45	104	0	77	23214
2026-01-22 07:36:05.86	140.39	27.33	-53.0	-57.5	3.7	0.00e+00	0	45	104	0	77	24489
2026-01-22 07:36:06.86	140.21	27.57	-53.0	-57.6	3.7	0.00e+00	0	45	104	0	77	24651
2026-01-22 07:36:07.85	140.03	27.82	-53.1	-57.7	3.6	0.00e+00	0	45	104	0	77	24859
2026-01-22 07:36:08.84	139.85	28.06	-53.3	-57.7	3.7	0.00e+00	0	45	104	0	77	25033
2026-01-22 07:36:09.84	139.66	28.31	-53.3	-57.8	3.7	0.00e+00	0	45	104	0	77	25229
2026-01-22 07:36:10.83	139.47	28.57	-53.5	-57.9	3.7	0.00e+00	0	45	104	0	77	25394
2026-01-22 07:36:11.83	139.28	28.82	-53.4	-57.8	3.7	0.00e+00	0	45	104	0	77	25115
2026-01-22 07:36:12.82	139.08	29.08	-53.2	-57.5	3.7	0.00e+00	0	45	104	0	77	24386
2026-01-22 07:36:13.82	138.88	29.34	-53.4	-57.8	3.7	0.00e+00	0	45	104	0	77	25127
2026-01-22 07:36:14.81	138.68	29.60	-53.3	-57.6	3.7	0.00e+00	0	45	104	0	77	24762
2026-01-22 07:36:15.80	138.48	29.86	-53.3	-57.6	3.7	0.00e+00	0	45	104	0	77	24565
2026-01-22 07:36:16.85	138.25	30.14	-53.3	-57.4	3.7	0.00e+00	0	45	104	0	77	24181
2026-01-22 07:36:17.84	138.04	30.41	-53.3	-57.6	3.7	0.00e+00	0	45	104	0	77	24543
2026-01-22 07:36:18.84	137.82	30.69	-53.3	-57.7	3.7	0.00e+00	0	45	104	0	77	24808
2026-01-22 07:36:19.83	137.60	30.96	-53.4	-57.7	3.7	0.00e+00	0	45	104	0	77	24889
2026-01-22 07:36:20.82	137.37	31.23	-53.2	-57.5	3.7	0.00e+00	0	45	104	0	77	24255
2026-01-22 07:36:21.82	137.14	31.52	-53.3	-57.7	3.7	0.00e+00	0	45	104	0	77	24828
2026-01-22 07:36:22.81	136.91	31.80	-53.1	-57.6	3.7	0.00e+00	0	45	104	0	77	24719
2026-01-22 07:36:23.81	136.67	32.08	-53.3	-57.6	3.7	0.00e+00	0	45	104	0	77	24771
2026-01-22 07:36:24.81	136.42	32.37	-53.0	-57.2	3.7	0.00e+00	0	45	104	0	77	23601
2026-01-22 07:36:25.80	136.17	32.66	-53.2	-57.7	3.7	0.00e+00	0	45	104	0	77	24880
2026-01-22 07:36:26.80	135.92	32.96	-53.4	-57.7	3.7	0.00e+00	0	45	104	0	77	24834
2026-01-22 07:36:27.79	135.66	33.25	-53.2	-57.4	3.7	0.00e+00	0	45	104	0	77	24137
2026-01-22 07:36:28.79	135.39	33.56	-52.9	-57.1	3.7	0.00e+00	0	45	104	0	77	23311
2026-01-22 07:36:29.78	135.12	33.86	-53.2	-57.4	3.7	0.00e+00	0	45	104	0	77	24158
2026-01-22 07:36:30.78	134.85	34.16	-52.7	-57.2	3.7	0.00e+00	0	45	104	0	77	23602
2026-01-22 07:36:31.79	134.56	34.47	-52.4	-57.2	3.7	0.00e+00	0	45	104	0	76	24944
2026-01-22 07:36:32.78	134.28	34.78	-52.3	-56.9	3.7	0.00e+00	0	45	104	0	76	24042
2026-01-22 07:36:33.78	133.98	35.10	-52.4	-57.2	3.7	0.00e+00	0	45	104	0	76	25063
2026-01-22 07:36:34.77	133.69	35.41	-52.6	-57.2	3.7	0.00e+00	0	45	104	0	76	25059
2026-01-22 07:36:35.76	133.38	35.73	-53.0	-57.3	3.7	0.00e+00	0	45	104	0	76	25313
2026-01-22 07:36:36.76	133.07	36.05	-53.2	-57.2	3.7	0.00e+00	0	45	104	0	77	23602
2026-01-22 07:36:37.91	132.70	36.43	-53.2	-57.4	3.7	0.00e+00	0	45	104	0	77	24195
2026-01-22 07:36:38.83	132.40	36.73	-53.2	-57.4	3.7	0.00e+00	0	45	104	0	77	23982
2026-01-22 07:36:39.99	132.01	37.12	-53.1	-57.4	3.7	0.00e+00	0	45	104	0	77	24186
2026-01-22 07:36:40.85	131.71	37.41	-53.0	-57.1	3.7	0.00e+00	0	45	104	0	77	23256
2026-01-22 07:36:41.98	131.32	37.79	-53.2	-57.5	3.7	0.00e+00	0	45	104	0	77	24496
2026-01-22 07:36:42.84	131.01	38.08	-53.2	-57.4	3.7	0.00e+00	0	45	104	0	77	24241
2026-01-22 07:36:43.97	130.60	38.47	-53.4	-57.8	3.7	0.00e+00	0	45	104	0	77	25307
2026-01-22 07:36:44.82	130.28	38.76	-53.1	-57.2	3.7	0.00e+00	0	45	104	0	77	23509
2026-01-22 07:36:45.96	129.84	39.16	-53.5	-57.8	3.7	0.00e+00	0	45	104	0	77	25228
2026-01-22 07:36:46.82	129.51	39.46	-53.3	-57.6	3.7	0.00e+00	0	45	104	0	77	24786
2026-01-22 07:36:47.95	129.05	39.86	-53.3	-57.6	3.7	0.00e+00	0	45	104	0	77	24631
2026-01-22 07:36:48.80	128.70	40.17	-53.2	-57.4	3.7	0.00e+00	0	45	104	0	77	24039
2026-01-22 07:36:50.00	128.20	40.60	-53.2	-57.3	3.7	0.00e+00	0	45	104	0	77	23918
2026-01-22 07:36:50.86	127.83	40.91	-52.9	-57.1	3.7	0.00e+00	0	45	104	0	77	23182
2026-01-22 07:36:52.07	127.30	41.35	-53.2	-57.6	3.7	0.00e+00	0	45	104	0	77	24735
2026-01-22 07:36:52.92	126.91	41.66	-53.2	-57.7	3.7	0.00e+00	0	45	104	0	77	24954
2026-01-22 07:36:54.13	126.35	42.11	-52.4	-56.4	3.7	0.00e+00	0	45	104	0	76	22695
2026-01-22 07:36:54.98	125.95	42.42	-53.1	-57.8	3.7	0.00e+00	0	45	104	0	76	26584
2026-01-22 07:36:56.11	125.40	42.84	-52.5	-56.2	3.7	0.00e+00	0	45	104	0	76	22124
2026-01-22 07:36:56.96	124.98	43.16	-52.3	-55.7	3.7	0.00e+00	0	45	104	0	76	20943
2026-01-22 07:36:58.10	124.40	43.59	-52.2	-55.6	3.7	0.00e+00	0	45	104	0	76	20638
2026-01-22 07:36:58.95	123.95	43.91	-52.2	-55.6	3.7	0.00e+00	0	45	104	0	76	20729
2026-01-22 07:37:00.09	123.34	44.35	-52.9	-56.7	3.7	0.00e+00	0	45	104	0	76	23563
2026-01-22 07:37:01.04	122.82	44.71	-53.6	-58.0	3.7	0.00e+00	0	45	104	0	77	25703
2026-01-22 07:37:02.03	122.26	45.09	-53.5	-57.9	3.7	0.00e+00	0	45	104	0	77	25630
2026-01-22 07:37:03.03	121.69	45.47	-53.6	-58.0	3.7	0.00e+00	0	45	104	0	77	25689
2026-01-22 07:37:04.02	121.10	45.85	-53.6	-58.0	3.7	0.00e+00	0	45	104	0	77	25817
2026-01-22 07:37:05.02	120.49	46.23	-53.3	-57.9	3.7	0.00e+00	0	45	104	0	77	25537
2026-01-22 07:37:06.01	119.88	46.62	-53.4	-58.0	3.7	0.00e+00	0	45	104	0	77	25844
2026-01-22 07:37:07.01	119.24	47.00	-53.0	-57.7	3.7	0.00e+00	0	45	104	0	77	25066
2026-01-22 07:37:08.00	118.59	47.38	-53.5	-57.8	3.7	0.00e+00	0	45	104	0	77	25226
2026-01-22 07:37:09.00	117.92	47.77	-53.6	-57.9	3.7	0.00e+00	0	45	104	0	77	25675
2026-01-22 07:37:09.99	117.24	48.15	-53.6	-57.9	3.7	0.00e+00	0	45	104	0	77	25534
2026-01-22 07:37:10.98	116.54	48.53	-53.7	-58.0	3.7	0.00e+00	0	45	104	0	78	24504
2026-01-22 07:37:11.98	115.81	48.91	-53.6	-57.9	3.7	0.00e+00	0	45	104	0	78	24159
2026-01-22 07:37:12.97	115.08	49.29	-53.5	-57.8	3.7	0.00e+00	0	45	104	0	78	23797
2026-01-22 07:37:14.00	114.29	49.69	-53.5	-57.7	3.7	0.00e+00	0	45	104	0	78	23646
2026-01-22 07:37:15.00	113.51	50.06	-53.6	-57.8	3.7	0.00e+00	0	45	104	0	78	23921
2026-01-22 07:37:15.99	112.71	50.44	-53.6	-57.9	3.7	0.00e+00	0	45	104	0	78	23978
2026-01-22 07:37:16.99	111.89	50.81	-53.3	-57.6	3.7	0.00e+00	0	45	104	0	78	23354
2026-01-22 07:37:17.98	111.05	51.18	-53.4	-57.7	3.7	0.00e+00	0	45	104	0	78	23672
2026-01-22 07:37:18.98	110.18	51.55	-53.3	-57.6	3.7	0.00e+00	0	45	104	0	78	23226
2026-01-22 07:37:19.97	109.30	51.91	-53.5	-58.0	3.7	0.00e+00	0	45	104	0	78	24248
2026-01-22 07:37:20.97	108.39	52.27	-52.6	-57.4	3.7	0.00e+00	0	45	104	0	77	24183
2026-01-22 07:37:21.96	107.47	52.62	-52.5	-57.4	3.7	0.00e+00	0	45	104	0	77	24073
2026-01-22 07:37:22.96	106.51	52.97	-53.1	-57.7	3.7	0.00e+00	0	45	104	0	76	26487
2026-01-22 07:37:23.95	105.54	53.31	-53.0	-57.7	3.7	0.00e+00	0	45	104	0	76	26389
2026-01-22 07:37:24.95	104.53	53.65	-53.4	-57.9	3.6	0.00e+00	0	45	104	0	77	25613
2026-01-22 07:37:25.94	103.52	53.97	-53.2	-57.8	3.7	0.00e+00	0	45	104	0	77	25212
2026-01-22 07:37:26.94	102.46	54.30	-53.6	-58.0	3.7	0.00e+00	0	45	104	0	77	25899
2026-01-22 07:37:27.93	101.40	54.61	-53.3	-57.9	3.7	0.00e+00	0	45	104	0	77	25407
2026-01-22 07:37:28.96	100.26	54.93	-53.4	-57.9	3.7	0.00e+00	0	45	104	0	77	25612
2026-01-22 07:37:29.98	99.12	55.24	-53.4	-57.9	3.7	0.00e+00	0	45	104	0	77	25604
2026-01-22 07:37:30.98	97.97	55.53	-53.2	-57.8	3.7	0.00e+00	0	45	104	0	77	25211
2026-01-22 07:37:31.97	96.80	55.81	-53.6	-58.0	3.7	0.00e+00	0	45	104	0	77	25804
2026-01-22 07:37:32.97	95.60	56.08	-52.3	-57.3	3.7	0.00e+00	0	45	104	0	76	25343
2026-01-22 07:37:33.96	94.40	56.34	-52.5	-57.4	3.7	0.00e+00	0	45	104	0	76	25648
2026-01-22 07:37:34.95	93.16	56.58	-53.0	-57.8	3.7	0.00e+00	0	45	104	0	76	26615
2026-01-22 07:37:35.95	91.90	56.82	-53.3	-57.9	3.7	0.00e+00	0	45	104	0	77	25519
2026-01-22 07:37:36.94	90.62	57.04	-52.8	-57.7	3.7	0.00e+00	0	45	104	0	77	24836
2026-01-22 07:37:37.93	89.33	57.25	-52.9	-57.7	3.7	0.00e+00	0	45	104	0	77	24919
2026-01-22 07:37:38.93	88.00	57.45	-53.2	-57.8	3.7	0.00e+00	0	46	104	0	77	25312
2026-01-22 07:37:39.92	86.66	57.63	-52.9	-57.7	3.7	0.00e+00	0	45	104	0	77	25020
2026-01-22 07:37:40.92	85.30	57.80	-52.9	-57.8	3.7	0.00e+00	0	45	104	0	77	25136
2026-01-22 07:37:41.91	83.93	57.96	-52.9	-57.7	3.7	0.00e+00	0	45	104	0	77	24865
2026-01-22 07:37:42.91	82.53	58.10	-53.1	-57.8	3.7	0.00e+00	0	45	104	0	77	25212
2026-01-22 07:37:43.95	81.06	58.23	-53.2	-57.9	3.7	0.00e+00	0	46	104	0	77	25401
2026-01-22 07:37:44.94	79.65	58.34	-53.2	-57.9	3.7	0.00e+00	0	45	104	0	77	25487
2026-01-22 07:37:45.94	78.21	58.43	-53.3	-57.9	3.7	0.00e+00	0	45	104	0	77	25487
2026-01-22 07:37:46.93	76.78	58.50	-53.3	-57.9	3.7	0.00e+00	0	45	104	0	77	25425
2026-01-22 07:37:47.93	75.33	58.56	-53.4	-58.0	3.7	0.00e+00	0	45	104	0	77	25773
2026-01-22 07:37:48.92	73.88	58.60	-53.4	-58.0	3.7	0.00e+00	0	45	104	0	77	25860
2026-01-22 07:37:49.92	72.42	58.63	-53.7	-58.1	3.7	0.00e+00	0	45	104	0	77	26185
2026-01-22 07:37:50.91	70.97	58.64	-53.5	-57.8	3.7	0.00e+00	0	45	104	0	78	23834
2026-01-22 07:37:51.91	69.51	58.63	-53.5	-57.9	3.7	0.00e+00	0	45	104	0	78	24117
2026-01-22 07:37:52.90	68.06	58.60	-53.5	-57.9	3.7	0.00e+00	0	45	104	0	78	24037
2026-01-22 07:37:53.90	66.61	58.56	-53.7	-58.2	3.7	0.00e+00	0	45	104	0	78	24822
2026-01-22 07:37:54.89	65.17	58.50	-53.5	-58.0	3.7	0.00e+00	0	46	104	0	78	24260
2026-01-22 07:37:55.88	63.74	58.42	-53.7	-58.1	3.7	0.00e+00	0	45	104	0	78	24652
2026-01-22 07:37:56.88	62.30	58.33	-53.7	-58.1	3.7	0.00e+00	0	46	104	0	78	24627
2026-01-22 07:37:57.94	60.80	58.22	-53.6	-58.0	3.7	0.00e+00	0	45	104	0	78	24317
2026-01-22 07:37:58.88	59.47	58.10	-53.5	-58.0	3.7	0.00e+00	0	45	104	0	78	24279
2026-01-22 07:37:59.88	58.07	57.96	-53.7	-58.1	3.7	0.00e+00	0	45	104	0	78	24777
2026-01-22 07:38:00.87	56.70	57.80	-53.7	-58.1	3.7	0.00e+00	0	45	104	0	78	24599
2026-01-22 07:38:01.86	55.35	57.64	-53.7	-58.2	3.7	0.00e+00	0	45	104	0	78	24834
2026-01-22 07:38:02.85	54.02	57.45	-53.6	-58.1	3.7	0.00e+00	0	45	104	0	78	24610
2026-01-22 07:38:03.85	52.69	57.25	-53.7	-58.1	3.7	0.00e+00	0	45	104	0	78	24651
2026-01-22 07:38:04.84	51.40	57.05	-53.7	-58.1	3.6	0.00e+00	0	45	104	0	78	24603
2026-01-22 07:38:05.84	50.11	56.82	-53.5	-58.0	3.7	0.00e+00	0	45	104	0	78	24495
2026-01-22 07:38:06.83	48.86	56.59	-53.7	-58.1	3.7	0.00e+00	0	45	104	0	78	24664
2026-01-22 07:38:07.82	47.63	56.34	-53.6	-58.1	3.7	0.00e+00	0	45	104	0	78	24684
2026-01-22 07:38:08.82	46.41	56.08	-53.7	-58.1	3.7	0.00e+00	0	45	104	0	78	24717
2026-01-22 07:38:09.82	45.21	55.81	-53.4	-58.0	3.7	0.00e+00	0	45	104	0	78	24254
2026-01-22 07:38:10.81	44.05	55.53	-53.8	-58.2	3.6	0.00e+00	0	45	104	0	78	24938
2026-01-22 07:38:11.84	42.87	55.23	-53.6	-58.1	3.7	0.00e+00	0	45	104	0	78	24546
2026-01-22 07:38:12.83	41.76	54.94	-53.6	-58.0	3.7	0.00e+00	0	45	104	0	78	24522
2026-01-22 07:38:13.87	40.62	54.62	-53.6	-58.0	3.7	0.00e+00	0	45	104	0	78	24411
2026-01-22 07:38:14.85	39.56	54.31	-53.7	-58.1	3.7	0.00e+00	0	45	104	0	78	24605
2026-01-22 07:38:15.85	38.51	53.98	-53.4	-57.9	3.7	0.00e+00	0	45	104	0	78	24129
2026-01-22 07:38:16.84	37.50	53.65	-53.4	-57.9	3.7	0.00e+00	0	45	104	0	78	24035
2026-01-22 07:38:17.84	36.49	53.32	-53.3	-57.7	3.6	0.00e+00	0	45	104	0	78	23636
2026-01-22 07:38:18.83	35.53	52.98	-53.3	-57.7	3.7	0.00e+00	0	46	104	0	78	23662
2026-01-22 07:38:19.83	34.57	52.63	-53.3	-57.6	3.7	0.00e+00	0	45	104	0	78	23274
2026-01-22 07:38:20.82	33.65	52.28	-53.4	-57.7	3.7	0.00e+00	0	45	104	0	78	23475
2026-01-22 07:38:21.82	32.74	51.92	-53.1	-57.4	3.7	0.00e+00	0	45	104	0	78	22721
2026-01-22 07:38:22.81	31.86	51.56	-53.5	-57.7	3.7	0.00e+00	0	45	104	0	78	23573
2026-01-22 07:38:23.81	31.00	51.19	-53.2	-57.5	3.7	0.00e+00	0	45	104	0	78	22972
2026-01-22 07:38:24.80	30.16	50.83	-53.1	-57.5	3.7	0.00e+00	0	45	104	0	78	22914
2026-01-22 07:38:25.84	29.31	50.44	-52.9	-57.3	3.7	0.00e+00	0	45	104	0	77	23810
2026-01-22 07:38:26.82	28.52	50.07	-52.4	-56.8	3.7	0.00e+00	0	45	104	0	76	23712
2026-01-22 07:38:27.90	27.68	49.66	-52.7	-57.0	3.7	0.00e+00	0	45	104	0	76	24410
2026-01-22 07:38:28.80	26.99	49.32	-52.6	-56.9	3.7	0.00e+00	0	45	104	0	76	24160
2026-01-22 07:38:30.07	26.05	48.84	-52.8	-57.0	3.7	0.00e+00	0	45	104	0	76	24307
2026-01-22 07:38:30.80	25.53	48.56	-52.8	-56.9	3.7	0.00e+00	0	45	104	0	76	23986
2026-01-22 07:38:32.08	24.63	48.07	-52.9	-56.9	3.7	0.00e+00	0	45	104	0	76	24035
2026-01-22 07:38:32.80	24.13	47.79	-53.1	-57.0	3.7	0.00e+00	0	45	104	0	76	24501
2026-01-22 07:38:34.08	23.28	47.30	-52.9	-56.9	3.7	0.00e+00	0	45	104	0	76	24191
2026-01-22 07:38:34.79	22.82	47.03	-52.7	-56.8	3.7	0.00e+00	0	45	104	0	76	23860
2026-01-22 07:38:36.07	22.01	46.54	-52.7	-57.2	3.7	0.00e+00	0	45	104	0	76	24880
2026-01-22 07:38:36.92	21.48	46.21	-52.5	-56.8	3.7	0.00e+00	0	45	104	0	76	23867
2026-01-22 07:38:38.06	20.79	45.77	-52.4	-57.2	3.7	0.00e+00	0	45	104	0	76	25028
2026-01-22 07:38:38.91	20.29	45.45	-53.1	-57.7	3.7	0.00e+00	0	45	104	0	76	26417
2026-01-22 07:38:40.05	19.64	45.01	-52.8	-57.5	3.7	0.00e+00	0	45	104	0	76	25895
2026-01-22 07:38:40.90	19.17	44.69	-53.4	-57.9	3.7	0.00e+00	0	45	104	0	77	25436
2026-01-22 07:38:42.04	18.55	44.26	-53.3	-57.9	3.7	0.00e+00	0	45	104	0	77	25399
2026-01-22 07:38:42.89	18.09	43.94	-53.5	-58.0	3.7	0.00e+00	0	45	104	0	77	25694
2026-01-22 07:38:44.03	17.50	43.51	-53.4	-57.9	3.7	0.00e+00	0	45	104	0	77	25446
2026-01-22 07:38:44.88	17.07	43.19	-53.5	-58.0	3.7	0.00e+00	0	45	104	0	77	25847
2026-01-22 07:38:46.07	16.48	42.75	-53.3	-57.7	3.7	0.00e+00	0	45	104	0	77	25090
2026-01-22 07:38:46.92	16.08	42.43	-53.1	-57.6	3.7	0.00e+00	0	45	104	0	77	24603
2026-01-22 07:38:48.06	15.54	42.01	-53.0	-57.6	3.7	0.00e+00	0	45	104	0	77	24525
2026-01-22 07:38:48.93	15.14	41.69	-53.2	-57.8	3.7	0.00e+00	0	45	104	0	77	25133
2026-01-22 07:38:50.07	14.63	41.28	-53.0	-57.7	3.7	0.00e+00	0	45	104	0	77	24898
2026-01-22 07:38:51.00	14.22	40.94	-53.2	-57.9	3.7	0.00e+00	0	45	104	0	77	25496
2026-01-22 07:38:51.99	13.80	40.58	-53.1	-57.8	3.7	0.00e+00	0	45	104	0	77	25173
2026-01-22 07:38:52.98	13.39	40.23	-53.1	-57.8	3.7	0.00e+00	0	45	104	0	77	25183
2026-01-22 07:38:53.98	12.98	39.88	-52.2	-57.2	3.7	0.00e+00	0	45	104	0	76	25062
2026-01-22 07:38:54.97	12.58	39.53	-52.2	-57.2	3.7	0.00e+00	0	45	104	0	76	24917
2026-01-22 07:38:55.97	12.19	39.18	-52.6	-57.5	3.7	0.00e+00	0	45	104	0	76	25828
2026-01-22 07:38:56.96	11.81	38.83	-53.2	-57.8	3.6	0.00e+00	0	45	104	0	76	26625
2026-01-22 07:38:57.96	11.44	38.49	-53.2	-57.8	3.7	0.00e+00	0	46	104	0	77	25219
2026-01-22 07:38:58.95	11.08	38.15	-53.2	-57.8	3.7	0.00e+00	0	45	104	0	77	25196
2026-01-22 07:38:59.95	10.72	37.81	-53.1	-57.7	3.7	0.00e+00	0	45	104	0	77	24991
2026-01-22 07:39:01.03	10.35	37.45	-53.2	-57.8	3.7	0.00e+00	0	45	104	0	77	25174
2026-01-22 07:39:01.89	10.05	37.16	-53.1	-57.7	3.7	0.00e+00	0	45	104	0	77	25036
2026-01-22 07:39:03.02	9.68	36.79	-53.4	-57.9	3.7	0.00e+00	0	45	104	0	77	25394
2026-01-22 07:39:03.88	9.40	36.51	-53.2	-57.7	3.7	0.00e+00	0	45	104	0	77	25063
2026-01-22 07:39:05.01	9.04	36.14	-53.5	-58.0	3.6	0.00e+00	0	46	104	0	77	25778
2026-01-22 07:39:05.87	8.77	35.86	-53.4	-57.8	3.7	0.00e+00	0	45	104	0	77	25221
2026-01-22 07:39:07.00	8.42	35.50	-52.9	-57.6	3.7	0.00e+00	0	45	104	0	77	24705
2026-01-22 07:39:07.86	8.16	35.23	-53.4	-57.9	3.7	0.00e+00	0	45	104	0	77	25435
2026-01-22 07:39:08.99	7.83	34.87	-52.7	-57.5	3.7	0.00e+00	0	45	104	0	77	24400
2026-01-22 07:39:09.84	7.58	34.61	-52.2	-57.3	3.7	0.00e+00	0	45	104	0	76	25106
2026-01-22 07:39:10.98	7.26	34.26	-52.5	-57.5	3.7	0.00e+00	0	45	104	0	76	25717
2026-01-22 07:39:11.83	7.03	34.00	-52.2	-57.3	3.7	0.00e+00	0	45	104	0	76	25149
2026-01-22 07:39:12.97	6.72	33.65	-52.6	-57.6	3.7	0.00e+00	0	45	104	0	76	26065
2026-01-22 07:39:13.82	6.49	33.40	-52.8	-57.7	3.7	0.00e+00	0	45	104	0	76	26403
2026-01-22 07:39:14.96	6.20	33.06	-52.8	-57.7	3.7	0.00e+00	0	45	104	0	76	26288
2026-01-22 07:39:15.81	5.98	32.81	-52.9	-57.7	3.7	0.00e+00	0	45	104	0	76	26427
2026-01-22 07:39:16.95	5.69	32.48	-53.2	-57.8	3.7	0.00e+00	0	45	104	0	76	26655
2026-01-22 07:39:17.80	5.48	32.23	-53.2	-57.8	3.7	0.00e+00	0	45	104	0	77	25269
2026-01-22 07:39:18.94	5.21	31.91	-53.0	-57.7	3.7	0.00e+00	0	45	104	0	77	24856
2026-01-22 07:39:19.79	5.01	31.66	-53.1	-57.6	3.7	0.00e+00	0	45	104	0	77	24624
2026-01-22 07:39:20.93	4.74	31.34	-52.4	-57.5	3.7	0.00e+00	0	45	104	0	76	25754
2026-01-22 07:39:21.78	4.55	31.11	-52.8	-57.6	3.7	0.00e+00	0	45	104	0	76	26168
2026-01-22 07:39:22.92	4.29	30.79	-52.5	-57.3	3.7	0.00e+00	0	45	104	0	76	25349
2026-01-22 07:39:23.77	4.11	30.56	-52.9	-57.7	3.7	0.00e+00	0	45	104	0	76	26485
2026-01-22 07:39:24.90	3.86	30.26	-53.2	-57.8	3.7	0.00e+00	0	45	104	0	77	25190
2026-01-22 07:39:25.76	3.68	30.03	-53.2	-57.8	3.7	0.00e+00	0	45	104	0	77	25318
2026-01-22 07:39:26.93	3.44	29.72	-53.2	-57.7	3.7	0.00e+00	0	45	104	0	77	24953
2026-01-22 07:39:27.78	3.27	29.49	-53.0	-57.7	3.7	0.00e+00	0	45	104	0	77	24826
2026-01-22 07:39:28.98	3.03	29.18	-53.2	-57.8	3.7	0.00e+00	0	45	104	0	77	25299
2026-01-22 07:39:29.83	2.86	28.96	-53.0	-57.7	3.7	0.00e+00	0	45	104	0	77	24914
2026-01-22 07:39:31.03	2.63	28.66	-53.2	-57.9	3.7	0.00e+00	0	45	104	0	77	25474
2026-01-22 07:39:31.88	2.47	28.44	-53.1	-57.7	3.7	0.00e+00	0	46	104	0	77	24987
2026-01-22 07:39:33.02	2.25	28.16	-52.9	-57.6	3.7	0.00e+00	0	45	104	0	77	24720
2026-01-22 07:39:33.87	2.10	27.95	-53.1	-57.7	3.7	0.00e+00	0	45	104	0	77	24943
2026-01-22 07:39:35.01	1.89	27.67	-53.0	-57.7	3.7	0.00e+00	0	45	104	0	77	24999
2026-01-22 07:39:35.86	1.74	27.46	-53.3	-57.9	3.7	0.00e+00	0	45	104	0	77	25387
2026-01-22 07:39:37.00	1.55	27.19	-53.4	-57.9	3.7	0.00e+00	0	45	104	0	77	25439
2026-01-22 07:39:37.85	1.40	26.99	-53.3	-57.9	3.7	0.00e+00	0	45	104	0	77	25493
2026-01-22 07:39:38.99	1.21	26.72	-53.4	-57.9	3.7	0.00e+00	0	45	104	0	77	25602
2026-01-22 07:39:39.84	1.07	26.52	-53.0	-57.7	3.7	0.00e+00	0	45	104	0	77	25051
2026-01-22 07:39:40.98	0.88	26.25	-53.2	-57.8	3.7	0.00e+00	0	45	104	0	77	25360
2026-01-22 07:39:41.83	0.75	26.06	-53.0	-57.7	3.7	0.00e+00	0	45	104	0	77	25057
2026-01-22 07:39:42.97	0.57	25.80	-53.1	-57.8	3.7	0.00e+00	0	45	104	0	77	25219
2026-01-22 07:39:43.82	0.43	25.61	-53.0	-57.7	3.7	0.00e+00	0	45	104	0	77	24845
2026-01-22 07:39:45.01	0.25	25.34	-52.7	-57.5	3.7	0.00e+00	0	45	104	0	77	24299
2026-01-22 07:39:45.86	0.13	25.16	-53.1	-57.7	3.7	0.00e+00	0	45	104	0	77	25038
2026-01-22 07:39:47.08	359.95	24.89	-52.7	-57.5	3.7	0.00e+00	0	46	104	0	77	24471
2026-01-22 07:39:47.93	359.82	24.70	-52.9	-57.6	3.7	0.00e+00	0	45	104	0	77	24764
2026-01-22 07:39:49.10	359.65	24.45	-53.1	-57.8	3.7	0.00e+00	0	45	104	0	77	25199
2026-01-22 07:39:49.95	359.54	24.27	-52.8	-57.6	3.7	0.00e+00	0	45	104	0	77	24736
2026-01-22 07:39:51.09	359.38	24.03	-53.0	-57.8	3.7	0.00e+00	0	45	104	0	77	25196
2026-01-22 07:39:51.94	359.26	23.85	-53.0	-57.7	3.7	0.00e+00	0	45	104	0	77	24904
2026-01-22 07:39:53.08	359.11	23.62	-52.7	-57.5	3.7	0.00e+00	0	45	104	0	77	24310
2026-01-22 07:39:53.95	358.99	23.44	-53.1	-57.7	3.7	0.00e+00	0	45	104	0	77	25058
2026-01-22 07:39:55.09	358.84	23.21	-52.9	-57.6	3.7	0.00e+00	0	46	104	0	77	24725
2026-01-22 07:39:55.94	358.74	23.04	-52.1	-57.1	3.7	0.00e+00	0	45	104	0	76	24785
2026-01-22 07:39:57.07	358.59	22.81	-52.5	-57.4	3.7	0.00e+00	0	45	104	0	76	25614
2026-01-22 07:39:58.05	358.47	22.62	-52.3	-57.2	3.7	0.00e+00	0	45	104	0	76	25092
2026-01-22 07:39:59.05	358.35	22.42	-52.3	-57.4	3.7	0.00e+00	0	45	104	0	76	25526
2026-01-22 07:40:00.04	358.23	22.23	-52.8	-57.6	3.7	0.00e+00	0	45	104	0	76	26112
2026-01-22 07:40:01.04	358.11	22.04	-52.5	-57.4	3.7	0.00e+00	0	45	104	0	76	25465
2026-01-22 07:40:02.03	357.99	21.85	-52.6	-57.5	3.7	0.00e+00	0	45	104	0	76	25864
2026-01-22 07:40:03.02	357.88	21.66	-52.8	-57.6	3.7	0.00e+00	0	45	104	0	76	26150
2026-01-22 07:40:04.02	357.76	21.47	-52.3	-57.2	3.7	0.00e+00	0	45	104	0	76	25043
2026-01-22 07:40:05.01	357.65	21.29	-52.8	-57.6	3.7	0.00e+00	0	45	104	0	76	25985
2026-01-22 07:40:06.01	357.54	21.11	-52.2	-57.2	3.7	0.00e+00	0	45	104	0	76	25088
2026-01-22 07:40:07.01	357.43	20.92	-52.7	-57.5	3.7	0.00e+00	0	45	104	0	76	25923
2026-01-22 07:40:08.00	357.32	20.74	-53.0	-57.7	3.7	0.00e+00	0	45	104	0	76	26336
2026-01-22 07:40:09.00	357.22	20.57	-52.5	-57.3	3.7	0.00e+00	0	45	104	0	76	25378
2026-01-22 07:40:09.99	357.11	20.39	-52.9	-57.6	3.7	0.00e+00	0	45	104	0	76	26267
2026-01-22 07:40:10.99	357.01	20.21	-53.0	-57.7	3.7	0.00e+00	0	46	104	0	76	26341
2026-01-22 07:40:11.98	356.91	20.04	-52.5	-57.4	3.7	0.00e+00	0	45	104	0	76	25604
2026-01-22 07:40:12.97	356.81	19.87	-53.1	-57.8	3.7	0.00e+00	0	45	104	0	76	26687
2026-01-22 07:40:13.97	356.71	19.69	-52.6	-57.4	3.7	0.00e+00	0	45	104	0	76	25518
2026-01-22 07:40:14.96	356.61	19.53	-53.0	-57.7	3.7	0.00e+00	0	45	104	0	76	26412
2026-01-22 07:40:15.96	356.51	19.36	-52.8	-57.6	3.7	0.00e+00	0	45	104	0	76	26105
2026-01-22 07:40:16.96	356.42	19.19	-51.9	-57.1	3.7	0.00e+00	0	45	104	0	75	26047
2026-01-22 07:40:17.95	356.32	19.02	-53.0	-57.7	3.7	0.00e+00	0	45	104	0	76	26545
2026-01-22 07:40:18.94	356.23	18.86	-51.5	-56.8	3.7	0.00e+00	0	45	104	0	75	25274
2026-01-22 07:40:19.94	356.14	18.70	-51.6	-56.9	3.7	0.00e+00	0	45	104	0	75	25615
2026-01-22 07:40:20.93	356.05	18.53	-51.9	-57.1	3.7	0.00e+00	0	45	104	0	75	26094
2026-01-22 07:40:21.93	355.96	18.37	-52.2	-57.3	3.6	0.00e+00	0	45	104	0	75	26701
2026-01-22 07:40:22.92	355.87	18.22	-52.4	-57.4	3.7	0.00e+00	0	46	104	0	75	27037
2026-01-22 07:40:23.92	355.79	18.06	-52.4	-57.3	3.7	0.00e+00	0	45	104	0	75	26873
2026-01-22 07:40:24.94	355.70	17.90	-51.9	-57.1	3.7	0.00e+00	0	45	104	0	75	26129
2026-01-22 07:40:25.97	355.61	17.73	-52.2	-57.2	3.7	0.00e+00	0	45	104	0	75	26581
2026-01-22 07:40:27.00	355.52	17.57	-51.7	-56.9	3.7	0.00e+00	0	45	104	0	75	25504
2026-01-22 07:40:28.00	355.44	17.42	-51.1	-56.5	3.7	0.00e+00	0	45	104	0	74	25893
2026-01-22 07:40:28.99	355.36	17.27	-52.4	-57.4	3.7	0.00e+00	0	45	104	0	75	26961
2026-01-22 07:40:29.99	355.28	17.12	-51.0	-56.5	3.7	0.00e+00	0	45	104	0	74	25733
2026-01-22 07:40:30.98	355.20	16.97	-52.4	-57.4	3.7	0.00e+00	0	45	104	0	75	27009
2026-01-22 07:40:31.98	355.12	16.82	-52.0	-57.2	3.7	0.00e+00	0	45	104	0	75	26283
2026-01-22 07:40:32.97	355.04	16.67	-52.4	-57.4	3.7	0.00e+00	0	45	104	0	75	27135
2026-01-22 07:40:33.96	354.97	16.53	-52.5	-57.5	3.7	0.00e+00	0	45	104	0	75	27311
2026-01-22 07:40:34.96	354.89	16.38	-52.5	-57.5	3.7	0.00e+00	0	45	104	0	75	27496
2026-01-22 07:40:35.95	354.81	16.24	-52.6	-57.6	3.7	0.00e+00	0	45	104	0	75	27649
2026-01-22 07:40:36.95	354.74	16.10	-52.7	-57.7	3.7	0.00e+00	0	45	104	0	75	27963
2026-01-22 07:40:37.94	354.67	15.95	-51.8	-57.1	3.7	0.00e+00	0	46	104	0	75	26187
2026-01-22 07:40:38.94	354.59	15.81	-52.5	-57.7	3.7	0.00e+00	0	46	104	0	75	27857
2026-01-22 07:40:39.93	354.52	15.67	-51.9	-57.1	3.7	0.00e+00	0	45	104	0	75	26233
2026-01-22 07:40:40.93	354.45	15.53	-52.1	-57.4	3.7	0.00e+00	0	45	104	0	75	26958
2026-01-22 07:40:41.93	354.38	15.40	-52.4	-57.6	3.7	0.00e+00	0	45	104	0	75	27758
2026-01-22 07:40:42.97	354.31	15.25	-52.6	-57.7	3.7	0.00e+00	0	45	104	0	75	28138
2026-01-22 07:40:43.95	354.24	15.12	-52.4	-57.6	3.7	0.00e+00	0	45	104	0	75	27681
2026-01-22 07:40:45.04	354.17	14.97	-51.9	-57.3	3.7	0.00e+00	0	45	104	0	75	26693
2026-01-22 07:40:45.89	354.11	14.86	-51.9	-57.3	3.7	0.00e+00	0	45	104	0	75	26697
2026-01-22 07:40:47.03	354.04	14.70	-52.6	-57.9	3.7	0.00e+00	0	45	104	0	75	28499
2026-01-22 07:40:47.88	353.98	14.59	-52.2	-57.4	3.7	0.00e+00	0	45	104	0	75	27051
2026-01-22 07:40:49.01	353.91	14.44	-52.1	-57.4	3.7	0.00e+00	0	46	104	0	74	28578
2026-01-22 07:40:49.87	353.85	14.33	-51.3	-56.9	3.7	0.00e+00	0	45	104	0	74	26941
2026-01-22 07:40:51.00	353.78	14.18	-51.8	-57.1	3.7	0.00e+00	0	45	104	0	74	27691
2026-01-22 07:40:51.86	353.73	14.07	-52.4	-57.5	3.7	0.00e+00	0	45	104	0	75	27214
2026-01-22 07:40:52.99	353.66	13.93	-52.7	-57.6	3.7	0.00e+00	0	45	104	0	76	26153
2026-01-22 07:40:53.84	353.60	13.82	-52.8	-57.6	3.7	0.00e+00	0	45	104	0	76	26081
2026-01-22 07:40:54.98	353.53	13.67	-51.9	-57.2	3.7	0.00e+00	0	45	104	0	75	26300
2026-01-22 07:40:55.83	353.48	13.57	-52.6	-57.5	3.7	0.00e+00	0	45	104	0	75	27444
2026-01-22 07:40:57.03	353.41	13.42	-52.1	-57.3	3.7	0.00e+00	0	45	104	0	75	26742
2026-01-22 07:40:57.89	353.36	13.31	-52.8	-57.6	3.7	0.00e+00	0	46	104	0	76	26199
2026-01-22 07:40:59.09	353.29	13.16	-51.8	-57.1	3.7	0.00e+00	0	46	104	0	75	26105
2026-01-22 07:40:59.94	353.24	13.06	-51.9	-57.2	3.7	0.00e+00	0	46	104	0	75	26506
2026-01-22 07:41:01.08	353.18	12.92	-52.0	-57.3	3.7	0.00e+00	0	46	104	0	75	26609
2026-01-22 07:41:01.93	353.13	12.82	-51.4	-56.8	3.7	0.00e+00	0	45	104	0	74	26767
2026-01-22 07:41:03.07	353.07	12.68	-50.0	-55.8	3.7	0.00e+00	0	45	104	0	71	28376
2026-01-22 07:41:03.92	353.02	12.58	-49.9	-55.8	3.7	0.00e+00	0	45	104	0	71	28243
2026-01-22 07:41:05.06	352.96	12.44	-48.5	-54.9	3.7	0.00e+00	0	46	104	0	68	30466
2026-01-22 07:41:05.91	352.91	12.34	-49.0	-55.3	3.7	0.00e+00	0	46	104	0	68	31756
2026-01-22 07:41:07.05	352.85	12.21	-48.6	-55.0	3.7	0.00e+00	0	46	104	0	68	30591
2026-01-22 07:41:07.90	352.81	12.11	-48.4	-54.9	3.8	0.00e+00	0	45	104	0	68	30283
2026-01-22 07:41:09.04	352.75	11.98	-48.4	-54.9	3.8	0.00e+00	0	46	104	0	68	30211
2026-01-22 07:41:09.89	352.70	11.88	-48.5	-54.9	3.7	0.00e+00	0	45	104	0	68	30282
2026-01-22 07:41:11.03	352.64	11.75	-48.8	-55.1	3.7	0.00e+00	0	45	104	0	68	31147
2026-01-22 07:41:11.88	352.60	11.65	-49.0	-55.2	3.7	0.00e+00	0	46	104	0	68	31369
2026-01-22 07:41:13.08	352.54	11.52	-49.0	-55.1	3.7	0.00e+00	0	45	104	0	69	29322
2026-01-22 07:41:13.93	352.50	11.42	-49.2	-55.4	3.7	0.00e+00	0	46	104	0	69	30444
2026-01-22 07:41:15.07	352.44	11.29	-47.1	-53.7	3.8	0.00e+00	0	45	104	0	66	29566
2026-01-22 07:41:15.93	352.40	11.20	-49.1	-55.3	3.7	0.00e+00	0	45	104	0	68	31754
2026-01-22 07:41:17.06	352.35	11.07	-45.9	-52.7	4.0	0.00e+00	0	45	104	0	63	31309
2026-01-22 07:41:17.95	352.30	10.98	-45.4	-52.3	4.1	0.00e+00	0	46	104	0	62	31837
2026-01-22 07:41:19.09	352.25	10.85	-45.4	-52.4	4.1	0.00e+00	0	45	104	0	62	32025
2026-01-22 07:41:19.94	352.21	10.76	-45.8	-52.8	4.0	0.00e+00	0	45	104	0	62	33579
2026-01-22 07:41:21.08	352.16	10.64	-47.9	-54.4	3.8	0.00e+00	0	45	104	0	66	32155
2026-01-22 07:41:21.93	352.12	10.55	-46.0	-52.9	4.0	0.00e+00	0	45	104	0	63	31993
2026-01-22 07:41:23.06	352.07	10.43	-47.1	-53.7	3.8	0.00e+00	0	46	104	0	64	33223
2026-01-22 07:41:24.14	352.02	10.31	-45.7	-52.6	4.0	0.00e+00	0	45	104	0	63	31007
2026-01-22 07:41:25.16	351.97	10.20	-46.9	-53.6	3.8	0.00e+00	0	45	104	0	64	32989
2026-01-22 07:41:26.35	351.92	10.08	-45.7	-52.7	4.0	0.00e+00	0	45	104	0	63	31276
2026-01-22 07:41:27.23	351.88	9.99	-46.0	-52.8	4.0	0.00e+00	0	45	104	0	63	31850
2026-01-22 07:41:28.37	351.83	9.87	-46.5	-53.4	3.9	0.00e+00	0	46	104	0	63	33909
2026-01-22 07:41:29.30	351.79	9.77	-47.1	-53.7	3.8	0.00e+00	0	45	104	0	64	33453
2026-01-22 07:41:30.47	351.74	9.65	-47.5	-54.2	3.8	0.00e+00	0	45	104	0	66	31257
2026-01-22 07:41:31.32	351.71	9.57	-47.9	-54.4	3.8	0.00e+00	0	45	104	0	66	32149
2026-01-22 07:41:32.46	351.66	9.45	-47.0	-53.4	3.9	0.00e+00	0	46	104	0	66	28677
2026-01-22 07:41:33.31	351.63	9.37	-46.9	-53.4	3.8	0.00e+00	0	46	104	0	65	30332
2026-01-22 07:41:34.45	351.58	9.25	-47.4	-53.8	3.8	0.00e+00	0	45	104	0	66	29925
2026-01-22 07:41:35.30	351.54	9.17	-46.9	-53.4	3.9	0.00e+00	0	46	104	0	65	30334
2026-01-22 07:41:36.44	351.50	9.05	-46.9	-53.3	3.9	0.00e+00	0	46	104	0	65	29973
2026-01-22 07:41:37.29	351.47	8.97	-45.6	-52.4	4.0	0.00e+00	0	46	104	0	62	32138
2026-01-22 07:41:38.42	351.42	8.86	-52.1	-57.3	3.7	0.00e+00	0	45	104	0	75	26759
2026-01-22 07:41:39.27	351.39	8.78	-53.0	-57.8	3.7	0.00e+00	0	45	104	0	76	26742
2026-01-22 07:41:40.41	351.34	8.67	-53.1	-57.8	3.7	0.00e+00	0	46	104	0	76	26628
2026-01-22 07:41:41.26	351.31	8.58	-53.0	-57.8	3.7	0.00e+00	0	46	104	0	77	25382
2026-01-22 07:41:42.41	351.27	8.47	-52.9	-57.8	3.7	0.00e+00	0	46	104	0	77	25138
2026-01-22 07:41:43.26	351.24	8.39	-53.5	-58.1	3.7	0.00e+00	0	46	104	0	77	25990
2026-01-22 07:41:44.46	351.19	8.28	-53.3	-57.9	3.7	0.00e+00	0	46	104	0	77	25460
2026-01-22 07:41:45.31	351.16	8.20	-53.3	-57.9	3.7	0.00e+00	0	45	104	0	77	25443
2026-01-22 07:41:46.51	351.12	8.09	-52.2	-57.3	3.7	0.00e+00	0	46	104	0	75	26784
2026-01-22 07:41:47.36	351.09	8.01	-53.5	-58.0	3.7	0.00e+00	0	45	104	0	77	25844
2026-01-22 07:41:48.56	351.04	7.89	-52.7	-57.7	3.7	0.00e+00	0	46	104	0	77	24890
2026-01-22 07:41:49.41	351.01	7.82	-53.1	-57.8	3.7	0.00e+00	0	46	104	0	77	25334
2026-01-22 07:41:50.61	350.97	7.70	-53.5	-58.1	3.7	0.00e+00	0	45	104	0	77	26103
2026-01-22 07:41:51.46	350.94	7.63	-53.3	-57.9	3.7	0.00e+00	0	46	104	0	77	25615
2026-01-22 07:41:52.66	350.90	7.52	-53.6	-58.1	3.7	0.00e+00	0	46	104	0	77	26048
2026-01-22 07:41:53.51	350.87	7.44	-53.0	-57.9	3.7	0.00e+00	0	45	104	0	77	25427
2026-01-22 07:41:54.71	350.83	7.33	-53.4	-58.0	3.7	0.00e+00	0	46	104	0	77	25716
2026-01-22 07:41:55.57	350.80	7.25	-53.3	-57.9	3.7	0.00e+00	0	46	104	0	77	25593
2026-01-22 07:41:56.70	350.76	7.15	-53.1	-57.9	3.7	0.00e+00	0	46	104	0	78	24103
2026-01-22 07:41:57.55	350.73	7.08	-53.5	-58.1	3.7	0.00e+00	0	46	104	0	78	24636
2026-01-22 07:41:58.69	350.70	6.98	-53.9	-58.3	3.7	0.00e+00	0	46	104	0	78	25290
2026-01-22 07:41:59.54	350.67	6.90	-53.7	-58.2	3.7	0.00e+00	0	46	104	0	78	24956
2026-01-22 07:42:00.67	350.63	6.80	-53.3	-57.9	3.7	0.00e+00	0	46	104	0	78	24222
2026-01-22 07:42:01.53	350.61	6.73	-53.7	-58.1	3.7	0.00e+00	0	46	104	0	78	24720
2026-01-22 07:42:02.66	350.57	6.63	-53.4	-57.9	3.7	0.00e+00	0	46	104	0	78	24093
2026-01-22 07:42:03.51	350.54	6.55	-53.7	-58.0	3.6	0.00e+00	0	45	104	0	78	24354
2026-01-22 07:42:04.65	350.51	6.45	-53.2	-57.7	3.7	0.00e+00	0	46	104	0	77	24813
2026-01-22 07:42:05.50	350.48	6.38	-53.1	-57.5	3.7	0.00e+00	0	45	104	0	77	24404
2026-01-22 07:42:06.64	350.45	6.28	-53.1	-57.5	3.7	0.00e+00	0	45	104	0	77	24469
2026-01-22 07:42:07.49	350.42	6.21	-53.1	-57.5	3.7	0.00e+00	0	46	104	0	77	24484
2026-01-22 07:42:08.62	350.39	6.11	-53.1	-57.5	3.7	0.00e+00	0	45	104	0	77	24413
2026-01-22 07:42:09.47	350.36	6.04	-53.1	-57.5	3.7	0.00e+00	0	46	104	0	77	24307
2026-01-22 07:42:10.61	350.33	5.95	-53.1	-57.5	3.7	0.00e+00	0	45	104	0	77	24380
2026-01-22 07:42:11.46	350.30	5.88	-53.1	-57.5	3.7	0.00e+00	0	46	104	0	77	24388
2026-01-22 07:42:12.60	350.27	5.78	-53.1	-57.5	3.7	0.00e+00	0	45	104	0	77	24451
2026-01-22 07:42:13.45	350.24	5.71	-53.1	-57.5	3.7	0.00e+00	0	45	104	0	77	24399
2026-01-22 07:42:14.59	350.21	5.62	-53.1	-57.5	3.7	0.00e+00	0	46	104	0	77	24421
2026-01-22 07:42:15.44	350.19	5.55	-53.1	-57.5	3.7	0.00e+00	0	45	104	0	77	24427
2026-01-22 07:42:16.57	350.16	5.45	-53.1	-57.5	3.7	0.00e+00	0	45	104	0	77	24474
2026-01-22 07:42:17.42	350.13	5.38	-53.1	-57.5	3.7	0.00e+00	0	46	104	0	77	24398
2026-01-22 07:42:18.56	350.10	5.29	-53.1	-57.5	3.7	0.00e+00	0	46	104	0	77	24371
2026-01-22 07:42:19.41	350.08	5.22	-53.1	-57.5	3.7	0.00e+00	0	45	104	0	77	24334
2026-01-22 07:42:20.55	350.05	5.13	-53.1	-57.5	3.7	0.00e+00	0	46	104	0	77	24424
2026-01-22 07:42:21.40	350.02	5.06	-53.1	-57.5	3.7	0.00e+00	0	45	104	0	77	24459
2026-