passes_logs/2026/01/22/T1/T1__20260122_000224_FENGYUN_3D_rec.log

#Pass ID: 20260122_000224_FENGYUN 3D
#Satellite: FENGYUN 3D
#Configuration: FENGYUN 3D
#almurnet v.1.7.20251203
#Start time: 2026-01-22 00:02:25

#Version: 2.0.20230620
#Station: T1
#Location: 37.570604 lon 55.790049 lat
#TLE: 1 43010U 17072A   26021.48744220  .00000253  00000+0  14133-3 0  9991
#TLE: 2 43010  98.9948 353.4037 0002485  97.2578 262.8880 14.19697766424177

#Time	Az	El	Level	Level2	SNR	BER	BlckErr	Temp	State	Recorded	gain1	gain2
2026-01-22 00:02:25.77	33.33	5.05	-50.0	-62.4	3.8	8.47e-01	0	35	0	0	71	15109
2026-01-22 00:02:26.76	33.43	5.10	-50.0	-62.4	3.8	8.47e-01	0	35	104	0	70	15966
2026-01-22 00:02:27.75	33.53	5.16	-49.9	-62.4	3.8	8.47e-01	0	35	104	0	70	15992
2026-01-22 00:02:28.74	33.63	5.21	-49.9	-62.4	3.8	8.47e-01	0	35	104	0	70	16042
2026-01-22 00:02:29.74	33.73	5.26	-50.0	-62.4	3.8	8.47e-01	0	35	104	0	70	15959
2026-01-22 00:02:30.73	33.83	5.32	-49.9	-62.4	3.8	8.47e-01	0	36	104	0	70	15997
2026-01-22 00:02:31.72	33.93	5.37	-49.9	-62.4	3.8	8.48e-01	0	36	104	0	70	15975
2026-01-22 00:02:32.72	34.03	5.42	-49.9	-62.4	3.8	8.46e-01	0	36	104	0	70	15958
2026-01-22 00:02:33.71	34.13	5.48	-49.9	-62.4	3.8	8.48e-01	0	36	104	0	70	15960
2026-01-22 00:02:34.70	34.24	5.53	-49.9	-62.4	3.8	8.47e-01	0	36	104	0	70	15950
2026-01-22 00:02:35.70	34.34	5.58	-49.9	-62.3	3.8	8.47e-01	0	36	104	0	70	15917
2026-01-22 00:02:36.69	34.44	5.64	-49.9	-62.3	3.8	8.47e-01	0	36	104	0	70	15934
2026-01-22 00:02:37.68	34.54	5.69	-49.9	-62.4	3.8	8.47e-01	0	36	104	0	70	15956
2026-01-22 00:02:38.68	34.65	5.74	-49.9	-62.4	3.8	8.48e-01	0	36	104	0	70	15970
2026-01-22 00:02:39.67	34.75	5.80	-49.9	-62.3	3.8	8.47e-01	0	36	104	0	70	15914
2026-01-22 00:02:40.66	34.86	5.85	-50.0	-62.4	3.8	8.47e-01	0	36	104	0	70	15947
2026-01-22 00:02:41.66	34.96	5.90	-49.9	-62.3	3.8	8.46e-01	0	36	104	0	70	15933
2026-01-22 00:02:42.65	35.07	5.96	-50.0	-62.4	3.8	8.47e-01	0	36	104	0	70	15986
2026-01-22 00:02:43.64	35.17	6.01	-50.0	-62.4	3.8	8.48e-01	0	36	104	0	70	16017
2026-01-22 00:02:44.64	35.28	6.06	-49.9	-62.4	3.8	8.47e-01	0	36	104	0	70	15970
2026-01-22 00:02:45.63	35.39	6.12	-50.0	-62.4	3.8	8.46e-01	0	36	104	0	70	15981
2026-01-22 00:02:46.62	35.49	6.17	-49.9	-62.4	3.8	8.47e-01	0	36	104	0	70	15967
2026-01-22 00:02:47.62	35.60	6.23	-49.9	-62.3	3.8	8.47e-01	0	36	104	0	70	15942
2026-01-22 00:02:48.61	35.71	6.28	-49.9	-62.4	3.8	8.46e-01	0	36	104	0	70	15952
2026-01-22 00:02:49.60	35.82	6.33	-49.9	-62.3	3.8	8.47e-01	0	36	104	0	70	15929
2026-01-22 00:02:50.60	35.93	6.39	-49.9	-62.3	3.8	8.47e-01	0	36	104	0	70	15904
2026-01-22 00:02:51.59	36.03	6.44	-49.9	-62.3	3.8	8.47e-01	0	36	104	0	70	15891
2026-01-22 00:02:52.58	36.14	6.49	-49.9	-62.4	3.8	8.47e-01	0	36	104	0	70	15979
2026-01-22 00:02:53.58	36.25	6.55	-49.9	-62.4	3.8	8.46e-01	0	36	104	0	70	15950
2026-01-22 00:02:54.57	36.36	6.60	-50.0	-62.4	3.8	8.46e-01	0	37	104	0	70	16002
2026-01-22 00:02:55.57	36.47	6.66	-49.9	-62.3	3.8	8.46e-01	0	37	104	0	70	15891
2026-01-22 00:02:56.56	36.58	6.71	-49.9	-62.3	3.8	8.46e-01	0	37	104	0	70	15867
2026-01-22 00:02:57.55	36.70	6.76	-49.9	-62.3	3.8	8.47e-01	0	37	104	0	70	15793
2026-01-22 00:02:58.55	36.81	6.82	-49.9	-62.3	3.8	8.47e-01	0	37	104	0	70	15794
2026-01-22 00:02:59.54	36.92	6.87	-49.9	-62.3	3.8	8.46e-01	0	37	104	0	70	15826
2026-01-22 00:03:00.53	37.03	6.93	-49.9	-62.2	3.8	8.47e-01	0	36	104	0	70	15758
2026-01-22 00:03:01.53	37.14	6.98	-49.9	-62.3	3.8	8.46e-01	0	37	104	0	70	15783
2026-01-22 00:03:02.52	37.26	7.04	-49.9	-62.3	3.8	8.45e-01	0	37	104	0	70	15786
2026-01-22 00:03:03.51	37.37	7.09	-49.9	-62.3	3.8	8.48e-01	0	37	104	0	70	15761
2026-01-22 00:03:04.51	37.49	7.14	-49.9	-62.3	3.8	8.47e-01	0	37	104	0	70	15831
2026-01-22 00:03:05.50	37.60	7.20	-49.9	-62.3	3.8	8.47e-01	0	37	104	0	70	15893
2026-01-22 00:03:06.49	37.71	7.25	-49.9	-62.3	3.8	8.47e-01	0	37	104	0	70	15890
2026-01-22 00:03:07.49	37.83	7.31	-49.9	-62.3	3.8	8.46e-01	0	37	104	0	70	15932
2026-01-22 00:03:08.48	37.95	7.36	-49.9	-62.3	3.8	8.47e-01	0	37	104	0	70	15878
2026-01-22 00:03:09.47	38.06	7.42	-49.9	-62.3	3.8	8.46e-01	0	37	104	0	70	15930
2026-01-22 00:03:10.47	38.18	7.47	-49.9	-62.3	3.8	8.47e-01	0	37	104	0	70	15840
2026-01-22 00:03:11.46	38.29	7.52	-49.9	-62.3	3.8	8.48e-01	0	37	104	0	70	15855
2026-01-22 00:03:12.45	38.41	7.58	-49.9	-62.2	3.8	8.46e-01	0	37	104	0	70	15714
2026-01-22 00:03:13.45	38.53	7.63	-49.9	-62.3	3.8	8.47e-01	0	37	104	0	70	15767
2026-01-22 00:03:14.44	38.65	7.69	-49.9	-62.2	3.8	8.48e-01	0	37	104	0	70	15736
2026-01-22 00:03:15.43	38.77	7.74	-49.9	-62.2	3.8	8.46e-01	0	37	104	0	70	15760
2026-01-22 00:03:16.43	38.89	7.80	-49.9	-62.1	3.8	8.46e-01	0	37	104	0	70	15539
2026-01-22 00:03:17.42	39.00	7.85	-49.9	-62.0	3.8	8.47e-01	0	37	104	0	70	15256
2026-01-22 00:03:18.41	39.12	7.91	-49.9	-61.9	3.8	8.47e-01	0	37	104	0	70	15079
2026-01-22 00:03:19.40	39.24	7.96	-49.9	-61.8	3.8	8.46e-01	0	37	104	0	70	14989
2026-01-22 00:03:20.40	39.37	8.01	-49.9	-61.8	3.8	8.47e-01	0	37	104	0	70	14954
2026-01-22 00:03:21.39	39.49	8.07	-49.9	-61.9	3.8	8.46e-01	0	37	104	0	70	15207
2026-01-22 00:03:22.38	39.61	8.12	-49.9	-62.1	3.8	8.45e-01	0	37	104	0	70	15422
2026-01-22 00:03:23.38	39.73	8.18	-49.9	-62.2	3.8	8.47e-01	0	37	104	0	70	15695
2026-01-22 00:03:24.37	39.85	8.23	-49.9	-62.3	3.8	8.48e-01	0	37	104	0	70	15771
2026-01-22 00:03:25.37	39.98	8.29	-49.9	-62.3	3.8	8.46e-01	0	37	104	0	70	15854
2026-01-22 00:03:26.36	40.10	8.34	-49.9	-62.3	3.8	8.48e-01	0	37	104	0	70	15891
2026-01-22 00:03:27.35	40.22	8.40	-49.9	-62.3	3.8	8.47e-01	0	37	104	0	70	15850
2026-01-22 00:03:28.35	40.35	8.45	-49.9	-62.2	3.8	8.47e-01	0	37	104	0	70	15667
2026-01-22 00:03:29.34	40.47	8.51	-49.9	-61.9	3.8	8.46e-01	0	37	104	0	70	15160
2026-01-22 00:03:30.33	40.60	8.56	-49.9	-61.6	3.8	8.48e-01	0	37	104	0	70	14618
2026-01-22 00:03:31.32	40.72	8.61	-49.8	-61.2	3.8	8.47e-01	0	38	104	0	70	13964
2026-01-22 00:03:32.32	40.85	8.67	-49.8	-60.9	3.8	8.45e-01	0	37	104	0	70	13563
2026-01-22 00:03:33.31	40.97	8.72	-49.7	-60.5	3.8	8.46e-01	0	37	104	0	70	12912
2026-01-22 00:03:34.30	41.10	8.78	-49.6	-59.7	4.0	8.45e-01	0	37	104	0	70	11726
2026-01-22 00:03:35.30	41.23	8.83	-49.3	-57.9	4.4	8.41e-01	0	37	0	0	70	9554
2026-01-22 00:03:36.29	41.36	8.89	-48.7	-55.4	5.9	7.03e-01	0	37	0	0	69	7597
2026-01-22 00:03:37.28	41.49	8.94	-47.7	-52.7	8.1	1.56e-01	0	37	0	5242880	67	6247
2026-01-22 00:03:38.28	41.61	9.00	-46.5	-50.4	10.5	1.01e-02	0	37	0	11534336	65	5342
2026-01-22 00:03:39.27	41.74	9.05	-45.4	-48.7	12.3	6.82e-04	0	37	0	16777216	62	5221
2026-01-22 00:03:40.27	41.87	9.11	-44.8	-47.8	13.3	2.28e-05	0	38	0	22020096	61	5028
2026-01-22 00:03:41.26	42.00	9.16	-48.4	-54.2	6.8	5.57e-01	0	37	0	27262976	68	7028
2026-01-22 00:03:42.25	42.13	9.22	-44.3	-47.1	14.0	3.40e-06	0	37	0	33554432	59	5167
2026-01-22 00:03:43.25	42.27	9.27	-48.2	-53.8	6.9	7.57e-01	0	38	0	36700160	68	6715
2026-01-22 00:03:44.27	42.40	9.33	-40.8	-42.9	17.9	0.00e+00	0	38	0	42991616	53	4507
2026-01-22 00:03:45.28	42.54	9.38	-40.9	-42.9	17.9	0.00e+00	0	38	0	48234496	53	4510
2026-01-22 00:03:46.28	42.67	9.44	-40.8	-42.8	18.0	0.00e+00	0	37	0	54525952	53	4485
2026-01-22 00:03:47.36	42.81	9.50	-40.5	-42.5	18.3	0.00e+00	0	38	0	59768832	53	4315
2026-01-22 00:03:48.21	42.93	9.54	-40.3	-42.2	18.5	0.00e+00	0	37	0	65011712	52	4423
2026-01-22 00:03:49.57	43.11	9.62	-40.3	-42.3	18.5	0.00e+00	0	38	0	72351744	52	4449
2026-01-22 00:03:50.28	43.21	9.66	-40.3	-42.3	18.5	0.00e+00	0	38	0	76546048	52	4453
2026-01-22 00:03:51.56	43.38	9.73	-40.3	-42.2	18.6	0.00e+00	0	37	0	83886080	52	4419
2026-01-22 00:03:52.27	43.48	9.77	-40.3	-42.2	18.5	0.00e+00	0	38	0	88080384	52	4407
2026-01-22 00:03:53.55	43.66	9.84	-40.4	-42.3	18.4	0.00e+00	0	38	0	95420416	52	4468
2026-01-22 00:03:54.28	43.76	9.88	-40.1	-42.0	18.7	0.00e+00	0	37	0	99614720	52	4314
2026-01-22 00:03:55.56	43.93	9.95	-40.0	-41.9	18.9	0.00e+00	0	38	0	105906176	52	4258
2026-01-22 00:03:56.28	44.03	9.98	-40.0	-41.9	18.9	0.00e+00	0	38	0	110100480	51	4533
2026-01-22 00:03:57.56	44.21	10.05	-40.2	-42.1	18.7	0.00e+00	0	38	0	117440512	51	4627
2026-01-22 00:03:58.29	44.31	10.09	-40.2	-42.1	18.7	0.00e+00	0	38	0	121634816	51	4610
2026-01-22 00:03:59.57	44.49	10.16	-40.3	-42.3	18.5	0.00e+00	0	38	0	128974848	51	4712
2026-01-22 00:04:00.28	44.59	10.20	-40.2	-42.1	18.7	0.00e+00	0	37	0	133169152	51	4643
2026-01-22 00:04:01.56	44.77	10.27	-40.1	-42.0	18.8	0.00e+00	0	38	0	139460608	51	4578
2026-01-22 00:04:02.27	44.87	10.31	-40.2	-42.1	18.7	0.00e+00	0	38	0	143654912	51	4608
2026-01-22 00:04:03.55	45.05	10.38	-40.1	-42.0	18.8	0.00e+00	0	38	0	150994944	51	4558
2026-01-22 00:04:04.26	45.16	10.42	-40.0	-41.9	18.9	0.00e+00	0	38	0	155189248	51	4522
2026-01-22 00:04:05.65	45.35	10.50	-40.0	-41.9	18.9	0.00e+00	0	38	0	162529280	51	4519
2026-01-22 00:04:06.36	45.46	10.54	-40.0	-41.9	18.9	0.00e+00	0	38	0	166723584	51	4531
2026-01-22 00:04:07.72	45.65	10.61	-40.0	-41.9	18.9	0.00e+00	0	37	0	174063616	51	4534
2026-01-22 00:04:08.43	45.76	10.65	-40.0	-41.9	19.0	0.00e+00	0	38	0	178257920	51	4496
2026-01-22 00:04:09.77	45.95	10.72	-39.8	-41.7	19.1	0.00e+00	0	37	0	186646528	51	4427
2026-01-22 00:04:10.48	46.05	10.76	-39.8	-41.6	19.2	0.00e+00	0	37	0	189792256	51	4380
2026-01-22 00:04:11.82	46.25	10.83	-39.9	-41.8	19.1	0.00e+00	0	38	0	198180864	51	4445
2026-01-22 00:04:12.54	46.36	10.87	-39.8	-41.7	19.1	0.00e+00	0	38	0	201326592	51	4422
2026-01-22 00:04:13.82	46.54	10.94	-39.9	-41.8	19.1	0.00e+00	0	38	0	208666624	51	4446
2026-01-22 00:04:14.54	46.65	10.98	-39.9	-41.8	19.0	0.00e+00	0	37	0	212860928	51	4478
2026-01-22 00:04:15.82	46.84	11.05	-40.0	-41.9	19.0	0.00e+00	0	38	0	220200960	51	4512
2026-01-22 00:04:16.54	46.95	11.09	-40.1	-42.0	18.9	0.00e+00	0	38	0	224395264	51	4552
2026-01-22 00:04:17.82	47.14	11.16	-39.9	-41.8	19.0	0.00e+00	0	38	0	231735296	51	4466
2026-01-22 00:04:18.53	47.25	11.19	-39.9	-41.8	19.1	0.00e+00	0	38	0	235929600	51	4452
2026-01-22 00:04:19.81	47.44	11.26	-40.1	-42.0	18.9	0.00e+00	0	38	0	242221056	51	4553
2026-01-22 00:04:20.53	47.55	11.30	-39.9	-41.8	19.1	0.00e+00	0	38	0	246415360	51	4455
2026-01-22 00:04:21.80	47.74	11.37	-39.8	-41.7	19.1	0.00e+00	0	38	0	253755392	51	4426
2026-01-22 00:04:22.59	47.86	11.41	-39.9	-41.8	19.1	0.00e+00	0	38	0	257949696	51	4444
2026-01-22 00:04:24.11	48.09	11.49	-39.8	-41.7	19.1	0.00e+00	0	38	0	266338304	51	4431
2026-01-22 00:04:24.82	48.20	11.53	-39.7	-41.6	19.2	0.00e+00	0	38	0	270532608	51	4369
2026-01-22 00:04:26.24	48.42	11.61	-39.7	-41.5	19.3	0.00e+00	0	38	0	278921216	51	4336
2026-01-22 00:04:26.95	48.53	11.65	-39.7	-41.5	19.3	0.00e+00	0	38	0	283115520	51	4321
2026-01-22 00:04:28.23	48.73	11.71	-39.6	-41.4	19.4	0.00e+00	0	38	0	290455552	51	4266
2026-01-22 00:04:28.95	48.84	11.75	-39.6	-41.4	19.4	0.00e+00	0	38	0	293601280	51	4276
2026-01-22 00:04:30.22	49.04	11.82	-39.6	-41.4	19.4	0.00e+00	0	38	0	300941312	51	4284
2026-01-22 00:04:30.94	49.15	11.86	-39.5	-41.4	19.4	0.00e+00	0	38	0	305135616	51	4255
2026-01-22 00:04:32.22	49.35	11.93	-39.4	-41.3	19.5	0.00e+00	0	38	0	312475648	50	4457
2026-01-22 00:04:32.94	49.47	11.97	-39.5	-41.3	19.5	0.00e+00	0	38	0	316669952	50	4481
2026-01-22 00:04:34.22	49.67	12.03	-39.5	-41.3	19.5	0.00e+00	0	38	0	324009984	50	4486
2026-01-22 00:04:34.99	49.79	12.07	-39.6	-41.4	19.4	0.00e+00	0	38	0	328204288	50	4538
2026-01-22 00:04:36.27	50.00	12.14	-39.7	-41.6	19.3	0.00e+00	0	38	0	335544320	50	4625
2026-01-22 00:04:36.98	50.11	12.18	-39.6	-41.4	19.4	0.00e+00	0	38	0	339738624	50	4526
2026-01-22 00:04:38.26	50.32	12.25	-39.5	-41.4	19.5	0.00e+00	0	38	0	346030080	50	4495
2026-01-22 00:04:39.13	50.46	12.29	-39.4	-41.2	19.6	0.00e+00	0	38	0	351272960	50	4441
2026-01-22 00:04:40.26	50.64	12.35	-39.4	-41.3	19.6	0.00e+00	0	38	0	357564416	50	4458
2026-01-22 00:04:41.29	50.81	12.40	-39.4	-41.3	19.6	0.00e+00	0	38	0	363855872	50	4442
2026-01-22 00:04:42.46	51.00	12.47	-39.4	-41.2	19.6	0.00e+00	0	38	0	370147328	50	4427
2026-01-22 00:04:43.31	51.14	12.51	-39.4	-41.2	19.6	0.00e+00	0	38	0	374341632	50	4420
2026-01-22 00:04:44.45	51.33	12.57	-39.4	-41.2	19.6	0.00e+00	0	38	0	381681664	50	4438
2026-01-22 00:04:45.30	51.47	12.61	-39.5	-41.4	19.5	0.00e+00	0	38	0	385875968	50	4496
2026-01-22 00:04:46.44	51.66	12.67	-39.4	-41.2	19.7	0.00e+00	0	38	0	392167424	50	4424
2026-01-22 00:04:47.29	51.80	12.72	-39.3	-41.1	19.7	0.00e+00	0	38	0	397410304	50	4387
2026-01-22 00:04:48.43	51.99	12.77	-39.3	-41.1	19.7	0.00e+00	0	38	0	403701760	50	4363
2026-01-22 00:04:49.28	52.13	12.82	-39.2	-41.1	19.8	0.00e+00	0	38	0	408944640	50	4346
2026-01-22 00:04:50.42	52.32	12.88	-39.3	-41.1	19.7	0.00e+00	0	38	0	415236096	50	4374
2026-01-22 00:04:51.27	52.46	12.92	-39.3	-41.2	19.7	0.00e+00	0	38	0	419430400	50	4399
2026-01-22 00:04:52.41	52.65	12.98	-39.3	-41.1	19.7	0.00e+00	0	38	0	425721856	50	4366
2026-01-22 00:04:53.26	52.80	13.02	-39.3	-41.1	19.8	0.00e+00	0	38	0	430964736	50	4360
2026-01-22 00:04:54.40	52.99	13.08	-39.2	-41.1	19.8	0.00e+00	0	38	0	437256192	50	4346
2026-01-22 00:04:55.25	53.14	13.12	-39.3	-41.1	19.7	0.00e+00	0	38	0	441450496	50	4382
2026-01-22 00:04:56.39	53.33	13.18	-39.2	-41.0	19.8	0.00e+00	0	38	0	448790528	50	4315
2026-01-22 00:04:57.24	53.48	13.22	-39.1	-41.0	19.9	0.00e+00	0	38	0	452984832	50	4298
2026-01-22 00:04:58.38	53.67	13.28	-39.2	-41.0	19.8	0.00e+00	0	38	0	459276288	50	4335
2026-01-22 00:04:59.23	53.82	13.32	-39.1	-40.9	19.9	0.00e+00	0	38	0	464519168	50	4272
2026-01-22 00:05:00.37	54.02	13.38	-39.1	-40.9	20.0	0.00e+00	0	38	0	470810624	50	4260
2026-01-22 00:05:01.22	54.17	13.42	-39.2	-41.0	19.9	0.00e+00	0	38	0	476053504	50	4308
2026-01-22 00:05:02.36	54.37	13.48	-39.1	-40.9	20.0	0.00e+00	0	38	0	482344960	50	4253
2026-01-22 00:05:03.22	54.52	13.52	-39.0	-40.9	19.7	0.00e+00	0	38	0	486539264	50	4276
2026-01-22 00:05:04.35	54.72	13.58	-39.1	-40.9	19.7	0.00e+00	0	38	0	492830720	50	4288
2026-01-22 00:05:05.21	54.87	13.62	-38.9	-40.8	19.8	0.00e+00	0	38	0	498073600	49	4463
2026-01-22 00:05:06.35	55.07	13.68	-38.8	-40.7	19.8	0.00e+00	0	38	0	504365056	49	4425
2026-01-22 00:05:07.20	55.22	13.72	-38.9	-40.7	19.9	0.00e+00	0	38	0	509607936	49	4426
2026-01-22 00:05:08.34	55.42	13.78	-38.7	-40.6	19.9	0.00e+00	0	38	0	515899392	49	4363
2026-01-22 00:05:09.19	55.57	13.82	-38.8	-40.6	19.9	0.00e+00	0	38	0	520093696	49	4387
2026-01-22 00:05:10.33	55.78	13.87	-38.7	-40.5	20.0	0.00e+00	0	38	0	526385152	49	4338
2026-01-22 00:05:11.18	55.93	13.91	-38.6	-40.5	20.1	0.00e+00	0	38	0	531628032	49	4300
2026-01-22 00:05:12.52	56.17	13.98	-38.6	-40.4	20.1	0.00e+00	0	38	0	538968064	49	4273
2026-01-22 00:05:13.23	56.30	14.01	-38.6	-40.4	20.1	0.00e+00	0	38	0	543162368	49	4291
2026-01-22 00:05:14.72	56.57	14.09	-38.7	-40.5	20.0	0.00e+00	0	38	0	551550976	49	4317
2026-01-22 00:05:15.43	56.70	14.12	-38.8	-40.6	20.0	0.00e+00	0	38	0	555745280	49	4367
2026-01-22 00:05:16.71	56.94	14.18	-38.8	-40.6	19.9	0.00e+00	0	38	0	563085312	49	4378
2026-01-22 00:05:17.42	57.07	14.21	-38.7	-40.6	20.0	0.00e+00	0	38	0	567279616	49	4352
2026-01-22 00:05:18.70	57.30	14.27	-38.8	-40.6	19.9	0.00e+00	0	38	0	573571072	49	4390
2026-01-22 00:05:19.41	57.43	14.31	-38.8	-40.6	19.9	0.00e+00	0	38	0	577765376	49	4387
2026-01-22 00:05:20.69	57.67	14.37	-38.6	-40.5	20.0	0.00e+00	0	38	0	585105408	49	4306
2026-01-22 00:05:21.42	57.80	14.40	-38.7	-40.6	20.0	0.00e+00	0	38	0	589299712	49	4353
2026-01-22 00:05:22.70	58.04	14.46	-38.8	-40.7	19.9	0.00e+00	0	38	0	596639744	49	4397
2026-01-22 00:05:23.43	58.18	14.50	-38.8	-40.7	19.9	0.00e+00	0	38	0	600834048	49	4400
2026-01-22 00:05:24.70	58.42	14.55	-38.7	-40.5	20.0	0.00e+00	0	38	0	607125504	49	4320
2026-01-22 00:05:25.51	58.57	14.59	-38.6	-40.5	20.0	0.00e+00	0	38	0	612368384	49	4305
2026-01-22 00:05:26.65	58.78	14.64	-38.6	-40.4	20.1	0.00e+00	0	38	0	618659840	49	4284
2026-01-22 00:05:27.72	58.99	14.69	-38.6	-40.5	20.1	0.00e+00	0	38	0	624951296	49	4295
2026-01-22 00:05:28.75	59.18	14.74	-38.7	-40.5	20.0	0.00e+00	0	38	0	630194176	49	4317
2026-01-22 00:05:29.74	59.37	14.78	-38.7	-40.6	20.0	0.00e+00	0	38	0	636485632	49	4362
2026-01-22 00:05:30.74	59.56	14.83	-38.8	-40.6	19.9	0.00e+00	0	38	0	641728512	49	4385
2026-01-22 00:05:31.73	59.75	14.87	-38.8	-40.6	19.9	0.00e+00	0	38	0	646971392	49	4385
2026-01-22 00:05:32.72	59.94	14.92	-38.9	-40.8	19.8	0.00e+00	0	38	0	653262848	49	4457
2026-01-22 00:05:33.72	60.13	14.96	-38.9	-40.8	19.8	0.00e+00	0	38	0	658505728	49	4467
2026-01-22 00:05:34.71	60.32	15.01	-38.7	-40.6	19.9	0.00e+00	0	38	0	663748608	49	4367
2026-01-22 00:05:35.71	60.52	15.05	-38.6	-40.4	20.1	0.00e+00	0	38	0	668991488	49	4284
2026-01-22 00:05:36.70	60.71	15.09	-38.5	-40.3	20.2	0.00e+00	0	38	0	675282944	48	4484
2026-01-22 00:05:37.70	60.90	15.14	-38.4	-40.3	20.2	0.00e+00	0	38	0	680525824	48	4461
2026-01-22 00:05:38.69	61.10	15.18	-38.4	-40.2	20.3	0.00e+00	0	38	0	686817280	48	4424
2026-01-22 00:05:39.69	61.29	15.22	-38.4	-40.2	20.3	0.00e+00	0	38	0	692060160	48	4422
2026-01-22 00:05:40.68	61.49	15.26	-38.5	-40.3	20.2	0.00e+00	0	38	0	697303040	48	4463
2026-01-22 00:05:41.67	61.68	15.31	-38.5	-40.3	20.2	0.00e+00	0	38	0	703594496	48	4470
2026-01-22 00:05:42.83	61.91	15.35	-38.5	-40.4	20.1	0.00e+00	0	38	0	709885952	48	4500
2026-01-22 00:05:43.71	62.09	15.39	-38.5	-40.3	20.2	0.00e+00	0	38	0	714080256	48	4487
2026-01-22 00:05:45.02	62.35	15.45	-38.5	-40.4	20.2	0.00e+00	0	38	0	722468864	48	4507
2026-01-22 00:05:45.73	62.49	15.48	-38.5	-40.3	20.2	0.00e+00	0	38	0	725614592	48	4473
2026-01-22 00:05:47.22	62.79	15.54	-38.3	-40.1	20.3	0.00e+00	0	38	0	734003200	48	4377
2026-01-22 00:05:47.93	62.93	15.57	-38.3	-40.1	20.4	0.00e+00	0	38	0	738197504	48	4390
2026-01-22 00:05:49.21	63.19	15.62	-38.3	-40.1	20.4	0.00e+00	0	38	0	745537536	48	4388
2026-01-22 00:05:49.92	63.33	15.65	-38.3	-40.1	20.4	0.00e+00	0	38	0	749731840	48	4360
2026-01-22 00:05:51.20	63.59	15.70	-38.3	-40.1	20.4	0.00e+00	0	38	0	757071872	48	4360
2026-01-22 00:05:51.91	63.73	15.73	-38.3	-40.1	20.4	0.00e+00	0	38	0	760217600	48	4382
2026-01-22 00:05:53.19	63.99	15.78	-38.3	-40.1	20.4	0.00e+00	0	38	0	767557632	48	4389
2026-01-22 00:05:53.92	64.14	15.81	-38.2	-40.0	20.5	0.00e+00	0	38	0	771751936	48	4324
2026-01-22 00:05:55.19	64.40	15.86	-38.2	-40.0	20.5	0.00e+00	0	38	0	779091968	48	4300
2026-01-22 00:05:55.92	64.55	15.88	-38.2	-40.0	20.5	0.00e+00	0	38	0	783286272	48	4304
2026-01-22 00:05:57.20	64.81	15.93	-38.2	-40.1	20.4	0.00e+00	0	38	0	790626304	48	4344
2026-01-22 00:05:57.98	64.97	15.96	-38.1	-40.0	20.5	0.00e+00	0	38	0	794820608	48	4293
2026-01-22 00:05:59.25	65.23	16.01	-38.2	-40.0	20.4	0.00e+00	0	38	0	802160640	48	4323
2026-01-22 00:05:59.98	65.39	16.04	-38.3	-40.1	20.3	0.00e+00	0	38	0	806354944	48	4389
2026-01-22 00:06:01.26	65.65	16.09	-38.3	-40.1	20.4	0.00e+00	0	38	0	813694976	48	4379
2026-01-22 00:06:02.06	65.82	16.12	-38.2	-40.1	20.4	0.00e+00	0	38	0	817889280	48	4356
2026-01-22 00:06:03.52	66.12	16.17	-38.2	-40.0	20.5	0.00e+00	0	38	0	826277888	48	4310
2026-01-22 00:06:04.23	66.27	16.19	-38.3	-40.1	20.4	0.00e+00	0	38	0	830472192	48	4352
2026-01-22 00:06:05.51	66.54	16.24	-38.3	-40.1	20.4	0.00e+00	0	38	0	836763648	48	4370
2026-01-22 00:06:06.22	66.69	16.27	-38.3	-40.1	20.4	0.00e+00	0	38	0	840957952	48	4367
2026-01-22 00:06:07.50	66.96	16.31	-38.4	-40.2	20.3	0.00e+00	0	38	0	848297984	48	4426
2026-01-22 00:06:08.24	67.11	16.34	-38.2	-40.0	20.5	0.00e+00	0	38	0	852492288	48	4318
2026-01-22 00:06:09.52	67.38	16.38	-38.2	-40.1	20.4	0.00e+00	0	38	0	859832320	48	4341
2026-01-22 00:06:10.23	67.53	16.41	-38.3	-40.2	20.3	0.00e+00	0	38	0	864026624	48	4394
2026-01-22 00:06:11.51	67.80	16.45	-38.4	-40.2	20.3	0.00e+00	0	38	0	871366656	48	4420
2026-01-22 00:06:12.22	67.96	16.47	-38.4	-40.2	20.3	0.00e+00	0	38	0	875560960	48	4426
2026-01-22 00:06:13.50	68.23	16.52	-38.4	-40.3	20.3	0.00e+00	0	38	0	881852416	48	4445
2026-01-22 00:06:14.21	68.38	16.54	-38.3	-40.2	20.4	0.00e+00	0	38	0	886046720	48	4395
2026-01-22 00:06:15.49	68.65	16.58	-38.3	-40.2	20.3	0.00e+00	0	38	0	893386752	48	4406
2026-01-22 00:06:16.20	68.81	16.61	-38.3	-40.2	20.3	0.00e+00	0	38	0	897581056	48	4403
2026-01-22 00:06:17.56	69.10	16.65	-38.2	-40.1	20.4	0.00e+00	0	38	0	904921088	48	4341
2026-01-22 00:06:18.27	69.25	16.67	-38.2	-40.1	20.4	0.00e+00	0	38	0	909115392	48	4344
2026-01-22 00:06:19.55	69.53	16.71	-38.2	-40.0	20.5	0.00e+00	0	38	0	916455424	48	4329
2026-01-22 00:06:20.26	69.68	16.73	-38.2	-40.0	20.5	0.00e+00	0	38	0	919601152	48	4335
2026-01-22 00:06:21.54	69.96	16.77	-38.2	-40.1	20.4	0.00e+00	0	38	0	926941184	48	4341
2026-01-22 00:06:22.25	70.12	16.80	-38.3	-40.2	20.2	0.00e+00	0	38	0	931135488	48	4411
2026-01-22 00:06:23.70	70.43	16.84	-38.3	-40.2	20.3	0.00e+00	0	38	0	939524096	48	4394
2026-01-22 00:06:24.41	70.59	16.86	-38.2	-40.1	20.4	0.00e+00	0	38	0	943718400	48	4364
2026-01-22 00:06:25.75	70.88	16.90	-38.2	-40.0	20.4	0.00e+00	0	38	0	951058432	48	4330
2026-01-22 00:06:26.46	71.03	16.92	-38.2	-40.0	20.4	0.00e+00	0	38	0	955252736	48	4337
2026-01-22 00:06:27.82	71.33	16.96	-38.1	-40.0	20.5	0.00e+00	0	38	0	962592768	48	4293
2026-01-22 00:06:28.53	71.49	16.98	-38.1	-39.9	20.5	0.00e+00	0	38	0	966787072	48	4278
2026-01-22 00:06:29.81	71.77	17.01	-38.0	-39.9	20.5	0.00e+00	0	38	0	974127104	48	4244
2026-01-22 00:06:30.53	71.93	17.03	-37.8	-39.7	20.5	0.00e+00	0	38	0	978321408	47	4393
2026-01-22 00:06:31.81	72.21	17.07	-37.9	-39.7	20.5	0.00e+00	0	38	0	984612864	47	4414
2026-01-22 00:06:32.56	72.38	17.09	-37.8	-39.6	20.5	0.00e+00	0	38	0	988807168	47	4382
2026-01-22 00:06:33.84	72.66	17.12	-37.9	-39.8	20.4	0.00e+00	0	38	0	996147200	47	4447
2026-01-22 00:06:34.55	72.82	17.14	-38.0	-39.8	20.4	0.00e+00	0	38	0	1000341504	47	4480
2026-01-22 00:06:35.83	73.11	17.17	-38.2	-40.0	20.2	0.00e+00	0	38	0	1007681536	47	4595
2026-01-22 00:06:36.56	73.27	17.19	-38.1	-40.0	20.2	0.00e+00	0	38	0	1011875840	47	4556
2026-01-22 00:06:37.83	73.55	17.22	-38.1	-40.0	20.2	0.00e+00	0	38	0	1019215872	47	4572
2026-01-22 00:06:38.55	73.71	17.24	-38.2	-40.0	20.2	0.00e+00	0	38	0	1023410176	47	4577
2026-01-22 00:06:39.82	74.00	17.27	-38.0	-39.8	20.4	0.00e+00	0	38	0	1030750208	47	4477
2026-01-22 00:06:40.63	74.18	17.29	-37.9	-39.7	20.4	0.00e+00	0	38	0	1034944512	47	4429
2026-01-22 00:06:41.77	74.44	17.32	-37.9	-39.8	20.4	0.00e+00	0	38	0	1041235968	47	4442
2026-01-22 00:06:42.62	74.63	17.33	-37.9	-39.7	20.5	0.00e+00	0	38	0	1046478848	47	4432
2026-01-22 00:06:43.76	74.89	17.36	-37.9	-39.7	20.4	0.00e+00	0	38	0	1052770304	47	4436
2026-01-22 00:06:44.61	75.08	17.38	-37.8	-39.7	20.5	0.00e+00	0	38	0	1056964608	47	4396
2026-01-22 00:06:45.75	75.34	17.40	-38.0	-39.8	20.4	0.00e+00	0	38	0	1063256064	47	4461
2026-01-22 00:06:46.60	75.53	17.42	-37.9	-39.7	20.5	0.00e+00	0	38	0	1068498944	47	4427
2026-01-22 00:06:47.77	75.79	17.45	-37.9	-39.7	20.4	0.00e+00	0	38	0	1074790400	47	4430
2026-01-22 00:06:48.62	75.99	17.46	-37.8	-39.6	20.5	0.00e+00	0	38	0	1080033280	47	4389
2026-01-22 00:06:49.76	76.25	17.49	-37.7	-39.6	20.6	0.00e+00	0	38	0	1086324736	47	4347
2026-01-22 00:06:50.61	76.44	17.50	-37.7	-39.6	20.6	0.00e+00	0	38	0	1090519040	47	4353
2026-01-22 00:06:51.90	76.73	17.53	-37.8	-39.6	20.5	0.00e+00	0	38	0	1097859072	47	4390
2026-01-22 00:06:52.61	76.90	17.54	-37.7	-39.5	20.7	0.00e+00	0	38	0	1102053376	47	4305
2026-01-22 00:06:53.89	77.19	17.56	-37.7	-39.5	20.5	0.00e+00	0	38	0	1109393408	47	4338
2026-01-22 00:06:54.67	77.37	17.58	-37.8	-39.7	20.5	0.00e+00	0	38	0	1113587712	47	4397
2026-01-22 00:06:56.25	77.73	17.60	-37.9	-39.7	20.4	0.00e+00	0	38	0	1123024896	47	4440
2026-01-22 00:06:56.88	77.87	17.61	-37.8	-39.7	20.5	0.00e+00	0	38	0	1126170624	47	4404
2026-01-22 00:06:58.39	78.22	17.64	-37.7	-39.5	20.6	0.00e+00	0	38	0	1134559232	47	4306
2026-01-22 00:06:59.10	78.38	17.65	-37.6	-39.4	20.7	0.00e+00	0	38	0	1138753536	47	4268
2026-01-22 00:07:00.40	78.68	17.67	-37.6	-39.4	20.7	0.00e+00	0	38	0	1146093568	47	4288
2026-01-22 00:07:01.11	78.85	17.68	-37.5	-39.4	20.7	0.00e+00	0	38	0	1150287872	47	4255
2026-01-22 00:07:02.39	79.14	17.70	-37.7	-39.6	20.6	0.00e+00	0	38	0	1157627904	47	4343
2026-01-22 00:07:03.10	79.31	17.71	-37.7	-39.5	20.6	0.00e+00	0	38	0	1160773632	47	4319
2026-01-22 00:07:04.45	79.62	17.73	-37.8	-39.6	20.5	0.00e+00	0	38	0	1169162240	47	4364
2026-01-22 00:07:05.17	79.79	17.74	-37.8	-39.6	20.5	0.00e+00	0	38	0	1172307968	47	4388
2026-01-22 00:07:06.44	80.08	17.75	-37.7	-39.6	20.6	0.00e+00	0	38	0	1179648000	47	4342
2026-01-22 00:07:07.15	80.24	17.76	-37.7	-39.5	20.6	0.00e+00	0	38	0	1183842304	47	4305
2026-01-22 00:07:08.43	80.54	17.78	-37.7	-39.5	20.6	0.00e+00	0	38	0	1191182336	47	4318
2026-01-22 00:07:09.16	80.71	17.78	-37.7	-39.6	20.6	0.00e+00	0	38	0	1195376640	47	4350
2026-01-22 00:07:10.44	81.01	17.80	-37.8	-39.6	20.5	0.00e+00	0	38	0	1202716672	47	4385
2026-01-22 00:07:11.16	81.18	17.81	-37.8	-39.7	20.5	0.00e+00	0	38	0	1206910976	47	4400
2026-01-22 00:07:12.44	81.47	17.82	-37.7	-39.6	20.6	0.00e+00	0	38	0	1213202432	47	4351
2026-01-22 00:07:13.15	81.64	17.83	-37.7	-39.6	20.6	0.00e+00	0	38	0	1217396736	47	4365
2026-01-22 00:07:14.83	82.03	17.84	-37.7	-39.6	20.6	0.00e+00	0	38	0	1226833920	47	4355
2026-01-22 00:07:15.40	82.16	17.85	-37.8	-39.6	20.6	0.00e+00	0	38	0	1229979648	47	4365
2026-01-22 00:07:17.09	82.56	17.86	-37.7	-39.5	20.6	0.00e+00	0	38	0	1239416832	47	4335
2026-01-22 00:07:17.74	82.71	17.86	-37.7	-39.6	20.6	0.00e+00	0	38	0	1243611136	47	4356
2026-01-22 00:07:19.16	83.04	17.87	-37.7	-39.5	20.6	0.00e+00	0	38	0	1250951168	47	4324
2026-01-22 00:07:19.95	83.22	17.88	-37.7	-39.6	20.6	0.00e+00	0	38	0	1256194048	47	4358
2026-01-22 00:07:21.16	83.51	17.89	-37.8	-39.7	20.5	0.00e+00	0	38	0	1262485504	47	4419
2026-01-22 00:07:22.19	83.75	17.89	-37.8	-39.6	20.5	0.00e+00	0	38	0	1268776960	47	4391
2026-01-22 00:07:23.38	84.03	17.90	-37.7	-39.5	20.6	0.00e+00	0	38	0	1275068416	47	4319
2026-01-22 00:07:24.23	84.23	17.90	-37.7	-39.5	20.6	0.00e+00	0	38	0	1280311296	47	4334
2026-01-22 00:07:25.36	84.49	17.91	-37.7	-39.6	20.6	0.00e+00	0	38	0	1286602752	47	4345
2026-01-22 00:07:26.22	84.69	17.91	-37.7	-39.6	20.6	0.00e+00	0	38	0	1290797056	47	4377
2026-01-22 00:07:27.35	84.96	17.91	-37.8	-39.7	20.4	0.00e+00	0	38	0	1297088512	47	4431
2026-01-22 00:07:28.20	85.16	17.92	-37.9	-39.8	20.4	0.00e+00	0	38	0	1302331392	47	4467
2026-01-22 00:07:29.34	85.42	17.92	-37.9	-39.8	20.4	0.00e+00	0	38	0	1308622848	47	4460
2026-01-22 00:07:30.19	85.62	17.92	-37.9	-39.8	20.4	0.00e+00	0	38	0	1313865728	47	4475
2026-01-22 00:07:31.33	85.89	17.92	-37.9	-39.8	20.3	0.00e+00	0	38	0	1320157184	47	4478
2026-01-22 00:07:32.18	86.09	17.92	-37.9	-39.7	20.4	0.00e+00	0	38	0	1324351488	47	4433
2026-01-22 00:07:33.32	86.36	17.92	-37.8	-39.7	20.4	0.00e+00	0	38	0	1331691520	47	4420
2026-01-22 00:07:34.17	86.55	17.92	-37.8	-39.7	20.4	0.00e+00	0	38	0	1335885824	47	4396
2026-01-22 00:07:35.31	86.82	17.92	-37.9	-39.7	20.4	0.00e+00	0	38	0	1342177280	47	4435
2026-01-22 00:07:36.16	87.02	17.92	-37.9	-39.7	20.4	0.00e+00	0	38	0	1347420160	47	4419
2026-01-22 00:07:37.30	87.29	17.92	-38.0	-39.8	20.3	0.00e+00	0	38	0	1353711616	47	4493
2026-01-22 00:07:38.15	87.49	17.92	-37.9	-39.8	20.4	0.00e+00	0	38	0	1357905920	47	4447
2026-01-22 00:07:39.29	87.75	17.91	-37.9	-39.7	20.4	0.00e+00	0	38	0	1365245952	47	4426
2026-01-22 00:07:40.14	87.95	17.91	-37.8	-39.7	20.5	0.00e+00	0	38	0	1369440256	47	4397
2026-01-22 00:07:41.28	88.22	17.91	-37.8	-39.6	20.6	0.00e+00	0	38	0	1375731712	47	4356
2026-01-22 00:07:42.13	88.42	17.91	-37.6	-39.4	20.7	0.00e+00	0	38	0	1380974592	47	4285
2026-01-22 00:07:43.27	88.69	17.90	-37.5	-39.3	20.8	0.00e+00	0	38	0	1387266048	47	4217
2026-01-22 00:07:44.12	88.89	17.90	-37.6	-39.4	20.7	0.00e+00	0	38	0	1392508928	47	4259
2026-01-22 00:07:45.26	89.15	17.89	-37.7	-39.5	20.6	0.00e+00	0	38	0	1397751808	47	4320
2026-01-22 00:07:46.11	89.35	17.89	-37.6	-39.4	20.7	0.00e+00	0	38	0	1402994688	47	4283
2026-01-22 00:07:47.25	89.62	17.88	-37.7	-39.6	20.6	0.00e+00	0	38	0	1409286144	47	4347
2026-01-22 00:07:48.10	89.82	17.87	-37.7	-39.5	20.6	0.00e+00	0	38	0	1414529024	47	4337
2026-01-22 00:07:49.24	90.08	17.87	-37.7	-39.6	20.6	0.00e+00	0	38	0	1420820480	47	4347
2026-01-22 00:07:50.09	90.28	17.86	-37.7	-39.6	20.6	0.00e+00	0	38	0	1425014784	47	4349
2026-01-22 00:07:51.23	90.55	17.85	-37.9	-39.7	20.5	0.00e+00	0	38	0	1432354816	47	4426
2026-01-22 00:07:52.08	90.75	17.84	-37.8	-39.6	20.5	0.00e+00	0	38	0	1436549120	47	4390
2026-01-22 00:07:53.22	91.01	17.83	-37.8	-39.7	20.5	0.00e+00	0	38	0	1442840576	47	4417
2026-01-22 00:07:54.07	91.21	17.83	-37.9	-39.8	20.4	0.00e+00	0	38	0	1448083456	47	4445
2026-01-22 00:07:55.21	91.48	17.81	-37.9	-39.8	20.4	0.00e+00	0	38	0	1454374912	47	4459
2026-01-22 00:07:56.06	91.67	17.81	-38.0	-39.9	20.3	0.00e+00	0	38	0	1458569216	47	4497
2026-01-22 00:07:57.20	91.94	17.79	-37.9	-39.8	20.4	0.00e+00	0	38	0	1465909248	47	4452
2026-01-22 00:07:58.05	92.14	17.78	-37.8	-39.7	20.4	0.00e+00	0	38	0	1470103552	47	4409
2026-01-22 00:07:59.19	92.40	17.77	-37.9	-39.8	20.4	0.00e+00	0	38	0	1476395008	47	4450
2026-01-22 00:08:00.04	92.60	17.76	-38.0	-39.8	20.4	0.00e+00	0	38	0	1481637888	47	4481
2026-01-22 00:08:01.18	92.86	17.75	-38.0	-39.8	20.3	0.00e+00	0	38	0	1487929344	47	4493
2026-01-22 00:08:02.03	93.06	17.74	-38.1	-40.0	20.3	0.00e+00	0	38	0	1493172224	47	4559
2026-01-22 00:08:03.17	93.32	17.72	-38.2	-40.1	20.2	0.00e+00	0	38	0	1499463680	47	4604
2026-01-22 00:08:04.02	93.52	17.71	-38.3	-40.2	20.1	0.00e+00	0	38	0	1503657984	47	4658
2026-01-22 00:08:05.16	93.78	17.69	-38.3	-40.2	20.1	0.00e+00	0	38	0	1509949440	47	4696
2026-01-22 00:08:06.01	93.98	17.68	-38.3	-40.3	20.0	0.00e+00	0	38	0	1515192320	47	4710
2026-01-22 00:08:07.15	94.24	17.66	-38.3	-40.2	20.0	0.00e+00	0	38	0	1521483776	47	4672
2026-01-22 00:08:08.00	94.44	17.65	-38.2	-40.1	20.1	0.00e+00	0	38	0	1525678080	47	4645
2026-01-22 00:08:09.14	94.70	17.63	-38.1	-40.0	20.2	0.00e+00	0	38	0	1533018112	47	4553
2026-01-22 00:08:09.99	94.90	17.62	-38.0	-39.9	20.3	0.00e+00	0	38	0	1537212416	47	4497
2026-01-22 00:08:11.13	95.16	17.60	-38.1	-39.9	20.3	0.00e+00	0	38	0	1543503872	47	4518
2026-01-22 00:08:11.98	95.36	17.59	-38.0	-39.8	20.4	0.00e+00	0	38	0	1548746752	47	4467
2026-01-22 00:08:13.12	95.62	17.57	-38.0	-39.8	20.3	0.00e+00	0	38	0	1555038208	47	4491
2026-01-22 00:08:13.97	95.81	17.55	-38.0	-39.8	20.3	0.00e+00	0	38	0	1560281088	47	4476
2026-01-22 00:08:15.11	96.07	17.53	-38.0	-39.8	20.3	0.00e+00	0	38	0	1566572544	47	4475
2026-01-22 00:08:16.12	96.30	17.51	-38.0	-39.8	20.3	0.00e+00	0	38	0	1571815424	47	4481
2026-01-22 00:08:17.30	96.57	17.49	-37.9	-39.8	20.4	0.00e+00	0	38	0	1578106880	47	4442
2026-01-22 00:08:18.15	96.77	17.47	-37.9	-39.8	20.4	0.00e+00	0	38	0	1583349760	47	4448
2026-01-22 00:08:19.50	97.07	17.44	-38.0	-39.8	20.3	0.00e+00	0	38	0	1590689792	47	4487
2026-01-22 00:08:20.21	97.24	17.43	-38.0	-39.9	20.3	0.00e+00	0	38	0	1594884096	47	4511
2026-01-22 00:08:21.49	97.53	17.40	-38.1	-40.0	20.2	0.00e+00	0	38	0	1602224128	47	4581
2026-01-22 00:08:22.20	97.69	17.39	-38.2	-40.1	20.1	0.00e+00	0	38	0	1606418432	47	4620
2026-01-22 00:08:23.77	98.04	17.35	-38.3	-40.2	20.0	0.00e+00	0	38	0	1614807040	47	4671
2026-01-22 00:08:24.40	98.19	17.34	-38.4	-40.3	20.0	0.00e+00	0	38	0	1617952768	47	4724
2026-01-22 00:08:26.07	98.56	17.30	-38.2	-40.1	20.1	0.00e+00	0	38	0	1628438528	47	4644
2026-01-22 00:08:26.64	98.69	17.29	-38.3	-40.1	20.1	0.00e+00	0	38	0	1631584256	47	4640
2026-01-22 00:08:28.34	99.07	17.25	-38.3	-40.2	20.1	0.00e+00	0	38	0	1641021440	47	4653
2026-01-22 00:08:28.91	99.20	17.23	-38.2	-40.0	20.1	0.00e+00	0	38	0	1644167168	47	4592
2026-01-22 00:08:30.60	99.58	17.19	-38.1	-39.9	20.2	0.00e+00	0	38	0	1653604352	47	4529
2026-01-22 00:08:31.32	99.74	17.17	-38.1	-39.9	20.2	0.00e+00	0	38	0	1656750080	47	4536
2026-01-22 00:08:32.60	100.03	17.14	-38.0	-39.9	20.3	0.00e+00	0	38	0	1664090112	47	4509
2026-01-22 00:08:33.32	100.19	17.12	-38.0	-39.9	20.2	0.00e+00	0	38	0	1668284416	47	4520
2026-01-22 00:08:34.62	100.48	17.09	-38.1	-40.0	20.2	0.00e+00	0	38	0	1675624448	47	4548
2026-01-22 00:08:35.33	100.63	17.07	-38.1	-40.0	20.2	0.00e+00	0	38	0	1679818752	47	4557
2026-01-22 00:08:36.60	100.92	17.03	-38.2	-40.1	20.1	0.00e+00	0	38	0	1687158784	47	4608
2026-01-22 00:08:37.72	101.16	17.00	-38.2	-40.1	20.1	0.00e+00	0	38	0	1693450240	47	4604
2026-01-22 00:08:38.84	101.41	16.97	-38.2	-40.1	20.1	0.00e+00	0	38	0	1699741696	47	4631
2026-01-22 00:08:39.70	101.60	16.95	-38.3	-40.2	20.0	0.00e+00	0	38	0	1704984576	47	4657
2026-01-22 00:08:40.83	101.85	16.91	-38.2	-40.1	20.1	0.00e+00	0	38	0	1711276032	47	4629
2026-01-22 00:08:41.69	102.04	16.89	-38.3	-40.1	20.1	0.00e+00	0	38	0	1715470336	47	4638
2026-01-22 00:08:42.83	102.29	16.85	-38.2	-40.1	20.1	0.00e+00	0	38	0	1721761792	47	4610
2026-01-22 00:08:43.68	102.48	16.83	-38.1	-40.0	20.2	0.00e+00	0	38	0	1727004672	47	4549
2026-01-22 00:08:44.81	102.72	16.80	-38.2	-40.0	20.2	0.00e+00	0	38	0	1733296128	47	4573
2026-01-22 00:08:45.66	102.91	16.77	-38.2	-40.0	20.2	0.00e+00	0	38	0	1737490432	47	4589
2026-01-22 00:08:46.80	103.16	16.73	-38.2	-40.1	20.1	0.00e+00	0	38	0	1744830464	47	4635
2026-01-22 00:08:47.65	103.34	16.71	-38.2	-40.1	20.1	0.00e+00	0	38	0	1749024768	47	4640
2026-01-22 00:08:48.91	103.61	16.67	-38.2	-40.1	20.1	0.00e+00	0	38	0	1756364800	47	4601
2026-01-22 00:08:49.69	103.78	16.64	-38.2	-40.1	20.1	0.00e+00	0	38	0	1760559104	47	4625
2026-01-22 00:08:51.12	104.09	16.60	-38.3	-40.2	20.0	0.00e+00	0	38	0	1768947712	47	4687
2026-01-22 00:08:51.83	104.24	16.57	-38.4	-40.2	20.0	0.00e+00	0	38	0	1773142016	47	4702
2026-01-22 00:08:53.18	104.53	16.53	-38.3	-40.2	20.0	0.00e+00	0	38	0	1780482048	47	4688
2026-01-22 00:08:53.89	104.69	16.50	-38.4	-40.2	20.0	0.00e+00	0	38	0	1784676352	47	4705
2026-01-22 00:08:55.17	104.96	16.46	-38.5	-40.4	19.9	0.00e+00	0	38	0	1790967808	47	4765
2026-01-22 00:08:55.88	105.11	16.44	-38.6	-40.5	19.8	0.00e+00	0	38	0	1795162112	47	4822
2026-01-22 00:08:57.27	105.41	16.39	-38.6	-40.5	19.8	0.00e+00	0	38	0	1803550720	47	4855
2026-01-22 00:08:57.98	105.56	16.37	-38.8	-40.7	19.7	0.00e+00	0	38	0	1807745024	48	4678
2026-01-22 00:08:59.26	105.83	16.32	-38.6	-40.5	20.0	0.00e+00	0	38	0	1814036480	48	4594
2026-01-22 00:08:59.97	105.98	16.29	-38.6	-40.5	20.0	0.00e+00	0	38	0	1818230784	48	4554
2026-01-22 00:09:01.25	106.25	16.25	-38.7	-40.6	20.0	0.00e+00	0	38	0	1825570816	48	4626
2026-01-22 00:09:01.96	106.40	16.22	-38.6	-40.5	20.0	0.00e+00	0	38	0	1829765120	48	4566
2026-01-22 00:09:03.24	106.67	16.18	-38.7	-40.5	20.0	0.00e+00	0	38	0	1837105152	48	4595
2026-01-22 00:09:03.95	106.82	16.15	-38.6	-40.5	20.0	0.00e+00	0	38	0	1841299456	48	4562
2026-01-22 00:09:05.23	107.08	16.10	-38.7	-40.5	20.0	0.00e+00	0	38	0	1848639488	48	4591
2026-01-22 00:09:05.99	107.24	16.08	-38.6	-40.5	20.0	0.00e+00	0	38	0	1852833792	48	4572
2026-01-22 00:09:07.26	107.51	16.03	-38.6	-40.5	20.0	0.00e+00	0	38	0	1859125248	48	4597
2026-01-22 00:09:07.97	107.65	16.00	-38.6	-40.5	20.0	0.00e+00	0	38	0	1863319552	48	4584
2026-01-22 00:09:09.25	107.92	15.95	-38.6	-40.5	20.0	0.00e+00	0	38	0	1870659584	48	4568
2026-01-22 00:09:09.96	108.07	15.92	-38.6	-40.5	20.0	0.00e+00	0	38	0	1874853888	48	4549
2026-01-22 00:09:11.24	108.33	15.88	-38.7	-40.5	19.9	0.00e+00	0	38	0	1882193920	48	4593
2026-01-22 00:09:11.95	108.48	15.85	-38.7	-40.5	19.9	0.00e+00	0	38	0	1886388224	48	4592
2026-01-22 00:09:13.23	108.74	15.80	-38.5	-40.4	20.1	0.00e+00	0	38	0	1893728256	48	4512
2026-01-22 00:09:13.94	108.88	15.77	-38.6	-40.4	20.0	0.00e+00	0	38	0	1896873984	48	4528
2026-01-22 00:09:15.25	109.15	15.72	-38.7	-40.6	19.9	0.00e+00	0	38	0	1904214016	48	4616
2026-01-22 00:09:15.96	109.29	15.69	-38.7	-40.5	20.0	0.00e+00	0	38	0	1908408320	48	4597
2026-01-22 00:09:17.24	109.55	15.64	-38.5	-40.4	20.0	0.00e+00	0	38	0	1915748352	48	4528
2026-01-22 00:09:17.95	109.70	15.61	-38.6	-40.5	20.0	0.00e+00	0	38	0	1919942656	48	4546
2026-01-22 00:09:19.23	109.96	15.56	-38.6	-40.4	20.0	0.00e+00	0	38	0	1927282688	48	4538
2026-01-22 00:09:19.96	110.10	15.53	-38.6	-40.5	20.0	0.00e+00	0	38	0	1930428416	48	4572
2026-01-22 00:09:21.24	110.36	15.47	-38.6	-40.5	20.0	0.00e+00	0	38	0	1937768448	48	4561
2026-01-22 00:09:21.95	110.50	15.44	-38.5	-40.4	20.0	0.00e+00	0	38	0	1941962752	48	4526
2026-01-22 00:09:23.23	110.76	15.39	-38.7	-40.5	20.0	0.00e+00	0	38	0	1949302784	48	4588
2026-01-22 00:09:23.96	110.90	15.36	-38.7	-40.5	20.0	0.00e+00	0	38	0	1953497088	48	4589
2026-01-22 00:09:25.23	111.16	15.30	-38.6	-40.5	20.0	0.00e+00	0	38	0	1960837120	48	4553
2026-01-22 00:09:25.94	111.30	15.27	-38.7	-40.5	20.0	0.00e+00	0	38	0	1965031424	48	4596
2026-01-22 00:09:27.22	111.55	15.22	-38.7	-40.6	19.9	0.00e+00	0	38	0	1972371456	48	4614
2026-01-22 00:09:28.03	111.71	15.18	-38.7	-40.6	19.9	0.00e+00	0	38	0	1976565760	48	4619
2026-01-22 00:09:29.16	111.93	15.13	-38.7	-40.5	20.0	0.00e+00	0	38	0	1982857216	48	4598
2026-01-22 00:09:30.02	112.10	15.10	-38.6	-40.6	20.0	0.00e+00	0	38	0	1987051520	48	4604
2026-01-22 00:09:31.15	112.32	15.05	-38.8	-40.7	19.9	0.00e+00	0	38	0	1994391552	48	4683
2026-01-22 00:09:32.01	112.49	15.01	-38.9	-40.8	19.8	0.00e+00	0	38	0	1998585856	48	4722
2026-01-22 00:09:33.14	112.71	14.96	-39.0	-40.9	19.6	0.00e+00	0	38	0	2004877312	48	4794
2026-01-22 00:09:34.00	112.87	14.92	-39.1	-41.1	19.5	0.00e+00	0	38	0	2010120192	48	4872
2026-01-22 00:09:35.13	113.09	14.87	-39.2	-41.2	19.4	0.00e+00	0	38	0	2016411648	49	4653
2026-01-22 00:09:35.99	113.26	14.83	-39.1	-41.1	19.5	0.00e+00	0	38	0	2021654528	49	4604
2026-01-22 00:09:37.12	113.47	14.78	-39.0	-41.0	19.6	0.00e+00	0	38	0	2027945984	49	4549
2026-01-22 00:09:37.98	113.64	14.74	-39.1	-41.0	19.6	0.00e+00	0	38	0	2032140288	49	4557
2026-01-22 00:09:39.11	113.85	14.69	-39.1	-41.0	19.5	0.00e+00	0	38	0	2038431744	49	4597
2026-01-22 00:09:39.97	114.02	14.65	-39.1	-41.0	19.6	0.00e+00	0	38	0	2043674624	49	4553
2026-01-22 00:09:41.10	114.23	14.60	-38.9	-40.8	19.7	0.00e+00	0	38	0	2049966080	49	4483
2026-01-22 00:09:41.96	114.39	14.56	-38.9	-40.8	19.7	0.00e+00	0	38	0	2054160384	49	4459
2026-01-22 00:09:43.09	114.61	14.51	-39.0	-40.9	19.6	0.00e+00	0	38	0	2061500416	49	4535
2026-01-22 00:09:43.95	114.77	14.47	-38.9	-40.8	19.7	0.00e+00	0	38	0	2065694720	49	4463
2026-01-22 00:09:45.08	114.98	14.41	-38.9	-40.8	19.7	0.00e+00	0	38	0	2071986176	49	4482
2026-01-22 00:09:45.93	115.14	14.37	-38.9	-40.8	19.7	0.00e+00	0	38	0	2077229056	49	4487
2026-01-22 00:09:47.07	115.35	14.32	-38.9	-40.8	19.7	0.00e+00	0	38	0	2083520512	49	4455
2026-01-22 00:09:48.30	115.58	14.26	-38.9	-40.8	19.7	0.00e+00	0	38	0	2090860544	49	4453
2026-01-22 00:09:49.32	115.77	14.21	-39.1	-41.0	19.6	0.00e+00	0	38	0	2096103424	49	4549
2026-01-22 00:09:50.50	115.98	14.16	-39.1	-41.0	19.6	0.00e+00	0	38	0	2102394880	49	4575
2026-01-22 00:09:51.35	116.14	14.11	-39.2	-41.1	19.5	0.00e+00	0	38	0	2107637760	49	4606
2026-01-22 00:09:52.48	116.35	14.06	-39.2	-41.1	19.4	0.00e+00	0	38	0	2113929216	49	4638
2026-01-22 00:09:53.34	116.50	14.02	-39.3	-41.2	19.4	0.00e+00	0	38	0	2119172096	49	4684
2026-01-22 00:09:54.48	116.71	13.96	-39.3	-41.2	19.4	0.00e+00	0	38	0	2125463552	49	4705
2026-01-22 00:09:55.33	116.87	13.92	-39.3	-41.2	19.3	0.00e+00	0	38	0	2129657856	49	4695
2026-01-22 00:09:56.46	117.07	13.87	-39.3	-41.2	19.4	0.00e+00	0	38	0	2135949312	49	4661
2026-01-22 00:09:57.32	117.22	13.82	-39.4	-41.3	19.3	0.00e+00	0	38	0	2141192192	49	4726
2026-01-22 00:09:58.46	117.43	13.77	-39.4	-41.4	19.3	0.00e+00	0	38	0	2147483648	49	4763
2026-01-22 00:09:59.31	117.58	13.73	-39.4	-41.3	19.3	0.00e+00	0	38	0	2152726528	49	4724
2026-01-22 00:10:00.45	117.79	13.67	-39.4	-41.3	19.2	0.00e+00	0	38	0	2159017984	49	4747
2026-01-22 00:10:01.30	117.94	13.63	-39.5	-41.4	19.2	0.00e+00	0	38	0	2163212288	49	4796
2026-01-22 00:10:02.43	118.14	13.57	-39.6	-41.6	19.0	0.00e+00	0	38	0	2169503744	49	4879
2026-01-22 00:10:03.29	118.29	13.53	-39.6	-41.6	19.0	0.00e+00	0	38	0	2174746624	49	4915
2026-01-22 00:10:04.50	118.50	13.47	-39.7	-41.7	18.9	0.00e+00	0	38	0	2181038080	50	4688
2026-01-22 00:10:05.35	118.65	13.42	-39.7	-41.7	18.9	0.00e+00	0	38	0	2186280960	50	4705
2026-01-22 00:10:06.49	118.85	13.37	-39.6	-41.6	19.1	0.00e+00	0	38	0	2192572416	50	4601
2026-01-22 00:10:07.34	119.00	13.32	-39.4	-41.4	19.2	0.00e+00	0	38	0	2197815296	50	4504
2026-01-22 00:10:08.59	119.22	13.26	-39.3	-41.2	19.3	0.00e+00	0	38	0	2204106752	50	4440
2026-01-22 00:10:09.44	119.36	13.22	-39.3	-41.2	19.4	0.00e+00	0	38	0	2209349632	50	4403
2026-01-22 00:10:10.58	119.56	13.16	-39.3	-41.3	19.3	0.00e+00	0	38	0	2215641088	50	4447
2026-01-22 00:10:11.43	119.71	13.12	-39.3	-41.2	19.4	0.00e+00	0	38	0	2220883968	50	4408
2026-01-22 00:10:12.57	119.90	13.06	-39.3	-41.2	19.4	0.00e+00	0	38	0	2227175424	50	4419
2026-01-22 00:10:13.42	120.05	13.01	-39.4	-41.4	19.2	0.00e+00	0	38	0	2231369728	50	4494
2026-01-22 00:10:14.56	120.24	12.96	-39.3	-41.2	19.3	0.00e+00	0	38	0	2237661184	50	4437
2026-01-22 00:10:15.41	120.39	12.91	-39.3	-41.3	19.3	0.00e+00	0	38	0	2242904064	50	4452
2026-01-22 00:10:16.55	120.58	12.85	-39.4	-41.3	19.3	0.00e+00	0	38	0	2249195520	50	4468
2026-01-22 00:10:17.40	120.72	12.81	-39.4	-41.3	19.2	0.00e+00	0	38	0	2254438400	50	4489
2026-01-22 00:10:18.54	120.91	12.75	-39.3	-41.3	19.3	0.00e+00	0	38	0	2260729856	50	4464
2026-01-22 00:10:19.39	121.06	12.71	-39.4	-41.4	19.2	0.00e+00	0	38	0	2264924160	50	4503
2026-01-22 00:10:20.52	121.24	12.65	-39.3	-41.3	19.3	0.00e+00	0	38	0	2272264192	50	4455
2026-01-22 00:10:21.38	121.39	12.60	-39.4	-41.4	19.2	0.00e+00	0	38	0	2276458496	50	4500
2026-01-22 00:10:22.51	121.57	12.54	-39.4	-41.4	19.1	0.00e+00	0	38	0	2282749952	50	4537
2026-01-22 00:10:23.37	121.72	12.50	-39.5	-41.4	19.1	0.00e+00	0	38	0	2287992832	50	4541
2026-01-22 00:10:24.50	121.90	12.44	-39.6	-41.5	19.1	0.00e+00	0	38	0	2294284288	50	4566
2026-01-22 00:10:25.36	122.04	12.39	-39.6	-41.5	19.1	0.00e+00	0	38	0	2298478592	50	4595
2026-01-22 00:10:26.49	122.23	12.33	-39.6	-41.6	19.0	0.00e+00	0	38	0	2304770048	50	4600
2026-01-22 00:10:27.34	122.37	12.29	-39.6	-41.5	19.1	0.00e+00	0	38	0	2310012928	50	4575
2026-01-22 00:10:28.69	122.59	12.22	-39.8	-41.8	18.8	0.00e+00	0	38	0	2317352960	50	4715
2026-01-22 00:10:29.40	122.70	12.18	-39.8	-41.8	18.8	0.00e+00	0	38	0	2321547264	50	4732
2026-01-22 00:10:30.68	122.91	12.11	-39.9	-41.9	18.7	0.00e+00	0	38	0	2328887296	50	4807
2026-01-22 00:10:31.41	123.02	12.07	-39.9	-42.0	18.7	0.00e+00	0	38	0	2333081600	50	4817
2026-01-22 00:10:32.69	123.23	12.00	-40.0	-42.0	18.6	0.00e+00	0	38	0	2340421632	50	4831
2026-01-22 00:10:33.40	123.34	11.97	-40.1	-42.1	18.5	0.00e+00	0	38	0	2343567360	50	4897
2026-01-22 00:10:34.67	123.54	11.90	-40.1	-42.1	18.6	0.00e+00	0	38	0	2350907392	50	4896
2026-01-22 00:10:35.39	123.66	11.86	-40.0	-42.0	18.6	0.00e+00	0	38	0	2355101696	50	4870
2026-01-22 00:10:36.67	123.86	11.79	-40.0	-42.0	18.6	0.00e+00	0	38	0	2362441728	50	4860
2026-01-22 00:10:37.50	123.99	11.75	-40.0	-42.0	18.7	0.00e+00	0	39	0	2366636032	50	4831
2026-01-22 00:10:38.64	124.17	11.68	-40.1	-42.1	18.5	0.00e+00	0	38	0	2373976064	50	4901
2026-01-22 00:10:39.49	124.30	11.64	-40.0	-42.0	18.6	0.00e+00	0	38	0	2378170368	50	4852
2026-01-22 00:10:40.63	124.48	11.58	-40.1	-42.1	18.5	0.00e+00	0	38	0	2384461824	50	4926
2026-01-22 00:10:41.48	124.61	11.53	-40.2	-42.3	18.4	0.00e+00	0	38	0	2389704704	51	4734
2026-01-22 00:10:42.62	124.79	11.47	-40.0	-42.0	18.6	0.00e+00	0	38	0	2395996160	51	4592
2026-01-22 00:10:43.47	124.92	11.42	-40.0	-42.0	18.6	0.00e+00	0	38	0	2401239040	51	4557
2026-01-22 00:10:44.61	125.09	11.36	-40.0	-42.0	18.6	0.00e+00	0	38	0	2407530496	51	4579
2026-01-22 00:10:45.46	125.22	11.32	-40.2	-42.2	18.4	0.00e+00	0	38	0	2411724800	51	4664
2026-01-22 00:10:46.60	125.40	11.25	-40.0	-42.0	18.6	0.00e+00	0	38	0	2418016256	51	4565
2026-01-22 00:10:47.45	125.52	11.21	-40.0	-41.9	18.7	0.00e+00	0	38	0	2423259136	51	4536
2026-01-22 00:10:48.59	125.70	11.15	-40.0	-42.0	18.5	0.00e+00	0	38	0	2429550592	51	4597
2026-01-22 00:10:49.44	125.82	11.10	-40.1	-42.0	18.5	0.00e+00	0	38	0	2434793472	51	4594
2026-01-22 00:10:50.58	126.00	11.04	-40.0	-42.0	18.6	0.00e+00	0	38	0	2441084928	51	4564
2026-01-22 00:10:51.43	126.12	10.99	-40.1	-42.1	18.6	0.00e+00	0	38	0	2445279232	51	4600
2026-01-22 00:10:52.57	126.29	10.93	-40.1	-42.1	18.5	0.00e+00	0	38	0	2451570688	51	4616
2026-01-22 00:10:53.42	126.42	10.88	-39.9	-41.9	18.6	0.00e+00	0	38	0	2456813568	51	4534
2026-01-22 00:10:54.56	126.59	10.82	-40.0	-42.0	18.6	0.00e+00	0	38	0	2463105024	51	4594
2026-01-22 00:10:55.41	126.71	10.77	-40.0	-42.0	18.6	0.00e+00	0	38	0	2467299328	51	4585
2026-01-22 00:10:56.55	126.88	10.71	-40.0	-42.0	18.6	0.00e+00	0	38	0	2474639360	51	4570
2026-01-22 00:10:57.40	127.00	10.66	-40.0	-41.9	18.6	0.00e+00	0	38	0	2478833664	51	4544
2026-01-22 00:10:58.54	127.17	10.60	-40.1	-42.1	18.4	0.00e+00	0	38	0	2485125120	51	4621
2026-01-22 00:10:59.39	127.29	10.55	-40.2	-42.2	18.4	0.00e+00	0	38	0	2490368000	51	4667
2026-01-22 00:11:00.59	127.47	10.49	-40.2	-42.2	18.4	0.00e+00	0	38	0	2496659456	51	4692
2026-01-22 00:11:01.44	127.59	10.44	-40.1	-42.1	18.4	0.00e+00	0	38	0	2501902336	51	4627
2026-01-22 00:11:02.58	127.75	10.38	-40.1	-42.1	18.4	0.00e+00	0	38	0	2508193792	51	4635
2026-01-22 00:11:03.43	127.88	10.33	-40.1	-42.2	18.4	0.00e+00	0	38	0	2513436672	51	4675
2026-01-22 00:11:04.57	128.04	10.27	-40.3	-42.4	18.2	0.00e+00	0	38	0	2519728128	51	4766
2026-01-22 00:11:05.42	128.16	10.22	-40.3	-42.4	18.2	0.00e+00	0	38	0	2523922432	51	4776
2026-01-22 00:11:06.56	128.32	10.16	-40.4	-42.4	18.1	0.00e+00	0	38	0	2530213888	51	4807
2026-01-22 00:11:07.41	128.44	10.11	-40.3	-42.5	18.1	0.00e+00	0	38	0	2535456768	51	4828
2026-01-22 00:11:08.55	128.60	10.05	-40.5	-42.5	18.0	0.00e+00	0	38	0	2541748224	51	4860
2026-01-22 00:11:09.40	128.72	10.00	-40.5	-42.6	18.0	0.00e+00	0	38	0	2546991104	51	4892
2026-01-22 00:11:10.54	128.88	9.94	-40.6	-42.7	17.9	0.00e+00	0	38	0	2553282560	51	4975
2026-01-22 00:11:11.40	129.00	9.89	-40.7	-42.8	17.7	0.00e+00	0	38	0	2557476864	52	4759
2026-01-22 00:11:12.53	129.16	9.83	-40.6	-42.8	17.7	0.00e+00	0	38	0	2563768320	52	4742
2026-01-22 00:11:13.39	129.27	9.78	-40.7	-42.9	17.7	0.00e+00	0	38	0	2569011200	52	4772
2026-01-22 00:11:14.53	129.43	9.72	-40.8	-43.0	17.6	0.00e+00	0	38	0	2575302656	52	4820
2026-01-22 00:11:15.38	129.55	9.67	-40.8	-42.9	17.6	0.00e+00	0	38	0	2580545536	52	4774
2026-01-22 00:11:16.52	129.70	9.61	-40.7	-42.8	17.7	0.00e+00	0	38	0	2586836992	52	4753
2026-01-22 00:11:17.37	129.82	9.56	-40.7	-42.8	17.7	0.00e+00	0	38	0	2591031296	52	4735
2026-01-22 00:11:18.58	129.98	9.49	-40.7	-42.8	17.7	0.00e+00	0	38	0	2598371328	52	4713
2026-01-22 00:11:19.44	130.10	9.45	-40.7	-42.8	17.7	0.00e+00	0	38	0	2602565632	52	4742
2026-01-22 00:11:20.58	130.25	9.38	-40.6	-42.7	17.8	0.00e+00	0	38	0	2609905664	52	4663
2026-01-22 00:11:21.43	130.37	9.34	-40.8	-43.0	17.6	0.00e+00	0	38	0	2614099968	52	4821
2026-01-22 00:11:22.57	130.52	9.27	-40.8	-42.9	17.6	0.00e+00	0	38	0	2620391424	52	4774
2026-01-22 00:11:23.42	130.63	9.22	-40.7	-42.8	17.7	0.00e+00	0	38	0	2625634304	52	4709
2026-01-22 00:11:24.56	130.78	9.16	-40.6	-42.7	17.8	0.00e+00	0	38	0	2631925760	52	4678
2026-01-22 00:11:25.41	130.89	9.11	-40.7	-42.8	17.7	0.00e+00	0	38	0	2636120064	52	4729
2026-01-22 00:11:26.55	131.04	9.05	-40.7	-42.9	17.6	0.00e+00	0	38	0	2643460096	52	4760
2026-01-22 00:11:27.40	131.16	9.00	-40.8	-42.9	17.6	0.00e+00	0	38	0	2647654400	52	4807
2026-01-22 00:11:28.53	131.30	8.94	-50.2	-62.5	3.8	8.47e-01	0	39	104	2650800128	71	15397
2026-01-22 00:11:29.38	131.41	8.89	-50.4	-62.7	3.8	8.48e-01	0	38	104	2650800128	71	15696
2026-01-22 00:11:30.52	131.56	8.83	-50.7	-62.9	3.8	8.48e-01	0	38	104	2650800128	72	15086
2026-01-22 00:11:31.37	131.67	8.78	-50.6	-62.9	3.8	8.47e-01	0	38	104	2650800128	72	15195
2026-01-22 00:11:32.52	131.82	8.72	-50.9	-63.0	3.8	8.47e-01	0	38	104	2650800128	72	15274
2026-01-22 00:11:33.38	131.93	8.67	-50.6	-63.0	3.8	8.47e-01	0	38	104	2650800128	72	15302
2026-01-22 00:11:34.57	132.08	8.61	-50.8	-63.0	3.8	8.47e-01	0	38	104	2650800128	72	15389
2026-01-22 00:11:35.42	132.19	8.56	-50.7	-63.1	3.8	8.47e-01	0	38	104	2650800128	72	15471
2026-01-22 00:11:36.62	132.34	8.49	-51.0	-63.1	3.8	8.48e-01	0	38	104	2650800128	72	15515
2026-01-22 00:11:37.48	132.45	8.44	-51.0	-63.1	3.8	8.47e-01	0	38	104	2650800128	72	15534
2026-01-22 00:11:38.67	132.60	8.38	-50.7	-63.1	3.8	8.46e-01	0	38	104	2650800128	72	15530
2026-01-22 00:11:39.53	132.71	8.33	-50.9	-63.2	3.8	8.47e-01	0	38	104	2650800128	72	15588
2026-01-22 00:11:40.66	132.85	8.27	-50.9	-63.2	3.8	8.48e-01	0	38	104	2650800128	72	15599
2026-01-22 00:11:41.51	132.96	8.22	-50.7	-63.2	3.8	8.47e-01	0	38	104	2650800128	72	15632
2026-01-22 00:11:42.65	133.10	8.16	-50.7	-63.2	3.8	8.48e-01	0	38	104	2650800128	72	15643
2026-01-22 00:11:43.50	133.20	8.11	-50.7	-63.2	3.8	8.47e-01	0	38	104	2650800128	72	15684
2026-01-22 00:11:44.64	133.34	8.05	-50.6	-63.2	3.8	8.47e-01	0	38	104	2650800128	72	15669
2026-01-22 00:11:45.49	133.45	8.00	-50.6	-63.2	3.8	8.47e-01	0	38	104	2650800128	72	15662
2026-01-22 00:11:46.62	133.58	7.94	-50.7	-63.2	3.8	8.47e-01	0	38	104	2650800128	72	15732
2026-01-22 00:11:47.48	133.69	7.89	-50.8	-63.2	3.8	8.48e-01	0	38	104	2650800128	72	15657
2026-01-22 00:11:48.61	133.83	7.83	-50.7	-63.1	3.8	8.46e-01	0	38	104	2650800128	72	15578
2026-01-22 00:11:49.46	133.93	7.78	-50.7	-63.1	3.8	8.45e-01	0	38	104	2650800128	72	15545
2026-01-22 00:11:50.60	134.07	7.72	-50.7	-63.1	3.8	8.46e-01	0	38	104	2650800128	72	15561
2026-01-22 00:11:51.45	134.17	7.67	-50.7	-63.1	3.8	8.47e-01	0	38	104	2650800128	72	15557
2026-01-22 00:11:52.59	134.30	7.60	-50.6	-63.1	3.8	8.46e-01	0	38	104	2650800128	72	15429
2026-01-22 00:11:53.44	134.41	7.56	-50.7	-63.1	3.8	8.48e-01	0	38	104	2650800128	72	15522
2026-01-22 00:11:54.57	134.54	7.50	-50.7	-63.1	3.8	8.47e-01	0	38	104	2650800128	72	15512
2026-01-22 00:11:55.42	134.64	7.45	-50.7	-63.1	3.8	8.46e-01	0	38	104	2650800128	72	15462
2026-01-22 00:11:56.56	134.77	7.39	-50.7	-63.1	3.8	8.47e-01	0	38	104	2650800128	72	15424
2026-01-22 00:11:57.41	134.87	7.34	-50.7	-63.1	3.8	8.47e-01	0	38	104	2650800128	72	15448
2026-01-22 00:11:58.54	135.01	7.28	-50.6	-63.1	3.8	8.47e-01	0	38	104	2650800128	72	15461
2026-01-22 00:11:59.40	135.11	7.23	-50.7	-63.1	3.8	8.47e-01	0	38	104	2650800128	72	15525
2026-01-22 00:12:00.53	135.24	7.17	-50.6	-63.1	3.8	8.48e-01	0	38	104	2650800128	72	15460
2026-01-22 00:12:01.38	135.34	7.12	-50.6	-63.1	3.8	8.47e-01	0	38	104	2650800128	72	15520
2026-01-22 00:12:02.52	135.47	7.06	-50.7	-63.1	3.8	8.47e-01	0	38	104	2650800128	72	15488
2026-01-22 00:12:03.37	135.57	7.01	-50.6	-63.1	3.8	8.47e-01	0	38	104	2650800128	72	15435
2026-01-22 00:12:04.50	135.69	6.95	-50.6	-63.1	3.8	8.49e-01	0	38	104	2650800128	72	15473
2026-01-22 00:12:05.35	135.79	6.90	-50.6	-63.1	3.8	8.47e-01	0	38	104	2650800128	72	15439
2026-01-22 00:12:06.49	135.92	6.84	-50.6	-63.1	3.8	8.46e-01	0	38	104	2650800128	72	15446
2026-01-22 00:12:07.34	136.02	6.79	-50.6	-63.1	3.8	8.47e-01	0	38	104	2650800128	72	15435
2026-01-22 00:12:08.48	136.15	6.73	-50.6	-63.0	3.8	8.46e-01	0	38	104	2650800128	72	15368
2026-01-22 00:12:09.33	136.24	6.68	-50.6	-63.1	3.8	8.47e-01	0	38	104	2650800128	72	15469
2026-01-22 00:12:10.46	136.37	6.62	-50.6	-63.1	3.8	8.47e-01	0	38	104	2650800128	72	15445
2026-01-22 00:12:11.32	136.46	6.57	-50.6	-63.1	3.8	8.46e-01	0	38	104	2650800128	72	15434
2026-01-22 00:12:12.45	136.59	6.51	-50.7	-63.1	3.8	8.47e-01	0	38	104	2650800128	72	15475
2026-01-22 00:12:13.30	136.68	6.46	-50.6	-63.1	3.8	8.47e-01	0	38	104	2650800128	72	15506
2026-01-22 00:12:14.44	136.81	6.40	-50.6	-63.1	3.8	8.47e-01	0	38	104	2650800128	72	15473
2026-01-22 00:12:15.29	136.90	6.35	-50.6	-63.1	3.8	8.47e-01	0	38	104	2650800128	72	15494
2026-01-22 00:12:16.42	137.03	6.29	-50.6	-63.1	3.8	8.47e-01	0	38	104	2650800128	72	15487
2026-01-22 00:12:17.28	137.12	6.24	-50.6	-63.1	3.8	8.46e-01	0	38	104	2650800128	72	15472
2026-01-22 00:12:18.41	137.24	6.18	-50.6	-63.1	3.8	8.48e-01	0	38	104	2650800128	72	15505
2026-01-22 00:12:19.26	137.34	6.13	-50.6	-63.1	3.8	8.47e-01	0	38	104	2650800128	72	15491
2026-01-22 00:12:20.40	137.46	6.07	-50.6	-63.1	3.8	8.48e-01	0	38	104	2650800128	72	15409
2026-01-22 00:12:21.25	137.55	6.03	-50.6	-63.1	3.8	8.46e-01	0	39	104	2650800128	72	15437
2026-01-22 00:12:22.39	137.67	5.96	-50.6	-63.0	3.8	8.45e-01	0	38	104	2650800128	72	15377
2026-01-22 00:12:23.24	137.76	5.92	-50.6	-63.1	3.8	8.47e-01	0	38	104	2650800128	72	15461
2026-01-22 00:12:24.37	137.88	5.86	-50.6	-63.1	3.8	8.47e-01	0	38	104	2650800128	72	15434
2026-01-22 00:12:25.23	137.97	5.81	-50.6	-63.0	3.8	8.46e-01	0	38	104	2650800128	72	15389
2026-01-22 00:12:26.36	138.09	5.75	-50.6	-63.1	3.8	8.47e-01	0	38	104	2650800128	72	15452
2026-01-22 00:12:27.21	138.18	5.70	-50.6	-63.1	3.8	8.47e-01	0	38	104	2650800128	72	15424
2026-01-22 00:12:28.35	138.30	5.64	-50.6	-63.1	3.8	8.47e-01	0	38	104	2650800128	72	15431
2026-01-22 00:12:29.20	138.39	5.59	-50.6	-63.1	3.8	8.47e-01	0	38	104	2650800128	72	15443
2026-01-22 00:12:30.33	138.51	5.53	-50.6	-63.1	3.8	8.48e-01	0	38	104	2650800128	72	15449
2026-01-22 00:12:31.18	138.60	5.48	-50.6	-63.1	3.8	8.46e-01	0	38	104	2650800128	72	15414
2026-01-22 00:12:32.32	138.72	5.42	-50.6	-63.1	3.8	8.47e-01	0	38	104	2650800128	72	15454
2026-01-22 00:12:33.17	138.80	5.38	-50.6	-63.1	3.8	8.47e-01	0	38	104	2650800128	72	15433
2026-01-22 00:12:34.30	138.92	5.31	-50.6	-63.1	3.8	8.47e-01	0	38	104	2650800128	72	15440
2026-01-22 00:12:35.15	139.01	5.27	-50.6	-63.1	3.8	8.47e-01	0	38	104	2650800128	72	15470
2026-01-22 00:12:36.29	139.12	5.21	-50.6	-63.1	3.8	8.46e-01	0	38	104	2650800128	72	15412
2026-01-22 00:12:37.14	139.21	5.16	-50.6	-63.1	3.8	8.46e-01	0	38	104	2650800128	72	15440
2026-01-22 00:12:38.28	139.32	5.10	-50.6	-63.1	3.8	8.46e-01	0	38	104	2650800128	72	15426
2026-01-22 00:12:39.13	139.41	5.05	-50.6	-63.1	3.8	8.48e-01	0	38	104	2650800128	72	15430
2026-01-22 00:12:40.26	139.52	4.99	-50.6	-63.1	3.8	8.45e-01	0	38	104	2650800128	72	15450

#Closed at: 2026-01-22 00:12:41
#Recorded file [2650 MB]: D:/Data/31040_260122_030225.dat