passes_logs/2026/01/22/T1/T1__20260122_202729_KHAYYAM_rec.log

#Pass ID: 20260122_202729_KHAYYAM
#Satellite: KHAYYAM
#Configuration: KHAYYAM_480M
#almurnet v.1.7.20251203
#Start time: 2026-01-22 20:27:31

#Version: 2.0.20230620
#Station: T1
#Location: 37.570604 lon 55.790049 lat
#TLE: 1 53370U 22096A   26022.50444257  .00007758  00000+0  31649-3 0  9992
#TLE: 2 53370  97.3554 289.3799 0001875 107.2390 252.9053 15.24700694192380

#Time	Az	El	Level	Level2	SNR	BER	BlckErr	Temp	State	Recorded	gain1	gain2
2026-01-22 20:27:31.29	27.61	5.31	-49.2	-52.4	3.6	0.00e+00	0	40	0	0	70	20216
2026-01-22 20:27:32.28	27.71	5.39	-49.2	-52.4	3.8	0.00e+00	0	41	104	0	69	21406
2026-01-22 20:27:33.28	27.80	5.46	-49.2	-52.4	3.8	0.00e+00	0	40	104	0	69	21423
2026-01-22 20:27:34.27	27.90	5.54	-49.2	-52.4	3.8	0.00e+00	0	40	104	0	69	21412
2026-01-22 20:27:35.27	27.99	5.61	-49.2	-52.4	3.8	0.00e+00	0	41	104	0	69	21468
2026-01-22 20:27:36.27	28.09	5.69	-49.2	-52.4	3.8	0.00e+00	0	41	104	0	69	21365
2026-01-22 20:27:37.26	28.18	5.76	-49.2	-52.4	3.8	0.00e+00	0	41	104	0	69	21400
2026-01-22 20:27:38.26	28.28	5.84	-49.2	-52.4	3.8	0.00e+00	0	41	104	0	69	21397
2026-01-22 20:27:39.26	28.38	5.91	-49.2	-52.4	3.8	0.00e+00	0	41	104	0	69	21418
2026-01-22 20:27:40.25	28.48	5.99	-49.2	-52.3	3.8	0.00e+00	0	41	104	0	69	21305
2026-01-22 20:27:41.25	28.58	6.06	-49.2	-52.4	3.8	0.00e+00	0	41	104	0	69	21434
2026-01-22 20:27:42.24	28.68	6.14	-49.2	-52.4	3.8	0.00e+00	0	41	104	0	69	21395
2026-01-22 20:27:43.23	28.77	6.21	-49.2	-52.4	3.8	0.00e+00	0	41	104	0	69	21409
2026-01-22 20:27:44.21	28.87	6.29	-49.2	-52.4	3.8	0.00e+00	0	41	104	0	69	21426
2026-01-22 20:27:45.20	28.98	6.36	-49.2	-52.4	3.8	0.00e+00	0	42	104	0	69	21444
2026-01-22 20:27:46.19	29.08	6.44	-49.2	-52.4	3.8	0.00e+00	0	41	104	0	69	21381
2026-01-22 20:27:47.18	29.18	6.52	-49.2	-52.4	3.8	0.00e+00	0	41	104	0	69	21368
2026-01-22 20:27:48.17	29.28	6.59	-49.2	-52.3	3.8	0.00e+00	0	41	104	0	69	21353
2026-01-22 20:27:49.17	29.39	6.67	-49.2	-52.4	3.8	0.00e+00	0	41	104	0	69	21444
2026-01-22 20:27:50.16	29.49	6.75	-49.2	-52.4	3.8	0.00e+00	0	42	104	0	69	21381
2026-01-22 20:27:51.16	29.60	6.83	-49.2	-52.4	3.8	0.00e+00	0	42	104	0	69	21499
2026-01-22 20:27:52.16	29.70	6.91	-49.2	-52.4	3.8	0.00e+00	0	42	104	0	69	21457
2026-01-22 20:27:53.15	29.81	6.99	-49.2	-52.4	3.8	0.00e+00	0	42	104	0	69	21419
2026-01-22 20:27:54.15	29.92	7.07	-49.2	-52.4	3.8	0.00e+00	0	42	104	0	69	21390
2026-01-22 20:27:55.15	30.03	7.14	-49.2	-52.4	3.8	0.00e+00	0	42	104	0	69	21400
2026-01-22 20:27:56.15	30.14	7.22	-49.2	-52.4	3.8	0.00e+00	0	42	104	0	69	21429
2026-01-22 20:27:57.14	30.25	7.30	-49.2	-52.3	3.8	0.00e+00	0	42	104	0	69	21315
2026-01-22 20:27:58.14	30.36	7.38	-49.2	-52.4	3.8	0.00e+00	0	42	104	0	69	21428
2026-01-22 20:27:59.13	30.47	7.46	-49.2	-52.4	3.8	0.00e+00	0	42	104	0	69	21388
2026-01-22 20:28:00.12	30.58	7.54	-49.2	-52.4	3.8	0.00e+00	0	42	104	0	69	21367
2026-01-22 20:28:01.13	30.69	7.63	-49.2	-52.3	3.8	0.00e+00	0	42	104	0	69	21344
2026-01-22 20:28:02.12	30.81	7.71	-49.2	-52.4	3.8	0.00e+00	0	42	104	0	69	21365
2026-01-22 20:28:03.12	30.92	7.79	-49.2	-52.4	3.8	0.00e+00	0	42	104	0	69	21364
2026-01-22 20:28:04.12	31.04	7.87	-49.2	-52.4	3.8	0.00e+00	0	42	104	0	69	21384
2026-01-22 20:28:05.12	31.15	7.95	-49.2	-52.3	3.8	0.00e+00	0	43	104	0	69	21354
2026-01-22 20:28:06.11	31.27	8.03	-49.2	-52.4	3.8	0.00e+00	0	43	104	0	69	21368
2026-01-22 20:28:07.11	31.39	8.12	-49.2	-52.4	3.8	0.00e+00	0	43	104	0	69	21396
2026-01-22 20:28:08.11	31.51	8.20	-49.2	-52.4	3.8	0.00e+00	0	43	104	0	69	21437
2026-01-22 20:28:09.10	31.62	8.28	-49.2	-52.4	3.8	0.00e+00	0	43	104	0	69	21436
2026-01-22 20:28:10.10	31.74	8.37	-49.2	-52.4	3.8	0.00e+00	0	43	104	0	69	21393
2026-01-22 20:28:11.10	31.87	8.45	-49.2	-52.4	3.8	0.00e+00	0	43	104	0	69	21402
2026-01-22 20:28:12.09	31.99	8.53	-49.2	-52.4	3.8	0.00e+00	0	43	104	0	69	21429
2026-01-22 20:28:13.09	32.11	8.62	-49.2	-52.4	3.8	0.00e+00	0	43	104	0	69	21430
2026-01-22 20:28:14.09	32.23	8.70	-49.2	-52.4	3.8	0.00e+00	0	43	104	0	69	21458
2026-01-22 20:28:15.08	32.36	8.79	-49.2	-52.4	3.8	0.00e+00	0	43	104	0	69	21441
2026-01-22 20:28:16.08	32.48	8.87	-49.2	-52.4	3.8	0.00e+00	0	43	104	0	69	21461
2026-01-22 20:28:17.07	32.61	8.96	-49.2	-52.4	3.8	0.00e+00	0	43	104	0	69	21367
2026-01-22 20:28:18.07	32.73	9.04	-49.2	-52.4	3.8	0.00e+00	0	43	104	0	69	21463
2026-01-22 20:28:19.07	32.86	9.13	-49.9	-53.0	3.8	0.00e+00	0	43	104	0	70	21799
2026-01-22 20:28:20.07	32.99	9.22	-50.2	-53.4	3.7	0.00e+00	0	43	104	0	70	22786
2026-01-22 20:28:21.07	33.12	9.30	-51.9	-56.5	3.7	0.00e+00	0	43	104	0	74	25940
2026-01-22 20:28:22.06	33.25	9.39	-51.9	-56.0	3.7	0.00e+00	0	43	104	0	74	24423
2026-01-22 20:28:23.06	33.38	9.48	-49.9	-52.9	3.8	0.00e+00	0	43	104	0	71	20341
2026-01-22 20:28:24.06	33.52	9.57	-50.4	-53.6	3.7	0.00e+00	0	43	104	0	71	22011
2026-01-22 20:28:25.05	33.65	9.65	-50.9	-54.3	3.7	0.00e+00	0	43	104	0	72	22459
2026-01-22 20:28:26.05	33.78	9.74	-51.5	-55.2	3.7	0.00e+00	0	43	104	0	73	23439
2026-01-22 20:28:27.05	33.92	9.83	-51.9	-55.9	3.7	0.00e+00	0	43	104	0	74	24217
2026-01-22 20:28:28.05	34.06	9.92	-52.0	-56.0	3.7	0.00e+00	0	43	104	0	74	24416
2026-01-22 20:28:29.04	34.19	10.01	-51.3	-54.8	3.7	0.00e+00	0	44	104	0	74	21278
2026-01-22 20:28:30.04	34.33	10.10	-51.6	-55.9	3.7	0.00e+00	0	44	104	0	73	25522
2026-01-22 20:28:31.04	34.47	10.19	-51.7	-55.9	3.7	0.00e+00	0	44	104	0	74	23970
2026-01-22 20:28:32.03	34.61	10.28	-51.1	-54.6	3.7	0.00e+00	0	44	104	0	73	22037
2026-01-22 20:28:33.03	34.75	10.37	-51.4	-55.3	3.7	0.00e+00	0	43	104	0	73	23942
2026-01-22 20:28:34.02	34.90	10.46	-51.6	-55.8	3.7	0.00e+00	0	44	104	0	73	25351
2026-01-22 20:28:35.02	35.04	10.55	-51.7	-55.9	3.7	0.00e+00	0	44	104	0	74	24226
2026-01-22 20:28:36.02	35.19	10.64	-51.5	-55.5	3.7	0.00e+00	0	44	104	0	74	23015
2026-01-22 20:28:37.01	35.33	10.73	-50.4	-53.9	3.7	0.00e+00	0	44	104	0	72	21382
2026-01-22 20:28:38.00	35.48	10.82	-51.9	-56.3	3.7	0.00e+00	0	44	104	0	74	25248
2026-01-22 20:28:39.00	35.62	10.92	-50.0	-53.2	3.7	0.00e+00	0	44	104	0	71	20983
2026-01-22 20:28:40.00	35.77	11.01	-50.7	-54.1	3.7	0.00e+00	0	44	104	0	72	22022
2026-01-22 20:28:40.98	35.92	11.10	-50.0	-53.2	3.7	0.00e+00	0	44	104	0	71	20978
2026-01-22 20:28:41.98	36.07	11.19	-50.4	-53.8	3.7	0.00e+00	0	44	104	0	71	22425
2026-01-22 20:28:42.98	36.23	11.29	-50.8	-54.2	3.7	0.00e+00	0	44	104	0	72	22344
2026-01-22 20:28:43.97	36.38	11.38	-50.7	-54.1	3.7	0.00e+00	0	44	104	0	72	22015
2026-01-22 20:28:44.96	36.53	11.47	-50.0	-53.0	3.7	0.00e+00	0	44	104	0	72	19428
2026-01-22 20:28:45.95	36.69	11.57	-50.0	-52.8	3.8	0.00e+00	0	44	104	0	71	20121
2026-01-22 20:28:46.95	36.85	11.66	-50.9	-54.3	3.7	0.00e+00	0	44	104	0	72	22431
2026-01-22 20:28:47.94	37.00	11.76	-47.0	-48.8	4.5	0.00e+00	0	44	104	0	66	16785
2026-01-22 20:28:48.94	37.16	11.85	-45.2	-46.7	4.9	0.00e+00	0	44	104	0	62	16743
2026-01-22 20:28:49.93	37.32	11.95	-48.3	-50.5	4.0	0.00e+00	0	44	104	0	67	19299
2026-01-22 20:28:50.92	37.49	12.04	-46.3	-48.0	4.7	0.00e+00	0	44	104	0	64	17177
2026-01-22 20:28:51.91	37.65	12.14	-47.0	-48.7	4.5	0.00e+00	0	44	104	0	64	18808
2026-01-22 20:28:52.91	37.81	12.24	-47.9	-49.9	4.2	0.00e+00	0	44	104	0	66	19174
2026-01-22 20:28:53.90	37.98	12.33	-49.1	-51.4	4.0	0.00e+00	0	44	104	0	68	20244
2026-01-22 20:28:54.89	38.15	12.43	-50.5	-53.2	3.8	0.00e+00	0	44	104	0	71	21073
2026-01-22 20:28:55.88	38.31	12.53	-49.4	-51.8	3.9	0.00e+00	0	44	104	0	70	18955
2026-01-22 20:28:56.87	38.48	12.63	-49.5	-51.8	3.9	0.00e+00	0	44	104	0	71	17921
2026-01-22 20:28:57.87	38.65	12.72	-51.5	-54.8	3.7	0.00e+00	0	44	104	0	73	22614
2026-01-22 20:28:58.87	38.83	12.82	-50.4	-53.2	3.7	0.00e+00	0	44	104	0	72	19915
2026-01-22 20:28:59.86	39.00	12.92	-50.8	-53.9	3.7	0.00e+00	0	44	104	0	72	21455
2026-01-22 20:29:00.86	39.18	13.02	-51.2	-54.5	3.7	0.00e+00	0	44	104	0	73	21711
2026-01-22 20:29:01.85	39.35	13.12	-51.5	-54.9	3.7	0.00e+00	0	44	104	0	73	22627
2026-01-22 20:29:02.84	39.53	13.22	-51.6	-55.1	3.7	0.00e+00	0	44	104	0	73	23322
2026-01-22 20:29:03.84	39.71	13.32	-51.8	-55.4	3.7	0.00e+00	0	44	104	0	74	22703
2026-01-22 20:29:04.82	39.89	13.42	-50.9	-53.9	3.7	0.00e+00	0	44	104	0	73	20221
2026-01-22 20:29:05.82	40.07	13.52	-51.4	-54.8	3.7	0.00e+00	0	44	104	0	73	22446
2026-01-22 20:29:06.82	40.26	13.62	-51.8	-55.5	3.7	0.00e+00	0	44	104	0	74	22992
2026-01-22 20:29:07.82	40.44	13.73	-50.7	-53.7	3.8	0.00e+00	0	44	104	0	73	19811
2026-01-22 20:29:08.82	40.63	13.83	-51.2	-54.4	3.7	0.00e+00	0	44	104	0	73	21380
2026-01-22 20:29:09.81	40.82	13.93	-51.6	-55.0	3.7	0.00e+00	0	44	104	0	73	23065
2026-01-22 20:29:10.81	41.01	14.03	-51.9	-55.5	3.7	0.00e+00	0	44	104	0	74	23026
2026-01-22 20:29:11.80	41.20	14.14	-52.1	-55.8	3.7	0.00e+00	0	44	104	0	74	23812
2026-01-22 20:29:12.80	41.39	14.24	-52.3	-56.1	3.7	0.00e+00	0	44	104	0	75	23375
2026-01-22 20:29:13.79	41.59	14.34	-52.6	-56.8	3.7	0.00e+00	0	44	104	0	75	25139
2026-01-22 20:29:14.79	41.78	14.45	-52.5	-56.5	3.7	0.00e+00	0	44	104	0	76	23076
2026-01-22 20:29:15.79	41.98	14.55	-52.9	-57.3	3.7	0.00e+00	0	44	104	0	76	25228
2026-01-22 20:29:16.78	42.18	14.66	-52.9	-57.2	3.7	0.00e+00	0	44	104	0	76	25000
2026-01-22 20:29:17.78	42.38	14.76	-52.9	-57.3	3.7	0.00e+00	0	44	104	0	76	25292
2026-01-22 20:29:18.79	42.59	14.87	-52.6	-56.8	3.7	0.00e+00	0	44	104	0	76	23697
2026-01-22 20:29:19.78	42.79	14.97	-52.6	-56.7	3.7	0.00e+00	0	45	104	0	76	23495
2026-01-22 20:29:20.78	43.00	15.08	-52.6	-56.7	3.7	0.00e+00	0	44	104	0	76	23628
2026-01-22 20:29:21.77	43.21	15.19	-52.6	-56.6	3.7	0.00e+00	0	44	104	0	76	23328
2026-01-22 20:29:22.77	43.42	15.29	-52.5	-56.5	3.7	0.00e+00	0	44	104	0	76	23123
2026-01-22 20:29:23.76	43.63	15.40	-52.5	-56.6	3.7	0.00e+00	0	44	104	0	76	23338
2026-01-22 20:29:24.76	43.84	15.51	-52.5	-56.6	3.7	0.00e+00	0	44	104	0	76	23370
2026-01-22 20:29:25.76	44.06	15.61	-52.4	-56.7	3.7	0.00e+00	0	44	104	0	76	23461
2026-01-22 20:29:26.76	44.28	15.72	-52.4	-56.6	3.7	0.00e+00	0	44	104	0	76	23260
2026-01-22 20:29:27.76	44.50	15.83	-51.9	-55.5	3.7	0.00e+00	0	45	104	0	75	21854
2026-01-22 20:29:28.76	44.72	15.94	-51.8	-55.3	3.7	0.00e+00	0	45	104	0	75	21235
2026-01-22 20:29:29.76	44.94	16.05	-51.7	-55.3	3.7	0.00e+00	0	44	104	0	75	21237
2026-01-22 20:29:30.76	45.17	16.16	-51.8	-55.4	3.7	0.00e+00	0	44	104	0	75	21408
2026-01-22 20:29:31.76	45.39	16.27	-52.3	-56.3	3.7	0.00e+00	0	44	104	0	75	23952
2026-01-22 20:29:32.76	45.62	16.38	-52.7	-57.1	3.7	0.00e+00	0	45	104	0	75	26038
2026-01-22 20:29:33.75	45.85	16.49	-52.8	-57.3	3.7	0.00e+00	0	45	104	0	76	25366
2026-01-22 20:29:34.75	46.09	16.60	-52.5	-56.8	3.7	0.00e+00	0	44	104	0	76	23759
2026-01-22 20:29:35.75	46.32	16.71	-52.6	-57.0	3.7	0.00e+00	0	45	104	0	76	24480
2026-01-22 20:29:36.74	46.56	16.82	-52.9	-57.4	3.7	0.00e+00	0	44	104	0	76	25495
2026-01-22 20:29:37.74	46.80	16.93	-52.8	-57.2	3.7	0.00e+00	0	45	104	0	76	25018
2026-01-22 20:29:38.74	47.04	17.04	-52.7	-57.1	3.7	0.00e+00	0	44	104	0	76	24744
2026-01-22 20:29:39.73	47.28	17.15	-52.6	-56.9	3.7	0.00e+00	0	45	104	0	76	24030
2026-01-22 20:29:40.73	47.52	17.26	-52.7	-57.1	3.7	0.00e+00	0	45	104	0	76	24595
2026-01-22 20:29:41.72	47.77	17.37	-52.5	-56.6	3.7	0.00e+00	0	45	104	0	76	23348
2026-01-22 20:29:42.72	48.02	17.48	-52.4	-56.5	3.7	0.00e+00	0	45	104	0	76	22913
2026-01-22 20:29:43.72	48.27	17.60	-52.3	-56.3	3.7	0.00e+00	0	45	104	0	76	22551
2026-01-22 20:29:44.71	48.52	17.71	-52.7	-57.0	3.7	0.00e+00	0	44	104	0	76	24279
2026-01-22 20:29:45.71	48.78	17.82	-52.7	-57.0	3.7	0.00e+00	0	45	104	0	76	24379
2026-01-22 20:29:46.70	49.03	17.93	-52.7	-57.1	3.7	0.00e+00	0	45	104	0	76	24707
2026-01-22 20:29:47.70	49.29	18.05	-52.8	-57.2	3.7	0.00e+00	0	45	104	0	76	24915
2026-01-22 20:29:48.69	49.55	18.16	-52.9	-57.3	3.7	0.00e+00	0	45	104	0	76	25149
2026-01-22 20:29:49.69	49.82	18.27	-52.9	-57.3	3.7	0.00e+00	0	45	104	0	76	25302
2026-01-22 20:29:50.69	50.09	18.39	-52.8	-57.3	3.7	0.00e+00	0	45	104	0	76	25267
2026-01-22 20:29:51.68	50.35	18.50	-52.8	-57.2	3.7	0.00e+00	0	45	104	0	76	24968
2026-01-22 20:29:52.68	50.63	18.61	-52.8	-57.3	3.7	0.00e+00	0	45	104	0	76	25348
2026-01-22 20:29:53.67	50.90	18.72	-52.8	-57.2	3.7	0.00e+00	0	45	104	0	76	25017
2026-01-22 20:29:54.67	51.17	18.84	-52.7	-57.2	3.7	0.00e+00	0	45	104	0	76	24971
2026-01-22 20:29:55.66	51.45	18.95	-52.7	-57.2	3.7	0.00e+00	0	45	104	0	76	25017
2026-01-22 20:29:56.66	51.73	19.07	-52.7	-57.3	3.7	0.00e+00	0	45	104	0	76	25231
2026-01-22 20:29:57.65	52.01	19.18	-52.6	-57.2	3.7	0.00e+00	0	45	104	0	76	24860
2026-01-22 20:29:58.65	52.30	19.29	-52.9	-57.4	3.7	0.00e+00	0	45	104	0	76	25448
2026-01-22 20:29:59.64	52.59	19.41	-52.8	-57.3	3.7	0.00e+00	0	45	104	0	76	25136
2026-01-22 20:30:00.64	52.88	19.52	-52.9	-57.4	3.7	0.00e+00	0	45	104	0	76	25497
2026-01-22 20:30:01.64	53.17	19.64	-53.0	-57.4	3.7	0.00e+00	0	45	104	0	76	25463
2026-01-22 20:30:02.64	53.47	19.75	-52.6	-56.8	3.7	0.00e+00	0	45	104	0	76	23859
2026-01-22 20:30:03.63	53.76	19.86	-52.6	-56.8	3.7	0.00e+00	0	45	104	0	76	23728
2026-01-22 20:30:04.63	54.06	19.98	-52.4	-56.6	3.7	0.00e+00	0	45	104	0	76	23371
2026-01-22 20:30:05.63	54.37	20.09	-52.3	-56.7	3.7	0.00e+00	0	45	104	0	76	23563
2026-01-22 20:30:06.63	54.67	20.21	-52.4	-56.7	3.7	0.00e+00	0	45	104	0	76	23450
2026-01-22 20:30:07.62	54.98	20.32	-52.5	-56.7	3.7	0.00e+00	0	45	104	0	76	23608
2026-01-22 20:30:08.62	55.29	20.43	-52.5	-56.6	3.7	0.00e+00	0	45	104	0	76	23315
2026-01-22 20:30:09.62	55.60	20.55	-52.8	-57.1	3.7	0.00e+00	0	45	104	0	76	24712
2026-01-22 20:30:10.62	55.92	20.66	-52.9	-57.3	3.7	0.00e+00	0	45	104	0	76	25359
2026-01-22 20:30:11.61	56.24	20.77	-53.0	-57.5	3.7	0.00e+00	0	45	104	0	76	25785
2026-01-22 20:30:12.61	56.56	20.89	-52.9	-57.5	3.7	0.00e+00	0	45	104	0	76	25799
2026-01-22 20:30:13.61	56.89	21.00	-53.0	-57.5	3.7	0.00e+00	0	45	104	0	76	25799
2026-01-22 20:30:14.60	57.21	21.11	-53.0	-57.5	3.7	0.00e+00	0	45	104	0	76	25795
2026-01-22 20:30:15.60	57.54	21.23	-53.0	-57.4	3.7	0.00e+00	0	45	104	0	76	25498
2026-01-22 20:30:16.60	57.87	21.34	-53.0	-57.4	3.7	0.00e+00	0	45	104	0	76	25648
2026-01-22 20:30:17.60	58.21	21.45	-52.9	-57.4	3.7	0.00e+00	0	45	104	0	76	25456
2026-01-22 20:30:18.60	58.55	21.56	-52.5	-57.1	3.7	0.00e+00	0	45	104	0	76	24705
2026-01-22 20:30:19.59	58.89	21.68	-52.3	-56.9	3.7	0.00e+00	0	45	104	0	76	24091
2026-01-22 20:30:20.59	59.23	21.79	-52.2	-56.7	3.7	0.00e+00	0	45	104	0	76	23654
2026-01-22 20:30:21.58	59.57	21.90	-52.2	-56.7	3.7	0.00e+00	0	45	104	0	76	23485
2026-01-22 20:30:22.58	59.92	22.01	-52.7	-57.0	3.7	0.00e+00	0	45	104	0	76	24372
2026-01-22 20:30:23.58	60.28	22.12	-53.0	-57.4	3.7	0.00e+00	0	45	104	0	76	25599
2026-01-22 20:30:24.58	60.63	22.23	-52.9	-57.3	3.7	0.00e+00	0	45	104	0	76	25330
2026-01-22 20:30:25.57	60.99	22.34	-52.9	-57.5	3.7	0.00e+00	0	45	104	0	76	25743
2026-01-22 20:30:26.57	61.35	22.45	-52.8	-57.4	3.7	0.00e+00	0	45	104	0	76	25512
2026-01-22 20:30:27.57	61.71	22.56	-52.8	-57.3	3.7	0.00e+00	0	45	104	0	76	25248
2026-01-22 20:30:28.56	62.07	22.66	-52.8	-57.3	3.7	0.00e+00	0	45	104	0	76	25253
2026-01-22 20:30:29.56	62.44	22.77	-52.9	-57.3	3.7	0.00e+00	0	45	104	0	76	25358
2026-01-22 20:30:30.55	62.81	22.88	-52.9	-57.3	3.7	0.00e+00	0	45	104	0	76	25323
2026-01-22 20:30:31.55	63.19	22.99	-52.9	-57.3	3.7	0.00e+00	0	45	104	0	76	25244
2026-01-22 20:30:32.55	63.56	23.09	-53.0	-57.4	3.7	0.00e+00	0	45	104	0	76	25521
2026-01-22 20:30:33.54	63.94	23.20	-53.0	-57.5	3.7	0.00e+00	0	45	104	0	76	25711
2026-01-22 20:30:34.54	64.33	23.30	-53.1	-57.6	3.7	0.00e+00	0	45	104	0	76	26066
2026-01-22 20:30:35.53	64.71	23.40	-53.2	-57.6	3.7	0.00e+00	0	45	104	0	76	26198
2026-01-22 20:30:36.53	65.10	23.51	-53.1	-57.5	3.7	0.00e+00	0	45	104	0	77	24505
2026-01-22 20:30:37.53	65.49	23.61	-53.0	-57.5	3.7	0.00e+00	0	45	104	0	77	24431
2026-01-22 20:30:38.52	65.88	23.71	-53.0	-57.5	3.7	0.00e+00	0	45	104	0	77	24477
2026-01-22 20:30:39.52	66.28	23.81	-53.1	-57.6	3.7	0.00e+00	0	45	104	0	77	24712
2026-01-22 20:30:40.51	66.68	23.91	-53.1	-57.6	3.7	0.00e+00	0	45	104	0	77	24580
2026-01-22 20:30:41.50	67.08	24.01	-53.1	-57.5	3.6	0.00e+00	0	45	104	0	77	24365
2026-01-22 20:30:42.50	67.48	24.11	-53.1	-57.5	3.7	0.00e+00	0	45	104	0	77	24332
2026-01-22 20:30:43.50	67.89	24.21	-53.1	-57.5	3.7	0.00e+00	0	45	104	0	77	24335
2026-01-22 20:30:44.49	68.30	24.30	-53.1	-57.6	3.7	0.00e+00	0	45	104	0	77	24796
2026-01-22 20:30:45.48	68.71	24.40	-53.2	-57.7	3.7	0.00e+00	0	45	104	0	77	24854
2026-01-22 20:30:46.48	69.13	24.49	-53.2	-57.6	3.7	0.00e+00	0	45	104	0	77	24781
2026-01-22 20:30:47.48	69.55	24.59	-53.0	-57.5	3.7	0.00e+00	0	45	104	0	77	24300
2026-01-22 20:30:48.48	69.98	24.68	-53.0	-57.6	3.7	0.00e+00	0	45	104	0	77	24731
2026-01-22 20:30:49.47	70.40	24.77	-53.1	-57.6	3.7	0.00e+00	0	45	104	0	77	24601
2026-01-22 20:30:50.46	70.82	24.86	-53.0	-57.5	3.7	0.00e+00	0	45	104	0	77	24520
2026-01-22 20:30:51.46	71.26	24.95	-53.2	-57.6	3.7	0.00e+00	0	45	104	0	77	24764
2026-01-22 20:30:52.46	71.69	25.04	-53.2	-57.6	3.7	0.00e+00	0	45	104	0	77	24749
2026-01-22 20:30:53.45	72.12	25.13	-53.1	-57.7	3.7	0.00e+00	0	45	104	0	77	24826
2026-01-22 20:30:54.44	72.56	25.21	-53.1	-57.6	3.7	0.00e+00	0	45	104	0	77	24752
2026-01-22 20:30:55.44	73.00	25.29	-53.1	-57.6	3.7	0.00e+00	0	45	104	0	77	24804
2026-01-22 20:30:56.43	73.44	25.38	-53.0	-57.6	3.7	0.00e+00	0	45	104	0	77	24745
2026-01-22 20:30:57.43	73.89	25.46	-53.0	-57.5	3.7	0.00e+00	0	45	104	0	77	24501
2026-01-22 20:30:58.43	74.34	25.54	-53.1	-57.5	3.7	0.00e+00	0	45	104	0	77	24448
2026-01-22 20:30:59.43	74.79	25.62	-52.9	-57.5	3.7	0.00e+00	0	45	104	0	77	24361
2026-01-22 20:31:00.42	75.24	25.70	-53.0	-57.6	3.7	0.00e+00	0	45	104	0	77	24539
2026-01-22 20:31:01.42	75.70	25.77	-53.0	-57.5	3.7	0.00e+00	0	45	104	0	77	24514
2026-01-22 20:31:02.41	76.16	25.85	-53.0	-57.5	3.7	0.00e+00	0	45	104	0	77	24400
2026-01-22 20:31:03.41	76.62	25.92	-53.0	-57.5	3.7	0.00e+00	0	45	104	0	77	24357
2026-01-22 20:31:04.41	77.08	25.99	-53.0	-57.4	3.7	0.00e+00	0	45	104	0	77	24199
2026-01-22 20:31:05.40	77.55	26.06	-52.9	-57.4	3.7	0.00e+00	0	45	104	0	77	24025
2026-01-22 20:31:06.40	78.01	26.13	-52.9	-57.3	3.7	0.00e+00	0	45	104	0	77	23936
2026-01-22 20:31:07.40	78.49	26.19	-52.9	-57.4	3.7	0.00e+00	0	45	104	0	77	24208
2026-01-22 20:31:08.39	78.96	26.26	-53.0	-57.6	3.7	0.00e+00	0	45	104	0	77	24753
2026-01-22 20:31:09.38	79.43	26.32	-52.9	-57.6	3.7	0.00e+00	0	45	104	0	77	24540
2026-01-22 20:31:10.38	79.90	26.38	-52.9	-57.5	3.7	0.00e+00	0	45	104	0	77	24509
2026-01-22 20:31:11.38	80.38	26.44	-52.6	-57.4	3.7	0.00e+00	0	45	104	0	77	23988
2026-01-22 20:31:12.38	80.87	26.50	-52.6	-57.4	3.7	0.00e+00	0	45	104	0	77	23988
2026-01-22 20:31:13.38	81.35	26.56	-52.5	-57.3	3.7	0.00e+00	0	45	104	0	76	25321
2026-01-22 20:31:14.38	81.84	26.61	-52.5	-57.3	3.7	0.00e+00	0	45	104	0	76	25313
2026-01-22 20:31:15.37	82.32	26.66	-52.5	-57.4	3.7	0.00e+00	0	45	104	0	76	25601
2026-01-22 20:31:16.37	82.81	26.71	-52.4	-57.3	3.7	0.00e+00	0	45	104	0	76	25168
2026-01-22 20:31:17.36	83.29	26.76	-51.9	-57.1	3.7	0.00e+00	0	45	104	0	75	26059
2026-01-22 20:31:18.36	83.79	26.81	-51.9	-57.1	3.7	0.00e+00	0	45	104	0	75	26077
2026-01-22 20:31:19.35	84.27	26.85	-52.3	-57.2	3.7	0.00e+00	0	45	104	0	75	26408
2026-01-22 20:31:20.35	84.77	26.89	-52.3	-57.1	3.7	0.00e+00	0	45	104	0	75	26165
2026-01-22 20:31:21.35	85.27	26.93	-52.3	-57.2	3.7	0.00e+00	0	45	104	0	75	26555
2026-01-22 20:31:22.34	85.76	26.97	-52.4	-57.2	3.7	0.00e+00	0	45	104	0	75	26573
2026-01-22 20:31:23.34	86.26	27.01	-52.2	-57.1	3.7	0.00e+00	0	45	104	0	75	26168
2026-01-22 20:31:24.33	86.76	27.04	-52.3	-57.2	3.7	0.00e+00	0	45	104	0	75	26517
2026-01-22 20:31:25.33	87.26	27.07	-52.8	-57.4	3.7	0.00e+00	0	45	104	0	76	25664
2026-01-22 20:31:26.32	87.76	27.10	-52.6	-57.4	3.7	0.00e+00	0	45	104	0	76	25405
2026-01-22 20:31:27.32	88.26	27.13	-52.7	-57.4	3.7	0.00e+00	0	45	104	0	76	25655
2026-01-22 20:31:28.32	88.77	27.16	-52.5	-57.3	3.7	0.00e+00	0	45	104	0	76	25198
2026-01-22 20:31:29.31	89.27	27.18	-52.4	-57.2	3.7	0.00e+00	0	45	104	0	76	24852
2026-01-22 20:31:30.31	89.77	27.20	-52.3	-57.1	3.7	0.00e+00	0	45	104	0	76	24740
2026-01-22 20:31:31.31	90.28	27.22	-52.9	-57.4	3.7	0.00e+00	0	45	104	0	76	25576
2026-01-22 20:31:32.30	90.78	27.24	-53.0	-57.5	3.7	0.00e+00	0	45	104	0	76	25763
2026-01-22 20:31:33.29	91.29	27.25	-52.8	-57.5	3.7	0.00e+00	0	45	104	0	76	25734
2026-01-22 20:31:34.29	91.80	27.27	-52.8	-57.4	3.7	0.00e+00	0	45	104	0	76	25674
2026-01-22 20:31:35.28	92.30	27.28	-52.6	-57.3	3.7	0.00e+00	0	45	104	0	76	25356
2026-01-22 20:31:36.27	92.81	27.29	-52.7	-57.3	3.7	0.00e+00	0	45	104	0	76	25154
2026-01-22 20:31:37.27	93.32	27.29	-53.1	-57.5	3.7	0.00e+00	0	45	104	0	76	25857
2026-01-22 20:31:38.26	93.82	27.30	-53.1	-57.5	3.7	0.00e+00	0	45	104	0	76	25746
2026-01-22 20:31:39.26	94.33	27.30	-52.8	-57.3	3.7	0.00e+00	0	45	104	0	76	25234
2026-01-22 20:31:40.26	94.84	27.30	-52.9	-57.4	3.7	0.00e+00	0	45	104	0	76	25402
2026-01-22 20:31:41.25	95.35	27.29	-53.0	-57.3	3.7	0.00e+00	0	45	104	0	76	25255
2026-01-22 20:31:42.24	95.85	27.29	-52.9	-57.3	3.7	0.00e+00	0	45	104	0	76	25197
2026-01-22 20:31:43.24	96.36	27.28	-52.9	-57.3	3.7	0.00e+00	0	45	104	0	76	25171
2026-01-22 20:31:44.23	96.87	27.27	-52.9	-57.3	3.7	0.00e+00	0	45	104	0	76	25362
2026-01-22 20:31:45.49	97.51	27.26	-52.9	-57.3	3.7	0.00e+00	0	45	104	0	76	25242
2026-01-22 20:31:46.33	97.94	27.25	-52.9	-57.2	3.7	0.00e+00	0	45	104	0	76	25078
2026-01-22 20:31:47.46	98.51	27.23	-52.7	-57.2	3.7	0.00e+00	0	45	104	0	76	24966
2026-01-22 20:31:48.32	98.95	27.21	-52.5	-57.0	3.7	0.00e+00	0	46	104	0	76	24441
2026-01-22 20:31:49.46	99.53	27.19	-52.6	-57.0	3.7	0.00e+00	0	45	104	0	76	24407
2026-01-22 20:31:50.31	99.96	27.17	-52.4	-56.8	3.7	0.00e+00	0	45	104	0	76	23802
2026-01-22 20:31:51.45	100.54	27.14	-53.0	-57.2	3.7	0.00e+00	0	45	104	0	76	25055
2026-01-22 20:31:52.30	100.97	27.12	-53.0	-57.3	3.7	0.00e+00	0	45	104	0	76	25308
2026-01-22 20:31:53.44	101.54	27.08	-53.1	-57.5	3.7	0.00e+00	0	45	104	0	76	25735
2026-01-22 20:31:54.29	101.97	27.05	-52.9	-57.2	3.7	0.00e+00	0	45	104	0	76	24815
2026-01-22 20:31:55.43	102.54	27.02	-53.2	-57.6	3.7	0.00e+00	0	45	104	0	77	24706
2026-01-22 20:31:56.29	102.97	26.99	-53.0	-57.4	3.7	0.00e+00	0	45	104	0	77	23998
2026-01-22 20:31:57.43	103.54	26.94	-53.0	-57.4	3.7	0.00e+00	0	45	104	0	77	24224
2026-01-22 20:31:58.29	103.97	26.91	-52.8	-57.1	3.7	0.00e+00	0	45	104	0	77	23156
2026-01-22 20:31:59.43	104.54	26.86	-53.0	-57.5	3.7	0.00e+00	0	45	104	0	77	24506
2026-01-22 20:32:00.28	104.96	26.82	-52.9	-57.4	3.7	0.00e+00	0	45	104	0	77	24157
2026-01-22 20:32:01.42	105.52	26.77	-53.0	-57.6	3.7	0.00e+00	0	45	104	0	77	24714
2026-01-22 20:32:02.28	105.94	26.73	-52.9	-57.3	3.7	0.00e+00	0	45	104	0	77	23803
2026-01-22 20:32:03.42	106.50	26.67	-52.6	-57.2	3.7	0.00e+00	0	46	104	0	77	23641
2026-01-22 20:32:04.27	106.92	26.63	-52.6	-57.1	3.7	0.00e+00	0	45	104	0	77	23358
2026-01-22 20:32:05.40	107.47	26.57	-53.1	-57.5	3.7	0.00e+00	0	45	104	0	77	24423
2026-01-22 20:32:06.25	107.88	26.52	-52.9	-57.3	3.7	0.00e+00	0	45	104	0	77	23773
2026-01-22 20:32:07.39	108.43	26.45	-53.2	-57.6	3.7	0.00e+00	0	45	104	0	77	24740
2026-01-22 20:32:08.24	108.84	26.40	-53.1	-57.4	3.7	0.00e+00	0	45	104	0	77	24241
2026-01-22 20:32:09.38	109.39	26.33	-52.8	-57.3	3.7	0.00e+00	0	45	104	0	77	23881
2026-01-22 20:32:10.23	109.80	26.28	-52.8	-57.2	3.7	0.00e+00	0	45	104	0	77	23573
2026-01-22 20:32:11.36	110.33	26.21	-52.9	-57.3	3.7	0.00e+00	0	45	104	0	77	23903
2026-01-22 20:32:12.22	110.74	26.15	-52.8	-57.2	3.7	0.00e+00	0	45	104	0	77	23601
2026-01-22 20:32:13.35	111.27	26.07	-52.7	-57.3	3.7	0.00e+00	0	45	104	0	77	23901
2026-01-22 20:32:14.20	111.67	26.01	-52.7	-57.0	3.7	0.00e+00	0	45	104	0	77	22947
2026-01-22 20:32:15.34	112.20	25.93	-52.5	-57.3	3.7	0.00e+00	0	45	104	0	77	23728
2026-01-22 20:32:16.20	112.60	25.87	-52.6	-57.1	3.7	0.00e+00	0	45	104	0	77	23236
2026-01-22 20:32:17.33	113.13	25.79	-52.7	-57.2	3.7	0.00e+00	0	45	104	0	77	23625
2026-01-22 20:32:18.19	113.52	25.72	-52.5	-56.8	3.7	0.00e+00	0	45	104	0	76	23846
2026-01-22 20:32:19.33	114.04	25.63	-52.6	-57.2	3.7	0.00e+00	0	45	104	0	76	24863
2026-01-22 20:32:20.19	114.44	25.56	-52.6	-57.1	3.7	0.00e+00	0	45	104	0	76	24603
2026-01-22 20:32:21.33	114.95	25.47	-53.1	-57.6	3.7	0.00e+00	0	45	104	0	76	25982
2026-01-22 20:32:22.18	115.33	25.40	-52.6	-56.8	3.7	0.00e+00	0	45	104	0	76	23724
2026-01-22 20:32:23.32	115.84	25.31	-52.8	-56.9	3.7	0.00e+00	0	46	104	0	76	24091
2026-01-22 20:32:24.18	116.23	25.23	-52.7	-56.7	3.7	0.00e+00	0	45	104	0	76	23669
2026-01-22 20:32:25.31	116.73	25.14	-52.7	-56.8	3.7	0.00e+00	0	45	104	0	76	23961
2026-01-22 20:32:26.16	117.10	25.06	-52.7	-56.9	3.7	0.00e+00	0	45	104	0	76	24023
2026-01-22 20:32:27.30	117.60	24.96	-52.8	-57.2	3.7	0.00e+00	0	45	104	0	76	24922
2026-01-22 20:32:28.16	117.97	24.89	-52.7	-57.0	3.7	0.00e+00	0	45	104	0	76	24250
2026-01-22 20:32:29.29	118.46	24.78	-53.1	-57.5	3.7	0.00e+00	0	45	104	0	76	25742
2026-01-22 20:32:30.14	118.83	24.70	-53.1	-57.5	3.7	0.00e+00	0	45	104	0	76	25820
2026-01-22 20:32:31.27	119.31	24.60	-53.2	-57.5	3.7	0.00e+00	0	45	104	0	77	24504
2026-01-22 20:32:32.13	119.67	24.52	-53.2	-57.7	3.7	0.00e+00	0	45	104	0	77	24838
2026-01-22 20:32:33.27	120.15	24.41	-53.2	-57.5	3.7	0.00e+00	0	45	104	0	77	24431
2026-01-22 20:32:34.12	120.51	24.33	-53.2	-57.6	3.7	0.00e+00	0	45	104	0	77	24645
2026-01-22 20:32:35.26	120.98	24.22	-53.1	-57.5	3.7	0.00e+00	0	45	104	0	77	24495
2026-01-22 20:32:36.11	121.33	24.13	-53.1	-57.5	3.7	0.00e+00	0	45	104	0	77	24416
2026-01-22 20:32:37.26	121.80	24.02	-53.1	-57.4	3.7	0.00e+00	0	45	104	0	77	24090
2026-01-22 20:32:38.11	122.15	23.93	-53.0	-57.5	3.7	0.00e+00	0	45	104	0	77	24261
2026-01-22 20:32:39.25	122.61	23.82	-53.1	-57.5	3.7	0.00e+00	0	45	104	0	77	24448
2026-01-22 20:32:40.10	122.95	23.73	-52.8	-57.2	3.7	0.00e+00	0	46	104	0	77	23552
2026-01-22 20:32:41.24	123.40	23.62	-52.8	-57.2	3.7	0.00e+00	0	45	104	0	77	23565
2026-01-22 20:32:42.09	123.74	23.53	-52.7	-57.1	3.7	0.00e+00	0	45	104	0	77	23222
2026-01-22 20:32:43.23	124.18	23.41	-52.6	-57.0	3.7	0.00e+00	0	45	104	0	77	23016
2026-01-22 20:32:44.08	124.52	23.32	-52.8	-57.2	3.7	0.00e+00	0	46	104	0	77	23433
2026-01-22 20:32:45.21	124.95	23.20	-52.6	-56.9	3.7	0.00e+00	0	45	104	0	77	22807
2026-01-22 20:32:46.07	125.28	23.11	-52.8	-57.2	3.7	0.00e+00	0	45	104	0	77	23650
2026-01-22 20:32:47.21	125.72	22.99	-52.6	-57.2	3.7	0.00e+00	0	45	104	0	77	23480
2026-01-22 20:32:48.06	126.04	22.90	-52.1	-56.9	3.7	0.00e+00	0	45	104	0	76	24208
2026-01-22 20:32:49.20	126.47	22.77	-52.2	-56.8	3.7	0.00e+00	0	45	104	0	76	23907
2026-01-22 20:32:50.05	126.78	22.68	-52.2	-57.0	3.7	0.00e+00	0	45	104	0	76	24443
2026-01-22 20:32:51.19	127.20	22.56	-52.4	-56.9	3.7	0.00e+00	0	46	104	0	76	24226
2026-01-22 20:32:52.04	127.51	22.46	-53.0	-57.4	3.7	0.00e+00	0	45	104	0	76	25529
2026-01-22 20:32:53.18	127.93	22.34	-52.6	-56.8	3.7	0.00e+00	0	45	104	0	76	23736
2026-01-22 20:32:54.04	128.24	22.24	-52.9	-57.2	3.7	0.00e+00	0	46	104	0	76	24987
2026-01-22 20:32:55.18	128.65	22.12	-52.7	-56.7	3.7	0.00e+00	0	45	104	0	76	23559
2026-01-22 20:32:56.04	128.95	22.02	-52.9	-57.0	3.7	0.00e+00	0	45	104	0	76	24420
2026-01-22 20:32:57.18	129.35	21.89	-52.8	-56.9	3.7	0.00e+00	0	45	104	0	76	24152
2026-01-22 20:32:58.04	129.66	21.80	-52.7	-56.8	3.7	0.00e+00	0	45	104	0	76	23768
2026-01-22 20:32:59.18	130.05	21.67	-52.5	-56.6	3.7	0.00e+00	0	45	104	0	76	23231
2026-01-22 20:33:00.04	130.35	21.57	-52.3	-56.6	3.7	0.00e+00	0	45	104	0	76	23170
2026-01-22 20:33:01.17	130.73	21.44	-52.2	-56.6	3.7	0.00e+00	0	45	104	0	76	23321
2026-01-22 20:33:02.02	131.02	21.35	-52.5	-56.9	3.7	0.00e+00	0	45	104	0	76	24217
2026-01-22 20:33:03.16	131.40	21.22	-52.5	-56.9	3.7	0.00e+00	0	45	104	0	76	24076
2026-01-22 20:33:04.01	131.68	21.12	-52.6	-56.9	3.7	0.00e+00	0	45	104	0	76	24048
2026-01-22 20:33:05.15	132.06	20.99	-52.9	-57.3	3.7	0.00e+00	0	45	104	0	76	25095
2026-01-22 20:33:06.01	132.34	20.89	-52.6	-56.7	3.7	0.00e+00	0	45	104	0	76	23484
2026-01-22 20:33:07.15	132.71	20.76	-52.8	-57.1	3.7	0.00e+00	0	46	104	0	76	24582
2026-01-22 20:33:08.00	132.99	20.66	-52.5	-56.7	3.7	0.00e+00	0	45	104	0	76	23464
2026-01-22 20:33:09.13	133.35	20.53	-52.4	-56.6	3.7	0.00e+00	0	46	104	0	76	23245
2026-01-22 20:33:09.99	133.62	20.43	-52.3	-56.6	3.7	0.00e+00	0	46	104	0	76	23229
2026-01-22 20:33:11.13	133.98	20.30	-52.2	-56.4	3.7	0.00e+00	0	45	104	0	76	22660
2026-01-22 20:33:11.98	134.24	20.20	-52.1	-56.3	3.7	0.00e+00	0	45	104	0	76	22392
2026-01-22 20:33:13.12	134.59	20.07	-52.7	-56.9	3.7	0.00e+00	0	46	104	0	76	24137
2026-01-22 20:33:13.97	134.85	19.98	-52.5	-56.6	3.7	0.00e+00	0	46	104	0	76	23169
2026-01-22 20:33:15.11	135.20	19.84	-52.9	-57.4	3.7	0.00e+00	0	45	104	0	76	25528
2026-01-22 20:33:15.96	135.46	19.75	-52.8	-57.1	3.7	0.00e+00	0	45	104	0	76	24743
2026-01-22 20:33:17.09	135.79	19.62	-52.6	-56.8	3.7	0.00e+00	0	46	104	0	76	23870
2026-01-22 20:33:17.95	136.05	19.52	-52.8	-57.0	3.7	0.00e+00	0	45	104	0	76	24465
2026-01-22 20:33:19.08	136.38	19.39	-52.8	-57.0	3.7	0.00e+00	0	45	104	0	76	24425
2026-01-22 20:33:19.94	136.63	19.29	-52.8	-56.9	3.7	0.00e+00	0	45	104	0	76	24111
2026-01-22 20:33:21.07	136.96	19.16	-52.7	-56.9	3.7	0.00e+00	0	45	104	0	76	24058
2026-01-22 20:33:21.93	137.20	19.06	-52.6	-57.0	3.7	0.00e+00	0	46	104	0	76	24378
2026-01-22 20:33:23.06	137.52	18.93	-52.4	-56.7	3.7	0.00e+00	0	46	104	0	76	23577
2026-01-22 20:33:23.92	137.76	18.83	-52.8	-57.3	3.7	0.00e+00	0	45	104	0	76	25120
2026-01-22 20:33:25.05	138.08	18.70	-52.8	-57.2	3.7	0.00e+00	0	45	104	0	76	24851
2026-01-22 20:33:25.90	138.31	18.60	-52.7	-57.2	3.7	0.00e+00	0	45	104	0	76	24851
2026-01-22 20:33:27.04	138.63	18.47	-52.8	-57.2	3.7	0.00e+00	0	45	104	0	76	24829
2026-01-22 20:33:27.90	138.86	18.37	-52.6	-56.8	3.7	0.00e+00	0	45	104	0	76	23949
2026-01-22 20:33:29.03	139.16	18.24	-52.7	-57.1	3.7	0.00e+00	0	45	104	0	76	24746
2026-01-22 20:33:29.88	139.39	18.14	-52.7	-57.1	3.7	0.00e+00	0	46	104	0	76	24619
2026-01-22 20:33:31.03	139.70	18.01	-52.8	-57.2	3.7	0.00e+00	0	45	104	0	76	24961
2026-01-22 20:33:31.88	139.92	17.91	-52.7	-57.1	3.7	0.00e+00	0	45	104	0	76	24801
2026-01-22 20:33:33.02	140.22	17.78	-52.7	-57.1	3.7	0.00e+00	0	45	104	0	76	24699
2026-01-22 20:33:33.87	140.44	17.69	-52.7	-57.2	3.7	0.00e+00	0	45	104	0	76	24987
2026-01-22 20:33:34.99	140.72	17.56	-52.4	-56.9	3.7	0.00e+00	0	46	104	0	76	24217
2026-01-22 20:33:35.84	140.94	17.46	-52.5	-57.0	3.7	0.00e+00	0	45	104	0	76	24464
2026-01-22 20:33:36.98	141.22	17.34	-52.4	-57.1	3.7	0.00e+00	0	45	104	0	76	24713
2026-01-22 20:33:37.84	141.44	17.24	-52.3	-56.9	3.7	0.00e+00	0	45	104	0	76	24131
2026-01-22 20:33:38.98	141.72	17.11	-51.8	-56.7	3.7	0.00e+00	0	45	104	0	75	24934
2026-01-22 20:33:39.83	141.93	17.01	-52.0	-56.8	3.7	0.00e+00	0	45	104	0	75	25224
2026-01-22 20:33:40.98	142.21	16.88	-52.0	-56.9	3.7	0.00e+00	0	45	104	0	75	25492
2026-01-22 20:33:41.83	142.41	16.79	-51.9	-56.8	3.7	0.00e+00	0	46	104	0	75	25227
2026-01-22 20:33:42.98	142.69	16.66	-52.1	-56.9	3.7	0.00e+00	0	46	104	0	75	25387
2026-01-22 20:33:43.83	142.89	16.57	-52.1	-56.9	3.7	0.00e+00	0	46	104	0	75	25633
2026-01-22 20:33:44.97	143.16	16.44	-52.1	-56.8	3.7	0.00e+00	0	45	104	0	75	25340
2026-01-22 20:33:45.82	143.36	16.34	-52.1	-56.8	3.7	0.00e+00	0	45	104	0	75	25376
2026-01-22 20:33:46.97	143.62	16.22	-52.6	-57.2	3.7	0.00e+00	0	45	104	0	75	26337
2026-01-22 20:33:47.82	143.82	16.12	-52.3	-57.0	3.7	0.00e+00	0	45	104	0	75	25709
2026-01-22 20:33:48.95	144.07	16.00	-52.8	-57.2	3.7	0.00e+00	0	45	104	0	76	25094
2026-01-22 20:33:49.80	144.26	15.90	-52.8	-57.2	3.7	0.00e+00	0	45	104	0	76	25024
2026-01-22 20:33:50.94	144.52	15.78	-52.6	-57.1	3.7	0.00e+00	0	46	104	0	76	24541
2026-01-22 20:33:51.80	144.71	15.68	-52.6	-57.1	3.7	0.00e+00	0	45	104	0	76	24735
2026-01-22 20:33:52.93	144.96	15.56	-52.6	-57.1	3.7	0.00e+00	0	46	104	0	76	24599
2026-01-22 20:33:53.78	145.14	15.47	-52.5	-57.0	3.7	0.00e+00	0	45	104	0	76	24423
2026-01-22 20:33:54.92	145.39	15.34	-52.4	-57.0	3.7	0.00e+00	0	45	104	0	76	24267
2026-01-22 20:33:55.77	145.57	15.25	-52.6	-57.0	3.7	0.00e+00	0	45	104	0	76	24441
2026-01-22 20:33:56.91	145.81	15.13	-52.4	-56.9	3.7	0.00e+00	0	45	104	0	76	24204
2026-01-22 20:33:57.76	145.99	15.04	-52.3	-56.8	3.7	0.00e+00	0	45	104	0	76	23964
2026-01-22 20:33:58.90	146.23	14.92	-51.9	-56.5	3.7	0.00e+00	0	45	104	0	75	24475
2026-01-22 20:33:59.75	146.40	14.82	-52.0	-56.6	3.7	0.00e+00	0	45	104	0	75	24796
2026-01-22 20:34:00.89	146.64	14.70	-51.7	-56.4	3.7	0.00e+00	0	45	104	0	75	24062
2026-01-22 20:34:01.74	146.81	14.61	-51.9	-56.6	3.7	0.00e+00	0	45	104	0	75	24572
2026-01-22 20:34:02.88	147.04	14.49	-52.5	-57.1	3.7	0.00e+00	0	45	104	0	75	26001
2026-01-22 20:34:03.73	147.21	14.40	-52.1	-56.7	3.7	0.00e+00	0	45	104	0	75	24917
2026-01-22 20:34:04.87	147.44	14.28	-52.7	-57.2	3.7	0.00e+00	0	45	104	0	76	24891
2026-01-22 20:34:05.71	147.60	14.19	-52.6	-57.1	3.7	0.00e+00	0	45	104	0	76	24804
2026-01-22 20:34:06.86	147.83	14.07	-51.8	-56.6	3.7	0.00e+00	0	45	104	0	75	24614
2026-01-22 20:34:07.71	147.99	13.98	-52.3	-56.9	3.7	0.00e+00	0	46	104	0	75	25502
2026-01-22 20:34:08.86	148.21	13.86	-51.7	-56.4	3.7	0.00e+00	0	45	104	0	75	24048
2026-01-22 20:34:09.71	148.38	13.78	-51.8	-56.5	3.6	0.00e+00	0	45	104	0	75	24311
2026-01-22 20:34:10.85	148.59	13.66	-52.5	-57.0	3.7	0.00e+00	0	45	104	0	75	25764
2026-01-22 20:34:11.70	148.75	13.57	-52.1	-56.6	3.7	0.00e+00	0	45	104	0	75	24748
2026-01-22 20:34:12.83	148.96	13.45	-52.6	-57.1	3.7	0.00e+00	0	45	104	0	75	26106
2026-01-22 20:34:13.69	149.12	13.37	-52.5	-57.0	3.7	0.00e+00	0	45	104	0	75	25798
2026-01-22 20:34:14.83	149.33	13.25	-52.1	-56.7	3.7	0.00e+00	0	45	104	0	75	25018
2026-01-22 20:34:15.68	149.48	13.16	-52.4	-56.9	3.7	0.00e+00	0	45	104	0	75	25437
2026-01-22 20:34:16.82	149.69	13.05	-52.0	-56.7	3.7	0.00e+00	0	45	104	0	75	24864
2026-01-22 20:34:17.67	149.84	12.96	-51.8	-56.5	3.7	0.00e+00	0	46	104	0	75	24365
2026-01-22 20:34:18.81	150.04	12.85	-51.9	-56.5	3.7	0.00e+00	0	45	104	0	75	24310
2026-01-22 20:34:19.66	150.19	12.76	-51.7	-56.3	3.7	0.00e+00	0	45	104	0	75	23820
2026-01-22 20:34:20.80	150.39	12.65	-52.1	-56.7	3.7	0.00e+00	0	45	104	0	75	24883
2026-01-22 20:34:21.66	150.54	12.56	-52.0	-56.5	3.7	0.00e+00	0	46	104	0	75	24335
2026-01-22 20:34:22.80	150.73	12.45	-52.0	-56.7	3.7	0.00e+00	0	45	104	0	75	24824
2026-01-22 20:34:23.65	150.88	12.36	-52.0	-56.5	3.7	0.00e+00	0	45	104	0	75	24317
2026-01-22 20:34:24.80	151.07	12.25	-52.2	-56.6	3.7	0.00e+00	0	45	104	0	75	24661
2026-01-22 20:34:25.65	151.21	12.17	-51.8	-56.0	3.7	0.00e+00	0	45	104	0	75	22965
2026-01-22 20:34:26.79	151.40	12.05	-51.6	-55.9	3.7	0.00e+00	0	46	104	0	75	22837
2026-01-22 20:34:27.64	151.54	11.97	-51.6	-56.1	3.7	0.00e+00	0	45	104	0	74	24614
2026-01-22 20:34:28.79	151.73	11.86	-51.4	-56.0	3.7	0.00e+00	0	46	104	0	74	24294
2026-01-22 20:34:29.64	151.87	11.78	-51.4	-55.9	3.7	0.00e+00	0	45	104	0	74	24150
2026-01-22 20:34:30.78	152.05	11.67	-51.4	-55.9	3.7	0.00e+00	0	45	104	0	74	24135
2026-01-22 20:34:31.64	152.19	11.58	-51.4	-56.0	3.7	0.00e+00	0	46	104	0	74	24308
2026-01-22 20:34:32.78	152.37	11.47	-51.5	-56.3	3.7	0.00e+00	0	45	104	0	74	25264
2026-01-22 20:34:33.63	152.51	11.39	-51.6	-56.3	3.7	0.00e+00	0	45	104	0	74	25357
2026-01-22 20:34:34.77	152.68	11.28	-51.3	-56.1	3.7	0.00e+00	0	45	104	0	74	24767
2026-01-22 20:34:35.63	152.82	11.20	-51.1	-55.9	3.7	0.00e+00	0	45	104	0	74	24170
2026-01-22 20:34:36.77	152.99	11.09	-51.3	-56.2	3.7	0.00e+00	0	45	104	0	74	24821
2026-01-22 20:34:37.63	153.12	11.01	-51.2	-56.0	3.7	0.00e+00	0	46	104	0	74	24505
2026-01-22 20:34:38.77	153.30	10.90	-51.2	-56.0	3.7	0.00e+00	0	46	104	0	74	24494
2026-01-22 20:34:39.63	153.43	10.82	-51.6	-56.3	3.7	0.00e+00	0	46	104	0	74	25327
2026-01-22 20:34:40.76	153.59	10.72	-51.3	-56.0	3.7	0.00e+00	0	45	104	0	74	24387
2026-01-22 20:34:41.63	153.72	10.64	-51.9	-56.5	3.7	0.00e+00	0	45	104	0	74	25919
2026-01-22 20:34:42.76	153.89	10.53	-52.2	-56.7	3.7	0.00e+00	0	45	104	0	75	24931
2026-01-22 20:34:43.62	154.01	10.45	-52.0	-56.6	3.7	0.00e+00	0	46	104	0	75	24701
2026-01-22 20:34:44.75	154.18	10.35	-52.1	-56.7	3.7	0.00e+00	0	45	104	0	75	24817
2026-01-22 20:34:45.61	154.30	10.27	-52.1	-56.7	3.7	0.00e+00	0	45	104	0	75	24892
2026-01-22 20:34:46.75	154.46	10.17	-52.1	-56.7	3.7	0.00e+00	0	46	104	0	75	24953
2026-01-22 20:34:47.60	154.58	10.09	-51.9	-56.6	3.7	0.00e+00	0	46	104	0	75	24659
2026-01-22 20:34:48.74	154.74	9.99	-52.0	-56.6	3.7	0.00e+00	0	45	104	0	75	24632
2026-01-22 20:34:49.59	154.86	9.91	-51.9	-56.6	3.7	0.00e+00	0	45	104	0	75	24529
2026-01-22 20:34:50.73	155.02	9.81	-51.8	-56.5	3.7	0.00e+00	0	45	104	0	74	25823
2026-01-22 20:34:51.58	155.14	9.73	-51.9	-56.5	3.7	0.00e+00	0	45	104	0	74	25942
2026-01-22 20:34:52.72	155.29	9.63	-51.9	-56.4	3.7	0.00e+00	0	45	104	0	75	24211
2026-01-22 20:34:53.58	155.41	9.55	-51.8	-56.4	3.7	0.00e+00	0	46	104	0	75	24048
2026-01-22 20:34:54.71	155.56	9.45	-52.3	-56.8	3.7	0.00e+00	0	45	104	0	75	25199
2026-01-22 20:34:55.57	155.67	9.37	-52.3	-56.8	3.7	0.00e+00	0	45	104	0	75	25316
2026-01-22 20:34:56.71	155.82	9.27	-52.2	-56.7	3.7	0.00e+00	0	45	104	0	75	25068
2026-01-22 20:34:57.57	155.94	9.20	-52.1	-56.6	3.7	0.00e+00	0	45	104	0	75	24759
2026-01-22 20:34:58.70	156.08	9.10	-52.2	-56.8	3.7	0.00e+00	0	45	104	0	75	25207
2026-01-22 20:34:59.56	156.20	9.02	-52.4	-56.8	3.7	0.00e+00	0	46	104	0	75	25355
2026-01-22 20:35:00.69	156.34	8.92	-52.0	-56.6	3.7	0.00e+00	0	45	104	0	75	24753
2026-01-22 20:35:01.55	156.45	8.85	-51.6	-56.5	3.7	0.00e+00	0	46	104	0	74	25813
2026-01-22 20:35:02.70	156.60	8.75	-52.6	-57.1	3.7	0.00e+00	0	46	104	0	76	24550
2026-01-22 20:35:03.55	156.70	8.68	-52.4	-57.0	3.7	0.00e+00	0	45	104	0	76	24357
2026-01-22 20:35:04.69	156.85	8.58	-52.2	-57.0	3.7	0.00e+00	0	45	104	0	76	24448
2026-01-22 20:35:05.55	156.95	8.51	-52.4	-57.3	3.7	0.00e+00	0	45	104	0	75	26690
2026-01-22 20:35:06.69	157.09	8.41	-53.4	-57.8	3.7	0.00e+00	0	45	104	0	77	25263
2026-01-22 20:35:07.55	157.20	8.34	-53.2	-57.6	3.7	0.00e+00	0	46	104	0	77	24800
2026-01-22 20:35:08.69	157.34	8.24	-53.4	-57.8	3.7	0.00e+00	0	46	104	0	77	25203
2026-01-22 20:35:09.54	157.44	8.17	-53.2	-57.7	3.7	0.00e+00	0	45	104	0	77	24991
2026-01-22 20:35:10.68	157.58	8.07	-53.2	-57.8	3.7	0.00e+00	0	46	104	0	77	25105
2026-01-22 20:35:11.53	157.68	8.00	-53.6	-58.0	3.7	0.00e+00	0	45	104	0	77	25736
2026-01-22 20:35:12.67	157.81	7.91	-53.3	-57.9	3.7	0.00e+00	0	46	104	0	77	25395
2026-01-22 20:35:13.53	157.91	7.83	-53.5	-57.9	3.7	0.00e+00	0	46	104	0	77	25604
2026-01-22 20:35:14.66	158.04	7.74	-53.5	-58.0	3.7	0.00e+00	0	45	104	0	77	25856
2026-01-22 20:35:15.52	158.14	7.67	-52.8	-57.6	3.7	0.00e+00	0	46	104	0	77	24678
2026-01-22 20:35:16.66	158.27	7.57	-52.9	-57.6	3.7	0.00e+00	0	45	104	0	77	24671
2026-01-22 20:35:17.51	158.37	7.50	-53.6	-58.0	3.7	0.00e+00	0	45	104	0	77	25683
2026-01-22 20:35:18.66	158.50	7.41	-53.2	-57.7	3.7	0.00e+00	0	46	104	0	77	24978
2026-01-22 20:35:19.51	158.60	7.34	-53.1	-57.6	3.7	0.00e+00	0	46	104	0	76	26019
2026-01-22 20:35:20.65	158.72	7.25	-52.9	-57.4	3.7	0.00e+00	0	46	104	0	77	24110
2026-01-22 20:35:21.50	158.82	7.18	-52.8	-57.2	3.7	0.00e+00	0	45	104	0	77	23578
2026-01-22 20:35:22.64	158.94	7.09	-52.6	-57.4	3.7	0.00e+00	0	45	104	0	76	25580
2026-01-22 20:35:23.50	159.04	7.02	-52.6	-57.5	3.7	0.00e+00	0	45	104	0	76	25703
2026-01-22 20:35:24.64	159.16	6.93	-52.9	-57.3	3.7	0.00e+00	0	45	104	0	76	25235
2026-01-22 20:35:25.49	159.25	6.86	-52.8	-57.3	3.7	0.00e+00	0	46	104	0	76	25204
2026-01-22 20:35:26.63	159.38	6.77	-52.9	-57.3	3.7	0.00e+00	0	46	104	0	76	25252
2026-01-22 20:35:27.48	159.47	6.70	-52.8	-57.3	3.7	0.00e+00	0	45	104	0	76	25224
2026-01-22 20:35:28.62	159.59	6.61	-52.8	-57.3	3.7	0.00e+00	0	45	104	0	76	25282
2026-01-22 20:35:29.48	159.68	6.54	-52.9	-57.3	3.7	0.00e+00	0	45	104	0	76	25200
2026-01-22 20:35:30.61	159.80	6.45	-52.8	-57.3	3.7	0.00e+00	0	46	104	0	76	25188
2026-01-22 20:35:31.47	159.88	6.39	-52.8	-57.3	3.7	0.00e+00	0	45	104	0	76	25113
2026-01-22 20:35:32.61	160.00	6.30	-52.8	-57.2	3.7	0.00e+00	0	45	104	0	76	25070
2026-01-22 20:35:33.47	160.09	6.23	-52.8	-57.3	3.7	0.00e+00	0	45	104	0	76	25209
2026-01-22 20:35:34.61	160.21	6.14	-52.8	-57.3	3.7	0.00e+00	0	45	104	0	76	25149
2026-01-22 20:35:35.46	160.29	6.08	-52.8	-57.2	3.7	0.00e+00	0	45	104	0	76	25093
2026-01-22 20:35:36.60	160.41	5.99	-52.8	-57.3	3.7	0.00e+00	0	45	104	0	76	25096
2026-01-22 20:35:37.46	160.49	5.92	-52.8	-57.3	3.7	0.00e+00	0	46	104	0	76	25155
2026-01-22 20:35:38.60	160.61	5.84	-52.8	-57.3	3.7	0.00e+00	0	46	104	0	76	25186
2026-01-22 20:35:39.45	160.69	5.77	-52.8	-57.3	3.7	0.00e+00	0	45	104	0	76	25122
2026-01-22 20:35:40.59	160.80	5.68	-52.8	-57.3	3.7	0.00e+00	0	45	104	0	76	25111
2026-01-22 20:35:41.44	160.88	5.62	-52.8	-57.3	3.7	0.00e+00	0	45	104	0	76	25098
2026-01-22 20:35:42.58	160.99	5.53	-52.8	-57.2	3.7	0.00e+00	0	45	104	0	76	25038
2026-01-22 20:35:43.44	161.08	5.47	-52.8	-57.2	3.7	0.00e+00	0	45	104	0	76	25075
2026-01-22 20:35:44.57	161.18	5.38	-52.8	-57.2	3.7	0.00e+00	0	45	104	0	76	25025
2026-01-22 20:35:45.42	161.27	5.32	-52.8	-57.2	3.7	0.00e+00	0	45	104	0	76	25083
2026-01-22 20:35:46.57	161.37	5.23	-52.8	-57.2	3.7	0.00e+00	0	45	104	0	76	25071
2026-01-22 20:35:47.42	161.45	5.17	-52.8	-57.2	3.7	0.00e+00	0	45	104	0	76	25083
2026-01-22 20:35:48.56	161.56	5.09	-52.8	-57.2	3.7	0.00e+00	0	45	104	0	76	25043
2026-01-22 20:35:49.42	161.64	5.02	-52.8	-57.2	3.7	0.00e+00	0	46	104	0	76	25058
2026-01-22 20:35:50.56	161.74	4.94	-52.8	-57.2	3.7	0.00e+00	0	45	104	0	76	25003
2026-01-22 20:35:51.41	161.82	4.87	-52.8	-57.2	3.7	0.00e+00	0	46	104	0	76	25066
2026-01-22 20:35:52.55	161.92	4.79	-52.8	-57.2	3.7	0.00e+00	0	45	104	0	76	25049

#Closed at: 2026-01-22 20:35:53
#Recorded file [0 MB]: D:/Data/31040_260122_232731.dat