passes_logs/2026/01/22/T1/T1__20260122_224515_SUOMI_NPP_rec.log

#Pass ID: 20260122_224515_SUOMI NPP
#Satellite: SUOMI NPP
#Configuration: NPP
#almurnet v.1.7.20251203
#Start time: 2026-01-22 22:45:15

#Version: 2.0.20230620
#Station: T1
#Location: 37.570604 lon 55.790049 lat
#TLE: 1 37849U 11061A   26022.50498765  .00000208  00000+0  11976-3 0  9992
#TLE: 2 37849  98.7820 324.4892 0002275  50.8149 309.3229 14.19528284737775

#Time	Az	El	Level	Level2	SNR	BER	BlckErr	Temp	State	Recorded	gain1	gain2
2026-01-22 22:45:15.92	24.37	5.06	-49.0	-64.6	3.8	1.49e+00	0	36	0	0	70	20597
2026-01-22 22:45:16.91	24.43	5.13	-49.0	-64.6	3.8	1.49e+00	0	36	104	0	68	23086
2026-01-22 22:45:17.90	24.49	5.19	-49.0	-64.6	3.8	1.49e+00	0	36	104	0	68	23060
2026-01-22 22:45:18.90	24.55	5.26	-49.0	-64.6	3.8	1.49e+00	0	36	104	0	68	23132
2026-01-22 22:45:19.89	24.61	5.33	-49.0	-64.6	3.8	1.49e+00	0	36	104	0	68	23063
2026-01-22 22:45:20.89	24.67	5.39	-49.0	-64.6	3.8	1.49e+00	0	36	104	0	68	23083
2026-01-22 22:45:21.88	24.73	5.46	-49.0	-64.5	3.8	1.49e+00	0	36	104	0	68	23027
2026-01-22 22:45:22.87	24.79	5.52	-49.0	-64.5	3.8	1.49e+00	0	36	104	0	68	22937
2026-01-22 22:45:23.86	24.85	5.59	-49.0	-64.5	3.8	1.49e+00	0	37	104	0	68	22930
2026-01-22 22:45:24.86	24.91	5.65	-49.0	-64.5	3.8	1.49e+00	0	37	104	0	68	22886
2026-01-22 22:45:25.85	24.97	5.72	-49.0	-64.5	3.8	1.49e+00	0	37	104	0	68	22851
2026-01-22 22:45:26.84	25.04	5.79	-49.0	-64.4	3.8	1.49e+00	0	37	104	0	68	22650
2026-01-22 22:45:27.84	25.10	5.85	-49.0	-64.4	3.8	1.49e+00	0	37	104	0	68	22727
2026-01-22 22:45:28.83	25.16	5.92	-49.0	-64.4	3.8	1.49e+00	0	37	104	0	68	22693
2026-01-22 22:45:29.82	25.22	5.99	-49.0	-64.4	3.8	1.49e+00	0	37	104	0	68	22717
2026-01-22 22:45:30.82	25.29	6.05	-49.0	-64.4	3.8	1.49e+00	0	37	104	0	68	22658
2026-01-22 22:45:31.81	25.35	6.12	-49.0	-64.5	3.8	1.49e+00	0	37	104	0	68	22823
2026-01-22 22:45:32.80	25.41	6.19	-49.0	-64.4	3.8	1.49e+00	0	37	104	0	68	22762
2026-01-22 22:45:33.80	25.48	6.26	-49.0	-64.4	3.8	1.49e+00	0	37	104	0	68	22719
2026-01-22 22:45:34.79	25.54	6.32	-49.0	-64.5	3.8	1.49e+00	0	37	104	0	68	22827
2026-01-22 22:45:35.78	25.61	6.39	-49.0	-64.5	3.8	1.49e+00	0	37	104	0	68	22795
2026-01-22 22:45:36.77	25.67	6.46	-49.0	-64.5	3.8	1.49e+00	0	37	104	0	68	22865
2026-01-22 22:45:37.77	25.74	6.53	-49.0	-64.5	3.8	1.49e+00	0	37	104	0	68	22887
2026-01-22 22:45:38.76	25.80	6.60	-49.0	-64.5	3.8	1.49e+00	0	37	104	0	68	22895
2026-01-22 22:45:39.75	25.87	6.66	-49.0	-64.5	3.8	1.49e+00	0	37	104	0	68	22795
2026-01-22 22:45:40.75	25.93	6.73	-49.0	-64.5	3.8	1.49e+00	0	37	104	0	68	22825
2026-01-22 22:45:41.74	26.00	6.80	-49.0	-64.4	3.8	1.49e+00	0	37	104	0	68	22759
2026-01-22 22:45:42.73	26.07	6.87	-49.0	-64.4	3.8	1.49e+00	0	37	104	0	68	22534
2026-01-22 22:45:43.73	26.13	6.94	-49.0	-64.4	3.8	1.49e+00	0	37	104	0	68	22577
2026-01-22 22:45:44.72	26.20	7.01	-49.0	-64.3	3.8	1.49e+00	0	37	104	0	68	22494
2026-01-22 22:45:45.71	26.27	7.08	-49.0	-64.4	3.8	1.49e+00	0	37	104	0	68	22622
2026-01-22 22:45:46.71	26.34	7.15	-49.0	-64.4	3.8	1.49e+00	0	37	104	0	68	22678
2026-01-22 22:45:47.70	26.40	7.22	-49.0	-64.5	3.8	1.49e+00	0	37	104	0	68	22887
2026-01-22 22:45:48.69	26.47	7.29	-49.0	-64.5	3.8	1.49e+00	0	37	104	0	68	22906
2026-01-22 22:45:49.69	26.54	7.36	-49.0	-64.5	3.8	1.49e+00	0	37	104	0	68	22883
2026-01-22 22:45:50.68	26.61	7.43	-49.0	-64.5	3.8	1.49e+00	0	37	104	0	68	22794
2026-01-22 22:45:51.67	26.68	7.50	-49.0	-64.4	3.8	1.49e+00	0	37	104	0	68	22727
2026-01-22 22:45:52.67	26.75	7.57	-49.0	-64.3	3.8	1.49e+00	0	37	104	0	68	22387
2026-01-22 22:45:53.66	26.82	7.64	-49.0	-64.2	3.8	1.49e+00	0	37	104	0	68	22199
2026-01-22 22:45:54.65	26.89	7.71	-49.0	-64.1	3.8	1.49e+00	0	37	104	0	68	22007
2026-01-22 22:45:55.65	26.96	7.78	-49.0	-64.1	3.8	1.49e+00	0	37	104	0	68	21832
2026-01-22 22:45:56.64	27.03	7.85	-48.9	-64.0	3.8	1.49e+00	0	38	104	0	68	21651
2026-01-22 22:45:57.63	27.10	7.92	-49.0	-64.0	3.8	1.49e+00	0	37	104	0	68	21601
2026-01-22 22:45:58.63	27.17	7.99	-49.0	-64.0	3.8	1.49e+00	0	37	104	0	68	21625
2026-01-22 22:45:59.62	27.25	8.07	-49.0	-64.0	3.8	1.49e+00	0	37	104	0	68	21607
2026-01-22 22:46:00.59	27.32	8.14	-48.9	-63.9	3.8	1.49e+00	0	38	104	0	68	21334
2026-01-22 22:46:01.59	27.39	8.21	-48.9	-63.8	3.8	1.49e+00	0	38	104	0	68	21156
2026-01-22 22:46:02.58	27.46	8.28	-48.9	-63.7	3.8	1.49e+00	0	38	104	0	68	20953
2026-01-22 22:46:03.57	27.54	8.35	-48.9	-63.6	3.8	1.49e+00	0	38	104	0	68	20645
2026-01-22 22:46:04.57	27.61	8.43	-48.9	-63.4	3.8	1.49e+00	0	37	104	0	68	20073
2026-01-22 22:46:05.56	27.68	8.50	-48.9	-62.9	3.8	1.49e+00	0	37	104	0	68	18963
2026-01-22 22:46:06.56	27.76	8.57	-48.8	-62.3	3.8	1.49e+00	0	38	104	0	68	17859
2026-01-22 22:46:07.55	27.83	8.64	-48.7	-61.0	4.2	1.43e+00	0	38	0	0	68	15339
2026-01-22 22:46:08.54	27.91	8.72	-48.6	-59.5	4.7	1.10e+00	0	38	0	1048576	68	12946
2026-01-22 22:46:09.53	27.98	8.79	-48.4	-57.8	5.7	6.67e-01	0	38	0	2097152	68	10581
2026-01-22 22:46:10.53	28.06	8.86	-48.1	-56.2	7.0	2.85e-01	0	38	0	4194304	68	8763
2026-01-22 22:46:11.52	28.13	8.94	-47.6	-54.5	8.5	5.68e-02	0	38	0	6291456	67	7658
2026-01-22 22:46:12.52	28.21	9.01	-47.1	-53.0	10.0	1.51e-02	0	38	0	8388608	66	6814
2026-01-22 22:46:13.51	28.29	9.09	-46.9	-52.4	10.6	3.27e-03	0	38	0	10485760	65	6798
2026-01-22 22:46:14.50	28.36	9.16	-47.5	-54.3	8.8	1.11e-02	0	38	0	11534336	65	8444
2026-01-22 22:46:15.50	28.44	9.23	-47.1	-53.0	9.7	2.28e-01	0	38	0	13631488	66	6828
2026-01-22 22:46:16.50	28.52	9.31	-47.3	-53.6	9.6	1.07e-04	0	38	0	15728640	65	7768
2026-01-22 22:46:17.49	28.60	9.38	-47.4	-54.0	8.7	6.89e-01	0	38	0	17825792	66	7716
2026-01-22 22:46:18.49	28.68	9.46	-46.5	-51.6	11.6	6.31e-04	0	38	0	18874368	64	6513
2026-01-22 22:46:19.55	28.76	9.54	-46.7	-52.0	11.3	8.58e-04	0	38	0	20971520	64	6816
2026-01-22 22:46:20.40	28.83	9.60	-46.6	-51.8	11.3	9.96e-04	0	38	0	23068672	64	6684
2026-01-22 22:46:21.54	28.92	9.69	-46.1	-50.9	12.2	1.94e-04	0	38	0	25165824	64	5998
2026-01-22 22:46:22.39	28.99	9.75	-46.1	-50.8	12.3	2.39e-04	0	38	0	26214400	64	5963
2026-01-22 22:46:23.53	29.08	9.84	-45.6	-49.7	13.6	3.96e-05	0	38	0	28311552	63	5538
2026-01-22 22:46:24.38	29.15	9.91	-45.2	-49.1	14.3	3.00e-06	0	38	0	30408704	62	5485
2026-01-22 22:46:25.52	29.25	9.99	-45.1	-48.8	14.4	1.50e-06	0	38	0	32505856	62	5319
2026-01-22 22:46:26.37	29.32	10.06	-45.2	-49.0	14.3	1.50e-06	0	38	0	33554432	62	5460
2026-01-22 22:46:27.51	29.41	10.15	-45.0	-48.6	14.8	1.50e-06	0	38	0	36700160	61	5476
2026-01-22 22:46:28.36	29.48	10.21	-44.9	-48.3	15.0	0.00e+00	0	38	0	37748736	61	5337
2026-01-22 22:46:29.50	29.58	10.30	-44.9	-48.4	15.0	0.00e+00	0	38	0	39845888	61	5357
2026-01-22 22:46:30.35	29.65	10.37	-44.5	-47.8	15.6	0.00e+00	0	38	0	41943040	61	4989
2026-01-22 22:46:31.49	29.74	10.46	-44.2	-47.3	16.0	0.00e+00	0	38	0	44040192	60	4992
2026-01-22 22:46:32.34	29.82	10.52	-44.1	-47.2	16.1	0.00e+00	0	38	0	45088768	60	4938
2026-01-22 22:46:33.59	29.92	10.62	-44.0	-47.1	16.2	0.00e+00	0	38	0	47185920	60	4876
2026-01-22 22:46:34.44	30.00	10.69	-43.7	-46.6	16.7	0.00e+00	0	38	0	49283072	59	4900
2026-01-22 22:46:35.58	30.09	10.78	-43.6	-46.4	16.8	0.00e+00	0	38	0	51380224	59	4811
2026-01-22 22:46:36.43	30.17	10.84	-43.7	-46.5	16.7	0.00e+00	0	38	0	53477376	59	4858
2026-01-22 22:46:37.56	30.27	10.93	-43.4	-46.1	17.1	0.00e+00	0	38	0	55574528	58	4908
2026-01-22 22:46:38.42	30.34	11.00	-43.4	-46.2	17.1	0.00e+00	0	38	0	56623104	58	4940
2026-01-22 22:46:39.56	30.44	11.09	-43.3	-46.1	17.1	0.00e+00	0	38	0	58720256	58	4878
2026-01-22 22:46:40.41	30.52	11.16	-43.1	-45.8	17.4	0.00e+00	0	38	0	60817408	58	4709
2026-01-22 22:46:41.55	30.62	11.25	-43.1	-45.7	17.5	0.00e+00	0	38	0	62914560	58	4691
2026-01-22 22:46:42.40	30.69	11.32	-43.2	-45.9	17.3	0.00e+00	0	38	0	63963136	58	4770
2026-01-22 22:46:43.54	30.80	11.41	-43.3	-46.0	17.3	0.00e+00	0	38	0	66060288	58	4845
2026-01-22 22:46:44.39	30.87	11.48	-43.4	-46.1	17.2	0.00e+00	0	38	0	68157440	58	4916
2026-01-22 22:46:45.53	30.98	11.57	-43.3	-46.1	17.2	0.00e+00	0	38	0	70254592	58	4899
2026-01-22 22:46:46.38	31.05	11.64	-43.4	-46.1	17.1	0.00e+00	0	38	0	71303168	58	4922
2026-01-22 22:46:47.52	31.16	11.73	-43.3	-46.1	17.2	0.00e+00	0	38	0	73400320	58	4892
2026-01-22 22:46:48.37	31.24	11.80	-43.2	-46.0	17.3	0.00e+00	0	38	0	75497472	58	4834
2026-01-22 22:46:49.51	31.34	11.89	-43.4	-46.2	17.1	0.00e+00	0	38	0	77594624	58	4967
2026-01-22 22:46:50.36	31.42	11.96	-43.6	-46.4	16.9	0.00e+00	0	38	0	78643200	58	5076
2026-01-22 22:46:51.69	31.55	12.07	-43.3	-46.1	17.2	0.00e+00	0	38	0	81788928	58	4882
2026-01-22 22:46:52.40	31.61	12.13	-43.5	-46.3	17.0	0.00e+00	0	38	0	82837504	58	5037
2026-01-22 22:46:53.68	31.73	12.24	-43.5	-46.4	17.0	0.00e+00	0	38	0	84934656	58	5042
2026-01-22 22:46:54.41	31.80	12.30	-43.2	-45.9	17.3	0.00e+00	0	38	0	87031808	58	4807
2026-01-22 22:46:55.69	31.93	12.40	-43.1	-45.9	17.4	0.00e+00	0	38	0	89128960	58	4786
2026-01-22 22:46:56.48	32.00	12.47	-43.1	-45.8	17.4	0.00e+00	0	38	0	90177536	58	4751
2026-01-22 22:46:57.64	32.11	12.57	-42.9	-45.6	17.6	0.00e+00	0	38	0	92274688	57	4893
2026-01-22 22:46:58.49	32.20	12.64	-42.9	-45.6	17.7	0.00e+00	0	38	0	94371840	57	4887
2026-01-22 22:46:59.63	32.31	12.73	-42.9	-45.5	17.7	0.00e+00	0	38	0	96468992	57	4864
2026-01-22 22:47:00.78	32.42	12.83	-42.8	-45.4	17.8	0.00e+00	0	38	0	98566144	57	4805
2026-01-22 22:47:01.80	32.52	12.91	-42.7	-45.3	17.9	0.00e+00	0	38	0	100663296	57	4734
2026-01-22 22:47:02.97	32.64	13.01	-42.5	-45.0	18.3	0.00e+00	0	38	0	102760448	56	4830
2026-01-22 22:47:03.83	32.72	13.09	-42.4	-44.8	18.4	0.00e+00	0	38	0	104857600	56	4753
2026-01-22 22:47:04.96	32.84	13.18	-42.5	-44.9	18.3	0.00e+00	0	38	0	106954752	56	4809
2026-01-22 22:47:05.81	32.92	13.25	-42.6	-45.1	18.2	0.00e+00	0	38	0	108003328	56	4879
2026-01-22 22:47:06.95	33.04	13.35	-42.4	-44.8	18.5	0.00e+00	0	38	0	110100480	56	4718
2026-01-22 22:47:07.80	33.13	13.42	-42.6	-45.1	18.2	0.00e+00	0	38	0	112197632	56	4880
2026-01-22 22:47:08.94	33.24	13.52	-42.6	-45.1	18.2	0.00e+00	0	38	0	114294784	56	4882
2026-01-22 22:47:09.79	33.33	13.59	-42.5	-45.0	18.3	0.00e+00	0	38	0	115343360	56	4818
2026-01-22 22:47:10.93	33.45	13.69	-42.4	-44.9	18.4	0.00e+00	0	38	0	117440512	56	4764
2026-01-22 22:47:11.78	33.54	13.77	-42.6	-45.0	18.2	0.00e+00	0	38	0	119537664	56	4850
2026-01-22 22:47:12.92	33.66	13.87	-42.5	-44.9	18.3	0.00e+00	0	38	0	121634816	56	4813
2026-01-22 22:47:13.77	33.75	13.94	-42.4	-44.8	18.4	0.00e+00	0	38	0	122683392	56	4757
2026-01-22 22:47:15.00	33.88	14.05	-42.7	-45.2	18.1	0.00e+00	0	38	0	124780544	56	4931
2026-01-22 22:47:15.86	33.97	14.12	-42.5	-44.9	18.3	0.00e+00	0	38	0	126877696	56	4809
2026-01-22 22:47:17.04	34.10	14.22	-42.7	-45.2	18.1	0.00e+00	0	38	0	128974848	56	4966
2026-01-22 22:47:17.90	34.19	14.30	-43.0	-45.6	17.8	0.00e+00	0	38	0	131072000	56	5163
2026-01-22 22:47:19.03	34.32	14.40	-42.9	-45.4	18.0	0.00e+00	0	38	0	133169152	56	5061
2026-01-22 22:47:19.89	34.41	14.48	-43.0	-45.6	17.7	0.00e+00	0	38	0	134217728	56	5190
2026-01-22 22:47:21.02	34.53	14.58	-43.1	-45.7	17.6	0.00e+00	0	38	0	136314880	57	4966
2026-01-22 22:47:21.88	34.63	14.65	-43.2	-45.8	17.4	0.00e+00	0	38	0	138412032	57	5040
2026-01-22 22:47:23.01	34.76	14.75	-43.1	-45.7	17.6	0.00e+00	0	38	0	140509184	57	4983
2026-01-22 22:47:23.86	34.85	14.83	-43.1	-45.8	17.6	0.00e+00	0	38	0	141557760	57	4997
2026-01-22 22:47:25.00	34.98	14.93	-43.1	-45.7	17.6	0.00e+00	0	38	0	143654912	57	4961
2026-01-22 22:47:25.86	35.08	15.01	-43.2	-45.8	17.5	0.00e+00	0	38	0	145752064	57	5021
2026-01-22 22:47:26.99	35.21	15.11	-43.0	-45.7	17.7	0.00e+00	0	38	0	147849216	57	4935
2026-01-22 22:47:27.85	35.30	15.19	-43.0	-45.7	17.7	0.00e+00	0	38	0	148897792	57	4941
2026-01-22 22:47:28.98	35.43	15.29	-43.0	-45.7	17.7	0.00e+00	0	38	0	152043520	57	4934
2026-01-22 22:47:29.83	35.53	15.37	-43.0	-45.7	17.6	0.00e+00	0	38	0	153092096	57	4941
2026-01-22 22:47:30.97	35.67	15.47	-42.8	-45.3	18.0	0.00e+00	0	38	0	155189248	57	4748
2026-01-22 22:47:31.82	35.77	15.55	-42.9	-45.5	17.8	0.00e+00	0	38	0	157286400	57	4856
2026-01-22 22:47:32.96	35.90	15.65	-43.1	-45.7	17.6	0.00e+00	0	38	0	159383552	57	4963
2026-01-22 22:47:33.82	36.00	15.73	-42.9	-45.5	17.8	0.00e+00	0	38	0	160432128	57	4854
2026-01-22 22:47:34.96	36.14	15.83	-43.1	-45.7	17.6	0.00e+00	0	38	0	162529280	57	4981
2026-01-22 22:47:35.81	36.24	15.91	-43.3	-45.9	17.4	0.00e+00	0	38	0	164626432	57	5099
2026-01-22 22:47:36.95	36.38	16.02	-43.2	-45.8	17.5	0.00e+00	0	39	0	166723584	57	5033
2026-01-22 22:47:37.80	36.48	16.09	-43.1	-45.7	17.6	0.00e+00	0	38	0	167772160	57	4962
2026-01-22 22:47:38.94	36.62	16.20	-43.4	-46.1	17.3	0.00e+00	0	39	0	169869312	57	5189
2026-01-22 22:47:39.79	36.73	16.28	-43.5	-46.1	17.3	0.00e+00	0	39	0	171966464	57	5211
2026-01-22 22:47:40.93	36.87	16.39	-43.4	-46.0	17.4	0.00e+00	0	38	0	174063616	57	5141
2026-01-22 22:47:41.78	36.97	16.46	-43.6	-46.4	17.0	0.00e+00	0	39	0	175112192	57	5355
2026-01-22 22:47:42.99	37.12	16.58	-43.4	-46.0	17.3	0.00e+00	0	38	0	178257920	57	5151
2026-01-22 22:47:43.85	37.23	16.66	-43.4	-46.0	17.4	0.00e+00	0	38	0	179306496	57	5138
2026-01-22 22:47:44.99	37.38	16.77	-43.3	-45.9	17.5	0.00e+00	0	39	0	181403648	57	5072
2026-01-22 22:47:45.84	37.48	16.85	-43.3	-45.9	17.5	0.00e+00	0	38	0	183500800	57	5064
2026-01-22 22:47:46.98	37.63	16.95	-43.2	-45.8	17.5	0.00e+00	0	39	0	185597952	57	5035
2026-01-22 22:47:47.83	37.74	17.03	-43.3	-45.9	17.5	0.00e+00	0	39	0	186646528	57	5096
2026-01-22 22:47:48.97	37.89	17.14	-43.1	-45.7	17.7	0.00e+00	0	39	0	188743680	57	4953
2026-01-22 22:47:49.82	38.00	17.22	-43.0	-45.6	17.8	0.00e+00	0	38	0	190840832	57	4890
2026-01-22 22:47:50.96	38.15	17.33	-43.3	-46.0	17.4	0.00e+00	0	39	0	192937984	57	5111
2026-01-22 22:47:51.81	38.26	17.41	-43.3	-45.9	17.5	0.00e+00	0	39	0	193986560	57	5063
2026-01-22 22:47:52.95	38.41	17.52	-43.3	-45.9	17.4	0.00e+00	0	39	0	196083712	57	5095
2026-01-22 22:47:53.81	38.53	17.61	-43.3	-45.9	17.5	0.00e+00	0	38	0	198180864	57	5060
2026-01-22 22:47:54.94	38.68	17.71	-43.2	-45.8	17.6	0.00e+00	0	39	0	200278016	57	5005
2026-01-22 22:47:55.80	38.80	17.80	-43.3	-45.9	17.5	0.00e+00	0	38	0	201326592	57	5058
2026-01-22 22:47:56.98	38.96	17.91	-43.3	-45.9	17.5	0.00e+00	0	39	0	204472320	57	5091
2026-01-22 22:47:57.83	39.08	17.99	-43.5	-46.2	17.2	0.00e+00	0	39	0	205520896	57	5224
2026-01-22 22:47:59.15	39.26	18.12	-43.4	-46.1	17.4	0.00e+00	0	38	0	207618048	57	5176
2026-01-22 22:47:59.86	39.36	18.19	-43.4	-46.0	17.4	0.00e+00	0	39	0	209715200	57	5146
2026-01-22 22:48:01.15	39.54	18.32	-43.5	-46.1	17.3	0.00e+00	0	38	0	211812352	58	4900
2026-01-22 22:48:01.85	39.64	18.39	-43.6	-46.3	17.2	0.00e+00	0	39	0	212860928	58	4994
2026-01-22 22:48:03.15	39.82	18.51	-43.7	-46.4	17.1	0.00e+00	0	38	0	216006656	58	5048
2026-01-22 22:48:03.86	39.92	18.58	-43.6	-46.3	17.1	0.00e+00	0	39	0	217055232	58	5001
2026-01-22 22:48:05.14	40.10	18.71	-43.6	-46.3	17.1	0.00e+00	0	39	0	219152384	58	5034
2026-01-22 22:48:05.85	40.21	18.78	-43.6	-46.3	17.2	0.00e+00	0	38	0	220200960	58	4989
2026-01-22 22:48:07.13	40.39	18.91	-43.5	-46.2	17.2	0.00e+00	0	39	0	223346688	58	4936
2026-01-22 22:48:08.00	40.52	18.99	-43.7	-46.4	17.1	0.00e+00	0	39	0	224395264	58	5079
2026-01-22 22:48:09.14	40.69	19.11	-43.8	-46.5	16.9	0.00e+00	0	39	0	226492416	58	5155
2026-01-22 22:48:10.16	40.84	19.21	-43.9	-46.7	16.8	0.00e+00	0	39	0	228589568	58	5237
2026-01-22 22:48:11.35	41.02	19.33	-43.7	-46.4	17.0	0.00e+00	0	38	0	230686720	58	5093
2026-01-22 22:48:12.20	41.14	19.41	-43.8	-46.5	16.9	0.00e+00	0	38	0	232783872	58	5143
2026-01-22 22:48:13.34	41.32	19.53	-43.8	-46.6	16.9	0.00e+00	0	39	0	234881024	58	5165
2026-01-22 22:48:14.28	41.46	19.62	-43.6	-46.2	17.2	0.00e+00	0	38	0	236978176	58	4983
2026-01-22 22:48:15.46	41.64	19.74	-43.4	-46.0	17.4	0.00e+00	0	39	0	239075328	58	4837
2026-01-22 22:48:16.31	41.77	19.83	-43.2	-45.7	17.7	0.00e+00	0	38	0	240123904	58	4684
2026-01-22 22:48:17.44	41.95	19.94	-43.0	-45.5	17.9	0.00e+00	0	39	0	242221056	58	4572
2026-01-22 22:48:18.29	42.08	20.03	-42.8	-45.3	18.0	0.00e+00	0	39	0	244318208	57	4725
2026-01-22 22:48:19.43	42.26	20.15	-42.8	-45.3	18.1	0.00e+00	0	38	0	246415360	57	4714
2026-01-22 22:48:20.28	42.39	20.23	-42.9	-45.5	18.0	0.00e+00	0	39	0	247463936	57	4815
2026-01-22 22:48:21.42	42.57	20.35	-43.1	-45.6	17.8	0.00e+00	0	39	0	249561088	57	4919
2026-01-22 22:48:22.27	42.71	20.44	-42.9	-45.4	18.0	0.00e+00	0	39	0	251658240	57	4779
2026-01-22 22:48:23.41	42.90	20.55	-42.8	-45.3	18.1	0.00e+00	0	39	0	253755392	57	4745
2026-01-22 22:48:24.26	43.03	20.64	-42.8	-45.3	18.1	0.00e+00	0	39	0	254803968	57	4735
2026-01-22 22:48:25.40	43.22	20.76	-42.7	-45.2	18.2	0.00e+00	0	39	0	256901120	57	4687
2026-01-22 22:48:26.25	43.36	20.85	-42.7	-45.1	18.3	0.00e+00	0	38	0	258998272	57	4630
2026-01-22 22:48:27.39	43.55	20.96	-42.4	-44.8	18.5	0.00e+00	0	39	0	261095424	56	4757
2026-01-22 22:48:28.24	43.69	21.05	-42.4	-44.7	18.6	0.00e+00	0	39	0	262144000	56	4704
2026-01-22 22:48:29.38	43.88	21.17	-42.1	-44.4	19.0	0.00e+00	0	38	0	265289728	56	4508
2026-01-22 22:48:30.23	44.02	21.26	-41.9	-44.2	18.9	0.00e+00	0	39	0	266338304	55	4705
2026-01-22 22:48:31.37	44.22	21.38	-41.6	-43.8	19.3	0.00e+00	0	39	0	268435456	55	4468
2026-01-22 22:48:32.22	44.36	21.47	-41.6	-43.8	19.3	0.00e+00	0	38	0	270532608	55	4484
2026-01-22 22:48:33.58	44.60	21.61	-41.4	-43.6	19.5	0.00e+00	0	39	0	272629760	54	4643
2026-01-22 22:48:34.29	44.72	21.68	-41.5	-43.7	19.5	0.00e+00	0	39	0	273678336	54	4663
2026-01-22 22:48:35.57	44.94	21.82	-41.6	-43.8	19.3	0.00e+00	0	39	0	276824064	54	4741
2026-01-22 22:48:36.28	45.07	21.89	-41.5	-43.7	19.4	0.00e+00	0	39	0	277872640	54	4695
2026-01-22 22:48:37.58	45.30	22.03	-41.6	-43.9	19.3	0.00e+00	0	39	0	279969792	54	4774
2026-01-22 22:48:38.29	45.43	22.10	-41.7	-44.0	19.2	0.00e+00	0	39	0	281018368	54	4830
2026-01-22 22:48:39.57	45.65	22.24	-41.8	-44.1	18.9	0.00e+00	0	39	0	284164096	54	4917
2026-01-22 22:48:40.29	45.78	22.32	-41.8	-44.1	19.1	0.00e+00	0	39	0	285212672	54	4874
2026-01-22 22:48:41.57	46.02	22.45	-41.9	-44.2	19.0	0.00e+00	0	39	0	287309824	54	4967
2026-01-22 22:48:42.44	46.18	22.54	-41.8	-44.1	19.1	0.00e+00	0	39	0	289406976	54	4878
2026-01-22 22:48:43.58	46.39	22.66	-41.7	-44.0	19.2	0.00e+00	0	38	0	291504128	54	4852
2026-01-22 22:48:44.43	46.54	22.75	-41.8	-44.1	19.1	0.00e+00	0	39	0	292552704	54	4889
2026-01-22 22:48:45.56	46.76	22.87	-41.7	-43.9	19.3	0.00e+00	0	38	0	294649856	54	4783
2026-01-22 22:48:46.42	46.92	22.97	-41.8	-44.0	19.2	0.00e+00	0	39	0	296747008	54	4864
2026-01-22 22:48:47.56	47.13	23.09	-41.8	-44.0	19.2	0.00e+00	0	39	0	298844160	54	4859
2026-01-22 22:48:48.41	47.29	23.18	-41.8	-44.1	19.1	0.00e+00	0	38	0	300941312	54	4884
2026-01-22 22:48:49.55	47.51	23.30	-41.9	-44.2	19.1	0.00e+00	0	38	0	303038464	54	4928
2026-01-22 22:48:50.40	47.68	23.39	-41.9	-44.2	19.1	0.00e+00	0	39	0	304087040	54	4930
2026-01-22 22:48:51.53	47.90	23.51	-41.6	-43.8	19.4	0.00e+00	0	39	0	306184192	54	4730
2026-01-22 22:48:52.39	48.06	23.61	-41.5	-43.8	19.4	0.00e+00	0	39	0	308281344	54	4711
2026-01-22 22:48:53.52	48.29	23.73	-41.4	-43.6	19.5	0.00e+00	0	39	0	310378496	54	4637
2026-01-22 22:48:54.38	48.46	23.82	-41.1	-43.3	19.9	0.00e+00	0	38	0	311427072	54	4452
2026-01-22 22:48:55.52	48.68	23.94	-41.1	-43.3	19.7	0.00e+00	0	38	0	313524224	54	4466
2026-01-22 22:48:56.37	48.86	24.03	-41.0	-43.1	20.0	0.00e+00	0	38	0	315621376	54	4384
2026-01-22 22:48:57.50	49.08	24.16	-41.1	-43.2	19.9	0.00e+00	0	39	0	317718528	54	4418
2026-01-22 22:48:58.36	49.26	24.25	-41.1	-43.3	19.9	0.00e+00	0	38	0	318767104	54	4443
2026-01-22 22:48:59.49	49.49	24.37	-41.2	-43.4	19.8	0.00e+00	0	38	0	320864256	54	4509
2026-01-22 22:49:00.34	49.67	24.46	-41.1	-43.2	19.9	0.00e+00	0	38	0	322961408	54	4438
2026-01-22 22:49:01.48	49.90	24.59	-41.4	-43.5	19.6	0.00e+00	0	39	0	325058560	54	4590
2026-01-22 22:49:02.33	50.08	24.68	-41.5	-43.7	19.5	0.00e+00	0	38	0	326107136	54	4687
2026-01-22 22:49:03.47	50.32	24.80	-41.5	-43.7	19.5	0.00e+00	0	39	0	328204288	54	4689
2026-01-22 22:49:04.32	50.50	24.89	-41.6	-43.9	19.3	0.00e+00	0	38	0	330301440	54	4770
2026-01-22 22:49:05.46	50.74	25.02	-41.6	-43.9	19.3	0.00e+00	0	39	0	332398592	54	4771
2026-01-22 22:49:06.31	50.93	25.11	-41.6	-43.8	19.4	0.00e+00	0	38	0	334495744	54	4749
2026-01-22 22:49:07.45	51.17	25.23	-41.7	-43.9	19.3	0.00e+00	0	38	0	336592896	54	4794
2026-01-22 22:49:08.30	51.36	25.33	-41.7	-43.9	19.3	0.00e+00	0	39	0	337641472	54	4805
2026-01-22 22:49:09.44	51.61	25.45	-41.7	-44.0	19.2	0.00e+00	0	38	0	339738624	54	4835
2026-01-22 22:49:10.29	51.80	25.54	-41.7	-44.0	19.2	0.00e+00	0	39	0	341835776	54	4835
2026-01-22 22:49:11.43	52.05	25.67	-41.7	-43.9	19.3	0.00e+00	0	39	0	343932928	54	4781
2026-01-22 22:49:12.29	52.24	25.76	-41.5	-43.7	19.5	0.00e+00	0	39	0	344981504	54	4698
2026-01-22 22:49:13.43	52.50	25.88	-41.6	-43.8	19.4	0.00e+00	0	38	0	347078656	54	4739
2026-01-22 22:49:14.28	52.69	25.97	-41.7	-43.9	19.4	0.00e+00	0	39	0	349175808	54	4801
2026-01-22 22:49:15.42	52.95	26.10	-41.7	-43.9	19.3	0.00e+00	0	39	0	351272960	54	4814
2026-01-22 22:49:16.27	53.15	26.19	-41.8	-44.1	19.2	0.00e+00	0	39	0	352321536	54	4921
2026-01-22 22:49:17.40	53.41	26.31	-41.9	-44.2	19.0	0.00e+00	0	38	0	354418688	54	4960
2026-01-22 22:49:18.26	53.61	26.41	-42.0	-44.3	18.9	0.00e+00	0	38	0	356515840	54	5037
2026-01-22 22:49:19.40	53.87	26.53	-42.0	-44.3	19.0	0.00e+00	0	38	0	358612992	54	5002
2026-01-22 22:49:20.25	54.07	26.62	-42.0	-44.3	18.9	0.00e+00	0	39	0	359661568	54	5004
2026-01-22 22:49:21.50	54.37	26.76	-42.1	-44.5	18.8	0.00e+00	0	39	0	362807296	54	5102
2026-01-22 22:49:22.35	54.57	26.85	-42.3	-44.6	18.7	0.00e+00	0	39	0	363855872	55	4905
2026-01-22 22:49:23.48	54.85	26.97	-42.2	-44.6	18.8	0.00e+00	0	39	0	365953024	55	4875
2026-01-22 22:49:24.34	55.05	27.06	-42.5	-44.9	18.4	0.00e+00	0	39	0	368050176	55	5091
2026-01-22 22:49:25.47	55.33	27.19	-42.8	-45.2	18.3	0.00e+00	0	39	0	370147328	56	4957
2026-01-22 22:49:26.33	55.54	27.28	-43.1	-45.6	18.0	0.00e+00	0	39	0	371195904	56	5168
2026-01-22 22:49:27.46	55.82	27.40	-43.1	-45.6	17.9	0.00e+00	0	39	0	373293056	56	5217
2026-01-22 22:49:28.31	56.03	27.49	-43.2	-45.7	17.9	0.00e+00	0	38	0	375390208	57	4950
2026-01-22 22:49:29.45	56.32	27.61	-43.3	-45.8	17.8	0.00e+00	0	39	0	377487360	57	5015
2026-01-22 22:49:30.30	56.53	27.70	-43.5	-46.1	17.5	0.00e+00	0	38	0	378535936	57	5171
2026-01-22 22:49:31.44	56.82	27.83	-43.6	-46.2	17.4	0.00e+00	0	39	0	380633088	57	5237
2026-01-22 22:49:32.29	57.04	27.92	-43.6	-46.3	17.3	0.00e+00	0	38	0	382730240	58	4993
2026-01-22 22:49:33.43	57.33	28.04	-43.6	-46.2	17.3	0.00e+00	0	38	0	384827392	58	4982
2026-01-22 22:49:34.29	57.55	28.13	-43.5	-46.1	17.4	0.00e+00	0	38	0	386924544	58	4911
2026-01-22 22:49:35.42	57.85	28.25	-43.5	-46.2	17.5	0.00e+00	0	39	0	389021696	58	4935
2026-01-22 22:49:36.27	58.07	28.34	-43.7	-46.4	17.2	0.00e+00	0	39	0	390070272	58	5057
2026-01-22 22:49:37.49	58.39	28.47	-44.1	-46.9	16.7	0.00e+00	0	39	0	392167424	58	5393
2026-01-22 22:49:38.34	58.62	28.56	-44.2	-47.1	16.5	0.00e+00	0	39	0	394264576	59	5196
2026-01-22 22:49:39.48	58.92	28.68	-44.5	-47.5	16.1	0.00e+00	0	38	0	396361728	59	5435
2026-01-22 22:49:40.33	59.15	28.77	-44.7	-47.8	15.9	0.00e+00	0	39	0	397410304	60	5308
2026-01-22 22:49:41.60	59.50	28.90	-44.9	-48.1	15.6	0.00e+00	0	39	0	400556032	60	5494
2026-01-22 22:49:42.39	59.71	28.98	-45.0	-48.1	15.5	0.00e+00	0	39	0	401604608	61	5216
2026-01-22 22:49:43.57	60.04	29.11	-45.3	-48.7	15.1	0.00e+00	0	39	0	403701760	61	5539
2026-01-22 22:49:44.42	60.27	29.19	-45.0	-48.2	15.5	0.00e+00	0	39	0	405798912	61	5269
2026-01-22 22:49:45.56	60.59	29.31	-44.9	-48.0	15.7	0.00e+00	0	39	0	407896064	61	5135
2026-01-22 22:49:46.41	60.83	29.40	-45.0	-48.2	15.5	0.00e+00	0	39	0	408944640	61	5279
2026-01-22 22:49:47.55	61.15	29.52	-44.7	-47.9	15.8	0.00e+00	0	39	0	411041792	61	5055
2026-01-22 22:49:48.40	61.39	29.60	-45.1	-48.4	15.4	0.00e+00	0	39	0	413138944	61	5355
2026-01-22 22:49:49.54	61.71	29.72	-45.2	-48.6	15.2	0.00e+00	0	39	0	415236096	61	5474
2026-01-22 22:49:50.39	61.96	29.81	-45.2	-48.5	15.1	0.00e+00	0	38	0	416284672	61	5439
2026-01-22 22:49:51.53	62.29	29.92	-45.2	-48.4	15.2	0.00e+00	0	39	0	418381824	61	5378
2026-01-22 22:49:52.38	62.53	30.01	-45.3	-48.6	15.0	0.00e+00	0	39	0	420478976	61	5520
2026-01-22 22:49:53.52	62.87	30.12	-45.7	-49.2	14.5	0.00e+00	0	39	0	422576128	62	5578
2026-01-22 22:49:54.37	63.12	30.21	-46.1	-49.9	13.9	2.20e-06	0	39	0	424673280	62	6021
2026-01-22 22:49:55.51	63.45	30.32	-46.1	-49.9	13.8	1.06e-05	0	39	0	426770432	63	5704
2026-01-22 22:49:56.36	63.71	30.40	-46.3	-50.3	13.3	1.67e-05	0	39	0	427819008	63	5957
2026-01-22 22:49:57.59	64.08	30.52	-46.2	-50.0	13.7	7.60e-06	0	39	0	429916160	63	5764
2026-01-22 22:49:58.44	64.33	30.61	-46.1	-49.8	13.9	3.80e-06	0	39	0	432013312	63	5645
2026-01-22 22:49:59.58	64.68	30.72	-45.8	-49.4	14.4	7.00e-07	0	39	0	434110464	63	5352
2026-01-22 22:50:00.43	64.94	30.80	-46.1	-49.9	13.9	4.50e-06	0	39	0	435159040	63	5690
2026-01-22 22:50:01.57	65.29	30.91	-46.3	-50.3	13.5	5.30e-06	0	38	0	437256192	63	5944
2026-01-22 22:50:02.42	65.55	30.99	-46.2	-50.1	13.7	8.30e-06	0	39	0	439353344	63	5828
2026-01-22 22:50:03.56	65.90	31.10	-46.3	-50.4	13.4	1.37e-05	0	39	0	441450496	63	6004
2026-01-22 22:50:04.41	66.17	31.18	-46.3	-50.2	13.6	9.90e-06	0	38	0	442499072	63	5895
2026-01-22 22:50:05.55	66.52	31.29	-46.2	-50.0	13.7	1.67e-05	0	39	0	444596224	63	5784
2026-01-22 22:50:06.40	66.79	31.37	-46.1	-49.9	13.7	4.50e-06	0	39	0	446693376	63	5709
2026-01-22 22:50:07.54	67.16	31.47	-46.0	-49.7	14.0	7.00e-07	0	39	0	448790528	63	5546
2026-01-22 22:50:08.39	67.43	31.55	-45.9	-49.6	14.2	0.00e+00	0	39	0	450887680	63	5511
2026-01-22 22:50:09.53	67.79	31.65	-45.1	-48.4	15.3	0.00e+00	0	39	0	452984832	62	5047
2026-01-22 22:50:10.38	68.07	31.73	-44.5	-47.4	16.2	0.00e+00	0	39	0	454033408	61	4802
2026-01-22 22:50:11.52	68.44	31.83	-44.5	-47.5	16.2	0.00e+00	0	39	0	456130560	60	5141
2026-01-22 22:50:12.37	68.71	31.91	-44.6	-47.5	16.1	0.00e+00	0	39	0	458227712	60	5154
2026-01-22 22:50:13.51	69.09	32.01	-44.8	-47.8	15.9	0.00e+00	0	39	0	460324864	60	5329
2026-01-22 22:50:14.36	69.37	32.08	-45.4	-48.8	15.0	0.00e+00	0	39	0	461373440	61	5633
2026-01-22 22:50:15.61	69.78	32.19	-45.8	-49.5	14.3	7.00e-07	0	39	0	464519168	62	5726
2026-01-22 22:50:16.46	70.07	32.27	-46.1	-49.9	13.8	0.00e+00	0	39	0	465567744	62	6054
2026-01-22 22:50:17.60	70.45	32.36	-45.6	-49.0	14.7	7.00e-07	0	39	0	467664896	62	5448
2026-01-22 22:50:18.45	70.74	32.44	-45.4	-48.8	14.9	0.00e+00	0	39	0	469762048	62	5302
2026-01-22 22:50:19.59	71.12	32.53	-44.7	-47.8	15.9	0.00e+00	0	39	0	471859200	61	5022
2026-01-22 22:50:20.44	71.41	32.60	-44.3	-47.2	16.4	0.00e+00	0	39	0	472907776	60	4930
2026-01-22 22:50:21.58	71.80	32.69	-44.1	-46.9	16.8	0.00e+00	0	39	0	475004928	60	4767
2026-01-22 22:50:22.59	72.15	32.78	-44.3	-47.1	16.5	0.00e+00	0	39	0	477102080	59	5180
2026-01-22 22:50:23.76	72.55	32.87	-44.9	-48.0	15.8	0.00e+00	0	38	0	479199232	60	5458
2026-01-22 22:50:24.61	72.85	32.94	-45.7	-49.3	14.5	0.00e+00	0	39	0	481296384	62	5594
2026-01-22 22:50:25.95	73.32	33.04	-46.0	-49.7	14.0	3.00e-06	0	39	0	483393536	62	5912
2026-01-22 22:50:26.67	73.57	33.10	-45.8	-49.5	14.3	1.50e-06	0	39	0	484442112	62	5751
2026-01-22 22:50:27.95	74.02	33.19	-45.9	-49.6	14.2	7.00e-07	0	39	0	486539264	62	5792
2026-01-22 22:50:28.69	74.28	33.25	-45.7	-49.4	14.4	0.00e+00	0	39	0	488636416	62	5657
2026-01-22 22:50:30.30	74.86	33.37	-46.1	-50.0	13.8	0.00e+00	0	39	0	491782144	62	6110
2026-01-22 22:50:30.88	75.06	33.41	-45.8	-49.5	14.3	3.80e-06	0	39	0	492830720	62	5776
2026-01-22 22:50:32.44	75.62	33.52	-45.5	-49.0	14.9	0.00e+00	0	39	0	495976448	62	5409
2026-01-22 22:50:33.08	75.86	33.57	-45.9	-49.6	14.2	0.00e+00	0	39	0	497025024	62	5798
2026-01-22 22:50:34.56	76.39	33.67	-46.6	-51.0	12.6	3.43e-05	0	39	0	499122176	64	6072
2026-01-22 22:50:35.27	76.65	33.72	-47.0	-51.8	11.8	1.77e-04	0	39	0	501219328	64	6696
2026-01-22 22:50:36.55	77.12	33.80	-47.6	-53.0	10.5	1.23e-03	0	39	0	503316480	65	7246
2026-01-22 22:50:37.26	77.38	33.85	-47.2	-52.2	11.4	1.76e-03	0	39	0	504365056	65	6572
2026-01-22 22:50:38.54	77.85	33.93	-46.9	-51.4	12.2	1.85e-04	0	39	0	506462208	65	6061
2026-01-22 22:50:39.26	78.12	33.98	-46.6	-50.9	12.7	1.36e-04	0	39	0	508559360	65	5670
2026-01-22 22:50:40.54	78.60	34.06	-46.6	-50.8	12.8	9.23e-05	0	39	0	510656512	64	5948
2026-01-22 22:50:41.26	78.87	34.10	-46.9	-51.4	12.2	1.35e-04	0	39	0	511705088	64	6412
2026-01-22 22:50:42.65	79.39	34.18	-47.1	-52.1	11.5	6.96e-04	0	39	0	514850816	65	6563
2026-01-22 22:50:43.36	79.65	34.22	-46.9	-51.5	12.1	2.21e-04	0	39	0	515899392	65	6126
2026-01-22 22:50:44.64	80.14	34.30	-46.0	-49.9	13.7	1.60e-05	0	39	0	517996544	64	5399
2026-01-22 22:50:45.35	80.41	34.34	-45.8	-49.5	14.3	2.20e-06	0	39	0	520093696	63	5426
2026-01-22 22:50:46.63	80.89	34.41	-45.8	-49.4	14.3	0.00e+00	0	39	0	522190848	63	5396
2026-01-22 22:50:47.37	81.17	34.45	-46.2	-50.3	13.5	7.00e-07	0	39	0	523239424	63	5945
2026-01-22 22:50:48.65	81.66	34.51	-46.6	-51.1	12.7	7.09e-05	0	39	0	526385152	63	6499
2026-01-22 22:50:49.38	81.94	34.55	-46.4	-50.7	12.9	8.31e-05	0	38	0	527433728	64	5908
2026-01-22 22:50:50.66	82.44	34.61	-45.7	-49.4	14.3	6.80e-06	0	39	0	529530880	63	5398
2026-01-22 22:50:51.37	82.71	34.65	-45.4	-49.0	14.9	7.00e-07	0	39	0	530579456	62	5410
2026-01-22 22:50:52.65	83.21	34.71	-45.4	-49.0	14.7	7.00e-07	0	39	0	533725184	62	5439
2026-01-22 22:50:53.48	83.53	34.74	-45.5	-49.2	14.6	0.00e+00	0	39	0	534773760	62	5534
2026-01-22 22:50:54.62	83.97	34.79	-45.4	-49.0	14.8	0.00e+00	0	39	0	536870912	62	5418
2026-01-22 22:50:55.48	84.31	34.83	-45.4	-49.0	14.7	0.00e+00	0	39	0	538968064	62	5430
2026-01-22 22:50:56.61	84.75	34.88	-45.4	-49.1	14.7	0.00e+00	0	39	0	541065216	62	5472
2026-01-22 22:50:57.47	85.09	34.91	-45.6	-49.4	14.4	7.00e-07	0	39	0	542113792	62	5680
2026-01-22 22:50:58.61	85.54	34.95	-45.9	-49.9	13.9	1.50e-06	0	39	0	544210944	62	6016
2026-01-22 22:50:59.46	85.87	34.99	-45.7	-49.5	14.2	2.20e-06	0	39	0	546308096	62	5759
2026-01-22 22:51:00.60	86.32	35.03	-45.9	-49.9	13.9	3.80e-06	0	39	0	548405248	62	6055
2026-01-22 22:51:01.45	86.66	35.05	-46.1	-50.3	13.5	3.80e-06	0	39	0	549453824	62	6319
2026-01-22 22:51:02.59	87.11	35.09	-46.4	-50.8	12.9	2.13e-05	0	39	0	551550976	63	6343
2026-01-22 22:51:03.44	87.45	35.12	-46.6	-51.3	12.4	9.30e-05	0	39	0	553648128	64	6293
2026-01-22 22:51:04.58	87.90	35.15	-46.5	-51.1	12.6	1.49e-04	0	39	0	555745280	64	6181
2026-01-22 22:51:05.44	88.25	35.17	-46.3	-50.6	13.0	8.62e-05	0	39	0	557842432	64	5831
2026-01-22 22:51:06.57	88.70	35.20	-46.1	-50.2	13.4	9.10e-06	0	39	0	559939584	64	5564
2026-01-22 22:51:07.43	89.04	35.23	-46.1	-50.2	13.5	1.06e-05	0	38	0	560988160	64	5573
2026-01-22 22:51:08.56	89.49	35.25	-46.3	-50.5	13.1	1.67e-05	0	39	0	563085312	64	5786
2026-01-22 22:51:09.41	89.84	35.27	-46.6	-51.1	12.7	3.73e-05	0	39	0	565182464	64	6172
2026-01-22 22:51:10.55	90.29	35.29	-46.4	-50.6	13.1	3.96e-05	0	39	0	567279616	64	5825
2026-01-22 22:51:11.40	90.64	35.31	-46.3	-50.5	13.2	4.11e-05	0	39	0	568328192	64	5732
2026-01-22 22:51:12.54	91.09	35.33	-46.4	-50.5	13.1	6.71e-05	0	38	0	570425344	64	5752
2026-01-22 22:51:13.39	91.44	35.34	-46.6	-51.1	12.6	3.20e-05	0	39	0	572522496	64	6139
2026-01-22 22:51:14.53	91.90	35.36	-47.1	-52.0	11.7	2.40e-04	0	39	0	574619648	64	6820
2026-01-22 22:51:15.38	92.24	35.37	-47.2	-52.3	11.3	8.54e-04	0	39	0	575668224	65	6693
2026-01-22 22:51:16.52	92.70	35.38	-47.6	-53.2	10.4	3.35e-03	0	39	0	577765376	65	7415
2026-01-22 22:51:17.37	93.05	35.39	-47.5	-53.1	10.6	3.34e-03	0	39	0	579862528	65	7301
2026-01-22 22:51:18.57	93.53	35.40	-47.2	-52.3	11.4	3.11e-03	0	39	0	581959680	65	6652
2026-01-22 22:51:19.42	93.88	35.41	-46.8	-51.4	12.2	7.06e-04	0	39	0	584056832	65	6058
2026-01-22 22:51:20.55	94.33	35.41	-46.0	-50.0	13.7	6.10e-06	0	39	0	586153984	64	5404
2026-01-22 22:51:21.41	94.68	35.41	-45.5	-49.0	14.8	1.50e-06	0	39	0	587202560	63	5132
2026-01-22 22:51:22.69	95.20	35.42	-45.2	-48.6	15.2	0.00e+00	0	39	0	589299712	62	5179
2026-01-22 22:51:23.42	95.50	35.42	-44.9	-48.0	15.7	0.00e+00	0	39	0	591396864	61	5133
2026-01-22 22:51:24.69	96.01	35.41	-45.0	-48.1	15.7	0.00e+00	0	39	0	593494016	61	5197
2026-01-22 22:51:25.42	96.31	35.41	-44.9	-48.1	15.7	0.00e+00	0	39	0	594542592	61	5166
2026-01-22 22:51:26.70	96.83	35.41	-45.4	-48.8	14.9	0.00e+00	0	39	0	597688320	61	5627
2026-01-22 22:51:27.46	97.13	35.40	-46.0	-49.8	14.1	7.00e-07	0	39	0	598736896	62	5966
2026-01-22 22:51:28.74	97.65	35.39	-47.1	-52.0	11.7	5.26e-05	0	39	0	600834048	64	6826
2026-01-22 22:51:29.48	97.95	35.38	-47.8	-53.6	10.0	1.63e-03	0	39	0	602931200	66	7325
2026-01-22 22:51:30.76	98.47	35.37	-47.4	-52.8	10.8	5.35e-03	0	39	0	605028352	66	6676
2026-01-22 22:51:31.49	98.76	35.36	-46.7	-51.1	12.5	8.28e-04	0	39	0	606076928	65	5825
2026-01-22 22:51:32.77	99.28	35.34	-45.7	-49.4	14.4	7.00e-07	0	39	0	608174080	63	5360
2026-01-22 22:51:33.61	99.62	35.33	-45.6	-49.2	14.5	0.00e+00	0	39	0	610271232	63	5272
2026-01-22 22:51:35.06	100.20	35.30	-45.6	-49.1	14.7	0.00e+00	0	39	0	613416960	62	5524
2026-01-22 22:51:35.77	100.49	35.29	-45.8	-49.3	14.5	0.00e+00	0	39	0	614465536	62	5635
2026-01-22 22:51:37.06	101.01	35.26	-45.3	-48.6	15.1	0.00e+00	0	39	0	616562688	62	5201
2026-01-22 22:51:37.77	101.29	35.25	-45.3	-48.6	15.3	0.00e+00	0	38	0	617611264	62	5211
2026-01-22 22:51:39.05	101.81	35.22	-46.0	-49.9	13.9	2.20e-06	0	39	0	620756992	62	6017
2026-01-22 22:51:39.78	102.10	35.20	-46.5	-50.9	12.8	1.98e-05	0	39	0	621805568	63	6390
2026-01-22 22:51:41.06	102.61	35.16	-47.6	-53.3	10.3	2.88e-03	0	39	0	623902720	65	7463
2026-01-22 22:51:41.87	102.93	35.14	-47.5	-52.8	10.8	4.89e-03	0	39	0	625999872	66	6682
2026-01-22 22:51:43.00	103.38	35.11	-47.2	-52.2	11.4	1.29e-03	0	39	0	628097024	66	6214
2026-01-22 22:51:43.85	103.72	35.08	-46.5	-50.6	12.9	9.84e-05	0	39	0	629145600	65	5525
2026-01-22 22:51:44.99	104.17	35.04	-46.3	-50.2	13.5	1.22e-05	0	39	0	631242752	64	5548
2026-01-22 22:51:45.84	104.51	35.01	-46.6	-50.8	13.0	1.29e-05	0	39	0	633339904	64	5940
2026-01-22 22:51:46.98	104.96	34.97	-47.1	-51.8	11.8	3.94e-04	0	39	0	635437056	64	6720
2026-01-22 22:51:47.83	105.30	34.94	-46.9	-51.4	12.2	6.10e-04	0	39	0	636485632	65	6038
2026-01-22 22:51:48.97	105.74	34.90	-46.2	-50.2	13.5	3.81e-05	0	39	0	638582784	64	5538
2026-01-22 22:51:49.82	106.08	34.86	-46.0	-49.6	14.1	3.00e-06	0	39	0	640679936	63	5484
2026-01-22 22:51:51.07	106.57	34.81	-46.7	-51.0	12.6	5.79e-05	0	39	0	642777088	64	6120
2026-01-22 22:51:51.92	106.90	34.77	-47.2	-52.1	11.5	1.94e-04	0	39	0	644874240	65	6564
2026-01-22 22:51:53.09	107.36	34.72	-46.8	-51.4	12.2	6.97e-04	0	39	0	646971392	65	6039
2026-01-22 22:51:53.94	107.69	34.68	-46.4	-50.5	13.1	1.18e-04	0	39	0	648019968	64	5782
2026-01-22 22:51:55.08	108.13	34.63	-46.2	-50.1	13.6	3.00e-06	0	39	0	650117120	64	5497
2026-01-22 22:51:55.93	108.46	34.59	-46.4	-50.5	13.3	2.51e-05	0	39	0	652214272	64	5769
2026-01-22 22:51:57.07	108.89	34.53	-47.2	-52.1	11.4	3.86e-04	0	39	0	654311424	65	6564
2026-01-22 22:51:57.93	109.22	34.48	-47.5	-53.0	10.7	1.22e-03	0	39	0	655360000	65	7223
2026-01-22 22:51:59.06	109.66	34.43	-47.0	-51.7	11.9	1.71e-03	0	39	0	657457152	65	6245
2026-01-22 22:51:59.92	109.98	34.38	-46.8	-51.3	12.3	2.12e-04	0	39	0	659554304	65	5939
2026-01-22 22:52:01.05	110.41	34.32	-46.5	-50.7	13.0	6.10e-05	0	39	0	661651456	64	5870
2026-01-22 22:52:02.09	110.81	34.26	-46.5	-50.6	13.1	2.67e-05	0	39	0	663748608	64	5845
2026-01-22 22:52:03.21	111.23	34.19	-46.5	-50.6	13.0	8.31e-05	0	39	0	665845760	64	5845
2026-01-22 22:52:04.07	111.55	34.14	-46.5	-50.5	13.2	3.43e-05	0	39	0	666894336	64	5769
2026-01-22 22:52:05.46	112.08	34.06	-45.5	-48.9	14.9	7.00e-07	0	39	0	670040064	62	5353
2026-01-22 22:52:06.17	112.34	34.01	-45.0	-48.2	15.5	0.00e+00	0	39	0	671088640	62	4981
2026-01-22 22:52:07.45	112.82	33.93	-44.9	-48.0	15.7	0.00e+00	0	39	0	673185792	61	5145
2026-01-22 22:52:08.16	113.08	33.89	-44.9	-48.1	15.6	0.00e+00	0	39	0	675282944	61	5171
2026-01-22 22:52:09.43	113.55	33.80	-44.8	-48.0	15.8	0.00e+00	0	39	0	677380096	61	5121
2026-01-22 22:52:10.16	113.82	33.76	-44.7	-47.8	16.1	0.00e+00	0	39	0	678428672	61	4989
2026-01-22 22:52:11.44	114.28	33.67	-44.1	-46.9	16.7	0.00e+00	0	39	0	681574400	60	4794
2026-01-22 22:52:12.16	114.55	33.62	-43.9	-46.6	17.0	0.00e+00	0	39	0	682622976	59	4900
2026-01-22 22:52:13.44	115.01	33.53	-44.8	-47.9	15.8	0.00e+00	0	39	0	684720128	60	5402
2026-01-22 22:52:14.15	115.27	33.48	-45.2	-48.6	15.1	0.00e+00	0	39	0	685768704	61	5465
2026-01-22 22:52:15.43	115.73	33.39	-45.1	-48.4	15.3	0.00e+00	0	39	0	688914432	61	5394
2026-01-22 22:52:16.16	115.99	33.33	-44.8	-48.0	15.8	0.00e+00	0	39	0	689963008	61	5105
2026-01-22 22:52:17.44	116.45	33.24	-44.5	-47.5	16.1	0.00e+00	0	39	0	692060160	61	4867
2026-01-22 22:52:18.16	116.70	33.18	-44.6	-47.6	16.0	0.00e+00	0	39	0	694157312	60	5196
2026-01-22 22:52:19.44	117.15	33.09	-45.0	-48.1	15.6	0.00e+00	0	39	0	696254464	60	5520
2026-01-22 22:52:20.15	117.40	33.03	-45.3	-48.6	15.3	0.00e+00	0	39	0	697303040	61	5499
2026-01-22 22:52:21.60	117.91	32.92	-45.3	-48.8	14.9	1.50e-06	0	39	0	700448768	61	5597
2026-01-22 22:52:22.32	118.16	32.86	-45.1	-48.4	15.3	0.00e+00	0	39	0	701497344	61	5366
2026-01-22 22:52:23.60	118.61	32.76	-43.9	-46.6	17.0	0.00e+00	0	39	0	703594496	59	4915
2026-01-22 22:52:24.31	118.85	32.70	-43.5	-46.1	17.5	0.00e+00	0	39	0	705691648	58	4909
2026-01-22 22:52:25.82	119.37	32.58	-43.7	-46.3	17.3	0.00e+00	0	39	0	707788800	58	5041
2026-01-22 22:52:26.53	119.61	32.52	-44.1	-46.8	16.9	0.00e+00	0	39	0	709885952	58	5313
2026-01-22 22:52:27.81	120.05	32.41	-44.2	-47.1	16.5	0.00e+00	0	39	0	711983104	59	5164
2026-01-22 22:52:28.54	120.29	32.35	-44.1	-46.9	16.8	0.00e+00	0	39	0	713031680	59	5054
2026-01-22 22:52:29.81	120.72	32.24	-43.9	-46.6	17.0	0.00e+00	0	39	0	715128832	59	4920
2026-01-22 22:52:30.54	120.96	32.18	-43.9	-46.6	17.1	0.00e+00	0	39	0	717225984	59	4902
2026-01-22 22:52:31.82	121.39	32.06	-45.0	-48.4	15.4	0.00e+00	0	39	0	719323136	60	5663
2026-01-22 22:52:32.54	121.63	32.00	-45.2	-48.8	14.9	0.00e+00	0	39	0	720371712	61	5609
2026-01-22 22:52:33.82	122.05	31.89	-45.2	-48.7	15.1	0.00e+00	0	39	0	723517440	61	5534
2026-01-22 22:52:34.55	122.29	31.82	-44.8	-48.2	15.5	7.00e-07	0	39	0	724566016	61	5224
2026-01-22 22:52:35.83	122.70	31.71	-43.1	-45.6	18.0	0.00e+00	0	39	0	726663168	58	4601
2026-01-22 22:52:36.57	122.94	31.64	-42.5	-44.8	18.7	0.00e+00	0	39	0	728760320	57	4466
2026-01-22 22:52:37.85	123.35	31.52	-42.5	-44.9	18.7	0.00e+00	0	39	0	730857472	56	4760
2026-01-22 22:52:38.58	123.59	31.45	-43.1	-45.6	18.0	0.00e+00	0	39	0	731906048	56	5160
2026-01-22 22:52:39.85	123.99	31.33	-44.0	-46.7	16.9	0.00e+00	0	39	0	734003200	58	5261
2026-01-22 22:52:40.58	124.22	31.27	-44.2	-47.1	16.5	0.00e+00	0	39	0	736100352	59	5166
2026-01-22 22:52:41.86	124.63	31.15	-43.2	-45.7	17.8	0.00e+00	0	39	0	738197504	58	4688
2026-01-22 22:52:42.57	124.85	31.08	-42.7	-45.1	18.4	0.00e+00	0	39	0	739246080	57	4614
2026-01-22 22:52:43.85	125.25	30.96	-42.2	-44.5	19.0	0.00e+00	0	38	0	742391808	56	4582
2026-01-22 22:52:44.57	125.47	30.89	-42.8	-45.2	18.3	0.00e+00	0	39	0	743440384	56	4957
2026-01-22 22:52:45.86	125.86	30.76	-43.3	-45.9	17.7	0.00e+00	0	39	0	745537536	57	5090
2026-01-22 22:52:46.57	126.08	30.69	-43.8	-46.5	17.0	0.00e+00	0	38	0	746586112	58	5147
2026-01-22 22:52:47.85	126.47	30.57	-43.2	-45.8	17.7	0.00e+00	0	39	0	749731840	58	4742
2026-01-22 22:52:48.57	126.69	30.50	-42.7	-45.2	18.3	0.00e+00	0	39	0	750780416	57	4663
2026-01-22 22:52:50.03	127.13	30.35	-41.8	-44.1	19.2	0.00e+00	0	39	0	753926144	55	4599
2026-01-22 22:52:50.74	127.34	30.28	-41.8	-44.1	19.2	0.00e+00	0	39	0	754974720	55	4605
2026-01-22 22:52:52.02	127.72	30.15	-42.6	-45.1	18.3	0.00e+00	0	39	0	757071872	55	5168
2026-01-22 22:52:52.73	127.93	30.08	-43.4	-46.0	17.6	0.00e+00	0	39	0	758120448	57	5115
2026-01-22 22:52:54.13	128.33	29.94	-43.8	-46.6	17.0	0.00e+00	0	39	0	761266176	59	4909
2026-01-22 22:52:54.84	128.54	29.87	-43.1	-45.7	17.9	0.00e+00	0	39	0	762314752	58	4674
2026-01-22 22:52:56.12	128.91	29.74	-42.0	-44.3	19.1	0.00e+00	0	38	0	764411904	56	4472
2026-01-22 22:52:57.18	129.21	29.63	-41.8	-44.1	19.2	0.00e+00	0	39	0	766509056	55	4616
2026-01-22 22:52:58.33	129.54	29.51	-43.0	-45.5	18.1	0.00e+00	0	39	0	768606208	56	5109
2026-01-22 22:52:59.18	129.78	29.42	-43.6	-46.4	17.3	0.00e+00	0	38	0	770703360	57	5342
2026-01-22 22:53:00.32	130.10	29.30	-44.3	-47.3	16.3	0.00e+00	0	39	0	772800512	59	5334
2026-01-22 22:53:01.17	130.34	29.22	-43.7	-46.6	17.0	0.00e+00	0	39	0	774897664	59	4903
2026-01-22 22:53:02.31	130.66	29.10	-43.0	-45.6	18.0	0.00e+00	0	39	0	776994816	57	4889
2026-01-22 22:53:03.16	130.89	29.01	-42.6	-45.1	18.4	0.00e+00	0	39	0	778043392	57	4607
2026-01-22 22:53:04.30	131.20	28.89	-42.5	-44.9	18.6	0.00e+00	0	39	0	780140544	56	4781
2026-01-22 22:53:05.15	131.44	28.80	-43.0	-45.5	18.0	0.00e+00	0	39	0	782237696	56	5132
2026-01-22 22:53:06.29	131.75	28.68	-44.1	-47.0	16.6	0.00e+00	0	39	0	784334848	58	5419
2026-01-22 22:53:07.14	131.97	28.59	-44.3	-47.2	16.4	0.00e+00	0	39	0	785383424	59	5275
2026-01-22 22:53:08.28	132.28	28.47	-44.0	-46.8	16.8	0.00e+00	0	38	0	787480576	59	5031
2026-01-22 22:53:09.13	132.50	28.38	-43.4	-46.0	17.5	0.00e+00	0	39	0	789577728	58	4864
2026-01-22 22:53:10.27	132.81	28.26	-43.3	-45.9	17.6	0.00e+00	0	39	0	791674880	58	4771
2026-01-22 22:53:11.13	133.03	28.16	-43.0	-45.4	18.1	0.00e+00	0	39	0	792723456	57	4791
2026-01-22 22:53:12.66	133.43	28.00	-43.0	-45.5	18.0	0.00e+00	0	39	0	795869184	57	4848
2026-01-22 22:53:13.37	133.61	27.92	-43.2	-45.8	17.7	0.00e+00	0	39	0	796917760	57	5001
2026-01-22 22:53:14.65	133.94	27.79	-43.2	-45.7	17.8	0.00e+00	0	39	0	800063488	57	4941
2026-01-22 22:53:15.37	134.12	27.71	-42.6	-44.9	18.6	0.00e+00	0	38	0	801112064	57	4537
2026-01-22 22:53:16.65	134.45	27.57	-41.1	-43.2	20.0	0.00e+00	0	39	0	803209216	54	4419
2026-01-22 22:53:17.36	134.63	27.50	-41.0	-43.0	20.1	0.00e+00	0	39	0	804257792	53	4587
2026-01-22 22:53:18.64	134.95	27.36	-41.6	-43.8	19.4	0.00e+00	0	39	0	807403520	53	5000
2026-01-22 22:53:19.53	135.17	27.26	-42.7	-45.2	18.3	0.00e+00	0	39	0	808452096	55	5234
2026-01-22 22:53:20.66	135.45	27.14	-43.8	-46.5	17.1	0.00e+00	0	38	0	810549248	58	5129
2026-01-22 22:53:21.70	135.70	27.03	-44.1	-47.0	16.7	0.00e+00	0	39	0	812646400	58	5417
2026-01-22 22:53:22.65	135.93	26.92	-43.6	-46.3	17.2	0.00e+00	0	39	0	814743552	58	5021
2026-01-22 22:53:23.91	136.23	26.78	-42.7	-45.1	18.4	0.00e+00	0	38	0	816840704	57	4621
2026-01-22 22:53:24.73	136.43	26.70	-42.4	-44.8	18.7	0.00e+00	0	38	0	818937856	56	4719
2026-01-22 22:53:26.11	136.76	26.55	-42.4	-44.8	18.7	0.00e+00	0	39	0	821035008	56	4740
2026-01-22 22:53:26.82	136.93	26.47	-42.9	-45.4	18.2	0.00e+00	0	39	0	822083584	56	5073
2026-01-22 22:53:28.10	137.23	26.33	-42.8	-45.3	18.2	0.00e+00	0	39	0	825229312	57	4728
2026-01-22 22:53:28.81	137.39	26.25	-42.6	-45.1	18.4	0.00e+00	0	39	0	826277888	57	4617
2026-01-22 22:53:30.09	137.69	26.11	-42.4	-44.7	18.7	0.00e+00	0	39	0	828375040	56	4684
2026-01-22 22:53:30.80	137.85	26.03	-41.8	-44.1	19.1	0.00e+00	0	39	0	829423616	55	4635
2026-01-22 22:53:32.08	138.14	25.89	-41.1	-43.3	19.9	0.00e+00	0	39	0	832569344	54	4447
2026-01-22 22:53:32.87	138.32	25.81	-41.0	-43.1	20.0	0.00e+00	0	39	0	833617920	53	4645
2026-01-22 22:53:34.09	138.60	25.67	-41.2	-43.3	19.9	0.00e+00	0	39	0	835715072	53	4741
2026-01-22 22:53:34.94	138.79	25.58	-41.5	-43.6	19.5	0.00e+00	0	39	0	837812224	53	4912
2026-01-22 22:53:36.08	139.04	25.46	-41.9	-44.1	19.1	0.00e+00	0	39	0	839909376	54	4909
2026-01-22 22:53:36.93	139.23	25.36	-42.2	-44.5	18.8	0.00e+00	0	38	0	840957952	54	5121
2026-01-22 22:53:38.07	139.48	25.24	-42.5	-44.9	18.5	0.00e+00	0	39	0	844103680	55	5049
2026-01-22 22:53:38.92	139.66	25.15	-42.4	-44.8	18.6	0.00e+00	0	39	0	845152256	55	4987
2026-01-22 22:53:40.06	139.91	25.02	-41.9	-44.2	19.0	0.00e+00	0	39	0	847249408	55	4680
2026-01-22 22:53:40.92	140.10	24.93	-42.1	-44.4	18.9	0.00e+00	0	39	0	849346560	55	4810
2026-01-22 22:53:42.05	140.34	24.80	-42.2	-44.5	18.8	0.00e+00	0	39	0	851443712	55	4867
2026-01-22 22:53:43.24	140.59	24.67	-42.2	-44.5	18.7	0.00e+00	0	39	0	853540864	55	4854
2026-01-22 22:53:44.09	140.77	24.58	-42.4	-44.8	18.5	0.00e+00	0	39	0	854589440	55	5008
2026-01-22 22:53:45.56	141.07	24.42	-42.5	-44.8	18.4	0.00e+00	0	38	0	857735168	55	5033
2026-01-22 22:53:46.27	141.22	24.34	-42.4	-44.7	18.5	0.00e+00	0	39	0	858783744	55	4981
2026-01-22 22:53:47.55	141.48	24.20	-41.8	-44.1	19.1	0.00e+00	0	39	0	860880896	55	4621
2026-01-22 22:53:48.26	141.63	24.13	-41.4	-43.6	19.6	0.00e+00	0	39	0	862978048	54	4613
2026-01-22 22:53:49.54	141.89	23.99	-41.0	-43.1	20.0	0.00e+00	0	39	0	865075200	54	4360
2026-01-22 22:53:50.25	142.03	23.91	-40.7	-42.8	20.2	0.00e+00	0	39	0	866123776	53	4477
2026-01-22 22:53:51.53	142.29	23.77	-40.7	-42.8	20.3	0.00e+00	0	39	0	869269504	53	4467
2026-01-22 22:53:52.26	142.43	23.69	-40.5	-42.6	20.4	0.00e+00	0	38	0	870318080	52	4632
2026-01-22 22:53:53.54	142.69	23.55	-40.8	-43.0	20.1	0.00e+00	0	39	0	872415232	52	4834
2026-01-22 22:53:54.25	142.83	23.48	-41.0	-43.2	19.9	0.00e+00	0	39	0	873463808	52	4934
2026-01-22 22:53:55.53	143.08	23.34	-41.5	-43.8	19.4	0.00e+00	0	39	0	876609536	53	5002
2026-01-22 22:53:56.27	143.22	23.26	-41.5	-43.8	19.4	0.00e+00	0	38	0	877658112	53	4999
2026-01-22 22:53:57.55	143.46	23.12	-41.5	-43.7	19.4	0.00e+00	0	39	0	879755264	53	4972
2026-01-22 22:53:58.26	143.60	23.05	-41.3	-43.5	19.6	0.00e+00	0	39	0	881852416	53	4828
2026-01-22 22:53:59.60	143.85	22.90	-41.0	-43.2	19.9	0.00e+00	0	38	0	883949568	53	4654
2026-01-22 22:54:00.31	143.99	22.82	-40.9	-43.0	20.1	0.00e+00	0	39	0	884998144	53	4579
2026-01-22 22:54:01.66	144.24	22.68	-40.7	-42.8	20.3	0.00e+00	0	39	0	888143872	53	4450
2026-01-22 22:54:02.37	144.37	22.60	-40.8	-42.8	20.2	0.00e+00	0	39	0	889192448	53	4491
2026-01-22 22:54:03.71	144.62	22.46	-41.0	-43.1	20.0	0.00e+00	0	39	0	891289600	53	4616
2026-01-22 22:54:04.42	144.75	22.38	-41.2	-43.4	19.7	0.00e+00	0	39	0	893386752	53	4769
2026-01-22 22:54:05.71	144.98	22.25	-41.4	-43.6	19.5	0.00e+00	0	39	0	895483904	53	4904
2026-01-22 22:54:06.43	145.11	22.17	-41.4	-43.6	19.5	0.00e+00	0	39	0	896532480	53	4916
2026-01-22 22:54:07.71	145.34	22.03	-41.5	-43.8	19.3	0.00e+00	0	39	0	898629632	53	5031
2026-01-22 22:54:08.42	145.47	21.96	-41.6	-43.9	19.2	0.00e+00	0	39	0	900726784	53	5083
2026-01-22 22:54:09.70	145.70	21.82	-41.3	-43.6	19.5	0.00e+00	0	39	0	902823936	53	4899
2026-01-22 22:54:10.42	145.82	21.75	-41.3	-43.6	19.1	0.00e+00	0	39	0	903872512	53	4884
2026-01-22 22:54:11.70	146.05	21.61	-41.1	-43.3	19.7	0.00e+00	0	39	0	907018240	53	4752
2026-01-22 22:54:12.43	146.18	21.53	-41.0	-43.3	19.8	0.00e+00	0	39	0	908066816	53	4733
2026-01-22 22:54:13.71	146.40	21.40	-41.2	-43.5	19.6	0.00e+00	0	38	0	910163968	53	4821
2026-01-22 22:54:14.47	146.53	21.32	-41.0	-43.2	19.8	0.00e+00	0	39	0	912261120	53	4682
2026-01-22 22:54:15.74	146.74	21.19	-41.1	-43.3	19.8	0.00e+00	0	39	0	914358272	53	4712
2026-01-22 22:54:16.49	146.87	21.11	-41.3	-43.6	19.5	0.00e+00	0	39	0	915406848	53	4894
2026-01-22 22:54:17.77	147.08	20.97	-41.3	-43.5	19.6	0.00e+00	0	39	0	917504000	53	4865
2026-01-22 22:54:18.49	147.20	20.90	-41.3	-43.6	19.5	0.00e+00	0	39	0	919601152	53	4883
2026-01-22 22:54:19.77	147.42	20.77	-41.5	-43.7	19.3	0.00e+00	0	39	0	921698304	53	4979
2026-01-22 22:54:20.48	147.53	20.69	-41.5	-43.8	19.3	0.00e+00	0	39	0	922746880	53	4992
2026-01-22 22:54:21.76	147.74	20.56	-41.5	-43.8	19.3	0.00e+00	0	38	0	925892608	53	5018
2026-01-22 22:54:22.65	147.89	20.47	-41.5	-43.8	19.3	0.00e+00	0	39	0	926941184	53	5010
2026-01-22 22:54:24.08	148.12	20.32	-41.5	-43.8	19.4	0.00e+00	0	39	0	930086912	53	5005
2026-01-22 22:54:24.79	148.23	20.25	-41.5	-43.7	19.4	0.00e+00	0	39	0	931135488	53	4979
2026-01-22 22:54:26.28	148.47	20.09	-41.3	-43.5	19.5	0.00e+00	0	39	0	934281216	53	4856
2026-01-22 22:54:26.99	148.58	20.02	-41.5	-43.7	19.4	0.00e+00	0	39	0	935329792	53	4978
2026-01-22 22:54:28.27	148.78	19.89	-41.3	-43.5	19.5	0.00e+00	0	38	0	937426944	53	4862
2026-01-22 22:54:29.00	148.90	19.81	-41.4	-43.6	19.5	0.00e+00	0	39	0	939524096	53	4881
2026-01-22 22:54:30.28	149.09	19.68	-41.5	-43.8	19.3	0.00e+00	0	39	0	941621248	54	4709
2026-01-22 22:54:30.99	149.20	19.61	-41.5	-43.7	19.4	0.00e+00	0	38	0	942669824	54	4667
2026-01-22 22:54:32.27	149.40	19.48	-41.9	-44.2	18.9	0.00e+00	0	39	0	944766976	54	4930
2026-01-22 22:54:32.98	149.51	19.41	-41.9	-44.3	18.9	0.00e+00	0	39	0	946864128	54	4987
2026-01-22 22:54:34.26	149.70	19.28	-42.2	-44.6	18.6	0.00e+00	0	39	0	948961280	55	4895
2026-01-22 22:54:34.97	149.81	19.21	-42.6	-45.1	18.1	0.00e+00	0	39	0	950009856	55	5163
2026-01-22 22:54:36.25	150.00	19.08	-42.6	-45.1	18.1	0.00e+00	0	38	0	952107008	55	5212
2026-01-22 22:54:37.05	150.12	19.00	-42.9	-45.4	18.0	0.00e+00	0	39	0	954204160	56	5057
2026-01-22 22:54:38.51	150.33	18.85	-43.0	-45.5	17.9	0.00e+00	0	39	0	957349888	57	4850
2026-01-22 22:54:39.22	150.43	18.78	-42.9	-45.4	17.9	0.00e+00	0	39	0	958398464	57	4810
2026-01-22 22:54:40.50	150.62	18.65	-43.3	-46.0	17.4	0.00e+00	0	39	0	960495616	57	5114
2026-01-22 22:54:41.22	150.72	18.58	-43.1	-45.7	17.7	0.00e+00	0	39	0	961544192	57	4965
2026-01-22 22:54:42.51	150.91	18.45	-43.1	-45.6	17.7	0.00e+00	0	38	0	964689920	57	4915
2026-01-22 22:54:43.22	151.01	18.38	-43.2	-45.8	17.6	0.00e+00	0	38	0	965738496	57	5025
2026-01-22 22:54:44.81	151.23	18.23	-43.3	-45.9	17.5	0.00e+00	0	39	0	968884224	57	5069
2026-01-22 22:54:45.38	151.31	18.17	-43.4	-46.0	17.3	0.00e+00	0	39	0	969932800	57	5131
2026-01-22 22:54:47.09	151.55	18.00	-43.8	-46.6	16.8	0.00e+00	0	39	0	973078528	58	5215
2026-01-22 22:54:47.66	151.63	17.94	-44.0	-47.0	16.5	0.00e+00	0	39	0	974127104	58	5429
2026-01-22 22:54:49.36	151.86	17.78	-44.0	-46.9	16.5	0.00e+00	0	39	0	977272832	59	5095
2026-01-22 22:54:49.93	151.94	17.72	-43.8	-46.7	16.7	0.00e+00	0	39	0	978321408	59	4949
2026-01-22 22:54:51.63	152.17	17.56	-43.4	-46.2	17.2	0.00e+00	0	38	0	981467136	58	4929
2026-01-22 22:54:52.31	152.26	17.49	-43.4	-46.1	17.3	0.00e+00	0	38	0	982515712	58	4878
2026-01-22 22:54:53.74	152.45	17.35	-43.2	-45.8	17.6	0.00e+00	0	39	0	985661440	58	4737
2026-01-22 22:54:54.45	152.55	17.28	-42.8	-45.4	18.0	0.00e+00	0	39	0	986710016	57	4779
2026-01-22 22:54:55.72	152.71	17.16	-42.7	-45.1	18.2	0.00e+00	0	39	0	988807168	57	4641
2026-01-22 22:54:56.58	152.83	17.08	-42.5	-44.9	18.4	0.00e+00	0	39	0	990904320	56	4773
2026-01-22 22:54:57.71	152.97	16.97	-42.5	-44.9	18.4	0.00e+00	0	39	0	993001472	56	4799
2026-01-22 22:54:58.57	153.08	16.89	-42.5	-45.0	18.4	0.00e+00	0	38	0	994050048	56	4839
2026-01-22 22:54:59.70	153.23	16.78	-42.7	-45.2	18.2	0.00e+00	0	39	0	996147200	56	4939
2026-01-22 22:55:00.81	153.37	16.68	-43.0	-45.6	17.8	0.00e+00	0	38	0	998244352	56	5186
2026-01-22 22:55:01.66	153.48	16.60	-43.1	-45.8	17.6	0.00e+00	0	38	0	1000341504	56	5281
2026-01-22 22:55:02.80	153.62	16.49	-43.3	-46.0	17.4	0.00e+00	0	39	0	1002438656	57	5102
2026-01-22 22:55:03.65	153.73	16.41	-43.2	-45.8	17.5	0.00e+00	0	39	0	1003487232	57	5005
2026-01-22 22:55:04.79	153.87	16.30	-43.0	-45.6	17.6	0.00e+00	0	39	0	1006632960	57	4924
2026-01-22 22:55:05.64	153.98	16.22	-43.2	-45.8	17.5	0.00e+00	0	39	0	1007681536	57	5032
2026-01-22 22:55:06.77	154.12	16.12	-43.0	-45.6	17.7	0.00e+00	0	39	0	1009778688	57	4890
2026-01-22 22:55:07.63	154.22	16.03	-42.9	-45.4	17.9	0.00e+00	0	39	0	1011875840	57	4800
2026-01-22 22:55:08.76	154.36	15.93	-42.9	-45.5	17.9	0.00e+00	0	38	0	1013972992	57	4815
2026-01-22 22:55:09.61	154.46	15.85	-42.8	-45.4	18.0	0.00e+00	0	39	0	1015021568	57	4779
2026-01-22 22:55:10.75	154.60	15.74	-42.9	-45.6	17.8	0.00e+00	0	38	0	1017118720	57	4876
2026-01-22 22:55:11.68	154.71	15.66	-42.7	-45.3	18.0	0.00e+00	0	38	0	1019215872	57	4740
2026-01-22 22:55:12.85	154.85	15.55	-42.7	-45.2	18.1	0.00e+00	0	38	0	1021313024	57	4689
2026-01-22 22:55:13.73	154.95	15.47	-42.7	-45.3	18.0	0.00e+00	0	39	0	1023410176	57	4745
2026-01-22 22:55:14.87	155.09	15.37	-42.8	-45.4	17.9	0.00e+00	0	39	0	1025507328	57	4810
2026-01-22 22:55:15.78	155.19	15.28	-42.8	-45.4	17.9	0.00e+00	0	39	0	1026555904	57	4804
2026-01-22 22:55:16.97	155.33	15.17	-42.9	-45.5	17.8	0.00e+00	0	39	0	1028653056	57	4843
2026-01-22 22:55:17.82	155.43	15.10	-42.9	-45.6	17.7	0.00e+00	0	38	0	1030750208	57	4883
2026-01-22 22:55:18.96	155.56	14.99	-42.9	-45.6	17.7	0.00e+00	0	39	0	1032847360	57	4884
2026-01-22 22:55:19.81	155.65	14.92	-42.9	-45.6	17.8	0.00e+00	0	39	0	1033895936	57	4871
2026-01-22 22:55:20.95	155.78	14.81	-43.0	-45.7	17.6	0.00e+00	0	39	0	1035993088	57	4938
2026-01-22 22:55:21.80	155.88	14.74	-43.0	-45.7	17.6	0.00e+00	0	39	0	1038090240	57	4959
2026-01-22 22:55:22.94	156.01	14.63	-42.9	-45.6	17.7	0.00e+00	0	39	0	1040187392	57	4875
2026-01-22 22:55:23.79	156.10	14.56	-42.7	-45.4	17.9	0.00e+00	0	39	0	1042284544	57	4768
2026-01-22 22:55:24.93	156.23	14.46	-42.6	-45.1	18.1	0.00e+00	0	38	0	1044381696	57	4641
2026-01-22 22:55:25.78	156.32	14.38	-42.7	-45.2	18.0	0.00e+00	0	39	0	1045430272	57	4703
2026-01-22 22:55:26.98	156.45	14.27	-42.8	-45.4	17.9	0.00e+00	0	39	0	1047527424	57	4777
2026-01-22 22:55:27.83	156.54	14.20	-42.6	-45.2	18.1	0.00e+00	0	39	0	1049624576	57	4657
2026-01-22 22:55:28.97	156.67	14.10	-42.7	-45.3	18.0	0.00e+00	0	39	0	1051721728	57	4725
2026-01-22 22:55:29.82	156.76	14.02	-42.8	-45.3	17.9	0.00e+00	0	39	0	1052770304	57	4756
2026-01-22 22:55:30.96	156.88	13.92	-43.0	-45.6	16.6	0.00e+00	0	39	0	1054867456	57	4909
2026-01-22 22:55:31.81	156.97	13.85	-43.1	-45.7	17.6	0.00e+00	0	39	0	1056964608	57	4970
2026-01-22 22:55:32.95	157.09	13.75	-43.2	-45.8	17.5	0.00e+00	0	38	0	1059061760	57	4990
2026-01-22 22:55:33.80	157.18	13.67	-43.4	-46.0	17.3	0.00e+00	0	39	0	1060110336	57	5153
2026-01-22 22:55:34.94	157.30	13.57	-43.7	-46.5	16.8	0.00e+00	0	39	0	1062207488	58	5140
2026-01-22 22:55:35.79	157.39	13.50	-43.8	-46.6	16.7	0.00e+00	0	39	0	1064304640	58	5203
2026-01-22 22:55:36.93	157.50	13.40	-44.1	-47.0	16.4	0.00e+00	0	39	0	1066401792	58	5443
2026-01-22 22:55:37.78	157.59	13.33	-44.2	-47.2	16.1	0.00e+00	0	38	0	1068498944	59	5278
2026-01-22 22:55:38.92	157.71	13.23	-44.5	-47.6	15.8	0.00e+00	0	39	0	1070596096	59	5487
2026-01-22 22:55:39.77	157.79	13.16	-44.5	-47.7	15.7	8.53e-03	0	39	0	1071644672	60	5231
2026-01-22 22:55:40.91	157.91	13.06	-44.6	-47.8	15.5	0.00e+00	0	39	0	1073741824	60	5310
2026-01-22 22:55:41.76	158.00	12.99	-44.5	-47.8	15.6	0.00e+00	0	38	0	1075838976	60	5296
2026-01-22 22:55:43.01	158.12	12.88	-44.6	-47.9	15.5	4.06e-03	0	38	0	1077936128	60	5367
2026-01-22 22:55:43.86	158.20	12.81	-44.3	-47.5	15.9	0.00e+00	0	39	0	1078984704	60	5120
2026-01-22 22:55:45.00	158.32	12.71	-44.4	-47.6	15.7	0.00e+00	0	39	0	1081081856	60	5183
2026-01-22 22:55:45.85	158.40	12.64	-44.3	-47.4	15.9	2.83e-03	0	39	0	1083179008	60	5071
2026-01-22 22:55:47.11	158.52	12.53	-43.9	-46.9	16.4	0.00e+00	0	39	0	1085276160	60	4797
2026-01-22 22:55:47.91	158.60	12.47	-44.0	-46.9	16.4	0.00e+00	0	39	0	1087373312	59	5057
2026-01-22 22:55:49.05	158.71	12.37	-43.7	-46.6	16.7	0.00e+00	0	39	0	1089470464	59	4878
2026-01-22 22:55:49.90	158.79	12.30	-43.5	-46.3	17.0	0.00e+00	0	38	0	1090519040	59	4725
2026-01-22 22:55:51.04	158.90	12.20	-43.4	-46.2	17.1	0.00e+00	0	39	0	1092616192	58	4929
2026-01-22 22:55:51.89	158.98	12.13	-43.3	-46.0	17.3	5.04e-03	0	38	0	1094713344	58	4825
2026-01-22 22:55:53.03	159.09	12.04	-43.3	-46.0	17.3	0.00e+00	0	39	0	1096810496	58	4823
2026-01-22 22:55:53.88	159.17	11.97	-43.2	-45.9	17.3	0.00e+00	0	39	0	1097859072	58	4799
2026-01-22 22:55:55.02	159.28	11.87	-43.2	-45.9	17.3	0.00e+00	0	39	0	1099956224	58	4770
2026-01-22 22:55:55.87	159.35	11.80	-43.2	-45.8	17.4	0.00e+00	0	39	0	1102053376	58	4754
2026-01-22 22:55:57.09	159.47	11.70	-43.0	-45.6	17.6	0.00e+00	0	39	0	1104150528	58	4634
2026-01-22 22:55:57.94	159.54	11.63	-42.9	-45.5	17.6	0.00e+00	0	39	0	1106247680	57	4867
2026-01-22 22:55:59.08	159.65	11.54	-43.0	-45.7	17.5	0.00e+00	0	38	0	1108344832	57	4932
2026-01-22 22:55:59.98	159.73	11.47	-42.9	-45.4	17.7	7.78e-04	0	39	0	1109393408	57	4812
2026-01-22 22:56:01.10	159.83	11.38	-43.1	-45.8	17.4	0.00e+00	0	38	0	1111490560	57	4991
2026-01-22 22:56:02.05	159.92	11.30	-43.2	-45.9	17.3	0.00e+00	0	39	0	1113587712	57	5060
2026-01-22 22:56:03.04	160.01	11.22	-43.2	-45.9	17.3	7.00e-07	0	39	0	1115684864	57	5058
2026-01-22 22:56:04.04	160.10	11.14	-43.2	-45.9	17.3	0.00e+00	0	39	0	1116733440	57	5057
2026-01-22 22:56:05.03	160.18	11.06	-43.2	-45.9	17.3	0.00e+00	0	39	0	1118830592	57	5066
2026-01-22 22:56:06.03	160.27	10.98	-43.2	-45.9	17.3	0.00e+00	0	38	0	1120927744	57	5047
2026-01-22 22:56:07.02	160.36	10.90	-43.3	-46.1	17.1	0.00e+00	0	39	0	1123024896	57	5178
2026-01-22 22:56:08.02	160.44	10.82	-43.2	-45.9	17.3	0.00e+00	0	39	0	1125122048	57	5075
2026-01-22 22:56:09.02	160.53	10.74	-43.3	-46.0	17.0	0.00e+00	0	39	0	1126170624	57	5155
2026-01-22 22:56:10.01	160.62	10.66	-43.5	-46.2	16.9	0.00e+00	0	39	0	1128267776	57	5266
2026-01-22 22:56:11.01	160.70	10.58	-43.6	-46.5	16.7	0.00e+00	0	38	0	1130364928	57	5423
2026-01-22 22:56:12.00	160.79	10.50	-43.6	-46.4	16.8	0.00e+00	0	39	0	1132462080	57	5375
2026-01-22 22:56:13.00	160.87	10.42	-43.6	-46.3	16.8	0.00e+00	0	39	0	1133510656	58	5031
2026-01-22 22:56:13.99	160.96	10.35	-43.7	-46.6	16.6	0.00e+00	0	39	0	1135607808	58	5180
2026-01-22 22:56:14.99	161.04	10.27	-43.8	-46.6	16.6	0.00e+00	0	39	0	1137704960	58	5195
2026-01-22 22:56:15.99	161.12	10.19	-43.6	-46.3	16.8	0.00e+00	0	39	0	1139802112	58	5034
2026-01-22 22:56:16.98	161.21	10.11	-43.8	-46.7	16.5	0.00e+00	0	39	0	1141899264	58	5243
2026-01-22 22:56:17.98	161.29	10.03	-44.0	-46.9	16.2	0.00e+00	0	39	0	1142947840	58	5394
2026-01-22 22:56:18.97	161.37	9.96	-44.1	-47.1	16.1	0.00e+00	0	39	0	1145044992	58	5513
2026-01-22 22:56:19.96	161.45	9.88	-44.1	-47.1	16.1	0.00e+00	0	39	0	1147142144	58	5513
2026-01-22 22:56:20.96	161.53	9.80	-44.0	-47.1	16.1	0.00e+00	0	39	0	1149239296	58	5485
2026-01-22 22:56:21.95	161.61	9.73	-44.2	-47.3	15.9	0.00e+00	0	39	0	1150287872	59	5295
2026-01-22 22:56:22.95	161.69	9.65	-44.1	-47.2	16.0	0.00e+00	0	39	0	1152385024	59	5237
2026-01-22 22:56:23.94	161.77	9.57	-44.0	-47.0	16.2	0.00e+00	0	39	0	1154482176	59	5151
2026-01-22 22:56:24.94	161.85	9.50	-44.1	-47.2	16.0	0.00e+00	0	39	0	1156579328	59	5243
2026-01-22 22:56:25.93	161.93	9.42	-44.1	-47.1	16.0	0.00e+00	0	39	0	1158676480	59	5217
2026-01-22 22:56:26.93	162.01	9.34	-44.2	-47.3	15.9	0.00e+00	0	39	0	1159725056	59	5283
2026-01-22 22:56:27.93	162.09	9.27	-44.1	-47.2	15.9	0.00e+00	0	39	0	1161822208	59	5262
2026-01-22 22:56:28.92	162.17	9.19	-44.2	-47.3	15.9	8.96e-03	0	39	0	1163919360	59	5280
2026-01-22 22:56:29.92	162.24	9.12	-44.1	-47.2	15.9	0.00e+00	0	39	0	1166016512	59	5277
2026-01-22 22:56:30.91	162.32	9.04	-44.1	-47.2	15.9	0.00e+00	0	39	0	1168113664	59	5265
2026-01-22 22:56:31.91	162.40	8.97	-49.0	-62.4	4.1	1.22e-02	0	39	0	1169162240	68	18080
2026-01-22 22:56:32.90	162.47	8.89	-49.2	-64.5	3.8	1.49e+00	0	39	104	1169162240	69	21604
2026-01-22 22:56:33.90	162.55	8.82	-49.6	-64.7	3.8	1.49e+00	0	39	104	1169162240	69	22200
2026-01-22 22:56:34.89	162.63	8.74	-49.5	-64.9	3.8	1.49e+00	0	39	104	1169162240	69	22620
2026-01-22 22:56:35.88	162.70	8.67	-49.7	-65.0	3.8	1.49e+00	0	39	104	1169162240	70	21708
2026-01-22 22:56:36.87	162.77	8.60	-49.8	-65.1	3.8	1.49e+00	0	39	104	1169162240	70	21845
2026-01-22 22:56:37.87	162.85	8.52	-49.6	-65.1	3.8	1.49e+00	0	39	104	1169162240	70	22006
2026-01-22 22:56:38.86	162.92	8.45	-49.5	-65.2	3.8	1.49e+00	0	39	104	1169162240	70	22107
2026-01-22 22:56:39.86	163.00	8.38	-49.9	-65.2	3.8	1.49e+00	0	39	104	1169162240	70	22184
2026-01-22 22:56:40.85	163.07	8.30	-49.9	-65.2	3.8	1.49e+00	0	39	104	1169162240	70	22170
2026-01-22 22:56:41.84	163.14	8.23	-50.0	-65.2	3.8	1.49e+00	0	39	104	1169162240	70	22174
2026-01-22 22:56:42.83	163.22	8.16	-50.0	-65.2	3.8	1.49e+00	0	39	104	1169162240	70	22125
2026-01-22 22:56:43.83	163.29	8.08	-50.0	-65.2	3.8	1.49e+00	0	39	104	1169162240	70	22246
2026-01-22 22:56:44.82	163.36	8.01	-50.1	-65.3	3.8	1.49e+00	0	39	104	1169162240	70	22276
2026-01-22 22:56:45.81	163.43	7.94	-50.0	-65.3	3.8	1.49e+00	0	39	104	1169162240	70	22289
2026-01-22 22:56:46.81	163.50	7.87	-50.1	-65.3	3.8	1.49e+00	0	39	104	1169162240	70	22300
2026-01-22 22:56:47.80	163.57	7.80	-49.9	-65.2	3.8	1.49e+00	0	39	104	1169162240	70	22252
2026-01-22 22:56:48.79	163.64	7.72	-49.7	-65.2	3.8	1.49e+00	0	39	104	1169162240	70	22145
2026-01-22 22:56:49.79	163.72	7.65	-49.9	-65.2	3.8	1.49e+00	0	39	104	1169162240	70	22211
2026-01-22 22:56:50.78	163.79	7.58	-50.0	-65.2	3.8	1.49e+00	0	39	104	1169162240	70	22154
2026-01-22 22:56:51.77	163.85	7.51	-50.0	-65.2	3.8	1.49e+00	0	39	104	1169162240	70	22180
2026-01-22 22:56:52.77	163.92	7.44	-49.6	-65.2	3.8	1.49e+00	0	39	104	1169162240	70	22222
2026-01-22 22:56:53.76	163.99	7.37	-49.9	-65.2	3.8	1.49e+00	0	39	104	1169162240	70	22171
