passes_logs/2026/01/22/T1/T1__20260122_064713_FENGYUN_3E_rec.log

#Pass ID: 20260122_064713_FENGYUN 3E
#Satellite: FENGYUN 3E
#Configuration: FENGYUN 3E
#almurnet v.1.7.20251203
#Start time: 2026-01-22 06:47:13

#Version: 2.0.20230620
#Station: T1
#Location: 37.570604 lon 55.790049 lat
#TLE: 1 49008U 21062A   26021.55921410  .00000414  00000+0  21575-3 0  9991
#TLE: 2 49008  98.7483  26.6103 0002287 125.5068 234.6322 14.19887394235776

#Time	Az	El	Level	Level2	SNR	BER	BlckErr	Temp	State	Recorded	gain1	gain2
2026-01-22 06:47:13.56	359.32	5.00	-50.5	-61.5	3.8	8.47e-01	0	36	0	0	70	13428
2026-01-22 06:47:14.55	359.19	5.04	-50.6	-61.4	3.8	8.46e-01	0	35	104	0	71	12643
2026-01-22 06:47:15.54	359.07	5.08	-50.5	-61.4	3.8	8.48e-01	0	35	104	0	71	12614
2026-01-22 06:47:16.54	358.95	5.12	-50.5	-61.4	3.8	8.48e-01	0	35	104	0	71	12605
2026-01-22 06:47:17.53	358.82	5.16	-50.5	-61.4	3.8	8.48e-01	0	35	104	0	71	12649
2026-01-22 06:47:18.53	358.70	5.20	-50.6	-61.4	3.8	8.46e-01	0	36	104	0	71	12603
2026-01-22 06:47:19.52	358.57	5.24	-50.5	-61.4	3.8	8.45e-01	0	36	104	0	71	12621
2026-01-22 06:47:20.52	358.44	5.28	-50.5	-61.4	3.8	8.47e-01	0	36	104	0	71	12653
2026-01-22 06:47:21.51	358.32	5.32	-50.6	-61.4	3.8	8.47e-01	0	36	104	0	71	12653
2026-01-22 06:47:22.51	358.19	5.36	-50.6	-61.4	3.8	8.47e-01	0	36	104	0	71	12643
2026-01-22 06:47:23.50	358.07	5.40	-50.6	-61.5	3.8	8.48e-01	0	36	104	0	71	12669
2026-01-22 06:47:24.50	357.94	5.44	-50.5	-61.4	3.8	8.46e-01	0	36	104	0	71	12636
2026-01-22 06:47:25.49	357.81	5.48	-50.6	-61.4	3.8	8.48e-01	0	36	104	0	71	12658
2026-01-22 06:47:26.49	357.68	5.52	-50.6	-61.4	3.8	8.47e-01	0	36	104	0	71	12653
2026-01-22 06:47:27.49	357.55	5.56	-50.6	-61.4	3.8	8.46e-01	0	36	104	0	71	12606
2026-01-22 06:47:28.48	357.43	5.60	-50.5	-61.4	3.8	8.47e-01	0	36	104	0	71	12630
2026-01-22 06:47:29.48	357.30	5.64	-50.6	-61.4	3.8	8.46e-01	0	36	104	0	71	12603
2026-01-22 06:47:30.47	357.17	5.68	-50.6	-61.5	3.8	8.47e-01	0	36	104	0	71	12702
2026-01-22 06:47:31.47	357.04	5.72	-50.6	-61.4	3.8	8.48e-01	0	36	104	0	71	12572
2026-01-22 06:47:32.46	356.91	5.76	-50.6	-61.5	3.8	8.47e-01	0	36	104	0	71	12671
2026-01-22 06:47:33.46	356.78	5.79	-50.5	-61.5	3.8	8.46e-01	0	36	104	0	71	12749
2026-01-22 06:47:34.45	356.65	5.83	-50.5	-61.4	3.8	8.48e-01	0	36	104	0	71	12632
2026-01-22 06:47:35.45	356.51	5.87	-50.6	-61.4	3.8	8.47e-01	0	36	104	0	71	12593
2026-01-22 06:47:36.44	356.38	5.91	-50.6	-61.4	3.8	8.47e-01	0	36	104	0	71	12605
2026-01-22 06:47:37.44	356.25	5.95	-50.5	-61.4	3.8	8.47e-01	0	36	104	0	71	12632
2026-01-22 06:47:38.44	356.12	5.99	-50.6	-61.4	3.8	8.46e-01	0	36	104	0	71	12638
2026-01-22 06:47:39.43	355.99	6.03	-50.6	-61.4	3.8	8.44e-01	0	36	104	0	71	12630
2026-01-22 06:47:40.43	355.85	6.06	-50.6	-61.5	3.8	8.47e-01	0	36	104	0	71	12689
2026-01-22 06:47:41.42	355.72	6.10	-50.6	-61.4	3.8	8.47e-01	0	36	104	0	71	12590
2026-01-22 06:47:42.42	355.59	6.14	-50.6	-61.4	3.8	8.48e-01	0	36	104	0	71	12593
2026-01-22 06:47:43.42	355.45	6.18	-50.6	-61.4	3.8	8.47e-01	0	36	104	0	71	12637
2026-01-22 06:47:44.41	355.32	6.22	-50.6	-61.5	3.8	8.46e-01	0	37	104	0	71	12680
2026-01-22 06:47:45.41	355.18	6.26	-50.6	-61.4	3.8	8.47e-01	0	36	104	0	71	12655
2026-01-22 06:47:46.40	355.05	6.29	-50.6	-61.4	3.8	8.46e-01	0	36	104	0	71	12613
2026-01-22 06:47:47.40	354.91	6.33	-50.6	-61.4	3.8	8.47e-01	0	37	104	0	71	12579
2026-01-22 06:47:48.40	354.78	6.37	-50.6	-61.5	3.8	8.48e-01	0	37	104	0	71	12742
2026-01-22 06:47:49.39	354.64	6.41	-50.6	-61.5	3.8	8.47e-01	0	36	104	0	71	12744
2026-01-22 06:47:50.39	354.50	6.44	-50.6	-61.5	3.8	8.46e-01	0	37	104	0	71	12681
2026-01-22 06:47:51.39	354.36	6.48	-50.6	-61.5	3.8	8.46e-01	0	37	104	0	71	12668
2026-01-22 06:47:52.38	354.23	6.52	-50.6	-61.4	3.8	8.47e-01	0	37	104	0	71	12634
2026-01-22 06:47:53.37	354.09	6.55	-50.6	-61.5	3.8	8.46e-01	0	37	104	0	71	12710
2026-01-22 06:47:54.37	353.95	6.59	-50.6	-61.4	3.8	8.47e-01	0	37	104	0	71	12644
2026-01-22 06:47:55.37	353.81	6.63	-50.6	-61.4	3.8	8.47e-01	0	37	104	0	71	12635
2026-01-22 06:47:56.36	353.68	6.67	-50.6	-61.4	3.8	8.47e-01	0	36	104	0	71	12626
2026-01-22 06:47:57.36	353.54	6.70	-50.6	-61.5	3.8	8.47e-01	0	37	104	0	71	12673
2026-01-22 06:47:58.35	353.40	6.74	-50.6	-61.5	3.8	8.46e-01	0	37	104	0	71	12706
2026-01-22 06:47:59.35	353.26	6.78	-50.6	-61.5	3.8	8.47e-01	0	37	104	0	71	12776
2026-01-22 06:48:00.34	353.12	6.81	-50.6	-61.4	3.8	8.47e-01	0	37	104	0	71	12639
2026-01-22 06:48:01.33	352.98	6.85	-50.6	-61.4	3.8	8.46e-01	0	37	104	0	71	12587
2026-01-22 06:48:02.33	352.84	6.88	-50.6	-61.4	3.8	8.47e-01	0	37	104	0	71	12638
2026-01-22 06:48:03.32	352.70	6.92	-50.6	-61.4	3.8	8.46e-01	0	37	104	0	71	12620
2026-01-22 06:48:04.32	352.55	6.96	-50.6	-61.4	3.8	8.47e-01	0	37	104	0	71	12621
2026-01-22 06:48:05.32	352.41	6.99	-50.6	-61.4	3.8	8.48e-01	0	37	104	0	71	12640
2026-01-22 06:48:06.31	352.27	7.03	-50.6	-61.5	3.8	8.48e-01	0	37	104	0	71	12704
2026-01-22 06:48:07.31	352.13	7.06	-50.6	-61.5	3.8	8.47e-01	0	37	104	0	71	12707
2026-01-22 06:48:08.30	351.98	7.10	-50.6	-61.4	3.8	8.47e-01	0	37	104	0	71	12610
2026-01-22 06:48:09.29	351.84	7.13	-50.6	-61.4	3.8	8.48e-01	0	37	104	0	71	12635
2026-01-22 06:48:10.28	351.70	7.17	-50.6	-61.5	3.8	8.47e-01	0	37	104	0	71	12684
2026-01-22 06:48:11.28	351.55	7.20	-50.7	-61.5	3.8	8.47e-01	0	37	104	0	71	12764
2026-01-22 06:48:12.28	351.41	7.24	-50.7	-61.6	3.8	8.47e-01	0	37	104	0	71	12828
2026-01-22 06:48:13.28	351.26	7.27	-50.9	-61.5	3.8	8.47e-01	0	37	104	0	71	12764
2026-01-22 06:48:14.27	351.12	7.31	-50.8	-61.5	3.8	8.46e-01	0	37	104	0	71	12806
2026-01-22 06:48:15.27	350.97	7.34	-50.9	-61.6	3.8	8.46e-01	0	37	104	0	71	12931
2026-01-22 06:48:16.26	350.83	7.38	-51.0	-61.6	3.8	8.46e-01	0	37	104	0	71	12926
2026-01-22 06:48:17.26	350.68	7.41	-51.0	-61.6	3.8	8.48e-01	0	37	104	0	71	12865
2026-01-22 06:48:18.26	350.53	7.45	-50.8	-61.7	3.8	8.47e-01	0	37	104	0	71	12969
2026-01-22 06:48:19.26	350.39	7.48	-50.8	-61.6	3.8	8.46e-01	0	37	104	0	71	12886
2026-01-22 06:48:20.25	350.24	7.51	-50.6	-61.6	3.8	8.46e-01	0	37	104	0	71	12894
2026-01-22 06:48:21.25	350.09	7.55	-50.7	-61.7	3.8	8.48e-01	0	37	104	0	71	13033
2026-01-22 06:48:22.24	349.94	7.58	-50.8	-61.6	3.8	8.46e-01	0	37	104	0	71	12900
2026-01-22 06:48:23.24	349.79	7.62	-50.8	-61.6	3.8	8.47e-01	0	37	104	0	71	12924
2026-01-22 06:48:24.24	349.64	7.65	-50.8	-61.6	3.8	8.48e-01	0	37	104	0	71	12823
2026-01-22 06:48:25.23	349.50	7.68	-50.1	-61.5	3.8	8.47e-01	0	37	104	0	71	12753
2026-01-22 06:48:26.23	349.35	7.72	-50.7	-61.5	3.8	8.47e-01	0	37	104	0	70	13443
2026-01-22 06:48:27.22	349.20	7.75	-50.3	-61.4	3.8	8.47e-01	0	37	104	0	70	13402
2026-01-22 06:48:28.22	349.05	7.78	-50.1	-61.4	3.8	8.47e-01	0	37	104	0	69	14153
2026-01-22 06:48:29.22	348.90	7.81	-50.1	-61.4	3.8	8.47e-01	0	37	104	0	69	14086
2026-01-22 06:48:30.22	348.74	7.85	-50.3	-61.4	3.8	8.46e-01	0	37	104	0	70	13368
2026-01-22 06:48:31.22	348.59	7.88	-49.4	-61.4	3.8	8.48e-01	0	37	104	0	69	14142
2026-01-22 06:48:32.21	348.44	7.91	-50.1	-61.4	3.8	8.46e-01	0	37	104	0	70	13299
2026-01-22 06:48:33.21	348.29	7.94	-50.1	-61.3	3.8	8.47e-01	0	37	104	0	70	13160
2026-01-22 06:48:34.21	348.14	7.98	-50.0	-61.3	3.8	8.45e-01	0	37	104	0	70	13118
2026-01-22 06:48:35.20	347.98	8.01	-49.2	-61.1	3.8	8.48e-01	0	37	104	0	67	15226
2026-01-22 06:48:36.20	347.83	8.04	-49.2	-61.1	3.8	8.47e-01	0	37	104	0	69	13595
2026-01-22 06:48:37.20	347.68	8.07	-46.7	-60.8	3.8	8.47e-01	0	37	104	0	64	17644
2026-01-22 06:48:38.20	347.52	8.10	-46.7	-60.8	3.8	8.47e-01	0	37	104	0	64	17631
2026-01-22 06:48:39.20	347.37	8.13	-46.6	-60.8	3.8	8.47e-01	0	37	104	0	64	17551
2026-01-22 06:48:40.19	347.21	8.17	-46.6	-60.8	3.8	8.46e-01	0	37	104	0	64	17648
2026-01-22 06:48:41.19	347.06	8.20	-46.7	-60.9	3.8	8.46e-01	0	37	104	0	64	17691
2026-01-22 06:48:42.19	346.90	8.23	-46.7	-60.9	3.8	8.46e-01	0	37	104	0	64	17723
2026-01-22 06:48:43.18	346.75	8.26	-46.7	-60.8	3.8	8.46e-01	0	37	104	0	64	17635
2026-01-22 06:48:44.18	346.59	8.29	-46.7	-60.8	3.8	8.48e-01	0	38	104	0	64	17556
2026-01-22 06:48:45.18	346.44	8.32	-46.7	-60.8	3.8	8.47e-01	0	37	104	0	64	17556
2026-01-22 06:48:46.17	346.28	8.35	-46.7	-60.8	3.8	8.47e-01	0	37	104	0	64	17587
2026-01-22 06:48:47.17	346.12	8.38	-46.7	-60.9	3.8	8.47e-01	0	38	104	0	64	17728
2026-01-22 06:48:48.17	345.97	8.41	-46.7	-60.8	3.8	8.47e-01	0	37	104	0	64	17612
2026-01-22 06:48:49.16	345.81	8.44	-46.7	-60.8	3.8	8.46e-01	0	38	104	0	64	17656
2026-01-22 06:48:50.16	345.65	8.47	-46.6	-60.8	3.8	8.47e-01	0	38	104	0	64	17514
2026-01-22 06:48:51.15	345.49	8.50	-46.7	-60.7	3.8	8.47e-01	0	37	104	0	64	17296
2026-01-22 06:48:52.15	345.34	8.53	-46.7	-60.5	3.8	8.46e-01	0	37	104	0	64	16949
2026-01-22 06:48:53.14	345.18	8.55	-46.6	-60.5	3.8	8.47e-01	0	38	104	0	64	16926
2026-01-22 06:48:54.14	345.02	8.58	-46.6	-60.5	3.8	8.47e-01	0	38	104	0	64	16956
2026-01-22 06:48:55.14	344.86	8.61	-46.7	-60.7	3.8	8.47e-01	0	38	104	0	64	17318
2026-01-22 06:48:56.13	344.70	8.64	-46.7	-60.7	3.8	8.47e-01	0	38	104	0	64	17394
2026-01-22 06:48:57.13	344.54	8.67	-46.7	-60.4	3.8	8.47e-01	0	38	104	0	64	16738
2026-01-22 06:48:58.13	344.38	8.70	-46.6	-59.8	3.8	8.47e-01	0	38	104	0	64	15702
2026-01-22 06:48:59.12	344.22	8.72	-46.6	-59.2	3.8	8.46e-01	0	38	104	0	64	14674
2026-01-22 06:49:00.12	344.06	8.75	-46.7	-58.7	3.9	8.45e-01	0	38	104	0	63	14681
2026-01-22 06:49:01.12	343.90	8.78	-46.6	-58.3	3.9	8.44e-01	0	37	104	0	63	13916
2026-01-22 06:49:02.11	343.74	8.81	-46.6	-57.6	4.1	8.41e-01	0	38	0	0	63	12925
2026-01-22 06:49:03.11	343.57	8.83	-46.5	-57.1	4.3	8.35e-01	0	38	0	0	63	12112
2026-01-22 06:49:04.11	343.41	8.86	-46.5	-56.4	4.5	8.27e-01	0	38	0	0	63	11229
2026-01-22 06:49:05.10	343.25	8.89	-46.4	-55.7	4.9	7.92e-01	0	38	0	0	63	10315
2026-01-22 06:49:06.09	343.09	8.91	-46.2	-54.3	5.7	6.78e-01	0	38	0	0	63	8798
2026-01-22 06:49:07.09	342.92	8.94	-45.7	-52.1	7.5	1.66e-01	0	38	0	6291456	62	7267
2026-01-22 06:49:08.08	342.76	8.97	-44.8	-49.5	10.2	9.24e-03	0	38	0	13631488	60	6018
2026-01-22 06:49:09.08	342.60	8.99	-43.6	-46.8	12.9	1.97e-04	0	38	0	20971520	58	4961
2026-01-22 06:49:10.07	342.43	9.02	-42.0	-44.3	15.3	0.00e+00	0	38	0	28311552	54	4700
2026-01-22 06:49:11.07	342.27	9.04	-44.3	-48.3	11.3	1.46e-03	0	38	0	35651584	58	5921
2026-01-22 06:49:12.07	342.10	9.07	-45.9	-50.3	9.5	2.98e-03	0	38	0	42991616	61	6209
2026-01-22 06:49:13.08	341.94	9.09	-43.0	-45.9	13.7	3.40e-06	0	38	0	50331648	55	5319
2026-01-22 06:49:14.08	341.77	9.12	-45.6	-49.2	10.5	3.78e-03	0	38	0	57671680	60	5831
2026-01-22 06:49:15.08	341.60	9.14	-39.4	-40.8	18.7	0.00e+00	0	38	0	65011712	49	4188
2026-01-22 06:49:16.08	341.44	9.17	-39.6	-41.0	18.6	0.00e+00	0	38	0	71303168	49	4288
2026-01-22 06:49:17.08	341.27	9.19	-39.3	-40.6	18.9	0.00e+00	0	38	0	78643200	49	4086
2026-01-22 06:49:18.08	341.11	9.22	-39.4	-40.7	18.9	0.00e+00	0	38	0	85983232	49	4132
2026-01-22 06:49:19.08	340.94	9.24	-39.6	-40.8	18.8	0.00e+00	0	38	0	93323264	49	4164
2026-01-22 06:49:20.08	340.77	9.26	-39.5	-40.7	18.8	0.00e+00	0	38	0	100663296	49	4138
2026-01-22 06:49:21.08	340.60	9.29	-39.6	-40.8	18.8	0.00e+00	0	38	0	108003328	49	4167
2026-01-22 06:49:22.09	340.43	9.31	-39.7	-40.8	18.8	0.00e+00	0	38	0	115343360	49	4176
2026-01-22 06:49:23.08	340.27	9.34	-39.8	-40.9	18.7	0.00e+00	0	38	0	122683392	49	4233
2026-01-22 06:49:24.08	340.10	9.36	-39.9	-41.1	18.5	0.00e+00	0	38	0	128974848	49	4305
2026-01-22 06:49:25.08	339.93	9.38	-39.9	-41.1	18.5	0.00e+00	0	38	0	136314880	49	4297
2026-01-22 06:49:26.09	339.76	9.40	-40.0	-41.2	18.4	0.00e+00	0	38	0	143654912	49	4374
2026-01-22 06:49:27.09	339.59	9.43	-40.1	-41.3	18.3	0.00e+00	0	38	0	150994944	49	4419
2026-01-22 06:49:28.09	339.42	9.45	-39.9	-41.0	18.6	0.00e+00	0	38	0	158334976	49	4286
2026-01-22 06:49:29.09	339.25	9.47	-39.8	-41.0	18.6	0.00e+00	0	38	0	165675008	49	4259
2026-01-22 06:49:30.09	339.08	9.49	-39.8	-41.0	18.6	0.00e+00	0	38	0	173015040	49	4252
2026-01-22 06:49:31.09	338.91	9.51	-39.8	-40.9	18.7	0.00e+00	0	38	0	180355072	49	4220
2026-01-22 06:49:32.09	338.74	9.53	-39.8	-40.9	18.7	0.00e+00	0	38	0	187695104	49	4230
2026-01-22 06:49:33.09	338.57	9.55	-39.9	-41.1	18.5	0.00e+00	0	38	0	193986560	49	4311
2026-01-22 06:49:34.09	338.40	9.58	-39.9	-41.1	18.5	0.00e+00	0	38	0	201326592	49	4326
2026-01-22 06:49:35.09	338.22	9.60	-39.9	-41.1	18.5	0.00e+00	0	38	0	208666624	49	4331
2026-01-22 06:49:36.09	338.05	9.62	-39.9	-41.1	18.5	0.00e+00	0	38	0	216006656	49	4325
2026-01-22 06:49:37.09	337.88	9.64	-39.9	-41.1	18.5	0.00e+00	0	38	0	223346688	49	4334
2026-01-22 06:49:38.09	337.71	9.66	-39.9	-41.1	18.5	0.00e+00	0	38	0	230686720	49	4337
2026-01-22 06:49:39.09	337.54	9.68	-39.9	-41.1	18.5	0.00e+00	0	38	0	238026752	49	4331
2026-01-22 06:49:40.10	337.36	9.70	-39.9	-41.2	18.4	0.00e+00	0	38	0	245366784	49	4363
2026-01-22 06:49:41.10	337.19	9.71	-39.9	-41.1	18.5	0.00e+00	0	38	0	252706816	49	4334
2026-01-22 06:49:42.10	337.02	9.73	-39.9	-41.2	18.4	0.00e+00	0	38	0	260046848	49	4363
2026-01-22 06:49:43.10	336.84	9.75	-39.8	-41.1	18.5	0.00e+00	0	38	0	267386880	49	4314
2026-01-22 06:49:44.10	336.67	9.77	-39.8	-41.1	18.5	0.00e+00	0	38	0	274726912	49	4334
2026-01-22 06:49:45.10	336.50	9.79	-39.8	-41.1	18.5	0.00e+00	0	38	0	281018368	49	4321
2026-01-22 06:49:46.11	336.32	9.81	-39.8	-41.0	18.6	0.00e+00	0	38	0	288358400	49	4287
2026-01-22 06:49:47.11	336.15	9.82	-39.7	-40.9	18.7	0.00e+00	0	38	0	295698432	49	4216
2026-01-22 06:49:48.11	335.97	9.84	-39.6	-40.9	18.8	0.00e+00	0	38	0	303038464	49	4200
2026-01-22 06:49:49.11	335.80	9.86	-39.6	-40.7	18.9	0.00e+00	0	38	0	310378496	49	4140
2026-01-22 06:49:50.11	335.62	9.88	-39.5	-40.7	18.9	0.00e+00	0	38	0	317718528	49	4102
2026-01-22 06:49:51.12	335.45	9.89	-39.6	-40.7	18.9	0.00e+00	0	38	0	325058560	49	4133
2026-01-22 06:49:52.12	335.27	9.91	-39.5	-40.7	19.0	0.00e+00	0	38	0	332398592	49	4102
2026-01-22 06:49:53.12	335.09	9.93	-39.7	-40.9	18.7	0.00e+00	0	38	0	338690048	49	4219
2026-01-22 06:49:54.12	334.92	9.94	-39.6	-40.7	18.9	0.00e+00	0	38	0	346030080	49	4144
2026-01-22 06:49:55.12	334.74	9.96	-39.7	-40.8	18.8	0.00e+00	0	38	0	353370112	49	4152
2026-01-22 06:49:56.12	334.57	9.97	-39.7	-40.8	18.8	0.00e+00	0	38	0	360710144	49	4188
2026-01-22 06:49:57.12	334.39	9.99	-39.8	-40.9	18.8	0.00e+00	0	38	0	368050176	49	4199
2026-01-22 06:49:58.12	334.21	10.00	-39.8	-40.9	18.7	0.00e+00	0	38	0	375390208	49	4242
2026-01-22 06:49:59.12	334.04	10.02	-40.0	-41.2	18.5	0.00e+00	0	38	0	382730240	49	4350
2026-01-22 06:50:00.12	333.86	10.03	-40.0	-41.2	18.5	0.00e+00	0	38	0	390070272	49	4352
2026-01-22 06:50:01.12	333.68	10.05	-40.1	-41.2	18.4	0.00e+00	0	38	0	397410304	49	4388
2026-01-22 06:50:02.12	333.51	10.06	-40.0	-41.2	18.5	0.00e+00	0	38	0	403701760	49	4357
2026-01-22 06:50:03.12	333.33	10.07	-40.0	-41.1	18.5	0.00e+00	0	38	0	411041792	49	4327
2026-01-22 06:50:04.13	333.15	10.09	-40.1	-41.2	18.4	0.00e+00	0	38	0	418381824	49	4376
2026-01-22 06:50:05.13	332.97	10.10	-39.9	-41.1	18.5	0.00e+00	0	38	0	425721856	49	4319
2026-01-22 06:50:06.13	332.80	10.11	-40.0	-41.1	18.5	0.00e+00	0	38	0	433061888	49	4309
2026-01-22 06:50:07.13	332.62	10.13	-40.0	-41.1	18.6	0.00e+00	0	38	0	440401920	49	4318
2026-01-22 06:50:08.13	332.44	10.14	-39.9	-41.0	18.6	0.00e+00	0	38	0	447741952	49	4261
2026-01-22 06:50:09.13	332.26	10.15	-39.9	-41.1	18.5	0.00e+00	0	38	0	455081984	49	4299
2026-01-22 06:50:10.14	332.08	10.16	-39.8	-40.9	18.7	0.00e+00	0	38	0	461373440	49	4233
2026-01-22 06:50:11.14	331.90	10.18	-39.9	-41.0	18.6	0.00e+00	0	38	0	468713472	49	4252
2026-01-22 06:50:12.14	331.72	10.19	-39.9	-41.0	18.6	0.00e+00	0	38	0	476053504	49	4265
2026-01-22 06:50:13.14	331.54	10.20	-39.9	-41.0	18.6	0.00e+00	0	38	0	483393536	49	4280
2026-01-22 06:50:14.14	331.37	10.21	-39.9	-41.0	18.7	0.00e+00	0	38	0	490733568	49	4254
2026-01-22 06:50:15.14	331.19	10.22	-39.8	-40.9	18.7	0.00e+00	0	38	0	498073600	49	4229
2026-01-22 06:50:16.14	331.01	10.23	-39.9	-41.0	18.7	0.00e+00	0	38	0	505413632	49	4265
2026-01-22 06:50:17.15	330.83	10.24	-39.7	-40.8	18.8	0.00e+00	0	38	0	512753664	49	4191
2026-01-22 06:50:18.15	330.65	10.25	-39.8	-40.9	18.7	0.00e+00	0	38	0	520093696	49	4231
2026-01-22 06:50:19.15	330.47	10.26	-39.6	-40.7	18.9	0.00e+00	0	38	0	527433728	49	4106
2026-01-22 06:50:20.15	330.29	10.27	-39.5	-40.6	19.1	0.00e+00	0	38	0	534773760	49	4056
2026-01-22 06:50:21.15	330.11	10.28	-39.6	-40.6	19.0	0.00e+00	0	38	0	542113792	49	4085
2026-01-22 06:50:22.15	329.93	10.29	-39.4	-40.4	19.2	0.00e+00	0	38	0	548405248	49	3992
2026-01-22 06:50:23.16	329.74	10.29	-39.4	-40.4	19.2	0.00e+00	0	38	0	555745280	49	4003
2026-01-22 06:50:24.16	329.56	10.30	-39.3	-40.4	19.2	0.00e+00	0	38	0	563085312	49	3979
2026-01-22 06:50:25.16	329.38	10.31	-39.5	-40.5	19.1	0.00e+00	0	38	0	570425344	49	4044
2026-01-22 06:50:26.15	329.21	10.32	-39.4	-40.5	19.1	0.00e+00	0	38	0	577765376	49	4007
2026-01-22 06:50:27.16	329.02	10.33	-39.4	-40.4	19.2	0.00e+00	0	38	0	585105408	49	3992
2026-01-22 06:50:28.16	328.84	10.33	-39.4	-40.5	19.1	0.00e+00	0	38	0	592445440	49	4023
2026-01-22 06:50:29.16	328.66	10.34	-39.5	-40.5	19.1	0.00e+00	0	38	0	599785472	49	4043
2026-01-22 06:50:30.16	328.48	10.35	-39.4	-40.5	19.0	0.00e+00	0	38	0	607125504	49	4044
2026-01-22 06:50:31.16	328.30	10.35	-39.6	-40.7	18.9	0.00e+00	0	38	0	613416960	49	4106
2026-01-22 06:50:32.16	328.12	10.36	-39.6	-40.7	18.9	0.00e+00	0	38	0	620756992	49	4122
2026-01-22 06:50:33.16	327.94	10.36	-39.6	-40.7	18.9	0.00e+00	0	38	0	628097024	49	4131
2026-01-22 06:50:34.16	327.76	10.37	-39.6	-40.7	18.9	0.00e+00	0	38	0	635437056	49	4135
2026-01-22 06:50:35.16	327.58	10.37	-39.6	-40.7	18.9	0.00e+00	0	38	0	642777088	49	4124
2026-01-22 06:50:36.17	327.39	10.38	-39.5	-40.6	19.0	0.00e+00	0	38	0	650117120	49	4092
2026-01-22 06:50:37.17	327.21	10.38	-39.5	-40.6	19.0	0.00e+00	0	38	0	657457152	49	4081
2026-01-22 06:50:38.17	327.03	10.39	-39.5	-40.6	19.0	0.00e+00	0	38	0	664797184	49	4061
2026-01-22 06:50:39.17	326.85	10.39	-39.6	-40.7	18.9	0.00e+00	0	38	0	671088640	49	4117
2026-01-22 06:50:40.17	326.67	10.40	-39.6	-40.7	18.9	0.00e+00	0	38	0	678428672	49	4109
2026-01-22 06:50:41.18	326.48	10.40	-39.6	-40.7	18.9	0.00e+00	0	38	0	685768704	49	4144
2026-01-22 06:50:42.18	326.30	10.40	-39.6	-40.8	18.8	0.00e+00	0	38	0	693108736	49	4168
2026-01-22 06:50:43.18	326.12	10.41	-39.4	-40.6	19.0	0.00e+00	0	38	0	700448768	49	4069
2026-01-22 06:50:44.19	325.94	10.41	-39.4	-40.5	19.1	0.00e+00	0	38	0	707788800	49	4035
2026-01-22 06:50:45.19	325.76	10.41	-39.5	-40.7	18.9	0.00e+00	0	38	0	715128832	49	4117
2026-01-22 06:50:46.19	325.57	10.41	-39.5	-40.6	19.0	0.00e+00	0	38	0	722468864	49	4095
2026-01-22 06:50:47.19	325.39	10.42	-39.6	-40.8	18.8	0.00e+00	0	38	0	729808896	49	4172
2026-01-22 06:50:48.20	325.21	10.42	-39.5	-40.6	19.0	0.00e+00	0	38	0	737148928	49	4091
2026-01-22 06:50:49.20	325.03	10.42	-39.6	-40.7	18.9	0.00e+00	0	38	0	744488960	49	4123
2026-01-22 06:50:50.20	324.84	10.42	-39.5	-40.6	19.0	0.00e+00	0	38	0	751828992	49	4088
2026-01-22 06:50:51.20	324.66	10.42	-39.5	-40.7	18.9	0.00e+00	0	38	0	758120448	49	4108
2026-01-22 06:50:52.21	324.48	10.42	-39.5	-40.7	18.9	0.00e+00	0	38	0	765460480	49	4099
2026-01-22 06:50:53.21	324.30	10.42	-39.4	-40.5	19.1	0.00e+00	0	38	0	772800512	49	4032
2026-01-22 06:50:54.21	324.12	10.42	-39.3	-40.4	19.2	0.00e+00	0	38	0	780140544	49	3976
2026-01-22 06:50:55.21	323.93	10.42	-39.3	-40.4	19.2	0.00e+00	0	38	0	787480576	49	3979
2026-01-22 06:50:56.22	323.75	10.42	-39.3	-40.4	19.2	0.00e+00	0	38	0	794820608	49	3993
2026-01-22 06:50:57.22	323.57	10.42	-39.3	-40.5	19.1	0.00e+00	0	38	0	802160640	49	4026
2026-01-22 06:50:58.22	323.39	10.42	-39.4	-40.6	19.0	0.00e+00	0	38	0	809500672	49	4072
2026-01-22 06:50:59.22	323.20	10.42	-39.5	-40.6	19.0	0.00e+00	0	38	0	816840704	49	4079
2026-01-22 06:51:00.22	323.02	10.42	-39.5	-40.6	19.0	0.00e+00	0	38	0	823132160	49	4078
2026-01-22 06:51:01.22	322.84	10.41	-39.4	-40.5	19.1	0.00e+00	0	38	0	830472192	49	4048
2026-01-22 06:51:02.22	322.66	10.41	-39.7	-40.8	18.8	0.00e+00	0	38	0	837812224	49	4164
2026-01-22 06:51:03.22	322.48	10.41	-39.6	-40.7	18.9	0.00e+00	0	38	0	845152256	49	4103
2026-01-22 06:51:04.23	322.29	10.41	-39.5	-40.5	19.1	0.00e+00	0	38	0	852492288	49	4038
2026-01-22 06:51:05.23	322.11	10.40	-39.5	-40.6	19.0	0.00e+00	0	38	0	859832320	49	4082
2026-01-22 06:51:06.23	321.93	10.40	-39.5	-40.6	19.0	0.00e+00	0	38	0	867172352	49	4073
2026-01-22 06:51:07.23	321.75	10.40	-39.6	-40.6	19.0	0.00e+00	0	38	0	874512384	49	4098
2026-01-22 06:51:08.23	321.57	10.39	-39.4	-40.5	19.1	0.00e+00	0	38	0	880803840	49	4019
2026-01-22 06:51:09.23	321.39	10.39	-39.5	-40.6	19.0	0.00e+00	0	38	0	888143872	49	4067
2026-01-22 06:51:10.24	321.20	10.38	-39.3	-40.4	19.2	0.00e+00	0	38	0	895483904	49	3992
2026-01-22 06:51:11.24	321.02	10.38	-39.4	-40.5	19.1	0.00e+00	0	38	0	902823936	49	4017
2026-01-22 06:51:12.24	320.84	10.37	-39.4	-40.5	19.1	0.00e+00	0	38	0	910163968	49	4041
2026-01-22 06:51:13.24	320.66	10.37	-39.5	-40.6	19.0	0.00e+00	0	38	0	917504000	49	4058
2026-01-22 06:51:14.24	320.48	10.36	-39.6	-40.7	19.0	0.00e+00	0	38	0	924844032	49	4108
2026-01-22 06:51:15.24	320.30	10.36	-39.7	-40.8	18.8	0.00e+00	0	38	0	932184064	49	4158
2026-01-22 06:51:16.24	320.12	10.35	-39.7	-40.8	18.8	0.00e+00	0	38	0	939524096	49	4166
2026-01-22 06:51:17.24	319.93	10.34	-39.7	-40.8	18.8	0.00e+00	0	38	0	945815552	49	4184
2026-01-22 06:51:18.24	319.75	10.34	-39.7	-40.9	18.8	0.00e+00	0	38	0	953155584	49	4208
2026-01-22 06:51:19.24	319.57	10.33	-39.8	-40.9	18.7	0.00e+00	0	38	0	960495616	49	4231
2026-01-22 06:51:20.24	319.39	10.32	-39.9	-41.0	18.6	0.00e+00	0	38	0	967835648	49	4285
2026-01-22 06:51:21.25	319.21	10.32	-39.9	-41.1	18.6	0.00e+00	0	38	0	975175680	49	4296
2026-01-22 06:51:22.25	319.03	10.31	-40.0	-41.1	18.6	0.00e+00	0	38	0	982515712	49	4314
2026-01-22 06:51:23.25	318.85	10.30	-39.8	-41.0	18.7	0.00e+00	0	38	0	989855744	49	4249
2026-01-22 06:51:24.25	318.67	10.29	-39.8	-40.9	18.7	0.00e+00	0	38	0	997195776	49	4218
2026-01-22 06:51:25.25	318.49	10.28	-39.8	-40.9	18.7	0.00e+00	0	38	0	1004535808	49	4226
2026-01-22 06:51:26.26	318.31	10.27	-39.9	-41.0	18.6	0.00e+00	0	38	0	1011875840	49	4258
2026-01-22 06:51:27.26	318.13	10.27	-39.9	-41.0	18.6	0.00e+00	0	38	0	1019215872	49	4269
2026-01-22 06:51:28.26	317.95	10.26	-39.9	-41.0	18.6	0.00e+00	0	38	0	1026555904	49	4262
2026-01-22 06:51:29.25	317.77	10.25	-40.1	-41.2	18.4	0.00e+00	0	38	0	1032847360	49	4371
2026-01-22 06:51:30.25	317.59	10.24	-40.0	-41.1	18.6	0.00e+00	0	38	0	1040187392	49	4295
2026-01-22 06:51:31.26	317.41	10.23	-40.1	-41.2	18.5	0.00e+00	0	38	0	1047527424	49	4341
2026-01-22 06:51:32.26	317.23	10.22	-40.2	-41.3	18.4	0.00e+00	0	38	0	1054867456	49	4409
2026-01-22 06:51:33.26	317.05	10.20	-40.1	-41.2	18.4	0.00e+00	0	38	0	1062207488	49	4372
2026-01-22 06:51:34.26	316.87	10.19	-40.0	-41.2	18.5	0.00e+00	0	38	0	1069547520	49	4342
2026-01-22 06:51:35.26	316.69	10.18	-39.9	-41.0	18.6	0.00e+00	0	38	0	1076887552	49	4269
2026-01-22 06:51:36.26	316.51	10.17	-39.9	-41.0	18.6	0.00e+00	0	38	0	1084227584	49	4267
2026-01-22 06:51:37.26	316.33	10.16	-40.0	-41.1	18.5	0.00e+00	0	38	0	1090519040	49	4333
2026-01-22 06:51:38.27	316.15	10.15	-39.8	-40.9	18.7	0.00e+00	0	38	0	1097859072	49	4226
2026-01-22 06:51:39.27	315.97	10.14	-39.8	-40.9	18.7	0.00e+00	0	38	0	1105199104	49	4236
2026-01-22 06:51:40.27	315.80	10.12	-39.9	-41.0	18.6	0.00e+00	0	38	0	1112539136	49	4252
2026-01-22 06:51:41.27	315.62	10.11	-40.0	-41.1	18.5	0.00e+00	0	38	0	1119879168	49	4322
2026-01-22 06:51:42.27	315.44	10.10	-39.9	-41.0	18.6	0.00e+00	0	38	0	1127219200	49	4249
2026-01-22 06:51:43.28	315.26	10.08	-39.9	-41.0	18.6	0.00e+00	0	38	0	1134559232	49	4273
2026-01-22 06:51:44.27	315.08	10.07	-40.0	-41.1	18.5	0.00e+00	0	38	0	1141899264	49	4303
2026-01-22 06:51:45.28	314.90	10.06	-40.0	-41.1	18.5	0.00e+00	0	38	0	1149239296	49	4313
2026-01-22 06:51:46.28	314.73	10.04	-40.0	-41.1	18.5	0.00e+00	0	38	0	1155530752	49	4305
2026-01-22 06:51:47.28	314.55	10.03	-39.9	-41.0	18.6	0.00e+00	0	38	0	1162870784	49	4267
2026-01-22 06:51:48.28	314.37	10.01	-39.9	-41.0	18.6	0.00e+00	0	38	0	1170210816	49	4265
2026-01-22 06:51:49.29	314.19	10.00	-40.0	-41.1	18.5	0.00e+00	0	38	0	1177550848	49	4305
2026-01-22 06:51:50.28	314.02	9.98	-39.9	-41.1	18.5	0.00e+00	0	38	0	1184890880	49	4293
2026-01-22 06:51:51.28	313.84	9.97	-39.9	-41.0	18.6	0.00e+00	0	38	0	1192230912	49	4257
2026-01-22 06:51:52.28	313.67	9.95	-40.0	-41.1	18.4	0.00e+00	0	38	0	1199570944	49	4335
2026-01-22 06:51:53.28	313.49	9.94	-39.9	-41.0	18.5	0.00e+00	0	38	0	1206910976	49	4246
2026-01-22 06:51:54.29	313.31	9.92	-39.9	-41.0	18.5	0.00e+00	0	38	0	1213202432	49	4283
2026-01-22 06:51:55.29	313.14	9.90	-39.9	-41.0	18.6	0.00e+00	0	38	0	1220542464	49	4269
2026-01-22 06:51:56.29	312.96	9.89	-39.8	-41.0	18.6	0.00e+00	0	38	0	1227882496	49	4244
2026-01-22 06:51:57.29	312.79	9.87	-39.8	-40.9	18.7	0.00e+00	0	38	0	1235222528	49	4226
2026-01-22 06:51:58.29	312.61	9.85	-39.8	-40.9	18.6	0.00e+00	0	38	0	1242562560	49	4234
2026-01-22 06:51:59.29	312.44	9.84	-39.8	-40.9	18.6	0.00e+00	0	38	0	1249902592	49	4240
2026-01-22 06:52:00.30	312.26	9.82	-39.8	-40.9	18.6	0.00e+00	0	38	0	1257242624	49	4234
2026-01-22 06:52:01.30	312.09	9.80	-39.9	-41.0	18.6	0.00e+00	0	38	0	1264582656	49	4255
2026-01-22 06:52:02.30	311.91	9.78	-40.0	-41.1	18.5	0.00e+00	0	38	0	1271922688	49	4331
2026-01-22 06:52:03.30	311.74	9.76	-40.1	-41.3	18.3	0.00e+00	0	38	0	1279262720	49	4397
2026-01-22 06:52:04.30	311.56	9.75	-40.2	-41.4	18.3	0.00e+00	0	38	0	1286602752	50	4196
2026-01-22 06:52:05.30	311.39	9.73	-40.2	-41.4	18.2	0.00e+00	0	38	0	1293942784	50	4205
2026-01-22 06:52:06.31	311.21	9.71	-40.3	-41.5	18.1	0.00e+00	0	38	0	1300234240	50	4246
2026-01-22 06:52:07.31	311.04	9.69	-40.3	-41.4	18.1	0.00e+00	0	38	0	1307574272	50	4242
2026-01-22 06:52:08.31	310.87	9.67	-40.4	-41.5	18.0	0.00e+00	0	38	0	1314914304	50	4283
2026-01-22 06:52:09.31	310.70	9.65	-40.4	-41.5	18.0	0.00e+00	0	38	0	1322254336	50	4284
2026-01-22 06:52:10.31	310.52	9.63	-40.4	-41.6	18.0	0.00e+00	0	38	0	1329594368	50	4292
2026-01-22 06:52:11.31	310.35	9.61	-40.3	-41.4	18.1	0.00e+00	0	38	0	1336934400	50	4224
2026-01-22 06:52:12.31	310.18	9.59	-40.3	-41.5	18.1	0.00e+00	0	38	0	1344274432	50	4246
2026-01-22 06:52:13.32	310.01	9.57	-40.3	-41.4	18.1	0.00e+00	0	38	0	1351614464	50	4238
2026-01-22 06:52:14.32	309.83	9.55	-40.2	-41.3	18.1	0.00e+00	0	38	0	1358954496	50	4190
2026-01-22 06:52:15.32	309.66	9.53	-40.4	-41.6	18.0	0.00e+00	0	38	0	1365245952	50	4303
2026-01-22 06:52:16.32	309.49	9.50	-40.3	-41.5	18.1	0.00e+00	0	38	0	1372585984	50	4270
2026-01-22 06:52:17.32	309.32	9.48	-40.3	-41.5	18.1	0.00e+00	0	38	0	1379926016	50	4258
2026-01-22 06:52:18.32	309.15	9.46	-40.4	-41.6	18.0	0.00e+00	0	38	0	1387266048	50	4312
2026-01-22 06:52:19.33	308.98	9.44	-40.5	-41.6	18.0	0.00e+00	0	38	0	1394606080	50	4322
2026-01-22 06:52:20.32	308.81	9.42	-40.4	-41.5	18.0	0.00e+00	0	38	0	1401946112	50	4290
2026-01-22 06:52:21.33	308.64	9.39	-40.5	-41.7	17.9	0.00e+00	0	38	0	1409286144	50	4345
2026-01-22 06:52:22.33	308.47	9.37	-40.5	-41.7	17.9	0.00e+00	0	38	0	1416626176	50	4350
2026-01-22 06:52:23.33	308.30	9.35	-40.4	-41.5	18.0	0.00e+00	0	38	0	1422917632	50	4285
2026-01-22 06:52:24.33	308.13	9.33	-40.4	-41.5	18.0	0.00e+00	0	38	0	1430257664	50	4281
2026-01-22 06:52:25.33	307.96	9.30	-40.3	-41.4	18.1	0.00e+00	0	38	0	1437597696	50	4234
2026-01-22 06:52:26.33	307.80	9.28	-40.2	-41.3	18.2	0.00e+00	0	38	0	1444937728	50	4185
2026-01-22 06:52:27.33	307.63	9.26	-40.3	-41.4	18.2	0.00e+00	0	38	0	1452277760	50	4201
2026-01-22 06:52:28.34	307.46	9.23	-40.4	-41.5	18.1	0.00e+00	0	38	0	1459617792	50	4262
2026-01-22 06:52:29.34	307.29	9.21	-40.4	-41.5	18.1	0.00e+00	0	38	0	1466957824	50	4274
2026-01-22 06:52:30.34	307.12	9.18	-40.5	-41.6	18.0	0.00e+00	0	38	0	1474297856	50	4317
2026-01-22 06:52:31.34	306.96	9.16	-40.6	-41.8	17.8	0.00e+00	0	38	0	1481637888	50	4407
2026-01-22 06:52:32.34	306.79	9.13	-40.7	-41.8	17.7	0.00e+00	0	38	0	1487929344	50	4438
2026-01-22 06:52:33.35	306.62	9.11	-40.7	-41.8	17.7	0.00e+00	0	38	0	1495269376	51	4173
2026-01-22 06:52:34.35	306.46	9.08	-40.7	-41.9	17.7	0.00e+00	0	38	0	1503657984	51	4217
2026-01-22 06:52:35.35	306.29	9.06	-40.7	-41.9	17.7	0.00e+00	0	38	0	1509949440	51	4208
2026-01-22 06:52:36.35	306.12	9.03	-40.7	-41.8	17.7	0.00e+00	0	38	0	1517289472	51	4188
2026-01-22 06:52:37.35	305.96	9.01	-40.7	-41.9	17.7	0.00e+00	0	38	0	1524629504	51	4216
2026-01-22 06:52:38.35	305.79	8.98	-50.2	-60.4	3.8	8.46e-01	0	38	104	1528823808	70	11886
2026-01-22 06:52:39.35	305.63	8.95	-50.6	-61.2	3.8	8.47e-01	0	38	104	1528823808	70	13006
2026-01-22 06:52:40.34	305.47	8.93	-50.7	-61.3	3.8	8.47e-01	0	38	104	1528823808	70	13250
2026-01-22 06:52:41.34	305.30	8.90	-50.6	-61.4	3.8	8.47e-01	0	38	104	1528823808	70	13400
2026-01-22 06:52:42.33	305.14	8.88	-50.8	-61.5	3.8	8.49e-01	0	38	104	1528823808	71	12793
2026-01-22 06:52:43.33	304.98	8.85	-50.7	-61.6	3.8	8.48e-01	0	38	104	1528823808	71	12837
2026-01-22 06:52:44.33	304.81	8.82	-50.9	-61.6	3.8	8.48e-01	0	38	104	1528823808	71	12931
2026-01-22 06:52:45.32	304.65	8.79	-51.0	-61.7	3.8	8.47e-01	0	38	104	1528823808	71	13016
2026-01-22 06:52:46.32	304.49	8.77	-51.0	-61.7	3.8	8.47e-01	0	38	104	1528823808	71	13030
2026-01-22 06:52:47.31	304.33	8.74	-51.0	-61.7	3.8	8.47e-01	0	38	104	1528823808	71	13010
2026-01-22 06:52:48.31	304.17	8.71	-50.8	-61.7	3.8	8.46e-01	0	38	104	1528823808	71	13010
2026-01-22 06:52:49.31	304.01	8.68	-51.0	-61.7	3.8	8.48e-01	0	38	104	1528823808	71	12977
2026-01-22 06:52:50.31	303.84	8.66	-50.8	-61.6	3.8	8.47e-01	0	38	104	1528823808	71	12953
2026-01-22 06:52:51.30	303.69	8.63	-50.8	-61.7	3.8	8.47e-01	0	38	104	1528823808	71	12979
2026-01-22 06:52:52.30	303.52	8.60	-50.8	-61.6	3.8	8.46e-01	0	38	104	1528823808	71	12886
2026-01-22 06:52:53.29	303.37	8.57	-50.8	-61.6	3.8	8.46e-01	0	38	104	1528823808	71	12895
2026-01-22 06:52:54.29	303.21	8.54	-50.8	-61.6	3.8	8.46e-01	0	38	104	1528823808	71	12867
2026-01-22 06:52:55.28	303.05	8.51	-50.8	-61.7	3.8	8.46e-01	0	38	104	1528823808	71	12974
2026-01-22 06:52:56.28	302.89	8.48	-50.8	-61.6	3.8	8.47e-01	0	38	104	1528823808	71	12894
2026-01-22 06:52:57.27	302.73	8.45	-50.7	-61.6	3.8	8.47e-01	0	38	104	1528823808	71	12875
2026-01-22 06:52:58.27	302.57	8.42	-50.7	-61.5	3.8	8.46e-01	0	38	104	1528823808	71	12747
2026-01-22 06:52:59.27	302.41	8.39	-50.7	-61.5	3.8	8.48e-01	0	38	104	1528823808	71	12780
2026-01-22 06:53:00.27	302.26	8.36	-50.7	-61.6	3.8	8.46e-01	0	38	104	1528823808	71	12812
2026-01-22 06:53:01.26	302.10	8.33	-50.6	-61.5	3.8	8.47e-01	0	39	104	1528823808	71	12792
2026-01-22 06:53:02.26	301.94	8.30	-50.6	-61.6	3.8	8.47e-01	0	38	104	1528823808	71	12851
2026-01-22 06:53:03.25	301.79	8.27	-50.6	-61.6	3.8	8.47e-01	0	38	104	1528823808	71	12848
2026-01-22 06:53:04.25	301.63	8.24	-50.6	-61.5	3.8	8.47e-01	0	38	104	1528823808	71	12788
2026-01-22 06:53:05.25	301.47	8.21	-50.6	-61.5	3.8	8.47e-01	0	38	104	1528823808	71	12771
2026-01-22 06:53:06.24	301.32	8.18	-50.6	-61.6	3.8	8.46e-01	0	38	104	1528823808	71	12824
2026-01-22 06:53:07.24	301.16	8.15	-50.6	-61.6	3.8	8.47e-01	0	38	104	1528823808	71	12864
2026-01-22 06:53:08.24	301.01	8.12	-50.6	-61.5	3.8	8.45e-01	0	38	104	1528823808	71	12760
2026-01-22 06:53:09.23	300.85	8.09	-50.6	-61.5	3.8	8.46e-01	0	38	104	1528823808	71	12797
2026-01-22 06:53:10.23	300.70	8.06	-50.6	-61.5	3.8	8.46e-01	0	38	104	1528823808	71	12803
2026-01-22 06:53:11.22	300.55	8.03	-50.6	-61.5	3.8	8.48e-01	0	38	104	1528823808	71	12719
2026-01-22 06:53:12.22	300.39	7.99	-50.6	-61.5	3.8	8.46e-01	0	38	104	1528823808	71	12794
2026-01-22 06:53:13.21	300.24	7.96	-50.6	-61.6	3.8	8.47e-01	0	38	104	1528823808	71	12858
2026-01-22 06:53:14.21	300.09	7.93	-50.6	-61.5	3.8	8.46e-01	0	38	104	1528823808	71	12750
2026-01-22 06:53:15.20	299.94	7.90	-50.6	-61.5	3.8	8.48e-01	0	38	104	1528823808	71	12772
2026-01-22 06:53:16.20	299.78	7.87	-50.6	-61.5	3.8	8.47e-01	0	38	104	1528823808	71	12807
2026-01-22 06:53:17.20	299.63	7.83	-50.6	-61.5	3.8	8.48e-01	0	38	104	1528823808	71	12755
2026-01-22 06:53:18.19	299.48	7.80	-50.6	-61.5	3.8	8.47e-01	0	38	104	1528823808	71	12789
2026-01-22 06:53:19.19	299.33	7.77	-50.6	-61.5	3.8	8.47e-01	0	39	104	1528823808	71	12804
2026-01-22 06:53:20.19	299.18	7.73	-50.6	-61.6	3.8	8.47e-01	0	38	104	1528823808	71	12812
2026-01-22 06:53:21.18	299.03	7.70	-50.6	-61.5	3.8	8.47e-01	0	38	104	1528823808	71	12709
2026-01-22 06:53:22.18	298.88	7.67	-50.6	-61.5	3.8	8.47e-01	0	38	104	1528823808	71	12791
2026-01-22 06:53:23.18	298.73	7.63	-50.6	-61.5	3.8	8.48e-01	0	38	104	1528823808	71	12779
2026-01-22 06:53:24.17	298.58	7.60	-50.6	-61.5	3.8	8.46e-01	0	38	104	1528823808	71	12759
2026-01-22 06:53:25.17	298.43	7.57	-50.6	-61.5	3.8	8.47e-01	0	38	104	1528823808	71	12723
2026-01-22 06:53:26.16	298.28	7.53	-50.6	-61.5	3.8	8.46e-01	0	38	104	1528823808	71	12758
2026-01-22 06:53:27.16	298.13	7.50	-50.6	-61.5	3.8	8.47e-01	0	38	104	1528823808	71	12758
2026-01-22 06:53:28.15	297.99	7.47	-50.6	-61.5	3.8	8.47e-01	0	38	104	1528823808	71	12789
2026-01-22 06:53:29.15	297.84	7.43	-50.6	-61.5	3.8	8.46e-01	0	38	104	1528823808	71	12742
2026-01-22 06:53:30.15	297.69	7.40	-50.6	-61.5	3.8	8.46e-01	0	38	104	1528823808	71	12734
2026-01-22 06:53:31.14	297.54	7.36	-50.6	-61.5	3.8	8.46e-01	0	38	104	1528823808	71	12700
2026-01-22 06:53:32.14	297.40	7.33	-50.6	-61.5	3.8	8.47e-01	0	38	104	1528823808	71	12733
2026-01-22 06:53:33.14	297.25	7.29	-50.6	-61.6	3.8	8.48e-01	0	38	104	1528823808	71	12843
2026-01-22 06:53:34.13	297.11	7.26	-50.6	-61.5	3.8	8.47e-01	0	39	104	1528823808	71	12773
2026-01-22 06:53:35.13	296.96	7.22	-50.6	-61.5	3.8	8.48e-01	0	38	104	1528823808	71	12768
2026-01-22 06:53:36.13	296.81	7.19	-50.6	-61.5	3.8	8.47e-01	0	38	104	1528823808	71	12753
2026-01-22 06:53:37.12	296.67	7.15	-50.6	-61.5	3.8	8.46e-01	0	38	104	1528823808	71	12727
2026-01-22 06:53:38.12	296.52	7.12	-50.6	-61.5	3.8	8.47e-01	0	38	104	1528823808	71	12748
2026-01-22 06:53:39.11	296.38	7.08	-50.6	-61.6	3.8	8.47e-01	0	38	104	1528823808	71	12834
2026-01-22 06:53:40.11	296.24	7.05	-50.6	-61.5	3.8	8.46e-01	0	38	104	1528823808	71	12731
2026-01-22 06:53:41.10	296.10	7.01	-50.6	-61.5	3.8	8.47e-01	0	38	104	1528823808	71	12760
2026-01-22 06:53:42.10	295.95	6.97	-50.6	-61.5	3.8	8.46e-01	0	38	104	1528823808	71	12714
2026-01-22 06:53:43.09	295.81	6.94	-50.6	-61.5	3.8	8.46e-01	0	38	104	1528823808	71	12763
2026-01-22 06:53:44.09	295.67	6.90	-50.6	-61.5	3.8	8.47e-01	0	38	104	1528823808	71	12778
2026-01-22 06:53:45.08	295.53	6.87	-50.6	-61.5	3.8	8.46e-01	0	38	104	1528823808	71	12702
2026-01-22 06:53:46.08	295.38	6.83	-50.6	-61.6	3.8	8.47e-01	0	38	104	1528823808	71	12866
2026-01-22 06:53:47.08	295.24	6.79	-50.6	-61.5	3.8	8.47e-01	0	38	104	1528823808	71	12687
2026-01-22 06:53:48.07	295.10	6.76	-50.6	-61.5	3.8	8.48e-01	0	39	104	1528823808	71	12785
2026-01-22 06:53:49.06	294.96	6.72	-50.6	-61.5	3.8	8.46e-01	0	38	104	1528823808	71	12796
2026-01-22 06:53:50.06	294.82	6.68	-50.6	-61.5	3.8	8.47e-01	0	38	104	1528823808	71	12755
2026-01-22 06:53:51.06	294.68	6.65	-50.6	-61.5	3.8	8.47e-01	0	38	104	1528823808	71	12748
2026-01-22 06:53:52.05	294.54	6.61	-50.6	-61.5	3.8	8.47e-01	0	38	104	1528823808	71	12763
2026-01-22 06:53:53.05	294.40	6.57	-50.6	-61.5	3.8	8.48e-01	0	38	104	1528823808	71	12718
2026-01-22 06:53:54.04	294.27	6.54	-50.6	-61.5	3.8	8.47e-01	0	38	104	1528823808	71	12779
2026-01-22 06:53:55.04	294.13	6.50	-50.6	-61.5	3.8	8.48e-01	0	38	104	1528823808	71	12759
2026-01-22 06:53:56.03	293.99	6.46	-50.6	-61.5	3.8	8.47e-01	0	38	104	1528823808	71	12762
2026-01-22 06:53:57.03	293.85	6.42	-50.6	-61.5	3.8	8.47e-01	0	38	104	1528823808	71	12679
2026-01-22 06:53:58.02	293.72	6.39	-50.6	-61.5	3.8	8.47e-01	0	38	104	1528823808	71	12737
2026-01-22 06:53:59.02	293.58	6.35	-50.6	-61.5	3.8	8.46e-01	0	38	104	1528823808	71	12669
2026-01-22 06:54:00.01	293.44	6.31	-50.6	-61.5	3.8	8.46e-01	0	38	104	1528823808	71	12703
2026-01-22 06:54:01.01	293.31	6.27	-50.6	-61.5	3.8	8.46e-01	0	39	104	1528823808	71	12746
2026-01-22 06:54:02.01	293.17	6.24	-50.6	-61.5	3.8	8.46e-01	0	38	104	1528823808	71	12692
2026-01-22 06:54:03.00	293.03	6.20	-50.6	-61.6	3.8	8.46e-01	0	38	104	1528823808	71	12817
2026-01-22 06:54:04.00	292.90	6.16	-50.6	-61.4	3.8	8.46e-01	0	38	104	1528823808	71	12656
2026-01-22 06:54:05.00	292.76	6.12	-50.6	-61.5	3.8	8.46e-01	0	38	104	1528823808	71	12684
2026-01-22 06:54:05.99	292.63	6.08	-50.6	-61.5	3.8	8.45e-01	0	38	104	1528823808	71	12738
2026-01-22 06:54:06.99	292.50	6.04	-50.6	-61.5	3.8	8.48e-01	0	38	104	1528823808	71	12739
2026-01-22 06:54:07.99	292.36	6.01	-50.6	-61.5	3.8	8.46e-01	0	38	104	1528823808	71	12721
2026-01-22 06:54:08.98	292.23	5.97	-50.6	-61.5	3.8	8.45e-01	0	38	104	1528823808	71	12738
2026-01-22 06:54:09.98	292.10	5.93	-50.6	-61.4	3.8	8.47e-01	0	38	104	1528823808	71	12658
2026-01-22 06:54:10.97	291.96	5.89	-50.6	-61.5	3.8	8.48e-01	0	38	104	1528823808	71	12731
2026-01-22 06:54:11.97	291.83	5.85	-50.6	-61.5	3.8	8.46e-01	0	38	104	1528823808	71	12699
2026-01-22 06:54:12.96	291.70	5.81	-50.6	-61.5	3.8	8.47e-01	0	38	104	1528823808	71	12725
2026-01-22 06:54:13.96	291.57	5.77	-50.6	-61.5	3.8	8.47e-01	0	38	104	1528823808	71	12714
2026-01-22 06:54:14.96	291.44	5.73	-50.6	-61.5	3.8	8.46e-01	0	38	104	1528823808	71	12737
2026-01-22 06:54:15.95	291.31	5.70	-50.6	-61.5	3.8	8.46e-01	0	38	104	1528823808	71	12772
2026-01-22 06:54:16.95	291.18	5.66	-50.6	-61.5	3.8	8.47e-01	0	38	104	1528823808	71	12715
2026-01-22 06:54:17.94	291.05	5.62	-50.6	-61.5	3.8	8.46e-01	0	38	104	1528823808	71	12772
2026-01-22 06:54:18.94	290.92	5.58	-50.6	-61.5	3.8	8.47e-01	0	39	104	1528823808	71	12742
2026-01-22 06:54:19.93	290.79	5.54	-50.6	-61.5	3.8	8.47e-01	0	38	104	1528823808	71	12691
2026-01-22 06:54:20.93	290.66	5.50	-50.6	-61.5	3.8	8.46e-01	0	38	104	1528823808	71	12720
2026-01-22 06:54:21.93	290.53	5.46	-50.6	-61.5	3.8	8.47e-01	0	38	104	1528823808	71	12685
2026-01-22 06:54:22.92	290.40	5.42	-50.6	-61.5	3.8	8.46e-01	0	38	104	1528823808	71	12672
2026-01-22 06:54:23.92	290.27	5.38	-50.6	-61.5	3.8	8.47e-01	0	38	104	1528823808	71	12752
2026-01-22 06:54:24.91	290.15	5.34	-50.6	-61.5	3.8	8.46e-01	0	38	104	1528823808	71	12690
2026-01-22 06:54:25.91	290.02	5.30	-50.6	-61.5	3.8	8.47e-01	0	38	104	1528823808	71	12740
2026-01-22 06:54:26.91	289.89	5.26	-50.6	-61.5	3.8	8.46e-01	0	38	104	1528823808	71	12713
2026-01-22 06:54:27.90	289.76	5.22	-50.6	-61.5	3.8	8.47e-01	0	38	104	1528823808	71	12699
2026-01-22 06:54:28.90	289.64	5.18	-50.6	-61.5	3.8	8.47e-01	0	38	104	1528823808	71	12714
2026-01-22 06:54:29.90	289.51	5.14	-50.6	-61.6	3.8	8.47e-01	0	38	104	1528823808	71	12827
2026-01-22 06:54:30.89	289.39	5.10	-50.6	-61.5	3.8	8.47e-01	0	38	104	1528823808	71	12722
2026-01-22 06:54:31.89	289.26	5.06	-50.6	-61.5	3.8	8.47e-01	0	38	104	1528823808	71	12718
2026-01-22 06:54:32.89	289.14	5.02	-50.6	-61.5	3.8	8.47e-01	0	38	104	1528823808	71	12704
2026-01-22 06:54:33.89	289.01	4.98	-50.6	-61.5	3.8	8.47e-01	0	39	104	1528823808	71	12755

#Closed at: 2026-01-22 06:54:34
#Recorded file [1528 MB]: D:/Data/31040_260122_094713.dat