passes_logs/2026/01/22/T1/T1__20260122_220102_KHAYYAM_rec.log

#Pass ID: 20260122_220102_KHAYYAM
#Satellite: KHAYYAM
#Configuration: KHAYYAM_480M
#almurnet v.1.7.20251203
#Start time: 2026-01-22 22:01:03

#Version: 2.0.20230620
#Station: T1
#Location: 37.570604 lon 55.790049 lat
#TLE: 1 53370U 22096A   26022.50444257  .00007758  00000+0  31649-3 0  9992
#TLE: 2 53370  97.3554 289.3799 0001875 107.2390 252.9053 15.24700694192380

#Time	Az	El	Level	Level2	SNR	BER	BlckErr	Temp	State	Recorded	gain1	gain2
2026-01-22 22:01:03.20	4.52	5.23	-50.0	-55.7	3.4	0.00e+00	0	45	0	0	72	26565
2026-01-22 22:01:04.19	4.45	5.30	-49.0	-55.1	3.7	0.00e+00	0	45	104	0	68	30959
2026-01-22 22:01:05.18	4.38	5.38	-49.1	-55.1	3.7	0.00e+00	0	45	104	0	68	30924
2026-01-22 22:01:06.17	4.32	5.46	-49.0	-55.1	3.7	0.00e+00	0	45	104	0	68	31120
2026-01-22 22:01:07.16	4.25	5.54	-49.0	-55.1	3.7	0.00e+00	0	45	104	0	68	31089
2026-01-22 22:01:08.16	4.18	5.62	-49.0	-55.1	3.7	0.00e+00	0	45	104	0	68	30943
2026-01-22 22:01:09.15	4.11	5.69	-49.0	-55.1	3.7	0.00e+00	0	45	104	0	68	30981
2026-01-22 22:01:10.14	4.04	5.77	-49.0	-55.1	3.7	0.00e+00	0	45	104	0	68	31044
2026-01-22 22:01:11.14	3.97	5.85	-49.0	-55.1	3.7	0.00e+00	0	45	104	0	68	30989
2026-01-22 22:01:12.13	3.90	5.93	-49.0	-55.1	3.7	0.00e+00	0	45	104	0	68	30990
2026-01-22 22:01:13.12	3.83	6.01	-49.0	-55.1	3.7	0.00e+00	0	45	104	0	68	30894
2026-01-22 22:01:14.12	3.76	6.09	-49.0	-55.0	3.7	0.00e+00	0	45	104	0	68	30817
2026-01-22 22:01:15.11	3.69	6.17	-49.0	-55.1	3.7	0.00e+00	0	46	104	0	68	30878
2026-01-22 22:01:16.10	3.61	6.25	-49.0	-55.0	3.7	0.00e+00	0	46	104	0	68	30847
2026-01-22 22:01:17.10	3.54	6.33	-49.0	-55.1	3.7	0.00e+00	0	46	104	0	68	30972
2026-01-22 22:01:18.09	3.47	6.42	-49.0	-55.0	3.7	0.00e+00	0	46	104	0	68	30759
2026-01-22 22:01:19.08	3.39	6.50	-49.0	-55.0	3.7	0.00e+00	0	46	104	0	68	30843
2026-01-22 22:01:20.07	3.32	6.58	-49.0	-55.0	3.7	0.00e+00	0	46	104	0	68	30808
2026-01-22 22:01:21.07	3.24	6.66	-49.0	-55.1	3.7	0.00e+00	0	46	104	0	68	30911
2026-01-22 22:01:22.06	3.17	6.74	-49.0	-55.1	3.7	0.00e+00	0	46	104	0	68	30917
2026-01-22 22:01:23.05	3.09	6.83	-49.0	-55.0	3.7	0.00e+00	0	46	104	0	68	30727
2026-01-22 22:01:24.05	3.01	6.91	-49.0	-55.1	3.7	0.00e+00	0	46	104	0	68	31022
2026-01-22 22:01:25.04	2.94	6.99	-49.0	-55.0	3.7	0.00e+00	0	46	104	0	68	30871
2026-01-22 22:01:26.03	2.86	7.08	-49.0	-55.1	3.7	0.00e+00	0	46	104	0	68	30897
2026-01-22 22:01:27.02	2.78	7.16	-49.0	-55.0	3.7	0.00e+00	0	46	104	0	68	30753
2026-01-22 22:01:28.02	2.70	7.25	-49.0	-55.0	3.7	0.00e+00	0	46	104	0	68	30779
2026-01-22 22:01:29.01	2.62	7.33	-49.0	-55.0	3.7	0.00e+00	0	46	104	0	68	30709
2026-01-22 22:01:30.01	2.54	7.42	-49.0	-55.0	3.7	0.00e+00	0	47	104	0	68	30650
2026-01-22 22:01:31.00	2.46	7.50	-49.0	-55.1	3.7	0.00e+00	0	47	104	0	68	30947
2026-01-22 22:01:31.99	2.38	7.59	-49.0	-55.1	3.7	0.00e+00	0	47	104	0	68	30962
2026-01-22 22:01:32.98	2.29	7.67	-49.0	-55.0	3.7	0.00e+00	0	47	104	0	68	30757
2026-01-22 22:01:33.98	2.21	7.76	-49.0	-55.0	3.7	0.00e+00	0	47	104	0	68	30783
2026-01-22 22:01:34.97	2.13	7.85	-49.0	-55.1	3.7	0.00e+00	0	47	104	0	68	30899
2026-01-22 22:01:35.96	2.04	7.93	-49.0	-55.0	3.7	0.00e+00	0	47	104	0	68	30863
2026-01-22 22:01:36.96	1.96	8.02	-48.9	-55.0	3.7	0.00e+00	0	47	104	0	68	30611
2026-01-22 22:01:37.95	1.87	8.11	-49.0	-55.0	3.7	0.00e+00	0	47	104	0	68	30677
2026-01-22 22:01:38.94	1.78	8.20	-48.9	-55.0	3.7	0.00e+00	0	47	104	0	68	30749
2026-01-22 22:01:39.94	1.70	8.29	-49.0	-55.0	3.7	0.00e+00	0	47	104	0	68	30826
2026-01-22 22:01:40.93	1.61	8.37	-49.0	-55.0	3.7	0.00e+00	0	47	104	0	68	30847
2026-01-22 22:01:41.92	1.52	8.46	-49.0	-55.0	3.7	0.00e+00	0	47	104	0	68	30677
2026-01-22 22:01:42.91	1.43	8.55	-49.0	-55.1	3.7	0.00e+00	0	47	104	0	68	30905
2026-01-22 22:01:43.91	1.34	8.64	-49.0	-55.0	3.7	0.00e+00	0	47	104	0	68	30688
2026-01-22 22:01:44.90	1.25	8.73	-49.0	-55.1	3.7	0.00e+00	0	47	104	0	68	30896
2026-01-22 22:01:45.89	1.16	8.82	-49.0	-55.0	3.7	0.00e+00	0	47	104	0	68	30804
2026-01-22 22:01:46.89	1.06	8.92	-49.0	-55.0	3.7	0.00e+00	0	47	104	0	68	30746
2026-01-22 22:01:47.88	0.97	9.01	-49.0	-55.0	3.7	0.00e+00	0	47	104	0	68	30856
2026-01-22 22:01:48.87	0.88	9.10	-49.3	-55.3	3.7	0.00e+00	0	48	104	0	69	30149
2026-01-22 22:01:49.87	0.78	9.19	-49.5	-55.5	3.7	0.00e+00	0	47	104	0	69	30584
2026-01-22 22:01:50.86	0.69	9.29	-49.0	-55.0	3.7	0.00e+00	0	47	104	0	69	29135
2026-01-22 22:01:51.86	0.59	9.38	-50.5	-56.2	3.7	0.00e+00	0	47	104	0	71	29709
2026-01-22 22:01:52.85	0.49	9.47	-49.3	-55.2	3.7	0.00e+00	0	48	104	0	70	28146
2026-01-22 22:01:53.85	0.40	9.57	-49.4	-55.3	3.7	0.00e+00	0	47	104	0	70	28265
2026-01-22 22:01:54.84	0.30	9.66	-49.6	-55.5	3.7	0.00e+00	0	48	104	0	70	29023
2026-01-22 22:01:55.83	0.20	9.76	-49.9	-55.7	3.7	0.00e+00	0	48	104	0	70	29799
2026-01-22 22:01:56.83	0.10	9.85	-50.2	-55.9	3.7	0.00e+00	0	48	104	0	71	28617
2026-01-22 22:01:57.83	360.00	9.95	-50.6	-56.2	3.7	0.00e+00	0	48	104	0	71	29795
2026-01-22 22:01:58.82	359.89	10.05	-50.7	-56.3	3.7	0.00e+00	0	48	104	0	72	28256
2026-01-22 22:01:59.82	359.79	10.14	-51.5	-56.6	3.7	0.00e+00	0	48	104	0	73	27743
2026-01-22 22:02:00.89	359.68	10.25	-51.0	-56.5	3.7	0.00e+00	0	48	104	0	73	27338
2026-01-22 22:02:01.75	359.59	10.33	-50.9	-56.3	3.7	0.00e+00	0	48	104	0	73	26885
2026-01-22 22:02:03.09	359.45	10.46	-51.6	-56.8	3.7	0.00e+00	0	48	104	0	73	28460
2026-01-22 22:02:03.80	359.37	10.53	-50.9	-56.6	3.7	0.00e+00	0	48	104	0	73	27702
2026-01-22 22:02:05.30	359.21	10.68	-50.6	-56.2	3.7	0.00e+00	0	48	104	0	72	27978
2026-01-22 22:02:06.01	359.13	10.75	-50.8	-56.4	3.7	0.00e+00	0	48	104	0	72	28711
2026-01-22 22:02:07.29	358.99	10.88	-51.3	-56.5	3.6	0.00e+00	0	48	104	0	73	27240
2026-01-22 22:02:08.01	358.91	10.96	-50.6	-56.1	3.7	0.00e+00	0	48	104	0	72	27816
2026-01-22 22:02:09.29	358.76	11.09	-50.9	-56.1	3.7	0.00e+00	0	48	104	0	72	27756
2026-01-22 22:02:10.01	358.68	11.16	-50.6	-56.2	3.7	0.00e+00	0	48	104	0	72	27848
2026-01-22 22:02:11.29	358.54	11.29	-50.7	-55.8	3.7	0.00e+00	0	48	104	0	72	26884
2026-01-22 22:02:12.00	358.45	11.36	-50.8	-56.2	3.7	0.00e+00	0	48	104	0	72	28058
2026-01-22 22:02:13.29	358.30	11.50	-51.2	-56.6	3.7	0.00e+00	0	48	104	0	73	27654
2026-01-22 22:02:14.00	358.22	11.57	-51.3	-56.6	3.7	0.00e+00	0	48	104	0	73	27629
2026-01-22 22:02:15.27	358.07	11.70	-51.2	-56.5	3.7	0.00e+00	0	48	104	0	73	27424
2026-01-22 22:02:16.08	357.97	11.79	-51.2	-56.5	3.7	0.00e+00	0	48	104	0	73	27422
2026-01-22 22:02:17.51	357.80	11.94	-52.1	-57.0	3.7	0.00e+00	0	48	104	0	75	25781
2026-01-22 22:02:18.22	357.71	12.02	-52.0	-57.0	3.7	0.00e+00	0	48	104	0	75	25816
2026-01-22 22:02:19.71	357.53	12.17	-50.0	-56.0	3.7	0.00e+00	0	48	104	0	71	29103
2026-01-22 22:02:20.42	357.44	12.25	-50.1	-56.1	3.7	0.00e+00	0	48	104	0	71	29156
2026-01-22 22:02:21.78	357.27	12.40	-49.8	-56.0	3.7	0.00e+00	0	48	104	0	71	28984
2026-01-22 22:02:22.49	357.18	12.47	-49.7	-55.9	3.7	0.00e+00	0	48	104	0	71	28495
2026-01-22 22:02:23.77	357.02	12.61	-49.7	-56.0	3.7	0.00e+00	0	48	104	0	70	30596
2026-01-22 22:02:24.48	356.92	12.69	-50.2	-56.3	3.7	0.00e+00	0	49	104	0	71	29829
2026-01-22 22:02:25.76	356.76	12.83	-51.9	-56.9	3.7	0.00e+00	0	48	104	0	74	27026
2026-01-22 22:02:26.48	356.66	12.91	-52.1	-57.2	3.7	0.00e+00	0	48	104	0	74	27836
2026-01-22 22:02:27.76	356.49	13.05	-51.9	-56.9	3.7	0.00e+00	0	48	104	0	75	25551
2026-01-22 22:02:28.47	356.40	13.13	-51.9	-56.9	3.7	0.00e+00	0	48	104	0	75	25456
2026-01-22 22:02:29.75	356.22	13.28	-52.0	-57.0	3.7	0.00e+00	0	48	104	0	75	25873
2026-01-22 22:02:30.46	356.13	13.35	-52.0	-57.0	3.7	0.00e+00	0	49	104	0	75	25772
2026-01-22 22:02:31.74	355.95	13.50	-52.0	-57.0	3.7	0.00e+00	0	48	104	0	75	25799
2026-01-22 22:02:32.58	355.83	13.60	-52.0	-57.0	3.7	0.00e+00	0	48	104	0	75	25796
2026-01-22 22:02:33.72	355.67	13.73	-52.5	-57.5	3.7	0.00e+00	0	48	104	0	75	27299
2026-01-22 22:02:34.57	355.55	13.82	-51.5	-56.9	3.7	0.00e+00	0	48	104	0	75	25633
2026-01-22 22:02:35.71	355.39	13.95	-51.9	-57.2	3.7	0.00e+00	0	49	104	0	74	28134
2026-01-22 22:02:36.56	355.27	14.05	-51.4	-56.9	3.7	0.00e+00	0	48	104	0	74	27149
2026-01-22 22:02:37.70	355.10	14.19	-51.4	-56.8	3.7	0.00e+00	0	49	104	0	74	26782
2026-01-22 22:02:38.55	354.97	14.29	-51.4	-56.9	3.7	0.00e+00	0	49	104	0	74	27035
2026-01-22 22:02:39.69	354.80	14.42	-52.2	-57.4	3.7	0.00e+00	0	48	104	0	75	27088
2026-01-22 22:02:40.54	354.68	14.52	-51.9	-57.1	3.7	0.00e+00	0	49	104	0	75	26256
2026-01-22 22:02:41.67	354.51	14.65	-51.4	-56.9	3.7	0.00e+00	0	49	104	0	74	27101
2026-01-22 22:02:42.53	354.37	14.76	-51.4	-57.0	3.7	0.00e+00	0	49	104	0	74	27368
2026-01-22 22:02:43.66	354.20	14.89	-51.5	-56.9	3.7	0.00e+00	0	48	104	0	74	27054
2026-01-22 22:02:44.58	354.05	15.00	-51.7	-57.1	3.7	0.00e+00	0	49	104	0	74	27534
2026-01-22 22:02:45.75	353.87	15.15	-51.8	-57.2	3.7	0.00e+00	0	49	104	0	74	27986
2026-01-22 22:02:46.60	353.73	15.25	-52.1	-57.5	3.7	0.00e+00	0	49	104	0	74	28960
2026-01-22 22:02:47.74	353.55	15.39	-51.4	-57.0	3.7	0.00e+00	0	49	104	0	74	27225
2026-01-22 22:02:48.59	353.41	15.49	-52.6	-57.5	3.7	0.00e+00	0	49	104	0	75	27336
2026-01-22 22:02:49.73	353.22	15.63	-51.9	-57.2	3.7	0.00e+00	0	49	104	0	75	26356
2026-01-22 22:02:50.58	353.08	15.74	-52.5	-57.4	3.7	0.00e+00	0	49	104	0	75	27066
2026-01-22 22:02:52.07	352.83	15.93	-52.7	-57.5	3.7	0.00e+00	0	49	104	0	76	25698
2026-01-22 22:02:52.78	352.71	16.02	-52.7	-57.5	3.7	0.00e+00	0	49	104	0	76	25692
2026-01-22 22:02:54.26	352.46	16.20	-52.8	-57.6	3.7	0.00e+00	0	49	104	0	76	26039
2026-01-22 22:02:54.97	352.33	16.29	-52.8	-57.6	3.7	0.00e+00	0	49	104	0	76	26008
2026-01-22 22:02:56.27	352.11	16.46	-52.6	-57.5	3.7	0.00e+00	0	49	104	0	76	25870
2026-01-22 22:02:56.98	351.98	16.55	-52.5	-57.6	3.7	0.00e+00	0	49	104	0	76	26152
2026-01-22 22:02:58.26	351.75	16.71	-52.2	-57.3	3.7	0.00e+00	0	49	104	0	76	25316
2026-01-22 22:02:58.98	351.62	16.81	-52.8	-57.7	3.7	0.00e+00	0	49	104	0	76	26350
2026-01-22 22:03:00.26	351.39	16.97	-51.3	-56.6	3.7	0.00e+00	0	49	104	0	74	26266
2026-01-22 22:03:00.99	351.25	17.07	-52.5	-57.5	3.7	0.00e+00	0	49	104	0	75	27253
2026-01-22 22:03:02.27	351.01	17.24	-50.7	-56.2	3.7	0.00e+00	0	49	104	0	73	26518
2026-01-22 22:03:02.98	350.88	17.33	-51.1	-56.5	3.7	0.00e+00	0	49	104	0	73	27399
2026-01-22 22:03:04.26	350.63	17.50	-50.6	-56.2	3.7	0.00e+00	0	49	104	0	73	26516
2026-01-22 22:03:04.98	350.49	17.60	-50.7	-56.3	3.7	0.00e+00	0	49	104	0	73	26731
2026-01-22 22:03:06.26	350.24	17.77	-50.8	-56.3	3.7	0.00e+00	0	49	104	0	73	26721
2026-01-22 22:03:06.99	350.10	17.87	-50.9	-56.3	3.7	0.00e+00	0	49	104	0	73	26860
2026-01-22 22:03:08.27	349.85	18.04	-52.1	-57.1	3.7	0.00e+00	0	49	104	0	74	27816
2026-01-22 22:03:08.98	349.70	18.14	-51.5	-56.8	3.7	0.00e+00	0	49	104	0	74	26670
2026-01-22 22:03:10.26	349.44	18.31	-50.5	-56.1	3.7	0.00e+00	0	49	104	0	72	27727
2026-01-22 22:03:10.97	349.30	18.41	-51.3	-56.7	3.7	0.00e+00	0	49	104	0	73	27931
2026-01-22 22:03:12.25	349.03	18.59	-50.5	-56.1	3.7	0.00e+00	0	49	104	0	72	27585
2026-01-22 22:03:12.99	348.88	18.69	-50.8	-56.3	3.7	0.00e+00	0	49	104	0	72	28209
2026-01-22 22:03:14.27	348.60	18.87	-51.1	-56.5	3.7	0.00e+00	0	49	104	0	72	29109
2026-01-22 22:03:14.98	348.45	18.97	-51.4	-56.7	3.7	0.00e+00	0	49	104	0	73	27981
2026-01-22 22:03:16.26	348.17	19.15	-52.0	-57.0	3.7	0.00e+00	0	49	104	0	74	27426
2026-01-22 22:03:16.97	348.02	19.25	-52.2	-57.1	3.7	0.00e+00	0	49	104	0	75	26153
2026-01-22 22:03:18.25	347.73	19.43	-51.9	-56.9	3.7	0.00e+00	0	49	104	0	75	25430
2026-01-22 22:03:18.99	347.57	19.53	-53.0	-57.6	3.7	0.00e+00	0	49	104	0	76	26274
2026-01-22 22:03:20.27	347.28	19.72	-52.7	-57.5	3.6	0.00e+00	0	49	104	0	76	25733
2026-01-22 22:03:20.98	347.12	19.82	-53.0	-57.6	3.7	0.00e+00	0	49	104	0	76	26130
2026-01-22 22:03:22.26	346.82	20.00	-52.4	-57.4	3.7	0.00e+00	0	49	104	0	76	25458
2026-01-22 22:03:23.10	346.62	20.13	-52.2	-57.3	3.7	0.00e+00	0	49	104	0	76	25210
2026-01-22 22:03:24.24	346.35	20.29	-52.2	-57.2	3.7	0.00e+00	0	49	104	0	76	25077
2026-01-22 22:03:25.09	346.15	20.42	-52.2	-57.2	3.7	0.00e+00	0	49	104	0	76	25064
2026-01-22 22:03:26.23	345.87	20.58	-52.2	-57.2	3.7	0.00e+00	0	49	104	0	76	24962
2026-01-22 22:03:27.08	345.67	20.71	-52.1	-56.9	3.7	0.00e+00	0	49	104	0	76	24241
2026-01-22 22:03:28.21	345.39	20.88	-52.6	-57.4	3.7	0.00e+00	0	49	104	0	76	25585
2026-01-22 22:03:29.07	345.17	21.01	-52.8	-57.4	3.7	0.00e+00	0	49	104	0	76	25437
2026-01-22 22:03:30.21	344.88	21.18	-52.7	-57.2	3.7	0.00e+00	0	49	104	0	76	24895
2026-01-22 22:03:31.06	344.66	21.30	-52.5	-57.3	3.7	0.00e+00	0	49	104	0	76	25187
2026-01-22 22:03:32.31	344.34	21.49	-51.2	-56.4	3.7	0.00e+00	0	49	104	0	74	25658
2026-01-22 22:03:33.16	344.12	21.62	-50.6	-55.9	3.7	0.00e+00	0	49	104	0	73	25479
2026-01-22 22:03:34.29	343.82	21.79	-50.1	-55.5	3.7	0.00e+00	0	49	104	0	72	25966
2026-01-22 22:03:35.15	343.59	21.92	-50.1	-55.5	3.7	0.00e+00	0	49	104	0	72	25809
2026-01-22 22:03:36.29	343.28	22.10	-51.4	-56.5	3.7	0.00e+00	0	49	104	0	73	27462
2026-01-22 22:03:37.14	343.05	22.23	-51.3	-56.6	3.7	0.00e+00	0	49	104	0	74	26071
2026-01-22 22:03:38.48	342.67	22.43	-52.3	-57.2	3.7	0.00e+00	0	49	104	0	75	26288
2026-01-22 22:03:39.20	342.47	22.54	-52.6	-57.2	3.7	0.00e+00	0	49	104	0	75	26555
2026-01-22 22:03:40.47	342.11	22.74	-50.1	-55.7	3.7	0.00e+00	0	49	104	0	72	26552
2026-01-22 22:03:41.18	341.91	22.85	-50.4	-56.0	3.7	0.00e+00	0	49	104	0	72	27359
2026-01-22 22:03:42.73	341.46	23.09	-51.8	-56.6	3.7	0.00e+00	0	49	104	0	74	26186
2026-01-22 22:03:43.44	341.25	23.20	-52.2	-56.8	3.7	0.00e+00	0	49	104	0	75	25329
2026-01-22 22:03:44.72	340.86	23.40	-52.3	-56.9	3.7	0.00e+00	0	49	104	0	75	25550
2026-01-22 22:03:45.45	340.64	23.52	-51.9	-56.6	3.7	0.00e+00	0	49	104	0	75	24750
2026-01-22 22:03:46.72	340.26	23.72	-50.8	-56.0	3.7	0.00e+00	0	49	104	0	73	25972
2026-01-22 22:03:47.43	340.04	23.83	-50.8	-56.0	3.7	0.00e+00	0	49	104	0	73	25972
2026-01-22 22:03:48.71	339.64	24.03	-51.2	-56.2	3.7	0.00e+00	0	49	104	0	73	26570
2026-01-22 22:03:49.43	339.41	24.15	-51.8	-56.5	3.7	0.00e+00	0	49	104	0	74	25841
2026-01-22 22:03:50.71	339.00	24.35	-52.4	-56.9	3.7	0.00e+00	0	49	104	0	75	25390
2026-01-22 22:03:51.42	338.77	24.46	-52.6	-57.1	3.7	0.00e+00	0	49	104	0	75	26083
2026-01-22 22:03:52.70	338.35	24.67	-51.9	-57.1	3.7	0.00e+00	0	49	104	0	75	25980
2026-01-22 22:03:53.42	338.12	24.78	-51.6	-56.9	3.7	0.00e+00	0	49	104	0	75	25554
2026-01-22 22:03:54.70	337.69	24.99	-51.7	-57.0	3.7	0.00e+00	0	49	104	0	74	27408
2026-01-22 22:03:55.43	337.44	25.11	-51.2	-56.6	3.7	0.00e+00	0	49	104	0	74	26244
2026-01-22 22:03:56.71	337.00	25.31	-51.0	-56.4	3.7	0.00e+00	0	49	104	0	74	25525
2026-01-22 22:03:57.42	336.76	25.43	-51.2	-56.5	3.7	0.00e+00	0	49	104	0	74	25705
2026-01-22 22:03:58.76	336.29	25.64	-52.0	-57.1	3.7	0.00e+00	0	49	104	0	75	26097
2026-01-22 22:03:59.47	336.04	25.76	-52.6	-57.5	3.7	0.00e+00	0	49	104	0	75	27452
2026-01-22 22:04:00.76	335.58	25.96	-52.8	-57.6	3.7	0.00e+00	0	49	104	0	76	26161
2026-01-22 22:04:01.47	335.32	26.08	-52.8	-57.7	3.7	0.00e+00	0	49	104	0	76	26352
2026-01-22 22:04:02.78	334.84	26.29	-52.9	-57.6	3.7	0.00e+00	0	49	104	0	76	26180
2026-01-22 22:04:03.49	334.58	26.40	-53.0	-57.6	3.7	0.00e+00	0	49	104	0	76	26099
2026-01-22 22:04:04.77	334.10	26.61	-52.8	-57.5	3.7	0.00e+00	0	49	104	0	76	25854
2026-01-22 22:04:05.48	333.83	26.72	-52.6	-57.5	3.7	0.00e+00	0	49	104	0	76	25679
2026-01-22 22:04:06.76	333.34	26.93	-52.4	-57.5	3.7	0.00e+00	0	49	104	0	75	27299
2026-01-22 22:04:07.51	333.04	27.05	-51.0	-56.5	3.7	0.00e+00	0	49	104	0	74	25696
2026-01-22 22:04:08.79	332.54	27.26	-50.5	-56.1	3.7	0.00e+00	0	49	104	0	71	29446
2026-01-22 22:04:09.52	332.25	27.37	-50.1	-55.8	3.7	0.00e+00	0	49	104	0	71	28330
2026-01-22 22:04:10.80	331.74	27.58	-50.9	-56.3	3.7	0.00e+00	0	49	104	0	73	26771
2026-01-22 22:04:11.59	331.42	27.70	-52.3	-57.2	3.7	0.00e+00	0	49	104	0	75	26517
2026-01-22 22:04:12.79	330.93	27.90	-52.4	-57.2	3.6	0.00e+00	0	49	104	0	75	26515
2026-01-22 22:04:13.78	330.51	28.05	-52.4	-57.0	3.7	0.00e+00	0	49	104	0	75	25950
2026-01-22 22:04:14.95	330.02	28.24	-52.4	-57.0	3.7	0.00e+00	0	49	104	0	75	25823
2026-01-22 22:04:15.81	329.66	28.37	-52.3	-57.0	3.7	0.00e+00	0	49	104	0	75	25722
2026-01-22 22:04:16.94	329.17	28.55	-51.6	-56.6	3.7	0.00e+00	0	49	104	0	75	24635
2026-01-22 22:04:17.79	328.80	28.69	-50.4	-56.0	3.7	0.00e+00	0	49	104	0	72	27206
2026-01-22 22:04:18.93	328.30	28.86	-50.3	-55.9	3.7	0.00e+00	0	49	104	0	72	27084
2026-01-22 22:04:19.78	327.93	29.00	-51.9	-56.7	3.7	0.00e+00	0	49	104	0	74	26326
2026-01-22 22:04:20.92	327.41	29.17	-52.0	-56.9	3.7	0.00e+00	0	49	104	0	74	26927
2026-01-22 22:04:21.77	327.03	29.30	-51.8	-56.6	3.7	0.00e+00	0	49	104	0	74	25992
2026-01-22 22:04:22.91	326.51	29.48	-51.8	-56.6	3.7	0.00e+00	0	49	104	0	74	26229
2026-01-22 22:04:23.76	326.11	29.61	-52.0	-56.9	3.7	0.00e+00	0	49	104	0	74	27104
2026-01-22 22:04:24.90	325.58	29.78	-52.6	-57.4	3.7	0.00e+00	0	49	104	0	75	27066
2026-01-22 22:04:25.75	325.18	29.91	-52.7	-57.4	3.7	0.00e+00	0	49	104	0	76	25570
2026-01-22 22:04:27.00	324.58	30.09	-52.1	-56.7	3.7	0.00e+00	0	49	104	0	76	23579
2026-01-22 22:04:27.85	324.17	30.22	-51.9	-56.7	3.7	0.00e+00	0	49	104	0	75	24968
2026-01-22 22:04:29.07	323.58	30.40	-51.5	-56.4	3.7	0.00e+00	0	49	104	0	75	24147
2026-01-22 22:04:29.92	323.16	30.52	-51.4	-56.4	3.7	0.00e+00	0	49	104	0	74	25561
2026-01-22 22:04:31.06	322.59	30.68	-51.3	-56.3	3.7	0.00e+00	0	49	104	0	74	25139
2026-01-22 22:04:31.91	322.17	30.80	-52.2	-57.1	3.7	0.00e+00	0	49	104	0	75	26180
2026-01-22 22:04:33.05	321.59	30.97	-52.5	-57.3	3.7	0.00e+00	0	50	104	0	75	26811
2026-01-22 22:04:33.90	321.15	31.08	-52.8	-57.4	3.7	0.00e+00	0	49	104	0	76	25570
2026-01-22 22:04:35.03	320.57	31.24	-52.8	-57.5	3.7	0.00e+00	0	49	104	0	76	25775
2026-01-22 22:04:35.89	320.12	31.36	-52.4	-57.2	3.7	0.00e+00	0	50	104	0	76	24931
2026-01-22 22:04:37.02	319.53	31.51	-52.5	-57.2	3.7	0.00e+00	0	49	104	0	76	24911
2026-01-22 22:04:37.87	319.08	31.62	-50.5	-55.9	3.7	0.00e+00	0	49	104	0	72	27070
2026-01-22 22:04:39.01	318.47	31.77	-50.9	-56.2	3.7	0.00e+00	0	49	104	0	72	27860
2026-01-22 22:04:39.87	318.00	31.88	-51.0	-56.2	3.7	0.00e+00	0	49	104	0	72	28084
2026-01-22 22:04:41.00	317.39	32.02	-51.1	-56.3	3.7	0.00e+00	0	49	104	0	73	26780
2026-01-22 22:04:41.86	316.92	32.13	-53.2	-57.7	3.7	0.00e+00	0	49	104	0	76	26342
2026-01-22 22:04:42.99	316.29	32.27	-52.7	-57.3	3.7	0.00e+00	0	49	104	0	77	23735
2026-01-22 22:04:43.85	315.81	32.37	-53.4	-57.9	3.7	0.00e+00	0	49	104	0	77	25412
2026-01-22 22:04:44.98	315.17	32.50	-53.3	-57.8	3.7	0.00e+00	0	49	104	0	77	25155
2026-01-22 22:04:45.84	314.69	32.60	-53.1	-57.6	3.7	0.00e+00	0	49	104	0	77	24722
2026-01-22 22:04:46.97	314.04	32.73	-52.9	-57.6	3.7	0.00e+00	0	49	104	0	77	24614
2026-01-22 22:04:47.83	313.55	32.82	-52.9	-57.5	3.7	0.00e+00	0	49	104	0	77	24494
2026-01-22 22:04:48.96	312.89	32.95	-52.9	-57.6	3.7	0.00e+00	0	49	104	0	77	24597
2026-01-22 22:04:49.82	312.39	33.04	-53.2	-57.6	3.7	0.00e+00	0	49	104	0	77	24680
2026-01-22 22:04:50.95	311.73	33.15	-53.1	-57.5	3.7	0.00e+00	0	49	104	0	77	24437
2026-01-22 22:04:51.81	311.22	33.24	-53.3	-57.7	3.7	0.00e+00	0	49	104	0	77	24970
2026-01-22 22:04:52.94	310.54	33.35	-53.4	-57.8	3.7	0.00e+00	0	49	104	0	77	25193
2026-01-22 22:04:53.80	310.03	33.43	-53.4	-57.8	3.7	0.00e+00	0	49	104	0	77	25231
2026-01-22 22:04:54.93	309.35	33.53	-53.4	-57.8	3.7	0.00e+00	0	49	104	0	77	25157
2026-01-22 22:04:55.79	308.83	33.60	-53.2	-57.5	3.7	0.00e+00	0	49	104	0	77	24326
2026-01-22 22:04:56.92	308.14	33.70	-52.9	-57.4	3.7	0.00e+00	0	49	104	0	77	24116
2026-01-22 22:04:57.77	307.61	33.77	-53.0	-57.5	3.7	0.00e+00	0	49	104	0	77	24267
2026-01-22 22:04:58.91	306.91	33.86	-52.8	-57.3	3.7	0.00e+00	0	49	104	0	77	23801
2026-01-22 22:04:59.76	306.39	33.92	-52.8	-57.2	3.7	0.00e+00	0	49	104	0	77	23628
2026-01-22 22:05:00.90	305.68	34.00	-52.6	-57.1	3.7	0.00e+00	0	49	104	0	77	23204
2026-01-22 22:05:01.75	305.14	34.06	-52.7	-57.2	3.7	0.00e+00	0	49	104	0	77	23485
2026-01-22 22:05:03.00	304.36	34.14	-52.3	-56.7	3.7	0.00e+00	0	49	104	0	76	23643
2026-01-22 22:05:03.85	303.82	34.19	-52.4	-57.0	3.7	0.00e+00	0	49	104	0	76	24255
2026-01-22 22:05:05.07	303.05	34.26	-53.0	-57.4	3.7	0.00e+00	0	49	104	0	76	25432
2026-01-22 22:05:05.92	302.51	34.30	-52.9	-57.3	3.7	0.00e+00	0	49	104	0	76	25158
2026-01-22 22:05:07.13	301.74	34.36	-53.0	-57.3	3.7	0.00e+00	0	49	104	0	76	25332
2026-01-22 22:05:07.98	301.19	34.40	-52.9	-57.1	3.7	0.00e+00	0	49	104	0	76	24786
2026-01-22 22:05:09.12	300.46	34.45	-52.8	-57.1	3.7	0.00e+00	0	49	104	0	76	24672
2026-01-22 22:05:09.97	299.91	34.48	-52.6	-56.9	3.7	0.00e+00	0	49	104	0	76	24094
2026-01-22 22:05:11.11	299.18	34.52	-52.7	-56.7	3.7	0.00e+00	0	49	104	0	76	23597
2026-01-22 22:05:11.96	298.63	34.54	-52.8	-56.7	3.7	0.00e+00	0	49	104	0	76	23588
2026-01-22 22:05:13.10	297.89	34.57	-52.8	-56.8	3.7	0.00e+00	0	49	104	0	76	23938
2026-01-22 22:05:14.00	297.30	34.59	-52.8	-57.0	3.7	0.00e+00	0	49	104	0	76	24464
2026-01-22 22:05:15.10	296.59	34.61	-53.1	-57.5	3.7	0.00e+00	0	49	104	0	76	25687
2026-01-22 22:05:15.96	296.03	34.63	-53.2	-57.4	3.7	0.00e+00	0	49	104	0	76	25451
2026-01-22 22:05:17.09	295.29	34.64	-53.2	-57.6	3.7	0.00e+00	0	49	104	0	77	24676
2026-01-22 22:05:18.12	294.62	34.64	-52.9	-57.6	3.7	0.00e+00	0	49	104	0	77	24702
2026-01-22 22:05:19.29	293.86	34.65	-52.9	-57.6	3.7	0.00e+00	0	49	104	0	77	24576
2026-01-22 22:05:20.14	293.30	34.65	-53.4	-57.8	3.7	0.00e+00	0	49	104	0	77	25324
2026-01-22 22:05:21.28	292.56	34.64	-53.5	-57.9	3.7	0.00e+00	0	49	104	0	77	25574
2026-01-22 22:05:22.13	292.01	34.63	-53.4	-57.8	3.7	0.00e+00	0	49	104	0	77	25242
2026-01-22 22:05:23.27	291.27	34.61	-53.4	-57.8	3.7	0.00e+00	0	49	104	0	77	25264
2026-01-22 22:05:24.12	290.71	34.60	-53.4	-57.8	3.7	0.00e+00	0	49	104	0	77	25130
2026-01-22 22:05:25.59	289.76	34.57	-53.4	-57.9	3.7	0.00e+00	0	49	104	0	77	25591
2026-01-22 22:05:26.30	289.30	34.55	-53.3	-57.9	3.7	0.00e+00	0	49	104	0	77	25542
2026-01-22 22:05:27.58	288.47	34.51	-53.4	-57.9	3.7	0.00e+00	0	49	104	0	77	25619
2026-01-22 22:05:28.30	288.00	34.48	-53.5	-58.0	3.7	0.00e+00	0	49	104	0	77	25779
2026-01-22 22:05:29.58	287.18	34.43	-53.3	-57.8	3.7	0.00e+00	0	50	104	0	77	25274
2026-01-22 22:05:30.31	286.71	34.40	-53.1	-57.8	3.7	0.00e+00	0	50	104	0	77	25261
2026-01-22 22:05:31.59	285.89	34.34	-53.1	-57.8	3.7	0.00e+00	0	49	104	0	77	25244
2026-01-22 22:05:32.33	285.42	34.31	-53.3	-57.7	3.7	0.00e+00	0	49	104	0	77	25091
2026-01-22 22:05:33.61	284.60	34.24	-53.6	-58.0	3.7	0.00e+00	0	49	104	0	77	25836
2026-01-22 22:05:34.47	284.06	34.19	-53.5	-58.0	3.7	0.00e+00	0	49	104	0	77	25792
2026-01-22 22:05:35.61	283.34	34.12	-53.3	-57.9	3.7	0.00e+00	0	49	104	0	77	25473
2026-01-22 22:05:36.47	282.80	34.06	-53.3	-57.8	3.7	0.00e+00	0	49	104	0	77	25245
2026-01-22 22:05:37.60	282.09	33.99	-53.4	-57.9	3.7	0.00e+00	0	49	104	0	77	25457
2026-01-22 22:05:38.71	281.40	33.91	-53.4	-57.9	3.7	0.00e+00	0	49	104	0	77	25484
2026-01-22 22:05:39.73	280.76	33.83	-53.4	-58.0	3.7	0.00e+00	0	49	104	0	77	25802
2026-01-22 22:05:40.73	280.15	33.75	-53.2	-57.8	3.7	0.00e+00	0	49	104	0	77	25142
2026-01-22 22:05:41.93	279.41	33.65	-53.4	-57.8	3.7	0.00e+00	0	50	104	0	77	25110
2026-01-22 22:05:42.81	278.88	33.58	-53.3	-57.7	3.7	0.00e+00	0	50	104	0	77	25053
2026-01-22 22:05:44.13	278.08	33.46	-53.2	-57.8	3.7	0.00e+00	0	50	104	0	77	25192
2026-01-22 22:05:44.84	277.65	33.39	-53.2	-57.8	3.7	0.00e+00	0	49	104	0	77	25290
2026-01-22 22:05:46.12	276.88	33.27	-53.4	-57.9	3.7	0.00e+00	0	49	104	0	77	25521
2026-01-22 22:05:46.85	276.45	33.20	-53.3	-57.8	3.7	0.00e+00	0	49	104	0	77	25260
2026-01-22 22:05:48.13	275.69	33.07	-53.4	-58.0	3.7	0.00e+00	0	49	104	0	77	25839
2026-01-22 22:05:48.89	275.24	32.99	-53.4	-57.9	3.7	0.00e+00	0	49	104	0	77	25658
2026-01-22 22:05:50.17	274.50	32.85	-53.4	-58.0	3.7	0.00e+00	0	49	104	0	77	25740
2026-01-22 22:05:50.97	274.04	32.77	-53.4	-58.0	3.7	0.00e+00	0	49	104	0	77	25754
2026-01-22 22:05:52.11	273.38	32.64	-53.3	-58.0	3.7	0.00e+00	0	49	104	0	77	25730
2026-01-22 22:05:52.96	272.90	32.54	-53.3	-57.7	3.7	0.00e+00	0	49	104	0	77	25010
2026-01-22 22:05:54.10	272.25	32.41	-53.2	-57.8	3.7	0.00e+00	0	49	104	0	77	25183
2026-01-22 22:05:54.95	271.77	32.31	-53.3	-57.8	3.7	0.00e+00	0	49	104	0	77	25309
2026-01-22 22:05:56.09	271.14	32.17	-53.0	-57.6	3.7	0.00e+00	0	50	104	0	77	24775
2026-01-22 22:05:56.94	270.67	32.06	-53.1	-57.7	3.7	0.00e+00	0	49	104	0	77	24863
2026-01-22 22:05:58.08	270.05	31.92	-53.3	-57.9	3.7	0.00e+00	0	49	104	0	77	25550
2026-01-22 22:05:58.95	269.57	31.81	-53.2	-57.8	3.7	0.00e+00	0	49	104	0	77	25199
2026-01-22 22:06:00.08	268.96	31.66	-53.4	-57.9	3.7	0.00e+00	0	49	104	0	77	25614
2026-01-22 22:06:00.94	268.50	31.55	-53.3	-57.8	3.7	0.00e+00	0	49	104	0	77	25132
2026-01-22 22:06:02.07	267.91	31.39	-53.1	-57.5	3.7	0.00e+00	0	49	104	0	77	24389
2026-01-22 22:06:02.92	267.46	31.28	-53.3	-57.6	3.7	0.00e+00	0	49	104	0	77	24763
2026-01-22 22:06:04.06	266.87	31.12	-53.0	-57.6	3.7	0.00e+00	0	50	104	0	77	24707
2026-01-22 22:06:04.91	266.43	31.00	-53.0	-57.6	3.7	0.00e+00	0	49	104	0	77	24716
2026-01-22 22:06:06.05	265.85	30.84	-53.4	-57.9	3.7	0.00e+00	0	49	104	0	77	25523
2026-01-22 22:06:06.90	265.42	30.72	-53.3	-57.8	3.7	0.00e+00	0	50	104	0	77	25268
2026-01-22 22:06:08.04	264.85	30.56	-53.0	-57.7	3.7	0.00e+00	0	49	104	0	77	24931
2026-01-22 22:06:08.89	264.43	30.43	-52.8	-57.5	3.7	0.00e+00	0	49	104	0	77	24479
2026-01-22 22:06:10.03	263.87	30.27	-52.7	-57.4	3.7	0.00e+00	0	50	104	0	77	24173
2026-01-22 22:06:10.88	263.45	30.14	-52.6	-57.4	3.7	0.00e+00	0	49	104	0	77	24044
2026-01-22 22:06:12.02	262.90	29.97	-53.1	-57.7	3.7	0.00e+00	0	49	104	0	77	24946
2026-01-22 22:06:12.87	262.50	29.84	-53.2	-57.7	3.7	0.00e+00	0	49	104	0	77	25055
2026-01-22 22:06:14.12	261.91	29.65	-52.8	-57.5	3.7	0.00e+00	0	49	104	0	77	24407
2026-01-22 22:06:14.97	261.51	29.52	-52.8	-57.5	3.7	0.00e+00	0	49	104	0	77	24414
2026-01-22 22:06:16.11	260.99	29.35	-53.1	-57.7	3.7	0.00e+00	0	49	104	0	77	25061
2026-01-22 22:06:16.96	260.60	29.22	-53.2	-57.6	3.7	0.00e+00	0	49	104	0	77	24739
2026-01-22 22:06:18.09	260.09	29.04	-52.8	-57.4	3.7	0.00e+00	0	49	104	0	77	24208
2026-01-22 22:06:18.95	259.70	28.91	-52.9	-57.5	3.7	0.00e+00	0	49	104	0	77	24353
2026-01-22 22:06:20.08	259.20	28.73	-52.9	-57.5	3.7	0.00e+00	0	49	104	0	77	24393
2026-01-22 22:06:20.94	258.82	28.60	-53.0	-57.7	3.7	0.00e+00	0	49	104	0	77	24924
2026-01-22 22:06:22.08	258.33	28.42	-53.2	-57.7	3.7	0.00e+00	0	50	104	0	77	25083
2026-01-22 22:06:23.28	257.82	28.22	-53.3	-57.8	3.7	0.00e+00	0	49	104	0	77	25383
2026-01-22 22:06:24.30	257.39	28.06	-53.0	-57.6	3.7	0.00e+00	0	50	104	0	77	24622
2026-01-22 22:06:25.47	256.90	27.88	-53.2	-57.6	3.7	0.00e+00	0	50	104	0	77	24700
2026-01-22 22:06:26.33	256.54	27.74	-53.3	-57.7	3.7	0.00e+00	0	50	104	0	77	24848
2026-01-22 22:06:27.46	256.08	27.56	-53.2	-57.6	3.7	0.00e+00	0	50	104	0	77	24741
2026-01-22 22:06:28.32	255.73	27.42	-53.4	-57.9	3.7	0.00e+00	0	49	104	0	77	25520
2026-01-22 22:06:29.46	255.28	27.23	-53.3	-57.9	3.7	0.00e+00	0	49	104	0	77	25407
2026-01-22 22:06:30.31	254.94	27.10	-53.1	-57.7	3.7	0.00e+00	0	49	104	0	77	24859
2026-01-22 22:06:31.45	254.49	26.91	-53.1	-57.7	3.7	0.00e+00	0	50	104	0	77	24891
2026-01-22 22:06:32.30	254.17	26.77	-52.9	-57.5	3.7	0.00e+00	0	49	104	0	77	24330
2026-01-22 22:06:33.44	253.73	26.59	-53.0	-57.5	3.7	0.00e+00	0	50	104	0	77	24396
2026-01-22 22:06:34.29	253.41	26.45	-53.2	-57.6	3.7	0.00e+00	0	49	104	0	77	24609
2026-01-22 22:06:35.42	252.99	26.27	-53.1	-57.5	3.7	0.00e+00	0	49	104	0	77	24405
2026-01-22 22:06:36.28	252.67	26.13	-53.0	-57.4	3.7	0.00e+00	0	50	104	0	77	24133
2026-01-22 22:06:37.41	252.26	25.95	-53.2	-57.6	3.7	0.00e+00	0	49	104	0	77	24688
2026-01-22 22:06:38.27	251.94	25.81	-53.2	-57.6	3.7	0.00e+00	0	49	104	0	77	24688
2026-01-22 22:06:39.40	251.54	25.62	-53.1	-57.5	3.7	0.00e+00	0	49	104	0	77	24284
2026-01-22 22:06:40.26	251.24	25.48	-53.3	-57.7	3.7	0.00e+00	0	49	104	0	77	24882
2026-01-22 22:06:41.39	250.84	25.30	-53.4	-57.9	3.7	0.00e+00	0	50	104	0	77	25392
2026-01-22 22:06:42.40	250.49	25.14	-53.3	-57.7	3.7	0.00e+00	0	49	104	0	77	25046
2026-01-22 22:06:43.40	250.15	24.98	-53.3	-57.8	3.7	0.00e+00	0	49	104	0	77	25095
2026-01-22 22:06:44.40	249.82	24.82	-53.0	-57.4	3.7	0.00e+00	0	49	104	0	77	24234
2026-01-22 22:06:45.39	249.49	24.66	-52.9	-57.4	3.7	0.00e+00	0	50	104	0	77	24160
2026-01-22 22:06:46.39	249.16	24.50	-53.0	-57.5	3.7	0.00e+00	0	49	104	0	77	24279
2026-01-22 22:06:47.38	248.83	24.34	-52.8	-57.3	3.7	0.00e+00	0	49	104	0	77	23878
2026-01-22 22:06:48.38	248.51	24.18	-53.1	-57.5	3.7	0.00e+00	0	49	104	0	77	24397
2026-01-22 22:06:49.37	248.20	24.02	-53.2	-57.7	3.7	0.00e+00	0	49	104	0	77	24843
2026-01-22 22:06:50.36	247.88	23.86	-53.2	-57.6	3.7	0.00e+00	0	49	104	0	77	24755
2026-01-22 22:06:51.36	247.57	23.70	-53.2	-57.6	3.7	0.00e+00	0	49	104	0	77	24636
2026-01-22 22:06:52.35	247.27	23.54	-53.2	-57.7	3.7	0.00e+00	0	49	104	0	77	25016
2026-01-22 22:06:53.35	246.96	23.39	-53.2	-57.8	3.7	0.00e+00	0	50	104	0	77	25211
2026-01-22 22:06:54.43	246.64	23.22	-53.1	-57.7	3.7	0.00e+00	0	50	104	0	77	25006
2026-01-22 22:06:55.35	246.36	23.07	-53.1	-57.8	3.7	0.00e+00	0	50	104	0	77	25150
2026-01-22 22:06:56.55	246.01	22.88	-53.2	-57.7	3.7	0.00e+00	0	50	104	0	77	24836
2026-01-22 22:06:57.41	245.76	22.75	-53.3	-57.7	3.7	0.00e+00	0	50	104	0	77	25054
2026-01-22 22:06:58.54	245.44	22.57	-53.4	-57.8	3.7	0.00e+00	0	50	104	0	77	25247
2026-01-22 22:06:59.39	245.20	22.44	-53.4	-57.8	3.7	0.00e+00	0	50	104	0	77	25219
2026-01-22 22:07:00.53	244.88	22.26	-53.5	-57.8	3.7	0.00e+00	0	50	104	0	77	25377
2026-01-22 22:07:01.38	244.64	22.13	-53.4	-57.9	3.7	0.00e+00	0	50	104	0	77	25471
2026-01-22 22:07:02.52	244.33	21.96	-53.4	-57.8	3.7	0.00e+00	0	50	104	0	77	25236
2026-01-22 22:07:03.37	244.10	21.82	-53.4	-57.8	3.7	0.00e+00	0	50	104	0	77	25281
2026-01-22 22:07:04.51	243.79	21.65	-53.3	-57.7	3.7	0.00e+00	0	50	104	0	77	25057
2026-01-22 22:07:05.36	243.56	21.52	-53.3	-57.7	3.7	0.00e+00	0	50	104	0	77	24904
2026-01-22 22:07:06.50	243.27	21.35	-53.2	-57.6	3.7	0.00e+00	0	49	104	0	77	24790
2026-01-22 22:07:07.35	243.04	21.22	-53.3	-57.7	3.7	0.00e+00	0	49	104	0	77	24938
2026-01-22 22:07:08.49	242.75	21.05	-53.2	-57.7	3.7	0.00e+00	0	49	104	0	77	24838
2026-01-22 22:07:09.34	242.54	20.92	-53.2	-57.7	3.7	0.00e+00	0	50	104	0	77	25004
2026-01-22 22:07:10.50	242.25	20.75	-53.3	-57.7	3.7	0.00e+00	0	49	104	0	77	24919
2026-01-22 22:07:11.35	242.03	20.62	-53.2	-57.7	3.7	0.00e+00	0	49	104	0	77	24843
2026-01-22 22:07:12.49	241.75	20.45	-53.4	-57.7	3.7	0.00e+00	0	49	104	0	77	24845
2026-01-22 22:07:13.34	241.55	20.33	-53.3	-57.6	3.7	0.00e+00	0	50	104	0	77	24730
2026-01-22 22:07:14.48	241.27	20.16	-53.2	-57.6	3.7	0.00e+00	0	50	104	0	77	24527
2026-01-22 22:07:15.36	241.07	20.03	-53.3	-57.6	3.7	0.00e+00	0	49	104	0	77	24756
2026-01-22 22:07:16.50	240.80	19.86	-53.2	-57.5	3.7	0.00e+00	0	50	104	0	77	24345
2026-01-22 22:07:17.35	240.60	19.74	-53.3	-57.7	3.7	0.00e+00	0	49	104	0	77	24913
2026-01-22 22:07:18.49	240.34	19.58	-53.3	-57.7	3.7	0.00e+00	0	50	104	0	77	25021
2026-01-22 22:07:19.34	240.15	19.45	-53.3	-57.6	3.7	0.00e+00	0	50	104	0	77	24666
2026-01-22 22:07:20.48	239.89	19.29	-53.1	-57.6	3.7	0.00e+00	0	50	104	0	77	24771
2026-01-22 22:07:21.33	239.70	19.17	-53.2	-57.8	3.7	0.00e+00	0	49	104	0	77	25098
2026-01-22 22:07:22.47	239.45	19.01	-53.2	-57.8	3.7	0.00e+00	0	50	104	0	77	25148
2026-01-22 22:07:23.32	239.26	18.89	-53.1	-57.7	3.7	0.00e+00	0	50	104	0	77	24973
2026-01-22 22:07:24.46	239.02	18.73	-53.2	-57.7	3.7	0.00e+00	0	49	104	0	77	24872
2026-01-22 22:07:25.31	238.84	18.61	-53.2	-57.6	3.7	0.00e+00	0	50	104	0	77	24609
2026-01-22 22:07:26.45	238.60	18.45	-53.2	-57.6	3.7	0.00e+00	0	50	104	0	77	24721
2026-01-22 22:07:27.30	238.42	18.33	-53.2	-57.5	3.7	0.00e+00	0	50	104	0	77	24516
2026-01-22 22:07:28.58	238.16	18.15	-53.2	-57.7	3.7	0.00e+00	0	50	104	0	77	24930
2026-01-22 22:07:29.31	238.01	18.05	-53.1	-57.7	3.7	0.00e+00	0	49	104	0	77	24844
2026-01-22 22:07:30.59	237.75	17.88	-53.1	-57.6	3.7	0.00e+00	0	50	104	0	77	24731
2026-01-22 22:07:31.31	237.61	17.78	-53.2	-57.7	3.7	0.00e+00	0	49	104	0	77	24837
2026-01-22 22:07:32.59	237.35	17.61	-52.9	-57.6	3.7	0.00e+00	0	49	104	0	77	24578
2026-01-22 22:07:33.32	237.21	17.51	-52.8	-57.6	3.7	0.00e+00	0	49	104	0	77	24660
2026-01-22 22:07:34.60	236.96	17.34	-52.8	-57.6	3.7	0.00e+00	0	50	104	0	77	24545
2026-01-22 22:07:35.31	236.83	17.24	-52.8	-57.6	3.7	0.00e+00	0	49	104	0	77	24563
2026-01-22 22:07:36.59	236.58	17.07	-52.6	-57.4	3.7	0.00e+00	0	50	104	0	77	24212
2026-01-22 22:07:37.30	236.45	16.98	-52.7	-57.4	3.7	0.00e+00	0	49	104	0	77	24149
2026-01-22 22:07:38.57	236.22	16.81	-52.6	-57.4	3.7	0.00e+00	0	50	104	0	77	24061
2026-01-22 22:07:39.28	236.08	16.72	-52.6	-57.4	3.7	0.00e+00	0	50	104	0	77	24108
2026-01-22 22:07:40.56	235.85	16.55	-52.7	-57.5	3.7	0.00e+00	0	50	104	0	77	24263
2026-01-22 22:07:41.27	235.72	16.46	-52.7	-57.4	3.7	0.00e+00	0	50	104	0	77	24187
2026-01-22 22:07:42.55	235.50	16.30	-52.8	-57.5	3.7	0.00e+00	0	50	104	0	77	24301
2026-01-22 22:07:43.26	235.37	16.21	-52.7	-57.4	3.7	0.00e+00	0	49	104	0	77	24141
2026-01-22 22:07:44.69	235.12	16.02	-52.9	-57.6	3.7	0.00e+00	0	50	104	0	77	24582
2026-01-22 22:07:45.40	235.00	15.93	-52.9	-57.6	3.7	0.00e+00	0	50	104	0	77	24585
2026-01-22 22:07:46.74	234.77	15.76	-53.0	-57.7	3.7	0.00e+00	0	50	104	0	77	24818
2026-01-22 22:07:47.72	234.60	15.64	-53.1	-57.7	3.7	0.00e+00	0	50	104	0	77	24896
2026-01-22 22:07:48.72	234.44	15.52	-53.0	-57.6	3.7	0.00e+00	0	50	104	0	77	24721
2026-01-22 22:07:49.71	234.27	15.39	-53.1	-57.6	3.7	0.00e+00	0	49	104	0	77	24616
2026-01-22 22:07:50.71	234.11	15.27	-53.0	-57.5	3.7	0.00e+00	0	50	104	0	77	24516
2026-01-22 22:07:51.71	233.95	15.15	-53.0	-57.6	3.7	0.00e+00	0	50	104	0	77	24576
2026-01-22 22:07:52.70	233.79	15.02	-53.0	-57.6	3.7	0.00e+00	0	50	104	0	77	24758
2026-01-22 22:07:53.70	233.63	14.90	-53.0	-57.6	3.7	0.00e+00	0	50	104	0	77	24752
2026-01-22 22:07:54.69	233.47	14.78	-53.0	-57.6	3.7	0.00e+00	0	50	104	0	77	24723
2026-01-22 22:07:55.68	233.32	14.66	-53.0	-57.6	3.7	0.00e+00	0	49	104	0	77	24639
2026-01-22 22:07:56.68	233.17	14.54	-53.0	-57.7	3.7	0.00e+00	0	49	104	0	77	24808
2026-01-22 22:07:57.83	232.99	14.41	-53.0	-57.6	3.7	0.00e+00	0	50	104	0	77	24699
2026-01-22 22:07:58.73	232.85	14.30	-53.0	-57.6	3.7	0.00e+00	0	49	104	0	77	24743
2026-01-22 22:07:59.76	232.70	14.18	-53.0	-57.6	3.7	0.00e+00	0	49	104	0	77	24682
2026-01-22 22:08:00.75	232.55	14.06	-52.9	-57.6	3.7	0.00e+00	0	50	104	0	77	24563
2026-01-22 22:08:01.94	232.38	13.92	-52.9	-57.4	3.7	0.00e+00	0	50	104	0	77	24198
2026-01-22 22:08:02.82	232.25	13.82	-52.9	-57.5	3.7	0.00e+00	0	50	104	0	77	24408
2026-01-22 22:08:03.96	232.09	13.69	-52.9	-57.4	3.7	0.00e+00	0	50	104	0	77	23967
2026-01-22 22:08:04.81	231.96	13.59	-52.9	-57.5	3.7	0.00e+00	0	50	104	0	77	24287
2026-01-22 22:08:05.95	231.80	13.46	-53.0	-57.5	3.7	0.00e+00	0	49	104	0	77	24267
2026-01-22 22:08:06.80	231.68	13.36	-52.9	-57.5	3.7	0.00e+00	0	49	104	0	77	24244
2026-01-22 22:08:07.94	231.53	13.23	-52.9	-57.5	3.7	0.00e+00	0	49	104	0	77	24278
2026-01-22 22:08:08.79	231.41	13.14	-53.0	-57.5	3.7	0.00e+00	0	50	104	0	77	24268
2026-01-22 22:08:09.93	231.25	13.01	-53.0	-57.5	3.7	0.00e+00	0	50	104	0	77	24343
2026-01-22 22:08:10.78	231.14	12.91	-53.0	-57.5	3.7	0.00e+00	0	50	104	0	77	24319
2026-01-22 22:08:11.92	230.99	12.79	-53.1	-57.5	3.7	0.00e+00	0	49	104	0	77	24475
2026-01-22 22:08:12.77	230.87	12.69	-53.0	-57.5	3.7	0.00e+00	0	49	104	0	77	24392
2026-01-22 22:08:13.91	230.72	12.57	-53.0	-57.4	3.7	0.00e+00	0	49	104	0	77	24165
2026-01-22 22:08:14.76	230.61	12.47	-53.1	-57.5	3.6	0.00e+00	0	50	104	0	77	24414
2026-01-22 22:08:15.89	230.47	12.35	-53.0	-57.5	3.7	0.00e+00	0	50	104	0	77	24371
2026-01-22 22:08:16.81	230.35	12.25	-52.9	-57.4	3.6	0.00e+00	0	50	104	0	77	24007
2026-01-22 22:08:17.98	230.20	12.12	-52.9	-57.4	3.7	0.00e+00	0	50	104	0	77	23965
2026-01-22 22:08:18.83	230.10	12.03	-53.0	-57.4	3.7	0.00e+00	0	50	104	0	77	24088
2026-01-22 22:08:19.97	229.96	11.91	-52.9	-57.4	3.7	0.00e+00	0	49	104	0	77	24110
2026-01-22 22:08:20.82	229.85	11.82	-52.9	-57.4	3.7	0.00e+00	0	50	104	0	77	23981
2026-01-22 22:08:21.96	229.71	11.70	-52.9	-57.3	3.7	0.00e+00	0	50	104	0	77	23784
2026-01-22 22:08:22.81	229.61	11.61	-52.9	-57.3	3.7	0.00e+00	0	50	104	0	77	23946
2026-01-22 22:08:23.95	229.47	11.49	-52.9	-57.3	3.7	0.00e+00	0	50	104	0	77	23921
2026-01-22 22:08:24.80	229.37	11.40	-52.8	-57.1	3.7	0.00e+00	0	50	104	0	77	23397
2026-01-22 22:08:25.94	229.24	11.28	-52.7	-57.0	3.7	0.00e+00	0	49	104	0	77	22907
2026-01-22 22:08:26.79	229.14	11.19	-52.9	-57.2	3.7	0.00e+00	0	50	104	0	77	23673
2026-01-22 22:08:27.98	229.00	11.07	-52.9	-57.3	3.7	0.00e+00	0	50	104	0	77	23729
2026-01-22 22:08:28.83	228.90	10.98	-52.6	-57.0	3.7	0.00e+00	0	50	104	0	77	22909
2026-01-22 22:08:29.97	228.77	10.87	-52.6	-57.1	3.7	0.00e+00	0	49	104	0	77	23277
2026-01-22 22:08:30.85	228.67	10.78	-52.6	-57.0	3.6	0.00e+00	0	50	104	0	77	22900
2026-01-22 22:08:31.99	228.55	10.66	-52.7	-57.2	3.7	0.00e+00	0	50	104	0	77	23511
2026-01-22 22:08:32.84	228.45	10.58	-52.7	-57.2	3.7	0.00e+00	0	50	104	0	77	23445
2026-01-22 22:08:33.97	228.33	10.46	-52.7	-57.1	3.7	0.00e+00	0	50	104	0	77	23224
2026-01-22 22:08:34.83	228.24	10.38	-52.6	-57.1	3.7	0.00e+00	0	50	104	0	77	23250
2026-01-22 22:08:35.96	228.11	10.26	-52.7	-57.2	3.7	0.00e+00	0	50	104	0	77	23554
2026-01-22 22:08:36.82	228.02	10.18	-52.7	-57.1	3.7	0.00e+00	0	50	104	0	77	23177
2026-01-22 22:08:37.95	227.90	10.07	-52.7	-57.0	3.7	0.00e+00	0	50	104	0	77	23131
2026-01-22 22:08:38.81	227.81	9.98	-52.6	-57.0	3.7	0.00e+00	0	50	104	0	77	23143
2026-01-22 22:08:39.98	227.69	9.87	-52.7	-57.1	3.7	0.00e+00	0	49	104	0	77	23183
2026-01-22 22:08:40.83	227.60	9.79	-52.7	-57.0	3.7	0.00e+00	0	49	104	0	77	23121
2026-01-22 22:08:42.01	227.48	9.67	-52.7	-57.1	3.7	0.00e+00	0	50	104	0	77	23388
2026-01-22 22:08:42.87	227.39	9.59	-52.7	-57.1	3.7	0.00e+00	0	50	104	0	77	23154
2026-01-22 22:08:44.00	227.28	9.48	-52.6	-57.1	3.7	0.00e+00	0	50	104	0	77	23311
2026-01-22 22:08:44.86	227.19	9.40	-52.6	-56.9	3.7	0.00e+00	0	50	104	0	77	22845
2026-01-22 22:08:45.99	227.08	9.29	-52.3	-56.9	3.7	0.00e+00	0	49	104	0	76	24119
2026-01-22 22:08:46.85	227.00	9.21	-52.7	-57.1	3.7	0.00e+00	0	49	104	0	76	24660
2026-01-22 22:08:47.98	226.89	9.10	-52.3	-56.9	3.7	0.00e+00	0	50	104	0	76	24103
2026-01-22 22:08:48.84	226.80	9.02	-52.2	-56.9	3.7	0.00e+00	0	50	104	0	76	24202
2026-01-22 22:08:49.97	226.70	8.92	-52.7	-57.0	3.6	0.00e+00	0	50	104	0	76	24469
2026-01-22 22:08:50.83	226.61	8.84	-53.0	-57.5	3.7	0.00e+00	0	50	104	0	76	25772
2026-01-22 22:08:51.96	226.51	8.73	-53.2	-57.7	3.7	0.00e+00	0	50	104	0	77	25085
2026-01-22 22:08:52.81	226.43	8.66	-53.0	-57.7	3.7	0.00e+00	0	50	104	0	77	24903
2026-01-22 22:08:53.95	226.32	8.55	-53.2	-57.7	3.7	0.00e+00	0	50	104	0	77	24965
2026-01-22 22:08:54.80	226.24	8.47	-53.4	-57.9	3.7	0.00e+00	0	49	104	0	77	25556
2026-01-22 22:08:55.94	226.14	8.37	-53.4	-57.9	3.7	0.00e+00	0	49	104	0	77	25548
2026-01-22 22:08:56.79	226.06	8.29	-53.6	-58.0	3.7	0.00e+00	0	50	104	0	77	25784
2026-01-22 22:08:57.92	225.96	8.19	-53.6	-57.9	3.7	0.00e+00	0	49	104	0	77	25514
2026-01-22 22:08:58.77	225.89	8.11	-53.5	-58.0	3.7	0.00e+00	0	50	104	0	77	25901
2026-01-22 22:08:59.91	225.78	8.01	-53.6	-58.0	3.7	0.00e+00	0	50	104	0	77	25924
2026-01-22 22:09:00.76	225.71	7.94	-53.5	-58.1	3.7	0.00e+00	0	50	104	0	77	26018
2026-01-22 22:09:01.90	225.61	7.84	-53.4	-57.9	3.7	0.00e+00	0	50	104	0	77	25541
2026-01-22 22:09:02.75	225.54	7.76	-53.2	-57.9	3.7	0.00e+00	0	50	104	0	77	25482
2026-01-22 22:09:03.88	225.44	7.66	-53.1	-57.8	3.7	0.00e+00	0	50	104	0	77	25108
2026-01-22 22:09:04.73	225.37	7.59	-53.2	-57.9	3.7	0.00e+00	0	50	104	0	77	25453
2026-01-22 22:09:05.87	225.27	7.49	-53.2	-57.7	3.7	0.00e+00	0	50	104	0	77	24888
2026-01-22 22:09:06.72	225.20	7.41	-53.1	-57.4	3.7	0.00e+00	0	50	104	0	77	24157
2026-01-22 22:09:07.86	225.11	7.32	-53.2	-57.5	3.7	0.00e+00	0	49	104	0	77	24490
2026-01-22 22:09:08.71	225.04	7.24	-53.2	-57.6	3.7	0.00e+00	0	49	104	0	77	24604
2026-01-22 22:09:09.84	224.94	7.14	-53.2	-57.9	3.7	0.00e+00	0	49	104	0	77	25392
2026-01-22 22:09:10.69	224.87	7.07	-53.2	-57.7	3.7	0.00e+00	0	50	104	0	77	25090
2026-01-22 22:09:11.83	224.78	6.97	-53.0	-57.4	3.7	0.00e+00	0	49	104	0	77	24166
2026-01-22 22:09:12.68	224.71	6.90	-53.0	-57.5	3.7	0.00e+00	0	50	104	0	77	24265
2026-01-22 22:09:13.82	224.62	6.81	-53.0	-57.5	3.7	0.00e+00	0	50	104	0	77	24268
2026-01-22 22:09:14.67	224.56	6.73	-53.0	-57.4	3.7	0.00e+00	0	49	104	0	77	24182
2026-01-22 22:09:15.81	224.47	6.64	-53.0	-57.5	3.7	0.00e+00	0	50	104	0	77	24248
2026-01-22 22:09:16.66	224.40	6.57	-53.0	-57.4	3.7	0.00e+00	0	50	104	0	77	24201
2026-01-22 22:09:17.79	224.31	6.47	-53.0	-57.5	3.7	0.00e+00	0	50	104	0	77	24254
2026-01-22 22:09:18.64	224.25	6.40	-53.0	-57.4	3.7	0.00e+00	0	50	104	0	77	24202
2026-01-22 22:09:19.78	224.16	6.31	-53.0	-57.5	3.7	0.00e+00	0	50	104	0	77	24254
2026-01-22 22:09:20.63	224.10	6.24	-53.0	-57.4	3.7	0.00e+00	0	49	104	0	77	24226
2026-01-22 22:09:21.77	224.01	6.15	-53.0	-57.4	3.7	0.00e+00	0	50	104	0	77	24155
2026-01-22 22:09:22.62	223.95	6.08	-53.0	-57.4	3.7	0.00e+00	0	49	104	0	77	24192
2026-01-22 22:09:23.76	223.86	5.98	-53.0	-57.4	3.7	0.00e+00	0	50	104	0	77	24166
2026-01-22 22:09:24.61	223.80	5.92	-53.0	-57.4	3.7	0.00e+00	0	50	104	0	77	24197
2026-01-22 22:09:25.74	223.72	5.82	-53.0	-57.4	3.7	0.00e+00	0	50	104	0	77	24156
2026-01-22 22:09:26.59	223.66	5.76	-53.0	-57.4	3.7	0.00e+00	0	50	104	0	77	24210
2026-01-22 22:09:27.73	223.58	5.66	-53.0	-57.4	3.7	0.00e+00	0	50	104	0	77	24226
2026-01-22 22:09:28.58	223.52	5.60	-53.0	-57.4	3.7	0.00e+00	0	50	104	0	77	24231
2026-01-22 22:09:29.72	223.44	5.51	-53.0	-57.4	3.7	0.00e+00	0	50	104	0	77	24179
2026-01-22 22:09:30.57	223.38	5.44	-53.0	-57.5	3.7	0.00e+00	0	50	104	0	77	24269
2026-01-22 22:09:31.70	223.30	5.35	-53.0	-57.4	3.7	0.00e+00	0	50	104	0	77	24176
2026-01-22 22:09:32.55	223.24	5.28	-53.0	-57.4	3.7	0.00e+00	0	50	104	0	77	24219
2026-01-22 22:09:33.69	223.16	5.19	-53.0	-57.4	3.7	0.00e+00	0	49	104	0	77	24224
2026-01-22 22:09:34.54	223.10	5.13	-53.0	-57.4	3.7	0.00e+00	0	50	104	0	77	24138
2026-01-22 22:09:35.68	223.03	5.04	-53.0	-57.4	3.7	0.00e+00	0	50	104	0	77	24169
2026-01-22 22:09:36.53	222.97	4.97	-53.0	-57.4	3.7	0.00e+00	0	49	104	0	77	24153
2026-01-22 22:09:37.66	222.89	4.88	-53.0	-57.4	3.7	0.00e+00	0	49	104	0	77	24123
2026-01-22 22:09:38.51	222.84	4.82	-53.0	-57.4	3.7	0.00e+00	0	50	104	0	77	24208

#Closed at: 2026-01-22 22:09:39
#Recorded file [0 MB]: D:/Data/31040_260123_010103.dat