passes_logs/2026/01/22/T1/T1__20260122_015800_AQUA_rec.log

#Pass ID: 20260122_015800_AQUA
#Satellite: AQUA
#Configuration: AQUA
#almurnet v.1.7.20251203
#Start time: 2026-01-22 01:57:59

#Version: 2.0.20230620
#Station: T1
#Location: 37.570604 lon 55.790049 lat
#TLE: 1 27424U 02022A   26020.90316333  .00002787  00000+0  56766-3 0  9999
#TLE: 2 27424  98.4095 347.4297 0002000  71.6339 309.8236 14.61840001261750

#Time	Az	El	Level	Level2	SNR	BER	BlckErr	Temp	State	Recorded	gain1	gain2
2026-01-22 01:57:59.73	10.88	4.98	-50.5	-71.8	3.8	7.46e-01	0	35	0	0	71	44769
2026-01-22 01:58:00.72	10.84	5.06	-45.8	-70.6	3.5	7.57e-01	0	35	104	0	62	65534
2026-01-22 01:58:01.71	10.81	5.13	-45.8	-70.6	3.5	7.57e-01	0	36	104	0	62	65535
2026-01-22 01:58:02.71	10.77	5.20	-45.8	-70.6	3.5	7.61e-01	0	36	104	0	62	65535
2026-01-22 01:58:03.70	10.74	5.28	-45.8	-70.6	3.5	7.55e-01	0	36	104	0	62	65535
2026-01-22 01:58:04.69	10.70	5.35	-45.8	-70.6	3.5	7.56e-01	0	36	104	0	62	65535
2026-01-22 01:58:05.69	10.67	5.42	-45.8	-70.6	3.5	7.56e-01	0	36	104	0	62	65535
2026-01-22 01:58:06.68	10.63	5.50	-45.8	-70.6	3.6	7.57e-01	0	36	104	0	62	65534
2026-01-22 01:58:07.67	10.59	5.57	-45.8	-70.6	3.5	7.56e-01	0	36	104	0	62	65535
2026-01-22 01:58:08.67	10.56	5.65	-45.8	-70.6	3.6	7.56e-01	0	36	104	0	62	65535
2026-01-22 01:58:09.66	10.52	5.72	-45.8	-70.6	3.6	7.58e-01	0	36	104	0	62	65535
2026-01-22 01:58:10.65	10.48	5.79	-45.8	-70.6	3.5	7.58e-01	0	36	104	0	62	65534
2026-01-22 01:58:11.65	10.45	5.87	-45.8	-70.6	3.6	7.56e-01	0	36	104	0	62	65534
2026-01-22 01:58:12.64	10.41	5.94	-45.8	-70.6	3.6	7.54e-01	0	36	104	0	62	65535
2026-01-22 01:58:13.64	10.37	6.02	-45.8	-70.6	3.6	7.57e-01	0	36	104	0	62	65535
2026-01-22 01:58:14.63	10.33	6.10	-45.8	-70.6	3.6	7.57e-01	0	36	104	0	62	65535
2026-01-22 01:58:15.62	10.30	6.17	-45.8	-70.6	3.5	7.57e-01	0	36	104	0	62	65535
2026-01-22 01:58:16.62	10.26	6.25	-45.8	-70.6	3.5	7.56e-01	0	36	104	0	62	65535
2026-01-22 01:58:17.61	10.22	6.32	-45.8	-70.6	3.6	7.57e-01	0	36	104	0	62	65534
2026-01-22 01:58:18.60	10.18	6.40	-45.8	-70.6	3.6	7.55e-01	0	36	104	0	62	65535
2026-01-22 01:58:19.59	10.14	6.48	-45.8	-70.6	3.6	7.58e-01	0	36	104	0	62	65534
2026-01-22 01:58:20.59	10.10	6.55	-45.8	-70.6	3.6	7.53e-01	0	36	104	0	62	65535
2026-01-22 01:58:21.58	10.06	6.63	-45.8	-70.6	3.6	7.55e-01	0	36	104	0	62	65535
2026-01-22 01:58:22.58	10.02	6.71	-45.8	-70.6	3.6	7.53e-01	0	36	104	0	62	65535
2026-01-22 01:58:23.57	9.98	6.79	-45.8	-70.6	3.7	7.49e-01	0	36	104	0	62	65535
2026-01-22 01:58:24.56	9.94	6.87	-45.8	-70.6	3.7	7.48e-01	0	36	104	0	62	65534
2026-01-22 01:58:25.56	9.90	6.94	-45.8	-70.6	3.8	7.46e-01	0	36	104	0	62	65529
2026-01-22 01:58:26.55	9.86	7.02	-45.8	-70.6	3.8	7.51e-01	0	36	104	0	62	65530
2026-01-22 01:58:27.54	9.82	7.10	-45.8	-70.6	3.8	7.49e-01	0	37	104	0	62	65525
2026-01-22 01:58:28.54	9.78	7.18	-45.8	-70.6	3.8	7.44e-01	0	36	104	0	62	65522
2026-01-22 01:58:29.53	9.74	7.26	-45.8	-70.6	3.8	7.48e-01	0	37	104	0	62	65529
2026-01-22 01:58:30.53	9.70	7.34	-45.7	-70.6	3.7	7.51e-01	0	36	104	0	62	65534
2026-01-22 01:58:31.52	9.65	7.42	-45.8	-70.6	3.7	7.54e-01	0	37	104	0	62	65534
2026-01-22 01:58:32.51	9.61	7.50	-45.8	-70.6	3.6	7.53e-01	0	37	104	0	62	65535
2026-01-22 01:58:33.51	9.57	7.58	-45.8	-70.6	3.6	7.54e-01	0	37	104	0	62	65535
2026-01-22 01:58:34.50	9.53	7.66	-45.8	-70.6	3.6	7.53e-01	0	37	104	0	62	65534
2026-01-22 01:58:35.49	9.48	7.74	-45.7	-70.6	3.6	7.57e-01	0	37	104	0	62	65535
2026-01-22 01:58:36.49	9.44	7.82	-45.7	-70.6	3.6	7.52e-01	0	37	104	0	62	65535
2026-01-22 01:58:37.48	9.40	7.91	-45.7	-70.6	3.7	7.52e-01	0	37	104	0	62	65533
2026-01-22 01:58:38.48	9.35	7.99	-45.7	-70.4	3.8	7.47e-01	0	37	104	0	62	63575
2026-01-22 01:58:39.47	9.31	8.07	-45.7	-69.5	3.8	7.48e-01	0	37	104	0	62	57411
2026-01-22 01:58:40.46	9.26	8.15	-45.6	-68.2	3.8	7.47e-01	0	37	104	0	62	49561
2026-01-22 01:58:41.46	9.22	8.23	-45.5	-66.7	3.8	7.44e-01	0	37	104	0	62	41933
2026-01-22 01:58:42.45	9.17	8.32	-45.3	-65.4	3.8	7.47e-01	0	37	104	0	62	35899
2026-01-22 01:58:43.44	9.13	8.40	-45.2	-64.2	3.8	7.46e-01	0	37	104	0	62	31361
2026-01-22 01:58:44.44	9.08	8.48	-44.9	-63.2	3.8	7.46e-01	0	37	104	0	61	29481
2026-01-22 01:58:45.43	9.04	8.57	-44.7	-62.2	3.8	7.44e-01	0	37	104	0	61	26395
2026-01-22 01:58:46.42	8.99	8.65	-44.6	-61.7	3.8	7.40e-01	0	37	104	0	61	24716
2026-01-22 01:58:47.41	8.94	8.74	-44.5	-61.3	3.8	7.43e-01	0	37	104	0	61	23732
2026-01-22 01:58:48.41	8.90	8.82	-44.5	-61.2	3.8	7.47e-01	0	37	104	0	60	24695
2026-01-22 01:58:49.40	8.85	8.91	-44.5	-61.2	3.8	7.45e-01	0	37	104	0	60	24705
2026-01-22 01:58:50.40	8.80	8.99	-44.6	-61.4	3.8	7.48e-01	0	37	104	0	60	25491
2026-01-22 01:58:51.39	8.75	9.08	-44.7	-62.1	3.8	7.47e-01	0	37	104	0	60	27414
2026-01-22 01:58:52.38	8.70	9.16	-45.1	-64.0	3.8	7.45e-01	0	37	104	0	60	34227
2026-01-22 01:58:53.38	8.65	9.25	-45.3	-65.1	4.0	7.39e-01	0	37	104	0	61	36563
2026-01-22 01:58:54.37	8.61	9.34	-44.0	-58.4	3.8	7.47e-01	0	37	104	0	60	17948
2026-01-22 01:58:55.36	8.56	9.42	-44.0	-57.8	3.8	7.47e-01	0	37	104	0	59	17873
2026-01-22 01:58:56.36	8.51	9.51	-45.5	-63.5	3.9	7.45e-01	0	37	104	0	62	28908
2026-01-22 01:58:57.36	8.46	9.60	-44.2	-57.9	3.8	7.47e-01	0	37	104	0	59	18036
2026-01-22 01:58:58.35	8.41	9.69	-44.3	-57.8	3.8	7.47e-01	0	37	104	0	59	17858
2026-01-22 01:58:59.34	8.35	9.77	-44.2	-57.7	3.8	7.42e-01	0	37	104	0	59	17628
2026-01-22 01:59:00.43	8.30	9.87	-44.2	-57.7	3.8	7.46e-01	0	37	104	0	59	17582
2026-01-22 01:59:01.32	8.25	9.95	-44.3	-57.7	3.8	7.44e-01	0	37	104	0	59	17675
2026-01-22 01:59:02.46	8.19	10.05	-44.9	-60.0	3.8	7.48e-01	0	37	104	0	60	21710
2026-01-22 01:59:03.31	8.15	10.13	-46.3	-66.3	3.9	7.42e-01	0	37	104	0	63	37394
2026-01-22 01:59:04.44	8.09	10.23	-44.4	-58.0	3.8	7.48e-01	0	37	104	0	59	18294
2026-01-22 01:59:05.30	8.04	10.31	-46.0	-62.8	3.9	7.44e-01	0	37	104	0	63	25118
2026-01-22 01:59:06.43	7.98	10.41	-44.1	-57.5	3.8	7.46e-01	0	37	104	0	60	16243
2026-01-22 01:59:07.29	7.93	10.49	-44.1	-57.4	3.8	7.49e-01	0	37	104	0	60	16008
2026-01-22 01:59:08.42	7.87	10.59	-44.1	-57.3	3.8	7.45e-01	0	37	104	0	60	15859
2026-01-22 01:59:09.27	7.83	10.67	-44.2	-57.2	3.8	7.47e-01	0	37	104	0	60	15633
2026-01-22 01:59:10.41	7.76	10.78	-44.1	-57.1	3.8	7.45e-01	0	37	104	0	60	15472
2026-01-22 01:59:11.26	7.72	10.86	-44.6	-58.2	3.9	7.40e-01	0	37	104	0	60	17559
2026-01-22 01:59:12.43	7.65	10.97	-46.9	-64.6	4.0	7.42e-01	0	37	104	0	65	27575
2026-01-22 01:59:13.28	7.60	11.05	-44.6	-57.8	3.7	7.45e-01	0	37	104	0	61	15942
2026-01-22 01:59:14.42	7.54	11.15	-46.5	-54.2	16.1	6.00e-01	0	37	0	0	63	9283
2026-01-22 01:59:15.27	7.49	11.23	-46.5	-53.6	17.0	5.98e-01	0	37	0	1572864	63	8689
2026-01-22 01:59:16.53	7.41	11.35	-46.4	-52.8	17.6	6.00e-01	0	37	0	4194304	64	7482
2026-01-22 01:59:17.26	7.37	11.42	-46.6	-53.0	17.2	6.01e-01	0	37	0	5242880	64	7695
2026-01-22 01:59:18.71	7.29	11.56	-46.3	-52.0	18.0	6.00e-01	0	37	0	7864320	64	6804
2026-01-22 01:59:19.43	7.24	11.63	-46.4	-52.2	17.9	5.97e-01	0	37	0	9437184	64	7015
2026-01-22 01:59:20.71	7.17	11.75	-46.6	-52.5	18.0	6.00e-01	0	37	0	11534336	64	7266
2026-01-22 01:59:21.76	7.10	11.86	-46.2	-51.5	18.6	6.00e-01	0	37	0	13631488	64	6434
2026-01-22 01:59:22.63	7.05	11.94	-46.5	-52.1	18.7	6.01e-01	0	37	0	15204352	64	6897
2026-01-22 01:59:23.77	6.98	12.05	-46.5	-51.9	18.7	6.01e-01	0	37	0	17301504	63	7185
2026-01-22 01:59:24.62	6.93	12.13	-46.2	-51.2	19.5	6.02e-01	0	37	0	18874368	63	6578
2026-01-22 01:59:25.75	6.86	12.25	-46.0	-50.7	20.1	6.03e-01	0	37	0	20971520	63	6211
2026-01-22 01:59:26.61	6.81	12.33	-45.9	-50.4	19.8	6.01e-01	0	37	0	22544384	63	6051
2026-01-22 01:59:27.74	6.73	12.44	-45.1	-49.1	21.2	6.00e-01	0	38	0	25165824	62	5515
2026-01-22 01:59:28.60	6.68	12.53	-44.8	-48.5	21.8	5.99e-01	0	37	0	26738688	61	5463
2026-01-22 01:59:29.73	6.61	12.64	-44.6	-48.3	21.8	6.01e-01	0	37	0	28835840	60	5650
2026-01-22 01:59:30.59	6.55	12.73	-44.4	-47.9	22.3	6.00e-01	0	37	0	30408704	60	5355
2026-01-22 01:59:31.72	6.48	12.84	-44.1	-47.4	22.7	6.02e-01	0	37	0	32505856	60	5069
2026-01-22 01:59:32.69	6.41	12.94	-44.3	-47.6	22.6	6.02e-01	0	37	0	34078720	59	5478
2026-01-22 01:59:33.85	6.34	13.06	-44.2	-47.3	22.9	6.00e-01	0	37	0	36175872	59	5329
2026-01-22 01:59:34.74	6.28	13.15	-44.2	-47.4	22.9	6.01e-01	0	37	0	38273024	59	5377
2026-01-22 01:59:35.87	6.20	13.27	-43.8	-46.8	23.4	6.05e-01	0	37	0	40370176	59	4989
2026-01-22 01:59:36.72	6.15	13.35	-43.6	-46.5	23.6	6.01e-01	0	37	0	41943040	59	4823
2026-01-22 01:59:38.08	6.05	13.50	-43.5	-46.4	23.7	6.02e-01	0	37	0	44564480	59	4798
2026-01-22 01:59:38.79	6.00	13.57	-43.5	-46.4	23.7	5.99e-01	0	37	0	45613056	58	5061
2026-01-22 01:59:40.07	5.91	13.70	-43.7	-46.5	23.6	5.99e-01	0	37	0	48234496	58	5152
2026-01-22 01:59:40.78	5.87	13.78	-43.7	-46.5	23.6	6.00e-01	0	37	0	49283072	58	5128
2026-01-22 01:59:42.07	5.77	13.91	-43.7	-46.5	23.6	6.01e-01	0	37	0	51904512	58	5139
2026-01-22 01:59:42.79	5.72	13.99	-43.7	-46.6	23.6	6.00e-01	0	38	0	52953088	58	5166
2026-01-22 01:59:44.07	5.63	14.13	-43.7	-46.5	23.6	6.04e-01	0	37	0	55574528	58	5158
2026-01-22 01:59:44.87	5.57	14.21	-43.7	-46.5	23.7	5.99e-01	0	37	0	57147392	58	5120
2026-01-22 01:59:46.01	5.49	14.33	-43.8	-46.6	23.5	6.01e-01	0	37	0	59244544	58	5218
2026-01-22 01:59:46.86	5.43	14.43	-43.7	-46.5	23.6	6.02e-01	0	37	0	60817408	58	5156
2026-01-22 01:59:48.00	5.34	14.55	-43.7	-46.6	23.6	5.99e-01	0	37	0	62914560	58	5161
2026-01-22 01:59:48.85	5.28	14.64	-43.7	-46.5	23.7	6.01e-01	0	37	0	64487424	58	5129
2026-01-22 01:59:49.99	5.19	14.77	-43.7	-46.5	23.5	6.05e-01	0	38	0	66584576	58	5144
2026-01-22 01:59:50.84	5.13	14.86	-43.7	-46.5	23.6	6.00e-01	0	38	0	68157440	58	5159
2026-01-22 01:59:52.00	5.04	14.99	-43.7	-46.5	23.6	5.99e-01	0	37	0	70254592	58	5149
2026-01-22 01:59:52.85	4.98	15.08	-43.7	-46.5	23.6	5.99e-01	0	38	0	71827456	58	5153
2026-01-22 01:59:53.99	4.89	15.21	-43.7	-46.4	23.8	6.01e-01	0	37	0	73924608	58	5058
2026-01-22 01:59:54.84	4.82	15.31	-43.7	-46.3	23.9	6.03e-01	0	37	0	75497472	58	5041
2026-01-22 01:59:55.98	4.73	15.43	-43.8	-46.4	23.8	6.00e-01	0	37	0	78118912	58	5059
2026-01-22 01:59:56.83	4.66	15.53	-43.7	-46.3	23.9	5.99e-01	0	37	0	79691776	58	4998
2026-01-22 01:59:57.97	4.57	15.66	-43.7	-46.3	23.9	5.98e-01	0	37	0	81788928	58	5016
2026-01-22 01:59:58.82	4.50	15.76	-43.7	-46.3	23.9	6.00e-01	0	38	0	83361792	58	5032
2026-01-22 01:59:59.96	4.41	15.89	-43.6	-46.2	23.9	6.01e-01	0	37	0	85458944	58	4975
2026-01-22 02:00:00.81	4.34	15.98	-43.6	-46.1	24.0	6.02e-01	0	37	0	87031808	58	4913
2026-01-22 02:00:01.95	4.24	16.12	-43.6	-46.1	24.0	6.01e-01	0	37	0	89128960	58	4920
2026-01-22 02:00:02.80	4.17	16.21	-43.6	-46.1	24.1	5.99e-01	0	38	0	90701824	58	4901
2026-01-22 02:00:03.94	4.08	16.35	-43.6	-46.2	24.0	6.01e-01	0	38	0	92798976	58	4958
2026-01-22 02:00:04.79	4.00	16.45	-43.7	-46.3	23.9	6.00e-01	0	38	0	94371840	58	4991
2026-01-22 02:00:05.92	3.91	16.58	-43.6	-46.1	23.2	6.01e-01	0	38	0	96468992	58	4923
2026-01-22 02:00:06.77	3.83	16.68	-43.6	-46.1	24.0	6.01e-01	0	38	0	98041856	58	4920
2026-01-22 02:00:07.97	3.73	16.82	-43.7	-46.2	24.0	6.01e-01	0	37	0	100139008	58	4962
2026-01-22 02:00:08.83	3.65	16.93	-43.6	-46.1	24.0	6.01e-01	0	38	0	101711872	58	4911
2026-01-22 02:00:10.02	3.54	17.07	-43.7	-46.2	24.0	6.02e-01	0	38	0	104333312	58	4937
2026-01-22 02:00:10.88	3.47	17.17	-43.7	-46.2	23.9	6.02e-01	0	38	0	105906176	58	4982
2026-01-22 02:00:12.08	3.36	17.32	-43.7	-46.3	23.9	6.01e-01	0	37	0	108003328	58	4996
2026-01-22 02:00:12.93	3.28	17.42	-43.6	-46.2	24.0	6.03e-01	0	38	0	109576192	58	4935
2026-01-22 02:00:14.11	3.17	17.57	-43.5	-46.1	23.9	6.04e-01	0	38	0	111673344	58	4914
2026-01-22 02:00:14.97	3.09	17.67	-43.5	-46.2	24.0	6.01e-01	0	38	0	113246208	58	4949
2026-01-22 02:00:16.10	2.98	17.81	-43.6	-46.2	24.0	6.02e-01	0	38	0	115343360	58	4957
2026-01-22 02:00:17.37	2.86	17.97	-43.6	-46.2	24.0	6.02e-01	0	38	0	117964800	58	4979
2026-01-22 02:00:18.17	2.79	18.07	-43.7	-46.3	23.9	6.02e-01	0	38	0	119537664	58	5031
2026-01-22 02:00:19.69	2.64	18.26	-43.7	-46.4	23.9	6.02e-01	0	38	0	122159104	58	5060
2026-01-22 02:00:20.40	2.57	18.35	-43.7	-46.4	23.8	6.02e-01	0	38	0	123731968	58	5084
2026-01-22 02:00:21.68	2.44	18.52	-43.7	-46.4	23.9	6.04e-01	0	38	0	125829120	58	5049
2026-01-22 02:00:22.40	2.37	18.61	-43.7	-46.4	23.9	5.99e-01	0	38	0	127401984	58	5070
2026-01-22 02:00:23.68	2.24	18.77	-43.7	-46.4	23.9	6.00e-01	0	37	0	130023424	58	5045
2026-01-22 02:00:24.39	2.17	18.86	-43.7	-46.4	23.8	6.03e-01	0	37	0	131072000	58	5075
2026-01-22 02:00:25.67	2.04	19.03	-43.7	-46.3	23.9	5.99e-01	0	38	0	133693440	58	5020
2026-01-22 02:00:26.40	1.96	19.12	-43.7	-46.3	23.9	6.02e-01	0	38	0	134742016	58	5015
2026-01-22 02:00:27.68	1.83	19.29	-43.8	-46.4	23.9	6.01e-01	0	37	0	137363456	58	5054
2026-01-22 02:00:28.56	1.73	19.41	-43.8	-46.3	24.0	6.01e-01	0	38	0	138936320	58	5015
2026-01-22 02:00:29.70	1.61	19.56	-43.8	-46.3	23.9	6.01e-01	0	38	0	141033472	58	5038
2026-01-22 02:00:30.56	1.52	19.67	-43.8	-46.3	24.0	6.00e-01	0	38	0	142606336	58	4992
2026-01-22 02:00:31.69	1.40	19.83	-43.8	-46.3	24.0	6.01e-01	0	38	0	144703488	58	5022
2026-01-22 02:00:32.83	1.27	19.98	-43.7	-46.2	24.0	6.04e-01	0	38	0	146800640	58	4964
2026-01-22 02:00:33.68	1.18	20.09	-43.7	-46.2	24.1	6.01e-01	0	37	0	148373504	58	4942
2026-01-22 02:00:34.82	1.05	20.25	-43.7	-46.2	24.0	6.01e-01	0	38	0	150470656	58	4953
2026-01-22 02:00:35.67	0.95	20.37	-43.7	-46.2	24.0	6.01e-01	0	38	0	152043520	58	4981
2026-01-22 02:00:36.81	0.82	20.52	-43.8	-46.3	23.9	6.02e-01	0	38	0	154664960	58	5039
2026-01-22 02:00:37.66	0.72	20.64	-43.9	-46.5	23.8	6.00e-01	0	38	0	156237824	58	5133
2026-01-22 02:00:38.80	0.59	20.80	-43.8	-46.4	23.9	6.01e-01	0	37	0	158334976	58	5096
2026-01-22 02:00:39.65	0.49	20.92	-43.9	-46.5	23.8	6.00e-01	0	38	0	159907840	58	5128
2026-01-22 02:00:40.78	0.36	21.07	-43.9	-46.6	23.7	6.01e-01	0	38	0	162004992	58	5187
2026-01-22 02:00:41.64	0.25	21.20	-44.0	-46.7	23.6	6.00e-01	0	37	0	163577856	58	5253
2026-01-22 02:00:42.78	0.11	21.36	-43.9	-46.6	23.6	6.01e-01	0	37	0	165675008	58	5210
2026-01-22 02:00:43.69	0.00	21.49	-43.8	-46.4	23.9	6.00e-01	0	37	0	167247872	58	5079
2026-01-22 02:00:44.86	359.86	21.65	-43.9	-46.5	23.8	6.02e-01	0	38	0	169345024	58	5125
2026-01-22 02:00:45.72	359.75	21.78	-44.0	-46.5	23.8	6.01e-01	0	37	0	170917888	58	5149
2026-01-22 02:00:46.85	359.61	21.94	-43.9	-46.4	23.9	6.00e-01	0	38	0	173015040	58	5078
2026-01-22 02:00:47.70	359.50	22.07	-43.9	-46.4	23.9	6.00e-01	0	38	0	174587904	58	5077
2026-01-22 02:00:48.84	359.35	22.23	-43.9	-46.4	23.9	6.00e-01	0	38	0	177209344	58	5079
2026-01-22 02:00:49.70	359.24	22.36	-43.9	-46.4	23.9	6.00e-01	0	38	0	178782208	58	5084
2026-01-22 02:00:50.83	359.09	22.53	-43.9	-46.5	23.9	6.02e-01	0	38	0	180879360	58	5108
2026-01-22 02:00:51.69	358.98	22.65	-43.9	-46.5	23.9	6.00e-01	0	38	0	182452224	58	5107
2026-01-22 02:00:52.83	358.82	22.82	-43.9	-46.5	23.8	6.02e-01	0	38	0	184549376	58	5126
2026-01-22 02:00:53.68	358.71	22.95	-43.9	-46.5	23.8	6.02e-01	0	38	0	186122240	58	5141
2026-01-22 02:00:54.81	358.55	23.12	-44.0	-46.6	23.8	6.00e-01	0	38	0	188219392	58	5195
2026-01-22 02:00:55.67	358.43	23.25	-44.1	-46.7	23.6	6.01e-01	0	38	0	189792256	58	5258
2026-01-22 02:00:56.81	358.28	23.43	-44.1	-46.8	23.6	6.01e-01	0	38	0	191889408	58	5315
2026-01-22 02:00:57.66	358.16	23.56	-44.2	-46.8	23.6	6.00e-01	0	38	0	193462272	58	5337
2026-01-22 02:00:58.97	357.97	23.76	-44.1	-46.8	23.6	6.02e-01	0	37	0	196083712	59	4998
2026-01-22 02:00:59.68	357.87	23.87	-44.2	-46.8	23.6	6.01e-01	0	38	0	197132288	59	5024
2026-01-22 02:01:00.96	357.68	24.07	-44.0	-46.6	23.8	6.01e-01	0	38	0	199753728	59	4897
2026-01-22 02:01:01.67	357.57	24.18	-44.0	-46.5	23.8	6.04e-01	0	38	0	200802304	59	4840
2026-01-22 02:01:02.95	357.38	24.38	-43.9	-46.4	23.9	6.03e-01	0	38	0	203423744	59	4803
2026-01-22 02:01:03.68	357.27	24.50	-44.0	-46.5	23.8	6.02e-01	0	38	0	204996608	59	4835
2026-01-22 02:01:05.29	357.03	24.75	-44.0	-46.5	23.9	6.01e-01	0	38	0	207618048	59	4817
2026-01-22 02:01:05.89	356.93	24.85	-43.9	-46.4	24.0	6.04e-01	0	38	0	209190912	59	4783
2026-01-22 02:01:07.45	356.69	25.10	-44.1	-46.6	23.8	6.01e-01	0	38	0	211812352	59	4874
2026-01-22 02:01:08.10	356.59	25.21	-44.1	-46.6	23.8	6.03e-01	0	38	0	212860928	59	4909
2026-01-22 02:01:09.52	356.36	25.44	-44.0	-46.6	23.8	6.00e-01	0	38	0	215482368	59	4880
2026-01-22 02:01:10.23	356.24	25.55	-43.9	-46.5	23.9	6.02e-01	0	38	0	217055232	59	4822
2026-01-22 02:01:11.51	356.04	25.76	-43.8	-46.3	24.0	6.00e-01	0	38	0	219676672	59	4744
2026-01-22 02:01:12.24	355.91	25.88	-43.8	-46.3	24.1	6.02e-01	0	38	0	220725248	59	4707
2026-01-22 02:01:13.51	355.70	26.10	-43.6	-46.0	24.3	6.02e-01	0	38	0	223346688	59	4589
2026-01-22 02:01:14.24	355.58	26.22	-43.6	-46.0	24.3	6.00e-01	0	38	0	224395264	59	4575
2026-01-22 02:01:15.57	355.35	26.44	-43.7	-46.1	24.2	6.03e-01	0	38	0	227016704	59	4641
2026-01-22 02:01:16.28	355.23	26.56	-43.8	-46.3	24.1	6.01e-01	0	38	0	228589568	59	4708
2026-01-22 02:01:17.64	354.99	26.79	-44.0	-46.5	23.9	5.99e-01	0	38	0	231211008	59	4824
2026-01-22 02:01:18.35	354.86	26.91	-44.0	-46.5	23.8	5.99e-01	0	38	0	232259584	59	4856
2026-01-22 02:01:19.63	354.63	27.13	-44.0	-46.5	23.9	6.04e-01	0	38	0	234881024	59	4819
2026-01-22 02:01:20.67	354.44	27.31	-44.1	-46.6	23.8	6.00e-01	0	37	0	236453888	59	4882
2026-01-22 02:01:21.95	354.21	27.53	-43.7	-46.1	24.2	6.00e-01	0	38	0	239075328	59	4601
2026-01-22 02:01:22.66	354.08	27.66	-43.5	-45.9	24.4	6.01e-01	0	37	0	240123904	59	4516
2026-01-22 02:01:23.94	353.84	27.88	-43.6	-46.0	24.3	6.02e-01	0	38	0	242745344	59	4589
2026-01-22 02:01:24.66	353.70	28.01	-43.5	-45.9	24.4	6.01e-01	0	38	0	244318208	59	4531
2026-01-22 02:01:25.94	353.45	28.24	-43.6	-46.0	23.9	6.02e-01	0	38	0	246415360	59	4559
2026-01-22 02:01:26.67	353.31	28.37	-43.6	-46.0	24.3	6.01e-01	0	38	0	247988224	59	4572
2026-01-22 02:01:27.95	353.06	28.60	-43.7	-46.0	24.3	5.99e-01	0	38	0	250085376	59	4595
2026-01-22 02:01:28.66	352.91	28.72	-43.6	-45.9	24.4	6.01e-01	0	38	0	251658240	59	4530
2026-01-22 02:01:29.94	352.66	28.95	-43.5	-45.9	24.4	6.03e-01	0	38	0	254279680	59	4519
2026-01-22 02:01:30.66	352.51	29.08	-43.5	-45.9	24.4	5.99e-01	0	38	0	255328256	59	4531
2026-01-22 02:01:31.94	352.24	29.32	-43.5	-45.9	24.4	6.00e-01	0	38	0	257949696	59	4530
2026-01-22 02:01:32.67	352.09	29.45	-43.4	-45.9	24.4	6.03e-01	0	38	0	258998272	58	4767
2026-01-22 02:01:34.12	351.78	29.72	-43.4	-45.9	24.3	6.02e-01	0	38	0	261619712	58	4794
2026-01-22 02:01:35.10	351.57	29.90	-43.3	-45.8	24.5	6.03e-01	0	38	0	263716864	58	4730
2026-01-22 02:01:36.10	351.35	30.09	-43.2	-45.6	24.6	6.02e-01	0	38	0	265814016	58	4651
2026-01-22 02:01:37.09	351.14	30.27	-43.2	-45.7	24.6	6.04e-01	0	38	0	267386880	58	4666
2026-01-22 02:01:38.09	350.91	30.46	-43.3	-45.7	24.6	6.01e-01	0	38	0	269484032	58	4676
2026-01-22 02:01:39.08	350.69	30.64	-43.3	-45.6	24.6	6.01e-01	0	38	0	271056896	58	4651
2026-01-22 02:01:40.08	350.46	30.83	-43.3	-45.7	24.6	6.03e-01	0	38	0	273154048	58	4656
2026-01-22 02:01:41.07	350.23	31.02	-43.3	-45.6	24.6	6.03e-01	0	38	0	274726912	58	4648
2026-01-22 02:01:42.06	350.00	31.21	-43.2	-45.7	24.6	6.02e-01	0	38	0	276824064	58	4661
2026-01-22 02:01:43.06	349.76	31.40	-43.2	-45.7	24.6	5.99e-01	0	38	0	278396928	58	4673
2026-01-22 02:01:44.05	349.52	31.59	-43.1	-45.5	24.7	6.02e-01	0	37	0	280494080	58	4591
2026-01-22 02:01:45.05	349.28	31.79	-43.3	-45.7	24.6	6.02e-01	0	38	0	282591232	58	4672
2026-01-22 02:01:46.04	349.04	31.98	-43.4	-45.9	24.4	6.01e-01	0	38	0	284164096	58	4774
2026-01-22 02:01:47.04	348.79	32.17	-43.7	-46.1	24.3	5.98e-01	0	38	0	286261248	58	4909
2026-01-22 02:01:48.03	348.54	32.37	-43.7	-46.2	24.2	6.01e-01	0	38	0	287834112	58	4958
2026-01-22 02:01:49.03	348.28	32.56	-43.6	-46.1	24.3	6.03e-01	0	38	0	289931264	58	4883
2026-01-22 02:01:50.02	348.02	32.76	-43.6	-46.2	24.2	6.02e-01	0	38	0	291504128	58	4942
2026-01-22 02:01:51.02	347.76	32.95	-43.4	-46.0	24.4	6.01e-01	0	38	0	293601280	58	4823
2026-01-22 02:01:52.01	347.50	33.15	-43.2	-45.7	24.6	6.00e-01	0	38	0	295174144	58	4664
2026-01-22 02:01:53.01	347.23	33.35	-43.3	-45.9	24.5	6.01e-01	0	38	0	297271296	58	4784
2026-01-22 02:01:54.01	346.96	33.55	-43.7	-46.3	24.1	6.01e-01	0	38	0	299368448	58	5020
2026-01-22 02:01:55.00	346.69	33.75	-44.0	-46.6	23.8	6.02e-01	0	38	0	300941312	58	5205
2026-01-22 02:01:55.99	346.41	33.95	-44.0	-46.6	23.7	6.02e-01	0	38	0	303038464	58	5172
2026-01-22 02:01:56.99	346.13	34.15	-43.9	-46.4	24.0	6.01e-01	0	38	0	304611328	58	5087
2026-01-22 02:01:57.98	345.84	34.35	-43.8	-46.3	24.1	5.99e-01	0	38	0	306708480	58	5033
2026-01-22 02:01:58.97	345.55	34.55	-44.0	-46.5	24.0	5.99e-01	0	38	0	308281344	58	5140
2026-01-22 02:01:59.97	345.26	34.75	-44.1	-46.7	23.8	6.01e-01	0	38	0	310378496	59	4928
2026-01-22 02:02:00.96	344.97	34.96	-44.2	-46.7	23.8	6.03e-01	0	38	0	311951360	59	4979
2026-01-22 02:02:01.96	344.66	35.16	-44.5	-47.1	23.5	6.00e-01	0	38	0	314048512	59	5182
2026-01-22 02:02:02.95	344.36	35.36	-44.6	-47.2	23.4	6.00e-01	0	38	0	316145664	59	5230
2026-01-22 02:02:03.95	344.05	35.57	-44.4	-47.0	23.5	6.01e-01	0	38	0	317718528	59	5145
2026-01-22 02:02:04.94	343.74	35.77	-44.6	-47.2	23.3	6.00e-01	0	38	0	319815680	59	5259
2026-01-22 02:02:05.94	343.42	35.98	-44.5	-47.3	23.3	6.02e-01	0	38	0	321388544	60	4991
2026-01-22 02:02:06.93	343.10	36.18	-44.6	-47.4	23.1	6.03e-01	0	38	0	323485696	60	5087
2026-01-22 02:02:07.93	342.78	36.39	-44.3	-47.2	23.2	6.02e-01	0	38	0	325058560	60	4977
2026-01-22 02:02:08.95	342.44	36.60	-44.2	-47.1	23.4	6.03e-01	0	38	0	327155712	60	4896
2026-01-22 02:02:09.98	342.10	36.82	-44.3	-47.2	23.3	6.02e-01	0	38	0	329252864	60	4950
2026-01-22 02:02:10.98	341.76	37.02	-44.5	-47.3	23.2	6.02e-01	0	38	0	330825728	60	5005
2026-01-22 02:02:11.97	341.42	37.23	-45.0	-47.9	22.7	6.00e-01	0	38	0	332922880	60	5345
2026-01-22 02:02:12.97	341.07	37.44	-45.4	-48.3	22.4	6.01e-01	0	38	0	334495744	61	5290
2026-01-22 02:02:13.96	340.72	37.65	-45.1	-47.8	21.9	6.00e-01	0	38	0	336592896	61	4992
2026-01-22 02:02:14.95	340.36	37.85	-45.0	-47.6	23.0	6.01e-01	0	38	0	338690048	61	4888
2026-01-22 02:02:15.95	340.00	38.06	-44.8	-47.4	23.1	6.01e-01	0	38	0	340262912	61	4779
2026-01-22 02:02:16.95	339.63	38.27	-45.0	-47.7	22.9	6.03e-01	0	38	0	342360064	61	4940
2026-01-22 02:02:17.94	339.26	38.48	-45.5	-48.2	22.4	6.00e-01	0	38	0	343932928	61	5271
2026-01-22 02:02:18.94	338.89	38.69	-45.6	-48.5	22.2	6.00e-01	0	38	0	346030080	61	5413
2026-01-22 02:02:19.93	338.51	38.90	-45.4	-48.3	22.3	6.04e-01	0	38	0	347602944	61	5294
2026-01-22 02:02:20.92	338.12	39.10	-45.1	-48.1	22.5	6.00e-01	0	38	0	349700096	61	5161
2026-01-22 02:02:21.95	337.72	39.32	-45.0	-47.9	22.7	6.04e-01	0	38	0	351797248	61	5075
2026-01-22 02:02:22.97	337.31	39.53	-45.0	-47.9	22.7	6.02e-01	0	37	0	353370112	61	5059
2026-01-22 02:02:23.97	336.91	39.74	-45.3	-48.2	22.4	6.02e-01	0	38	0	355467264	61	5238
2026-01-22 02:02:24.96	336.51	39.95	-45.6	-48.6	22.1	6.00e-01	0	38	0	357040128	61	5474
2026-01-22 02:02:25.95	336.10	40.15	-45.4	-48.2	22.4	6.00e-01	0	38	0	359137280	61	5277
2026-01-22 02:02:26.95	335.68	40.36	-45.3	-48.1	22.5	6.00e-01	0	38	0	360710144	61	5163
2026-01-22 02:02:27.94	335.26	40.56	-45.0	-47.7	22.7	6.01e-01	0	38	0	362807296	61	4978
2026-01-22 02:02:28.94	334.83	40.77	-45.1	-47.9	22.7	6.02e-01	0	38	0	364904448	61	5083
2026-01-22 02:02:29.93	334.39	40.97	-45.0	-47.9	22.0	6.00e-01	0	38	0	366477312	61	5095
2026-01-22 02:02:30.92	333.96	41.18	-45.1	-48.1	22.5	6.02e-01	0	38	0	368574464	61	5206
2026-01-22 02:02:31.92	333.51	41.38	-44.8	-47.7	22.8	6.03e-01	0	38	0	370147328	61	4968
2026-01-22 02:02:32.91	333.06	41.58	-44.7	-47.6	22.9	6.03e-01	0	38	0	372244480	61	4911
2026-01-22 02:02:33.91	332.60	41.79	-44.7	-47.6	22.9	6.01e-01	0	38	0	373817344	61	4890
2026-01-22 02:02:34.90	332.14	41.99	-44.7	-47.6	22.9	6.02e-01	0	38	0	375914496	61	4916
2026-01-22 02:02:35.90	331.67	42.19	-44.8	-47.7	22.8	6.00e-01	0	38	0	377487360	61	4970
2026-01-22 02:02:36.89	331.20	42.39	-44.6	-47.4	23.1	6.03e-01	0	38	0	379584512	61	4766
2026-01-22 02:02:37.93	330.70	42.59	-44.6	-47.3	23.2	6.00e-01	0	38	0	381681664	61	4713
2026-01-22 02:02:38.93	330.21	42.79	-44.6	-47.2	23.3	6.00e-01	0	38	0	383254528	61	4687
2026-01-22 02:02:39.99	329.68	43.00	-44.5	-47.1	23.2	6.00e-01	0	38	0	385351680	61	4641
2026-01-22 02:02:40.89	329.23	43.17	-44.7	-47.3	23.2	5.97e-01	0	38	0	386924544	61	4735
2026-01-22 02:02:41.93	328.70	43.38	-44.8	-47.5	23.0	6.01e-01	0	38	0	389021696	61	4858
2026-01-22 02:02:42.92	328.19	43.57	-44.5	-47.2	23.3	6.02e-01	0	38	0	390594560	61	4656
2026-01-22 02:02:43.92	327.67	43.76	-44.5	-47.1	23.3	6.03e-01	0	38	0	392691712	60	4911
2026-01-22 02:02:44.91	327.15	43.94	-44.4	-47.0	23.4	6.01e-01	0	38	0	394788864	60	4831
2026-01-22 02:02:45.91	326.61	44.13	-44.8	-47.5	22.0	6.01e-01	0	38	0	396361728	60	5141
2026-01-22 02:02:46.90	326.08	44.32	-44.5	-47.2	23.3	6.03e-01	0	38	0	398458880	60	4945
2026-01-22 02:02:47.90	325.53	44.50	-44.5	-47.2	23.3	6.02e-01	0	38	0	400031744	60	4931
2026-01-22 02:02:48.90	324.98	44.68	-44.6	-47.2	23.3	5.99e-01	0	38	0	402128896	60	4957
2026-01-22 02:02:49.89	324.43	44.86	-44.3	-46.9	23.5	6.02e-01	0	38	0	404226048	60	4789
2026-01-22 02:02:50.89	323.86	45.04	-44.5	-47.1	23.3	6.02e-01	0	38	0	405798912	60	4921
2026-01-22 02:02:51.88	323.29	45.21	-44.4	-47.1	23.2	6.02e-01	0	38	0	407896064	60	4903
2026-01-22 02:02:52.87	322.72	45.38	-44.4	-47.1	23.3	6.00e-01	0	38	0	409468928	60	4914
2026-01-22 02:02:53.87	322.14	45.55	-44.2	-46.9	23.5	6.01e-01	0	38	0	411566080	60	4780
2026-01-22 02:02:54.88	321.54	45.72	-44.2	-47.0	23.5	6.02e-01	0	38	0	413138944	60	4829
2026-01-22 02:02:55.87	320.95	45.88	-44.5	-47.4	23.1	6.03e-01	0	38	0	415236096	60	5081
2026-01-22 02:02:56.93	320.31	46.05	-44.6	-47.4	23.1	6.02e-01	0	38	0	417333248	60	5054
2026-01-22 02:02:57.85	319.75	46.20	-44.8	-47.5	23.0	6.00e-01	0	38	0	418906112	60	5116
2026-01-22 02:02:58.98	319.05	46.38	-44.4	-46.9	23.5	6.03e-01	0	38	0	421003264	60	4785
2026-01-22 02:02:59.84	318.51	46.51	-44.4	-47.0	23.5	6.02e-01	0	38	0	422576128	60	4853
2026-01-22 02:03:00.97	317.80	46.68	-44.7	-47.4	23.1	6.05e-01	0	38	0	424673280	60	5092
2026-01-22 02:03:01.83	317.26	46.81	-44.5	-47.2	23.3	6.03e-01	0	38	0	426246144	60	4944
2026-01-22 02:03:02.97	316.52	46.97	-44.6	-47.2	23.1	6.02e-01	0	38	0	428343296	60	4959
2026-01-22 02:03:03.82	315.97	47.09	-44.5	-47.1	23.3	6.03e-01	0	38	0	429916160	60	4911
2026-01-22 02:03:04.95	315.24	47.24	-44.7	-47.4	23.0	6.02e-01	0	38	0	432013312	60	5097
2026-01-22 02:03:05.80	314.68	47.36	-44.7	-47.4	23.1	6.02e-01	0	38	0	433586176	60	5045
2026-01-22 02:03:06.94	313.92	47.51	-44.8	-47.5	23.0	6.01e-01	0	38	0	435683328	60	5108
2026-01-22 02:03:07.79	313.35	47.61	-44.4	-47.0	23.4	6.02e-01	0	38	0	437780480	60	4829
2026-01-22 02:03:08.93	312.58	47.75	-44.6	-47.2	23.3	6.02e-01	0	38	0	439353344	60	4969
2026-01-22 02:03:09.78	312.00	47.85	-44.5	-47.2	23.3	6.01e-01	0	38	0	441450496	60	4948
2026-01-22 02:03:10.92	311.22	47.98	-44.7	-47.4	23.1	6.01e-01	0	38	0	443547648	60	5086
2026-01-22 02:03:11.77	310.63	48.07	-44.5	-47.1	23.2	6.00e-01	0	38	0	445120512	60	4907
2026-01-22 02:03:13.02	309.76	48.21	-44.6	-47.3	23.1	6.00e-01	0	38	0	447217664	60	5022
2026-01-22 02:03:13.87	309.16	48.29	-44.5	-47.2	23.2	6.04e-01	0	38	0	448790528	60	4953
2026-01-22 02:03:15.01	308.36	48.40	-44.7	-47.4	23.1	6.00e-01	0	38	0	450887680	60	5066
2026-01-22 02:03:15.86	307.76	48.48	-44.6	-47.2	23.2	6.04e-01	0	38	0	452460544	60	4977
2026-01-22 02:03:16.99	306.95	48.58	-44.5	-47.1	23.3	6.01e-01	0	38	0	454557696	60	4881
2026-01-22 02:03:17.85	306.33	48.65	-44.3	-46.8	23.3	6.02e-01	0	38	0	456130560	60	4728
2026-01-22 02:03:18.99	305.51	48.74	-44.7	-47.4	23.1	6.01e-01	0	38	0	458752000	60	5065
2026-01-22 02:03:19.84	304.89	48.80	-44.4	-47.0	23.4	6.00e-01	0	38	0	460324864	60	4820
2026-01-22 02:03:20.98	304.06	48.88	-44.3	-46.8	23.7	6.02e-01	0	38	0	462422016	59	5023
2026-01-22 02:03:21.83	303.44	48.94	-44.4	-46.9	23.5	6.03e-01	0	38	0	463994880	60	4795
2026-01-22 02:03:22.97	302.60	49.00	-44.9	-47.6	23.0	6.01e-01	0	38	0	466092032	60	5162
2026-01-22 02:03:23.82	301.97	49.05	-44.4	-47.0	23.5	6.01e-01	0	38	0	467664896	60	4826
2026-01-22 02:03:24.96	301.13	49.11	-44.9	-47.6	22.9	6.03e-01	0	37	0	469762048	60	5199
2026-01-22 02:03:25.81	300.49	49.14	-44.9	-47.7	22.9	6.02e-01	0	38	0	471334912	60	5244
2026-01-22 02:03:26.94	299.65	49.19	-44.6	-47.4	22.9	6.03e-01	0	38	0	473432064	60	5061
2026-01-22 02:03:27.79	299.02	49.22	-44.8	-47.5	22.9	6.00e-01	0	38	0	475004928	60	5119
2026-01-22 02:03:29.11	298.03	49.25	-44.5	-47.0	23.5	6.02e-01	0	38	0	477626368	60	4821
2026-01-22 02:03:29.81	297.50	49.27	-44.4	-46.8	23.5	6.02e-01	0	38	0	478674944	60	4744
2026-01-22 02:03:31.11	296.53	49.29	-44.9	-47.6	22.9	6.03e-01	0	38	0	481296384	60	5216
2026-01-22 02:03:31.82	295.99	49.30	-43.8	-46.3	24.1	6.02e-01	0	38	0	482344960	59	4706
2026-01-22 02:03:33.10	295.03	49.31	-44.8	-47.5	22.8	6.00e-01	0	38	0	484966400	60	5123
2026-01-22 02:03:33.87	294.45	49.31	-44.0	-46.4	24.0	6.02e-01	0	38	0	486539264	59	4811
2026-01-22 02:03:35.15	293.49	49.31	-45.7	-48.8	22.0	6.01e-01	0	38	0	488636416	62	5280
2026-01-22 02:03:35.89	292.93	49.30	-44.0	-46.4	23.9	6.03e-01	0	38	0	490209280	59	4782
2026-01-22 02:03:37.17	291.97	49.29	-44.6	-47.2	23.0	6.03e-01	0	38	0	492306432	59	5250
2026-01-22 02:03:37.89	291.43	49.27	-43.6	-45.8	24.3	6.02e-01	0	38	0	493879296	59	4490
2026-01-22 02:03:39.17	290.47	49.24	-44.4	-46.9	23.3	6.00e-01	0	38	0	496500736	59	5044
2026-01-22 02:03:39.90	289.92	49.22	-43.8	-46.1	23.9	6.00e-01	0	38	0	497549312	59	4639
2026-01-22 02:03:41.18	288.97	49.17	-43.8	-46.1	24.2	6.01e-01	0	38	0	500170752	59	4616
2026-01-22 02:03:41.90	288.43	49.15	-44.7	-47.3	22.4	6.01e-01	0	38	0	501219328	61	4706
2026-01-22 02:03:43.18	287.48	49.09	-44.1	-46.3	23.6	5.99e-01	0	38	0	503840768	59	4739
2026-01-22 02:03:43.90	286.94	49.05	-45.5	-48.5	21.9	6.00e-01	0	38	0	505413632	61	5431
2026-01-22 02:03:45.18	286.00	48.98	-44.7	-47.4	22.9	6.02e-01	0	38	0	507510784	60	5042
2026-01-22 02:03:45.91	285.46	48.94	-45.1	-47.7	22.8	6.00e-01	0	38	0	509083648	60	5272
2026-01-22 02:03:47.28	284.46	48.85	-45.4	-48.2	22.2	6.03e-01	0	38	0	511705088	61	5256
2026-01-22 02:03:47.99	283.94	48.80	-44.0	-46.3	24.0	6.00e-01	0	38	0	512753664	59	4745
2026-01-22 02:03:49.27	283.01	48.70	-44.6	-47.2	23.2	6.02e-01	0	38	0	515375104	60	4937
2026-01-22 02:03:50.00	282.49	48.65	-44.2	-46.6	23.2	6.02e-01	0	38	0	516423680	60	4633
2026-01-22 02:03:51.28	281.57	48.54	-44.2	-46.7	23.5	6.01e-01	0	38	0	519045120	60	4653
2026-01-22 02:03:51.99	281.06	48.47	-44.6	-47.2	23.3	6.01e-01	0	38	0	520617984	60	4933
2026-01-22 02:03:53.27	280.15	48.35	-44.6	-47.3	23.0	6.00e-01	0	38	0	522715136	60	4998
2026-01-22 02:03:54.02	279.62	48.28	-44.2	-46.7	23.6	6.03e-01	0	38	0	524288000	60	4679
2026-01-22 02:03:55.30	278.73	48.15	-43.6	-45.9	24.2	6.02e-01	0	38	0	526385152	59	4541
2026-01-22 02:03:56.01	278.23	48.07	-44.6	-47.2	23.3	6.00e-01	0	38	0	527958016	59	5246
2026-01-22 02:03:57.29	277.35	47.93	-44.5	-47.1	23.4	6.00e-01	0	38	0	530579456	59	5185
2026-01-22 02:03:58.07	276.81	47.84	-44.1	-46.5	23.7	6.00e-01	0	38	0	531628032	60	4597
2026-01-22 02:03:59.65	275.74	47.65	-44.1	-46.6	23.7	6.02e-01	0	38	0	534773760	60	4601
2026-01-22 02:04:00.28	275.31	47.57	-44.3	-46.8	23.6	5.99e-01	0	38	0	535822336	60	4739
2026-01-22 02:04:01.78	274.31	47.38	-44.6	-47.2	23.3	6.03e-01	0	38	0	538443776	59	5256
2026-01-22 02:04:02.70	273.71	47.26	-44.1	-46.4	24.0	5.98e-01	0	38	0	540540928	59	4800
2026-01-22 02:04:03.69	273.06	47.12	-44.2	-46.7	23.6	6.02e-01	0	38	0	542113792	59	4951
2026-01-22 02:04:04.68	272.41	46.99	-44.7	-47.2	23.4	6.01e-01	0	38	0	544210944	59	5273
2026-01-22 02:04:05.68	271.77	46.84	-44.4	-46.9	23.5	6.00e-01	0	38	0	546308096	60	4793
2026-01-22 02:04:06.67	271.14	46.70	-44.7	-47.3	23.1	6.01e-01	0	38	0	547880960	60	5039
2026-01-22 02:04:07.67	270.51	46.55	-44.0	-46.5	23.8	5.99e-01	0	38	0	549978112	60	4550
2026-01-22 02:04:08.67	269.88	46.39	-44.1	-46.6	23.7	6.00e-01	0	38	0	551550976	59	4892
2026-01-22 02:04:09.66	269.27	46.24	-44.6	-47.2	23.3	6.00e-01	0	38	0	553648128	59	5252
2026-01-22 02:04:10.65	268.66	46.08	-44.7	-47.3	23.1	6.02e-01	0	38	0	555220992	60	5015
2026-01-22 02:04:11.74	268.00	45.90	-44.2	-46.7	23.7	5.99e-01	0	38	0	557318144	60	4662
2026-01-22 02:04:12.62	267.47	45.76	-44.1	-46.6	23.7	6.02e-01	0	38	0	558891008	60	4614
2026-01-22 02:04:13.93	266.69	45.54	-44.4	-47.0	23.4	6.02e-01	0	38	0	561512448	59	5124
2026-01-22 02:04:14.65	266.27	45.42	-44.4	-47.0	23.4	6.01e-01	0	38	0	563085312	60	4822
2026-01-22 02:04:15.93	265.53	45.20	-44.2	-46.7	23.7	6.02e-01	0	38	0	565182464	60	4680
2026-01-22 02:04:16.65	265.12	45.07	-44.0	-46.5	23.9	6.00e-01	0	38	0	566755328	59	4819
2026-01-22 02:04:18.13	264.28	44.81	-44.9	-47.6	22.8	6.00e-01	0	38	0	569376768	60	5193
2026-01-22 02:04:18.84	263.88	44.68	-44.2	-46.7	23.4	6.01e-01	0	38	0	570949632	60	4705
2026-01-22 02:04:20.17	263.14	44.44	-44.1	-46.6	23.9	6.01e-01	0	38	0	573046784	59	4882
2026-01-22 02:04:20.88	262.75	44.30	-43.9	-46.3	24.0	6.02e-01	0	38	0	574619648	59	4746
2026-01-22 02:04:22.16	262.06	44.07	-43.8	-46.2	24.1	6.03e-01	0	38	0	576716800	59	4670
2026-01-22 02:04:22.89	261.67	43.93	-44.2	-46.7	23.8	6.00e-01	0	38	0	578289664	59	4938
2026-01-22 02:04:24.26	260.95	43.67	-43.8	-46.3	24.1	6.00e-01	0	38	0	580911104	59	4727
2026-01-22 02:04:24.97	260.58	43.53	-43.6	-46.0	24.3	6.01e-01	0	38	0	581959680	59	4584
2026-01-22 02:04:26.25	259.92	43.28	-44.2	-46.7	23.7	6.02e-01	0	38	0	584581120	59	4952
2026-01-22 02:04:26.98	259.55	43.14	-44.5	-47.0	23.5	6.01e-01	0	38	0	586153984	59	5116
2026-01-22 02:04:28.26	258.91	42.89	-44.3	-46.7	23.7	6.03e-01	0	38	0	588251136	59	4975
2026-01-22 02:04:28.98	258.55	42.75	-44.4	-46.9	23.5	6.02e-01	0	38	0	589824000	59	5087
2026-01-22 02:04:30.26	257.93	42.49	-44.3	-46.8	23.7	6.00e-01	0	38	0	591921152	59	5010
2026-01-22 02:04:30.99	257.58	42.35	-44.3	-46.8	23.6	6.02e-01	0	38	0	593494016	59	5017
2026-01-22 02:04:32.26	256.97	42.09	-44.6	-47.1	23.3	6.02e-01	0	38	0	596115456	60	4908
2026-01-22 02:04:33.04	256.60	41.93	-44.6	-47.1	23.4	6.01e-01	0	38	0	597164032	60	4879
2026-01-22 02:04:34.32	256.01	41.67	-44.3	-46.8	23.6	6.00e-01	0	38	0	599785472	60	4718
2026-01-22 02:04:35.04	255.68	41.53	-44.2	-46.6	23.7	6.01e-01	0	38	0	601358336	60	4631
2026-01-22 02:04:36.32	255.10	41.27	-44.2	-46.7	23.7	6.03e-01	0	38	0	603455488	60	4664
2026-01-22 02:04:37.10	254.75	41.11	-44.6	-47.1	23.3	6.03e-01	0	38	0	605028352	60	4910
2026-01-22 02:04:38.38	254.19	40.84	-44.6	-47.2	23.2	6.02e-01	0	38	0	607125504	60	4943
2026-01-22 02:04:39.17	253.84	40.68	-44.4	-46.9	23.5	6.01e-01	0	38	0	608698368	60	4775
2026-01-22 02:04:40.68	253.19	40.36	-45.0	-47.6	22.9	6.02e-01	0	38	0	611844096	60	5193
2026-01-22 02:04:41.39	252.90	40.22	-44.8	-47.4	23.1	6.00e-01	0	38	0	612892672	60	5049
2026-01-22 02:04:42.67	252.36	39.95	-44.8	-47.4	23.0	6.03e-01	0	38	0	615514112	60	5084
2026-01-22 02:04:43.38	252.07	39.80	-45.0	-47.6	22.9	6.01e-01	0	38	0	616562688	60	5211
2026-01-22 02:04:44.66	251.55	39.53	-45.0	-47.6	22.8	6.03e-01	0	38	0	619184128	60	5209
2026-01-22 02:04:45.38	251.26	39.38	-45.0	-47.6	22.9	6.01e-01	0	38	0	620756992	60	5170
2026-01-22 02:04:46.66	250.76	39.11	-45.1	-47.7	22.8	6.01e-01	0	38	0	622854144	60	5264
2026-01-22 02:04:47.37	250.48	38.96	-45.6	-48.4	22.3	6.02e-01	0	38	0	624427008	61	5346
2026-01-22 02:04:48.65	249.99	38.70	-45.5	-48.3	22.3	6.00e-01	0	38	0	626524160	62	4992
2026-01-22 02:04:49.38	249.71	38.54	-45.2	-47.9	22.6	5.98e-01	0	38	0	628097024	62	4814
2026-01-22 02:04:50.65	249.23	38.28	-45.1	-47.8	22.7	6.03e-01	0	38	0	630194176	62	4727
2026-01-22 02:04:51.39	248.96	38.12	-45.2	-47.9	22.6	6.02e-01	0	38	0	631767040	62	4807
2026-01-22 02:04:52.67	248.49	37.85	-45.2	-48.0	22.5	6.02e-01	0	38	0	633864192	62	4846
2026-01-22 02:04:53.38	248.23	37.70	-45.1	-47.8	22.7	6.01e-01	0	38	0	635437056	62	4747
2026-01-22 02:04:54.66	247.78	37.43	-45.5	-48.3	22.3	6.01e-01	0	38	0	638058496	62	4985
2026-01-22 02:04:55.39	247.52	37.28	-45.4	-48.2	22.3	6.02e-01	0	38	0	639107072	62	4964
2026-01-22 02:04:56.67	247.08	37.01	-45.3	-48.1	22.4	6.02e-01	0	38	0	641728512	62	4905
2026-01-22 02:04:57.40	246.83	36.86	-45.3	-48.0	22.5	6.00e-01	0	38	0	642777088	62	4860
2026-01-22 02:04:58.67	246.40	36.59	-45.2	-47.9	22.6	6.02e-01	0	38	0	645398528	62	4812
2026-01-22 02:04:59.59	246.10	36.40	-45.1	-47.8	22.7	6.02e-01	0	38	0	646971392	62	4724
2026-01-22 02:05:00.87	245.68	36.14	-45.1	-47.7	22.8	6.02e-01	0	38	0	649592832	62	4701
2026-01-22 02:05:01.63	245.43	35.98	-45.0	-47.7	22.8	5.99e-01	0	38	0	651165696	62	4659
2026-01-22 02:05:03.22	244.92	35.65	-45.3	-48.1	22.4	6.01e-01	0	38	0	653787136	62	4923
2026-01-22 02:05:03.81	244.74	35.53	-45.1	-47.8	22.6	6.04e-01	0	38	0	654835712	62	4731
2026-01-22 02:05:05.37	244.26	35.20	-44.7	-47.4	23.1	6.00e-01	0	38	0	657981440	61	4760
2026-01-22 02:05:06.02	244.06	35.07	-44.9	-47.5	22.9	6.00e-01	0	38	0	659030016	61	4859
2026-01-22 02:05:07.44	243.63	34.78	-45.0	-47.7	22.8	6.03e-01	0	38	0	661651456	61	4935
2026-01-22 02:05:08.15	243.42	34.63	-44.8	-47.4	23.1	6.01e-01	0	38	0	663224320	61	4761
2026-01-22 02:05:09.43	243.04	34.37	-44.6	-47.2	23.3	6.01e-01	0	38	0	665321472	61	4656
2026-01-22 02:05:10.15	242.84	34.23	-44.6	-47.2	23.3	6.02e-01	0	38	0	666894336	61	4660
2026-01-22 02:05:11.43	242.47	33.97	-44.7	-47.3	23.1	5.99e-01	0	38	0	669515776	61	4744
2026-01-22 02:05:12.15	242.27	33.82	-44.6	-47.1	23.3	6.03e-01	0	38	0	670564352	61	4623
2026-01-22 02:05:13.54	241.88	33.54	-44.7	-47.2	23.2	6.02e-01	0	38	0	673185792	61	4691
2026-01-22 02:05:14.25	241.68	33.40	-44.6	-47.1	23.3	6.02e-01	0	38	0	674758656	61	4620
2026-01-22 02:05:15.53	241.34	33.14	-44.4	-47.0	23.4	6.03e-01	0	38	0	676855808	60	4826
2026-01-22 02:05:16.26	241.14	33.00	-44.2	-46.7	23.6	6.02e-01	0	38	0	678428672	60	4683
2026-01-22 02:05:17.65	240.78	32.72	-44.1	-46.6	23.7	6.02e-01	0	38	0	681050112	60	4628
2026-01-22 02:05:18.36	240.59	32.58	-44.4	-46.9	23.4	6.02e-01	0	38	0	682098688	60	4802
2026-01-22 02:05:19.64	240.26	32.33	-44.7	-47.3	23.0	6.01e-01	0	38	0	684720128	60	5015
2026-01-22 02:05:20.36	240.08	32.19	-44.3	-46.9	23.4	6.02e-01	0	38	0	686292992	60	4771
2026-01-22 02:05:21.75	239.73	31.91	-44.1	-46.5	23.9	6.02e-01	0	38	0	688914432	59	4853
2026-01-22 02:05:22.46	239.55	31.78	-44.2	-46.7	23.7	6.02e-01	0	38	0	689963008	59	4937
2026-01-22 02:05:23.74	239.24	31.53	-44.5	-47.0	23.5	6.00e-01	0	38	0	692584448	59	5112
2026-01-22 02:05:24.45	239.07	31.39	-44.5	-47.0	23.4	5.99e-01	0	38	0	693633024	59	5147
2026-01-22 02:05:25.73	238.76	31.14	-44.4	-46.8	23.6	6.00e-01	0	38	0	696254464	59	5034
2026-01-22 02:05:26.47	238.59	31.00	-44.2	-46.7	23.7	6.03e-01	0	38	0	697303040	59	4928
2026-01-22 02:05:27.75	238.29	30.76	-44.3	-46.7	23.6	6.00e-01	0	38	0	699924480	59	4983
2026-01-22 02:05:28.47	238.13	30.62	-44.5	-47.0	23.4	5.99e-01	0	38	0	701497344	59	5122
2026-01-22 02:05:29.75	237.84	30.38	-44.3	-46.7	23.6	6.01e-01	0	38	0	703594496	59	4983
2026-01-22 02:05:30.49	237.67	30.24	-44.1	-46.5	23.8	6.04e-01	0	38	0	705167360	59	4865
2026-01-22 02:05:31.77	237.39	30.00	-44.1	-46.5	23.9	6.03e-01	0	38	0	707264512	59	4827
2026-01-22 02:05:32.53	237.22	29.86	-44.2	-46.7	23.7	6.00e-01	0	38	0	708837376	59	4954
2026-01-22 02:05:33.81	236.94	29.62	-44.4	-46.9	23.4	6.02e-01	0	38	0	711458816	59	5100
2026-01-22 02:05:34.61	236.77	29.47	-44.3	-46.9	23.5	6.02e-01	0	38	0	713031680	59	5049
2026-01-22 02:05:35.75	236.53	29.26	-44.1	-46.5	23.8	5.99e-01	0	38	0	715128832	59	4851
2026-01-22 02:05:36.60	236.35	29.11	-44.1	-46.6	23.8	6.01e-01	0	38	0	716701696	59	4883
2026-01-22 02:05:37.74	236.12	28.90	-44.3	-46.8	23.6	6.02e-01	0	38	0	718798848	59	4994
2026-01-22 02:05:38.59	235.95	28.74	-44.5	-47.1	23.4	6.01e-01	0	38	0	720371712	59	5167
2026-01-22 02:05:40.15	235.63	28.46	-44.4	-46.9	23.4	6.00e-01	0	38	0	722993152	59	5098
2026-01-22 02:05:40.86	235.49	28.33	-44.4	-47.0	23.4	6.02e-01	0	38	0	724566016	59	5108
2026-01-22 02:05:42.14	235.24	28.11	-44.3	-46.8	23.5	6.01e-01	0	38	0	727187456	59	5020
2026-01-22 02:05:42.86	235.10	27.98	-44.3	-46.8	23.6	6.03e-01	0	38	0	728236032	59	5011
2026-01-22 02:05:44.13	234.86	27.75	-44.4	-46.9	23.5	6.01e-01	0	38	0	730857472	59	5056
2026-01-22 02:05:44.86	234.72	27.62	-44.5	-47.0	23.4	5.97e-01	0	38	0	731906048	59	5121
2026-01-22 02:05:46.14	234.48	27.40	-44.2	-46.7	23.6	6.00e-01	0	38	0	734527488	59	4963
2026-01-22 02:05:46.85	234.35	27.28	-44.1	-46.6	23.7	6.02e-01	0	38	0	735576064	59	4903
2026-01-22 02:05:48.12	234.12	27.06	-44.2	-46.6	23.7	5.99e-01	0	38	0	738197504	59	4917
2026-01-22 02:05:48.85	233.99	26.93	-44.3	-46.8	23.6	6.01e-01	0	38	0	739246080	59	4991
2026-01-22 02:05:50.13	233.76	26.71	-44.5	-47.1	23.3	6.02e-01	0	38	0	741867520	59	5204
2026-01-22 02:05:50.84	233.63	26.59	-44.5	-47.2	23.2	6.02e-01	0	38	0	743440384	60	4929
2026-01-22 02:05:52.16	233.40	26.36	-44.3	-46.9	23.4	6.02e-01	0	37	0	745537536	60	4780
2026-01-22 02:05:52.87	233.28	26.24	-44.3	-46.8	23.5	5.99e-01	0	38	0	747110400	60	4736
2026-01-22 02:05:54.15	233.06	26.03	-44.2	-46.7	23.5	6.03e-01	0	38	0	749207552	60	4690
2026-01-22 02:05:54.88	232.94	25.91	-44.1	-46.6	23.7	6.03e-01	0	38	0	750780416	60	4610
2026-01-22 02:05:56.25	232.71	25.68	-44.1	-46.7	23.6	6.04e-01	0	38	0	753401856	60	4671
2026-01-22 02:05:56.96	232.59	25.56	-44.2	-46.8	23.5	6.01e-01	0	38	0	754450432	60	4726
2026-01-22 02:05:58.24	232.38	25.35	-44.5	-47.2	23.2	6.02e-01	0	38	0	757071872	60	4934
2026-01-22 02:05:58.95	232.27	25.23	-44.6	-47.2	23.1	6.03e-01	0	38	0	758644736	60	4965
2026-01-22 02:06:00.23	232.06	25.03	-44.7	-47.2	23.1	6.02e-01	0	38	0	760741888	60	4982
2026-01-22 02:06:00.95	231.95	24.91	-44.4	-46.9	23.3	6.02e-01	0	38	0	762314752	60	4813
2026-01-22 02:06:02.23	231.75	24.70	-44.3	-46.8	23.5	6.03e-01	0	38	0	764411904	60	4733
2026-01-22 02:06:02.94	231.64	24.59	-44.3	-46.8	23.5	5.98e-01	0	38	0	765984768	60	4720
2026-01-22 02:06:04.22	231.44	24.38	-44.4	-46.9	23.4	5.99e-01	0	38	0	768081920	60	4779
2026-01-22 02:06:04.94	231.33	24.27	-44.4	-47.0	23.4	6.01e-01	0	38	0	769654784	60	4815
2026-01-22 02:06:06.22	231.14	24.07	-44.6	-47.2	23.1	6.00e-01	0	38	0	772276224	60	4948
2026-01-22 02:06:06.93	231.04	23.96	-44.7	-47.3	23.0	6.01e-01	0	38	0	773324800	60	5041
2026-01-22 02:06:08.21	230.85	23.76	-44.6	-47.2	23.1	6.01e-01	0	38	0	775946240	60	4975
2026-01-22 02:06:09.03	230.73	23.63	-44.6	-47.2	23.1	5.99e-01	0	38	0	777519104	60	4977
2026-01-22 02:06:10.17	230.57	23.45	-44.5	-47.1	23.2	6.02e-01	0	38	0	779616256	60	4887
2026-01-22 02:06:11.02	230.45	23.32	-44.5	-47.1	23.2	6.01e-01	0	38	0	781189120	60	4885
2026-01-22 02:06:12.16	230.29	23.15	-44.6	-47.2	23.1	6.02e-01	0	38	0	783286272	60	4945
2026-01-22 02:06:13.33	230.12	22.97	-44.5	-47.0	23.1	5.99e-01	0	38	0	785383424	60	4862
2026-01-22 02:06:14.18	230.01	22.84	-44.4	-47.0	23.3	6.02e-01	0	38	0	786956288	60	4824
2026-01-22 02:06:15.31	229.85	22.67	-44.5	-47.1	23.2	6.01e-01	0	38	0	789053440	60	4890
2026-01-22 02:06:16.17	229.74	22.54	-44.5	-47.1	23.2	6.03e-01	0	38	0	790626304	60	4877
2026-01-22 02:06:17.30	229.59	22.37	-44.5	-47.0	23.2	6.02e-01	0	38	0	792723456	60	4853
2026-01-22 02:06:18.16	229.47	22.25	-44.5	-47.0	23.3	6.00e-01	0	38	0	794296320	60	4860
2026-01-22 02:06:19.29	229.33	22.08	-44.5	-47.0	23.2	5.99e-01	0	38	0	796393472	60	4846
2026-01-22 02:06:20.14	229.22	21.95	-44.6	-47.2	23.1	6.01e-01	0	38	0	797966336	60	4963
2026-01-22 02:06:21.31	229.07	21.78	-44.6	-47.3	23.0	6.04e-01	0	38	0	800587776	60	5000
2026-01-22 02:06:22.17	228.96	21.66	-44.5	-47.1	23.2	6.02e-01	0	38	0	802160640	60	4923
2026-01-22 02:06:23.38	228.81	21.48	-44.5	-47.1	23.2	6.04e-01	0	38	0	804257792	60	4918
2026-01-22 02:06:24.23	228.70	21.36	-44.6	-47.2	23.1	6.00e-01	0	38	0	805830656	60	4963
2026-01-22 02:06:25.37	228.56	21.20	-44.7	-47.3	23.0	6.00e-01	0	38	0	807927808	60	5007
2026-01-22 02:06:26.22	228.46	21.08	-44.6	-47.2	23.1	6.00e-01	0	38	0	809500672	60	4931
2026-01-22 02:06:27.36	228.32	20.92	-44.6	-47.2	23.1	6.02e-01	0	38	0	811597824	60	4957
2026-01-22 02:06:28.21	228.22	20.80	-44.6	-47.2	23.1	6.03e-01	0	38	0	813170688	60	4957
2026-01-22 02:06:29.35	228.08	20.64	-44.6	-47.2	23.1	6.02e-01	0	38	0	815267840	60	4978
2026-01-22 02:06:30.20	227.98	20.52	-44.6	-47.2	23.1	6.02e-01	0	38	0	816840704	60	4979
2026-01-22 02:06:31.34	227.85	20.36	-44.3	-46.9	23.3	5.98e-01	0	38	0	818937856	60	4786
2026-01-22 02:06:32.19	227.75	20.25	-44.2	-46.7	23.5	6.03e-01	0	38	0	821035008	60	4698
2026-01-22 02:06:33.33	227.62	20.09	-44.3	-46.8	23.4	6.03e-01	0	38	0	822607872	60	4750
2026-01-22 02:06:34.18	227.53	19.97	-44.3	-46.8	23.4	6.02e-01	0	38	0	824705024	60	4755
2026-01-22 02:06:35.32	227.40	19.82	-44.3	-46.8	23.4	5.99e-01	0	38	0	826802176	60	4750
2026-01-22 02:06:36.17	227.31	19.70	-44.2	-46.8	23.4	6.02e-01	0	38	0	828375040	60	4722
2026-01-22 02:06:37.31	227.18	19.55	-44.3	-46.8	23.4	6.03e-01	0	38	0	830472192	60	4757
2026-01-22 02:06:38.16	227.09	19.44	-44.4	-46.9	23.3	6.00e-01	0	38	0	832045056	60	4806
2026-01-22 02:06:39.30	226.97	19.29	-44.5	-47.1	23.1	6.01e-01	0	38	0	834142208	60	4894
2026-01-22 02:06:40.15	226.88	19.17	-44.5	-47.1	23.2	6.01e-01	0	38	0	835715072	60	4875
2026-01-22 02:06:41.30	226.75	19.02	-44.6	-47.2	23.0	5.97e-01	0	38	0	837812224	60	4931
2026-01-22 02:06:42.15	226.67	18.91	-44.5	-47.1	23.1	6.00e-01	0	38	0	839385088	60	4881
2026-01-22 02:06:43.34	226.54	18.76	-44.5	-47.0	23.2	6.01e-01	0	38	0	841482240	60	4860
2026-01-22 02:06:44.19	226.46	18.65	-44.5	-47.1	23.2	6.02e-01	0	38	0	843055104	60	4896
2026-01-22 02:06:45.33	226.34	18.50	-44.5	-47.0	23.1	5.99e-01	0	38	0	845676544	60	4870
2026-01-22 02:06:46.19	226.25	18.39	-44.4	-47.0	23.3	6.00e-01	0	38	0	847249408	60	4815
2026-01-22 02:06:47.32	226.14	18.24	-44.5	-47.0	23.2	6.00e-01	0	38	0	849346560	60	4870
2026-01-22 02:06:48.17	226.06	18.14	-44.3	-46.9	23.3	6.01e-01	0	38	0	850919424	60	4789
2026-01-22 02:06:49.52	225.92	17.97	-44.4	-46.9	23.3	6.00e-01	0	38	0	853016576	60	4811
2026-01-22 02:06:50.23	225.85	17.88	-44.4	-47.0	23.2	6.02e-01	0	38	0	854589440	60	4824
2026-01-22 02:06:51.50	225.73	17.72	-44.4	-47.0	23.2	6.01e-01	0	38	0	857210880	60	4841
2026-01-22 02:06:52.21	225.66	17.63	-44.5	-47.1	23.1	6.02e-01	0	38	0	858259456	60	4893
2026-01-22 02:06:53.49	225.54	17.47	-44.4	-47.0	23.2	6.01e-01	0	38	0	860880896	60	4849
2026-01-22 02:06:54.20	225.48	17.38	-44.4	-47.0	23.2	5.99e-01	0	38	0	861929472	60	4850
2026-01-22 02:06:55.48	225.36	17.23	-44.5	-47.1	23.1	6.03e-01	0	38	0	864550912	60	4877
2026-01-22 02:06:56.19	225.29	17.14	-44.4	-47.0	23.2	6.02e-01	0	38	0	865599488	60	4816
2026-01-22 02:06:57.47	225.18	16.98	-44.4	-47.0	23.2	6.00e-01	0	38	0	868220928	60	4827
2026-01-22 02:06:58.18	225.11	16.90	-44.5	-47.1	23.1	6.03e-01	0	38	0	869269504	60	4873
2026-01-22 02:06:59.46	225.00	16.74	-44.5	-47.0	23.2	6.02e-01	0	38	0	871890944	60	4861
2026-01-22 02:07:00.17	224.93	16.66	-44.4	-47.0	23.2	6.00e-01	0	38	0	872939520	60	4848
2026-01-22 02:07:01.45	224.82	16.51	-44.5	-47.1	23.1	6.01e-01	0	38	0	875560960	60	4874
2026-01-22 02:07:02.16	224.76	16.42	-44.5	-47.1	23.0	6.01e-01	0	38	0	877133824	60	4924
2026-01-22 02:07:03.44	224.65	16.27	-44.4	-47.1	23.1	6.01e-01	0	38	0	879230976	60	4874
2026-01-22 02:07:04.15	224.59	16.19	-44.4	-47.0	23.1	6.02e-01	0	38	0	880803840	60	4866
2026-01-22 02:07:05.43	224.48	16.04	-44.4	-47.0	23.1	6.00e-01	0	38	0	882900992	60	4860
2026-01-22 02:07:06.16	224.42	15.95	-44.4	-47.0	23.1	6.00e-01	0	38	0	884473856	60	4860
2026-01-22 02:07:07.44	224.31	15.81	-44.4	-47.0	23.1	6.01e-01	0	38	0	887095296	60	4868
2026-01-22 02:07:08.15	224.25	15.72	-44.4	-47.0	23.1	6.03e-01	0	38	0	888143872	60	4846
2026-01-22 02:07:09.43	224.15	15.58	-44.5	-47.1	23.0	6.01e-01	0	38	0	890765312	60	4922
2026-01-22 02:07:10.16	224.09	15.49	-44.4	-47.0	23.1	6.00e-01	0	38	0	891813888	60	4861
2026-01-22 02:07:11.44	223.98	15.35	-44.5	-47.2	23.0	6.00e-01	0	38	0	894435328	60	4938
2026-01-22 02:07:12.16	223.92	15.27	-44.6	-47.2	23.0	6.01e-01	0	38	0	895483904	60	4971
2026-01-22 02:07:13.74	223.80	15.09	-44.6	-47.2	22.9	6.02e-01	0	38	0	898629632	60	4979
2026-01-22 02:07:14.38	223.75	15.02	-44.5	-47.1	23.0	6.02e-01	0	38	0	899678208	60	4903
2026-01-22 02:07:15.80	223.64	14.86	-44.5	-47.1	23.1	6.00e-01	0	38	0	902299648	60	4887
2026-01-22 02:07:16.51	223.58	14.78	-44.5	-47.1	23.0	5.99e-01	0	38	0	903872512	60	4896
2026-01-22 02:07:17.82	223.48	14.64	-44.5	-47.1	23.0	6.01e-01	0	38	0	906493952	60	4900
2026-01-22 02:07:18.54	223.43	14.56	-44.5	-47.2	23.0	6.01e-01	0	38	0	907542528	60	4929
2026-01-22 02:07:19.82	223.33	14.42	-44.5	-47.1	23.0	6.04e-01	0	38	0	910163968	60	4908
2026-01-22 02:07:20.54	223.28	14.34	-44.6	-47.2	22.9	6.03e-01	0	38	0	911212544	60	4978
2026-01-22 02:07:21.82	223.18	14.20	-44.5	-47.1	23.0	6.03e-01	0	38	0	913833984	60	4883
2026-01-22 02:07:22.55	223.13	14.12	-44.4	-47.0	23.1	6.00e-01	0	38	0	915406848	60	4836
2026-01-22 02:07:23.83	223.03	13.98	-44.5	-47.1	23.0	6.02e-01	0	38	0	917504000	60	4892
2026-01-22 02:07:24.54	222.98	13.91	-44.4	-47.0	23.1	6.01e-01	0	38	0	919076864	60	4834
2026-01-22 02:07:25.82	222.89	13.77	-44.5	-47.2	23.0	6.01e-01	0	38	0	921174016	60	4939
2026-01-22 02:07:26.57	222.84	13.69	-44.5	-47.2	23.0	6.02e-01	0	38	0	922746880	60	4936
2026-01-22 02:07:27.85	222.75	13.56	-44.6	-47.3	22.9	6.01e-01	0	38	0	925368320	60	5011
2026-01-22 02:07:28.58	222.69	13.48	-44.7	-47.3	22.8	6.02e-01	0	38	0	926416896	60	5016
2026-01-22 02:07:29.86	222.61	13.35	-44.6	-47.2	22.9	6.02e-01	0	38	0	929038336	60	4961
2026-01-22 02:07:30.57	222.56	13.27	-44.6	-47.3	22.9	6.00e-01	0	38	0	930086912	60	4994
2026-01-22 02:07:31.85	222.47	13.14	-44.6	-47.2	22.9	6.02e-01	0	38	0	932708352	60	4947
2026-01-22 02:07:32.72	222.41	13.05	-44.6	-47.2	23.0	6.02e-01	0	38	0	934281216	60	4938
2026-01-22 02:07:33.86	222.33	12.93	-44.6	-47.2	22.9	5.99e-01	0	38	0	936378368	60	4976
2026-01-22 02:07:34.71	222.27	12.85	-44.6	-47.3	22.8	6.01e-01	0	38	0	937951232	60	4998
2026-01-22 02:07:35.84	222.20	12.73	-44.6	-47.2	22.9	6.01e-01	0	38	0	940048384	60	4969
2026-01-22 02:07:36.70	222.14	12.64	-44.7	-47.3	22.8	6.00e-01	0	38	0	941621248	60	5027
2026-01-22 02:07:37.84	222.07	12.53	-44.7	-47.3	22.8	6.01e-01	0	38	0	943718400	60	5039
2026-01-22 02:07:38.69	222.01	12.44	-44.8	-47.5	22.6	5.99e-01	0	38	0	945291264	60	5130
2026-01-22 02:07:39.83	221.94	12.33	-44.7	-47.3	22.8	6.00e-01	0	38	0	947388416	60	5028
2026-01-22 02:07:40.68	221.88	12.25	-44.7	-47.4	22.7	6.06e-01	0	38	0	948961280	60	5068
2026-01-22 02:07:41.81	221.81	12.13	-44.7	-47.4	22.7	5.99e-01	0	38	0	951058432	60	5050
2026-01-22 02:07:42.67	221.76	12.05	-44.7	-47.4	22.7	6.00e-01	0	38	0	952631296	60	5091
2026-01-22 02:07:43.80	221.69	11.94	-44.7	-47.4	22.7	6.01e-01	0	38	0	955252736	60	5065
2026-01-22 02:07:44.66	221.63	11.85	-44.6	-47.3	22.8	6.01e-01	0	38	0	956825600	60	5034
2026-01-22 02:07:46.00	221.55	11.72	-44.8	-47.5	22.6	6.02e-01	0	38	0	958922752	60	5126
2026-01-22 02:07:46.71	221.51	11.65	-44.7	-47.4	22.7	6.01e-01	0	38	0	960495616	60	5062
2026-01-22 02:07:48.23	221.42	11.51	-44.7	-47.4	22.6	6.03e-01	0	38	0	963117056	60	5089
2026-01-22 02:07:48.93	221.37	11.44	-44.6	-47.4	22.7	6.02e-01	0	38	0	964689920	60	5045
2026-01-22 02:07:50.28	221.29	11.31	-44.8	-47.6	22.5	6.00e-01	0	38	0	967311360	60	5180
2026-01-22 02:07:51.26	221.24	11.21	-44.8	-47.5	22.6	6.02e-01	0	38	0	968884224	60	5135
2026-01-22 02:07:52.57	221.16	11.09	-44.9	-47.7	22.4	6.04e-01	0	38	0	971505664	60	5244
2026-01-22 02:07:53.28	221.12	11.02	-44.8	-47.7	22.4	6.01e-01	0	38	0	972554240	60	5219
2026-01-22 02:07:54.56	221.04	10.90	-44.8	-47.7	22.4	6.01e-01	0	38	0	975175680	60	5262
2026-01-22 02:07:55.28	221.00	10.83	-44.7	-47.7	22.4	6.03e-01	0	38	0	976748544	60	5249
2026-01-22 02:07:56.56	220.93	10.72	-44.6	-47.8	22.3	6.01e-01	0	38	0	978845696	60	5291
2026-01-22 02:07:57.29	220.89	10.65	-44.7	-47.8	22.3	6.01e-01	0	38	0	980418560	60	5291
2026-01-22 02:07:58.57	220.81	10.53	-44.6	-47.8	22.2	6.00e-01	0	38	0	982515712	60	5309
2026-01-22 02:07:59.29	220.77	10.46	-44.6	-47.8	22.2	6.01e-01	0	38	0	984088576	60	5315
2026-01-22 02:08:00.57	220.70	10.34	-44.6	-47.7	22.3	5.97e-01	0	38	0	986185728	60	5277
2026-01-22 02:08:01.30	220.66	10.28	-44.6	-47.8	22.2	6.00e-01	0	38	0	987758592	60	5302
2026-01-22 02:08:02.62	220.59	10.16	-44.5	-47.5	22.5	5.99e-01	0	38	0	990380032	60	5111
2026-01-22 02:08:03.33	220.55	10.09	-44.7	-47.7	22.3	6.00e-01	0	38	0	991428608	60	5266
2026-01-22 02:08:04.61	220.48	9.98	-44.6	-47.6	22.4	6.03e-01	0	38	0	994050048	60	5167
2026-01-22 02:08:05.67	220.43	9.88	-44.7	-47.7	22.3	6.02e-01	0	38	0	996147200	60	5231
2026-01-22 02:08:06.85	220.36	9.77	-44.7	-47.6	22.4	6.03e-01	0	38	0	998244352	60	5188
2026-01-22 02:08:07.85	220.31	9.68	-44.8	-47.6	22.3	6.02e-01	0	38	0	1000341504	60	5204
2026-01-22 02:08:08.84	220.26	9.60	-44.9	-47.8	22.1	6.01e-01	0	38	0	1001914368	60	5332
2026-01-22 02:08:09.84	220.21	9.51	-44.9	-47.8	22.2	6.01e-01	0	38	0	1004011520	60	5323
2026-01-22 02:08:10.83	220.16	9.42	-44.7	-47.8	22.1	6.02e-01	0	38	0	1005584384	60	5317
2026-01-22 02:08:11.82	220.11	9.33	-44.5	-47.8	22.1	6.04e-01	0	38	0	1007681536	60	5319
2026-01-22 02:08:12.82	220.06	9.24	-44.4	-47.9	22.0	6.01e-01	0	38	0	1009254400	60	5379
2026-01-22 02:08:13.81	220.01	9.16	-44.0	-48.1	21.9	6.00e-01	0	38	0	1011351552	60	5478
2026-01-22 02:08:14.81	219.96	9.07	-43.9	-48.4	21.7	6.01e-01	0	38	0	1012924416	59	6007
2026-01-22 02:08:15.80	219.91	8.98	-50.5	-59.4	13.4	6.02e-01	0	38	0	1015021568	71	10684
2026-01-22 02:08:16.79	219.86	8.90	-51.8	-70.7	3.8	7.47e-01	0	38	104	1015021568	74	33108
2026-01-22 02:08:17.79	219.81	8.81	-51.7	-71.7	3.8	7.47e-01	0	38	104	1015021568	74	37268
2026-01-22 02:08:18.78	219.76	8.73	-52.1	-72.0	3.8	7.42e-01	0	38	104	1015021568	74	38444
2026-01-22 02:08:19.78	219.71	8.64	-52.0	-72.1	3.8	7.44e-01	0	38	104	1015021568	74	38893
2026-01-22 02:08:20.77	219.66	8.56	-52.3	-72.1	3.9	7.43e-01	0	38	104	1015021568	75	36939
2026-01-22 02:08:21.76	219.62	8.47	-52.1	-72.2	3.8	7.43e-01	0	38	104	1015021568	75	37005
2026-01-22 02:08:22.76	219.57	8.39	-52.0	-72.2	3.8	7.46e-01	0	38	104	1015021568	75	37172
2026-01-22 02:08:23.75	219.52	8.31	-52.4	-72.2	3.8	7.46e-01	0	38	104	1015021568	75	37258
2026-01-22 02:08:24.74	219.47	8.22	-52.3	-72.3	3.8	7.48e-01	0	38	104	1015021568	75	37428
2026-01-22 02:08:25.74	219.43	8.14	-51.7	-72.3	3.8	7.47e-01	0	38	104	1015021568	75	37479
2026-01-22 02:08:26.73	219.38	8.06	-52.3	-72.3	3.8	7.44e-01	0	38	104	1015021568	75	37455
2026-01-22 02:08:27.72	219.34	7.97	-52.4	-72.3	3.8	7.45e-01	0	38	104	1015021568	75	37483
2026-01-22 02:08:28.72	219.29	7.89	-52.2	-72.3	3.8	7.47e-01	0	38	104	1015021568	75	37541
2026-01-22 02:08:29.71	219.25	7.81	-52.2	-72.3	3.8	7.42e-01	0	38	104	1015021568	75	37534
2026-01-22 02:08:30.70	219.20	7.73	-51.7	-72.3	3.8	7.47e-01	0	38	104	1015021568	75	37442
2026-01-22 02:08:31.70	219.16	7.64	-51.9	-72.2	3.8	7.47e-01	0	38	104	1015021568	74	39559
2026-01-22 02:08:32.69	219.11	7.56	-51.8	-72.2	3.8	7.50e-01	0	38	104	1015021568	74	39557
2026-01-22 02:08:33.68	219.07	7.48	-51.8	-72.2	3.8	7.46e-01	0	38	104	1015021568	74	39589
2026-01-22 02:08:34.68	219.02	7.40	-51.8	-72.2	3.8	7.50e-01	0	38	104	1015021568	74	39519
2026-01-22 02:08:35.67	218.98	7.32	-51.9	-72.2	3.8	7.46e-01	0	38	104	1015021568	74	39575
2026-01-22 02:08:36.67	218.94	7.24	-51.6	-72.2	3.8	7.46e-01	0	38	104	1015021568	74	39406
2026-01-22 02:08:37.66	218.89	7.16	-51.6	-72.2	3.8	7.46e-01	0	38	104	1015021568	74	39341
2026-01-22 02:08:38.65	218.85	7.08	-51.6	-72.2	3.8	7.47e-01	0	38	104	1015021568	74	39380
2026-01-22 02:08:39.65	218.81	7.00	-51.6	-72.2	3.8	7.45e-01	0	38	104	1015021568	74	39364
2026-01-22 02:08:40.64	218.77	6.92	-51.6	-72.2	3.8	7.44e-01	0	38	104	1015021568	74	39470
2026-01-22 02:08:41.63	218.73	6.84	-51.6	-72.2	3.8	7.46e-01	0	38	104	1015021568	74	39245
2026-01-22 02:08:42.63	218.68	6.76	-51.6	-72.2	3.8	7.46e-01	0	38	104	1015021568	74	39242
2026-01-22 02:08:43.62	218.64	6.69	-51.6	-72.2	3.8	7.44e-01	0	38	104	1015021568	74	39278
2026-01-22 02:08:44.61	218.60	6.61	-51.6	-72.2	3.8	7.45e-01	0	38	104	1015021568	74	39305
2026-01-22 02:08:45.61	218.56	6.53	-51.6	-72.2	3.8	7.44e-01	0	38	104	1015021568	74	39287
2026-01-22 02:08:46.60	218.52	6.45	-51.6	-72.2	3.8	7.47e-01	0	38	104	1015021568	74	39247
2026-01-22 02:08:47.59	218.48	6.37	-51.6	-72.2	3.8	7.46e-01	0	38	104	1015021568	74	39306
2026-01-22 02:08:48.59	218.44	6.30	-51.6	-72.2	3.8	7.45e-01	0	38	104	1015021568	74	39291
2026-01-22 02:08:49.58	218.40	6.22	-51.6	-72.2	3.8	7.48e-01	0	38	104	1015021568	74	39273
2026-01-22 02:08:50.57	218.36	6.14	-51.6	-72.2	3.8	7.47e-01	0	38	104	1015021568	74	39244
2026-01-22 02:08:51.57	218.32	6.07	-51.6	-72.2	3.8	7.46e-01	0	38	104	1015021568	74	39258
2026-01-22 02:08:52.56	218.28	5.99	-51.6	-72.2	3.8	7.45e-01	0	38	104	1015021568	74	39247
2026-01-22 02:08:53.55	218.24	5.92	-51.5	-72.2	3.8	7.46e-01	0	38	104	1015021568	74	39210
2026-01-22 02:08:54.55	218.20	5.84	-51.5	-72.2	3.8	7.45e-01	0	38	104	1015021568	74	39163
2026-01-22 02:08:55.54	218.17	5.76	-51.5	-72.1	3.8	7.48e-01	0	38	104	1015021568	74	39115
2026-01-22 02:08:56.53	218.13	5.69	-51.6	-72.2	3.8	7.44e-01	0	38	104	1015021568	74	39160
2026-01-22 02:08:57.53	218.09	5.61	-51.6	-72.1	3.8	7.48e-01	0	38	104	1015021568	74	39121
2026-01-22 02:08:58.52	218.05	5.54	-51.6	-72.2	3.8	7.46e-01	0	38	104	1015021568	74	39204
2026-01-22 02:08:59.51	218.01	5.46	-51.6	-72.1	3.8	7.48e-01	0	38	104	1015021568	74	39123
2026-01-22 02:09:00.51	217.98	5.39	-51.5	-72.1	3.8	7.47e-01	0	38	104	1015021568	74	39127
2026-01-22 02:09:01.50	217.94	5.32	-51.5	-72.2	3.8	7.45e-01	0	38	104	1015021568	74	39143
2026-01-22 02:09:02.49	217.90	5.24	-51.6	-72.2	3.8	7.44e-01	0	38	104	1015021568	74	39142
2026-01-22 02:09:03.49	217.87	5.17	-51.6	-72.1	3.8	7.49e-01	0	38	104	1015021568	74	39065
2026-01-22 02:09:04.48	217.83	5.09	-51.5	-72.2	3.8	7.46e-01	0	38	104	1015021568	74	39144
2026-01-22 02:09:05.47	217.79	5.02	-51.6	-72.1	3.8	7.43e-01	0	38	104	1015021568	74	39128
2026-01-22 02:09:06.47	217.76	4.95	-51.5	-72.1	3.8	7.49e-01	0	38	104	1015021568	74	39115

#Closed at: 2026-01-22 02:09:07
#Recorded file [1015 MB]: D:/Data/31040_260122_045759.dat