passes_logs/2026/01/22/T1/T1__20260122_004421_SUOMI_NPP_rec.log

#Pass ID: 20260122_004421_SUOMI NPP
#Satellite: SUOMI NPP
#Configuration: NPP
#almurnet v.1.7.20251203
#Start time: 2026-01-22 00:44:20

#Version: 2.0.20230620
#Station: T1
#Location: 37.570604 lon 55.790049 lat
#TLE: 1 37849U 11061A   26021.51818991  .00000201  00000+0  11636-3 0  9995
#TLE: 2 37849  98.7819 323.5108 0002300  52.3548 307.7836 14.19527793737637

#Time	Az	El	Level	Level2	SNR	BER	BlckErr	Temp	State	Recorded	gain1	gain2
2026-01-22 00:44:20.91	10.53	4.97	-49.6	-65.7	3.8	1.49e+00	0	35	0	0	70	23482
2026-01-22 00:44:21.90	10.49	5.04	-48.2	-65.3	3.8	1.49e+00	0	35	104	0	67	26700
2026-01-22 00:44:22.89	10.44	5.11	-48.3	-65.3	3.8	1.49e+00	0	35	104	0	67	26673
2026-01-22 00:44:23.89	10.39	5.17	-48.3	-65.3	3.8	1.49e+00	0	35	104	0	67	26645
2026-01-22 00:44:24.88	10.35	5.24	-48.3	-65.3	3.8	1.49e+00	0	35	104	0	67	26645
2026-01-22 00:44:25.87	10.30	5.31	-48.3	-65.3	3.8	1.49e+00	0	35	104	0	67	26654
2026-01-22 00:44:26.87	10.25	5.38	-48.3	-65.3	3.8	1.49e+00	0	36	104	0	67	26640
2026-01-22 00:44:27.86	10.20	5.45	-48.3	-65.3	3.8	1.49e+00	0	35	104	0	67	26665
2026-01-22 00:44:28.86	10.16	5.51	-48.3	-65.3	3.8	1.49e+00	0	36	104	0	67	26589
2026-01-22 00:44:29.85	10.11	5.58	-48.3	-65.3	3.8	1.49e+00	0	36	104	0	67	26692
2026-01-22 00:44:30.84	10.06	5.65	-48.3	-65.3	3.8	1.49e+00	0	35	104	0	67	26611
2026-01-22 00:44:31.83	10.01	5.72	-48.3	-65.3	3.8	1.49e+00	0	36	104	0	67	26610
2026-01-22 00:44:32.83	9.96	5.79	-48.3	-65.3	3.8	1.49e+00	0	36	104	0	67	26682
2026-01-22 00:44:33.82	9.91	5.86	-48.3	-65.3	3.8	1.49e+00	0	36	104	0	67	26597
2026-01-22 00:44:34.81	9.86	5.93	-48.3	-65.3	3.8	1.49e+00	0	36	104	0	67	26673
2026-01-22 00:44:35.81	9.81	6.00	-48.3	-65.3	3.8	1.49e+00	0	36	104	0	67	26678
2026-01-22 00:44:36.80	9.76	6.07	-48.3	-65.3	3.8	1.49e+00	0	36	104	0	67	26617
2026-01-22 00:44:37.79	9.71	6.14	-48.3	-65.3	3.8	1.49e+00	0	36	104	0	67	26656
2026-01-22 00:44:38.78	9.66	6.21	-48.3	-65.3	3.8	1.49e+00	0	36	104	0	67	26578
2026-01-22 00:44:39.78	9.61	6.28	-48.3	-65.3	3.8	1.49e+00	0	36	104	0	67	26652
2026-01-22 00:44:40.77	9.56	6.35	-48.3	-65.3	3.8	1.49e+00	0	36	104	0	67	26464
2026-01-22 00:44:41.76	9.51	6.42	-48.3	-65.2	3.8	1.49e+00	0	36	104	0	67	26419
2026-01-22 00:44:42.76	9.46	6.49	-48.3	-65.2	3.8	1.49e+00	0	36	104	0	67	26216
2026-01-22 00:44:43.75	9.41	6.56	-48.3	-65.1	3.8	1.49e+00	0	36	104	0	67	26069
2026-01-22 00:44:44.74	9.36	6.63	-48.3	-65.0	3.8	1.49e+00	0	36	104	0	67	25671
2026-01-22 00:44:45.74	9.30	6.70	-48.3	-64.8	3.8	1.49e+00	0	36	104	0	67	25133
2026-01-22 00:44:46.73	9.25	6.77	-48.3	-64.5	3.8	1.49e+00	0	36	104	0	67	24277
2026-01-22 00:44:47.72	9.20	6.84	-48.3	-64.3	3.8	1.49e+00	0	36	104	0	67	23706
2026-01-22 00:44:48.72	9.14	6.91	-48.3	-64.0	3.8	1.49e+00	0	36	104	0	67	22881
2026-01-22 00:44:49.71	9.09	6.99	-48.2	-63.8	3.8	1.49e+00	0	36	104	0	67	22274
2026-01-22 00:44:50.70	9.04	7.06	-48.2	-63.3	3.9	1.49e+00	0	36	104	0	67	21170
2026-01-22 00:44:51.70	8.98	7.13	-48.2	-63.4	3.8	1.49e+00	0	36	104	0	67	21344
2026-01-22 00:44:52.69	8.93	7.20	-48.2	-63.3	3.8	1.49e+00	0	36	104	0	67	21150
2026-01-22 00:44:53.68	8.88	7.27	-48.2	-63.4	3.8	1.49e+00	0	36	104	0	67	21298
2026-01-22 00:44:54.68	8.82	7.35	-48.2	-63.6	3.8	1.49e+00	0	36	104	0	67	21935
2026-01-22 00:44:55.67	8.77	7.42	-48.3	-63.9	3.8	1.49e+00	0	36	104	0	67	22544
2026-01-22 00:44:56.66	8.71	7.49	-48.3	-64.2	3.8	1.49e+00	0	36	104	0	67	23378
2026-01-22 00:44:57.66	8.65	7.57	-48.3	-64.5	3.8	1.49e+00	0	37	104	0	67	24290
2026-01-22 00:44:58.65	8.60	7.64	-48.3	-64.7	3.8	1.49e+00	0	37	104	0	67	24908
2026-01-22 00:44:59.64	8.54	7.71	-48.3	-65.0	3.8	1.49e+00	0	37	104	0	67	25704
2026-01-22 00:45:00.64	8.48	7.79	-48.3	-65.2	3.8	1.49e+00	0	37	104	0	67	26347
2026-01-22 00:45:01.63	8.43	7.86	-48.3	-65.2	3.8	1.49e+00	0	37	104	0	67	26442
2026-01-22 00:45:02.63	8.37	7.94	-48.3	-65.0	3.8	1.49e+00	0	37	104	0	67	25836
2026-01-22 00:45:03.62	8.31	8.01	-48.3	-64.2	3.8	1.49e+00	0	36	104	0	67	23513
2026-01-22 00:45:04.61	8.26	8.08	-48.2	-62.6	3.9	1.49e+00	0	37	104	0	67	19510
2026-01-22 00:45:05.61	8.20	8.16	-48.1	-60.5	4.6	1.25e+00	0	37	0	0	67	15365
2026-01-22 00:45:06.60	8.14	8.23	-47.9	-58.4	5.9	5.85e-01	0	37	0	2097152	67	11988
2026-01-22 00:45:07.59	8.08	8.31	-47.6	-56.6	7.3	2.73e-01	0	37	0	4194304	67	9796
2026-01-22 00:45:08.59	8.02	8.38	-47.3	-55.0	8.9	3.84e-02	0	37	0	5242880	66	8608
2026-01-22 00:45:09.58	7.96	8.46	-46.9	-53.7	10.2	9.46e-03	0	37	0	7340032	65	7833
2026-01-22 00:45:10.57	7.90	8.54	-46.6	-52.8	11.2	2.53e-03	0	37	0	9437184	65	7077
2026-01-22 00:45:11.57	7.84	8.61	-46.2	-51.8	12.2	8.49e-04	0	37	0	11534336	64	6658
2026-01-22 00:45:12.56	7.78	8.69	-46.1	-51.4	12.6	1.21e-04	0	37	0	13631488	64	6375
2026-01-22 00:45:13.55	7.72	8.76	-46.0	-51.1	13.0	4.11e-05	0	37	0	14680064	63	6542
2026-01-22 00:45:14.55	7.66	8.84	-45.9	-50.9	13.2	4.19e-05	0	37	0	16777216	63	6361
2026-01-22 00:45:15.54	7.60	8.92	-46.1	-51.4	12.7	2.97e-05	0	37	0	18874368	63	6766
2026-01-22 00:45:16.53	7.53	8.99	-46.3	-51.7	12.3	1.40e-04	0	37	0	20971520	63	7032
2026-01-22 00:45:17.53	7.47	9.07	-46.5	-52.1	11.9	3.87e-04	0	37	0	22020096	63	7337
2026-01-22 00:45:18.52	7.41	9.15	-45.9	-50.6	13.5	1.58e-04	0	37	0	24117248	63	6200
2026-01-22 00:45:19.52	7.35	9.23	-46.5	-52.0	12.2	2.82e-05	0	37	0	26214400	63	7285
2026-01-22 00:45:20.52	7.28	9.30	-47.2	-54.7	9.3	9.24e-02	0	37	0	28311552	65	8766
2026-01-22 00:45:21.51	7.22	9.38	-46.3	-51.7	12.1	1.14e-01	0	37	0	30408704	64	6599
2026-01-22 00:45:22.50	7.16	9.46	-44.6	-47.9	16.0	0.00e+00	0	37	0	31457280	61	5096
2026-01-22 00:45:23.50	7.09	9.54	-44.7	-48.1	15.9	0.00e+00	0	37	0	33554432	61	5164
2026-01-22 00:45:24.50	7.03	9.62	-44.7	-48.0	15.9	0.00e+00	0	37	0	35651584	61	5152
2026-01-22 00:45:25.50	6.96	9.70	-44.8	-48.0	16.0	0.00e+00	0	37	0	37748736	61	5157
2026-01-22 00:45:26.49	6.89	9.78	-44.8	-48.2	15.8	0.00e+00	0	37	0	38797312	61	5263
2026-01-22 00:45:27.49	6.83	9.86	-44.7	-48.0	16.0	0.00e+00	0	37	0	40894464	61	5128
2026-01-22 00:45:28.48	6.76	9.93	-44.6	-47.8	16.2	0.00e+00	0	37	0	42991616	61	5007
2026-01-22 00:45:29.48	6.70	10.01	-44.6	-48.0	16.1	0.00e+00	0	37	0	45088768	61	5104
2026-01-22 00:45:30.47	6.63	10.09	-44.7	-48.1	15.9	0.00e+00	0	37	0	47185920	61	5193
2026-01-22 00:45:31.47	6.56	10.17	-44.6	-47.9	16.1	0.00e+00	0	37	0	48234496	61	5060
2026-01-22 00:45:32.49	6.49	10.26	-44.7	-48.0	16.0	0.00e+00	0	37	0	50331648	61	5157
2026-01-22 00:45:33.49	6.42	10.34	-44.5	-47.9	16.1	0.00e+00	0	37	0	52428800	61	5059
2026-01-22 00:45:34.48	6.35	10.42	-44.5	-47.9	16.1	0.00e+00	0	37	0	54525952	60	5358
2026-01-22 00:45:35.48	6.28	10.50	-44.4	-47.8	16.3	0.00e+00	0	37	0	56623104	60	5299
2026-01-22 00:45:36.47	6.22	10.58	-44.6	-48.0	16.0	0.00e+00	0	37	0	57671680	60	5454
2026-01-22 00:45:37.46	6.15	10.66	-44.4	-47.7	16.3	0.00e+00	0	37	0	59768832	60	5254
2026-01-22 00:45:38.46	6.08	10.74	-44.5	-47.9	16.2	0.00e+00	0	37	0	61865984	60	5365
2026-01-22 00:45:39.45	6.00	10.83	-44.5	-47.9	16.2	0.00e+00	0	37	0	63963136	60	5346
2026-01-22 00:45:40.44	5.93	10.91	-44.3	-47.6	16.4	0.00e+00	0	37	0	65011712	60	5185
2026-01-22 00:45:41.44	5.86	10.99	-44.4	-47.7	16.4	0.00e+00	0	37	0	67108864	60	5231
2026-01-22 00:45:42.43	5.79	11.07	-44.5	-47.7	16.4	0.00e+00	0	37	0	69206016	60	5232
2026-01-22 00:45:43.43	5.72	11.16	-44.4	-47.7	16.4	0.00e+00	0	37	0	71303168	60	5232
2026-01-22 00:45:44.42	5.65	11.24	-44.3	-47.5	16.5	0.00e+00	0	37	0	73400320	60	5136
2026-01-22 00:45:45.42	5.57	11.32	-44.3	-47.6	16.5	0.00e+00	0	37	0	74448896	60	5170
2026-01-22 00:45:46.41	5.50	11.41	-44.6	-47.9	16.2	0.00e+00	0	37	0	76546048	60	5358
2026-01-22 00:45:47.44	5.42	11.49	-44.2	-47.3	16.7	0.00e+00	0	37	0	78643200	60	5031
2026-01-22 00:45:48.46	5.34	11.58	-44.3	-47.4	16.7	0.00e+00	0	37	0	80740352	60	5072
2026-01-22 00:45:49.49	5.27	11.67	-44.3	-47.4	16.7	0.00e+00	0	38	0	82837504	60	5049
2026-01-22 00:45:50.49	5.19	11.75	-44.3	-47.5	16.6	0.00e+00	0	37	0	83886080	60	5108
2026-01-22 00:45:51.54	5.11	11.84	-44.3	-47.5	16.6	0.00e+00	0	37	0	85983232	60	5123
2026-01-22 00:45:52.40	5.04	11.91	-44.3	-47.5	16.6	0.00e+00	0	37	0	88080384	60	5126
2026-01-22 00:45:53.53	4.96	12.01	-44.3	-47.4	16.7	0.00e+00	0	37	0	90177536	60	5077
2026-01-22 00:45:54.39	4.89	12.09	-44.5	-47.6	16.5	0.00e+00	0	37	0	91226112	60	5196
2026-01-22 00:45:55.52	4.80	12.18	-44.3	-47.4	16.7	0.00e+00	0	37	0	93323264	60	5067
2026-01-22 00:45:56.38	4.73	12.26	-44.4	-47.4	16.6	0.00e+00	0	37	0	95420416	60	5097
2026-01-22 00:45:57.51	4.64	12.36	-44.4	-47.4	16.7	0.00e+00	0	37	0	97517568	60	5063
2026-01-22 00:45:58.37	4.58	12.43	-44.3	-47.4	16.8	0.00e+00	0	37	0	99614720	60	5049
2026-01-22 00:45:59.50	4.49	12.53	-44.2	-47.2	16.8	0.00e+00	0	37	0	100663296	60	4980
2026-01-22 00:46:00.34	4.42	12.60	-44.3	-47.4	16.8	0.00e+00	0	37	0	102760448	60	5046
2026-01-22 00:46:01.46	4.33	12.70	-44.2	-47.2	16.9	0.00e+00	0	37	0	104857600	60	4948
2026-01-22 00:46:02.32	4.26	12.78	-44.3	-47.3	16.8	0.00e+00	0	37	0	106954752	60	5029
2026-01-22 00:46:03.50	4.16	12.88	-44.2	-47.2	16.9	0.00e+00	0	37	0	109051904	60	4959
2026-01-22 00:46:04.35	4.09	12.96	-44.2	-47.1	17.0	0.00e+00	0	37	0	110100480	60	4923
2026-01-22 00:46:05.55	3.99	13.06	-44.2	-47.1	17.0	0.00e+00	0	37	0	112197632	60	4909
2026-01-22 00:46:06.41	3.92	13.14	-44.1	-47.0	17.1	0.00e+00	0	37	0	114294784	60	4831
2026-01-22 00:46:07.54	3.82	13.24	-44.1	-47.0	17.1	0.00e+00	0	37	0	116391936	60	4865
2026-01-22 00:46:08.40	3.75	13.32	-44.1	-47.0	17.1	0.00e+00	0	37	0	117440512	60	4858
2026-01-22 00:46:09.53	3.65	13.42	-44.1	-47.0	17.1	0.00e+00	0	37	0	119537664	60	4830
2026-01-22 00:46:10.39	3.58	13.50	-44.3	-47.2	16.9	0.00e+00	0	38	0	121634816	59	5251
2026-01-22 00:46:11.53	3.48	13.60	-44.2	-47.1	17.0	0.00e+00	0	37	0	123731968	59	5183
2026-01-22 00:46:12.38	3.40	13.68	-44.2	-47.1	17.0	0.00e+00	0	37	0	125829120	59	5174
2026-01-22 00:46:13.52	3.30	13.78	-44.3	-47.2	16.9	0.00e+00	0	37	0	127926272	59	5254
2026-01-22 00:46:14.37	3.23	13.86	-44.3	-47.3	16.8	0.00e+00	0	37	0	128974848	59	5288
2026-01-22 00:46:15.50	3.13	13.96	-44.3	-47.2	16.8	0.00e+00	0	38	0	131072000	59	5248
2026-01-22 00:46:16.36	3.05	14.04	-44.2	-47.1	17.0	0.00e+00	0	37	0	133169152	59	5206
2026-01-22 00:46:17.50	2.95	14.14	-44.4	-47.5	16.7	0.00e+00	0	38	0	135266304	59	5411
2026-01-22 00:46:18.35	2.87	14.22	-44.4	-47.4	16.7	0.00e+00	0	37	0	136314880	59	5383
2026-01-22 00:46:19.49	2.77	14.33	-44.3	-47.4	16.7	0.00e+00	0	37	0	138412032	59	5369
2026-01-22 00:46:20.34	2.69	14.41	-44.5	-47.6	16.5	0.00e+00	0	37	0	140509184	59	5494
2026-01-22 00:46:21.48	2.59	14.51	-44.6	-47.7	16.5	0.00e+00	0	37	0	142606336	59	5537
2026-01-22 00:46:22.33	2.51	14.59	-44.4	-47.6	16.6	0.00e+00	0	37	0	143654912	59	5478
2026-01-22 00:46:23.61	2.39	14.71	-44.4	-47.5	16.7	0.00e+00	0	37	0	146800640	59	5406
2026-01-22 00:46:24.32	2.32	14.78	-44.6	-47.8	16.4	0.00e+00	0	37	0	147849216	59	5603
2026-01-22 00:46:25.60	2.20	14.90	-44.4	-47.5	16.7	0.00e+00	0	37	0	149946368	59	5434
2026-01-22 00:46:26.31	2.13	14.97	-44.5	-47.7	16.5	0.00e+00	0	38	0	150994944	59	5550
2026-01-22 00:46:27.59	2.01	15.09	-44.4	-47.5	16.7	0.00e+00	0	37	0	154140672	59	5449
2026-01-22 00:46:28.30	1.94	15.16	-44.4	-47.5	16.7	0.00e+00	0	37	0	155189248	59	5438
2026-01-22 00:46:29.58	1.82	15.28	-44.3	-47.4	16.8	0.00e+00	0	37	0	157286400	59	5349
2026-01-22 00:46:30.31	1.74	15.35	-44.2	-47.2	17.0	0.00e+00	0	38	0	159383552	59	5259
2026-01-22 00:46:31.59	1.62	15.47	-44.2	-47.2	17.0	0.00e+00	0	38	0	161480704	59	5258
2026-01-22 00:46:32.46	1.53	15.55	-44.2	-47.2	17.0	0.00e+00	0	38	0	162529280	59	5244
2026-01-22 00:46:33.59	1.42	15.66	-44.2	-47.2	16.9	0.00e+00	0	38	0	164626432	59	5274
2026-01-22 00:46:34.45	1.33	15.75	-44.2	-47.2	17.0	0.00e+00	0	38	0	166723584	59	5236
2026-01-22 00:46:35.59	1.22	15.86	-44.1	-47.1	17.0	0.00e+00	0	37	0	168820736	59	5178
2026-01-22 00:46:36.44	1.13	15.94	-44.3	-47.2	16.9	0.00e+00	0	37	0	170917888	59	5259
2026-01-22 00:46:37.58	1.01	16.05	-44.3	-47.2	17.0	0.00e+00	0	38	0	173015040	59	5242
2026-01-22 00:46:38.43	0.92	16.14	-44.3	-47.2	17.0	0.00e+00	0	37	0	174063616	59	5248
2026-01-22 00:46:39.57	0.81	16.25	-44.4	-47.4	16.8	0.00e+00	0	37	0	176160768	59	5341
2026-01-22 00:46:40.42	0.72	16.33	-44.4	-47.3	16.8	0.00e+00	0	38	0	178257920	59	5338
2026-01-22 00:46:41.56	0.60	16.44	-44.5	-47.5	16.7	0.00e+00	0	38	0	180355072	59	5412
2026-01-22 00:46:42.41	0.51	16.53	-44.5	-47.4	16.8	0.00e+00	0	38	0	181403648	59	5394
2026-01-22 00:46:43.55	0.38	16.64	-44.4	-47.2	16.9	0.00e+00	0	38	0	183500800	59	5274
2026-01-22 00:46:44.40	0.29	16.73	-44.4	-47.2	17.0	0.00e+00	0	38	0	185597952	59	5255
2026-01-22 00:46:45.54	0.17	16.84	-44.5	-47.4	16.8	0.00e+00	0	38	0	187695104	59	5371
2026-01-22 00:46:46.39	0.08	16.93	-44.4	-47.3	16.9	0.00e+00	0	38	0	188743680	59	5319
2026-01-22 00:46:47.53	359.95	17.04	-44.4	-47.3	17.0	0.00e+00	0	38	0	190840832	59	5288
2026-01-22 00:46:48.38	359.86	17.13	-44.5	-47.4	16.9	0.00e+00	0	38	0	192937984	59	5342
2026-01-22 00:46:49.52	359.73	17.24	-44.4	-47.3	17.0	0.00e+00	0	38	0	195035136	59	5287
2026-01-22 00:46:50.37	359.63	17.33	-44.4	-47.2	16.9	0.00e+00	0	38	0	197132288	59	5262
2026-01-22 00:46:51.51	359.51	17.45	-44.4	-47.3	17.0	0.00e+00	0	37	0	199229440	59	5283
2026-01-22 00:46:52.36	359.41	17.53	-44.4	-47.3	16.8	0.00e+00	0	37	0	200278016	59	5333
2026-01-22 00:46:53.50	359.28	17.65	-44.3	-47.2	17.0	0.00e+00	0	37	0	202375168	59	5252
2026-01-22 00:46:54.36	359.18	17.74	-44.2	-47.1	17.1	0.00e+00	0	37	0	204472320	59	5163
2026-01-22 00:46:55.49	359.05	17.86	-44.4	-47.3	16.9	0.00e+00	0	37	0	206569472	59	5291
2026-01-22 00:46:56.35	358.95	17.94	-44.4	-47.3	16.9	0.00e+00	0	38	0	207618048	59	5314
2026-01-22 00:46:57.61	358.80	18.07	-44.4	-47.4	16.9	0.00e+00	0	38	0	209715200	59	5345
2026-01-22 00:46:58.42	358.70	18.16	-44.3	-47.2	17.1	0.00e+00	0	38	0	211812352	59	5231
2026-01-22 00:46:59.56	358.57	18.28	-44.4	-47.4	16.9	0.00e+00	0	37	0	213909504	59	5348
2026-01-22 00:47:00.42	358.46	18.37	-44.4	-47.4	16.9	0.00e+00	0	38	0	214958080	59	5350
2026-01-22 00:47:01.55	358.33	18.49	-44.5	-47.5	16.7	0.00e+00	0	38	0	217055232	59	5450
2026-01-22 00:47:02.41	358.22	18.58	-44.5	-47.4	16.8	0.00e+00	0	38	0	219152384	59	5393
2026-01-22 00:47:03.55	358.08	18.70	-44.6	-47.6	16.8	0.00e+00	0	38	0	221249536	59	5465
2026-01-22 00:47:04.40	357.98	18.79	-44.4	-47.3	16.9	0.00e+00	0	38	0	223346688	59	5304
2026-01-22 00:47:05.54	357.83	18.91	-44.3	-47.1	17.2	0.00e+00	0	37	0	225443840	59	5172
2026-01-22 00:47:06.39	357.73	19.00	-44.3	-47.0	17.2	0.00e+00	0	38	0	226492416	59	5150
2026-01-22 00:47:07.52	357.58	19.12	-44.3	-47.0	17.2	0.00e+00	0	38	0	228589568	59	5153
2026-01-22 00:47:08.38	357.47	19.21	-44.4	-47.2	17.1	0.00e+00	0	38	0	230686720	59	5241
2026-01-22 00:47:09.52	357.33	19.34	-44.3	-47.0	17.2	0.00e+00	0	38	0	232783872	59	5122
2026-01-22 00:47:10.37	357.22	19.43	-44.4	-47.0	17.2	0.00e+00	0	38	0	233832448	59	5154
2026-01-22 00:47:11.51	357.07	19.55	-44.3	-47.0	17.2	0.00e+00	0	38	0	235929600	59	5131
2026-01-22 00:47:12.36	356.96	19.64	-44.3	-46.9	17.3	0.00e+00	0	38	0	238026752	59	5068
2026-01-22 00:47:13.50	356.81	19.77	-44.4	-47.1	17.2	0.00e+00	0	38	0	240123904	59	5171
2026-01-22 00:47:14.35	356.69	19.86	-44.2	-46.9	17.4	0.00e+00	0	38	0	241172480	59	5042
2026-01-22 00:47:15.61	356.52	20.00	-44.5	-47.2	17.1	0.00e+00	0	38	0	244318208	59	5230
2026-01-22 00:47:16.42	356.42	20.09	-44.7	-47.6	16.8	0.00e+00	0	38	0	245366784	60	5167
2026-01-22 00:47:17.55	356.26	20.21	-44.8	-47.7	16.6	0.00e+00	0	38	0	247463936	60	5241
2026-01-22 00:47:18.41	356.14	20.31	-44.7	-47.5	16.8	0.00e+00	0	38	0	249561088	60	5117
2026-01-22 00:47:19.54	355.99	20.43	-45.0	-47.9	16.5	0.00e+00	0	38	0	251658240	60	5374
2026-01-22 00:47:20.39	355.87	20.53	-44.8	-47.7	16.7	0.00e+00	0	38	0	252706816	60	5221
2026-01-22 00:47:21.53	355.71	20.65	-45.0	-47.9	16.5	0.00e+00	0	38	0	254803968	60	5355
2026-01-22 00:47:22.38	355.59	20.75	-44.9	-47.8	16.6	0.00e+00	0	38	0	256901120	60	5316
2026-01-22 00:47:23.52	355.43	20.88	-45.3	-48.3	16.1	0.00e+00	0	38	0	258998272	61	5326
2026-01-22 00:47:24.37	355.31	20.97	-45.3	-48.3	16.2	0.00e+00	0	38	0	260046848	61	5290
2026-01-22 00:47:25.51	355.14	21.10	-45.3	-48.4	16.0	0.00e+00	0	38	0	262144000	61	5375
2026-01-22 00:47:26.36	355.02	21.20	-45.2	-48.2	16.2	0.00e+00	0	38	0	264241152	61	5262
2026-01-22 00:47:27.50	354.85	21.33	-45.1	-48.1	16.5	0.00e+00	0	38	0	266338304	61	5164
2026-01-22 00:47:28.35	354.72	21.42	-44.8	-47.6	16.8	0.00e+00	0	38	0	267386880	61	4905
2026-01-22 00:47:29.49	354.55	21.55	-44.8	-47.7	16.7	0.00e+00	0	38	0	269484032	61	4939
2026-01-22 00:47:30.34	354.43	21.65	-44.5	-47.3	17.0	0.00e+00	0	38	0	271581184	61	4731
2026-01-22 00:47:31.48	354.26	21.78	-44.8	-47.8	16.7	0.00e+00	0	38	0	273678336	60	5307
2026-01-22 00:47:32.33	354.13	21.88	-44.6	-47.5	16.9	0.00e+00	0	38	0	275775488	60	5130
2026-01-22 00:47:33.47	353.95	22.01	-44.6	-47.6	16.8	0.00e+00	0	38	0	277872640	60	5169
2026-01-22 00:47:34.32	353.82	22.11	-44.7	-47.7	16.7	0.00e+00	0	38	0	278921216	60	5262
2026-01-22 00:47:35.60	353.62	22.25	-44.9	-48.0	16.3	0.00e+00	0	38	0	281018368	60	5444
2026-01-22 00:47:36.33	353.51	22.34	-44.9	-47.9	16.5	0.00e+00	0	38	0	283115520	60	5390
2026-01-22 00:47:37.61	353.30	22.49	-45.1	-48.2	16.2	0.00e+00	0	38	0	285212672	60	5584
2026-01-22 00:47:38.33	353.19	22.57	-45.0	-48.0	16.4	0.00e+00	0	38	0	286261248	61	5111
2026-01-22 00:47:39.61	352.98	22.72	-45.3	-48.3	16.1	0.00e+00	0	38	0	288358400	61	5340
2026-01-22 00:47:40.32	352.87	22.80	-45.3	-48.4	16.1	0.00e+00	0	37	0	290455552	61	5354
2026-01-22 00:47:41.60	352.66	22.95	-45.1	-48.2	16.2	0.00e+00	0	38	0	292552704	61	5240
2026-01-22 00:47:42.48	352.51	23.06	-45.0	-48.0	16.4	0.00e+00	0	38	0	294649856	61	5129
2026-01-22 00:47:43.62	352.33	23.19	-44.7	-47.7	16.7	0.00e+00	0	38	0	296747008	61	4932
2026-01-22 00:47:44.66	352.15	23.32	-44.6	-47.6	16.8	0.00e+00	0	38	0	298844160	61	4875
2026-01-22 00:47:45.83	351.95	23.45	-44.6	-47.7	16.8	0.00e+00	0	38	0	300941312	61	4945
2026-01-22 00:47:46.73	351.80	23.56	-44.6	-47.7	16.7	0.00e+00	0	38	0	301989888	60	5245
2026-01-22 00:47:47.77	351.62	23.68	-44.5	-47.6	16.8	0.00e+00	0	38	0	304087040	60	5185
2026-01-22 00:47:48.91	351.43	23.82	-44.6	-47.7	16.8	0.00e+00	0	38	0	306184192	60	5249
2026-01-22 00:47:49.79	351.27	23.93	-44.7	-47.9	16.6	0.00e+00	0	38	0	308281344	60	5387
2026-01-22 00:47:51.10	351.04	24.08	-44.8	-48.1	16.4	0.00e+00	0	38	0	310378496	60	5465
2026-01-22 00:47:51.81	350.92	24.17	-44.4	-47.4	17.0	0.00e+00	0	38	0	311427072	60	5084
2026-01-22 00:47:53.09	350.69	24.32	-44.9	-48.0	16.5	0.00e+00	0	38	0	314572800	60	5442
2026-01-22 00:47:53.82	350.56	24.41	-45.0	-48.1	16.4	0.00e+00	0	38	0	315621376	60	5500
2026-01-22 00:47:55.10	350.33	24.57	-45.0	-48.0	16.5	0.00e+00	0	38	0	317718528	60	5442
2026-01-22 00:47:55.82	350.20	24.65	-45.0	-47.9	16.6	0.00e+00	0	38	0	319815680	60	5366
2026-01-22 00:47:57.10	349.96	24.81	-44.1	-46.7	17.6	0.00e+00	0	38	0	321912832	60	4682
2026-01-22 00:47:57.91	349.81	24.91	-44.6	-47.3	17.0	0.00e+00	0	38	0	322961408	60	5037
2026-01-22 00:47:59.04	349.60	25.05	-44.2	-46.8	17.6	0.00e+00	0	38	0	325058560	60	4744
2026-01-22 00:47:59.90	349.44	25.15	-44.0	-46.5	17.8	0.00e+00	0	38	0	327155712	59	4848
2026-01-22 00:48:01.03	349.22	25.29	-44.1	-46.6	17.7	0.00e+00	0	38	0	329252864	59	4924
2026-01-22 00:48:01.88	349.06	25.39	-44.1	-46.7	17.6	0.00e+00	0	38	0	330301440	59	4965
2026-01-22 00:48:03.02	348.84	25.53	-44.2	-46.8	17.5	0.00e+00	0	38	0	332398592	59	5013
2026-01-22 00:48:03.88	348.67	25.64	-44.4	-47.0	17.3	0.00e+00	0	38	0	334495744	59	5159
2026-01-22 00:48:05.01	348.45	25.78	-44.3	-46.9	17.4	0.00e+00	0	38	0	336592896	59	5088
2026-01-22 00:48:05.86	348.28	25.88	-44.7	-47.6	16.9	0.00e+00	0	38	0	338690048	60	5173
2026-01-22 00:48:07.00	348.06	26.02	-44.9	-47.8	16.7	0.00e+00	0	38	0	339738624	60	5281
2026-01-22 00:48:07.85	347.89	26.13	-44.8	-47.5	16.9	0.00e+00	0	38	0	341835776	60	5158
2026-01-22 00:48:08.97	347.66	26.27	-45.3	-48.3	16.2	0.00e+00	0	38	0	343932928	61	5313
2026-01-22 00:48:09.82	347.49	26.37	-45.4	-48.5	16.0	0.00e+00	0	38	0	346030080	61	5408
2026-01-22 00:48:10.96	347.25	26.52	-45.5	-48.6	15.9	0.00e+00	0	38	0	348127232	61	5506
2026-01-22 00:48:11.82	347.08	26.62	-45.4	-48.6	15.9	0.00e+00	0	38	0	349175808	61	5480
2026-01-22 00:48:12.95	346.84	26.76	-45.1	-48.2	16.2	0.00e+00	0	38	0	351272960	61	5257
2026-01-22 00:48:13.81	346.66	26.87	-45.5	-48.9	15.7	0.00e+00	0	38	0	353370112	61	5661
2026-01-22 00:48:14.95	346.42	27.01	-45.3	-48.6	15.9	0.00e+00	0	38	0	355467264	61	5488
2026-01-22 00:48:15.80	346.24	27.12	-45.1	-48.4	16.2	0.00e+00	0	38	0	356515840	61	5350
2026-01-22 00:48:16.94	345.99	27.26	-45.6	-49.1	15.6	0.00e+00	0	38	0	358612992	61	5791
2026-01-22 00:48:17.79	345.81	27.37	-45.7	-49.1	15.5	0.00e+00	0	38	0	360710144	62	5488
2026-01-22 00:48:18.93	345.56	27.51	-45.9	-49.3	15.2	0.00e+00	0	38	0	362807296	62	5622
2026-01-22 00:48:19.78	345.37	27.62	-46.3	-49.8	14.8	0.00e+00	0	38	0	363855872	63	5605
2026-01-22 00:48:20.92	345.12	27.76	-46.4	-49.9	14.5	7.00e-07	0	38	0	365953024	63	5684
2026-01-22 00:48:21.77	344.93	27.87	-46.5	-50.2	14.4	0.00e+00	0	38	0	368050176	64	5549
2026-01-22 00:48:22.91	344.67	28.01	-46.6	-50.3	14.2	4.50e-06	0	38	0	370147328	64	5650
2026-01-22 00:48:23.77	344.47	28.12	-46.3	-50.0	14.6	7.00e-07	0	38	0	372244480	64	5428
2026-01-22 00:48:24.90	344.21	28.26	-46.3	-50.3	14.2	3.80e-06	0	38	0	374341632	64	5635
2026-01-22 00:48:25.76	344.01	28.37	-46.2	-50.1	14.3	1.50e-06	0	38	0	375390208	64	5520
2026-01-22 00:48:26.89	343.75	28.51	-46.2	-50.2	14.4	0.00e+00	0	38	0	377487360	63	5866
2026-01-22 00:48:27.75	343.55	28.62	-46.3	-50.4	14.3	1.50e-06	0	38	0	379584512	63	6036
2026-01-22 00:48:28.88	343.28	28.76	-46.5	-50.8	13.9	3.00e-06	0	38	0	381681664	63	6305
2026-01-22 00:48:29.74	343.08	28.87	-46.3	-50.5	14.2	7.00e-07	0	38	0	382730240	63	6074
2026-01-22 00:48:30.89	342.80	29.02	-46.6	-50.8	13.8	1.50e-06	0	38	0	384827392	63	6337
2026-01-22 00:48:31.75	342.59	29.13	-46.6	-50.5	14.1	3.00e-06	0	38	0	386924544	64	5772
2026-01-22 00:48:32.88	342.31	29.27	-46.6	-50.4	14.1	3.80e-06	0	38	0	389021696	64	5682
2026-01-22 00:48:33.73	342.10	29.38	-46.7	-50.5	14.1	1.50e-06	0	38	0	390070272	64	5754
2026-01-22 00:48:34.87	341.82	29.52	-46.2	-49.7	14.8	0.00e+00	0	38	0	392167424	64	5258
2026-01-22 00:48:35.73	341.61	29.63	-45.9	-49.3	15.3	0.00e+00	0	38	0	394264576	63	5318
2026-01-22 00:48:37.05	341.27	29.79	-45.5	-48.8	15.8	0.00e+00	0	38	0	396361728	62	5298
2026-01-22 00:48:37.77	341.09	29.88	-45.3	-48.5	16.0	0.00e+00	0	38	0	398458880	62	5126
2026-01-22 00:48:39.04	340.76	30.04	-45.0	-47.9	16.6	0.00e+00	0	38	0	400556032	61	5078
2026-01-22 00:48:39.77	340.58	30.14	-45.1	-48.1	16.4	0.00e+00	0	38	0	401604608	61	5188
2026-01-22 00:48:41.05	340.24	30.30	-45.0	-47.9	16.6	0.00e+00	0	38	0	403701760	61	5071
2026-01-22 00:48:41.76	340.06	30.39	-45.0	-48.0	16.5	0.00e+00	0	38	0	405798912	61	5119
2026-01-22 00:48:43.04	339.72	30.55	-45.3	-48.4	16.1	0.00e+00	0	38	0	407896064	61	5385
2026-01-22 00:48:43.77	339.52	30.64	-45.6	-49.1	15.5	0.00e+00	0	38	0	408944640	61	5792
2026-01-22 00:48:45.05	339.18	30.80	-46.1	-50.0	14.7	1.50e-06	0	38	0	412090368	62	6118
2026-01-22 00:48:45.95	338.93	30.91	-46.1	-50.0	14.6	0.00e+00	0	38	0	413138944	63	5772
2026-01-22 00:48:47.07	338.63	31.05	-46.3	-50.4	14.2	0.00e+00	0	38	0	415236096	63	6047
2026-01-22 00:48:47.92	338.39	31.15	-45.9	-49.8	14.8	0.00e+00	0	38	0	417333248	63	5614
2026-01-22 00:48:49.06	338.08	31.30	-45.9	-49.7	14.9	7.00e-07	0	38	0	419430400	63	5555
2026-01-22 00:48:49.91	337.84	31.40	-45.7	-49.3	15.3	0.00e+00	0	38	0	420478976	63	5315
2026-01-22 00:48:51.05	337.52	31.54	-45.6	-49.0	15.6	0.00e+00	0	38	0	422576128	62	5439
2026-01-22 00:48:52.25	337.18	31.69	-45.9	-49.2	15.4	0.00e+00	0	38	0	424673280	62	5557
2026-01-22 00:48:53.10	336.93	31.80	-46.0	-49.3	15.3	0.00e+00	0	38	0	426770432	62	5635
2026-01-22 00:48:54.57	336.51	31.98	-46.1	-49.5	15.1	0.00e+00	0	38	0	429916160	63	5413
2026-01-22 00:48:55.28	336.30	32.06	-46.1	-49.5	15.1	7.00e-07	0	38	0	430964736	63	5437
2026-01-22 00:48:56.56	335.92	32.22	-45.9	-49.1	15.5	0.00e+00	0	38	0	433061888	63	5207
2026-01-22 00:48:57.27	335.71	32.30	-45.5	-48.6	15.9	0.00e+00	0	38	0	434110464	63	4888
2026-01-22 00:48:58.55	335.33	32.46	-45.4	-48.4	16.0	0.00e+00	0	38	0	437256192	62	5093
2026-01-22 00:48:59.26	335.12	32.55	-45.3	-48.3	16.2	0.00e+00	0	38	0	438304768	62	5024
2026-01-22 00:49:00.55	334.73	32.70	-45.4	-48.6	16.0	0.00e+00	0	38	0	440401920	62	5177
2026-01-22 00:49:01.29	334.50	32.79	-45.6	-49.0	15.6	0.00e+00	0	38	0	442499072	62	5439
2026-01-22 00:49:02.57	334.11	32.94	-45.2	-48.6	15.9	0.00e+00	0	38	0	444596224	62	5186
2026-01-22 00:49:03.30	333.88	33.03	-45.3	-48.7	15.8	0.00e+00	0	38	0	445644800	62	5244
2026-01-22 00:49:04.58	333.48	33.18	-45.2	-48.6	15.9	0.00e+00	0	38	0	447741952	62	5174
2026-01-22 00:49:05.48	333.20	33.29	-45.4	-48.8	15.7	0.00e+00	0	38	0	449839104	62	5288
2026-01-22 00:49:06.51	332.87	33.41	-45.7	-49.1	15.6	0.00e+00	0	38	0	451936256	62	5473
2026-01-22 00:49:07.50	332.56	33.52	-45.9	-49.3	15.4	0.00e+00	0	38	0	454033408	62	5602
2026-01-22 00:49:08.50	332.23	33.64	-46.0	-49.4	15.1	0.00e+00	0	38	0	456130560	62	5722
2026-01-22 00:49:09.49	331.91	33.76	-46.2	-49.7	14.9	0.00e+00	0	38	0	457179136	63	5533
2026-01-22 00:49:10.48	331.59	33.87	-46.0	-49.4	15.2	0.00e+00	0	38	0	459276288	63	5343
2026-01-22 00:49:11.48	331.26	33.98	-46.0	-49.3	15.2	0.00e+00	0	38	0	461373440	63	5330
2026-01-22 00:49:12.47	330.93	34.10	-46.4	-50.0	14.7	0.00e+00	0	38	0	463470592	63	5738
2026-01-22 00:49:13.47	330.60	34.21	-46.7	-50.4	14.4	7.00e-07	0	38	0	464519168	63	5997
2026-01-22 00:49:14.46	330.27	34.32	-47.0	-51.1	13.4	5.30e-06	0	38	0	466616320	64	6147
2026-01-22 00:49:15.46	329.93	34.43	-47.5	-52.1	12.5	7.09e-05	0	38	0	468713472	65	6496
2026-01-22 00:49:16.45	329.60	34.54	-48.0	-53.2	11.4	4.26e-04	0	38	0	470810624	66	7021
2026-01-22 00:49:17.45	329.25	34.65	-48.0	-53.1	11.5	3.14e-03	0	38	0	472907776	67	6534
2026-01-22 00:49:18.45	328.91	34.76	-47.8	-52.9	11.8	6.43e-04	0	38	0	473956352	67	6372
2026-01-22 00:49:19.44	328.56	34.87	-47.6	-52.6	12.0	3.06e-04	0	38	0	476053504	67	6140
2026-01-22 00:49:20.44	328.22	34.98	-47.6	-52.4	12.1	5.96e-04	0	38	0	478150656	67	6056
2026-01-22 00:49:21.43	327.87	35.08	-47.7	-52.7	11.9	2.99e-04	0	38	0	480247808	67	6217
2026-01-22 00:49:22.43	327.51	35.19	-47.9	-53.2	11.4	5.30e-04	0	38	0	481296384	66	6977
2026-01-22 00:49:23.42	327.16	35.29	-47.6	-52.6	11.9	6.51e-04	0	38	0	483393536	66	6553
2026-01-22 00:49:24.42	326.80	35.40	-47.4	-52.1	12.5	2.28e-04	0	38	0	485490688	66	6155
2026-01-22 00:49:25.41	326.44	35.50	-47.1	-51.4	13.2	4.34e-05	0	38	0	487587840	65	6021
2026-01-22 00:49:26.41	326.08	35.60	-46.8	-50.8	13.8	2.74e-05	0	38	0	489684992	65	5614
2026-01-22 00:49:27.40	325.72	35.70	-46.4	-50.0	14.5	1.50e-06	0	38	0	490733568	64	5412
2026-01-22 00:49:28.39	325.35	35.80	-46.3	-49.9	14.5	0.00e+00	0	38	0	492830720	64	5396
2026-01-22 00:49:29.39	324.98	35.90	-46.1	-49.5	15.0	7.00e-07	0	38	0	494927872	64	5152
2026-01-22 00:49:30.39	324.61	36.00	-46.4	-50.1	14.4	7.00e-07	0	38	0	497025024	64	5501
2026-01-22 00:49:31.38	324.24	36.10	-46.2	-49.8	14.8	0.00e+00	0	38	0	498073600	64	5307
2026-01-22 00:49:32.46	323.83	36.20	-46.0	-49.5	15.1	0.00e+00	0	38	0	500170752	63	5439
2026-01-22 00:49:33.31	323.51	36.28	-46.3	-50.2	14.4	0.00e+00	0	38	0	502267904	63	5873
2026-01-22 00:49:34.45	323.08	36.39	-46.1	-49.9	14.6	0.00e+00	0	38	0	504365056	63	5714
2026-01-22 00:49:35.30	322.75	36.47	-46.2	-50.1	14.6	0.00e+00	0	38	0	505413632	63	5789
2026-01-22 00:49:36.44	322.31	36.57	-46.0	-49.8	14.8	0.00e+00	0	38	0	507510784	63	5619
2026-01-22 00:49:37.29	321.98	36.65	-45.9	-49.5	15.1	0.00e+00	0	38	0	509607936	63	5422
2026-01-22 00:49:38.43	321.54	36.75	-45.4	-48.8	15.9	0.00e+00	0	38	0	511705088	62	5291
2026-01-22 00:49:39.28	321.20	36.82	-45.5	-48.8	15.8	0.00e+00	0	38	0	513802240	62	5305
2026-01-22 00:49:40.42	320.75	36.92	-45.3	-48.4	16.2	0.00e+00	0	38	0	515899392	62	5057
2026-01-22 00:49:41.27	320.42	36.99	-45.4	-48.5	16.1	0.00e+00	0	38	0	516947968	62	5126
2026-01-22 00:49:42.41	319.96	37.09	-45.1	-48.0	16.5	0.00e+00	0	38	0	519045120	62	4857
2026-01-22 00:49:43.26	319.62	37.16	-45.2	-48.2	16.4	0.00e+00	0	38	0	521142272	61	5221
2026-01-22 00:49:44.40	319.16	37.25	-45.0	-47.9	16.7	0.00e+00	0	38	0	523239424	61	5045
2026-01-22 00:49:45.25	318.82	37.32	-45.1	-48.0	16.6	0.00e+00	0	38	0	524288000	61	5103
2026-01-22 00:49:46.39	318.36	37.41	-45.1	-48.0	16.6	0.00e+00	0	38	0	526385152	61	5109
2026-01-22 00:49:47.24	318.01	37.47	-45.1	-47.9	16.6	0.00e+00	0	38	0	528482304	61	5088
2026-01-22 00:49:48.38	317.54	37.56	-44.8	-47.5	17.0	0.00e+00	0	38	0	530579456	61	4850
2026-01-22 00:49:49.23	317.19	37.62	-44.8	-47.5	17.0	0.00e+00	0	38	0	531628032	61	4845
2026-01-22 00:49:50.57	316.64	37.72	-44.5	-47.2	17.3	0.00e+00	0	38	0	534773760	60	4928
2026-01-22 00:49:51.28	316.34	37.77	-44.3	-46.9	17.6	0.00e+00	0	38	0	535822336	60	4791
2026-01-22 00:49:52.56	315.81	37.86	-44.1	-46.7	17.7	0.00e+00	0	38	0	537919488	60	4687
2026-01-22 00:49:53.27	315.51	37.90	-44.0	-46.6	17.8	0.00e+00	0	38	0	540016640	60	4614
2026-01-22 00:49:54.82	314.86	38.01	-44.1	-46.7	17.7	0.00e+00	0	38	0	542113792	59	4936
2026-01-22 00:49:55.53	314.55	38.05	-44.6	-47.4	17.0	0.00e+00	0	38	0	544210944	59	5377
2026-01-22 00:49:56.81	314.01	38.13	-44.6	-47.3	17.2	0.00e+00	0	38	0	546308096	60	5041
2026-01-22 00:49:57.52	313.71	38.17	-44.2	-46.9	17.5	0.00e+00	0	38	0	547356672	60	4764
2026-01-22 00:49:58.80	313.16	38.25	-43.8	-46.4	18.0	0.00e+00	0	38	0	549453824	59	4762
2026-01-22 00:49:59.51	312.85	38.29	-44.1	-46.8	17.7	0.00e+00	0	38	0	551550976	59	5009
2026-01-22 00:50:00.79	312.30	38.36	-44.8	-47.8	16.7	0.00e+00	0	38	0	553648128	60	5298
2026-01-22 00:50:01.53	311.98	38.40	-45.2	-48.4	16.1	0.00e+00	0	38	0	554696704	61	5400
2026-01-22 00:50:02.82	311.42	38.46	-45.1	-48.2	16.3	0.00e+00	0	38	0	557842432	61	5231
2026-01-22 00:50:03.54	311.11	38.50	-44.5	-47.3	17.1	0.00e+00	0	38	0	558891008	61	4750
2026-01-22 00:50:04.82	310.55	38.56	-43.3	-45.6	18.7	0.00e+00	0	38	0	560988160	58	4631
2026-01-22 00:50:05.59	310.21	38.60	-42.5	-44.7	19.4	0.00e+00	0	38	0	563085312	57	4393
2026-01-22 00:50:06.87	309.65	38.65	-41.9	-43.9	19.9	0.00e+00	0	38	0	565182464	55	4533
2026-01-22 00:50:07.60	309.33	38.68	-42.0	-44.1	19.7	0.00e+00	0	38	0	566231040	55	4621
2026-01-22 00:50:09.21	308.62	38.75	-43.2	-45.6	18.7	0.00e+00	0	38	0	569376768	57	4885
2026-01-22 00:50:09.79	308.36	38.77	-43.3	-45.7	18.6	0.00e+00	0	38	0	570425344	57	4933
2026-01-22 00:50:11.35	307.67	38.82	-43.1	-45.3	18.9	0.00e+00	0	38	0	573571072	57	4757
2026-01-22 00:50:12.06	307.35	38.85	-43.1	-45.4	18.9	0.00e+00	0	38	0	574619648	57	4776
2026-01-22 00:50:13.37	306.76	38.89	-43.4	-45.8	18.5	0.00e+00	0	38	0	576716800	57	5002
2026-01-22 00:50:14.08	306.45	38.91	-43.6	-46.0	18.2	0.00e+00	0	38	0	578813952	57	5157
2026-01-22 00:50:15.36	305.87	38.95	-43.5	-45.9	18.4	0.00e+00	0	38	0	580911104	57	5092
2026-01-22 00:50:16.07	305.56	38.96	-43.4	-45.9	18.4	0.00e+00	0	38	0	581959680	58	4787
2026-01-22 00:50:17.44	304.94	39.00	-43.3	-45.7	18.5	0.00e+00	0	38	0	585105408	58	4674
2026-01-22 00:50:18.15	304.62	39.01	-43.2	-45.6	18.6	0.00e+00	0	38	0	586153984	58	4635
2026-01-22 00:50:19.43	304.04	39.04	-43.2	-45.5	18.6	0.00e+00	0	38	0	588251136	58	4593
2026-01-22 00:50:20.15	303.72	39.05	-43.4	-45.8	18.4	0.00e+00	0	38	0	590348288	58	4738
2026-01-22 00:50:21.43	303.14	39.07	-43.7	-46.2	18.1	0.00e+00	0	38	0	592445440	58	4979
2026-01-22 00:50:22.16	302.81	39.08	-44.0	-46.5	17.8	0.00e+00	0	38	0	593494016	58	5123
2026-01-22 00:50:23.44	302.23	39.09	-43.9	-46.4	17.9	0.00e+00	0	38	0	595591168	58	5062
2026-01-22 00:50:24.16	301.91	39.10	-43.7	-46.2	18.2	0.00e+00	0	38	0	597688320	58	4929
2026-01-22 00:50:25.44	301.33	39.11	-43.2	-45.5	18.8	0.00e+00	0	38	0	599785472	58	4547
2026-01-22 00:50:26.15	301.00	39.11	-43.1	-45.3	18.9	0.00e+00	0	38	0	600834048	58	4490
2026-01-22 00:50:27.72	300.29	39.12	-42.9	-45.1	19.0	0.00e+00	0	38	0	603979776	57	4647
2026-01-22 00:50:28.43	299.97	39.12	-43.2	-45.5	18.8	0.00e+00	0	38	0	605028352	57	4822
2026-01-22 00:50:29.71	299.39	39.12	-43.8	-46.2	18.2	0.00e+00	0	38	0	608174080	58	4937
2026-01-22 00:50:30.43	299.06	39.11	-44.2	-46.7	17.6	0.00e+00	0	38	0	609222656	59	4982
2026-01-22 00:50:31.71	298.48	39.11	-44.8	-47.6	16.9	0.00e+00	0	38	0	611319808	60	5181
2026-01-22 00:50:32.42	298.16	39.10	-44.8	-47.6	16.9	0.00e+00	0	38	0	613416960	60	5170
2026-01-22 00:50:33.70	297.58	39.09	-44.9	-47.7	16.8	0.00e+00	0	38	0	615514112	60	5251
2026-01-22 00:50:34.41	297.26	39.08	-45.2	-48.2	16.4	0.00e+00	0	38	0	616562688	60	5533
2026-01-22 00:50:35.69	296.68	39.07	-45.1	-48.0	16.5	0.00e+00	0	38	0	618659840	61	5158
2026-01-22 00:50:36.45	296.34	39.05	-44.9	-47.7	16.9	0.00e+00	0	38	0	620756992	61	4960
2026-01-22 00:50:37.73	295.76	39.03	-45.0	-47.9	16.7	0.00e+00	0	38	0	622854144	61	5051
2026-01-22 00:50:38.45	295.44	39.02	-44.9	-47.7	16.8	0.00e+00	0	38	0	623902720	61	4943
2026-01-22 00:50:39.73	294.86	38.99	-44.9	-47.7	16.8	0.00e+00	0	38	0	627048448	61	4967
2026-01-22 00:50:40.46	294.53	38.97	-45.2	-48.1	16.4	0.00e+00	0	38	0	628097024	61	5191
2026-01-22 00:50:41.74	293.96	38.94	-45.7	-48.7	15.9	0.00e+00	0	38	0	630194176	61	5583
2026-01-22 00:50:42.48	293.63	38.92	-45.6	-48.6	15.9	0.00e+00	0	38	0	632291328	62	5204
2026-01-22 00:50:43.76	293.05	38.88	-45.3	-48.3	16.3	0.00e+00	0	38	0	634388480	62	5002
2026-01-22 00:50:44.67	292.65	38.85	-45.2	-48.0	16.5	0.00e+00	0	38	0	635437056	62	4860
2026-01-22 00:50:45.98	292.06	38.81	-45.5	-48.6	16.0	0.00e+00	0	38	0	638582784	61	5474
2026-01-22 00:50:46.69	291.75	38.78	-45.8	-48.9	15.7	0.00e+00	0	38	0	639631360	62	5362
2026-01-22 00:50:47.97	291.18	38.73	-46.4	-49.8	14.8	0.00e+00	0	38	0	641728512	63	5621
2026-01-22 00:50:48.69	290.86	38.71	-46.1	-49.3	15.3	0.00e+00	0	38	0	643825664	63	5329
2026-01-22 00:50:49.97	290.30	38.65	-46.5	-49.9	14.7	7.00e-07	0	38	0	645922816	63	5706
2026-01-22 00:50:50.68	289.98	38.62	-46.5	-49.9	14.8	0.00e+00	0	38	0	646971392	63	5708
2026-01-22 00:50:51.96	289.42	38.56	-46.5	-50.1	14.5	1.50e-06	0	38	0	650117120	64	5478
2026-01-22 00:50:52.68	289.11	38.53	-46.7	-50.3	14.2	7.00e-07	0	38	0	651165696	64	5599
2026-01-22 00:50:53.99	288.54	38.47	-46.9	-50.6	13.9	4.50e-06	0	38	0	653262848	64	5826
2026-01-22 00:50:54.71	288.22	38.43	-46.6	-50.2	14.4	9.10e-06	0	38	0	654311424	65	5227
2026-01-22 00:50:56.05	287.64	38.36	-47.0	-50.7	13.8	3.00e-06	0	38	0	657457152	65	5591
2026-01-22 00:50:56.76	287.33	38.32	-46.7	-50.3	14.2	3.00e-06	0	38	0	658505728	65	5332
2026-01-22 00:50:58.04	286.78	38.25	-46.6	-50.1	14.4	7.00e-07	0	38	0	660602880	65	5205
2026-01-22 00:50:58.75	286.48	38.21	-46.6	-50.1	14.4	0.00e+00	0	38	0	662700032	64	5513
2026-01-22 00:51:00.03	285.93	38.13	-46.6	-50.2	14.3	7.00e-07	0	38	0	664797184	64	5571
2026-01-22 00:51:00.74	285.63	38.09	-46.4	-49.8	14.7	3.00e-06	0	38	0	665845760	64	5304
2026-01-22 00:51:02.22	285.00	37.99	-46.2	-49.4	15.2	0.00e+00	0	38	0	668991488	63	5399
2026-01-22 00:51:02.93	284.70	37.95	-46.4	-49.7	14.9	0.00e+00	0	38	0	670040064	63	5591
2026-01-22 00:51:04.21	284.16	37.86	-46.8	-50.5	14.1	4.50e-06	0	38	0	672137216	64	5727
2026-01-22 00:51:05.27	283.72	37.79	-47.3	-51.4	13.2	1.14e-05	0	38	0	674234368	65	6056
2026-01-22 00:51:06.13	283.36	37.73	-47.8	-52.5	11.7	2.59e-04	0	38	0	676331520	66	6484
2026-01-22 00:51:07.26	282.89	37.65	-48.5	-54.2	10.3	3.03e-03	0	38	0	678428672	67	7426
2026-01-22 00:51:08.12	282.53	37.58	-48.1	-53.3	11.3	3.27e-03	0	38	0	679477248	67	6679
2026-01-22 00:51:09.28	282.05	37.50	-47.0	-50.9	13.7	4.50e-05	0	38	0	681574400	66	5343
2026-01-22 00:51:10.14	281.70	37.43	-46.1	-49.5	15.1	1.50e-06	0	38	0	683671552	64	5109
2026-01-22 00:51:11.28	281.24	37.34	-45.3	-48.2	16.3	0.00e+00	0	38	0	685768704	62	4965
2026-01-22 00:51:12.13	280.89	37.28	-45.2	-48.0	16.5	0.00e+00	0	38	0	687865856	62	4844
2026-01-22 00:51:13.27	280.43	37.18	-44.6	-47.3	17.1	0.00e+00	0	38	0	689963008	61	4741
2026-01-22 00:51:14.12	280.09	37.11	-45.3	-48.2	16.2	0.00e+00	0	38	0	691011584	61	5257
2026-01-22 00:51:15.46	279.55	37.00	-45.8	-49.0	15.6	0.00e+00	0	38	0	694157312	62	5412
2026-01-22 00:51:16.17	279.27	36.94	-45.8	-48.9	15.7	0.00e+00	0	38	0	695205888	62	5376
2026-01-22 00:51:17.45	278.77	36.83	-44.7	-47.3	17.1	0.00e+00	0	38	0	697303040	61	4740
2026-01-22 00:51:18.16	278.49	36.77	-44.1	-46.6	17.8	0.00e+00	0	38	0	698351616	60	4599
2026-01-22 00:51:19.45	277.98	36.66	-43.3	-45.6	18.6	0.00e+00	0	38	0	701497344	58	4623
2026-01-22 00:51:20.16	277.71	36.59	-43.8	-46.2	18.1	0.00e+00	0	38	0	702545920	58	4933
2026-01-22 00:51:21.44	277.21	36.47	-43.9	-46.3	17.9	0.00e+00	0	38	0	704643072	58	5027
2026-01-22 00:51:22.15	276.94	36.41	-44.4	-47.0	17.4	0.00e+00	0	38	0	706740224	59	5132
2026-01-22 00:51:23.43	276.45	36.29	-44.3	-46.8	17.5	0.00e+00	0	38	0	708837376	59	5031
2026-01-22 00:51:24.14	276.18	36.22	-44.6	-47.3	17.1	0.00e+00	0	38	0	709885952	59	5331
2026-01-22 00:51:25.42	275.69	36.10	-44.7	-47.4	17.0	0.00e+00	0	38	0	711983104	60	5094
2026-01-22 00:51:26.13	275.43	36.03	-44.6	-47.4	17.0	0.00e+00	0	38	0	714080256	60	5071
2026-01-22 00:51:27.41	274.95	35.90	-44.8	-47.6	16.9	0.00e+00	0	38	0	716177408	60	5207
2026-01-22 00:51:28.12	274.68	35.83	-44.7	-47.5	16.9	0.00e+00	0	38	0	717225984	60	5154
2026-01-22 00:51:29.40	274.21	35.70	-44.5	-47.2	17.3	0.00e+00	0	38	0	719323136	60	4956
2026-01-22 00:51:30.11	273.95	35.63	-44.5	-47.2	17.2	0.00e+00	0	38	0	721420288	60	4952
2026-01-22 00:51:31.39	273.48	35.50	-44.9	-47.7	16.8	0.00e+00	0	38	0	723517440	60	5261
2026-01-22 00:51:32.12	273.22	35.42	-45.5	-48.6	15.9	0.00e+00	0	38	0	724566016	61	5525
2026-01-22 00:51:33.39	272.76	35.29	-46.0	-49.3	15.4	0.00e+00	0	38	0	727711744	63	5285
2026-01-22 00:51:34.10	272.51	35.22	-46.1	-49.4	15.2	0.00e+00	0	38	0	728760320	63	5359
2026-01-22 00:51:35.38	272.05	35.08	-45.8	-49.0	15.5	0.00e+00	0	38	0	730857472	63	5135
2026-01-22 00:51:36.10	271.80	35.00	-45.8	-48.9	15.6	0.00e+00	0	38	0	731906048	62	5390
2026-01-22 00:51:37.71	271.24	34.83	-45.8	-49.0	15.6	0.00e+00	0	38	0	735051776	62	5408
2026-01-22 00:51:38.28	271.04	34.77	-45.8	-48.9	15.6	0.00e+00	0	38	0	736100352	62	5384
2026-01-22 00:51:39.98	270.45	34.58	-45.0	-47.8	16.7	0.00e+00	0	38	0	739246080	61	5041
2026-01-22 00:51:40.55	270.25	34.52	-44.7	-47.4	17.0	0.00e+00	0	38	0	740294656	61	4787
2026-01-22 00:51:42.26	269.67	34.33	-44.6	-47.3	17.1	0.00e+00	0	38	0	743440384	61	4726
2026-01-22 00:51:42.83	269.48	34.26	-44.4	-47.0	17.4	0.00e+00	0	38	0	744488960	60	4833
2026-01-22 00:51:44.53	268.91	34.07	-44.5	-47.2	17.3	0.00e+00	0	38	0	747634688	60	4938
2026-01-22 00:51:45.10	268.72	34.00	-45.0	-47.8	16.7	0.00e+00	0	38	0	749731840	60	5322
2026-01-22 00:51:46.80	268.16	33.81	-45.1	-48.0	16.4	0.00e+00	0	38	0	752877568	61	5123
2026-01-22 00:51:47.37	267.98	33.74	-44.9	-47.6	16.8	0.00e+00	0	38	0	753926144	61	4892
2026-01-22 00:51:49.08	267.42	33.54	-44.5	-47.1	17.3	0.00e+00	0	38	0	757071872	60	4871
2026-01-22 00:51:49.65	267.24	33.48	-44.5	-47.1	17.3	0.00e+00	0	38	0	758120448	60	4882
2026-01-22 00:51:51.56	266.63	33.25	-45.0	-47.8	16.9	0.00e+00	0	38	0	761266176	61	5015
2026-01-22 00:51:52.13	266.45	33.18	-45.0	-47.8	16.7	0.00e+00	0	38	0	762314752	61	4994
2026-01-22 00:51:54.13	265.83	32.95	-45.4	-48.3	16.2	0.00e+00	0	38	0	766509056	61	5318
2026-01-22 00:51:55.05	265.54	32.84	-45.4	-48.4	16.1	0.00e+00	0	38	0	767557632	61	5370
2026-01-22 00:51:56.04	265.24	32.72	-45.2	-48.1	16.4	0.00e+00	0	38	0	769654784	62	4890
2026-01-22 00:51:57.03	264.94	32.60	-45.3	-48.3	16.2	0.00e+00	0	38	0	771751936	61	5312
2026-01-22 00:51:58.03	264.63	32.48	-45.3	-48.2	16.3	0.00e+00	0	38	0	773849088	61	5235
2026-01-22 00:51:59.02	264.34	32.36	-45.7	-48.8	15.7	0.00e+00	0	38	0	774897664	61	5632
2026-01-22 00:52:00.02	264.04	32.23	-46.0	-49.2	15.3	0.00e+00	0	38	0	776994816	62	5591
2026-01-22 00:52:01.01	263.75	32.11	-46.3	-49.8	14.6	0.00e+00	0	38	0	779091968	63	5619
2026-01-22 00:52:02.01	263.45	31.99	-46.1	-49.4	15.2	7.00e-07	0	38	0	781189120	63	5391
2026-01-22 00:52:03.00	263.16	31.87	-46.2	-49.7	14.9	0.00e+00	0	38	0	783286272	63	5568
2026-01-22 00:52:04.00	262.87	31.75	-46.4	-50.0	14.6	0.00e+00	0	38	0	784334848	63	5728
2026-01-22 00:52:04.99	262.59	31.62	-46.9	-50.9	13.7	1.50e-06	0	38	0	786432000	64	6061
2026-01-22 00:52:05.98	262.31	31.50	-47.4	-51.7	12.8	2.36e-05	0	38	0	788529152	65	6250
2026-01-22 00:52:06.98	262.02	31.38	-47.0	-51.0	13.5	1.14e-05	0	38	0	790626304	65	5753
2026-01-22 00:52:07.97	261.75	31.25	-46.7	-50.5	13.9	9.90e-06	0	38	0	791674880	65	5429
2026-01-22 00:52:08.97	261.47	31.13	-46.4	-50.0	14.5	0.00e+00	0	38	0	793772032	64	5423
2026-01-22 00:52:09.96	261.20	31.01	-46.4	-49.9	14.6	0.00e+00	0	38	0	795869184	64	5395
2026-01-22 00:52:10.97	260.92	30.88	-46.4	-50.0	14.4	0.00e+00	0	38	0	797966336	64	5456
2026-01-22 00:52:11.97	260.65	30.75	-46.5	-50.1	14.4	1.50e-06	0	38	0	800063488	64	5490
2026-01-22 00:52:12.96	260.38	30.63	-46.2	-49.6	14.9	7.00e-07	0	38	0	801112064	64	5181
2026-01-22 00:52:13.96	260.11	30.50	-45.7	-48.8	15.8	0.00e+00	0	38	0	803209216	63	4995
2026-01-22 00:52:14.96	259.85	30.38	-45.2	-48.0	16.4	0.00e+00	0	38	0	805306368	62	4866
2026-01-22 00:52:15.95	259.58	30.25	-44.9	-47.7	16.8	0.00e+00	0	38	0	807403520	61	4933
2026-01-22 00:52:16.94	259.33	30.13	-44.6	-47.3	17.1	0.00e+00	0	38	0	809500672	61	4730
2026-01-22 00:52:17.94	259.07	30.00	-44.4	-47.1	17.3	0.00e+00	0	38	0	810549248	60	4886
2026-01-22 00:52:18.93	258.81	29.88	-44.1	-46.6	17.7	0.00e+00	0	38	0	812646400	60	4628
2026-01-22 00:52:19.93	258.56	29.75	-43.9	-46.3	17.9	0.00e+00	0	38	0	814743552	59	4737
2026-01-22 00:52:20.92	258.30	29.63	-43.7	-46.2	18.1	0.00e+00	0	38	0	816840704	59	4655
2026-01-22 00:52:21.92	258.05	29.50	-43.9	-46.3	17.9	0.00e+00	0	38	0	817889280	59	4755
2026-01-22 00:52:22.91	257.81	29.37	-44.2	-46.8	17.5	0.00e+00	0	38	0	819986432	59	5032
2026-01-22 00:52:23.91	257.56	29.25	-44.7	-47.5	16.9	0.00e+00	0	38	0	822083584	60	5152
2026-01-22 00:52:24.91	257.31	29.12	-45.1	-48.0	16.4	0.00e+00	0	38	0	824180736	60	5451
2026-01-22 00:52:25.90	257.07	29.00	-45.4	-48.5	16.0	0.00e+00	0	38	0	826277888	61	5414
2026-01-22 00:52:26.89	256.83	28.87	-45.6	-48.7	15.8	0.00e+00	0	38	0	827326464	62	5225
2026-01-22 00:52:27.97	256.57	28.73	-45.7	-48.8	15.6	0.00e+00	0	38	0	829423616	62	5339
2026-01-22 00:52:28.82	256.37	28.63	-45.6	-48.7	15.9	0.00e+00	0	38	0	831520768	62	5250
2026-01-22 00:52:29.96	256.10	28.48	-45.3	-48.3	16.2	0.00e+00	0	38	0	833617920	62	5017
2026-01-22 00:52:30.81	255.90	28.37	-45.0	-47.8	16.6	0.00e+00	0	38	0	834666496	61	5018
2026-01-22 00:52:31.95	255.64	28.23	-44.7	-47.4	17.0	0.00e+00	0	38	0	836763648	61	4791
2026-01-22 00:52:32.80	255.44	28.12	-44.8	-47.6	16.7	0.00e+00	0	38	0	838860800	61	4919
2026-01-22 00:52:33.94	255.18	27.98	-44.9	-47.7	16.7	0.00e+00	0	38	0	840957952	61	4933
2026-01-22 00:52:34.79	254.99	27.87	-45.0	-47.9	16.5	0.00e+00	0	38	0	842006528	61	5077
2026-01-22 00:52:35.92	254.73	27.73	-44.8	-47.6	16.8	0.00e+00	0	38	0	844103680	61	4900
2026-01-22 00:52:36.78	254.54	27.62	-44.7	-47.4	17.0	0.00e+00	0	38	0	846200832	61	4800
2026-01-22 00:52:37.91	254.29	27.48	-44.2	-46.8	17.5	0.00e+00	0	38	0	848297984	60	4731
2026-01-22 00:52:38.77	254.10	27.37	-43.8	-46.3	17.9	0.00e+00	0	38	0	849346560	59	4746
2026-01-22 00:52:39.90	253.85	27.23	-43.9	-46.4	17.8	0.00e+00	0	38	0	852492288	59	4813
2026-01-22 00:52:40.76	253.67	27.12	-43.8	-46.3	17.9	0.00e+00	0	38	0	853540864	59	4733
2026-01-22 00:52:42.00	253.40	26.96	-43.9	-46.4	17.9	0.00e+00	0	38	0	855638016	59	4774
2026-01-22 00:52:42.86	253.22	26.86	-43.6	-46.0	18.2	0.00e+00	0	38	0	857735168	59	4580
2026-01-22 00:52:43.99	252.98	26.71	-44.0	-46.5	17.8	0.00e+00	0	38	0	859832320	59	4827
2026-01-22 00:52:44.85	252.80	26.61	-43.9	-46.4	18.0	0.00e+00	0	38	0	860880896	59	4771
2026-01-22 00:52:45.99	252.56	26.46	-44.0	-46.5	17.7	0.00e+00	0	38	0	862978048	59	4861
2026-01-22 00:52:46.84	252.39	26.36	-44.3	-46.9	17.5	0.00e+00	0	38	0	865075200	59	5053
2026-01-22 00:52:48.18	252.11	26.19	-44.8	-47.7	16.7	0.00e+00	0	38	0	867172352	60	5246
2026-01-22 00:52:48.89	251.97	26.10	-44.9	-47.7	16.7	0.00e+00	0	38	0	869269504	60	5259
2026-01-22 00:52:50.17	251.71	25.94	-44.7	-47.5	16.9	0.00e+00	0	38	0	871366656	60	5144
2026-01-22 00:52:50.90	251.57	25.85	-44.8	-47.7	16.7	0.00e+00	0	38	0	872415232	60	5246
2026-01-22 00:52:52.18	251.31	25.69	-45.0	-47.9	16.6	0.00e+00	0	38	0	874512384	60	5353
2026-01-22 00:52:52.94	251.16	25.60	-44.6	-47.4	17.0	0.00e+00	0	38	0	876609536	60	5064
2026-01-22 00:52:54.22	250.91	25.44	-44.7	-47.5	16.9	0.00e+00	0	38	0	878706688	60	5131
2026-01-22 00:52:54.93	250.78	25.35	-44.6	-47.4	17.0	0.00e+00	0	38	0	879755264	60	5044
2026-01-22 00:52:56.22	250.53	25.20	-44.3	-46.9	17.4	0.00e+00	0	38	0	882900992	60	4805
2026-01-22 00:52:56.93	250.39	25.11	-44.5	-47.2	17.2	0.00e+00	0	38	0	883949568	60	4935
2026-01-22 00:52:58.21	250.15	24.95	-44.4	-47.2	17.3	0.00e+00	0	38	0	886046720	60	4935
2026-01-22 00:52:58.92	250.02	24.86	-44.1	-46.8	17.5	0.00e+00	0	38	0	888143872	60	4712
2026-01-22 00:53:00.23	249.77	24.70	-44.0	-46.6	17.6	0.00e+00	0	38	0	890241024	60	4629
2026-01-22 00:53:00.94	249.64	24.62	-44.1	-46.7	17.5	0.00e+00	0	38	0	891289600	59	4976
2026-01-22 00:53:02.22	249.41	24.46	-44.0	-46.5	17.8	0.00e+00	0	38	0	893386752	59	4830
2026-01-22 00:53:02.93	249.28	24.38	-44.1	-46.6	17.6	0.00e+00	0	38	0	895483904	59	4909
2026-01-22 00:53:04.21	249.05	24.22	-44.2	-46.9	17.4	0.00e+00	0	38	0	897581056	59	5044
2026-01-22 00:53:04.94	248.92	24.13	-44.2	-46.8	17.5	0.00e+00	0	38	0	898629632	59	5010
2026-01-22 00:53:06.21	248.69	23.98	-44.1	-46.7	17.4	0.00e+00	0	38	0	901775360	59	4940
2026-01-22 00:53:06.92	248.57	23.89	-44.2	-46.8	17.5	0.00e+00	0	38	0	902823936	59	5016
2026-01-22 00:53:08.20	248.34	23.74	-44.5	-47.1	17.1	0.00e+00	0	38	0	904921088	59	5208
2026-01-22 00:53:08.94	248.22	23.65	-44.2	-46.7	17.5	0.00e+00	0	38	0	905969664	59	4968
2026-01-22 00:53:10.22	248.00	23.50	-44.3	-46.8	17.4	0.00e+00	0	38	0	909115392	59	5033
2026-01-22 00:53:10.93	247.87	23.41	-44.3	-46.9	17.4	0.00e+00	0	38	0	910163968	59	5081
2026-01-22 00:53:12.23	247.65	23.26	-44.6	-47.3	17.1	0.00e+00	0	38	0	912261120	60	5015
2026-01-22 00:53:12.94	247.53	23.17	-44.5	-47.2	17.1	0.00e+00	0	38	0	914358272	60	4960
2026-01-22 00:53:14.21	247.32	23.02	-44.8	-47.6	16.8	0.00e+00	0	38	0	916455424	60	5212
2026-01-22 00:53:14.92	247.20	22.94	-45.0	-47.9	16.4	0.00e+00	0	38	0	917504000	60	5391
2026-01-22 00:53:16.21	246.99	22.79	-44.9	-47.8	16.7	0.00e+00	0	38	0	919601152	60	5299
2026-01-22 00:53:16.92	246.88	22.70	-45.1	-48.0	16.4	0.00e+00	0	38	0	921698304	60	5445
2026-01-22 00:53:18.26	246.66	22.55	-45.2	-48.2	16.1	0.00e+00	0	38	0	923795456	61	5259
2026-01-22 00:53:19.25	246.50	22.43	-45.4	-48.4	15.9	0.00e+00	0	38	0	925892608	61	5396
2026-01-22 00:53:20.55	246.29	22.28	-45.4	-48.4	15.9	0.00e+00	0	38	0	927989760	61	5395
2026-01-22 00:53:21.26	246.18	22.20	-45.6	-48.8	15.7	0.00e+00	0	38	0	929038336	61	5611
2026-01-22 00:53:22.54	245.98	22.05	-45.4	-48.5	16.0	0.00e+00	0	38	0	932184064	61	5407
2026-01-22 00:53:23.26	245.87	21.96	-45.3	-48.3	16.0	0.00e+00	0	38	0	933232640	61	5327
2026-01-22 00:53:24.55	245.67	21.82	-44.7	-47.4	16.9	0.00e+00	0	38	0	935329792	61	4811
2026-01-22 00:53:25.26	245.56	21.73	-44.7	-47.5	16.9	0.00e+00	0	38	0	937426944	60	5103
2026-01-22 00:53:26.54	245.37	21.59	-44.0	-46.6	17.7	0.00e+00	0	38	0	939524096	60	4615
2026-01-22 00:53:27.26	245.26	21.50	-43.7	-46.2	18.0	0.00e+00	0	38	0	940572672	59	4683
2026-01-22 00:53:28.54	245.07	21.36	-43.7	-46.2	18.0	0.00e+00	0	38	0	942669824	59	4679
2026-01-22 00:53:29.27	244.96	21.27	-43.9	-46.4	17.8	0.00e+00	0	38	0	944766976	59	4790
2026-01-22 00:53:30.55	244.77	21.13	-44.2	-46.7	17.5	0.00e+00	0	38	0	946864128	59	4968
2026-01-22 00:53:31.26	244.67	21.05	-44.3	-46.9	17.4	0.00e+00	0	38	0	947912704	59	5064
2026-01-22 00:53:32.64	244.47	20.89	-44.7	-47.4	16.9	0.00e+00	0	38	0	951058432	60	5067
2026-01-22 00:53:33.35	244.36	20.81	-44.4	-47.1	17.2	0.00e+00	0	38	0	952107008	60	4876
2026-01-22 00:53:34.71	244.17	20.66	-44.6	-47.3	17.0	0.00e+00	0	38	0	955252736	60	4996
2026-01-22 00:53:35.42	244.07	20.58	-44.3	-46.9	17.3	0.00e+00	0	38	0	956301312	60	4778
2026-01-22 00:53:36.70	243.89	20.44	-43.7	-46.1	18.0	0.00e+00	0	38	0	958398464	59	4651
2026-01-22 00:53:37.41	243.79	20.36	-43.8	-46.3	17.9	0.00e+00	0	38	0	959447040	59	4711
2026-01-22 00:53:38.69	243.61	20.22	-43.4	-45.8	18.3	0.00e+00	0	38	0	962592768	58	4717
2026-01-22 00:53:39.40	243.51	20.14	-43.4	-45.7	18.3	0.00e+00	0	38	0	963641344	58	4695
2026-01-22 00:53:40.68	243.34	20.00	-43.4	-45.8	18.3	0.00e+00	0	38	0	965738496	58	4725
2026-01-22 00:53:41.39	243.24	19.92	-43.7	-46.2	18.0	0.00e+00	0	38	0	966787072	58	4930
2026-01-22 00:53:42.67	243.07	19.78	-43.8	-46.3	17.9	0.00e+00	0	38	0	969932800	58	4998
2026-01-22 00:53:43.39	242.97	19.70	-44.1	-46.6	17.6	0.00e+00	0	38	0	970981376	58	5196
2026-01-22 00:53:44.67	242.80	19.56	-44.7	-47.4	16.8	0.00e+00	0	38	0	973078528	60	5100
2026-01-22 00:53:45.40	242.71	19.48	-44.9	-47.7	16.6	0.00e+00	0	38	0	975175680	60	5277
2026-01-22 00:53:46.68	242.54	19.34	-45.8	-49.0	15.4	0.00e+00	0	38	0	977272832	62	5419
2026-01-22 00:53:47.51	242.43	19.25	-46.0	-49.4	15.1	7.00e-07	0	38	0	978321408	62	5665
2026-01-22 00:53:48.65	242.28	19.13	-46.4	-50.0	14.5	7.00e-07	0	38	0	980418560	63	5731
2026-01-22 00:53:49.50	242.17	19.04	-46.5	-50.1	14.3	0.00e+00	0	38	0	982515712	63	5838
2026-01-22 00:53:50.64	242.03	18.91	-46.7	-50.6	13.8	7.60e-06	0	38	0	984612864	64	5799
2026-01-22 00:53:51.49	241.92	18.82	-46.8	-50.7	13.7	3.80e-06	0	38	0	985661440	64	5867
2026-01-22 00:53:52.63	241.78	18.70	-46.5	-50.2	14.1	3.00e-06	0	38	0	988807168	64	5558
2026-01-22 00:53:53.80	241.63	18.58	-46.1	-49.5	14.8	7.00e-07	0	38	0	990904320	64	5119
2026-01-22 00:53:54.83	241.51	18.47	-45.8	-49.1	15.3	0.00e+00	0	38	0	991952896	63	5184
2026-01-22 00:53:55.98	241.37	18.35	-45.5	-48.6	15.7	0.00e+00	0	38	0	995098624	63	4911
2026-01-22 00:53:56.83	241.26	18.26	-45.4	-48.4	15.9	0.00e+00	0	38	0	996147200	62	5046
2026-01-22 00:53:57.97	241.12	18.14	-45.1	-48.0	16.3	0.00e+00	0	38	0	998244352	62	4839
2026-01-22 00:53:58.83	241.02	18.05	-44.9	-47.8	16.4	0.00e+00	0	38	0	1000341504	61	5023
2026-01-22 00:53:59.97	240.89	17.93	-44.9	-47.8	16.5	0.00e+00	0	38	0	1002438656	61	4992
2026-01-22 00:54:00.82	240.78	17.84	-44.8	-47.7	16.6	0.00e+00	0	38	0	1003487232	61	4932
2026-01-22 00:54:01.96	240.65	17.72	-45.1	-48.1	16.2	0.00e+00	0	38	0	1005584384	61	5177
2026-01-22 00:54:02.81	240.55	17.63	-45.2	-48.3	16.0	0.00e+00	0	38	0	1007681536	61	5285
2026-01-22 00:54:03.95	240.42	17.51	-45.7	-48.9	15.4	0.00e+00	0	38	0	1009778688	61	5693
2026-01-22 00:54:04.80	240.32	17.43	-45.9	-49.3	15.1	0.00e+00	0	38	0	1010827264	62	5616
2026-01-22 00:54:05.97	240.19	17.31	-46.0	-49.3	15.0	0.00e+00	0	38	0	1012924416	62	5641
2026-01-22 00:54:06.83	240.09	17.22	-46.0	-49.3	15.0	0.00e+00	0	38	0	1015021568	62	5644
2026-01-22 00:54:07.96	239.96	17.10	-45.6	-48.8	15.5	0.00e+00	0	38	0	1017118720	62	5304
2026-01-22 00:54:08.81	239.87	17.02	-45.3	-48.3	16.0	0.00e+00	0	38	0	1019215872	62	5005
2026-01-22 00:54:09.95	239.74	16.90	-44.6	-47.4	16.8	0.00e+00	0	38	0	1021313024	61	4777
2026-01-22 00:54:10.81	239.65	16.82	-44.7	-47.4	16.8	0.00e+00	0	38	0	1022361600	61	4802
2026-01-22 00:54:11.94	239.52	16.70	-44.2	-46.9	17.3	0.00e+00	0	38	0	1024458752	60	4774
2026-01-22 00:54:12.79	239.43	16.62	-44.2	-46.9	17.3	0.00e+00	0	38	0	1026555904	60	4781
2026-01-22 00:54:13.93	239.31	16.50	-44.3	-47.0	17.2	0.00e+00	0	38	0	1028653056	60	4863
2026-01-22 00:54:14.78	239.21	16.42	-44.4	-47.2	17.0	0.00e+00	0	38	0	1029701632	60	4943
2026-01-22 00:54:15.92	239.09	16.30	-44.4	-47.2	17.0	0.00e+00	0	38	0	1031798784	60	4946
2026-01-22 00:54:16.77	239.00	16.22	-44.6	-47.4	16.8	0.00e+00	0	38	0	1033895936	60	5077
2026-01-22 00:54:17.91	238.88	16.11	-44.9	-47.8	16.4	0.00e+00	0	38	0	1035993088	60	5282
2026-01-22 00:54:18.76	238.79	16.02	-44.9	-47.8	16.4	0.00e+00	0	38	0	1037041664	60	5336
2026-01-22 00:54:19.90	238.68	15.91	-45.1	-48.1	16.1	0.00e+00	0	38	0	1039138816	60	5511
2026-01-22 00:54:20.75	238.59	15.83	-45.1	-48.1	16.2	0.00e+00	0	38	0	1041235968	61	5170
2026-01-22 00:54:22.00	238.46	15.71	-45.2	-48.2	16.0	0.00e+00	0	38	0	1043333120	61	5259
2026-01-22 00:54:22.86	238.37	15.62	-45.2	-48.2	16.0	0.00e+00	0	38	0	1045430272	61	5276
2026-01-22 00:54:23.99	238.26	15.51	-45.1	-48.1	16.1	0.00e+00	0	38	0	1047527424	61	5206
2026-01-22 00:54:24.84	238.17	15.43	-45.2	-48.2	16.0	0.00e+00	0	38	0	1048576000	61	5265
2026-01-22 00:54:26.09	238.05	15.31	-45.2	-48.2	16.0	0.00e+00	0	38	0	1050673152	61	5253
2026-01-22 00:54:26.95	237.96	15.23	-45.5	-48.6	15.6	0.00e+00	0	38	0	1052770304	61	5486
2026-01-22 00:54:28.08	237.85	15.12	-45.4	-48.5	15.7	0.00e+00	0	38	0	1054867456	61	5438
2026-01-22 00:54:29.41	237.72	14.99	-45.6	-48.7	15.5	0.00e+00	0	38	0	1056964608	61	5583
2026-01-22 00:54:30.12	237.65	14.92	-45.5	-48.6	15.7	0.00e+00	0	38	0	1059061760	61	5495
2026-01-22 00:54:31.40	237.53	14.80	-45.3	-48.3	15.9	0.00e+00	0	38	0	1061158912	61	5324
2026-01-22 00:54:32.11	237.46	14.74	-45.3	-48.3	15.9	0.00e+00	0	38	0	1062207488	61	5313
2026-01-22 00:54:33.47	237.33	14.61	-45.0	-48.0	16.2	0.00e+00	0	38	0	1065353216	61	5105
2026-01-22 00:54:34.18	237.26	14.54	-44.8	-47.6	16.5	0.00e+00	0	38	0	1066401792	61	4889
2026-01-22 00:54:35.46	237.14	14.42	-44.8	-47.6	16.6	0.00e+00	0	38	0	1068498944	61	4893
2026-01-22 00:54:36.19	237.08	14.35	-44.8	-47.6	16.6	0.00e+00	0	38	0	1069547520	61	4894
2026-01-22 00:54:37.46	236.96	14.23	-44.6	-47.3	16.8	0.00e+00	0	38	0	1072693248	61	4751
2026-01-22 00:54:38.19	236.89	14.17	-44.6	-47.4	16.5	0.00e+00	0	38	0	1073741824	61	4802
2026-01-22 00:54:39.47	236.77	14.05	-44.7	-47.5	16.7	0.00e+00	0	38	0	1075838976	61	4818
2026-01-22 00:54:40.18	236.71	13.98	-44.7	-47.5	16.6	0.00e+00	0	38	0	1077936128	61	4848
2026-01-22 00:54:41.65	236.58	13.85	-45.2	-48.2	16.0	0.00e+00	0	38	0	1080033280	61	5239
2026-01-22 00:54:42.37	236.51	13.78	-45.2	-48.3	15.9	0.00e+00	0	38	0	1081081856	61	5299
2026-01-22 00:54:43.65	236.40	13.66	-45.6	-48.8	15.4	0.00e+00	0	38	0	1084227584	61	5625
2026-01-22 00:54:44.39	236.33	13.60	-45.8	-49.1	15.2	0.00e+00	0	38	0	1085276160	62	5494
2026-01-22 00:54:45.66	236.22	13.48	-46.3	-49.9	14.4	7.00e-07	0	38	0	1087373312	63	5698
2026-01-22 00:54:46.38	236.16	13.42	-46.2	-49.9	14.4	0.00e+00	0	38	0	1089470464	63	5683
2026-01-22 00:54:47.65	236.05	13.30	-46.4	-50.2	14.1	3.80e-06	0	38	0	1091567616	63	5870
2026-01-22 00:54:48.36	235.99	13.24	-46.6	-50.5	13.7	3.00e-06	0	38	0	1092616192	63	6086
2026-01-22 00:54:49.64	235.88	13.12	-46.4	-50.2	14.0	3.00e-06	0	38	0	1094713344	63	5903
2026-01-22 00:54:50.45	235.81	13.05	-46.6	-50.5	13.8	3.80e-06	0	38	0	1096810496	63	6095
2026-01-22 00:54:51.58	235.71	12.95	-46.4	-50.1	14.2	7.00e-07	0	38	0	1098907648	63	5844
2026-01-22 00:54:52.63	235.62	12.86	-46.2	-49.8	14.4	0.00e+00	0	38	0	1101004800	63	5634
2026-01-22 00:54:53.57	235.55	12.77	-46.2	-49.8	14.4	0.00e+00	0	38	0	1103101952	63	5639
2026-01-22 00:54:54.57	235.46	12.68	-45.9	-49.3	14.8	7.00e-07	0	38	0	1104150528	63	5336
2026-01-22 00:54:55.56	235.38	12.60	-45.6	-48.9	15.2	0.00e+00	0	38	0	1106247680	63	5068
2026-01-22 00:54:56.56	235.30	12.51	-45.5	-48.8	15.3	7.00e-07	0	38	0	1108344832	63	5027
2026-01-22 00:54:57.55	235.22	12.42	-45.4	-48.7	15.5	0.00e+00	0	38	0	1110441984	62	5222
2026-01-22 00:54:58.55	235.14	12.33	-45.3	-48.5	15.7	0.00e+00	0	38	0	1111490560	62	5136
2026-01-22 00:54:59.54	235.06	12.25	-45.3	-48.5	15.7	0.00e+00	0	38	0	1113587712	62	5103
2026-01-22 00:55:00.54	234.98	12.16	-45.1	-48.1	16.0	0.00e+00	0	38	0	1115684864	62	4925
2026-01-22 00:55:01.53	234.90	12.07	-44.8	-47.8	16.2	0.00e+00	0	38	0	1117782016	61	5005
2026-01-22 00:55:02.53	234.82	11.99	-44.9	-47.9	16.2	0.00e+00	0	38	0	1119879168	61	5096
2026-01-22 00:55:03.52	234.74	11.90	-44.8	-47.8	16.3	0.00e+00	0	38	0	1120927744	61	5001
2026-01-22 00:55:04.52	234.66	11.82	-44.9	-47.8	16.3	0.00e+00	0	38	0	1123024896	61	5030
2026-01-22 00:55:05.51	234.59	11.73	-44.7	-47.6	16.4	0.00e+00	0	38	0	1125122048	61	4926
2026-01-22 00:55:06.50	234.51	11.65	-44.9	-47.9	16.2	0.00e+00	0	38	0	1127219200	61	5062
2026-01-22 00:55:07.50	234.43	11.56	-44.9	-47.9	16.2	0.00e+00	0	38	0	1128267776	61	5045
2026-01-22 00:55:08.50	234.36	11.48	-44.9	-47.8	16.2	0.00e+00	0	38	0	1130364928	61	5040
2026-01-22 00:55:09.49	234.28	11.39	-45.0	-48.0	16.1	0.00e+00	0	38	0	1132462080	61	5113
2026-01-22 00:55:10.49	234.20	11.31	-44.9	-47.8	16.2	0.00e+00	0	38	0	1134559232	61	5040
2026-01-22 00:55:11.49	234.13	11.22	-44.9	-47.9	16.2	0.00e+00	0	38	0	1136656384	61	5063
2026-01-22 00:55:12.48	234.06	11.14	-45.0	-47.9	16.1	0.00e+00	0	38	0	1137704960	61	5087
2026-01-22 00:55:13.48	233.98	11.06	-44.9	-47.8	16.3	0.00e+00	0	38	0	1139802112	61	4999
2026-01-22 00:55:14.47	233.91	10.97	-44.9	-47.8	16.2	0.00e+00	0	38	0	1141899264	61	5041
2026-01-22 00:55:15.46	233.84	10.89	-45.1	-48.1	16.0	0.00e+00	0	38	0	1143996416	61	5171
2026-01-22 00:55:16.46	233.76	10.81	-45.0	-48.0	16.0	0.00e+00	0	38	0	1145044992	61	5132
2026-01-22 00:55:17.46	233.69	10.73	-45.4	-48.5	15.6	0.00e+00	0	38	0	1147142144	61	5444
2026-01-22 00:55:18.45	233.62	10.64	-45.2	-48.2	15.8	0.00e+00	0	38	0	1149239296	61	5270
2026-01-22 00:55:19.44	233.55	10.56	-45.1	-48.1	15.9	0.00e+00	0	38	0	1151336448	61	5181
2026-01-22 00:55:20.44	233.48	10.48	-45.2	-48.2	15.8	0.00e+00	0	38	0	1153433600	61	5269
2026-01-22 00:55:21.43	233.41	10.40	-45.2	-48.3	15.7	0.00e+00	0	38	0	1154482176	61	5304
2026-01-22 00:55:22.43	233.34	10.32	-45.3	-48.5	15.5	0.00e+00	0	38	0	1156579328	61	5444
2026-01-22 00:55:23.42	233.27	10.24	-45.3	-48.4	15.6	0.00e+00	0	38	0	1158676480	61	5391
2026-01-22 00:55:24.42	233.20	10.16	-45.5	-48.8	15.2	0.00e+00	0	38	0	1160773632	61	5628
2026-01-22 00:55:25.41	233.13	10.08	-45.5	-48.7	15.3	0.00e+00	0	38	0	1161822208	61	5572
2026-01-22 00:55:26.41	233.06	10.00	-45.6	-48.9	15.1	0.00e+00	0	38	0	1163919360	61	5701
2026-01-22 00:55:27.40	232.99	9.92	-45.5	-48.8	15.1	0.00e+00	0	38	0	1166016512	61	5648
2026-01-22 00:55:28.43	232.92	9.83	-45.7	-49.0	15.0	0.00e+00	0	38	0	1168113664	62	5459
2026-01-22 00:55:29.44	232.85	9.75	-45.6	-49.0	15.1	0.00e+00	0	38	0	1170210816	62	5423
2026-01-22 00:55:30.46	232.79	9.67	-45.7	-49.1	15.0	0.00e+00	0	38	0	1171259392	62	5488
2026-01-22 00:55:31.46	232.72	9.59	-45.6	-48.9	15.1	0.00e+00	0	38	0	1173356544	62	5396
2026-01-22 00:55:32.45	232.65	9.51	-45.9	-49.3	14.7	0.00e+00	0	38	0	1175453696	62	5649
2026-01-22 00:55:33.45	232.59	9.43	-46.0	-49.5	14.6	0.00e+00	0	38	0	1177550848	62	5739
2026-01-22 00:55:34.44	232.52	9.35	-45.9	-49.4	14.6	0.00e+00	0	38	0	1179648000	62	5695
2026-01-22 00:55:35.44	232.46	9.28	-46.0	-49.5	14.6	0.00e+00	0	38	0	1180696576	62	5723
2026-01-22 00:55:36.44	232.39	9.20	-46.1	-49.7	14.4	7.00e-07	0	38	0	1182793728	62	5867
2026-01-22 00:55:37.43	232.33	9.12	-45.9	-49.5	14.6	0.00e+00	0	38	0	1184890880	62	5732
2026-01-22 00:55:38.43	232.26	9.04	-46.3	-49.9	14.1	0.00e+00	0	38	0	1186988032	63	5720
2026-01-22 00:55:39.42	232.20	8.96	-50.3	-65.6	3.8	1.49e+00	0	38	104	1186988032	71	21794
2026-01-22 00:55:40.41	232.14	8.89	-50.4	-65.8	3.8	1.49e+00	0	38	104	1186988032	71	22310
2026-01-22 00:55:41.41	232.07	8.81	-50.6	-65.9	3.8	1.49e+00	0	38	104	1186988032	71	22759
2026-01-22 00:55:42.43	232.01	8.73	-50.8	-66.0	3.8	1.49e+00	0	38	104	1186988032	72	21537
2026-01-22 00:55:43.46	231.94	8.65	-50.8	-66.0	3.8	1.49e+00	0	38	104	1186988032	72	21637
2026-01-22 00:55:44.48	231.88	8.57	-50.8	-66.1	3.8	1.49e+00	0	38	104	1186988032	72	21849
2026-01-22 00:55:45.51	231.82	8.49	-50.8	-66.1	3.8	1.49e+00	0	38	104	1186988032	72	21899
2026-01-22 00:55:46.53	231.75	8.42	-50.8	-66.2	3.8	1.49e+00	0	38	104	1186988032	72	22081
2026-01-22 00:55:47.56	231.69	8.34	-50.8	-66.1	3.8	1.49e+00	0	38	104	1186988032	72	21954
2026-01-22 00:55:48.55	231.63	8.26	-50.8	-66.2	3.8	1.49e+00	0	38	104	1186988032	72	22052
2026-01-22 00:55:49.55	231.57	8.19	-50.9	-66.2	3.8	1.49e+00	0	38	104	1186988032	72	22014
2026-01-22 00:55:50.54	231.51	8.11	-50.8	-66.2	3.8	1.49e+00	0	38	104	1186988032	72	22047
2026-01-22 00:55:51.53	231.45	8.04	-50.8	-66.2	3.8	1.49e+00	0	38	104	1186988032	72	22075
2026-01-22 00:55:52.53	231.39	7.96	-50.8	-66.2	3.8	1.49e+00	0	38	104	1186988032	72	22048
2026-01-22 00:55:53.52	231.33	7.89	-50.8	-66.2	3.8	1.49e+00	0	38	104	1186988032	72	22125
2026-01-22 00:55:54.51	231.28	7.81	-50.7	-66.2	3.8	1.49e+00	0	38	104	1186988032	72	22135
2026-01-22 00:55:55.51	231.22	7.74	-50.8	-66.2	3.8	1.49e+00	0	38	104	1186988032	72	22035
2026-01-22 00:55:56.50	231.16	7.66	-50.7	-66.2	3.8	1.49e+00	0	38	104	1186988032	72	22088
2026-01-22 00:55:57.49	231.10	7.59	-50.7	-66.2	3.8	1.49e+00	0	38	104	1186988032	72	22034
