passes_logs/2026/01/22/T1/T1__20260122_230543_NOAA_20_JPSS-1_rec.log

#Pass ID: 20260122_230543_NOAA 20 (JPSS-1)
#Satellite: NOAA 20 (JPSS-1)
#Configuration: NOAA 20
#almurnet v.1.7.20251203
#Start time: 2026-01-22 23:05:46

#Version: 2.0.20230620
#Station: T1
#Location: 37.570604 lon 55.790049 lat
#TLE: 1 43013U 17073A   26022.44900781  .00000193  00000+0  11233-3 0  9999
#TLE: 2 43013  98.7645 323.3100 0001197  28.8413 331.2829 14.19538802423792

#Time	Az	El	Level	Level2	SNR	BER	BlckErr	Temp	State	Recorded	gain1	gain2
2026-01-22 23:05:46.04	20.75	5.16	-48.8	-64.5	3.8	1.49e+00	0	36	0	0	68	22844
2026-01-22 23:05:47.03	20.78	5.22	-48.8	-64.4	3.8	1.49e+00	0	36	104	0	68	22719
2026-01-22 23:05:48.03	20.82	5.29	-48.8	-64.4	3.8	1.49e+00	0	36	104	0	68	22660
2026-01-22 23:05:49.02	20.86	5.36	-48.8	-64.4	3.8	1.49e+00	0	36	104	0	68	22638
2026-01-22 23:05:50.01	20.89	5.43	-48.8	-64.4	3.8	1.49e+00	0	36	104	0	68	22647
2026-01-22 23:05:51.01	20.93	5.50	-48.8	-64.4	3.8	1.49e+00	0	36	104	0	68	22685
2026-01-22 23:05:52.00	20.97	5.57	-48.8	-64.4	3.8	1.49e+00	0	36	104	0	68	22611
2026-01-22 23:05:52.99	21.01	5.64	-48.8	-64.4	3.8	1.49e+00	0	36	104	0	68	22594
2026-01-22 23:05:53.99	21.04	5.71	-48.8	-64.4	3.8	1.49e+00	0	36	104	0	68	22640
2026-01-22 23:05:54.98	21.08	5.78	-48.8	-64.4	3.8	1.49e+00	0	36	104	0	68	22618
2026-01-22 23:05:55.97	21.12	5.85	-48.8	-64.4	3.8	1.49e+00	0	37	104	0	68	22674
2026-01-22 23:05:56.97	21.16	5.92	-48.8	-64.4	3.8	1.49e+00	0	37	104	0	68	22670
2026-01-22 23:05:57.96	21.20	5.99	-48.8	-64.4	3.8	1.49e+00	0	36	104	0	68	22680
2026-01-22 23:05:58.95	21.23	6.07	-48.8	-64.4	3.8	1.49e+00	0	37	104	0	68	22728
2026-01-22 23:05:59.94	21.27	6.14	-48.8	-64.4	3.8	1.49e+00	0	37	104	0	68	22656
2026-01-22 23:06:00.94	21.31	6.21	-48.8	-64.4	3.8	1.49e+00	0	36	104	0	68	22668
2026-01-22 23:06:01.93	21.35	6.28	-48.8	-64.4	3.8	1.49e+00	0	37	104	0	68	22721
2026-01-22 23:06:02.92	21.39	6.35	-48.8	-64.4	3.8	1.49e+00	0	37	104	0	68	22689
2026-01-22 23:06:03.92	21.43	6.42	-48.8	-64.4	3.8	1.49e+00	0	37	104	0	68	22768
2026-01-22 23:06:04.91	21.47	6.50	-48.8	-64.4	3.8	1.49e+00	0	37	104	0	68	22623
2026-01-22 23:06:05.91	21.51	6.57	-48.8	-64.4	3.8	1.49e+00	0	37	104	0	68	22613
2026-01-22 23:06:06.90	21.55	6.64	-48.8	-64.3	3.8	1.49e+00	0	37	104	0	68	22510
2026-01-22 23:06:07.89	21.59	6.71	-48.8	-64.3	3.8	1.49e+00	0	37	104	0	68	22393
2026-01-22 23:06:08.88	21.63	6.79	-48.8	-64.2	3.8	1.49e+00	0	37	104	0	68	22078
2026-01-22 23:06:09.88	21.67	6.86	-48.8	-64.1	3.8	1.49e+00	0	37	104	0	68	21818
2026-01-22 23:06:10.87	21.71	6.93	-48.8	-63.9	3.8	1.49e+00	0	37	104	0	68	21360
2026-01-22 23:06:11.86	21.75	7.01	-48.8	-63.6	3.8	1.49e+00	0	37	104	0	68	20729
2026-01-22 23:06:12.86	21.79	7.08	-48.8	-63.4	3.8	1.49e+00	0	37	104	0	68	20129
2026-01-22 23:06:13.85	21.83	7.16	-48.7	-63.2	3.8	1.49e+00	0	37	104	0	68	19795
2026-01-22 23:06:14.84	21.88	7.23	-48.7	-63.0	3.8	1.49e+00	0	37	104	0	68	19230
2026-01-22 23:06:15.84	21.92	7.30	-48.7	-62.7	3.8	1.49e+00	0	37	104	0	68	18671
2026-01-22 23:06:16.83	21.96	7.38	-48.7	-62.6	3.8	1.49e+00	0	37	104	0	68	18420
2026-01-22 23:06:17.82	22.00	7.45	-48.7	-62.5	3.8	1.49e+00	0	37	104	0	68	18120
2026-01-22 23:06:18.81	22.04	7.53	-48.7	-62.4	3.8	1.49e+00	0	37	104	0	68	17901
2026-01-22 23:06:19.81	22.09	7.60	-48.7	-62.3	3.8	1.49e+00	0	37	104	0	68	17847
2026-01-22 23:06:20.80	22.13	7.68	-48.7	-62.2	3.8	1.49e+00	0	37	104	0	68	17682
2026-01-22 23:06:21.79	22.17	7.75	-48.7	-62.2	3.9	1.48e+00	0	37	104	0	68	17640
2026-01-22 23:06:22.79	22.21	7.83	-48.7	-62.3	3.8	1.49e+00	0	37	104	0	68	17782
2026-01-22 23:06:23.78	22.26	7.91	-48.7	-62.3	3.9	1.48e+00	0	37	104	0	68	17750
2026-01-22 23:06:24.78	22.30	7.98	-48.7	-62.3	3.8	1.49e+00	0	37	104	0	68	17876
2026-01-22 23:06:25.77	22.35	8.06	-48.7	-62.3	3.8	1.49e+00	0	37	104	0	68	17708
2026-01-22 23:06:26.76	22.39	8.14	-48.7	-62.1	3.8	1.49e+00	0	37	104	0	68	17433
2026-01-22 23:06:27.75	22.43	8.21	-48.6	-61.8	3.8	1.48e+00	0	37	104	0	68	16777
2026-01-22 23:06:28.75	22.48	8.29	-48.6	-61.2	4.1	1.47e+00	0	37	104	0	68	15612
2026-01-22 23:06:29.74	22.52	8.37	-48.6	-60.6	4.2	1.41e+00	0	37	0	0	68	14676
2026-01-22 23:06:30.73	22.57	8.45	-48.5	-59.7	4.6	1.14e+00	0	37	0	1048576	68	13140
2026-01-22 23:06:31.73	22.61	8.52	-48.4	-58.6	5.1	7.94e-01	0	37	0	3145728	68	11678
2026-01-22 23:06:32.72	22.66	8.60	-48.2	-57.5	5.8	5.17e-01	0	37	0	4194304	68	10256
2026-01-22 23:06:33.71	22.70	8.68	-48.0	-56.3	6.9	2.30e-01	0	37	0	6291456	68	8897
2026-01-22 23:06:34.70	22.75	8.76	-47.6	-55.1	7.8	1.12e-01	0	37	0	8388608	67	8196
2026-01-22 23:06:35.70	22.79	8.84	-47.3	-54.0	8.9	4.78e-02	0	37	0	10485760	66	7681
2026-01-22 23:06:36.69	22.84	8.92	-47.0	-53.2	9.8	1.77e-02	0	37	0	11534336	66	6984
2026-01-22 23:06:37.68	22.88	9.00	-46.7	-52.4	10.6	4.22e-03	0	38	0	13631488	65	6754
2026-01-22 23:06:38.68	22.93	9.08	-46.8	-52.5	10.4	2.57e-03	0	37	0	15728640	65	6867
2026-01-22 23:06:39.67	22.98	9.16	-47.8	-57.1	6.2	9.17e-03	0	38	0	17825792	66	11019
2026-01-22 23:06:40.67	23.03	9.24	-45.8	-50.3	12.7	6.47e-01	0	38	0	19922944	63	5951
2026-01-22 23:06:41.66	23.07	9.32	-47.1	-53.0	10.2	1.51e-04	0	37	0	20971520	64	7676
2026-01-22 23:06:42.66	23.12	9.40	-44.6	-48.0	15.1	1.76e-02	0	38	0	23068672	61	5135
2026-01-22 23:06:43.65	23.17	9.48	-44.2	-47.5	15.8	0.00e+00	0	38	0	25165824	60	5101
2026-01-22 23:06:44.65	23.22	9.56	-44.1	-47.4	15.9	0.00e+00	0	37	0	27262976	60	5052
2026-01-22 23:06:45.65	23.26	9.64	-44.0	-47.1	16.1	0.00e+00	0	38	0	28311552	60	4898
2026-01-22 23:06:46.64	23.31	9.72	-44.0	-47.0	16.2	0.00e+00	0	38	0	30408704	59	5138
2026-01-22 23:06:47.63	23.36	9.80	-44.1	-47.1	16.1	0.00e+00	0	38	0	32505856	59	5217
2026-01-22 23:06:48.63	23.41	9.89	-43.9	-46.9	16.4	0.00e+00	0	38	0	34603008	59	5065
2026-01-22 23:06:49.62	23.46	9.97	-43.9	-46.9	16.4	0.00e+00	0	38	0	36700160	59	5056
2026-01-22 23:06:50.62	23.51	10.05	-43.8	-46.8	16.4	0.00e+00	0	38	0	37748736	59	5013
2026-01-22 23:06:51.61	23.56	10.13	-43.9	-46.9	16.4	0.00e+00	0	38	0	39845888	59	5066
2026-01-22 23:06:52.61	23.61	10.22	-43.7	-46.7	16.5	0.00e+00	0	38	0	41943040	59	4957
2026-01-22 23:06:53.60	23.66	10.30	-43.6	-46.6	16.6	0.00e+00	0	38	0	44040192	59	4883
2026-01-22 23:06:54.59	23.71	10.38	-43.7	-46.6	16.6	0.00e+00	0	38	0	45088768	59	4913
2026-01-22 23:06:55.59	23.76	10.47	-43.7	-46.6	16.6	0.00e+00	0	38	0	47185920	59	4910
2026-01-22 23:06:56.58	23.81	10.55	-43.6	-46.5	16.7	0.00e+00	0	38	0	49283072	59	4851
2026-01-22 23:06:57.58	23.86	10.64	-43.6	-46.4	16.8	0.00e+00	0	38	0	51380224	59	4814
2026-01-22 23:06:58.57	23.91	10.72	-43.5	-46.4	16.9	0.00e+00	0	38	0	53477376	59	4784
2026-01-22 23:06:59.57	23.96	10.81	-43.6	-46.4	16.9	0.00e+00	0	38	0	54525952	59	4799
2026-01-22 23:07:00.56	24.02	10.89	-43.6	-46.4	16.9	0.00e+00	0	38	0	56623104	59	4795
2026-01-22 23:07:01.56	24.07	10.98	-43.5	-46.3	17.0	0.00e+00	0	38	0	58720256	59	4739
2026-01-22 23:07:02.55	24.12	11.06	-43.5	-46.3	17.1	0.00e+00	0	38	0	60817408	58	4991
2026-01-22 23:07:03.55	24.17	11.15	-43.4	-46.2	17.1	0.00e+00	0	38	0	61865984	58	4980
2026-01-22 23:07:04.54	24.23	11.24	-43.4	-46.2	17.1	0.00e+00	0	38	0	63963136	58	4939
2026-01-22 23:07:05.54	24.28	11.32	-43.3	-46.1	17.2	0.00e+00	0	38	0	66060288	58	4914
2026-01-22 23:07:06.53	24.33	11.41	-43.3	-46.1	17.2	0.00e+00	0	37	0	68157440	58	4909
2026-01-22 23:07:07.53	24.39	11.50	-43.4	-46.1	17.2	0.00e+00	0	38	0	70254592	58	4922
2026-01-22 23:07:08.52	24.44	11.59	-43.4	-46.1	17.2	0.00e+00	0	38	0	71303168	58	4926
2026-01-22 23:07:09.52	24.50	11.67	-43.2	-46.0	17.4	0.00e+00	0	38	0	73400320	58	4815
2026-01-22 23:07:10.52	24.55	11.76	-43.1	-45.8	17.5	0.00e+00	0	38	0	75497472	58	4745
2026-01-22 23:07:11.51	24.61	11.85	-43.1	-45.9	17.4	0.00e+00	0	38	0	77594624	58	4771
2026-01-22 23:07:12.51	24.66	11.94	-43.1	-45.8	17.5	0.00e+00	0	38	0	79691776	58	4755
2026-01-22 23:07:13.55	24.72	12.03	-42.9	-45.7	17.7	0.00e+00	0	38	0	80740352	57	4929
2026-01-22 23:07:14.51	24.78	12.12	-42.9	-45.6	17.7	0.00e+00	0	38	0	82837504	57	4917
2026-01-22 23:07:15.51	24.83	12.21	-42.9	-45.6	17.7	0.00e+00	0	38	0	84934656	57	4907
2026-01-22 23:07:16.50	24.89	12.30	-42.9	-45.6	17.7	0.00e+00	0	38	0	87031808	57	4917
2026-01-22 23:07:17.50	24.95	12.39	-42.9	-45.5	17.8	0.00e+00	0	38	0	88080384	57	4866
2026-01-22 23:07:18.49	25.01	12.48	-42.9	-45.6	17.8	0.00e+00	0	38	0	90177536	57	4886
2026-01-22 23:07:19.49	25.06	12.57	-42.7	-45.5	17.9	0.00e+00	0	38	0	92274688	57	4816
2026-01-22 23:07:20.48	25.12	12.66	-42.8	-45.5	17.9	0.00e+00	0	38	0	94371840	57	4848
2026-01-22 23:07:21.48	25.18	12.76	-42.6	-45.3	18.0	0.00e+00	0	38	0	96468992	57	4750
2026-01-22 23:07:22.48	25.24	12.85	-42.6	-45.3	18.1	0.00e+00	0	38	0	97517568	57	4716
2026-01-22 23:07:23.47	25.30	12.94	-42.6	-45.3	18.0	0.00e+00	0	38	0	99614720	57	4753
2026-01-22 23:07:24.46	25.36	13.03	-42.5	-45.2	18.2	0.00e+00	0	38	0	101711872	57	4665
2026-01-22 23:07:25.46	25.42	13.13	-42.5	-45.1	18.3	0.00e+00	0	38	0	103809024	56	4901
2026-01-22 23:07:26.45	25.48	13.22	-42.5	-45.1	18.3	0.00e+00	0	38	0	104857600	56	4890
2026-01-22 23:07:27.45	25.54	13.31	-42.5	-45.1	18.3	0.00e+00	0	38	0	106954752	56	4905
2026-01-22 23:07:28.44	25.60	13.41	-42.5	-45.0	18.3	0.00e+00	0	38	0	109051904	56	4866
2026-01-22 23:07:29.45	25.66	13.50	-42.5	-45.0	18.4	0.00e+00	0	38	0	111149056	56	4845
2026-01-22 23:07:30.45	25.72	13.60	-42.5	-45.1	18.3	0.00e+00	0	38	0	113246208	56	4885
2026-01-22 23:07:31.44	25.78	13.69	-42.5	-45.0	18.4	0.00e+00	0	38	0	114294784	56	4833
2026-01-22 23:07:32.44	25.85	13.79	-42.5	-45.1	18.3	0.00e+00	0	38	0	116391936	56	4871
2026-01-22 23:07:33.44	25.91	13.88	-42.5	-45.1	18.3	0.00e+00	0	38	0	118489088	56	4882
2026-01-22 23:07:34.43	25.97	13.98	-42.5	-45.0	18.4	0.00e+00	0	38	0	120586240	56	4854
2026-01-22 23:07:35.43	26.04	14.08	-42.5	-45.1	18.3	0.00e+00	0	38	0	121634816	56	4873
2026-01-22 23:07:36.42	26.10	14.17	-42.5	-45.1	18.3	0.00e+00	0	38	0	123731968	56	4887
2026-01-22 23:07:37.42	26.17	14.27	-42.5	-45.0	18.4	0.00e+00	0	38	0	125829120	56	4847
2026-01-22 23:07:38.41	26.23	14.37	-42.5	-45.0	18.4	0.00e+00	0	38	0	127926272	56	4837
2026-01-22 23:07:39.41	26.30	14.47	-42.5	-45.0	18.4	0.00e+00	0	38	0	130023424	56	4851
2026-01-22 23:07:40.40	26.36	14.56	-42.5	-45.0	18.4	0.00e+00	0	38	0	131072000	56	4860
2026-01-22 23:07:41.40	26.43	14.66	-42.4	-44.9	18.5	0.00e+00	0	38	0	133169152	56	4763
2026-01-22 23:07:42.39	26.49	14.76	-42.3	-44.8	18.6	0.00e+00	0	38	0	135266304	56	4755
2026-01-22 23:07:43.38	26.56	14.86	-42.4	-44.9	18.5	0.00e+00	0	38	0	137363456	56	4804
2026-01-22 23:07:44.38	26.63	14.96	-42.3	-44.9	18.5	0.00e+00	0	38	0	138412032	56	4783
2026-01-22 23:07:45.37	26.69	15.06	-42.4	-45.0	18.4	0.00e+00	0	38	0	140509184	56	4823
2026-01-22 23:07:46.37	26.76	15.16	-42.3	-44.9	18.6	0.00e+00	0	38	0	142606336	56	4764
2026-01-22 23:07:47.36	26.83	15.26	-42.3	-44.9	18.5	0.00e+00	0	38	0	144703488	56	4769
2026-01-22 23:07:48.36	26.90	15.36	-42.3	-44.9	18.5	0.00e+00	0	38	0	146800640	56	4796
2026-01-22 23:07:49.45	26.98	15.48	-42.3	-44.8	18.6	0.00e+00	0	38	0	148897792	56	4742
2026-01-22 23:07:50.30	27.04	15.56	-42.2	-44.8	18.7	0.00e+00	0	38	0	149946368	56	4721
2026-01-22 23:07:51.69	27.13	15.71	-42.2	-44.8	18.6	0.00e+00	0	38	0	153092096	56	4729
2026-01-22 23:07:52.41	27.18	15.78	-42.2	-44.7	18.7	0.00e+00	0	38	0	154140672	56	4682
2026-01-22 23:07:53.69	27.28	15.91	-42.1	-44.7	18.8	0.00e+00	0	38	0	156237824	56	4665
2026-01-22 23:07:54.41	27.33	15.99	-42.1	-44.7	18.8	0.00e+00	0	38	0	157286400	56	4657
2026-01-22 23:07:55.69	27.42	16.12	-42.1	-44.6	18.8	0.00e+00	0	38	0	160432128	56	4650
2026-01-22 23:07:56.50	27.48	16.21	-42.1	-44.6	18.8	0.00e+00	0	38	0	161480704	56	4616
2026-01-22 23:07:57.64	27.56	16.33	-42.1	-44.7	18.8	0.00e+00	0	38	0	163577856	56	4663
2026-01-22 23:07:58.66	27.64	16.44	-42.1	-44.6	18.8	0.00e+00	0	38	0	165675008	56	4642
2026-01-22 23:07:59.83	27.73	16.56	-42.1	-44.6	18.9	0.00e+00	0	38	0	167772160	56	4622
2026-01-22 23:08:00.71	27.79	16.65	-42.1	-44.6	18.9	0.00e+00	0	38	0	169869312	56	4619
2026-01-22 23:08:01.85	27.88	16.78	-42.2	-44.7	18.7	0.00e+00	0	38	0	171966464	56	4691
2026-01-22 23:08:02.70	27.94	16.87	-42.3	-44.8	18.7	0.00e+00	0	38	0	173015040	56	4721
2026-01-22 23:08:03.84	28.03	16.99	-42.1	-44.5	18.9	0.00e+00	0	38	0	175112192	56	4589
2026-01-22 23:08:04.69	28.10	17.08	-42.0	-44.4	19.0	0.00e+00	0	38	0	177209344	56	4543
2026-01-22 23:08:05.83	28.19	17.21	-42.1	-44.5	19.0	0.00e+00	0	38	0	179306496	56	4553
2026-01-22 23:08:06.68	28.25	17.30	-42.0	-44.4	19.1	0.00e+00	0	38	0	180355072	56	4514
2026-01-22 23:08:07.82	28.34	17.43	-42.1	-44.5	19.0	0.00e+00	0	38	0	182452224	56	4548
2026-01-22 23:08:08.67	28.41	17.52	-42.2	-44.6	18.9	0.00e+00	0	38	0	184549376	56	4607
2026-01-22 23:08:09.81	28.50	17.65	-42.0	-44.4	19.1	0.00e+00	0	38	0	186646528	56	4499
2026-01-22 23:08:10.66	28.57	17.74	-42.2	-44.5	19.0	0.00e+00	0	38	0	187695104	56	4582
2026-01-22 23:08:11.79	28.66	17.87	-42.0	-44.3	19.2	0.00e+00	0	38	0	189792256	56	4460
2026-01-22 23:08:12.64	28.73	17.96	-41.8	-44.0	19.2	0.00e+00	0	38	0	191889408	55	4596
2026-01-22 23:08:13.78	28.82	18.09	-41.8	-44.0	19.3	0.00e+00	0	38	0	193986560	55	4592
2026-01-22 23:08:14.63	28.89	18.19	-41.8	-44.1	19.2	0.00e+00	0	38	0	196083712	55	4605
2026-01-22 23:08:15.77	28.99	18.32	-41.9	-44.2	19.1	0.00e+00	0	38	0	198180864	55	4666
2026-01-22 23:08:16.68	29.06	18.42	-41.9	-44.2	19.1	0.00e+00	0	38	0	199229440	55	4677
2026-01-22 23:08:17.85	29.16	18.55	-42.0	-44.4	19.0	0.00e+00	0	38	0	201326592	55	4772
2026-01-22 23:08:18.74	29.24	18.66	-42.0	-44.3	19.0	0.00e+00	0	38	0	203423744	55	4731
2026-01-22 23:08:19.87	29.34	18.79	-42.0	-44.3	19.0	0.00e+00	0	38	0	205520896	55	4746
2026-01-22 23:08:20.72	29.41	18.89	-42.0	-44.3	19.0	0.00e+00	0	38	0	206569472	55	4747
2026-01-22 23:08:21.86	29.51	19.02	-42.0	-44.3	19.0	0.00e+00	0	38	0	209715200	55	4734
2026-01-22 23:08:22.72	29.58	19.12	-42.0	-44.4	18.9	0.00e+00	0	38	0	210763776	55	4790
2026-01-22 23:08:23.85	29.68	19.25	-42.1	-44.5	18.8	0.00e+00	0	38	0	212860928	55	4836
2026-01-22 23:08:24.71	29.76	19.35	-41.9	-44.3	19.0	0.00e+00	0	38	0	214958080	55	4719
2026-01-22 23:08:25.85	29.86	19.49	-42.0	-44.3	19.0	0.00e+00	0	38	0	217055232	55	4749
2026-01-22 23:08:26.70	29.94	19.59	-42.0	-44.3	19.0	0.00e+00	0	38	0	218103808	55	4755
2026-01-22 23:08:27.84	30.04	19.73	-41.9	-44.2	19.1	0.00e+00	0	38	0	220200960	55	4672
2026-01-22 23:08:28.69	30.12	19.83	-42.0	-44.3	19.1	0.00e+00	0	38	0	222298112	55	4726
2026-01-22 23:08:29.84	30.23	19.97	-42.0	-44.3	19.0	0.00e+00	0	38	0	224395264	55	4752
2026-01-22 23:08:30.70	30.31	20.07	-42.0	-44.3	19.1	0.00e+00	0	38	0	225443840	55	4720
2026-01-22 23:08:31.89	30.42	20.22	-42.0	-44.4	18.9	0.00e+00	0	38	0	227540992	55	4760
2026-01-22 23:08:32.75	30.50	20.32	-42.0	-44.3	19.0	0.00e+00	0	38	0	229638144	55	4748
2026-01-22 23:08:33.89	30.61	20.46	-42.1	-44.4	18.9	0.00e+00	0	38	0	231735296	55	4797
2026-01-22 23:08:34.74	30.69	20.56	-42.1	-44.4	18.9	0.00e+00	0	38	0	232783872	55	4805
2026-01-22 23:08:35.87	30.80	20.70	-42.2	-44.6	18.8	0.00e+00	0	38	0	235929600	55	4883
2026-01-22 23:08:36.73	30.88	20.81	-42.2	-44.6	18.8	0.00e+00	0	38	0	236978176	55	4886
2026-01-22 23:08:37.86	30.99	20.95	-42.3	-44.7	18.7	0.00e+00	0	38	0	239075328	55	4935
2026-01-22 23:08:38.72	31.08	21.06	-42.2	-44.5	18.9	0.00e+00	0	38	0	241172480	55	4864
2026-01-22 23:08:39.85	31.19	21.20	-42.1	-44.5	18.9	0.00e+00	0	38	0	243269632	55	4828
2026-01-22 23:08:40.70	31.27	21.31	-42.2	-44.5	18.7	0.00e+00	0	38	0	244318208	55	4864
2026-01-22 23:08:41.84	31.39	21.45	-42.1	-44.4	18.9	0.00e+00	0	38	0	246415360	55	4806
2026-01-22 23:08:42.70	31.48	21.56	-42.1	-44.4	19.0	0.00e+00	0	38	0	248512512	55	4809
2026-01-22 23:08:43.83	31.59	21.71	-42.0	-44.4	19.0	0.00e+00	0	38	0	250609664	55	4765
2026-01-22 23:08:44.68	31.68	21.82	-42.0	-44.4	19.0	0.00e+00	0	38	0	251658240	55	4791
2026-01-22 23:08:45.82	31.80	21.97	-42.0	-44.4	18.9	0.00e+00	0	38	0	253755392	55	4784
2026-01-22 23:08:46.67	31.89	22.08	-41.9	-44.3	19.1	0.00e+00	0	38	0	255852544	55	4715
2026-01-22 23:08:47.81	32.01	22.22	-42.0	-44.4	19.0	0.00e+00	0	38	0	257949696	55	4763
2026-01-22 23:08:48.66	32.10	22.34	-41.8	-44.2	19.2	0.00e+00	0	38	0	258998272	55	4678
2026-01-22 23:08:49.99	32.24	22.51	-41.9	-44.3	19.1	0.00e+00	0	38	0	262144000	55	4725
2026-01-22 23:08:50.70	32.32	22.60	-41.9	-44.2	19.1	0.00e+00	0	38	0	263192576	55	4689
2026-01-22 23:08:52.18	32.48	22.80	-42.0	-44.3	19.0	0.00e+00	0	38	0	266338304	55	4735
2026-01-22 23:08:52.89	32.56	22.90	-42.0	-44.3	19.0	0.00e+00	0	38	0	267386880	55	4759
2026-01-22 23:08:54.24	32.71	23.08	-42.0	-44.4	19.0	0.00e+00	0	38	0	269484032	55	4782
2026-01-22 23:08:54.95	32.79	23.17	-42.1	-44.5	18.9	0.00e+00	0	38	0	271581184	55	4820
2026-01-22 23:08:56.23	32.94	23.34	-42.2	-44.5	18.9	0.00e+00	0	38	0	273678336	55	4846
2026-01-22 23:08:56.95	33.02	23.44	-42.1	-44.5	18.9	0.00e+00	0	38	0	274726912	55	4827
2026-01-22 23:08:58.23	33.17	23.62	-41.9	-44.2	19.1	0.00e+00	0	38	0	277872640	55	4698
2026-01-22 23:08:58.95	33.25	23.72	-42.1	-44.4	19.0	0.00e+00	0	38	0	278921216	55	4789
2026-01-22 23:09:00.22	33.40	23.89	-42.0	-44.3	19.1	0.00e+00	0	38	0	281018368	55	4710
2026-01-22 23:09:00.94	33.49	23.99	-42.0	-44.4	19.0	0.00e+00	0	38	0	282066944	55	4766
2026-01-22 23:09:02.22	33.64	24.17	-41.9	-44.2	19.2	0.00e+00	0	38	0	285212672	55	4668
2026-01-22 23:09:02.93	33.73	24.27	-41.8	-44.1	19.2	0.00e+00	0	38	0	286261248	55	4644
2026-01-22 23:09:04.21	33.88	24.45	-41.8	-44.1	19.3	0.00e+00	0	38	0	288358400	55	4621
2026-01-22 23:09:04.93	33.97	24.55	-41.8	-44.1	19.2	0.00e+00	0	38	0	289406976	55	4647
2026-01-22 23:09:06.21	34.13	24.73	-42.0	-44.4	19.0	0.00e+00	0	38	0	292552704	55	4778
2026-01-22 23:09:06.94	34.22	24.83	-42.1	-44.4	19.0	0.00e+00	0	38	0	293601280	55	4812
2026-01-22 23:09:08.22	34.38	25.02	-42.2	-44.5	18.9	0.00e+00	0	38	0	295698432	55	4857
2026-01-22 23:09:08.96	34.47	25.12	-42.2	-44.6	18.8	0.00e+00	0	38	0	297795584	55	4900
2026-01-22 23:09:10.23	34.64	25.30	-42.2	-44.6	18.8	0.00e+00	0	38	0	299892736	55	4921
2026-01-22 23:09:11.20	34.76	25.44	-42.3	-44.7	18.7	0.00e+00	0	38	0	301989888	55	4948
2026-01-22 23:09:12.49	34.93	25.63	-42.3	-44.7	18.6	0.00e+00	0	38	0	304087040	55	4975
2026-01-22 23:09:13.20	35.02	25.74	-42.3	-44.7	18.7	0.00e+00	0	38	0	305135616	55	4939
2026-01-22 23:09:14.48	35.19	25.92	-42.2	-44.6	18.8	0.00e+00	0	38	0	308281344	55	4877
2026-01-22 23:09:15.19	35.29	26.03	-42.3	-44.6	18.8	0.00e+00	0	38	0	309329920	55	4912
2026-01-22 23:09:16.47	35.46	26.22	-42.3	-44.6	18.8	0.00e+00	0	38	0	311427072	55	4909
2026-01-22 23:09:17.18	35.56	26.32	-42.3	-44.6	18.8	0.00e+00	0	38	0	312475648	55	4904
2026-01-22 23:09:18.46	35.74	26.51	-42.4	-44.7	18.7	0.00e+00	0	38	0	315621376	55	4968
2026-01-22 23:09:19.17	35.83	26.62	-42.5	-44.8	18.6	0.00e+00	0	38	0	316669952	55	5031
2026-01-22 23:09:20.45	36.01	26.81	-42.6	-45.0	18.4	0.00e+00	0	38	0	318767104	55	5120
2026-01-22 23:09:21.18	36.12	26.92	-42.6	-45.1	18.4	0.00e+00	0	38	0	320864256	55	5175
2026-01-22 23:09:22.45	36.30	27.12	-42.9	-45.4	18.2	0.00e+00	0	38	0	322961408	56	5074
2026-01-22 23:09:23.17	36.40	27.23	-43.0	-45.5	18.1	0.00e+00	0	38	0	324009984	56	5135
2026-01-22 23:09:24.57	36.61	27.44	-43.1	-45.6	18.0	0.00e+00	0	38	0	327155712	56	5203
2026-01-22 23:09:25.28	36.71	27.55	-43.1	-45.6	17.9	0.00e+00	0	38	0	328204288	56	5176
2026-01-22 23:09:26.62	36.91	27.76	-43.1	-45.6	18.0	0.00e+00	0	38	0	330301440	56	5198
2026-01-22 23:09:27.33	37.02	27.87	-43.2	-45.7	17.9	0.00e+00	0	38	0	332398592	56	5243
2026-01-22 23:09:28.61	37.21	28.07	-43.1	-45.6	18.0	0.00e+00	0	38	0	334495744	56	5192
2026-01-22 23:09:29.70	37.38	28.24	-43.1	-45.6	18.0	0.00e+00	0	38	0	336592896	56	5213
2026-01-22 23:09:30.85	37.56	28.42	-43.2	-45.7	17.9	0.00e+00	0	38	0	338690048	57	4958
2026-01-22 23:09:31.71	37.69	28.56	-43.2	-45.7	17.9	0.00e+00	0	38	0	339738624	57	4962
2026-01-22 23:09:32.84	37.87	28.74	-43.4	-45.9	17.7	0.00e+00	0	38	0	341835776	57	5099
2026-01-22 23:09:33.70	38.00	28.87	-43.5	-46.1	17.5	0.00e+00	0	38	0	343932928	57	5195
2026-01-22 23:09:34.83	38.19	29.06	-43.6	-46.3	17.4	0.00e+00	0	38	0	346030080	57	5286
2026-01-22 23:09:35.69	38.33	29.19	-43.7	-46.5	17.2	0.00e+00	0	38	0	347078656	58	5107
2026-01-22 23:09:36.82	38.51	29.38	-43.9	-46.6	17.1	0.00e+00	0	38	0	350224384	58	5197
2026-01-22 23:09:37.68	38.65	29.52	-43.9	-46.7	17.0	0.00e+00	0	38	0	351272960	58	5237
2026-01-22 23:09:38.97	38.87	29.73	-44.1	-46.9	16.8	0.00e+00	0	38	0	353370112	58	5374
2026-01-22 23:09:39.68	38.99	29.84	-44.3	-47.2	16.5	0.00e+00	0	38	0	355467264	59	5226
2026-01-22 23:09:40.96	39.21	30.05	-44.5	-47.4	16.2	0.00e+00	0	38	0	357564416	59	5380
2026-01-22 23:09:41.69	39.33	30.17	-44.6	-47.6	16.1	0.00e+00	0	38	0	358612992	59	5476
2026-01-22 23:09:42.97	39.56	30.39	-44.6	-47.6	16.1	0.00e+00	0	38	0	361758720	59	5471
2026-01-22 23:09:43.72	39.69	30.51	-44.6	-47.6	16.1	0.00e+00	0	38	0	362807296	59	5519
2026-01-22 23:09:45.00	39.92	30.73	-44.5	-47.5	16.2	0.00e+00	0	38	0	364904448	59	5409
2026-01-22 23:09:45.71	40.04	30.85	-44.5	-47.4	16.2	0.00e+00	0	38	0	365953024	59	5388
2026-01-22 23:09:46.99	40.28	31.06	-44.5	-47.5	16.2	0.00e+00	0	38	0	369098752	59	5452
2026-01-22 23:09:47.71	40.41	31.18	-44.4	-47.3	16.4	0.00e+00	0	38	0	370147328	59	5312
2026-01-22 23:09:48.99	40.65	31.40	-44.5	-47.4	16.3	0.00e+00	0	38	0	372244480	59	5382
2026-01-22 23:09:49.70	40.78	31.52	-44.5	-47.4	16.3	0.00e+00	0	38	0	374341632	59	5392
2026-01-22 23:09:51.08	41.04	31.76	-44.5	-47.4	16.3	0.00e+00	0	38	0	376438784	59	5381
2026-01-22 23:09:51.79	41.18	31.88	-44.4	-47.3	16.3	0.00e+00	0	38	0	377487360	59	5336
2026-01-22 23:09:53.07	41.42	32.10	-44.5	-47.5	16.2	0.00e+00	0	38	0	380633088	59	5414
2026-01-22 23:09:53.79	41.56	32.23	-44.5	-47.4	16.3	0.00e+00	0	38	0	381681664	59	5399
2026-01-22 23:09:55.07	41.82	32.45	-44.5	-47.4	16.3	0.00e+00	0	39	0	383778816	59	5369
2026-01-22 23:09:55.78	41.96	32.57	-44.4	-47.4	16.3	0.00e+00	0	38	0	384827392	59	5348
2026-01-22 23:09:57.06	42.21	32.80	-44.0	-46.7	17.0	0.00e+00	0	38	0	387973120	59	4946
2026-01-22 23:09:57.80	42.37	32.93	-43.8	-46.5	17.2	0.00e+00	0	38	0	389021696	59	4850
2026-01-22 23:09:59.08	42.63	33.16	-43.8	-46.5	17.2	0.00e+00	0	38	0	391118848	59	4837
2026-01-22 23:09:59.82	42.78	33.29	-43.7	-46.4	17.3	0.00e+00	0	38	0	393216000	59	4782
2026-01-22 23:10:01.10	43.05	33.51	-43.6	-46.2	17.5	0.00e+00	0	39	0	395313152	59	4663
2026-01-22 23:10:01.90	43.22	33.66	-43.7	-46.4	17.3	0.00e+00	0	38	0	396361728	59	4775
2026-01-22 23:10:03.04	43.47	33.86	-43.7	-46.3	17.4	0.00e+00	0	38	0	398458880	59	4746
2026-01-22 23:10:03.90	43.65	34.02	-43.7	-46.3	17.4	0.00e+00	0	38	0	400556032	59	4751
2026-01-22 23:10:05.03	43.90	34.22	-43.6	-46.2	17.5	0.00e+00	0	38	0	402653184	59	4694
2026-01-22 23:10:05.89	44.09	34.38	-43.3	-45.9	17.8	0.00e+00	0	38	0	403701760	58	4804
2026-01-22 23:10:07.02	44.35	34.58	-43.2	-45.7	18.0	0.00e+00	0	38	0	406847488	58	4691
2026-01-22 23:10:07.87	44.54	34.74	-43.1	-45.6	18.0	0.00e+00	0	38	0	407896064	58	4650
2026-01-22 23:10:09.01	44.80	34.95	-43.2	-45.7	18.0	0.00e+00	0	38	0	409993216	58	4690
2026-01-22 23:10:09.87	45.00	35.10	-43.1	-45.6	18.1	0.00e+00	0	38	0	412090368	58	4617
2026-01-22 23:10:11.01	45.27	35.31	-43.1	-45.7	18.0	0.00e+00	0	38	0	414187520	58	4657
2026-01-22 23:10:11.86	45.47	35.47	-43.1	-45.6	18.1	0.00e+00	0	38	0	415236096	58	4632
2026-01-22 23:10:13.00	45.74	35.68	-42.9	-45.4	18.3	0.00e+00	0	38	0	417333248	57	4802
2026-01-22 23:10:13.85	45.95	35.84	-42.7	-45.2	18.5	0.00e+00	0	38	0	419430400	57	4659
2026-01-22 23:10:14.99	46.23	36.05	-42.4	-44.7	18.9	0.00e+00	0	38	0	421527552	56	4694
2026-01-22 23:10:15.84	46.44	36.21	-42.1	-44.4	19.2	0.00e+00	0	38	0	422576128	56	4514
2026-01-22 23:10:16.98	46.72	36.42	-42.1	-44.4	19.3	0.00e+00	0	38	0	424673280	56	4501
2026-01-22 23:10:17.83	46.94	36.58	-42.1	-44.3	19.3	0.00e+00	0	38	0	426770432	56	4488
2026-01-22 23:10:18.96	47.23	36.79	-42.0	-44.3	19.4	0.00e+00	0	38	0	428867584	56	4470
2026-01-22 23:10:19.82	47.45	36.96	-42.2	-44.5	19.1	0.00e+00	0	38	0	429916160	56	4580
2026-01-22 23:10:20.96	47.75	37.17	-42.3	-44.6	19.1	0.00e+00	0	38	0	432013312	56	4615
2026-01-22 23:10:21.81	47.98	37.33	-42.4	-44.7	19.0	0.00e+00	0	38	0	434110464	56	4679
2026-01-22 23:10:23.07	48.31	37.57	-42.5	-44.8	18.9	0.00e+00	0	38	0	436207616	56	4744
2026-01-22 23:10:23.89	48.54	37.73	-42.4	-44.7	18.9	0.00e+00	0	38	0	438304768	56	4702
2026-01-22 23:10:25.12	48.87	37.96	-42.1	-44.4	19.2	0.00e+00	0	38	0	440401920	56	4517
2026-01-22 23:10:25.97	49.11	38.13	-41.7	-44.0	19.4	0.00e+00	0	38	0	441450496	55	4581
2026-01-22 23:10:27.11	49.43	38.34	-41.7	-44.0	19.4	0.00e+00	0	38	0	443547648	55	4582
2026-01-22 23:10:27.97	49.68	38.51	-41.8	-44.1	19.4	0.00e+00	0	38	0	445644800	55	4628
2026-01-22 23:10:29.10	50.00	38.73	-41.8	-44.1	19.4	0.00e+00	0	38	0	447741952	55	4633
2026-01-22 23:10:29.96	50.25	38.89	-42.0	-44.3	19.2	0.00e+00	0	38	0	449839104	55	4714
2026-01-22 23:10:31.09	50.59	39.11	-42.1	-44.4	19.1	0.00e+00	0	38	0	451936256	55	4787
2026-01-22 23:10:32.04	50.87	39.29	-42.2	-44.4	19.0	0.00e+00	0	38	0	452984832	55	4811
2026-01-22 23:10:33.03	51.17	39.48	-42.4	-44.8	18.7	0.00e+00	0	38	0	455081984	55	4987
2026-01-22 23:10:34.03	51.47	39.68	-42.5	-44.9	18.6	0.00e+00	0	38	0	457179136	55	5078
2026-01-22 23:10:35.02	51.78	39.87	-42.6	-45.0	18.5	0.00e+00	0	38	0	459276288	55	5147
2026-01-22 23:10:36.02	52.09	40.06	-42.8	-45.3	18.4	0.00e+00	0	38	0	460324864	56	4996
2026-01-22 23:10:37.01	52.41	40.25	-42.7	-45.1	18.5	0.00e+00	0	39	0	462422016	56	4888
2026-01-22 23:10:38.01	52.73	40.45	-42.7	-45.1	18.6	0.00e+00	0	38	0	464519168	56	4885
2026-01-22 23:10:39.00	53.05	40.64	-42.6	-45.0	18.7	0.00e+00	0	38	0	466616320	56	4832
2026-01-22 23:10:39.99	53.37	40.83	-42.5	-44.9	18.8	0.00e+00	0	39	0	467664896	56	4780
2026-01-22 23:10:40.99	53.70	41.02	-42.7	-45.0	18.6	0.00e+00	0	39	0	469762048	56	4863
2026-01-22 23:10:41.99	54.04	41.22	-42.8	-45.2	18.5	0.00e+00	0	38	0	471859200	56	4937
2026-01-22 23:10:42.98	54.37	41.41	-42.9	-45.4	18.3	0.00e+00	0	38	0	473956352	56	5043
2026-01-22 23:10:43.98	54.72	41.60	-43.0	-45.5	18.2	0.00e+00	0	38	0	476053504	56	5119
2026-01-22 23:10:44.97	55.06	41.79	-43.0	-45.5	18.2	0.00e+00	0	38	0	477102080	56	5142
2026-01-22 23:10:45.97	55.41	41.99	-43.0	-45.5	18.1	0.00e+00	0	38	0	479199232	56	5120
2026-01-22 23:10:46.96	55.76	42.18	-43.1	-45.6	18.1	0.00e+00	0	38	0	481296384	56	5207
2026-01-22 23:10:47.96	56.12	42.37	-42.9	-45.3	18.4	0.00e+00	0	38	0	483393536	56	5030
2026-01-22 23:10:48.95	56.49	42.56	-42.9	-45.3	18.4	0.00e+00	0	38	0	485490688	56	5015
2026-01-22 23:10:49.95	56.85	42.76	-43.0	-45.4	18.2	0.00e+00	0	38	0	486539264	56	5100
2026-01-22 23:10:50.94	57.22	42.95	-43.2	-45.7	18.0	0.00e+00	0	38	0	488636416	57	4962
2026-01-22 23:10:51.93	57.60	43.14	-43.5	-46.1	17.6	0.00e+00	0	38	0	490733568	57	5182
2026-01-22 23:10:52.93	57.98	43.33	-43.3	-45.8	17.9	0.00e+00	0	38	0	492830720	57	5017
2026-01-22 23:10:53.95	58.37	43.52	-43.0	-45.4	18.3	0.00e+00	0	38	0	493879296	57	4787
2026-01-22 23:10:54.98	58.78	43.72	-42.9	-45.4	18.3	0.00e+00	0	38	0	495976448	57	4762
2026-01-22 23:10:55.97	59.17	43.91	-42.7	-45.1	18.6	0.00e+00	0	38	0	498073600	57	4613
2026-01-22 23:10:56.97	59.57	44.10	-42.7	-45.0	18.6	0.00e+00	0	38	0	500170752	57	4595
2026-01-22 23:10:57.96	59.97	44.29	-43.1	-45.6	18.0	0.00e+00	0	38	0	502267904	57	4915
2026-01-22 23:10:58.96	60.38	44.47	-43.7	-46.3	17.4	0.00e+00	0	38	0	503316480	57	5325
2026-01-22 23:10:59.95	60.79	44.66	-44.2	-47.0	16.7	0.00e+00	0	39	0	505413632	59	5101
2026-01-22 23:11:00.94	61.21	44.84	-44.1	-46.9	16.8	0.00e+00	0	38	0	507510784	59	5043
2026-01-22 23:11:01.94	61.63	45.03	-43.9	-46.6	17.1	0.00e+00	0	38	0	509607936	59	4900
2026-01-22 23:11:02.93	62.06	45.21	-43.6	-46.2	17.4	0.00e+00	0	38	0	510656512	59	4699
2026-01-22 23:11:03.93	62.49	45.40	-43.5	-46.1	17.6	0.00e+00	0	38	0	512753664	59	4651
2026-01-22 23:11:04.92	62.92	45.58	-43.6	-46.2	17.5	0.00e+00	0	38	0	514850816	59	4700
2026-01-22 23:11:05.92	63.37	45.76	-43.9	-46.6	17.2	0.00e+00	0	38	0	516947968	59	4872
2026-01-22 23:11:06.91	63.81	45.94	-43.9	-46.6	17.1	0.00e+00	0	38	0	519045120	59	4901
2026-01-22 23:11:07.91	64.27	46.12	-44.0	-46.8	16.9	0.00e+00	0	38	0	520093696	59	5009
2026-01-22 23:11:08.95	64.75	46.31	-44.1	-46.9	16.9	0.00e+00	0	38	0	522190848	59	5058
2026-01-22 23:11:09.90	65.19	46.48	-44.1	-46.9	16.8	0.00e+00	0	38	0	524288000	59	5071
2026-01-22 23:11:10.89	65.65	46.65	-43.8	-46.5	17.2	0.00e+00	0	38	0	526385152	59	4844
2026-01-22 23:11:12.05	66.21	46.86	-43.5	-46.1	17.5	0.00e+00	0	38	0	528482304	59	4634
2026-01-22 23:11:12.95	66.64	47.01	-43.4	-46.0	17.7	0.00e+00	0	38	0	529530880	58	4838
2026-01-22 23:11:14.05	67.18	47.20	-43.4	-46.0	17.8	0.00e+00	0	38	0	531628032	58	4823
2026-01-22 23:11:15.01	67.65	47.37	-43.4	-46.1	17.7	0.00e+00	0	38	0	533725184	58	4874
2026-01-22 23:11:16.18	68.23	47.56	-43.6	-46.2	17.5	0.00e+00	0	38	0	535822336	58	4981
2026-01-22 23:11:17.03	68.66	47.71	-43.6	-46.2	17.4	0.00e+00	0	38	0	537919488	58	4968
2026-01-22 23:11:18.17	69.24	47.90	-43.6	-46.2	17.5	0.00e+00	0	38	0	540016640	58	4960
2026-01-22 23:11:19.13	69.73	48.05	-43.4	-46.0	17.7	0.00e+00	0	38	0	541065216	58	4826
2026-01-22 23:11:20.13	70.25	48.21	-43.3	-45.8	17.9	0.00e+00	0	38	0	543162368	58	4757
2026-01-22 23:11:21.12	70.77	48.37	-43.1	-45.7	18.0	0.00e+00	0	38	0	545259520	58	4656
2026-01-22 23:11:22.12	71.30	48.53	-42.9	-45.4	18.3	0.00e+00	0	38	0	547356672	57	4767
2026-01-22 23:11:23.11	71.83	48.69	-42.9	-45.3	18.3	0.00e+00	0	38	0	549453824	57	4740
2026-01-22 23:11:24.41	72.54	48.89	-43.1	-45.6	18.1	0.00e+00	0	38	0	551550976	57	4898
2026-01-22 23:11:25.15	72.94	49.00	-43.0	-45.4	18.2	0.00e+00	0	38	0	552599552	57	4802
2026-01-22 23:11:26.77	73.84	49.24	-42.6	-45.0	18.7	0.00e+00	0	39	0	555745280	57	4560
2026-01-22 23:11:27.34	74.16	49.32	-42.5	-44.8	18.8	0.00e+00	0	39	0	556793856	57	4489
2026-01-22 23:11:29.05	75.13	49.57	-43.0	-45.4	18.3	0.00e+00	0	39	0	559939584	56	5087
2026-01-22 23:11:29.61	75.45	49.65	-43.2	-45.7	18.0	0.00e+00	0	38	0	560988160	56	5234
2026-01-22 23:11:31.32	76.43	49.88	-43.3	-45.9	17.8	0.00e+00	0	38	0	564133888	57	5051
2026-01-22 23:11:31.89	76.77	49.96	-43.3	-45.8	17.9	0.00e+00	0	39	0	565182464	57	5020
2026-01-22 23:11:33.59	77.77	50.18	-43.0	-45.5	18.1	0.00e+00	0	38	0	568328192	57	4830
2026-01-22 23:11:34.16	78.11	50.25	-43.0	-45.4	18.2	0.00e+00	0	38	0	569376768	57	4794
2026-01-22 23:11:35.86	79.13	50.47	-43.2	-45.8	17.9	0.00e+00	0	38	0	572522496	57	4994
2026-01-22 23:11:36.43	79.47	50.54	-43.5	-46.1	17.6	0.00e+00	0	38	0	573571072	57	5168
2026-01-22 23:11:38.14	80.52	50.74	-43.6	-46.3	17.4	0.00e+00	0	38	0	576716800	58	5030
2026-01-22 23:11:38.71	80.87	50.80	-43.6	-46.2	17.5	0.00e+00	0	38	0	578813952	58	4978
2026-01-22 23:11:40.60	82.05	51.01	-42.8	-45.3	18.4	0.00e+00	0	38	0	581959680	57	4743
2026-01-22 23:11:41.50	82.61	51.11	-42.6	-45.0	18.6	0.00e+00	0	38	0	584056832	57	4589
2026-01-22 23:11:42.53	83.27	51.22	-42.7	-45.2	18.5	0.00e+00	0	38	0	585105408	57	4655
2026-01-22 23:11:43.52	83.90	51.31	-42.8	-45.3	18.3	0.00e+00	0	38	0	587202560	57	4736
2026-01-22 23:11:44.52	84.54	51.41	-42.7	-45.1	18.5	0.00e+00	0	39	0	589299712	57	4637
2026-01-22 23:11:45.55	85.20	51.51	-42.5	-44.9	18.8	0.00e+00	0	38	0	591396864	56	4814
2026-01-22 23:11:46.54	85.85	51.59	-42.4	-44.8	18.8	0.00e+00	0	38	0	592445440	56	4744
2026-01-22 23:11:47.54	86.50	51.68	-42.4	-44.8	18.8	0.00e+00	0	38	0	594542592	56	4745
2026-01-22 23:11:48.53	87.15	51.76	-42.8	-45.3	18.4	0.00e+00	0	38	0	596639744	56	5006
2026-01-22 23:11:49.53	87.81	51.84	-43.0	-45.5	18.1	0.00e+00	0	38	0	598736896	56	5145
2026-01-22 23:11:50.53	88.48	51.91	-42.7	-45.2	18.4	0.00e+00	0	39	0	600834048	56	4962
2026-01-22 23:11:51.52	89.14	51.98	-42.2	-44.6	19.1	0.00e+00	0	38	0	601882624	56	4599
2026-01-22 23:11:52.52	89.81	52.05	-42.0	-44.3	19.3	0.00e+00	0	39	0	603979776	56	4468
2026-01-22 23:11:53.51	90.48	52.11	-41.9	-44.3	19.2	0.00e+00	0	38	0	606076928	55	4738
2026-01-22 23:11:54.51	91.15	52.17	-42.2	-44.6	18.9	0.00e+00	0	38	0	608174080	55	4875
2026-01-22 23:11:55.50	91.82	52.22	-42.2	-44.6	18.9	0.00e+00	0	38	0	610271232	55	4889
2026-01-22 23:11:56.50	92.50	52.27	-42.0	-44.3	19.2	0.00e+00	0	38	0	611319808	55	4727
2026-01-22 23:11:57.49	93.18	52.32	-41.7	-44.0	19.4	0.00e+00	0	38	0	613416960	55	4578
2026-01-22 23:11:58.49	93.87	52.36	-41.3	-43.6	19.9	0.00e+00	0	38	0	615514112	54	4616
2026-01-22 23:11:59.48	94.55	52.40	-41.6	-43.9	19.6	0.00e+00	0	38	0	617611264	54	4770
2026-01-22 23:12:00.48	95.24	52.44	-41.8	-44.2	19.3	0.00e+00	0	38	0	618659840	54	4936
2026-01-22 23:12:01.47	95.92	52.47	-42.1	-44.4	19.1	0.00e+00	0	38	0	620756992	54	5087
2026-01-22 23:12:02.47	96.61	52.49	-41.4	-43.6	19.8	0.00e+00	0	38	0	622854144	54	4635
2026-01-22 23:12:03.46	97.30	52.51	-41.1	-43.2	20.2	0.00e+00	0	38	0	624951296	54	4409
2026-01-22 23:12:04.45	97.99	52.53	-41.3	-43.5	19.9	0.00e+00	0	38	0	627048448	54	4596
2026-01-22 23:12:05.45	98.68	52.54	-41.6	-43.9	19.5	0.00e+00	0	38	0	628097024	54	4788
2026-01-22 23:12:06.44	99.37	52.55	-41.7	-44.0	19.5	0.00e+00	0	38	0	630194176	54	4835
2026-01-22 23:12:07.44	100.06	52.56	-41.1	-43.3	20.1	0.00e+00	0	38	0	632291328	54	4464
2026-01-22 23:12:08.43	100.75	52.56	-41.0	-43.1	20.2	0.00e+00	0	38	0	634388480	54	4357
2026-01-22 23:12:09.42	101.44	52.55	-41.1	-43.2	20.2	0.00e+00	0	38	0	635437056	53	4675
2026-01-22 23:12:10.42	102.14	52.55	-41.5	-43.7	19.7	0.00e+00	0	38	0	637534208	53	4949
2026-01-22 23:12:11.41	102.82	52.53	-41.7	-43.9	19.5	0.00e+00	0	38	0	639631360	54	4814
2026-01-22 23:12:12.41	103.52	52.52	-41.7	-43.9	19.5	0.00e+00	0	38	0	641728512	54	4778
2026-01-22 23:12:13.40	104.21	52.50	-41.5	-43.7	19.8	0.00e+00	0	38	0	643825664	54	4657
2026-01-22 23:12:14.40	104.90	52.47	-41.7	-44.0	19.4	0.00e+00	0	38	0	644874240	54	4845
2026-01-22 23:12:15.39	105.58	52.44	-41.6	-43.9	19.6	0.00e+00	0	38	0	646971392	54	4761
2026-01-22 23:12:16.39	106.27	52.41	-41.3	-43.5	19.9	0.00e+00	0	38	0	649068544	54	4546
2026-01-22 23:12:17.38	106.95	52.37	-40.9	-43.0	20.3	0.00e+00	0	38	0	651165696	53	4588
2026-01-22 23:12:18.45	107.69	52.33	-41.1	-43.3	20.1	0.00e+00	0	38	0	653262848	53	4733
2026-01-22 23:12:19.34	108.30	52.29	-41.0	-43.1	20.2	0.00e+00	0	38	0	654311424	53	4641
2026-01-22 23:12:20.47	109.07	52.23	-41.2	-43.4	19.9	0.00e+00	0	38	0	656408576	53	4805
2026-01-22 23:12:21.33	109.65	52.19	-40.9	-43.1	20.2	0.00e+00	0	38	0	658505728	53	4643
2026-01-22 23:12:22.46	110.42	52.12	-40.9	-43.1	20.2	0.00e+00	0	39	0	660602880	53	4612
2026-01-22 23:12:23.32	111.00	52.07	-41.0	-43.1	20.2	0.00e+00	0	38	0	661651456	53	4602
2026-01-22 23:12:24.45	111.76	51.99	-41.3	-43.5	19.9	0.00e+00	0	38	0	663748608	53	4827
2026-01-22 23:12:25.31	112.33	51.93	-41.8	-44.1	19.3	0.00e+00	0	38	0	665845760	54	4902
2026-01-22 23:12:26.44	113.08	51.85	-41.8	-44.0	19.4	0.00e+00	0	38	0	667942912	54	4869
2026-01-22 23:12:27.29	113.65	51.78	-41.6	-43.8	19.6	0.00e+00	0	38	0	668991488	54	4750
2026-01-22 23:12:28.43	114.40	51.69	-41.6	-43.8	19.6	0.00e+00	0	38	0	671088640	54	4733
2026-01-22 23:12:29.29	114.96	51.62	-42.5	-44.9	18.6	0.00e+00	0	38	0	673185792	55	5053
2026-01-22 23:12:30.42	115.70	51.52	-43.2	-45.8	17.9	0.00e+00	0	38	0	675282944	57	4988
2026-01-22 23:12:31.28	116.26	51.44	-43.1	-45.7	18.0	0.00e+00	0	38	0	676331520	57	4928
2026-01-22 23:12:32.52	117.05	51.32	-42.9	-45.4	18.2	0.00e+00	0	38	0	679477248	57	4784
2026-01-22 23:12:33.37	117.60	51.24	-43.1	-45.7	18.0	0.00e+00	0	38	0	680525824	57	4943
2026-01-22 23:12:34.51	118.32	51.12	-44.0	-46.8	16.9	0.00e+00	0	38	0	682622976	58	5293
2026-01-22 23:12:35.36	118.86	51.03	-44.1	-46.9	16.8	0.00e+00	0	38	0	684720128	59	5090
2026-01-22 23:12:36.50	119.57	50.91	-43.5	-46.2	17.5	0.00e+00	0	38	0	686817280	59	4658
2026-01-22 23:12:37.35	120.10	50.81	-43.0	-45.5	18.2	0.00e+00	0	38	0	687865856	58	4553
2026-01-22 23:12:38.49	120.80	50.68	-43.3	-45.9	17.8	0.00e+00	0	38	0	689963008	57	5054
2026-01-22 23:12:39.34	121.32	50.58	-44.1	-46.9	16.8	0.00e+00	0	38	0	692060160	58	5355
2026-01-22 23:12:40.48	122.02	50.44	-44.4	-47.3	16.3	0.00e+00	0	38	0	694157312	59	5325
2026-01-22 23:12:41.33	122.53	50.33	-44.6	-47.6	16.0	0.00e+00	0	38	0	695205888	60	5206
2026-01-22 23:12:42.47	123.21	50.19	-43.8	-46.5	17.1	0.00e+00	0	38	0	698351616	59	4840
2026-01-22 23:12:43.32	123.71	50.08	-43.6	-46.3	17.4	0.00e+00	0	38	0	699400192	59	4729
2026-01-22 23:12:44.46	124.38	49.92	-43.9	-46.7	17.0	0.00e+00	0	38	0	701497344	59	4965
2026-01-22 23:12:45.31	124.88	49.81	-44.7	-47.7	16.0	0.00e+00	0	38	0	703594496	59	5573
2026-01-22 23:12:46.51	125.57	49.64	-45.0	-48.3	15.4	0.00e+00	0	38	0	705691648	60	5613
2026-01-22 23:12:47.36	126.06	49.52	-45.1	-48.4	15.3	0.00e+00	0	38	0	706740224	60	5679
2026-01-22 23:12:48.50	126.70	49.36	-45.4	-48.8	15.0	0.00e+00	0	38	0	708837376	61	5613
2026-01-22 23:12:49.35	127.18	49.23	-45.6	-49.1	14.6	0.00e+00	0	39	0	710934528	61	5809
2026-01-22 23:12:50.63	127.89	49.04	-45.7	-49.4	14.4	7.00e-07	0	38	0	713031680	62	5683
2026-01-22 23:12:51.34	128.28	48.94	-45.6	-49.2	14.4	2.20e-06	0	38	0	714080256	62	5573
2026-01-22 23:12:52.62	128.98	48.74	-45.4	-48.8	14.9	0.00e+00	0	38	0	717225984	62	5315
2026-01-22 23:12:53.33	129.36	48.63	-45.1	-48.4	15.3	0.00e+00	0	38	0	718274560	62	5077
2026-01-22 23:12:54.61	130.05	48.43	-45.2	-48.6	15.1	0.00e+00	0	39	0	720371712	62	5213
2026-01-22 23:12:55.32	130.42	48.31	-45.4	-48.9	14.8	0.00e+00	0	38	0	721420288	62	5401
2026-01-22 23:12:56.60	131.09	48.11	-46.1	-49.9	13.8	2.20e-06	0	38	0	724566016	62	6041
2026-01-22 23:12:57.33	131.47	47.99	-46.2	-50.2	13.5	6.10e-06	0	38	0	725614592	63	5877
2026-01-22 23:12:58.61	132.13	47.78	-45.4	-48.9	14.7	2.20e-06	0	38	0	727711744	62	5367
2026-01-22 23:12:59.46	132.56	47.63	-45.2	-48.6	15.1	0.00e+00	0	38	0	729808896	62	5184
2026-01-22 23:13:00.60	133.13	47.44	-45.2	-48.7	15.0	0.00e+00	0	39	0	731906048	62	5240
2026-01-22 23:13:01.46	133.56	47.29	-45.8	-49.5	14.2	7.00e-07	0	38	0	732954624	62	5784
2026-01-22 23:13:02.59	134.11	47.10	-46.4	-50.8	13.1	1.29e-05	0	38	0	735051776	63	6277
2026-01-22 23:13:03.79	134.70	46.89	-46.2	-50.3	13.4	3.05e-05	0	38	0	738197504	63	5952
2026-01-22 23:13:04.82	135.19	46.71	-45.4	-48.9	14.8	7.00e-07	0	38	0	739246080	62	5358
2026-01-22 23:13:05.82	135.66	46.53	-45.1	-48.3	15.4	0.00e+00	0	38	0	741343232	62	5017
2026-01-22 23:13:07.03	136.23	46.32	-45.1	-48.5	15.3	0.00e+00	0	38	0	743440384	62	5101
2026-01-22 23:13:07.89	136.62	46.16	-45.1	-48.3	15.3	0.00e+00	0	38	0	745537536	62	5033
2026-01-22 23:13:09.02	137.14	45.96	-44.2	-47.1	16.5	0.00e+00	0	38	0	747634688	60	4912
2026-01-22 23:13:09.87	137.53	45.80	-43.6	-46.2	17.4	0.00e+00	0	38	0	748683264	59	4703
2026-01-22 23:13:11.01	138.03	45.60	-43.3	-45.9	17.8	0.00e+00	0	38	0	751828992	58	4763
2026-01-22 23:13:11.86	138.41	45.44	-43.2	-45.8	17.9	0.00e+00	0	38	0	752877568	58	4717
2026-01-22 23:13:13.00	138.91	45.23	-43.5	-46.1	17.5	0.00e+00	0	38	0	754974720	58	4913
2026-01-22 23:13:13.85	139.28	45.07	-43.9	-46.7	17.0	0.00e+00	0	38	0	757071872	58	5227
2026-01-22 23:13:14.99	139.76	44.86	-44.6	-47.6	16.1	0.00e+00	0	38	0	759169024	59	5476
2026-01-22 23:13:15.84	140.12	44.70	-44.6	-47.7	16.0	0.00e+00	0	38	0	760217600	60	5242
2026-01-22 23:13:16.97	140.59	44.49	-44.1	-46.9	16.8	0.00e+00	0	38	0	762314752	60	4788
2026-01-22 23:13:17.83	140.95	44.32	-43.6	-46.2	17.4	0.00e+00	0	38	0	764411904	59	4697
2026-01-22 23:13:18.96	141.41	44.11	-43.6	-46.3	17.4	0.00e+00	0	38	0	766509056	58	4985
2026-01-22 23:13:19.81	141.75	43.95	-43.9	-46.6	17.0	0.00e+00	0	38	0	767557632	58	5214
2026-01-22 23:13:20.95	142.20	43.73	-44.6	-47.7	15.9	0.00e+00	0	38	0	769654784	59	5585
2026-01-22 23:13:21.80	142.54	43.57	-45.1	-48.5	15.2	0.00e+00	0	38	0	771751936	60	5741
2026-01-22 23:13:22.94	142.98	43.35	-45.0	-48.3	15.4	0.00e+00	0	38	0	773849088	61	5315
2026-01-22 23:13:23.80	143.31	43.18	-44.4	-47.5	16.2	0.00e+00	0	38	0	774897664	60	5131
2026-01-22 23:13:24.93	143.74	42.96	-43.6	-46.2	17.4	0.00e+00	0	38	0	776994816	59	4697
2026-01-22 23:13:25.78	144.06	42.80	-43.4	-45.9	17.7	0.00e+00	0	39	0	779091968	58	4797
2026-01-22 23:13:26.92	144.48	42.58	-43.6	-46.2	17.5	0.00e+00	0	38	0	781189120	58	4971
2026-01-22 23:13:27.77	144.79	42.41	-44.8	-48.0	15.8	0.00e+00	0	38	0	783286272	60	5415
2026-01-22 23:13:28.91	145.21	42.19	-46.4	-50.6	13.1	7.00e-07	0	39	0	785383424	63	6157
2026-01-22 23:13:29.76	145.51	42.03	-46.9	-51.7	11.7	1.19e-04	0	38	0	786432000	64	6646
2026-01-22 23:13:30.93	145.92	41.80	-46.2	-50.4	13.1	1.16e-04	0	38	0	788529152	64	5663
2026-01-22 23:13:31.79	146.22	41.63	-45.8	-49.6	14.1	9.90e-06	0	38	0	790626304	63	5482
2026-01-22 23:13:32.93	146.62	41.41	-45.6	-49.1	14.6	0.00e+00	0	39	0	792723456	63	5202
2026-01-22 23:13:33.78	146.91	41.25	-45.9	-49.7	14.0	7.00e-07	0	38	0	793772032	63	5554
2026-01-22 23:13:34.92	147.29	41.02	-46.9	-51.6	12.0	6.25e-05	0	38	0	795869184	64	6558
2026-01-22 23:13:35.77	147.57	40.86	-47.5	-53.1	10.4	1.10e-03	0	38	0	797966336	65	7291
2026-01-22 23:13:36.91	147.95	40.64	-47.6	-53.3	10.1	1.14e-02	0	39	0	800063488	66	7070
2026-01-22 23:13:37.76	148.23	40.47	-46.6	-51.1	12.5	6.56e-04	0	38	0	801112064	65	5797
2026-01-22 23:13:38.90	148.59	40.25	-45.7	-49.3	14.4	8.30e-06	0	38	0	803209216	63	5325
2026-01-22 23:13:39.75	148.86	40.08	-45.7	-49.4	14.4	7.00e-07	0	38	0	805306368	63	5347
2026-01-22 23:13:40.89	149.22	39.86	-46.4	-50.5	13.2	1.22e-05	0	39	0	807403520	63	6105
2026-01-22 23:13:41.75	149.49	39.69	-47.2	-52.2	11.2	1.68e-04	0	38	0	809500672	65	6579
2026-01-22 23:13:42.88	149.84	39.47	-48.6	-56.6	6.9	2.33e-02	0	39	0	811597824	67	9812
2026-01-22 23:13:43.73	150.09	39.31	-48.6	-55.9	7.4	2.39e-01	0	38	0	812646400	68	8490
2026-01-22 23:13:44.87	150.44	39.09	-46.1	-50.0	13.4	1.01e-03	0	39	0	814743552	64	5450
2026-01-22 23:13:45.72	150.69	38.92	-45.1	-48.3	15.3	0.00e+00	0	39	0	816840704	62	5019
2026-01-22 23:13:46.86	151.02	38.70	-44.1	-47.0	16.7	0.00e+00	0	39	0	818937856	60	4841
2026-01-22 23:13:47.71	151.27	38.54	-44.4	-47.4	16.3	0.00e+00	0	39	0	819986432	60	5049
2026-01-22 23:13:48.85	151.59	38.32	-45.0	-48.1	15.6	0.00e+00	0	39	0	822083584	60	5514
2026-01-22 23:13:49.70	151.83	38.15	-45.5	-48.9	14.7	0.00e+00	0	38	0	824180736	61	5718
2026-01-22 23:13:51.03	152.21	37.90	-45.9	-49.6	14.1	7.00e-07	0	38	0	826277888	62	5844
2026-01-22 23:13:51.74	152.40	37.76	-46.0	-49.8	13.9	2.20e-06	0	39	0	827326464	62	5975
2026-01-22 23:13:53.02	152.75	37.52	-45.4	-48.9	14.8	7.00e-07	0	39	0	830472192	62	5350
2026-01-22 23:13:53.73	152.94	37.38	-44.8	-47.9	15.7	0.00e+00	0	39	0	831520768	61	5087
2026-01-22 23:13:55.01	153.28	37.14	-44.1	-47.0	16.7	0.00e+00	0	38	0	833617920	60	4838
2026-01-22 23:13:55.72	153.47	37.00	-44.0	-46.9	16.8	0.00e+00	0	39	0	834666496	59	5049
2026-01-22 23:13:57.00	153.80	36.76	-43.9	-46.8	16.9	0.00e+00	0	39	0	837812224	59	4989
2026-01-22 23:13:57.71	153.99	36.63	-44.2	-47.2	16.4	0.00e+00	0	39	0	838860800	59	5243
2026-01-22 23:13:58.99	154.31	36.38	-45.2	-48.7	15.0	0.00e+00	0	38	0	840957952	61	5529
2026-01-22 23:13:59.71	154.50	36.25	-45.5	-49.1	14.6	7.00e-07	0	39	0	843055104	61	5816
2026-01-22 23:14:00.98	154.81	36.01	-45.1	-48.5	15.2	0.00e+00	0	38	0	845152256	61	5403
2026-01-22 23:14:01.70	154.99	35.88	-44.8	-48.1	15.6	0.00e+00	0	38	0	846200832	61	5164
2026-01-22 23:14:02.97	155.30	35.64	-44.2	-47.1	16.5	0.00e+00	0	38	0	848297984	60	4888
2026-01-22 23:14:03.68	155.47	35.51	-44.0	-46.7	16.9	0.00e+00	0	38	0	850395136	59	4977
2026-01-22 23:14:04.96	155.77	35.27	-43.7	-46.4	17.2	0.00e+00	0	38	0	852492288	59	4774
2026-01-22 23:14:05.69	155.95	35.13	-43.7	-46.3	17.3	0.00e+00	0	38	0	853540864	59	4745
2026-01-22 23:14:06.97	156.24	34.90	-43.7	-46.4	17.1	0.00e+00	0	38	0	856686592	59	4813
2026-01-22 23:14:07.68	156.41	34.77	-44.0	-46.9	16.7	0.00e+00	0	38	0	857735168	59	5057
2026-01-22 23:14:08.96	156.70	34.53	-44.9	-48.2	15.5	0.00e+00	0	39	0	859832320	60	5536
2026-01-22 23:14:09.70	156.87	34.40	-45.1	-48.6	15.1	0.00e+00	0	38	0	861929472	60	5821
2026-01-22 23:14:11.21	157.20	34.12	-44.9	-48.3	15.3	0.00e+00	0	38	0	864026624	60	5641
2026-01-22 23:14:11.93	157.36	33.99	-44.7	-47.9	15.7	0.00e+00	0	38	0	865075200	60	5369
2026-01-22 23:14:13.21	157.64	33.76	-44.3	-47.3	16.4	0.00e+00	0	38	0	868220928	60	4994
2026-01-22 23:14:14.28	157.87	33.57	-43.7	-46.4	17.2	0.00e+00	0	38	0	870318080	59	4783
2026-01-22 23:14:15.13	158.05	33.41	-43.3	-45.9	17.7	0.00e+00	0	38	0	871366656	58	4775
2026-01-22 23:14:16.27	158.29	33.21	-43.7	-46.4	17.2	0.00e+00	0	38	0	873463808	58	5074
2026-01-22 23:14:17.12	158.47	33.06	-44.5	-47.4	16.1	0.00e+00	0	38	0	875560960	59	5386
2026-01-22 23:14:18.29	158.71	32.85	-45.5	-49.2	14.5	0.00e+00	0	38	0	877658112	61	5861
2026-01-22 23:14:19.14	158.88	32.70	-46.1	-50.2	13.5	2.20e-06	0	38	0	878706688	62	6207
2026-01-22 23:14:20.37	159.13	32.48	-46.1	-50.4	13.2	2.36e-05	0	38	0	881852416	63	6001
2026-01-22 23:14:21.22	159.30	32.33	-45.6	-49.5	14.1	1.14e-05	0	38	0	882900992	63	5438
2026-01-22 23:14:22.43	159.54	32.12	-44.9	-48.3	15.3	0.00e+00	0	38	0	884998144	61	5316
2026-01-22 23:14:23.28	159.70	31.97	-44.5	-47.7	15.9	0.00e+00	0	38	0	887095296	61	4962
2026-01-22 23:14:24.41	159.92	31.78	-43.7	-46.6	17.0	0.00e+00	0	39	0	889192448	59	4876
2026-01-22 23:14:25.27	160.08	31.63	-43.5	-46.2	17.3	0.00e+00	0	39	0	890241024	58	4981
2026-01-22 23:14:26.51	160.32	31.41	-43.5	-46.2	17.4	0.00e+00	0	38	0	893386752	58	4978
2026-01-22 23:14:27.37	160.48	31.27	-43.7	-46.4	17.1	0.00e+00	0	38	0	894435328	58	5100
2026-01-22 23:14:28.50	160.69	31.07	-44.3	-47.3	16.3	0.00e+00	0	38	0	896532480	59	5322
2026-01-22 23:14:29.39	160.85	30.92	-44.8	-48.0	15.6	0.00e+00	0	38	0	898629632	60	5427
2026-01-22 23:14:30.68	161.08	30.70	-44.9	-48.3	15.3	0.00e+00	0	38	0	900726784	60	5644
2026-01-22 23:14:31.39	161.21	30.58	-44.9	-48.4	15.3	0.00e+00	0	39	0	901775360	60	5665
2026-01-22 23:14:32.84	161.47	30.34	-44.8	-48.1	15.5	0.00e+00	0	38	0	904921088	60	5528
2026-01-22 23:14:33.55	161.59	30.22	-44.6	-47.9	15.8	7.00e-07	0	38	0	905969664	60	5345
2026-01-22 23:14:34.83	161.81	30.01	-44.1	-47.1	16.5	0.00e+00	0	38	0	908066816	60	4903
2026-01-22 23:14:35.54	161.94	29.89	-44.2	-47.1	16.5	0.00e+00	0	39	0	910163968	60	4918
2026-01-22 23:14:36.82	162.15	29.68	-44.0	-46.9	16.7	0.00e+00	0	39	0	912261120	60	4813
2026-01-22 23:14:37.55	162.28	29.56	-44.1	-47.1	16.6	0.00e+00	0	38	0	913309696	60	4876
2026-01-22 23:14:38.82	162.49	29.35	-43.9	-46.6	16.9	0.00e+00	0	39	0	916455424	59	4923
2026-01-22 23:14:39.54	162.61	29.23	-43.7	-46.5	17.1	0.00e+00	0	38	0	917504000	59	4821
2026-01-22 23:14:40.82	162.82	29.03	-43.8	-46.5	17.0	0.00e+00	0	38	0	919601152	59	4838
2026-01-22 23:14:41.56	162.94	28.91	-43.6	-46.3	17.3	0.00e+00	0	38	0	920649728	59	4719
2026-01-22 23:14:42.84	163.14	28.70	-43.5	-46.1	17.4	0.00e+00	0	38	0	923795456	58	4920
2026-01-22 23:14:43.55	163.25	28.59	-43.5	-46.2	17.4	0.00e+00	0	38	0	924844032	58	4935
2026-01-22 23:14:44.83	163.45	28.38	-43.7	-46.4	17.1	0.00e+00	0	38	0	926941184	58	5073
2026-01-22 23:14:45.68	163.59	28.25	-43.9	-46.8	16.9	0.00e+00	0	38	0	929038336	58	5280
2026-01-22 23:14:46.82	163.76	28.07	-44.2	-47.1	16.4	0.00e+00	0	38	0	931135488	59	5212
2026-01-22 23:14:47.90	163.93	27.90	-44.5	-47.5	16.0	0.00e+00	0	38	0	933232640	59	5464
2026-01-22 23:14:48.75	164.06	27.76	-44.6	-47.8	15.8	0.00e+00	0	38	0	934281216	59	5613
2026-01-22 23:14:49.89	164.23	27.58	-44.6	-47.8	15.8	0.00e+00	0	38	0	936378368	60	5326
2026-01-22 23:14:50.74	164.35	27.45	-44.5	-47.6	16.0	0.00e+00	0	38	0	938475520	60	5170
2026-01-22 23:14:51.87	164.52	27.28	-44.0	-46.9	16.7	0.00e+00	0	38	0	940572672	60	4794
2026-01-22 23:14:52.73	164.64	27.14	-43.7	-46.4	17.1	0.00e+00	0	38	0	941621248	59	4814
2026-01-22 23:14:53.86	164.81	26.97	-43.2	-45.7	17.8	0.00e+00	0	38	0	943718400	58	4683
2026-01-22 23:14:54.71	164.93	26.84	-43.1	-45.6	17.9	0.00e+00	0	38	0	945815552	58	4635
2026-01-22 23:14:55.85	165.09	26.67	-43.1	-45.7	17.8	0.00e+00	0	38	0	947912704	58	4669
2026-01-22 23:14:56.71	165.21	26.54	-43.1	-45.7	17.9	0.00e+00	0	38	0	950009856	58	4678
2026-01-22 23:14:57.84	165.37	26.37	-43.5	-46.1	17.4	0.00e+00	0	38	0	952107008	58	4924
2026-01-22 23:14:58.70	165.48	26.24	-43.8	-46.6	17.0	0.00e+00	0	39	0	953155584	58	5174
2026-01-22 23:14:59.83	165.64	26.07	-43.9	-46.7	16.8	0.00e+00	0	38	0	955252736	58	5243
2026-01-22 23:15:00.69	165.75	25.94	-44.2	-47.2	16.4	0.00e+00	0	38	0	957349888	59	5247
2026-01-22 23:15:02.08	165.94	25.74	-44.2	-47.1	16.2	0.00e+00	0	38	0	959447040	59	5205
2026-01-22 23:15:02.79	166.03	25.63	-44.4	-47.4	16.1	0.00e+00	0	38	0	960495616	59	5375
2026-01-22 23:15:04.26	166.23	25.42	-44.3	-47.2	16.3	0.00e+00	0	38	0	963641344	59	5279
2026-01-22 23:15:04.97	166.32	25.31	-44.1	-47.0	16.5	0.00e+00	0	38	0	964689920	59	5122
2026-01-22 23:15:06.25	166.48	25.13	-44.0	-46.8	16.7	0.00e+00	0	38	0	967835648	59	5031
2026-01-22 23:15:06.97	166.58	25.02	-44.0	-46.9	16.6	0.00e+00	0	39	0	968884224	59	5069
2026-01-22 23:15:08.25	166.74	24.84	-43.9	-46.7	16.7	0.00e+00	0	38	0	970981376	59	4976
2026-01-22 23:15:08.98	166.83	24.73	-43.8	-46.6	16.9	0.00e+00	0	39	0	972029952	59	4908
2026-01-22 23:15:10.25	166.99	24.55	-43.9	-46.7	16.8	0.00e+00	0	39	0	975175680	59	4963
2026-01-22 23:15:10.96	167.07	24.45	-43.9	-46.7	16.8	0.00e+00	0	38	0	976224256	59	4948
2026-01-22 23:15:12.24	167.23	24.27	-43.5	-46.3	17.2	0.00e+00	0	38	0	978321408	59	4706
2026-01-22 23:15:12.97	167.32	24.17	-43.4	-46.1	17.4	0.00e+00	0	38	0	980418560	58	4896
2026-01-22 23:15:14.25	167.47	23.99	-43.1	-45.8	17.7	0.00e+00	0	38	0	982515712	58	4726
2026-01-22 23:15:14.98	167.56	23.89	-43.1	-45.7	17.8	0.00e+00	0	38	0	983564288	58	4673
2026-01-22 23:15:16.25	167.71	23.71	-43.0	-45.5	17.9	0.00e+00	0	38	0	986710016	58	4589
2026-01-22 23:15:16.97	167.79	23.61	-43.0	-45.5	17.9	0.00e+00	0	39	0	987758592	57	4861
2026-01-22 23:15:18.24	167.94	23.43	-43.1	-45.6	17.8	0.00e+00	0	38	0	989855744	57	4900
2026-01-22 23:15:19.22	168.05	23.30	-43.3	-45.9	17.6	0.00e+00	0	38	0	991952896	57	5076
2026-01-22 23:15:20.22	168.17	23.16	-43.4	-46.1	17.4	0.00e+00	0	38	0	994050048	57	5179
2026-01-22 23:15:21.21	168.28	23.03	-43.7	-46.5	17.0	0.00e+00	0	38	0	995098624	57	5403
2026-01-22 23:15:22.54	168.43	22.85	-43.9	-46.8	16.7	0.00e+00	0	38	0	998244352	58	5324
2026-01-22 23:15:23.25	168.51	22.75	-44.1	-47.0	16.5	0.00e+00	0	39	0	999292928	58	5463
2026-01-22 23:15:24.53	168.65	22.58	-44.1	-47.1	16.4	0.00e+00	0	38	0	1001390080	58	5483
2026-01-22 23:15:25.27	168.73	22.48	-44.0	-47.0	16.5	0.00e+00	0	38	0	1003487232	58	5457
2026-01-22 23:15:26.54	168.87	22.32	-43.8	-46.8	16.7	0.00e+00	0	38	0	1005584384	58	5303
2026-01-22 23:15:27.25	168.94	22.22	-43.7	-46.6	16.9	0.00e+00	0	38	0	1006632960	58	5160
2026-01-22 23:15:28.53	169.08	22.05	-43.4	-46.1	17.3	0.00e+00	0	38	0	1008730112	58	4924
2026-01-22 23:15:29.24	169.15	21.96	-43.3	-45.9	17.5	0.00e+00	0	38	0	1010827264	58	4798
2026-01-22 23:15:30.65	169.30	21.78	-43.2	-45.9	17.6	0.00e+00	0	38	0	1012924416	58	4772
2026-01-22 23:15:31.36	169.37	21.68	-43.1	-45.7	17.7	0.00e+00	0	38	0	1015021568	58	4689
2026-01-22 23:15:32.64	169.51	21.52	-42.8	-45.3	18.1	0.00e+00	0	38	0	1017118720	57	4751
2026-01-22 23:15:33.35	169.58	21.43	-42.7	-45.3	18.1	0.00e+00	0	38	0	1018167296	57	4740
2026-01-22 23:15:34.63	169.71	21.26	-42.8	-45.4	18.0	0.00e+00	0	38	0	1020264448	57	4802
2026-01-22 23:15:35.35	169.78	21.17	-42.8	-45.4	18.0	0.00e+00	0	38	0	1022361600	57	4780
2026-01-22 23:15:36.63	169.91	21.01	-43.0	-45.6	17.8	0.00e+00	0	38	0	1024458752	57	4900
2026-01-22 23:15:37.35	169.98	20.92	-43.0	-45.6	17.8	0.00e+00	0	38	0	1025507328	57	4919
2026-01-22 23:15:38.63	170.11	20.76	-43.1	-45.7	17.7	0.00e+00	0	38	0	1027604480	57	4955
2026-01-22 23:15:39.36	170.18	20.67	-43.2	-45.8	17.6	0.00e+00	0	38	0	1029701632	57	5026
2026-01-22 23:15:40.64	170.30	20.51	-43.3	-46.0	17.4	0.00e+00	0	38	0	1031798784	57	5113
2026-01-22 23:15:41.46	170.38	20.40	-43.3	-46.0	17.4	0.00e+00	0	38	0	1033895936	57	5134
2026-01-22 23:15:42.60	170.49	20.26	-43.2	-45.8	17.6	0.00e+00	0	38	0	1035993088	57	5026
2026-01-22 23:15:43.64	170.59	20.14	-43.1	-45.8	17.6	0.00e+00	0	38	0	1037041664	57	5013
2026-01-22 23:15:44.59	170.67	20.02	-43.2	-46.0	17.5	0.00e+00	0	39	0	1039138816	57	5112
2026-01-22 23:15:45.58	170.77	19.90	-43.0	-45.6	17.8	0.00e+00	0	39	0	1041235968	57	4913
2026-01-22 23:15:46.57	170.86	19.78	-42.9	-45.5	17.9	0.00e+00	0	38	0	1043333120	57	4819
2026-01-22 23:15:47.57	170.95	19.66	-42.8	-45.4	18.0	0.00e+00	0	39	0	1044381696	57	4771
2026-01-22 23:15:48.56	171.04	19.54	-42.8	-45.4	18.0	0.00e+00	0	39	0	1046478848	57	4760
2026-01-22 23:15:49.56	171.13	19.42	-42.5	-45.1	18.3	0.00e+00	0	38	0	1048576000	57	4605
2026-01-22 23:15:50.55	171.22	19.30	-42.4	-44.9	18.5	0.00e+00	0	39	0	1050673152	56	4779
2026-01-22 23:15:51.55	171.31	19.18	-42.3	-44.7	18.6	0.00e+00	0	38	0	1052770304	56	4679
2026-01-22 23:15:52.54	171.39	19.06	-42.2	-44.6	18.7	0.00e+00	0	38	0	1053818880	56	4639
2026-01-22 23:15:53.54	171.48	18.95	-42.2	-44.6	18.7	0.00e+00	0	38	0	1055916032	56	4620
2026-01-22 23:15:54.54	171.57	18.83	-42.1	-44.5	18.8	0.00e+00	0	38	0	1058013184	56	4589
2026-01-22 23:15:55.53	171.65	18.71	-42.1	-44.5	18.9	0.00e+00	0	38	0	1060110336	56	4558
2026-01-22 23:15:56.53	171.74	18.60	-42.2	-44.5	18.8	0.00e+00	0	38	0	1061158912	56	4598
2026-01-22 23:15:57.52	171.82	18.48	-42.0	-44.4	18.9	0.00e+00	0	39	0	1063256064	56	4513
2026-01-22 23:15:58.52	171.91	18.37	-42.1	-44.5	18.8	0.00e+00	0	38	0	1065353216	56	4562
2026-01-22 23:15:59.51	171.99	18.25	-42.0	-44.4	19.0	0.00e+00	0	38	0	1067450368	56	4504
2026-01-22 23:16:00.51	172.07	18.14	-42.0	-44.4	19.0	0.00e+00	0	38	0	1069547520	56	4514
2026-01-22 23:16:01.50	172.16	18.02	-42.1	-44.5	18.9	0.00e+00	0	38	0	1070596096	56	4546
2026-01-22 23:16:02.50	172.24	17.91	-42.2	-44.6	18.7	0.00e+00	0	39	0	1072693248	56	4615
2026-01-22 23:16:03.49	172.32	17.80	-42.3	-44.7	18.6	0.00e+00	0	38	0	1074790400	56	4671
2026-01-22 23:16:04.49	172.40	17.69	-42.3	-44.8	18.6	0.00e+00	0	38	0	1076887552	56	4710
2026-01-22 23:16:05.49	172.48	17.57	-42.4	-44.9	18.5	0.00e+00	0	38	0	1077936128	56	4764
2026-01-22 23:16:06.48	172.56	17.46	-42.4	-44.9	18.4	0.00e+00	0	38	0	1080033280	56	4783
2026-01-22 23:16:07.47	172.64	17.35	-42.5	-45.0	18.3	0.00e+00	0	38	0	1082130432	56	4846
2026-01-22 23:16:08.49	172.72	17.24	-42.6	-45.1	18.2	0.00e+00	0	38	0	1084227584	56	4903
2026-01-22 23:16:09.48	172.79	17.13	-42.7	-45.2	18.1	0.00e+00	0	38	0	1086324736	56	4963
2026-01-22 23:16:10.57	172.88	17.01	-42.8	-45.4	17.9	0.00e+00	0	38	0	1088421888	56	5078
2026-01-22 23:16:11.42	172.94	16.92	-42.8	-45.4	17.9	0.00e+00	0	38	0	1089470464	56	5099
2026-01-22 23:16:12.56	173.03	16.79	-42.7	-45.3	18.0	0.00e+00	0	38	0	1091567616	56	5028
2026-01-22 23:16:13.41	173.10	16.70	-42.7	-45.4	18.0	0.00e+00	0	38	0	1093664768	56	5046
2026-01-22 23:16:14.54	173.18	16.58	-42.7	-45.3	18.1	0.00e+00	0	38	0	1095761920	56	5002
2026-01-22 23:16:15.39	173.24	16.49	-42.7	-45.2	18.1	0.00e+00	0	38	0	1096810496	56	4976
2026-01-22 23:16:16.53	173.33	16.37	-42.6	-45.2	18.1	0.00e+00	0	38	0	1098907648	56	4946
2026-01-22 23:16:17.39	173.39	16.27	-42.6	-45.2	18.1	0.00e+00	0	38	0	1101004800	56	4968
2026-01-22 23:16:18.52	173.48	16.15	-42.7	-45.3	18.0	0.00e+00	0	38	0	1103101952	56	5015
2026-01-22 23:16:19.37	173.54	16.06	-42.8	-45.4	17.9	0.00e+00	0	38	0	1104150528	56	5082
2026-01-22 23:16:20.51	173.62	15.94	-42.5	-45.0	18.3	0.00e+00	0	38	0	1106247680	56	4859
2026-01-22 23:16:21.36	173.68	15.85	-42.4	-45.0	18.4	0.00e+00	0	38	0	1108344832	56	4823
2026-01-22 23:16:22.50	173.76	15.73	-42.4	-44.9	18.4	0.00e+00	0	38	0	1110441984	56	4795
2026-01-22 23:16:23.35	173.82	15.65	-42.5	-45.0	18.3	0.00e+00	0	38	0	1112539136	56	4864
2026-01-22 23:16:24.50	173.90	15.53	-42.4	-45.0	18.3	0.00e+00	0	39	0	1114636288	56	4843
2026-01-22 23:16:25.35	173.96	15.44	-42.6	-45.1	18.2	0.00e+00	0	38	0	1115684864	56	4920
2026-01-22 23:16:26.55	174.05	15.31	-42.4	-45.0	18.3	0.00e+00	0	38	0	1117782016	56	4844
2026-01-22 23:16:27.41	174.11	15.23	-42.5	-45.0	18.3	0.00e+00	0	38	0	1119879168	56	4856
2026-01-22 23:16:28.61	174.19	15.10	-42.5	-45.1	18.1	0.00e+00	0	39	0	1121976320	56	4910
2026-01-22 23:16:29.46	174.25	15.02	-42.6	-45.2	18.1	0.00e+00	0	38	0	1123024896	56	4941
2026-01-22 23:16:30.60	174.32	14.90	-42.6	-45.1	18.2	0.00e+00	0	38	0	1125122048	56	4919
2026-01-22 23:16:31.45	174.38	14.81	-42.6	-45.2	18.1	0.00e+00	0	38	0	1127219200	56	4950
2026-01-22 23:16:32.59	174.46	14.70	-42.6	-45.2	18.1	0.00e+00	0	38	0	1129316352	56	4960
2026-01-22 23:16:33.44	174.51	14.61	-42.6	-45.2	18.1	0.00e+00	0	38	0	1130364928	56	4937
2026-01-22 23:16:34.58	174.59	14.50	-42.7	-45.3	17.9	0.00e+00	0	38	0	1133510656	56	5041
2026-01-22 23:16:35.43	174.64	14.42	-42.6	-45.3	18.0	0.00e+00	0	38	0	1134559232	56	5000
2026-01-22 23:16:36.56	174.72	14.30	-42.7	-45.4	17.9	0.00e+00	0	38	0	1136656384	56	5074
2026-01-22 23:16:37.41	174.77	14.22	-42.8	-45.5	17.8	0.00e+00	0	38	0	1138753536	56	5115
2026-01-22 23:16:38.55	174.85	14.11	-42.8	-45.6	17.7	0.00e+00	0	39	0	1140850688	56	5177
2026-01-22 23:16:39.40	174.90	14.02	-42.9	-45.6	17.7	0.00e+00	0	38	0	1141899264	56	5196
2026-01-22 23:16:40.54	174.97	13.91	-42.9	-45.6	17.7	0.00e+00	0	38	0	1143996416	56	5199
2026-01-22 23:16:41.39	175.03	13.83	-42.9	-45.7	17.6	0.00e+00	0	38	0	1146093568	56	5237
2026-01-22 23:16:42.53	175.10	13.72	-43.0	-45.8	17.5	0.00e+00	0	38	0	1148190720	56	5297
2026-01-22 23:16:43.38	175.15	13.64	-43.1	-45.8	17.4	0.00e+00	0	39	0	1149239296	56	5339
2026-01-22 23:16:44.58	175.23	13.52	-43.2	-45.9	17.4	0.00e+00	0	38	0	1151336448	56	5391
2026-01-22 23:16:45.43	175.28	13.44	-43.1	-45.9	17.4	0.00e+00	0	39	0	1153433600	56	5362
2026-01-22 23:16:46.61	175.35	13.33	-43.1	-45.8	17.5	0.00e+00	0	38	0	1155530752	56	5326
2026-01-22 23:16:47.47	175.40	13.24	-43.2	-45.9	17.3	0.00e+00	0	38	0	1157627904	57	5098
2026-01-22 23:16:48.60	175.47	13.14	-43.3	-46.0	17.2	0.00e+00	0	38	0	1159725056	57	5143
2026-01-22 23:16:49.46	175.52	13.06	-43.2	-45.9	17.3	0.00e+00	0	39	0	1160773632	57	5068
2026-01-22 23:16:50.59	175.59	12.95	-43.2	-45.9	17.3	0.00e+00	0	38	0	1162870784	57	5100
2026-01-22 23:16:51.49	175.64	12.86	-43.2	-45.9	17.3	0.00e+00	0	38	0	1164967936	57	5096
2026-01-22 23:16:52.50	175.70	12.77	-43.2	-45.9	17.3	0.00e+00	0	38	0	1167065088	57	5079
2026-01-22 23:16:53.50	175.76	12.68	-43.1	-45.8	17.4	0.00e+00	0	39	0	1168113664	57	5023
2026-01-22 23:16:54.49	175.82	12.58	-43.2	-45.8	17.4	0.00e+00	0	38	0	1170210816	57	5040
2026-01-22 23:16:55.49	175.88	12.49	-43.2	-45.9	17.4	0.00e+00	0	38	0	1172307968	57	5056
2026-01-22 23:16:56.48	175.94	12.40	-43.1	-45.8	17.5	0.00e+00	0	38	0	1174405120	57	4990
2026-01-22 23:16:57.48	175.99	12.31	-43.1	-45.8	17.5	0.00e+00	0	39	0	1175453696	57	5002
2026-01-22 23:16:58.47	176.05	12.22	-43.1	-45.8	17.4	0.00e+00	0	39	0	1177550848	57	5007
2026-01-22 23:16:59.46	176.11	12.13	-43.1	-45.8	17.5	0.00e+00	0	39	0	1179648000	57	5000
2026-01-22 23:17:00.46	176.16	12.04	-43.2	-45.9	17.3	0.00e+00	0	38	0	1181745152	57	5099
2026-01-22 23:17:01.46	176.22	11.95	-43.1	-45.8	17.4	0.00e+00	0	38	0	1183842304	57	5038
2026-01-22 23:17:02.45	176.27	11.86	-43.2	-46.0	17.2	0.00e+00	0	38	0	1184890880	57	5126
2026-01-22 23:17:03.45	176.33	11.77	-43.0	-45.8	17.4	0.00e+00	0	39	0	1186988032	57	5004
2026-01-22 23:17:04.44	176.38	11.68	-43.0	-45.8	17.4	0.00e+00	0	38	0	1189085184	57	5029
2026-01-22 23:17:05.44	176.44	11.59	-43.1	-45.8	17.4	0.00e+00	0	38	0	1191182336	57	5034
2026-01-22 23:17:06.43	176.49	11.50	-43.0	-45.7	17.5	0.00e+00	0	38	0	1192230912	57	4978
2026-01-22 23:17:07.43	176.55	11.41	-42.8	-45.6	17.6	0.00e+00	0	38	0	1194328064	57	4919
2026-01-22 23:17:08.42	176.60	11.32	-42.7	-45.6	17.6	0.00e+00	0	38	0	1196425216	57	4878
2026-01-22 23:17:09.42	176.65	11.23	-42.8	-45.6	17.5	0.00e+00	0	38	0	1198522368	57	4917
2026-01-22 23:17:10.41	176.70	11.15	-42.7	-45.6	17.6	0.00e+00	0	38	0	1200619520	57	4878
2026-01-22 23:17:11.41	176.76	11.06	-42.7	-45.7	17.5	0.00e+00	0	39	0	1201668096	57	4941
2026-01-22 23:17:12.40	176.81	10.97	-42.7	-45.7	17.5	0.00e+00	0	38	0	1203765248	57	4955
2026-01-22 23:17:13.40	176.86	10.89	-42.6	-45.8	17.4	0.00e+00	0	39	0	1205862400	57	4989
2026-01-22 23:17:14.39	176.91	10.80	-42.6	-45.8	17.4	0.00e+00	0	39	0	1207959552	57	4998
2026-01-22 23:17:15.39	176.97	10.71	-42.5	-45.7	17.4	0.00e+00	0	38	0	1209008128	57	4983
2026-01-22 23:17:16.38	177.02	10.63	-42.5	-45.8	17.4	0.00e+00	0	38	0	1211105280	57	5022
2026-01-22 23:17:17.38	177.07	10.54	-42.5	-45.8	17.3	0.00e+00	0	38	0	1213202432	57	5031
2026-01-22 23:17:18.37	177.12	10.46	-42.5	-45.9	17.3	0.00e+00	0	38	0	1215299584	57	5074
2026-01-22 23:17:19.41	177.17	10.37	-42.5	-45.9	17.2	0.00e+00	0	38	0	1217396736	57	5094
2026-01-22 23:17:20.45	177.22	10.28	-42.6	-46.0	17.2	0.00e+00	0	38	0	1219493888	57	5136
2026-01-22 23:17:21.43	177.27	10.20	-42.7	-46.1	17.1	0.00e+00	0	38	0	1220542464	57	5182
2026-01-22 23:17:22.43	177.32	10.11	-42.7	-46.2	17.0	0.00e+00	0	39	0	1222639616	57	5231
