passes_logs/2026/01/22/T1/T1__20260122_221544_NOAA_21_JPSS-2_rec.log

#Pass ID: 20260122_221544_NOAA 21 (JPSS-2)
#Satellite: NOAA 21 (JPSS-2)
#Configuration: NOAA 21
#almurnet v.1.7.20251203
#Start time: 2026-01-22 22:15:43

#Version: 2.0.20230620
#Station: T1
#Location: 37.570604 lon 55.790049 lat
#TLE: 1 54234U 22150A   26022.41365820  .00000211  00000+0  12084-3 0  9990
#TLE: 2 54234  98.7507 323.2240 0000658 234.5287 125.5828 14.19537645165864

#Time	Az	El	Level	Level2	SNR	BER	BlckErr	Temp	State	Recorded	gain1	gain2
2026-01-22 22:15:43.79	28.49	4.98	-49.2	-62.6	3.8	1.49e+00	0	39	0	0	70	16438
2026-01-22 22:15:44.78	28.57	5.04	-49.2	-62.6	3.8	1.49e+00	0	39	104	0	69	17339
2026-01-22 22:15:45.77	28.65	5.10	-49.2	-62.6	3.8	1.49e+00	0	39	104	0	69	17333
2026-01-22 22:15:46.77	28.74	5.15	-49.2	-62.6	3.8	1.49e+00	0	39	104	0	69	17310
2026-01-22 22:15:47.76	28.82	5.21	-49.2	-62.6	3.8	1.49e+00	0	39	104	0	69	17361
2026-01-22 22:15:48.75	28.90	5.27	-49.2	-62.6	3.8	1.49e+00	0	39	104	0	69	17288
2026-01-22 22:15:49.75	28.98	5.33	-49.2	-62.6	3.8	1.49e+00	0	39	104	0	69	17336
2026-01-22 22:15:50.74	29.07	5.39	-49.2	-62.6	3.8	1.49e+00	0	39	104	0	69	17353
2026-01-22 22:15:51.73	29.15	5.45	-49.2	-62.6	3.8	1.49e+00	0	39	104	0	69	17318
2026-01-22 22:15:52.73	29.24	5.51	-49.2	-62.6	3.8	1.49e+00	0	39	104	0	69	17296
2026-01-22 22:15:53.72	29.32	5.57	-49.2	-62.5	3.8	1.49e+00	0	39	104	0	69	17232
2026-01-22 22:15:54.71	29.40	5.63	-49.2	-62.5	3.8	1.49e+00	0	39	104	0	69	17265
2026-01-22 22:15:55.71	29.49	5.69	-49.2	-62.5	3.8	1.49e+00	0	39	104	0	69	17230
2026-01-22 22:15:56.70	29.58	5.75	-49.2	-62.5	3.8	1.49e+00	0	39	104	0	69	17221
2026-01-22 22:15:57.69	29.66	5.81	-49.1	-62.5	3.8	1.49e+00	0	39	104	0	69	17134
2026-01-22 22:15:58.69	29.75	5.87	-49.2	-62.5	3.8	1.49e+00	0	39	104	0	69	17138
2026-01-22 22:15:59.68	29.83	5.93	-49.2	-62.5	3.8	1.49e+00	0	39	104	0	69	17091
2026-01-22 22:16:00.67	29.92	5.99	-49.1	-62.4	3.8	1.49e+00	0	40	104	0	69	17047
2026-01-22 22:16:01.67	30.01	6.06	-49.1	-62.4	3.8	1.49e+00	0	39	104	0	69	17042
2026-01-22 22:16:02.66	30.10	6.12	-49.1	-62.4	3.8	1.49e+00	0	40	104	0	69	17006
2026-01-22 22:16:03.65	30.18	6.18	-49.2	-62.4	3.8	1.49e+00	0	40	104	0	69	17073
2026-01-22 22:16:04.65	30.27	6.24	-49.2	-62.4	3.8	1.49e+00	0	39	104	0	69	17019
2026-01-22 22:16:05.64	30.36	6.30	-49.1	-62.4	3.8	1.49e+00	0	40	104	0	69	16971
2026-01-22 22:16:06.63	30.45	6.36	-49.2	-62.4	3.8	1.49e+00	0	40	104	0	69	17043
2026-01-22 22:16:07.63	30.54	6.42	-49.1	-62.4	3.8	1.49e+00	0	40	104	0	69	17027
2026-01-22 22:16:08.62	30.63	6.48	-49.1	-62.4	3.8	1.49e+00	0	40	104	0	69	17041
2026-01-22 22:16:09.62	30.72	6.54	-49.1	-62.4	3.8	1.49e+00	0	40	104	0	69	17013
2026-01-22 22:16:10.61	30.81	6.61	-49.1	-62.5	3.8	1.49e+00	0	40	104	0	69	17139
2026-01-22 22:16:11.60	30.90	6.67	-49.2	-62.5	3.8	1.49e+00	0	40	104	0	69	17139
2026-01-22 22:16:12.60	30.99	6.73	-49.1	-62.5	3.8	1.49e+00	0	40	104	0	69	17130
2026-01-22 22:16:13.59	31.08	6.79	-49.1	-62.5	3.8	1.49e+00	0	40	104	0	69	17119
2026-01-22 22:16:14.58	31.17	6.85	-49.1	-62.5	3.8	1.49e+00	0	40	104	0	69	17109
2026-01-22 22:16:15.58	31.27	6.91	-49.1	-62.4	3.8	1.49e+00	0	40	104	0	69	17074
2026-01-22 22:16:16.57	31.36	6.98	-49.1	-62.4	3.8	1.49e+00	0	40	104	0	69	16943
2026-01-22 22:16:17.56	31.45	7.04	-49.1	-62.4	3.8	1.49e+00	0	40	104	0	69	16903
2026-01-22 22:16:18.56	31.54	7.10	-49.1	-62.3	3.8	1.49e+00	0	40	104	0	69	16862
2026-01-22 22:16:19.55	31.64	7.16	-49.1	-62.4	3.8	1.49e+00	0	40	104	0	69	16898
2026-01-22 22:16:20.54	31.73	7.22	-49.1	-62.4	3.8	1.49e+00	0	40	104	0	69	16940
2026-01-22 22:16:21.54	31.83	7.29	-49.1	-62.4	3.8	1.49e+00	0	40	104	0	69	17047
2026-01-22 22:16:22.53	31.92	7.35	-49.1	-62.4	3.8	1.49e+00	0	40	104	0	69	17003
2026-01-22 22:16:23.52	32.02	7.41	-49.1	-62.3	3.8	1.49e+00	0	40	104	0	69	16804
2026-01-22 22:16:24.52	32.11	7.48	-49.1	-62.3	3.8	1.49e+00	0	40	104	0	69	16695
2026-01-22 22:16:25.51	32.21	7.54	-49.1	-62.2	3.8	1.49e+00	0	40	104	0	69	16526
2026-01-22 22:16:26.50	32.30	7.60	-49.1	-62.1	3.8	1.49e+00	0	40	104	0	69	16450
2026-01-22 22:16:27.50	32.40	7.66	-49.1	-62.1	3.8	1.49e+00	0	40	104	0	69	16483
2026-01-22 22:16:28.49	32.50	7.73	-49.1	-62.2	3.8	1.49e+00	0	40	104	0	69	16595
2026-01-22 22:16:29.49	32.60	7.79	-49.1	-62.3	3.8	1.49e+00	0	40	104	0	69	16789
2026-01-22 22:16:30.48	32.69	7.85	-49.1	-62.4	3.8	1.49e+00	0	40	104	0	69	17013
2026-01-22 22:16:31.47	32.79	7.92	-49.1	-62.5	3.8	1.49e+00	0	40	104	0	69	17112
2026-01-22 22:16:32.47	32.89	7.98	-49.1	-62.5	3.8	1.49e+00	0	40	104	0	69	17172
2026-01-22 22:16:33.46	32.99	8.04	-49.1	-62.5	3.8	1.49e+00	0	40	104	0	69	17201
2026-01-22 22:16:34.45	33.09	8.11	-49.1	-62.4	3.8	1.49e+00	0	40	104	0	69	17080
2026-01-22 22:16:35.45	33.19	8.17	-49.1	-62.4	3.8	1.49e+00	0	40	104	0	69	17081
2026-01-22 22:16:36.44	33.29	8.24	-49.1	-62.4	3.8	1.49e+00	0	40	104	0	69	16915
2026-01-22 22:16:37.43	33.39	8.30	-49.1	-62.3	3.8	1.49e+00	0	40	104	0	69	16836
2026-01-22 22:16:38.42	33.49	8.36	-49.1	-62.2	3.8	1.49e+00	0	40	104	0	69	16633
2026-01-22 22:16:39.42	33.59	8.43	-49.1	-62.1	3.8	1.49e+00	0	40	104	0	69	16371
2026-01-22 22:16:40.41	33.70	8.49	-49.1	-61.9	3.8	1.49e+00	0	40	104	0	69	16019
2026-01-22 22:16:41.41	33.80	8.56	-49.1	-61.7	3.8	1.49e+00	0	40	104	0	69	15595
2026-01-22 22:16:42.40	33.90	8.62	-49.0	-61.4	3.8	1.49e+00	0	40	104	0	69	15120
2026-01-22 22:16:43.39	34.00	8.68	-49.0	-61.0	3.8	1.49e+00	0	40	104	0	69	14404
2026-01-22 22:16:44.39	34.11	8.75	-48.9	-59.9	3.9	1.48e+00	0	40	104	0	69	12770
2026-01-22 22:16:45.38	34.21	8.81	-48.6	-58.3	4.0	1.08e+00	0	40	104	0	69	10562
2026-01-22 22:16:46.37	34.32	8.88	-48.2	-55.4	6.0	4.95e-01	0	40	0	0	68	8003
2026-01-22 22:16:47.37	34.42	8.94	-47.3	-53.0	8.1	1.11e-01	0	40	0	0	66	6804
2026-01-22 22:16:48.36	34.53	9.01	-46.5	-51.0	10.1	1.23e-02	0	40	0	0	65	5736
2026-01-22 22:16:49.35	34.63	9.07	-45.5	-49.1	12.2	7.95e-04	0	40	0	0	63	5171
2026-01-22 22:16:50.44	34.75	9.14	-45.7	-49.3	12.1	1.39e-04	0	40	0	0	62	5622
2026-01-22 22:16:51.33	34.85	9.20	-47.5	-53.6	7.4	5.49e-01	0	40	0	0	67	6885
2026-01-22 22:16:52.46	34.97	9.28	-45.9	-49.6	11.8	8.85e-05	0	40	0	0	62	5835
2026-01-22 22:16:53.31	35.06	9.33	-46.6	-51.0	10.1	6.43e-02	0	40	0	0	65	5753
2026-01-22 22:16:54.45	35.19	9.41	-42.0	-44.1	17.1	0.00e+00	0	40	0	0	56	4386
2026-01-22 22:16:55.30	35.28	9.46	-41.7	-43.8	17.2	0.00e+00	0	40	0	0	55	4469
2026-01-22 22:16:56.44	35.41	9.54	-41.3	-43.3	17.7	0.00e+00	0	40	0	0	54	4492
2026-01-22 22:16:57.29	35.50	9.59	-41.4	-43.4	17.6	0.00e+00	0	41	0	0	54	4514
2026-01-22 22:16:58.43	35.63	9.67	-41.4	-43.4	17.6	0.00e+00	0	41	0	0	54	4540
2026-01-22 22:16:59.28	35.72	9.73	-41.4	-43.4	17.6	0.00e+00	0	40	0	0	54	4536
2026-01-22 22:17:00.41	35.85	9.80	-41.3	-43.4	17.6	0.00e+00	0	41	0	0	54	4499
2026-01-22 22:17:01.27	35.94	9.86	-41.3	-43.3	17.7	0.00e+00	0	40	0	0	54	4488
2026-01-22 22:17:02.41	36.07	9.93	-41.3	-43.3	17.7	0.00e+00	0	40	0	0	54	4492
2026-01-22 22:17:03.26	36.17	9.99	-41.2	-43.2	17.8	0.00e+00	0	40	0	0	54	4414
2026-01-22 22:17:04.40	36.30	10.07	-41.2	-43.2	17.8	0.00e+00	0	40	0	0	54	4439
2026-01-22 22:17:05.25	36.40	10.12	-41.2	-43.2	17.8	0.00e+00	0	40	0	0	54	4410
2026-01-22 22:17:06.39	36.53	10.20	-41.3	-43.3	17.7	0.00e+00	0	40	0	0	54	4461
2026-01-22 22:17:07.24	36.63	10.26	-41.1	-43.1	17.9	0.00e+00	0	41	0	0	54	4346
2026-01-22 22:17:08.38	36.76	10.33	-41.0	-42.9	18.0	0.00e+00	0	41	0	0	54	4286
2026-01-22 22:17:09.23	36.86	10.39	-41.0	-43.0	18.0	0.00e+00	0	40	0	0	53	4556
2026-01-22 22:17:10.37	36.99	10.47	-41.0	-42.9	18.0	0.00e+00	0	40	0	0	53	4529
2026-01-22 22:17:11.22	37.09	10.52	-40.9	-42.8	18.2	0.00e+00	0	41	0	0	53	4470
2026-01-22 22:17:12.36	37.22	10.60	-40.9	-42.8	18.1	0.00e+00	0	41	0	0	53	4486
2026-01-22 22:17:13.21	37.33	10.66	-40.9	-42.8	18.2	0.00e+00	0	41	0	0	53	4475
2026-01-22 22:17:14.35	37.46	10.74	-40.9	-42.8	18.2	0.00e+00	0	41	0	0	53	4461
2026-01-22 22:17:15.20	37.56	10.79	-40.9	-42.9	18.1	0.00e+00	0	41	0	0	53	4511
2026-01-22 22:17:16.50	37.72	10.88	-40.8	-42.7	18.2	0.00e+00	0	40	0	0	53	4427
2026-01-22 22:17:17.21	37.81	10.93	-40.9	-42.8	18.2	0.00e+00	0	41	0	0	53	4465
2026-01-22 22:17:18.71	37.99	11.03	-40.9	-42.8	18.2	0.00e+00	0	41	0	0	53	4479
2026-01-22 22:17:19.42	38.07	11.08	-40.9	-42.9	18.2	0.00e+00	0	40	0	0	53	4507
2026-01-22 22:17:20.70	38.23	11.17	-40.7	-42.6	18.4	0.00e+00	0	41	0	0	53	4389
2026-01-22 22:17:21.41	38.32	11.21	-40.6	-42.5	18.5	0.00e+00	0	41	0	0	53	4322
2026-01-22 22:17:22.70	38.48	11.30	-40.6	-42.6	18.5	0.00e+00	0	41	0	0	53	4341
2026-01-22 22:17:23.41	38.57	11.35	-40.6	-42.5	18.5	0.00e+00	0	41	0	0	53	4325
2026-01-22 22:17:24.69	38.72	11.44	-40.6	-42.5	18.5	0.00e+00	0	41	0	0	53	4320
2026-01-22 22:17:25.43	38.82	11.49	-40.6	-42.5	18.5	0.00e+00	0	41	0	0	53	4323
2026-01-22 22:17:26.71	38.98	11.58	-40.6	-42.5	18.6	0.00e+00	0	41	0	0	53	4293
2026-01-22 22:17:27.47	39.07	11.63	-40.6	-42.5	18.6	0.00e+00	0	41	0	0	53	4297
2026-01-22 22:17:28.75	39.24	11.72	-40.5	-42.4	18.6	0.00e+00	0	41	0	0	53	4261
2026-01-22 22:17:29.46	39.33	11.76	-40.6	-42.4	18.6	0.00e+00	0	41	0	0	53	4282
2026-01-22 22:17:30.74	39.49	11.85	-40.5	-42.3	18.7	0.00e+00	0	41	0	0	53	4227
2026-01-22 22:17:31.46	39.58	11.90	-40.5	-42.3	18.7	0.00e+00	0	40	0	0	52	4485
2026-01-22 22:17:32.74	39.75	11.99	-40.4	-42.3	18.7	0.00e+00	0	40	0	0	52	4457
2026-01-22 22:17:33.47	39.84	12.04	-40.4	-42.2	18.8	0.00e+00	0	41	0	0	52	4426
2026-01-22 22:17:34.75	40.01	12.13	-40.3	-42.1	18.9	0.00e+00	0	41	0	0	52	4384
2026-01-22 22:17:35.47	40.11	12.18	-40.2	-42.0	19.0	0.00e+00	0	40	0	0	52	4334
2026-01-22 22:17:36.75	40.27	12.27	-40.1	-41.9	19.1	0.00e+00	0	41	0	0	52	4280
2026-01-22 22:17:37.46	40.37	12.32	-40.1	-41.9	19.1	0.00e+00	0	40	0	0	52	4273
2026-01-22 22:17:38.84	40.55	12.41	-40.2	-42.0	19.0	0.00e+00	0	41	0	0	52	4319
2026-01-22 22:17:39.55	40.65	12.46	-40.2	-41.9	19.1	0.00e+00	0	41	0	0	52	4288
2026-01-22 22:17:40.83	40.82	12.55	-40.1	-41.9	19.1	0.00e+00	0	41	0	0	52	4272
2026-01-22 22:17:41.54	40.91	12.60	-40.1	-41.9	19.1	0.00e+00	0	40	0	0	52	4270
2026-01-22 22:17:42.82	41.09	12.69	-40.2	-42.0	19.1	0.00e+00	0	41	0	0	52	4294
2026-01-22 22:17:43.53	41.18	12.74	-40.2	-42.0	19.0	0.00e+00	0	41	0	0	52	4304
2026-01-22 22:17:44.81	41.36	12.83	-40.2	-42.0	19.0	0.00e+00	0	41	0	0	52	4324
2026-01-22 22:17:45.53	41.46	12.88	-40.3	-42.1	18.9	0.00e+00	0	41	0	0	52	4374
2026-01-22 22:17:46.81	41.63	12.97	-40.3	-42.2	18.9	0.00e+00	0	41	0	0	52	4402
2026-01-22 22:17:47.52	41.73	13.02	-40.3	-42.1	18.9	0.00e+00	0	41	0	0	52	4360
2026-01-22 22:17:48.81	41.91	13.11	-40.4	-42.2	18.8	0.00e+00	0	41	0	0	52	4398
2026-01-22 22:17:49.53	42.01	13.16	-40.3	-42.1	18.9	0.00e+00	0	41	0	0	52	4357
2026-01-22 22:17:50.81	42.19	13.25	-40.3	-42.1	18.9	0.00e+00	0	41	0	0	52	4367
2026-01-22 22:17:51.68	42.31	13.31	-40.2	-42.0	19.0	0.00e+00	0	41	0	0	52	4321
2026-01-22 22:17:53.11	42.52	13.41	-40.2	-42.0	19.0	0.00e+00	0	41	0	0	52	4307
2026-01-22 22:17:53.82	42.62	13.46	-40.1	-41.9	19.1	0.00e+00	0	41	0	0	52	4280
2026-01-22 22:17:55.10	42.80	13.55	-40.2	-42.0	19.0	0.00e+00	0	41	0	0	52	4317
2026-01-22 22:17:55.82	42.90	13.60	-40.3	-42.1	18.9	0.00e+00	0	41	0	0	52	4359
2026-01-22 22:17:57.10	43.09	13.69	-40.3	-42.1	18.9	0.00e+00	0	41	0	0	52	4379
2026-01-22 22:17:57.86	43.20	13.74	-40.4	-42.2	18.9	0.00e+00	0	41	0	0	52	4404
2026-01-22 22:17:59.14	43.39	13.83	-40.5	-42.4	18.7	0.00e+00	0	41	0	0	52	4506
2026-01-22 22:17:59.87	43.49	13.88	-40.4	-42.3	18.8	0.00e+00	0	41	0	0	52	4451
2026-01-22 22:18:01.14	43.68	13.97	-40.4	-42.2	19.0	0.00e+00	0	41	0	0	52	4401
2026-01-22 22:18:01.85	43.79	14.02	-40.3	-42.1	19.0	0.00e+00	0	41	0	0	52	4367
2026-01-22 22:18:03.13	43.98	14.11	-40.2	-42.1	19.0	0.00e+00	0	41	0	0	52	4350
2026-01-22 22:18:03.86	44.08	14.16	-40.3	-42.1	19.0	0.00e+00	0	41	0	0	52	4369
2026-01-22 22:18:05.14	44.28	14.25	-40.2	-42.0	19.1	0.00e+00	0	41	0	0	52	4307
2026-01-22 22:18:05.85	44.38	14.30	-40.1	-41.9	19.1	0.00e+00	0	41	0	0	52	4288
2026-01-22 22:18:07.16	44.58	14.39	-40.1	-41.9	19.2	0.00e+00	0	40	0	0	52	4273
2026-01-22 22:18:07.87	44.69	14.44	-40.0	-41.8	19.3	0.00e+00	0	41	0	0	52	4194
2026-01-22 22:18:09.21	44.89	14.54	-40.1	-41.8	19.3	0.00e+00	0	41	0	0	51	4490
2026-01-22 22:18:09.91	45.00	14.59	-40.1	-41.8	19.3	0.00e+00	0	41	0	0	51	4484
2026-01-22 22:18:11.31	45.22	14.69	-40.1	-41.8	19.3	0.00e+00	0	41	0	0	51	4492
2026-01-22 22:18:12.02	45.33	14.74	-40.1	-41.8	19.3	0.00e+00	0	41	0	0	51	4483
2026-01-22 22:18:13.30	45.53	14.83	-40.1	-41.9	19.2	0.00e+00	0	41	0	0	51	4497
2026-01-22 22:18:14.03	45.64	14.88	-40.0	-41.8	19.3	0.00e+00	0	41	0	0	51	4479
2026-01-22 22:18:15.31	45.84	14.97	-40.0	-41.8	19.3	0.00e+00	0	41	0	0	51	4472
2026-01-22 22:18:16.02	45.95	15.02	-40.1	-41.9	19.2	0.00e+00	0	41	0	0	51	4509
2026-01-22 22:18:17.30	46.16	15.11	-40.2	-42.0	19.1	0.00e+00	0	41	0	0	51	4546
2026-01-22 22:18:18.01	46.27	15.16	-40.2	-41.9	19.1	0.00e+00	0	41	0	0	51	4545
2026-01-22 22:18:19.32	46.48	15.25	-40.1	-41.9	19.2	0.00e+00	0	41	0	0	51	4524
2026-01-22 22:18:20.03	46.59	15.30	-40.1	-41.9	19.2	0.00e+00	0	41	0	0	51	4530
2026-01-22 22:18:21.31	46.80	15.39	-40.1	-41.9	19.3	0.00e+00	0	41	0	0	51	4498
2026-01-22 22:18:22.03	46.92	15.44	-40.1	-41.8	19.3	0.00e+00	0	41	0	0	51	4478
2026-01-22 22:18:23.31	47.13	15.53	-40.1	-41.9	19.3	0.00e+00	0	41	0	0	51	4516
2026-01-22 22:18:24.02	47.24	15.58	-40.1	-41.9	19.2	0.00e+00	0	41	0	0	51	4529
2026-01-22 22:18:25.30	47.45	15.67	-40.1	-41.8	19.3	0.00e+00	0	41	0	0	51	4492
2026-01-22 22:18:26.01	47.57	15.72	-40.1	-41.9	19.3	0.00e+00	0	40	0	0	51	4506
2026-01-22 22:18:27.29	47.78	15.82	-40.1	-41.9	19.3	0.00e+00	0	41	0	0	51	4513
2026-01-22 22:18:28.00	47.90	15.87	-40.1	-41.8	19.3	0.00e+00	0	41	0	0	51	4483
2026-01-22 22:18:29.28	48.12	15.96	-40.0	-41.8	19.4	0.00e+00	0	41	0	0	51	4458
2026-01-22 22:18:30.01	48.24	16.01	-40.0	-41.8	19.4	0.00e+00	0	41	0	0	51	4452
2026-01-22 22:18:31.28	48.45	16.10	-40.2	-41.9	19.2	0.00e+00	0	41	0	0	51	4534
2026-01-22 22:18:31.99	48.57	16.15	-39.9	-41.7	19.4	0.00e+00	0	41	0	0	51	4411
2026-01-22 22:18:33.27	48.79	16.24	-39.8	-41.6	19.5	0.00e+00	0	41	0	0	51	4346
2026-01-22 22:18:34.00	48.92	16.29	-39.8	-41.6	19.5	0.00e+00	0	41	0	0	51	4357
2026-01-22 22:18:35.28	49.14	16.38	-39.8	-41.5	19.5	0.00e+00	0	41	0	0	51	4339
2026-01-22 22:18:35.99	49.26	16.43	-39.8	-41.5	19.6	0.00e+00	0	41	0	0	51	4314
2026-01-22 22:18:37.27	49.48	16.52	-39.8	-41.5	19.6	0.00e+00	0	41	0	0	51	4328
2026-01-22 22:18:37.98	49.61	16.57	-39.8	-41.5	19.6	0.00e+00	0	41	0	0	51	4331
2026-01-22 22:18:39.26	49.83	16.66	-39.8	-41.5	19.6	0.00e+00	0	41	0	0	51	4333
2026-01-22 22:18:40.09	49.98	16.72	-39.9	-41.6	19.5	0.00e+00	0	41	0	0	51	4379
2026-01-22 22:18:41.23	50.18	16.80	-39.9	-41.6	19.5	0.00e+00	0	41	0	0	51	4378
2026-01-22 22:18:42.08	50.33	16.86	-39.9	-41.6	19.5	0.00e+00	0	41	0	0	51	4372
2026-01-22 22:18:43.22	50.53	16.94	-39.8	-41.5	19.6	0.00e+00	0	41	0	0	51	4318
2026-01-22 22:18:44.07	50.69	16.99	-39.8	-41.5	19.7	0.00e+00	0	41	0	0	51	4304
2026-01-22 22:18:45.21	50.89	17.07	-39.8	-41.5	19.6	0.00e+00	0	41	0	0	51	4305
2026-01-22 22:18:46.07	51.05	17.13	-39.8	-41.5	19.7	0.00e+00	0	41	0	0	51	4307
2026-01-22 22:18:47.21	51.26	17.21	-39.8	-41.5	19.6	0.00e+00	0	41	0	0	51	4335
2026-01-22 22:18:48.06	51.41	17.27	-39.8	-41.5	19.6	0.00e+00	0	41	0	0	51	4327
2026-01-22 22:18:49.29	51.64	17.36	-40.0	-41.7	19.5	0.00e+00	0	41	0	0	51	4411
2026-01-22 22:18:50.14	51.79	17.42	-39.9	-41.6	19.6	0.00e+00	0	41	0	0	51	4357
2026-01-22 22:18:51.28	52.00	17.50	-39.9	-41.6	19.5	0.00e+00	0	41	0	0	51	4368
2026-01-22 22:18:52.13	52.16	17.56	-39.9	-41.6	19.5	0.00e+00	0	41	0	0	51	4391
2026-01-22 22:18:53.27	52.38	17.63	-39.9	-41.6	19.5	0.00e+00	0	41	0	0	51	4368
2026-01-22 22:18:54.17	52.54	17.70	-39.9	-41.7	19.5	0.00e+00	0	41	0	0	51	4400
2026-01-22 22:18:55.45	52.79	17.79	-39.9	-41.6	19.6	0.00e+00	0	41	0	0	51	4370
2026-01-22 22:18:56.16	52.92	17.83	-39.9	-41.6	19.5	0.00e+00	0	41	0	0	51	4378
2026-01-22 22:18:57.44	53.16	17.92	-39.9	-41.6	19.5	0.00e+00	0	41	0	0	51	4384
2026-01-22 22:18:58.15	53.30	17.97	-39.9	-41.6	19.6	0.00e+00	0	41	0	0	51	4378
2026-01-22 22:18:59.43	53.55	18.06	-40.0	-41.7	19.5	0.00e+00	0	41	0	0	51	4420
2026-01-22 22:19:00.16	53.69	18.11	-39.9	-41.7	19.5	0.00e+00	0	41	0	0	51	4404
2026-01-22 22:19:01.44	53.93	18.20	-40.0	-41.7	19.5	0.00e+00	0	40	0	0	51	4424
2026-01-22 22:19:02.15	54.07	18.24	-40.0	-41.8	19.5	0.00e+00	0	41	0	0	51	4446
2026-01-22 22:19:03.43	54.32	18.33	-39.9	-41.6	19.6	0.00e+00	0	41	0	0	51	4383
2026-01-22 22:19:04.14	54.46	18.38	-39.9	-41.6	19.6	0.00e+00	0	41	0	0	51	4354
2026-01-22 22:19:05.43	54.72	18.47	-39.8	-41.5	19.6	0.00e+00	0	41	0	0	51	4334
2026-01-22 22:19:06.14	54.86	18.52	-39.7	-41.4	19.7	0.00e+00	0	41	0	0	51	4290
2026-01-22 22:19:07.50	55.13	18.61	-39.8	-41.5	19.7	0.00e+00	0	41	0	0	51	4312
2026-01-22 22:19:08.21	55.27	18.66	-39.8	-41.5	19.7	0.00e+00	0	41	0	0	51	4320
2026-01-22 22:19:09.49	55.53	18.74	-39.9	-41.6	19.6	0.00e+00	0	41	0	0	51	4370
2026-01-22 22:19:10.20	55.67	18.79	-39.9	-41.6	19.5	0.00e+00	0	41	0	0	51	4390
2026-01-22 22:19:11.48	55.93	18.87	-40.0	-41.8	19.4	0.00e+00	0	41	0	0	51	4466
2026-01-22 22:19:12.21	56.08	18.92	-40.1	-41.8	19.4	0.00e+00	0	41	0	0	51	4482
2026-01-22 22:19:13.49	56.34	19.01	-40.2	-41.9	19.3	0.00e+00	0	40	0	0	51	4536
2026-01-22 22:19:14.21	56.49	19.06	-40.2	-42.0	19.3	0.00e+00	0	41	0	0	51	4572
2026-01-22 22:19:15.49	56.75	19.14	-40.2	-42.0	19.2	0.00e+00	0	41	0	0	51	4580
2026-01-22 22:19:16.20	56.90	19.19	-40.3	-42.1	19.2	0.00e+00	0	41	0	0	51	4605
2026-01-22 22:19:17.48	57.16	19.27	-40.2	-42.0	19.3	0.00e+00	0	41	0	0	51	4546
2026-01-22 22:19:18.21	57.31	19.32	-40.1	-41.9	19.4	0.00e+00	0	41	0	0	51	4495
2026-01-22 22:19:19.49	57.58	19.40	-40.1	-41.9	19.3	0.00e+00	0	41	0	0	51	4514
2026-01-22 22:19:20.21	57.73	19.45	-40.1	-41.8	19.4	0.00e+00	0	41	0	0	51	4489
2026-01-22 22:19:21.49	58.00	19.53	-39.9	-41.7	19.5	0.00e+00	0	41	0	0	51	4411
2026-01-22 22:19:22.23	58.16	19.58	-40.1	-41.8	19.4	0.00e+00	0	41	0	0	51	4470
2026-01-22 22:19:23.51	58.43	19.66	-40.1	-41.8	19.4	0.00e+00	0	41	0	0	51	4467
2026-01-22 22:19:24.22	58.59	19.71	-40.1	-41.9	19.4	0.00e+00	0	41	0	0	51	4499
2026-01-22 22:19:25.50	58.86	19.79	-40.2	-42.0	19.2	0.00e+00	0	41	0	0	51	4575
2026-01-22 22:19:26.21	59.01	19.84	-40.2	-42.0	19.2	0.00e+00	0	41	0	0	51	4580
2026-01-22 22:19:27.49	59.29	19.92	-40.3	-42.1	19.1	0.00e+00	0	41	0	0	51	4602
2026-01-22 22:19:28.20	59.44	19.96	-40.2	-42.0	19.2	0.00e+00	0	41	0	0	51	4559
2026-01-22 22:19:29.63	59.76	20.05	-40.0	-41.8	19.4	0.00e+00	0	41	0	0	51	4472
2026-01-22 22:19:30.61	59.97	20.12	-39.9	-41.7	19.5	0.00e+00	0	41	0	0	51	4418
2026-01-22 22:19:31.92	60.26	20.20	-39.9	-41.7	19.5	0.00e+00	0	41	0	0	51	4400
2026-01-22 22:19:32.66	60.42	20.24	-39.8	-41.5	19.7	0.00e+00	0	41	0	0	51	4311
2026-01-22 22:19:33.94	60.71	20.32	-39.7	-41.4	19.8	0.00e+00	0	41	0	0	51	4290
2026-01-22 22:19:34.65	60.87	20.37	-39.8	-41.5	19.7	0.00e+00	0	41	0	0	51	4312
2026-01-22 22:19:35.93	61.15	20.45	-39.9	-41.6	19.6	0.00e+00	0	41	0	0	51	4364
2026-01-22 22:19:36.64	61.31	20.49	-39.9	-41.7	19.5	0.00e+00	0	41	0	0	51	4396
2026-01-22 22:19:37.92	61.60	20.57	-39.9	-41.6	19.5	0.00e+00	0	41	0	0	51	4384
2026-01-22 22:19:38.63	61.76	20.61	-39.9	-41.7	19.5	0.00e+00	0	41	0	0	51	4407
2026-01-22 22:19:40.10	62.10	20.70	-40.0	-41.7	19.5	0.00e+00	0	41	0	0	51	4429
2026-01-22 22:19:40.81	62.26	20.74	-39.9	-41.7	19.5	0.00e+00	0	41	0	0	51	4405
2026-01-22 22:19:42.17	62.57	20.82	-39.8	-41.5	19.7	0.00e+00	0	40	0	0	51	4340
2026-01-22 22:19:42.88	62.74	20.87	-39.7	-41.5	19.8	0.00e+00	0	40	0	0	51	4298
2026-01-22 22:19:44.27	63.06	20.95	-39.6	-41.3	19.9	0.00e+00	0	41	0	0	51	4235
2026-01-22 22:19:44.98	63.22	20.99	-39.7	-41.4	19.9	0.00e+00	0	41	0	0	51	4244
2026-01-22 22:19:46.26	63.52	21.06	-39.6	-41.3	19.9	0.00e+00	0	41	0	0	51	4211
2026-01-22 22:19:46.97	63.69	21.11	-39.6	-41.4	19.9	0.00e+00	0	41	0	0	51	4245
2026-01-22 22:19:48.24	63.98	21.18	-39.7	-41.4	19.8	0.00e+00	0	41	0	0	51	4249
2026-01-22 22:19:48.98	64.16	21.22	-39.7	-41.4	19.8	0.00e+00	0	41	0	0	51	4264
2026-01-22 22:19:50.26	64.46	21.29	-39.7	-41.4	19.8	0.00e+00	0	41	0	0	51	4249
2026-01-22 22:19:50.99	64.63	21.34	-39.6	-41.3	19.9	0.00e+00	0	41	0	0	51	4226
2026-01-22 22:19:52.26	64.94	21.41	-39.6	-41.3	19.9	0.00e+00	0	41	0	0	51	4214
2026-01-22 22:19:52.99	65.11	21.45	-39.5	-41.2	20.0	0.00e+00	0	40	0	0	51	4174
2026-01-22 22:19:54.27	65.42	21.52	-39.5	-41.1	20.0	0.00e+00	0	41	0	0	50	4387
2026-01-22 22:19:54.98	65.59	21.56	-39.4	-41.1	20.1	0.00e+00	0	41	0	0	50	4342
2026-01-22 22:19:56.26	65.90	21.63	-39.4	-41.1	20.1	0.00e+00	0	41	0	0	50	4350
2026-01-22 22:19:57.00	66.08	21.67	-39.3	-41.0	20.1	0.00e+00	0	40	0	0	50	4317
2026-01-22 22:19:58.28	66.39	21.74	-39.5	-41.2	19.9	0.00e+00	0	41	0	0	50	4426
2026-01-22 22:19:58.99	66.56	21.78	-39.5	-41.2	19.9	0.00e+00	0	41	0	0	50	4435
2026-01-22 22:20:00.26	66.87	21.84	-39.5	-41.2	19.9	0.00e+00	0	41	0	0	50	4436
2026-01-22 22:20:00.98	67.05	21.88	-39.5	-41.2	20.0	0.00e+00	0	40	0	0	50	4406
2026-01-22 22:20:02.26	67.37	21.95	-39.4	-41.1	20.1	0.00e+00	0	41	0	0	50	4356
2026-01-22 22:20:02.97	67.54	21.98	-39.5	-41.1	20.0	0.00e+00	0	40	0	0	50	4389
2026-01-22 22:20:04.25	67.86	22.05	-39.3	-41.0	20.2	0.00e+00	0	41	0	0	50	4294
2026-01-22 22:20:04.96	68.04	22.09	-39.3	-41.0	20.2	0.00e+00	0	41	0	0	50	4302
2026-01-22 22:20:06.24	68.36	22.15	-39.5	-41.2	20.0	0.00e+00	0	41	0	0	50	4399
2026-01-22 22:20:06.95	68.53	22.19	-39.5	-41.2	20.0	0.00e+00	0	41	0	0	50	4401
2026-01-22 22:20:08.22	68.85	22.25	-39.6	-41.4	19.8	0.00e+00	0	41	0	0	50	4497
2026-01-22 22:20:08.96	69.04	22.29	-39.7	-41.4	19.8	0.00e+00	0	41	0	0	50	4509
2026-01-22 22:20:10.24	69.36	22.35	-39.7	-41.4	19.8	0.00e+00	0	40	0	0	50	4529
2026-01-22 22:20:10.97	69.55	22.38	-39.7	-41.4	19.8	0.00e+00	0	41	0	0	50	4526
2026-01-22 22:20:12.25	69.87	22.45	-39.7	-41.4	19.9	0.00e+00	0	41	0	0	50	4504
2026-01-22 22:20:12.96	70.05	22.48	-39.5	-41.1	20.1	0.00e+00	0	40	0	0	50	4388
2026-01-22 22:20:14.24	70.38	22.54	-39.4	-41.1	20.1	0.00e+00	0	41	0	0	50	4366
2026-01-22 22:20:14.98	70.57	22.57	-39.5	-41.1	20.0	0.00e+00	0	40	0	0	50	4390
2026-01-22 22:20:16.26	70.90	22.63	-39.4	-41.1	20.0	0.00e+00	0	41	0	0	50	4376
2026-01-22 22:20:16.97	71.09	22.66	-39.5	-41.2	19.9	0.00e+00	0	41	0	0	50	4393
2026-01-22 22:20:18.25	71.42	22.72	-39.6	-41.3	19.9	0.00e+00	0	41	0	0	50	4473
2026-01-22 22:20:18.99	71.61	22.75	-39.6	-41.3	19.9	0.00e+00	0	41	0	0	50	4487
2026-01-22 22:20:20.27	71.94	22.81	-39.6	-41.3	19.9	0.00e+00	0	41	0	0	50	4485
2026-01-22 22:20:20.98	72.13	22.84	-39.6	-41.2	20.0	0.00e+00	0	41	0	0	50	4437
2026-01-22 22:20:22.26	72.46	22.90	-39.3	-41.0	20.2	0.00e+00	0	41	0	0	50	4320
2026-01-22 22:20:22.97	72.65	22.93	-39.4	-41.0	20.2	0.00e+00	0	41	0	0	50	4336
2026-01-22 22:20:24.25	72.99	22.98	-39.4	-41.1	20.1	0.00e+00	0	41	0	0	50	4372
2026-01-22 22:20:24.96	73.17	23.01	-39.4	-41.1	20.1	0.00e+00	0	41	0	0	50	4354
2026-01-22 22:20:26.24	73.51	23.06	-39.5	-41.1	20.0	0.00e+00	0	41	0	0	50	4391
2026-01-22 22:20:26.95	73.70	23.09	-39.4	-41.1	20.0	0.00e+00	0	41	0	0	50	4376
2026-01-22 22:20:28.23	74.04	23.14	-39.4	-41.1	20.1	0.00e+00	0	41	0	0	50	4351
2026-01-22 22:20:28.96	74.24	23.17	-39.4	-41.0	20.2	0.00e+00	0	41	0	0	50	4332
2026-01-22 22:20:30.24	74.58	23.22	-39.5	-41.2	20.1	0.00e+00	0	41	0	0	50	4399
2026-01-22 22:20:30.95	74.77	23.24	-39.4	-41.1	20.1	0.00e+00	0	41	0	0	50	4361
2026-01-22 22:20:32.23	75.11	23.29	-39.4	-41.1	20.1	0.00e+00	0	41	0	0	50	4376
2026-01-22 22:20:32.94	75.30	23.32	-39.4	-41.1	20.0	0.00e+00	0	41	0	0	50	4375
2026-01-22 22:20:34.22	75.65	23.36	-39.4	-41.1	20.1	0.00e+00	0	41	0	0	50	4347
2026-01-22 22:20:34.96	75.85	23.39	-39.4	-41.1	20.1	0.00e+00	0	41	0	0	50	4342
2026-01-22 22:20:36.24	76.20	23.43	-39.3	-40.9	20.2	0.00e+00	0	41	0	0	50	4289
2026-01-22 22:20:36.95	76.39	23.46	-39.2	-40.8	20.3	0.00e+00	0	41	0	0	50	4233
2026-01-22 22:20:38.23	76.74	23.50	-39.1	-40.8	20.3	0.00e+00	0	41	0	0	50	4196
2026-01-22 22:20:39.04	76.96	23.53	-39.2	-40.8	20.3	0.00e+00	0	40	0	0	50	4228
2026-01-22 22:20:40.18	77.27	23.56	-39.2	-40.9	20.2	0.00e+00	0	41	0	0	50	4272
2026-01-22 22:20:41.03	77.50	23.59	-39.3	-40.9	20.3	0.00e+00	0	41	0	0	50	4278
2026-01-22 22:20:42.17	77.82	23.63	-39.3	-40.9	20.2	0.00e+00	0	41	0	0	50	4286
2026-01-22 22:20:43.29	78.13	23.66	-39.4	-41.1	20.1	0.00e+00	0	41	0	0	50	4352
2026-01-22 22:20:44.31	78.41	23.69	-39.3	-41.0	20.2	0.00e+00	0	41	0	0	50	4324
2026-01-22 22:20:45.31	78.68	23.72	-39.3	-41.0	20.2	0.00e+00	0	41	0	0	50	4329
2026-01-22 22:20:46.30	78.96	23.75	-39.2	-40.9	20.3	0.00e+00	0	41	0	0	50	4249
2026-01-22 22:20:47.30	79.23	23.77	-39.1	-40.7	20.4	0.00e+00	0	41	0	0	50	4189
2026-01-22 22:20:48.29	79.51	23.80	-39.0	-40.7	20.4	0.00e+00	0	40	0	0	50	4171
2026-01-22 22:20:49.28	79.78	23.83	-39.1	-40.8	20.4	0.00e+00	0	41	0	0	50	4211
2026-01-22 22:20:50.28	80.06	23.85	-39.2	-40.9	20.3	0.00e+00	0	41	0	0	50	4265
2026-01-22 22:20:51.27	80.34	23.88	-39.0	-40.6	20.5	0.00e+00	0	40	0	0	50	4127
2026-01-22 22:20:52.27	80.62	23.90	-38.9	-40.6	20.5	0.00e+00	0	41	0	0	49	4355
2026-01-22 22:20:53.26	80.90	23.92	-38.9	-40.6	20.5	0.00e+00	0	41	0	0	49	4353
2026-01-22 22:20:54.26	81.18	23.95	-39.1	-40.7	20.3	0.00e+00	0	40	0	0	49	4430
2026-01-22 22:20:55.25	81.45	23.97	-39.0	-40.7	20.3	0.00e+00	0	40	0	0	49	4422
2026-01-22 22:20:56.25	81.74	23.99	-39.1	-40.8	20.3	0.00e+00	0	41	0	0	49	4442
2026-01-22 22:20:57.24	82.01	24.01	-39.3	-41.0	20.1	0.00e+00	0	40	0	0	49	4578
2026-01-22 22:20:58.24	82.30	24.03	-39.2	-40.9	20.2	0.00e+00	0	41	0	0	49	4516
2026-01-22 22:20:59.23	82.58	24.05	-39.1	-40.8	20.3	0.00e+00	0	40	0	0	49	4461
2026-01-22 22:21:00.23	82.86	24.07	-39.0	-40.7	20.3	0.00e+00	0	41	0	0	49	4414
2026-01-22 22:21:01.33	83.17	24.09	-39.1	-40.8	20.1	0.00e+00	0	41	0	0	49	4493
2026-01-22 22:21:02.21	83.42	24.10	-39.3	-41.0	20.0	0.00e+00	0	41	0	0	49	4581
2026-01-22 22:21:03.52	83.79	24.13	-39.4	-41.1	20.0	0.00e+00	0	41	0	0	49	4632
2026-01-22 22:21:04.23	83.99	24.14	-39.4	-41.2	20.0	0.00e+00	0	40	0	0	49	4671
2026-01-22 22:21:05.72	84.42	24.16	-39.4	-41.1	20.0	0.00e+00	0	40	0	0	49	4636
2026-01-22 22:21:06.43	84.62	24.17	-39.3	-41.1	20.0	0.00e+00	0	40	0	0	49	4605
2026-01-22 22:21:07.71	84.98	24.19	-39.4	-41.1	20.0	0.00e+00	0	40	0	0	49	4628
2026-01-22 22:21:08.42	85.18	24.20	-39.4	-41.2	19.9	0.00e+00	0	41	0	0	49	4667
2026-01-22 22:21:09.70	85.55	24.21	-39.4	-41.1	20.1	0.00e+00	0	40	0	0	49	4612
2026-01-22 22:21:10.41	85.75	24.22	-39.4	-41.2	20.0	0.00e+00	0	41	0	0	49	4659
2026-01-22 22:21:11.69	86.12	24.23	-39.4	-41.1	20.1	0.00e+00	0	41	0	0	49	4630
2026-01-22 22:21:12.43	86.33	24.24	-39.3	-41.1	20.1	0.00e+00	0	41	0	0	49	4599
2026-01-22 22:21:13.71	86.69	24.25	-39.2	-40.9	20.3	0.00e+00	0	40	0	0	49	4502
2026-01-22 22:21:14.42	86.90	24.26	-39.0	-40.7	20.4	0.00e+00	0	40	0	0	49	4426
2026-01-22 22:21:15.70	87.26	24.27	-39.1	-40.8	20.3	0.00e+00	0	41	0	0	49	4451
2026-01-22 22:21:16.43	87.47	24.27	-39.1	-40.8	20.2	0.00e+00	0	40	0	0	49	4488
2026-01-22 22:21:17.71	87.84	24.28	-39.2	-40.9	20.2	0.00e+00	0	40	0	0	49	4534
2026-01-22 22:21:18.42	88.04	24.29	-39.3	-41.0	20.2	0.00e+00	0	41	0	0	49	4556
2026-01-22 22:21:19.71	88.41	24.29	-39.3	-41.0	20.1	0.00e+00	0	41	0	0	49	4586
2026-01-22 22:21:20.43	88.62	24.30	-39.3	-41.0	20.2	0.00e+00	0	40	0	0	49	4562
2026-01-22 22:21:21.70	88.99	24.30	-39.2	-40.9	20.2	0.00e+00	0	41	0	0	49	4514
2026-01-22 22:21:22.44	89.20	24.30	-39.3	-41.0	20.1	0.00e+00	0	41	0	0	49	4573
2026-01-22 22:21:23.72	89.56	24.30	-39.4	-41.1	20.0	0.00e+00	0	41	0	0	49	4611
2026-01-22 22:21:24.45	89.77	24.30	-39.3	-41.0	20.0	0.00e+00	0	40	0	0	49	4595
2026-01-22 22:21:25.72	90.14	24.31	-39.2	-40.9	20.1	0.00e+00	0	41	0	0	49	4526
2026-01-22 22:21:26.43	90.34	24.31	-39.1	-40.8	20.3	0.00e+00	0	40	0	0	49	4479
2026-01-22 22:21:27.71	90.71	24.30	-39.1	-40.8	20.3	0.00e+00	0	40	0	0	49	4477
2026-01-22 22:21:28.44	90.92	24.30	-39.2	-40.9	20.3	0.00e+00	0	40	0	0	49	4515
2026-01-22 22:21:29.72	91.29	24.30	-39.1	-40.8	20.3	0.00e+00	0	40	0	0	49	4460
2026-01-22 22:21:30.46	91.50	24.30	-39.2	-40.9	20.2	0.00e+00	0	40	0	0	49	4522
2026-01-22 22:21:31.73	91.86	24.29	-39.2	-40.9	20.3	0.00e+00	0	41	0	0	49	4509
2026-01-22 22:21:32.44	92.07	24.29	-39.2	-40.9	20.3	0.00e+00	0	41	0	0	49	4498
2026-01-22 22:21:33.74	92.44	24.28	-39.1	-40.8	20.3	0.00e+00	0	41	0	0	49	4484
2026-01-22 22:21:34.45	92.64	24.28	-39.1	-40.8	20.2	0.00e+00	0	40	0	0	49	4474
2026-01-22 22:21:35.73	93.01	24.27	-38.9	-40.6	20.5	0.00e+00	0	41	0	0	49	4349
2026-01-22 22:21:36.47	93.22	24.26	-38.9	-40.5	20.5	0.00e+00	0	41	0	0	49	4337
2026-01-22 22:21:37.75	93.59	24.25	-38.9	-40.6	20.5	0.00e+00	0	41	0	0	49	4351
2026-01-22 22:21:38.47	93.80	24.24	-38.9	-40.6	20.5	0.00e+00	0	41	0	0	49	4358
2026-01-22 22:21:39.75	94.16	24.23	-39.0	-40.7	20.5	0.00e+00	0	40	0	0	49	4404
2026-01-22 22:21:40.48	94.37	24.22	-39.1	-40.7	20.4	0.00e+00	0	40	0	0	49	4437
2026-01-22 22:21:41.76	94.74	24.21	-39.0	-40.7	20.4	0.00e+00	0	40	0	0	49	4412
2026-01-22 22:21:42.50	94.95	24.20	-38.9	-40.6	20.4	0.00e+00	0	41	0	0	49	4351
2026-01-22 22:21:43.78	95.31	24.18	-38.9	-40.5	20.5	0.00e+00	0	41	0	0	49	4330
2026-01-22 22:21:44.51	95.52	24.17	-38.9	-40.6	20.5	0.00e+00	0	41	0	0	49	4344
2026-01-22 22:21:45.78	95.88	24.15	-38.8	-40.5	20.6	0.00e+00	0	41	0	0	49	4303
2026-01-22 22:21:46.59	96.11	24.14	-38.8	-40.4	20.6	0.00e+00	0	41	0	0	49	4282
2026-01-22 22:21:47.73	96.44	24.12	-38.7	-40.3	20.7	0.00e+00	0	41	0	0	49	4237
2026-01-22 22:21:48.77	96.73	24.11	-38.8	-40.4	20.6	0.00e+00	0	41	0	0	49	4285
2026-01-22 22:21:49.91	97.06	24.09	-38.8	-40.5	20.6	0.00e+00	0	40	0	0	49	4303
2026-01-22 22:21:50.84	97.32	24.07	-38.8	-40.4	20.6	0.00e+00	0	40	0	0	49	4260
2026-01-22 22:21:51.83	97.60	24.05	-38.8	-40.4	20.5	0.00e+00	0	41	0	0	49	4282
2026-01-22 22:21:52.83	97.88	24.03	-38.7	-40.3	20.7	0.00e+00	0	40	0	0	49	4226
2026-01-22 22:21:53.82	98.16	24.01	-38.8	-40.4	20.7	0.00e+00	0	40	0	0	49	4269
2026-01-22 22:21:54.82	98.44	23.99	-38.9	-40.5	20.6	0.00e+00	0	40	0	0	49	4334
2026-01-22 22:21:55.81	98.72	23.97	-39.0	-40.7	20.4	0.00e+00	0	40	0	0	49	4410
2026-01-22 22:21:56.81	99.00	23.95	-39.0	-40.7	20.4	0.00e+00	0	40	0	0	49	4412
2026-01-22 22:21:57.80	99.28	23.92	-39.2	-40.8	20.3	0.00e+00	0	40	0	0	49	4490
2026-01-22 22:21:58.80	99.56	23.90	-39.2	-40.9	20.2	0.00e+00	0	40	0	0	49	4523
2026-01-22 22:21:59.79	99.84	23.88	-39.1	-40.8	20.3	0.00e+00	0	40	0	0	49	4475
2026-01-22 22:22:00.79	100.12	23.85	-39.0	-40.6	20.5	0.00e+00	0	41	0	0	49	4372
2026-01-22 22:22:01.83	100.41	23.82	-39.0	-40.6	20.5	0.00e+00	0	41	0	0	49	4369
2026-01-22 22:22:02.81	100.68	23.80	-39.1	-40.7	20.4	0.00e+00	0	41	0	0	49	4423
2026-01-22 22:22:03.86	100.97	23.77	-39.3	-41.0	20.3	0.00e+00	0	40	0	0	49	4549
2026-01-22 22:22:04.75	101.22	23.75	-39.4	-41.1	20.1	0.00e+00	0	41	0	0	49	4600
2026-01-22 22:22:05.89	101.54	23.71	-39.4	-41.1	20.0	0.00e+00	0	40	0	0	49	4648
2026-01-22 22:22:06.74	101.77	23.69	-39.4	-41.1	20.1	0.00e+00	0	40	0	0	49	4611
2026-01-22 22:22:07.87	102.09	23.66	-39.3	-41.0	20.1	0.00e+00	0	41	0	0	49	4582
2026-01-22 22:22:08.73	102.32	23.63	-39.2	-40.9	20.3	0.00e+00	0	41	0	0	49	4513
2026-01-22 22:22:09.86	102.63	23.59	-39.2	-40.8	20.3	0.00e+00	0	40	0	0	49	4490
2026-01-22 22:22:10.72	102.87	23.57	-39.1	-40.8	20.3	0.00e+00	0	41	0	0	49	4462
2026-01-22 22:22:11.85	103.18	23.53	-39.1	-40.8	20.4	0.00e+00	0	40	0	0	49	4451
2026-01-22 22:22:12.71	103.42	23.50	-39.1	-40.7	20.4	0.00e+00	0	41	0	0	49	4426
2026-01-22 22:22:13.84	103.72	23.46	-39.1	-40.7	20.4	0.00e+00	0	40	0	0	49	4435
2026-01-22 22:22:14.69	103.96	23.44	-39.0	-40.7	20.5	0.00e+00	0	40	0	0	49	4414
2026-01-22 22:22:15.83	104.27	23.40	-39.2	-40.8	20.4	0.00e+00	0	41	0	0	49	4477
2026-01-22 22:22:16.69	104.50	23.37	-39.3	-40.9	20.2	0.00e+00	0	40	0	0	49	4543
2026-01-22 22:22:17.82	104.81	23.32	-39.3	-41.0	20.2	0.00e+00	0	40	0	0	49	4565
2026-01-22 22:22:18.67	105.03	23.29	-39.4	-41.1	20.1	0.00e+00	0	40	0	0	49	4603
2026-01-22 22:22:19.81	105.34	23.25	-39.3	-41.0	20.2	0.00e+00	0	40	0	0	49	4594
2026-01-22 22:22:20.78	105.60	23.21	-39.2	-40.9	20.3	0.00e+00	0	41	0	0	49	4528
2026-01-22 22:22:21.95	105.92	23.17	-39.2	-40.9	20.3	0.00e+00	0	40	0	0	49	4507
2026-01-22 22:22:22.80	106.14	23.14	-39.2	-40.8	20.3	0.00e+00	0	40	0	0	49	4480
2026-01-22 22:22:23.94	106.45	23.09	-39.1	-40.8	20.3	0.00e+00	0	40	0	0	49	4470
2026-01-22 22:22:24.79	106.67	23.06	-39.2	-40.9	20.2	0.00e+00	0	40	0	0	49	4524
2026-01-22 22:22:25.93	106.98	23.01	-39.3	-41.0	20.2	0.00e+00	0	41	0	0	49	4547
2026-01-22 22:22:26.78	107.20	22.98	-39.2	-40.9	20.2	0.00e+00	0	40	0	0	49	4519
2026-01-22 22:22:27.92	107.50	22.93	-39.3	-41.0	20.2	0.00e+00	0	40	0	0	49	4561
2026-01-22 22:22:28.77	107.73	22.89	-39.3	-41.0	20.2	0.00e+00	0	41	0	0	49	4550
2026-01-22 22:22:29.91	108.03	22.84	-39.3	-41.0	20.1	0.00e+00	0	40	0	0	49	4593
2026-01-22 22:22:30.76	108.25	22.81	-39.3	-41.0	20.1	0.00e+00	0	40	0	0	49	4586
2026-01-22 22:22:31.90	108.55	22.76	-39.4	-41.1	20.0	0.00e+00	0	40	0	0	49	4628
2026-01-22 22:22:32.75	108.77	22.72	-39.5	-41.2	20.0	0.00e+00	0	40	0	0	49	4652
2026-01-22 22:22:34.06	109.11	22.66	-39.5	-41.2	20.0	0.00e+00	0	40	0	0	49	4673
2026-01-22 22:22:34.77	109.30	22.63	-39.5	-41.2	20.0	0.00e+00	0	40	0	0	49	4660
2026-01-22 22:22:36.07	109.63	22.57	-39.5	-41.2	20.0	0.00e+00	0	40	0	0	49	4676
2026-01-22 22:22:36.78	109.81	22.53	-39.5	-41.2	20.0	0.00e+00	0	40	0	0	49	4663
2026-01-22 22:22:38.06	110.14	22.47	-39.6	-41.3	19.9	0.00e+00	0	40	0	0	49	4733
2026-01-22 22:22:38.77	110.32	22.44	-39.6	-41.3	19.9	0.00e+00	0	40	0	0	49	4737
2026-01-22 22:22:40.05	110.65	22.38	-39.6	-41.3	19.9	0.00e+00	0	40	0	0	49	4752
2026-01-22 22:22:40.91	110.87	22.34	-39.5	-41.2	20.0	0.00e+00	0	40	0	0	49	4678
2026-01-22 22:22:42.05	111.16	22.28	-39.5	-41.2	19.9	0.00e+00	0	40	0	0	49	4681
2026-01-22 22:22:42.90	111.38	22.24	-39.5	-41.3	19.9	0.00e+00	0	40	0	0	49	4708
2026-01-22 22:22:44.04	111.66	22.18	-39.4	-41.1	20.0	0.00e+00	0	40	0	0	49	4615
2026-01-22 22:22:44.89	111.88	22.14	-39.3	-41.0	20.1	0.00e+00	0	40	0	0	49	4591
2026-01-22 22:22:46.03	112.16	22.08	-39.4	-41.0	20.0	0.00e+00	0	40	0	0	49	4597
2026-01-22 22:22:46.88	112.38	22.04	-39.4	-41.2	20.0	0.00e+00	0	40	0	0	49	4655
2026-01-22 22:22:48.02	112.66	21.98	-39.5	-41.2	19.9	0.00e+00	0	40	0	0	49	4679
2026-01-22 22:22:48.87	112.87	21.93	-39.4	-41.1	20.0	0.00e+00	0	40	0	0	49	4634
2026-01-22 22:22:50.01	113.15	21.87	-39.4	-41.1	20.0	0.00e+00	0	40	0	0	49	4616
2026-01-22 22:22:50.86	113.36	21.83	-39.4	-41.1	20.0	0.00e+00	0	40	0	0	49	4626
2026-01-22 22:22:52.06	113.66	21.77	-39.5	-41.2	19.9	0.00e+00	0	40	0	0	49	4686
2026-01-22 22:22:52.91	113.87	21.72	-39.6	-41.3	19.8	0.00e+00	0	41	0	0	49	4720
2026-01-22 22:22:54.05	114.14	21.66	-39.3	-41.0	20.1	0.00e+00	0	41	0	0	49	4588
2026-01-22 22:22:54.90	114.35	21.61	-39.3	-41.0	20.1	0.00e+00	0	40	0	0	49	4586
2026-01-22 22:22:56.04	114.63	21.55	-39.3	-41.0	20.1	0.00e+00	0	41	0	0	49	4592
2026-01-22 22:22:56.90	114.83	21.50	-39.3	-41.0	20.1	0.00e+00	0	40	0	0	49	4591
2026-01-22 22:22:58.03	115.11	21.44	-39.3	-41.0	20.1	0.00e+00	0	40	0	0	49	4586
2026-01-22 22:22:58.88	115.31	21.39	-39.4	-41.1	20.1	0.00e+00	0	40	0	0	49	4607
2026-01-22 22:23:00.02	115.58	21.32	-39.6	-41.3	19.9	0.00e+00	0	40	0	0	49	4724
2026-01-22 22:23:00.87	115.79	21.28	-39.6	-41.3	19.8	0.00e+00	0	40	0	0	49	4737
2026-01-22 22:23:02.01	116.06	21.21	-39.6	-41.3	19.9	0.00e+00	0	41	0	0	50	4482
2026-01-22 22:23:02.86	116.26	21.16	-39.6	-41.3	19.9	0.00e+00	0	40	0	0	50	4476
2026-01-22 22:23:04.06	116.54	21.09	-39.5	-41.2	19.9	0.00e+00	0	40	0	0	50	4438
2026-01-22 22:23:04.92	116.74	21.04	-39.4	-41.1	20.0	0.00e+00	0	40	0	0	50	4383
2026-01-22 22:23:06.05	117.01	20.97	-39.4	-41.1	20.0	0.00e+00	0	41	0	0	50	4366
2026-01-22 22:23:06.91	117.21	20.92	-39.4	-41.0	20.1	0.00e+00	0	41	0	0	50	4333
2026-01-22 22:23:08.04	117.47	20.86	-39.5	-41.2	19.9	0.00e+00	0	40	0	0	50	4410
2026-01-22 22:23:08.90	117.67	20.81	-39.4	-41.0	20.1	0.00e+00	0	40	0	0	50	4330
2026-01-22 22:23:10.03	117.93	20.74	-39.4	-41.1	20.0	0.00e+00	0	40	0	0	50	4353
2026-01-22 22:23:10.89	118.13	20.69	-39.5	-41.1	20.0	0.00e+00	0	41	0	0	50	4391
2026-01-22 22:23:12.02	118.39	20.62	-39.6	-41.3	19.9	0.00e+00	0	40	0	0	50	4449
2026-01-22 22:23:12.88	118.58	20.56	-39.7	-41.4	19.8	0.00e+00	0	41	0	0	50	4498
2026-01-22 22:23:14.01	118.84	20.49	-39.7	-41.4	19.8	0.00e+00	0	40	0	0	50	4500
2026-01-22 22:23:14.87	119.03	20.44	-39.7	-41.4	19.7	0.00e+00	0	40	0	0	50	4512
2026-01-22 22:23:16.00	119.29	20.37	-39.7	-41.5	19.7	0.00e+00	0	41	0	0	50	4549
2026-01-22 22:23:16.86	119.48	20.32	-39.7	-41.4	19.7	0.00e+00	0	40	0	0	50	4514
2026-01-22 22:23:17.99	119.73	20.25	-39.6	-41.3	19.8	0.00e+00	0	40	0	0	50	4470
2026-01-22 22:23:18.84	119.92	20.19	-39.5	-41.2	19.8	0.00e+00	0	40	0	0	50	4402
2026-01-22 22:23:19.98	120.17	20.12	-39.6	-41.3	19.7	0.00e+00	0	40	0	0	50	4450
2026-01-22 22:23:20.83	120.36	20.07	-39.5	-41.1	19.7	0.00e+00	0	40	0	0	50	4390
2026-01-22 22:23:21.97	120.61	20.00	-39.4	-41.1	19.9	0.00e+00	0	40	0	0	50	4374
2026-01-22 22:23:22.83	120.80	19.94	-39.2	-40.9	20.1	0.00e+00	0	40	0	0	50	4272
2026-01-22 22:23:23.96	121.05	19.87	-39.3	-41.0	20.0	0.00e+00	0	40	0	0	50	4297
2026-01-22 22:23:24.81	121.23	19.81	-39.4	-41.1	20.0	0.00e+00	0	40	0	0	50	4352
2026-01-22 22:23:25.95	121.48	19.74	-39.3	-41.0	20.1	0.00e+00	0	40	0	0	50	4301
2026-01-22 22:23:26.81	121.66	19.69	-39.3	-41.0	20.1	0.00e+00	0	41	0	0	50	4326
2026-01-22 22:23:27.95	121.91	19.61	-39.4	-41.1	20.0	0.00e+00	0	40	0	0	50	4369
2026-01-22 22:23:28.80	122.09	19.56	-39.4	-41.1	19.9	0.00e+00	0	40	0	0	50	4371
2026-01-22 22:23:29.94	122.33	19.48	-39.5	-41.2	19.9	0.00e+00	0	40	0	0	50	4409
2026-01-22 22:23:30.79	122.51	19.43	-39.5	-41.2	19.9	0.00e+00	0	40	0	0	50	4399
2026-01-22 22:23:31.93	122.75	19.35	-39.4	-41.1	19.9	0.00e+00	0	40	0	0	50	4349
2026-01-22 22:23:32.78	122.93	19.29	-39.4	-41.1	19.9	0.00e+00	0	40	0	0	50	4368
2026-01-22 22:23:33.97	123.18	19.22	-39.5	-41.3	19.8	0.00e+00	0	40	0	0	50	4445
2026-01-22 22:23:34.82	123.36	19.16	-39.5	-41.2	19.8	0.00e+00	0	40	0	0	50	4419
2026-01-22 22:23:35.95	123.59	19.08	-39.6	-41.3	19.8	0.00e+00	0	40	0	0	50	4460
2026-01-22 22:23:36.80	123.77	19.03	-39.5	-41.2	19.9	0.00e+00	0	40	0	0	50	4416
2026-01-22 22:23:38.07	124.03	18.94	-39.3	-41.0	20.1	0.00e+00	0	40	0	0	50	4317
2026-01-22 22:23:38.87	124.19	18.89	-39.2	-40.9	20.2	0.00e+00	0	41	0	0	50	4281
2026-01-22 22:23:40.01	124.43	18.81	-39.3	-41.0	20.1	0.00e+00	0	40	0	0	50	4319
2026-01-22 22:23:40.86	124.60	18.75	-39.4	-41.1	20.0	0.00e+00	0	41	0	0	50	4381
2026-01-22 22:23:41.99	124.83	18.68	-39.4	-41.1	20.0	0.00e+00	0	40	0	0	50	4344
2026-01-22 22:23:42.85	125.00	18.62	-39.5	-41.2	19.9	0.00e+00	0	40	0	0	50	4395
2026-01-22 22:23:43.98	125.23	18.54	-39.5	-41.2	19.9	0.00e+00	0	40	0	0	50	4419
2026-01-22 22:23:44.84	125.40	18.48	-39.5	-41.3	19.8	0.00e+00	0	40	0	0	50	4452
2026-01-22 22:23:45.97	125.62	18.41	-39.5	-41.2	19.9	0.00e+00	0	40	0	0	50	4440
2026-01-22 22:23:46.83	125.79	18.35	-39.5	-41.2	19.9	0.00e+00	0	40	0	0	50	4422
2026-01-22 22:23:47.96	126.02	18.27	-39.6	-41.3	19.8	0.00e+00	0	40	0	0	50	4454
2026-01-22 22:23:48.82	126.19	18.21	-39.6	-41.3	19.8	0.00e+00	0	40	0	0	50	4488
2026-01-22 22:23:49.95	126.41	18.13	-39.8	-41.5	19.6	0.00e+00	0	40	0	0	50	4577
2026-01-22 22:23:50.80	126.57	18.07	-39.8	-41.5	19.6	0.00e+00	0	40	0	0	50	4572
2026-01-22 22:23:52.02	126.81	17.99	-39.7	-41.4	19.7	0.00e+00	0	40	0	0	50	4504
2026-01-22 22:23:52.87	126.97	17.93	-39.7	-41.4	19.7	0.00e+00	0	40	0	0	50	4535
2026-01-22 22:23:54.01	127.19	17.85	-39.7	-41.4	19.6	0.00e+00	0	40	0	0	50	4542
2026-01-22 22:23:54.86	127.35	17.79	-39.6	-41.4	19.7	0.00e+00	0	40	0	0	50	4496
2026-01-22 22:23:56.13	127.59	17.70	-39.6	-41.3	19.7	0.00e+00	0	40	0	0	50	4473
2026-01-22 22:23:56.92	127.74	17.65	-39.7	-41.4	19.7	0.00e+00	0	40	0	0	50	4509
2026-01-22 22:23:58.13	127.97	17.56	-39.7	-41.4	19.6	0.00e+00	0	40	0	0	50	4517
2026-01-22 22:23:58.98	128.13	17.51	-39.7	-41.4	19.6	0.00e+00	0	40	0	0	50	4538
2026-01-22 22:24:00.12	128.34	17.43	-39.7	-41.4	19.6	0.00e+00	0	40	0	0	50	4545
2026-01-22 22:24:00.97	128.50	17.37	-39.7	-41.4	19.6	0.00e+00	0	41	0	0	50	4536
2026-01-22 22:24:02.11	128.71	17.29	-39.8	-41.5	19.5	0.00e+00	0	40	0	0	50	4590
2026-01-22 22:24:03.04	128.88	17.22	-39.7	-41.4	19.6	0.00e+00	0	40	0	0	50	4541
2026-01-22 22:24:04.04	129.07	17.15	-39.7	-41.5	19.6	0.00e+00	0	40	0	0	50	4550
2026-01-22 22:24:05.03	129.25	17.08	-39.8	-41.5	19.6	0.00e+00	0	40	0	0	50	4587
2026-01-22 22:24:06.03	129.43	17.01	-39.9	-41.6	19.5	0.00e+00	0	40	0	0	50	4635
2026-01-22 22:24:07.02	129.61	16.94	-39.9	-41.7	19.4	0.00e+00	0	40	0	0	50	4672
2026-01-22 22:24:08.02	129.79	16.87	-39.8	-41.5	19.5	0.00e+00	0	40	0	0	50	4588
2026-01-22 22:24:09.01	129.97	16.80	-39.8	-41.5	19.5	0.00e+00	0	40	0	0	50	4588
2026-01-22 22:24:10.01	130.14	16.73	-39.8	-41.5	19.5	0.00e+00	0	40	0	0	50	4586
2026-01-22 22:24:11.00	130.32	16.66	-39.9	-41.6	19.3	0.00e+00	0	40	0	0	50	4646
2026-01-22 22:24:11.99	130.50	16.59	-39.9	-41.7	19.3	0.00e+00	0	40	0	0	50	4675
2026-01-22 22:24:12.99	130.67	16.52	-40.0	-41.8	19.2	0.00e+00	0	40	0	0	50	4725
2026-01-22 22:24:13.98	130.84	16.45	-40.1	-41.9	19.1	0.00e+00	0	40	0	0	50	4769
2026-01-22 22:24:14.98	131.02	16.38	-40.1	-41.9	19.2	0.00e+00	0	40	0	0	50	4760
2026-01-22 22:24:15.97	131.19	16.31	-40.1	-41.9	19.1	0.00e+00	0	40	0	0	50	4804
2026-01-22 22:24:16.97	131.36	16.24	-40.1	-41.9	19.1	0.00e+00	0	40	0	0	51	4539
2026-01-22 22:24:17.96	131.53	16.16	-40.2	-42.0	18.9	0.00e+00	0	40	0	0	51	4591
2026-01-22 22:24:18.95	131.70	16.09	-40.3	-42.1	18.9	0.00e+00	0	40	0	0	51	4623
2026-01-22 22:24:19.95	131.87	16.02	-40.3	-42.1	18.9	0.00e+00	0	40	0	0	51	4648
2026-01-22 22:24:20.94	132.04	15.95	-40.3	-42.1	18.9	0.00e+00	0	40	0	0	51	4608
2026-01-22 22:24:21.94	132.21	15.88	-40.2	-42.0	19.0	0.00e+00	0	40	0	0	51	4584
2026-01-22 22:24:22.93	132.38	15.81	-40.2	-42.0	19.0	0.00e+00	0	40	0	0	51	4587
2026-01-22 22:24:23.93	132.54	15.74	-40.3	-42.1	19.0	0.00e+00	0	40	0	0	51	4616
2026-01-22 22:24:24.92	132.71	15.67	-40.3	-42.1	18.9	0.00e+00	0	40	0	0	51	4620
2026-01-22 22:24:25.92	132.88	15.60	-40.4	-42.2	18.8	0.00e+00	0	40	0	0	51	4669
2026-01-22 22:24:26.91	133.04	15.53	-40.4	-42.2	18.8	0.00e+00	0	40	0	0	51	4695
2026-01-22 22:24:27.91	133.20	15.46	-40.4	-42.2	18.8	0.00e+00	0	40	0	0	51	4678
2026-01-22 22:24:28.90	133.36	15.39	-40.3	-42.1	18.9	0.00e+00	0	40	0	0	51	4638
2026-01-22 22:24:29.96	133.54	15.31	-40.3	-42.1	19.0	0.00e+00	0	41	0	0	51	4606
2026-01-22 22:24:30.86	133.68	15.25	-40.2	-42.0	19.1	0.00e+00	0	40	0	0	51	4565
2026-01-22 22:24:31.96	133.86	15.17	-40.1	-41.8	19.2	0.00e+00	0	40	0	0	51	4493
2026-01-22 22:24:32.82	134.00	15.11	-40.1	-41.8	19.2	0.00e+00	0	40	0	0	51	4474
2026-01-22 22:24:33.96	134.18	15.02	-40.1	-41.9	19.2	0.00e+00	0	40	0	0	51	4509
2026-01-22 22:24:34.81	134.32	14.96	-40.1	-41.9	19.1	0.00e+00	0	40	0	0	51	4513
2026-01-22 22:24:35.95	134.50	14.88	-40.2	-42.0	19.0	0.00e+00	0	40	0	0	51	4567
2026-01-22 22:24:36.80	134.63	14.82	-40.3	-42.1	18.9	0.00e+00	0	40	0	0	51	4621
2026-01-22 22:24:37.94	134.81	14.74	-40.4	-42.3	18.7	0.00e+00	0	40	0	0	51	4711
2026-01-22 22:24:38.79	134.94	14.68	-40.6	-42.4	18.6	0.00e+00	0	40	0	0	51	4780
2026-01-22 22:24:39.93	135.12	14.60	-40.6	-42.4	18.6	0.00e+00	0	40	0	0	51	4783
2026-01-22 22:24:40.78	135.25	14.54	-40.7	-42.5	18.5	0.00e+00	0	40	0	0	51	4856
2026-01-22 22:24:41.92	135.43	14.46	-40.7	-42.6	18.4	0.00e+00	0	40	0	0	52	4600
2026-01-22 22:24:42.78	135.56	14.39	-40.8	-42.7	18.3	0.00e+00	0	40	0	0	52	4668
2026-01-22 22:24:43.91	135.73	14.31	-40.7	-42.6	18.4	0.00e+00	0	40	0	0	52	4616
2026-01-22 22:24:44.78	135.86	14.25	-40.6	-42.4	18.5	0.00e+00	0	40	0	0	52	4542
2026-01-22 22:24:46.11	136.06	14.16	-40.6	-42.4	18.5	0.00e+00	0	40	0	0	52	4545
2026-01-22 22:24:46.82	136.17	14.11	-40.6	-42.5	18.4	0.00e+00	0	40	0	0	52	4579
2026-01-22 22:24:48.10	136.36	14.02	-40.5	-42.4	18.5	0.00e+00	0	40	0	0	52	4512
2026-01-22 22:24:48.80	136.47	13.97	-40.5	-42.4	18.6	0.00e+00	0	40	0	0	52	4511
2026-01-22 22:24:50.09	136.66	13.87	-40.5	-42.3	18.6	0.00e+00	0	40	0	0	52	4491
2026-01-22 22:24:50.80	136.76	13.82	-40.5	-42.3	18.7	0.00e+00	0	40	0	0	52	4467
2026-01-22 22:24:52.08	136.95	13.73	-40.4	-42.2	18.7	0.00e+00	0	40	0	0	52	4441
2026-01-22 22:24:52.88	137.07	13.68	-40.4	-42.2	18.7	0.00e+00	0	40	0	0	52	4431
2026-01-22 22:24:54.02	137.23	13.60	-40.4	-42.2	18.7	0.00e+00	0	40	0	0	52	4431
2026-01-22 22:24:54.87	137.36	13.54	-40.4	-42.2	18.7	0.00e+00	0	40	0	0	52	4426
2026-01-22 22:24:56.01	137.52	13.45	-40.4	-42.2	18.7	0.00e+00	0	40	0	0	52	4432
2026-01-22 22:24:56.86	137.64	13.39	-40.5	-42.3	18.6	0.00e+00	0	40	0	0	52	4490
2026-01-22 22:24:58.00	137.81	13.31	-40.6	-42.5	18.5	0.00e+00	0	40	0	0	52	4558
2026-01-22 22:24:58.85	137.93	13.25	-40.7	-42.6	18.4	0.00e+00	0	40	0	0	52	4627
2026-01-22 22:24:59.99	138.09	13.17	-40.8	-42.7	18.3	0.00e+00	0	40	0	0	52	4667
2026-01-22 22:25:00.84	138.21	13.11	-40.8	-42.7	18.3	0.00e+00	0	40	0	0	52	4682
2026-01-22 22:25:01.98	138.37	13.03	-40.9	-42.8	18.2	0.00e+00	0	40	0	0	52	4738
2026-01-22 22:25:02.83	138.49	12.97	-40.9	-42.8	18.2	0.00e+00	0	40	0	0	52	4719
2026-01-22 22:25:03.97	138.65	12.89	-40.8	-42.7	18.3	0.00e+00	0	40	0	0	52	4679
2026-01-22 22:25:04.82	138.76	12.83	-40.8	-42.7	18.3	0.00e+00	0	40	0	0	52	4690
2026-01-22 22:25:05.96	138.92	12.75	-40.8	-42.7	18.2	0.00e+00	0	40	0	0	52	4702
2026-01-22 22:25:06.81	139.04	12.69	-40.8	-42.7	18.3	0.00e+00	0	40	0	0	52	4654
2026-01-22 22:25:07.95	139.19	12.61	-40.8	-42.7	18.2	0.00e+00	0	40	0	0	52	4671
2026-01-22 22:25:08.82	139.31	12.55	-40.8	-42.7	18.2	0.00e+00	0	40	0	0	52	4694
2026-01-22 22:25:09.96	139.46	12.47	-40.8	-42.7	18.2	0.00e+00	0	40	0	0	52	4680
2026-01-22 22:25:10.81	139.58	12.41	-40.8	-42.7	18.2	0.00e+00	0	40	0	0	52	4677
2026-01-22 22:25:11.95	139.73	12.33	-40.8	-42.7	18.2	0.00e+00	0	40	0	0	52	4666
2026-01-22 22:25:12.80	139.84	12.27	-40.7	-42.6	18.3	0.00e+00	0	40	0	0	52	4631
2026-01-22 22:25:13.94	140.00	12.19	-40.8	-42.7	18.2	0.00e+00	0	40	0	0	52	4658
2026-01-22 22:25:14.79	140.11	12.13	-40.8	-42.7	18.2	0.00e+00	0	40	0	0	52	4660
2026-01-22 22:25:15.93	140.26	12.05	-40.9	-42.8	18.1	0.00e+00	0	40	0	0	52	4735
2026-01-22 22:25:16.78	140.37	11.99	-40.8	-42.7	18.1	0.00e+00	0	40	0	0	52	4698
2026-01-22 22:25:17.92	140.52	11.91	-40.9	-42.9	18.0	0.00e+00	0	40	0	0	52	4771
2026-01-22 22:25:18.77	140.63	11.86	-41.0	-42.9	18.0	0.00e+00	0	40	0	0	52	4801
2026-01-22 22:25:19.91	140.78	11.78	-41.0	-42.9	18.0	0.00e+00	0	40	0	0	52	4803
2026-01-22 22:25:20.76	140.89	11.72	-40.9	-42.9	18.0	0.00e+00	0	40	0	0	52	4785
2026-01-22 22:25:21.90	141.03	11.64	-40.9	-42.8	18.1	0.00e+00	0	40	0	0	52	4746
2026-01-22 22:25:22.75	141.14	11.58	-41.0	-42.9	18.0	0.00e+00	0	40	0	0	52	4800
2026-01-22 22:25:23.89	141.28	11.50	-41.0	-42.9	18.0	0.00e+00	0	40	0	0	52	4793
2026-01-22 22:25:24.74	141.39	11.44	-40.9	-42.8	18.1	0.00e+00	0	40	0	0	52	4755
2026-01-22 22:25:25.88	141.53	11.36	-40.9	-42.9	18.1	0.00e+00	0	40	0	0	52	4763
2026-01-22 22:25:26.73	141.64	11.30	-41.0	-43.0	18.0	0.00e+00	0	40	0	0	52	4820
2026-01-22 22:25:27.87	141.78	11.23	-41.0	-43.0	18.0	0.00e+00	0	40	0	0	52	4837
2026-01-22 22:25:28.72	141.89	11.17	-41.1	-43.1	17.9	0.00e+00	0	40	0	0	52	4885
2026-01-22 22:25:29.86	142.03	11.09	-41.1	-43.1	17.9	0.00e+00	0	40	0	0	52	4887
2026-01-22 22:25:30.71	142.13	11.03	-41.0	-42.9	18.0	0.00e+00	0	40	0	0	52	4811
2026-01-22 22:25:31.85	142.27	10.95	-41.0	-43.0	18.0	0.00e+00	0	40	0	0	52	4832
2026-01-22 22:25:32.70	142.38	10.89	-41.1	-43.0	17.9	0.00e+00	0	40	0	0	52	4870
2026-01-22 22:25:33.84	142.51	10.81	-41.0	-43.0	18.0	0.00e+00	0	40	0	0	52	4828
2026-01-22 22:25:34.69	142.62	10.76	-41.1	-43.0	17.9	0.00e+00	0	40	0	0	52	4843
2026-01-22 22:25:35.92	142.77	10.67	-41.0	-43.0	18.0	0.00e+00	0	40	0	0	52	4820
2026-01-22 22:25:36.78	142.87	10.61	-40.9	-42.9	18.0	0.00e+00	0	40	0	0	52	4767
2026-01-22 22:25:37.91	143.00	10.54	-41.0	-42.9	18.0	0.00e+00	0	40	0	0	52	4794
2026-01-22 22:25:38.77	143.10	10.48	-41.0	-42.9	18.0	0.00e+00	0	40	0	0	52	4795
2026-01-22 22:25:40.00	143.25	10.39	-41.0	-43.0	17.9	0.00e+00	0	40	0	0	52	4815
2026-01-22 22:25:40.85	143.35	10.34	-41.0	-42.9	18.0	0.00e+00	0	40	0	0	52	4794
2026-01-22 22:25:42.07	143.49	10.25	-41.1	-43.1	17.8	0.00e+00	0	40	0	0	52	4888
2026-01-22 22:25:42.92	143.59	10.20	-41.2	-43.2	17.7	0.00e+00	0	40	0	0	52	4943
2026-01-22 22:25:44.06	143.72	10.12	-41.3	-43.3	17.6	0.00e+00	0	40	0	0	53	4736
2026-01-22 22:25:44.91	143.82	10.06	-41.4	-43.4	17.5	0.00e+00	0	40	0	0	53	4793
2026-01-22 22:25:46.05	143.95	9.98	-41.5	-43.5	17.3	0.00e+00	0	40	0	0	53	4855
2026-01-22 22:25:46.90	144.05	9.93	-41.4	-43.5	17.4	0.00e+00	0	40	0	0	53	4830
2026-01-22 22:25:48.04	144.18	9.85	-41.5	-43.6	17.3	0.00e+00	0	40	0	0	53	4875
2026-01-22 22:25:48.89	144.27	9.79	-41.5	-43.5	17.3	0.00e+00	0	40	0	0	53	4860
2026-01-22 22:25:50.03	144.40	9.72	-41.5	-43.5	17.3	0.00e+00	0	40	0	0	53	4869
2026-01-22 22:25:50.88	144.50	9.66	-41.5	-43.6	17.3	0.00e+00	0	40	0	0	53	4893
2026-01-22 22:25:52.02	144.63	9.58	-41.6	-43.7	17.2	0.00e+00	0	40	0	0	53	4937
2026-01-22 22:25:52.87	144.72	9.53	-41.5	-43.6	16.8	0.00e+00	0	40	0	0	53	4898
2026-01-22 22:25:54.01	144.85	9.45	-41.5	-43.6	17.3	0.00e+00	0	40	0	0	53	4878
2026-01-22 22:25:54.86	144.94	9.39	-41.5	-43.7	17.2	0.00e+00	0	40	0	0	53	4931
2026-01-22 22:25:56.00	145.07	9.32	-41.5	-43.6	17.2	0.00e+00	0	40	0	0	53	4894
2026-01-22 22:25:56.86	145.16	9.26	-41.4	-43.6	17.3	0.00e+00	0	40	0	0	53	4876
2026-01-22 22:25:57.99	145.28	9.19	-41.5	-43.7	17.2	0.00e+00	0	40	0	0	53	4934
2026-01-22 22:25:58.84	145.38	9.13	-41.5	-43.7	17.2	0.00e+00	0	40	0	0	53	4933
2026-01-22 22:25:59.98	145.50	9.05	-41.5	-43.7	17.1	0.00e+00	0	40	0	0	53	4946
2026-01-22 22:26:00.83	145.59	9.00	-47.7	-54.7	7.0	6.60e-03	0	40	0	0	65	8763
2026-01-22 22:26:01.97	145.71	8.92	-49.5	-62.5	3.8	1.49e+00	0	40	104	0	69	17175
2026-01-22 22:26:02.82	145.80	8.87	-49.6	-62.8	3.8	1.49e+00	0	40	104	0	69	17734
2026-01-22 22:26:03.95	145.92	8.79	-49.8	-62.9	3.8	1.49e+00	0	40	104	0	70	17050
2026-01-22 22:26:04.80	146.01	8.74	-49.9	-62.9	3.8	1.49e+00	0	40	104	0	70	17075
2026-01-22 22:26:05.94	146.13	8.66	-50.0	-63.0	3.8	1.49e+00	0	40	104	0	70	17254
2026-01-22 22:26:06.79	146.22	8.60	-50.0	-63.1	3.8	1.49e+00	0	40	104	0	70	17300
2026-01-22 22:26:07.93	146.34	8.53	-49.8	-63.1	3.8	1.49e+00	0	40	104	0	70	17373
2026-01-22 22:26:08.78	146.43	8.47	-50.0	-63.1	3.8	1.49e+00	0	40	104	0	70	17382
2026-01-22 22:26:09.92	146.55	8.40	-50.1	-63.1	3.8	1.49e+00	0	40	104	0	70	17440
2026-01-22 22:26:10.77	146.63	8.34	-50.0	-63.2	3.8	1.49e+00	0	40	104	0	70	17489
2026-01-22 22:26:11.90	146.75	8.27	-50.1	-63.2	3.8	1.49e+00	0	40	104	0	70	17532
2026-01-22 22:26:12.76	146.84	8.21	-50.1	-63.2	3.8	1.49e+00	0	40	104	0	71	16561
2026-01-22 22:26:13.89	146.95	8.14	-50.2	-63.2	3.8	1.49e+00	0	40	104	0	71	16606
2026-01-22 22:26:14.74	147.04	8.09	-50.2	-63.2	3.8	1.49e+00	0	40	104	0	71	16683
2026-01-22 22:26:15.88	147.15	8.01	-49.9	-63.2	3.8	1.49e+00	0	40	104	0	71	16595
2026-01-22 22:26:16.73	147.24	7.96	-49.8	-63.2	3.8	1.49e+00	0	40	104	0	71	16627
2026-01-22 22:26:17.86	147.35	7.88	-50.1	-63.2	3.8	1.49e+00	0	40	104	0	71	16569
2026-01-22 22:26:18.71	147.43	7.83	-50.1	-63.2	3.8	1.49e+00	0	40	104	0	71	16624
2026-01-22 22:26:19.85	147.55	7.75	-49.8	-63.2	3.8	1.49e+00	0	40	104	0	71	16522
2026-01-22 22:26:20.70	147.63	7.70	-49.8	-63.1	3.8	1.49e+00	0	40	104	0	71	16479
2026-01-22 22:26:21.84	147.74	7.63	-50.0	-63.2	3.8	1.49e+00	0	40	104	0	71	16504
2026-01-22 22:26:22.69	147.83	7.57	-50.0	-63.1	3.8	1.49e+00	0	40	104	0	71	16500
2026-01-22 22:26:23.83	147.94	7.50	-49.9	-63.1	3.8	1.49e+00	0	40	104	0	71	16335
2026-01-22 22:26:24.68	148.02	7.44	-50.0	-63.1	3.8	1.49e+00	0	40	104	0	71	16412
2026-01-22 22:26:25.81	148.13	7.37	-49.9	-63.1	3.8	1.49e+00	0	40	104	0	71	16383
2026-01-22 22:26:26.66	148.21	7.32	-49.9	-63.1	3.8	1.49e+00	0	40	104	0	71	16396
2026-01-22 22:26:27.80	148.32	7.25	-49.9	-63.1	3.8	1.49e+00	0	40	104	0	71	16408
2026-01-22 22:26:28.65	148.40	7.19	-49.9	-63.1	3.8	1.49e+00	0	40	104	0	71	16435
2026-01-22 22:26:29.79	148.51	7.12	-49.9	-63.1	3.8	1.49e+00	0	40	104	0	71	16322
2026-01-22 22:26:30.64	148.59	7.06	-49.9	-63.1	3.8	1.49e+00	0	40	104	0	71	16377
2026-01-22 22:26:31.77	148.70	6.99	-49.9	-63.1	3.8	1.49e+00	0	40	104	0	71	16364
2026-01-22 22:26:32.62	148.78	6.94	-49.9	-63.1	3.8	1.49e+00	0	40	104	0	71	16387
2026-01-22 22:26:33.76	148.88	6.87	-49.9	-63.1	3.8	1.49e+00	0	40	104	0	71	16317
2026-01-22 22:26:34.61	148.96	6.81	-49.9	-63.1	3.8	1.49e+00	0	40	104	0	71	16367
2026-01-22 22:26:35.75	149.07	6.74	-49.9	-63.1	3.8	1.49e+00	0	40	104	0	71	16341
2026-01-22 22:26:36.60	149.15	6.69	-49.9	-63.1	3.8	1.49e+00	0	40	104	0	71	16374
2026-01-22 22:26:37.73	149.25	6.62	-49.9	-63.1	3.8	1.49e+00	0	40	104	0	71	16336
2026-01-22 22:26:38.59	149.33	6.56	-49.9	-63.1	3.8	1.49e+00	0	40	104	0	71	16326
2026-01-22 22:26:39.72	149.43	6.49	-49.9	-63.0	3.8	1.49e+00	0	40	104	0	71	16306
2026-01-22 22:26:40.57	149.51	6.44	-49.9	-63.0	3.8	1.49e+00	0	40	104	0	71	16268
2026-01-22 22:26:41.71	149.61	6.37	-49.9	-63.1	3.8	1.49e+00	0	40	104	0	71	16325
2026-01-22 22:26:42.56	149.69	6.32	-49.9	-63.1	3.8	1.49e+00	0	40	104	0	71	16326
2026-01-22 22:26:43.70	149.79	6.24	-49.9	-63.1	3.8	1.49e+00	0	40	104	0	71	16321
2026-01-22 22:26:44.55	149.87	6.19	-49.9	-63.0	3.8	1.49e+00	0	40	104	0	71	16278
2026-01-22 22:26:45.68	149.97	6.12	-49.9	-63.0	3.8	1.49e+00	0	40	104	0	71	16276
2026-01-22 22:26:46.54	150.04	6.07	-49.9	-63.0	3.8	1.49e+00	0	40	104	0	71	16303
2026-01-22 22:26:47.67	150.14	6.00	-49.9	-63.0	3.8	1.49e+00	0	40	104	0	71	16280
2026-01-22 22:26:48.52	150.22	5.95	-49.9	-63.0	3.8	1.49e+00	0	40	104	0	71	16241
2026-01-22 22:26:49.66	150.32	5.87	-49.9	-63.0	3.8	1.49e+00	0	40	104	0	71	16212
2026-01-22 22:26:50.51	150.39	5.82	-49.9	-63.0	3.8	1.49e+00	0	40	104	0	71	16245
2026-01-22 22:26:51.64	150.49	5.75	-49.9	-63.0	3.8	1.49e+00	0	40	104	0	71	16290
2026-01-22 22:26:52.49	150.56	5.70	-49.9	-63.0	3.8	1.49e+00	0	40	104	0	71	16314
2026-01-22 22:26:53.63	150.66	5.63	-49.9	-63.0	3.8	1.49e+00	0	40	104	0	71	16288
2026-01-22 22:26:54.48	150.73	5.58	-49.9	-63.0	3.8	1.49e+00	0	40	104	0	71	16291
2026-01-22 22:26:55.62	150.83	5.51	-49.9	-63.0	3.8	1.49e+00	0	40	104	0	71	16266
2026-01-22 22:26:56.47	150.90	5.46	-49.9	-63.0	3.8	1.49e+00	0	40	104	0	71	16221
2026-01-22 22:26:57.60	151.00	5.39	-49.9	-63.0	3.8	1.49e+00	0	40	104	0	71	16268
2026-01-22 22:26:58.46	151.07	5.34	-49.9	-63.0	3.8	1.49e+00	0	40	104	0	71	16210
2026-01-22 22:26:59.59	151.17	5.27	-49.9	-63.0	3.8	1.49e+00	0	40	104	0	71	16212
2026-01-22 22:27:00.44	151.24	5.22	-49.9	-63.0	3.8	1.49e+00	0	40	104	0	71	16277
2026-01-22 22:27:01.58	151.33	5.15	-49.9	-63.0	3.8	1.49e+00	0	40	104	0	71	16218
2026-01-22 22:27:02.43	151.40	5.09	-49.9	-63.0	3.8	1.49e+00	0	40	104	0	71	16299
2026-01-22 22:27:03.56	151.50	5.03	-49.9	-63.1	3.8	1.49e+00	0	40	104	0	71	16325
2026-01-22 22:27:04.41	151.57	4.97	-49.9	-63.0	3.8	1.49e+00	0	40	104	0	71	16257

#Closed at: 2026-01-22 22:27:05
#Recorded file [0 MB]: D:/Data/31040_260123_011543.dat