passes_logs/2026/01/22/T1/T1__20260122_131641_FENGYUN_3E_rec.log

#Pass ID: 20260122_131641_FENGYUN 3E
#Satellite: FENGYUN 3E
#Configuration: FENGYUN 3E
#almurnet v.1.7.20251203
#Start time: 2026-01-22 13:16:40

#Version: 2.0.20230620
#Station: T1
#Location: 37.570604 lon 55.790049 lat
#TLE: 1 49008U 21062A   26021.55921410  .00000414  00000+0  21575-3 0  9991
#TLE: 2 49008  98.7483  26.6103 0002287 125.5068 234.6322 14.19887394235776

#Time	Az	El	Level	Level2	SNR	BER	BlckErr	Temp	State	Recorded	gain1	gain2
2026-01-22 13:16:40.63	131.04	4.99	-49.6	-60.4	3.8	8.46e-01	0	35	0	0	70	11868
2026-01-22 13:16:41.62	130.99	5.05	-49.7	-60.3	3.8	8.48e-01	0	35	104	0	70	11806
2026-01-22 13:16:42.61	130.94	5.12	-49.6	-60.4	3.8	8.47e-01	0	35	104	0	70	11866
2026-01-22 13:16:43.61	130.89	5.19	-49.6	-60.4	3.8	8.47e-01	0	35	104	0	70	11937
2026-01-22 13:16:44.60	130.85	5.26	-49.7	-60.5	3.8	8.46e-01	0	35	104	0	70	11961
2026-01-22 13:16:45.59	130.80	5.33	-49.6	-60.4	3.8	8.48e-01	0	35	104	0	70	11926
2026-01-22 13:16:46.59	130.75	5.39	-49.7	-60.5	3.8	8.47e-01	0	35	104	0	70	11968
2026-01-22 13:16:47.58	130.70	5.46	-49.6	-60.5	3.8	8.47e-01	0	36	104	0	70	12005
2026-01-22 13:16:48.57	130.65	5.53	-49.7	-60.5	3.8	8.46e-01	0	36	104	0	70	12086
2026-01-22 13:16:49.57	130.60	5.60	-49.7	-60.5	3.8	8.47e-01	0	35	104	0	70	12077
2026-01-22 13:16:50.56	130.55	5.67	-49.6	-60.6	3.8	8.47e-01	0	36	104	0	70	12229
2026-01-22 13:16:51.55	130.50	5.74	-49.7	-60.6	3.8	8.47e-01	0	36	104	0	70	12204
2026-01-22 13:16:52.55	130.45	5.81	-49.7	-60.6	3.8	8.47e-01	0	36	104	0	70	12232
2026-01-22 13:16:53.54	130.40	5.88	-49.6	-60.6	3.8	8.47e-01	0	36	104	0	70	12199
2026-01-22 13:16:54.53	130.35	5.95	-49.7	-60.6	3.8	8.46e-01	0	36	104	0	70	12158
2026-01-22 13:16:55.53	130.30	6.02	-49.6	-60.5	3.8	8.47e-01	0	36	104	0	70	12070
2026-01-22 13:16:56.52	130.25	6.09	-49.7	-60.5	3.8	8.47e-01	0	36	104	0	70	12043
2026-01-22 13:16:57.51	130.20	6.16	-49.5	-60.4	3.8	8.48e-01	0	36	104	0	69	12613
2026-01-22 13:16:58.51	130.14	6.23	-49.5	-60.3	3.8	8.46e-01	0	36	104	0	69	12409
2026-01-22 13:16:59.50	130.09	6.30	-49.6	-60.2	3.8	8.47e-01	0	36	104	0	69	12274
2026-01-22 13:17:00.49	130.04	6.37	-49.5	-60.0	3.8	8.46e-01	0	36	104	0	69	12029
2026-01-22 13:17:01.49	129.99	6.44	-49.6	-59.9	3.8	8.47e-01	0	36	104	0	69	11853
2026-01-22 13:17:02.48	129.93	6.51	-49.5	-59.8	3.8	8.47e-01	0	36	104	0	69	11818
2026-01-22 13:17:03.47	129.88	6.58	-49.6	-59.8	3.8	8.47e-01	0	36	104	0	69	11790
2026-01-22 13:17:04.47	129.83	6.66	-49.6	-59.8	3.8	8.47e-01	0	36	104	0	69	11742
2026-01-22 13:17:05.46	129.77	6.73	-49.5	-60.0	3.8	8.47e-01	0	36	104	0	69	12052
2026-01-22 13:17:06.46	129.72	6.80	-49.6	-60.2	3.8	8.48e-01	0	36	104	0	69	12298
2026-01-22 13:17:07.45	129.66	6.87	-49.6	-60.5	3.8	8.46e-01	0	36	104	0	69	12675
2026-01-22 13:17:08.44	129.61	6.94	-49.6	-60.6	3.8	8.47e-01	0	36	104	0	69	12871
2026-01-22 13:17:09.43	129.56	7.01	-49.7	-60.5	3.8	8.47e-01	0	36	104	0	69	12752
2026-01-22 13:17:10.43	129.50	7.09	-49.5	-60.3	3.8	8.47e-01	0	36	104	0	69	12406
2026-01-22 13:17:11.42	129.44	7.16	-49.6	-59.7	3.8	8.46e-01	0	36	104	0	69	11569
2026-01-22 13:17:12.42	129.39	7.23	-49.4	-58.9	3.8	8.47e-01	0	37	104	0	69	10602
2026-01-22 13:17:13.41	129.33	7.31	-49.3	-58.1	4.0	8.44e-01	0	36	104	0	69	9634
2026-01-22 13:17:14.40	129.28	7.38	-49.2	-57.3	4.1	8.42e-01	0	36	104	0	69	8841
2026-01-22 13:17:15.40	129.22	7.45	-49.0	-56.6	4.3	8.35e-01	0	36	0	0	68	8655
2026-01-22 13:17:16.39	129.16	7.53	-48.8	-55.9	4.6	8.15e-01	0	37	0	0	68	7915
2026-01-22 13:17:17.38	129.11	7.60	-48.5	-54.7	5.2	7.66e-01	0	37	0	0	67	7290
2026-01-22 13:17:18.38	129.05	7.67	-47.9	-53.2	6.1	4.23e-01	0	37	0	3145728	66	6554
2026-01-22 13:17:19.37	128.99	7.75	-47.2	-51.5	7.7	1.11e-01	0	37	0	10485760	65	5699
2026-01-22 13:17:20.36	128.93	7.82	-46.4	-49.9	9.5	3.35e-02	0	37	0	16777216	63	5296
2026-01-22 13:17:21.36	128.87	7.90	-45.2	-48.0	11.4	1.85e-03	0	37	0	24117248	61	4807
2026-01-22 13:17:22.35	128.82	7.97	-44.2	-46.5	12.8	1.38e-04	0	37	0	31457280	59	4540
2026-01-22 13:17:23.34	128.76	8.05	-43.1	-45.2	14.2	4.50e-06	0	37	0	38797312	57	4356
2026-01-22 13:17:24.34	128.70	8.12	-42.1	-43.9	15.2	0.00e+00	0	37	0	46137344	55	4236
2026-01-22 13:17:25.33	128.64	8.20	-41.3	-43.0	16.1	0.00e+00	0	37	0	53477376	53	4284
2026-01-22 13:17:26.32	128.58	8.27	-40.7	-42.4	16.7	0.00e+00	0	37	0	59768832	52	4231
2026-01-22 13:17:27.32	128.52	8.35	-40.4	-42.1	17.0	0.00e+00	0	37	0	67108864	51	4318
2026-01-22 13:17:28.31	128.46	8.43	-40.2	-41.8	17.3	0.00e+00	0	37	0	74448896	51	4172
2026-01-22 13:17:29.30	128.40	8.50	-40.3	-41.9	17.2	0.00e+00	0	37	0	81788928	51	4218
2026-01-22 13:17:30.30	128.33	8.58	-40.4	-42.1	17.0	0.00e+00	0	37	0	89128960	51	4309
2026-01-22 13:17:31.29	128.27	8.65	-41.0	-42.8	16.4	0.00e+00	0	37	0	96468992	51	4656
2026-01-22 13:17:32.28	128.21	8.73	-41.5	-43.4	15.8	0.00e+00	0	37	0	103809024	52	4720
2026-01-22 13:17:33.28	128.15	8.81	-42.4	-44.4	14.8	0.00e+00	0	37	0	110100480	54	4706
2026-01-22 13:17:34.27	128.09	8.89	-43.5	-45.7	13.6	2.20e-06	0	37	0	117440512	56	4898
2026-01-22 13:17:35.26	128.02	8.96	-44.6	-47.1	12.2	1.52e-04	0	37	0	124780544	58	5149
2026-01-22 13:17:36.26	127.96	9.04	-45.1	-47.9	11.4	2.63e-03	0	37	0	132120576	60	5039
2026-01-22 13:17:37.39	127.89	9.13	-41.0	-42.8	16.4	0.00e+00	0	37	0	140509184	52	4397
2026-01-22 13:17:38.25	127.83	9.20	-46.2	-49.6	9.8	1.79e-02	0	37	0	146800640	62	5420
2026-01-22 13:17:39.59	127.74	9.30	-42.0	-43.8	15.3	3.90e-04	0	37	0	156237824	54	4436
2026-01-22 13:17:40.30	127.70	9.36	-42.5	-44.5	14.8	0.00e+00	0	37	0	161480704	54	4793
2026-01-22 13:17:41.78	127.60	9.48	-43.6	-45.9	13.5	1.33e-03	0	37	0	167772160	58	4454
2026-01-22 13:17:42.49	127.55	9.53	-43.4	-45.6	13.9	0.00e+00	0	37	0	173015040	57	4551
2026-01-22 13:17:43.77	127.47	9.63	-42.6	-44.6	14.9	0.00e+00	0	37	0	182452224	56	4303
2026-01-22 13:17:44.50	127.42	9.69	-42.0	-43.9	15.4	0.00e+00	0	37	0	187695104	54	4452
2026-01-22 13:17:45.78	127.33	9.79	-41.5	-43.3	16.0	0.00e+00	0	37	0	197132288	53	4416
2026-01-22 13:17:46.50	127.29	9.85	-40.9	-42.6	16.6	0.00e+00	0	37	0	202375168	52	4326
2026-01-22 13:17:47.78	127.20	9.96	-40.6	-42.2	17.1	0.00e+00	0	37	0	211812352	51	4358
2026-01-22 13:17:48.49	127.15	10.01	-40.3	-41.9	17.4	0.00e+00	0	37	0	217055232	51	4202
2026-01-22 13:17:49.77	127.06	10.12	-40.1	-41.7	17.5	0.00e+00	0	37	0	225443840	50	4367
2026-01-22 13:17:50.48	127.01	10.17	-40.0	-41.5	17.7	0.00e+00	0	37	0	230686720	50	4273
2026-01-22 13:17:51.76	126.92	10.28	-39.6	-41.2	18.0	0.00e+00	0	37	0	240123904	49	4356
2026-01-22 13:17:52.58	126.87	10.35	-40.0	-41.5	17.7	0.00e+00	0	37	0	246415360	49	4537
2026-01-22 13:17:54.02	126.77	10.46	-39.7	-41.2	18.0	0.00e+00	0	37	0	255852544	49	4385
2026-01-22 13:17:54.73	126.71	10.52	-39.7	-41.2	18.0	0.00e+00	0	37	0	261095424	49	4369
2026-01-22 13:17:56.21	126.61	10.64	-39.3	-40.8	18.3	0.00e+00	0	37	0	272629760	49	4175
2026-01-22 13:17:56.93	126.56	10.70	-39.4	-41.0	18.2	0.00e+00	0	37	0	276824064	49	4249
2026-01-22 13:17:58.25	126.46	10.81	-39.2	-40.7	18.4	0.00e+00	0	37	0	287309824	49	4134
2026-01-22 13:17:58.97	126.41	10.87	-39.3	-40.8	18.3	0.00e+00	0	37	0	292552704	49	4163
2026-01-22 13:18:00.25	126.32	10.98	-39.0	-40.5	18.6	0.00e+00	0	37	0	300941312	48	4288
2026-01-22 13:18:00.96	126.26	11.04	-39.0	-40.5	18.6	0.00e+00	0	37	0	306184192	48	4290
2026-01-22 13:18:02.24	126.17	11.15	-39.0	-40.5	18.6	0.00e+00	0	37	0	315621376	48	4266
2026-01-22 13:18:02.98	126.11	11.21	-38.9	-40.4	18.7	0.00e+00	0	37	0	320864256	48	4220
2026-01-22 13:18:04.26	126.02	11.32	-38.6	-40.2	19.0	0.00e+00	0	37	0	330301440	48	4100
2026-01-22 13:18:04.97	125.97	11.38	-38.6	-40.1	19.0	0.00e+00	0	37	0	335544320	48	4096
2026-01-22 13:18:06.25	125.87	11.48	-38.6	-40.1	19.0	0.00e+00	0	37	0	344981504	48	4073
2026-01-22 13:18:06.96	125.81	11.55	-38.7	-40.3	18.5	0.00e+00	0	37	0	350224384	47	4429
2026-01-22 13:18:08.24	125.72	11.65	-38.4	-40.0	18.8	0.00e+00	0	37	0	359661568	47	4254
2026-01-22 13:18:08.98	125.66	11.72	-38.5	-40.1	18.8	0.00e+00	0	37	0	364904448	47	4313
2026-01-22 13:18:10.24	125.56	11.83	-38.6	-40.2	18.7	0.00e+00	0	37	0	373293056	47	4351
2026-01-22 13:18:11.15	125.49	11.90	-38.4	-40.0	18.9	0.00e+00	0	37	0	380633088	47	4245
2026-01-22 13:18:12.15	125.41	11.99	-38.2	-39.8	19.0	0.00e+00	0	38	0	386924544	47	4160
2026-01-22 13:18:13.15	125.33	12.08	-38.4	-39.9	18.9	0.00e+00	0	37	0	394264576	46	4480
2026-01-22 13:18:14.14	125.25	12.16	-38.4	-40.0	18.9	0.00e+00	0	38	0	401604608	46	4497
2026-01-22 13:18:15.13	125.18	12.25	-38.3	-39.8	19.0	0.00e+00	0	37	0	408944640	46	4438
2026-01-22 13:18:16.13	125.09	12.34	-38.2	-39.8	19.1	0.00e+00	0	37	0	416284672	46	4398
2026-01-22 13:18:17.12	125.01	12.42	-38.3	-39.8	19.0	0.00e+00	0	37	0	423624704	46	4433
2026-01-22 13:18:18.12	124.93	12.51	-38.2	-39.8	19.1	0.00e+00	0	38	0	430964736	46	4409
2026-01-22 13:18:19.11	124.85	12.60	-38.2	-39.7	19.1	0.00e+00	0	37	0	437256192	46	4364
2026-01-22 13:18:20.11	124.77	12.69	-38.2	-39.8	19.1	0.00e+00	0	38	0	444596224	46	4392
2026-01-22 13:18:21.10	124.69	12.77	-38.2	-39.7	19.2	0.00e+00	0	37	0	451936256	46	4365
2026-01-22 13:18:22.10	124.60	12.86	-38.2	-39.8	19.1	0.00e+00	0	37	0	459276288	46	4397
2026-01-22 13:18:23.10	124.52	12.95	-38.2	-39.7	19.2	0.00e+00	0	38	0	466616320	46	4379
2026-01-22 13:18:24.09	124.44	13.04	-38.1	-39.6	19.3	0.00e+00	0	38	0	473956352	46	4300
2026-01-22 13:18:25.08	124.35	13.13	-38.0	-39.5	19.3	0.00e+00	0	38	0	481296384	46	4288
2026-01-22 13:18:26.08	124.27	13.22	-38.0	-39.5	19.4	0.00e+00	0	38	0	487587840	46	4256
2026-01-22 13:18:27.08	124.18	13.31	-37.8	-39.3	19.6	0.00e+00	0	38	0	494927872	46	4148
2026-01-22 13:18:28.07	124.10	13.40	-37.6	-39.1	19.8	0.00e+00	0	37	0	502267904	46	4054
2026-01-22 13:18:29.07	124.01	13.49	-37.8	-39.3	19.5	0.00e+00	0	38	0	509607936	46	4154
2026-01-22 13:18:30.06	123.92	13.58	-37.8	-39.2	19.6	0.00e+00	0	37	0	516947968	46	4136
2026-01-22 13:18:31.06	123.83	13.67	-37.7	-39.2	19.6	0.00e+00	0	38	0	524288000	46	4130
2026-01-22 13:18:32.06	123.74	13.76	-37.8	-39.3	19.5	0.00e+00	0	38	0	530579456	46	4168
2026-01-22 13:18:33.05	123.66	13.86	-37.9	-39.4	19.5	0.00e+00	0	38	0	537919488	46	4213
2026-01-22 13:18:34.04	123.57	13.95	-37.8	-39.3	19.5	0.00e+00	0	38	0	545259520	45	4435
2026-01-22 13:18:35.04	123.48	14.04	-37.8	-39.2	19.6	0.00e+00	0	38	0	552599552	45	4384
2026-01-22 13:18:36.03	123.39	14.13	-37.8	-39.2	19.6	0.00e+00	0	38	0	559939584	45	4391
2026-01-22 13:18:37.03	123.29	14.22	-37.8	-39.3	19.6	0.00e+00	0	38	0	567279616	45	4395
2026-01-22 13:18:38.02	123.20	14.32	-37.6	-39.1	19.8	0.00e+00	0	38	0	574619648	45	4296
2026-01-22 13:18:39.01	123.11	14.41	-37.7	-39.2	19.6	0.00e+00	0	38	0	581959680	45	4371
2026-01-22 13:18:40.01	123.02	14.50	-37.6	-39.1	19.8	0.00e+00	0	38	0	588251136	45	4299
2026-01-22 13:18:41.00	122.92	14.60	-37.6	-39.0	19.8	0.00e+00	0	38	0	595591168	45	4291
2026-01-22 13:18:42.00	122.83	14.69	-37.5	-39.0	19.8	0.00e+00	0	38	0	602931200	45	4274
2026-01-22 13:18:42.99	122.74	14.78	-37.4	-38.8	20.0	0.00e+00	0	38	0	610271232	45	4167
2026-01-22 13:18:43.99	122.64	14.88	-37.4	-38.9	19.9	0.00e+00	0	38	0	617611264	44	4457
2026-01-22 13:18:44.98	122.54	14.97	-37.4	-38.9	20.0	0.00e+00	0	38	0	624951296	44	4461
2026-01-22 13:18:45.97	122.45	15.07	-37.4	-38.8	20.0	0.00e+00	0	38	0	631242752	44	4419
2026-01-22 13:18:46.97	122.35	15.16	-37.4	-38.9	20.0	0.00e+00	0	38	0	638582784	44	4450
2026-01-22 13:18:47.97	122.25	15.26	-37.4	-38.8	20.0	0.00e+00	0	38	0	645922816	44	4423
2026-01-22 13:18:48.96	122.15	15.36	-37.5	-39.0	19.9	0.00e+00	0	38	0	653262848	44	4507
2026-01-22 13:18:49.96	122.05	15.45	-37.3	-38.7	20.1	0.00e+00	0	38	0	660602880	44	4362
2026-01-22 13:18:50.95	121.95	15.55	-37.3	-38.7	20.1	0.00e+00	0	38	0	667942912	44	4353
2026-01-22 13:18:52.06	121.84	15.66	-37.2	-38.6	20.2	0.00e+00	0	38	0	675282944	44	4317
2026-01-22 13:18:52.91	121.76	15.74	-37.2	-38.6	20.2	0.00e+00	0	38	0	681574400	44	4322
2026-01-22 13:18:54.24	121.62	15.87	-36.8	-38.2	20.6	0.00e+00	0	38	0	691011584	44	4112
2026-01-22 13:18:54.95	121.55	15.94	-37.1	-38.5	20.3	0.00e+00	0	38	0	696254464	44	4265
2026-01-22 13:18:56.23	121.41	16.07	-37.0	-38.4	20.4	0.00e+00	0	38	0	705691648	44	4223
2026-01-22 13:18:56.94	121.34	16.14	-37.0	-38.4	20.4	0.00e+00	0	38	0	710934528	44	4234
2026-01-22 13:18:58.22	121.20	16.26	-37.1	-38.4	20.4	0.00e+00	0	38	0	720371712	44	4240
2026-01-22 13:18:58.95	121.13	16.33	-36.9	-38.3	20.5	0.00e+00	0	38	0	725614592	44	4176
2026-01-22 13:19:00.23	120.99	16.46	-36.8	-38.2	20.6	0.00e+00	0	38	0	735051776	44	4116
2026-01-22 13:19:00.94	120.91	16.53	-36.9	-38.3	20.5	0.00e+00	0	38	0	739246080	44	4180
2026-01-22 13:19:02.21	120.78	16.66	-36.9	-38.3	20.5	0.00e+00	0	38	0	748683264	44	4165
2026-01-22 13:19:02.94	120.70	16.73	-37.0	-38.4	20.4	0.00e+00	0	38	0	753926144	44	4210
2026-01-22 13:19:04.22	120.56	16.86	-36.8	-38.2	20.5	0.00e+00	0	38	0	763363328	44	4122
2026-01-22 13:19:04.93	120.48	16.94	-36.5	-37.9	20.7	0.00e+00	0	38	0	768606208	43	4215
2026-01-22 13:19:06.24	120.33	17.07	-36.6	-38.0	20.6	0.00e+00	0	38	0	778043392	43	4250
2026-01-22 13:19:06.95	120.25	17.14	-36.5	-37.9	20.7	0.00e+00	0	38	0	783286272	43	4224
2026-01-22 13:19:08.26	120.11	17.28	-36.5	-37.9	20.7	0.00e+00	0	38	0	792723456	43	4211
2026-01-22 13:19:08.97	120.02	17.35	-36.6	-38.0	20.6	0.00e+00	0	38	0	797966336	43	4243
2026-01-22 13:19:10.25	119.88	17.48	-36.4	-37.8	20.7	0.00e+00	0	38	0	806354944	43	4176
2026-01-22 13:19:10.97	119.80	17.55	-36.5	-37.9	20.7	0.00e+00	0	38	0	812646400	43	4195
2026-01-22 13:19:12.25	119.65	17.69	-36.6	-37.9	20.7	0.00e+00	0	38	0	821035008	43	4241
2026-01-22 13:19:12.96	119.56	17.76	-36.6	-38.0	20.6	0.00e+00	0	38	0	826277888	43	4277
2026-01-22 13:19:14.24	119.41	17.89	-36.6	-38.0	20.6	0.00e+00	0	38	0	835715072	43	4255
2026-01-22 13:19:14.98	119.33	17.97	-36.3	-37.7	20.9	0.00e+00	0	38	0	840957952	43	4100
2026-01-22 13:19:16.27	119.17	18.11	-36.6	-38.0	20.6	0.00e+00	0	38	0	850395136	43	4252
2026-01-22 13:19:16.97	119.09	18.18	-36.5	-37.9	20.6	0.00e+00	0	38	0	855638016	43	4240
2026-01-22 13:19:18.26	118.93	18.32	-36.4	-37.7	20.8	0.00e+00	0	38	0	864026624	43	4143
2026-01-22 13:19:18.98	118.84	18.39	-36.3	-37.7	20.8	0.00e+00	0	38	0	870318080	43	4138
2026-01-22 13:19:20.26	118.69	18.53	-36.5	-37.9	20.7	0.00e+00	0	38	0	878706688	43	4212
2026-01-22 13:19:21.07	118.59	18.61	-36.3	-37.7	20.9	0.00e+00	0	38	0	884998144	43	4114
2026-01-22 13:19:22.21	118.45	18.74	-36.2	-37.6	20.9	0.00e+00	0	38	0	893386752	43	4084
2026-01-22 13:19:23.06	118.34	18.83	-36.1	-37.5	21.0	0.00e+00	0	38	0	898629632	43	4014
2026-01-22 13:19:24.20	118.19	18.95	-36.2	-37.5	21.0	0.00e+00	0	38	0	907018240	43	4047
2026-01-22 13:19:25.05	118.09	19.04	-36.0	-37.4	21.1	0.00e+00	0	38	0	913309696	42	4215
2026-01-22 13:19:26.19	117.94	19.16	-36.1	-37.5	21.0	0.00e+00	0	38	0	921698304	42	4244
2026-01-22 13:19:27.04	117.83	19.26	-36.0	-37.4	21.1	0.00e+00	0	38	0	927989760	42	4194
2026-01-22 13:19:28.21	117.68	19.38	-36.0	-37.4	21.1	0.00e+00	0	38	0	936378368	42	4216
2026-01-22 13:19:29.07	117.57	19.48	-36.1	-37.4	21.1	0.00e+00	0	38	0	942669824	42	4238
2026-01-22 13:19:30.28	117.41	19.61	-36.1	-37.5	21.0	0.00e+00	0	38	0	951058432	42	4264
2026-01-22 13:19:31.13	117.29	19.70	-36.1	-37.5	21.1	0.00e+00	0	38	0	957349888	42	4250
2026-01-22 13:19:32.35	117.13	19.84	-36.1	-37.5	21.1	0.00e+00	0	38	0	966787072	42	4270
2026-01-22 13:19:33.20	117.02	19.93	-36.2	-37.6	20.9	0.00e+00	0	38	0	972029952	42	4321
2026-01-22 13:19:34.40	116.85	20.06	-36.4	-37.8	20.7	0.00e+00	0	38	0	981467136	42	4413
2026-01-22 13:19:35.25	116.74	20.16	-36.4	-37.8	20.8	0.00e+00	0	38	0	986710016	42	4410
2026-01-22 13:19:36.46	116.57	20.29	-36.6	-38.0	20.6	0.00e+00	0	38	0	996147200	42	4528
2026-01-22 13:19:37.31	116.45	20.39	-36.5	-38.0	20.6	0.00e+00	0	38	0	1002438656	42	4506
2026-01-22 13:19:38.45	116.29	20.51	-36.5	-37.9	20.7	0.00e+00	0	38	0	1010827264	42	4473
2026-01-22 13:19:39.30	116.17	20.61	-36.5	-37.9	20.6	0.00e+00	0	38	0	1016070144	42	4492
2026-01-22 13:19:40.44	116.01	20.74	-36.4	-37.8	20.8	0.00e+00	0	38	0	1024458752	42	4407
2026-01-22 13:19:41.29	115.89	20.83	-36.4	-37.9	20.7	0.00e+00	0	38	0	1030750208	42	4450
2026-01-22 13:19:42.43	115.72	20.96	-36.4	-37.8	20.8	0.00e+00	0	38	0	1039138816	42	4417
2026-01-22 13:19:43.28	115.60	21.06	-36.3	-37.7	20.9	0.00e+00	0	38	0	1045430272	42	4359
2026-01-22 13:19:44.42	115.43	21.19	-36.2	-37.6	20.9	0.00e+00	0	38	0	1053818880	42	4327
2026-01-22 13:19:45.27	115.31	21.29	-36.2	-37.6	20.9	0.00e+00	0	38	0	1060110336	42	4318
2026-01-22 13:19:46.41	115.14	21.42	-36.4	-37.8	20.8	0.00e+00	0	38	0	1067450368	42	4416
2026-01-22 13:19:47.26	115.01	21.51	-35.9	-37.3	21.2	0.00e+00	0	38	0	1073741824	42	4170
2026-01-22 13:19:48.40	114.84	21.64	-36.1	-37.4	21.1	0.00e+00	0	38	0	1082130432	42	4235
2026-01-22 13:19:49.25	114.71	21.74	-35.9	-37.3	21.2	0.00e+00	0	38	0	1088421888	42	4168
2026-01-22 13:19:50.39	114.54	21.87	-35.9	-37.3	21.2	0.00e+00	0	38	0	1096810496	42	4166
2026-01-22 13:19:51.24	114.41	21.97	-36.0	-37.3	21.2	0.00e+00	0	38	0	1103101952	42	4184
2026-01-22 13:19:52.38	114.23	22.11	-36.0	-37.4	21.1	0.00e+00	0	38	0	1111490560	42	4196
2026-01-22 13:19:53.24	114.09	22.21	-35.9	-37.3	21.2	0.00e+00	0	38	0	1116733440	42	4180
2026-01-22 13:19:54.37	113.92	22.34	-36.0	-37.4	21.1	0.00e+00	0	38	0	1125122048	42	4196
2026-01-22 13:19:55.23	113.78	22.44	-35.9	-37.3	21.2	0.00e+00	0	38	0	1131413504	42	4154
2026-01-22 13:19:56.36	113.60	22.57	-36.0	-37.4	21.1	0.00e+00	0	38	0	1139802112	42	4200
2026-01-22 13:19:57.21	113.46	22.67	-36.0	-37.4	21.1	0.00e+00	0	38	0	1146093568	42	4206
2026-01-22 13:19:58.53	113.25	22.83	-35.9	-37.3	21.1	0.00e+00	0	38	0	1155530752	42	4183
2026-01-22 13:19:59.24	113.13	22.91	-35.8	-37.2	21.2	0.00e+00	0	38	0	1160773632	42	4132
2026-01-22 13:20:00.69	112.89	23.08	-36.4	-37.3	22.0	0.00e+00	0	38	0	1171259392	42	4146
2026-01-22 13:20:01.40	112.77	23.17	-36.3	-37.2	22.0	0.00e+00	0	38	0	1175453696	42	4113
2026-01-22 13:20:02.68	112.56	23.32	-36.2	-37.1	22.1	0.00e+00	0	38	0	1184890880	42	4075
2026-01-22 13:20:03.39	112.44	23.40	-36.3	-37.1	22.1	0.00e+00	0	38	0	1190133760	42	4088
2026-01-22 13:20:04.67	112.22	23.56	-36.2	-37.1	22.1	0.00e+00	0	38	0	1199570944	42	4066
2026-01-22 13:20:05.40	112.09	23.65	-36.2	-37.1	22.1	0.00e+00	0	38	0	1204813824	42	4085
2026-01-22 13:20:06.68	111.87	23.80	-36.1	-37.0	22.2	0.00e+00	0	38	0	1214251008	42	4030
2026-01-22 13:20:07.39	111.75	23.89	-35.9	-36.8	22.4	0.00e+00	0	38	0	1219493888	42	3929
2026-01-22 13:20:08.67	111.52	24.04	-36.0	-36.9	22.3	0.00e+00	0	38	0	1228931072	42	3966
2026-01-22 13:20:09.44	111.38	24.13	-36.1	-36.9	22.2	0.00e+00	0	38	0	1234173952	42	3996
2026-01-22 13:20:10.72	111.16	24.29	-35.9	-36.8	22.4	0.00e+00	0	38	0	1243611136	42	3927
2026-01-22 13:20:11.50	111.01	24.38	-35.8	-36.6	22.5	0.00e+00	0	38	0	1248854016	42	3845
2026-01-22 13:20:12.77	110.78	24.54	-35.7	-36.5	22.6	0.00e+00	0	38	0	1258291200	42	3814
2026-01-22 13:20:13.55	110.64	24.63	-35.5	-36.3	22.7	0.00e+00	0	38	0	1263534080	41	3958
2026-01-22 13:20:14.83	110.40	24.79	-35.5	-36.3	22.8	0.00e+00	0	38	0	1272971264	41	3931
2026-01-22 13:20:15.54	110.27	24.88	-35.5	-36.3	22.8	0.00e+00	0	38	0	1278214144	41	3936
2026-01-22 13:20:16.82	110.03	25.04	-35.4	-36.3	22.8	0.00e+00	0	38	0	1287651328	41	3914
2026-01-22 13:20:17.53	109.90	25.12	-35.3	-36.1	22.9	0.00e+00	0	38	0	1292894208	41	3864
2026-01-22 13:20:18.81	109.65	25.28	-35.6	-36.4	22.7	0.00e+00	0	38	0	1301282816	41	3992
2026-01-22 13:20:19.55	109.51	25.37	-35.5	-36.3	22.8	0.00e+00	0	38	0	1306525696	41	3924
2026-01-22 13:20:20.83	109.26	25.53	-35.6	-36.4	22.7	0.00e+00	0	38	0	1315962880	41	3990
2026-01-22 13:20:21.54	109.13	25.62	-35.6	-36.5	22.7	0.00e+00	0	38	0	1321205760	41	4015
2026-01-22 13:20:22.82	108.87	25.78	-35.6	-36.5	22.7	0.00e+00	0	38	0	1330642944	41	4011
2026-01-22 13:20:23.53	108.73	25.87	-35.8	-36.6	22.5	0.00e+00	0	38	0	1335885824	41	4077
2026-01-22 13:20:24.80	108.48	26.02	-35.8	-36.6	22.5	0.00e+00	0	38	0	1345323008	41	4095
2026-01-22 13:20:25.52	108.33	26.11	-35.8	-36.7	22.5	0.00e+00	0	38	0	1350565888	41	4100
2026-01-22 13:20:26.80	108.07	26.27	-35.9	-36.7	22.4	0.00e+00	0	38	0	1358954496	41	4135
2026-01-22 13:20:27.51	107.93	26.36	-36.0	-36.9	22.3	0.00e+00	0	38	0	1364197376	41	4195
2026-01-22 13:20:28.79	107.66	26.52	-35.9	-36.7	22.4	0.00e+00	0	38	0	1373634560	41	4135
2026-01-22 13:20:29.50	107.52	26.61	-35.9	-36.8	22.4	0.00e+00	0	38	0	1378877440	41	4147
2026-01-22 13:20:30.77	107.25	26.77	-35.9	-36.8	22.4	0.00e+00	0	38	0	1388314624	41	4162
2026-01-22 13:20:31.69	107.06	26.89	-35.9	-36.8	22.4	0.00e+00	0	38	0	1394606080	41	4165
2026-01-22 13:20:32.99	106.78	27.05	-35.9	-36.8	22.4	0.00e+00	0	38	0	1404043264	41	4150
2026-01-22 13:20:33.70	106.63	27.14	-36.1	-36.9	22.3	0.00e+00	0	38	0	1409286144	41	4233
2026-01-22 13:20:34.98	106.35	27.30	-36.2	-37.1	22.1	0.00e+00	0	38	0	1418723328	41	4305
2026-01-22 13:20:35.69	106.19	27.39	-36.2	-37.1	22.2	0.00e+00	0	38	0	1423966208	41	4294
2026-01-22 13:20:36.97	105.91	27.56	-36.3	-37.2	22.1	0.00e+00	0	38	0	1433403392	42	4116
2026-01-22 13:20:37.70	105.75	27.65	-36.3	-37.2	22.1	0.00e+00	0	38	0	1437597696	42	4119
2026-01-22 13:20:38.98	105.46	27.81	-36.2	-37.0	22.2	0.00e+00	0	38	0	1447034880	42	4045
2026-01-22 13:20:39.72	105.30	27.90	-36.2	-37.0	22.2	0.00e+00	0	38	0	1453326336	42	4049
2026-01-22 13:20:41.00	105.01	28.07	-36.1	-37.0	22.2	0.00e+00	0	38	0	1461714944	42	4023
2026-01-22 13:20:41.74	104.84	28.16	-36.0	-36.9	22.3	0.00e+00	0	38	0	1466957824	42	3972
2026-01-22 13:20:43.02	104.54	28.32	-36.1	-36.9	22.3	0.00e+00	0	38	0	1476395008	42	3999
2026-01-22 13:20:43.73	104.37	28.41	-36.2	-37.1	22.2	0.00e+00	0	38	0	1481637888	42	4063
2026-01-22 13:20:45.01	104.07	28.58	-36.0	-36.8	22.4	0.00e+00	0	38	0	1491075072	42	3939
2026-01-22 13:20:45.73	103.90	28.67	-36.0	-36.8	22.4	0.00e+00	0	38	0	1496317952	42	3953
2026-01-22 13:20:47.01	103.60	28.83	-35.8	-36.6	22.6	0.00e+00	0	38	0	1505755136	42	3857
2026-01-22 13:20:47.77	103.42	28.93	-35.7	-36.6	22.6	0.00e+00	0	38	0	1510998016	42	3837
2026-01-22 13:20:49.05	103.11	29.09	-35.7	-36.5	22.7	0.00e+00	0	38	0	1520435200	42	3803
2026-01-22 13:20:49.79	102.92	29.19	-35.6	-36.4	22.7	0.00e+00	0	38	0	1525678080	41	4000
2026-01-22 13:20:51.06	102.61	29.35	-35.4	-36.2	22.9	0.00e+00	0	38	0	1535115264	41	3909
2026-01-22 13:20:51.78	102.43	29.44	-35.4	-36.2	22.9	0.00e+00	0	38	0	1539309568	41	3894
2026-01-22 13:20:53.05	102.11	29.60	-35.4	-36.2	22.9	0.00e+00	0	38	0	1548746752	41	3911
2026-01-22 13:20:53.80	101.93	29.70	-35.4	-36.2	22.9	0.00e+00	0	38	0	1553989632	41	3884
2026-01-22 13:20:55.07	101.60	29.86	-35.4	-36.2	22.9	0.00e+00	0	38	0	1563426816	41	3906
2026-01-22 13:20:55.79	101.42	29.95	-35.5	-36.3	22.8	0.00e+00	0	38	0	1568669696	41	3934
2026-01-22 13:20:57.06	101.09	30.11	-35.5	-36.3	22.8	0.00e+00	0	38	0	1578106880	41	3946
2026-01-22 13:20:57.77	100.90	30.20	-35.4	-36.3	22.9	0.00e+00	0	38	0	1583349760	41	3919
2026-01-22 13:20:59.05	100.57	30.36	-35.3	-36.2	23.0	0.00e+00	0	38	0	1591738368	41	3872
2026-01-22 13:20:59.76	100.38	30.45	-35.2	-36.0	23.1	0.00e+00	0	38	0	1596981248	41	3802
2026-01-22 13:21:01.04	100.04	30.61	-35.1	-35.9	23.1	0.00e+00	0	38	0	1606418432	40	4002
2026-01-22 13:21:01.75	99.85	30.70	-35.0	-35.8	23.2	0.00e+00	0	38	0	1611661312	40	3954
2026-01-22 13:21:03.14	99.47	30.88	-35.1	-35.9	23.2	0.00e+00	0	38	0	1622147072	40	3989
2026-01-22 13:21:03.85	99.28	30.97	-35.1	-35.9	23.2	0.00e+00	0	38	0	1626341376	40	3992
2026-01-22 13:21:05.21	98.90	31.14	-35.0	-35.8	23.2	0.00e+00	0	38	0	1636827136	40	3956
2026-01-22 13:21:05.92	98.71	31.23	-35.1	-36.0	23.1	0.00e+00	0	38	0	1642070016	40	4005
2026-01-22 13:21:07.20	98.35	31.39	-35.2	-36.0	23.1	0.00e+00	0	38	0	1650458624	40	4031
2026-01-22 13:21:08.24	98.05	31.52	-35.2	-36.0	23.1	0.00e+00	0	38	0	1658847232	40	4038
2026-01-22 13:21:09.24	97.77	31.64	-35.2	-36.0	23.1	0.00e+00	0	38	0	1666187264	40	4019
2026-01-22 13:21:10.23	97.49	31.77	-35.3	-36.1	23.0	0.00e+00	0	38	0	1672478720	40	4094
2026-01-22 13:21:11.23	97.20	31.89	-35.4	-36.3	22.9	0.00e+00	0	38	0	1679818752	40	4149
2026-01-22 13:21:12.22	96.91	32.01	-35.4	-36.3	22.9	0.00e+00	0	38	0	1687158784	40	4150
2026-01-22 13:21:13.21	96.62	32.14	-35.6	-36.5	22.7	0.00e+00	0	38	0	1694498816	40	4252
2026-01-22 13:21:14.21	96.32	32.26	-35.7	-36.5	22.6	0.00e+00	0	38	0	1701838848	41	4040
2026-01-22 13:21:15.23	96.02	32.39	-35.8	-36.7	22.5	0.00e+00	0	38	0	1709178880	41	4109
2026-01-22 13:21:16.26	95.71	32.51	-35.8	-36.7	22.5	0.00e+00	0	38	0	1716518912	41	4112
2026-01-22 13:21:17.26	95.41	32.63	-35.8	-36.7	22.6	0.00e+00	0	38	0	1723858944	41	4109
2026-01-22 13:21:18.30	95.09	32.76	-35.8	-36.7	22.5	0.00e+00	0	38	0	1731198976	41	4108
2026-01-22 13:21:19.36	94.76	32.89	-35.8	-36.6	22.6	0.00e+00	0	38	0	1738539008	41	4082
2026-01-22 13:21:20.23	94.49	32.99	-35.6	-36.4	22.7	0.00e+00	0	38	0	1744830464	41	4002
2026-01-22 13:21:21.36	94.14	33.13	-35.5	-36.3	22.8	0.00e+00	0	38	0	1753219072	41	3952
2026-01-22 13:21:22.22	93.87	33.23	-35.4	-36.3	22.9	0.00e+00	0	38	0	1759510528	41	3918
2026-01-22 13:21:23.36	93.51	33.37	-35.4	-36.2	22.9	0.00e+00	0	38	0	1767899136	41	3901
2026-01-22 13:21:24.21	93.24	33.47	-35.4	-36.3	22.9	0.00e+00	0	38	0	1774190592	41	3914
2026-01-22 13:21:25.35	92.87	33.60	-35.2	-36.1	23.1	0.00e+00	0	38	0	1781530624	41	3829
2026-01-22 13:21:26.20	92.60	33.70	-35.2	-36.0	22.5	0.00e+00	0	38	0	1787822080	40	4025
2026-01-22 13:21:27.65	92.13	33.87	-35.2	-36.0	23.1	0.00e+00	0	38	0	1798307840	40	4021
2026-01-22 13:21:28.36	91.89	33.96	-35.0	-35.8	23.2	0.00e+00	0	38	0	1803550720	40	3956
2026-01-22 13:21:29.80	91.41	34.12	-34.9	-35.7	23.3	0.00e+00	0	38	0	1814036480	40	3895
2026-01-22 13:21:30.51	91.18	34.20	-34.8	-35.6	23.4	0.00e+00	0	38	0	1819279360	40	3856
2026-01-22 13:21:31.79	90.75	34.35	-35.0	-35.8	23.3	0.00e+00	0	38	0	1828716544	40	3933
2026-01-22 13:21:32.50	90.51	34.43	-35.0	-35.8	23.3	0.00e+00	0	38	0	1833959424	40	3942
2026-01-22 13:21:33.78	90.07	34.57	-35.3	-36.2	23.0	0.00e+00	0	38	0	1843396608	40	4105
2026-01-22 13:21:34.49	89.83	34.65	-35.5	-36.4	22.8	0.00e+00	0	38	0	1847590912	40	4194
2026-01-22 13:21:35.77	89.39	34.80	-35.7	-36.5	22.7	0.00e+00	0	38	0	1857028096	40	4272
2026-01-22 13:21:36.50	89.13	34.88	-35.6	-36.4	22.8	0.00e+00	0	38	0	1862270976	40	4227
2026-01-22 13:21:37.77	88.69	35.01	-35.6	-36.4	22.7	0.00e+00	0	38	0	1871708160	40	4236
2026-01-22 13:21:38.50	88.43	35.09	-35.6	-36.4	22.8	0.00e+00	0	38	0	1876951040	40	4225
2026-01-22 13:21:39.78	87.97	35.23	-35.5	-36.3	22.9	0.00e+00	0	38	0	1886388224	40	4190
2026-01-22 13:21:40.59	87.68	35.32	-35.4	-36.2	22.7	0.00e+00	0	38	0	1891631104	40	4143
2026-01-22 13:21:42.05	87.16	35.47	-35.2	-36.0	23.1	0.00e+00	0	38	0	1902116864	40	4028
2026-01-22 13:21:42.77	86.90	35.55	-35.3	-36.1	23.0	0.00e+00	0	38	0	1908408320	40	4093
2026-01-22 13:21:44.05	86.43	35.68	-35.3	-36.1	23.0	0.00e+00	0	38	0	1916796928	40	4088
2026-01-22 13:21:44.77	86.17	35.76	-35.4	-36.3	22.9	0.00e+00	0	38	0	1922039808	40	4160
2026-01-22 13:21:46.05	85.69	35.89	-35.4	-36.3	22.9	0.00e+00	0	38	0	1931476992	40	4154
2026-01-22 13:21:46.76	85.43	35.96	-35.4	-36.2	22.9	0.00e+00	0	38	0	1936719872	40	4144
2026-01-22 13:21:48.04	84.95	36.08	-35.4	-36.2	22.9	0.00e+00	0	38	0	1946157056	40	4135
2026-01-22 13:21:48.75	84.68	36.15	-35.4	-36.2	23.0	0.00e+00	0	38	0	1951399936	40	4132
2026-01-22 13:21:50.03	84.20	36.28	-35.4	-36.3	22.9	0.00e+00	0	38	0	1959788544	40	4164
2026-01-22 13:21:50.74	83.93	36.35	-35.4	-36.2	23.0	0.00e+00	0	38	0	1965031424	40	4139
2026-01-22 13:21:52.02	83.44	36.47	-35.4	-36.3	22.9	0.00e+00	0	38	0	1974468608	40	4162
2026-01-22 13:21:52.73	83.16	36.54	-35.3	-36.2	23.0	0.00e+00	0	38	0	1979711488	40	4115
2026-01-22 13:21:54.10	82.63	36.66	-35.5	-36.3	22.8	0.00e+00	0	38	0	1989148672	40	4193
2026-01-22 13:21:54.81	82.36	36.73	-35.5	-36.3	22.9	0.00e+00	0	38	0	1995440128	40	4189
2026-01-22 13:21:56.09	81.85	36.84	-35.4	-36.2	23.0	0.00e+00	0	38	0	2003828736	40	4139
2026-01-22 13:21:57.18	81.42	36.94	-35.2	-36.0	23.1	0.00e+00	0	38	0	2012217344	40	4049
2026-01-22 13:21:58.32	80.97	37.04	-35.5	-36.3	22.9	0.00e+00	0	38	0	2020605952	40	4189
2026-01-22 13:21:59.17	80.63	37.11	-35.6	-36.5	22.7	0.00e+00	0	38	0	2025848832	40	4258
2026-01-22 13:22:00.31	80.17	37.21	-35.7	-36.6	22.7	0.00e+00	0	38	0	2034237440	40	4300
2026-01-22 13:22:01.16	79.83	37.28	-35.7	-36.6	22.6	0.00e+00	0	38	0	2040528896	41	4076
2026-01-22 13:22:02.30	79.37	37.37	-35.8	-36.6	22.6	0.00e+00	0	38	0	2048917504	41	4077
2026-01-22 13:22:03.15	79.02	37.44	-35.8	-36.6	22.6	0.00e+00	0	38	0	2055208960	41	4076
2026-01-22 13:22:04.28	78.56	37.53	-35.7	-36.5	22.7	0.00e+00	0	38	0	2063597568	41	4023
2026-01-22 13:22:05.14	78.21	37.59	-35.6	-36.4	22.8	0.00e+00	0	38	0	2068840448	41	3979
2026-01-22 13:22:06.27	77.74	37.68	-35.6	-36.5	22.7	0.00e+00	0	38	0	2077229056	41	4010
2026-01-22 13:22:07.13	77.38	37.74	-35.4	-36.2	22.9	0.00e+00	0	38	0	2083520512	41	3903
2026-01-22 13:22:08.31	76.89	37.83	-35.3	-36.1	23.1	0.00e+00	0	38	0	2091909120	41	3831
2026-01-22 13:22:09.16	76.53	37.89	-35.2	-36.0	23.1	0.00e+00	0	38	0	2098200576	41	3810
2026-01-22 13:22:10.30	76.05	37.97	-35.1	-35.9	23.2	0.00e+00	0	38	0	2106589184	41	3780
2026-01-22 13:22:11.15	75.69	38.03	-35.2	-36.0	23.1	0.00e+00	0	38	0	2112880640	41	3791
2026-01-22 13:22:12.29	75.21	38.10	-35.3	-36.2	23.0	0.00e+00	0	38	0	2121269248	41	3871
2026-01-22 13:22:13.17	74.84	38.16	-35.3	-36.2	23.0	0.00e+00	0	38	0	2127560704	41	3872
2026-01-22 13:22:14.48	74.28	38.24	-35.4	-36.2	23.0	0.00e+00	0	38	0	2136997888	41	3888
2026-01-22 13:22:15.19	73.97	38.28	-35.5	-36.3	22.9	0.00e+00	0	38	0	2142240768	41	3932
2026-01-22 13:22:16.69	73.32	38.37	-35.5	-36.3	22.9	0.00e+00	0	38	0	2152726528	41	3944
2026-01-22 13:22:17.41	73.01	38.41	-35.6	-36.4	22.8	0.00e+00	0	38	0	2157969408	41	3990
2026-01-22 13:22:18.69	72.46	38.48	-35.6	-36.5	22.7	0.00e+00	0	38	0	2167406592	41	4012
2026-01-22 13:22:19.40	72.15	38.52	-35.7	-36.5	22.7	0.00e+00	0	38	0	2172649472	41	4037
2026-01-22 13:22:20.68	71.59	38.59	-35.6	-36.4	22.8	0.00e+00	0	38	0	2181038080	41	3988
2026-01-22 13:22:21.40	71.27	38.62	-35.5	-36.3	22.9	0.00e+00	0	38	0	2186280960	41	3948
2026-01-22 13:22:22.68	70.71	38.68	-35.5	-36.3	22.8	0.00e+00	0	38	0	2195718144	41	3949
2026-01-22 13:22:23.39	70.40	38.72	-35.7	-36.5	22.7	0.00e+00	0	38	0	2200961024	41	4030
2026-01-22 13:22:24.67	69.83	38.77	-35.7	-36.5	22.7	0.00e+00	0	38	0	2210398208	41	4028
2026-01-22 13:22:25.45	69.48	38.80	-35.7	-36.5	22.8	0.00e+00	0	38	0	2215641088	41	4029
2026-01-22 13:22:26.73	68.92	38.86	-35.6	-36.4	22.8	0.00e+00	0	38	0	2225078272	41	4001
2026-01-22 13:22:27.44	68.60	38.88	-35.5	-36.3	22.9	0.00e+00	0	38	0	2230321152	41	3933
2026-01-22 13:22:28.72	68.03	38.93	-35.5	-36.3	22.9	0.00e+00	0	38	0	2239758336	41	3927
2026-01-22 13:22:29.43	67.71	38.95	-35.4	-36.2	23.0	0.00e+00	0	38	0	2245001216	41	3883
2026-01-22 13:22:30.70	67.14	39.00	-35.5	-36.3	22.9	0.00e+00	0	38	0	2253389824	41	3944
2026-01-22 13:22:31.41	66.82	39.02	-35.4	-36.3	22.9	0.00e+00	0	38	0	2258632704	41	3918
2026-01-22 13:22:32.69	66.24	39.05	-35.5	-36.3	22.9	0.00e+00	0	38	0	2268069888	41	3930
2026-01-22 13:22:33.64	65.82	39.08	-35.3	-36.1	23.0	0.00e+00	0	38	0	2275409920	41	3849
2026-01-22 13:22:34.92	65.24	39.11	-35.3	-36.1	23.0	0.00e+00	0	38	0	2284847104	41	3855
2026-01-22 13:22:35.65	64.91	39.13	-35.3	-36.1	23.0	0.00e+00	0	38	0	2289041408	41	3840
2026-01-22 13:22:37.24	64.19	39.16	-35.4	-36.3	22.9	0.00e+00	0	38	0	2300575744	41	3915
2026-01-22 13:22:37.81	63.93	39.17	-35.4	-36.2	22.9	0.00e+00	0	38	0	2304770048	41	3912
2026-01-22 13:22:39.51	63.16	39.19	-35.5	-36.3	22.9	0.00e+00	0	38	0	2317352960	41	3956
2026-01-22 13:22:40.08	62.90	39.20	-35.5	-36.4	22.8	0.00e+00	0	38	0	2321547264	41	3962
2026-01-22 13:22:41.79	62.12	39.22	-35.6	-36.4	22.8	0.00e+00	0	38	0	2334130176	41	3988
2026-01-22 13:22:42.36	61.86	39.22	-35.5	-36.3	22.9	0.00e+00	0	38	0	2338324480	41	3935
2026-01-22 13:22:44.06	61.08	39.23	-35.7	-36.6	22.6	0.00e+00	0	38	0	2349858816	41	4064
2026-01-22 13:22:44.63	60.82	39.24	-35.9	-36.8	22.5	0.00e+00	0	38	0	2354053120	41	4164
2026-01-22 13:22:46.44	60.00	39.24	-35.6	-36.4	22.8	0.00e+00	0	38	0	2367684608	41	3997
2026-01-22 13:22:47.01	59.74	39.24	-35.5	-36.4	22.9	0.00e+00	0	38	0	2371878912	41	3959
2026-01-22 13:22:48.72	58.96	39.23	-35.5	-36.3	22.9	0.00e+00	0	38	0	2384461824	41	3954
2026-01-22 13:22:49.41	58.65	39.23	-35.5	-36.3	22.8	0.00e+00	0	38	0	2388656128	41	3951
2026-01-22 13:22:50.83	58.00	39.21	-35.7	-36.6	22.6	0.00e+00	0	38	0	2399141888	41	4054
2026-01-22 13:22:51.60	57.65	39.21	-35.8	-36.6	22.6	0.00e+00	0	38	0	2404384768	41	4068
2026-01-22 13:22:53.20	56.92	39.19	-35.7	-36.5	22.7	0.00e+00	0	38	0	2415919104	41	4040
2026-01-22 13:22:53.78	56.66	39.18	-35.5	-36.3	22.9	0.00e+00	0	38	0	2420113408	41	3924
2026-01-22 13:22:55.35	55.95	39.15	-35.1	-35.9	23.2	0.00e+00	0	38	0	2431647744	41	3768
2026-01-22 13:22:55.99	55.66	39.14	-35.1	-35.9	23.2	0.00e+00	0	38	0	2435842048	41	3774
2026-01-22 13:22:57.41	55.02	39.11	-35.1	-35.9	23.2	0.00e+00	0	38	0	2446327808	40	3979
2026-01-22 13:22:58.13	54.69	39.09	-35.2	-36.0	23.1	0.00e+00	0	38	0	2451570688	40	4031
2026-01-22 13:22:59.41	54.11	39.06	-35.5	-36.3	22.8	0.00e+00	0	38	0	2461007872	40	4168
2026-01-22 13:23:00.14	53.78	39.04	-35.7	-36.5	22.7	0.00e+00	0	38	0	2466250752	40	4278
2026-01-22 13:23:01.42	53.21	39.00	-35.6	-36.5	22.8	0.00e+00	0	38	0	2475687936	40	4244
2026-01-22 13:23:02.13	52.89	38.98	-35.5	-36.4	22.8	0.00e+00	0	38	0	2480930816	40	4194
2026-01-22 13:23:03.41	52.32	38.93	-35.4	-36.2	22.9	0.00e+00	0	38	0	2489319424	40	4114
2026-01-22 13:23:04.12	52.00	38.91	-35.3	-36.1	23.0	0.00e+00	0	38	0	2495610880	40	4092
2026-01-22 13:23:05.53	51.37	38.85	-35.5	-36.3	22.9	0.00e+00	0	38	0	2505048064	40	4169
2026-01-22 13:23:06.24	51.06	38.82	-35.6	-36.4	22.8	0.00e+00	0	38	0	2510290944	40	4217
2026-01-22 13:23:07.52	50.49	38.77	-35.8	-36.6	22.6	0.00e+00	0	38	0	2519728128	41	4096
2026-01-22 13:23:08.23	50.17	38.74	-35.7	-36.6	22.6	0.00e+00	0	38	0	2524971008	41	4063
2026-01-22 13:23:09.51	49.61	38.68	-35.4	-36.2	23.0	0.00e+00	0	38	0	2533359616	41	3889
2026-01-22 13:23:10.22	49.30	38.65	-35.0	-35.8	23.3	0.00e+00	0	38	0	2539651072	40	3937
2026-01-22 13:23:11.50	48.74	38.59	-35.1	-35.9	23.2	0.00e+00	0	38	0	2548039680	40	3985
2026-01-22 13:23:12.22	48.42	38.55	-35.2	-36.0	23.1	0.00e+00	0	38	0	2553282560	40	4030
2026-01-22 13:23:13.74	47.76	38.47	-35.4	-36.2	23.0	0.00e+00	0	38	0	2564816896	40	4119
2026-01-22 13:23:14.45	47.45	38.43	-35.5	-36.3	22.9	0.00e+00	0	38	0	2570059776	40	4172
2026-01-22 13:23:15.73	46.90	38.36	-35.4	-36.3	22.9	0.00e+00	0	38	0	2578448384	40	4148
2026-01-22 13:23:16.45	46.59	38.31	-35.5	-36.3	22.9	0.00e+00	0	38	0	2583691264	40	4172
2026-01-22 13:23:17.73	46.04	38.24	-35.5	-36.3	22.9	0.00e+00	0	38	0	2593128448	40	4167
2026-01-22 13:23:18.46	45.73	38.19	-35.4	-36.2	22.9	0.00e+00	0	38	0	2598371328	40	4121
2026-01-22 13:23:19.74	45.18	38.11	-35.2	-36.0	23.2	0.00e+00	0	38	0	2607808512	40	4029
2026-01-22 13:23:20.45	44.88	38.06	-35.2	-36.0	23.1	0.00e+00	0	38	0	2613051392	40	4017
2026-01-22 13:23:21.73	44.34	37.98	-35.1	-35.9	23.2	0.00e+00	0	38	0	2622488576	40	3973
2026-01-22 13:23:22.47	44.03	37.93	-34.9	-35.7	23.4	0.00e+00	0	38	0	2627731456	40	3906
2026-01-22 13:23:23.75	43.49	37.84	-34.9	-35.7	23.4	0.00e+00	0	38	0	2637168640	40	3869
2026-01-22 13:23:24.52	43.17	37.78	-34.9	-35.7	23.4	0.00e+00	0	38	0	2642411520	40	3886
2026-01-22 13:23:25.80	42.64	37.69	-35.1	-35.9	23.2	0.00e+00	0	38	0	2651848704	40	3982
2026-01-22 13:23:26.57	42.32	37.63	-35.2	-36.0	23.2	0.00e+00	0	38	0	2657091584	40	4014
2026-01-22 13:23:27.85	41.80	37.53	-35.0	-35.8	23.3	0.00e+00	0	38	0	2666528768	40	3952
2026-01-22 13:23:28.63	41.48	37.47	-35.1	-35.9	23.2	0.00e+00	0	38	0	2671771648	40	3978
2026-01-22 13:23:30.23	40.83	37.34	-35.1	-36.0	23.2	0.00e+00	0	38	0	2683305984	40	4010
2026-01-22 13:23:30.82	40.59	37.30	-35.2	-36.0	23.2	0.00e+00	0	38	0	2687500288	40	4022
2026-01-22 13:23:32.38	39.96	37.17	-35.1	-35.9	23.2	0.00e+00	0	38	0	2699034624	40	3966
2026-01-22 13:23:33.03	39.70	37.11	-35.0	-35.8	23.2	0.00e+00	0	38	0	2704277504	40	3957
2026-01-22 13:23:34.45	39.14	36.99	-35.0	-35.8	23.2	0.00e+00	0	38	0	2713714688	40	3940
2026-01-22 13:23:35.16	38.86	36.93	-34.9	-35.7	23.4	0.00e+00	0	38	0	2718957568	40	3897
2026-01-22 13:23:36.44	38.35	36.81	-34.9	-35.7	23.4	0.00e+00	0	38	0	2728394752	40	3874
2026-01-22 13:23:37.15	38.07	36.75	-34.9	-35.7	23.4	0.00e+00	0	38	0	2733637632	40	3885
2026-01-22 13:23:38.43	37.58	36.63	-35.0	-35.8	23.3	0.00e+00	0	38	0	2743074816	40	3936
2026-01-22 13:23:39.14	37.30	36.57	-35.1	-35.9	23.2	0.00e+00	0	38	0	2748317696	40	3976
2026-01-22 13:23:40.42	36.81	36.45	-35.2	-36.0	23.1	0.00e+00	0	38	0	2756706304	40	4042
2026-01-22 13:23:41.14	36.53	36.38	-35.2	-36.0	23.1	0.00e+00	0	38	0	2761949184	40	4045
2026-01-22 13:23:42.42	36.05	36.26	-35.4	-36.2	22.9	0.00e+00	0	38	0	2771386368	40	4139
2026-01-22 13:23:43.15	35.77	36.19	-35.4	-36.2	22.9	0.00e+00	0	38	0	2776629248	40	4142
2026-01-22 13:23:44.43	35.29	36.06	-35.4	-36.2	22.9	0.00e+00	0	38	0	2786066432	40	4135
2026-01-22 13:23:45.15	35.02	35.99	-35.4	-36.3	22.9	0.00e+00	0	38	0	2791309312	40	4146
2026-01-22 13:23:46.43	34.55	35.86	-35.2	-36.1	23.0	0.00e+00	0	38	0	2800746496	40	4057
2026-01-22 13:23:47.14	34.29	35.79	-35.2	-36.1	22.9	0.00e+00	0	38	0	2805989376	40	4058
2026-01-22 13:23:48.42	33.82	35.66	-35.4	-36.2	22.9	0.00e+00	0	38	0	2815426560	40	4136
2026-01-22 13:23:49.13	33.56	35.58	-35.4	-36.2	22.9	0.00e+00	0	38	0	2819620864	40	4122
2026-01-22 13:23:50.76	32.97	35.41	-35.2	-36.1	23.0	0.00e+00	0	38	0	2831155200	40	4052
2026-01-22 13:23:51.33	32.77	35.35	-35.3	-36.1	23.0	0.00e+00	0	38	0	2836398080	40	4085
2026-01-22 13:23:53.03	32.16	35.17	-35.3	-36.2	22.9	0.00e+00	0	38	0	2847932416	40	4104
2026-01-22 13:23:53.60	31.96	35.11	-35.4	-36.2	22.9	0.00e+00	0	38	0	2852126720	40	4123
2026-01-22 13:23:55.30	31.36	34.93	-35.4	-36.3	22.9	0.00e+00	0	38	0	2864709632	40	4149
2026-01-22 13:23:55.87	31.16	34.86	-35.3	-36.2	23.0	0.00e+00	0	38	0	2868903936	40	4099
2026-01-22 13:23:57.58	30.57	34.68	-35.0	-35.8	23.2	0.00e+00	0	38	0	2881486848	40	3941
2026-01-22 13:23:58.15	30.38	34.61	-35.0	-35.8	23.3	0.00e+00	0	38	0	2884632576	40	3948
2026-01-22 13:24:00.01	29.75	34.40	-35.1	-35.9	23.2	0.00e+00	0	38	0	2898264064	40	3968
2026-01-22 13:24:00.58	29.55	34.34	-35.2	-36.0	23.1	0.00e+00	0	38	0	2902458368	40	4024
2026-01-22 13:24:02.27	28.99	34.15	-35.1	-35.9	23.1	0.00e+00	0	38	0	2915041280	40	3974
2026-01-22 13:24:02.84	28.80	34.08	-35.1	-36.0	23.2	0.00e+00	0	38	0	2919235584	40	4013
2026-01-22 13:24:04.67	28.20	33.87	-35.2	-36.0	23.1	0.00e+00	0	38	0	2931818496	40	4043
2026-01-22 13:24:05.24	28.01	33.80	-35.3	-36.1	23.0	0.00e+00	0	38	0	2936012800	40	4065
2026-01-22 13:24:06.94	27.46	33.60	-35.3	-36.2	23.0	0.00e+00	0	38	0	2948595712	40	4101
2026-01-22 13:24:07.51	27.28	33.54	-35.3	-36.1	22.9	0.00e+00	0	38	0	2952790016	40	4066
2026-01-22 13:24:09.22	26.74	33.33	-35.2	-36.0	23.1	0.00e+00	0	38	0	2965372928	40	4036
2026-01-22 13:24:09.79	26.56	33.27	-35.1	-35.9	23.1	0.00e+00	0	38	0	2969567232	40	3998
2026-01-22 13:24:11.49	26.03	33.06	-34.9	-35.7	23.3	0.00e+00	0	38	0	2981101568	40	3909
2026-01-22 13:24:12.06	25.85	33.00	-35.0	-35.8	23.3	0.00e+00	0	38	0	2985295872	40	3918
2026-01-22 13:24:13.76	25.33	32.79	-34.9	-35.7	23.4	0.00e+00	0	38	0	2997878784	40	3888
2026-01-22 13:24:14.33	25.15	32.72	-34.9	-35.8	23.3	0.00e+00	0	38	0	3002073088	40	3921
2026-01-22 13:24:16.04	24.64	32.51	-34.9	-35.7	23.3	0.00e+00	0	38	0	3014656000	40	3899
2026-01-22 13:24:16.61	24.47	32.44	-35.0	-35.8	23.3	0.00e+00	0	38	0	3017801728	40	3931
2026-01-22 13:24:18.56	23.89	32.21	-35.0	-35.8	23.2	0.00e+00	0	38	0	3032481792	40	3923
2026-01-22 13:24:19.13	23.72	32.14	-35.0	-35.8	23.2	0.00e+00	0	38	0	3036676096	40	3935
2026-01-22 13:24:20.84	23.22	31.92	-35.0	-35.8	23.2	0.00e+00	0	38	0	3049259008	40	3958
2026-01-22 13:24:21.51	23.03	31.84	-35.1	-35.9	23.2	0.00e+00	0	38	0	3053453312	40	3983
2026-01-22 13:24:22.93	22.62	31.67	-35.3	-36.1	23.0	0.00e+00	0	38	0	3063939072	40	4069
2026-01-22 13:24:23.64	22.42	31.58	-35.3	-36.1	23.0	0.00e+00	0	38	0	3069181952	40	4098
2026-01-22 13:24:24.92	22.06	31.42	-35.4	-36.2	22.9	0.00e+00	0	38	0	3078619136	40	4112
2026-01-22 13:24:25.63	21.86	31.33	-35.2	-36.1	23.0	0.00e+00	0	38	0	3083862016	40	4065
2026-01-22 13:24:26.91	21.51	31.17	-35.2	-36.0	23.1	0.00e+00	0	38	0	3092250624	40	4047
2026-01-22 13:24:27.64	21.30	31.08	-35.2	-36.0	23.1	0.00e+00	0	38	0	3097493504	40	4030
2026-01-22 13:24:28.92	20.96	30.92	-35.2	-36.0	23.1	0.00e+00	0	38	0	3106930688	40	4040
2026-01-22 13:24:29.63	20.76	30.83	-35.3	-36.1	23.0	0.00e+00	0	38	0	3112173568	40	4087
2026-01-22 13:24:30.91	20.42	30.67	-35.3	-36.1	23.0	0.00e+00	0	38	0	3121610752	40	4073
2026-01-22 13:24:31.62	20.23	30.58	-35.3	-36.2	23.0	0.00e+00	0	38	0	3126853632	40	4106
2026-01-22 13:24:32.90	19.89	30.42	-35.4	-36.2	22.9	0.00e+00	0	38	0	3136290816	40	4118
2026-01-22 13:24:33.63	19.70	30.32	-35.4	-36.2	22.9	0.00e+00	0	38	0	3141533696	40	4122
2026-01-22 13:24:34.91	19.37	30.16	-35.4	-36.3	22.9	0.00e+00	0	38	0	3149922304	40	4149
2026-01-22 13:24:35.62	19.18	30.07	-35.5	-36.4	22.8	0.00e+00	0	38	0	3155165184	40	4202
2026-01-22 13:24:36.90	18.85	29.91	-35.7	-36.5	22.6	0.00e+00	0	38	0	3164602368	40	4287
2026-01-22 13:24:37.61	18.67	29.82	-35.7	-36.5	22.6	0.00e+00	0	38	0	3169845248	40	4271
2026-01-22 13:24:38.89	18.35	29.66	-35.6	-36.5	22.6	0.00e+00	0	38	0	3179282432	40	4271
2026-01-22 13:24:39.65	18.16	29.56	-35.5	-36.4	22.7	0.00e+00	0	38	0	3184525312	40	4220
2026-01-22 13:24:41.23	17.77	29.36	-35.3	-36.2	22.9	0.00e+00	0	38	0	3196059648	40	4099
2026-01-22 13:24:41.86	17.61	29.28	-35.3	-36.1	23.0	0.00e+00	0	38	0	3200253952	40	4071
2026-01-22 13:24:43.39	17.24	29.09	-35.3	-36.1	23.0	0.00e+00	0	39	0	3211788288	40	4083
2026-01-22 13:24:44.10	17.07	29.00	-35.4	-36.2	22.9	0.00e+00	0	38	0	3217031168	40	4124
2026-01-22 13:24:45.38	16.76	28.84	-35.6	-36.5	22.7	0.00e+00	0	38	0	3226468352	40	4253
2026-01-22 13:24:46.11	16.59	28.74	-35.6	-36.5	22.7	0.00e+00	0	38	0	3230662656	40	4252
2026-01-22 13:24:47.39	16.29	28.58	-35.6	-36.5	22.7	0.00e+00	0	38	0	3240099840	40	4265
2026-01-22 13:24:48.11	16.12	28.49	-35.7	-36.5	22.6	0.00e+00	0	38	0	3245342720	40	4277
2026-01-22 13:24:49.39	15.82	28.33	-35.5	-36.3	22.7	0.00e+00	0	38	0	3254779904	40	4188
2026-01-22 13:24:50.10	15.66	28.24	-35.5	-36.3	22.8	0.00e+00	0	38	0	3260022784	40	4170
2026-01-22 13:24:51.38	15.36	28.08	-35.4	-36.2	22.9	0.00e+00	0	38	0	3269459968	40	4131
2026-01-22 13:24:52.10	15.20	27.99	-35.4	-36.3	22.8	0.00e+00	0	38	0	3274702848	40	4160
2026-01-22 13:24:53.38	14.91	27.82	-35.5	-36.3	22.7	0.00e+00	0	38	0	3284140032	40	4190
2026-01-22 13:24:54.11	14.75	27.73	-35.6	-36.5	22.7	0.00e+00	0	38	0	3289382912	40	4253
2026-01-22 13:24:55.39	14.47	27.57	-35.7	-36.6	22.6	0.00e+00	0	38	0	3297771520	40	4297
2026-01-22 13:24:56.10	14.31	27.48	-35.7	-36.6	22.6	0.00e+00	0	38	0	3303014400	40	4303
2026-01-22 13:24:57.38	14.03	27.32	-35.7	-36.6	22.6	0.00e+00	0	38	0	3312451584	41	4070
2026-01-22 13:24:58.10	13.88	27.23	-35.7	-36.5	22.6	0.00e+00	0	38	0	3317694464	41	4044
2026-01-22 13:24:59.38	13.60	27.07	-35.6	-36.4	22.7	0.00e+00	0	38	0	3327131648	41	3989
2026-01-22 13:25:00.10	13.45	26.98	-35.5	-36.4	22.8	0.00e+00	0	38	0	3332374528	41	3974
2026-01-22 13:25:01.38	13.18	26.82	-35.4	-36.2	22.9	0.00e+00	0	38	0	3341811712	41	3887
2026-01-22 13:25:02.10	13.03	26.73	-35.4	-36.2	22.9	0.00e+00	0	38	0	3347054592	41	3909
2026-01-22 13:25:03.43	12.75	26.56	-35.3	-36.2	22.9	0.00e+00	0	38	0	3356491776	41	3870
2026-01-22 13:25:04.14	12.61	26.47	-35.5	-36.3	22.8	0.00e+00	0	38	0	3361734656	41	3930
2026-01-22 13:25:05.42	12.35	26.31	-35.6	-36.4	22.6	0.00e+00	0	38	0	3371171840	41	3986
2026-01-22 13:25:06.13	12.20	26.22	-35.6	-36.4	22.7	0.00e+00	0	38	0	3375366144	41	3994
2026-01-22 13:25:07.41	11.95	26.06	-35.6	-36.5	22.7	0.00e+00	0	38	0	3384803328	41	4011
2026-01-22 13:25:08.12	11.80	25.98	-35.6	-36.4	22.7	0.00e+00	0	38	0	3390046208	41	3999
2026-01-22 13:25:09.40	11.55	25.82	-35.4	-36.2	22.8	0.00e+00	0	38	0	3399483392	41	3912
2026-01-22 13:25:10.12	11.41	25.73	-35.4	-36.2	22.9	0.00e+00	0	38	0	3404726272	41	3889
2026-01-22 13:25:11.40	11.16	25.57	-35.2	-36.1	23.0	0.00e+00	0	38	0	3414163456	41	3831
2026-01-22 13:25:12.13	11.02	25.48	-35.3	-36.1	23.0	0.00e+00	0	38	0	3419406336	41	3857
2026-01-22 13:25:13.74	10.71	25.28	-35.3	-36.2	22.9	0.00e+00	0	38	0	3430940672	41	3878
2026-01-22 13:25:14.31	10.60	25.21	-35.5	-36.3	22.8	0.00e+00	0	38	0	3435134976	41	3927
2026-01-22 13:25:16.01	10.28	25.00	-35.7	-36.5	22.6	0.00e+00	0	38	0	3446669312	41	4050
2026-01-22 13:25:16.58	10.18	24.93	-35.8	-36.7	22.5	0.00e+00	0	38	0	3450863616	41	4105
2026-01-22 13:25:18.29	9.86	24.72	-35.9	-36.7	22.4	0.00e+00	0	38	0	3463446528	41	4125
2026-01-22 13:25:18.85	9.76	24.66	-35.9	-36.7	22.4	0.00e+00	0	38	0	3467640832	41	4135
2026-01-22 13:25:20.56	9.45	24.45	-35.8	-36.6	22.5	0.00e+00	0	38	0	3480223744	41	4093
2026-01-22 13:25:21.13	9.35	24.38	-35.7	-36.5	22.6	0.00e+00	0	38	0	3484418048	41	4035
2026-01-22 13:25:22.96	9.02	24.16	-35.5	-36.3	22.8	0.00e+00	0	38	0	3497000960	41	3934
2026-01-22 13:25:23.53	8.92	24.09	-35.5	-36.3	22.8	0.00e+00	0	38	0	3501195264	41	3950
2026-01-22 13:25:25.23	8.62	23.88	-35.5	-36.3	22.8	0.00e+00	0	38	0	3513778176	41	3940
2026-01-22 13:25:25.80	8.53	23.82	-35.5	-36.3	22.7	0.00e+00	0	38	0	3517972480	41	3956
2026-01-22 13:25:27.55	8.23	23.61	-35.5	-36.3	22.8	0.00e+00	0	38	0	3530555392	41	3940
2026-01-22 13:25:28.12	8.13	23.54	-35.5	-36.3	22.7	0.00e+00	0	38	0	3534749696	41	3953
2026-01-22 13:25:29.82	7.84	23.34	-35.5	-36.3	22.7	0.00e+00	0	38	0	3547332608	41	3953
2026-01-22 13:25:30.50	7.73	23.25	-35.6	-36.4	22.6	0.00e+00	0	38	0	3551526912	41	3990
2026-01-22 13:25:31.93	7.49	23.09	-35.7	-36.5	22.6	0.00e+00	0	38	0	3562012672	41	4038
2026-01-22 13:25:32.68	7.37	23.00	-35.7	-36.5	22.6	0.00e+00	0	38	0	3567255552	41	4040
2026-01-22 13:25:33.96	7.16	22.85	-35.7	-36.6	22.5	0.00e+00	0	38	0	3576692736	41	4076
2026-01-22 13:25:34.67	7.04	22.76	-35.7	-36.6	22.5	0.00e+00	0	38	0	3581935616	41	4070
2026-01-22 13:25:35.95	6.84	22.61	-35.7	-36.6	22.5	0.00e+00	0	38	0	3591372800	41	4065
2026-01-22 13:25:36.66	6.72	22.53	-35.7	-36.5	22.5	0.00e+00	0	38	0	3595567104	41	4050
2026-01-22 13:25:37.94	6.52	22.38	-35.6	-36.5	22.6	0.00e+00	0	38	0	3605004288	41	4011
2026-01-22 13:25:38.65	6.41	22.30	-35.5	-36.3	22.7	0.00e+00	0	38	0	3610247168	41	3945
2026-01-22 13:25:39.93	6.21	22.15	-35.5	-36.4	22.7	0.00e+00	0	38	0	3619684352	41	3962
2026-01-22 13:25:40.67	6.10	22.06	-35.5	-36.4	22.6	0.00e+00	0	38	0	3624927232	41	3972
2026-01-22 13:25:42.00	5.89	21.91	-35.7	-36.5	22.5	0.00e+00	0	38	0	3634364416	41	4044
2026-01-22 13:25:42.71	5.79	21.83	-35.8	-36.7	22.4	0.00e+00	0	38	0	3639607296	41	4110
2026-01-22 13:25:44.05	5.58	21.67	-36.1	-36.9	22.1	0.00e+00	0	38	0	3649044480	41	4241
2026-01-22 13:25:44.76	5.48	21.59	-36.2	-37.1	22.0	0.00e+00	0	38	0	3655335936	41	4312
2026-01-22 13:25:46.11	5.28	21.44	-36.3	-37.3	21.9	0.00e+00	0	38	0	3663724544	42	4146
2026-01-22 13:25:46.82	5.17	21.36	-36.4	-37.3	21.8	0.00e+00	0	38	0	3670016000	42	4189
2026-01-22 13:25:48.10	4.98	21.21	-36.4	-37.4	21.8	0.00e+00	0	38	0	3678404608	42	4196
2026-01-22 13:25:48.81	4.88	21.13	-36.4	-37.3	21.9	0.00e+00	0	38	0	3683647488	42	4160
2026-01-22 13:25:50.23	4.68	20.97	-36.3	-37.2	21.9	0.00e+00	0	38	0	3694133248	42	4137
2026-01-22 13:25:50.94	4.57	20.89	-36.4	-37.3	21.8	0.00e+00	0	38	0	3699376128	42	4187
2026-01-22 13:25:52.22	4.39	20.75	-36.4	-37.3	21.9	0.00e+00	0	38	0	3708813312	42	4165
2026-01-22 13:25:52.93	4.29	20.67	-36.5	-37.4	21.8	0.00e+00	0	38	0	3714056192	42	4204
2026-01-22 13:25:54.21	4.11	20.52	-36.5	-37.4	21.8	0.00e+00	0	38	0	3722444800	42	4238
2026-01-22 13:25:54.92	4.01	20.45	-36.6	-37.5	21.7	0.00e+00	0	38	0	3727687680	42	4285
2026-01-22 13:25:56.20	3.84	20.30	-36.7	-37.6	21.6	0.00e+00	0	38	0	3737124864	42	4317
2026-01-22 13:25:56.91	3.74	20.22	-36.7	-37.7	21.5	0.00e+00	0	38	0	3742367744	42	4350
2026-01-22 13:25:58.19	3.57	20.08	-36.7	-37.6	21.6	0.00e+00	0	38	0	3751804928	42	4330
2026-01-22 13:25:58.92	3.47	20.00	-36.7	-37.6	21.6	0.00e+00	0	38	0	3757047808	42	4311
2026-01-22 13:26:00.19	3.30	19.86	-36.6	-37.5	21.7	0.00e+00	0	38	0	3766484992	42	4268
2026-01-22 13:26:00.92	3.20	19.78	-36.5	-37.4	21.7	0.00e+00	0	38	0	3771727872	42	4234
2026-01-22 13:26:02.20	3.03	19.64	-36.4	-37.3	21.8	0.00e+00	0	38	0	3780116480	42	4185
2026-01-22 13:26:02.97	2.93	19.56	-36.4	-37.3	21.9	0.00e+00	0	38	0	3786407936	42	4155
2026-01-22 13:26:04.25	2.77	19.42	-36.4	-37.2	21.9	0.00e+00	0	38	0	3794796544	42	4144
2026-01-22 13:26:04.96	2.67	19.34	-36.5	-37.3	21.8	0.00e+00	0	38	0	3800039424	42	4186
2026-01-22 13:26:06.24	2.51	19.21	-36.6	-37.5	21.7	0.00e+00	0	38	0	3809476608	42	4267
2026-01-22 13:26:07.11	2.40	19.11	-36.6	-37.5	21.7	0.00e+00	0	38	0	3815768064	42	4278
2026-01-22 13:26:08.53	2.22	18.96	-36.8	-37.7	21.5	0.00e+00	0	38	0	3826253824	42	4359
2026-01-22 13:26:09.24	2.13	18.88	-36.8	-37.8	21.4	0.00e+00	0	38	0	3831496704	43	4149
2026-01-22 13:26:10.52	1.97	18.75	-36.8	-37.8	21.4	0.00e+00	0	38	0	3840933888	43	4155
2026-01-22 13:26:11.25	1.88	18.67	-36.9	-37.8	21.3	0.00e+00	0	38	0	3846176768	43	4187
2026-01-22 13:26:12.53	1.73	18.53	-37.0	-37.9	21.3	0.00e+00	0	38	0	3855613952	43	4228
2026-01-22 13:26:13.25	1.64	18.46	-37.0	-37.9	21.2	0.00e+00	0	38	0	3859808256	43	4238
2026-01-22 13:26:14.53	1.48	18.32	-37.0	-37.9	21.3	0.00e+00	0	38	0	3869245440	43	4228
2026-01-22 13:26:15.24	1.40	18.25	-37.0	-37.9	21.2	0.00e+00	0	38	0	3874488320	43	4231
2026-01-22 13:26:16.52	1.25	18.12	-37.1	-38.0	21.2	0.00e+00	0	38	0	3883925504	43	4258
2026-01-22 13:26:17.23	1.16	18.04	-37.1	-38.0	21.2	0.00e+00	0	38	0	3889168384	43	4284
2026-01-22 13:26:18.51	1.01	17.91	-37.0	-37.9	21.2	0.00e+00	0	38	0	3898605568	43	4240
2026-01-22 13:26:19.24	0.93	17.83	-37.0	-37.9	21.2	0.00e+00	0	38	0	3903848448	43	4212
2026-01-22 13:26:20.52	0.78	17.70	-37.0	-37.9	21.2	0.00e+00	0	38	0	3913285632	43	4230
2026-01-22 13:26:21.23	0.70	17.63	-37.0	-38.0	21.1	0.00e+00	0	38	0	3917479936	43	4258
2026-01-22 13:26:22.60	0.54	17.49	-37.2	-38.1	21.0	0.00e+00	0	39	0	3927965696	43	4317
2026-01-22 13:26:23.31	0.46	17.41	-37.1	-38.1	21.1	0.00e+00	0	38	0	3933208576	43	4300
2026-01-22 13:26:24.65	0.31	17.28	-37.1	-38.1	21.0	0.00e+00	0	38	0	3942645760	43	4301
2026-01-22 13:26:25.36	0.23	17.20	-37.1	-38.1	21.1	0.00e+00	0	38	0	3947888640	43	4304
2026-01-22 13:26:26.71	0.08	17.07	-37.2	-38.1	21.0	0.00e+00	0	38	0	3957325824	43	4324
2026-01-22 13:26:27.42	0.00	17.00	-37.2	-38.2	21.0	0.00e+00	0	38	0	3962568704	43	4345
2026-01-22 13:26:28.70	359.87	16.87	-37.2	-38.2	20.9	0.00e+00	0	38	0	3972005888	43	4370
2026-01-22 13:26:29.41	359.79	16.80	-37.4	-38.4	20.9	0.00e+00	0	38	0	3977248768	44	4208
2026-01-22 13:26:30.69	359.65	16.67	-37.5	-38.4	20.8	0.00e+00	0	38	0	3986685952	44	4234
2026-01-22 13:26:31.40	359.57	16.60	-37.5	-38.5	20.8	0.00e+00	0	38	0	3990880256	44	4254
2026-01-22 13:26:32.68	359.44	16.47	-37.5	-38.5	20.8	0.00e+00	0	38	0	4000317440	44	4276
2026-01-22 13:26:33.39	359.36	16.40	-37.5	-38.5	20.8	0.00e+00	0	38	0	4005560320	44	4291
2026-01-22 13:26:34.67	359.23	16.27	-37.6	-38.6	20.7	0.00e+00	0	38	0	4014997504	44	4301
2026-01-22 13:26:35.38	359.16	16.20	-37.6	-38.6	20.7	0.00e+00	0	38	0	4020240384	44	4340
2026-01-22 13:26:36.66	359.02	16.08	-37.8	-38.7	20.6	0.00e+00	0	38	0	4028628992	44	4382
2026-01-22 13:26:37.38	358.95	16.01	-37.8	-38.7	20.6	0.00e+00	0	38	0	4034920448	45	4144
2026-01-22 13:26:38.66	358.82	15.88	-37.9	-38.8	20.5	0.00e+00	0	38	0	4043309056	45	4193
2026-01-22 13:26:39.46	358.74	15.80	-37.9	-38.9	20.5	0.00e+00	0	38	0	4049600512	45	4214
2026-01-22 13:26:40.60	358.62	15.69	-38.0	-39.0	20.4	0.00e+00	0	38	0	4057989120	45	4254
2026-01-22 13:26:41.63	358.52	15.59	-38.1	-39.1	20.3	0.00e+00	0	38	0	4065329152	45	4300
2026-01-22 13:26:42.63	358.42	15.49	-38.0	-39.0	20.4	0.00e+00	0	38	0	4072669184	45	4250
2026-01-22 13:26:43.89	358.30	15.37	-38.0	-39.0	20.3	0.00e+00	0	38	0	4081057792	45	4284
2026-01-22 13:26:44.68	358.22	15.30	-38.0	-39.0	20.3	0.00e+00	0	38	0	4087349248	45	4276
2026-01-22 13:26:45.89	358.10	15.18	-37.9	-38.9	20.4	0.00e+00	0	38	0	4095737856	45	4226
2026-01-22 13:26:46.78	358.02	15.10	-37.9	-38.9	20.4	0.00e+00	0	38	0	4102029312	45	4210
2026-01-22 13:26:48.09	357.89	14.97	-37.9	-38.8	20.5	0.00e+00	0	38	0	4111466496	45	4186
2026-01-22 13:26:48.80	357.82	14.91	-37.9	-38.8	20.5	0.00e+00	0	38	0	4116709376	45	4184
2026-01-22 13:26:50.30	357.68	14.76	-37.7	-38.7	20.6	0.00e+00	0	38	0	4127195136	45	4117
2026-01-22 13:26:51.01	357.61	14.70	-37.7	-38.6	20.6	0.00e+00	0	38	0	4132438016	45	4096
2026-01-22 13:26:52.28	357.50	14.58	-37.7	-38.6	20.7	0.00e+00	0	38	0	4141875200	45	4091
2026-01-22 13:26:53.00	357.43	14.51	-37.7	-38.7	20.6	0.00e+00	0	38	0	4147118080	45	4110
2026-01-22 13:26:54.28	357.31	14.39	-37.7	-38.6	20.7	0.00e+00	0	38	0	4156555264	45	4086
2026-01-22 13:26:54.99	357.25	14.32	-37.7	-38.7	20.6	0.00e+00	0	38	0	4161798144	45	4115
2026-01-22 13:26:56.27	357.13	14.21	-37.7	-38.7	20.5	0.00e+00	0	38	0	4171235328	45	4139
2026-01-22 13:26:56.98	357.07	14.14	-37.8	-38.8	20.5	0.00e+00	0	38	0	4176478208	45	4170
2026-01-22 13:26:58.26	356.95	14.02	-37.9	-38.9	20.4	0.00e+00	0	38	0	4184866816	45	4196
2026-01-22 13:26:58.98	356.89	13.96	-37.9	-38.9	20.4	0.00e+00	0	38	0	4190109696	45	4215
2026-01-22 13:27:00.26	356.77	13.84	-38.0	-39.0	20.1	0.00e+00	0	38	0	4199546880	45	4289
2026-01-22 13:27:01.05	356.70	13.77	-38.0	-39.0	20.3	0.00e+00	0	38	0	4204789760	45	4262
2026-01-22 13:27:02.53	356.58	13.63	-38.2	-39.2	20.1	0.00e+00	0	38	0	4216324096	45	4356
2026-01-22 13:27:03.24	356.51	13.57	-38.2	-39.2	20.1	0.00e+00	0	38	0	4221566976	45	4353
2026-01-22 13:27:04.52	356.40	13.45	-38.1	-39.1	20.1	0.00e+00	0	38	0	4231004160	45	4339
2026-01-22 13:27:05.23	356.34	13.39	-38.2	-39.2	20.1	0.00e+00	0	38	0	4235198464	45	4350
2026-01-22 13:27:06.73	356.22	13.25	-38.3	-39.3	20.0	0.00e+00	0	38	0	4246732800	45	4407
2026-01-22 13:27:07.44	356.16	13.19	-38.3	-39.3	20.0	0.00e+00	0	38	0	4251975680	46	4189
2026-01-22 13:27:08.72	356.05	13.08	-38.3	-39.3	20.0	0.00e+00	0	38	0	4260364288	46	4172
2026-01-22 13:27:09.43	355.99	13.01	-38.2	-39.3	20.0	0.00e+00	0	38	0	4265607168	46	4169
2026-01-22 13:27:10.71	355.88	12.90	-38.3	-39.4	19.8	0.00e+00	0	38	0	4275044352	46	4219
2026-01-22 13:27:11.43	355.82	12.83	-38.2	-39.4	19.9	0.00e+00	0	38	0	4280287232	46	4209
2026-01-22 13:27:12.71	355.72	12.72	-38.3	-39.5	19.8	0.00e+00	0	38	0	4289724416	46	4268
2026-01-22 13:27:13.43	355.66	12.66	-38.3	-39.5	19.8	0.00e+00	0	38	0	4294967296	46	4256
2026-01-22 13:27:14.71	355.56	12.55	-38.3	-39.6	19.7	0.00e+00	0	38	0	4303355904	46	4298
2026-01-22 13:27:15.43	355.50	12.48	-38.3	-39.6	19.7	0.00e+00	0	38	0	4309647360	46	4305
2026-01-22 13:27:16.71	355.40	12.37	-38.3	-39.6	19.6	0.00e+00	0	38	0	4319084544	46	4327
2026-01-22 13:27:17.47	355.34	12.31	-38.3	-39.6	19.7	0.00e+00	0	38	0	4324327424	46	4324
2026-01-22 13:27:18.75	355.24	12.19	-38.6	-39.9	19.4	0.00e+00	0	38	0	4332716032	46	4471
2026-01-22 13:27:19.48	355.18	12.13	-38.5	-39.8	19.5	0.00e+00	0	38	0	4337958912	46	4417
2026-01-22 13:27:20.76	355.08	12.02	-38.6	-39.9	19.4	0.00e+00	0	38	0	4347396096	46	4460
2026-01-22 13:27:21.47	355.03	11.96	-38.7	-40.0	19.3	0.00e+00	0	38	0	4352638976	46	4499
2026-01-22 13:27:22.75	354.93	11.85	-38.7	-40.0	19.3	0.00e+00	0	38	0	4362076160	46	4523
2026-01-22 13:27:23.46	354.87	11.79	-38.8	-40.0	19.3	0.00e+00	0	38	0	4367319040	47	4291
2026-01-22 13:27:24.74	354.78	11.68	-38.9	-40.2	19.2	0.00e+00	0	38	0	4376756224	47	4342
2026-01-22 13:27:25.47	354.72	11.62	-38.8	-40.1	19.2	0.00e+00	0	38	0	4381999104	47	4299
2026-01-22 13:27:26.75	354.62	11.51	-39.0	-40.2	19.1	0.00e+00	0	38	0	4390387712	47	4367
2026-01-22 13:27:27.46	354.57	11.45	-38.9	-40.2	19.1	0.00e+00	0	38	0	4395630592	47	4370
2026-01-22 13:27:28.74	354.48	11.34	-38.9	-40.2	19.0	0.00e+00	0	38	0	4405067776	47	4379
2026-01-22 13:27:29.46	354.42	11.28	-38.9	-40.2	19.1	0.00e+00	0	38	0	4410310656	47	4353
2026-01-22 13:27:30.74	354.33	11.17	-38.7	-40.1	19.2	0.00e+00	0	38	0	4419747840	47	4321
2026-01-22 13:27:31.45	354.28	11.12	-38.8	-40.2	19.1	0.00e+00	0	38	0	4424990720	47	4385
2026-01-22 13:27:32.73	354.19	11.01	-38.8	-40.2	19.0	0.00e+00	0	38	0	4434427904	47	4390
2026-01-22 13:27:33.44	354.14	10.95	-38.7	-40.3	19.0	0.00e+00	0	38	0	4438622208	47	4408
2026-01-22 13:27:34.72	354.04	10.84	-38.7	-40.4	18.9	0.00e+00	0	38	0	4448059392	47	4482
2026-01-22 13:27:35.46	353.99	10.78	-38.7	-40.5	18.8	0.00e+00	0	38	0	4454350848	47	4511
2026-01-22 13:27:36.74	353.90	10.68	-38.6	-40.3	18.9	0.00e+00	0	38	0	4462739456	47	4441
2026-01-22 13:27:37.45	353.85	10.62	-38.6	-40.4	18.9	0.00e+00	0	38	0	4467982336	47	4460
2026-01-22 13:27:38.73	353.76	10.51	-38.8	-40.5	18.8	0.00e+00	0	38	0	4477419520	47	4503
2026-01-22 13:27:39.59	353.70	10.44	-38.9	-40.5	18.8	0.00e+00	0	38	0	4483710976	47	4530
2026-01-22 13:27:41.01	353.60	10.33	-38.8	-40.3	19.0	0.00e+00	0	38	0	4493148160	47	4411
2026-01-22 13:27:41.72	353.56	10.27	-38.7	-40.2	19.1	0.00e+00	0	38	0	4499439616	47	4352
2026-01-22 13:27:43.22	353.45	10.15	-38.7	-40.2	19.1	0.00e+00	0	38	0	4509925376	47	4356
2026-01-22 13:27:43.93	353.41	10.09	-38.8	-40.3	18.9	0.00e+00	0	38	0	4515168256	47	4426
2026-01-22 13:27:45.28	353.31	9.98	-38.7	-40.2	19.0	0.00e+00	0	38	0	4524605440	47	4372
2026-01-22 13:27:46.25	353.25	9.91	-38.7	-40.3	18.9	0.00e+00	0	38	0	4531945472	47	4412
2026-01-22 13:27:47.24	353.18	9.83	-38.7	-40.3	18.9	0.00e+00	0	38	0	4538236928	47	4423
2026-01-22 13:27:48.24	353.12	9.75	-38.7	-40.4	18.9	0.00e+00	0	38	0	4545576960	47	4456
2026-01-22 13:27:49.23	353.05	9.67	-38.7	-40.4	18.8	0.00e+00	0	38	0	4552916992	47	4471
2026-01-22 13:27:50.22	352.99	9.59	-38.6	-40.3	18.9	0.00e+00	0	38	0	4560257024	47	4413
2026-01-22 13:27:51.22	352.92	9.51	-38.6	-40.3	18.9	0.00e+00	0	38	0	4567597056	47	4430
2026-01-22 13:27:52.21	352.86	9.43	-38.7	-40.4	18.8	0.00e+00	0	38	0	4574937088	47	4452
2026-01-22 13:27:53.21	352.80	9.35	-38.7	-40.3	18.9	0.00e+00	0	38	0	4581228544	47	4429
2026-01-22 13:27:54.25	352.73	9.27	-38.8	-40.4	18.8	0.00e+00	0	38	0	4589617152	47	4467
2026-01-22 13:27:55.18	352.67	9.20	-38.9	-40.5	18.8	0.00e+00	0	38	0	4595908608	47	4500
2026-01-22 13:27:56.17	352.61	9.12	-38.9	-40.4	18.9	0.00e+00	0	38	0	4603248640	47	4448
2026-01-22 13:27:57.17	352.55	9.04	-39.0	-40.5	18.7	0.00e+00	0	38	0	4610588672	47	4499
2026-01-22 13:27:58.16	352.48	8.97	-45.3	-59.4	3.8	3.63e-01	0	39	104	4615831552	61	17887
2026-01-22 13:27:59.16	352.42	8.89	-48.9	-60.9	3.8	8.46e-01	0	38	104	4615831552	67	14965
2026-01-22 13:28:00.15	352.36	8.81	-49.8	-61.1	3.8	8.46e-01	0	38	104	4615831552	69	13593
2026-01-22 13:28:01.15	352.30	8.74	-49.7	-61.2	3.8	8.47e-01	0	38	104	4615831552	69	13761
2026-01-22 13:28:02.14	352.24	8.66	-50.2	-61.3	3.8	8.46e-01	0	38	104	4615831552	70	13155
2026-01-22 13:28:03.13	352.18	8.58	-50.3	-61.4	3.8	8.47e-01	0	38	104	4615831552	70	13300
2026-01-22 13:28:04.13	352.12	8.51	-50.5	-61.4	3.8	8.48e-01	0	38	104	4615831552	70	13285
2026-01-22 13:28:05.12	352.06	8.43	-50.6	-61.4	3.8	8.46e-01	0	38	104	4615831552	70	13395
2026-01-22 13:28:06.11	352.00	8.36	-50.1	-61.5	3.8	8.47e-01	0	38	104	4615831552	70	13452
2026-01-22 13:28:07.10	351.94	8.28	-50.5	-61.4	3.8	8.47e-01	0	38	104	4615831552	70	13406
2026-01-22 13:28:08.10	351.88	8.21	-50.8	-61.4	3.9	8.47e-01	0	38	104	4615831552	71	12588
2026-01-22 13:28:09.09	351.83	8.13	-50.6	-61.5	3.8	8.47e-01	0	38	104	4615831552	71	12718
2026-01-22 13:28:10.08	351.77	8.06	-50.4	-61.5	3.8	8.46e-01	0	38	104	4615831552	71	12669
2026-01-22 13:28:11.08	351.71	7.98	-50.7	-61.5	3.8	8.47e-01	0	38	104	4615831552	71	12699
2026-01-22 13:28:12.07	351.65	7.91	-50.7	-61.5	3.8	8.48e-01	0	38	104	4615831552	71	12726
2026-01-22 13:28:13.06	351.60	7.83	-50.7	-61.5	3.8	8.47e-01	0	38	104	4615831552	71	12714
2026-01-22 13:28:14.06	351.54	7.76	-50.7	-61.5	3.8	8.46e-01	0	38	104	4615831552	71	12771
2026-01-22 13:28:15.05	351.48	7.69	-50.3	-61.5	3.8	8.47e-01	0	38	104	4615831552	71	12744
2026-01-22 13:28:16.04	351.43	7.61	-50.8	-61.6	3.8	8.47e-01	0	38	104	4615831552	71	12842
2026-01-22 13:28:17.03	351.37	7.54	-50.8	-61.5	3.8	8.47e-01	0	39	104	4615831552	71	12688
2026-01-22 13:28:18.03	351.32	7.47	-50.8	-61.5	3.8	8.48e-01	0	38	104	4615831552	71	12690
2026-01-22 13:28:19.02	351.26	7.39	-50.8	-61.5	3.8	8.47e-01	0	38	104	4615831552	71	12678
2026-01-22 13:28:20.01	351.21	7.32	-50.8	-61.5	3.8	8.47e-01	0	38	104	4615831552	71	12716
2026-01-22 13:28:21.01	351.15	7.25	-50.9	-61.5	3.8	8.47e-01	0	38	104	4615831552	71	12734
2026-01-22 13:28:22.00	351.10	7.18	-50.6	-61.5	3.8	8.48e-01	0	38	104	4615831552	71	12733
