passes_logs/2026/01/22/T1/T1__20260122_001433_NOAA_21_JPSS-2_rec.log

#Pass ID: 20260122_001433_NOAA 21 (JPSS-2)
#Satellite: NOAA 21 (JPSS-2)
#Configuration: NOAA 21
#almurnet v.1.7.20251203
#Start time: 2026-01-22 00:14:36

#Version: 2.0.20230620
#Station: T1
#Location: 37.570604 lon 55.790049 lat
#TLE: 1 54234U 22150A   26020.93347024  .00000206  00000+0  11859-3 0  9994
#TLE: 2 54234  98.7506 321.7615 0000627 245.8100 114.3011 14.19536899165654

#Time	Az	El	Level	Level2	SNR	BER	BlckErr	Temp	State	Recorded	gain1	gain2
2026-01-22 00:14:36.03	12.80	5.16	-48.7	-63.4	3.8	1.49e+00	0	36	0	0	69	19055
2026-01-22 00:14:37.02	12.78	5.23	-48.6	-63.2	3.8	1.49e+00	0	36	104	0	67	20863
2026-01-22 00:14:38.01	12.75	5.30	-48.6	-63.2	3.8	1.49e+00	0	36	104	0	67	20904
2026-01-22 00:14:39.01	12.72	5.38	-48.5	-63.2	3.8	1.49e+00	0	36	104	0	67	20820
2026-01-22 00:14:40.00	12.70	5.45	-48.6	-63.2	3.8	1.49e+00	0	36	104	0	67	20832
2026-01-22 00:14:40.99	12.67	5.52	-48.5	-63.2	3.8	1.49e+00	0	36	104	0	67	20929
2026-01-22 00:14:41.99	12.65	5.59	-48.6	-63.2	3.8	1.49e+00	0	37	104	0	67	20975
2026-01-22 00:14:42.98	12.62	5.66	-48.6	-63.2	3.8	1.49e+00	0	36	104	0	67	21015
2026-01-22 00:14:43.97	12.59	5.73	-48.5	-63.3	3.8	1.49e+00	0	36	104	0	67	21023
2026-01-22 00:14:44.97	12.57	5.80	-48.6	-63.3	3.8	1.49e+00	0	36	104	0	67	21062
2026-01-22 00:14:45.96	12.54	5.87	-48.6	-63.2	3.8	1.49e+00	0	36	104	0	67	20952
2026-01-22 00:14:46.95	12.51	5.94	-48.5	-63.2	3.8	1.49e+00	0	36	104	0	67	21007
2026-01-22 00:14:47.95	12.48	6.02	-48.6	-63.2	3.8	1.49e+00	0	37	104	0	67	20928
2026-01-22 00:14:48.94	12.46	6.09	-48.5	-63.1	3.8	1.49e+00	0	37	104	0	67	20712
2026-01-22 00:14:49.93	12.43	6.16	-48.5	-63.1	3.8	1.49e+00	0	37	104	0	67	20582
2026-01-22 00:14:50.93	12.40	6.24	-48.5	-63.0	3.8	1.49e+00	0	37	104	0	67	20334
2026-01-22 00:14:51.92	12.37	6.31	-48.5	-62.8	3.8	1.49e+00	0	37	104	0	67	19941
2026-01-22 00:14:52.91	12.35	6.38	-48.5	-62.6	3.8	1.49e+00	0	37	104	0	67	19580
2026-01-22 00:14:53.91	12.32	6.45	-48.5	-62.4	3.8	1.49e+00	0	37	104	0	67	19138
2026-01-22 00:14:54.90	12.29	6.53	-48.5	-62.2	3.8	1.49e+00	0	37	104	0	67	18673
2026-01-22 00:14:55.89	12.26	6.60	-48.5	-62.1	3.8	1.49e+00	0	37	104	0	67	18490
2026-01-22 00:14:56.88	12.23	6.67	-48.4	-61.9	3.8	1.49e+00	0	37	104	0	67	17899
2026-01-22 00:14:57.88	12.20	6.75	-48.4	-61.8	3.8	1.49e+00	0	37	104	0	67	17837
2026-01-22 00:14:58.87	12.17	6.82	-48.4	-61.6	3.8	1.49e+00	0	37	104	0	67	17302
2026-01-22 00:14:59.86	12.14	6.90	-48.4	-61.8	3.8	1.49e+00	0	37	104	0	67	17790
2026-01-22 00:15:00.86	12.11	6.97	-48.4	-61.9	3.8	1.49e+00	0	37	104	0	67	17946
2026-01-22 00:15:01.85	12.08	7.05	-48.5	-62.1	3.8	1.49e+00	0	37	104	0	67	18396
2026-01-22 00:15:02.84	12.05	7.12	-48.5	-62.3	3.8	1.49e+00	0	37	104	0	67	18873
2026-01-22 00:15:03.83	12.02	7.20	-48.5	-62.5	3.8	1.49e+00	0	37	104	0	67	19356
2026-01-22 00:15:04.83	11.99	7.27	-48.5	-62.7	3.8	1.49e+00	0	37	104	0	67	19821
2026-01-22 00:15:05.82	11.96	7.35	-48.5	-62.9	3.8	1.49e+00	0	37	104	0	67	20184
2026-01-22 00:15:06.82	11.93	7.43	-48.5	-63.1	3.8	1.49e+00	0	37	104	0	67	20648
2026-01-22 00:15:07.81	11.90	7.50	-48.5	-63.2	3.8	1.49e+00	0	37	104	0	67	20827
2026-01-22 00:15:08.81	11.87	7.58	-48.6	-63.1	3.8	1.49e+00	0	37	104	0	67	20694
2026-01-22 00:15:09.80	11.84	7.65	-48.5	-62.9	3.8	1.49e+00	0	37	104	0	67	20272
2026-01-22 00:15:10.79	11.81	7.73	-48.5	-62.5	3.8	1.49e+00	0	37	104	0	67	19241
2026-01-22 00:15:11.79	11.78	7.81	-48.4	-61.5	3.8	1.49e+00	0	37	104	0	67	17255
2026-01-22 00:15:12.78	11.75	7.89	-48.3	-60.0	4.1	1.48e+00	0	37	104	0	67	14410
2026-01-22 00:15:13.77	11.72	7.96	-48.1	-58.2	4.7	1.19e+00	0	37	104	0	67	11815
2026-01-22 00:15:14.77	11.68	8.04	-47.9	-56.6	5.6	5.82e-01	0	37	0	0	67	9743
2026-01-22 00:15:15.76	11.65	8.12	-47.5	-54.9	7.0	2.27e-01	0	38	0	0	67	8005
2026-01-22 00:15:16.75	11.62	8.20	-47.1	-53.5	8.4	6.39e-02	0	37	0	0	66	7240
2026-01-22 00:15:17.75	11.59	8.28	-46.7	-52.1	9.7	1.24e-02	0	37	0	0	65	6538
2026-01-22 00:15:18.74	11.55	8.36	-46.3	-51.2	10.7	4.14e-03	0	37	0	0	64	6243
2026-01-22 00:15:19.73	11.52	8.43	-45.9	-50.3	11.6	7.95e-04	0	37	0	0	63	5991
2026-01-22 00:15:20.73	11.49	8.51	-45.5	-49.5	12.5	1.88e-04	0	37	0	0	63	5445
2026-01-22 00:15:21.72	11.45	8.59	-45.2	-49.0	13.0	3.43e-05	0	37	0	0	62	5440
2026-01-22 00:15:22.72	11.42	8.67	-44.9	-48.5	13.5	1.06e-05	0	37	0	0	61	5416
2026-01-22 00:15:23.71	11.39	8.75	-44.9	-48.5	13.5	1.29e-05	0	37	0	0	61	5438
2026-01-22 00:15:24.70	11.35	8.83	-44.9	-48.4	13.6	1.29e-05	0	38	0	0	61	5388
2026-01-22 00:15:25.70	11.32	8.91	-44.9	-48.5	13.6	7.60e-06	0	38	0	0	61	5417
2026-01-22 00:15:26.69	11.28	8.99	-45.1	-48.9	13.1	2.82e-05	0	37	0	0	61	5665
2026-01-22 00:15:27.68	11.25	9.07	-46.2	-50.7	11.3	3.09e-04	0	37	0	0	62	6615
2026-01-22 00:15:28.68	11.21	9.16	-45.2	-49.0	13.1	1.09e-03	0	38	0	0	62	5411
2026-01-22 00:15:29.67	11.18	9.24	-46.1	-50.6	11.5	8.30e-06	0	38	0	0	62	6545
2026-01-22 00:15:30.67	11.14	9.32	-47.3	-53.6	8.4	2.48e-02	0	37	0	0	65	7737
2026-01-22 00:15:31.66	11.11	9.40	-43.5	-46.4	15.4	3.63e-03	0	38	0	0	59	4766
2026-01-22 00:15:32.69	11.07	9.49	-42.4	-44.9	16.9	0.00e+00	0	37	0	0	56	4782
2026-01-22 00:15:33.68	11.03	9.57	-42.3	-44.8	17.0	0.00e+00	0	38	0	0	56	4749
2026-01-22 00:15:34.76	11.00	9.66	-42.2	-44.8	17.1	0.00e+00	0	38	0	0	56	4708
2026-01-22 00:15:35.61	10.96	9.73	-42.0	-44.5	17.3	0.00e+00	0	38	0	0	56	4579
2026-01-22 00:15:36.97	10.91	9.84	-41.8	-44.2	17.4	0.00e+00	0	38	0	0	55	4689
2026-01-22 00:15:37.68	10.89	9.90	-41.8	-44.2	17.5	0.00e+00	0	38	0	0	55	4699
2026-01-22 00:15:39.17	10.83	10.03	-41.8	-44.2	17.5	0.00e+00	0	37	0	0	55	4669
2026-01-22 00:15:39.87	10.81	10.09	-41.6	-44.0	17.7	0.00e+00	0	38	0	0	55	4559
2026-01-22 00:15:41.25	10.75	10.21	-41.6	-44.0	17.7	0.00e+00	0	38	0	0	55	4565
2026-01-22 00:15:41.96	10.73	10.27	-41.7	-44.1	17.5	0.00e+00	0	38	0	0	55	4642
2026-01-22 00:15:43.24	10.68	10.38	-41.7	-44.0	17.6	0.00e+00	0	38	0	0	55	4586
2026-01-22 00:15:43.95	10.65	10.44	-41.7	-44.1	17.6	0.00e+00	0	38	0	0	55	4631
2026-01-22 00:15:45.23	10.60	10.55	-41.6	-43.9	17.8	0.00e+00	0	38	0	0	55	4510
2026-01-22 00:15:45.95	10.57	10.61	-41.6	-43.9	17.8	0.00e+00	0	38	0	0	55	4525
2026-01-22 00:15:47.23	10.52	10.72	-41.6	-43.9	17.8	0.00e+00	0	38	0	0	55	4503
2026-01-22 00:15:47.94	10.49	10.78	-41.6	-43.9	17.8	0.00e+00	0	38	0	0	55	4507
2026-01-22 00:15:49.22	10.44	10.89	-41.4	-43.6	18.1	0.00e+00	0	38	0	0	54	4627
2026-01-22 00:15:49.93	10.41	10.96	-41.4	-43.6	18.1	0.00e+00	0	38	0	0	54	4635
2026-01-22 00:15:51.21	10.36	11.07	-41.5	-43.8	18.0	0.00e+00	0	38	0	0	54	4711
2026-01-22 00:15:52.00	10.33	11.14	-41.4	-43.7	18.0	0.00e+00	0	38	0	0	54	4669
2026-01-22 00:15:53.18	10.28	11.24	-41.4	-43.6	18.1	0.00e+00	0	38	0	0	54	4649
2026-01-22 00:15:54.03	10.24	11.32	-41.3	-43.5	18.2	0.00e+00	0	38	0	0	54	4586
2026-01-22 00:15:55.17	10.20	11.42	-41.3	-43.4	18.3	0.00e+00	0	38	0	0	54	4535
2026-01-22 00:15:56.03	10.16	11.50	-41.4	-43.6	18.2	0.00e+00	0	38	0	0	54	4617
2026-01-22 00:15:57.16	10.11	11.60	-41.4	-43.6	18.2	0.00e+00	0	38	0	0	54	4610
2026-01-22 00:15:58.30	10.07	11.70	-41.3	-43.5	18.3	0.00e+00	0	38	0	0	54	4551
2026-01-22 00:15:59.32	10.02	11.79	-41.2	-43.4	18.4	0.00e+00	0	38	0	0	54	4501
2026-01-22 00:16:00.49	9.97	11.90	-41.4	-43.5	18.3	0.00e+00	0	38	0	0	54	4572
2026-01-22 00:16:01.35	9.93	11.98	-41.4	-43.5	18.2	0.00e+00	0	38	0	0	54	4589
2026-01-22 00:16:02.49	9.88	12.08	-41.2	-43.3	18.4	0.00e+00	0	38	0	0	54	4492
2026-01-22 00:16:03.34	9.85	12.16	-41.3	-43.4	18.4	0.00e+00	0	38	0	0	54	4515
2026-01-22 00:16:04.48	9.80	12.26	-41.2	-43.3	18.5	0.00e+00	0	38	0	0	54	4480
2026-01-22 00:16:05.33	9.76	12.34	-41.2	-43.3	18.5	0.00e+00	0	38	0	0	54	4466
2026-01-22 00:16:06.47	9.71	12.45	-41.3	-43.4	18.4	0.00e+00	0	38	0	0	54	4516
2026-01-22 00:16:07.32	9.67	12.53	-41.3	-43.3	18.5	0.00e+00	0	38	0	0	54	4489
2026-01-22 00:16:08.46	9.62	12.63	-41.1	-43.1	18.6	0.00e+00	0	38	0	0	54	4385
2026-01-22 00:16:09.31	9.58	12.71	-41.3	-43.4	18.4	0.00e+00	0	38	0	0	54	4494
2026-01-22 00:16:10.45	9.52	12.82	-41.0	-43.1	18.7	0.00e+00	0	38	0	0	54	4358
2026-01-22 00:16:11.30	9.49	12.90	-41.1	-43.1	18.6	0.00e+00	0	38	0	0	54	4383
2026-01-22 00:16:12.47	9.43	13.01	-41.1	-43.1	18.7	0.00e+00	0	38	0	0	54	4342
2026-01-22 00:16:13.32	9.39	13.09	-41.0	-43.0	18.8	0.00e+00	0	38	0	0	54	4321
2026-01-22 00:16:14.46	9.34	13.20	-41.1	-43.1	18.7	0.00e+00	0	38	0	0	54	4378
2026-01-22 00:16:15.31	9.30	13.28	-41.0	-43.0	18.8	0.00e+00	0	38	0	0	54	4313
2026-01-22 00:16:16.45	9.24	13.39	-41.1	-43.1	18.7	0.00e+00	0	38	0	0	54	4343
2026-01-22 00:16:17.30	9.20	13.48	-41.1	-43.1	18.7	0.00e+00	0	38	0	0	54	4347
2026-01-22 00:16:18.44	9.14	13.59	-41.0	-42.9	18.8	0.00e+00	0	38	0	0	53	4537
2026-01-22 00:16:19.29	9.10	13.67	-40.9	-42.8	18.9	0.00e+00	0	38	0	0	53	4493
2026-01-22 00:16:20.43	9.05	13.78	-40.9	-42.9	18.8	0.00e+00	0	38	0	0	53	4532
2026-01-22 00:16:21.28	9.00	13.86	-40.9	-42.9	18.9	0.00e+00	0	38	0	0	53	4496
2026-01-22 00:16:22.42	8.95	13.98	-40.9	-42.9	18.9	0.00e+00	0	38	0	0	53	4496
2026-01-22 00:16:23.27	8.90	14.06	-40.8	-42.7	19.0	0.00e+00	0	38	0	0	53	4422
2026-01-22 00:16:24.41	8.85	14.17	-41.0	-42.9	18.8	0.00e+00	0	38	0	0	53	4524
2026-01-22 00:16:25.26	8.80	14.26	-40.9	-42.8	18.9	0.00e+00	0	38	0	0	53	4461
2026-01-22 00:16:26.40	8.74	14.37	-40.8	-42.7	19.0	0.00e+00	0	38	0	0	53	4438
2026-01-22 00:16:27.26	8.70	14.46	-40.8	-42.7	19.0	0.00e+00	0	38	0	0	53	4437
2026-01-22 00:16:28.39	8.64	14.57	-40.8	-42.7	19.0	0.00e+00	0	38	0	0	53	4438
2026-01-22 00:16:29.24	8.59	14.66	-40.9	-42.8	18.9	0.00e+00	0	38	0	0	53	4476
2026-01-22 00:16:30.38	8.53	14.77	-40.9	-42.8	18.9	0.00e+00	0	38	0	0	53	4482
2026-01-22 00:16:31.23	8.49	14.86	-40.9	-42.8	18.9	0.00e+00	0	38	0	0	53	4476
2026-01-22 00:16:32.52	8.42	14.99	-40.8	-42.7	19.0	0.00e+00	0	38	0	0	53	4424
2026-01-22 00:16:33.23	8.38	15.06	-40.8	-42.7	19.0	0.00e+00	0	38	0	0	53	4433
2026-01-22 00:16:34.73	8.30	15.22	-41.0	-42.9	18.8	0.00e+00	0	38	0	0	53	4522
2026-01-22 00:16:35.44	8.26	15.29	-40.8	-42.7	18.9	0.00e+00	0	38	0	0	53	4435
2026-01-22 00:16:36.72	8.19	15.43	-40.9	-42.8	18.9	0.00e+00	0	38	0	0	53	4484
2026-01-22 00:16:37.44	8.15	15.50	-41.0	-42.9	18.8	0.00e+00	0	38	0	0	53	4506
2026-01-22 00:16:38.72	8.07	15.64	-40.9	-42.9	18.9	0.00e+00	0	38	0	0	53	4494
2026-01-22 00:16:39.45	8.03	15.71	-41.0	-42.9	18.9	0.00e+00	0	38	0	0	53	4498
2026-01-22 00:16:40.73	7.96	15.85	-41.0	-42.9	18.8	0.00e+00	0	38	0	0	53	4523
2026-01-22 00:16:41.44	7.92	15.92	-41.0	-42.9	18.8	0.00e+00	0	38	0	0	53	4508
2026-01-22 00:16:42.72	7.84	16.06	-41.0	-42.9	18.8	0.00e+00	0	38	0	0	53	4541
2026-01-22 00:16:43.43	7.80	16.14	-41.1	-43.0	18.7	0.00e+00	0	38	0	0	53	4582
2026-01-22 00:16:44.71	7.73	16.27	-41.2	-43.2	18.6	0.00e+00	0	38	0	0	53	4669
2026-01-22 00:16:45.50	7.68	16.36	-41.2	-43.1	18.6	0.00e+00	0	38	0	0	53	4645
2026-01-22 00:16:46.70	7.61	16.49	-41.3	-43.2	18.6	0.00e+00	0	38	0	0	53	4685
2026-01-22 00:16:47.56	7.55	16.58	-41.3	-43.3	18.5	0.00e+00	0	38	0	0	53	4730
2026-01-22 00:16:48.69	7.49	16.70	-41.4	-43.4	18.5	0.00e+00	0	38	0	0	53	4786
2026-01-22 00:16:49.55	7.43	16.80	-41.3	-43.2	18.6	0.00e+00	0	38	0	0	53	4694
2026-01-22 00:16:50.69	7.36	16.92	-41.3	-43.3	18.6	0.00e+00	0	38	0	0	53	4724
2026-01-22 00:16:51.79	7.29	17.05	-41.4	-43.3	18.5	0.00e+00	0	38	0	0	53	4756
2026-01-22 00:16:52.82	7.23	17.16	-41.4	-43.4	18.5	0.00e+00	0	38	0	0	53	4766
2026-01-22 00:16:53.81	7.17	17.27	-41.4	-43.4	18.5	0.00e+00	0	38	0	0	53	4764
2026-01-22 00:16:54.80	7.10	17.38	-41.5	-43.4	18.4	0.00e+00	0	38	0	0	53	4807
2026-01-22 00:16:55.80	7.04	17.50	-41.5	-43.4	18.5	0.00e+00	0	38	0	0	53	4781
2026-01-22 00:16:56.80	6.97	17.61	-41.5	-43.5	18.4	0.00e+00	0	38	0	0	53	4821
2026-01-22 00:16:57.79	6.91	17.72	-41.5	-43.4	18.5	0.00e+00	0	38	0	0	53	4781
2026-01-22 00:16:58.79	6.84	17.83	-41.5	-43.4	18.4	0.00e+00	0	38	0	0	53	4800
2026-01-22 00:16:59.79	6.78	17.95	-41.5	-43.4	18.5	0.00e+00	0	38	0	0	53	4793
2026-01-22 00:17:00.78	6.71	18.06	-41.4	-43.3	18.6	0.00e+00	0	38	0	0	53	4742
2026-01-22 00:17:01.77	6.64	18.18	-41.4	-43.3	18.6	0.00e+00	0	38	0	0	53	4745
2026-01-22 00:17:02.77	6.57	18.29	-41.4	-43.3	18.6	0.00e+00	0	38	0	0	53	4708
2026-01-22 00:17:03.76	6.51	18.41	-41.4	-43.2	18.7	0.00e+00	0	38	0	0	53	4703
2026-01-22 00:17:04.76	6.44	18.53	-41.4	-43.3	18.6	0.00e+00	0	38	0	0	53	4706
2026-01-22 00:17:05.84	6.36	18.65	-41.4	-43.2	18.6	0.00e+00	0	38	0	0	53	4701
2026-01-22 00:17:06.73	6.30	18.76	-41.4	-43.3	18.6	0.00e+00	0	38	0	0	53	4729
2026-01-22 00:17:07.87	6.22	18.89	-41.3	-43.2	18.6	0.00e+00	0	38	0	0	53	4683
2026-01-22 00:17:08.77	6.15	19.00	-41.2	-43.1	18.7	0.00e+00	0	38	0	0	53	4628
2026-01-22 00:17:09.82	6.08	19.13	-41.3	-43.2	18.6	0.00e+00	0	38	0	0	53	4686
2026-01-22 00:17:10.69	6.01	19.23	-41.3	-43.1	18.7	0.00e+00	0	38	0	0	53	4650
2026-01-22 00:17:11.83	5.93	19.37	-41.3	-43.2	18.7	0.00e+00	0	38	0	0	53	4657
2026-01-22 00:17:12.68	5.87	19.47	-41.2	-43.0	18.8	0.00e+00	0	38	0	0	53	4588
2026-01-22 00:17:13.82	5.78	19.61	-41.1	-43.0	18.8	0.00e+00	0	38	0	0	53	4573
2026-01-22 00:17:14.67	5.72	19.71	-41.2	-43.0	18.8	0.00e+00	0	38	0	0	53	4588
2026-01-22 00:17:15.81	5.63	19.85	-41.1	-43.0	18.9	0.00e+00	0	38	0	0	53	4558
2026-01-22 00:17:16.67	5.56	19.96	-41.2	-43.1	18.7	0.00e+00	0	38	0	0	53	4617
2026-01-22 00:17:17.80	5.48	20.10	-41.1	-42.9	18.8	0.00e+00	0	38	0	0	53	4541
2026-01-22 00:17:18.66	5.41	20.21	-41.0	-42.9	18.9	0.00e+00	0	38	0	0	53	4503
2026-01-22 00:17:19.79	5.32	20.35	-41.0	-42.9	18.9	0.00e+00	0	38	0	0	53	4537
2026-01-22 00:17:20.64	5.25	20.46	-40.9	-42.8	19.0	0.00e+00	0	38	0	0	53	4466
2026-01-22 00:17:21.88	5.16	20.61	-41.0	-42.8	19.0	0.00e+00	0	38	0	0	53	4483
2026-01-22 00:17:22.73	5.09	20.72	-41.0	-42.9	18.9	0.00e+00	0	38	0	0	53	4495
2026-01-22 00:17:23.86	5.00	20.86	-40.8	-42.6	19.1	0.00e+00	0	38	0	0	53	4383
2026-01-22 00:17:24.72	4.92	20.97	-40.7	-42.6	19.2	0.00e+00	0	38	0	0	53	4349
2026-01-22 00:17:25.98	4.82	21.14	-40.6	-42.5	19.3	0.00e+00	0	38	0	0	53	4302
2026-01-22 00:17:26.77	4.75	21.24	-40.6	-42.4	19.3	0.00e+00	0	38	0	0	53	4282
2026-01-22 00:17:27.97	4.65	21.39	-40.5	-42.3	19.4	0.00e+00	0	38	0	0	53	4216
2026-01-22 00:17:28.82	4.58	21.50	-40.4	-42.2	19.5	0.00e+00	0	38	0	0	52	4417
2026-01-22 00:17:29.96	4.48	21.65	-40.3	-42.1	19.6	0.00e+00	0	38	0	0	52	4361
2026-01-22 00:17:30.81	4.41	21.77	-40.4	-42.2	19.5	0.00e+00	0	38	0	0	52	4409
2026-01-22 00:17:31.95	4.31	21.92	-40.3	-42.1	19.6	0.00e+00	0	38	0	0	52	4357
2026-01-22 00:17:32.80	4.24	22.03	-40.2	-41.9	19.7	0.00e+00	0	38	0	0	52	4291
2026-01-22 00:17:33.93	4.14	22.18	-40.1	-41.8	19.8	0.00e+00	0	38	0	0	52	4222
2026-01-22 00:17:34.79	4.06	22.30	-40.2	-41.9	19.8	0.00e+00	0	38	0	0	52	4252
2026-01-22 00:17:35.92	3.96	22.45	-40.1	-41.8	19.8	0.00e+00	0	38	0	0	52	4211
2026-01-22 00:17:36.78	3.88	22.56	-40.1	-41.8	19.8	0.00e+00	0	38	0	0	52	4238
2026-01-22 00:17:37.91	3.77	22.72	-40.0	-41.7	19.9	0.00e+00	0	38	0	0	52	4181
2026-01-22 00:17:38.76	3.69	22.83	-40.2	-41.9	19.7	0.00e+00	0	38	0	0	52	4249
2026-01-22 00:17:39.90	3.59	22.99	-40.1	-41.8	19.9	0.00e+00	0	38	0	0	52	4210
2026-01-22 00:17:40.75	3.51	23.11	-40.0	-41.7	19.9	0.00e+00	0	38	0	0	52	4172
2026-01-22 00:17:41.94	3.39	23.27	-40.0	-41.7	19.9	0.00e+00	0	38	0	0	52	4161
2026-01-22 00:17:42.79	3.31	23.39	-40.0	-41.7	20.0	0.00e+00	0	38	0	0	51	4424
2026-01-22 00:17:43.99	3.20	23.56	-40.0	-41.7	20.0	0.00e+00	0	38	0	0	51	4416
2026-01-22 00:17:44.84	3.11	23.68	-40.0	-41.6	20.1	0.00e+00	0	38	0	0	51	4391
2026-01-22 00:17:46.04	2.99	23.85	-40.0	-41.7	20.0	0.00e+00	0	38	0	0	51	4434
2026-01-22 00:17:46.89	2.91	23.97	-40.1	-41.8	20.0	0.00e+00	0	38	0	0	51	4462
2026-01-22 00:17:48.03	2.79	24.13	-40.1	-41.8	20.0	0.00e+00	0	38	0	0	51	4460
2026-01-22 00:17:48.88	2.71	24.25	-40.2	-41.9	19.9	0.00e+00	0	38	0	0	51	4512
2026-01-22 00:17:50.02	2.59	24.42	-40.2	-41.9	19.9	0.00e+00	0	38	0	0	51	4527
2026-01-22 00:17:50.88	2.50	24.54	-40.1	-41.7	20.0	0.00e+00	0	38	0	0	51	4439
2026-01-22 00:17:52.01	2.38	24.71	-40.1	-41.9	19.9	0.00e+00	0	38	0	0	51	4495
2026-01-22 00:17:52.87	2.29	24.83	-40.2	-41.9	19.8	0.00e+00	0	38	0	0	51	4536
2026-01-22 00:17:54.00	2.17	25.00	-40.3	-42.0	19.8	0.00e+00	0	38	0	0	51	4571
2026-01-22 00:17:54.85	2.08	25.12	-40.4	-42.2	19.6	0.00e+00	0	38	0	0	51	4658
2026-01-22 00:17:55.99	1.95	25.29	-40.4	-42.1	19.7	0.00e+00	0	38	0	0	51	4635
2026-01-22 00:17:56.84	1.86	25.42	-40.5	-42.2	19.6	0.00e+00	0	38	0	0	51	4667
2026-01-22 00:17:57.98	1.73	25.59	-40.6	-42.3	19.5	0.00e+00	0	38	0	0	51	4728
2026-01-22 00:17:58.83	1.64	25.72	-40.6	-42.3	19.5	0.00e+00	0	38	0	0	51	4754
2026-01-22 00:18:00.03	1.50	25.90	-40.6	-42.4	19.4	0.00e+00	0	38	0	0	52	4506
2026-01-22 00:18:00.88	1.40	26.03	-40.7	-42.5	19.3	0.00e+00	0	38	0	0	52	4579
2026-01-22 00:18:02.10	1.26	26.22	-40.8	-42.5	19.3	0.00e+00	0	38	0	0	52	4591
2026-01-22 00:18:02.95	1.16	26.35	-40.9	-42.7	19.2	0.00e+00	0	38	0	0	52	4659
2026-01-22 00:18:04.09	1.03	26.52	-40.9	-42.7	19.2	0.00e+00	0	38	0	0	52	4693
2026-01-22 00:18:04.94	0.93	26.65	-40.8	-42.6	19.3	0.00e+00	0	38	0	0	52	4624
2026-01-22 00:18:06.08	0.79	26.83	-40.9	-42.6	19.3	0.00e+00	0	38	0	0	52	4646
2026-01-22 00:18:06.93	0.69	26.96	-40.8	-42.6	19.4	0.00e+00	0	38	0	0	52	4608
2026-01-22 00:18:08.07	0.54	27.14	-40.9	-42.7	19.3	0.00e+00	0	38	0	0	52	4653
2026-01-22 00:18:08.98	0.43	27.29	-40.9	-42.6	19.3	0.00e+00	0	38	0	0	52	4629
2026-01-22 00:18:09.97	0.31	27.44	-40.9	-42.7	19.3	0.00e+00	0	38	0	0	52	4657
2026-01-22 00:18:10.97	0.18	27.60	-41.0	-42.8	19.1	0.00e+00	0	38	0	0	52	4734
2026-01-22 00:18:11.96	0.05	27.76	-41.1	-42.9	19.1	0.00e+00	0	38	0	0	52	4761
2026-01-22 00:18:12.96	359.92	27.92	-41.1	-42.8	19.1	0.00e+00	0	38	0	0	52	4744
2026-01-22 00:18:13.95	359.80	28.08	-41.0	-42.8	19.0	0.00e+00	0	38	0	0	52	4735
2026-01-22 00:18:14.95	359.66	28.25	-41.1	-42.9	18.9	0.00e+00	0	38	0	0	52	4792
2026-01-22 00:18:15.94	359.53	28.41	-41.0	-42.8	19.0	0.00e+00	0	38	0	0	52	4718
2026-01-22 00:18:16.94	359.40	28.57	-40.9	-42.7	19.1	0.00e+00	0	38	0	0	52	4682
2026-01-22 00:18:17.93	359.26	28.74	-40.9	-42.6	19.1	0.00e+00	0	38	0	0	52	4638
2026-01-22 00:18:18.93	359.12	28.90	-40.9	-42.7	19.1	0.00e+00	0	38	0	0	52	4671
2026-01-22 00:18:19.92	358.99	29.07	-40.9	-42.6	19.2	0.00e+00	0	38	0	0	52	4643
2026-01-22 00:18:20.92	358.85	29.23	-40.9	-42.7	19.2	0.00e+00	0	38	0	0	52	4659
2026-01-22 00:18:21.91	358.71	29.40	-41.0	-42.8	19.1	0.00e+00	0	38	0	0	52	4745
2026-01-22 00:18:22.91	358.56	29.57	-41.1	-42.9	19.1	0.00e+00	0	38	0	0	52	4778
2026-01-22 00:18:23.94	358.41	29.74	-41.0	-42.8	19.2	0.00e+00	0	38	0	0	52	4714
2026-01-22 00:18:24.93	358.27	29.91	-41.0	-42.8	19.1	0.00e+00	0	38	0	0	52	4740
2026-01-22 00:18:25.93	358.12	30.08	-41.0	-42.8	19.2	0.00e+00	0	38	0	0	52	4742
2026-01-22 00:18:26.92	357.97	30.25	-40.9	-42.7	19.3	0.00e+00	0	38	0	0	52	4670
2026-01-22 00:18:27.92	357.82	30.43	-40.8	-42.5	19.4	0.00e+00	0	38	0	0	52	4579
2026-01-22 00:18:28.91	357.67	30.60	-40.8	-42.6	19.3	0.00e+00	0	38	0	0	52	4621
2026-01-22 00:18:29.90	357.51	30.77	-41.0	-42.7	19.2	0.00e+00	0	38	0	0	52	4694
2026-01-22 00:18:30.90	357.36	30.95	-41.0	-42.8	19.1	0.00e+00	0	38	0	0	52	4717
2026-01-22 00:18:31.89	357.20	31.12	-41.1	-42.9	19.1	0.00e+00	0	38	0	0	52	4789
2026-01-22 00:18:32.89	357.04	31.30	-41.2	-43.1	18.9	0.00e+00	0	38	0	0	53	4611
2026-01-22 00:18:33.88	356.88	31.47	-41.4	-43.2	18.8	0.00e+00	0	38	0	0	53	4677
2026-01-22 00:18:34.87	356.72	31.65	-41.4	-43.3	18.8	0.00e+00	0	38	0	0	53	4712
2026-01-22 00:18:35.87	356.55	31.83	-41.5	-43.3	18.8	0.00e+00	0	38	0	0	53	4735
2026-01-22 00:18:36.86	356.38	32.01	-41.4	-43.3	18.8	0.00e+00	0	38	0	0	53	4727
2026-01-22 00:18:37.86	356.22	32.19	-41.3	-43.1	19.0	0.00e+00	0	38	0	0	53	4603
2026-01-22 00:18:38.92	356.03	32.38	-41.2	-43.0	19.1	0.00e+00	0	38	0	0	53	4546
2026-01-22 00:18:39.83	355.88	32.55	-41.1	-42.9	19.1	0.00e+00	0	38	0	0	53	4519
2026-01-22 00:18:40.83	355.70	32.73	-41.2	-43.0	19.0	0.00e+00	0	38	0	0	53	4554
2026-01-22 00:18:41.82	355.52	32.92	-41.0	-42.7	19.2	0.00e+00	0	38	0	0	53	4432
2026-01-22 00:18:42.82	355.35	33.10	-41.1	-43.0	19.0	0.00e+00	0	38	0	0	53	4549
2026-01-22 00:18:43.81	355.17	33.28	-41.2	-43.1	18.8	0.00e+00	0	38	0	0	53	4603
2026-01-22 00:18:44.80	354.98	33.47	-41.3	-43.2	18.7	0.00e+00	0	38	0	0	53	4661
2026-01-22 00:18:45.80	354.80	33.66	-41.4	-43.3	18.6	0.00e+00	0	38	0	0	53	4748
2026-01-22 00:18:46.79	354.61	33.84	-41.5	-43.4	18.6	0.00e+00	0	38	0	0	53	4795
2026-01-22 00:18:47.79	354.42	34.03	-41.7	-43.6	18.4	0.00e+00	0	38	0	0	54	4647
2026-01-22 00:18:48.78	354.23	34.22	-41.9	-43.8	18.3	0.00e+00	0	38	0	0	54	4743
2026-01-22 00:18:49.78	354.04	34.41	-42.0	-43.9	18.3	0.00e+00	0	38	0	0	54	4776
2026-01-22 00:18:50.77	353.84	34.60	-42.2	-44.2	18.1	0.00e+00	0	38	0	0	55	4652
2026-01-22 00:18:51.77	353.64	34.79	-42.1	-44.0	18.2	0.00e+00	0	38	0	0	55	4591
2026-01-22 00:18:52.76	353.44	34.98	-42.0	-43.9	18.2	0.00e+00	0	38	0	0	55	4540
2026-01-22 00:18:53.84	353.22	35.19	-42.0	-43.9	18.2	0.00e+00	0	38	0	0	55	4538
2026-01-22 00:18:54.69	353.05	35.36	-42.0	-43.9	18.3	0.00e+00	0	38	0	0	55	4516
2026-01-22 00:18:55.83	352.81	35.58	-42.0	-43.9	18.4	0.00e+00	0	38	0	0	55	4494
2026-01-22 00:18:56.68	352.63	35.75	-41.9	-43.8	18.3	0.00e+00	0	38	0	0	55	4465
2026-01-22 00:18:57.82	352.38	35.97	-42.1	-44.0	18.1	0.00e+00	0	38	0	0	55	4574
2026-01-22 00:18:58.67	352.20	36.14	-42.2	-44.1	18.1	0.00e+00	0	38	0	0	55	4629
2026-01-22 00:19:00.15	351.87	36.43	-42.3	-44.2	17.9	0.00e+00	0	38	0	0	55	4699
2026-01-22 00:19:00.86	351.71	36.58	-42.4	-44.3	17.8	0.00e+00	0	38	0	0	55	4758
2026-01-22 00:19:02.14	351.43	36.83	-42.4	-44.4	17.8	0.00e+00	0	38	0	0	55	4768
2026-01-22 00:19:02.85	351.26	36.97	-42.3	-44.3	17.9	0.00e+00	0	38	0	0	55	4709
2026-01-22 00:19:04.13	350.97	37.23	-42.3	-44.3	17.9	0.00e+00	0	38	0	0	55	4739
2026-01-22 00:19:04.86	350.80	37.38	-42.1	-44.1	18.1	0.00e+00	0	38	0	0	55	4627
2026-01-22 00:19:06.14	350.49	37.64	-42.0	-43.9	18.1	0.00e+00	0	38	0	0	55	4544
2026-01-22 00:19:06.85	350.32	37.78	-42.1	-44.0	18.1	0.00e+00	0	38	0	0	55	4588
2026-01-22 00:19:08.13	350.01	38.04	-42.3	-44.3	17.8	0.00e+00	0	38	0	0	55	4715
2026-01-22 00:19:09.05	349.78	38.23	-42.4	-44.4	17.7	0.00e+00	0	38	0	0	55	4809
2026-01-22 00:19:10.34	349.46	38.50	-42.6	-44.6	17.5	0.00e+00	0	38	0	0	55	4926
2026-01-22 00:19:11.05	349.28	38.64	-42.6	-44.7	17.5	0.00e+00	0	38	0	0	55	4935
2026-01-22 00:19:12.33	348.95	38.91	-42.9	-44.9	17.4	0.00e+00	0	38	0	0	56	4802
2026-01-22 00:19:13.18	348.73	39.09	-42.9	-44.8	17.5	0.00e+00	0	38	0	0	56	4752
2026-01-22 00:19:14.58	348.36	39.38	-43.0	-45.1	17.3	0.00e+00	0	38	0	0	56	4883
2026-01-22 00:19:15.29	348.17	39.52	-43.0	-45.0	17.4	0.00e+00	0	38	0	0	56	4859
2026-01-22 00:19:16.57	347.82	39.79	-43.0	-45.0	17.5	0.00e+00	0	38	0	0	56	4858
2026-01-22 00:19:17.30	347.62	39.94	-42.9	-44.9	17.6	0.00e+00	0	38	0	0	56	4765
2026-01-22 00:19:18.58	347.26	40.21	-42.8	-44.8	17.7	0.00e+00	0	38	0	0	56	4723
2026-01-22 00:19:19.32	347.05	40.37	-42.7	-44.7	17.8	0.00e+00	0	38	0	0	56	4663
2026-01-22 00:19:20.60	346.69	40.64	-42.6	-44.6	17.9	0.00e+00	0	38	0	0	56	4623
2026-01-22 00:19:21.34	346.47	40.80	-42.6	-44.6	17.9	0.00e+00	0	38	0	0	56	4620
2026-01-22 00:19:22.62	346.10	41.07	-42.8	-44.8	17.7	0.00e+00	0	38	0	0	56	4719
2026-01-22 00:19:23.35	345.88	41.22	-42.8	-44.9	17.6	0.00e+00	0	38	0	0	56	4765
2026-01-22 00:19:24.62	345.49	41.49	-43.0	-45.0	17.5	0.00e+00	0	38	0	0	56	4866
2026-01-22 00:19:25.36	345.27	41.65	-43.1	-45.1	17.4	0.00e+00	0	38	0	0	56	4905
2026-01-22 00:19:26.64	344.87	41.92	-43.2	-45.3	17.2	0.00e+00	0	38	0	0	57	4725
2026-01-22 00:19:27.46	344.61	42.10	-43.3	-45.4	17.2	0.00e+00	0	38	0	0	57	4766
2026-01-22 00:19:28.60	344.25	42.34	-43.3	-45.4	17.2	0.00e+00	0	38	0	0	57	4788
2026-01-22 00:19:29.64	343.91	42.56	-43.4	-45.5	17.0	0.00e+00	0	38	0	0	57	4864
2026-01-22 00:19:30.75	343.55	42.80	-43.5	-45.6	16.9	0.00e+00	0	38	0	0	57	4877
2026-01-22 00:19:31.69	343.24	43.00	-43.7	-45.8	16.6	0.00e+00	0	38	0	0	57	5037
2026-01-22 00:19:32.86	342.84	43.25	-43.7	-45.9	16.6	0.00e+00	0	38	0	0	58	4796
2026-01-22 00:19:33.72	342.55	43.44	-43.7	-45.9	16.5	0.00e+00	0	38	0	0	58	4813
2026-01-22 00:19:35.06	342.08	43.73	-43.6	-45.9	16.6	0.00e+00	0	38	0	0	58	4766
2026-01-22 00:19:35.77	341.83	43.88	-43.3	-45.5	17.0	0.00e+00	0	38	0	0	58	4564
2026-01-22 00:19:37.04	341.38	44.15	-43.5	-45.7	16.8	0.00e+00	0	38	0	0	58	4661
2026-01-22 00:19:37.79	341.11	44.31	-43.4	-45.5	17.0	0.00e+00	0	38	0	0	58	4579
2026-01-22 00:19:39.06	340.64	44.58	-43.7	-45.9	16.4	0.00e+00	0	38	0	0	58	4813
2026-01-22 00:19:39.79	340.37	44.74	-43.9	-46.2	16.1	0.00e+00	0	38	0	0	58	4972
2026-01-22 00:19:41.07	339.89	45.01	-44.4	-46.8	15.5	0.00e+00	0	38	0	0	59	5007
2026-01-22 00:19:41.80	339.61	45.17	-44.4	-46.8	15.6	0.00e+00	0	38	0	0	59	5018
2026-01-22 00:19:43.08	339.11	45.44	-43.9	-46.2	16.3	0.00e+00	0	38	0	0	59	4654
2026-01-22 00:19:43.80	338.83	45.60	-43.8	-46.0	16.5	0.00e+00	0	38	0	0	59	4567
2026-01-22 00:19:45.08	338.32	45.87	-43.4	-45.5	16.9	0.00e+00	0	38	0	0	58	4562
2026-01-22 00:19:45.98	337.96	46.06	-43.7	-45.8	16.6	0.00e+00	0	38	0	0	58	4744
2026-01-22 00:19:47.09	337.50	46.29	-44.1	-46.4	16.1	0.00e+00	0	38	0	0	58	5059
2026-01-22 00:19:48.12	337.08	46.51	-44.0	-46.2	16.3	0.00e+00	0	38	0	0	59	4701
2026-01-22 00:19:49.12	336.66	46.72	-44.2	-46.5	16.0	0.00e+00	0	38	0	0	59	4845
2026-01-22 00:19:50.11	336.23	46.93	-44.0	-46.3	16.2	0.00e+00	0	38	0	0	59	4723
2026-01-22 00:19:51.10	335.80	47.14	-43.7	-45.8	16.6	0.00e+00	0	38	0	0	59	4493
2026-01-22 00:19:52.10	335.37	47.34	-43.5	-45.7	16.8	0.00e+00	0	38	0	0	59	4419
2026-01-22 00:19:53.10	334.92	47.55	-43.5	-45.7	16.8	0.00e+00	0	38	0	0	58	4658
2026-01-22 00:19:54.42	334.33	47.82	-43.5	-45.6	16.9	0.00e+00	0	38	0	0	58	4610
2026-01-22 00:19:55.17	333.98	47.98	-43.2	-45.3	17.1	0.00e+00	0	38	0	0	58	4472
2026-01-22 00:19:56.76	333.24	48.30	-42.9	-44.9	17.5	0.00e+00	0	38	0	0	57	4509
2026-01-22 00:19:57.33	332.97	48.42	-42.9	-44.9	17.5	0.00e+00	0	38	0	0	57	4497
2026-01-22 00:19:59.03	332.16	48.76	-43.0	-45.1	17.3	0.00e+00	0	38	0	0	57	4601
2026-01-22 00:19:59.60	331.88	48.87	-43.0	-45.0	17.4	0.00e+00	0	38	0	0	57	4575
2026-01-22 00:20:01.29	331.05	49.21	-42.8	-44.8	17.6	0.00e+00	0	38	0	0	57	4455
2026-01-22 00:20:01.86	330.76	49.32	-42.8	-44.8	17.6	0.00e+00	0	38	0	0	57	4470
2026-01-22 00:20:03.55	329.91	49.65	-42.7	-44.8	17.6	0.00e+00	0	38	0	0	57	4466
2026-01-22 00:20:04.12	329.61	49.76	-43.0	-45.1	17.3	0.00e+00	0	38	0	0	57	4651
2026-01-22 00:20:05.82	328.72	50.09	-42.9	-45.0	17.5	0.00e+00	0	38	0	0	57	4563
2026-01-22 00:20:06.39	328.42	50.20	-42.7	-44.7	17.7	0.00e+00	0	38	0	0	57	4439
2026-01-22 00:20:08.10	327.50	50.52	-43.0	-45.1	17.2	0.00e+00	0	38	0	0	57	4613
2026-01-22 00:20:08.67	327.19	50.62	-43.1	-45.2	17.1	0.00e+00	0	38	0	0	57	4653
2026-01-22 00:20:10.38	326.25	50.94	-42.9	-44.9	17.5	0.00e+00	0	38	0	0	57	4542
2026-01-22 00:20:10.94	325.93	51.04	-42.7	-44.6	17.8	0.00e+00	0	38	0	0	57	4384
2026-01-22 00:20:12.65	324.96	51.34	-42.6	-44.6	17.8	0.00e+00	0	38	0	0	57	4354
2026-01-22 00:20:13.22	324.63	51.44	-42.8	-44.8	17.6	0.00e+00	0	38	0	0	57	4455
2026-01-22 00:20:14.92	323.64	51.73	-42.8	-44.9	17.6	0.00e+00	0	38	0	0	57	4499
2026-01-22 00:20:15.49	323.30	51.83	-42.6	-44.6	17.8	0.00e+00	0	38	0	0	57	4355
2026-01-22 00:20:17.19	322.28	52.11	-42.3	-44.2	18.2	0.00e+00	0	38	0	0	56	4406
2026-01-22 00:20:17.76	321.94	52.21	-42.0	-43.8	18.3	0.00e+00	0	38	0	0	55	4480
2026-01-22 00:20:19.47	320.88	52.48	-41.7	-43.6	18.6	0.00e+00	0	38	0	0	55	4347
2026-01-22 00:20:20.03	320.54	52.57	-41.5	-43.4	18.8	0.00e+00	0	38	0	0	55	4255
2026-01-22 00:20:21.74	319.46	52.83	-41.5	-43.4	18.8	0.00e+00	0	38	0	0	54	4518
2026-01-22 00:20:22.31	319.09	52.92	-41.6	-43.4	18.8	0.00e+00	0	38	0	0	54	4526
2026-01-22 00:20:24.01	318.00	53.16	-41.9	-43.8	18.4	0.00e+00	0	38	0	0	54	4755
2026-01-22 00:20:24.58	317.63	53.24	-42.0	-43.9	18.4	0.00e+00	0	38	0	0	54	4794
2026-01-22 00:20:26.28	316.51	53.48	-41.6	-43.4	18.8	0.00e+00	0	38	0	0	54	4542
2026-01-22 00:20:26.95	316.06	53.57	-41.4	-43.2	19.0	0.00e+00	0	38	0	0	54	4402
2026-01-22 00:20:28.37	315.10	53.75	-41.3	-43.0	19.1	0.00e+00	0	38	0	0	54	4332
2026-01-22 00:20:29.08	314.62	53.84	-41.2	-42.9	19.2	0.00e+00	0	38	0	0	54	4270
2026-01-22 00:20:30.36	313.74	54.00	-41.1	-42.9	19.3	0.00e+00	0	38	0	0	54	4247
2026-01-22 00:20:31.29	313.10	54.11	-41.2	-42.9	19.1	0.00e+00	0	38	0	0	54	4289
2026-01-22 00:20:32.55	312.22	54.26	-41.3	-43.0	19.1	0.00e+00	0	38	0	0	54	4335
2026-01-22 00:20:33.36	311.65	54.34	-41.5	-43.3	18.7	0.00e+00	0	38	0	0	54	4463
2026-01-22 00:20:34.49	310.85	54.46	-41.9	-43.8	18.2	0.00e+00	0	38	0	0	54	4752
2026-01-22 00:20:35.35	310.23	54.55	-41.9	-43.9	18.4	0.00e+00	0	38	0	0	54	4767
2026-01-22 00:20:36.48	309.42	54.66	-41.7	-43.5	18.7	0.00e+00	0	38	0	0	54	4568
2026-01-22 00:20:37.34	308.80	54.74	-41.7	-43.5	18.7	0.00e+00	0	38	0	0	54	4591
2026-01-22 00:20:38.47	307.97	54.84	-41.7	-43.5	18.7	0.00e+00	0	38	0	0	54	4584
2026-01-22 00:20:39.32	307.35	54.91	-41.7	-43.6	18.7	0.00e+00	0	38	0	0	54	4627
2026-01-22 00:20:40.46	306.51	55.00	-41.5	-43.3	18.9	0.00e+00	0	38	0	0	54	4490
2026-01-22 00:20:41.31	305.88	55.07	-41.3	-43.1	19.1	0.00e+00	0	38	0	0	54	4350
2026-01-22 00:20:42.45	305.03	55.15	-41.2	-42.9	19.2	0.00e+00	0	38	0	0	54	4285
2026-01-22 00:20:43.30	304.39	55.20	-41.0	-42.8	19.3	0.00e+00	0	38	0	0	54	4203
2026-01-22 00:20:44.44	303.54	55.27	-41.3	-43.0	19.0	0.00e+00	0	38	0	0	54	4335
2026-01-22 00:20:45.29	302.89	55.32	-41.3	-43.1	19.1	0.00e+00	0	38	0	0	54	4350
2026-01-22 00:20:46.43	302.03	55.38	-41.4	-43.2	18.9	0.00e+00	0	38	0	0	54	4428
2026-01-22 00:20:47.28	301.38	55.42	-41.5	-43.4	18.7	0.00e+00	0	38	0	0	54	4498
2026-01-22 00:20:48.42	300.51	55.46	-41.4	-43.2	18.8	0.00e+00	0	38	0	0	54	4414
2026-01-22 00:20:49.27	299.86	55.49	-41.2	-43.0	18.9	0.00e+00	0	38	0	0	54	4338
2026-01-22 00:20:50.41	298.99	55.53	-41.2	-42.9	19.1	0.00e+00	0	38	0	0	54	4280
2026-01-22 00:20:51.26	298.33	55.55	-41.1	-42.8	19.3	0.00e+00	0	38	0	0	54	4225
2026-01-22 00:20:52.39	297.46	55.57	-41.2	-43.0	19.1	0.00e+00	0	38	0	0	54	4306
2026-01-22 00:20:53.25	296.80	55.59	-41.4	-43.1	19.0	0.00e+00	0	38	0	0	54	4387
2026-01-22 00:20:54.38	295.93	55.60	-41.4	-43.2	19.0	0.00e+00	0	38	0	0	54	4394
2026-01-22 00:20:55.24	295.26	55.61	-41.1	-42.9	19.2	0.00e+00	0	38	0	0	54	4258
2026-01-22 00:20:56.37	294.39	55.61	-40.9	-42.7	19.3	0.00e+00	0	38	0	0	53	4393
2026-01-22 00:20:57.22	293.73	55.60	-41.0	-42.7	19.2	0.00e+00	0	38	0	0	53	4440
2026-01-22 00:20:58.36	292.85	55.59	-41.2	-43.0	19.1	0.00e+00	0	38	0	0	53	4564
2026-01-22 00:20:59.21	292.20	55.58	-41.3	-43.1	18.9	0.00e+00	0	38	0	0	53	4638
2026-01-22 00:21:00.35	291.32	55.56	-42.1	-44.0	18.2	0.00e+00	0	38	0	0	54	4837
2026-01-22 00:21:01.21	290.66	55.54	-42.0	-43.9	18.3	0.00e+00	0	38	0	0	54	4794
2026-01-22 00:21:02.34	289.79	55.50	-41.7	-43.5	18.6	0.00e+00	0	38	0	0	54	4585
2026-01-22 00:21:03.19	289.14	55.47	-41.5	-43.3	18.8	0.00e+00	0	38	0	0	54	4491
2026-01-22 00:21:04.33	288.27	55.43	-41.4	-43.2	18.9	0.00e+00	0	38	0	0	54	4419
2026-01-22 00:21:05.18	287.62	55.39	-41.4	-43.3	18.9	0.00e+00	0	38	0	0	54	4442
2026-01-22 00:21:06.32	286.75	55.33	-41.4	-43.2	18.8	0.00e+00	0	38	0	0	54	4409
2026-01-22 00:21:07.17	286.11	55.29	-41.9	-43.8	18.3	0.00e+00	0	38	0	0	54	4725
2026-01-22 00:21:08.31	285.25	55.22	-41.5	-43.3	18.7	0.00e+00	0	38	0	0	54	4485
2026-01-22 00:21:09.16	284.61	55.16	-41.3	-43.1	18.9	0.00e+00	0	38	0	0	54	4366
2026-01-22 00:21:10.30	283.76	55.08	-41.2	-43.0	19.1	0.00e+00	0	38	0	0	54	4300
2026-01-22 00:21:11.15	283.13	55.02	-41.0	-42.8	19.3	0.00e+00	0	38	0	0	54	4211
2026-01-22 00:21:12.29	282.29	54.93	-41.7	-43.6	18.5	0.00e+00	0	38	0	0	54	4599
2026-01-22 00:21:13.14	281.66	54.86	-41.7	-43.6	18.5	0.00e+00	0	38	0	0	54	4618
2026-01-22 00:21:14.28	280.83	54.76	-41.7	-43.6	18.4	0.00e+00	0	38	0	0	54	4627
2026-01-22 00:21:15.13	280.21	54.68	-41.6	-43.5	18.5	0.00e+00	0	38	0	0	54	4564
2026-01-22 00:21:16.27	279.39	54.57	-41.3	-43.1	19.0	0.00e+00	0	38	0	0	54	4357
2026-01-22 00:21:17.12	278.78	54.49	-41.0	-42.8	19.2	0.00e+00	0	38	0	0	54	4199
2026-01-22 00:21:18.29	277.95	54.37	-40.8	-42.5	19.4	0.00e+00	0	38	0	0	53	4326
2026-01-22 00:21:19.15	277.34	54.27	-41.2	-43.0	19.1	0.00e+00	0	38	0	0	53	4573
2026-01-22 00:21:20.28	276.55	54.14	-41.5	-43.2	18.9	0.00e+00	0	38	0	0	53	4703
2026-01-22 00:21:21.14	275.95	54.04	-41.2	-42.9	19.2	0.00e+00	0	38	0	0	53	4530
2026-01-22 00:21:22.40	275.09	53.89	-41.1	-42.8	19.1	0.00e+00	0	38	0	0	53	4488
2026-01-22 00:21:23.19	274.55	53.79	-41.1	-42.8	19.3	0.00e+00	0	38	0	0	53	4456
2026-01-22 00:21:24.37	273.75	53.64	-41.2	-42.9	19.2	0.00e+00	0	38	0	0	53	4522
2026-01-22 00:21:25.23	273.17	53.53	-41.5	-43.3	18.9	0.00e+00	0	38	0	0	53	4728
2026-01-22 00:21:26.36	272.42	53.37	-42.3	-44.2	18.1	0.00e+00	0	38	0	0	55	4687
2026-01-22 00:21:27.22	271.85	53.25	-42.3	-44.2	18.1	0.00e+00	0	38	0	0	55	4667
2026-01-22 00:21:28.56	270.98	53.06	-41.7	-43.5	18.6	0.00e+00	0	38	0	0	55	4312
2026-01-22 00:21:29.27	270.52	52.95	-41.5	-43.3	18.7	0.00e+00	0	38	0	0	55	4226
2026-01-22 00:21:30.77	269.57	52.73	-41.1	-42.8	19.3	0.00e+00	0	38	0	0	54	4218
2026-01-22 00:21:31.48	269.12	52.62	-41.1	-42.9	19.2	0.00e+00	0	38	0	0	54	4257
2026-01-22 00:21:32.76	268.32	52.42	-42.1	-44.0	18.3	0.00e+00	0	38	0	0	54	4852
2026-01-22 00:21:33.47	267.88	52.30	-42.2	-44.1	18.1	0.00e+00	0	38	0	0	55	4649
2026-01-22 00:21:34.75	267.10	52.09	-41.9	-43.7	18.5	0.00e+00	0	38	0	0	55	4416
2026-01-22 00:21:35.47	266.67	51.98	-41.6	-43.4	18.7	0.00e+00	0	38	0	0	55	4255
2026-01-22 00:21:36.75	265.90	51.76	-41.1	-42.8	19.0	0.00e+00	0	38	0	0	54	4222
2026-01-22 00:21:37.48	265.47	51.63	-41.4	-43.2	18.7	0.00e+00	0	38	0	0	54	4404
2026-01-22 00:21:38.76	264.73	51.41	-42.2	-44.1	18.1	0.00e+00	0	38	0	0	55	4637
2026-01-22 00:21:39.47	264.32	51.29	-42.4	-44.3	17.9	0.00e+00	0	38	0	0	55	4744
2026-01-22 00:21:40.75	263.59	51.06	-42.6	-44.6	17.7	0.00e+00	0	38	0	0	55	4884
2026-01-22 00:21:41.49	263.17	50.92	-42.8	-44.8	17.5	0.00e+00	0	38	0	0	56	4741
2026-01-22 00:21:42.77	262.46	50.69	-42.7	-44.7	17.4	0.00e+00	0	38	0	0	56	4675
2026-01-22 00:21:43.48	262.07	50.56	-42.5	-44.5	17.7	0.00e+00	0	38	0	0	56	4554
2026-01-22 00:21:44.76	261.38	50.32	-42.3	-44.2	18.1	0.00e+00	0	38	0	0	56	4411
2026-01-22 00:21:45.61	260.92	50.16	-42.5	-44.4	18.0	0.00e+00	0	38	0	0	56	4533
2026-01-22 00:21:46.75	260.32	49.94	-43.0	-45.1	17.4	0.00e+00	0	38	0	0	56	4879
2026-01-22 00:21:47.60	259.88	49.78	-43.3	-45.5	16.9	0.00e+00	0	38	0	0	57	4820
2026-01-22 00:21:48.74	259.29	49.56	-43.2	-45.2	17.1	0.00e+00	0	38	0	0	57	4704
2026-01-22 00:21:49.59	258.86	49.39	-42.9	-44.8	17.5	0.00e+00	0	38	0	0	57	4484
2026-01-22 00:21:50.73	258.28	49.16	-42.6	-44.5	17.9	0.00e+00	0	38	0	0	57	4312
2026-01-22 00:21:51.58	257.86	49.00	-42.2	-44.0	18.4	0.00e+00	0	38	0	0	56	4329
2026-01-22 00:21:52.75	257.29	48.76	-42.2	-44.0	18.3	0.00e+00	0	38	0	0	56	4332
2026-01-22 00:21:53.60	256.88	48.59	-42.7	-44.7	17.6	0.00e+00	0	38	0	0	56	4695
2026-01-22 00:21:54.74	256.33	48.36	-43.6	-45.7	16.7	0.00e+00	0	38	0	0	57	4958
2026-01-22 00:21:55.59	255.93	48.19	-44.0	-46.2	16.0	0.00e+00	0	38	0	0	58	4983
2026-01-22 00:21:56.73	255.40	47.95	-44.0	-46.2	15.9	0.00e+00	0	38	0	0	59	4700
2026-01-22 00:21:57.58	255.02	47.78	-43.4	-45.5	16.6	0.00e+00	0	38	0	0	58	4559
2026-01-22 00:21:58.72	254.50	47.54	-42.6	-44.6	17.7	0.00e+00	0	38	0	0	57	4342
2026-01-22 00:21:59.57	254.12	47.36	-42.4	-44.3	18.1	0.00e+00	0	38	0	0	56	4455
2026-01-22 00:22:01.06	253.47	47.05	-42.7	-44.6	17.8	0.00e+00	0	38	0	0	56	4637
2026-01-22 00:22:01.77	253.16	46.90	-43.1	-45.0	17.5	0.00e+00	0	38	0	0	56	4866
2026-01-22 00:22:03.27	252.52	46.59	-44.6	-46.9	15.7	0.00e+00	0	38	0	0	59	5084
2026-01-22 00:22:03.98	252.22	46.44	-45.0	-47.6	15.1	0.00e+00	0	38	0	0	60	5173
2026-01-22 00:22:05.25	251.69	46.17	-44.4	-46.8	15.6	0.00e+00	0	38	0	0	60	4749
2026-01-22 00:22:05.99	251.39	46.01	-44.1	-46.4	15.7	0.00e+00	0	38	0	0	60	4534
2026-01-22 00:22:07.28	250.87	45.73	-43.4	-45.5	16.3	0.00e+00	0	38	0	0	58	4566
2026-01-22 00:22:08.00	250.58	45.58	-43.0	-45.0	17.0	0.00e+00	0	38	0	0	58	4311
2026-01-22 00:22:09.28	250.08	45.31	-43.2	-45.2	17.1	0.00e+00	0	38	0	0	57	4691
2026-01-22 00:22:10.00	249.80	45.15	-43.0	-45.0	17.4	0.00e+00	0	38	0	0	57	4580
2026-01-22 00:22:11.29	249.31	44.88	-44.0	-46.2	16.3	0.00e+00	0	38	0	0	58	4961
2026-01-22 00:22:12.00	249.04	44.72	-44.8	-47.3	15.4	0.00e+00	0	38	0	0	60	4999
2026-01-22 00:22:13.27	248.57	44.45	-45.4	-48.1	14.5	2.20e-06	0	38	0	0	61	5192
2026-01-22 00:22:13.99	248.31	44.29	-45.0	-47.6	14.9	0.00e+00	0	38	0	0	61	4926
2026-01-22 00:22:15.26	247.85	44.02	-44.5	-46.9	15.6	0.00e+00	0	38	0	0	60	4789
2026-01-22 00:22:16.07	247.56	43.85	-43.9	-46.1	16.3	0.00e+00	0	38	0	0	59	4625
2026-01-22 00:22:17.51	247.05	43.54	-42.8	-44.8	17.5	0.00e+00	0	38	0	0	57	4458
2026-01-22 00:22:18.22	246.81	43.38	-42.7	-44.6	17.8	0.00e+00	0	38	0	0	57	4368
2026-01-22 00:22:19.50	246.37	43.11	-42.1	-43.9	18.4	0.00e+00	0	38	0	0	56	4257
2026-01-22 00:22:20.22	246.13	42.95	-42.0	-43.8	18.5	0.00e+00	0	38	0	0	56	4224
2026-01-22 00:22:21.76	245.61	42.62	-43.3	-45.3	17.1	0.00e+00	0	38	0	0	57	4750
2026-01-22 00:22:22.47	245.38	42.47	-43.9	-46.2	16.4	0.00e+00	0	38	0	0	58	4929
2026-01-22 00:22:23.75	244.97	42.19	-44.2	-46.5	16.0	0.00e+00	0	38	0	0	59	4817
2026-01-22 00:22:24.48	244.74	42.04	-43.6	-45.8	16.4	0.00e+00	0	38	0	0	59	4460
2026-01-22 00:22:25.76	244.33	41.76	-43.2	-45.2	16.9	0.00e+00	0	38	0	0	58	4425
2026-01-22 00:22:26.48	244.11	41.61	-42.8	-44.8	17.3	0.00e+00	0	38	0	0	57	4478
2026-01-22 00:22:27.77	243.72	41.33	-43.2	-45.2	17.1	0.00e+00	0	38	0	0	57	4698
2026-01-22 00:22:28.48	243.50	41.18	-43.5	-45.7	16.8	0.00e+00	0	38	0	0	57	4927
2026-01-22 00:22:29.76	243.12	40.91	-43.8	-46.0	16.5	0.00e+00	0	38	0	0	58	4862
2026-01-22 00:22:30.47	242.91	40.76	-43.9	-46.2	16.3	0.00e+00	0	38	0	0	58	4979
2026-01-22 00:22:31.75	242.54	40.49	-43.6	-45.8	16.7	0.00e+00	0	38	0	0	58	4732
2026-01-22 00:22:32.47	242.33	40.33	-43.3	-45.4	17.1	0.00e+00	0	38	0	0	58	4521
2026-01-22 00:22:33.75	241.97	40.06	-43.2	-45.3	17.2	0.00e+00	0	38	0	0	58	4475
2026-01-22 00:22:34.47	241.77	39.91	-43.1	-45.2	17.2	0.00e+00	0	38	0	0	58	4413
2026-01-22 00:22:35.74	241.42	39.64	-42.7	-44.7	17.5	0.00e+00	0	38	0	0	57	4406
2026-01-22 00:22:36.68	241.17	39.45	-42.1	-44.0	18.0	0.00e+00	0	38	0	0	56	4332
2026-01-22 00:22:37.97	240.82	39.18	-41.6	-43.4	18.4	0.00e+00	0	38	0	0	55	4285
2026-01-22 00:22:38.68	240.63	39.03	-41.4	-43.2	18.6	0.00e+00	0	38	0	0	54	4423
2026-01-22 00:22:39.96	240.30	38.76	-41.5	-43.2	18.7	0.00e+00	0	38	0	0	54	4430
2026-01-22 00:22:40.69	240.11	38.61	-42.2	-44.1	18.0	0.00e+00	0	38	0	0	55	4619
2026-01-22 00:22:41.97	239.79	38.35	-43.6	-45.7	16.8	0.00e+00	0	38	0	0	57	4953
2026-01-22 00:22:42.68	239.61	38.20	-44.0	-46.2	16.3	0.00e+00	0	38	0	0	58	4975
2026-01-22 00:22:43.96	239.29	37.94	-43.9	-46.1	16.2	0.00e+00	0	38	0	0	58	4921
2026-01-22 00:22:44.68	239.12	37.79	-43.9	-46.1	16.2	0.00e+00	0	38	0	0	58	4898
2026-01-22 00:22:46.01	238.80	37.52	-43.7	-45.9	16.5	0.00e+00	0	38	0	0	58	4770
2026-01-22 00:22:46.72	238.63	37.37	-43.2	-45.3	17.1	0.00e+00	0	38	0	0	58	4461
2026-01-22 00:22:48.05	238.31	37.10	-42.7	-44.7	17.6	0.00e+00	0	38	0	0	57	4414
2026-01-22 00:22:48.76	238.15	36.96	-42.6	-44.5	17.8	0.00e+00	0	38	0	0	57	4334
2026-01-22 00:22:50.04	237.85	36.70	-42.7	-44.7	17.5	0.00e+00	0	38	0	0	57	4398
2026-01-22 00:22:50.77	237.69	36.55	-42.6	-44.6	17.5	0.00e+00	0	38	0	0	57	4349
2026-01-22 00:22:52.05	237.40	36.30	-42.2	-44.1	18.0	0.00e+00	0	38	0	0	56	4366
2026-01-22 00:22:52.79	237.24	36.15	-41.7	-43.5	18.4	0.00e+00	0	38	0	0	55	4340
2026-01-22 00:22:54.25	236.92	35.86	-41.9	-43.7	18.3	0.00e+00	0	38	0	0	55	4418
2026-01-22 00:22:54.96	236.77	35.72	-42.2	-44.1	18.0	0.00e+00	0	38	0	0	55	4638
2026-01-22 00:22:56.24	236.50	35.47	-43.2	-45.2	17.2	0.00e+00	0	38	0	0	57	4693
2026-01-22 00:22:56.95	236.35	35.33	-43.4	-45.5	16.9	0.00e+00	0	38	0	0	57	4842
2026-01-22 00:22:58.23	236.08	35.08	-43.5	-45.7	16.7	0.00e+00	0	38	0	0	57	4947
2026-01-22 00:22:58.96	235.93	34.94	-43.5	-45.6	16.6	0.00e+00	0	38	0	0	57	4903
2026-01-22 00:23:00.24	235.67	34.69	-42.7	-44.7	17.4	0.00e+00	0	38	0	0	57	4429
2026-01-22 00:23:00.98	235.52	34.55	-42.3	-44.3	17.9	0.00e+00	0	38	0	0	56	4457
2026-01-22 00:23:02.26	235.27	34.30	-42.1	-43.9	18.3	0.00e+00	0	38	0	0	56	4279
2026-01-22 00:23:02.97	235.13	34.16	-41.9	-43.7	18.3	0.00e+00	0	38	0	0	55	4427
2026-01-22 00:23:04.25	234.89	33.92	-41.6	-43.4	18.6	0.00e+00	0	38	0	0	55	4273
2026-01-22 00:23:04.96	234.75	33.78	-41.6	-43.4	18.6	0.00e+00	0	38	0	0	55	4289
2026-01-22 00:23:06.24	234.51	33.54	-42.0	-43.9	18.2	0.00e+00	0	38	0	0	55	4517
2026-01-22 00:23:06.97	234.37	33.41	-42.3	-44.2	17.9	0.00e+00	0	38	0	0	55	4691
2026-01-22 00:23:08.25	234.14	33.17	-42.4	-44.4	17.7	0.00e+00	0	38	0	0	55	4771
2026-01-22 00:23:09.18	233.97	32.99	-42.1	-44.1	18.0	0.00e+00	0	38	0	0	55	4602
2026-01-22 00:23:10.17	233.79	32.81	-41.9	-43.8	18.2	0.00e+00	0	38	0	0	55	4449
2026-01-22 00:23:11.17	233.61	32.62	-41.7	-43.5	18.4	0.00e+00	0	38	0	0	55	4337
2026-01-22 00:23:12.16	233.44	32.44	-41.7	-43.5	18.4	0.00e+00	0	38	0	0	55	4320
2026-01-22 00:23:13.16	233.26	32.26	-41.5	-43.3	18.6	0.00e+00	0	38	0	0	54	4460
2026-01-22 00:23:14.15	233.09	32.08	-41.4	-43.2	18.7	0.00e+00	0	38	0	0	54	4422
2026-01-22 00:23:15.15	232.92	31.89	-41.4	-43.2	18.6	0.00e+00	0	38	0	0	54	4413
2026-01-22 00:23:16.14	232.76	31.72	-41.5	-43.3	18.5	0.00e+00	0	38	0	0	54	4479
2026-01-22 00:23:17.15	232.59	31.53	-41.6	-43.5	18.3	0.00e+00	0	38	0	0	54	4570
2026-01-22 00:23:18.15	232.43	31.35	-41.7	-43.5	18.4	0.00e+00	0	38	0	0	54	4589
2026-01-22 00:23:19.15	232.26	31.18	-41.8	-43.7	18.3	0.00e+00	0	38	0	0	54	4671
2026-01-22 00:23:20.14	232.10	31.00	-41.8	-43.6	18.4	0.00e+00	0	38	0	0	54	4642
2026-01-22 00:23:21.14	231.95	30.82	-41.6	-43.5	18.6	0.00e+00	0	38	0	0	54	4554
2026-01-22 00:23:22.13	231.79	30.65	-41.5	-43.4	18.7	0.00e+00	0	38	0	0	54	4498
2026-01-22 00:23:23.13	231.63	30.47	-41.6	-43.4	18.6	0.00e+00	0	38	0	0	54	4543
2026-01-22 00:23:24.12	231.48	30.30	-41.5	-43.3	18.7	0.00e+00	0	38	0	0	54	4479
2026-01-22 00:23:25.34	231.30	30.09	-41.4	-43.2	18.7	0.00e+00	0	38	0	0	54	4441
2026-01-22 00:23:26.22	231.17	29.94	-41.4	-43.2	18.8	0.00e+00	0	38	0	0	54	4413
2026-01-22 00:23:27.36	231.00	29.74	-41.4	-43.2	18.7	0.00e+00	0	38	0	0	54	4409
2026-01-22 00:23:28.21	230.87	29.60	-41.2	-43.0	18.9	0.00e+00	0	38	0	0	54	4309
2026-01-22 00:23:29.35	230.71	29.40	-41.3	-43.1	18.7	0.00e+00	0	38	0	0	54	4359
2026-01-22 00:23:30.20	230.58	29.26	-41.2	-43.0	18.8	0.00e+00	0	38	0	0	54	4301
2026-01-22 00:23:31.34	230.42	29.07	-41.1	-42.9	18.9	0.00e+00	0	38	0	0	54	4255
2026-01-22 00:23:32.19	230.30	28.92	-41.1	-42.9	18.9	0.00e+00	0	38	0	0	54	4268
2026-01-22 00:23:33.66	230.10	28.68	-41.1	-42.9	19.0	0.00e+00	0	38	0	0	54	4250
2026-01-22 00:23:34.37	230.00	28.56	-40.9	-42.6	19.2	0.00e+00	0	38	0	0	53	4390
2026-01-22 00:23:35.86	229.80	28.31	-40.7	-42.4	19.4	0.00e+00	0	38	0	0	53	4270
2026-01-22 00:23:36.57	229.70	28.20	-40.7	-42.4	19.3	0.00e+00	0	38	0	0	53	4275
2026-01-22 00:23:37.85	229.53	27.99	-40.6	-42.3	19.5	0.00e+00	0	38	0	0	53	4217
2026-01-22 00:23:38.57	229.44	27.87	-40.6	-42.4	19.4	0.00e+00	0	38	0	0	53	4246
2026-01-22 00:23:39.85	229.27	27.66	-40.7	-42.5	19.3	0.00e+00	0	38	0	0	53	4293
2026-01-22 00:23:40.56	229.18	27.55	-40.7	-42.5	19.3	0.00e+00	0	38	0	0	53	4297
2026-01-22 00:23:41.84	229.01	27.34	-40.6	-42.3	19.4	0.00e+00	0	38	0	0	53	4222
2026-01-22 00:23:42.57	228.92	27.23	-40.6	-42.4	19.3	0.00e+00	0	38	0	0	53	4266
2026-01-22 00:23:43.85	228.76	27.03	-40.7	-42.4	19.3	0.00e+00	0	38	0	0	53	4289
2026-01-22 00:23:44.59	228.67	26.91	-40.8	-42.6	18.5	0.00e+00	0	38	0	0	53	4345
2026-01-22 00:23:45.86	228.51	26.71	-40.9	-42.7	19.0	0.00e+00	0	38	0	0	53	4415
2026-01-22 00:23:46.66	228.42	26.58	-40.9	-42.7	19.1	0.00e+00	0	38	0	0	53	4396
2026-01-22 00:23:48.17	228.24	26.35	-41.0	-42.7	19.1	0.00e+00	0	38	0	0	53	4439
2026-01-22 00:23:48.88	228.15	26.24	-41.0	-42.7	19.1	0.00e+00	0	38	0	0	53	4433
2026-01-22 00:23:50.16	228.00	26.04	-41.0	-42.7	19.1	0.00e+00	0	38	0	0	53	4431
2026-01-22 00:23:50.89	227.92	25.93	-40.8	-42.6	19.2	0.00e+00	0	38	0	0	53	4357
2026-01-22 00:23:52.17	227.77	25.73	-40.6	-42.3	19.4	0.00e+00	0	38	0	0	53	4238
2026-01-22 00:23:52.88	227.69	25.63	-40.6	-42.3	19.5	0.00e+00	0	38	0	0	53	4201
2026-01-22 00:23:54.16	227.54	25.43	-40.6	-42.3	19.5	0.00e+00	0	38	0	0	53	4226
2026-01-22 00:23:54.89	227.46	25.32	-40.6	-42.3	19.5	0.00e+00	0	38	0	0	53	4226
2026-01-22 00:23:56.17	227.32	25.13	-40.6	-42.3	19.5	0.00e+00	0	38	0	0	53	4239
2026-01-22 00:23:56.90	227.24	25.02	-40.6	-42.4	19.5	0.00e+00	0	38	0	0	53	4246
2026-01-22 00:23:58.18	227.10	24.83	-40.6	-42.3	19.5	0.00e+00	0	38	0	0	53	4214
2026-01-22 00:23:59.00	227.01	24.71	-40.5	-42.2	19.6	0.00e+00	0	38	0	0	52	4406
2026-01-22 00:24:00.14	226.89	24.55	-40.4	-42.1	19.7	0.00e+00	0	38	0	0	52	4349
2026-01-22 00:24:01.20	226.78	24.39	-40.3	-42.0	19.8	0.00e+00	0	38	0	0	52	4315
2026-01-22 00:24:02.24	226.67	24.24	-40.3	-42.0	19.7	0.00e+00	0	38	0	0	52	4325
2026-01-22 00:24:03.39	226.55	24.07	-40.2	-41.8	19.9	0.00e+00	0	38	0	0	52	4230
2026-01-22 00:24:04.24	226.47	23.95	-40.1	-41.8	19.9	0.00e+00	0	38	0	0	52	4209
2026-01-22 00:24:05.58	226.33	23.76	-40.3	-42.0	19.7	0.00e+00	0	38	0	0	52	4321
2026-01-22 00:24:06.29	226.26	23.66	-40.3	-42.0	19.7	0.00e+00	0	38	0	0	52	4313
2026-01-22 00:24:07.57	226.13	23.48	-40.5	-42.2	19.6	0.00e+00	0	38	0	0	52	4394
2026-01-22 00:24:08.29	226.06	23.38	-40.5	-42.2	19.6	0.00e+00	0	38	0	0	52	4407
2026-01-22 00:24:09.85	225.91	23.16	-40.6	-42.3	19.5	0.00e+00	0	38	0	0	52	4492
2026-01-22 00:24:10.49	225.85	23.07	-40.7	-42.4	19.4	0.00e+00	0	38	0	0	52	4519
2026-01-22 00:24:11.92	225.71	22.87	-40.8	-42.6	19.3	0.00e+00	0	38	0	0	52	4600
2026-01-22 00:24:12.63	225.64	22.77	-40.9	-42.6	19.3	0.00e+00	0	38	0	0	52	4636
2026-01-22 00:24:13.91	225.52	22.60	-40.9	-42.7	19.2	0.00e+00	0	38	0	0	52	4691
2026-01-22 00:24:14.65	225.45	22.50	-41.0	-42.8	19.1	0.00e+00	0	38	0	0	52	4746
2026-01-22 00:24:15.93	225.34	22.32	-41.2	-43.0	18.9	0.00e+00	0	38	0	0	52	4826
2026-01-22 00:24:16.65	225.27	22.22	-41.1	-42.9	18.9	0.00e+00	0	38	0	0	53	4541
2026-01-22 00:24:18.10	225.14	22.03	-41.2	-43.0	18.8	0.00e+00	0	38	0	0	53	4584
2026-01-22 00:24:18.81	225.08	21.93	-41.2	-43.0	18.8	0.00e+00	0	38	0	0	53	4595
2026-01-22 00:24:20.16	224.96	21.75	-41.2	-43.1	18.7	0.00e+00	0	38	0	0	53	4607
2026-01-22 00:24:20.87	224.89	21.66	-41.3	-43.1	18.6	0.00e+00	0	38	0	0	53	4642
2026-01-22 00:24:22.20	224.78	21.48	-41.2	-43.1	18.7	0.00e+00	0	38	0	0	53	4614
2026-01-22 00:24:22.91	224.72	21.39	-41.3	-43.1	18.6	0.00e+00	0	38	0	0	53	4632
2026-01-22 00:24:24.19	224.61	21.22	-41.2	-43.0	18.7	0.00e+00	0	38	0	0	53	4562
2026-01-22 00:24:24.91	224.55	21.13	-41.2	-43.0	18.6	0.00e+00	0	38	0	0	53	4592
2026-01-22 00:24:26.20	224.44	20.96	-41.0	-42.8	18.8	0.00e+00	0	38	0	0	53	4464
2026-01-22 00:24:26.91	224.38	20.87	-40.8	-42.5	19.0	0.00e+00	0	38	0	0	53	4340
2026-01-22 00:24:28.19	224.27	20.71	-40.6	-42.4	19.2	0.00e+00	0	38	0	0	53	4265
2026-01-22 00:24:28.90	224.21	20.62	-40.6	-42.3	19.2	0.00e+00	0	38	0	0	53	4214
2026-01-22 00:24:30.18	224.11	20.45	-40.5	-42.2	19.3	0.00e+00	0	38	0	0	53	4165
2026-01-22 00:24:30.90	224.05	20.36	-40.3	-42.0	19.5	0.00e+00	0	38	0	0	52	4316
2026-01-22 00:24:32.18	223.95	20.20	-40.1	-41.8	19.6	0.00e+00	0	38	0	0	52	4230
2026-01-22 00:24:33.02	223.88	20.09	-40.2	-41.9	19.6	0.00e+00	0	38	0	0	52	4251
2026-01-22 00:24:34.16	223.79	19.95	-40.2	-41.8	19.6	0.00e+00	0	38	0	0	52	4237
2026-01-22 00:24:35.20	223.71	19.82	-40.0	-41.7	19.7	0.00e+00	0	38	0	0	52	4164
2026-01-22 00:24:36.35	223.62	19.68	-40.1	-41.8	19.7	0.00e+00	0	38	0	0	51	4460
2026-01-22 00:24:37.20	223.56	19.58	-40.2	-41.8	19.6	0.00e+00	0	38	0	0	51	4486
2026-01-22 00:24:38.34	223.47	19.44	-40.1	-41.8	19.7	0.00e+00	0	38	0	0	51	4484
2026-01-22 00:24:39.19	223.41	19.33	-40.2	-41.8	19.7	0.00e+00	0	38	0	0	51	4488
2026-01-22 00:24:40.33	223.32	19.19	-40.2	-41.9	19.6	0.00e+00	0	38	0	0	51	4540
2026-01-22 00:24:41.19	223.26	19.09	-40.3	-42.0	19.5	0.00e+00	0	38	0	0	51	4575
2026-01-22 00:24:42.32	223.17	18.95	-40.4	-42.1	19.5	0.00e+00	0	38	0	0	51	4606
2026-01-22 00:24:43.40	223.10	18.82	-40.4	-42.1	19.5	0.00e+00	0	38	0	0	51	4618
2026-01-22 00:24:44.25	223.03	18.72	-40.5	-42.2	19.4	0.00e+00	0	38	0	0	51	4688
2026-01-22 00:24:45.39	222.95	18.59	-40.6	-42.3	19.3	0.00e+00	0	38	0	0	51	4752
2026-01-22 00:24:46.24	222.89	18.49	-40.6	-42.3	19.4	0.00e+00	0	38	0	0	51	4749
2026-01-22 00:24:47.38	222.81	18.35	-40.6	-42.3	19.3	0.00e+00	0	38	0	0	52	4491
2026-01-22 00:24:48.23	222.75	18.25	-40.7	-42.5	19.2	0.00e+00	0	38	0	0	52	4547
2026-01-22 00:24:49.37	222.67	18.12	-40.7	-42.5	19.2	0.00e+00	0	38	0	0	52	4571
2026-01-22 00:24:50.22	222.61	18.02	-40.9	-42.7	19.0	0.00e+00	0	38	0	0	52	4670
2026-01-22 00:24:51.41	222.53	17.88	-40.9	-42.7	19.0	0.00e+00	0	38	0	0	52	4687
2026-01-22 00:24:52.26	222.48	17.78	-41.1	-42.9	18.9	0.00e+00	0	38	0	0	52	4776
2026-01-22 00:24:53.39	222.40	17.65	-41.1	-42.9	18.8	0.00e+00	0	38	0	0	52	4785
2026-01-22 00:24:54.25	222.34	17.56	-41.1	-43.0	18.8	0.00e+00	0	38	0	0	52	4822
2026-01-22 00:24:55.49	222.26	17.41	-41.3	-43.1	18.7	0.00e+00	0	38	0	0	53	4623
2026-01-22 00:24:56.34	222.20	17.32	-41.4	-43.3	18.5	0.00e+00	0	38	0	0	53	4724
2026-01-22 00:24:57.48	222.13	17.19	-41.3	-43.2	18.6	0.00e+00	0	38	0	0	53	4662
2026-01-22 00:24:58.33	222.08	17.09	-41.5	-43.3	18.5	0.00e+00	0	38	0	0	53	4754
2026-01-22 00:24:59.47	222.00	16.97	-41.5	-43.4	18.4	0.00e+00	0	38	0	0	53	4760
2026-01-22 00:25:00.32	221.95	16.87	-41.5	-43.3	18.5	0.00e+00	0	38	0	0	53	4758
2026-01-22 00:25:01.46	221.88	16.75	-41.6	-43.5	18.3	0.00e+00	0	38	0	0	53	4826
2026-01-22 00:25:02.39	221.82	16.64	-41.6	-43.5	18.3	0.00e+00	0	38	0	0	53	4837
2026-01-22 00:25:03.38	221.76	16.53	-41.6	-43.5	18.3	0.00e+00	0	38	0	0	53	4841
2026-01-22 00:25:04.38	221.69	16.42	-41.6	-43.5	18.3	0.00e+00	0	38	0	0	53	4867
2026-01-22 00:25:05.37	221.63	16.32	-41.6	-43.5	18.3	0.00e+00	0	38	0	0	53	4856
2026-01-22 00:25:06.37	221.57	16.21	-41.7	-43.7	18.1	0.00e+00	0	38	0	0	54	4652
2026-01-22 00:25:07.36	221.51	16.10	-41.7	-43.6	18.2	0.00e+00	0	38	0	0	54	4617
2026-01-22 00:25:08.36	221.45	15.99	-41.7	-43.7	18.1	0.00e+00	0	38	0	0	54	4653
2026-01-22 00:25:09.35	221.39	15.89	-41.7	-43.6	18.1	0.00e+00	0	38	0	0	54	4640
2026-01-22 00:25:10.35	221.34	15.78	-41.6	-43.5	18.2	0.00e+00	0	38	0	0	54	4563
2026-01-22 00:25:11.34	221.28	15.67	-41.6	-43.5	18.3	0.00e+00	0	38	0	0	54	4549
2026-01-22 00:25:12.34	221.22	15.57	-41.5	-43.4	18.3	0.00e+00	0	38	0	0	54	4500
2026-01-22 00:25:13.33	221.16	15.46	-41.4	-43.3	18.4	0.00e+00	0	38	0	0	54	4457
2026-01-22 00:25:14.39	221.10	15.35	-41.5	-43.3	18.3	0.00e+00	0	38	0	0	54	4491
2026-01-22 00:25:15.26	221.05	15.26	-41.4	-43.3	18.3	0.00e+00	0	38	0	0	54	4459
2026-01-22 00:25:16.59	220.98	15.12	-41.4	-43.3	18.3	0.00e+00	0	38	0	0	54	4470
2026-01-22 00:25:17.30	220.94	15.05	-41.6	-43.5	18.2	0.00e+00	0	38	0	0	54	4546
2026-01-22 00:25:18.58	220.87	14.92	-41.3	-43.1	18.4	0.00e+00	0	38	0	0	54	4386
2026-01-22 00:25:19.30	220.83	14.84	-41.3	-43.1	18.4	0.00e+00	0	38	0	0	54	4385
2026-01-22 00:25:20.59	220.75	14.71	-41.4	-43.3	18.3	0.00e+00	0	38	0	0	54	4448
2026-01-22 00:25:21.33	220.71	14.63	-41.3	-43.1	18.5	0.00e+00	0	38	0	0	54	4391
2026-01-22 00:25:22.61	220.65	14.50	-41.3	-43.2	18.4	0.00e+00	0	38	0	0	54	4397
2026-01-22 00:25:23.33	220.61	14.43	-41.3	-43.1	18.5	0.00e+00	0	38	0	0	54	4378
2026-01-22 00:25:24.61	220.54	14.30	-41.3	-43.2	18.4	0.00e+00	0	38	0	0	54	4419
2026-01-22 00:25:25.46	220.49	14.22	-41.3	-43.1	18.5	0.00e+00	0	38	0	0	54	4372
2026-01-22 00:25:26.60	220.43	14.10	-41.2	-43.1	18.5	0.00e+00	0	38	0	0	54	4354
2026-01-22 00:25:27.45	220.39	14.02	-41.3	-43.1	18.4	0.00e+00	0	38	0	0	54	4374
2026-01-22 00:25:28.59	220.33	13.90	-41.3	-43.2	18.4	0.00e+00	0	38	0	0	54	4422
2026-01-22 00:25:29.72	220.27	13.79	-41.4	-43.2	18.4	0.00e+00	0	38	0	0	54	4430
2026-01-22 00:25:30.75	220.22	13.69	-41.1	-42.9	18.6	0.00e+00	0	38	0	0	54	4283
2026-01-22 00:25:31.93	220.16	13.57	-41.2	-43.0	18.5	0.00e+00	0	38	0	0	54	4336
2026-01-22 00:25:32.82	220.12	13.49	-41.3	-43.1	18.4	0.00e+00	0	38	0	0	54	4372
2026-01-22 00:25:33.96	220.06	13.38	-41.4	-43.3	18.3	0.00e+00	0	38	0	0	54	4448
2026-01-22 00:25:34.81	220.02	13.29	-41.3	-43.1	18.4	0.00e+00	0	38	0	0	54	4385
2026-01-22 00:25:35.95	219.96	13.18	-41.2	-43.1	18.5	0.00e+00	0	38	0	0	54	4352
2026-01-22 00:25:36.80	219.92	13.10	-41.2	-43.1	18.5	0.00e+00	0	38	0	0	54	4347
2026-01-22 00:25:37.93	219.86	12.99	-41.3	-43.2	18.4	0.00e+00	0	38	0	0	54	4401
2026-01-22 00:25:38.79	219.82	12.91	-41.2	-43.1	18.4	0.00e+00	0	38	0	0	54	4365
2026-01-22 00:25:39.92	219.77	12.80	-41.4	-43.3	18.3	0.00e+00	0	38	0	0	54	4444
2026-01-22 00:25:40.77	219.73	12.72	-41.3	-43.2	18.3	0.00e+00	0	38	0	0	54	4414
2026-01-22 00:25:41.91	219.67	12.61	-41.3	-43.2	18.4	0.00e+00	0	38	0	0	54	4407
2026-01-22 00:25:42.76	219.63	12.53	-41.4	-43.3	18.3	0.00e+00	0	38	0	0	54	4461
2026-01-22 00:25:43.92	219.58	12.43	-41.5	-43.4	18.2	0.00e+00	0	38	0	0	54	4500
2026-01-22 00:25:44.77	219.54	12.35	-41.5	-43.3	18.2	0.00e+00	0	38	0	0	54	4490
2026-01-22 00:25:45.99	219.48	12.23	-41.5	-43.4	18.2	0.00e+00	0	38	0	0	54	4507
2026-01-22 00:25:46.84	219.45	12.15	-41.5	-43.4	18.2	0.00e+00	0	38	0	0	54	4510
2026-01-22 00:25:48.04	219.39	12.04	-41.6	-43.5	18.0	0.00e+00	0	38	0	0	54	4584
2026-01-22 00:25:48.89	219.35	11.96	-41.5	-43.4	18.2	0.00e+00	0	38	0	0	54	4509
2026-01-22 00:25:50.09	219.30	11.85	-41.5	-43.5	18.1	0.00e+00	0	38	0	0	54	4548
2026-01-22 00:25:51.36	219.24	11.74	-41.7	-43.6	18.0	0.00e+00	0	38	0	0	54	4626
2026-01-22 00:25:52.14	219.21	11.67	-41.7	-43.7	17.9	0.00e+00	0	38	0	0	54	4660
2026-01-22 00:25:53.34	219.16	11.56	-41.7	-43.6	17.9	0.00e+00	0	38	0	0	54	4651
2026-01-22 00:25:54.20	219.12	11.48	-41.9	-43.8	17.7	0.00e+00	0	38	0	0	54	4759
2026-01-22 00:25:55.34	219.07	11.38	-41.7	-43.7	17.9	0.00e+00	0	38	0	0	54	4678
2026-01-22 00:25:56.19	219.03	11.30	-41.9	-43.8	17.7	0.00e+00	0	38	0	0	54	4745
2026-01-22 00:25:57.33	218.98	11.20	-41.9	-43.9	17.7	0.00e+00	0	38	0	0	54	4786
2026-01-22 00:25:58.18	218.95	11.12	-41.9	-43.9	17.7	0.00e+00	0	38	0	0	54	4783
2026-01-22 00:25:59.32	218.90	11.02	-41.8	-43.8	17.7	0.00e+00	0	38	0	0	54	4738
2026-01-22 00:26:00.17	218.86	10.95	-41.9	-43.9	17.6	0.00e+00	0	38	0	0	54	4808
2026-01-22 00:26:01.31	218.82	10.85	-41.9	-43.9	17.7	0.00e+00	0	38	0	0	54	4777
2026-01-22 00:26:02.16	218.78	10.77	-41.8	-43.8	17.7	0.00e+00	0	38	0	0	54	4754
2026-01-22 00:26:03.29	218.73	10.67	-41.9	-43.9	17.6	0.00e+00	0	38	0	0	54	4785
2026-01-22 00:26:04.14	218.70	10.60	-41.9	-44.0	17.5	0.00e+00	0	38	0	0	54	4825
2026-01-22 00:26:05.28	218.65	10.50	-41.9	-43.9	17.6	0.00e+00	0	38	0	0	54	4797
2026-01-22 00:26:06.13	218.62	10.42	-42.1	-44.2	17.3	0.00e+00	0	38	0	0	54	4976
2026-01-22 00:26:07.57	218.56	10.30	-42.1	-44.1	17.3	0.00e+00	0	38	0	0	54	4924
2026-01-22 00:26:08.28	218.53	10.24	-42.0	-44.1	17.4	0.00e+00	0	38	0	0	54	4891
2026-01-22 00:26:09.76	218.48	10.11	-42.0	-44.1	17.4	0.00e+00	0	38	0	0	54	4880
2026-01-22 00:26:10.47	218.45	10.05	-42.0	-44.1	17.3	0.00e+00	0	38	0	0	54	4913
2026-01-22 00:26:11.76	218.40	9.94	-42.2	-44.3	17.2	0.00e+00	0	38	0	0	55	4728
2026-01-22 00:26:12.48	218.37	9.88	-42.2	-44.3	17.2	0.00e+00	0	38	0	0	55	4722
2026-01-22 00:26:13.76	218.32	9.77	-42.3	-44.4	17.1	0.00e+00	0	38	0	0	55	4761
2026-01-22 00:26:14.47	218.29	9.71	-42.3	-44.5	17.0	0.00e+00	0	38	0	0	55	4817
2026-01-22 00:26:15.75	218.24	9.60	-42.2	-44.3	17.1	0.00e+00	0	38	0	0	55	4753
2026-01-22 00:26:16.48	218.22	9.54	-42.3	-44.4	17.1	0.00e+00	0	38	0	0	55	4778
2026-01-22 00:26:17.75	218.17	9.44	-42.3	-44.4	17.0	0.00e+00	0	38	0	0	55	4805
2026-01-22 00:26:18.48	218.14	9.38	-42.2	-44.3	17.1	0.00e+00	0	38	0	0	55	4739
2026-01-22 00:26:19.76	218.09	9.27	-42.3	-44.4	17.1	0.00e+00	0	38	0	0	55	4790
2026-01-22 00:26:20.48	218.07	9.21	-42.3	-44.4	17.1	0.00e+00	0	38	0	0	55	4773
2026-01-22 00:26:21.76	218.02	9.10	-42.4	-44.5	17.0	0.00e+00	0	38	0	0	55	4847
2026-01-22 00:26:22.47	217.99	9.05	-42.5	-44.6	16.8	0.00e+00	0	38	0	0	55	4922
2026-01-22 00:26:23.75	217.95	8.94	-46.8	-50.9	11.6	0.00e+00	0	38	0	0	64	6016
2026-01-22 00:26:24.46	217.92	8.88	-50.2	-63.2	3.8	1.49e+00	0	38	104	0	70	17601
2026-01-22 00:26:25.74	217.88	8.78	-50.5	-63.6	3.8	1.49e+00	0	38	104	0	71	17291
2026-01-22 00:26:26.45	217.85	8.72	-50.6	-63.7	3.8	1.49e+00	0	38	104	0	72	16591
2026-01-22 00:26:27.76	217.81	8.61	-50.7	-63.8	3.8	1.49e+00	0	38	104	0	72	16746
2026-01-22 00:26:28.47	217.78	8.56	-50.8	-63.9	3.8	1.49e+00	0	38	104	0	72	16907
2026-01-22 00:26:29.81	217.73	8.45	-50.8	-63.9	3.8	1.49e+00	0	38	104	0	72	16963
2026-01-22 00:26:30.52	217.71	8.39	-50.8	-63.9	3.8	1.49e+00	0	38	104	0	72	16979
2026-01-22 00:26:31.84	217.66	8.29	-50.8	-63.9	3.8	1.49e+00	0	38	104	0	72	17072
2026-01-22 00:26:32.55	217.64	8.23	-50.9	-64.0	3.8	1.49e+00	0	38	104	0	72	17141
2026-01-22 00:26:33.83	217.59	8.13	-50.8	-63.9	3.8	1.49e+00	0	38	104	0	72	17067
2026-01-22 00:26:34.54	217.57	8.07	-50.6	-64.0	3.8	1.49e+00	0	38	104	0	72	17223
2026-01-22 00:26:35.82	217.53	7.97	-51.0	-64.0	3.8	1.49e+00	0	38	104	0	72	17188
2026-01-22 00:26:36.53	217.50	7.91	-50.9	-64.0	3.8	1.49e+00	0	38	104	0	72	17144
2026-01-22 00:26:37.80	217.46	7.81	-50.9	-64.0	3.8	1.49e+00	0	38	104	0	72	17152
2026-01-22 00:26:38.51	217.44	7.76	-50.9	-64.0	3.8	1.49e+00	0	38	104	0	72	17174
2026-01-22 00:26:39.79	217.40	7.66	-50.6	-64.0	3.8	1.49e+00	0	38	104	0	72	17097
2026-01-22 00:26:40.50	217.37	7.60	-50.7	-64.0	3.8	1.49e+00	0	38	104	0	72	17120
2026-01-22 00:26:41.78	217.33	7.50	-50.7	-64.0	3.8	1.49e+00	0	38	104	0	72	17153
2026-01-22 00:26:42.49	217.31	7.45	-50.6	-64.0	3.8	1.49e+00	0	38	104	0	72	17102
2026-01-22 00:26:43.77	217.27	7.35	-50.7	-63.9	3.8	1.49e+00	0	38	104	0	72	17073
2026-01-22 00:26:44.48	217.24	7.30	-50.6	-63.9	3.8	1.49e+00	0	38	104	0	72	17059
2026-01-22 00:26:45.75	217.20	7.20	-50.6	-63.9	3.8	1.49e+00	0	38	104	0	72	17030
2026-01-22 00:26:46.46	217.18	7.14	-50.6	-63.9	3.8	1.49e+00	0	38	104	0	72	17029
2026-01-22 00:26:47.74	217.14	7.05	-50.6	-63.9	3.8	1.49e+00	0	38	104	0	72	17001
2026-01-22 00:26:48.48	217.12	6.99	-50.6	-63.9	3.8	1.49e+00	0	38	104	0	72	16951
2026-01-22 00:26:49.76	217.08	6.89	-50.6	-63.9	3.8	1.49e+00	0	38	104	0	72	16960
2026-01-22 00:26:50.47	217.06	6.84	-50.6	-63.9	3.8	1.49e+00	0	38	104	0	72	16925
2026-01-22 00:26:51.74	217.02	6.74	-50.6	-63.9	3.8	1.49e+00	0	38	104	0	72	16994
2026-01-22 00:26:52.45	216.99	6.69	-50.6	-63.9	3.8	1.49e+00	0	38	104	0	72	16993
2026-01-22 00:26:53.73	216.96	6.59	-50.5	-63.9	3.8	1.49e+00	0	38	104	0	72	16938
2026-01-22 00:26:54.46	216.93	6.54	-50.5	-63.9	3.8	1.49e+00	0	38	104	0	72	16921
2026-01-22 00:26:55.73	216.89	6.44	-50.6	-63.9	3.8	1.49e+00	0	38	104	0	72	16955
2026-01-22 00:26:56.44	216.87	6.39	-50.6	-63.9	3.8	1.49e+00	0	38	104	0	72	16974
2026-01-22 00:26:57.73	216.84	6.29	-50.6	-63.9	3.8	1.49e+00	0	38	104	0	72	16971
2026-01-22 00:26:58.44	216.81	6.24	-50.6	-63.9	3.8	1.49e+00	0	38	104	0	72	16930
2026-01-22 00:26:59.72	216.78	6.15	-50.5	-63.9	3.8	1.49e+00	0	38	104	0	72	16943
2026-01-22 00:27:00.45	216.75	6.09	-50.5	-63.9	3.8	1.49e+00	0	38	104	0	72	16950
2026-01-22 00:27:01.72	216.72	6.00	-50.6	-63.9	3.8	1.49e+00	0	38	104	0	72	16945
2026-01-22 00:27:02.43	216.70	5.95	-50.5	-63.9	3.8	1.49e+00	0	38	104	0	72	16921
2026-01-22 00:27:03.71	216.66	5.86	-50.6	-63.9	3.8	1.49e+00	0	38	104	0	72	16926
2026-01-22 00:27:04.42	216.64	5.80	-50.6	-63.9	3.8	1.49e+00	0	38	104	0	72	16975
2026-01-22 00:27:05.70	216.60	5.71	-50.6	-63.9	3.8	1.49e+00	0	38	104	0	72	16897
2026-01-22 00:27:06.41	216.58	5.66	-50.6	-63.9	3.8	1.49e+00	0	38	104	0	72	16959
2026-01-22 00:27:07.68	216.55	5.57	-50.5	-63.9	3.8	1.49e+00	0	38	104	0	72	16956
2026-01-22 00:27:08.39	216.53	5.52	-50.5	-63.9	3.8	1.49e+00	0	38	104	0	72	16908
2026-01-22 00:27:09.67	216.49	5.42	-50.5	-63.9	3.8	1.49e+00	0	38	104	0	72	16915
2026-01-22 00:27:10.38	216.47	5.37	-50.5	-63.8	3.8	1.49e+00	0	38	104	0	72	16862
2026-01-22 00:27:11.66	216.44	5.28	-50.5	-63.9	3.8	1.49e+00	0	38	104	0	72	16935
2026-01-22 00:27:12.37	216.42	5.23	-50.5	-63.9	3.8	1.49e+00	0	38	104	0	72	16933
2026-01-22 00:27:13.64	216.38	5.14	-50.6	-63.9	3.8	1.49e+00	0	38	104	0	72	16920
2026-01-22 00:27:14.35	216.36	5.09	-50.5	-63.9	3.8	1.49e+00	0	38	104	0	72	16901
2026-01-22 00:27:15.63	216.33	5.00	-50.5	-63.9	3.8	1.49e+00	0	38	104	0	72	16937

#Closed at: 2026-01-22 00:27:16
#Recorded file [0 MB]: D:/Data/31040_260122_031436.dat