passes_logs/2026/01/22/T1/T1__20260122_235543_NOAA_21_JPSS-2_rec.log

#Pass ID: 20260122_235543_NOAA 21 (JPSS-2)
#Satellite: NOAA 21 (JPSS-2)
#Configuration: NOAA 21
#almurnet v.1.7.20251203
#Start time: 2026-01-22 23:55:43

#Version: 2.0.20230620
#Station: T1
#Location: 37.570604 lon 55.790049 lat
#TLE: 1 54234U 22150A   26022.41365820  .00000211  00000+0  12084-3 0  9990
#TLE: 2 54234  98.7507 323.2240 0000658 234.5287 125.5828 14.19537645165864

#Time	Az	El	Level	Level2	SNR	BER	BlckErr	Temp	State	Recorded	gain1	gain2
2026-01-22 23:55:43.99	14.77	5.05	-48.2	-62.2	3.8	1.49e+00	0	35	0	0	67	18522
2026-01-22 23:55:44.98	14.76	5.12	-48.2	-62.2	3.8	1.49e+00	0	36	104	0	67	18521
2026-01-22 23:55:45.98	14.75	5.19	-48.2	-62.2	3.8	1.49e+00	0	36	104	0	67	18580
2026-01-22 23:55:46.97	14.74	5.26	-48.2	-62.1	3.8	1.49e+00	0	36	104	0	67	18513
2026-01-22 23:55:47.96	14.73	5.33	-48.2	-62.2	3.8	1.49e+00	0	36	104	0	67	18600
2026-01-22 23:55:48.95	14.72	5.40	-48.2	-62.2	3.8	1.49e+00	0	36	104	0	67	18710
2026-01-22 23:55:49.95	14.71	5.47	-48.2	-62.3	3.8	1.49e+00	0	36	104	0	67	18749
2026-01-22 23:55:50.94	14.71	5.55	-48.2	-62.2	3.8	1.49e+00	0	36	104	0	67	18718
2026-01-22 23:55:51.93	14.70	5.62	-48.2	-62.3	3.8	1.49e+00	0	36	104	0	67	18832
2026-01-22 23:55:52.93	14.69	5.69	-48.2	-62.3	3.8	1.49e+00	0	36	104	0	67	18906
2026-01-22 23:55:53.92	14.68	5.76	-48.2	-62.3	3.8	1.49e+00	0	36	104	0	67	18839
2026-01-22 23:55:54.91	14.67	5.84	-48.2	-62.3	3.8	1.49e+00	0	36	104	0	67	18771
2026-01-22 23:55:55.91	14.66	5.91	-48.2	-62.3	3.8	1.49e+00	0	36	104	0	67	18800
2026-01-22 23:55:56.90	14.65	5.98	-48.2	-62.3	3.8	1.49e+00	0	36	104	0	67	18751
2026-01-22 23:55:57.89	14.64	6.05	-48.2	-62.2	3.8	1.49e+00	0	36	104	0	67	18636
2026-01-22 23:55:58.88	14.63	6.13	-48.2	-62.2	3.8	1.49e+00	0	36	104	0	67	18639
2026-01-22 23:55:59.88	14.62	6.20	-48.2	-62.2	3.8	1.49e+00	0	36	104	0	67	18547
2026-01-22 23:56:00.87	14.61	6.28	-48.2	-62.1	3.8	1.49e+00	0	36	104	0	67	18466
2026-01-22 23:56:01.87	14.60	6.35	-48.2	-62.1	3.8	1.49e+00	0	36	104	0	67	18475
2026-01-22 23:56:02.86	14.59	6.42	-48.2	-62.0	3.8	1.49e+00	0	36	104	0	67	18282
2026-01-22 23:56:03.85	14.58	6.50	-48.2	-62.0	3.8	1.49e+00	0	36	104	0	67	18161
2026-01-22 23:56:04.85	14.57	6.57	-48.2	-61.9	3.8	1.49e+00	0	36	104	0	67	17984
2026-01-22 23:56:05.84	14.56	6.65	-48.2	-61.9	3.8	1.49e+00	0	37	104	0	67	17931
2026-01-22 23:56:06.83	14.55	6.72	-48.2	-61.8	3.8	1.49e+00	0	36	104	0	67	17845
2026-01-22 23:56:07.83	14.53	6.80	-48.2	-61.8	3.8	1.49e+00	0	36	104	0	67	17737
2026-01-22 23:56:08.82	14.52	6.87	-48.2	-61.7	3.8	1.49e+00	0	36	104	0	67	17604
2026-01-22 23:56:09.81	14.51	6.95	-48.2	-61.7	3.8	1.49e+00	0	37	104	0	67	17629
2026-01-22 23:56:10.81	14.50	7.03	-48.1	-61.7	3.8	1.49e+00	0	36	104	0	67	17620
2026-01-22 23:56:11.80	14.49	7.10	-48.2	-61.8	3.8	1.49e+00	0	36	104	0	67	17750
2026-01-22 23:56:12.79	14.48	7.18	-48.2	-61.7	3.8	1.49e+00	0	36	104	0	67	17657
2026-01-22 23:56:13.78	14.47	7.25	-48.2	-61.8	3.8	1.49e+00	0	37	104	0	67	17690
2026-01-22 23:56:14.78	14.46	7.33	-48.2	-61.7	3.8	1.49e+00	0	37	104	0	67	17565
2026-01-22 23:56:15.77	14.45	7.41	-48.2	-61.6	3.8	1.49e+00	0	37	104	0	67	17290
2026-01-22 23:56:16.76	14.44	7.49	-48.2	-61.4	3.8	1.49e+00	0	37	104	0	67	16966
2026-01-22 23:56:17.76	14.42	7.56	-48.1	-61.0	3.8	1.49e+00	0	37	104	0	67	16284
2026-01-22 23:56:18.75	14.41	7.64	-48.1	-60.6	3.8	1.49e+00	0	37	104	0	67	15411
2026-01-22 23:56:19.74	14.40	7.72	-48.0	-59.7	4.0	1.49e+00	0	37	104	0	67	13918
2026-01-22 23:56:20.74	14.39	7.80	-47.9	-58.8	4.1	1.47e+00	0	37	104	0	67	12657
2026-01-22 23:56:21.73	14.38	7.88	-47.8	-57.8	4.5	1.41e+00	0	37	104	0	67	11262
2026-01-22 23:56:22.73	14.37	7.96	-47.6	-56.6	5.1	1.03e+00	0	37	0	0	67	9738
2026-01-22 23:56:23.72	14.35	8.03	-47.4	-55.5	5.8	4.60e-01	0	37	0	0	66	9097
2026-01-22 23:56:24.71	14.34	8.11	-47.1	-54.1	6.9	2.33e-01	0	37	0	0	66	7760
2026-01-22 23:56:25.71	14.33	8.19	-46.8	-53.0	8.0	8.97e-02	0	37	0	0	65	7208
2026-01-22 23:56:26.70	14.32	8.27	-46.4	-51.8	9.1	2.85e-02	0	37	0	0	64	6654
2026-01-22 23:56:27.69	14.31	8.35	-46.0	-50.9	10.0	1.11e-02	0	37	0	0	64	6030
2026-01-22 23:56:28.69	14.29	8.43	-45.7	-50.2	10.9	3.21e-03	0	37	0	0	63	5871
2026-01-22 23:56:29.68	14.28	8.51	-45.4	-49.5	11.6	9.29e-04	0	37	0	0	62	5786
2026-01-22 23:56:30.67	14.27	8.60	-45.0	-48.8	12.3	2.20e-04	0	37	0	0	62	5312
2026-01-22 23:56:31.67	14.26	8.68	-44.7	-48.3	12.8	7.24e-05	0	37	0	0	61	5331
2026-01-22 23:56:32.66	14.24	8.76	-44.4	-47.9	13.3	3.12e-05	0	37	0	0	60	5342
2026-01-22 23:56:33.65	14.23	8.84	-44.2	-47.5	13.6	9.10e-06	0	37	0	0	60	5149
2026-01-22 23:56:34.65	14.22	8.92	-44.1	-47.4	13.8	6.10e-06	0	37	0	0	60	5062
2026-01-22 23:56:35.64	14.20	9.00	-44.2	-47.5	13.7	7.60e-06	0	37	0	0	60	5101
2026-01-22 23:56:36.63	14.19	9.09	-44.8	-48.5	12.6	1.06e-05	0	37	0	0	60	5768
2026-01-22 23:56:37.63	14.18	9.17	-46.6	-52.6	8.5	1.71e-03	0	37	0	0	63	7797
2026-01-22 23:56:38.86	14.16	9.27	-42.3	-44.7	16.4	1.37e-05	0	37	0	0	56	4660
2026-01-22 23:56:39.71	14.15	9.34	-42.4	-44.8	16.2	0.00e+00	0	37	0	0	55	4994
2026-01-22 23:56:40.85	14.13	9.44	-44.6	-47.9	13.4	0.00e+00	0	37	0	0	59	5703
2026-01-22 23:56:41.70	14.12	9.51	-42.0	-44.3	16.8	0.00e+00	0	37	0	0	56	4459
2026-01-22 23:56:42.84	14.11	9.61	-41.4	-43.6	17.3	0.00e+00	0	37	0	0	54	4624
2026-01-22 23:56:43.69	14.09	9.68	-41.4	-43.6	17.3	0.00e+00	0	37	0	0	54	4613
2026-01-22 23:56:44.83	14.08	9.78	-41.5	-43.6	17.3	0.00e+00	0	37	0	0	54	4639
2026-01-22 23:56:45.68	14.07	9.85	-41.3	-43.4	17.5	0.00e+00	0	37	0	0	54	4538
2026-01-22 23:56:46.91	14.05	9.95	-41.0	-43.1	17.8	0.00e+00	0	37	0	0	54	4364
2026-01-22 23:56:47.77	14.04	10.03	-40.9	-43.0	17.9	0.00e+00	0	37	0	0	53	4570
2026-01-22 23:56:48.90	14.02	10.13	-40.8	-42.8	18.1	0.00e+00	0	37	0	0	53	4472
2026-01-22 23:56:49.75	14.01	10.20	-40.8	-42.9	18.0	0.00e+00	0	37	0	0	53	4505
2026-01-22 23:56:50.89	13.99	10.30	-40.6	-42.6	18.3	0.00e+00	0	37	0	0	53	4354
2026-01-22 23:56:51.75	13.98	10.37	-40.6	-42.6	18.3	0.00e+00	0	37	0	0	53	4363
2026-01-22 23:56:53.07	13.96	10.49	-40.5	-42.5	18.4	0.00e+00	0	37	0	0	53	4324
2026-01-22 23:56:53.78	13.95	10.55	-40.6	-42.6	18.3	0.00e+00	0	37	0	0	53	4355
2026-01-22 23:56:55.23	13.93	10.68	-40.5	-42.5	18.4	0.00e+00	0	37	0	0	53	4300
2026-01-22 23:56:55.94	13.92	10.74	-40.5	-42.4	18.4	0.00e+00	0	37	0	0	53	4286
2026-01-22 23:56:57.27	13.89	10.86	-40.4	-42.4	18.5	0.00e+00	0	37	0	0	52	4511
2026-01-22 23:56:57.98	13.88	10.93	-40.4	-42.4	18.5	0.00e+00	0	37	0	0	52	4510
2026-01-22 23:56:59.26	13.86	11.04	-40.4	-42.4	18.5	0.00e+00	0	37	0	0	52	4509
2026-01-22 23:56:59.99	13.85	11.11	-40.3	-42.3	18.6	0.00e+00	0	37	0	0	52	4464
2026-01-22 23:57:01.26	13.83	11.22	-40.4	-42.4	18.5	0.00e+00	0	37	0	0	52	4504
2026-01-22 23:57:01.99	13.82	11.29	-40.3	-42.3	18.6	0.00e+00	0	37	0	0	52	4457
2026-01-22 23:57:03.27	13.80	11.40	-40.4	-42.4	18.5	0.00e+00	0	37	0	0	52	4498
2026-01-22 23:57:03.98	13.79	11.47	-40.3	-42.2	18.7	0.00e+00	0	37	0	0	52	4414
2026-01-22 23:57:05.26	13.77	11.59	-40.2	-42.2	18.7	0.00e+00	0	37	0	0	52	4397
2026-01-22 23:57:06.00	13.75	11.65	-40.2	-42.1	18.8	0.00e+00	0	37	0	0	52	4382
2026-01-22 23:57:07.28	13.73	11.77	-40.2	-42.2	18.7	0.00e+00	0	37	0	0	52	4401
2026-01-22 23:57:08.04	13.72	11.84	-40.3	-42.3	18.7	0.00e+00	0	37	0	0	52	4455
2026-01-22 23:57:09.32	13.70	11.96	-40.1	-42.1	18.9	0.00e+00	0	37	0	0	52	4342
2026-01-22 23:57:10.03	13.69	12.03	-40.2	-42.1	18.8	0.00e+00	0	37	0	0	52	4362
2026-01-22 23:57:11.31	13.66	12.15	-40.2	-42.1	18.8	0.00e+00	0	37	0	0	52	4374
2026-01-22 23:57:12.16	13.65	12.23	-40.2	-42.1	18.8	0.00e+00	0	37	0	0	52	4388
2026-01-22 23:57:13.61	13.62	12.36	-40.1	-42.0	18.9	0.00e+00	0	37	0	0	52	4328
2026-01-22 23:57:14.32	13.61	12.43	-40.0	-41.9	19.0	0.00e+00	0	37	0	0	52	4291
2026-01-22 23:57:15.60	13.59	12.55	-40.1	-42.0	18.9	0.00e+00	0	38	0	0	52	4317
2026-01-22 23:57:16.32	13.58	12.62	-40.0	-41.9	19.0	0.00e+00	0	37	0	0	52	4266
2026-01-22 23:57:17.60	13.55	12.75	-40.0	-42.0	19.0	0.00e+00	0	37	0	0	52	4295
2026-01-22 23:57:18.31	13.54	12.81	-40.0	-42.0	19.0	0.00e+00	0	38	0	0	52	4303
2026-01-22 23:57:19.59	13.52	12.94	-40.0	-41.9	19.0	0.00e+00	0	37	0	0	52	4276
2026-01-22 23:57:20.30	13.50	13.01	-40.0	-42.0	19.0	0.00e+00	0	37	0	0	52	4300
2026-01-22 23:57:21.58	13.48	13.13	-40.0	-41.9	19.1	0.00e+00	0	38	0	0	51	4511
2026-01-22 23:57:22.31	13.47	13.20	-40.0	-41.9	19.1	0.00e+00	0	37	0	0	51	4507
2026-01-22 23:57:23.59	13.44	13.33	-40.0	-41.9	19.1	0.00e+00	0	37	0	0	51	4517
2026-01-22 23:57:24.30	13.43	13.40	-40.0	-41.9	19.1	0.00e+00	0	38	0	0	51	4515
2026-01-22 23:57:25.58	13.40	13.53	-40.0	-41.9	19.1	0.00e+00	0	37	0	0	51	4523
2026-01-22 23:57:26.30	13.39	13.60	-40.0	-42.0	19.0	0.00e+00	0	37	0	0	51	4576
2026-01-22 23:57:27.63	13.36	13.73	-39.9	-41.9	19.2	0.00e+00	0	37	0	0	51	4504
2026-01-22 23:57:28.34	13.35	13.80	-40.0	-42.0	19.1	0.00e+00	0	37	0	0	51	4550
2026-01-22 23:57:29.62	13.32	13.93	-39.8	-41.8	19.2	0.00e+00	0	38	0	0	51	4456
2026-01-22 23:57:30.68	13.30	14.04	-39.8	-41.8	19.2	0.00e+00	0	37	0	0	51	4468
2026-01-22 23:57:31.86	13.28	14.16	-39.8	-41.8	19.2	0.00e+00	0	38	0	0	51	4468
2026-01-22 23:57:32.86	13.26	14.26	-39.9	-41.9	19.1	0.00e+00	0	38	0	0	51	4512
2026-01-22 23:57:33.85	13.24	14.36	-39.8	-41.8	19.2	0.00e+00	0	37	0	0	51	4461
2026-01-22 23:57:34.84	13.22	14.47	-39.9	-41.9	19.1	0.00e+00	0	38	0	0	51	4500
2026-01-22 23:57:35.84	13.20	14.57	-39.8	-41.7	19.3	0.00e+00	0	38	0	0	51	4430
2026-01-22 23:57:36.84	13.17	14.67	-39.7	-41.7	19.3	0.00e+00	0	38	0	0	51	4415
2026-01-22 23:57:37.83	13.15	14.78	-39.8	-41.8	19.2	0.00e+00	0	38	0	0	51	4484
2026-01-22 23:57:38.83	13.13	14.88	-39.7	-41.6	19.4	0.00e+00	0	38	0	0	51	4371
2026-01-22 23:57:39.82	13.11	14.99	-39.7	-41.7	19.3	0.00e+00	0	38	0	0	51	4396
2026-01-22 23:57:40.82	13.09	15.09	-39.7	-41.7	19.3	0.00e+00	0	38	0	0	51	4400
2026-01-22 23:57:41.81	13.07	15.20	-39.7	-41.7	19.3	0.00e+00	0	37	0	0	51	4412
2026-01-22 23:57:42.80	13.04	15.30	-39.8	-41.8	19.3	0.00e+00	0	37	0	0	51	4450
2026-01-22 23:57:43.83	13.02	15.41	-39.7	-41.7	19.3	0.00e+00	0	38	0	0	51	4416
2026-01-22 23:57:44.82	13.00	15.52	-39.8	-41.7	19.3	0.00e+00	0	37	0	0	51	4441
2026-01-22 23:57:45.93	12.97	15.64	-39.8	-41.8	19.2	0.00e+00	0	38	0	0	51	4455
2026-01-22 23:57:46.81	12.95	15.73	-39.8	-41.7	19.3	0.00e+00	0	38	0	0	51	4419
2026-01-22 23:57:47.95	12.93	15.86	-39.8	-41.8	19.2	0.00e+00	0	37	0	0	51	4448
2026-01-22 23:57:48.80	12.91	15.95	-39.8	-41.7	19.3	0.00e+00	0	38	0	0	51	4440
2026-01-22 23:57:49.94	12.88	16.08	-39.8	-41.8	19.2	0.00e+00	0	38	0	0	51	4478
2026-01-22 23:57:50.79	12.86	16.17	-39.9	-41.8	19.2	0.00e+00	0	38	0	0	51	4478
2026-01-22 23:57:51.93	12.83	16.30	-39.8	-41.8	19.2	0.00e+00	0	38	0	0	51	4452
2026-01-22 23:57:52.79	12.81	16.39	-39.9	-41.8	19.2	0.00e+00	0	38	0	0	51	4486
2026-01-22 23:57:53.92	12.78	16.52	-39.9	-41.8	19.2	0.00e+00	0	37	0	0	51	4478
2026-01-22 23:57:54.77	12.76	16.62	-39.9	-41.9	19.1	0.00e+00	0	38	0	0	51	4503
2026-01-22 23:57:55.91	12.73	16.74	-40.1	-42.0	19.0	0.00e+00	0	38	0	0	51	4591
2026-01-22 23:57:56.76	12.71	16.84	-40.0	-41.9	19.1	0.00e+00	0	38	0	0	51	4539
2026-01-22 23:57:57.90	12.68	16.97	-40.1	-42.1	19.0	0.00e+00	0	38	0	0	51	4602
2026-01-22 23:57:58.75	12.66	17.07	-40.1	-42.1	19.0	0.00e+00	0	38	0	0	51	4620
2026-01-22 23:58:00.01	12.63	17.21	-40.1	-42.0	19.0	0.00e+00	0	38	0	0	51	4578
2026-01-22 23:58:00.79	12.61	17.30	-40.1	-42.0	19.0	0.00e+00	0	38	0	0	51	4584
2026-01-22 23:58:02.07	12.58	17.45	-40.1	-42.1	19.0	0.00e+00	0	38	0	0	51	4615
2026-01-22 23:58:03.22	12.55	17.59	-40.2	-42.1	18.9	0.00e+00	0	38	0	0	51	4650
2026-01-22 23:58:04.36	12.51	17.72	-40.2	-42.2	18.9	0.00e+00	0	38	0	0	51	4654
2026-01-22 23:58:05.21	12.49	17.82	-40.2	-42.1	19.0	0.00e+00	0	38	0	0	51	4635
2026-01-22 23:58:06.34	12.46	17.96	-40.2	-42.1	19.0	0.00e+00	0	38	0	0	51	4623
2026-01-22 23:58:07.20	12.44	18.06	-40.2	-42.1	18.9	0.00e+00	0	38	0	0	51	4634
2026-01-22 23:58:08.34	12.41	18.20	-40.2	-42.1	19.0	0.00e+00	0	38	0	0	51	4615
2026-01-22 23:58:09.19	12.38	18.30	-40.2	-42.1	18.9	0.00e+00	0	38	0	0	51	4638
2026-01-22 23:58:10.33	12.35	18.44	-40.3	-42.2	18.9	0.00e+00	0	38	0	0	51	4680
2026-01-22 23:58:11.18	12.33	18.54	-40.3	-42.2	18.8	0.00e+00	0	38	0	0	51	4700
2026-01-22 23:58:12.32	12.29	18.68	-40.3	-42.2	18.9	0.00e+00	0	38	0	0	51	4676
2026-01-22 23:58:13.17	12.27	18.78	-40.3	-42.2	18.9	0.00e+00	0	38	0	0	51	4692
2026-01-22 23:58:14.40	12.23	18.93	-40.3	-42.2	18.9	0.00e+00	0	38	0	0	51	4683
2026-01-22 23:58:15.25	12.21	19.04	-40.2	-42.1	19.0	0.00e+00	0	38	0	0	51	4625
2026-01-22 23:58:16.39	12.17	19.18	-40.2	-42.2	18.9	0.00e+00	0	38	0	0	51	4665
2026-01-22 23:58:17.24	12.15	19.29	-40.2	-42.1	18.9	0.00e+00	0	38	0	0	51	4646
2026-01-22 23:58:18.38	12.11	19.43	-40.1	-42.1	19.0	0.00e+00	0	38	0	0	51	4605
2026-01-22 23:58:19.23	12.09	19.54	-40.1	-42.0	19.0	0.00e+00	0	38	0	0	51	4589
2026-01-22 23:58:20.57	12.04	19.71	-40.1	-42.1	19.0	0.00e+00	0	38	0	0	51	4599
2026-01-22 23:58:21.28	12.02	19.80	-40.1	-42.0	19.1	0.00e+00	0	38	0	0	51	4570
2026-01-22 23:58:22.58	11.98	19.97	-40.0	-41.9	19.2	0.00e+00	0	38	0	0	51	4510
2026-01-22 23:58:23.29	11.96	20.06	-39.9	-41.8	19.2	0.00e+00	0	38	0	0	51	4473
2026-01-22 23:58:24.58	11.92	20.23	-39.8	-41.7	19.3	0.00e+00	0	38	0	0	51	4428
2026-01-22 23:58:25.29	11.89	20.32	-39.7	-41.6	19.4	0.00e+00	0	38	0	0	51	4363
2026-01-22 23:58:26.57	11.85	20.49	-39.8	-41.6	19.4	0.00e+00	0	38	0	0	51	4383
2026-01-22 23:58:27.29	11.83	20.58	-39.7	-41.6	19.4	0.00e+00	0	38	0	0	51	4349
2026-01-22 23:58:28.57	11.78	20.75	-39.6	-41.4	19.6	0.00e+00	0	38	0	0	51	4258
2026-01-22 23:58:29.30	11.76	20.85	-39.6	-41.4	19.6	0.00e+00	0	38	0	0	51	4258
2026-01-22 23:58:30.58	11.72	21.02	-39.6	-41.4	19.6	0.00e+00	0	38	0	0	51	4274
2026-01-22 23:58:31.30	11.69	21.12	-39.4	-41.2	19.8	0.00e+00	0	38	0	0	50	4405
2026-01-22 23:58:32.58	11.65	21.29	-39.3	-41.1	19.9	0.00e+00	0	38	0	0	50	4342
2026-01-22 23:58:33.31	11.62	21.39	-39.2	-40.9	20.0	0.00e+00	0	38	0	0	50	4277
2026-01-22 23:58:34.59	11.58	21.57	-39.1	-40.8	20.1	0.00e+00	0	38	0	0	50	4238
2026-01-22 23:58:35.30	11.55	21.66	-39.1	-40.8	20.1	0.00e+00	0	38	0	0	50	4204
2026-01-22 23:58:36.59	11.50	21.84	-39.0	-40.7	20.2	0.00e+00	0	38	0	0	50	4177
2026-01-22 23:58:37.30	11.48	21.94	-39.0	-40.7	20.2	0.00e+00	0	38	0	0	50	4174
2026-01-22 23:58:38.66	11.43	22.13	-38.9	-40.5	20.3	0.00e+00	0	38	0	0	49	4337
2026-01-22 23:58:39.37	11.40	22.23	-38.8	-40.4	20.4	0.00e+00	0	38	0	0	49	4290
2026-01-22 23:58:40.65	11.35	22.41	-38.8	-40.5	20.4	0.00e+00	0	38	0	0	49	4298
2026-01-22 23:58:41.69	11.31	22.56	-38.7	-40.4	20.4	0.00e+00	0	38	0	0	49	4264
2026-01-22 23:58:42.65	11.28	22.70	-38.6	-40.3	20.5	0.00e+00	0	38	0	0	49	4211
2026-01-22 23:58:43.65	11.24	22.84	-38.7	-40.3	20.5	0.00e+00	0	38	0	0	49	4217
2026-01-22 23:58:44.64	11.20	22.98	-38.8	-40.4	20.4	0.00e+00	0	38	0	0	49	4269
2026-01-22 23:58:45.64	11.16	23.13	-38.8	-40.5	20.4	0.00e+00	0	38	0	0	49	4295
2026-01-22 23:58:46.64	11.12	23.28	-38.6	-40.3	20.6	0.00e+00	0	38	0	0	49	4196
2026-01-22 23:58:47.69	11.07	23.43	-38.6	-40.2	20.6	0.00e+00	0	38	0	0	49	4191
2026-01-22 23:58:48.62	11.04	23.57	-38.6	-40.2	20.7	0.00e+00	0	38	0	0	49	4169
2026-01-22 23:58:49.76	10.99	23.74	-38.5	-40.1	20.7	0.00e+00	0	38	0	0	49	4134
2026-01-22 23:58:50.61	10.95	23.87	-38.6	-40.2	20.7	0.00e+00	0	38	0	0	49	4185
2026-01-22 23:58:51.95	10.90	24.07	-38.5	-40.2	20.7	0.00e+00	0	38	0	0	49	4150
2026-01-22 23:58:52.66	10.87	24.17	-38.6	-40.3	20.6	0.00e+00	0	38	0	0	49	4210
2026-01-22 23:58:54.16	10.80	24.40	-38.6	-40.2	20.7	0.00e+00	0	38	0	0	49	4182
2026-01-22 23:58:54.87	10.77	24.51	-38.6	-40.3	20.7	0.00e+00	0	38	0	0	49	4206
2026-01-22 23:58:56.22	10.71	24.72	-38.7	-40.4	20.6	0.00e+00	0	38	0	0	49	4254
2026-01-22 23:58:56.92	10.68	24.83	-38.8	-40.5	20.5	0.00e+00	0	38	0	0	49	4297
2026-01-22 23:58:58.28	10.62	25.04	-38.8	-40.4	20.6	0.00e+00	0	38	0	0	49	4288
2026-01-22 23:58:58.99	10.59	25.15	-38.9	-40.5	20.4	0.00e+00	0	38	0	0	49	4331
2026-01-22 23:59:00.27	10.53	25.35	-38.9	-40.6	20.4	0.00e+00	0	38	0	0	49	4377
2026-01-22 23:59:00.98	10.49	25.47	-39.0	-40.7	20.3	0.00e+00	0	38	0	0	49	4411
2026-01-22 23:59:02.26	10.43	25.67	-39.1	-40.8	20.2	0.00e+00	0	38	0	0	49	4468
2026-01-22 23:59:02.99	10.40	25.79	-39.2	-40.9	20.2	0.00e+00	0	38	0	0	49	4503
2026-01-22 23:59:04.27	10.34	26.00	-39.3	-41.0	20.1	0.00e+00	0	38	0	0	49	4560
2026-01-22 23:59:04.97	10.30	26.11	-39.3	-41.1	20.0	0.00e+00	0	38	0	0	49	4608
2026-01-22 23:59:06.25	10.24	26.32	-39.5	-41.2	19.9	0.00e+00	0	38	0	0	49	4696
2026-01-22 23:59:06.96	10.20	26.44	-39.6	-41.4	19.7	0.00e+00	0	38	0	0	49	4760
2026-01-22 23:59:08.24	10.14	26.65	-39.7	-41.5	19.7	0.00e+00	0	38	0	0	50	4560
2026-01-22 23:59:08.97	10.10	26.77	-39.9	-41.7	19.5	0.00e+00	0	38	0	0	50	4667
2026-01-22 23:59:10.25	10.04	26.98	-40.1	-41.9	19.3	0.00e+00	0	38	0	0	50	4769
2026-01-22 23:59:10.96	10.00	27.10	-40.1	-41.9	19.3	0.00e+00	0	38	0	0	50	4801
2026-01-22 23:59:12.24	9.93	27.32	-40.3	-42.1	19.1	0.00e+00	0	38	0	0	51	4624
2026-01-22 23:59:13.11	9.88	27.47	-40.3	-42.2	19.0	0.00e+00	0	38	0	0	51	4673
2026-01-22 23:59:14.24	9.82	27.66	-40.5	-42.4	18.8	0.00e+00	0	38	0	0	51	4799
2026-01-22 23:59:15.29	9.77	27.85	-40.6	-42.5	18.6	0.00e+00	0	38	0	0	51	4862
2026-01-22 23:59:16.41	9.70	28.04	-40.7	-42.6	18.6	0.00e+00	0	38	0	0	51	4887
2026-01-22 23:59:17.34	9.65	28.20	-40.7	-42.6	18.5	0.00e+00	0	38	0	0	52	4621
2026-01-22 23:59:18.33	9.59	28.38	-40.7	-42.6	18.5	0.00e+00	0	38	0	0	52	4629
2026-01-22 23:59:19.55	9.52	28.59	-40.6	-42.6	18.5	0.00e+00	0	38	0	0	52	4618
2026-01-22 23:59:20.40	9.48	28.75	-40.6	-42.6	18.5	0.00e+00	0	38	0	0	52	4617
2026-01-22 23:59:21.54	9.41	28.95	-40.6	-42.6	18.5	0.00e+00	0	38	0	0	52	4622
2026-01-22 23:59:22.39	9.36	29.10	-40.5	-42.5	18.6	0.00e+00	0	38	0	0	52	4566
2026-01-22 23:59:23.53	9.29	29.31	-40.5	-42.5	18.6	0.00e+00	0	38	0	0	52	4553
2026-01-22 23:59:24.38	9.24	29.47	-40.4	-42.3	18.7	0.00e+00	0	38	0	0	52	4487
2026-01-22 23:59:25.52	9.17	29.68	-40.4	-42.3	18.8	0.00e+00	0	38	0	0	52	4461
2026-01-22 23:59:26.37	9.11	29.84	-40.3	-42.2	18.9	0.00e+00	0	38	0	0	52	4407
2026-01-22 23:59:27.51	9.04	30.05	-40.2	-42.0	19.0	0.00e+00	0	38	0	0	52	4333
2026-01-22 23:59:28.36	8.99	30.21	-40.0	-41.8	19.2	0.00e+00	0	38	0	0	52	4221
2026-01-22 23:59:29.50	8.91	30.42	-40.0	-41.8	19.4	0.00e+00	0	38	0	0	51	4475
2026-01-22 23:59:30.35	8.86	30.58	-39.8	-41.6	19.5	0.00e+00	0	38	0	0	51	4378
2026-01-22 23:59:31.49	8.78	30.80	-39.7	-41.4	19.6	0.00e+00	0	38	0	0	51	4273
2026-01-22 23:59:32.34	8.72	30.97	-39.7	-41.5	19.7	0.00e+00	0	38	0	0	51	4292
2026-01-22 23:59:33.48	8.65	31.19	-39.6	-41.3	19.8	0.00e+00	0	38	0	0	51	4215
2026-01-22 23:59:34.33	8.59	31.35	-39.6	-41.3	19.8	0.00e+00	0	38	0	0	51	4237
2026-01-22 23:59:35.47	8.51	31.58	-39.5	-41.2	19.9	0.00e+00	0	38	0	0	51	4183
2026-01-22 23:59:36.32	8.45	31.74	-39.5	-41.2	20.0	0.00e+00	0	38	0	0	50	4418
2026-01-22 23:59:37.46	8.37	31.97	-39.3	-41.0	20.2	0.00e+00	0	38	0	0	50	4302
2026-01-22 23:59:38.31	8.30	32.14	-39.4	-41.1	20.1	0.00e+00	0	38	0	0	50	4355
2026-01-22 23:59:39.45	8.22	32.37	-39.4	-41.1	20.1	0.00e+00	0	38	0	0	50	4378
2026-01-22 23:59:40.30	8.16	32.54	-39.4	-41.1	20.1	0.00e+00	0	38	0	0	50	4356
2026-01-22 23:59:41.44	8.07	32.78	-39.6	-41.3	19.9	0.00e+00	0	38	0	0	50	4490
2026-01-22 23:59:42.29	8.01	32.95	-39.7	-41.4	19.8	0.00e+00	0	38	0	0	50	4530
2026-01-22 23:59:43.43	7.92	33.19	-39.8	-41.5	19.8	0.00e+00	0	38	0	0	50	4579
2026-01-22 23:59:44.28	7.85	33.36	-39.8	-41.6	19.7	0.00e+00	0	38	0	0	50	4613
2026-01-22 23:59:45.42	7.76	33.60	-40.0	-41.8	19.5	0.00e+00	0	38	0	0	50	4750
2026-01-22 23:59:46.27	7.69	33.78	-40.1	-41.9	19.4	0.00e+00	0	37	0	0	50	4798
2026-01-22 23:59:47.41	7.60	34.02	-40.2	-42.0	19.2	0.00e+00	0	38	0	0	51	4596
2026-01-22 23:59:48.26	7.53	34.20	-40.2	-42.0	19.3	0.00e+00	0	38	0	0	51	4588
2026-01-22 23:59:49.40	7.43	34.45	-40.4	-42.2	19.0	0.00e+00	0	38	0	0	51	4704
2026-01-22 23:59:50.25	7.36	34.63	-40.5	-42.4	18.9	0.00e+00	0	38	0	0	51	4790
2026-01-22 23:59:51.39	7.26	34.88	-40.6	-42.5	18.8	0.00e+00	0	38	0	0	51	4856
2026-01-22 23:59:52.24	7.19	35.07	-40.7	-42.7	18.6	0.00e+00	0	38	0	0	52	4658
2026-01-22 23:59:53.38	7.08	35.32	-40.9	-42.9	18.4	0.00e+00	0	38	0	0	52	4760
2026-01-22 23:59:54.23	7.01	35.51	-41.0	-43.0	18.2	0.00e+00	0	38	0	0	52	4836
2026-01-22 23:59:55.37	6.90	35.76	-41.1	-43.1	18.1	0.00e+00	0	38	0	0	52	4885
2026-01-22 23:59:56.22	6.82	35.95	-41.1	-43.1	18.1	0.00e+00	0	38	0	0	53	4629
2026-01-22 23:59:57.42	6.71	36.23	-41.2	-43.1	18.0	0.00e+00	0	38	0	0	53	4641
2026-01-22 23:59:58.27	6.63	36.42	-41.2	-43.2	18.0	0.00e+00	0	38	0	0	53	4654
2026-01-22 23:59:59.46	6.52	36.69	-41.1	-43.0	18.1	0.00e+00	0	38	0	0	53	4587
2026-01-23 00:00:00.31	6.43	36.89	-41.1	-43.0	18.1	0.00e+00	0	38	0	0	53	4585
2026-01-23 00:00:01.49	6.31	37.17	-41.3	-43.2	18.0	0.00e+00	0	38	0	0	53	4665
2026-01-23 00:00:02.34	6.23	37.36	-41.3	-43.2	18.0	0.00e+00	0	38	0	0	53	4695
2026-01-23 00:00:03.58	6.10	37.66	-41.4	-43.4	17.8	0.00e+00	0	38	0	0	53	4777
2026-01-23 00:00:04.43	6.01	37.86	-41.4	-43.3	18.0	0.00e+00	0	38	0	0	53	4743
2026-01-23 00:00:05.57	5.89	38.13	-41.5	-43.4	17.9	0.00e+00	0	38	0	0	53	4809
2026-01-23 00:00:06.42	5.80	38.34	-41.4	-43.4	17.9	0.00e+00	0	38	0	0	53	4766
2026-01-23 00:00:07.55	5.67	38.61	-41.3	-43.2	18.1	0.00e+00	0	38	0	0	53	4696
2026-01-23 00:00:08.41	5.58	38.82	-41.2	-43.2	18.2	0.00e+00	0	38	0	0	53	4659
2026-01-23 00:00:09.54	5.45	39.10	-41.2	-43.1	18.2	0.00e+00	0	38	0	0	53	4602
2026-01-23 00:00:10.40	5.35	39.31	-40.9	-42.8	18.4	0.00e+00	0	38	0	0	53	4464
2026-01-23 00:00:11.53	5.22	39.59	-41.0	-42.8	18.4	0.00e+00	0	38	0	0	53	4486
2026-01-23 00:00:12.38	5.12	39.81	-40.9	-42.7	18.5	0.00e+00	0	38	0	0	53	4441
2026-01-23 00:00:13.52	4.98	40.09	-40.9	-42.8	18.4	0.00e+00	0	38	0	0	53	4470
2026-01-23 00:00:14.37	4.88	40.31	-41.0	-42.9	18.3	0.00e+00	0	38	0	0	53	4504
2026-01-23 00:00:15.51	4.74	40.60	-40.9	-42.9	18.4	0.00e+00	0	38	0	0	53	4495
2026-01-23 00:00:16.36	4.63	40.82	-41.1	-43.0	18.3	0.00e+00	0	38	0	0	53	4557
2026-01-23 00:00:17.50	4.49	41.12	-41.1	-43.1	18.2	0.00e+00	0	38	0	0	53	4607
2026-01-23 00:00:18.35	4.37	41.34	-41.3	-43.2	18.0	0.00e+00	0	38	0	0	53	4700
2026-01-23 00:00:19.49	4.22	41.64	-41.5	-43.5	17.8	0.00e+00	0	38	0	0	53	4845
2026-01-23 00:00:20.34	4.11	41.86	-41.6	-43.6	17.6	0.00e+00	0	38	0	0	53	4917
2026-01-23 00:00:21.54	3.94	42.18	-41.9	-43.9	17.4	0.00e+00	0	38	0	0	54	4804
2026-01-23 00:00:22.39	3.83	42.41	-42.0	-44.1	17.2	0.00e+00	0	38	0	0	54	4915
2026-01-23 00:00:23.58	3.66	42.73	-42.1	-44.2	17.2	0.00e+00	0	38	0	0	54	4951
2026-01-23 00:00:24.43	3.53	42.96	-42.1	-44.3	17.0	0.00e+00	0	38	0	0	55	4714
2026-01-23 00:00:25.57	3.37	43.27	-42.3	-44.5	16.9	0.00e+00	0	38	0	0	55	4816
2026-01-23 00:00:26.42	3.24	43.50	-42.4	-44.7	16.8	0.00e+00	0	38	0	0	55	4936
2026-01-23 00:00:27.56	3.07	43.82	-42.8	-45.1	16.6	0.00e+00	0	38	0	0	56	4884
2026-01-23 00:00:28.41	2.93	44.06	-42.7	-45.0	16.6	0.00e+00	0	38	0	0	56	4842
2026-01-23 00:00:29.55	2.75	44.37	-42.5	-44.7	16.9	0.00e+00	0	38	0	0	56	4693
2026-01-23 00:00:30.40	2.62	44.61	-42.5	-44.7	16.8	0.00e+00	0	38	0	0	56	4674
2026-01-23 00:00:31.53	2.43	44.93	-42.6	-44.7	16.8	0.00e+00	0	38	0	0	56	4698
2026-01-23 00:00:32.39	2.29	45.18	-42.7	-44.9	16.7	0.00e+00	0	38	0	0	56	4778
2026-01-23 00:00:33.53	2.10	45.51	-42.5	-44.7	16.9	0.00e+00	0	38	0	0	56	4669
2026-01-23 00:00:34.38	1.95	45.75	-42.5	-44.7	16.9	0.00e+00	0	38	0	0	56	4668
2026-01-23 00:00:35.52	1.75	46.08	-42.5	-44.7	16.8	0.00e+00	0	38	0	0	56	4664
2026-01-23 00:00:36.37	1.60	46.33	-42.3	-44.4	17.1	0.00e+00	0	38	0	0	56	4528
2026-01-23 00:00:37.51	1.39	46.67	-42.0	-44.0	17.5	0.00e+00	0	38	0	0	56	4319
2026-01-23 00:00:38.36	1.23	46.92	-41.7	-43.7	17.7	0.00e+00	0	38	0	0	55	4409
2026-01-23 00:00:39.61	0.99	47.29	-41.4	-43.3	18.0	0.00e+00	0	38	0	0	54	4475
2026-01-23 00:00:40.46	0.83	47.55	-41.2	-43.1	18.2	0.00e+00	0	38	0	0	54	4368
2026-01-23 00:00:41.60	0.60	47.89	-41.1	-43.0	18.2	0.00e+00	0	38	0	0	54	4298
2026-01-23 00:00:42.45	0.43	48.15	-41.1	-43.0	18.2	0.00e+00	0	38	0	0	54	4338
2026-01-23 00:00:43.59	0.20	48.50	-41.3	-43.2	17.8	0.00e+00	0	38	0	0	54	4410
2026-01-23 00:00:44.44	0.02	48.76	-41.2	-43.1	18.0	0.00e+00	0	38	0	0	54	4366
2026-01-23 00:00:45.58	359.77	49.11	-41.2	-43.1	18.1	0.00e+00	0	38	0	0	54	4350
2026-01-23 00:00:46.43	359.59	49.37	-41.1	-43.0	18.3	0.00e+00	0	38	0	0	54	4302
2026-01-23 00:00:47.57	359.33	49.73	-40.9	-42.7	18.4	0.00e+00	0	38	0	0	53	4431
2026-01-23 00:00:48.42	359.14	49.99	-40.9	-42.8	18.4	0.00e+00	0	38	0	0	53	4459
2026-01-23 00:00:49.55	358.88	50.35	-41.0	-42.9	18.2	0.00e+00	0	38	0	0	53	4503
2026-01-23 00:00:50.41	358.67	50.62	-41.3	-43.2	18.0	0.00e+00	0	38	0	0	53	4670
2026-01-23 00:00:51.54	358.40	50.98	-41.3	-43.3	18.0	0.00e+00	0	38	0	0	53	4729
2026-01-23 00:00:52.39	358.19	51.25	-41.2	-43.1	18.2	0.00e+00	0	38	0	0	53	4602
2026-01-23 00:00:53.53	357.90	51.62	-41.1	-43.0	18.2	0.00e+00	0	38	0	0	53	4577
2026-01-23 00:00:54.38	357.68	51.89	-41.0	-42.9	18.3	0.00e+00	0	38	0	0	53	4525
2026-01-23 00:00:55.52	357.37	52.26	-40.9	-42.7	18.5	0.00e+00	0	38	0	0	53	4441
2026-01-23 00:00:56.37	357.14	52.54	-41.0	-42.9	18.4	0.00e+00	0	38	0	0	53	4534
2026-01-23 00:00:57.51	356.83	52.91	-41.3	-43.2	18.1	0.00e+00	0	38	0	0	53	4691
2026-01-23 00:00:58.36	356.59	53.19	-41.3	-43.3	18.0	0.00e+00	0	38	0	0	53	4721
2026-01-23 00:00:59.50	356.26	53.57	-40.9	-42.9	18.5	0.00e+00	0	38	0	0	53	4498
2026-01-23 00:01:00.35	356.01	53.85	-40.6	-42.4	18.9	0.00e+00	0	37	0	0	53	4261
2026-01-23 00:01:01.71	355.59	54.31	-40.2	-41.9	19.3	0.00e+00	0	38	0	0	52	4291
2026-01-23 00:01:02.42	355.37	54.54	-40.0	-41.8	19.5	0.00e+00	0	38	0	0	51	4457
2026-01-23 00:01:03.70	354.96	54.97	-39.9	-41.7	19.6	0.00e+00	0	38	0	0	51	4407
2026-01-23 00:01:04.42	354.73	55.22	-39.9	-41.6	19.7	0.00e+00	0	38	0	0	51	4364
2026-01-23 00:01:05.71	354.30	55.65	-39.9	-41.6	19.6	0.00e+00	0	38	0	0	51	4366
2026-01-23 00:01:06.45	354.04	55.90	-39.8	-41.5	19.8	0.00e+00	0	38	0	0	51	4337
2026-01-23 00:01:07.73	353.59	56.34	-39.4	-41.1	20.2	0.00e+00	0	38	0	0	50	4362
2026-01-23 00:01:08.50	353.31	56.60	-39.1	-40.7	20.4	0.00e+00	0	38	0	0	50	4189
2026-01-23 00:01:09.78	352.84	57.04	-38.6	-40.2	20.7	0.00e+00	0	38	0	0	49	4175
2026-01-23 00:01:10.49	352.57	57.29	-38.5	-40.1	20.7	0.00e+00	0	38	0	0	49	4131
2026-01-23 00:01:11.77	352.07	57.73	-38.9	-40.6	20.4	0.00e+00	0	38	0	0	49	4341
2026-01-23 00:01:12.60	351.74	58.01	-39.2	-40.9	20.2	0.00e+00	0	38	0	0	49	4498
2026-01-23 00:01:13.74	351.27	58.41	-39.3	-41.0	20.2	0.00e+00	0	38	0	0	49	4578
2026-01-23 00:01:14.59	350.91	58.70	-39.3	-41.0	20.2	0.00e+00	0	38	0	0	49	4589
2026-01-23 00:01:15.73	350.42	59.10	-39.3	-41.1	20.2	0.00e+00	0	38	0	0	49	4606
2026-01-23 00:01:16.58	350.04	59.39	-39.3	-41.0	20.3	0.00e+00	0	38	0	0	49	4587
2026-01-23 00:01:17.72	349.52	59.79	-39.4	-41.0	20.2	0.00e+00	0	38	0	0	49	4598
2026-01-23 00:01:18.57	349.12	60.09	-39.2	-40.9	20.2	0.00e+00	0	38	0	0	49	4504
2026-01-23 00:01:19.71	348.57	60.48	-39.1	-40.7	20.4	0.00e+00	0	38	0	0	49	4430
2026-01-23 00:01:20.56	348.15	60.78	-39.0	-40.7	20.5	0.00e+00	0	38	0	0	49	4404
2026-01-23 00:01:21.69	347.57	61.17	-38.8	-40.5	20.7	0.00e+00	0	38	0	0	49	4297
2026-01-23 00:01:22.54	347.13	61.47	-38.8	-40.5	20.8	0.00e+00	0	38	0	0	49	4292
2026-01-23 00:01:23.68	346.51	61.87	-38.6	-40.2	21.0	0.00e+00	0	38	0	0	49	4147
2026-01-23 00:01:24.53	346.04	62.16	-38.4	-40.0	21.0	0.00e+00	0	38	0	0	48	4336
2026-01-23 00:01:25.67	345.39	62.56	-38.4	-40.0	21.0	0.00e+00	0	38	0	0	48	4324
2026-01-23 00:01:26.52	344.90	62.85	-38.3	-39.9	21.1	0.00e+00	0	38	0	0	48	4252
2026-01-23 00:01:27.66	344.21	63.24	-38.4	-40.0	21.1	0.00e+00	0	38	0	0	48	4302
2026-01-23 00:01:28.51	343.68	63.54	-38.3	-39.9	21.2	0.00e+00	0	38	0	0	48	4276
2026-01-23 00:01:29.65	342.95	63.93	-38.5	-40.1	21.1	0.00e+00	0	38	0	0	48	4369
2026-01-23 00:01:30.50	342.39	64.22	-38.6	-40.2	20.9	0.00e+00	0	38	0	0	48	4429
2026-01-23 00:01:31.64	341.61	64.61	-38.5	-40.1	21.0	0.00e+00	0	38	0	0	48	4350
2026-01-23 00:01:32.49	341.02	64.89	-38.4	-40.0	21.0	0.00e+00	0	38	0	0	48	4316
2026-01-23 00:01:33.63	340.20	65.28	-38.4	-40.0	21.1	0.00e+00	0	38	0	0	48	4319
2026-01-23 00:01:34.48	339.57	65.56	-38.0	-39.6	21.5	0.00e+00	0	38	0	0	48	4130
2026-01-23 00:01:35.62	338.69	65.94	-38.0	-39.6	21.3	0.00e+00	0	38	0	0	47	4356
2026-01-23 00:01:36.47	338.02	66.22	-38.0	-39.6	21.3	0.00e+00	0	38	0	0	47	4379
2026-01-23 00:01:37.61	337.10	66.59	-38.2	-39.8	21.1	0.00e+00	0	38	0	0	47	4451
2026-01-23 00:01:38.62	336.25	66.91	-38.1	-39.7	21.1	0.00e+00	0	38	0	0	47	4422
2026-01-23 00:01:39.62	335.38	67.23	-38.2	-39.8	21.1	0.00e+00	0	38	0	0	47	4484
2026-01-23 00:01:40.61	334.49	67.55	-38.4	-40.0	21.0	0.00e+00	0	38	0	0	47	4565
2026-01-23 00:01:41.61	333.57	67.86	-38.8	-40.5	20.5	0.00e+00	0	38	0	0	48	4552
2026-01-23 00:01:42.93	332.31	68.26	-39.0	-40.7	20.5	0.00e+00	0	38	0	0	48	4691
2026-01-23 00:01:43.67	331.58	68.48	-38.8	-40.5	20.7	0.00e+00	0	38	0	0	48	4569
2026-01-23 00:01:45.29	329.93	68.96	-38.2	-39.8	21.2	0.00e+00	0	38	0	0	48	4226
2026-01-23 00:01:45.87	329.32	69.13	-38.2	-39.7	21.2	0.00e+00	0	38	0	0	48	4189
2026-01-23 00:01:47.43	327.62	69.57	-37.9	-39.5	21.1	0.00e+00	0	38	0	0	47	4303
2026-01-23 00:01:48.07	326.90	69.75	-38.1	-39.7	21.0	0.00e+00	0	38	0	0	47	4397
2026-01-23 00:01:49.51	325.23	70.14	-38.1	-39.7	20.9	0.00e+00	0	38	0	0	47	4402
2026-01-23 00:01:50.22	324.38	70.32	-38.0	-39.6	20.8	0.00e+00	0	38	0	0	47	4389
2026-01-23 00:01:51.50	322.81	70.65	-38.1	-39.8	20.8	0.00e+00	0	38	0	0	47	4456
2026-01-23 00:01:52.23	321.89	70.83	-38.4	-40.0	20.7	0.00e+00	0	38	0	0	47	4586
2026-01-23 00:01:53.51	320.23	71.13	-38.9	-40.6	20.6	0.00e+00	0	38	0	0	48	4608
2026-01-23 00:01:54.23	319.27	71.29	-38.9	-40.6	20.5	0.00e+00	0	38	0	0	48	4641
2026-01-23 00:01:55.53	317.49	71.58	-38.8	-40.4	20.6	0.00e+00	0	38	0	0	48	4531
2026-01-23 00:01:56.24	316.49	71.73	-38.6	-40.3	20.7	0.00e+00	0	38	0	0	48	4451
2026-01-23 00:01:57.59	314.55	72.00	-38.6	-40.2	20.6	0.00e+00	0	38	0	0	48	4429
2026-01-23 00:01:58.30	313.51	72.13	-38.5	-40.2	20.8	0.00e+00	0	38	0	0	48	4401
2026-01-23 00:01:59.63	311.51	72.36	-38.6	-40.2	20.7	0.00e+00	0	38	0	0	48	4430
2026-01-23 00:02:00.34	310.42	72.48	-38.9	-40.6	20.4	0.00e+00	0	38	0	0	48	4625
2026-01-23 00:02:01.62	308.42	72.68	-39.1	-40.8	19.9	0.00e+00	0	38	0	0	48	4710
2026-01-23 00:02:02.68	306.72	72.82	-39.3	-41.0	19.9	0.00e+00	0	38	0	0	49	4578
2026-01-23 00:02:03.88	304.77	72.97	-39.3	-41.1	20.1	0.00e+00	0	38	0	0	49	4600
2026-01-23 00:02:04.86	303.15	73.08	-39.0	-40.7	20.5	0.00e+00	0	38	0	0	49	4420
2026-01-23 00:02:05.85	301.50	73.17	-39.0	-40.6	20.6	0.00e+00	0	38	0	0	49	4380
2026-01-23 00:02:06.85	299.80	73.25	-38.7	-40.3	20.8	0.00e+00	0	38	0	0	49	4236
2026-01-23 00:02:07.84	298.11	73.32	-38.4	-40.0	21.1	0.00e+00	0	38	0	0	48	4301
2026-01-23 00:02:08.84	296.39	73.38	-38.2	-39.8	21.2	0.00e+00	0	38	0	0	48	4214
2026-01-23 00:02:09.83	294.68	73.41	-38.1	-39.6	21.3	0.00e+00	0	38	0	0	48	4129
2026-01-23 00:02:10.83	292.94	73.44	-38.5	-40.1	20.8	0.00e+00	0	38	0	0	48	4362
2026-01-23 00:02:11.82	291.22	73.45	-38.7	-40.3	20.5	0.00e+00	0	38	0	0	48	4454
2026-01-23 00:02:12.82	289.47	73.45	-38.6	-40.2	20.4	0.00e+00	0	38	0	0	48	4398
2026-01-23 00:02:13.81	287.75	73.43	-38.2	-39.8	21.0	0.00e+00	0	38	0	0	48	4219
2026-01-23 00:02:14.84	285.96	73.39	-38.1	-39.7	21.3	0.00e+00	0	38	0	0	48	4147
2026-01-23 00:02:15.88	284.17	73.34	-38.1	-39.7	21.3	0.00e+00	0	38	0	0	48	4157
2026-01-23 00:02:16.87	282.47	73.28	-38.0	-39.6	21.3	0.00e+00	0	38	0	0	48	4116
2026-01-23 00:02:17.91	280.70	73.20	-38.2	-39.8	21.2	0.00e+00	0	38	0	0	48	4221
2026-01-23 00:02:18.94	278.97	73.11	-38.1	-39.7	21.1	0.00e+00	0	38	0	0	48	4155
2026-01-23 00:02:19.98	277.25	73.00	-38.1	-39.7	21.3	0.00e+00	0	38	0	0	48	4169
2026-01-23 00:02:20.94	275.68	72.88	-38.0	-39.5	21.4	0.00e+00	0	38	0	0	48	4092
2026-01-23 00:02:21.94	274.07	72.75	-38.2	-39.8	21.0	0.00e+00	0	38	0	0	47	4468
2026-01-23 00:02:22.93	272.50	72.61	-38.1	-39.7	21.1	0.00e+00	0	38	0	0	47	4437
2026-01-23 00:02:23.92	270.96	72.45	-38.0	-39.6	21.0	0.00e+00	0	38	0	0	47	4377
2026-01-23 00:02:24.92	269.43	72.28	-38.1	-39.7	21.1	0.00e+00	0	38	0	0	47	4426
2026-01-23 00:02:25.91	267.95	72.10	-37.8	-39.4	21.4	0.00e+00	0	38	0	0	47	4260
2026-01-23 00:02:26.90	266.50	71.92	-37.8	-39.4	21.3	0.00e+00	0	38	0	0	47	4251
2026-01-23 00:02:27.90	265.07	71.71	-37.8	-39.4	21.3	0.00e+00	0	38	0	0	47	4281
2026-01-23 00:02:28.89	263.69	71.51	-38.3	-39.9	20.9	0.00e+00	0	38	0	0	47	4508
2026-01-23 00:02:29.89	262.33	71.28	-38.7	-40.4	20.7	0.00e+00	0	38	0	0	48	4500
2026-01-23 00:02:30.88	261.01	71.06	-38.7	-40.4	20.6	0.00e+00	0	38	0	0	48	4497
2026-01-23 00:02:31.88	259.72	70.82	-38.3	-39.9	21.1	0.00e+00	0	38	0	0	48	4266
2026-01-23 00:02:32.87	258.47	70.57	-38.0	-39.6	21.2	0.00e+00	0	38	0	0	47	4356
2026-01-23 00:02:33.88	257.23	70.31	-37.8	-39.4	21.5	0.00e+00	0	38	0	0	47	4268
2026-01-23 00:02:34.90	256.02	70.05	-37.9	-39.5	21.4	0.00e+00	0	38	0	0	47	4334
2026-01-23 00:02:35.89	254.87	69.78	-38.1	-39.7	21.2	0.00e+00	0	38	0	0	47	4416
2026-01-23 00:02:36.89	253.75	69.50	-38.1	-39.7	21.1	0.00e+00	0	38	0	0	47	4434
2026-01-23 00:02:37.96	252.58	69.20	-37.8	-39.4	21.1	0.00e+00	0	38	0	0	47	4259
2026-01-23 00:02:38.85	251.64	68.94	-37.5	-39.1	21.3	0.00e+00	0	38	0	0	46	4341
2026-01-23 00:02:40.16	250.30	68.55	-38.2	-39.8	21.1	0.00e+00	0	38	0	0	46	4719
2026-01-23 00:02:40.87	249.59	68.34	-38.3	-39.9	21.0	0.00e+00	0	38	0	0	47	4545
2026-01-23 00:02:42.15	248.36	67.95	-38.9	-40.6	20.5	0.00e+00	0	38	0	0	48	4636
2026-01-23 00:02:42.89	247.67	67.72	-38.7	-40.3	20.6	0.00e+00	0	38	0	0	48	4473
2026-01-23 00:02:44.16	246.51	67.32	-38.4	-40.0	20.8	0.00e+00	0	38	0	0	48	4318
2026-01-23 00:02:44.89	245.87	67.09	-38.2	-39.8	21.1	0.00e+00	0	38	0	0	48	4221
2026-01-23 00:02:46.17	244.78	66.68	-37.7	-39.2	21.6	0.00e+00	0	38	0	0	47	4186
2026-01-23 00:02:46.89	244.18	66.44	-37.8	-39.3	21.6	0.00e+00	0	38	0	0	47	4222
2026-01-23 00:02:48.18	243.15	66.02	-38.6	-40.3	20.7	0.00e+00	0	38	0	0	47	4736
2026-01-23 00:02:48.92	242.57	65.77	-39.3	-41.0	20.2	0.00e+00	0	38	0	0	49	4548
2026-01-23 00:02:50.20	241.61	65.35	-38.6	-40.3	20.4	0.00e+00	0	38	0	0	49	4195
2026-01-23 00:02:50.91	241.09	65.11	-38.3	-39.9	20.7	0.00e+00	0	38	0	0	48	4291
2026-01-23 00:02:52.19	240.18	64.68	-38.0	-39.6	21.4	0.00e+00	0	38	0	0	48	4105
2026-01-23 00:02:52.90	239.69	64.43	-38.2	-39.8	21.3	0.00e+00	0	38	0	0	48	4228
2026-01-23 00:02:54.29	238.76	63.96	-39.0	-40.7	20.6	0.00e+00	0	38	0	0	48	4679
2026-01-23 00:02:55.00	238.30	63.72	-39.1	-40.7	20.5	0.00e+00	0	38	0	0	48	4695
2026-01-23 00:02:56.28	237.49	63.27	-39.0	-40.6	20.1	0.00e+00	0	38	0	0	49	4372
2026-01-23 00:02:56.99	237.06	63.03	-38.8	-40.4	20.3	0.00e+00	0	38	0	0	49	4290
2026-01-23 00:02:58.28	236.30	62.58	-38.3	-39.8	21.0	0.00e+00	0	37	0	0	48	4236
2026-01-23 00:02:58.99	235.89	62.33	-37.7	-39.2	21.5	0.00e+00	0	38	0	0	47	4183
2026-01-23 00:03:00.27	235.17	61.89	-38.1	-39.7	21.3	0.00e+00	0	38	0	0	47	4395
2026-01-23 00:03:01.00	234.77	61.63	-38.9	-40.5	20.7	0.00e+00	0	38	0	0	48	4568
2026-01-23 00:03:02.28	234.09	61.19	-40.0	-41.7	19.7	0.00e+00	0	38	0	0	50	4686
2026-01-23 00:03:03.01	233.72	60.93	-40.1	-41.8	19.6	0.00e+00	0	38	0	0	50	4745
2026-01-23 00:03:04.29	233.08	60.49	-39.7	-41.4	19.9	0.00e+00	0	38	0	0	50	4545
2026-01-23 00:03:05.00	232.73	60.24	-39.3	-41.0	20.3	0.00e+00	0	38	0	0	50	4298
2026-01-23 00:03:06.28	232.13	59.79	-38.6	-40.2	21.0	0.00e+00	0	38	0	0	49	4163
2026-01-23 00:03:07.01	231.79	59.54	-38.3	-39.9	21.2	0.00e+00	0	38	0	0	48	4257
2026-01-23 00:03:08.30	231.21	59.09	-38.5	-40.1	21.1	0.00e+00	0	38	0	0	48	4341
2026-01-23 00:03:09.01	230.90	58.84	-39.2	-40.8	20.5	0.00e+00	0	38	0	0	48	4736
2026-01-23 00:03:10.29	230.36	58.39	-40.5	-42.3	19.2	0.00e+00	0	38	0	0	51	4732
2026-01-23 00:03:11.01	230.06	58.14	-40.6	-42.5	19.0	0.00e+00	0	38	0	0	51	4832
2026-01-23 00:03:12.29	229.54	57.70	-39.8	-41.5	19.2	0.00e+00	0	38	0	0	51	4329
2026-01-23 00:03:13.03	229.25	57.44	-39.6	-41.3	19.1	0.00e+00	0	38	0	0	51	4232
2026-01-23 00:03:14.31	228.76	57.00	-39.0	-40.6	20.2	0.00e+00	0	38	0	0	50	4121
2026-01-23 00:03:15.04	228.49	56.75	-38.6	-40.2	20.7	0.00e+00	0	38	0	0	49	4174
2026-01-23 00:03:16.32	228.02	56.31	-39.3	-41.0	20.1	0.00e+00	0	38	0	0	49	4575
2026-01-23 00:03:17.04	227.77	56.06	-39.5	-41.2	20.1	0.00e+00	0	38	0	0	49	4669
2026-01-23 00:03:18.32	227.32	55.63	-39.5	-41.2	20.1	0.00e+00	0	38	0	0	49	4678
2026-01-23 00:03:19.05	227.08	55.38	-40.0	-41.7	19.7	0.00e+00	0	38	0	0	50	4672
2026-01-23 00:03:20.33	226.65	54.95	-41.1	-43.1	18.0	3.43e-05	0	38	0	0	52	4909
2026-01-23 00:03:21.05	226.42	54.70	-41.7	-43.8	17.2	1.75e-05	0	38	0	0	54	4752
2026-01-23 00:03:22.33	226.02	54.27	-41.2	-43.1	17.8	6.80e-06	0	38	0	0	54	4389
2026-01-23 00:03:23.06	225.79	54.03	-40.9	-42.8	18.1	0.00e+00	0	38	0	0	53	4491
2026-01-23 00:03:24.34	225.41	53.60	-40.2	-42.0	18.9	0.00e+00	0	38	0	0	52	4327
2026-01-23 00:03:25.20	225.16	53.31	-40.2	-42.0	19.0	7.00e-07	0	38	0	0	52	4336
2026-01-23 00:03:26.63	224.75	52.84	-40.6	-42.5	18.6	7.78e-05	0	38	0	0	52	4548
2026-01-23 00:03:27.34	224.55	52.61	-40.5	-42.5	18.7	2.21e-05	0	38	0	0	52	4546
2026-01-23 00:03:28.61	224.21	52.19	-40.4	-42.3	18.8	8.16e-05	0	38	0	0	52	4484
2026-01-23 00:03:29.34	224.01	51.95	-40.4	-42.3	18.9	3.00e-06	0	38	0	0	52	4482
2026-01-23 00:03:30.62	223.68	51.54	-40.6	-42.5	18.6	1.52e-05	0	38	0	0	52	4587
2026-01-23 00:03:31.36	223.49	51.30	-40.7	-42.5	18.3	1.79e-04	0	38	0	0	52	4592
2026-01-23 00:03:32.64	223.17	50.89	-40.8	-42.8	18.1	8.69e-05	0	38	0	0	52	4706
2026-01-23 00:03:33.37	222.99	50.66	-40.8	-42.7	18.1	4.45e-04	0	38	0	0	52	4679
2026-01-23 00:03:34.64	222.69	50.25	-40.9	-42.7	18.3	0.00e+00	0	38	0	0	52	4673
2026-01-23 00:03:35.48	222.50	49.99	-41.2	-43.1	18.0	0.00e+00	0	38	0	0	53	4612
2026-01-23 00:03:36.62	222.24	49.63	-41.1	-43.0	18.3	0.00e+00	0	38	0	0	53	4563
2026-01-23 00:03:37.47	222.04	49.36	-41.3	-43.2	18.1	0.00e+00	0	38	0	0	53	4676
2026-01-23 00:03:38.61	221.79	49.01	-42.1	-44.1	17.3	0.00e+00	0	38	0	0	54	4923
2026-01-23 00:03:39.73	221.55	48.66	-42.5	-44.7	16.8	0.00e+00	0	38	0	0	55	4954
2026-01-23 00:03:40.76	221.34	48.34	-42.1	-44.2	17.2	0.00e+00	0	38	0	0	55	4656
2026-01-23 00:03:41.75	221.14	48.04	-41.9	-43.9	17.4	0.00e+00	0	38	0	0	55	4530
2026-01-23 00:03:42.95	220.89	47.68	-42.5	-44.7	16.6	0.00e+00	0	38	0	0	55	4974
2026-01-23 00:03:43.84	220.72	47.41	-43.0	-45.2	16.4	0.00e+00	0	38	0	0	56	4983
2026-01-23 00:03:44.98	220.50	47.07	-42.8	-45.0	16.6	0.00e+00	0	38	0	0	56	4830
2026-01-23 00:03:45.83	220.34	46.81	-42.4	-44.5	17.1	0.00e+00	0	38	0	0	56	4559
2026-01-23 00:03:46.96	220.13	46.48	-41.6	-43.6	17.6	0.00e+00	0	38	0	0	55	4362
2026-01-23 00:03:47.82	219.97	46.22	-41.2	-43.0	18.1	0.00e+00	0	38	0	0	54	4339
2026-01-23 00:03:48.95	219.77	45.89	-40.8	-42.6	18.7	0.00e+00	0	38	0	0	53	4356
2026-01-23 00:03:49.80	219.62	45.64	-40.7	-42.5	18.9	0.00e+00	0	38	0	0	53	4308
2026-01-23 00:03:50.94	219.42	45.31	-40.5	-42.2	19.1	0.00e+00	0	38	0	0	52	4426
2026-01-23 00:03:51.80	219.28	45.07	-41.1	-43.0	18.4	0.00e+00	0	38	0	0	52	4835
2026-01-23 00:03:52.93	219.09	44.74	-42.2	-44.3	17.2	0.00e+00	0	38	0	0	55	4715
2026-01-23 00:03:53.78	218.95	44.50	-43.3	-45.6	16.0	0.00e+00	0	38	0	0	57	4919
2026-01-23 00:03:54.92	218.77	44.18	-43.8	-46.3	15.3	0.00e+00	0	38	0	0	58	4997
2026-01-23 00:03:55.77	218.63	43.94	-44.0	-46.5	15.1	0.00e+00	0	38	0	0	58	5140
2026-01-23 00:03:57.08	218.43	43.58	-43.7	-46.1	15.6	0.00e+00	0	38	0	0	58	4907
2026-01-23 00:03:57.79	218.32	43.38	-43.2	-45.5	16.2	0.00e+00	0	38	0	0	58	4557
2026-01-23 00:03:59.07	218.13	43.03	-42.9	-45.0	16.7	0.00e+00	0	38	0	0	57	4571
2026-01-23 00:03:59.78	218.03	42.83	-42.5	-44.6	17.1	0.00e+00	0	38	0	0	57	4381
2026-01-23 00:04:01.08	217.84	42.48	-42.0	-44.0	17.6	0.00e+00	0	38	0	0	56	4295
2026-01-23 00:04:01.79	217.74	42.29	-41.8	-43.7	17.6	0.00e+00	0	38	0	0	55	4423
2026-01-23 00:04:03.07	217.56	41.94	-41.4	-43.3	17.9	0.00e+00	0	38	0	0	54	4473
2026-01-23 00:04:03.92	217.45	41.72	-40.9	-42.8	18.4	0.00e+00	0	38	0	0	53	4463
2026-01-23 00:04:05.06	217.29	41.42	-40.4	-42.2	19.0	0.00e+00	0	38	0	0	52	4392
2026-01-23 00:04:05.91	217.18	41.19	-40.4	-42.1	19.1	0.00e+00	0	38	0	0	52	4389
2026-01-23 00:04:07.04	217.03	40.90	-40.3	-42.0	19.3	0.00e+00	0	38	0	0	52	4330
2026-01-23 00:04:07.90	216.92	40.67	-40.4	-42.2	19.1	0.00e+00	0	38	0	0	52	4407
2026-01-23 00:04:09.04	216.78	40.38	-40.7	-42.5	18.8	0.00e+00	0	38	0	0	52	4592
2026-01-23 00:04:09.89	216.68	40.16	-41.3	-43.2	18.3	0.00e+00	0	38	0	0	53	4663
2026-01-23 00:04:11.03	216.54	39.87	-42.1	-44.2	17.3	0.00e+00	0	38	0	0	54	4947
2026-01-23 00:04:11.88	216.43	39.66	-42.9	-45.1	16.6	0.00e+00	0	38	0	0	56	4883
2026-01-23 00:04:13.01	216.30	39.37	-43.0	-45.3	16.3	0.00e+00	0	38	0	0	56	5015
2026-01-23 00:04:13.87	216.20	39.16	-43.0	-45.2	16.4	0.00e+00	0	38	0	0	56	4967
2026-01-23 00:04:15.01	216.07	38.88	-42.9	-45.1	16.5	0.00e+00	0	38	0	0	56	4886
2026-01-23 00:04:15.86	215.97	38.67	-42.8	-45.0	16.7	0.00e+00	0	38	0	0	56	4840
2026-01-23 00:04:16.99	215.85	38.39	-42.2	-44.3	17.3	0.00e+00	0	38	0	0	56	4447
2026-01-23 00:04:17.84	215.76	38.19	-41.6	-43.6	17.8	0.00e+00	0	38	0	0	55	4369
2026-01-23 00:04:18.98	215.63	37.91	-41.2	-43.1	18.2	0.00e+00	0	38	0	0	54	4388
2026-01-23 00:04:19.83	215.54	37.71	-41.0	-42.9	18.4	0.00e+00	0	38	0	0	54	4257
2026-01-23 00:04:20.97	215.42	37.43	-40.8	-42.7	18.6	0.00e+00	0	38	0	0	53	4406
2026-01-23 00:04:21.82	215.34	37.23	-40.8	-42.7	18.7	0.00e+00	0	38	0	0	53	4397
2026-01-23 00:04:22.96	215.22	36.97	-40.7	-42.5	18.8	0.00e+00	0	38	0	0	53	4337
2026-01-23 00:04:23.81	215.14	36.77	-40.5	-42.3	19.0	0.00e+00	0	38	0	0	52	4448
2026-01-23 00:04:25.04	215.01	36.48	-40.3	-42.1	19.2	0.00e+00	0	38	0	0	52	4376
2026-01-23 00:04:25.89	214.93	36.29	-40.2	-42.0	19.3	0.00e+00	0	38	0	0	52	4311
2026-01-23 00:04:27.03	214.82	36.03	-40.2	-42.0	19.2	0.00e+00	0	38	0	0	52	4320
2026-01-23 00:04:27.88	214.74	35.83	-40.3	-42.1	19.2	0.00e+00	0	38	0	0	52	4350
2026-01-23 00:04:29.02	214.64	35.58	-40.4	-42.2	19.0	0.00e+00	0	38	0	0	52	4416
2026-01-23 00:04:29.88	214.56	35.38	-40.4	-42.2	19.1	0.00e+00	0	38	0	0	52	4403
2026-01-23 00:04:31.01	214.46	35.13	-40.5	-42.3	19.0	0.00e+00	0	38	0	0	52	4457
2026-01-23 00:04:31.87	214.38	34.94	-40.4	-42.2	19.1	0.00e+00	0	38	0	0	52	4420
2026-01-23 00:04:33.01	214.28	34.69	-40.3	-42.1	19.2	0.00e+00	0	38	0	0	52	4361
2026-01-23 00:04:33.86	214.21	34.50	-40.2	-42.0	19.3	0.00e+00	0	38	0	0	52	4305
2026-01-23 00:04:35.00	214.11	34.26	-40.2	-42.0	19.3	0.00e+00	0	38	0	0	52	4329
2026-01-23 00:04:35.85	214.04	34.07	-40.0	-41.7	19.4	0.00e+00	0	38	0	0	52	4191
2026-01-23 00:04:36.98	213.94	33.83	-40.1	-41.8	19.4	0.00e+00	0	38	0	0	51	4472
2026-01-23 00:04:37.84	213.87	33.65	-40.1	-41.9	19.3	0.00e+00	0	38	0	0	51	4520
2026-01-23 00:04:38.97	213.78	33.41	-40.3	-42.1	19.2	0.00e+00	0	38	0	0	51	4620
2026-01-23 00:04:39.83	213.71	33.23	-40.4	-42.2	19.1	0.00e+00	0	38	0	0	51	4697
2026-01-23 00:04:40.96	213.62	32.99	-40.5	-42.3	19.0	0.00e+00	0	38	0	0	51	4728
2026-01-23 00:04:41.81	213.56	32.82	-40.4	-42.2	19.2	0.00e+00	0	38	0	0	51	4660
2026-01-23 00:04:42.95	213.47	32.58	-40.4	-42.2	19.2	0.00e+00	0	38	0	0	51	4665
2026-01-23 00:04:43.80	213.40	32.41	-40.4	-42.2	19.2	0.00e+00	0	38	0	0	51	4664
2026-01-23 00:04:44.94	213.32	32.18	-40.2	-42.0	19.4	0.00e+00	0	38	0	0	51	4550
2026-01-23 00:04:45.79	213.26	32.01	-39.9	-41.7	19.6	0.00e+00	0	38	0	0	51	4415
2026-01-23 00:04:46.93	213.17	31.78	-39.9	-41.6	19.7	0.00e+00	0	38	0	0	51	4376
2026-01-23 00:04:47.78	213.11	31.61	-39.9	-41.7	19.7	0.00e+00	0	38	0	0	51	4393
2026-01-23 00:04:48.92	213.03	31.38	-39.8	-41.5	19.7	0.00e+00	0	38	0	0	51	4340
2026-01-23 00:04:49.77	212.97	31.21	-39.8	-41.5	19.7	0.00e+00	0	38	0	0	51	4339
2026-01-23 00:04:50.90	212.89	30.99	-39.9	-41.6	19.6	0.00e+00	0	38	0	0	51	4387
2026-01-23 00:04:51.76	212.83	30.83	-39.9	-41.7	19.4	0.00e+00	0	38	0	0	51	4421
2026-01-23 00:04:52.89	212.76	30.61	-40.2	-42.0	19.2	0.00e+00	0	38	0	0	51	4562
2026-01-23 00:04:53.75	212.70	30.44	-40.4	-42.2	19.0	0.00e+00	0	38	0	0	51	4692
2026-01-23 00:04:54.90	212.62	30.22	-40.4	-42.3	19.0	0.00e+00	0	38	0	0	51	4719
2026-01-23 00:04:55.75	212.57	30.06	-40.5	-42.4	18.9	0.00e+00	0	38	0	0	51	4762
2026-01-23 00:04:56.94	212.49	29.84	-40.3	-42.1	19.1	0.00e+00	0	38	0	0	51	4639
2026-01-23 00:04:57.79	212.44	29.68	-40.3	-42.1	19.1	0.00e+00	0	38	0	0	51	4644
2026-01-23 00:04:58.93	212.37	29.47	-40.3	-42.0	19.2	0.00e+00	0	38	0	0	51	4598
2026-01-23 00:04:59.78	212.31	29.31	-40.0	-41.8	19.4	0.00e+00	0	38	0	0	51	4443
2026-01-23 00:05:00.92	212.24	29.10	-39.9	-41.7	19.5	0.00e+00	0	38	0	0	51	4405
2026-01-23 00:05:01.80	212.19	28.94	-39.9	-41.7	19.5	0.00e+00	0	38	0	0	51	4394
2026-01-23 00:05:03.13	212.11	28.70	-39.9	-41.7	19.5	0.00e+00	0	38	0	0	51	4409
2026-01-23 00:05:04.25	212.04	28.50	-39.6	-41.2	19.9	0.00e+00	0	38	0	0	51	4186
2026-01-23 00:05:05.43	211.97	28.29	-39.2	-40.8	20.2	0.00e+00	0	38	0	0	50	4226
2026-01-23 00:05:06.28	211.93	28.14	-38.9	-40.5	20.5	0.00e+00	0	38	0	0	49	4315
2026-01-23 00:05:07.42	211.86	27.94	-38.8	-40.5	20.5	0.00e+00	0	38	0	0	49	4292
2026-01-23 00:05:08.28	211.81	27.79	-38.7	-40.2	20.7	0.00e+00	0	38	0	0	49	4193
2026-01-23 00:05:09.41	211.75	27.59	-38.6	-40.2	20.8	0.00e+00	0	38	0	0	49	4168
2026-01-23 00:05:10.27	211.70	27.44	-38.5	-40.1	20.9	0.00e+00	0	38	0	0	49	4125
2026-01-23 00:05:11.40	211.64	27.25	-38.6	-40.2	20.8	0.00e+00	0	38	0	0	49	4154
2026-01-23 00:05:12.26	211.59	27.10	-38.5	-40.1	20.9	0.00e+00	0	38	0	0	49	4125
2026-01-23 00:05:13.39	211.53	26.91	-38.4	-40.0	21.0	0.00e+00	0	38	0	0	48	4325
2026-01-23 00:05:14.25	211.49	26.76	-38.5	-40.1	20.9	0.00e+00	0	38	0	0	48	4357
2026-01-23 00:05:15.39	211.43	26.57	-38.4	-40.0	20.9	0.00e+00	0	38	0	0	48	4334
2026-01-23 00:05:16.24	211.39	26.43	-38.5	-40.1	20.9	0.00e+00	0	38	0	0	48	4382
2026-01-23 00:05:17.38	211.33	26.24	-38.7	-40.3	20.7	0.00e+00	0	38	0	0	48	4466
2026-01-23 00:05:18.23	211.29	26.10	-38.8	-40.4	20.6	0.00e+00	0	38	0	0	48	4521
2026-01-23 00:05:19.37	211.23	25.91	-38.9	-40.5	20.5	0.00e+00	0	38	0	0	48	4598
2026-01-23 00:05:20.22	211.19	25.78	-39.0	-40.6	20.4	0.00e+00	0	38	0	0	48	4638
2026-01-23 00:05:21.69	211.11	25.54	-39.2	-40.9	20.2	0.00e+00	0	38	0	0	49	4501
2026-01-23 00:05:22.40	211.08	25.42	-39.3	-41.0	20.1	0.00e+00	0	38	0	0	49	4574
2026-01-23 00:05:23.68	211.02	25.22	-39.4	-41.1	20.0	0.00e+00	0	38	0	0	49	4646
2026-01-23 00:05:24.41	210.99	25.10	-39.5	-41.2	19.9	0.00e+00	0	38	0	0	49	4694
2026-01-23 00:05:25.69	210.93	24.90	-39.6	-41.4	19.8	0.00e+00	0	38	0	0	49	4766
2026-01-23 00:05:26.43	210.89	24.79	-39.6	-41.4	19.8	0.00e+00	0	38	0	0	49	4760
2026-01-23 00:05:27.71	210.83	24.59	-39.7	-41.4	19.7	0.00e+00	0	38	0	0	50	4544
2026-01-23 00:05:28.45	210.80	24.47	-39.7	-41.4	19.8	0.00e+00	0	38	0	0	50	4518
2026-01-23 00:05:29.72	210.74	24.28	-39.8	-41.6	19.6	0.00e+00	0	38	0	0	50	4599
2026-01-23 00:05:30.58	210.71	24.14	-39.8	-41.6	19.6	0.00e+00	0	38	0	0	50	4611
2026-01-23 00:05:31.71	210.66	23.97	-39.9	-41.7	19.5	0.00e+00	0	38	0	0	50	4675
2026-01-23 00:05:32.74	210.61	23.81	-39.9	-41.7	19.5	0.00e+00	0	38	0	0	50	4681
2026-01-23 00:05:33.74	210.57	23.66	-39.8	-41.6	19.6	0.00e+00	0	38	0	0	50	4618
2026-01-23 00:05:34.73	210.53	23.52	-39.9	-41.6	19.6	0.00e+00	0	38	0	0	50	4648
2026-01-23 00:05:35.73	210.48	23.37	-40.0	-41.8	19.5	0.00e+00	0	38	0	0	50	4714
2026-01-23 00:05:36.94	210.43	23.19	-39.8	-41.5	19.7	0.00e+00	0	38	0	0	50	4598
2026-01-23 00:05:37.80	210.40	23.06	-39.8	-41.5	19.7	0.00e+00	0	38	0	0	50	4585
2026-01-23 00:05:38.93	210.35	22.90	-39.8	-41.5	19.7	0.00e+00	0	38	0	0	50	4585
2026-01-23 00:05:39.79	210.32	22.77	-39.9	-41.6	19.6	0.00e+00	0	38	0	0	50	4635
2026-01-23 00:05:40.92	210.27	22.61	-39.9	-41.6	19.6	0.00e+00	0	38	0	0	50	4641
2026-01-23 00:05:41.78	210.24	22.48	-39.7	-41.4	19.8	0.00e+00	0	38	0	0	50	4542
2026-01-23 00:05:42.92	210.20	22.32	-39.6	-41.3	19.9	0.00e+00	0	38	0	0	50	4460
2026-01-23 00:05:43.77	210.16	22.20	-39.6	-41.3	19.9	0.00e+00	0	38	0	0	50	4489
2026-01-23 00:05:44.90	210.12	22.04	-39.6	-41.3	19.9	0.00e+00	0	38	0	0	50	4460
2026-01-23 00:05:45.76	210.09	21.92	-39.4	-41.1	20.0	0.00e+00	0	38	0	0	50	4380
2026-01-23 00:05:46.89	210.04	21.76	-39.3	-41.1	20.1	0.00e+00	0	38	0	0	50	4341
2026-01-23 00:05:47.75	210.01	21.64	-39.4	-41.1	19.9	0.00e+00	0	38	0	0	50	4377
2026-01-23 00:05:48.88	209.97	21.48	-39.4	-41.1	19.9	0.00e+00	0	38	0	0	50	4382
2026-01-23 00:05:49.74	209.94	21.36	-39.4	-41.1	20.0	0.00e+00	0	38	0	0	50	4363
2026-01-23 00:05:50.87	209.90	21.21	-39.4	-41.1	19.9	0.00e+00	0	38	0	0	50	4372
2026-01-23 00:05:51.73	209.87	21.09	-39.4	-41.2	19.9	0.00e+00	0	38	0	0	50	4402
2026-01-23 00:05:52.86	209.83	20.94	-39.5	-41.2	19.8	0.00e+00	0	38	0	0	50	4434
2026-01-23 00:05:53.71	209.80	20.82	-39.5	-41.2	19.9	0.00e+00	0	38	0	0	50	4403
2026-01-23 00:05:54.85	209.76	20.67	-39.4	-41.1	19.9	0.00e+00	0	38	0	0	50	4376
2026-01-23 00:05:55.70	209.73	20.56	-39.4	-41.1	20.0	0.00e+00	0	38	0	0	50	4355
2026-01-23 00:05:56.84	209.69	20.41	-39.3	-41.1	20.0	0.00e+00	0	38	0	0	50	4344
2026-01-23 00:05:57.69	209.66	20.29	-39.3	-41.0	20.1	0.00e+00	0	38	0	0	50	4300
2026-01-23 00:05:58.83	209.62	20.14	-39.2	-40.9	20.1	0.00e+00	0	38	0	0	50	4284
2026-01-23 00:05:59.69	209.59	20.03	-39.2	-40.9	20.1	0.00e+00	0	38	0	0	50	4277
2026-01-23 00:06:00.82	209.56	19.88	-39.3	-41.0	20.0	0.00e+00	0	38	0	0	50	4311
2026-01-23 00:06:01.68	209.53	19.77	-39.3	-41.0	20.0	0.00e+00	0	38	0	0	50	4317
2026-01-23 00:06:02.81	209.49	19.63	-39.3	-41.0	20.0	0.00e+00	0	38	0	0	50	4320
2026-01-23 00:06:03.66	209.47	19.52	-39.4	-41.1	19.9	0.00e+00	0	38	0	0	50	4344
2026-01-23 00:06:04.80	209.43	19.37	-39.3	-41.0	19.9	0.00e+00	0	38	0	0	50	4335
2026-01-23 00:06:05.65	209.40	19.26	-39.4	-41.1	19.8	0.00e+00	0	38	0	0	50	4385
2026-01-23 00:06:06.79	209.37	19.12	-39.5	-41.2	19.8	0.00e+00	0	38	0	0	50	4417
2026-01-23 00:06:07.64	209.34	19.01	-39.5	-41.2	19.8	0.00e+00	0	38	0	0	50	4434
2026-01-23 00:06:08.98	209.30	18.85	-39.6	-41.3	19.7	0.00e+00	0	38	0	0	50	4456
2026-01-23 00:06:09.70	209.28	18.76	-39.6	-41.3	19.7	0.00e+00	0	38	0	0	50	4461
2026-01-23 00:06:10.98	209.24	18.60	-39.6	-41.3	19.7	0.00e+00	0	38	0	0	50	4473
2026-01-23 00:06:11.70	209.22	18.51	-39.6	-41.3	19.7	0.00e+00	0	38	0	0	50	4487
2026-01-23 00:06:13.25	209.17	18.32	-39.7	-41.4	19.6	0.00e+00	0	38	0	0	50	4530
2026-01-23 00:06:13.96	209.15	18.23	-39.7	-41.4	19.6	0.00e+00	0	38	0	0	50	4527
2026-01-23 00:06:15.24	209.11	18.08	-39.7	-41.5	19.6	0.00e+00	0	38	0	0	50	4564
2026-01-23 00:06:15.99	209.09	17.99	-39.8	-41.5	19.5	0.00e+00	0	38	0	0	50	4587
2026-01-23 00:06:17.27	209.06	17.83	-39.8	-41.5	19.5	0.00e+00	0	38	0	0	50	4595
2026-01-23 00:06:17.99	209.04	17.75	-39.9	-41.6	19.4	0.00e+00	0	38	0	0	50	4638
2026-01-23 00:06:19.26	209.00	17.60	-40.0	-41.8	19.3	0.00e+00	0	38	0	0	50	4706
2026-01-23 00:06:19.98	208.98	17.51	-40.0	-41.7	19.4	0.00e+00	0	38	0	0	50	4689
2026-01-23 00:06:21.25	208.95	17.36	-40.0	-41.8	19.3	0.00e+00	0	38	0	0	50	4706
2026-01-23 00:06:21.96	208.93	17.28	-40.0	-41.7	19.4	0.00e+00	0	38	0	0	50	4698
2026-01-23 00:06:23.24	208.89	17.13	-40.0	-41.8	19.3	0.00e+00	0	38	0	0	50	4716
2026-01-23 00:06:23.97	208.87	17.05	-40.1	-41.8	19.2	0.00e+00	0	38	0	0	50	4750
2026-01-23 00:06:25.25	208.84	16.90	-40.1	-41.8	19.3	0.00e+00	0	38	0	0	50	4754
2026-01-23 00:06:25.97	208.82	16.81	-40.1	-41.9	19.2	0.00e+00	0	38	0	0	50	4769
2026-01-23 00:06:27.25	208.79	16.67	-40.2	-42.0	19.2	0.00e+00	0	38	0	0	50	4815
2026-01-23 00:06:27.99	208.77	16.58	-40.3	-42.1	19.1	0.00e+00	0	38	0	0	51	4619
2026-01-23 00:06:29.27	208.73	16.44	-40.3	-42.1	19.1	0.00e+00	0	38	0	0	51	4605
2026-01-23 00:06:30.18	208.71	16.34	-40.3	-42.1	19.1	0.00e+00	0	38	0	0	51	4616
2026-01-23 00:06:31.48	208.68	16.19	-40.2	-42.0	19.1	0.00e+00	0	38	0	0	51	4577
2026-01-23 00:06:32.19	208.66	16.11	-40.2	-42.0	19.2	0.00e+00	0	38	0	0	51	4547
2026-01-23 00:06:33.47	208.63	15.97	-40.1	-41.9	19.2	0.00e+00	0	38	0	0	51	4537
2026-01-23 00:06:34.30	208.61	15.88	-40.1	-41.9	19.2	0.00e+00	0	38	0	0	51	4526
2026-01-23 00:06:35.44	208.58	15.75	-40.2	-42.0	19.1	0.00e+00	0	38	0	0	51	4571
2026-01-23 00:06:36.30	208.56	15.66	-40.2	-42.0	19.1	0.00e+00	0	38	0	0	51	4593
2026-01-23 00:06:37.43	208.53	15.53	-40.2	-42.0	19.1	0.00e+00	0	38	0	0	51	4573
2026-01-23 00:06:38.28	208.51	15.44	-40.3	-42.1	19.0	0.00e+00	0	38	0	0	51	4622
2026-01-23 00:06:39.42	208.48	15.32	-40.3	-42.1	19.1	0.00e+00	0	38	0	0	51	4616
2026-01-23 00:06:40.27	208.46	15.23	-40.3	-42.1	19.0	0.00e+00	0	38	0	0	51	4622
2026-01-23 00:06:41.41	208.44	15.10	-40.4	-42.2	18.9	0.00e+00	0	38	0	0	51	4684
2026-01-23 00:06:42.26	208.42	15.01	-40.4	-42.2	18.9	0.00e+00	0	38	0	0	51	4701
2026-01-23 00:06:43.40	208.39	14.89	-40.4	-42.2	19.0	0.00e+00	0	38	0	0	51	4667
2026-01-23 00:06:44.25	208.37	14.80	-40.4	-42.2	19.0	0.00e+00	0	38	0	0	51	4669
2026-01-23 00:06:45.39	208.35	14.68	-40.4	-42.3	18.9	0.00e+00	0	38	0	0	51	4712
2026-01-23 00:06:46.24	208.33	14.59	-40.4	-42.2	18.9	0.00e+00	0	38	0	0	51	4686
2026-01-23 00:06:47.49	208.30	14.46	-40.5	-42.4	18.8	0.00e+00	0	38	0	0	51	4786
2026-01-23 00:06:48.34	208.28	14.37	-40.5	-42.4	18.8	0.00e+00	0	38	0	0	51	4761
2026-01-23 00:06:49.48	208.26	14.25	-40.5	-42.3	18.8	0.00e+00	0	38	0	0	51	4755
2026-01-23 00:06:50.33	208.24	14.17	-40.5	-42.4	18.7	0.00e+00	0	38	0	0	51	4774
2026-01-23 00:06:51.47	208.21	14.05	-40.5	-42.4	18.7	0.00e+00	0	38	0	0	51	4774
2026-01-23 00:06:52.32	208.20	13.96	-40.6	-42.5	18.7	0.00e+00	0	38	0	0	51	4821
2026-01-23 00:06:53.46	208.17	13.85	-40.6	-42.5	18.5	0.00e+00	0	38	0	0	52	4579
2026-01-23 00:06:54.31	208.15	13.76	-40.6	-42.5	18.6	0.00e+00	0	38	0	0	52	4546
2026-01-23 00:06:55.44	208.13	13.64	-40.5	-42.4	18.7	0.00e+00	0	38	0	0	52	4501
2026-01-23 00:06:56.30	208.11	13.56	-40.5	-42.4	18.6	0.00e+00	0	38	0	0	52	4523
2026-01-23 00:06:57.43	208.09	13.44	-40.4	-42.3	18.7	0.00e+00	0	38	0	0	52	4463
2026-01-23 00:06:58.28	208.07	13.36	-40.5	-42.4	18.6	0.00e+00	0	38	0	0	52	4521
2026-01-23 00:06:59.42	208.05	13.25	-40.5	-42.4	18.5	0.00e+00	0	38	0	0	52	4534
2026-01-23 00:07:00.27	208.03	13.16	-40.6	-42.4	18.6	0.00e+00	0	38	0	0	52	4542
2026-01-23 00:07:01.41	208.01	13.05	-40.5	-42.4	18.6	0.00e+00	0	38	0	0	52	4500
2026-01-23 00:07:02.26	207.99	12.97	-40.6	-42.5	18.5	0.00e+00	0	38	0	0	52	4567
2026-01-23 00:07:03.40	207.97	12.85	-40.5	-42.3	18.6	0.00e+00	0	38	0	0	52	4478
2026-01-23 00:07:04.25	207.95	12.77	-40.5	-42.3	18.6	0.00e+00	0	38	0	0	52	4492
2026-01-23 00:07:05.39	207.93	12.66	-40.5	-42.4	18.5	0.00e+00	0	38	0	0	52	4512
2026-01-23 00:07:06.24	207.91	12.58	-40.5	-42.4	18.5	0.00e+00	0	38	0	0	52	4512
2026-01-23 00:07:07.38	207.89	12.47	-40.5	-42.4	18.5	0.00e+00	0	38	0	0	52	4533
2026-01-23 00:07:08.23	207.88	12.39	-40.6	-42.5	18.4	0.00e+00	0	38	0	0	52	4551
2026-01-23 00:07:09.37	207.86	12.28	-40.6	-42.4	18.4	0.00e+00	0	38	0	0	52	4543
2026-01-23 00:07:10.22	207.84	12.20	-40.6	-42.5	18.4	0.00e+00	0	38	0	0	52	4550
2026-01-23 00:07:11.36	207.82	12.09	-40.5	-42.4	18.4	0.00e+00	0	38	0	0	52	4538
2026-01-23 00:07:12.21	207.80	12.01	-40.5	-42.4	18.4	0.00e+00	0	38	0	0	52	4540
2026-01-23 00:07:13.35	207.78	11.90	-40.6	-42.5	18.3	0.00e+00	0	38	0	0	52	4596
2026-01-23 00:07:14.21	207.77	11.82	-40.7	-42.6	18.3	0.00e+00	0	38	0	0	52	4616
2026-01-23 00:07:15.71	207.74	11.68	-40.7	-42.6	18.2	0.00e+00	0	38	0	0	52	4637
2026-01-23 00:07:16.42	207.73	11.61	-40.7	-42.6	18.2	0.00e+00	0	38	0	0	52	4633
2026-01-23 00:07:17.70	207.70	11.49	-40.7	-42.6	18.2	0.00e+00	0	38	0	0	52	4629
2026-01-23 00:07:18.42	207.69	11.43	-40.7	-42.6	18.2	0.00e+00	0	38	0	0	52	4643
2026-01-23 00:07:19.70	207.67	11.31	-40.6	-42.5	18.3	0.00e+00	0	38	0	0	52	4591
2026-01-23 00:07:20.43	207.66	11.24	-40.7	-42.6	18.2	0.00e+00	0	38	0	0	52	4627
2026-01-23 00:07:21.71	207.63	11.13	-40.7	-42.6	18.2	0.00e+00	0	38	0	0	52	4625
2026-01-23 00:07:22.42	207.62	11.06	-40.6	-42.6	18.2	0.00e+00	0	38	0	0	52	4599
2026-01-23 00:07:23.70	207.60	10.95	-40.7	-42.7	18.1	0.00e+00	0	38	0	0	52	4660
2026-01-23 00:07:24.41	207.59	10.88	-40.8	-42.7	18.1	0.00e+00	0	38	0	0	52	4693
2026-01-23 00:07:25.69	207.57	10.77	-40.7	-42.7	18.1	0.00e+00	0	38	0	0	52	4654
2026-01-23 00:07:26.61	207.55	10.68	-40.7	-42.7	18.1	0.00e+00	0	38	0	0	52	4655
2026-01-23 00:07:27.60	207.54	10.60	-40.7	-42.7	18.1	0.00e+00	0	38	0	0	52	4659
2026-01-23 00:07:28.94	207.51	10.48	-40.7	-42.6	18.1	0.00e+00	0	38	0	0	52	4620
2026-01-23 00:07:29.68	207.50	10.41	-40.7	-42.7	18.1	0.00e+00	0	38	0	0	52	4655
2026-01-23 00:07:31.28	207.48	10.27	-40.8	-42.7	18.0	0.00e+00	0	38	0	0	52	4689
2026-01-23 00:07:31.86	207.47	10.22	-40.8	-42.8	17.9	0.00e+00	0	38	0	0	52	4733
2026-01-23 00:07:33.43	207.44	10.08	-40.8	-42.7	18.0	0.00e+00	0	38	0	0	52	4704
2026-01-23 00:07:34.06	207.43	10.03	-40.8	-42.8	18.0	0.00e+00	0	38	0	0	52	4712
2026-01-23 00:07:35.57	207.41	9.89	-40.8	-42.7	18.0	0.00e+00	0	38	0	0	52	4687
2026-01-23 00:07:36.28	207.40	9.83	-40.7	-42.7	18.0	0.00e+00	0	38	0	0	52	4665
2026-01-23 00:07:37.56	207.38	9.72	-40.8	-42.7	18.0	0.00e+00	0	38	0	0	52	4699
2026-01-23 00:07:38.27	207.37	9.66	-40.9	-42.8	17.9	0.00e+00	0	38	0	0	52	4759
2026-01-23 00:07:39.55	207.35	9.55	-40.8	-42.8	17.9	0.00e+00	0	38	0	0	52	4728
2026-01-23 00:07:40.26	207.34	9.49	-40.9	-42.9	17.8	0.00e+00	0	38	0	0	52	4802
2026-01-23 00:07:41.59	207.32	9.38	-40.9	-42.8	17.8	0.00e+00	0	38	0	0	52	4757
2026-01-23 00:07:42.30	207.31	9.32	-40.9	-42.8	17.8	0.00e+00	0	38	0	0	52	4747
2026-01-23 00:07:43.69	207.29	9.20	-40.9	-42.9	17.8	0.00e+00	0	38	0	0	52	4763
2026-01-23 00:07:44.40	207.28	9.14	-40.9	-42.9	17.8	0.00e+00	0	38	0	0	52	4767
2026-01-23 00:07:45.68	207.26	9.03	-40.9	-42.9	17.7	0.00e+00	0	38	0	0	52	4801
2026-01-23 00:07:46.40	207.25	8.97	-41.2	-43.3	17.4	0.00e+00	0	38	0	0	53	4716
2026-01-23 00:07:47.68	207.23	8.87	-49.5	-62.4	3.8	1.49e+00	0	38	104	0	69	16896
2026-01-23 00:07:48.39	207.22	8.81	-49.6	-62.6	3.8	1.49e+00	0	38	104	0	69	17434
2026-01-23 00:07:49.67	207.20	8.70	-49.7	-62.8	3.8	1.49e+00	0	38	104	0	70	16795
2026-01-23 00:07:50.38	207.19	8.64	-49.7	-62.9	3.8	1.49e+00	0	38	104	0	70	16997
2026-01-23 00:07:51.66	207.17	8.54	-49.8	-63.0	3.8	1.49e+00	0	38	104	0	70	17138
2026-01-23 00:07:52.38	207.16	8.48	-49.9	-63.0	3.8	1.49e+00	0	38	104	0	70	17175
2026-01-23 00:07:53.66	207.15	8.37	-49.9	-63.0	3.8	1.49e+00	0	38	104	0	70	17213
2026-01-23 00:07:54.38	207.14	8.31	-50.0	-63.0	3.8	1.49e+00	0	38	104	0	70	17252
2026-01-23 00:07:55.66	207.12	8.21	-50.0	-63.0	3.8	1.49e+00	0	38	104	0	70	17219
2026-01-23 00:07:56.37	207.11	8.15	-50.1	-63.0	3.8	1.49e+00	0	38	104	0	70	17209
2026-01-23 00:07:57.69	207.09	8.05	-50.0	-63.0	3.8	1.49e+00	0	38	104	0	70	17255
2026-01-23 00:07:58.40	207.08	7.99	-49.9	-63.0	3.8	1.49e+00	0	38	104	0	70	17265
2026-01-23 00:07:59.73	207.06	7.88	-50.0	-63.0	3.8	1.49e+00	0	38	104	0	70	17250
2026-01-23 00:08:00.44	207.05	7.83	-50.1	-63.0	3.8	1.49e+00	0	38	104	0	70	17216
2026-01-23 00:08:01.79	207.04	7.72	-49.6	-63.0	3.8	1.49e+00	0	38	104	0	70	17249
2026-01-23 00:08:02.50	207.03	7.66	-49.9	-63.0	3.8	1.49e+00	0	38	104	0	70	17195
2026-01-23 00:08:03.86	207.01	7.55	-50.0	-63.0	3.8	1.49e+00	0	38	104	0	70	17170
2026-01-23 00:08:04.57	207.00	7.50	-49.7	-63.0	3.8	1.49e+00	0	38	104	0	70	17178
2026-01-23 00:08:05.85	206.98	7.40	-49.7	-63.0	3.8	1.49e+00	0	38	104	0	70	17191
2026-01-23 00:08:06.56	206.98	7.34	-49.6	-63.0	3.8	1.49e+00	0	38	104	0	70	17156
2026-01-23 00:08:07.84	206.96	7.24	-49.8	-63.0	3.8	1.49e+00	0	38	104	0	70	17084
2026-01-23 00:08:08.56	206.95	7.19	-49.8	-63.0	3.8	1.49e+00	0	38	104	0	70	17136
2026-01-23 00:08:09.84	206.93	7.09	-49.7	-62.9	3.8	1.49e+00	0	38	104	0	70	17010
2026-01-23 00:08:10.55	206.93	7.03	-49.7	-62.9	3.8	1.49e+00	0	38	104	0	70	17048
2026-01-23 00:08:11.84	206.91	6.93	-49.8	-62.9	3.8	1.49e+00	0	38	104	0	70	17022
2026-01-23 00:08:12.55	206.90	6.88	-49.7	-62.9	3.8	1.49e+00	0	38	104	0	70	17075
2026-01-23 00:08:13.83	206.89	6.78	-49.7	-62.9	3.8	1.49e+00	0	38	104	0	70	17022
2026-01-23 00:08:14.54	206.88	6.72	-49.7	-62.9	3.8	1.49e+00	0	38	104	0	70	16984
2026-01-23 00:08:15.82	206.86	6.63	-49.7	-62.9	3.8	1.49e+00	0	38	104	0	70	17014
2026-01-23 00:08:16.53	206.85	6.57	-49.7	-62.9	3.8	1.49e+00	0	38	104	0	70	17016
2026-01-23 00:08:17.80	206.84	6.48	-49.7	-62.9	3.8	1.49e+00	0	38	104	0	70	16983
2026-01-23 00:08:18.51	206.83	6.42	-49.7	-62.9	3.8	1.49e+00	0	38	104	0	70	17053
2026-01-23 00:08:19.79	206.82	6.33	-49.7	-62.9	3.8	1.49e+00	0	38	104	0	70	16989
2026-01-23 00:08:20.50	206.81	6.27	-49.7	-62.9	3.8	1.49e+00	0	38	104	0	70	16955
2026-01-23 00:08:21.78	206.79	6.18	-49.7	-62.9	3.8	1.49e+00	0	38	104	0	70	16944
2026-01-23 00:08:22.49	206.78	6.12	-49.7	-62.9	3.8	1.49e+00	0	38	104	0	70	16943
2026-01-23 00:08:23.76	206.77	6.03	-49.7	-62.9	3.8	1.49e+00	0	38	104	0	70	16965
2026-01-23 00:08:24.47	206.76	5.98	-49.7	-62.9	3.8	1.49e+00	0	38	104	0	70	17039
2026-01-23 00:08:25.75	206.75	5.88	-49.7	-62.9	3.8	1.49e+00	0	38	104	0	70	16969
2026-01-23 00:08:26.46	206.74	5.83	-49.7	-62.9	3.8	1.49e+00	0	38	104	0	70	16938
2026-01-23 00:08:27.74	206.73	5.73	-49.7	-62.9	3.8	1.49e+00	0	38	104	0	70	17013
2026-01-23 00:08:28.45	206.72	5.68	-49.7	-62.9	3.8	1.49e+00	0	38	104	0	70	16977
