passes_logs/2026/01/22/T1/T1__20260122_010504_NOAA_20_JPSS-1_rec.log

#Pass ID: 20260122_010504_NOAA 20 (JPSS-1)
#Satellite: NOAA 20 (JPSS-1)
#Configuration: NOAA 20
#almurnet v.1.7.20251203
#Start time: 2026-01-22 01:05:06

#Version: 2.0.20230620
#Station: T1
#Location: 37.570604 lon 55.790049 lat
#TLE: 1 43013U 17073A   26021.46221703  .00000173  00000+0  10299-3 0  9999
#TLE: 2 43013  98.7644 322.3335 0001238  29.7597 330.3649 14.19538314423652

#Time	Az	El	Level	Level2	SNR	BER	BlckErr	Temp	State	Recorded	gain1	gain2
2026-01-22 01:05:06.05	8.04	5.09	-48.9	-65.6	3.8	1.49e+00	0	35	0	0	69	24586
2026-01-22 01:05:07.04	7.97	5.15	-49.8	-65.5	3.8	1.49e+00	0	35	104	0	71	21542
2026-01-22 01:05:08.03	7.91	5.22	-49.8	-65.5	3.8	1.49e+00	0	36	104	0	71	21641
2026-01-22 01:05:09.03	7.84	5.28	-49.7	-65.5	3.8	1.49e+00	0	36	104	0	71	21661
2026-01-22 01:05:10.02	7.77	5.35	-49.7	-65.5	3.8	1.49e+00	0	35	104	0	71	21607
2026-01-22 01:05:11.01	7.70	5.41	-49.8	-65.5	3.8	1.49e+00	0	36	104	0	71	21657
2026-01-22 01:05:12.01	7.63	5.47	-49.7	-65.5	3.8	1.49e+00	0	36	104	0	71	21618
2026-01-22 01:05:13.00	7.56	5.54	-49.7	-65.5	3.8	1.49e+00	0	35	104	0	71	21719
2026-01-22 01:05:13.99	7.50	5.60	-49.7	-65.5	3.8	1.49e+00	0	36	104	0	71	21728
2026-01-22 01:05:14.99	7.43	5.67	-49.7	-65.5	3.8	1.49e+00	0	36	104	0	71	21584
2026-01-22 01:05:15.98	7.36	5.73	-49.7	-65.5	3.8	1.49e+00	0	36	104	0	71	21706
2026-01-22 01:05:16.97	7.29	5.80	-49.7	-65.5	3.8	1.49e+00	0	36	104	0	71	21636
2026-01-22 01:05:17.97	7.22	5.86	-49.8	-65.5	3.8	1.49e+00	0	36	104	0	71	21579
2026-01-22 01:05:18.96	7.15	5.93	-49.7	-65.5	3.8	1.49e+00	0	36	104	0	71	21515
2026-01-22 01:05:19.95	7.07	5.99	-49.7	-65.5	3.8	1.49e+00	0	36	104	0	71	21585
2026-01-22 01:05:20.95	7.00	6.06	-49.7	-65.5	3.8	1.49e+00	0	36	104	0	71	21508
2026-01-22 01:05:21.94	6.93	6.12	-49.7	-65.5	3.8	1.49e+00	0	36	104	0	71	21546
2026-01-22 01:05:22.93	6.86	6.19	-49.8	-65.4	3.8	1.49e+00	0	36	104	0	71	21431
2026-01-22 01:05:23.93	6.79	6.25	-49.7	-65.5	3.8	1.49e+00	0	36	104	0	71	21596
2026-01-22 01:05:24.92	6.71	6.32	-49.7	-65.5	3.8	1.49e+00	0	36	104	0	71	21579
2026-01-22 01:05:25.91	6.64	6.38	-49.7	-65.5	3.8	1.49e+00	0	36	104	0	71	21653
2026-01-22 01:05:26.91	6.57	6.45	-49.7	-65.5	3.8	1.49e+00	0	36	104	0	71	21558
2026-01-22 01:05:27.90	6.49	6.52	-49.7	-65.5	3.8	1.49e+00	0	36	104	0	71	21573
2026-01-22 01:05:28.89	6.42	6.58	-49.7	-65.5	3.8	1.49e+00	0	36	104	0	71	21579
2026-01-22 01:05:29.89	6.34	6.65	-49.7	-65.5	3.8	1.49e+00	0	36	104	0	71	21527
2026-01-22 01:05:30.88	6.27	6.71	-49.7	-65.5	3.8	1.49e+00	0	36	104	0	71	21553
2026-01-22 01:05:31.87	6.20	6.78	-49.7	-65.4	3.8	1.49e+00	0	36	104	0	71	21505
2026-01-22 01:05:32.87	6.12	6.85	-49.7	-65.4	3.8	1.49e+00	0	36	104	0	71	21350
2026-01-22 01:05:33.86	6.04	6.91	-49.7	-65.4	3.8	1.49e+00	0	36	104	0	71	21381
2026-01-22 01:05:34.85	5.97	6.98	-49.7	-65.3	3.8	1.49e+00	0	36	104	0	71	21155
2026-01-22 01:05:35.84	5.89	7.05	-49.7	-65.3	3.8	1.49e+00	0	37	104	0	71	21025
2026-01-22 01:05:36.84	5.81	7.12	-49.7	-65.2	3.8	1.49e+00	0	36	104	0	71	20785
2026-01-22 01:05:37.83	5.74	7.18	-49.7	-65.0	3.8	1.49e+00	0	36	104	0	71	20485
2026-01-22 01:05:38.82	5.66	7.25	-49.7	-64.8	3.8	1.49e+00	0	36	104	0	71	19845
2026-01-22 01:05:39.81	5.58	7.32	-49.7	-64.5	3.8	1.49e+00	0	37	104	0	71	19322
2026-01-22 01:05:40.81	5.50	7.38	-49.6	-64.2	3.8	1.49e+00	0	36	104	0	71	18518
2026-01-22 01:05:41.80	5.42	7.45	-49.7	-63.9	3.8	1.49e+00	0	37	104	0	71	18049
2026-01-22 01:05:42.79	5.34	7.52	-49.6	-63.9	3.8	1.49e+00	0	37	104	0	71	17899
2026-01-22 01:05:43.79	5.26	7.59	-49.6	-63.7	3.8	1.49e+00	0	37	104	0	71	17632
2026-01-22 01:05:44.78	5.18	7.66	-49.7	-63.9	3.8	1.49e+00	0	37	104	0	71	17924
2026-01-22 01:05:45.77	5.10	7.72	-49.6	-64.1	3.8	1.49e+00	0	37	104	0	71	18311
2026-01-22 01:05:46.77	5.02	7.79	-49.7	-64.4	3.8	1.49e+00	0	37	104	0	71	19034
2026-01-22 01:05:47.76	4.94	7.86	-49.7	-64.7	3.8	1.49e+00	0	37	104	0	71	19826
2026-01-22 01:05:48.75	4.86	7.93	-49.7	-65.0	3.8	1.49e+00	0	37	104	0	71	20426
2026-01-22 01:05:49.75	4.78	8.00	-49.7	-65.2	3.8	1.49e+00	0	37	104	0	71	21003
2026-01-22 01:05:50.74	4.69	8.07	-49.7	-65.4	3.8	1.49e+00	0	37	104	0	71	21426
2026-01-22 01:05:51.73	4.61	8.14	-49.7	-65.4	3.8	1.49e+00	0	37	104	0	71	21370
2026-01-22 01:05:52.73	4.53	8.21	-49.7	-64.8	3.8	1.49e+00	0	37	104	0	71	20025
2026-01-22 01:05:53.72	4.44	8.28	-49.6	-63.2	3.8	1.49e+00	0	37	104	0	71	16529
2026-01-22 01:05:54.71	4.36	8.34	-49.4	-60.7	4.6	1.33e+00	0	37	0	0	70	13171
2026-01-22 01:05:55.71	4.28	8.41	-49.1	-58.3	6.1	5.77e-01	0	37	0	2097152	70	9974
2026-01-22 01:05:56.70	4.19	8.48	-48.7	-56.4	7.7	2.04e-01	0	37	0	3145728	69	8507
2026-01-22 01:05:57.69	4.11	8.55	-48.3	-54.8	9.3	2.81e-02	0	37	0	5242880	68	7521
2026-01-22 01:05:58.69	4.02	8.62	-47.7	-53.4	10.6	6.75e-03	0	37	0	7340032	67	6760
2026-01-22 01:05:59.68	3.93	8.69	-47.3	-52.5	11.5	1.57e-03	0	37	0	9437184	66	6457
2026-01-22 01:06:00.67	3.85	8.76	-46.9	-51.6	12.4	5.09e-04	0	37	0	11534336	65	6195
2026-01-22 01:06:01.67	3.76	8.84	-46.9	-51.7	12.3	1.79e-04	0	37	0	12582912	65	6260
2026-01-22 01:06:02.66	3.67	8.91	-46.9	-51.7	12.4	1.45e-04	0	37	0	14680064	65	6209
2026-01-22 01:06:03.65	3.58	8.98	-47.2	-52.2	11.9	2.04e-04	0	37	0	16777216	65	6588
2026-01-22 01:06:04.65	3.50	9.05	-47.1	-52.2	11.8	4.59e-04	0	37	0	18874368	65	6624
2026-01-22 01:06:05.65	3.41	9.12	-48.6	-56.0	8.2	3.41e-03	0	37	0	20971520	67	9073
2026-01-22 01:06:06.64	3.32	9.19	-46.3	-51.0	12.9	2.61e-01	0	37	0	22020096	64	6104
2026-01-22 01:06:07.63	3.23	9.26	-45.1	-49.2	14.9	7.60e-06	0	37	0	24117248	62	5560
2026-01-22 01:06:08.64	3.14	9.33	-46.2	-51.4	12.9	0.00e+00	0	37	0	26214400	63	6763
2026-01-22 01:06:09.68	3.04	9.41	-45.4	-49.6	14.4	2.35e-02	0	37	0	28311552	62	5843
2026-01-22 01:06:10.65	2.95	9.48	-45.2	-49.1	15.1	0.00e+00	0	37	0	29360128	62	5491
2026-01-22 01:06:11.64	2.86	9.55	-45.3	-49.1	15.1	7.00e-07	0	37	0	31457280	62	5519
2026-01-22 01:06:12.74	2.76	9.63	-45.3	-49.1	15.1	0.00e+00	0	37	0	33554432	62	5476
2026-01-22 01:06:13.63	2.67	9.69	-45.3	-49.0	15.2	0.00e+00	0	37	0	35651584	62	5438
2026-01-22 01:06:14.77	2.57	9.78	-45.2	-49.0	15.1	0.00e+00	0	37	0	37748736	62	5456
2026-01-22 01:06:15.68	2.48	9.84	-45.1	-49.0	15.2	0.00e+00	0	37	0	38797312	62	5416
2026-01-22 01:06:16.85	2.37	9.93	-45.2	-48.9	15.3	0.00e+00	0	37	0	41943040	62	5374
2026-01-22 01:06:17.74	2.29	9.99	-45.2	-48.9	15.3	0.00e+00	0	37	0	42991616	62	5363
2026-01-22 01:06:18.87	2.18	10.07	-45.2	-48.8	15.4	0.00e+00	0	37	0	45088768	62	5333
2026-01-22 01:06:19.73	2.10	10.14	-45.2	-48.8	15.4	0.00e+00	0	37	0	47185920	62	5300
2026-01-22 01:06:20.87	1.98	10.22	-45.0	-48.6	15.6	0.00e+00	0	37	0	49283072	62	5197
2026-01-22 01:06:21.86	1.89	10.29	-45.0	-48.6	15.6	0.00e+00	0	37	0	51380224	62	5177
2026-01-22 01:06:22.86	1.79	10.37	-45.0	-48.5	15.7	0.00e+00	0	37	0	52428800	62	5153
2026-01-22 01:06:23.85	1.69	10.44	-45.1	-48.6	15.6	0.00e+00	0	37	0	54525952	62	5186
2026-01-22 01:06:24.85	1.59	10.51	-45.2	-48.7	15.6	0.00e+00	0	37	0	56623104	62	5229
2026-01-22 01:06:25.84	1.50	10.59	-45.0	-48.5	15.8	0.00e+00	0	37	0	58720256	62	5105
2026-01-22 01:06:26.83	1.40	10.66	-45.0	-48.5	15.7	0.00e+00	0	37	0	59768832	61	5428
2026-01-22 01:06:27.83	1.30	10.74	-44.9	-48.4	15.8	0.00e+00	0	37	0	61865984	61	5375
2026-01-22 01:06:28.82	1.20	10.81	-45.1	-48.5	15.7	0.00e+00	0	37	0	63963136	61	5451
2026-01-22 01:06:29.82	1.10	10.88	-45.1	-48.5	15.7	0.00e+00	0	37	0	66060288	61	5440
2026-01-22 01:06:30.81	0.99	10.96	-45.1	-48.5	15.7	0.00e+00	0	37	0	68157440	61	5419
2026-01-22 01:06:31.81	0.89	11.03	-45.1	-48.6	15.7	0.00e+00	0	37	0	69206016	61	5500
2026-01-22 01:06:32.83	0.79	11.11	-45.1	-48.5	15.7	0.00e+00	0	37	0	71303168	61	5445
2026-01-22 01:06:33.86	0.68	11.19	-45.1	-48.5	15.7	0.00e+00	0	37	0	73400320	61	5452
2026-01-22 01:06:34.85	0.58	11.26	-45.2	-48.6	15.6	0.00e+00	0	37	0	75497472	61	5523
2026-01-22 01:06:35.85	0.47	11.34	-45.1	-48.6	15.7	0.00e+00	0	37	0	77594624	61	5476
2026-01-22 01:06:36.94	0.36	11.42	-45.1	-48.7	15.6	0.00e+00	0	37	0	78643200	61	5555
2026-01-22 01:06:37.82	0.26	11.49	-45.1	-48.6	15.7	0.00e+00	0	37	0	80740352	61	5471
2026-01-22 01:06:38.95	0.14	11.57	-45.1	-48.5	15.8	0.00e+00	0	37	0	82837504	61	5436
2026-01-22 01:06:39.81	0.05	11.64	-45.1	-48.6	15.7	0.00e+00	0	37	0	84934656	61	5498
2026-01-22 01:06:40.94	359.93	11.72	-45.1	-48.6	15.6	0.00e+00	0	37	0	87031808	61	5527
2026-01-22 01:06:41.80	359.84	11.79	-45.2	-48.7	15.5	0.00e+00	0	37	0	88080384	61	5583
2026-01-22 01:06:42.93	359.71	11.88	-45.0	-48.6	15.7	0.00e+00	0	37	0	90177536	61	5513
2026-01-22 01:06:43.78	359.62	11.94	-45.1	-48.7	15.6	0.00e+00	0	37	0	92274688	61	5556
2026-01-22 01:06:44.92	359.49	12.03	-45.1	-48.7	15.6	0.00e+00	0	37	0	94371840	61	5539
2026-01-22 01:06:45.77	359.40	12.09	-45.0	-48.5	15.8	0.00e+00	0	38	0	95420416	61	5403
2026-01-22 01:06:46.91	359.27	12.18	-45.1	-48.6	15.7	0.00e+00	0	37	0	97517568	61	5482
2026-01-22 01:06:47.76	359.18	12.25	-45.1	-48.6	15.7	0.00e+00	0	37	0	99614720	61	5507
2026-01-22 01:06:48.98	359.04	12.34	-45.2	-48.7	15.6	0.00e+00	0	37	0	101711872	61	5536
2026-01-22 01:06:49.83	358.95	12.41	-45.2	-48.6	15.7	0.00e+00	0	37	0	103809024	61	5504
2026-01-22 01:06:51.03	358.81	12.50	-45.1	-48.5	15.8	0.00e+00	0	37	0	105906176	61	5440
2026-01-22 01:06:51.88	358.71	12.57	-45.1	-48.6	15.8	0.00e+00	0	37	0	106954752	61	5468
2026-01-22 01:06:53.02	358.58	12.66	-45.2	-48.6	15.7	0.00e+00	0	37	0	109051904	61	5487
2026-01-22 01:06:53.87	358.48	12.72	-45.2	-48.6	15.8	0.00e+00	0	38	0	111149056	61	5478
2026-01-22 01:06:55.01	358.35	12.81	-45.2	-48.6	15.7	0.00e+00	0	38	0	113246208	61	5511
2026-01-22 01:06:55.86	358.25	12.88	-45.3	-48.8	15.6	0.00e+00	0	37	0	114294784	61	5601
2026-01-22 01:06:57.21	358.09	12.98	-45.2	-48.6	15.7	0.00e+00	0	37	0	117440512	61	5517
2026-01-22 01:06:57.92	358.01	13.04	-45.3	-48.6	15.7	0.00e+00	0	37	0	118489088	61	5521
2026-01-22 01:06:59.20	357.86	13.14	-45.3	-48.7	15.7	0.00e+00	0	37	0	120586240	61	5534
2026-01-22 01:06:59.92	357.77	13.20	-45.3	-48.7	15.6	0.00e+00	0	37	0	122683392	61	5579
2026-01-22 01:07:01.20	357.62	13.30	-45.4	-48.8	15.5	0.00e+00	0	37	0	124780544	61	5644
2026-01-22 01:07:02.02	357.52	13.36	-45.4	-48.8	15.5	0.00e+00	0	37	0	125829120	61	5644
2026-01-22 01:07:03.16	357.38	13.45	-45.4	-48.8	15.6	0.00e+00	0	37	0	127926272	61	5603
2026-01-22 01:07:04.01	357.28	13.52	-45.4	-48.8	15.5	0.00e+00	0	37	0	130023424	61	5626
2026-01-22 01:07:05.15	357.14	13.61	-45.4	-48.7	15.6	0.00e+00	0	37	0	132120576	61	5570
2026-01-22 01:07:06.00	357.03	13.68	-45.4	-48.8	15.6	0.00e+00	0	37	0	133169152	61	5596
2026-01-22 01:07:07.13	356.89	13.77	-45.4	-48.7	15.7	0.00e+00	0	38	0	135266304	61	5555
2026-01-22 01:07:07.99	356.78	13.84	-45.4	-48.7	15.7	0.00e+00	0	38	0	137363456	61	5532
2026-01-22 01:07:09.12	356.64	13.93	-45.4	-48.6	15.7	0.00e+00	0	37	0	139460608	61	5522
2026-01-22 01:07:09.98	356.53	13.99	-45.3	-48.5	15.8	0.00e+00	0	37	0	141557760	61	5452
2026-01-22 01:07:11.11	356.39	14.09	-45.2	-48.5	15.9	0.00e+00	0	37	0	143654912	61	5460
2026-01-22 01:07:11.97	356.28	14.15	-45.1	-48.4	15.9	0.00e+00	0	37	0	144703488	61	5396
2026-01-22 01:07:13.10	356.14	14.24	-45.1	-48.4	15.9	0.00e+00	0	38	0	146800640	61	5395
2026-01-22 01:07:13.95	356.03	14.31	-45.1	-48.4	15.9	0.00e+00	0	37	0	148897792	61	5376
2026-01-22 01:07:15.09	355.88	14.41	-44.9	-48.3	16.1	0.00e+00	0	37	0	150994944	61	5286
2026-01-22 01:07:15.94	355.77	14.47	-45.1	-48.5	15.9	0.00e+00	0	38	0	152043520	61	5444
2026-01-22 01:07:17.08	355.62	14.57	-45.1	-48.5	15.9	0.00e+00	0	38	0	154140672	61	5428
2026-01-22 01:07:18.01	355.49	14.64	-45.0	-48.3	16.0	0.00e+00	0	38	0	156237824	61	5334
2026-01-22 01:07:19.00	355.36	14.72	-45.1	-48.4	15.9	0.00e+00	0	38	0	158334976	61	5391
2026-01-22 01:07:20.00	355.23	14.80	-45.0	-48.4	16.0	0.00e+00	0	38	0	159383552	61	5354
2026-01-22 01:07:21.00	355.10	14.88	-45.0	-48.3	16.1	0.00e+00	0	38	0	161480704	61	5336
2026-01-22 01:07:21.99	354.96	14.96	-45.0	-48.3	16.0	0.00e+00	0	37	0	163577856	61	5330
2026-01-22 01:07:22.99	354.83	15.05	-45.0	-48.3	16.1	0.00e+00	0	38	0	165675008	61	5284
2026-01-22 01:07:23.98	354.69	15.13	-45.1	-48.4	16.0	0.00e+00	0	38	0	167772160	61	5400
2026-01-22 01:07:24.98	354.55	15.21	-45.1	-48.4	16.1	0.00e+00	0	38	0	168820736	61	5341
2026-01-22 01:07:25.97	354.42	15.29	-45.1	-48.3	16.1	0.00e+00	0	38	0	170917888	61	5292
2026-01-22 01:07:26.97	354.28	15.37	-45.1	-48.4	16.0	0.00e+00	0	38	0	173015040	61	5366
2026-01-22 01:07:27.97	354.14	15.45	-45.1	-48.3	16.1	0.00e+00	0	38	0	175112192	61	5335
2026-01-22 01:07:28.96	354.00	15.53	-45.1	-48.2	16.2	0.00e+00	0	38	0	177209344	61	5279
2026-01-22 01:07:29.95	353.86	15.62	-45.1	-48.3	16.1	0.00e+00	0	37	0	178257920	61	5333
2026-01-22 01:07:30.98	353.71	15.70	-44.9	-48.0	16.4	0.00e+00	0	38	0	180355072	61	5157
2026-01-22 01:07:31.98	353.57	15.78	-44.9	-48.0	16.4	0.00e+00	0	37	0	182452224	61	5116
2026-01-22 01:07:33.03	353.42	15.87	-44.8	-47.8	16.6	0.00e+00	0	38	0	184549376	61	5035
2026-01-22 01:07:33.92	353.29	15.94	-44.8	-47.9	16.6	0.00e+00	0	37	0	185597952	61	5045
2026-01-22 01:07:35.05	353.13	16.04	-44.7	-47.7	16.7	0.00e+00	0	38	0	187695104	61	4977
2026-01-22 01:07:35.91	353.00	16.11	-44.7	-47.7	16.7	0.00e+00	0	37	0	189792256	61	4951
2026-01-22 01:07:37.04	352.84	16.20	-44.7	-47.8	16.7	0.00e+00	0	38	0	191889408	61	5011
2026-01-22 01:07:37.89	352.71	16.27	-44.7	-47.7	16.8	0.00e+00	0	38	0	192937984	61	4935
2026-01-22 01:07:39.03	352.54	16.37	-44.7	-47.6	16.8	0.00e+00	0	38	0	196083712	61	4909
2026-01-22 01:07:39.89	352.41	16.44	-44.7	-47.7	16.7	0.00e+00	0	38	0	197132288	61	4959
2026-01-22 01:07:41.03	352.24	16.53	-44.7	-47.7	16.7	0.00e+00	0	38	0	199229440	61	4946
2026-01-22 01:07:41.88	352.11	16.60	-44.8	-47.8	16.7	0.00e+00	0	38	0	201326592	61	4984
2026-01-22 01:07:43.01	351.94	16.70	-44.7	-47.6	16.9	0.00e+00	0	38	0	203423744	61	4871
2026-01-22 01:07:43.86	351.81	16.77	-44.7	-47.6	16.9	0.00e+00	0	38	0	204472320	61	4871
2026-01-22 01:07:45.00	351.64	16.86	-44.8	-47.6	16.8	0.00e+00	0	37	0	206569472	61	4900
2026-01-22 01:07:45.85	351.51	16.94	-44.8	-47.7	16.8	0.00e+00	0	38	0	208666624	61	4933
2026-01-22 01:07:46.99	351.33	17.03	-44.6	-47.4	17.1	0.00e+00	0	38	0	210763776	61	4770
2026-01-22 01:07:47.84	351.20	17.10	-44.6	-47.5	17.0	0.00e+00	0	38	0	211812352	61	4830
2026-01-22 01:07:48.98	351.02	17.20	-44.5	-47.3	17.1	0.00e+00	0	38	0	213909504	61	4747
2026-01-22 01:07:49.83	350.88	17.27	-44.3	-47.1	17.3	0.00e+00	0	38	0	216006656	60	4912
2026-01-22 01:07:50.97	350.70	17.36	-44.3	-47.2	17.2	0.00e+00	0	38	0	218103808	60	4956
2026-01-22 01:07:51.82	350.57	17.44	-44.5	-47.4	17.1	0.00e+00	0	37	0	219152384	60	5042
2026-01-22 01:07:52.96	350.38	17.53	-44.5	-47.5	17.0	0.00e+00	0	37	0	221249536	60	5117
2026-01-22 01:07:53.81	350.25	17.60	-44.5	-47.5	16.9	0.00e+00	0	38	0	223346688	60	5147
2026-01-22 01:07:54.95	350.06	17.70	-44.3	-47.3	17.2	0.00e+00	0	38	0	225443840	60	4993
2026-01-22 01:07:55.80	349.92	17.77	-44.3	-47.3	17.2	0.00e+00	0	38	0	226492416	60	5018
2026-01-22 01:07:56.94	349.74	17.87	-44.4	-47.4	17.1	0.00e+00	0	37	0	229638144	60	5079
2026-01-22 01:07:57.79	349.60	17.94	-44.2	-47.2	17.2	0.00e+00	0	38	0	230686720	60	4976
2026-01-22 01:07:58.93	349.41	18.03	-44.2	-47.3	17.2	0.00e+00	0	38	0	232783872	60	4986
2026-01-22 01:07:59.79	349.26	18.11	-44.2	-47.3	17.2	0.00e+00	0	38	0	234881024	60	4998
2026-01-22 01:08:00.97	349.06	18.21	-44.2	-47.2	17.2	0.00e+00	0	38	0	236978176	60	4980
2026-01-22 01:08:01.82	348.92	18.28	-44.2	-47.2	17.3	0.00e+00	0	38	0	238026752	60	4950
2026-01-22 01:08:02.96	348.73	18.38	-44.2	-47.2	17.3	0.00e+00	0	37	0	240123904	60	4936
2026-01-22 01:08:03.81	348.58	18.45	-44.3	-47.2	17.2	0.00e+00	0	38	0	242221056	60	4974
2026-01-22 01:08:04.95	348.39	18.54	-44.4	-47.3	17.1	0.00e+00	0	38	0	244318208	60	5034
2026-01-22 01:08:05.80	348.24	18.62	-44.4	-47.3	17.2	0.00e+00	0	38	0	245366784	60	5028
2026-01-22 01:08:06.94	348.04	18.71	-44.6	-47.5	17.0	0.00e+00	0	38	0	247463936	60	5114
2026-01-22 01:08:07.79	347.89	18.78	-44.6	-47.4	17.1	0.00e+00	0	38	0	249561088	60	5065
2026-01-22 01:08:08.93	347.69	18.88	-44.6	-47.4	17.1	0.00e+00	0	38	0	251658240	60	5089
2026-01-22 01:08:09.78	347.54	18.95	-44.7	-47.5	17.0	0.00e+00	0	38	0	253755392	60	5128
2026-01-22 01:08:10.92	347.34	19.05	-44.7	-47.6	16.8	0.00e+00	0	37	0	255852544	60	5204
2026-01-22 01:08:11.77	347.19	19.12	-44.7	-47.6	16.9	0.00e+00	0	37	0	256901120	60	5168
2026-01-22 01:08:12.91	346.98	19.22	-44.7	-47.6	16.9	0.00e+00	0	38	0	258998272	60	5185
2026-01-22 01:08:13.76	346.83	19.29	-44.7	-47.5	17.0	0.00e+00	0	37	0	261095424	60	5157
2026-01-22 01:08:14.90	346.62	19.38	-44.8	-47.7	16.8	0.00e+00	0	38	0	263192576	60	5275
2026-01-22 01:08:15.75	346.46	19.46	-44.9	-47.8	16.7	0.00e+00	0	38	0	264241152	60	5293
2026-01-22 01:08:16.89	346.25	19.55	-44.9	-47.8	16.7	0.00e+00	0	38	0	266338304	60	5307
2026-01-22 01:08:17.74	346.10	19.62	-45.0	-47.9	16.6	0.00e+00	0	38	0	268435456	60	5393
2026-01-22 01:08:19.02	345.86	19.73	-45.1	-48.0	16.5	0.00e+00	0	37	0	270532608	60	5442
2026-01-22 01:08:19.73	345.73	19.79	-45.1	-48.0	16.6	0.00e+00	0	38	0	271581184	60	5416
2026-01-22 01:08:21.01	345.49	19.90	-45.0	-47.9	16.6	0.00e+00	0	38	0	274726912	60	5387
2026-01-22 01:08:21.72	345.35	19.96	-45.0	-47.9	16.6	0.00e+00	0	38	0	275775488	60	5395
2026-01-22 01:08:23.00	345.11	20.07	-44.9	-47.9	16.6	0.00e+00	0	38	0	277872640	60	5374
2026-01-22 01:08:23.73	344.97	20.13	-44.9	-47.9	16.6	0.00e+00	0	38	0	278921216	60	5371
2026-01-22 01:08:25.01	344.72	20.24	-44.8	-47.8	16.7	0.00e+00	0	37	0	282066944	60	5314
2026-01-22 01:08:25.73	344.58	20.30	-44.8	-47.8	16.7	0.00e+00	0	38	0	283115520	60	5323
2026-01-22 01:08:27.01	344.33	20.41	-44.7	-47.5	17.0	0.00e+00	0	37	0	285212672	60	5154
2026-01-22 01:08:27.72	344.19	20.47	-44.7	-47.6	16.9	0.00e+00	0	38	0	287309824	60	5193
2026-01-22 01:08:29.00	343.94	20.57	-44.8	-47.6	16.9	0.00e+00	0	38	0	289406976	60	5200
2026-01-22 01:08:29.73	343.80	20.63	-44.9	-47.7	16.8	0.00e+00	0	38	0	290455552	60	5279
2026-01-22 01:08:31.01	343.54	20.74	-44.7	-47.5	17.0	0.00e+00	0	38	0	293601280	60	5119
2026-01-22 01:08:31.72	343.40	20.80	-44.7	-47.5	17.0	0.00e+00	0	38	0	294649856	60	5115
2026-01-22 01:08:33.08	343.13	20.91	-44.7	-47.5	17.0	0.00e+00	0	38	0	296747008	60	5134
2026-01-22 01:08:34.02	342.94	20.99	-44.6	-47.5	17.1	0.00e+00	0	38	0	298844160	60	5105
2026-01-22 01:08:35.02	342.73	21.08	-44.5	-47.6	16.9	0.00e+00	0	38	0	300941312	60	5187
2026-01-22 01:08:36.01	342.53	21.16	-44.4	-47.5	17.1	0.00e+00	0	37	0	301989888	60	5114
2026-01-22 01:08:37.01	342.33	21.24	-44.4	-47.5	17.0	0.00e+00	0	38	0	304087040	60	5135
2026-01-22 01:08:38.00	342.12	21.32	-44.4	-47.4	17.1	0.00e+00	0	38	0	306184192	60	5099
2026-01-22 01:08:39.00	341.91	21.41	-44.3	-47.3	17.2	0.00e+00	0	38	0	308281344	60	5013
2026-01-22 01:08:39.99	341.71	21.49	-44.5	-47.4	17.2	0.00e+00	0	38	0	310378496	60	5055
2026-01-22 01:08:40.99	341.50	21.57	-44.4	-47.2	17.3	0.00e+00	0	38	0	311427072	60	4972
2026-01-22 01:08:41.98	341.29	21.65	-44.4	-47.1	17.4	0.00e+00	0	38	0	313524224	60	4911
2026-01-22 01:08:42.98	341.07	21.73	-44.4	-47.2	17.3	0.00e+00	0	38	0	315621376	60	4935
2026-01-22 01:08:43.97	340.86	21.82	-44.2	-46.9	17.6	0.00e+00	0	38	0	317718528	60	4797
2026-01-22 01:08:44.97	340.65	21.90	-44.1	-46.9	17.6	0.00e+00	0	38	0	318767104	60	4798
2026-01-22 01:08:45.96	340.43	21.98	-44.0	-46.8	17.6	0.00e+00	0	38	0	320864256	59	5020
2026-01-22 01:08:46.95	340.22	22.06	-43.9	-46.9	17.6	0.00e+00	0	38	0	322961408	59	5049
2026-01-22 01:08:47.95	340.00	22.14	-43.9	-46.9	17.3	0.00e+00	0	38	0	325058560	59	5054
2026-01-22 01:08:48.94	339.78	22.22	-44.0	-46.9	17.5	0.00e+00	0	38	0	327155712	59	5093
2026-01-22 01:08:49.94	339.56	22.30	-44.0	-46.9	17.6	0.00e+00	0	37	0	328204288	59	5066
2026-01-22 01:08:50.93	339.34	22.38	-43.9	-46.5	17.9	0.00e+00	0	38	0	330301440	59	4863
2026-01-22 01:08:51.92	339.12	22.46	-43.8	-46.4	18.0	0.00e+00	0	38	0	332398592	59	4805
2026-01-22 01:08:52.92	338.90	22.54	-43.8	-46.3	18.0	0.00e+00	0	38	0	334495744	59	4758
2026-01-22 01:08:53.91	338.67	22.62	-43.6	-46.2	18.2	0.00e+00	0	38	0	335544320	59	4657
2026-01-22 01:08:54.99	338.43	22.71	-43.6	-46.2	18.3	0.00e+00	0	38	0	337641472	59	4652
2026-01-22 01:08:55.84	338.24	22.78	-43.6	-46.2	18.2	0.00e+00	0	38	0	339738624	59	4672
2026-01-22 01:08:56.98	337.98	22.87	-43.7	-46.4	18.0	0.00e+00	0	38	0	341835776	59	4765
2026-01-22 01:08:57.83	337.78	22.94	-43.6	-46.2	18.2	0.00e+00	0	37	0	342884352	59	4693
2026-01-22 01:08:58.96	337.52	23.02	-43.7	-46.4	18.0	0.00e+00	0	38	0	344981504	59	4803
2026-01-22 01:08:59.82	337.32	23.09	-43.7	-46.4	18.0	0.00e+00	0	38	0	347078656	59	4786
2026-01-22 01:09:00.95	337.06	23.18	-43.6	-46.3	18.2	0.00e+00	0	38	0	349175808	59	4714
2026-01-22 01:09:01.80	336.86	23.25	-43.6	-46.2	18.2	0.00e+00	0	38	0	351272960	59	4669
2026-01-22 01:09:02.94	336.59	23.34	-43.5	-46.1	18.3	0.00e+00	0	38	0	353370112	59	4615
2026-01-22 01:09:03.79	336.39	23.40	-43.5	-46.0	18.4	0.00e+00	0	38	0	354418688	59	4556
2026-01-22 01:09:04.93	336.11	23.49	-43.5	-45.9	18.5	0.00e+00	0	38	0	356515840	59	4536
2026-01-22 01:09:05.78	335.91	23.56	-43.4	-45.9	18.5	0.00e+00	0	38	0	358612992	58	4780
2026-01-22 01:09:06.95	335.63	23.65	-43.4	-45.9	18.4	0.00e+00	0	38	0	360710144	58	4760
2026-01-22 01:09:07.80	335.42	23.71	-43.4	-45.9	18.5	0.00e+00	0	38	0	361758720	58	4784
2026-01-22 01:09:09.03	335.12	23.80	-43.5	-46.0	18.4	0.00e+00	0	38	0	363855872	58	4862
2026-01-22 01:09:09.89	334.91	23.87	-43.4	-46.0	18.4	0.00e+00	0	38	0	365953024	58	4841
2026-01-22 01:09:11.10	334.62	23.96	-43.4	-46.1	18.3	0.00e+00	0	38	0	368050176	58	4901
2026-01-22 01:09:11.96	334.40	24.02	-43.6	-46.2	18.2	0.00e+00	0	38	0	370147328	58	4973
2026-01-22 01:09:13.09	334.12	24.11	-43.5	-46.2	18.3	0.00e+00	0	38	0	372244480	58	4943
2026-01-22 01:09:14.42	333.79	24.21	-43.6	-46.2	18.2	0.00e+00	0	38	0	374341632	58	4948
2026-01-22 01:09:15.13	333.61	24.26	-43.5	-46.1	18.3	0.00e+00	0	38	0	375390208	58	4896
2026-01-22 01:09:16.41	333.29	24.35	-43.7	-46.3	18.2	0.00e+00	0	38	0	378535936	58	4985
2026-01-22 01:09:17.14	333.11	24.41	-43.7	-46.3	18.1	0.00e+00	0	38	0	379584512	58	5010
2026-01-22 01:09:18.48	332.77	24.50	-43.7	-46.3	18.2	0.00e+00	0	38	0	381681664	58	5011
2026-01-22 01:09:19.19	332.59	24.56	-43.8	-46.3	18.1	0.00e+00	0	38	0	383778816	58	5025
2026-01-22 01:09:20.47	332.26	24.65	-43.8	-46.4	18.1	0.00e+00	0	38	0	385875968	58	5044
2026-01-22 01:09:21.18	332.07	24.70	-43.8	-46.3	18.1	0.00e+00	0	38	0	386924544	58	5022
2026-01-22 01:09:22.46	331.74	24.79	-43.8	-46.4	18.1	0.00e+00	0	38	0	390070272	58	5060
2026-01-22 01:09:23.18	331.55	24.84	-43.9	-46.4	18.0	0.00e+00	0	38	0	391118848	58	5069
2026-01-22 01:09:24.46	331.22	24.93	-43.7	-46.2	18.2	0.00e+00	0	38	0	393216000	58	4970
2026-01-22 01:09:25.19	331.03	24.98	-43.8	-46.3	18.1	0.00e+00	0	38	0	394264576	58	5034
2026-01-22 01:09:26.46	330.69	25.07	-43.7	-46.3	18.1	0.00e+00	0	38	0	397410304	58	4991
2026-01-22 01:09:27.17	330.51	25.12	-43.7	-46.3	18.1	0.00e+00	0	38	0	398458880	58	5008
2026-01-22 01:09:28.45	330.16	25.20	-43.9	-46.6	17.9	0.00e+00	0	38	0	400556032	58	5175
2026-01-22 01:09:29.16	329.97	25.25	-43.8	-46.6	17.8	0.00e+00	0	38	0	401604608	58	5193
2026-01-22 01:09:30.44	329.63	25.34	-43.8	-46.5	17.9	0.00e+00	0	38	0	404750336	58	5159
2026-01-22 01:09:31.17	329.43	25.38	-43.8	-46.6	17.8	0.00e+00	0	38	0	405798912	58	5210
2026-01-22 01:09:32.45	329.09	25.47	-43.9	-46.7	17.8	0.00e+00	0	38	0	407896064	58	5258
2026-01-22 01:09:33.17	328.89	25.52	-43.9	-46.7	17.7	0.00e+00	0	38	0	409993216	58	5279
2026-01-22 01:09:34.45	328.54	25.60	-43.8	-46.5	17.9	0.00e+00	0	37	0	412090368	58	5150
2026-01-22 01:09:35.17	328.35	25.65	-43.9	-46.7	17.8	0.00e+00	0	38	0	413138944	58	5225
2026-01-22 01:09:36.47	327.99	25.73	-43.8	-46.4	18.1	0.00e+00	0	38	0	416284672	58	5051
2026-01-22 01:09:37.18	327.79	25.77	-43.7	-46.3	18.2	0.00e+00	0	38	0	417333248	58	4984
2026-01-22 01:09:38.46	327.44	25.85	-43.6	-46.2	18.3	0.00e+00	0	38	0	419430400	58	4930
2026-01-22 01:09:39.17	327.24	25.90	-43.6	-46.1	18.3	0.00e+00	0	38	0	420478976	58	4871
2026-01-22 01:09:40.45	326.88	25.98	-43.5	-46.0	18.4	0.00e+00	0	38	0	423624704	58	4851
2026-01-22 01:09:41.17	326.68	26.02	-43.5	-46.0	18.4	0.00e+00	0	38	0	424673280	58	4834
2026-01-22 01:09:42.46	326.32	26.10	-43.6	-46.1	18.3	0.00e+00	0	38	0	426770432	58	4895
2026-01-22 01:09:43.17	326.11	26.14	-43.5	-46.1	18.4	0.00e+00	0	38	0	428867584	58	4876
2026-01-22 01:09:44.71	325.68	26.23	-43.3	-45.8	18.6	0.00e+00	0	38	0	430964736	58	4737
2026-01-22 01:09:45.42	325.47	26.27	-43.3	-45.9	18.5	0.00e+00	0	37	0	433061888	58	4766
2026-01-22 01:09:46.70	325.11	26.34	-43.4	-46.0	18.4	0.00e+00	0	38	0	435159040	58	4869
2026-01-22 01:09:47.41	324.90	26.38	-43.5	-46.1	18.3	0.00e+00	0	38	0	436207616	58	4918
2026-01-22 01:09:48.69	324.53	26.46	-43.5	-46.0	18.4	0.00e+00	0	38	0	438304768	58	4838
2026-01-22 01:09:49.42	324.32	26.50	-43.6	-46.1	18.3	0.00e+00	0	38	0	440401920	58	4883
2026-01-22 01:09:50.70	323.95	26.57	-43.5	-46.0	18.4	0.00e+00	0	38	0	442499072	58	4851
2026-01-22 01:09:51.41	323.74	26.60	-43.4	-45.9	18.5	0.00e+00	0	38	0	443547648	58	4775
2026-01-22 01:09:52.69	323.37	26.67	-43.3	-45.8	18.6	0.00e+00	0	38	0	446693376	58	4740
2026-01-22 01:09:53.42	323.16	26.71	-43.3	-45.9	18.6	0.00e+00	0	38	0	447741952	58	4765
2026-01-22 01:09:54.69	322.78	26.78	-43.2	-45.8	18.7	0.00e+00	0	38	0	449839104	58	4717
2026-01-22 01:09:55.43	322.56	26.81	-43.3	-45.9	18.5	0.00e+00	0	38	0	450887680	58	4767
2026-01-22 01:09:56.71	322.18	26.88	-43.5	-46.1	18.3	0.00e+00	0	38	0	454033408	58	4890
2026-01-22 01:09:57.56	321.93	26.92	-43.5	-46.1	18.3	0.00e+00	0	38	0	455081984	58	4919
2026-01-22 01:09:58.70	321.59	26.98	-43.5	-46.0	18.4	0.00e+00	0	38	0	457179136	58	4852
2026-01-22 01:09:59.56	321.33	27.02	-43.5	-46.1	18.4	0.00e+00	0	38	0	459276288	58	4881
2026-01-22 01:10:00.69	320.99	27.07	-43.6	-46.2	18.3	0.00e+00	0	38	0	461373440	58	4934
2026-01-22 01:10:01.54	320.74	27.11	-43.6	-46.1	18.3	0.00e+00	0	38	0	462422016	58	4915
2026-01-22 01:10:02.68	320.39	27.16	-43.7	-46.3	18.2	0.00e+00	0	38	0	464519168	58	4992
2026-01-22 01:10:03.53	320.14	27.20	-43.7	-46.3	18.1	0.00e+00	0	38	0	466616320	58	5018
2026-01-22 01:10:04.67	319.79	27.25	-44.0	-46.7	17.7	0.00e+00	0	38	0	468713472	58	5241
2026-01-22 01:10:05.52	319.53	27.29	-44.2	-46.9	17.6	0.00e+00	0	38	0	469762048	59	5057
2026-01-22 01:10:06.66	319.18	27.33	-44.4	-47.1	17.4	0.00e+00	0	38	0	472907776	59	5207
2026-01-22 01:10:07.51	318.92	27.37	-44.5	-47.3	17.3	0.00e+00	0	38	0	473956352	59	5285
2026-01-22 01:10:08.65	318.57	27.42	-44.4	-47.2	17.4	0.00e+00	0	38	0	476053504	59	5224
2026-01-22 01:10:09.50	318.31	27.45	-44.4	-47.1	17.4	0.00e+00	0	38	0	478150656	59	5214
2026-01-22 01:10:10.64	317.96	27.49	-44.3	-47.0	17.5	0.00e+00	0	38	0	480247808	59	5114
2026-01-22 01:10:11.49	317.70	27.53	-44.4	-47.0	17.5	0.00e+00	0	38	0	481296384	59	5141
2026-01-22 01:10:12.63	317.35	27.57	-44.5	-47.2	17.3	0.00e+00	0	38	0	483393536	59	5248
2026-01-22 01:10:13.48	317.08	27.60	-44.6	-47.3	17.2	0.00e+00	0	38	0	485490688	59	5301
2026-01-22 01:10:14.62	316.73	27.64	-44.8	-47.6	17.0	0.00e+00	0	38	0	487587840	60	5168
2026-01-22 01:10:15.48	316.46	27.67	-44.7	-47.5	17.1	0.00e+00	0	38	0	488636416	60	5134
2026-01-22 01:10:16.61	316.11	27.71	-44.5	-47.3	17.3	0.00e+00	0	38	0	490733568	60	4998
2026-01-22 01:10:17.47	315.84	27.74	-44.4	-47.1	17.4	0.00e+00	0	38	0	492830720	60	4906
2026-01-22 01:10:18.60	315.48	27.77	-44.3	-47.0	17.5	0.00e+00	0	38	0	494927872	60	4854
2026-01-22 01:10:19.82	315.10	27.81	-44.2	-47.0	17.5	0.00e+00	0	38	0	497025024	60	4849
2026-01-22 01:10:20.67	314.83	27.83	-44.3	-47.2	17.4	0.00e+00	0	38	0	499122176	60	4941
2026-01-22 01:10:21.81	314.47	27.87	-44.5	-47.5	17.0	0.00e+00	0	38	0	501219328	60	5124
2026-01-22 01:10:22.66	314.20	27.89	-44.5	-47.4	17.2	0.00e+00	0	38	0	502267904	60	5064
2026-01-22 01:10:23.80	313.84	27.92	-44.5	-47.4	17.2	0.00e+00	0	38	0	504365056	60	5065
2026-01-22 01:10:24.66	313.57	27.94	-44.5	-47.4	17.2	0.00e+00	0	38	0	506462208	60	5090
2026-01-22 01:10:25.79	313.21	27.97	-44.6	-47.5	17.1	0.00e+00	0	38	0	508559360	60	5131
2026-01-22 01:10:26.64	312.93	27.99	-44.7	-47.6	17.0	0.00e+00	0	38	0	509607936	60	5174
2026-01-22 01:10:27.87	312.54	28.02	-44.9	-47.7	16.9	0.00e+00	0	38	0	511705088	60	5266
2026-01-22 01:10:28.73	312.27	28.04	-45.1	-48.0	16.6	0.00e+00	0	38	0	513802240	60	5431
2026-01-22 01:10:29.87	311.90	28.06	-45.1	-48.0	16.6	0.00e+00	0	38	0	515899392	61	5111
2026-01-22 01:10:30.72	311.63	28.08	-45.0	-48.0	16.7	0.00e+00	0	38	0	517996544	61	5105
2026-01-22 01:10:31.86	311.26	28.10	-45.1	-48.0	16.6	0.00e+00	0	38	0	520093696	61	5114
2026-01-22 01:10:32.71	310.99	28.12	-45.1	-48.0	16.6	0.00e+00	0	38	0	521142272	61	5103
2026-01-22 01:10:33.85	310.63	28.14	-45.2	-48.1	16.5	0.00e+00	0	38	0	523239424	61	5204
2026-01-22 01:10:34.70	310.35	28.15	-45.3	-48.2	16.4	0.00e+00	0	38	0	525336576	61	5260
2026-01-22 01:10:35.84	309.98	28.17	-45.4	-48.3	16.3	0.00e+00	0	38	0	527433728	61	5324
2026-01-22 01:10:36.69	309.71	28.18	-45.3	-48.3	16.3	0.00e+00	0	38	0	528482304	61	5311
2026-01-22 01:10:37.83	309.34	28.20	-45.4	-48.3	16.3	0.00e+00	0	38	0	530579456	61	5331
2026-01-22 01:10:38.68	309.07	28.21	-45.2	-48.2	16.5	0.00e+00	0	38	0	532676608	61	5238
2026-01-22 01:10:39.81	308.70	28.22	-45.1	-48.0	16.7	0.00e+00	0	38	0	534773760	61	5108
2026-01-22 01:10:40.67	308.42	28.23	-45.1	-47.9	16.7	0.00e+00	0	38	0	535822336	61	5070
2026-01-22 01:10:41.80	308.06	28.24	-44.9	-47.8	16.8	0.00e+00	0	38	0	537919488	61	5008
2026-01-22 01:10:42.66	307.78	28.25	-44.9	-47.6	16.9	0.00e+00	0	38	0	540016640	61	4923
2026-01-22 01:10:43.79	307.41	28.25	-44.8	-47.6	17.0	0.00e+00	0	38	0	542113792	61	4889
2026-01-22 01:10:44.64	307.14	28.26	-44.9	-47.8	16.9	0.00e+00	0	38	0	543162368	61	4992
2026-01-22 01:10:45.78	306.77	28.27	-45.3	-48.3	16.4	0.00e+00	0	38	0	545259520	61	5301
2026-01-22 01:10:46.63	306.49	28.27	-45.4	-48.4	16.2	0.00e+00	0	38	0	547356672	61	5359
2026-01-22 01:10:47.77	306.12	28.27	-45.4	-48.3	16.3	0.00e+00	0	38	0	549453824	61	5340
2026-01-22 01:10:48.62	305.85	28.27	-45.3	-48.3	16.3	0.00e+00	0	38	0	551550976	61	5326
2026-01-22 01:10:49.76	305.48	28.28	-45.3	-48.2	16.4	0.00e+00	0	38	0	553648128	61	5267
2026-01-22 01:10:50.61	305.20	28.28	-45.3	-48.3	16.3	0.00e+00	0	38	0	554696704	61	5287
2026-01-22 01:10:51.75	304.83	28.28	-45.1	-48.1	16.5	0.00e+00	0	38	0	556793856	61	5173
2026-01-22 01:10:52.60	304.55	28.27	-45.1	-48.0	16.6	0.00e+00	0	38	0	558891008	61	5134
2026-01-22 01:10:53.74	304.18	28.27	-45.0	-47.9	16.8	0.00e+00	0	38	0	560988160	61	5056
2026-01-22 01:10:54.59	303.91	28.27	-44.9	-47.8	16.8	0.00e+00	0	38	0	562036736	61	4984
2026-01-22 01:10:55.73	303.54	28.26	-44.9	-47.7	16.9	0.00e+00	0	38	0	564133888	61	4972
2026-01-22 01:10:56.58	303.26	28.26	-44.9	-47.7	16.9	0.00e+00	0	38	0	566231040	61	4927
2026-01-22 01:10:57.72	302.89	28.25	-44.8	-47.6	16.9	0.00e+00	0	38	0	568328192	61	4909
2026-01-22 01:10:58.62	302.60	28.24	-44.8	-47.6	17.0	0.00e+00	0	38	0	569376768	61	4903
2026-01-22 01:10:59.72	302.24	28.23	-44.6	-47.3	17.2	0.00e+00	0	38	0	571473920	61	4743
2026-01-22 01:11:00.67	301.94	28.22	-44.6	-47.4	17.2	0.00e+00	0	38	0	573571072	61	4785
2026-01-22 01:11:01.84	301.56	28.21	-44.7	-47.4	17.2	0.00e+00	0	38	0	575668224	61	4791
2026-01-22 01:11:02.74	301.27	28.20	-44.8	-47.7	16.9	0.00e+00	0	38	0	577765376	61	4928
2026-01-22 01:11:03.84	300.91	28.18	-44.7	-47.5	17.1	0.00e+00	0	38	0	579862528	61	4823
2026-01-22 01:11:04.69	300.64	28.17	-44.6	-47.4	17.1	0.00e+00	0	38	0	580911104	61	4782
2026-01-22 01:11:05.83	300.27	28.15	-44.6	-47.4	17.2	0.00e+00	0	38	0	583008256	61	4783
2026-01-22 01:11:06.69	299.99	28.14	-44.6	-47.4	17.2	0.00e+00	0	38	0	585105408	61	4768
2026-01-22 01:11:07.83	299.63	28.12	-44.7	-47.5	17.0	0.00e+00	0	38	0	587202560	61	4848
2026-01-22 01:11:08.68	299.35	28.10	-44.7	-47.5	17.1	0.00e+00	0	38	0	588251136	61	4824
2026-01-22 01:11:09.82	298.99	28.08	-44.8	-47.6	17.0	0.00e+00	0	38	0	590348288	61	4887
2026-01-22 01:11:10.67	298.71	28.07	-44.5	-47.2	17.3	0.00e+00	0	38	0	592445440	61	4680
2026-01-22 01:11:11.81	298.35	28.04	-44.3	-46.9	17.7	0.00e+00	0	38	0	594542592	60	4782
2026-01-22 01:11:12.66	298.08	28.02	-44.3	-46.9	17.7	0.00e+00	0	38	0	596639744	60	4760
2026-01-22 01:11:13.80	297.71	28.00	-44.1	-46.6	17.9	0.00e+00	0	38	0	598736896	60	4646
2026-01-22 01:11:14.65	297.44	27.98	-44.1	-46.6	17.9	0.00e+00	0	38	0	599785472	60	4634
2026-01-22 01:11:15.79	297.08	27.95	-44.2	-46.8	17.7	0.00e+00	0	38	0	601882624	60	4743
2026-01-22 01:11:16.64	296.81	27.93	-44.0	-46.6	17.9	0.00e+00	0	38	0	603979776	60	4608
2026-01-22 01:11:17.78	296.45	27.89	-44.0	-46.6	18.0	0.00e+00	0	38	0	606076928	60	4602
2026-01-22 01:11:18.63	296.18	27.87	-43.8	-46.2	18.2	0.00e+00	0	38	0	607125504	59	4673
2026-01-22 01:11:19.77	295.82	27.84	-43.8	-46.2	18.2	0.00e+00	0	38	0	609222656	59	4691
2026-01-22 01:11:20.62	295.55	27.81	-43.7	-46.1	18.4	0.00e+00	0	38	0	611319808	59	4613
2026-01-22 01:11:21.75	295.19	27.78	-43.5	-46.0	18.4	0.00e+00	0	38	0	613416960	59	4564
2026-01-22 01:11:22.61	294.92	27.75	-43.6	-46.0	18.4	0.00e+00	0	38	0	614465536	59	4569
2026-01-22 01:11:23.74	294.57	27.71	-43.7	-46.1	18.3	0.00e+00	0	38	0	616562688	59	4636
2026-01-22 01:11:24.60	294.30	27.69	-43.7	-46.2	18.3	0.00e+00	0	38	0	618659840	59	4660
2026-01-22 01:11:25.73	293.94	27.65	-43.7	-46.1	18.4	0.00e+00	0	38	0	620756992	59	4619
2026-01-22 01:11:26.58	293.68	27.62	-43.6	-46.0	18.4	0.00e+00	0	38	0	621805568	59	4584
2026-01-22 01:11:27.72	293.32	27.58	-43.6	-46.0	18.4	0.00e+00	0	38	0	623902720	59	4571
2026-01-22 01:11:28.57	293.06	27.54	-43.6	-46.0	18.4	0.00e+00	0	38	0	625999872	59	4565
2026-01-22 01:11:29.71	292.71	27.50	-43.6	-46.0	18.4	0.00e+00	0	38	0	628097024	59	4567
2026-01-22 01:11:30.56	292.44	27.47	-43.6	-46.0	18.4	0.00e+00	0	38	0	630194176	59	4552
2026-01-22 01:11:31.70	292.09	27.42	-43.5	-45.9	18.5	0.00e+00	0	38	0	632291328	59	4498
2026-01-22 01:11:32.55	291.83	27.39	-43.5	-45.9	18.5	0.00e+00	0	38	0	633339904	59	4522
2026-01-22 01:11:33.69	291.48	27.34	-43.6	-46.0	18.4	0.00e+00	0	38	0	635437056	59	4567
2026-01-22 01:11:34.54	291.22	27.31	-43.5	-45.9	18.5	0.00e+00	0	38	0	637534208	59	4502
2026-01-22 01:11:35.68	290.87	27.26	-43.4	-45.8	18.7	0.00e+00	0	38	0	639631360	58	4714
2026-01-22 01:11:36.72	290.56	27.21	-43.4	-45.8	18.6	0.00e+00	0	38	0	641728512	58	4730
2026-01-22 01:11:37.71	290.26	27.17	-43.5	-45.9	18.5	0.00e+00	0	38	0	642777088	58	4781
2026-01-22 01:11:38.71	289.95	27.12	-43.6	-46.0	18.4	0.00e+00	0	38	0	644874240	58	4851
2026-01-22 01:11:39.70	289.65	27.08	-43.7	-46.0	18.4	0.00e+00	0	38	0	646971392	58	4864
2026-01-22 01:11:40.70	289.35	27.03	-43.8	-46.2	18.2	0.00e+00	0	38	0	649068544	58	4952
2026-01-22 01:11:41.69	289.06	26.98	-43.9	-46.4	18.1	0.00e+00	0	38	0	650117120	58	5043
2026-01-22 01:11:42.69	288.76	26.93	-43.9	-46.4	18.1	0.00e+00	0	38	0	652214272	58	5053
2026-01-22 01:11:43.68	288.46	26.88	-44.1	-46.6	17.9	0.00e+00	0	38	0	654311424	58	5174
2026-01-22 01:11:44.68	288.16	26.83	-44.2	-46.8	17.7	0.00e+00	0	38	0	656408576	59	4992
2026-01-22 01:11:45.67	287.87	26.78	-44.2	-46.7	17.8	0.00e+00	0	38	0	658505728	59	4946
2026-01-22 01:11:46.67	287.58	26.73	-44.1	-46.6	17.8	0.00e+00	0	38	0	659554304	59	4913
2026-01-22 01:11:47.66	287.28	26.68	-44.1	-46.6	17.9	0.00e+00	0	38	0	661651456	59	4880
2026-01-22 01:11:48.65	286.99	26.63	-44.1	-46.6	17.8	0.00e+00	0	38	0	663748608	59	4899
2026-01-22 01:11:49.65	286.70	26.57	-44.2	-46.7	17.7	0.00e+00	0	38	0	665845760	59	4968
2026-01-22 01:11:50.64	286.41	26.52	-44.3	-46.9	17.6	0.00e+00	0	38	0	666894336	59	5071
2026-01-22 01:11:51.73	286.10	26.46	-44.5	-47.1	17.4	0.00e+00	0	38	0	668991488	59	5181
2026-01-22 01:11:52.60	285.84	26.41	-44.6	-47.2	17.2	0.00e+00	0	38	0	671088640	59	5277
2026-01-22 01:11:53.88	285.47	26.34	-44.9	-47.6	16.9	0.00e+00	0	38	0	673185792	60	5196
2026-01-22 01:11:54.59	285.27	26.30	-45.0	-47.8	16.8	0.00e+00	0	38	0	674234368	60	5307
2026-01-22 01:11:55.87	284.90	26.22	-45.0	-47.8	16.8	0.00e+00	0	38	0	677380096	60	5316
2026-01-22 01:11:56.59	284.70	26.18	-44.9	-47.7	16.9	0.00e+00	0	38	0	678428672	60	5252
2026-01-22 01:11:57.87	284.34	26.11	-44.8	-47.5	17.1	0.00e+00	0	38	0	680525824	60	5122
2026-01-22 01:11:58.61	284.13	26.06	-44.6	-47.3	17.2	0.00e+00	0	38	0	682622976	60	5031
2026-01-22 01:12:00.22	283.67	25.96	-44.7	-47.4	17.1	0.00e+00	0	38	0	685768704	60	5087
2026-01-22 01:12:00.79	283.51	25.93	-44.7	-47.4	17.1	0.00e+00	0	38	0	686817280	60	5084
2026-01-22 01:12:02.50	283.03	25.82	-44.8	-47.6	17.0	0.00e+00	0	38	0	689963008	60	5187
2026-01-22 01:12:03.07	282.88	25.79	-44.9	-47.7	16.9	0.00e+00	0	38	0	691011584	60	5234
2026-01-22 01:12:04.77	282.40	25.68	-45.2	-48.2	16.4	0.00e+00	0	38	0	694157312	61	5225
2026-01-22 01:12:05.34	282.25	25.64	-45.3	-48.3	16.3	0.00e+00	0	38	0	695205888	61	5311
2026-01-22 01:12:07.05	281.78	25.53	-45.4	-48.3	16.2	0.00e+00	0	38	0	698351616	61	5332
2026-01-22 01:12:07.61	281.63	25.50	-45.2	-48.1	16.4	0.00e+00	0	38	0	699400192	61	5207
2026-01-22 01:12:09.32	281.16	25.38	-45.1	-48.0	16.6	0.00e+00	0	38	0	702545920	61	5104
2026-01-22 01:12:09.89	281.01	25.35	-45.1	-47.9	16.6	0.00e+00	0	38	0	703594496	61	5097
2026-01-22 01:12:11.59	280.55	25.23	-45.2	-48.0	16.5	0.00e+00	0	38	0	706740224	61	5150
2026-01-22 01:12:12.46	280.32	25.17	-45.1	-48.0	16.6	0.00e+00	0	38	0	707788800	61	5112
2026-01-22 01:12:13.60	280.01	25.09	-44.9	-47.7	16.8	0.00e+00	0	38	0	709885952	61	4976
2026-01-22 01:12:14.45	279.79	25.04	-45.0	-47.9	16.7	0.00e+00	0	38	0	711983104	61	5055
2026-01-22 01:12:15.60	279.48	24.96	-45.0	-47.9	16.7	0.00e+00	0	38	0	714080256	61	5043
2026-01-22 01:12:16.46	279.26	24.90	-45.2	-48.1	16.5	0.00e+00	0	38	0	716177408	61	5172
2026-01-22 01:12:17.59	278.96	24.82	-45.0	-47.8	16.7	0.00e+00	0	38	0	718274560	61	5041
2026-01-22 01:12:18.45	278.74	24.76	-45.1	-48.0	16.6	0.00e+00	0	38	0	719323136	61	5103
2026-01-22 01:12:19.59	278.44	24.67	-45.0	-47.8	16.7	0.00e+00	0	38	0	721420288	61	5012
2026-01-22 01:12:20.44	278.22	24.61	-44.8	-47.6	16.9	0.00e+00	0	38	0	723517440	61	4919
2026-01-22 01:12:21.58	277.93	24.53	-44.6	-47.3	17.2	0.00e+00	0	38	0	725614592	61	4732
2026-01-22 01:12:22.43	277.71	24.47	-44.6	-47.3	17.2	0.00e+00	0	38	0	726663168	61	4753
2026-01-22 01:12:23.57	277.42	24.39	-44.7	-47.4	17.2	0.00e+00	0	38	0	728760320	61	4774
2026-01-22 01:12:24.42	277.20	24.32	-44.5	-47.2	17.3	0.00e+00	0	38	0	730857472	61	4698
2026-01-22 01:12:25.56	276.91	24.24	-44.6	-47.3	17.2	0.00e+00	0	38	0	732954624	61	4741
2026-01-22 01:12:26.41	276.70	24.18	-44.7	-47.4	17.1	0.00e+00	0	38	0	734003200	61	4777
2026-01-22 01:12:27.55	276.42	24.09	-44.6	-47.3	17.2	0.00e+00	0	38	0	736100352	61	4718
2026-01-22 01:12:28.40	276.20	24.03	-44.6	-47.3	17.2	0.00e+00	0	38	0	738197504	61	4756
2026-01-22 01:12:29.54	275.92	23.94	-44.5	-47.2	17.3	0.00e+00	0	38	0	740294656	61	4692
2026-01-22 01:12:30.40	275.71	23.88	-44.3	-46.9	17.6	0.00e+00	0	38	0	741343232	60	4798
2026-01-22 01:12:31.54	275.43	23.79	-44.2	-46.7	17.7	0.00e+00	0	38	0	744488960	60	4700
2026-01-22 01:12:32.39	275.22	23.73	-44.1	-46.6	17.8	0.00e+00	0	38	0	745537536	60	4637
2026-01-22 01:12:33.52	274.95	23.64	-44.1	-46.7	17.8	0.00e+00	0	38	0	747634688	60	4679
2026-01-22 01:12:34.38	274.74	23.57	-44.1	-46.7	17.7	0.00e+00	0	38	0	749731840	60	4696
2026-01-22 01:12:35.51	274.47	23.49	-44.0	-46.6	17.8	0.00e+00	0	38	0	751828992	60	4628
2026-01-22 01:12:36.37	274.26	23.42	-44.0	-46.6	17.9	0.00e+00	0	38	0	752877568	60	4610
2026-01-22 01:12:37.51	273.99	23.33	-44.0	-46.5	17.9	0.00e+00	0	38	0	754974720	59	4860
2026-01-22 01:12:38.36	273.79	23.26	-43.9	-46.4	17.9	0.00e+00	0	38	0	757071872	59	4808
2026-01-22 01:12:39.50	273.52	23.18	-44.0	-46.5	17.9	0.00e+00	0	38	0	759169024	59	4831
2026-01-22 01:12:40.35	273.32	23.11	-43.8	-46.3	18.1	0.00e+00	0	38	0	760217600	59	4736
2026-01-22 01:12:41.48	273.06	23.02	-43.8	-46.3	18.1	0.00e+00	0	38	0	762314752	59	4731
2026-01-22 01:12:42.34	272.86	22.95	-43.8	-46.3	18.1	0.00e+00	0	38	0	764411904	59	4725
2026-01-22 01:12:43.47	272.59	22.86	-43.6	-46.0	18.4	0.00e+00	0	38	0	766509056	59	4569
2026-01-22 01:12:44.33	272.40	22.79	-43.7	-46.1	18.3	0.00e+00	0	38	0	767557632	59	4611
2026-01-22 01:12:45.47	272.14	22.70	-43.5	-45.9	18.4	0.00e+00	0	38	0	769654784	59	4526
2026-01-22 01:12:46.32	271.94	22.63	-43.6	-46.0	18.4	0.00e+00	0	38	0	771751936	59	4552
2026-01-22 01:12:47.46	271.68	22.54	-43.5	-45.9	18.4	0.00e+00	0	38	0	773849088	59	4538
2026-01-22 01:12:48.31	271.49	22.47	-43.6	-46.0	18.3	0.00e+00	0	38	0	775946240	59	4578
2026-01-22 01:12:49.51	271.22	22.38	-43.5	-45.9	18.5	0.00e+00	0	38	0	778043392	58	4771
2026-01-22 01:12:50.36	271.03	22.31	-43.6	-46.0	18.4	0.00e+00	0	38	0	779091968	58	4838
2026-01-22 01:12:51.50	270.78	22.21	-43.5	-45.9	18.4	0.00e+00	0	38	0	781189120	58	4804
2026-01-22 01:12:52.35	270.59	22.14	-43.5	-45.9	18.4	0.00e+00	0	38	0	783286272	58	4792
2026-01-22 01:12:53.61	270.32	22.04	-43.5	-45.9	18.5	0.00e+00	0	38	0	785383424	58	4771
2026-01-22 01:12:54.39	270.15	21.98	-43.6	-46.0	18.4	0.00e+00	0	38	0	786432000	58	4840
2026-01-22 01:12:55.67	269.87	21.87	-43.6	-46.1	18.3	0.00e+00	0	38	0	789577728	58	4892
2026-01-22 01:12:56.38	269.72	21.81	-43.7	-46.1	18.2	0.00e+00	0	38	0	790626304	58	4925
2026-01-22 01:12:57.66	269.44	21.71	-43.7	-46.1	18.3	0.00e+00	0	38	0	792723456	58	4897
2026-01-22 01:12:58.37	269.29	21.65	-43.6	-46.0	18.3	0.00e+00	0	38	0	794820608	58	4852
2026-01-22 01:12:59.65	269.02	21.54	-43.5	-45.9	18.5	0.00e+00	0	38	0	796917760	58	4775
2026-01-22 01:13:00.36	268.87	21.49	-43.4	-45.8	18.5	0.00e+00	0	38	0	797966336	58	4737
2026-01-22 01:13:01.64	268.60	21.38	-43.5	-45.9	18.4	0.00e+00	0	38	0	800063488	58	4799
2026-01-22 01:13:02.48	268.42	21.31	-43.4	-45.8	18.5	0.00e+00	0	38	0	802160640	58	4741
2026-01-22 01:13:03.62	268.19	21.21	-43.2	-45.5	18.7	0.00e+00	0	38	0	804257792	58	4593
2026-01-22 01:13:04.64	267.97	21.13	-43.1	-45.4	18.8	0.00e+00	0	38	0	806354944	58	4542
2026-01-22 01:13:05.64	267.77	21.05	-43.2	-45.5	18.8	0.00e+00	0	38	0	808452096	58	4591
2026-01-22 01:13:06.86	267.52	20.94	-43.1	-45.5	18.9	0.00e+00	0	38	0	810549248	58	4552
2026-01-22 01:13:07.74	267.34	20.87	-43.0	-45.3	18.9	0.00e+00	0	38	0	811597824	58	4470
2026-01-22 01:13:09.05	267.08	20.76	-42.8	-45.1	19.1	0.00e+00	0	38	0	814743552	57	4621
2026-01-22 01:13:09.76	266.93	20.70	-42.8	-45.1	19.1	0.00e+00	0	38	0	815792128	57	4628
2026-01-22 01:13:11.04	266.68	20.59	-42.9	-45.1	19.1	0.00e+00	0	38	0	817889280	57	4632
2026-01-22 01:13:11.76	266.54	20.53	-42.8	-45.0	19.2	0.00e+00	0	38	0	819986432	57	4581
2026-01-22 01:13:13.30	266.23	20.40	-42.8	-45.1	19.1	0.00e+00	0	38	0	822083584	57	4611
2026-01-22 01:13:14.01	266.09	20.34	-42.9	-45.1	19.1	0.00e+00	0	38	0	824180736	57	4642
2026-01-22 01:13:15.29	265.84	20.23	-42.7	-45.0	19.2	0.00e+00	0	38	0	826277888	57	4555
2026-01-22 01:13:16.00	265.71	20.17	-42.7	-45.0	19.2	0.00e+00	0	38	0	827326464	57	4554
2026-01-22 01:13:17.28	265.46	20.07	-42.6	-44.9	19.3	0.00e+00	0	38	0	829423616	57	4501
2026-01-22 01:13:17.99	265.32	20.01	-42.6	-44.8	19.4	0.00e+00	0	38	0	831520768	57	4480
2026-01-22 01:13:19.27	265.08	19.90	-42.3	-44.5	19.7	0.00e+00	0	38	0	833617920	56	4563
2026-01-22 01:13:20.00	264.94	19.84	-42.4	-44.5	19.6	0.00e+00	0	38	0	834666496	56	4595
2026-01-22 01:13:21.28	264.70	19.73	-42.3	-44.5	19.6	0.00e+00	0	38	0	837812224	56	4582
2026-01-22 01:13:22.00	264.56	19.67	-42.3	-44.5	19.7	0.00e+00	0	38	0	838860800	56	4568
2026-01-22 01:13:23.28	264.32	19.56	-42.4	-44.6	19.5	0.00e+00	0	38	0	840957952	56	4630
2026-01-22 01:13:24.12	264.17	19.49	-42.6	-44.8	19.4	0.00e+00	0	38	0	843055104	56	4739
2026-01-22 01:13:25.25	263.96	19.39	-42.5	-44.7	19.5	0.00e+00	0	38	0	845152256	56	4664
2026-01-22 01:13:26.11	263.80	19.32	-42.4	-44.6	19.6	0.00e+00	0	38	0	846200832	56	4618
2026-01-22 01:13:27.24	263.60	19.22	-42.5	-44.7	19.5	0.00e+00	0	38	0	848297984	56	4691
2026-01-22 01:13:28.10	263.44	19.15	-42.5	-44.7	19.5	0.00e+00	0	38	0	850395136	56	4660
2026-01-22 01:13:29.23	263.24	19.05	-42.4	-44.6	19.6	0.00e+00	0	38	0	852492288	56	4625
2026-01-22 01:13:30.40	263.03	18.95	-42.4	-44.6	19.6	0.00e+00	0	38	0	854589440	56	4604
2026-01-22 01:13:31.25	262.87	18.88	-42.4	-44.6	19.5	0.00e+00	0	38	0	855638016	56	4628
2026-01-22 01:13:32.39	262.67	18.78	-42.4	-44.5	19.6	0.00e+00	0	38	0	857735168	56	4595
2026-01-22 01:13:33.24	262.52	18.71	-42.5	-44.6	19.5	0.00e+00	0	38	0	859832320	56	4650
2026-01-22 01:13:34.38	262.32	18.62	-42.5	-44.6	19.5	0.00e+00	0	38	0	861929472	56	4645
2026-01-22 01:13:35.23	262.18	18.54	-42.6	-44.8	19.4	0.00e+00	0	38	0	862978048	56	4719
2026-01-22 01:13:36.37	261.98	18.45	-42.7	-44.9	19.3	0.00e+00	0	38	0	866123776	56	4792
2026-01-22 01:13:37.22	261.83	18.37	-42.8	-45.1	19.1	0.00e+00	0	38	0	867172352	56	4878
2026-01-22 01:13:38.36	261.64	18.28	-42.7	-45.0	19.2	0.00e+00	0	38	0	869269504	56	4838
2026-01-22 01:13:39.21	261.49	18.21	-42.7	-45.0	19.2	0.00e+00	0	38	0	871366656	56	4844
2026-01-22 01:13:40.43	261.28	18.10	-42.7	-45.0	19.2	0.00e+00	0	38	0	873463808	56	4848
2026-01-22 01:13:41.28	261.14	18.03	-42.6	-44.9	19.3	0.00e+00	0	38	0	874512384	56	4761
2026-01-22 01:13:42.42	260.95	17.93	-42.6	-44.8	19.3	0.00e+00	0	38	0	876609536	56	4754
2026-01-22 01:13:43.27	260.81	17.86	-42.6	-44.9	19.3	0.00e+00	0	38	0	878706688	56	4770
2026-01-22 01:13:44.41	260.62	17.76	-42.7	-45.0	19.2	0.00e+00	0	38	0	880803840	56	4815
2026-01-22 01:13:45.26	260.48	17.69	-42.8	-45.1	19.1	0.00e+00	0	38	0	881852416	56	4891
2026-01-22 01:13:46.56	260.27	17.58	-42.9	-45.2	19.0	0.00e+00	0	38	0	884998144	56	4957
2026-01-22 01:13:47.27	260.15	17.52	-42.9	-45.2	18.9	0.00e+00	0	38	0	886046720	56	4979
2026-01-22 01:13:48.75	259.91	17.40	-43.0	-45.3	18.9	0.00e+00	0	38	0	889192448	56	5018
2026-01-22 01:13:49.46	259.80	17.34	-43.0	-45.3	18.9	0.00e+00	0	38	0	890241024	56	5030
2026-01-22 01:13:50.80	259.58	17.23	-43.0	-45.3	18.9	0.00e+00	0	38	0	892338176	56	4998
2026-01-22 01:13:51.51	259.47	17.17	-43.0	-45.3	18.9	0.00e+00	0	38	0	894435328	56	4988
2026-01-22 01:13:52.86	259.26	17.05	-43.0	-45.3	18.9	0.00e+00	0	38	0	896532480	56	5002
2026-01-22 01:13:53.57	259.15	16.99	-43.1	-45.4	18.8	0.00e+00	0	38	0	897581056	56	5091
2026-01-22 01:13:54.85	258.95	16.88	-43.2	-45.5	18.7	0.00e+00	0	38	0	900726784	56	5148
2026-01-22 01:13:55.57	258.83	16.82	-43.2	-45.5	18.7	0.00e+00	0	38	0	901775360	57	4858
2026-01-22 01:13:56.85	258.64	16.72	-43.3	-45.8	18.5	0.00e+00	0	38	0	903872512	57	4986
2026-01-22 01:13:57.57	258.53	16.66	-43.5	-46.0	18.2	0.00e+00	0	38	0	904921088	57	5116
2026-01-22 01:13:58.85	258.33	16.55	-43.5	-45.9	18.3	0.00e+00	0	38	0	908066816	57	5081
2026-01-22 01:13:59.58	258.22	16.49	-43.6	-46.0	18.2	0.00e+00	0	38	0	909115392	57	5141
2026-01-22 01:14:00.86	258.03	16.38	-43.7	-46.1	18.1	0.00e+00	0	38	0	911212544	58	4918
2026-01-22 01:14:01.58	257.92	16.32	-43.7	-46.2	18.0	0.00e+00	0	38	0	913309696	58	4956
2026-01-22 01:14:02.86	257.73	16.21	-43.7	-46.2	18.1	0.00e+00	0	38	0	915406848	58	4937
2026-01-22 01:14:03.57	257.62	16.16	-43.7	-46.2	18.1	0.00e+00	0	38	0	916455424	58	4948
2026-01-22 01:14:04.85	257.43	16.05	-43.8	-46.3	17.9	0.00e+00	0	38	0	918552576	58	5007
2026-01-22 01:14:05.58	257.33	15.99	-43.7	-46.2	18.0	0.00e+00	0	38	0	920649728	58	4978
2026-01-22 01:14:06.85	257.14	15.88	-43.7	-46.2	18.1	0.00e+00	0	38	0	922746880	58	4938
2026-01-22 01:14:07.57	257.04	15.82	-43.6	-46.0	18.2	0.00e+00	0	38	0	923795456	58	4857
2026-01-22 01:14:08.84	256.85	15.72	-43.6	-46.0	18.1	0.00e+00	0	38	0	926941184	58	4869
2026-01-22 01:14:09.56	256.75	15.66	-43.6	-46.0	18.2	0.00e+00	0	38	0	927989760	58	4862
2026-01-22 01:14:10.83	256.57	15.55	-43.6	-46.1	18.1	0.00e+00	0	38	0	930086912	58	4910
2026-01-22 01:14:11.56	256.46	15.49	-43.7	-46.2	18.0	0.00e+00	0	38	0	931135488	58	4946
2026-01-22 01:14:12.84	256.28	15.39	-43.8	-46.3	17.9	0.00e+00	0	38	0	934281216	58	5020
2026-01-22 01:14:13.55	256.18	15.33	-43.9	-46.4	17.8	0.00e+00	0	38	0	935329792	58	5092
2026-01-22 01:14:14.83	256.01	15.22	-43.9	-46.5	17.7	0.00e+00	0	38	0	937426944	58	5117
2026-01-22 01:14:15.55	255.91	15.16	-43.9	-46.5	17.7	0.00e+00	0	38	0	939524096	58	5122
2026-01-22 01:14:16.83	255.73	15.06	-43.9	-46.4	17.8	0.00e+00	0	38	0	941621248	58	5096
2026-01-22 01:14:17.55	255.63	15.00	-43.8	-46.4	17.8	0.00e+00	0	38	0	942669824	58	5053
2026-01-22 01:14:18.83	255.46	14.90	-43.8	-46.4	17.8	0.00e+00	0	38	0	944766976	58	5074
2026-01-22 01:14:19.54	255.36	14.84	-43.9	-46.5	17.8	0.00e+00	0	38	0	946864128	58	5115
2026-01-22 01:14:20.82	255.19	14.73	-43.8	-46.4	17.8	0.00e+00	0	38	0	948961280	58	5043
2026-01-22 01:14:21.60	255.08	14.67	-43.8	-46.4	17.9	0.00e+00	0	38	0	950009856	58	5053
2026-01-22 01:14:22.88	254.91	14.57	-43.9	-46.5	17.7	0.00e+00	0	38	0	953155584	58	5157
2026-01-22 01:14:23.67	254.81	14.50	-44.2	-46.8	17.4	0.00e+00	0	38	0	954204160	58	5322
2026-01-22 01:14:25.18	254.61	14.38	-44.3	-47.0	17.2	0.00e+00	0	38	0	957349888	59	5118
2026-01-22 01:14:25.89	254.51	14.32	-44.3	-47.0	17.2	0.00e+00	0	38	0	958398464	59	5134
2026-01-22 01:14:27.17	254.35	14.22	-44.3	-47.0	17.2	0.00e+00	0	38	0	960495616	59	5144
2026-01-22 01:14:27.88	254.25	14.16	-44.4	-47.2	17.1	0.00e+00	0	38	0	962592768	59	5241
2026-01-22 01:14:29.17	254.09	14.06	-44.3	-47.0	17.2	0.00e+00	0	38	0	964689920	59	5131
2026-01-22 01:14:29.88	254.00	14.00	-44.3	-47.0	17.2	0.00e+00	0	38	0	965738496	59	5138
2026-01-22 01:14:31.16	253.83	13.90	-44.4	-47.1	17.1	0.00e+00	0	38	0	967835648	59	5216
2026-01-22 01:14:31.90	253.74	13.84	-44.4	-47.1	17.1	0.00e+00	0	38	0	969932800	59	5206
2026-01-22 01:14:33.18	253.58	13.74	-44.3	-47.0	17.2	0.00e+00	0	38	0	972029952	59	5155
2026-01-22 01:14:34.00	253.48	13.67	-44.3	-47.0	17.2	0.00e+00	0	38	0	974127104	59	5124
2026-01-22 01:14:35.14	253.33	13.58	-44.2	-46.9	17.3	0.00e+00	0	38	0	976224256	59	5070
2026-01-22 01:14:35.99	253.23	13.51	-44.4	-47.1	17.1	0.00e+00	0	38	0	977272832	59	5191
2026-01-22 01:14:37.12	253.09	13.42	-44.3	-47.0	17.2	0.00e+00	0	38	0	979369984	59	5110
2026-01-22 01:14:38.24	252.95	13.33	-44.3	-46.9	17.3	0.00e+00	0	38	0	981467136	59	5090
2026-01-22 01:14:39.10	252.85	13.26	-44.3	-47.0	17.2	0.00e+00	0	38	0	983564288	59	5132
2026-01-22 01:14:40.23	252.71	13.17	-44.4	-47.2	17.0	0.00e+00	0	38	0	985661440	59	5233
2026-01-22 01:14:41.31	252.58	13.09	-44.6	-47.3	16.9	0.00e+00	0	38	0	987758592	59	5330
2026-01-22 01:14:42.33	252.46	13.01	-44.5	-47.2	17.0	0.00e+00	0	38	0	988807168	59	5256
2026-01-22 01:14:43.50	252.32	12.92	-44.4	-47.2	17.0	0.00e+00	0	38	0	990904320	59	5226
2026-01-22 01:14:44.35	252.22	12.85	-44.4	-47.2	17.0	0.00e+00	0	38	0	993001472	59	5223
2026-01-22 01:14:45.49	252.08	12.76	-44.5	-47.2	16.9	0.00e+00	0	38	0	995098624	59	5274
2026-01-22 01:14:46.35	251.98	12.69	-44.5	-47.2	16.9	0.00e+00	0	38	0	997195776	59	5263
2026-01-22 01:14:47.48	251.85	12.60	-44.5	-47.3	16.9	0.00e+00	0	38	0	999292928	59	5303
2026-01-22 01:14:48.33	251.75	12.54	-44.5	-47.3	16.9	0.00e+00	0	38	0	1000341504	59	5285
2026-01-22 01:14:49.47	251.62	12.45	-44.5	-47.2	16.9	0.00e+00	0	38	0	1002438656	59	5276
2026-01-22 01:14:50.32	251.52	12.38	-44.5	-47.3	16.9	0.00e+00	0	38	0	1004535808	59	5280
2026-01-22 01:14:51.46	251.39	12.29	-44.6	-47.4	16.8	0.00e+00	0	38	0	1006632960	59	5392
2026-01-22 01:14:52.31	251.30	12.23	-44.6	-47.4	16.8	0.00e+00	0	38	0	1007681536	59	5386
2026-01-22 01:14:53.45	251.17	12.14	-44.7	-47.5	16.7	0.00e+00	0	38	0	1009778688	60	5141
2026-01-22 01:14:54.30	251.07	12.07	-44.7	-47.6	16.6	0.00e+00	0	38	0	1011875840	60	5176
2026-01-22 01:14:55.44	250.94	11.99	-44.9	-47.8	16.4	0.00e+00	0	38	0	1013972992	60	5326
2026-01-22 01:14:56.29	250.85	11.92	-45.0	-47.9	16.3	0.00e+00	0	38	0	1015021568	60	5376
2026-01-22 01:14:57.43	250.72	11.83	-45.1	-48.1	16.1	0.00e+00	0	38	0	1017118720	60	5504
2026-01-22 01:14:58.30	250.63	11.77	-45.2	-48.2	16.1	0.00e+00	0	38	0	1019215872	61	5236
2026-01-22 01:14:59.61	250.48	11.67	-45.3	-48.5	15.8	0.00e+00	0	38	0	1021313024	61	5410
2026-01-22 01:15:00.32	250.41	11.61	-45.3	-48.4	15.9	0.00e+00	0	38	0	1023410176	61	5360
2026-01-22 01:15:01.81	250.25	11.50	-45.2	-48.2	16.0	0.00e+00	0	38	0	1025507328	61	5263
2026-01-22 01:15:02.52	250.17	11.44	-45.2	-48.3	15.9	0.00e+00	0	38	0	1027604480	61	5328
2026-01-22 01:15:03.79	250.03	11.35	-45.2	-48.3	15.9	0.00e+00	0	38	0	1029701632	61	5296
2026-01-22 01:15:04.52	249.96	11.29	-45.3	-48.4	15.9	0.00e+00	0	38	0	1030750208	61	5351
2026-01-22 01:15:05.80	249.82	11.20	-45.3	-48.4	15.8	0.00e+00	0	38	0	1032847360	61	5347
2026-01-22 01:15:06.52	249.74	11.14	-45.2	-48.3	15.9	0.00e+00	0	38	0	1034944512	61	5294
2026-01-22 01:15:07.80	249.61	11.04	-45.2	-48.2	16.0	0.00e+00	0	38	0	1037041664	61	5255
2026-01-22 01:15:08.52	249.54	10.99	-45.2	-48.3	15.9	0.00e+00	0	38	0	1038090240	61	5289
2026-01-22 01:15:09.80	249.40	10.89	-45.3	-48.4	15.8	0.00e+00	0	38	0	1041235968	61	5385
2026-01-22 01:15:10.54	249.33	10.84	-45.4	-48.6	15.6	0.00e+00	0	38	0	1042284544	61	5503
2026-01-22 01:15:11.82	249.20	10.74	-45.5	-48.7	15.5	0.00e+00	0	38	0	1044381696	61	5568
2026-01-22 01:15:12.54	249.12	10.69	-45.4	-48.6	15.6	0.00e+00	0	38	0	1045430272	61	5516
2026-01-22 01:15:13.82	248.99	10.59	-45.5	-48.7	15.5	0.00e+00	0	38	0	1048576000	61	5560
2026-01-22 01:15:14.55	248.92	10.54	-45.6	-48.8	15.3	0.00e+00	0	38	0	1049624576	61	5645
2026-01-22 01:15:15.83	248.79	10.44	-45.5	-48.8	15.4	0.00e+00	0	38	0	1051721728	61	5605
2026-01-22 01:15:16.59	248.71	10.39	-45.6	-48.9	15.3	0.00e+00	0	38	0	1053818880	61	5658
2026-01-22 01:15:17.87	248.59	10.29	-45.5	-48.8	15.4	0.00e+00	0	38	0	1055916032	61	5602
2026-01-22 01:15:18.58	248.52	10.24	-45.5	-48.7	15.4	0.00e+00	0	38	0	1056964608	61	5585
2026-01-22 01:15:19.86	248.39	10.14	-45.4	-48.6	15.5	0.00e+00	0	38	0	1060110336	61	5510
2026-01-22 01:15:20.58	248.32	10.09	-45.5	-48.7	15.4	0.00e+00	0	38	0	1061158912	61	5553
2026-01-22 01:15:21.86	248.20	10.00	-45.4	-48.6	15.6	0.00e+00	0	38	0	1063256064	61	5498
2026-01-22 01:15:22.59	248.13	9.94	-45.4	-48.6	15.5	0.00e+00	0	38	0	1064304640	61	5518
2026-01-22 01:15:23.86	248.00	9.85	-45.3	-48.5	15.7	0.00e+00	0	38	0	1067450368	61	5417
2026-01-22 01:15:24.57	247.93	9.80	-45.4	-48.5	15.6	0.00e+00	0	38	0	1068498944	61	5445
2026-01-22 01:15:25.86	247.81	9.71	-45.4	-48.6	15.5	0.00e+00	0	38	0	1070596096	61	5490
2026-01-22 01:15:26.58	247.74	9.65	-45.4	-48.6	15.5	0.00e+00	0	38	0	1072693248	61	5487
2026-01-22 01:15:27.86	247.62	9.56	-45.4	-48.6	15.5	7.00e-07	0	38	0	1074790400	61	5527
2026-01-22 01:15:28.57	247.56	9.51	-45.5	-48.7	15.4	0.00e+00	0	38	0	1075838976	61	5568
2026-01-22 01:15:29.85	247.44	9.42	-45.5	-48.8	15.3	7.00e-07	0	38	0	1077936128	61	5623
2026-01-22 01:15:30.58	247.37	9.36	-45.6	-48.9	15.3	0.00e+00	0	38	0	1080033280	61	5661
2026-01-22 01:15:31.86	247.25	9.27	-45.6	-48.9	15.2	0.00e+00	0	38	0	1082130432	61	5669
2026-01-22 01:15:32.60	247.18	9.22	-45.7	-49.1	15.0	0.00e+00	0	38	0	1083179008	62	5494
2026-01-22 01:15:33.87	247.07	9.13	-45.6	-49.0	15.1	0.00e+00	0	38	0	1086324736	62	5429
2026-01-22 01:15:34.59	247.00	9.07	-45.7	-49.1	15.0	0.00e+00	0	38	0	1087373312	62	5509
2026-01-22 01:15:35.86	246.89	8.98	-50.2	-65.4	3.7	0.00e+00	0	38	104	1089470464	71	21432
2026-01-22 01:15:36.57	246.82	8.93	-50.3	-65.6	3.8	1.49e+00	0	38	104	1089470464	71	21795
2026-01-22 01:15:37.85	246.71	8.84	-50.5	-65.8	3.8	1.49e+00	0	38	104	1089470464	71	22448
2026-01-22 01:15:38.56	246.64	8.79	-50.5	-65.9	3.8	1.49e+00	0	38	104	1089470464	71	22691
2026-01-22 01:15:39.84	246.53	8.70	-50.7	-66.0	3.8	1.49e+00	0	38	104	1089470464	72	21614
2026-01-22 01:15:40.55	246.47	8.65	-50.6	-66.0	3.8	1.49e+00	0	38	104	1089470464	72	21685
2026-01-22 01:15:41.84	246.35	8.56	-50.7	-66.1	3.8	1.49e+00	0	38	104	1089470464	72	21866
2026-01-22 01:15:42.55	246.29	8.51	-50.8	-66.1	3.8	1.49e+00	0	38	104	1089470464	72	21817
2026-01-22 01:15:43.83	246.18	8.42	-50.8	-66.1	3.8	1.49e+00	0	38	104	1089470464	72	21918
2026-01-22 01:15:44.55	246.12	8.37	-50.7	-66.1	3.8	1.49e+00	0	38	104	1089470464	72	21938
2026-01-22 01:15:45.83	246.01	8.28	-50.8	-66.2	3.8	1.49e+00	0	38	104	1089470464	72	22066
2026-01-22 01:15:46.54	245.95	8.23	-50.9	-66.2	3.8	1.49e+00	0	38	104	1089470464	72	22063
2026-01-22 01:15:47.82	245.84	8.14	-50.8	-66.2	3.8	1.49e+00	0	38	104	1089470464	72	22042
2026-01-22 01:15:48.53	245.78	8.09	-50.8	-66.1	3.8	1.49e+00	0	38	104	1089470464	72	22001
2026-01-22 01:15:49.80	245.67	8.00	-50.7	-66.1	3.8	1.49e+00	0	38	104	1089470464	72	21993
2026-01-22 01:15:50.52	245.61	7.95	-50.8	-66.2	3.8	1.49e+00	0	38	104	1089470464	72	22171
2026-01-22 01:15:51.79	245.50	7.86	-50.7	-66.1	3.8	1.49e+00	0	38	104	1089470464	72	21998
2026-01-22 01:15:52.50	245.44	7.81	-50.7	-66.2	3.8	1.49e+00	0	38	104	1089470464	72	22015
2026-01-22 01:15:53.78	245.34	7.72	-50.7	-66.1	3.8	1.49e+00	0	38	104	1089470464	72	21983
2026-01-22 01:15:54.49	245.28	7.67	-50.6	-66.1	3.8	1.49e+00	0	38	104	1089470464	72	21906
2026-01-22 01:15:55.77	245.17	7.59	-50.6	-66.1	3.8	1.49e+00	0	38	104	1089470464	72	21893
2026-01-22 01:15:56.49	245.11	7.54	-50.6	-66.1	3.8	1.49e+00	0	38	104	1089470464	72	21927
2026-01-22 01:15:57.77	245.01	7.45	-50.5	-66.1	3.8	1.49e+00	0	38	104	1089470464	72	21844
2026-01-22 01:15:58.48	244.95	7.40	-50.5	-66.1	3.8	1.49e+00	0	38	104	1089470464	72	21777
2026-01-22 01:15:59.76	244.85	7.31	-50.5	-66.0	3.8	1.49e+00	0	38	104	1089470464	72	21700
2026-01-22 01:16:00.48	244.79	7.26	-50.5	-66.1	3.8	1.49e+00	0	38	104	1089470464	72	21800
2026-01-22 01:16:01.76	244.69	7.18	-50.5	-66.1	3.8	1.49e+00	0	38	104	1089470464	72	21793
2026-01-22 01:16:02.47	244.63	7.13	-50.5	-66.0	3.8	1.49e+00	0	38	104	1089470464	72	21735
2026-01-22 01:16:03.75	244.53	7.04	-50.5	-66.1	3.8	1.49e+00	0	38	104	1089470464	72	21841
2026-01-22 01:16:04.45	244.48	6.99	-50.5	-66.0	3.8	1.49e+00	0	38	104	1089470464	72	21694
2026-01-22 01:16:05.73	244.38	6.91	-50.5	-66.0	3.8	1.49e+00	0	38	104	1089470464	72	21632
2026-01-22 01:16:06.44	244.32	6.86	-50.5	-66.0	3.8	1.49e+00	0	38	104	1089470464	72	21662
2026-01-22 01:16:07.72	244.22	6.77	-50.5	-66.0	3.8	1.49e+00	0	38	104	1089470464	72	21737
2026-01-22 01:16:08.43	244.17	6.72	-50.5	-66.1	3.8	1.49e+00	0	38	104	1089470464	72	21787
2026-01-22 01:16:09.70	244.07	6.64	-50.5	-66.0	3.8	1.49e+00	0	38	104	1089470464	72	21674
2026-01-22 01:16:10.41	244.01	6.59	-50.5	-66.0	3.8	1.49e+00	0	38	104	1089470464	72	21695
2026-01-22 01:16:11.69	243.92	6.51	-50.5	-66.0	3.8	1.49e+00	0	38	104	1089470464	72	21610
2026-01-22 01:16:12.40	243.86	6.46	-50.5	-66.0	3.8	1.49e+00	0	38	104	1089470464	72	21704
2026-01-22 01:16:13.68	243.77	6.37	-50.5	-66.0	3.8	1.49e+00	0	38	104	1089470464	72	21714
2026-01-22 01:16:14.40	243.71	6.33	-50.5	-66.0	3.8	1.49e+00	0	38	104	1089470464	72	21693
2026-01-22 01:16:15.68	243.62	6.24	-50.5	-66.0	3.8	1.49e+00	0	38	104	1089470464	72	21729
2026-01-22 01:16:16.40	243.56	6.19	-50.5	-66.0	3.8	1.49e+00	0	38	104	1089470464	72	21723
2026-01-22 01:16:17.68	243.47	6.11	-50.5	-66.0	3.8	1.49e+00	0	38	104	1089470464	72	21671
2026-01-22 01:16:18.39	243.42	6.06	-50.5	-66.0	3.8	1.49e+00	0	38	104	1089470464	72	21658
2026-01-22 01:16:19.67	243.32	5.98	-50.5	-66.0	3.8	1.49e+00	0	38	104	1089470464	72	21688
2026-01-22 01:16:20.38	243.27	5.93	-50.5	-66.0	3.8	1.49e+00	0	38	104	1089470464	72	21679
2026-01-22 01:16:21.67	243.18	5.84	-50.5	-66.1	3.8	1.49e+00	0	38	104	1089470464	72	21775
2026-01-22 01:16:22.38	243.13	5.80	-50.5	-66.0	3.8	1.49e+00	0	38	104	1089470464	72	21669
2026-01-22 01:16:23.66	243.03	5.71	-50.5	-66.0	3.8	1.49e+00	0	38	104	1089470464	72	21610
2026-01-22 01:16:24.37	242.98	5.67	-50.5	-66.0	3.8	1.49e+00	0	38	104	1089470464	72	21711
2026-01-22 01:16:25.65	242.89	5.58	-50.5	-66.0	3.8	1.49e+00	0	38	104	1089470464	72	21676
2026-01-22 01:16:26.36	242.84	5.54	-50.5	-66.0	3.8	1.49e+00	0	38	104	1089470464	72	21674
2026-01-22 01:16:27.63	242.75	5.46	-50.5	-66.0	3.8	1.49e+00	0	38	104	1089470464	72	21699
2026-01-22 01:16:28.34	242.70	5.41	-50.5	-66.0	3.8	1.49e+00	0	38	104	1089470464	72	21561
2026-01-22 01:16:29.62	242.61	5.33	-50.5	-66.0	3.8	1.49e+00	0	38	104	1089470464	72	21656
2026-01-22 01:16:30.36	242.56	5.28	-50.5	-66.0	3.8	1.49e+00	0	38	104	1089470464	72	21711
2026-01-22 01:16:31.64	242.47	5.20	-50.5	-66.0	3.8	1.49e+00	0	38	104	1089470464	72	21626
2026-01-22 01:16:32.36	242.42	5.15	-50.5	-66.0	3.8	1.49e+00	0	38	104	1089470464	72	21641
2026-01-22 01:16:33.64	242.33	5.07	-50.5	-66.0	3.8	1.49e+00	0	38	104	1089470464	72	21721
2026-01-22 01:16:34.35	242.29	5.02	-50.5	-66.0	3.8	1.49e+00	0	38	104	1089470464	72	21633
2026-01-22 01:16:35.63	242.20	4.94	-50.5	-66.0	3.8	1.49e+00	0	38	104	1089470464	72	21684

#Closed at: 2026-01-22 01:16:36
#Recorded file [1089 MB]: D:/Data/31040_260122_040506.dat