passes_logs/2026/01/22/T1/T1__20260122_032541_FENGYUN_3E_rec.log

#Pass ID: 20260122_032541_FENGYUN 3E
#Satellite: FENGYUN 3E
#Configuration: FENGYUN 3E
#almurnet v.1.7.20251203
#Start time: 2026-01-22 03:25:41

#Version: 2.0.20230620
#Station: T1
#Location: 37.570604 lon 55.790049 lat
#TLE: 1 49008U 21062A   26021.55921410  .00000414  00000+0  21575-3 0  9991
#TLE: 2 49008  98.7483  26.6103 0002287 125.5068 234.6322 14.19887394235776

#Time	Az	El	Level	Level2	SNR	BER	BlckErr	Temp	State	Recorded	gain1	gain2
2026-01-22 03:25:41.75	20.24	5.05	-49.3	-60.8	3.8	8.46e-01	0	35	0	0	69	13181
2026-01-22 03:25:42.74	20.28	5.12	-49.1	-60.7	3.8	8.46e-01	0	35	104	0	67	14556
2026-01-22 03:25:43.73	20.31	5.18	-49.1	-60.6	3.8	8.46e-01	0	36	104	0	67	14419
2026-01-22 03:25:44.73	20.34	5.25	-49.2	-60.6	3.8	8.46e-01	0	36	104	0	67	14395
2026-01-22 03:25:45.72	20.38	5.32	-49.1	-60.5	3.8	8.47e-01	0	36	104	0	67	14360
2026-01-22 03:25:46.71	20.41	5.39	-49.2	-60.5	3.8	8.47e-01	0	36	104	0	67	14368
2026-01-22 03:25:47.71	20.45	5.46	-49.1	-60.5	3.8	8.46e-01	0	36	104	0	67	14281
2026-01-22 03:25:48.70	20.48	5.53	-49.1	-60.5	3.8	8.46e-01	0	36	104	0	67	14346
2026-01-22 03:25:49.69	20.51	5.60	-49.1	-60.5	3.8	8.47e-01	0	36	104	0	67	14305
2026-01-22 03:25:50.69	20.55	5.67	-49.1	-60.5	3.8	8.47e-01	0	36	104	0	67	14315
2026-01-22 03:25:51.68	20.58	5.74	-49.1	-60.6	3.8	8.47e-01	0	36	104	0	67	14375
2026-01-22 03:25:52.67	20.62	5.82	-49.1	-60.6	3.8	8.48e-01	0	36	104	0	67	14500
2026-01-22 03:25:53.67	20.65	5.89	-49.1	-60.6	3.8	8.46e-01	0	36	104	0	67	14489
2026-01-22 03:25:54.66	20.69	5.96	-49.1	-60.6	3.8	8.47e-01	0	36	104	0	67	14531
2026-01-22 03:25:55.66	20.72	6.03	-49.2	-60.7	3.8	8.46e-01	0	36	104	0	67	14609
2026-01-22 03:25:56.65	20.76	6.10	-49.1	-60.7	3.8	8.48e-01	0	36	104	0	67	14563
2026-01-22 03:25:57.64	20.80	6.17	-49.1	-60.7	3.8	8.46e-01	0	36	104	0	67	14676
2026-01-22 03:25:58.64	20.83	6.25	-49.1	-60.7	3.8	8.47e-01	0	36	104	0	67	14553
2026-01-22 03:25:59.63	20.87	6.32	-49.1	-60.7	3.8	8.46e-01	0	36	104	0	67	14585
2026-01-22 03:26:00.62	20.90	6.39	-49.1	-60.6	3.8	8.45e-01	0	36	104	0	67	14519
2026-01-22 03:26:01.62	20.94	6.46	-49.1	-60.6	3.8	8.45e-01	0	36	104	0	67	14388
2026-01-22 03:26:02.61	20.98	6.54	-49.1	-60.4	3.8	8.47e-01	0	36	104	0	67	14123
2026-01-22 03:26:03.60	21.01	6.61	-49.1	-60.3	3.8	8.46e-01	0	36	104	0	67	13950
2026-01-22 03:26:04.60	21.05	6.68	-49.1	-60.1	3.8	8.47e-01	0	36	104	0	67	13652
2026-01-22 03:26:05.59	21.09	6.75	-49.1	-59.9	3.8	8.48e-01	0	36	104	0	67	13286
2026-01-22 03:26:06.58	21.12	6.83	-49.0	-59.6	3.8	8.47e-01	0	36	104	0	67	12839
2026-01-22 03:26:07.58	21.16	6.90	-48.9	-59.1	3.8	8.46e-01	0	37	104	0	67	12195
2026-01-22 03:26:08.57	21.20	6.98	-48.9	-58.7	3.9	8.45e-01	0	36	104	0	67	11625
2026-01-22 03:26:09.57	21.24	7.05	-48.8	-58.2	4.0	8.46e-01	0	36	104	0	67	11007
2026-01-22 03:26:10.56	21.27	7.13	-48.8	-57.9	4.0	8.44e-01	0	37	104	0	67	10536
2026-01-22 03:26:11.55	21.31	7.20	-48.7	-57.5	4.1	8.40e-01	0	36	0	0	67	10135
2026-01-22 03:26:12.55	21.35	7.27	-48.7	-57.0	4.2	8.39e-01	0	36	0	0	67	9587
2026-01-22 03:26:13.54	21.39	7.35	-48.7	-57.0	4.2	8.36e-01	0	37	0	0	67	9512
2026-01-22 03:26:14.53	21.43	7.42	-48.6	-56.7	4.4	8.32e-01	0	37	0	0	67	9187
2026-01-22 03:26:15.53	21.47	7.50	-48.6	-56.6	4.3	8.34e-01	0	37	0	0	67	9152
2026-01-22 03:26:16.52	21.50	7.58	-48.6	-56.6	4.4	8.28e-01	0	37	0	0	67	9085
2026-01-22 03:26:17.51	21.54	7.65	-48.6	-56.5	4.4	8.26e-01	0	37	0	0	67	8972
2026-01-22 03:26:18.51	21.58	7.73	-48.6	-56.5	4.4	8.29e-01	0	37	0	0	67	9036
2026-01-22 03:26:19.50	21.62	7.80	-48.5	-56.3	4.5	8.26e-01	0	37	0	0	67	8818
2026-01-22 03:26:20.49	21.66	7.88	-48.6	-56.4	4.4	8.25e-01	0	37	0	0	67	8909
2026-01-22 03:26:21.49	21.70	7.96	-48.5	-56.3	4.5	8.26e-01	0	37	0	0	67	8861
2026-01-22 03:26:22.48	21.74	8.03	-48.5	-56.1	4.5	8.22e-01	0	37	0	0	67	8627
2026-01-22 03:26:23.48	21.78	8.11	-48.5	-55.9	4.6	8.17e-01	0	37	0	0	67	8425
2026-01-22 03:26:24.47	21.82	8.19	-48.3	-55.4	4.9	8.00e-01	0	37	0	0	67	7958
2026-01-22 03:26:25.46	21.86	8.27	-48.3	-55.1	5.0	7.76e-01	0	37	0	0	67	7686
2026-01-22 03:26:26.45	21.90	8.35	-48.1	-54.3	5.5	7.03e-01	0	37	0	0	67	7005
2026-01-22 03:26:27.45	21.94	8.42	-47.8	-53.4	6.2	3.34e-01	0	37	0	5242880	66	6667
2026-01-22 03:26:28.44	21.99	8.50	-47.4	-52.1	7.4	1.45e-01	0	37	0	12582912	65	6102
2026-01-22 03:26:29.44	22.03	8.58	-46.9	-51.1	8.3	6.24e-02	0	37	0	19922944	64	5785
2026-01-22 03:26:30.43	22.07	8.66	-46.4	-50.0	9.6	1.67e-02	0	37	0	27262976	63	5347
2026-01-22 03:26:31.42	22.11	8.74	-45.9	-48.9	10.6	5.08e-03	0	37	0	34603008	62	5024
2026-01-22 03:26:32.42	22.15	8.82	-45.2	-47.8	11.8	9.91e-04	0	37	0	40894464	61	4687
2026-01-22 03:26:33.41	22.19	8.90	-44.6	-46.8	12.8	4.92e-05	0	37	0	48234496	59	4681
2026-01-22 03:26:34.40	22.24	8.98	-44.1	-46.2	13.4	3.20e-05	0	37	0	55574528	59	4371
2026-01-22 03:26:35.40	22.28	9.06	-43.9	-45.9	13.7	1.10e-06	0	37	0	62914560	58	4461
2026-01-22 03:26:36.39	22.32	9.14	-45.1	-47.5	12.1	4.69e-05	0	37	0	70254592	59	5077
2026-01-22 03:26:37.39	22.37	9.22	-46.3	-49.3	10.1	2.18e-01	0	37	0	76546048	63	4975
2026-01-22 03:26:38.38	22.41	9.30	-41.6	-43.1	16.6	0.00e+00	0	37	0	83886080	52	4551
2026-01-22 03:26:39.37	22.45	9.38	-42.9	-44.5	15.2	1.56e-04	0	37	0	91226112	56	4271
2026-01-22 03:26:40.37	22.50	9.46	-39.9	-41.1	18.4	0.00e+00	0	37	0	98566144	50	4078
2026-01-22 03:26:41.36	22.54	9.54	-39.9	-41.1	18.5	0.00e+00	0	37	0	105906176	50	4071
2026-01-22 03:26:42.36	22.58	9.63	-39.5	-40.7	18.9	0.00e+00	0	37	0	113246208	49	4111
2026-01-22 03:26:43.36	22.63	9.71	-39.4	-40.5	19.1	0.00e+00	0	37	0	120586240	49	4018
2026-01-22 03:26:44.35	22.67	9.79	-39.3	-40.4	19.1	0.00e+00	0	37	0	127926272	49	4002
2026-01-22 03:26:45.44	22.72	9.88	-39.4	-40.4	19.1	0.00e+00	0	37	0	135266304	49	4004
2026-01-22 03:26:46.32	22.76	9.96	-39.4	-40.5	19.1	0.00e+00	0	37	0	141557760	49	4016
2026-01-22 03:26:47.46	22.81	10.05	-39.2	-40.3	19.3	0.00e+00	0	37	0	149946368	49	3924
2026-01-22 03:26:48.32	22.85	10.12	-39.2	-40.2	19.4	0.00e+00	0	37	0	156237824	49	3903
2026-01-22 03:26:49.45	22.90	10.22	-39.1	-40.1	19.5	0.00e+00	0	37	0	164626432	49	3849
2026-01-22 03:26:50.31	22.94	10.29	-39.1	-40.2	19.4	0.00e+00	0	37	0	170917888	48	4108
2026-01-22 03:26:51.44	23.00	10.39	-39.1	-40.1	19.5	0.00e+00	0	37	0	178257920	48	4090
2026-01-22 03:26:52.30	23.04	10.46	-39.0	-40.0	19.6	0.00e+00	0	37	0	184549376	48	4041
2026-01-22 03:26:53.43	23.09	10.56	-38.9	-39.9	19.7	0.00e+00	0	37	0	192937984	48	3972
2026-01-22 03:26:54.29	23.13	10.63	-39.1	-40.2	19.5	0.00e+00	0	37	0	199229440	48	4104
2026-01-22 03:26:55.43	23.18	10.73	-39.0	-40.0	19.6	0.00e+00	0	37	0	207618048	48	4049
2026-01-22 03:26:56.28	23.23	10.80	-38.9	-39.9	19.7	0.00e+00	0	37	0	213909504	48	3987
2026-01-22 03:26:57.41	23.28	10.90	-38.8	-39.8	19.8	0.00e+00	0	37	0	222298112	48	3947
2026-01-22 03:26:58.27	23.32	10.97	-38.8	-39.8	19.8	0.00e+00	0	37	0	227540992	48	3948
2026-01-22 03:26:59.40	23.38	11.07	-38.4	-39.3	20.0	0.00e+00	0	37	0	235929600	47	3956
2026-01-22 03:27:00.25	23.42	11.15	-38.8	-39.8	19.6	0.00e+00	0	37	0	242221056	47	4164
2026-01-22 03:27:01.52	23.48	11.26	-38.6	-39.6	19.7	0.00e+00	0	37	0	251658240	47	4089
2026-01-22 03:27:02.29	23.52	11.33	-38.6	-39.6	19.8	0.00e+00	0	37	0	256901120	47	4070
2026-01-22 03:27:03.71	23.59	11.45	-38.7	-39.7	19.7	0.00e+00	0	38	0	267386880	47	4108
2026-01-22 03:27:04.42	23.62	11.51	-38.7	-39.7	19.7	0.00e+00	0	37	0	272629760	47	4120
2026-01-22 03:27:05.75	23.69	11.63	-38.7	-39.7	19.7	0.00e+00	0	37	0	282066944	47	4112
2026-01-22 03:27:06.46	23.73	11.70	-38.7	-39.7	19.7	0.00e+00	0	38	0	287309824	47	4103
2026-01-22 03:27:07.74	23.79	11.81	-38.6	-39.6	19.8	0.00e+00	0	37	0	295698432	47	4074
2026-01-22 03:27:08.46	23.83	11.88	-38.7	-39.8	19.7	0.00e+00	0	37	0	301989888	47	4147
2026-01-22 03:27:09.74	23.89	11.99	-38.6	-39.6	19.8	0.00e+00	0	37	0	310378496	47	4083
2026-01-22 03:27:10.47	23.93	12.06	-38.5	-39.5	19.9	0.00e+00	0	37	0	315621376	47	4051
2026-01-22 03:27:11.75	24.00	12.17	-38.5	-39.5	19.9	0.00e+00	0	37	0	325058560	47	4046
2026-01-22 03:27:12.49	24.04	12.24	-38.5	-39.5	19.9	0.00e+00	0	37	0	330301440	47	4034
2026-01-22 03:27:13.77	24.10	12.36	-38.5	-39.5	19.8	0.00e+00	0	37	0	339738624	47	4050
2026-01-22 03:27:14.48	24.14	12.42	-38.5	-39.4	20.0	0.00e+00	0	38	0	344981504	47	4003
2026-01-22 03:27:15.76	24.21	12.54	-38.4	-39.4	20.0	0.00e+00	0	38	0	354418688	47	3972
2026-01-22 03:27:16.47	24.25	12.61	-38.4	-39.4	20.0	0.00e+00	0	37	0	359661568	47	3985
2026-01-22 03:27:17.74	24.31	12.73	-38.3	-39.3	20.1	0.00e+00	0	37	0	368050176	47	3936
2026-01-22 03:27:18.61	24.36	12.81	-38.4	-39.4	20.0	0.00e+00	0	38	0	374341632	47	3977
2026-01-22 03:27:20.03	24.44	12.94	-38.4	-39.4	20.0	0.00e+00	0	37	0	384827392	47	3974
2026-01-22 03:27:20.74	24.48	13.01	-38.2	-39.3	20.2	0.00e+00	0	37	0	390070272	46	4153
2026-01-22 03:27:22.24	24.56	13.15	-38.5	-39.5	19.9	0.00e+00	0	37	0	400556032	46	4278
2026-01-22 03:27:22.95	24.60	13.22	-38.3	-39.4	20.0	0.00e+00	0	38	0	405798912	46	4197
2026-01-22 03:27:24.23	24.67	13.34	-38.2	-39.2	20.1	0.00e+00	0	38	0	415236096	46	4139
2026-01-22 03:27:24.95	24.71	13.41	-38.2	-39.3	20.1	0.00e+00	0	38	0	420478976	46	4152
2026-01-22 03:27:26.23	24.78	13.53	-38.2	-39.2	20.2	0.00e+00	0	37	0	429916160	46	4142
2026-01-22 03:27:26.96	24.83	13.60	-38.2	-39.2	20.2	0.00e+00	0	38	0	435159040	46	4130
2026-01-22 03:27:28.24	24.90	13.72	-38.3	-39.3	20.1	0.00e+00	0	38	0	444596224	46	4191
2026-01-22 03:27:28.95	24.94	13.79	-38.1	-39.1	20.3	0.00e+00	0	38	0	449839104	46	4063
2026-01-22 03:27:30.23	25.01	13.92	-38.3	-39.3	20.1	0.00e+00	0	38	0	458227712	46	4182
2026-01-22 03:27:30.95	25.06	13.99	-38.6	-39.6	19.9	0.00e+00	0	38	0	463470592	46	4316
2026-01-22 03:27:32.23	25.13	14.11	-38.3	-39.3	20.2	0.00e+00	0	37	0	472907776	46	4148
2026-01-22 03:27:32.94	25.17	14.18	-38.3	-39.3	20.2	0.00e+00	0	37	0	478150656	46	4159
2026-01-22 03:27:34.22	25.25	14.31	-38.2	-39.2	20.3	0.00e+00	0	38	0	487587840	46	4109
2026-01-22 03:27:34.99	25.29	14.38	-38.2	-39.2	20.3	0.00e+00	0	38	0	492830720	46	4121
2026-01-22 03:27:36.27	25.37	14.51	-38.4	-39.4	20.0	0.00e+00	0	38	0	502267904	46	4241
2026-01-22 03:27:36.98	25.41	14.58	-38.2	-39.2	20.3	0.00e+00	0	38	0	507510784	46	4128
2026-01-22 03:27:38.26	25.49	14.71	-38.3	-39.3	20.1	0.00e+00	0	38	0	516947968	46	4153
2026-01-22 03:27:39.08	25.54	14.79	-38.1	-39.1	20.4	0.00e+00	0	38	0	522190848	46	4072
2026-01-22 03:27:40.53	25.63	14.94	-38.1	-39.0	20.4	0.00e+00	0	38	0	532676608	46	4049
2026-01-22 03:27:41.24	25.68	15.01	-38.0	-38.9	20.5	0.00e+00	0	38	0	537919488	46	3999
2026-01-22 03:27:42.73	25.77	15.16	-38.1	-39.0	20.4	0.00e+00	0	38	0	548405248	46	4039
2026-01-22 03:27:43.44	25.81	15.24	-38.0	-39.0	20.5	0.00e+00	0	38	0	553648128	46	4024
2026-01-22 03:27:44.77	25.90	15.37	-37.9	-38.9	20.5	0.00e+00	0	38	0	563085312	46	3984
2026-01-22 03:27:45.48	25.94	15.45	-37.8	-38.8	20.7	0.00e+00	0	38	0	568328192	46	3932
2026-01-22 03:27:46.83	26.03	15.59	-37.7	-38.6	20.8	0.00e+00	0	38	0	578813952	46	3847
2026-01-22 03:27:47.55	26.08	15.66	-37.8	-38.8	20.6	0.00e+00	0	38	0	583008256	46	3928
2026-01-22 03:27:48.83	26.16	15.80	-37.9	-38.8	20.6	0.00e+00	0	38	0	592445440	46	3956
2026-01-22 03:27:49.55	26.21	15.87	-37.7	-38.7	20.7	0.00e+00	0	38	0	597688320	46	3890
2026-01-22 03:27:50.83	26.29	16.01	-37.6	-38.5	20.9	0.00e+00	0	38	0	607125504	45	4032
2026-01-22 03:27:51.55	26.34	16.08	-37.6	-38.5	20.9	0.00e+00	0	38	0	612368384	45	4038
2026-01-22 03:27:52.83	26.42	16.22	-37.4	-38.4	20.9	0.00e+00	0	38	0	621805568	45	3990
2026-01-22 03:27:53.54	26.47	16.29	-37.5	-38.4	21.0	0.00e+00	0	38	0	627048448	45	3994
2026-01-22 03:27:54.82	26.56	16.43	-37.5	-38.5	20.9	0.00e+00	0	38	0	636485632	45	4020
2026-01-22 03:27:55.55	26.61	16.51	-37.3	-38.3	21.1	0.00e+00	0	38	0	641728512	45	3945
2026-01-22 03:27:56.83	26.70	16.65	-37.3	-38.3	21.1	0.00e+00	0	38	0	650117120	45	3927
2026-01-22 03:27:57.57	26.75	16.73	-37.2	-38.1	21.3	0.00e+00	0	38	0	656408576	44	4088
2026-01-22 03:27:58.85	26.84	16.87	-37.2	-38.1	21.3	0.00e+00	0	38	0	664797184	44	4092
2026-01-22 03:27:59.69	26.89	16.96	-37.1	-38.0	21.4	0.00e+00	0	38	0	671088640	44	4051
2026-01-22 03:28:00.83	26.97	17.09	-37.0	-37.9	21.5	0.00e+00	0	38	0	679477248	44	3986
2026-01-22 03:28:01.68	27.04	17.18	-36.9	-37.8	21.5	0.00e+00	0	38	0	685768704	44	3957
2026-01-22 03:28:02.81	27.12	17.30	-36.9	-37.8	21.6	0.00e+00	0	38	0	694157312	44	3934
2026-01-22 03:28:03.67	27.18	17.40	-36.8	-37.8	21.6	0.00e+00	0	38	0	700448768	44	3930
2026-01-22 03:28:04.80	27.26	17.53	-36.9	-37.8	21.6	0.00e+00	0	38	0	708837376	44	3940
2026-01-22 03:28:05.65	27.32	17.62	-36.8	-37.8	21.7	0.00e+00	0	38	0	714080256	44	3915
2026-01-22 03:28:06.79	27.41	17.75	-36.7	-37.6	21.8	0.00e+00	0	38	0	722468864	44	3852
2026-01-22 03:28:07.64	27.47	17.85	-36.3	-37.2	22.0	0.00e+00	0	38	0	728760320	43	3889
2026-01-22 03:28:08.78	27.55	17.98	-36.6	-37.5	21.7	0.00e+00	0	38	0	737148928	43	4045
2026-01-22 03:28:09.63	27.62	18.07	-36.6	-37.5	21.8	0.00e+00	0	38	0	743440384	43	4019
2026-01-22 03:28:10.76	27.70	18.20	-36.6	-37.5	21.7	0.00e+00	0	38	0	750780416	43	4040
2026-01-22 03:28:11.61	27.77	18.30	-36.6	-37.5	21.7	0.00e+00	0	38	0	757071872	43	4044
2026-01-22 03:28:12.75	27.85	18.43	-36.6	-37.5	21.8	0.00e+00	0	38	0	765460480	43	4039
2026-01-22 03:28:13.60	27.92	18.53	-36.5	-37.4	21.8	0.00e+00	0	38	0	771751936	43	3977
2026-01-22 03:28:14.74	28.01	18.66	-36.6	-37.5	21.7	0.00e+00	0	38	0	780140544	43	4020
2026-01-22 03:28:15.59	28.08	18.76	-36.5	-37.4	21.8	0.00e+00	0	38	0	786432000	43	3981
2026-01-22 03:28:16.73	28.17	18.90	-36.5	-37.4	21.8	0.00e+00	0	38	0	793772032	43	3985
2026-01-22 03:28:17.58	28.23	19.00	-36.6	-37.5	21.7	0.00e+00	0	38	0	800063488	43	4013
2026-01-22 03:28:18.72	28.32	19.13	-36.5	-37.4	21.8	0.00e+00	0	38	0	808452096	43	3983
2026-01-22 03:28:19.57	28.39	19.23	-36.6	-37.5	21.6	0.00e+00	0	38	0	814743552	43	4031
2026-01-22 03:28:20.71	28.49	19.37	-36.6	-37.5	21.8	0.00e+00	0	38	0	823132160	43	4018
2026-01-22 03:28:21.56	28.56	19.47	-36.8	-37.6	21.6	0.00e+00	0	38	0	829423616	43	4092
2026-01-22 03:28:22.70	28.65	19.61	-36.7	-37.6	21.6	0.00e+00	0	38	0	837812224	43	4067
2026-01-22 03:28:23.55	28.72	19.71	-36.5	-37.4	21.9	0.00e+00	0	38	0	844103680	43	3959
2026-01-22 03:28:24.69	28.82	19.85	-36.7	-37.5	21.7	0.00e+00	0	38	0	851443712	43	4047
2026-01-22 03:28:25.58	28.89	19.96	-36.6	-37.5	21.8	0.00e+00	0	38	0	857735168	43	4016
2026-01-22 03:28:26.71	28.99	20.10	-36.7	-37.6	21.7	0.00e+00	0	38	0	866123776	43	4053
2026-01-22 03:28:27.57	29.06	20.21	-36.6	-37.5	21.7	0.00e+00	0	38	0	872415232	43	4021
2026-01-22 03:28:28.70	29.16	20.35	-36.8	-37.7	21.6	0.00e+00	0	38	0	880803840	43	4124
2026-01-22 03:28:29.72	29.25	20.47	-36.6	-37.5	21.8	0.00e+00	0	38	0	888143872	43	4013
2026-01-22 03:28:30.71	29.33	20.60	-36.5	-37.4	21.9	0.00e+00	0	38	0	895483904	43	3959
2026-01-22 03:28:31.92	29.44	20.75	-36.5	-37.4	21.9	0.00e+00	0	38	0	903872512	43	3974
2026-01-22 03:28:32.81	29.52	20.86	-36.5	-37.3	21.9	0.00e+00	0	38	0	910163968	43	3958
2026-01-22 03:28:34.12	29.64	21.03	-36.3	-37.2	22.0	0.00e+00	0	38	0	919601152	43	3871
2026-01-22 03:28:34.83	29.70	21.12	-36.5	-37.3	21.9	0.00e+00	0	38	0	924844032	43	3950
2026-01-22 03:28:36.11	29.82	21.28	-36.4	-37.2	22.0	0.00e+00	0	38	0	934281216	43	3901
2026-01-22 03:28:36.88	29.89	21.38	-36.3	-37.2	22.0	0.00e+00	0	38	0	939524096	43	3893
2026-01-22 03:28:38.16	30.01	21.55	-36.3	-37.2	22.0	0.00e+00	0	38	0	948961280	43	3896
2026-01-22 03:28:38.87	30.08	21.64	-36.2	-37.1	22.1	0.00e+00	0	38	0	954204160	43	3840
2026-01-22 03:28:40.14	30.19	21.81	-36.2	-37.1	22.2	0.00e+00	0	38	0	963641344	42	4062
2026-01-22 03:28:40.87	30.26	21.90	-36.1	-37.0	22.2	0.00e+00	0	38	0	968884224	42	4017
2026-01-22 03:28:42.15	30.39	22.07	-36.1	-36.9	22.3	0.00e+00	0	38	0	977272832	42	4000
2026-01-22 03:28:42.98	30.47	22.18	-36.1	-37.0	22.2	0.00e+00	0	38	0	983564288	42	4014
2026-01-22 03:28:44.12	30.58	22.33	-35.8	-36.6	22.5	0.00e+00	0	38	0	991952896	42	3860
2026-01-22 03:28:44.97	30.66	22.45	-36.0	-36.8	22.3	0.00e+00	0	38	0	998244352	42	3947
2026-01-22 03:28:46.11	30.78	22.60	-36.0	-36.9	22.3	0.00e+00	0	38	0	1006632960	42	3968
2026-01-22 03:28:46.96	30.86	22.71	-36.0	-36.9	22.3	0.00e+00	0	38	0	1012924416	42	3969
2026-01-22 03:28:48.10	30.98	22.87	-36.1	-37.0	22.2	0.00e+00	0	38	0	1020264448	42	4012
2026-01-22 03:28:48.95	31.06	22.99	-36.0	-36.9	22.3	0.00e+00	0	38	0	1026555904	42	3980
2026-01-22 03:28:50.09	31.18	23.14	-36.1	-37.0	22.2	0.00e+00	0	38	0	1034944512	42	4030
2026-01-22 03:28:50.94	31.27	23.26	-36.2	-37.0	22.2	0.00e+00	0	38	0	1041235968	42	4037
2026-01-22 03:28:52.13	31.39	23.42	-36.2	-37.1	22.2	0.00e+00	0	38	0	1049624576	42	4057
2026-01-22 03:28:53.42	31.53	23.60	-36.2	-37.1	22.1	0.00e+00	0	38	0	1059061760	42	4088
2026-01-22 03:28:54.13	31.60	23.70	-36.3	-37.1	21.4	0.00e+00	0	38	0	1064304640	42	4093
2026-01-22 03:28:55.41	31.74	23.88	-36.3	-37.2	22.1	0.00e+00	0	38	0	1073741824	42	4102
2026-01-22 03:28:56.12	31.82	23.98	-36.2	-37.1	22.1	0.00e+00	0	38	0	1078984704	42	4085
2026-01-22 03:28:57.48	31.96	24.17	-36.3	-37.2	22.1	0.00e+00	0	38	0	1088421888	42	4107
2026-01-22 03:28:58.19	32.04	24.27	-36.3	-37.1	22.1	0.00e+00	0	38	0	1093664768	42	4094
2026-01-22 03:28:59.52	32.19	24.46	-36.3	-37.2	22.1	0.00e+00	0	38	0	1103101952	42	4117
2026-01-22 03:29:00.23	32.27	24.57	-36.2	-37.1	22.2	0.00e+00	0	38	0	1108344832	42	4058
2026-01-22 03:29:01.57	32.42	24.76	-36.1	-36.9	22.3	0.00e+00	0	38	0	1117782016	42	4003
2026-01-22 03:29:02.28	32.50	24.86	-36.1	-37.0	22.3	0.00e+00	0	38	0	1123024896	42	4016
2026-01-22 03:29:03.56	32.65	25.05	-36.0	-36.9	22.4	0.00e+00	0	38	0	1132462080	42	3961
2026-01-22 03:29:04.28	32.73	25.16	-36.0	-36.8	22.4	0.00e+00	0	38	0	1137704960	42	3948
2026-01-22 03:29:05.57	32.88	25.35	-35.6	-36.4	22.8	0.00e+00	0	38	0	1147142144	41	3977
2026-01-22 03:29:06.28	32.97	25.45	-35.9	-36.7	22.5	0.00e+00	0	38	0	1152385024	41	4135
2026-01-22 03:29:07.75	33.14	25.67	-35.8	-36.6	22.6	0.00e+00	0	38	0	1162870784	41	4094
2026-01-22 03:29:08.46	33.23	25.78	-35.9	-36.7	22.5	0.00e+00	0	38	0	1168113664	41	4130
2026-01-22 03:29:09.74	33.39	25.97	-35.9	-36.8	22.5	0.00e+00	0	38	0	1176502272	41	4151
2026-01-22 03:29:10.46	33.47	26.08	-35.8	-36.7	22.6	0.00e+00	0	38	0	1181745152	41	4107
2026-01-22 03:29:11.74	33.63	26.27	-35.8	-36.6	22.6	0.00e+00	0	38	0	1191182336	41	4097
2026-01-22 03:29:12.47	33.72	26.38	-35.8	-36.6	22.6	0.00e+00	0	38	0	1196425216	41	4096
2026-01-22 03:29:13.75	33.89	26.58	-35.8	-36.7	22.5	0.00e+00	0	38	0	1205862400	41	4107
2026-01-22 03:29:14.47	33.98	26.69	-35.8	-36.6	22.5	0.00e+00	0	38	0	1211105280	41	4098
2026-01-22 03:29:15.75	34.14	26.89	-35.8	-36.7	22.5	0.00e+00	0	38	0	1220542464	41	4118
2026-01-22 03:29:16.49	34.24	27.00	-35.8	-36.7	22.5	0.00e+00	0	38	0	1225785344	42	3881
2026-01-22 03:29:17.77	34.41	27.20	-35.7	-36.6	22.6	0.00e+00	0	38	0	1235222528	42	3836
2026-01-22 03:29:18.49	34.50	27.31	-35.8	-36.6	22.6	0.00e+00	0	38	0	1240465408	42	3868
2026-01-22 03:29:19.77	34.67	27.52	-35.7	-36.6	22.7	0.00e+00	0	38	0	1248854016	42	3844
2026-01-22 03:29:20.48	34.77	27.63	-35.9	-36.7	22.5	0.00e+00	0	38	0	1254096896	42	3900
2026-01-22 03:29:21.76	34.94	27.83	-35.7	-36.5	22.7	0.00e+00	0	38	0	1263534080	42	3808
2026-01-22 03:29:22.58	35.06	27.96	-35.7	-36.6	22.6	0.00e+00	0	38	0	1269825536	42	3843
2026-01-22 03:29:24.04	35.26	28.20	-35.6	-36.4	22.8	0.00e+00	0	38	0	1280311296	42	3760
2026-01-22 03:29:24.75	35.36	28.31	-35.5	-36.3	22.9	0.00e+00	0	38	0	1285554176	41	3949
2026-01-22 03:29:26.03	35.54	28.52	-35.4	-36.2	23.0	0.00e+00	0	38	0	1294991360	41	3900
2026-01-22 03:29:26.74	35.64	28.64	-35.6	-36.5	22.7	0.00e+00	0	38	0	1299185664	41	4008
2026-01-22 03:29:28.03	35.83	28.85	-35.5	-36.3	22.8	0.00e+00	0	38	0	1308622848	41	3950
2026-01-22 03:29:28.74	35.93	28.97	-35.5	-36.3	22.9	0.00e+00	0	38	0	1313865728	41	3931
2026-01-22 03:29:30.02	36.12	29.18	-35.3	-36.2	23.0	0.00e+00	0	38	0	1323302912	41	3871
2026-01-22 03:29:30.73	36.23	29.30	-35.4	-36.3	22.9	0.00e+00	0	38	0	1328545792	41	3919
2026-01-22 03:29:32.01	36.42	29.51	-35.3	-36.2	23.0	0.00e+00	0	38	0	1337982976	41	3870
2026-01-22 03:29:32.72	36.53	29.63	-35.4	-36.2	22.9	0.00e+00	0	38	0	1343225856	41	3901
2026-01-22 03:29:34.00	36.73	29.84	-35.3	-36.2	23.0	0.00e+00	0	38	0	1352663040	41	3874
2026-01-22 03:29:34.71	36.84	29.97	-35.5	-36.3	22.9	0.00e+00	0	38	0	1356857344	41	3945
2026-01-22 03:29:36.04	37.05	30.19	-35.5	-36.3	22.9	0.00e+00	0	38	0	1366294528	41	3950
2026-01-22 03:29:36.75	37.16	30.31	-35.4	-36.2	22.9	0.00e+00	0	38	0	1371537408	41	3907
2026-01-22 03:29:38.09	37.37	30.54	-35.5	-36.4	22.8	0.00e+00	0	38	0	1380974592	40	4207
2026-01-22 03:29:38.80	37.49	30.67	-35.4	-36.2	23.0	0.00e+00	0	38	0	1387266048	40	4108
2026-01-22 03:29:40.14	37.71	30.90	-35.3	-36.1	23.1	0.00e+00	0	38	0	1396703232	40	4072
2026-01-22 03:29:40.85	37.83	31.02	-35.4	-36.2	22.9	0.00e+00	0	38	0	1401946112	40	4119
2026-01-22 03:29:42.21	38.05	31.26	-35.7	-36.5	22.7	0.00e+00	0	38	0	1411383296	40	4269
2026-01-22 03:29:42.92	38.17	31.39	-35.5	-36.3	22.9	0.00e+00	0	38	0	1416626176	40	4160
2026-01-22 03:29:44.26	38.40	31.62	-35.4	-36.2	23.0	0.00e+00	0	38	0	1426063360	40	4142
2026-01-22 03:29:44.97	38.53	31.75	-35.5	-36.4	22.9	0.00e+00	0	38	0	1431306240	40	4198
2026-01-22 03:29:46.25	38.75	31.98	-35.5	-36.4	22.9	0.00e+00	0	38	0	1440743424	40	4196
2026-01-22 03:29:46.96	38.88	32.10	-35.4	-36.2	23.0	0.00e+00	0	38	0	1445986304	40	4132
2026-01-22 03:29:48.25	39.11	32.34	-35.4	-36.2	23.0	0.00e+00	0	38	0	1454374912	40	4132
2026-01-22 03:29:48.99	39.24	32.47	-35.4	-36.2	23.0	0.00e+00	0	38	0	1460666368	40	4144
2026-01-22 03:29:50.26	39.47	32.70	-35.4	-36.2	23.0	0.00e+00	0	38	0	1469054976	40	4130
2026-01-22 03:29:50.97	39.60	32.83	-35.4	-36.2	23.0	0.00e+00	0	38	0	1474297856	40	4137
2026-01-22 03:29:52.25	39.84	33.07	-35.6	-36.4	22.9	0.00e+00	0	38	0	1483735040	40	4208
2026-01-22 03:29:52.96	39.98	33.20	-35.7	-36.5	22.8	0.00e+00	0	38	0	1488977920	40	4283
2026-01-22 03:29:54.24	40.22	33.43	-35.5	-36.3	23.0	0.00e+00	0	38	0	1498415104	40	4162
2026-01-22 03:29:55.09	40.39	33.59	-35.5	-36.3	22.9	0.00e+00	0	38	0	1504706560	40	4179
2026-01-22 03:29:56.51	40.66	33.85	-35.5	-36.3	22.9	0.00e+00	0	38	0	1514143744	40	4178
2026-01-22 03:29:57.22	40.80	33.99	-35.4	-36.2	23.0	0.00e+00	0	38	0	1519386624	40	4140
2026-01-22 03:29:58.50	41.06	34.23	-35.4	-36.3	23.0	0.00e+00	0	38	0	1528823808	41	3914
2026-01-22 03:29:59.21	41.20	34.36	-35.4	-36.3	22.9	0.00e+00	0	38	0	1534066688	41	3914
2026-01-22 03:30:00.76	41.52	34.66	-35.5	-36.3	22.9	0.00e+00	0	38	0	1545601024	41	3945
2026-01-22 03:30:01.47	41.67	34.79	-35.6	-36.4	22.8	0.00e+00	0	38	0	1550843904	41	3977
2026-01-22 03:30:02.76	41.94	35.04	-35.5	-36.3	22.9	0.00e+00	0	38	0	1560281088	41	3950
2026-01-22 03:30:03.47	42.09	35.18	-35.3	-36.1	23.0	0.00e+00	0	38	0	1564475392	41	3868
2026-01-22 03:30:04.75	42.37	35.42	-35.4	-36.2	22.9	0.00e+00	0	38	0	1573912576	41	3912
2026-01-22 03:30:05.47	42.52	35.56	-35.5	-36.3	22.9	0.00e+00	0	38	0	1579155456	41	3947
2026-01-22 03:30:06.74	42.80	35.81	-35.4	-36.2	23.0	0.00e+00	0	38	0	1588592640	41	3884
2026-01-22 03:30:07.46	42.96	35.95	-35.3	-36.1	23.1	0.00e+00	0	38	0	1593835520	41	3843
2026-01-22 03:30:08.74	43.25	36.20	-35.2	-36.0	23.2	0.00e+00	0	38	0	1602224128	41	3811
2026-01-22 03:30:09.46	43.42	36.34	-35.4	-36.2	23.0	0.00e+00	0	38	0	1608515584	41	3894
2026-01-22 03:30:10.74	43.71	36.59	-35.5	-36.3	22.9	0.00e+00	0	38	0	1616904192	41	3928
2026-01-22 03:30:11.50	43.89	36.74	-35.4	-36.2	23.1	0.00e+00	0	38	0	1622147072	41	3886
2026-01-22 03:30:12.78	44.19	37.00	-35.5	-36.3	22.9	0.00e+00	0	38	0	1631584256	41	3936
2026-01-22 03:30:13.58	44.38	37.16	-35.6	-36.4	22.9	0.00e+00	0	38	0	1637875712	41	3978
2026-01-22 03:30:14.72	44.66	37.39	-35.6	-36.4	22.8	0.00e+00	0	38	0	1646264320	41	3983
2026-01-22 03:30:15.57	44.87	37.56	-35.6	-36.4	22.9	0.00e+00	0	38	0	1652555776	41	3974
2026-01-22 03:30:16.71	45.15	37.79	-35.6	-36.4	22.9	0.00e+00	0	38	0	1660944384	41	3963
2026-01-22 03:30:17.80	45.43	38.01	-35.7	-36.5	22.7	0.00e+00	0	38	0	1668284416	41	4033
2026-01-22 03:30:18.82	45.69	38.21	-35.7	-36.5	22.8	0.00e+00	0	38	0	1675624448	41	4048
2026-01-22 03:30:19.82	45.94	38.42	-35.6	-36.4	22.8	0.00e+00	0	38	0	1682964480	41	3989
2026-01-22 03:30:20.81	46.20	38.62	-35.6	-36.4	22.8	0.00e+00	0	38	0	1690304512	41	3998
2026-01-22 03:30:21.81	46.47	38.82	-35.7	-36.5	22.8	0.00e+00	0	38	0	1697644544	41	4022
2026-01-22 03:30:22.80	46.73	39.03	-35.5	-36.3	23.0	0.00e+00	0	38	0	1703936000	41	3941
2026-01-22 03:30:23.80	47.00	39.23	-35.6	-36.4	22.9	0.00e+00	0	38	0	1711276032	41	3981
2026-01-22 03:30:24.79	47.28	39.43	-35.5	-36.3	23.0	0.00e+00	0	38	0	1718616064	41	3946
2026-01-22 03:30:25.78	47.55	39.64	-35.5	-36.3	22.9	0.00e+00	0	38	0	1725956096	41	3939
2026-01-22 03:30:26.78	47.83	39.85	-35.6	-36.4	22.9	0.00e+00	0	38	0	1733296128	41	3989
2026-01-22 03:30:27.77	48.11	40.05	-35.7	-36.5	22.8	0.00e+00	0	38	0	1740636160	41	4023
2026-01-22 03:30:28.77	48.40	40.26	-35.6	-36.5	22.8	0.00e+00	0	38	0	1747976192	41	4008
2026-01-22 03:30:29.79	48.70	40.47	-35.6	-36.4	22.9	0.00e+00	0	38	0	1754267648	41	3993
2026-01-22 03:30:30.79	49.00	40.68	-36.0	-36.8	22.5	0.00e+00	0	38	0	1761607680	41	4188
2026-01-22 03:30:31.78	49.29	40.89	-36.0	-36.9	22.4	0.00e+00	0	38	0	1768947712	41	4214
2026-01-22 03:30:32.78	49.60	41.10	-36.2	-37.1	22.3	0.00e+00	0	38	0	1776287744	41	4311
2026-01-22 03:30:33.87	49.93	41.33	-36.1	-36.9	22.4	0.00e+00	0	38	0	1784676352	42	3998
2026-01-22 03:30:34.75	50.21	41.51	-36.2	-37.1	22.3	0.00e+00	0	38	0	1789919232	42	4066
2026-01-22 03:30:36.08	50.63	41.79	-36.0	-36.8	22.5	0.00e+00	0	38	0	1800404992	42	3929
2026-01-22 03:30:36.79	50.86	41.94	-35.9	-36.7	22.6	0.00e+00	0	38	0	1805647872	42	3892
2026-01-22 03:30:38.25	51.33	42.25	-35.6	-36.5	22.8	0.00e+00	0	38	0	1816133632	42	3790
2026-01-22 03:30:38.96	51.56	42.40	-35.7	-36.5	22.7	0.00e+00	0	38	0	1821376512	41	4041
2026-01-22 03:30:40.24	51.99	42.67	-35.7	-36.6	22.8	0.00e+00	0	38	0	1829765120	41	4059
2026-01-22 03:30:40.95	52.23	42.82	-35.7	-36.6	22.7	0.00e+00	0	38	0	1836056576	41	4060
2026-01-22 03:30:42.24	52.67	43.09	-35.8	-36.6	22.7	0.00e+00	0	38	0	1844445184	41	4090
2026-01-22 03:30:42.95	52.92	43.24	-35.8	-36.6	22.7	0.00e+00	0	38	0	1849688064	41	4070
2026-01-22 03:30:44.23	53.37	43.51	-35.8	-36.6	22.7	0.00e+00	0	38	0	1859125248	41	4078
2026-01-22 03:30:44.95	53.63	43.67	-35.8	-36.6	22.6	0.00e+00	0	38	0	1864368128	41	4087
2026-01-22 03:30:46.23	54.09	43.94	-36.0	-36.8	22.5	0.00e+00	0	38	0	1873805312	41	4172
2026-01-22 03:30:46.96	54.35	44.09	-36.0	-36.8	22.5	0.00e+00	0	38	0	1879048192	41	4171
2026-01-22 03:30:48.24	54.83	44.36	-36.1	-36.9	22.4	0.00e+00	0	38	0	1887436800	41	4219
2026-01-22 03:30:48.98	55.11	44.52	-36.2	-37.0	22.3	0.00e+00	0	38	0	1893728256	41	4285
2026-01-22 03:30:50.25	55.59	44.79	-36.3	-37.2	22.2	0.00e+00	0	38	0	1903165440	42	4115
2026-01-22 03:30:50.98	55.87	44.94	-36.3	-37.2	22.2	0.00e+00	0	38	0	1907359744	42	4125
2026-01-22 03:30:52.26	56.37	45.21	-36.2	-37.0	22.4	0.00e+00	0	38	0	1916796928	42	4034
2026-01-22 03:30:52.97	56.65	45.36	-36.2	-37.0	22.4	0.00e+00	0	38	0	1922039808	42	4024
2026-01-22 03:30:54.25	57.17	45.63	-36.3	-37.1	22.3	0.00e+00	0	38	0	1931476992	42	4095
2026-01-22 03:30:54.96	57.45	45.78	-36.4	-37.2	22.1	0.00e+00	0	38	0	1936719872	42	4141
2026-01-22 03:30:56.24	57.98	46.04	-36.4	-37.3	22.1	0.00e+00	0	38	0	1945108480	42	4174
2026-01-22 03:30:56.95	58.28	46.19	-36.2	-37.0	22.4	0.00e+00	0	38	0	1950351360	42	4033
2026-01-22 03:30:58.23	58.82	46.46	-36.0	-36.9	22.5	0.00e+00	0	38	0	1959788544	42	3966
2026-01-22 03:30:58.94	59.12	46.61	-36.2	-37.0	22.3	0.00e+00	0	38	0	1965031424	42	4036
2026-01-22 03:31:00.22	59.68	46.87	-36.4	-37.2	22.2	0.00e+00	0	38	0	1974468608	42	4131
2026-01-22 03:31:00.93	59.99	47.02	-36.3	-37.2	22.2	0.00e+00	0	38	0	1979711488	42	4115
2026-01-22 03:31:02.21	60.56	47.28	-36.6	-37.5	21.9	0.00e+00	0	38	0	1989148672	42	4272
2026-01-22 03:31:02.92	60.88	47.42	-36.8	-37.7	21.8	0.00e+00	0	38	0	1994391552	42	4341
2026-01-22 03:31:04.20	61.46	47.68	-36.9	-37.8	21.7	0.00e+00	0	38	0	2003828736	43	4154
2026-01-22 03:31:04.91	61.79	47.83	-36.9	-37.8	21.7	0.00e+00	0	38	0	2008023040	43	4154
2026-01-22 03:31:06.19	62.39	48.09	-37.0	-37.9	21.6	0.00e+00	0	38	0	2017460224	43	4231
2026-01-22 03:31:06.90	62.73	48.23	-36.8	-37.6	21.8	0.00e+00	0	38	0	2022703104	43	4096
2026-01-22 03:31:08.18	63.34	48.48	-36.9	-37.8	21.5	0.00e+00	0	38	0	2032140288	43	4164
2026-01-22 03:31:08.91	63.70	48.63	-37.0	-37.9	21.6	0.00e+00	0	38	0	2037383168	43	4223
2026-01-22 03:31:10.18	64.33	48.88	-37.4	-38.3	21.4	0.00e+00	0	38	0	2046820352	44	4177
2026-01-22 03:31:10.92	64.70	49.02	-37.4	-38.3	21.4	0.00e+00	0	38	0	2052063232	44	4157
2026-01-22 03:31:12.21	65.35	49.27	-37.0	-37.9	21.7	0.00e+00	0	38	0	2061500416	44	3979
2026-01-22 03:31:12.93	65.72	49.41	-36.9	-37.8	21.8	0.00e+00	0	38	0	2065694720	44	3934
2026-01-22 03:31:14.21	66.38	49.65	-36.4	-37.3	22.2	0.00e+00	0	38	0	2075131904	43	3919
2026-01-22 03:31:14.96	66.77	49.79	-36.6	-37.4	22.0	0.00e+00	0	38	0	2081423360	43	3987
2026-01-22 03:31:16.24	67.46	50.03	-36.8	-37.7	21.8	0.00e+00	0	38	0	2089811968	43	4118
2026-01-22 03:31:16.95	67.84	50.16	-36.7	-37.6	21.8	0.00e+00	0	38	0	2095054848	43	4070
2026-01-22 03:31:18.27	68.56	50.40	-36.8	-37.6	21.9	0.00e+00	0	38	0	2104492032	43	4088
2026-01-22 03:31:18.98	68.95	50.53	-37.1	-38.0	21.5	0.00e+00	0	38	0	2109734912	43	4263
2026-01-22 03:31:20.25	69.66	50.76	-37.2	-38.1	21.4	0.00e+00	0	38	0	2119172096	43	4302
2026-01-22 03:31:20.97	70.06	50.89	-37.1	-38.0	21.5	0.00e+00	0	38	0	2124414976	43	4277
2026-01-22 03:31:22.24	70.79	51.11	-37.2	-38.0	21.6	0.00e+00	0	38	0	2132803584	44	4050
2026-01-22 03:31:22.97	71.21	51.24	-37.0	-37.8	21.8	0.00e+00	0	38	0	2139095040	44	3949
2026-01-22 03:31:24.25	71.96	51.45	-37.0	-37.9	21.8	0.00e+00	0	38	0	2148532224	44	3960
2026-01-22 03:31:24.96	72.38	51.57	-37.1	-37.9	21.7	0.00e+00	0	38	0	2152726528	44	3992
2026-01-22 03:31:26.27	73.16	51.79	-37.1	-38.0	21.7	0.00e+00	0	38	0	2162163712	44	4027
2026-01-22 03:31:26.98	73.59	51.90	-37.3	-38.1	21.6	0.00e+00	0	38	0	2167406592	44	4092
2026-01-22 03:31:28.26	74.37	52.11	-37.2	-38.1	21.6	0.00e+00	0	38	0	2176843776	44	4064
2026-01-22 03:31:29.08	74.88	52.24	-37.1	-37.9	21.7	0.00e+00	0	38	0	2183135232	44	3998
2026-01-22 03:31:30.50	75.77	52.45	-36.9	-37.8	21.9	0.00e+00	0	38	0	2192572416	44	3935
2026-01-22 03:31:31.21	76.22	52.56	-36.8	-37.7	22.0	0.00e+00	0	38	0	2197815296	44	3877
2026-01-22 03:31:32.49	77.03	52.75	-37.0	-37.9	21.7	0.00e+00	0	38	0	2207252480	44	3974
2026-01-22 03:31:33.22	77.50	52.85	-37.3	-38.2	21.5	0.00e+00	0	38	0	2212495360	44	4132
2026-01-22 03:31:34.75	78.50	53.07	-37.8	-38.7	21.0	0.00e+00	0	38	0	2224029696	45	4128
2026-01-22 03:31:35.46	78.97	53.16	-37.8	-38.7	21.0	0.00e+00	0	38	0	2229272576	45	4138
2026-01-22 03:31:36.74	79.82	53.33	-37.8	-38.8	21.0	0.00e+00	0	38	0	2237661184	45	4147
2026-01-22 03:31:37.46	80.30	53.43	-37.8	-38.7	21.0	0.00e+00	0	38	0	2242904064	45	4128
2026-01-22 03:31:38.75	81.18	53.59	-37.6	-38.6	21.1	0.00e+00	0	38	0	2252341248	45	4056
2026-01-22 03:31:39.46	81.66	53.68	-37.2	-38.1	21.5	0.00e+00	0	38	0	2257584128	45	3846
2026-01-22 03:31:40.73	82.53	53.83	-37.4	-38.2	21.4	0.00e+00	0	38	0	2267021312	45	3913
2026-01-22 03:31:41.44	83.03	53.91	-37.2	-38.1	21.6	0.00e+00	0	38	0	2272264192	45	3835
2026-01-22 03:31:42.72	83.92	54.05	-37.3	-38.2	21.5	0.00e+00	0	38	0	2281701376	45	3884
2026-01-22 03:31:43.47	84.45	54.13	-37.4	-38.3	21.3	0.00e+00	0	38	0	2286944256	45	3936
2026-01-22 03:31:44.75	85.36	54.26	-37.1	-37.9	21.7	0.00e+00	0	38	0	2295332864	44	3994
2026-01-22 03:31:45.46	85.86	54.33	-36.8	-37.6	22.0	0.00e+00	0	38	0	2301624320	44	3862
2026-01-22 03:31:46.74	86.79	54.45	-36.7	-37.5	22.1	0.00e+00	0	38	0	2310012928	44	3821
2026-01-22 03:31:47.58	87.39	54.52	-36.9	-37.8	21.9	0.00e+00	0	38	0	2316304384	44	3921
2026-01-22 03:31:48.71	88.22	54.62	-37.0	-37.9	21.7	0.00e+00	0	38	0	2324692992	44	3979
2026-01-22 03:31:49.57	88.85	54.69	-37.2	-38.0	21.6	0.00e+00	0	38	0	2330984448	44	4048
2026-01-22 03:31:50.70	89.68	54.78	-37.1	-37.9	21.7	0.00e+00	0	38	0	2339373056	44	3999
2026-01-22 03:31:51.82	90.51	54.85	-37.3	-38.2	21.5	0.00e+00	0	38	0	2346713088	44	4101
2026-01-22 03:31:52.68	91.15	54.91	-37.3	-38.2	21.5	0.00e+00	0	38	0	2353004544	44	4133
2026-01-22 03:31:53.81	91.99	54.98	-37.3	-38.2	21.3	0.00e+00	0	38	0	2361393152	44	4137
2026-01-22 03:31:54.67	92.64	55.03	-37.3	-38.2	21.5	0.00e+00	0	38	0	2367684608	44	4125
2026-01-22 03:31:55.80	93.49	55.09	-37.6	-38.5	21.2	0.00e+00	0	38	0	2376073216	44	4273
2026-01-22 03:31:56.66	94.14	55.13	-37.6	-38.5	21.2	0.00e+00	0	38	0	2382364672	44	4287
2026-01-22 03:31:57.79	95.00	55.18	-37.7	-38.6	21.1	0.00e+00	0	38	0	2389704704	45	4093
2026-01-22 03:31:58.65	95.65	55.21	-37.5	-38.4	21.3	0.00e+00	0	38	0	2395996160	45	3981
2026-01-22 03:31:59.78	96.52	55.25	-37.5	-38.3	21.3	0.00e+00	0	38	0	2404384768	45	3955
2026-01-22 03:32:00.64	97.17	55.27	-37.3	-38.2	21.4	0.00e+00	0	38	0	2410676224	45	3885
2026-01-22 03:32:01.77	98.04	55.30	-37.3	-38.2	21.5	0.00e+00	0	38	0	2419064832	45	3890
2026-01-22 03:32:02.62	98.69	55.31	-37.3	-38.2	21.5	0.00e+00	0	38	0	2425356288	45	3903
2026-01-22 03:32:03.76	99.57	55.33	-37.4	-38.3	21.4	0.00e+00	0	38	0	2433744896	45	3936
2026-01-22 03:32:04.61	100.22	55.34	-37.3	-38.2	21.5	0.00e+00	0	38	0	2438987776	45	3875
2026-01-22 03:32:05.75	101.10	55.34	-37.2	-38.1	21.6	0.00e+00	0	38	0	2447376384	45	3845
2026-01-22 03:32:06.60	101.75	55.34	-37.6	-38.5	21.2	0.00e+00	0	38	0	2453667840	45	4037
2026-01-22 03:32:07.74	102.63	55.33	-37.4	-38.3	21.4	0.00e+00	0	38	0	2462056448	45	3952
2026-01-22 03:32:08.80	103.44	55.32	-37.5	-38.4	21.3	0.00e+00	0	38	0	2469396480	45	3996
2026-01-22 03:32:09.84	104.24	55.30	-37.4	-38.3	21.3	0.00e+00	0	38	0	2476736512	45	3945
2026-01-22 03:32:10.99	105.12	55.27	-37.3	-38.1	21.6	0.00e+00	0	38	0	2485125120	45	3860
2026-01-22 03:32:11.84	105.77	55.25	-37.3	-38.2	21.5	0.00e+00	0	38	0	2491416576	45	3869
2026-01-22 03:32:12.98	106.64	55.21	-37.2	-38.1	21.6	0.00e+00	0	38	0	2499805184	45	3851
2026-01-22 03:32:13.83	107.29	55.18	-37.3	-38.2	21.5	0.00e+00	0	38	0	2506096640	45	3875
2026-01-22 03:32:14.97	108.15	55.13	-37.2	-38.1	21.5	0.00e+00	0	38	0	2514485248	44	4075
2026-01-22 03:32:15.82	108.80	55.09	-37.1	-38.0	21.7	0.00e+00	0	38	0	2519728128	44	4007
2026-01-22 03:32:16.96	109.66	55.03	-37.4	-38.3	21.4	0.00e+00	0	38	0	2528116736	44	4181
2026-01-22 03:32:17.81	110.29	54.98	-37.7	-38.6	21.1	0.00e+00	0	38	0	2534408192	44	4325
2026-01-22 03:32:18.95	111.15	54.91	-37.8	-38.7	21.0	0.00e+00	0	38	0	2542796800	45	4125
2026-01-22 03:32:19.80	111.78	54.86	-37.8	-38.7	21.0	0.00e+00	0	38	0	2549088256	45	4136
2026-01-22 03:32:20.94	112.63	54.78	-37.8	-38.7	21.0	0.00e+00	0	38	0	2557476864	45	4140
2026-01-22 03:32:21.79	113.25	54.71	-37.6	-38.5	21.2	0.00e+00	0	38	0	2562719744	45	4015
2026-01-22 03:32:22.93	114.09	54.62	-37.7	-38.6	21.2	0.00e+00	0	38	0	2571108352	45	4063
2026-01-22 03:32:23.78	114.71	54.55	-37.6	-38.5	21.3	0.00e+00	0	38	0	2577399808	45	4008
2026-01-22 03:32:24.92	115.54	54.45	-37.6	-38.5	21.3	0.00e+00	0	38	0	2585788416	45	4018
2026-01-22 03:32:25.77	116.15	54.37	-37.5	-38.5	21.2	0.00e+00	0	38	0	2592079872	45	4007
2026-01-22 03:32:26.91	116.97	54.26	-37.4	-38.3	21.4	0.00e+00	0	38	0	2600468480	45	3949
2026-01-22 03:32:27.77	117.58	54.17	-37.3	-38.2	21.5	0.00e+00	0	38	0	2606759936	45	3894
2026-01-22 03:32:28.90	118.38	54.05	-37.3	-38.2	21.5	0.00e+00	0	38	0	2615148544	45	3870
2026-01-22 03:32:29.76	118.98	53.96	-37.3	-38.2	21.5	0.00e+00	0	38	0	2621440000	45	3884
2026-01-22 03:32:30.89	119.76	53.83	-37.4	-38.3	21.4	0.00e+00	0	38	0	2628780032	45	3950
2026-01-22 03:32:31.75	120.36	53.73	-37.4	-38.3	21.4	0.00e+00	0	38	0	2635071488	45	3942
2026-01-22 03:32:32.88	121.13	53.59	-37.6	-38.6	20.9	0.00e+00	0	38	0	2643460096	45	4055
2026-01-22 03:32:33.74	121.72	53.48	-37.7	-38.6	21.1	0.00e+00	0	38	0	2649751552	45	4072
2026-01-22 03:32:34.87	122.48	53.34	-37.9	-38.8	21.0	0.00e+00	0	38	0	2658140160	45	4160
2026-01-22 03:32:35.72	123.04	53.22	-38.0	-38.9	20.8	0.00e+00	0	38	0	2663383040	45	4207
2026-01-22 03:32:36.86	123.80	53.07	-37.7	-38.6	21.1	0.00e+00	0	38	0	2671771648	45	4072
2026-01-22 03:32:37.71	124.35	52.95	-37.4	-38.3	21.4	0.00e+00	0	38	0	2678063104	45	3928
2026-01-22 03:32:38.85	125.09	52.79	-37.3	-38.2	21.5	0.00e+00	0	38	0	2686451712	45	3892
2026-01-22 03:32:39.70	125.64	52.66	-37.1	-38.0	21.7	0.00e+00	0	38	0	2692743168	45	3813
2026-01-22 03:32:40.84	126.37	52.49	-37.2	-38.1	21.6	0.00e+00	0	38	0	2701131776	44	4056
2026-01-22 03:32:41.69	126.90	52.37	-37.3	-38.2	21.5	0.00e+00	0	38	0	2706374656	44	4119
2026-01-22 03:32:42.83	127.61	52.19	-37.2	-38.1	21.5	0.00e+00	0	38	0	2714763264	44	4072
2026-01-22 03:32:43.68	128.14	52.05	-37.5	-38.4	21.3	0.00e+00	0	38	0	2721054720	44	4207
2026-01-22 03:32:44.82	128.83	51.87	-37.7	-38.6	21.1	0.00e+00	0	38	0	2729443328	44	4318
2026-01-22 03:32:45.67	129.35	51.73	-37.7	-38.6	21.2	0.00e+00	0	38	0	2735734784	44	4299
2026-01-22 03:32:46.81	130.03	51.54	-37.4	-38.3	21.4	0.00e+00	0	38	0	2744123392	44	4173
2026-01-22 03:32:47.66	130.53	51.40	-37.4	-38.3	21.5	0.00e+00	0	38	0	2750414848	44	4146
2026-01-22 03:32:48.89	131.25	51.19	-37.7	-38.6	21.1	0.00e+00	0	38	0	2758803456	45	4064
2026-01-22 03:32:49.74	131.74	51.04	-37.9	-38.8	20.9	0.00e+00	0	38	0	2765094912	45	4184
2026-01-22 03:32:50.93	132.42	50.83	-37.9	-38.8	21.0	0.00e+00	0	38	0	2773483520	45	4161
2026-01-22 03:32:51.78	132.90	50.68	-37.7	-38.6	21.1	0.00e+00	0	38	0	2779774976	45	4054
2026-01-22 03:32:52.92	133.53	50.48	-37.5	-38.3	21.4	0.00e+00	0	38	0	2788163584	45	3951
2026-01-22 03:32:53.77	134.00	50.32	-37.4	-38.3	21.4	0.00e+00	0	38	0	2794455040	45	3944
2026-01-22 03:32:55.00	134.67	50.09	-37.3	-38.1	21.5	0.00e+00	0	38	0	2802843648	45	3858
2026-01-22 03:32:55.85	135.13	49.93	-37.1	-38.0	21.7	0.00e+00	0	38	0	2809135104	45	3784
2026-01-22 03:32:56.99	135.73	49.72	-37.2	-38.1	21.6	0.00e+00	0	38	0	2817523712	44	4061
2026-01-22 03:32:57.84	136.18	49.56	-37.4	-38.3	21.4	0.00e+00	0	38	0	2823815168	44	4161
2026-01-22 03:32:59.11	136.83	49.31	-37.5	-38.4	21.3	0.00e+00	0	38	0	2833252352	44	4209
2026-01-22 03:33:00.32	137.45	49.08	-37.3	-38.2	21.4	0.00e+00	0	38	0	2841640960	44	4129
2026-01-22 03:33:01.17	137.88	48.91	-37.3	-38.2	21.5	0.00e+00	0	38	0	2847932416	44	4126
2026-01-22 03:33:02.31	138.44	48.69	-37.6	-38.5	21.3	0.00e+00	0	38	0	2856321024	44	4268
2026-01-22 03:33:03.16	138.86	48.52	-37.6	-38.5	21.2	0.00e+00	0	38	0	2861563904	44	4272
2026-01-22 03:33:04.30	139.41	48.29	-37.5	-38.4	21.3	0.00e+00	0	38	0	2869952512	44	4225
2026-01-22 03:33:05.15	139.82	48.12	-37.2	-38.1	21.6	0.00e+00	0	38	0	2876243968	44	4059
2026-01-22 03:33:06.29	140.36	47.89	-36.9	-37.8	21.9	0.00e+00	0	38	0	2884632576	44	3926
2026-01-22 03:33:07.14	140.75	47.72	-36.9	-37.8	21.9	0.00e+00	0	38	0	2890924032	44	3914
2026-01-22 03:33:08.28	141.28	47.49	-36.9	-37.7	21.9	0.00e+00	0	38	0	2899312640	44	3908
2026-01-22 03:33:09.13	141.66	47.32	-36.9	-37.8	21.9	0.00e+00	0	38	0	2904555520	44	3938
2026-01-22 03:33:10.27	142.17	47.08	-37.1	-38.0	21.6	0.00e+00	0	38	0	2912944128	44	4015
2026-01-22 03:33:11.12	142.55	46.91	-37.0	-37.9	21.8	0.00e+00	0	38	0	2919235584	44	3967
2026-01-22 03:33:12.26	143.05	46.67	-37.1	-38.0	21.6	0.00e+00	0	38	0	2927624192	44	4034
2026-01-22 03:33:13.11	143.41	46.49	-37.2	-38.1	21.5	0.00e+00	0	38	0	2933915648	44	4058
2026-01-22 03:33:14.25	143.90	46.25	-37.2	-38.1	21.6	0.00e+00	0	38	0	2942304256	44	4072
2026-01-22 03:33:15.10	144.26	46.08	-37.1	-38.0	21.6	0.00e+00	0	38	0	2947547136	44	4038
2026-01-22 03:33:16.24	144.73	45.84	-36.8	-37.7	21.9	0.00e+00	0	38	0	2955935744	44	3881
2026-01-22 03:33:17.09	145.08	45.66	-36.6	-37.4	22.2	0.00e+00	0	38	0	2962227200	44	3768
2026-01-22 03:33:18.23	145.54	45.42	-36.1	-37.0	22.4	0.00e+00	0	38	0	2970615808	42	4012
2026-01-22 03:33:19.08	145.87	45.24	-36.2	-37.0	22.4	0.00e+00	0	38	0	2976907264	42	4027
2026-01-22 03:33:20.22	146.32	45.00	-35.7	-36.6	22.8	0.00e+00	0	38	0	2985295872	42	3833
2026-01-22 03:33:21.42	146.79	44.74	-35.8	-36.6	22.7	0.00e+00	0	38	0	2993684480	42	3855
2026-01-22 03:33:22.27	147.11	44.56	-35.7	-36.5	22.9	0.00e+00	0	38	0	2999975936	42	3794
2026-01-22 03:33:23.40	147.54	44.32	-35.6	-36.4	22.9	0.00e+00	0	38	0	3008364544	41	3986
2026-01-22 03:33:24.26	147.86	44.14	-35.8	-36.6	22.7	0.00e+00	0	38	0	3014656000	41	4094
2026-01-22 03:33:25.40	148.28	43.90	-36.1	-37.0	22.4	0.00e+00	0	38	0	3021996032	41	4249
2026-01-22 03:33:26.25	148.59	43.72	-36.2	-37.1	22.3	0.00e+00	0	38	0	3028287488	41	4299
2026-01-22 03:33:27.39	148.99	43.47	-36.3	-37.2	22.3	0.00e+00	0	38	0	3036676096	42	4107
2026-01-22 03:33:28.24	149.29	43.29	-36.2	-37.1	22.3	0.00e+00	0	38	0	3042967552	42	4063
2026-01-22 03:33:29.38	149.69	43.05	-36.1	-36.9	22.5	0.00e+00	0	38	0	3051356160	42	4001
2026-01-22 03:33:30.23	149.98	42.87	-36.0	-36.8	22.5	0.00e+00	0	38	0	3057647616	42	3944
2026-01-22 03:33:31.37	150.37	42.63	-35.8	-36.6	22.7	0.00e+00	0	38	0	3066036224	42	3864
2026-01-22 03:33:32.22	150.66	42.45	-35.8	-36.6	22.8	0.00e+00	0	38	0	3071279104	42	3836
2026-01-22 03:33:33.36	151.03	42.21	-35.7	-36.6	22.8	0.00e+00	0	38	0	3079667712	42	3831
2026-01-22 03:33:34.21	151.31	42.02	-35.8	-36.6	22.6	0.00e+00	0	38	0	3085959168	42	3864
2026-01-22 03:33:35.58	151.75	41.73	-36.0	-36.8	22.5	0.00e+00	0	38	0	3095396352	42	3956
2026-01-22 03:33:36.29	151.98	41.58	-36.1	-36.9	22.5	0.00e+00	0	38	0	3100639232	42	3975
2026-01-22 03:33:37.57	152.38	41.31	-36.2	-37.1	22.3	0.00e+00	0	38	0	3110076416	42	4066
2026-01-22 03:33:38.30	152.61	41.16	-36.3	-37.1	22.3	0.00e+00	0	38	0	3115319296	42	4096
2026-01-22 03:33:39.58	153.00	40.89	-36.1	-37.0	22.4	0.00e+00	0	38	0	3124756480	42	4025
2026-01-22 03:33:40.29	153.21	40.74	-36.1	-36.9	22.5	0.00e+00	0	38	0	3129999360	42	3983
2026-01-22 03:33:41.57	153.59	40.47	-36.1	-37.0	22.4	0.00e+00	0	38	0	3139436544	42	4020
2026-01-22 03:33:42.28	153.80	40.32	-36.1	-37.0	22.4	0.00e+00	0	38	0	3144679424	42	4028
2026-01-22 03:33:43.56	154.18	40.05	-35.9	-36.7	22.6	0.00e+00	0	38	0	3154116608	42	3908
2026-01-22 03:33:44.27	154.38	39.91	-35.9	-36.7	22.5	0.00e+00	0	38	0	3158310912	42	3911
2026-01-22 03:33:45.55	154.74	39.64	-35.8	-36.6	22.7	0.00e+00	0	38	0	3167748096	42	3858
2026-01-22 03:33:46.26	154.94	39.49	-35.8	-36.6	22.7	0.00e+00	0	38	0	3172990976	42	3858
2026-01-22 03:33:47.54	155.29	39.23	-35.8	-36.6	22.8	0.00e+00	0	38	0	3182428160	42	3858
2026-01-22 03:33:48.26	155.49	39.08	-35.8	-36.6	22.7	0.00e+00	0	38	0	3187671040	42	3844
2026-01-22 03:33:49.62	155.86	38.80	-35.9	-36.7	22.6	0.00e+00	0	38	0	3197108224	42	3898
2026-01-22 03:33:50.33	156.05	38.65	-36.0	-36.8	22.6	0.00e+00	0	38	0	3202351104	42	3939
2026-01-22 03:33:51.67	156.40	38.38	-36.1	-36.9	22.4	0.00e+00	0	38	0	3211788288	42	3999
2026-01-22 03:33:52.65	156.65	38.18	-36.2	-37.0	22.4	0.00e+00	0	38	0	3219128320	42	4035
2026-01-22 03:33:53.94	156.98	37.91	-36.1	-36.9	22.4	0.00e+00	0	38	0	3228565504	42	3999
2026-01-22 03:33:54.67	157.17	37.76	-36.0	-36.8	22.3	0.00e+00	0	38	0	3233808384	42	3956
2026-01-22 03:33:56.27	157.56	37.44	-36.1	-36.9	22.4	0.00e+00	0	38	0	3245342720	42	3991
2026-01-22 03:33:56.84	157.70	37.33	-36.0	-36.8	22.5	0.00e+00	0	38	0	3249537024	42	3958
2026-01-22 03:33:58.54	158.11	36.98	-35.8	-36.6	22.7	0.00e+00	0	38	0	3261071360	42	3856
2026-01-22 03:33:59.11	158.25	36.87	-35.7	-36.5	22.8	0.00e+00	0	38	0	3266314240	42	3789
2026-01-22 03:34:00.85	158.66	36.52	-35.5	-36.3	23.0	0.00e+00	0	38	0	3277848576	41	3930
2026-01-22 03:34:01.41	158.79	36.41	-35.4	-36.2	23.0	0.00e+00	0	38	0	3282042880	41	3903
2026-01-22 03:34:03.12	159.18	36.07	-35.4	-36.2	23.0	0.00e+00	0	38	0	3294625792	41	3910
2026-01-22 03:34:03.69	159.31	35.96	-35.4	-36.2	23.0	0.00e+00	0	38	0	3298820096	41	3908
2026-01-22 03:34:05.47	159.71	35.61	-35.4	-36.2	23.0	0.00e+00	0	38	0	3311403008	41	3894
2026-01-22 03:34:06.04	159.83	35.50	-35.5	-36.3	22.9	0.00e+00	0	38	0	3315597312	41	3944
2026-01-22 03:34:07.74	160.20	35.17	-35.6	-36.4	22.9	0.00e+00	0	38	0	3328180224	41	3996
2026-01-22 03:34:08.44	160.35	35.03	-35.7	-36.6	22.7	0.00e+00	0	38	0	3333423104	41	4070
2026-01-22 03:34:09.85	160.65	34.76	-35.9	-36.7	22.6	0.00e+00	0	38	0	3342860288	41	4131
2026-01-22 03:34:10.65	160.82	34.61	-35.9	-36.8	22.5	0.00e+00	0	38	0	3349151744	41	4162
2026-01-22 03:34:12.12	161.12	34.33	-36.0	-36.9	22.5	0.00e+00	0	38	0	3359637504	41	4195
2026-01-22 03:34:12.83	161.26	34.19	-36.1	-37.0	22.3	0.00e+00	0	38	0	3364880384	41	4244
2026-01-22 03:34:14.30	161.56	33.91	-35.7	-36.6	22.7	0.00e+00	0	38	0	3375366144	41	4061
2026-01-22 03:34:15.01	161.70	33.78	-35.5	-36.3	22.8	0.00e+00	0	38	0	3380609024	41	3928
2026-01-22 03:34:16.29	161.95	33.54	-35.3	-36.1	23.1	0.00e+00	0	38	0	3390046208	41	3843
2026-01-22 03:34:17.00	162.09	33.41	-35.3	-36.1	23.1	0.00e+00	0	38	0	3395289088	41	3848
2026-01-22 03:34:18.28	162.33	33.17	-35.2	-36.0	23.1	0.00e+00	0	38	0	3403677696	41	3800
2026-01-22 03:34:19.01	162.47	33.03	-35.2	-36.0	23.1	0.00e+00	0	38	0	3409969152	41	3820
2026-01-22 03:34:20.29	162.71	32.80	-35.3	-36.2	23.1	0.00e+00	0	38	0	3418357760	41	3873
2026-01-22 03:34:21.00	162.84	32.67	-35.4	-36.2	23.0	0.00e+00	0	38	0	3423600640	41	3898
2026-01-22 03:34:22.28	163.08	32.43	-35.6	-36.4	22.8	0.00e+00	0	38	0	3433037824	41	3984
2026-01-22 03:34:22.99	163.21	32.30	-35.7	-36.5	22.8	0.00e+00	0	38	0	3438280704	41	4029
2026-01-22 03:34:24.27	163.44	32.07	-35.8	-36.7	22.6	0.00e+00	0	38	0	3447717888	41	4122
2026-01-22 03:34:25.09	163.58	31.92	-35.8	-36.7	22.6	0.00e+00	0	38	0	3452960768	41	4121
2026-01-22 03:34:26.22	163.78	31.72	-36.0	-36.9	22.4	0.00e+00	0	38	0	3461349376	41	4202
2026-01-22 03:34:27.08	163.93	31.57	-35.9	-36.8	22.5	0.00e+00	0	38	0	3467640832	41	4166
2026-01-22 03:34:28.59	164.19	31.30	-35.8	-36.7	22.6	0.00e+00	0	38	0	3478126592	41	4103
2026-01-22 03:34:29.30	164.31	31.17	-35.8	-36.7	22.6	0.00e+00	0	38	0	3484418048	41	4108
2026-01-22 03:34:30.79	164.56	30.91	-35.7	-36.6	22.7	0.00e+00	0	38	0	3493855232	41	4060
2026-01-22 03:34:31.50	164.68	30.79	-35.7	-36.6	22.6	0.00e+00	0	38	0	3500146688	41	4061
2026-01-22 03:34:32.78	164.89	30.56	-35.5	-36.3	22.9	0.00e+00	0	38	0	3508535296	41	3954
2026-01-22 03:34:33.49	165.00	30.44	-35.5	-36.3	22.9	0.00e+00	0	38	0	3513778176	41	3944
2026-01-22 03:34:34.77	165.21	30.22	-35.4	-36.2	23.0	0.00e+00	0	38	0	3523215360	41	3902
2026-01-22 03:34:35.50	165.32	30.09	-35.5	-36.3	22.9	0.00e+00	0	38	0	3528458240	41	3936
2026-01-22 03:34:36.78	165.52	29.87	-35.6	-36.4	22.8	0.00e+00	0	38	0	3537895424	41	3970
2026-01-22 03:34:37.49	165.63	29.75	-35.5	-36.3	22.9	0.00e+00	0	38	0	3543138304	41	3935
2026-01-22 03:34:38.77	165.83	29.53	-35.6	-36.4	22.8	0.00e+00	0	38	0	3552575488	41	3992
2026-01-22 03:34:39.48	165.94	29.41	-35.6	-36.4	22.8	0.00e+00	0	38	0	3556769792	41	3985
2026-01-22 03:34:40.76	166.13	29.20	-35.7	-36.5	22.8	0.00e+00	0	38	0	3566206976	41	4028
2026-01-22 03:34:41.47	166.24	29.08	-35.7	-36.6	22.7	0.00e+00	0	38	0	3571449856	41	4052
2026-01-22 03:34:42.75	166.43	28.87	-35.8	-36.6	22.6	0.00e+00	0	38	0	3580887040	41	4084
2026-01-22 03:34:43.63	166.56	28.72	-35.9	-36.7	22.6	0.00e+00	0	38	0	3587178496	41	4127
2026-01-22 03:34:45.08	166.77	28.48	-35.9	-36.7	22.5	0.00e+00	0	38	0	3597664256	41	4132
2026-01-22 03:34:45.80	166.87	28.36	-35.9	-36.8	22.5	0.00e+00	0	38	0	3602907136	41	4170
2026-01-22 03:34:47.07	167.05	28.16	-35.9	-36.8	22.3	0.00e+00	0	38	0	3612344320	41	4153
2026-01-22 03:34:47.81	167.15	28.04	-36.0	-36.9	22.2	0.00e+00	0	38	0	3617587200	41	4214
2026-01-22 03:34:49.09	167.33	27.83	-35.9	-36.8	22.5	0.00e+00	0	38	0	3625975808	41	4165
2026-01-22 03:34:49.80	167.43	27.72	-36.0	-36.9	22.4	0.00e+00	0	38	0	3632267264	41	4202
2026-01-22 03:34:51.08	167.60	27.51	-36.0	-36.8	22.4	0.00e+00	0	38	0	3640655872	41	4173
2026-01-22 03:34:51.87	167.71	27.39	-36.0	-36.8	22.4	0.00e+00	0	38	0	3646947328	41	4174
2026-01-22 03:34:53.07	167.87	27.20	-36.0	-36.8	22.4	0.00e+00	0	38	0	3655335936	41	4186
2026-01-22 03:34:53.92	167.98	27.06	-36.0	-36.8	22.4	0.00e+00	0	38	0	3661627392	41	4177
2026-01-22 03:34:55.06	168.13	26.88	-36.1	-36.9	22.3	0.00e+00	0	38	0	3670016000	41	4237
2026-01-22 03:34:55.91	168.24	26.75	-36.1	-36.9	22.4	0.00e+00	0	38	0	3676307456	41	4240
2026-01-22 03:34:57.05	168.39	26.57	-36.1	-36.9	22.4	0.00e+00	0	38	0	3683647488	41	4221
2026-01-22 03:34:57.90	168.49	26.44	-36.1	-37.0	22.3	0.00e+00	0	38	0	3689938944	41	4253
2026-01-22 03:34:59.04	168.64	26.27	-36.3	-37.2	22.2	0.00e+00	0	38	0	3698327552	42	4113
2026-01-22 03:34:59.89	168.74	26.14	-36.2	-37.1	22.3	0.00e+00	0	38	0	3704619008	42	4069
2026-01-22 03:35:01.02	168.88	25.96	-36.2	-37.1	22.2	0.00e+00	0	38	0	3713007616	42	4082
2026-01-22 03:35:01.88	168.99	25.83	-36.3	-37.1	22.2	0.00e+00	0	38	0	3719299072	42	4095
2026-01-22 03:35:03.03	169.13	25.66	-36.2	-37.0	22.3	0.00e+00	0	38	0	3726639104	42	4035
2026-01-22 03:35:03.88	169.23	25.53	-36.1	-37.0	22.3	0.00e+00	0	38	0	3732930560	42	4021
2026-01-22 03:35:05.02	169.37	25.36	-36.2	-37.0	22.3	0.00e+00	0	38	0	3741319168	42	4035
2026-01-22 03:35:05.87	169.47	25.23	-36.3	-37.1	22.2	0.00e+00	0	38	0	3747610624	42	4088
2026-01-22 03:35:07.01	169.60	25.06	-36.0	-36.9	22.3	0.00e+00	0	38	0	3755999232	42	3967
2026-01-22 03:35:07.86	169.70	24.94	-36.0	-36.8	22.5	0.00e+00	0	38	0	3762290688	42	3944
2026-01-22 03:35:09.00	169.83	24.77	-36.1	-36.9	22.3	0.00e+00	0	38	0	3769630720	42	3988
2026-01-22 03:35:09.85	169.93	24.65	-36.0	-36.9	22.4	0.00e+00	0	38	0	3775922176	42	3975
2026-01-22 03:35:10.99	170.06	24.48	-35.9	-36.8	22.5	0.00e+00	0	38	0	3784310784	42	3929
2026-01-22 03:35:11.84	170.15	24.36	-36.0	-36.8	22.5	0.00e+00	0	38	0	3790602240	42	3941
2026-01-22 03:35:12.97	170.28	24.20	-36.0	-36.9	22.4	0.00e+00	0	38	0	3798990848	42	3959
2026-01-22 03:35:13.83	170.37	24.07	-36.0	-36.8	22.4	0.00e+00	0	38	0	3805282304	42	3947
2026-01-22 03:35:14.96	170.50	23.91	-35.9	-36.8	22.5	0.00e+00	0	38	0	3813670912	42	3932
2026-01-22 03:35:15.82	170.59	23.79	-36.0	-36.9	22.4	0.00e+00	0	38	0	3819962368	42	3976
2026-01-22 03:35:16.96	170.71	23.63	-36.0	-36.8	22.4	0.00e+00	0	38	0	3828350976	42	3952
2026-01-22 03:35:17.81	170.80	23.51	-36.0	-36.9	22.4	0.00e+00	0	38	0	3833593856	42	3969
2026-01-22 03:35:19.01	170.93	23.34	-36.1	-37.0	22.3	0.00e+00	0	38	0	3843031040	42	4014
2026-01-22 03:35:19.86	171.02	23.22	-36.2	-37.0	22.3	0.00e+00	0	38	0	3848273920	42	4036
2026-01-22 03:35:21.00	171.14	23.06	-36.3	-37.2	22.2	0.00e+00	0	38	0	3856662528	42	4104
2026-01-22 03:35:21.85	171.22	22.95	-36.3	-37.2	22.1	0.00e+00	0	38	0	3862953984	42	4124
2026-01-22 03:35:23.16	171.36	22.77	-36.3	-37.2	22.2	0.00e+00	0	38	0	3872391168	42	4103
2026-01-22 03:35:23.87	171.43	22.67	-36.4	-37.3	22.0	0.00e+00	0	38	0	3877634048	42	4166
2026-01-22 03:35:25.15	171.56	22.50	-36.5	-37.4	21.9	0.00e+00	0	38	0	3887071232	42	4227
2026-01-22 03:35:25.89	171.63	22.40	-36.6	-37.5	21.9	0.00e+00	0	38	0	3892314112	42	4262
2026-01-22 03:35:27.17	171.75	22.22	-36.7	-37.5	21.8	0.00e+00	0	38	0	3901751296	43	4051
2026-01-22 03:35:27.88	171.82	22.13	-36.6	-37.5	21.8	0.00e+00	0	38	0	3906994176	43	4013
2026-01-22 03:35:29.16	171.95	21.96	-36.7	-37.6	21.7	0.00e+00	0	38	0	3916431360	43	4088
2026-01-22 03:35:29.87	172.02	21.86	-36.6	-37.5	21.8	0.00e+00	0	38	0	3920625664	43	4050
2026-01-22 03:35:31.15	172.14	21.69	-36.7	-37.6	21.8	0.00e+00	0	38	0	3930062848	43	4063
2026-01-22 03:35:31.86	172.20	21.60	-36.8	-37.7	21.7	0.00e+00	0	38	0	3935305728	43	4113
2026-01-22 03:35:33.14	172.32	21.43	-36.8	-37.7	21.6	0.00e+00	0	38	0	3944742912	43	4126
2026-01-22 03:35:34.09	172.41	21.31	-36.7	-37.6	21.7	0.00e+00	0	38	0	3951034368	43	4077
2026-01-22 03:35:35.39	172.53	21.14	-36.7	-37.6	21.8	0.00e+00	0	38	0	3960471552	43	4063
2026-01-22 03:35:36.11	172.60	21.05	-36.8	-37.7	21.7	0.00e+00	0	38	0	3965714432	43	4108
2026-01-22 03:35:37.38	172.71	20.88	-36.8	-37.7	21.6	0.00e+00	0	38	0	3975151616	43	4127
2026-01-22 03:35:38.10	172.78	20.79	-36.8	-37.7	21.7	0.00e+00	0	38	0	3980394496	43	4100
2026-01-22 03:35:39.37	172.89	20.63	-36.7	-37.6	21.6	0.00e+00	0	38	0	3989831680	43	4056
2026-01-22 03:35:40.08	172.95	20.54	-36.7	-37.6	21.7	0.00e+00	0	38	0	3995074560	43	4067
2026-01-22 03:35:41.36	173.06	20.38	-36.8	-37.7	21.6	0.00e+00	0	39	0	4004511744	43	4114
2026-01-22 03:35:42.08	173.13	20.29	-36.7	-37.6	21.6	0.00e+00	0	38	0	4008706048	43	4083
2026-01-22 03:35:43.35	173.24	20.13	-36.7	-37.6	21.8	0.00e+00	0	38	0	4018143232	43	4057
2026-01-22 03:35:44.07	173.30	20.04	-36.7	-37.6	21.8	0.00e+00	0	38	0	4023386112	43	4057
2026-01-22 03:35:45.34	173.41	19.88	-36.7	-37.6	21.7	0.00e+00	0	38	0	4032823296	43	4082
2026-01-22 03:35:46.05	173.47	19.79	-36.8	-37.7	21.7	0.00e+00	0	38	0	4038066176	43	4115
2026-01-22 03:35:47.33	173.57	19.64	-36.7	-37.6	21.6	0.00e+00	0	38	0	4046454784	43	4094
2026-01-22 03:35:48.06	173.63	19.55	-36.8	-37.7	21.6	0.00e+00	0	38	0	4052746240	43	4133
2026-01-22 03:35:49.34	173.74	19.39	-36.8	-37.7	21.6	0.00e+00	0	38	0	4061134848	43	4136
2026-01-22 03:35:50.07	173.80	19.30	-36.8	-37.7	21.6	0.00e+00	0	38	0	4066377728	43	4137
2026-01-22 03:35:51.34	173.90	19.15	-36.9	-37.8	21.5	0.00e+00	0	38	0	4075814912	43	4152
2026-01-22 03:35:52.07	173.96	19.06	-37.0	-37.9	21.5	0.00e+00	0	38	0	4081057792	43	4199
2026-01-22 03:35:53.66	174.09	18.87	-37.0	-37.9	21.4	0.00e+00	0	38	0	4092592128	43	4233
2026-01-22 03:35:54.23	174.13	18.80	-37.1	-38.0	21.3	0.00e+00	0	38	0	4096786432	43	4265
2026-01-22 03:35:55.94	174.27	18.60	-37.2	-38.2	21.2	0.00e+00	0	38	0	4109369344	43	4344
2026-01-22 03:35:56.56	174.32	18.53	-37.2	-38.1	21.2	0.00e+00	0	38	0	4113563648	43	4331
2026-01-22 03:35:58.12	174.44	18.35	-37.5	-38.4	21.1	0.00e+00	0	38	0	4125097984	44	4206
2026-01-22 03:35:58.76	174.49	18.27	-37.4	-38.4	21.2	0.00e+00	0	38	0	4129292288	44	4194
2026-01-22 03:36:00.18	174.59	18.11	-37.6	-38.5	21.0	0.00e+00	0	38	0	4139778048	44	4282
2026-01-22 03:36:00.90	174.65	18.02	-37.6	-38.6	21.0	0.00e+00	0	38	0	4145020928	44	4292
2026-01-22 03:36:02.18	174.74	17.88	-37.6	-38.5	21.0	0.00e+00	0	38	0	4154458112	44	4279
2026-01-22 03:36:02.89	174.80	17.79	-37.7	-38.6	20.9	0.00e+00	0	38	0	4159700992	44	4313
2026-01-22 03:36:04.18	174.89	17.65	-37.6	-38.6	21.0	0.00e+00	0	38	0	4168089600	44	4303
2026-01-22 03:36:04.91	174.94	17.56	-37.6	-38.6	21.0	0.00e+00	0	38	0	4174381056	44	4305
2026-01-22 03:36:06.19	175.04	17.42	-37.7	-38.6	21.0	0.00e+00	0	38	0	4182769664	44	4305
2026-01-22 03:36:06.90	175.09	17.34	-37.8	-38.7	20.8	0.00e+00	0	38	0	4188012544	44	4371
2026-01-22 03:36:08.18	175.18	17.20	-37.6	-38.5	21.0	0.00e+00	0	38	0	4197449728	44	4288
2026-01-22 03:36:09.03	175.24	17.10	-37.7	-38.7	20.9	0.00e+00	0	38	0	4203741184	44	4350
2026-01-22 03:36:10.17	175.32	16.97	-37.8	-38.7	20.8	0.00e+00	0	38	0	4212129792	45	4125
2026-01-22 03:36:11.02	175.38	16.88	-37.7	-38.6	20.9	0.00e+00	0	38	0	4218421248	45	4085
2026-01-22 03:36:12.16	175.46	16.75	-37.7	-38.6	20.9	0.00e+00	0	38	0	4226809856	45	4074
2026-01-22 03:36:13.01	175.52	16.66	-37.7	-38.6	20.9	0.00e+00	0	38	0	4232052736	45	4097
2026-01-22 03:36:14.15	175.60	16.54	-37.7	-38.6	20.9	0.00e+00	0	38	0	4240441344	45	4079
2026-01-22 03:36:15.00	175.66	16.44	-37.7	-38.7	20.9	0.00e+00	0	38	0	4246732800	45	4102
2026-01-22 03:36:16.14	175.73	16.32	-37.7	-38.7	20.8	0.00e+00	0	38	0	4255121408	45	4106
2026-01-22 03:36:16.99	175.79	16.23	-37.8	-38.7	20.8	0.00e+00	0	38	0	4261412864	45	4145
2026-01-22 03:36:18.13	175.87	16.11	-37.8	-38.7	20.9	0.00e+00	0	38	0	4268752896	45	4124
2026-01-22 03:36:18.98	175.92	16.01	-37.8	-38.8	20.7	0.00e+00	0	38	0	4275044352	45	4161
2026-01-22 03:36:20.12	176.00	15.89	-37.9	-38.9	20.7	0.00e+00	0	38	0	4283432960	45	4194
2026-01-22 03:36:20.97	176.05	15.80	-37.9	-38.8	20.7	0.00e+00	0	38	0	4289724416	45	4191
2026-01-22 03:36:22.11	176.13	15.68	-37.9	-38.9	20.7	0.00e+00	0	38	0	4298113024	45	4201
2026-01-22 03:36:22.96	176.18	15.59	-37.8	-38.8	20.7	0.00e+00	0	38	0	4304404480	45	4170
2026-01-22 03:36:24.10	176.26	15.47	-37.9	-38.9	20.6	0.00e+00	0	38	0	4311744512	45	4209
2026-01-22 03:36:25.06	176.32	15.37	-38.0	-38.9	20.6	0.00e+00	0	38	0	4319084544	45	4241
2026-01-22 03:36:26.06	176.38	15.27	-37.9	-38.8	20.7	0.00e+00	0	38	0	4326424576	45	4171
2026-01-22 03:36:27.05	176.44	15.17	-37.9	-38.9	20.6	0.00e+00	0	38	0	4333764608	45	4211
2026-01-22 03:36:28.05	176.51	15.06	-38.0	-39.0	20.5	0.00e+00	0	38	0	4341104640	45	4275
2026-01-22 03:36:29.04	176.57	14.96	-38.1	-39.0	20.5	0.00e+00	0	38	0	4348444672	45	4290
2026-01-22 03:36:30.04	176.63	14.86	-38.0	-38.9	20.6	0.00e+00	0	38	0	4354736128	45	4235
2026-01-22 03:36:31.03	176.69	14.76	-38.0	-39.0	20.5	0.00e+00	0	38	0	4362076160	45	4259
2026-01-22 03:36:32.03	176.75	14.66	-38.1	-39.0	20.5	0.00e+00	0	38	0	4369416192	45	4281
2026-01-22 03:36:33.02	176.81	14.55	-38.1	-39.1	20.4	0.00e+00	0	38	0	4376756224	45	4319
2026-01-22 03:36:34.01	176.87	14.45	-38.1	-39.1	20.5	0.00e+00	0	38	0	4384096256	45	4295
2026-01-22 03:36:35.01	176.93	14.35	-38.1	-39.1	20.4	0.00e+00	0	38	0	4391436288	45	4312
2026-01-22 03:36:36.00	176.99	14.26	-38.2	-39.2	20.4	0.00e+00	0	38	0	4398776320	45	4349
2026-01-22 03:36:37.00	177.05	14.16	-38.2	-39.2	20.3	0.00e+00	0	38	0	4405067776	45	4355
2026-01-22 03:36:37.99	177.11	14.06	-38.3	-39.3	20.3	0.00e+00	0	38	0	4412407808	46	4162
2026-01-22 03:36:38.98	177.16	13.96	-38.2	-39.2	20.3	0.00e+00	0	38	0	4419747840	46	4134
2026-01-22 03:36:39.98	177.22	13.86	-38.3	-39.3	20.2	0.00e+00	0	38	0	4427087872	46	4175
2026-01-22 03:36:40.97	177.28	13.76	-38.3	-39.3	20.3	0.00e+00	0	38	0	4434427904	46	4157
2026-01-22 03:36:41.97	177.34	13.67	-38.5	-39.5	20.0	0.00e+00	0	38	0	4441767936	46	4262
2026-01-22 03:36:42.96	177.39	13.57	-38.5	-39.5	20.0	0.00e+00	0	38	0	4449107968	46	4268
2026-01-22 03:36:43.96	177.45	13.47	-38.5	-39.4	20.1	0.00e+00	0	38	0	4455399424	46	4241
2026-01-22 03:36:44.95	177.51	13.38	-38.6	-39.6	20.0	0.00e+00	0	38	0	4462739456	46	4298
2026-01-22 03:36:46.00	177.56	13.27	-38.4	-39.4	20.2	0.00e+00	0	38	0	4470079488	46	4204
2026-01-22 03:36:46.93	177.62	13.18	-38.5	-39.5	20.0	0.00e+00	0	38	0	4477419520	46	4256
2026-01-22 03:36:47.92	177.67	13.09	-38.5	-39.5	20.0	0.00e+00	0	38	0	4484759552	46	4273
2026-01-22 03:36:48.92	177.73	12.99	-38.4	-39.4	20.1	0.00e+00	0	38	0	4492099584	46	4234
2026-01-22 03:36:49.91	177.78	12.90	-38.6	-39.6	19.9	0.00e+00	0	38	0	4498391040	46	4309
2026-01-22 03:36:50.91	177.83	12.81	-38.6	-39.6	19.9	0.00e+00	0	38	0	4505731072	46	4311
2026-01-22 03:36:51.90	177.89	12.71	-38.7	-39.7	19.5	0.00e+00	0	38	0	4513071104	46	4364
2026-01-22 03:36:52.90	177.94	12.62	-38.7	-39.7	19.8	0.00e+00	0	38	0	4520411136	46	4371
2026-01-22 03:36:53.89	177.99	12.53	-38.7	-39.7	19.8	0.00e+00	0	38	0	4527751168	46	4362
2026-01-22 03:36:54.88	178.05	12.43	-38.6	-39.6	19.9	0.00e+00	0	38	0	4534042624	46	4317
2026-01-22 03:36:55.88	178.10	12.34	-38.6	-39.6	19.9	0.00e+00	0	38	0	4541382656	46	4329
2026-01-22 03:36:56.87	178.15	12.25	-38.8	-39.8	19.7	0.00e+00	0	38	0	4548722688	46	4405
2026-01-22 03:36:57.87	178.20	12.16	-38.7	-39.7	19.8	0.00e+00	0	38	0	4556062720	46	4382
2026-01-22 03:36:58.91	178.26	12.06	-38.7	-39.7	19.8	0.00e+00	0	38	0	4563402752	46	4367
2026-01-22 03:36:59.91	178.31	11.97	-38.7	-39.7	19.7	0.00e+00	0	38	0	4570742784	47	4140
2026-01-22 03:37:00.95	178.36	11.87	-38.8	-39.8	19.7	0.00e+00	0	38	0	4578082816	47	4183
2026-01-22 03:37:01.97	178.41	11.78	-38.8	-39.8	19.7	0.00e+00	0	38	0	4585422848	47	4156
2026-01-22 03:37:02.97	178.46	11.69	-38.9	-39.9	19.5	0.00e+00	0	38	0	4592762880	47	4229
2026-01-22 03:37:03.96	178.51	11.60	-38.9	-39.9	19.6	0.00e+00	0	38	0	4600102912	47	4210
2026-01-22 03:37:04.96	178.56	11.51	-39.0	-40.0	19.5	0.00e+00	0	38	0	4607442944	47	4274
2026-01-22 03:37:05.95	178.61	11.42	-39.0	-40.1	19.4	0.00e+00	0	38	0	4614782976	47	4296
2026-01-22 03:37:06.94	178.66	11.33	-39.0	-40.1	19.4	0.00e+00	0	38	0	4621074432	47	4293
2026-01-22 03:37:07.94	178.71	11.24	-39.1	-40.1	19.4	0.00e+00	0	38	0	4628414464	47	4306
2026-01-22 03:37:08.93	178.76	11.16	-39.2	-40.2	19.3	0.00e+00	0	38	0	4635754496	47	4375
2026-01-22 03:37:09.93	178.80	11.07	-39.2	-40.2	19.2	0.00e+00	0	38	0	4643094528	47	4391
2026-01-22 03:37:10.92	178.85	10.98	-39.1	-40.2	19.3	0.00e+00	0	38	0	4650434560	47	4346
2026-01-22 03:37:11.92	178.90	10.89	-39.2	-40.3	19.2	0.00e+00	0	38	0	4657774592	47	4414
2026-01-22 03:37:12.91	178.95	10.81	-39.4	-40.5	19.2	0.00e+00	0	38	0	4665114624	48	4263
2026-01-22 03:37:13.91	178.99	10.72	-39.5	-40.6	19.2	0.00e+00	0	38	0	4672454656	48	4292
2026-01-22 03:37:14.90	179.04	10.63	-39.4	-40.5	19.1	0.00e+00	0	38	0	4679794688	48	4275
2026-01-22 03:37:15.90	179.09	10.55	-39.6	-40.7	19.0	0.00e+00	0	38	0	4686086144	48	4365
2026-01-22 03:37:16.96	179.14	10.45	-39.7	-40.8	18.9	0.00e+00	0	38	0	4694474752	49	4182
