passes_logs/2026/01/22/T1/T1__20260122_014204_FENGYUN_3D_rec.log

#Pass ID: 20260122_014204_FENGYUN 3D
#Satellite: FENGYUN 3D
#Configuration: FENGYUN 3D
#almurnet v.1.7.20251203
#Start time: 2026-01-22 01:42:03

#Version: 2.0.20230620
#Station: T1
#Location: 37.570604 lon 55.790049 lat
#TLE: 1 43010U 17072A   26021.48744220  .00000253  00000+0  14133-3 0  9991
#TLE: 2 43010  98.9948 353.4037 0002485  97.2578 262.8880 14.19697766424177

#Time	Az	El	Level	Level2	SNR	BER	BlckErr	Temp	State	Recorded	gain1	gain2
2026-01-22 01:42:03.85	17.34	4.97	-49.4	-62.2	3.8	8.46e-01	0	35	0	0	69	16634
2026-01-22 01:42:04.84	17.35	5.04	-49.4	-62.3	3.8	8.47e-01	0	35	104	0	69	16770
2026-01-22 01:42:05.83	17.36	5.11	-49.4	-62.3	3.8	8.46e-01	0	35	104	0	69	16706
2026-01-22 01:42:06.83	17.37	5.18	-49.4	-62.3	3.8	8.48e-01	0	35	104	0	69	16775
2026-01-22 01:42:07.82	17.37	5.25	-49.4	-62.3	3.8	8.47e-01	0	35	104	0	69	16726
2026-01-22 01:42:08.81	17.38	5.32	-49.4	-62.2	3.8	8.48e-01	0	35	104	0	69	16681
2026-01-22 01:42:09.81	17.39	5.39	-49.4	-62.2	3.8	8.47e-01	0	36	104	0	69	16585
2026-01-22 01:42:10.80	17.40	5.47	-49.4	-62.1	3.8	8.46e-01	0	36	104	0	69	16419
2026-01-22 01:42:11.79	17.41	5.54	-49.4	-62.1	3.8	8.47e-01	0	36	104	0	69	16354
2026-01-22 01:42:12.79	17.42	5.61	-49.4	-62.1	3.8	8.47e-01	0	36	104	0	69	16319
2026-01-22 01:42:13.78	17.43	5.68	-49.4	-62.0	3.8	8.47e-01	0	36	104	0	69	16250
2026-01-22 01:42:14.77	17.43	5.75	-49.4	-62.0	3.8	8.46e-01	0	36	104	0	69	16312
2026-01-22 01:42:15.77	17.44	5.83	-49.4	-62.1	3.8	8.47e-01	0	36	104	0	69	16317
2026-01-22 01:42:16.76	17.45	5.90	-49.4	-62.0	3.8	8.47e-01	0	36	104	0	69	16290
2026-01-22 01:42:17.75	17.46	5.97	-49.4	-62.1	3.8	8.47e-01	0	36	104	0	69	16439
2026-01-22 01:42:18.75	17.47	6.05	-49.4	-62.1	3.8	8.47e-01	0	36	104	0	69	16367
2026-01-22 01:42:19.74	17.48	6.12	-49.4	-62.2	3.8	8.47e-01	0	36	104	0	69	16543
2026-01-22 01:42:20.73	17.49	6.19	-49.4	-62.2	3.8	8.46e-01	0	36	104	0	69	16588
2026-01-22 01:42:21.73	17.50	6.27	-49.4	-62.2	3.8	8.47e-01	0	36	104	0	69	16626
2026-01-22 01:42:22.72	17.51	6.34	-49.4	-62.2	3.8	8.47e-01	0	36	104	0	69	16562
2026-01-22 01:42:23.71	17.51	6.42	-49.4	-62.1	3.8	8.46e-01	0	36	104	0	69	16417
2026-01-22 01:42:24.71	17.52	6.49	-49.4	-62.1	3.8	8.47e-01	0	36	104	0	69	16366
2026-01-22 01:42:25.70	17.53	6.57	-49.3	-62.0	3.8	8.47e-01	0	36	104	0	69	16148
2026-01-22 01:42:26.69	17.54	6.64	-49.3	-61.8	3.8	8.46e-01	0	36	104	0	69	15789
2026-01-22 01:42:27.69	17.55	6.72	-49.3	-61.5	3.8	8.47e-01	0	36	104	0	69	15398
2026-01-22 01:42:28.68	17.56	6.79	-49.3	-61.3	3.8	8.47e-01	0	36	104	0	69	14917
2026-01-22 01:42:29.67	17.57	6.87	-49.3	-61.0	3.8	8.46e-01	0	36	104	0	69	14433
2026-01-22 01:42:30.67	17.58	6.94	-49.2	-60.7	3.8	8.46e-01	0	36	104	0	69	13892
2026-01-22 01:42:31.66	17.59	7.02	-49.2	-60.3	3.8	8.47e-01	0	36	104	0	69	13401
2026-01-22 01:42:32.65	17.60	7.10	-49.2	-60.0	3.8	8.44e-01	0	36	104	0	69	12897
2026-01-22 01:42:33.65	17.60	7.17	-49.1	-59.7	3.9	8.44e-01	0	36	104	0	69	12422
2026-01-22 01:42:34.64	17.61	7.25	-49.1	-59.3	3.9	8.44e-01	0	37	104	0	69	11876
2026-01-22 01:42:35.63	17.62	7.33	-49.0	-58.9	4.1	8.41e-01	0	36	0	0	69	11412
2026-01-22 01:42:36.63	17.63	7.40	-49.0	-58.7	4.2	8.40e-01	0	36	0	0	69	11074
2026-01-22 01:42:37.62	17.64	7.48	-48.9	-58.3	4.3	8.33e-01	0	36	0	0	69	10564
2026-01-22 01:42:38.61	17.65	7.56	-48.9	-58.0	4.4	8.28e-01	0	36	0	0	69	10177
2026-01-22 01:42:39.61	17.66	7.64	-48.8	-57.6	4.6	8.19e-01	0	36	0	0	69	9809
2026-01-22 01:42:40.60	17.67	7.72	-48.8	-57.3	4.7	8.10e-01	0	37	0	0	69	9482
2026-01-22 01:42:41.60	17.68	7.79	-48.6	-56.7	5.0	7.95e-01	0	37	0	0	69	8859
2026-01-22 01:42:42.59	17.69	7.87	-48.6	-56.4	5.1	7.56e-01	0	37	0	0	69	8495
2026-01-22 01:42:43.58	17.70	7.95	-48.4	-55.8	5.5	7.07e-01	0	37	0	0	68	8406
2026-01-22 01:42:44.58	17.71	8.03	-48.3	-55.3	5.9	4.06e-01	0	37	0	4194304	68	7932
2026-01-22 01:42:45.57	17.72	8.11	-48.1	-54.5	6.5	2.97e-01	0	37	0	9437184	68	7277
2026-01-22 01:42:46.56	17.73	8.19	-47.7	-53.6	7.2	1.95e-01	0	37	0	14680064	67	6892
2026-01-22 01:42:47.56	17.74	8.27	-47.3	-52.7	8.0	8.98e-02	0	37	0	20971520	66	6638
2026-01-22 01:42:48.55	17.74	8.35	-47.0	-51.8	8.9	4.75e-02	0	37	0	26214400	66	5987
2026-01-22 01:42:49.54	17.75	8.43	-46.7	-51.3	9.5	2.04e-02	0	37	0	31457280	65	5929
2026-01-22 01:42:50.54	17.76	8.51	-46.2	-50.3	10.5	7.20e-03	0	37	0	37748736	64	5615
2026-01-22 01:42:51.53	17.77	8.59	-45.9	-49.8	11.1	2.52e-03	0	37	0	42991616	63	5626
2026-01-22 01:42:52.52	17.78	8.67	-45.5	-49.1	11.8	8.72e-04	0	37	0	48234496	63	5184
2026-01-22 01:42:53.51	17.79	8.76	-45.2	-48.6	12.4	3.43e-04	0	37	0	54525952	62	5162
2026-01-22 01:42:54.51	17.80	8.84	-44.8	-48.0	13.0	8.58e-05	0	37	0	59768832	61	5139
2026-01-22 01:42:55.50	17.81	8.92	-44.7	-47.8	13.2	5.26e-05	0	37	0	66060288	61	5008
2026-01-22 01:42:56.50	17.82	9.00	-44.5	-47.5	13.5	1.94e-05	0	37	0	71303168	61	4866
2026-01-22 01:42:57.49	17.83	9.09	-43.4	-46.0	15.0	4.50e-06	0	37	0	76546048	58	4835
2026-01-22 01:42:58.49	17.84	9.17	-45.6	-49.0	12.0	1.02e-02	0	37	0	81788928	63	5127
2026-01-22 01:42:59.48	17.85	9.25	-44.5	-47.5	13.5	1.90e-04	0	37	0	88080384	60	5113
2026-01-22 01:43:00.48	17.86	9.34	-46.5	-50.9	9.9	6.59e-03	0	37	0	93323264	63	6419
2026-01-22 01:43:01.47	17.87	9.42	-45.0	-48.2	12.6	3.96e-02	0	37	0	98566144	62	4974
2026-01-22 01:43:02.47	17.88	9.50	-40.9	-43.0	17.8	0.00e+00	0	37	0	104857600	53	4551
2026-01-22 01:43:03.46	17.89	9.59	-40.8	-42.9	17.8	0.00e+00	0	37	0	110100480	53	4517
2026-01-22 01:43:04.46	17.90	9.67	-40.7	-42.7	18.0	0.00e+00	0	37	0	116391936	53	4436
2026-01-22 01:43:05.45	17.91	9.76	-40.6	-42.6	18.1	0.00e+00	0	37	0	121634816	53	4388
2026-01-22 01:43:06.45	17.92	9.84	-40.6	-42.6	18.1	0.00e+00	0	37	0	126877696	53	4390
2026-01-22 01:43:07.44	17.93	9.93	-40.6	-42.6	18.1	0.00e+00	0	37	0	132120576	53	4378
2026-01-22 01:43:08.53	17.94	10.02	-40.3	-42.3	18.4	0.00e+00	0	37	0	138412032	52	4454
2026-01-22 01:43:09.39	17.95	10.10	-40.0	-41.9	18.8	0.00e+00	0	37	0	143654912	51	4527
2026-01-22 01:43:10.52	17.96	10.20	-40.1	-42.1	18.7	0.00e+00	0	37	0	149946368	51	4619
2026-01-22 01:43:11.38	17.97	10.27	-40.0	-42.0	18.8	0.00e+00	0	37	0	155189248	51	4552
2026-01-22 01:43:12.51	17.99	10.37	-39.8	-41.8	19.0	0.00e+00	0	37	0	161480704	51	4459
2026-01-22 01:43:13.36	17.99	10.44	-39.9	-41.8	19.0	0.00e+00	0	37	0	165675008	51	4482
2026-01-22 01:43:14.50	18.01	10.54	-39.9	-41.8	18.9	0.00e+00	0	37	0	171966464	51	4484
2026-01-22 01:43:15.35	18.01	10.62	-39.9	-41.9	18.9	0.00e+00	0	37	0	177209344	51	4504
2026-01-22 01:43:16.49	18.03	10.72	-39.9	-41.8	19.0	0.00e+00	0	37	0	183500800	51	4452
2026-01-22 01:43:17.34	18.04	10.80	-40.0	-41.9	18.9	0.00e+00	0	37	0	187695104	51	4528
2026-01-22 01:43:18.48	18.05	10.90	-39.8	-41.8	19.0	0.00e+00	0	37	0	195035136	51	4443
2026-01-22 01:43:19.33	18.06	10.98	-39.8	-41.7	19.1	0.00e+00	0	37	0	199229440	51	4398
2026-01-22 01:43:20.47	18.07	11.08	-39.8	-41.7	19.0	0.00e+00	0	37	0	205520896	51	4432
2026-01-22 01:43:21.32	18.08	11.16	-39.7	-41.6	19.2	0.00e+00	0	37	0	210763776	51	4365
2026-01-22 01:43:22.46	18.09	11.26	-39.8	-41.7	19.1	0.00e+00	0	37	0	217055232	51	4428
2026-01-22 01:43:23.31	18.10	11.34	-39.8	-41.8	19.1	0.00e+00	0	37	0	222298112	51	4443
2026-01-22 01:43:24.45	18.11	11.44	-39.8	-41.7	19.1	0.00e+00	0	37	0	228589568	51	4426
2026-01-22 01:43:25.30	18.12	11.52	-39.8	-41.7	19.1	0.00e+00	0	37	0	232783872	51	4410
2026-01-22 01:43:26.60	18.14	11.64	-39.7	-41.7	19.1	0.00e+00	0	37	0	240123904	51	4397
2026-01-22 01:43:27.31	18.14	11.70	-39.8	-41.7	19.1	0.00e+00	0	37	0	244318208	51	4439
2026-01-22 01:43:28.59	18.16	11.82	-39.7	-41.7	19.1	0.00e+00	0	37	0	251658240	51	4394
2026-01-22 01:43:29.30	18.17	11.89	-39.8	-41.7	19.1	0.00e+00	0	37	0	255852544	51	4417
2026-01-22 01:43:30.58	18.18	12.01	-39.9	-41.8	19.0	0.00e+00	0	37	0	263192576	51	4465
2026-01-22 01:43:31.31	18.19	12.08	-39.9	-41.8	19.1	0.00e+00	0	37	0	267386880	51	4455
2026-01-22 01:43:32.59	18.20	12.20	-39.7	-41.5	19.3	0.00e+00	0	37	0	273678336	51	4340
2026-01-22 01:43:33.30	18.21	12.27	-39.7	-41.6	19.2	0.00e+00	0	37	0	277872640	51	4372
2026-01-22 01:43:34.58	18.23	12.39	-39.7	-41.5	19.3	0.00e+00	0	37	0	285212672	51	4340
2026-01-22 01:43:35.29	18.23	12.46	-39.7	-41.6	19.3	0.00e+00	0	37	0	289406976	51	4349
2026-01-22 01:43:36.57	18.25	12.58	-39.6	-41.5	19.3	0.00e+00	0	37	0	296747008	51	4311
2026-01-22 01:43:37.31	18.26	12.65	-39.7	-41.6	19.3	0.00e+00	0	37	0	300941312	51	4342
2026-01-22 01:43:38.72	18.27	12.79	-39.8	-41.7	19.1	0.00e+00	0	38	0	308281344	51	4438
2026-01-22 01:43:39.43	18.28	12.85	-39.7	-41.6	19.3	0.00e+00	0	38	0	312475648	51	4352
2026-01-22 01:43:40.71	18.30	12.98	-39.5	-41.4	19.4	0.00e+00	0	37	0	319815680	51	4274
2026-01-22 01:43:41.42	18.30	13.05	-39.5	-41.3	19.5	0.00e+00	0	38	0	324009984	51	4235
2026-01-22 01:43:42.70	18.32	13.17	-39.4	-41.2	19.6	0.00e+00	0	37	0	330301440	50	4431
2026-01-22 01:43:43.42	18.33	13.25	-39.4	-41.2	19.6	0.00e+00	0	37	0	334495744	50	4420
2026-01-22 01:43:44.70	18.34	13.37	-39.3	-41.2	19.6	0.00e+00	0	38	0	341835776	50	4406
2026-01-22 01:43:45.41	18.35	13.44	-39.4	-41.2	19.6	0.00e+00	0	37	0	346030080	50	4420
2026-01-22 01:43:46.70	18.37	13.57	-39.2	-41.1	19.7	0.00e+00	0	38	0	353370112	50	4357
2026-01-22 01:43:47.45	18.38	13.65	-39.3	-41.1	19.7	0.00e+00	0	37	0	357564416	50	4385
2026-01-22 01:43:48.73	18.39	13.78	-39.2	-41.0	19.8	0.00e+00	0	37	0	364904448	50	4333
2026-01-22 01:43:49.46	18.40	13.85	-39.2	-41.0	19.8	0.00e+00	0	37	0	369098752	50	4320
2026-01-22 01:43:50.74	18.42	13.98	-39.1	-40.9	19.9	0.00e+00	0	37	0	376438784	50	4284
2026-01-22 01:43:51.51	18.42	14.06	-39.0	-40.8	20.0	0.00e+00	0	37	0	380633088	50	4224
2026-01-22 01:43:52.79	18.44	14.19	-39.0	-40.8	20.0	0.00e+00	0	38	0	387973120	49	4482
2026-01-22 01:43:53.55	18.45	14.27	-39.0	-40.9	20.0	0.00e+00	0	37	0	392167424	49	4495
2026-01-22 01:43:54.83	18.47	14.40	-38.8	-40.7	20.1	0.00e+00	0	37	0	399507456	49	4399
2026-01-22 01:43:55.62	18.48	14.48	-38.8	-40.7	20.1	0.00e+00	0	37	0	403701760	49	4399
2026-01-22 01:43:56.77	18.49	14.60	-38.9	-40.7	20.1	0.00e+00	0	38	0	409993216	49	4414
2026-01-22 01:43:57.62	18.50	14.69	-38.9	-40.7	20.1	0.00e+00	0	38	0	415236096	49	4433
2026-01-22 01:43:58.76	18.51	14.81	-38.8	-40.6	20.2	0.00e+00	0	38	0	421527552	49	4358
2026-01-22 01:43:59.61	18.53	14.90	-38.7	-40.5	20.2	0.00e+00	0	37	0	425721856	49	4327
2026-01-22 01:44:01.14	18.54	15.06	-38.7	-40.6	20.2	0.00e+00	0	37	0	434110464	49	4348
2026-01-22 01:44:01.85	18.55	15.14	-38.7	-40.5	20.3	0.00e+00	0	38	0	438304768	49	4320
2026-01-22 01:44:03.13	18.57	15.28	-38.7	-40.6	20.2	0.00e+00	0	38	0	445644800	49	4344
2026-01-22 01:44:03.85	18.58	15.35	-38.6	-40.4	20.4	0.00e+00	0	38	0	449839104	49	4271
2026-01-22 01:44:05.13	18.60	15.49	-38.6	-40.4	20.4	0.00e+00	0	38	0	457179136	49	4282
2026-01-22 01:44:05.84	18.61	15.57	-38.5	-40.4	20.4	0.00e+00	0	38	0	461373440	49	4257
2026-01-22 01:44:07.12	18.62	15.71	-38.4	-40.3	20.5	0.00e+00	0	37	0	468713472	48	4442
2026-01-22 01:44:08.00	18.63	15.80	-38.4	-40.2	20.6	0.00e+00	0	37	0	472907776	48	4412
2026-01-22 01:44:09.14	18.65	15.93	-38.5	-40.3	20.5	0.00e+00	0	37	0	479199232	48	4482
2026-01-22 01:44:09.99	18.66	16.02	-38.4	-40.3	20.5	0.00e+00	0	38	0	484442112	48	4454
2026-01-22 01:44:11.13	18.68	16.15	-38.4	-40.2	20.6	0.00e+00	0	38	0	490733568	48	4415
2026-01-22 01:44:11.98	18.69	16.24	-38.4	-40.2	20.6	0.00e+00	0	37	0	495976448	48	4416
2026-01-22 01:44:13.12	18.70	16.37	-38.2	-40.0	20.7	0.00e+00	0	38	0	502267904	48	4318
2026-01-22 01:44:14.33	18.72	16.51	-38.2	-40.0	20.7	0.00e+00	0	38	0	508559360	48	4322
2026-01-22 01:44:15.19	18.73	16.61	-38.1	-39.9	20.8	0.00e+00	0	38	0	513802240	48	4270
2026-01-22 01:44:16.32	18.75	16.73	-38.1	-39.9	20.9	0.00e+00	0	38	0	520093696	48	4254
2026-01-22 01:44:17.18	18.76	16.83	-38.0	-39.8	20.9	0.00e+00	0	38	0	525336576	48	4213
2026-01-22 01:44:18.31	18.77	16.96	-38.0	-39.7	20.8	0.00e+00	0	38	0	531628032	47	4438
2026-01-22 01:44:19.17	18.79	17.06	-37.9	-39.7	20.8	0.00e+00	0	38	0	535822336	47	4434
2026-01-22 01:44:20.31	18.80	17.19	-37.9	-39.7	20.8	0.00e+00	0	38	0	542113792	47	4413
2026-01-22 01:44:21.16	18.81	17.29	-37.9	-39.7	20.8	0.00e+00	0	38	0	547356672	47	4425
2026-01-22 01:44:22.30	18.83	17.43	-37.9	-39.7	20.8	0.00e+00	0	38	0	553648128	47	4428
2026-01-22 01:44:23.15	18.84	17.53	-37.9	-39.6	20.9	0.00e+00	0	38	0	558891008	47	4386
2026-01-22 01:44:24.29	18.86	17.66	-37.8	-39.6	20.9	0.00e+00	0	37	0	565182464	47	4368
2026-01-22 01:44:25.14	18.87	17.76	-37.9	-39.6	20.9	0.00e+00	0	38	0	569376768	47	4378
2026-01-22 01:44:26.28	18.89	17.90	-37.8	-39.6	20.9	0.00e+00	0	38	0	575668224	47	4358
2026-01-22 01:44:27.14	18.90	18.00	-37.9	-39.7	20.8	0.00e+00	0	38	0	580911104	47	4404
2026-01-22 01:44:28.28	18.92	18.14	-37.9	-39.6	20.6	0.00e+00	0	38	0	587202560	47	4377
2026-01-22 01:44:29.13	18.93	18.24	-37.9	-39.6	20.9	0.00e+00	0	37	0	592445440	47	4385
2026-01-22 01:44:30.27	18.95	18.38	-37.9	-39.6	20.9	0.00e+00	0	38	0	598736896	47	4387
2026-01-22 01:44:31.12	18.96	18.48	-37.8	-39.5	21.0	0.00e+00	0	38	0	602931200	47	4323
2026-01-22 01:44:32.26	18.98	18.62	-37.7	-39.5	21.0	0.00e+00	0	38	0	610271232	47	4299
2026-01-22 01:44:33.11	18.99	18.73	-37.8	-39.5	21.0	0.00e+00	0	38	0	614465536	47	4340
2026-01-22 01:44:34.25	19.01	18.87	-37.7	-39.5	21.0	0.00e+00	0	38	0	620756992	47	4317
2026-01-22 01:44:35.10	19.02	18.98	-37.6	-39.4	21.1	0.00e+00	0	38	0	625999872	47	4260
2026-01-22 01:44:36.24	19.04	19.12	-37.5	-39.3	21.2	0.00e+00	0	38	0	632291328	47	4216
2026-01-22 01:44:37.09	19.05	19.23	-37.6	-39.4	21.1	0.00e+00	0	38	0	636485632	47	4246
2026-01-22 01:44:38.23	19.07	19.37	-37.6	-39.4	21.1	0.00e+00	0	38	0	642777088	47	4252
2026-01-22 01:44:39.08	19.08	19.48	-37.5	-39.3	21.2	0.00e+00	0	38	0	648019968	47	4213
2026-01-22 01:44:40.22	19.10	19.63	-37.6	-39.3	21.2	0.00e+00	0	38	0	654311424	47	4230
2026-01-22 01:44:41.07	19.11	19.73	-37.5	-39.3	21.2	0.00e+00	0	38	0	659554304	47	4198
2026-01-22 01:44:42.21	19.13	19.88	-37.5	-39.2	21.2	0.00e+00	0	38	0	665845760	46	4438
2026-01-22 01:44:43.06	19.14	19.99	-37.4	-39.2	21.3	0.00e+00	0	38	0	670040064	46	4413
2026-01-22 01:44:44.20	19.16	20.14	-37.5	-39.3	21.2	0.00e+00	0	38	0	677380096	46	4468
2026-01-22 01:44:45.06	19.18	20.25	-37.6	-39.4	21.1	0.00e+00	0	38	0	681574400	46	4516
2026-01-22 01:44:46.57	19.20	20.45	-37.4	-39.2	21.2	0.00e+00	0	38	0	689963008	46	4424
2026-01-22 01:44:47.28	19.21	20.55	-37.4	-39.1	21.3	0.00e+00	0	38	0	694157312	46	4386
2026-01-22 01:44:48.78	19.24	20.75	-37.5	-39.3	21.2	0.00e+00	0	38	0	702545920	46	4443
2026-01-22 01:44:49.49	19.25	20.84	-37.3	-39.1	21.4	0.00e+00	0	38	0	706740224	46	4350
2026-01-22 01:44:50.77	19.27	21.02	-37.3	-39.1	21.4	0.00e+00	0	38	0	714080256	46	4347
2026-01-22 01:44:51.48	19.28	21.11	-37.2	-39.0	21.5	0.00e+00	0	38	0	718274560	46	4307
2026-01-22 01:44:52.76	19.31	21.29	-37.2	-38.9	21.5	0.00e+00	0	38	0	724566016	46	4279
2026-01-22 01:44:53.49	19.32	21.39	-37.1	-38.8	21.6	0.00e+00	0	38	0	728760320	46	4241
2026-01-22 01:44:54.77	19.34	21.57	-37.0	-38.7	21.7	0.00e+00	0	38	0	736100352	46	4183
2026-01-22 01:44:55.49	19.35	21.67	-37.0	-38.7	21.7	0.00e+00	0	38	0	740294656	46	4159
2026-01-22 01:44:56.77	19.38	21.84	-37.0	-38.7	21.7	0.00e+00	0	38	0	747634688	46	4184
2026-01-22 01:44:57.56	19.39	21.96	-37.1	-38.8	21.6	0.00e+00	0	38	0	751828992	46	4222
2026-01-22 01:44:58.76	19.41	22.13	-37.0	-38.7	21.7	0.00e+00	0	38	0	759169024	45	4410
2026-01-22 01:44:59.61	19.43	22.25	-36.9	-38.7	21.7	0.00e+00	0	38	0	763363328	45	4393
2026-01-22 01:45:00.75	19.45	22.41	-36.8	-38.5	21.9	0.00e+00	0	38	0	769654784	45	4310
2026-01-22 01:45:01.81	19.47	22.56	-36.8	-38.5	21.9	0.00e+00	0	38	0	775946240	45	4321
2026-01-22 01:45:02.85	19.49	22.71	-36.8	-38.5	21.8	0.00e+00	0	38	0	781189120	45	4329
2026-01-22 01:45:03.84	19.50	22.86	-36.8	-38.5	21.9	0.00e+00	0	38	0	787480576	45	4309
2026-01-22 01:45:04.84	19.52	23.00	-36.7	-38.4	22.0	0.00e+00	0	38	0	792723456	45	4276
2026-01-22 01:45:05.83	19.54	23.15	-36.6	-38.3	22.0	0.00e+00	0	38	0	799014912	45	4233
2026-01-22 01:45:07.08	19.57	23.33	-36.6	-38.3	22.0	0.00e+00	0	38	0	805306368	45	4238
2026-01-22 01:45:07.93	19.58	23.46	-36.7	-38.4	22.0	0.00e+00	0	38	0	810549248	45	4246
2026-01-22 01:45:09.27	19.61	23.66	-36.7	-38.4	22.0	0.00e+00	0	38	0	817889280	45	4271
2026-01-22 01:45:09.99	19.62	23.77	-36.7	-38.5	21.9	0.00e+00	0	38	0	822083584	45	4294
2026-01-22 01:45:11.26	19.65	23.96	-36.8	-38.5	21.9	0.00e+00	0	38	0	829423616	45	4304
2026-01-22 01:45:11.97	19.66	24.07	-36.8	-38.6	21.8	0.00e+00	0	38	0	832569344	45	4345
2026-01-22 01:45:13.25	19.69	24.27	-36.8	-38.5	21.8	0.00e+00	0	38	0	839909376	45	4324
2026-01-22 01:45:13.96	19.70	24.38	-36.8	-38.5	21.9	0.00e+00	0	38	0	844103680	45	4307
2026-01-22 01:45:15.24	19.73	24.58	-36.8	-38.5	21.8	0.00e+00	0	38	0	851443712	45	4323
2026-01-22 01:45:15.95	19.74	24.69	-36.8	-38.5	21.9	0.00e+00	0	38	0	855638016	45	4311
2026-01-22 01:45:17.23	19.77	24.89	-36.8	-38.5	21.9	0.00e+00	0	38	0	862978048	45	4333
2026-01-22 01:45:17.97	19.78	25.00	-36.7	-38.4	21.9	0.00e+00	0	38	0	867172352	45	4279
2026-01-22 01:45:19.25	19.81	25.21	-36.7	-38.4	21.9	0.00e+00	0	38	0	873463808	45	4286
2026-01-22 01:45:19.98	19.82	25.32	-36.7	-38.4	22.0	0.00e+00	0	38	0	877658112	45	4259
2026-01-22 01:45:21.26	19.85	25.53	-36.7	-38.4	22.0	0.00e+00	0	38	0	884998144	45	4259
2026-01-22 01:45:21.98	19.87	25.65	-36.7	-38.4	22.0	0.00e+00	0	38	0	889192448	45	4248
2026-01-22 01:45:23.26	19.89	25.86	-36.5	-38.2	22.1	0.00e+00	0	38	0	896532480	45	4177
2026-01-22 01:45:23.99	19.91	25.98	-36.4	-38.1	22.2	0.00e+00	0	38	0	900726784	44	4361
2026-01-22 01:45:25.27	19.94	26.19	-36.2	-37.9	22.4	0.00e+00	0	38	0	908066816	44	4264
2026-01-22 01:45:25.99	19.95	26.31	-36.3	-37.9	22.4	0.00e+00	0	38	0	912261120	44	4282
2026-01-22 01:45:27.27	19.98	26.52	-36.2	-37.8	22.4	0.00e+00	0	38	0	919601152	44	4230
2026-01-22 01:45:28.00	20.00	26.64	-36.0	-37.7	22.5	0.00e+00	0	38	0	922746880	44	4179
2026-01-22 01:45:29.28	20.03	26.86	-36.2	-37.8	22.5	0.00e+00	0	38	0	930086912	44	4233
2026-01-22 01:45:29.99	20.04	26.98	-36.3	-37.9	22.4	0.00e+00	0	38	0	934281216	44	4283
2026-01-22 01:45:31.27	20.07	27.20	-36.1	-37.8	22.5	0.00e+00	0	38	0	941621248	44	4227
2026-01-22 01:45:31.98	20.09	27.32	-36.2	-37.9	22.5	0.00e+00	0	38	0	945815552	44	4245
2026-01-22 01:45:33.27	20.12	27.55	-36.3	-37.9	22.4	0.00e+00	0	38	0	953155584	44	4290
2026-01-22 01:45:33.98	20.14	27.67	-36.3	-38.0	22.3	0.00e+00	0	38	0	957349888	44	4334
2026-01-22 01:45:35.26	20.17	27.90	-36.3	-38.0	22.3	0.00e+00	0	38	0	963641344	44	4333
2026-01-22 01:45:35.98	20.19	28.02	-36.3	-38.0	22.3	0.00e+00	0	38	0	967835648	44	4335
2026-01-22 01:45:37.26	20.22	28.25	-36.4	-38.0	22.3	0.00e+00	0	38	0	975175680	44	4335
2026-01-22 01:45:38.24	20.24	28.43	-36.4	-38.1	22.3	0.00e+00	0	38	0	980418560	44	4365
2026-01-22 01:45:39.23	20.27	28.61	-36.3	-38.0	22.3	0.00e+00	0	38	0	986710016	44	4321
2026-01-22 01:45:40.23	20.29	28.79	-36.3	-38.0	22.3	0.00e+00	0	38	0	991952896	44	4319
2026-01-22 01:45:41.22	20.32	28.97	-36.3	-38.0	22.3	0.00e+00	0	38	0	997195776	44	4318
2026-01-22 01:45:42.22	20.34	29.15	-36.4	-38.1	22.3	0.00e+00	0	38	0	1003487232	44	4346
2026-01-22 01:45:43.21	20.37	29.33	-36.3	-38.0	22.3	0.00e+00	0	38	0	1008730112	44	4321
2026-01-22 01:45:44.21	20.39	29.52	-36.3	-38.0	22.4	0.00e+00	0	38	0	1013972992	44	4328
2026-01-22 01:45:45.20	20.42	29.71	-36.5	-38.1	22.2	0.00e+00	0	38	0	1020264448	44	4391
2026-01-22 01:45:46.23	20.45	29.90	-36.5	-38.2	22.2	0.00e+00	0	38	0	1025507328	44	4406
2026-01-22 01:45:47.27	20.47	30.10	-36.5	-38.2	22.2	0.00e+00	0	38	0	1031798784	44	4409
2026-01-22 01:45:48.20	20.50	30.28	-36.4	-38.1	22.3	0.00e+00	0	38	0	1037041664	44	4360
2026-01-22 01:45:49.20	20.53	30.47	-36.4	-38.1	22.2	0.00e+00	0	38	0	1042284544	44	4379
2026-01-22 01:45:50.34	20.56	30.69	-36.4	-38.1	22.3	0.00e+00	0	38	0	1048576000	44	4355
2026-01-22 01:45:51.22	20.58	30.86	-36.4	-38.1	22.3	0.00e+00	0	38	0	1053818880	44	4359
2026-01-22 01:45:52.35	20.62	31.09	-36.4	-38.1	22.3	0.00e+00	0	38	0	1060110336	44	4354
2026-01-22 01:45:53.21	20.64	31.26	-36.5	-38.2	22.2	0.00e+00	0	38	0	1065353216	44	4399
2026-01-22 01:45:54.34	20.67	31.48	-36.3	-37.9	22.4	0.00e+00	0	38	0	1071644672	44	4281
2026-01-22 01:45:55.20	20.70	31.65	-36.2	-37.8	22.5	0.00e+00	0	38	0	1075838976	44	4225
2026-01-22 01:45:56.34	20.73	31.88	-36.2	-37.8	22.5	0.00e+00	0	38	0	1082130432	44	4234
2026-01-22 01:45:57.19	20.76	32.06	-36.3	-38.0	22.4	0.00e+00	0	38	0	1087373312	44	4313
2026-01-22 01:45:58.33	20.79	32.29	-36.2	-37.9	22.5	0.00e+00	0	38	0	1093664768	44	4258
2026-01-22 01:45:59.18	20.82	32.47	-36.2	-37.9	22.5	0.00e+00	0	38	0	1098907648	44	4254
2026-01-22 01:46:00.30	20.85	32.70	-36.3	-37.9	22.4	0.00e+00	0	38	0	1105199104	44	4284
2026-01-22 01:46:01.15	20.88	32.88	-36.2	-37.9	22.5	0.00e+00	0	38	0	1109393408	44	4249
2026-01-22 01:46:02.29	20.92	33.12	-36.1	-37.8	22.6	0.00e+00	0	38	0	1115684864	44	4195
2026-01-22 01:46:03.14	20.94	33.30	-36.1	-37.7	22.6	0.00e+00	0	38	0	1120927744	44	4174
2026-01-22 01:46:04.32	20.98	33.55	-35.7	-37.4	22.7	0.00e+00	0	38	0	1127219200	43	4255
2026-01-22 01:46:05.18	21.01	33.74	-35.6	-37.2	22.8	0.00e+00	0	38	0	1132462080	43	4184
2026-01-22 01:46:06.31	21.05	33.98	-35.7	-37.3	22.8	0.00e+00	0	38	0	1138753536	43	4216
2026-01-22 01:46:07.17	21.07	34.17	-35.5	-37.2	22.9	0.00e+00	0	38	0	1143996416	43	4146
2026-01-22 01:46:08.30	21.11	34.42	-35.4	-37.0	23.0	0.00e+00	0	38	0	1150287872	42	4337
2026-01-22 01:46:09.15	21.14	34.60	-35.4	-37.0	23.0	0.00e+00	0	38	0	1154482176	42	4314
2026-01-22 01:46:10.29	21.18	34.86	-35.4	-37.1	23.0	0.00e+00	0	38	0	1160773632	42	4347
2026-01-22 01:46:11.21	21.21	35.06	-35.6	-37.2	22.9	0.00e+00	0	38	0	1166016512	42	4439
2026-01-22 01:46:12.38	21.26	35.33	-35.7	-37.4	22.8	0.00e+00	0	38	0	1173356544	42	4501
2026-01-22 01:46:13.23	21.29	35.52	-35.8	-37.5	22.6	0.00e+00	0	38	0	1177550848	42	4577
2026-01-22 01:46:14.36	21.33	35.78	-35.8	-37.5	22.6	0.00e+00	0	38	0	1183842304	42	4580
2026-01-22 01:46:15.31	21.36	36.00	-35.8	-37.4	22.7	0.00e+00	0	38	0	1189085184	42	4538
2026-01-22 01:46:16.48	21.41	36.27	-35.8	-37.4	22.7	0.00e+00	0	38	0	1196425216	42	4528
2026-01-22 01:46:17.33	21.44	36.47	-35.8	-37.4	22.7	0.00e+00	0	38	0	1200619520	42	4526
2026-01-22 01:46:18.68	21.49	36.79	-35.6	-37.2	22.8	0.00e+00	0	38	0	1207959552	42	4440
2026-01-22 01:46:19.39	21.52	36.96	-35.7	-37.4	22.7	0.00e+00	0	38	0	1212153856	42	4515
2026-01-22 01:46:20.67	21.57	37.27	-35.5	-37.1	22.9	0.00e+00	0	38	0	1219493888	42	4381
2026-01-22 01:46:21.39	21.60	37.44	-35.5	-37.1	22.9	0.00e+00	0	38	0	1223688192	42	4366
2026-01-22 01:46:22.66	21.65	37.75	-35.4	-37.1	23.0	0.00e+00	0	38	0	1231028224	42	4356
2026-01-22 01:46:23.39	21.68	37.93	-35.5	-37.1	22.9	0.00e+00	0	38	0	1235222528	42	4371
2026-01-22 01:46:24.67	21.73	38.25	-35.6	-37.3	22.9	0.00e+00	0	38	0	1241513984	42	4449
2026-01-22 01:46:25.49	21.77	38.45	-35.8	-37.4	22.7	0.00e+00	0	38	0	1246756864	42	4544
2026-01-22 01:46:26.63	21.82	38.74	-35.8	-37.5	22.6	0.00e+00	0	38	0	1253048320	42	4576
2026-01-22 01:46:27.48	21.85	38.95	-35.8	-37.5	22.7	0.00e+00	0	38	0	1258291200	42	4571
2026-01-22 01:46:28.62	21.90	39.24	-35.9	-37.6	22.6	0.00e+00	0	38	0	1264582656	42	4636
2026-01-22 01:46:29.47	21.94	39.46	-36.1	-37.8	22.4	0.00e+00	0	38	0	1268776960	42	4745
2026-01-22 01:46:30.61	21.99	39.76	-36.0	-37.7	22.6	0.00e+00	0	38	0	1275068416	42	4660
2026-01-22 01:46:31.46	22.03	39.98	-36.0	-37.6	22.6	0.00e+00	0	38	0	1280311296	42	4642
2026-01-22 01:46:32.60	22.09	40.28	-35.9	-37.5	22.6	0.00e+00	0	38	0	1286602752	42	4583
2026-01-22 01:46:33.45	22.13	40.50	-35.9	-37.6	22.6	0.00e+00	0	38	0	1290797056	42	4614
2026-01-22 01:46:34.59	22.18	40.80	-35.7	-37.4	22.8	0.00e+00	0	38	0	1298137088	42	4505
2026-01-22 01:46:35.44	22.22	41.03	-35.6	-37.2	22.9	0.00e+00	0	38	0	1302331392	42	4438
2026-01-22 01:46:36.58	22.28	41.34	-35.7	-37.3	22.8	0.00e+00	0	38	0	1308622848	42	4493
2026-01-22 01:46:37.43	22.32	41.57	-35.7	-37.4	22.8	0.00e+00	0	38	0	1313865728	42	4501
2026-01-22 01:46:38.57	22.38	41.88	-36.0	-37.7	22.6	0.00e+00	0	38	0	1320157184	42	4668
2026-01-22 01:46:39.42	22.43	42.12	-36.0	-37.6	22.6	0.00e+00	0	38	0	1325400064	42	4632
2026-01-22 01:46:40.56	22.49	42.43	-36.0	-37.7	22.5	0.00e+00	0	38	0	1331691520	42	4657
2026-01-22 01:46:41.41	22.53	42.67	-36.0	-37.6	22.6	0.00e+00	0	38	0	1335885824	42	4639
2026-01-22 01:46:42.55	22.60	42.99	-36.0	-37.6	22.6	0.00e+00	0	38	0	1342177280	42	4634
2026-01-22 01:46:43.41	22.64	43.24	-36.0	-37.6	22.6	0.00e+00	0	38	0	1347420160	42	4650
2026-01-22 01:46:44.54	22.71	43.56	-36.1	-37.8	22.5	0.00e+00	0	38	0	1353711616	42	4707
2026-01-22 01:46:45.40	22.76	43.81	-36.3	-37.9	22.4	0.00e+00	0	38	0	1358954496	43	4539
2026-01-22 01:46:46.53	22.82	44.14	-36.5	-38.2	22.2	0.00e+00	0	38	0	1365245952	43	4655
2026-01-22 01:46:47.39	22.87	44.39	-36.5	-38.2	22.1	0.00e+00	0	38	0	1369440256	43	4673
2026-01-22 01:46:48.52	22.94	44.72	-36.6	-38.3	22.0	0.00e+00	0	38	0	1375731712	43	4732
2026-01-22 01:46:49.38	23.00	44.98	-36.3	-38.1	21.7	0.00e+00	0	38	0	1380974592	43	4633
2026-01-22 01:46:50.51	23.07	45.32	-36.1	-37.9	21.9	0.00e+00	0	38	0	1387266048	43	4524
2026-01-22 01:46:51.36	23.12	45.57	-36.0	-37.8	22.0	0.00e+00	0	38	0	1392508928	43	4448
2026-01-22 01:46:52.55	23.20	45.94	-35.9	-37.6	22.1	0.00e+00	0	38	0	1398800384	43	4374
2026-01-22 01:46:53.40	23.25	46.20	-35.9	-37.7	22.0	0.00e+00	0	38	0	1404043264	43	4393
2026-01-22 01:46:54.61	23.34	46.57	-36.1	-37.9	21.8	0.00e+00	0	38	0	1410334720	43	4539
2026-01-22 01:46:55.87	23.42	46.96	-36.2	-38.0	21.8	0.00e+00	0	38	0	1417674752	43	4548
2026-01-22 01:46:56.67	23.48	47.21	-36.2	-38.0	21.8	0.00e+00	0	38	0	1421869056	43	4563
2026-01-22 01:46:57.81	23.56	47.57	-36.3	-38.0	21.9	0.00e+00	0	38	0	1428160512	43	4582
2026-01-22 01:46:58.66	23.62	47.84	-36.3	-38.0	21.9	0.00e+00	0	38	0	1433403392	43	4582
2026-01-22 01:46:59.80	23.71	48.21	-36.4	-38.2	21.8	0.00e+00	0	38	0	1439694848	43	4677
2026-01-22 01:47:00.65	23.77	48.48	-36.2	-38.0	21.9	0.00e+00	0	38	0	1444937728	43	4570
2026-01-22 01:47:01.79	23.86	48.86	-36.1	-37.8	22.1	0.00e+00	0	38	0	1451229184	43	4478
2026-01-22 01:47:02.64	23.93	49.13	-36.0	-37.8	22.1	0.00e+00	0	38	0	1455423488	43	4451
2026-01-22 01:47:03.78	24.02	49.51	-36.1	-37.9	22.1	0.00e+00	0	38	0	1461714944	43	4496
2026-01-22 01:47:04.63	24.09	49.79	-36.2	-37.9	22.0	0.00e+00	0	38	0	1466957824	43	4514
2026-01-22 01:47:05.76	24.19	50.17	-36.3	-38.1	21.9	0.00e+00	0	38	0	1473249280	43	4604
2026-01-22 01:47:06.61	24.26	50.46	-36.5	-38.2	21.8	0.00e+00	0	38	0	1478492160	43	4668
2026-01-22 01:47:07.75	24.36	50.85	-36.6	-38.4	21.6	0.00e+00	0	38	0	1484783616	43	4772
2026-01-22 01:47:08.60	24.44	51.14	-36.9	-38.7	21.5	0.00e+00	0	38	0	1488977920	44	4672
2026-01-22 01:47:09.74	24.54	51.53	-37.1	-38.9	21.3	0.00e+00	0	38	0	1495269376	45	4530
2026-01-22 01:47:10.59	24.62	51.82	-37.1	-38.9	21.3	0.00e+00	0	38	0	1500512256	45	4495
2026-01-22 01:47:11.73	24.73	52.22	-37.1	-38.8	21.4	0.00e+00	0	38	0	1506803712	45	4487
2026-01-22 01:47:12.58	24.81	52.52	-37.2	-39.0	21.2	0.00e+00	0	38	0	1510998016	45	4558
2026-01-22 01:47:13.72	24.93	52.93	-37.4	-39.2	21.0	0.00e+00	0	38	0	1518338048	45	4690
2026-01-22 01:47:14.57	25.01	53.23	-37.5	-39.3	21.0	0.00e+00	0	38	0	1522532352	45	4740
2026-01-22 01:47:15.71	25.13	53.64	-37.5	-39.3	20.9	0.00e+00	0	38	0	1528823808	45	4758
2026-01-22 01:47:16.56	25.23	53.95	-37.5	-39.3	21.0	0.00e+00	0	38	0	1534066688	45	4720
2026-01-22 01:47:17.70	25.35	54.36	-37.4	-39.2	21.1	0.00e+00	0	38	0	1540358144	45	4659
2026-01-22 01:47:18.55	25.45	54.67	-37.2	-38.9	21.3	0.00e+00	0	38	0	1544552448	45	4534
2026-01-22 01:47:19.68	25.58	55.09	-37.0	-38.8	21.4	0.00e+00	0	38	0	1551892480	45	4450
2026-01-22 01:47:20.54	25.68	55.41	-37.1	-38.9	21.3	0.00e+00	0	38	0	1556086784	45	4497
2026-01-22 01:47:21.67	25.82	55.83	-37.6	-39.4	20.9	0.00e+00	0	38	0	1562378240	45	4808
2026-01-22 01:47:22.63	25.94	56.19	-37.7	-39.5	20.8	0.00e+00	0	38	0	1567621120	46	4592
2026-01-22 01:47:23.63	26.07	56.57	-37.4	-39.3	21.0	0.00e+00	0	38	0	1573912576	46	4445
2026-01-22 01:47:24.63	26.20	56.96	-37.5	-39.3	21.0	0.00e+00	0	38	0	1579155456	46	4463
2026-01-22 01:47:25.62	26.33	57.34	-37.4	-39.2	21.0	0.00e+00	0	38	0	1584398336	46	4434
2026-01-22 01:47:26.61	26.47	57.72	-37.3	-39.1	21.2	0.00e+00	0	38	0	1590689792	46	4364
2026-01-22 01:47:27.91	26.66	58.22	-36.7	-38.5	21.6	0.00e+00	0	38	0	1598029824	45	4321
2026-01-22 01:47:28.65	26.77	58.51	-36.4	-38.2	21.9	0.00e+00	0	38	0	1602224128	44	4393
2026-01-22 01:47:30.25	27.02	59.15	-36.3	-38.1	22.0	0.00e+00	0	38	0	1610612736	44	4347
2026-01-22 01:47:30.83	27.11	59.38	-36.3	-38.0	22.0	0.00e+00	0	38	0	1613758464	44	4314
2026-01-22 01:47:32.39	27.36	60.00	-36.3	-38.0	22.0	0.00e+00	0	38	0	1623195648	44	4325
2026-01-22 01:47:33.02	27.47	60.25	-36.2	-37.9	22.0	0.00e+00	0	38	0	1626341376	44	4284
2026-01-22 01:47:34.52	27.73	60.86	-36.1	-37.8	22.2	0.00e+00	0	38	0	1634729984	44	4229
2026-01-22 01:47:35.23	27.86	61.15	-36.2	-37.9	22.1	0.00e+00	0	38	0	1638924288	44	4258
2026-01-22 01:47:36.51	28.10	61.68	-36.4	-38.2	21.9	0.00e+00	0	38	0	1646264320	44	4402
2026-01-22 01:47:37.24	28.24	61.98	-36.3	-38.0	22.0	0.00e+00	0	38	0	1650458624	44	4338
2026-01-22 01:47:38.51	28.49	62.50	-36.2	-37.9	22.1	0.00e+00	0	38	0	1657798656	44	4289
2026-01-22 01:47:39.25	28.65	62.81	-36.1	-37.8	22.1	0.00e+00	0	38	0	1661992960	44	4240
2026-01-22 01:47:40.64	28.94	63.39	-35.4	-37.1	22.6	0.00e+00	0	38	0	1669332992	42	4384
2026-01-22 01:47:41.35	29.10	63.69	-35.3	-37.0	22.7	0.00e+00	0	38	0	1673527296	42	4323
2026-01-22 01:47:42.63	29.40	64.23	-35.3	-37.0	22.7	0.00e+00	0	38	0	1680867328	42	4308
2026-01-22 01:47:43.66	29.64	64.67	-35.4	-37.1	22.5	0.00e+00	0	38	0	1686110208	42	4385
2026-01-22 01:47:44.97	29.97	65.23	-35.1	-36.8	22.8	0.00e+00	0	38	0	1693450240	42	4215
2026-01-22 01:47:45.68	30.16	65.54	-35.1	-36.8	22.8	0.00e+00	0	38	0	1697644544	42	4194
2026-01-22 01:47:46.96	30.50	66.09	-35.3	-37.0	22.6	0.00e+00	0	38	0	1704984576	42	4308
2026-01-22 01:47:47.69	30.71	66.41	-35.3	-37.0	22.6	0.00e+00	0	38	0	1709178880	42	4340
2026-01-22 01:47:48.97	31.09	66.97	-35.6	-37.3	22.3	0.00e+00	0	38	0	1716518912	42	4478
2026-01-22 01:47:49.69	31.31	67.28	-35.4	-37.2	22.5	0.00e+00	0	38	0	1719664640	42	4395
2026-01-22 01:47:50.97	31.71	67.84	-35.2	-36.9	22.6	0.00e+00	0	38	0	1727004672	42	4286
2026-01-22 01:47:51.68	31.95	68.16	-35.1	-36.8	22.7	0.00e+00	0	38	0	1731198976	42	4207
2026-01-22 01:47:53.04	32.42	68.76	-35.1	-36.8	22.7	0.00e+00	0	38	0	1738539008	42	4225
2026-01-22 01:47:53.75	32.68	69.07	-35.1	-36.8	22.7	0.00e+00	0	38	0	1742733312	42	4232
2026-01-22 01:47:55.03	33.17	69.64	-35.0	-36.7	22.8	0.00e+00	0	38	0	1750073344	41	4413
2026-01-22 01:47:55.75	33.46	69.97	-35.0	-36.7	22.8	0.00e+00	0	38	0	1754267648	41	4403
2026-01-22 01:47:57.14	34.04	70.59	-35.0	-36.6	22.9	0.00e+00	0	38	0	1761607680	41	4387
2026-01-22 01:47:58.14	34.48	71.04	-34.9	-36.6	22.9	0.00e+00	0	38	0	1767899136	41	4385
2026-01-22 01:47:59.47	35.11	71.64	-35.0	-36.7	22.8	0.00e+00	0	38	0	1775239168	41	4437
2026-01-22 01:48:00.21	35.48	71.97	-34.9	-36.6	22.9	0.00e+00	0	38	0	1779433472	41	4360
2026-01-22 01:48:01.48	36.14	72.54	-34.5	-36.2	23.1	0.00e+00	0	38	0	1786773504	41	4180
2026-01-22 01:48:02.22	36.55	72.88	-34.5	-36.2	23.2	0.00e+00	0	38	0	1790967808	40	4398
2026-01-22 01:48:03.51	37.31	73.46	-34.6	-36.3	23.0	0.00e+00	0	38	0	1798307840	40	4489
2026-01-22 01:48:04.22	37.75	73.78	-34.4	-36.1	23.1	0.00e+00	0	38	0	1802502144	40	4369
2026-01-22 01:48:05.50	38.59	74.36	-34.2	-35.9	23.3	0.00e+00	0	38	0	1808793600	40	4257
2026-01-22 01:48:06.22	39.09	74.68	-34.1	-35.7	23.4	0.00e+00	0	38	0	1812987904	40	4185
2026-01-22 01:48:07.50	40.04	75.26	-34.2	-35.9	23.3	0.00e+00	0	38	0	1820327936	40	4244
2026-01-22 01:48:08.21	40.60	75.58	-34.2	-35.9	23.3	0.00e+00	0	38	0	1824522240	40	4254
2026-01-22 01:48:09.51	41.69	76.16	-34.0	-35.7	23.5	0.00e+00	0	38	0	1831862272	40	4159
2026-01-22 01:48:10.21	42.32	76.48	-34.0	-35.7	23.5	0.00e+00	0	38	0	1836056576	39	4396
2026-01-22 01:48:11.49	43.56	77.04	-33.9	-35.6	23.6	0.00e+00	0	38	0	1843396608	39	4365
2026-01-22 01:48:12.22	44.31	77.37	-34.0	-35.7	23.6	0.00e+00	0	38	0	1846542336	39	4395
2026-01-22 01:48:13.49	45.72	77.93	-34.1	-35.8	23.5	0.00e+00	0	38	0	1853882368	39	4444
2026-01-22 01:48:14.22	46.59	78.24	-33.7	-35.4	23.6	0.00e+00	0	38	0	1858076672	39	4267
2026-01-22 01:48:15.50	48.24	78.80	-33.4	-35.0	23.9	0.00e+00	0	38	0	1865416704	38	4327
2026-01-22 01:48:16.22	49.24	79.10	-33.3	-35.0	23.9	0.00e+00	0	38	0	1869611008	38	4299
2026-01-22 01:48:17.71	51.51	79.73	-33.4	-35.1	23.8	0.00e+00	0	38	0	1877999616	38	4370
2026-01-22 01:48:18.42	52.69	80.02	-33.3	-35.0	23.9	0.00e+00	0	38	0	1882193920	38	4312
2026-01-22 01:48:19.78	55.16	80.57	-32.9	-34.6	24.1	0.00e+00	0	38	0	1889533952	37	4361
2026-01-22 01:48:20.49	56.56	80.85	-33.0	-34.7	24.1	0.00e+00	0	38	0	1893728256	37	4404
2026-01-22 01:48:21.81	59.42	81.36	-33.1	-34.7	24.1	0.00e+00	0	38	0	1901068288	37	4423
2026-01-22 01:48:22.52	61.10	81.62	-33.1	-34.7	24.1	0.00e+00	0	38	0	1905262592	37	4438
2026-01-22 01:48:23.80	64.41	82.08	-33.2	-34.9	23.9	0.00e+00	0	38	0	1912602624	37	4516
2026-01-22 01:48:24.51	66.41	82.32	-33.3	-35.0	23.9	0.00e+00	0	38	0	1915748352	37	4555
2026-01-22 01:48:25.79	70.34	82.73	-33.3	-34.9	23.9	0.00e+00	0	38	0	1923088384	37	4542
2026-01-22 01:48:26.50	72.72	82.94	-33.2	-34.8	23.9	0.00e+00	0	38	0	1927282688	37	4477
2026-01-22 01:48:27.80	77.44	83.29	-33.0	-34.7	24.0	0.00e+00	0	38	0	1934622720	37	4413
2026-01-22 01:48:28.54	80.35	83.47	-33.0	-34.6	24.0	0.00e+00	0	38	0	1938817024	37	4389
2026-01-22 01:48:29.82	85.74	83.74	-33.3	-34.9	23.8	0.00e+00	0	38	0	1946157056	37	4533
2026-01-22 01:48:30.58	89.15	83.87	-33.6	-35.2	23.6	0.00e+00	0	38	0	1950351360	37	4704
2026-01-22 01:48:31.86	95.20	84.04	-33.4	-35.0	23.8	0.00e+00	0	38	0	1957691392	38	4334
2026-01-22 01:48:32.63	98.98	84.11	-33.4	-35.1	23.8	0.00e+00	0	38	0	1961885696	38	4343
2026-01-22 01:48:34.23	107.03	84.17	-33.3	-35.0	23.9	0.00e+00	0	38	0	1970274304	38	4306
2026-01-22 01:48:34.80	109.92	84.16	-33.2	-34.9	24.0	0.00e+00	0	38	0	1974468608	38	4260
2026-01-22 01:48:36.50	118.40	84.06	-33.5	-35.1	23.7	0.00e+00	0	38	0	1983905792	38	4385
2026-01-22 01:48:37.07	121.15	84.00	-33.4	-35.1	23.8	0.00e+00	0	38	0	1987051520	38	4344
2026-01-22 01:48:38.78	128.99	83.73	-33.1	-34.7	24.0	0.00e+00	0	38	0	1996488704	38	4167
2026-01-22 01:48:39.35	131.44	83.61	-32.9	-34.5	24.1	0.00e+00	0	38	0	1999634432	37	4321
2026-01-22 01:48:41.05	138.20	83.21	-32.9	-34.5	24.2	0.00e+00	0	38	0	2009071616	37	4328
2026-01-22 01:48:41.62	140.28	83.06	-33.1	-34.7	24.1	0.00e+00	0	38	0	2012217344	37	4421
2026-01-22 01:48:43.33	145.97	82.54	-32.8	-34.5	24.2	0.00e+00	0	38	0	2021654528	37	4296
2026-01-22 01:48:43.89	147.66	82.36	-32.9	-34.6	24.1	0.00e+00	0	38	0	2024800256	37	4361
2026-01-22 01:48:45.60	152.33	81.77	-33.0	-34.7	24.0	0.00e+00	0	38	0	2035286016	37	4417
2026-01-22 01:48:46.17	153.74	81.56	-32.9	-34.6	24.1	0.00e+00	0	38	0	2038431744	37	4353
2026-01-22 01:48:48.03	157.87	80.86	-33.3	-35.0	23.9	0.00e+00	0	38	0	2047868928	37	4589
2026-01-22 01:48:48.60	159.01	80.63	-33.3	-34.9	23.9	0.00e+00	0	38	0	2052063232	37	4543
2026-01-22 01:48:50.30	162.09	79.94	-33.0	-34.6	24.1	0.00e+00	0	38	0	2061500416	37	4374
2026-01-22 01:48:51.00	163.24	79.65	-33.2	-34.9	24.0	0.00e+00	0	38	0	2065694720	37	4499
2026-01-22 01:48:52.42	165.37	79.05	-33.4	-35.1	23.8	0.00e+00	0	38	0	2073034752	37	4611
2026-01-22 01:48:53.19	166.43	78.72	-33.6	-35.2	23.7	0.00e+00	0	38	0	2077229056	37	4702
2026-01-22 01:48:54.47	168.06	78.17	-34.0	-35.7	23.4	0.00e+00	0	38	0	2084569088	38	4654
2026-01-22 01:48:55.28	169.02	77.82	-34.0	-35.7	23.3	0.00e+00	0	38	0	2088763392	38	4687
2026-01-22 01:48:56.42	170.27	77.31	-34.1	-35.8	23.3	0.00e+00	0	38	0	2096103424	38	4720
2026-01-22 01:48:57.27	171.13	76.94	-34.1	-35.8	23.4	0.00e+00	0	38	0	2100297728	39	4448
2026-01-22 01:48:58.40	172.21	76.43	-33.8	-35.5	23.6	0.00e+00	0	38	0	2106589184	39	4309
2026-01-22 01:48:59.26	172.98	76.05	-34.3	-36.0	23.3	0.00e+00	0	38	0	2111832064	39	4584
2026-01-22 01:49:00.40	173.93	75.54	-34.7	-36.5	22.9	0.00e+00	0	38	0	2118123520	40	4557
2026-01-22 01:49:01.25	174.59	75.15	-34.6	-36.3	23.0	0.00e+00	0	38	0	2123366400	40	4483
2026-01-22 01:49:02.39	175.43	74.64	-34.3	-35.9	23.3	0.00e+00	0	38	0	2129657856	40	4281
2026-01-22 01:49:03.24	176.02	74.25	-34.4	-36.1	23.2	0.00e+00	0	38	0	2133852160	40	4370
2026-01-22 01:49:04.38	176.76	73.74	-34.4	-36.1	23.1	0.00e+00	0	38	0	2140143616	40	4371
2026-01-22 01:49:05.23	177.28	73.35	-34.3	-36.0	23.2	0.00e+00	0	38	0	2145386496	40	4293
2026-01-22 01:49:06.51	178.02	72.77	-34.5	-36.2	23.1	0.00e+00	0	38	0	2152726528	40	4403
2026-01-22 01:49:07.22	178.41	72.45	-34.8	-36.6	22.9	0.00e+00	0	38	0	2155872256	40	4600
2026-01-22 01:49:08.50	179.08	71.87	-34.7	-36.4	23.0	0.00e+00	0	38	0	2163212288	40	4530
2026-01-22 01:49:09.23	179.44	71.54	-34.6	-36.3	23.1	0.00e+00	0	38	0	2167406592	40	4445
2026-01-22 01:49:10.78	180.16	70.85	-34.6	-36.3	23.1	0.00e+00	0	38	0	2176843776	40	4466
2026-01-22 01:49:11.49	180.47	70.53	-34.6	-36.3	23.2	0.00e+00	0	38	0	2181038080	40	4452
2026-01-22 01:49:12.83	181.03	69.93	-34.8	-36.5	23.0	0.00e+00	0	38	0	2188378112	40	4572
2026-01-22 01:49:13.55	181.32	69.60	-34.8	-36.5	22.9	0.00e+00	0	38	0	2192572416	40	4597
2026-01-22 01:49:14.82	181.80	69.04	-34.7	-36.4	23.0	0.00e+00	0	38	0	2198863872	40	4515
2026-01-22 01:49:15.56	182.07	68.71	-34.7	-36.4	23.0	0.00e+00	0	38	0	2203058176	40	4518
2026-01-22 01:49:16.84	182.51	68.14	-34.7	-36.3	23.1	0.00e+00	0	38	0	2210398208	40	4487
2026-01-22 01:49:17.57	182.75	67.82	-34.9	-36.6	22.9	0.00e+00	0	38	0	2214592512	40	4614
2026-01-22 01:49:18.85	183.16	67.25	-35.1	-36.8	22.7	0.00e+00	0	38	0	2221932544	40	4756
2026-01-22 01:49:19.57	183.38	66.94	-35.1	-36.8	22.7	0.00e+00	0	38	0	2226126848	40	4732
2026-01-22 01:49:21.10	183.83	66.27	-35.3	-37.0	22.6	0.00e+00	0	38	0	2234515456	41	4564
2026-01-22 01:49:21.81	184.03	65.96	-35.5	-37.2	22.4	0.00e+00	0	38	0	2238709760	41	4683
2026-01-22 01:49:23.16	184.39	65.38	-35.5	-37.2	22.4	0.00e+00	0	38	0	2246049792	41	4704
2026-01-22 01:49:24.14	184.64	64.96	-35.1	-36.8	22.7	0.00e+00	0	38	0	2251292672	41	4464
2026-01-22 01:49:25.45	184.96	64.40	-35.1	-36.8	22.8	0.00e+00	0	38	0	2258632704	41	4459
2026-01-22 01:49:26.19	185.13	64.08	-35.3	-37.0	22.6	0.00e+00	0	38	0	2262827008	41	4584
2026-01-22 01:49:27.47	185.43	63.54	-35.3	-37.0	22.7	0.00e+00	0	38	0	2270167040	41	4583
2026-01-22 01:49:28.18	185.58	63.24	-35.3	-37.0	22.7	0.00e+00	0	38	0	2274361344	41	4583
2026-01-22 01:49:29.82	185.93	62.55	-35.5	-37.2	22.5	0.00e+00	0	38	0	2283798528	41	4674
2026-01-22 01:49:30.39	186.04	62.31	-35.6	-37.3	22.5	0.00e+00	0	38	0	2286944256	41	4718
2026-01-22 01:49:32.10	186.38	61.60	-35.7	-37.5	22.3	0.00e+00	0	38	0	2296381440	42	4558
2026-01-22 01:49:32.66	186.48	61.37	-35.7	-37.4	22.4	0.00e+00	0	38	0	2299527168	42	4534
2026-01-22 01:49:34.37	186.80	60.67	-35.6	-37.2	22.5	0.00e+00	0	38	0	2308964352	42	4431
2026-01-22 01:49:34.93	186.89	60.45	-35.4	-37.1	22.6	0.00e+00	0	38	0	2312110080	42	4355
2026-01-22 01:49:36.64	187.18	59.76	-35.6	-37.3	22.5	0.00e+00	0	38	0	2321547264	42	4452
2026-01-22 01:49:37.34	187.30	59.48	-35.7	-37.4	22.4	0.00e+00	0	38	0	2325741568	42	4525
2026-01-22 01:49:38.76	187.52	58.91	-35.9	-37.7	22.2	0.00e+00	0	38	0	2334130176	42	4653
2026-01-22 01:49:39.47	187.63	58.63	-36.0	-37.8	22.1	0.00e+00	0	38	0	2337275904	42	4710
2026-01-22 01:49:40.75	187.82	58.13	-36.0	-37.7	22.1	0.00e+00	0	38	0	2344615936	42	4705
2026-01-22 01:49:41.59	187.94	57.80	-35.9	-37.6	22.2	0.00e+00	0	38	0	2349858816	42	4634
2026-01-22 01:49:42.72	188.10	57.36	-36.1	-37.9	22.0	0.00e+00	0	38	0	2356150272	42	4770
2026-01-22 01:49:43.58	188.22	57.03	-36.5	-38.3	21.7	0.00e+00	0	38	0	2360344576	43	4711
2026-01-22 01:49:44.71	188.37	56.59	-36.8	-38.6	21.5	0.00e+00	0	38	0	2367684608	44	4638
2026-01-22 01:49:45.85	188.52	56.16	-36.9	-38.6	21.5	0.00e+00	0	38	0	2373976064	44	4633
2026-01-22 01:49:46.71	188.62	55.83	-36.9	-38.6	21.5	0.00e+00	0	38	0	2378170368	44	4651
2026-01-22 01:49:47.84	188.76	55.41	-37.2	-39.0	21.2	0.00e+00	0	38	0	2385510400	45	4567
2026-01-22 01:49:48.69	188.86	55.09	-37.4	-39.3	21.0	0.00e+00	0	38	0	2389704704	45	4714
2026-01-22 01:49:49.83	189.00	54.67	-37.5	-39.3	21.0	0.00e+00	0	38	0	2395996160	45	4739
2026-01-22 01:49:50.68	189.09	54.36	-37.5	-39.3	21.0	0.00e+00	0	38	0	2401239040	45	4732
2026-01-22 01:49:51.82	189.22	53.94	-37.2	-39.0	21.2	0.00e+00	0	38	0	2407530496	45	4582
2026-01-22 01:49:52.68	189.31	53.63	-37.0	-38.8	21.4	0.00e+00	0	38	0	2411724800	45	4461
2026-01-22 01:49:53.91	189.44	53.18	-36.9	-38.6	21.5	0.00e+00	0	38	0	2419064832	45	4388
2026-01-22 01:49:54.76	189.53	52.88	-36.8	-38.6	21.5	0.00e+00	0	38	0	2424307712	45	4364
2026-01-22 01:49:55.90	189.64	52.47	-37.1	-38.9	21.3	0.00e+00	0	38	0	2430599168	45	4497
2026-01-22 01:49:56.75	189.72	52.17	-37.2	-39.0	21.2	0.00e+00	0	38	0	2434793472	45	4586
2026-01-22 01:49:58.01	189.85	51.73	-37.1	-38.9	21.3	0.00e+00	0	38	0	2442133504	45	4519
2026-01-22 01:49:58.80	189.92	51.46	-37.0	-38.7	21.4	0.00e+00	0	38	0	2446327808	45	4433
2026-01-22 01:50:00.01	190.03	51.04	-36.9	-38.6	21.6	0.00e+00	0	38	0	2453667840	45	4379
2026-01-22 01:50:00.87	190.11	50.74	-36.8	-38.6	21.6	0.00e+00	0	38	0	2457862144	45	4347
2026-01-22 01:50:02.00	190.21	50.36	-36.7	-38.5	21.6	0.00e+00	0	38	0	2464153600	45	4313
2026-01-22 01:50:02.86	190.28	50.07	-36.4	-38.2	21.8	0.00e+00	0	38	0	2469396480	44	4414
2026-01-22 01:50:03.99	190.37	49.69	-36.1	-37.9	22.1	0.00e+00	0	38	0	2475687936	44	4256
2026-01-22 01:50:04.85	190.44	49.40	-36.1	-37.8	22.2	0.00e+00	0	38	0	2480930816	44	4207
2026-01-22 01:50:05.98	190.54	49.03	-36.1	-37.8	22.2	0.00e+00	0	38	0	2487222272	44	4224
2026-01-22 01:50:06.83	190.60	48.75	-36.0	-37.7	22.3	0.00e+00	0	38	0	2491416576	44	4172
2026-01-22 01:50:07.97	190.69	48.38	-36.1	-37.8	22.2	0.00e+00	0	38	0	2497708032	44	4213
2026-01-22 01:50:08.82	190.75	48.10	-36.1	-37.8	22.1	0.00e+00	0	38	0	2502950912	44	4230
2026-01-22 01:50:09.96	190.84	47.73	-36.1	-37.8	22.1	0.00e+00	0	38	0	2509242368	44	4219
2026-01-22 01:50:10.81	190.90	47.46	-36.0	-37.7	22.2	0.00e+00	0	38	0	2514485248	44	4166
2026-01-22 01:50:11.98	190.98	47.09	-35.7	-37.4	22.4	0.00e+00	0	38	0	2520776704	43	4254
2026-01-22 01:50:12.84	191.04	46.82	-35.5	-37.2	22.5	0.00e+00	0	38	0	2526019584	43	4167
2026-01-22 01:50:13.98	191.12	46.46	-35.4	-37.1	22.5	0.00e+00	0	38	0	2532311040	42	4382
2026-01-22 01:50:14.83	191.18	46.20	-35.5	-37.2	22.5	0.00e+00	0	38	0	2536505344	42	4404
2026-01-22 01:50:15.96	191.25	45.85	-35.6	-37.3	22.4	0.00e+00	0	38	0	2542796800	42	4468
2026-01-22 01:50:16.82	191.31	45.59	-35.6	-37.3	22.4	0.00e+00	0	38	0	2548039680	42	4492
2026-01-22 01:50:17.95	191.38	45.25	-35.8	-37.5	22.2	0.00e+00	0	38	0	2554331136	42	4579
2026-01-22 01:50:18.81	191.44	44.99	-35.8	-37.6	22.2	0.00e+00	0	38	0	2559574016	42	4617
2026-01-22 01:50:19.95	191.51	44.65	-35.9	-37.7	22.1	0.00e+00	0	38	0	2565865472	42	4653
2026-01-22 01:50:20.80	191.56	44.40	-35.8	-37.6	22.1	0.00e+00	0	38	0	2570059776	42	4599
2026-01-22 01:50:21.94	191.63	44.06	-35.8	-37.5	22.1	0.00e+00	0	38	0	2576351232	42	4596
2026-01-22 01:50:22.79	191.67	43.81	-35.7	-37.4	22.2	0.00e+00	0	38	0	2581594112	42	4514
2026-01-22 01:50:23.92	191.74	43.49	-35.6	-37.3	22.2	0.00e+00	0	38	0	2587885568	42	4483
2026-01-22 01:50:24.78	191.79	43.24	-35.6	-37.3	22.2	0.00e+00	0	38	0	2592079872	42	4484
2026-01-22 01:50:25.96	191.85	42.90	-35.7	-37.4	22.2	0.00e+00	0	38	0	2599419904	42	4523
2026-01-22 01:50:26.81	191.90	42.66	-35.7	-37.5	22.1	0.00e+00	0	38	0	2603614208	42	4570
2026-01-22 01:50:28.01	191.96	42.32	-35.8	-37.6	22.0	0.00e+00	0	38	0	2610954240	42	4623
2026-01-22 01:50:28.86	192.01	42.08	-35.8	-37.6	22.1	0.00e+00	0	38	0	2615148544	42	4616
2026-01-22 01:50:30.06	192.07	41.75	-35.7	-37.4	22.2	0.00e+00	0	38	0	2622488576	42	4540
2026-01-22 01:50:30.92	192.12	41.52	-35.7	-37.4	22.2	0.00e+00	0	38	0	2626682880	42	4512
2026-01-22 01:50:32.06	192.17	41.20	-35.6	-37.4	22.2	0.00e+00	0	38	0	2634022912	42	4504
2026-01-22 01:50:32.91	192.21	40.97	-35.6	-37.3	22.2	0.00e+00	0	38	0	2638217216	42	4476
2026-01-22 01:50:34.04	192.27	40.67	-35.5	-37.2	22.4	0.00e+00	0	38	0	2644508672	42	4404
2026-01-22 01:50:34.89	192.31	40.44	-35.3	-37.0	22.5	0.00e+00	0	38	0	2649751552	42	4324
2026-01-22 01:50:36.03	192.36	40.14	-35.2	-37.0	22.5	0.00e+00	0	38	0	2656043008	42	4297
2026-01-22 01:50:36.88	192.40	39.92	-35.2	-36.9	22.6	0.00e+00	0	38	0	2661285888	42	4271
2026-01-22 01:50:38.02	192.46	39.62	-35.3	-37.0	22.5	0.00e+00	0	38	0	2667577344	42	4306
2026-01-22 01:50:38.87	192.49	39.40	-35.3	-37.1	22.4	0.00e+00	0	38	0	2671771648	42	4352
2026-01-22 01:50:40.01	192.54	39.11	-35.5	-37.2	22.3	0.00e+00	0	38	0	2678063104	42	4430
2026-01-22 01:50:40.86	192.58	38.89	-35.5	-37.3	22.3	0.00e+00	0	38	0	2683305984	42	4444
2026-01-22 01:50:42.00	192.63	38.60	-35.5	-37.2	22.3	0.00e+00	0	38	0	2689597440	42	4441
2026-01-22 01:50:42.85	192.67	38.39	-35.5	-37.2	22.3	0.00e+00	0	38	0	2694840320	42	4429
2026-01-22 01:50:43.99	192.72	38.10	-35.5	-37.2	22.3	0.00e+00	0	38	0	2701131776	42	4433
2026-01-22 01:50:44.84	192.75	37.89	-35.4	-37.1	22.4	0.00e+00	0	38	0	2705326080	42	4360
2026-01-22 01:50:45.98	192.80	37.61	-35.3	-37.0	22.5	0.00e+00	0	38	0	2711617536	42	4305
2026-01-22 01:50:46.83	192.83	37.40	-35.2	-36.9	22.6	0.00e+00	0	38	0	2716860416	42	4249
2026-01-22 01:50:47.97	192.88	37.12	-35.1	-36.8	22.6	0.00e+00	0	38	0	2723151872	42	4208
2026-01-22 01:50:48.82	192.91	36.92	-35.2	-36.9	22.6	0.00e+00	0	38	0	2727346176	42	4246
2026-01-22 01:50:49.96	192.95	36.65	-35.3	-37.0	22.4	0.00e+00	0	38	0	2734686208	42	4325
2026-01-22 01:50:50.81	192.99	36.44	-35.4	-37.2	22.3	0.00e+00	0	38	0	2738880512	42	4402
2026-01-22 01:50:51.95	193.03	36.18	-35.4	-37.2	22.3	0.00e+00	0	38	0	2745171968	42	4420
2026-01-22 01:50:52.80	193.06	35.98	-35.5	-37.3	22.2	0.00e+00	0	38	0	2750414848	42	4469
2026-01-22 01:50:53.94	193.10	35.71	-35.5	-37.3	22.2	0.00e+00	0	38	0	2756706304	42	4451
2026-01-22 01:50:54.79	193.13	35.52	-35.4	-37.2	22.3	0.00e+00	0	38	0	2761949184	42	4402
2026-01-22 01:50:55.93	193.18	35.25	-35.3	-37.1	22.4	0.00e+00	0	38	0	2768240640	42	4345
2026-01-22 01:50:56.78	193.21	35.06	-35.3	-37.0	22.4	0.00e+00	0	38	0	2772434944	42	4309
2026-01-22 01:50:57.95	193.25	34.80	-35.3	-37.0	22.4	0.00e+00	0	38	0	2779774976	42	4314
2026-01-22 01:50:58.81	193.28	34.60	-35.3	-37.1	22.4	0.00e+00	0	38	0	2783969280	42	4342
2026-01-22 01:50:59.94	193.31	34.35	-35.3	-37.0	22.4	0.00e+00	0	38	0	2790260736	42	4334
2026-01-22 01:51:00.80	193.34	34.16	-35.4	-37.2	22.3	0.00e+00	0	38	0	2795503616	42	4403
2026-01-22 01:51:02.09	193.39	33.88	-35.5	-37.3	22.1	0.00e+00	0	38	0	2802843648	42	4455
2026-01-22 01:51:02.80	193.41	33.72	-35.7	-37.5	22.1	0.00e+00	0	38	0	2807037952	42	4549
2026-01-22 01:51:04.08	193.45	33.45	-35.8	-37.6	22.0	0.00e+00	0	38	0	2814377984	42	4614
2026-01-22 01:51:04.81	193.47	33.29	-35.8	-37.6	22.0	0.00e+00	0	38	0	2817523712	42	4625
2026-01-22 01:51:06.09	193.51	33.02	-35.9	-37.7	21.8	0.00e+00	0	38	0	2824863744	42	4676
2026-01-22 01:51:06.80	193.54	32.87	-35.9	-37.7	21.8	0.00e+00	0	38	0	2829058048	42	4696
2026-01-22 01:51:08.08	193.58	32.60	-36.0	-37.7	21.8	0.00e+00	0	38	0	2836398080	42	4705
2026-01-22 01:51:08.80	193.60	32.45	-36.0	-37.8	21.8	0.00e+00	0	38	0	2840592384	42	4721
2026-01-22 01:51:10.08	193.64	32.18	-36.0	-37.8	21.7	0.00e+00	0	38	0	2846883840	42	4741
2026-01-22 01:51:10.81	193.66	32.03	-36.0	-37.8	21.7	0.00e+00	0	38	0	2852126720	42	4746
2026-01-22 01:51:12.09	193.70	31.77	-36.0	-37.8	21.8	0.00e+00	0	38	0	2858418176	42	4724
2026-01-22 01:51:12.80	193.72	31.62	-36.1	-37.9	21.8	0.00e+00	0	38	0	2862612480	42	4770
2026-01-22 01:51:14.08	193.75	31.37	-36.0	-37.8	21.8	0.00e+00	0	38	0	2869952512	42	4717
2026-01-22 01:51:14.80	193.77	31.22	-35.9	-37.7	21.9	0.00e+00	0	38	0	2874146816	42	4658
2026-01-22 01:51:16.15	193.81	30.95	-35.8	-37.6	21.9	0.00e+00	0	38	0	2881486848	42	4614
2026-01-22 01:51:16.86	193.83	30.81	-35.9	-37.7	21.9	0.00e+00	0	38	0	2885681152	42	4664
2026-01-22 01:51:18.13	193.87	30.56	-35.8	-37.6	22.0	0.00e+00	0	38	0	2893021184	42	4601
2026-01-22 01:51:19.18	193.90	30.36	-35.8	-37.5	22.0	0.00e+00	0	38	0	2898264064	42	4576
2026-01-22 01:51:20.14	193.92	30.17	-35.8	-37.5	22.0	0.00e+00	0	38	0	2904555520	42	4573
2026-01-22 01:51:21.13	193.95	29.98	-35.8	-37.5	22.0	0.00e+00	0	38	0	2909798400	42	4577
2026-01-22 01:51:22.13	193.98	29.79	-35.8	-37.6	22.0	0.00e+00	0	38	0	2915041280	42	4601
2026-01-22 01:51:23.12	194.00	29.60	-35.8	-37.6	22.0	0.00e+00	0	38	0	2920284160	42	4607
2026-01-22 01:51:24.12	194.03	29.41	-35.8	-37.6	22.0	0.00e+00	0	38	0	2926575616	42	4608
2026-01-22 01:51:25.15	194.05	29.22	-35.9	-37.7	21.9	0.00e+00	0	38	0	2931818496	42	4652
2026-01-22 01:51:26.15	194.08	29.04	-35.9	-37.6	21.9	0.00e+00	0	38	0	2938109952	42	4642
2026-01-22 01:51:27.14	194.10	28.85	-36.0	-37.7	21.9	0.00e+00	0	38	0	2943352832	42	4699
2026-01-22 01:51:28.13	194.13	28.67	-35.9	-37.7	21.9	0.00e+00	0	38	0	2949644288	42	4679
2026-01-22 01:51:29.13	194.15	28.49	-36.0	-37.7	21.9	0.00e+00	0	38	0	2954887168	42	4698
2026-01-22 01:51:30.13	194.18	28.31	-35.9	-37.7	21.9	0.00e+00	0	38	0	2960130048	42	4682
2026-01-22 01:51:31.32	194.21	28.09	-36.0	-37.8	21.9	0.00e+00	0	38	0	2966421504	42	4709
2026-01-22 01:51:32.21	194.23	27.93	-36.0	-37.8	21.8	0.00e+00	0	38	0	2971664384	42	4707
2026-01-22 01:51:33.35	194.25	27.73	-35.8	-37.6	22.0	0.00e+00	0	38	0	2977955840	42	4612
2026-01-22 01:51:34.28	194.28	27.57	-35.9	-37.6	21.9	0.00e+00	0	38	0	2983198720	42	4644
2026-01-22 01:51:35.46	194.30	27.36	-35.8	-37.5	22.0	0.00e+00	0	38	0	2990538752	42	4583
2026-01-22 01:51:36.31	194.32	27.21	-35.8	-37.5	22.0	0.00e+00	0	38	0	2994733056	42	4598
2026-01-22 01:51:37.45	194.35	27.02	-35.8	-37.5	22.0	0.00e+00	0	38	0	3001024512	42	4568
2026-01-22 01:51:38.30	194.37	26.87	-35.8	-37.5	22.0	0.00e+00	0	38	0	3006267392	42	4583
2026-01-22 01:51:39.44	194.39	26.68	-35.8	-37.5	22.0	0.00e+00	0	38	0	3012558848	42	4582
2026-01-22 01:51:40.29	194.41	26.53	-35.8	-37.5	22.0	0.00e+00	0	38	0	3017801728	42	4576
2026-01-22 01:51:41.43	194.44	26.34	-35.9	-37.6	21.9	0.00e+00	0	38	0	3024093184	42	4648
2026-01-22 01:51:42.28	194.46	26.20	-35.8	-37.6	22.0	0.00e+00	0	38	0	3028287488	42	4615
2026-01-22 01:51:43.42	194.48	26.01	-36.0	-37.8	21.8	0.00e+00	0	38	0	3034578944	42	4714
2026-01-22 01:51:44.27	194.50	25.87	-36.0	-37.7	21.8	0.00e+00	0	38	0	3039821824	42	4699
2026-01-22 01:51:45.41	194.52	25.68	-36.0	-37.8	21.8	0.00e+00	0	38	0	3046113280	42	4724
2026-01-22 01:51:46.26	194.54	25.54	-36.1	-37.9	21.7	0.00e+00	0	38	0	3051356160	42	4764
2026-01-22 01:51:47.40	194.56	25.35	-36.1	-37.9	21.7	0.00e+00	0	38	0	3057647616	42	4766
2026-01-22 01:51:48.25	194.58	25.22	-36.2	-38.0	21.6	0.00e+00	0	38	0	3061841920	43	4556
2026-01-22 01:51:49.38	194.60	25.03	-36.2	-38.0	21.6	0.00e+00	0	38	0	3068133376	43	4557
2026-01-22 01:51:50.23	194.62	24.90	-36.1	-37.9	21.6	0.00e+00	0	38	0	3073376256	43	4536
2026-01-22 01:51:51.37	194.64	24.72	-36.2	-38.0	21.6	0.00e+00	0	38	0	3079667712	43	4563
2026-01-22 01:51:52.22	194.66	24.58	-36.2	-38.0	21.6	0.00e+00	0	38	0	3084910592	43	4565
2026-01-22 01:51:53.57	194.69	24.37	-36.3	-38.0	21.6	0.00e+00	0	38	0	3092250624	43	4592
2026-01-22 01:51:54.27	194.70	24.26	-36.3	-38.0	21.6	0.00e+00	0	38	0	3096444928	43	4598
2026-01-22 01:51:55.76	194.73	24.03	-36.3	-38.1	21.5	0.00e+00	0	38	0	3104833536	43	4608
2026-01-22 01:51:56.47	194.74	23.92	-36.3	-38.1	21.6	0.00e+00	0	38	0	3107979264	43	4606
2026-01-22 01:51:57.76	194.77	23.73	-36.5	-38.3	21.4	0.00e+00	0	38	0	3115319296	43	4710
2026-01-22 01:51:58.47	194.78	23.62	-36.4	-38.2	21.5	0.00e+00	0	38	0	3119513600	43	4661
2026-01-22 01:51:59.75	194.81	23.42	-36.5	-38.2	21.4	0.00e+00	0	38	0	3126853632	43	4701
2026-01-22 01:52:00.46	194.82	23.32	-36.4	-38.2	21.4	0.00e+00	0	38	0	3131047936	43	4692
2026-01-22 01:52:01.74	194.84	23.13	-36.4	-38.2	21.5	0.00e+00	0	38	0	3138387968	43	4678
2026-01-22 01:52:02.45	194.86	23.02	-36.5	-38.2	21.4	0.00e+00	0	38	0	3142582272	43	4704
2026-01-22 01:52:03.73	194.88	22.83	-36.5	-38.3	21.4	0.00e+00	0	38	0	3148873728	43	4717
2026-01-22 01:52:04.46	194.89	22.73	-36.5	-38.3	21.3	0.00e+00	0	38	0	3153068032	43	4746
2026-01-22 01:52:05.74	194.92	22.54	-36.6	-38.4	21.3	0.00e+00	0	38	0	3160408064	43	4773
2026-01-22 01:52:06.48	194.93	22.43	-36.6	-38.4	21.3	0.00e+00	0	38	0	3164602368	43	4800
2026-01-22 01:52:07.76	194.95	22.25	-36.6	-38.4	21.3	0.00e+00	0	38	0	3171942400	43	4808
2026-01-22 01:52:08.56	194.97	22.13	-36.8	-38.6	21.3	0.00e+00	0	38	0	3176136704	44	4642
2026-01-22 01:52:09.70	194.99	21.97	-36.8	-38.6	21.2	0.00e+00	0	38	0	3182428160	44	4643
2026-01-22 01:52:10.55	195.00	21.85	-36.9	-38.7	21.2	0.00e+00	0	38	0	3187671040	44	4701
2026-01-22 01:52:11.69	195.02	21.69	-36.9	-38.8	21.2	0.00e+00	0	38	0	3193962496	44	4717
2026-01-22 01:52:12.81	195.04	21.53	-37.0	-38.9	21.1	0.00e+00	0	38	0	3200253952	44	4763
2026-01-22 01:52:13.83	195.06	21.39	-37.0	-38.8	21.1	0.00e+00	0	38	0	3205496832	44	4735
2026-01-22 01:52:14.83	195.07	21.25	-37.0	-38.8	21.1	0.00e+00	0	38	0	3211788288	44	4746
2026-01-22 01:52:15.82	195.09	21.11	-37.0	-38.8	21.1	0.00e+00	0	38	0	3217031168	44	4741
2026-01-22 01:52:16.82	195.10	20.98	-37.1	-38.9	21.1	0.00e+00	0	38	0	3223322624	44	4771
2026-01-22 01:52:17.82	195.12	20.84	-37.1	-38.9	21.0	0.00e+00	0	38	0	3228565504	44	4800
2026-01-22 01:52:18.81	195.14	20.71	-37.1	-39.0	21.0	0.00e+00	0	38	0	3233808384	44	4818
2026-01-22 01:52:19.81	195.15	20.57	-37.1	-38.9	21.1	0.00e+00	0	38	0	3240099840	44	4782
2026-01-22 01:52:20.80	195.17	20.44	-37.1	-38.9	21.0	0.00e+00	0	38	0	3245342720	44	4808
2026-01-22 01:52:21.79	195.18	20.31	-37.1	-38.9	21.1	0.00e+00	0	38	0	3250585600	44	4771
2026-01-22 01:52:22.79	195.20	20.17	-37.1	-38.9	21.0	0.00e+00	0	38	0	3256877056	44	4808
2026-01-22 01:52:23.78	195.22	20.04	-37.1	-38.9	21.0	0.00e+00	0	38	0	3262119936	44	4807
2026-01-22 01:52:24.86	195.23	19.90	-37.1	-38.9	21.0	0.00e+00	0	38	0	3268411392	44	4796
2026-01-22 01:52:25.74	195.25	19.78	-37.1	-38.9	21.0	0.00e+00	0	38	0	3273654272	44	4808
2026-01-22 01:52:26.88	195.26	19.64	-37.2	-39.0	20.9	0.00e+00	0	38	0	3278897152	45	4590
2026-01-22 01:52:27.73	195.28	19.53	-37.3	-39.1	20.9	0.00e+00	0	38	0	3284140032	45	4610
2026-01-22 01:52:29.09	195.30	19.35	-37.2	-39.0	21.0	0.00e+00	0	38	0	3292528640	45	4578
2026-01-22 01:52:29.80	195.31	19.26	-37.2	-39.0	20.9	0.00e+00	0	38	0	3295674368	45	4593
2026-01-22 01:52:31.07	195.33	19.10	-37.3	-39.1	20.9	0.00e+00	0	38	0	3303014400	45	4616
2026-01-22 01:52:31.81	195.34	19.01	-37.3	-39.1	20.9	0.00e+00	0	38	0	3307208704	45	4634
2026-01-22 01:52:33.09	195.36	18.84	-37.3	-39.1	20.9	0.00e+00	0	38	0	3314548736	45	4623
2026-01-22 01:52:33.80	195.37	18.76	-37.3	-39.1	20.8	0.00e+00	0	38	0	3318743040	45	4632
2026-01-22 01:52:35.08	195.39	18.60	-37.3	-39.2	20.8	0.00e+00	0	38	0	3325034496	45	4663
2026-01-22 01:52:35.90	195.40	18.49	-37.4	-39.2	20.8	0.00e+00	0	38	0	3330277376	45	4700
2026-01-22 01:52:37.04	195.41	18.35	-37.4	-39.2	20.8	0.00e+00	0	38	0	3336568832	45	4675
2026-01-22 01:52:37.89	195.43	18.25	-37.5	-39.4	20.6	0.00e+00	0	38	0	3341811712	45	4771
2026-01-22 01:52:39.03	195.44	18.11	-37.5	-39.3	20.7	0.00e+00	0	38	0	3348103168	45	4755
2026-01-22 01:52:39.88	195.45	18.01	-37.5	-39.3	20.7	0.00e+00	0	38	0	3352297472	45	4737
2026-01-22 01:52:41.07	195.47	17.86	-37.5	-39.4	20.7	0.00e+00	0	38	0	3359637504	45	4762
2026-01-22 01:52:41.92	195.48	17.76	-37.5	-39.4	20.7	0.00e+00	0	38	0	3363831808	45	4772
2026-01-22 01:52:43.06	195.50	17.62	-37.6	-39.4	20.6	0.00e+00	0	38	0	3370123264	45	4800
2026-01-22 01:52:43.91	195.51	17.52	-37.7	-39.5	20.5	0.00e+00	0	38	0	3375366144	45	4868
2026-01-22 01:52:45.05	195.53	17.39	-37.7	-39.5	20.5	0.00e+00	0	38	0	3381657600	46	4589
2026-01-22 01:52:45.90	195.54	17.29	-37.7	-39.6	20.4	0.00e+00	0	38	0	3386900480	46	4626
2026-01-22 01:52:47.04	195.55	17.15	-37.8	-39.6	20.4	0.00e+00	0	38	0	3393191936	46	4650
2026-01-22 01:52:47.89	195.56	17.05	-37.9	-39.8	20.3	0.00e+00	0	38	0	3397386240	46	4737
2026-01-22 01:52:49.03	195.58	16.92	-37.8	-39.7	20.4	0.00e+00	0	38	0	3403677696	46	4671
2026-01-22 01:52:49.88	195.59	16.82	-37.9	-39.8	20.3	0.00e+00	0	38	0	3408920576	46	4726
2026-01-22 01:52:51.02	195.60	16.69	-38.0	-39.9	20.2	0.00e+00	0	38	0	3415212032	46	4780
2026-01-22 01:52:51.87	195.62	16.59	-38.0	-39.9	20.2	0.00e+00	0	38	0	3420454912	46	4795
2026-01-22 01:52:53.01	195.63	16.46	-37.9	-39.8	20.3	0.00e+00	0	38	0	3426746368	46	4737
2026-01-22 01:52:53.86	195.64	16.37	-38.0	-39.9	20.2	0.00e+00	0	38	0	3430940672	46	4811
2026-01-22 01:52:55.00	195.66	16.24	-38.1	-40.0	20.1	0.00e+00	0	38	0	3437232128	46	4851
2026-01-22 01:52:55.85	195.67	16.14	-38.1	-40.0	20.1	0.00e+00	0	38	0	3442475008	46	4843
2026-01-22 01:52:56.99	195.68	16.01	-38.1	-40.0	20.1	0.00e+00	0	38	0	3448766464	46	4833
2026-01-22 01:52:57.84	195.69	15.92	-38.2	-40.1	20.0	0.00e+00	0	38	0	3454009344	46	4904
2026-01-22 01:52:58.98	195.71	15.79	-38.1	-40.0	20.1	0.00e+00	0	38	0	3460300800	47	4568
2026-01-22 01:52:59.84	195.72	15.70	-38.2	-40.2	20.0	0.00e+00	0	38	0	3464495104	47	4656
2026-01-22 01:53:00.97	195.73	15.57	-38.2	-40.1	20.0	0.00e+00	0	38	0	3470786560	47	4627
2026-01-22 01:53:01.83	195.74	15.48	-38.2	-40.2	20.0	0.00e+00	0	38	0	3476029440	47	4663
2026-01-22 01:53:02.96	195.76	15.36	-38.3	-40.3	19.9	0.00e+00	0	38	0	3482320896	47	4711
2026-01-22 01:53:03.81	195.77	15.26	-38.3	-40.2	20.0	0.00e+00	0	38	0	3487563776	47	4662
2026-01-22 01:53:04.95	195.78	15.14	-38.4	-40.3	19.9	0.00e+00	0	38	0	3493855232	47	4727
2026-01-22 01:53:05.81	195.79	15.05	-38.4	-40.4	19.8	0.00e+00	0	39	0	3498049536	47	4774
2026-01-22 01:53:06.94	195.80	14.93	-38.4	-40.3	19.8	0.00e+00	0	38	0	3505389568	47	4721
2026-01-22 01:53:07.80	195.81	14.83	-38.4	-40.4	19.8	0.00e+00	0	38	0	3509583872	47	4766
2026-01-22 01:53:08.94	195.83	14.71	-38.4	-40.3	19.8	0.00e+00	0	38	0	3515875328	47	4749
2026-01-22 01:53:09.79	195.84	14.62	-38.4	-40.4	19.8	0.00e+00	0	38	0	3521118208	47	4768
2026-01-22 01:53:10.93	195.85	14.50	-38.5	-40.4	19.7	0.00e+00	0	38	0	3527409664	47	4786
2026-01-22 01:53:11.78	195.86	14.41	-38.6	-40.5	19.6	0.00e+00	0	38	0	3531603968	47	4846
2026-01-22 01:53:13.11	195.88	14.27	-38.6	-40.6	19.6	0.00e+00	0	38	0	3539992576	47	4878
2026-01-22 01:53:13.82	195.88	14.20	-38.6	-40.5	19.7	0.00e+00	0	38	0	3543138304	47	4839
2026-01-22 01:53:15.09	195.90	14.07	-38.6	-40.5	19.6	0.00e+00	0	38	0	3550478336	47	4853
2026-01-22 01:53:15.80	195.91	14.00	-38.6	-40.6	19.6	0.00e+00	0	38	0	3554672640	47	4897
2026-01-22 01:53:17.08	195.92	13.86	-38.7	-40.7	19.8	0.00e+00	0	38	0	3562012672	48	4657
2026-01-22 01:53:17.86	195.93	13.79	-38.7	-40.6	19.7	0.00e+00	0	38	0	3566206976	48	4635
2026-01-22 01:53:19.14	195.95	13.65	-38.9	-40.8	19.6	0.00e+00	0	38	0	3573547008	48	4725
2026-01-22 01:53:19.96	195.95	13.57	-38.9	-40.9	19.6	0.00e+00	0	38	0	3577741312	48	4761
2026-01-22 01:53:21.10	195.97	13.46	-38.9	-40.8	19.6	0.00e+00	0	38	0	3584032768	48	4752
2026-01-22 01:53:21.95	195.98	13.37	-38.8	-40.7	19.7	0.00e+00	0	38	0	3589275648	48	4685
2026-01-22 01:53:23.09	195.99	13.26	-38.8	-40.8	19.7	0.00e+00	0	38	0	3595567104	48	4712
2026-01-22 01:53:24.19	196.00	13.15	-38.9	-40.9	19.6	0.00e+00	0	38	0	3601858560	48	4764
2026-01-22 01:53:25.21	196.01	13.05	-38.9	-40.8	19.6	0.00e+00	0	38	0	3607101440	48	4759
2026-01-22 01:53:26.21	196.02	12.95	-38.9	-40.8	19.6	0.00e+00	0	38	0	3613392896	48	4751
2026-01-22 01:53:27.20	196.03	12.85	-39.0	-40.9	19.5	0.00e+00	0	38	0	3618635776	48	4782
2026-01-22 01:53:28.20	196.04	12.75	-39.1	-41.1	19.4	0.00e+00	0	38	0	3624927232	48	4871
2026-01-22 01:53:29.19	196.05	12.66	-39.1	-41.0	19.4	0.00e+00	0	38	0	3630170112	48	4859
2026-01-22 01:53:30.19	196.07	12.56	-39.1	-41.0	19.4	0.00e+00	0	38	0	3635412992	48	4846
2026-01-22 01:53:31.18	196.08	12.46	-39.0	-40.9	19.5	0.00e+00	0	38	0	3641704448	48	4809
2026-01-22 01:53:32.18	196.09	12.37	-39.1	-41.1	19.4	0.00e+00	0	39	0	3646947328	48	4874
2026-01-22 01:53:33.18	196.10	12.27	-39.2	-41.1	19.3	0.00e+00	0	38	0	3652190208	49	4635
2026-01-22 01:53:34.17	196.11	12.18	-39.1	-41.0	19.4	0.00e+00	0	38	0	3657433088	49	4597
2026-01-22 01:53:35.16	196.12	12.08	-39.0	-41.0	19.4	0.00e+00	0	38	0	3663724544	49	4560
2026-01-22 01:53:36.16	196.13	11.99	-39.1	-41.0	19.4	0.00e+00	0	38	0	3668967424	49	4595
2026-01-22 01:53:37.15	196.14	11.89	-39.1	-41.0	19.4	0.00e+00	0	38	0	3675258880	49	4569
2026-01-22 01:53:38.15	196.15	11.80	-39.1	-41.1	19.3	0.00e+00	0	38	0	3680501760	49	4616
2026-01-22 01:53:39.14	196.16	11.71	-39.2	-41.2	19.2	0.00e+00	0	38	0	3685744640	49	4680
2026-01-22 01:53:40.14	196.17	11.61	-39.3	-41.3	19.2	0.00e+00	0	38	0	3692036096	49	4714
