passes_logs/2026/01/22/T1/T1__20260122_050608_FENGYUN_3E_rec.log

#Pass ID: 20260122_050608_FENGYUN 3E
#Satellite: FENGYUN 3E
#Configuration: FENGYUN 3E
#almurnet v.1.7.20251203
#Start time: 2026-01-22 05:06:10

#Version: 2.0.20230620
#Station: T1
#Location: 37.570604 lon 55.790049 lat
#TLE: 1 49008U 21062A   26021.55921410  .00000414  00000+0  21575-3 0  9991
#TLE: 2 49008  98.7483  26.6103 0002287 125.5068 234.6322 14.19887394235776

#Time	Az	El	Level	Level2	SNR	BER	BlckErr	Temp	State	Recorded	gain1	gain2
2026-01-22 05:06:10.38	9.40	5.13	-48.4	-61.0	3.8	8.45e-01	0	35	0	0	66	15969
2026-01-22 05:06:11.37	9.34	5.20	-48.4	-61.0	3.8	8.47e-01	0	35	104	0	66	15955
2026-01-22 05:06:12.36	9.29	5.26	-48.4	-61.0	3.8	8.48e-01	0	35	104	0	66	16037
2026-01-22 05:06:13.36	9.23	5.33	-48.4	-60.9	3.8	8.47e-01	0	35	104	0	66	15939
2026-01-22 05:06:14.35	9.18	5.40	-48.4	-61.0	3.8	8.47e-01	0	36	104	0	66	15975
2026-01-22 05:06:15.34	9.12	5.46	-48.4	-61.0	3.8	8.46e-01	0	35	104	0	66	16047
2026-01-22 05:06:16.33	9.06	5.53	-48.4	-61.0	3.8	8.47e-01	0	36	104	0	66	16012
2026-01-22 05:06:17.33	9.01	5.60	-48.4	-61.0	3.8	8.47e-01	0	36	104	0	66	16001
2026-01-22 05:06:18.32	8.95	5.67	-48.4	-60.9	3.8	8.47e-01	0	36	104	0	66	15886
2026-01-22 05:06:19.32	8.89	5.73	-48.4	-60.9	3.8	8.46e-01	0	36	104	0	66	15820
2026-01-22 05:06:20.31	8.84	5.80	-48.4	-60.9	3.8	8.46e-01	0	36	104	0	66	15874
2026-01-22 05:06:21.30	8.78	5.87	-48.4	-60.9	3.8	8.46e-01	0	36	104	0	66	15826
2026-01-22 05:06:22.30	8.72	5.94	-48.4	-60.9	3.8	8.48e-01	0	36	104	0	66	15811
2026-01-22 05:06:23.29	8.66	6.00	-48.4	-60.8	3.8	8.47e-01	0	36	104	0	66	15741
2026-01-22 05:06:24.28	8.60	6.07	-48.4	-60.9	3.8	8.46e-01	0	36	104	0	66	15787
2026-01-22 05:06:25.28	8.54	6.14	-48.4	-60.9	3.8	8.48e-01	0	36	104	0	66	15879
2026-01-22 05:06:26.27	8.49	6.21	-48.4	-60.8	3.8	8.47e-01	0	36	104	0	66	15756
2026-01-22 05:06:27.26	8.43	6.28	-48.4	-60.9	3.8	8.47e-01	0	36	104	0	66	15827
2026-01-22 05:06:28.25	8.37	6.35	-48.4	-60.9	3.8	8.46e-01	0	36	104	0	66	15820
2026-01-22 05:06:29.25	8.31	6.42	-48.4	-60.9	3.8	8.47e-01	0	36	104	0	66	15825
2026-01-22 05:06:30.24	8.25	6.48	-48.4	-60.9	3.8	8.47e-01	0	36	104	0	66	15846
2026-01-22 05:06:31.23	8.19	6.55	-48.4	-60.9	3.8	8.46e-01	0	36	104	0	66	15785
2026-01-22 05:06:32.22	8.13	6.62	-48.4	-60.9	3.8	8.46e-01	0	36	104	0	66	15913
2026-01-22 05:06:33.22	8.06	6.69	-48.4	-60.9	3.8	8.46e-01	0	36	104	0	66	15761
2026-01-22 05:06:34.21	8.00	6.76	-48.4	-60.7	3.8	8.47e-01	0	36	104	0	66	15535
2026-01-22 05:06:35.21	7.94	6.83	-48.4	-60.6	3.8	8.47e-01	0	36	104	0	66	15368
2026-01-22 05:06:36.20	7.88	6.90	-48.4	-60.4	3.8	8.48e-01	0	36	104	0	66	14921
2026-01-22 05:06:37.19	7.82	6.97	-48.3	-60.0	3.8	8.48e-01	0	36	104	0	66	14318
2026-01-22 05:06:38.18	7.75	7.04	-48.2	-59.6	3.8	8.46e-01	0	36	104	0	66	13575
2026-01-22 05:06:39.18	7.69	7.11	-48.2	-58.9	3.9	8.46e-01	0	37	104	0	66	12653
2026-01-22 05:06:40.17	7.63	7.18	-48.1	-58.3	3.9	8.45e-01	0	36	104	0	66	11747
2026-01-22 05:06:41.16	7.56	7.25	-48.0	-57.7	4.2	8.45e-01	0	36	104	0	66	10915
2026-01-22 05:06:42.16	7.50	7.32	-48.0	-57.4	4.2	8.35e-01	0	36	0	0	66	10535
2026-01-22 05:06:43.15	7.43	7.39	-48.0	-57.1	4.3	8.35e-01	0	36	0	0	66	10236
2026-01-22 05:06:44.14	7.37	7.47	-48.0	-57.3	4.3	8.36e-01	0	37	0	0	66	10434
2026-01-22 05:06:45.13	7.30	7.54	-48.1	-57.5	4.2	8.37e-01	0	37	0	0	66	10722
2026-01-22 05:06:46.13	7.24	7.61	-48.1	-58.1	3.9	8.42e-01	0	37	104	0	66	11521
2026-01-22 05:06:47.12	7.17	7.68	-48.2	-58.4	4.0	8.45e-01	0	37	104	0	66	11869
2026-01-22 05:06:48.11	7.11	7.75	-48.3	-59.4	3.8	8.46e-01	0	37	104	0	66	13396
2026-01-22 05:06:49.11	7.04	7.82	-48.3	-59.8	3.8	8.47e-01	0	37	104	0	66	14041
2026-01-22 05:06:50.10	6.97	7.90	-48.4	-60.4	3.8	8.46e-01	0	36	104	0	66	15003
2026-01-22 05:06:51.09	6.91	7.97	-48.4	-60.9	3.8	8.47e-01	0	37	104	0	66	15775
2026-01-22 05:06:52.09	6.84	8.04	-48.4	-60.9	3.8	8.47e-01	0	37	104	0	66	15900
2026-01-22 05:06:53.08	6.77	8.11	-48.3	-60.1	3.8	8.47e-01	0	37	104	0	66	14376
2026-01-22 05:06:54.07	6.70	8.19	-48.1	-58.0	4.1	8.45e-01	0	37	104	0	66	11326
2026-01-22 05:06:55.07	6.63	8.26	-47.7	-55.3	5.1	8.07e-01	0	37	0	0	66	8323
2026-01-22 05:06:56.06	6.56	8.33	-47.0	-52.6	7.1	2.07e-01	0	37	0	4194304	64	6805
2026-01-22 05:06:57.05	6.49	8.41	-46.1	-50.2	9.6	2.50e-02	0	37	0	11534336	63	5504
2026-01-22 05:06:58.04	6.42	8.48	-45.2	-48.4	11.5	1.66e-03	0	37	0	18874368	61	5014
2026-01-22 05:06:59.04	6.35	8.55	-44.6	-47.2	12.6	1.01e-04	0	37	0	26214400	59	4924
2026-01-22 05:07:00.03	6.28	8.63	-43.7	-45.9	13.9	6.80e-06	0	37	0	32505856	58	4480
2026-01-22 05:07:01.02	6.21	8.70	-43.0	-44.9	15.0	0.00e+00	0	37	0	39845888	56	4477
2026-01-22 05:07:02.01	6.14	8.77	-42.4	-44.2	15.5	0.00e+00	0	37	0	47185920	55	4376
2026-01-22 05:07:03.01	6.07	8.85	-42.2	-43.9	15.8	0.00e+00	0	37	0	54525952	55	4241
2026-01-22 05:07:04.00	6.00	8.92	-41.9	-43.6	16.1	0.00e+00	0	37	0	61865984	54	4314
2026-01-22 05:07:05.00	5.92	9.00	-42.3	-44.1	15.7	0.00e+00	0	37	0	69206016	54	4569
2026-01-22 05:07:05.99	5.85	9.07	-42.7	-44.6	15.2	0.00e+00	0	37	0	75497472	54	4817
2026-01-22 05:07:06.98	5.78	9.15	-41.9	-43.6	16.2	0.00e+00	0	37	0	82837504	54	4305
2026-01-22 05:07:07.98	5.70	9.22	-47.0	-51.8	8.1	7.84e-03	0	37	0	90177536	63	6572
2026-01-22 05:07:08.98	5.63	9.30	-41.1	-42.6	17.1	0.00e+00	0	37	0	97517568	52	4324
2026-01-22 05:07:09.97	5.56	9.38	-40.1	-41.3	18.4	0.00e+00	0	37	0	104857600	50	4191
2026-01-22 05:07:10.96	5.48	9.45	-45.4	-48.8	11.2	2.20e-06	0	37	0	111149056	60	5544
2026-01-22 05:07:11.96	5.41	9.53	-40.1	-41.4	18.4	0.00e+00	0	37	0	118489088	51	3966
2026-01-22 05:07:12.95	5.33	9.60	-39.8	-41.1	18.6	0.00e+00	0	37	0	125829120	50	4075
2026-01-22 05:07:13.95	5.25	9.68	-39.6	-40.8	18.9	0.00e+00	0	37	0	133169152	50	3954
2026-01-22 05:07:14.94	5.18	9.76	-39.6	-40.8	19.0	0.00e+00	0	37	0	140509184	49	4155
2026-01-22 05:07:15.94	5.10	9.83	-39.6	-40.8	18.9	0.00e+00	0	37	0	147849216	49	4177
2026-01-22 05:07:16.95	5.02	9.91	-39.4	-40.6	19.1	0.00e+00	0	37	0	155189248	49	4085
2026-01-22 05:07:17.94	4.94	9.99	-39.4	-40.6	19.1	0.00e+00	0	37	0	162529280	49	4088
2026-01-22 05:07:19.00	4.86	10.07	-39.5	-40.6	19.1	0.00e+00	0	37	0	169869312	49	4088
2026-01-22 05:07:19.87	4.79	10.14	-39.2	-40.4	19.3	0.00e+00	0	37	0	176160768	49	3965
2026-01-22 05:07:21.00	4.70	10.23	-39.4	-40.6	19.1	0.00e+00	0	37	0	184549376	49	4076
2026-01-22 05:07:21.86	4.63	10.30	-39.5	-40.6	19.1	0.00e+00	0	37	0	190840832	49	4082
2026-01-22 05:07:22.99	4.54	10.39	-39.4	-40.6	19.2	0.00e+00	0	37	0	198180864	49	4059
2026-01-22 05:07:23.85	4.47	10.45	-39.4	-40.5	19.2	0.00e+00	0	37	0	204472320	49	4023
2026-01-22 05:07:24.98	4.38	10.54	-39.3	-40.4	19.3	0.00e+00	0	37	0	212860928	49	4000
2026-01-22 05:07:25.84	4.31	10.61	-39.4	-40.6	19.1	0.00e+00	0	37	0	219152384	49	4067
2026-01-22 05:07:26.97	4.22	10.70	-39.5	-40.6	19.1	0.00e+00	0	37	0	227540992	49	4071
2026-01-22 05:07:27.82	4.15	10.77	-39.5	-40.6	19.1	0.00e+00	0	37	0	232783872	49	4097
2026-01-22 05:07:28.96	4.05	10.86	-39.5	-40.6	19.1	0.00e+00	0	37	0	241172480	49	4081
2026-01-22 05:07:29.81	3.98	10.93	-39.6	-40.7	19.0	0.00e+00	0	37	0	247463936	49	4107
2026-01-22 05:07:31.09	3.87	11.03	-39.6	-40.7	19.0	0.00e+00	0	37	0	256901120	49	4134
2026-01-22 05:07:31.83	3.81	11.09	-39.5	-40.6	19.2	0.00e+00	0	37	0	262144000	49	4055
2026-01-22 05:07:33.11	3.70	11.19	-39.5	-40.6	19.2	0.00e+00	0	37	0	271581184	49	4052
2026-01-22 05:07:33.85	3.64	11.25	-39.6	-40.7	19.1	0.00e+00	0	37	0	276824064	49	4106
2026-01-22 05:07:35.13	3.53	11.36	-39.3	-40.3	19.4	0.00e+00	0	38	0	286261248	49	3954
2026-01-22 05:07:35.86	3.46	11.41	-39.5	-40.6	19.2	0.00e+00	0	37	0	291504128	49	4057
2026-01-22 05:07:37.14	3.35	11.52	-39.4	-40.4	19.3	0.00e+00	0	37	0	300941312	49	4002
2026-01-22 05:07:37.85	3.29	11.58	-39.4	-40.5	19.3	0.00e+00	0	37	0	306184192	49	4010
2026-01-22 05:07:39.12	3.18	11.68	-39.3	-40.4	19.4	0.00e+00	0	37	0	314572800	49	3969
2026-01-22 05:07:39.90	3.11	11.74	-39.3	-40.3	19.4	0.00e+00	0	37	0	320864256	49	3945
2026-01-22 05:07:41.18	2.99	11.85	-39.2	-40.2	19.6	0.00e+00	0	38	0	329252864	48	4122
2026-01-22 05:07:41.90	2.93	11.91	-39.2	-40.3	19.5	0.00e+00	0	37	0	335544320	48	4156
2026-01-22 05:07:43.18	2.81	12.02	-39.2	-40.3	19.4	0.00e+00	0	37	0	343932928	48	4155
2026-01-22 05:07:44.02	2.73	12.09	-39.1	-40.1	19.7	0.00e+00	0	38	0	350224384	48	4075
2026-01-22 05:07:45.16	2.63	12.18	-39.1	-40.1	19.7	0.00e+00	0	37	0	358612992	48	4078
2026-01-22 05:07:46.01	2.55	12.25	-39.1	-40.1	19.3	0.00e+00	0	37	0	364904448	48	4085
2026-01-22 05:07:47.15	2.45	12.35	-39.2	-40.2	19.6	0.00e+00	0	38	0	373293056	48	4114
2026-01-22 05:07:48.00	2.37	12.42	-39.1	-40.1	19.7	0.00e+00	0	38	0	379584512	48	4069
2026-01-22 05:07:49.14	2.26	12.51	-39.0	-40.0	19.8	0.00e+00	0	37	0	386924544	48	4021
2026-01-22 05:07:49.99	2.18	12.58	-38.9	-39.9	19.8	0.00e+00	0	38	0	393216000	48	3999
2026-01-22 05:07:51.13	2.07	12.68	-39.1	-40.1	19.7	0.00e+00	0	38	0	401604608	48	4081
2026-01-22 05:07:51.99	1.99	12.75	-39.0	-40.0	19.8	0.00e+00	0	37	0	407896064	48	4018
2026-01-22 05:07:53.12	1.88	12.85	-38.8	-39.8	19.9	0.00e+00	0	38	0	416284672	48	3938
2026-01-22 05:07:54.40	1.76	12.96	-38.8	-39.8	19.9	0.00e+00	0	37	0	425721856	48	3958
2026-01-22 05:07:55.13	1.69	13.02	-38.8	-39.8	20.0	0.00e+00	0	37	0	429916160	48	3926
2026-01-22 05:07:56.41	1.56	13.13	-39.2	-40.2	19.6	0.00e+00	0	38	0	439353344	48	4117
2026-01-22 05:07:57.12	1.49	13.19	-38.9	-39.9	19.8	0.00e+00	0	38	0	444596224	48	3995
2026-01-22 05:07:58.40	1.36	13.30	-38.9	-39.9	19.9	0.00e+00	0	38	0	454033408	48	3992
2026-01-22 05:07:59.11	1.29	13.36	-39.0	-40.1	19.7	0.00e+00	0	38	0	459276288	48	4056
2026-01-22 05:08:00.39	1.17	13.47	-38.8	-39.8	19.4	0.00e+00	0	37	0	468713472	48	3936
2026-01-22 05:08:01.12	1.09	13.54	-38.7	-39.7	20.1	0.00e+00	0	37	0	473956352	48	3888
2026-01-22 05:08:02.54	0.95	13.66	-38.7	-39.7	19.8	0.00e+00	0	38	0	484442112	47	4141
2026-01-22 05:08:03.25	0.88	13.72	-38.7	-39.7	19.8	0.00e+00	0	38	0	489684992	47	4145
2026-01-22 05:08:04.60	0.74	13.84	-38.7	-39.7	19.9	0.00e+00	0	38	0	499122176	47	4112
2026-01-22 05:08:05.56	0.64	13.92	-38.7	-39.7	19.9	0.00e+00	0	37	0	505413632	47	4126
2026-01-22 05:08:06.56	0.53	14.01	-38.6	-39.6	20.0	0.00e+00	0	38	0	512753664	47	4065
2026-01-22 05:08:07.55	0.43	14.10	-38.7	-39.7	19.9	0.00e+00	0	38	0	520093696	47	4119
2026-01-22 05:08:08.54	0.33	14.18	-38.5	-39.5	20.0	0.00e+00	0	38	0	527433728	47	4036
2026-01-22 05:08:09.54	0.22	14.27	-38.6	-39.6	20.0	0.00e+00	0	38	0	534773760	47	4066
2026-01-22 05:08:10.53	0.11	14.36	-38.5	-39.5	20.1	0.00e+00	0	38	0	541065216	47	4017
2026-01-22 05:08:11.53	0.01	14.45	-38.2	-39.2	20.3	0.00e+00	0	38	0	548405248	47	3884
2026-01-22 05:08:12.52	359.90	14.54	-38.1	-39.1	20.4	0.00e+00	0	38	0	555745280	46	4081
2026-01-22 05:08:13.51	359.79	14.63	-38.3	-39.2	20.3	0.00e+00	0	38	0	563085312	46	4141
2026-01-22 05:08:14.51	359.68	14.72	-38.2	-39.2	20.4	0.00e+00	0	38	0	570425344	46	4110
2026-01-22 05:08:15.51	359.57	14.81	-38.2	-39.2	20.4	0.00e+00	0	38	0	577765376	46	4112
2026-01-22 05:08:16.50	359.46	14.89	-38.3	-39.2	20.3	0.00e+00	0	38	0	585105408	46	4143
2026-01-22 05:08:17.50	359.35	14.98	-38.5	-39.5	20.0	0.00e+00	0	38	0	592445440	46	4283
2026-01-22 05:08:18.49	359.24	15.07	-38.2	-39.2	20.4	0.00e+00	0	38	0	599785472	46	4120
2026-01-22 05:08:19.49	359.13	15.16	-38.2	-39.2	20.3	0.00e+00	0	38	0	606076928	46	4134
2026-01-22 05:08:20.48	359.01	15.25	-38.2	-39.1	20.4	0.00e+00	0	38	0	613416960	46	4089
2026-01-22 05:08:21.48	358.90	15.35	-38.2	-39.2	20.4	0.00e+00	0	38	0	620756992	46	4112
2026-01-22 05:08:22.47	358.79	15.44	-38.1	-39.1	20.5	0.00e+00	0	37	0	628097024	46	4055
2026-01-22 05:08:23.47	358.67	15.53	-38.2	-39.2	20.4	0.00e+00	0	38	0	635437056	46	4123
2026-01-22 05:08:24.46	358.56	15.62	-38.3	-39.3	20.3	0.00e+00	0	37	0	641728512	46	4164
2026-01-22 05:08:25.46	358.44	15.71	-38.2	-39.1	20.4	0.00e+00	0	37	0	649068544	46	4098
2026-01-22 05:08:26.45	358.32	15.80	-38.3	-39.3	20.3	0.00e+00	0	38	0	656408576	46	4169
2026-01-22 05:08:27.45	358.20	15.89	-38.1	-39.1	20.4	0.00e+00	0	38	0	663748608	46	4084
2026-01-22 05:08:28.44	358.08	15.99	-38.2	-39.2	20.4	0.00e+00	0	38	0	671088640	46	4122
2026-01-22 05:08:29.43	357.97	16.08	-38.1	-39.1	20.5	0.00e+00	0	38	0	678428672	46	4062
2026-01-22 05:08:30.43	357.84	16.17	-38.2	-39.1	20.5	0.00e+00	0	38	0	684720128	46	4084
2026-01-22 05:08:31.43	357.72	16.26	-38.1	-39.1	20.5	0.00e+00	0	38	0	692060160	46	4064
2026-01-22 05:08:32.42	357.60	16.36	-38.0	-39.0	20.6	0.00e+00	0	38	0	699400192	46	4011
2026-01-22 05:08:33.42	357.48	16.45	-37.9	-38.8	20.7	0.00e+00	0	38	0	706740224	45	4182
2026-01-22 05:08:34.41	357.36	16.54	-38.0	-39.0	20.5	0.00e+00	0	38	0	714080256	45	4265
2026-01-22 05:08:35.41	357.23	16.64	-37.9	-38.9	20.7	0.00e+00	0	38	0	721420288	45	4223
2026-01-22 05:08:36.40	357.11	16.73	-37.9	-38.9	20.6	0.00e+00	0	38	0	728760320	45	4208
2026-01-22 05:08:37.40	356.98	16.83	-38.0	-39.0	20.6	0.00e+00	0	38	0	736100352	45	4276
2026-01-22 05:08:38.39	356.85	16.92	-38.2	-39.2	20.4	0.00e+00	0	38	0	743440384	45	4370
2026-01-22 05:08:39.39	356.73	17.01	-38.0	-39.0	20.5	0.00e+00	0	38	0	749731840	45	4265
2026-01-22 05:08:40.38	356.60	17.11	-37.9	-38.9	20.7	0.00e+00	0	38	0	757071872	45	4211
2026-01-22 05:08:41.38	356.47	17.20	-37.9	-38.9	20.6	0.00e+00	0	38	0	764411904	45	4227
2026-01-22 05:08:42.38	356.34	17.30	-37.8	-38.8	20.7	0.00e+00	0	38	0	771751936	45	4169
2026-01-22 05:08:43.37	356.21	17.39	-37.8	-38.8	20.8	0.00e+00	0	38	0	779091968	45	4177
2026-01-22 05:08:44.37	356.08	17.49	-37.8	-38.8	20.8	0.00e+00	0	38	0	785383424	45	4157
2026-01-22 05:08:45.44	355.93	17.59	-37.7	-38.6	20.9	0.00e+00	0	38	0	793772032	45	4084
2026-01-22 05:08:46.34	355.81	17.68	-37.6	-38.6	21.0	0.00e+00	0	38	0	800063488	45	4059
2026-01-22 05:08:47.44	355.66	17.79	-37.6	-38.5	21.0	0.00e+00	0	38	0	808452096	45	4031
2026-01-22 05:08:48.29	355.55	17.87	-37.6	-38.5	21.0	0.00e+00	0	38	0	814743552	45	4037
2026-01-22 05:08:49.43	355.39	17.98	-37.7	-38.6	21.0	0.00e+00	0	38	0	822083584	45	4076
2026-01-22 05:08:50.28	355.28	18.06	-37.6	-38.6	21.0	0.00e+00	0	38	0	828375040	45	4054
2026-01-22 05:08:51.42	355.12	18.17	-37.7	-38.7	20.9	0.00e+00	0	38	0	836763648	45	4099
2026-01-22 05:08:52.28	355.00	18.26	-37.6	-38.6	21.0	0.00e+00	0	38	0	843055104	45	4067
2026-01-22 05:08:53.41	354.84	18.37	-37.6	-38.5	21.1	0.00e+00	0	38	0	851443712	45	4031
2026-01-22 05:08:54.27	354.72	18.45	-37.6	-38.6	21.0	0.00e+00	0	38	0	857735168	45	4064
2026-01-22 05:08:55.40	354.56	18.57	-37.5	-38.5	21.0	0.00e+00	0	38	0	866123776	45	4023
2026-01-22 05:08:56.25	354.43	18.65	-37.6	-38.5	21.0	0.00e+00	0	38	0	871366656	45	4047
2026-01-22 05:08:57.39	354.27	18.76	-37.6	-38.5	21.1	0.00e+00	0	38	0	879755264	45	4036
2026-01-22 05:08:58.25	354.15	18.85	-37.6	-38.5	21.0	0.00e+00	0	38	0	886046720	45	4049
2026-01-22 05:08:59.38	353.98	18.96	-37.8	-38.8	20.8	0.00e+00	0	38	0	894435328	45	4166
2026-01-22 05:09:00.24	353.85	19.05	-37.6	-38.6	21.0	0.00e+00	0	38	0	900726784	45	4067
2026-01-22 05:09:01.37	353.69	19.16	-37.4	-38.3	21.2	0.00e+00	0	38	0	909115392	45	3951
2026-01-22 05:09:02.23	353.56	19.24	-37.3	-38.2	21.3	0.00e+00	0	38	0	914358272	45	3907
2026-01-22 05:09:03.37	353.39	19.36	-37.3	-38.2	21.3	0.00e+00	0	38	0	922746880	45	3902
2026-01-22 05:09:04.22	353.26	19.44	-37.2	-38.1	21.5	0.00e+00	0	38	0	929038336	45	3834
2026-01-22 05:09:05.60	353.05	19.58	-37.2	-38.1	21.4	0.00e+00	0	38	0	939524096	44	4091
2026-01-22 05:09:06.31	352.94	19.65	-37.2	-38.1	21.5	0.00e+00	0	38	0	944766976	44	4054
2026-01-22 05:09:07.59	352.74	19.78	-36.8	-37.7	21.8	0.00e+00	0	38	0	954204160	44	3894
2026-01-22 05:09:08.31	352.63	19.86	-36.8	-37.7	21.8	0.00e+00	0	38	0	958398464	44	3905
2026-01-22 05:09:09.59	352.43	19.99	-36.7	-37.6	21.9	0.00e+00	0	38	0	967835648	44	3845
2026-01-22 05:09:10.31	352.32	20.06	-36.7	-37.6	21.7	0.00e+00	0	38	0	973078528	43	4072
2026-01-22 05:09:11.58	352.12	20.19	-36.6	-37.5	21.8	0.00e+00	0	38	0	982515712	43	4033
2026-01-22 05:09:12.33	352.00	20.26	-36.7	-37.5	21.8	0.00e+00	0	38	0	987758592	43	4046
2026-01-22 05:09:13.61	351.79	20.39	-36.7	-37.6	21.7	0.00e+00	0	38	0	997195776	43	4084
2026-01-22 05:09:14.33	351.67	20.47	-36.8	-37.7	21.6	0.00e+00	0	38	0	1002438656	43	4115
2026-01-22 05:09:15.61	351.47	20.60	-36.9	-37.8	21.6	0.00e+00	0	38	0	1011875840	43	4177
2026-01-22 05:09:16.32	351.35	20.67	-37.0	-37.9	21.5	0.00e+00	0	38	0	1016070144	43	4208
2026-01-22 05:09:17.60	351.14	20.80	-37.0	-37.9	21.5	0.00e+00	0	38	0	1025507328	43	4238
2026-01-22 05:09:18.31	351.02	20.88	-37.1	-38.0	21.4	0.00e+00	0	38	0	1030750208	43	4269
2026-01-22 05:09:19.62	350.80	21.01	-37.2	-38.1	21.4	0.00e+00	0	38	0	1040187392	43	4300
2026-01-22 05:09:20.33	350.68	21.09	-37.0	-37.9	21.7	0.00e+00	0	38	0	1045430272	44	3991
2026-01-22 05:09:21.61	350.46	21.22	-37.3	-38.2	21.4	0.00e+00	0	38	0	1054867456	44	4118
2026-01-22 05:09:22.67	350.28	21.33	-37.3	-38.2	21.4	0.00e+00	0	38	0	1062207488	44	4119
2026-01-22 05:09:23.86	350.08	21.45	-37.2	-38.1	21.5	0.00e+00	0	38	0	1070596096	44	4082
2026-01-22 05:09:24.83	349.91	21.55	-37.2	-38.1	21.5	0.00e+00	0	38	0	1077936128	44	4077
2026-01-22 05:09:25.98	349.71	21.67	-37.1	-38.0	21.6	0.00e+00	0	38	0	1086324736	44	4031
2026-01-22 05:09:26.86	349.55	21.76	-37.1	-38.0	21.5	0.00e+00	0	38	0	1092616192	44	4049
2026-01-22 05:09:28.00	349.35	21.88	-37.1	-38.0	21.6	0.00e+00	0	38	0	1101004800	44	4021
2026-01-22 05:09:28.85	349.20	21.97	-37.1	-38.0	21.6	0.00e+00	0	38	0	1107296256	44	4023
2026-01-22 05:09:29.99	348.99	22.09	-37.0	-37.9	21.7	0.00e+00	0	38	0	1115684864	44	3982
2026-01-22 05:09:30.84	348.84	22.18	-36.9	-37.8	21.7	0.00e+00	0	38	0	1121976320	44	3947
2026-01-22 05:09:31.98	348.63	22.30	-37.0	-37.9	21.7	0.00e+00	0	38	0	1129316352	44	3978
2026-01-22 05:09:32.83	348.48	22.39	-37.0	-37.9	21.6	0.00e+00	0	38	0	1135607808	44	3996
2026-01-22 05:09:33.97	348.26	22.51	-37.1	-38.0	21.6	0.00e+00	0	38	0	1143996416	44	4012
2026-01-22 05:09:34.82	348.11	22.60	-37.0	-37.9	21.7	0.00e+00	0	38	0	1150287872	44	3961
2026-01-22 05:09:35.96	347.89	22.72	-37.0	-38.0	21.6	0.00e+00	0	38	0	1158676480	44	4012
2026-01-22 05:09:36.81	347.73	22.81	-36.8	-37.8	21.8	0.00e+00	0	38	0	1164967936	44	3920
2026-01-22 05:09:37.95	347.52	22.93	-36.8	-37.7	21.8	0.00e+00	0	38	0	1172307968	44	3907
2026-01-22 05:09:38.80	347.35	23.02	-36.8	-37.7	21.9	0.00e+00	0	38	0	1178599424	44	3885
2026-01-22 05:09:39.94	347.13	23.14	-36.7	-37.7	21.9	0.00e+00	0	38	0	1186988032	44	3875
2026-01-22 05:09:40.79	346.97	23.23	-36.8	-37.7	21.8	0.00e+00	0	38	0	1193279488	44	3899
2026-01-22 05:09:42.15	346.70	23.37	-36.9	-37.9	21.7	0.00e+00	0	38	0	1202716672	44	3959
2026-01-22 05:09:42.86	346.56	23.45	-36.9	-37.8	21.7	0.00e+00	0	38	0	1207959552	44	3958
2026-01-22 05:09:44.14	346.31	23.58	-36.9	-37.8	21.8	0.00e+00	0	38	0	1217396736	44	3933
2026-01-22 05:09:44.85	346.17	23.66	-36.8	-37.7	21.8	0.00e+00	0	38	0	1222639616	44	3898
2026-01-22 05:09:46.13	345.91	23.79	-36.9	-37.8	21.8	0.00e+00	0	38	0	1232076800	44	3923
2026-01-22 05:09:46.92	345.75	23.88	-36.8	-37.7	21.8	0.00e+00	0	38	0	1237319680	44	3897
2026-01-22 05:09:48.10	345.51	24.00	-36.7	-37.6	21.9	0.00e+00	0	38	0	1245708288	44	3851
2026-01-22 05:09:48.96	345.33	24.09	-36.4	-37.3	22.1	0.00e+00	0	38	0	1251999744	43	3925
2026-01-22 05:09:50.09	345.10	24.21	-36.3	-37.2	22.2	0.00e+00	0	38	0	1260388352	43	3870
2026-01-22 05:09:50.94	344.92	24.30	-36.2	-37.1	22.2	0.00e+00	0	38	0	1266679808	43	3852
2026-01-22 05:09:52.08	344.69	24.42	-36.1	-37.0	22.3	0.00e+00	0	38	0	1275068416	42	4013
2026-01-22 05:09:52.93	344.51	24.51	-36.0	-36.9	22.4	0.00e+00	0	38	0	1280311296	42	3982
2026-01-22 05:09:54.07	344.26	24.64	-35.9	-36.8	22.5	0.00e+00	0	38	0	1288699904	42	3938
2026-01-22 05:09:55.24	344.01	24.76	-36.1	-36.9	22.4	0.00e+00	0	38	0	1297088512	42	3990
2026-01-22 05:09:56.09	343.83	24.85	-36.0	-36.8	22.5	0.00e+00	0	38	0	1303379968	42	3940
2026-01-22 05:09:57.23	343.58	24.97	-36.0	-36.8	22.5	0.00e+00	0	38	0	1311768576	42	3950
2026-01-22 05:09:58.30	343.35	25.09	-36.0	-36.8	22.5	0.00e+00	0	38	0	1320157184	42	3954
2026-01-22 05:09:59.33	343.12	25.19	-35.9	-36.8	22.5	0.00e+00	0	38	0	1326448640	42	3914
2026-01-22 05:10:00.32	342.90	25.30	-36.1	-36.9	22.4	0.00e+00	0	38	0	1333788672	42	3991
2026-01-22 05:10:01.32	342.68	25.41	-36.0	-36.9	22.4	0.00e+00	0	38	0	1341128704	42	3960
2026-01-22 05:10:02.31	342.46	25.51	-36.0	-36.9	22.4	0.00e+00	0	38	0	1348468736	42	3986
2026-01-22 05:10:03.31	342.23	25.62	-36.1	-37.0	22.3	0.00e+00	0	38	0	1355808768	42	4022
2026-01-22 05:10:04.30	342.01	25.72	-36.0	-36.9	22.4	0.00e+00	0	38	0	1363148800	42	3975
2026-01-22 05:10:05.29	341.78	25.83	-36.1	-37.0	22.3	0.00e+00	0	38	0	1370488832	42	4009
2026-01-22 05:10:06.29	341.55	25.93	-36.0	-36.9	22.4	0.00e+00	0	38	0	1377828864	42	3972
2026-01-22 05:10:07.29	341.32	26.04	-36.0	-36.8	22.5	0.00e+00	0	38	0	1384120320	42	3953
2026-01-22 05:10:08.28	341.09	26.14	-36.1	-36.9	22.4	0.00e+00	0	38	0	1391460352	42	3997
2026-01-22 05:10:09.27	340.85	26.25	-36.1	-36.9	22.4	0.00e+00	0	38	0	1398800384	42	3996
2026-01-22 05:10:10.27	340.62	26.35	-36.1	-37.0	22.3	0.00e+00	0	38	0	1406140416	42	4024
2026-01-22 05:10:11.27	340.38	26.46	-36.2	-37.1	22.3	0.00e+00	0	38	0	1413480448	42	4055
2026-01-22 05:10:12.35	340.12	26.57	-36.2	-37.1	22.2	0.00e+00	0	38	0	1420820480	42	4081
2026-01-22 05:10:13.24	339.90	26.66	-36.3	-37.2	22.2	0.00e+00	0	38	0	1427111936	42	4109
2026-01-22 05:10:14.38	339.62	26.78	-36.3	-37.2	22.2	0.00e+00	0	38	0	1435500544	42	4109
2026-01-22 05:10:15.23	339.42	26.87	-36.3	-37.2	22.1	0.00e+00	0	38	0	1441792000	42	4100
2026-01-22 05:10:16.37	339.13	26.99	-36.3	-37.2	22.1	0.00e+00	0	38	0	1450180608	42	4142
2026-01-22 05:10:17.22	338.92	27.08	-36.4	-37.4	22.0	0.00e+00	0	38	0	1456472064	42	4203
2026-01-22 05:10:18.36	338.64	27.20	-36.4	-37.3	22.1	0.00e+00	0	38	0	1464860672	42	4163
2026-01-22 05:10:19.21	338.42	27.29	-36.4	-37.3	22.1	0.00e+00	0	38	0	1470103552	42	4183
2026-01-22 05:10:20.35	338.13	27.41	-36.2	-37.1	22.2	0.00e+00	0	38	0	1478492160	42	4077
2026-01-22 05:10:21.20	337.92	27.49	-36.3	-37.2	22.2	0.00e+00	0	38	0	1484783616	42	4105
2026-01-22 05:10:22.34	337.63	27.61	-36.3	-37.2	22.2	0.00e+00	0	38	0	1493172224	42	4102
2026-01-22 05:10:23.19	337.41	27.70	-36.4	-37.2	22.1	0.00e+00	0	38	0	1499463680	42	4136
2026-01-22 05:10:24.37	337.10	27.82	-36.4	-37.3	22.1	0.00e+00	0	38	0	1507852288	42	4153
2026-01-22 05:10:25.23	336.87	27.91	-36.3	-37.2	22.1	0.00e+00	0	38	0	1514143744	42	4118
2026-01-22 05:10:26.36	336.58	28.02	-36.4	-37.2	22.1	0.00e+00	0	38	0	1522532352	42	4137
2026-01-22 05:10:27.21	336.35	28.11	-36.5	-37.4	21.6	0.00e+00	0	38	0	1528823808	42	4215
2026-01-22 05:10:28.46	336.02	28.23	-36.6	-37.5	21.9	0.00e+00	0	38	0	1537212416	42	4243
2026-01-22 05:10:29.31	335.79	28.32	-36.4	-37.3	22.1	0.00e+00	0	38	0	1543503872	42	4153
2026-01-22 05:10:30.45	335.48	28.44	-36.3	-37.2	22.2	0.00e+00	0	38	0	1551892480	42	4111
2026-01-22 05:10:31.30	335.25	28.52	-36.3	-37.1	22.2	0.00e+00	0	38	0	1558183936	42	4095
2026-01-22 05:10:32.58	334.90	28.65	-36.2	-37.0	22.3	0.00e+00	0	38	0	1566572544	42	4048
2026-01-22 05:10:33.29	334.70	28.72	-36.1	-37.0	22.3	0.00e+00	0	38	0	1572864000	42	4028
2026-01-22 05:10:34.79	334.28	28.87	-35.9	-36.8	22.5	0.00e+00	0	38	0	1583349760	42	3930
2026-01-22 05:10:35.50	334.09	28.94	-35.9	-36.8	22.5	0.00e+00	0	38	0	1588592640	42	3921
2026-01-22 05:10:36.78	333.73	29.06	-36.0	-36.9	22.4	0.00e+00	0	38	0	1596981248	42	3989
2026-01-22 05:10:37.51	333.52	29.14	-35.9	-36.8	22.5	0.00e+00	0	38	0	1602224128	42	3951
2026-01-22 05:10:38.79	333.15	29.26	-35.8	-36.7	22.6	0.00e+00	0	38	0	1611661312	42	3881
2026-01-22 05:10:39.50	332.95	29.33	-35.8	-36.7	22.5	0.00e+00	0	38	0	1616904192	42	3890
2026-01-22 05:10:40.78	332.58	29.45	-35.9	-36.8	22.5	0.00e+00	0	38	0	1626341376	42	3941
2026-01-22 05:10:41.52	332.37	29.52	-36.0	-36.8	22.5	0.00e+00	0	38	0	1631584256	42	3951
2026-01-22 05:10:42.80	331.99	29.65	-36.0	-36.9	22.4	0.00e+00	0	38	0	1641021440	42	3969
2026-01-22 05:10:43.51	331.78	29.71	-35.9	-36.8	22.5	0.00e+00	0	38	0	1646264320	42	3932
2026-01-22 05:10:44.79	331.41	29.83	-35.9	-36.8	22.5	0.00e+00	0	38	0	1655701504	42	3916
2026-01-22 05:10:45.58	331.17	29.91	-35.9	-36.7	22.6	0.00e+00	0	38	0	1660944384	42	3898
2026-01-22 05:10:46.75	330.82	30.02	-36.1	-36.9	22.4	0.00e+00	0	38	0	1669332992	42	3990
2026-01-22 05:10:47.61	330.56	30.10	-36.2	-37.1	22.2	0.00e+00	0	38	0	1675624448	42	4068
2026-01-22 05:10:49.08	330.12	30.23	-36.3	-37.2	22.1	0.00e+00	0	38	0	1686110208	42	4127
2026-01-22 05:10:49.79	329.90	30.30	-36.3	-37.2	22.2	0.00e+00	0	38	0	1691353088	42	4112
2026-01-22 05:10:51.07	329.51	30.41	-36.1	-37.0	22.3	0.00e+00	0	38	0	1700790272	42	4042
2026-01-22 05:10:51.81	329.28	30.48	-36.2	-37.1	22.3	0.00e+00	0	38	0	1706033152	42	4061
2026-01-22 05:10:53.08	328.89	30.59	-35.9	-36.8	22.5	0.00e+00	0	38	0	1714421760	42	3923
2026-01-22 05:10:53.84	328.65	30.66	-35.8	-36.7	22.6	0.00e+00	0	38	0	1720713216	42	3887
2026-01-22 05:10:55.12	328.25	30.77	-35.9	-36.7	22.6	0.00e+00	0	38	0	1730150400	42	3896
2026-01-22 05:10:55.84	328.02	30.84	-35.9	-36.7	22.6	0.00e+00	0	38	0	1735393280	42	3892
2026-01-22 05:10:57.12	327.62	30.95	-35.7	-36.6	22.7	0.00e+00	0	38	0	1743781888	42	3828
2026-01-22 05:10:57.88	327.38	31.01	-35.7	-36.6	22.7	0.00e+00	0	38	0	1750073344	42	3836
2026-01-22 05:10:59.16	326.97	31.12	-35.7	-36.6	22.7	0.00e+00	0	38	0	1758461952	42	3831
2026-01-22 05:10:59.90	326.73	31.18	-35.8	-36.7	22.6	0.00e+00	0	38	0	1764753408	42	3869
2026-01-22 05:11:01.18	326.31	31.29	-35.7	-36.6	22.7	0.00e+00	0	38	0	1773142016	42	3833
2026-01-22 05:11:01.90	326.08	31.35	-35.8	-36.6	22.7	0.00e+00	0	38	0	1778384896	42	3843
2026-01-22 05:11:03.18	325.66	31.45	-35.7	-36.5	22.7	0.00e+00	0	38	0	1787822080	42	3805
2026-01-22 05:11:03.89	325.43	31.51	-35.7	-36.6	22.7	0.00e+00	0	38	0	1793064960	42	3835
2026-01-22 05:11:05.17	325.00	31.61	-35.9	-36.8	22.5	0.00e+00	0	38	0	1802502144	42	3914
2026-01-22 05:11:05.90	324.76	31.67	-35.9	-36.8	22.5	0.00e+00	0	38	0	1807745024	42	3920
2026-01-22 05:11:07.18	324.33	31.77	-35.9	-36.7	22.6	0.00e+00	0	38	0	1817182208	42	3904
2026-01-22 05:11:07.90	324.09	31.83	-35.8	-36.7	22.6	0.00e+00	0	38	0	1822425088	42	3885
2026-01-22 05:11:09.21	323.65	31.93	-35.6	-36.5	22.7	0.00e+00	0	38	0	1831862272	42	3799
2026-01-22 05:11:09.92	323.41	31.98	-35.4	-36.3	22.9	0.00e+00	0	38	0	1836056576	41	3914
2026-01-22 05:11:11.21	322.97	32.08	-35.5	-36.3	22.9	0.00e+00	0	38	0	1845493760	41	3945
2026-01-22 05:11:12.25	322.62	32.15	-35.3	-36.1	23.0	0.00e+00	0	38	0	1853882368	41	3853
2026-01-22 05:11:13.50	322.19	32.25	-35.3	-36.1	23.1	0.00e+00	0	38	0	1862270976	41	3850
2026-01-22 05:11:14.41	321.87	32.31	-35.3	-36.1	23.1	0.00e+00	0	38	0	1868562432	41	3848
2026-01-22 05:11:15.58	321.47	32.39	-35.4	-36.3	22.9	0.00e+00	0	38	0	1876951040	41	3917
2026-01-22 05:11:16.43	321.17	32.45	-35.5	-36.3	22.8	0.00e+00	0	38	0	1883242496	41	3955
2026-01-22 05:11:17.57	320.77	32.53	-35.6	-36.4	22.8	0.00e+00	0	38	0	1891631104	41	3994
2026-01-22 05:11:18.42	320.47	32.59	-35.6	-36.4	22.8	0.00e+00	0	38	0	1897922560	41	4001
2026-01-22 05:11:19.56	320.07	32.66	-35.6	-36.4	22.7	0.00e+00	0	38	0	1906311168	41	3997
2026-01-22 05:11:20.41	319.77	32.72	-35.6	-36.4	22.8	0.00e+00	0	38	0	1912602624	41	3981
2026-01-22 05:11:21.54	319.37	32.79	-35.7	-36.6	22.7	0.00e+00	0	38	0	1920991232	41	4068
2026-01-22 05:11:22.40	319.06	32.84	-35.6	-36.4	22.8	0.00e+00	0	38	0	1927282688	41	3990
2026-01-22 05:11:23.54	318.65	32.91	-35.5	-36.4	22.8	0.00e+00	0	38	0	1934622720	41	3986
2026-01-22 05:11:24.39	318.34	32.96	-35.4	-36.2	23.0	0.00e+00	0	38	0	1940914176	41	3899
2026-01-22 05:11:25.53	317.93	33.03	-35.3	-36.2	22.9	0.00e+00	0	38	0	1949302784	41	3896
2026-01-22 05:11:26.38	317.62	33.08	-35.3	-36.2	23.0	0.00e+00	0	38	0	1955594240	41	3872
2026-01-22 05:11:27.52	317.21	33.15	-35.3	-36.2	23.0	0.00e+00	0	38	0	1963982848	41	3874
2026-01-22 05:11:28.37	316.90	33.19	-35.4	-36.2	23.0	0.00e+00	0	38	0	1969225728	41	3883
2026-01-22 05:11:29.62	316.44	33.26	-35.5	-36.3	22.9	0.00e+00	0	38	0	1978662912	41	3938
2026-01-22 05:11:30.47	316.13	33.31	-35.5	-36.3	22.9	0.00e+00	0	38	0	1984954368	41	3948
2026-01-22 05:11:31.61	315.71	33.37	-35.4	-36.3	22.9	0.00e+00	0	38	0	1993342976	41	3915
2026-01-22 05:11:32.46	315.39	33.41	-35.6	-36.4	22.8	0.00e+00	0	38	0	1999634432	41	3990
2026-01-22 05:11:33.59	314.97	33.47	-35.6	-36.4	22.8	0.00e+00	0	38	0	2008023040	41	3989
2026-01-22 05:11:34.45	314.65	33.51	-35.6	-36.4	22.8	0.00e+00	0	38	0	2013265920	41	4001
2026-01-22 05:11:35.58	314.23	33.56	-35.6	-36.4	22.8	0.00e+00	0	38	0	2021654528	41	3986
2026-01-22 05:11:36.43	313.91	33.60	-35.6	-36.4	22.8	0.00e+00	0	38	0	2027945984	41	4004
2026-01-22 05:11:37.57	313.48	33.65	-35.4	-36.2	23.0	0.00e+00	0	38	0	2036334592	41	3911
2026-01-22 05:11:38.42	313.16	33.69	-35.4	-36.2	23.0	0.00e+00	0	38	0	2042626048	41	3879
2026-01-22 05:11:39.56	312.73	33.73	-35.7	-36.5	22.7	0.00e+00	0	38	0	2051014656	41	4034
2026-01-22 05:11:40.41	312.41	33.77	-35.4	-36.2	23.0	0.00e+00	0	38	0	2056257536	41	3883
2026-01-22 05:11:41.55	311.98	33.81	-35.4	-36.2	23.0	0.00e+00	0	38	0	2064646144	41	3897
2026-01-22 05:11:42.41	311.65	33.84	-35.4	-36.2	23.0	0.00e+00	0	38	0	2070937600	41	3879
2026-01-22 05:11:43.54	311.22	33.88	-35.3	-36.2	23.0	0.00e+00	0	38	0	2079326208	41	3878
2026-01-22 05:11:44.40	310.89	33.91	-35.4	-36.2	23.0	0.00e+00	0	38	0	2085617664	41	3893
2026-01-22 05:11:45.53	310.46	33.95	-35.4	-36.2	23.0	0.00e+00	0	38	0	2094006272	41	3902
2026-01-22 05:11:46.38	310.13	33.98	-35.5	-36.3	22.9	0.00e+00	0	38	0	2099249152	41	3951
2026-01-22 05:11:47.62	309.65	34.02	-35.4	-36.2	22.9	0.00e+00	0	38	0	2108686336	41	3911
2026-01-22 05:11:48.47	309.33	34.04	-35.5	-36.3	22.9	0.00e+00	0	38	0	2114977792	41	3943
2026-01-22 05:11:49.60	308.89	34.07	-35.4	-36.2	23.0	0.00e+00	0	38	0	2123366400	41	3890
2026-01-22 05:11:50.46	308.56	34.10	-35.4	-36.2	23.0	0.00e+00	0	38	0	2129657856	41	3888
2026-01-22 05:11:51.60	308.11	34.12	-35.4	-36.3	22.9	0.00e+00	0	38	0	2138046464	41	3923
2026-01-22 05:11:52.45	307.79	34.14	-35.7	-36.5	22.7	0.00e+00	0	38	0	2143289344	41	4032
2026-01-22 05:11:53.59	307.34	34.17	-35.7	-36.5	22.7	0.00e+00	0	38	0	2151677952	41	4024
2026-01-22 05:11:54.44	307.01	34.18	-35.7	-36.6	22.7	0.00e+00	0	38	0	2157969408	41	4063
2026-01-22 05:11:55.58	306.57	34.21	-35.8	-36.6	22.6	0.00e+00	0	38	0	2166358016	41	4082
2026-01-22 05:11:56.43	306.24	34.22	-35.7	-36.5	22.7	0.00e+00	0	38	0	2172649472	41	4027
2026-01-22 05:11:57.57	305.79	34.24	-35.6	-36.4	22.8	0.00e+00	0	38	0	2181038080	41	4004
2026-01-22 05:11:58.42	305.46	34.25	-35.5	-36.3	22.9	0.00e+00	0	38	0	2186280960	41	3946
2026-01-22 05:11:59.56	305.01	34.26	-35.4	-36.2	23.0	0.00e+00	0	38	0	2194669568	41	3911
2026-01-22 05:12:00.41	304.68	34.27	-35.5	-36.3	22.8	0.00e+00	0	38	0	2200961024	41	3950
2026-01-22 05:12:01.55	304.23	34.28	-35.3	-36.1	23.1	0.00e+00	0	38	0	2209349632	41	3844
2026-01-22 05:12:02.40	303.90	34.29	-35.4	-36.2	23.0	0.00e+00	0	38	0	2215641088	41	3889
2026-01-22 05:12:03.54	303.45	34.30	-35.4	-36.2	23.0	0.00e+00	0	38	0	2224029696	41	3891
2026-01-22 05:12:04.39	303.12	34.30	-35.3	-36.1	23.0	0.00e+00	0	38	0	2230321152	41	3864
2026-01-22 05:12:05.61	302.64	34.31	-35.5	-36.3	22.9	0.00e+00	0	38	0	2238709760	41	3950
2026-01-22 05:12:06.46	302.31	34.31	-35.4	-36.2	22.9	0.00e+00	0	38	0	2245001216	41	3906
2026-01-22 05:12:07.60	301.86	34.31	-35.3	-36.1	23.0	0.00e+00	0	38	0	2253389824	41	3859
2026-01-22 05:12:08.45	301.53	34.31	-35.4	-36.2	22.9	0.00e+00	0	38	0	2259681280	41	3904
2026-01-22 05:12:09.59	301.08	34.31	-35.5	-36.4	22.9	0.00e+00	0	38	0	2267021312	41	3962
2026-01-22 05:12:10.44	300.75	34.30	-35.6	-36.5	22.8	0.00e+00	0	38	0	2273312768	41	4006
2026-01-22 05:12:11.58	300.30	34.30	-35.7	-36.5	22.7	0.00e+00	0	38	0	2281701376	41	4040
2026-01-22 05:12:12.43	299.97	34.29	-35.6	-36.4	22.8	0.00e+00	0	38	0	2287992832	41	3988
2026-01-22 05:12:13.57	299.52	34.28	-35.8	-36.7	22.6	0.00e+00	0	38	0	2296381440	41	4105
2026-01-22 05:12:14.42	299.19	34.27	-35.7	-36.5	22.7	0.00e+00	0	38	0	2302672896	41	4042
2026-01-22 05:12:15.55	298.75	34.26	-35.7	-36.5	22.7	0.00e+00	0	38	0	2310012928	41	4020
2026-01-22 05:12:16.41	298.41	34.25	-35.5	-36.3	22.9	0.00e+00	0	38	0	2316304384	41	3958
2026-01-22 05:12:17.54	297.97	34.23	-35.6	-36.4	22.8	0.00e+00	0	38	0	2324692992	41	4001
2026-01-22 05:12:18.40	297.63	34.22	-35.6	-36.5	22.7	0.00e+00	0	38	0	2330984448	41	4014
2026-01-22 05:12:19.53	297.19	34.20	-35.5	-36.4	22.8	0.00e+00	0	38	0	2339373056	41	3959
2026-01-22 05:12:20.39	296.86	34.18	-35.7	-36.5	22.7	0.00e+00	0	38	0	2344615936	41	4025
2026-01-22 05:12:21.52	296.42	34.16	-35.8	-36.6	22.6	0.00e+00	0	38	0	2353004544	41	4091
2026-01-22 05:12:22.37	296.09	34.14	-35.8	-36.6	22.7	0.00e+00	0	38	0	2359296000	41	4071
2026-01-22 05:12:23.54	295.63	34.11	-35.6	-36.4	22.8	0.00e+00	0	38	0	2368733184	41	3981
2026-01-22 05:12:24.39	295.30	34.09	-35.4	-36.2	22.9	0.00e+00	0	38	0	2373976064	41	3908
2026-01-22 05:12:25.66	294.81	34.06	-35.3	-36.2	23.0	0.00e+00	0	38	0	2383413248	41	3877
2026-01-22 05:12:26.47	294.50	34.03	-35.3	-36.1	23.0	0.00e+00	0	38	0	2388656128	41	3865
2026-01-22 05:12:27.61	294.06	34.00	-35.3	-36.1	23.0	0.00e+00	0	38	0	2397044736	41	3855
2026-01-22 05:12:28.47	293.73	33.97	-35.3	-36.2	23.0	0.00e+00	0	38	0	2403336192	41	3874
2026-01-22 05:12:29.60	293.30	33.94	-35.3	-36.1	23.0	0.00e+00	0	38	0	2411724800	41	3854
2026-01-22 05:12:30.46	292.97	33.91	-35.4	-36.3	22.9	0.00e+00	0	38	0	2418016256	41	3920
2026-01-22 05:12:31.59	292.53	33.87	-35.3	-36.1	23.1	0.00e+00	0	38	0	2426404864	41	3832
2026-01-22 05:12:32.56	292.16	33.83	-35.4	-36.2	23.0	0.00e+00	0	38	0	2432696320	41	3880
2026-01-22 05:12:33.55	291.79	33.79	-35.3	-36.1	23.1	0.00e+00	0	38	0	2440036352	41	3832
2026-01-22 05:12:34.55	291.41	33.75	-35.4	-36.2	23.0	0.00e+00	0	38	0	2447376384	41	3907
2026-01-22 05:12:35.54	291.03	33.71	-35.5	-36.3	22.9	0.00e+00	0	38	0	2454716416	41	3939
2026-01-22 05:12:36.54	290.65	33.67	-35.6	-36.4	22.8	0.00e+00	0	38	0	2462056448	41	3981
2026-01-22 05:12:37.53	290.28	33.63	-35.6	-36.4	22.8	0.00e+00	0	38	0	2469396480	41	3978
2026-01-22 05:12:38.53	289.91	33.58	-35.5	-36.3	22.9	0.00e+00	0	38	0	2475687936	41	3925
2026-01-22 05:12:39.52	289.53	33.54	-35.3	-36.1	23.0	0.00e+00	0	38	0	2483027968	41	3863
2026-01-22 05:12:40.52	289.16	33.49	-35.3	-36.1	23.1	0.00e+00	0	38	0	2490368000	41	3849
2026-01-22 05:12:41.51	288.79	33.44	-35.4	-36.2	23.0	0.00e+00	0	38	0	2497708032	41	3887
2026-01-22 05:12:42.51	288.42	33.39	-35.3	-36.1	23.1	0.00e+00	0	38	0	2505048064	41	3840
2026-01-22 05:12:43.51	288.05	33.34	-35.4	-36.3	22.9	0.00e+00	0	38	0	2512388096	41	3916
2026-01-22 05:12:44.50	287.68	33.29	-35.5	-36.3	22.9	0.00e+00	0	38	0	2519728128	41	3929
2026-01-22 05:12:45.49	287.32	33.23	-35.5	-36.3	22.9	0.00e+00	0	38	0	2527068160	41	3927
2026-01-22 05:12:46.49	286.95	33.18	-35.5	-36.3	22.9	0.00e+00	0	38	0	2534408192	41	3921
2026-01-22 05:12:47.49	286.59	33.12	-35.5	-36.3	22.9	0.00e+00	0	38	0	2540699648	41	3957
2026-01-22 05:12:48.48	286.23	33.07	-35.4	-36.2	23.0	0.00e+00	0	38	0	2548039680	41	3880
2026-01-22 05:12:49.48	285.86	33.01	-35.4	-36.3	22.9	0.00e+00	0	38	0	2555379712	41	3917
2026-01-22 05:12:50.47	285.50	32.95	-35.4	-36.2	22.9	0.00e+00	0	38	0	2562719744	41	3904
2026-01-22 05:12:51.46	285.15	32.89	-35.5	-36.3	22.9	0.00e+00	0	38	0	2570059776	41	3928
2026-01-22 05:12:52.46	284.79	32.83	-35.6	-36.4	22.7	0.00e+00	0	38	0	2576351232	41	3965
2026-01-22 05:12:53.45	284.43	32.76	-35.6	-36.4	22.8	0.00e+00	0	38	0	2583691264	41	3990
2026-01-22 05:12:54.45	284.08	32.70	-35.7	-36.5	22.7	0.00e+00	0	38	0	2591031296	41	4021
2026-01-22 05:12:55.44	283.73	32.63	-35.6	-36.4	22.8	0.00e+00	0	38	0	2598371328	41	3989
2026-01-22 05:12:56.44	283.37	32.57	-35.6	-36.4	22.8	0.00e+00	0	38	0	2605711360	41	3971
2026-01-22 05:12:57.43	283.03	32.50	-35.6	-36.5	22.8	0.00e+00	0	38	0	2613051392	41	4014
2026-01-22 05:12:58.43	282.67	32.43	-35.5	-36.3	22.9	0.00e+00	0	38	0	2619342848	41	3939
2026-01-22 05:12:59.42	282.33	32.36	-35.4	-36.2	23.0	0.00e+00	0	38	0	2626682880	41	3883
2026-01-22 05:13:00.42	281.98	32.29	-35.3	-36.1	23.0	0.00e+00	0	38	0	2634022912	41	3842
2026-01-22 05:13:01.42	281.64	32.22	-35.3	-36.1	23.0	0.00e+00	0	38	0	2641362944	41	3845
2026-01-22 05:13:02.41	281.29	32.15	-35.3	-36.1	23.0	0.00e+00	0	38	0	2648702976	41	3857
2026-01-22 05:13:03.40	280.96	32.07	-35.3	-36.1	23.0	0.00e+00	0	38	0	2656043008	41	3843
2026-01-22 05:13:04.40	280.61	32.00	-35.3	-36.2	23.0	0.00e+00	0	38	0	2663383040	41	3879
2026-01-22 05:13:05.40	280.27	31.92	-35.5	-36.3	22.9	0.00e+00	0	38	0	2670723072	41	3933
2026-01-22 05:13:06.39	279.94	31.85	-35.4	-36.2	22.9	0.00e+00	0	38	0	2677014528	41	3902
2026-01-22 05:13:07.39	279.60	31.77	-35.3	-36.2	23.0	0.00e+00	0	38	0	2684354560	41	3869
2026-01-22 05:13:08.38	279.27	31.69	-35.5	-36.3	22.8	0.00e+00	0	38	0	2691694592	41	3926
2026-01-22 05:13:09.37	278.94	31.61	-35.5	-36.3	22.8	0.00e+00	0	38	0	2699034624	41	3946
2026-01-22 05:13:10.37	278.61	31.53	-35.6	-36.5	22.8	0.00e+00	0	38	0	2706374656	41	4008
2026-01-22 05:13:11.37	278.28	31.45	-35.7	-36.5	22.7	0.00e+00	0	38	0	2713714688	41	4033
2026-01-22 05:13:12.44	277.93	31.36	-35.7	-36.6	22.7	0.00e+00	0	38	0	2721054720	41	4057
2026-01-22 05:13:13.32	277.64	31.29	-35.6	-36.5	22.7	0.00e+00	0	38	0	2727346176	41	4008
2026-01-22 05:13:14.46	277.27	31.20	-35.7	-36.5	22.7	0.00e+00	0	38	0	2735734784	41	4022
2026-01-22 05:13:15.31	276.99	31.12	-35.5	-36.3	22.8	0.00e+00	0	38	0	2742026240	41	3957
2026-01-22 05:13:16.45	276.63	31.03	-35.5	-36.3	22.8	0.00e+00	0	38	0	2750414848	41	3954
2026-01-22 05:13:17.30	276.36	30.95	-35.6	-36.4	22.8	0.00e+00	0	38	0	2756706304	41	3986
2026-01-22 05:13:18.44	275.99	30.86	-35.5	-36.3	22.9	0.00e+00	0	38	0	2764046336	41	3943
2026-01-22 05:13:19.29	275.72	30.78	-35.5	-36.3	22.8	0.00e+00	0	38	0	2770337792	41	3953
2026-01-22 05:13:20.43	275.36	30.68	-35.5	-36.3	22.8	0.00e+00	0	38	0	2778726400	41	3934
2026-01-22 05:13:21.28	275.10	30.61	-35.5	-36.3	22.8	0.00e+00	0	38	0	2785017856	41	3949
2026-01-22 05:13:22.42	274.74	30.50	-35.6	-36.4	22.8	0.00e+00	0	38	0	2793406464	41	3972
2026-01-22 05:13:23.27	274.48	30.43	-35.6	-36.4	22.8	0.00e+00	0	38	0	2798649344	41	4003
2026-01-22 05:13:24.41	274.13	30.32	-35.6	-36.4	22.8	0.00e+00	0	38	0	2807037952	41	3975
2026-01-22 05:13:25.26	273.87	30.25	-35.6	-36.4	22.8	0.00e+00	0	38	0	2813329408	41	3973
2026-01-22 05:13:26.40	273.52	30.14	-35.6	-36.4	22.8	0.00e+00	0	38	0	2821718016	41	3979
2026-01-22 05:13:27.25	273.26	30.06	-35.7	-36.5	22.7	0.00e+00	0	38	0	2828009472	41	4034
2026-01-22 05:13:28.39	272.92	29.96	-35.6	-36.4	22.7	0.00e+00	0	38	0	2836398080	41	3997
2026-01-22 05:13:29.24	272.67	29.88	-35.6	-36.4	22.8	0.00e+00	0	38	0	2842689536	41	3981
2026-01-22 05:13:30.59	272.26	29.75	-35.6	-36.4	22.7	0.00e+00	0	38	0	2852126720	41	3997
2026-01-22 05:13:31.31	272.05	29.68	-35.6	-36.4	22.7	0.00e+00	0	38	0	2857369600	41	3982
2026-01-22 05:13:32.59	271.68	29.56	-35.6	-36.4	22.8	0.00e+00	0	38	0	2866806784	41	3990
2026-01-22 05:13:33.31	271.47	29.49	-35.6	-36.4	22.8	0.00e+00	0	38	0	2872049664	41	3993
2026-01-22 05:13:34.59	271.09	29.37	-35.6	-36.4	22.7	0.00e+00	0	38	0	2881486848	41	3996
2026-01-22 05:13:35.30	270.89	29.30	-35.6	-36.4	22.8	0.00e+00	0	38	0	2885681152	41	3981
2026-01-22 05:13:36.59	270.52	29.17	-35.7	-36.5	22.7	0.00e+00	0	38	0	2895118336	41	4023
2026-01-22 05:13:37.30	270.32	29.10	-35.6	-36.5	22.7	0.00e+00	0	38	0	2900361216	41	4021
2026-01-22 05:13:38.58	269.95	28.97	-35.6	-36.4	22.8	0.00e+00	0	38	0	2909798400	41	4001
2026-01-22 05:13:39.29	269.75	28.90	-35.6	-36.4	22.8	0.00e+00	0	38	0	2915041280	41	3986
2026-01-22 05:13:40.57	269.40	28.78	-35.6	-36.4	22.7	0.00e+00	0	38	0	2924478464	41	4003
2026-01-22 05:13:41.28	269.20	28.71	-35.6	-36.4	22.8	0.00e+00	0	38	0	2928672768	41	3998
2026-01-22 05:13:42.56	268.84	28.58	-35.5	-36.3	22.9	0.00e+00	0	38	0	2938109952	41	3929
2026-01-22 05:13:43.27	268.65	28.51	-35.5	-36.4	22.8	0.00e+00	0	38	0	2943352832	41	3967
2026-01-22 05:13:44.55	268.30	28.38	-35.5	-36.3	22.8	0.00e+00	0	38	0	2952790016	41	3957
2026-01-22 05:13:45.27	268.10	28.31	-35.6	-36.4	22.8	0.00e+00	0	38	0	2958032896	41	3979
2026-01-22 05:13:46.55	267.76	28.18	-35.7	-36.5	22.6	0.00e+00	0	38	0	2967470080	41	4024
2026-01-22 05:13:47.26	267.57	28.10	-35.8	-36.7	22.6	0.00e+00	0	38	0	2972712960	41	4100
2026-01-22 05:13:48.76	267.17	27.95	-36.1	-36.9	22.3	0.00e+00	0	38	0	2983198720	41	4227
2026-01-22 05:13:49.48	266.98	27.88	-36.1	-36.9	22.3	0.00e+00	0	38	0	2988441600	41	4229
2026-01-22 05:13:50.76	266.64	27.74	-36.1	-37.0	22.3	0.00e+00	0	38	0	2997878784	41	4247
2026-01-22 05:13:51.48	266.46	27.67	-36.1	-36.9	22.4	0.00e+00	0	38	0	3003121664	41	4219
2026-01-22 05:13:52.76	266.12	27.54	-36.1	-37.0	22.3	0.00e+00	0	38	0	3012558848	41	4257
2026-01-22 05:13:53.48	265.94	27.46	-36.2	-37.0	22.2	0.00e+00	0	38	0	3016753152	41	4273
2026-01-22 05:13:54.76	265.61	27.33	-36.0	-36.9	22.4	0.00e+00	0	38	0	3026190336	41	4219
2026-01-22 05:13:55.48	265.43	27.26	-36.1	-36.9	22.3	0.00e+00	0	38	0	3031433216	41	4226
2026-01-22 05:13:56.76	265.11	27.12	-36.3	-37.1	22.1	0.00e+00	0	38	0	3040870400	42	4090
2026-01-22 05:13:57.49	264.92	27.05	-36.0	-36.8	22.4	0.00e+00	0	38	0	3046113280	42	3942
2026-01-22 05:13:58.77	264.60	26.91	-35.8	-36.7	22.5	0.00e+00	0	38	0	3055550464	42	3880
2026-01-22 05:13:59.51	264.42	26.83	-35.9	-36.7	22.5	0.00e+00	0	38	0	3060793344	42	3911
2026-01-22 05:14:00.79	264.11	26.70	-35.8	-36.6	22.6	0.00e+00	0	38	0	3070230528	42	3853
2026-01-22 05:14:01.50	263.93	26.63	-35.8	-36.6	22.6	0.00e+00	0	38	0	3075473408	42	3855
2026-01-22 05:14:02.78	263.62	26.49	-35.9	-36.7	22.5	0.00e+00	0	38	0	3083862016	42	3899
2026-01-22 05:14:03.53	263.44	26.41	-36.0	-36.8	22.4	0.00e+00	0	38	0	3090153472	42	3947
2026-01-22 05:14:04.81	263.13	26.28	-36.0	-36.9	22.4	0.00e+00	0	38	0	3099590656	42	3978
2026-01-22 05:14:05.56	262.96	26.20	-36.1	-37.0	22.3	0.00e+00	0	38	0	3104833536	42	4017
2026-01-22 05:14:06.83	262.66	26.06	-36.1	-37.0	22.2	0.00e+00	0	38	0	3113222144	42	4024
2026-01-22 05:14:07.61	262.47	25.98	-36.1	-36.9	22.3	0.00e+00	0	38	0	3119513600	42	3985
2026-01-22 05:14:08.89	262.18	25.84	-36.0	-36.9	22.4	0.00e+00	0	38	0	3127902208	42	3959
2026-01-22 05:14:09.69	261.99	25.76	-36.0	-36.9	22.4	0.00e+00	0	38	0	3134193664	42	3975
2026-01-22 05:14:11.13	261.66	25.60	-35.9	-36.8	22.5	0.00e+00	0	38	0	3144679424	42	3921
2026-01-22 05:14:11.84	261.50	25.53	-35.9	-36.7	22.5	0.00e+00	0	38	0	3149922304	42	3893
2026-01-22 05:14:13.12	261.21	25.39	-35.8	-36.7	22.6	0.00e+00	0	38	0	3159359488	42	3872
2026-01-22 05:14:13.83	261.05	25.32	-35.9	-36.7	22.5	0.00e+00	0	38	0	3163553792	42	3911
2026-01-22 05:14:15.11	260.76	25.18	-35.9	-36.8	22.5	0.00e+00	0	38	0	3172990976	42	3928
2026-01-22 05:14:15.84	260.60	25.10	-35.9	-36.7	22.5	0.00e+00	0	38	0	3179282432	42	3902
2026-01-22 05:14:17.12	260.32	24.97	-36.0	-36.8	22.4	0.00e+00	0	38	0	3187671040	42	3939
2026-01-22 05:14:17.84	260.16	24.89	-36.1	-36.9	22.3	0.00e+00	0	38	0	3192913920	42	3989
2026-01-22 05:14:19.12	259.89	24.75	-36.1	-37.0	22.3	0.00e+00	0	38	0	3202351104	42	4014
2026-01-22 05:14:20.02	259.69	24.66	-36.1	-37.0	22.3	0.00e+00	0	38	0	3208642560	42	4011
2026-01-22 05:14:21.12	259.46	24.54	-36.3	-37.2	22.1	0.00e+00	0	38	0	3217031168	42	4104
2026-01-22 05:14:22.19	259.23	24.42	-36.2	-37.1	22.2	0.00e+00	0	38	0	3224371200	42	4073
2026-01-22 05:14:23.23	259.01	24.31	-36.3	-37.1	22.1	0.00e+00	0	38	0	3231711232	42	4092
2026-01-22 05:14:24.23	258.80	24.21	-36.2	-37.1	22.2	0.00e+00	0	38	0	3239051264	42	4077
2026-01-22 05:14:25.22	258.59	24.10	-36.3	-37.2	22.1	0.00e+00	0	38	0	3246391296	42	4123
2026-01-22 05:14:26.22	258.39	23.99	-36.1	-37.0	22.3	0.00e+00	0	38	0	3253731328	42	4009
2026-01-22 05:14:27.21	258.18	23.89	-36.1	-37.0	22.3	0.00e+00	0	38	0	3261071360	42	4019
2026-01-22 05:14:28.21	257.98	23.78	-36.1	-36.9	22.3	0.00e+00	0	38	0	3268411392	42	3990
2026-01-22 05:14:29.20	257.78	23.68	-36.1	-36.9	22.4	0.00e+00	0	38	0	3274702848	42	4003
2026-01-22 05:14:30.20	257.58	23.57	-36.1	-36.9	22.4	0.00e+00	0	38	0	3282042880	42	3988
2026-01-22 05:14:31.19	257.38	23.46	-36.0	-36.8	22.4	0.00e+00	0	38	0	3289382912	42	3936
2026-01-22 05:14:32.19	257.18	23.36	-36.1	-37.0	22.3	0.00e+00	0	38	0	3296722944	42	4005
2026-01-22 05:14:33.18	256.99	23.25	-36.1	-37.0	22.3	0.00e+00	0	38	0	3304062976	42	4010
2026-01-22 05:14:34.19	256.79	23.15	-36.2	-37.1	22.2	0.00e+00	0	38	0	3311403008	42	4061
2026-01-22 05:14:35.19	256.59	23.04	-36.2	-37.0	22.2	0.00e+00	0	38	0	3318743040	42	4046
2026-01-22 05:14:36.18	256.40	22.93	-36.2	-37.0	22.2	0.00e+00	0	38	0	3325034496	42	4049
2026-01-22 05:14:37.18	256.21	22.83	-36.2	-37.1	22.2	0.00e+00	0	38	0	3332374528	42	4054
2026-01-22 05:14:38.17	256.02	22.72	-36.3	-37.1	22.1	0.00e+00	0	38	0	3339714560	42	4095
2026-01-22 05:14:39.17	255.83	22.62	-36.3	-37.2	22.1	0.00e+00	0	38	0	3347054592	42	4121
2026-01-22 05:14:40.16	255.65	22.51	-36.1	-36.9	22.3	0.00e+00	0	38	0	3354394624	42	4001
2026-01-22 05:14:41.16	255.46	22.41	-36.2	-37.0	22.2	0.00e+00	0	38	0	3361734656	42	4044
2026-01-22 05:14:42.15	255.28	22.30	-36.3	-37.2	22.0	0.00e+00	0	38	0	3369074688	42	4116
2026-01-22 05:14:43.14	255.10	22.20	-36.4	-37.3	22.0	0.00e+00	0	38	0	3376414720	42	4169
2026-01-22 05:14:44.14	254.91	22.09	-36.3	-37.1	22.2	0.00e+00	0	38	0	3382706176	42	4082
2026-01-22 05:14:45.13	254.73	21.99	-36.3	-37.1	22.1	0.00e+00	0	38	0	3390046208	42	4087
2026-01-22 05:14:46.13	254.55	21.88	-36.4	-37.2	22.1	0.00e+00	0	38	0	3397386240	42	4139
2026-01-22 05:14:47.12	254.38	21.78	-36.4	-37.3	22.0	0.00e+00	0	38	0	3404726272	42	4167
2026-01-22 05:14:48.51	254.13	21.63	-36.4	-37.2	22.0	0.00e+00	0	38	0	3414163456	42	4126
2026-01-22 05:14:49.27	253.99	21.55	-36.4	-37.2	22.0	0.00e+00	0	38	0	3420454912	42	4129
2026-01-22 05:14:50.55	253.77	21.42	-36.4	-37.3	22.0	0.00e+00	0	38	0	3428843520	42	4155
2026-01-22 05:14:51.28	253.64	21.35	-36.4	-37.3	22.0	0.00e+00	0	38	0	3434086400	42	4164
2026-01-22 05:14:52.56	253.42	21.21	-36.5	-37.4	21.9	0.00e+00	0	38	0	3443523584	42	4203
2026-01-22 05:14:53.28	253.30	21.14	-36.6	-37.5	21.8	0.00e+00	0	38	0	3448766464	42	4245
2026-01-22 05:14:54.55	253.08	21.01	-36.7	-37.6	21.8	0.00e+00	0	38	0	3458203648	42	4294
2026-01-22 05:14:55.27	252.96	20.93	-36.7	-37.6	21.8	0.00e+00	0	38	0	3463446528	42	4318
2026-01-22 05:14:56.55	252.75	20.80	-36.8	-37.7	21.6	0.00e+00	0	38	0	3472883712	43	4123
2026-01-22 05:14:57.27	252.63	20.72	-37.0	-37.9	21.5	0.00e+00	0	38	0	3478126592	43	4209
2026-01-22 05:14:58.55	252.41	20.59	-36.9	-37.8	21.6	0.00e+00	0	38	0	3487563776	43	4166
2026-01-22 05:14:59.26	252.30	20.52	-36.9	-37.8	21.6	0.00e+00	0	38	0	3491758080	43	4180
2026-01-22 05:15:00.54	252.09	20.39	-36.9	-37.8	21.5	0.00e+00	0	38	0	3501195264	43	4185
2026-01-22 05:15:01.25	251.97	20.31	-36.7	-37.6	21.7	0.00e+00	0	38	0	3506438144	43	4072
2026-01-22 05:15:02.53	251.76	20.18	-36.6	-37.5	21.8	0.00e+00	0	38	0	3515875328	43	4027
2026-01-22 05:15:03.28	251.64	20.11	-36.6	-37.5	21.8	0.00e+00	0	38	0	3521118208	43	4029
2026-01-22 05:15:04.75	251.41	19.96	-36.7	-37.6	21.7	0.00e+00	0	38	0	3531603968	43	4055
2026-01-22 05:15:05.46	251.30	19.88	-36.7	-37.6	21.7	0.00e+00	0	38	0	3536846848	43	4073
2026-01-22 05:15:06.74	251.10	19.75	-36.8	-37.6	21.7	0.00e+00	0	38	0	3546284032	43	4088
2026-01-22 05:15:07.46	250.98	19.68	-36.8	-37.7	21.7	0.00e+00	0	38	0	3551526912	43	4103
2026-01-22 05:15:08.74	250.79	19.55	-36.9	-37.8	21.6	0.00e+00	0	38	0	3559915520	43	4160
2026-01-22 05:15:09.46	250.68	19.48	-37.0	-37.9	21.4	0.00e+00	0	38	0	3566206976	43	4208
2026-01-22 05:15:10.74	250.48	19.35	-37.0	-37.9	21.4	0.00e+00	0	38	0	3575644160	43	4237
2026-01-22 05:15:11.46	250.37	19.28	-37.2	-38.1	21.3	0.00e+00	0	38	0	3579838464	43	4301
2026-01-22 05:15:12.74	250.18	19.15	-36.9	-37.8	21.5	0.00e+00	0	38	0	3589275648	43	4175
2026-01-22 05:15:13.49	250.07	19.07	-36.9	-37.8	21.4	0.00e+00	0	38	0	3594518528	43	4167
2026-01-22 05:15:14.76	249.88	18.94	-37.0	-37.8	21.5	0.00e+00	0	38	0	3603955712	43	4188
2026-01-22 05:15:15.52	249.76	18.87	-36.9	-37.8	21.5	0.00e+00	0	38	0	3609198592	43	4161
2026-01-22 05:15:16.80	249.58	18.74	-36.9	-37.8	21.5	0.00e+00	0	38	0	3618635776	43	4167
2026-01-22 05:15:17.59	249.46	18.66	-37.0	-37.9	21.5	0.00e+00	0	38	0	3624927232	43	4213
2026-01-22 05:15:18.79	249.29	18.54	-37.2	-38.1	21.3	0.00e+00	0	38	0	3633315840	43	4307
2026-01-22 05:15:19.64	249.17	18.46	-37.5	-38.4	21.2	0.00e+00	0	38	0	3639607296	44	4199
2026-01-22 05:15:20.78	249.00	18.35	-37.5	-38.4	21.1	0.00e+00	0	38	0	3646947328	44	4216
2026-01-22 05:15:21.83	248.85	18.24	-37.7	-38.6	21.0	0.00e+00	0	38	0	3655335936	44	4306
2026-01-22 05:15:22.77	248.72	18.15	-37.8	-38.7	20.9	0.00e+00	0	38	0	3661627392	44	4356
2026-01-22 05:15:23.77	248.58	18.05	-37.8	-38.7	20.8	0.00e+00	0	38	0	3668967424	44	4357
2026-01-22 05:15:24.76	248.44	17.96	-37.7	-38.7	20.9	0.00e+00	0	38	0	3676307456	45	4101
2026-01-22 05:15:25.75	248.31	17.86	-37.7	-38.6	20.9	0.00e+00	0	38	0	3683647488	45	4086
2026-01-22 05:15:26.75	248.17	17.76	-37.7	-38.6	20.9	0.00e+00	0	38	0	3690987520	45	4082
2026-01-22 05:15:27.74	248.03	17.66	-37.7	-38.6	20.9	0.00e+00	0	38	0	3698327552	45	4062
2026-01-22 05:15:28.74	247.90	17.57	-37.6	-38.5	21.0	0.00e+00	0	38	0	3704619008	45	4017
2026-01-22 05:15:29.73	247.77	17.47	-37.5	-38.4	21.1	0.00e+00	0	38	0	3711959040	45	3988
2026-01-22 05:15:30.73	247.63	17.37	-37.4	-38.2	21.2	0.00e+00	0	38	0	3719299072	45	3908
2026-01-22 05:15:31.73	247.50	17.28	-37.4	-38.2	21.3	0.00e+00	0	38	0	3726639104	45	3913
2026-01-22 05:15:32.72	247.37	17.18	-37.4	-38.3	21.2	0.00e+00	0	38	0	3733979136	45	3936
2026-01-22 05:15:33.72	247.24	17.09	-37.5	-38.4	21.2	0.00e+00	0	38	0	3741319168	45	3961
2026-01-22 05:15:34.79	247.10	16.98	-37.6	-38.5	21.0	0.00e+00	0	38	0	3748659200	45	4036
2026-01-22 05:15:35.64	246.99	16.90	-37.7	-38.6	20.9	0.00e+00	0	38	0	3754950656	45	4058
2026-01-22 05:15:36.98	246.82	16.78	-37.9	-38.8	20.7	0.00e+00	0	38	0	3764387840	45	4188
2026-01-22 05:15:37.69	246.72	16.71	-37.8	-38.8	20.8	0.00e+00	0	38	0	3769630720	45	4155
2026-01-22 05:15:39.18	246.54	16.57	-38.0	-38.9	20.6	0.00e+00	0	38	0	3780116480	45	4228
2026-01-22 05:15:39.89	246.45	16.50	-38.1	-39.0	20.6	0.00e+00	0	38	0	3785359360	45	4273
2026-01-22 05:15:41.17	246.29	16.38	-38.1	-39.1	20.5	0.00e+00	0	38	0	3794796544	45	4310
2026-01-22 05:15:41.89	246.20	16.31	-38.1	-39.1	20.5	0.00e+00	0	38	0	3800039424	45	4299
2026-01-22 05:15:43.25	246.03	16.18	-38.4	-39.4	20.2	0.00e+00	0	38	0	3809476608	46	4215
2026-01-22 05:15:43.96	245.94	16.12	-38.5	-39.5	20.1	0.00e+00	0	38	0	3814719488	46	4280
2026-01-22 05:15:45.24	245.78	16.00	-38.5	-39.4	20.2	0.00e+00	0	38	0	3824156672	46	4230
2026-01-22 05:15:45.98	245.70	15.93	-38.4	-39.4	20.2	0.00e+00	0	38	0	3829399552	46	4223
2026-01-22 05:15:47.26	245.54	15.81	-38.3	-39.2	20.3	0.00e+00	0	38	0	3838836736	46	4139
2026-01-22 05:15:47.99	245.45	15.74	-38.3	-39.3	20.3	0.00e+00	0	38	0	3844079616	46	4168
2026-01-22 05:15:49.26	245.30	15.62	-38.3	-39.2	20.4	0.00e+00	0	38	0	3853516800	46	4123
2026-01-22 05:15:49.98	245.22	15.56	-38.3	-39.3	20.2	0.00e+00	0	38	0	3857711104	46	4161
2026-01-22 05:15:51.25	245.07	15.44	-38.0	-39.0	20.5	0.00e+00	0	38	0	3867148288	46	4009
2026-01-22 05:15:51.98	244.98	15.37	-37.9	-38.8	20.7	0.00e+00	0	38	0	3872391168	46	3926
2026-01-22 05:15:53.26	244.83	15.26	-37.8	-38.7	20.8	0.00e+00	0	38	0	3881828352	46	3900
2026-01-22 05:15:53.99	244.75	15.19	-37.8	-38.7	20.8	0.00e+00	0	38	0	3887071232	46	3912
2026-01-22 05:15:55.26	244.61	15.07	-37.9	-38.8	20.6	0.00e+00	0	38	0	3896508416	46	3945
2026-01-22 05:15:55.98	244.52	15.01	-37.9	-38.8	20.7	0.00e+00	0	38	0	3901751296	46	3931
2026-01-22 05:15:57.25	244.38	14.89	-38.1	-39.0	20.5	0.00e+00	0	38	0	3911188480	46	4051
2026-01-22 05:15:58.22	244.27	14.80	-38.2	-39.1	20.4	0.00e+00	0	38	0	3917479936	46	4098
2026-01-22 05:15:59.21	244.16	14.71	-38.1	-39.0	20.5	0.00e+00	0	38	0	3924819968	46	4033
2026-01-22 05:16:00.55	244.01	14.59	-38.3	-39.2	20.3	0.00e+00	0	38	0	3934257152	46	4121
2026-01-22 05:16:01.26	243.93	14.53	-38.3	-39.3	20.3	0.00e+00	0	38	0	3939500032	46	4153
2026-01-22 05:16:02.55	243.79	14.41	-38.4	-39.3	20.2	0.00e+00	0	38	0	3948937216	46	4181
2026-01-22 05:16:03.26	243.71	14.35	-38.4	-39.4	20.2	0.00e+00	0	38	0	3954180096	46	4219
2026-01-22 05:16:04.54	243.58	14.24	-38.4	-39.4	20.2	0.00e+00	0	38	0	3963617280	46	4208
2026-01-22 05:16:05.28	243.50	14.17	-38.4	-39.4	20.1	0.00e+00	0	38	0	3968860160	46	4201
2026-01-22 05:16:06.55	243.36	14.06	-38.5	-39.4	20.1	0.00e+00	0	38	0	3978297344	46	4236
2026-01-22 05:16:07.30	243.28	13.99	-38.5	-39.5	20.1	0.00e+00	0	38	0	3983540224	46	4259
2026-01-22 05:16:08.59	243.15	13.88	-38.5	-39.5	20.1	0.00e+00	0	38	0	3991928832	46	4251
2026-01-22 05:16:09.30	243.07	13.82	-38.6	-39.5	20.0	0.00e+00	0	38	0	3998220288	46	4276
2026-01-22 05:16:10.57	242.94	13.70	-38.6	-39.6	20.0	0.00e+00	0	38	0	4006608896	46	4312
2026-01-22 05:16:11.28	242.86	13.64	-38.6	-39.5	20.0	0.00e+00	0	38	0	4011851776	46	4283
2026-01-22 05:16:12.66	242.72	13.52	-38.7	-39.6	19.9	0.00e+00	0	38	0	4022337536	46	4332
2026-01-22 05:16:13.37	242.65	13.46	-38.8	-39.8	19.8	0.00e+00	0	38	0	4026531840	47	4162
2026-01-22 05:16:14.65	242.52	13.35	-38.9	-39.9	19.6	0.00e+00	0	38	0	4035969024	47	4233
2026-01-22 05:16:15.72	242.41	13.26	-39.0	-40.0	19.5	0.00e+00	0	38	0	4044357632	47	4291
2026-01-22 05:16:16.84	242.30	13.16	-39.2	-40.2	19.4	0.00e+00	0	38	0	4052746240	47	4378
2026-01-22 05:16:17.69	242.21	13.09	-39.2	-40.2	19.4	0.00e+00	0	38	0	4057989120	47	4358
2026-01-22 05:16:18.83	242.10	12.99	-39.2	-40.2	19.4	0.00e+00	0	38	0	4066377728	47	4357
2026-01-22 05:16:19.68	242.02	12.92	-39.2	-40.2	19.3	0.00e+00	0	38	0	4072669184	47	4382
2026-01-22 05:16:20.82	241.91	12.82	-39.2	-40.3	19.3	0.00e+00	0	38	0	4081057792	47	4399
2026-01-22 05:16:21.67	241.82	12.75	-39.1	-40.1	19.4	0.00e+00	0	38	0	4087349248	47	4326
2026-01-22 05:16:22.81	241.71	12.65	-39.1	-40.1	19.4	0.00e+00	0	38	0	4095737856	47	4323
2026-01-22 05:16:23.66	241.63	12.58	-39.0	-40.0	19.5	0.00e+00	0	38	0	4100980736	47	4283
2026-01-22 05:16:24.80	241.52	12.48	-39.1	-40.1	19.5	0.00e+00	0	38	0	4109369344	47	4294
2026-01-22 05:16:25.65	241.44	12.41	-38.9	-39.9	19.6	0.00e+00	0	38	0	4115660800	47	4222
2026-01-22 05:16:26.78	241.33	12.31	-38.8	-39.8	19.7	0.00e+00	0	38	0	4124049408	47	4178
2026-01-22 05:16:27.64	241.25	12.24	-38.7	-39.7	19.8	0.00e+00	0	38	0	4130340864	47	4117
2026-01-22 05:16:28.77	241.15	12.15	-38.9	-39.9	19.6	0.00e+00	0	38	0	4137680896	47	4205
2026-01-22 05:16:29.63	241.07	12.07	-38.8	-39.8	19.7	0.00e+00	0	38	0	4143972352	47	4169
2026-01-22 05:16:30.76	240.96	11.98	-38.9	-39.9	19.6	0.00e+00	0	38	0	4152360960	47	4194
2026-01-22 05:16:31.62	240.88	11.91	-38.9	-39.8	19.7	0.00e+00	0	38	0	4158652416	47	4190
2026-01-22 05:16:33.08	240.75	11.79	-38.9	-39.9	19.6	0.00e+00	0	38	0	4169138176	47	4200
2026-01-22 05:16:33.80	240.69	11.73	-39.0	-39.9	19.6	0.00e+00	0	38	0	4174381056	47	4237
2026-01-22 05:16:35.08	240.57	11.62	-38.9	-39.9	19.6	0.00e+00	0	38	0	4183818240	47	4217
2026-01-22 05:16:35.80	240.51	11.56	-39.1	-40.1	19.4	0.00e+00	0	38	0	4189061120	47	4322
2026-01-22 05:16:37.08	240.39	11.46	-39.1	-40.1	19.4	0.00e+00	0	38	0	4198498304	47	4304
2026-01-22 05:16:37.81	240.33	11.40	-39.2	-40.2	19.3	0.00e+00	0	38	0	4203741184	47	4358
2026-01-22 05:16:39.09	240.21	11.29	-39.3	-40.3	19.4	0.00e+00	0	38	0	4213178368	48	4164
2026-01-22 05:16:39.92	240.14	11.23	-39.1	-40.1	19.6	0.00e+00	0	38	0	4218421248	48	4089
2026-01-22 05:16:41.06	240.04	11.13	-39.4	-40.4	19.3	0.00e+00	0	38	0	4226809856	48	4233
2026-01-22 05:16:41.91	239.97	11.06	-39.6	-40.6	19.2	0.00e+00	0	38	0	4233101312	48	4331
2026-01-22 05:16:43.05	239.87	10.97	-39.3	-40.3	19.4	0.00e+00	0	38	0	4241489920	48	4179
2026-01-22 05:16:43.90	239.80	10.90	-39.4	-40.4	19.4	0.00e+00	0	38	0	4247781376	48	4194
2026-01-22 05:16:45.04	239.70	10.81	-39.3	-40.3	19.5	0.00e+00	0	38	0	4256169984	48	4175
2026-01-22 05:16:45.89	239.63	10.74	-39.4	-40.4	19.4	0.00e+00	0	38	0	4262461440	48	4218
2026-01-22 05:16:47.03	239.53	10.65	-39.7	-40.7	19.1	0.00e+00	0	38	0	4269801472	48	4352
2026-01-22 05:16:47.88	239.46	10.58	-39.6	-40.6	19.2	0.00e+00	0	38	0	4276092928	48	4323
2026-01-22 05:16:49.02	239.37	10.49	-39.7	-40.7	19.1	0.00e+00	0	38	0	4284481536	48	4373
2026-01-22 05:16:49.87	239.29	10.43	-39.6	-40.7	19.1	0.00e+00	0	38	0	4290772992	48	4342
2026-01-22 05:16:51.09	239.19	10.33	-39.9	-41.0	18.9	0.00e+00	0	38	0	4299161600	49	4249
2026-01-22 05:16:51.94	239.12	10.26	-39.9	-41.0	18.8	0.00e+00	0	38	0	4305453056	49	4245
2026-01-22 05:16:53.11	239.03	10.17	-39.9	-40.9	18.8	0.00e+00	0	38	0	4313841664	49	4236
2026-01-22 05:16:53.96	238.96	10.10	-39.8	-40.9	18.9	0.00e+00	0	38	0	4320133120	49	4207
2026-01-22 05:16:55.10	238.87	10.01	-39.8	-40.8	18.9	0.00e+00	0	38	0	4328521728	49	4179
2026-01-22 05:16:56.43	238.76	9.91	-39.8	-40.8	19.0	0.00e+00	0	38	0	4337958912	49	4171
2026-01-22 05:16:57.14	238.71	9.85	-39.9	-41.0	18.8	0.00e+00	0	38	0	4343201792	49	4244
2026-01-22 05:16:58.42	238.60	9.75	-39.8	-40.8	18.9	0.00e+00	0	38	0	4352638976	49	4187
2026-01-22 05:16:59.15	238.55	9.70	-40.0	-41.0	18.7	0.00e+00	0	38	0	4357881856	49	4271
2026-01-22 05:17:00.44	238.45	9.60	-39.9	-41.0	18.8	0.00e+00	0	38	0	4367319040	49	4247
2026-01-22 05:17:01.15	238.39	9.54	-39.7	-40.8	18.9	0.00e+00	0	38	0	4372561920	49	4151
2026-01-22 05:17:02.50	238.29	9.44	-39.7	-40.8	18.9	0.00e+00	0	38	0	4381999104	49	4150
2026-01-22 05:17:03.21	238.23	9.38	-39.7	-40.7	19.0	0.00e+00	0	38	0	4387241984	49	4107
2026-01-22 05:17:04.49	238.13	9.29	-39.4	-40.4	19.2	0.00e+00	0	38	0	4396679168	49	3995
2026-01-22 05:17:05.20	238.08	9.23	-39.7	-40.7	19.0	0.00e+00	0	38	0	4400873472	49	4132
2026-01-22 05:17:06.59	237.97	9.13	-39.4	-40.4	19.3	0.00e+00	0	38	0	4411359232	49	3980
2026-01-22 05:17:07.59	237.90	9.05	-39.3	-40.3	19.3	0.00e+00	0	38	0	4418699264	49	3939
2026-01-22 05:17:08.58	237.83	8.97	-39.8	-40.8	19.0	0.00e+00	0	38	0	4424990720	49	4168
2026-01-22 05:17:09.57	237.75	8.90	-50.7	-61.2	3.8	8.48e-01	0	38	104	4428136448	70	13089
2026-01-22 05:17:10.57	237.68	8.82	-50.9	-61.5	3.8	8.45e-01	0	38	104	4428136448	71	12735
2026-01-22 05:17:11.56	237.60	8.75	-50.9	-61.6	3.8	8.47e-01	0	38	104	4428136448	71	12872
2026-01-22 05:17:12.55	237.53	8.68	-50.9	-61.7	3.8	8.47e-01	0	38	104	4428136448	71	12967
2026-01-22 05:17:13.55	237.46	8.60	-51.0	-61.7	3.8	8.45e-01	0	38	104	4428136448	71	13006
2026-01-22 05:17:14.54	237.39	8.53	-51.1	-61.7	3.8	8.46e-01	0	38	104	4428136448	71	13059
2026-01-22 05:17:15.53	237.32	8.45	-51.0	-61.8	3.8	8.46e-01	0	38	104	4428136448	71	13174
2026-01-22 05:17:16.59	237.24	8.37	-51.0	-61.8	3.8	8.47e-01	0	38	104	4428136448	71	13222
2026-01-22 05:17:17.46	237.18	8.31	-51.0	-61.8	3.8	8.46e-01	0	38	104	4428136448	71	13156
2026-01-22 05:17:18.59	237.10	8.23	-51.1	-61.8	3.8	8.48e-01	0	38	104	4428136448	71	13218
2026-01-22 05:17:19.44	237.04	8.16	-51.1	-61.8	3.8	8.46e-01	0	38	104	4428136448	71	13155
2026-01-22 05:17:20.58	236.96	8.08	-51.1	-61.8	3.8	8.45e-01	0	38	104	4428136448	71	13176
2026-01-22 05:17:21.43	236.90	8.02	-51.1	-61.8	3.8	8.45e-01	0	38	104	4428136448	71	13153
2026-01-22 05:17:22.57	236.82	7.93	-51.0	-61.8	3.8	8.47e-01	0	38	104	4428136448	71	13200
2026-01-22 05:17:23.42	236.76	7.87	-51.0	-61.8	3.8	8.47e-01	0	38	104	4428136448	71	13137
2026-01-22 05:17:24.55	236.68	7.79	-50.9	-61.8	3.8	8.46e-01	0	38	104	4428136448	71	13185
2026-01-22 05:17:25.40	236.62	7.73	-50.9	-61.7	3.8	8.47e-01	0	38	104	4428136448	71	13103
2026-01-22 05:17:26.54	236.55	7.64	-50.9	-61.8	3.8	8.47e-01	0	38	104	4428136448	71	13150
2026-01-22 05:17:27.39	236.49	7.58	-50.8	-61.7	3.8	8.46e-01	0	38	104	4428136448	71	13109
2026-01-22 05:17:28.53	236.41	7.50	-50.8	-61.8	3.8	8.48e-01	0	38	104	4428136448	71	13114
2026-01-22 05:17:29.38	236.36	7.44	-50.8	-61.8	3.8	8.47e-01	0	38	104	4428136448	71	13148
2026-01-22 05:17:30.55	236.28	7.35	-50.7	-61.7	3.8	8.48e-01	0	38	104	4428136448	71	13045
2026-01-22 05:17:31.40	236.22	7.29	-50.7	-61.7	3.8	8.46e-01	0	38	104	4428136448	71	13045
2026-01-22 05:17:32.60	236.14	7.21	-50.7	-61.7	3.8	8.47e-01	0	38	104	4428136448	71	13030
2026-01-22 05:17:33.45	236.09	7.14	-50.7	-61.7	3.8	8.48e-01	0	39	104	4428136448	71	12968
2026-01-22 05:17:34.58	236.01	7.06	-50.7	-61.6	3.8	8.47e-01	0	38	104	4428136448	71	12930
2026-01-22 05:17:35.43	235.96	7.00	-50.7	-61.7	3.8	8.47e-01	0	39	104	4428136448	71	12992
2026-01-22 05:17:36.57	235.88	6.92	-50.7	-61.6	3.8	8.46e-01	0	38	104	4428136448	71	12936
2026-01-22 05:17:37.42	235.83	6.86	-50.7	-61.7	3.8	8.47e-01	0	38	104	4428136448	71	12969
2026-01-22 05:17:38.55	235.76	6.78	-50.7	-61.7	3.8	8.46e-01	0	38	104	4428136448	71	12967
2026-01-22 05:17:39.41	235.70	6.72	-50.7	-61.7	3.8	8.46e-01	0	38	104	4428136448	71	13002
