passes_logs/2026/01/22/T1/T1__20260122_082612_NOAA_21_JPSS-2_rec.log

#Pass ID: 20260122_082612_NOAA 21 (JPSS-2)
#Satellite: NOAA 21 (JPSS-2)
#Configuration: NOAA 21
#almurnet v.1.7.20251203
#Start time: 2026-01-22 08:26:13

#Version: 2.0.20230620
#Station: T1
#Location: 37.570604 lon 55.790049 lat
#TLE: 1 54234U 22150A   26021.42686626  .00000211  00000+0  12107-3 0  9996
#TLE: 2 54234  98.7506 322.2490 0000636 241.9299 118.1812 14.19537149165725

#Time	Az	El	Level	Level2	SNR	BER	BlckErr	Temp	State	Recorded	gain1	gain2
2026-01-22 08:26:13.34	113.03	5.07	-49.6	-62.8	3.8	1.49e+00	0	35	0	0	71	15788
2026-01-22 08:26:14.33	112.96	5.13	-49.6	-62.8	3.8	1.49e+00	0	35	104	0	71	15791
2026-01-22 08:26:15.32	112.88	5.19	-49.7	-62.7	3.8	1.49e+00	0	35	104	0	71	15756
2026-01-22 08:26:16.31	112.81	5.25	-49.6	-62.8	3.8	1.49e+00	0	35	104	0	71	15810
2026-01-22 08:26:17.31	112.73	5.31	-49.6	-62.8	3.8	1.49e+00	0	35	104	0	71	15811
2026-01-22 08:26:18.30	112.66	5.38	-49.7	-62.7	3.8	1.49e+00	0	35	104	0	71	15757
2026-01-22 08:26:19.30	112.58	5.44	-49.6	-62.8	3.8	1.49e+00	0	35	104	0	71	15810
2026-01-22 08:26:20.29	112.50	5.50	-49.6	-62.7	3.8	1.49e+00	0	35	104	0	71	15717
2026-01-22 08:26:21.28	112.43	5.56	-49.6	-62.7	3.8	1.49e+00	0	35	104	0	71	15652
2026-01-22 08:26:22.28	112.35	5.63	-49.7	-62.7	3.8	1.49e+00	0	36	104	0	71	15639
2026-01-22 08:26:23.27	112.27	5.69	-49.7	-62.7	3.8	1.49e+00	0	36	104	0	71	15660
2026-01-22 08:26:24.26	112.19	5.75	-49.6	-62.7	3.8	1.49e+00	0	36	104	0	71	15603
2026-01-22 08:26:25.26	112.11	5.82	-49.7	-62.6	3.8	1.49e+00	0	36	104	0	71	15562
2026-01-22 08:26:26.25	112.03	5.88	-49.7	-62.6	3.8	1.49e+00	0	36	104	0	71	15533
2026-01-22 08:26:27.24	111.95	5.94	-49.6	-62.7	3.8	1.49e+00	0	36	104	0	71	15594
2026-01-22 08:26:28.24	111.87	6.01	-49.7	-62.6	3.8	1.49e+00	0	36	104	0	71	15470
2026-01-22 08:26:29.23	111.79	6.07	-49.6	-62.6	3.8	1.49e+00	0	36	104	0	71	15533
2026-01-22 08:26:30.22	111.71	6.13	-49.7	-62.7	3.8	1.49e+00	0	36	104	0	71	15601
2026-01-22 08:26:31.22	111.63	6.20	-49.6	-62.6	3.8	1.49e+00	0	36	104	0	71	15568
2026-01-22 08:26:32.21	111.55	6.26	-49.6	-62.7	3.8	1.49e+00	0	36	104	0	71	15646
2026-01-22 08:26:33.20	111.47	6.33	-49.7	-62.7	3.8	1.49e+00	0	36	104	0	71	15586
2026-01-22 08:26:34.19	111.39	6.39	-49.6	-62.7	3.8	1.49e+00	0	36	104	0	71	15638
2026-01-22 08:26:35.19	111.31	6.45	-49.7	-62.7	3.8	1.49e+00	0	36	104	0	71	15634
2026-01-22 08:26:36.18	111.22	6.52	-49.7	-62.7	3.8	1.49e+00	0	36	104	0	71	15655
2026-01-22 08:26:37.18	111.14	6.58	-49.6	-62.7	3.8	1.49e+00	0	36	104	0	71	15656
2026-01-22 08:26:38.17	111.06	6.65	-49.6	-62.6	3.8	1.49e+00	0	36	104	0	71	15573
2026-01-22 08:26:39.16	110.97	6.71	-49.6	-62.5	3.8	1.49e+00	0	36	104	0	71	15399
2026-01-22 08:26:40.16	110.89	6.78	-49.7	-62.4	3.8	1.49e+00	0	36	104	0	71	15209
2026-01-22 08:26:41.15	110.80	6.84	-49.6	-62.3	3.8	1.49e+00	0	36	104	0	71	15014
2026-01-22 08:26:42.14	110.72	6.91	-49.7	-62.3	3.8	1.49e+00	0	36	104	0	71	14943
2026-01-22 08:26:43.13	110.63	6.97	-49.6	-62.2	3.8	1.49e+00	0	36	104	0	71	14874
2026-01-22 08:26:44.13	110.55	7.04	-49.6	-62.3	3.8	1.49e+00	0	36	104	0	71	14920
2026-01-22 08:26:45.12	110.46	7.10	-49.7	-62.3	3.8	1.49e+00	0	36	104	0	71	15025
2026-01-22 08:26:46.11	110.38	7.17	-49.6	-62.4	3.8	1.49e+00	0	36	104	0	71	15082
2026-01-22 08:26:47.11	110.29	7.23	-49.7	-62.5	3.8	1.49e+00	0	36	104	0	71	15228
2026-01-22 08:26:48.10	110.20	7.30	-49.6	-62.4	3.8	1.49e+00	0	36	104	0	71	15145
2026-01-22 08:26:49.09	110.11	7.36	-49.6	-62.4	3.8	1.49e+00	0	36	104	0	71	15141
2026-01-22 08:26:50.09	110.03	7.43	-49.7	-62.3	3.8	1.49e+00	0	36	104	0	71	14955
2026-01-22 08:26:51.08	109.94	7.50	-49.5	-62.1	3.8	1.49e+00	0	36	104	0	71	14549
2026-01-22 08:26:52.07	109.85	7.56	-49.6	-61.8	3.8	1.49e+00	0	37	104	0	71	14062
2026-01-22 08:26:53.07	109.76	7.63	-49.5	-61.4	3.8	1.49e+00	0	36	104	0	70	14255
2026-01-22 08:26:54.06	109.67	7.69	-49.5	-61.2	3.8	1.49e+00	0	37	104	0	70	13889
2026-01-22 08:26:55.05	109.58	7.76	-49.5	-61.3	3.8	1.49e+00	0	36	104	0	70	14054
2026-01-22 08:26:56.05	109.49	7.83	-49.5	-61.5	3.8	1.49e+00	0	37	104	0	70	14420
2026-01-22 08:26:57.04	109.40	7.89	-49.6	-61.9	3.8	1.49e+00	0	37	104	0	70	15121
2026-01-22 08:26:58.03	109.31	7.96	-49.5	-61.4	3.8	1.49e+00	0	37	104	0	70	14284
2026-01-22 08:26:59.02	109.21	8.03	-49.2	-58.3	4.3	1.46e+00	0	37	104	0	70	10038
2026-01-22 08:27:00.02	109.12	8.09	-48.5	-55.3	6.2	3.90e-01	0	37	0	0	69	7502
2026-01-22 08:27:01.01	109.03	8.16	-47.3	-52.2	9.1	3.52e-02	0	37	0	0	66	6232
2026-01-22 08:27:02.00	108.94	8.23	-46.1	-49.8	11.6	2.65e-03	0	37	0	0	64	5289
2026-01-22 08:27:03.00	108.84	8.29	-44.9	-47.9	13.6	3.89e-05	0	37	0	0	61	5048
2026-01-22 08:27:03.99	108.75	8.36	-44.0	-46.5	14.9	0.00e+00	0	37	0	0	59	4844
2026-01-22 08:27:04.98	108.65	8.43	-43.0	-45.2	16.2	0.00e+00	0	37	0	0	58	4436
2026-01-22 08:27:05.98	108.56	8.50	-42.5	-44.6	16.7	0.00e+00	0	37	0	0	57	4388
2026-01-22 08:27:06.97	108.46	8.56	-42.3	-44.4	17.0	0.00e+00	0	37	0	0	56	4513
2026-01-22 08:27:07.96	108.37	8.63	-42.2	-44.3	17.0	0.00e+00	0	37	0	0	56	4477
2026-01-22 08:27:08.96	108.27	8.70	-42.7	-44.9	16.5	0.00e+00	0	37	0	0	56	4765
2026-01-22 08:27:09.95	108.17	8.77	-43.1	-45.4	16.0	0.00e+00	0	37	0	0	56	5073
2026-01-22 08:27:10.94	108.08	8.83	-43.9	-46.5	15.0	0.00e+00	0	37	0	0	58	5117
2026-01-22 08:27:11.94	107.98	8.90	-44.9	-47.9	13.6	7.00e-07	0	37	0	0	60	5370
2026-01-22 08:27:12.93	107.88	8.97	-46.1	-49.7	11.7	1.34e-04	0	37	0	0	62	5914
2026-01-22 08:27:13.92	107.78	9.04	-47.1	-51.7	9.6	7.34e-03	0	37	0	0	64	6584
2026-01-22 08:27:14.92	107.68	9.11	-49.2	-59.1	4.0	3.56e-01	0	37	104	0	69	11593
2026-01-22 08:27:15.91	107.58	9.18	-43.4	-45.8	15.7	1.47e-04	0	37	0	0	58	4735
2026-01-22 08:27:16.90	107.48	9.24	-49.2	-58.8	3.9	7.98e-02	0	37	104	0	69	11284
2026-01-22 08:27:17.90	107.38	9.31	-48.7	-55.5	6.2	6.05e-01	0	37	0	0	69	7710
2026-01-22 08:27:18.90	107.28	9.38	-49.5	-60.9	3.8	1.05e+00	0	37	104	0	69	14213
2026-01-22 08:27:19.89	107.18	9.45	-49.1	-58.6	4.4	1.46e+00	0	37	104	0	69	10990
2026-01-22 08:27:20.89	107.08	9.52	-49.2	-58.9	4.3	1.43e+00	0	37	104	0	69	11369
2026-01-22 08:27:21.88	106.97	9.59	-49.2	-58.5	4.4	1.45e+00	0	37	104	0	69	10858
2026-01-22 08:27:22.88	106.87	9.66	-49.2	-58.2	4.3	1.04e+00	0	37	104	0	69	10453
2026-01-22 08:27:23.88	106.77	9.73	-49.0	-58.6	4.0	1.08e+00	0	37	104	0	69	10944
2026-01-22 08:27:24.95	106.65	9.80	-49.2	-60.0	3.9	1.46e+00	0	37	104	0	69	12844
2026-01-22 08:27:25.83	106.56	9.87	-44.0	-46.8	14.7	1.03e-01	0	37	0	0	60	4718
2026-01-22 08:27:27.15	106.42	9.96	-46.0	-49.5	12.1	4.42e-05	0	37	0	0	62	5745
2026-01-22 08:27:27.86	106.35	10.01	-48.0	-54.5	7.0	1.18e-02	0	37	0	0	66	8124
2026-01-22 08:27:29.13	106.21	10.10	-46.1	-49.6	12.1	1.27e-04	0	37	0	0	62	5829
2026-01-22 08:27:29.86	106.13	10.15	-46.2	-50.1	11.5	9.03e-04	0	37	0	0	63	5845
2026-01-22 08:27:31.14	105.99	10.24	-45.9	-49.4	12.2	2.25e-04	0	37	0	0	63	5360
2026-01-22 08:27:31.85	105.92	10.29	-45.7	-49.0	12.6	2.10e-04	0	37	0	0	63	5157
2026-01-22 08:27:33.13	105.78	10.38	-44.9	-47.7	14.0	1.50e-06	0	37	0	0	61	4954
2026-01-22 08:27:33.98	105.68	10.44	-45.0	-48.0	13.6	6.80e-06	0	37	0	0	61	5126
2026-01-22 08:27:35.12	105.56	10.52	-44.6	-47.3	14.3	3.00e-06	0	37	0	0	61	4728
2026-01-22 08:27:36.19	105.44	10.60	-44.5	-47.2	14.4	7.00e-07	0	37	0	0	60	4954
2026-01-22 08:27:37.22	105.32	10.67	-44.2	-46.7	14.9	0.00e+00	0	37	0	0	60	4698
2026-01-22 08:27:38.21	105.21	10.74	-44.0	-46.6	15.1	0.00e+00	0	37	0	0	60	4627
2026-01-22 08:27:39.20	105.10	10.81	-43.7	-46.1	15.5	0.00e+00	0	37	0	0	59	4622
2026-01-22 08:27:40.20	104.99	10.88	-43.4	-45.7	15.8	0.00e+00	0	37	0	0	58	4704
2026-01-22 08:27:41.20	104.88	10.95	-43.5	-45.8	15.8	0.00e+00	0	37	0	0	58	4728
2026-01-22 08:27:42.19	104.76	11.03	-43.6	-46.0	15.6	0.00e+00	0	37	0	0	58	4841
2026-01-22 08:27:43.19	104.65	11.10	-43.6	-45.9	15.7	0.00e+00	0	37	0	0	58	4798
2026-01-22 08:27:44.18	104.53	11.17	-42.9	-45.1	16.5	0.00e+00	0	37	0	0	57	4631
2026-01-22 08:27:45.52	104.38	11.27	-42.4	-44.5	17.1	0.00e+00	0	37	0	0	56	4574
2026-01-22 08:27:46.25	104.29	11.32	-42.3	-44.5	17.1	0.00e+00	0	37	0	0	56	4559
2026-01-22 08:27:47.83	104.11	11.43	-42.3	-44.4	17.2	0.00e+00	0	37	0	0	56	4517
2026-01-22 08:27:48.46	104.04	11.48	-42.2	-44.2	17.4	0.00e+00	0	37	0	0	56	4402
2026-01-22 08:27:49.96	103.86	11.59	-41.5	-43.4	18.0	0.00e+00	0	37	0	0	55	4269
2026-01-22 08:27:50.67	103.77	11.64	-41.4	-43.3	18.0	0.00e+00	0	37	0	0	54	4467
2026-01-22 08:27:51.95	103.62	11.73	-41.0	-42.9	18.4	0.00e+00	0	37	0	0	54	4255
2026-01-22 08:27:52.66	103.53	11.78	-41.1	-42.9	18.3	0.00e+00	0	37	0	0	54	4285
2026-01-22 08:27:53.94	103.38	11.88	-41.1	-43.0	18.3	0.00e+00	0	37	0	0	54	4313
2026-01-22 08:27:54.65	103.29	11.93	-41.1	-43.0	18.3	0.00e+00	0	37	0	0	54	4326
2026-01-22 08:27:55.93	103.14	12.02	-41.1	-43.0	18.3	0.00e+00	0	37	0	0	54	4296
2026-01-22 08:27:56.64	103.05	12.07	-41.0	-42.9	18.4	0.00e+00	0	37	0	0	54	4248
2026-01-22 08:27:57.92	102.89	12.17	-40.9	-42.7	18.5	0.00e+00	0	37	0	0	53	4441
2026-01-22 08:27:58.65	102.80	12.22	-40.9	-42.8	18.5	0.00e+00	0	37	0	0	53	4458
2026-01-22 08:28:00.14	102.62	12.33	-41.0	-42.9	18.5	0.00e+00	0	37	0	0	53	4500
2026-01-22 08:28:00.85	102.53	12.38	-40.8	-42.6	18.7	0.00e+00	0	37	0	0	53	4361
2026-01-22 08:28:02.13	102.36	12.47	-40.7	-42.6	18.8	0.00e+00	0	37	0	0	53	4349
2026-01-22 08:28:03.19	102.23	12.55	-40.8	-42.6	18.7	0.00e+00	0	37	0	0	53	4382
2026-01-22 08:28:04.04	102.12	12.62	-40.7	-42.6	18.7	0.00e+00	0	37	0	0	53	4352
2026-01-22 08:28:05.18	101.98	12.70	-40.6	-42.4	18.9	0.00e+00	0	37	0	0	53	4269
2026-01-22 08:28:06.03	101.87	12.76	-40.7	-42.4	18.9	0.00e+00	0	37	0	0	53	4291
2026-01-22 08:28:07.17	101.72	12.85	-40.7	-42.5	18.8	0.00e+00	0	37	0	0	53	4321
2026-01-22 08:28:08.02	101.61	12.91	-40.8	-42.7	18.6	0.00e+00	0	37	0	0	53	4399
2026-01-22 08:28:09.16	101.46	12.99	-40.7	-42.6	18.7	0.00e+00	0	37	0	0	53	4350
2026-01-22 08:28:10.01	101.35	13.06	-40.9	-42.7	18.6	0.00e+00	0	37	0	0	53	4421
2026-01-22 08:28:11.15	101.20	13.14	-40.8	-42.6	18.7	0.00e+00	0	37	0	0	53	4373
2026-01-22 08:28:12.00	101.09	13.20	-40.8	-42.7	18.6	0.00e+00	0	37	0	0	53	4393
2026-01-22 08:28:13.14	100.93	13.29	-40.7	-42.5	18.7	0.00e+00	0	37	0	0	53	4336
2026-01-22 08:28:14.13	100.80	13.36	-40.7	-42.5	18.8	0.00e+00	0	37	0	0	53	4328
2026-01-22 08:28:15.13	100.67	13.44	-40.8	-42.6	18.7	0.00e+00	0	37	0	0	53	4370
2026-01-22 08:28:16.13	100.53	13.51	-40.7	-42.5	18.8	0.00e+00	0	37	0	0	53	4338
2026-01-22 08:28:17.12	100.40	13.59	-40.7	-42.6	18.8	0.00e+00	0	37	0	0	53	4345
2026-01-22 08:28:18.12	100.26	13.66	-40.6	-42.4	18.9	0.00e+00	0	37	0	0	53	4268
2026-01-22 08:28:19.11	100.12	13.73	-40.6	-42.4	18.9	0.00e+00	0	37	0	0	53	4263
2026-01-22 08:28:20.11	99.98	13.81	-40.6	-42.4	18.9	0.00e+00	0	37	0	0	53	4258
2026-01-22 08:28:21.10	99.85	13.88	-40.6	-42.4	18.9	0.00e+00	0	37	0	0	53	4271
2026-01-22 08:28:22.10	99.71	13.96	-40.6	-42.4	18.9	0.00e+00	0	37	0	0	53	4278
2026-01-22 08:28:23.09	99.57	14.03	-40.7	-42.5	18.8	0.00e+00	0	37	0	0	53	4334
2026-01-22 08:28:24.09	99.43	14.11	-40.7	-42.5	18.7	0.00e+00	0	37	0	0	53	4338
2026-01-22 08:28:25.51	99.23	14.21	-40.8	-42.6	18.7	0.00e+00	0	37	0	0	53	4354
2026-01-22 08:28:26.22	99.12	14.27	-40.8	-42.7	18.7	0.00e+00	0	37	0	0	53	4393
2026-01-22 08:28:27.50	98.94	14.36	-41.0	-42.8	18.5	0.00e+00	0	37	0	0	53	4481
2026-01-22 08:28:28.22	98.84	14.42	-41.0	-42.8	18.6	0.00e+00	0	37	0	0	53	4486
2026-01-22 08:28:29.51	98.65	14.52	-41.0	-42.8	18.6	0.00e+00	0	37	0	0	53	4483
2026-01-22 08:28:30.22	98.55	14.57	-41.1	-42.9	18.5	0.00e+00	0	37	0	0	53	4544
2026-01-22 08:28:31.50	98.36	14.67	-41.0	-42.8	18.6	0.00e+00	0	38	0	0	53	4479
2026-01-22 08:28:32.21	98.25	14.72	-41.0	-42.8	18.6	0.00e+00	0	37	0	0	53	4480
2026-01-22 08:28:33.49	98.07	14.82	-40.9	-42.8	18.7	0.00e+00	0	37	0	0	53	4442
2026-01-22 08:28:34.20	97.96	14.87	-40.9	-42.7	18.7	0.00e+00	0	37	0	0	53	4427
2026-01-22 08:28:35.58	97.75	14.97	-41.0	-42.8	18.6	0.00e+00	0	37	0	0	53	4477
2026-01-22 08:28:36.29	97.65	15.03	-40.9	-42.8	18.6	0.00e+00	0	37	0	0	53	4452
2026-01-22 08:28:37.63	97.44	15.13	-41.1	-42.9	18.5	0.00e+00	0	37	0	0	53	4543
2026-01-22 08:28:38.34	97.34	15.18	-41.0	-42.9	18.5	0.00e+00	0	37	0	0	53	4520
2026-01-22 08:28:39.62	97.14	15.28	-41.0	-42.8	18.6	0.00e+00	0	37	0	0	53	4477
2026-01-22 08:28:40.66	96.98	15.36	-40.9	-42.7	18.7	0.00e+00	0	37	0	0	53	4433
2026-01-22 08:28:41.89	96.79	15.45	-41.0	-42.8	18.6	0.00e+00	0	37	0	0	53	4462
2026-01-22 08:28:42.75	96.66	15.52	-40.9	-42.8	18.7	0.00e+00	0	37	0	0	53	4445
2026-01-22 08:28:43.88	96.48	15.60	-40.9	-42.7	18.7	0.00e+00	0	37	0	0	53	4421
2026-01-22 08:28:44.73	96.35	15.67	-40.9	-42.7	18.7	0.00e+00	0	38	0	0	53	4421
2026-01-22 08:28:45.87	96.17	15.75	-40.9	-42.7	18.8	0.00e+00	0	37	0	0	53	4406
2026-01-22 08:28:46.73	96.03	15.82	-40.9	-42.8	18.7	0.00e+00	0	37	0	0	53	4449
2026-01-22 08:28:47.86	95.85	15.91	-41.0	-42.9	18.6	0.00e+00	0	37	0	0	53	4504
2026-01-22 08:28:48.72	95.71	15.97	-41.0	-42.8	18.6	0.00e+00	0	37	0	0	53	4485
2026-01-22 08:28:49.85	95.53	16.06	-41.0	-42.8	18.6	0.00e+00	0	38	0	0	53	4479
2026-01-22 08:28:50.70	95.40	16.12	-41.0	-42.8	18.6	0.00e+00	0	37	0	0	53	4466
2026-01-22 08:28:51.90	95.20	16.21	-40.8	-42.6	18.8	0.00e+00	0	37	0	0	53	4387
2026-01-22 08:28:52.76	95.06	16.28	-40.8	-42.6	18.8	0.00e+00	0	37	0	0	53	4381
2026-01-22 08:28:53.89	94.87	16.36	-40.8	-42.6	18.8	0.00e+00	0	37	0	0	53	4360
2026-01-22 08:28:54.75	94.73	16.43	-40.8	-42.6	18.8	0.00e+00	0	37	0	0	53	4370
2026-01-22 08:28:55.98	94.53	16.52	-40.6	-42.4	19.0	0.00e+00	0	37	0	0	53	4289
2026-01-22 08:28:56.83	94.39	16.59	-40.8	-42.6	18.9	0.00e+00	0	37	0	0	53	4355
2026-01-22 08:28:58.00	94.19	16.68	-40.8	-42.6	18.8	0.00e+00	0	37	0	0	53	4356
2026-01-22 08:28:58.85	94.05	16.74	-40.7	-42.6	18.8	0.00e+00	0	37	0	0	53	4344
2026-01-22 08:28:59.99	93.85	16.83	-40.7	-42.5	18.9	0.00e+00	0	37	0	0	53	4327
2026-01-22 08:29:00.84	93.71	16.89	-40.6	-42.4	18.9	0.00e+00	0	37	0	0	53	4291
2026-01-22 08:29:02.09	93.49	16.99	-40.7	-42.5	18.9	0.00e+00	0	37	0	0	53	4316
2026-01-22 08:29:02.94	93.35	17.05	-40.5	-42.3	19.1	0.00e+00	0	38	0	0	53	4205
2026-01-22 08:29:04.14	93.14	17.14	-40.5	-42.3	19.1	0.00e+00	0	37	0	0	52	4478
2026-01-22 08:29:05.00	92.99	17.21	-40.5	-42.3	19.1	0.00e+00	0	37	0	0	52	4465
2026-01-22 08:29:06.14	92.79	17.29	-40.5	-42.2	19.2	0.00e+00	0	37	0	0	52	4436
2026-01-22 08:29:06.99	92.64	17.36	-40.5	-42.2	19.2	0.00e+00	0	37	0	0	52	4438
2026-01-22 08:29:08.13	92.44	17.44	-40.5	-42.2	19.2	0.00e+00	0	37	0	0	52	4424
2026-01-22 08:29:08.98	92.29	17.51	-40.5	-42.3	19.1	0.00e+00	0	37	0	0	52	4456
2026-01-22 08:29:10.12	92.09	17.59	-40.6	-42.3	19.1	0.00e+00	0	37	0	0	52	4492
2026-01-22 08:29:10.97	91.93	17.66	-40.5	-42.3	19.1	0.00e+00	0	37	0	0	52	4472
2026-01-22 08:29:12.11	91.73	17.74	-40.6	-42.4	19.0	0.00e+00	0	37	0	0	52	4530
2026-01-22 08:29:12.96	91.58	17.81	-40.6	-42.4	19.0	0.00e+00	0	37	0	0	52	4529
2026-01-22 08:29:14.09	91.37	17.89	-40.4	-42.2	19.3	0.00e+00	0	38	0	0	52	4414
2026-01-22 08:29:14.95	91.21	17.96	-40.5	-42.3	19.2	0.00e+00	0	38	0	0	52	4445
2026-01-22 08:29:16.08	91.00	18.04	-40.4	-42.2	19.3	0.00e+00	0	37	0	0	52	4412
2026-01-22 08:29:16.94	90.85	18.11	-40.3	-42.1	19.4	0.00e+00	0	37	0	0	52	4342
2026-01-22 08:29:18.12	90.63	18.20	-40.3	-42.0	19.4	0.00e+00	0	37	0	0	52	4332
2026-01-22 08:29:18.97	90.47	18.26	-40.1	-41.9	19.6	0.00e+00	0	37	0	0	52	4251
2026-01-22 08:29:20.11	90.25	18.34	-40.1	-41.8	19.6	0.00e+00	0	37	0	0	52	4236
2026-01-22 08:29:20.96	90.09	18.41	-40.1	-41.8	19.6	0.00e+00	0	37	0	0	52	4238
2026-01-22 08:29:22.10	89.88	18.49	-40.0	-41.8	19.6	0.00e+00	0	37	0	0	52	4220
2026-01-22 08:29:22.95	89.72	18.56	-40.2	-42.0	19.5	0.00e+00	0	37	0	0	52	4306
2026-01-22 08:29:24.09	89.50	18.64	-40.3	-42.1	19.3	0.00e+00	0	37	0	0	52	4377
2026-01-22 08:29:25.04	89.32	18.71	-40.2	-42.0	19.4	0.00e+00	0	37	0	0	52	4326
2026-01-22 08:29:26.03	89.12	18.79	-40.2	-42.0	19.5	0.00e+00	0	37	0	0	52	4299
2026-01-22 08:29:27.03	88.93	18.86	-40.2	-41.9	19.5	0.00e+00	0	38	0	0	52	4287
2026-01-22 08:29:28.02	88.74	18.93	-40.1	-41.9	19.6	0.00e+00	0	37	0	0	52	4265
2026-01-22 08:29:29.01	88.54	19.01	-40.2	-42.0	19.4	0.00e+00	0	37	0	0	52	4313
2026-01-22 08:29:30.01	88.35	19.08	-40.4	-42.2	19.2	0.00e+00	0	37	0	0	52	4393
2026-01-22 08:29:31.00	88.15	19.15	-40.5	-42.3	19.1	0.00e+00	0	38	0	0	52	4446
2026-01-22 08:29:32.00	87.95	19.23	-40.4	-42.2	19.2	0.00e+00	0	37	0	0	52	4407
2026-01-22 08:29:32.99	87.75	19.30	-40.4	-42.3	19.1	0.00e+00	0	37	0	0	52	4443
2026-01-22 08:29:33.99	87.55	19.37	-40.4	-42.2	19.2	0.00e+00	0	37	0	0	52	4422
2026-01-22 08:29:34.98	87.35	19.44	-40.3	-42.1	19.4	0.00e+00	0	37	0	0	52	4353
2026-01-22 08:29:35.98	87.15	19.52	-40.3	-42.1	19.3	0.00e+00	0	37	0	0	52	4386
2026-01-22 08:29:36.98	86.95	19.59	-40.4	-42.2	19.3	0.00e+00	0	37	0	0	52	4406
2026-01-22 08:29:37.97	86.74	19.66	-40.3	-42.1	19.3	0.00e+00	0	37	0	0	52	4376
2026-01-22 08:29:38.97	86.54	19.73	-40.3	-42.2	19.3	0.00e+00	0	38	0	0	52	4400
2026-01-22 08:29:39.96	86.33	19.80	-40.3	-42.1	19.3	0.00e+00	0	38	0	0	52	4371
2026-01-22 08:29:40.96	86.13	19.88	-40.3	-42.1	19.3	0.00e+00	0	38	0	0	52	4390
2026-01-22 08:29:41.95	85.92	19.95	-40.5	-42.3	19.2	0.00e+00	0	37	0	0	52	4464
2026-01-22 08:29:42.94	85.71	20.02	-40.3	-42.1	19.4	0.00e+00	0	37	0	0	52	4351
2026-01-22 08:29:43.94	85.50	20.09	-40.4	-42.1	19.3	0.00e+00	0	38	0	0	52	4385
2026-01-22 08:29:44.94	85.29	20.16	-40.2	-42.0	19.5	0.00e+00	0	38	0	0	52	4302
2026-01-22 08:29:45.93	85.08	20.23	-40.1	-41.8	19.6	0.00e+00	0	38	0	0	52	4242
2026-01-22 08:29:46.93	84.87	20.30	-40.1	-41.9	19.6	0.00e+00	0	38	0	0	52	4251
2026-01-22 08:29:47.92	84.65	20.37	-40.2	-41.9	19.5	0.00e+00	0	38	0	0	52	4284
2026-01-22 08:29:48.91	84.44	20.44	-40.1	-41.9	19.5	0.00e+00	0	37	0	0	52	4267
2026-01-22 08:29:49.98	84.21	20.52	-40.1	-41.9	19.5	0.00e+00	0	37	0	0	52	4275
2026-01-22 08:29:50.84	84.02	20.58	-40.3	-42.0	19.4	0.00e+00	0	37	0	0	52	4338
2026-01-22 08:29:51.98	83.77	20.66	-40.2	-42.0	19.5	0.00e+00	0	38	0	0	52	4325
2026-01-22 08:29:52.83	83.59	20.71	-40.2	-41.9	19.5	0.00e+00	0	37	0	0	52	4277
2026-01-22 08:29:53.97	83.34	20.79	-40.1	-41.8	19.6	0.00e+00	0	38	0	0	52	4219
2026-01-22 08:29:54.82	83.15	20.85	-40.0	-41.8	19.6	0.00e+00	0	37	0	0	52	4197
2026-01-22 08:29:55.96	82.89	20.93	-40.1	-41.8	19.6	0.00e+00	0	37	0	0	51	4478
2026-01-22 08:29:56.81	82.70	20.99	-40.2	-42.0	19.5	0.00e+00	0	37	0	0	51	4553
2026-01-22 08:29:57.95	82.45	21.07	-40.3	-42.1	19.4	0.00e+00	0	37	0	0	51	4625
2026-01-22 08:29:58.80	82.26	21.12	-40.3	-42.1	19.4	0.00e+00	0	37	0	0	51	4643
2026-01-22 08:29:59.94	82.00	21.20	-40.3	-42.1	19.5	0.00e+00	0	37	0	0	51	4617
2026-01-22 08:30:00.79	81.81	21.26	-40.3	-42.1	19.4	0.00e+00	0	38	0	0	51	4624
2026-01-22 08:30:01.98	81.53	21.34	-40.3	-42.1	19.5	0.00e+00	0	37	0	0	51	4615
2026-01-22 08:30:02.83	81.34	21.39	-40.3	-42.1	19.5	0.00e+00	0	38	0	0	51	4599
2026-01-22 08:30:04.00	81.07	21.47	-40.2	-41.9	19.6	0.00e+00	0	37	0	0	51	4529
2026-01-22 08:30:04.85	80.87	21.53	-40.2	-42.0	19.6	0.00e+00	0	38	0	0	51	4562
2026-01-22 08:30:06.04	80.60	21.60	-40.3	-42.1	19.5	0.00e+00	0	37	0	0	51	4617
2026-01-22 08:30:06.89	80.40	21.66	-40.3	-42.1	19.5	0.00e+00	0	37	0	0	51	4599
2026-01-22 08:30:08.07	80.12	21.74	-40.1	-41.8	19.7	0.00e+00	0	37	0	0	51	4477
2026-01-22 08:30:08.93	79.92	21.79	-40.1	-41.8	19.7	0.00e+00	0	38	0	0	51	4492
2026-01-22 08:30:10.13	79.64	21.87	-40.1	-41.8	19.7	0.00e+00	0	37	0	0	51	4466
2026-01-22 08:30:10.98	79.44	21.92	-40.0	-41.7	19.8	0.00e+00	0	37	0	0	51	4426
2026-01-22 08:30:12.12	79.16	21.99	-40.0	-41.7	19.8	0.00e+00	0	37	0	0	51	4408
2026-01-22 08:30:12.97	78.96	22.05	-39.9	-41.6	19.9	0.00e+00	0	38	0	0	51	4360
2026-01-22 08:30:14.11	78.69	22.12	-40.0	-41.7	19.7	0.00e+00	0	37	0	0	51	4434
2026-01-22 08:30:14.96	78.48	22.17	-40.0	-41.7	19.8	0.00e+00	0	37	0	0	51	4399
2026-01-22 08:30:16.10	78.21	22.24	-39.9	-41.6	19.9	0.00e+00	0	37	0	0	51	4344
2026-01-22 08:30:17.09	77.96	22.30	-39.8	-41.5	19.9	0.00e+00	0	37	0	0	51	4325
2026-01-22 08:30:18.26	77.68	22.38	-39.9	-41.6	19.9	0.00e+00	0	37	0	0	51	4341
2026-01-22 08:30:19.12	77.47	22.43	-39.8	-41.5	19.8	0.00e+00	0	37	0	0	51	4334
2026-01-22 08:30:20.49	77.13	22.51	-40.1	-41.8	19.6	0.00e+00	0	37	0	0	51	4463
2026-01-22 08:30:21.20	76.96	22.55	-40.1	-41.8	19.5	0.00e+00	0	37	0	0	51	4489
2026-01-22 08:30:22.48	76.64	22.63	-40.2	-41.9	19.6	0.00e+00	0	37	0	0	51	4524
2026-01-22 08:30:23.19	76.46	22.67	-40.1	-41.9	19.7	0.00e+00	0	38	0	0	51	4496
2026-01-22 08:30:24.47	76.14	22.74	-40.2	-42.0	19.6	0.00e+00	0	37	0	0	51	4555
2026-01-22 08:30:25.18	75.96	22.79	-40.0	-41.7	19.8	0.00e+00	0	38	0	0	51	4423
2026-01-22 08:30:26.46	75.64	22.86	-40.0	-41.7	19.9	0.00e+00	0	38	0	0	51	4399
2026-01-22 08:30:27.17	75.46	22.90	-40.0	-41.7	19.8	0.00e+00	0	38	0	0	51	4414
2026-01-22 08:30:28.45	75.14	22.97	-39.9	-41.6	19.9	0.00e+00	0	37	0	0	51	4386
2026-01-22 08:30:29.16	74.96	23.01	-40.0	-41.7	19.9	0.00e+00	0	38	0	0	51	4411
2026-01-22 08:30:30.43	74.63	23.08	-40.0	-41.7	19.8	0.00e+00	0	37	0	0	51	4427
2026-01-22 08:30:31.16	74.44	23.12	-39.9	-41.6	19.9	0.00e+00	0	38	0	0	51	4389
2026-01-22 08:30:32.44	74.11	23.19	-39.8	-41.5	20.0	0.00e+00	0	37	0	0	51	4323
2026-01-22 08:30:33.16	73.93	23.23	-39.8	-41.5	20.0	0.00e+00	0	38	0	0	51	4319
2026-01-22 08:30:34.48	73.59	23.30	-39.9	-41.6	19.8	0.00e+00	0	37	0	0	51	4346
2026-01-22 08:30:35.19	73.40	23.34	-39.8	-41.5	20.0	0.00e+00	0	38	0	0	51	4321
2026-01-22 08:30:36.53	73.05	23.41	-39.9	-41.6	19.9	0.00e+00	0	37	0	0	51	4347
2026-01-22 08:30:37.24	72.87	23.45	-39.8	-41.5	19.9	0.00e+00	0	37	0	0	51	4329
2026-01-22 08:30:38.58	72.51	23.51	-40.0	-41.8	19.7	0.00e+00	0	38	0	0	51	4444
2026-01-22 08:30:39.29	72.33	23.55	-40.1	-41.8	19.7	0.00e+00	0	37	0	0	51	4467
2026-01-22 08:30:40.65	71.97	23.62	-40.2	-42.0	19.5	0.00e+00	0	37	0	0	51	4560
2026-01-22 08:30:41.36	71.78	23.65	-40.2	-41.9	19.6	0.00e+00	0	38	0	0	51	4524
2026-01-22 08:30:42.64	71.44	23.72	-40.1	-41.8	19.7	0.00e+00	0	38	0	0	51	4468
2026-01-22 08:30:43.65	71.17	23.76	-40.1	-41.9	19.7	0.00e+00	0	38	0	0	51	4500
2026-01-22 08:30:44.95	70.82	23.83	-40.0	-41.7	19.8	0.00e+00	0	38	0	0	51	4436
2026-01-22 08:30:45.69	70.62	23.86	-40.0	-41.8	19.7	0.00e+00	0	38	0	0	51	4447
2026-01-22 08:30:46.97	70.27	23.92	-40.0	-41.7	19.8	0.00e+00	0	38	0	0	51	4427
2026-01-22 08:30:47.69	70.08	23.95	-40.1	-41.8	19.8	0.00e+00	0	37	0	0	51	4465
2026-01-22 08:30:49.29	69.65	24.03	-40.0	-41.7	19.8	0.00e+00	0	38	0	0	51	4422
2026-01-22 08:30:49.86	69.49	24.05	-40.1	-41.8	19.8	0.00e+00	0	38	0	0	51	4451
2026-01-22 08:30:51.57	69.02	24.13	-40.0	-41.7	19.8	0.00e+00	0	38	0	0	51	4417
2026-01-22 08:30:52.13	68.87	24.15	-40.0	-41.7	19.8	0.00e+00	0	37	0	0	51	4407
2026-01-22 08:30:53.87	68.39	24.22	-40.0	-41.7	19.8	0.00e+00	0	38	0	0	51	4405
2026-01-22 08:30:54.44	68.23	24.25	-39.9	-41.6	19.9	0.00e+00	0	38	0	0	51	4345
2026-01-22 08:30:56.15	67.76	24.32	-40.0	-41.7	19.8	0.00e+00	0	38	0	0	51	4395
2026-01-22 08:30:56.72	67.60	24.34	-39.9	-41.6	19.9	0.00e+00	0	38	0	0	51	4357
2026-01-22 08:30:58.42	67.13	24.41	-39.8	-41.5	19.9	0.00e+00	0	38	0	0	51	4322
2026-01-22 08:30:58.99	66.97	24.43	-39.9	-41.6	19.8	0.00e+00	0	38	0	0	51	4362
2026-01-22 08:31:00.70	66.49	24.49	-40.1	-41.8	19.6	0.00e+00	0	37	0	0	51	4455
2026-01-22 08:31:01.53	66.26	24.52	-40.1	-41.8	19.6	0.00e+00	0	38	0	0	51	4484
2026-01-22 08:31:02.67	65.94	24.56	-40.1	-41.9	19.6	0.00e+00	0	38	0	0	51	4494
2026-01-22 08:31:03.52	65.70	24.59	-40.1	-41.8	19.7	0.00e+00	0	37	0	0	51	4480
2026-01-22 08:31:04.66	65.38	24.63	-40.1	-41.8	19.7	0.00e+00	0	38	0	0	51	4483
2026-01-22 08:31:05.51	65.14	24.66	-40.1	-41.8	19.8	0.00e+00	0	37	0	0	51	4455
2026-01-22 08:31:06.65	64.82	24.70	-40.0	-41.6	19.9	0.00e+00	0	38	0	0	51	4389
2026-01-22 08:31:07.50	64.57	24.73	-39.9	-41.6	19.9	0.00e+00	0	38	0	0	51	4363
2026-01-22 08:31:08.64	64.25	24.76	-39.9	-41.6	19.9	0.00e+00	0	37	0	0	51	4368
2026-01-22 08:31:09.49	64.01	24.79	-40.0	-41.7	19.8	0.00e+00	0	37	0	0	51	4425
2026-01-22 08:31:10.63	63.68	24.83	-40.0	-41.7	19.9	0.00e+00	0	37	0	0	51	4424
2026-01-22 08:31:11.48	63.44	24.85	-40.0	-41.8	19.8	0.00e+00	0	38	0	0	51	4446
2026-01-22 08:31:12.62	63.11	24.88	-39.9	-41.6	20.0	0.00e+00	0	37	0	0	51	4379
2026-01-22 08:31:13.47	62.87	24.91	-39.9	-41.6	20.0	0.00e+00	0	38	0	0	51	4377
2026-01-22 08:31:14.61	62.54	24.94	-39.8	-41.5	20.1	0.00e+00	0	37	0	0	51	4315
2026-01-22 08:31:15.46	62.29	24.96	-39.8	-41.5	20.1	0.00e+00	0	38	0	0	51	4303
2026-01-22 08:31:16.60	61.96	24.99	-39.8	-41.5	20.1	0.00e+00	0	37	0	0	51	4301
2026-01-22 08:31:17.45	61.72	25.01	-39.8	-41.5	20.0	0.00e+00	0	38	0	0	51	4328
2026-01-22 08:31:18.59	61.39	25.04	-39.6	-41.3	20.3	0.00e+00	0	38	0	0	51	4217
2026-01-22 08:31:19.44	61.14	25.06	-39.5	-41.2	20.4	0.00e+00	0	38	0	0	51	4161
2026-01-22 08:31:20.62	60.80	25.09	-39.5	-41.1	20.4	0.00e+00	0	38	0	0	50	4383
2026-01-22 08:31:21.47	60.55	25.11	-39.6	-41.2	20.3	0.00e+00	0	38	0	0	50	4422
2026-01-22 08:31:22.61	60.22	25.13	-39.6	-41.3	20.2	0.00e+00	0	38	0	0	50	4474
2026-01-22 08:31:23.47	59.97	25.15	-39.7	-41.4	20.2	0.00e+00	0	38	0	0	50	4496
2026-01-22 08:31:24.61	59.63	25.17	-39.8	-41.5	20.0	0.00e+00	0	38	0	0	50	4596
2026-01-22 08:31:25.46	59.38	25.19	-39.9	-41.6	20.0	0.00e+00	0	37	0	0	50	4610
2026-01-22 08:31:26.59	59.05	25.21	-39.9	-41.6	19.9	0.00e+00	0	38	0	0	50	4649
2026-01-22 08:31:27.45	58.80	25.22	-39.9	-41.6	20.0	0.00e+00	0	38	0	0	50	4639
2026-01-22 08:31:28.58	58.47	25.24	-39.9	-41.6	19.9	0.00e+00	0	38	0	0	50	4633
2026-01-22 08:31:29.59	58.17	25.25	-39.9	-41.6	19.9	0.00e+00	0	38	0	0	50	4618
2026-01-22 08:31:30.76	57.83	25.27	-39.9	-41.6	19.9	0.00e+00	0	38	0	0	50	4624
2026-01-22 08:31:31.62	57.57	25.28	-39.8	-41.5	20.0	0.00e+00	0	38	0	0	50	4559
2026-01-22 08:31:32.75	57.24	25.30	-40.0	-41.7	19.8	0.00e+00	0	38	0	0	50	4673
2026-01-22 08:31:33.61	56.99	25.31	-40.0	-41.7	19.8	0.00e+00	0	38	0	0	50	4703
2026-01-22 08:31:34.75	56.65	25.32	-40.1	-41.8	19.8	0.00e+00	0	37	0	0	50	4751
2026-01-22 08:31:35.60	56.40	25.33	-40.1	-41.8	19.9	0.00e+00	0	38	0	0	50	4714
2026-01-22 08:31:36.73	56.07	25.34	-40.0	-41.7	19.9	0.00e+00	0	38	0	0	50	4692
2026-01-22 08:31:37.59	55.81	25.35	-39.9	-41.6	20.0	0.00e+00	0	38	0	0	50	4642
2026-01-22 08:31:38.72	55.48	25.36	-40.0	-41.7	19.9	0.00e+00	0	38	0	0	50	4662
2026-01-22 08:31:39.58	55.22	25.36	-39.9	-41.6	19.9	0.00e+00	0	37	0	0	50	4645
2026-01-22 08:31:40.72	54.89	25.37	-39.9	-41.6	20.0	0.00e+00	0	38	0	0	50	4599
2026-01-22 08:31:41.57	54.63	25.38	-39.7	-41.4	20.1	0.00e+00	0	38	0	0	50	4531
2026-01-22 08:31:42.71	54.30	25.38	-39.7	-41.4	20.2	0.00e+00	0	37	0	0	50	4508
2026-01-22 08:31:43.56	54.04	25.38	-39.8	-41.4	20.1	0.00e+00	0	38	0	0	50	4541
2026-01-22 08:31:44.70	53.71	25.39	-39.7	-41.4	20.2	0.00e+00	0	38	0	0	50	4502
2026-01-22 08:31:45.60	53.44	25.39	-39.8	-41.5	20.1	0.00e+00	0	38	0	0	50	4550
2026-01-22 08:31:46.82	53.08	25.39	-39.9	-41.6	19.9	0.00e+00	0	38	0	0	50	4647
2026-01-22 08:31:47.67	52.83	25.39	-40.1	-41.8	19.8	0.00e+00	0	38	0	0	50	4719
2026-01-22 08:31:48.98	52.44	25.39	-40.1	-41.9	19.7	0.00e+00	0	38	0	0	50	4763
2026-01-22 08:31:49.69	52.23	25.39	-40.2	-42.0	19.7	0.00e+00	0	38	0	0	51	4551
2026-01-22 08:31:51.18	51.79	25.39	-40.1	-41.8	19.8	0.00e+00	0	38	0	0	51	4450
2026-01-22 08:31:51.89	51.58	25.39	-39.8	-41.5	20.0	0.00e+00	0	38	0	0	51	4327
2026-01-22 08:31:53.17	51.20	25.38	-39.8	-41.5	20.1	0.00e+00	0	38	0	0	51	4303
2026-01-22 08:31:53.88	50.99	25.38	-39.9	-41.6	19.9	0.00e+00	0	38	0	0	51	4367
2026-01-22 08:31:55.16	50.61	25.37	-39.8	-41.5	20.1	0.00e+00	0	38	0	0	51	4300
2026-01-22 08:31:56.27	50.28	25.36	-39.8	-41.5	20.0	0.00e+00	0	38	0	0	51	4296
2026-01-22 08:31:57.12	50.03	25.36	-39.8	-41.5	20.1	0.00e+00	0	38	0	0	51	4303
2026-01-22 08:31:58.26	49.69	25.35	-39.8	-41.5	20.0	0.00e+00	0	38	0	0	51	4320
2026-01-22 08:31:59.11	49.44	25.34	-39.9	-41.5	20.0	0.00e+00	0	38	0	0	51	4339
2026-01-22 08:32:00.25	49.10	25.33	-40.0	-41.7	20.0	0.00e+00	0	38	0	0	51	4400
2026-01-22 08:32:01.10	48.85	25.32	-39.8	-41.5	20.2	0.00e+00	0	37	0	0	51	4299
2026-01-22 08:32:02.24	48.52	25.30	-39.8	-41.4	20.1	0.00e+00	0	38	0	0	51	4287
2026-01-22 08:32:03.10	48.26	25.29	-39.9	-41.6	20.0	0.00e+00	0	38	0	0	51	4352
2026-01-22 08:32:04.23	47.93	25.28	-39.9	-41.6	20.0	0.00e+00	0	38	0	0	51	4380
2026-01-22 08:32:05.09	47.68	25.27	-39.8	-41.5	20.1	0.00e+00	0	38	0	0	51	4322
2026-01-22 08:32:06.22	47.34	25.25	-39.8	-41.5	20.1	0.00e+00	0	38	0	0	51	4298
2026-01-22 08:32:07.08	47.09	25.24	-39.8	-41.5	20.1	0.00e+00	0	38	0	0	51	4318
2026-01-22 08:32:08.58	46.65	25.21	-40.0	-41.6	19.9	0.00e+00	0	38	0	0	51	4389
2026-01-22 08:32:09.29	46.44	25.20	-40.1	-41.8	19.8	0.00e+00	0	38	0	0	51	4466
2026-01-22 08:32:10.57	46.07	25.18	-40.2	-42.0	19.7	0.00e+00	0	38	0	0	51	4556
2026-01-22 08:32:11.28	45.86	25.16	-40.2	-41.9	19.7	0.00e+00	0	38	0	0	51	4533
2026-01-22 08:32:12.55	45.49	25.14	-40.1	-41.8	19.8	0.00e+00	0	37	0	0	51	4482
2026-01-22 08:32:13.28	45.28	25.12	-40.1	-41.8	19.8	0.00e+00	0	38	0	0	51	4461
2026-01-22 08:32:14.56	44.91	25.09	-40.0	-41.7	19.9	0.00e+00	0	37	0	0	51	4406
2026-01-22 08:32:15.29	44.69	25.08	-40.0	-41.7	19.9	0.00e+00	0	38	0	0	51	4426
2026-01-22 08:32:16.57	44.32	25.05	-39.8	-41.5	20.1	0.00e+00	0	38	0	0	51	4331
2026-01-22 08:32:17.28	44.12	25.03	-39.8	-41.5	20.1	0.00e+00	0	37	0	0	51	4323
2026-01-22 08:32:18.56	43.75	25.00	-39.9	-41.6	20.0	0.00e+00	0	38	0	0	51	4346
2026-01-22 08:32:19.27	43.54	24.98	-39.9	-41.6	20.0	0.00e+00	0	38	0	0	51	4372
2026-01-22 08:32:20.55	43.17	24.95	-40.0	-41.6	20.0	0.00e+00	0	38	0	0	51	4389
2026-01-22 08:32:21.29	42.96	24.93	-40.0	-41.7	19.9	0.00e+00	0	38	0	0	51	4402
2026-01-22 08:32:22.57	42.59	24.89	-40.1	-41.8	19.8	0.00e+00	0	38	0	0	51	4486
2026-01-22 08:32:23.29	42.39	24.87	-40.3	-42.0	19.6	0.00e+00	0	38	0	0	51	4569
2026-01-22 08:32:24.64	42.00	24.83	-40.5	-42.2	19.4	0.00e+00	0	38	0	0	51	4693
2026-01-22 08:32:25.35	41.80	24.81	-40.4	-42.2	19.4	0.00e+00	0	38	0	0	51	4654
2026-01-22 08:32:26.63	41.43	24.77	-40.4	-42.2	19.4	0.00e+00	0	38	0	0	51	4671
2026-01-22 08:32:27.67	41.14	24.74	-40.5	-42.2	19.4	0.00e+00	0	38	0	0	51	4680
2026-01-22 08:32:28.96	40.77	24.70	-40.4	-42.1	19.5	0.00e+00	0	38	0	0	51	4620
2026-01-22 08:32:29.70	40.56	24.67	-40.2	-42.0	19.7	0.00e+00	0	38	0	0	51	4554
2026-01-22 08:32:30.98	40.20	24.63	-40.2	-42.0	19.7	0.00e+00	0	38	0	0	51	4550
2026-01-22 08:32:31.70	40.00	24.61	-40.1	-41.8	19.8	0.00e+00	0	38	0	0	51	4449
2026-01-22 08:32:32.98	39.64	24.56	-40.1	-41.8	19.8	0.00e+00	0	38	0	0	51	4456
2026-01-22 08:32:33.69	39.44	24.53	-40.0	-41.6	19.9	0.00e+00	0	38	0	0	51	4389
2026-01-22 08:32:34.97	39.08	24.49	-39.9	-41.6	19.9	0.00e+00	0	38	0	0	51	4378
2026-01-22 08:32:35.69	38.88	24.46	-40.0	-41.7	19.8	0.00e+00	0	38	0	0	51	4395
2026-01-22 08:32:36.97	38.52	24.41	-40.0	-41.7	19.8	0.00e+00	0	38	0	0	51	4408
2026-01-22 08:32:37.70	38.32	24.38	-40.0	-41.7	19.8	0.00e+00	0	38	0	0	51	4432
2026-01-22 08:32:39.06	37.94	24.33	-40.0	-41.7	19.9	0.00e+00	0	38	0	0	51	4395
2026-01-22 08:32:39.77	37.74	24.30	-40.0	-41.7	19.9	0.00e+00	0	38	0	0	51	4398
2026-01-22 08:32:41.05	37.39	24.25	-40.0	-41.7	19.9	0.00e+00	0	38	0	0	51	4405
2026-01-22 08:32:41.76	37.20	24.22	-40.1	-41.7	19.8	0.00e+00	0	38	0	0	51	4437
2026-01-22 08:32:43.15	36.81	24.16	-40.0	-41.7	19.8	0.00e+00	0	38	0	0	51	4426
2026-01-22 08:32:43.86	36.62	24.13	-40.0	-41.7	19.8	0.00e+00	0	38	0	0	51	4415
2026-01-22 08:32:45.20	36.26	24.07	-40.0	-41.7	19.8	0.00e+00	0	38	0	0	51	4420
2026-01-22 08:32:45.92	36.06	24.04	-40.1	-41.8	19.7	0.00e+00	0	38	0	0	51	4476
2026-01-22 08:32:47.19	35.71	23.98	-39.9	-41.6	19.8	0.00e+00	0	38	0	0	51	4381
2026-01-22 08:32:47.90	35.52	23.95	-40.0	-41.7	19.8	0.00e+00	0	38	0	0	51	4413
2026-01-22 08:32:49.19	35.18	23.89	-39.9	-41.6	19.8	0.00e+00	0	38	0	0	51	4380
2026-01-22 08:32:49.90	34.98	23.86	-40.0	-41.7	19.8	0.00e+00	0	38	0	0	51	4406
2026-01-22 08:32:51.17	34.64	23.80	-40.2	-41.9	19.7	0.00e+00	0	38	0	0	51	4518
2026-01-22 08:32:51.92	34.44	23.76	-40.3	-42.0	19.6	0.00e+00	0	38	0	0	51	4595
2026-01-22 08:32:53.19	34.11	23.70	-40.3	-42.1	19.6	0.00e+00	0	38	0	0	51	4599
2026-01-22 08:32:53.91	33.91	23.67	-40.3	-42.1	19.6	0.00e+00	0	38	0	0	51	4613
2026-01-22 08:32:55.18	33.58	23.61	-40.4	-42.1	19.5	0.00e+00	0	38	0	0	51	4628
2026-01-22 08:32:55.97	33.37	23.57	-40.4	-42.1	19.5	0.00e+00	0	38	0	0	51	4648
2026-01-22 08:32:57.19	33.05	23.50	-40.5	-42.2	19.4	0.00e+00	0	38	0	0	51	4687
2026-01-22 08:32:58.04	32.83	23.46	-40.2	-42.0	19.6	0.00e+00	0	38	0	0	51	4557
2026-01-22 08:32:59.18	32.53	23.40	-40.2	-42.0	19.6	0.00e+00	0	38	0	0	51	4546
2026-01-22 08:33:00.24	32.25	23.35	-40.2	-42.0	19.6	0.00e+00	0	38	0	0	51	4568
2026-01-22 08:33:01.11	32.03	23.30	-40.3	-42.1	19.5	0.00e+00	0	38	0	0	51	4601
2026-01-22 08:33:02.24	31.74	23.24	-40.1	-41.8	19.7	0.00e+00	0	38	0	0	51	4479
2026-01-22 08:33:03.09	31.52	23.19	-40.0	-41.8	19.8	0.00e+00	0	38	0	0	51	4447
2026-01-22 08:33:04.23	31.22	23.13	-40.0	-41.7	19.8	0.00e+00	0	38	0	0	51	4439
2026-01-22 08:33:05.09	31.00	23.09	-40.0	-41.7	19.8	0.00e+00	0	38	0	0	51	4413
2026-01-22 08:33:06.22	30.72	23.02	-39.9	-41.7	19.9	0.00e+00	0	38	0	0	51	4393
2026-01-22 08:33:07.41	30.42	22.96	-40.0	-41.7	19.8	0.00e+00	0	37	0	0	51	4436
2026-01-22 08:33:08.26	30.20	22.91	-39.9	-41.6	19.9	0.00e+00	0	38	0	0	51	4383
2026-01-22 08:33:09.40	29.91	22.84	-39.9	-41.6	20.0	0.00e+00	0	38	0	0	51	4353
2026-01-22 08:33:10.25	29.70	22.80	-39.8	-41.5	19.9	0.00e+00	0	38	0	0	51	4331
2026-01-22 08:33:11.39	29.41	22.73	-40.0	-41.7	19.7	0.00e+00	0	38	0	0	51	4416
2026-01-22 08:33:12.25	29.20	22.68	-40.1	-41.8	19.7	0.00e+00	0	38	0	0	51	4449
2026-01-22 08:33:13.48	28.90	22.61	-40.1	-41.8	19.7	0.00e+00	0	38	0	0	51	4454
2026-01-22 08:33:14.33	28.69	22.56	-40.1	-41.8	19.7	0.00e+00	0	38	0	0	51	4467
2026-01-22 08:33:15.47	28.41	22.49	-40.2	-41.9	19.6	0.00e+00	0	38	0	0	51	4518
2026-01-22 08:33:16.32	28.20	22.44	-40.2	-41.9	19.6	0.00e+00	0	38	0	0	51	4510
2026-01-22 08:33:17.62	27.88	22.36	-40.2	-41.9	19.7	0.00e+00	0	38	0	0	51	4526
2026-01-22 08:33:18.33	27.71	22.32	-40.2	-41.9	19.7	0.00e+00	0	38	0	0	51	4536
2026-01-22 08:33:19.61	27.40	22.24	-40.2	-41.9	19.7	0.00e+00	0	38	0	0	51	4524
2026-01-22 08:33:20.32	27.23	22.19	-40.3	-42.0	19.7	0.00e+00	0	38	0	0	51	4566
2026-01-22 08:33:21.60	26.92	22.12	-40.3	-42.1	19.5	0.00e+00	0	38	0	0	51	4620
2026-01-22 08:33:22.31	26.75	22.07	-40.2	-41.9	19.7	0.00e+00	0	38	0	0	51	4544
2026-01-22 08:33:23.59	26.44	21.99	-40.0	-41.7	19.8	0.00e+00	0	38	0	0	51	4423
2026-01-22 08:33:24.30	26.27	21.95	-39.8	-41.5	20.0	0.00e+00	0	38	0	0	51	4340
2026-01-22 08:33:25.58	25.97	21.86	-39.7	-41.4	20.0	0.00e+00	0	38	0	0	51	4286
2026-01-22 08:33:26.29	25.80	21.82	-39.6	-41.3	20.1	0.00e+00	0	38	0	0	51	4230
2026-01-22 08:33:27.60	25.50	21.74	-39.6	-41.4	20.2	0.00e+00	0	38	0	0	51	4248
2026-01-22 08:33:28.32	25.33	21.69	-39.6	-41.3	20.2	0.00e+00	0	38	0	0	51	4215
2026-01-22 08:33:29.59	25.03	21.61	-39.8	-41.5	20.0	0.00e+00	0	38	0	0	51	4322
2026-01-22 08:33:30.63	24.79	21.54	-39.9	-41.6	19.9	0.00e+00	0	38	0	0	51	4385
2026-01-22 08:33:31.88	24.51	21.46	-40.0	-41.8	19.8	0.00e+00	0	38	0	0	51	4455
2026-01-22 08:33:32.70	24.32	21.40	-39.9	-41.7	19.8	0.00e+00	0	38	0	0	51	4422
2026-01-22 08:33:33.84	24.06	21.33	-39.9	-41.6	19.9	0.00e+00	0	38	0	0	51	4389
2026-01-22 08:33:34.69	23.87	21.27	-39.8	-41.6	19.9	0.00e+00	0	38	0	0	51	4369
2026-01-22 08:33:35.83	23.61	21.19	-39.7	-41.5	20.0	0.00e+00	0	37	0	0	51	4312
2026-01-22 08:33:36.68	23.42	21.14	-39.8	-41.6	20.0	0.00e+00	0	38	0	0	51	4342
2026-01-22 08:33:37.82	23.16	21.06	-39.8	-41.5	20.0	0.00e+00	0	38	0	0	51	4333
2026-01-22 08:33:38.67	22.97	21.00	-40.0	-41.7	19.9	0.00e+00	0	38	0	0	51	4429
2026-01-22 08:33:39.81	22.72	20.92	-39.8	-41.5	20.1	0.00e+00	0	38	0	0	51	4305
2026-01-22 08:33:40.66	22.53	20.87	-39.7	-41.4	20.1	0.00e+00	0	38	0	0	51	4263
2026-01-22 08:33:41.80	22.28	20.79	-39.7	-41.4	20.1	0.00e+00	0	38	0	0	51	4272
2026-01-22 08:33:42.65	22.09	20.73	-39.8	-41.5	20.0	0.00e+00	0	38	0	0	51	4307
2026-01-22 08:33:43.79	21.84	20.65	-39.8	-41.5	19.9	0.00e+00	0	38	0	0	51	4328
2026-01-22 08:33:44.67	21.65	20.59	-39.8	-41.5	20.0	0.00e+00	0	38	0	0	51	4311
2026-01-22 08:33:45.98	21.37	20.50	-39.6	-41.4	20.1	0.00e+00	0	38	0	0	51	4243
2026-01-22 08:33:46.69	21.22	20.45	-39.6	-41.4	20.0	0.00e+00	0	38	0	0	51	4279
2026-01-22 08:33:47.97	20.94	20.36	-39.7	-41.6	19.8	0.00e+00	0	37	0	0	51	4348
2026-01-22 08:33:48.70	20.79	20.31	-39.9	-41.7	19.7	0.00e+00	0	38	0	0	51	4426
2026-01-22 08:33:50.23	20.46	20.20	-40.2	-42.0	19.6	0.00e+00	0	38	0	0	51	4555
2026-01-22 08:33:50.95	20.31	20.15	-40.3	-42.1	19.5	0.00e+00	0	38	0	0	51	4612
2026-01-22 08:33:52.22	20.04	20.06	-40.3	-42.2	19.5	0.00e+00	0	38	0	0	51	4654
2026-01-22 08:33:52.94	19.89	20.01	-40.3	-42.2	19.5	0.00e+00	0	38	0	0	51	4653
2026-01-22 08:33:54.22	19.63	19.92	-40.3	-42.1	19.5	0.00e+00	0	38	0	0	51	4641
2026-01-22 08:33:54.93	19.48	19.87	-40.2	-42.0	19.5	0.00e+00	0	38	0	0	51	4593
2026-01-22 08:33:56.20	19.22	19.77	-40.0	-41.8	19.8	0.00e+00	0	38	0	0	51	4455
2026-01-22 08:33:56.93	19.07	19.72	-40.0	-41.7	19.8	0.00e+00	0	38	0	0	51	4436
2026-01-22 08:33:58.21	18.81	19.63	-40.0	-41.8	19.8	0.00e+00	0	38	0	0	51	4467
2026-01-22 08:33:58.94	18.66	19.58	-40.1	-41.9	19.7	0.00e+00	0	38	0	0	51	4495
2026-01-22 08:34:00.22	18.40	19.48	-40.2	-41.9	19.7	0.00e+00	0	38	0	0	51	4529
2026-01-22 08:34:00.98	18.25	19.43	-40.3	-42.0	19.5	0.00e+00	0	37	0	0	51	4588
2026-01-22 08:34:02.26	17.99	19.34	-40.3	-42.1	19.4	0.00e+00	0	38	0	0	51	4640
2026-01-22 08:34:02.97	17.85	19.28	-40.3	-42.1	19.4	0.00e+00	0	37	0	0	51	4624
2026-01-22 08:34:04.25	17.60	19.19	-40.3	-42.1	19.4	0.00e+00	0	38	0	0	51	4629
2026-01-22 08:34:04.99	17.45	19.14	-40.2	-42.0	19.5	0.00e+00	0	38	0	0	51	4553
2026-01-22 08:34:06.27	17.20	19.04	-40.2	-42.0	19.4	0.00e+00	0	38	0	0	51	4589
2026-01-22 08:34:07.19	17.02	18.98	-40.2	-42.0	19.5	0.00e+00	0	37	0	0	51	4583
2026-01-22 08:34:08.48	16.77	18.88	-40.3	-42.0	19.5	0.00e+00	0	38	0	0	51	4596
2026-01-22 08:34:09.19	16.63	18.83	-40.3	-42.1	19.4	0.00e+00	0	38	0	0	51	4624
2026-01-22 08:34:10.47	16.38	18.73	-40.4	-42.2	19.4	0.00e+00	0	38	0	0	51	4675
2026-01-22 08:34:11.18	16.25	18.68	-40.6	-42.3	19.3	0.00e+00	0	38	0	0	51	4751
2026-01-22 08:34:12.46	16.01	18.59	-40.6	-42.4	19.2	0.00e+00	0	38	0	0	52	4517
2026-01-22 08:34:13.18	15.87	18.53	-40.7	-42.5	19.1	0.00e+00	0	38	0	0	52	4577
2026-01-22 08:34:14.47	15.63	18.44	-40.8	-42.6	19.0	0.00e+00	0	38	0	0	52	4602
2026-01-22 08:34:15.18	15.49	18.38	-40.8	-42.6	19.0	0.00e+00	0	38	0	0	52	4606
2026-01-22 08:34:16.52	15.24	18.28	-40.8	-42.7	18.9	0.00e+00	0	38	0	0	52	4653
2026-01-22 08:34:17.23	15.11	18.23	-40.8	-42.6	19.0	0.00e+00	0	38	0	0	52	4615
2026-01-22 08:34:18.51	14.87	18.14	-40.8	-42.6	18.9	0.00e+00	0	38	0	0	52	4631
2026-01-22 08:34:19.22	14.74	18.08	-40.9	-42.7	18.9	0.00e+00	0	38	0	0	52	4687
2026-01-22 08:34:20.50	14.51	17.99	-40.7	-42.5	19.0	0.00e+00	0	38	0	0	52	4596
2026-01-22 08:34:21.24	14.38	17.93	-40.6	-42.5	19.0	0.00e+00	0	38	0	0	52	4581
2026-01-22 08:34:22.52	14.14	17.84	-40.8	-42.7	18.8	0.00e+00	0	38	0	0	52	4692
2026-01-22 08:34:23.25	14.01	17.78	-40.8	-42.7	18.8	0.00e+00	0	38	0	0	52	4691
2026-01-22 08:34:24.75	13.74	17.67	-40.8	-42.8	18.7	0.00e+00	0	38	0	0	52	4728
2026-01-22 08:34:25.46	13.62	17.62	-40.8	-42.8	18.7	0.00e+00	0	38	0	0	52	4746
2026-01-22 08:34:26.74	13.39	17.52	-40.8	-42.8	18.7	0.00e+00	0	38	0	0	52	4732
2026-01-22 08:34:27.48	13.26	17.46	-40.6	-42.6	18.9	0.00e+00	0	38	0	0	52	4620
2026-01-22 08:34:28.76	13.03	17.37	-40.5	-42.5	19.0	0.00e+00	0	38	0	0	52	4551
2026-01-22 08:34:29.47	12.91	17.31	-40.6	-42.5	19.0	0.00e+00	0	38	0	0	52	4596
2026-01-22 08:34:30.75	12.69	17.22	-40.5	-42.5	19.1	0.00e+00	0	38	0	0	52	4555
2026-01-22 08:34:31.46	12.57	17.16	-40.4	-42.4	19.1	0.00e+00	0	38	0	0	52	4512
2026-01-22 08:34:32.74	12.35	17.07	-40.4	-42.4	19.2	0.00e+00	0	38	0	0	52	4501
2026-01-22 08:34:33.46	12.22	17.01	-40.4	-42.4	19.1	0.00e+00	0	38	0	0	52	4495
2026-01-22 08:34:34.75	12.00	16.91	-40.4	-42.4	19.2	0.00e+00	0	38	0	0	52	4501
2026-01-22 08:34:35.46	11.88	16.86	-40.3	-42.3	19.2	0.00e+00	0	38	0	0	52	4450
2026-01-22 08:34:36.74	11.67	16.76	-40.3	-42.2	19.3	0.00e+00	0	38	0	0	52	4430
2026-01-22 08:34:37.45	11.55	16.71	-40.2	-42.1	19.4	0.00e+00	0	37	0	0	52	4356
2026-01-22 08:34:38.72	11.34	16.61	-40.2	-42.1	19.3	0.00e+00	0	38	0	0	52	4388
2026-01-22 08:34:39.67	11.18	16.54	-40.2	-42.1	19.4	0.00e+00	0	38	0	0	52	4353
2026-01-22 08:34:40.95	10.97	16.45	-40.3	-42.2	19.3	0.00e+00	0	37	0	0	52	4405
2026-01-22 08:34:41.69	10.85	16.39	-40.4	-42.3	19.2	0.00e+00	0	38	0	0	52	4456
2026-01-22 08:34:43.27	10.59	16.27	-40.5	-42.4	19.1	0.00e+00	0	37	0	0	52	4503
2026-01-22 08:34:43.92	10.48	16.22	-40.6	-42.5	19.1	0.00e+00	0	38	0	0	52	4554
2026-01-22 08:34:45.43	10.24	16.11	-40.7	-42.6	18.9	0.00e+00	0	38	0	0	52	4622
2026-01-22 08:34:46.15	10.13	16.05	-40.7	-42.7	18.8	0.00e+00	0	38	0	0	52	4671
2026-01-22 08:34:47.82	9.86	15.93	-40.8	-42.8	18.7	0.00e+00	0	38	0	0	52	4756
2026-01-22 08:34:48.39	9.77	15.88	-40.8	-42.8	18.7	0.00e+00	0	38	0	0	52	4728
2026-01-22 08:34:50.10	9.50	15.75	-40.8	-42.7	18.8	0.00e+00	0	38	0	0	52	4684
2026-01-22 08:34:50.67	9.41	15.71	-40.8	-42.7	18.7	0.00e+00	0	38	0	0	52	4690
2026-01-22 08:34:52.37	9.15	15.58	-40.6	-42.4	19.0	0.00e+00	0	38	0	0	52	4538
2026-01-22 08:34:52.94	9.06	15.54	-40.5	-42.3	19.2	0.00e+00	0	38	0	0	52	4486
2026-01-22 08:34:54.65	8.80	15.41	-40.5	-42.4	19.1	0.00e+00	0	38	0	0	52	4504
2026-01-22 08:34:55.34	8.69	15.36	-40.5	-42.4	19.1	0.00e+00	0	38	0	0	52	4522
2026-01-22 08:34:56.76	8.47	15.25	-40.7	-42.6	19.0	0.00e+00	0	37	0	0	52	4626
2026-01-22 08:34:57.48	8.36	15.20	-40.7	-42.6	18.9	0.00e+00	0	38	0	0	52	4651
2026-01-22 08:34:58.76	8.17	15.10	-41.0	-43.0	18.6	0.00e+00	0	38	0	0	52	4863
2026-01-22 08:34:59.61	8.05	15.04	-41.1	-43.1	18.5	0.00e+00	0	38	0	0	52	4918
2026-01-22 08:35:00.75	7.88	14.95	-41.3	-43.3	18.3	0.00e+00	0	38	0	0	53	4719
2026-01-22 08:35:01.60	7.75	14.89	-41.2	-43.2	18.3	0.00e+00	0	38	0	0	53	4698
2026-01-22 08:35:02.74	7.58	14.80	-41.2	-43.3	18.3	0.00e+00	0	38	0	0	53	4707
2026-01-22 08:35:03.59	7.46	14.74	-41.2	-43.2	18.2	0.00e+00	0	38	0	0	53	4705
2026-01-22 08:35:04.73	7.29	14.65	-41.1	-43.2	18.2	0.00e+00	0	38	0	0	53	4700
2026-01-22 08:35:05.58	7.17	14.59	-41.0	-43.0	18.3	0.00e+00	0	38	0	0	53	4579
2026-01-22 08:35:06.72	7.00	14.50	-40.8	-42.8	18.5	0.00e+00	0	38	0	0	53	4483
2026-01-22 08:35:07.57	6.88	14.44	-40.7	-42.7	18.7	0.00e+00	0	38	0	0	53	4410
2026-01-22 08:35:08.71	6.72	14.35	-40.7	-42.7	18.7	0.00e+00	0	38	0	0	53	4411
2026-01-22 08:35:09.56	6.60	14.29	-40.7	-42.7	18.8	0.00e+00	0	38	0	0	53	4406
2026-01-22 08:35:10.70	6.44	14.20	-40.8	-42.8	18.7	0.00e+00	0	38	0	0	53	4462
2026-01-22 08:35:11.65	6.30	14.13	-40.7	-42.7	18.9	0.00e+00	0	38	0	0	53	4401
2026-01-22 08:35:12.85	6.14	14.04	-40.9	-42.9	18.7	0.00e+00	0	38	0	0	53	4514
2026-01-22 08:35:13.71	6.02	13.98	-41.1	-43.1	18.5	0.00e+00	0	38	0	0	53	4609
2026-01-22 08:35:15.01	5.84	13.88	-41.4	-43.4	18.2	0.00e+00	0	38	0	0	53	4803
2026-01-22 08:35:15.72	5.74	13.83	-41.5	-43.6	18.0	0.00e+00	0	38	0	0	53	4881
2026-01-22 08:35:17.19	5.54	13.72	-41.7	-43.8	17.8	0.00e+00	0	38	0	0	53	4997
2026-01-22 08:35:17.90	5.44	13.67	-41.6	-43.7	17.9	0.00e+00	0	38	0	0	53	4947
2026-01-22 08:35:19.22	5.26	13.57	-41.7	-43.8	17.7	0.00e+00	0	38	0	0	54	4720
2026-01-22 08:35:19.93	5.17	13.51	-41.6	-43.7	17.8	0.00e+00	0	38	0	0	54	4681
2026-01-22 08:35:21.25	4.99	13.42	-41.3	-43.4	18.1	0.00e+00	0	38	0	0	54	4494
2026-01-22 08:35:22.22	4.86	13.34	-41.4	-43.3	18.1	0.00e+00	0	38	0	0	54	4492
2026-01-22 08:35:23.22	4.73	13.27	-41.2	-43.2	18.2	0.00e+00	0	38	0	0	54	4413
2026-01-22 08:35:24.21	4.60	13.20	-41.2	-43.3	18.2	0.00e+00	0	38	0	0	54	4442
2026-01-22 08:35:25.21	4.47	13.12	-41.1	-43.1	18.3	0.00e+00	0	38	0	0	54	4377
2026-01-22 08:35:26.20	4.34	13.05	-41.2	-43.2	18.2	0.00e+00	0	38	0	0	54	4436
2026-01-22 08:35:27.20	4.21	12.98	-41.1	-43.1	18.4	0.00e+00	0	38	0	0	54	4362
2026-01-22 08:35:28.20	4.08	12.90	-41.1	-43.0	18.4	0.00e+00	0	38	0	0	54	4338
2026-01-22 08:35:29.24	3.95	12.83	-41.3	-43.2	18.3	0.00e+00	0	38	0	0	54	4439
2026-01-22 08:35:30.28	3.81	12.75	-41.4	-43.3	18.2	0.00e+00	0	38	0	0	54	4486
2026-01-22 08:35:31.24	3.69	12.68	-41.4	-43.4	18.1	0.00e+00	0	38	0	0	54	4511
2026-01-22 08:35:32.24	3.56	12.61	-41.5	-43.5	18.0	0.00e+00	0	38	0	0	54	4572
2026-01-22 08:35:33.23	3.44	12.53	-41.7	-43.6	17.9	0.00e+00	0	38	0	0	54	4646
2026-01-22 08:35:34.22	3.32	12.46	-41.7	-43.7	17.8	0.00e+00	0	38	0	0	54	4666
2026-01-22 08:35:35.22	3.19	12.39	-41.6	-43.6	17.8	0.00e+00	0	38	0	0	54	4631
2026-01-22 08:35:36.21	3.07	12.32	-41.6	-43.6	17.8	0.00e+00	0	38	0	0	54	4626
2026-01-22 08:35:37.21	2.95	12.24	-41.5	-43.5	17.9	0.00e+00	0	38	0	0	54	4587
2026-01-22 08:35:38.20	2.82	12.17	-41.3	-43.3	18.1	0.00e+00	0	38	0	0	54	4448
2026-01-22 08:35:39.20	2.70	12.10	-41.0	-42.9	18.4	0.00e+00	0	38	0	0	54	4278
2026-01-22 08:35:40.19	2.58	12.03	-40.9	-42.8	18.5	0.00e+00	0	38	0	0	53	4471
2026-01-22 08:35:41.19	2.46	11.95	-40.8	-42.7	18.6	0.00e+00	0	38	0	0	53	4427
2026-01-22 08:35:42.18	2.34	11.88	-40.7	-42.6	18.7	0.00e+00	0	38	0	0	53	4385
2026-01-22 08:35:43.18	2.22	11.81	-40.6	-42.5	18.8	0.00e+00	0	38	0	0	53	4297
2026-01-22 08:35:44.17	2.10	11.74	-40.6	-42.5	18.8	0.00e+00	0	38	0	0	53	4310
2026-01-22 08:35:45.17	1.99	11.66	-40.6	-42.5	18.9	0.00e+00	0	38	0	0	53	4321
2026-01-22 08:35:46.18	1.87	11.59	-40.6	-42.5	18.8	0.00e+00	0	38	0	0	53	4339
2026-01-22 08:35:47.17	1.75	11.52	-40.7	-42.7	18.7	0.00e+00	0	38	0	0	53	4428
2026-01-22 08:35:48.17	1.63	11.45	-41.0	-43.1	18.4	0.00e+00	0	38	0	0	53	4616
2026-01-22 08:35:49.25	1.51	11.37	-41.0	-43.2	18.2	0.00e+00	0	38	0	0	53	4705
2026-01-22 08:35:50.14	1.41	11.31	-41.2	-43.5	18.0	0.00e+00	0	38	0	0	53	4826
2026-01-22 08:35:51.28	1.28	11.23	-41.5	-43.8	17.7	0.00e+00	0	38	0	0	53	5030
2026-01-22 08:35:52.13	1.18	11.16	-41.7	-44.0	17.5	0.00e+00	0	38	0	0	54	4825
2026-01-22 08:35:53.26	1.05	11.08	-41.8	-44.0	17.5	0.00e+00	0	38	0	0	54	4838
2026-01-22 08:35:54.12	0.95	11.02	-41.8	-43.9	17.5	0.00e+00	0	38	0	0	54	4812
2026-01-22 08:35:55.26	0.82	10.94	-41.8	-44.0	17.5	0.00e+00	0	38	0	0	54	4823
2026-01-22 08:35:56.30	0.71	10.87	-41.7	-43.9	17.5	0.00e+00	0	38	0	0	54	4783
2026-01-22 08:35:57.42	0.58	10.79	-41.7	-43.8	17.5	0.00e+00	0	38	0	0	54	4727
2026-01-22 08:35:58.27	0.49	10.73	-41.6	-43.7	17.6	0.00e+00	0	38	0	0	54	4655
2026-01-22 08:35:59.41	0.36	10.65	-41.2	-43.3	18.0	0.00e+00	0	38	0	0	54	4459
2026-01-22 08:36:00.26	0.27	10.59	-41.3	-43.4	17.9	0.00e+00	0	38	0	0	54	4528
2026-01-22 08:36:01.40	0.15	10.51	-41.3	-43.4	17.9	0.00e+00	0	38	0	0	54	4504
2026-01-22 08:36:02.26	0.05	10.44	-41.3	-43.4	17.9	0.00e+00	0	38	0	0	54	4499
2026-01-22 08:36:03.39	359.93	10.36	-41.1	-43.2	18.2	0.00e+00	0	38	0	0	54	4413
2026-01-22 08:36:04.25	359.84	10.30	-41.1	-43.2	18.2	0.00e+00	0	38	0	0	54	4422
2026-01-22 08:36:05.39	359.72	10.22	-41.3	-43.4	18.0	0.00e+00	0	38	0	0	54	4527
2026-01-22 08:36:06.24	359.62	10.16	-41.3	-43.4	18.1	0.00e+00	0	38	0	0	54	4511
2026-01-22 08:36:07.41	359.50	10.08	-41.4	-43.5	17.9	0.00e+00	0	38	0	0	54	4585
2026-01-22 08:36:08.26	359.41	10.02	-41.4	-43.5	18.0	0.00e+00	0	38	0	0	54	4586
2026-01-22 08:36:09.40	359.29	9.94	-41.6	-43.7	17.8	0.00e+00	0	38	0	0	54	4694
2026-01-22 08:36:10.25	359.20	9.88	-41.8	-44.0	17.6	0.00e+00	0	38	0	0	54	4818
2026-01-22 08:36:11.39	359.08	9.80	-41.8	-43.9	17.6	0.00e+00	0	38	0	0	54	4784
2026-01-22 08:36:12.24	359.00	9.75	-42.0	-44.1	17.4	0.00e+00	0	38	0	0	54	4908
2026-01-22 08:36:13.59	358.86	9.65	-42.2	-44.3	17.2	0.00e+00	0	38	0	0	54	5019
2026-01-22 08:36:14.30	358.79	9.60	-42.2	-44.4	17.2	0.00e+00	0	38	0	0	55	4775
2026-01-22 08:36:15.80	358.63	9.50	-42.2	-44.4	17.0	0.00e+00	0	38	0	0	55	4811
2026-01-22 08:36:16.51	358.56	9.45	-42.2	-44.4	17.1	0.00e+00	0	38	0	0	55	4775
2026-01-22 08:36:17.79	358.43	9.36	-42.1	-44.4	17.1	0.00e+00	0	38	0	0	55	4782
2026-01-22 08:36:18.51	358.36	9.31	-42.0	-44.3	17.1	0.00e+00	0	38	0	0	55	4736
2026-01-22 08:36:19.79	358.23	9.22	-41.9	-44.3	17.1	0.00e+00	0	38	0	0	55	4726
2026-01-22 08:36:20.50	358.16	9.17	-41.9	-44.3	17.1	0.00e+00	0	38	0	0	55	4745
2026-01-22 08:36:21.78	358.04	9.09	-41.7	-44.2	17.2	0.00e+00	0	38	0	0	55	4677
2026-01-22 08:36:22.49	357.97	9.04	-41.8	-44.4	16.9	0.00e+00	0	38	0	0	55	4809
2026-01-22 08:36:23.77	357.84	8.95	-44.3	-47.7	14.2	0.00e+00	0	38	0	0	59	5550
2026-01-22 08:36:24.48	357.77	8.90	-48.6	-63.0	3.8	1.49e+00	0	38	104	0	69	18291
2026-01-22 08:36:25.76	357.65	8.81	-50.0	-63.4	3.8	1.49e+00	0	38	104	0	70	17924
2026-01-22 08:36:26.47	357.58	8.77	-49.8	-63.4	3.8	1.49e+00	0	38	104	0	70	18028
2026-01-22 08:36:27.75	357.46	8.68	-50.2	-63.5	3.8	1.49e+00	0	38	104	0	71	17109
2026-01-22 08:36:28.46	357.39	8.63	-50.2	-63.6	3.8	1.49e+00	0	38	104	0	71	17287
2026-01-22 08:36:29.74	357.27	8.54	-50.3	-63.6	3.8	1.49e+00	0	38	104	0	71	17407
2026-01-22 08:36:30.45	357.20	8.50	-50.5	-63.6	3.8	1.49e+00	0	38	104	0	71	17480
2026-01-22 08:36:31.74	357.08	8.41	-50.4	-63.7	3.8	1.49e+00	0	38	104	0	71	17541
2026-01-22 08:36:32.45	357.01	8.36	-50.2	-63.6	3.8	1.49e+00	0	38	104	0	71	17427
2026-01-22 08:36:33.73	356.89	8.28	-49.9	-63.7	3.8	1.49e+00	0	38	104	0	71	17590
2026-01-22 08:36:34.44	356.83	8.23	-50.7	-63.7	3.8	1.49e+00	0	38	104	0	71	17554
2026-01-22 08:36:35.71	356.71	8.14	-50.6	-63.7	3.8	1.49e+00	0	38	104	0	71	17583
2026-01-22 08:36:36.42	356.64	8.09	-50.4	-63.7	3.8	1.49e+00	0	38	104	0	71	17570
2026-01-22 08:36:37.70	356.53	8.01	-50.6	-63.7	3.8	1.49e+00	0	38	104	0	71	17652
2026-01-22 08:36:38.41	356.46	7.96	-50.6	-63.7	3.8	1.49e+00	0	38	104	0	71	17635
2026-01-22 08:36:39.69	356.35	7.88	-50.5	-63.7	3.8	1.49e+00	0	38	104	0	71	17631
2026-01-22 08:36:40.43	356.28	7.83	-50.4	-63.7	3.8	1.49e+00	0	38	104	0	71	17623
2026-01-22 08:36:41.70	356.17	7.74	-50.5	-63.7	3.8	1.49e+00	0	38	104	0	71	17622
2026-01-22 08:36:42.41	356.10	7.70	-50.7	-63.7	3.8	1.49e+00	0	38	104	0	71	17550
2026-01-22 08:36:43.69	355.99	7.61	-50.4	-63.7	3.8	1.49e+00	0	38	104	0	72	16516
2026-01-22 08:36:44.40	355.93	7.56	-50.7	-63.7	3.8	1.49e+00	0	38	104	0	72	16536
2026-01-22 08:36:45.68	355.81	7.48	-50.6	-63.7	3.8	1.49e+00	0	38	104	0	72	16593
2026-01-22 08:36:46.42	355.75	7.43	-50.5	-63.7	3.8	1.49e+00	0	38	104	0	72	16557
2026-01-22 08:36:47.70	355.64	7.35	-50.7	-63.7	3.8	1.49e+00	0	38	104	0	72	16581
2026-01-22 08:36:48.41	355.58	7.30	-50.4	-63.7	3.8	1.49e+00	0	38	104	0	72	16590
2026-01-22 08:36:49.68	355.47	7.22	-50.6	-63.6	3.8	1.49e+00	0	38	104	0	72	16449
2026-01-22 08:36:50.41	355.40	7.17	-50.5	-63.7	3.8	1.49e+00	0	38	104	0	72	16557
2026-01-22 08:36:51.68	355.29	7.08	-50.4	-63.7	3.8	1.49e+00	0	38	104	0	72	16534
2026-01-22 08:36:52.39	355.23	7.04	-50.4	-63.7	3.8	1.49e+00	0	38	104	0	72	16507
2026-01-22 08:36:53.67	355.12	6.95	-50.5	-63.6	3.8	1.49e+00	0	38	104	0	72	16464
2026-01-22 08:36:54.38	355.06	6.91	-50.4	-63.6	3.8	1.49e+00	0	38	104	0	72	16478
2026-01-22 08:36:55.66	354.96	6.83	-50.4	-63.6	3.8	1.49e+00	0	38	104	0	72	16461
2026-01-22 08:36:56.37	354.90	6.78	-50.4	-63.6	3.8	1.49e+00	0	38	104	0	72	16466
2026-01-22 08:36:57.64	354.79	6.70	-50.4	-63.6	3.8	1.49e+00	0	38	104	0	72	16381
2026-01-22 08:36:58.37	354.73	6.65	-50.4	-63.6	3.8	1.49e+00	0	38	104	0	72	16400
2026-01-22 08:36:59.65	354.63	6.57	-50.4	-63.6	3.8	1.49e+00	0	38	104	0	72	16462
2026-01-22 08:37:00.36	354.57	6.52	-50.4	-63.6	3.8	1.49e+00	0	38	104	0	72	16477
2026-01-22 08:37:01.63	354.46	6.44	-50.4	-63.6	3.8	1.49e+00	0	38	104	0	72	16441
2026-01-22 08:37:02.34	354.41	6.39	-50.4	-63.6	3.8	1.49e+00	0	38	104	0	72	16431
2026-01-22 08:37:03.62	354.30	6.31	-50.4	-63.6	3.8	1.49e+00	0	38	104	0	72	16454
2026-01-22 08:37:04.35	354.24	6.26	-50.4	-63.6	3.8	1.49e+00	0	38	104	0	72	16450
2026-01-22 08:37:05.62	354.14	6.18	-50.4	-63.6	3.8	1.49e+00	0	38	104	0	72	16428
2026-01-22 08:37:06.33	354.09	6.14	-50.4	-63.6	3.8	1.49e+00	0	38	104	0	72	16500
2026-01-22 08:37:07.63	353.98	6.05	-50.4	-63.6	3.8	1.49e+00	0	38	104	0	72	16462
2026-01-22 08:37:08.33	353.93	6.01	-50.4	-63.6	3.8	1.49e+00	0	38	104	0	72	16439
2026-01-22 08:37:09.61	353.83	5.93	-50.4	-63.6	3.8	1.49e+00	0	38	104	0	72	16431
2026-01-22 08:37:10.32	353.77	5.88	-50.4	-63.6	3.8	1.49e+00	0	38	104	0	72	16407
2026-01-22 08:37:11.60	353.67	5.80	-50.4	-63.6	3.8	1.49e+00	0	38	104	0	72	16418
2026-01-22 08:37:12.31	353.62	5.76	-50.4	-63.6	3.8	1.49e+00	0	38	104	0	72	16444
2026-01-22 08:37:13.58	353.52	5.68	-50.4	-63.6	3.8	1.49e+00	0	38	104	0	72	16417
2026-01-22 08:37:14.29	353.46	5.63	-50.4	-63.6	3.8	1.49e+00	0	38	104	0	72	16456
2026-01-22 08:37:15.57	353.36	5.55	-50.4	-63.6	3.8	1.49e+00	0	38	104	0	72	16439
2026-01-22 08:37:16.28	353.31	5.51	-50.4	-63.6	3.8	1.49e+00	0	38	104	0	72	16445
2026-01-22 08:37:17.56	353.21	5.43	-50.4	-63.6	3.8	1.49e+00	0	38	104	0	72	16433
2026-01-22 08:37:18.27	353.16	5.38	-50.4	-63.6	3.8	1.49e+00	0	38	104	0	72	16471
2026-01-22 08:37:19.54	353.06	5.30	-50.4	-63.6	3.8	1.49e+00	0	38	104	0	72	16450
2026-01-22 08:37:20.25	353.01	5.26	-50.4	-63.6	3.8	1.49e+00	0	38	104	0	72	16414
2026-01-22 08:37:21.55	352.91	5.18	-50.4	-63.6	3.8	1.49e+00	0	38	104	0	72	16424
2026-01-22 08:37:22.26	352.86	5.13	-50.4	-63.6	3.8	1.49e+00	0	38	104	0	72	16423
2026-01-22 08:37:23.53	352.77	5.05	-50.4	-63.6	3.8	1.49e+00	0	38	104	0	72	16418
2026-01-22 08:37:24.24	352.71	5.01	-50.4	-63.6	3.8	1.49e+00	0	38	104	0	72	16360
2026-01-22 08:37:25.52	352.62	4.93	-50.4	-63.6	3.8	1.49e+00	0	38	104	0	72	16444

#Closed at: 2026-01-22 08:37:26
#Recorded file [0 MB]: D:/Data/31040_260122_112613.dat