passes_logs/2026/01/22/T1/T1__20260122_113138_AQUA_rec.log

#Pass ID: 20260122_113138_AQUA
#Satellite: AQUA
#Configuration: AQUA
#almurnet v.1.7.20251203
#Start time: 2026-01-22 11:31:38

#Version: 2.0.20230620
#Station: T1
#Location: 37.570604 lon 55.790049 lat
#TLE: 1 27424U 02022A   26021.53721517  .00002456  00000+0  50140-3 0  9996
#TLE: 2 27424  98.4098 348.0744 0002012  70.1009  46.1672 14.61843091261845

#Time	Az	El	Level	Level2	SNR	BER	BlckErr	Temp	State	Recorded	gain1	gain2
2026-01-22 11:31:38.10	155.49	5.03	-50.1	-70.5	3.8	7.46e-01	0	35	0	0	72	36416
2026-01-22 11:31:39.09	155.48	5.11	-50.2	-69.0	3.9	7.45e-01	0	35	104	0	71	32540
2026-01-22 11:31:40.08	155.47	5.18	-50.2	-68.5	3.9	7.42e-01	0	35	104	0	71	30722
2026-01-22 11:31:41.07	155.46	5.26	-50.2	-68.6	3.9	7.44e-01	0	35	104	0	71	31067
2026-01-22 11:31:42.06	155.45	5.33	-50.2	-68.3	4.0	7.38e-01	0	35	104	0	71	29888
2026-01-22 11:31:43.06	155.44	5.41	-50.2	-68.6	4.0	7.38e-01	0	35	104	0	71	30915
2026-01-22 11:31:44.05	155.43	5.49	-50.2	-69.2	3.8	7.45e-01	0	35	104	0	71	33285
2026-01-22 11:31:45.04	155.42	5.56	-50.2	-69.8	3.8	7.47e-01	0	35	104	0	71	35330
2026-01-22 11:31:46.04	155.41	5.64	-50.2	-70.4	3.8	7.48e-01	0	35	104	0	71	37948
2026-01-22 11:31:47.03	155.40	5.72	-50.2	-70.9	3.8	7.45e-01	0	35	104	0	71	40483
2026-01-22 11:31:48.02	155.39	5.79	-50.2	-71.2	3.8	7.46e-01	0	35	104	0	71	41473
2026-01-22 11:31:49.02	155.37	5.87	-50.2	-70.8	3.8	7.44e-01	0	35	104	0	71	39866
2026-01-22 11:31:50.01	155.36	5.95	-50.2	-70.0	3.8	7.43e-01	0	35	104	0	71	36324
2026-01-22 11:31:51.00	155.35	6.03	-50.2	-68.7	3.8	7.42e-01	0	35	104	0	71	31340
2026-01-22 11:31:52.00	155.34	6.11	-50.2	-67.8	4.1	7.46e-01	0	35	104	0	71	28303
2026-01-22 11:31:52.99	155.33	6.18	-50.1	-66.5	4.6	7.19e-01	0	36	104	0	71	24240
2026-01-22 11:31:53.98	155.32	6.26	-50.1	-66.3	4.0	7.38e-01	0	36	104	0	71	23797
2026-01-22 11:31:54.98	155.31	6.34	-50.1	-65.5	5.1	7.08e-01	0	35	0	0	71	21576
2026-01-22 11:31:55.97	155.30	6.42	-50.1	-65.5	5.1	7.06e-01	0	35	0	0	71	21555
2026-01-22 11:31:56.96	155.29	6.50	-50.2	-65.7	5.0	7.08e-01	0	36	0	0	71	22126
2026-01-22 11:31:57.96	155.28	6.58	-50.2	-66.4	4.7	7.20e-01	0	36	104	0	71	23919
2026-01-22 11:31:58.95	155.26	6.66	-50.2	-67.7	3.9	7.44e-01	0	35	104	0	71	27719
2026-01-22 11:31:59.94	155.25	6.74	-50.2	-68.7	4.0	7.38e-01	0	36	104	0	71	31336
2026-01-22 11:32:00.94	155.24	6.82	-50.2	-70.2	3.8	7.45e-01	0	36	104	0	71	37084
2026-01-22 11:32:01.93	155.23	6.90	-50.2	-71.0	3.8	7.46e-01	0	35	104	0	71	40929
2026-01-22 11:32:02.92	155.22	6.98	-50.2	-71.1	3.8	7.47e-01	0	36	104	0	71	41410
2026-01-22 11:32:03.92	155.21	7.06	-50.2	-70.7	3.8	7.44e-01	0	36	104	0	71	39144
2026-01-22 11:32:04.91	155.19	7.15	-50.2	-70.0	3.8	7.45e-01	0	36	104	0	71	36175
2026-01-22 11:32:05.90	155.18	7.23	-50.2	-69.0	3.9	7.43e-01	0	36	104	0	71	32290
2026-01-22 11:32:06.89	155.17	7.31	-50.2	-68.3	3.9	7.39e-01	0	36	104	0	71	29864
2026-01-22 11:32:07.89	155.16	7.39	-50.1	-66.7	4.5	7.22e-01	0	36	104	0	71	24800
2026-01-22 11:32:08.88	155.15	7.48	-50.1	-64.9	5.4	6.96e-01	0	36	0	0	71	20245
2026-01-22 11:32:09.87	155.13	7.56	-49.9	-62.9	7.0	6.63e-01	0	36	0	1048576	71	15950
2026-01-22 11:32:10.87	155.12	7.64	-49.7	-60.7	9.1	6.33e-01	0	36	0	3145728	71	12505
2026-01-22 11:32:11.86	155.11	7.73	-49.5	-58.7	11.3	6.16e-01	0	36	0	5242880	70	10452
2026-01-22 11:32:12.86	155.10	7.81	-49.1	-56.9	13.2	6.07e-01	0	36	0	6815744	70	8504
2026-01-22 11:32:13.85	155.08	7.90	-48.6	-55.3	14.8	6.05e-01	0	36	0	8912896	69	7470
2026-01-22 11:32:14.84	155.07	7.98	-48.1	-53.9	16.1	6.06e-01	0	36	0	10485760	68	6794
2026-01-22 11:32:15.84	155.06	8.07	-47.6	-52.7	17.2	6.06e-01	0	36	0	12582912	67	6264
2026-01-22 11:32:16.83	155.04	8.15	-47.1	-51.9	18.1	6.07e-01	0	36	0	14155776	66	6017
2026-01-22 11:32:17.82	155.03	8.24	-46.8	-51.3	18.7	6.06e-01	0	36	0	16252928	65	5960
2026-01-22 11:32:18.82	155.02	8.32	-46.7	-51.0	19.0	6.05e-01	0	36	0	17825792	65	5742
2026-01-22 11:32:19.81	155.00	8.41	-46.5	-50.7	19.3	6.06e-01	0	36	0	19922944	65	5568
2026-01-22 11:32:20.80	154.99	8.50	-46.6	-50.9	19.0	6.06e-01	0	36	0	22020096	65	5694
2026-01-22 11:32:21.80	154.98	8.58	-46.7	-51.0	19.0	6.06e-01	0	36	0	23592960	65	5761
2026-01-22 11:32:22.79	154.96	8.67	-47.0	-51.5	18.5	6.05e-01	0	36	0	25690112	65	6115
2026-01-22 11:32:23.78	154.95	8.76	-47.4	-52.3	17.7	6.03e-01	0	36	0	27262976	65	6722
2026-01-22 11:32:24.78	154.94	8.85	-47.8	-53.3	16.7	6.06e-01	0	36	0	29360128	66	7113
2026-01-22 11:32:25.77	154.92	8.94	-48.3	-54.7	15.3	6.07e-01	0	36	0	30932992	67	7868
2026-01-22 11:32:26.76	154.91	9.02	-48.8	-56.2	13.9	6.11e-01	0	36	0	33030144	68	8836
2026-01-22 11:32:27.76	154.89	9.11	-45.2	-48.5	21.2	6.06e-01	0	36	0	34603008	62	5119
2026-01-22 11:32:28.75	154.88	9.20	-46.6	-50.5	19.7	6.07e-01	0	36	0	36700160	63	6085
2026-01-22 11:32:29.75	154.87	9.29	-50.0	-62.6	8.2	6.53e-01	0	36	0	38273024	70	16458
2026-01-22 11:32:30.74	154.85	9.38	-49.4	-56.6	13.3	6.09e-01	0	36	0	38797312	70	8239
2026-01-22 11:32:31.74	154.84	9.47	-45.5	-48.7	20.9	6.07e-01	0	36	0	40894464	63	4957
2026-01-22 11:32:32.73	154.82	9.56	-44.9	-47.9	22.1	6.06e-01	0	36	0	42991616	61	5059
2026-01-22 11:32:33.73	154.81	9.66	-44.8	-47.7	20.3	6.06e-01	0	36	0	44564480	61	4966
2026-01-22 11:32:34.72	154.79	9.75	-44.8	-47.7	22.3	6.08e-01	0	36	0	46661632	61	4943
2026-01-22 11:32:36.00	154.77	9.87	-44.6	-47.5	22.4	6.07e-01	0	36	0	48758784	61	4822
2026-01-22 11:32:36.71	154.76	9.93	-44.5	-47.3	22.7	6.07e-01	0	36	0	50331648	60	4999
2026-01-22 11:32:37.99	154.74	10.05	-44.0	-46.7	23.2	6.06e-01	0	36	0	52428800	60	4697
2026-01-22 11:32:38.73	154.73	10.12	-44.0	-46.7	23.2	6.04e-01	0	36	0	54001664	60	4701
2026-01-22 11:32:40.01	154.71	10.24	-44.0	-46.7	23.2	6.05e-01	0	36	0	56623104	60	4683
2026-01-22 11:32:40.72	154.70	10.31	-44.1	-46.8	23.2	6.05e-01	0	37	0	57671680	60	4710
2026-01-22 11:32:42.00	154.68	10.43	-44.0	-46.7	23.3	6.08e-01	0	36	0	60293120	60	4654
2026-01-22 11:32:42.72	154.67	10.50	-44.1	-46.8	23.3	6.08e-01	0	36	0	61341696	59	5028
2026-01-22 11:32:44.00	154.65	10.62	-44.1	-46.8	23.3	6.07e-01	0	37	0	63963136	59	5012
2026-01-22 11:32:44.71	154.63	10.69	-44.1	-46.8	23.3	6.07e-01	0	37	0	65011712	59	5009
2026-01-22 11:32:46.14	154.61	10.83	-44.2	-46.9	23.2	6.08e-01	0	37	0	67633152	59	5042
2026-01-22 11:32:46.85	154.60	10.90	-44.1	-46.8	23.3	6.06e-01	0	37	0	69206016	59	4991
2026-01-22 11:32:48.13	154.58	11.03	-44.0	-46.7	22.9	6.05e-01	0	37	0	71827456	59	4964
2026-01-22 11:32:48.84	154.56	11.10	-44.0	-46.8	23.3	6.07e-01	0	37	0	72876032	59	5006
2026-01-22 11:32:50.24	154.54	11.23	-43.9	-46.7	23.4	6.05e-01	0	36	0	75497472	59	4943
2026-01-22 11:32:50.95	154.53	11.30	-43.9	-46.6	23.2	6.06e-01	0	37	0	77070336	59	4897
2026-01-22 11:32:52.23	154.51	11.43	-43.9	-46.6	23.5	6.06e-01	0	37	0	79167488	59	4922
2026-01-22 11:32:52.96	154.49	11.50	-43.8	-46.6	23.5	6.06e-01	0	36	0	80740352	59	4906
2026-01-22 11:32:54.24	154.47	11.63	-43.8	-46.6	23.5	6.04e-01	0	37	0	82837504	59	4916
2026-01-22 11:32:54.95	154.46	11.70	-43.8	-46.6	23.4	6.08e-01	0	37	0	84410368	59	4925
2026-01-22 11:32:56.23	154.43	11.83	-43.9	-46.8	23.3	6.08e-01	0	37	0	87031808	59	5005
2026-01-22 11:32:56.94	154.42	11.91	-43.8	-46.6	23.4	6.08e-01	0	37	0	88080384	59	4888
2026-01-22 11:32:58.22	154.40	12.04	-43.8	-46.6	23.5	6.06e-01	0	37	0	90701824	59	4873
2026-01-22 11:32:58.93	154.39	12.11	-43.6	-46.4	23.7	6.09e-01	0	37	0	91750400	59	4772
2026-01-22 11:33:00.21	154.36	12.24	-43.6	-46.3	23.7	6.08e-01	0	36	0	94371840	59	4745
2026-01-22 11:33:01.01	154.35	12.33	-43.6	-46.3	23.7	6.04e-01	0	37	0	95944704	59	4742
2026-01-22 11:33:02.15	154.32	12.44	-43.6	-46.3	23.8	6.07e-01	0	37	0	98041856	59	4722
2026-01-22 11:33:03.00	154.31	12.53	-43.6	-46.3	23.8	6.08e-01	0	37	0	99614720	59	4719
2026-01-22 11:33:04.14	154.29	12.65	-43.7	-46.4	23.7	6.07e-01	0	37	0	101711872	59	4768
2026-01-22 11:33:04.99	154.27	12.74	-43.6	-46.2	23.8	6.07e-01	0	37	0	103284736	59	4684
2026-01-22 11:33:06.13	154.25	12.86	-43.5	-46.1	23.9	6.07e-01	0	37	0	105381888	59	4635
2026-01-22 11:33:06.98	154.23	12.95	-43.4	-46.0	24.0	6.08e-01	0	37	0	106954752	58	4863
2026-01-22 11:33:08.12	154.21	13.08	-43.4	-46.0	24.1	6.07e-01	0	37	0	109051904	58	4867
2026-01-22 11:33:08.97	154.19	13.17	-43.4	-46.0	24.1	6.08e-01	0	37	0	110624768	58	4840
2026-01-22 11:33:10.11	154.17	13.29	-43.4	-45.9	24.2	6.09e-01	0	37	0	112721920	58	4810
2026-01-22 11:33:10.96	154.15	13.38	-43.3	-45.9	24.2	6.08e-01	0	37	0	114294784	58	4793
2026-01-22 11:33:12.10	154.13	13.51	-43.3	-45.9	24.2	6.08e-01	0	37	0	116391936	58	4801
2026-01-22 11:33:12.95	154.11	13.60	-43.3	-45.9	24.2	6.08e-01	0	37	0	117964800	58	4794
2026-01-22 11:33:14.09	154.08	13.73	-43.4	-46.0	24.1	6.07e-01	0	37	0	120061952	58	4829
2026-01-22 11:33:14.94	154.07	13.82	-43.4	-45.9	24.2	6.07e-01	0	37	0	121634816	58	4809
2026-01-22 11:33:16.08	154.04	13.95	-43.5	-46.1	24.1	6.05e-01	0	37	0	124256256	58	4889
2026-01-22 11:33:17.12	154.02	14.07	-43.5	-46.1	24.0	6.07e-01	0	37	0	125829120	58	4911
2026-01-22 11:33:18.11	154.00	14.18	-43.4	-46.0	24.2	6.06e-01	0	37	0	127926272	58	4841
2026-01-22 11:33:19.11	153.98	14.29	-43.3	-45.9	24.2	6.06e-01	0	37	0	129499136	58	4787
2026-01-22 11:33:20.10	153.95	14.40	-43.3	-45.9	24.2	6.04e-01	0	37	0	131596288	58	4797
2026-01-22 11:33:21.10	153.93	14.52	-43.3	-45.9	24.2	6.08e-01	0	37	0	133693440	58	4814
2026-01-22 11:33:22.09	153.91	14.63	-43.4	-46.0	24.1	6.04e-01	0	37	0	135266304	58	4869
2026-01-22 11:33:23.09	153.89	14.75	-43.4	-46.0	24.2	6.06e-01	0	37	0	137363456	58	4821
2026-01-22 11:33:24.08	153.86	14.86	-43.4	-46.0	24.2	6.07e-01	0	37	0	138936320	58	4846
2026-01-22 11:33:25.08	153.84	14.98	-43.5	-46.1	24.0	6.06e-01	0	37	0	141033472	58	4913
2026-01-22 11:33:26.53	153.80	15.15	-43.4	-45.9	24.2	6.04e-01	0	37	0	143654912	58	4809
2026-01-22 11:33:27.24	153.79	15.24	-43.4	-45.9	24.2	6.06e-01	0	37	0	144703488	58	4799
2026-01-22 11:33:28.52	153.76	15.39	-43.4	-46.0	24.2	6.08e-01	0	37	0	147324928	58	4824
2026-01-22 11:33:29.25	153.74	15.48	-43.3	-45.9	24.3	6.08e-01	0	37	0	148897792	58	4764
2026-01-22 11:33:30.53	153.71	15.63	-43.3	-45.9	24.3	6.09e-01	0	37	0	150994944	58	4782
2026-01-22 11:33:31.24	153.69	15.72	-43.4	-45.9	24.3	6.05e-01	0	37	0	152567808	58	4779
2026-01-22 11:33:32.52	153.66	15.87	-43.4	-46.0	24.2	6.05e-01	0	37	0	154664960	58	4815
2026-01-22 11:33:33.23	153.64	15.96	-43.4	-45.9	24.3	6.06e-01	0	37	0	156237824	58	4770
2026-01-22 11:33:34.56	153.61	16.12	-43.3	-45.8	24.4	6.03e-01	0	37	0	158859264	58	4719
2026-01-22 11:33:35.26	153.59	16.21	-43.4	-45.9	24.3	6.06e-01	0	37	0	159907840	58	4793
2026-01-22 11:33:36.62	153.55	16.38	-43.5	-46.0	24.2	6.06e-01	0	37	0	162529280	58	4836
2026-01-22 11:33:37.33	153.53	16.47	-43.4	-45.9	24.3	6.07e-01	0	37	0	164102144	58	4779
2026-01-22 11:33:38.66	153.50	16.63	-43.4	-45.9	24.3	6.07e-01	0	37	0	166199296	58	4779
2026-01-22 11:33:39.64	153.47	16.76	-43.4	-45.9	24.2	6.06e-01	0	37	0	168296448	58	4805
2026-01-22 11:33:40.97	153.44	16.93	-43.5	-46.0	24.2	6.06e-01	0	37	0	170917888	58	4831
2026-01-22 11:33:41.68	153.42	17.02	-43.5	-46.0	24.2	6.06e-01	0	37	0	171966464	58	4855
2026-01-22 11:33:42.96	153.38	17.18	-43.5	-46.1	24.2	6.07e-01	0	37	0	174587904	58	4885
2026-01-22 11:33:43.68	153.36	17.28	-43.6	-46.1	24.1	6.07e-01	0	37	0	175636480	58	4925
2026-01-22 11:33:44.96	153.33	17.44	-43.6	-46.1	24.1	6.07e-01	0	37	0	178257920	58	4891
2026-01-22 11:33:45.69	153.30	17.54	-43.6	-46.2	20.8	6.07e-01	0	37	0	179306496	58	4936
2026-01-22 11:33:46.97	153.27	17.71	-43.6	-46.1	24.2	6.08e-01	0	37	0	181927936	58	4888
2026-01-22 11:33:47.68	153.25	17.80	-43.6	-46.1	24.2	6.04e-01	0	37	0	183500800	58	4902
2026-01-22 11:33:48.96	153.21	17.97	-43.6	-46.0	24.2	6.07e-01	0	37	0	185597952	58	4850
2026-01-22 11:33:49.67	153.19	18.07	-43.5	-46.0	24.2	6.06e-01	0	37	0	187170816	58	4823
2026-01-22 11:33:50.95	153.15	18.24	-43.6	-46.1	24.2	6.07e-01	0	37	0	189267968	58	4877
2026-01-22 11:33:51.66	153.13	18.34	-43.6	-46.0	24.3	6.06e-01	0	37	0	190840832	58	4827
2026-01-22 11:33:53.12	153.08	18.54	-43.4	-45.8	24.3	6.07e-01	0	37	0	193462272	58	4759
2026-01-22 11:33:53.83	153.06	18.64	-43.4	-45.9	24.4	6.07e-01	0	37	0	195035136	58	4766
2026-01-22 11:33:55.11	153.02	18.81	-43.5	-45.9	24.3	6.07e-01	0	37	0	197132288	58	4797
2026-01-22 11:33:56.16	152.99	18.96	-43.5	-45.9	24.3	6.06e-01	0	37	0	199229440	58	4812
2026-01-22 11:33:57.36	152.95	19.13	-43.5	-45.9	24.3	6.04e-01	0	37	0	201326592	58	4789
2026-01-22 11:33:58.34	152.92	19.27	-43.5	-46.0	24.3	6.10e-01	0	37	0	203423744	58	4829
2026-01-22 11:33:59.34	152.88	19.41	-43.5	-46.0	24.3	6.03e-01	0	37	0	204996608	58	4824
2026-01-22 11:34:00.54	152.84	19.58	-43.5	-45.9	24.3	6.09e-01	0	37	0	207618048	58	4809
2026-01-22 11:34:01.42	152.81	19.71	-43.6	-46.0	24.2	6.07e-01	0	37	0	209190912	58	4868
2026-01-22 11:34:02.56	152.78	19.87	-43.5	-46.0	24.3	6.04e-01	0	37	0	211288064	58	4821
2026-01-22 11:34:03.41	152.75	20.00	-43.5	-46.0	24.3	6.06e-01	0	37	0	212860928	58	4817
2026-01-22 11:34:04.55	152.71	20.17	-43.6	-46.1	24.2	6.08e-01	0	37	0	214958080	58	4884
2026-01-22 11:34:05.40	152.68	20.29	-43.7	-46.2	24.1	6.06e-01	0	37	0	216530944	58	4955
2026-01-22 11:34:06.54	152.64	20.46	-43.7	-46.1	24.2	6.07e-01	0	37	0	218628096	58	4918
2026-01-22 11:34:07.39	152.61	20.59	-43.6	-46.1	24.2	6.06e-01	0	37	0	220200960	58	4881
2026-01-22 11:34:08.53	152.56	20.76	-43.5	-46.0	24.3	6.08e-01	0	37	0	222298112	58	4837
2026-01-22 11:34:09.38	152.53	20.89	-43.5	-46.0	24.3	6.07e-01	0	37	0	223870976	58	4835
2026-01-22 11:34:10.52	152.49	21.06	-43.5	-46.0	24.3	6.08e-01	0	37	0	225968128	58	4825
2026-01-22 11:34:11.37	152.46	21.19	-43.6	-46.1	24.2	6.05e-01	0	37	0	227540992	58	4871
2026-01-22 11:34:12.51	152.42	21.37	-43.6	-46.0	24.2	6.09e-01	0	37	0	229638144	58	4851
2026-01-22 11:34:13.36	152.38	21.50	-43.6	-46.0	24.3	6.08e-01	0	37	0	231211008	58	4838
2026-01-22 11:34:14.50	152.34	21.68	-43.6	-46.0	24.2	6.06e-01	0	37	0	233832448	58	4867
2026-01-22 11:34:15.36	152.31	21.82	-43.6	-46.0	24.3	6.06e-01	0	37	0	235405312	58	4845
2026-01-22 11:34:16.49	152.26	22.00	-43.6	-46.1	24.2	6.09e-01	0	37	0	237502464	58	4890
2026-01-22 11:34:17.36	152.23	22.14	-43.7	-46.2	24.1	6.06e-01	0	37	0	239075328	58	4938
2026-01-22 11:34:18.50	152.18	22.32	-43.8	-46.3	24.1	6.07e-01	0	37	0	241172480	58	5006
2026-01-22 11:34:19.42	152.14	22.47	-43.8	-46.3	24.0	6.07e-01	0	37	0	242745344	58	5029
2026-01-22 11:34:20.41	152.10	22.63	-43.9	-46.3	24.0	6.09e-01	0	37	0	244842496	58	5033
2026-01-22 11:34:21.41	152.06	22.80	-43.8	-46.3	24.0	6.07e-01	0	37	0	246415360	58	5029
2026-01-22 11:34:22.40	152.02	22.96	-43.9	-46.4	24.0	6.05e-01	0	37	0	248512512	58	5086
2026-01-22 11:34:23.40	151.97	23.13	-43.8	-46.3	24.0	6.06e-01	0	37	0	250085376	58	5036
2026-01-22 11:34:24.39	151.93	23.29	-43.9	-46.4	23.9	6.08e-01	0	37	0	252182528	58	5097
2026-01-22 11:34:25.39	151.89	23.46	-43.9	-46.3	24.0	6.06e-01	0	37	0	253755392	58	5036
2026-01-22 11:34:26.38	151.84	23.63	-43.9	-46.3	24.0	6.09e-01	0	37	0	255852544	58	5036
2026-01-22 11:34:27.37	151.80	23.80	-43.8	-46.3	24.0	6.07e-01	0	37	0	257949696	58	5027
2026-01-22 11:34:28.37	151.75	23.97	-43.8	-46.3	24.1	6.07e-01	0	37	0	259522560	58	5006
2026-01-22 11:34:29.36	151.71	24.15	-43.7	-46.2	24.1	6.07e-01	0	37	0	261619712	58	4963
2026-01-22 11:34:30.36	151.66	24.32	-43.7	-46.2	24.1	6.07e-01	0	37	0	263192576	58	4959
2026-01-22 11:34:31.35	151.61	24.50	-43.7	-46.2	24.1	6.07e-01	0	37	0	265289728	58	4975
2026-01-22 11:34:32.35	151.56	24.67	-43.6	-46.1	24.2	6.08e-01	0	37	0	266862592	58	4894
2026-01-22 11:34:33.44	151.51	24.87	-43.6	-46.2	24.2	6.07e-01	0	37	0	268959744	58	4939
2026-01-22 11:34:34.32	151.47	25.03	-43.6	-46.2	24.2	6.07e-01	0	37	0	270532608	58	4943
2026-01-22 11:34:35.46	151.41	25.23	-43.6	-46.2	24.2	6.08e-01	0	37	0	272629760	58	4959
2026-01-22 11:34:36.31	151.37	25.39	-43.7	-46.3	24.1	6.05e-01	0	37	0	274726912	58	4990
2026-01-22 11:34:37.45	151.31	25.60	-43.7	-46.2	24.1	6.04e-01	0	37	0	276824064	58	4978
2026-01-22 11:34:38.30	151.27	25.76	-43.7	-46.3	24.0	6.08e-01	0	37	0	278396928	58	5029
2026-01-22 11:34:39.44	151.21	25.97	-43.7	-46.3	24.0	6.07e-01	0	37	0	280494080	58	5035
2026-01-22 11:34:40.29	151.16	26.13	-43.7	-46.3	24.0	6.05e-01	0	37	0	282066944	58	5027
2026-01-22 11:34:41.43	151.10	26.35	-43.6	-46.3	24.1	6.06e-01	0	37	0	284164096	58	4998
2026-01-22 11:34:42.28	151.05	26.51	-43.5	-46.2	24.2	6.07e-01	0	37	0	285736960	58	4960
2026-01-22 11:34:43.42	150.99	26.73	-43.5	-46.2	24.2	6.06e-01	0	37	0	287834112	58	4961
2026-01-22 11:34:44.27	150.94	26.90	-43.5	-46.2	24.2	6.07e-01	0	37	0	289406976	58	4953
2026-01-22 11:34:45.41	150.88	27.12	-43.4	-46.0	24.3	6.07e-01	0	37	0	291504128	58	4847
2026-01-22 11:34:46.26	150.83	27.29	-43.3	-45.9	24.5	6.08e-01	0	37	0	293076992	58	4771
2026-01-22 11:34:47.40	150.76	27.51	-43.3	-45.8	24.5	6.06e-01	0	37	0	295174144	58	4755
2026-01-22 11:34:48.25	150.71	27.68	-43.3	-45.8	24.5	6.06e-01	0	38	0	296747008	58	4755
2026-01-22 11:34:49.52	150.63	27.94	-43.1	-45.6	24.7	6.06e-01	0	37	0	299368448	58	4638
2026-01-22 11:34:50.23	150.59	28.08	-43.2	-45.7	24.6	6.07e-01	0	37	0	300417024	58	4672
2026-01-22 11:34:51.51	150.51	28.34	-43.2	-45.7	24.6	6.04e-01	0	37	0	303038464	58	4675
2026-01-22 11:34:52.23	150.47	28.49	-43.3	-45.7	24.6	6.05e-01	0	37	0	304087040	58	4695
2026-01-22 11:34:53.77	150.37	28.81	-43.3	-45.7	24.6	6.04e-01	0	37	0	307232768	58	4668
2026-01-22 11:34:54.74	150.31	29.02	-43.1	-45.5	24.8	6.06e-01	0	37	0	308805632	58	4563
2026-01-22 11:34:55.74	150.24	29.23	-43.2	-45.5	24.7	6.05e-01	0	37	0	310902784	58	4597
2026-01-22 11:34:56.73	150.18	29.44	-43.1	-45.5	24.8	6.06e-01	0	37	0	312475648	58	4593
2026-01-22 11:34:57.73	150.11	29.66	-43.1	-45.5	24.8	6.05e-01	0	37	0	314572800	58	4568
2026-01-22 11:34:58.72	150.04	29.87	-43.0	-45.3	25.0	6.08e-01	0	37	0	316669952	58	4478
2026-01-22 11:34:59.72	149.97	30.09	-43.0	-45.4	24.9	6.08e-01	0	37	0	318242816	58	4521
2026-01-22 11:35:00.71	149.90	30.31	-43.1	-45.5	24.8	6.09e-01	0	37	0	320339968	58	4573
2026-01-22 11:35:01.70	149.83	30.53	-43.1	-45.5	24.8	6.06e-01	0	37	0	321912832	58	4570
2026-01-22 11:35:02.75	149.76	30.76	-43.1	-45.4	24.9	6.05e-01	0	37	0	324009984	58	4540
2026-01-22 11:35:03.74	149.68	30.99	-43.2	-45.5	24.8	6.07e-01	0	37	0	326107136	58	4594
2026-01-22 11:35:04.73	149.61	31.21	-43.3	-45.6	24.7	6.04e-01	0	37	0	327680000	58	4641
2026-01-22 11:35:05.73	149.53	31.44	-43.3	-45.8	24.6	6.06e-01	0	37	0	329777152	58	4707
2026-01-22 11:35:06.72	149.46	31.67	-43.3	-45.7	24.7	6.05e-01	0	37	0	331350016	58	4684
2026-01-22 11:35:07.72	149.38	31.91	-43.2	-45.6	24.7	6.07e-01	0	37	0	333447168	58	4628
2026-01-22 11:35:08.71	149.30	32.14	-43.3	-45.6	24.7	6.05e-01	0	37	0	335020032	58	4643
2026-01-22 11:35:09.70	149.22	32.37	-43.3	-45.7	24.7	6.07e-01	0	37	0	337117184	58	4661
2026-01-22 11:35:10.70	149.14	32.61	-43.4	-45.8	24.5	6.04e-01	0	37	0	339214336	58	4747
2026-01-22 11:35:11.70	149.05	32.85	-43.5	-45.9	24.4	6.06e-01	0	37	0	340787200	58	4812
2026-01-22 11:35:12.69	148.97	33.09	-43.5	-46.0	24.4	6.05e-01	0	37	0	342884352	58	4826
2026-01-22 11:35:13.69	148.88	33.34	-43.6	-46.1	24.3	6.06e-01	0	37	0	344457216	58	4889
2026-01-22 11:35:14.68	148.80	33.58	-43.7	-46.1	24.3	6.05e-01	0	37	0	346554368	58	4917
2026-01-22 11:35:15.67	148.71	33.83	-43.8	-46.2	24.2	6.08e-01	0	37	0	348127232	58	4975
2026-01-22 11:35:16.67	148.62	34.08	-43.9	-46.4	24.1	6.06e-01	0	37	0	350224384	58	5049
2026-01-22 11:35:17.66	148.53	34.33	-43.9	-46.4	24.1	6.07e-01	0	37	0	351797248	58	5065
2026-01-22 11:35:18.66	148.44	34.59	-44.0	-46.5	23.9	6.06e-01	0	37	0	353894400	58	5140
2026-01-22 11:35:19.65	148.34	34.84	-44.0	-46.5	24.0	6.08e-01	0	37	0	355991552	58	5138
2026-01-22 11:35:20.84	148.23	35.15	-44.0	-46.5	24.0	6.06e-01	0	37	0	358088704	58	5119
2026-01-22 11:35:21.70	148.14	35.38	-44.2	-46.6	23.9	6.05e-01	0	37	0	359661568	58	5210
2026-01-22 11:35:23.00	148.01	35.72	-44.4	-47.0	23.6	6.07e-01	0	37	0	361758720	59	5112
2026-01-22 11:35:23.71	147.94	35.91	-44.6	-47.2	23.4	6.06e-01	0	37	0	363331584	59	5240
2026-01-22 11:35:25.22	147.79	36.32	-44.8	-47.4	23.1	6.07e-01	0	38	0	365953024	60	5079
2026-01-22 11:35:25.94	147.71	36.51	-44.8	-47.4	23.1	6.06e-01	0	37	0	367525888	60	5084
2026-01-22 11:35:27.22	147.57	36.87	-44.7	-47.4	23.2	6.06e-01	0	37	0	370147328	60	5042
2026-01-22 11:35:27.94	147.49	37.06	-44.6	-47.2	23.3	6.06e-01	0	37	0	371195904	60	4960
2026-01-22 11:35:29.22	147.35	37.42	-44.8	-47.5	23.0	6.07e-01	0	37	0	373817344	60	5137
2026-01-22 11:35:29.93	147.27	37.62	-45.0	-47.7	22.8	6.07e-01	0	37	0	374865920	60	5232
2026-01-22 11:35:31.21	147.12	37.98	-45.4	-48.1	22.4	6.06e-01	0	38	0	377487360	61	5216
2026-01-22 11:35:31.93	147.04	38.19	-45.4	-48.2	22.3	6.08e-01	0	38	0	378535936	61	5253
2026-01-22 11:35:33.21	146.88	38.56	-45.3	-48.0	22.5	6.07e-01	0	37	0	381157376	61	5137
2026-01-22 11:35:33.92	146.80	38.77	-45.2	-47.9	22.6	6.08e-01	0	37	0	382730240	61	5068
2026-01-22 11:35:35.20	146.64	39.14	-45.1	-47.9	22.7	6.05e-01	0	37	0	384827392	61	5047
2026-01-22 11:35:35.91	146.55	39.35	-45.1	-47.9	22.7	6.06e-01	0	37	0	386400256	61	5051
2026-01-22 11:35:37.19	146.38	39.73	-45.6	-48.5	22.1	6.06e-01	0	37	0	388497408	61	5429
2026-01-22 11:35:37.90	146.29	39.95	-45.4	-48.2	22.3	6.05e-01	0	38	0	390070272	61	5272
2026-01-22 11:35:39.18	146.12	40.34	-45.1	-47.8	22.7	6.06e-01	0	38	0	392167424	61	5014
2026-01-22 11:35:39.89	146.02	40.55	-45.1	-47.9	22.7	6.05e-01	0	38	0	393740288	61	5046
2026-01-22 11:35:41.17	145.84	40.95	-44.8	-47.4	23.0	6.06e-01	0	37	0	395837440	61	4810
2026-01-22 11:35:41.88	145.74	41.17	-44.7	-47.3	23.1	6.05e-01	0	37	0	397410304	61	4753
2026-01-22 11:35:43.22	145.55	41.59	-44.6	-47.2	23.2	6.06e-01	0	37	0	400031744	61	4655
2026-01-22 11:35:43.93	145.44	41.81	-44.6	-47.2	23.3	6.06e-01	0	38	0	401080320	61	4693
2026-01-22 11:35:45.21	145.25	42.22	-44.7	-47.4	23.1	6.07e-01	0	37	0	403701760	61	4801
2026-01-22 11:35:46.27	145.08	42.56	-44.4	-47.0	23.4	6.07e-01	0	37	0	405798912	60	4848
2026-01-22 11:35:47.14	144.95	42.85	-44.0	-46.5	23.8	6.06e-01	0	37	0	407371776	60	4590
2026-01-22 11:35:48.28	144.76	43.22	-44.0	-46.4	24.0	6.07e-01	0	37	0	409468928	59	4803
2026-01-22 11:35:49.13	144.62	43.50	-44.1	-46.6	23.9	6.05e-01	0	37	0	411041792	59	4903
2026-01-22 11:35:50.27	144.43	43.88	-44.1	-46.7	23.8	6.07e-01	0	37	0	413138944	59	4955
2026-01-22 11:35:51.12	144.28	44.17	-44.0	-46.6	23.8	6.06e-01	0	37	0	414711808	59	4922
2026-01-22 11:35:52.32	144.07	44.57	-43.9	-46.5	23.9	6.05e-01	0	38	0	416808960	59	4840
2026-01-22 11:35:53.17	143.92	44.86	-43.9	-46.4	24.1	6.08e-01	0	37	0	418381824	59	4776
2026-01-22 11:35:54.31	143.71	45.26	-44.1	-46.7	23.9	6.09e-01	0	38	0	420478976	59	4929
2026-01-22 11:35:55.16	143.55	45.55	-44.3	-46.8	23.7	6.08e-01	0	37	0	422576128	59	5034
2026-01-22 11:35:56.30	143.33	45.95	-44.4	-46.9	23.6	6.08e-01	0	38	0	424673280	59	5075
2026-01-22 11:35:57.16	143.16	46.25	-44.1	-46.5	24.0	6.06e-01	0	38	0	426246144	59	4848
2026-01-22 11:35:58.29	142.93	46.66	-44.0	-46.5	24.0	6.08e-01	0	37	0	428343296	59	4830
2026-01-22 11:35:59.15	142.76	46.96	-44.2	-46.7	23.8	6.08e-01	0	38	0	429916160	59	4951
2026-01-22 11:36:00.50	142.47	47.45	-44.3	-46.8	23.7	6.07e-01	0	37	0	432537600	59	5005
2026-01-22 11:36:01.22	142.31	47.71	-44.5	-47.1	23.5	6.04e-01	0	37	0	433586176	59	5165
2026-01-22 11:36:02.50	142.03	48.18	-44.1	-46.6	23.9	6.07e-01	0	37	0	436207616	59	4918
2026-01-22 11:36:03.21	141.87	48.45	-44.1	-46.6	23.9	6.08e-01	0	37	0	437256192	59	4899
2026-01-22 11:36:04.76	141.51	49.02	-43.7	-46.1	24.3	6.07e-01	0	37	0	440401920	59	4636
2026-01-22 11:36:05.47	141.33	49.29	-44.0	-46.5	24.0	6.05e-01	0	37	0	441450496	59	4821
2026-01-22 11:36:06.78	141.01	49.79	-44.2	-46.7	23.7	6.06e-01	0	37	0	444071936	59	4974
2026-01-22 11:36:07.49	140.83	50.06	-43.6	-46.0	24.4	6.07e-01	0	37	0	445644800	59	4567
2026-01-22 11:36:08.77	140.50	50.55	-43.5	-45.9	24.5	6.07e-01	0	37	0	447741952	58	4769
2026-01-22 11:36:09.49	140.31	50.83	-43.9	-46.3	24.1	6.07e-01	0	38	0	449314816	58	5040
2026-01-22 11:36:10.77	139.96	51.33	-43.7	-46.2	24.2	6.05e-01	0	37	0	451411968	58	4960
2026-01-22 11:36:11.50	139.75	51.62	-43.4	-45.8	24.6	6.05e-01	0	37	0	452984832	58	4734
2026-01-22 11:36:12.77	139.38	52.12	-42.7	-44.9	25.3	6.07e-01	0	37	0	455081984	57	4545
2026-01-22 11:36:13.48	139.17	52.40	-43.1	-45.4	25.0	6.04e-01	0	37	0	456654848	57	4785
2026-01-22 11:36:14.76	138.78	52.91	-43.2	-45.5	24.8	6.04e-01	0	37	0	459276288	57	4866
2026-01-22 11:36:15.49	138.55	53.21	-42.9	-45.3	25.0	6.07e-01	0	37	0	460324864	57	4711
2026-01-22 11:36:16.77	138.14	53.72	-42.8	-45.1	25.1	6.08e-01	0	37	0	462946304	57	4623
2026-01-22 11:36:17.57	137.87	54.05	-42.6	-44.9	25.3	6.06e-01	0	37	0	464519168	57	4505
2026-01-22 11:36:18.71	137.48	54.52	-43.2	-45.5	24.8	6.07e-01	0	37	0	466616320	57	4868
2026-01-22 11:36:19.72	137.12	54.93	-43.2	-45.6	24.8	6.07e-01	0	37	0	468189184	57	4895
2026-01-22 11:36:20.89	136.70	55.42	-43.0	-45.3	25.0	6.04e-01	0	37	0	470286336	57	4759
2026-01-22 11:36:21.79	136.36	55.80	-43.5	-45.9	24.5	6.08e-01	0	37	0	472383488	57	5066
2026-01-22 11:36:22.97	135.90	56.29	-43.8	-46.3	24.1	6.08e-01	0	37	0	474480640	58	5018
2026-01-22 11:36:23.82	135.56	56.65	-43.7	-46.2	24.3	6.05e-01	0	37	0	476053504	58	4935
2026-01-22 11:36:25.13	135.02	57.20	-43.9	-46.5	24.0	6.07e-01	0	37	0	478674944	58	5125
2026-01-22 11:36:25.84	134.71	57.50	-44.0	-46.6	23.8	6.08e-01	0	37	0	479723520	58	5217
2026-01-22 11:36:27.12	134.15	58.05	-44.2	-46.8	23.7	6.05e-01	0	37	0	482344960	59	5035
2026-01-22 11:36:27.85	133.82	58.36	-44.2	-46.8	23.7	6.06e-01	0	37	0	483393536	59	4994
2026-01-22 11:36:29.12	133.22	58.91	-44.0	-46.5	23.9	6.08e-01	0	37	0	486014976	59	4863
2026-01-22 11:36:29.88	132.85	59.24	-44.5	-47.1	23.5	6.06e-01	0	37	0	487587840	59	5197
2026-01-22 11:36:31.16	132.20	59.79	-44.2	-46.7	23.7	6.07e-01	0	37	0	489684992	59	4983
2026-01-22 11:36:31.87	131.83	60.10	-44.3	-46.8	23.7	6.08e-01	0	37	0	491257856	59	5025
2026-01-22 11:36:33.16	131.14	60.66	-44.6	-47.3	23.3	6.06e-01	0	37	0	493355008	59	5321
2026-01-22 11:36:33.87	130.74	60.97	-44.6	-47.3	23.2	6.05e-01	0	37	0	494927872	60	5012
2026-01-22 11:36:35.15	130.00	61.53	-44.4	-46.9	23.5	6.05e-01	0	37	0	497025024	60	4795
2026-01-22 11:36:35.86	129.58	61.84	-44.9	-47.5	23.1	6.05e-01	0	37	0	498597888	60	5120
2026-01-22 11:36:37.14	128.78	62.39	-45.3	-48.1	22.4	6.06e-01	0	37	0	501219328	61	5168
2026-01-22 11:36:37.85	128.33	62.70	-45.0	-47.7	22.8	6.04e-01	0	37	0	502267904	61	4952
2026-01-22 11:36:39.26	127.38	63.32	-45.5	-48.2	22.3	6.07e-01	0	37	0	504889344	61	5277
2026-01-22 11:36:39.97	126.89	63.63	-45.5	-48.3	22.3	6.05e-01	0	37	0	506462208	61	5335
2026-01-22 11:36:41.31	125.92	64.21	-45.7	-48.6	21.9	6.08e-01	0	37	0	509083648	62	5188
2026-01-22 11:36:42.02	125.39	64.51	-45.5	-48.4	22.3	6.09e-01	0	37	0	510132224	62	5052
2026-01-22 11:36:43.30	124.39	65.07	-46.0	-49.3	21.3	6.05e-01	0	37	0	512753664	62	5638
2026-01-22 11:36:44.01	123.82	65.37	-46.1	-49.6	21.1	6.08e-01	0	37	0	513802240	62	5804
2026-01-22 11:36:45.29	122.74	65.92	-45.9	-49.0	21.6	6.08e-01	0	38	0	516423680	63	5156
2026-01-22 11:36:46.01	122.11	66.22	-46.6	-50.0	20.8	6.08e-01	0	38	0	517472256	63	5738
2026-01-22 11:36:47.29	120.94	66.76	-46.6	-50.3	20.3	6.08e-01	0	37	0	520093696	64	5630
2026-01-22 11:36:48.00	120.27	67.06	-46.1	-49.4	21.2	6.05e-01	0	37	0	521666560	64	5100
2026-01-22 11:36:49.28	119.00	67.59	-46.7	-50.0	20.7	6.09e-01	0	37	0	523763712	64	5419
2026-01-22 11:36:49.99	118.27	67.88	-47.2	-50.7	20.0	6.07e-01	0	37	0	525336576	65	5564
2026-01-22 11:36:51.27	116.90	68.40	-46.7	-50.0	20.6	6.06e-01	0	38	0	527433728	65	5140
2026-01-22 11:36:51.98	116.11	68.68	-46.6	-50.0	20.7	6.06e-01	0	37	0	529006592	65	5108
2026-01-22 11:36:53.26	114.63	69.19	-47.4	-51.1	19.6	6.06e-01	0	37	0	531103744	65	5817
2026-01-22 11:36:53.97	113.77	69.46	-46.5	-49.7	20.8	6.06e-01	0	37	0	532676608	65	4972
2026-01-22 11:36:55.25	112.17	69.95	-47.1	-50.9	19.9	6.09e-01	0	38	0	534773760	64	6002
2026-01-22 11:36:55.96	111.24	70.21	-46.6	-50.0	20.6	6.06e-01	0	37	0	536346624	65	5133
2026-01-22 11:36:57.24	109.50	70.68	-46.5	-49.7	21.0	6.08e-01	0	37	0	538443776	64	5220
2026-01-22 11:36:57.98	108.45	70.94	-46.4	-49.6	21.1	6.07e-01	0	37	0	540016640	64	5171
2026-01-22 11:36:59.25	106.58	71.38	-46.2	-49.5	21.1	6.08e-01	0	37	0	542638080	64	5110
2026-01-22 11:36:59.98	105.46	71.62	-46.2	-49.6	21.1	6.06e-01	0	37	0	543686656	64	5181
2026-01-22 11:37:01.28	103.39	72.04	-46.2	-49.3	21.4	6.08e-01	0	37	0	546308096	63	5318
2026-01-22 11:37:01.99	102.22	72.26	-46.5	-49.7	21.0	6.07e-01	0	37	0	547356672	63	5589
2026-01-22 11:37:03.27	100.03	72.64	-46.1	-49.3	21.4	6.06e-01	0	37	0	549978112	63	5297
2026-01-22 11:37:03.98	98.77	72.83	-46.3	-49.8	20.9	6.07e-01	0	37	0	551550976	63	5593
2026-01-22 11:37:05.26	96.43	73.17	-46.3	-49.7	21.0	6.05e-01	0	37	0	553648128	63	5529
2026-01-22 11:37:05.98	95.07	73.35	-46.2	-49.4	21.3	6.06e-01	0	37	0	555220992	63	5361
2026-01-22 11:37:07.26	92.57	73.65	-46.4	-49.6	21.1	6.10e-01	0	38	0	557318144	64	5191
2026-01-22 11:37:07.97	91.15	73.80	-46.6	-50.0	20.7	6.07e-01	0	38	0	558891008	64	5425
2026-01-22 11:37:09.25	88.51	74.05	-46.2	-49.4	21.3	6.05e-01	0	37	0	561512448	63	5400
2026-01-22 11:37:09.99	86.95	74.18	-46.2	-49.5	21.1	6.08e-01	0	38	0	562561024	63	5441
2026-01-22 11:37:11.27	84.19	74.37	-46.1	-49.2	21.4	6.08e-01	0	37	0	565182464	63	5239
2026-01-22 11:37:11.98	82.63	74.47	-45.7	-48.6	22.0	6.06e-01	0	38	0	566231040	63	4920
2026-01-22 11:37:13.26	79.78	74.60	-46.3	-49.4	21.2	6.06e-01	0	37	0	568852480	63	5391
2026-01-22 11:37:13.97	78.17	74.67	-45.9	-48.9	21.7	6.06e-01	0	37	0	569901056	63	5053
2026-01-22 11:37:15.25	75.25	74.75	-46.3	-49.4	21.3	6.06e-01	0	37	0	572522496	63	5386
2026-01-22 11:37:15.99	73.54	74.78	-46.2	-49.2	21.4	6.10e-01	0	37	0	573571072	63	5278
2026-01-22 11:37:17.27	70.59	74.80	-46.2	-49.4	21.3	6.07e-01	0	38	0	576192512	63	5382
2026-01-22 11:37:18.19	68.46	74.79	-46.3	-49.4	21.1	6.06e-01	0	37	0	577765376	64	5097
2026-01-22 11:37:19.20	66.13	74.75	-46.7	-49.9	20.7	6.06e-01	0	38	0	579862528	64	5399
2026-01-22 11:37:20.19	63.87	74.70	-46.2	-49.3	21.3	6.06e-01	0	37	0	581959680	64	5007
2026-01-22 11:37:21.18	61.62	74.62	-46.5	-49.7	20.9	6.08e-01	0	37	0	583532544	64	5261
2026-01-22 11:37:22.18	59.38	74.52	-46.4	-49.5	21.0	6.06e-01	0	37	0	585629696	64	5152
2026-01-22 11:37:23.17	57.19	74.39	-46.3	-49.4	21.3	6.07e-01	0	38	0	587202560	64	5075
2026-01-22 11:37:24.17	55.03	74.25	-46.5	-49.7	21.0	6.07e-01	0	38	0	589299712	64	5237
2026-01-22 11:37:25.18	52.88	74.08	-46.5	-49.8	20.9	6.05e-01	0	37	0	590872576	64	5306
2026-01-22 11:37:26.17	50.83	73.89	-46.4	-49.7	21.0	6.07e-01	0	38	0	592969728	64	5231
2026-01-22 11:37:27.17	48.81	73.68	-46.2	-49.2	21.5	6.06e-01	0	38	0	595066880	64	4964
2026-01-22 11:37:28.24	46.71	73.44	-46.9	-50.3	20.4	6.08e-01	0	37	0	596639744	64	5605
2026-01-22 11:37:29.12	45.03	73.23	-46.8	-50.0	20.7	6.07e-01	0	37	0	598736896	64	5428
2026-01-22 11:37:30.44	42.60	72.88	-46.9	-50.3	20.5	6.05e-01	0	37	0	600834048	64	5624
2026-01-22 11:37:31.14	41.36	72.69	-47.2	-50.9	19.8	6.08e-01	0	38	0	602406912	65	5693
2026-01-22 11:37:32.63	38.80	72.25	-47.7	-51.6	19.1	6.07e-01	0	37	0	605028352	66	5805
2026-01-22 11:37:33.34	37.63	72.03	-47.9	-51.8	18.9	6.08e-01	0	37	0	606601216	66	5925
2026-01-22 11:37:34.68	35.51	71.60	-48.1	-52.0	18.8	6.07e-01	0	37	0	608698368	66	6127
2026-01-22 11:37:35.39	34.42	71.36	-48.0	-51.9	18.8	6.06e-01	0	37	0	610271232	67	5710
2026-01-22 11:37:36.73	32.46	70.90	-48.0	-51.8	19.0	6.07e-01	0	37	0	612892672	67	5634
2026-01-22 11:37:37.45	31.44	70.65	-48.4	-52.6	18.2	6.07e-01	0	37	0	613941248	67	6160
2026-01-22 11:37:38.73	29.71	70.18	-47.9	-51.9	18.8	6.07e-01	0	38	0	616562688	67	5689
2026-01-22 11:37:39.45	28.78	69.91	-48.1	-52.3	18.6	6.05e-01	0	37	0	618135552	67	5956
2026-01-22 11:37:40.73	27.18	69.43	-48.3	-52.6	18.3	6.10e-01	0	37	0	620232704	67	6192
2026-01-22 11:37:41.44	26.33	69.15	-48.0	-51.9	18.8	6.08e-01	0	38	0	621805568	67	5681
2026-01-22 11:37:42.72	24.85	68.65	-48.2	-52.3	18.5	6.08e-01	0	37	0	623902720	67	5951
2026-01-22 11:37:43.43	24.06	68.36	-49.0	-53.7	17.4	6.05e-01	0	37	0	625475584	68	6607
2026-01-22 11:37:44.71	22.70	67.85	-48.5	-53.0	18.0	6.09e-01	0	37	0	627572736	68	6066
2026-01-22 11:37:45.42	21.98	67.56	-48.2	-52.2	18.6	6.07e-01	0	37	0	629145600	68	5570
2026-01-22 11:37:46.70	20.72	67.03	-48.5	-52.6	18.2	6.07e-01	0	38	0	631242752	68	5835
2026-01-22 11:37:47.41	20.05	66.73	-48.9	-53.5	17.5	6.09e-01	0	38	0	632815616	68	6432
2026-01-22 11:37:48.69	18.89	66.19	-47.6	-51.4	19.4	6.06e-01	0	37	0	634912768	67	5346
2026-01-22 11:37:49.42	18.26	65.88	-47.6	-51.4	19.3	6.06e-01	0	37	0	636485632	67	5369
2026-01-22 11:37:50.69	17.19	65.34	-47.3	-50.8	19.9	6.07e-01	0	37	0	639107072	66	5314
2026-01-22 11:37:51.70	16.38	64.91	-46.3	-49.4	21.2	6.08e-01	0	38	0	640679936	64	5096
2026-01-22 11:37:52.98	15.40	64.35	-46.0	-49.0	21.6	6.08e-01	0	38	0	643301376	64	4855
2026-01-22 11:37:53.69	14.88	64.05	-45.9	-48.9	21.7	6.06e-01	0	38	0	644349952	63	5098
2026-01-22 11:37:54.97	13.97	63.49	-45.9	-48.9	21.8	6.09e-01	0	38	0	646971392	63	5080
2026-01-22 11:37:55.68	13.48	63.19	-45.7	-48.6	22.0	6.07e-01	0	38	0	648019968	63	4906
2026-01-22 11:37:56.96	12.63	62.63	-45.6	-48.5	22.2	6.07e-01	0	38	0	650641408	63	4829
2026-01-22 11:37:57.68	12.17	62.32	-45.6	-48.5	22.2	6.05e-01	0	38	0	652214272	63	4848
2026-01-22 11:37:58.96	11.39	61.76	-45.2	-48.0	22.6	6.08e-01	0	38	0	654311424	62	4839
2026-01-22 11:37:59.67	10.97	61.45	-45.1	-48.0	22.6	6.06e-01	0	37	0	655884288	62	4817
2026-01-22 11:38:00.95	10.23	60.90	-45.0	-47.7	22.9	6.04e-01	0	37	0	657981440	62	4676
2026-01-22 11:38:01.66	9.84	60.59	-44.7	-47.4	23.2	6.05e-01	0	38	0	659554304	61	4762
2026-01-22 11:38:02.93	9.16	60.04	-44.8	-47.4	23.1	6.07e-01	0	38	0	661651456	61	4810
2026-01-22 11:38:03.66	8.79	59.72	-44.7	-47.5	23.0	6.06e-01	0	38	0	663224320	61	4829
2026-01-22 11:38:04.94	8.15	59.17	-44.3	-46.9	23.6	6.04e-01	0	37	0	665845760	60	4768
2026-01-22 11:38:05.66	7.80	58.86	-44.5	-47.1	23.4	6.06e-01	0	37	0	666894336	60	4906
2026-01-22 11:38:07.13	7.11	58.23	-44.2	-46.9	23.6	6.07e-01	0	38	0	669515776	60	4803
2026-01-22 11:38:07.84	6.79	57.93	-44.2	-46.9	23.6	6.07e-01	0	38	0	671088640	60	4793
2026-01-22 11:38:09.17	6.22	57.36	-44.1	-46.7	23.8	6.06e-01	0	38	0	673710080	59	4976
2026-01-22 11:38:09.88	5.92	57.06	-43.9	-46.4	24.1	6.09e-01	0	37	0	674758656	59	4777
2026-01-22 11:38:11.22	5.37	56.50	-43.3	-45.7	24.7	6.08e-01	0	38	0	677380096	58	4691
2026-01-22 11:38:11.93	5.09	56.20	-43.3	-45.7	24.8	6.06e-01	0	38	0	678952960	58	4678
2026-01-22 11:38:13.28	4.57	55.64	-43.3	-45.7	24.7	6.06e-01	0	37	0	681050112	58	4695
2026-01-22 11:38:13.99	4.31	55.34	-43.0	-45.3	25.0	6.07e-01	0	38	0	682622976	58	4466
2026-01-22 11:38:15.29	3.84	54.81	-42.8	-45.1	25.1	6.06e-01	0	38	0	685244416	57	4636
2026-01-22 11:38:16.00	3.59	54.52	-42.8	-45.0	25.3	6.06e-01	0	38	0	686292992	57	4573
2026-01-22 11:38:17.28	3.16	53.99	-42.8	-45.1	25.3	6.07e-01	0	38	0	688914432	57	4605
2026-01-22 11:38:17.99	2.92	53.71	-42.8	-45.0	25.3	6.07e-01	0	38	0	689963008	57	4585
2026-01-22 11:38:19.27	2.51	53.19	-43.1	-45.5	24.9	6.07e-01	0	38	0	692584448	57	4824
2026-01-22 11:38:19.98	2.29	52.91	-43.2	-45.6	24.8	6.05e-01	0	38	0	693633024	57	4901
2026-01-22 11:38:21.26	1.90	52.40	-42.7	-45.0	25.2	6.04e-01	0	37	0	696254464	57	4587
2026-01-22 11:38:21.97	1.69	52.11	-42.6	-44.9	25.4	6.05e-01	0	37	0	697827328	57	4527
2026-01-22 11:38:23.25	1.32	51.61	-43.2	-45.5	24.9	6.06e-01	0	38	0	699924480	57	4863
2026-01-22 11:38:23.96	1.12	51.33	-43.2	-45.6	24.8	6.06e-01	0	38	0	701497344	57	4875
2026-01-22 11:38:25.24	0.77	50.84	-43.3	-45.6	24.8	6.06e-01	0	37	0	703594496	57	4923
2026-01-22 11:38:26.10	0.55	50.51	-43.7	-46.2	24.4	6.09e-01	0	37	0	705167360	58	4928
2026-01-22 11:38:27.24	0.25	50.07	-43.7	-46.1	24.3	6.06e-01	0	38	0	707264512	58	4925
2026-01-22 11:38:28.09	0.04	49.75	-43.6	-46.0	24.4	6.08e-01	0	37	0	708837376	58	4846
2026-01-22 11:38:29.23	359.76	49.32	-43.4	-45.8	24.6	6.08e-01	0	37	0	710934528	58	4721
2026-01-22 11:38:30.09	359.55	49.00	-43.4	-45.7	24.7	6.05e-01	0	37	0	712507392	58	4705
2026-01-22 11:38:31.22	359.29	48.58	-43.6	-46.1	24.4	6.08e-01	0	38	0	715128832	58	4885
2026-01-22 11:38:32.08	359.09	48.26	-43.9	-46.4	24.1	6.07e-01	0	38	0	716701696	58	5074
2026-01-22 11:38:33.21	358.84	47.84	-44.0	-46.5	24.0	6.05e-01	0	38	0	718798848	58	5139
2026-01-22 11:38:34.07	358.65	47.53	-43.9	-46.4	24.1	6.06e-01	0	38	0	720371712	58	5060
2026-01-22 11:38:35.27	358.40	47.10	-43.6	-46.0	24.4	6.07e-01	0	38	0	722468864	58	4866
2026-01-22 11:38:36.12	358.22	46.80	-43.6	-46.1	24.4	6.05e-01	0	38	0	724041728	58	4879
2026-01-22 11:38:37.32	357.98	46.37	-43.4	-45.8	24.6	6.07e-01	0	37	0	726138880	58	4725
2026-01-22 11:38:38.17	357.81	46.07	-43.3	-45.8	24.6	6.06e-01	0	37	0	727711744	58	4709
2026-01-22 11:38:39.31	357.60	45.67	-43.3	-45.7	24.7	6.07e-01	0	37	0	730333184	58	4692
2026-01-22 11:38:40.16	357.43	45.38	-43.5	-46.0	24.5	6.07e-01	0	38	0	731906048	58	4819
2026-01-22 11:38:41.30	357.23	44.99	-43.7	-46.3	24.2	6.06e-01	0	37	0	734003200	58	4994
2026-01-22 11:38:42.15	357.07	44.70	-43.7	-46.2	24.2	6.08e-01	0	37	0	735576064	58	4950
2026-01-22 11:38:43.51	356.83	44.24	-43.7	-46.2	24.2	6.06e-01	0	38	0	738197504	58	4979
2026-01-22 11:38:44.22	356.71	44.00	-43.7	-46.2	24.2	6.05e-01	0	38	0	739246080	58	4977
2026-01-22 11:38:45.50	356.50	43.58	-43.6	-46.1	24.3	6.05e-01	0	37	0	741867520	58	4918
2026-01-22 11:38:46.24	356.37	43.33	-43.7	-46.2	24.3	6.07e-01	0	37	0	742916096	58	4966
2026-01-22 11:38:47.52	356.17	42.92	-43.7	-46.1	24.3	6.07e-01	0	37	0	745537536	58	4908
2026-01-22 11:38:48.23	356.06	42.69	-44.1	-46.6	24.0	6.06e-01	0	37	0	746586112	58	5176
2026-01-22 11:38:49.51	355.86	42.27	-44.2	-46.7	23.8	6.06e-01	0	37	0	749207552	59	4981
2026-01-22 11:38:50.24	355.75	42.04	-44.5	-47.1	23.5	6.07e-01	0	37	0	750780416	59	5187
2026-01-22 11:38:51.52	355.56	41.64	-44.7	-47.4	23.1	6.04e-01	0	37	0	752877568	60	5071
2026-01-22 11:38:52.25	355.45	41.41	-44.8	-47.6	22.9	6.08e-01	0	37	0	754450432	60	5175
2026-01-22 11:38:53.53	355.27	41.01	-44.8	-47.5	23.0	6.06e-01	0	37	0	756547584	60	5148
2026-01-22 11:38:54.24	355.17	40.79	-44.8	-47.5	23.0	6.07e-01	0	38	0	758120448	60	5131
2026-01-22 11:38:55.52	355.00	40.40	-44.8	-47.5	23.0	6.10e-01	0	38	0	760741888	60	5104
2026-01-22 11:38:56.23	354.90	40.19	-44.9	-47.6	22.9	6.06e-01	0	38	0	761790464	60	5184
2026-01-22 11:38:57.51	354.73	39.80	-45.1	-47.7	22.7	6.07e-01	0	38	0	764411904	60	5278
2026-01-22 11:38:58.22	354.64	39.59	-45.1	-47.9	22.6	6.06e-01	0	38	0	765460480	60	5355
2026-01-22 11:38:59.62	354.46	39.18	-45.2	-48.0	22.5	6.08e-01	0	38	0	768081920	61	5130
2026-01-22 11:39:00.34	354.37	38.97	-45.2	-48.0	22.5	6.07e-01	0	37	0	769654784	61	5154
2026-01-22 11:39:01.61	354.22	38.60	-44.8	-47.7	22.8	6.07e-01	0	37	0	771751936	61	4951
2026-01-22 11:39:02.32	354.13	38.39	-44.7	-47.6	22.9	6.07e-01	0	38	0	773324800	61	4884
2026-01-22 11:39:03.74	353.97	37.99	-44.6	-47.7	22.8	6.06e-01	0	38	0	775946240	61	4962
2026-01-22 11:39:04.46	353.88	37.79	-44.7	-47.9	22.6	6.07e-01	0	38	0	777519104	61	5052
2026-01-22 11:39:05.74	353.74	37.43	-44.7	-47.8	22.6	6.06e-01	0	37	0	779616256	61	5032
2026-01-22 11:39:06.45	353.66	37.23	-44.7	-47.7	22.7	6.07e-01	0	37	0	780664832	61	4981
2026-01-22 11:39:07.73	353.52	36.88	-44.4	-47.2	23.2	6.07e-01	0	37	0	783286272	60	4970
2026-01-22 11:39:08.45	353.45	36.68	-44.2	-46.9	23.5	6.07e-01	0	38	0	784859136	60	4799
2026-01-22 11:39:09.73	353.31	36.34	-44.0	-46.7	23.7	6.07e-01	0	38	0	786956288	60	4675
2026-01-22 11:39:10.47	353.23	36.14	-44.1	-46.7	23.7	6.06e-01	0	38	0	788529152	60	4689
2026-01-22 11:39:11.75	353.10	35.80	-44.0	-46.6	23.7	6.05e-01	0	38	0	791150592	60	4651
2026-01-22 11:39:12.46	353.03	35.61	-44.2	-46.8	23.7	6.07e-01	0	38	0	792199168	59	5029
2026-01-22 11:39:13.74	352.91	35.27	-44.2	-46.9	23.6	6.05e-01	0	38	0	794820608	59	5053
2026-01-22 11:39:14.48	352.84	35.08	-44.1	-46.8	23.7	6.06e-01	0	37	0	795869184	59	5007
2026-01-22 11:39:15.76	352.72	34.75	-43.9	-46.4	24.0	6.05e-01	0	38	0	798490624	59	4796
2026-01-22 11:39:16.52	352.65	34.56	-43.7	-46.2	24.2	6.07e-01	0	38	0	800063488	59	4671
2026-01-22 11:39:17.80	352.53	34.23	-43.2	-45.7	24.6	6.06e-01	0	37	0	802160640	58	4682
2026-01-22 11:39:18.51	352.46	34.06	-43.0	-45.5	24.3	6.06e-01	0	38	0	803733504	57	4845
2026-01-22 11:39:19.79	352.35	33.74	-43.0	-45.5	24.8	6.07e-01	0	38	0	805830656	57	4829
2026-01-22 11:39:20.69	352.27	33.52	-43.0	-45.5	24.9	6.07e-01	0	37	0	807403520	57	4832
2026-01-22 11:39:22.07	352.15	33.18	-43.3	-45.8	24.6	6.07e-01	0	37	0	810024960	57	5002
2026-01-22 11:39:22.79	352.09	33.00	-43.2	-45.8	24.6	6.06e-01	0	37	0	811597824	57	4996
2026-01-22 11:39:24.06	351.99	32.70	-43.3	-45.9	24.5	6.06e-01	0	37	0	814219264	57	5048
2026-01-22 11:39:24.79	351.93	32.53	-43.2	-45.7	24.6	6.05e-01	0	37	0	815267840	57	4953
2026-01-22 11:39:26.07	351.83	32.22	-43.1	-45.6	24.8	6.05e-01	0	38	0	817889280	57	4883
2026-01-22 11:39:26.78	351.77	32.06	-43.1	-45.6	24.7	6.07e-01	0	38	0	818937856	57	4900
2026-01-22 11:39:28.06	351.67	31.76	-43.1	-45.6	24.8	6.07e-01	0	38	0	821559296	57	4885
2026-01-22 11:39:28.91	351.61	31.56	-43.1	-45.6	24.7	6.05e-01	0	37	0	823132160	57	4871
2026-01-22 11:39:30.05	351.52	31.30	-43.1	-45.5	24.8	6.08e-01	0	38	0	825229312	57	4870
2026-01-22 11:39:30.90	351.46	31.11	-42.9	-45.3	24.9	6.07e-01	0	38	0	826802176	57	4737
2026-01-22 11:39:32.04	351.37	30.85	-43.0	-45.3	24.9	6.06e-01	0	38	0	828899328	57	4752
2026-01-22 11:39:32.89	351.31	30.66	-42.8	-45.1	25.1	6.05e-01	0	38	0	830472192	57	4649
2026-01-22 11:39:34.03	351.23	30.41	-42.8	-45.1	25.2	6.07e-01	0	37	0	832569344	57	4629
2026-01-22 11:39:34.88	351.17	30.22	-42.8	-45.1	25.1	6.07e-01	0	37	0	834142208	57	4639
2026-01-22 11:39:36.02	351.09	29.98	-42.7	-45.1	25.1	6.06e-01	0	38	0	836239360	57	4647
2026-01-22 11:39:36.87	351.04	29.79	-42.8	-45.2	25.1	6.07e-01	0	37	0	837812224	57	4663
2026-01-22 11:39:38.01	350.96	29.55	-42.6	-45.0	25.2	6.08e-01	0	37	0	839909376	57	4570
2026-01-22 11:39:38.86	350.90	29.37	-42.8	-45.1	25.1	6.06e-01	0	37	0	842006528	57	4633
2026-01-22 11:39:40.11	350.82	29.10	-42.9	-45.3	25.0	6.06e-01	0	37	0	844103680	57	4719
2026-01-22 11:39:40.96	350.77	28.93	-43.0	-45.3	25.0	6.06e-01	0	37	0	845676544	57	4739
2026-01-22 11:39:42.10	350.70	28.69	-43.2	-45.5	24.8	6.06e-01	0	38	0	847773696	57	4849
2026-01-22 11:39:42.95	350.64	28.51	-43.2	-45.5	24.8	6.07e-01	0	38	0	849346560	57	4855
2026-01-22 11:39:44.09	350.57	28.28	-43.1	-45.5	24.8	6.06e-01	0	37	0	851443712	57	4861
2026-01-22 11:39:44.94	350.52	28.11	-43.1	-45.5	24.7	6.09e-01	0	37	0	853016576	57	4867
2026-01-22 11:39:46.08	350.46	27.88	-43.3	-45.8	24.6	6.07e-01	0	37	0	855113728	57	4985
2026-01-22 11:39:46.99	350.40	27.70	-43.4	-45.9	24.4	6.06e-01	0	37	0	856686592	57	5091
2026-01-22 11:39:48.00	350.34	27.50	-43.4	-46.0	24.4	6.03e-01	0	38	0	858783744	57	5108
2026-01-22 11:39:49.00	350.29	27.30	-43.5	-46.0	24.3	6.06e-01	0	38	0	860880896	57	5155
2026-01-22 11:39:49.99	350.23	27.11	-43.5	-46.0	24.4	6.07e-01	0	38	0	862453760	57	5114
2026-01-22 11:39:50.99	350.17	26.91	-43.5	-46.0	24.4	6.07e-01	0	37	0	864550912	57	5124
2026-01-22 11:39:51.98	350.12	26.72	-43.5	-46.0	24.3	6.05e-01	0	38	0	866123776	57	5139
2026-01-22 11:39:52.98	350.07	26.53	-43.6	-46.0	24.4	6.06e-01	0	37	0	868220928	57	5147
2026-01-22 11:39:53.97	350.01	26.34	-43.5	-46.1	24.3	6.08e-01	0	38	0	870318080	57	5162
2026-01-22 11:39:54.97	349.96	26.15	-43.6	-46.2	24.2	6.06e-01	0	38	0	871890944	57	5237
2026-01-22 11:39:55.96	349.91	25.97	-43.7	-46.3	24.1	6.07e-01	0	37	0	873988096	58	4991
2026-01-22 11:39:56.96	349.86	25.78	-43.6	-46.2	24.2	6.08e-01	0	37	0	875560960	58	4965
2026-01-22 11:39:57.95	349.81	25.60	-43.7	-46.3	24.1	6.08e-01	0	37	0	877658112	58	5010
2026-01-22 11:39:58.97	349.75	25.42	-43.6	-46.2	24.2	6.05e-01	0	37	0	879230976	58	4982
2026-01-22 11:39:59.96	349.71	25.24	-43.6	-46.2	24.2	6.06e-01	0	37	0	881328128	58	4961
2026-01-22 11:40:00.96	349.66	25.06	-43.6	-46.2	24.2	6.05e-01	0	38	0	883425280	58	4968
2026-01-22 11:40:01.95	349.61	24.88	-43.7	-46.2	24.2	6.07e-01	0	37	0	884998144	58	4945
2026-01-22 11:40:02.95	349.56	24.70	-43.7	-46.2	24.1	6.08e-01	0	38	0	887095296	58	4976
2026-01-22 11:40:03.94	349.52	24.53	-43.7	-46.3	24.1	6.05e-01	0	37	0	888668160	58	4988
2026-01-22 11:40:04.94	349.47	24.35	-43.7	-46.4	24.0	6.06e-01	0	38	0	890765312	58	5061
2026-01-22 11:40:05.93	349.42	24.18	-43.7	-46.5	23.9	6.07e-01	0	37	0	892338176	58	5104
2026-01-22 11:40:06.93	349.38	24.01	-43.6	-46.5	23.9	6.06e-01	0	38	0	894435328	58	5115
2026-01-22 11:40:07.93	349.33	23.84	-43.5	-46.4	23.9	6.05e-01	0	38	0	896008192	58	5100
2026-01-22 11:40:08.92	349.29	23.67	-43.5	-46.4	24.0	6.06e-01	0	37	0	898105344	58	5082
2026-01-22 11:40:09.91	349.25	23.50	-43.6	-46.6	23.8	6.07e-01	0	37	0	900202496	58	5175
2026-01-22 11:40:10.91	349.20	23.33	-43.5	-46.4	23.9	6.07e-01	0	37	0	901775360	58	5088
2026-01-22 11:40:11.91	349.16	23.17	-43.5	-46.4	24.0	6.07e-01	0	37	0	903872512	58	5069
2026-01-22 11:40:12.90	349.12	23.00	-43.6	-46.5	23.9	6.07e-01	0	38	0	905445376	58	5121
2026-01-22 11:40:13.96	349.07	22.83	-43.8	-46.5	23.8	6.06e-01	0	38	0	907542528	58	5143
2026-01-22 11:40:14.86	349.04	22.68	-43.9	-46.5	23.9	6.09e-01	0	37	0	909115392	58	5129
2026-01-22 11:40:15.95	348.99	22.50	-44.0	-46.5	23.9	6.06e-01	0	38	0	911212544	58	5126
2026-01-22 11:40:16.80	348.96	22.37	-44.0	-46.5	23.8	6.02e-01	0	37	0	912785408	58	5145
2026-01-22 11:40:17.94	348.91	22.19	-43.9	-46.4	23.9	6.04e-01	0	38	0	914882560	58	5090
2026-01-22 11:40:18.79	348.88	22.05	-43.8	-46.3	24.0	6.06e-01	0	37	0	916455424	58	5020
2026-01-22 11:40:19.93	348.84	21.87	-43.8	-46.4	23.6	6.08e-01	0	37	0	918552576	58	5051
2026-01-22 11:40:20.78	348.80	21.74	-43.8	-46.3	24.0	6.08e-01	0	37	0	920125440	58	5030
2026-01-22 11:40:21.91	348.76	21.56	-43.7	-46.3	24.1	6.04e-01	0	37	0	922222592	58	5015
2026-01-22 11:40:22.77	348.73	21.43	-43.7	-46.3	24.0	6.06e-01	0	37	0	924319744	58	5000
2026-01-22 11:40:23.90	348.69	21.25	-43.8	-46.4	24.0	6.05e-01	0	37	0	926416896	58	5071
2026-01-22 11:40:24.76	348.65	21.12	-43.7	-46.2	24.1	6.08e-01	0	37	0	927989760	58	4979
2026-01-22 11:40:26.02	348.61	20.93	-43.7	-46.2	24.2	6.05e-01	0	37	0	930086912	58	4935
2026-01-22 11:40:26.79	348.58	20.82	-43.7	-46.2	24.1	6.07e-01	0	37	0	931659776	58	4959
2026-01-22 11:40:28.07	348.54	20.62	-43.8	-46.2	24.1	6.05e-01	0	37	0	933756928	58	4972
2026-01-22 11:40:28.78	348.51	20.52	-43.7	-46.2	24.2	6.05e-01	0	37	0	935329792	58	4934
2026-01-22 11:40:30.27	348.46	20.30	-43.7	-46.3	24.1	6.06e-01	0	37	0	937951232	58	5002
2026-01-22 11:40:30.98	348.44	20.19	-43.6	-46.2	24.1	6.08e-01	0	37	0	939524096	58	4970
2026-01-22 11:40:32.26	348.39	20.01	-43.7	-46.3	24.1	6.05e-01	0	37	0	941621248	58	4999
2026-01-22 11:40:32.97	348.37	19.91	-43.6	-46.2	24.1	6.07e-01	0	38	0	943194112	58	4982
2026-01-22 11:40:34.25	348.33	19.72	-43.6	-46.2	24.1	6.07e-01	0	37	0	945291264	58	4974
2026-01-22 11:40:34.96	348.30	19.62	-43.6	-46.2	24.1	6.05e-01	0	37	0	946864128	58	4974
2026-01-22 11:40:36.24	348.26	19.44	-43.6	-46.2	24.1	6.06e-01	0	37	0	949485568	58	4965
2026-01-22 11:40:36.95	348.24	19.34	-43.6	-46.2	24.1	6.06e-01	0	37	0	950534144	58	4975
2026-01-22 11:40:38.23	348.20	19.16	-43.5	-46.1	24.2	6.05e-01	0	38	0	953155584	58	4907
2026-01-22 11:40:39.00	348.18	19.05	-43.6	-46.2	24.1	6.06e-01	0	38	0	954728448	58	4943
2026-01-22 11:40:40.28	348.14	18.87	-43.6	-46.1	24.2	6.06e-01	0	38	0	956825600	58	4925
2026-01-22 11:40:40.99	348.11	18.78	-43.6	-46.1	24.2	6.05e-01	0	37	0	958398464	58	4922
2026-01-22 11:40:42.27	348.08	18.60	-43.5	-46.1	24.2	6.06e-01	0	38	0	960495616	58	4904
2026-01-22 11:40:43.18	348.05	18.48	-43.4	-46.1	24.2	6.04e-01	0	38	0	962068480	58	4902
2026-01-22 11:40:44.48	348.01	18.30	-43.3	-46.1	24.1	6.07e-01	0	38	0	964689920	58	4924
2026-01-22 11:40:45.19	347.99	18.20	-43.3	-46.1	24.1	6.06e-01	0	37	0	966262784	58	4915
2026-01-22 11:40:46.46	347.95	18.04	-43.2	-46.1	24.2	6.05e-01	0	38	0	968359936	58	4910
2026-01-22 11:40:47.18	347.93	17.94	-43.1	-46.1	24.1	6.05e-01	0	37	0	969932800	58	4914
2026-01-22 11:40:48.46	347.90	17.77	-43.1	-46.2	24.1	6.05e-01	0	37	0	972029952	58	4938
2026-01-22 11:40:49.20	347.87	17.67	-43.1	-46.3	24.0	6.05e-01	0	37	0	973602816	58	5013
2026-01-22 11:40:50.48	347.84	17.51	-43.2	-46.3	23.9	6.07e-01	0	38	0	976224256	58	5024
2026-01-22 11:40:51.20	347.82	17.41	-43.2	-46.3	23.9	6.06e-01	0	37	0	977272832	58	5041
2026-01-22 11:40:52.48	347.78	17.25	-43.4	-46.4	23.9	6.06e-01	0	38	0	979894272	58	5094
2026-01-22 11:40:53.20	347.77	17.16	-43.5	-46.4	23.8	6.09e-01	0	38	0	980942848	58	5084
2026-01-22 11:40:54.53	347.73	16.99	-43.6	-46.5	23.8	6.05e-01	0	37	0	983564288	58	5111
2026-01-22 11:40:55.24	347.71	16.90	-43.7	-46.4	23.9	6.07e-01	0	38	0	985137152	58	5083
2026-01-22 11:40:56.58	347.68	16.73	-43.7	-46.4	23.9	6.06e-01	0	38	0	987234304	58	5062
2026-01-22 11:40:57.29	347.66	16.64	-43.8	-46.5	23.8	6.05e-01	0	38	0	988807168	58	5119
2026-01-22 11:40:58.57	347.63	16.48	-43.8	-46.5	23.8	6.05e-01	0	37	0	991428608	58	5144
2026-01-22 11:40:59.28	347.61	16.39	-43.8	-46.5	23.8	6.06e-01	0	38	0	992477184	58	5140
2026-01-22 11:41:00.67	347.57	16.22	-43.7	-46.4	23.8	6.07e-01	0	37	0	995098624	58	5084
2026-01-22 11:41:01.63	347.55	16.10	-43.6	-46.5	23.8	6.07e-01	0	38	0	996671488	58	5104
2026-01-22 11:41:02.95	347.52	15.94	-43.6	-46.5	23.7	6.06e-01	0	37	0	999292928	58	5124
2026-01-22 11:41:03.70	347.50	15.85	-43.6	-46.4	23.8	6.06e-01	0	37	0	1000865792	58	5097
2026-01-22 11:41:05.29	347.46	15.66	-43.5	-46.4	23.8	6.08e-01	0	38	0	1004011520	58	5100
2026-01-22 11:41:06.13	347.44	15.56	-43.5	-46.5	23.8	6.07e-01	0	38	0	1005584384	58	5114
2026-01-22 11:41:07.71	347.40	15.37	-43.6	-46.5	23.7	6.03e-01	0	37	0	1008205824	58	5138
2026-01-22 11:41:08.34	347.39	15.30	-43.6	-46.5	23.7	6.01e-01	0	37	0	1009254400	58	5133
2026-01-22 11:41:09.79	347.36	15.13	-43.7	-46.5	23.7	6.02e-01	0	38	0	1012400128	58	5140
2026-01-22 11:41:10.50	347.34	15.05	-43.7	-46.5	23.7	6.02e-01	0	38	0	1013448704	58	5106
2026-01-22 11:41:11.78	347.31	14.90	-43.7	-46.5	23.6	6.03e-01	0	38	0	1016070144	58	5109
2026-01-22 11:41:12.49	347.30	14.82	-43.7	-46.4	23.8	6.01e-01	0	38	0	1017118720	58	5087
2026-01-22 11:41:13.79	347.27	14.67	-43.7	-46.4	23.8	6.01e-01	0	37	0	1019740160	58	5089
2026-01-22 11:41:14.50	347.25	14.58	-43.7	-46.4	23.8	6.02e-01	0	37	0	1021313024	58	5072
2026-01-22 11:41:15.78	347.22	14.44	-43.6	-46.4	23.8	6.02e-01	0	37	0	1023410176	58	5051
2026-01-22 11:41:16.58	347.21	14.35	-43.6	-46.3	23.8	6.04e-01	0	37	0	1024983040	58	5035
2026-01-22 11:41:17.72	347.18	14.22	-43.6	-46.4	23.8	6.02e-01	0	38	0	1027080192	58	5046
2026-01-22 11:41:18.75	347.16	14.11	-43.5	-46.3	23.9	6.01e-01	0	37	0	1029177344	58	5027
2026-01-22 11:41:19.74	347.14	14.00	-43.4	-46.3	23.9	6.02e-01	0	37	0	1030750208	58	4997
2026-01-22 11:41:20.94	347.12	13.86	-43.4	-46.4	23.8	6.01e-01	0	37	0	1032847360	58	5050
2026-01-22 11:41:21.83	347.10	13.77	-43.4	-46.4	23.8	6.03e-01	0	37	0	1034944512	58	5099
2026-01-22 11:41:22.96	347.08	13.64	-43.3	-46.4	23.8	6.06e-01	0	37	0	1037041664	58	5076
2026-01-22 11:41:23.82	347.06	13.55	-43.3	-46.4	23.8	6.04e-01	0	37	0	1038614528	58	5043
2026-01-22 11:41:24.96	347.04	13.42	-43.2	-46.2	24.0	6.02e-01	0	37	0	1040711680	58	4943
2026-01-22 11:41:25.81	347.02	13.33	-43.3	-46.2	23.9	6.02e-01	0	38	0	1042284544	58	4978
2026-01-22 11:41:26.95	347.00	13.21	-43.4	-46.2	23.9	6.01e-01	0	38	0	1044381696	58	4978
2026-01-22 11:41:27.80	346.98	13.12	-43.4	-46.2	23.9	6.02e-01	0	37	0	1045954560	58	4961
2026-01-22 11:41:28.94	346.96	13.00	-43.4	-46.2	24.0	6.02e-01	0	38	0	1048051712	58	4939
2026-01-22 11:41:29.79	346.94	12.91	-43.5	-46.2	24.0	6.02e-01	0	37	0	1049624576	58	4939
2026-01-22 11:41:30.92	346.92	12.79	-43.5	-46.1	24.0	6.04e-01	0	37	0	1051721728	58	4911
2026-01-22 11:41:31.78	346.91	12.70	-43.5	-46.2	24.0	6.02e-01	0	37	0	1053294592	58	4950
2026-01-22 11:41:32.91	346.89	12.58	-43.7	-46.3	23.8	6.02e-01	0	37	0	1055391744	58	5026
2026-01-22 11:41:33.77	346.87	12.49	-43.6	-46.2	24.0	6.01e-01	0	38	0	1056964608	58	4948
2026-01-22 11:41:35.00	346.85	12.36	-43.5	-46.2	24.0	6.03e-01	0	38	0	1059586048	58	4956
2026-01-22 11:41:35.85	346.83	12.28	-43.5	-46.3	23.9	6.05e-01	0	38	0	1061158912	58	4995
2026-01-22 11:41:36.99	346.81	12.16	-43.3	-46.3	23.9	6.04e-01	0	38	0	1063256064	58	5003
2026-01-22 11:41:37.84	346.80	12.07	-43.3	-46.4	23.8	6.03e-01	0	37	0	1064828928	58	5053
2026-01-22 11:41:38.97	346.78	11.96	-43.1	-46.3	23.8	6.01e-01	0	38	0	1066926080	58	5020
2026-01-22 11:41:39.83	346.76	11.87	-42.9	-46.3	23.8	6.03e-01	0	38	0	1068498944	57	5310
2026-01-22 11:41:41.09	346.74	11.75	-42.8	-46.4	23.7	6.04e-01	0	38	0	1071120384	57	5352
2026-01-22 11:41:41.88	346.73	11.67	-42.6	-46.4	23.7	6.02e-01	0	38	0	1072168960	57	5376
2026-01-22 11:41:43.16	346.71	11.54	-42.7	-46.5	23.6	6.05e-01	0	37	0	1074790400	57	5442
2026-01-22 11:41:44.30	346.69	11.43	-42.6	-46.4	23.6	6.01e-01	0	38	0	1076887552	57	5389
2026-01-22 11:41:45.15	346.68	11.34	-42.6	-46.4	23.7	6.02e-01	0	38	0	1078460416	57	5386
2026-01-22 11:41:46.29	346.66	11.23	-42.6	-46.4	23.6	6.06e-01	0	38	0	1080557568	57	5400
2026-01-22 11:41:47.14	346.64	11.15	-42.6	-46.5	23.6	6.03e-01	0	38	0	1082130432	57	5438
2026-01-22 11:41:48.28	346.63	11.04	-42.7	-46.5	23.6	6.05e-01	0	37	0	1084227584	57	5440
2026-01-22 11:41:49.13	346.61	10.95	-42.7	-46.5	23.5	6.03e-01	0	38	0	1085800448	57	5457
2026-01-22 11:41:50.43	346.59	10.83	-42.7	-46.5	23.4	6.00e-01	0	38	0	1088421888	57	5460
2026-01-22 11:41:51.14	346.58	10.76	-42.7	-46.6	23.5	6.03e-01	0	37	0	1089470464	57	5504
2026-01-22 11:41:52.61	346.56	10.62	-42.6	-46.6	23.4	6.05e-01	0	38	0	1092616192	57	5487
2026-01-22 11:41:53.32	346.55	10.55	-42.5	-46.5	23.5	6.05e-01	0	37	0	1093664768	57	5463
2026-01-22 11:41:54.60	346.53	10.43	-42.4	-46.6	23.4	6.03e-01	0	38	0	1096286208	56	5838
2026-01-22 11:41:55.69	346.51	10.33	-42.3	-46.7	23.4	6.04e-01	0	38	0	1098383360	56	5875
2026-01-22 11:41:56.80	346.50	10.23	-42.2	-46.8	23.2	6.03e-01	0	38	0	1100480512	56	5952
2026-01-22 11:41:57.85	346.48	10.13	-42.1	-46.8	23.2	6.04e-01	0	38	0	1102053376	56	5967
2026-01-22 11:41:58.84	346.47	10.04	-42.1	-46.8	23.2	6.04e-01	0	37	0	1104150528	56	5960
2026-01-22 11:41:59.83	346.45	9.94	-42.1	-46.9	23.2	6.06e-01	0	38	0	1106247680	56	5999
2026-01-22 11:42:00.83	346.44	9.85	-42.1	-46.8	23.2	6.00e-01	0	38	0	1107820544	56	5983
2026-01-22 11:42:01.82	346.42	9.76	-42.1	-46.9	23.1	6.02e-01	0	38	0	1109917696	56	6012
2026-01-22 11:42:02.82	346.41	9.67	-42.2	-46.9	23.1	6.02e-01	0	37	0	1111490560	56	5995
2026-01-22 11:42:03.82	346.40	9.58	-42.1	-46.8	23.1	6.00e-01	0	38	0	1113587712	56	5929
2026-01-22 11:42:04.81	346.38	9.49	-42.1	-46.8	23.2	6.02e-01	0	38	0	1115160576	56	5955
2026-01-22 11:42:05.81	346.37	9.40	-42.0	-46.8	23.1	6.04e-01	0	38	0	1117257728	56	5974
2026-01-22 11:42:06.80	346.36	9.31	-41.9	-46.9	23.0	6.02e-01	0	38	0	1119354880	55	6388
2026-01-22 11:42:07.79	346.34	9.22	-41.8	-46.8	23.1	6.03e-01	0	38	0	1120927744	55	6302
2026-01-22 11:42:08.79	346.33	9.13	-41.8	-46.9	23.0	6.05e-01	0	37	0	1123024896	55	6377
2026-01-22 11:42:09.79	346.32	9.04	-41.7	-46.9	23.0	6.02e-01	0	38	0	1124597760	55	6351
2026-01-22 11:42:10.78	346.30	8.95	-43.6	-51.1	20.0	6.02e-01	0	38	0	1126694912	57	9256
2026-01-22 11:42:11.77	346.29	8.87	-48.9	-71.5	3.8	7.45e-01	0	38	104	1127219200	68	51040
2026-01-22 11:42:12.77	346.28	8.78	-50.2	-71.7	3.9	7.39e-01	0	38	104	1127219200	71	43976
2026-01-22 11:42:13.76	346.27	8.69	-50.0	-71.6	3.8	7.44e-01	0	38	104	1127219200	70	46245
2026-01-22 11:42:14.76	346.25	8.61	-49.7	-71.6	3.8	7.50e-01	0	38	104	1127219200	71	43470
2026-01-22 11:42:15.75	346.24	8.52	-50.8	-72.2	3.9	7.42e-01	0	38	104	1127219200	72	44111
2026-01-22 11:42:16.74	346.23	8.43	-51.6	-71.9	3.9	7.49e-01	0	37	104	1127219200	74	38162
2026-01-22 11:42:17.74	346.22	8.35	-50.7	-71.9	3.8	7.48e-01	0	38	104	1127219200	73	40493
2026-01-22 11:42:18.73	346.20	8.26	-51.4	-72.0	3.9	7.43e-01	0	38	104	1127219200	73	40717
2026-01-22 11:42:19.72	346.19	8.18	-50.2	-72.0	3.8	7.44e-01	0	38	104	1127219200	72	43094
2026-01-22 11:42:20.71	346.18	8.09	-51.7	-72.0	3.8	7.47e-01	0	38	104	1127219200	74	38563
2026-01-22 11:42:21.71	346.17	8.01	-51.1	-72.0	3.8	7.47e-01	0	38	104	1127219200	74	38631
2026-01-22 11:42:22.70	346.16	7.93	-51.8	-72.1	3.8	7.47e-01	0	38	104	1127219200	74	38697
2026-01-22 11:42:23.70	346.15	7.84	-51.8	-72.1	3.8	7.45e-01	0	38	104	1127219200	74	38701
2026-01-22 11:42:24.69	346.13	7.76	-51.5	-72.0	3.8	7.45e-01	0	38	104	1127219200	74	38648
2026-01-22 11:42:25.68	346.12	7.67	-52.1	-72.1	3.8	7.44e-01	0	38	104	1127219200	74	38688
2026-01-22 11:42:26.67	346.11	7.59	-51.1	-72.0	3.8	7.47e-01	0	38	104	1127219200	74	38666
2026-01-22 11:42:27.67	346.10	7.51	-51.8	-72.1	3.8	7.46e-01	0	38	104	1127219200	74	38735
2026-01-22 11:42:28.66	346.09	7.43	-52.0	-72.0	3.8	7.48e-01	0	38	104	1127219200	74	38685
2026-01-22 11:42:29.65	346.08	7.35	-51.8	-72.1	3.8	7.47e-01	0	38	104	1127219200	74	38711
2026-01-22 11:42:30.65	346.07	7.26	-52.1	-72.1	3.8	7.47e-01	0	38	104	1127219200	74	38704
2026-01-22 11:42:31.64	346.06	7.18	-52.2	-72.0	3.8	7.45e-01	0	38	104	1127219200	75	36433
2026-01-22 11:42:32.63	346.05	7.10	-52.3	-72.0	3.8	7.42e-01	0	38	104	1127219200	75	36413
2026-01-22 11:42:33.63	346.03	7.02	-51.7	-72.0	3.8	7.48e-01	0	38	104	1127219200	75	36472
2026-01-22 11:42:34.62	346.02	6.94	-52.0	-72.0	3.8	7.45e-01	0	38	104	1127219200	75	36395
2026-01-22 11:42:35.62	346.01	6.86	-51.9	-72.0	3.8	7.48e-01	0	38	104	1127219200	75	36376
2026-01-22 11:42:36.61	346.00	6.78	-51.9	-72.0	3.8	7.45e-01	0	38	104	1127219200	75	36400
2026-01-22 11:42:37.60	345.99	6.70	-51.5	-72.0	3.8	7.47e-01	0	38	104	1127219200	74	38411
2026-01-22 11:42:38.60	345.98	6.62	-51.6	-72.0	3.8	7.43e-01	0	38	104	1127219200	74	38384
2026-01-22 11:42:39.59	345.97	6.54	-51.6	-72.0	3.8	7.46e-01	0	38	104	1127219200	74	38336
2026-01-22 11:42:40.58	345.96	6.46	-51.6	-72.0	3.8	7.41e-01	0	38	104	1127219200	74	38385
2026-01-22 11:42:41.58	345.95	6.38	-51.6	-72.0	3.8	7.46e-01	0	38	104	1127219200	74	38289
2026-01-22 11:42:42.57	345.94	6.31	-51.6	-72.0	3.8	7.47e-01	0	38	104	1127219200	74	38314
2026-01-22 11:42:43.56	345.93	6.23	-51.6	-72.0	3.8	7.44e-01	0	38	104	1127219200	74	38326
2026-01-22 11:42:44.56	345.92	6.15	-51.6	-72.0	3.8	7.43e-01	0	38	104	1127219200	74	38282
2026-01-22 11:42:45.55	345.91	6.07	-51.6	-72.0	3.8	7.45e-01	0	38	104	1127219200	74	38269
2026-01-22 11:42:46.54	345.90	6.00	-51.6	-72.0	3.8	7.44e-01	0	38	104	1127219200	74	38283
2026-01-22 11:42:47.54	345.89	5.92	-51.6	-72.0	3.8	7.44e-01	0	38	104	1127219200	74	38295
2026-01-22 11:42:48.53	345.89	5.84	-51.6	-72.0	3.8	7.46e-01	0	38	104	1127219200	74	38273
2026-01-22 11:42:49.52	345.88	5.77	-51.6	-72.0	3.8	7.44e-01	0	38	104	1127219200	74	38250
2026-01-22 11:42:50.52	345.87	5.69	-51.6	-72.0	3.8	7.46e-01	0	38	104	1127219200	74	38293
2026-01-22 11:42:51.51	345.86	5.61	-51.6	-72.0	3.8	7.46e-01	0	38	104	1127219200	74	38301
2026-01-22 11:42:52.50	345.85	5.54	-51.6	-72.0	3.8	7.46e-01	0	38	104	1127219200	74	38256
2026-01-22 11:42:53.50	345.84	5.46	-51.6	-72.0	3.8	7.48e-01	0	38	104	1127219200	74	38322
2026-01-22 11:42:54.49	345.83	5.39	-51.6	-71.9	3.8	7.46e-01	0	38	104	1127219200	74	38192
2026-01-22 11:42:55.48	345.82	5.31	-51.6	-71.9	3.8	7.50e-01	0	38	104	1127219200	74	38202
2026-01-22 11:42:56.48	345.81	5.24	-51.5	-71.9	3.8	7.49e-01	0	38	104	1127219200	74	38170
2026-01-22 11:42:57.47	345.80	5.16	-51.6	-71.9	3.8	7.46e-01	0	38	104	1127219200	74	38130
2026-01-22 11:42:58.46	345.80	5.09	-51.6	-71.9	3.8	7.48e-01	0	38	104	1127219200	74	38079
2026-01-22 11:42:59.46	345.79	5.01	-51.6	-71.9	3.8	7.48e-01	0	38	104	1127219200	74	38201
2026-01-22 11:43:00.45	345.78	4.94	-51.6	-71.9	3.8	7.48e-01	0	38	104	1127219200	74	38172

#Closed at: 2026-01-22 11:43:01
#Recorded file [1127 MB]: D:/Data/31040_260122_143138.dat