passes_logs/2026/01/22/T1/T1__20260122_103456_SUOMI_NPP_rec.log

#Pass ID: 20260122_103456_SUOMI NPP
#Satellite: SUOMI NPP
#Configuration: NPP
#almurnet v.1.7.20251203
#Start time: 2026-01-22 10:34:56

#Version: 2.0.20230620
#Station: T1
#Location: 37.570604 lon 55.790049 lat
#TLE: 1 37849U 11061A   26021.51818991  .00000201  00000+0  11636-3 0  9995
#TLE: 2 37849  98.7819 323.5108 0002300  52.3548 307.7836 14.19527793737637

#Time	Az	El	Level	Level2	SNR	BER	BlckErr	Temp	State	Recorded	gain1	gain2
2026-01-22 10:34:56.26	178.52	4.98	-49.5	-65.4	3.8	1.49e+00	0	35	0	0	71	21277
2026-01-22 10:34:57.25	178.55	5.05	-47.8	-64.7	3.8	1.49e+00	0	35	104	0	67	24812
2026-01-22 10:34:58.24	178.59	5.12	-47.7	-64.6	3.8	1.49e+00	0	35	104	0	67	24583
2026-01-22 10:34:59.24	178.62	5.19	-47.6	-64.5	3.8	1.49e+00	0	35	104	0	67	24393
2026-01-22 10:35:00.23	178.65	5.26	-47.6	-64.4	3.8	1.49e+00	0	35	104	0	67	24116
2026-01-22 10:35:01.22	178.69	5.33	-47.7	-64.4	3.8	1.49e+00	0	35	104	0	67	24035
2026-01-22 10:35:02.21	178.72	5.40	-47.6	-64.3	3.8	1.49e+00	0	35	104	0	67	23723
2026-01-22 10:35:03.21	178.76	5.48	-47.6	-64.3	3.8	1.49e+00	0	35	104	0	67	23615
2026-01-22 10:35:04.20	178.79	5.55	-47.7	-64.3	3.8	1.49e+00	0	35	104	0	67	23646
2026-01-22 10:35:05.19	178.83	5.62	-47.7	-64.3	3.8	1.49e+00	0	35	104	0	67	23718
2026-01-22 10:35:06.19	178.86	5.69	-47.6	-64.3	3.8	1.49e+00	0	35	104	0	67	23722
2026-01-22 10:35:07.18	178.90	5.76	-47.7	-64.4	3.8	1.49e+00	0	35	104	0	67	23932
2026-01-22 10:35:08.17	178.93	5.83	-47.7	-64.5	3.8	1.49e+00	0	35	104	0	67	24202
2026-01-22 10:35:09.17	178.97	5.90	-47.7	-64.5	3.8	1.49e+00	0	35	104	0	67	24357
2026-01-22 10:35:10.16	179.00	5.98	-47.6	-64.5	3.8	1.49e+00	0	35	104	0	67	24320
2026-01-22 10:35:11.15	179.04	6.05	-47.6	-64.6	3.8	1.49e+00	0	36	104	0	67	24485
2026-01-22 10:35:12.15	179.07	6.12	-47.7	-64.6	3.8	1.49e+00	0	36	104	0	67	24538
2026-01-22 10:35:13.14	179.11	6.19	-47.7	-64.6	3.8	1.49e+00	0	36	104	0	67	24602
2026-01-22 10:35:14.13	179.14	6.27	-47.7	-64.6	3.8	1.49e+00	0	36	104	0	67	24453
2026-01-22 10:35:15.12	179.18	6.34	-47.6	-64.4	3.8	1.49e+00	0	36	104	0	67	24035
2026-01-22 10:35:16.12	179.22	6.41	-47.6	-64.3	3.8	1.49e+00	0	36	104	0	67	23637
2026-01-22 10:35:17.11	179.25	6.49	-47.7	-64.0	3.8	1.49e+00	0	36	104	0	67	22985
2026-01-22 10:35:18.10	179.29	6.56	-47.7	-63.7	3.8	1.49e+00	0	36	104	0	67	22201
2026-01-22 10:35:19.10	179.33	6.63	-47.6	-63.3	3.8	1.49e+00	0	36	104	0	67	21245
2026-01-22 10:35:20.09	179.36	6.71	-47.6	-63.1	3.8	1.49e+00	0	36	104	0	67	20541
2026-01-22 10:35:21.08	179.40	6.78	-47.6	-62.9	3.8	1.49e+00	0	36	104	0	67	20200
2026-01-22 10:35:22.08	179.44	6.86	-47.7	-62.8	3.8	1.49e+00	0	36	104	0	67	20052
2026-01-22 10:35:23.07	179.48	6.93	-47.6	-63.1	3.8	1.49e+00	0	36	104	0	67	20639
2026-01-22 10:35:24.06	179.52	7.00	-47.6	-63.6	3.8	1.49e+00	0	36	104	0	67	21839
2026-01-22 10:35:25.06	179.55	7.08	-47.7	-64.0	3.8	1.49e+00	0	36	104	0	67	22866
2026-01-22 10:35:26.05	179.59	7.16	-47.6	-64.2	3.8	1.49e+00	0	36	104	0	67	23497
2026-01-22 10:35:27.04	179.63	7.23	-47.6	-63.6	3.8	1.49e+00	0	36	104	0	67	21785
2026-01-22 10:35:28.03	179.67	7.31	-47.6	-61.4	3.9	1.49e+00	0	36	104	0	67	17027
2026-01-22 10:35:29.03	179.71	7.38	-47.4	-59.0	5.1	1.16e+00	0	36	0	0	66	13610
2026-01-22 10:35:30.02	179.75	7.46	-47.1	-56.8	6.7	2.97e-01	0	36	0	2097152	66	10561
2026-01-22 10:35:31.02	179.79	7.54	-46.7	-54.6	8.7	8.04e-02	0	36	0	4194304	65	8746
2026-01-22 10:35:32.01	179.82	7.61	-46.3	-53.0	10.4	1.49e-02	0	36	0	6291456	64	7665
2026-01-22 10:35:33.00	179.86	7.69	-45.9	-51.8	11.8	1.60e-03	0	36	0	8388608	63	7070
2026-01-22 10:35:34.00	179.90	7.77	-45.6	-50.9	12.7	1.62e-04	0	36	0	9437184	63	6367
2026-01-22 10:35:34.99	179.94	7.84	-45.1	-49.7	13.9	9.10e-06	0	36	0	11534336	62	5911
2026-01-22 10:35:35.98	179.98	7.92	-44.7	-49.1	14.4	2.20e-06	0	36	0	13631488	61	5840
2026-01-22 10:35:36.98	180.02	8.00	-44.6	-48.8	14.7	0.00e+00	0	36	0	15728640	61	5633
2026-01-22 10:35:37.97	180.06	8.08	-44.5	-48.5	15.0	7.00e-07	0	36	0	16777216	61	5449
2026-01-22 10:35:38.96	180.10	8.15	-44.4	-48.5	15.1	0.00e+00	0	36	0	18874368	60	5757
2026-01-22 10:35:39.95	180.15	8.23	-44.5	-48.8	14.8	0.00e+00	0	36	0	20971520	60	5925
2026-01-22 10:35:40.95	180.19	8.31	-44.7	-49.1	14.5	7.00e-07	0	36	0	23068672	60	6147
2026-01-22 10:35:41.94	180.23	8.39	-45.0	-49.6	14.1	7.00e-07	0	36	0	25165824	60	6505
2026-01-22 10:35:42.94	180.27	8.47	-45.3	-50.3	13.3	5.30e-06	0	36	0	26214400	61	6670
2026-01-22 10:35:43.93	180.31	8.55	-45.8	-51.4	12.3	1.32e-04	0	36	0	28311552	62	7129
2026-01-22 10:35:44.92	180.35	8.63	-46.2	-52.4	11.2	5.61e-04	0	37	0	30408704	62	8025
2026-01-22 10:35:45.92	180.40	8.71	-46.5	-53.4	10.1	3.27e-03	0	36	0	32505856	63	8540
2026-01-22 10:35:46.91	180.44	8.79	-46.8	-54.9	8.5	1.63e-02	0	37	0	33554432	64	9543
2026-01-22 10:35:47.90	180.48	8.87	-47.0	-56.2	7.3	9.06e-02	0	37	0	35651584	64	11044
2026-01-22 10:35:48.90	180.52	8.95	-47.2	-57.6	6.1	2.41e-01	0	36	0	37748736	65	12336
2026-01-22 10:35:49.89	180.57	9.03	-47.4	-58.9	5.2	4.68e-01	0	36	0	39845888	65	14355
2026-01-22 10:35:50.88	180.61	9.11	-47.4	-57.5	6.1	5.70e-01	0	37	0	41943040	65	12179
2026-01-22 10:35:51.88	180.65	9.19	-47.4	-60.2	4.5	7.53e-01	0	37	0	42991616	65	16585
2026-01-22 10:35:52.87	180.70	9.27	-47.2	-57.2	6.4	7.07e-01	0	37	0	45088768	65	11722
2026-01-22 10:35:53.86	180.74	9.36	-45.4	-50.2	13.4	1.31e-01	0	37	0	47185920	62	6265
2026-01-22 10:35:54.86	180.79	9.44	-47.5	-63.6	3.8	8.69e-01	0	37	104	48234496	65	24655
2026-01-22 10:35:55.85	180.83	9.52	-46.4	-52.9	10.1	1.46e+00	0	37	104	48234496	64	7619
2026-01-22 10:35:56.84	180.87	9.60	-45.9	-51.0	12.6	4.08e-04	0	37	0	49283072	63	6465
2026-01-22 10:35:57.84	180.92	9.69	-45.4	-49.7	13.9	2.05e-05	0	37	0	51380224	62	5909
2026-01-22 10:35:58.88	180.97	9.77	-45.1	-49.0	14.7	7.00e-07	0	37	0	53477376	62	5434
2026-01-22 10:35:59.89	181.01	9.86	-45.3	-49.2	14.5	0.00e+00	0	37	0	54525952	61	5868
2026-01-22 10:36:00.93	181.06	9.95	-44.8	-48.3	15.4	0.00e+00	0	37	0	56623104	61	5287
2026-01-22 10:36:01.94	181.11	10.03	-44.4	-47.6	16.1	0.00e+00	0	37	0	58720256	60	5175
2026-01-22 10:36:02.95	181.15	10.12	-44.3	-47.4	16.3	0.00e+00	0	37	0	60817408	60	5058
2026-01-22 10:36:03.96	181.20	10.20	-44.1	-47.0	16.6	0.00e+00	0	37	0	62914560	60	4865
2026-01-22 10:36:04.96	181.25	10.29	-44.0	-46.9	16.8	0.00e+00	0	37	0	63963136	59	5066
2026-01-22 10:36:05.96	181.30	10.37	-44.1	-47.1	16.5	0.00e+00	0	37	0	66060288	59	5194
2026-01-22 10:36:06.95	181.34	10.46	-43.9	-46.8	16.8	0.00e+00	0	37	0	68157440	59	5035
2026-01-22 10:36:08.04	181.39	10.55	-44.0	-46.9	16.7	0.00e+00	0	37	0	70254592	59	5063
2026-01-22 10:36:08.89	181.43	10.63	-43.8	-46.7	16.9	0.00e+00	0	37	0	72351744	59	4953
2026-01-22 10:36:10.03	181.49	10.73	-43.8	-46.7	16.9	0.00e+00	0	37	0	74448896	59	4955
2026-01-22 10:36:10.89	181.53	10.80	-43.9	-46.8	16.8	0.00e+00	0	37	0	75497472	59	5001
2026-01-22 10:36:12.03	181.59	10.90	-43.7	-46.6	17.0	0.00e+00	0	37	0	77594624	59	4886
2026-01-22 10:36:12.88	181.63	10.97	-43.6	-46.4	17.2	0.00e+00	0	37	0	79691776	59	4768
2026-01-22 10:36:14.02	181.69	11.07	-43.5	-46.3	17.3	0.00e+00	0	37	0	81788928	59	4720
2026-01-22 10:36:14.87	181.73	11.15	-43.6	-46.4	17.2	0.00e+00	0	37	0	82837504	59	4789
2026-01-22 10:36:16.00	181.78	11.25	-43.5	-46.3	17.3	0.00e+00	0	37	0	84934656	58	5013
2026-01-22 10:36:16.86	181.83	11.33	-43.5	-46.2	17.4	0.00e+00	0	37	0	87031808	58	4981
2026-01-22 10:36:17.99	181.88	11.43	-43.4	-46.1	17.4	0.00e+00	0	37	0	89128960	58	4918
2026-01-22 10:36:18.85	181.93	11.50	-43.3	-46.0	17.6	0.00e+00	0	37	0	90177536	58	4822
2026-01-22 10:36:19.98	181.99	11.61	-43.3	-46.1	17.6	0.00e+00	0	37	0	92274688	58	4876
2026-01-22 10:36:20.84	182.03	11.68	-43.3	-46.1	17.6	0.00e+00	0	37	0	94371840	58	4896
2026-01-22 10:36:21.98	182.09	11.79	-43.3	-46.1	17.5	0.00e+00	0	37	0	96468992	58	4897
2026-01-22 10:36:22.83	182.13	11.86	-43.4	-46.2	17.5	0.00e+00	0	37	0	97517568	58	4947
2026-01-22 10:36:24.11	182.20	11.98	-43.2	-46.0	17.7	0.00e+00	0	37	0	100663296	58	4829
2026-01-22 10:36:24.84	182.24	12.05	-43.4	-46.2	17.5	0.00e+00	0	37	0	101711872	58	4940
2026-01-22 10:36:26.11	182.31	12.16	-43.2	-45.9	17.7	0.00e+00	0	37	0	103809024	58	4766
2026-01-22 10:36:26.82	182.34	12.23	-43.0	-45.7	18.0	0.00e+00	0	37	0	105906176	58	4661
2026-01-22 10:36:28.10	182.41	12.35	-43.2	-45.9	17.7	0.00e+00	0	37	0	108003328	58	4803
2026-01-22 10:36:28.89	182.45	12.42	-43.2	-45.9	17.8	0.00e+00	0	37	0	109051904	58	4785
2026-01-22 10:36:30.10	182.52	12.53	-43.3	-46.0	17.7	0.00e+00	0	37	0	111149056	58	4830
2026-01-22 10:36:30.96	182.57	12.61	-43.3	-46.0	17.6	0.00e+00	0	37	0	113246208	58	4861
2026-01-22 10:36:32.09	182.63	12.72	-43.2	-45.9	17.8	0.00e+00	0	37	0	115343360	58	4769
2026-01-22 10:36:33.14	182.69	12.82	-43.2	-45.9	17.7	0.00e+00	0	37	0	117440512	58	4771
2026-01-22 10:36:34.13	182.74	12.91	-43.3	-46.0	17.7	0.00e+00	0	37	0	119537664	58	4834
2026-01-22 10:36:35.13	182.80	13.01	-43.1	-45.7	17.9	0.00e+00	0	37	0	120586240	58	4676
2026-01-22 10:36:36.12	182.85	13.10	-43.2	-45.9	17.8	0.00e+00	0	37	0	122683392	58	4774
2026-01-22 10:36:37.12	182.91	13.20	-43.1	-45.8	17.8	0.00e+00	0	37	0	124780544	58	4717
2026-01-22 10:36:38.11	182.97	13.29	-43.2	-45.9	17.8	0.00e+00	0	37	0	126877696	58	4767
2026-01-22 10:36:39.11	183.02	13.39	-43.0	-45.6	18.0	0.00e+00	0	37	0	128974848	57	4877
2026-01-22 10:36:40.10	183.08	13.48	-43.0	-45.6	18.0	0.00e+00	0	37	0	130023424	57	4899
2026-01-22 10:36:41.10	183.14	13.58	-43.1	-45.8	17.9	0.00e+00	0	37	0	132120576	57	4985
2026-01-22 10:36:42.09	183.20	13.68	-43.1	-45.8	17.9	0.00e+00	0	37	0	134217728	57	4988
2026-01-22 10:36:43.09	183.25	13.77	-43.0	-45.6	18.1	0.00e+00	0	37	0	136314880	57	4885
2026-01-22 10:36:44.08	183.31	13.87	-43.2	-45.8	17.9	0.00e+00	0	37	0	137363456	57	5014
2026-01-22 10:36:45.08	183.37	13.97	-43.0	-45.5	18.1	0.00e+00	0	37	0	139460608	57	4861
2026-01-22 10:36:46.07	183.43	14.07	-43.0	-45.6	18.1	0.00e+00	0	37	0	141557760	57	4893
2026-01-22 10:36:47.16	183.50	14.18	-42.9	-45.5	18.1	0.00e+00	0	37	0	143654912	57	4829
2026-01-22 10:36:48.04	183.55	14.26	-43.2	-45.8	17.9	0.00e+00	0	37	0	145752064	57	5015
2026-01-22 10:36:49.18	183.62	14.38	-43.0	-45.6	18.1	0.00e+00	0	37	0	147849216	57	4875
2026-01-22 10:36:50.03	183.67	14.46	-42.9	-45.5	18.1	0.00e+00	0	37	0	148897792	57	4851
2026-01-22 10:36:51.17	183.74	14.58	-43.0	-45.7	18.0	0.00e+00	0	37	0	150994944	57	4928
2026-01-22 10:36:52.02	183.79	14.66	-42.9	-45.4	18.2	0.00e+00	0	37	0	153092096	57	4813
2026-01-22 10:36:53.16	183.87	14.78	-43.0	-45.5	18.1	0.00e+00	0	37	0	155189248	57	4860
2026-01-22 10:36:54.02	183.92	14.87	-43.0	-45.6	18.1	0.00e+00	0	37	0	156237824	57	4908
2026-01-22 10:36:55.15	183.99	14.98	-43.1	-45.7	18.0	0.00e+00	0	37	0	158334976	57	4972
2026-01-22 10:36:56.01	184.05	15.07	-43.3	-45.9	17.8	0.00e+00	0	37	0	160432128	57	5093
2026-01-22 10:36:57.15	184.12	15.19	-43.3	-46.0	17.8	0.00e+00	0	37	0	162529280	57	5119
2026-01-22 10:36:58.33	184.20	15.31	-43.4	-46.1	17.6	0.00e+00	0	37	0	164626432	57	5199
2026-01-22 10:36:59.18	184.25	15.40	-43.5	-46.1	17.6	0.00e+00	0	37	0	165675008	57	5206
2026-01-22 10:37:00.32	184.33	15.52	-43.6	-46.3	17.4	0.00e+00	0	37	0	168820736	57	5331
2026-01-22 10:37:01.17	184.38	15.61	-43.5	-46.2	17.4	0.00e+00	0	37	0	169869312	57	5225
2026-01-22 10:37:02.31	184.46	15.73	-43.7	-46.4	17.3	0.00e+00	0	37	0	171966464	58	5093
2026-01-22 10:37:03.17	184.51	15.82	-43.7	-46.4	17.4	0.00e+00	0	37	0	174063616	58	5048
2026-01-22 10:37:04.30	184.59	15.94	-43.6	-46.3	17.4	0.00e+00	0	37	0	176160768	58	5015
2026-01-22 10:37:05.16	184.65	16.03	-43.7	-46.4	17.3	0.00e+00	0	37	0	177209344	58	5089
2026-01-22 10:37:06.31	184.73	16.15	-43.4	-46.1	17.7	0.00e+00	0	37	0	179306496	58	4891
2026-01-22 10:37:07.16	184.79	16.24	-43.4	-46.0	17.7	0.00e+00	0	37	0	181403648	58	4840
2026-01-22 10:37:08.36	184.87	16.37	-43.4	-46.1	17.6	0.00e+00	0	37	0	183500800	58	4887
2026-01-22 10:37:09.22	184.93	16.46	-43.3	-45.8	17.9	0.00e+00	0	37	0	184549376	58	4757
2026-01-22 10:37:10.36	185.01	16.59	-43.4	-46.0	17.7	0.00e+00	0	37	0	186646528	58	4866
2026-01-22 10:37:11.21	185.07	16.68	-43.3	-45.8	17.9	0.00e+00	0	37	0	188743680	58	4759
2026-01-22 10:37:12.34	185.15	16.81	-43.3	-45.9	17.8	0.00e+00	0	37	0	190840832	58	4810
2026-01-22 10:37:13.20	185.21	16.90	-43.4	-46.1	17.7	0.00e+00	0	37	0	192937984	58	4873
2026-01-22 10:37:14.33	185.29	17.03	-43.4	-46.1	17.7	0.00e+00	0	37	0	195035136	58	4874
2026-01-22 10:37:15.19	185.35	17.12	-43.3	-46.0	17.7	0.00e+00	0	37	0	196083712	58	4863
2026-01-22 10:37:16.32	185.44	17.25	-43.4	-46.1	17.7	0.00e+00	0	37	0	198180864	58	4892
2026-01-22 10:37:17.18	185.50	17.34	-43.4	-46.1	17.7	0.00e+00	0	37	0	200278016	58	4884
2026-01-22 10:37:18.32	185.58	17.47	-43.5	-46.2	17.5	0.00e+00	0	37	0	202375168	58	4980
2026-01-22 10:37:19.17	185.65	17.57	-43.7	-46.5	17.4	0.00e+00	0	37	0	203423744	58	5103
2026-01-22 10:37:20.31	185.73	17.70	-43.6	-46.4	17.4	0.00e+00	0	37	0	205520896	58	5042
2026-01-22 10:37:21.16	185.80	17.79	-43.5	-46.2	17.6	0.00e+00	0	37	0	207618048	58	4957
2026-01-22 10:37:22.30	185.88	17.92	-43.6	-46.4	17.4	0.00e+00	0	37	0	209715200	58	5047
2026-01-22 10:37:23.15	185.95	18.02	-43.5	-46.2	17.6	0.00e+00	0	37	0	210763776	58	4956
2026-01-22 10:37:24.29	186.04	18.15	-43.3	-45.9	17.8	0.00e+00	0	37	0	212860928	58	4796
2026-01-22 10:37:25.14	186.10	18.25	-43.4	-46.1	17.6	0.00e+00	0	37	0	214958080	58	4912
2026-01-22 10:37:26.28	186.19	18.38	-43.3	-46.0	17.8	0.00e+00	0	37	0	217055232	58	4833
2026-01-22 10:37:27.13	186.26	18.48	-43.2	-45.7	18.0	0.00e+00	0	37	0	218103808	58	4696
2026-01-22 10:37:28.27	186.35	18.62	-43.3	-45.9	17.8	0.00e+00	0	37	0	221249536	58	4807
2026-01-22 10:37:29.19	186.43	18.72	-43.1	-45.7	18.0	0.00e+00	0	38	0	222298112	58	4677
2026-01-22 10:37:30.37	186.52	18.86	-43.1	-45.7	18.0	0.00e+00	0	37	0	224395264	58	4686
2026-01-22 10:37:31.22	186.59	18.96	-43.1	-45.6	18.1	0.00e+00	0	38	0	226492416	58	4642
2026-01-22 10:37:32.36	186.68	19.10	-43.2	-45.7	18.0	0.00e+00	0	37	0	228589568	58	4693
2026-01-22 10:37:33.21	186.75	19.20	-43.0	-45.5	18.2	0.00e+00	0	37	0	229638144	58	4569
2026-01-22 10:37:34.35	186.85	19.34	-43.0	-45.5	18.2	0.00e+00	0	37	0	231735296	58	4591
2026-01-22 10:37:35.20	186.92	19.44	-43.0	-45.5	18.2	0.00e+00	0	38	0	233832448	57	4826
2026-01-22 10:37:36.34	187.02	19.58	-42.9	-45.4	18.3	0.00e+00	0	37	0	235929600	57	4786
2026-01-22 10:37:37.19	187.09	19.68	-42.8	-45.3	18.3	0.00e+00	0	38	0	236978176	57	4740
2026-01-22 10:37:38.33	187.19	19.82	-42.6	-45.0	18.7	0.00e+00	0	37	0	239075328	57	4578
2026-01-22 10:37:39.18	187.26	19.93	-42.5	-44.9	18.7	0.00e+00	0	37	0	241172480	57	4528
2026-01-22 10:37:40.32	187.36	20.07	-42.4	-44.7	18.9	0.00e+00	0	37	0	243269632	56	4697
2026-01-22 10:37:41.17	187.44	20.18	-42.1	-44.4	19.2	0.00e+00	0	38	0	245366784	56	4514
2026-01-22 10:37:42.31	187.54	20.32	-41.8	-44.1	19.3	0.00e+00	0	37	0	247463936	55	4623
2026-01-22 10:37:43.16	187.61	20.42	-41.7	-43.9	19.5	0.00e+00	0	37	0	248512512	55	4544
2026-01-22 10:37:44.41	187.72	20.58	-41.5	-43.7	19.7	0.00e+00	0	37	0	250609664	54	4653
2026-01-22 10:37:45.26	187.80	20.69	-41.6	-43.7	19.7	0.00e+00	0	37	0	252706816	54	4697
2026-01-22 10:37:46.40	187.91	20.83	-41.5	-43.6	19.6	0.00e+00	0	37	0	254803968	54	4648
2026-01-22 10:37:47.25	187.98	20.94	-41.5	-43.7	19.6	0.00e+00	0	37	0	255852544	54	4661
2026-01-22 10:37:48.51	188.10	21.10	-41.5	-43.7	19.7	0.00e+00	0	38	0	258998272	54	4662
2026-01-22 10:37:49.33	188.18	21.21	-41.6	-43.8	19.6	0.00e+00	0	37	0	260046848	54	4746
2026-01-22 10:37:50.47	188.29	21.36	-41.7	-43.8	19.6	0.00e+00	0	37	0	262144000	54	4757
2026-01-22 10:37:51.32	188.37	21.47	-41.8	-44.0	19.5	0.00e+00	0	38	0	264241152	54	4826
2026-01-22 10:37:52.45	188.48	21.61	-41.7	-43.9	19.5	0.00e+00	0	37	0	266338304	54	4778
2026-01-22 10:37:53.31	188.56	21.73	-41.6	-43.8	19.6	0.00e+00	0	37	0	267386880	54	4721
2026-01-22 10:37:54.44	188.67	21.88	-41.6	-43.8	19.6	0.00e+00	0	38	0	269484032	54	4756
2026-01-22 10:37:55.29	188.75	21.99	-41.8	-44.0	19.5	0.00e+00	0	37	0	271581184	54	4840
2026-01-22 10:37:56.43	188.87	22.14	-41.7	-44.0	19.5	0.00e+00	0	38	0	273678336	54	4818
2026-01-22 10:37:57.28	188.95	22.25	-41.8	-44.1	19.4	0.00e+00	0	38	0	274726912	54	4887
2026-01-22 10:37:58.42	189.07	22.41	-41.8	-44.1	19.4	0.00e+00	0	37	0	276824064	54	4899
2026-01-22 10:37:59.28	189.15	22.52	-41.9	-44.1	19.4	0.00e+00	0	37	0	278921216	54	4911
2026-01-22 10:38:00.41	189.27	22.68	-41.9	-44.2	19.4	0.00e+00	0	37	0	281018368	54	4933
2026-01-22 10:38:01.27	189.36	22.79	-41.8	-44.1	19.4	0.00e+00	0	38	0	283115520	54	4882
2026-01-22 10:38:02.40	189.48	22.95	-41.7	-44.0	19.5	0.00e+00	0	38	0	285212672	54	4827
2026-01-22 10:38:03.26	189.57	23.07	-41.9	-44.1	19.3	0.00e+00	0	38	0	286261248	54	4917
2026-01-22 10:38:04.40	189.69	23.22	-41.8	-44.1	19.4	0.00e+00	0	37	0	288358400	54	4875
2026-01-22 10:38:05.25	189.78	23.34	-41.7	-43.8	19.6	0.00e+00	0	37	0	290455552	54	4759
2026-01-22 10:38:06.38	189.90	23.50	-41.7	-43.8	19.6	0.00e+00	0	37	0	292552704	54	4756
2026-01-22 10:38:07.24	189.99	23.62	-41.6	-43.8	19.7	0.00e+00	0	38	0	293601280	54	4716
2026-01-22 10:38:08.37	190.12	23.78	-41.6	-43.8	19.7	0.00e+00	0	38	0	295698432	54	4724
2026-01-22 10:38:09.29	190.22	23.91	-41.7	-43.8	19.6	0.00e+00	0	37	0	297795584	54	4755
2026-01-22 10:38:10.46	190.35	24.07	-41.6	-43.7	19.7	0.00e+00	0	37	0	299892736	54	4703
2026-01-22 10:38:11.34	190.45	24.20	-41.7	-43.9	19.6	0.00e+00	0	37	0	301989888	54	4768
2026-01-22 10:38:12.48	190.58	24.36	-41.7	-43.9	19.5	0.00e+00	0	38	0	304087040	54	4784
2026-01-22 10:38:13.33	190.68	24.48	-41.5	-43.7	19.8	0.00e+00	0	37	0	305135616	54	4669
2026-01-22 10:38:14.47	190.81	24.65	-41.6	-43.8	19.6	0.00e+00	0	37	0	307232768	54	4740
2026-01-22 10:38:15.32	190.91	24.77	-41.4	-43.6	19.8	0.00e+00	0	37	0	309329920	54	4623
2026-01-22 10:38:16.46	191.04	24.94	-41.4	-43.5	19.9	0.00e+00	0	37	0	311427072	54	4572
2026-01-22 10:38:17.31	191.14	25.06	-41.4	-43.5	19.9	0.00e+00	0	38	0	312475648	54	4593
2026-01-22 10:38:18.45	191.28	25.23	-41.3	-43.4	20.0	0.00e+00	0	37	0	314572800	54	4525
2026-01-22 10:38:19.30	191.38	25.36	-41.2	-43.4	20.0	0.00e+00	0	38	0	316669952	54	4498
2026-01-22 10:38:20.43	191.52	25.53	-41.3	-43.4	20.0	0.00e+00	0	37	0	318767104	54	4531
2026-01-22 10:38:21.29	191.63	25.65	-41.4	-43.6	19.9	0.00e+00	0	37	0	319815680	54	4604
2026-01-22 10:38:22.42	191.77	25.82	-41.3	-43.4	20.0	0.00e+00	0	38	0	321912832	54	4506
2026-01-22 10:38:23.28	191.88	25.95	-41.5	-43.6	19.8	0.00e+00	0	38	0	324009984	54	4631
2026-01-22 10:38:24.41	192.02	26.13	-41.4	-43.5	19.9	0.00e+00	0	38	0	326107136	54	4581
2026-01-22 10:38:25.27	192.13	26.26	-41.5	-43.6	19.8	0.00e+00	0	37	0	327155712	54	4624
2026-01-22 10:38:26.53	192.29	26.45	-41.8	-44.0	19.5	0.00e+00	0	37	0	330301440	54	4815
2026-01-22 10:38:27.33	192.40	26.57	-41.4	-43.5	19.9	0.00e+00	0	37	0	331350016	54	4559
2026-01-22 10:38:28.47	192.55	26.75	-41.5	-43.7	19.8	0.00e+00	0	37	0	333447168	54	4668
2026-01-22 10:38:29.32	192.66	26.88	-41.2	-43.3	20.1	0.00e+00	0	37	0	335544320	54	4461
2026-01-22 10:38:30.46	192.81	27.06	-41.6	-43.7	19.7	0.00e+00	0	37	0	337641472	54	4677
2026-01-22 10:38:31.31	192.93	27.19	-41.6	-43.7	19.8	0.00e+00	0	38	0	338690048	54	4686
2026-01-22 10:38:32.45	193.08	27.37	-41.5	-43.6	19.8	0.00e+00	0	38	0	340787200	54	4651
2026-01-22 10:38:33.30	193.20	27.51	-41.8	-44.0	19.5	0.00e+00	0	37	0	342884352	54	4825
2026-01-22 10:38:34.45	193.36	27.69	-41.8	-43.9	19.6	0.00e+00	0	38	0	344981504	54	4807
2026-01-22 10:38:35.30	193.48	27.82	-41.9	-44.2	19.4	0.00e+00	0	38	0	346030080	54	4929
2026-01-22 10:38:36.44	193.64	28.01	-41.9	-44.1	19.4	0.00e+00	0	37	0	348127232	54	4907
2026-01-22 10:38:37.29	193.76	28.14	-42.2	-44.5	19.1	0.00e+00	0	38	0	350224384	55	4838
2026-01-22 10:38:38.43	193.93	28.33	-42.2	-44.5	19.1	0.00e+00	0	38	0	352321536	55	4837
2026-01-22 10:38:39.28	194.05	28.47	-42.3	-44.5	19.0	0.00e+00	0	37	0	353370112	55	4862
2026-01-22 10:38:40.51	194.24	28.67	-42.9	-45.2	18.7	0.00e+00	0	38	0	356515840	56	4952
2026-01-22 10:38:41.37	194.36	28.81	-42.7	-45.0	18.8	0.00e+00	0	38	0	357564416	56	4864
2026-01-22 10:38:42.50	194.53	28.99	-43.0	-45.3	18.5	0.00e+00	0	38	0	359661568	56	5022
2026-01-22 10:38:43.36	194.67	29.14	-42.9	-45.2	18.6	0.00e+00	0	37	0	361758720	56	4955
2026-01-22 10:38:44.62	194.86	29.35	-43.3	-45.7	18.2	0.00e+00	0	38	0	363855872	57	4965
2026-01-22 10:38:45.40	194.98	29.48	-43.3	-45.7	18.1	0.00e+00	0	37	0	364904448	57	4968
2026-01-22 10:38:46.67	195.18	29.69	-43.6	-46.2	17.7	0.00e+00	0	37	0	368050176	57	5234
2026-01-22 10:38:47.38	195.29	29.81	-43.8	-46.3	17.5	0.00e+00	0	38	0	369098752	58	5032
2026-01-22 10:38:48.66	195.50	30.03	-43.9	-46.5	17.5	0.00e+00	0	38	0	371195904	58	5134
2026-01-22 10:38:49.39	195.62	30.15	-43.9	-46.5	17.4	0.00e+00	0	38	0	373293056	59	4844
2026-01-22 10:38:50.67	195.83	30.37	-44.0	-46.7	17.3	0.00e+00	0	38	0	375390208	59	4945
2026-01-22 10:38:51.41	195.95	30.50	-44.2	-47.0	17.0	0.00e+00	0	37	0	376438784	59	5143
2026-01-22 10:38:52.69	196.16	30.72	-44.5	-47.3	16.7	0.00e+00	0	38	0	378535936	59	5328
2026-01-22 10:38:53.49	196.30	30.86	-44.7	-47.7	16.3	0.00e+00	0	38	0	380633088	60	5273
2026-01-22 10:38:54.63	196.49	31.06	-44.7	-47.6	16.5	0.00e+00	0	37	0	382730240	60	5174
2026-01-22 10:38:55.60	196.66	31.23	-44.7	-47.6	16.5	0.00e+00	0	38	0	384827392	60	5172
2026-01-22 10:38:56.77	196.86	31.43	-44.9	-47.9	16.2	0.00e+00	0	37	0	386924544	60	5350
2026-01-22 10:38:57.64	197.02	31.59	-44.7	-47.6	16.5	0.00e+00	0	38	0	387973120	60	5175
2026-01-22 10:38:58.93	197.25	31.82	-45.0	-48.0	16.1	0.00e+00	0	38	0	391118848	60	5433
2026-01-22 10:38:59.65	197.38	31.94	-45.0	-47.9	16.1	0.00e+00	0	38	0	392167424	60	5400
2026-01-22 10:39:01.16	197.65	32.22	-45.0	-48.1	16.0	0.00e+00	0	38	0	395313152	60	5472
2026-01-22 10:39:01.87	197.79	32.34	-44.9	-47.8	16.3	0.00e+00	0	38	0	396361728	60	5336
2026-01-22 10:39:03.15	198.02	32.57	-44.7	-47.7	16.4	0.00e+00	0	38	0	398458880	60	5222
2026-01-22 10:39:04.18	198.22	32.76	-44.3	-47.1	17.0	0.00e+00	0	38	0	400556032	60	4880
2026-01-22 10:39:05.46	198.46	33.00	-44.6	-47.5	16.7	0.00e+00	0	38	0	402653184	60	5105
2026-01-22 10:39:06.17	198.60	33.13	-44.3	-47.1	17.1	0.00e+00	0	38	0	404750336	60	4885
2026-01-22 10:39:07.84	198.93	33.43	-44.5	-47.3	16.8	0.00e+00	0	38	0	407896064	60	5015
2026-01-22 10:39:08.41	199.04	33.54	-44.5	-47.4	16.7	0.00e+00	0	38	0	408944640	60	5065
2026-01-22 10:39:10.12	199.39	33.86	-44.4	-47.2	16.9	0.00e+00	0	38	0	412090368	60	4937
2026-01-22 10:39:10.69	199.50	33.96	-44.2	-47.0	17.1	0.00e+00	0	38	0	413138944	60	4821
2026-01-22 10:39:12.39	199.86	34.28	-44.0	-46.6	17.4	0.00e+00	0	38	0	416284672	59	4893
2026-01-22 10:39:12.96	199.97	34.39	-43.9	-46.5	17.5	0.00e+00	0	38	0	417333248	59	4839
2026-01-22 10:39:14.65	200.33	34.71	-44.0	-46.6	17.4	0.00e+00	0	37	0	420478976	59	4909
2026-01-22 10:39:15.41	200.50	34.85	-44.0	-46.6	17.4	0.00e+00	0	38	0	421527552	59	4898
2026-01-22 10:39:16.69	200.77	35.10	-44.1	-46.8	17.2	0.00e+00	0	38	0	423624704	59	5007
2026-01-22 10:39:17.42	200.94	35.24	-43.9	-46.5	17.4	0.00e+00	0	38	0	425721856	59	4845
2026-01-22 10:39:18.69	201.22	35.48	-44.2	-46.9	17.1	0.00e+00	0	38	0	427819008	59	5062
2026-01-22 10:39:19.70	201.45	35.68	-44.2	-46.9	17.2	0.00e+00	0	38	0	429916160	59	5046
2026-01-22 10:39:20.98	201.74	35.93	-44.3	-47.0	17.0	0.00e+00	0	37	0	432013312	59	5154
2026-01-22 10:39:21.71	201.91	36.07	-44.4	-47.1	16.9	0.00e+00	0	37	0	433061888	59	5198
2026-01-22 10:39:22.99	202.21	36.32	-44.6	-47.4	16.6	0.00e+00	0	38	0	436207616	59	5381
2026-01-22 10:39:23.71	202.38	36.46	-44.4	-47.2	16.9	0.00e+00	0	38	0	437256192	59	5249
2026-01-22 10:39:25.00	202.69	36.71	-44.5	-47.3	16.7	0.00e+00	0	38	0	439353344	59	5328
2026-01-22 10:39:25.72	202.86	36.85	-44.6	-47.5	16.6	0.00e+00	0	38	0	441450496	60	5102
2026-01-22 10:39:27.00	203.17	37.11	-43.9	-46.5	17.5	0.00e+00	0	38	0	443547648	59	4829
2026-01-22 10:39:27.74	203.36	37.25	-43.7	-46.1	17.8	0.00e+00	0	38	0	444596224	59	4650
2026-01-22 10:39:29.02	203.68	37.51	-43.9	-46.4	17.5	0.00e+00	0	38	0	446693376	59	4805
2026-01-22 10:39:29.73	203.86	37.65	-44.1	-46.7	17.3	0.00e+00	0	38	0	448790528	59	4959
2026-01-22 10:39:31.07	204.21	37.92	-44.0	-46.6	17.5	0.00e+00	0	38	0	450887680	59	4882
2026-01-22 10:39:31.78	204.39	38.06	-44.5	-47.2	16.8	0.00e+00	0	38	0	451936256	59	5278
2026-01-22 10:39:33.12	204.74	38.33	-44.6	-47.5	16.6	0.00e+00	0	38	0	455081984	60	5143
2026-01-22 10:39:33.83	204.93	38.47	-44.6	-47.5	16.6	0.00e+00	0	38	0	456130560	60	5113
2026-01-22 10:39:35.11	205.28	38.73	-44.4	-47.2	16.8	0.00e+00	0	38	0	458227712	60	4979
2026-01-22 10:39:35.82	205.47	38.88	-44.6	-47.6	16.5	0.00e+00	0	38	0	460324864	60	5181
2026-01-22 10:39:37.26	205.87	39.17	-44.3	-47.1	17.0	0.00e+00	0	38	0	462422016	60	4902
2026-01-22 10:39:37.97	206.07	39.31	-44.4	-47.2	16.8	0.00e+00	0	38	0	463470592	60	4983
2026-01-22 10:39:39.26	206.44	39.58	-44.3	-47.1	17.0	0.00e+00	0	38	0	466616320	60	4909
2026-01-22 10:39:39.97	206.65	39.72	-43.9	-46.6	17.4	0.00e+00	0	38	0	467664896	59	4871
2026-01-22 10:39:41.25	207.02	39.98	-43.7	-46.3	17.7	0.00e+00	0	38	0	469762048	59	4729
2026-01-22 10:39:41.99	207.24	40.14	-43.2	-45.5	18.4	0.00e+00	0	38	0	471859200	58	4590
2026-01-22 10:39:43.27	207.62	40.40	-42.9	-45.2	18.7	0.00e+00	0	38	0	473956352	57	4658
2026-01-22 10:39:44.00	207.84	40.55	-43.0	-45.4	18.5	0.00e+00	0	38	0	475004928	57	4778
2026-01-22 10:39:45.28	208.23	40.81	-43.3	-45.8	18.2	0.00e+00	0	37	0	478150656	57	4988
2026-01-22 10:39:45.99	208.46	40.96	-43.5	-46.1	17.9	0.00e+00	0	38	0	479199232	57	5188
2026-01-22 10:39:47.27	208.86	41.23	-44.1	-46.8	17.2	0.00e+00	0	38	0	481296384	59	5041
2026-01-22 10:39:47.98	209.08	41.37	-44.1	-46.8	17.3	0.00e+00	0	38	0	482344960	59	5001
2026-01-22 10:39:49.26	209.50	41.64	-43.9	-46.6	17.5	0.00e+00	0	38	0	485490688	59	4889
2026-01-22 10:39:49.98	209.73	41.79	-43.8	-46.3	17.7	0.00e+00	0	37	0	486539264	59	4749
2026-01-22 10:39:51.26	210.16	42.05	-43.5	-46.0	18.1	0.00e+00	0	38	0	488636416	58	4826
2026-01-22 10:39:51.97	210.39	42.20	-43.8	-46.3	17.7	0.00e+00	0	38	0	489684992	58	5038
2026-01-22 10:39:53.27	210.83	42.47	-43.5	-46.0	18.0	0.00e+00	0	38	0	492830720	58	4847
2026-01-22 10:39:53.98	211.08	42.62	-43.8	-46.3	17.7	0.00e+00	0	38	0	493879296	58	5025
2026-01-22 10:39:55.25	211.52	42.88	-43.8	-46.3	17.7	0.00e+00	0	38	0	495976448	58	5028
2026-01-22 10:39:55.97	211.78	43.03	-44.0	-46.6	17.4	0.00e+00	0	37	0	498073600	58	5185
2026-01-22 10:39:57.24	212.23	43.30	-44.3	-46.9	17.1	0.00e+00	0	37	0	500170752	59	5096
2026-01-22 10:39:57.97	212.49	43.45	-44.4	-47.2	16.9	0.00e+00	0	37	0	501219328	59	5250
2026-01-22 10:39:59.25	212.96	43.71	-44.6	-47.4	16.7	0.00e+00	0	38	0	503316480	59	5367
2026-01-22 10:39:59.99	213.24	43.87	-44.8	-47.8	16.3	0.00e+00	0	38	0	505413632	60	5296
2026-01-22 10:40:01.27	213.72	44.13	-45.3	-48.4	15.7	0.00e+00	0	38	0	507510784	61	5394
2026-01-22 10:40:01.98	213.99	44.28	-45.3	-48.4	15.8	0.00e+00	0	38	0	508559360	61	5366
2026-01-22 10:40:03.26	214.48	44.54	-45.5	-48.8	15.3	0.00e+00	0	37	0	511705088	61	5623
2026-01-22 10:40:04.00	214.77	44.70	-45.6	-48.9	15.4	0.00e+00	0	38	0	512753664	61	5703
2026-01-22 10:40:05.28	215.28	44.96	-45.0	-48.0	16.1	0.00e+00	0	38	0	514850816	61	5121
2026-01-22 10:40:05.99	215.56	45.11	-44.9	-47.8	16.4	0.00e+00	0	38	0	516947968	61	5006
2026-01-22 10:40:07.26	216.08	45.37	-44.8	-47.6	16.5	0.00e+00	0	38	0	519045120	60	5188
2026-01-22 10:40:07.98	216.37	45.51	-45.1	-48.0	16.1	0.00e+00	0	38	0	520093696	60	5456
2026-01-22 10:40:09.25	216.90	45.77	-45.9	-49.4	14.8	7.00e-07	0	37	0	522190848	62	5691
2026-01-22 10:40:10.11	217.27	45.95	-46.3	-50.0	14.2	0.00e+00	0	38	0	524288000	63	5730
2026-01-22 10:40:11.24	217.75	46.18	-45.9	-49.4	14.8	7.00e-07	0	37	0	526385152	63	5347
2026-01-22 10:40:12.09	218.12	46.35	-45.7	-49.0	15.1	0.00e+00	0	38	0	527433728	63	5141
2026-01-22 10:40:13.23	218.62	46.58	-46.0	-49.4	14.9	0.00e+00	0	38	0	529530880	63	5392
2026-01-22 10:40:14.08	218.99	46.75	-45.7	-48.9	15.3	0.00e+00	0	38	0	531628032	63	5088
2026-01-22 10:40:15.22	219.51	46.97	-46.0	-49.4	14.9	0.00e+00	0	38	0	533725184	63	5394
2026-01-22 10:40:16.07	219.89	47.14	-46.1	-49.6	14.6	7.00e-07	0	38	0	535822336	63	5523
2026-01-22 10:40:17.21	220.42	47.37	-46.2	-49.8	14.4	7.00e-07	0	38	0	537919488	63	5656
2026-01-22 10:40:18.06	220.81	47.53	-46.2	-49.8	14.4	0.00e+00	0	38	0	538968064	63	5607
2026-01-22 10:40:19.20	221.35	47.76	-45.5	-48.7	15.5	7.00e-07	0	38	0	541065216	62	5243
2026-01-22 10:40:20.05	221.76	47.92	-45.1	-48.1	16.1	0.00e+00	0	38	0	543162368	62	4885
2026-01-22 10:40:21.19	222.31	48.14	-44.5	-47.3	16.8	0.00e+00	0	38	0	545259520	61	4714
2026-01-22 10:40:22.14	222.78	48.32	-44.5	-47.2	16.9	0.00e+00	0	38	0	546308096	60	4969
2026-01-22 10:40:23.13	223.27	48.51	-44.9	-47.9	16.3	0.00e+00	0	38	0	548405248	60	5351
2026-01-22 10:40:24.33	223.87	48.74	-45.3	-48.4	15.7	0.00e+00	0	38	0	550502400	61	5395
2026-01-22 10:40:25.21	224.32	48.90	-44.8	-47.7	16.4	0.00e+00	0	38	0	552599552	61	4970
2026-01-22 10:40:26.53	225.00	49.15	-44.3	-47.0	17.2	0.00e+00	0	38	0	554696704	60	4825
2026-01-22 10:40:27.24	225.37	49.28	-44.0	-46.6	17.5	0.00e+00	0	38	0	556793856	59	4877
2026-01-22 10:40:28.73	226.16	49.54	-44.7	-47.7	16.3	0.00e+00	0	38	0	558891008	60	5274
2026-01-22 10:40:29.44	226.54	49.67	-44.7	-47.7	16.5	0.00e+00	0	38	0	559939584	60	5271
2026-01-22 10:40:30.79	227.27	49.91	-44.7	-47.6	16.5	0.00e+00	0	38	0	563085312	60	5190
2026-01-22 10:40:31.50	227.66	50.04	-44.4	-47.1	17.0	0.00e+00	0	38	0	564133888	60	4922
2026-01-22 10:40:32.78	228.37	50.26	-43.6	-46.0	18.0	0.00e+00	0	37	0	566231040	59	4591
2026-01-22 10:40:33.49	228.77	50.38	-43.1	-45.5	18.5	0.00e+00	0	38	0	568328192	58	4559
2026-01-22 10:40:34.77	229.50	50.59	-43.0	-45.3	18.6	0.00e+00	0	38	0	570425344	57	4722
2026-01-22 10:40:35.50	229.92	50.71	-43.3	-45.8	18.2	0.00e+00	0	38	0	571473920	57	5005
2026-01-22 10:40:36.78	230.66	50.92	-43.2	-45.5	18.3	0.00e+00	0	38	0	574619648	57	4869
2026-01-22 10:40:37.49	231.07	51.04	-42.9	-45.3	18.7	0.00e+00	0	38	0	575668224	57	4719
2026-01-22 10:40:38.77	231.83	51.24	-42.2	-44.4	19.4	0.00e+00	0	37	0	577765376	56	4526
2026-01-22 10:40:39.53	232.29	51.36	-42.2	-44.3	19.4	0.00e+00	0	38	0	579862528	56	4493
2026-01-22 10:40:40.81	233.06	51.56	-42.1	-44.3	19.5	0.00e+00	0	38	0	581959680	56	4484
2026-01-22 10:40:41.58	233.53	51.67	-41.8	-43.9	19.7	0.00e+00	0	38	0	583008256	55	4535
2026-01-22 10:40:42.86	234.32	51.86	-42.0	-44.2	19.5	0.00e+00	0	37	0	585105408	55	4667
2026-01-22 10:40:43.65	234.82	51.97	-42.3	-44.5	19.2	0.00e+00	0	37	0	587202560	55	4853
2026-01-22 10:40:44.83	235.56	52.14	-42.4	-44.7	19.1	0.00e+00	0	37	0	589299712	55	4938
2026-01-22 10:40:45.81	236.18	52.28	-42.2	-44.4	19.3	0.00e+00	0	38	0	591396864	55	4783
2026-01-22 10:40:46.98	236.93	52.43	-42.3	-44.6	19.2	0.00e+00	0	38	0	593494016	55	4875
2026-01-22 10:40:47.83	237.48	52.54	-42.4	-44.8	19.0	0.00e+00	0	38	0	594542592	55	4997
2026-01-22 10:40:49.18	238.37	52.71	-42.3	-44.5	19.4	0.00e+00	0	38	0	597688320	56	4582
2026-01-22 10:40:49.89	238.84	52.80	-41.7	-43.8	19.8	0.00e+00	0	38	0	598736896	55	4484
2026-01-22 10:40:51.17	239.69	52.96	-42.4	-44.7	19.0	0.00e+00	0	38	0	600834048	55	4982
2026-01-22 10:40:51.91	240.18	53.04	-42.9	-45.3	18.7	0.00e+00	0	37	0	602931200	56	5008
2026-01-22 10:40:53.19	241.05	53.19	-43.2	-45.6	18.4	0.00e+00	0	38	0	605028352	57	4912
2026-01-22 10:40:53.90	241.53	53.26	-43.1	-45.5	18.5	0.00e+00	0	38	0	606076928	57	4815
2026-01-22 10:40:55.18	242.41	53.40	-43.2	-45.6	18.4	0.00e+00	0	38	0	608174080	57	4909
2026-01-22 10:40:55.89	242.90	53.47	-43.2	-45.6	18.4	0.00e+00	0	38	0	610271232	57	4919
2026-01-22 10:40:57.17	243.79	53.59	-42.3	-44.5	19.3	0.00e+00	0	38	0	612368384	56	4590
2026-01-22 10:40:57.88	244.29	53.66	-42.2	-44.4	19.5	0.00e+00	0	38	0	613416960	56	4524
2026-01-22 10:40:59.16	245.19	53.77	-42.8	-45.2	18.8	0.00e+00	0	38	0	616562688	56	4927
2026-01-22 10:40:59.89	245.71	53.84	-43.7	-46.2	17.9	0.00e+00	0	38	0	617611264	57	5264
2026-01-22 10:41:01.23	246.66	53.94	-43.9	-46.5	17.7	0.00e+00	0	38	0	619708416	59	4822
2026-01-22 10:41:01.94	247.17	54.00	-44.1	-46.7	17.3	0.00e+00	0	38	0	621805568	59	4962
2026-01-22 10:41:03.22	248.09	54.09	-44.0	-46.7	17.4	0.00e+00	0	38	0	623902720	59	4929
2026-01-22 10:41:03.94	248.61	54.14	-44.0	-46.6	17.4	0.00e+00	0	38	0	624951296	59	4916
2026-01-22 10:41:05.22	249.54	54.22	-43.3	-45.7	18.4	0.00e+00	0	38	0	627048448	58	4675
2026-01-22 10:41:05.93	250.06	54.26	-43.4	-45.8	18.2	0.00e+00	0	38	0	629145600	58	4719
2026-01-22 10:41:07.21	251.00	54.33	-43.5	-45.9	18.1	0.00e+00	0	38	0	631242752	57	5091
2026-01-22 10:41:07.92	251.52	54.36	-44.2	-46.9	17.2	0.00e+00	0	38	0	632291328	59	5051
2026-01-22 10:41:09.20	252.47	54.42	-44.8	-47.7	16.6	0.00e+00	0	38	0	635437056	60	5226
2026-01-22 10:41:09.91	252.99	54.45	-45.0	-48.0	16.2	0.00e+00	0	38	0	636485632	60	5426
2026-01-22 10:41:11.19	253.94	54.49	-43.6	-46.1	17.9	0.00e+00	0	38	0	638582784	59	4641
2026-01-22 10:41:11.92	254.48	54.51	-43.4	-45.8	18.2	0.00e+00	0	38	0	639631360	58	4752
2026-01-22 10:41:13.20	255.44	54.55	-43.5	-46.0	18.1	0.00e+00	0	38	0	642777088	58	4836
2026-01-22 10:41:13.91	255.96	54.56	-43.7	-46.2	17.8	0.00e+00	0	38	0	643825664	58	4976
2026-01-22 10:41:15.28	256.99	54.58	-43.9	-46.5	17.6	0.00e+00	0	38	0	645922816	58	5155
2026-01-22 10:41:15.99	257.52	54.59	-44.2	-46.9	17.2	0.00e+00	0	38	0	648019968	59	5069
2026-01-22 10:41:17.27	258.48	54.60	-44.6	-47.5	16.7	0.00e+00	0	38	0	650117120	60	5123
2026-01-22 10:41:17.98	259.01	54.60	-44.5	-47.4	16.7	0.00e+00	0	38	0	651165696	60	5086
2026-01-22 10:41:19.26	259.96	54.60	-43.4	-45.9	18.1	0.00e+00	0	38	0	653262848	58	4772
2026-01-22 10:41:19.97	260.50	54.59	-43.4	-45.9	18.2	0.00e+00	0	38	0	655360000	58	4782
2026-01-22 10:41:21.25	261.45	54.57	-43.7	-46.2	17.9	0.00e+00	0	38	0	657457152	58	4939
2026-01-22 10:41:21.99	262.00	54.56	-43.8	-46.4	17.8	0.00e+00	0	38	0	658505728	58	5043
2026-01-22 10:41:23.27	262.96	54.53	-42.9	-45.2	18.8	0.00e+00	0	38	0	661651456	57	4682
2026-01-22 10:41:24.01	263.51	54.51	-42.7	-45.0	19.0	0.00e+00	0	38	0	662700032	57	4562
2026-01-22 10:41:25.29	264.46	54.47	-43.1	-45.5	18.6	0.00e+00	0	38	0	664797184	57	4819
2026-01-22 10:41:26.00	264.98	54.45	-43.3	-45.6	18.4	0.00e+00	0	38	0	666894336	57	4916
2026-01-22 10:41:27.28	265.93	54.39	-43.2	-45.6	18.5	0.00e+00	0	38	0	668991488	57	4892
2026-01-22 10:41:28.01	266.47	54.36	-43.2	-45.6	18.4	0.00e+00	0	38	0	670040064	57	4893
2026-01-22 10:41:29.29	267.41	54.29	-43.0	-45.4	18.6	0.00e+00	0	38	0	672137216	57	4793
2026-01-22 10:41:30.00	267.93	54.25	-43.4	-45.8	18.2	0.00e+00	0	38	0	674234368	57	5030
2026-01-22 10:41:31.28	268.86	54.18	-43.0	-45.3	18.7	0.00e+00	0	38	0	676331520	57	4742
2026-01-22 10:41:31.99	269.37	54.13	-42.8	-45.0	19.0	0.00e+00	0	38	0	677380096	57	4572
2026-01-22 10:41:33.27	270.30	54.04	-42.4	-44.7	19.2	0.00e+00	0	38	0	680525824	56	4664
2026-01-22 10:41:34.01	270.83	53.99	-42.3	-44.5	19.3	0.00e+00	0	38	0	681574400	56	4593
2026-01-22 10:41:35.29	271.74	53.89	-42.7	-45.0	18.9	0.00e+00	0	38	0	683671552	56	4859
2026-01-22 10:41:36.00	272.25	53.83	-43.5	-46.0	18.1	0.00e+00	0	38	0	684720128	57	5148
2026-01-22 10:41:37.28	273.15	53.72	-43.8	-46.3	17.8	0.00e+00	0	38	0	687865856	58	5032
2026-01-22 10:41:37.99	273.65	53.66	-43.5	-46.0	18.0	0.00e+00	0	38	0	688914432	58	4834
2026-01-22 10:41:39.27	274.54	53.54	-44.0	-46.6	17.5	0.00e+00	0	38	0	691011584	58	5187
2026-01-22 10:41:39.98	275.03	53.47	-44.1	-46.7	17.5	0.00e+00	0	38	0	693108736	58	5228
2026-01-22 10:41:41.26	275.92	53.34	-44.0	-46.6	17.5	0.00e+00	0	38	0	695205888	59	4900
2026-01-22 10:41:41.97	276.40	53.26	-43.8	-46.3	17.7	0.00e+00	0	38	0	696254464	59	4735
2026-01-22 10:41:43.25	277.27	53.12	-44.3	-47.1	17.1	0.00e+00	0	38	0	698351616	59	5169
2026-01-22 10:41:43.99	277.77	53.04	-43.9	-46.6	17.6	0.00e+00	0	38	0	700448768	59	4879
2026-01-22 10:41:45.27	278.62	52.89	-43.1	-45.5	18.6	0.00e+00	0	38	0	702545920	58	4554
2026-01-22 10:41:45.99	279.10	52.80	-42.8	-45.1	18.9	0.00e+00	0	38	0	703594496	57	4613
2026-01-22 10:41:47.28	279.95	52.64	-43.5	-46.0	18.1	0.00e+00	0	38	0	706740224	57	5120
2026-01-22 10:41:48.01	280.42	52.55	-43.7	-46.2	17.9	0.00e+00	0	38	0	707788800	58	4981
2026-01-22 10:41:49.30	281.26	52.38	-43.6	-46.2	17.9	0.00e+00	0	38	0	709885952	58	4961
2026-01-22 10:41:50.01	281.71	52.29	-43.7	-46.3	17.9	0.00e+00	0	38	0	710934528	58	5004
2026-01-22 10:41:51.28	282.52	52.11	-43.4	-45.9	18.1	0.00e+00	0	38	0	714080256	58	4782
2026-01-22 10:41:52.00	282.97	52.01	-43.3	-45.8	18.3	0.00e+00	0	37	0	715128832	58	4707
2026-01-22 10:41:53.28	283.77	51.83	-42.4	-44.6	19.3	0.00e+00	0	38	0	717225984	56	4620
2026-01-22 10:41:54.00	284.21	51.72	-43.0	-45.3	18.7	0.00e+00	0	38	0	719323136	56	4993
2026-01-22 10:41:55.28	284.99	51.53	-43.3	-45.7	18.3	0.00e+00	0	38	0	721420288	57	4956
2026-01-22 10:41:56.01	285.43	51.42	-43.2	-45.6	18.4	0.00e+00	0	38	0	722468864	58	4614
2026-01-22 10:41:57.29	286.20	51.22	-42.2	-44.4	19.5	0.00e+00	0	38	0	725614592	56	4527
2026-01-22 10:41:58.01	286.62	51.10	-42.4	-44.7	19.3	0.00e+00	0	38	0	726663168	56	4668
2026-01-22 10:41:59.29	287.37	50.90	-42.4	-44.6	19.3	0.00e+00	0	38	0	728760320	56	4639
2026-01-22 10:42:00.02	287.79	50.78	-42.1	-44.3	19.5	0.00e+00	0	38	0	729808896	56	4461
2026-01-22 10:42:01.30	288.53	50.57	-41.6	-43.7	19.9	0.00e+00	0	38	0	732954624	55	4427
2026-01-22 10:42:02.02	288.94	50.45	-41.8	-43.9	19.8	0.00e+00	0	38	0	734003200	54	4801
2026-01-22 10:42:03.30	289.65	50.23	-42.0	-44.2	19.5	0.00e+00	0	38	0	736100352	54	4939
2026-01-22 10:42:04.11	290.10	50.09	-42.2	-44.4	19.3	0.00e+00	0	38	0	738197504	55	4796
2026-01-22 10:42:05.24	290.72	49.89	-42.5	-44.8	19.0	0.00e+00	0	38	0	740294656	55	5001
2026-01-22 10:42:06.10	291.19	49.74	-43.5	-46.0	18.0	0.00e+00	0	38	0	741343232	57	5113
2026-01-22 10:42:07.23	291.79	49.54	-43.5	-46.0	18.1	0.00e+00	0	38	0	743440384	58	4828
2026-01-22 10:42:08.08	292.24	49.39	-42.4	-44.6	19.2	0.00e+00	0	38	0	745537536	56	4630
2026-01-22 10:42:09.22	292.84	49.18	-41.6	-43.7	19.9	0.00e+00	0	38	0	747634688	55	4422
2026-01-22 10:42:10.07	293.28	49.03	-42.3	-44.5	19.3	0.00e+00	0	38	0	748683264	55	4843
2026-01-22 10:42:11.21	293.86	48.81	-43.7	-46.3	17.8	0.00e+00	0	38	0	750780416	58	4985
2026-01-22 10:42:12.06	294.29	48.66	-44.3	-47.0	17.0	0.00e+00	0	38	0	752877568	59	5148
2026-01-22 10:42:13.20	294.86	48.44	-44.1	-46.8	17.3	0.00e+00	0	38	0	754974720	59	5014
2026-01-22 10:42:14.05	295.28	48.28	-44.1	-46.7	17.4	0.00e+00	0	38	0	756023296	59	4940
2026-01-22 10:42:15.19	295.83	48.06	-45.2	-48.2	16.0	0.00e+00	0	38	0	759169024	61	5244
2026-01-22 10:42:16.04	296.24	47.90	-45.6	-48.8	15.5	0.00e+00	0	38	0	760217600	62	5337
2026-01-22 10:42:17.18	296.78	47.68	-45.8	-49.1	15.2	0.00e+00	0	38	0	762314752	62	5469
2026-01-22 10:42:18.03	297.18	47.51	-46.3	-50.0	14.3	0.00e+00	0	38	0	764411904	63	5725
2026-01-22 10:42:19.17	297.71	47.29	-46.4	-50.2	14.1	2.20e-06	0	38	0	766509056	63	5862
2026-01-22 10:42:20.02	298.10	47.12	-46.2	-49.7	14.5	0.00e+00	0	38	0	767557632	63	5588
2026-01-22 10:42:21.16	298.61	46.90	-46.1	-49.6	14.6	7.00e-07	0	38	0	769654784	63	5506
2026-01-22 10:42:22.01	298.99	46.73	-46.5	-50.4	13.8	3.80e-06	0	38	0	771751936	64	5664
2026-01-22 10:42:23.15	299.50	46.50	-46.6	-50.7	13.6	7.60e-06	0	38	0	773849088	64	5874
2026-01-22 10:42:24.00	299.87	46.33	-45.6	-49.0	15.1	7.00e-07	0	38	0	774897664	63	5125
2026-01-22 10:42:25.14	300.36	46.10	-44.8	-47.8	16.3	0.00e+00	0	38	0	776994816	61	5005
2026-01-22 10:42:25.99	300.72	45.93	-45.4	-48.7	15.6	0.00e+00	0	38	0	779091968	61	5541
2026-01-22 10:42:27.13	301.19	45.70	-46.5	-50.3	14.0	0.00e+00	0	38	0	781189120	63	5939
2026-01-22 10:42:27.98	301.55	45.53	-47.1	-51.5	12.6	4.04e-05	0	38	0	782237696	64	6456
2026-01-22 10:42:29.13	302.02	45.29	-47.1	-51.6	12.3	1.46e-04	0	38	0	784334848	65	6142
2026-01-22 10:42:30.41	302.53	45.03	-46.9	-51.1	13.1	1.16e-04	0	38	0	787480576	65	5805
2026-01-22 10:42:31.12	302.81	44.89	-46.7	-50.7	13.4	2.21e-05	0	38	0	788529152	64	5907
2026-01-22 10:42:32.40	303.32	44.62	-46.9	-51.1	13.1	1.22e-05	0	38	0	790626304	64	6159
2026-01-22 10:42:33.13	303.60	44.47	-47.2	-51.6	12.6	3.96e-05	0	38	0	792723456	65	6188
2026-01-22 10:42:34.45	304.10	44.20	-47.7	-52.7	11.4	9.83e-04	0	38	0	794820608	66	6643
2026-01-22 10:42:35.16	304.37	44.06	-47.6	-52.5	11.5	1.18e-03	0	38	0	795869184	66	6485
2026-01-22 10:42:36.44	304.85	43.79	-47.3	-51.8	12.0	7.04e-04	0	38	0	799014912	66	5992
2026-01-22 10:42:37.18	305.12	43.64	-47.2	-51.6	12.6	8.46e-05	0	38	0	800063488	65	6165
2026-01-22 10:42:38.46	305.58	43.37	-47.6	-52.5	11.6	9.80e-04	0	38	0	802160640	66	6479
2026-01-22 10:42:39.19	305.85	43.22	-48.0	-53.5	10.4	3.26e-03	0	38	0	803209216	66	7285
2026-01-22 10:42:40.47	306.30	42.96	-49.1	-56.9	7.4	6.86e-02	0	38	0	806354944	68	9561
2026-01-22 10:42:41.19	306.55	42.81	-48.4	-54.6	9.7	7.63e-02	0	38	0	807403520	68	7307
2026-01-22 10:42:42.47	306.99	42.54	-46.6	-50.6	13.6	1.41e-04	0	38	0	809500672	65	5473
2026-01-22 10:42:43.20	307.24	42.39	-46.0	-49.4	14.7	0.00e+00	0	38	0	811597824	63	5398
2026-01-22 10:42:44.75	307.76	42.07	-45.5	-48.8	15.3	0.00e+00	0	38	0	813694976	62	5337
2026-01-22 10:42:45.46	308.00	41.93	-45.8	-49.2	15.0	0.00e+00	0	38	0	815792128	62	5563
2026-01-22 10:42:46.73	308.41	41.66	-46.8	-51.3	12.8	1.29e-05	0	38	0	817889280	64	6336
2026-01-22 10:42:47.44	308.64	41.52	-46.8	-51.3	12.8	8.31e-05	0	38	0	818937856	64	6308
2026-01-22 10:42:48.72	309.05	41.25	-45.9	-49.5	14.6	1.50e-06	0	38	0	822083584	63	5431
2026-01-22 10:42:49.45	309.28	41.10	-45.2	-48.4	15.8	0.00e+00	0	38	0	823132160	62	5053
2026-01-22 10:42:50.73	309.68	40.84	-44.2	-46.9	17.2	0.00e+00	0	38	0	825229312	60	4785
2026-01-22 10:42:51.44	309.89	40.70	-43.7	-46.2	17.7	0.00e+00	0	38	0	826277888	59	4690
2026-01-22 10:42:52.72	310.28	40.43	-44.2	-46.9	17.1	0.00e+00	0	38	0	829423616	59	5096
2026-01-22 10:42:53.47	310.51	40.28	-45.4	-48.7	15.5	0.00e+00	0	38	0	830472192	61	5575
2026-01-22 10:42:54.75	310.88	40.02	-46.0	-49.7	14.5	0.00e+00	0	38	0	832569344	63	5558
2026-01-22 10:42:55.51	311.11	39.86	-45.1	-48.3	15.7	0.00e+00	0	38	0	834666496	62	4998
2026-01-22 10:42:56.79	311.47	39.60	-43.8	-46.4	17.6	0.00e+00	0	38	0	836763648	59	4775
2026-01-22 10:42:57.52	311.68	39.45	-43.2	-45.5	18.4	0.00e+00	0	37	0	837812224	58	4595
2026-01-22 10:42:58.80	312.04	39.20	-43.2	-45.6	18.4	0.00e+00	0	38	0	840957952	57	4887
2026-01-22 10:42:59.59	312.26	39.04	-44.3	-47.0	17.1	0.00e+00	0	38	0	842006528	59	5116
2026-01-22 10:43:00.77	312.58	38.80	-46.3	-50.2	14.0	1.50e-06	0	38	0	844103680	63	5898
2026-01-22 10:43:01.75	312.85	38.60	-46.7	-51.2	12.9	3.96e-05	0	38	0	846200832	64	6208
2026-01-22 10:43:02.74	313.11	38.40	-46.0	-49.7	14.3	1.90e-05	0	38	0	848297984	64	5265
2026-01-22 10:43:03.74	313.38	38.20	-45.0	-48.1	16.0	0.00e+00	0	38	0	849346560	61	5186
2026-01-22 10:43:04.73	313.64	38.00	-43.7	-46.3	17.7	0.00e+00	0	38	0	851443712	59	4735
2026-01-22 10:43:05.73	313.90	37.80	-43.3	-45.8	18.2	0.00e+00	0	38	0	853540864	58	4717
2026-01-22 10:43:06.73	314.15	37.61	-43.0	-45.3	18.5	0.00e+00	0	38	0	855638016	57	4756
2026-01-22 10:43:07.72	314.40	37.41	-43.8	-46.4	17.6	0.00e+00	0	38	0	857735168	58	5082
2026-01-22 10:43:08.72	314.65	37.21	-44.9	-48.1	16.1	0.00e+00	0	38	0	858783744	60	5465
2026-01-22 10:43:09.72	314.89	37.02	-46.1	-49.8	14.4	0.00e+00	0	38	0	860880896	62	5987
2026-01-22 10:43:10.71	315.13	36.82	-46.2	-50.1	14.1	1.50e-06	0	38	0	862978048	63	5801
2026-01-22 10:43:11.70	315.37	36.63	-45.0	-48.2	15.9	0.00e+00	0	38	0	865075200	62	4928
2026-01-22 10:43:12.78	315.63	36.42	-43.9	-46.6	17.5	0.00e+00	0	38	0	867172352	59	4873
2026-01-22 10:43:13.63	315.83	36.25	-43.0	-45.3	18.6	0.00e+00	0	38	0	868220928	58	4478
2026-01-22 10:43:14.77	316.09	36.03	-42.2	-44.4	19.4	0.00e+00	0	38	0	870318080	56	4499
2026-01-22 10:43:15.62	316.29	35.87	-42.5	-44.7	19.1	0.00e+00	0	38	0	872415232	56	4673
2026-01-22 10:43:16.76	316.55	35.65	-43.2	-45.6	18.3	0.00e+00	0	38	0	874512384	57	4921
2026-01-22 10:43:17.61	316.74	35.49	-44.5	-47.3	16.7	0.00e+00	0	38	0	875560960	59	5337
2026-01-22 10:43:19.08	317.06	35.20	-45.8	-49.3	14.9	0.00e+00	0	38	0	878706688	62	5633
2026-01-22 10:43:19.79	317.22	35.07	-45.7	-49.2	15.0	0.00e+00	0	38	0	879755264	62	5552
2026-01-22 10:43:21.28	317.54	34.79	-44.8	-47.8	16.3	0.00e+00	0	38	0	882900992	61	5016
2026-01-22 10:43:21.99	317.69	34.65	-44.4	-47.2	16.9	0.00e+00	0	38	0	883949568	60	4945
2026-01-22 10:43:23.28	317.96	34.41	-44.1	-46.8	17.2	0.00e+00	0	38	0	886046720	60	4748
2026-01-22 10:43:23.99	318.11	34.28	-44.0	-46.8	17.2	0.00e+00	0	38	0	888143872	60	4759
2026-01-22 10:43:25.29	318.37	34.04	-44.3	-47.3	16.7	0.00e+00	0	38	0	890241024	59	5331
2026-01-22 10:43:26.00	318.52	33.90	-44.6	-47.9	16.2	0.00e+00	0	38	0	891289600	59	5661
2026-01-22 10:43:27.28	318.78	33.67	-45.0	-48.8	15.4	0.00e+00	0	38	0	893386752	60	5937
2026-01-22 10:43:27.99	318.92	33.54	-45.4	-49.4	14.8	0.00e+00	0	38	0	895483904	61	6033
2026-01-22 10:43:29.27	319.17	33.30	-45.7	-50.0	14.2	0.00e+00	0	38	0	897581056	62	6082
2026-01-22 10:43:30.01	319.31	33.17	-45.7	-49.8	14.4	0.00e+00	0	38	0	898629632	62	5929
2026-01-22 10:43:31.29	319.56	32.93	-45.2	-48.7	15.5	0.00e+00	0	38	0	901775360	62	5241
2026-01-22 10:43:32.00	319.70	32.81	-44.9	-48.1	16.0	0.00e+00	0	38	0	902823936	61	5191
2026-01-22 10:43:33.28	319.94	32.58	-44.3	-47.2	16.8	0.00e+00	0	38	0	904921088	60	4979
2026-01-22 10:43:34.00	320.07	32.45	-44.0	-46.7	17.3	0.00e+00	0	38	0	905969664	59	4953
2026-01-22 10:43:35.28	320.31	32.22	-44.0	-46.7	17.2	0.00e+00	0	38	0	909115392	59	4980
2026-01-22 10:43:36.00	320.44	32.09	-43.9	-46.5	17.4	0.00e+00	0	38	0	910163968	59	4854
2026-01-22 10:43:37.27	320.67	31.86	-44.2	-47.0	17.0	0.00e+00	0	38	0	912261120	59	5156
2026-01-22 10:43:38.27	320.85	31.69	-44.9	-47.9	16.2	0.00e+00	0	38	0	914358272	60	5383
2026-01-22 10:43:39.27	321.02	31.51	-45.1	-48.3	15.8	0.00e+00	0	38	0	916455424	61	5334
2026-01-22 10:43:40.26	321.19	31.34	-45.6	-49.1	15.0	0.00e+00	0	38	0	918552576	61	5839
2026-01-22 10:43:41.26	321.37	31.16	-45.7	-49.4	14.7	0.00e+00	0	38	0	919601152	62	5691
2026-01-22 10:43:42.26	321.54	30.99	-45.8	-49.6	14.5	7.00e-07	0	38	0	921698304	62	5840
2026-01-22 10:43:43.25	321.71	30.82	-45.8	-49.7	14.4	7.00e-07	0	38	0	923795456	62	5910
2026-01-22 10:43:44.24	321.87	30.65	-45.6	-49.3	14.8	7.00e-07	0	38	0	925892608	62	5647
2026-01-22 10:43:45.29	322.05	30.47	-45.2	-48.7	15.4	0.00e+00	0	38	0	927989760	62	5253
2026-01-22 10:43:46.23	322.20	30.31	-44.9	-48.3	15.8	0.00e+00	0	38	0	929038336	61	5281
2026-01-22 10:43:47.23	322.36	30.14	-44.8	-48.1	16.0	0.00e+00	0	38	0	931135488	61	5191
2026-01-22 10:43:48.22	322.52	29.97	-44.5	-47.6	16.4	0.00e+00	0	38	0	933232640	60	5213
2026-01-22 10:43:49.22	322.68	29.81	-44.8	-48.1	16.0	0.00e+00	0	38	0	935329792	60	5498
2026-01-22 10:43:50.21	322.84	29.64	-44.8	-48.1	16.0	0.00e+00	0	38	0	936378368	60	5493
2026-01-22 10:43:51.21	322.99	29.47	-45.0	-48.2	15.8	0.00e+00	0	38	0	938475520	60	5585
2026-01-22 10:43:52.20	323.15	29.31	-45.5	-49.0	15.1	0.00e+00	0	38	0	940572672	61	5782
2026-01-22 10:43:53.20	323.30	29.14	-45.7	-49.4	14.8	0.00e+00	0	38	0	942669824	62	5684
2026-01-22 10:43:54.20	323.45	28.98	-45.9	-49.7	14.7	0.00e+00	0	38	0	944766976	62	5863
2026-01-22 10:43:55.19	323.60	28.82	-45.7	-49.5	14.6	7.00e-07	0	38	0	945815552	62	5777
2026-01-22 10:43:56.19	323.75	28.66	-45.4	-49.1	15.0	7.00e-07	0	38	0	947912704	62	5509
2026-01-22 10:43:57.18	323.89	28.50	-45.1	-48.7	15.4	0.00e+00	0	38	0	950009856	62	5253
2026-01-22 10:43:58.18	324.04	28.33	-44.8	-48.2	15.8	0.00e+00	0	38	0	952107008	61	5270
2026-01-22 10:43:59.17	324.18	28.18	-44.6	-47.9	16.2	0.00e+00	0	38	0	954204160	61	5068
2026-01-22 10:44:00.25	324.33	28.00	-44.1	-47.1	16.9	0.00e+00	0	38	0	955252736	60	4884
2026-01-22 10:44:01.13	324.46	27.86	-43.6	-46.3	17.6	0.00e+00	0	38	0	957349888	59	4750
2026-01-22 10:44:02.42	324.64	27.66	-42.9	-45.4	18.4	0.00e+00	0	38	0	959447040	57	4792
2026-01-22 10:44:03.14	324.74	27.55	-42.7	-45.1	18.7	0.00e+00	0	38	0	961544192	57	4636
2026-01-22 10:44:04.64	324.94	27.31	-42.7	-45.1	18.7	0.00e+00	0	38	0	963641344	57	4625
2026-01-22 10:44:05.35	325.04	27.20	-42.5	-44.8	19.0	0.00e+00	0	38	0	964689920	56	4741
2026-01-22 10:44:06.63	325.21	27.00	-42.9	-45.4	18.4	0.00e+00	0	38	0	967835648	56	5089
2026-01-22 10:44:07.71	325.36	26.83	-43.0	-45.7	18.2	0.00e+00	0	38	0	969932800	56	5225
2026-01-22 10:44:08.83	325.50	26.66	-43.4	-46.2	17.7	0.00e+00	0	38	0	972029952	57	5267
2026-01-22 10:44:09.88	325.64	26.50	-43.7	-46.7	17.3	0.00e+00	0	38	0	974127104	58	5222
2026-01-22 10:44:10.84	325.76	26.36	-44.1	-47.1	16.9	0.00e+00	0	38	0	975175680	59	5183
2026-01-22 10:44:11.83	325.89	26.21	-44.3	-47.3	16.6	0.00e+00	0	38	0	977272832	59	5340
2026-01-22 10:44:12.83	326.02	26.06	-44.5	-47.7	16.3	0.00e+00	0	38	0	979369984	60	5248
2026-01-22 10:44:13.82	326.14	25.91	-44.7	-47.8	16.2	0.00e+00	0	38	0	981467136	60	5316
2026-01-22 10:44:14.82	326.27	25.76	-44.5	-47.6	16.4	0.00e+00	0	38	0	982515712	60	5178
2026-01-22 10:44:15.81	326.39	25.61	-44.3	-47.3	16.7	0.00e+00	0	38	0	984612864	60	5017
2026-01-22 10:44:16.81	326.51	25.46	-44.1	-47.0	16.9	0.00e+00	0	38	0	986710016	59	5118
2026-01-22 10:44:17.80	326.63	25.32	-43.4	-46.0	17.9	0.00e+00	0	38	0	988807168	58	4847
2026-01-22 10:44:18.80	326.75	25.17	-43.2	-45.7	18.1	0.00e+00	0	38	0	990904320	58	4704
2026-01-22 10:44:19.79	326.87	25.03	-42.9	-45.4	18.4	0.00e+00	0	38	0	991952896	57	4783
2026-01-22 10:44:20.79	326.99	24.88	-42.9	-45.3	18.5	0.00e+00	0	38	0	994050048	57	4752
2026-01-22 10:44:21.83	327.11	24.73	-43.2	-45.8	18.1	0.00e+00	0	38	0	996147200	57	4989
2026-01-22 10:44:22.88	327.23	24.58	-42.7	-45.2	18.6	0.00e+00	0	38	0	998244352	57	4654
2026-01-22 10:44:23.74	327.33	24.46	-43.0	-45.5	18.3	0.00e+00	0	38	0	999292928	57	4855
2026-01-22 10:44:25.07	327.48	24.27	-43.0	-45.6	18.2	0.00e+00	0	38	0	1002438656	57	4895
2026-01-22 10:44:25.78	327.56	24.17	-43.0	-45.6	18.3	0.00e+00	0	38	0	1003487232	57	4901
2026-01-22 10:44:27.06	327.70	23.99	-43.5	-46.3	17.6	0.00e+00	0	38	0	1005584384	57	5331
2026-01-22 10:44:27.77	327.78	23.89	-43.4	-46.2	17.6	0.00e+00	0	38	0	1007681536	57	5265
2026-01-22 10:44:29.05	327.92	23.71	-43.7	-46.7	17.3	0.00e+00	0	38	0	1009778688	58	5228
2026-01-22 10:44:29.76	328.00	23.61	-44.1	-47.2	16.8	0.00e+00	0	38	0	1010827264	58	5533
2026-01-22 10:44:31.04	328.14	23.43	-44.0	-47.0	17.0	0.00e+00	0	38	0	1012924416	58	5425
2026-01-22 10:44:31.78	328.22	23.33	-44.2	-47.1	16.8	0.00e+00	0	38	0	1015021568	59	5207
2026-01-22 10:44:33.05	328.35	23.16	-44.2	-47.0	16.9	0.00e+00	0	38	0	1017118720	59	5142
2026-01-22 10:44:33.77	328.43	23.06	-44.1	-46.9	17.1	0.00e+00	0	38	0	1018167296	59	5093
2026-01-22 10:44:35.04	328.56	22.89	-44.0	-46.7	17.2	0.00e+00	0	38	0	1021313024	59	4966
2026-01-22 10:44:35.75	328.63	22.79	-44.0	-46.8	17.1	0.00e+00	0	38	0	1022361600	59	4999
2026-01-22 10:44:37.03	328.76	22.62	-43.5	-46.1	17.8	0.00e+00	0	38	0	1024458752	59	4615
2026-01-22 10:44:37.74	328.84	22.52	-43.6	-46.3	17.6	0.00e+00	0	38	0	1025507328	59	4708
2026-01-22 10:44:39.17	328.98	22.33	-43.3	-45.8	18.0	0.00e+00	0	38	0	1028653056	58	4750
2026-01-22 10:44:39.88	329.05	22.24	-43.0	-45.5	18.3	0.00e+00	0	38	0	1029701632	58	4589
2026-01-22 10:44:41.15	329.18	22.07	-43.0	-45.6	18.2	0.00e+00	0	38	0	1032847360	57	4873
2026-01-22 10:44:42.20	329.28	21.93	-43.0	-45.5	18.3	0.00e+00	0	38	0	1033895936	57	4857
2026-01-22 10:44:43.16	329.37	21.81	-42.9	-45.4	18.4	0.00e+00	0	38	0	1035993088	57	4805
2026-01-22 10:44:44.15	329.47	21.68	-43.0	-45.5	18.3	0.00e+00	0	38	0	1038090240	57	4833
2026-01-22 10:44:45.15	329.57	21.55	-43.0	-45.5	18.3	0.00e+00	0	38	0	1040187392	57	4825
2026-01-22 10:44:46.14	329.66	21.42	-43.4	-46.0	17.9	0.00e+00	0	38	0	1041235968	57	5130
2026-01-22 10:44:47.14	329.75	21.29	-43.8	-46.5	17.4	0.00e+00	0	38	0	1043333120	58	5155
2026-01-22 10:44:48.14	329.85	21.17	-43.9	-46.7	17.2	0.00e+00	0	38	0	1045430272	58	5254
2026-01-22 10:44:49.16	329.94	21.04	-44.0	-46.9	17.1	0.00e+00	0	38	0	1047527424	58	5373
2026-01-22 10:44:50.19	330.04	20.91	-44.3	-47.3	16.6	0.00e+00	0	38	0	1049624576	59	5338
2026-01-22 10:44:51.19	330.13	20.78	-44.2	-47.4	16.6	0.00e+00	0	38	0	1050673152	59	5363
2026-01-22 10:44:52.24	330.23	20.65	-44.6	-47.9	16.1	0.00e+00	0	38	0	1052770304	59	5712
2026-01-22 10:44:53.16	330.31	20.53	-44.3	-47.6	16.4	0.00e+00	0	38	0	1054867456	59	5476
2026-01-22 10:44:54.15	330.40	20.41	-44.5	-47.8	16.2	0.00e+00	0	38	0	1056964608	59	5634
2026-01-22 10:44:55.15	330.49	20.29	-44.5	-47.8	16.1	0.00e+00	0	38	0	1059061760	59	5638
2026-01-22 10:44:56.14	330.57	20.17	-44.2	-47.3	16.6	0.00e+00	0	38	0	1060110336	59	5336
2026-01-22 10:44:57.14	330.66	20.04	-44.2	-47.3	16.6	0.00e+00	0	38	0	1062207488	59	5293
2026-01-22 10:44:58.13	330.75	19.92	-44.1	-47.1	16.9	0.00e+00	0	38	0	1064304640	59	5163
2026-01-22 10:44:59.46	330.86	19.76	-43.8	-46.6	17.3	0.00e+00	0	38	0	1066401792	59	4907
2026-01-22 10:45:00.20	330.92	19.67	-43.8	-46.5	17.4	0.00e+00	0	38	0	1068498944	59	4856
2026-01-22 10:45:01.48	331.03	19.52	-43.7	-46.3	17.6	0.00e+00	0	38	0	1070596096	58	5018
2026-01-22 10:45:02.20	331.09	19.43	-43.7	-46.4	17.5	0.00e+00	0	38	0	1071644672	58	5043
2026-01-22 10:45:03.48	331.20	19.28	-43.4	-46.0	17.9	0.00e+00	0	38	0	1073741824	58	4817
2026-01-22 10:45:04.19	331.26	19.19	-43.2	-45.6	18.2	0.00e+00	0	38	0	1075838976	58	4645
2026-01-22 10:45:05.47	331.36	19.04	-43.3	-45.9	17.9	0.00e+00	0	38	0	1077936128	58	4786
2026-01-22 10:45:06.18	331.42	18.96	-43.2	-45.7	18.0	0.00e+00	0	38	0	1078984704	58	4689
2026-01-22 10:45:07.48	331.53	18.80	-43.4	-46.0	17.8	0.00e+00	0	38	0	1082130432	58	4861
2026-01-22 10:45:08.19	331.58	18.72	-43.5	-46.1	17.8	0.00e+00	0	38	0	1083179008	58	4883
2026-01-22 10:45:09.48	331.69	18.57	-43.3	-45.9	17.9	0.00e+00	0	38	0	1085276160	58	4794
2026-01-22 10:45:10.19	331.74	18.49	-43.6	-46.3	17.5	0.00e+00	0	38	0	1086324736	58	5025
2026-01-22 10:45:11.53	331.85	18.33	-43.6	-46.2	17.6	0.00e+00	0	38	0	1089470464	58	4982
2026-01-22 10:45:12.24	331.90	18.25	-43.6	-46.3	17.5	0.00e+00	0	38	0	1090519040	58	5038
2026-01-22 10:45:13.59	332.01	18.10	-43.7	-46.5	17.4	0.00e+00	0	38	0	1093664768	58	5126
2026-01-22 10:45:14.30	332.06	18.02	-43.8	-46.7	17.2	0.00e+00	0	38	0	1094713344	58	5228
2026-01-22 10:45:15.64	332.17	17.87	-43.7	-46.6	17.2	0.00e+00	0	38	0	1096810496	58	5174
2026-01-22 10:45:16.35	332.22	17.79	-43.7	-46.6	17.2	0.00e+00	0	38	0	1097859072	58	5191
2026-01-22 10:45:17.70	332.32	17.63	-43.5	-46.4	17.5	0.00e+00	0	38	0	1101004800	58	5066
2026-01-22 10:45:18.41	332.37	17.56	-43.5	-46.3	17.5	0.00e+00	0	38	0	1102053376	58	5037
2026-01-22 10:45:19.69	332.47	17.41	-43.3	-46.1	17.7	0.00e+00	0	38	0	1104150528	58	4926
2026-01-22 10:45:20.41	332.52	17.33	-43.1	-45.8	18.0	0.00e+00	0	38	0	1106247680	58	4710
2026-01-22 10:45:21.69	332.62	17.19	-43.0	-45.6	18.1	0.00e+00	0	38	0	1108344832	58	4648
2026-01-22 10:45:22.40	332.67	17.11	-43.0	-45.7	18.1	0.00e+00	0	38	0	1109393408	58	4667
2026-01-22 10:45:23.87	332.77	16.95	-42.8	-45.3	18.4	0.00e+00	0	38	0	1112539136	57	4735
2026-01-22 10:45:24.58	332.83	16.87	-42.6	-45.1	18.6	0.00e+00	0	38	0	1113587712	57	4621
2026-01-22 10:45:25.86	332.92	16.74	-42.6	-45.1	18.6	0.00e+00	0	38	0	1115684864	57	4603
2026-01-22 10:45:26.58	332.97	16.66	-42.5	-44.9	18.8	0.00e+00	0	38	0	1117782016	56	4781
2026-01-22 10:45:27.86	333.06	16.52	-42.2	-44.6	19.0	0.00e+00	0	38	0	1119879168	56	4619
2026-01-22 10:45:28.58	333.11	16.44	-42.4	-44.7	18.9	0.00e+00	0	38	0	1120927744	56	4704
2026-01-22 10:45:29.85	333.20	16.31	-42.2	-44.5	19.1	0.00e+00	0	38	0	1124073472	56	4576
2026-01-22 10:45:30.56	333.24	16.23	-42.2	-44.5	19.1	0.00e+00	0	38	0	1125122048	56	4580
2026-01-22 10:45:31.84	333.33	16.10	-42.1	-44.5	19.2	0.00e+00	0	38	0	1127219200	56	4561
2026-01-22 10:45:32.57	333.38	16.02	-42.2	-44.6	19.0	0.00e+00	0	38	0	1129316352	56	4610
2026-01-22 10:45:33.85	333.47	15.88	-42.1	-44.4	19.2	0.00e+00	0	38	0	1131413504	56	4525
2026-01-22 10:45:34.64	333.52	15.80	-42.2	-44.6	19.0	0.00e+00	0	38	0	1132462080	56	4621
2026-01-22 10:45:35.84	333.60	15.68	-42.4	-44.8	18.9	0.00e+00	0	38	0	1134559232	56	4727
2026-01-22 10:45:36.80	333.66	15.58	-42.6	-45.0	18.7	0.00e+00	0	38	0	1136656384	56	4817
2026-01-22 10:45:37.97	333.74	15.46	-42.6	-45.0	18.7	0.00e+00	0	38	0	1138753536	56	4842
2026-01-22 10:45:38.85	333.80	15.36	-42.7	-45.1	18.6	0.00e+00	0	38	0	1140850688	56	4894
2026-01-22 10:45:39.99	333.87	15.25	-42.9	-45.4	18.3	0.00e+00	0	38	0	1142947840	56	5047
2026-01-22 10:45:40.84	333.93	15.16	-43.0	-45.5	18.2	0.00e+00	0	38	0	1143996416	56	5115
2026-01-22 10:45:41.98	334.00	15.05	-43.3	-45.8	17.9	0.00e+00	0	38	0	1146093568	57	5025
2026-01-22 10:45:42.83	334.05	14.96	-43.4	-46.0	17.7	0.00e+00	0	38	0	1148190720	57	5129
2026-01-22 10:45:43.97	334.13	14.84	-43.7	-46.4	17.3	0.00e+00	0	38	0	1150287872	58	5093
2026-01-22 10:45:44.82	334.18	14.76	-43.8	-46.6	17.2	0.00e+00	0	38	0	1151336448	58	5184
2026-01-22 10:45:45.95	334.25	14.65	-44.0	-46.9	16.9	0.00e+00	0	38	0	1153433600	58	5349
2026-01-22 10:45:46.81	334.30	14.56	-44.1	-47.0	16.8	0.00e+00	0	38	0	1155530752	58	5416
2026-01-22 10:45:47.94	334.37	14.45	-44.2	-47.2	16.6	0.00e+00	0	38	0	1157627904	59	5231
2026-01-22 10:45:48.79	334.43	14.36	-44.4	-47.4	16.3	0.00e+00	0	38	0	1158676480	59	5394
2026-01-22 10:45:49.95	334.50	14.25	-44.5	-47.6	16.2	0.00e+00	0	38	0	1161822208	59	5508
2026-01-22 10:45:50.80	334.55	14.16	-44.5	-47.7	16.1	0.00e+00	0	38	0	1162870784	59	5558
2026-01-22 10:45:52.01	334.62	14.05	-44.7	-48.1	15.8	0.00e+00	0	38	0	1164967936	60	5474
2026-01-22 10:45:52.87	334.67	13.96	-44.7	-48.0	15.9	0.00e+00	0	38	0	1167065088	60	5406
2026-01-22 10:45:54.00	334.74	13.85	-44.7	-48.0	15.9	0.00e+00	0	38	0	1169162240	60	5433
2026-01-22 10:45:54.85	334.79	13.77	-44.8	-48.1	15.7	0.00e+00	0	38	0	1170210816	60	5524
2026-01-22 10:45:55.99	334.86	13.66	-44.8	-48.2	15.7	0.00e+00	0	38	0	1172307968	60	5529
2026-01-22 10:45:56.84	334.91	13.58	-44.7	-48.0	15.8	0.00e+00	0	38	0	1174405120	60	5455
2026-01-22 10:45:57.98	334.97	13.47	-44.8	-48.1	15.7	0.00e+00	0	38	0	1176502272	60	5519
2026-01-22 10:45:58.84	335.02	13.39	-44.7	-47.9	15.9	0.00e+00	0	38	0	1177550848	60	5398
2026-01-22 10:45:59.97	335.09	13.28	-44.8	-48.0	15.8	0.00e+00	0	38	0	1180696576	60	5456
2026-01-22 10:46:00.80	335.13	13.20	-44.7	-47.9	16.0	0.00e+00	0	38	0	1181745152	60	5367
2026-01-22 10:46:01.94	335.20	13.09	-44.6	-47.8	16.0	0.00e+00	0	38	0	1183842304	60	5322
2026-01-22 10:46:02.80	335.25	13.01	-44.6	-47.7	16.2	0.00e+00	0	38	0	1185939456	60	5223
2026-01-22 10:46:03.93	335.31	12.91	-44.3	-47.3	16.5	0.00e+00	0	38	0	1188036608	60	5034
2026-01-22 10:46:04.79	335.36	12.83	-44.2	-47.2	16.6	0.00e+00	0	38	0	1189085184	60	4953
2026-01-22 10:46:05.92	335.42	12.72	-44.1	-47.0	16.7	0.00e+00	0	38	0	1191182336	60	4865
2026-01-22 10:46:06.77	335.47	12.64	-44.0	-46.9	16.8	0.00e+00	0	38	0	1193279488	60	4808
2026-01-22 10:46:07.94	335.53	12.53	-43.9	-46.7	17.0	0.00e+00	0	38	0	1195376640	59	4960
2026-01-22 10:46:08.79	335.58	12.46	-43.6	-46.4	17.3	0.00e+00	0	38	0	1196425216	59	4796
2026-01-22 10:46:10.01	335.64	12.34	-43.5	-46.3	17.4	0.00e+00	0	38	0	1198522368	58	4990
2026-01-22 10:46:10.86	335.69	12.27	-43.3	-46.1	17.6	0.00e+00	0	38	0	1200619520	58	4914
2026-01-22 10:46:12.00	335.75	12.16	-43.1	-45.9	17.7	0.00e+00	0	38	0	1202716672	58	4800
2026-01-22 10:46:12.85	335.80	12.09	-43.1	-45.9	17.8	0.00e+00	0	38	0	1203765248	58	4781
2026-01-22 10:46:14.11	335.86	11.97	-43.0	-45.9	17.7	0.00e+00	0	38	0	1206910976	58	4807
2026-01-22 10:46:14.90	335.90	11.90	-43.0	-46.0	17.7	0.00e+00	0	38	0	1207959552	57	5101
2026-01-22 10:46:16.10	335.97	11.79	-42.9	-45.8	17.8	0.00e+00	0	38	0	1210056704	57	5036
2026-01-22 10:46:16.95	336.01	11.72	-42.7	-45.7	17.9	0.00e+00	0	38	0	1212153856	57	4935
2026-01-22 10:46:18.09	336.07	11.62	-42.8	-45.8	17.8	0.00e+00	0	38	0	1214251008	57	5013
2026-01-22 10:46:18.94	336.11	11.54	-42.8	-45.8	17.9	0.00e+00	0	38	0	1215299584	57	4995
2026-01-22 10:46:20.08	336.17	11.44	-42.9	-45.8	17.8	0.00e+00	0	38	0	1217396736	57	5027
2026-01-22 10:46:20.93	336.21	11.36	-42.9	-45.9	17.8	0.00e+00	0	38	0	1219493888	57	5063
2026-01-22 10:46:22.07	336.27	11.26	-43.0	-46.1	17.5	0.00e+00	0	38	0	1221591040	57	5160
2026-01-22 10:46:22.92	336.31	11.19	-42.9	-45.9	17.7	0.00e+00	0	38	0	1223688192	57	5065
2026-01-22 10:46:24.06	336.37	11.09	-42.8	-45.8	17.8	0.00e+00	0	38	0	1225785344	57	4993
2026-01-22 10:46:24.91	336.41	11.02	-42.9	-45.9	17.7	0.00e+00	0	38	0	1226833920	57	5047
2026-01-22 10:46:26.05	336.47	10.92	-42.7	-45.6	18.0	0.00e+00	0	38	0	1228931072	57	4903
2026-01-22 10:46:26.90	336.51	10.84	-42.8	-45.7	17.8	0.00e+00	0	38	0	1231028224	57	4983
2026-01-22 10:46:28.04	336.57	10.75	-42.9	-46.0	17.6	0.00e+00	0	38	0	1233125376	57	5127
2026-01-22 10:46:28.89	336.61	10.67	-42.8	-45.8	17.7	0.00e+00	0	38	0	1234173952	57	5035
