passes_logs/2025/01/04/LEX_Murmansk/LEX_Murmansk__20250104_093923_NOAA_19_rec.log

#Pass ID: 20250104_093923_NOAA 19
#Satellite: NOAA 19
#Configuration: NOAA 19
#Start time: 2025-01-04 09:39:18.291567

#LorettStation: 1.0.0 05.05.2024
#Station: LEX_Murmansk
#Location: 33.156738 lon 68.926811 lat
#TLE: 1 33591U 09005A   25003.74725296  .00000502  00000+0  29188-3 0  9994
#TLE: 2 33591  99.0215  67.4219 0014696  87.4906 272.7948 14.13249552819955

#Time	Az	El	Level	SNR
2025-01-04 09:39:30.507871	24.1	16.3	-91.3	4.1
2025-01-04 09:39:31.654581	24.0	16.4	-91.4	4.4
2025-01-04 09:39:32.805813	24.0	16.6	-91.9	2.4
2025-01-04 09:39:33.949852	23.9	16.7	-91.4	3.8
2025-01-04 09:39:35.103011	23.9	16.8	-91.7	3.5
2025-01-04 09:39:36.256808	23.8	16.9	-91.4	4.3
2025-01-04 09:39:37.416326	23.8	17.1	-92.0	3.8
2025-01-04 09:39:38.561441	23.7	17.2	-91.8	0.5
2025-01-04 09:39:39.706439	23.7	17.3	-91.2	1.4
2025-01-04 09:39:40.855245	23.6	17.5	-91.6	0.7
2025-01-04 09:39:42.009111	23.6	17.6	-91.8	2.5
2025-01-04 09:39:43.158066	23.5	17.7	-91.3	6.9
2025-01-04 09:39:44.306116	23.4	17.9	-91.0	2.7
2025-01-04 09:39:45.450811	23.4	18.0	-91.7	7.7
2025-01-04 09:39:46.598753	23.3	18.1	-92.6	7.0
2025-01-04 09:39:47.751079	23.3	18.3	-92.4	6.4
2025-01-04 09:39:48.910874	23.2	18.4	-92.3	2.9
2025-01-04 09:39:50.057934	23.2	18.5	-92.2	5.6
2025-01-04 09:39:51.211988	23.1	18.7	-92.3	14.0
2025-01-04 09:39:52.362018	23.0	18.8	-92.3	7.1
2025-01-04 09:39:53.514111	23.0	18.9	-92.7	7.8
2025-01-04 09:39:54.661954	22.9	19.1	-92.2	2.9
2025-01-04 09:39:55.814594	22.8	19.2	-92.6	2.2
2025-01-04 09:39:56.963641	22.8	19.4	-92.9	4.5
2025-01-04 09:39:58.105842	22.7	19.5	-90.8	5.4
2025-01-04 09:39:59.250813	22.7	19.6	-92.0	6.2
2025-01-04 09:40:00.392947	22.6	19.8	-93.0	9.2
2025-01-04 09:40:01.546491	22.5	19.9	-92.6	9.6
2025-01-04 09:40:02.696209	22.5	20.1	-92.6	4.8
2025-01-04 09:40:03.848046	22.4	20.2	-92.5	4.4
2025-01-04 09:40:04.998135	22.3	20.4	-92.7	8.5
2025-01-04 09:40:06.147735	22.3	20.5	-92.8	5.4
2025-01-04 09:40:07.296169	22.2	20.7	-92.3	12.4
2025-01-04 09:40:08.441333	22.1	20.8	-92.4	4.6
2025-01-04 09:40:09.588831	22.1	21.0	-92.4	7.9
2025-01-04 09:40:10.737149	22.0	21.1	-92.6	1.8
2025-01-04 09:40:11.885095	21.9	21.3	-92.7	3.4
2025-01-04 09:40:13.032747	21.8	21.4	-92.8	3.5
2025-01-04 09:40:14.182392	21.8	21.6	-92.0	3.1
2025-01-04 09:40:15.331256	21.7	21.7	-92.1	9.4
2025-01-04 09:40:16.484434	21.6	21.9	-92.5	8.3
2025-01-04 09:40:17.633725	21.6	22.0	-92.5	9.7
2025-01-04 09:40:18.780107	21.5	22.2	-92.3	5.2
2025-01-04 09:40:19.928711	21.4	22.3	-92.4	8.9
2025-01-04 09:40:21.083119	21.3	22.5	-92.1	9.3
2025-01-04 09:40:22.232878	21.2	22.7	-91.9	8.4
2025-01-04 09:40:23.381078	21.2	22.8	-92.4	14.3
2025-01-04 09:40:24.532048	21.1	23.0	-92.5	11.2
2025-01-04 09:40:25.676176	21.0	23.1	-93.0	6.7
2025-01-04 09:40:26.825186	20.9	23.3	-91.9	1.6
2025-01-04 09:40:27.974686	20.8	23.5	-91.2	2.7
2025-01-04 09:40:29.122976	20.8	23.6	-91.0	2.3
2025-01-04 09:40:30.269743	20.7	23.8	-91.3	0.7
2025-01-04 09:40:31.421536	20.6	24.0	-91.7	7.3
2025-01-04 09:40:32.568602	20.5	24.1	-91.4	16.3
2025-01-04 09:40:33.719141	20.4	24.3	-91.8	7.6
2025-01-04 09:40:34.869604	20.3	24.5	-92.7	11.0
2025-01-04 09:40:36.019137	20.2	24.6	-92.4	15.0
2025-01-04 09:40:37.175203	20.1	24.8	-91.4	5.0
2025-01-04 09:40:38.323217	20.1	25.0	-91.4	4.2
2025-01-04 09:40:39.469222	20.0	25.2	-92.1	10.6
2025-01-04 09:40:40.621304	19.9	25.3	-92.2	9.4
2025-01-04 09:40:41.765043	19.8	25.5	-91.8	8.5
2025-01-04 09:40:42.919324	19.7	25.7	-91.4	2.7
2025-01-04 09:40:44.071927	19.6	25.9	-92.2	1.7
2025-01-04 09:40:45.223633	19.5	26.1	-92.2	1.6
2025-01-04 09:40:46.367998	19.4	26.2	-92.5	3.4
2025-01-04 09:40:47.527901	19.3	26.4	-92.7	2.8
2025-01-04 09:40:48.682417	19.2	26.6	-92.4	11.8
2025-01-04 09:40:49.830562	19.1	26.8	-92.8	6.5
2025-01-04 09:40:50.975100	19.0	27.0	-92.9	10.2
2025-01-04 09:40:52.126138	18.9	27.2	-92.3	12.5
2025-01-04 09:40:53.270562	18.8	27.3	-92.5	7.5
2025-01-04 09:40:54.417037	18.7	27.5	-92.9	6.3
2025-01-04 09:40:55.570908	18.6	27.7	-92.3	5.3
2025-01-04 09:40:56.724618	18.4	27.9	-92.2	12.2
2025-01-04 09:40:57.870120	18.3	28.1	-92.7	7.4
2025-01-04 09:40:59.018788	18.2	28.3	-93.0	8.9
2025-01-04 09:41:00.164230	18.1	28.5	-92.4	6.8
2025-01-04 09:41:01.308896	18.0	28.7	-92.3	3.8
2025-01-04 09:41:02.454631	17.9	28.9	-92.9	3.7
2025-01-04 09:41:03.600884	17.8	29.1	-92.1	2.2
2025-01-04 09:41:04.750367	17.6	29.3	-92.5	2.3
2025-01-04 09:41:05.896097	17.5	29.5	-92.7	5.8
2025-01-04 09:41:07.051573	17.4	29.7	-92.6	7.8
2025-01-04 09:41:08.202366	17.3	29.9	-92.0	4.6
2025-01-04 09:41:09.355644	17.1	30.1	-91.9	3.6
2025-01-04 09:41:10.502216	17.0	30.3	-92.6	6.3
2025-01-04 09:41:11.653225	16.9	30.5	-92.6	6.9
2025-01-04 09:41:12.802661	16.7	30.7	-92.5	5.4
2025-01-04 09:41:13.948995	16.6	30.9	-92.7	13.6
2025-01-04 09:41:15.097421	16.5	31.1	-92.4	14.6
2025-01-04 09:41:16.248147	16.3	31.3	-92.2	7.1
2025-01-04 09:41:17.402206	16.2	31.6	-92.3	6.1
2025-01-04 09:41:18.550773	16.1	31.8	-92.7	7.9
2025-01-04 09:41:19.691943	15.9	32.0	-92.9	3.1
2025-01-04 09:41:20.844826	15.8	32.2	-92.7	1.6
2025-01-04 09:41:21.989052	15.6	32.4	-92.6	5.1
2025-01-04 09:41:23.153750	15.5	32.6	-92.1	5.5
2025-01-04 09:41:24.300786	15.3	32.9	-92.2	9.8
2025-01-04 09:41:25.454433	15.2	33.1	-92.9	16.1
2025-01-04 09:41:26.606448	15.0	33.3	-92.7	14.7
2025-01-04 09:41:27.757889	14.8	33.5	-92.7	10.6
2025-01-04 09:41:28.902925	14.7	33.8	-92.6	8.0
2025-01-04 09:41:30.053389	14.5	34.0	-92.8	7.9
2025-01-04 09:41:31.205117	14.4	34.2	-92.2	9.5
2025-01-04 09:41:32.354647	14.2	34.5	-92.9	17.2
2025-01-04 09:41:33.508643	14.0	34.7	-92.5	15.5
2025-01-04 09:41:34.654612	13.9	34.9	-92.6	14.0
2025-01-04 09:41:35.804723	13.7	35.2	-92.5	6.4
2025-01-04 09:41:36.964582	13.5	35.4	-93.0	5.0
2025-01-04 09:41:38.115431	13.3	35.6	-92.2	2.7
2025-01-04 09:41:39.264670	13.1	35.9	-92.3	1.1
2025-01-04 09:41:40.408656	13.0	36.1	-93.0	6.2
2025-01-04 09:41:41.558911	12.8	36.4	-92.6	6.2
2025-01-04 09:41:42.704434	12.6	36.6	-92.8	12.3
2025-01-04 09:41:43.849230	12.4	36.9	-92.9	10.3
2025-01-04 09:41:45.004455	12.2	37.1	-92.8	18.6
2025-01-04 09:41:46.151688	12.0	37.4	-92.5	13.5
2025-01-04 09:41:47.299180	11.8	37.6	-92.4	5.1
2025-01-04 09:41:48.452354	11.6	37.9	-92.5	11.6
2025-01-04 09:41:49.610527	11.4	38.1	-93.3	11.2
2025-01-04 09:41:50.761374	11.1	38.4	-93.1	11.7
2025-01-04 09:41:51.906325	10.9	38.6	-92.3	15.8
2025-01-04 09:41:53.060969	10.7	38.9	-92.4	18.6
2025-01-04 09:41:54.207543	10.5	39.2	-92.3	14.5
2025-01-04 09:41:55.356980	10.3	39.4	-92.2	12.5
2025-01-04 09:41:56.514145	10.0	39.7	-92.9	8.2
2025-01-04 09:41:57.663446	9.8	39.9	-92.5	6.1
2025-01-04 09:41:58.810527	9.6	40.2	-92.8	3.2
2025-01-04 09:41:59.954407	9.3	40.5	-93.1	6.3
2025-01-04 09:42:01.097341	9.1	40.7	-92.5	5.9
2025-01-04 09:42:02.244501	8.8	41.0	-92.4	17.2
2025-01-04 09:42:03.396620	8.6	41.3	-92.4	18.4
2025-01-04 09:42:04.541024	8.3	41.5	-92.7	15.8
2025-01-04 09:42:05.690807	8.0	41.8	-92.8	18.7
2025-01-04 09:42:06.835526	7.8	42.1	-93.0	10.5
2025-01-04 09:42:07.985873	7.5	42.4	-92.7	11.6
2025-01-04 09:42:09.136170	7.2	42.7	-92.0	14.1
2025-01-04 09:42:10.285011	6.9	42.9	-92.4	9.6
2025-01-04 09:42:11.436195	6.6	43.2	-92.7	14.9
2025-01-04 09:42:12.588141	6.3	43.5	-92.8	15.4
2025-01-04 09:42:13.747142	6.0	43.8	-92.9	20.6
2025-01-04 09:42:14.892006	5.7	44.1	-92.7	15.9
2025-01-04 09:42:16.041475	5.4	44.3	-92.7	14.1
2025-01-04 09:42:17.193057	5.1	44.6	-92.7	10.2
2025-01-04 09:42:18.338936	4.8	44.9	-92.4	5.3
2025-01-04 09:42:19.487485	4.5	45.2	-92.8	7.2
2025-01-04 09:42:20.632597	4.1	45.5	-93.1	9.1
2025-01-04 09:42:21.787576	3.8	45.8	-92.8	4.3
2025-01-04 09:42:22.933823	3.4	46.1	-93.2	11.2
2025-01-04 09:42:24.087944	3.1	46.4	-92.5	12.4
2025-01-04 09:42:25.235449	2.7	46.7	-92.6	16.5
2025-01-04 09:42:26.384581	2.4	47.0	-92.5	17.2
2025-01-04 09:42:27.532850	2.0	47.2	-92.0	3.0
2025-01-04 09:42:28.684811	1.6	47.5	-92.7	10.0
2025-01-04 09:42:29.829751	1.2	47.8	-92.6	8.6
2025-01-04 09:42:30.978812	0.8	48.1	-93.2	11.6
2025-01-04 09:42:32.126543	0.4	48.4	-92.4	11.7
2025-01-04 09:42:33.281619	0.0	48.7	-92.4	5.4
2025-01-04 09:42:34.427122	359.6	49.0	-93.0	13.7
2025-01-04 09:42:35.587511	359.2	49.3	-92.9	11.2
2025-01-04 09:42:36.740250	358.7	49.6	-92.9	6.4
2025-01-04 09:42:37.889684	358.3	49.9	-93.1	10.1
2025-01-04 09:42:39.033265	357.8	50.2	-93.1	4.8
2025-01-04 09:42:40.182203	357.4	50.5	-92.7	3.6
2025-01-04 09:42:41.330909	356.9	50.8	-92.7	1.5
2025-01-04 09:42:42.477741	356.4	51.1	-92.4	8.2
2025-01-04 09:42:43.631020	355.9	51.4	-92.8	4.3
2025-01-04 09:42:44.779801	355.4	51.7	-93.1	2.8
2025-01-04 09:42:45.942714	354.9	52.0	-92.9	7.3
2025-01-04 09:42:47.091170	354.4	52.3	-92.3	5.9
2025-01-04 09:42:48.240158	353.9	52.6	-92.2	5.5
2025-01-04 09:42:49.385196	353.3	52.9	-92.8	1.4
2025-01-04 09:42:50.531155	352.8	53.2	-92.9	7.2
2025-01-04 09:42:51.676041	352.2	53.5	-92.5	12.1
2025-01-04 09:42:52.818551	351.6	53.8	-91.5	11.7
2025-01-04 09:42:53.972981	351.0	54.1	-91.9	14.9
2025-01-04 09:42:55.120726	350.4	54.3	-91.6	11.2
2025-01-04 09:42:56.266860	349.8	54.6	-91.3	7.3
2025-01-04 09:42:57.423435	349.2	54.9	-91.8	5.5
2025-01-04 09:42:58.570052	348.6	55.2	-92.0	8.6
2025-01-04 09:42:59.717361	347.9	55.5	-91.6	3.9
2025-01-04 09:43:00.854399	347.3	55.7	-92.2	4.2
2025-01-04 09:43:02.009039	346.6	56.0	-91.7	11.7
2025-01-04 09:43:03.161710	345.9	56.3	-91.1	11.6
2025-01-04 09:43:04.303702	345.2	56.6	-91.5	11.9
2025-01-04 09:43:05.452177	344.5	56.8	-91.8	16.2
2025-01-04 09:43:06.598577	343.7	57.1	-91.3	15.4
2025-01-04 09:43:07.744830	343.0	57.4	-91.8	13.3
2025-01-04 09:43:08.890615	342.2	57.6	-93.2	6.4
2025-01-04 09:43:10.041136	341.5	57.9	-91.6	6.8
2025-01-04 09:43:11.187513	340.7	58.1	-91.5	3.1
2025-01-04 09:43:12.340509	339.9	58.4	-91.9	1.1
2025-01-04 09:43:13.486058	339.1	58.6	-91.6	3.9
2025-01-04 09:43:14.631964	338.2	58.8	-91.8	7.2
2025-01-04 09:43:15.779797	337.4	59.1	-92.2	4.0
2025-01-04 09:43:16.930036	336.5	59.3	-93.0	8.8
2025-01-04 09:43:18.076923	335.6	59.5	-92.1	10.4
2025-01-04 09:43:19.223749	334.7	59.7	-92.3	13.5
2025-01-04 09:43:20.376686	333.8	59.9	-92.0	18.7
2025-01-04 09:43:21.520357	332.9	60.1	-92.5	16.4
2025-01-04 09:43:22.666680	332.0	60.3	-92.8	17.5
2025-01-04 09:43:23.815411	331.0	60.5	-92.7	11.4
2025-01-04 09:43:24.963212	330.1	60.7	-93.0	13.2
2025-01-04 09:43:26.110376	329.1	60.9	-92.1	19.7
2025-01-04 09:43:27.258257	328.1	61.1	-92.2	16.7
2025-01-04 09:43:28.405343	327.1	61.2	-92.3	15.4
2025-01-04 09:43:29.557136	326.0	61.4	-92.4	13.6
2025-01-04 09:43:30.701008	325.0	61.5	-92.6	14.0
2025-01-04 09:43:31.847690	324.0	61.7	-92.4	12.1
2025-01-04 09:43:32.993690	322.9	61.8	-92.9	8.6
2025-01-04 09:43:34.144480	321.9	61.9	-92.3	11.2
2025-01-04 09:43:35.296173	320.8	62.0	-92.6	7.1
2025-01-04 09:43:36.443863	319.7	62.2	-91.6	8.9
2025-01-04 09:43:37.592652	318.6	62.3	-91.5	10.1
2025-01-04 09:43:38.744377	317.5	62.3	-90.8	7.0
2025-01-04 09:43:39.900297	316.4	62.4	-91.7	9.2
2025-01-04 09:43:41.055465	315.2	62.5	-91.6	8.4
2025-01-04 09:43:42.207065	314.1	62.6	-91.7	8.2
2025-01-04 09:43:43.354977	313.0	62.6	-91.4	11.1
2025-01-04 09:43:44.509053	311.8	62.7	-92.0	13.8
2025-01-04 09:43:45.655566	310.7	62.7	-92.0	7.8
2025-01-04 09:43:46.804445	309.5	62.7	-91.7	12.8
2025-01-04 09:43:47.951003	308.4	62.7	-92.3	18.1
2025-01-04 09:43:49.099445	307.2	62.7	-91.6	13.5
2025-01-04 09:43:50.247315	306.1	62.7	-91.1	13.0
2025-01-04 09:43:51.389755	305.0	62.7	-91.7	16.8
2025-01-04 09:43:52.538980	303.8	62.7	-91.6	13.8
2025-01-04 09:43:53.685152	302.7	62.6	-92.1	13.4
2025-01-04 09:43:54.835791	301.5	62.6	-92.6	9.6
2025-01-04 09:43:55.981165	300.4	62.6	-92.0	11.7
2025-01-04 09:43:57.125381	299.3	62.5	-91.9	13.2
2025-01-04 09:43:58.272578	298.2	62.4	-91.7	10.9
2025-01-04 09:43:59.415627	297.1	62.3	-91.6	12.0
2025-01-04 09:44:00.560613	296.0	62.2	-92.0	10.7
2025-01-04 09:44:01.710221	294.9	62.1	-91.6	9.1
2025-01-04 09:44:02.857993	293.8	62.0	-92.1	6.8
2025-01-04 09:44:04.006262	292.7	61.9	-91.2	9.4
2025-01-04 09:44:05.152081	291.6	61.8	-91.5	9.3
2025-01-04 09:44:06.306861	290.6	61.7	-91.9	4.6
2025-01-04 09:44:07.454537	289.5	61.5	-92.1	3.3
2025-01-04 09:44:08.600883	288.5	61.4	-91.8	2.0
2025-01-04 09:44:09.747793	287.5	61.2	-92.0	3.3
2025-01-04 09:44:10.902913	286.5	61.1	-92.0	3.3
2025-01-04 09:44:12.053811	285.5	60.9	-91.4	5.4
2025-01-04 09:44:13.198176	284.5	60.7	-91.8	3.0
2025-01-04 09:44:14.350534	283.5	60.5	-91.5	1.9
2025-01-04 09:44:15.499471	282.6	60.3	-92.7	5.7
2025-01-04 09:44:16.648227	281.6	60.1	-91.8	4.4
2025-01-04 09:44:17.800590	280.7	59.9	-91.7	5.1
2025-01-04 09:44:18.948570	279.8	59.7	-92.1	6.4
2025-01-04 09:44:20.099693	278.9	59.5	-91.9	6.8
2025-01-04 09:44:21.241585	278.0	59.3	-91.8	5.0
2025-01-04 09:44:22.398827	277.2	59.0	-92.4	7.4
2025-01-04 09:44:23.544045	276.3	58.8	-93.4	8.9
2025-01-04 09:44:24.691506	275.5	58.6	-92.7	7.5
2025-01-04 09:44:25.837223	274.7	58.3	-92.1	5.0
2025-01-04 09:44:26.984576	273.9	58.1	-92.4	8.8
2025-01-04 09:44:28.136465	273.1	57.8	-91.7	8.3
2025-01-04 09:44:29.283653	272.3	57.6	-91.5	6.3
2025-01-04 09:44:30.432475	271.5	57.3	-91.2	7.5
2025-01-04 09:44:31.578144	270.8	57.1	-91.3	8.7
2025-01-04 09:44:32.723496	270.1	56.8	-92.3	5.9
2025-01-04 09:44:33.877265	269.4	56.5	-92.7	10.7
2025-01-04 09:44:35.021640	268.7	56.3	-92.8	10.6
2025-01-04 09:44:36.175531	268.0	56.0	-92.3	6.8
2025-01-04 09:44:37.328226	267.3	55.7	-91.6	7.8
2025-01-04 09:44:38.475346	266.6	55.4	-92.8	12.1
2025-01-04 09:44:39.620594	266.0	55.2	-93.3	11.9
2025-01-04 09:44:40.765981	265.3	54.9	-92.9	11.9
2025-01-04 09:44:41.916326	264.7	54.6	-93.1	17.0
2025-01-04 09:44:43.060937	264.1	54.3	-92.3	15.3
2025-01-04 09:44:44.212679	263.5	54.0	-92.6	18.9
2025-01-04 09:44:45.358031	262.9	53.7	-92.6	16.7
2025-01-04 09:44:46.502940	262.3	53.4	-93.1	20.5
2025-01-04 09:44:47.656574	261.8	53.1	-93.0	22.6
2025-01-04 09:44:48.805001	261.2	52.8	-92.3	21.9
2025-01-04 09:44:49.954065	260.7	52.6	-92.9	23.0
2025-01-04 09:44:51.103768	260.2	52.3	-92.8	23.8
2025-01-04 09:44:52.247427	259.6	52.0	-92.1	22.5
2025-01-04 09:44:53.398383	259.1	51.7	-92.5	20.6
2025-01-04 09:44:54.546066	258.6	51.4	-93.2	20.6
2025-01-04 09:44:55.695620	258.1	51.1	-92.7	20.9
2025-01-04 09:44:56.844752	257.7	50.8	-92.9	19.4
2025-01-04 09:44:57.991040	257.2	50.5	-93.0	18.4
2025-01-04 09:44:59.137597	256.7	50.2	-92.4	19.3
2025-01-04 09:45:00.284414	256.3	49.9	-92.8	13.8
2025-01-04 09:45:01.431737	255.8	49.6	-93.1	16.0
2025-01-04 09:45:02.583111	255.4	49.3	-92.8	13.7
2025-01-04 09:45:03.739528	255.0	49.0	-93.0	9.3
2025-01-04 09:45:04.886008	254.5	48.7	-92.5	10.4
2025-01-04 09:45:06.037668	254.1	48.4	-92.7	8.5
2025-01-04 09:45:07.190035	253.7	48.1	-92.4	7.2
2025-01-04 09:45:08.336186	253.3	47.8	-92.7	5.8
2025-01-04 09:45:09.489112	253.0	47.5	-92.6	12.1
2025-01-04 09:45:10.635133	252.6	47.2	-92.5	14.3
2025-01-04 09:45:11.783833	252.2	46.9	-92.8	9.0
2025-01-04 09:45:12.932066	251.8	46.6	-92.9	13.4
2025-01-04 09:45:14.079746	251.5	46.3	-92.6	14.3
2025-01-04 09:45:15.227000	251.1	46.0	-92.4	14.3
2025-01-04 09:45:16.375880	250.8	45.7	-92.5	19.0
2025-01-04 09:45:17.530780	250.4	45.4	-93.2	21.1
2025-01-04 09:45:18.686064	250.1	45.2	-93.1	20.2
2025-01-04 09:45:19.839214	249.8	44.9	-92.2	22.5
2025-01-04 09:45:20.991402	249.5	44.6	-92.7	23.8
2025-01-04 09:45:22.138850	249.1	44.3	-92.6	23.5
2025-01-04 09:45:23.282091	248.8	44.0	-92.5	22.7
2025-01-04 09:45:24.433142	248.5	43.7	-92.7	19.8
2025-01-04 09:45:25.582080	248.2	43.4	-93.0	20.8
2025-01-04 09:45:26.729826	247.9	43.2	-92.7	18.5
2025-01-04 09:45:27.888102	247.6	42.9	-93.0	20.8
2025-01-04 09:45:29.034356	247.4	42.6	-92.1	14.9
2025-01-04 09:45:30.180064	247.1	42.3	-92.3	17.3
2025-01-04 09:45:31.337243	246.8	42.0	-92.4	18.7
2025-01-04 09:45:32.489131	246.5	41.8	-93.1	9.6
2025-01-04 09:45:33.638202	246.3	41.5	-92.5	9.6
2025-01-04 09:45:34.791234	246.0	41.2	-93.4	18.8
2025-01-04 09:45:35.947264	245.8	41.0	-92.9	11.9
2025-01-04 09:45:37.097823	245.5	40.7	-92.7	10.1
2025-01-04 09:45:38.246218	245.3	40.4	-92.9	16.1
2025-01-04 09:45:39.399837	245.0	40.1	-93.0	14.9
2025-01-04 09:45:40.549593	244.8	39.9	-92.1	13.6
2025-01-04 09:45:41.702733	244.5	39.6	-93.2	14.6
2025-01-04 09:45:42.849678	244.3	39.4	-93.1	16.6
2025-01-04 09:45:44.000032	244.1	39.1	-93.0	15.1
2025-01-04 09:45:45.146144	243.9	38.8	-92.5	11.6
2025-01-04 09:45:46.297383	243.6	38.6	-92.3	12.1
2025-01-04 09:45:47.446698	243.4	38.3	-91.6	10.6
2025-01-04 09:45:48.592516	243.2	38.1	-91.8	6.4
2025-01-04 09:45:49.739820	243.0	37.8	-91.5	11.3
2025-01-04 09:45:50.893879	242.8	37.6	-92.2	5.5
2025-01-04 09:45:52.041990	242.6	37.3	-92.2	4.9
2025-01-04 09:45:53.186518	242.4	37.1	-91.4	9.8
2025-01-04 09:45:54.334229	242.2	36.8	-92.2	4.7
2025-01-04 09:45:55.483271	242.0	36.6	-91.6	2.1
2025-01-04 09:45:56.631685	241.8	36.3	-92.3	2.4
2025-01-04 09:45:57.784274	241.6	36.1	-92.0	6.9
2025-01-04 09:45:58.935199	241.4	35.8	-91.7	5.5
2025-01-04 09:46:00.087008	241.2	35.6	-91.4	5.0
2025-01-04 09:46:01.226786	241.1	35.4	-91.4	9.5
2025-01-04 09:46:02.374704	240.9	35.1	-91.6	5.9
2025-01-04 09:46:03.523921	240.7	34.9	-91.8	9.7
2025-01-04 09:46:04.670777	240.5	34.6	-92.0	3.4
2025-01-04 09:46:05.823629	240.4	34.4	-92.1	11.4
2025-01-04 09:46:06.975141	240.2	34.2	-91.9	8.1
2025-01-04 09:46:08.130749	240.0	33.9	-91.8	12.2
2025-01-04 09:46:09.283365	239.9	33.7	-91.8	14.4
2025-01-04 09:46:10.431941	239.7	33.5	-92.0	8.0
2025-01-04 09:46:11.581413	239.6	33.3	-92.1	7.7
2025-01-04 09:46:12.731028	239.4	33.0	-91.6	9.2
2025-01-04 09:46:13.878904	239.3	32.8	-91.8	14.3
2025-01-04 09:46:15.028209	239.1	32.6	-91.4	4.9
2025-01-04 09:46:16.178839	239.0	32.4	-90.9	9.2
2025-01-04 09:46:17.327536	238.8	32.1	-90.7	7.8
2025-01-04 09:46:18.474326	238.7	31.9	-89.8	7.1
2025-01-04 09:46:19.625949	238.5	31.7	-91.7	5.9
2025-01-04 09:46:20.772414	238.4	31.5	-91.3	6.3
2025-01-04 09:46:21.921940	238.2	31.3	-91.0	4.6
2025-01-04 09:46:23.074056	238.1	31.1	-90.7	2.0
2025-01-04 09:46:24.230896	238.0	30.9	-91.7	3.7
2025-01-04 09:46:25.377014	237.8	30.7	-90.4	1.5
2025-01-04 09:46:26.528714	237.7	30.4	-91.4	3.2
2025-01-04 09:46:27.680249	237.6	30.2	-91.3	2.5
2025-01-04 09:46:28.827633	237.4	30.0	-91.2	4.8
2025-01-04 09:46:29.981459	237.3	29.8	-91.3	3.6
2025-01-04 09:46:31.126544	237.2	29.6	-91.0	3.2
2025-01-04 09:46:32.275737	237.1	29.4	-90.9	4.9
2025-01-04 09:46:33.422197	236.9	29.2	-91.0	3.1
2025-01-04 09:46:34.569594	236.8	29.0	-90.7	4.6
2025-01-04 09:46:35.718631	236.7	28.8	-91.0	7.4
2025-01-04 09:46:36.869081	236.6	28.6	-91.2	10.3
2025-01-04 09:46:38.016178	236.5	28.4	-90.9	9.7
2025-01-04 09:46:39.166769	236.4	28.2	-90.5	9.3
2025-01-04 09:46:40.315122	236.2	28.0	-90.9	11.4
2025-01-04 09:46:41.462249	236.1	27.8	-91.3	9.9
2025-01-04 09:46:42.610454	236.0	27.7	-91.1	8.5
2025-01-04 09:46:43.758580	235.9	27.5	-91.0	11.9
2025-01-04 09:46:44.903642	235.8	27.3	-92.0	8.4
2025-01-04 09:46:46.051306	235.7	27.1	-91.8	7.4
2025-01-04 09:46:47.206042	235.6	26.9	-91.4	10.5
2025-01-04 09:46:48.357543	235.5	26.7	-91.5	10.5
2025-01-04 09:46:49.502087	235.4	26.5	-92.1	7.5
2025-01-04 09:46:50.648287	235.3	26.4	-92.2	7.2
2025-01-04 09:46:51.796848	235.2	26.2	-91.9	6.6
2025-01-04 09:46:52.941805	235.1	26.0	-92.6	5.7
2025-01-04 09:46:54.084920	235.0	25.8	-92.0	5.5
2025-01-04 09:46:55.231137	234.9	25.6	-92.5	6.3
2025-01-04 09:46:56.370821	234.8	25.5	-92.6	6.9
2025-01-04 09:46:57.519893	234.7	25.3	-92.6	6.2
2025-01-04 09:46:58.663012	234.6	25.1	-92.7	6.1
2025-01-04 09:46:59.811934	234.5	24.9	-93.1	9.7
2025-01-04 09:47:00.956298	234.4	24.8	-92.4	5.4
2025-01-04 09:47:02.104331	234.3	24.6	-92.4	4.1
2025-01-04 09:47:03.250224	234.2	24.4	-92.4	8.9
2025-01-04 09:47:04.397065	234.2	24.3	-92.6	6.0
2025-01-04 09:47:05.549111	234.1	24.1	-92.5	5.1
2025-01-04 09:47:06.699489	234.0	23.9	-93.0	9.6
2025-01-04 09:47:07.850784	233.9	23.7	-92.5	9.9
2025-01-04 09:47:09.005053	233.8	23.6	-93.0	10.0
2025-01-04 09:47:10.153390	233.7	23.4	-92.4	10.0
2025-01-04 09:47:11.300007	233.6	23.3	-92.3	11.5
2025-01-04 09:47:12.446485	233.6	23.1	-93.2	10.0
2025-01-04 09:47:13.598999	233.5	22.9	-92.8	6.9
2025-01-04 09:47:14.748364	233.4	22.8	-92.7	11.1
2025-01-04 09:47:15.892766	233.3	22.6	-93.1	10.9
2025-01-04 09:47:17.042759	233.2	22.4	-92.7	7.1
2025-01-04 09:47:18.190834	233.2	22.3	-92.6	11.3
2025-01-04 09:47:19.346518	233.1	22.1	-92.6	12.5
2025-01-04 09:47:20.491404	233.0	22.0	-93.1	12.9
2025-01-04 09:47:21.642976	232.9	21.8	-92.6	12.5
2025-01-04 09:47:22.792704	232.9	21.7	-93.0	12.1
2025-01-04 09:47:23.940447	232.8	21.5	-93.0	13.1
2025-01-04 09:47:25.088251	232.7	21.4	-92.3	10.1
2025-01-04 09:47:26.237255	232.6	21.2	-92.0	11.9
2025-01-04 09:47:27.392577	232.6	21.1	-92.7	9.8
2025-01-04 09:47:28.548684	232.5	20.9	-92.7	4.4
2025-01-04 09:47:29.692714	232.4	20.8	-93.0	11.5
2025-01-04 09:47:30.842684	232.4	20.6	-93.1	9.4
2025-01-04 09:47:31.989882	232.3	20.5	-92.6	4.8
2025-01-04 09:47:33.139370	232.2	20.3	-92.1	7.3
2025-01-04 09:47:34.286701	232.2	20.2	-92.3	8.5
2025-01-04 09:47:35.429510	232.1	20.0	-92.8	6.7
2025-01-04 09:47:36.574434	232.0	19.9	-92.7	7.5
2025-01-04 09:47:37.722972	232.0	19.7	-92.9	8.8
2025-01-04 09:47:38.870974	231.9	19.6	-92.6	9.2
2025-01-04 09:47:40.015544	231.8	19.4	-92.6	6.7
2025-01-04 09:47:41.163662	231.8	19.3	-92.7	7.1
2025-01-04 09:47:42.311382	231.7	19.2	-93.0	9.1
2025-01-04 09:47:43.457216	231.6	19.0	-92.6	6.5
2025-01-04 09:47:44.609554	231.6	18.9	-92.8	6.9
2025-01-04 09:47:45.758424	231.5	18.7	-92.8	12.1
2025-01-04 09:47:46.910351	231.5	18.6	-92.7	8.2
2025-01-04 09:47:48.058179	231.4	18.5	-92.9	9.6
2025-01-04 09:47:49.209038	231.3	18.3	-92.6	10.4
2025-01-04 09:47:50.361930	231.3	18.2	-92.6	11.0
2025-01-04 09:47:51.508755	231.2	18.1	-92.7	8.7
2025-01-04 09:47:52.659424	231.2	17.9	-93.0	7.6
2025-01-04 09:47:53.811978	231.1	17.8	-93.0	6.8
2025-01-04 09:47:54.948405	231.1	17.7	-93.0	4.4
2025-01-04 09:47:56.095799	231.0	17.5	-92.7	3.3
2025-01-04 09:47:57.243294	230.9	17.4	-92.5	5.8
2025-01-04 09:47:58.393129	230.9	17.3	-92.7	2.9
2025-01-04 09:47:59.530756	230.8	17.1	-92.8	3.5
2025-01-04 09:48:00.675898	230.8	17.0	-93.1	4.8
2025-01-04 09:48:01.819299	230.7	16.9	-92.5	5.1
2025-01-04 09:48:02.963536	230.7	16.8	-92.9	6.3
2025-01-04 09:48:04.107672	230.6	16.6	-92.4	4.8
2025-01-04 09:48:05.255392	230.6	16.5	-92.5	6.4
2025-01-04 09:48:06.405204	230.5	16.4	-93.1	5.5
2025-01-04 09:48:07.552170	230.5	16.2	-92.9	5.8
2025-01-04 09:48:08.699968	230.4	16.1	-92.5	5.7
2025-01-04 09:48:09.848140	230.4	16.0	-93.0	5.9
2025-01-04 09:48:10.995214	230.3	15.9	-93.0	5.7
2025-01-04 09:48:12.143737	230.3	15.8	-92.7	6.7
2025-01-04 09:48:13.294678	230.2	15.6	-92.5	6.0
2025-01-04 09:48:14.440680	230.2	15.5	-92.8	4.9
2025-01-04 09:48:15.589111	230.1	15.4	-93.1	5.2
2025-01-04 09:48:16.735825	230.1	15.3	-92.8	5.9
2025-01-04 09:48:17.885536	230.0	15.1	-93.1	7.7
2025-01-04 09:48:19.037480	230.0	15.0	-93.2	6.0
2025-01-04 09:48:20.184424	229.9	14.9	-92.6	4.8
2025-01-04 09:48:21.339139	229.9	14.8	-92.9	7.0
2025-01-04 09:48:22.482756	229.8	14.7	-92.7	3.2
2025-01-04 09:48:23.619453	229.8	14.6	-92.7	4.8
#Closed at: 2025-01-04 09:39:23.334071