passes_logs/2025/01/04/LEX_Murmansk/LEX_Murmansk__20250104_175836_NOAA_19_rec.log

#Pass ID: 20250104_175836_NOAA 19
#Satellite: NOAA 19
#Configuration: NOAA 19
#Start time: 2025-01-04 17:58:31.454548

#LorettStation: 1.0.0 05.05.2024
#Station: LEX_Murmansk
#Location: 33.156738 lon 68.926811 lat
#TLE: 1 33591U 09005A   25003.74725296  .00000502  00000+0  29188-3 0  9994
#TLE: 2 33591  99.0215  67.4219 0014696  87.4906 272.7948 14.13249552819955

#Time	Az	El	Level	SNR
2025-01-04 17:58:45.553570	161.0	16.5	-90.5	2.8
2025-01-04 17:58:46.694238	161.0	16.7	-90.7	3.9
2025-01-04 17:58:47.857910	161.1	16.8	-90.8	0.6
2025-01-04 17:58:49.011518	161.1	16.9	-90.9	1.2
2025-01-04 17:58:50.176616	161.1	17.1	-90.8	3.0
2025-01-04 17:58:51.347367	161.2	17.2	-90.4	1.2
2025-01-04 17:58:52.505713	161.2	17.3	-90.9	2.0
2025-01-04 17:58:53.670317	161.2	17.5	-90.8	2.8
2025-01-04 17:58:54.833116	161.2	17.6	-90.3	2.7
2025-01-04 17:58:56.000958	161.3	17.7	-90.9	1.9
2025-01-04 17:58:57.165131	161.3	17.9	-90.5	2.5
2025-01-04 17:58:58.325363	161.3	18.0	-90.3	2.9
2025-01-04 17:58:59.478752	161.4	18.2	-90.4	4.7
2025-01-04 17:59:00.625170	161.4	18.3	-90.5	4.1
2025-01-04 17:59:01.786965	161.4	18.4	-90.5	2.2
2025-01-04 17:59:02.953055	161.4	18.6	-90.3	3.3
2025-01-04 17:59:04.115061	161.5	18.7	-90.6	3.7
2025-01-04 17:59:05.278953	161.5	18.9	-90.6	3.5
2025-01-04 17:59:06.446819	161.5	19.0	-91.2	3.0
2025-01-04 17:59:07.610510	161.6	19.1	-91.1	2.6
2025-01-04 17:59:08.767408	161.6	19.3	-91.2	3.8
2025-01-04 17:59:09.914209	161.6	19.4	-90.8	4.0
2025-01-04 17:59:11.049177	161.7	19.6	-91.2	2.2
2025-01-04 17:59:12.181276	161.7	19.7	-90.9	1.8
2025-01-04 17:59:13.342384	161.7	19.9	-90.7	3.7
2025-01-04 17:59:14.494862	161.8	20.0	-91.0	2.4
2025-01-04 17:59:15.645436	161.8	20.2	-91.0	3.7
2025-01-04 17:59:16.804067	161.8	20.3	-91.2	3.7
2025-01-04 17:59:17.960211	161.9	20.5	-91.1	6.1
2025-01-04 17:59:19.118224	161.9	20.6	-90.8	4.9
2025-01-04 17:59:20.292402	161.9	20.8	-91.1	0.3
2025-01-04 17:59:21.459527	162.0	20.9	-90.8	3.0
2025-01-04 17:59:22.623948	162.0	21.1	-91.3	3.1
2025-01-04 17:59:23.792573	162.0	21.3	-91.2	6.5
2025-01-04 17:59:24.958609	162.1	21.4	-91.3	4.6
2025-01-04 17:59:26.123566	162.1	21.6	-90.9	4.7
2025-01-04 17:59:27.286619	162.2	21.7	-90.9	1.0
2025-01-04 17:59:28.461000	162.2	21.9	-90.9	4.4
2025-01-04 17:59:29.619767	162.2	22.1	-90.9	3.1
2025-01-04 17:59:30.784135	162.3	22.2	-89.7	2.5
2025-01-04 17:59:31.943327	162.3	22.4	-90.8	5.3
2025-01-04 17:59:33.102987	162.4	22.5	-90.6	7.2
2025-01-04 17:59:34.266907	162.4	22.7	-91.0	8.9
2025-01-04 17:59:35.429843	162.4	22.9	-91.5	5.5
2025-01-04 17:59:36.593218	162.5	23.0	-91.1	8.0
2025-01-04 17:59:37.757440	162.5	23.2	-91.1	4.5
2025-01-04 17:59:38.913469	162.5	23.4	-91.2	9.3
2025-01-04 17:59:40.057843	162.6	23.6	-91.0	11.9
2025-01-04 17:59:41.192081	162.6	23.7	-91.1	9.4
2025-01-04 17:59:42.344531	162.7	23.9	-91.0	5.8
2025-01-04 17:59:43.500325	162.7	24.1	-91.1	1.9
2025-01-04 17:59:44.661557	162.8	24.2	-91.1	3.5
2025-01-04 17:59:45.822147	162.8	24.4	-91.4	3.7
2025-01-04 17:59:46.977388	162.8	24.6	-90.7	2.7
2025-01-04 17:59:48.133864	162.9	24.8	-90.2	7.5
2025-01-04 17:59:49.287989	162.9	25.0	-90.0	9.3
2025-01-04 17:59:50.451637	163.0	25.1	-90.2	11.9
2025-01-04 17:59:51.610393	163.0	25.3	-90.0	6.4
2025-01-04 17:59:52.772251	163.1	25.5	-90.0	7.1
2025-01-04 17:59:53.935250	163.1	25.7	-91.1	11.5
2025-01-04 17:59:55.098623	163.2	25.9	-91.0	12.6
2025-01-04 17:59:56.262780	163.2	26.1	-90.9	6.6
2025-01-04 17:59:57.430575	163.3	26.3	-90.8	7.2
2025-01-04 17:59:58.598214	163.3	26.5	-89.6	6.1
2025-01-04 17:59:59.759316	163.4	26.6	-90.9	9.4
2025-01-04 18:00:00.911471	163.4	26.8	-90.9	9.9
2025-01-04 18:00:02.070847	163.5	27.0	-90.9	8.3
2025-01-04 18:00:03.231245	163.5	27.2	-90.8	6.1
2025-01-04 18:00:04.392712	163.6	27.4	-91.0	3.1
2025-01-04 18:00:05.556016	163.6	27.6	-91.0	2.9
2025-01-04 18:00:06.718341	163.7	27.8	-90.8	2.4
2025-01-04 18:00:07.882056	163.7	28.0	-90.8	3.5
2025-01-04 18:00:09.045586	163.8	28.2	-90.4	7.4
2025-01-04 18:00:10.205370	163.8	28.4	-90.7	10.0
2025-01-04 18:00:11.370337	163.9	28.6	-91.1	11.9
2025-01-04 18:00:12.525481	163.9	28.9	-90.9	8.5
2025-01-04 18:00:13.685169	164.0	29.1	-90.9	6.6
2025-01-04 18:00:14.846646	164.0	29.3	-91.1	8.4
2025-01-04 18:00:16.011014	164.1	29.5	-91.1	11.5
2025-01-04 18:00:17.170310	164.2	29.7	-90.9	12.9
2025-01-04 18:00:18.336640	164.2	29.9	-90.7	10.0
2025-01-04 18:00:19.494258	164.3	30.1	-90.2	6.7
2025-01-04 18:00:20.655682	164.3	30.4	-90.5	3.1
2025-01-04 18:00:21.815298	164.4	30.6	-90.5	1.4
2025-01-04 18:00:22.975015	164.5	30.8	-90.1	3.2
2025-01-04 18:00:24.143329	164.5	31.0	-89.9	5.6
2025-01-04 18:00:25.303285	164.6	31.2	-90.1	4.5
2025-01-04 18:00:26.466473	164.6	31.5	-90.6	10.2
2025-01-04 18:00:27.624231	164.7	31.7	-91.1	10.7
2025-01-04 18:00:28.786171	164.8	31.9	-90.2	6.8
2025-01-04 18:00:29.942949	164.8	32.2	-90.2	6.9
2025-01-04 18:00:31.112056	164.9	32.4	-90.5	7.6
2025-01-04 18:00:32.276287	165.0	32.6	-90.5	3.5
2025-01-04 18:00:33.447875	165.1	32.9	-90.9	10.4
2025-01-04 18:00:34.612883	165.1	33.1	-90.5	12.8
2025-01-04 18:00:35.777615	165.2	33.4	-90.5	11.1
2025-01-04 18:00:36.937480	165.3	33.6	-91.1	7.5
2025-01-04 18:00:38.100655	165.3	33.9	-91.0	5.0
2025-01-04 18:00:39.260585	165.4	34.1	-91.0	2.0
2025-01-04 18:00:40.420666	165.5	34.3	-91.0	3.2
2025-01-04 18:00:41.583423	165.6	34.6	-91.2	5.8
2025-01-04 18:00:42.743548	165.6	34.9	-91.1	6.0
2025-01-04 18:00:43.903436	165.7	35.1	-91.3	9.5
2025-01-04 18:00:45.063332	165.8	35.4	-91.1	11.3
2025-01-04 18:00:46.229515	165.9	35.6	-90.8	10.7
2025-01-04 18:00:47.392378	166.0	35.9	-91.2	6.1
2025-01-04 18:00:48.558334	166.1	36.2	-90.9	6.3
2025-01-04 18:00:49.732634	166.1	36.4	-91.2	6.9
2025-01-04 18:00:50.899847	166.2	36.7	-91.4	10.0
2025-01-04 18:00:52.059709	166.3	37.0	-91.1	10.6
2025-01-04 18:00:53.222317	166.4	37.2	-91.2	10.9
2025-01-04 18:00:54.384927	166.5	37.5	-91.2	6.4
2025-01-04 18:00:55.549142	166.6	37.8	-90.9	4.1
2025-01-04 18:00:56.728287	166.7	38.1	-91.2	1.9
2025-01-04 18:00:57.892042	166.8	38.3	-91.3	3.1
2025-01-04 18:00:59.064060	166.9	38.6	-91.0	3.4
2025-01-04 18:01:00.219832	167.0	38.9	-91.2	3.3
2025-01-04 18:01:01.377090	167.1	39.2	-91.2	4.4
2025-01-04 18:01:02.541661	167.2	39.5	-91.0	4.9
2025-01-04 18:01:03.703596	167.3	39.8	-91.0	4.8
2025-01-04 18:01:04.872117	167.4	40.1	-91.1	3.2
2025-01-04 18:01:06.033529	167.5	40.4	-91.3	7.6
2025-01-04 18:01:07.198222	167.6	40.7	-91.4	5.8
2025-01-04 18:01:08.363947	167.7	41.0	-91.2	7.8
2025-01-04 18:01:09.523033	167.8	41.3	-91.1	11.0
2025-01-04 18:01:10.687308	167.9	41.6	-91.3	13.2
2025-01-04 18:01:11.849764	168.1	41.9	-91.3	13.6
2025-01-04 18:01:13.015611	168.2	42.2	-91.1	10.0
2025-01-04 18:01:14.175542	168.3	42.5	-90.8	7.2
2025-01-04 18:01:15.344914	168.4	42.9	-90.3	2.2
2025-01-04 18:01:16.507917	168.6	43.2	-91.0	3.4
2025-01-04 18:01:17.671348	168.7	43.5	-91.6	4.2
2025-01-04 18:01:18.834564	168.8	43.8	-90.9	3.4
2025-01-04 18:01:19.996793	168.9	44.1	-91.1	10.6
2025-01-04 18:01:21.168927	169.1	44.5	-90.6	13.0
2025-01-04 18:01:22.331734	169.2	44.8	-90.7	10.1
2025-01-04 18:01:23.500433	169.4	45.2	-91.4	12.0
2025-01-04 18:01:24.660770	169.5	45.5	-91.3	13.1
2025-01-04 18:01:25.821952	169.7	45.8	-91.5	8.2
2025-01-04 18:01:26.984618	169.8	46.2	-91.3	10.3
2025-01-04 18:01:28.151918	170.0	46.5	-90.7	8.9
2025-01-04 18:01:29.327456	170.1	46.9	-90.9	9.5
2025-01-04 18:01:30.488376	170.3	47.2	-91.2	13.3
2025-01-04 18:01:31.655957	170.5	47.6	-91.4	15.6
2025-01-04 18:01:32.822248	170.6	47.9	-91.1	14.7
2025-01-04 18:01:33.981406	170.8	48.3	-91.1	9.9
2025-01-04 18:01:35.144825	171.0	48.7	-91.0	6.1
2025-01-04 18:01:36.316117	171.2	49.0	-91.2	2.6
2025-01-04 18:01:37.490101	171.3	49.4	-91.6	4.8
2025-01-04 18:01:38.652007	171.5	49.8	-91.5	2.7
2025-01-04 18:01:39.812432	171.7	50.1	-91.5	3.3
2025-01-04 18:01:40.978493	171.9	50.5	-91.3	4.4
2025-01-04 18:01:42.146926	172.1	50.9	-91.2	3.4
2025-01-04 18:01:43.308943	172.3	51.3	-91.1	4.8
2025-01-04 18:01:44.475016	172.6	51.7	-91.3	6.1
2025-01-04 18:01:45.751673	172.8	52.1	-90.7	2.0
2025-01-04 18:01:46.917264	173.0	52.5	-91.3	5.3
2025-01-04 18:01:48.077207	173.3	52.9	-91.0	6.4
2025-01-04 18:01:49.238669	173.5	53.3	-91.2	6.1
2025-01-04 18:01:50.394745	173.7	53.7	-91.6	8.2
2025-01-04 18:01:51.559747	174.0	54.1	-91.6	8.2
2025-01-04 18:01:52.721130	174.3	54.5	-91.6	8.7
2025-01-04 18:01:53.887698	174.5	54.9	-91.3	6.4
2025-01-04 18:01:55.047587	174.8	55.3	-91.2	8.6
2025-01-04 18:01:56.209105	175.1	55.7	-91.2	8.7
2025-01-04 18:01:57.375215	175.4	56.1	-90.9	4.0
2025-01-04 18:01:58.531022	175.7	56.5	-91.3	2.2
2025-01-04 18:01:59.692919	176.0	56.9	-91.2	2.7
2025-01-04 18:02:00.845527	176.3	57.3	-91.3	3.3
2025-01-04 18:02:02.013560	176.6	57.8	-91.0	5.5
2025-01-04 18:02:03.181010	176.9	58.2	-91.0	5.9
2025-01-04 18:02:04.342437	177.3	58.6	-91.0	7.5
2025-01-04 18:02:05.498328	177.7	59.0	-91.1	10.2
2025-01-04 18:02:06.660365	178.0	59.5	-90.9	11.1
2025-01-04 18:02:07.824249	178.4	59.9	-91.2	11.0
2025-01-04 18:02:08.993290	178.8	60.3	-91.3	15.2
2025-01-04 18:02:10.147070	179.2	60.8	-91.2	10.9
2025-01-04 18:02:11.312429	179.6	61.2	-91.1	9.7
2025-01-04 18:02:12.455023	180.1	61.6	-91.1	10.7
2025-01-04 18:02:13.620359	180.5	62.1	-91.2	12.3
2025-01-04 18:02:14.786819	181.0	62.5	-91.4	7.3
2025-01-04 18:02:15.947883	181.5	63.0	-91.4	11.9
2025-01-04 18:02:17.114306	182.0	63.4	-91.2	11.4
2025-01-04 18:02:18.275496	182.5	63.9	-91.1	9.5
2025-01-04 18:02:19.436273	183.0	64.3	-91.2	14.4
2025-01-04 18:02:20.590514	183.6	64.7	-91.1	14.7
2025-01-04 18:02:21.757458	184.2	65.2	-90.6	13.3
2025-01-04 18:02:22.920670	184.8	65.6	-90.7	6.2
2025-01-04 18:02:24.085632	185.5	66.1	-90.9	6.2
2025-01-04 18:02:25.247704	186.1	66.5	-91.1	4.6
2025-01-04 18:02:26.412781	186.8	67.0	-91.3	7.7
2025-01-04 18:02:27.571047	187.5	67.4	-91.1	6.4
2025-01-04 18:02:28.730681	188.3	67.9	-91.2	3.2
2025-01-04 18:02:29.899818	189.1	68.3	-91.1	4.1
2025-01-04 18:02:31.058325	189.9	68.8	-91.1	5.3
2025-01-04 18:02:32.219140	190.7	69.2	-90.7	4.9
2025-01-04 18:02:33.373872	191.6	69.6	-91.0	3.7
2025-01-04 18:02:34.539779	192.6	70.1	-91.0	7.6
2025-01-04 18:02:35.712260	193.6	70.5	-91.5	10.8
2025-01-04 18:02:36.876245	194.6	70.9	-91.1	15.4
2025-01-04 18:02:38.042403	195.7	71.3	-91.0	13.7
2025-01-04 18:02:39.206354	196.8	71.8	-91.2	16.6
2025-01-04 18:02:40.368276	198.0	72.2	-91.3	15.8
2025-01-04 18:02:41.531629	199.3	72.6	-91.1	13.6
2025-01-04 18:02:42.696723	200.6	73.0	-91.0	8.9
2025-01-04 18:02:43.860412	202.0	73.4	-90.9	7.9
2025-01-04 18:02:45.028324	203.4	73.8	-90.9	6.6
2025-01-04 18:02:46.193258	204.9	74.1	-90.9	5.1
2025-01-04 18:02:47.358512	206.5	74.5	-90.2	7.2
2025-01-04 18:02:48.523513	208.2	74.8	-89.7	11.0
2025-01-04 18:02:49.693652	210.0	75.2	-89.5	6.3
2025-01-04 18:02:50.852826	211.8	75.5	-90.0	7.0
2025-01-04 18:02:52.016733	213.7	75.8	-90.4	10.9
2025-01-04 18:02:53.181395	215.7	76.1	-90.1	10.5
2025-01-04 18:02:54.344438	217.8	76.4	-90.8	6.6
2025-01-04 18:02:55.515277	220.0	76.7	-90.6	20.2
2025-01-04 18:02:56.671476	222.3	76.9	-90.3	21.2
2025-01-04 18:02:57.837012	224.7	77.1	-90.5	21.1
2025-01-04 18:02:59.002449	227.1	77.3	-90.4	21.3
2025-01-04 18:03:00.159975	229.6	77.5	-90.6	15.2
2025-01-04 18:03:01.317306	232.2	77.7	-90.7	17.5
2025-01-04 18:03:02.474673	234.8	77.8	-90.7	17.8
2025-01-04 18:03:03.639427	237.5	77.9	-91.1	16.3
2025-01-04 18:03:04.804883	240.3	78.0	-91.0	14.8
2025-01-04 18:03:05.964799	243.1	78.1	-90.8	18.3
2025-01-04 18:03:07.129563	245.9	78.1	-90.6	17.5
2025-01-04 18:03:08.293580	248.7	78.1	-91.1	8.5
2025-01-04 18:03:09.454735	251.4	78.0	-91.2	12.9
2025-01-04 18:03:10.614376	254.2	78.0	-91.4	15.4
2025-01-04 18:03:11.793206	257.0	77.9	-91.0	12.4
2025-01-04 18:03:12.951495	259.7	77.8	-91.2	13.1
2025-01-04 18:03:14.123517	262.3	77.6	-90.7	16.8
2025-01-04 18:03:15.283154	264.9	77.5	-90.7	7.2
2025-01-04 18:03:16.447193	267.4	77.3	-91.1	15.1
2025-01-04 18:03:17.613151	269.8	77.1	-91.4	14.4
2025-01-04 18:03:18.770959	272.1	76.9	-91.0	5.5
2025-01-04 18:03:19.929841	274.4	76.6	-90.9	9.7
2025-01-04 18:03:21.086634	276.5	76.3	-90.8	5.5
2025-01-04 18:03:22.251514	278.6	76.1	-90.9	7.0
2025-01-04 18:03:23.415829	280.6	75.8	-90.9	9.1
2025-01-04 18:03:24.579603	282.5	75.4	-91.0	10.6
2025-01-04 18:03:25.742694	284.3	75.1	-91.1	5.4
2025-01-04 18:03:26.902977	286.1	74.8	-91.2	8.9
2025-01-04 18:03:28.066198	287.7	74.4	-91.0	9.9
2025-01-04 18:03:29.229364	289.3	74.0	-90.4	3.3
2025-01-04 18:03:30.391503	290.8	73.7	-90.3	9.2
2025-01-04 18:03:31.556226	292.2	73.3	-91.0	10.3
2025-01-04 18:03:32.720476	293.6	72.9	-91.1	6.0
2025-01-04 18:03:33.879788	294.9	72.5	-91.1	7.1
2025-01-04 18:03:35.043656	296.1	72.1	-91.2	9.5
2025-01-04 18:03:36.203729	297.3	71.7	-90.8	5.4
2025-01-04 18:03:37.371959	298.4	71.3	-91.0	7.5
2025-01-04 18:03:38.539739	299.5	70.8	-90.9	8.2
2025-01-04 18:03:39.703979	300.5	70.4	-90.6	4.1
2025-01-04 18:03:40.861139	301.5	70.0	-90.8	6.3
2025-01-04 18:03:42.027588	302.4	69.5	-91.1	8.1
2025-01-04 18:03:43.197378	303.3	69.1	-91.3	2.5
2025-01-04 18:03:44.353653	304.2	68.7	-91.0	3.1
2025-01-04 18:03:45.520837	305.0	68.2	-91.5	6.2
2025-01-04 18:03:46.682567	305.8	67.8	-91.4	3.7
2025-01-04 18:03:47.846553	306.5	67.3	-91.4	3.7
2025-01-04 18:03:49.011107	307.2	66.9	-91.4	4.1
2025-01-04 18:03:50.169795	307.9	66.4	-90.8	2.8
2025-01-04 18:03:51.329783	308.6	66.0	-90.9	1.2
2025-01-04 18:03:52.491104	309.2	65.6	-91.0	4.7
2025-01-04 18:03:53.652026	309.8	65.1	-91.4	4.1
2025-01-04 18:03:54.805371	310.4	64.7	-91.4	3.6
2025-01-04 18:03:55.957217	310.9	64.2	-91.3	4.0
2025-01-04 18:03:57.080734	311.4	63.8	-90.7	4.3
2025-01-04 18:03:58.201473	312.0	63.4	-90.8	4.6
2025-01-04 18:03:59.323514	312.4	62.9	-90.7	6.0
2025-01-04 18:04:00.443626	312.9	62.5	-91.2	8.4
2025-01-04 18:04:01.564170	313.4	62.1	-91.1	7.2
2025-01-04 18:04:02.685829	313.8	61.7	-90.8	6.0
2025-01-04 18:04:03.811975	314.2	61.2	-90.7	9.3
2025-01-04 18:04:04.933984	314.6	60.8	-91.0	8.8
2025-01-04 18:04:06.084190	315.0	60.4	-90.9	13.2
2025-01-04 18:04:07.239028	315.4	60.0	-90.8	11.4
2025-01-04 18:04:08.396137	315.8	59.5	-91.2	14.0
2025-01-04 18:04:09.558161	316.2	59.1	-91.1	12.9
2025-01-04 18:04:10.700261	316.5	58.7	-91.2	12.5
2025-01-04 18:04:11.862234	316.9	58.3	-91.3	9.3
2025-01-04 18:04:13.026113	317.2	57.8	-91.4	15.5
2025-01-04 18:04:14.191621	317.5	57.4	-90.9	10.1
2025-01-04 18:04:15.347110	317.9	57.0	-91.2	14.8
2025-01-04 18:04:16.519280	318.2	56.6	-91.2	7.7
2025-01-04 18:04:17.676256	318.5	56.2	-91.2	11.8
2025-01-04 18:04:18.851980	318.8	55.7	-90.7	9.6
2025-01-04 18:04:20.008556	319.0	55.3	-90.7	12.3
2025-01-04 18:04:21.167287	319.3	54.9	-90.4	11.2
2025-01-04 18:04:22.299444	319.6	54.5	-91.0	6.0
2025-01-04 18:04:23.444835	319.8	54.1	-90.1	9.3
2025-01-04 18:04:24.604208	320.1	53.7	-91.0	9.6
2025-01-04 18:04:25.757750	320.3	53.4	-91.2	5.7
2025-01-04 18:04:26.912216	320.6	53.0	-91.0	5.1
2025-01-04 18:04:28.064255	320.8	52.6	-91.1	5.5
2025-01-04 18:04:29.218365	321.0	52.2	-91.1	3.9
2025-01-04 18:04:30.374602	321.2	51.8	-91.5	5.9
2025-01-04 18:04:31.536627	321.5	51.4	-91.2	4.5
2025-01-04 18:04:32.697516	321.7	51.0	-91.1	5.2
2025-01-04 18:04:33.860173	321.9	50.7	-91.0	5.0
2025-01-04 18:04:35.022981	322.1	50.3	-91.1	8.8
2025-01-04 18:04:36.183920	322.3	49.9	-90.5	6.0
2025-01-04 18:04:37.347372	322.5	49.5	-90.3	6.1
2025-01-04 18:04:38.507669	322.6	49.2	-90.8	8.7
2025-01-04 18:04:39.671843	322.8	48.8	-90.7	8.2
2025-01-04 18:04:40.830591	323.0	48.4	-91.1	5.5
2025-01-04 18:04:41.999000	323.2	48.1	-90.7	5.1
2025-01-04 18:04:43.164348	323.4	47.7	-90.8	11.9
2025-01-04 18:04:44.326376	323.5	47.4	-90.8	10.3
2025-01-04 18:04:45.480776	323.7	47.0	-90.8	10.6
2025-01-04 18:04:46.644761	323.8	46.7	-91.2	15.4
2025-01-04 18:04:47.808043	324.0	46.3	-91.1	10.8
2025-01-04 18:04:48.966923	324.2	46.0	-91.0	10.0
2025-01-04 18:04:50.131051	324.3	45.6	-90.6	8.6
2025-01-04 18:04:51.285418	324.4	45.3	-90.8	4.8
2025-01-04 18:04:52.452281	324.6	45.0	-90.8	9.1
2025-01-04 18:04:53.612273	324.7	44.6	-91.1	10.8
2025-01-04 18:04:54.773120	324.9	44.3	-90.9	6.7
2025-01-04 18:04:55.928566	325.0	44.0	-90.7	7.6
2025-01-04 18:04:57.091384	325.1	43.7	-90.6	9.9
2025-01-04 18:04:58.255151	325.3	43.3	-90.8	5.9
2025-01-04 18:04:59.417750	325.4	43.0	-91.0	9.1
2025-01-04 18:05:00.555536	325.5	42.7	-91.1	14.7
2025-01-04 18:05:01.715150	325.6	42.4	-90.7	11.4
2025-01-04 18:05:02.887024	325.8	42.1	-90.9	13.0
2025-01-04 18:05:04.046203	325.9	41.8	-91.0	15.1
2025-01-04 18:05:05.209503	326.0	41.5	-90.6	17.1
2025-01-04 18:05:06.369543	326.1	41.2	-90.5	18.0
2025-01-04 18:05:07.535921	326.2	40.8	-90.5	15.3
2025-01-04 18:05:08.691594	326.3	40.6	-90.8	9.0
2025-01-04 18:05:09.862602	326.4	40.3	-91.5	8.9
2025-01-04 18:05:11.022469	326.6	40.0	-91.2	11.3
2025-01-04 18:05:12.195838	326.7	39.7	-90.9	6.0
2025-01-04 18:05:13.355135	326.8	39.4	-91.1	1.9
2025-01-04 18:05:14.521263	326.9	39.1	-91.1	8.0
2025-01-04 18:05:15.691852	327.0	38.8	-91.3	2.3
2025-01-04 18:05:16.855174	327.1	38.5	-91.4	5.6
2025-01-04 18:05:18.022071	327.2	38.2	-91.4	7.7
2025-01-04 18:05:19.186088	327.3	37.9	-91.2	7.6
2025-01-04 18:05:20.344952	327.3	37.7	-91.2	5.4
2025-01-04 18:05:21.506312	327.4	37.4	-91.6	7.5
2025-01-04 18:05:22.670035	327.5	37.1	-91.0	10.5
2025-01-04 18:05:23.834564	327.6	36.9	-90.9	11.6
2025-01-04 18:05:24.992374	327.7	36.6	-90.8	12.0
2025-01-04 18:05:26.151014	327.8	36.3	-90.9	11.4
2025-01-04 18:05:27.311684	327.9	36.1	-90.9	7.5
2025-01-04 18:05:28.479735	328.0	35.8	-91.5	4.6
2025-01-04 18:05:29.642571	328.0	35.5	-91.3	6.2
2025-01-04 18:05:30.796848	328.1	35.3	-90.8	4.8
2025-01-04 18:05:31.962587	328.2	35.0	-91.0	6.5
2025-01-04 18:05:33.122368	328.3	34.8	-91.1	10.1
2025-01-04 18:05:34.283830	328.4	34.5	-91.3	6.4
2025-01-04 18:05:35.445865	328.4	34.3	-91.3	8.9
2025-01-04 18:05:36.613236	328.5	34.0	-91.2	9.3
2025-01-04 18:05:37.778465	328.6	33.8	-91.3	10.3
2025-01-04 18:05:38.949785	328.7	33.5	-91.1	11.6
2025-01-04 18:05:40.110125	328.7	33.3	-91.0	11.4
2025-01-04 18:05:41.278345	328.8	33.0	-91.2	12.5
2025-01-04 18:05:42.440773	328.9	32.8	-91.3	11.9
2025-01-04 18:05:43.610461	328.9	32.6	-91.1	11.7
2025-01-04 18:05:44.773993	329.0	32.3	-91.2	5.1
2025-01-04 18:05:45.953267	329.1	32.1	-91.2	9.3
2025-01-04 18:05:47.112627	329.1	31.9	-91.0	10.6
2025-01-04 18:05:48.273934	329.2	31.6	-91.1	2.1
2025-01-04 18:05:49.442993	329.3	31.4	-91.4	6.8
2025-01-04 18:05:50.607908	329.3	31.2	-91.1	4.9
2025-01-04 18:05:51.765484	329.4	31.0	-91.1	4.3
2025-01-04 18:05:52.930187	329.5	30.7	-91.2	3.1
2025-01-04 18:05:54.089326	329.5	30.5	-90.9	5.9
2025-01-04 18:05:55.255531	329.6	30.3	-90.9	5.8
2025-01-04 18:05:56.419507	329.6	30.1	-91.2	11.1
2025-01-04 18:05:57.584606	329.7	29.9	-90.1	12.4
2025-01-04 18:05:58.744826	329.8	29.6	-90.1	11.9
2025-01-04 18:05:59.909584	329.8	29.4	-90.4	4.9
2025-01-04 18:06:01.050170	329.9	29.2	-90.3	6.8
2025-01-04 18:06:02.221620	329.9	29.0	-90.2	0.7
2025-01-04 18:06:03.382028	330.0	28.8	-89.9	4.4
2025-01-04 18:06:04.548875	330.0	28.6	-90.5	2.6
2025-01-04 18:06:05.710283	330.1	28.4	-90.1	3.4
2025-01-04 18:06:06.885057	330.2	28.2	-90.0	2.2
2025-01-04 18:06:08.043236	330.2	28.0	-90.1	3.8
2025-01-04 18:06:09.208954	330.3	27.8	-90.6	2.7
2025-01-04 18:06:10.378262	330.3	27.6	-91.4	1.9
2025-01-04 18:06:11.536289	330.4	27.4	-91.2	11.3
2025-01-04 18:06:12.708539	330.4	27.2	-90.9	13.7
2025-01-04 18:06:13.870790	330.5	27.0	-90.9	10.7
2025-01-04 18:06:15.037224	330.5	26.8	-90.5	9.1
2025-01-04 18:06:16.198545	330.6	26.6	-90.8	3.2
2025-01-04 18:06:17.358091	330.6	26.4	-91.0	3.2
2025-01-04 18:06:18.521822	330.7	26.2	-91.1	3.3
2025-01-04 18:06:19.683621	330.7	26.0	-91.2	2.5
2025-01-04 18:06:20.842533	330.8	25.8	-91.2	2.3
2025-01-04 18:06:22.007466	330.8	25.7	-91.0	12.3
2025-01-04 18:06:23.172659	330.9	25.5	-91.0	4.6
2025-01-04 18:06:24.338648	330.9	25.3	-90.7	10.3
2025-01-04 18:06:25.500904	330.9	25.1	-91.0	10.2
2025-01-04 18:06:26.666328	331.0	24.9	-90.7	11.2
2025-01-04 18:06:27.827532	331.0	24.7	-90.9	4.7
2025-01-04 18:06:28.988742	331.1	24.6	-90.8	4.9
2025-01-04 18:06:30.152409	331.1	24.4	-91.0	5.2
2025-01-04 18:06:31.309705	331.2	24.2	-90.7	4.5
2025-01-04 18:06:32.480113	331.2	24.0	-91.1	8.1
2025-01-04 18:06:33.643667	331.3	23.9	-90.8	3.6
2025-01-04 18:06:34.807472	331.3	23.7	-91.1	5.4
2025-01-04 18:06:35.970915	331.3	23.5	-91.0	6.0
2025-01-04 18:06:37.136996	331.4	23.3	-90.6	6.9
2025-01-04 18:06:38.295462	331.4	23.2	-90.4	7.0
2025-01-04 18:06:39.455922	331.5	23.0	-90.7	5.7
2025-01-04 18:06:40.618601	331.5	22.8	-91.0	12.9
2025-01-04 18:06:41.783544	331.5	22.7	-91.1	7.8
2025-01-04 18:06:42.940212	331.6	22.5	-90.7	2.9
2025-01-04 18:06:44.105547	331.6	22.3	-91.0	5.4
2025-01-04 18:06:45.270515	331.7	22.2	-90.9	2.6
2025-01-04 18:06:46.431559	331.7	22.0	-91.3	2.8
2025-01-04 18:06:47.598113	331.7	21.9	-91.4	3.7
2025-01-04 18:06:48.762166	331.8	21.7	-91.3	2.4
2025-01-04 18:06:49.923599	331.8	21.5	-91.2	4.8
2025-01-04 18:06:51.079847	331.8	21.4	-90.7	6.9
2025-01-04 18:06:52.245947	331.9	21.2	-91.3	6.4
2025-01-04 18:06:53.406601	331.9	21.1	-91.3	2.1
2025-01-04 18:06:54.575448	332.0	20.9	-91.1	12.8
2025-01-04 18:06:55.737010	332.0	20.8	-90.9	6.5
2025-01-04 18:06:56.905658	332.0	20.6	-91.4	2.0
2025-01-04 18:06:58.068121	332.1	20.5	-90.8	0.1
2025-01-04 18:06:59.238024	332.1	20.3	-91.1	3.3
2025-01-04 18:07:00.389889	332.1	20.2	-91.5	0.9
2025-01-04 18:07:01.550595	332.2	20.0	-91.2	3.8
2025-01-04 18:07:02.718068	332.2	19.9	-91.3	2.4
2025-01-04 18:07:03.879014	332.2	19.7	-91.0	1.0
2025-01-04 18:07:05.048020	332.3	19.6	-90.9	3.1
2025-01-04 18:07:06.212066	332.3	19.4	-90.7	4.2
2025-01-04 18:07:07.376304	332.3	19.3	-90.9	4.1
2025-01-04 18:07:08.535167	332.4	19.1	-91.1	8.0
2025-01-04 18:07:09.692731	332.4	19.0	-91.0	4.8
2025-01-04 18:07:10.855630	332.4	18.8	-91.1	5.2
2025-01-04 18:07:12.015011	332.5	18.7	-90.9	5.1
2025-01-04 18:07:13.179330	332.5	18.6	-90.8	1.2
2025-01-04 18:07:14.341540	332.5	18.4	-91.1	1.3
2025-01-04 18:07:15.505714	332.6	18.3	-91.0	2.0
2025-01-04 18:07:16.666293	332.6	18.1	-90.6	2.2
2025-01-04 18:07:17.829051	332.6	18.0	-90.9	1.2
2025-01-04 18:07:18.992415	332.6	17.9	-91.4	2.0
2025-01-04 18:07:20.153248	332.7	17.7	-91.2	1.8
2025-01-04 18:07:21.423104	332.7	17.6	-90.9	2.4
2025-01-04 18:07:22.583790	332.7	17.4	-90.9	1.1
2025-01-04 18:07:23.750442	332.8	17.3	-91.0	1.9
2025-01-04 18:07:24.912376	332.8	17.2	-91.2	3.2
2025-01-04 18:07:26.075126	332.8	17.0	-90.9	2.9
2025-01-04 18:07:27.229745	332.9	16.9	-90.8	2.0
2025-01-04 18:07:28.398692	332.9	16.8	-91.0	3.1
2025-01-04 18:07:29.562273	332.9	16.6	-91.3	2.5
2025-01-04 18:07:30.724993	332.9	16.5	-91.0	1.8
2025-01-04 18:07:31.880984	333.0	16.4	-91.4	1.2
2025-01-04 18:07:33.048540	333.0	16.3	-91.2	3.1
2025-01-04 18:07:34.216014	333.0	16.1	-90.9	2.1
2025-01-04 18:07:35.375932	333.0	16.0	-91.3	2.3
2025-01-04 18:07:36.540946	333.1	15.9	-91.3	4.0
2025-01-04 18:07:37.702055	333.1	15.7	-91.0	2.8
2025-01-04 18:07:38.871142	333.1	15.6	-91.1	2.0
2025-01-04 18:07:40.036832	333.2	15.5	-91.1	0.5
2025-01-04 18:07:41.195221	333.2	15.4	-90.8	2.2
2025-01-04 18:07:42.352184	333.2	15.2	-90.8	2.1
2025-01-04 18:07:43.519918	333.2	15.1	-91.0	2.2
2025-01-04 18:07:44.683731	333.3	15.0	-90.8	1.4
2025-01-04 18:07:45.838077	333.3	14.9	-91.2	2.9
2025-01-04 18:07:47.006058	333.3	14.8	-91.4	4.1
2025-01-04 18:07:48.170460	333.3	14.6	-91.0	3.0
2025-01-04 18:07:49.338636	333.4	14.5	-90.9	3.8
#Closed at: 2025-01-04 17:58:36.372019