passes_logs/2025/01/04/LEX_Murmansk/LEX_Murmansk__20250104_200720_NOAA_18_rec.log

#Pass ID: 20250104_200720_NOAA 18
#Satellite: NOAA 18
#Configuration: NOAA 18
#Start time: 2025-01-04 20:07:15.743718

#LorettStation: 1.0.0 05.05.2024
#Station: LEX_Murmansk
#Location: 33.156738 lon 68.926811 lat
#TLE: 1 28654U 05018A   25003.76610367  .00000568  00000+0  32493-3 0  9997
#TLE: 2 28654  98.8583  84.9311 0013827 211.1121 148.9234 14.13475198 11594

#Time	Az	El	Level	SNR
2025-01-04 20:07:27.985021	192.3	16.2	-92.3	5.9
2025-01-04 20:07:29.145399	192.4	16.3	-91.8	6.0
2025-01-04 20:07:30.297272	192.5	16.4	-91.5	7.9
2025-01-04 20:07:31.443474	192.6	16.6	-91.6	8.4
2025-01-04 20:07:32.590507	192.7	16.7	-92.3	3.1
2025-01-04 20:07:33.742472	192.8	16.8	-92.2	3.9
2025-01-04 20:07:34.900984	192.9	16.9	-92.5	6.3
2025-01-04 20:07:36.050470	193.0	17.0	-92.1	4.7
2025-01-04 20:07:37.201758	193.2	17.1	-91.8	5.1
2025-01-04 20:07:38.344867	193.3	17.3	-92.0	5.1
2025-01-04 20:07:39.503998	193.4	17.4	-92.4	6.5
2025-01-04 20:07:40.649866	193.5	17.5	-92.0	4.0
2025-01-04 20:07:41.810003	193.6	17.6	-92.1	7.9
2025-01-04 20:07:42.961798	193.7	17.7	-92.0	3.4
2025-01-04 20:07:44.115139	193.8	17.9	-91.8	4.7
2025-01-04 20:07:45.262924	193.9	18.0	-91.8	2.7
2025-01-04 20:07:46.410525	194.0	18.1	-92.5	7.2
2025-01-04 20:07:47.569233	194.2	18.2	-92.5	7.2
2025-01-04 20:07:48.721308	194.3	18.4	-92.1	9.2
2025-01-04 20:07:49.874391	194.4	18.5	-92.1	6.2
2025-01-04 20:07:51.021715	194.5	18.6	-92.2	10.1
2025-01-04 20:07:52.168407	194.6	18.7	-91.9	11.8
2025-01-04 20:07:53.317903	194.8	18.9	-91.6	13.3
2025-01-04 20:07:54.468765	194.9	19.0	-92.0	7.6
2025-01-04 20:07:55.618124	195.0	19.1	-92.3	7.6
2025-01-04 20:07:56.772338	195.1	19.2	-92.6	6.5
2025-01-04 20:07:57.928609	195.2	19.4	-92.3	9.2
2025-01-04 20:07:59.082901	195.4	19.5	-91.7	8.2
2025-01-04 20:08:00.232196	195.5	19.6	-91.7	5.6
2025-01-04 20:08:01.380895	195.6	19.8	-92.0	4.4
2025-01-04 20:08:02.540346	195.8	19.9	-92.4	5.9
2025-01-04 20:08:03.694067	195.9	20.0	-92.5	4.3
2025-01-04 20:08:04.840326	196.0	20.1	-92.5	7.9
2025-01-04 20:08:05.998184	196.1	20.3	-92.1	6.0
2025-01-04 20:08:07.149590	196.3	20.4	-91.7	4.5
2025-01-04 20:08:08.305746	196.4	20.5	-91.6	7.3
2025-01-04 20:08:09.452107	196.5	20.7	-92.1	5.0
2025-01-04 20:08:10.607359	196.7	20.8	-92.3	4.9
2025-01-04 20:08:11.757413	196.8	20.9	-92.4	4.5
2025-01-04 20:08:12.907597	197.0	21.1	-92.1	8.2
2025-01-04 20:08:14.061270	197.1	21.2	-92.3	6.6
2025-01-04 20:08:15.218377	197.2	21.4	-92.0	8.2
2025-01-04 20:08:16.360496	197.4	21.5	-92.0	5.8
2025-01-04 20:08:17.507514	197.5	21.6	-92.1	7.4
2025-01-04 20:08:18.661844	197.7	21.8	-92.2	6.7
2025-01-04 20:08:19.793648	197.8	21.9	-92.0	10.9
2025-01-04 20:08:20.936001	198.0	22.0	-92.3	7.1
2025-01-04 20:08:22.087877	198.1	22.2	-92.0	8.5
2025-01-04 20:08:23.235941	198.3	22.3	-92.0	10.0
2025-01-04 20:08:24.393773	198.4	22.5	-91.2	7.2
2025-01-04 20:08:25.544583	198.6	22.6	-92.0	11.6
2025-01-04 20:08:26.697479	198.7	22.7	-91.9	14.1
2025-01-04 20:08:27.841178	198.9	22.9	-91.8	15.5
2025-01-04 20:08:28.986477	199.0	23.0	-91.9	5.5
2025-01-04 20:08:30.108036	199.2	23.2	-91.9	5.8
2025-01-04 20:08:31.229147	199.3	23.3	-91.6	14.0
2025-01-04 20:08:32.349415	199.5	23.4	-92.1	12.3
2025-01-04 20:08:33.469873	199.6	23.6	-92.2	12.3
2025-01-04 20:08:34.591109	199.8	23.7	-92.3	8.4
2025-01-04 20:08:35.712169	200.0	23.9	-92.3	6.6
2025-01-04 20:08:36.833203	200.1	24.0	-92.1	8.9
2025-01-04 20:08:37.972107	200.3	24.2	-92.2	5.6
2025-01-04 20:08:39.129525	200.4	24.3	-91.9	4.1
2025-01-04 20:08:40.274412	200.6	24.4	-91.8	5.7
2025-01-04 20:08:41.421801	200.8	24.6	-92.0	10.3
2025-01-04 20:08:42.568874	201.0	24.7	-92.3	4.6
2025-01-04 20:08:43.720602	201.1	24.9	-92.0	10.6
2025-01-04 20:08:44.869923	201.3	25.0	-92.5	14.2
2025-01-04 20:08:46.023646	201.5	25.2	-91.9	11.9
2025-01-04 20:08:47.174163	201.7	25.3	-91.8	10.6
2025-01-04 20:08:48.322706	201.9	25.5	-92.2	10.2
2025-01-04 20:08:49.465066	202.0	25.7	-92.3	16.6
2025-01-04 20:08:50.618617	202.2	25.8	-92.0	17.3
2025-01-04 20:08:51.766960	202.4	26.0	-92.5	13.3
2025-01-04 20:08:52.926033	202.6	26.1	-92.6	8.0
2025-01-04 20:08:54.068997	202.8	26.3	-92.2	5.2
2025-01-04 20:08:55.215844	203.0	26.4	-92.2	11.8
2025-01-04 20:08:56.363520	203.2	26.6	-92.5	6.8
2025-01-04 20:08:57.517136	203.4	26.7	-92.3	5.6
2025-01-04 20:08:58.664891	203.6	26.9	-91.9	10.3
2025-01-04 20:08:59.813255	203.8	27.1	-92.3	11.8
2025-01-04 20:09:00.960506	204.0	27.2	-92.6	5.4
2025-01-04 20:09:02.108591	204.2	27.4	-92.6	8.0
2025-01-04 20:09:03.254247	204.4	27.5	-92.1	4.7
2025-01-04 20:09:04.401218	204.6	27.7	-92.3	13.0
2025-01-04 20:09:05.559673	204.8	27.8	-92.4	7.6
2025-01-04 20:09:06.702774	205.0	28.0	-92.1	8.1
2025-01-04 20:09:07.846924	205.2	28.2	-92.5	11.6
2025-01-04 20:09:08.974514	205.4	28.3	-92.0	9.5
2025-01-04 20:09:10.125794	205.6	28.5	-92.4	4.8
2025-01-04 20:09:11.272014	205.8	28.6	-92.2	7.1
2025-01-04 20:09:12.411642	206.1	28.8	-92.3	9.4
2025-01-04 20:09:13.566160	206.3	29.0	-92.8	7.0
2025-01-04 20:09:14.707423	206.5	29.1	-93.1	6.4
2025-01-04 20:09:15.864301	206.7	29.3	-92.5	8.8
2025-01-04 20:09:17.012142	207.0	29.5	-92.9	3.7
2025-01-04 20:09:18.159350	207.2	29.6	-92.4	3.9
2025-01-04 20:09:19.318245	207.4	29.8	-92.6	6.7
2025-01-04 20:09:20.471768	207.7	30.0	-93.2	5.6
2025-01-04 20:09:21.618243	207.9	30.1	-93.3	5.1
2025-01-04 20:09:22.772264	208.2	30.3	-92.9	6.5
2025-01-04 20:09:23.925396	208.4	30.5	-92.5	4.6
2025-01-04 20:09:25.076633	208.6	30.6	-92.1	5.6
2025-01-04 20:09:26.232242	208.9	30.8	-92.5	4.0
2025-01-04 20:09:27.382186	209.1	31.0	-92.7	8.6
2025-01-04 20:09:28.539101	209.4	31.1	-92.8	4.5
2025-01-04 20:09:29.689791	209.7	31.3	-92.5	6.7
2025-01-04 20:09:30.837983	209.9	31.5	-92.6	5.4
2025-01-04 20:09:31.988174	210.2	31.7	-92.7	6.6
2025-01-04 20:09:33.136010	210.4	31.8	-92.8	6.4
2025-01-04 20:09:34.280124	210.7	32.0	-92.3	7.7
2025-01-04 20:09:35.427244	211.0	32.2	-92.9	3.3
2025-01-04 20:09:36.571712	211.3	32.3	-92.5	3.5
2025-01-04 20:09:37.719404	211.5	32.5	-92.3	7.4
2025-01-04 20:09:38.871257	211.8	32.7	-92.5	8.7
2025-01-04 20:09:40.036543	212.1	32.9	-92.4	14.2
2025-01-04 20:09:41.187479	212.4	33.0	-92.1	5.2
2025-01-04 20:09:42.335066	212.7	33.2	-92.2	9.2
2025-01-04 20:09:43.482008	213.0	33.4	-92.3	10.8
2025-01-04 20:09:44.627975	213.2	33.6	-92.6	7.2
2025-01-04 20:09:45.775349	213.5	33.7	-93.0	10.7
2025-01-04 20:09:46.923282	213.8	33.9	-92.4	7.4
2025-01-04 20:09:48.077913	214.1	34.1	-92.2	5.0
2025-01-04 20:09:49.231876	214.5	34.2	-92.4	8.9
2025-01-04 20:09:50.380588	214.8	34.4	-92.8	3.9
2025-01-04 20:09:51.532281	215.1	34.6	-92.8	6.4
2025-01-04 20:09:52.680417	215.4	34.8	-92.4	13.1
2025-01-04 20:09:53.828025	215.7	34.9	-92.1	7.3
2025-01-04 20:09:54.978413	216.0	35.1	-92.4	13.2
2025-01-04 20:09:56.129587	216.4	35.3	-92.5	7.3
2025-01-04 20:09:57.279622	216.7	35.5	-92.5	12.1
2025-01-04 20:09:58.428489	217.0	35.6	-92.5	12.4
2025-01-04 20:09:59.571584	217.4	35.8	-92.2	6.5
2025-01-04 20:10:00.713016	217.7	36.0	-92.3	7.6
2025-01-04 20:10:01.867615	218.0	36.1	-91.9	13.9
2025-01-04 20:10:03.008739	218.4	36.3	-92.4	14.9
2025-01-04 20:10:04.157725	218.7	36.5	-91.9	13.4
2025-01-04 20:10:05.282736	219.1	36.7	-92.0	23.1
2025-01-04 20:10:06.402577	219.4	36.8	-92.0	15.8
2025-01-04 20:10:07.522782	219.8	37.0	-93.2	14.9
2025-01-04 20:10:08.642828	220.1	37.2	-92.4	12.9
2025-01-04 20:10:09.763486	220.5	37.3	-92.6	13.2
2025-01-04 20:10:10.884330	220.9	37.5	-92.4	14.0
2025-01-04 20:10:12.005453	221.2	37.7	-92.5	6.5
2025-01-04 20:10:13.129369	221.6	37.8	-92.5	9.6
2025-01-04 20:10:14.280825	222.0	38.0	-92.1	18.7
2025-01-04 20:10:15.426338	222.4	38.2	-92.4	13.8
2025-01-04 20:10:16.569943	222.8	38.3	-92.2	18.0
2025-01-04 20:10:17.712614	223.1	38.5	-92.1	17.2
2025-01-04 20:10:18.852167	223.5	38.7	-92.6	20.6
2025-01-04 20:10:19.995763	223.9	38.8	-92.2	13.1
2025-01-04 20:10:21.116058	224.3	39.0	-92.0	10.0
2025-01-04 20:10:22.268724	224.7	39.1	-91.8	15.7
2025-01-04 20:10:23.410137	225.2	39.3	-92.3	9.7
2025-01-04 20:10:24.561051	225.6	39.5	-92.1	9.1
2025-01-04 20:10:25.707276	226.0	39.6	-92.4	17.3
2025-01-04 20:10:26.846101	226.4	39.8	-91.8	17.5
2025-01-04 20:10:27.988768	226.9	39.9	-92.3	11.6
2025-01-04 20:10:29.143064	227.3	40.1	-92.2	14.2
2025-01-04 20:10:30.298913	227.7	40.3	-92.1	14.6
2025-01-04 20:10:31.450005	228.2	40.4	-92.5	13.6
2025-01-04 20:10:32.607042	228.6	40.6	-92.1	14.0
2025-01-04 20:10:33.758139	229.1	40.7	-92.1	11.4
2025-01-04 20:10:34.910856	229.5	40.9	-92.2	6.7
2025-01-04 20:10:36.065091	230.0	41.0	-92.2	12.1
2025-01-04 20:10:37.217231	230.5	41.2	-92.5	10.4
2025-01-04 20:10:38.374068	230.9	41.3	-92.6	14.1
2025-01-04 20:10:39.522281	231.4	41.5	-93.2	10.8
2025-01-04 20:10:40.680761	231.9	41.6	-92.5	13.2
2025-01-04 20:10:41.832791	232.4	41.8	-92.5	12.3
2025-01-04 20:10:42.986007	232.9	41.9	-92.9	10.7
2025-01-04 20:10:44.131604	233.4	42.0	-92.3	6.8
2025-01-04 20:10:45.283949	233.8	42.2	-92.5	16.5
2025-01-04 20:10:46.428555	234.3	42.3	-92.6	9.8
2025-01-04 20:10:47.574757	234.8	42.4	-92.6	10.3
2025-01-04 20:10:48.727627	235.4	42.6	-92.8	18.7
2025-01-04 20:10:49.882253	235.9	42.7	-93.0	14.5
2025-01-04 20:10:51.028642	236.4	42.8	-92.5	10.5
2025-01-04 20:10:52.174223	236.9	43.0	-92.4	5.1
2025-01-04 20:10:53.332844	237.4	43.1	-92.2	15.0
2025-01-04 20:10:54.479460	237.9	43.2	-92.9	7.4
2025-01-04 20:10:55.630412	238.5	43.3	-92.6	7.7
2025-01-04 20:10:56.783255	239.0	43.4	-92.0	21.6
2025-01-04 20:10:57.933284	239.6	43.6	-92.4	15.8
2025-01-04 20:10:59.088729	240.1	43.7	-92.6	12.1
2025-01-04 20:11:00.230871	240.6	43.8	-92.5	14.9
2025-01-04 20:11:01.372251	241.2	43.9	-92.4	18.0
2025-01-04 20:11:02.524750	241.7	44.0	-92.7	16.6
2025-01-04 20:11:03.678963	242.3	44.1	-92.6	20.7
2025-01-04 20:11:04.831974	242.9	44.2	-92.2	21.9
2025-01-04 20:11:05.977478	243.4	44.3	-92.4	22.9
2025-01-04 20:11:07.130267	244.0	44.4	-91.7	16.2
2025-01-04 20:11:08.282544	244.6	44.5	-92.2	21.9
2025-01-04 20:11:09.443700	245.1	44.6	-92.8	24.2
2025-01-04 20:11:10.594510	245.7	44.6	-93.0	8.5
2025-01-04 20:11:11.746010	246.3	44.7	-92.5	21.7
2025-01-04 20:11:12.893724	246.9	44.8	-92.3	25.0
2025-01-04 20:11:14.042824	247.5	44.9	-92.5	13.0
2025-01-04 20:11:15.189766	248.0	44.9	-92.1	23.3
2025-01-04 20:11:16.336650	248.6	45.0	-91.8	27.0
2025-01-04 20:11:17.492885	249.2	45.1	-92.3	13.4
2025-01-04 20:11:18.643338	249.8	45.1	-92.2	21.0
2025-01-04 20:11:19.796824	250.4	45.2	-92.8	27.4
2025-01-04 20:11:20.949925	251.0	45.3	-92.7	24.2
2025-01-04 20:11:22.101634	251.6	45.3	-92.1	22.9
2025-01-04 20:11:23.263738	252.2	45.4	-92.3	14.5
2025-01-04 20:11:24.417247	252.8	45.4	-92.2	26.4
2025-01-04 20:11:25.565394	253.4	45.4	-92.3	26.3
2025-01-04 20:11:26.723878	254.1	45.5	-92.5	25.8
2025-01-04 20:11:27.880879	254.7	45.5	-92.7	14.4
2025-01-04 20:11:29.030180	255.3	45.6	-92.3	20.9
2025-01-04 20:11:30.177353	255.9	45.6	-91.9	23.6
2025-01-04 20:11:31.331257	256.5	45.6	-91.8	16.2
2025-01-04 20:11:32.478573	257.1	45.6	-92.6	19.0
2025-01-04 20:11:33.629059	257.7	45.6	-92.4	24.7
2025-01-04 20:11:34.770337	258.3	45.7	-92.2	23.4
2025-01-04 20:11:35.896866	258.9	45.7	-92.6	21.2
2025-01-04 20:11:37.019229	259.5	45.7	-92.7	13.5
2025-01-04 20:11:38.138454	260.1	45.7	-91.9	19.8
2025-01-04 20:11:39.260328	260.7	45.7	-92.0	12.1
2025-01-04 20:11:40.381493	261.3	45.7	-92.4	18.5
2025-01-04 20:11:41.502407	261.9	45.7	-92.5	12.0
2025-01-04 20:11:42.632471	262.6	45.7	-92.5	14.0
2025-01-04 20:11:43.753459	263.2	45.6	-92.7	23.5
2025-01-04 20:11:44.898424	263.8	45.6	-92.3	23.9
2025-01-04 20:11:46.049628	264.4	45.6	-92.4	12.1
2025-01-04 20:11:47.202982	265.0	45.6	-92.1	19.2
2025-01-04 20:11:48.353155	265.6	45.6	-92.1	21.8
2025-01-04 20:11:49.506094	266.2	45.5	-92.8	14.4
2025-01-04 20:11:50.670247	266.8	45.5	-92.7	15.7
2025-01-04 20:11:51.825738	267.4	45.5	-92.7	20.7
2025-01-04 20:11:52.977808	268.1	45.4	-92.5	15.1
2025-01-04 20:11:54.129415	268.7	45.4	-92.4	12.3
2025-01-04 20:11:55.281449	269.3	45.3	-92.4	19.3
2025-01-04 20:11:56.439426	269.9	45.3	-92.0	14.9
2025-01-04 20:11:57.587479	270.5	45.2	-92.4	10.1
2025-01-04 20:11:58.738786	271.1	45.1	-92.7	17.9
2025-01-04 20:11:59.895495	271.7	45.1	-92.0	18.9
2025-01-04 20:12:01.045766	272.3	45.0	-92.3	11.6
2025-01-04 20:12:02.197433	272.8	45.0	-91.9	11.0
2025-01-04 20:12:03.359627	273.4	44.9	-92.0	9.7
2025-01-04 20:12:04.503501	274.0	44.8	-92.7	10.6
2025-01-04 20:12:05.654187	274.6	44.7	-92.8	17.4
2025-01-04 20:12:06.800849	275.2	44.6	-92.3	16.0
2025-01-04 20:12:07.948822	275.8	44.6	-92.6	12.9
2025-01-04 20:12:09.076856	276.3	44.5	-92.1	8.6
2025-01-04 20:12:10.213994	276.9	44.4	-92.4	16.2
2025-01-04 20:12:11.357125	277.4	44.3	-92.3	19.3
2025-01-04 20:12:12.503577	278.0	44.2	-92.4	11.1
2025-01-04 20:12:13.651867	278.6	44.1	-92.4	17.5
2025-01-04 20:12:14.804913	279.1	44.0	-92.5	15.2
2025-01-04 20:12:15.949468	279.7	43.9	-92.7	10.0
2025-01-04 20:12:17.100137	280.2	43.8	-92.3	16.6
2025-01-04 20:12:18.257605	280.8	43.7	-92.2	20.1
2025-01-04 20:12:19.403566	281.3	43.6	-92.1	13.4
2025-01-04 20:12:20.550837	281.9	43.5	-92.8	13.7
2025-01-04 20:12:21.704228	282.4	43.3	-92.9	18.8
2025-01-04 20:12:22.858999	282.9	43.2	-92.9	19.4
2025-01-04 20:12:24.009329	283.4	43.1	-92.7	12.2
2025-01-04 20:12:25.160396	284.0	43.0	-92.0	13.0
2025-01-04 20:12:26.318801	284.5	42.9	-92.0	20.5
2025-01-04 20:12:27.474718	285.0	42.7	-93.1	13.5
2025-01-04 20:12:28.621346	285.5	42.6	-93.3	11.1
2025-01-04 20:12:29.765853	286.0	42.5	-92.7	18.3
2025-01-04 20:12:30.917346	286.5	42.3	-92.8	16.8
2025-01-04 20:12:32.063230	287.0	42.2	-92.7	13.2
2025-01-04 20:12:33.201485	287.5	42.1	-91.9	19.9
2025-01-04 20:12:34.326914	288.0	41.9	-92.6	17.7
2025-01-04 20:12:35.475574	288.5	41.8	-92.1	18.7
2025-01-04 20:12:36.619581	289.0	41.7	-92.3	15.0
2025-01-04 20:12:37.766146	289.4	41.5	-92.8	21.7
2025-01-04 20:12:38.908308	289.9	41.4	-92.6	20.1
2025-01-04 20:12:40.052762	290.4	41.2	-92.9	9.8
2025-01-04 20:12:41.201843	290.8	41.1	-92.0	11.3
2025-01-04 20:12:42.360853	291.3	40.9	-92.2	10.8
2025-01-04 20:12:43.511025	291.8	40.8	-92.7	8.5
2025-01-04 20:12:44.660012	292.2	40.6	-92.4	11.0
2025-01-04 20:12:45.809871	292.7	40.5	-92.7	20.6
2025-01-04 20:12:46.963474	293.1	40.3	-91.8	12.5
2025-01-04 20:12:48.122648	293.6	40.2	-92.7	9.4
2025-01-04 20:12:49.277026	294.0	40.0	-92.4	16.1
2025-01-04 20:12:50.431799	294.4	39.8	-92.7	16.1
2025-01-04 20:12:51.583980	294.9	39.7	-92.5	9.4
2025-01-04 20:12:52.729100	295.3	39.5	-92.6	15.7
2025-01-04 20:12:53.877827	295.7	39.4	-92.7	12.7
2025-01-04 20:12:55.025527	296.1	39.2	-92.3	11.2
2025-01-04 20:12:56.176699	296.5	39.0	-92.4	7.8
2025-01-04 20:12:57.328726	296.9	38.9	-92.2	12.0
2025-01-04 20:12:58.479853	297.3	38.7	-92.8	10.2
2025-01-04 20:12:59.634487	297.7	38.5	-92.5	14.9
2025-01-04 20:13:00.773405	298.1	38.4	-92.6	21.0
2025-01-04 20:13:01.923732	298.5	38.2	-93.0	11.8
2025-01-04 20:13:03.074259	298.9	38.0	-92.2	9.4
2025-01-04 20:13:04.245590	299.3	37.9	-92.2	16.3
2025-01-04 20:13:05.401340	299.7	37.7	-92.6	15.8
2025-01-04 20:13:06.554271	300.1	37.5	-92.9	15.8
2025-01-04 20:13:07.703940	300.4	37.4	-92.5	10.6
2025-01-04 20:13:08.853083	300.8	37.2	-92.6	9.1
2025-01-04 20:13:09.996619	301.2	37.0	-92.7	13.0
2025-01-04 20:13:11.147069	301.5	36.8	-91.9	18.2
2025-01-04 20:13:12.300214	301.9	36.7	-92.1	10.2
2025-01-04 20:13:13.446664	302.2	36.5	-92.9	14.5
2025-01-04 20:13:14.601099	302.6	36.3	-92.5	9.8
2025-01-04 20:13:15.757589	302.9	36.2	-91.2	7.8
2025-01-04 20:13:16.913912	303.3	36.0	-92.6	12.6
2025-01-04 20:13:18.057076	303.6	35.8	-91.4	5.6
2025-01-04 20:13:19.209548	304.0	35.6	-90.8	16.1
2025-01-04 20:13:20.358761	304.3	35.5	-92.6	11.4
2025-01-04 20:13:21.511765	304.6	35.3	-92.7	7.4
2025-01-04 20:13:22.666678	304.9	35.1	-91.5	4.4
2025-01-04 20:13:23.817710	305.3	34.9	-92.7	8.3
2025-01-04 20:13:24.978430	305.6	34.8	-92.5	6.0
2025-01-04 20:13:26.122132	305.9	34.6	-92.5	8.2
2025-01-04 20:13:27.274030	306.2	34.4	-92.4	6.4
2025-01-04 20:13:28.424217	306.5	34.2	-92.1	10.8
2025-01-04 20:13:29.575276	306.8	34.1	-92.5	6.5
2025-01-04 20:13:30.726521	307.1	33.9	-92.9	7.5
2025-01-04 20:13:31.874869	307.4	33.7	-92.7	18.8
2025-01-04 20:13:33.024785	307.7	33.6	-91.3	8.2
2025-01-04 20:13:34.173276	308.0	33.4	-92.4	8.5
2025-01-04 20:13:35.322655	308.3	33.2	-92.1	6.6
2025-01-04 20:13:36.460960	308.6	33.0	-92.4	9.0
2025-01-04 20:13:37.582080	308.9	32.9	-92.4	10.2
2025-01-04 20:13:38.702548	309.2	32.7	-93.0	9.9
2025-01-04 20:13:39.823034	309.4	32.5	-92.7	6.5
2025-01-04 20:13:40.944237	309.7	32.4	-93.1	11.5
2025-01-04 20:13:42.065552	310.0	32.2	-92.3	11.5
2025-01-04 20:13:43.185752	310.2	32.0	-92.1	9.9
2025-01-04 20:13:44.309975	310.5	31.9	-92.6	5.9
2025-01-04 20:13:45.441505	310.7	31.7	-92.8	13.6
2025-01-04 20:13:46.591784	311.0	31.5	-92.6	15.6
2025-01-04 20:13:47.744722	311.3	31.4	-92.7	9.7
2025-01-04 20:13:48.904423	311.5	31.2	-92.5	14.8
2025-01-04 20:13:50.049832	311.8	31.0	-92.4	8.8
2025-01-04 20:13:51.196009	312.0	30.9	-92.7	11.0
2025-01-04 20:13:52.341093	312.3	30.7	-91.8	10.0
2025-01-04 20:13:53.488255	312.5	30.5	-92.7	10.4
2025-01-04 20:13:54.637462	312.8	30.3	-92.8	13.8
2025-01-04 20:13:55.784831	313.0	30.2	-92.6	11.8
2025-01-04 20:13:56.930657	313.3	30.0	-92.5	8.7
2025-01-04 20:13:58.078400	313.5	29.9	-92.6	12.2
2025-01-04 20:13:59.224555	313.7	29.7	-92.1	11.5
2025-01-04 20:14:00.366714	314.0	29.5	-92.2	13.4
2025-01-04 20:14:01.519909	314.2	29.4	-92.6	12.4
2025-01-04 20:14:02.674000	314.4	29.2	-93.0	10.9
2025-01-04 20:14:03.829401	314.6	29.0	-93.0	16.1
2025-01-04 20:14:04.977716	314.9	28.9	-93.1	7.3
2025-01-04 20:14:06.130211	315.1	28.7	-92.2	11.6
2025-01-04 20:14:07.276153	315.3	28.5	-92.2	14.4
2025-01-04 20:14:08.421973	315.5	28.4	-92.4	12.4
2025-01-04 20:14:09.574111	315.7	28.2	-91.9	11.0
2025-01-04 20:14:10.731394	316.0	28.1	-92.5	10.8
2025-01-04 20:14:11.893934	316.2	27.9	-92.0	17.6
2025-01-04 20:14:13.044578	316.4	27.7	-91.6	6.2
2025-01-04 20:14:14.192052	316.6	27.6	-92.2	8.1
2025-01-04 20:14:15.347036	316.8	27.4	-92.6	13.6
2025-01-04 20:14:16.499375	317.0	27.3	-92.8	9.0
2025-01-04 20:14:17.647124	317.2	27.1	-91.6	5.0
2025-01-04 20:14:18.786889	317.4	26.9	-92.4	11.9
2025-01-04 20:14:19.914386	317.6	26.8	-91.7	11.0
2025-01-04 20:14:21.054141	317.8	26.6	-90.7	9.2
2025-01-04 20:14:22.198821	318.0	26.5	-92.1	7.0
2025-01-04 20:14:23.339852	318.2	26.3	-91.8	10.5
2025-01-04 20:14:24.487753	318.3	26.2	-92.3	11.4
2025-01-04 20:14:25.633444	318.5	26.0	-92.6	12.2
2025-01-04 20:14:26.780070	318.7	25.9	-92.2	15.8
2025-01-04 20:14:27.930761	318.9	25.7	-92.4	17.1
2025-01-04 20:14:29.078776	319.1	25.6	-92.1	12.3
2025-01-04 20:14:30.229972	319.3	25.4	-90.6	8.6
2025-01-04 20:14:31.377169	319.4	25.3	-92.7	11.0
2025-01-04 20:14:32.521619	319.6	25.1	-91.2	9.8
2025-01-04 20:14:33.672600	319.8	25.0	-93.0	8.1
2025-01-04 20:14:34.821089	320.0	24.8	-90.1	11.6
2025-01-04 20:14:35.968987	320.1	24.7	-92.0	11.2
2025-01-04 20:14:37.122354	320.3	24.5	-90.8	6.0
2025-01-04 20:14:38.269205	320.5	24.4	-89.7	12.0
2025-01-04 20:14:39.434546	320.7	24.2	-91.3	6.8
2025-01-04 20:14:40.580833	320.8	24.1	-92.3	14.8
2025-01-04 20:14:41.734479	321.0	23.9	-92.5	12.2
2025-01-04 20:14:42.887042	321.2	23.8	-92.0	9.9
2025-01-04 20:14:44.047637	321.3	23.6	-90.8	7.6
2025-01-04 20:14:45.194473	321.5	23.5	-91.5	5.3
2025-01-04 20:14:46.342520	321.6	23.3	-91.4	5.6
2025-01-04 20:14:47.492651	321.8	23.2	-92.2	4.5
2025-01-04 20:14:48.643006	322.0	23.0	-93.0	5.3
2025-01-04 20:14:49.790994	322.1	22.9	-92.1	4.7
2025-01-04 20:14:50.945902	322.3	22.8	-92.5	8.5
2025-01-04 20:14:52.091769	322.4	22.6	-89.0	4.4
2025-01-04 20:14:53.217808	322.6	22.5	-89.9	8.1
2025-01-04 20:14:54.339247	322.7	22.4	-92.1	9.2
2025-01-04 20:14:55.460106	322.9	22.2	-91.9	10.3
2025-01-04 20:14:56.580061	323.0	22.1	-89.7	6.8
2025-01-04 20:14:57.701373	323.2	21.9	-92.3	15.1
2025-01-04 20:14:58.821350	323.3	21.8	-92.1	15.1
2025-01-04 20:14:59.941763	323.4	21.7	-93.1	7.3
2025-01-04 20:15:01.067275	323.6	21.5	-92.7	6.7
2025-01-04 20:15:02.212344	323.7	21.4	-92.5	7.1
2025-01-04 20:15:03.357347	323.9	21.3	-92.1	3.5
2025-01-04 20:15:04.506693	324.0	21.1	-92.2	8.0
2025-01-04 20:15:05.646890	324.1	21.0	-92.6	5.0
2025-01-04 20:15:06.789997	324.3	20.9	-92.8	8.4
2025-01-04 20:15:07.945379	324.4	20.7	-90.8	7.7
2025-01-04 20:15:09.088687	324.5	20.6	-92.1	7.5
2025-01-04 20:15:10.242251	324.7	20.5	-91.9	6.9
2025-01-04 20:15:11.369112	324.8	20.3	-92.6	5.5
2025-01-04 20:15:12.516325	324.9	20.2	-91.6	5.0
2025-01-04 20:15:13.656059	325.1	20.1	-93.0	3.1
2025-01-04 20:15:14.808999	325.2	20.0	-91.8	3.7
2025-01-04 20:15:15.955206	325.3	19.8	-89.0	4.7
2025-01-04 20:15:17.103628	325.5	19.7	-92.1	4.2
2025-01-04 20:15:18.248913	325.6	19.6	-92.7	6.2
2025-01-04 20:15:19.398911	325.7	19.4	-92.5	4.0
2025-01-04 20:15:20.550748	325.8	19.3	-92.5	3.3
2025-01-04 20:15:21.698316	326.0	19.2	-92.9	4.4
2025-01-04 20:15:22.849734	326.1	19.1	-92.9	4.9
2025-01-04 20:15:23.993976	326.2	18.9	-92.8	3.4
2025-01-04 20:15:25.144863	326.3	18.8	-92.1	3.8
2025-01-04 20:15:26.298990	326.4	18.7	-92.5	2.6
2025-01-04 20:15:27.452295	326.6	18.6	-92.7	2.9
2025-01-04 20:15:28.604318	326.7	18.4	-92.8	5.6
2025-01-04 20:15:29.750660	326.8	18.3	-92.5	5.1
2025-01-04 20:15:30.897613	326.9	18.2	-92.6	5.0
2025-01-04 20:15:32.048139	327.0	18.1	-92.2	5.5
2025-01-04 20:15:33.185383	327.1	17.9	-92.5	5.3
2025-01-04 20:15:34.316070	327.2	17.8	-92.2	5.6
2025-01-04 20:15:35.463292	327.4	17.7	-92.6	5.3
2025-01-04 20:15:36.604005	327.5	17.6	-92.9	5.1
2025-01-04 20:15:37.746428	327.6	17.5	-92.3	4.3
2025-01-04 20:15:38.889630	327.7	17.3	-93.1	4.9
2025-01-04 20:15:40.039761	327.8	17.2	-92.6	3.7
2025-01-04 20:15:41.190675	327.9	17.1	-92.2	4.4
2025-01-04 20:15:42.338282	328.0	17.0	-92.6	4.3
2025-01-04 20:15:43.480993	328.1	16.9	-93.3	4.1
2025-01-04 20:15:44.637346	328.2	16.8	-93.0	5.8
2025-01-04 20:15:45.788618	328.3	16.6	-93.0	6.8
2025-01-04 20:15:46.935859	328.4	16.5	-91.9	3.9
2025-01-04 20:15:48.085652	328.5	16.4	-92.3	7.3
2025-01-04 20:15:49.239579	328.7	16.3	-92.7	3.8
2025-01-04 20:15:50.387292	328.8	16.2	-92.3	7.1
2025-01-04 20:15:51.534456	328.9	16.1	-93.0	4.5
2025-01-04 20:15:52.694036	329.0	15.9	-92.7	6.4
2025-01-04 20:15:53.849586	329.1	15.8	-92.8	9.1
2025-01-04 20:15:54.997175	329.2	15.7	-91.7	5.5
2025-01-04 20:15:56.152057	329.3	15.6	-91.6	3.9
2025-01-04 20:15:57.314584	329.4	15.5	-91.2	7.6
2025-01-04 20:15:58.468252	329.5	15.4	-91.9	5.1
2025-01-04 20:15:59.619571	329.6	15.3	-92.1	3.8
2025-01-04 20:16:00.766510	329.6	15.2	-92.5	4.7
2025-01-04 20:16:01.916187	329.7	15.0	-92.8	6.7
2025-01-04 20:16:03.072144	329.8	14.9	-92.2	5.3
2025-01-04 20:16:04.217509	329.9	14.8	-92.5	6.3
2025-01-04 20:16:05.370594	330.0	14.7	-92.6	6.5
2025-01-04 20:16:06.516964	330.1	14.6	-92.9	8.4
2025-01-04 20:16:07.649891	330.2	14.5	-92.4	4.0
#Closed at: 2025-01-04 20:07:20.783421