passes_logs/2025/01/04/LEX_Murmansk/LEX_Murmansk__20250104_075835_NOAA_19_rec.log

#Pass ID: 20250104_075835_NOAA 19
#Satellite: NOAA 19
#Configuration: NOAA 19
#Start time: 2025-01-04 07:58:30.840318

#LorettStation: 1.0.0 05.05.2024
#Station: LEX_Murmansk
#Location: 33.156738 lon 68.926811 lat
#TLE: 1 33591U 09005A   25003.74725296  .00000502  00000+0  29188-3 0  9994
#TLE: 2 33591  99.0215  67.4219 0014696  87.4906 272.7948 14.13249552819955

#Time	Az	El	Level	SNR
2025-01-04 07:58:42.954487	30.2	16.2	-91.9	1.7
2025-01-04 07:58:44.075067	30.3	16.4	-91.7	3.6
2025-01-04 07:58:45.196377	30.4	16.5	-92.0	2.4
2025-01-04 07:58:46.321201	30.4	16.6	-91.7	4.6
2025-01-04 07:58:47.476416	30.5	16.7	-91.8	3.5
2025-01-04 07:58:48.614481	30.6	16.8	-91.8	1.9
2025-01-04 07:58:49.765863	30.7	17.0	-91.3	2.6
2025-01-04 07:58:50.932731	30.8	17.1	-92.0	3.7
2025-01-04 07:58:52.088513	30.9	17.2	-91.7	2.0
2025-01-04 07:58:53.250363	30.9	17.3	-91.7	2.7
2025-01-04 07:58:54.410707	31.0	17.5	-91.7	0.9
2025-01-04 07:58:55.570374	31.1	17.6	-92.1	3.9
2025-01-04 07:58:56.738234	31.2	17.7	-91.7	0.8
2025-01-04 07:58:57.893312	31.3	17.9	-92.0	0.4
2025-01-04 07:58:59.053264	31.4	18.0	-91.8	1.2
2025-01-04 07:59:00.212591	31.5	18.1	-91.6	0.8
2025-01-04 07:59:01.372499	31.6	18.3	-91.6	1.2
2025-01-04 07:59:02.532810	31.7	18.4	-91.8	1.1
2025-01-04 07:59:03.693767	31.8	18.5	-91.5	2.2
2025-01-04 07:59:04.856659	31.9	18.7	-92.0	4.5
2025-01-04 07:59:06.024172	32.0	18.8	-91.7	2.3
2025-01-04 07:59:07.179976	32.0	18.9	-92.5	4.8
2025-01-04 07:59:08.337893	32.1	19.1	-92.3	2.6
2025-01-04 07:59:09.491189	32.2	19.2	-92.3	7.6
2025-01-04 07:59:10.647671	32.3	19.3	-92.5	2.8
2025-01-04 07:59:11.806435	32.4	19.5	-92.5	5.6
2025-01-04 07:59:12.974066	32.5	19.6	-92.3	1.3
2025-01-04 07:59:14.139232	32.6	19.7	-92.0	2.2
2025-01-04 07:59:15.297350	32.7	19.9	-92.0	0.6
2025-01-04 07:59:16.459496	32.8	20.0	-92.5	5.4
2025-01-04 07:59:17.619895	32.9	20.2	-92.6	3.1
2025-01-04 07:59:18.777739	33.1	20.3	-92.5	9.5
2025-01-04 07:59:19.936411	33.2	20.4	-92.6	6.1
2025-01-04 07:59:21.101988	33.3	20.6	-91.9	6.0
2025-01-04 07:59:22.266156	33.4	20.7	-92.5	4.8
2025-01-04 07:59:23.429277	33.5	20.9	-92.8	4.3
2025-01-04 07:59:24.592554	33.6	21.0	-92.7	8.0
2025-01-04 07:59:25.755330	33.7	21.2	-92.8	4.1
2025-01-04 07:59:26.917930	33.8	21.3	-92.8	7.5
2025-01-04 07:59:28.083347	33.9	21.5	-92.5	6.0
2025-01-04 07:59:29.242012	34.0	21.6	-92.3	3.4
2025-01-04 07:59:30.406077	34.2	21.8	-92.6	3.3
2025-01-04 07:59:31.572076	34.3	21.9	-92.3	1.1
2025-01-04 07:59:32.731985	34.4	22.1	-92.6	1.0
2025-01-04 07:59:33.899473	34.5	22.2	-92.9	2.0
2025-01-04 07:59:35.061138	34.6	22.4	-92.0	9.1
2025-01-04 07:59:36.221254	34.7	22.5	-91.8	9.9
2025-01-04 07:59:37.379623	34.9	22.7	-92.0	3.6
2025-01-04 07:59:38.538906	35.0	22.8	-92.2	4.9
2025-01-04 07:59:39.702623	35.1	23.0	-92.2	4.3
2025-01-04 07:59:40.863785	35.2	23.1	-91.6	5.0
2025-01-04 07:59:42.024044	35.4	23.3	-92.1	11.4
2025-01-04 07:59:43.192226	35.5	23.4	-92.4	9.9
2025-01-04 07:59:44.349662	35.6	23.6	-91.8	6.0
2025-01-04 07:59:45.522106	35.7	23.8	-92.1	8.8
2025-01-04 07:59:46.694871	35.9	23.9	-92.4	4.7
2025-01-04 07:59:47.849831	36.0	24.1	-92.6	3.1
2025-01-04 07:59:49.011348	36.1	24.2	-92.7	4.4
2025-01-04 07:59:50.175974	36.3	24.4	-92.2	2.1
2025-01-04 07:59:51.349396	36.4	24.6	-92.3	6.5
2025-01-04 07:59:52.516083	36.5	24.7	-92.3	8.3
2025-01-04 07:59:53.670431	36.7	24.9	-92.4	13.3
2025-01-04 07:59:54.846663	36.8	25.1	-92.6	8.8
2025-01-04 07:59:56.010005	37.0	25.2	-92.7	6.4
2025-01-04 07:59:57.176773	37.1	25.4	-92.2	3.7
2025-01-04 07:59:58.340656	37.3	25.6	-92.4	7.4
2025-01-04 07:59:59.509329	37.4	25.7	-92.4	8.8
2025-01-04 08:00:00.663841	37.6	25.9	-92.6	7.0
2025-01-04 08:00:01.826013	37.7	26.1	-92.7	11.0
2025-01-04 08:00:02.988235	37.8	26.3	-92.7	8.3
2025-01-04 08:00:04.149311	38.0	26.4	-92.3	4.7
2025-01-04 08:00:05.313352	38.2	26.6	-92.3	3.1
2025-01-04 08:00:06.473978	38.3	26.8	-92.7	3.6
2025-01-04 08:00:07.642648	38.5	26.9	-92.7	1.6
2025-01-04 08:00:08.803870	38.6	27.1	-93.0	2.5
2025-01-04 08:00:09.969236	38.8	27.3	-92.6	7.4
2025-01-04 08:00:11.137313	38.9	27.5	-92.5	9.9
2025-01-04 08:00:12.297791	39.1	27.7	-91.7	12.2
2025-01-04 08:00:13.463808	39.3	27.8	-91.9	8.7
2025-01-04 08:00:14.627455	39.4	28.0	-92.5	8.1
2025-01-04 08:00:15.792924	39.6	28.2	-91.8	3.9
2025-01-04 08:00:16.954340	39.8	28.4	-92.1	5.7
2025-01-04 08:00:18.114994	40.0	28.6	-92.4	9.8
2025-01-04 08:00:19.279995	40.1	28.8	-92.6	6.0
2025-01-04 08:00:20.443836	40.3	28.9	-92.2	8.3
2025-01-04 08:00:21.609811	40.5	29.1	-92.3	2.6
2025-01-04 08:00:22.774869	40.7	29.3	-92.1	1.8
2025-01-04 08:00:23.938239	40.9	29.5	-92.6	3.2
2025-01-04 08:00:25.095387	41.0	29.7	-92.7	2.9
2025-01-04 08:00:26.265954	41.2	29.9	-92.6	1.6
2025-01-04 08:00:27.433263	41.4	30.1	-92.4	1.9
2025-01-04 08:00:28.598906	41.6	30.3	-92.5	5.4
2025-01-04 08:00:29.761732	41.8	30.5	-92.5	10.0
2025-01-04 08:00:30.929639	42.0	30.7	-92.5	11.7
2025-01-04 08:00:32.095509	42.2	30.9	-92.0	11.1
2025-01-04 08:00:33.256973	42.4	31.1	-92.2	3.9
2025-01-04 08:00:34.426234	42.6	31.3	-92.0	7.2
2025-01-04 08:00:35.587462	42.8	31.5	-92.2	3.0
2025-01-04 08:00:36.756572	43.0	31.7	-92.3	3.3
2025-01-04 08:00:37.918902	43.2	31.9	-92.8	9.5
2025-01-04 08:00:39.078812	43.4	32.1	-92.2	12.7
2025-01-04 08:00:40.237859	43.7	32.3	-91.9	11.0
2025-01-04 08:00:41.395303	43.9	32.5	-92.4	7.6
2025-01-04 08:00:42.563624	44.1	32.7	-92.9	3.9
2025-01-04 08:00:43.724271	44.3	32.9	-92.8	2.9
2025-01-04 08:00:44.889220	44.5	33.1	-90.0	2.8
2025-01-04 08:00:46.047626	44.8	33.3	-92.3	8.6
2025-01-04 08:00:47.207202	45.0	33.5	-92.2	5.0
2025-01-04 08:00:48.364825	45.2	33.7	-92.0	14.5
2025-01-04 08:00:49.525827	45.5	33.9	-92.3	17.1
2025-01-04 08:00:50.690387	45.7	34.1	-91.6	16.5
2025-01-04 08:00:51.854898	46.0	34.3	-92.8	8.2
2025-01-04 08:00:53.018859	46.2	34.5	-92.5	14.4
2025-01-04 08:00:54.188183	46.5	34.8	-92.2	6.6
2025-01-04 08:00:55.350071	46.7	35.0	-91.9	7.8
2025-01-04 08:00:56.511598	47.0	35.2	-91.9	16.8
2025-01-04 08:00:57.677184	47.2	35.4	-92.2	16.6
2025-01-04 08:00:58.836095	47.5	35.6	-92.3	15.6
2025-01-04 08:01:00.004801	47.8	35.8	-91.0	12.5
2025-01-04 08:01:01.149906	48.0	36.0	-91.8	3.2
2025-01-04 08:01:02.311486	48.3	36.3	-91.8	4.5
2025-01-04 08:01:03.473647	48.6	36.5	-92.6	7.4
2025-01-04 08:01:04.633838	48.9	36.7	-92.3	8.5
2025-01-04 08:01:05.794039	49.1	36.9	-92.5	4.2
2025-01-04 08:01:06.967728	49.4	37.2	-91.8	6.9
2025-01-04 08:01:08.127437	49.7	37.4	-91.8	10.7
2025-01-04 08:01:09.298317	50.0	37.6	-91.5	14.4
2025-01-04 08:01:10.462425	50.3	37.8	-92.5	14.4
2025-01-04 08:01:11.626321	50.6	38.0	-92.6	16.8
2025-01-04 08:01:12.794763	50.9	38.3	-92.4	12.7
2025-01-04 08:01:13.960772	51.3	38.5	-92.8	15.8
2025-01-04 08:01:15.123209	51.6	38.7	-92.7	11.2
2025-01-04 08:01:16.299560	51.9	39.0	-92.4	8.9
2025-01-04 08:01:17.460171	52.2	39.2	-92.9	13.4
2025-01-04 08:01:18.613855	52.6	39.4	-92.6	19.6
2025-01-04 08:01:19.774170	52.9	39.6	-92.7	19.2
2025-01-04 08:01:20.940892	53.2	39.9	-92.8	14.0
2025-01-04 08:01:22.106018	53.6	40.1	-92.8	11.9
2025-01-04 08:01:23.269032	53.9	40.3	-92.6	7.8
2025-01-04 08:01:24.434520	54.3	40.6	-92.2	7.5
2025-01-04 08:01:25.593221	54.6	40.8	-92.3	6.7
2025-01-04 08:01:26.759741	55.0	41.0	-92.1	4.0
2025-01-04 08:01:27.918962	55.4	41.2	-92.0	6.2
2025-01-04 08:01:29.081316	55.8	41.5	-91.5	8.8
2025-01-04 08:01:30.243539	56.1	41.7	-91.9	9.8
2025-01-04 08:01:31.400796	56.5	41.9	-92.6	14.0
2025-01-04 08:01:32.556407	56.9	42.2	-92.4	17.3
2025-01-04 08:01:33.715853	57.3	42.4	-92.5	18.1
2025-01-04 08:01:34.879101	57.7	42.6	-92.4	16.8
2025-01-04 08:01:36.023968	58.1	42.8	-92.6	15.6
2025-01-04 08:01:37.144549	58.5	43.1	-92.5	12.8
2025-01-04 08:01:38.299764	58.9	43.3	-92.3	7.2
2025-01-04 08:01:39.456208	59.3	43.5	-92.7	10.5
2025-01-04 08:01:40.635607	59.8	43.8	-92.3	13.9
2025-01-04 08:01:41.799419	60.2	44.0	-92.1	11.3
2025-01-04 08:01:42.965039	60.7	44.2	-92.5	15.0
2025-01-04 08:01:44.127893	61.1	44.4	-92.0	15.5
2025-01-04 08:01:45.289105	61.6	44.7	-91.9	15.2
2025-01-04 08:01:46.450266	62.0	44.9	-92.7	11.7
2025-01-04 08:01:47.612148	62.5	45.1	-92.0	11.6
2025-01-04 08:01:48.769649	63.0	45.3	-92.9	7.1
2025-01-04 08:01:49.942280	63.5	45.6	-92.5	6.5
2025-01-04 08:01:51.112883	64.0	45.8	-92.6	4.4
2025-01-04 08:01:52.275678	64.5	46.0	-92.7	1.7
2025-01-04 08:01:53.433226	65.0	46.2	-92.6	4.7
2025-01-04 08:01:54.594097	65.5	46.5	-92.8	8.0
2025-01-04 08:01:55.738240	66.0	46.7	-92.5	7.2
2025-01-04 08:01:56.892511	66.5	46.9	-92.7	7.5
2025-01-04 08:01:58.056802	67.0	47.1	-92.4	7.2
2025-01-04 08:01:59.215521	67.6	47.3	-92.4	9.8
2025-01-04 08:02:00.368178	68.1	47.5	-92.1	15.2
2025-01-04 08:02:01.531902	68.7	47.7	-92.3	13.3
2025-01-04 08:02:02.695125	69.2	47.9	-92.6	8.8
2025-01-04 08:02:03.854837	69.8	48.1	-92.7	6.4
2025-01-04 08:02:05.015070	70.4	48.4	-92.6	5.6
2025-01-04 08:02:06.178575	70.9	48.6	-92.5	5.4
2025-01-04 08:02:07.339549	71.5	48.8	-92.2	3.3
2025-01-04 08:02:08.497520	72.1	49.0	-92.5	5.3
2025-01-04 08:02:09.661953	72.7	49.1	-92.5	5.7
2025-01-04 08:02:10.822359	73.4	49.3	-92.4	6.7
2025-01-04 08:02:11.984903	74.0	49.5	-92.6	7.3
2025-01-04 08:02:13.145241	74.6	49.7	-92.5	4.5
2025-01-04 08:02:14.309706	75.2	49.9	-92.6	3.5
2025-01-04 08:02:15.478411	75.9	50.1	-92.6	7.0
2025-01-04 08:02:16.632099	76.5	50.3	-92.8	8.0
2025-01-04 08:02:17.790238	77.2	50.4	-92.9	7.8
2025-01-04 08:02:18.944610	77.9	50.6	-92.7	8.3
2025-01-04 08:02:20.110451	78.5	50.8	-92.4	5.8
2025-01-04 08:02:21.275590	79.2	50.9	-92.3	0.7
2025-01-04 08:02:22.440343	79.9	51.1	-92.4	5.5
2025-01-04 08:02:23.600205	80.6	51.3	-92.7	4.9
2025-01-04 08:02:24.759203	81.3	51.4	-92.7	2.0
2025-01-04 08:02:25.915786	82.0	51.6	-92.7	4.3
2025-01-04 08:02:27.081382	82.7	51.7	-92.5	6.9
2025-01-04 08:02:28.246024	83.5	51.8	-92.2	5.2
2025-01-04 08:02:29.409477	84.2	52.0	-92.8	6.5
2025-01-04 08:02:30.570206	84.9	52.1	-92.9	11.6
2025-01-04 08:02:31.739424	85.7	52.2	-92.9	11.4
2025-01-04 08:02:32.902483	86.4	52.4	-92.4	11.9
2025-01-04 08:02:34.059437	87.2	52.5	-92.3	11.1
2025-01-04 08:02:35.223837	87.9	52.6	-92.0	13.3
2025-01-04 08:02:36.384084	88.7	52.7	-92.2	12.3
2025-01-04 08:02:37.547027	89.5	52.8	-92.4	11.0
2025-01-04 08:02:38.703562	90.3	52.9	-92.2	12.0
2025-01-04 08:02:39.867182	91.0	53.0	-92.1	9.5
2025-01-04 08:02:41.023998	91.8	53.1	-92.2	6.6
2025-01-04 08:02:42.186539	92.6	53.2	-92.2	8.0
2025-01-04 08:02:43.348662	93.4	53.3	-92.1	7.4
2025-01-04 08:02:44.517515	94.2	53.3	-91.9	9.7
2025-01-04 08:02:45.683167	95.0	53.4	-92.1	8.3
2025-01-04 08:02:46.850648	95.9	53.5	-92.0	6.3
2025-01-04 08:02:48.019150	96.7	53.5	-92.0	10.9
2025-01-04 08:02:49.173121	97.5	53.6	-91.6	5.9
2025-01-04 08:02:50.332775	98.3	53.6	-92.3	6.3
2025-01-04 08:02:51.494359	99.1	53.6	-92.2	8.9
2025-01-04 08:02:52.657332	99.9	53.7	-92.8	9.2
2025-01-04 08:02:53.815040	100.8	53.7	-92.7	5.8
2025-01-04 08:02:54.975667	101.6	53.7	-92.7	8.6
2025-01-04 08:02:56.133958	102.4	53.7	-92.7	4.2
2025-01-04 08:02:57.291397	103.2	53.7	-92.7	9.2
2025-01-04 08:02:58.455975	104.1	53.7	-92.1	8.6
2025-01-04 08:02:59.613617	104.9	53.7	-92.5	6.9
2025-01-04 08:03:00.765524	105.7	53.7	-92.5	7.6
2025-01-04 08:03:01.927681	106.5	53.7	-92.9	6.9
2025-01-04 08:03:03.082554	107.4	53.7	-92.8	2.6
2025-01-04 08:03:04.358190	108.3	53.7	-92.9	1.6
2025-01-04 08:03:05.519217	109.1	53.6	-92.9	3.1
2025-01-04 08:03:06.679070	109.9	53.6	-92.1	5.9
2025-01-04 08:03:07.843116	110.7	53.5	-92.2	7.9
2025-01-04 08:03:08.997789	111.5	53.5	-92.3	5.7
2025-01-04 08:03:10.162700	112.4	53.4	-92.0	4.7
2025-01-04 08:03:11.322786	113.2	53.4	-91.9	9.6
2025-01-04 08:03:12.487072	114.0	53.3	-92.3	5.3
2025-01-04 08:03:13.648410	114.8	53.2	-91.9	6.1
2025-01-04 08:03:14.813622	115.6	53.2	-92.1	9.4
2025-01-04 08:03:15.977204	116.4	53.1	-92.3	11.2
2025-01-04 08:03:17.139460	117.2	53.0	-92.2	9.6
2025-01-04 08:03:18.295285	117.9	52.9	-92.4	8.5
2025-01-04 08:03:19.448119	118.7	52.8	-92.2	8.7
2025-01-04 08:03:20.610959	119.5	52.7	-92.4	9.3
2025-01-04 08:03:21.777376	120.3	52.6	-92.3	8.0
2025-01-04 08:03:22.940421	121.0	52.5	-92.5	9.1
2025-01-04 08:03:24.104431	121.8	52.3	-92.2	6.9
2025-01-04 08:03:25.260838	122.5	52.2	-92.1	6.4
2025-01-04 08:03:26.424465	123.3	52.1	-92.1	6.6
2025-01-04 08:03:27.588875	124.0	52.0	-92.3	6.8
2025-01-04 08:03:28.752334	124.7	51.8	-92.3	4.6
2025-01-04 08:03:29.903135	125.5	51.7	-92.7	4.6
2025-01-04 08:03:31.063547	126.2	51.5	-92.1	8.8
2025-01-04 08:03:32.227570	126.9	51.4	-92.2	4.8
2025-01-04 08:03:33.384139	127.6	51.2	-92.4	2.4
2025-01-04 08:03:34.541535	128.3	51.1	-92.8	6.5
2025-01-04 08:03:35.703180	129.0	50.9	-92.6	5.2
2025-01-04 08:03:36.864236	129.6	50.7	-92.5	1.2
2025-01-04 08:03:38.024733	130.3	50.6	-92.2	3.5
2025-01-04 08:03:39.188699	131.0	50.4	-91.8	3.3
2025-01-04 08:03:40.352626	131.6	50.2	-92.0	3.1
2025-01-04 08:03:41.515292	132.3	50.0	-92.5	5.4
2025-01-04 08:03:42.682146	132.9	49.9	-92.7	4.5
2025-01-04 08:03:43.839636	133.6	49.7	-92.6	5.1
2025-01-04 08:03:45.001744	134.2	49.5	-92.2	9.5
2025-01-04 08:03:46.161306	134.8	49.3	-91.9	5.6
2025-01-04 08:03:47.321680	135.4	49.1	-91.9	3.4
2025-01-04 08:03:48.487294	136.0	48.9	-92.2	5.8
2025-01-04 08:03:49.654034	136.6	48.7	-92.2	7.4
2025-01-04 08:03:50.810566	137.2	48.5	-92.0	3.6
2025-01-04 08:03:51.974129	137.8	48.3	-92.0	10.2
2025-01-04 08:03:53.137135	138.4	48.1	-92.1	7.8
2025-01-04 08:03:54.305016	138.9	47.9	-92.2	11.8
2025-01-04 08:03:55.469211	139.5	47.7	-92.0	7.6
2025-01-04 08:03:56.632638	140.1	47.5	-92.5	7.6
2025-01-04 08:03:57.803628	140.6	47.3	-92.5	7.2
2025-01-04 08:03:58.965551	141.1	47.0	-92.2	12.1
2025-01-04 08:04:00.123474	141.7	46.8	-92.2	12.5
2025-01-04 08:04:01.274664	142.2	46.6	-92.2	14.3
2025-01-04 08:04:02.438647	142.7	46.4	-92.4	19.6
2025-01-04 08:04:03.597264	143.2	46.2	-92.5	18.9
2025-01-04 08:04:04.761174	143.7	45.9	-92.5	17.0
2025-01-04 08:04:05.919123	144.2	45.7	-91.7	14.0
2025-01-04 08:04:07.082457	144.7	45.5	-92.0	15.9
2025-01-04 08:04:08.243212	145.2	45.3	-92.8	18.0
2025-01-04 08:04:09.400491	145.7	45.1	-92.6	16.0
2025-01-04 08:04:10.579604	146.1	44.8	-92.9	13.6
2025-01-04 08:04:11.745524	146.6	44.6	-93.1	16.7
2025-01-04 08:04:12.910024	147.0	44.4	-93.1	12.7
2025-01-04 08:04:14.074089	147.5	44.1	-92.9	9.6
2025-01-04 08:04:15.238490	147.9	43.9	-92.6	11.6
2025-01-04 08:04:16.405137	148.4	43.7	-92.7	8.3
2025-01-04 08:04:17.565578	148.8	43.5	-93.1	8.5
2025-01-04 08:04:18.724463	149.2	43.2	-92.9	16.7
2025-01-04 08:04:19.880490	149.6	43.0	-92.5	13.3
2025-01-04 08:04:21.045825	150.1	42.8	-92.3	8.2
2025-01-04 08:04:22.207813	150.5	42.5	-92.3	15.2
2025-01-04 08:04:23.374427	150.9	42.3	-92.2	9.6
2025-01-04 08:04:24.533185	151.3	42.1	-92.5	3.2
2025-01-04 08:04:25.692360	151.6	41.8	-92.4	11.9
2025-01-04 08:04:26.859090	152.0	41.6	-92.0	14.3
2025-01-04 08:04:28.019161	152.4	41.4	-92.2	7.2
2025-01-04 08:04:29.177125	152.8	41.1	-92.2	13.3
2025-01-04 08:04:30.343689	153.2	40.9	-92.2	16.7
2025-01-04 08:04:31.510337	153.5	40.7	-92.7	14.0
2025-01-04 08:04:32.678406	153.9	40.5	-92.8	16.5
2025-01-04 08:04:33.840998	154.2	40.2	-92.2	15.9
2025-01-04 08:04:35.004512	154.6	40.0	-92.1	14.2
2025-01-04 08:04:36.169418	154.9	39.8	-92.1	5.4
2025-01-04 08:04:37.332938	155.3	39.5	-91.8	10.4
2025-01-04 08:04:38.498793	155.6	39.3	-92.2	11.6
2025-01-04 08:04:39.661805	155.9	39.1	-91.7	9.0
2025-01-04 08:04:40.822704	156.3	38.9	-91.8	9.6
2025-01-04 08:04:41.977923	156.6	38.6	-92.2	7.6
2025-01-04 08:04:43.130922	156.9	38.4	-87.2	10.4
2025-01-04 08:04:44.293685	157.2	38.2	-90.7	12.6
2025-01-04 08:04:45.453507	157.5	38.0	-91.7	4.7
2025-01-04 08:04:46.617032	157.8	37.7	-91.9	3.2
2025-01-04 08:04:47.783892	158.1	37.5	-92.7	6.8
2025-01-04 08:04:48.943302	158.4	37.3	-92.4	5.5
2025-01-04 08:04:50.105249	158.7	37.1	-92.0	3.6
2025-01-04 08:04:51.265554	159.0	36.8	-91.8	11.4
2025-01-04 08:04:52.431019	159.3	36.6	-92.5	10.5
2025-01-04 08:04:53.596658	159.5	36.4	-92.7	5.3
2025-01-04 08:04:54.761679	159.8	36.2	-92.8	13.2
2025-01-04 08:04:55.920299	160.1	36.0	-92.6	11.2
2025-01-04 08:04:57.087848	160.4	35.7	-92.1	6.0
2025-01-04 08:04:58.252040	160.6	35.5	-92.1	12.9
2025-01-04 08:04:59.389192	160.9	35.3	-90.0	8.3
2025-01-04 08:05:00.537737	161.1	35.1	-88.7	7.8
2025-01-04 08:05:01.701926	161.4	34.9	-92.7	10.7
2025-01-04 08:05:02.864134	161.7	34.7	-89.9	15.9
2025-01-04 08:05:04.022913	161.9	34.4	-92.4	10.0
2025-01-04 08:05:05.185611	162.1	34.2	-91.9	13.9
2025-01-04 08:05:06.346973	162.4	34.0	-92.2	11.1
2025-01-04 08:05:07.510858	162.6	33.8	-92.8	3.9
2025-01-04 08:05:08.676619	162.9	33.6	-92.7	9.9
2025-01-04 08:05:09.832732	163.1	33.4	-92.6	9.4
2025-01-04 08:05:10.995294	163.3	33.2	-92.5	5.6
2025-01-04 08:05:12.161399	163.6	33.0	-91.6	8.7
2025-01-04 08:05:13.322859	163.8	32.8	-89.5	8.6
2025-01-04 08:05:14.483104	164.0	32.6	-92.2	5.4
2025-01-04 08:05:15.644660	164.2	32.4	-92.5	6.7
2025-01-04 08:05:16.802267	164.4	32.2	-92.2	8.3
2025-01-04 08:05:17.963491	164.7	32.0	-90.9	8.5
2025-01-04 08:05:19.126551	164.9	31.8	-92.2	11.8
2025-01-04 08:05:20.283079	165.1	31.6	-92.4	10.2
2025-01-04 08:05:21.459141	165.3	31.4	-92.1	13.1
2025-01-04 08:05:22.624057	165.5	31.2	-92.7	10.6
2025-01-04 08:05:23.784109	165.7	31.0	-93.2	13.8
2025-01-04 08:05:24.945528	165.9	30.8	-92.8	8.3
2025-01-04 08:05:26.121857	166.1	30.6	-92.1	6.3
2025-01-04 08:05:27.286910	166.3	30.4	-92.3	5.4
2025-01-04 08:05:28.452072	166.5	30.2	-92.4	3.4
2025-01-04 08:05:29.605112	166.7	30.0	-92.1	4.1
2025-01-04 08:05:30.762175	166.9	29.8	-92.1	8.7
2025-01-04 08:05:31.923560	167.1	29.6	-92.6	5.6
2025-01-04 08:05:33.083782	167.2	29.4	-91.2	7.9
2025-01-04 08:05:34.245340	167.4	29.2	-92.4	10.1
2025-01-04 08:05:35.412868	167.6	29.0	-93.1	8.1
2025-01-04 08:05:36.571716	167.8	28.9	-93.0	11.7
2025-01-04 08:05:37.738650	168.0	28.7	-93.2	10.8
2025-01-04 08:05:38.896646	168.1	28.5	-92.5	6.5
2025-01-04 08:05:40.053224	168.3	28.3	-91.7	7.8
2025-01-04 08:05:41.211226	168.5	28.1	-92.4	8.4
2025-01-04 08:05:42.373443	168.6	27.9	-92.5	9.2
2025-01-04 08:05:43.533848	168.8	27.7	-92.3	6.1
2025-01-04 08:05:44.699037	169.0	27.6	-92.5	9.6
2025-01-04 08:05:45.862834	169.1	27.4	-92.4	5.2
2025-01-04 08:05:47.027103	169.3	27.2	-92.4	2.2
2025-01-04 08:05:48.186919	169.5	27.0	-92.4	2.3
2025-01-04 08:05:49.350825	169.6	26.9	-92.3	2.8
2025-01-04 08:05:50.514727	169.8	26.7	-92.5	2.5
2025-01-04 08:05:51.676675	169.9	26.5	-91.8	6.0
2025-01-04 08:05:52.839063	170.1	26.3	-92.1	8.8
2025-01-04 08:05:53.999976	170.2	26.2	-92.3	6.5
2025-01-04 08:05:55.163172	170.4	26.0	-92.0	8.5
2025-01-04 08:05:56.319291	170.5	25.8	-93.2	11.5
2025-01-04 08:05:57.481221	170.7	25.6	-93.3	9.7
2025-01-04 08:05:58.641604	170.8	25.5	-93.0	7.7
2025-01-04 08:05:59.800469	171.0	25.3	-92.8	8.1
2025-01-04 08:06:00.944387	171.1	25.1	-92.7	7.0
2025-01-04 08:06:02.109564	171.2	25.0	-92.7	7.3
2025-01-04 08:06:03.270011	171.4	24.8	-92.1	11.6
2025-01-04 08:06:04.431122	171.5	24.6	-92.7	8.4
2025-01-04 08:06:05.586743	171.7	24.5	-92.6	5.3
2025-01-04 08:06:06.749610	171.8	24.3	-92.3	11.4
2025-01-04 08:06:07.910356	171.9	24.2	-92.3	8.9
2025-01-04 08:06:09.078127	172.1	24.0	-92.4	9.4
2025-01-04 08:06:10.233739	172.2	23.8	-92.5	11.4
2025-01-04 08:06:11.396605	172.3	23.7	-92.4	10.7
2025-01-04 08:06:12.559568	172.4	23.5	-92.4	11.2
2025-01-04 08:06:13.719932	172.6	23.4	-92.7	12.2
2025-01-04 08:06:14.882214	172.7	23.2	-92.7	12.1
2025-01-04 08:06:16.044799	172.8	23.0	-91.5	7.1
2025-01-04 08:06:17.213521	172.9	22.9	-91.9	10.5
2025-01-04 08:06:18.372493	173.1	22.7	-92.1	8.6
2025-01-04 08:06:19.534162	173.2	22.6	-92.2	3.1
2025-01-04 08:06:20.697348	173.3	22.4	-92.5	11.7
2025-01-04 08:06:21.858535	173.4	22.3	-92.8	7.7
2025-01-04 08:06:23.024052	173.5	22.1	-92.7	5.7
2025-01-04 08:06:24.184754	173.7	22.0	-92.5	9.2
2025-01-04 08:06:25.349157	173.8	21.8	-92.3	8.8
2025-01-04 08:06:26.510263	173.9	21.7	-92.9	8.4
2025-01-04 08:06:27.684241	174.0	21.5	-92.2	8.9
2025-01-04 08:06:28.841461	174.1	21.4	-92.3	8.0
2025-01-04 08:06:30.002046	174.2	21.2	-92.2	7.9
2025-01-04 08:06:31.166783	174.3	21.1	-92.3	7.2
2025-01-04 08:06:32.335919	174.5	20.9	-92.3	8.2
2025-01-04 08:06:33.500771	174.6	20.8	-92.8	4.5
2025-01-04 08:06:34.664007	174.7	20.6	-92.7	6.9
2025-01-04 08:06:35.831829	174.8	20.5	-93.0	7.5
2025-01-04 08:06:36.992250	174.9	20.3	-93.3	3.6
2025-01-04 08:06:38.154851	175.0	20.2	-92.6	5.8
2025-01-04 08:06:39.311865	175.1	20.1	-92.7	5.4
2025-01-04 08:06:40.468036	175.2	19.9	-93.1	7.4
2025-01-04 08:06:41.624547	175.3	19.8	-92.9	5.7
2025-01-04 08:06:42.785444	175.4	19.6	-93.1	8.1
2025-01-04 08:06:43.950215	175.5	19.5	-93.0	5.8
2025-01-04 08:06:45.114671	175.6	19.4	-92.7	4.6
2025-01-04 08:06:46.279010	175.7	19.2	-92.4	3.5
2025-01-04 08:06:47.449706	175.8	19.1	-93.0	4.2
2025-01-04 08:06:48.611294	175.9	19.0	-93.2	3.4
2025-01-04 08:06:49.773090	176.0	18.8	-93.1	4.2
2025-01-04 08:06:50.929795	176.1	18.7	-93.1	1.7
2025-01-04 08:06:52.090966	176.2	18.6	-92.8	2.8
2025-01-04 08:06:53.252454	176.3	18.4	-93.0	2.5
2025-01-04 08:06:54.412154	176.4	18.3	-93.1	3.6
2025-01-04 08:06:55.578518	176.5	18.2	-92.9	3.6
2025-01-04 08:06:56.740642	176.6	18.0	-92.7	6.1
2025-01-04 08:06:57.899731	176.6	17.9	-93.0	2.2
2025-01-04 08:06:59.068744	176.7	17.8	-93.0	1.8
2025-01-04 08:07:00.219830	176.8	17.6	-92.7	2.0
2025-01-04 08:07:01.373969	176.9	17.5	-93.0	0.4
2025-01-04 08:07:02.540916	177.0	17.4	-93.0	1.6
2025-01-04 08:07:03.704994	177.1	17.2	-93.3	4.2
2025-01-04 08:07:04.867507	177.2	17.1	-93.3	3.9
2025-01-04 08:07:06.034294	177.3	17.0	-93.1	2.8
2025-01-04 08:07:07.195145	177.3	16.9	-92.7	4.6
2025-01-04 08:07:08.362760	177.4	16.7	-92.8	6.1
2025-01-04 08:07:09.518812	177.5	16.6	-92.8	5.3
2025-01-04 08:07:10.679115	177.6	16.5	-93.2	4.1
2025-01-04 08:07:11.840575	177.7	16.4	-93.3	5.0
2025-01-04 08:07:12.999939	177.8	16.2	-93.3	5.3
2025-01-04 08:07:14.157950	177.8	16.1	-92.9	3.7
2025-01-04 08:07:15.323111	177.9	16.0	-92.8	4.4
2025-01-04 08:07:16.488517	178.0	15.9	-92.8	0.5
2025-01-04 08:07:17.647336	178.1	15.8	-92.5	3.2
2025-01-04 08:07:18.812280	178.2	15.6	-92.0	5.3
2025-01-04 08:07:19.971915	178.2	15.5	-93.0	1.2
2025-01-04 08:07:21.141179	178.3	15.4	-92.9	3.2
2025-01-04 08:07:22.302041	178.4	15.3	-92.1	5.9
2025-01-04 08:07:23.470485	178.5	15.2	-93.1	5.7
2025-01-04 08:07:24.629861	178.6	15.0	-93.0	6.2
2025-01-04 08:07:25.793861	178.6	14.9	-93.1	3.8
2025-01-04 08:07:26.956853	178.7	14.8	-92.9	4.2
2025-01-04 08:07:28.118298	178.8	14.7	-92.6	5.4
2025-01-04 08:07:29.284909	178.8	14.6	-92.7	3.7
2025-01-04 08:07:30.428326	178.9	14.5	-92.7	3.2
#Closed at: 2025-01-04 07:58:35.809633