passes_logs/2025/01/04/LEX_Murmansk/LEX_Murmansk__20250104_100654_NOAA_18_rec.log

#Pass ID: 20250104_100654_NOAA 18
#Satellite: NOAA 18
#Configuration: NOAA 18
#Start time: 2025-01-04 10:06:49.639096

#LorettStation: 1.0.0 05.05.2024
#Station: LEX_Murmansk
#Location: 33.156738 lon 68.926811 lat
#TLE: 1 28654U 05018A   25003.76610367  .00000568  00000+0  32493-3 0  9997
#TLE: 2 28654  98.8583  84.9311 0013827 211.1121 148.9234 14.13475198 11594

#Time	Az	El	Level	SNR
2025-01-04 10:07:01.768177	25.3	16.3	-90.4	8.1
2025-01-04 10:07:02.930484	25.3	16.4	-90.5	7.5
2025-01-04 10:07:04.093780	25.3	16.6	-90.1	7.4
2025-01-04 10:07:05.259228	25.3	16.7	-90.2	6.9
2025-01-04 10:07:06.422255	25.3	16.8	-91.9	7.2
2025-01-04 10:07:07.581995	25.3	16.9	-92.1	10.9
2025-01-04 10:07:08.749178	25.2	17.1	-92.3	6.6
2025-01-04 10:07:09.908335	25.2	17.2	-92.4	10.2
2025-01-04 10:07:11.073200	25.2	17.3	-92.1	7.9
2025-01-04 10:07:12.238540	25.2	17.5	-91.1	8.0
2025-01-04 10:07:13.400580	25.2	17.6	-91.4	7.5
2025-01-04 10:07:14.563177	25.2	17.7	-92.1	11.5
2025-01-04 10:07:15.724981	25.2	17.9	-91.9	7.3
2025-01-04 10:07:16.883224	25.2	18.0	-91.8	9.8
2025-01-04 10:07:18.047032	25.2	18.2	-92.0	8.4
2025-01-04 10:07:19.208270	25.2	18.3	-91.9	12.0
2025-01-04 10:07:20.370285	25.2	18.4	-91.6	10.6
2025-01-04 10:07:21.531753	25.2	18.6	-92.0	9.1
2025-01-04 10:07:22.688162	25.2	18.7	-91.5	6.6
2025-01-04 10:07:23.852202	25.2	18.9	-92.1	8.8
2025-01-04 10:07:25.011019	25.2	19.0	-92.1	9.6
2025-01-04 10:07:26.177805	25.2	19.1	-91.0	8.5
2025-01-04 10:07:27.336902	25.2	19.3	-91.1	10.0
2025-01-04 10:07:28.497919	25.2	19.4	-91.5	9.7
2025-01-04 10:07:29.663848	25.2	19.6	-92.0	11.5
2025-01-04 10:07:30.821780	25.2	19.7	-92.2	8.1
2025-01-04 10:07:31.984611	25.2	19.9	-92.1	8.8
2025-01-04 10:07:33.145585	25.2	20.0	-91.8	7.5
2025-01-04 10:07:34.313622	25.2	20.2	-91.8	10.0
2025-01-04 10:07:35.477268	25.2	20.3	-92.3	11.3
2025-01-04 10:07:36.636932	25.2	20.5	-92.3	12.0
2025-01-04 10:07:37.790859	25.2	20.6	-92.0	12.1
2025-01-04 10:07:38.954114	25.2	20.8	-92.3	7.7
2025-01-04 10:07:40.110787	25.2	20.9	-91.8	9.3
2025-01-04 10:07:41.275116	25.2	21.1	-92.1	12.8
2025-01-04 10:07:42.434183	25.2	21.2	-92.3	9.1
2025-01-04 10:07:43.594825	25.2	21.4	-91.9	12.6
2025-01-04 10:07:44.758742	25.2	21.5	-92.0	11.7
2025-01-04 10:07:45.924572	25.2	21.7	-92.2	11.7
2025-01-04 10:07:47.088050	25.2	21.9	-91.7	13.2
2025-01-04 10:07:48.252119	25.2	22.0	-91.5	16.2
2025-01-04 10:07:49.417065	25.2	22.2	-91.6	10.3
2025-01-04 10:07:50.578212	25.2	22.3	-92.4	9.6
2025-01-04 10:07:51.742126	25.2	22.5	-92.4	10.5
2025-01-04 10:07:52.905784	25.2	22.7	-92.5	8.1
2025-01-04 10:07:54.072110	25.2	22.8	-91.9	9.9
2025-01-04 10:07:55.230105	25.2	23.0	-92.1	11.1
2025-01-04 10:07:56.371182	25.2	23.2	-91.4	12.0
2025-01-04 10:07:57.534185	25.2	23.3	-91.8	7.7
2025-01-04 10:07:58.694750	25.2	23.5	-91.9	12.5
2025-01-04 10:07:59.859124	25.2	23.7	-91.6	10.0
2025-01-04 10:08:01.005567	25.2	23.8	-92.0	13.0
2025-01-04 10:08:02.169710	25.2	24.0	-91.7	10.8
2025-01-04 10:08:03.334120	25.2	24.2	-91.6	7.4
2025-01-04 10:08:04.497529	25.1	24.4	-92.4	10.8
2025-01-04 10:08:05.664939	25.1	24.5	-92.4	14.2
2025-01-04 10:08:06.825564	25.1	24.7	-92.2	6.6
2025-01-04 10:08:07.983186	25.1	24.9	-92.5	12.0
2025-01-04 10:08:09.150956	25.1	25.1	-92.1	11.0
2025-01-04 10:08:10.311305	25.1	25.3	-91.9	9.7
2025-01-04 10:08:11.477024	25.1	25.4	-92.2	8.7
2025-01-04 10:08:12.644562	25.1	25.6	-92.2	3.8
2025-01-04 10:08:13.807335	25.1	25.8	-92.3	12.2
2025-01-04 10:08:14.971672	25.1	26.0	-92.6	9.7
2025-01-04 10:08:16.130348	25.1	26.2	-92.1	7.6
2025-01-04 10:08:17.294474	25.1	26.4	-92.2	15.9
2025-01-04 10:08:18.456671	25.1	26.6	-92.1	11.3
2025-01-04 10:08:19.621593	25.1	26.8	-92.3	14.1
2025-01-04 10:08:20.777627	25.1	27.0	-91.5	16.8
2025-01-04 10:08:21.941197	25.1	27.1	-92.4	13.4
2025-01-04 10:08:23.105484	25.1	27.3	-91.9	9.8
2025-01-04 10:08:24.274389	25.1	27.5	-90.4	13.4
2025-01-04 10:08:25.437712	25.1	27.7	-91.0	12.6
2025-01-04 10:08:26.606858	25.1	27.9	-91.0	11.9
2025-01-04 10:08:27.767379	25.0	28.1	-91.1	17.9
2025-01-04 10:08:28.925206	25.0	28.3	-90.4	11.6
2025-01-04 10:08:30.089832	25.0	28.5	-92.2	7.4
2025-01-04 10:08:31.247218	25.0	28.8	-91.9	12.9
2025-01-04 10:08:32.409554	25.0	29.0	-92.5	13.9
2025-01-04 10:08:33.578363	25.0	29.2	-92.4	12.5
2025-01-04 10:08:34.745399	25.0	29.4	-92.1	15.6
2025-01-04 10:08:35.909391	25.0	29.6	-90.8	9.6
2025-01-04 10:08:37.072169	25.0	29.8	-90.8	5.8
2025-01-04 10:08:38.236133	25.0	30.0	-90.2	8.6
2025-01-04 10:08:39.397713	25.0	30.2	-90.9	8.8
2025-01-04 10:08:40.556084	25.0	30.5	-90.9	8.4
2025-01-04 10:08:41.715905	25.0	30.7	-91.1	5.0
2025-01-04 10:08:42.879476	25.0	30.9	-91.3	10.7
2025-01-04 10:08:44.046821	24.9	31.1	-92.5	5.8
2025-01-04 10:08:45.219305	24.9	31.3	-91.6	11.9
2025-01-04 10:08:46.380069	24.9	31.6	-91.6	6.2
2025-01-04 10:08:47.548577	24.9	31.8	-92.7	4.5
2025-01-04 10:08:48.714463	24.9	32.0	-92.6	9.3
2025-01-04 10:08:49.878324	24.9	32.3	-92.2	13.2
2025-01-04 10:08:51.035064	24.9	32.5	-92.0	9.2
2025-01-04 10:08:52.201475	24.9	32.7	-91.7	7.9
2025-01-04 10:08:53.376663	24.9	33.0	-91.9	13.7
2025-01-04 10:08:54.539497	24.9	33.2	-92.1	9.4
2025-01-04 10:08:55.700906	24.9	33.5	-92.6	13.9
2025-01-04 10:08:56.860442	24.8	33.7	-92.8	11.9
2025-01-04 10:08:58.022400	24.8	33.9	-92.5	9.9
2025-01-04 10:08:59.185670	24.8	34.2	-91.8	6.2
2025-01-04 10:09:00.341236	24.8	34.4	-91.8	12.7
2025-01-04 10:09:01.505338	24.8	34.7	-92.5	9.0
2025-01-04 10:09:02.668924	24.8	34.9	-92.2	6.9
2025-01-04 10:09:03.837067	24.8	35.2	-92.0	13.6
2025-01-04 10:09:04.997419	24.8	35.5	-92.1	9.2
2025-01-04 10:09:06.154694	24.7	35.7	-91.8	10.8
2025-01-04 10:09:07.316920	24.7	36.0	-91.9	7.9
2025-01-04 10:09:08.477824	24.7	36.2	-91.9	12.3
2025-01-04 10:09:09.641094	24.7	36.5	-92.1	15.5
2025-01-04 10:09:10.799561	24.7	36.8	-92.1	10.2
2025-01-04 10:09:11.960469	24.7	37.0	-92.2	12.8
2025-01-04 10:09:13.120666	24.7	37.3	-92.2	14.2
2025-01-04 10:09:14.281521	24.6	37.6	-91.8	9.9
2025-01-04 10:09:15.440946	24.6	37.9	-91.7	16.6
2025-01-04 10:09:16.605544	24.6	38.1	-92.0	20.2
2025-01-04 10:09:17.767026	24.6	38.4	-92.4	15.9
2025-01-04 10:09:18.930043	24.6	38.7	-92.6	17.1
2025-01-04 10:09:20.092310	24.6	39.0	-91.8	8.8
2025-01-04 10:09:21.246303	24.6	39.3	-91.6	15.9
2025-01-04 10:09:22.407440	24.5	39.6	-92.0	16.9
2025-01-04 10:09:23.571777	24.5	39.9	-92.1	11.1
2025-01-04 10:09:24.735720	24.5	40.2	-92.3	12.0
2025-01-04 10:09:25.900727	24.5	40.5	-91.9	18.1
2025-01-04 10:09:27.063000	24.5	40.8	-92.0	20.5
2025-01-04 10:09:28.238924	24.4	41.1	-91.5	13.3
2025-01-04 10:09:29.402389	24.4	41.4	-92.0	15.8
2025-01-04 10:09:30.560971	24.4	41.7	-92.5	18.7
2025-01-04 10:09:31.727218	24.4	42.0	-92.4	19.0
2025-01-04 10:09:32.890061	24.4	42.3	-92.1	17.6
2025-01-04 10:09:34.070612	24.3	42.6	-90.8	14.0
2025-01-04 10:09:35.233840	24.3	43.0	-91.9	15.1
2025-01-04 10:09:36.388248	24.3	43.3	-91.9	14.8
2025-01-04 10:09:37.552487	24.3	43.6	-92.0	13.2
2025-01-04 10:09:38.709842	24.2	43.9	-92.5	7.4
2025-01-04 10:09:39.870967	24.2	44.3	-92.5	12.5
2025-01-04 10:09:41.027971	24.2	44.6	-92.5	10.9
2025-01-04 10:09:42.195302	24.2	44.9	-91.9	15.2
2025-01-04 10:09:43.354724	24.1	45.3	-91.7	13.5
2025-01-04 10:09:44.518192	24.1	45.6	-92.3	15.2
2025-01-04 10:09:45.686300	24.1	45.9	-92.4	20.9
2025-01-04 10:09:46.843466	24.1	46.3	-91.8	18.9
2025-01-04 10:09:48.006143	24.0	46.6	-92.3	20.1
2025-01-04 10:09:49.169728	24.0	47.0	-90.4	14.2
2025-01-04 10:09:50.335545	24.0	47.4	-90.3	16.8
2025-01-04 10:09:51.488568	23.9	47.7	-91.4	13.5
2025-01-04 10:09:52.651121	23.9	48.1	-91.6	11.8
2025-01-04 10:09:53.810877	23.9	48.4	-91.8	11.4
2025-01-04 10:09:54.975429	23.8	48.8	-91.7	11.8
2025-01-04 10:09:56.139054	23.8	49.2	-91.4	12.9
2025-01-04 10:09:57.302882	23.8	49.5	-92.3	14.0
2025-01-04 10:09:58.471228	23.7	49.9	-92.0	7.7
2025-01-04 10:09:59.638617	23.7	50.3	-92.4	8.6
2025-01-04 10:10:00.785086	23.7	50.7	-92.5	16.0
2025-01-04 10:10:01.949310	23.6	51.1	-91.4	8.8
2025-01-04 10:10:03.117132	23.6	51.5	-92.1	10.5
2025-01-04 10:10:04.281170	23.5	51.9	-91.7	15.2
2025-01-04 10:10:05.448969	23.5	52.3	-92.5	15.4
2025-01-04 10:10:06.607320	23.4	52.7	-92.9	15.0
2025-01-04 10:10:07.763510	23.4	53.1	-92.4	11.8
2025-01-04 10:10:08.926122	23.3	53.5	-92.7	7.1
2025-01-04 10:10:10.087226	23.3	53.9	-92.1	11.7
2025-01-04 10:10:11.248269	23.2	54.3	-91.6	12.4
2025-01-04 10:10:12.422929	23.2	54.7	-91.5	14.8
2025-01-04 10:10:13.603927	23.1	55.1	-92.2	10.7
2025-01-04 10:10:14.767981	23.1	55.6	-92.0	14.8
2025-01-04 10:10:15.925615	23.0	56.0	-92.2	17.4
2025-01-04 10:10:17.090430	23.0	56.4	-91.7	15.2
2025-01-04 10:10:18.248766	22.9	56.8	-91.0	18.1
2025-01-04 10:10:19.413902	22.8	57.3	-91.6	14.0
2025-01-04 10:10:20.579134	22.8	57.7	-92.0	7.0
2025-01-04 10:10:21.736301	22.7	58.2	-92.1	10.5
2025-01-04 10:10:22.899559	22.6	58.6	-88.6	6.8
2025-01-04 10:10:24.064423	22.5	59.1	-92.1	7.0
2025-01-04 10:10:25.230024	22.5	59.5	-91.5	9.1
2025-01-04 10:10:26.397368	22.4	60.0	-92.0	12.4
2025-01-04 10:10:27.555686	22.3	60.4	-92.2	13.2
2025-01-04 10:10:28.714966	22.2	60.9	-92.3	19.1
2025-01-04 10:10:29.870998	22.1	61.3	-92.9	19.8
2025-01-04 10:10:31.030156	22.0	61.8	-92.4	20.6
2025-01-04 10:10:32.198152	21.9	62.3	-92.2	22.0
2025-01-04 10:10:33.359820	21.8	62.8	-91.9	18.5
2025-01-04 10:10:34.526516	21.7	63.2	-92.4	17.1
2025-01-04 10:10:35.688660	21.6	63.7	-92.5	12.5
2025-01-04 10:10:36.847231	21.5	64.2	-91.7	17.9
2025-01-04 10:10:38.008118	21.4	64.7	-92.0	14.5
2025-01-04 10:10:39.175915	21.3	65.2	-91.6	15.6
2025-01-04 10:10:40.341212	21.1	65.7	-92.2	22.2
2025-01-04 10:10:41.509460	21.0	66.2	-92.3	16.7
2025-01-04 10:10:42.670987	20.8	66.7	-92.0	20.3
2025-01-04 10:10:43.845295	20.7	67.2	-91.7	20.8
2025-01-04 10:10:45.011454	20.5	67.7	-92.1	19.7
2025-01-04 10:10:46.173277	20.4	68.2	-92.0	19.2
2025-01-04 10:10:47.341139	20.2	68.7	-92.2	16.7
2025-01-04 10:10:48.506371	20.0	69.2	-92.2	10.4
2025-01-04 10:10:49.671300	19.8	69.8	-91.6	9.1
2025-01-04 10:10:50.832834	19.6	70.3	-92.4	15.2
2025-01-04 10:10:51.991858	19.4	70.8	-91.8	7.9
2025-01-04 10:10:53.154831	19.1	71.3	-91.9	9.3
2025-01-04 10:10:54.319066	18.9	71.8	-91.5	11.9
2025-01-04 10:10:55.487448	18.6	72.4	-91.7	12.6
2025-01-04 10:10:56.652997	18.3	72.9	-92.3	14.3
2025-01-04 10:10:57.816860	18.0	73.4	-92.1	19.2
2025-01-04 10:10:58.979348	17.7	74.0	-91.8	16.6
2025-01-04 10:11:00.139490	17.4	74.5	-91.0	12.7
2025-01-04 10:11:01.290035	17.0	75.0	-90.3	16.1
2025-01-04 10:11:02.454057	16.6	75.6	-90.7	13.5
2025-01-04 10:11:03.622106	16.1	76.1	-92.4	14.8
2025-01-04 10:11:04.786360	15.7	76.7	-92.2	21.7
2025-01-04 10:11:05.929739	15.2	77.2	-92.5	20.8
2025-01-04 10:11:07.082439	14.6	77.8	-91.8	17.0
2025-01-04 10:11:08.247712	14.0	78.3	-91.9	20.9
2025-01-04 10:11:09.408261	13.3	78.8	-89.9	19.7
2025-01-04 10:11:10.576291	12.5	79.4	-91.7	13.8
2025-01-04 10:11:11.735306	11.7	79.9	-92.3	20.5
2025-01-04 10:11:12.897645	10.8	80.5	-92.1	20.0
2025-01-04 10:11:14.059080	9.7	81.0	-92.2	12.9
2025-01-04 10:11:15.223411	8.5	81.6	-91.9	19.1
2025-01-04 10:11:16.386254	7.2	82.1	-89.2	16.7
2025-01-04 10:11:17.548264	5.6	82.6	-91.6	20.9
2025-01-04 10:11:18.713270	3.8	83.2	-92.6	24.0
2025-01-04 10:11:19.868950	1.7	83.7	-92.5	23.6
2025-01-04 10:11:21.021197	359.3	84.2	-92.3	23.5
2025-01-04 10:11:22.185583	356.3	84.7	-91.5	22.8
2025-01-04 10:11:23.366005	352.7	85.2	-91.9	24.5
2025-01-04 10:11:24.535261	348.3	85.7	-91.3	24.9
2025-01-04 10:11:25.697821	343.0	86.1	-92.3	24.7
2025-01-04 10:11:26.860191	336.3	86.5	-91.9	24.1
2025-01-04 10:11:28.026095	328.2	86.8	-92.3	23.5
2025-01-04 10:11:29.186313	318.4	87.1	-91.9	23.3
2025-01-04 10:11:30.350151	307.2	87.2	-92.0	23.3
2025-01-04 10:11:31.514478	295.1	87.3	-92.7	20.9
2025-01-04 10:11:32.680226	283.3	87.2	-92.3	23.2
2025-01-04 10:11:33.852308	272.5	87.0	-92.2	25.7
2025-01-04 10:11:35.018168	263.3	86.7	-92.5	19.0
2025-01-04 10:11:36.183292	255.8	86.3	-92.2	18.4
2025-01-04 10:11:37.346779	249.7	85.9	-92.2	23.9
2025-01-04 10:11:38.514152	244.7	85.5	-92.1	16.0
2025-01-04 10:11:39.674818	240.7	85.0	-92.3	16.8
2025-01-04 10:11:40.836338	237.4	84.5	-92.2	23.6
2025-01-04 10:11:41.996739	234.7	84.0	-90.6	13.6
2025-01-04 10:11:43.155543	232.4	83.5	-89.1	12.2
2025-01-04 10:11:44.319715	230.4	83.0	-89.6	21.3
2025-01-04 10:11:45.487455	228.7	82.4	-90.7	12.4
2025-01-04 10:11:46.650895	227.2	81.9	-92.2	12.3
2025-01-04 10:11:47.814987	225.9	81.3	-90.4	19.3
2025-01-04 10:11:48.977816	224.8	80.8	-90.6	11.8
2025-01-04 10:11:50.131108	223.8	80.3	-90.9	11.5
2025-01-04 10:11:51.287587	222.9	79.7	-90.7	20.2
2025-01-04 10:11:52.451183	222.1	79.2	-90.8	12.5
2025-01-04 10:11:53.613497	221.4	78.6	-91.4	9.7
2025-01-04 10:11:54.777291	220.7	78.1	-91.1	19.3
2025-01-04 10:11:55.941058	220.1	77.5	-92.6	12.3
2025-01-04 10:11:57.104299	219.6	77.0	-92.1	11.5
2025-01-04 10:11:58.264089	219.1	76.4	-92.1	21.5
2025-01-04 10:11:59.427664	218.6	75.9	-92.2	13.2
2025-01-04 10:12:00.582987	218.2	75.4	-92.2	11.7
2025-01-04 10:12:01.745437	217.8	74.8	-92.3	12.0
2025-01-04 10:12:02.910944	217.4	74.3	-92.9	20.3
2025-01-04 10:12:04.074588	217.1	73.7	-92.7	12.2
2025-01-04 10:12:05.243402	216.8	73.2	-92.3	20.4
2025-01-04 10:12:06.407600	216.5	72.7	-92.3	18.7
2025-01-04 10:12:07.571477	216.2	72.1	-92.6	10.6
2025-01-04 10:12:08.739418	216.0	71.6	-92.6	17.5
2025-01-04 10:12:09.903212	215.7	71.1	-92.6	18.7
2025-01-04 10:12:11.070888	215.5	70.5	-92.4	10.6
2025-01-04 10:12:12.230723	215.3	70.0	-91.8	17.3
2025-01-04 10:12:13.393582	215.1	69.5	-91.9	18.2
2025-01-04 10:12:14.559972	214.9	69.0	-92.3	10.7
2025-01-04 10:12:15.725844	214.7	68.5	-92.5	19.3
2025-01-04 10:12:16.893613	214.5	68.0	-92.4	18.4
2025-01-04 10:12:18.054313	214.3	67.4	-92.2	11.0
2025-01-04 10:12:19.220905	214.2	66.9	-91.7	14.3
2025-01-04 10:12:20.381711	214.0	66.4	-92.4	18.0
2025-01-04 10:12:21.542377	213.9	65.9	-92.9	12.0
2025-01-04 10:12:22.706558	213.8	65.4	-92.3	20.1
2025-01-04 10:12:23.868581	213.6	64.9	-92.7	22.3
2025-01-04 10:12:25.032869	213.5	64.4	-92.7	15.1
2025-01-04 10:12:26.189176	213.4	64.0	-92.1	17.5
2025-01-04 10:12:27.354452	213.3	63.5	-92.1	20.2
2025-01-04 10:12:28.522855	213.2	63.0	-92.2	14.4
2025-01-04 10:12:29.701731	213.1	62.5	-92.6	20.5
2025-01-04 10:12:30.871277	213.0	62.0	-92.6	21.8
2025-01-04 10:12:32.021475	212.9	61.6	-92.9	19.2
2025-01-04 10:12:33.188454	212.8	61.1	-92.4	15.6
2025-01-04 10:12:34.358595	212.7	60.6	-92.1	17.2
2025-01-04 10:12:35.524335	212.6	60.2	-92.6	18.6
2025-01-04 10:12:36.684137	212.5	59.7	-91.6	19.9
2025-01-04 10:12:37.851084	212.4	59.2	-92.7	20.6
2025-01-04 10:12:39.015179	212.4	58.8	-92.8	17.7
2025-01-04 10:12:40.191655	212.3	58.3	-91.9	18.6
2025-01-04 10:12:41.356963	212.2	57.9	-92.1	15.2
2025-01-04 10:12:42.513160	212.1	57.4	-92.3	19.1
2025-01-04 10:12:43.668051	212.1	57.0	-92.7	19.0
2025-01-04 10:12:44.827411	212.0	56.6	-92.5	21.5
2025-01-04 10:12:45.995389	212.0	56.1	-92.3	15.9
2025-01-04 10:12:47.158317	211.9	55.7	-91.8	13.6
2025-01-04 10:12:48.322810	211.8	55.3	-91.9	19.7
2025-01-04 10:12:49.487854	211.8	54.8	-92.4	11.3
2025-01-04 10:12:50.651843	211.7	54.4	-92.8	11.7
2025-01-04 10:12:51.812937	211.7	54.0	-92.7	19.8
2025-01-04 10:12:52.975725	211.6	53.6	-92.9	10.0
2025-01-04 10:12:54.141221	211.6	53.2	-92.5	6.7
2025-01-04 10:12:55.304374	211.5	52.8	-92.4	16.6
2025-01-04 10:12:56.470069	211.5	52.4	-92.7	11.0
2025-01-04 10:12:57.634740	211.4	52.0	-91.9	9.5
2025-01-04 10:12:58.793904	211.4	51.6	-90.2	15.2
2025-01-04 10:12:59.953786	211.3	51.2	-91.2	12.8
2025-01-04 10:13:01.106395	211.3	50.8	-92.6	13.0
2025-01-04 10:13:02.262139	211.3	50.4	-92.0	14.3
2025-01-04 10:13:03.423931	211.2	50.0	-92.0	15.7
2025-01-04 10:13:04.585248	211.2	49.6	-92.4	14.1
2025-01-04 10:13:05.749500	211.2	49.3	-93.1	15.5
2025-01-04 10:13:06.907201	211.1	48.9	-92.6	15.1
2025-01-04 10:13:08.066703	211.1	48.5	-90.8	12.3
2025-01-04 10:13:09.230565	211.0	48.2	-90.8	13.1
2025-01-04 10:13:10.394617	211.0	47.8	-90.8	13.0
2025-01-04 10:13:11.554754	211.0	47.4	-91.3	10.3
2025-01-04 10:13:12.716312	211.0	47.1	-91.6	12.5
2025-01-04 10:13:13.881143	210.9	46.7	-89.9	11.1
2025-01-04 10:13:15.044402	210.9	46.4	-90.4	11.6
2025-01-04 10:13:16.206669	210.9	46.0	-90.2	14.5
2025-01-04 10:13:17.371537	210.8	45.7	-91.5	15.1
2025-01-04 10:13:18.539352	210.8	45.3	-90.9	11.0
2025-01-04 10:13:19.705088	210.8	45.0	-89.6	12.5
2025-01-04 10:13:20.864625	210.8	44.6	-90.8	15.9
2025-01-04 10:13:22.021924	210.7	44.3	-92.1	13.4
2025-01-04 10:13:23.184387	210.7	44.0	-91.8	15.2
2025-01-04 10:13:24.346460	210.7	43.6	-91.4	18.2
2025-01-04 10:13:25.510198	210.7	43.3	-92.1	17.5
2025-01-04 10:13:26.681901	210.6	43.0	-90.9	13.4
2025-01-04 10:13:27.842276	210.6	42.7	-91.3	18.8
2025-01-04 10:13:29.006058	210.6	42.3	-89.9	13.2
2025-01-04 10:13:30.174341	210.6	42.0	-89.5	15.3
2025-01-04 10:13:31.332169	210.5	41.7	-91.8	13.3
2025-01-04 10:13:32.491209	210.5	41.4	-93.0	9.2
2025-01-04 10:13:33.643971	210.5	41.1	-92.9	7.9
2025-01-04 10:13:34.807843	210.5	40.8	-92.6	13.5
2025-01-04 10:13:35.979872	210.5	40.5	-92.8	7.0
2025-01-04 10:13:37.142913	210.4	40.2	-92.4	6.6
2025-01-04 10:13:38.303124	210.4	39.9	-92.3	17.0
2025-01-04 10:13:39.466598	210.4	39.6	-92.5	12.6
2025-01-04 10:13:40.631351	210.4	39.3	-92.5	7.2
2025-01-04 10:13:41.794364	210.4	39.0	-92.2	15.8
2025-01-04 10:13:42.959208	210.4	38.7	-92.5	10.6
2025-01-04 10:13:44.122648	210.3	38.4	-92.3	11.2
2025-01-04 10:13:45.291627	210.3	38.1	-92.5	4.7
2025-01-04 10:13:46.456582	210.3	37.8	-92.6	15.7
2025-01-04 10:13:47.624658	210.3	37.6	-92.5	7.6
2025-01-04 10:13:48.788449	210.3	37.3	-92.2	14.0
2025-01-04 10:13:49.952803	210.3	37.0	-92.6	9.3
2025-01-04 10:13:51.115635	210.2	36.7	-92.4	10.5
2025-01-04 10:13:52.277998	210.2	36.5	-91.7	13.9
2025-01-04 10:13:53.443996	210.2	36.2	-92.8	8.3
2025-01-04 10:13:54.604662	210.2	35.9	-92.0	6.1
2025-01-04 10:13:55.769522	210.2	35.7	-89.5	9.2
2025-01-04 10:13:56.928463	210.2	35.4	-92.3	6.3
2025-01-04 10:13:58.083802	210.2	35.2	-91.8	8.4
2025-01-04 10:13:59.244390	210.1	34.9	-92.2	14.2
2025-01-04 10:14:00.397393	210.1	34.6	-92.5	5.4
2025-01-04 10:14:01.557320	210.1	34.4	-92.8	11.5
2025-01-04 10:14:02.715387	210.1	34.1	-92.6	11.3
2025-01-04 10:14:03.874157	210.1	33.9	-92.4	12.2
2025-01-04 10:14:05.039812	210.1	33.6	-92.3	9.2
2025-01-04 10:14:06.198973	210.1	33.4	-91.9	11.0
2025-01-04 10:14:07.359274	210.1	33.2	-92.0	5.9
2025-01-04 10:14:08.527177	210.1	32.9	-92.3	4.1
2025-01-04 10:14:09.690499	210.0	32.7	-92.4	8.1
2025-01-04 10:14:10.856028	210.0	32.4	-92.7	7.5
2025-01-04 10:14:12.013804	210.0	32.2	-92.2	4.3
2025-01-04 10:14:13.169641	210.0	32.0	-91.9	6.2
2025-01-04 10:14:14.331021	210.0	31.7	-91.9	4.1
2025-01-04 10:14:15.494475	210.0	31.5	-92.4	3.7
2025-01-04 10:14:16.656986	210.0	31.3	-92.4	4.1
2025-01-04 10:14:17.825088	210.0	31.0	-91.5	4.1
2025-01-04 10:14:18.983832	210.0	30.8	-92.2	5.9
2025-01-04 10:14:20.147415	210.0	30.6	-91.4	4.6
2025-01-04 10:14:21.306071	210.0	30.4	-92.0	5.3
2025-01-04 10:14:22.466695	209.9	30.2	-92.8	4.4
2025-01-04 10:14:23.630137	209.9	29.9	-92.7	5.3
2025-01-04 10:14:24.791335	209.9	29.7	-92.9	5.6
2025-01-04 10:14:25.957440	209.9	29.5	-92.6	6.3
2025-01-04 10:14:27.121542	209.9	29.3	-92.3	6.1
2025-01-04 10:14:28.279341	209.9	29.1	-92.0	7.7
2025-01-04 10:14:29.445230	209.9	28.9	-91.9	3.2
2025-01-04 10:14:30.610952	209.9	28.7	-92.4	7.7
2025-01-04 10:14:31.780290	209.9	28.4	-92.4	9.9
2025-01-04 10:14:32.942458	209.9	28.2	-91.8	8.1
2025-01-04 10:14:34.107829	209.9	28.0	-90.6	8.2
2025-01-04 10:14:35.273273	209.9	27.8	-91.4	6.6
2025-01-04 10:14:36.436442	209.9	27.6	-91.7	7.8
2025-01-04 10:14:37.600022	209.8	27.4	-92.5	3.9
2025-01-04 10:14:38.768386	209.8	27.2	-92.4	7.6
2025-01-04 10:14:39.933999	209.8	27.0	-92.5	6.3
2025-01-04 10:14:41.097866	209.8	26.8	-91.9	4.7
2025-01-04 10:14:42.257684	209.8	26.6	-91.1	6.8
2025-01-04 10:14:43.430660	209.8	26.4	-92.3	7.7
2025-01-04 10:14:44.597995	209.8	26.3	-92.6	6.0
2025-01-04 10:14:45.763535	209.8	26.1	-92.3	7.2
2025-01-04 10:14:46.923144	209.8	25.9	-92.6	8.6
2025-01-04 10:14:48.090207	209.8	25.7	-92.2	7.5
2025-01-04 10:14:49.260351	209.8	25.5	-91.7	9.4
2025-01-04 10:14:50.416494	209.8	25.3	-92.1	11.9
2025-01-04 10:14:51.580277	209.8	25.1	-92.3	7.9
2025-01-04 10:14:52.737786	209.8	24.9	-92.2	10.3
2025-01-04 10:14:53.899934	209.8	24.8	-92.3	12.0
2025-01-04 10:14:55.066087	209.8	24.6	-92.1	8.4
2025-01-04 10:14:56.227224	209.8	24.4	-92.3	9.3
2025-01-04 10:14:57.387840	209.8	24.2	-92.2	10.8
2025-01-04 10:14:58.548494	209.8	24.1	-92.5	10.9
2025-01-04 10:14:59.708196	209.7	23.9	-92.5	11.2
2025-01-04 10:15:00.860508	209.7	23.7	-93.0	14.1
2025-01-04 10:15:02.023105	209.7	23.5	-92.9	12.9
2025-01-04 10:15:03.186714	209.7	23.4	-91.7	12.2
2025-01-04 10:15:04.349499	209.7	23.2	-92.0	12.2
2025-01-04 10:15:05.509179	209.7	23.0	-92.7	10.2
2025-01-04 10:15:06.676397	209.7	22.8	-92.2	8.5
2025-01-04 10:15:07.842785	209.7	22.7	-92.3	11.2
2025-01-04 10:15:09.005980	209.7	22.5	-92.2	6.0
2025-01-04 10:15:10.172298	209.7	22.3	-91.5	5.0
2025-01-04 10:15:11.335551	209.7	22.2	-91.9	11.2
2025-01-04 10:15:12.496554	209.7	22.0	-92.4	8.6
2025-01-04 10:15:13.656224	209.7	21.9	-92.4	7.9
2025-01-04 10:15:14.821464	209.7	21.7	-92.5	9.3
2025-01-04 10:15:15.984807	209.7	21.5	-90.5	8.5
2025-01-04 10:15:17.149710	209.7	21.4	-90.3	8.6
2025-01-04 10:15:18.308669	209.7	21.2	-90.9	9.6
2025-01-04 10:15:19.472446	209.7	21.1	-91.0	8.1
2025-01-04 10:15:20.628971	209.7	20.9	-90.6	5.9
2025-01-04 10:15:21.794005	209.7	20.7	-91.2	6.3
2025-01-04 10:15:22.956868	209.7	20.6	-91.0	6.2
2025-01-04 10:15:24.124202	209.7	20.4	-90.5	4.4
2025-01-04 10:15:25.282193	209.7	20.3	-91.9	7.3
2025-01-04 10:15:26.445760	209.7	20.1	-92.5	7.3
2025-01-04 10:15:27.608406	209.7	20.0	-92.7	10.1
2025-01-04 10:15:28.781507	209.7	19.8	-92.4	8.1
2025-01-04 10:15:29.944569	209.7	19.7	-92.2	7.6
2025-01-04 10:15:31.105218	209.7	19.5	-91.7	6.1
2025-01-04 10:15:32.266672	209.7	19.4	-91.8	6.6
2025-01-04 10:15:33.431917	209.7	19.2	-90.8	4.6
2025-01-04 10:15:34.598977	209.7	19.1	-91.3	4.2
2025-01-04 10:15:35.771799	209.7	18.9	-90.8	5.3
2025-01-04 10:15:36.939680	209.7	18.8	-90.8	4.0
2025-01-04 10:15:38.104001	209.7	18.7	-90.7	5.0
2025-01-04 10:15:39.266198	209.6	18.5	-91.1	5.4
2025-01-04 10:15:40.429539	209.6	18.4	-92.6	5.8
2025-01-04 10:15:41.598049	209.6	18.2	-92.6	4.7
2025-01-04 10:15:42.762260	209.6	18.1	-90.8	4.4
2025-01-04 10:15:43.926391	209.6	18.0	-91.1	6.6
2025-01-04 10:15:45.088141	209.6	17.8	-90.7	6.6
2025-01-04 10:15:46.252887	209.6	17.7	-91.0	4.9
2025-01-04 10:15:47.416777	209.6	17.5	-90.7	5.8
2025-01-04 10:15:48.582268	209.6	17.4	-91.5	5.1
2025-01-04 10:15:49.743822	209.6	17.3	-91.2	5.8
2025-01-04 10:15:50.903689	209.6	17.1	-91.9	3.8
2025-01-04 10:15:52.068148	209.6	17.0	-91.8	4.6
2025-01-04 10:15:53.230270	209.6	16.9	-92.7	3.2
2025-01-04 10:15:54.394527	209.6	16.7	-92.4	6.4
2025-01-04 10:15:55.560304	209.6	16.6	-92.6	3.5
2025-01-04 10:15:56.733258	209.6	16.5	-92.4	4.0
2025-01-04 10:15:57.892465	209.6	16.3	-92.7	3.3
2025-01-04 10:15:59.060039	209.6	16.2	-92.4	4.5
2025-01-04 10:16:00.216825	209.6	16.1	-92.2	4.4
2025-01-04 10:16:01.375740	209.6	16.0	-91.8	5.1
2025-01-04 10:16:02.535512	209.6	15.8	-92.6	2.8
2025-01-04 10:16:03.699028	209.6	15.7	-92.9	2.7
2025-01-04 10:16:04.865491	209.6	15.6	-92.8	5.3
2025-01-04 10:16:06.027248	209.6	15.4	-92.7	3.1
2025-01-04 10:16:07.201815	209.6	15.3	-91.5	4.2
2025-01-04 10:16:08.363653	209.6	15.2	-92.2	5.2
2025-01-04 10:16:09.526206	209.6	15.1	-92.8	4.4
2025-01-04 10:16:10.691382	209.6	15.0	-92.8	5.3
2025-01-04 10:16:11.857551	209.6	14.8	-92.7	4.5
2025-01-04 10:16:13.013390	209.6	14.7	-92.8	5.7
2025-01-04 10:16:14.176887	209.6	14.6	-92.3	5.3
2025-01-04 10:16:15.333455	209.6	14.5	-92.4	4.5
#Closed at: 2025-01-04 10:06:54.558940