passes_logs/2025/01/09/X_MFTI_01/X_MFTI_01__20250109_234757_SUOMI_NPP_rec.log

#Pass ID: 20250109_234757_SUOMI NPP
#Satellite: SUOMI NPP
#Configuration: NPP
#Start time: 2025-01-09 23:47:54

#Version: 1.5.20200625
#Station: X_MFTI_01
#Location: 37.5186 lon 55.9291 lat
#TLE: 1 37849U 11061A   23362.48341244  .00000167  00000+0  99749-4 0  9991
#TLE: 2 37849  98.7252 298.0509 0001500  77.1966 282.9377 14.19535461630502

#Time	Az	El	Level	Level2	SNR	BER	Gain	Gain2
2025-01-09 23:47:54.17	12.58	68.70	-71.2	-96.0	3.8	14916305	99	62301
2025-01-09 23:47:54.38	12.56	68.80	-71.5	-96.2	3.8	14912826	99	61472
2025-01-09 23:47:54.59	12.53	68.89	-71.4	-96.0	3.8	14912826	99	61233
2025-01-09 23:47:54.80	12.51	68.99	-71.4	-96.1	3.8	14900962	99	61610
2025-01-09 23:47:55.00	12.48	69.08	-71.4	-96.1	3.8	14900962	99	61364
2025-01-09 23:47:55.21	12.45	69.18	-71.5	-96.1	3.8	14904411	99	61514
2025-01-09 23:47:55.42	12.43	69.27	-71.4	-96.1	3.8	14904411	99	61628
2025-01-09 23:47:55.63	12.40	69.37	-71.4	-96.1	3.8	14913818	99	61571
2025-01-09 23:47:55.84	12.37	69.47	-71.4	-96.1	3.8	14913818	99	61652
2025-01-09 23:47:56.05	12.34	69.56	-71.5	-96.1	3.8	14913818	99	61385
2025-01-09 23:47:56.26	12.31	69.66	-71.5	-96.1	3.9	14915145	99	61288
2025-01-09 23:47:56.46	12.29	69.75	-71.5	-96.1	3.9	14915145	99	61218
2025-01-09 23:47:56.67	12.26	69.85	-71.4	-96.1	3.8	14899635	99	61514
2025-01-09 23:47:56.88	12.23	69.95	-71.4	-96.1	3.8	14899635	99	61503
2025-01-09 23:47:57.09	12.20	70.04	-71.4	-96.1	3.8	14916984	99	61549
2025-01-09 23:47:57.30	12.17	70.14	-71.4	-96.1	3.8	14916984	99	61588
2025-01-09 23:47:57.51	12.14	70.24	-71.5	-96.1	3.8	14911575	99	61351
2025-01-09 23:47:57.72	12.11	70.34	-71.5	-96.1	3.8	14911575	99	61549
2025-01-09 23:47:57.93	12.07	70.43	-71.5	-96.1	3.8	14901168	99	61554
2025-01-09 23:47:58.13	12.04	70.53	-71.5	-96.3	3.8	14901168	99	62652
2025-01-09 23:47:58.34	12.01	70.63	-71.5	-96.3	3.8	14909255	99	62734
2025-01-09 23:47:58.55	11.98	70.72	-71.5	-96.3	3.8	14909255	99	62807
2025-01-09 23:47:58.76	11.95	70.82	-71.5	-96.3	3.8	14912078	99	62725
2025-01-09 23:47:58.97	11.92	70.92	-71.5	-96.3	3.8	14912078	99	62769
2025-01-09 23:47:59.18	11.88	71.02	-71.5	-96.3	3.9	14911376	99	62569
2025-01-09 23:47:59.38	11.85	71.11	-71.5	-96.3	3.9	14911376	99	62504
2025-01-09 23:47:59.59	11.82	71.21	-71.5	-96.3	3.9	14902542	99	62465
2025-01-09 23:47:59.80	11.78	71.31	-71.5	-96.3	3.8	14902542	99	62384
2025-01-09 23:48:00.01	11.75	71.41	-71.3	-96.1	3.8	14902542	99	62192
2025-01-09 23:48:00.22	11.71	71.51	-71.4	-96.3	3.8	14901817	99	62795
2025-01-09 23:48:00.42	11.68	71.60	-71.4	-96.3	3.8	14895896	99	62726
2025-01-09 23:48:00.63	11.64	71.70	-71.3	-95.6	3.8	14895896	99	59462
2025-01-09 23:48:00.84	11.61	71.80	-71.5	-96.3	3.8	14895896	99	62815
2025-01-09 23:48:01.05	11.57	71.90	-71.5	-96.3	3.8	14903724	99	62858
2025-01-09 23:48:01.26	11.53	71.99	-71.5	-96.3	3.8	14903724	99	62820
2025-01-09 23:48:01.46	11.50	72.09	-71.5	-96.3	3.8	14910964	99	62853
2025-01-09 23:48:01.67	11.46	72.19	-71.5	-96.3	3.8	14910964	99	62674
2025-01-09 23:48:01.88	11.42	72.29	-71.5	-96.3	3.8	14904182	99	62835
2025-01-09 23:48:02.09	11.38	72.39	-71.5	-96.3	3.8	14904182	99	62845
2025-01-09 23:48:02.30	11.34	72.49	-71.5	-96.3	3.8	14909156	99	62641
2025-01-09 23:48:02.50	11.30	72.58	-71.5	-96.3	3.9	14909156	99	62660
2025-01-09 23:48:02.71	11.26	72.68	-71.5	-96.3	3.9	14912315	99	62538
2025-01-09 23:48:02.92	11.22	72.78	-71.5	-96.3	3.8	14912315	99	62767
2025-01-09 23:48:03.13	11.18	72.88	-71.4	-96.0	3.8	14906532	99	61104
2025-01-09 23:48:03.34	11.14	72.98	-71.4	-96.1	3.8	14906532	99	61645
2025-01-09 23:48:03.55	11.10	73.08	-71.4	-96.1	3.8	14914161	99	61574
2025-01-09 23:48:03.76	11.05	73.18	-71.4	-96.1	3.8	14914161	99	61484
2025-01-09 23:48:03.97	11.01	73.28	-71.4	-96.1	3.9	14923408	99	61356
2025-01-09 23:48:04.17	10.97	73.38	-71.5	-96.1	3.9	14923408	99	61184
2025-01-09 23:48:04.38	10.92	73.48	-71.3	-95.9	3.9	14895027	99	60986
2025-01-09 23:48:04.59	10.88	73.58	-71.5	-96.1	3.8	14895027	99	61157
2025-01-09 23:48:04.80	10.83	73.68	-71.3	-95.9	3.8	14895027	99	61021
2025-01-09 23:48:05.00	10.79	73.77	-71.4	-96.1	3.8	14901115	99	61692
2025-01-09 23:48:05.21	10.74	73.87	-71.4	-96.0	3.8	14901115	99	61216
2025-01-09 23:48:05.42	10.69	73.97	-71.5	-96.1	3.8	14914337	99	61597
2025-01-09 23:48:05.63	10.64	74.07	-71.4	-96.1	3.8	14914337	99	61621
2025-01-09 23:48:05.84	10.59	74.18	-71.4	-96.1	3.8	14914657	99	61630
2025-01-09 23:48:06.05	10.54	74.28	-71.4	-96.1	3.8	14914657	99	61585
2025-01-09 23:48:06.25	10.50	74.37	-71.4	-96.0	3.8	14912734	99	61145
2025-01-09 23:48:06.46	10.45	74.47	-71.5	-96.1	3.8	14912734	99	61541
2025-01-09 23:48:06.67	10.39	74.57	-71.4	-96.1	3.8	14904541	99	61549
2025-01-09 23:48:06.88	10.34	74.68	-71.5	-96.1	3.8	14904541	99	61523
2025-01-09 23:48:07.09	10.29	74.78	-71.4	-96.1	3.9	14913436	99	61433
2025-01-09 23:48:07.30	10.23	74.88	-71.4	-96.1	3.8	14913436	99	61399
2025-01-09 23:48:07.51	10.18	74.98	-71.4	-96.1	3.9	14910873	99	61437
2025-01-09 23:48:07.72	10.12	75.08	-71.4	-96.1	3.8	14910873	99	61639
2025-01-09 23:48:07.92	10.07	75.18	-71.5	-96.1	3.8	14911041	99	61654
2025-01-09 23:48:08.13	10.01	75.28	-71.5	-96.3	3.8	14911041	99	62790
2025-01-09 23:48:08.34	9.96	75.38	-71.5	-96.3	3.8	14904655	99	62873
2025-01-09 23:48:08.55	9.90	75.48	-71.5	-96.3	3.8	14904655	99	62818
2025-01-09 23:48:08.76	9.84	75.58	-71.5	-96.3	3.8	14897651	99	62854
2025-01-09 23:48:08.97	9.78	75.68	-71.5	-96.3	3.9	14897651	99	62578
2025-01-09 23:48:09.18	9.72	75.79	-71.5	-96.1	3.9	14893157	99	61185
2025-01-09 23:48:09.39	9.65	75.89	-71.4	-96.0	3.8	14893157	99	61138
2025-01-09 23:48:09.59	9.59	75.99	-71.3	-95.9	3.8	14893157	99	60894
2025-01-09 23:48:09.80	9.53	76.09	-71.4	-96.1	3.8	14904113	99	61648
2025-01-09 23:48:10.01	9.46	76.19	-71.4	-96.1	3.8	14904113	99	61535
2025-01-09 23:48:10.22	9.40	76.29	-71.4	-96.1	3.8	14909469	99	61552
2025-01-09 23:48:10.43	9.33	76.39	-71.5	-96.1	3.8	14909469	99	61698
2025-01-09 23:48:10.63	9.27	76.49	-71.5	-96.1	3.8	14907882	99	61629
2025-01-09 23:48:10.84	9.20	76.59	-71.4	-96.1	3.8	14907882	99	61530
2025-01-09 23:48:11.05	9.13	76.70	-71.4	-96.1	3.8	14899154	99	61848
2025-01-09 23:48:11.26	9.05	76.80	-71.4	-96.1	3.8	14899154	99	61541
2025-01-09 23:48:11.47	8.98	76.90	-71.4	-96.1	3.8	14905807	99	61559
2025-01-09 23:48:11.67	8.91	77.00	-71.4	-96.1	3.8	14905807	99	61529
2025-01-09 23:48:11.88	8.84	77.10	-71.5	-96.1	3.9	14908744	99	61395
2025-01-09 23:48:12.09	8.76	77.20	-71.4	-96.1	3.9	14908744	99	61407
2025-01-09 23:48:12.30	8.68	77.31	-71.4	-96.0	3.9	14904388	99	61227
2025-01-09 23:48:12.50	8.61	77.40	-71.5	-96.1	3.9	14904388	99	61111
2025-01-09 23:48:12.71	8.53	77.51	-71.5	-96.1	3.8	14908851	99	61139
2025-01-09 23:48:12.92	8.45	77.61	-71.4	-96.1	3.8	14908851	99	61692
2025-01-09 23:48:13.13	8.36	77.71	-71.4	-96.1	3.8	14902496	99	61856
2025-01-09 23:48:13.34	8.28	77.81	-71.4	-96.1	3.8	14902496	99	62121
2025-01-09 23:48:13.55	8.19	77.92	-71.4	-96.1	3.9	14906753	99	61953
2025-01-09 23:48:13.76	8.10	78.02	-71.4	-96.1	3.9	14906753	99	61870
2025-01-09 23:48:13.97	8.02	78.12	-71.5	-96.2	3.8	14897720	99	62162
2025-01-09 23:48:14.17	7.93	78.22	-71.5	-96.2	3.8	14897720	99	62224
2025-01-09 23:48:14.38	7.84	78.32	-71.4	-96.2	3.8	14897720	99	62238
2025-01-09 23:48:14.59	7.74	78.43	-71.5	-96.2	3.8	14903915	99	61779
2025-01-09 23:48:14.80	7.65	78.53	-71.5	-96.2	3.8	14903915	99	62057
2025-01-09 23:48:15.01	7.55	78.63	-71.5	-96.2	3.8	14901809	99	62037
2025-01-09 23:48:15.22	7.45	78.74	-71.5	-96.2	3.8	14901809	99	62204
2025-01-09 23:48:15.43	7.35	78.84	-71.4	-96.1	3.8	14909187	99	61866
2025-01-09 23:48:15.63	7.25	78.94	-71.5	-96.2	3.8	14909187	99	62146
2025-01-09 23:48:15.84	7.15	79.04	-71.5	-96.2	3.8	14900650	99	62089
2025-01-09 23:48:16.05	7.04	79.14	-71.4	-96.2	3.8	14900650	99	62120
2025-01-09 23:48:16.26	6.93	79.25	-71.5	-96.2	3.8	14903564	99	62157
2025-01-09 23:48:16.47	6.82	79.35	-71.5	-96.1	3.8	14903564	99	61699
2025-01-09 23:48:16.68	6.71	79.45	-71.5	-96.2	3.8	14906799	99	61880
2025-01-09 23:48:16.89	6.59	79.56	-71.5	-96.2	3.9	14906799	99	61751
2025-01-09 23:48:17.10	6.47	79.66	-71.4	-96.1	3.9	14901504	99	61698
2025-01-09 23:48:17.30	6.36	79.76	-71.5	-96.1	3.8	14901504	99	61517
2025-01-09 23:48:17.51	6.23	79.86	-74.8	-99.4	3.8	14906982	99	61366
2025-01-09 23:48:17.72	6.11	79.97	-71.4	-96.2	3.8	14906982	99	62268
2025-01-09 23:48:17.93	5.98	80.07	-71.4	-96.1	3.8	14906448	99	62123
2025-01-09 23:48:18.14	5.85	80.17	-71.4	-96.2	3.8	14906448	99	61966
2025-01-09 23:48:18.35	5.71	80.28	-71.4	-96.2	3.8	14906448	99	62090
2025-01-09 23:48:18.56	5.58	80.38	-71.5	-96.1	3.8	14910461	99	61536
2025-01-09 23:48:18.77	5.44	80.48	-71.5	-96.1	3.9	14901130	99	61503
2025-01-09 23:48:18.97	5.30	80.58	-71.5	-96.1	3.8	14901130	99	61291
2025-01-09 23:48:19.18	5.15	80.68	-71.5	-96.1	3.8	14901130	99	61756
2025-01-09 23:48:19.39	5.00	80.79	-71.5	-96.2	3.8	14903495	99	61727
2025-01-09 23:48:19.60	4.85	80.89	-71.5	-96.1	3.8	14903495	99	61531
2025-01-09 23:48:19.81	4.69	80.99	-71.5	-96.2	3.8	14908226	99	61693
2025-01-09 23:48:20.02	4.53	81.10	-71.4	-96.1	3.8	14908226	99	61651
2025-01-09 23:48:20.22	4.38	81.20	-71.5	-96.1	3.9	14907257	99	61337
2025-01-09 23:48:20.43	4.21	81.30	-71.4	-96.1	3.8	14907257	99	61272
2025-01-09 23:48:20.64	4.04	81.40	-71.3	-95.9	3.8	14901199	99	60941
2025-01-09 23:48:20.85	3.86	81.51	-71.4	-96.1	3.8	14901199	99	61790
2025-01-09 23:48:21.06	3.68	81.61	-71.4	-96.1	3.8	14899085	99	61781
2025-01-09 23:48:21.27	3.50	81.71	-71.5	-96.2	3.8	14899085	99	61842
2025-01-09 23:48:21.47	3.32	81.81	-71.5	-96.2	3.8	14909927	99	61882
2025-01-09 23:48:21.68	3.12	81.91	-71.5	-96.1	3.8	14909927	99	61635
2025-01-09 23:48:21.89	2.92	82.02	-71.4	-96.1	3.8	14899841	99	61660
2025-01-09 23:48:22.10	2.72	82.12	-71.5	-96.1	3.8	14899841	99	61699
2025-01-09 23:48:22.31	2.51	82.22	-71.4	-96.1	3.8	14905700	99	61656
2025-01-09 23:48:22.52	2.29	82.32	-71.4	-96.1	3.8	14905700	99	61766
2025-01-09 23:48:22.73	2.07	82.43	-71.4	-96.1	3.8	14912910	99	61415
2025-01-09 23:48:22.94	1.84	82.53	-71.4	-96.0	3.9	14912910	99	60953
2025-01-09 23:48:23.15	1.60	82.63	-71.5	-96.0	3.9	14912910	99	60897
2025-01-09 23:48:23.36	1.36	82.74	-71.4	-96.0	3.9	14898735	99	60885
2025-01-09 23:48:23.57	1.11	82.84	-71.4	-96.0	3.8	14901611	99	61271
2025-01-09 23:48:23.77	0.87	82.94	-71.4	-96.0	3.8	14901611	99	61149
2025-01-09 23:48:23.98	0.61	83.04	-71.4	-96.0	3.8	14901611	99	61196
2025-01-09 23:48:24.19	0.34	83.14	-71.4	-96.0	3.8	14908927	99	61241
2025-01-09 23:48:24.40	0.06	83.24	-71.4	-96.0	3.8	14908927	99	61239
2025-01-09 23:48:24.61	359.77	83.34	-71.4	-96.1	3.8	14915847	99	61291
2025-01-09 23:48:24.82	359.47	83.44	-71.5	-96.0	3.9	14915847	99	60898
2025-01-09 23:48:25.03	359.16	83.55	-71.3	-95.9	3.9	14898597	99	60828
2025-01-09 23:48:25.24	358.85	83.65	-71.4	-96.0	3.9	14898597	99	60937
2025-01-09 23:48:25.45	358.52	83.75	-73.9	-98.4	3.8	14905624	99	60558
2025-01-09 23:48:25.65	358.20	83.85	-71.4	-96.1	3.8	14905624	99	61327
2025-01-09 23:48:25.86	357.85	83.95	-71.4	-96.1	3.8	14901840	99	61395
2025-01-09 23:48:26.07	357.49	84.05	-71.5	-96.1	3.8	14901840	99	61455
2025-01-09 23:48:26.28	357.12	84.15	-71.4	-96.1	3.8	14901596	99	61246
2025-01-09 23:48:26.49	356.73	84.25	-71.5	-96.1	3.8	14901596	99	61378
2025-01-09 23:48:26.70	356.33	84.35	-71.4	-96.1	3.8	14912544	99	61445
2025-01-09 23:48:26.90	355.94	84.44	-71.4	-96.0	3.8	14912544	99	61447
2025-01-09 23:48:27.11	355.51	84.54	-71.4	-96.1	3.8	14906242	99	61299
2025-01-09 23:48:27.32	355.07	84.64	-71.4	-96.0	3.8	14906242	99	61404
2025-01-09 23:48:27.53	354.61	84.74	-71.4	-96.0	3.8	14905754	99	61472
2025-01-09 23:48:27.74	354.13	84.84	-71.5	-96.1	3.8	14905754	99	61388
2025-01-09 23:48:27.95	353.63	84.94	-71.4	-96.0	3.9	14905754	99	61276
2025-01-09 23:48:28.15	353.14	85.03	-71.4	-96.0	3.9	14915336	99	61211
2025-01-09 23:48:28.36	352.60	85.13	-71.4	-96.0	3.9	14915336	99	60929
2025-01-09 23:48:28.57	352.04	85.22	-71.4	-96.1	3.8	14902946	99	61453
2025-01-09 23:48:28.78	351.46	85.32	-71.4	-96.0	3.8	14902946	99	61466
2025-01-09 23:48:28.99	350.85	85.42	-71.4	-96.1	3.8	14903770	99	61528
2025-01-09 23:48:29.20	350.22	85.51	-71.4	-96.1	3.8	14903770	99	61559
2025-01-09 23:48:29.40	349.59	85.60	-71.4	-96.0	3.8	14931892	99	61587
2025-01-09 23:48:29.61	348.90	85.70	-71.4	-96.1	3.8	14931892	99	61517
2025-01-09 23:48:29.82	348.18	85.79	-71.5	-96.0	3.9	14904258	99	60861
2025-01-09 23:48:30.03	347.42	85.88	-71.4	-96.0	3.8	14904258	99	60905
2025-01-09 23:48:30.24	346.64	85.98	-71.3	-95.9	3.8	14902191	99	60922
2025-01-09 23:48:30.45	345.81	86.07	-71.4	-96.1	3.8	14902191	99	61461
2025-01-09 23:48:30.65	344.99	86.16	-71.4	-96.1	3.8	14905303	99	61496
2025-01-09 23:48:30.86	344.09	86.24	-71.4	-96.0	3.8	14905303	99	61337
2025-01-09 23:48:31.07	343.14	86.33	-71.4	-96.1	3.8	14909202	99	61501
2025-01-09 23:48:31.28	342.14	86.42	-71.4	-96.1	3.8	14909202	99	61545
2025-01-09 23:48:31.49	341.10	86.51	-71.4	-96.1	3.8	14910568	99	61520
2025-01-09 23:48:31.70	340.00	86.59	-71.4	-96.0	3.8	14910568	99	61596
2025-01-09 23:48:31.90	338.90	86.67	-71.4	-96.0	3.8	14897422	99	61138
2025-01-09 23:48:32.11	337.69	86.76	-71.5	-96.1	3.8	14897422	99	61580
2025-01-09 23:48:32.32	336.42	86.84	-71.4	-96.0	3.8	14909835	99	61605
2025-01-09 23:48:32.53	335.07	86.92	-71.5	-96.1	3.8	14909835	99	61550
2025-01-09 23:48:32.74	333.66	87.00	-71.5	-96.1	3.8	14909835	99	61548
2025-01-09 23:48:32.95	332.18	87.07	-71.5	-96.1	3.8	14903915	99	61607
2025-01-09 23:48:33.16	330.61	87.15	-71.5	-96.2	3.8	14903915	99	61788
2025-01-09 23:48:33.36	329.04	87.22	-71.5	-96.3	3.8	14908576	99	62850
2025-01-09 23:48:33.57	327.31	87.29	-71.4	-96.2	3.8	14908576	99	62782
2025-01-09 23:48:33.78	325.49	87.35	-71.4	-96.2	3.8	14900787	99	62653
2025-01-09 23:48:33.99	323.58	87.42	-71.5	-96.3	3.8	14900787	99	62823
2025-01-09 23:48:34.20	321.57	87.48	-71.5	-96.3	3.8	14903533	99	62835
2025-01-09 23:48:34.41	319.47	87.54	-71.4	-96.2	3.8	14903533	99	62688
2025-01-09 23:48:34.62	317.27	87.59	-71.5	-96.3	3.9	14906623	99	62712
2025-01-09 23:48:34.83	314.97	87.64	-71.5	-96.3	3.8	14906623	99	62437
2025-01-09 23:48:35.03	312.68	87.69	-71.4	-96.3	3.8	14906555	99	62757
2025-01-09 23:48:35.24	310.20	87.73	-71.4	-96.3	3.8	14906555	99	62822
2025-01-09 23:48:35.45	307.62	87.77	-71.4	-96.3	3.8	14907890	99	62849
2025-01-09 23:48:35.66	304.95	87.80	-71.4	-96.3	3.8	14907890	99	62815
2025-01-09 23:48:35.87	302.21	87.83	-71.5	-96.3	3.9	14907363	99	62626
2025-01-09 23:48:36.08	299.40	87.85	-71.5	-96.3	3.8	14907363	99	62412
2025-01-09 23:48:36.29	296.54	87.87	-71.5	-96.3	3.8	14910156	99	62647
2025-01-09 23:48:36.49	293.77	87.88	-74.9	-99.7	3.8	14910156	99	62205
2025-01-09 23:48:36.70	290.84	87.89	-71.5	-96.3	3.8	14910156	99	62937
2025-01-09 23:48:36.91	287.89	87.89	-71.5	-96.3	3.8	14901016	99	62986
2025-01-09 23:48:37.12	284.95	87.89	-71.5	-96.3	3.8	14912643	99	62899
2025-01-09 23:48:37.33	282.02	87.88	-71.5	-96.4	3.8	14912643	99	62887
2025-01-09 23:48:37.53	279.26	87.87	-71.5	-96.3	3.8	14912643	99	62845
2025-01-09 23:48:37.74	276.40	87.85	-71.4	-96.3	3.8	14897644	99	62867
2025-01-09 23:48:37.95	273.61	87.82	-71.5	-96.3	3.8	14897644	99	62967
2025-01-09 23:48:38.16	270.88	87.79	-71.4	-96.3	3.8	14903709	99	62722
2025-01-09 23:48:38.37	268.23	87.76	-71.4	-96.3	3.8	14903709	99	62900
2025-01-09 23:48:38.58	265.67	87.72	-71.5	-96.3	3.8	14905525	99	62865
2025-01-09 23:48:38.79	263.20	87.68	-71.5	-96.3	3.9	14905525	99	62720
2025-01-09 23:48:39.00	260.83	87.63	-71.4	-96.2	3.9	14907752	99	62603
2025-01-09 23:48:39.20	258.66	87.58	-71.4	-96.1	3.8	14907752	99	61834
2025-01-09 23:48:39.41	256.47	87.52	-71.5	-96.2	3.8	14895675	99	61832
2025-01-09 23:48:39.62	254.39	87.47	-71.5	-96.2	3.8	14895675	99	62316
2025-01-09 23:48:39.83	252.40	87.40	-71.4	-96.2	3.8	14905914	99	62291
2025-01-09 23:48:40.03	250.60	87.34	-71.5	-96.2	3.8	14905914	99	62242
2025-01-09 23:48:40.24	248.79	87.28	-71.4	-96.2	3.8	14912887	99	62216
2025-01-09 23:48:40.45	247.07	87.21	-71.5	-96.2	3.8	14912887	99	62086
2025-01-09 23:48:40.66	245.44	87.13	-71.4	-96.2	3.8	14904411	99	62152
2025-01-09 23:48:40.87	243.89	87.06	-71.5	-96.2	3.9	14904411	99	61810
2025-01-09 23:48:41.07	242.49	86.99	-71.4	-96.1	3.8	14913894	99	61629
2025-01-09 23:48:41.28	241.09	86.91	-73.0	-97.6	3.8	14913894	99	61367
2025-01-09 23:48:41.49	239.76	86.83	-71.4	-96.2	3.8	14913894	99	62180
2025-01-09 23:48:41.70	238.49	86.75	-71.4	-96.2	3.8	14901077	99	62145
2025-01-09 23:48:41.91	237.29	86.66	-71.4	-96.1	3.8	14901077	99	62115
2025-01-09 23:48:42.12	236.15	86.58	-71.4	-96.1	3.8	14906768	99	61661
2025-01-09 23:48:42.32	235.11	86.50	-71.4	-96.1	3.8	14906768	99	61964
2025-01-09 23:48:42.53	234.07	86.41	-71.4	-96.2	3.8	14909790	99	62123
2025-01-09 23:48:42.74	233.08	86.32	-71.4	-96.2	3.8	14909790	99	62115
2025-01-09 23:48:42.95	232.14	86.23	-71.4	-96.1	3.8	14904541	99	62073
2025-01-09 23:48:43.15	231.29	86.15	-71.4	-96.2	3.8	14904541	99	62090
2025-01-09 23:48:43.36	230.43	86.05	-71.4	-96.3	3.8	14908622	99	62968
2025-01-09 23:48:43.57	229.61	85.96	-71.5	-96.3	3.8	14908622	99	62739
2025-01-09 23:48:43.78	228.83	85.87	-71.5	-96.3	3.8	14907394	99	62844
2025-01-09 23:48:43.99	228.08	85.78	-71.5	-96.3	3.8	14907394	99	62976
2025-01-09 23:48:44.19	227.40	85.69	-71.4	-96.2	3.8	14895805	99	62437
2025-01-09 23:48:44.40	226.71	85.59	-71.5	-96.4	3.8	14895805	99	62811
2025-01-09 23:48:44.61	226.05	85.50	-71.5	-96.3	3.8	14910385	99	62900
2025-01-09 23:48:44.82	225.43	85.40	-71.4	-96.3	3.8	14910385	99	62957
2025-01-09 23:48:45.02	224.85	85.31	-71.5	-96.4	3.8	14901550	99	62843
2025-01-09 23:48:45.23	224.27	85.21	-71.5	-96.3	3.8	14901550	99	62759
2025-01-09 23:48:45.44	223.71	85.12	-71.5	-96.3	3.8	14902168	99	62917
2025-01-09 23:48:45.65	223.18	85.02	-71.5	-96.3	3.8	14902168	99	62897
2025-01-09 23:48:45.86	222.66	84.92	-71.5	-96.3	3.8	14902168	99	62916
2025-01-09 23:48:46.07	222.17	84.82	-71.4	-96.3	3.8	14903244	99	62767
2025-01-09 23:48:46.27	221.71	84.73	-71.4	-96.2	3.8	14903244	99	62783
2025-01-09 23:48:46.48	221.25	84.63	-71.5	-96.3	3.8	14902153	99	62675
2025-01-09 23:48:46.69	220.81	84.53	-71.5	-96.3	3.8	14902153	99	62911
2025-01-09 23:48:46.90	220.38	84.43	-71.5	-96.3	3.8	14905166	99	62876
2025-01-09 23:48:47.11	219.97	84.33	-71.5	-96.3	3.8	14905166	99	63004
2025-01-09 23:48:47.32	219.57	84.23	-71.4	-96.2	3.9	14897430	99	62245
2025-01-09 23:48:47.52	219.21	84.14	-73.8	-98.5	3.8	14897430	99	61932
2025-01-09 23:48:47.73	218.84	84.03	-71.5	-96.3	3.8	14914962	99	62853
2025-01-09 23:48:47.94	218.48	83.93	-71.5	-96.3	3.8	14914962	99	62805
2025-01-09 23:48:48.15	218.13	83.83	-71.5	-96.3	3.8	14904228	99	62830
2025-01-09 23:48:48.36	217.80	83.73	-71.5	-96.3	3.9	14904228	99	62560
2025-01-09 23:48:48.57	217.47	83.63	-71.5	-96.4	3.8	14912612	99	62858
2025-01-09 23:48:48.77	217.17	83.53	-71.5	-96.3	3.8	14912612	99	62870
2025-01-09 23:48:48.98	216.86	83.43	-71.5	-96.3	3.8	14904342	99	62788
2025-01-09 23:48:49.19	216.57	83.33	-71.5	-96.3	3.8	14904342	99	62871
2025-01-09 23:48:49.40	216.28	83.23	-71.5	-96.3	3.8	14911872	99	62883
2025-01-09 23:48:49.61	216.00	83.13	-71.4	-96.3	3.8	14911872	99	62886
2025-01-09 23:48:49.82	215.73	83.02	-71.5	-96.3	3.8	14899734	99	62716
2025-01-09 23:48:50.02	215.48	82.93	-71.5	-96.3	3.9	14899734	99	62666
2025-01-09 23:48:50.23	215.23	82.82	-71.5	-96.3	3.9	14907493	99	62471
2025-01-09 23:48:50.44	214.98	82.72	-71.5	-96.3	3.9	14907493	99	62360
2025-01-09 23:48:50.65	214.74	82.62	-71.5	-96.3	3.8	14907493	99	62350
2025-01-09 23:48:50.86	214.50	82.52	-71.5	-96.3	3.8	14906890	99	62928
2025-01-09 23:48:51.07	214.28	82.41	-71.5	-96.3	3.8	14906890	99	62868
2025-01-09 23:48:51.27	214.07	82.32	-71.5	-96.3	3.8	14911407	99	62901
2025-01-09 23:48:51.48	213.85	82.21	-71.5	-96.4	3.8	14911407	99	62978
2025-01-09 23:48:51.69	213.64	82.11	-71.5	-96.3	3.8	14914634	99	62841
2025-01-09 23:48:51.90	213.43	82.01	-71.5	-96.3	3.8	14914634	99	62911
2025-01-09 23:48:52.11	213.23	81.90	-71.5	-96.3	3.8	14907508	99	62938
2025-01-09 23:48:52.32	213.04	81.80	-74.1	-98.8	3.8	14907508	99	62113
2025-01-09 23:48:52.52	212.86	81.70	-71.4	-96.3	3.8	14914001	99	62850
2025-01-09 23:48:52.73	212.67	81.60	-71.5	-96.3	3.8	14914001	99	62902
2025-01-09 23:48:52.94	212.49	81.50	-71.4	-96.3	3.8	14905982	99	62843
2025-01-09 23:48:53.15	212.32	81.39	-71.4	-96.3	3.8	14905982	99	62842
2025-01-09 23:48:53.36	212.15	81.29	-71.4	-96.0	3.9	14916603	99	61367
2025-01-09 23:48:53.57	211.98	81.19	-71.4	-96.1	3.8	14916603	99	61690
2025-01-09 23:48:53.78	211.82	81.08	-71.4	-96.1	3.8	14896881	99	61604
2025-01-09 23:48:53.98	211.66	80.98	-71.4	-96.0	3.8	14896881	99	61581
2025-01-09 23:48:54.19	211.51	80.88	-71.4	-96.1	3.8	14899971	99	61647
2025-01-09 23:48:54.40	211.35	80.78	-71.4	-96.1	3.8	14899971	99	61626
2025-01-09 23:48:54.61	211.20	80.67	-71.4	-96.1	3.8	14899971	99	61633
2025-01-09 23:48:54.82	211.06	80.57	-71.4	-96.1	3.9	14924591	99	61485
2025-01-09 23:48:55.03	210.92	80.47	-71.4	-96.1	3.8	14924591	99	61304
2025-01-09 23:48:55.24	210.78	80.36	-71.4	-96.0	3.9	14912117	99	61240
2025-01-09 23:48:55.44	210.65	80.27	-71.5	-96.2	3.8	14912117	99	61549
2025-01-09 23:48:55.65	210.51	80.16	-71.5	-96.2	3.8	14899505	99	62232
2025-01-09 23:48:55.86	210.38	80.06	-71.5	-96.2	3.8	14899505	99	62200
2025-01-09 23:48:56.07	210.25	79.96	-71.5	-96.2	3.8	14901290	99	62122
2025-01-09 23:48:56.28	210.13	79.85	-71.5	-96.2	3.8	14901290	99	62207
2025-01-09 23:48:56.48	210.01	79.75	-71.4	-96.1	3.8	14915336	99	61972
2025-01-09 23:48:56.69	209.89	79.65	-71.4	-96.2	3.8	14915336	99	62167
2025-01-09 23:48:56.90	209.77	79.55	-71.5	-96.3	3.8	14902938	99	62365
2025-01-09 23:48:57.11	209.65	79.44	-71.5	-96.2	3.8	14902938	99	62305
2025-01-09 23:48:57.32	209.54	79.34	-71.4	-96.2	3.8	14896743	99	62302
2025-01-09 23:48:57.52	209.44	79.24	-71.5	-96.2	3.8	14896743	99	62079
2025-01-09 23:48:57.73	209.33	79.14	-71.5	-96.2	3.8	14912780	99	62241
2025-01-09 23:48:57.94	209.22	79.03	-71.5	-96.2	3.9	14912780	99	61959
2025-01-09 23:48:58.15	209.11	78.93	-71.4	-96.2	3.9	14895446	99	62084
2025-01-09 23:48:58.36	209.01	78.83	-71.5	-96.2	3.8	14895446	99	61955
2025-01-09 23:48:58.56	208.91	78.73	-71.5	-96.1	3.9	14906120	99	61245
2025-01-09 23:48:58.77	208.82	78.63	-71.4	-96.1	3.8	14906120	99	61945
2025-01-09 23:48:58.98	208.72	78.52	-71.5	-96.2	3.8	14905494	99	61856
2025-01-09 23:48:59.19	208.62	78.42	-71.4	-96.1	3.8	14905494	99	61392
2025-01-09 23:48:59.40	208.53	78.32	-71.4	-96.1	3.8	14905494	99	61560
2025-01-09 23:48:59.61	208.44	78.21	-71.4	-96.1	3.8	14917930	99	61416
2025-01-09 23:48:59.82	208.35	78.11	-71.4	-96.1	3.9	14917930	99	61510
2025-01-09 23:49:00.03	208.26	78.01	-71.1	-95.4	3.8	14899658	99	59144
2025-01-09 23:49:00.23	208.17	77.91	-71.4	-96.0	3.8	14899658	99	61080
2025-01-09 23:49:00.44	208.09	77.81	-71.4	-96.1	3.8	14902267	99	61511
2025-01-09 23:49:00.65	208.00	77.70	-71.3	-96.0	3.8	14902267	99	61290
2025-01-09 23:49:00.86	207.92	77.60	-71.4	-96.0	3.8	14901962	99	61416
2025-01-09 23:49:01.07	207.84	77.50	-71.4	-96.1	3.8	14901962	99	61671
2025-01-09 23:49:01.27	207.76	77.40	-71.4	-96.1	3.8	14914306	99	61627
2025-01-09 23:49:01.48	207.68	77.30	-71.4	-96.1	3.8	14914306	99	61731
2025-01-09 23:49:01.69	207.61	77.19	-71.4	-96.1	3.8	14910316	99	61619
2025-01-09 23:49:01.90	207.53	77.09	-71.4	-96.1	3.8	14910316	99	61617
2025-01-09 23:49:02.11	207.45	76.99	-71.4	-96.1	3.8	14905563	99	61588
2025-01-09 23:49:02.32	207.38	76.89	-71.4	-96.1	3.8	14905563	99	61568
2025-01-09 23:49:02.53	207.31	76.78	-71.5	-96.1	3.8	14916259	99	61670
2025-01-09 23:49:02.73	207.24	76.69	-71.5	-96.1	3.8	14916259	99	61629
2025-01-09 23:49:02.94	207.17	76.58	-71.4	-96.1	3.8	14907737	99	61578
2025-01-09 23:49:03.15	207.10	76.48	-71.4	-96.1	3.8	14907737	99	61517
2025-01-09 23:49:03.36	207.03	76.38	-71.4	-96.1	3.8	14907737	99	61586
2025-01-09 23:49:03.57	206.96	76.28	-71.4	-96.1	3.8	14914726	99	61654
2025-01-09 23:49:03.77	206.90	76.18	-71.4	-96.1	3.8	14906005	99	61624
2025-01-09 23:49:03.98	206.84	76.08	-71.4	-96.1	3.8	14906005	99	61642
2025-01-09 23:49:04.19	206.77	75.97	-71.4	-96.2	3.9	14906005	99	62033
2025-01-09 23:49:04.40	206.71	75.87	-71.5	-96.2	3.8	14909721	99	62031
2025-01-09 23:49:04.61	206.65	75.77	-71.5	-96.2	3.9	14909721	99	62297
2025-01-09 23:49:04.82	206.58	75.67	-71.5	-96.3	3.8	14901390	99	62519
2025-01-09 23:49:05.03	206.52	75.57	-71.5	-96.3	3.8	14901390	99	62532
2025-01-09 23:49:05.23	206.47	75.47	-71.4	-96.2	3.8	14901718	99	62489
2025-01-09 23:49:05.44	206.41	75.37	-71.5	-96.3	3.8	14901718	99	62554
2025-01-09 23:49:05.65	206.35	75.27	-71.4	-96.2	3.8	14914932	99	62531
2025-01-09 23:49:05.86	206.29	75.16	-71.4	-96.2	3.8	14914932	99	62494
2025-01-09 23:49:06.07	206.24	75.06	-71.5	-96.2	3.9	14909225	99	62342
2025-01-09 23:49:06.28	206.18	74.96	-71.5	-96.2	3.8	14909225	99	62339
2025-01-09 23:49:06.49	206.13	74.86	-71.5	-96.2	3.9	14905487	99	62173
2025-01-09 23:49:06.70	206.07	74.76	-71.4	-96.1	3.8	14905487	99	61877
2025-01-09 23:49:06.90	206.02	74.66	-71.4	-96.2	3.8	14901504	99	62362
2025-01-09 23:49:07.11	205.97	74.56	-71.5	-96.2	3.8	14901504	99	62258
2025-01-09 23:49:07.32	205.92	74.46	-71.5	-96.2	3.9	14915046	99	62514
2025-01-09 23:49:07.53	205.87	74.36	-71.5	-96.2	3.9	14915046	99	62368
2025-01-09 23:49:07.74	205.82	74.26	-71.5	-96.2	3.9	14913520	99	62407
2025-01-09 23:49:07.94	205.77	74.16	-71.5	-96.2	3.9	14913520	99	62176
2025-01-09 23:49:08.15	205.72	74.06	-71.5	-96.2	3.8	14913520	99	62022
2025-01-09 23:49:08.36	205.67	73.96	-71.4	-96.2	3.8	14912422	99	62507
2025-01-09 23:49:08.57	205.63	73.86	-71.5	-96.2	3.8	14906272	99	62495
2025-01-09 23:49:08.78	205.58	73.76	-71.3	-96.1	3.8	14906272	99	62365
2025-01-09 23:49:08.99	205.53	73.66	-71.5	-96.3	3.8	14906272	99	62518
2025-01-09 23:49:09.20	205.49	73.56	-71.5	-96.3	3.8	14892738	99	62804
2025-01-09 23:49:09.40	205.44	73.46	-71.5	-96.3	3.8	14892738	99	62926
2025-01-09 23:49:09.61	205.40	73.36	-71.5	-96.4	3.8	14905128	99	62839
2025-01-09 23:49:09.82	205.35	73.26	-72.9	-97.6	3.8	14905128	99	61611
2025-01-09 23:49:10.03	205.31	73.16	-71.5	-96.3	3.8	14899269	99	62637
2025-01-09 23:49:10.24	205.27	73.06	-71.4	-96.3	3.8	14899269	99	62748
2025-01-09 23:49:10.44	205.23	72.96	-71.4	-96.2	3.8	14907821	99	62591
2025-01-09 23:49:10.65	205.18	72.86	-71.5	-96.3	3.9	14907821	99	62696
2025-01-09 23:49:10.86	205.14	72.76	-71.4	-96.2	3.9	14911117	99	62538
2025-01-09 23:49:11.07	205.10	72.66	-71.5	-96.3	3.8	14911117	99	62879
2025-01-09 23:49:11.28	205.06	72.56	-71.5	-96.3	3.8	14907836	99	62871
2025-01-09 23:49:11.49	205.02	72.46	-71.5	-96.3	3.8	14907836	99	62833
2025-01-09 23:49:11.70	204.98	72.37	-71.4	-96.3	3.8	14920837	99	62888
2025-01-09 23:49:11.90	204.94	72.27	-71.4	-96.1	3.8	14920837	99	61946
2025-01-09 23:49:12.11	204.91	72.17	-71.5	-96.2	3.8	14918624	99	62269
2025-01-09 23:49:12.32	204.87	72.07	-71.5	-96.2	3.9	14918624	99	62089
2025-01-09 23:49:12.53	204.83	71.97	-71.4	-96.1	3.9	14903930	99	62001
2025-01-09 23:49:12.74	204.79	71.87	-71.5	-96.2	3.9	14903930	99	61939
2025-01-09 23:49:12.95	204.76	71.77	-71.5	-96.1	3.9	14903930	99	61618
2025-01-09 23:49:13.15	204.72	71.68	-71.4	-96.2	3.8	14909255	99	62276
2025-01-09 23:49:13.36	204.69	71.58	-71.4	-96.2	3.8	14909255	99	62326
2025-01-09 23:49:13.57	204.65	71.48	-71.4	-96.1	3.9	14910453	99	61778
2025-01-09 23:49:13.78	204.62	71.38	-71.4	-96.2	3.9	14910453	99	62121
2025-01-09 23:49:13.99	204.58	71.28	-71.4	-96.2	3.9	14902908	99	61973
2025-01-09 23:49:14.20	204.55	71.19	-71.5	-96.2	3.8	14902908	99	62211
2025-01-09 23:49:14.40	204.51	71.09	-71.4	-96.2	3.8	14895935	99	62019
2025-01-09 23:49:14.61	204.48	70.99	-71.9	-96.6	3.8	14895935	99	61719
2025-01-09 23:49:14.82	204.45	70.89	-71.5	-96.2	3.8	14911354	99	62410
2025-01-09 23:49:15.03	204.41	70.80	-71.5	-96.2	3.8	14911354	99	62418
2025-01-09 23:49:15.23	204.38	70.70	-71.4	-96.2	3.8	14901336	99	62547
2025-01-09 23:49:15.44	204.35	70.60	-71.4	-96.2	3.8	14901336	99	62372
2025-01-09 23:49:15.65	204.32	70.51	-71.4	-96.2	3.8	14906440	99	62567
2025-01-09 23:49:15.86	204.29	70.41	-71.5	-96.3	3.8	14906440	99	62508
2025-01-09 23:49:16.07	204.26	70.31	-71.4	-96.1	3.8	14899795	99	61834
2025-01-09 23:49:16.28	204.23	70.21	-71.5	-96.2	3.8	14899795	99	62334

#Closed at: 2025-01-09 23:49:16