passes_logs/2026/01/27/R3.2S_Murmansk/R3.2S_Murmansk__20260127_115556_TY-42_rec.log

#Pass ID: 20260127_115556_TY-42
#Satellite: TY-42
#Configuration: TY-42_900M
#almurnet v.1.7.20251203
#Start time: 2026-01-27 11:55:56

#Version: 2.2.20231116
#Station: R3.2S_Murmansk
#Location: 33.079688 lon 68.888172 lat
#TLE: 1 64048U 25103A   26027.24398148  .00008010  00000-0  38191-3 0 09993
#TLE: 2 64048 097.4117 102.4316 0001655 092.8662 047.1811 15.19167201 38679

#Time	Az	El	Level	Level2	SNR	BER	BlckErr	Temp	State	Recorded	gain1	gain2
2026-01-27 11:55:56.81	27.01	2.03	-54.5	-56.6	6.3	0.00e+00	0	49	0	0	80	18560
2026-01-27 11:55:57.82	26.91	2.09	-54.5	-56.7	6.2	0.00e+00	0	49	104	0	80	18692
2026-01-27 11:55:58.83	26.82	2.15	-54.5	-56.6	6.2	0.00e+00	0	49	104	0	80	18575
2026-01-27 11:55:59.84	26.73	2.21	-54.5	-56.6	6.2	0.00e+00	0	49	104	0	80	18573
2026-01-27 11:56:00.83	26.63	2.27	-54.5	-56.6	6.2	0.00e+00	0	49	104	0	80	18562
2026-01-27 11:56:01.84	26.54	2.33	-54.5	-56.6	6.2	0.00e+00	0	49	104	0	80	18598
2026-01-27 11:56:02.83	26.45	2.39	-54.5	-56.7	6.2	0.00e+00	0	49	104	0	80	18612
2026-01-27 11:56:03.84	26.35	2.45	-54.5	-56.6	6.2	0.00e+00	0	49	104	0	80	18533
2026-01-27 11:56:04.85	26.26	2.51	-54.6	-56.7	6.2	0.00e+00	0	50	104	0	80	18810
2026-01-27 11:56:05.86	26.16	2.58	-54.7	-56.8	6.2	0.00e+00	0	50	104	0	80	18916
2026-01-27 11:56:06.87	26.06	2.64	-54.7	-56.8	6.2	0.00e+00	0	50	104	0	80	18927
2026-01-27 11:56:07.87	25.96	2.70	-54.7	-56.8	6.2	0.00e+00	0	50	104	0	80	18957
2026-01-27 11:56:08.88	25.87	2.76	-54.7	-56.8	6.2	0.00e+00	0	50	104	0	80	18883
2026-01-27 11:56:09.88	25.77	2.82	-54.7	-56.8	6.2	0.00e+00	0	50	104	0	80	18852
2026-01-27 11:56:10.89	25.67	2.89	-54.6	-56.8	6.2	0.00e+00	0	50	104	0	80	18877
2026-01-27 11:56:11.89	25.57	2.95	-54.7	-56.9	6.2	0.00e+00	0	50	104	0	80	19051
2026-01-27 11:56:12.90	25.47	3.01	-54.6	-56.8	6.2	0.00e+00	0	50	104	0	80	18876
2026-01-27 11:56:13.91	25.37	3.07	-54.6	-56.7	6.2	0.00e+00	0	50	104	0	80	18723
2026-01-27 11:56:14.92	25.27	3.14	-54.6	-56.7	6.2	0.00e+00	0	50	104	0	80	18696
2026-01-27 11:56:15.93	25.17	3.20	-54.6	-56.7	6.2	0.00e+00	0	50	104	0	80	18715
2026-01-27 11:56:16.93	25.06	3.26	-54.5	-56.7	6.2	0.00e+00	0	50	104	0	80	18646
2026-01-27 11:56:17.94	24.96	3.32	-54.5	-56.6	6.2	0.00e+00	0	50	104	0	80	18526
2026-01-27 11:56:18.95	24.86	3.39	-54.4	-56.5	6.2	0.00e+00	0	50	104	0	80	18320
2026-01-27 11:56:19.96	24.75	3.45	-54.3	-56.5	6.2	0.00e+00	0	50	104	0	80	18232
2026-01-27 11:56:20.96	24.65	3.51	-54.3	-56.4	6.2	0.00e+00	0	51	104	0	80	18032
2026-01-27 11:56:21.97	24.54	3.58	-54.2	-56.3	6.2	0.00e+00	0	50	104	0	80	17831
2026-01-27 11:56:22.98	24.44	3.64	-54.1	-56.2	6.2	0.00e+00	0	51	104	0	79	18751
2026-01-27 11:56:23.99	24.33	3.70	-53.9	-56.0	6.2	0.00e+00	0	51	104	0	79	18347
2026-01-27 11:56:24.99	24.22	3.77	-52.7	-54.3	6.2	0.00e+00	0	51	104	0	77	16946
2026-01-27 11:56:26.00	24.12	3.83	-53.3	-55.5	6.2	0.00e+00	0	51	104	0	77	19278
2026-01-27 11:56:27.01	24.01	3.90	-53.0	-55.1	6.2	0.00e+00	0	51	104	0	77	18480
2026-01-27 11:56:28.02	23.90	3.96	-52.8	-54.9	6.2	0.00e+00	0	51	104	0	77	18051
2026-01-27 11:56:29.02	23.79	4.02	-52.8	-54.9	6.2	0.00e+00	0	51	104	0	77	18069
2026-01-27 11:56:30.03	23.68	4.09	-52.8	-54.9	6.2	0.00e+00	0	51	104	0	77	18002
2026-01-27 11:56:31.04	23.57	4.15	-52.7	-54.8	6.2	0.00e+00	0	51	104	0	77	17940
2026-01-27 11:56:32.04	23.46	4.22	-52.7	-54.9	6.2	0.00e+00	0	51	104	0	76	19087
2026-01-27 11:56:33.05	23.34	4.28	-52.7	-54.8	6.2	0.00e+00	0	51	104	0	76	19000
2026-01-27 11:56:34.05	23.23	4.35	-52.7	-54.8	6.2	0.00e+00	0	51	104	0	76	19009
2026-01-27 11:56:35.06	23.12	4.41	-52.7	-54.8	6.2	0.00e+00	0	51	104	0	76	18966
2026-01-27 11:56:36.07	23.00	4.48	-52.7	-54.9	6.2	0.00e+00	0	51	104	0	76	19055
2026-01-27 11:56:37.08	22.89	4.54	-52.7	-54.8	6.2	0.00e+00	0	51	104	0	76	18960
2026-01-27 11:56:38.09	22.77	4.61	-52.7	-54.8	6.2	0.00e+00	0	51	104	0	76	18905
2026-01-27 11:56:39.09	22.66	4.67	-52.7	-54.8	6.2	0.00e+00	0	51	104	0	76	18978
2026-01-27 11:56:40.10	22.54	4.74	-52.7	-54.8	6.2	0.00e+00	0	51	104	0	76	18963
2026-01-27 11:56:41.11	22.42	4.81	-52.7	-54.8	6.2	0.00e+00	0	51	104	0	76	19023
2026-01-27 11:56:42.11	22.31	4.87	-52.7	-54.8	6.2	0.00e+00	0	52	104	0	76	18965
2026-01-27 11:56:43.12	22.19	4.94	-52.7	-54.8	6.2	0.00e+00	0	52	104	0	76	19034
2026-01-27 11:56:44.13	22.07	5.00	-52.7	-54.8	6.2	0.00e+00	0	52	104	0	76	18980
2026-01-27 11:56:45.14	21.95	5.07	-52.7	-54.8	6.2	0.00e+00	0	52	104	0	76	19018
2026-01-27 11:56:46.15	21.82	5.14	-52.7	-54.8	6.2	0.00e+00	0	52	104	0	76	19011
2026-01-27 11:56:47.16	21.70	5.20	-52.8	-54.9	6.2	0.00e+00	0	52	104	0	76	19180
2026-01-27 11:56:48.17	21.58	5.27	-52.7	-54.8	6.2	0.00e+00	0	52	104	0	76	18999
2026-01-27 11:56:49.17	21.46	5.34	-52.9	-55.0	6.2	0.00e+00	0	52	104	0	76	19328
2026-01-27 11:56:50.18	21.33	5.40	-52.7	-54.8	6.2	0.00e+00	0	52	104	0	76	18851
2026-01-27 11:56:51.19	21.21	5.47	-52.8	-54.9	6.2	0.00e+00	0	52	104	0	76	19215
2026-01-27 11:56:52.19	21.08	5.54	-52.7	-54.9	6.2	0.00e+00	0	52	104	0	76	19090
2026-01-27 11:56:53.20	20.96	5.60	-36.4	-36.3	11.2	0.00e+00	0	52	104	0	44	14266
2026-01-27 11:56:54.21	20.83	5.67	-51.5	-53.1	6.3	1.84e-02	0	52	104	0	74	17464
2026-01-27 11:56:55.21	20.70	5.74	-36.4	-36.3	12.4	2.22e-02	6622	54	104	0	44	14236
2026-01-27 11:56:56.22	20.58	5.80	-36.3	-36.2	14.1	2.22e-02	0	53	0	100663296	44	14012
2026-01-27 11:56:57.23	20.45	5.87	-36.5	-36.4	14.0	2.22e-02	0	53	0	218103808	44	14409
2026-01-27 11:56:58.24	20.32	5.94	-36.3	-36.2	14.1	4.10e-02	0	54	0	327155712	44	14095
2026-01-27 11:56:59.25	20.18	6.01	-36.4	-36.3	14.1	4.10e-02	0	54	0	436207616	44	14182
2026-01-27 11:57:00.26	20.05	6.08	-36.2	-36.1	14.2	4.10e-02	0	54	0	553648128	44	13840
2026-01-27 11:57:01.27	19.92	6.14	-36.6	-36.5	14.0	2.23e-02	0	54	0	662700032	44	14589
2026-01-27 11:57:02.27	19.79	6.21	-36.2	-36.1	14.2	2.23e-02	0	54	0	780140544	44	13845
2026-01-27 11:57:03.28	19.65	6.28	-35.9	-35.9	14.4	2.24e-02	0	54	0	889192448	43	14308
2026-01-27 11:57:04.29	19.52	6.35	-36.7	-36.6	14.1	2.24e-02	0	54	0	998244352	43	15570
2026-01-27 11:57:05.29	19.38	6.42	-36.4	-36.4	14.1	2.24e-02	0	54	0	1115684864	44	14314
2026-01-27 11:57:06.30	19.25	6.49	-36.3	-36.2	14.2	2.17e-02	0	54	0	1224736768	44	14058
2026-01-27 11:57:07.31	19.11	6.56	-36.3	-36.2	14.2	2.17e-02	0	54	0	1350565888	44	14105
2026-01-27 11:57:08.31	18.97	6.62	-36.3	-36.2	14.2	2.17e-02	0	54	0	1459617792	44	14039
2026-01-27 11:57:09.32	18.83	6.69	-36.1	-36.0	14.4	2.17e-02	0	55	0	1577058304	44	13698
2026-01-27 11:57:10.33	18.69	6.76	-36.3	-36.2	14.2	1.99e-02	0	54	0	1686110208	44	14039
2026-01-27 11:57:11.34	18.55	6.83	-36.4	-36.3	14.1	1.99e-02	0	55	0	1803550720	44	14241
2026-01-27 11:57:12.34	18.41	6.90	-36.1	-36.0	14.3	2.08e-02	0	55	0	1912602624	44	13723
2026-01-27 11:57:13.35	18.27	6.97	-36.3	-36.2	14.2	2.08e-02	0	55	0	2021654528	44	14031
2026-01-27 11:57:14.36	18.13	7.04	-36.1	-36.0	14.3	2.08e-02	0	55	0	2139095040	44	13733
2026-01-27 11:57:15.36	17.98	7.11	-36.6	-36.5	14.0	1.92e-02	0	55	0	2248146944	44	14511
2026-01-27 11:57:16.37	17.84	7.18	-36.2	-36.1	14.3	1.92e-02	0	55	0	2365587456	44	13894
2026-01-27 11:57:17.37	17.69	7.25	-36.3	-36.2	14.3	1.92e-02	0	55	0	2474639360	43	14848
2026-01-27 11:57:18.38	17.55	7.32	-35.9	-35.9	14.4	1.88e-02	0	55	0	2592079872	43	14308
2026-01-27 11:57:19.38	17.40	7.39	-36.1	-36.1	14.3	1.88e-02	0	55	0	2701131776	43	14642
2026-01-27 11:57:20.39	17.25	7.46	-36.1	-36.1	14.3	1.88e-02	0	55	0	2810183680	43	14612
2026-01-27 11:57:21.39	17.10	7.53	-36.0	-35.9	14.3	1.72e-02	0	55	0	2927624192	43	14439
2026-01-27 11:57:22.40	16.95	7.60	-36.2	-36.1	14.2	1.72e-02	0	55	0	3036676096	43	14729
2026-01-27 11:57:23.41	16.80	7.67	-36.1	-36.0	14.3	1.81e-02	0	55	0	3162505216	43	14566
2026-01-27 11:57:24.42	16.65	7.74	-36.0	-35.9	14.4	1.81e-02	0	55	0	3271557120	43	14377
2026-01-27 11:57:25.43	16.50	7.81	-36.1	-36.0	14.4	1.81e-02	0	55	0	3388997632	43	14492
2026-01-27 11:57:26.44	16.34	7.88	-35.9	-35.8	14.5	1.70e-02	0	56	0	3498049536	43	14236
2026-01-27 11:57:27.45	16.19	7.95	-35.8	-35.7	14.5	1.70e-02	0	56	0	3615490048	43	14010
2026-01-27 11:57:28.45	16.03	8.02	-35.9	-35.9	14.4	1.70e-02	0	55	0	3724541952	43	14306
2026-01-27 11:57:29.46	15.87	8.09	-35.9	-35.8	14.5	1.39e-02	0	56	0	3833593856	43	14183
2026-01-27 11:57:30.47	15.72	8.16	-35.8	-35.7	14.5	1.39e-02	0	55	0	3951034368	43	14031
2026-01-27 11:57:31.48	15.56	8.23	-35.7	-35.6	14.6	1.39e-02	0	56	0	4060086272	43	13893
2026-01-27 11:57:32.48	15.40	8.31	-35.6	-35.6	14.6	1.35e-02	0	56	0	4177526784	43	13794
2026-01-27 11:57:33.49	15.24	8.38	-35.7	-35.6	14.6	1.35e-02	0	56	0	4286578688	43	13858
2026-01-27 11:57:34.50	15.07	8.45	-35.6	-35.5	14.6	1.35e-02	0	56	0	4395630592	42	14574
2026-01-27 11:57:35.51	14.91	8.52	-35.5	-35.4	14.7	1.13e-02	0	56	0	4521459712	42	14388
2026-01-27 11:57:36.52	14.75	8.59	-35.5	-35.4	14.7	1.13e-02	0	56	0	4638900224	42	14415
2026-01-27 11:57:37.53	14.58	8.66	-35.4	-35.3	14.7	1.13e-02	0	56	0	4747952128	42	14248
2026-01-27 11:57:38.53	14.42	8.73	-35.4	-35.3	14.7	9.94e-03	0	56	0	4857004032	42	14258
2026-01-27 11:57:39.55	14.25	8.81	-35.3	-35.2	14.8	9.94e-03	0	56	0	4974444544	42	13986
2026-01-27 11:57:40.56	14.08	8.88	-35.4	-35.3	14.8	9.94e-03	0	56	0	5083496448	42	14192
2026-01-27 11:57:41.57	13.91	8.95	-35.1	-35.0	14.9	9.36e-03	0	56	0	5200936960	42	13706
2026-01-27 11:57:42.58	13.74	9.02	-35.1	-35.1	14.9	9.36e-03	0	56	0	5309988864	42	13817
2026-01-27 11:57:43.59	13.57	9.10	-35.1	-35.0	14.9	8.22e-03	0	56	0	5419040768	42	13786
2026-01-27 11:57:44.59	13.40	9.17	-35.0	-34.9	15.0	8.22e-03	0	56	0	5536481280	42	13598
2026-01-27 11:57:45.60	13.22	9.24	-34.9	-34.8	15.0	8.22e-03	0	56	0	5645533184	41	14272
2026-01-27 11:57:46.61	13.05	9.31	-35.1	-35.0	14.9	7.51e-03	0	56	0	5762973696	41	14494
2026-01-27 11:57:47.62	12.87	9.38	-35.0	-34.9	15.0	7.51e-03	0	56	0	5880414208	41	14325
2026-01-27 11:57:48.63	12.70	9.46	-35.1	-35.0	14.9	7.51e-03	0	56	0	5997854720	41	14599
2026-01-27 11:57:49.64	12.52	9.53	-34.9	-34.9	15.0	6.62e-03	0	56	0	6106906624	41	14290
2026-01-27 11:57:50.65	12.34	9.60	-34.9	-34.8	15.0	6.62e-03	0	56	0	6224347136	41	14176
2026-01-27 11:57:51.65	12.16	9.67	-34.8	-34.7	15.1	6.62e-03	0	56	0	6333399040	41	14022
2026-01-27 11:57:52.66	11.98	9.75	-34.7	-34.6	15.1	6.43e-03	0	56	0	6450839552	41	13927
2026-01-27 11:57:53.66	11.80	9.82	-34.6	-34.5	15.1	6.43e-03	0	56	0	6559891456	41	13747
2026-01-27 11:57:54.67	11.62	9.89	-34.5	-34.4	15.2	6.43e-03	0	56	0	6668943360	41	13614
2026-01-27 11:57:55.68	11.43	9.97	-34.7	-34.6	15.1	5.50e-03	0	56	0	6786383872	41	13847
2026-01-27 11:57:56.69	11.25	10.04	-34.7	-34.6	15.1	5.50e-03	0	57	0	6895435776	41	13858
2026-01-27 11:57:57.69	11.06	10.11	-34.7	-34.6	15.1	5.50e-03	0	57	0	7012876288	41	13949
2026-01-27 11:57:58.70	10.87	10.18	-34.5	-34.4	15.2	5.26e-03	0	57	0	7121928192	41	13616
2026-01-27 11:57:59.71	10.68	10.26	-34.5	-34.4	15.2	5.26e-03	0	56	0	7247757312	41	13626
2026-01-27 11:58:00.72	10.49	10.33	-34.5	-34.4	15.2	5.26e-03	0	57	0	7356809216	40	14346
2026-01-27 11:58:01.73	10.30	10.40	-34.5	-34.5	15.2	4.90e-03	0	57	0	7474249728	40	14461
2026-01-27 11:58:02.73	10.11	10.47	-34.4	-34.3	15.2	4.90e-03	0	57	0	7583301632	40	14252
2026-01-27 11:58:03.73	9.92	10.55	-34.5	-34.4	15.2	4.90e-03	0	57	0	7692353536	40	14319
2026-01-27 11:58:04.74	9.72	10.62	-34.4	-34.3	15.2	4.72e-03	0	57	0	7809794048	40	14179
2026-01-27 11:58:05.75	9.53	10.69	-34.4	-34.3	15.2	4.72e-03	0	57	0	7918845952	40	14271
2026-01-27 11:58:06.77	9.33	10.77	-34.5	-34.4	15.2	4.72e-03	0	57	0	8036286464	40	14368
2026-01-27 11:58:07.78	9.13	10.84	-34.4	-34.3	15.2	4.31e-03	0	57	0	8145338368	40	14200
2026-01-27 11:58:08.79	8.93	10.91	-34.5	-34.4	15.2	4.31e-03	0	57	0	8254390272	40	14337
2026-01-27 11:58:09.79	8.73	10.99	-34.1	-34.0	15.4	4.41e-03	0	57	0	8371830784	40	13712
2026-01-27 11:58:10.80	8.53	11.06	-34.1	-34.1	15.3	4.41e-03	0	57	0	8480882688	40	13792
2026-01-27 11:58:11.81	8.32	11.13	-34.2	-34.1	15.3	4.41e-03	0	57	0	8606711808	40	13859
2026-01-27 11:58:12.82	8.12	11.20	-34.1	-34.1	15.3	3.82e-03	0	57	0	8715763712	40	13808
2026-01-27 11:58:13.83	7.91	11.28	-34.1	-34.0	15.4	3.82e-03	0	57	0	8833204224	39	14505
2026-01-27 11:58:14.83	7.70	11.35	-34.0	-33.9	15.5	3.82e-03	0	57	0	8942256128	39	14286
2026-01-27 11:58:15.84	7.50	11.42	-33.9	-33.8	15.5	3.29e-03	0	57	0	9059696640	39	14226
2026-01-27 11:58:16.85	7.29	11.50	-34.1	-34.0	15.4	3.29e-03	0	57	0	9168748544	39	14517
2026-01-27 11:58:17.86	7.07	11.57	-34.1	-34.0	15.4	2.84e-03	0	57	0	9277800448	39	14586
2026-01-27 11:58:18.86	6.86	11.64	-34.3	-34.2	15.3	2.84e-03	0	57	0	9395240960	39	14855
2026-01-27 11:58:19.87	6.65	11.71	-34.0	-33.9	15.5	2.84e-03	0	57	0	9504292864	39	14282
2026-01-27 11:58:20.88	6.43	11.79	-33.9	-33.8	15.5	3.12e-03	0	57	0	9621733376	39	14221
2026-01-27 11:58:21.88	6.22	11.86	-34.0	-33.9	15.5	3.12e-03	0	57	0	9730785280	39	14340
2026-01-27 11:58:22.89	6.00	11.93	-33.8	-33.7	15.5	2.48e-03	0	57	0	9848225792	39	14101
2026-01-27 11:58:23.90	5.78	12.00	-33.9	-33.8	15.5	2.48e-03	0	57	0	9957277696	39	14231
2026-01-27 11:58:24.91	5.56	12.08	-33.9	-33.8	15.5	2.48e-03	0	57	0	10066329600	39	14198
2026-01-27 11:58:25.92	5.34	12.15	-33.8	-33.7	15.5	2.48e-03	0	57	0	10192158720	39	14072
2026-01-27 11:58:26.92	5.12	12.22	-33.7	-33.6	15.6	2.43e-03	0	57	0	10301210624	39	13922
2026-01-27 11:58:27.92	4.90	12.29	-33.7	-33.6	15.6	2.43e-03	0	57	0	10418651136	39	13847
2026-01-27 11:58:28.93	4.67	12.36	-33.7	-33.5	15.6	2.43e-03	0	57	0	10527703040	39	13790
2026-01-27 11:58:29.94	4.44	12.44	-33.7	-33.6	15.6	1.97e-03	0	57	0	10645143552	39	13812
2026-01-27 11:58:30.94	4.22	12.51	-33.7	-33.6	15.6	1.97e-03	0	57	0	10754195456	39	13816
2026-01-27 11:58:31.95	3.99	12.58	-33.6	-33.5	15.6	1.97e-03	0	57	0	10871635968	39	13725
2026-01-27 11:58:32.95	3.76	12.65	-33.6	-33.5	15.6	2.07e-03	0	57	0	10980687872	39	13770
2026-01-27 11:58:33.96	3.53	12.72	-33.7	-33.6	15.6	2.07e-03	0	57	0	11089739776	39	13820
2026-01-27 11:58:34.97	3.29	12.79	-33.6	-33.5	15.7	2.07e-03	0	57	0	11207180288	39	13696
2026-01-27 11:58:35.98	3.06	12.86	-33.7	-33.6	15.6	2.07e-03	0	57	0	11316232192	39	13813
2026-01-27 11:58:36.99	2.82	12.93	-33.6	-33.5	15.7	2.19e-03	0	57	0	11433672704	38	14463
2026-01-27 11:58:38.00	2.58	13.01	-33.4	-33.3	15.7	2.19e-03	0	57	0	11542724608	38	14177
2026-01-27 11:58:39.01	2.34	13.08	-33.5	-33.4	15.7	2.19e-03	0	57	0	11651776512	38	14338
2026-01-27 11:58:40.01	2.10	13.15	-33.5	-33.4	15.7	2.02e-03	0	57	0	11777605632	38	14305
2026-01-27 11:58:41.02	1.86	13.22	-33.4	-33.3	15.7	2.02e-03	0	57	0	11895046144	38	14144
2026-01-27 11:58:42.03	1.62	13.29	-33.4	-33.3	15.8	2.02e-03	0	57	0	12004098048	38	14127
2026-01-27 11:58:43.04	1.37	13.36	-33.5	-33.4	15.7	1.63e-03	0	57	0	12113149952	38	14279
2026-01-27 11:58:44.05	1.12	13.43	-33.5	-33.4	15.7	1.63e-03	0	57	0	12230590464	38	14319
2026-01-27 11:58:45.06	0.88	13.50	-33.5	-33.4	15.7	1.83e-03	0	58	0	12339642368	38	14360
2026-01-27 11:58:46.07	0.63	13.57	-33.3	-33.2	15.8	1.83e-03	0	57	0	12457082880	38	14027
2026-01-27 11:58:47.08	0.38	13.64	-33.3	-33.2	15.8	1.83e-03	0	57	0	12566134784	38	14019
2026-01-27 11:58:48.09	0.12	13.71	-33.3	-33.2	15.8	1.74e-03	0	57	0	12675186688	38	14096
2026-01-27 11:58:49.09	359.87	13.77	-33.3	-33.2	15.8	1.74e-03	0	57	0	12792627200	38	14018
2026-01-27 11:58:50.10	359.62	13.84	-33.2	-33.1	15.8	1.74e-03	0	57	0	12901679104	38	13939
2026-01-27 11:58:51.11	359.36	13.91	-33.3	-33.2	15.8	1.68e-03	0	57	0	13019119616	38	13962
2026-01-27 11:58:52.12	359.10	13.98	-33.2	-33.1	15.8	1.68e-03	0	57	0	13136560128	38	13913
2026-01-27 11:58:53.13	358.84	14.05	-33.2	-33.1	15.8	1.68e-03	0	57	0	13254000640	38	13924
2026-01-27 11:58:54.14	358.58	14.11	-33.2	-33.1	15.8	1.52e-03	0	57	0	13363052544	38	13914
2026-01-27 11:58:55.15	358.32	14.18	-33.2	-33.1	15.8	1.52e-03	0	57	0	13480493056	38	13851
2026-01-27 11:58:56.16	358.06	14.25	-33.2	-33.1	15.8	1.52e-03	0	57	0	13589544960	38	13867
2026-01-27 11:58:57.16	357.80	14.31	-33.0	-32.9	15.9	1.33e-03	0	57	0	13706985472	38	13615
2026-01-27 11:58:58.17	357.53	14.38	-33.1	-33.0	15.8	1.33e-03	0	57	0	13816037376	38	13782
2026-01-27 11:58:59.17	357.26	14.45	-33.1	-32.9	15.9	1.33e-03	0	57	0	13925089280	38	13631
2026-01-27 11:59:00.18	356.99	14.51	-33.0	-32.9	15.9	1.35e-03	0	58	0	14042529792	37	14288
2026-01-27 11:59:01.19	356.72	14.58	-33.0	-32.9	15.9	1.35e-03	0	57	0	14151581696	37	14398
2026-01-27 11:59:02.20	356.45	14.64	-33.1	-33.0	15.8	1.35e-03	0	57	0	14269022208	37	14451
2026-01-27 11:59:03.21	356.18	14.71	-32.8	-32.7	15.9	1.35e-03	0	58	0	14378074112	37	14096
2026-01-27 11:59:04.21	355.91	14.77	-32.9	-32.8	15.9	1.24e-03	0	57	0	14503903232	37	14251
2026-01-27 11:59:05.22	355.63	14.84	-32.9	-32.8	15.9	1.24e-03	0	58	0	14612955136	37	14238
2026-01-27 11:59:06.23	355.35	14.90	-33.0	-32.9	15.8	1.24e-03	0	57	0	14730395648	37	14347
2026-01-27 11:59:07.24	355.07	14.96	-33.0	-32.9	15.9	1.05e-03	0	58	0	14839447552	37	14299
2026-01-27 11:59:08.24	354.79	15.03	-32.8	-32.7	15.9	1.05e-03	0	58	0	14948499456	37	14063
2026-01-27 11:59:09.25	354.51	15.09	-33.0	-32.9	15.8	1.05e-03	0	58	0	15065939968	37	14291
2026-01-27 11:59:10.26	354.23	15.15	-32.8	-32.7	15.9	1.12e-03	0	58	0	15174991872	37	13983
2026-01-27 11:59:11.27	353.94	15.21	-32.8	-32.6	15.9	1.12e-03	0	58	0	15292432384	37	13943
2026-01-27 11:59:12.27	353.66	15.27	-32.8	-32.7	15.9	1.12e-03	0	57	0	15401484288	37	13995
2026-01-27 11:59:13.28	353.37	15.33	-32.8	-32.7	15.9	9.30e-04	0	58	0	15510536192	37	13980
2026-01-27 11:59:14.29	353.08	15.39	-32.8	-32.7	15.9	9.30e-04	0	58	0	15627976704	37	13993
2026-01-27 11:59:15.30	352.79	15.45	-32.7	-32.6	15.9	1.07e-03	0	58	0	15737028608	37	13869
2026-01-27 11:59:16.31	352.50	15.51	-32.8	-32.7	15.9	1.07e-03	0	58	0	15862857728	37	13963
2026-01-27 11:59:17.32	352.21	15.57	-32.6	-32.5	15.9	1.07e-03	0	58	0	15971909632	37	13776
2026-01-27 11:59:18.33	351.91	15.63	-32.7	-32.6	15.9	1.07e-03	0	58	0	16089350144	37	13825
2026-01-27 11:59:19.33	351.62	15.69	-32.6	-32.5	15.9	8.77e-04	0	58	0	16198402048	37	13754
2026-01-27 11:59:20.34	351.32	15.75	-32.5	-32.4	15.9	8.77e-04	0	57	0	16315842560	37	13609
2026-01-27 11:59:21.35	351.02	15.80	-32.5	-32.4	16.0	8.77e-04	0	58	0	16424894464	37	13568
2026-01-27 11:59:22.35	350.73	15.86	-32.5	-32.4	16.0	7.87e-04	0	58	0	16533946368	36	14379
2026-01-27 11:59:23.36	350.42	15.92	-32.5	-32.4	15.9	7.87e-04	0	58	0	16651386880	36	14412
2026-01-27 11:59:24.37	350.12	15.97	-32.4	-32.3	16.0	7.87e-04	0	58	0	16760438784	36	14131
2026-01-27 11:59:25.38	349.82	16.03	-32.4	-32.3	16.0	9.35e-04	0	58	0	16877879296	36	14246
2026-01-27 11:59:26.38	349.52	16.08	-32.4	-32.3	15.9	9.35e-04	0	58	0	16986931200	36	14203
2026-01-27 11:59:27.39	349.21	16.14	-32.4	-32.3	16.0	9.35e-04	0	58	0	17104371712	36	14229
2026-01-27 11:59:28.40	348.90	16.19	-32.3	-32.2	16.0	9.35e-04	0	58	0	17213423616	36	13987
2026-01-27 11:59:29.41	348.59	16.24	-32.4	-32.3	15.9	8.53e-04	0	58	0	17322475520	36	14177
2026-01-27 11:59:30.41	348.28	16.29	-32.3	-32.2	16.0	8.53e-04	0	58	0	17448304640	36	13952
2026-01-27 11:59:31.42	347.97	16.34	-32.2	-32.1	16.0	6.72e-04	0	58	0	17565745152	36	13943
2026-01-27 11:59:32.43	347.66	16.40	-32.2	-32.1	16.0	6.72e-04	0	58	0	17674797056	36	13924
2026-01-27 11:59:33.44	347.35	16.45	-32.1	-32.0	16.0	6.72e-04	0	58	0	17783848960	36	13774
2026-01-27 11:59:34.44	347.03	16.49	-32.2	-32.1	16.0	6.72e-04	0	58	0	17901289472	36	13829
2026-01-27 11:59:35.45	346.72	16.54	-32.3	-32.2	16.0	5.34e-04	0	58	0	18010341376	36	13954
2026-01-27 11:59:36.46	346.40	16.59	-32.3	-32.3	15.9	5.34e-04	0	58	0	18127781888	36	14116
2026-01-27 11:59:37.47	346.08	16.64	-32.3	-32.2	15.9	5.58e-04	0	58	0	18236833792	36	14069
2026-01-27 11:59:38.48	345.76	16.69	-32.2	-32.1	16.0	5.58e-04	0	58	0	18345885696	36	13824
2026-01-27 11:59:39.48	345.44	16.73	-32.2	-32.2	16.0	5.58e-04	0	58	0	18463326208	36	13952
2026-01-27 11:59:40.49	345.12	16.78	-32.3	-32.2	16.0	5.34e-04	0	58	0	18572378112	36	14014
2026-01-27 11:59:41.50	344.79	16.82	-32.1	-32.0	16.0	5.34e-04	0	58	0	18689818624	36	13780
2026-01-27 11:59:42.51	344.47	16.87	-32.3	-32.2	15.9	5.34e-04	0	58	0	18798870528	36	14005
2026-01-27 11:59:43.51	344.15	16.91	-32.3	-32.2	15.9	7.20e-04	0	58	0	18907922432	36	13972
2026-01-27 11:59:44.51	343.82	16.95	-32.2	-32.1	15.9	7.20e-04	0	58	0	19033751552	36	13855
2026-01-27 11:59:45.52	343.49	16.99	-32.2	-32.1	15.9	7.20e-04	0	58	0	19151192064	36	13923
2026-01-27 11:59:46.53	343.16	17.03	-32.1	-32.0	15.9	4.82e-04	0	58	0	19260243968	36	13782
2026-01-27 11:59:47.53	342.84	17.07	-32.2	-32.1	15.9	4.82e-04	0	58	0	19369295872	36	13889
2026-01-27 11:59:48.54	342.51	17.11	-32.2	-32.1	15.9	4.82e-04	0	58	0	19486736384	36	13817
2026-01-27 11:59:49.55	342.17	17.15	-32.2	-32.1	15.9	6.25e-04	0	58	0	19595788288	36	13932
2026-01-27 11:59:50.55	341.84	17.19	-32.3	-32.2	15.9	6.25e-04	0	58	0	19713228800	36	14048
2026-01-27 11:59:51.56	341.51	17.23	-32.3	-32.1	15.8	6.01e-04	0	58	0	19822280704	36	13944
2026-01-27 11:59:52.57	341.17	17.26	-32.4	-32.3	15.8	6.01e-04	0	58	0	19939721216	36	14181
2026-01-27 11:59:53.58	340.84	17.30	-32.3	-32.2	15.8	6.01e-04	0	58	0	20048773120	36	14027
2026-01-27 11:59:54.58	340.50	17.33	-32.3	-32.2	15.8	8.63e-04	0	58	0	20157825024	36	13973
2026-01-27 11:59:55.59	340.17	17.37	-32.3	-32.2	15.8	8.63e-04	0	58	0	20275265536	36	13971
2026-01-27 11:59:56.60	339.83	17.40	-32.1	-32.0	15.9	7.72e-04	0	58	0	20384317440	36	13724
2026-01-27 11:59:57.61	339.49	17.43	-32.3	-32.2	15.8	7.72e-04	0	58	0	20501757952	36	13954
2026-01-27 11:59:58.61	339.15	17.46	-32.2	-32.1	15.8	7.72e-04	0	58	0	20619198464	36	13946
2026-01-27 11:59:59.62	338.81	17.50	-32.2	-32.1	15.8	8.30e-04	0	58	0	20736638976	36	13866
2026-01-27 12:00:00.63	338.47	17.52	-32.2	-32.1	15.7	8.30e-04	0	58	0	20845690880	36	13930
2026-01-27 12:00:01.64	338.12	17.55	-32.4	-32.3	15.7	8.30e-04	0	58	0	20963131392	36	14153
2026-01-27 12:00:02.65	337.78	17.58	-32.2	-32.1	15.8	8.30e-04	0	58	0	21072183296	36	13844
2026-01-27 12:00:03.65	337.44	17.61	-32.2	-32.1	15.7	9.06e-04	0	58	0	21181235200	36	13909
2026-01-27 12:00:04.66	337.09	17.63	-32.2	-32.1	15.7	9.06e-04	0	58	0	21298675712	36	13885
2026-01-27 12:00:05.67	336.75	17.66	-32.3	-32.2	15.7	9.06e-04	0	58	0	21407727616	36	14024
2026-01-27 12:00:06.68	336.40	17.68	-32.3	-32.2	15.7	9.15e-04	0	58	0	21525168128	36	13983
2026-01-27 12:00:07.68	336.06	17.71	-32.3	-32.2	15.6	9.15e-04	0	58	0	21634220032	36	14071
2026-01-27 12:00:08.69	335.71	17.73	-32.3	-32.2	15.7	9.15e-04	0	58	0	21743271936	36	14017
2026-01-27 12:00:09.70	335.36	17.75	-32.3	-32.2	15.6	1.11e-03	0	58	0	21860712448	36	14111
2026-01-27 12:00:10.71	335.01	17.77	-32.3	-32.2	15.6	1.11e-03	0	58	0	21969764352	36	14017
2026-01-27 12:00:11.72	334.66	17.79	-32.3	-32.2	15.6	1.11e-03	0	58	0	22095593472	36	14067
2026-01-27 12:00:12.72	334.32	17.81	-32.4	-32.4	15.6	1.24e-03	0	58	0	22204645376	36	14276
2026-01-27 12:00:13.73	333.96	17.83	-32.5	-32.4	15.6	1.24e-03	0	58	0	22322085888	36	14282
2026-01-27 12:00:14.73	333.62	17.84	-32.4	-32.3	15.6	1.24e-03	0	58	0	22431137792	36	14219
2026-01-27 12:00:15.74	333.27	17.86	-32.5	-32.3	15.6	1.07e-03	0	58	0	22548578304	36	14266
2026-01-27 12:00:16.75	332.91	17.87	-32.4	-32.3	15.6	1.07e-03	0	58	0	22657630208	36	14163
2026-01-27 12:00:17.75	332.57	17.89	-32.5	-32.4	15.6	1.07e-03	0	58	0	22766682112	36	14393
2026-01-27 12:00:18.76	332.21	17.90	-32.4	-32.3	15.6	1.13e-03	0	58	0	22884122624	36	14219
2026-01-27 12:00:19.77	331.86	17.91	-32.5	-32.4	15.6	1.13e-03	0	58	0	22993174528	36	14347
2026-01-27 12:00:20.78	331.51	17.92	-32.6	-32.5	15.6	1.13e-03	0	58	0	23110615040	36	14494
2026-01-27 12:00:21.78	331.16	17.93	-32.5	-32.4	15.6	1.22e-03	0	58	0	23219666944	36	14380
2026-01-27 12:00:22.79	330.80	17.94	-32.5	-32.4	15.6	1.22e-03	0	58	0	23337107456	36	14383
2026-01-27 12:00:23.80	330.45	17.95	-32.4	-32.3	15.7	1.22e-03	0	58	0	23446159360	36	14171
2026-01-27 12:00:24.80	330.10	17.96	-32.4	-32.3	15.6	1.22e-03	0	58	0	23555211264	36	14234
2026-01-27 12:00:25.81	329.74	17.96	-32.4	-32.3	15.7	8.96e-04	0	58	0	23672651776	36	14221
2026-01-27 12:00:26.81	329.39	17.97	-32.4	-32.3	15.7	8.96e-04	0	58	0	23781703680	36	14176
2026-01-27 12:00:27.82	329.04	17.97	-32.4	-32.3	15.7	9.35e-04	0	58	0	23907532800	36	14249
2026-01-27 12:00:28.82	328.69	17.97	-32.5	-32.4	15.7	9.35e-04	0	58	0	24016584704	36	14346
2026-01-27 12:00:29.83	328.33	17.98	-32.4	-32.3	15.8	1.06e-03	0	58	0	24134025216	36	14140
2026-01-27 12:00:30.84	327.98	17.98	-32.4	-32.3	15.7	1.06e-03	0	58	0	24243077120	36	14234
2026-01-27 12:00:31.84	327.63	17.98	-32.4	-32.3	15.8	1.06e-03	0	58	0	24360517632	36	14193
2026-01-27 12:00:32.85	327.27	17.98	-32.5	-32.4	15.8	1.06e-03	0	58	0	24469569536	36	14283
2026-01-27 12:00:33.85	326.92	17.97	-32.6	-32.5	15.7	8.63e-04	0	58	0	24578621440	36	14444
2026-01-27 12:00:34.86	326.56	17.97	-32.4	-32.3	15.8	8.63e-04	0	58	0	24696061952	36	14176
2026-01-27 12:00:35.87	326.21	17.97	-32.4	-32.3	15.8	8.63e-04	0	58	0	24805113856	36	14140
2026-01-27 12:00:36.87	325.86	17.96	-32.4	-32.3	15.8	1.00e-03	0	58	0	24922554368	36	14235
2026-01-27 12:00:37.88	325.50	17.96	-32.5	-32.4	15.9	1.00e-03	0	58	0	25031606272	36	14294
2026-01-27 12:00:38.89	325.15	17.95	-32.4	-32.3	15.9	1.00e-03	0	58	0	25140658176	36	14198
2026-01-27 12:00:39.90	324.79	17.94	-32.4	-32.3	15.9	8.92e-04	0	58	0	25258098688	36	14211
2026-01-27 12:00:40.91	324.44	17.93	-32.4	-32.3	15.9	8.92e-04	0	58	0	25367150592	36	14240
2026-01-27 12:00:41.91	324.09	17.92	-32.4	-32.3	15.9	8.92e-04	0	58	0	25484591104	36	14217
2026-01-27 12:00:42.91	323.74	17.91	-32.3	-32.2	15.9	9.06e-04	0	58	0	25602031616	36	14065
2026-01-27 12:00:43.92	323.39	17.90	-32.4	-32.2	15.9	9.06e-04	0	58	0	25719472128	36	14109
2026-01-27 12:00:44.93	323.04	17.89	-32.3	-32.2	15.9	9.06e-04	0	58	0	25828524032	36	14049
2026-01-27 12:00:45.94	322.68	17.87	-32.3	-32.2	15.9	9.06e-04	0	58	0	25945964544	36	14033
2026-01-27 12:00:46.94	322.33	17.86	-32.4	-32.3	15.9	6.82e-04	0	58	0	26055016448	36	14140
2026-01-27 12:00:47.94	321.99	17.84	-32.3	-32.1	15.9	6.82e-04	0	58	0	26164068352	36	13944
2026-01-27 12:00:48.95	321.64	17.82	-32.4	-32.3	15.9	6.01e-04	0	58	0	26281508864	36	14188
2026-01-27 12:00:49.96	321.28	17.81	-32.3	-32.2	16.0	6.01e-04	0	58	0	26390560768	36	13974
2026-01-27 12:00:50.97	320.93	17.79	-32.3	-32.2	16.0	6.01e-04	0	58	0	26508001280	36	14100
2026-01-27 12:00:51.98	320.58	17.77	-32.2	-32.2	16.0	6.96e-04	0	58	0	26617053184	36	13951
2026-01-27 12:00:52.98	320.24	17.75	-32.3	-32.2	16.0	6.96e-04	0	58	0	26734493696	36	14053
2026-01-27 12:00:53.99	319.89	17.73	-32.3	-32.2	16.0	6.96e-04	0	58	0	26843545600	36	13981
2026-01-27 12:00:55.00	319.54	17.70	-32.2	-32.1	16.0	6.91e-04	0	58	0	26952597504	36	13945
2026-01-27 12:00:56.00	319.20	17.68	-32.2	-32.1	16.0	6.91e-04	0	58	0	27070038016	36	13897
2026-01-27 12:00:57.01	318.85	17.66	-32.3	-32.2	16.0	6.91e-04	0	58	0	27195867136	36	14043
2026-01-27 12:00:58.02	318.51	17.63	-32.3	-32.2	16.0	6.44e-04	0	58	0	27304919040	36	14092
2026-01-27 12:00:59.03	318.16	17.60	-32.3	-32.2	16.0	6.44e-04	0	58	0	27413970944	36	14098
2026-01-27 12:01:00.03	317.82	17.58	-32.3	-32.2	16.0	6.77e-04	0	58	0	27531411456	36	14041
2026-01-27 12:01:01.05	317.47	17.55	-32.3	-32.3	16.0	6.77e-04	0	58	0	27640463360	36	14117
2026-01-27 12:01:02.05	317.13	17.52	-32.3	-32.2	16.0	6.77e-04	0	58	0	27757903872	36	14102
2026-01-27 12:01:03.06	316.79	17.49	-32.4	-32.3	16.0	6.05e-04	0	58	0	27866955776	36	14180
2026-01-27 12:01:04.07	316.45	17.46	-32.4	-32.3	16.0	6.05e-04	0	58	0	27976007680	36	14237
2026-01-27 12:01:05.08	316.11	17.43	-32.4	-32.3	16.0	6.05e-04	0	58	0	28093448192	36	14239
2026-01-27 12:01:06.08	315.77	17.40	-32.3	-32.2	16.0	7.34e-04	0	58	0	28202500096	36	14056
2026-01-27 12:01:07.09	315.43	17.36	-32.5	-32.4	16.0	7.34e-04	0	58	0	28319940608	36	14324
2026-01-27 12:01:08.09	315.09	17.33	-32.4	-32.3	16.0	7.34e-04	0	58	0	28428992512	36	14251
2026-01-27 12:01:09.10	314.76	17.29	-32.4	-32.3	16.0	7.87e-04	0	58	0	28538044416	36	14183
2026-01-27 12:01:10.11	314.42	17.26	-32.4	-32.3	16.0	7.87e-04	0	58	0	28655484928	36	14222
2026-01-27 12:01:11.11	314.09	17.22	-32.5	-32.4	15.9	7.87e-04	0	58	0	28781314048	36	14322
2026-01-27 12:01:12.12	313.75	17.19	-32.4	-32.3	16.0	7.87e-04	0	58	0	28890365952	36	14211
2026-01-27 12:01:13.13	313.42	17.15	-32.5	-32.4	15.9	7.87e-04	0	58	0	28999417856	36	14378
2026-01-27 12:01:14.14	313.09	17.11	-32.5	-32.4	15.9	7.77e-04	0	58	0	29116858368	36	14322
2026-01-27 12:01:15.15	312.76	17.07	-32.5	-32.4	15.9	7.77e-04	0	58	0	29225910272	36	14344
2026-01-27 12:01:16.15	312.43	17.03	-32.4	-32.4	15.9	7.77e-04	0	58	0	29343350784	36	14283
2026-01-27 12:01:17.16	312.10	16.99	-32.4	-32.3	15.9	9.20e-04	0	58	0	29452402688	36	14245
2026-01-27 12:01:18.17	311.77	16.94	-32.4	-32.3	15.9	9.20e-04	0	58	0	29561454592	36	14206
2026-01-27 12:01:19.17	311.45	16.90	-32.5	-32.4	15.9	9.20e-04	0	58	0	29678895104	36	14297
2026-01-27 12:01:20.18	311.12	16.86	-32.5	-32.4	15.9	9.20e-04	0	58	0	29787947008	36	14343
2026-01-27 12:01:21.19	310.79	16.81	-32.5	-32.4	15.9	9.20e-04	0	58	0	29905387520	36	14427
2026-01-27 12:01:22.20	310.47	16.77	-32.6	-32.5	15.9	9.20e-04	0	58	0	30014439424	36	14556
2026-01-27 12:01:23.21	310.15	16.72	-32.4	-32.4	15.9	9.20e-04	0	58	0	30131879936	36	14283
2026-01-27 12:01:24.21	309.83	16.68	-32.6	-32.5	15.9	9.01e-04	0	58	0	30249320448	36	14600
2026-01-27 12:01:25.22	309.51	16.63	-32.7	-32.6	15.8	9.01e-04	0	58	0	30366760960	36	14752
2026-01-27 12:01:26.23	309.19	16.58	-32.6	-32.5	15.9	9.01e-04	0	58	0	30475812864	36	14561
2026-01-27 12:01:27.24	308.87	16.53	-32.7	-32.6	15.8	8.92e-04	0	58	0	30593253376	36	14695
2026-01-27 12:01:28.24	308.56	16.49	-32.7	-32.6	15.8	8.92e-04	0	58	0	30702305280	36	14654
2026-01-27 12:01:29.25	308.24	16.44	-32.7	-32.6	15.8	9.96e-04	0	58	0	30811357184	36	14752
2026-01-27 12:01:30.26	307.92	16.39	-32.6	-32.5	15.9	9.96e-04	0	58	0	30928797696	36	14515
2026-01-27 12:01:31.27	307.61	16.33	-32.6	-32.5	15.9	9.96e-04	0	58	0	31037849600	36	14569
2026-01-27 12:01:32.27	307.30	16.28	-32.6	-32.5	15.9	9.77e-04	0	58	0	31155290112	36	14561
2026-01-27 12:01:33.28	306.99	16.23	-32.7	-32.6	15.9	9.77e-04	0	58	0	31264342016	36	14706
2026-01-27 12:01:34.29	306.68	16.18	-32.7	-32.6	15.8	9.77e-04	0	58	0	31373393920	36	14658
2026-01-27 12:01:35.29	306.38	16.13	-32.7	-32.6	15.8	1.03e-03	0	58	0	31490834432	36	14755
2026-01-27 12:01:36.30	306.07	16.07	-32.7	-32.6	15.9	1.03e-03	0	58	0	31599886336	36	14625
2026-01-27 12:01:37.31	305.76	16.02	-32.7	-32.6	15.8	1.03e-03	0	58	0	31717326848	36	14666
2026-01-27 12:01:38.32	305.46	15.96	-32.8	-32.7	15.8	1.03e-03	0	58	0	31834767360	36	14904
2026-01-27 12:01:39.32	305.16	15.91	-32.7	-32.7	15.8	1.03e-03	0	58	0	31952207872	36	14780
2026-01-27 12:01:40.33	304.86	15.85	-32.7	-32.6	15.9	1.03e-03	0	58	0	32061259776	36	14730
2026-01-27 12:01:41.34	304.56	15.79	-32.8	-32.7	15.8	9.68e-04	0	58	0	32178700288	36	14813
2026-01-27 12:01:42.34	304.26	15.74	-32.7	-32.6	15.8	9.68e-04	0	58	0	32287752192	36	14754
2026-01-27 12:01:43.35	303.96	15.68	-32.7	-32.6	15.9	9.68e-04	0	58	0	32396804096	36	14629
2026-01-27 12:01:44.35	303.67	15.62	-32.6	-32.5	15.9	1.08e-03	0	58	0	32514244608	36	14599
2026-01-27 12:01:45.36	303.37	15.56	-32.7	-32.6	15.9	1.08e-03	0	58	0	32623296512	36	14678
2026-01-27 12:01:46.37	303.08	15.50	-32.7	-32.6	15.9	1.08e-03	0	58	0	32740737024	36	14630
2026-01-27 12:01:47.38	302.79	15.44	-32.6	-32.5	16.0	9.87e-04	0	58	0	32849788928	36	14514
2026-01-27 12:01:48.39	302.50	15.38	-32.7	-32.6	15.9	9.87e-04	0	58	0	32967229440	36	14642
2026-01-27 12:01:49.40	302.21	15.32	-32.6	-32.5	15.9	9.87e-04	0	58	0	33076281344	36	14574
2026-01-27 12:01:50.40	301.92	15.26	-32.6	-32.5	16.0	8.68e-04	0	58	0	33185333248	36	14575
2026-01-27 12:01:51.41	301.63	15.20	-32.7	-32.6	15.9	8.68e-04	0	58	0	33311162368	36	14767
2026-01-27 12:01:52.42	301.35	15.14	-32.7	-32.6	15.9	9.30e-04	0	58	0	33420214272	36	14635
2026-01-27 12:01:53.43	301.06	15.08	-32.7	-32.6	15.9	9.30e-04	0	58	0	33537654784	36	14747
2026-01-27 12:01:54.43	300.78	15.01	-32.7	-32.6	16.0	9.30e-04	0	58	0	33646706688	36	14719
2026-01-27 12:01:55.44	300.50	14.95	-32.6	-32.5	16.0	9.30e-04	0	58	0	33764147200	36	14599
2026-01-27 12:01:56.45	300.22	14.89	-32.7	-32.6	15.9	1.06e-03	0	58	0	33873199104	36	14680
2026-01-27 12:01:57.46	299.95	14.82	-32.7	-32.6	16.0	1.06e-03	0	58	0	33990639616	36	14697
2026-01-27 12:01:58.47	299.67	14.76	-32.7	-32.6	16.0	8.92e-04	0	58	0	34099691520	36	14707
2026-01-27 12:01:59.47	299.40	14.69	-32.8	-32.7	15.9	8.92e-04	0	58	0	34208743424	36	14891
2026-01-27 12:02:00.48	299.12	14.63	-32.8	-32.7	15.9	8.92e-04	0	58	0	34326183936	36	14923
2026-01-27 12:02:01.49	298.85	14.56	-32.8	-32.7	15.9	9.39e-04	0	58	0	34435235840	36	14873
2026-01-27 12:02:02.50	298.58	14.50	-32.8	-32.7	15.9	9.39e-04	0	58	0	34552676352	36	14936
2026-01-27 12:02:03.51	298.31	14.43	-32.9	-32.8	15.9	9.39e-04	0	58	0	34661728256	36	15104
2026-01-27 12:02:04.51	298.04	14.37	-32.9	-32.8	15.9	9.39e-04	0	58	0	34787557376	36	15114
2026-01-27 12:02:05.52	297.77	14.30	-32.9	-32.8	15.9	9.35e-04	0	58	0	34896609280	36	15055
2026-01-27 12:02:06.53	297.51	14.23	-32.9	-32.8	15.9	9.35e-04	0	58	0	35014049792	36	15076
2026-01-27 12:02:07.54	297.25	14.16	-33.0	-32.9	15.9	9.35e-04	0	58	0	35123101696	36	15242
2026-01-27 12:02:08.54	296.98	14.10	-33.1	-33.0	15.9	9.82e-04	0	58	0	35232153600	36	15322
2026-01-27 12:02:09.55	296.72	14.03	-33.0	-32.9	15.9	9.82e-04	0	58	0	35349594112	36	15229
2026-01-27 12:02:10.56	296.46	13.96	-33.1	-33.0	15.9	9.82e-04	0	58	0	35458646016	36	15354
2026-01-27 12:02:11.57	296.21	13.89	-33.1	-33.0	15.9	9.82e-04	0	58	0	35576086528	36	15316
2026-01-27 12:02:12.58	295.95	13.82	-33.3	-33.2	15.8	9.82e-04	0	59	0	35685138432	37	14861
2026-01-27 12:02:13.59	295.69	13.76	-33.3	-33.2	15.9	1.02e-03	0	58	0	35794190336	37	14810
2026-01-27 12:02:14.60	295.44	13.69	-33.4	-33.3	15.8	1.02e-03	0	58	0	35911630848	37	15100
2026-01-27 12:02:15.61	295.19	13.62	-33.3	-33.2	15.8	1.02e-03	0	58	0	36020682752	37	14900
2026-01-27 12:02:16.62	294.93	13.55	-33.3	-33.3	15.8	9.92e-04	0	58	0	36146511872	37	14957
2026-01-27 12:02:17.63	294.68	13.48	-33.3	-33.3	15.9	9.92e-04	0	58	0	36255563776	37	14954
2026-01-27 12:02:18.63	294.44	13.41	-33.6	-33.5	15.8	9.92e-04	0	59	0	36373004288	37	15335
2026-01-27 12:02:19.64	294.19	13.34	-33.5	-33.5	15.7	9.92e-04	0	58	0	36482056192	37	15303
2026-01-27 12:02:20.64	293.95	13.27	-33.6	-33.5	15.7	1.21e-03	0	58	0	36599496704	37	15414
2026-01-27 12:02:21.65	293.70	13.20	-33.6	-33.5	15.7	1.21e-03	0	58	0	36708548608	37	15469
2026-01-27 12:02:22.65	293.46	13.13	-33.7	-33.6	15.7	1.21e-03	0	58	0	36817600512	37	15495
2026-01-27 12:02:23.66	293.22	13.06	-33.7	-33.6	15.7	1.46e-03	0	58	0	36935041024	37	15494
2026-01-27 12:02:24.67	292.98	12.99	-33.8	-33.8	15.7	1.46e-03	0	58	0	37044092928	38	14953
2026-01-27 12:02:25.67	292.74	12.92	-33.8	-33.7	15.7	1.60e-03	0	58	0	37161533440	38	14883
2026-01-27 12:02:26.68	292.51	12.84	-33.9	-33.8	15.7	1.60e-03	0	58	0	37270585344	38	15030
2026-01-27 12:02:27.68	292.27	12.77	-33.9	-33.8	15.6	1.60e-03	0	58	0	37388025856	38	15048
2026-01-27 12:02:28.69	292.04	12.70	-34.0	-33.9	15.6	1.88e-03	0	59	0	37497077760	38	15182
2026-01-27 12:02:29.70	291.81	12.63	-33.9	-33.8	15.7	1.88e-03	0	58	0	37606129664	38	15104
2026-01-27 12:02:30.71	291.57	12.56	-34.0	-33.9	15.6	1.88e-03	0	58	0	37731958784	38	15243
2026-01-27 12:02:31.73	291.34	12.49	-34.0	-33.9	15.6	1.76e-03	0	58	0	37849399296	38	15272
2026-01-27 12:02:32.73	291.11	12.41	-34.1	-34.0	15.6	1.76e-03	0	58	0	37958451200	38	15395
2026-01-27 12:02:33.74	290.89	12.34	-34.1	-34.0	15.6	1.76e-03	0	58	0	38067503104	38	15392
2026-01-27 12:02:34.75	290.66	12.27	-34.1	-34.1	15.6	1.76e-03	0	58	0	38184943616	38	15489
2026-01-27 12:02:35.76	290.43	12.20	-34.2	-34.1	15.6	2.09e-03	0	58	0	38293995520	38	15564
2026-01-27 12:02:36.77	290.21	12.12	-34.3	-34.2	15.5	2.09e-03	0	58	0	38411436032	39	14866
2026-01-27 12:02:37.77	289.99	12.05	-34.2	-34.2	15.6	2.09e-03	0	59	0	38520487936	39	14809
2026-01-27 12:02:38.78	289.77	11.98	-34.2	-34.1	15.6	2.47e-03	0	58	0	38629539840	39	14633
2026-01-27 12:02:39.79	289.55	11.91	-34.3	-34.2	15.5	2.47e-03	0	59	0	38746980352	39	14797
2026-01-27 12:02:40.80	289.33	11.83	-34.2	-34.1	15.6	2.29e-03	0	58	0	38856032256	39	14757
2026-01-27 12:02:41.80	289.12	11.76	-34.4	-34.3	15.5	2.29e-03	0	58	0	38973472768	39	15048
2026-01-27 12:02:42.81	288.90	11.69	-34.5	-34.5	15.4	2.29e-03	0	59	0	39090913280	39	15309
2026-01-27 12:02:43.81	288.69	11.62	-34.3	-34.2	15.5	2.65e-03	0	59	0	39208353792	39	14842
2026-01-27 12:02:44.82	288.47	11.54	-34.4	-34.3	15.5	2.65e-03	0	58	0	39317405696	39	15027
2026-01-27 12:02:45.83	288.26	11.47	-34.4	-34.3	15.4	2.65e-03	0	58	0	39434846208	39	15113
2026-01-27 12:02:46.83	288.05	11.40	-34.5	-34.4	15.4	2.65e-03	0	58	0	39543898112	39	15188
2026-01-27 12:02:47.84	287.84	11.33	-34.5	-34.4	15.4	2.65e-03	0	58	0	39652950016	39	15160
2026-01-27 12:02:48.84	287.64	11.25	-34.3	-34.2	15.5	2.65e-03	0	59	0	39770390528	39	14904
2026-01-27 12:02:49.85	287.43	11.18	-34.3	-34.2	15.5	2.65e-03	0	58	0	39879442432	39	14869
2026-01-27 12:02:50.86	287.23	11.11	-34.4	-34.3	15.5	2.65e-03	0	58	0	39996882944	39	14989
2026-01-27 12:02:51.86	287.02	11.03	-34.3	-34.2	15.5	2.77e-03	0	58	0	40105934848	39	14926
2026-01-27 12:02:52.87	286.82	10.96	-34.4	-34.3	15.4	2.77e-03	0	58	0	40223375360	39	15026
2026-01-27 12:02:53.88	286.62	10.89	-34.4	-34.3	15.4	2.77e-03	0	58	0	40332427264	39	15057
2026-01-27 12:02:54.89	286.42	10.81	-34.3	-34.2	15.5	2.96e-03	0	58	0	40441479168	39	14906
2026-01-27 12:02:55.89	286.22	10.74	-34.4	-34.3	15.4	2.96e-03	0	59	0	40558919680	39	15116
2026-01-27 12:02:56.90	286.02	10.67	-34.4	-34.3	15.4	2.96e-03	0	59	0	40667971584	39	15085
2026-01-27 12:02:57.91	285.83	10.59	-34.5	-34.4	15.4	2.93e-03	0	59	0	40785412096	39	15227
2026-01-27 12:02:58.92	285.63	10.52	-34.5	-34.4	15.4	2.93e-03	0	59	0	40902852608	39	15198
2026-01-27 12:02:59.93	285.43	10.45	-34.5	-34.4	15.4	2.93e-03	0	58	0	41020293120	39	15215
2026-01-27 12:03:00.93	285.24	10.38	-34.7	-34.6	15.3	3.02e-03	0	59	0	41129345024	39	15573
2026-01-27 12:03:01.94	285.05	10.30	-34.6	-34.5	15.3	3.02e-03	0	58	0	41246785536	39	15381
2026-01-27 12:03:02.94	284.86	10.23	-34.6	-34.5	15.3	3.90e-03	0	58	0	41355837440	39	15423
2026-01-27 12:03:03.95	284.67	10.16	-34.7	-34.6	15.3	3.90e-03	0	58	0	41464889344	39	15569
2026-01-27 12:03:04.96	284.48	10.08	-34.8	-34.7	15.2	3.90e-03	0	59	0	41582329856	40	14798
2026-01-27 12:03:05.97	284.30	10.01	-34.8	-34.7	15.2	4.32e-03	0	58	0	41691381760	40	14860
2026-01-27 12:03:06.97	284.11	9.94	-34.8	-34.7	15.2	4.32e-03	0	59	0	41808822272	40	14813
2026-01-27 12:03:07.98	283.93	9.86	-34.7	-34.6	15.2	4.32e-03	0	59	0	41917874176	40	14677
2026-01-27 12:03:08.99	283.74	9.79	-34.6	-34.5	15.3	4.32e-03	0	59	0	42026926080	40	14462
2026-01-27 12:03:10.01	283.56	9.72	-34.7	-34.6	15.2	4.60e-03	0	58	0	42144366592	40	14631
2026-01-27 12:03:11.01	283.38	9.65	-34.8	-34.7	15.2	4.60e-03	0	59	0	42270195712	40	14935
2026-01-27 12:03:12.02	283.20	9.57	-34.8	-34.7	15.2	4.60e-03	0	59	0	42379247616	40	14819
2026-01-27 12:03:13.02	283.02	9.50	-34.8	-34.7	15.2	4.55e-03	0	59	0	42488299520	40	14931
2026-01-27 12:03:14.03	282.84	9.43	-35.0	-34.9	15.1	4.55e-03	0	59	0	42605740032	40	15164
2026-01-27 12:03:15.04	282.66	9.36	-34.9	-34.8	15.1	4.55e-03	0	58	0	42714791936	40	15036
2026-01-27 12:03:16.05	282.49	9.28	-34.9	-34.8	15.1	5.36e-03	0	59	0	42832232448	40	15028
2026-01-27 12:03:17.06	282.31	9.21	-35.0	-34.9	15.1	5.36e-03	0	59	0	42941284352	40	15192
2026-01-27 12:03:18.07	282.14	9.14	-35.0	-34.9	15.1	5.36e-03	0	59	0	43050336256	40	15212
2026-01-27 12:03:19.08	281.96	9.07	-35.1	-35.1	15.0	5.57e-03	0	58	0	43167776768	40	15474
2026-01-27 12:03:20.09	281.79	8.99	-35.1	-35.0	15.0	5.57e-03	0	59	0	43276828672	40	15471
2026-01-27 12:03:21.09	281.62	8.92	-35.0	-34.9	15.1	5.57e-03	0	59	0	43394269184	40	15155
2026-01-27 12:03:22.11	281.45	8.85	-35.2	-35.1	15.0	6.02e-03	0	58	0	43503321088	40	15562
2026-01-27 12:03:23.11	281.28	8.78	-35.0	-34.9	15.0	6.02e-03	0	59	0	43629150208	40	15252
2026-01-27 12:03:24.13	281.11	8.70	-35.0	-34.9	15.0	6.34e-03	0	59	0	43738202112	40	15222
2026-01-27 12:03:25.13	280.95	8.63	-35.3	-35.2	14.9	6.34e-03	0	59	0	43855642624	41	14810
2026-01-27 12:03:26.14	280.78	8.56	-35.1	-35.1	15.0	7.07e-03	0	59	0	43964694528	41	14613
2026-01-27 12:03:27.14	280.62	8.49	-35.2	-35.2	14.9	7.07e-03	0	58	0	44073746432	41	14801
2026-01-27 12:03:28.15	280.46	8.42	-35.2	-35.1	14.9	7.07e-03	0	59	0	44191186944	41	14705
2026-01-27 12:03:29.16	280.29	8.35	-35.3	-35.2	14.9	7.36e-03	0	59	0	44300238848	41	14885
2026-01-27 12:03:30.17	280.13	8.27	-35.5	-35.4	14.7	7.36e-03	0	59	0	44417679360	41	15261
2026-01-27 12:03:31.17	279.97	8.20	-35.4	-35.3	14.8	7.36e-03	0	59	0	44526731264	41	14988
2026-01-27 12:03:32.18	279.81	8.13	-35.3	-35.2	14.9	8.28e-03	0	58	0	44644171776	41	14867
2026-01-27 12:03:33.19	279.66	8.06	-35.4	-35.3	14.8	8.28e-03	0	59	0	44753223680	41	15104
2026-01-27 12:03:34.19	279.50	7.99	-35.3	-35.3	14.8	8.28e-03	0	59	0	44862275584	41	14954
2026-01-27 12:03:35.20	279.34	7.92	-35.3	-35.2	14.9	8.01e-03	0	59	0	44979716096	41	14911
2026-01-27 12:03:36.21	279.19	7.85	-35.3	-35.2	14.9	8.01e-03	0	59	0	45105545216	41	14842
2026-01-27 12:03:37.22	279.03	7.78	-35.5	-35.4	14.8	8.01e-03	0	58	0	45214597120	41	15291
2026-01-27 12:03:38.22	278.88	7.71	-35.5	-35.4	14.8	8.97e-03	0	59	0	45323649024	41	15186
2026-01-27 12:03:39.23	278.73	7.63	-35.4	-35.3	14.8	8.97e-03	0	58	0	45441089536	41	15092
2026-01-27 12:03:40.24	278.57	7.56	-35.5	-35.4	14.7	8.97e-03	0	59	0	45550141440	41	15198
2026-01-27 12:03:41.24	278.42	7.49	-35.6	-35.5	14.8	9.56e-03	0	58	0	45667581952	41	15394
2026-01-27 12:03:42.25	278.27	7.42	-35.6	-35.5	14.8	9.56e-03	0	59	0	45776633856	41	15363
2026-01-27 12:03:43.26	278.12	7.35	-35.7	-35.6	14.8	9.56e-03	0	59	0	45885685760	42	14704
2026-01-27 12:03:44.27	277.98	7.28	-35.7	-35.6	14.8	1.09e-02	0	58	0	46003126272	42	14740
2026-01-27 12:03:45.28	277.83	7.21	-35.6	-35.5	14.8	1.09e-02	0	59	0	46112178176	42	14510
2026-01-27 12:03:46.28	277.68	7.14	-35.9	-35.8	14.7	1.09e-02	0	59	0	46229618688	42	15006
2026-01-27 12:03:47.29	277.54	7.07	-35.8	-35.8	14.7	1.22e-02	0	59	0	46338670592	42	14981
2026-01-27 12:03:48.29	277.39	7.00	-36.0	-35.9	14.6	1.22e-02	0	59	0	46447722496	42	15291
2026-01-27 12:03:49.30	277.25	6.93	-36.3	-36.3	14.4	1.22e-02	0	59	0	46565163008	43	14978
2026-01-27 12:03:50.30	277.11	6.87	-53.1	-55.4	6.2	1.49e-02	0	58	104	46607106048	76	20211
2026-01-27 12:03:51.31	276.97	6.80	-53.1	-55.3	6.2	1.49e-02	0	57	104	46607106048	76	19984
2026-01-27 12:03:52.32	276.82	6.73	-53.1	-55.2	6.2	1.49e-02	0	57	104	46607106048	76	19898
2026-01-27 12:03:53.33	276.68	6.66	-53.1	-55.2	6.2	1.49e-02	0	57	104	46607106048	76	19818
2026-01-27 12:03:54.32	276.55	6.59	-53.1	-55.2	6.2	1.49e-02	0	57	104	46607106048	76	19905
2026-01-27 12:03:55.33	276.41	6.52	-53.1	-55.2	6.2	1.49e-02	0	57	104	46607106048	76	19818
2026-01-27 12:03:56.34	276.27	6.45	-53.0	-55.1	6.2	1.49e-02	0	57	104	46607106048	76	19622
2026-01-27 12:03:57.35	276.13	6.38	-53.1	-55.2	6.2	1.49e-02	0	57	104	46607106048	76	19748
2026-01-27 12:03:58.35	276.00	6.31	-53.1	-55.2	6.2	1.49e-02	0	57	104	46607106048	76	19769
2026-01-27 12:03:59.36	275.86	6.24	-53.0	-55.2	6.2	1.49e-02	0	57	104	46607106048	76	19744
2026-01-27 12:04:00.37	275.73	6.18	-52.9	-55.1	6.2	1.18e-03	0	57	104	46607106048	76	19538
2026-01-27 12:04:01.38	275.59	6.11	-53.0	-55.1	6.2	1.18e-03	0	57	104	46607106048	76	19516
2026-01-27 12:04:02.38	275.46	6.04	-53.0	-55.1	6.2	1.18e-03	0	57	104	46607106048	76	19654
2026-01-27 12:04:03.39	275.33	5.97	-53.0	-55.1	6.2	1.18e-03	0	57	104	46607106048	76	19562
2026-01-27 12:04:04.40	275.20	5.90	-52.9	-55.0	6.2	1.18e-03	0	57	104	46607106048	76	19366
2026-01-27 12:04:05.41	275.07	5.84	-52.9	-55.1	6.2	1.18e-03	0	56	104	46607106048	76	19513
2026-01-27 12:04:06.41	274.94	5.77	-53.0	-55.1	6.2	1.18e-03	0	56	104	46607106048	76	19548
2026-01-27 12:04:07.42	274.81	5.70	-52.9	-55.0	6.2	1.18e-03	0	57	104	46607106048	76	19345
2026-01-27 12:04:08.43	274.68	5.63	-52.8	-54.9	6.2	1.18e-03	0	56	104	46607106048	76	19173
2026-01-27 12:04:09.44	274.55	5.57	-52.9	-54.9	6.2	1.18e-03	0	56	104	46607106048	76	19246
2026-01-27 12:04:10.45	274.43	5.50	-52.9	-55.0	6.2	1.18e-03	0	56	104	46607106048	76	19323
2026-01-27 12:04:11.45	274.30	5.43	-52.8	-54.9	6.2	1.18e-03	0	56	104	46607106048	76	19252
2026-01-27 12:04:12.46	274.18	5.36	-52.8	-54.9	6.2	1.18e-03	0	57	104	46607106048	76	19171
2026-01-27 12:04:13.47	274.05	5.30	-52.8	-54.9	6.2	1.18e-03	0	56	104	46607106048	76	19165
2026-01-27 12:04:14.47	273.93	5.23	-52.8	-54.9	6.2	1.18e-03	0	56	104	46607106048	76	19138
2026-01-27 12:04:15.48	273.81	5.16	-52.8	-54.9	6.2	1.18e-03	0	56	104	46607106048	76	19186
2026-01-27 12:04:16.49	273.68	5.10	-52.7	-54.8	6.2	1.18e-03	0	56	104	46607106048	76	19004
2026-01-27 12:04:17.50	273.56	5.03	-52.8	-54.9	6.2	1.18e-03	0	56	104	46607106048	76	19112
2026-01-27 12:04:18.51	273.44	4.96	-52.8	-54.9	6.2	1.18e-03	0	56	104	46607106048	76	19082
2026-01-27 12:04:19.52	273.32	4.90	-52.8	-55.0	6.2	0.00e+00	0	56	104	46607106048	76	19286
2026-01-27 12:04:20.52	273.20	4.83	-52.8	-54.9	6.2	0.00e+00	0	56	104	46607106048	76	19187
2026-01-27 12:04:21.53	273.08	4.77	-52.9	-55.1	6.2	0.00e+00	0	56	104	46607106048	76	19567
2026-01-27 12:04:22.54	272.96	4.70	-53.1	-55.2	6.2	0.00e+00	0	56	104	46607106048	76	19859
2026-01-27 12:04:23.55	272.85	4.63	-53.2	-55.3	6.2	0.00e+00	0	56	104	46607106048	76	20059
2026-01-27 12:04:24.55	272.73	4.57	-53.3	-55.4	6.2	0.00e+00	0	56	104	46607106048	77	19138
2026-01-27 12:04:25.56	272.61	4.50	-52.9	-55.5	6.2	0.00e+00	0	56	104	46607106048	77	19280
2026-01-27 12:04:26.57	272.50	4.44	-53.4	-55.5	6.2	0.00e+00	0	56	104	46607106048	77	19386
2026-01-27 12:04:27.58	272.38	4.37	-53.5	-55.6	6.2	0.00e+00	0	56	104	46607106048	77	19569
2026-01-27 12:04:28.59	272.27	4.31	-53.3	-55.7	6.2	0.00e+00	0	56	104	46607106048	77	19723
2026-01-27 12:04:29.59	272.16	4.24	-53.5	-55.7	6.2	0.00e+00	0	56	104	46607106048	77	19768
2026-01-27 12:04:30.60	272.04	4.18	-53.6	-55.7	6.2	0.00e+00	0	56	104	46607106048	77	19782
2026-01-27 12:04:31.61	271.93	4.11	-53.6	-55.7	6.2	0.00e+00	0	56	104	46607106048	77	19918
2026-01-27 12:04:32.61	271.82	4.05	-53.6	-55.8	6.2	0.00e+00	0	56	104	46607106048	77	19961
2026-01-27 12:04:33.62	271.71	3.98	-53.7	-55.8	6.2	0.00e+00	0	56	104	46607106048	77	20066
2026-01-27 12:04:34.63	271.60	3.92	-53.7	-55.8	6.2	0.00e+00	0	56	104	46607106048	77	20003
2026-01-27 12:04:35.64	271.49	3.85	-53.7	-55.8	6.2	0.00e+00	0	56	104	46607106048	77	20160
2026-01-27 12:04:36.64	271.38	3.79	-53.8	-55.9	6.2	0.00e+00	0	56	104	46607106048	78	19150
2026-01-27 12:04:37.65	271.27	3.73	-53.8	-55.9	6.2	0.00e+00	0	56	104	46607106048	78	19074
2026-01-27 12:04:38.66	271.17	3.66	-53.7	-55.9	6.2	0.00e+00	0	56	104	46607106048	78	19115
2026-01-27 12:04:39.66	271.06	3.60	-53.7	-55.9	6.2	0.00e+00	0	56	104	46607106048	78	19052
2026-01-27 12:04:40.67	270.95	3.54	-53.7	-55.8	6.2	0.00e+00	0	56	104	46607106048	77	20147
2026-01-27 12:04:41.68	270.85	3.47	-53.7	-55.8	6.2	0.00e+00	0	55	104	46607106048	77	20086
2026-01-27 12:04:42.69	270.74	3.41	-53.7	-55.8	6.2	0.00e+00	0	55	104	46607106048	77	20119
2026-01-27 12:04:43.70	270.64	3.34	-53.7	-55.8	6.2	0.00e+00	0	55	104	46607106048	77	20147
2026-01-27 12:04:44.70	270.53	3.28	-53.7	-55.8	6.2	0.00e+00	0	55	104	46607106048	77	20149
2026-01-27 12:04:45.71	270.43	3.22	-53.7	-55.8	6.2	0.00e+00	0	55	104	46607106048	77	20122
2026-01-27 12:04:46.72	270.33	3.15	-53.7	-55.8	6.2	0.00e+00	0	56	104	46607106048	77	20039
2026-01-27 12:04:47.73	270.22	3.09	-53.7	-55.8	6.2	0.00e+00	0	56	104	46607106048	77	20151
2026-01-27 12:04:48.74	270.12	3.03	-53.7	-55.8	6.2	0.00e+00	0	55	104	46607106048	77	20117
2026-01-27 12:04:49.75	270.02	2.97	-53.7	-55.8	6.2	0.00e+00	0	56	104	46607106048	77	20106
2026-01-27 12:04:50.76	269.92	2.90	-53.7	-55.8	6.2	0.00e+00	0	55	104	46607106048	77	20147
2026-01-27 12:04:51.77	269.82	2.84	-53.5	-55.8	6.2	0.00e+00	0	55	104	46607106048	77	20159
2026-01-27 12:04:52.77	269.72	2.78	-53.7	-55.8	6.2	0.00e+00	0	55	104	46607106048	77	20142
2026-01-27 12:04:53.78	269.62	2.72	-53.7	-55.8	6.2	0.00e+00	0	55	104	46607106048	77	20087
2026-01-27 12:04:54.79	269.52	2.65	-53.7	-55.8	6.2	0.00e+00	0	55	104	46607106048	77	20040
2026-01-27 12:04:55.79	269.42	2.59	-53.7	-55.8	6.2	0.00e+00	0	55	104	46607106048	77	20063
2026-01-27 12:04:56.80	269.33	2.53	-53.7	-55.8	6.2	0.00e+00	0	55	104	46607106048	77	20116
2026-01-27 12:04:57.81	269.23	2.47	-53.7	-55.8	6.2	0.00e+00	0	55	104	46607106048	77	20081
2026-01-27 12:04:58.81	269.13	2.41	-53.7	-55.8	6.2	0.00e+00	0	55	104	46607106048	77	20003
2026-01-27 12:04:59.82	269.04	2.35	-53.7	-55.8	6.2	0.00e+00	0	55	104	46607106048	77	20046
2026-01-27 12:05:00.83	268.94	2.28	-53.7	-55.8	6.2	0.00e+00	0	55	104	46607106048	77	20010
2026-01-27 12:05:01.83	268.85	2.22	-53.7	-55.8	6.2	0.00e+00	0	55	104	46607106048	77	20050
2026-01-27 12:05:02.84	268.75	2.16	-53.7	-55.8	6.2	0.00e+00	0	55	104	46607106048	77	19974
2026-01-27 12:05:03.84	268.66	2.10	-53.7	-55.8	6.2	0.00e+00	0	55	104	46607106048	77	20040
2026-01-27 12:05:04.85	268.57	2.04	-53.7	-55.8	6.2	0.00e+00	0	55	104	46607106048	77	19982
2026-01-27 12:05:05.86	268.48	1.98	-53.7	-55.8	6.2	0.00e+00	0	55	104	46607106048	77	20060
2026-01-27 12:05:06.87	268.38	1.92	-53.7	-55.8	6.2	0.00e+00	0	55	104	46607106048	77	19999

#Closed at: 2026-01-27 12:05:07
#Recorded file [46607 MB]: D:/lorett/data/31041_260127_145556.dat