passes_logs/2026/01/27/R3.2S_Murmansk/R3.2S_Murmansk__20260127_235800_NOAA_21_JPSS-2_rec.log

#Pass ID: 20260127_235800_NOAA 21 (JPSS-2)
#Satellite: NOAA 21 (JPSS-2)
#Configuration: NOAA-21
#almurnet v.1.7.20251203
#Start time: 2026-01-27 23:58:01

#Version: 2.2.20231116
#Station: R3.2S_Murmansk
#Location: 33.079688 lon 68.888172 lat
#TLE: 1 54234U 22150A   26027.27712747  .00000181  00000+0  10656-3 0  9992
#TLE: 2 54234  98.7510 328.0291 0000845 205.5277 154.5858 14.19540098166550

#Time	Az	El	Level	Level2	SNR	BER	BlckErr	Temp	State	Recorded	gain1	gain2
2026-01-27 23:58:01.49	22.09	2.05	-53.8	-66.6	3.8	1.49e+00	0	42	0	0	79	15502
2026-01-27 23:58:02.49	22.11	2.12	-54.1	-66.9	3.8	1.49e+00	0	42	104	0	78	17012
2026-01-27 23:58:03.49	22.14	2.18	-54.1	-66.9	3.8	1.49e+00	0	42	104	0	78	16998
2026-01-27 23:58:04.50	22.16	2.25	-54.1	-66.9	3.8	1.49e+00	0	42	104	0	78	16962
2026-01-27 23:58:05.51	22.19	2.31	-54.2	-66.9	3.8	1.49e+00	0	42	104	0	78	17071
2026-01-27 23:58:06.52	22.21	2.37	-54.1	-66.9	3.8	1.49e+00	0	42	104	0	78	16983
2026-01-27 23:58:07.52	22.23	2.44	-54.1	-66.9	3.8	1.49e+00	0	42	104	0	78	16953
2026-01-27 23:58:08.53	22.26	2.50	-54.1	-66.8	3.8	1.49e+00	0	42	104	0	78	16876
2026-01-27 23:58:09.53	22.28	2.57	-54.0	-66.8	3.8	1.49e+00	0	42	104	0	78	16726
2026-01-27 23:58:10.54	22.31	2.63	-54.0	-66.7	3.8	1.49e+00	0	42	104	0	78	16689
2026-01-27 23:58:11.55	22.33	2.69	-54.0	-66.7	3.8	1.49e+00	0	42	104	0	78	16644
2026-01-27 23:58:12.55	22.35	2.76	-54.0	-66.7	3.8	1.49e+00	0	42	104	0	78	16577
2026-01-27 23:58:13.56	22.38	2.82	-53.9	-66.6	3.8	1.49e+00	0	42	104	0	78	16496
2026-01-27 23:58:14.57	22.40	2.89	-53.8	-66.6	3.8	1.49e+00	0	42	104	0	78	16317
2026-01-27 23:58:15.57	22.43	2.95	-53.7	-66.4	3.8	1.49e+00	0	42	104	0	78	16127
2026-01-27 23:58:16.58	22.45	3.02	-53.6	-66.4	3.8	1.49e+00	0	42	104	0	78	15965
2026-01-27 23:58:17.59	22.48	3.09	-53.5	-66.2	3.8	1.49e+00	0	42	104	0	78	15696
2026-01-27 23:58:18.59	22.50	3.15	-53.3	-66.1	3.8	1.49e+00	0	42	104	0	78	15403
2026-01-27 23:58:19.61	22.53	3.22	-53.1	-65.8	3.8	1.49e+00	0	42	104	0	78	14993
2026-01-27 23:58:20.61	22.55	3.28	-52.9	-65.6	3.8	1.49e+00	0	42	104	0	77	15490
2026-01-27 23:58:21.62	22.58	3.35	-52.5	-65.2	3.8	1.49e+00	0	42	104	0	77	14864
2026-01-27 23:58:22.64	22.60	3.42	-52.0	-64.5	3.8	1.49e+00	0	42	104	0	76	14436
2026-01-27 23:58:23.64	22.63	3.48	-52.0	-64.3	3.8	1.49e+00	0	42	104	0	76	14055
2026-01-27 23:58:24.65	22.66	3.55	-51.9	-63.8	3.8	1.49e+00	0	42	104	0	75	14142
2026-01-27 23:58:25.66	22.68	3.62	-51.9	-63.2	3.8	1.49e+00	0	42	104	0	75	13125
2026-01-27 23:58:26.66	22.71	3.68	-51.7	-61.3	4.2	1.47e+00	0	43	104	0	75	10591
2026-01-27 23:58:27.66	22.73	3.75	-51.4	-59.4	4.9	1.19e+00	2	42	104	0	74	9006
2026-01-27 23:58:28.67	22.76	3.82	-51.1	-57.9	5.8	4.19e-01	0	42	0	2097152	74	7554
2026-01-27 23:58:29.68	22.78	3.89	-50.6	-56.1	7.3	1.75e-01	0	42	0	5242880	73	6515
2026-01-27 23:58:30.69	22.81	3.95	-50.1	-54.5	8.8	4.81e-02	0	43	0	8388608	72	5787
2026-01-27 23:58:31.69	22.84	4.02	-49.3	-52.7	10.8	4.81e-03	0	42	0	11534336	70	5242
2026-01-27 23:58:32.70	22.86	4.09	-48.7	-51.6	12.0	4.68e-04	0	43	0	14680064	69	4875
2026-01-27 23:58:33.71	22.89	4.16	-47.8	-50.2	13.4	3.20e-05	0	42	0	17825792	67	4670
2026-01-27 23:58:34.71	22.92	4.23	-47.2	-49.3	14.2	3.80e-06	0	43	0	20971520	66	4486
2026-01-27 23:58:35.72	22.94	4.29	-46.9	-48.9	14.6	0.00e+00	0	42	0	24117248	65	4518
2026-01-27 23:58:36.72	22.97	4.36	-46.4	-48.2	15.3	0.00e+00	0	42	0	27262976	64	4408
2026-01-27 23:58:37.73	23.00	4.43	-45.9	-47.5	16.1	0.00e+00	0	42	0	30408704	63	4329
2026-01-27 23:58:38.74	23.02	4.50	-46.0	-47.6	16.0	0.00e+00	0	42	0	33554432	63	4379
2026-01-27 23:58:39.75	23.05	4.57	-46.0	-47.6	16.0	0.00e+00	0	43	0	36700160	63	4382
2026-01-27 23:58:40.76	23.08	4.64	-46.1	-47.8	15.8	0.00e+00	0	43	0	39845888	63	4466
2026-01-27 23:58:41.77	23.11	4.71	-46.2	-47.9	15.7	0.00e+00	0	43	0	42991616	63	4536
2026-01-27 23:58:42.77	23.13	4.78	-46.6	-48.6	15.0	0.00e+00	0	43	0	46137344	64	4602
2026-01-27 23:58:43.78	23.16	4.85	-47.3	-49.4	14.1	0.00e+00	0	43	0	49283072	65	4797
2026-01-27 23:58:44.79	23.19	4.92	-47.9	-50.5	13.1	8.30e-06	0	43	0	52428800	66	5114
2026-01-27 23:58:45.80	23.22	4.99	-48.5	-51.5	12.1	1.40e-04	0	43	0	55574528	67	5409
2026-01-27 23:58:46.81	23.24	5.06	-45.4	-46.8	16.8	0.00e+00	0	43	0	58720256	62	4231
2026-01-27 23:58:47.82	23.27	5.13	-49.1	-52.5	11.1	8.16e-05	0	43	0	61865984	68	5741
2026-01-27 23:58:48.82	23.30	5.20	-50.6	-55.8	8.1	1.14e-02	0	43	0	65011712	71	7042
2026-01-27 23:58:49.83	23.33	5.27	-46.0	-47.6	16.0	3.05e-03	0	43	0	68157440	64	4141
2026-01-27 23:58:50.84	23.36	5.34	-51.9	-64.5	3.8	1.58e-02	0	43	104	71303168	74	16185
2026-01-27 23:58:51.84	23.38	5.41	-46.4	-48.1	15.2	8.10e-01	0	43	104	71303168	64	4360
2026-01-27 23:58:52.85	23.41	5.49	-45.8	-47.3	16.4	0.00e+00	0	43	0	73400320	63	4215
2026-01-27 23:58:53.86	23.44	5.56	-45.4	-46.8	16.9	0.00e+00	0	43	0	76546048	62	4238
2026-01-27 23:58:54.86	23.47	5.63	-45.3	-46.7	17.0	0.00e+00	0	43	0	79691776	62	4183
2026-01-27 23:58:55.87	23.50	5.70	-45.1	-46.5	17.3	0.00e+00	0	43	0	82837504	62	4063
2026-01-27 23:58:56.87	23.53	5.77	-45.0	-46.3	17.5	0.00e+00	0	43	0	85983232	62	3991
2026-01-27 23:58:57.88	23.56	5.85	-44.8	-46.1	17.7	0.00e+00	0	43	0	89128960	61	4114
2026-01-27 23:58:58.89	23.59	5.92	-44.5	-45.8	18.0	0.00e+00	0	43	0	92274688	61	3981
2026-01-27 23:58:59.89	23.62	5.99	-44.7	-45.9	17.8	0.00e+00	0	43	0	95420416	61	4046
2026-01-27 23:59:00.90	23.65	6.07	-44.7	-45.9	17.9	0.00e+00	0	43	0	98566144	61	4043
2026-01-27 23:59:01.91	23.67	6.14	-44.6	-45.9	17.9	0.00e+00	0	43	0	101711872	61	4020
2026-01-27 23:59:02.92	23.70	6.21	-44.5	-45.8	18.0	0.00e+00	0	43	0	104857600	61	3963
2026-01-27 23:59:03.92	23.73	6.29	-44.5	-45.8	18.0	0.00e+00	0	43	0	108003328	61	3978
2026-01-27 23:59:04.93	23.76	6.36	-44.5	-45.8	18.0	0.00e+00	0	43	0	111149056	61	3980
2026-01-27 23:59:05.94	23.79	6.43	-44.5	-45.8	18.1	0.00e+00	0	43	0	114294784	61	3962
2026-01-27 23:59:06.94	23.82	6.51	-44.5	-45.7	18.1	0.00e+00	0	43	0	117440512	60	4193
2026-01-27 23:59:07.95	23.86	6.58	-44.4	-45.7	18.1	0.00e+00	0	43	0	120586240	60	4158
2026-01-27 23:59:08.96	23.89	6.66	-44.4	-45.7	18.2	0.00e+00	0	43	0	123731968	60	4159
2026-01-27 23:59:09.96	23.92	6.73	-44.5	-45.7	18.1	0.00e+00	0	43	0	126877696	60	4177
2026-01-27 23:59:10.97	23.95	6.81	-44.5	-45.8	18.1	0.00e+00	0	43	0	130023424	60	4199
2026-01-27 23:59:11.98	23.98	6.88	-44.4	-45.6	18.2	0.00e+00	0	43	0	133169152	60	4135
2026-01-27 23:59:12.98	24.01	6.96	-44.4	-45.6	18.3	0.00e+00	0	43	0	136314880	60	4104
2026-01-27 23:59:13.99	24.04	7.03	-44.4	-45.6	18.3	0.00e+00	0	43	0	139460608	60	4137
2026-01-27 23:59:14.99	24.07	7.11	-44.4	-45.6	18.3	0.00e+00	0	43	0	142606336	60	4111
2026-01-27 23:59:16.00	24.10	7.19	-44.5	-45.7	18.2	0.00e+00	0	43	0	145752064	60	4164
2026-01-27 23:59:17.01	24.13	7.26	-44.3	-45.5	18.4	0.00e+00	0	43	0	148897792	60	4088
2026-01-27 23:59:18.01	24.17	7.34	-44.3	-45.5	18.4	0.00e+00	0	43	0	152043520	60	4091
2026-01-27 23:59:19.02	24.20	7.42	-44.5	-45.7	18.2	0.00e+00	0	43	0	155189248	60	4178
2026-01-27 23:59:20.02	24.23	7.49	-44.3	-45.4	18.5	0.00e+00	0	43	0	158334976	60	4048
2026-01-27 23:59:21.03	24.26	7.57	-44.2	-45.4	18.5	0.00e+00	0	43	0	161480704	60	4030
2026-01-27 23:59:22.04	24.29	7.65	-44.3	-45.5	18.5	0.00e+00	0	43	0	164626432	60	4077
2026-01-27 23:59:23.05	24.33	7.73	-44.2	-45.4	18.6	0.00e+00	0	43	0	167772160	60	4011
2026-01-27 23:59:24.06	24.36	7.81	-44.2	-45.4	18.6	0.00e+00	0	43	0	170917888	60	4006
2026-01-27 23:59:25.07	24.39	7.88	-44.2	-45.3	18.6	0.00e+00	0	43	0	174063616	60	4003
2026-01-27 23:59:26.08	24.43	7.96	-44.3	-45.4	18.6	0.00e+00	0	43	0	177209344	60	4041
2026-01-27 23:59:27.08	24.46	8.04	-44.1	-45.3	18.7	0.00e+00	0	43	0	180355072	60	3976
2026-01-27 23:59:28.09	24.49	8.12	-44.1	-45.3	18.7	0.00e+00	0	43	0	183500800	60	3971
2026-01-27 23:59:29.09	24.52	8.20	-44.2	-45.4	18.6	0.00e+00	0	43	0	186646528	60	4026
2026-01-27 23:59:30.10	24.56	8.28	-44.1	-45.3	18.7	0.00e+00	0	43	0	189792256	60	3964
2026-01-27 23:59:31.10	24.59	8.36	-44.0	-45.2	18.8	0.00e+00	0	43	0	192937984	60	3919
2026-01-27 23:59:32.11	24.63	8.44	-44.2	-45.3	18.7	0.00e+00	0	43	0	196083712	60	4004
2026-01-27 23:59:33.12	24.66	8.52	-44.2	-45.4	18.7	0.00e+00	0	43	0	199229440	60	4006
2026-01-27 23:59:34.12	24.69	8.60	-44.1	-45.3	18.7	0.00e+00	0	43	0	202375168	60	3965
2026-01-27 23:59:35.13	24.73	8.68	-44.4	-45.5	18.8	0.00e+00	0	43	0	205520896	59	4325
2026-01-27 23:59:36.14	24.76	8.76	-44.3	-45.5	18.9	0.00e+00	0	43	0	208666624	59	4312
2026-01-27 23:59:37.15	24.80	8.84	-44.4	-45.5	18.8	0.00e+00	0	43	0	211812352	59	4335
2026-01-27 23:59:38.15	24.83	8.92	-44.3	-45.5	18.9	0.00e+00	0	43	0	214958080	59	4293
2026-01-27 23:59:39.16	24.87	9.01	-44.4	-45.6	18.8	0.00e+00	0	43	0	218103808	59	4361
2026-01-27 23:59:40.17	24.90	9.09	-44.2	-45.4	19.0	0.00e+00	0	43	0	221249536	59	4244
2026-01-27 23:59:41.18	24.94	9.17	-44.2	-45.3	19.1	0.00e+00	0	43	0	224395264	59	4215
2026-01-27 23:59:42.18	24.97	9.25	-44.2	-45.3	19.1	0.00e+00	0	43	0	227540992	59	4231
2026-01-27 23:59:43.18	25.01	9.33	-44.2	-45.3	19.2	0.00e+00	0	43	0	230686720	59	4205
2026-01-27 23:59:44.19	25.05	9.42	-44.0	-45.0	19.4	0.00e+00	0	43	0	233832448	59	4096
2026-01-27 23:59:45.20	25.08	9.50	-43.9	-45.0	19.4	0.00e+00	0	43	0	236978176	59	4075
2026-01-27 23:59:46.20	25.12	9.58	-43.9	-45.0	19.4	0.00e+00	0	43	0	240123904	59	4088
2026-01-27 23:59:47.21	25.15	9.67	-44.0	-45.1	19.4	0.00e+00	0	43	0	243269632	59	4109
2026-01-27 23:59:48.22	25.19	9.75	-44.0	-45.1	19.3	0.00e+00	0	43	0	246415360	59	4128
2026-01-27 23:59:49.22	25.23	9.84	-44.0	-45.1	19.4	0.00e+00	0	43	0	249561088	59	4100
2026-01-27 23:59:50.23	25.26	9.92	-43.8	-44.9	19.6	0.00e+00	0	43	0	252706816	59	4023
2026-01-27 23:59:51.24	25.30	10.01	-43.9	-44.9	19.5	0.00e+00	0	43	0	255852544	59	4043
2026-01-27 23:59:52.25	25.34	10.09	-43.8	-44.9	19.5	0.00e+00	0	43	0	258998272	59	4023
2026-01-27 23:59:53.25	25.38	10.18	-43.8	-44.8	19.6	0.00e+00	0	43	0	262144000	59	3993
2026-01-27 23:59:54.26	25.41	10.26	-43.7	-44.8	19.7	0.00e+00	0	43	0	265289728	59	3959
2026-01-27 23:59:55.27	25.45	10.35	-43.8	-44.8	19.7	0.00e+00	0	43	0	268435456	59	3991
2026-01-27 23:59:56.27	25.49	10.44	-43.7	-44.8	19.7	0.00e+00	0	43	0	271581184	59	3967
2026-01-27 23:59:57.28	25.53	10.52	-43.7	-44.7	19.7	0.00e+00	0	43	0	274726912	59	3948
2026-01-27 23:59:58.28	25.57	10.61	-43.6	-44.6	19.8	0.00e+00	0	43	0	277872640	59	3907
2026-01-27 23:59:59.29	25.61	10.70	-43.7	-44.7	19.7	0.00e+00	0	43	0	281018368	59	3953
2026-01-28 00:00:00.30	25.64	10.79	-43.7	-44.8	19.7	0.00e+00	0	43	0	284164096	59	3967
2026-01-28 00:00:01.31	25.68	10.87	-43.6	-44.7	19.8	0.00e+00	0	43	0	287309824	59	3918
2026-01-28 00:00:02.31	25.72	10.96	-43.6	-44.6	19.9	0.00e+00	0	43	0	290455552	59	3898
2026-01-28 00:00:03.31	25.76	11.05	-43.6	-44.7	19.8	0.00e+00	0	43	0	293601280	59	3921
2026-01-28 00:00:04.33	25.80	11.14	-43.6	-44.6	19.9	0.00e+00	0	43	0	296747008	59	3905
2026-01-28 00:00:05.33	25.84	11.23	-43.6	-44.7	19.8	0.00e+00	0	43	0	299892736	59	3929
2026-01-28 00:00:06.34	25.88	11.32	-43.5	-44.6	19.9	0.00e+00	0	43	0	303038464	59	3872
2026-01-28 00:00:07.34	25.92	11.41	-43.4	-44.4	20.0	0.00e+00	0	43	0	306184192	58	4042
2026-01-28 00:00:08.35	25.96	11.50	-43.4	-44.4	20.1	0.00e+00	0	43	0	309329920	58	4017
2026-01-28 00:00:09.35	26.00	11.59	-43.4	-44.4	20.1	0.00e+00	0	43	0	312475648	58	4026
2026-01-28 00:00:10.36	26.05	11.68	-43.4	-44.4	20.1	0.00e+00	0	43	0	315621376	58	4008
2026-01-28 00:00:11.37	26.09	11.77	-43.3	-44.3	20.2	0.00e+00	0	43	0	318767104	58	3962
2026-01-28 00:00:12.37	26.13	11.86	-43.3	-44.2	20.3	0.00e+00	0	43	0	321912832	58	3952
2026-01-28 00:00:13.38	26.17	11.95	-43.2	-44.2	20.3	0.00e+00	0	43	0	325058560	58	3920
2026-01-28 00:00:14.39	26.21	12.05	-43.2	-44.2	20.3	0.00e+00	0	43	0	328204288	58	3927
2026-01-28 00:00:15.39	26.25	12.14	-43.2	-44.1	20.3	0.00e+00	0	43	0	331350016	58	3909
2026-01-28 00:00:16.40	26.30	12.23	-43.3	-44.3	20.2	0.00e+00	0	43	0	334495744	58	3971
2026-01-28 00:00:17.41	26.34	12.32	-43.2	-44.2	20.3	0.00e+00	0	43	0	337641472	58	3918
2026-01-28 00:00:18.41	26.38	12.42	-43.2	-44.2	20.3	0.00e+00	0	43	0	340787200	58	3928
2026-01-28 00:00:19.41	26.43	12.51	-43.1	-44.1	20.4	0.00e+00	0	43	0	343932928	58	3884
2026-01-28 00:00:20.42	26.47	12.61	-43.1	-44.1	20.4	0.00e+00	0	43	0	347078656	58	3883
2026-01-28 00:00:21.42	26.51	12.70	-43.1	-44.1	20.4	0.00e+00	0	43	0	350224384	58	3875
2026-01-28 00:00:22.44	26.56	12.80	-43.1	-44.0	20.4	0.00e+00	0	43	0	353370112	58	3859
2026-01-28 00:00:23.44	26.60	12.89	-43.0	-44.0	20.5	0.00e+00	0	43	0	356515840	58	3849
2026-01-28 00:00:24.45	26.65	12.99	-43.1	-44.0	20.5	0.00e+00	0	43	0	359661568	58	3857
2026-01-28 00:00:25.46	26.69	13.08	-43.2	-44.2	20.3	0.00e+00	0	43	0	362807296	58	3927
2026-01-28 00:00:26.47	26.74	13.18	-43.1	-44.0	20.5	0.00e+00	0	43	0	365953024	58	3862
2026-01-28 00:00:27.48	26.78	13.28	-43.1	-44.1	20.5	0.00e+00	0	43	0	369098752	58	3874
2026-01-28 00:00:28.48	26.83	13.37	-43.0	-44.0	20.5	0.00e+00	0	43	0	372244480	58	3835
2026-01-28 00:00:29.49	26.87	13.47	-43.1	-44.0	20.5	0.00e+00	0	43	0	375390208	58	3858
2026-01-28 00:00:30.50	26.92	13.57	-43.0	-43.9	20.5	0.00e+00	0	43	0	378535936	58	3818
2026-01-28 00:00:31.50	26.96	13.67	-42.9	-43.8	20.7	0.00e+00	0	43	0	381681664	57	3972
2026-01-28 00:00:32.51	27.01	13.77	-42.9	-43.9	20.6	0.00e+00	0	43	0	384827392	57	4016
2026-01-28 00:00:33.52	27.06	13.86	-42.9	-43.8	20.7	0.00e+00	0	43	0	387973120	57	3992
2026-01-28 00:00:34.53	27.10	13.96	-42.9	-43.8	20.7	0.00e+00	0	43	0	391118848	57	3976
2026-01-28 00:00:35.54	27.15	14.06	-42.9	-43.9	20.6	0.00e+00	0	43	0	394264576	57	4022
2026-01-28 00:00:36.55	27.20	14.16	-42.9	-43.8	20.7	0.00e+00	0	43	0	397410304	57	3998
2026-01-28 00:00:37.55	27.25	14.26	-42.8	-43.7	20.8	0.00e+00	0	43	0	400556032	57	3951
2026-01-28 00:00:38.56	27.30	14.37	-42.9	-43.8	20.8	0.00e+00	0	43	0	403701760	57	3970
2026-01-28 00:00:39.57	27.35	14.47	-42.8	-43.8	20.8	0.00e+00	0	43	0	406847488	57	3970
2026-01-28 00:00:40.57	27.39	14.57	-42.8	-43.7	20.8	0.00e+00	0	43	0	409993216	57	3954
2026-01-28 00:00:41.58	27.44	14.67	-42.9	-43.8	20.7	0.00e+00	0	43	0	413138944	57	3979
2026-01-28 00:00:42.59	27.49	14.77	-42.9	-43.9	20.7	0.00e+00	0	43	0	416284672	57	4006
2026-01-28 00:00:43.60	27.54	14.88	-42.9	-43.9	20.7	0.00e+00	0	43	0	420478976	57	4012
2026-01-28 00:00:44.60	27.59	14.98	-42.9	-43.8	20.8	0.00e+00	0	43	0	423624704	57	3987
2026-01-28 00:00:45.61	27.64	15.09	-42.9	-43.9	20.7	0.00e+00	0	43	0	425721856	57	4006
2026-01-28 00:00:46.62	27.69	15.19	-42.9	-43.8	20.7	0.00e+00	0	43	0	428867584	57	4003
2026-01-28 00:00:47.63	27.75	15.29	-42.9	-43.8	20.7	0.00e+00	0	43	0	432013312	57	4001
2026-01-28 00:00:48.64	27.80	15.40	-42.9	-43.8	20.7	0.00e+00	0	43	0	435159040	57	3997
2026-01-28 00:00:49.65	27.85	15.51	-42.8	-43.7	20.8	0.00e+00	0	43	0	438304768	57	3947
2026-01-28 00:00:50.65	27.90	15.61	-42.9	-43.8	20.7	0.00e+00	0	43	0	441450496	57	3999
2026-01-28 00:00:51.66	27.95	15.72	-42.8	-43.7	20.8	0.00e+00	0	43	0	444596224	57	3950
2026-01-28 00:00:52.66	28.01	15.83	-42.8	-43.7	20.9	0.00e+00	0	43	0	447741952	57	3927
2026-01-28 00:00:53.67	28.06	15.93	-42.8	-43.8	20.8	0.00e+00	0	43	0	450887680	57	3963
2026-01-28 00:00:54.68	28.11	16.04	-42.6	-43.6	21.0	0.00e+00	0	43	0	454033408	57	3869
2026-01-28 00:00:55.68	28.17	16.15	-42.7	-43.6	20.9	0.00e+00	0	43	0	457179136	57	3904
2026-01-28 00:00:56.69	28.22	16.26	-42.6	-43.6	21.0	0.00e+00	0	43	0	460324864	57	3870
2026-01-28 00:00:57.70	28.28	16.37	-42.8	-43.7	20.9	0.00e+00	0	43	0	464519168	57	3938
2026-01-28 00:00:58.71	28.33	16.48	-42.8	-43.7	20.9	0.00e+00	0	43	0	467664896	57	3935
2026-01-28 00:00:59.71	28.39	16.59	-42.8	-43.8	20.8	0.00e+00	0	43	0	470810624	57	3969
2026-01-28 00:01:00.72	28.44	16.70	-42.8	-43.7	20.9	0.00e+00	0	43	0	472907776	57	3957
2026-01-28 00:01:01.73	28.50	16.81	-42.7	-43.6	21.0	0.00e+00	0	43	0	476053504	57	3872
2026-01-28 00:01:02.73	28.55	16.92	-42.6	-43.5	21.1	0.00e+00	0	43	0	479199232	57	3862
2026-01-28 00:01:03.74	28.61	17.03	-42.7	-43.6	21.0	0.00e+00	0	43	0	482344960	57	3887
2026-01-28 00:01:04.74	28.67	17.15	-42.8	-43.7	21.0	0.00e+00	0	43	0	485490688	57	3923
2026-01-28 00:01:05.75	28.73	17.26	-42.7	-43.6	21.0	0.00e+00	0	43	0	488636416	57	3890
2026-01-28 00:01:06.76	28.78	17.37	-42.8	-43.7	21.0	0.00e+00	0	43	0	491782144	57	3931
2026-01-28 00:01:07.77	28.84	17.49	-42.9	-43.8	20.8	0.00e+00	0	43	0	494927872	57	3977
2026-01-28 00:01:08.77	28.90	17.60	-42.6	-43.5	21.1	0.00e+00	0	43	0	498073600	57	3868
2026-01-28 00:01:09.78	28.96	17.72	-42.8	-43.7	20.9	0.00e+00	0	43	0	501219328	57	3936
2026-01-28 00:01:10.79	29.02	17.83	-42.8	-43.7	21.0	0.00e+00	0	43	0	505413632	57	3933
2026-01-28 00:01:11.80	29.08	17.95	-42.8	-43.7	21.0	0.00e+00	0	43	0	508559360	57	3932
2026-01-28 00:01:12.81	29.14	18.07	-42.9	-43.8	20.9	0.00e+00	0	43	0	511705088	57	3979
2026-01-28 00:01:13.82	29.20	18.18	-42.9	-43.8	20.9	0.00e+00	0	43	0	514850816	57	3967
2026-01-28 00:01:14.82	29.26	18.30	-42.9	-43.8	20.9	0.00e+00	0	43	0	517996544	57	3980
2026-01-28 00:01:15.83	29.33	18.42	-42.9	-43.8	20.9	0.00e+00	0	43	0	520093696	57	3982
2026-01-28 00:01:16.84	29.39	18.54	-42.8	-43.7	21.0	0.00e+00	0	43	0	523239424	57	3937
2026-01-28 00:01:17.85	29.45	18.66	-42.9	-43.8	20.9	0.00e+00	0	43	0	526385152	57	3993
2026-01-28 00:01:18.86	29.52	18.78	-43.0	-43.9	20.8	0.00e+00	0	43	0	529530880	57	4027
2026-01-28 00:01:19.87	29.58	18.90	-43.1	-44.0	20.7	0.00e+00	0	43	0	532676608	57	4077
2026-01-28 00:01:20.87	29.64	19.02	-43.1	-44.0	20.7	0.00e+00	0	43	0	535822336	57	4078
2026-01-28 00:01:21.88	29.71	19.14	-43.1	-44.0	20.7	0.00e+00	0	43	0	538968064	57	4075
2026-01-28 00:01:22.89	29.77	19.27	-43.1	-44.1	20.7	0.00e+00	0	43	0	542113792	57	4099
2026-01-28 00:01:23.89	29.84	19.39	-43.1	-44.1	20.7	0.00e+00	0	43	0	546308096	57	4104
2026-01-28 00:01:24.90	29.90	19.51	-43.0	-43.9	20.8	0.00e+00	0	43	0	549453824	57	4033
2026-01-28 00:01:25.91	29.97	19.64	-43.1	-44.0	20.8	0.00e+00	0	43	0	552599552	57	4070
2026-01-28 00:01:26.92	30.04	19.76	-43.1	-44.0	20.7	0.00e+00	0	43	0	555745280	57	4088
2026-01-28 00:01:27.92	30.11	19.89	-43.2	-44.1	20.7	0.00e+00	0	43	0	558891008	57	4125
2026-01-28 00:01:28.93	30.17	20.01	-43.0	-43.9	20.8	0.00e+00	0	43	0	562036736	57	4029
2026-01-28 00:01:29.93	30.24	20.14	-43.0	-43.9	20.9	0.00e+00	0	43	0	565182464	57	4016
2026-01-28 00:01:30.94	30.31	20.26	-43.0	-44.0	20.8	0.00e+00	0	43	0	567279616	57	4055
2026-01-28 00:01:31.95	30.38	20.39	-42.8	-43.8	21.0	0.00e+00	0	43	0	570425344	57	3964
2026-01-28 00:01:32.96	30.45	20.52	-42.8	-43.7	21.0	0.00e+00	0	43	0	573571072	57	3954
2026-01-28 00:01:33.97	30.52	20.65	-42.7	-43.6	21.1	0.00e+00	0	43	0	576716800	57	3896
2026-01-28 00:01:34.98	30.60	20.78	-42.6	-43.5	21.2	0.00e+00	0	43	0	579862528	57	3829
2026-01-28 00:01:35.99	30.67	20.91	-42.6	-43.5	21.2	0.00e+00	0	43	0	583008256	57	3857
2026-01-28 00:01:37.00	30.74	21.04	-42.5	-43.4	21.3	0.00e+00	0	43	0	587202560	57	3791
2026-01-28 00:01:38.00	30.81	21.17	-42.3	-43.2	21.5	0.00e+00	0	43	0	590348288	56	3914
2026-01-28 00:01:39.01	30.89	21.30	-42.3	-43.2	21.5	0.00e+00	0	43	0	593494016	56	3916
2026-01-28 00:01:40.01	30.96	21.44	-42.2	-43.0	21.6	0.00e+00	0	43	0	596639744	56	3859
2026-01-28 00:01:41.02	31.04	21.57	-42.0	-42.9	21.8	0.00e+00	0	43	0	599785472	56	3784
2026-01-28 00:01:42.03	31.11	21.70	-41.9	-42.8	21.8	0.00e+00	0	43	0	602931200	55	3959
2026-01-28 00:01:43.04	31.19	21.84	-41.8	-42.7	21.8	0.00e+00	0	43	0	606076928	55	3926
2026-01-28 00:01:44.05	31.26	21.98	-41.9	-42.7	21.8	0.00e+00	0	43	0	609222656	55	3953
2026-01-28 00:01:45.06	31.34	22.11	-41.8	-42.6	21.9	0.00e+00	0	43	0	612368384	55	3904
2026-01-28 00:01:46.06	31.42	22.25	-41.5	-42.3	22.1	0.00e+00	0	43	0	614465536	55	3769
2026-01-28 00:01:47.07	31.50	22.39	-41.6	-42.4	22.1	0.00e+00	0	43	0	617611264	55	3792
2026-01-28 00:01:48.08	31.58	22.52	-41.5	-42.3	22.2	0.00e+00	0	43	0	620756992	55	3756
2026-01-28 00:01:49.09	31.66	22.66	-41.5	-42.3	22.2	0.00e+00	0	43	0	623902720	55	3766
2026-01-28 00:01:50.10	31.74	22.80	-41.4	-42.2	22.2	0.00e+00	0	43	0	628097024	54	3947
2026-01-28 00:01:51.11	31.82	22.94	-41.4	-42.2	22.3	0.00e+00	0	43	0	631242752	54	3923
2026-01-28 00:01:52.11	31.90	23.08	-41.5	-42.3	22.2	0.00e+00	0	43	0	634388480	54	3959
2026-01-28 00:01:53.12	31.99	23.23	-41.4	-42.2	22.3	0.00e+00	0	43	0	637534208	54	3940
2026-01-28 00:01:54.13	32.07	23.37	-41.6	-42.4	22.1	0.00e+00	0	43	0	640679936	54	4016
2026-01-28 00:01:55.14	32.15	23.51	-41.4	-42.2	22.3	0.00e+00	0	43	0	643825664	54	3925
2026-01-28 00:01:56.14	32.24	23.66	-41.3	-42.1	22.4	0.00e+00	0	43	0	646971392	54	3892
2026-01-28 00:01:57.15	32.32	23.80	-41.4	-42.2	22.2	0.00e+00	0	43	0	650117120	54	3958
2026-01-28 00:01:58.15	32.41	23.95	-41.4	-42.2	22.3	0.00e+00	0	43	0	653262848	54	3917
2026-01-28 00:01:59.16	32.50	24.09	-41.4	-42.2	22.4	0.00e+00	0	43	0	656408576	54	3918
2026-01-28 00:02:00.16	32.59	24.24	-41.3	-42.1	22.4	0.00e+00	0	43	0	659554304	54	3903
2026-01-28 00:02:01.17	32.67	24.39	-41.4	-42.2	22.3	0.00e+00	0	43	0	661651456	54	3947
2026-01-28 00:02:02.18	32.76	24.53	-41.4	-42.2	22.3	0.00e+00	0	43	0	664797184	54	3943
2026-01-28 00:02:03.19	32.85	24.68	-41.5	-42.3	22.2	0.00e+00	0	43	0	667942912	54	3986
2026-01-28 00:02:04.20	32.95	24.83	-41.5	-42.3	22.2	0.00e+00	0	43	0	672137216	54	4000
2026-01-28 00:02:05.20	33.04	24.98	-41.7	-42.5	22.1	0.00e+00	0	43	0	675282944	54	4095
2026-01-28 00:02:06.21	33.13	25.14	-41.9	-42.7	21.9	0.00e+00	0	43	0	678428672	54	4158
2026-01-28 00:02:07.21	33.22	25.29	-41.8	-42.6	21.9	0.00e+00	0	43	0	681574400	54	4145
2026-01-28 00:02:08.22	33.32	25.44	-41.9	-42.7	21.9	0.00e+00	0	43	0	684720128	54	4175
2026-01-28 00:02:09.23	33.41	25.60	-41.9	-42.8	21.8	0.00e+00	0	43	0	687865856	54	4201
2026-01-28 00:02:10.24	33.51	25.75	-42.0	-42.8	21.8	0.00e+00	0	43	0	691011584	54	4222
2026-01-28 00:02:11.25	33.61	25.91	-42.1	-42.9	21.7	0.00e+00	0	43	0	694157312	54	4291
2026-01-28 00:02:12.25	33.71	26.06	-42.3	-43.1	21.5	0.00e+00	0	43	0	697303040	55	4126
2026-01-28 00:02:13.26	33.81	26.22	-42.3	-43.1	21.5	0.00e+00	0	43	0	700448768	55	4137
2026-01-28 00:02:14.26	33.91	26.38	-42.3	-43.1	21.6	0.00e+00	0	43	0	703594496	55	4132
2026-01-28 00:02:15.26	34.01	26.54	-42.4	-43.2	21.5	0.00e+00	0	43	0	706740224	55	4191
2026-01-28 00:02:16.27	34.11	26.70	-42.4	-43.2	21.4	0.00e+00	0	43	0	709885952	55	4191
2026-01-28 00:02:17.28	34.21	26.86	-42.5	-43.4	21.3	0.00e+00	0	43	0	711983104	55	4251
2026-01-28 00:02:18.29	34.32	27.02	-42.7	-43.6	21.2	0.00e+00	0	43	0	715128832	55	4350
2026-01-28 00:02:19.29	34.42	27.18	-42.9	-43.8	21.1	0.00e+00	0	43	0	719323136	56	4215
2026-01-28 00:02:20.30	34.53	27.34	-43.1	-44.0	20.8	0.00e+00	0	43	0	722468864	56	4320
2026-01-28 00:02:21.31	34.63	27.51	-43.3	-44.2	20.7	0.00e+00	0	43	0	725614592	57	4174
2026-01-28 00:02:22.32	34.74	27.67	-43.3	-44.2	20.6	0.00e+00	0	43	0	728760320	57	4190
2026-01-28 00:02:23.32	34.85	27.84	-43.3	-44.2	20.6	0.00e+00	0	43	0	731906048	57	4192
2026-01-28 00:02:24.33	34.96	28.01	-43.5	-44.4	20.5	0.00e+00	0	43	0	735051776	57	4285
2026-01-28 00:02:25.33	35.07	28.17	-43.4	-44.3	20.6	0.00e+00	0	43	0	738197504	57	4220
2026-01-28 00:02:26.34	35.18	28.34	-43.4	-44.4	20.6	0.00e+00	0	43	0	741343232	57	4245
2026-01-28 00:02:27.35	35.30	28.51	-43.2	-44.2	20.7	0.00e+00	0	43	0	744488960	57	4147
2026-01-28 00:02:28.35	35.41	28.68	-43.2	-44.1	20.8	0.00e+00	0	43	0	747634688	57	4142
2026-01-28 00:02:29.37	35.53	28.86	-43.2	-44.1	20.8	0.00e+00	0	43	0	750780416	57	4120
2026-01-28 00:02:30.37	35.65	29.03	-43.2	-44.1	20.8	0.00e+00	0	43	0	753926144	57	4143
2026-01-28 00:02:31.38	35.77	29.20	-43.2	-44.1	20.8	0.00e+00	0	43	0	757071872	57	4118
2026-01-28 00:02:32.39	35.89	29.38	-42.9	-43.8	21.0	0.00e+00	0	43	0	760217600	57	3964
2026-01-28 00:02:33.40	36.01	29.55	-42.8	-43.7	21.1	0.00e+00	0	43	0	763363328	57	3955
2026-01-28 00:02:34.40	36.13	29.73	-42.8	-43.7	21.1	0.00e+00	0	43	0	766509056	57	3930
2026-01-28 00:02:35.40	36.25	29.90	-42.8	-43.7	21.1	0.00e+00	0	43	0	769654784	57	3939
2026-01-28 00:02:36.42	36.38	30.08	-42.9	-43.8	21.1	0.00e+00	0	43	0	772800512	57	3974
2026-01-28 00:02:37.42	36.50	30.26	-42.8	-43.7	21.1	0.00e+00	0	43	0	775946240	57	3953
2026-01-28 00:02:38.43	36.63	30.44	-42.8	-43.7	21.1	0.00e+00	0	43	0	779091968	57	3952
2026-01-28 00:02:39.44	36.76	30.62	-42.9	-43.8	21.1	0.00e+00	0	43	0	782237696	57	3983
2026-01-28 00:02:40.45	36.89	30.81	-42.9	-43.8	21.1	0.00e+00	0	43	0	785383424	57	4001
2026-01-28 00:02:41.46	37.02	30.99	-42.9	-43.8	21.1	0.00e+00	0	43	0	788529152	57	3961
2026-01-28 00:02:42.47	37.16	31.17	-42.9	-43.8	21.1	0.00e+00	0	43	0	791674880	57	3983
2026-01-28 00:02:43.47	37.29	31.36	-42.8	-43.7	21.2	0.00e+00	0	43	0	794820608	57	3933
2026-01-28 00:02:44.48	37.43	31.54	-42.7	-43.6	21.3	0.00e+00	0	43	0	797966336	57	3892
2026-01-28 00:02:45.49	37.56	31.73	-42.8	-43.7	21.2	0.00e+00	0	43	0	801112064	57	3947
2026-01-28 00:02:46.50	37.70	31.92	-42.7	-43.6	21.3	0.00e+00	0	43	0	804257792	57	3892
2026-01-28 00:02:47.51	37.85	32.11	-42.8	-43.7	21.2	0.00e+00	0	43	0	807403520	57	3947
2026-01-28 00:02:48.51	37.99	32.30	-42.8	-43.6	21.3	0.00e+00	0	43	0	810549248	57	3905
2026-01-28 00:02:49.52	38.13	32.49	-42.7	-43.6	21.3	0.00e+00	0	43	0	813694976	57	3892
2026-01-28 00:02:50.51	38.27	32.68	-42.8	-43.6	21.3	0.00e+00	0	43	0	816840704	57	3903
2026-01-28 00:02:51.52	38.42	32.87	-42.7	-43.6	21.4	0.00e+00	0	43	0	819986432	57	3875
2026-01-28 00:02:52.52	38.57	33.07	-42.7	-43.6	21.3	0.00e+00	0	43	0	823132160	57	3886
2026-01-28 00:02:53.53	38.72	33.26	-42.9	-43.7	21.3	0.00e+00	0	43	0	826277888	57	3952
2026-01-28 00:02:54.54	38.87	33.46	-43.0	-43.9	21.1	0.00e+00	0	43	0	829423616	57	4026
2026-01-28 00:02:55.54	39.03	33.66	-43.2	-44.1	20.9	0.00e+00	0	43	0	832569344	57	4116
2026-01-28 00:02:56.55	39.18	33.86	-43.3	-44.2	20.9	0.00e+00	0	43	0	835715072	57	4180
2026-01-28 00:02:57.56	39.34	34.06	-43.3	-44.3	20.8	0.00e+00	0	43	0	838860800	57	4206
2026-01-28 00:02:58.57	39.50	34.26	-43.5	-44.4	20.6	0.00e+00	0	43	0	842006528	57	4282
2026-01-28 00:02:59.58	39.67	34.46	-43.7	-44.6	20.5	0.00e+00	0	43	0	845152256	57	4379
2026-01-28 00:03:00.58	39.83	34.66	-43.7	-44.6	20.5	0.00e+00	0	43	0	848297984	58	4137
2026-01-28 00:03:01.59	40.00	34.87	-43.9	-44.9	20.3	0.00e+00	0	43	0	851443712	58	4245
2026-01-28 00:03:02.60	40.16	35.07	-44.0	-45.0	20.2	0.00e+00	0	43	0	854589440	58	4318
2026-01-28 00:03:03.61	40.33	35.28	-43.9	-44.9	20.3	0.00e+00	0	43	0	857735168	58	4266
2026-01-28 00:03:04.62	40.51	35.49	-44.0	-45.0	20.3	0.00e+00	0	43	0	860880896	58	4324
2026-01-28 00:03:05.63	40.68	35.70	-44.2	-45.2	20.2	0.00e+00	0	43	0	864026624	59	4157
2026-01-28 00:03:06.63	40.86	35.90	-44.2	-45.2	20.1	0.00e+00	0	43	0	867172352	59	4176
2026-01-28 00:03:07.64	41.04	36.12	-44.3	-45.3	20.1	0.00e+00	0	43	0	870318080	59	4224
2026-01-28 00:03:08.64	41.22	36.33	-44.3	-45.4	20.0	0.00e+00	0	43	0	873463808	59	4247
2026-01-28 00:03:09.65	41.40	36.54	-44.6	-45.7	19.7	0.00e+00	0	43	0	876609536	59	4393
2026-01-28 00:03:10.65	41.58	36.75	-44.6	-45.7	19.6	0.00e+00	0	43	0	879755264	59	4424
2026-01-28 00:03:11.66	41.77	36.97	-44.4	-45.5	19.6	0.00e+00	0	43	0	882900992	60	4052
2026-01-28 00:03:12.67	41.96	37.18	-44.5	-45.6	19.4	0.00e+00	0	43	0	886046720	60	4106
2026-01-28 00:03:13.67	42.16	37.40	-44.4	-45.4	19.6	0.00e+00	0	43	0	889192448	60	4028
2026-01-28 00:03:14.68	42.35	37.62	-44.1	-45.1	20.0	0.00e+00	0	43	0	892338176	60	3882
2026-01-28 00:03:15.69	42.55	37.84	-44.3	-45.3	20.0	0.00e+00	0	43	0	895483904	59	4239
2026-01-28 00:03:16.70	42.75	38.06	-44.3	-45.3	20.1	0.00e+00	0	43	0	898629632	59	4207
2026-01-28 00:03:17.71	42.96	38.28	-44.3	-45.4	19.9	0.00e+00	0	43	0	901775360	59	4266
2026-01-28 00:03:18.72	43.16	38.50	-44.4	-45.6	19.7	0.00e+00	0	43	0	904921088	59	4377
2026-01-28 00:03:19.72	43.37	38.72	-44.5	-45.8	19.6	0.00e+00	0	43	0	908066816	59	4444
2026-01-28 00:03:20.73	43.58	38.95	-44.5	-45.6	19.4	0.00e+00	0	43	0	911212544	60	4131
2026-01-28 00:03:21.74	43.80	39.18	-44.6	-45.7	19.3	0.00e+00	0	43	0	914358272	60	4181
2026-01-28 00:03:22.75	44.02	39.40	-44.5	-45.5	19.5	0.00e+00	0	43	0	917504000	60	4074
2026-01-28 00:03:23.76	44.24	39.63	-44.6	-45.6	19.3	0.00e+00	0	43	0	920649728	60	4130
2026-01-28 00:03:24.76	44.46	39.86	-44.4	-45.4	19.4	0.00e+00	0	43	0	923795456	60	4033
2026-01-28 00:03:25.77	44.69	40.09	-44.2	-45.2	19.7	0.00e+00	0	43	0	926941184	60	3932
2026-01-28 00:03:26.78	44.92	40.32	-44.2	-45.3	19.7	0.00e+00	0	43	0	930086912	60	3959
2026-01-28 00:03:27.79	45.15	40.55	-44.4	-45.4	19.6	0.00e+00	0	43	0	933232640	60	4036
2026-01-28 00:03:28.79	45.39	40.78	-44.6	-45.7	19.3	0.00e+00	0	43	0	936378368	60	4154
2026-01-28 00:03:29.80	45.63	41.02	-44.9	-46.1	19.0	0.00e+00	0	43	0	939524096	60	4342
2026-01-28 00:03:30.81	45.87	41.25	-45.1	-46.2	18.9	0.00e+00	0	43	0	942669824	60	4431
2026-01-28 00:03:31.82	46.12	41.49	-45.4	-46.6	18.6	0.00e+00	0	43	0	945815552	61	4358
2026-01-28 00:03:32.83	46.37	41.73	-45.6	-46.8	18.4	0.00e+00	0	43	0	948961280	61	4493
2026-01-28 00:03:33.84	46.62	41.96	-45.4	-46.6	18.6	0.00e+00	0	43	0	952107008	61	4369
2026-01-28 00:03:34.85	46.88	42.20	-45.3	-46.4	18.8	0.00e+00	0	43	0	955252736	61	4274
2026-01-28 00:03:35.85	47.14	42.44	-45.0	-46.1	19.0	0.00e+00	0	43	0	958398464	61	4131
2026-01-28 00:03:36.86	47.41	42.68	-45.1	-46.2	19.0	0.00e+00	0	43	0	961544192	61	4157
2026-01-28 00:03:37.86	47.68	42.92	-45.4	-46.5	18.7	0.00e+00	0	43	0	964689920	61	4322
2026-01-28 00:03:38.87	47.95	43.16	-45.6	-46.8	18.4	0.00e+00	0	43	0	967835648	61	4486
2026-01-28 00:03:39.87	48.23	43.41	-45.7	-46.9	18.4	0.00e+00	0	43	0	970981376	62	4278
2026-01-28 00:03:40.88	48.51	43.65	-45.9	-47.2	18.2	0.00e+00	0	43	0	974127104	62	4395
2026-01-28 00:03:41.88	48.79	43.89	-46.1	-47.4	18.0	0.00e+00	0	43	0	977272832	62	4495
2026-01-28 00:03:42.89	49.08	44.14	-45.9	-47.1	18.0	0.00e+00	0	43	0	980418560	62	4384
2026-01-28 00:03:43.89	49.37	44.38	-45.6	-46.7	18.3	0.00e+00	0	43	0	983564288	62	4190
2026-01-28 00:03:44.90	49.67	44.63	-45.3	-46.4	18.7	0.00e+00	0	43	0	986710016	62	4042
2026-01-28 00:03:45.91	49.98	44.88	-45.0	-46.1	19.0	0.00e+00	0	43	0	989855744	62	3877
2026-01-28 00:03:46.92	50.29	45.13	-45.1	-46.2	18.9	0.00e+00	0	43	0	993001472	61	4179
2026-01-28 00:03:47.93	50.60	45.38	-44.9	-45.9	19.1	0.00e+00	0	43	0	996147200	61	4051
2026-01-28 00:03:48.94	50.92	45.63	-45.0	-46.1	19.1	0.00e+00	0	43	0	999292928	61	4105
2026-01-28 00:03:49.94	51.24	45.88	-45.2	-46.3	18.8	0.00e+00	0	43	0	1002438656	61	4233
2026-01-28 00:03:50.95	51.57	46.13	-45.4	-46.6	18.6	0.00e+00	0	43	0	1005584384	61	4376
2026-01-28 00:03:51.96	51.91	46.38	-45.5	-46.7	18.4	0.00e+00	0	43	0	1008730112	61	4418
2026-01-28 00:03:52.97	52.25	46.63	-45.2	-46.4	18.7	0.00e+00	0	43	0	1011875840	61	4251
2026-01-28 00:03:53.98	52.59	46.88	-44.6	-45.7	19.4	0.00e+00	0	43	0	1015021568	61	3935
2026-01-28 00:03:54.99	52.94	47.14	-44.2	-45.2	19.9	0.00e+00	0	43	0	1018167296	60	3925
2026-01-28 00:03:56.00	53.30	47.39	-44.2	-45.2	19.9	0.00e+00	0	43	0	1021313024	60	3921
2026-01-28 00:03:57.00	53.66	47.64	-44.5	-45.5	19.6	0.00e+00	0	43	0	1024458752	60	4098
2026-01-28 00:03:58.01	54.02	47.90	-44.9	-46.0	19.2	0.00e+00	0	43	0	1027604480	60	4317
2026-01-28 00:03:59.02	54.40	48.15	-45.2	-46.3	18.8	0.00e+00	0	43	0	1030750208	61	4242
2026-01-28 00:04:00.03	54.78	48.41	-45.4	-46.5	18.7	0.00e+00	0	43	0	1033895936	61	4339
2026-01-28 00:04:01.03	55.16	48.66	-45.5	-46.7	18.5	0.00e+00	0	43	0	1037041664	61	4434
2026-01-28 00:04:02.04	55.55	48.91	-45.0	-46.1	19.0	0.00e+00	0	43	0	1040187392	61	4131
2026-01-28 00:04:03.04	55.95	49.16	-44.6	-45.7	19.4	0.00e+00	0	43	0	1043333120	61	3928
2026-01-28 00:04:04.05	56.36	49.42	-44.5	-45.5	19.6	0.00e+00	0	43	0	1046478848	60	4077
2026-01-28 00:04:05.06	56.77	49.67	-44.5	-45.5	19.6	0.00e+00	0	43	0	1049624576	60	4092
2026-01-28 00:04:06.07	57.19	49.93	-44.3	-45.3	19.9	0.00e+00	0	43	0	1052770304	60	3967
2026-01-28 00:04:07.08	57.61	50.18	-44.3	-45.3	19.9	0.00e+00	0	43	0	1055916032	60	3964
2026-01-28 00:04:08.08	58.04	50.44	-44.2	-45.3	19.9	0.00e+00	0	43	0	1059061760	60	3959
2026-01-28 00:04:09.09	58.48	50.69	-44.5	-45.6	19.6	0.00e+00	0	43	0	1062207488	60	4117
2026-01-28 00:04:10.10	58.93	50.94	-44.4	-45.4	19.7	0.00e+00	0	43	0	1065353216	60	4047
2026-01-28 00:04:11.11	59.39	51.20	-44.2	-45.1	20.0	0.00e+00	0	43	0	1068498944	60	3911
2026-01-28 00:04:12.11	59.85	51.45	-44.4	-45.5	19.9	0.00e+00	0	43	0	1071644672	59	4293
2026-01-28 00:04:13.12	60.32	51.70	-44.4	-45.4	20.0	0.00e+00	0	43	0	1074790400	59	4276
2026-01-28 00:04:14.13	60.80	51.95	-44.6	-45.6	19.9	0.00e+00	0	43	0	1077936128	59	4373
2026-01-28 00:04:15.13	61.28	52.20	-44.4	-45.4	19.9	0.00e+00	0	43	0	1081081856	60	4010
2026-01-28 00:04:16.14	61.77	52.45	-44.3	-45.3	19.9	0.00e+00	0	43	0	1084227584	60	3961
2026-01-28 00:04:17.15	62.28	52.70	-44.1	-45.1	20.0	0.00e+00	0	43	0	1087373312	60	3897
2026-01-28 00:04:18.16	62.79	52.94	-44.4	-45.4	20.1	0.00e+00	0	43	0	1090519040	59	4282
2026-01-28 00:04:19.16	63.31	53.19	-44.5	-45.5	20.0	0.00e+00	0	43	0	1093664768	59	4340
2026-01-28 00:04:20.17	63.84	53.43	-44.5	-45.5	20.0	0.00e+00	0	43	0	1096810496	59	4304
2026-01-28 00:04:21.18	64.37	53.68	-44.1	-45.1	20.4	0.00e+00	0	43	0	1099956224	59	4112
2026-01-28 00:04:22.18	64.92	53.92	-43.8	-44.7	20.7	0.00e+00	0	43	0	1103101952	59	3944
2026-01-28 00:04:23.19	65.47	54.16	-43.3	-44.2	21.1	0.00e+00	0	43	0	1106247680	58	3936
2026-01-28 00:04:24.19	66.03	54.40	-43.2	-44.0	21.3	0.00e+00	0	43	0	1109393408	58	3858
2026-01-28 00:04:25.20	66.61	54.64	-43.5	-44.4	21.0	0.00e+00	0	43	0	1112539136	58	4023
2026-01-28 00:04:26.21	67.19	54.87	-44.0	-44.9	20.6	0.00e+00	0	43	0	1115684864	58	4280
2026-01-28 00:04:27.22	67.79	55.11	-43.9	-44.9	20.6	0.00e+00	0	43	0	1118830592	58	4272
2026-01-28 00:04:28.23	68.39	55.34	-43.8	-44.7	20.7	0.00e+00	0	43	0	1121976320	58	4179
2026-01-28 00:04:29.24	69.01	55.57	-43.8	-44.8	20.4	0.00e+00	0	43	0	1125122048	58	4207
2026-01-28 00:04:30.25	69.63	55.80	-43.5	-44.4	20.8	0.00e+00	0	43	0	1128267776	58	4018
2026-01-28 00:04:31.25	70.26	56.02	-43.2	-44.1	21.1	0.00e+00	0	43	0	1131413504	58	3897
2026-01-28 00:04:32.26	70.91	56.25	-43.0	-43.9	21.4	0.00e+00	0	43	0	1134559232	58	3802
2026-01-28 00:04:33.27	71.56	56.47	-43.1	-44.0	21.3	0.00e+00	0	43	0	1137704960	58	3849
2026-01-28 00:04:34.28	72.23	56.68	-43.4	-44.3	21.1	0.00e+00	0	43	0	1140850688	58	3962
2026-01-28 00:04:35.29	72.90	56.90	-43.6	-44.5	20.9	0.00e+00	0	43	0	1143996416	58	4095
2026-01-28 00:04:36.29	73.58	57.11	-43.2	-44.1	21.3	0.00e+00	0	43	0	1147142144	58	3885
2026-01-28 00:04:37.30	74.28	57.32	-42.9	-43.7	21.5	0.00e+00	0	43	0	1150287872	57	3942
2026-01-28 00:04:38.30	74.98	57.52	-42.6	-43.4	21.7	0.00e+00	0	43	0	1153433600	57	3809
2026-01-28 00:04:39.31	75.70	57.72	-42.5	-43.3	21.5	0.00e+00	0	43	0	1156579328	56	3998
2026-01-28 00:04:40.32	76.43	57.92	-42.6	-43.4	21.6	0.00e+00	0	43	0	1159725056	56	4022
2026-01-28 00:04:41.32	77.16	58.12	-42.6	-43.4	21.7	0.00e+00	0	43	0	1162870784	56	4044
2026-01-28 00:04:42.33	77.91	58.31	-42.7	-43.5	21.7	0.00e+00	0	43	0	1166016512	56	4076
2026-01-28 00:04:43.34	78.67	58.50	-42.6	-43.4	21.7	0.00e+00	0	43	0	1169162240	56	4022
2026-01-28 00:04:44.35	79.44	58.68	-42.4	-43.2	21.9	0.00e+00	0	43	0	1172307968	56	3931
2026-01-28 00:04:45.36	80.22	58.86	-42.7	-43.6	21.6	0.00e+00	0	43	0	1175453696	56	4119
2026-01-28 00:04:46.36	81.01	59.03	-42.8	-43.7	21.5	0.00e+00	0	43	0	1178599424	56	4158
2026-01-28 00:04:47.37	81.81	59.20	-42.6	-43.4	21.7	0.00e+00	0	43	0	1181745152	56	4051
2026-01-28 00:04:48.38	82.63	59.37	-42.5	-43.3	21.9	0.00e+00	0	43	0	1184890880	56	3976
2026-01-28 00:04:49.39	83.45	59.53	-42.4	-43.3	21.9	0.00e+00	0	43	0	1188036608	56	3961
2026-01-28 00:04:50.39	84.27	59.68	-42.4	-43.2	22.0	0.00e+00	0	43	0	1191182336	56	3926
2026-01-28 00:04:51.40	85.12	59.83	-42.3	-43.2	22.0	0.00e+00	0	43	0	1194328064	56	3914
2026-01-28 00:04:52.41	85.97	59.98	-42.2	-43.0	22.1	0.00e+00	0	43	0	1197473792	56	3860
2026-01-28 00:04:53.42	86.83	60.12	-42.2	-43.0	22.2	0.00e+00	0	43	0	1200619520	56	3849
2026-01-28 00:04:54.42	87.70	60.25	-42.3	-43.1	22.1	0.00e+00	0	43	0	1203765248	56	3878
2026-01-28 00:04:55.43	88.58	60.38	-42.6	-43.5	21.7	0.00e+00	0	43	0	1206910976	56	4075
2026-01-28 00:04:56.43	89.46	60.50	-42.4	-43.3	22.0	0.00e+00	0	43	0	1210056704	56	3975
2026-01-28 00:04:57.44	90.35	60.62	-42.4	-43.2	22.0	0.00e+00	0	43	0	1213202432	56	3939
2026-01-28 00:04:58.45	91.26	60.73	-42.2	-43.0	22.2	0.00e+00	0	43	0	1216348160	56	3854
2026-01-28 00:04:59.45	92.16	60.83	-41.8	-42.6	22.5	0.00e+00	0	43	0	1219493888	55	3877
2026-01-28 00:05:00.45	93.08	60.93	-41.9	-42.7	22.4	0.00e+00	0	43	0	1222639616	55	3941
2026-01-28 00:05:01.45	94.00	61.02	-42.1	-42.9	22.2	0.00e+00	0	43	0	1225785344	55	4025
2026-01-28 00:05:02.46	94.93	61.11	-42.2	-43.0	22.1	0.00e+00	0	43	0	1228931072	55	4075
2026-01-28 00:05:03.47	95.87	61.19	-41.9	-42.7	22.3	0.00e+00	0	43	0	1232076800	55	3937
2026-01-28 00:05:04.47	96.81	61.26	-41.9	-42.7	22.2	0.00e+00	0	43	0	1235222528	55	3917
2026-01-28 00:05:05.48	97.76	61.33	-42.0	-42.8	21.9	0.00e+00	0	43	0	1238368256	55	3976
2026-01-28 00:05:06.49	98.72	61.39	-42.0	-42.8	22.1	0.00e+00	0	43	0	1241513984	55	3999
2026-01-28 00:05:07.50	99.68	61.44	-41.9	-42.6	22.2	0.00e+00	0	43	0	1244659712	55	3901
2026-01-28 00:05:08.51	100.64	61.49	-41.9	-42.7	22.2	0.00e+00	0	43	0	1247805440	55	3914
2026-01-28 00:05:09.51	101.60	61.53	-41.9	-42.7	22.3	0.00e+00	0	43	0	1250951168	55	3929
2026-01-28 00:05:10.52	102.57	61.56	-41.8	-42.6	22.4	0.00e+00	0	43	0	1254096896	55	3877
2026-01-28 00:05:11.52	103.53	61.58	-42.0	-42.8	22.2	0.00e+00	0	43	0	1257242624	55	4003
2026-01-28 00:05:12.53	104.51	61.60	-42.4	-43.2	21.9	0.00e+00	0	43	0	1260388352	55	4173
2026-01-28 00:05:13.53	105.47	61.61	-42.5	-43.3	21.8	0.00e+00	0	43	0	1263534080	55	4239
2026-01-28 00:05:14.54	106.45	61.62	-42.2	-43.0	21.9	0.00e+00	0	43	0	1266679808	55	4078
2026-01-28 00:05:15.55	107.43	61.61	-41.9	-42.7	22.2	0.00e+00	0	43	0	1269825536	55	3940
2026-01-28 00:05:16.55	108.39	61.60	-42.4	-43.2	21.7	0.00e+00	0	43	0	1272971264	55	4187
2026-01-28 00:05:17.56	109.37	61.59	-42.6	-43.5	21.6	0.00e+00	0	43	0	1276116992	55	4299
2026-01-28 00:05:18.57	110.34	61.56	-42.3	-43.1	21.9	0.00e+00	0	43	0	1279262720	55	4117
2026-01-28 00:05:19.57	111.30	61.53	-42.2	-43.0	22.1	0.00e+00	0	43	0	1282408448	55	4098
2026-01-28 00:05:20.58	112.27	61.49	-41.9	-42.7	22.3	0.00e+00	0	43	0	1285554176	55	3926
2026-01-28 00:05:21.59	113.24	61.45	-41.8	-42.5	22.4	0.00e+00	0	43	0	1288699904	55	3864
2026-01-28 00:05:22.60	114.20	61.40	-41.6	-42.3	22.6	0.00e+00	0	43	0	1291845632	54	3983
2026-01-28 00:05:23.61	115.16	61.34	-41.6	-42.4	22.5	0.00e+00	0	43	0	1294991360	54	4025
2026-01-28 00:05:24.61	116.10	61.27	-42.1	-42.9	22.2	0.00e+00	0	43	0	1298137088	54	4254
2026-01-28 00:05:25.62	117.05	61.20	-42.1	-42.9	22.2	0.00e+00	0	43	0	1301282816	54	4250
2026-01-28 00:05:26.63	117.99	61.12	-42.0	-42.8	22.2	0.00e+00	0	43	0	1304428544	54	4239
2026-01-28 00:05:27.64	118.93	61.04	-42.0	-42.8	22.1	0.00e+00	0	43	0	1307574272	54	4223
2026-01-28 00:05:28.64	119.85	60.94	-41.9	-42.7	22.3	0.00e+00	0	43	0	1310720000	54	4182
2026-01-28 00:05:29.65	120.77	60.85	-41.8	-42.6	22.4	0.00e+00	0	43	0	1313865728	54	4109
2026-01-28 00:05:30.66	121.68	60.74	-41.9	-42.7	22.3	0.00e+00	0	43	0	1317011456	54	4178
2026-01-28 00:05:31.67	122.59	60.63	-42.2	-43.0	22.1	0.00e+00	0	43	0	1320157184	54	4324
2026-01-28 00:05:32.68	123.49	60.51	-42.2	-43.0	22.0	0.00e+00	0	43	0	1323302912	54	4303
2026-01-28 00:05:33.69	124.38	60.39	-42.1	-42.9	22.0	0.00e+00	0	43	0	1326448640	54	4270
2026-01-28 00:05:34.69	125.26	60.26	-42.1	-42.9	22.0	0.00e+00	0	43	0	1329594368	54	4279
2026-01-28 00:05:35.70	126.13	60.13	-42.3	-43.1	21.9	0.00e+00	0	43	0	1332740096	55	4138
2026-01-28 00:05:36.71	126.99	59.99	-42.1	-42.9	22.1	0.00e+00	0	43	0	1335885824	55	4042
2026-01-28 00:05:37.72	127.85	59.85	-41.8	-42.6	22.1	0.00e+00	0	43	0	1339031552	55	3904
2026-01-28 00:05:38.73	128.69	59.70	-41.7	-42.5	22.3	0.00e+00	0	43	0	1342177280	55	3863
2026-01-28 00:05:39.73	129.52	59.54	-41.7	-42.5	22.3	0.00e+00	0	43	0	1345323008	55	3845
2026-01-28 00:05:40.74	130.35	59.38	-41.6	-42.4	22.5	0.00e+00	0	43	0	1348468736	55	3789
2026-01-28 00:05:41.75	131.16	59.22	-41.7	-42.5	22.4	0.00e+00	0	43	0	1351614464	55	3846
2026-01-28 00:05:42.75	131.96	59.05	-42.0	-42.8	22.2	0.00e+00	0	43	0	1354760192	55	3985
2026-01-28 00:05:43.76	132.75	58.87	-42.0	-42.9	22.1	0.00e+00	0	43	0	1357905920	55	4007
2026-01-28 00:05:44.77	133.54	58.69	-41.6	-42.3	22.5	0.00e+00	0	43	0	1361051648	55	3777
2026-01-28 00:05:45.78	134.31	58.51	-41.2	-41.9	22.9	0.00e+00	0	43	0	1364197376	54	3811
2026-01-28 00:05:46.78	135.07	58.33	-41.7	-42.5	22.5	0.00e+00	0	43	0	1367343104	54	4062
2026-01-28 00:05:47.79	135.82	58.13	-42.5	-43.4	21.7	0.00e+00	0	44	0	1370488832	55	4266
2026-01-28 00:05:48.80	136.56	57.94	-43.1	-44.0	21.1	0.00e+00	0	43	0	1373634560	56	4340
2026-01-28 00:05:49.81	137.29	57.74	-43.1	-43.9	21.3	0.00e+00	0	43	0	1376780288	57	4049
2026-01-28 00:05:50.81	138.01	57.54	-42.9	-43.8	21.3	0.00e+00	0	43	0	1379926016	57	3987
2026-01-28 00:05:51.82	138.72	57.33	-42.6	-43.4	21.7	0.00e+00	0	43	0	1383071744	57	3813
2026-01-28 00:05:52.82	139.41	57.13	-42.3	-43.1	22.0	0.00e+00	0	43	0	1386217472	56	3908
2026-01-28 00:05:53.83	140.10	56.92	-42.3	-43.1	22.0	0.00e+00	0	43	0	1389363200	56	3901
2026-01-28 00:05:54.83	140.77	56.70	-42.8	-43.7	21.5	0.00e+00	0	43	0	1392508928	56	4162
2026-01-28 00:05:55.84	141.44	56.48	-43.3	-44.2	20.8	0.00e+00	0	43	0	1395654656	57	4191
2026-01-28 00:05:56.85	142.09	56.26	-43.1	-44.0	21.2	0.00e+00	0	43	0	1398800384	57	4084
2026-01-28 00:05:57.86	142.74	56.04	-43.2	-44.2	21.0	0.00e+00	0	43	0	1401946112	57	4147
2026-01-28 00:05:58.86	143.37	55.82	-43.0	-43.9	21.2	0.00e+00	0	43	0	1405091840	57	4035
2026-01-28 00:05:59.86	143.99	55.59	-43.0	-43.9	21.3	0.00e+00	0	43	0	1408237568	57	4038
2026-01-28 00:06:00.87	144.61	55.36	-43.2	-44.1	21.1	0.00e+00	0	43	0	1411383296	57	4131
2026-01-28 00:06:01.88	145.21	55.13	-43.8	-44.8	20.5	0.00e+00	0	43	0	1414529024	58	4215
2026-01-28 00:06:02.89	145.81	54.89	-44.1	-45.1	20.2	0.00e+00	0	43	0	1417674752	58	4382
2026-01-28 00:06:03.90	146.40	54.65	-44.2	-45.3	20.0	0.00e+00	0	43	0	1420820480	59	4211
2026-01-28 00:06:04.90	146.97	54.42	-43.9	-44.9	20.3	0.00e+00	0	43	0	1423966208	59	4026
2026-01-28 00:06:05.91	147.54	54.18	-43.8	-44.8	20.3	0.00e+00	0	43	0	1427111936	59	3969
2026-01-28 00:06:06.91	148.09	53.94	-43.7	-44.7	20.5	0.00e+00	0	43	0	1430257664	59	3931
2026-01-28 00:06:07.92	148.64	53.69	-43.5	-44.4	20.7	0.00e+00	0	43	0	1433403392	58	4040
2026-01-28 00:06:08.93	149.18	53.45	-43.3	-44.3	20.9	0.00e+00	0	43	0	1436549120	58	3966
2026-01-28 00:06:09.94	149.71	53.20	-43.8	-44.8	20.5	0.00e+00	0	43	0	1439694848	58	4213
2026-01-28 00:06:10.94	150.23	52.96	-44.0	-45.0	20.3	0.00e+00	0	44	0	1442840576	58	4319
2026-01-28 00:06:11.95	150.74	52.71	-43.7	-44.7	20.5	0.00e+00	0	43	0	1445986304	58	4172
2026-01-28 00:06:12.96	151.25	52.46	-43.5	-44.4	20.7	0.00e+00	0	43	0	1449132032	58	4051
2026-01-28 00:06:13.97	151.75	52.21	-43.4	-44.3	20.9	0.00e+00	0	43	0	1452277760	58	3980
2026-01-28 00:06:14.97	152.23	51.96	-43.4	-44.4	20.9	0.00e+00	0	43	0	1455423488	58	4006
2026-01-28 00:06:15.97	152.71	51.71	-43.4	-44.3	20.9	0.00e+00	0	43	0	1458569216	58	3973
2026-01-28 00:06:16.98	153.18	51.46	-43.7	-44.7	20.6	0.00e+00	0	43	0	1461714944	58	4162
2026-01-28 00:06:17.99	153.64	51.20	-44.5	-45.6	19.8	0.00e+00	0	43	0	1464860672	59	4343
2026-01-28 00:06:18.99	154.10	50.95	-44.9	-46.0	19.1	0.00e+00	0	43	0	1468006400	60	4327
2026-01-28 00:06:20.00	154.55	50.70	-45.2	-46.3	18.8	0.00e+00	0	43	0	1471152128	60	4493
2026-01-28 00:06:21.01	154.99	50.44	-44.6	-45.7	19.2	0.00e+00	0	43	0	1474297856	60	4168
2026-01-28 00:06:22.01	155.42	50.19	-44.1	-45.1	19.9	0.00e+00	0	43	0	1477443584	59	4119
2026-01-28 00:06:23.02	155.85	49.94	-43.8	-44.8	20.0	0.00e+00	0	43	0	1480589312	59	3960
2026-01-28 00:06:24.03	156.27	49.68	-43.8	-44.8	20.3	0.00e+00	0	43	0	1483735040	59	3969
2026-01-28 00:06:25.03	156.68	49.43	-44.0	-44.9	20.2	0.00e+00	0	43	0	1486880768	59	4039
2026-01-28 00:06:26.03	157.08	49.17	-44.6	-45.6	19.7	0.00e+00	0	43	0	1490026496	59	4380
2026-01-28 00:06:27.04	157.48	48.92	-44.9	-46.0	18.9	0.00e+00	0	43	0	1493172224	60	4337
2026-01-28 00:06:28.05	157.88	48.66	-45.2	-46.4	18.7	0.00e+00	0	43	0	1496317952	61	4251
2026-01-28 00:06:29.06	158.26	48.41	-44.6	-45.6	19.4	0.00e+00	0	43	0	1499463680	61	3903
2026-01-28 00:06:30.07	158.65	48.15	-44.2	-45.3	19.7	0.00e+00	0	43	0	1502609408	60	3962
2026-01-28 00:06:31.07	159.02	47.90	-44.0	-45.0	19.8	0.00e+00	0	43	0	1505755136	60	3859
2026-01-28 00:06:32.08	159.39	47.64	-44.2	-45.2	19.6	0.00e+00	0	43	0	1508900864	60	3931
2026-01-28 00:06:33.09	159.75	47.39	-44.4	-45.4	19.9	0.00e+00	0	43	0	1512046592	59	4249
2026-01-28 00:06:34.10	160.11	47.13	-44.2	-45.2	20.1	0.00e+00	0	43	0	1515192320	59	4166
2026-01-28 00:06:35.11	160.46	46.88	-44.5	-45.5	19.7	0.00e+00	0	43	0	1518338048	59	4340
2026-01-28 00:06:36.12	160.81	46.63	-44.7	-45.8	19.2	0.00e+00	0	43	0	1521483776	60	4219
2026-01-28 00:06:37.12	161.14	46.37	-45.4	-46.6	18.5	0.00e+00	0	43	0	1524629504	61	4346
2026-01-28 00:06:38.13	161.48	46.12	-45.9	-47.2	17.8	0.00e+00	0	43	0	1527775232	62	4409
2026-01-28 00:06:39.13	161.81	45.87	-45.7	-47.0	18.1	0.00e+00	0	43	0	1530920960	62	4308
2026-01-28 00:06:40.14	162.13	45.62	-45.6	-46.8	18.2	0.00e+00	0	43	0	1534066688	62	4216
2026-01-28 00:06:41.15	162.45	45.37	-45.6	-46.8	18.2	0.00e+00	0	43	0	1537212416	62	4237
2026-01-28 00:06:42.16	162.77	45.12	-45.6	-46.9	18.0	0.00e+00	0	43	0	1540358144	62	4247
2026-01-28 00:06:43.17	163.08	44.87	-45.2	-46.4	18.5	0.00e+00	0	43	0	1543503872	62	4034
2026-01-28 00:06:44.17	163.38	44.62	-44.8	-45.9	18.9	0.00e+00	0	43	0	1546649600	61	4031
2026-01-28 00:06:45.18	163.68	44.37	-44.6	-45.7	19.3	0.00e+00	0	43	0	1549795328	61	3924
2026-01-28 00:06:46.18	163.97	44.13	-44.9	-46.0	19.0	0.00e+00	0	43	0	1552941056	61	4087
2026-01-28 00:06:47.19	164.27	43.88	-45.4	-46.6	18.6	0.00e+00	0	43	0	1556086784	61	4351
2026-01-28 00:06:48.19	164.55	43.64	-45.4	-46.5	18.5	0.00e+00	0	43	0	1559232512	61	4334
2026-01-28 00:06:49.21	164.84	43.39	-45.1	-46.3	18.8	0.00e+00	0	43	0	1562378240	61	4207
2026-01-28 00:06:50.21	165.11	43.15	-44.9	-46.0	18.9	0.00e+00	0	43	0	1565523968	61	4096
2026-01-28 00:06:51.22	165.39	42.90	-44.7	-45.8	19.2	0.00e+00	0	43	0	1568669696	61	3968
2026-01-28 00:06:52.22	165.66	42.66	-44.1	-45.1	19.8	0.00e+00	0	43	0	1571815424	60	3911
2026-01-28 00:06:53.23	165.92	42.42	-44.1	-45.1	20.1	0.00e+00	0	43	0	1574961152	59	4109
2026-01-28 00:06:54.24	166.19	42.18	-44.1	-45.1	20.1	0.00e+00	0	43	0	1578106880	59	4104
2026-01-28 00:06:55.25	166.44	41.94	-44.0	-45.0	20.2	0.00e+00	0	43	0	1581252608	59	4057
2026-01-28 00:06:56.26	166.70	41.70	-44.4	-45.4	19.5	0.00e+00	0	43	0	1584398336	60	4040
2026-01-28 00:06:57.27	166.95	41.46	-44.7	-45.8	19.2	0.00e+00	0	43	0	1587544064	60	4206
2026-01-28 00:06:58.28	167.20	41.22	-44.7	-45.8	19.2	0.00e+00	0	43	0	1590689792	60	4214
2026-01-28 00:06:59.28	167.44	40.99	-44.6	-45.7	19.3	0.00e+00	0	43	0	1593835520	60	4148
2026-01-28 00:07:00.29	167.68	40.76	-44.3	-45.3	19.5	0.00e+00	0	43	0	1596981248	60	3997
2026-01-28 00:07:01.29	167.92	40.52	-44.0	-45.0	19.7	0.00e+00	0	43	0	1600126976	60	3846
2026-01-28 00:07:02.30	168.15	40.29	-44.1	-45.2	19.5	0.00e+00	0	43	0	1603272704	60	3916
2026-01-28 00:07:03.30	168.38	40.06	-44.6	-45.7	19.1	0.00e+00	0	43	0	1606418432	60	4167
2026-01-28 00:07:04.31	168.61	39.83	-44.9	-46.0	18.9	0.00e+00	0	43	0	1609564160	60	4319
2026-01-28 00:07:05.31	168.83	39.60	-44.7	-45.8	19.0	0.00e+00	0	43	0	1612709888	60	4216
2026-01-28 00:07:06.32	169.05	39.37	-44.6	-45.7	19.2	0.00e+00	0	43	0	1615855616	60	4176
2026-01-28 00:07:07.33	169.27	39.14	-44.6	-45.7	19.2	0.00e+00	0	43	0	1619001344	60	4168
2026-01-28 00:07:08.33	169.49	38.92	-44.6	-45.6	19.3	0.00e+00	0	43	0	1622147072	60	4136
2026-01-28 00:07:09.34	169.70	38.69	-44.7	-45.7	19.2	0.00e+00	0	43	0	1625292800	60	4191
2026-01-28 00:07:10.35	169.91	38.47	-44.7	-45.8	19.1	0.00e+00	0	43	0	1628438528	60	4215
2026-01-28 00:07:11.36	170.12	38.24	-45.0	-46.2	18.8	0.00e+00	0	44	0	1631584256	60	4402
2026-01-28 00:07:12.36	170.32	38.02	-45.2	-46.4	18.6	0.00e+00	0	43	0	1634729984	60	4544
2026-01-28 00:07:13.36	170.52	37.80	-45.2	-46.4	18.5	0.00e+00	0	43	0	1637875712	61	4279
2026-01-28 00:07:14.37	170.72	37.58	-44.8	-46.0	18.9	0.00e+00	0	43	0	1641021440	61	4068
2026-01-28 00:07:15.37	170.91	37.36	-44.5	-45.6	19.3	0.00e+00	0	43	0	1644167168	61	3880
2026-01-28 00:07:16.38	171.11	37.14	-44.4	-45.5	19.4	0.00e+00	0	44	0	1647312896	60	4073
2026-01-28 00:07:17.39	171.30	36.93	-44.3	-45.3	19.9	0.00e+00	0	43	0	1650458624	59	4213
2026-01-28 00:07:18.39	171.49	36.71	-43.6	-44.5	20.6	0.00e+00	0	43	0	1653604352	59	3854
2026-01-28 00:07:19.40	171.67	36.50	-43.5	-44.4	20.7	0.00e+00	0	43	0	1656750080	58	4019
2026-01-28 00:07:20.41	171.86	36.28	-43.6	-44.5	20.6	0.00e+00	0	43	0	1659895808	58	4090
2026-01-28 00:07:21.42	172.04	36.07	-43.8	-44.7	20.4	0.00e+00	0	43	0	1663041536	58	4191
2026-01-28 00:07:22.42	172.22	35.86	-43.9	-44.8	20.3	0.00e+00	0	43	0	1666187264	58	4233
2026-01-28 00:07:23.43	172.39	35.65	-44.0	-45.0	20.1	0.00e+00	0	43	0	1669332992	58	4335
2026-01-28 00:07:24.43	172.57	35.44	-44.2	-45.2	19.9	0.00e+00	0	43	0	1672478720	58	4432
2026-01-28 00:07:25.44	172.74	35.23	-44.2	-45.3	19.9	0.00e+00	0	43	0	1675624448	59	4208
2026-01-28 00:07:26.44	172.91	35.03	-44.3	-45.4	19.8	0.00e+00	0	43	0	1678770176	59	4261
2026-01-28 00:07:27.45	173.08	34.82	-44.4	-45.5	19.7	0.00e+00	0	43	0	1681915904	59	4312
2026-01-28 00:07:28.46	173.24	34.61	-44.5	-45.6	19.5	0.00e+00	0	43	0	1685061632	59	4382
2026-01-28 00:07:29.46	173.41	34.41	-44.4	-45.5	19.6	0.00e+00	0	43	0	1688207360	59	4325
2026-01-28 00:07:30.47	173.57	34.21	-44.4	-45.5	19.7	0.00e+00	0	43	0	1691353088	59	4292
2026-01-28 00:07:31.47	173.73	34.01	-44.0	-45.0	20.1	0.00e+00	0	43	0	1694498816	59	4075
2026-01-28 00:07:32.48	173.89	33.81	-43.8	-44.8	20.3	0.00e+00	0	43	0	1697644544	59	3983
2026-01-28 00:07:33.48	174.04	33.61	-43.9	-44.9	20.1	0.00e+00	0	43	0	1700790272	59	4037
2026-01-28 00:07:34.49	174.20	33.41	-43.6	-44.6	20.4	0.00e+00	0	43	0	1703936000	59	3882
2026-01-28 00:07:35.50	174.35	33.21	-43.2	-44.1	20.9	0.00e+00	0	43	0	1707081728	58	3910
2026-01-28 00:07:36.51	174.50	33.01	-42.9	-43.8	21.2	0.00e+00	0	43	0	1710227456	57	3975
2026-01-28 00:07:37.51	174.65	32.82	-42.8	-43.7	21.2	0.00e+00	0	43	0	1713373184	57	3939
2026-01-28 00:07:38.52	174.80	32.63	-42.7	-43.6	21.3	0.00e+00	0	43	0	1716518912	57	3882
2026-01-28 00:07:39.53	174.95	32.43	-42.7	-43.6	21.4	0.00e+00	0	43	0	1719664640	57	3870
2026-01-28 00:07:40.53	175.09	32.24	-42.8	-43.6	21.3	0.00e+00	0	43	0	1722810368	57	3906
2026-01-28 00:07:41.54	175.23	32.05	-42.6	-43.4	21.5	0.00e+00	0	43	0	1725956096	57	3816
2026-01-28 00:07:42.55	175.37	31.86	-42.6	-43.4	21.5	0.00e+00	0	43	0	1729101824	57	3807
2026-01-28 00:07:43.56	175.51	31.67	-42.7	-43.6	21.3	0.00e+00	0	43	0	1732247552	57	3893
2026-01-28 00:07:44.57	175.65	31.48	-42.6	-43.4	21.5	0.00e+00	0	43	0	1735393280	57	3810
2026-01-28 00:07:45.56	175.79	31.30	-42.6	-43.4	21.4	0.00e+00	0	43	0	1738539008	56	4043
2026-01-28 00:07:46.57	175.92	31.11	-42.7	-43.6	21.2	0.00e+00	0	43	0	1741684736	56	4132
2026-01-28 00:07:47.58	176.05	30.92	-42.8	-43.7	21.1	0.00e+00	0	43	0	1744830464	56	4170
2026-01-28 00:07:48.59	176.19	30.74	-43.0	-43.9	20.9	0.00e+00	0	43	0	1747976192	56	4261
2026-01-28 00:07:49.59	176.32	30.56	-42.9	-43.8	21.0	0.00e+00	0	43	0	1751121920	56	4234
2026-01-28 00:07:50.60	176.45	30.38	-43.0	-43.9	20.9	0.00e+00	0	43	0	1754267648	56	4273
2026-01-28 00:07:51.61	176.57	30.19	-43.0	-43.9	20.9	0.00e+00	0	43	0	1757413376	56	4264
2026-01-28 00:07:52.62	176.70	30.01	-43.1	-44.0	20.9	0.00e+00	0	43	0	1760559104	56	4323
2026-01-28 00:07:53.62	176.82	29.84	-42.7	-43.6	21.2	0.00e+00	0	43	0	1763704832	56	4118
2026-01-28 00:07:54.63	176.95	29.66	-42.5	-43.4	21.4	0.00e+00	0	43	0	1766850560	56	4015
2026-01-28 00:07:55.64	177.07	29.48	-42.5	-43.3	21.4	0.00e+00	0	43	0	1769996288	56	3987
2026-01-28 00:07:56.64	177.19	29.30	-42.2	-43.1	21.6	0.00e+00	0	43	0	1773142016	56	3878
2026-01-28 00:07:57.65	177.31	29.13	-42.2	-43.1	21.6	0.00e+00	0	43	0	1776287744	56	3872
2026-01-28 00:07:58.65	177.43	28.96	-42.2	-43.0	21.7	0.00e+00	0	43	0	1779433472	56	3841
2026-01-28 00:07:59.66	177.55	28.78	-42.3	-43.1	21.6	0.00e+00	0	43	0	1782579200	56	3895
2026-01-28 00:08:00.66	177.66	28.61	-42.3	-43.1	21.6	0.00e+00	0	43	0	1785724928	56	3905
2026-01-28 00:08:01.67	177.78	28.44	-42.4	-43.2	21.5	0.00e+00	0	43	0	1788870656	56	3950
2026-01-28 00:08:02.68	177.89	28.27	-42.5	-43.4	21.3	0.00e+00	0	43	0	1792016384	56	4033
2026-01-28 00:08:03.69	178.00	28.10	-42.6	-43.4	21.4	0.00e+00	0	43	0	1795162112	56	4036
2026-01-28 00:08:04.69	178.11	27.93	-42.5	-43.3	21.4	0.00e+00	0	43	0	1798307840	56	3999
2026-01-28 00:08:05.70	178.23	27.76	-42.5	-43.3	21.4	0.00e+00	0	43	0	1801453568	56	3988
2026-01-28 00:08:06.71	178.33	27.60	-42.3	-43.1	21.6	0.00e+00	0	43	0	1804599296	56	3900
2026-01-28 00:08:07.72	178.44	27.43	-42.2	-43.0	21.7	0.00e+00	0	43	0	1807745024	56	3840
2026-01-28 00:08:08.73	178.55	27.26	-42.2	-43.1	21.7	0.00e+00	0	43	0	1810890752	56	3872
2026-01-28 00:08:09.74	178.66	27.10	-42.1	-42.9	21.8	0.00e+00	0	43	0	1814036480	56	3797
2026-01-28 00:08:10.75	178.76	26.94	-42.1	-43.0	21.8	0.00e+00	0	44	0	1817182208	56	3828
2026-01-28 00:08:11.76	178.87	26.77	-42.2	-43.0	21.7	0.00e+00	0	43	0	1820327936	56	3840
2026-01-28 00:08:12.77	178.97	26.61	-42.3	-43.2	21.6	0.00e+00	0	43	0	1823473664	56	3925
2026-01-28 00:08:13.77	179.07	26.45	-42.3	-43.2	21.5	0.00e+00	0	43	0	1826619392	56	3936
2026-01-28 00:08:14.77	179.17	26.29	-42.4	-43.3	21.4	0.00e+00	0	43	0	1829765120	56	3983
2026-01-28 00:08:15.78	179.27	26.13	-42.5	-43.4	21.4	0.00e+00	0	43	0	1832910848	56	4012
2026-01-28 00:08:16.78	179.37	25.98	-42.5	-43.4	21.3	0.00e+00	0	43	0	1836056576	56	4028
2026-01-28 00:08:17.79	179.47	25.82	-42.5	-43.4	21.4	0.00e+00	0	43	0	1839202304	56	4015
2026-01-28 00:08:18.80	179.57	25.66	-42.5	-43.4	21.3	0.00e+00	0	43	0	1842348032	56	4026
2026-01-28 00:08:19.81	179.66	25.51	-42.5	-43.4	21.3	0.00e+00	0	43	0	1845493760	56	4027
2026-01-28 00:08:20.81	179.76	25.35	-42.6	-43.4	21.2	0.00e+00	0	43	0	1848639488	56	4045
2026-01-28 00:08:21.82	179.85	25.20	-42.4	-43.2	21.4	0.00e+00	0	43	0	1851785216	56	3947
2026-01-28 00:08:22.83	179.95	25.04	-42.4	-43.3	21.3	0.00e+00	0	43	0	1854930944	56	3985
2026-01-28 00:08:23.83	180.04	24.89	-42.5	-43.4	21.3	0.00e+00	0	43	0	1858076672	56	4006
2026-01-28 00:08:24.84	180.13	24.74	-42.6	-43.4	21.2	0.00e+00	0	43	0	1861222400	56	4045
2026-01-28 00:08:25.84	180.22	24.59	-42.4	-43.3	21.3	0.00e+00	0	43	0	1864368128	56	3978
2026-01-28 00:08:26.85	180.31	24.44	-42.4	-43.3	21.3	0.00e+00	0	43	0	1867513856	56	3962
2026-01-28 00:08:27.85	180.40	24.29	-42.5	-43.4	21.2	0.00e+00	0	43	0	1870659584	56	4023
2026-01-28 00:08:28.86	180.49	24.14	-42.2	-43.1	21.5	0.00e+00	0	43	0	1873805312	56	3880
2026-01-28 00:08:29.87	180.58	24.00	-42.1	-42.9	21.6	0.00e+00	0	43	0	1876951040	56	3813
2026-01-28 00:08:30.87	180.66	23.85	-42.0	-42.9	21.6	0.00e+00	0	43	0	1880096768	56	3796
2026-01-28 00:08:31.88	180.75	23.70	-42.1	-43.0	21.5	0.00e+00	0	43	0	1883242496	56	3827
2026-01-28 00:08:32.88	180.83	23.56	-42.0	-42.9	21.6	0.00e+00	0	43	0	1886388224	56	3791
2026-01-28 00:08:33.89	180.92	23.42	-41.9	-42.7	21.6	0.00e+00	0	43	0	1889533952	55	3958
2026-01-28 00:08:34.89	181.00	23.27	-42.0	-42.8	21.6	0.00e+00	0	43	0	1892679680	55	3983
2026-01-28 00:08:35.89	181.09	23.13	-41.9	-42.8	21.6	0.00e+00	0	43	0	1895825408	55	3969
2026-01-28 00:08:36.90	181.17	22.99	-42.0	-42.8	21.6	0.00e+00	0	43	0	1898971136	55	3999
2026-01-28 00:08:37.91	181.25	22.85	-42.0	-42.8	21.5	0.00e+00	0	43	0	1902116864	55	4004
2026-01-28 00:08:38.92	181.33	22.70	-41.9	-42.8	21.6	0.00e+00	0	43	0	1905262592	55	3962
2026-01-28 00:08:39.93	181.41	22.56	-42.0	-42.9	21.6	0.00e+00	0	43	0	1908408320	55	4006
2026-01-28 00:08:40.93	181.49	22.43	-42.0	-42.8	21.6	0.00e+00	0	43	0	1911554048	55	3988
2026-01-28 00:08:41.94	181.57	22.29	-42.1	-42.9	21.5	0.00e+00	0	43	0	1914699776	55	4031
2026-01-28 00:08:42.95	181.65	22.15	-42.2	-43.0	21.5	0.00e+00	0	43	0	1917845504	55	4074
2026-01-28 00:08:43.96	181.73	22.01	-42.2	-43.0	21.4	0.00e+00	0	43	0	1920991232	55	4086
2026-01-28 00:08:44.97	181.81	21.87	-42.2	-43.1	21.4	0.00e+00	0	43	0	1924136960	55	4123
2026-01-28 00:08:45.97	181.88	21.74	-42.3	-43.2	21.3	0.00e+00	0	43	0	1927282688	55	4183
2026-01-28 00:08:46.98	181.96	21.60	-42.5	-43.4	21.1	0.00e+00	0	43	0	1930428416	55	4250
2026-01-28 00:08:47.99	182.03	21.47	-42.6	-43.5	21.0	0.00e+00	0	43	0	1933574144	55	4311
2026-01-28 00:08:49.00	182.11	21.33	-42.6	-43.6	21.0	0.00e+00	0	43	0	1936719872	55	4342
2026-01-28 00:08:50.01	182.18	21.20	-42.9	-43.8	20.8	0.00e+00	0	43	0	1939865600	56	4211
2026-01-28 00:08:51.02	182.26	21.07	-42.7	-43.6	21.0	0.00e+00	0	43	0	1943011328	56	4116
2026-01-28 00:08:52.02	182.33	20.93	-42.8	-43.7	21.0	0.00e+00	0	43	0	1946157056	56	4161
2026-01-28 00:08:53.03	182.40	20.80	-42.7	-43.6	21.0	0.00e+00	0	43	0	1949302784	56	4132
2026-01-28 00:08:54.04	182.47	20.67	-42.6	-43.5	21.0	0.00e+00	0	43	0	1952448512	56	4096
2026-01-28 00:08:55.05	182.54	20.54	-42.7	-43.6	21.0	0.00e+00	0	43	0	1955594240	56	4114
2026-01-28 00:08:56.06	182.61	20.41	-42.6	-43.5	21.1	0.00e+00	0	43	0	1958739968	56	4074
2026-01-28 00:08:57.07	182.69	20.28	-42.4	-43.3	21.2	0.00e+00	0	43	0	1961885696	56	3982
2026-01-28 00:08:58.08	182.75	20.15	-42.3	-43.2	21.3	0.00e+00	0	43	0	1965031424	56	3946
2026-01-28 00:08:59.08	182.82	20.03	-42.5	-43.4	21.1	0.00e+00	0	43	0	1968177152	56	4018
2026-01-28 00:09:00.09	182.89	19.90	-42.3	-43.2	21.3	0.00e+00	0	43	0	1971322880	56	3938
2026-01-28 00:09:01.09	182.96	19.77	-42.4	-43.2	21.3	0.00e+00	0	43	0	1974468608	56	3952
2026-01-28 00:09:02.10	183.03	19.65	-42.4	-43.3	21.2	0.00e+00	0	43	0	1977614336	56	3981
2026-01-28 00:09:03.11	183.09	19.52	-42.3	-43.2	21.3	0.00e+00	0	43	0	1980760064	56	3931
2026-01-28 00:09:04.11	183.16	19.40	-42.4	-43.3	21.2	0.00e+00	0	43	0	1983905792	56	3984
2026-01-28 00:09:05.12	183.23	19.28	-42.4	-43.3	21.1	0.00e+00	0	43	0	1987051520	56	3981
2026-01-28 00:09:06.13	183.29	19.15	-42.5	-43.4	21.1	0.00e+00	0	43	0	1990197248	56	4036
2026-01-28 00:09:07.13	183.36	19.03	-42.5	-43.4	21.1	0.00e+00	0	43	0	1993342976	56	4018
2026-01-28 00:09:08.14	183.42	18.91	-42.6	-43.5	21.0	0.00e+00	0	43	0	1996488704	56	4059
2026-01-28 00:09:09.15	183.48	18.78	-42.6	-43.6	21.0	0.00e+00	0	44	0	1999634432	56	4104
2026-01-28 00:09:10.15	183.55	18.66	-42.6	-43.5	20.9	0.00e+00	0	43	0	2002780160	56	4097
2026-01-28 00:09:11.16	183.61	18.54	-42.7	-43.7	20.9	0.00e+00	0	43	0	2005925888	56	4157
2026-01-28 00:09:12.17	183.67	18.42	-42.7	-43.6	20.9	0.00e+00	0	43	0	2009071616	56	4138
2026-01-28 00:09:13.18	183.74	18.30	-42.8	-43.7	20.8	0.00e+00	0	43	0	2012217344	56	4174
2026-01-28 00:09:14.18	183.80	18.19	-42.9	-43.8	20.7	0.00e+00	0	43	0	2015363072	56	4241
2026-01-28 00:09:15.19	183.86	18.07	-42.9	-43.8	20.7	0.00e+00	0	43	0	2018508800	56	4230
2026-01-28 00:09:16.19	183.92	17.95	-42.8	-43.8	20.8	0.00e+00	0	43	0	2021654528	56	4197
2026-01-28 00:09:17.20	183.98	17.83	-42.9	-43.9	20.7	0.00e+00	0	43	0	2024800256	56	4255
2026-01-28 00:09:18.21	184.04	17.72	-43.0	-43.9	20.6	0.00e+00	0	43	0	2027945984	56	4275
2026-01-28 00:09:19.22	184.10	17.60	-42.9	-43.9	20.7	0.00e+00	0	43	0	2031091712	56	4246
2026-01-28 00:09:20.23	184.16	17.48	-42.9	-43.8	20.7	0.00e+00	0	43	0	2034237440	56	4219
2026-01-28 00:09:21.23	184.21	17.37	-42.9	-43.8	20.7	0.00e+00	0	43	0	2037383168	56	4219
2026-01-28 00:09:22.24	184.27	17.25	-42.9	-43.8	20.6	0.00e+00	0	43	0	2040528896	56	4237
2026-01-28 00:09:23.25	184.33	17.14	-42.8	-43.8	20.7	0.00e+00	0	43	0	2043674624	56	4212
2026-01-28 00:09:24.24	184.39	17.03	-42.8	-43.7	20.7	0.00e+00	0	43	0	2046820352	56	4186
2026-01-28 00:09:25.25	184.44	16.91	-42.8	-43.7	20.7	0.00e+00	0	44	0	2049966080	56	4169
2026-01-28 00:09:26.25	184.50	16.80	-42.8	-43.7	20.7	0.00e+00	0	43	0	2053111808	56	4191
2026-01-28 00:09:27.26	184.56	16.69	-42.7	-43.7	20.7	0.00e+00	0	43	0	2056257536	56	4153
2026-01-28 00:09:28.27	184.61	16.58	-42.7	-43.7	20.8	0.00e+00	0	43	0	2059403264	56	4149
2026-01-28 00:09:29.27	184.67	16.47	-42.8	-43.8	20.7	0.00e+00	0	43	0	2062548992	56	4204
2026-01-28 00:09:30.29	184.72	16.35	-42.9	-43.8	20.6	0.00e+00	0	43	0	2065694720	56	4209
2026-01-28 00:09:31.30	184.78	16.24	-43.0	-44.0	20.5	0.00e+00	0	43	0	2068840448	56	4318
2026-01-28 00:09:32.30	184.83	16.13	-43.2	-44.1	20.3	0.00e+00	0	43	0	2071986176	56	4387
2026-01-28 00:09:33.31	184.89	16.03	-43.1	-44.1	20.3	0.00e+00	0	43	0	2075131904	56	4364
