passes_logs/2026/01/27/R3.2S_Murmansk/R3.2S_Murmansk__20260127_092413_NOAA_20_JPSS-1_rec.log

#Pass ID: 20260127_092413_NOAA 20 (JPSS-1)
#Satellite: NOAA 20 (JPSS-1)
#Configuration: NOAA 20
#almurnet v.1.7.20251203
#Start time: 2026-01-27 09:24:13

#Version: 2.2.20231116
#Station: R3.2S_Murmansk
#Location: 33.079688 lon 68.888172 lat
#TLE: 1 43013U 17073A   26026.46665230  .00000148  00000+0  91302-4 0  9998
#TLE: 2 43013  98.7646 327.2856 0001008  22.9532 337.1688 14.19540616424360

#Time	Az	El	Level	Level2	SNR	BER	BlckErr	Temp	State	Recorded	gain1	gain2
2026-01-27 09:24:13.19	148.70	1.99	-54.1	-69.1	3.8	1.49e+00	0	40	0	0	79	20662
2026-01-27 09:24:14.20	148.70	2.05	-54.3	-69.3	3.8	1.49e+00	0	41	104	0	79	21213
2026-01-27 09:24:15.21	148.70	2.12	-54.3	-69.3	3.8	1.49e+00	0	41	104	0	79	21071
2026-01-27 09:24:16.22	148.70	2.18	-54.3	-69.3	3.8	1.49e+00	0	41	104	0	79	21081
2026-01-27 09:24:17.23	148.70	2.25	-54.3	-69.3	3.8	1.49e+00	0	41	104	0	79	21030
2026-01-27 09:24:18.24	148.70	2.31	-54.2	-69.2	3.8	1.49e+00	0	41	104	0	79	20886
2026-01-27 09:24:19.25	148.70	2.38	-54.2	-69.2	3.8	1.49e+00	0	41	104	0	79	20797
2026-01-27 09:24:20.25	148.70	2.44	-54.2	-69.2	3.8	1.49e+00	0	41	104	0	79	20778
2026-01-27 09:24:21.26	148.70	2.51	-54.1	-69.1	3.8	1.49e+00	0	41	104	0	79	20648
2026-01-27 09:24:22.27	148.70	2.57	-54.1	-69.1	3.8	1.49e+00	0	41	104	0	79	20583
2026-01-27 09:24:23.27	148.70	2.64	-54.0	-69.0	3.8	1.49e+00	0	41	104	0	79	20436
2026-01-27 09:24:24.28	148.70	2.71	-54.0	-69.0	3.8	1.49e+00	0	41	104	0	79	20317
2026-01-27 09:24:25.29	148.70	2.77	-53.9	-68.9	3.8	1.49e+00	0	41	104	0	79	20183
2026-01-27 09:24:26.29	148.70	2.84	-53.9	-68.8	3.8	1.49e+00	0	41	104	0	79	20068
2026-01-27 09:24:27.30	148.70	2.91	-53.8	-68.7	3.8	1.49e+00	0	41	104	0	79	19789
2026-01-27 09:24:28.31	148.70	2.97	-53.7	-68.7	3.8	1.49e+00	0	41	104	0	79	19615
2026-01-27 09:24:29.32	148.70	3.04	-53.5	-68.5	3.8	1.49e+00	0	41	104	0	79	19275
2026-01-27 09:24:30.33	148.70	3.11	-53.4	-68.3	3.8	1.49e+00	0	41	104	0	78	20009
2026-01-27 09:24:31.33	148.69	3.17	-53.2	-68.2	3.8	1.49e+00	0	41	104	0	78	19675
2026-01-27 09:24:32.34	148.69	3.24	-53.1	-68.0	3.8	1.49e+00	0	41	104	0	78	19339
2026-01-27 09:24:33.35	148.69	3.31	-52.8	-67.8	3.8	1.49e+00	0	41	104	0	77	19878
2026-01-27 09:24:34.36	148.69	3.38	-52.4	-67.3	3.8	1.49e+00	0	41	104	0	76	20035
2026-01-27 09:24:35.37	148.69	3.45	-52.2	-66.9	3.8	1.49e+00	0	41	104	0	76	19013
2026-01-27 09:24:36.37	148.69	3.51	-52.2	-66.9	3.8	1.49e+00	0	41	104	0	76	18967
2026-01-27 09:24:37.38	148.69	3.58	-52.2	-66.7	3.8	1.49e+00	0	41	104	0	76	18666
2026-01-27 09:24:38.39	148.69	3.65	-52.2	-66.8	3.8	1.49e+00	0	41	104	0	76	18851
2026-01-27 09:24:39.40	148.69	3.72	-52.2	-66.9	3.8	1.49e+00	0	41	104	0	76	19116
2026-01-27 09:24:40.41	148.69	3.79	-52.2	-67.0	3.8	1.49e+00	0	41	104	0	76	19349
2026-01-27 09:24:41.42	148.69	3.86	-52.2	-67.1	3.8	1.49e+00	0	41	104	0	76	19506
2026-01-27 09:24:42.42	148.69	3.93	-52.2	-66.8	3.8	1.49e+00	0	41	104	0	76	18899
2026-01-27 09:24:43.43	148.69	4.00	-52.1	-65.9	3.8	1.49e+00	0	41	104	0	76	16957
2026-01-27 09:24:44.43	148.68	4.07	-52.1	-64.4	4.0	1.48e+00	0	41	104	0	76	14272
2026-01-27 09:24:45.44	148.68	4.14	-51.8	-61.8	4.8	1.21e+00	0	41	0	0	75	11265
2026-01-27 09:24:46.45	148.68	4.21	-51.6	-59.9	6.1	5.45e-01	0	41	0	2097152	75	8985
2026-01-27 09:24:47.45	148.68	4.28	-51.3	-58.4	7.4	2.22e-01	0	41	0	4194304	74	7993
2026-01-27 09:24:48.46	148.68	4.35	-50.8	-56.7	9.2	3.12e-02	0	42	0	5242880	73	6969
2026-01-27 09:24:49.47	148.68	4.42	-50.4	-55.2	10.6	8.29e-03	0	41	0	7340032	72	6272
2026-01-27 09:24:50.47	148.68	4.49	-50.0	-54.2	11.9	1.87e-03	0	41	0	9437184	71	5865
2026-01-27 09:24:51.48	148.68	4.56	-49.7	-53.6	12.5	1.78e-04	0	41	0	11534336	71	5497
2026-01-27 09:24:52.49	148.68	4.63	-49.3	-52.8	13.3	3.58e-05	0	41	0	12582912	70	5300
2026-01-27 09:24:53.50	148.67	4.70	-49.0	-52.2	13.9	8.30e-06	0	42	0	14680064	70	4966
2026-01-27 09:24:54.50	148.67	4.77	-48.8	-51.8	14.3	1.50e-06	0	41	0	16777216	69	5014
2026-01-27 09:24:55.51	148.67	4.84	-48.7	-51.6	14.5	7.00e-07	0	42	0	18874368	69	4892
2026-01-27 09:24:56.52	148.67	4.92	-48.5	-51.3	14.9	0.00e+00	0	42	0	20971520	69	4712
2026-01-27 09:24:57.52	148.67	4.99	-48.6	-51.4	14.8	7.00e-07	0	41	0	23068672	69	4780
2026-01-27 09:24:58.53	148.67	5.06	-49.2	-52.5	13.9	0.00e+00	0	42	0	24117248	68	5725
2026-01-27 09:24:59.54	148.67	5.13	-50.1	-54.1	12.2	2.32e-03	0	42	0	26214400	71	5831
2026-01-27 09:25:00.55	148.67	5.21	-48.8	-51.8	14.6	1.95e-03	0	42	0	28311552	69	4994
2026-01-27 09:25:01.56	148.66	5.28	-50.1	-54.6	11.1	1.41e-01	0	42	0	30408704	72	5802
2026-01-27 09:25:02.56	148.66	5.35	-48.6	-51.4	14.8	4.68e-04	0	42	0	32505856	69	4789
2026-01-27 09:25:03.57	148.66	5.42	-48.9	-51.9	14.2	2.05e-05	0	42	0	33554432	69	5078
2026-01-27 09:25:04.58	148.66	5.50	-48.6	-51.4	14.8	0.00e+00	0	42	0	35651584	69	4776
2026-01-27 09:25:05.59	148.66	5.57	-48.6	-51.4	14.9	0.00e+00	0	42	0	37748736	69	4770
2026-01-27 09:25:06.59	148.66	5.65	-48.5	-51.3	15.0	0.00e+00	0	42	0	39845888	68	4995
2026-01-27 09:25:07.60	148.66	5.72	-48.5	-51.2	15.1	0.00e+00	0	42	0	41943040	68	4964
2026-01-27 09:25:08.61	148.66	5.79	-48.5	-51.2	15.1	0.00e+00	0	42	0	42991616	68	4944
2026-01-27 09:25:09.62	148.65	5.87	-48.6	-51.3	15.1	0.00e+00	0	42	0	45088768	68	5001
2026-01-27 09:25:10.63	148.65	5.94	-48.4	-51.0	15.3	0.00e+00	0	42	0	47185920	68	4853
2026-01-27 09:25:11.63	148.65	6.02	-48.4	-51.0	15.4	0.00e+00	0	42	0	49283072	68	4839
2026-01-27 09:25:12.64	148.65	6.09	-48.5	-51.1	15.2	0.00e+00	0	42	0	51380224	68	4924
2026-01-27 09:25:13.65	148.65	6.17	-48.5	-51.1	15.3	0.00e+00	0	42	0	52428800	68	4926
2026-01-27 09:25:14.65	148.65	6.24	-48.4	-51.0	15.4	0.00e+00	0	42	0	54525952	68	4862
2026-01-27 09:25:15.66	148.64	6.32	-48.4	-50.9	15.5	0.00e+00	0	42	0	56623104	68	4803
2026-01-27 09:25:16.66	148.64	6.40	-48.4	-50.9	15.6	0.00e+00	0	42	0	58720256	68	4777
2026-01-27 09:25:17.67	148.64	6.47	-48.4	-50.9	15.5	0.00e+00	0	42	0	60817408	68	4806
2026-01-27 09:25:18.67	148.64	6.55	-48.4	-50.9	15.6	0.00e+00	0	42	0	61865984	68	4768
2026-01-27 09:25:19.68	148.64	6.62	-48.2	-50.7	15.7	0.00e+00	0	42	0	63963136	68	4684
2026-01-27 09:25:20.68	148.64	6.70	-48.4	-50.9	15.5	0.00e+00	0	42	0	66060288	68	4801
2026-01-27 09:25:21.69	148.63	6.78	-48.4	-50.9	15.6	0.00e+00	0	42	0	68157440	68	4777
2026-01-27 09:25:22.70	148.63	6.86	-48.2	-50.6	15.9	0.00e+00	0	42	0	70254592	68	4632
2026-01-27 09:25:23.70	148.63	6.93	-48.2	-50.7	15.8	0.00e+00	0	42	0	71303168	68	4656
2026-01-27 09:25:24.71	148.63	7.01	-48.4	-50.9	15.7	0.00e+00	0	42	0	73400320	68	4764
2026-01-27 09:25:25.71	148.63	7.09	-48.2	-50.6	15.9	0.00e+00	0	42	0	75497472	68	4610
2026-01-27 09:25:26.72	148.62	7.17	-48.1	-50.5	16.1	0.00e+00	0	42	0	77594624	68	4550
2026-01-27 09:25:27.73	148.62	7.25	-48.2	-50.6	16.0	0.00e+00	0	42	0	79691776	68	4612
2026-01-27 09:25:28.73	148.62	7.32	-48.2	-50.6	16.0	0.00e+00	0	42	0	80740352	68	4611
2026-01-27 09:25:29.74	148.62	7.40	-48.1	-50.5	16.1	0.00e+00	0	42	0	82837504	68	4547
2026-01-27 09:25:30.75	148.62	7.48	-48.2	-50.6	15.9	0.00e+00	0	42	0	84934656	68	4644
2026-01-27 09:25:31.76	148.61	7.56	-48.2	-50.5	16.1	0.00e+00	0	42	0	87031808	68	4576
2026-01-27 09:25:32.76	148.61	7.64	-48.3	-50.7	15.9	0.00e+00	0	42	0	89128960	68	4669
2026-01-27 09:25:33.76	148.61	7.72	-48.3	-50.7	15.9	0.00e+00	0	42	0	90177536	68	4661
2026-01-27 09:25:34.77	148.61	7.80	-48.1	-50.4	16.2	0.00e+00	0	42	0	92274688	68	4520
2026-01-27 09:25:35.78	148.61	7.88	-48.1	-50.4	16.2	0.00e+00	0	42	0	94371840	68	4528
2026-01-27 09:25:36.79	148.60	7.96	-48.1	-50.5	16.2	0.00e+00	0	42	0	96468992	68	4546
2026-01-27 09:25:37.79	148.60	8.04	-48.1	-50.3	16.3	0.00e+00	0	42	0	97517568	68	4488
2026-01-27 09:25:38.80	148.60	8.13	-48.0	-50.3	16.4	0.00e+00	0	42	0	99614720	68	4465
2026-01-27 09:25:39.81	148.60	8.21	-48.0	-50.2	16.4	0.00e+00	0	42	0	101711872	68	4423
2026-01-27 09:25:40.82	148.59	8.29	-47.9	-50.1	16.5	0.00e+00	0	42	0	103809024	67	4615
2026-01-27 09:25:41.83	148.59	8.37	-48.0	-50.2	16.4	0.00e+00	0	42	0	105906176	67	4680
2026-01-27 09:25:42.83	148.59	8.45	-48.0	-50.3	16.4	0.00e+00	0	42	0	108003328	67	4707
2026-01-27 09:25:43.84	148.59	8.54	-47.8	-50.0	16.6	0.00e+00	0	42	0	109051904	67	4568
2026-01-27 09:25:44.84	148.58	8.62	-47.9	-50.0	16.6	0.00e+00	0	42	0	111149056	67	4595
2026-01-27 09:25:45.84	148.58	8.70	-47.9	-50.1	16.6	0.00e+00	0	42	0	113246208	67	4616
2026-01-27 09:25:46.85	148.58	8.79	-47.8	-50.0	16.7	0.00e+00	0	42	0	115343360	67	4553
2026-01-27 09:25:47.86	148.58	8.87	-47.7	-49.8	16.8	0.00e+00	0	42	0	117440512	67	4481
2026-01-27 09:25:48.87	148.57	8.95	-47.7	-49.8	16.8	0.00e+00	0	42	0	118489088	67	4493
2026-01-27 09:25:49.88	148.57	9.04	-47.7	-49.8	16.8	0.00e+00	0	42	0	120586240	67	4477
2026-01-27 09:25:50.88	148.57	9.12	-47.6	-49.7	17.0	0.00e+00	0	42	0	122683392	67	4404
2026-01-27 09:25:51.89	148.57	9.21	-47.7	-49.8	16.9	0.00e+00	0	42	0	124780544	67	4445
2026-01-27 09:25:52.90	148.56	9.29	-47.6	-49.7	17.0	0.00e+00	0	42	0	126877696	67	4401
2026-01-27 09:25:53.90	148.56	9.38	-47.6	-49.7	17.0	0.00e+00	0	42	0	127926272	67	4420
2026-01-27 09:25:54.91	148.56	9.46	-47.7	-49.8	16.9	0.00e+00	0	42	0	130023424	67	4443
2026-01-27 09:25:55.91	148.55	9.55	-47.6	-49.7	17.0	0.00e+00	0	42	0	132120576	67	4401
2026-01-27 09:25:56.92	148.55	9.64	-47.6	-49.6	17.1	0.00e+00	0	42	0	134217728	67	4385
2026-01-27 09:25:57.93	148.55	9.72	-47.6	-49.7	17.0	0.00e+00	0	42	0	136314880	67	4397
2026-01-27 09:25:58.94	148.55	9.81	-47.6	-49.6	17.1	0.00e+00	0	42	0	137363456	67	4374
2026-01-27 09:25:59.94	148.54	9.90	-47.6	-49.6	17.1	0.00e+00	0	42	0	139460608	67	4387
2026-01-27 09:26:00.95	148.54	9.98	-47.6	-49.6	17.1	0.00e+00	0	42	0	141557760	67	4381
2026-01-27 09:26:01.95	148.54	10.07	-47.6	-49.6	17.1	0.00e+00	0	42	0	143654912	67	4375
2026-01-27 09:26:02.96	148.53	10.16	-47.5	-49.4	17.3	0.00e+00	0	42	0	145752064	66	4529
2026-01-27 09:26:03.97	148.53	10.25	-47.4	-49.4	17.3	0.00e+00	0	42	0	146800640	66	4506
2026-01-27 09:26:04.97	148.53	10.34	-47.5	-49.4	17.3	0.00e+00	0	42	0	148897792	66	4542
2026-01-27 09:26:05.98	148.52	10.43	-47.5	-49.5	17.2	0.00e+00	0	42	0	150994944	66	4574
2026-01-27 09:26:06.99	148.52	10.52	-47.4	-49.4	17.4	0.00e+00	0	42	0	153092096	66	4512
2026-01-27 09:26:07.99	148.52	10.61	-47.5	-49.5	17.3	0.00e+00	0	42	0	154140672	66	4566
2026-01-27 09:26:09.00	148.51	10.70	-47.6	-49.6	17.2	0.00e+00	0	42	0	156237824	66	4607
2026-01-27 09:26:10.01	148.51	10.79	-47.5	-49.5	17.2	0.00e+00	0	42	0	158334976	66	4582
2026-01-27 09:26:11.01	148.51	10.88	-47.6	-49.6	17.1	0.00e+00	0	42	0	160432128	66	4642
2026-01-27 09:26:12.02	148.50	10.97	-47.4	-49.4	17.4	0.00e+00	0	42	0	162529280	66	4520
2026-01-27 09:26:13.03	148.50	11.06	-47.4	-49.3	17.5	0.00e+00	0	42	0	164626432	66	4470
2026-01-27 09:26:14.03	148.50	11.15	-47.4	-49.4	17.4	0.00e+00	0	42	0	165675008	66	4513
2026-01-27 09:26:15.04	148.49	11.24	-47.4	-49.3	17.5	0.00e+00	0	42	0	167772160	66	4476
2026-01-27 09:26:16.05	148.49	11.34	-47.4	-49.3	17.5	0.00e+00	0	42	0	169869312	66	4470
2026-01-27 09:26:17.05	148.48	11.43	-47.3	-49.1	17.6	0.00e+00	0	42	0	171966464	66	4387
2026-01-27 09:26:18.06	148.48	11.52	-47.3	-49.1	17.7	0.00e+00	0	42	0	174063616	66	4382
2026-01-27 09:26:19.07	148.48	11.62	-47.3	-49.2	17.6	0.00e+00	0	42	0	175112192	66	4415
2026-01-27 09:26:20.07	148.47	11.71	-47.1	-49.0	17.8	0.00e+00	0	42	0	177209344	66	4306
2026-01-27 09:26:21.08	148.47	11.80	-47.1	-48.9	17.9	0.00e+00	0	42	0	179306496	66	4277
2026-01-27 09:26:22.09	148.46	11.90	-47.1	-49.0	17.8	0.00e+00	0	42	0	181403648	66	4298
2026-01-27 09:26:23.10	148.46	11.99	-47.2	-49.0	17.8	0.00e+00	0	42	0	183500800	66	4313
2026-01-27 09:26:24.11	148.46	12.09	-47.1	-48.9	18.0	0.00e+00	0	42	0	184549376	66	4243
2026-01-27 09:26:25.11	148.45	12.18	-47.1	-48.9	17.9	0.00e+00	0	42	0	186646528	66	4266
2026-01-27 09:26:26.12	148.45	12.28	-47.1	-48.9	17.9	0.00e+00	0	42	0	188743680	66	4282
2026-01-27 09:26:27.13	148.44	12.38	-47.1	-48.8	18.0	0.00e+00	0	42	0	190840832	66	4240
2026-01-27 09:26:28.13	148.44	12.47	-47.1	-48.9	18.0	0.00e+00	0	42	0	192937984	66	4249
2026-01-27 09:26:29.14	148.44	12.57	-47.0	-48.8	18.0	0.00e+00	0	42	0	193986560	66	4235
2026-01-27 09:26:30.15	148.43	12.67	-47.1	-48.9	17.9	0.00e+00	0	42	0	196083712	66	4279
2026-01-27 09:26:31.16	148.43	12.77	-47.0	-48.7	18.1	0.00e+00	0	42	0	198180864	66	4184
2026-01-27 09:26:32.17	148.42	12.87	-47.1	-48.9	18.0	0.00e+00	0	42	0	200278016	66	4252
2026-01-27 09:26:33.17	148.42	12.96	-47.0	-48.8	18.1	0.00e+00	0	43	0	202375168	66	4211
2026-01-27 09:26:34.18	148.41	13.06	-47.0	-48.8	18.1	0.00e+00	0	42	0	203423744	65	4445
2026-01-27 09:26:35.18	148.41	13.16	-47.0	-48.7	18.1	0.00e+00	0	42	0	205520896	65	4431
2026-01-27 09:26:36.19	148.40	13.26	-46.9	-48.6	18.2	0.00e+00	0	42	0	207618048	65	4370
2026-01-27 09:26:37.20	148.40	13.36	-46.8	-48.5	18.3	0.00e+00	0	42	0	209715200	65	4327
2026-01-27 09:26:38.21	148.39	13.47	-46.9	-48.6	18.3	0.00e+00	0	42	0	211812352	65	4367
2026-01-27 09:26:39.21	148.39	13.57	-46.8	-48.5	18.4	0.00e+00	0	42	0	212860928	65	4325
2026-01-27 09:26:40.22	148.38	13.67	-46.9	-48.6	18.3	0.00e+00	0	42	0	214958080	65	4356
2026-01-27 09:26:41.23	148.38	13.77	-46.9	-48.6	18.3	0.00e+00	0	42	0	217055232	65	4367
2026-01-27 09:26:42.24	148.37	13.87	-46.9	-48.6	18.3	0.00e+00	0	42	0	219152384	65	4360
2026-01-27 09:26:43.25	148.37	13.98	-46.8	-48.5	18.4	0.00e+00	0	42	0	221249536	65	4313
2026-01-27 09:26:44.25	148.36	14.08	-46.7	-48.3	18.6	0.00e+00	0	42	0	222298112	65	4223
2026-01-27 09:26:45.26	148.36	14.18	-46.7	-48.3	18.6	0.00e+00	0	42	0	224395264	65	4237
2026-01-27 09:26:46.27	148.35	14.29	-46.7	-48.3	18.5	0.00e+00	0	42	0	226492416	65	4239
2026-01-27 09:26:47.28	148.35	14.39	-46.6	-48.2	18.7	0.00e+00	0	42	0	228589568	65	4175
2026-01-27 09:26:48.29	148.34	14.50	-46.7	-48.4	18.5	0.00e+00	0	42	0	230686720	65	4271
2026-01-27 09:26:49.29	148.34	14.60	-46.7	-48.3	18.6	0.00e+00	0	42	0	231735296	65	4223
2026-01-27 09:26:50.30	148.33	14.71	-46.8	-48.4	18.5	0.00e+00	0	42	0	233832448	65	4287
2026-01-27 09:26:51.31	148.33	14.82	-46.7	-48.3	18.6	0.00e+00	0	43	0	235929600	65	4229
2026-01-27 09:26:52.32	148.32	14.93	-46.5	-48.1	18.9	0.00e+00	0	42	0	238026752	64	4346
2026-01-27 09:26:53.33	148.31	15.03	-46.4	-47.9	19.0	0.00e+00	0	42	0	240123904	64	4278
2026-01-27 09:26:54.34	148.31	15.14	-46.4	-48.0	18.9	0.00e+00	0	42	0	241172480	64	4305
2026-01-27 09:26:55.35	148.30	15.25	-46.4	-48.0	18.9	0.00e+00	0	42	0	243269632	64	4297
2026-01-27 09:26:56.35	148.30	15.36	-46.3	-47.8	19.1	0.00e+00	0	42	0	245366784	64	4230
2026-01-27 09:26:57.36	148.29	15.47	-46.3	-47.9	19.1	0.00e+00	0	42	0	247463936	64	4247
2026-01-27 09:26:58.37	148.28	15.58	-46.2	-47.7	19.2	0.00e+00	0	42	0	249561088	64	4186
2026-01-27 09:26:59.37	148.28	15.69	-46.1	-47.6	19.3	0.00e+00	0	42	0	250609664	64	4140
2026-01-27 09:27:00.38	148.27	15.80	-46.0	-47.5	19.4	0.00e+00	0	43	0	252706816	64	4076
2026-01-27 09:27:01.39	148.27	15.91	-46.1	-47.5	19.4	0.00e+00	0	42	0	254803968	64	4092
2026-01-27 09:27:02.39	148.26	16.02	-46.1	-47.5	19.5	0.00e+00	0	42	0	256901120	63	4333
2026-01-27 09:27:03.40	148.25	16.14	-46.1	-47.6	19.5	0.00e+00	0	43	0	258998272	63	4356
2026-01-27 09:27:04.41	148.25	16.25	-46.1	-47.5	19.5	0.00e+00	0	42	0	260046848	63	4325
2026-01-27 09:27:05.42	148.24	16.36	-46.1	-47.5	19.5	0.00e+00	0	42	0	262144000	63	4338
2026-01-27 09:27:06.42	148.23	16.48	-46.0	-47.5	19.6	0.00e+00	0	42	0	264241152	63	4305
2026-01-27 09:27:07.43	148.23	16.59	-46.0	-47.5	19.5	0.00e+00	0	42	0	266338304	63	4308
2026-01-27 09:27:08.44	148.22	16.71	-46.0	-47.5	19.5	0.00e+00	0	42	0	268435456	63	4304
2026-01-27 09:27:09.45	148.21	16.82	-45.9	-47.3	19.7	0.00e+00	0	42	0	269484032	63	4223
2026-01-27 09:27:10.46	148.21	16.94	-45.9	-47.4	19.7	0.00e+00	0	42	0	271581184	63	4256
2026-01-27 09:27:11.47	148.20	17.06	-45.9	-47.3	19.7	0.00e+00	0	42	0	273678336	63	4235
2026-01-27 09:27:12.48	148.19	17.18	-45.8	-47.2	19.8	0.00e+00	0	43	0	275775488	63	4180
2026-01-27 09:27:13.48	148.18	17.29	-45.7	-47.1	20.0	0.00e+00	0	43	0	277872640	63	4114
2026-01-27 09:27:14.49	148.18	17.41	-45.8	-47.2	19.9	0.00e+00	0	43	0	278921216	63	4160
2026-01-27 09:27:15.50	148.17	17.53	-45.7	-47.1	20.0	0.00e+00	0	42	0	281018368	63	4122
2026-01-27 09:27:16.51	148.16	17.65	-45.8	-47.2	19.9	0.00e+00	0	42	0	283115520	63	4153
2026-01-27 09:27:17.52	148.15	17.77	-45.6	-47.0	20.1	0.00e+00	0	42	0	285212672	63	4067
2026-01-27 09:27:18.53	148.15	17.89	-45.7	-47.0	20.0	0.00e+00	0	43	0	287309824	63	4098
2026-01-27 09:27:19.54	148.14	18.02	-45.6	-47.0	20.1	0.00e+00	0	42	0	288358400	63	4055
2026-01-27 09:27:20.54	148.13	18.14	-45.6	-47.0	20.1	0.00e+00	0	42	0	290455552	63	4069
2026-01-27 09:27:21.55	148.12	18.26	-45.7	-47.0	20.1	0.00e+00	0	42	0	292552704	63	4090
2026-01-27 09:27:22.56	148.12	18.38	-45.6	-47.0	20.1	0.00e+00	0	42	0	294649856	63	4072
2026-01-27 09:27:23.57	148.11	18.51	-45.6	-47.0	20.2	0.00e+00	0	42	0	296747008	63	4053
2026-01-27 09:27:24.57	148.10	18.63	-45.6	-46.9	20.2	0.00e+00	0	42	0	297795584	63	4038
2026-01-27 09:27:25.58	148.09	18.76	-45.6	-47.0	20.1	0.00e+00	0	42	0	299892736	63	4059
2026-01-27 09:27:26.59	148.08	18.88	-45.6	-47.0	20.1	0.00e+00	0	42	0	301989888	63	4058
2026-01-27 09:27:27.60	148.07	19.01	-45.5	-46.9	20.2	0.00e+00	0	42	0	304087040	63	4012
2026-01-27 09:27:28.61	148.07	19.14	-45.4	-46.8	20.3	0.00e+00	0	42	0	306184192	62	4194
2026-01-27 09:27:29.62	148.06	19.27	-45.4	-46.8	20.3	0.00e+00	0	43	0	308281344	62	4196
2026-01-27 09:27:30.62	148.05	19.39	-45.4	-46.7	20.4	0.00e+00	0	42	0	309329920	62	4178
2026-01-27 09:27:31.63	148.04	19.52	-45.5	-46.8	20.3	0.00e+00	0	42	0	311427072	62	4209
2026-01-27 09:27:32.64	148.03	19.65	-45.5	-46.8	20.3	0.00e+00	0	43	0	313524224	62	4208
2026-01-27 09:27:33.65	148.02	19.78	-45.5	-46.8	20.2	0.00e+00	0	42	0	315621376	62	4239
2026-01-27 09:27:34.66	148.01	19.92	-45.5	-46.9	20.2	0.00e+00	0	42	0	316669952	62	4249
2026-01-27 09:27:35.67	148.00	20.05	-45.6	-46.9	20.2	0.00e+00	0	42	0	318767104	62	4258
2026-01-27 09:27:36.68	147.99	20.18	-45.4	-46.7	20.4	0.00e+00	0	42	0	320864256	62	4176
2026-01-27 09:27:37.69	147.98	20.32	-45.5	-46.9	20.3	0.00e+00	0	42	0	322961408	62	4249
2026-01-27 09:27:38.69	147.97	20.45	-45.4	-46.7	20.4	0.00e+00	0	42	0	325058560	62	4188
2026-01-27 09:27:39.70	147.96	20.58	-45.5	-46.8	20.3	0.00e+00	0	43	0	327155712	62	4222
2026-01-27 09:27:40.71	147.95	20.72	-45.4	-46.8	20.4	0.00e+00	0	42	0	328204288	62	4196
2026-01-27 09:27:41.72	147.94	20.86	-45.4	-46.7	20.4	0.00e+00	0	42	0	330301440	62	4159
2026-01-27 09:27:42.73	147.93	20.99	-45.4	-46.7	20.4	0.00e+00	0	43	0	332398592	62	4189
2026-01-27 09:27:43.74	147.92	21.13	-45.3	-46.6	20.5	0.00e+00	0	43	0	334495744	62	4121
2026-01-27 09:27:44.75	147.91	21.27	-45.4	-46.7	20.4	0.00e+00	0	42	0	336592896	62	4167
2026-01-27 09:27:45.76	147.90	21.41	-45.3	-46.6	20.5	0.00e+00	0	42	0	337641472	62	4126
2026-01-27 09:27:46.77	147.89	21.55	-45.3	-46.6	20.6	0.00e+00	0	42	0	339738624	62	4101
2026-01-27 09:27:47.77	147.88	21.69	-45.5	-46.8	20.3	0.00e+00	0	43	0	341835776	62	4228
2026-01-27 09:27:48.78	147.87	21.83	-45.4	-46.6	20.5	0.00e+00	0	43	0	343932928	62	4143
2026-01-27 09:27:49.79	147.86	21.97	-45.3	-46.6	20.5	0.00e+00	0	43	0	344981504	62	4120
2026-01-27 09:27:50.79	147.85	22.12	-45.3	-46.6	20.5	0.00e+00	0	43	0	347078656	62	4132
2026-01-27 09:27:51.80	147.84	22.26	-45.5	-46.8	20.4	0.00e+00	0	42	0	349175808	62	4197
2026-01-27 09:27:52.81	147.82	22.41	-45.3	-46.6	20.6	0.00e+00	0	43	0	351272960	62	4112
2026-01-27 09:27:53.82	147.81	22.55	-45.3	-46.5	20.6	0.00e+00	0	42	0	353370112	62	4095
2026-01-27 09:27:54.83	147.80	22.70	-45.3	-46.6	20.6	0.00e+00	0	43	0	355467264	62	4116
2026-01-27 09:27:55.84	147.79	22.85	-45.3	-46.6	20.5	0.00e+00	0	42	0	356515840	62	4140
2026-01-27 09:27:56.85	147.78	23.00	-45.2	-46.5	20.7	0.00e+00	0	42	0	358612992	62	4069
2026-01-27 09:27:57.85	147.76	23.14	-45.3	-46.6	20.6	0.00e+00	0	42	0	360710144	62	4103
2026-01-27 09:27:58.86	147.75	23.29	-45.2	-46.5	20.7	0.00e+00	0	43	0	362807296	62	4076
2026-01-27 09:27:59.87	147.74	23.44	-45.3	-46.5	20.6	0.00e+00	0	42	0	364904448	62	4093
2026-01-27 09:28:00.88	147.73	23.60	-45.3	-46.6	20.6	0.00e+00	0	42	0	365953024	62	4119
2026-01-27 09:28:01.88	147.71	23.75	-45.2	-46.4	20.7	0.00e+00	0	43	0	368050176	62	4049
2026-01-27 09:28:02.89	147.70	23.90	-45.4	-46.6	20.5	0.00e+00	0	42	0	370147328	62	4132
2026-01-27 09:28:03.90	147.69	24.06	-45.3	-46.6	20.6	0.00e+00	0	43	0	372244480	62	4105
2026-01-27 09:28:04.91	147.68	24.21	-45.3	-46.6	20.6	0.00e+00	0	42	0	374341632	62	4126
2026-01-27 09:28:05.92	147.66	24.37	-45.4	-46.7	20.5	0.00e+00	0	43	0	375390208	62	4149
2026-01-27 09:28:06.93	147.65	24.53	-45.4	-46.7	20.4	0.00e+00	0	42	0	377487360	62	4187
2026-01-27 09:28:07.93	147.63	24.68	-45.5	-46.8	20.4	0.00e+00	0	42	0	379584512	62	4213
2026-01-27 09:28:08.94	147.62	24.84	-45.6	-46.9	20.4	0.00e+00	0	43	0	381681664	62	4247
2026-01-27 09:28:09.94	147.61	25.00	-45.5	-46.8	20.4	0.00e+00	0	43	0	383778816	62	4231
2026-01-27 09:28:10.95	147.59	25.16	-45.6	-46.9	20.4	0.00e+00	0	42	0	384827392	62	4243
2026-01-27 09:28:11.96	147.58	25.32	-45.6	-46.9	20.3	0.00e+00	0	43	0	386924544	62	4289
2026-01-27 09:28:12.97	147.56	25.49	-45.6	-47.0	20.2	0.00e+00	0	42	0	389021696	62	4299
2026-01-27 09:28:13.98	147.55	25.65	-45.6	-46.9	20.3	0.00e+00	0	43	0	391118848	62	4278
2026-01-27 09:28:14.99	147.53	25.82	-45.6	-46.9	20.3	0.00e+00	0	42	0	393216000	62	4281
2026-01-27 09:28:15.99	147.52	25.98	-45.7	-47.0	20.2	0.00e+00	0	42	0	394264576	62	4323
2026-01-27 09:28:17.01	147.50	26.15	-45.7	-47.0	20.2	0.00e+00	0	43	0	396361728	62	4311
2026-01-27 09:28:18.01	147.49	26.32	-45.7	-47.1	20.2	0.00e+00	0	42	0	398458880	62	4354
2026-01-27 09:28:19.01	147.47	26.49	-45.8	-47.1	20.1	0.00e+00	0	42	0	400556032	62	4368
2026-01-27 09:28:20.02	147.45	26.66	-45.7	-47.1	20.2	0.00e+00	0	43	0	402653184	62	4356
2026-01-27 09:28:21.03	147.44	26.83	-45.8	-47.2	20.1	0.00e+00	0	43	0	403701760	62	4406
2026-01-27 09:28:22.04	147.42	27.00	-45.9	-47.2	20.0	0.00e+00	0	43	0	405798912	62	4423
2026-01-27 09:28:23.04	147.40	27.17	-45.9	-47.3	20.0	0.00e+00	0	42	0	407896064	62	4465
2026-01-27 09:28:24.05	147.39	27.35	-45.9	-47.3	20.0	0.00e+00	0	42	0	409993216	62	4452
2026-01-27 09:28:25.06	147.37	27.52	-45.9	-47.2	20.1	0.00e+00	0	43	0	412090368	62	4436
2026-01-27 09:28:26.07	147.35	27.70	-46.0	-47.3	20.0	0.00e+00	0	42	0	413138944	62	4486
2026-01-27 09:28:27.08	147.33	27.88	-46.1	-47.5	19.9	0.00e+00	0	43	0	415236096	62	4553
2026-01-27 09:28:28.09	147.32	28.06	-46.2	-47.6	19.7	0.00e+00	0	43	0	417333248	62	4621
2026-01-27 09:28:29.10	147.30	28.24	-46.2	-47.7	19.6	0.00e+00	0	43	0	419430400	63	4400
2026-01-27 09:28:30.10	147.28	28.42	-46.3	-47.8	19.6	0.00e+00	0	43	0	421527552	63	4451
2026-01-27 09:28:31.11	147.26	28.60	-46.6	-48.1	19.2	0.00e+00	0	43	0	423624704	63	4621
2026-01-27 09:28:32.11	147.24	28.78	-46.6	-48.1	19.1	0.00e+00	0	43	0	424673280	64	4380
2026-01-27 09:28:33.12	147.22	28.97	-46.7	-48.2	19.1	0.00e+00	0	43	0	426770432	64	4412
2026-01-27 09:28:34.13	147.20	29.16	-46.9	-48.5	18.8	0.00e+00	0	43	0	428867584	64	4546
2026-01-27 09:28:35.14	147.18	29.34	-47.0	-48.7	18.6	0.00e+00	0	43	0	430964736	64	4663
2026-01-27 09:28:36.15	147.16	29.53	-47.2	-48.9	18.3	0.00e+00	0	42	0	432013312	65	4543
2026-01-27 09:28:37.16	147.14	29.72	-47.3	-49.0	18.3	0.00e+00	0	42	0	434110464	65	4581
2026-01-27 09:28:38.17	147.12	29.92	-47.3	-49.0	18.3	0.00e+00	0	43	0	436207616	65	4581
2026-01-27 09:28:39.17	147.10	30.11	-47.5	-49.3	18.0	0.00e+00	0	42	0	438304768	65	4732
2026-01-27 09:28:40.18	147.08	30.30	-47.7	-49.6	17.8	0.00e+00	0	42	0	440401920	65	4879
2026-01-27 09:28:41.19	147.06	30.50	-47.8	-49.7	17.6	0.00e+00	0	43	0	441450496	66	4672
2026-01-27 09:28:42.20	147.04	30.69	-48.0	-50.0	17.3	0.00e+00	0	43	0	443547648	66	4837
2026-01-27 09:28:43.21	147.02	30.89	-48.2	-50.3	17.1	0.00e+00	0	43	0	445644800	67	4728
2026-01-27 09:28:44.21	146.99	31.09	-48.3	-50.4	16.9	0.00e+00	0	42	0	447741952	67	4812
2026-01-27 09:28:45.22	146.97	31.29	-48.2	-50.2	17.1	0.00e+00	0	43	0	449839104	67	4684
2026-01-27 09:28:46.23	146.95	31.49	-48.2	-50.3	17.1	0.00e+00	0	42	0	451936256	67	4734
2026-01-27 09:28:47.24	146.93	31.70	-48.1	-50.1	17.2	0.00e+00	0	43	0	452984832	67	4646
2026-01-27 09:28:48.25	146.90	31.90	-48.1	-50.1	17.3	0.00e+00	0	43	0	455081984	67	4609
2026-01-27 09:28:49.25	146.88	32.11	-48.1	-50.1	17.3	0.00e+00	0	43	0	457179136	67	4622
2026-01-27 09:28:50.26	146.85	32.31	-48.1	-50.1	17.2	0.00e+00	0	42	0	459276288	67	4621
2026-01-27 09:28:51.26	146.83	32.52	-48.2	-50.3	17.1	0.00e+00	0	43	0	460324864	67	4720
2026-01-27 09:28:52.27	146.80	32.73	-48.2	-50.3	17.1	0.00e+00	0	43	0	462422016	67	4710
2026-01-27 09:28:53.28	146.78	32.94	-48.1	-50.0	17.3	0.00e+00	0	43	0	464519168	67	4596
2026-01-27 09:28:54.29	146.75	33.16	-48.1	-50.0	17.3	0.00e+00	0	42	0	466616320	67	4594
2026-01-27 09:28:55.29	146.73	33.37	-47.8	-49.7	17.6	0.00e+00	0	43	0	468713472	67	4430
2026-01-27 09:28:56.31	146.70	33.59	-47.7	-49.5	17.9	0.00e+00	0	42	0	470810624	67	4327
2026-01-27 09:28:57.31	146.67	33.81	-47.5	-49.3	18.1	0.00e+00	0	43	0	471859200	67	4214
2026-01-27 09:28:58.32	146.65	34.03	-47.6	-49.4	18.0	0.00e+00	0	42	0	473956352	67	4252
2026-01-27 09:28:59.33	146.62	34.25	-47.3	-49.0	18.3	0.00e+00	0	43	0	476053504	66	4318
2026-01-27 09:29:00.33	146.59	34.47	-47.2	-48.9	18.5	0.00e+00	0	43	0	478150656	66	4246
2026-01-27 09:29:01.34	146.56	34.69	-47.0	-48.7	18.7	0.00e+00	0	43	0	480247808	66	4159
2026-01-27 09:29:02.35	146.53	34.92	-46.9	-48.5	18.8	0.00e+00	0	43	0	481296384	65	4317
2026-01-27 09:29:03.36	146.50	35.15	-46.7	-48.3	19.0	0.00e+00	0	43	0	483393536	65	4223
2026-01-27 09:29:04.36	146.47	35.37	-46.5	-48.0	19.4	0.00e+00	0	42	0	485490688	64	4298
2026-01-27 09:29:05.37	146.44	35.61	-46.1	-47.5	19.8	0.00e+00	0	43	0	487587840	64	4061
2026-01-27 09:29:06.37	146.41	35.84	-45.8	-47.1	20.3	0.00e+00	0	43	0	488636416	63	4142
2026-01-27 09:29:07.38	146.38	36.07	-45.4	-46.7	20.7	0.00e+00	0	43	0	490733568	62	4161
2026-01-27 09:29:08.39	146.35	36.31	-45.2	-46.5	20.9	0.00e+00	0	43	0	492830720	62	4055
2026-01-27 09:29:09.40	146.31	36.54	-45.1	-46.3	21.1	0.00e+00	0	43	0	494927872	62	3972
2026-01-27 09:29:10.41	146.28	36.78	-44.9	-46.1	21.2	0.00e+00	0	42	0	497025024	61	4111
2026-01-27 09:29:11.41	146.25	37.02	-44.8	-45.9	21.4	0.00e+00	0	42	0	499122176	61	4049
2026-01-27 09:29:12.42	146.21	37.27	-44.7	-45.9	21.4	0.00e+00	0	43	0	500170752	61	4014
2026-01-27 09:29:13.43	146.18	37.51	-44.5	-45.6	21.7	0.00e+00	0	43	0	502267904	61	3909
2026-01-27 09:29:14.44	146.14	37.76	-44.4	-45.5	21.8	0.00e+00	0	42	0	504365056	60	4083
2026-01-27 09:29:15.45	146.11	38.01	-44.3	-45.4	21.8	0.00e+00	0	43	0	506462208	60	4049
2026-01-27 09:29:16.45	146.07	38.25	-44.4	-45.5	21.8	0.00e+00	0	43	0	508559360	60	4081
2026-01-27 09:29:17.46	146.03	38.51	-44.5	-45.6	21.7	0.00e+00	0	42	0	509607936	60	4125
2026-01-27 09:29:18.47	146.00	38.76	-44.6	-45.7	21.6	0.00e+00	0	43	0	511705088	60	4172
2026-01-27 09:29:19.47	145.96	39.01	-44.7	-45.8	21.6	0.00e+00	0	43	0	513802240	60	4212
2026-01-27 09:29:20.48	145.92	39.27	-44.7	-45.8	21.5	0.00e+00	0	43	0	515899392	60	4238
2026-01-27 09:29:21.48	145.88	39.53	-44.7	-45.9	21.4	0.00e+00	0	42	0	516947968	60	4266
2026-01-27 09:29:22.49	145.84	39.79	-44.9	-46.1	21.3	0.00e+00	0	42	0	519045120	60	4341
2026-01-27 09:29:23.50	145.80	40.05	-44.9	-46.1	21.3	0.00e+00	0	43	0	521142272	60	4346
2026-01-27 09:29:24.51	145.75	40.32	-45.1	-46.3	21.0	0.00e+00	0	43	0	523239424	60	4484
2026-01-27 09:29:25.51	145.71	40.58	-45.5	-46.7	20.7	0.00e+00	0	42	0	525336576	61	4429
2026-01-27 09:29:26.52	145.67	40.85	-45.5	-46.8	20.7	0.00e+00	0	42	0	527433728	61	4442
2026-01-27 09:29:27.53	145.62	41.13	-45.7	-46.9	20.5	0.00e+00	0	42	0	528482304	61	4540
2026-01-27 09:29:28.54	145.58	41.40	-45.7	-47.0	20.4	0.00e+00	0	43	0	530579456	62	4332
2026-01-27 09:29:29.55	145.53	41.67	-45.9	-47.3	20.2	0.00e+00	0	42	0	532676608	62	4447
2026-01-27 09:29:30.55	145.49	41.95	-46.0	-47.3	20.1	0.00e+00	0	43	0	534773760	62	4487
2026-01-27 09:29:31.56	145.44	42.23	-46.0	-47.3	20.1	0.00e+00	0	43	0	536870912	62	4484
2026-01-27 09:29:32.57	145.39	42.51	-46.0	-47.3	20.2	0.00e+00	0	42	0	537919488	62	4469
2026-01-27 09:29:33.57	145.34	42.79	-45.8	-47.1	20.4	0.00e+00	0	43	0	540016640	62	4344
2026-01-27 09:29:34.58	145.29	43.08	-45.8	-47.1	20.3	0.00e+00	0	43	0	542113792	62	4391
2026-01-27 09:29:35.58	145.24	43.36	-45.8	-47.1	20.3	0.00e+00	0	43	0	544210944	62	4388
2026-01-27 09:29:36.59	145.19	43.65	-46.1	-47.4	20.1	0.00e+00	0	42	0	545259520	62	4524
2026-01-27 09:29:37.60	145.13	43.95	-46.3	-47.7	19.8	0.00e+00	0	43	0	547356672	63	4434
2026-01-27 09:29:38.61	145.08	44.24	-46.6	-48.1	19.5	0.00e+00	0	42	0	549453824	63	4615
2026-01-27 09:29:39.62	145.02	44.54	-46.8	-48.4	19.1	0.00e+00	0	42	0	551550976	64	4516
2026-01-27 09:29:40.63	144.97	44.84	-46.8	-48.4	19.1	0.00e+00	0	43	0	553648128	64	4496
2026-01-27 09:29:41.63	144.91	45.14	-46.8	-48.4	19.1	0.00e+00	0	42	0	555745280	64	4513
2026-01-27 09:29:42.64	144.85	45.44	-47.1	-48.7	18.7	0.00e+00	0	43	0	556793856	64	4686
2026-01-27 09:29:43.64	144.79	45.74	-47.2	-48.8	18.7	0.00e+00	0	42	0	558891008	64	4744
2026-01-27 09:29:44.65	144.73	46.05	-47.5	-49.2	18.3	0.00e+00	0	43	0	560988160	65	4684
2026-01-27 09:29:45.66	144.67	46.36	-47.6	-49.3	18.2	0.00e+00	0	43	0	563085312	65	4733
2026-01-27 09:29:46.67	144.60	46.67	-47.8	-49.6	17.9	0.00e+00	0	43	0	565182464	66	4631
2026-01-27 09:29:47.67	144.54	46.99	-48.2	-50.1	17.4	0.00e+00	0	43	0	566231040	66	4915
2026-01-27 09:29:48.68	144.47	47.30	-48.4	-50.5	17.0	0.00e+00	0	43	0	568328192	67	4832
2026-01-27 09:29:49.69	144.40	47.62	-48.6	-50.7	16.8	0.00e+00	0	42	0	570425344	67	4955
2026-01-27 09:29:50.69	144.33	47.94	-48.7	-50.8	16.7	0.00e+00	0	42	0	572522496	67	5021
2026-01-27 09:29:51.70	144.26	48.27	-48.7	-50.8	16.7	0.00e+00	0	42	0	574619648	68	4744
2026-01-27 09:29:52.71	144.19	48.59	-48.4	-50.4	17.2	0.00e+00	0	43	0	575668224	68	4533
2026-01-27 09:29:53.72	144.11	48.92	-48.2	-50.1	17.5	0.00e+00	0	43	0	577765376	68	4374
2026-01-27 09:29:54.72	144.04	49.25	-47.7	-49.5	18.0	0.00e+00	0	43	0	579862528	67	4309
2026-01-27 09:29:55.73	143.96	49.58	-47.3	-49.0	18.6	0.00e+00	0	42	0	581959680	66	4301
2026-01-27 09:29:56.74	143.88	49.92	-47.1	-48.7	18.9	0.00e+00	0	42	0	584056832	66	4165
2026-01-27 09:29:57.75	143.80	50.26	-46.6	-48.1	19.3	0.00e+00	0	43	0	585105408	65	4135
2026-01-27 09:29:58.75	143.71	50.60	-46.0	-47.4	20.1	0.00e+00	0	43	0	587202560	64	4020
2026-01-27 09:29:59.75	143.63	50.94	-45.4	-46.6	20.9	0.00e+00	0	43	0	589299712	62	4134
2026-01-27 09:30:00.76	143.54	51.28	-44.9	-46.1	21.3	0.00e+00	0	42	0	591396864	61	4106
2026-01-27 09:30:01.77	143.45	51.63	-44.6	-45.7	21.7	0.00e+00	0	43	0	593494016	61	3942
2026-01-27 09:30:02.78	143.36	51.98	-44.5	-45.5	21.9	0.00e+00	0	43	0	594542592	60	4098
2026-01-27 09:30:03.79	143.26	52.34	-44.2	-45.3	22.1	0.00e+00	0	43	0	596639744	60	3973
2026-01-27 09:30:04.80	143.17	52.69	-44.0	-45.1	22.3	0.00e+00	0	43	0	598736896	60	3883
2026-01-27 09:30:05.81	143.07	53.05	-44.2	-45.3	22.4	0.00e+00	0	43	0	600834048	59	4204
2026-01-27 09:30:06.81	142.97	53.41	-44.4	-45.5	22.3	0.00e+00	0	42	0	602931200	59	4302
2026-01-27 09:30:07.82	142.86	53.77	-44.5	-45.6	22.1	0.00e+00	0	43	0	603979776	59	4348
2026-01-27 09:30:08.83	142.75	54.14	-44.4	-45.5	21.9	0.00e+00	0	42	0	606076928	60	4090
2026-01-27 09:30:09.83	142.65	54.50	-44.6	-45.7	21.8	0.00e+00	0	43	0	608174080	60	4159
2026-01-27 09:30:10.84	142.53	54.87	-44.7	-45.8	21.7	0.00e+00	0	43	0	610271232	60	4196
2026-01-27 09:30:11.85	142.42	55.25	-44.7	-45.8	21.6	0.00e+00	0	43	0	612368384	60	4239
2026-01-27 09:30:12.86	142.30	55.62	-45.1	-46.3	21.2	0.00e+00	0	42	0	613416960	60	4479
2026-01-27 09:30:13.86	142.18	56.00	-45.7	-47.0	20.6	0.00e+00	0	42	0	615514112	61	4550
2026-01-27 09:30:14.87	142.05	56.38	-46.2	-47.5	20.1	0.00e+00	0	43	0	617611264	62	4588
2026-01-27 09:30:15.88	141.92	56.76	-46.8	-48.3	19.2	0.00e+00	0	43	0	619708416	64	4475
2026-01-27 09:30:16.89	141.79	57.15	-47.6	-49.3	18.2	0.00e+00	0	43	0	621805568	65	4757
2026-01-27 09:30:17.89	141.65	57.53	-48.2	-50.2	17.4	0.00e+00	0	42	0	622854144	67	4679
2026-01-27 09:30:18.90	141.51	57.92	-49.0	-51.3	16.4	0.00e+00	0	43	0	624951296	68	5011
2026-01-27 09:30:19.91	141.36	58.32	-49.4	-51.9	15.9	0.00e+00	0	42	0	627048448	69	5050
2026-01-27 09:30:20.92	141.21	58.71	-49.7	-52.4	15.3	0.00e+00	0	42	0	629145600	70	5044
2026-01-27 09:30:21.93	141.06	59.11	-49.5	-52.0	15.7	0.00e+00	0	42	0	631242752	70	4869
2026-01-27 09:30:22.93	140.90	59.51	-49.2	-51.6	16.2	0.00e+00	0	42	0	632291328	70	4633
2026-01-27 09:30:23.94	140.73	59.91	-48.2	-50.2	17.5	0.00e+00	0	43	0	634388480	68	4394
2026-01-27 09:30:24.95	140.56	60.32	-47.4	-49.1	18.4	0.00e+00	0	43	0	636485632	66	4375
2026-01-27 09:30:25.96	140.39	60.72	-46.8	-48.3	19.3	0.00e+00	0	43	0	638582784	65	4222
2026-01-27 09:30:26.97	140.20	61.13	-46.5	-48.0	19.5	0.00e+00	0	43	0	640679936	65	4081
2026-01-27 09:30:27.97	140.02	61.54	-46.0	-47.4	20.2	0.00e+00	0	43	0	641728512	63	4248
2026-01-27 09:30:28.98	139.82	61.96	-45.3	-46.5	21.2	0.00e+00	0	43	0	643825664	62	4061
2026-01-27 09:30:29.99	139.62	62.37	-45.2	-46.4	21.3	0.00e+00	0	43	0	645922816	62	4010
2026-01-27 09:30:30.99	139.41	62.79	-45.0	-46.1	21.5	0.00e+00	0	43	0	648019968	61	4124
2026-01-27 09:30:32.01	139.20	63.21	-44.7	-45.8	21.7	0.00e+00	0	43	0	650117120	61	3991
2026-01-27 09:30:33.01	138.97	63.63	-44.3	-45.4	22.1	0.00e+00	0	43	0	652214272	60	4027
2026-01-27 09:30:34.02	138.74	64.06	-44.3	-45.4	22.2	0.00e+00	0	43	0	653262848	60	4026
2026-01-27 09:30:35.03	138.50	64.48	-44.6	-45.7	21.9	0.00e+00	0	43	0	655360000	60	4150
2026-01-27 09:30:36.04	138.25	64.91	-44.6	-45.6	21.9	0.00e+00	0	42	0	657457152	60	4139
2026-01-27 09:30:37.04	137.99	65.34	-45.1	-46.3	21.3	0.00e+00	0	43	0	659554304	60	4442
2026-01-27 09:30:38.05	137.72	65.77	-45.6	-46.8	20.8	0.00e+00	0	43	0	660602880	61	4470
2026-01-27 09:30:39.06	137.44	66.21	-46.0	-47.3	20.4	0.00e+00	0	43	0	662700032	62	4443
2026-01-27 09:30:40.07	137.14	66.65	-46.6	-48.0	19.7	0.00e+00	0	43	0	664797184	63	4591
2026-01-27 09:30:41.08	136.84	67.08	-46.9	-48.4	19.2	0.00e+00	0	42	0	666894336	64	4535
2026-01-27 09:30:42.08	136.52	67.52	-46.8	-48.4	19.3	0.00e+00	0	43	0	668991488	64	4507
2026-01-27 09:30:43.09	136.19	67.96	-46.6	-48.0	19.6	0.00e+00	0	43	0	670040064	64	4307
2026-01-27 09:30:44.10	135.84	68.41	-46.6	-48.1	19.5	0.00e+00	0	43	0	672137216	64	4346
2026-01-27 09:30:45.11	135.47	68.85	-46.4	-47.8	19.8	0.00e+00	0	43	0	674234368	64	4211
2026-01-27 09:30:46.11	135.10	69.29	-45.9	-47.1	20.5	0.00e+00	0	43	0	676331520	63	4134
2026-01-27 09:30:47.12	134.70	69.74	-45.6	-46.9	20.7	0.00e+00	0	43	0	678428672	63	4015
2026-01-27 09:30:48.12	134.28	70.18	-45.9	-47.2	20.4	0.00e+00	0	42	0	680525824	63	4158
2026-01-27 09:30:49.13	133.84	70.63	-46.0	-47.4	20.3	0.00e+00	0	42	0	681574400	63	4255
2026-01-27 09:30:50.14	133.38	71.08	-46.0	-47.3	20.4	0.00e+00	0	43	0	683671552	63	4202
2026-01-27 09:30:51.15	132.89	71.53	-45.9	-47.1	20.6	0.00e+00	0	42	0	685768704	63	4131
2026-01-27 09:30:52.16	132.38	71.99	-46.1	-47.4	20.3	0.00e+00	0	42	0	687865856	63	4268
2026-01-27 09:30:53.17	131.84	72.44	-45.8	-47.1	20.5	0.00e+00	0	42	0	688914432	63	4099
2026-01-27 09:30:54.18	131.26	72.89	-45.7	-46.9	20.7	0.00e+00	0	42	0	691011584	63	4042
2026-01-27 09:30:55.19	130.66	73.34	-46.1	-47.4	20.3	0.00e+00	0	43	0	693108736	63	4271
2026-01-27 09:30:56.19	130.03	73.79	-46.5	-47.9	19.8	0.00e+00	0	42	0	695205888	63	4514
2026-01-27 09:30:57.20	129.35	74.24	-47.1	-48.7	18.9	0.00e+00	0	43	0	697303040	64	4661
2026-01-27 09:30:58.21	128.63	74.69	-47.2	-48.9	18.8	0.00e+00	0	42	0	699400192	65	4504
2026-01-27 09:30:59.21	127.87	75.14	-46.9	-48.5	19.1	0.00e+00	0	43	0	700448768	65	4306
2026-01-27 09:31:00.22	127.05	75.59	-46.5	-47.9	19.7	0.00e+00	0	42	0	702545920	64	4283
2026-01-27 09:31:01.23	126.18	76.03	-46.6	-48.1	19.5	0.00e+00	0	43	0	704643072	64	4383
2026-01-27 09:31:02.24	125.25	76.48	-47.1	-48.7	19.0	0.00e+00	0	42	0	706740224	64	4693
2026-01-27 09:31:03.25	124.26	76.92	-47.1	-48.7	18.9	0.00e+00	0	42	0	708837376	65	4438
2026-01-27 09:31:04.25	123.20	77.36	-47.6	-49.3	18.3	0.00e+00	0	43	0	709885952	65	4756
2026-01-27 09:31:05.26	122.05	77.80	-47.9	-49.7	17.9	0.00e+00	0	43	0	711983104	66	4696
2026-01-27 09:31:06.27	120.82	78.23	-47.6	-49.3	18.4	0.00e+00	0	43	0	714080256	66	4466
2026-01-27 09:31:07.28	119.49	78.66	-46.9	-48.5	19.2	0.00e+00	0	43	0	716177408	65	4296
2026-01-27 09:31:08.29	118.06	79.08	-46.1	-47.4	20.2	0.00e+00	0	43	0	717225984	64	4031
2026-01-27 09:31:09.29	116.52	79.49	-45.6	-46.9	20.8	0.00e+00	0	43	0	719323136	63	4014
2026-01-27 09:31:10.30	114.84	79.90	-45.2	-46.4	21.3	0.00e+00	0	43	0	721420288	62	4018
2026-01-27 09:31:11.31	113.02	80.30	-45.1	-46.2	21.4	0.00e+00	0	43	0	723517440	62	3947
2026-01-27 09:31:12.32	111.03	80.69	-45.5	-46.7	20.9	0.00e+00	0	43	0	725614592	62	4175
2026-01-27 09:31:13.32	108.90	81.07	-46.0	-47.3	20.3	0.00e+00	0	43	0	727711744	62	4490
2026-01-27 09:31:14.33	106.55	81.44	-46.5	-47.9	19.9	0.00e+00	0	42	0	728760320	63	4507
2026-01-27 09:31:15.34	104.00	81.79	-46.4	-47.7	19.9	0.00e+00	0	42	0	730857472	63	4431
2026-01-27 09:31:16.35	101.22	82.12	-46.5	-47.9	19.8	0.00e+00	0	43	0	732954624	63	4525
2026-01-27 09:31:17.35	98.23	82.44	-46.5	-47.9	19.7	0.00e+00	0	43	0	735051776	64	4282
2026-01-27 09:31:18.37	94.92	82.73	-46.7	-48.1	19.5	0.00e+00	0	43	0	737148928	64	4385
2026-01-27 09:31:19.38	91.37	83.00	-46.4	-47.8	19.7	0.00e+00	0	43	0	738197504	64	4225
2026-01-27 09:31:20.39	87.56	83.24	-46.0	-47.3	20.4	0.00e+00	0	43	0	740294656	63	4203
2026-01-27 09:31:21.39	83.53	83.44	-45.5	-46.7	21.0	0.00e+00	0	43	0	742391808	62	4164
2026-01-27 09:31:22.40	79.21	83.62	-45.5	-46.7	21.0	0.00e+00	0	43	0	744488960	62	4178
2026-01-27 09:31:23.41	74.68	83.75	-46.0	-47.3	20.4	0.00e+00	0	43	0	746586112	62	4454
2026-01-27 09:31:24.42	69.98	83.85	-46.4	-47.8	20.0	0.00e+00	0	42	0	747634688	63	4443
2026-01-27 09:31:25.42	65.21	83.90	-46.8	-48.3	19.4	0.00e+00	0	43	0	749731840	64	4477
2026-01-27 09:31:26.44	60.30	83.91	-47.2	-48.8	18.9	0.00e+00	0	43	0	751828992	64	4738
2026-01-27 09:31:27.44	55.51	83.87	-47.0	-48.6	19.1	0.00e+00	0	43	0	753926144	65	4344
2026-01-27 09:31:28.45	50.75	83.79	-47.0	-48.6	19.2	0.00e+00	0	43	0	756023296	65	4350
2026-01-27 09:31:29.46	46.14	83.68	-47.0	-48.5	19.2	0.00e+00	0	42	0	757071872	65	4322
2026-01-27 09:31:30.47	41.74	83.52	-47.2	-48.8	18.9	0.00e+00	0	43	0	759169024	65	4450
2026-01-27 09:31:31.48	37.56	83.32	-47.6	-49.3	18.5	0.00e+00	0	43	0	761266176	65	4740
2026-01-27 09:31:32.49	33.64	83.10	-47.8	-49.6	18.2	0.00e+00	0	43	0	763363328	66	4621
2026-01-27 09:31:33.50	29.99	82.84	-48.3	-50.2	17.6	0.00e+00	0	43	0	765460480	67	4659
2026-01-27 09:31:34.51	26.61	82.56	-47.9	-49.7	18.0	0.00e+00	0	43	0	766509056	67	4434
2026-01-27 09:31:35.51	23.52	82.26	-47.6	-49.3	18.4	0.00e+00	0	43	0	768606208	67	4229
2026-01-27 09:31:36.52	20.64	81.93	-47.9	-49.6	18.1	0.00e+00	0	43	0	770703360	67	4381
2026-01-27 09:31:37.53	18.00	81.58	-47.5	-49.2	18.5	0.00e+00	0	43	0	772800512	66	4411
2026-01-27 09:31:38.54	15.57	81.22	-47.2	-48.8	18.9	0.00e+00	0	43	0	774897664	66	4208
2026-01-27 09:31:39.55	13.34	80.85	-47.3	-48.9	18.8	0.00e+00	0	43	0	775946240	66	4253
2026-01-27 09:31:40.55	11.31	80.47	-46.3	-47.6	20.0	0.00e+00	0	43	0	778043392	64	4130
2026-01-27 09:31:41.56	9.42	80.07	-45.9	-47.1	20.7	0.00e+00	0	43	0	780140544	63	4123
2026-01-27 09:31:42.57	7.68	79.66	-45.5	-46.7	21.0	0.00e+00	0	43	0	782237696	62	4178
2026-01-27 09:31:43.57	6.10	79.25	-45.8	-47.1	20.7	0.00e+00	0	42	0	784334848	62	4351
2026-01-27 09:31:44.58	4.62	78.83	-46.0	-47.3	20.4	0.00e+00	0	43	0	785383424	62	4473
2026-01-27 09:31:45.59	3.24	78.41	-46.7	-48.1	19.7	0.00e+00	0	43	0	787480576	63	4616
2026-01-27 09:31:46.60	1.97	77.98	-46.7	-48.2	19.5	0.00e+00	0	43	0	789577728	64	4416
2026-01-27 09:31:47.61	0.79	77.54	-46.8	-48.3	19.4	0.00e+00	0	42	0	791674880	64	4477
2026-01-27 09:31:48.62	359.70	77.10	-46.8	-48.3	19.4	0.00e+00	0	43	0	793772032	64	4488
2026-01-27 09:31:49.63	358.67	76.66	-46.7	-48.1	19.5	0.00e+00	0	43	0	794820608	64	4378
2026-01-27 09:31:50.64	357.72	76.22	-46.9	-48.3	19.3	0.00e+00	0	42	0	796917760	64	4481
2026-01-27 09:31:51.64	356.83	75.78	-46.3	-47.6	20.2	0.00e+00	0	42	0	799014912	64	4143
2026-01-27 09:31:52.65	356.00	75.33	-46.2	-47.5	20.1	0.00e+00	0	43	0	801112064	64	4056
2026-01-27 09:31:53.66	355.21	74.88	-46.3	-47.7	20.0	0.00e+00	0	42	0	803209216	64	4182
2026-01-27 09:31:54.67	354.47	74.43	-46.6	-48.0	19.8	0.00e+00	0	43	0	804257792	64	4331
2026-01-27 09:31:55.68	353.78	73.98	-46.4	-47.8	19.9	0.00e+00	0	42	0	806354944	64	4238
2026-01-27 09:31:56.69	353.12	73.53	-46.6	-48.0	19.7	0.00e+00	0	43	0	808452096	64	4340
2026-01-27 09:31:57.69	352.51	73.08	-46.1	-47.5	20.3	0.00e+00	0	43	0	810549248	64	4065
2026-01-27 09:31:58.70	351.93	72.63	-45.6	-46.8	21.0	0.00e+00	0	43	0	812646400	63	3971
2026-01-27 09:31:59.71	351.37	72.18	-45.0	-46.2	21.5	0.00e+00	0	43	0	814743552	62	3921
2026-01-27 09:32:00.71	350.85	71.73	-44.4	-45.5	22.2	0.00e+00	0	43	0	815792128	60	4069
2026-01-27 09:32:01.72	350.36	71.28	-44.5	-45.6	22.1	0.00e+00	0	42	0	817889280	60	4115
2026-01-27 09:32:02.72	349.89	70.83	-44.7	-45.8	21.9	0.00e+00	0	42	0	819986432	60	4225
2026-01-27 09:32:03.73	349.44	70.39	-45.1	-46.2	21.5	0.00e+00	0	43	0	822083584	60	4431
2026-01-27 09:32:04.74	349.01	69.94	-46.1	-47.4	20.4	0.00e+00	0	42	0	823132160	62	4544
2026-01-27 09:32:05.75	348.60	69.49	-46.6	-48.0	19.8	0.00e+00	0	43	0	825229312	63	4574
2026-01-27 09:32:06.76	348.21	69.05	-47.0	-48.5	19.3	0.00e+00	0	43	0	827326464	64	4567
2026-01-27 09:32:07.76	347.85	68.60	-47.1	-48.7	19.1	0.00e+00	0	43	0	829423616	65	4394
2026-01-27 09:32:08.77	347.49	68.16	-47.6	-49.2	18.6	0.00e+00	0	43	0	831520768	65	4677
2026-01-27 09:32:09.78	347.15	67.72	-48.4	-50.4	17.4	0.00e+00	0	43	0	832569344	67	4784
2026-01-27 09:32:10.79	346.83	67.28	-49.2	-51.4	16.5	0.00e+00	0	43	0	834666496	68	5079
2026-01-27 09:32:11.80	346.52	66.84	-49.1	-51.3	16.6	0.00e+00	0	43	0	836763648	69	4717
2026-01-27 09:32:12.81	346.22	66.40	-48.5	-50.4	17.5	0.00e+00	0	43	0	838860800	68	4504
2026-01-27 09:32:13.81	345.93	65.97	-47.4	-49.0	18.8	0.00e+00	0	43	0	840957952	66	4326
2026-01-27 09:32:14.82	345.66	65.54	-46.7	-48.2	19.6	0.00e+00	0	43	0	843055104	65	4152
2026-01-27 09:32:15.83	345.39	65.11	-46.3	-47.7	20.0	0.00e+00	0	42	0	844103680	64	4148
2026-01-27 09:32:16.84	345.14	64.68	-45.8	-47.1	20.7	0.00e+00	0	42	0	846200832	63	4112
2026-01-27 09:32:17.84	344.90	64.26	-45.1	-46.2	21.5	0.00e+00	0	43	0	848297984	62	3952
2026-01-27 09:32:18.85	344.66	63.83	-44.2	-45.2	22.4	0.00e+00	0	42	0	850395136	60	3958
2026-01-27 09:32:19.86	344.43	63.41	-44.4	-45.4	22.5	0.00e+00	0	42	0	851443712	59	4289
2026-01-27 09:32:20.87	344.21	62.99	-44.6	-45.7	22.3	0.00e+00	0	42	0	853540864	59	4419
2026-01-27 09:32:21.88	344.00	62.57	-44.5	-45.6	22.1	0.00e+00	0	42	0	855638016	60	4138
2026-01-27 09:32:22.89	343.80	62.15	-44.1	-45.2	22.5	0.00e+00	0	43	0	857735168	60	3919
2026-01-27 09:32:23.89	343.60	61.74	-44.3	-45.3	22.6	0.00e+00	0	43	0	859832320	59	4236
2026-01-27 09:32:24.91	343.41	61.33	-44.3	-45.4	22.6	0.00e+00	0	43	0	861929472	59	4256
2026-01-27 09:32:25.91	343.23	60.92	-44.6	-45.6	22.3	0.00e+00	0	43	0	862978048	59	4390
2026-01-27 09:32:26.92	343.05	60.51	-45.4	-46.6	21.2	0.00e+00	0	43	0	865075200	61	4365
2026-01-27 09:32:27.93	342.88	60.11	-46.8	-48.3	19.5	0.00e+00	0	42	0	867172352	64	4455
2026-01-27 09:32:28.94	342.71	59.70	-47.3	-48.9	18.9	0.00e+00	0	43	0	869269504	65	4526
2026-01-27 09:32:29.95	342.55	59.30	-47.1	-48.7	19.0	0.00e+00	0	43	0	871366656	65	4417
2026-01-27 09:32:30.96	342.39	58.90	-46.9	-48.4	19.3	0.00e+00	0	42	0	872415232	65	4261
2026-01-27 09:32:31.97	342.24	58.51	-47.2	-48.7	19.0	0.00e+00	0	42	0	874512384	65	4417
2026-01-27 09:32:32.97	342.09	58.12	-47.4	-49.0	18.9	0.00e+00	0	42	0	876609536	65	4560
2026-01-27 09:32:33.98	341.95	57.73	-47.7	-49.4	18.3	0.00e+00	0	43	0	878706688	66	4525
2026-01-27 09:32:34.99	341.81	57.34	-48.7	-50.7	17.1	0.00e+00	0	43	0	879755264	67	4966
2026-01-27 09:32:36.00	341.67	56.95	-48.9	-51.1	16.8	0.00e+00	0	43	0	881852416	68	4876
2026-01-27 09:32:37.01	341.54	56.57	-47.8	-49.6	18.3	0.00e+00	0	42	0	883949568	67	4346
2026-01-27 09:32:38.01	341.42	56.19	-46.5	-47.9	19.8	0.00e+00	0	42	0	886046720	65	4048
2026-01-27 09:32:39.02	341.29	55.82	-45.7	-46.9	20.8	0.00e+00	0	43	0	888143872	63	4027
2026-01-27 09:32:40.03	341.17	55.44	-45.7	-46.9	20.9	0.00e+00	0	42	0	890241024	63	4036
2026-01-27 09:32:41.03	341.06	55.07	-45.5	-46.7	21.0	0.00e+00	0	43	0	891289600	63	3946
2026-01-27 09:32:42.04	340.94	54.70	-45.6	-46.8	20.9	0.00e+00	0	42	0	893386752	63	3992
2026-01-27 09:32:43.04	340.83	54.33	-45.2	-46.4	21.3	0.00e+00	0	43	0	895483904	62	4012
2026-01-27 09:32:44.05	340.72	53.97	-44.8	-46.0	21.6	0.00e+00	0	43	0	897581056	61	4058
2026-01-27 09:32:45.06	340.62	53.60	-44.8	-45.9	21.8	0.00e+00	0	43	0	899678208	61	4030
2026-01-27 09:32:46.06	340.52	53.25	-44.8	-45.9	21.7	0.00e+00	0	43	0	900726784	61	4051
2026-01-27 09:32:47.07	340.42	52.89	-44.4	-45.5	22.2	0.00e+00	0	43	0	902823936	60	4054
2026-01-27 09:32:48.08	340.32	52.53	-44.6	-45.7	22.0	0.00e+00	0	42	0	904921088	60	4158
2026-01-27 09:32:49.08	340.22	52.18	-44.9	-46.1	21.6	0.00e+00	0	43	0	907018240	60	4347
2026-01-27 09:32:50.09	340.13	51.83	-45.6	-46.9	20.9	0.00e+00	0	42	0	908066816	61	4508
2026-01-27 09:32:51.09	340.04	51.48	-46.6	-48.0	19.8	0.00e+00	0	43	0	910163968	63	4581
2026-01-27 09:32:52.10	339.95	51.14	-47.2	-48.9	18.8	0.00e+00	0	42	0	912261120	65	4511
2026-01-27 09:32:53.11	339.87	50.79	-47.4	-49.1	18.6	0.00e+00	0	42	0	914358272	65	4630
2026-01-27 09:32:54.12	339.78	50.45	-47.6	-49.3	18.4	0.00e+00	0	43	0	916455424	65	4750
2026-01-27 09:32:55.13	339.70	50.11	-47.5	-49.2	18.5	0.00e+00	0	43	0	918552576	65	4672
2026-01-27 09:32:56.14	339.62	49.78	-47.4	-49.0	18.6	0.00e+00	0	43	0	919601152	65	4585
2026-01-27 09:32:57.14	339.54	49.45	-47.2	-48.7	18.9	0.00e+00	0	43	0	921698304	65	4424
2026-01-27 09:32:58.15	339.46	49.12	-47.4	-49.0	18.6	0.00e+00	0	43	0	923795456	65	4572
2026-01-27 09:32:59.15	339.39	48.79	-47.8	-49.5	18.3	0.00e+00	0	43	0	925892608	66	4585
2026-01-27 09:33:00.16	339.32	48.46	-48.5	-50.5	17.3	0.00e+00	0	43	0	927989760	67	4824
2026-01-27 09:33:01.17	339.24	48.14	-49.0	-51.1	16.7	0.00e+00	0	43	0	929038336	68	4921
2026-01-27 09:33:02.17	339.17	47.82	-49.0	-51.2	16.6	0.00e+00	0	43	0	931135488	68	4944
2026-01-27 09:33:03.18	339.11	47.50	-48.2	-50.1	17.6	0.00e+00	0	42	0	933232640	68	4369
2026-01-27 09:33:04.19	339.04	47.18	-47.7	-49.4	18.3	0.00e+00	0	43	0	935329792	67	4275
2026-01-27 09:33:05.20	338.97	46.87	-47.1	-48.7	18.9	0.00e+00	0	43	0	937426944	66	4153
2026-01-27 09:33:06.20	338.91	46.56	-46.6	-48.0	19.6	0.00e+00	0	43	0	938475520	65	4088
2026-01-27 09:33:07.21	338.84	46.25	-46.5	-47.9	19.8	0.00e+00	0	42	0	940572672	64	4246
2026-01-27 09:33:08.22	338.78	45.94	-46.6	-48.1	19.6	0.00e+00	0	43	0	942669824	64	4349
2026-01-27 09:33:09.23	338.72	45.63	-47.2	-48.8	18.8	0.00e+00	0	43	0	944766976	64	4742
2026-01-27 09:33:10.23	338.66	45.33	-47.8	-49.6	18.1	0.00e+00	0	42	0	946864128	66	4606
2026-01-27 09:33:11.24	338.60	45.03	-48.0	-49.9	17.7	0.00e+00	0	43	0	947912704	66	4787
2026-01-27 09:33:12.25	338.55	44.73	-48.2	-50.1	17.6	0.00e+00	0	43	0	950009856	67	4631
2026-01-27 09:33:13.25	338.49	44.44	-48.0	-49.9	17.8	0.00e+00	0	42	0	952107008	67	4524
2026-01-27 09:33:14.26	338.44	44.14	-47.3	-49.0	18.7	0.00e+00	0	43	0	954204160	66	4296
2026-01-27 09:33:15.27	338.38	43.85	-46.6	-48.1	19.4	0.00e+00	0	43	0	956301312	65	4117
2026-01-27 09:33:16.28	338.33	43.56	-46.1	-47.5	20.1	0.00e+00	0	43	0	957349888	64	4060
2026-01-27 09:33:17.29	338.28	43.27	-46.0	-47.3	20.2	0.00e+00	0	43	0	959447040	64	3994
2026-01-27 09:33:18.29	338.23	42.99	-45.7	-46.9	20.7	0.00e+00	0	43	0	961544192	63	4047
2026-01-27 09:33:19.30	338.18	42.70	-46.0	-47.3	20.3	0.00e+00	0	43	0	963641344	63	4231
2026-01-27 09:33:20.31	338.13	42.42	-46.5	-48.0	19.7	0.00e+00	0	43	0	965738496	63	4552
2026-01-27 09:33:21.31	338.08	42.14	-47.3	-49.0	18.6	0.00e+00	0	42	0	966787072	65	4552
2026-01-27 09:33:22.32	338.04	41.87	-47.8	-49.6	18.0	0.00e+00	0	43	0	968884224	66	4647
2026-01-27 09:33:23.32	337.99	41.59	-48.3	-50.2	17.5	0.00e+00	0	42	0	970981376	67	4696
2026-01-27 09:33:24.33	337.94	41.32	-48.3	-50.3	17.3	0.00e+00	0	42	0	973078528	67	4751
2026-01-27 09:33:25.33	337.90	41.05	-48.5	-50.6	17.1	0.00e+00	0	43	0	975175680	67	4883
2026-01-27 09:33:26.34	337.86	40.78	-48.4	-50.4	17.2	0.00e+00	0	43	0	976224256	67	4798
2026-01-27 09:33:27.35	337.81	40.51	-48.1	-50.0	17.6	0.00e+00	0	43	0	978321408	67	4559
2026-01-27 09:33:28.35	337.77	40.25	-48.0	-49.8	17.8	0.00e+00	0	43	0	980418560	67	4477
2026-01-27 09:33:29.36	337.73	39.99	-47.7	-49.5	18.1	0.00e+00	0	43	0	982515712	67	4294
2026-01-27 09:33:30.37	337.69	39.72	-47.4	-49.1	18.4	0.00e+00	0	42	0	984612864	66	4365
2026-01-27 09:33:31.37	337.65	39.47	-47.2	-48.8	18.6	0.00e+00	0	42	0	985661440	66	4237
2026-01-27 09:33:32.38	337.61	39.21	-47.3	-49.0	18.6	0.00e+00	0	43	0	987758592	66	4295
2026-01-27 09:33:33.39	337.57	38.95	-47.7	-49.4	18.2	0.00e+00	0	43	0	989855744	66	4532
2026-01-27 09:33:34.40	337.53	38.70	-48.1	-50.0	17.6	0.00e+00	0	43	0	991952896	66	4855
2026-01-27 09:33:35.40	337.50	38.45	-48.3	-50.3	17.4	0.00e+00	0	43	0	994050048	67	4727
2026-01-27 09:33:36.41	337.46	38.20	-48.4	-50.5	17.1	0.00e+00	0	43	0	995098624	67	4822
2026-01-27 09:33:37.42	337.43	37.95	-48.8	-51.1	16.6	0.00e+00	0	42	0	997195776	68	4873
2026-01-27 09:33:38.43	337.39	37.70	-49.0	-51.3	16.4	0.00e+00	0	43	0	999292928	68	5008
2026-01-27 09:33:39.43	337.36	37.46	-48.8	-51.0	16.7	0.00e+00	0	43	0	1001390080	68	4821
2026-01-27 09:33:40.44	337.32	37.22	-48.8	-51.0	16.7	0.00e+00	0	43	0	1003487232	68	4834
2026-01-27 09:33:41.45	337.29	36.98	-48.6	-50.7	17.0	0.00e+00	0	43	0	1004535808	68	4673
2026-01-27 09:33:42.45	337.25	36.74	-48.3	-50.3	17.4	0.00e+00	0	43	0	1006632960	68	4483
2026-01-27 09:33:43.46	337.22	36.50	-48.0	-49.9	17.8	0.00e+00	0	43	0	1008730112	68	4244
2026-01-27 09:33:44.47	337.19	36.26	-47.6	-49.3	18.3	0.00e+00	0	43	0	1010827264	67	4232
2026-01-27 09:33:45.48	337.16	36.03	-47.3	-49.0	18.6	0.00e+00	0	43	0	1012924416	66	4300
2026-01-27 09:33:46.48	337.13	35.80	-47.3	-48.9	18.6	0.00e+00	0	43	0	1013972992	66	4290
2026-01-27 09:33:47.48	337.10	35.57	-47.2	-48.8	18.7	0.00e+00	0	43	0	1016070144	66	4237
2026-01-27 09:33:48.49	337.07	35.34	-47.2	-48.8	18.7	0.00e+00	0	43	0	1018167296	66	4232
2026-01-27 09:33:49.49	337.04	35.11	-47.3	-49.0	18.5	0.00e+00	0	43	0	1020264448	66	4306
2026-01-27 09:33:50.50	337.01	34.89	-47.5	-49.3	18.3	0.00e+00	0	43	0	1022361600	66	4452
2026-01-27 09:33:51.50	336.98	34.67	-47.7	-49.5	18.0	0.00e+00	0	43	0	1023410176	66	4596
2026-01-27 09:33:52.51	336.95	34.44	-48.0	-49.9	17.6	0.00e+00	0	43	0	1025507328	66	4796
2026-01-27 09:33:53.52	336.92	34.22	-48.3	-50.3	17.3	0.00e+00	0	43	0	1027604480	67	4736
2026-01-27 09:33:54.53	336.90	34.00	-48.6	-50.7	16.8	0.00e+00	0	43	0	1029701632	67	4977
2026-01-27 09:33:55.53	336.87	33.78	-48.8	-51.0	16.6	0.00e+00	0	43	0	1031798784	68	4846
2026-01-27 09:33:56.54	336.84	33.57	-48.9	-51.2	16.4	0.00e+00	0	43	0	1032847360	68	4953
2026-01-27 09:33:57.55	336.82	33.35	-49.0	-51.4	16.2	0.00e+00	0	43	0	1034944512	68	5061
2026-01-27 09:33:58.55	336.79	33.14	-49.1	-51.5	16.1	0.00e+00	0	43	0	1037041664	68	5104
2026-01-27 09:33:59.56	336.77	32.93	-49.0	-51.3	16.3	0.00e+00	0	43	0	1039138816	68	5004
2026-01-27 09:34:00.57	336.74	32.72	-48.9	-51.2	16.4	0.00e+00	0	43	0	1041235968	68	4947
2026-01-27 09:34:01.58	336.72	32.51	-49.0	-51.3	16.3	0.00e+00	0	43	0	1042284544	68	5027
2026-01-27 09:34:02.58	336.69	32.30	-48.8	-51.0	16.6	0.00e+00	0	43	0	1044381696	68	4827
2026-01-27 09:34:03.59	336.67	32.09	-48.5	-50.5	17.0	0.00e+00	0	43	0	1046478848	68	4592
2026-01-27 09:34:04.60	336.65	31.89	-48.2	-50.1	17.5	0.00e+00	0	43	0	1048576000	68	4377
2026-01-27 09:34:05.61	336.62	31.69	-48.1	-50.0	17.6	0.00e+00	0	43	0	1050673152	68	4300
2026-01-27 09:34:06.61	336.60	31.49	-47.9	-49.7	17.7	0.00e+00	0	43	0	1051721728	67	4428
2026-01-27 09:34:07.62	336.58	31.28	-47.8	-49.7	17.8	0.00e+00	0	43	0	1053818880	67	4407
2026-01-27 09:34:08.63	336.55	31.08	-47.6	-49.4	18.0	0.00e+00	0	43	0	1055916032	67	4275
2026-01-27 09:34:09.63	336.53	30.89	-47.8	-49.6	17.8	0.00e+00	0	43	0	1058013184	67	4360
2026-01-27 09:34:10.64	336.51	30.69	-47.7	-49.6	17.9	0.00e+00	0	43	0	1060110336	67	4351
2026-01-27 09:34:11.65	336.49	30.50	-47.8	-49.7	17.8	0.00e+00	0	43	0	1061158912	67	4403
2026-01-27 09:34:12.66	336.47	30.30	-47.8	-49.7	17.8	0.00e+00	0	43	0	1063256064	67	4397
2026-01-27 09:34:13.66	336.45	30.11	-47.9	-49.7	17.7	0.00e+00	0	43	0	1065353216	67	4433
2026-01-27 09:34:14.67	336.43	29.92	-47.9	-49.8	17.6	0.00e+00	0	43	0	1067450368	67	4453
2026-01-27 09:34:15.68	336.41	29.73	-47.8	-49.7	17.7	0.00e+00	0	43	0	1069547520	67	4420
2026-01-27 09:34:16.69	336.39	29.54	-47.8	-49.7	17.7	0.00e+00	0	43	0	1070596096	67	4432
2026-01-27 09:34:17.70	336.37	29.35	-47.8	-49.6	17.8	0.00e+00	0	43	0	1072693248	67	4375
2026-01-27 09:34:18.70	336.35	29.17	-47.8	-49.7	17.7	0.00e+00	0	43	0	1074790400	67	4415
2026-01-27 09:34:19.71	336.33	28.98	-47.8	-49.6	17.7	0.00e+00	0	43	0	1076887552	67	4389
2026-01-27 09:34:20.72	336.31	28.80	-47.8	-49.7	17.7	0.00e+00	0	42	0	1078984704	67	4428
2026-01-27 09:34:21.73	336.29	28.61	-47.7	-49.6	17.8	0.00e+00	0	43	0	1080033280	67	4342
2026-01-27 09:34:22.74	336.28	28.43	-47.5	-49.3	18.1	0.00e+00	0	43	0	1082130432	67	4211
2026-01-27 09:34:23.74	336.26	28.25	-47.5	-49.2	18.1	0.00e+00	0	43	0	1084227584	67	4187
2026-01-27 09:34:24.75	336.24	28.07	-47.2	-48.9	18.5	0.00e+00	0	43	0	1086324736	66	4246
2026-01-27 09:34:25.75	336.22	27.90	-47.1	-48.7	18.7	0.00e+00	0	43	0	1088421888	66	4161
2026-01-27 09:34:26.76	336.21	27.72	-46.8	-48.4	18.9	0.00e+00	0	43	0	1089470464	65	4272
2026-01-27 09:34:27.77	336.19	27.54	-46.7	-48.3	19.0	0.00e+00	0	43	0	1091567616	65	4201
2026-01-27 09:34:28.78	336.17	27.37	-46.4	-47.9	19.4	0.00e+00	0	43	0	1093664768	64	4267
2026-01-27 09:34:29.78	336.16	27.20	-46.1	-47.5	19.7	0.00e+00	0	43	0	1095761920	64	4079
2026-01-27 09:34:30.79	336.14	27.02	-46.0	-47.4	19.8	0.00e+00	0	43	0	1097859072	64	4028
2026-01-27 09:34:31.80	336.12	26.85	-46.0	-47.3	20.0	0.00e+00	0	43	0	1099956224	63	4221
2026-01-27 09:34:32.81	336.11	26.68	-46.0	-47.4	19.9	0.00e+00	0	43	0	1101004800	63	4250
2026-01-27 09:34:33.81	336.09	26.51	-45.9	-47.3	20.0	0.00e+00	0	43	0	1103101952	63	4202
2026-01-27 09:34:34.82	336.08	26.34	-45.8	-47.2	20.1	0.00e+00	0	43	0	1105199104	63	4166
2026-01-27 09:34:35.82	336.06	26.18	-45.8	-47.1	20.1	0.00e+00	0	43	0	1107296256	63	4144
2026-01-27 09:34:36.83	336.05	26.01	-45.8	-47.2	20.1	0.00e+00	0	43	0	1108344832	63	4164
2026-01-27 09:34:37.84	336.03	25.85	-45.7	-47.0	20.2	0.00e+00	0	43	0	1110441984	63	4092
2026-01-27 09:34:38.85	336.02	25.68	-45.8	-47.2	20.1	0.00e+00	0	43	0	1112539136	63	4147
2026-01-27 09:34:39.85	336.00	25.52	-45.7	-47.1	20.2	0.00e+00	0	43	0	1114636288	63	4106
2026-01-27 09:34:40.86	335.99	25.36	-45.8	-47.2	20.0	0.00e+00	0	43	0	1116733440	63	4161
2026-01-27 09:34:41.86	335.97	25.20	-45.8	-47.2	20.1	0.00e+00	0	43	0	1117782016	63	4154
2026-01-27 09:34:42.87	335.96	25.04	-45.9	-47.3	20.0	0.00e+00	0	43	0	1119879168	63	4196
2026-01-27 09:34:43.88	335.95	24.88	-45.9	-47.3	20.0	0.00e+00	0	43	0	1121976320	63	4213
2026-01-27 09:34:44.89	335.93	24.72	-46.0	-47.4	19.9	0.00e+00	0	43	0	1124073472	63	4257
2026-01-27 09:34:45.89	335.92	24.56	-45.9	-47.3	19.9	0.00e+00	0	43	0	1126170624	63	4229
2026-01-27 09:34:46.90	335.91	24.41	-45.8	-47.2	20.0	0.00e+00	0	43	0	1128267776	63	4173
2026-01-27 09:34:47.91	335.89	24.25	-45.8	-47.2	20.0	0.00e+00	0	43	0	1129316352	63	4166
2026-01-27 09:34:48.91	335.88	24.10	-45.8	-47.1	20.1	0.00e+00	0	43	0	1131413504	63	4129
2026-01-27 09:34:49.92	335.87	23.94	-45.7	-47.1	20.1	0.00e+00	0	43	0	1133510656	63	4121
2026-01-27 09:34:50.93	335.85	23.79	-45.7	-47.1	20.2	0.00e+00	0	43	0	1135607808	63	4105
2026-01-27 09:34:51.94	335.84	23.64	-45.8	-47.2	20.0	0.00e+00	0	42	0	1136656384	63	4154
2026-01-27 09:34:52.94	335.83	23.49	-45.7	-47.0	20.2	0.00e+00	0	43	0	1138753536	63	4076
2026-01-27 09:34:53.95	335.82	23.34	-45.6	-46.9	20.3	0.00e+00	0	43	0	1140850688	63	4023
2026-01-27 09:34:54.95	335.81	23.19	-45.5	-46.9	20.3	0.00e+00	0	43	0	1142947840	63	4011
2026-01-27 09:34:55.96	335.79	23.04	-45.5	-46.8	20.3	0.00e+00	0	43	0	1145044992	62	4211
2026-01-27 09:34:56.97	335.78	22.89	-45.3	-46.6	20.6	0.00e+00	0	43	0	1146093568	62	4113
2026-01-27 09:34:57.98	335.77	22.75	-45.2	-46.5	20.6	0.00e+00	0	43	0	1148190720	62	4074
2026-01-27 09:34:58.99	335.76	22.60	-45.2	-46.4	20.6	0.00e+00	0	43	0	1150287872	62	4051
2026-01-27 09:35:00.00	335.75	22.46	-45.1	-46.3	20.7	0.00e+00	0	42	0	1152385024	62	3993
2026-01-27 09:35:01.01	335.74	22.31	-45.0	-46.3	20.8	0.00e+00	0	43	0	1154482176	62	3961
2026-01-27 09:35:02.01	335.73	22.17	-45.1	-46.4	20.7	0.00e+00	0	43	0	1156579328	62	4017
2026-01-27 09:35:03.02	335.72	22.03	-45.1	-46.3	20.8	0.00e+00	0	43	0	1157627904	62	3983
2026-01-27 09:35:04.02	335.71	21.89	-45.1	-46.4	20.6	0.00e+00	0	43	0	1159725056	62	4022
2026-01-27 09:35:05.02	335.70	21.75	-45.2	-46.4	20.6	0.00e+00	0	43	0	1161822208	61	4278
2026-01-27 09:35:06.03	335.69	21.61	-45.0	-46.3	20.8	0.00e+00	0	42	0	1163919360	61	4198
2026-01-27 09:35:07.03	335.68	21.47	-45.2	-46.4	20.7	0.00e+00	0	43	0	1164967936	61	4290
2026-01-27 09:35:08.04	335.67	21.33	-45.3	-46.6	20.5	0.00e+00	0	43	0	1167065088	61	4355
2026-01-27 09:35:09.05	335.66	21.19	-45.4	-46.7	20.4	0.00e+00	0	43	0	1169162240	61	4395
2026-01-27 09:35:10.06	335.65	21.05	-45.5	-46.8	20.3	0.00e+00	0	42	0	1171259392	61	4458
2026-01-27 09:35:11.06	335.64	20.92	-45.6	-46.9	20.2	0.00e+00	0	43	0	1173356544	61	4528
2026-01-27 09:35:12.07	335.63	20.78	-45.5	-46.9	20.2	0.00e+00	0	43	0	1174405120	61	4506
2026-01-27 09:35:13.08	335.62	20.65	-45.7	-47.0	20.1	0.00e+00	0	43	0	1176502272	61	4584
2026-01-27 09:35:14.08	335.61	20.51	-45.8	-47.2	19.9	0.00e+00	0	43	0	1178599424	62	4394
2026-01-27 09:35:15.09	335.60	20.38	-45.8	-47.2	19.9	0.00e+00	0	42	0	1180696576	62	4412
2026-01-27 09:35:16.10	335.59	20.25	-45.9	-47.3	19.7	0.00e+00	0	42	0	1182793728	62	4465
2026-01-27 09:35:17.11	335.58	20.11	-45.9	-47.3	19.8	0.00e+00	0	43	0	1184890880	62	4473
2026-01-27 09:35:18.11	335.57	19.98	-45.8	-47.2	19.9	0.00e+00	0	43	0	1185939456	62	4430
2026-01-27 09:35:19.12	335.56	19.85	-45.9	-47.3	19.8	0.00e+00	0	43	0	1188036608	62	4460
2026-01-27 09:35:20.12	335.55	19.72	-45.9	-47.3	19.7	0.00e+00	0	43	0	1190133760	62	4492
2026-01-27 09:35:21.13	335.55	19.59	-45.9	-47.4	19.7	0.00e+00	0	43	0	1192230912	62	4497
2026-01-27 09:35:22.14	335.54	19.47	-46.0	-47.4	19.7	0.00e+00	0	43	0	1193279488	62	4517
2026-01-27 09:35:23.15	335.53	19.34	-46.0	-47.4	19.6	0.00e+00	0	42	0	1195376640	62	4541
2026-01-27 09:35:24.16	335.52	19.21	-46.0	-47.4	19.7	0.00e+00	0	43	0	1197473792	62	4524
2026-01-27 09:35:25.16	335.51	19.08	-46.0	-47.5	19.6	0.00e+00	0	43	0	1199570944	62	4553
2026-01-27 09:35:26.17	335.50	18.96	-45.9	-47.3	19.7	0.00e+00	0	43	0	1201668096	62	4479
2026-01-27 09:35:27.18	335.50	18.83	-45.9	-47.4	19.7	0.00e+00	0	43	0	1202716672	62	4502
2026-01-27 09:35:28.18	335.49	18.71	-46.0	-47.4	19.6	0.00e+00	0	43	0	1204813824	62	4530
2026-01-27 09:35:29.19	335.48	18.58	-46.1	-47.5	19.5	0.00e+00	0	43	0	1206910976	62	4582
2026-01-27 09:35:30.20	335.47	18.46	-46.2	-47.6	19.5	0.00e+00	0	43	0	1209008128	62	4638
2026-01-27 09:35:31.20	335.47	18.34	-46.0	-47.5	19.6	0.00e+00	0	43	0	1211105280	62	4576
2026-01-27 09:35:32.21	335.46	18.22	-46.0	-47.4	19.6	0.00e+00	0	43	0	1213202432	62	4529
2026-01-27 09:35:33.22	335.45	18.09	-46.0	-47.4	19.6	0.00e+00	0	43	0	1214251008	62	4544
2026-01-27 09:35:34.22	335.44	17.97	-46.0	-47.5	19.6	0.00e+00	0	42	0	1216348160	62	4548
2026-01-27 09:35:35.23	335.44	17.85	-46.0	-47.5	19.6	0.00e+00	0	43	0	1218445312	62	4566
2026-01-27 09:35:36.24	335.43	17.73	-46.1	-47.5	19.5	0.00e+00	0	43	0	1220542464	62	4585
2026-01-27 09:35:37.24	335.42	17.61	-46.1	-47.5	19.6	0.00e+00	0	42	0	1221591040	62	4585
2026-01-27 09:35:38.25	335.42	17.49	-46.1	-47.5	19.5	0.00e+00	0	43	0	1223688192	62	4589
2026-01-27 09:35:39.26	335.41	17.38	-46.2	-47.7	19.4	0.00e+00	0	43	0	1225785344	62	4653
2026-01-27 09:35:40.27	335.40	17.26	-46.3	-47.8	19.2	0.00e+00	0	43	0	1227882496	63	4489
2026-01-27 09:35:41.28	335.40	17.14	-46.2	-47.7	19.3	0.00e+00	0	42	0	1229979648	63	4421
2026-01-27 09:35:42.28	335.39	17.03	-46.3	-47.8	19.2	0.00e+00	0	43	0	1231028224	63	4489
2026-01-27 09:35:43.29	335.38	16.91	-46.4	-47.9	19.2	0.00e+00	0	43	0	1233125376	63	4512
2026-01-27 09:35:44.30	335.38	16.79	-46.4	-47.9	19.1	0.00e+00	0	43	0	1235222528	63	4538
