passes_logs/2026/01/27/R3.2S_Murmansk/R3.2S_Murmansk__20260127_051620_NOAA_21_JPSS-2_rec.log

#Pass ID: 20260127_051620_NOAA 21 (JPSS-2)
#Satellite: NOAA 21 (JPSS-2)
#Configuration: NOAA-21
#almurnet v.1.7.20251203
#Start time: 2026-01-27 05:16:20

#Version: 2.2.20231116
#Station: R3.2S_Murmansk
#Location: 33.079688 lon 68.888172 lat
#TLE: 1 54234U 22150A   26026.43130734  .00000179  00000+0  10559-3 0  9998
#TLE: 2 54234  98.7509 327.1934 0000805 209.8356 150.2774 14.19539635166435

#Time	Az	El	Level	Level2	SNR	BER	BlckErr	Temp	State	Recorded	gain1	gain2
2026-01-27 05:16:20.18	63.83	1.97	-54.1	-66.8	3.8	1.49e+00	0	43	0	0	79	15934
2026-01-27 05:16:21.18	63.77	2.03	-54.1	-66.9	3.8	1.49e+00	0	43	104	0	78	16888
2026-01-27 05:16:22.19	63.70	2.09	-54.1	-66.9	3.8	1.49e+00	0	43	104	0	78	16888
2026-01-27 05:16:23.19	63.64	2.14	-54.1	-66.8	3.8	1.49e+00	0	43	104	0	78	16817
2026-01-27 05:16:24.20	63.57	2.20	-54.0	-66.8	3.8	1.49e+00	0	43	104	0	78	16830
2026-01-27 05:16:25.21	63.51	2.26	-54.0	-66.8	3.8	1.49e+00	0	43	104	0	78	16757
2026-01-27 05:16:26.22	63.44	2.31	-54.0	-66.8	3.8	1.49e+00	0	43	104	0	78	16767
2026-01-27 05:16:27.23	63.38	2.37	-54.1	-66.8	3.8	1.49e+00	0	43	104	0	78	16834
2026-01-27 05:16:28.24	63.31	2.43	-54.1	-66.8	3.8	1.49e+00	0	43	104	0	78	16829
2026-01-27 05:16:29.25	63.24	2.49	-54.0	-66.8	3.8	1.49e+00	0	43	104	0	78	16763
2026-01-27 05:16:30.25	63.18	2.55	-54.0	-66.8	3.8	1.49e+00	0	43	104	0	78	16785
2026-01-27 05:16:31.26	63.11	2.60	-54.0	-66.8	3.8	1.49e+00	0	43	104	0	78	16740
2026-01-27 05:16:32.27	63.04	2.66	-54.0	-66.8	3.8	1.49e+00	0	43	104	0	78	16736
2026-01-27 05:16:33.28	62.98	2.72	-54.0	-66.8	3.8	1.49e+00	0	43	104	0	78	16714
2026-01-27 05:16:34.29	62.91	2.78	-54.0	-66.8	3.8	1.49e+00	0	43	104	0	78	16712
2026-01-27 05:16:35.29	62.84	2.83	-54.0	-66.8	3.8	1.49e+00	0	43	104	0	78	16718
2026-01-27 05:16:36.30	62.77	2.89	-54.0	-66.7	3.8	1.49e+00	0	43	104	0	78	16688
2026-01-27 05:16:37.30	62.71	2.95	-54.0	-66.8	3.8	1.49e+00	0	43	104	0	78	16728
2026-01-27 05:16:38.30	62.64	3.01	-54.0	-66.7	3.8	1.49e+00	0	43	104	0	78	16645
2026-01-27 05:16:39.31	62.57	3.07	-54.0	-66.7	3.8	1.49e+00	0	43	104	0	78	16660
2026-01-27 05:16:40.32	62.50	3.13	-54.2	-66.9	3.8	1.49e+00	0	43	104	0	78	17039
2026-01-27 05:16:41.33	62.43	3.19	-54.2	-66.9	3.8	1.49e+00	0	43	104	0	78	17067
2026-01-27 05:16:42.33	62.36	3.24	-54.2	-66.9	3.8	1.49e+00	0	43	104	0	78	17079
2026-01-27 05:16:43.34	62.29	3.30	-54.2	-66.9	3.8	1.49e+00	0	43	104	0	78	17073
2026-01-27 05:16:44.35	62.22	3.36	-54.2	-66.9	3.8	1.49e+00	0	43	104	0	78	17080
2026-01-27 05:16:45.36	62.15	3.42	-54.1	-66.9	3.8	1.49e+00	0	43	104	0	78	16997
2026-01-27 05:16:46.37	62.08	3.48	-54.1	-66.9	3.8	1.49e+00	0	43	104	0	78	16895
2026-01-27 05:16:47.37	62.00	3.54	-54.1	-66.8	3.8	1.49e+00	0	43	104	0	78	16865
2026-01-27 05:16:48.39	61.93	3.60	-54.0	-66.8	3.8	1.49e+00	0	43	104	0	78	16757
2026-01-27 05:16:49.39	61.86	3.66	-54.0	-66.7	3.8	1.49e+00	0	43	104	0	78	16652
2026-01-27 05:16:50.40	61.79	3.72	-53.9	-66.6	3.8	1.49e+00	0	43	104	0	78	16467
2026-01-27 05:16:51.41	61.72	3.78	-53.8	-66.6	3.8	1.49e+00	0	43	104	0	78	16356
2026-01-27 05:16:52.41	61.64	3.83	-53.8	-66.6	3.8	1.49e+00	0	43	104	0	78	16344
2026-01-27 05:16:53.42	61.57	3.89	-53.7	-66.4	3.8	1.49e+00	0	43	104	0	78	16121
2026-01-27 05:16:54.42	61.50	3.95	-53.7	-66.4	3.8	1.49e+00	0	43	104	0	78	16039
2026-01-27 05:16:55.43	61.42	4.01	-53.6	-66.3	3.8	1.49e+00	0	43	104	0	78	15937
2026-01-27 05:16:56.43	61.35	4.07	-53.5	-66.2	3.8	1.49e+00	0	43	104	0	78	15667
2026-01-27 05:16:57.44	61.27	4.13	-53.4	-66.1	3.8	1.49e+00	0	43	104	0	78	15477
2026-01-27 05:16:58.45	61.20	4.19	-53.2	-65.9	3.8	1.49e+00	0	43	104	0	78	15150
2026-01-27 05:16:59.46	61.12	4.25	-53.0	-65.7	3.8	1.49e+00	0	43	104	0	78	14842
2026-01-27 05:17:00.46	61.05	4.31	-52.8	-65.2	3.8	1.49e+00	0	43	104	0	77	14735
2026-01-27 05:17:01.47	60.97	4.37	-52.4	-65.1	3.8	1.49e+00	0	43	104	0	76	15459
2026-01-27 05:17:02.47	60.90	4.43	-51.8	-60.9	4.3	1.43e+00	0	43	104	0	75	10098
2026-01-27 05:17:03.48	60.82	4.49	-51.8	-61.0	4.3	1.45e+00	0	43	104	0	75	10224
2026-01-27 05:17:04.49	60.74	4.56	-51.8	-60.9	4.3	1.46e+00	0	43	104	0	75	10117
2026-01-27 05:17:05.50	60.67	4.62	-51.7	-60.1	4.6	1.30e+00	0	43	104	0	75	9245
2026-01-27 05:17:06.51	60.59	4.68	-51.4	-58.6	5.4	5.79e-01	0	43	0	1048576	74	8202
2026-01-27 05:17:07.52	60.51	4.74	-50.9	-56.5	7.0	1.83e-01	0	43	0	3145728	73	6835
2026-01-27 05:17:08.53	60.43	4.80	-50.3	-55.0	8.6	6.05e-02	0	43	0	6291456	72	6064
2026-01-27 05:17:09.53	60.35	4.86	-49.9	-53.7	9.9	1.34e-02	0	43	0	9437184	71	5574
2026-01-27 05:17:10.54	60.28	4.92	-49.2	-52.4	11.4	2.25e-03	0	43	0	12582912	70	5049
2026-01-27 05:17:11.55	60.20	4.98	-48.8	-51.6	12.1	3.77e-04	0	43	0	15728640	69	4915
2026-01-27 05:17:12.56	60.12	5.04	-47.0	-48.9	14.9	1.75e-05	0	43	0	18874368	66	4248
2026-01-27 05:17:13.57	60.04	5.10	-49.4	-52.6	11.3	2.37e-04	0	43	0	22020096	69	5527
2026-01-27 05:17:14.57	59.96	5.17	-48.9	-51.8	11.9	1.17e-01	0	43	0	25165824	69	5017
2026-01-27 05:17:15.58	59.88	5.23	-46.4	-48.0	15.5	2.65e-03	0	43	0	28311552	64	4336
2026-01-27 05:17:16.59	59.80	5.29	-50.8	-56.5	7.8	0.00e+00	0	43	0	32505856	72	7282
2026-01-27 05:17:17.59	59.71	5.35	-47.5	-49.6	13.7	1.48e+00	2	43	104	32505856	67	4347
2026-01-27 05:17:18.60	59.63	5.41	-44.7	-45.9	17.9	0.00e+00	0	43	0	34603008	61	4048
2026-01-27 05:17:19.61	59.55	5.47	-44.6	-45.9	17.9	0.00e+00	0	43	0	37748736	61	4025
2026-01-27 05:17:20.62	59.47	5.54	-44.7	-46.0	17.9	0.00e+00	0	43	0	40894464	61	4061
2026-01-27 05:17:21.63	59.38	5.60	-44.7	-45.9	17.9	0.00e+00	0	43	0	44040192	61	4038
2026-01-27 05:17:22.63	59.30	5.66	-44.7	-46.0	17.9	0.00e+00	0	43	0	47185920	61	4062
2026-01-27 05:17:23.64	59.22	5.72	-44.6	-45.8	18.0	0.00e+00	0	43	0	50331648	61	3993
2026-01-27 05:17:24.65	59.13	5.79	-44.8	-46.0	17.8	0.00e+00	0	43	0	53477376	61	4087
2026-01-27 05:17:25.65	59.05	5.85	-44.6	-45.8	18.1	0.00e+00	0	43	0	56623104	61	3979
2026-01-27 05:17:26.66	58.97	5.91	-44.3	-45.5	18.3	0.00e+00	0	43	0	59768832	60	4087
2026-01-27 05:17:27.67	58.88	5.97	-44.7	-46.0	17.9	0.00e+00	0	43	0	62914560	60	4296
2026-01-27 05:17:28.68	58.80	6.04	-44.7	-46.0	17.9	0.00e+00	0	43	0	66060288	60	4294
2026-01-27 05:17:29.69	58.71	6.10	-44.6	-45.9	18.0	0.00e+00	0	43	0	69206016	60	4251
2026-01-27 05:17:30.70	58.62	6.16	-44.7	-46.0	17.9	0.00e+00	0	43	0	72351744	60	4314
2026-01-27 05:17:31.71	58.54	6.22	-44.7	-45.9	18.0	0.00e+00	0	43	0	75497472	60	4280
2026-01-27 05:17:32.71	58.45	6.29	-44.5	-45.8	18.2	0.00e+00	0	43	0	78643200	60	4204
2026-01-27 05:17:33.73	58.36	6.35	-44.5	-45.7	18.2	0.00e+00	0	43	0	81788928	60	4174
2026-01-27 05:17:34.73	58.28	6.41	-44.6	-45.8	18.2	0.00e+00	0	43	0	84934656	60	4217
2026-01-27 05:17:35.74	58.19	6.48	-44.4	-45.6	18.3	0.00e+00	0	43	0	88080384	60	4130
2026-01-27 05:17:36.74	58.10	6.54	-44.4	-45.6	18.3	0.00e+00	0	43	0	91226112	60	4134
2026-01-27 05:17:37.75	58.01	6.60	-44.5	-45.7	18.3	0.00e+00	0	43	0	94371840	60	4159
2026-01-27 05:17:38.76	57.92	6.67	-44.2	-45.3	18.7	0.00e+00	0	43	0	97517568	60	3983
2026-01-27 05:17:39.77	57.83	6.73	-44.2	-45.4	18.6	0.00e+00	0	43	0	100663296	60	4008
2026-01-27 05:17:40.79	57.74	6.80	-44.3	-45.4	18.5	0.00e+00	0	43	0	103809024	60	4043
2026-01-27 05:17:41.79	57.65	6.86	-44.1	-45.3	18.7	0.00e+00	0	43	0	106954752	60	3967
2026-01-27 05:17:42.80	57.56	6.92	-44.0	-45.2	18.8	0.00e+00	0	43	0	110100480	60	3922
2026-01-27 05:17:43.81	57.47	6.99	-44.1	-45.2	18.8	0.00e+00	0	43	0	113246208	60	3953
2026-01-27 05:17:44.82	57.38	7.05	-44.3	-45.4	18.6	0.00e+00	0	43	0	116391936	60	4037
2026-01-27 05:17:45.83	57.28	7.12	-44.3	-45.4	18.6	0.00e+00	0	43	0	119537664	60	4041
2026-01-27 05:17:46.84	57.19	7.18	-44.2	-45.3	18.7	0.00e+00	0	43	0	122683392	60	3983
2026-01-27 05:17:47.85	57.10	7.24	-44.5	-45.7	18.6	0.00e+00	0	43	0	125829120	59	4409
2026-01-27 05:17:48.85	57.00	7.31	-44.4	-45.6	18.7	0.00e+00	0	43	0	128974848	59	4355
2026-01-27 05:17:49.86	56.91	7.37	-44.4	-45.5	18.8	0.00e+00	0	43	0	132120576	59	4328
2026-01-27 05:17:50.87	56.82	7.44	-44.2	-45.3	19.0	0.00e+00	0	43	0	135266304	59	4227
2026-01-27 05:17:51.88	56.72	7.50	-44.3	-45.4	18.9	0.00e+00	0	43	0	138412032	59	4278
2026-01-27 05:17:52.89	56.63	7.57	-44.2	-45.3	19.0	0.00e+00	0	43	0	141557760	59	4231
2026-01-27 05:17:53.89	56.53	7.63	-44.1	-45.3	19.1	0.00e+00	0	43	0	144703488	59	4203
2026-01-27 05:17:54.90	56.43	7.70	-44.1	-45.2	19.1	0.00e+00	0	43	0	147849216	59	4185
2026-01-27 05:17:55.91	56.34	7.76	-44.2	-45.3	19.1	0.00e+00	0	43	0	150994944	59	4218
2026-01-27 05:17:56.92	56.24	7.83	-44.1	-45.2	19.1	0.00e+00	0	43	0	154140672	59	4191
2026-01-27 05:17:57.93	56.14	7.89	-44.0	-45.1	19.3	0.00e+00	0	43	0	157286400	59	4138
2026-01-27 05:17:58.93	56.05	7.96	-44.0	-45.1	19.3	0.00e+00	0	43	0	160432128	59	4125
2026-01-27 05:17:59.94	55.95	8.02	-44.1	-45.2	19.2	0.00e+00	0	43	0	163577856	59	4151
2026-01-27 05:18:00.95	55.85	8.09	-43.8	-44.9	19.5	0.00e+00	0	43	0	166723584	59	4022
2026-01-27 05:18:01.96	55.75	8.16	-44.0	-45.1	19.3	0.00e+00	0	43	0	169869312	59	4137
2026-01-27 05:18:02.97	55.65	8.22	-44.0	-45.1	19.3	0.00e+00	0	43	0	173015040	59	4125
2026-01-27 05:18:03.98	55.55	8.29	-43.9	-45.0	19.5	0.00e+00	0	43	0	176160768	59	4052
2026-01-27 05:18:04.99	55.45	8.35	-43.9	-45.0	19.4	0.00e+00	0	43	0	179306496	59	4072
2026-01-27 05:18:05.99	55.35	8.42	-43.7	-44.8	19.6	0.00e+00	0	43	0	182452224	59	3960
2026-01-27 05:18:07.00	55.25	8.48	-43.8	-44.8	19.6	0.00e+00	0	43	0	185597952	59	4001
2026-01-27 05:18:08.01	55.14	8.55	-43.8	-44.9	19.5	0.00e+00	0	43	0	188743680	59	4014
2026-01-27 05:18:09.01	55.04	8.62	-43.7	-44.7	19.7	0.00e+00	0	43	0	191889408	59	3945
2026-01-27 05:18:10.02	54.94	8.68	-43.7	-44.8	19.6	0.00e+00	0	43	0	195035136	59	3967
2026-01-27 05:18:11.03	54.83	8.75	-43.8	-44.8	19.6	0.00e+00	0	43	0	198180864	59	3983
2026-01-27 05:18:12.03	54.73	8.82	-43.8	-44.8	19.6	0.00e+00	0	43	0	201326592	59	3993
2026-01-27 05:18:13.04	54.63	8.88	-43.7	-44.8	19.7	0.00e+00	0	43	0	204472320	59	3968
2026-01-27 05:18:14.05	54.52	8.95	-43.5	-44.5	19.9	0.00e+00	0	43	0	207618048	58	4063
2026-01-27 05:18:15.06	54.42	9.02	-43.8	-44.8	19.6	0.00e+00	0	43	0	210763776	58	4230
2026-01-27 05:18:16.07	54.31	9.08	-43.7	-44.8	19.7	0.00e+00	0	43	0	213909504	58	4198
2026-01-27 05:18:17.08	54.20	9.15	-43.6	-44.6	19.9	0.00e+00	0	43	0	217055232	58	4117
2026-01-27 05:18:18.09	54.10	9.22	-43.5	-44.6	19.9	0.00e+00	0	43	0	220200960	58	4108
2026-01-27 05:18:19.10	53.99	9.28	-43.7	-44.7	19.8	0.00e+00	0	43	0	223346688	58	4171
2026-01-27 05:18:20.11	53.88	9.35	-43.6	-44.6	19.9	0.00e+00	0	43	0	226492416	58	4119
2026-01-27 05:18:21.12	53.77	9.42	-43.3	-44.3	20.1	0.00e+00	0	43	0	229638144	58	3997
2026-01-27 05:18:22.12	53.66	9.49	-43.5	-44.5	19.9	0.00e+00	0	43	0	232783872	58	4082
2026-01-27 05:18:23.12	53.55	9.55	-43.4	-44.4	20.0	0.00e+00	0	43	0	235929600	58	4051
2026-01-27 05:18:24.13	53.44	9.62	-43.5	-44.5	20.0	0.00e+00	0	43	0	239075328	58	4081
2026-01-27 05:18:25.14	53.33	9.69	-43.5	-44.5	20.0	0.00e+00	0	43	0	242221056	58	4068
2026-01-27 05:18:26.15	53.22	9.76	-43.5	-44.5	20.0	0.00e+00	0	43	0	245366784	58	4072
2026-01-27 05:18:27.16	53.11	9.82	-43.5	-44.6	19.9	0.00e+00	0	43	0	248512512	58	4104
2026-01-27 05:18:28.17	53.00	9.89	-43.2	-44.2	20.3	0.00e+00	0	43	0	251658240	58	3941
2026-01-27 05:18:29.18	52.88	9.96	-43.2	-44.2	20.3	0.00e+00	0	43	0	254803968	58	3929
2026-01-27 05:18:30.18	52.77	10.03	-43.3	-44.3	20.2	0.00e+00	0	43	0	257949696	58	3962
2026-01-27 05:18:31.19	52.66	10.09	-43.3	-44.3	20.2	0.00e+00	0	43	0	261095424	58	3979
2026-01-27 05:18:32.20	52.54	10.16	-43.4	-44.4	20.1	0.00e+00	0	43	0	264241152	58	4037
2026-01-27 05:18:33.21	52.43	10.23	-43.6	-44.6	19.9	0.00e+00	0	43	0	267386880	58	4128
2026-01-27 05:18:34.21	52.31	10.30	-43.4	-44.4	20.1	0.00e+00	0	43	0	270532608	58	4038
2026-01-27 05:18:35.22	52.20	10.37	-43.2	-44.2	20.3	0.00e+00	0	43	0	273678336	58	3950
2026-01-27 05:18:36.23	52.08	10.44	-43.3	-44.3	20.2	0.00e+00	0	43	0	276824064	58	3981
2026-01-27 05:18:37.23	51.97	10.50	-43.2	-44.1	20.4	0.00e+00	0	43	0	279969792	58	3907
2026-01-27 05:18:38.24	51.85	10.57	-43.2	-44.1	20.4	0.00e+00	0	43	0	283115520	58	3908
2026-01-27 05:18:39.24	51.73	10.64	-43.1	-44.0	20.5	0.00e+00	0	43	0	286261248	58	3850
2026-01-27 05:18:40.25	51.61	10.71	-43.2	-44.2	20.4	0.00e+00	0	43	0	289406976	58	3929
2026-01-27 05:18:41.26	51.49	10.78	-43.1	-44.0	20.5	0.00e+00	0	43	0	292552704	58	3843
2026-01-27 05:18:42.27	51.37	10.85	-43.0	-43.9	20.6	0.00e+00	0	43	0	295698432	58	3811
2026-01-27 05:18:43.28	51.25	10.92	-43.0	-44.0	20.5	0.00e+00	0	43	0	298844160	57	4059
2026-01-27 05:18:44.29	51.13	10.98	-43.0	-43.9	20.6	0.00e+00	0	43	0	301989888	57	4032
2026-01-27 05:18:45.30	51.01	11.05	-43.0	-43.9	20.5	0.00e+00	0	43	0	305135616	57	4038
2026-01-27 05:18:46.31	50.88	11.12	-43.2	-44.2	20.3	0.00e+00	0	43	0	308281344	57	4157
2026-01-27 05:18:47.32	50.76	11.19	-43.3	-44.3	20.2	0.00e+00	0	43	0	311427072	57	4196
2026-01-27 05:18:48.33	50.64	11.26	-43.1	-44.1	20.4	0.00e+00	0	43	0	314572800	57	4125
2026-01-27 05:18:49.34	50.51	11.33	-43.0	-44.0	20.6	0.00e+00	0	43	0	317718528	57	4055
2026-01-27 05:18:50.35	50.39	11.40	-43.3	-44.3	20.3	0.00e+00	0	43	0	320864256	57	4205
2026-01-27 05:18:51.35	50.26	11.47	-43.1	-44.1	20.5	0.00e+00	0	43	0	324009984	57	4113
2026-01-27 05:18:52.36	50.14	11.54	-43.0	-43.9	20.7	0.00e+00	0	43	0	327155712	57	4033
2026-01-27 05:18:53.37	50.01	11.61	-43.1	-44.0	20.5	0.00e+00	0	43	0	330301440	57	4088
2026-01-27 05:18:54.38	49.88	11.68	-43.0	-43.9	20.7	0.00e+00	0	43	0	333447168	57	4032
2026-01-27 05:18:55.39	49.76	11.75	-42.9	-43.9	20.7	0.00e+00	0	43	0	336592896	57	4017
2026-01-27 05:18:56.40	49.63	11.82	-42.8	-43.8	20.8	0.00e+00	0	43	0	339738624	57	3962
2026-01-27 05:18:57.41	49.50	11.89	-42.9	-43.8	20.7	0.00e+00	0	43	0	342884352	57	3978
2026-01-27 05:18:58.41	49.37	11.96	-42.7	-43.6	20.8	0.00e+00	0	43	0	346030080	57	3910
2026-01-27 05:18:59.42	49.24	12.03	-43.1	-44.1	20.5	0.00e+00	0	43	0	349175808	57	4113
2026-01-27 05:19:00.43	49.11	12.10	-43.1	-44.0	20.5	0.00e+00	0	43	0	352321536	57	4083
2026-01-27 05:19:01.44	48.98	12.17	-42.9	-43.9	20.7	0.00e+00	0	43	0	355467264	57	4013
2026-01-27 05:19:02.44	48.85	12.24	-43.0	-44.0	20.5	0.00e+00	0	43	0	358612992	57	4068
2026-01-27 05:19:03.45	48.71	12.31	-43.0	-43.9	20.6	0.00e+00	0	43	0	361758720	57	4028
2026-01-27 05:19:04.46	48.58	12.38	-43.0	-43.9	20.7	0.00e+00	0	43	0	364904448	57	4034
2026-01-27 05:19:05.47	48.44	12.45	-42.9	-43.8	20.7	0.00e+00	0	43	0	368050176	57	3998
2026-01-27 05:19:06.47	48.31	12.52	-42.7	-43.6	20.9	0.00e+00	0	43	0	371195904	57	3898
2026-01-27 05:19:07.48	48.18	12.59	-42.7	-43.6	20.9	0.00e+00	0	43	0	374341632	57	3898
2026-01-27 05:19:08.49	48.04	12.66	-42.9	-43.8	20.8	0.00e+00	0	43	0	377487360	57	3976
2026-01-27 05:19:09.49	47.90	12.73	-42.8	-43.7	20.8	0.00e+00	0	43	0	380633088	57	3948
2026-01-27 05:19:10.50	47.77	12.80	-42.7	-43.6	20.9	0.00e+00	0	43	0	383778816	57	3908
2026-01-27 05:19:11.50	47.63	12.87	-42.7	-43.6	20.9	0.00e+00	0	43	0	386924544	57	3902
2026-01-27 05:19:12.51	47.49	12.94	-42.8	-43.7	20.9	0.00e+00	0	43	0	390070272	57	3932
2026-01-27 05:19:13.52	47.35	13.01	-42.6	-43.5	21.0	0.00e+00	0	43	0	393216000	57	3859
2026-01-27 05:19:14.53	47.21	13.08	-42.6	-43.5	20.9	0.00e+00	0	43	0	396361728	57	3862
2026-01-27 05:19:15.54	47.07	13.15	-42.7	-43.6	20.8	0.00e+00	0	43	0	399507456	57	3906
2026-01-27 05:19:16.55	46.93	13.22	-42.8	-43.7	20.8	0.00e+00	0	43	0	402653184	57	3930
2026-01-27 05:19:17.55	46.79	13.29	-42.9	-43.8	20.7	0.00e+00	0	43	0	405798912	57	3979
2026-01-27 05:19:18.56	46.64	13.36	-42.9	-43.8	20.7	0.00e+00	0	43	0	408944640	57	3985
2026-01-27 05:19:19.57	46.50	13.43	-43.0	-43.9	20.7	0.00e+00	0	43	0	412090368	57	4024
2026-01-27 05:19:20.57	46.36	13.50	-43.0	-43.9	20.7	0.00e+00	0	43	0	415236096	57	4029
2026-01-27 05:19:21.58	46.21	13.57	-42.9	-43.9	20.7	0.00e+00	0	43	0	418381824	57	4011
2026-01-27 05:19:22.59	46.06	13.64	-42.8	-43.7	20.9	0.00e+00	0	43	0	421527552	57	3949
2026-01-27 05:19:23.59	45.92	13.71	-42.9	-43.8	20.8	0.00e+00	0	43	0	424673280	57	3994
2026-01-27 05:19:24.60	45.77	13.78	-42.9	-43.8	20.8	0.00e+00	0	43	0	427819008	57	3994
2026-01-27 05:19:25.61	45.62	13.85	-42.9	-43.8	20.9	0.00e+00	0	43	0	430964736	57	3977
2026-01-27 05:19:26.62	45.48	13.92	-42.8	-43.7	20.9	0.00e+00	0	43	0	434110464	57	3952
2026-01-27 05:19:27.63	45.33	14.00	-42.9	-43.8	20.7	0.00e+00	0	43	0	437256192	57	3999
2026-01-27 05:19:28.64	45.18	14.07	-43.0	-43.9	20.7	0.00e+00	0	43	0	440401920	57	4041
2026-01-27 05:19:29.65	45.02	14.14	-42.8	-43.7	20.9	0.00e+00	0	43	0	443547648	57	3944
2026-01-27 05:19:30.65	44.87	14.21	-43.0	-43.9	20.7	0.00e+00	0	43	0	446693376	57	4051
2026-01-27 05:19:31.66	44.72	14.28	-43.0	-43.9	20.8	0.00e+00	0	43	0	449839104	57	4019
2026-01-27 05:19:32.67	44.57	14.35	-43.0	-44.0	20.7	0.00e+00	0	43	0	452984832	57	4054
2026-01-27 05:19:33.67	44.42	14.42	-43.0	-44.0	20.7	0.00e+00	0	43	0	456130560	57	4065
2026-01-27 05:19:34.68	44.26	14.49	-43.0	-43.9	20.8	0.00e+00	0	43	0	459276288	57	4036
2026-01-27 05:19:35.69	44.11	14.56	-42.9	-43.8	20.9	0.00e+00	0	43	0	462422016	57	3965
2026-01-27 05:19:36.70	43.95	14.63	-42.9	-43.8	20.9	0.00e+00	0	43	0	465567744	57	3967
2026-01-27 05:19:37.71	43.79	14.70	-42.8	-43.7	20.9	0.00e+00	0	43	0	468713472	57	3930
2026-01-27 05:19:38.72	43.64	14.77	-43.0	-43.9	20.8	0.00e+00	0	43	0	471859200	57	4020
2026-01-27 05:19:39.73	43.48	14.84	-43.0	-43.9	20.7	0.00e+00	0	43	0	475004928	57	4049
2026-01-27 05:19:40.74	43.32	14.92	-43.0	-43.9	20.7	0.00e+00	0	43	0	478150656	57	4020
2026-01-27 05:19:41.75	43.16	14.99	-43.0	-44.0	20.7	0.00e+00	0	43	0	481296384	57	4062
2026-01-27 05:19:42.75	43.00	15.06	-43.1	-44.0	20.7	0.00e+00	0	43	0	484442112	57	4068
2026-01-27 05:19:43.76	42.84	15.13	-43.0	-44.0	20.7	0.00e+00	0	43	0	487587840	57	4065
2026-01-27 05:19:44.76	42.68	15.20	-43.0	-43.9	20.8	0.00e+00	0	43	0	490733568	57	4039
2026-01-27 05:19:45.76	42.52	15.27	-43.0	-43.9	20.8	0.00e+00	0	43	0	493879296	57	4048
2026-01-27 05:19:46.77	42.35	15.34	-43.2	-44.1	20.6	0.00e+00	0	43	0	497025024	57	4122
2026-01-27 05:19:47.78	42.19	15.41	-42.9	-43.8	20.9	0.00e+00	0	43	0	500170752	57	3971
2026-01-27 05:19:48.79	42.02	15.48	-42.9	-43.8	20.9	0.00e+00	0	43	0	503316480	57	3970
2026-01-27 05:19:49.80	41.85	15.55	-43.0	-43.9	20.7	0.00e+00	0	43	0	506462208	57	4041
2026-01-27 05:19:50.81	41.69	15.62	-43.0	-43.9	20.8	0.00e+00	0	43	0	509607936	57	4017
2026-01-27 05:19:51.81	41.52	15.69	-43.1	-44.0	20.7	0.00e+00	0	43	0	512753664	57	4073
2026-01-27 05:19:52.82	41.35	15.76	-43.1	-44.1	20.6	0.00e+00	0	43	0	515899392	57	4111
2026-01-27 05:19:53.83	41.18	15.83	-43.1	-44.0	20.6	0.00e+00	0	43	0	519045120	57	4081
2026-01-27 05:19:54.83	41.02	15.90	-43.2	-44.1	20.6	0.00e+00	0	43	0	522190848	57	4142
2026-01-27 05:19:55.84	40.84	15.97	-43.0	-44.0	20.8	0.00e+00	0	43	0	525336576	57	4059
2026-01-27 05:19:56.85	40.67	16.04	-42.9	-43.8	20.9	0.00e+00	0	43	0	528482304	57	3987
2026-01-27 05:19:57.86	40.50	16.11	-42.9	-43.8	20.9	0.00e+00	0	43	0	531628032	57	3974
2026-01-27 05:19:58.87	40.33	16.18	-42.8	-43.7	21.0	0.00e+00	0	43	0	534773760	57	3956
2026-01-27 05:19:59.87	40.15	16.25	-42.7	-43.6	21.1	0.00e+00	0	43	0	537919488	57	3891
2026-01-27 05:20:00.88	39.98	16.32	-42.8	-43.7	21.0	0.00e+00	0	43	0	541065216	57	3918
2026-01-27 05:20:01.89	39.80	16.39	-42.7	-43.6	21.1	0.00e+00	0	43	0	544210944	57	3876
2026-01-27 05:20:02.90	39.63	16.46	-42.8	-43.7	21.0	0.00e+00	0	43	0	547356672	57	3927
2026-01-27 05:20:03.91	39.45	16.53	-42.8	-43.7	21.0	0.00e+00	0	43	0	550502400	57	3924
2026-01-27 05:20:04.92	39.27	16.60	-42.8	-43.7	21.0	0.00e+00	0	43	0	553648128	57	3958
2026-01-27 05:20:05.93	39.09	16.67	-42.8	-43.7	21.0	0.00e+00	0	43	0	556793856	57	3927
2026-01-27 05:20:06.94	38.91	16.74	-42.7	-43.6	21.2	0.00e+00	0	43	0	559939584	57	3874
2026-01-27 05:20:07.95	38.73	16.81	-42.5	-43.4	21.3	0.00e+00	0	43	0	563085312	57	3793
2026-01-27 05:20:08.95	38.55	16.87	-42.4	-43.2	21.5	0.00e+00	0	43	0	566231040	56	3945
2026-01-27 05:20:09.96	38.37	16.94	-42.3	-43.2	21.4	0.00e+00	0	43	0	569376768	56	3935
2026-01-27 05:20:10.97	38.18	17.01	-42.3	-43.1	21.5	0.00e+00	0	43	0	572522496	56	3910
2026-01-27 05:20:11.98	38.00	17.08	-42.2	-43.1	21.5	0.00e+00	0	43	0	575668224	56	3888
2026-01-27 05:20:12.98	37.81	17.15	-42.5	-43.4	21.3	0.00e+00	0	43	0	578813952	56	4007
2026-01-27 05:20:13.99	37.63	17.22	-42.4	-43.2	21.4	0.00e+00	0	43	0	581959680	56	3947
2026-01-27 05:20:14.99	37.44	17.29	-42.5	-43.4	21.3	0.00e+00	0	43	0	585105408	56	4018
2026-01-27 05:20:16.00	37.26	17.35	-42.4	-43.3	21.4	0.00e+00	0	43	0	588251136	56	3969
2026-01-27 05:20:17.01	37.07	17.42	-42.4	-43.3	21.4	0.00e+00	0	43	0	591396864	56	3965
2026-01-27 05:20:18.01	36.88	17.49	-42.4	-43.3	21.3	0.00e+00	0	43	0	594542592	56	3971
2026-01-27 05:20:19.03	36.69	17.56	-42.5	-43.3	21.3	0.00e+00	0	43	0	597688320	56	3995
2026-01-27 05:20:20.03	36.50	17.63	-42.5	-43.4	21.2	0.00e+00	0	43	0	600834048	56	4022
2026-01-27 05:20:21.04	36.31	17.69	-42.6	-43.5	21.2	0.00e+00	0	43	0	603979776	56	4068
2026-01-27 05:20:22.04	36.11	17.76	-42.6	-43.5	21.1	0.00e+00	0	43	0	607125504	56	4062
2026-01-27 05:20:23.05	35.92	17.83	-42.6	-43.5	21.1	0.00e+00	0	43	0	610271232	56	4091
2026-01-27 05:20:24.06	35.73	17.89	-42.7	-43.6	21.0	0.00e+00	0	43	0	613416960	56	4138
2026-01-27 05:20:25.06	35.53	17.96	-42.7	-43.6	21.0	0.00e+00	0	43	0	616562688	56	4128
2026-01-27 05:20:26.07	35.34	18.03	-42.9	-43.8	20.9	0.00e+00	0	43	0	619708416	56	4235
2026-01-27 05:20:27.07	35.14	18.09	-42.7	-43.6	21.1	0.00e+00	0	43	0	622854144	56	4122
2026-01-27 05:20:28.08	34.94	18.16	-42.6	-43.5	21.2	0.00e+00	0	43	0	625999872	56	4065
2026-01-27 05:20:29.09	34.74	18.23	-42.7	-43.6	21.1	0.00e+00	0	43	0	629145600	56	4109
2026-01-27 05:20:30.10	34.54	18.29	-42.6	-43.5	21.2	0.00e+00	0	43	0	632291328	56	4068
2026-01-27 05:20:31.11	34.34	18.36	-42.7	-43.6	21.1	0.00e+00	0	43	0	635437056	56	4123
2026-01-27 05:20:32.12	34.14	18.42	-42.7	-43.6	21.1	0.00e+00	0	43	0	638582784	56	4130
2026-01-27 05:20:33.12	33.94	18.49	-42.8	-43.7	21.0	0.00e+00	0	43	0	641728512	56	4166
2026-01-27 05:20:34.12	33.74	18.55	-42.8	-43.6	21.1	0.00e+00	0	43	0	644874240	56	4144
2026-01-27 05:20:35.13	33.53	18.62	-42.8	-43.7	21.1	0.00e+00	0	43	0	648019968	56	4146
2026-01-27 05:20:36.14	33.33	18.68	-42.6	-43.5	21.2	0.00e+00	0	43	0	651165696	56	4070
2026-01-27 05:20:37.15	33.12	18.75	-42.5	-43.3	21.3	0.00e+00	0	43	0	654311424	56	3991
2026-01-27 05:20:38.16	32.91	18.81	-42.4	-43.3	21.3	0.00e+00	0	43	0	657457152	56	3985
2026-01-27 05:20:39.17	32.71	18.88	-42.5	-43.4	21.3	0.00e+00	0	43	0	660602880	56	4030
2026-01-27 05:20:40.18	32.50	18.94	-42.6	-43.5	21.2	0.00e+00	0	43	0	664797184	56	4077
2026-01-27 05:20:41.19	32.29	19.01	-42.6	-43.5	21.2	0.00e+00	0	43	0	667942912	56	4063
2026-01-27 05:20:42.19	32.08	19.07	-42.4	-43.3	21.4	0.00e+00	0	43	0	670040064	56	3990
2026-01-27 05:20:43.19	31.87	19.13	-42.3	-43.1	21.5	0.00e+00	0	43	0	673185792	56	3907
2026-01-27 05:20:44.20	31.66	19.19	-42.4	-43.2	21.4	0.00e+00	0	43	0	676331520	56	3949
2026-01-27 05:20:45.21	31.44	19.26	-42.4	-43.3	21.5	0.00e+00	0	43	0	679477248	56	3975
2026-01-27 05:20:46.22	31.23	19.32	-42.3	-43.2	21.5	0.00e+00	0	43	0	682622976	56	3919
2026-01-27 05:20:47.23	31.01	19.38	-42.3	-43.1	21.5	0.00e+00	0	43	0	685768704	56	3904
2026-01-27 05:20:48.24	30.80	19.44	-42.3	-43.1	21.6	0.00e+00	0	43	0	688914432	56	3903
2026-01-27 05:20:49.24	30.58	19.51	-42.2	-43.1	21.6	0.00e+00	0	43	0	692060160	56	3878
2026-01-27 05:20:50.25	30.37	19.57	-42.2	-43.1	21.5	0.00e+00	0	43	0	695205888	56	3891
2026-01-27 05:20:51.26	30.15	19.63	-42.4	-43.2	21.4	0.00e+00	0	43	0	698351616	56	3945
2026-01-27 05:20:52.27	29.93	19.69	-42.4	-43.2	21.5	0.00e+00	0	43	0	701497344	56	3942
2026-01-27 05:20:53.27	29.71	19.75	-42.3	-43.1	21.5	0.00e+00	0	43	0	704643072	56	3904
2026-01-27 05:20:54.28	29.49	19.81	-42.4	-43.3	21.5	0.00e+00	0	43	0	708837376	56	3964
2026-01-27 05:20:55.29	29.27	19.87	-42.4	-43.3	21.4	0.00e+00	0	43	0	711983104	56	3975
2026-01-27 05:20:56.31	29.04	19.93	-42.3	-43.1	21.6	0.00e+00	0	43	0	715128832	56	3909
2026-01-27 05:20:57.31	28.82	19.99	-42.4	-43.2	21.5	0.00e+00	0	43	0	717225984	56	3953
2026-01-27 05:20:58.32	28.60	20.05	-42.3	-43.2	21.5	0.00e+00	0	43	0	720371712	56	3925
2026-01-27 05:20:59.33	28.37	20.11	-42.3	-43.2	21.5	0.00e+00	0	43	0	723517440	56	3914
2026-01-27 05:21:00.33	28.15	20.16	-42.2	-43.1	21.6	0.00e+00	0	43	0	726663168	56	3873
2026-01-27 05:21:01.34	27.92	20.22	-42.3	-43.1	21.5	0.00e+00	0	43	0	729808896	56	3910
2026-01-27 05:21:02.35	27.69	20.28	-42.2	-43.1	21.6	0.00e+00	0	43	0	732954624	56	3884
2026-01-27 05:21:03.36	27.46	20.34	-42.3	-43.1	21.5	0.00e+00	0	43	0	736100352	56	3906
2026-01-27 05:21:04.36	27.23	20.39	-42.3	-43.1	21.5	0.00e+00	0	43	0	739246080	56	3907
2026-01-27 05:21:05.37	27.00	20.45	-42.2	-43.1	21.6	0.00e+00	0	43	0	742391808	56	3880
2026-01-27 05:21:06.37	26.77	20.51	-42.3	-43.2	21.5	0.00e+00	0	43	0	745537536	56	3924
2026-01-27 05:21:07.38	26.54	20.56	-42.3	-43.1	21.6	0.00e+00	0	43	0	748683264	56	3902
2026-01-27 05:21:08.39	26.31	20.62	-42.2	-43.0	21.6	0.00e+00	0	43	0	752877568	56	3863
2026-01-27 05:21:09.39	26.07	20.67	-42.1	-42.9	21.7	0.00e+00	0	43	0	756023296	56	3820
2026-01-27 05:21:10.40	25.84	20.73	-42.1	-42.9	21.7	0.00e+00	0	43	0	759169024	56	3802
2026-01-27 05:21:11.41	25.60	20.78	-42.1	-43.0	21.6	0.00e+00	0	43	0	762314752	56	3846
2026-01-27 05:21:12.41	25.37	20.84	-42.2	-43.1	21.5	0.00e+00	0	43	0	764411904	56	3890
2026-01-27 05:21:13.42	25.13	20.89	-42.2	-43.1	21.5	0.00e+00	0	43	0	767557632	56	3886
2026-01-27 05:21:14.43	24.89	20.94	-42.3	-43.1	21.5	0.00e+00	0	43	0	770703360	56	3900
2026-01-27 05:21:15.43	24.66	20.99	-42.3	-43.2	21.5	0.00e+00	0	43	0	773849088	56	3928
2026-01-27 05:21:16.44	24.42	21.05	-42.3	-43.2	21.6	0.00e+00	0	43	0	776994816	56	3929
2026-01-27 05:21:17.45	24.18	21.10	-42.2	-43.0	21.7	0.00e+00	0	43	0	780140544	56	3868
2026-01-27 05:21:18.46	23.93	21.15	-42.1	-42.9	21.8	0.00e+00	0	43	0	783286272	56	3824
2026-01-27 05:21:19.47	23.69	21.20	-42.1	-42.9	21.8	0.00e+00	0	43	0	786432000	56	3818
2026-01-27 05:21:20.47	23.45	21.25	-42.1	-43.0	21.7	0.00e+00	0	43	0	789577728	56	3830
2026-01-27 05:21:21.48	23.21	21.30	-42.2	-43.1	21.6	0.00e+00	0	43	0	792723456	56	3882
2026-01-27 05:21:22.49	22.96	21.35	-42.1	-43.0	21.7	0.00e+00	0	43	0	796917760	56	3840
2026-01-27 05:21:23.49	22.72	21.40	-42.2	-43.1	21.7	0.00e+00	0	43	0	800063488	56	3891
2026-01-27 05:21:24.50	22.47	21.45	-42.1	-42.9	21.9	0.00e+00	0	43	0	803209216	56	3795
2026-01-27 05:21:25.51	22.22	21.50	-42.0	-42.8	21.9	0.00e+00	0	43	0	806354944	56	3776
2026-01-27 05:21:26.52	21.98	21.55	-41.9	-42.7	21.9	0.00e+00	0	43	0	809500672	55	3947
2026-01-27 05:21:27.53	21.73	21.59	-41.8	-42.7	21.9	0.00e+00	0	43	0	811597824	55	3923
2026-01-27 05:21:28.53	21.48	21.64	-41.7	-42.5	22.0	0.00e+00	0	43	0	814743552	55	3865
2026-01-27 05:21:29.54	21.23	21.69	-41.7	-42.5	22.0	0.00e+00	0	43	0	817889280	55	3847
2026-01-27 05:21:30.54	20.98	21.73	-41.8	-42.6	21.9	0.00e+00	0	43	0	821035008	55	3909
2026-01-27 05:21:31.54	20.73	21.78	-41.9	-42.7	21.9	0.00e+00	0	43	0	824180736	55	3932
2026-01-27 05:21:32.55	20.48	21.82	-41.9	-42.7	21.9	0.00e+00	0	43	0	827326464	55	3950
2026-01-27 05:21:33.56	20.23	21.86	-41.8	-42.6	22.0	0.00e+00	0	43	0	830472192	55	3889
2026-01-27 05:21:34.57	19.97	21.91	-41.8	-42.6	21.9	0.00e+00	0	43	0	833617920	55	3886
2026-01-27 05:21:35.57	19.72	21.95	-41.9	-42.7	21.8	0.00e+00	0	43	0	836763648	55	3933
2026-01-27 05:21:36.58	19.47	21.99	-41.9	-42.8	21.8	0.00e+00	0	43	0	839909376	55	3960
2026-01-27 05:21:37.59	19.21	22.04	-41.9	-42.7	21.8	0.00e+00	0	43	0	844103680	55	3953
2026-01-27 05:21:38.59	18.95	22.08	-41.9	-42.7	21.9	0.00e+00	0	43	0	847249408	55	3957
2026-01-27 05:21:39.61	18.69	22.12	-41.8	-42.6	21.9	0.00e+00	0	43	0	850395136	55	3906
2026-01-27 05:21:40.61	18.44	22.16	-41.9	-42.7	21.9	0.00e+00	0	43	0	853540864	55	3943
2026-01-27 05:21:41.62	18.18	22.20	-42.0	-42.8	21.8	0.00e+00	0	43	0	856686592	55	3980
2026-01-27 05:21:42.63	17.92	22.24	-42.0	-42.9	21.8	0.00e+00	0	43	0	859832320	55	4006
2026-01-27 05:21:43.63	17.66	22.28	-42.0	-42.8	21.8	0.00e+00	0	43	0	861929472	55	4003
2026-01-27 05:21:44.63	17.40	22.31	-42.0	-42.8	21.9	0.00e+00	0	43	0	865075200	55	3978
2026-01-27 05:21:45.64	17.14	22.35	-42.1	-42.9	21.7	0.00e+00	0	43	0	868220928	55	4040
2026-01-27 05:21:46.65	16.88	22.39	-42.0	-42.8	21.9	0.00e+00	0	43	0	871366656	55	3975
2026-01-27 05:21:47.65	16.62	22.43	-42.0	-42.8	21.9	0.00e+00	0	43	0	874512384	55	3978
2026-01-27 05:21:48.66	16.36	22.46	-42.0	-42.8	21.9	0.00e+00	0	43	0	877658112	55	3977
2026-01-27 05:21:49.67	16.09	22.50	-42.0	-42.9	21.8	0.00e+00	0	43	0	880803840	55	4006
2026-01-27 05:21:50.68	15.83	22.53	-42.0	-42.8	21.8	0.00e+00	0	43	0	883949568	55	3991
2026-01-27 05:21:51.69	15.56	22.57	-41.9	-42.7	22.0	0.00e+00	0	43	0	888143872	55	3954
2026-01-27 05:21:52.70	15.30	22.60	-41.8	-42.6	22.1	0.00e+00	0	43	0	891289600	55	3878
2026-01-27 05:21:53.70	15.03	22.63	-41.7	-42.5	22.1	0.00e+00	0	43	0	894435328	55	3855
2026-01-27 05:21:54.71	14.77	22.66	-41.8	-42.6	22.0	0.00e+00	0	43	0	897581056	55	3892
2026-01-27 05:21:55.71	14.50	22.69	-41.8	-42.6	22.1	0.00e+00	0	43	0	900726784	55	3881
2026-01-27 05:21:56.72	14.24	22.73	-41.7	-42.5	22.1	0.00e+00	0	43	0	903872512	55	3858
2026-01-27 05:21:57.72	13.97	22.76	-41.7	-42.5	22.2	0.00e+00	0	43	0	907018240	55	3834
2026-01-27 05:21:58.73	13.70	22.79	-41.7	-42.5	22.1	0.00e+00	0	43	0	909115392	55	3843
2026-01-27 05:21:59.74	13.43	22.81	-41.7	-42.5	22.1	0.00e+00	0	43	0	912261120	55	3862
2026-01-27 05:22:00.75	13.16	22.84	-41.7	-42.6	22.1	0.00e+00	0	43	0	915406848	55	3870
2026-01-27 05:22:01.76	12.89	22.87	-41.7	-42.5	22.2	0.00e+00	0	43	0	918552576	55	3830
2026-01-27 05:22:02.77	12.62	22.90	-41.6	-42.4	22.2	0.00e+00	0	43	0	921698304	55	3814
2026-01-27 05:22:03.77	12.35	22.92	-41.8	-42.6	22.1	0.00e+00	0	43	0	924844032	55	3880
2026-01-27 05:22:04.78	12.08	22.95	-41.8	-42.7	22.0	0.00e+00	0	43	0	927989760	55	3914
2026-01-27 05:22:05.78	11.81	22.97	-41.7	-42.5	22.1	0.00e+00	0	43	0	932184064	55	3852
2026-01-27 05:22:06.78	11.54	23.00	-41.8	-42.6	22.0	0.00e+00	0	43	0	935329792	55	3881
2026-01-27 05:22:07.79	11.27	23.02	-41.7	-42.5	22.1	0.00e+00	0	43	0	938475520	55	3856
2026-01-27 05:22:08.80	10.99	23.05	-41.6	-42.4	22.2	0.00e+00	0	43	0	941621248	55	3810
2026-01-27 05:22:09.81	10.72	23.07	-41.6	-42.5	22.2	0.00e+00	0	43	0	944766976	55	3828
2026-01-27 05:22:10.81	10.45	23.09	-41.6	-42.4	22.1	0.00e+00	0	43	0	947912704	55	3820
2026-01-27 05:22:11.82	10.17	23.11	-41.7	-42.5	22.1	0.00e+00	0	43	0	951058432	55	3852
2026-01-27 05:22:12.83	9.90	23.13	-41.7	-42.5	22.1	0.00e+00	0	43	0	954204160	55	3857
2026-01-27 05:22:13.83	9.62	23.15	-41.7	-42.6	22.0	0.00e+00	0	43	0	956301312	55	3873
2026-01-27 05:22:14.84	9.35	23.17	-41.9	-42.7	21.8	0.00e+00	0	43	0	959447040	55	3948
2026-01-27 05:22:15.84	9.07	23.19	-42.0	-42.8	21.7	0.00e+00	0	43	0	962592768	55	4001
2026-01-27 05:22:16.84	8.80	23.20	-42.0	-42.9	21.7	0.00e+00	0	43	0	965738496	55	4026
2026-01-27 05:22:17.85	8.52	23.22	-42.1	-42.9	21.7	0.00e+00	0	43	0	968884224	55	4051
2026-01-27 05:22:18.86	8.25	23.24	-42.2	-43.1	21.6	0.00e+00	0	43	0	972029952	55	4118
2026-01-27 05:22:19.87	7.97	23.25	-42.1	-42.9	21.7	0.00e+00	0	43	0	975175680	55	4048
2026-01-27 05:22:20.87	7.69	23.27	-42.1	-42.9	21.7	0.00e+00	0	43	0	978321408	55	4047
2026-01-27 05:22:21.87	7.42	23.28	-42.1	-42.9	21.7	0.00e+00	0	43	0	981467136	55	4033
2026-01-27 05:22:22.88	7.14	23.29	-42.0	-42.9	21.8	0.00e+00	0	43	0	984612864	55	4021
2026-01-27 05:22:23.89	6.86	23.31	-41.9	-42.8	21.8	0.00e+00	0	43	0	988807168	55	3974
2026-01-27 05:22:24.89	6.59	23.32	-42.0	-42.8	21.8	0.00e+00	0	43	0	991952896	55	3996
2026-01-27 05:22:25.90	6.31	23.33	-42.1	-42.9	21.8	0.00e+00	0	43	0	995098624	55	4030
2026-01-27 05:22:26.90	6.03	23.34	-42.0	-42.8	21.8	0.00e+00	0	43	0	998244352	55	3982
2026-01-27 05:22:27.91	5.75	23.35	-41.9	-42.7	22.0	0.00e+00	0	43	0	1001390080	55	3931
2026-01-27 05:22:28.92	5.47	23.36	-41.7	-42.5	22.1	0.00e+00	0	43	0	1003487232	55	3852
2026-01-27 05:22:29.93	5.19	23.37	-41.7	-42.5	22.2	0.00e+00	0	43	0	1006632960	55	3837
2026-01-27 05:22:30.94	4.92	23.37	-41.6	-42.4	22.3	0.00e+00	0	43	0	1009778688	55	3794
2026-01-27 05:22:31.94	4.64	23.38	-41.7	-42.6	22.1	0.00e+00	0	43	0	1012924416	55	3871
2026-01-27 05:22:32.95	4.36	23.39	-41.8	-42.6	22.1	0.00e+00	0	43	0	1016070144	55	3887
2026-01-27 05:22:33.95	4.08	23.39	-41.9	-42.7	21.9	0.00e+00	0	43	0	1019215872	55	3951
2026-01-27 05:22:34.96	3.80	23.40	-41.9	-42.7	21.9	0.00e+00	0	43	0	1022361600	55	3943
2026-01-27 05:22:35.97	3.52	23.40	-41.9	-42.8	21.9	0.00e+00	0	43	0	1025507328	55	3967
2026-01-27 05:22:36.98	3.24	23.40	-42.0	-42.9	21.8	0.00e+00	0	43	0	1028653056	55	4022
2026-01-27 05:22:37.99	2.96	23.40	-42.1	-42.9	21.8	0.00e+00	0	43	0	1032847360	55	4041
2026-01-27 05:22:39.00	2.68	23.41	-42.1	-42.9	21.8	0.00e+00	0	43	0	1035993088	55	4041
2026-01-27 05:22:40.01	2.40	23.41	-42.2	-43.0	21.7	0.00e+00	0	43	0	1039138816	55	4085
2026-01-27 05:22:41.02	2.12	23.41	-42.2	-43.0	21.7	0.00e+00	0	43	0	1042284544	55	4077
2026-01-27 05:22:42.03	1.84	23.41	-42.2	-43.0	21.7	0.00e+00	0	43	0	1045430272	55	4095
2026-01-27 05:22:43.04	1.56	23.40	-42.0	-42.9	21.8	0.00e+00	0	43	0	1048576000	55	4014
2026-01-27 05:22:44.04	1.28	23.40	-42.0	-42.8	21.9	0.00e+00	0	43	0	1050673152	55	3976
2026-01-27 05:22:45.05	1.00	23.40	-42.0	-42.9	21.8	0.00e+00	0	43	0	1053818880	55	4014
2026-01-27 05:22:46.06	0.72	23.40	-41.8	-42.6	22.1	0.00e+00	0	43	0	1056964608	55	3879
2026-01-27 05:22:47.07	0.44	23.39	-41.9	-42.7	22.0	0.00e+00	0	43	0	1060110336	55	3925
2026-01-27 05:22:48.08	0.16	23.39	-41.7	-42.5	22.2	0.00e+00	0	43	0	1063256064	55	3829
2026-01-27 05:22:49.09	359.88	23.38	-41.5	-42.3	22.3	0.00e+00	0	43	0	1067450368	55	3738
2026-01-27 05:22:50.10	359.60	23.37	-41.6	-42.4	22.1	0.00e+00	0	43	0	1070596096	55	3784
2026-01-27 05:22:51.11	359.32	23.37	-41.5	-42.3	22.2	0.00e+00	0	43	0	1073741824	55	3771
2026-01-27 05:22:52.11	359.05	23.36	-41.6	-42.4	22.2	0.00e+00	0	43	0	1076887552	55	3798
2026-01-27 05:22:53.12	358.77	23.35	-41.7	-42.5	22.1	0.00e+00	0	43	0	1080033280	55	3834
2026-01-27 05:22:54.12	358.49	23.34	-41.6	-42.4	22.2	0.00e+00	0	43	0	1083179008	55	3806
2026-01-27 05:22:55.13	358.21	23.33	-41.7	-42.5	22.1	0.00e+00	0	43	0	1086324736	55	3839
2026-01-27 05:22:56.13	357.94	23.32	-41.7	-42.5	22.1	0.00e+00	0	43	0	1089470464	55	3844
2026-01-27 05:22:57.14	357.66	23.31	-41.7	-42.5	22.1	0.00e+00	0	43	0	1092616192	55	3842
2026-01-27 05:22:58.15	357.38	23.30	-41.8	-42.6	22.0	0.00e+00	0	43	0	1095761920	55	3887
2026-01-27 05:22:59.16	357.10	23.28	-41.7	-42.5	22.1	0.00e+00	0	43	0	1097859072	55	3837
2026-01-27 05:23:00.17	356.82	23.27	-41.7	-42.5	22.1	0.00e+00	0	43	0	1101004800	55	3855
2026-01-27 05:23:01.18	356.54	23.25	-41.6	-42.4	22.2	0.00e+00	0	43	0	1104150528	55	3807
2026-01-27 05:23:02.19	356.27	23.24	-41.6	-42.4	22.2	0.00e+00	0	43	0	1108344832	55	3801
2026-01-27 05:23:03.19	355.99	23.22	-41.6	-42.4	22.2	0.00e+00	0	43	0	1111490560	55	3809
2026-01-27 05:23:04.20	355.72	23.21	-41.6	-42.4	22.2	0.00e+00	0	43	0	1114636288	55	3802
2026-01-27 05:23:05.21	355.44	23.19	-41.6	-42.4	22.1	0.00e+00	0	43	0	1117782016	55	3820
2026-01-27 05:23:06.22	355.16	23.17	-41.6	-42.4	22.2	0.00e+00	0	43	0	1120927744	55	3810
2026-01-27 05:23:07.23	354.89	23.15	-41.7	-42.5	22.1	0.00e+00	0	43	0	1124073472	55	3852
2026-01-27 05:23:08.23	354.61	23.13	-41.8	-42.6	22.1	0.00e+00	0	43	0	1127219200	55	3883
2026-01-27 05:23:09.24	354.34	23.11	-41.9	-42.7	22.0	0.00e+00	0	43	0	1130364928	55	3928
2026-01-27 05:23:10.25	354.06	23.09	-41.8	-42.7	22.0	0.00e+00	0	43	0	1133510656	55	3919
2026-01-27 05:23:11.26	353.79	23.07	-41.7	-42.6	22.0	0.00e+00	0	43	0	1136656384	55	3870
2026-01-27 05:23:12.27	353.52	23.05	-41.8	-42.6	22.0	0.00e+00	0	43	0	1139802112	55	3902
2026-01-27 05:23:13.28	353.24	23.02	-41.9	-42.7	21.9	0.00e+00	0	43	0	1142947840	55	3948
2026-01-27 05:23:14.29	352.97	23.00	-42.1	-42.9	21.8	0.00e+00	0	43	0	1146093568	55	4026
2026-01-27 05:23:15.29	352.70	22.98	-42.0	-42.9	21.8	0.00e+00	0	43	0	1149239296	55	4018
2026-01-27 05:23:16.30	352.43	22.95	-42.0	-42.8	21.9	0.00e+00	0	43	0	1152385024	55	3975
2026-01-27 05:23:17.31	352.16	22.92	-42.0	-42.8	21.8	0.00e+00	0	43	0	1155530752	55	4000
2026-01-27 05:23:18.32	351.88	22.90	-41.9	-42.7	22.0	0.00e+00	0	43	0	1158676480	55	3940
2026-01-27 05:23:19.33	351.61	22.87	-41.9	-42.8	21.9	0.00e+00	0	43	0	1161822208	55	3964
2026-01-27 05:23:20.34	351.34	22.84	-42.0	-42.8	21.9	0.00e+00	0	43	0	1164967936	55	3973
2026-01-27 05:23:21.35	351.07	22.81	-41.9	-42.7	21.9	0.00e+00	0	43	0	1168113664	55	3943
2026-01-27 05:23:22.36	350.80	22.79	-41.9	-42.8	21.9	0.00e+00	0	43	0	1171259392	55	3959
2026-01-27 05:23:23.37	350.53	22.76	-41.8	-42.6	22.0	0.00e+00	0	43	0	1174405120	55	3910
2026-01-27 05:23:24.37	350.27	22.73	-41.9	-42.7	22.0	0.00e+00	0	43	0	1177550848	55	3934
2026-01-27 05:23:25.37	350.00	22.70	-41.8	-42.6	22.0	0.00e+00	0	43	0	1180696576	55	3903
2026-01-27 05:23:26.38	349.74	22.66	-41.8	-42.7	22.0	0.00e+00	0	43	0	1183842304	55	3917
2026-01-27 05:23:27.39	349.47	22.63	-41.8	-42.6	22.0	0.00e+00	0	43	0	1186988032	55	3895
2026-01-27 05:23:28.40	349.20	22.60	-41.7	-42.5	22.1	0.00e+00	0	43	0	1190133760	55	3854
2026-01-27 05:23:29.41	348.94	22.57	-41.7	-42.5	22.0	0.00e+00	0	43	0	1193279488	55	3864
2026-01-27 05:23:30.42	348.67	22.53	-41.7	-42.5	22.1	0.00e+00	0	43	0	1196425216	55	3840
2026-01-27 05:23:31.43	348.41	22.50	-41.9	-42.7	21.9	0.00e+00	0	43	0	1199570944	55	3933
2026-01-27 05:23:32.43	348.15	22.46	-42.0	-42.8	21.8	0.00e+00	0	43	0	1202716672	55	3996
2026-01-27 05:23:33.44	347.88	22.43	-42.1	-42.9	21.7	0.00e+00	0	43	0	1205862400	55	4047
2026-01-27 05:23:34.45	347.62	22.39	-42.2	-43.1	21.6	0.00e+00	0	43	0	1209008128	55	4102
2026-01-27 05:23:35.45	347.36	22.35	-42.1	-42.9	21.8	0.00e+00	0	43	0	1212153856	55	4033
2026-01-27 05:23:36.46	347.10	22.31	-42.0	-42.8	21.9	0.00e+00	0	43	0	1215299584	55	3977
2026-01-27 05:23:37.47	346.84	22.28	-42.0	-42.9	21.8	0.00e+00	0	43	0	1218445312	55	4005
2026-01-27 05:23:38.47	346.58	22.24	-42.0	-42.9	21.8	0.00e+00	0	43	0	1221591040	55	4015
2026-01-27 05:23:39.48	346.32	22.20	-42.1	-43.0	21.7	0.00e+00	0	43	0	1224736768	55	4063
2026-01-27 05:23:40.49	346.06	22.16	-42.0	-42.9	21.8	0.00e+00	0	43	0	1227882496	55	4023
2026-01-27 05:23:41.50	345.80	22.12	-42.2	-43.0	21.7	0.00e+00	0	43	0	1231028224	55	4097
2026-01-27 05:23:42.50	345.55	22.08	-42.1	-43.0	21.7	0.00e+00	0	43	0	1234173952	55	4062
2026-01-27 05:23:43.51	345.29	22.04	-42.0	-42.9	21.8	0.00e+00	0	43	0	1237319680	55	4006
2026-01-27 05:23:44.52	345.03	21.99	-42.1	-42.9	21.8	0.00e+00	0	43	0	1240465408	55	4037
2026-01-27 05:23:45.53	344.78	21.95	-42.0	-42.9	21.8	0.00e+00	0	43	0	1243611136	55	4014
2026-01-27 05:23:46.53	344.53	21.91	-41.9	-42.7	21.9	0.00e+00	0	43	0	1246756864	55	3937
2026-01-27 05:23:47.54	344.27	21.86	-42.0	-42.8	21.8	0.00e+00	0	43	0	1249902592	55	4001
2026-01-27 05:23:48.54	344.02	21.82	-41.9	-42.8	21.9	0.00e+00	0	43	0	1253048320	55	3962
2026-01-27 05:23:49.55	343.77	21.78	-42.2	-43.0	21.6	0.00e+00	0	43	0	1256194048	55	4094
2026-01-27 05:23:50.56	343.52	21.73	-42.4	-43.2	21.5	0.00e+00	0	43	0	1259339776	55	4184
2026-01-27 05:23:51.57	343.27	21.68	-42.3	-43.2	21.5	0.00e+00	0	43	0	1262485504	55	4177
2026-01-27 05:23:52.58	343.02	21.64	-42.3	-43.2	21.5	0.00e+00	0	43	0	1265631232	55	4178
2026-01-27 05:23:53.59	342.77	21.59	-42.3	-43.2	21.5	0.00e+00	0	43	0	1268776960	55	4157
2026-01-27 05:23:54.60	342.52	21.54	-42.2	-43.1	21.6	0.00e+00	0	43	0	1271922688	55	4116
2026-01-27 05:23:55.61	342.27	21.50	-42.3	-43.1	21.6	0.00e+00	0	43	0	1275068416	55	4123
2026-01-27 05:23:56.61	342.03	21.45	-42.3	-43.1	21.5	0.00e+00	0	43	0	1278214144	55	4129
2026-01-27 05:23:57.62	341.78	21.40	-42.5	-43.3	21.4	0.00e+00	0	43	0	1281359872	55	4241
2026-01-27 05:23:58.63	341.53	21.35	-42.4	-43.3	21.4	0.00e+00	0	43	0	1284505600	55	4221
2026-01-27 05:23:59.64	341.29	21.30	-42.5	-43.4	21.3	0.00e+00	0	43	0	1287651328	55	4253
2026-01-27 05:24:00.65	341.04	21.25	-42.6	-43.5	21.2	0.00e+00	0	43	0	1290797056	55	4295
2026-01-27 05:24:01.64	340.81	21.20	-42.5	-43.3	21.4	0.00e+00	0	43	0	1293942784	55	4236
2026-01-27 05:24:02.65	340.56	21.15	-42.3	-43.2	21.5	0.00e+00	0	43	0	1297088512	55	4158
2026-01-27 05:24:03.66	340.32	21.10	-42.2	-43.1	21.5	0.00e+00	0	43	0	1300234240	55	4118
2026-01-27 05:24:04.66	340.08	21.05	-42.1	-42.9	21.7	0.00e+00	0	43	0	1303379968	55	4022
2026-01-27 05:24:05.67	339.84	20.99	-42.0	-42.8	21.8	0.00e+00	0	43	0	1306525696	55	3998
2026-01-27 05:24:06.67	339.61	20.94	-42.0	-42.8	21.8	0.00e+00	0	43	0	1309671424	55	3992
2026-01-27 05:24:07.68	339.37	20.89	-42.1	-42.9	21.7	0.00e+00	0	43	0	1312817152	55	4035
2026-01-27 05:24:08.69	339.13	20.84	-42.2	-43.1	21.6	0.00e+00	0	43	0	1315962880	55	4100
2026-01-27 05:24:09.70	338.89	20.78	-42.4	-43.2	21.5	0.00e+00	0	43	0	1319108608	55	4191
2026-01-27 05:24:10.70	338.66	20.73	-42.4	-43.3	21.5	0.00e+00	0	43	0	1322254336	55	4194
2026-01-27 05:24:11.70	338.43	20.67	-42.6	-43.5	21.3	0.00e+00	0	43	0	1325400064	55	4297
2026-01-27 05:24:12.71	338.19	20.62	-42.5	-43.4	21.3	0.00e+00	0	43	0	1328545792	55	4280
2026-01-27 05:24:13.72	337.96	20.56	-42.6	-43.5	21.2	0.00e+00	0	43	0	1331691520	55	4331
2026-01-27 05:24:14.73	337.73	20.51	-42.6	-43.5	21.2	0.00e+00	0	43	0	1334837248	55	4302
2026-01-27 05:24:15.74	337.50	20.45	-42.6	-43.5	21.2	0.00e+00	0	43	0	1337982976	55	4309
2026-01-27 05:24:16.75	337.26	20.39	-42.5	-43.4	21.3	0.00e+00	0	43	0	1341128704	55	4271
2026-01-27 05:24:17.76	337.03	20.34	-42.5	-43.4	21.3	0.00e+00	0	43	0	1344274432	55	4244
2026-01-27 05:24:18.77	336.81	20.28	-42.3	-43.2	21.5	0.00e+00	0	43	0	1347420160	55	4159
2026-01-27 05:24:19.78	336.58	20.22	-42.3	-43.1	21.5	0.00e+00	0	43	0	1350565888	55	4142
2026-01-27 05:24:20.79	336.35	20.16	-42.3	-43.2	21.5	0.00e+00	0	43	0	1353711616	55	4177
2026-01-27 05:24:21.79	336.13	20.11	-42.3	-43.2	21.4	0.00e+00	0	43	0	1356857344	55	4172
2026-01-27 05:24:22.80	335.90	20.05	-42.3	-43.1	21.5	0.00e+00	0	43	0	1360003072	55	4131
2026-01-27 05:24:23.80	335.68	19.99	-42.2	-43.1	21.5	0.00e+00	0	43	0	1363148800	55	4106
2026-01-27 05:24:24.81	335.45	19.93	-42.3	-43.2	21.4	0.00e+00	0	43	0	1366294528	55	4168
2026-01-27 05:24:25.82	335.23	19.87	-42.1	-43.0	21.7	0.00e+00	0	43	0	1369440256	55	4056
2026-01-27 05:24:26.83	335.01	19.81	-42.0	-42.8	21.8	0.00e+00	0	43	0	1372585984	55	4004
2026-01-27 05:24:27.83	334.79	19.75	-42.2	-43.0	21.6	0.00e+00	0	43	0	1375731712	55	4090
2026-01-27 05:24:28.84	334.57	19.69	-42.2	-43.1	21.6	0.00e+00	0	43	0	1378877440	55	4100
2026-01-27 05:24:29.84	334.35	19.63	-42.3	-43.2	21.5	0.00e+00	0	43	0	1382023168	55	4165
2026-01-27 05:24:30.85	334.13	19.57	-42.4	-43.3	21.4	0.00e+00	0	43	0	1385168896	55	4194
2026-01-27 05:24:31.86	333.92	19.51	-42.3	-43.2	21.5	0.00e+00	0	43	0	1388314624	55	4170
2026-01-27 05:24:32.86	333.70	19.44	-42.3	-43.2	21.5	0.00e+00	0	43	0	1391460352	55	4153
2026-01-27 05:24:33.87	333.48	19.38	-42.4	-43.3	21.3	0.00e+00	0	43	0	1394606080	55	4210
2026-01-27 05:24:34.87	333.27	19.32	-42.0	-42.8	21.7	0.00e+00	0	43	0	1397751808	55	3996
2026-01-27 05:24:35.88	333.06	19.26	-41.9	-42.7	21.8	0.00e+00	0	43	0	1400897536	55	3957
2026-01-27 05:24:36.89	332.84	19.20	-41.9	-42.7	21.9	0.00e+00	0	43	0	1404043264	55	3940
2026-01-27 05:24:37.90	332.63	19.13	-41.9	-42.8	21.9	0.00e+00	0	43	0	1407188992	55	3960
2026-01-27 05:24:38.90	332.42	19.07	-41.9	-42.7	21.9	0.00e+00	0	43	0	1410334720	55	3949
2026-01-27 05:24:39.91	332.21	19.01	-42.0	-42.8	21.8	0.00e+00	0	43	0	1413480448	55	3983
2026-01-27 05:24:40.91	332.00	18.94	-42.1	-43.0	21.6	0.00e+00	0	43	0	1416626176	55	4066
2026-01-27 05:24:41.92	331.80	18.88	-42.3	-43.1	21.6	0.00e+00	0	43	0	1419771904	55	4129
2026-01-27 05:24:42.93	331.59	18.81	-42.3	-43.2	21.4	0.00e+00	0	43	0	1422917632	55	4179
2026-01-27 05:24:43.94	331.38	18.75	-42.4	-43.2	21.4	0.00e+00	0	43	0	1426063360	55	4193
2026-01-27 05:24:44.94	331.18	18.69	-42.3	-43.2	21.5	0.00e+00	0	43	0	1429209088	55	4166
2026-01-27 05:24:45.94	330.97	18.62	-42.3	-43.2	21.5	0.00e+00	0	43	0	1432354816	55	4167
2026-01-27 05:24:46.95	330.77	18.56	-42.3	-43.2	21.5	0.00e+00	0	43	0	1435500544	55	4166
2026-01-27 05:24:47.96	330.56	18.49	-42.2	-43.1	21.6	0.00e+00	0	43	0	1438646272	55	4119
2026-01-27 05:24:48.96	330.36	18.43	-42.1	-43.0	21.7	0.00e+00	0	43	0	1441792000	55	4061
2026-01-27 05:24:49.97	330.16	18.36	-42.3	-43.2	21.5	0.00e+00	0	43	0	1444937728	55	4154
2026-01-27 05:24:50.98	329.96	18.29	-42.3	-43.1	21.5	0.00e+00	0	43	0	1448083456	55	4129
2026-01-27 05:24:51.98	329.76	18.23	-42.2	-43.0	21.6	0.00e+00	0	43	0	1451229184	55	4097
2026-01-27 05:24:52.99	329.56	18.16	-42.1	-43.0	21.6	0.00e+00	0	43	0	1454374912	55	4075
2026-01-27 05:24:54.00	329.37	18.10	-42.1	-43.0	21.6	0.00e+00	0	43	0	1457520640	55	4075
2026-01-27 05:24:55.01	329.17	18.03	-42.1	-42.9	21.6	0.00e+00	0	43	0	1460666368	55	4042
2026-01-27 05:24:56.02	328.97	17.96	-41.9	-42.8	21.8	0.00e+00	0	43	0	1463812096	55	3966
2026-01-27 05:24:57.03	328.78	17.89	-42.0	-42.8	21.7	0.00e+00	0	43	0	1466957824	55	4000
2026-01-27 05:24:58.03	328.58	17.83	-42.1	-42.9	21.6	0.00e+00	0	43	0	1470103552	55	4045
2026-01-27 05:24:59.04	328.39	17.76	-42.2	-43.0	21.6	0.00e+00	0	43	0	1473249280	55	4080
2026-01-27 05:25:00.05	328.20	17.69	-42.3	-43.2	21.4	0.00e+00	0	43	0	1476395008	55	4154
2026-01-27 05:25:01.06	328.00	17.63	-42.5	-43.4	21.2	0.00e+00	0	43	0	1479540736	55	4280
2026-01-27 05:25:02.06	327.81	17.56	-42.6	-43.5	21.2	0.00e+00	0	43	0	1482686464	55	4305
2026-01-27 05:25:03.07	327.62	17.49	-42.9	-43.8	20.9	0.00e+00	0	43	0	1485832192	56	4236
2026-01-27 05:25:04.07	327.44	17.42	-43.0	-44.0	20.8	0.00e+00	0	43	0	1488977920	56	4312
2026-01-27 05:25:05.07	327.25	17.36	-43.0	-44.0	20.8	0.00e+00	0	43	0	1492123648	56	4292
2026-01-27 05:25:06.08	327.06	17.29	-42.9	-43.8	20.9	0.00e+00	0	43	0	1495269376	56	4225
2026-01-27 05:25:07.09	326.88	17.22	-42.7	-43.6	21.1	0.00e+00	0	43	0	1498415104	56	4135
2026-01-27 05:25:08.09	326.69	17.15	-42.7	-43.6	21.1	0.00e+00	0	43	0	1501560832	56	4135
2026-01-27 05:25:09.10	326.51	17.08	-42.6	-43.5	21.2	0.00e+00	0	43	0	1504706560	56	4061
2026-01-27 05:25:10.11	326.32	17.01	-42.6	-43.4	21.2	0.00e+00	0	43	0	1507852288	56	4048
2026-01-27 05:25:11.12	326.14	16.94	-42.4	-43.3	21.4	0.00e+00	0	43	0	1510998016	56	3961
2026-01-27 05:25:12.12	325.96	16.88	-42.4	-43.2	21.4	0.00e+00	0	43	0	1514143744	56	3948
2026-01-27 05:25:13.13	325.77	16.81	-42.3	-43.2	21.4	0.00e+00	0	43	0	1517289472	56	3942
2026-01-27 05:25:14.13	325.60	16.74	-42.3	-43.2	21.4	0.00e+00	0	43	0	1520435200	56	3926
2026-01-27 05:25:15.14	325.42	16.67	-42.4	-43.3	21.3	0.00e+00	0	43	0	1523580928	56	3962
2026-01-27 05:25:16.15	325.24	16.60	-42.4	-43.3	21.3	0.00e+00	0	43	0	1526726656	56	3964
2026-01-27 05:25:17.16	325.06	16.53	-42.4	-43.3	21.3	0.00e+00	0	43	0	1529872384	56	3962
2026-01-27 05:25:18.16	324.88	16.46	-42.3	-43.2	21.3	0.00e+00	0	43	0	1533018112	56	3936
2026-01-27 05:25:19.17	324.70	16.39	-42.4	-43.2	21.3	0.00e+00	0	43	0	1536163840	56	3944
2026-01-27 05:25:20.17	324.53	16.32	-42.2	-43.1	21.4	0.00e+00	0	43	0	1539309568	56	3884
2026-01-27 05:25:21.18	324.36	16.25	-42.3	-43.1	21.4	0.00e+00	0	43	0	1542455296	56	3901
2026-01-27 05:25:22.19	324.18	16.18	-42.3	-43.2	21.4	0.00e+00	0	43	0	1545601024	56	3919
2026-01-27 05:25:23.19	324.01	16.11	-42.3	-43.1	21.4	0.00e+00	0	43	0	1548746752	56	3913
2026-01-27 05:25:24.20	323.84	16.04	-42.5	-43.4	21.2	0.00e+00	0	43	0	1551892480	56	4009
2026-01-27 05:25:25.21	323.66	15.97	-42.6	-43.5	21.2	0.00e+00	0	43	0	1555038208	56	4058
2026-01-27 05:25:26.21	323.49	15.90	-42.7	-43.6	21.0	0.00e+00	0	43	0	1558183936	56	4136
2026-01-27 05:25:27.22	323.32	15.83	-42.7	-43.6	21.0	0.00e+00	0	43	0	1561329664	56	4138
2026-01-27 05:25:28.23	323.15	15.76	-42.8	-43.7	20.9	0.00e+00	0	43	0	1564475392	56	4189
2026-01-27 05:25:29.24	322.99	15.69	-42.8	-43.8	20.9	0.00e+00	0	43	0	1567621120	56	4197
2026-01-27 05:25:30.25	322.82	15.62	-42.9	-43.8	20.8	0.00e+00	0	43	0	1570766848	56	4233
2026-01-27 05:25:31.25	322.65	15.55	-42.9	-43.9	20.7	0.00e+00	0	43	0	1573912576	56	4251
2026-01-27 05:25:32.26	322.49	15.48	-43.0	-44.0	20.6	0.00e+00	0	43	0	1577058304	56	4306
2026-01-27 05:25:33.27	322.32	15.41	-43.0	-43.9	20.7	0.00e+00	0	43	0	1580204032	56	4282
2026-01-27 05:25:34.27	322.16	15.34	-43.1	-44.0	20.6	0.00e+00	0	43	0	1583349760	56	4318
2026-01-27 05:25:35.28	321.99	15.27	-42.9	-43.8	20.7	0.00e+00	0	43	0	1586495488	56	4235
2026-01-27 05:25:36.28	321.83	15.20	-43.0	-43.9	20.6	0.00e+00	0	43	0	1589641216	56	4284
2026-01-27 05:25:37.29	321.67	15.13	-42.9	-43.8	20.7	0.00e+00	0	43	0	1592786944	56	4228
2026-01-27 05:25:38.29	321.51	15.06	-43.0	-43.9	20.7	0.00e+00	0	43	0	1595932672	56	4279
2026-01-27 05:25:39.31	321.35	14.99	-42.9	-43.8	20.7	0.00e+00	0	43	0	1599078400	56	4233
2026-01-27 05:25:40.31	321.19	14.92	-42.8	-43.7	20.8	0.00e+00	0	43	0	1602224128	56	4181
2026-01-27 05:25:41.32	321.03	14.85	-42.8	-43.8	20.8	0.00e+00	0	43	0	1605369856	56	4194
2026-01-27 05:25:42.33	320.87	14.78	-42.8	-43.7	20.8	0.00e+00	0	43	0	1608515584	56	4186
2026-01-27 05:25:43.34	320.71	14.71	-42.8	-43.7	20.8	0.00e+00	0	43	0	1611661312	56	4192
2026-01-27 05:25:44.35	320.56	14.63	-42.7	-43.6	21.0	0.00e+00	0	43	0	1614807040	56	4114
2026-01-27 05:25:45.36	320.40	14.56	-42.7	-43.6	20.9	0.00e+00	0	43	0	1617952768	56	4136
2026-01-27 05:25:46.37	320.25	14.49	-42.7	-43.6	21.0	0.00e+00	0	43	0	1621098496	56	4107
2026-01-27 05:25:47.37	320.09	14.42	-42.8	-43.7	20.9	0.00e+00	0	43	0	1624244224	56	4158
2026-01-27 05:25:48.38	319.94	14.35	-42.7	-43.6	21.0	0.00e+00	0	43	0	1627389952	56	4117
2026-01-27 05:25:49.39	319.79	14.28	-42.7	-43.6	21.0	0.00e+00	0	43	0	1630535680	56	4102
2026-01-27 05:25:50.40	319.63	14.21	-42.7	-43.7	20.9	0.00e+00	0	43	0	1633681408	56	4146
2026-01-27 05:25:51.40	319.48	14.14	-42.8	-43.7	20.8	0.00e+00	0	43	0	1636827136	56	4182
2026-01-27 05:25:52.41	319.33	14.07	-42.9	-43.8	20.8	0.00e+00	0	43	0	1639972864	56	4208
2026-01-27 05:25:53.41	319.18	14.00	-42.9	-43.8	20.7	0.00e+00	0	43	0	1643118592	56	4239
2026-01-27 05:25:54.41	319.03	13.93	-43.0	-43.9	20.7	0.00e+00	0	43	0	1646264320	56	4265
2026-01-27 05:25:55.42	318.89	13.86	-42.8	-43.7	20.8	0.00e+00	0	43	0	1649410048	56	4179
2026-01-27 05:25:56.43	318.74	13.79	-42.6	-43.5	21.0	0.00e+00	0	43	0	1652555776	56	4094
2026-01-27 05:25:57.44	318.59	13.72	-42.7	-43.6	20.9	0.00e+00	0	43	0	1655701504	56	4116
2026-01-27 05:25:58.44	318.45	13.65	-42.8	-43.7	20.8	0.00e+00	0	43	0	1658847232	56	4178
2026-01-27 05:25:59.45	318.30	13.58	-42.8	-43.7	20.8	0.00e+00	0	43	0	1661992960	56	4181
2026-01-27 05:26:00.46	318.15	13.50	-42.9	-43.8	20.8	0.00e+00	0	43	0	1665138688	56	4220
2026-01-27 05:26:01.47	318.01	13.43	-43.0	-44.0	20.6	0.00e+00	0	43	0	1668284416	56	4298
2026-01-27 05:26:02.47	317.87	13.36	-43.2	-44.1	20.5	0.00e+00	0	43	0	1671430144	56	4374
2026-01-27 05:26:03.48	317.72	13.29	-43.3	-44.3	20.3	0.00e+00	0	43	0	1674575872	57	4233
2026-01-27 05:26:04.49	317.58	13.22	-43.5	-44.4	20.2	0.00e+00	0	43	0	1677721600	57	4289
2026-01-27 05:26:05.49	317.44	13.15	-43.7	-44.7	19.9	0.00e+00	0	43	0	1680867328	57	4429
2026-01-27 05:26:06.50	317.30	13.08	-43.7	-44.8	19.9	0.00e+00	0	43	0	1684013056	58	4212
2026-01-27 05:26:07.51	317.16	13.01	-43.8	-44.9	19.7	0.00e+00	0	43	0	1687158784	58	4249
2026-01-27 05:26:08.52	317.02	12.94	-43.8	-44.8	19.8	0.00e+00	0	43	0	1690304512	58	4223
2026-01-27 05:26:09.53	316.88	12.87	-43.8	-44.8	19.8	0.00e+00	0	43	0	1693450240	58	4224
2026-01-27 05:26:10.53	316.74	12.80	-43.8	-44.8	19.7	0.00e+00	0	43	0	1696595968	58	4229
2026-01-27 05:26:11.54	316.61	12.73	-43.5	-44.5	20.0	0.00e+00	0	43	0	1699741696	58	4073
2026-01-27 05:26:12.55	316.47	12.66	-43.4	-44.4	20.2	0.00e+00	0	43	0	1702887424	58	4027
2026-01-27 05:26:13.56	316.33	12.59	-43.3	-44.3	20.3	0.00e+00	0	43	0	1706033152	58	3962
2026-01-27 05:26:14.56	316.20	12.52	-43.2	-44.2	20.4	0.00e+00	0	43	0	1709178880	58	3935
2026-01-27 05:26:15.57	316.06	12.45	-43.4	-44.4	20.2	0.00e+00	0	43	0	1712324608	58	4029
2026-01-27 05:26:16.57	315.93	12.38	-43.5	-44.5	20.2	0.00e+00	0	43	0	1715470336	58	4054
2026-01-27 05:26:17.58	315.80	12.31	-43.7	-44.7	19.9	0.00e+00	0	43	0	1718616064	58	4187
2026-01-27 05:26:18.59	315.66	12.24	-43.7	-44.7	19.9	0.00e+00	0	43	0	1721761792	58	4176
2026-01-27 05:26:19.60	315.53	12.17	-43.7	-44.8	19.9	0.00e+00	0	43	0	1724907520	58	4211
2026-01-27 05:26:20.60	315.40	12.10	-43.9	-45.0	19.6	0.00e+00	0	43	0	1728053248	58	4325
2026-01-27 05:26:21.61	315.27	12.03	-43.9	-45.0	19.7	0.00e+00	0	43	0	1731198976	58	4315
2026-01-27 05:26:22.62	315.14	11.96	-43.8	-44.9	19.8	0.00e+00	0	43	0	1734344704	58	4251
2026-01-27 05:26:23.63	315.01	11.89	-43.9	-44.9	19.7	0.00e+00	0	43	0	1737490432	58	4281
2026-01-27 05:26:24.64	314.88	11.82	-43.8	-44.8	19.7	0.00e+00	0	43	0	1740636160	58	4238
2026-01-27 05:26:25.65	314.75	11.75	-43.7	-44.8	19.7	0.00e+00	0	43	0	1743781888	58	4207
2026-01-27 05:26:26.66	314.62	11.68	-43.6	-44.6	19.9	0.00e+00	0	43	0	1746927616	58	4129
2026-01-27 05:26:27.66	314.50	11.61	-43.5	-44.5	20.0	0.00e+00	0	43	0	1750073344	58	4055
2026-01-27 05:26:28.67	314.37	11.54	-43.4	-44.4	20.1	0.00e+00	0	43	0	1753219072	58	4037
2026-01-27 05:26:29.69	314.24	11.47	-43.5	-44.5	20.0	0.00e+00	0	43	0	1756364800	58	4054
2026-01-27 05:26:30.70	314.12	11.40	-43.2	-44.2	20.3	0.00e+00	0	43	0	1759510528	58	3933
2026-01-27 05:26:31.71	313.99	11.33	-43.3	-44.3	20.2	0.00e+00	0	43	0	1762656256	58	3994
2026-01-27 05:26:32.72	313.87	11.26	-43.4	-44.4	20.1	0.00e+00	0	43	0	1765801984	58	4006
2026-01-27 05:26:33.73	313.74	11.19	-43.5	-44.5	20.0	0.00e+00	0	43	0	1768947712	58	4079
2026-01-27 05:26:34.74	313.62	11.12	-43.5	-44.5	20.0	0.00e+00	0	43	0	1772093440	58	4067
2026-01-27 05:26:35.74	313.50	11.06	-43.5	-44.6	20.0	0.00e+00	0	43	0	1775239168	58	4100
2026-01-27 05:26:36.75	313.38	10.99	-43.7	-44.7	19.8	0.00e+00	0	43	0	1778384896	58	4181
2026-01-27 05:26:37.77	313.26	10.92	-43.6	-44.6	19.9	0.00e+00	0	43	0	1781530624	58	4139
2026-01-27 05:26:38.77	313.14	10.85	-43.8	-44.9	19.7	0.00e+00	0	43	0	1784676352	58	4259
2026-01-27 05:26:39.78	313.02	10.78	-43.6	-44.7	19.8	0.00e+00	0	43	0	1787822080	58	4152
2026-01-27 05:26:40.79	312.90	10.71	-43.7	-44.7	19.8	0.00e+00	0	43	0	1790967808	58	4155
2026-01-27 05:26:41.80	312.78	10.64	-43.9	-45.0	19.6	0.00e+00	0	43	0	1794113536	58	4293
2026-01-27 05:26:42.81	312.66	10.57	-43.7	-44.7	19.8	0.00e+00	0	43	0	1797259264	58	4188
2026-01-27 05:26:43.81	312.54	10.51	-43.8	-44.8	19.7	0.00e+00	0	43	0	1800404992	58	4239
2026-01-27 05:26:44.83	312.42	10.44	-43.8	-44.8	19.6	0.00e+00	0	43	0	1803550720	58	4224
2026-01-27 05:26:45.83	312.31	10.37	-43.6	-44.7	19.8	0.00e+00	0	43	0	1806696448	58	4150
2026-01-27 05:26:46.84	312.19	10.30	-43.6	-44.6	19.9	0.00e+00	0	43	0	1809842176	58	4106
2026-01-27 05:26:47.84	312.08	10.23	-43.6	-44.6	19.8	0.00e+00	0	43	0	1812987904	58	4141
2026-01-27 05:26:48.85	311.96	10.16	-43.7	-44.8	19.7	0.00e+00	0	43	0	1816133632	58	4198
2026-01-27 05:26:49.87	311.85	10.10	-43.7	-44.7	19.8	0.00e+00	0	43	0	1819279360	58	4179
2026-01-27 05:26:50.87	311.73	10.03	-43.8	-44.8	19.7	0.00e+00	0	43	0	1822425088	58	4219
2026-01-27 05:26:51.88	311.62	9.96	-43.9	-45.0	19.5	0.00e+00	0	43	0	1825570816	58	4310
2026-01-27 05:26:52.89	311.51	9.89	-44.0	-45.1	19.4	0.00e+00	0	43	0	1828716544	58	4374
2026-01-27 05:26:53.89	311.40	9.82	-44.2	-45.3	19.3	0.00e+00	0	43	0	1831862272	58	4452
2026-01-27 05:26:54.91	311.28	9.76	-44.3	-45.4	19.1	0.00e+00	0	43	0	1835008000	59	4283
2026-01-27 05:26:55.91	311.17	9.69	-44.3	-45.4	19.2	0.00e+00	0	43	0	1838153728	59	4274
2026-01-27 05:26:56.93	311.06	9.62	-44.4	-45.5	19.0	0.00e+00	0	43	0	1841299456	59	4317
2026-01-27 05:26:57.93	310.95	9.55	-44.4	-45.6	19.0	0.00e+00	0	43	0	1844445184	59	4353
2026-01-27 05:26:58.94	310.84	9.49	-44.5	-45.7	18.9	0.00e+00	0	43	0	1847590912	59	4405
2026-01-27 05:26:59.95	310.73	9.42	-44.4	-45.6	19.0	0.00e+00	0	43	0	1850736640	59	4347
2026-01-27 05:27:00.96	310.62	9.35	-44.4	-45.5	19.0	0.00e+00	0	43	0	1853882368	59	4323
2026-01-27 05:27:01.97	310.52	9.28	-44.4	-45.5	19.0	0.00e+00	0	43	0	1857028096	59	4314
2026-01-27 05:27:02.98	310.41	9.22	-44.2	-45.4	19.0	0.00e+00	0	43	0	1860173824	59	4254
2026-01-27 05:27:03.99	310.30	9.15	-44.2	-45.3	19.1	0.00e+00	0	43	0	1863319552	59	4228
2026-01-27 05:27:05.00	310.19	9.08	-44.0	-45.1	19.2	0.00e+00	0	43	0	1866465280	59	4140
2026-01-27 05:27:06.01	310.09	9.02	-44.0	-45.1	19.2	0.00e+00	0	43	0	1869611008	59	4132
2026-01-27 05:27:07.02	309.98	8.95	-44.0	-45.1	19.3	0.00e+00	0	43	0	1872756736	59	4112
2026-01-27 05:27:08.02	309.88	8.88	-43.9	-44.9	19.4	0.00e+00	0	43	0	1875902464	59	4038
2026-01-27 05:27:09.03	309.77	8.82	-43.8	-44.8	19.5	0.00e+00	0	43	0	1879048192	59	3999
2026-01-27 05:27:10.04	309.67	8.75	-43.9	-44.9	19.5	0.00e+00	0	43	0	1882193920	59	4033
2026-01-27 05:27:11.05	309.57	8.68	-44.0	-45.1	19.4	0.00e+00	0	43	0	1885339648	59	4106
2026-01-27 05:27:12.06	309.46	8.62	-43.9	-45.0	19.5	0.00e+00	0	43	0	1888485376	59	4056
2026-01-27 05:27:13.07	309.36	8.55	-44.1	-45.1	19.3	0.00e+00	0	43	0	1891631104	59	4135
2026-01-27 05:27:14.08	309.26	8.48	-44.2	-45.4	19.1	0.00e+00	0	43	0	1894776832	59	4247
2026-01-27 05:27:15.09	309.16	8.42	-44.2	-45.3	19.1	0.00e+00	0	43	0	1897922560	59	4216
2026-01-27 05:27:16.10	309.05	8.35	-44.4	-45.5	18.9	0.00e+00	0	43	0	1901068288	59	4329
2026-01-27 05:27:17.11	308.95	8.29	-44.6	-45.7	18.7	0.00e+00	0	43	0	1904214016	59	4428
2026-01-27 05:27:18.11	308.85	8.22	-44.6	-45.8	18.7	0.00e+00	0	43	0	1907359744	59	4458
2026-01-27 05:27:19.12	308.75	8.15	-44.5	-45.7	18.5	0.00e+00	0	43	0	1910505472	60	4153
2026-01-27 05:27:20.13	308.65	8.09	-44.5	-45.7	18.4	0.00e+00	0	43	0	1913651200	60	4184
2026-01-27 05:27:21.13	308.56	8.02	-44.9	-46.1	18.0	0.00e+00	0	43	0	1916796928	60	4378
2026-01-27 05:27:22.14	308.46	7.96	-44.8	-46.1	18.1	0.00e+00	0	43	0	1919942656	60	4344
2026-01-27 05:27:23.15	308.36	7.89	-44.7	-45.9	18.2	0.00e+00	0	43	0	1923088384	60	4261
2026-01-27 05:27:24.15	308.26	7.83	-44.4	-45.6	18.4	0.00e+00	0	43	0	1926234112	60	4119
2026-01-27 05:27:25.16	308.17	7.76	-44.6	-45.8	18.2	0.00e+00	0	43	0	1929379840	60	4208
2026-01-27 05:27:26.17	308.07	7.70	-44.4	-45.6	18.4	0.00e+00	0	43	0	1932525568	60	4115
2026-01-27 05:27:27.18	307.97	7.63	-44.2	-45.3	18.6	0.00e+00	0	43	0	1935671296	60	3992
2026-01-27 05:27:28.19	307.88	7.57	-44.1	-45.2	18.8	0.00e+00	0	43	0	1938817024	60	3934
2026-01-27 05:27:29.20	307.78	7.50	-44.0	-45.1	19.2	0.00e+00	0	43	0	1941962752	59	4126
2026-01-27 05:27:30.21	307.69	7.44	-44.1	-45.2	19.1	0.00e+00	0	43	0	1945108480	59	4157
2026-01-27 05:27:31.22	307.59	7.37	-44.1	-45.2	19.1	0.00e+00	0	43	0	1948254208	59	4193
2026-01-27 05:27:32.23	307.50	7.31	-44.0	-45.1	19.2	0.00e+00	0	43	0	1951399936	59	4124
2026-01-27 05:27:33.24	307.40	7.24	-44.0	-45.1	19.2	0.00e+00	0	43	0	1954545664	59	4122
2026-01-27 05:27:34.25	307.31	7.18	-44.0	-45.0	19.3	0.00e+00	0	43	0	1957691392	59	4089
2026-01-27 05:27:35.25	307.22	7.12	-43.9	-45.0	19.3	0.00e+00	0	43	0	1960837120	59	4084
2026-01-27 05:27:36.26	307.13	7.05	-44.2	-45.3	19.1	0.00e+00	0	43	0	1963982848	59	4218
2026-01-27 05:27:37.27	307.04	6.99	-44.2	-45.3	19.1	0.00e+00	0	43	0	1967128576	59	4210
2026-01-27 05:27:38.27	306.94	6.92	-44.6	-45.7	18.6	0.00e+00	0	43	0	1970274304	59	4430
2026-01-27 05:27:39.28	306.85	6.86	-44.6	-45.8	18.5	0.00e+00	0	43	0	1973420032	59	4486
2026-01-27 05:27:40.29	306.76	6.80	-44.7	-45.9	18.5	0.00e+00	0	43	0	1977614336	59	4503
2026-01-27 05:27:41.30	306.67	6.73	-44.5	-45.7	18.3	0.00e+00	0	43	0	1980760064	60	4193
2026-01-27 05:27:42.31	306.58	6.67	-44.5	-45.7	18.3	0.00e+00	0	43	0	1982857216	60	4191
2026-01-27 05:27:43.32	306.49	6.60	-44.7	-46.0	18.0	0.00e+00	0	43	0	1986002944	60	4316
2026-01-27 05:27:44.33	306.40	6.54	-44.6	-45.9	18.1	0.00e+00	0	43	0	1989148672	60	4243
2026-01-27 05:27:45.34	306.32	6.48	-44.6	-45.9	18.1	0.00e+00	0	43	0	1992294400	60	4260
2026-01-27 05:27:46.34	306.23	6.41	-44.6	-45.9	18.1	0.00e+00	0	43	0	1995440128	60	4251
2026-01-27 05:27:47.35	306.14	6.35	-44.7	-45.9	18.1	0.00e+00	0	43	0	1998585856	60	4287
2026-01-27 05:27:48.36	306.05	6.29	-44.9	-46.2	17.7	0.00e+00	0	43	0	2001731584	60	4436
2026-01-27 05:27:49.37	305.97	6.22	-44.7	-46.0	18.0	0.00e+00	0	43	0	2004877312	60	4303
2026-01-27 05:27:50.37	305.88	6.16	-44.9	-46.3	17.7	0.00e+00	0	43	0	2008023040	60	4444
2026-01-27 05:27:51.38	305.79	6.10	-45.0	-46.3	17.7	0.00e+00	0	43	0	2011168768	60	4453
2026-01-27 05:27:52.39	305.71	6.04	-44.9	-46.2	17.7	0.00e+00	0	43	0	2015363072	60	4413
2026-01-27 05:27:53.40	305.62	5.97	-44.9	-46.2	17.7	0.00e+00	0	43	0	2018508800	60	4438
2026-01-27 05:27:54.41	305.54	5.91	-44.9	-46.2	17.6	0.00e+00	0	43	0	2021654528	60	4438
2026-01-27 05:27:55.41	305.45	5.85	-44.6	-45.8	18.0	0.00e+00	0	43	0	2024800256	60	4226
