passes_logs/2026/01/27/R3.2S_Murmansk/R3.2S_Murmansk__20260127_040639_SUOMI_NPP_rec.log

#Pass ID: 20260127_040639_SUOMI NPP
#Satellite: SUOMI NPP
#Configuration: NPP
#almurnet v.1.7.20251203
#Start time: 2026-01-27 04:06:39

#Version: 2.2.20231116
#Station: R3.2S_Murmansk
#Location: 33.079688 lon 68.888172 lat
#TLE: 1 37849U 11061A   26026.52266023  .00000173  00000+0  10323-3 0  9994
#TLE: 2 37849  98.7822 328.4727 0002140  43.9411 316.1934 14.19530258738341

#Time	Az	El	Level	Level2	SNR	BER	BlckErr	Temp	State	Recorded	gain1	gain2
2026-01-27 04:06:39.85	47.48	2.02	-54.0	-69.0	3.8	1.49e+00	0	41	0	0	79	20476
2026-01-27 04:06:40.85	47.42	2.08	-54.0	-69.0	3.8	1.49e+00	0	40	104	0	78	21692
2026-01-27 04:06:41.86	47.36	2.14	-54.0	-69.0	3.8	1.49e+00	0	41	104	0	78	21652
2026-01-27 04:06:42.86	47.30	2.20	-54.0	-69.0	3.8	1.49e+00	0	41	104	0	78	21642
2026-01-27 04:06:43.87	47.24	2.26	-54.0	-69.0	3.8	1.49e+00	0	41	104	0	78	21627
2026-01-27 04:06:44.88	47.18	2.31	-54.0	-69.0	3.8	1.49e+00	0	41	104	0	78	21530
2026-01-27 04:06:45.89	47.11	2.37	-54.0	-69.0	3.8	1.49e+00	0	41	104	0	78	21633
2026-01-27 04:06:46.90	47.05	2.43	-54.0	-69.0	3.8	1.49e+00	0	41	104	0	78	21587
2026-01-27 04:06:47.91	46.99	2.49	-54.1	-69.1	3.8	1.49e+00	0	41	104	0	78	21847
2026-01-27 04:06:48.91	46.93	2.55	-54.2	-69.1	3.8	1.49e+00	0	41	104	0	78	21991
2026-01-27 04:06:49.92	46.87	2.61	-54.2	-69.2	3.8	1.49e+00	0	41	104	0	78	22092
2026-01-27 04:06:50.93	46.81	2.67	-54.2	-69.2	3.8	1.49e+00	0	41	104	0	78	22136
2026-01-27 04:06:51.94	46.74	2.73	-54.2	-69.2	3.8	1.49e+00	0	41	104	0	79	20875
2026-01-27 04:06:52.94	46.68	2.79	-54.2	-69.2	3.8	1.49e+00	0	41	104	0	79	20803
2026-01-27 04:06:53.95	46.62	2.84	-54.2	-69.1	3.8	1.49e+00	0	41	104	0	79	20775
2026-01-27 04:06:54.96	46.55	2.90	-54.1	-69.1	3.8	1.49e+00	0	41	104	0	79	20669
2026-01-27 04:06:55.97	46.49	2.96	-54.1	-69.0	3.8	1.49e+00	0	41	104	0	79	20535
2026-01-27 04:06:56.97	46.43	3.02	-54.0	-69.0	3.8	1.49e+00	0	41	104	0	79	20370
2026-01-27 04:06:57.98	46.36	3.08	-54.0	-69.0	3.8	1.49e+00	0	41	104	0	79	20355
2026-01-27 04:06:58.98	46.30	3.14	-54.0	-69.0	3.8	1.49e+00	0	41	104	0	79	20378
2026-01-27 04:06:59.99	46.23	3.20	-54.0	-69.0	3.8	1.49e+00	0	41	104	0	79	20320
2026-01-27 04:07:00.99	46.17	3.26	-53.9	-68.9	3.8	1.49e+00	0	41	104	0	79	20199
2026-01-27 04:07:02.00	46.10	3.32	-53.8	-68.8	3.8	1.49e+00	0	41	104	0	79	20030
2026-01-27 04:07:03.01	46.04	3.38	-53.8	-68.8	3.8	1.49e+00	0	41	104	0	79	19897
2026-01-27 04:07:04.01	45.97	3.44	-53.7	-68.6	3.8	1.49e+00	0	41	104	0	79	19582
2026-01-27 04:07:05.02	45.91	3.50	-53.6	-68.6	3.8	1.49e+00	0	41	104	0	79	19468
2026-01-27 04:07:06.03	45.84	3.56	-53.5	-68.5	3.8	1.49e+00	0	41	104	0	79	19224
2026-01-27 04:07:07.04	45.77	3.62	-53.3	-68.3	3.8	1.49e+00	0	41	104	0	78	19876
2026-01-27 04:07:08.04	45.71	3.68	-53.1	-68.1	3.8	1.49e+00	0	41	104	0	78	19390
2026-01-27 04:07:09.05	45.64	3.75	-52.7	-67.5	3.8	1.49e+00	0	41	104	0	77	19354
2026-01-27 04:07:10.06	45.57	3.81	-52.2	-67.1	3.8	1.49e+00	0	41	104	0	76	19525
2026-01-27 04:07:11.07	45.50	3.87	-52.0	-66.2	3.8	1.49e+00	0	41	104	0	76	17553
2026-01-27 04:07:12.07	45.44	3.93	-52.0	-65.8	3.8	1.49e+00	0	42	104	0	76	16738
2026-01-27 04:07:13.07	45.37	3.99	-51.9	-65.2	3.8	1.49e+00	0	42	104	0	75	16690
2026-01-27 04:07:14.09	45.30	4.05	-51.9	-64.9	3.9	1.49e+00	0	42	104	0	75	16092
2026-01-27 04:07:15.09	45.23	4.11	-51.9	-64.6	4.0	1.48e+00	0	42	104	0	75	15443
2026-01-27 04:07:16.10	45.16	4.17	-51.9	-64.4	4.0	1.49e+00	0	42	104	0	75	15154
2026-01-27 04:07:17.11	45.09	4.23	-51.9	-64.9	3.9	1.49e+00	0	42	104	0	75	16015
2026-01-27 04:07:18.12	45.02	4.30	-51.9	-65.1	3.8	1.49e+00	0	42	104	0	75	16481
2026-01-27 04:07:19.13	44.95	4.36	-51.9	-65.2	3.8	1.49e+00	0	42	104	0	75	16678
2026-01-27 04:07:20.14	44.88	4.42	-51.9	-65.1	3.8	1.49e+00	0	42	104	0	75	16399
2026-01-27 04:07:21.15	44.81	4.48	-51.9	-64.1	4.0	1.49e+00	0	42	104	0	75	14566
2026-01-27 04:07:22.15	44.74	4.54	-51.8	-63.0	4.3	1.40e+00	8	42	0	0	75	12829
2026-01-27 04:07:23.16	44.67	4.61	-51.7	-62.1	4.7	1.13e+00	0	42	0	1048576	75	11581
2026-01-27 04:07:24.16	44.60	4.67	-51.6	-61.0	5.2	7.02e-01	0	42	0	3145728	75	10286
2026-01-27 04:07:25.17	44.52	4.73	-51.5	-60.5	5.5	5.17e-01	0	42	0	5242880	75	9668
2026-01-27 04:07:26.18	44.45	4.79	-51.4	-60.1	5.8	4.13e-01	0	42	0	7340032	74	9822
2026-01-27 04:07:27.18	44.38	4.86	-51.5	-60.6	5.4	4.22e-01	0	42	0	8388608	74	10373
2026-01-27 04:07:28.19	44.31	4.92	-51.6	-61.0	5.2	5.44e-01	0	42	0	10485760	74	10880
2026-01-27 04:07:29.20	44.23	4.98	-51.6	-61.5	4.9	6.05e-01	0	42	0	12582912	74	11469
2026-01-27 04:07:30.21	44.16	5.04	-51.7	-62.2	4.6	8.28e-01	0	42	0	14680064	74	12415
2026-01-27 04:07:31.21	44.08	5.11	-51.8	-62.4	4.5	1.08e+00	17	42	0	16777216	74	12713
2026-01-27 04:07:32.22	44.01	5.17	-51.5	-59.8	6.0	5.16e-01	0	42	0	17825792	74	9446
2026-01-27 04:07:33.23	43.94	5.23	-51.9	-65.3	3.8	1.29e+00	0	42	104	18874368	74	17790
2026-01-27 04:07:34.24	43.86	5.30	-49.1	-52.4	13.5	6.07e-01	0	42	0	18874368	69	5364
2026-01-27 04:07:35.24	43.78	5.36	-52.0	-66.6	3.8	1.49e+00	0	42	104	19922944	74	20707
2026-01-27 04:07:36.25	43.71	5.42	-48.8	-51.9	14.0	4.80e-02	0	42	0	19922944	69	5044
2026-01-27 04:07:37.25	43.63	5.49	-48.3	-51.0	14.9	0.00e+00	0	42	0	22020096	68	4869
2026-01-27 04:07:38.25	43.56	5.55	-48.2	-50.9	15.1	0.00e+00	0	42	0	24117248	68	4779
2026-01-27 04:07:39.25	43.48	5.61	-48.2	-50.9	15.1	0.00e+00	0	42	0	26214400	68	4790
2026-01-27 04:07:40.26	43.40	5.68	-47.8	-50.4	15.6	0.00e+00	0	42	0	27262976	67	4767
2026-01-27 04:07:41.27	43.33	5.74	-48.0	-50.6	15.3	0.00e+00	0	42	0	29360128	67	4905
2026-01-27 04:07:42.27	43.25	5.80	-47.8	-50.2	15.6	0.00e+00	0	42	0	31457280	67	4704
2026-01-27 04:07:43.28	43.17	5.87	-47.7	-50.2	15.7	0.00e+00	0	42	0	33554432	67	4668
2026-01-27 04:07:44.29	43.09	5.93	-47.6	-50.0	15.9	0.00e+00	0	42	0	35651584	67	4588
2026-01-27 04:07:45.29	43.01	6.00	-47.6	-50.0	16.1	0.00e+00	0	42	0	36700160	67	4560
2026-01-27 04:07:46.30	42.93	6.06	-47.7	-50.2	15.8	0.00e+00	0	42	0	38797312	67	4652
2026-01-27 04:07:47.30	42.85	6.13	-47.6	-49.9	15.8	0.00e+00	0	42	0	40894464	67	4542
2026-01-27 04:07:48.31	42.77	6.19	-47.7	-50.1	15.6	0.00e+00	0	42	0	42991616	67	4618
2026-01-27 04:07:49.32	42.69	6.26	-47.7	-50.2	15.7	0.00e+00	0	42	0	45088768	67	4675
2026-01-27 04:07:50.33	42.61	6.32	-47.5	-49.8	16.2	0.00e+00	0	42	0	46137344	67	4458
2026-01-27 04:07:51.33	42.53	6.38	-47.6	-49.9	16.1	0.00e+00	0	42	0	48234496	66	4773
2026-01-27 04:07:52.34	42.45	6.45	-47.5	-49.8	16.1	0.00e+00	0	42	0	50331648	66	4714
2026-01-27 04:07:53.35	42.37	6.52	-47.4	-49.7	16.4	0.00e+00	0	42	0	52428800	66	4665
2026-01-27 04:07:54.36	42.28	6.58	-47.4	-49.7	16.5	0.00e+00	0	42	0	54525952	66	4671
2026-01-27 04:07:55.36	42.20	6.65	-47.4	-49.6	16.6	0.00e+00	0	42	0	55574528	66	4621
2026-01-27 04:07:56.37	42.12	6.71	-47.4	-49.7	16.4	0.00e+00	0	42	0	57671680	66	4698
2026-01-27 04:07:57.38	42.04	6.78	-47.4	-49.7	16.5	0.00e+00	0	42	0	59768832	66	4657
2026-01-27 04:07:58.39	41.95	6.84	-47.5	-49.8	16.4	0.00e+00	0	42	0	61865984	66	4724
2026-01-27 04:07:59.40	41.87	6.91	-47.5	-49.7	16.5	0.00e+00	0	42	0	63963136	66	4704
2026-01-27 04:08:00.40	41.78	6.98	-47.4	-49.7	16.5	0.00e+00	0	42	0	65011712	66	4675
2026-01-27 04:08:01.40	41.70	7.04	-47.4	-49.6	16.6	0.00e+00	0	42	0	67108864	66	4645
2026-01-27 04:08:02.41	41.61	7.11	-47.3	-49.5	16.8	0.00e+00	0	42	0	69206016	66	4564
2026-01-27 04:08:03.42	41.53	7.17	-47.3	-49.4	16.8	0.00e+00	0	42	0	71303168	66	4528
2026-01-27 04:08:04.42	41.44	7.24	-47.5	-49.7	16.6	0.00e+00	0	42	0	73400320	66	4687
2026-01-27 04:08:05.43	41.35	7.31	-47.5	-49.7	16.6	0.00e+00	0	42	0	74448896	66	4678
2026-01-27 04:08:06.43	41.27	7.37	-47.3	-49.5	16.8	0.00e+00	0	42	0	76546048	66	4565
2026-01-27 04:08:07.44	41.18	7.44	-47.3	-49.4	16.9	0.00e+00	0	42	0	78643200	66	4540
2026-01-27 04:08:08.45	41.09	7.51	-47.6	-49.9	16.5	0.00e+00	0	42	0	80740352	66	4773
2026-01-27 04:08:09.45	41.00	7.57	-47.3	-49.4	16.9	0.00e+00	0	42	0	82837504	66	4519
2026-01-27 04:08:10.46	40.91	7.64	-47.4	-49.5	16.9	0.00e+00	0	42	0	83886080	66	4592
2026-01-27 04:08:11.47	40.82	7.71	-47.4	-49.6	16.8	0.00e+00	0	42	0	85983232	66	4631
2026-01-27 04:08:12.47	40.74	7.77	-47.3	-49.4	17.0	0.00e+00	0	42	0	88080384	66	4505
2026-01-27 04:08:13.48	40.65	7.84	-47.1	-49.1	17.3	0.00e+00	0	42	0	90177536	66	4380
2026-01-27 04:08:14.48	40.56	7.91	-47.1	-49.1	17.3	0.00e+00	0	42	0	92274688	66	4360
2026-01-27 04:08:15.49	40.46	7.98	-47.1	-49.1	17.3	0.00e+00	0	42	0	93323264	66	4363
2026-01-27 04:08:16.50	40.37	8.04	-47.2	-49.2	17.1	0.00e+00	0	43	0	95420416	66	4434
2026-01-27 04:08:17.51	40.28	8.11	-47.2	-49.3	17.2	0.00e+00	0	43	0	97517568	66	4446
2026-01-27 04:08:18.51	40.19	8.18	-47.4	-49.6	16.9	0.00e+00	0	43	0	99614720	66	4636
2026-01-27 04:08:19.52	40.10	8.25	-47.3	-49.5	16.9	0.00e+00	0	42	0	101711872	66	4554
2026-01-27 04:08:20.52	40.00	8.32	-47.2	-49.2	17.2	0.00e+00	0	42	0	102760448	66	4427
2026-01-27 04:08:21.53	39.91	8.38	-47.2	-49.2	17.2	0.00e+00	0	42	0	104857600	66	4430
2026-01-27 04:08:22.54	39.82	8.45	-47.0	-49.1	17.4	0.00e+00	0	42	0	106954752	66	4348
2026-01-27 04:08:23.55	39.72	8.52	-47.1	-49.1	17.3	0.00e+00	0	42	0	109051904	65	4633
2026-01-27 04:08:24.56	39.63	8.59	-47.4	-49.6	16.9	0.00e+00	0	42	0	111149056	65	4876
2026-01-27 04:08:25.56	39.53	8.66	-47.4	-49.6	16.9	0.00e+00	0	42	0	112197632	65	4881
2026-01-27 04:08:26.57	39.43	8.73	-47.4	-49.6	16.9	0.00e+00	0	43	0	114294784	65	4905
2026-01-27 04:08:27.58	39.34	8.80	-47.5	-49.8	16.7	0.00e+00	0	42	0	116391936	65	4991
2026-01-27 04:08:28.59	39.24	8.87	-47.6	-49.9	16.6	0.00e+00	0	43	0	118489088	65	5046
2026-01-27 04:08:29.60	39.14	8.94	-47.6	-49.9	16.6	0.00e+00	0	43	0	120586240	66	4763
2026-01-27 04:08:30.60	39.05	9.00	-47.6	-49.8	16.7	0.00e+00	0	43	0	121634816	66	4753
2026-01-27 04:08:31.61	38.95	9.07	-47.6	-49.8	16.6	0.00e+00	0	43	0	123731968	66	4752
2026-01-27 04:08:32.62	38.85	9.14	-47.6	-49.9	16.6	0.00e+00	0	42	0	125829120	66	4770
2026-01-27 04:08:33.63	38.75	9.21	-47.4	-49.5	17.0	0.00e+00	0	42	0	127926272	66	4564
2026-01-27 04:08:34.63	38.65	9.28	-47.4	-49.6	17.0	0.00e+00	0	43	0	130023424	66	4614
2026-01-27 04:08:35.64	38.55	9.35	-47.4	-49.5	17.0	0.00e+00	0	42	0	131072000	66	4575
2026-01-27 04:08:36.65	38.45	9.42	-47.2	-49.3	17.2	0.00e+00	0	42	0	133169152	66	4456
2026-01-27 04:08:37.66	38.35	9.49	-47.3	-49.4	17.1	0.00e+00	0	43	0	135266304	66	4512
2026-01-27 04:08:38.66	38.24	9.56	-47.1	-49.2	17.3	0.00e+00	0	42	0	137363456	66	4401
2026-01-27 04:08:39.67	38.14	9.63	-47.2	-49.3	17.2	0.00e+00	0	43	0	139460608	66	4474
2026-01-27 04:08:40.67	38.04	9.70	-47.1	-49.2	17.2	0.00e+00	0	43	0	140509184	66	4430
2026-01-27 04:08:41.68	37.94	9.77	-47.1	-49.2	17.3	0.00e+00	0	43	0	142606336	66	4400
2026-01-27 04:08:42.69	37.83	9.84	-46.9	-48.9	17.5	0.00e+00	0	43	0	144703488	65	4512
2026-01-27 04:08:43.69	37.73	9.91	-46.9	-48.8	17.7	0.00e+00	0	43	0	146800640	65	4491
2026-01-27 04:08:44.70	37.62	9.99	-46.8	-48.8	17.8	0.00e+00	0	43	0	148897792	65	4447
2026-01-27 04:08:45.70	37.52	10.06	-47.1	-49.2	17.4	0.00e+00	0	42	0	149946368	65	4652
2026-01-27 04:08:46.72	37.41	10.13	-47.0	-49.0	17.5	0.00e+00	0	42	0	152043520	65	4585
2026-01-27 04:08:47.73	37.30	10.20	-46.9	-48.8	17.7	0.00e+00	0	42	0	154140672	65	4485
2026-01-27 04:08:48.73	37.20	10.27	-47.0	-49.0	17.5	0.00e+00	0	42	0	156237824	65	4591
2026-01-27 04:08:49.74	37.09	10.34	-46.9	-48.9	17.6	0.00e+00	0	42	0	158334976	65	4527
2026-01-27 04:08:50.75	36.98	10.41	-46.8	-48.7	17.8	0.00e+00	0	42	0	160432128	65	4439
2026-01-27 04:08:51.76	36.87	10.48	-46.9	-48.9	17.6	0.00e+00	0	43	0	161480704	65	4523
2026-01-27 04:08:52.77	36.76	10.56	-46.8	-48.7	17.8	0.00e+00	0	43	0	163577856	65	4437
2026-01-27 04:08:53.77	36.65	10.63	-47.0	-49.0	17.6	0.00e+00	0	43	0	165675008	65	4564
2026-01-27 04:08:54.77	36.54	10.70	-46.8	-48.7	17.8	0.00e+00	0	42	0	167772160	65	4410
2026-01-27 04:08:55.78	36.43	10.77	-46.8	-48.7	17.9	0.00e+00	0	43	0	168820736	65	4402
2026-01-27 04:08:56.79	36.32	10.84	-46.7	-48.6	17.9	0.00e+00	0	43	0	170917888	65	4378
2026-01-27 04:08:57.80	36.21	10.92	-46.7	-48.6	18.0	0.00e+00	0	43	0	173015040	65	4360
2026-01-27 04:08:58.80	36.10	10.99	-46.7	-48.6	18.0	0.00e+00	0	43	0	175112192	65	4354
2026-01-27 04:08:59.81	35.98	11.06	-46.8	-48.7	17.9	0.00e+00	0	43	0	177209344	65	4414
2026-01-27 04:09:00.82	35.87	11.13	-46.7	-48.6	18.0	0.00e+00	0	43	0	178257920	65	4372
2026-01-27 04:09:01.83	35.76	11.21	-46.7	-48.5	18.0	0.00e+00	0	43	0	180355072	65	4326
2026-01-27 04:09:02.84	35.64	11.28	-46.6	-48.5	18.1	0.00e+00	0	43	0	182452224	65	4309
2026-01-27 04:09:03.85	35.52	11.35	-46.8	-48.7	17.9	0.00e+00	0	43	0	184549376	65	4406
2026-01-27 04:09:04.86	35.41	11.42	-46.7	-48.5	18.1	0.00e+00	0	42	0	186646528	65	4310
2026-01-27 04:09:05.86	35.29	11.50	-46.5	-48.3	18.3	0.00e+00	0	43	0	188743680	64	4467
2026-01-27 04:09:06.87	35.18	11.57	-46.5	-48.3	18.3	0.00e+00	0	43	0	189792256	64	4473
2026-01-27 04:09:07.88	35.06	11.64	-46.5	-48.3	18.2	0.00e+00	0	43	0	191889408	64	4466
2026-01-27 04:09:08.89	34.94	11.72	-46.5	-48.3	18.3	0.00e+00	0	43	0	193986560	64	4464
2026-01-27 04:09:09.89	34.82	11.79	-46.7	-48.5	18.1	0.00e+00	0	43	0	196083712	64	4595
2026-01-27 04:09:10.90	34.70	11.86	-46.8	-48.7	17.9	0.00e+00	0	43	0	197132288	64	4688
2026-01-27 04:09:11.91	34.58	11.94	-46.8	-48.7	17.9	0.00e+00	0	43	0	199229440	64	4655
2026-01-27 04:09:12.91	34.46	12.01	-46.8	-48.7	17.9	0.00e+00	0	42	0	201326592	64	4686
2026-01-27 04:09:13.92	34.34	12.08	-46.8	-48.7	17.9	0.00e+00	0	43	0	203423744	64	4690
2026-01-27 04:09:14.93	34.21	12.16	-46.8	-48.7	17.9	0.00e+00	0	43	0	205520896	64	4671
2026-01-27 04:09:15.93	34.09	12.23	-46.9	-48.8	17.8	0.00e+00	0	43	0	206569472	64	4739
2026-01-27 04:09:16.94	33.97	12.31	-47.0	-48.8	17.8	0.00e+00	0	43	0	208666624	64	4751
2026-01-27 04:09:17.95	33.84	12.38	-47.0	-48.9	17.7	0.00e+00	0	43	0	210763776	64	4807
2026-01-27 04:09:18.95	33.72	12.45	-47.2	-49.1	17.5	0.00e+00	0	43	0	212860928	64	4910
2026-01-27 04:09:19.96	33.60	12.53	-47.2	-49.2	17.4	0.00e+00	0	43	0	214958080	64	4940
2026-01-27 04:09:20.97	33.47	12.60	-47.1	-49.0	17.6	0.00e+00	0	43	0	217055232	64	4861
2026-01-27 04:09:21.97	33.34	12.68	-47.0	-48.9	17.7	0.00e+00	0	43	0	218103808	64	4792
2026-01-27 04:09:22.98	33.22	12.75	-46.9	-48.7	17.8	0.00e+00	0	43	0	220200960	64	4703
2026-01-27 04:09:23.99	33.09	12.83	-46.7	-48.5	18.0	0.00e+00	0	43	0	222298112	64	4586
2026-01-27 04:09:25.00	32.96	12.90	-46.7	-48.5	18.1	0.00e+00	0	43	0	224395264	64	4595
2026-01-27 04:09:26.00	32.83	12.97	-46.7	-48.5	18.1	0.00e+00	0	43	0	225443840	64	4565
2026-01-27 04:09:27.01	32.70	13.05	-46.6	-48.3	18.3	0.00e+00	0	43	0	227540992	64	4475
2026-01-27 04:09:28.02	32.57	13.13	-46.5	-48.2	18.4	0.00e+00	0	43	0	229638144	64	4419
2026-01-27 04:09:29.03	32.44	13.20	-46.5	-48.2	18.5	0.00e+00	0	43	0	231735296	64	4401
2026-01-27 04:09:30.03	32.31	13.27	-46.2	-47.8	18.8	0.00e+00	0	43	0	233832448	64	4209
2026-01-27 04:09:31.04	32.17	13.35	-46.0	-47.6	19.1	0.00e+00	0	43	0	234881024	63	4349
2026-01-27 04:09:32.05	32.04	13.43	-46.0	-47.6	19.1	0.00e+00	0	43	0	236978176	63	4363
2026-01-27 04:09:33.05	31.91	13.50	-45.9	-47.5	19.2	0.00e+00	0	43	0	239075328	63	4293
2026-01-27 04:09:34.06	31.77	13.58	-45.6	-47.1	19.5	0.00e+00	0	43	0	241172480	63	4122
2026-01-27 04:09:35.07	31.63	13.65	-45.8	-47.3	19.3	0.00e+00	0	43	0	243269632	63	4230
2026-01-27 04:09:36.08	31.50	13.73	-45.8	-47.3	19.4	0.00e+00	0	43	0	245366784	63	4200
2026-01-27 04:09:37.08	31.36	13.80	-45.9	-47.5	19.2	0.00e+00	0	43	0	246415360	63	4294
2026-01-27 04:09:38.09	31.22	13.88	-46.0	-47.6	19.1	0.00e+00	0	43	0	248512512	63	4372
2026-01-27 04:09:39.09	31.09	13.95	-45.9	-47.5	19.2	0.00e+00	0	43	0	250609664	63	4304
2026-01-27 04:09:40.10	30.95	14.03	-46.0	-47.6	19.2	0.00e+00	0	43	0	252706816	63	4346
2026-01-27 04:09:41.11	30.81	14.11	-46.0	-47.6	19.1	0.00e+00	0	43	0	253755392	63	4368
2026-01-27 04:09:42.11	30.67	14.18	-45.9	-47.4	19.3	0.00e+00	0	43	0	255852544	63	4282
2026-01-27 04:09:43.12	30.53	14.26	-46.0	-47.6	19.1	0.00e+00	0	43	0	257949696	63	4358
2026-01-27 04:09:44.12	30.38	14.33	-46.1	-47.7	19.0	0.00e+00	0	43	0	260046848	63	4418
2026-01-27 04:09:45.13	30.24	14.41	-46.1	-47.7	19.1	0.00e+00	0	43	0	262144000	63	4408
2026-01-27 04:09:46.14	30.10	14.49	-46.1	-47.7	19.1	0.00e+00	0	43	0	263192576	63	4420
2026-01-27 04:09:47.15	29.95	14.56	-46.2	-47.8	19.0	0.00e+00	0	43	0	265289728	63	4466
2026-01-27 04:09:48.16	29.81	14.64	-46.1	-47.7	19.0	0.00e+00	0	43	0	267386880	63	4438
2026-01-27 04:09:49.17	29.66	14.72	-46.3	-47.9	18.9	0.00e+00	0	43	0	269484032	63	4516
2026-01-27 04:09:50.18	29.51	14.79	-46.2	-47.8	19.0	0.00e+00	0	43	0	271581184	63	4450
2026-01-27 04:09:51.18	29.37	14.87	-46.0	-47.6	19.2	0.00e+00	0	43	0	273678336	63	4341
2026-01-27 04:09:52.19	29.22	14.94	-45.9	-47.4	19.3	0.00e+00	0	43	0	274726912	63	4279
2026-01-27 04:09:53.20	29.07	15.02	-45.8	-47.3	19.4	0.00e+00	0	43	0	276824064	63	4217
2026-01-27 04:09:54.21	28.92	15.10	-45.8	-47.4	19.3	0.00e+00	0	43	0	278921216	63	4256
2026-01-27 04:09:55.22	28.77	15.17	-45.9	-47.5	19.3	0.00e+00	0	43	0	281018368	63	4292
2026-01-27 04:09:56.23	28.62	15.25	-46.0	-47.6	19.2	0.00e+00	0	43	0	282066944	63	4349
2026-01-27 04:09:57.24	28.46	15.33	-46.1	-47.7	19.1	0.00e+00	0	43	0	284164096	63	4394
2026-01-27 04:09:58.24	28.31	15.40	-46.0	-47.5	19.2	0.00e+00	0	43	0	286261248	63	4337
2026-01-27 04:09:59.25	28.16	15.48	-45.9	-47.5	19.3	0.00e+00	0	43	0	288358400	63	4299
2026-01-27 04:10:00.26	28.00	15.56	-45.7	-47.2	19.5	0.00e+00	0	43	0	290455552	63	4170
2026-01-27 04:10:01.27	27.85	15.64	-45.7	-47.2	19.5	0.00e+00	0	43	0	292552704	63	4163
2026-01-27 04:10:02.27	27.69	15.71	-45.8	-47.4	19.4	0.00e+00	0	43	0	293601280	63	4248
2026-01-27 04:10:03.28	27.54	15.79	-45.9	-47.5	19.2	0.00e+00	0	43	0	295698432	63	4313
2026-01-27 04:10:04.29	27.38	15.87	-46.2	-47.9	18.8	0.00e+00	0	43	0	297795584	63	4529
2026-01-27 04:10:05.29	27.22	15.94	-46.5	-48.3	18.5	0.00e+00	0	43	0	299892736	63	4747
2026-01-27 04:10:06.30	27.06	16.02	-46.6	-48.5	18.3	0.00e+00	0	43	0	301989888	63	4827
2026-01-27 04:10:07.30	26.90	16.10	-46.7	-48.5	18.3	0.00e+00	0	43	0	303038464	63	4843
2026-01-27 04:10:08.31	26.74	16.17	-46.4	-48.1	18.6	0.00e+00	0	43	0	305135616	63	4611
2026-01-27 04:10:09.32	26.58	16.25	-46.6	-48.4	18.4	0.00e+00	0	43	0	307232768	64	4498
2026-01-27 04:10:10.33	26.41	16.33	-46.3	-48.0	18.7	0.00e+00	0	43	0	309329920	64	4307
2026-01-27 04:10:11.33	26.25	16.40	-46.5	-48.2	18.5	0.00e+00	0	43	0	310378496	64	4434
2026-01-27 04:10:12.34	26.09	16.48	-46.6	-48.4	18.4	0.00e+00	0	43	0	312475648	64	4503
2026-01-27 04:10:13.35	25.92	16.56	-46.8	-48.6	18.2	0.00e+00	0	43	0	314572800	64	4630
2026-01-27 04:10:14.35	25.76	16.63	-46.6	-48.4	18.3	0.00e+00	0	43	0	316669952	64	4535
2026-01-27 04:10:15.36	25.59	16.71	-46.5	-48.2	18.5	0.00e+00	0	43	0	318767104	64	4439
2026-01-27 04:10:16.36	25.42	16.79	-46.6	-48.4	18.4	0.00e+00	0	43	0	320864256	64	4521
2026-01-27 04:10:17.37	25.25	16.87	-46.5	-48.3	18.4	0.00e+00	0	43	0	321912832	64	4447
2026-01-27 04:10:18.38	25.08	16.94	-46.5	-48.2	18.6	0.00e+00	0	43	0	324009984	64	4428
2026-01-27 04:10:19.39	24.91	17.02	-46.4	-48.1	18.7	0.00e+00	0	43	0	326107136	64	4362
2026-01-27 04:10:20.40	24.74	17.10	-46.6	-48.3	18.4	0.00e+00	0	43	0	328204288	64	4477
2026-01-27 04:10:21.41	24.57	17.17	-46.6	-48.3	18.4	0.00e+00	0	43	0	330301440	64	4485
2026-01-27 04:10:22.42	24.39	17.25	-46.7	-48.5	18.2	0.00e+00	0	43	0	331350016	64	4583
2026-01-27 04:10:23.42	24.22	17.33	-46.8	-48.6	18.2	0.00e+00	0	43	0	333447168	64	4618
2026-01-27 04:10:24.43	24.04	17.40	-46.7	-48.5	18.2	0.00e+00	0	43	0	335544320	64	4568
2026-01-27 04:10:25.43	23.87	17.48	-46.7	-48.5	18.2	0.00e+00	0	43	0	337641472	64	4592
2026-01-27 04:10:26.44	23.69	17.56	-46.4	-48.1	18.6	0.00e+00	0	43	0	338690048	64	4385
2026-01-27 04:10:27.45	23.51	17.63	-46.3	-48.0	18.7	0.00e+00	0	43	0	340787200	64	4328
2026-01-27 04:10:28.45	23.34	17.71	-46.4	-48.1	18.6	0.00e+00	0	43	0	342884352	64	4356
2026-01-27 04:10:29.46	23.16	17.79	-46.3	-47.9	18.8	0.00e+00	0	43	0	344981504	64	4288
2026-01-27 04:10:30.47	22.98	17.86	-46.3	-48.0	18.7	0.00e+00	0	43	0	347078656	64	4301
2026-01-27 04:10:31.48	22.79	17.94	-46.2	-47.8	18.9	0.00e+00	0	43	0	349175808	64	4230
2026-01-27 04:10:32.48	22.61	18.02	-46.2	-47.8	19.0	0.00e+00	0	43	0	350224384	63	4460
2026-01-27 04:10:33.49	22.43	18.09	-46.2	-47.9	18.9	0.00e+00	0	43	0	352321536	63	4496
2026-01-27 04:10:34.50	22.24	18.17	-46.3	-48.0	18.7	0.00e+00	0	43	0	354418688	63	4586
2026-01-27 04:10:35.51	22.06	18.24	-46.5	-48.2	18.7	0.00e+00	0	43	0	356515840	63	4671
2026-01-27 04:10:36.52	21.87	18.32	-46.5	-48.3	18.6	0.00e+00	0	43	0	358612992	63	4714
2026-01-27 04:10:37.53	21.68	18.40	-46.6	-48.3	18.6	0.00e+00	0	43	0	359661568	63	4733
2026-01-27 04:10:38.54	21.50	18.47	-46.4	-48.1	18.7	0.00e+00	0	43	0	361758720	64	4356
2026-01-27 04:10:39.55	21.31	18.55	-46.1	-47.7	19.1	0.00e+00	0	43	0	363855872	64	4149
2026-01-27 04:10:40.55	21.12	18.62	-46.1	-47.6	19.2	0.00e+00	0	43	0	365953024	63	4383
2026-01-27 04:10:41.56	20.93	18.70	-45.9	-47.4	19.4	0.00e+00	0	43	0	368050176	63	4258
2026-01-27 04:10:42.57	20.73	18.78	-45.9	-47.4	19.3	0.00e+00	0	43	0	369098752	63	4275
2026-01-27 04:10:43.57	20.54	18.85	-46.2	-47.8	19.1	0.00e+00	0	43	0	371195904	63	4456
2026-01-27 04:10:44.58	20.35	18.93	-46.0	-47.6	19.3	0.00e+00	0	43	0	373293056	63	4360
2026-01-27 04:10:45.59	20.15	19.00	-46.2	-47.7	19.1	0.00e+00	0	43	0	375390208	63	4431
2026-01-27 04:10:46.60	19.96	19.08	-46.1	-47.6	19.3	0.00e+00	0	42	0	377487360	63	4382
2026-01-27 04:10:47.61	19.76	19.15	-46.0	-47.5	19.4	0.00e+00	0	43	0	378535936	63	4306
2026-01-27 04:10:48.61	19.56	19.23	-46.3	-47.9	19.0	0.00e+00	0	43	0	380633088	63	4531
2026-01-27 04:10:49.62	19.36	19.30	-46.4	-48.1	18.8	0.00e+00	0	43	0	382730240	63	4615
2026-01-27 04:10:50.63	19.16	19.37	-46.6	-48.3	18.6	0.00e+00	0	43	0	384827392	63	4749
2026-01-27 04:10:51.64	18.96	19.45	-46.6	-48.4	18.4	0.00e+00	0	43	0	386924544	64	4541
2026-01-27 04:10:52.65	18.76	19.52	-46.4	-48.0	18.8	0.00e+00	0	43	0	387973120	64	4337
2026-01-27 04:10:53.65	18.56	19.60	-46.0	-47.6	19.3	0.00e+00	0	43	0	390070272	63	4357
2026-01-27 04:10:54.66	18.35	19.67	-45.9	-47.5	19.4	0.00e+00	0	43	0	392167424	63	4298
2026-01-27 04:10:55.67	18.15	19.75	-45.9	-47.4	19.4	0.00e+00	0	43	0	394264576	63	4289
2026-01-27 04:10:56.68	17.94	19.82	-45.8	-47.4	19.6	0.00e+00	0	43	0	396361728	63	4243
2026-01-27 04:10:57.69	17.74	19.89	-46.0	-47.6	19.3	0.00e+00	0	43	0	397410304	63	4344
2026-01-27 04:10:58.69	17.53	19.97	-46.0	-47.6	19.3	0.00e+00	0	43	0	399507456	63	4379
2026-01-27 04:10:59.70	17.32	20.04	-45.9	-47.4	19.4	0.00e+00	0	43	0	401604608	63	4289
2026-01-27 04:11:00.71	17.11	20.11	-45.4	-46.9	19.9	0.00e+00	0	43	0	403701760	62	4271
2026-01-27 04:11:01.71	16.90	20.18	-45.1	-46.5	20.2	0.00e+00	0	43	0	405798912	62	4061
2026-01-27 04:11:02.72	16.69	20.26	-45.2	-46.6	20.2	0.00e+00	0	43	0	406847488	62	4120
2026-01-27 04:11:03.73	16.47	20.33	-45.2	-46.7	20.1	0.00e+00	0	43	0	408944640	62	4159
2026-01-27 04:11:04.74	16.26	20.40	-45.2	-46.6	20.1	0.00e+00	0	43	0	411041792	62	4131
2026-01-27 04:11:05.74	16.05	20.47	-45.2	-46.7	20.1	0.00e+00	0	43	0	413138944	62	4162
2026-01-27 04:11:06.75	15.83	20.54	-45.0	-46.4	20.4	0.00e+00	0	43	0	415236096	61	4254
2026-01-27 04:11:07.76	15.61	20.61	-44.8	-46.1	20.6	0.00e+00	0	43	0	416284672	61	4113
2026-01-27 04:11:08.77	15.39	20.69	-44.7	-46.0	20.7	0.00e+00	0	43	0	418381824	61	4075
2026-01-27 04:11:09.78	15.18	20.76	-44.7	-46.0	20.6	0.00e+00	0	43	0	420478976	61	4090
2026-01-27 04:11:10.79	14.96	20.83	-44.5	-45.8	20.9	0.00e+00	0	43	0	422576128	60	4199
2026-01-27 04:11:11.79	14.74	20.90	-44.6	-45.9	20.7	0.00e+00	0	43	0	424673280	60	4269
2026-01-27 04:11:12.81	14.51	20.97	-44.6	-45.9	20.8	0.00e+00	0	43	0	425721856	60	4263
2026-01-27 04:11:13.81	14.29	21.04	-44.7	-46.0	20.7	0.00e+00	0	43	0	427819008	60	4333
2026-01-27 04:11:14.82	14.07	21.11	-44.7	-46.0	20.7	0.00e+00	0	43	0	429916160	60	4315
2026-01-27 04:11:15.83	13.84	21.18	-44.5	-45.8	20.8	0.00e+00	0	43	0	432013312	60	4225
2026-01-27 04:11:16.84	13.61	21.25	-44.6	-45.9	20.8	0.00e+00	0	43	0	434110464	60	4250
2026-01-27 04:11:17.85	13.39	21.32	-44.9	-46.3	20.4	0.00e+00	0	43	0	436207616	60	4459
2026-01-27 04:11:18.86	13.16	21.38	-44.8	-46.2	20.5	0.00e+00	0	43	0	437256192	60	4395
2026-01-27 04:11:19.86	12.93	21.45	-44.8	-46.1	20.6	0.00e+00	0	43	0	439353344	60	4355
2026-01-27 04:11:20.87	12.70	21.52	-44.7	-46.0	20.8	0.00e+00	0	43	0	441450496	60	4300
2026-01-27 04:11:21.88	12.47	21.59	-44.9	-46.2	20.6	0.00e+00	0	43	0	443547648	60	4409
2026-01-27 04:11:22.89	12.23	21.65	-44.7	-45.9	20.8	0.00e+00	0	43	0	444596224	60	4291
2026-01-27 04:11:23.89	12.00	21.72	-44.7	-46.0	20.7	0.00e+00	0	43	0	446693376	60	4309
2026-01-27 04:11:24.89	11.77	21.79	-44.5	-45.7	20.9	0.00e+00	0	43	0	448790528	60	4193
2026-01-27 04:11:25.90	11.53	21.85	-44.2	-45.4	21.2	0.00e+00	0	43	0	450887680	60	4049
2026-01-27 04:11:26.91	11.30	21.92	-44.3	-45.5	21.2	0.00e+00	0	43	0	452984832	60	4079
2026-01-27 04:11:27.92	11.06	21.98	-44.1	-45.4	21.2	0.00e+00	0	43	0	454033408	60	4016
2026-01-27 04:11:28.93	10.82	22.05	-44.3	-45.6	21.1	0.00e+00	0	43	0	456130560	60	4102
2026-01-27 04:11:29.93	10.58	22.11	-44.3	-45.6	21.1	0.00e+00	0	43	0	458227712	60	4107
2026-01-27 04:11:30.94	10.34	22.18	-44.4	-45.7	21.1	0.00e+00	0	43	0	460324864	60	4150
2026-01-27 04:11:31.95	10.10	22.24	-44.4	-45.6	21.1	0.00e+00	0	43	0	462422016	60	4127
2026-01-27 04:11:32.95	9.86	22.31	-44.6	-45.9	20.9	0.00e+00	0	43	0	464519168	60	4247
2026-01-27 04:11:33.96	9.62	22.37	-44.2	-45.4	21.2	0.00e+00	0	43	0	465567744	60	4048
2026-01-27 04:11:34.97	9.37	22.43	-44.1	-45.3	21.4	0.00e+00	0	43	0	467664896	60	3994
2026-01-27 04:11:35.98	9.13	22.49	-44.4	-45.5	21.5	0.00e+00	0	43	0	469762048	59	4335
2026-01-27 04:11:36.99	8.88	22.56	-44.5	-45.7	21.3	0.00e+00	0	43	0	471859200	59	4421
2026-01-27 04:11:38.00	8.63	22.62	-44.5	-45.7	21.3	0.00e+00	0	43	0	472907776	59	4439
2026-01-27 04:11:39.00	8.38	22.68	-44.2	-45.4	21.4	0.00e+00	0	43	0	475004928	60	4007
2026-01-27 04:11:40.01	8.13	22.74	-44.4	-45.7	21.1	0.00e+00	0	43	0	477102080	60	4158
2026-01-27 04:11:41.02	7.88	22.80	-44.3	-45.5	21.2	0.00e+00	0	43	0	479199232	60	4092
2026-01-27 04:11:42.03	7.63	22.86	-44.2	-45.4	21.4	0.00e+00	0	43	0	481296384	60	4014
2026-01-27 04:11:43.04	7.38	22.92	-44.1	-45.2	21.5	0.00e+00	0	43	0	482344960	60	3950
2026-01-27 04:11:44.05	7.13	22.98	-44.0	-45.1	21.6	0.00e+00	0	43	0	484442112	60	3912
2026-01-27 04:11:45.06	6.87	23.04	-44.3	-45.5	21.6	0.00e+00	0	43	0	486539264	59	4292
2026-01-27 04:11:46.07	6.62	23.09	-44.5	-45.7	21.4	0.00e+00	0	43	0	488636416	59	4396
2026-01-27 04:11:47.07	6.36	23.15	-44.1	-45.3	21.4	0.00e+00	0	43	0	490733568	60	3980
2026-01-27 04:11:48.08	6.10	23.21	-44.3	-45.4	21.6	0.00e+00	0	43	0	492830720	59	4290
2026-01-27 04:11:49.09	5.85	23.26	-44.1	-45.3	21.7	0.00e+00	0	43	0	493879296	59	4214
2026-01-27 04:11:50.09	5.59	23.32	-44.2	-45.4	21.7	0.00e+00	0	43	0	495976448	59	4243
2026-01-27 04:11:51.10	5.33	23.38	-44.3	-45.5	21.5	0.00e+00	0	43	0	498073600	59	4318
2026-01-27 04:11:52.11	5.07	23.43	-44.5	-45.8	21.3	0.00e+00	0	43	0	500170752	59	4443
2026-01-27 04:11:53.12	4.80	23.48	-44.6	-45.8	21.3	0.00e+00	0	43	0	501219328	59	4490
2026-01-27 04:11:54.12	4.54	23.54	-44.3	-45.5	21.3	0.00e+00	0	43	0	503316480	60	4088
2026-01-27 04:11:55.13	4.28	23.59	-44.2	-45.4	21.4	0.00e+00	0	43	0	505413632	60	4024
2026-01-27 04:11:56.13	4.02	23.64	-44.5	-45.7	21.1	0.00e+00	0	43	0	507510784	60	4187
2026-01-27 04:11:57.14	3.75	23.70	-44.6	-45.8	21.1	0.00e+00	0	43	0	509607936	60	4218
2026-01-27 04:11:58.15	3.49	23.75	-44.4	-45.6	21.2	0.00e+00	0	43	0	510656512	60	4135
2026-01-27 04:11:59.15	3.22	23.80	-44.3	-45.5	21.3	0.00e+00	0	43	0	512753664	60	4086
2026-01-27 04:12:00.16	2.95	23.85	-44.4	-45.6	21.2	0.00e+00	0	43	0	514850816	60	4122
2026-01-27 04:12:01.17	2.68	23.90	-44.2	-45.4	21.4	0.00e+00	0	43	0	516947968	60	4015
2026-01-27 04:12:02.18	2.41	23.95	-44.2	-45.4	21.4	0.00e+00	0	43	0	519045120	60	4019
2026-01-27 04:12:03.18	2.14	24.00	-44.2	-45.4	21.3	0.00e+00	0	43	0	521142272	60	4039
2026-01-27 04:12:04.19	1.87	24.04	-44.4	-45.5	21.3	0.00e+00	0	43	0	522190848	60	4096
2026-01-27 04:12:05.20	1.60	24.09	-44.1	-45.2	21.4	0.00e+00	0	43	0	524288000	60	3951
2026-01-27 04:12:06.20	1.33	24.14	-44.0	-45.2	21.6	0.00e+00	0	43	0	526385152	60	3923
2026-01-27 04:12:07.21	1.05	24.18	-44.2	-45.4	21.7	0.00e+00	0	43	0	528482304	59	4258
2026-01-27 04:12:08.22	0.78	24.23	-44.1	-45.3	21.8	0.00e+00	0	43	0	529530880	59	4201
2026-01-27 04:12:09.23	0.50	24.27	-44.2	-45.4	21.7	0.00e+00	0	43	0	531628032	59	4246
2026-01-27 04:12:10.24	0.23	24.32	-44.4	-45.5	21.6	0.00e+00	0	43	0	533725184	59	4331
2026-01-27 04:12:11.25	359.95	24.36	-44.3	-45.5	21.5	0.00e+00	0	43	0	535822336	59	4324
2026-01-27 04:12:12.26	359.67	24.41	-44.2	-45.3	21.7	0.00e+00	0	43	0	537919488	59	4239
2026-01-27 04:12:13.26	359.39	24.45	-44.0	-45.1	21.9	0.00e+00	0	43	0	540016640	59	4134
2026-01-27 04:12:14.27	359.11	24.49	-43.9	-45.0	22.0	0.00e+00	0	43	0	541065216	59	4079
2026-01-27 04:12:15.28	358.83	24.53	-44.1	-45.2	21.9	0.00e+00	0	43	0	543162368	59	4158
2026-01-27 04:12:16.28	358.55	24.57	-44.4	-45.6	21.6	0.00e+00	0	43	0	545259520	59	4343
2026-01-27 04:12:17.29	358.27	24.61	-44.7	-45.9	21.3	0.00e+00	0	43	0	547356672	59	4512
2026-01-27 04:12:18.30	357.99	24.65	-44.6	-45.8	21.0	0.00e+00	0	43	0	549453824	60	4237
2026-01-27 04:12:19.30	357.71	24.69	-44.6	-45.8	21.1	0.00e+00	0	43	0	550502400	60	4210
2026-01-27 04:12:20.31	357.42	24.72	-44.8	-46.0	20.8	0.00e+00	0	43	0	552599552	60	4339
2026-01-27 04:12:21.32	357.14	24.76	-44.9	-46.1	20.8	0.00e+00	0	43	0	554696704	60	4373
2026-01-27 04:12:22.32	356.86	24.80	-45.8	-47.3	19.8	0.00e+00	0	43	0	556793856	62	4444
2026-01-27 04:12:23.33	356.57	24.83	-46.3	-47.9	19.2	0.00e+00	0	43	0	557842432	63	4520
2026-01-27 04:12:24.34	356.28	24.87	-46.6	-48.3	18.8	0.00e+00	0	43	0	559939584	63	4743
2026-01-27 04:12:25.35	356.00	24.90	-46.4	-48.0	19.1	0.00e+00	0	43	0	562036736	63	4562
2026-01-27 04:12:26.36	355.71	24.93	-46.1	-47.6	19.5	0.00e+00	0	43	0	564133888	63	4364
2026-01-27 04:12:27.37	355.42	24.97	-45.7	-47.2	19.8	0.00e+00	0	42	0	566231040	63	4155
2026-01-27 04:12:28.38	355.13	25.00	-45.7	-47.1	19.9	0.00e+00	0	43	0	568328192	63	4129
2026-01-27 04:12:29.38	354.84	25.03	-45.9	-47.4	19.6	0.00e+00	0	43	0	569376768	63	4247
2026-01-27 04:12:30.39	354.55	25.06	-45.8	-47.3	19.8	0.00e+00	0	43	0	571473920	63	4204
2026-01-27 04:12:31.40	354.26	25.09	-45.8	-47.3	19.7	0.00e+00	0	43	0	573571072	63	4220
2026-01-27 04:12:32.41	353.97	25.12	-45.5	-47.0	20.0	0.00e+00	0	43	0	575668224	62	4295
2026-01-27 04:12:33.41	353.68	25.14	-45.5	-46.9	20.1	0.00e+00	0	43	0	577765376	62	4259
2026-01-27 04:12:34.42	353.39	25.17	-45.5	-46.9	20.1	0.00e+00	0	42	0	578813952	62	4248
2026-01-27 04:12:35.43	353.10	25.20	-45.7	-47.2	19.8	0.00e+00	0	43	0	580911104	62	4401
2026-01-27 04:12:36.43	352.81	25.22	-45.9	-47.4	19.6	0.00e+00	0	43	0	583008256	62	4527
2026-01-27 04:12:37.44	352.51	25.25	-46.1	-47.6	19.4	0.00e+00	0	43	0	585105408	62	4628
2026-01-27 04:12:38.45	352.22	25.27	-45.7	-47.1	19.8	0.00e+00	0	43	0	587202560	62	4365
2026-01-27 04:12:39.46	351.92	25.29	-45.6	-47.0	19.9	0.00e+00	0	43	0	588251136	62	4321
2026-01-27 04:12:40.47	351.63	25.31	-45.7	-47.2	19.8	0.00e+00	0	43	0	590348288	62	4420
2026-01-27 04:12:41.48	351.33	25.34	-46.1	-47.6	19.4	0.00e+00	0	43	0	592445440	62	4639
2026-01-27 04:12:42.48	351.04	25.36	-46.3	-48.0	19.1	0.00e+00	0	43	0	594542592	63	4559
2026-01-27 04:12:43.49	350.74	25.38	-46.6	-48.2	18.8	0.00e+00	0	43	0	596639744	63	4702
2026-01-27 04:12:44.50	350.45	25.40	-46.5	-48.2	18.8	0.00e+00	0	43	0	597688320	63	4680
2026-01-27 04:12:45.50	350.15	25.41	-46.3	-47.8	19.2	0.00e+00	0	43	0	599785472	63	4489
2026-01-27 04:12:46.51	349.85	25.43	-46.1	-47.6	19.4	0.00e+00	0	43	0	601882624	63	4359
2026-01-27 04:12:47.52	349.56	25.45	-45.9	-47.5	19.5	0.00e+00	0	43	0	603979776	63	4292
2026-01-27 04:12:48.53	349.26	25.46	-45.9	-47.4	19.7	0.00e+00	0	43	0	606076928	63	4256
2026-01-27 04:12:49.53	348.96	25.48	-45.8	-47.3	19.7	0.00e+00	0	43	0	607125504	63	4241
2026-01-27 04:12:50.54	348.66	25.49	-45.8	-47.3	19.6	0.00e+00	0	43	0	609222656	63	4195
2026-01-27 04:12:51.54	348.37	25.50	-45.8	-47.2	19.8	0.00e+00	0	43	0	611319808	63	4188
2026-01-27 04:12:52.55	348.07	25.52	-45.9	-47.4	19.6	0.00e+00	0	43	0	613416960	63	4277
2026-01-27 04:12:53.56	347.77	25.53	-45.9	-47.3	19.6	0.00e+00	0	43	0	615514112	63	4242
2026-01-27 04:12:54.57	347.47	25.54	-46.0	-47.6	19.4	0.00e+00	0	43	0	616562688	63	4349
2026-01-27 04:12:55.57	347.17	25.55	-46.1	-47.7	19.3	0.00e+00	0	43	0	618659840	63	4410
2026-01-27 04:12:56.58	346.87	25.56	-46.1	-47.6	19.4	0.00e+00	0	43	0	620756992	63	4385
2026-01-27 04:12:57.59	346.57	25.56	-46.3	-47.9	19.2	0.00e+00	0	43	0	622854144	63	4528
2026-01-27 04:12:58.59	346.28	25.57	-46.4	-48.1	19.0	0.00e+00	0	43	0	624951296	63	4610
2026-01-27 04:12:59.60	345.98	25.58	-46.4	-48.1	18.9	0.00e+00	0	43	0	625999872	64	4349
2026-01-27 04:13:00.61	345.68	25.58	-46.1	-47.7	19.2	0.00e+00	0	43	0	628097024	64	4161
2026-01-27 04:13:01.62	345.38	25.59	-45.8	-47.3	19.7	0.00e+00	0	43	0	630194176	63	4218
2026-01-27 04:13:02.62	345.08	25.59	-45.5	-46.8	20.1	0.00e+00	0	43	0	632291328	62	4227
2026-01-27 04:13:03.63	344.78	25.59	-44.9	-46.2	20.7	0.00e+00	0	43	0	634388480	61	4170
2026-01-27 04:13:04.63	344.48	25.59	-45.1	-46.4	20.5	0.00e+00	0	43	0	635437056	61	4267
2026-01-27 04:13:05.64	344.18	25.60	-45.3	-46.6	20.3	0.00e+00	0	43	0	637534208	61	4374
2026-01-27 04:13:06.65	343.88	25.60	-45.5	-46.9	20.0	0.00e+00	0	43	0	639631360	61	4524
2026-01-27 04:13:07.65	343.58	25.59	-46.3	-47.9	19.2	0.00e+00	0	43	0	641728512	63	4499
2026-01-27 04:13:08.66	343.28	25.59	-46.4	-48.0	19.0	0.00e+00	0	43	0	643825664	63	4585
2026-01-27 04:13:09.66	342.98	25.59	-46.3	-48.0	19.1	0.00e+00	0	43	0	644874240	63	4556
2026-01-27 04:13:10.67	342.68	25.59	-46.0	-47.5	19.5	0.00e+00	0	43	0	646971392	63	4326
2026-01-27 04:13:11.68	342.38	25.58	-45.9	-47.4	19.6	0.00e+00	0	43	0	649068544	63	4265
2026-01-27 04:13:12.69	342.08	25.58	-45.8	-47.3	19.5	0.00e+00	0	43	0	651165696	63	4237
2026-01-27 04:13:13.70	341.78	25.57	-46.2	-47.8	19.2	0.00e+00	0	43	0	653262848	63	4474
2026-01-27 04:13:14.70	341.48	25.57	-46.1	-47.7	19.3	0.00e+00	0	43	0	654311424	63	4409
2026-01-27 04:13:15.71	341.18	25.56	-46.0	-47.6	19.4	0.00e+00	0	43	0	656408576	63	4344
2026-01-27 04:13:16.72	340.88	25.55	-45.6	-47.1	19.9	0.00e+00	0	43	0	658505728	63	4107
2026-01-27 04:13:17.73	340.58	25.54	-45.3	-46.7	20.2	0.00e+00	0	43	0	660602880	62	4175
2026-01-27 04:13:18.74	340.28	25.53	-44.5	-45.8	21.0	0.00e+00	0	43	0	662700032	61	3965
2026-01-27 04:13:19.74	339.99	25.52	-44.4	-45.5	21.2	0.00e+00	0	43	0	663748608	60	4090
2026-01-27 04:13:20.75	339.69	25.51	-44.3	-45.5	21.3	0.00e+00	0	43	0	665845760	60	4086
2026-01-27 04:13:21.76	339.39	25.49	-44.5	-45.7	21.1	0.00e+00	0	43	0	667942912	60	4184
2026-01-27 04:13:22.77	339.09	25.48	-44.7	-45.9	20.9	0.00e+00	0	43	0	670040064	60	4285
2026-01-27 04:13:23.77	338.79	25.47	-44.9	-46.2	20.7	0.00e+00	0	43	0	672137216	60	4416
2026-01-27 04:13:24.78	338.50	25.45	-45.0	-46.3	20.6	0.00e+00	0	43	0	673185792	60	4485
2026-01-27 04:13:25.79	338.20	25.44	-44.9	-46.2	20.7	0.00e+00	0	43	0	675282944	60	4408
2026-01-27 04:13:26.79	337.90	25.42	-44.7	-46.0	20.9	0.00e+00	0	43	0	677380096	60	4321
2026-01-27 04:13:27.80	337.61	25.40	-44.2	-45.4	21.4	0.00e+00	0	43	0	679477248	60	4028
2026-01-27 04:13:28.81	337.31	25.38	-44.2	-45.3	21.7	0.00e+00	0	43	0	681574400	59	4238
2026-01-27 04:13:29.81	337.01	25.36	-44.1	-45.2	21.8	0.00e+00	0	43	0	682622976	59	4188
2026-01-27 04:13:30.82	336.72	25.34	-44.1	-45.2	21.8	0.00e+00	0	43	0	684720128	59	4193
2026-01-27 04:13:31.83	336.42	25.32	-44.2	-45.3	21.8	0.00e+00	0	43	0	686817280	59	4221
2026-01-27 04:13:32.83	336.13	25.30	-44.5	-45.6	21.6	0.00e+00	0	43	0	688914432	59	4382
2026-01-27 04:13:33.84	335.84	25.28	-44.5	-45.7	21.5	0.00e+00	0	43	0	691011584	59	4427
2026-01-27 04:13:34.85	335.54	25.25	-44.4	-45.6	21.6	0.00e+00	0	43	0	692060160	59	4352
2026-01-27 04:13:35.86	335.25	25.23	-43.8	-44.9	22.1	0.00e+00	0	43	0	694157312	59	4015
2026-01-27 04:13:36.87	334.95	25.20	-44.0	-45.1	22.0	0.00e+00	0	43	0	696254464	59	4122
2026-01-27 04:13:37.87	334.66	25.18	-44.0	-45.1	22.0	0.00e+00	0	43	0	698351616	59	4127
2026-01-27 04:13:38.88	334.37	25.15	-44.2	-45.3	21.8	0.00e+00	0	43	0	700448768	59	4224
2026-01-27 04:13:39.89	334.08	25.12	-44.3	-45.4	21.4	0.00e+00	0	43	0	701497344	59	4271
2026-01-27 04:13:40.90	333.79	25.10	-44.2	-45.4	21.8	0.00e+00	0	43	0	703594496	59	4246
2026-01-27 04:13:41.90	333.50	25.07	-44.3	-45.5	21.7	0.00e+00	0	43	0	705691648	59	4293
2026-01-27 04:13:42.91	333.21	25.04	-44.5	-45.7	21.5	0.00e+00	0	43	0	707788800	59	4429
2026-01-27 04:13:43.92	332.92	25.01	-44.2	-45.4	21.4	0.00e+00	0	43	0	709885952	60	4015
2026-01-27 04:13:44.93	332.63	24.98	-44.3	-45.5	21.4	0.00e+00	0	43	0	710934528	60	4068
2026-01-27 04:13:45.93	332.34	24.94	-44.4	-45.6	21.3	0.00e+00	0	43	0	713031680	60	4125
2026-01-27 04:13:46.94	332.05	24.91	-44.5	-45.7	21.4	0.00e+00	0	43	0	715128832	59	4404
2026-01-27 04:13:47.94	331.77	24.88	-44.6	-45.8	21.4	0.00e+00	0	43	0	717225984	59	4469
2026-01-27 04:13:48.95	331.48	24.84	-44.3	-45.5	21.4	0.00e+00	0	43	0	719323136	60	4068
2026-01-27 04:13:49.96	331.20	24.81	-44.4	-45.5	21.4	0.00e+00	0	43	0	721420288	60	4085
2026-01-27 04:13:50.97	330.91	24.77	-44.1	-45.2	21.7	0.00e+00	0	43	0	722468864	60	3930
2026-01-27 04:13:51.98	330.62	24.74	-44.3	-45.4	21.5	0.00e+00	0	43	0	724566016	60	4020
2026-01-27 04:13:52.99	330.34	24.70	-44.4	-45.6	21.3	0.00e+00	0	43	0	726663168	60	4103
2026-01-27 04:13:53.99	330.06	24.66	-44.7	-45.9	20.9	0.00e+00	0	43	0	728760320	60	4287
2026-01-27 04:13:55.00	329.78	24.62	-45.2	-46.5	20.5	0.00e+00	0	43	0	729808896	61	4335
2026-01-27 04:13:56.01	329.49	24.58	-45.3	-46.7	20.4	0.00e+00	0	43	0	731906048	61	4395
2026-01-27 04:13:57.01	329.21	24.54	-45.1	-46.3	20.7	0.00e+00	0	43	0	734003200	61	4234
2026-01-27 04:13:58.02	328.93	24.50	-44.8	-46.0	20.9	0.00e+00	0	43	0	736100352	61	4063
2026-01-27 04:13:59.03	328.65	24.46	-44.6	-45.8	21.1	0.00e+00	0	43	0	738197504	61	3989
2026-01-27 04:14:00.03	328.38	24.42	-44.6	-45.7	21.2	0.00e+00	0	43	0	739246080	60	4186
2026-01-27 04:14:01.04	328.10	24.38	-44.7	-45.9	21.0	0.00e+00	0	43	0	741343232	60	4267
2026-01-27 04:14:02.05	327.82	24.33	-44.9	-46.1	20.8	0.00e+00	0	43	0	743440384	60	4389
2026-01-27 04:14:03.06	327.54	24.29	-45.0	-46.3	20.7	0.00e+00	0	43	0	745537536	61	4208
2026-01-27 04:14:04.07	327.27	24.24	-45.3	-46.6	20.5	0.00e+00	0	43	0	747634688	61	4355
2026-01-27 04:14:05.08	326.99	24.20	-45.4	-46.7	20.3	0.00e+00	0	43	0	749731840	61	4432
2026-01-27 04:14:06.09	326.72	24.15	-45.5	-46.9	20.1	0.00e+00	0	43	0	750780416	61	4519
2026-01-27 04:14:07.09	326.45	24.11	-45.7	-47.1	19.9	0.00e+00	0	43	0	752877568	62	4388
2026-01-27 04:14:08.10	326.17	24.06	-45.7	-47.1	20.0	0.00e+00	0	43	0	754974720	62	4366
2026-01-27 04:14:09.11	325.90	24.01	-46.0	-47.5	19.7	0.00e+00	0	43	0	757071872	62	4553
2026-01-27 04:14:10.12	325.63	23.96	-46.2	-47.8	19.4	0.00e+00	0	43	0	758120448	63	4456
2026-01-27 04:14:11.13	325.36	23.91	-46.6	-48.3	18.8	7.00e-07	0	43	0	760217600	63	4747
2026-01-27 04:14:12.14	325.09	23.86	-46.6	-48.3	18.8	0.00e+00	0	43	0	762314752	64	4463
2026-01-27 04:14:13.15	324.82	23.81	-46.6	-48.3	18.8	0.00e+00	0	43	0	764411904	64	4455
2026-01-27 04:14:14.15	324.55	23.76	-46.4	-48.1	19.0	0.00e+00	0	43	0	766509056	64	4354
2026-01-27 04:14:15.16	324.29	23.71	-46.1	-47.6	19.4	0.00e+00	0	43	0	768606208	64	4119
2026-01-27 04:14:16.16	324.02	23.66	-45.9	-47.4	19.7	0.00e+00	0	43	0	769654784	63	4263
2026-01-27 04:14:17.17	323.76	23.61	-45.8	-47.3	19.8	0.00e+00	0	43	0	771751936	63	4199
2026-01-27 04:14:18.18	323.49	23.55	-45.9	-47.4	19.7	0.00e+00	0	43	0	773849088	63	4272
2026-01-27 04:14:19.19	323.23	23.50	-46.0	-47.5	19.6	0.00e+00	0	43	0	775946240	63	4326
2026-01-27 04:14:20.20	322.97	23.45	-46.4	-48.1	19.0	0.00e+00	0	43	0	778043392	63	4611
2026-01-27 04:14:21.21	322.71	23.39	-46.6	-48.3	18.7	0.00e+00	0	43	0	779091968	63	4744
2026-01-27 04:14:22.22	322.44	23.34	-46.7	-48.4	18.7	0.00e+00	0	43	0	781189120	63	4767
2026-01-27 04:14:23.23	322.19	23.28	-46.5	-48.1	18.9	0.00e+00	0	43	0	783286272	63	4650
2026-01-27 04:14:24.24	321.93	23.22	-46.3	-47.9	19.1	0.00e+00	0	43	0	785383424	63	4530
2026-01-27 04:14:25.25	321.67	23.17	-46.3	-47.9	19.2	0.00e+00	0	43	0	786432000	63	4529
2026-01-27 04:14:26.25	321.41	23.11	-46.2	-47.7	19.3	0.00e+00	0	43	0	788529152	63	4434
2026-01-27 04:14:27.26	321.16	23.05	-46.0	-47.6	19.5	0.00e+00	0	43	0	790626304	63	4342
2026-01-27 04:14:28.27	320.90	22.99	-46.1	-47.6	19.4	0.00e+00	0	43	0	792723456	63	4386
2026-01-27 04:14:29.28	320.65	22.93	-46.1	-47.6	19.4	0.00e+00	0	43	0	794820608	63	4386
2026-01-27 04:14:30.28	320.40	22.88	-46.0	-47.6	19.5	0.00e+00	0	43	0	796917760	63	4352
2026-01-27 04:14:31.29	320.15	22.82	-46.4	-48.0	19.0	0.00e+00	0	43	0	797966336	63	4581
2026-01-27 04:14:32.29	319.90	22.76	-46.6	-48.3	18.7	0.00e+00	0	43	0	800063488	63	4747
2026-01-27 04:14:33.29	319.65	22.70	-46.5	-48.3	18.7	0.00e+00	0	43	0	802160640	64	4443
2026-01-27 04:14:34.29	319.40	22.64	-46.4	-48.1	18.8	0.00e+00	0	43	0	804257792	64	4376
2026-01-27 04:14:35.30	319.15	22.57	-46.1	-47.7	19.2	0.00e+00	0	43	0	806354944	64	4148
2026-01-27 04:14:36.31	318.91	22.51	-45.6	-47.0	20.0	0.00e+00	0	43	0	807403520	63	4065
2026-01-27 04:14:37.31	318.66	22.45	-45.6	-47.1	19.9	0.00e+00	0	43	0	809500672	62	4364
2026-01-27 04:14:38.32	318.42	22.39	-45.5	-46.9	20.1	0.00e+00	0	43	0	811597824	62	4279
2026-01-27 04:14:39.33	318.17	22.32	-45.7	-47.2	19.7	0.00e+00	0	43	0	813694976	62	4421
2026-01-27 04:14:40.34	317.93	22.26	-46.1	-47.7	19.4	0.00e+00	0	43	0	814743552	62	4652
2026-01-27 04:14:41.35	317.69	22.20	-46.4	-48.1	19.0	0.00e+00	0	43	0	816840704	63	4620
2026-01-27 04:14:42.36	317.45	22.13	-46.7	-48.5	18.4	0.00e+00	0	43	0	818937856	64	4592
2026-01-27 04:14:43.37	317.21	22.07	-47.0	-49.0	18.0	0.00e+00	0	43	0	821035008	64	4819
2026-01-27 04:14:44.37	316.97	22.00	-47.1	-49.1	17.8	0.00e+00	0	43	0	823132160	64	4922
2026-01-27 04:14:45.38	316.73	21.94	-47.0	-48.9	18.1	0.00e+00	0	43	0	825229312	64	4797
2026-01-27 04:14:46.39	316.49	21.87	-46.3	-48.0	18.9	0.00e+00	0	43	0	826277888	64	4322
2026-01-27 04:14:47.39	316.26	21.81	-46.1	-47.7	19.3	0.00e+00	0	43	0	828375040	64	4151
2026-01-27 04:14:48.40	316.02	21.74	-46.0	-47.6	19.4	0.00e+00	0	43	0	830472192	63	4356
2026-01-27 04:14:49.41	315.79	21.67	-45.6	-47.1	19.9	0.00e+00	0	43	0	832569344	63	4106
2026-01-27 04:14:50.41	315.56	21.61	-45.3	-46.7	20.2	0.00e+00	0	43	0	834666496	62	4180
2026-01-27 04:14:51.42	315.33	21.54	-45.4	-46.8	20.1	0.00e+00	0	43	0	835715072	62	4241
2026-01-27 04:14:52.43	315.10	21.47	-45.5	-47.0	19.8	0.00e+00	0	43	0	837812224	62	4331
2026-01-27 04:14:53.44	314.87	21.40	-45.6	-47.1	19.9	0.00e+00	0	43	0	839909376	62	4346
2026-01-27 04:14:54.44	314.64	21.34	-45.8	-47.4	19.6	0.00e+00	0	43	0	842006528	62	4507
2026-01-27 04:14:55.45	314.41	21.27	-45.8	-47.4	19.6	0.00e+00	0	43	0	844103680	62	4515
2026-01-27 04:14:56.46	314.18	21.20	-45.7	-47.2	19.8	0.00e+00	0	43	0	845152256	62	4407
2026-01-27 04:14:57.47	313.96	21.13	-45.5	-47.0	19.9	0.00e+00	0	43	0	847249408	62	4295
2026-01-27 04:14:58.48	313.73	21.06	-45.2	-46.6	20.2	0.00e+00	0	43	0	849346560	62	4108
2026-01-27 04:14:59.48	313.51	20.99	-44.7	-46.0	20.8	0.00e+00	0	43	0	851443712	61	4081
2026-01-27 04:15:00.49	313.29	20.92	-44.3	-45.5	21.2	0.00e+00	0	43	0	853540864	60	4089
2026-01-27 04:15:01.50	313.07	20.85	-44.1	-45.3	21.4	0.00e+00	0	43	0	854589440	60	3989
2026-01-27 04:15:02.51	312.84	20.78	-44.3	-45.5	21.5	0.00e+00	0	43	0	856686592	59	4318
2026-01-27 04:15:03.51	312.63	20.71	-44.2	-45.4	21.6	0.00e+00	0	43	0	858783744	59	4245
2026-01-27 04:15:04.52	312.41	20.64	-44.2	-45.4	21.6	0.00e+00	0	43	0	860880896	59	4280
2026-01-27 04:15:05.53	312.19	20.56	-44.6	-45.8	21.2	0.00e+00	0	43	0	862978048	59	4470
2026-01-27 04:15:06.54	311.97	20.49	-44.6	-45.8	20.9	0.00e+00	0	43	0	864026624	60	4234
2026-01-27 04:15:07.54	311.76	20.42	-44.8	-46.1	20.6	0.00e+00	0	43	0	866123776	60	4385
2026-01-27 04:15:08.55	311.54	20.35	-45.0	-46.4	20.4	0.00e+00	0	43	0	868220928	60	4514
2026-01-27 04:15:09.56	311.33	20.28	-45.2	-46.5	20.3	0.00e+00	0	43	0	870318080	60	4592
2026-01-27 04:15:10.57	311.12	20.20	-45.2	-46.6	20.2	0.00e+00	0	43	0	872415232	61	4385
2026-01-27 04:15:11.57	310.91	20.13	-45.3	-46.7	20.1	0.00e+00	0	43	0	873463808	61	4440
2026-01-27 04:15:12.58	310.70	20.06	-45.5	-46.9	19.9	0.00e+00	0	43	0	875560960	61	4530
2026-01-27 04:15:13.58	310.49	19.99	-45.5	-47.0	19.9	0.00e+00	0	43	0	877658112	61	4560
2026-01-27 04:15:14.59	310.28	19.91	-45.4	-46.9	20.0	0.00e+00	0	43	0	879755264	61	4508
2026-01-27 04:15:15.59	310.08	19.84	-45.3	-46.7	20.2	0.00e+00	0	43	0	881852416	61	4422
2026-01-27 04:15:16.60	309.87	19.77	-45.1	-46.5	20.3	0.00e+00	0	43	0	882900992	61	4317
2026-01-27 04:15:17.61	309.66	19.69	-45.1	-46.5	20.2	0.00e+00	0	43	0	884998144	61	4323
2026-01-27 04:15:18.62	309.46	19.62	-45.4	-46.9	20.0	0.00e+00	0	43	0	887095296	61	4509
2026-01-27 04:15:19.62	309.26	19.55	-45.2	-46.7	20.1	0.00e+00	0	43	0	889192448	61	4414
2026-01-27 04:15:20.63	309.05	19.47	-45.1	-46.5	20.3	0.00e+00	0	43	0	891289600	61	4316
2026-01-27 04:15:21.64	308.85	19.40	-44.9	-46.3	20.4	0.00e+00	0	43	0	892338176	61	4229
2026-01-27 04:15:22.65	308.65	19.32	-45.1	-46.5	20.4	0.00e+00	0	43	0	894435328	61	4326
2026-01-27 04:15:23.66	308.45	19.25	-44.8	-46.1	20.6	0.00e+00	0	43	0	896532480	61	4116
2026-01-27 04:15:24.66	308.26	19.17	-44.9	-46.2	20.5	0.00e+00	0	43	0	898629632	61	4171
2026-01-27 04:15:25.67	308.06	19.10	-45.1	-46.5	20.3	0.00e+00	0	43	0	900726784	61	4329
2026-01-27 04:15:26.67	307.86	19.02	-45.5	-47.0	19.9	0.00e+00	0	43	0	901775360	61	4553
2026-01-27 04:15:27.68	307.67	18.95	-45.6	-47.1	19.7	0.00e+00	0	43	0	903872512	61	4612
2026-01-27 04:15:28.69	307.47	18.87	-45.4	-46.8	20.0	0.00e+00	0	43	0	905969664	61	4486
2026-01-27 04:15:29.70	307.28	18.80	-45.0	-46.4	20.4	0.00e+00	0	43	0	908066816	61	4265
2026-01-27 04:15:30.70	307.09	18.72	-44.7	-46.0	20.8	0.00e+00	0	43	0	910163968	61	4055
2026-01-27 04:15:31.71	306.89	18.65	-44.8	-46.1	20.7	0.00e+00	0	43	0	911212544	61	4126
2026-01-27 04:15:32.72	306.70	18.57	-44.9	-46.2	20.6	0.00e+00	0	43	0	913309696	61	4179
2026-01-27 04:15:33.73	306.51	18.50	-45.1	-46.5	20.3	0.00e+00	0	43	0	915406848	61	4322
2026-01-27 04:15:34.74	306.32	18.42	-45.3	-46.7	20.1	0.00e+00	0	43	0	917504000	61	4399
2026-01-27 04:15:35.74	306.14	18.34	-45.3	-46.7	20.2	0.00e+00	0	43	0	919601152	61	4408
2026-01-27 04:15:36.75	305.95	18.27	-45.2	-46.6	20.2	0.00e+00	0	43	0	920649728	61	4353
2026-01-27 04:15:37.75	305.77	18.19	-44.9	-46.3	20.5	0.00e+00	0	43	0	922746880	61	4196
2026-01-27 04:15:38.76	305.58	18.12	-44.6	-45.9	20.8	0.00e+00	0	43	0	924844032	61	4035
2026-01-27 04:15:39.77	305.40	18.04	-44.4	-45.6	21.1	0.00e+00	0	43	0	926941184	60	4117
2026-01-27 04:15:40.77	305.22	17.96	-44.3	-45.5	21.1	0.00e+00	0	43	0	929038336	60	4098
2026-01-27 04:15:41.78	305.03	17.89	-44.3	-45.5	21.2	0.00e+00	0	43	0	930086912	60	4078
2026-01-27 04:15:42.79	304.85	17.81	-44.3	-45.5	21.2	0.00e+00	0	43	0	932184064	60	4054
2026-01-27 04:15:43.79	304.67	17.73	-44.2	-45.4	21.3	0.00e+00	0	43	0	934281216	60	4026
2026-01-27 04:15:44.80	304.49	17.66	-44.1	-45.3	21.3	0.00e+00	0	43	0	936378368	60	3986
2026-01-27 04:15:45.81	304.31	17.58	-44.1	-45.3	21.4	0.00e+00	0	43	0	938475520	60	3984
2026-01-27 04:15:46.82	304.14	17.50	-44.3	-45.5	21.2	0.00e+00	0	43	0	939524096	60	4059
2026-01-27 04:15:47.83	303.96	17.43	-44.5	-45.7	21.0	0.00e+00	0	43	0	941621248	60	4193
2026-01-27 04:15:48.84	303.78	17.35	-44.7	-45.9	20.8	0.00e+00	0	43	0	943718400	60	4286
2026-01-27 04:15:49.84	303.61	17.27	-44.9	-46.2	20.6	0.00e+00	0	43	0	945815552	60	4398
2026-01-27 04:15:50.85	303.44	17.20	-44.8	-46.0	20.7	0.00e+00	0	43	0	947912704	60	4340
2026-01-27 04:15:51.86	303.26	17.12	-44.7	-46.0	20.8	0.00e+00	0	43	0	948961280	60	4324
2026-01-27 04:15:52.87	303.09	17.04	-44.5	-45.7	21.0	0.00e+00	0	43	0	951058432	60	4178
2026-01-27 04:15:53.88	302.92	16.97	-44.2	-45.4	21.3	0.00e+00	0	43	0	953155584	60	4017
2026-01-27 04:15:54.89	302.75	16.89	-44.4	-45.6	21.2	0.00e+00	0	43	0	955252736	60	4106
2026-01-27 04:15:55.89	302.58	16.81	-44.5	-45.7	21.4	0.00e+00	0	43	0	957349888	59	4398
2026-01-27 04:15:56.90	302.41	16.73	-44.3	-45.5	21.5	0.00e+00	0	43	0	958398464	59	4300
2026-01-27 04:15:57.91	302.24	16.66	-44.3	-45.5	21.6	0.00e+00	0	43	0	960495616	59	4298
2026-01-27 04:15:58.92	302.08	16.58	-44.5	-45.7	21.4	0.00e+00	0	43	0	962592768	59	4408
2026-01-27 04:15:59.93	301.91	16.50	-44.5	-45.7	21.4	0.00e+00	0	43	0	964689920	59	4409
2026-01-27 04:16:00.94	301.74	16.43	-44.5	-45.7	21.4	0.00e+00	0	43	0	966787072	59	4421
2026-01-27 04:16:01.95	301.58	16.35	-44.4	-45.6	21.1	0.00e+00	0	43	0	967835648	60	4128
2026-01-27 04:16:02.95	301.42	16.27	-44.5	-45.7	21.1	0.00e+00	0	43	0	969932800	60	4172
2026-01-27 04:16:03.96	301.26	16.19	-44.6	-45.9	20.9	0.00e+00	0	43	0	972029952	60	4265
2026-01-27 04:16:04.97	301.09	16.12	-44.7	-46.0	20.8	0.00e+00	0	43	0	974127104	60	4309
2026-01-27 04:16:05.97	300.93	16.04	-44.8	-46.1	20.7	0.00e+00	0	43	0	976224256	60	4348
2026-01-27 04:16:06.98	300.77	15.96	-44.6	-45.9	20.9	0.00e+00	0	43	0	977272832	60	4245
2026-01-27 04:16:07.99	300.61	15.89	-44.7	-45.9	20.8	0.00e+00	0	43	0	979369984	60	4282
2026-01-27 04:16:09.00	300.46	15.81	-44.3	-45.4	21.3	0.00e+00	0	43	0	981467136	60	4045
2026-01-27 04:16:10.01	300.30	15.73	-44.0	-45.1	21.5	0.00e+00	0	43	0	983564288	60	3909
2026-01-27 04:16:11.01	300.14	15.66	-44.3	-45.5	21.5	0.00e+00	0	43	0	985661440	59	4292
2026-01-27 04:16:12.02	299.99	15.58	-44.4	-45.6	21.4	0.00e+00	0	43	0	986710016	59	4349
2026-01-27 04:16:13.03	299.83	15.50	-44.6	-45.8	21.3	0.00e+00	0	43	0	988807168	59	4454
2026-01-27 04:16:14.03	299.68	15.43	-44.5	-45.8	21.0	0.00e+00	0	43	0	990904320	60	4205
2026-01-27 04:16:15.04	299.52	15.35	-44.9	-46.2	20.6	0.00e+00	0	43	0	993001472	60	4434
2026-01-27 04:16:16.05	299.37	15.27	-45.1	-46.5	20.3	0.00e+00	0	43	0	995098624	61	4309
2026-01-27 04:16:17.06	299.22	15.20	-45.4	-46.8	20.0	0.00e+00	0	43	0	997195776	61	4478
2026-01-27 04:16:18.07	299.07	15.12	-45.5	-46.9	19.9	0.00e+00	0	43	0	998244352	61	4545
2026-01-27 04:16:19.07	298.92	15.04	-45.6	-47.1	19.8	0.00e+00	0	43	0	1000341504	61	4604
2026-01-27 04:16:20.08	298.77	14.97	-45.4	-46.8	20.0	0.00e+00	0	43	0	1002438656	61	4480
2026-01-27 04:16:21.09	298.62	14.89	-45.2	-46.6	20.2	0.00e+00	0	43	0	1004535808	61	4361
2026-01-27 04:16:22.10	298.47	14.81	-45.2	-46.5	20.3	0.00e+00	0	43	0	1005584384	61	4324
2026-01-27 04:16:23.10	298.33	14.74	-45.2	-46.5	20.3	0.00e+00	0	43	0	1007681536	61	4329
2026-01-27 04:16:24.11	298.18	14.66	-45.2	-46.6	20.3	0.00e+00	0	43	0	1009778688	61	4347
2026-01-27 04:16:25.12	298.03	14.58	-45.1	-46.5	20.3	0.00e+00	0	43	0	1011875840	61	4294
2026-01-27 04:16:26.13	297.89	14.51	-44.8	-46.1	20.6	0.00e+00	0	43	0	1013972992	61	4143
2026-01-27 04:16:27.13	297.75	14.43	-44.6	-45.8	20.9	0.00e+00	0	43	0	1015021568	61	3997
2026-01-27 04:16:28.14	297.60	14.35	-44.9	-46.2	20.6	0.00e+00	0	43	0	1017118720	61	4151
2026-01-27 04:16:29.15	297.46	14.28	-44.8	-46.1	20.6	0.00e+00	0	43	0	1019215872	61	4131
2026-01-27 04:16:30.16	297.32	14.20	-44.8	-46.0	20.7	0.00e+00	0	43	0	1021313024	61	4096
2026-01-27 04:16:31.17	297.18	14.13	-44.9	-46.2	20.6	0.00e+00	0	43	0	1023410176	61	4167
2026-01-27 04:16:32.17	297.04	14.05	-45.0	-46.3	20.5	0.00e+00	0	43	0	1025507328	61	4220
2026-01-27 04:16:33.18	296.90	13.97	-45.3	-46.6	20.2	0.00e+00	0	43	0	1026555904	61	4387
2026-01-27 04:16:34.19	296.76	13.90	-45.7	-47.2	19.7	0.00e+00	0	43	0	1028653056	61	4654
2026-01-27 04:16:35.19	296.62	13.82	-46.1	-47.7	19.3	0.00e+00	0	43	0	1030750208	62	4660
2026-01-27 04:16:36.20	296.48	13.75	-46.1	-47.7	19.2	0.00e+00	0	43	0	1032847360	62	4689
2026-01-27 04:16:37.21	296.35	13.67	-46.3	-48.0	19.1	0.00e+00	0	43	0	1033895936	63	4548
2026-01-27 04:16:38.21	296.21	13.60	-46.3	-48.0	19.0	0.00e+00	0	43	0	1035993088	63	4551
2026-01-27 04:16:39.22	296.07	13.52	-46.3	-47.9	19.0	0.00e+00	0	43	0	1038090240	63	4503
2026-01-27 04:16:40.23	295.94	13.44	-46.2	-47.8	19.2	0.00e+00	0	43	0	1040187392	63	4442
2026-01-27 04:16:41.24	295.81	13.37	-45.6	-47.0	19.9	0.00e+00	0	43	0	1042284544	63	4070
2026-01-27 04:16:42.24	295.67	13.29	-45.3	-46.7	20.1	0.00e+00	0	43	0	1043333120	62	4189
2026-01-27 04:16:43.25	295.54	13.22	-45.1	-46.4	20.4	0.00e+00	0	43	0	1045430272	62	4017
2026-01-27 04:16:44.25	295.41	13.14	-45.0	-46.3	20.4	0.00e+00	0	43	0	1047527424	62	3999
2026-01-27 04:16:45.26	295.28	13.07	-44.8	-46.2	20.6	0.00e+00	0	43	0	1049624576	61	4154
2026-01-27 04:16:46.27	295.15	12.99	-45.0	-46.4	20.4	0.00e+00	0	43	0	1051721728	61	4270
2026-01-27 04:16:47.28	295.02	12.92	-45.0	-46.4	20.4	0.00e+00	0	43	0	1053818880	61	4276
2026-01-27 04:16:48.28	294.89	12.84	-44.7	-46.3	20.4	0.00e+00	0	43	0	1054867456	61	4240
2026-01-27 04:16:49.29	294.76	12.77	-44.4	-46.4	20.3	0.00e+00	0	43	0	1056964608	60	4518
2026-01-27 04:16:50.29	294.63	12.70	-44.0	-46.4	20.3	0.00e+00	0	43	0	1059061760	60	4517
2026-01-27 04:16:51.30	294.51	12.62	-44.3	-46.9	20.0	0.00e+00	0	43	0	1061158912	59	5086
2026-01-27 04:16:52.31	294.38	12.55	-44.3	-46.8	20.1	0.00e+00	0	43	0	1062207488	59	5004
2026-01-27 04:16:53.32	294.25	12.47	-44.6	-47.0	19.9	0.00e+00	0	43	0	1064304640	59	5115
2026-01-27 04:16:54.33	294.13	12.40	-44.9	-46.8	19.9	0.00e+00	0	43	0	1066401792	60	4712
2026-01-27 04:16:55.33	294.00	12.32	-45.1	-46.8	19.9	0.00e+00	0	43	0	1068498944	60	4736
2026-01-27 04:16:56.34	293.88	12.25	-45.4	-46.9	19.8	0.00e+00	0	43	0	1070596096	61	4542
2026-01-27 04:16:57.35	293.76	12.18	-45.3	-46.8	19.9	0.00e+00	0	43	0	1072693248	61	4473
2026-01-27 04:16:58.36	293.63	12.10	-45.5	-47.0	19.8	0.00e+00	0	43	0	1073741824	61	4587
2026-01-27 04:16:59.37	293.51	12.03	-45.6	-47.1	19.7	0.00e+00	0	43	0	1075838976	61	4614
2026-01-27 04:17:00.37	293.39	11.95	-45.9	-47.5	19.4	0.00e+00	0	43	0	1077936128	62	4548
2026-01-27 04:17:01.38	293.27	11.88	-45.9	-47.4	19.4	0.00e+00	0	43	0	1080033280	62	4538
2026-01-27 04:17:02.39	293.15	11.81	-46.2	-47.7	19.1	0.00e+00	0	43	0	1082130432	62	4705
2026-01-27 04:17:03.40	293.03	11.73	-46.2	-47.7	19.1	0.00e+00	0	43	0	1083179008	63	4427
2026-01-27 04:17:04.41	292.91	11.66	-45.9	-47.4	19.4	0.00e+00	0	43	0	1085276160	63	4265
2026-01-27 04:17:05.41	292.79	11.59	-46.1	-47.7	19.2	0.00e+00	0	43	0	1087373312	63	4403
2026-01-27 04:17:06.42	292.68	11.51	-46.1	-47.7	19.1	0.00e+00	0	43	0	1089470464	63	4424
2026-01-27 04:17:07.43	292.56	11.44	-46.3	-47.9	19.0	0.00e+00	0	43	0	1090519040	63	4528
2026-01-27 04:17:08.44	292.44	11.37	-46.5	-48.1	18.8	0.00e+00	0	43	0	1092616192	63	4635
2026-01-27 04:17:09.45	292.33	11.29	-46.7	-48.4	18.5	0.00e+00	0	43	0	1094713344	63	4785
2026-01-27 04:17:10.46	292.21	11.22	-46.6	-48.4	18.4	0.00e+00	0	43	0	1096810496	64	4508
2026-01-27 04:17:11.47	292.09	11.15	-46.7	-48.4	18.4	0.00e+00	0	43	0	1098907648	64	4542
2026-01-27 04:17:12.47	291.98	11.08	-47.0	-48.9	18.0	0.00e+00	0	43	0	1101004800	64	4761
2026-01-27 04:17:13.48	291.87	11.00	-46.8	-48.6	18.2	0.00e+00	0	43	0	1102053376	64	4607
2026-01-27 04:17:14.49	291.75	10.93	-46.8	-48.6	18.3	0.00e+00	0	43	0	1104150528	64	4608
2026-01-27 04:17:15.50	291.64	10.86	-46.8	-48.5	18.3	0.00e+00	0	43	0	1106247680	64	4577
2026-01-27 04:17:16.51	291.53	10.79	-46.7	-48.4	18.4	0.00e+00	0	43	0	1108344832	64	4502
2026-01-27 04:17:17.52	291.42	10.71	-46.4	-48.1	18.7	0.00e+00	0	43	0	1110441984	64	4347
2026-01-27 04:17:18.53	291.31	10.64	-46.3	-47.8	18.9	0.00e+00	0	43	0	1111490560	64	4239
2026-01-27 04:17:19.53	291.20	10.57	-46.2	-47.7	19.0	0.00e+00	0	43	0	1113587712	64	4188
2026-01-27 04:17:20.54	291.09	10.50	-46.1	-47.6	19.3	0.00e+00	0	43	0	1115684864	63	4360
2026-01-27 04:17:21.55	290.98	10.43	-46.0	-47.5	19.3	0.00e+00	0	43	0	1117782016	63	4330
2026-01-27 04:17:22.55	290.87	10.36	-45.9	-47.4	19.5	0.00e+00	0	43	0	1119879168	63	4244
2026-01-27 04:17:23.56	290.76	10.29	-45.9	-47.3	19.5	0.00e+00	0	43	0	1120927744	63	4226
2026-01-27 04:17:24.57	290.65	10.21	-45.8	-47.2	19.6	0.00e+00	0	43	0	1123024896	63	4192
2026-01-27 04:17:25.57	290.55	10.14	-46.0	-47.5	19.4	0.00e+00	0	43	0	1125122048	63	4304
2026-01-27 04:17:26.58	290.44	10.07	-46.1	-47.7	19.1	0.00e+00	0	43	0	1127219200	63	4393
2026-01-27 04:17:27.59	290.34	10.00	-46.2	-47.8	19.1	0.00e+00	0	43	0	1129316352	63	4460
2026-01-27 04:17:28.60	290.23	9.93	-46.6	-48.2	18.6	0.00e+00	0	43	0	1130364928	63	4697
2026-01-27 04:17:29.61	290.13	9.86	-46.5	-48.2	18.7	0.00e+00	0	43	0	1132462080	63	4667
2026-01-27 04:17:30.61	290.02	9.79	-46.7	-48.4	18.4	0.00e+00	0	43	0	1134559232	64	4513
2026-01-27 04:17:31.62	289.92	9.72	-46.6	-48.3	18.5	0.00e+00	0	43	0	1136656384	64	4449
2026-01-27 04:17:32.62	289.82	9.65	-46.5	-48.2	18.6	0.00e+00	0	43	0	1138753536	64	4393
2026-01-27 04:17:33.63	289.71	9.58	-46.6	-48.3	18.4	0.00e+00	0	43	0	1139802112	64	4484
2026-01-27 04:17:34.64	289.61	9.51	-46.4	-48.1	18.6	0.00e+00	0	43	0	1141899264	64	4367
2026-01-27 04:17:35.64	289.51	9.44	-46.4	-48.0	18.7	0.00e+00	0	43	0	1143996416	64	4328
2026-01-27 04:17:36.65	289.41	9.37	-46.2	-47.7	18.9	0.00e+00	0	43	0	1146093568	64	4193
2026-01-27 04:17:37.65	289.31	9.30	-46.1	-47.7	19.0	0.00e+00	0	43	0	1148190720	64	4178
2026-01-27 04:17:38.66	289.21	9.23	-46.0	-47.5	19.1	0.00e+00	0	43	0	1149239296	64	4097
2026-01-27 04:17:39.67	289.11	9.16	-46.2	-47.8	19.0	0.00e+00	0	43	0	1151336448	63	4442
2026-01-27 04:17:40.68	289.01	9.09	-46.2	-47.7	19.0	0.00e+00	0	43	0	1153433600	63	4419
2026-01-27 04:17:41.69	288.91	9.02	-46.0	-47.5	19.3	0.00e+00	0	43	0	1155530752	63	4302
2026-01-27 04:17:42.69	288.81	8.95	-46.1	-47.7	19.1	0.00e+00	0	43	0	1157627904	63	4401
2026-01-27 04:17:43.70	288.71	8.88	-46.1	-47.7	19.0	0.00e+00	0	43	0	1158676480	63	4425
2026-01-27 04:17:44.71	288.62	8.81	-46.4	-48.0	18.7	0.00e+00	0	43	0	1160773632	63	4590
2026-01-27 04:17:45.71	288.52	8.74	-46.3	-47.9	18.8	0.00e+00	0	43	0	1162870784	63	4523
2026-01-27 04:17:46.72	288.42	8.67	-46.5	-48.2	18.5	0.00e+00	0	43	0	1164967936	63	4703
2026-01-27 04:17:47.73	288.33	8.60	-46.6	-48.3	18.3	0.00e+00	0	43	0	1167065088	64	4474
2026-01-27 04:17:48.73	288.23	8.54	-46.7	-48.5	18.1	0.00e+00	0	43	0	1168113664	64	4577
2026-01-27 04:17:49.73	288.14	8.47	-47.0	-48.8	17.8	0.00e+00	0	43	0	1170210816	64	4758
2026-01-27 04:17:50.74	288.04	8.40	-47.1	-49.0	17.7	0.00e+00	0	43	0	1172307968	64	4827
2026-01-27 04:17:51.75	287.95	8.33	-47.1	-49.0	17.5	0.00e+00	0	43	0	1174405120	64	4855
2026-01-27 04:17:52.75	287.86	8.26	-47.3	-49.4	17.2	0.00e+00	0	43	0	1176502272	65	4768
2026-01-27 04:17:53.76	287.76	8.20	-47.6	-49.8	16.9	0.00e+00	0	43	0	1177550848	65	4991
2026-01-27 04:17:54.77	287.67	8.13	-47.6	-49.7	16.9	0.00e+00	0	43	0	1179648000	65	4964
2026-01-27 04:17:55.78	287.58	8.06	-47.7	-49.8	16.7	0.00e+00	0	43	0	1181745152	66	4757
2026-01-27 04:17:56.79	287.49	7.99	-47.8	-50.0	16.6	0.00e+00	0	43	0	1183842304	66	4826
2026-01-27 04:17:57.79	287.39	7.92	-47.9	-50.2	16.3	0.00e+00	0	43	0	1185939456	66	4934
2026-01-27 04:17:58.80	287.30	7.86	-48.0	-50.3	16.3	0.00e+00	0	43	0	1186988032	66	4996
2026-01-27 04:17:59.81	287.21	7.79	-47.9	-50.2	16.4	0.00e+00	0	43	0	1189085184	66	4944
2026-01-27 04:18:00.81	287.12	7.72	-48.1	-50.4	16.1	0.00e+00	0	43	0	1191182336	66	5089
2026-01-27 04:18:01.82	287.03	7.65	-47.9	-50.2	16.3	0.00e+00	0	43	0	1193279488	66	4975
2026-01-27 04:18:02.83	286.94	7.59	-47.9	-50.2	16.3	0.00e+00	0	43	0	1195376640	66	4963
2026-01-27 04:18:03.84	286.86	7.52	-48.0	-50.4	16.2	0.00e+00	0	43	0	1196425216	66	5052
2026-01-27 04:18:04.85	286.77	7.45	-48.0	-50.4	16.2	0.00e+00	0	43	0	1198522368	66	5053
2026-01-27 04:18:05.85	286.68	7.39	-48.0	-50.4	16.2	0.00e+00	0	43	0	1200619520	66	5052
2026-01-27 04:18:06.86	286.59	7.32	-47.9	-50.2	16.3	0.00e+00	0	43	0	1202716672	66	4934
2026-01-27 04:18:07.87	286.50	7.25	-47.9	-50.3	16.2	0.00e+00	0	43	0	1204813824	66	4987
2026-01-27 04:18:08.88	286.42	7.19	-47.9	-50.2	16.3	0.00e+00	0	43	0	1205862400	66	4930
2026-01-27 04:18:09.88	286.33	7.12	-47.9	-50.2	16.3	0.00e+00	0	43	0	1207959552	66	4968
2026-01-27 04:18:10.89	286.25	7.05	-48.0	-50.4	16.1	0.00e+00	0	43	0	1210056704	66	5054
2026-01-27 04:18:11.90	286.16	6.99	-47.9	-50.3	16.2	0.00e+00	0	43	0	1212153856	66	4987
2026-01-27 04:18:12.90	286.08	6.92	-48.1	-50.5	15.9	0.00e+00	0	43	0	1214251008	67	4867
2026-01-27 04:18:13.91	285.99	6.86	-48.2	-50.6	15.9	0.00e+00	0	43	0	1215299584	67	4897
2026-01-27 04:18:14.92	285.91	6.79	-48.1	-50.5	16.0	0.00e+00	0	43	0	1217396736	67	4844
2026-01-27 04:18:15.93	285.82	6.72	-48.1	-50.6	16.0	0.00e+00	0	43	0	1219493888	67	4876
2026-01-27 04:18:16.94	285.74	6.66	-48.4	-51.0	15.4	0.00e+00	0	43	0	1221591040	67	5119
