passes_logs/2026/01/27/R3.2S_Murmansk/R3.2S_Murmansk__20260127_100113_FENGYUN_3D_rec.log

#Pass ID: 20260127_100113_FENGYUN 3D
#Satellite: FENGYUN 3D
#Configuration: FENGYUN 3D
#almurnet v.1.7.20251203
#Start time: 2026-01-27 10:01:12

#Version: 2.2.20231116
#Station: R3.2S_Murmansk
#Location: 33.079688 lon 68.888172 lat
#TLE: 1 43010U 17072A   26026.49129444  .00000151  00000+0  93391-4 0  9993
#TLE: 2 43010  98.9962 358.4866 0002525  88.1664 271.9801 14.19700337424889

#Time	Az	El	Level	Level2	SNR	BER	BlckErr	Temp	State	Recorded	gain1	gain2
2026-01-27 10:01:12.70	115.37	1.98	-54.0	-65.9	3.8	8.45e-01	0	41	0	0	79	14339
2026-01-27 10:01:13.69	115.34	2.04	-53.9	-65.9	3.8	8.45e-01	0	41	104	0	78	15204
2026-01-27 10:01:14.70	115.30	2.11	-53.9	-65.9	3.8	8.46e-01	0	40	104	0	78	15141
2026-01-27 10:01:15.71	115.27	2.17	-54.0	-65.9	3.8	8.47e-01	0	41	104	0	78	15118
2026-01-27 10:01:16.72	115.23	2.23	-53.9	-65.9	3.8	8.47e-01	0	41	104	0	78	15123
2026-01-27 10:01:17.72	115.20	2.29	-53.9	-65.9	3.8	8.46e-01	0	41	104	0	78	15121
2026-01-27 10:01:18.73	115.16	2.36	-53.9	-65.9	3.8	8.47e-01	0	41	104	0	78	15122
2026-01-27 10:01:19.74	115.13	2.42	-53.9	-65.9	3.8	8.47e-01	0	41	104	0	78	15080
2026-01-27 10:01:20.75	115.10	2.49	-53.9	-65.9	3.8	8.46e-01	0	41	104	0	78	15066
2026-01-27 10:01:21.76	115.06	2.55	-53.9	-65.8	3.8	8.46e-01	0	41	104	0	78	15043
2026-01-27 10:01:22.77	115.02	2.61	-54.1	-66.0	3.8	8.46e-01	0	41	104	0	78	15336
2026-01-27 10:01:23.77	114.99	2.68	-54.2	-66.1	3.8	8.46e-01	0	41	104	0	78	15538
2026-01-27 10:01:24.78	114.95	2.74	-54.2	-66.1	3.8	8.47e-01	0	41	104	0	78	15544
2026-01-27 10:01:25.79	114.92	2.81	-54.2	-66.1	3.8	8.47e-01	0	41	104	0	78	15552
2026-01-27 10:01:26.79	114.88	2.87	-54.1	-66.1	3.8	8.46e-01	0	41	104	0	78	15463
2026-01-27 10:01:27.80	114.85	2.93	-54.1	-66.1	3.8	8.46e-01	0	41	104	0	78	15443
2026-01-27 10:01:28.81	114.81	3.00	-54.1	-66.0	3.8	8.45e-01	0	41	104	0	78	15393
2026-01-27 10:01:29.81	114.77	3.06	-54.1	-66.0	3.8	8.45e-01	0	41	104	0	78	15342
2026-01-27 10:01:30.83	114.74	3.13	-54.0	-66.0	3.8	8.46e-01	0	41	104	0	78	15259
2026-01-27 10:01:31.83	114.70	3.19	-54.0	-65.9	3.8	8.47e-01	0	41	104	0	78	15177
2026-01-27 10:01:32.84	114.66	3.26	-53.9	-65.9	3.8	8.47e-01	0	41	104	0	78	15126
2026-01-27 10:01:33.85	114.63	3.33	-53.9	-65.9	3.8	8.47e-01	0	41	104	0	78	15093
2026-01-27 10:01:34.86	114.59	3.39	-53.9	-65.8	3.8	8.47e-01	0	41	104	0	78	15023
2026-01-27 10:01:35.87	114.55	3.46	-53.8	-65.8	3.8	8.46e-01	0	41	104	0	78	14924
2026-01-27 10:01:36.88	114.51	3.52	-53.8	-65.7	3.8	8.46e-01	0	41	104	0	78	14861
2026-01-27 10:01:37.89	114.47	3.59	-53.8	-65.7	3.8	8.45e-01	0	41	104	0	78	14751
2026-01-27 10:01:38.89	114.44	3.65	-53.7	-65.6	3.8	8.46e-01	0	41	104	0	78	14675
2026-01-27 10:01:39.90	114.40	3.72	-53.7	-65.6	3.8	8.46e-01	0	41	104	0	78	14645
2026-01-27 10:01:40.91	114.36	3.79	-53.6	-65.6	3.8	8.46e-01	0	41	104	0	78	14582
2026-01-27 10:01:41.92	114.32	3.85	-53.6	-65.5	3.8	8.46e-01	0	41	104	0	78	14472
2026-01-27 10:01:42.93	114.28	3.92	-53.5	-65.5	3.8	8.46e-01	0	41	104	0	78	14384
2026-01-27 10:01:43.94	114.24	3.99	-53.5	-65.4	3.8	8.46e-01	0	41	104	0	78	14284
2026-01-27 10:01:44.95	114.20	4.06	-53.4	-65.3	3.8	8.46e-01	0	42	104	0	78	14197
2026-01-27 10:01:45.95	114.16	4.12	-53.3	-65.3	3.8	8.45e-01	0	41	104	0	78	14049
2026-01-27 10:01:46.96	114.12	4.19	-53.2	-65.1	3.8	8.46e-01	0	41	104	0	78	13871
2026-01-27 10:01:47.96	114.09	4.26	-53.1	-65.0	3.8	8.46e-01	0	42	104	0	78	13694
2026-01-27 10:01:48.97	114.05	4.32	-53.0	-65.0	3.8	8.46e-01	0	42	104	0	78	13573
2026-01-27 10:01:49.98	114.00	4.39	-52.9	-64.8	3.8	8.47e-01	0	42	104	0	77	14129
2026-01-27 10:01:50.99	113.96	4.46	-52.7	-64.6	3.8	8.46e-01	0	41	104	0	77	13730
2026-01-27 10:01:52.00	113.92	4.53	-51.8	-59.8	3.9	8.45e-01	0	42	104	0	75	8958
2026-01-27 10:01:53.01	113.88	4.60	-46.0	-47.6	15.5	0.00e+00	0	42	0	2097152	63	4352
2026-01-27 10:01:54.01	113.84	4.67	-45.1	-46.6	16.5	0.00e+00	0	42	0	7340032	62	4106
2026-01-27 10:01:55.02	113.80	4.73	-45.2	-46.6	16.5	0.00e+00	0	42	0	13631488	62	4124
2026-01-27 10:01:56.02	113.76	4.80	-44.7	-46.0	17.0	0.00e+00	0	42	0	18874368	61	4094
2026-01-27 10:01:57.03	113.72	4.87	-44.5	-45.9	17.2	0.00e+00	0	42	0	24117248	60	4264
2026-01-27 10:01:58.04	113.68	4.94	-44.6	-46.0	17.1	0.00e+00	0	42	0	30408704	60	4318
2026-01-27 10:01:59.05	113.63	5.01	-44.9	-46.3	16.8	0.00e+00	0	42	0	35651584	60	4446
2026-01-27 10:02:00.05	113.59	5.08	-44.3	-45.6	17.9	0.00e+00	0	42	0	40894464	59	4341
2026-01-27 10:02:01.06	113.55	5.15	-46.6	-48.4	15.0	0.00e+00	0	42	0	47185920	63	4776
2026-01-27 10:02:02.06	113.51	5.22	-50.7	-55.8	7.5	1.71e-02	0	42	0	52428800	72	6654
2026-01-27 10:02:03.07	113.46	5.29	-44.1	-45.3	18.4	0.00e+00	0	42	0	58720256	59	4217
2026-01-27 10:02:04.08	113.42	5.36	-50.3	-54.5	8.7	1.48e-05	0	42	0	63963136	71	6081
2026-01-27 10:02:05.09	113.38	5.43	-44.1	-45.3	18.3	0.00e+00	0	42	0	69206016	59	4215
2026-01-27 10:02:06.10	113.33	5.50	-43.7	-44.9	18.8	0.00e+00	0	42	0	75497472	59	4017
2026-01-27 10:02:07.11	113.29	5.57	-43.5	-44.7	19.0	0.00e+00	0	42	0	81788928	59	3915
2026-01-27 10:02:08.12	113.24	5.64	-43.7	-44.8	18.8	0.00e+00	0	42	0	87031808	59	3992
2026-01-27 10:02:09.13	113.20	5.71	-43.7	-44.9	18.6	0.00e+00	0	42	0	92274688	59	4022
2026-01-27 10:02:10.14	113.16	5.78	-43.9	-45.1	18.5	0.00e+00	0	42	0	98566144	59	4112
2026-01-27 10:02:11.15	113.11	5.86	-43.4	-44.5	19.0	0.00e+00	0	42	0	103809024	58	4098
2026-01-27 10:02:12.16	113.07	5.93	-43.6	-44.7	18.9	0.00e+00	0	42	0	109051904	58	4176
2026-01-27 10:02:13.17	113.02	6.00	-43.6	-44.8	18.8	0.00e+00	0	42	0	115343360	58	4203
2026-01-27 10:02:14.17	112.97	6.07	-43.4	-44.5	19.0	0.00e+00	0	42	0	120586240	58	4094
2026-01-27 10:02:15.18	112.93	6.14	-43.5	-44.6	19.0	0.00e+00	0	42	0	125829120	58	4122
2026-01-27 10:02:16.19	112.88	6.22	-43.6	-44.7	18.9	0.00e+00	0	42	0	132120576	58	4187
2026-01-27 10:02:17.20	112.84	6.29	-43.3	-44.4	19.2	0.00e+00	0	42	0	137363456	58	4039
2026-01-27 10:02:18.21	112.79	6.36	-43.3	-44.4	19.2	0.00e+00	0	42	0	143654912	58	4039
2026-01-27 10:02:19.21	112.74	6.43	-43.3	-44.4	19.3	0.00e+00	0	42	0	148897792	58	4032
2026-01-27 10:02:20.22	112.70	6.51	-43.4	-44.5	19.2	0.00e+00	0	42	0	155189248	58	4070
2026-01-27 10:02:21.22	112.65	6.58	-43.3	-44.3	19.4	0.00e+00	0	42	0	160432128	58	3996
2026-01-27 10:02:22.23	112.60	6.65	-43.3	-44.4	19.3	0.00e+00	0	42	0	166723584	58	4044
2026-01-27 10:02:23.23	112.55	6.73	-43.2	-44.3	19.4	0.00e+00	0	42	0	171966464	58	3995
2026-01-27 10:02:24.24	112.51	6.80	-43.2	-44.3	19.4	0.00e+00	0	42	0	177209344	58	3989
2026-01-27 10:02:25.25	112.46	6.87	-43.2	-44.3	19.5	0.00e+00	0	42	0	183500800	58	3973
2026-01-27 10:02:26.26	112.41	6.95	-43.2	-44.3	19.4	0.00e+00	0	42	0	188743680	58	3978
2026-01-27 10:02:27.27	112.36	7.02	-43.2	-44.3	19.4	0.00e+00	0	42	0	193986560	58	3971
2026-01-27 10:02:28.28	112.31	7.10	-43.3	-44.4	19.4	0.00e+00	0	42	0	200278016	58	4014
2026-01-27 10:02:29.29	112.26	7.17	-43.4	-44.5	19.3	0.00e+00	0	42	0	205520896	58	4081
2026-01-27 10:02:30.29	112.21	7.25	-43.3	-44.4	19.4	0.00e+00	0	42	0	210763776	58	4047
2026-01-27 10:02:31.30	112.16	7.32	-43.2	-44.3	19.5	0.00e+00	0	42	0	217055232	58	3989
2026-01-27 10:02:32.31	112.11	7.40	-43.2	-44.3	19.5	0.00e+00	0	42	0	223346688	58	3967
2026-01-27 10:02:33.32	112.06	7.47	-43.2	-44.3	19.5	0.00e+00	0	42	0	228589568	58	3971
2026-01-27 10:02:34.32	112.01	7.55	-43.2	-44.3	19.5	0.00e+00	0	42	0	233832448	58	3994
2026-01-27 10:02:35.33	111.96	7.62	-43.1	-44.2	19.7	0.00e+00	0	42	0	240123904	58	3919
2026-01-27 10:02:36.34	111.91	7.70	-43.2	-44.2	19.6	0.00e+00	0	42	0	245366784	58	3957
2026-01-27 10:02:37.35	111.86	7.78	-43.0	-44.1	19.7	0.00e+00	0	42	0	251658240	58	3881
2026-01-27 10:02:38.35	111.81	7.85	-43.0	-44.1	19.7	0.00e+00	0	42	0	256901120	58	3878
2026-01-27 10:02:39.36	111.75	7.93	-43.1	-44.2	19.7	0.00e+00	0	42	0	262144000	58	3915
2026-01-27 10:02:40.37	111.70	8.01	-43.0	-44.1	19.8	0.00e+00	0	42	0	268435456	58	3878
2026-01-27 10:02:41.37	111.65	8.08	-42.8	-43.9	19.9	0.00e+00	0	42	0	273678336	57	4021
2026-01-27 10:02:42.38	111.60	8.16	-42.9	-43.9	19.9	0.00e+00	0	42	0	278921216	57	4028
2026-01-27 10:02:43.39	111.54	8.24	-42.9	-43.9	19.9	0.00e+00	0	42	0	285212672	57	4027
2026-01-27 10:02:44.40	111.49	8.32	-42.8	-43.8	20.0	0.00e+00	0	42	0	291504128	57	3995
2026-01-27 10:02:45.41	111.43	8.39	-42.8	-43.9	20.0	0.00e+00	0	42	0	296747008	57	4013
2026-01-27 10:02:46.42	111.38	8.47	-42.8	-43.8	20.0	0.00e+00	0	42	0	301989888	57	3987
2026-01-27 10:02:47.43	111.32	8.55	-42.8	-43.8	20.0	0.00e+00	0	42	0	308281344	57	4003
2026-01-27 10:02:48.44	111.27	8.63	-42.9	-43.9	19.9	0.00e+00	0	42	0	313524224	57	4027
2026-01-27 10:02:49.45	111.21	8.71	-42.9	-44.0	19.9	0.00e+00	0	42	0	318767104	57	4063
2026-01-27 10:02:50.46	111.16	8.79	-42.7	-43.8	20.1	0.00e+00	0	42	0	325058560	57	3960
2026-01-27 10:02:51.47	111.10	8.87	-42.8	-43.8	20.1	0.00e+00	0	42	0	330301440	57	3968
2026-01-27 10:02:52.48	111.05	8.95	-42.8	-43.8	20.0	0.00e+00	0	42	0	336592896	57	3991
2026-01-27 10:02:53.49	110.99	9.03	-42.7	-43.7	20.2	0.00e+00	0	42	0	341835776	57	3950
2026-01-27 10:02:54.50	110.93	9.11	-42.7	-43.7	20.2	0.00e+00	0	42	0	347078656	57	3918
2026-01-27 10:02:55.51	110.88	9.19	-42.6	-43.6	20.3	0.00e+00	0	42	0	353370112	57	3876
2026-01-27 10:02:56.52	110.82	9.27	-42.6	-43.6	20.2	0.00e+00	0	42	0	359661568	57	3907
2026-01-27 10:02:57.53	110.76	9.35	-42.7	-43.7	20.2	0.00e+00	0	42	0	364904448	57	3937
2026-01-27 10:02:58.53	110.70	9.43	-42.6	-43.6	20.2	0.00e+00	0	42	0	370147328	57	3907
2026-01-27 10:02:59.55	110.64	9.51	-42.6	-43.7	20.3	0.00e+00	0	42	0	376438784	57	3917
2026-01-27 10:03:00.56	110.58	9.59	-42.6	-43.6	20.2	0.00e+00	0	42	0	381681664	57	3913
2026-01-27 10:03:01.57	110.53	9.68	-42.6	-43.6	20.3	0.00e+00	0	42	0	386924544	57	3882
2026-01-27 10:03:02.57	110.47	9.76	-42.5	-43.6	20.4	0.00e+00	0	42	0	393216000	57	3870
2026-01-27 10:03:03.58	110.41	9.84	-42.5	-43.5	20.4	0.00e+00	0	42	0	398458880	56	4058
2026-01-27 10:03:04.59	110.35	9.92	-42.6	-43.5	20.3	0.00e+00	0	42	0	403701760	56	4098
2026-01-27 10:03:05.59	110.29	10.00	-42.5	-43.5	20.4	0.00e+00	0	42	0	409993216	56	4090
2026-01-27 10:03:06.60	110.22	10.09	-42.4	-43.4	20.5	0.00e+00	0	42	0	416284672	56	4032
2026-01-27 10:03:07.61	110.16	10.17	-42.4	-43.4	20.5	0.00e+00	0	42	0	421527552	56	4033
2026-01-27 10:03:08.61	110.10	10.25	-42.3	-43.3	20.6	0.00e+00	0	42	0	426770432	56	3964
2026-01-27 10:03:09.62	110.04	10.34	-42.3	-43.3	20.6	0.00e+00	0	42	0	433061888	56	3962
2026-01-27 10:03:10.63	109.98	10.42	-42.3	-43.2	20.7	0.00e+00	0	42	0	438304768	56	3958
2026-01-27 10:03:11.64	109.91	10.50	-42.3	-43.3	20.6	0.00e+00	0	42	0	444596224	56	3964
2026-01-27 10:03:12.65	109.85	10.59	-42.3	-43.3	20.6	0.00e+00	0	42	0	449839104	56	3988
2026-01-27 10:03:13.65	109.79	10.67	-42.1	-43.0	20.9	0.00e+00	0	42	0	455081984	56	3866
2026-01-27 10:03:14.66	109.72	10.76	-42.1	-43.0	20.9	0.00e+00	0	42	0	461373440	56	3855
2026-01-27 10:03:15.67	109.66	10.84	-42.1	-43.0	20.9	0.00e+00	0	42	0	466616320	56	3849
2026-01-27 10:03:16.67	109.60	10.93	-42.0	-43.0	20.9	0.00e+00	0	42	0	471859200	56	3842
2026-01-27 10:03:17.68	109.53	11.01	-42.0	-43.0	20.9	0.00e+00	0	43	0	478150656	56	3843
2026-01-27 10:03:18.68	109.46	11.10	-41.8	-42.7	21.1	0.00e+00	0	42	0	483393536	55	3957
2026-01-27 10:03:19.69	109.40	11.19	-41.9	-42.8	21.0	0.00e+00	0	42	0	488636416	55	4003
2026-01-27 10:03:20.70	109.33	11.27	-41.8	-42.8	21.0	0.00e+00	0	42	0	494927872	55	3983
2026-01-27 10:03:21.70	109.27	11.36	-41.8	-42.7	21.1	0.00e+00	0	43	0	501219328	55	3949
2026-01-27 10:03:22.71	109.20	11.45	-41.7	-42.6	21.2	0.00e+00	0	42	0	506462208	55	3882
2026-01-27 10:03:23.72	109.13	11.53	-41.7	-42.6	21.2	0.00e+00	0	43	0	511705088	55	3909
2026-01-27 10:03:24.73	109.06	11.62	-41.6	-42.6	21.2	0.00e+00	0	43	0	517996544	55	3879
2026-01-27 10:03:25.73	108.99	11.71	-41.5	-42.4	21.3	0.00e+00	0	42	0	523239424	55	3807
2026-01-27 10:03:26.74	108.93	11.80	-41.6	-42.5	21.3	0.00e+00	0	42	0	529530880	55	3853
2026-01-27 10:03:27.75	108.86	11.88	-41.6	-42.5	21.3	0.00e+00	0	42	0	534773760	55	3838
2026-01-27 10:03:28.75	108.79	11.97	-41.5	-42.5	21.4	0.00e+00	0	42	0	540016640	55	3827
2026-01-27 10:03:29.76	108.72	12.06	-41.4	-42.3	21.5	0.00e+00	0	42	0	546308096	54	3990
2026-01-27 10:03:30.77	108.65	12.15	-41.4	-42.3	21.5	0.00e+00	0	42	0	551550976	54	3998
2026-01-27 10:03:31.78	108.57	12.24	-41.4	-42.3	21.6	0.00e+00	0	43	0	556793856	54	3959
2026-01-27 10:03:32.79	108.50	12.33	-41.4	-42.3	21.5	0.00e+00	0	42	0	563085312	54	3989
2026-01-27 10:03:33.80	108.43	12.42	-41.4	-42.3	21.5	0.00e+00	0	43	0	568328192	54	3982
2026-01-27 10:03:34.80	108.36	12.51	-41.4	-42.3	21.5	0.00e+00	0	42	0	574619648	54	3986
2026-01-27 10:03:35.81	108.29	12.60	-41.4	-42.3	21.5	0.00e+00	0	43	0	579862528	54	3996
2026-01-27 10:03:36.82	108.21	12.69	-41.4	-42.3	21.5	0.00e+00	0	42	0	586153984	54	3989
2026-01-27 10:03:37.82	108.14	12.78	-41.3	-42.2	21.7	0.00e+00	0	42	0	591396864	54	3920
2026-01-27 10:03:38.83	108.06	12.87	-41.3	-42.2	21.6	0.00e+00	0	43	0	596639744	54	3940
2026-01-27 10:03:39.84	107.99	12.97	-41.3	-42.2	21.6	0.00e+00	0	42	0	602931200	54	3937
2026-01-27 10:03:40.84	107.91	13.06	-41.3	-42.2	21.6	0.00e+00	0	43	0	608174080	54	3953
2026-01-27 10:03:41.85	107.84	13.15	-41.3	-42.2	21.7	0.00e+00	0	42	0	614465536	54	3914
2026-01-27 10:03:42.86	107.76	13.24	-41.1	-42.0	21.8	0.00e+00	0	42	0	619708416	54	3842
2026-01-27 10:03:43.87	107.69	13.34	-41.2	-42.1	21.7	0.00e+00	0	42	0	624951296	54	3897
2026-01-27 10:03:44.87	107.61	13.43	-41.2	-42.1	21.8	0.00e+00	0	42	0	631242752	54	3884
2026-01-27 10:03:45.88	107.53	13.52	-41.2	-42.1	21.7	0.00e+00	0	43	0	636485632	54	3898
2026-01-27 10:03:46.89	107.45	13.62	-41.3	-42.2	21.7	0.00e+00	0	42	0	641728512	54	3924
2026-01-27 10:03:47.90	107.37	13.71	-41.3	-42.2	21.6	0.00e+00	0	42	0	648019968	54	3957
2026-01-27 10:03:48.91	107.29	13.81	-41.2	-42.0	21.8	0.00e+00	0	42	0	654311424	54	3867
2026-01-27 10:03:49.91	107.21	13.90	-41.2	-42.0	21.8	0.00e+00	0	42	0	659554304	54	3868
2026-01-27 10:03:50.92	107.13	13.99	-41.2	-42.1	21.7	0.00e+00	0	42	0	664797184	54	3912
2026-01-27 10:03:51.93	107.05	14.09	-41.1	-42.0	21.9	0.00e+00	0	43	0	671088640	54	3843
2026-01-27 10:03:52.93	106.97	14.18	-41.1	-42.0	21.8	0.00e+00	0	43	0	676331520	54	3858
2026-01-27 10:03:53.94	106.89	14.28	-41.0	-41.9	21.9	0.00e+00	0	43	0	681574400	54	3806
2026-01-27 10:03:54.95	106.81	14.38	-40.9	-41.8	22.0	0.00e+00	0	43	0	687865856	53	3977
2026-01-27 10:03:55.95	106.72	14.47	-41.0	-41.8	22.0	0.00e+00	0	43	0	693108736	53	3996
2026-01-27 10:03:56.96	106.64	14.57	-40.8	-41.7	22.1	0.00e+00	0	43	0	699400192	53	3939
2026-01-27 10:03:57.97	106.56	14.67	-40.9	-41.8	22.0	0.00e+00	0	43	0	704643072	53	3963
2026-01-27 10:03:58.97	106.47	14.77	-40.8	-41.7	22.2	0.00e+00	0	42	0	709885952	53	3919
2026-01-27 10:03:59.98	106.39	14.86	-40.6	-41.5	22.3	0.00e+00	0	43	0	716177408	53	3844
2026-01-27 10:04:00.99	106.30	14.96	-40.6	-41.5	22.3	0.00e+00	0	43	0	721420288	53	3837
2026-01-27 10:04:02.00	106.21	15.06	-40.8	-41.6	22.2	0.00e+00	0	42	0	727711744	53	3911
2026-01-27 10:04:03.00	106.13	15.16	-40.6	-41.4	22.4	0.00e+00	0	43	0	732954624	53	3812
2026-01-27 10:04:04.01	106.04	15.26	-40.4	-41.2	22.5	0.00e+00	0	43	0	739246080	52	3957
2026-01-27 10:04:05.02	105.95	15.36	-40.4	-41.2	22.5	0.00e+00	0	43	0	744488960	52	3942
2026-01-27 10:04:06.03	105.86	15.46	-40.4	-41.2	22.5	0.00e+00	0	43	0	749731840	52	3947
2026-01-27 10:04:07.03	105.77	15.56	-40.3	-41.2	22.6	0.00e+00	0	43	0	756023296	52	3926
2026-01-27 10:04:08.04	105.68	15.66	-40.3	-41.1	22.6	0.00e+00	0	43	0	761266176	52	3906
2026-01-27 10:04:09.04	105.59	15.76	-40.4	-41.2	22.5	0.00e+00	0	43	0	766509056	52	3947
2026-01-27 10:04:10.05	105.50	15.86	-40.3	-41.2	22.6	0.00e+00	0	43	0	772800512	52	3920
2026-01-27 10:04:11.06	105.41	15.96	-40.3	-41.2	22.6	0.00e+00	0	43	0	778043392	52	3918
2026-01-27 10:04:12.07	105.31	16.06	-40.3	-41.2	22.6	0.00e+00	0	43	0	784334848	52	3919
2026-01-27 10:04:13.08	105.22	16.17	-40.3	-41.2	22.6	0.00e+00	0	43	0	789577728	52	3936
2026-01-27 10:04:14.09	105.13	16.27	-40.5	-41.3	22.5	0.00e+00	0	42	0	794820608	52	3988
2026-01-27 10:04:15.09	105.03	16.37	-40.5	-41.4	22.4	0.00e+00	0	43	0	801112064	52	4019
2026-01-27 10:04:16.10	104.94	16.48	-40.5	-41.4	22.4	0.00e+00	0	43	0	807403520	52	4009
2026-01-27 10:04:17.11	104.84	16.58	-40.4	-41.3	22.5	0.00e+00	0	42	0	812646400	52	3972
2026-01-27 10:04:18.11	104.74	16.68	-40.5	-41.3	22.5	0.00e+00	0	43	0	817889280	52	3992
2026-01-27 10:04:19.12	104.65	16.79	-40.5	-41.3	22.7	0.00e+00	0	43	0	824180736	52	3980
2026-01-27 10:04:20.13	104.55	16.89	-40.4	-41.2	22.8	0.00e+00	0	43	0	829423616	52	3956
2026-01-27 10:04:21.13	104.45	17.00	-40.4	-41.2	22.8	0.00e+00	0	43	0	834666496	52	3958
2026-01-27 10:04:22.14	104.35	17.10	-40.3	-41.1	22.9	0.00e+00	0	43	0	840957952	52	3884
2026-01-27 10:04:23.15	104.25	17.21	-40.3	-41.0	23.0	0.00e+00	0	43	0	846200832	52	3867
2026-01-27 10:04:24.16	104.15	17.32	-40.2	-41.0	23.0	0.00e+00	0	42	0	851443712	52	3835
2026-01-27 10:04:25.16	104.05	17.42	-40.1	-40.8	23.2	0.00e+00	0	43	0	857735168	51	4002
2026-01-27 10:04:26.17	103.94	17.53	-40.1	-40.8	23.3	0.00e+00	0	43	0	862978048	51	3996
2026-01-27 10:04:27.18	103.84	17.64	-40.0	-40.7	23.3	0.00e+00	0	43	0	869269504	51	3953
2026-01-27 10:04:28.19	103.74	17.75	-40.0	-40.7	23.3	0.00e+00	0	42	0	874512384	51	3956
2026-01-27 10:04:29.20	103.63	17.85	-40.0	-40.8	23.3	0.00e+00	0	43	0	880803840	51	3971
2026-01-27 10:04:30.20	103.53	17.96	-40.0	-40.7	23.4	0.00e+00	0	43	0	886046720	51	3947
2026-01-27 10:04:31.21	103.42	18.07	-39.9	-40.6	23.5	0.00e+00	0	43	0	892338176	51	3899
2026-01-27 10:04:32.22	103.31	18.18	-39.8	-40.6	23.5	0.00e+00	0	43	0	897581056	51	3873
2026-01-27 10:04:33.22	103.20	18.29	-39.9	-40.7	23.4	0.00e+00	0	43	0	902823936	51	3920
2026-01-27 10:04:34.23	103.10	18.40	-39.9	-40.6	23.5	0.00e+00	0	43	0	909115392	51	3905
2026-01-27 10:04:35.24	102.99	18.51	-40.0	-40.7	23.3	0.00e+00	0	43	0	914358272	51	3950
2026-01-27 10:04:36.25	102.87	18.62	-39.9	-40.6	23.4	0.00e+00	0	43	0	919601152	51	3911
2026-01-27 10:04:37.25	102.76	18.73	-39.9	-40.7	23.4	0.00e+00	0	42	0	925892608	51	3926
2026-01-27 10:04:38.26	102.65	18.84	-39.9	-40.7	23.4	0.00e+00	0	42	0	931135488	51	3915
2026-01-27 10:04:39.26	102.54	18.95	-39.8	-40.6	23.5	0.00e+00	0	43	0	936378368	51	3873
2026-01-27 10:04:40.25	102.43	19.06	-39.8	-40.6	23.5	0.00e+00	0	43	0	942669824	51	3878
2026-01-27 10:04:41.26	102.31	19.18	-39.6	-40.3	23.7	0.00e+00	0	43	0	947912704	51	3775
2026-01-27 10:04:42.26	102.20	19.29	-39.6	-40.4	23.7	0.00e+00	0	43	0	954204160	51	3797
2026-01-27 10:04:43.27	102.08	19.40	-39.7	-40.5	23.6	0.00e+00	0	42	0	959447040	51	3847
2026-01-27 10:04:44.27	101.97	19.52	-39.7	-40.4	23.7	0.00e+00	0	43	0	964689920	51	3816
2026-01-27 10:04:45.28	101.85	19.63	-39.5	-40.3	23.8	0.00e+00	0	43	0	970981376	51	3752
2026-01-27 10:04:46.29	101.73	19.75	-39.5	-40.3	23.8	0.00e+00	0	43	0	976224256	51	3738
2026-01-27 10:04:47.29	101.61	19.86	-39.5	-40.2	23.8	0.00e+00	0	43	0	981467136	51	3733
2026-01-27 10:04:48.30	101.49	19.98	-39.4	-40.2	23.9	0.00e+00	0	43	0	987758592	50	3933
2026-01-27 10:04:49.31	101.36	20.09	-39.5	-40.3	23.8	0.00e+00	0	43	0	994050048	50	3963
2026-01-27 10:04:50.31	101.24	20.21	-39.5	-40.3	23.8	0.00e+00	0	43	0	999292928	50	3971
2026-01-27 10:04:51.31	101.12	20.32	-39.5	-40.3	23.8	0.00e+00	0	43	0	1004535808	50	3983
2026-01-27 10:04:52.32	101.00	20.44	-39.6	-40.3	23.8	0.00e+00	0	43	0	1010827264	50	3994
2026-01-27 10:04:53.33	100.87	20.56	-39.5	-40.3	23.8	0.00e+00	0	43	0	1016070144	50	3965
2026-01-27 10:04:54.34	100.74	20.68	-39.2	-39.9	24.1	0.00e+00	0	43	0	1021313024	50	3802
2026-01-27 10:04:55.34	100.62	20.79	-39.2	-39.9	24.2	0.00e+00	0	43	0	1027604480	50	3801
2026-01-27 10:04:56.35	100.49	20.91	-39.3	-40.0	24.1	0.00e+00	0	43	0	1032847360	50	3848
2026-01-27 10:04:57.36	100.36	21.03	-39.3	-40.0	24.0	0.00e+00	0	43	0	1039138816	50	3860
2026-01-27 10:04:58.37	100.23	21.15	-39.2	-39.9	24.1	0.00e+00	0	43	0	1044381696	50	3821
2026-01-27 10:04:59.37	100.09	21.27	-39.1	-39.8	24.3	0.00e+00	0	43	0	1049624576	50	3757
2026-01-27 10:05:00.38	99.96	21.39	-39.1	-39.9	24.2	0.00e+00	0	43	0	1055916032	50	3785
2026-01-27 10:05:01.39	99.83	21.51	-39.1	-39.8	24.2	0.00e+00	0	43	0	1061158912	50	3764
2026-01-27 10:05:02.40	99.69	21.63	-39.2	-39.9	24.2	0.00e+00	0	43	0	1067450368	50	3800
2026-01-27 10:05:03.41	99.56	21.76	-39.3	-40.0	24.1	0.00e+00	0	43	0	1072693248	50	3848
2026-01-27 10:05:04.42	99.42	21.88	-39.2	-40.0	24.1	0.00e+00	0	43	0	1078984704	50	3832
2026-01-27 10:05:05.43	99.28	22.00	-39.1	-39.9	24.2	0.00e+00	0	43	0	1084227584	50	3792
2026-01-27 10:05:06.44	99.14	22.12	-39.3	-40.0	24.1	0.00e+00	0	43	0	1089470464	50	3841
2026-01-27 10:05:07.45	99.00	22.25	-39.0	-39.7	24.4	0.00e+00	0	43	0	1095761920	50	3721
2026-01-27 10:05:08.45	98.86	22.37	-38.7	-39.4	24.6	0.00e+00	0	43	0	1101004800	49	3796
2026-01-27 10:05:09.45	98.72	22.49	-38.7	-39.4	24.6	0.00e+00	0	43	0	1106247680	49	3817
2026-01-27 10:05:10.46	98.57	22.62	-38.7	-39.4	24.6	0.00e+00	0	43	0	1112539136	49	3806
2026-01-27 10:05:11.47	98.43	22.74	-38.6	-39.3	24.7	0.00e+00	0	43	0	1117782016	49	3768
2026-01-27 10:05:12.48	98.28	22.87	-38.6	-39.3	24.7	0.00e+00	0	43	0	1124073472	49	3759
2026-01-27 10:05:13.49	98.13	22.99	-38.7	-39.4	24.7	0.00e+00	0	43	0	1129316352	49	3790
2026-01-27 10:05:14.49	97.98	23.12	-38.6	-39.3	24.7	0.00e+00	0	43	0	1134559232	49	3752
2026-01-27 10:05:15.50	97.83	23.25	-38.7	-39.4	24.6	0.00e+00	0	43	0	1140850688	49	3807
2026-01-27 10:05:16.51	97.68	23.37	-38.8	-39.5	24.5	0.00e+00	0	43	0	1147142144	49	3866
2026-01-27 10:05:17.51	97.53	23.50	-38.7	-39.5	24.6	0.00e+00	0	43	0	1152385024	49	3830
2026-01-27 10:05:18.52	97.38	23.63	-38.8	-39.5	24.5	0.00e+00	0	43	0	1157627904	49	3867
2026-01-27 10:05:19.52	97.22	23.75	-38.8	-39.5	24.5	0.00e+00	0	43	0	1163919360	49	3861
2026-01-27 10:05:20.53	97.07	23.88	-38.7	-39.5	24.5	0.00e+00	0	43	0	1169162240	49	3833
2026-01-27 10:05:21.54	96.91	24.01	-38.8	-39.6	24.5	0.00e+00	0	43	0	1174405120	49	3869
2026-01-27 10:05:22.55	96.75	24.14	-38.8	-39.5	24.6	0.00e+00	0	43	0	1180696576	49	3835
2026-01-27 10:05:23.56	96.59	24.27	-38.7	-39.4	24.6	0.00e+00	0	43	0	1185939456	49	3811
2026-01-27 10:05:24.57	96.43	24.40	-38.7	-39.4	24.6	0.00e+00	0	43	0	1191182336	49	3814
2026-01-27 10:05:25.58	96.26	24.53	-38.7	-39.4	24.6	0.00e+00	0	43	0	1197473792	49	3801
2026-01-27 10:05:26.59	96.10	24.66	-38.7	-39.4	24.6	0.00e+00	0	43	0	1202716672	49	3815
2026-01-27 10:05:27.60	95.93	24.79	-38.7	-39.5	24.6	0.00e+00	0	43	0	1209008128	49	3832
2026-01-27 10:05:28.61	95.76	24.93	-38.8	-39.5	24.5	0.00e+00	0	43	0	1214251008	49	3849
2026-01-27 10:05:29.62	95.60	25.06	-38.8	-39.5	24.5	0.00e+00	0	43	0	1220542464	49	3850
2026-01-27 10:05:30.63	95.42	25.19	-38.7	-39.4	24.7	0.00e+00	0	43	0	1225785344	49	3798
2026-01-27 10:05:31.63	95.25	25.32	-38.7	-39.4	24.6	0.00e+00	0	43	0	1232076800	49	3815
2026-01-27 10:05:32.64	95.08	25.46	-38.6	-39.3	24.8	0.00e+00	0	43	0	1237319680	49	3739
2026-01-27 10:05:33.64	94.91	25.59	-38.6	-39.3	24.8	0.00e+00	0	43	0	1242562560	49	3744
2026-01-27 10:05:34.65	94.73	25.72	-38.5	-39.2	24.8	0.00e+00	0	43	0	1248854016	49	3729
2026-01-27 10:05:35.65	94.56	25.86	-38.6	-39.3	24.7	0.00e+00	0	43	0	1254096896	48	3977
2026-01-27 10:05:36.66	94.38	25.99	-38.4	-39.1	24.9	0.00e+00	0	43	0	1259339776	48	3906
2026-01-27 10:05:37.67	94.19	26.13	-38.3	-39.0	25.0	0.00e+00	0	43	0	1265631232	48	3856
2026-01-27 10:05:38.68	94.01	26.26	-38.3	-39.0	25.0	0.00e+00	0	43	0	1270874112	48	3860
2026-01-27 10:05:39.68	93.83	26.40	-38.4	-39.1	24.9	0.00e+00	0	43	0	1276116992	48	3876
2026-01-27 10:05:40.69	93.64	26.53	-38.3	-39.1	25.0	0.00e+00	0	43	0	1282408448	48	3869
2026-01-27 10:05:41.70	93.46	26.67	-38.5	-39.3	24.8	0.00e+00	0	43	0	1288699904	48	3965
2026-01-27 10:05:42.71	93.27	26.81	-38.7	-39.4	24.7	0.00e+00	0	43	0	1293942784	48	4016
2026-01-27 10:05:43.71	93.08	26.94	-38.6	-39.3	24.8	0.00e+00	0	43	0	1299185664	48	3972
2026-01-27 10:05:44.72	92.89	27.08	-38.7	-39.5	24.6	0.00e+00	0	43	0	1305477120	48	4054
2026-01-27 10:05:45.73	92.69	27.22	-38.6	-39.3	24.8	0.00e+00	0	43	0	1310720000	48	3983
2026-01-27 10:05:46.74	92.50	27.36	-38.5	-39.2	24.8	0.00e+00	0	43	0	1317011456	48	3935
2026-01-27 10:05:47.74	92.30	27.49	-38.5	-39.2	24.8	0.00e+00	0	43	0	1322254336	48	3943
2026-01-27 10:05:48.75	92.10	27.63	-38.3	-39.0	25.0	0.00e+00	0	43	0	1327497216	48	3861
2026-01-27 10:05:49.76	91.90	27.77	-38.2	-38.9	25.1	0.00e+00	0	43	0	1333788672	48	3806
2026-01-27 10:05:50.77	91.70	27.91	-38.1	-38.8	25.2	0.00e+00	0	43	0	1339031552	48	3774
2026-01-27 10:05:51.77	91.50	28.05	-38.2	-38.9	25.2	0.00e+00	0	43	0	1344274432	48	3790
2026-01-27 10:05:52.78	91.29	28.19	-38.3	-39.0	25.0	0.00e+00	0	43	0	1350565888	48	3862
2026-01-27 10:05:53.79	91.08	28.33	-38.3	-39.1	25.0	0.00e+00	0	43	0	1355808768	48	3871
2026-01-27 10:05:54.80	90.87	28.47	-38.2	-38.9	25.1	0.00e+00	0	43	0	1361051648	48	3797
2026-01-27 10:05:55.80	90.66	28.61	-38.2	-39.0	25.1	0.00e+00	0	43	0	1367343104	48	3829
2026-01-27 10:05:56.81	90.45	28.75	-38.3	-39.0	25.0	0.00e+00	0	43	0	1373634560	48	3861
2026-01-27 10:05:57.82	90.23	28.89	-38.4	-39.1	25.0	0.00e+00	0	43	0	1378877440	48	3871
2026-01-27 10:05:58.82	90.02	29.03	-38.3	-39.0	25.1	0.00e+00	0	43	0	1384120320	48	3850
2026-01-27 10:05:59.83	89.80	29.18	-38.3	-39.0	25.1	0.00e+00	0	43	0	1390411776	48	3830
2026-01-27 10:06:00.84	89.58	29.32	-38.2	-38.9	25.2	0.00e+00	0	43	0	1395654656	48	3785
2026-01-27 10:06:01.85	89.35	29.46	-38.2	-38.9	25.2	0.00e+00	0	43	0	1401946112	48	3793
2026-01-27 10:06:02.86	89.13	29.60	-38.2	-39.0	25.1	0.00e+00	0	43	0	1407188992	48	3830
2026-01-27 10:06:03.86	88.90	29.74	-38.2	-38.9	25.2	0.00e+00	0	43	0	1412431872	48	3811
2026-01-27 10:06:04.87	88.67	29.89	-38.3	-39.0	25.1	0.00e+00	0	43	0	1418723328	48	3844
2026-01-27 10:06:05.88	88.44	30.03	-38.1	-38.8	25.2	0.00e+00	0	43	0	1423966208	48	3773
2026-01-27 10:06:06.88	88.21	30.17	-38.0	-38.7	25.3	0.00e+00	0	43	0	1429209088	48	3735
2026-01-27 10:06:07.89	87.97	30.32	-38.2	-38.9	25.2	0.00e+00	0	43	0	1435500544	48	3788
2026-01-27 10:06:08.89	87.74	30.46	-38.1	-38.8	25.3	0.00e+00	0	43	0	1440743424	48	3761
2026-01-27 10:06:09.90	87.50	30.60	-38.2	-38.9	25.2	0.00e+00	0	43	0	1447034880	48	3801
2026-01-27 10:06:10.91	87.25	30.75	-38.1	-38.8	25.3	0.00e+00	0	43	0	1452277760	48	3764
2026-01-27 10:06:11.91	87.01	30.89	-38.1	-38.8	25.3	0.00e+00	0	43	0	1458569216	48	3749
2026-01-27 10:06:12.92	86.77	31.03	-38.1	-38.8	25.2	0.00e+00	0	43	0	1463812096	48	3776
2026-01-27 10:06:13.93	86.52	31.18	-38.2	-38.9	25.2	0.00e+00	0	43	0	1469054976	48	3797
2026-01-27 10:06:14.94	86.27	31.32	-37.6	-38.4	25.2	0.00e+00	0	43	0	1475346432	47	3783
2026-01-27 10:06:15.94	86.01	31.47	-37.6	-38.3	25.2	0.00e+00	0	43	0	1480589312	47	3754
2026-01-27 10:06:16.95	85.76	31.61	-37.7	-38.4	25.1	0.00e+00	0	43	0	1486880768	47	3818
2026-01-27 10:06:17.96	85.50	31.76	-37.6	-38.3	25.3	0.00e+00	0	43	0	1492123648	47	3754
2026-01-27 10:06:18.97	85.24	31.90	-37.7	-38.4	25.2	0.00e+00	0	43	0	1497366528	47	3790
2026-01-27 10:06:19.98	84.98	32.05	-37.6	-38.3	25.2	0.00e+00	0	43	0	1503657984	47	3756
2026-01-27 10:06:20.99	84.71	32.19	-37.6	-38.3	25.2	0.00e+00	0	43	0	1508900864	47	3755
2026-01-27 10:06:22.00	84.45	32.33	-37.6	-38.3	25.2	0.00e+00	0	43	0	1515192320	47	3773
2026-01-27 10:06:23.01	84.18	32.48	-37.6	-38.3	25.2	0.00e+00	0	43	0	1520435200	47	3775
2026-01-27 10:06:24.02	83.90	32.62	-37.6	-38.3	25.2	0.00e+00	0	43	0	1526726656	47	3761
2026-01-27 10:06:25.03	83.63	32.77	-37.6	-38.4	25.2	0.00e+00	0	43	0	1531969536	47	3789
2026-01-27 10:06:26.04	83.35	32.91	-37.7	-38.4	25.1	0.00e+00	0	43	0	1537212416	47	3819
2026-01-27 10:06:27.04	83.07	33.06	-37.7	-38.4	25.1	0.00e+00	0	43	0	1543503872	47	3822
2026-01-27 10:06:28.05	82.79	33.20	-37.7	-38.4	25.2	0.00e+00	0	43	0	1548746752	47	3805
2026-01-27 10:06:29.05	82.51	33.34	-37.7	-38.4	25.1	0.00e+00	0	43	0	1553989632	47	3818
2026-01-27 10:06:30.06	82.22	33.49	-37.7	-38.4	25.1	0.00e+00	0	43	0	1560281088	47	3810
2026-01-27 10:06:31.07	81.93	33.63	-37.5	-38.2	25.3	0.00e+00	0	43	0	1565523968	47	3727
2026-01-27 10:06:32.07	81.64	33.78	-37.5	-38.2	25.3	0.00e+00	0	43	0	1571815424	47	3725
2026-01-27 10:06:33.08	81.35	33.92	-37.4	-38.1	25.4	0.00e+00	0	43	0	1577058304	46	3913
2026-01-27 10:06:34.09	81.05	34.06	-37.4	-38.1	25.4	0.00e+00	0	43	0	1582301184	46	3904
2026-01-27 10:06:35.09	80.75	34.20	-37.2	-37.9	25.6	0.00e+00	0	43	0	1588592640	46	3815
2026-01-27 10:06:36.10	80.45	34.35	-37.3	-38.0	25.5	0.00e+00	0	43	0	1594884096	46	3859
2026-01-27 10:06:37.10	80.15	34.49	-37.4	-38.1	25.4	0.00e+00	0	43	0	1600126976	46	3913
2026-01-27 10:06:38.11	79.84	34.63	-37.4	-38.1	25.4	0.00e+00	0	43	0	1605369856	46	3899
2026-01-27 10:06:39.12	79.53	34.77	-37.4	-38.2	25.4	0.00e+00	0	43	0	1611661312	46	3914
2026-01-27 10:06:40.12	79.22	34.91	-37.5	-38.2	25.4	0.00e+00	0	43	0	1616904192	46	3915
2026-01-27 10:06:41.13	78.90	35.06	-37.4	-38.1	25.4	0.00e+00	0	43	0	1622147072	46	3880
2026-01-27 10:06:42.13	78.58	35.20	-37.4	-38.1	25.5	0.00e+00	0	43	0	1628438528	46	3871
2026-01-27 10:06:43.14	78.26	35.34	-37.3	-38.0	25.5	0.00e+00	0	43	0	1633681408	46	3867
2026-01-27 10:06:44.15	77.94	35.48	-37.2	-37.9	25.6	0.00e+00	0	43	0	1638924288	46	3812
2026-01-27 10:06:45.15	77.61	35.61	-37.3	-38.0	25.6	0.00e+00	0	43	0	1645215744	46	3831
2026-01-27 10:06:46.16	77.28	35.75	-37.4	-38.1	25.4	0.00e+00	0	43	0	1650458624	46	3910
2026-01-27 10:06:47.16	76.95	35.89	-37.4	-38.1	25.5	0.00e+00	0	43	0	1656750080	46	3883
2026-01-27 10:06:48.17	76.62	36.03	-37.4	-38.1	25.4	0.00e+00	0	43	0	1661992960	46	3889
2026-01-27 10:06:49.17	76.28	36.17	-37.5	-38.2	25.4	0.00e+00	0	43	0	1667235840	46	3930
2026-01-27 10:06:50.18	75.94	36.30	-37.6	-38.3	25.3	0.00e+00	0	43	0	1673527296	46	3993
2026-01-27 10:06:51.19	75.59	36.44	-37.7	-38.4	25.2	0.00e+00	0	43	0	1678770176	46	4038
2026-01-27 10:06:52.20	75.25	36.58	-37.7	-38.4	25.2	0.00e+00	0	43	0	1685061632	46	4044
2026-01-27 10:06:53.21	74.90	36.71	-37.7	-38.4	25.2	0.00e+00	0	43	0	1690304512	46	4038
2026-01-27 10:06:54.21	74.55	36.84	-37.8	-38.5	25.1	0.00e+00	0	43	0	1696595968	46	4091
2026-01-27 10:06:55.22	74.19	36.98	-38.0	-38.8	24.9	0.00e+00	0	43	0	1701838848	46	4203
2026-01-27 10:06:56.23	73.83	37.11	-38.1	-38.8	24.8	0.00e+00	0	43	0	1707081728	46	4236
2026-01-27 10:06:57.23	73.47	37.24	-38.0	-38.7	24.9	0.00e+00	0	43	0	1713373184	46	4168
2026-01-27 10:06:58.24	73.11	37.37	-37.8	-38.5	25.1	0.00e+00	0	43	0	1718616064	46	4089
2026-01-27 10:06:59.24	72.74	37.50	-37.7	-38.4	25.2	0.00e+00	0	43	0	1723858944	46	4034
2026-01-27 10:07:00.25	72.37	37.63	-37.6	-38.3	25.3	0.00e+00	0	43	0	1730150400	46	3963
2026-01-27 10:07:01.26	72.00	37.76	-37.8	-38.5	25.1	0.00e+00	0	43	0	1735393280	46	4076
2026-01-27 10:07:02.27	71.62	37.89	-37.8	-38.5	25.1	0.00e+00	0	43	0	1741684736	46	4086
2026-01-27 10:07:03.27	71.24	38.02	-37.7	-38.4	25.2	0.00e+00	0	43	0	1746927616	46	4025
2026-01-27 10:07:04.28	70.86	38.14	-37.7	-38.4	25.2	0.00e+00	0	43	0	1752170496	46	4045
2026-01-27 10:07:05.29	70.47	38.27	-37.7	-38.4	25.2	0.00e+00	0	43	0	1758461952	46	4047
2026-01-27 10:07:06.29	70.09	38.39	-37.7	-38.5	25.1	0.00e+00	0	43	0	1763704832	46	4059
2026-01-27 10:07:07.30	69.69	38.52	-37.9	-38.6	25.1	0.00e+00	0	43	0	1769996288	46	4108
2026-01-27 10:07:08.31	69.30	38.64	-37.7	-38.5	25.1	0.00e+00	0	43	0	1775239168	46	4054
2026-01-27 10:07:09.31	68.91	38.76	-37.6	-38.4	25.2	0.00e+00	0	43	0	1781530624	46	4009
2026-01-27 10:07:10.31	68.51	38.88	-37.6	-38.3	25.3	0.00e+00	0	43	0	1786773504	46	3967
2026-01-27 10:07:11.32	68.10	38.99	-37.6	-38.3	25.3	0.00e+00	0	43	0	1792016384	46	3989
2026-01-27 10:07:12.33	67.70	39.11	-37.7	-38.4	25.2	0.00e+00	0	43	0	1798307840	46	4017
2026-01-27 10:07:13.33	67.29	39.23	-37.7	-38.4	25.2	0.00e+00	0	43	0	1803550720	46	4025
2026-01-27 10:07:14.34	66.88	39.34	-37.6	-38.3	25.3	0.00e+00	0	43	0	1808793600	46	4004
2026-01-27 10:07:15.35	66.46	39.46	-37.6	-38.3	25.3	0.00e+00	0	43	0	1815085056	46	3961
2026-01-27 10:07:16.36	66.04	39.57	-37.6	-38.3	25.3	0.00e+00	0	43	0	1820327936	46	3993
2026-01-27 10:07:17.37	65.62	39.68	-37.5	-38.2	25.4	0.00e+00	0	43	0	1826619392	46	3928
2026-01-27 10:07:18.37	65.20	39.79	-37.6	-38.3	25.3	0.00e+00	0	43	0	1831862272	46	3981
2026-01-27 10:07:19.38	64.78	39.89	-37.5	-38.2	25.3	0.00e+00	0	43	0	1837105152	46	3956
2026-01-27 10:07:20.39	64.35	40.00	-37.6	-38.3	25.3	0.00e+00	0	43	0	1843396608	46	3984
2026-01-27 10:07:21.39	63.92	40.10	-37.6	-38.3	25.3	0.00e+00	0	43	0	1848639488	46	3998
2026-01-27 10:07:22.40	63.48	40.21	-37.5	-38.2	25.4	0.00e+00	0	43	0	1853882368	46	3947
2026-01-27 10:07:23.40	63.05	40.31	-37.5	-38.2	25.4	0.00e+00	0	43	0	1860173824	46	3921
2026-01-27 10:07:24.41	62.61	40.41	-37.3	-38.0	25.6	0.00e+00	0	43	0	1866465280	46	3829
2026-01-27 10:07:25.42	62.16	40.51	-37.3	-38.0	25.5	0.00e+00	0	43	0	1871708160	46	3857
2026-01-27 10:07:26.43	61.72	40.60	-37.2	-37.9	25.7	0.00e+00	0	43	0	1876951040	46	3795
2026-01-27 10:07:27.44	61.27	40.70	-37.2	-37.9	25.7	0.00e+00	0	43	0	1883242496	46	3782
2026-01-27 10:07:28.44	60.82	40.79	-37.3	-38.0	25.6	0.00e+00	0	43	0	1888485376	46	3828
2026-01-27 10:07:29.45	60.37	40.88	-37.4	-38.2	25.4	0.00e+00	0	43	0	1893728256	46	3917
2026-01-27 10:07:30.47	59.90	40.97	-37.5	-38.2	25.4	0.00e+00	0	43	0	1900019712	46	3939
2026-01-27 10:07:31.47	59.45	41.06	-37.5	-38.2	25.4	0.00e+00	0	43	0	1905262592	46	3956
2026-01-27 10:07:32.48	58.99	41.14	-37.4	-38.1	25.5	0.00e+00	0	43	0	1911554048	46	3890
2026-01-27 10:07:33.49	58.52	41.23	-37.5	-38.2	25.4	0.00e+00	0	43	0	1916796928	46	3935
2026-01-27 10:07:34.50	58.06	41.31	-37.5	-38.3	25.4	0.00e+00	0	43	0	1923088384	46	3966
2026-01-27 10:07:35.51	57.59	41.39	-37.4	-38.2	25.5	0.00e+00	0	43	0	1928331264	46	3914
2026-01-27 10:07:36.51	57.12	41.47	-37.4	-38.1	25.5	0.00e+00	0	43	0	1934622720	46	3898
2026-01-27 10:07:37.53	56.64	41.54	-37.2	-37.9	25.7	0.00e+00	0	43	0	1939865600	46	3809
2026-01-27 10:07:38.53	56.17	41.62	-37.3	-37.9	25.6	0.00e+00	0	43	0	1945108480	46	3818
2026-01-27 10:07:39.54	55.69	41.69	-37.1	-37.8	25.7	0.00e+00	0	43	0	1951399936	46	3776
2026-01-27 10:07:40.54	55.22	41.76	-37.0	-37.8	25.8	0.00e+00	0	43	0	1956642816	46	3738
2026-01-27 10:07:41.55	54.74	41.83	-37.0	-37.7	25.8	0.00e+00	0	43	0	1961885696	46	3726
2026-01-27 10:07:42.57	54.25	41.89	-37.0	-37.7	25.9	0.00e+00	0	43	0	1968177152	46	3714
2026-01-27 10:07:43.57	53.77	41.95	-37.1	-37.7	25.8	0.00e+00	0	43	0	1973420032	46	3737
2026-01-27 10:07:44.58	53.28	42.01	-37.1	-37.8	25.8	0.00e+00	0	43	0	1979711488	46	3746
2026-01-27 10:07:45.59	52.79	42.07	-37.4	-38.1	25.6	0.00e+00	0	43	0	1984954368	46	3875
2026-01-27 10:07:46.60	52.30	42.13	-37.4	-38.1	25.5	0.00e+00	0	43	0	1991245824	46	3909
2026-01-27 10:07:47.61	51.80	42.18	-37.4	-38.1	25.5	0.00e+00	0	43	0	1996488704	46	3906
2026-01-27 10:07:48.62	51.31	42.23	-37.5	-38.2	25.4	0.00e+00	0	43	0	2001731584	46	3954
2026-01-27 10:07:49.63	50.81	42.28	-37.5	-38.2	25.5	0.00e+00	0	43	0	2008023040	46	3926
2026-01-27 10:07:50.64	50.32	42.33	-37.4	-38.1	25.6	0.00e+00	0	43	0	2013265920	46	3889
2026-01-27 10:07:51.64	49.82	42.38	-37.4	-38.1	25.5	0.00e+00	0	43	0	2019557376	46	3904
2026-01-27 10:07:52.65	49.32	42.42	-37.2	-37.9	25.7	0.00e+00	0	43	0	2024800256	46	3813
2026-01-27 10:07:53.67	48.81	42.46	-37.0	-37.7	25.9	0.00e+00	0	43	0	2030043136	46	3703
2026-01-27 10:07:54.67	48.32	42.49	-37.2	-37.9	25.7	0.00e+00	0	43	0	2036334592	45	4037
2026-01-27 10:07:55.67	47.82	42.53	-37.2	-37.9	25.7	0.00e+00	0	43	0	2041577472	45	4032
2026-01-27 10:07:56.68	47.31	42.56	-37.2	-37.9	25.7	0.00e+00	0	43	0	2046820352	45	4045
2026-01-27 10:07:57.69	46.81	42.59	-37.4	-38.1	25.5	0.00e+00	0	43	0	2053111808	45	4142
2026-01-27 10:07:58.70	46.30	42.62	-37.3	-38.0	25.6	0.00e+00	0	43	0	2059403264	45	4085
2026-01-27 10:07:59.71	45.79	42.64	-37.2	-38.0	25.6	0.00e+00	0	43	0	2064646144	45	4053
2026-01-27 10:08:00.72	45.28	42.67	-37.1	-37.8	25.8	0.00e+00	0	43	0	2069889024	45	3979
2026-01-27 10:08:01.73	44.77	42.68	-37.1	-37.8	25.8	0.00e+00	0	43	0	2076180480	45	3987
2026-01-27 10:08:02.73	44.27	42.70	-37.5	-38.2	25.4	0.00e+00	0	43	0	2081423360	45	4187
2026-01-27 10:08:03.74	43.76	42.72	-37.5	-38.2	25.4	0.00e+00	0	43	0	2086666240	45	4159
2026-01-27 10:08:04.75	43.25	42.73	-37.1	-37.8	25.8	0.00e+00	0	43	0	2092957696	45	3981
2026-01-27 10:08:05.75	42.74	42.74	-36.9	-37.6	25.9	0.00e+00	0	43	0	2098200576	45	3894
2026-01-27 10:08:06.76	42.23	42.75	-36.9	-37.6	26.0	0.00e+00	0	43	0	2104492032	45	3883
2026-01-27 10:08:07.77	41.72	42.75	-37.0	-37.7	25.9	0.00e+00	0	43	0	2109734912	45	3917
2026-01-27 10:08:08.78	41.21	42.75	-36.8	-37.5	26.1	0.00e+00	0	43	0	2114977792	45	3829
2026-01-27 10:08:09.79	40.70	42.75	-36.8	-37.5	26.1	0.00e+00	0	43	0	2121269248	45	3834
2026-01-27 10:08:10.80	40.18	42.75	-36.9	-37.6	26.0	0.00e+00	0	43	0	2126512128	45	3887
2026-01-27 10:08:11.81	39.67	42.74	-37.0	-37.6	25.9	0.00e+00	0	43	0	2132803584	45	3910
2026-01-27 10:08:12.82	39.16	42.73	-37.0	-37.6	25.9	0.00e+00	0	43	0	2138046464	45	3912
2026-01-27 10:08:13.82	38.66	42.72	-37.2	-37.9	25.7	0.00e+00	0	43	0	2144337920	45	4008
2026-01-27 10:08:14.83	38.15	42.71	-37.3	-38.0	25.6	0.00e+00	0	43	0	2149580800	45	4085
2026-01-27 10:08:15.83	37.64	42.69	-37.2	-37.9	25.7	0.00e+00	0	43	0	2154823680	45	4036
2026-01-27 10:08:16.84	37.13	42.67	-37.0	-37.6	25.9	0.00e+00	0	43	0	2161115136	45	3913
2026-01-27 10:08:17.84	36.63	42.65	-36.9	-37.6	25.9	0.00e+00	0	43	0	2166358016	45	3899
2026-01-27 10:08:18.84	36.13	42.63	-37.0	-37.6	25.9	0.00e+00	0	43	0	2171600896	45	3910
2026-01-27 10:08:19.85	35.62	42.60	-36.8	-37.5	26.0	0.00e+00	0	43	0	2177892352	45	3834
2026-01-27 10:08:20.86	35.11	42.58	-36.6	-37.3	26.2	0.00e+00	0	43	0	2183135232	45	3762
2026-01-27 10:08:21.87	34.61	42.54	-36.8	-37.5	26.1	0.00e+00	0	43	0	2189426688	45	3826
2026-01-27 10:08:22.88	34.10	42.51	-36.9	-37.5	26.0	0.00e+00	0	43	0	2194669568	45	3867
2026-01-27 10:08:23.89	33.60	42.47	-36.8	-37.5	26.0	0.00e+00	0	43	0	2199912448	45	3858
2026-01-27 10:08:24.90	33.10	42.44	-36.9	-37.6	25.9	0.00e+00	0	43	0	2206203904	45	3889
2026-01-27 10:08:25.90	32.60	42.40	-36.9	-37.6	26.0	0.00e+00	0	43	0	2212495360	45	3881
2026-01-27 10:08:26.91	32.10	42.35	-37.0	-37.7	25.9	0.00e+00	0	43	0	2217738240	45	3931
2026-01-27 10:08:27.91	31.61	42.31	-37.2	-37.9	25.7	0.00e+00	0	43	0	2222981120	45	4034
2026-01-27 10:08:28.92	31.11	42.26	-37.2	-37.9	25.7	0.00e+00	0	43	0	2229272576	45	4022
2026-01-27 10:08:29.93	30.62	42.21	-37.1	-37.8	25.8	0.00e+00	0	43	0	2234515456	45	3962
2026-01-27 10:08:30.94	30.12	42.15	-37.0	-37.7	25.9	0.00e+00	0	43	0	2239758336	45	3939
2026-01-27 10:08:31.95	29.63	42.10	-36.8	-37.5	26.0	0.00e+00	0	43	0	2246049792	45	3853
2026-01-27 10:08:32.95	29.15	42.04	-36.9	-37.5	26.0	0.00e+00	0	43	0	2251292672	45	3863
2026-01-27 10:08:33.96	28.66	41.98	-36.9	-37.6	26.0	0.00e+00	0	43	0	2257584128	45	3900
2026-01-27 10:08:34.97	28.17	41.92	-37.0	-37.7	25.8	0.00e+00	0	43	0	2262827008	45	3949
2026-01-27 10:08:35.98	27.69	41.86	-37.0	-37.7	25.9	0.00e+00	0	43	0	2268069888	45	3943
2026-01-27 10:08:36.99	27.20	41.79	-37.0	-37.7	25.9	0.00e+00	0	43	0	2274361344	45	3952
2026-01-27 10:08:38.00	26.72	41.72	-37.2	-37.9	25.8	0.00e+00	0	43	0	2279604224	45	4006
2026-01-27 10:08:39.01	26.24	41.65	-37.2	-37.9	25.8	0.00e+00	0	43	0	2285895680	45	4008
2026-01-27 10:08:40.02	25.77	41.58	-37.3	-37.9	25.7	0.00e+00	0	43	0	2291138560	45	4043
2026-01-27 10:08:41.03	25.29	41.50	-37.3	-37.9	25.7	0.00e+00	0	43	0	2297430016	45	4045
2026-01-27 10:08:42.04	24.82	41.43	-37.0	-37.6	26.0	0.00e+00	0	43	0	2302672896	45	3901
2026-01-27 10:08:43.05	24.35	41.35	-36.9	-37.6	26.0	0.00e+00	0	43	0	2307915776	45	3878
2026-01-27 10:08:44.06	23.88	41.27	-36.9	-37.6	26.0	0.00e+00	0	43	0	2314207232	45	3881
2026-01-27 10:08:45.07	23.42	41.18	-37.0	-37.7	25.9	0.00e+00	0	43	0	2319450112	45	3943
2026-01-27 10:08:46.08	22.96	41.10	-36.8	-37.5	26.1	0.00e+00	0	43	0	2324692992	45	3853
2026-01-27 10:08:47.09	22.50	41.01	-36.9	-37.5	26.1	0.00e+00	0	43	0	2330984448	45	3862
2026-01-27 10:08:48.09	22.04	40.93	-36.8	-37.5	26.1	0.00e+00	0	43	0	2336227328	45	3827
2026-01-27 10:08:49.10	21.59	40.83	-37.0	-37.6	26.0	0.00e+00	0	43	0	2342518784	45	3913
2026-01-27 10:08:50.11	21.14	40.74	-37.0	-37.7	25.9	0.00e+00	0	43	0	2347761664	45	3926
2026-01-27 10:08:51.12	20.69	40.65	-37.0	-37.7	25.9	0.00e+00	0	43	0	2354053120	45	3927
2026-01-27 10:08:52.13	20.24	40.55	-37.0	-37.7	25.9	0.00e+00	0	43	0	2359296000	45	3924
2026-01-27 10:08:53.13	19.80	40.46	-37.0	-37.7	25.9	0.00e+00	0	43	0	2364538880	45	3940
2026-01-27 10:08:54.14	19.36	40.36	-36.9	-37.6	26.0	0.00e+00	0	43	0	2370830336	45	3907
2026-01-27 10:08:55.15	18.92	40.26	-37.0	-37.7	25.9	0.00e+00	0	43	0	2376073216	45	3920
2026-01-27 10:08:56.16	18.48	40.15	-36.8	-37.5	26.1	0.00e+00	0	43	0	2382364672	45	3838
2026-01-27 10:08:57.17	18.05	40.05	-36.9	-37.6	26.0	0.00e+00	0	43	0	2387607552	45	3881
2026-01-27 10:08:58.19	17.61	39.94	-36.9	-37.6	26.0	0.00e+00	0	43	0	2392850432	45	3902
2026-01-27 10:08:59.19	17.19	39.84	-37.0	-37.7	25.9	0.00e+00	0	43	0	2399141888	45	3922
2026-01-27 10:09:00.20	16.77	39.73	-36.9	-37.6	26.0	0.00e+00	0	43	0	2405433344	45	3875
2026-01-27 10:09:01.21	16.34	39.62	-37.0	-37.6	25.9	0.00e+00	0	43	0	2410676224	45	3913
2026-01-27 10:09:02.21	15.93	39.51	-37.0	-37.7	25.8	0.00e+00	0	43	0	2415919104	45	3953
2026-01-27 10:09:03.22	15.51	39.40	-36.9	-37.6	26.0	0.00e+00	0	43	0	2422210560	45	3887
2026-01-27 10:09:04.23	15.10	39.28	-36.9	-37.6	25.9	0.00e+00	0	43	0	2427453440	45	3909
2026-01-27 10:09:05.24	14.69	39.17	-37.1	-37.8	25.8	0.00e+00	0	43	0	2432696320	45	3971
2026-01-27 10:09:06.25	14.28	39.05	-37.2	-37.9	25.7	0.00e+00	0	43	0	2438987776	45	4036
2026-01-27 10:09:07.25	13.88	38.93	-37.3	-38.0	25.6	0.00e+00	0	43	0	2444230656	45	4087
2026-01-27 10:09:08.26	13.48	38.81	-37.3	-38.0	25.6	0.00e+00	0	43	0	2450522112	45	4082
2026-01-27 10:09:09.27	13.08	38.69	-37.3	-38.0	25.6	0.00e+00	0	43	0	2455764992	45	4092
2026-01-27 10:09:10.27	12.69	38.57	-37.2	-37.9	25.7	0.00e+00	0	43	0	2461007872	45	4029
2026-01-27 10:09:11.28	12.29	38.45	-37.2	-37.9	25.7	0.00e+00	0	43	0	2467299328	45	4016
2026-01-27 10:09:12.29	11.90	38.33	-37.2	-37.9	25.7	0.00e+00	0	43	0	2472542208	45	4030
2026-01-27 10:09:13.29	11.52	38.20	-37.1	-37.8	25.8	0.00e+00	0	43	0	2477785088	45	3999
2026-01-27 10:09:14.30	11.14	38.08	-37.0	-37.6	25.9	0.00e+00	0	43	0	2484076544	45	3913
2026-01-27 10:09:15.31	10.76	37.95	-37.0	-37.7	25.9	0.00e+00	0	43	0	2490368000	45	3926
2026-01-27 10:09:16.32	10.38	37.83	-37.1	-37.8	25.8	0.00e+00	0	43	0	2495610880	45	3998
2026-01-27 10:09:17.33	10.00	37.70	-37.1	-37.8	25.8	0.00e+00	0	43	0	2500853760	45	3987
2026-01-27 10:09:18.33	9.64	37.57	-37.2	-37.9	25.7	0.00e+00	0	43	0	2507145216	45	4048
2026-01-27 10:09:19.34	9.27	37.44	-37.3	-38.0	25.7	0.00e+00	0	43	0	2512388096	45	4055
2026-01-27 10:09:20.35	8.90	37.31	-37.2	-37.8	25.8	0.00e+00	0	43	0	2517630976	45	4004
2026-01-27 10:09:21.36	8.54	37.18	-37.2	-37.9	25.7	0.00e+00	0	43	0	2523922432	45	4047
2026-01-27 10:09:22.37	8.18	37.04	-37.3	-38.0	25.6	0.00e+00	0	43	0	2529165312	45	4067
2026-01-27 10:09:23.37	7.82	36.91	-37.3	-38.0	25.6	0.00e+00	0	43	0	2535456768	45	4094
2026-01-27 10:09:24.37	7.47	36.78	-37.2	-37.9	25.7	0.00e+00	0	43	0	2540699648	45	4016
2026-01-27 10:09:25.38	7.12	36.64	-37.1	-37.8	25.8	0.00e+00	0	43	0	2545942528	45	3970
2026-01-27 10:09:26.39	6.77	36.51	-37.2	-37.9	25.7	0.00e+00	0	43	0	2552233984	45	4008
2026-01-27 10:09:27.40	6.43	36.37	-37.3	-38.0	25.6	0.00e+00	0	43	0	2558525440	45	4082
2026-01-27 10:09:28.41	6.09	36.23	-37.3	-38.0	25.6	0.00e+00	0	43	0	2563768320	45	4071
2026-01-27 10:09:29.41	5.75	36.10	-37.2	-37.9	25.7	0.00e+00	0	43	0	2569011200	45	4039
2026-01-27 10:09:30.42	5.41	35.96	-37.0	-37.7	25.8	0.00e+00	0	43	0	2575302656	45	3945
2026-01-27 10:09:31.43	5.08	35.82	-37.0	-37.7	25.8	0.00e+00	0	43	0	2580545536	45	3950
2026-01-27 10:09:32.43	4.75	35.69	-36.8	-37.5	26.0	0.00e+00	0	43	0	2585788416	45	3854
2026-01-27 10:09:33.44	4.42	35.55	-36.6	-37.3	26.2	0.00e+00	0	43	0	2592079872	45	3748
2026-01-27 10:09:34.45	4.10	35.41	-36.6	-37.2	26.3	0.00e+00	0	43	0	2597322752	45	3734
2026-01-27 10:09:35.46	3.77	35.27	-36.5	-37.2	26.3	0.00e+00	0	43	0	2602565632	45	3722
2026-01-27 10:09:36.47	3.45	35.13	-36.4	-37.1	26.3	0.00e+00	0	43	0	2608857088	44	3899
2026-01-27 10:09:37.47	3.14	34.99	-36.5	-37.2	26.3	0.00e+00	0	43	0	2614099968	44	3936
2026-01-27 10:09:38.48	2.83	34.84	-36.6	-37.3	26.2	0.00e+00	0	43	0	2620391424	44	3982
2026-01-27 10:09:39.48	2.52	34.70	-36.7	-37.4	26.1	0.00e+00	0	43	0	2625634304	44	4024
2026-01-27 10:09:40.49	2.21	34.56	-36.8	-37.4	26.1	0.00e+00	0	43	0	2630877184	44	4044
2026-01-27 10:09:41.50	1.90	34.42	-36.8	-37.5	26.0	0.00e+00	0	43	0	2637168640	44	4079
2026-01-27 10:09:42.51	1.60	34.28	-36.9	-37.6	25.9	0.00e+00	0	43	0	2642411520	44	4142
2026-01-27 10:09:43.52	1.30	34.13	-37.1	-37.8	25.7	0.00e+00	0	43	0	2648702976	44	4220
2026-01-27 10:09:44.53	1.00	33.99	-37.1	-37.8	25.7	0.00e+00	0	43	0	2653945856	44	4242
2026-01-27 10:09:45.53	0.71	33.85	-37.1	-37.9	25.7	0.00e+00	0	43	0	2660237312	44	4243
2026-01-27 10:09:46.54	0.41	33.71	-36.9	-37.6	25.9	0.00e+00	0	43	0	2665480192	44	4144
2026-01-27 10:09:47.54	0.13	33.56	-37.0	-37.7	25.8	0.00e+00	0	43	0	2670723072	44	4167
2026-01-27 10:09:48.55	359.84	33.42	-36.9	-37.6	25.9	0.00e+00	0	43	0	2677014528	44	4134
2026-01-27 10:09:49.56	359.55	33.28	-36.8	-37.5	26.0	0.00e+00	0	43	0	2682257408	44	4064
2026-01-27 10:09:50.57	359.27	33.13	-36.9	-37.6	25.9	0.00e+00	0	43	0	2687500288	44	4116
2026-01-27 10:09:51.58	358.99	32.99	-36.9	-37.6	25.9	0.00e+00	0	43	0	2693791744	44	4140
2026-01-27 10:09:52.59	358.71	32.84	-37.0	-37.7	25.8	0.00e+00	0	43	0	2699034624	44	4179
2026-01-27 10:09:53.60	358.44	32.70	-37.0	-37.7	25.8	0.00e+00	0	43	0	2705326080	44	4183
2026-01-27 10:09:54.61	358.17	32.55	-37.1	-37.8	25.7	0.00e+00	0	43	0	2710568960	44	4217
2026-01-27 10:09:55.61	357.90	32.41	-37.2	-37.9	25.6	0.00e+00	0	43	0	2716860416	45	4032
2026-01-27 10:09:56.62	357.63	32.27	-37.1	-37.8	25.7	0.00e+00	0	43	0	2722103296	45	4000
2026-01-27 10:09:57.63	357.36	32.12	-36.9	-37.6	25.9	0.00e+00	0	43	0	2728394752	45	3889
2026-01-27 10:09:58.63	357.10	31.98	-36.9	-37.6	25.9	0.00e+00	0	43	0	2733637632	45	3886
2026-01-27 10:09:59.64	356.84	31.84	-37.1	-37.8	25.8	0.00e+00	0	43	0	2738880512	45	3968
2026-01-27 10:10:00.65	356.58	31.69	-37.2	-37.9	25.6	0.00e+00	0	43	0	2745171968	45	4046
2026-01-27 10:10:01.66	356.33	31.55	-37.2	-37.9	25.6	0.00e+00	0	43	0	2750414848	45	4034
2026-01-27 10:10:02.66	356.08	31.40	-37.2	-38.0	25.6	0.00e+00	0	43	0	2755657728	45	4054
2026-01-27 10:10:03.67	355.83	31.26	-37.1	-37.8	25.7	0.00e+00	0	43	0	2761949184	45	4004
2026-01-27 10:10:04.68	355.58	31.12	-37.1	-37.8	25.8	0.00e+00	0	43	0	2767192064	45	3968
2026-01-27 10:10:05.69	355.33	30.97	-37.1	-37.8	25.7	0.00e+00	0	43	0	2772434944	45	3989
2026-01-27 10:10:06.70	355.08	30.83	-37.2	-37.9	25.7	0.00e+00	0	43	0	2778726400	45	4008
2026-01-27 10:10:07.71	354.84	30.68	-37.2	-37.9	25.6	0.00e+00	0	43	0	2785017856	45	4020
2026-01-27 10:10:08.71	354.60	30.54	-37.3	-38.0	25.6	0.00e+00	0	43	0	2790260736	45	4067
2026-01-27 10:10:09.72	354.37	30.40	-37.4	-38.2	25.4	0.00e+00	0	43	0	2795503616	45	4149
2026-01-27 10:10:10.73	354.13	30.25	-37.5	-38.2	25.4	0.00e+00	0	43	0	2801795072	45	4162
2026-01-27 10:10:11.73	353.90	30.11	-37.6	-38.3	25.3	0.00e+00	0	43	0	2807037952	45	4226
2026-01-27 10:10:12.74	353.67	29.97	-37.6	-38.3	25.2	0.00e+00	0	43	0	2813329408	45	4242
2026-01-27 10:10:13.75	353.44	29.83	-37.6	-38.3	25.2	0.00e+00	0	43	0	2818572288	45	4233
2026-01-27 10:10:14.76	353.21	29.68	-37.6	-38.3	25.3	0.00e+00	0	43	0	2823815168	45	4216
2026-01-27 10:10:15.76	352.98	29.54	-37.6	-38.4	25.2	0.00e+00	0	43	0	2830106624	45	4246
2026-01-27 10:10:16.77	352.76	29.40	-37.7	-38.4	25.2	0.00e+00	0	43	0	2835349504	45	4252
2026-01-27 10:10:17.78	352.54	29.26	-37.4	-38.1	25.4	0.00e+00	0	43	0	2840592384	45	4112
2026-01-27 10:10:18.79	352.32	29.12	-37.3	-38.0	25.5	0.00e+00	0	43	0	2846883840	45	4093
2026-01-27 10:10:19.79	352.10	28.98	-37.4	-38.1	25.5	0.00e+00	0	43	0	2852126720	45	4101
2026-01-27 10:10:20.80	351.89	28.84	-37.4	-38.1	25.4	0.00e+00	0	43	0	2858418176	45	4136
2026-01-27 10:10:21.81	351.67	28.69	-37.6	-38.3	25.3	0.00e+00	0	43	0	2863661056	45	4198
2026-01-27 10:10:22.82	351.46	28.55	-37.5	-38.2	25.3	0.00e+00	0	43	0	2869952512	45	4169
2026-01-27 10:10:23.82	351.25	28.41	-37.4	-38.1	25.4	0.00e+00	0	43	0	2875195392	45	4145
2026-01-27 10:10:24.83	351.04	28.27	-37.6	-38.3	25.3	0.00e+00	0	43	0	2880438272	45	4207
2026-01-27 10:10:25.84	350.84	28.13	-37.7	-38.4	25.2	0.00e+00	0	43	0	2886729728	45	4260
2026-01-27 10:10:26.85	350.63	28.00	-37.8	-38.5	25.1	0.00e+00	0	43	0	2891972608	46	4077
2026-01-27 10:10:27.85	350.43	27.86	-37.7	-38.4	25.2	0.00e+00	0	43	0	2898264064	46	4041
2026-01-27 10:10:28.86	350.23	27.72	-37.7	-38.4	25.2	0.00e+00	0	43	0	2903506944	46	4045
2026-01-27 10:10:29.87	350.03	27.58	-37.7	-38.4	25.1	0.00e+00	0	43	0	2908749824	46	4040
2026-01-27 10:10:30.88	349.83	27.44	-37.6	-38.3	25.2	0.00e+00	0	43	0	2915041280	46	4000
2026-01-27 10:10:31.88	349.64	27.30	-37.7	-38.4	25.2	0.00e+00	0	43	0	2920284160	46	4010
2026-01-27 10:10:32.89	349.45	27.17	-37.8	-38.6	25.0	0.00e+00	0	43	0	2925527040	46	4099
2026-01-27 10:10:33.90	349.25	27.03	-37.8	-38.6	25.1	0.00e+00	0	43	0	2931818496	46	4103
2026-01-27 10:10:34.91	349.06	26.89	-37.9	-38.7	24.9	0.00e+00	0	43	0	2938109952	46	4150
2026-01-27 10:10:35.91	348.88	26.76	-38.0	-38.7	24.9	0.00e+00	0	43	0	2943352832	46	4158
2026-01-27 10:10:36.92	348.69	26.62	-38.0	-38.7	24.9	0.00e+00	0	43	0	2948595712	46	4184
2026-01-27 10:10:37.92	348.50	26.49	-38.0	-38.7	24.9	0.00e+00	0	43	0	2954887168	46	4184
2026-01-27 10:10:38.93	348.32	26.35	-38.0	-38.7	24.9	0.00e+00	0	43	0	2960130048	46	4170
2026-01-27 10:10:39.93	348.14	26.22	-38.0	-38.7	24.9	0.00e+00	0	43	0	2965372928	46	4161
2026-01-27 10:10:40.94	347.96	26.08	-37.9	-38.6	25.0	0.00e+00	0	43	0	2971664384	46	4122
2026-01-27 10:10:41.95	347.78	25.95	-37.9	-38.6	24.9	0.00e+00	0	43	0	2976907264	46	4141
2026-01-27 10:10:42.96	347.60	25.81	-37.8	-38.6	25.0	0.00e+00	0	43	0	2983198720	46	4100
2026-01-27 10:10:43.96	347.42	25.68	-37.8	-38.5	25.0	0.00e+00	0	43	0	2988441600	46	4092
2026-01-27 10:10:44.97	347.25	25.55	-37.9	-38.6	25.0	0.00e+00	0	43	0	2993684480	46	4120
2026-01-27 10:10:45.98	347.08	25.41	-37.8	-38.6	25.0	0.00e+00	0	43	0	2999975936	46	4105
2026-01-27 10:10:46.98	346.91	25.28	-37.9	-38.6	25.0	0.00e+00	0	43	0	3005218816	46	4115
2026-01-27 10:10:47.99	346.74	25.15	-37.8	-38.5	25.1	0.00e+00	0	43	0	3010461696	46	4083
2026-01-27 10:10:49.00	346.57	25.02	-37.9	-38.6	25.0	0.00e+00	0	43	0	3016753152	46	4128
2026-01-27 10:10:50.01	346.40	24.88	-37.9	-38.6	25.0	0.00e+00	0	43	0	3023044608	46	4111
2026-01-27 10:10:51.02	346.23	24.75	-37.9	-38.6	24.9	0.00e+00	0	43	0	3028287488	46	4143
2026-01-27 10:10:52.02	346.07	24.62	-37.9	-38.6	25.0	0.00e+00	0	43	0	3033530368	46	4126
2026-01-27 10:10:53.03	345.91	24.49	-37.9	-38.6	24.9	0.00e+00	0	43	0	3039821824	46	4127
2026-01-27 10:10:54.04	345.74	24.36	-37.7	-38.4	25.1	0.00e+00	0	43	0	3045064704	46	4034
2026-01-27 10:10:55.05	345.58	24.23	-37.8	-38.5	25.0	0.00e+00	0	43	0	3050307584	46	4070
2026-01-27 10:10:56.05	345.42	24.11	-37.8	-38.5	25.0	0.00e+00	0	43	0	3056599040	46	4091
2026-01-27 10:10:57.06	345.27	23.98	-37.8	-38.5	25.0	0.00e+00	0	43	0	3061841920	46	4060
2026-01-27 10:10:58.06	345.11	23.85	-37.7	-38.4	25.1	0.00e+00	0	43	0	3068133376	46	4024
2026-01-27 10:10:59.07	344.96	23.72	-37.7	-38.4	25.1	0.00e+00	0	43	0	3073376256	46	4018
2026-01-27 10:11:00.08	344.80	23.59	-37.7	-38.5	25.1	0.00e+00	0	43	0	3078619136	46	4054
2026-01-27 10:11:01.09	344.65	23.47	-37.9	-38.6	24.9	0.00e+00	0	43	0	3084910592	46	4112
2026-01-27 10:11:02.09	344.50	23.34	-37.9	-38.6	24.9	0.00e+00	0	43	0	3090153472	46	4123
2026-01-27 10:11:03.10	344.35	23.21	-38.0	-38.7	24.8	0.00e+00	0	43	0	3096444928	46	4177
2026-01-27 10:11:04.11	344.20	23.09	-38.1	-38.8	24.8	0.00e+00	0	43	0	3101687808	46	4204
2026-01-27 10:11:05.12	344.05	22.96	-38.1	-38.9	24.7	0.00e+00	0	43	0	3107979264	46	4247
2026-01-27 10:11:06.12	343.91	22.84	-38.2	-38.9	24.6	0.00e+00	0	43	0	3113222144	47	4028
2026-01-27 10:11:07.13	343.76	22.71	-38.1	-38.8	24.7	0.00e+00	0	43	0	3118465024	47	4003
2026-01-27 10:11:08.13	343.62	22.59	-38.2	-38.9	24.6	0.00e+00	0	43	0	3124756480	47	4035
2026-01-27 10:11:09.14	343.47	22.47	-38.2	-38.9	24.6	0.00e+00	0	43	0	3129999360	47	4050
2026-01-27 10:11:10.15	343.33	22.34	-38.2	-38.9	24.6	0.00e+00	0	43	0	3135242240	47	4042
2026-01-27 10:11:11.16	343.19	22.22	-38.4	-39.1	24.5	0.00e+00	0	43	0	3141533696	47	4128
2026-01-27 10:11:12.17	343.05	22.10	-38.2	-39.0	24.6	0.00e+00	0	43	0	3146776576	47	4054
2026-01-27 10:11:13.18	342.91	21.97	-38.3	-39.1	24.5	0.00e+00	0	43	0	3153068032	47	4101
2026-01-27 10:11:14.19	342.78	21.85	-38.3	-39.0	24.5	0.00e+00	0	43	0	3158310912	47	4089
2026-01-27 10:11:15.20	342.64	21.73	-38.3	-39.0	24.5	0.00e+00	0	43	0	3164602368	47	4078
2026-01-27 10:11:16.21	342.50	21.61	-38.3	-39.1	24.5	0.00e+00	0	43	0	3169845248	47	4101
2026-01-27 10:11:17.22	342.37	21.49	-38.3	-39.0	24.5	0.00e+00	0	43	0	3176136704	47	4090
2026-01-27 10:11:18.23	342.24	21.37	-38.3	-39.0	24.5	0.00e+00	0	43	0	3181379584	47	4080
2026-01-27 10:11:19.24	342.10	21.25	-38.3	-39.0	24.5	0.00e+00	0	43	0	3186622464	47	4076
2026-01-27 10:11:20.25	341.97	21.13	-38.1	-38.8	24.7	0.00e+00	0	43	0	3192913920	47	3995
2026-01-27 10:11:21.26	341.84	21.01	-38.2	-38.9	24.6	0.00e+00	0	43	0	3198156800	47	4045
2026-01-27 10:11:22.27	341.71	20.89	-38.3	-39.0	24.5	0.00e+00	0	43	0	3203399680	47	4078
2026-01-27 10:11:23.28	341.59	20.77	-38.3	-39.1	24.5	0.00e+00	0	43	0	3209691136	47	4108
2026-01-27 10:11:24.28	341.46	20.65	-38.4	-39.2	24.3	0.00e+00	0	43	0	3214934016	47	4165
2026-01-27 10:11:25.29	341.33	20.54	-38.5	-39.3	24.3	0.00e+00	0	43	0	3220176896	47	4214
2026-01-27 10:11:26.30	341.21	20.42	-38.6	-39.4	24.1	0.00e+00	0	43	0	3226468352	47	4272
2026-01-27 10:11:27.31	341.09	20.30	-38.7	-39.5	24.1	0.00e+00	0	43	0	3232759808	47	4294
2026-01-27 10:11:28.32	340.96	20.19	-39.0	-39.8	24.3	0.00e+00	0	43	0	3238002688	48	4213
2026-01-27 10:11:29.33	340.84	20.07	-39.1	-39.9	24.2	0.00e+00	0	43	0	3243245568	48	4266
2026-01-27 10:11:30.33	340.72	19.95	-39.2	-39.9	24.2	0.00e+00	0	43	0	3249537024	49	4048
2026-01-27 10:11:31.34	340.60	19.84	-39.3	-40.0	24.1	0.00e+00	0	43	0	3254779904	49	4087
2026-01-27 10:11:32.35	340.48	19.72	-39.4	-40.1	24.0	0.00e+00	0	43	0	3261071360	49	4130
2026-01-27 10:11:33.36	340.36	19.61	-39.3	-40.0	24.0	0.00e+00	0	43	0	3266314240	49	4092
2026-01-27 10:11:34.37	340.24	19.50	-39.2	-40.0	24.1	0.00e+00	0	43	0	3271557120	49	4068
2026-01-27 10:11:35.37	340.13	19.38	-39.3	-40.0	24.0	0.00e+00	0	43	0	3277848576	49	4096
2026-01-27 10:11:36.38	340.01	19.27	-39.3	-40.1	24.0	0.00e+00	0	43	0	3283091456	49	4104
2026-01-27 10:11:37.39	339.90	19.16	-39.3	-40.1	24.0	0.00e+00	0	43	0	3288334336	49	4114
2026-01-27 10:11:38.39	339.79	19.05	-39.5	-40.2	23.8	0.00e+00	0	43	0	3294625792	49	4183
2026-01-27 10:11:39.40	339.67	18.93	-39.5	-40.2	23.8	0.00e+00	0	43	0	3300917248	49	4188
2026-01-27 10:11:40.41	339.56	18.82	-39.6	-40.3	23.8	0.00e+00	0	43	0	3306160128	49	4229
2026-01-27 10:11:41.42	339.45	18.71	-39.7	-40.4	23.7	0.00e+00	0	43	0	3311403008	50	4050
2026-01-27 10:11:42.43	339.34	18.60	-39.6	-40.3	23.7	0.00e+00	0	43	0	3317694464	50	3997
2026-01-27 10:11:43.44	339.23	18.49	-39.6	-40.3	23.7	0.00e+00	0	43	0	3322937344	50	3989
2026-01-27 10:11:44.44	339.12	18.38	-39.6	-40.3	23.7	0.00e+00	0	43	0	3328180224	50	4000
2026-01-27 10:11:45.45	339.01	18.27	-39.5	-40.3	23.8	0.00e+00	0	43	0	3334471680	50	3982
2026-01-27 10:11:46.47	338.90	18.16	-39.7	-40.4	23.7	0.00e+00	0	43	0	3339714560	50	4036
2026-01-27 10:11:47.48	338.80	18.05	-39.6	-40.4	23.7	0.00e+00	0	43	0	3346006016	50	4011
2026-01-27 10:11:48.48	338.69	17.94	-39.6	-40.4	23.7	0.00e+00	0	43	0	3351248896	50	4023
2026-01-27 10:11:49.49	338.59	17.84	-39.6	-40.3	23.7	0.00e+00	0	43	0	3356491776	50	3989
2026-01-27 10:11:50.50	338.48	17.73	-39.6	-40.3	23.7	0.00e+00	0	43	0	3362783232	50	3995
2026-01-27 10:11:51.51	338.38	17.62	-39.5	-40.3	23.7	0.00e+00	0	43	0	3369074688	50	3977
2026-01-27 10:11:52.52	338.28	17.51	-39.6	-40.4	23.7	0.00e+00	0	43	0	3374317568	50	4005
2026-01-27 10:11:53.53	338.18	17.41	-39.5	-40.2	23.8	0.00e+00	0	43	0	3379560448	50	3950
2026-01-27 10:11:54.53	338.08	17.30	-39.6	-40.3	23.7	0.00e+00	0	43	0	3385851904	50	3986
2026-01-27 10:11:55.54	337.98	17.19	-39.6	-40.4	23.7	0.00e+00	0	43	0	3391094784	50	4021
2026-01-27 10:11:56.55	337.88	17.09	-39.7	-40.5	23.6	0.00e+00	0	43	0	3396337664	50	4061
2026-01-27 10:11:57.56	337.78	16.98	-39.8	-40.6	23.5	0.00e+00	0	43	0	3402629120	50	4101
2026-01-27 10:11:58.57	337.68	16.88	-39.9	-40.6	23.4	0.00e+00	0	43	0	3407872000	50	4135
2026-01-27 10:11:59.58	337.58	16.77	-39.9	-40.7	23.3	0.00e+00	0	43	0	3413114880	50	4174
2026-01-27 10:12:00.59	337.48	16.67	-39.9	-40.7	23.3	0.00e+00	0	43	0	3419406336	50	4175
2026-01-27 10:12:01.59	337.39	16.57	-40.1	-40.9	23.1	0.00e+00	0	43	0	3424649216	50	4278
2026-01-27 10:12:02.60	337.29	16.46	-40.1	-40.9	23.2	0.00e+00	0	43	0	3430940672	50	4257
2026-01-27 10:12:03.61	337.20	16.36	-39.9	-40.7	23.3	0.00e+00	0	43	0	3436183552	50	4159
2026-01-27 10:12:04.62	337.11	16.26	-40.0	-40.8	23.3	0.00e+00	0	43	0	3442475008	50	4215
2026-01-27 10:12:05.62	337.01	16.16	-40.1	-40.8	23.2	0.00e+00	0	43	0	3447717888	50	4228
2026-01-27 10:12:06.63	336.92	16.05	-40.0	-40.8	23.2	0.00e+00	0	43	0	3454009344	50	4224
2026-01-27 10:12:07.64	336.83	15.95	-40.1	-40.9	23.1	0.00e+00	0	43	0	3459252224	50	4260
2026-01-27 10:12:08.65	336.74	15.85	-40.0	-40.8	23.2	0.00e+00	0	43	0	3464495104	50	4224
2026-01-27 10:12:09.66	336.65	15.75	-40.1	-40.8	23.2	0.00e+00	0	43	0	3470786560	50	4240
2026-01-27 10:12:10.67	336.56	15.65	-40.2	-41.0	23.1	0.00e+00	0	43	0	3476029440	50	4299
2026-01-27 10:12:11.68	336.47	15.55	-40.2	-41.0	23.0	0.00e+00	0	43	0	3481272320	51	4096
2026-01-27 10:12:12.69	336.38	15.45	-40.2	-41.0	23.0	0.00e+00	0	43	0	3487563776	51	4083
2026-01-27 10:12:13.69	336.29	15.35	-40.3	-41.1	23.0	0.00e+00	0	43	0	3492806656	51	4107
2026-01-27 10:12:14.71	336.20	15.25	-40.5	-41.3	22.8	0.00e+00	0	43	0	3499098112	51	4206
2026-01-27 10:12:15.71	336.11	15.15	-40.4	-41.1	22.8	0.00e+00	0	43	0	3504340992	51	4145
2026-01-27 10:12:16.72	336.03	15.05	-40.5	-41.3	22.8	0.00e+00	0	43	0	3510632448	51	4199
2026-01-27 10:12:17.73	335.94	14.95	-40.4	-41.2	22.8	0.00e+00	0	43	0	3515875328	51	4167
2026-01-27 10:12:18.74	335.86	14.86	-40.5	-41.3	22.8	0.00e+00	0	43	0	3521118208	51	4194
2026-01-27 10:12:19.74	335.77	14.76	-40.3	-41.1	22.9	0.00e+00	0	43	0	3527409664	51	4117
2026-01-27 10:12:20.75	335.69	14.66	-40.4	-41.2	22.8	0.00e+00	0	43	0	3532652544	51	4180
2026-01-27 10:12:21.76	335.60	14.56	-40.4	-41.1	22.8	0.00e+00	0	43	0	3538944000	51	4142
2026-01-27 10:12:22.76	335.52	14.47	-40.4	-41.2	22.8	0.00e+00	0	43	0	3544186880	51	4147
2026-01-27 10:12:23.77	335.44	14.37	-40.5	-41.3	22.7	0.00e+00	0	43	0	3549429760	51	4200
2026-01-27 10:12:24.78	335.36	14.28	-40.5	-41.2	22.7	0.00e+00	0	43	0	3555721216	51	4190
2026-01-27 10:12:25.79	335.28	14.18	-40.4	-41.1	22.9	0.00e+00	0	43	0	3560964096	51	4138
2026-01-27 10:12:26.80	335.20	14.08	-40.5	-41.3	22.7	0.00e+00	0	43	0	3567255552	51	4207
2026-01-27 10:12:27.80	335.12	13.99	-40.6	-41.4	22.6	0.00e+00	0	43	0	3572498432	51	4252
2026-01-27 10:12:28.81	335.04	13.90	-40.5	-41.3	22.7	0.00e+00	0	43	0	3578789888	51	4207
2026-01-27 10:12:29.82	334.96	13.80	-40.6	-41.3	22.6	0.00e+00	0	43	0	3584032768	51	4240
2026-01-27 10:12:30.83	334.88	13.71	-40.5	-41.3	22.6	0.00e+00	0	43	0	3589275648	51	4234
2026-01-27 10:12:31.84	334.80	13.61	-40.6	-41.4	22.5	0.00e+00	0	43	0	3595567104	51	4284
2026-01-27 10:12:32.85	334.72	13.52	-40.7	-41.5	22.4	0.00e+00	0	43	0	3600809984	51	4327
2026-01-27 10:12:33.87	334.64	13.42	-40.7	-41.5	22.5	0.00e+00	0	43	0	3606052864	51	4310
2026-01-27 10:12:34.87	334.57	13.33	-40.7	-41.5	22.4	0.00e+00	0	43	0	3612344320	52	4060
2026-01-27 10:12:35.88	334.49	13.24	-40.6	-41.4	22.4	0.00e+00	0	43	0	3617587200	52	4037
2026-01-27 10:12:36.89	334.42	13.15	-40.5	-41.3	22.5	0.00e+00	0	43	0	3623878656	52	4001
2026-01-27 10:12:37.90	334.34	13.06	-40.6	-41.4	22.5	4.50e-06	0	43	0	3629121536	52	4011
2026-01-27 10:12:38.91	334.27	12.96	-40.7	-41.5	22.4	0.00e+00	0	43	0	3635412992	52	4078
2026-01-27 10:12:39.91	334.19	12.87	-40.6	-41.4	22.5	0.00e+00	0	43	0	3640655872	52	4018
2026-01-27 10:12:40.92	334.12	12.78	-40.5	-41.3	22.6	0.00e+00	0	43	0	3645898752	52	3980
2026-01-27 10:12:41.93	334.05	12.69	-40.4	-41.2	22.6	0.00e+00	0	43	0	3652190208	52	3955
2026-01-27 10:12:42.94	333.97	12.60	-40.6	-41.4	22.5	0.00e+00	0	43	0	3657433088	52	4025
