passes_logs/2026/01/27/R3.2S_Murmansk/R3.2S_Murmansk__20260127_042657_NOAA_20_JPSS-1_rec.log

#Pass ID: 20260127_042657_NOAA 20 (JPSS-1)
#Satellite: NOAA 20 (JPSS-1)
#Configuration: NOAA 20
#almurnet v.1.7.20251203
#Start time: 2026-01-27 04:26:57

#Version: 2.2.20231116
#Station: R3.2S_Murmansk
#Location: 33.079688 lon 68.888172 lat
#TLE: 1 43013U 17073A   26026.46665230  .00000148  00000+0  91302-4 0  9998
#TLE: 2 43013  98.7646 327.2856 0001008  22.9532 337.1688 14.19540616424360

#Time	Az	El	Level	Level2	SNR	BER	BlckErr	Temp	State	Recorded	gain1	gain2
2026-01-27 04:26:57.27	52.34	1.99	-54.0	-69.0	3.8	1.49e+00	0	41	0	0	79	20318
2026-01-27 04:26:58.27	52.28	2.05	-53.9	-69.0	3.8	1.49e+00	0	41	104	0	78	21509
2026-01-27 04:26:59.28	52.22	2.11	-53.9	-69.0	3.8	1.49e+00	0	41	104	0	78	21515
2026-01-27 04:27:00.29	52.16	2.16	-53.9	-68.9	3.8	1.49e+00	0	41	104	0	78	21430
2026-01-27 04:27:01.29	52.09	2.22	-53.9	-68.9	3.8	1.49e+00	0	41	104	0	78	21395
2026-01-27 04:27:02.31	52.03	2.28	-53.9	-68.9	3.8	1.49e+00	0	41	104	0	78	21376
2026-01-27 04:27:03.31	51.97	2.34	-53.9	-68.9	3.8	1.49e+00	0	41	104	0	78	21446
2026-01-27 04:27:04.32	51.90	2.40	-53.9	-68.9	3.8	1.49e+00	0	41	104	0	78	21403
2026-01-27 04:27:05.32	51.84	2.45	-54.0	-69.0	3.8	1.49e+00	0	41	104	0	78	21513
2026-01-27 04:27:06.33	51.77	2.51	-54.1	-69.1	3.8	1.49e+00	0	41	104	0	78	21820
2026-01-27 04:27:07.34	51.71	2.57	-54.1	-69.1	3.8	1.49e+00	0	41	104	0	78	21910
2026-01-27 04:27:08.35	51.64	2.63	-54.1	-69.1	3.8	1.49e+00	0	41	104	0	78	21912
2026-01-27 04:27:09.35	51.58	2.69	-54.1	-69.1	3.8	1.49e+00	0	41	104	0	78	21886
2026-01-27 04:27:10.36	51.51	2.74	-54.1	-69.1	3.8	1.49e+00	0	41	104	0	78	21893
2026-01-27 04:27:11.37	51.45	2.80	-54.1	-69.1	3.8	1.49e+00	0	41	104	0	78	21827
2026-01-27 04:27:12.38	51.38	2.86	-54.1	-69.1	3.8	1.49e+00	0	41	104	0	78	21807
2026-01-27 04:27:13.38	51.31	2.92	-54.1	-69.1	3.8	1.49e+00	0	41	104	0	78	21785
2026-01-27 04:27:14.39	51.25	2.98	-54.0	-69.0	3.8	1.49e+00	0	41	104	0	78	21626
2026-01-27 04:27:15.39	51.18	3.04	-53.9	-68.9	3.8	1.49e+00	0	41	104	0	78	21428
2026-01-27 04:27:16.40	51.11	3.10	-53.9	-68.8	3.8	1.49e+00	0	41	104	0	78	21244
2026-01-27 04:27:17.41	51.05	3.16	-53.9	-68.9	3.8	1.49e+00	0	41	104	0	78	21273
2026-01-27 04:27:18.42	50.98	3.22	-53.9	-68.8	3.8	1.49e+00	0	41	104	0	78	21256
2026-01-27 04:27:19.43	50.91	3.27	-53.8	-68.8	3.8	1.49e+00	0	42	104	0	78	21052
2026-01-27 04:27:20.43	50.84	3.33	-53.7	-68.7	3.8	1.49e+00	0	42	104	0	78	20922
2026-01-27 04:27:21.44	50.77	3.39	-53.7	-68.6	3.8	1.49e+00	0	42	104	0	78	20744
2026-01-27 04:27:22.45	50.70	3.45	-53.6	-68.5	3.8	1.49e+00	0	41	104	0	78	20499
2026-01-27 04:27:23.46	50.63	3.51	-53.5	-68.4	3.8	1.49e+00	0	42	104	0	78	20243
2026-01-27 04:27:24.47	50.56	3.57	-53.3	-68.2	3.8	1.49e+00	0	42	104	0	78	19812
2026-01-27 04:27:25.47	50.50	3.63	-53.1	-68.0	3.8	1.49e+00	0	42	104	0	78	19273
2026-01-27 04:27:26.48	50.42	3.69	-52.8	-67.8	3.8	1.49e+00	0	42	104	0	77	19908
2026-01-27 04:27:27.49	50.35	3.75	-52.4	-67.2	3.8	1.49e+00	0	42	104	0	76	19767
2026-01-27 04:27:28.50	50.28	3.81	-52.1	-67.0	3.8	1.49e+00	0	42	104	0	76	19371
2026-01-27 04:27:29.51	50.21	3.87	-52.1	-66.9	3.8	1.49e+00	0	42	104	0	76	19053
2026-01-27 04:27:30.51	50.14	3.93	-52.1	-66.6	3.8	1.49e+00	0	42	104	0	76	18481
2026-01-27 04:27:31.52	50.07	3.99	-52.0	-66.1	3.8	1.49e+00	0	42	104	0	76	17294
2026-01-27 04:27:32.53	50.00	4.05	-52.0	-65.5	3.8	1.49e+00	0	42	104	0	76	16290
2026-01-27 04:27:33.53	49.93	4.11	-52.0	-64.9	3.9	1.49e+00	0	42	104	0	76	15115
2026-01-27 04:27:34.54	49.85	4.17	-51.9	-64.3	4.0	1.46e+00	0	42	0	0	75	14916
2026-01-27 04:27:35.55	49.78	4.23	-51.9	-64.3	4.0	1.48e+00	0	42	104	0	75	14925
2026-01-27 04:27:36.56	49.71	4.30	-51.9	-64.3	3.9	1.46e+00	0	42	104	0	75	15002
2026-01-27 04:27:37.57	49.63	4.36	-51.9	-64.7	3.8	1.46e+00	0	42	104	0	75	15599
2026-01-27 04:27:38.57	49.56	4.42	-51.9	-64.2	4.0	1.47e+00	0	42	104	0	75	14804
2026-01-27 04:27:39.58	49.48	4.48	-51.9	-63.7	4.1	1.46e+00	0	42	0	0	75	13901
2026-01-27 04:27:40.59	49.41	4.54	-51.8	-62.6	4.5	1.35e+00	38	42	0	0	75	12257
2026-01-27 04:27:41.60	49.33	4.60	-51.6	-61.0	5.2	6.75e-01	0	42	0	2097152	75	10293
2026-01-27 04:27:42.61	49.26	4.66	-51.4	-59.2	6.5	3.43e-01	0	42	0	4194304	74	8838
2026-01-27 04:27:43.61	49.18	4.72	-51.1	-58.1	7.6	1.56e-01	0	42	0	5242880	74	7793
2026-01-27 04:27:44.62	49.11	4.78	-51.0	-57.6	8.1	8.94e-02	0	42	0	7340032	74	7297
2026-01-27 04:27:45.63	49.03	4.85	-50.8	-56.9	8.8	3.51e-02	0	42	0	9437184	73	7162
2026-01-27 04:27:46.64	48.95	4.91	-50.8	-56.7	9.0	2.35e-02	0	42	0	11534336	73	7015
2026-01-27 04:27:47.65	48.88	4.97	-50.8	-56.9	8.9	2.67e-02	0	42	0	13631488	73	7124
2026-01-27 04:27:48.65	48.80	5.03	-50.9	-57.4	8.3	3.76e-02	0	42	0	14680064	73	7556
2026-01-27 04:27:49.66	48.72	5.09	-49.0	-52.0	13.9	4.25e-02	0	42	0	16777216	70	4858
2026-01-27 04:27:50.66	48.65	5.15	-48.1	-50.5	15.6	0.00e+00	0	42	0	18874368	68	4594
2026-01-27 04:27:51.67	48.57	5.22	-51.7	-61.6	5.4	0.00e+00	0	42	0	20971520	73	12274
2026-01-27 04:27:52.68	48.49	5.28	-49.3	-52.6	13.1	1.45e+00	0	42	104	20971520	70	5174
2026-01-27 04:27:53.69	48.41	5.34	-48.9	-52.0	14.3	2.20e-06	0	42	0	22020096	68	5461
2026-01-27 04:27:54.70	48.33	5.40	-48.9	-51.9	14.1	2.83e-04	0	42	0	24117248	69	5092
2026-01-27 04:27:55.70	48.25	5.47	-48.5	-51.3	14.9	0.00e+00	0	42	0	26214400	69	4710
2026-01-27 04:27:56.71	48.17	5.53	-48.2	-50.8	15.4	0.00e+00	0	42	0	27262976	68	4736
2026-01-27 04:27:57.71	48.09	5.59	-48.4	-51.0	15.2	0.00e+00	0	42	0	29360128	68	4862
2026-01-27 04:27:58.72	48.01	5.65	-48.1	-50.5	15.7	0.00e+00	0	42	0	31457280	68	4593
2026-01-27 04:27:59.72	47.93	5.72	-48.2	-50.8	15.5	0.00e+00	0	42	0	33554432	68	4706
2026-01-27 04:28:00.73	47.85	5.78	-47.9	-50.2	16.0	0.00e+00	0	42	0	35651584	67	4702
2026-01-27 04:28:01.74	47.77	5.84	-48.0	-50.5	15.7	0.00e+00	0	42	0	36700160	67	4838
2026-01-27 04:28:02.75	47.68	5.91	-48.0	-50.5	15.7	0.00e+00	0	42	0	38797312	67	4855
2026-01-27 04:28:03.76	47.60	5.97	-48.3	-51.0	15.3	0.00e+00	0	42	0	40894464	67	5104
2026-01-27 04:28:04.77	47.52	6.03	-48.0	-50.4	15.8	0.00e+00	0	42	0	42991616	67	4813
2026-01-27 04:28:05.77	47.43	6.10	-48.1	-50.6	15.7	0.00e+00	0	42	0	44040192	67	4894
2026-01-27 04:28:06.78	47.35	6.16	-48.1	-50.6	15.7	0.00e+00	0	42	0	46137344	67	4911
2026-01-27 04:28:07.79	47.27	6.22	-48.0	-50.4	15.8	0.00e+00	0	42	0	48234496	67	4807
2026-01-27 04:28:08.80	47.18	6.29	-48.1	-50.6	15.7	0.00e+00	0	42	0	50331648	67	4886
2026-01-27 04:28:09.81	47.10	6.35	-47.9	-50.2	16.1	7.00e-07	0	42	0	52428800	67	4697
2026-01-27 04:28:10.81	47.01	6.42	-48.0	-50.4	15.9	0.00e+00	0	42	0	54525952	67	4798
2026-01-27 04:28:11.82	46.93	6.48	-47.9	-50.3	16.1	0.00e+00	0	42	0	55574528	67	4710
2026-01-27 04:28:12.83	46.84	6.54	-47.9	-50.2	16.1	0.00e+00	0	42	0	57671680	67	4676
2026-01-27 04:28:13.84	46.75	6.61	-47.8	-50.2	16.2	0.00e+00	0	42	0	59768832	67	4656
2026-01-27 04:28:14.84	46.67	6.67	-47.8	-50.1	16.2	0.00e+00	0	43	0	61865984	67	4639
2026-01-27 04:28:15.85	46.58	6.74	-47.7	-50.0	16.3	0.00e+00	0	42	0	63963136	67	4566
2026-01-27 04:28:16.86	46.49	6.80	-47.9	-50.2	16.1	0.00e+00	0	42	0	65011712	67	4682
2026-01-27 04:28:17.87	46.40	6.87	-47.8	-50.0	16.3	0.00e+00	0	42	0	67108864	67	4581
2026-01-27 04:28:18.87	46.31	6.93	-47.6	-49.8	16.5	0.00e+00	0	43	0	69206016	67	4490
2026-01-27 04:28:19.88	46.23	7.00	-47.9	-50.2	16.2	0.00e+00	0	42	0	71303168	67	4668
2026-01-27 04:28:20.89	46.14	7.06	-47.8	-50.0	16.3	0.00e+00	0	43	0	73400320	67	4598
2026-01-27 04:28:21.89	46.05	7.12	-47.7	-49.9	16.4	0.00e+00	0	43	0	74448896	67	4520
2026-01-27 04:28:22.89	45.96	7.19	-47.6	-49.8	16.6	0.00e+00	0	42	0	76546048	67	4461
2026-01-27 04:28:23.90	45.87	7.25	-47.8	-50.0	16.3	0.00e+00	0	43	0	78643200	67	4593
2026-01-27 04:28:24.91	45.78	7.32	-47.7	-49.9	16.5	0.00e+00	0	42	0	80740352	66	4760
2026-01-27 04:28:25.91	45.69	7.38	-47.8	-50.1	16.2	0.00e+00	0	42	0	82837504	66	4890
2026-01-27 04:28:26.92	45.59	7.45	-47.7	-49.9	16.4	0.00e+00	0	42	0	83886080	66	4783
2026-01-27 04:28:27.93	45.50	7.52	-47.7	-49.9	16.4	0.00e+00	0	43	0	85983232	66	4797
2026-01-27 04:28:28.94	45.41	7.58	-47.6	-49.7	16.6	0.00e+00	0	43	0	88080384	66	4697
2026-01-27 04:28:29.94	45.32	7.65	-47.8	-50.0	16.4	0.00e+00	0	42	0	90177536	66	4854
2026-01-27 04:28:30.95	45.22	7.71	-47.8	-50.0	16.4	0.00e+00	0	43	0	92274688	66	4866
2026-01-27 04:28:31.96	45.13	7.78	-47.8	-50.0	16.5	0.00e+00	0	43	0	93323264	66	4846
2026-01-27 04:28:32.97	45.03	7.85	-47.8	-50.0	16.4	0.00e+00	0	42	0	95420416	66	4842
2026-01-27 04:28:33.97	44.94	7.91	-47.7	-49.9	16.6	0.00e+00	0	42	0	97517568	66	4773
2026-01-27 04:28:34.97	44.84	7.98	-47.7	-49.9	16.5	0.00e+00	0	42	0	99614720	66	4811
2026-01-27 04:28:35.98	44.75	8.04	-47.7	-49.8	16.6	0.00e+00	0	43	0	101711872	66	4758
2026-01-27 04:28:36.99	44.65	8.11	-47.6	-49.8	16.7	0.00e+00	0	42	0	102760448	66	4726
2026-01-27 04:28:38.00	44.55	8.18	-47.8	-50.0	16.4	0.00e+00	0	43	0	104857600	66	4854
2026-01-27 04:28:39.01	44.46	8.24	-47.7	-49.9	16.6	0.00e+00	0	42	0	106954752	66	4780
2026-01-27 04:28:40.02	44.36	8.31	-47.8	-50.0	16.5	0.00e+00	0	43	0	109051904	66	4836
2026-01-27 04:28:41.01	44.26	8.38	-47.7	-49.9	16.6	0.00e+00	0	43	0	111149056	66	4776
2026-01-27 04:28:42.02	44.16	8.44	-47.8	-50.0	16.5	0.00e+00	0	43	0	112197632	66	4823
2026-01-27 04:28:43.03	44.06	8.51	-47.7	-49.9	16.6	0.00e+00	0	42	0	114294784	66	4771
2026-01-27 04:28:44.03	43.97	8.58	-47.8	-50.0	16.5	0.00e+00	0	43	0	116391936	66	4815
2026-01-27 04:28:45.04	43.87	8.64	-47.6	-49.8	16.7	0.00e+00	0	43	0	118489088	66	4721
2026-01-27 04:28:46.05	43.77	8.71	-47.8	-50.0	16.4	0.00e+00	0	42	0	120586240	66	4859
2026-01-27 04:28:47.06	43.66	8.78	-47.8	-50.0	16.5	0.00e+00	0	43	0	121634816	66	4815
2026-01-27 04:28:48.06	43.56	8.85	-47.8	-50.0	16.5	0.00e+00	0	43	0	123731968	66	4825
2026-01-27 04:28:49.07	43.46	8.91	-47.8	-50.1	16.4	0.00e+00	0	43	0	125829120	66	4878
2026-01-27 04:28:50.08	43.36	8.98	-47.6	-49.7	16.8	0.00e+00	0	43	0	127926272	66	4652
2026-01-27 04:28:51.09	43.26	9.05	-47.2	-49.2	17.3	0.00e+00	0	43	0	130023424	66	4406
2026-01-27 04:28:52.09	43.15	9.12	-47.3	-49.3	17.2	0.00e+00	0	43	0	131072000	66	4470
2026-01-27 04:28:53.10	43.05	9.19	-47.3	-49.3	17.2	0.00e+00	0	43	0	133169152	66	4474
2026-01-27 04:28:54.11	42.94	9.25	-47.2	-49.1	17.4	0.00e+00	0	43	0	135266304	66	4372
2026-01-27 04:28:55.11	42.84	9.32	-47.2	-49.1	17.4	0.00e+00	0	43	0	137363456	66	4363
2026-01-27 04:28:56.13	42.73	9.39	-47.2	-49.2	17.4	0.00e+00	0	43	0	139460608	66	4396
2026-01-27 04:28:57.13	42.63	9.46	-47.2	-49.1	17.5	0.00e+00	0	43	0	140509184	66	4373
2026-01-27 04:28:58.13	42.52	9.53	-47.3	-49.2	17.4	0.00e+00	0	43	0	142606336	66	4415
2026-01-27 04:28:59.14	42.42	9.59	-47.2	-49.1	17.4	0.00e+00	0	43	0	144703488	66	4391
2026-01-27 04:29:00.15	42.31	9.66	-47.1	-49.0	17.6	0.00e+00	0	43	0	146800640	66	4302
2026-01-27 04:29:01.15	42.20	9.73	-47.1	-49.0	17.5	0.00e+00	0	43	0	148897792	66	4335
2026-01-27 04:29:02.16	42.09	9.80	-47.1	-49.0	17.6	0.00e+00	0	43	0	149946368	66	4305
2026-01-27 04:29:03.16	41.98	9.87	-47.2	-49.2	17.4	0.00e+00	0	43	0	152043520	66	4413
2026-01-27 04:29:04.17	41.87	9.94	-47.2	-49.2	17.4	0.00e+00	0	42	0	154140672	66	4400
2026-01-27 04:29:05.18	41.76	10.01	-47.2	-49.1	17.5	0.00e+00	0	43	0	156237824	66	4350
2026-01-27 04:29:06.19	41.65	10.08	-47.3	-49.3	17.3	0.00e+00	0	43	0	158334976	66	4452
2026-01-27 04:29:07.20	41.54	10.15	-47.4	-49.4	17.3	0.00e+00	0	43	0	159383552	66	4497
2026-01-27 04:29:08.21	41.43	10.21	-47.3	-49.2	17.4	0.00e+00	0	43	0	161480704	66	4431
2026-01-27 04:29:09.22	41.32	10.28	-47.2	-49.1	17.5	0.00e+00	0	43	0	163577856	66	4389
2026-01-27 04:29:10.23	41.21	10.35	-47.3	-49.2	17.4	0.00e+00	0	43	0	165675008	66	4422
2026-01-27 04:29:11.24	41.09	10.42	-47.4	-49.3	17.3	0.00e+00	0	43	0	167772160	66	4487
2026-01-27 04:29:12.24	40.98	10.49	-47.4	-49.3	17.3	0.00e+00	0	43	0	168820736	66	4480
2026-01-27 04:29:13.25	40.86	10.56	-47.3	-49.3	17.4	0.00e+00	0	43	0	170917888	66	4467
2026-01-27 04:29:14.26	40.75	10.63	-47.4	-49.3	17.3	0.00e+00	0	43	0	173015040	66	4482
2026-01-27 04:29:15.27	40.63	10.70	-47.4	-49.3	17.3	0.00e+00	0	43	0	175112192	66	4485
2026-01-27 04:29:16.27	40.52	10.77	-47.3	-49.2	17.4	0.00e+00	0	43	0	177209344	66	4436
2026-01-27 04:29:17.28	40.40	10.84	-47.3	-49.2	17.4	0.00e+00	0	43	0	178257920	66	4441
2026-01-27 04:29:18.28	40.28	10.91	-47.4	-49.4	17.2	0.00e+00	0	43	0	180355072	66	4510
2026-01-27 04:29:19.29	40.17	10.98	-47.4	-49.4	17.3	0.00e+00	0	43	0	182452224	66	4507
2026-01-27 04:29:20.30	40.05	11.05	-47.5	-49.5	17.1	0.00e+00	0	43	0	184549376	66	4585
2026-01-27 04:29:21.31	39.93	11.12	-47.6	-49.6	17.0	0.00e+00	0	43	0	186646528	66	4632
2026-01-27 04:29:22.32	39.81	11.19	-47.3	-49.2	17.3	0.00e+00	0	43	0	187695104	66	4440
2026-01-27 04:29:23.33	39.69	11.26	-47.2	-49.1	17.3	0.00e+00	0	43	0	189792256	66	4369
2026-01-27 04:29:24.33	39.57	11.33	-47.1	-49.0	17.4	0.00e+00	0	43	0	191889408	66	4316
2026-01-27 04:29:25.34	39.45	11.41	-47.1	-49.0	17.6	0.00e+00	0	43	0	193986560	66	4322
2026-01-27 04:29:26.35	39.32	11.48	-47.3	-49.2	17.4	0.00e+00	0	43	0	196083712	66	4432
2026-01-27 04:29:27.35	39.20	11.55	-47.2	-49.0	17.6	0.00e+00	0	43	0	197132288	66	4333
2026-01-27 04:29:28.36	39.08	11.62	-47.2	-49.2	17.5	0.00e+00	0	43	0	199229440	66	4394
2026-01-27 04:29:29.37	38.95	11.69	-47.1	-48.9	17.7	0.00e+00	0	43	0	201326592	66	4275
2026-01-27 04:29:30.38	38.83	11.76	-47.1	-49.0	17.6	0.00e+00	0	43	0	203423744	66	4328
2026-01-27 04:29:31.38	38.71	11.83	-47.1	-49.0	17.7	0.00e+00	0	43	0	205520896	66	4294
2026-01-27 04:29:32.39	38.58	11.90	-47.0	-48.8	17.9	0.00e+00	0	43	0	207618048	65	4461
2026-01-27 04:29:33.40	38.45	11.97	-47.0	-48.8	17.9	0.00e+00	0	43	0	208666624	65	4454
2026-01-27 04:29:34.41	38.33	12.04	-47.0	-48.8	17.9	0.00e+00	0	43	0	210763776	65	4458
2026-01-27 04:29:35.41	38.20	12.12	-46.7	-48.4	18.3	0.00e+00	0	43	0	212860928	65	4289
2026-01-27 04:29:36.42	38.07	12.19	-46.7	-48.5	18.2	0.00e+00	0	43	0	214958080	65	4303
2026-01-27 04:29:37.43	37.94	12.26	-46.7	-48.5	18.3	0.00e+00	0	43	0	216006656	65	4304
2026-01-27 04:29:38.44	37.81	12.33	-46.8	-48.5	18.2	0.00e+00	0	43	0	218103808	65	4311
2026-01-27 04:29:39.45	37.68	12.40	-46.7	-48.5	18.3	0.00e+00	0	43	0	220200960	65	4292
2026-01-27 04:29:40.46	37.55	12.47	-46.7	-48.4	18.3	0.00e+00	0	43	0	222298112	65	4278
2026-01-27 04:29:41.47	37.42	12.55	-46.6	-48.3	18.4	0.00e+00	0	43	0	224395264	65	4234
2026-01-27 04:29:42.48	37.29	12.62	-46.5	-48.2	18.6	0.00e+00	0	43	0	226492416	65	4151
2026-01-27 04:29:43.48	37.16	12.69	-46.6	-48.2	18.5	0.00e+00	0	43	0	227540992	65	4187
2026-01-27 04:29:44.49	37.02	12.76	-46.5	-48.2	18.6	0.00e+00	0	43	0	229638144	65	4158
2026-01-27 04:29:45.49	36.89	12.83	-46.7	-48.3	18.4	0.00e+00	0	43	0	231735296	65	4242
2026-01-27 04:29:46.50	36.75	12.91	-46.7	-48.4	18.4	0.00e+00	0	43	0	233832448	65	4247
2026-01-27 04:29:47.51	36.62	12.98	-46.6	-48.3	18.4	0.00e+00	0	43	0	235929600	65	4218
2026-01-27 04:29:48.51	36.48	13.05	-46.7	-48.4	18.4	0.00e+00	0	43	0	236978176	65	4252
2026-01-27 04:29:49.52	36.35	13.12	-46.6	-48.3	18.5	0.00e+00	0	43	0	239075328	65	4215
2026-01-27 04:29:50.52	36.21	13.19	-46.6	-48.3	18.6	0.00e+00	0	43	0	241172480	65	4195
2026-01-27 04:29:51.53	36.07	13.27	-46.6	-48.3	18.5	0.00e+00	0	43	0	243269632	65	4204
2026-01-27 04:29:52.54	35.93	13.34	-46.6	-48.2	18.6	0.00e+00	0	43	0	244318208	65	4187
2026-01-27 04:29:53.55	35.79	13.41	-46.5	-48.1	18.6	0.00e+00	0	43	0	246415360	65	4144
2026-01-27 04:29:54.55	35.65	13.48	-46.5	-48.1	18.7	0.00e+00	0	43	0	248512512	64	4368
2026-01-27 04:29:55.56	35.51	13.56	-46.4	-48.1	18.7	0.00e+00	0	43	0	250609664	64	4345
2026-01-27 04:29:56.57	35.37	13.63	-46.4	-47.9	18.9	0.00e+00	0	43	0	252706816	64	4286
2026-01-27 04:29:57.58	35.23	13.70	-46.3	-47.9	19.0	0.00e+00	0	43	0	254803968	64	4244
2026-01-27 04:29:58.59	35.08	13.77	-46.2	-47.8	19.0	0.00e+00	0	43	0	255852544	64	4208
2026-01-27 04:29:59.59	34.94	13.85	-46.3	-47.9	19.0	0.00e+00	0	43	0	257949696	64	4254
2026-01-27 04:30:00.60	34.80	13.92	-46.3	-47.8	19.0	0.00e+00	0	43	0	260046848	64	4222
2026-01-27 04:30:01.61	34.65	13.99	-46.2	-47.8	19.0	0.00e+00	0	43	0	262144000	64	4212
2026-01-27 04:30:02.61	34.51	14.06	-46.2	-47.8	19.1	0.00e+00	0	43	0	264241152	64	4204
2026-01-27 04:30:03.62	34.36	14.14	-46.1	-47.6	19.2	0.00e+00	0	43	0	265289728	64	4108
2026-01-27 04:30:04.63	34.21	14.21	-46.0	-47.5	19.3	0.00e+00	0	43	0	267386880	64	4074
2026-01-27 04:30:05.64	34.06	14.28	-46.1	-47.6	19.3	0.00e+00	0	43	0	269484032	64	4103
2026-01-27 04:30:06.65	33.91	14.36	-46.1	-47.6	19.2	0.00e+00	0	43	0	271581184	64	4126
2026-01-27 04:30:07.65	33.76	14.43	-46.0	-47.6	19.3	0.00e+00	0	43	0	272629760	64	4099
2026-01-27 04:30:08.66	33.61	14.50	-46.0	-47.5	19.4	0.00e+00	0	43	0	274726912	64	4076
2026-01-27 04:30:09.67	33.46	14.57	-46.0	-47.5	19.3	0.00e+00	0	43	0	276824064	64	4092
2026-01-27 04:30:10.67	33.31	14.65	-46.1	-47.6	19.2	0.00e+00	0	43	0	278921216	64	4139
2026-01-27 04:30:11.68	33.16	14.72	-46.2	-47.7	19.2	0.00e+00	0	43	0	281018368	64	4170
2026-01-27 04:30:12.68	33.01	14.79	-46.2	-47.8	19.0	0.00e+00	0	43	0	283115520	64	4209
2026-01-27 04:30:13.69	32.85	14.86	-46.3	-47.9	19.0	0.00e+00	0	43	0	284164096	64	4249
2026-01-27 04:30:14.69	32.70	14.94	-46.4	-47.9	18.9	0.00e+00	0	43	0	286261248	64	4278
2026-01-27 04:30:15.70	32.54	15.01	-46.5	-48.1	18.8	0.00e+00	0	43	0	288358400	64	4353
2026-01-27 04:30:16.71	32.38	15.08	-46.4	-48.0	18.9	0.00e+00	0	43	0	290455552	64	4306
2026-01-27 04:30:17.72	32.23	15.16	-46.4	-48.0	18.9	0.00e+00	0	43	0	292552704	64	4315
2026-01-27 04:30:18.72	32.07	15.23	-46.4	-48.0	18.9	0.00e+00	0	43	0	293601280	64	4310
2026-01-27 04:30:19.73	31.91	15.30	-46.4	-48.0	18.9	0.00e+00	0	43	0	295698432	64	4326
2026-01-27 04:30:20.74	31.75	15.38	-46.5	-48.1	18.8	0.00e+00	0	43	0	297795584	64	4375
2026-01-27 04:30:21.75	31.59	15.45	-46.5	-48.1	18.8	0.00e+00	0	43	0	299892736	64	4368
2026-01-27 04:30:22.76	31.43	15.52	-46.5	-48.1	18.8	0.00e+00	0	43	0	300941312	64	4366
2026-01-27 04:30:23.77	31.27	15.59	-46.5	-48.1	18.8	0.00e+00	0	43	0	303038464	64	4361
2026-01-27 04:30:24.78	31.10	15.67	-46.6	-48.2	18.7	0.00e+00	0	43	0	305135616	64	4436
2026-01-27 04:30:25.79	30.94	15.74	-46.6	-48.3	18.7	0.00e+00	0	43	0	307232768	64	4450
2026-01-27 04:30:26.79	30.78	15.81	-46.7	-48.3	18.6	0.00e+00	0	43	0	309329920	64	4491
2026-01-27 04:30:27.80	30.61	15.89	-46.6	-48.3	18.6	0.00e+00	0	43	0	311427072	64	4464
2026-01-27 04:30:28.80	30.45	15.96	-46.7	-48.4	18.5	0.00e+00	0	43	0	312475648	64	4497
2026-01-27 04:30:29.81	30.28	16.03	-46.8	-48.5	18.4	0.00e+00	0	43	0	314572800	64	4587
2026-01-27 04:30:30.81	30.11	16.10	-46.7	-48.4	18.5	0.00e+00	0	43	0	316669952	64	4500
2026-01-27 04:30:31.81	29.94	16.18	-46.8	-48.4	18.5	0.00e+00	0	43	0	318767104	64	4541
2026-01-27 04:30:32.82	29.77	16.25	-46.8	-48.5	18.4	0.00e+00	0	43	0	320864256	64	4576
2026-01-27 04:30:33.83	29.60	16.32	-46.8	-48.5	18.5	0.00e+00	0	43	0	321912832	64	4552
2026-01-27 04:30:34.84	29.43	16.39	-46.7	-48.3	18.6	0.00e+00	0	43	0	324009984	64	4465
2026-01-27 04:30:35.85	29.26	16.47	-46.7	-48.4	18.5	0.00e+00	0	43	0	326107136	64	4519
2026-01-27 04:30:36.86	29.09	16.54	-46.7	-48.4	18.5	0.00e+00	0	43	0	328204288	64	4515
2026-01-27 04:30:37.86	28.91	16.61	-46.8	-48.5	18.5	0.00e+00	0	43	0	329252864	64	4550
2026-01-27 04:30:38.87	28.74	16.68	-46.8	-48.5	18.5	0.00e+00	0	43	0	331350016	64	4564
2026-01-27 04:30:39.88	28.56	16.76	-46.9	-48.7	18.3	0.00e+00	0	43	0	333447168	64	4653
2026-01-27 04:30:40.89	28.39	16.83	-46.9	-48.6	18.4	0.00e+00	0	43	0	335544320	64	4617
2026-01-27 04:30:41.89	28.21	16.90	-46.9	-48.6	18.4	0.00e+00	0	43	0	337641472	64	4619
2026-01-27 04:30:42.90	28.03	16.97	-46.9	-48.6	18.4	0.00e+00	0	43	0	339738624	64	4600
2026-01-27 04:30:43.91	27.85	17.04	-46.9	-48.6	18.4	0.00e+00	0	43	0	340787200	64	4602
2026-01-27 04:30:44.92	27.67	17.12	-46.9	-48.6	18.3	0.00e+00	0	43	0	342884352	64	4647
2026-01-27 04:30:45.93	27.49	17.19	-46.9	-48.6	18.4	0.00e+00	0	43	0	344981504	64	4613
2026-01-27 04:30:46.93	27.31	17.26	-46.9	-48.6	18.4	0.00e+00	0	43	0	347078656	64	4624
2026-01-27 04:30:47.94	27.13	17.33	-46.9	-48.6	18.3	0.00e+00	0	43	0	349175808	64	4641
2026-01-27 04:30:48.95	26.95	17.40	-46.8	-48.5	18.5	0.00e+00	0	43	0	350224384	64	4554
2026-01-27 04:30:49.96	26.76	17.47	-46.9	-48.6	18.3	0.00e+00	0	43	0	352321536	64	4648
2026-01-27 04:30:50.97	26.58	17.55	-46.9	-48.6	18.4	0.00e+00	0	43	0	354418688	64	4606
2026-01-27 04:30:51.97	26.39	17.62	-46.9	-48.6	18.3	0.00e+00	0	43	0	356515840	64	4633
2026-01-27 04:30:52.98	26.21	17.69	-47.0	-48.7	18.2	0.00e+00	0	43	0	358612992	64	4702
2026-01-27 04:30:53.99	26.02	17.76	-46.9	-48.6	18.3	0.00e+00	0	43	0	359661568	64	4649
2026-01-27 04:30:54.99	25.83	17.83	-46.8	-48.5	18.5	0.00e+00	0	43	0	361758720	64	4578
2026-01-27 04:30:56.00	25.64	17.90	-46.9	-48.6	18.4	0.00e+00	0	43	0	363855872	64	4628
2026-01-27 04:30:57.01	25.45	17.97	-46.8	-48.5	18.4	0.00e+00	0	43	0	365953024	64	4587
2026-01-27 04:30:58.02	25.26	18.04	-46.7	-48.4	18.6	0.00e+00	0	43	0	368050176	64	4514
2026-01-27 04:30:59.03	25.07	18.11	-46.8	-48.4	18.6	0.00e+00	0	43	0	369098752	64	4528
2026-01-27 04:31:00.03	24.87	18.18	-46.7	-48.4	18.6	0.00e+00	0	43	0	371195904	64	4501
2026-01-27 04:31:01.04	24.68	18.25	-46.6	-48.2	18.8	0.00e+00	0	43	0	373293056	64	4407
2026-01-27 04:31:02.05	24.48	18.32	-46.7	-48.3	18.7	0.00e+00	0	43	0	375390208	64	4490
2026-01-27 04:31:03.05	24.29	18.39	-46.6	-48.2	18.8	0.00e+00	0	43	0	377487360	64	4396
2026-01-27 04:31:04.06	24.09	18.46	-46.5	-48.0	19.0	0.00e+00	0	43	0	378535936	64	4330
2026-01-27 04:31:05.07	23.90	18.53	-46.2	-47.6	19.4	0.00e+00	0	43	0	380633088	64	4144
2026-01-27 04:31:06.08	23.70	18.60	-46.2	-47.7	19.3	0.00e+00	0	43	0	382730240	64	4158
2026-01-27 04:31:07.09	23.50	18.67	-46.0	-47.5	19.5	0.00e+00	0	43	0	384827392	64	4066
2026-01-27 04:31:08.10	23.30	18.74	-46.1	-47.6	19.4	0.00e+00	0	43	0	386924544	64	4111
2026-01-27 04:31:09.11	23.09	18.81	-46.0	-47.4	19.6	0.00e+00	0	43	0	387973120	64	4042
2026-01-27 04:31:10.11	22.89	18.88	-45.9	-47.3	19.7	0.00e+00	0	43	0	390070272	63	4235
2026-01-27 04:31:11.12	22.69	18.95	-45.8	-47.2	19.9	0.00e+00	0	43	0	392167424	63	4162
2026-01-27 04:31:12.13	22.49	19.01	-45.4	-46.8	20.4	0.00e+00	0	43	0	394264576	62	4195
2026-01-27 04:31:13.13	22.28	19.08	-45.4	-46.7	20.4	0.00e+00	0	43	0	396361728	62	4151
2026-01-27 04:31:14.14	22.08	19.15	-45.3	-46.5	20.6	0.00e+00	0	43	0	397410304	62	4092
2026-01-27 04:31:15.15	21.87	19.22	-45.1	-46.4	20.6	0.00e+00	0	43	0	399507456	62	4018
2026-01-27 04:31:16.16	21.66	19.28	-45.2	-46.5	20.6	0.00e+00	0	43	0	401604608	62	4059
2026-01-27 04:31:17.17	21.45	19.35	-45.0	-46.3	20.8	0.00e+00	0	43	0	403701760	62	3977
2026-01-27 04:31:18.17	21.24	19.42	-45.0	-46.3	20.8	0.00e+00	0	43	0	405798912	61	4215
2026-01-27 04:31:19.18	21.03	19.49	-45.0	-46.2	20.8	0.00e+00	0	43	0	406847488	61	4186
2026-01-27 04:31:20.19	20.82	19.55	-45.0	-46.2	20.8	0.00e+00	0	43	0	408944640	61	4192
2026-01-27 04:31:21.19	20.61	19.62	-44.9	-46.2	20.9	0.00e+00	0	43	0	411041792	61	4149
2026-01-27 04:31:22.20	20.40	19.68	-44.9	-46.2	20.9	0.00e+00	0	43	0	413138944	61	4149
2026-01-27 04:31:23.21	20.18	19.75	-44.9	-46.1	21.0	0.00e+00	0	43	0	415236096	61	4105
2026-01-27 04:31:24.22	19.97	19.82	-44.8	-46.0	21.1	0.00e+00	0	43	0	416284672	61	4066
2026-01-27 04:31:25.22	19.75	19.88	-44.9	-46.1	21.0	0.00e+00	0	43	0	418381824	61	4127
2026-01-27 04:31:26.22	19.54	19.95	-44.9	-46.2	20.9	0.00e+00	0	43	0	420478976	61	4149
2026-01-27 04:31:27.23	19.32	20.01	-44.8	-46.0	21.1	0.00e+00	0	43	0	422576128	61	4061
2026-01-27 04:31:28.24	19.10	20.08	-44.8	-46.0	21.1	0.00e+00	0	43	0	424673280	61	4076
2026-01-27 04:31:29.25	18.88	20.14	-44.9	-46.1	21.0	0.00e+00	0	43	0	425721856	61	4145
2026-01-27 04:31:30.26	18.66	20.20	-44.8	-46.0	21.0	0.00e+00	0	43	0	427819008	61	4085
2026-01-27 04:31:31.27	18.43	20.27	-44.7	-45.9	21.2	0.00e+00	0	43	0	429916160	61	4013
2026-01-27 04:31:32.27	18.21	20.33	-44.6	-45.8	21.3	0.00e+00	0	43	0	432013312	61	3963
2026-01-27 04:31:33.28	17.99	20.39	-44.6	-45.8	21.3	0.00e+00	0	43	0	434110464	61	3962
2026-01-27 04:31:34.29	17.76	20.46	-44.7	-45.9	21.2	0.00e+00	0	43	0	435159040	61	4016
2026-01-27 04:31:35.29	17.54	20.52	-44.6	-45.7	21.4	0.00e+00	0	43	0	437256192	61	3951
2026-01-27 04:31:36.30	17.31	20.58	-44.6	-45.7	21.4	0.00e+00	0	43	0	439353344	61	3939
2026-01-27 04:31:37.30	17.09	20.64	-44.5	-45.7	21.4	0.00e+00	0	43	0	441450496	60	4175
2026-01-27 04:31:38.31	16.86	20.71	-44.6	-45.7	21.3	0.00e+00	0	43	0	443547648	60	4191
2026-01-27 04:31:39.32	16.63	20.77	-44.5	-45.6	21.5	0.00e+00	0	43	0	444596224	60	4134
2026-01-27 04:31:40.33	16.40	20.83	-44.5	-45.6	21.5	0.00e+00	0	43	0	446693376	60	4126
2026-01-27 04:31:41.33	16.17	20.89	-44.4	-45.5	21.6	0.00e+00	0	43	0	448790528	60	4076
2026-01-27 04:31:42.34	15.94	20.95	-44.3	-45.5	21.6	0.00e+00	0	43	0	450887680	60	4054
2026-01-27 04:31:43.35	15.70	21.01	-44.4	-45.6	21.5	0.00e+00	0	43	0	452984832	60	4110
2026-01-27 04:31:44.36	15.47	21.07	-44.5	-45.7	21.4	0.00e+00	0	43	0	454033408	60	4154
2026-01-27 04:31:45.36	15.24	21.13	-44.7	-45.9	21.2	0.00e+00	0	43	0	456130560	60	4245
2026-01-27 04:31:46.37	15.00	21.18	-44.7	-45.9	21.2	0.00e+00	0	43	0	458227712	60	4272
2026-01-27 04:31:47.37	14.77	21.24	-44.6	-45.8	21.3	0.00e+00	0	43	0	460324864	60	4201
2026-01-27 04:31:48.38	14.53	21.30	-44.5	-45.7	21.4	0.00e+00	0	43	0	462422016	60	4154
2026-01-27 04:31:49.39	14.29	21.36	-44.6	-45.8	21.3	0.00e+00	0	43	0	463470592	60	4202
2026-01-27 04:31:50.40	14.05	21.42	-44.7	-45.8	21.2	0.00e+00	0	43	0	465567744	60	4235
2026-01-27 04:31:51.40	13.81	21.47	-44.8	-46.0	21.1	0.00e+00	0	43	0	467664896	60	4297
2026-01-27 04:31:52.40	13.57	21.53	-44.7	-45.8	21.3	0.00e+00	0	43	0	469762048	60	4232
2026-01-27 04:31:53.41	13.33	21.58	-44.7	-45.8	21.3	0.00e+00	0	43	0	471859200	60	4235
2026-01-27 04:31:54.42	13.09	21.64	-44.7	-45.8	21.2	0.00e+00	0	43	0	472907776	60	4236
2026-01-27 04:31:55.42	12.85	21.69	-44.7	-45.9	21.2	0.00e+00	0	43	0	475004928	60	4276
2026-01-27 04:31:56.43	12.60	21.75	-44.7	-45.9	21.2	0.00e+00	0	43	0	477102080	60	4244
2026-01-27 04:31:57.43	12.36	21.80	-44.7	-45.9	21.2	0.00e+00	0	43	0	479199232	60	4259
2026-01-27 04:31:58.44	12.11	21.86	-44.5	-45.6	21.4	0.00e+00	0	43	0	481296384	60	4142
2026-01-27 04:31:59.44	11.87	21.91	-44.3	-45.4	21.6	0.00e+00	0	43	0	482344960	60	4036
2026-01-27 04:32:00.45	11.62	21.96	-44.3	-45.4	21.6	0.00e+00	0	43	0	484442112	60	4041
2026-01-27 04:32:01.46	11.37	22.01	-44.4	-45.5	21.6	0.00e+00	0	43	0	486539264	60	4068
2026-01-27 04:32:02.47	11.12	22.07	-44.3	-45.4	21.7	0.00e+00	0	43	0	488636416	60	4027
2026-01-27 04:32:03.48	10.87	22.12	-44.2	-45.3	21.7	0.00e+00	0	43	0	490733568	60	4001
2026-01-27 04:32:04.48	10.62	22.17	-44.3	-45.5	21.6	0.00e+00	0	43	0	491782144	60	4052
2026-01-27 04:32:05.49	10.37	22.22	-44.1	-45.2	21.8	0.00e+00	0	43	0	493879296	60	3944
2026-01-27 04:32:06.50	10.11	22.27	-44.1	-45.2	21.9	0.00e+00	0	43	0	495976448	60	3929
2026-01-27 04:32:07.50	9.86	22.32	-44.1	-45.2	21.8	0.00e+00	0	43	0	498073600	60	3953
2026-01-27 04:32:08.51	9.61	22.37	-44.3	-45.4	21.7	0.00e+00	0	43	0	500170752	60	4025
2026-01-27 04:32:09.51	9.35	22.42	-44.3	-45.4	21.7	0.00e+00	0	43	0	501219328	60	4028
2026-01-27 04:32:10.52	9.10	22.46	-44.1	-45.2	21.9	0.00e+00	0	43	0	503316480	60	3934
2026-01-27 04:32:11.53	8.84	22.51	-44.3	-45.4	22.0	0.00e+00	0	43	0	505413632	59	4251
2026-01-27 04:32:12.54	8.58	22.56	-44.2	-45.3	22.1	0.00e+00	0	43	0	507510784	59	4208
2026-01-27 04:32:13.55	8.32	22.60	-44.2	-45.3	22.1	0.00e+00	0	43	0	509607936	59	4226
2026-01-27 04:32:14.55	8.06	22.65	-44.3	-45.4	22.0	0.00e+00	0	43	0	510656512	59	4274
2026-01-27 04:32:15.56	7.80	22.69	-44.4	-45.5	21.9	0.00e+00	0	43	0	512753664	59	4331
2026-01-27 04:32:16.56	7.54	22.74	-44.3	-45.4	22.0	0.00e+00	0	43	0	514850816	59	4282
2026-01-27 04:32:17.57	7.28	22.78	-44.3	-45.4	22.0	0.00e+00	0	43	0	516947968	59	4269
2026-01-27 04:32:18.57	7.02	22.83	-44.2	-45.3	22.1	0.00e+00	0	43	0	519045120	59	4226
2026-01-27 04:32:19.58	6.76	22.87	-44.3	-45.4	22.0	0.00e+00	0	43	0	520093696	59	4254
2026-01-27 04:32:20.59	6.49	22.91	-44.3	-45.4	22.0	0.00e+00	0	43	0	522190848	59	4281
2026-01-27 04:32:21.59	6.23	22.95	-44.6	-45.7	21.7	0.00e+00	0	43	0	524288000	59	4409
2026-01-27 04:32:22.60	5.97	22.99	-44.6	-45.7	21.7	0.00e+00	0	43	0	526385152	59	4441
2026-01-27 04:32:23.61	5.70	23.04	-44.4	-45.5	21.6	0.00e+00	0	43	0	528482304	60	4074
2026-01-27 04:32:24.62	5.43	23.08	-44.4	-45.6	21.6	0.00e+00	0	43	0	529530880	60	4110
2026-01-27 04:32:25.63	5.17	23.11	-44.3	-45.4	21.7	0.00e+00	0	43	0	531628032	60	4028
2026-01-27 04:32:26.63	4.90	23.15	-44.2	-45.3	21.8	0.00e+00	0	43	0	533725184	60	3985
2026-01-27 04:32:27.64	4.63	23.19	-44.3	-45.4	21.7	0.00e+00	0	43	0	535822336	60	4044
2026-01-27 04:32:28.65	4.36	23.23	-44.5	-45.6	21.5	0.00e+00	0	43	0	537919488	60	4122
2026-01-27 04:32:29.65	4.09	23.27	-44.4	-45.6	21.5	0.00e+00	0	43	0	538968064	60	4107
2026-01-27 04:32:30.66	3.82	23.30	-44.4	-45.6	21.5	0.00e+00	0	43	0	541065216	60	4101
2026-01-27 04:32:31.66	3.55	23.34	-44.4	-45.5	21.6	0.00e+00	0	43	0	543162368	60	4073
2026-01-27 04:32:32.67	3.28	23.37	-44.5	-45.7	21.5	0.00e+00	0	43	0	545259520	60	4156
2026-01-27 04:32:33.67	3.01	23.41	-44.8	-46.0	21.2	0.00e+00	0	43	0	547356672	60	4296
2026-01-27 04:32:34.67	2.74	23.44	-45.1	-46.3	20.9	0.00e+00	0	43	0	548405248	60	4477
2026-01-27 04:32:35.68	2.47	23.47	-45.4	-46.7	20.5	0.00e+00	0	43	0	550502400	61	4398
2026-01-27 04:32:36.69	2.19	23.50	-45.5	-46.8	20.5	0.00e+00	0	43	0	552599552	61	4443
2026-01-27 04:32:37.69	1.92	23.54	-45.4	-46.7	20.5	0.00e+00	0	43	0	554696704	61	4413
2026-01-27 04:32:38.70	1.64	23.57	-45.3	-46.6	20.6	0.00e+00	0	43	0	556793856	61	4353
2026-01-27 04:32:39.71	1.37	23.60	-45.4	-46.6	20.6	0.00e+00	0	43	0	557842432	61	4381
2026-01-27 04:32:40.71	1.09	23.63	-45.5	-46.8	20.4	0.00e+00	0	43	0	559939584	61	4445
2026-01-27 04:32:41.72	0.82	23.66	-45.6	-46.9	20.3	0.00e+00	0	43	0	562036736	61	4518
2026-01-27 04:32:42.73	0.54	23.68	-45.6	-47.0	20.2	0.00e+00	0	43	0	564133888	61	4560
2026-01-27 04:32:43.73	0.26	23.71	-45.7	-47.0	20.2	0.00e+00	0	43	0	566231040	61	4579
2026-01-27 04:32:44.74	359.98	23.74	-45.8	-47.1	20.1	0.00e+00	0	43	0	567279616	62	4366
2026-01-27 04:32:45.75	359.70	23.76	-45.6	-46.9	20.3	0.00e+00	0	43	0	569376768	62	4271
2026-01-27 04:32:46.75	359.43	23.79	-45.7	-47.0	20.2	0.00e+00	0	43	0	571473920	62	4334
2026-01-27 04:32:47.76	359.15	23.81	-45.8	-47.1	20.1	0.00e+00	0	43	0	573571072	62	4372
2026-01-27 04:32:48.76	358.87	23.84	-45.8	-47.2	20.0	0.00e+00	0	43	0	575668224	62	4429
2026-01-27 04:32:49.77	358.59	23.86	-45.9	-47.2	20.0	0.00e+00	0	43	0	576716800	62	4431
2026-01-27 04:32:50.77	358.31	23.88	-45.9	-47.3	19.9	0.00e+00	0	43	0	578813952	62	4482
2026-01-27 04:32:51.78	358.03	23.91	-45.9	-47.3	19.9	0.00e+00	0	43	0	580911104	62	4478
2026-01-27 04:32:52.78	357.75	23.93	-46.0	-47.4	19.8	0.00e+00	0	43	0	583008256	62	4529
2026-01-27 04:32:53.79	357.46	23.95	-46.2	-47.6	19.6	0.00e+00	0	43	0	585105408	62	4622
2026-01-27 04:32:54.79	357.18	23.97	-46.3	-47.7	19.5	0.00e+00	0	43	0	586153984	63	4431
2026-01-27 04:32:55.80	356.90	23.99	-46.3	-47.7	19.5	0.00e+00	0	43	0	588251136	63	4436
2026-01-27 04:32:56.80	356.62	24.00	-46.3	-47.7	19.5	0.00e+00	0	43	0	590348288	63	4440
2026-01-27 04:32:57.81	356.34	24.02	-46.2	-47.7	19.5	0.00e+00	0	43	0	592445440	63	4414
2026-01-27 04:32:58.82	356.05	24.04	-46.2	-47.7	19.6	0.00e+00	0	43	0	594542592	63	4403
2026-01-27 04:32:59.82	355.77	24.05	-46.4	-47.9	19.3	0.00e+00	0	43	0	595591168	63	4528
2026-01-27 04:33:00.82	355.49	24.07	-46.4	-47.9	19.4	0.00e+00	0	43	0	597688320	63	4524
2026-01-27 04:33:01.83	355.20	24.08	-46.4	-47.9	19.4	0.00e+00	0	43	0	599785472	63	4525
2026-01-27 04:33:02.84	354.92	24.10	-46.1	-47.5	19.7	0.00e+00	0	43	0	601882624	63	4334
2026-01-27 04:33:03.85	354.63	24.11	-46.0	-47.3	19.9	0.00e+00	0	43	0	603979776	63	4237
2026-01-27 04:33:04.85	354.35	24.12	-45.9	-47.2	20.0	0.00e+00	0	43	0	605028352	63	4189
2026-01-27 04:33:05.86	354.06	24.13	-45.9	-47.3	20.0	0.00e+00	0	43	0	607125504	63	4217
2026-01-27 04:33:06.87	353.78	24.14	-46.1	-47.5	19.8	0.00e+00	0	43	0	609222656	63	4302
2026-01-27 04:33:07.88	353.49	24.15	-46.3	-47.8	19.5	0.00e+00	0	43	0	611319808	63	4450
2026-01-27 04:33:08.88	353.21	24.16	-46.4	-47.8	19.4	0.00e+00	0	43	0	613416960	63	4483
2026-01-27 04:33:09.89	352.92	24.17	-46.2	-47.6	19.6	0.00e+00	0	43	0	614465536	63	4371
2026-01-27 04:33:10.90	352.63	24.18	-46.1	-47.6	19.7	0.00e+00	0	43	0	616562688	63	4348
2026-01-27 04:33:11.90	352.35	24.18	-46.2	-47.6	19.7	0.00e+00	0	43	0	618659840	63	4385
2026-01-27 04:33:12.91	352.06	24.19	-46.0	-47.4	19.9	0.00e+00	0	43	0	620756992	63	4264
2026-01-27 04:33:13.92	351.77	24.19	-46.0	-47.4	19.9	0.00e+00	0	43	0	622854144	63	4270
2026-01-27 04:33:14.93	351.49	24.20	-46.0	-47.4	19.8	0.00e+00	0	43	0	623902720	63	4272
2026-01-27 04:33:15.94	351.20	24.20	-46.0	-47.4	19.9	0.00e+00	0	43	0	625999872	63	4253
2026-01-27 04:33:16.95	350.91	24.20	-45.9	-47.3	19.9	0.00e+00	0	43	0	628097024	63	4222
2026-01-27 04:33:17.95	350.63	24.21	-45.7	-47.0	20.2	0.00e+00	0	43	0	630194176	63	4090
2026-01-27 04:33:18.96	350.34	24.21	-45.8	-47.1	20.2	0.00e+00	0	43	0	632291328	63	4133
2026-01-27 04:33:19.97	350.05	24.21	-45.7	-47.1	20.2	0.00e+00	0	43	0	633339904	63	4103
2026-01-27 04:33:20.97	349.77	24.21	-45.8	-47.2	20.1	0.00e+00	0	43	0	635437056	63	4163
2026-01-27 04:33:21.98	349.48	24.21	-45.7	-47.0	20.2	0.00e+00	0	43	0	637534208	63	4098
2026-01-27 04:33:22.98	349.19	24.20	-45.6	-47.0	20.3	0.00e+00	0	43	0	639631360	63	4064
2026-01-27 04:33:23.99	348.91	24.20	-45.5	-46.8	20.4	0.00e+00	0	43	0	641728512	63	4004
2026-01-27 04:33:25.00	348.62	24.20	-45.4	-46.7	20.5	0.00e+00	0	43	0	642777088	62	4164
2026-01-27 04:33:26.01	348.33	24.19	-45.4	-46.7	20.5	0.00e+00	0	43	0	644874240	62	4183
2026-01-27 04:33:27.01	348.05	24.19	-45.2	-46.5	20.7	0.00e+00	0	43	0	646971392	62	4074
2026-01-27 04:33:28.01	347.76	24.18	-45.2	-46.4	20.8	0.00e+00	0	43	0	649068544	62	4024
2026-01-27 04:33:29.02	347.47	24.18	-45.1	-46.3	21.0	0.00e+00	0	43	0	651165696	62	3969
2026-01-27 04:33:30.03	347.19	24.17	-45.0	-46.2	21.0	0.00e+00	0	43	0	652214272	62	3928
2026-01-27 04:33:31.03	346.90	24.16	-45.0	-46.2	21.0	0.00e+00	0	43	0	654311424	61	4182
2026-01-27 04:33:32.04	346.62	24.15	-45.2	-46.4	20.8	0.00e+00	0	43	0	656408576	61	4272
2026-01-27 04:33:33.05	346.33	24.14	-45.1	-46.3	20.9	0.00e+00	0	43	0	658505728	61	4207
2026-01-27 04:33:34.05	346.05	24.13	-45.1	-46.3	20.9	0.00e+00	0	43	0	660602880	61	4220
2026-01-27 04:33:35.06	345.76	24.12	-44.7	-45.9	21.3	0.00e+00	0	43	0	661651456	61	4034
2026-01-27 04:33:36.07	345.47	24.11	-44.8	-45.9	21.3	0.00e+00	0	43	0	663748608	61	4048
2026-01-27 04:33:37.07	345.19	24.10	-44.6	-45.8	21.4	0.00e+00	0	43	0	665845760	61	3977
2026-01-27 04:33:38.08	344.91	24.08	-44.5	-45.6	21.6	0.00e+00	0	43	0	667942912	61	3905
2026-01-27 04:33:39.09	344.62	24.07	-44.4	-45.5	21.6	0.00e+00	0	43	0	670040064	60	4082
2026-01-27 04:33:40.10	344.34	24.05	-44.4	-45.5	21.7	0.00e+00	0	43	0	671088640	60	4068
2026-01-27 04:33:41.11	344.05	24.04	-44.5	-45.6	21.5	0.00e+00	0	43	0	673185792	60	4141
2026-01-27 04:33:42.11	343.77	24.02	-44.3	-45.4	21.8	0.00e+00	0	43	0	675282944	60	4013
2026-01-27 04:33:43.12	343.49	24.00	-44.1	-45.1	22.0	0.00e+00	0	43	0	677380096	60	3902
2026-01-27 04:33:44.12	343.20	23.99	-44.3	-45.4	22.1	0.00e+00	0	43	0	679477248	59	4268
2026-01-27 04:33:45.13	342.92	23.97	-44.3	-45.4	22.1	0.00e+00	0	43	0	680525824	59	4261
2026-01-27 04:33:46.13	342.64	23.95	-44.1	-45.2	22.3	0.00e+00	0	43	0	682622976	59	4149
2026-01-27 04:33:47.14	342.36	23.93	-44.0	-45.0	22.4	0.00e+00	0	43	0	684720128	59	4096
2026-01-27 04:33:48.15	342.08	23.91	-44.1	-45.1	22.3	0.00e+00	0	43	0	686817280	59	4141
2026-01-27 04:33:49.16	341.79	23.88	-44.0	-45.1	22.3	0.00e+00	0	43	0	688914432	59	4131
2026-01-27 04:33:50.16	341.51	23.86	-44.1	-45.1	22.3	0.00e+00	0	43	0	689963008	59	4143
2026-01-27 04:33:51.16	341.24	23.84	-44.1	-45.2	22.3	0.00e+00	0	43	0	692060160	59	4157
2026-01-27 04:33:52.17	340.96	23.81	-44.1	-45.1	22.3	0.00e+00	0	43	0	694157312	59	4126
2026-01-27 04:33:53.17	340.68	23.79	-43.9	-44.9	22.5	0.00e+00	0	43	0	696254464	59	4022
2026-01-27 04:33:54.18	340.40	23.76	-43.8	-44.9	22.6	0.00e+00	0	43	0	698351616	59	4007
2026-01-27 04:33:55.18	340.12	23.74	-43.8	-44.9	22.6	0.00e+00	0	43	0	699400192	59	4007
2026-01-27 04:33:56.19	339.84	23.71	-43.9	-45.0	22.4	0.00e+00	0	43	0	701497344	59	4068
2026-01-27 04:33:57.20	339.56	23.68	-44.1	-45.1	22.3	0.00e+00	0	43	0	703594496	59	4136
2026-01-27 04:33:58.21	339.29	23.66	-44.1	-45.1	22.4	0.00e+00	0	43	0	705691648	59	4135
2026-01-27 04:33:59.21	339.01	23.63	-44.3	-45.4	22.1	0.00e+00	0	43	0	707788800	59	4246
2026-01-27 04:34:00.22	338.74	23.60	-44.3	-45.4	22.0	0.00e+00	0	43	0	708837376	59	4286
2026-01-27 04:34:01.23	338.46	23.57	-44.5	-45.6	21.9	0.00e+00	0	43	0	710934528	59	4354
2026-01-27 04:34:02.23	338.19	23.54	-44.4	-45.5	21.9	0.00e+00	0	43	0	713031680	59	4340
2026-01-27 04:34:03.24	337.91	23.51	-44.4	-45.5	22.0	0.00e+00	0	43	0	715128832	59	4328
2026-01-27 04:34:04.25	337.64	23.47	-44.3	-45.5	22.0	0.00e+00	0	43	0	717225984	59	4295
2026-01-27 04:34:05.25	337.36	23.44	-44.4	-45.5	22.0	0.00e+00	0	43	0	718274560	59	4320
2026-01-27 04:34:06.26	337.09	23.41	-44.4	-45.5	22.0	0.00e+00	0	43	0	720371712	59	4320
2026-01-27 04:34:07.27	336.82	23.37	-44.5	-45.7	21.8	0.00e+00	0	43	0	722468864	59	4396
2026-01-27 04:34:08.28	336.55	23.34	-44.6	-45.8	21.7	0.00e+00	0	43	0	724566016	59	4459
2026-01-27 04:34:09.29	336.27	23.30	-44.3	-45.4	21.7	0.00e+00	0	43	0	726663168	60	4033
2026-01-27 04:34:10.30	336.00	23.27	-44.4	-45.6	21.6	0.00e+00	0	43	0	727711744	60	4106
2026-01-27 04:34:11.30	335.73	23.23	-44.5	-45.7	21.5	0.00e+00	0	43	0	729808896	60	4161
2026-01-27 04:34:12.31	335.47	23.19	-44.6	-45.8	21.4	0.00e+00	0	43	0	731906048	60	4225
2026-01-27 04:34:13.32	335.20	23.15	-44.7	-45.9	21.3	0.00e+00	0	43	0	734003200	60	4248
2026-01-27 04:34:14.33	334.93	23.11	-44.7	-45.9	21.3	0.00e+00	0	43	0	736100352	60	4269
2026-01-27 04:34:15.33	334.66	23.08	-44.9	-46.1	21.1	0.00e+00	0	43	0	737148928	60	4343
2026-01-27 04:34:16.34	334.40	23.04	-44.9	-46.1	21.1	0.00e+00	0	43	0	739246080	60	4347
2026-01-27 04:34:17.34	334.13	22.99	-44.8	-46.0	21.2	0.00e+00	0	43	0	741343232	60	4313
2026-01-27 04:34:18.34	333.87	22.95	-44.8	-46.0	21.2	0.00e+00	0	43	0	743440384	60	4293
2026-01-27 04:34:19.34	333.61	22.91	-44.9	-46.0	21.1	0.00e+00	0	43	0	745537536	60	4338
2026-01-27 04:34:20.35	333.34	22.87	-44.9	-46.1	21.1	0.00e+00	0	43	0	746586112	60	4357
2026-01-27 04:34:21.36	333.08	22.83	-45.1	-46.3	20.9	0.00e+00	0	43	0	748683264	60	4450
2026-01-27 04:34:22.36	332.82	22.78	-45.0	-46.2	21.0	0.00e+00	0	43	0	750780416	60	4424
2026-01-27 04:34:23.37	332.56	22.74	-45.2	-46.4	20.8	0.00e+00	0	43	0	752877568	60	4536
2026-01-27 04:34:24.38	332.29	22.70	-45.4	-46.6	20.6	0.00e+00	0	43	0	754974720	61	4375
2026-01-27 04:34:25.37	332.04	22.65	-45.4	-46.7	20.5	0.00e+00	0	43	0	756023296	61	4437
2026-01-27 04:34:26.38	331.78	22.61	-45.5	-46.8	20.5	0.00e+00	0	43	0	758120448	61	4454
2026-01-27 04:34:27.39	331.52	22.56	-45.5	-46.8	20.4	0.00e+00	0	43	0	760217600	61	4476
2026-01-27 04:34:28.40	331.26	22.51	-45.5	-46.8	20.4	0.00e+00	0	43	0	762314752	61	4450
2026-01-27 04:34:29.41	331.00	22.46	-45.5	-46.8	20.4	0.00e+00	0	43	0	764411904	61	4474
2026-01-27 04:34:30.41	330.75	22.42	-45.5	-46.9	20.3	0.00e+00	0	43	0	765460480	61	4498
2026-01-27 04:34:31.42	330.49	22.37	-45.6	-46.9	20.3	0.00e+00	0	43	0	767557632	61	4511
2026-01-27 04:34:32.42	330.24	22.32	-45.6	-46.9	20.3	0.00e+00	0	43	0	769654784	61	4499
2026-01-27 04:34:33.43	329.99	22.27	-45.4	-46.7	20.5	0.00e+00	0	43	0	771751936	61	4410
2026-01-27 04:34:34.44	329.73	22.22	-45.5	-46.9	20.4	0.00e+00	0	43	0	773849088	61	4496
2026-01-27 04:34:35.45	329.48	22.17	-45.6	-47.0	20.2	0.00e+00	0	43	0	774897664	61	4554
2026-01-27 04:34:36.45	329.23	22.12	-45.8	-47.1	20.1	0.00e+00	0	43	0	776994816	62	4388
2026-01-27 04:34:37.46	328.98	22.07	-45.9	-47.2	20.0	0.00e+00	0	43	0	779091968	62	4433
2026-01-27 04:34:38.47	328.73	22.02	-45.9	-47.3	20.0	0.00e+00	0	43	0	781189120	62	4454
2026-01-27 04:34:39.48	328.48	21.96	-46.0	-47.4	19.9	0.00e+00	0	43	0	783286272	62	4501
2026-01-27 04:34:40.49	328.23	21.91	-46.1	-47.5	19.7	0.00e+00	0	43	0	784334848	62	4558
2026-01-27 04:34:41.49	327.99	21.86	-46.0	-47.5	19.8	0.00e+00	0	43	0	786432000	62	4551
2026-01-27 04:34:42.50	327.74	21.80	-45.9	-47.3	19.9	0.00e+00	0	43	0	788529152	62	4486
2026-01-27 04:34:43.50	327.50	21.75	-45.9	-47.3	19.9	0.00e+00	0	43	0	790626304	62	4465
2026-01-27 04:34:44.51	327.25	21.70	-45.7	-47.0	20.2	0.00e+00	0	43	0	792723456	62	4333
2026-01-27 04:34:45.51	327.01	21.64	-45.9	-47.2	20.0	0.00e+00	0	43	0	793772032	62	4430
2026-01-27 04:34:46.52	326.77	21.58	-45.9	-47.3	20.0	0.00e+00	0	43	0	795869184	62	4449
2026-01-27 04:34:47.52	326.53	21.53	-46.1	-47.5	19.7	0.00e+00	0	43	0	797966336	62	4595
2026-01-27 04:34:48.53	326.29	21.47	-46.1	-47.6	19.6	0.00e+00	0	43	0	800063488	62	4619
2026-01-27 04:34:49.53	326.05	21.42	-46.2	-47.6	19.6	0.00e+00	0	43	0	802160640	62	4624
2026-01-27 04:34:50.54	325.81	21.36	-46.0	-47.4	19.8	0.00e+00	0	43	0	803209216	62	4525
2026-01-27 04:34:51.55	325.57	21.30	-46.0	-47.3	19.9	0.00e+00	0	43	0	805306368	62	4492
2026-01-27 04:34:52.56	325.33	21.24	-46.0	-47.4	19.9	0.00e+00	0	43	0	807403520	62	4499
2026-01-27 04:34:53.57	325.09	21.18	-45.7	-47.0	20.1	0.00e+00	0	43	0	809500672	62	4331
2026-01-27 04:34:54.58	324.86	21.13	-45.6	-46.9	20.3	0.00e+00	0	43	0	811597824	62	4261
2026-01-27 04:34:55.59	324.62	21.07	-45.7	-47.0	20.2	0.00e+00	0	43	0	812646400	62	4315
2026-01-27 04:34:56.59	324.39	21.01	-45.7	-47.0	20.2	0.00e+00	0	43	0	814743552	62	4319
2026-01-27 04:34:57.60	324.16	20.95	-45.7	-47.0	20.1	0.00e+00	0	43	0	816840704	62	4339
2026-01-27 04:34:58.61	323.92	20.89	-45.7	-47.1	20.1	0.00e+00	0	43	0	818937856	62	4356
2026-01-27 04:34:59.61	323.70	20.83	-45.8	-47.2	20.0	0.00e+00	0	43	0	821035008	62	4397
2026-01-27 04:35:00.62	323.46	20.77	-45.8	-47.1	20.1	0.00e+00	0	43	0	822083584	62	4369
2026-01-27 04:35:01.63	323.24	20.71	-45.8	-47.1	20.0	0.00e+00	0	43	0	824180736	62	4379
2026-01-27 04:35:02.63	323.01	20.64	-45.7	-47.0	20.2	0.00e+00	0	43	0	826277888	62	4317
2026-01-27 04:35:03.63	322.78	20.58	-45.4	-46.7	20.4	0.00e+00	0	43	0	828375040	62	4178
2026-01-27 04:35:04.64	322.56	20.52	-45.4	-46.7	20.5	0.00e+00	0	43	0	830472192	62	4184
2026-01-27 04:35:05.65	322.33	20.46	-45.3	-46.6	20.5	0.00e+00	0	43	0	831520768	62	4129
2026-01-27 04:35:06.65	322.11	20.40	-45.3	-46.6	20.6	0.00e+00	0	43	0	833617920	62	4120
2026-01-27 04:35:07.66	321.88	20.33	-45.3	-46.6	20.6	0.00e+00	0	43	0	835715072	62	4121
2026-01-27 04:35:08.67	321.66	20.27	-45.4	-46.6	20.5	0.00e+00	0	43	0	837812224	62	4143
2026-01-27 04:35:09.68	321.44	20.20	-45.4	-46.7	20.5	0.00e+00	0	43	0	839909376	62	4172
2026-01-27 04:35:10.69	321.22	20.14	-45.5	-46.8	20.4	0.00e+00	0	43	0	840957952	62	4196
2026-01-27 04:35:11.69	321.00	20.08	-45.5	-46.8	20.4	0.00e+00	0	43	0	843055104	62	4203
2026-01-27 04:35:12.70	320.78	20.01	-45.5	-46.8	20.4	0.00e+00	0	43	0	845152256	62	4200
2026-01-27 04:35:13.71	320.56	19.95	-45.4	-46.7	20.5	0.00e+00	0	43	0	847249408	62	4161
2026-01-27 04:35:14.71	320.34	19.88	-45.5	-46.8	20.4	0.00e+00	0	43	0	849346560	62	4223
2026-01-27 04:35:15.71	320.13	19.82	-45.5	-46.8	20.4	0.00e+00	0	43	0	850395136	62	4218
2026-01-27 04:35:16.72	319.91	19.75	-45.4	-46.7	20.5	0.00e+00	0	43	0	852492288	62	4153
2026-01-27 04:35:17.72	319.70	19.69	-45.5	-46.9	20.3	0.00e+00	0	43	0	854589440	62	4251
2026-01-27 04:35:18.73	319.49	19.62	-45.4	-46.7	20.5	0.00e+00	0	43	0	856686592	62	4160
2026-01-27 04:35:19.74	319.27	19.55	-45.4	-46.7	20.5	0.00e+00	0	43	0	858783744	62	4156
2026-01-27 04:35:20.75	319.06	19.49	-45.5	-46.8	20.4	0.00e+00	0	43	0	859832320	62	4210
2026-01-27 04:35:21.75	318.85	19.42	-45.4	-46.7	20.5	0.00e+00	0	43	0	861929472	62	4167
2026-01-27 04:35:22.76	318.64	19.35	-45.3	-46.6	20.5	0.00e+00	0	43	0	864026624	62	4137
2026-01-27 04:35:23.77	318.43	19.29	-45.3	-46.5	20.6	0.00e+00	0	43	0	866123776	62	4087
2026-01-27 04:35:24.77	318.23	19.22	-45.4	-46.7	20.5	0.00e+00	0	43	0	868220928	62	4159
2026-01-27 04:35:25.78	318.02	19.15	-45.4	-46.7	20.5	0.00e+00	0	43	0	869269504	62	4177
2026-01-27 04:35:26.79	317.81	19.08	-45.4	-46.7	20.4	0.00e+00	0	43	0	871366656	62	4190
2026-01-27 04:35:27.80	317.61	19.01	-45.5	-46.8	20.4	0.00e+00	0	43	0	873463808	62	4216
2026-01-27 04:35:28.81	317.40	18.95	-45.4	-46.7	20.4	0.00e+00	0	43	0	875560960	62	4176
2026-01-27 04:35:29.81	317.20	18.88	-45.4	-46.7	20.4	0.00e+00	0	43	0	877658112	62	4192
2026-01-27 04:35:30.82	317.00	18.81	-45.5	-46.8	20.4	0.00e+00	0	43	0	878706688	62	4206
2026-01-27 04:35:31.83	316.80	18.74	-45.5	-46.8	20.4	0.00e+00	0	43	0	880803840	62	4209
2026-01-27 04:35:32.84	316.60	18.67	-45.5	-46.9	20.3	0.00e+00	0	43	0	882900992	62	4255
2026-01-27 04:35:33.85	316.40	18.60	-45.7	-47.0	20.2	0.00e+00	0	43	0	884998144	62	4322
2026-01-27 04:35:34.85	316.20	18.53	-45.6	-46.9	20.2	0.00e+00	0	43	0	887095296	62	4269
2026-01-27 04:35:35.86	316.00	18.46	-45.6	-46.9	20.2	0.00e+00	0	43	0	888143872	62	4288
2026-01-27 04:35:36.86	315.81	18.39	-45.7	-47.1	20.1	0.00e+00	0	43	0	890241024	62	4360
2026-01-27 04:35:37.87	315.61	18.32	-45.6	-46.9	20.2	0.00e+00	0	43	0	892338176	62	4288
2026-01-27 04:35:38.87	315.42	18.25	-45.5	-46.8	20.4	0.00e+00	0	43	0	894435328	62	4208
2026-01-27 04:35:39.88	315.22	18.18	-45.5	-46.9	20.3	0.00e+00	0	43	0	896532480	62	4243
2026-01-27 04:35:40.89	315.03	18.11	-45.5	-46.8	20.3	0.00e+00	0	43	0	897581056	62	4236
2026-01-27 04:35:41.90	314.84	18.04	-45.6	-46.9	20.3	0.00e+00	0	43	0	899678208	62	4257
2026-01-27 04:35:42.91	314.64	17.97	-45.5	-46.8	20.4	0.00e+00	0	43	0	901775360	62	4199
2026-01-27 04:35:43.91	314.45	17.90	-45.4	-46.7	20.4	0.00e+00	0	43	0	903872512	62	4184
2026-01-27 04:35:44.92	314.26	17.83	-45.4	-46.7	20.4	0.00e+00	0	43	0	905969664	62	4162
2026-01-27 04:35:45.93	314.08	17.76	-45.4	-46.7	20.4	0.00e+00	0	43	0	907018240	62	4167
2026-01-27 04:35:46.93	313.89	17.69	-45.4	-46.7	20.4	0.00e+00	0	43	0	909115392	62	4175
2026-01-27 04:35:47.93	313.70	17.62	-45.3	-46.6	20.5	0.00e+00	0	43	0	911212544	62	4126
2026-01-27 04:35:48.94	313.52	17.55	-45.3	-46.5	20.5	0.00e+00	0	43	0	913309696	62	4097
2026-01-27 04:35:49.95	313.33	17.48	-45.3	-46.6	20.5	0.00e+00	0	43	0	915406848	62	4100
2026-01-27 04:35:50.96	313.15	17.40	-45.2	-46.5	20.5	0.00e+00	0	43	0	916455424	62	4084
2026-01-27 04:35:51.97	312.96	17.33	-45.3	-46.6	20.5	0.00e+00	0	43	0	918552576	62	4119
2026-01-27 04:35:52.97	312.78	17.26	-45.3	-46.6	20.4	0.00e+00	0	43	0	920649728	62	4134
2026-01-27 04:35:53.98	312.60	17.19	-45.1	-46.3	20.8	0.00e+00	0	43	0	922746880	62	3986
2026-01-27 04:35:54.98	312.42	17.12	-45.1	-46.3	20.7	0.00e+00	0	43	0	924844032	62	4001
2026-01-27 04:35:55.99	312.24	17.05	-44.8	-46.1	21.0	0.00e+00	0	43	0	925892608	61	4099
2026-01-27 04:35:56.99	312.06	16.97	-44.6	-45.8	21.2	0.00e+00	0	43	0	927989760	61	3979
2026-01-27 04:35:58.00	311.89	16.90	-44.7	-45.9	21.1	0.00e+00	0	43	0	930086912	61	4051
2026-01-27 04:35:59.01	311.71	16.83	-44.8	-46.0	21.1	0.00e+00	0	43	0	932184064	61	4058
2026-01-27 04:36:00.02	311.53	16.76	-44.8	-46.0	21.0	0.00e+00	0	43	0	934281216	61	4082
2026-01-27 04:36:01.03	311.35	16.68	-44.7	-46.0	21.0	0.00e+00	0	43	0	935329792	61	4063
2026-01-27 04:36:02.03	311.18	16.61	-44.8	-46.1	20.9	0.00e+00	0	43	0	937426944	61	4108
2026-01-27 04:36:03.04	311.01	16.54	-45.0	-46.2	20.8	0.00e+00	0	43	0	939524096	61	4182
2026-01-27 04:36:04.05	310.83	16.47	-45.0	-46.2	20.8	0.00e+00	0	43	0	941621248	61	4192
2026-01-27 04:36:05.05	310.66	16.40	-44.9	-46.1	20.9	0.00e+00	0	43	0	943718400	61	4138
2026-01-27 04:36:06.05	310.49	16.32	-44.7	-45.9	21.1	0.00e+00	0	43	0	944766976	61	4030
2026-01-27 04:36:07.06	310.32	16.25	-44.7	-45.9	21.0	0.00e+00	0	43	0	946864128	61	4049
2026-01-27 04:36:08.07	310.15	16.18	-44.7	-45.9	21.1	0.00e+00	0	43	0	948961280	61	4027
2026-01-27 04:36:09.07	309.99	16.11	-44.6	-45.8	21.2	0.00e+00	0	43	0	951058432	61	3960
2026-01-27 04:36:10.08	309.82	16.03	-44.5	-45.6	21.3	0.00e+00	0	43	0	953155584	60	4143
2026-01-27 04:36:11.08	309.65	15.96	-44.4	-45.6	21.4	0.00e+00	0	43	0	954204160	60	4119
2026-01-27 04:36:12.09	309.48	15.89	-44.4	-45.6	21.3	0.00e+00	0	43	0	956301312	60	4130
2026-01-27 04:36:13.09	309.32	15.82	-44.5	-45.7	21.3	0.00e+00	0	43	0	958398464	60	4162
2026-01-27 04:36:14.10	309.16	15.74	-44.5	-45.7	21.3	0.00e+00	0	43	0	960495616	60	4146
2026-01-27 04:36:15.11	308.99	15.67	-44.6	-45.8	21.2	0.00e+00	0	43	0	962592768	60	4194
2026-01-27 04:36:16.12	308.83	15.60	-44.6	-45.8	21.2	0.00e+00	0	43	0	963641344	60	4216
2026-01-27 04:36:17.12	308.67	15.52	-44.7	-45.8	21.1	0.00e+00	0	43	0	965738496	60	4240
2026-01-27 04:36:18.13	308.50	15.45	-44.7	-45.9	21.0	0.00e+00	0	43	0	967835648	60	4284
2026-01-27 04:36:19.14	308.34	15.38	-44.9	-46.1	20.9	0.00e+00	0	43	0	969932800	60	4369
2026-01-27 04:36:20.15	308.18	15.30	-44.8	-46.1	20.9	0.00e+00	0	43	0	972029952	60	4355
2026-01-27 04:36:21.16	308.02	15.23	-44.6	-45.8	21.1	0.00e+00	0	43	0	973078528	60	4211
2026-01-27 04:36:22.16	307.87	15.16	-44.5	-45.7	21.2	0.00e+00	0	43	0	975175680	60	4182
2026-01-27 04:36:23.17	307.71	15.09	-44.5	-45.7	21.3	0.00e+00	0	43	0	977272832	60	4154
2026-01-27 04:36:24.18	307.55	15.01	-44.6	-45.8	21.2	0.00e+00	0	43	0	979369984	60	4194
2026-01-27 04:36:25.19	307.40	14.94	-44.6	-45.8	21.1	0.00e+00	0	43	0	981467136	60	4208
2026-01-27 04:36:26.19	307.24	14.87	-44.7	-45.9	21.0	0.00e+00	0	43	0	982515712	60	4247
2026-01-27 04:36:27.20	307.09	14.79	-44.7	-45.9	21.0	0.00e+00	0	43	0	984612864	60	4289
2026-01-27 04:36:28.21	306.93	14.72	-44.7	-45.9	21.0	0.00e+00	0	43	0	986710016	60	4267
2026-01-27 04:36:29.22	306.78	14.65	-44.8	-46.0	20.9	0.00e+00	0	43	0	988807168	60	4329
2026-01-27 04:36:30.23	306.63	14.57	-44.7	-45.9	21.0	0.00e+00	0	43	0	990904320	60	4251
2026-01-27 04:36:31.24	306.48	14.50	-44.7	-45.9	21.0	0.00e+00	0	43	0	991952896	60	4291
2026-01-27 04:36:32.25	306.33	14.43	-44.8	-46.0	20.9	0.00e+00	0	43	0	994050048	60	4334
2026-01-27 04:36:33.25	306.18	14.36	-44.8	-46.1	20.8	0.00e+00	0	43	0	996147200	60	4356
2026-01-27 04:36:34.26	306.03	14.28	-44.9	-46.2	20.8	0.00e+00	0	43	0	998244352	60	4402
2026-01-27 04:36:35.26	305.88	14.21	-45.0	-46.3	20.7	0.00e+00	0	43	0	1000341504	60	4451
2026-01-27 04:36:36.27	305.73	14.14	-45.0	-46.2	20.7	0.00e+00	0	43	0	1001390080	60	4429
2026-01-27 04:36:37.28	305.58	14.07	-45.0	-46.2	20.7	0.00e+00	0	43	0	1003487232	60	4430
2026-01-27 04:36:38.28	305.44	13.99	-45.1	-46.4	20.5	0.00e+00	0	43	0	1005584384	60	4538
2026-01-27 04:36:39.29	305.29	13.92	-45.2	-46.5	20.4	0.00e+00	0	43	0	1007681536	61	4334
2026-01-27 04:36:40.30	305.15	13.85	-45.4	-46.7	20.2	0.00e+00	0	43	0	1009778688	61	4418
2026-01-27 04:36:41.31	305.00	13.77	-45.4	-46.7	20.2	0.00e+00	0	43	0	1010827264	61	4423
2026-01-27 04:36:42.31	304.86	13.70	-45.5	-46.9	20.1	0.00e+00	0	43	0	1012924416	61	4496
2026-01-27 04:36:43.32	304.72	13.63	-45.6	-46.9	19.9	0.00e+00	0	43	0	1015021568	61	4545
2026-01-27 04:36:44.33	304.58	13.56	-45.6	-47.0	20.0	0.00e+00	0	43	0	1017118720	61	4550
2026-01-27 04:36:45.33	304.44	13.48	-45.5	-46.8	20.1	0.00e+00	0	43	0	1019215872	61	4484
2026-01-27 04:36:46.34	304.30	13.41	-45.4	-46.7	20.2	0.00e+00	0	43	0	1020264448	61	4434
2026-01-27 04:36:47.35	304.16	13.34	-45.4	-46.7	20.2	0.00e+00	0	43	0	1022361600	61	4440
2026-01-27 04:36:48.36	304.02	13.27	-45.2	-46.5	20.4	0.00e+00	0	43	0	1024458752	61	4327
2026-01-27 04:36:49.36	303.88	13.20	-45.3	-46.6	20.3	0.00e+00	0	43	0	1026555904	61	4381
2026-01-27 04:36:50.37	303.74	13.12	-45.2	-46.6	20.3	0.00e+00	0	43	0	1028653056	61	4351
2026-01-27 04:36:51.37	303.61	13.05	-45.4	-46.7	20.2	0.00e+00	0	43	0	1029701632	61	4421
2026-01-27 04:36:52.36	303.47	12.98	-45.4	-46.7	20.2	0.00e+00	0	43	0	1031798784	61	4412
2026-01-27 04:36:53.37	303.34	12.91	-45.3	-46.7	20.2	0.00e+00	0	43	0	1033895936	61	4406
2026-01-27 04:36:54.38	303.20	12.84	-45.5	-46.9	20.0	0.00e+00	0	43	0	1035993088	61	4533
2026-01-27 04:36:55.39	303.07	12.76	-45.6	-47.0	19.9	0.00e+00	0	43	0	1038090240	61	4583
2026-01-27 04:36:56.39	302.93	12.69	-45.7	-47.1	19.8	0.00e+00	0	43	0	1039138816	61	4614
2026-01-27 04:36:57.40	302.80	12.62	-45.8	-47.3	19.7	0.00e+00	0	43	0	1041235968	62	4449
2026-01-27 04:36:58.40	302.67	12.55	-45.9	-47.4	19.6	0.00e+00	0	43	0	1043333120	62	4500
2026-01-27 04:36:59.41	302.54	12.48	-45.9	-47.4	19.5	0.00e+00	0	43	0	1045430272	62	4508
2026-01-27 04:37:00.42	302.41	12.40	-45.9	-47.4	19.5	0.00e+00	0	43	0	1047527424	62	4506
2026-01-27 04:37:01.42	302.28	12.33	-45.7	-47.1	19.8	0.00e+00	0	43	0	1048576000	62	4344
2026-01-27 04:37:02.43	302.15	12.26	-45.8	-47.3	19.6	0.00e+00	0	43	0	1050673152	62	4442
2026-01-27 04:37:03.44	302.02	12.19	-45.8	-47.2	19.7	0.00e+00	0	43	0	1052770304	62	4417
2026-01-27 04:37:04.44	301.89	12.12	-45.8	-47.2	19.7	0.00e+00	0	43	0	1054867456	62	4410
2026-01-27 04:37:05.45	301.76	12.05	-45.7	-47.2	19.6	0.00e+00	0	43	0	1056964608	62	4406
2026-01-27 04:37:06.45	301.64	11.98	-45.8	-47.3	19.6	0.00e+00	0	43	0	1058013184	62	4467
2026-01-27 04:37:07.46	301.51	11.91	-45.9	-47.3	19.5	0.00e+00	0	43	0	1060110336	62	4492
2026-01-27 04:37:08.46	301.39	11.83	-46.0	-47.5	19.4	0.00e+00	0	43	0	1062207488	62	4565
2026-01-27 04:37:09.47	301.26	11.76	-46.0	-47.4	19.4	0.00e+00	0	43	0	1064304640	62	4537
2026-01-27 04:37:10.48	301.13	11.69	-46.0	-47.5	19.4	0.00e+00	0	43	0	1066401792	62	4564
2026-01-27 04:37:11.49	301.01	11.62	-45.9	-47.4	19.5	0.00e+00	0	43	0	1067450368	62	4496
2026-01-27 04:37:12.50	300.89	11.55	-46.0	-47.5	19.3	0.00e+00	0	43	0	1069547520	62	4588
2026-01-27 04:37:13.50	300.77	11.48	-45.9	-47.3	19.5	0.00e+00	0	43	0	1071644672	62	4474
2026-01-27 04:37:14.51	300.64	11.41	-46.0	-47.4	19.4	0.00e+00	0	43	0	1073741824	62	4545
2026-01-27 04:37:15.52	300.52	11.34	-46.0	-47.4	19.3	0.00e+00	0	43	0	1075838976	62	4538
2026-01-27 04:37:16.53	300.40	11.27	-46.0	-47.5	19.3	0.00e+00	0	43	0	1076887552	62	4592
2026-01-27 04:37:17.53	300.28	11.20	-46.1	-47.6	19.3	0.00e+00	0	43	0	1078984704	62	4612
2026-01-27 04:37:18.54	300.16	11.13	-46.1	-47.6	19.2	0.00e+00	0	43	0	1081081856	62	4620
2026-01-27 04:37:19.55	300.04	11.06	-46.2	-47.7	19.1	0.00e+00	0	43	0	1083179008	62	4686
2026-01-27 04:37:20.56	299.92	10.99	-46.2	-47.8	19.0	0.00e+00	0	43	0	1085276160	63	4447
2026-01-27 04:37:21.57	299.80	10.91	-46.3	-47.9	18.9	0.00e+00	0	43	0	1086324736	63	4539
2026-01-27 04:37:22.57	299.69	10.85	-46.4	-48.0	18.9	0.00e+00	0	43	0	1088421888	63	4556
2026-01-27 04:37:23.58	299.57	10.78	-46.4	-48.0	18.9	0.00e+00	0	43	0	1090519040	63	4552
2026-01-27 04:37:24.58	299.45	10.71	-46.4	-48.0	18.9	0.00e+00	0	43	0	1092616192	63	4546
2026-01-27 04:37:25.59	299.34	10.64	-46.4	-48.1	18.7	0.00e+00	0	43	0	1094713344	63	4603
2026-01-27 04:37:26.59	299.22	10.57	-46.5	-48.1	18.7	0.00e+00	0	43	0	1095761920	63	4640
2026-01-27 04:37:27.60	299.11	10.50	-46.5	-48.1	18.7	0.00e+00	0	43	0	1097859072	63	4631
2026-01-27 04:37:28.61	298.99	10.43	-46.4	-48.1	18.7	0.00e+00	0	43	0	1099956224	63	4605
2026-01-27 04:37:29.61	298.88	10.36	-46.3	-47.8	18.9	0.00e+00	0	43	0	1102053376	63	4487
2026-01-27 04:37:30.62	298.77	10.29	-46.2	-47.7	19.0	0.00e+00	0	43	0	1104150528	63	4441
2026-01-27 04:37:31.63	298.66	10.22	-46.2	-47.8	19.0	0.00e+00	0	43	0	1105199104	63	4456
2026-01-27 04:37:32.64	298.54	10.15	-46.2	-47.8	19.0	0.00e+00	0	43	0	1107296256	63	4452
2026-01-27 04:37:33.65	298.43	10.08	-46.2	-47.7	19.1	0.00e+00	0	43	0	1109393408	63	4436
2026-01-27 04:37:34.65	298.32	10.01	-46.3	-47.9	18.9	0.00e+00	0	43	0	1111490560	63	4494
2026-01-27 04:37:35.65	298.21	9.94	-46.3	-47.9	18.9	0.00e+00	0	43	0	1113587712	63	4523
2026-01-27 04:37:36.66	298.10	9.87	-46.4	-48.1	18.7	0.00e+00	0	43	0	1114636288	63	4602
2026-01-27 04:37:37.67	297.99	9.80	-46.5	-48.2	18.6	0.00e+00	0	43	0	1116733440	63	4653
2026-01-27 04:37:38.68	297.89	9.74	-46.7	-48.4	18.4	0.00e+00	0	43	0	1118830592	63	4763
2026-01-27 04:37:39.69	297.78	9.67	-46.6	-48.3	18.4	0.00e+00	0	43	0	1120927744	63	4739
2026-01-27 04:37:40.69	297.67	9.60	-46.8	-48.6	18.0	0.00e+00	0	43	0	1123024896	64	4629
2026-01-27 04:37:41.70	297.56	9.53	-46.7	-48.5	18.2	0.00e+00	0	43	0	1124073472	64	4564
2026-01-27 04:37:42.71	297.46	9.46	-46.9	-48.7	17.9	0.00e+00	0	43	0	1126170624	64	4690
2026-01-27 04:37:43.71	297.35	9.39	-46.8	-48.6	18.0	0.00e+00	0	43	0	1128267776	64	4625
2026-01-27 04:37:44.72	297.24	9.32	-46.9	-48.7	18.0	0.00e+00	0	43	0	1130364928	64	4684
2026-01-27 04:37:45.73	297.14	9.26	-46.9	-48.7	17.9	0.00e+00	0	43	0	1132462080	64	4674
2026-01-27 04:37:46.73	297.04	9.19	-46.8	-48.6	18.0	0.00e+00	0	43	0	1133510656	64	4617
2026-01-27 04:37:47.74	296.93	9.12	-47.0	-48.8	17.8	0.00e+00	0	43	0	1135607808	64	4739
2026-01-27 04:37:48.74	296.83	9.05	-47.0	-48.8	17.8	0.00e+00	0	43	0	1137704960	64	4737
2026-01-27 04:37:49.74	296.73	8.99	-47.0	-48.8	17.8	0.00e+00	0	43	0	1139802112	64	4747
2026-01-27 04:37:50.75	296.62	8.92	-46.9	-48.8	17.8	0.00e+00	0	43	0	1141899264	64	4723
2026-01-27 04:37:51.76	296.52	8.85	-47.0	-48.8	17.7	0.00e+00	0	43	0	1142947840	64	4757
2026-01-27 04:37:52.77	296.42	8.78	-47.1	-49.0	17.6	0.00e+00	0	43	0	1145044992	64	4829
2026-01-27 04:37:53.77	296.32	8.72	-47.1	-49.1	17.5	0.00e+00	0	43	0	1147142144	64	4876
2026-01-27 04:37:54.77	296.22	8.65	-47.2	-49.2	17.4	0.00e+00	0	43	0	1149239296	65	4665
2026-01-27 04:37:55.79	296.12	8.58	-47.3	-49.3	17.3	0.00e+00	0	43	0	1151336448	65	4733
2026-01-27 04:37:56.79	296.02	8.51	-47.3	-49.2	17.3	0.00e+00	0	43	0	1152385024	65	4702
2026-01-27 04:37:57.79	295.92	8.45	-47.4	-49.4	17.2	0.00e+00	0	43	0	1154482176	65	4764
2026-01-27 04:37:58.80	295.82	8.38	-47.4	-49.5	17.2	0.00e+00	0	43	0	1156579328	65	4819
2026-01-27 04:37:59.81	295.72	8.31	-47.4	-49.5	17.1	0.00e+00	0	43	0	1158676480	65	4830
2026-01-27 04:38:00.81	295.63	8.25	-47.4	-49.5	17.1	0.00e+00	0	43	0	1160773632	65	4820
2026-01-27 04:38:01.81	295.53	8.18	-47.4	-49.4	17.2	0.00e+00	0	43	0	1161822208	65	4785
2026-01-27 04:38:02.82	295.43	8.11	-47.4	-49.4	17.2	0.00e+00	0	43	0	1163919360	65	4776
2026-01-27 04:38:03.83	295.34	8.05	-47.3	-49.3	17.3	0.00e+00	0	43	0	1166016512	65	4710
2026-01-27 04:38:04.83	295.24	7.98	-47.4	-49.4	17.1	0.00e+00	0	43	0	1168113664	65	4803
2026-01-27 04:38:05.84	295.15	7.92	-46.9	-48.8	17.7	0.00e+00	0	43	0	1170210816	65	4462
2026-01-27 04:38:06.85	295.05	7.85	-47.3	-49.4	17.2	0.00e+00	0	43	0	1171259392	65	4761
2026-01-27 04:38:07.86	294.95	7.78	-47.2	-49.1	17.4	0.00e+00	0	43	0	1173356544	65	4645
2026-01-27 04:38:08.87	294.86	7.72	-47.2	-49.2	17.4	0.00e+00	0	43	0	1175453696	65	4663
2026-01-27 04:38:09.87	294.77	7.65	-47.3	-49.3	17.3	0.00e+00	0	43	0	1177550848	65	4711
2026-01-27 04:38:10.88	294.67	7.59	-47.4	-49.5	17.0	0.00e+00	0	43	0	1179648000	65	4842
2026-01-27 04:38:11.89	294.58	7.52	-47.4	-49.4	17.1	0.00e+00	0	43	0	1180696576	65	4811
2026-01-27 04:38:12.89	294.49	7.45	-47.4	-49.4	17.1	0.00e+00	0	43	0	1182793728	65	4775
2026-01-27 04:38:13.90	294.40	7.39	-47.5	-49.5	17.0	0.00e+00	0	43	0	1184890880	65	4853
2026-01-27 04:38:14.91	294.31	7.32	-47.5	-49.6	16.9	0.00e+00	0	43	0	1186988032	65	4911
2026-01-27 04:38:15.92	294.21	7.26	-47.6	-49.8	16.7	0.00e+00	0	43	0	1189085184	65	5010
2026-01-27 04:38:16.93	294.12	7.19	-47.6	-49.7	16.8	0.00e+00	0	43	0	1190133760	65	4949
2026-01-27 04:38:17.93	294.03	7.13	-47.6	-49.7	16.8	0.00e+00	0	43	0	1192230912	65	4950
2026-01-27 04:38:18.93	293.94	7.06	-47.6	-49.7	16.7	0.00e+00	0	43	0	1194328064	65	4981
2026-01-27 04:38:19.94	293.85	7.00	-47.5	-49.6	16.8	0.00e+00	0	43	0	1196425216	65	4922
2026-01-27 04:38:20.95	293.76	6.93	-47.7	-49.8	16.6	0.00e+00	0	43	0	1198522368	65	5030
2026-01-27 04:38:21.95	293.68	6.87	-47.8	-50.0	16.4	0.00e+00	0	43	0	1199570944	66	4867
2026-01-27 04:38:22.96	293.59	6.80	-48.0	-50.4	16.1	0.00e+00	0	43	0	1201668096	66	5058
2026-01-27 04:38:23.97	293.50	6.74	-47.8	-50.0	16.4	0.00e+00	0	43	0	1203765248	66	4870
2026-01-27 04:38:24.97	293.41	6.68	-47.9	-50.1	16.3	0.00e+00	0	43	0	1205862400	66	4922
2026-01-27 04:38:25.98	293.33	6.61	-48.0	-50.3	16.1	0.00e+00	0	43	0	1207959552	66	5014
2026-01-27 04:38:26.99	293.24	6.55	-48.0	-50.4	16.1	0.00e+00	0	43	0	1209008128	66	5057
2026-01-27 04:38:27.99	293.15	6.48	-47.9	-50.2	16.2	0.00e+00	0	43	0	1211105280	66	4944
2026-01-27 04:38:29.00	293.07	6.42	-48.1	-50.5	15.9	0.00e+00	0	43	0	1213202432	66	5114
2026-01-27 04:38:30.01	292.98	6.35	-48.0	-50.3	16.1	0.00e+00	0	43	0	1215299584	66	5033
2026-01-27 04:38:31.02	292.90	6.29	-47.8	-50.1	16.2	0.00e+00	0	43	0	1217396736	66	4904
2026-01-27 04:38:32.02	292.81	6.23	-48.1	-50.6	15.7	0.00e+00	0	43	0	1218445312	66	5185
2026-01-27 04:38:33.03	292.73	6.16	-47.9	-50.2	16.2	0.00e+00	0	43	0	1220542464	66	4976
2026-01-27 04:38:34.03	292.64	6.10	-48.1	-50.5	15.9	0.00e+00	0	43	0	1222639616	66	5131
