passes_logs/2026/01/27/R3.2S_Murmansk/R3.2S_Murmansk__20260127_014912_AQUA_rec.log

#Pass ID: 20260127_014912_AQUA
#Satellite: AQUA
#Configuration: AQUA
#almurnet v.1.7.20251203
#Start time: 2026-01-27 01:49:13

#Version: 2.2.20231116
#Station: R3.2S_Murmansk
#Location: 33.079688 lon 68.888172 lat
#TLE: 1 27424U 02022A   26026.53345137  .00001758  00000+0  36150-3 0  9990
#TLE: 2 27424  98.4100 353.1559 0001880  64.8012  49.4917 14.61862630262575

#Time	Az	El	Level	Level2	SNR	BER	BlckErr	Temp	State	Recorded	gain1	gain2
2026-01-27 01:49:13.14	22.40	2.04	-54.5	-72.2	3.8	7.44e-01	0	40	0	0	81	26377
2026-01-27 01:49:14.15	22.42	2.11	-53.8	-71.7	3.8	7.45e-01	0	41	104	0	78	29392
2026-01-27 01:49:15.15	22.44	2.18	-53.8	-71.7	3.8	7.45e-01	0	41	104	0	78	29428
2026-01-27 01:49:16.16	22.46	2.24	-53.8	-71.6	3.8	7.45e-01	0	41	104	0	78	29159
2026-01-27 01:49:17.17	22.48	2.31	-53.8	-71.5	3.8	7.48e-01	0	41	104	0	78	28981
2026-01-27 01:49:18.17	22.50	2.37	-53.8	-71.3	3.8	7.47e-01	0	41	104	0	78	28242
2026-01-27 01:49:19.18	22.53	2.44	-53.8	-71.0	3.8	7.41e-01	0	41	104	0	78	27359
2026-01-27 01:49:20.19	22.55	2.51	-53.8	-70.9	3.8	7.45e-01	0	41	104	0	78	26862
2026-01-27 01:49:21.20	22.57	2.58	-53.8	-70.5	3.8	7.47e-01	0	41	104	0	78	25798
2026-01-27 01:49:22.21	22.59	2.64	-53.8	-70.5	3.8	7.47e-01	0	41	104	0	78	25832
2026-01-27 01:49:23.22	22.62	2.71	-53.8	-70.4	3.8	7.44e-01	0	41	104	0	78	25300
2026-01-27 01:49:24.22	22.64	2.78	-53.8	-70.5	3.8	7.42e-01	0	41	104	0	78	25627
2026-01-27 01:49:25.24	22.66	2.85	-53.8	-70.4	3.8	7.45e-01	0	41	104	0	78	25351
2026-01-27 01:49:26.24	22.69	2.92	-53.8	-70.9	3.8	7.44e-01	0	41	104	0	78	26888
2026-01-27 01:49:27.25	22.71	2.98	-53.8	-71.0	3.8	7.45e-01	0	41	104	0	78	27111
2026-01-27 01:49:28.26	22.73	3.05	-53.8	-70.9	3.8	7.45e-01	0	41	104	0	78	26989
2026-01-27 01:49:29.27	22.75	3.12	-53.8	-70.6	3.8	7.44e-01	0	41	104	0	78	26077
2026-01-27 01:49:30.28	22.78	3.19	-53.8	-70.4	3.8	7.43e-01	0	41	104	0	78	25310
2026-01-27 01:49:31.29	22.80	3.26	-53.8	-70.0	3.8	7.40e-01	0	41	104	0	78	24302
2026-01-27 01:49:32.29	22.82	3.33	-53.7	-69.3	3.9	7.41e-01	0	41	104	0	78	22483
2026-01-27 01:49:33.30	22.85	3.40	-53.7	-68.6	4.1	7.37e-01	0	41	104	0	78	20630
2026-01-27 01:49:34.31	22.87	3.47	-53.7	-68.8	4.1	7.36e-01	0	41	104	0	78	21035
2026-01-27 01:49:35.31	22.89	3.54	-53.7	-68.4	4.1	7.36e-01	0	41	104	0	78	20166
2026-01-27 01:49:36.32	22.92	3.61	-53.6	-66.8	4.6	7.21e-01	0	41	104	0	78	16735
2026-01-27 01:49:37.33	22.94	3.68	-53.4	-64.1	6.2	6.78e-01	130	42	0	0	78	12321
2026-01-27 01:49:38.33	22.97	3.75	-53.1	-61.5	8.5	6.36e-01	29	41	0	2097152	78	9164
2026-01-27 01:49:39.34	22.99	3.82	-52.4	-58.5	11.8	6.09e-01	0	42	0	4194304	76	7220
2026-01-27 01:49:40.35	23.01	3.89	-51.8	-56.8	13.6	6.03e-01	0	41	0	5767168	75	6283
2026-01-27 01:49:41.36	23.04	3.96	-51.0	-54.9	15.6	6.04e-01	0	41	0	7864320	74	5344
2026-01-27 01:49:42.37	23.06	4.03	-50.0	-53.0	17.5	6.01e-01	0	41	0	9961472	71	5117
2026-01-27 01:49:43.37	23.09	4.11	-49.1	-51.6	18.9	6.02e-01	0	42	0	11534336	70	4632
2026-01-27 01:49:44.38	23.11	4.18	-48.0	-50.0	20.6	6.02e-01	0	42	0	13631488	67	4593
2026-01-27 01:49:45.39	23.14	4.25	-47.8	-49.8	20.9	6.03e-01	0	42	0	15204352	67	4466
2026-01-27 01:49:46.40	23.16	4.32	-47.0	-48.7	22.0	6.01e-01	0	41	0	17301504	65	4408
2026-01-27 01:49:47.41	23.19	4.39	-46.7	-48.4	22.3	6.00e-01	0	41	0	18874368	65	4265
2026-01-27 01:49:48.41	23.21	4.47	-46.6	-48.2	22.4	6.03e-01	0	42	0	20971520	65	4173
2026-01-27 01:49:49.42	23.24	4.54	-46.5	-48.1	22.2	6.00e-01	0	42	0	23068672	64	4378
2026-01-27 01:49:50.43	23.26	4.61	-46.8	-48.5	20.9	6.04e-01	0	41	0	24641536	64	4585
2026-01-27 01:49:51.44	23.29	4.69	-46.9	-48.7	19.6	6.04e-01	0	42	0	26738688	64	4655
2026-01-27 01:49:52.45	23.31	4.76	-47.4	-49.3	17.9	6.03e-01	0	42	0	28835840	65	4720
2026-01-27 01:49:53.46	23.34	4.83	-48.3	-50.5	15.4	6.04e-01	0	42	0	30408704	67	4850
2026-01-27 01:49:54.47	23.36	4.91	-48.7	-51.0	14.1	6.05e-01	0	42	0	32505856	67	5139
2026-01-27 01:49:55.48	23.39	4.98	-49.6	-52.5	11.6	6.12e-01	0	42	0	34078720	69	5419
2026-01-27 01:49:56.48	23.42	5.06	-49.6	-52.4	10.5	6.14e-01	0	42	0	36175872	71	4761
2026-01-27 01:49:57.49	23.44	5.13	-47.4	-49.1	17.1	6.01e-01	0	42	0	38273024	66	4388
2026-01-27 01:49:58.50	23.47	5.21	-48.8	-51.1	15.3	6.06e-01	0	42	0	39845888	67	5167
2026-01-27 01:49:59.51	23.50	5.28	-50.8	-54.8	6.6	6.87e-01	69	42	0	40370176	73	5595
2026-01-27 01:50:00.51	23.52	5.36	-46.4	-47.9	18.8	6.00e-01	0	42	0	40370176	64	4262
2026-01-27 01:50:01.52	23.55	5.43	-47.0	-48.7	21.8	6.02e-01	0	42	0	42467328	66	4162
2026-01-27 01:50:02.53	23.57	5.51	-46.3	-47.8	21.8	6.01e-01	0	42	0	44564480	64	4241
2026-01-27 01:50:03.53	23.60	5.58	-46.1	-47.6	22.6	6.02e-01	0	42	0	46137344	63	4365
2026-01-27 01:50:04.54	23.63	5.66	-46.2	-47.7	22.4	5.98e-01	0	42	0	48234496	63	4420
2026-01-27 01:50:05.55	23.66	5.74	-46.1	-47.6	22.7	6.01e-01	0	42	0	50331648	63	4374
2026-01-27 01:50:06.55	23.68	5.81	-46.1	-47.6	22.5	6.01e-01	0	42	0	51904512	63	4387
2026-01-27 01:50:07.56	23.71	5.89	-46.2	-47.7	22.5	6.01e-01	0	42	0	54001664	63	4421
2026-01-27 01:50:08.57	23.74	5.97	-46.1	-47.6	22.5	6.02e-01	0	42	0	55574528	63	4355
2026-01-27 01:50:09.58	23.77	6.04	-46.0	-47.4	21.7	6.02e-01	0	42	0	57671680	63	4291
2026-01-27 01:50:10.59	23.79	6.12	-45.9	-47.4	22.5	6.01e-01	0	42	0	59244544	63	4260
2026-01-27 01:50:11.59	23.82	6.20	-46.0	-47.5	22.3	6.05e-01	0	42	0	61341696	63	4306
2026-01-27 01:50:12.59	23.85	6.28	-46.0	-47.5	21.6	6.01e-01	0	42	0	63438848	63	4336
2026-01-27 01:50:13.60	23.88	6.36	-45.9	-47.3	22.6	6.03e-01	0	42	0	65011712	63	4226
2026-01-27 01:50:14.61	23.91	6.44	-45.9	-47.3	22.4	6.04e-01	0	42	0	67108864	63	4219
2026-01-27 01:50:15.61	23.93	6.51	-45.9	-47.3	21.7	6.01e-01	0	42	0	68681728	63	4230
2026-01-27 01:50:16.62	23.96	6.59	-45.8	-47.2	22.0	6.02e-01	0	42	0	70778880	63	4165
2026-01-27 01:50:17.63	23.99	6.67	-45.8	-47.2	22.2	6.03e-01	0	42	0	72876032	63	4175
2026-01-27 01:50:18.63	24.02	6.75	-45.8	-47.3	21.8	6.00e-01	0	42	0	74448896	63	4216
2026-01-27 01:50:19.64	24.05	6.83	-45.7	-47.1	22.4	6.00e-01	0	42	0	76546048	63	4110
2026-01-27 01:50:20.65	24.08	6.91	-45.8	-47.2	22.5	6.01e-01	0	42	0	78643200	63	4164
2026-01-27 01:50:21.65	24.11	6.99	-45.8	-47.2	22.7	6.00e-01	0	42	0	80216064	63	4158
2026-01-27 01:50:22.66	24.14	7.07	-45.8	-47.3	22.6	6.04e-01	0	42	0	82313216	63	4206
2026-01-27 01:50:23.67	24.17	7.16	-45.8	-47.2	22.7	6.00e-01	0	42	0	83886080	63	4191
2026-01-27 01:50:24.68	24.20	7.24	-45.6	-47.0	23.0	6.02e-01	0	42	0	85983232	63	4092
2026-01-27 01:50:25.69	24.23	7.32	-45.7	-47.1	22.9	6.04e-01	0	42	0	87556096	63	4118
2026-01-27 01:50:26.70	24.26	7.40	-45.7	-47.1	22.8	6.03e-01	0	42	0	89653248	63	4142
2026-01-27 01:50:27.70	24.29	7.48	-45.8	-47.2	22.8	6.03e-01	0	42	0	91750400	63	4179
2026-01-27 01:50:28.71	24.32	7.57	-45.6	-47.0	23.2	6.04e-01	0	42	0	93323264	63	4067
2026-01-27 01:50:29.72	24.35	7.65	-45.9	-47.4	22.8	6.02e-01	0	42	0	95420416	63	4248
2026-01-27 01:50:30.73	24.38	7.73	-45.7	-47.1	23.4	6.04e-01	0	42	0	96993280	63	4111
2026-01-27 01:50:31.74	24.41	7.82	-45.7	-47.1	23.6	6.01e-01	0	42	0	99090432	63	4111
2026-01-27 01:50:32.74	24.44	7.90	-45.6	-47.0	23.2	6.03e-01	0	42	0	101187584	63	4056
2026-01-27 01:50:33.75	24.47	7.98	-45.5	-46.9	23.0	6.03e-01	0	42	0	102760448	63	4017
2026-01-27 01:50:34.76	24.50	8.07	-45.4	-46.8	23.5	6.00e-01	0	42	0	104857600	62	4200
2026-01-27 01:50:35.77	24.53	8.15	-45.4	-46.7	23.1	6.04e-01	0	42	0	106954752	62	4192
2026-01-27 01:50:36.77	24.56	8.24	-45.4	-46.8	22.6	6.02e-01	0	42	0	108527616	62	4205
2026-01-27 01:50:37.78	24.60	8.32	-45.3	-46.7	23.4	6.03e-01	0	42	0	110624768	62	4168
2026-01-27 01:50:38.79	24.63	8.41	-45.3	-46.6	23.3	6.03e-01	0	42	0	112197632	62	4144
2026-01-27 01:50:39.80	24.66	8.50	-45.3	-46.7	22.5	6.01e-01	0	42	0	114294784	62	4154
2026-01-27 01:50:40.80	24.69	8.58	-45.3	-46.7	23.0	6.00e-01	0	42	0	115867648	62	4162
2026-01-27 01:50:41.81	24.73	8.67	-45.4	-46.8	23.4	6.04e-01	0	42	0	117964800	62	4213
2026-01-27 01:50:42.82	24.76	8.76	-45.4	-46.8	22.7	6.01e-01	0	42	0	120061952	62	4197
2026-01-27 01:50:43.83	24.79	8.84	-45.3	-46.6	23.0	6.03e-01	0	42	0	121634816	62	4136
2026-01-27 01:50:44.83	24.82	8.93	-45.2	-46.5	22.6	6.01e-01	0	42	0	123731968	62	4092
2026-01-27 01:50:45.84	24.86	9.02	-45.2	-46.5	22.9	6.03e-01	0	43	0	125829120	62	4090
2026-01-27 01:50:46.84	24.89	9.11	-45.3	-46.6	22.6	6.01e-01	0	42	0	127401984	62	4112
2026-01-27 01:50:47.85	24.92	9.20	-45.1	-46.4	22.8	6.02e-01	0	42	0	129499136	62	4048
2026-01-27 01:50:48.86	24.96	9.29	-45.3	-46.6	22.7	6.03e-01	0	42	0	131072000	62	4126
2026-01-27 01:50:49.87	24.99	9.38	-45.2	-46.5	22.9	6.03e-01	0	42	0	133169152	62	4053
2026-01-27 01:50:50.88	25.03	9.47	-45.2	-46.5	23.0	6.01e-01	0	42	0	135266304	62	4068
2026-01-27 01:50:51.89	25.06	9.56	-45.2	-46.5	23.0	6.04e-01	0	42	0	136839168	62	4061
2026-01-27 01:50:52.90	25.10	9.65	-45.3	-46.6	23.0	6.01e-01	0	42	0	138936320	62	4106
2026-01-27 01:50:53.91	25.13	9.74	-45.1	-46.4	23.3	5.99e-01	0	42	0	140509184	62	4040
2026-01-27 01:50:54.91	25.17	9.83	-45.1	-46.4	23.1	6.05e-01	0	42	0	142606336	62	4048
2026-01-27 01:50:55.92	25.20	9.92	-45.2	-46.5	23.2	6.02e-01	0	42	0	144179200	62	4062
2026-01-27 01:50:56.93	25.24	10.01	-45.3	-46.6	23.1	6.03e-01	0	43	0	146276352	62	4145
2026-01-27 01:50:57.94	25.27	10.10	-45.3	-46.6	23.4	6.00e-01	0	43	0	148373504	62	4111
2026-01-27 01:50:58.95	25.31	10.20	-45.2	-46.5	23.5	6.04e-01	0	42	0	150470656	62	4096
2026-01-27 01:50:59.96	25.35	10.29	-45.4	-46.8	23.2	6.02e-01	0	42	0	152043520	62	4194
2026-01-27 01:51:00.97	25.38	10.38	-45.2	-46.5	23.4	6.03e-01	0	43	0	154140672	62	4063
2026-01-27 01:51:01.98	25.42	10.48	-45.1	-46.5	23.3	6.04e-01	0	42	0	155713536	62	4053
2026-01-27 01:51:02.98	25.46	10.57	-45.0	-46.3	23.6	6.02e-01	0	42	0	157810688	62	3974
2026-01-27 01:51:03.99	25.49	10.67	-45.0	-46.3	23.5	6.03e-01	0	43	0	159383552	62	3999
2026-01-27 01:51:04.99	25.53	10.76	-45.0	-46.3	23.7	5.99e-01	0	42	0	161480704	62	3987
2026-01-27 01:51:06.00	25.57	10.86	-45.0	-46.3	23.7	6.00e-01	0	42	0	163577856	62	3984
2026-01-27 01:51:07.00	25.60	10.95	-45.1	-46.4	23.7	6.03e-01	0	42	0	165150720	62	4012
2026-01-27 01:51:08.01	25.64	11.05	-45.0	-46.3	23.8	6.04e-01	0	42	0	167247872	62	3971
2026-01-27 01:51:09.02	25.68	11.15	-44.9	-46.2	24.0	6.03e-01	0	43	0	168820736	61	4151
2026-01-27 01:51:10.03	25.72	11.24	-44.7	-45.9	24.1	6.01e-01	0	42	0	170917888	61	4041
2026-01-27 01:51:11.03	25.76	11.34	-44.8	-46.1	24.0	6.02e-01	0	42	0	172490752	61	4111
2026-01-27 01:51:12.04	25.80	11.44	-44.8	-46.1	24.0	6.03e-01	0	42	0	174587904	61	4114
2026-01-27 01:51:13.05	25.84	11.54	-44.8	-46.0	24.1	6.07e-01	0	42	0	176685056	61	4077
2026-01-27 01:51:14.06	25.88	11.64	-44.6	-45.9	24.4	6.05e-01	0	42	0	178782208	61	4016
2026-01-27 01:51:15.07	25.91	11.74	-44.6	-45.8	24.5	6.03e-01	0	42	0	180355072	61	3993
2026-01-27 01:51:16.08	25.95	11.84	-44.7	-46.0	24.5	6.00e-01	0	42	0	182452224	61	4057
2026-01-27 01:51:17.09	26.00	11.94	-44.6	-45.8	24.5	6.03e-01	0	43	0	184025088	61	3992
2026-01-27 01:51:18.09	26.04	12.04	-44.6	-45.8	24.5	6.04e-01	0	43	0	186122240	61	3971
2026-01-27 01:51:19.10	26.08	12.14	-44.6	-45.8	24.4	6.04e-01	0	43	0	187695104	61	3988
2026-01-27 01:51:20.10	26.12	12.24	-44.6	-45.8	24.4	6.01e-01	0	43	0	189792256	61	4004
2026-01-27 01:51:21.11	26.16	12.34	-44.7	-45.9	24.4	6.03e-01	0	43	0	191889408	61	4039
2026-01-27 01:51:22.12	26.20	12.44	-44.5	-45.7	24.6	6.06e-01	0	43	0	193462272	61	3950
2026-01-27 01:51:23.13	26.24	12.55	-44.6	-45.8	24.3	6.02e-01	0	43	0	195559424	61	4000
2026-01-27 01:51:24.14	26.28	12.65	-44.6	-45.8	24.3	6.02e-01	0	43	0	197656576	61	3970
2026-01-27 01:51:25.15	26.33	12.75	-44.6	-45.9	24.3	5.99e-01	0	43	0	199229440	61	4014
2026-01-27 01:51:26.16	26.37	12.86	-44.7	-45.9	23.9	6.03e-01	0	43	0	201326592	61	4039
2026-01-27 01:51:27.17	26.41	12.96	-44.6	-45.8	23.7	6.03e-01	0	43	0	202899456	61	3988
2026-01-27 01:51:28.18	26.46	13.07	-44.8	-46.0	23.6	6.02e-01	0	43	0	204996608	61	4078
2026-01-27 01:51:29.19	26.50	13.18	-44.7	-45.9	23.7	6.00e-01	0	42	0	207093760	61	4039
2026-01-27 01:51:30.19	26.54	13.28	-44.6	-45.8	23.4	6.02e-01	0	42	0	208666624	61	3999
2026-01-27 01:51:31.20	26.59	13.39	-44.7	-46.0	23.1	6.02e-01	0	43	0	210763776	61	4068
2026-01-27 01:51:32.21	26.63	13.50	-44.7	-45.9	23.4	6.03e-01	0	43	0	212336640	61	4028
2026-01-27 01:51:33.21	26.68	13.60	-44.6	-45.8	23.4	6.01e-01	0	43	0	214433792	61	3999
2026-01-27 01:51:34.22	26.72	13.71	-44.6	-45.9	23.3	6.03e-01	0	42	0	216006656	61	4010
2026-01-27 01:51:35.22	26.77	13.82	-44.5	-45.7	23.8	6.02e-01	0	43	0	218103808	61	3951
2026-01-27 01:51:36.23	26.81	13.93	-44.4	-45.6	24.2	6.02e-01	0	43	0	220200960	60	4118
2026-01-27 01:51:37.24	26.86	14.04	-44.5	-45.7	24.1	6.05e-01	0	43	0	222298112	60	4158
2026-01-27 01:51:38.25	26.90	14.15	-44.4	-45.6	24.0	6.03e-01	0	43	0	223870976	60	4109
2026-01-27 01:51:39.25	26.95	14.26	-44.4	-45.5	24.0	6.04e-01	0	43	0	225968128	60	4098
2026-01-27 01:51:40.26	27.00	14.37	-44.1	-45.3	24.5	6.03e-01	0	43	0	227540992	60	3987
2026-01-27 01:51:41.27	27.05	14.49	-44.2	-45.4	24.8	6.01e-01	0	43	0	229638144	60	4005
2026-01-27 01:51:42.27	27.09	14.60	-44.1	-45.3	24.7	6.06e-01	0	43	0	231211008	60	3968
2026-01-27 01:51:43.28	27.14	14.71	-44.2	-45.4	24.5	6.02e-01	0	43	0	233308160	60	4023
2026-01-27 01:51:44.29	27.19	14.83	-44.2	-45.4	24.6	6.05e-01	0	42	0	235405312	60	4026
2026-01-27 01:51:45.29	27.24	14.94	-44.2	-45.4	24.6	6.04e-01	0	43	0	236978176	60	4027
2026-01-27 01:51:46.30	27.29	15.05	-44.2	-45.3	24.8	6.01e-01	0	43	0	239075328	60	4001
2026-01-27 01:51:47.31	27.34	15.17	-44.3	-45.4	24.5	6.02e-01	0	43	0	240648192	60	4041
2026-01-27 01:51:48.32	27.39	15.29	-44.3	-45.5	24.7	6.03e-01	0	43	0	242745344	60	4058
2026-01-27 01:51:49.33	27.44	15.40	-44.4	-45.5	24.8	6.03e-01	0	43	0	244318208	60	4098
2026-01-27 01:51:50.34	27.49	15.52	-44.4	-45.6	22.6	6.02e-01	0	42	0	246415360	60	4118
2026-01-27 01:51:51.35	27.54	15.64	-44.3	-45.5	24.6	6.04e-01	0	43	0	248512512	60	4071
2026-01-27 01:51:52.35	27.59	15.76	-44.3	-45.5	24.9	6.02e-01	0	42	0	250609664	60	4062
2026-01-27 01:51:53.36	27.64	15.88	-44.3	-45.5	24.8	6.02e-01	0	42	0	252182528	60	4062
2026-01-27 01:51:54.37	27.70	16.00	-44.3	-45.5	24.8	6.03e-01	0	43	0	254279680	60	4055
2026-01-27 01:51:55.38	27.75	16.12	-44.2	-45.4	25.0	6.02e-01	0	43	0	255852544	60	4039
2026-01-27 01:51:56.39	27.80	16.24	-44.3	-45.5	25.0	6.02e-01	0	43	0	257949696	60	4056
2026-01-27 01:51:57.40	27.86	16.36	-44.2	-45.3	24.9	6.03e-01	0	43	0	259522560	60	3997
2026-01-27 01:51:58.40	27.91	16.48	-44.0	-45.2	24.9	6.03e-01	0	43	0	261619712	60	3926
2026-01-27 01:51:59.42	27.96	16.61	-44.1	-45.2	24.8	6.02e-01	0	43	0	263716864	60	3942
2026-01-27 01:52:00.42	28.02	16.73	-44.1	-45.2	25.1	6.03e-01	0	43	0	265289728	60	3957
2026-01-27 01:52:01.43	28.07	16.86	-44.1	-45.2	25.0	6.03e-01	0	43	0	267386880	60	3953
2026-01-27 01:52:02.43	28.13	16.98	-44.1	-45.3	24.9	6.03e-01	0	43	0	268959744	60	3989
2026-01-27 01:52:03.44	28.19	17.11	-44.2	-45.4	25.1	6.03e-01	0	43	0	271056896	60	4031
2026-01-27 01:52:04.44	28.24	17.23	-44.1	-45.3	25.1	6.04e-01	0	42	0	273154048	60	3970
2026-01-27 01:52:05.45	28.30	17.36	-44.2	-45.3	24.8	6.04e-01	0	43	0	274726912	60	4000
2026-01-27 01:52:06.45	28.36	17.49	-44.3	-45.4	24.5	6.03e-01	0	43	0	276824064	60	4042
2026-01-27 01:52:07.46	28.41	17.62	-44.4	-45.6	24.6	6.02e-01	0	43	0	278921216	60	4100
2026-01-27 01:52:08.47	28.47	17.75	-44.3	-45.5	25.1	6.02e-01	0	43	0	280494080	60	4073
2026-01-27 01:52:09.48	28.53	17.88	-44.3	-45.5	25.3	6.02e-01	0	43	0	282591232	60	4070
2026-01-27 01:52:10.49	28.59	18.01	-44.3	-45.5	25.2	6.04e-01	0	43	0	284164096	60	4087
2026-01-27 01:52:11.49	28.65	18.14	-44.4	-45.5	25.2	6.04e-01	0	43	0	286261248	60	4089
2026-01-27 01:52:12.50	28.71	18.27	-44.3	-45.4	25.5	6.00e-01	0	43	0	287834112	60	4051
2026-01-27 01:52:13.51	28.77	18.40	-44.2	-45.4	25.7	6.03e-01	0	43	0	289931264	60	4006
2026-01-27 01:52:14.51	28.84	18.54	-44.2	-45.3	25.8	6.02e-01	0	43	0	292028416	60	4003
2026-01-27 01:52:15.52	28.90	18.67	-44.1	-45.3	26.1	6.05e-01	0	43	0	293601280	60	3976
2026-01-27 01:52:16.53	28.96	18.81	-44.1	-45.2	26.1	6.02e-01	0	43	0	295698432	60	3955
2026-01-27 01:52:17.53	29.02	18.94	-44.0	-45.2	26.1	6.03e-01	0	43	0	297271296	60	3925
2026-01-27 01:52:18.54	29.09	19.08	-44.0	-45.2	26.0	6.04e-01	0	42	0	299368448	60	3933
2026-01-27 01:52:19.55	29.15	19.22	-44.0	-45.2	26.1	6.03e-01	0	43	0	301465600	60	3923
2026-01-27 01:52:20.56	29.22	19.36	-44.1	-45.3	26.1	6.03e-01	0	43	0	303038464	60	3960
2026-01-27 01:52:21.57	29.28	19.50	-44.0	-45.2	26.1	6.02e-01	0	43	0	305135616	60	3923
2026-01-27 01:52:22.58	29.35	19.64	-44.2	-45.3	25.6	6.01e-01	0	43	0	307232768	60	3994
2026-01-27 01:52:23.59	29.42	19.78	-44.2	-45.4	25.7	6.05e-01	0	43	0	308805632	60	4017
2026-01-27 01:52:24.59	29.48	19.92	-44.3	-45.5	25.7	6.00e-01	0	43	0	310902784	60	4058
2026-01-27 01:52:25.60	29.55	20.06	-44.1	-45.3	25.9	6.05e-01	0	43	0	312475648	60	3976
2026-01-27 01:52:26.61	29.62	20.21	-44.0	-45.2	26.1	6.03e-01	0	43	0	314572800	60	3932
2026-01-27 01:52:27.62	29.69	20.35	-44.1	-45.2	25.9	6.06e-01	0	43	0	316145664	60	3954
2026-01-27 01:52:28.63	29.76	20.50	-44.0	-45.1	26.2	6.04e-01	0	43	0	318242816	60	3908
2026-01-27 01:52:29.63	29.83	20.65	-44.1	-45.3	26.1	6.04e-01	0	43	0	320339968	59	4202
2026-01-27 01:52:30.64	29.90	20.79	-44.2	-45.3	26.0	6.02e-01	0	43	0	322437120	59	4231
2026-01-27 01:52:31.65	29.97	20.94	-44.2	-45.4	26.1	6.03e-01	0	43	0	324009984	59	4245
2026-01-27 01:52:32.65	30.04	21.09	-44.2	-45.4	26.1	6.03e-01	0	43	0	326107136	59	4248
2026-01-27 01:52:33.66	30.12	21.24	-44.3	-45.5	26.0	5.99e-01	0	43	0	327680000	59	4294
2026-01-27 01:52:34.67	30.19	21.39	-44.4	-45.6	25.9	6.03e-01	0	43	0	329777152	59	4341
2026-01-27 01:52:35.67	30.27	21.54	-44.5	-45.7	25.8	6.02e-01	0	43	0	331350016	59	4400
2026-01-27 01:52:36.68	30.34	21.70	-44.5	-45.7	25.8	6.04e-01	0	43	0	333447168	59	4408
2026-01-27 01:52:37.69	30.42	21.85	-44.5	-45.6	25.6	6.02e-01	0	43	0	335544320	59	4388
2026-01-27 01:52:38.70	30.50	22.01	-44.4	-45.6	25.9	6.02e-01	0	43	0	337117184	59	4344
2026-01-27 01:52:39.71	30.57	22.16	-44.5	-45.7	25.8	6.02e-01	0	43	0	339214336	59	4395
2026-01-27 01:52:40.71	30.65	22.32	-44.4	-45.6	25.9	6.03e-01	0	43	0	340787200	59	4357
2026-01-27 01:52:41.73	30.73	22.48	-44.5	-45.6	25.8	6.02e-01	0	43	0	342884352	59	4390
2026-01-27 01:52:42.73	30.81	22.64	-44.5	-45.7	25.7	6.03e-01	0	43	0	344457216	59	4411
2026-01-27 01:52:43.74	30.89	22.80	-44.4	-45.6	25.9	6.04e-01	0	43	0	346554368	59	4379
2026-01-27 01:52:44.75	30.97	22.96	-44.5	-45.7	25.8	6.04e-01	0	43	0	348651520	59	4404
2026-01-27 01:52:45.75	31.06	23.12	-44.5	-45.7	25.8	6.03e-01	0	43	0	350748672	59	4403
2026-01-27 01:52:46.76	31.14	23.28	-44.5	-45.7	25.8	6.05e-01	0	43	0	352321536	59	4392
2026-01-27 01:52:47.77	31.22	23.45	-44.4	-45.6	25.9	6.03e-01	0	43	0	354418688	59	4343
2026-01-27 01:52:48.77	31.31	23.61	-44.5	-45.7	25.7	6.06e-01	0	43	0	355991552	59	4412
2026-01-27 01:52:49.78	31.39	23.78	-44.6	-45.8	25.7	6.03e-01	0	43	0	358088704	59	4443
2026-01-27 01:52:50.79	31.48	23.95	-44.6	-45.8	25.7	6.05e-01	0	43	0	359661568	59	4445
2026-01-27 01:52:51.79	31.57	24.11	-44.7	-45.8	25.3	6.05e-01	0	43	0	361758720	60	4242
2026-01-27 01:52:52.80	31.66	24.28	-44.6	-45.8	25.7	6.02e-01	0	43	0	363855872	60	4212
2026-01-27 01:52:53.81	31.75	24.45	-44.7	-45.9	25.7	6.05e-01	0	43	0	365428736	60	4247
2026-01-27 01:52:54.82	31.84	24.63	-44.5	-45.7	25.9	6.04e-01	0	43	0	367525888	60	4154
2026-01-27 01:52:55.82	31.93	24.80	-44.5	-45.7	25.9	6.03e-01	0	43	0	369098752	60	4146
2026-01-27 01:52:56.83	32.02	24.97	-44.6	-45.8	25.8	6.02e-01	0	43	0	371195904	60	4209
2026-01-27 01:52:57.84	32.12	25.15	-44.4	-45.6	26.0	6.01e-01	0	43	0	373293056	60	4123
2026-01-27 01:52:58.85	32.21	25.33	-44.5	-45.7	25.9	6.02e-01	0	43	0	374865920	60	4157
2026-01-27 01:52:59.85	32.31	25.50	-44.6	-45.7	25.8	6.04e-01	0	43	0	376963072	60	4185
2026-01-27 01:53:00.86	32.40	25.68	-44.6	-45.8	25.8	5.98e-01	0	43	0	379060224	60	4197
2026-01-27 01:53:01.86	32.50	25.86	-44.7	-45.9	25.7	6.04e-01	0	43	0	380633088	60	4257
2026-01-27 01:53:02.87	32.60	26.04	-44.7	-45.9	25.6	6.04e-01	0	43	0	382730240	60	4269
2026-01-27 01:53:03.88	32.70	26.23	-44.7	-45.9	25.5	6.04e-01	0	43	0	384303104	60	4274
2026-01-27 01:53:04.89	32.80	26.41	-44.5	-45.7	25.7	6.03e-01	0	43	0	386400256	60	4164
2026-01-27 01:53:05.89	32.91	26.60	-44.5	-45.7	25.9	6.00e-01	0	43	0	387973120	60	4151
2026-01-27 01:53:06.90	33.01	26.78	-44.3	-45.4	26.1	6.04e-01	0	43	0	390070272	60	4034
2026-01-27 01:53:07.91	33.11	26.97	-44.3	-45.5	26.1	6.03e-01	0	43	0	392167424	60	4058
2026-01-27 01:53:08.92	33.22	27.16	-44.5	-45.7	25.9	6.01e-01	0	43	0	393740288	60	4156
2026-01-27 01:53:09.93	33.33	27.35	-44.6	-45.8	25.8	6.03e-01	0	42	0	395837440	60	4211
2026-01-27 01:53:10.93	33.44	27.54	-44.6	-45.7	25.7	6.06e-01	0	43	0	397410304	60	4179
2026-01-27 01:53:11.94	33.55	27.74	-44.5	-45.7	25.7	6.01e-01	0	43	0	399507456	60	4160
2026-01-27 01:53:12.94	33.66	27.93	-44.4	-45.6	25.7	6.04e-01	0	43	0	401604608	60	4117
2026-01-27 01:53:13.95	33.77	28.13	-44.3	-45.4	26.1	6.04e-01	0	43	0	403177472	60	4030
2026-01-27 01:53:14.96	33.89	28.33	-44.2	-45.3	26.2	6.02e-01	0	43	0	405274624	60	4000
2026-01-27 01:53:15.97	34.00	28.53	-44.2	-45.3	26.2	6.01e-01	0	43	0	407371776	60	3998
2026-01-27 01:53:16.98	34.12	28.73	-44.3	-45.5	26.0	6.03e-01	0	42	0	408944640	60	4062
2026-01-27 01:53:17.99	34.24	28.93	-44.3	-45.5	26.1	6.04e-01	0	43	0	411041792	60	4058
2026-01-27 01:53:19.00	34.36	29.13	-44.2	-45.3	26.3	6.03e-01	0	43	0	412614656	60	3985
2026-01-27 01:53:20.00	34.48	29.34	-44.2	-45.4	26.2	6.01e-01	0	43	0	414711808	60	4019
2026-01-27 01:53:21.01	34.60	29.54	-44.2	-45.3	26.3	6.00e-01	0	43	0	416284672	60	3994
2026-01-27 01:53:22.01	34.73	29.75	-44.2	-45.3	26.3	6.04e-01	0	43	0	418381824	60	3979
2026-01-27 01:53:23.02	34.85	29.96	-44.2	-45.3	26.4	6.02e-01	0	43	0	420478976	60	3985
2026-01-27 01:53:24.03	34.98	30.17	-44.2	-45.4	26.2	6.02e-01	0	43	0	422051840	60	4013
2026-01-27 01:53:25.04	35.11	30.38	-44.1	-45.2	26.4	6.01e-01	0	43	0	424148992	60	3929
2026-01-27 01:53:26.05	35.24	30.60	-44.2	-45.3	26.3	6.02e-01	0	43	0	426246144	60	3986
2026-01-27 01:53:27.06	35.38	30.81	-44.2	-45.4	26.3	6.01e-01	0	43	0	427819008	60	4023
2026-01-27 01:53:28.06	35.51	31.03	-44.0	-45.1	26.5	6.01e-01	0	43	0	429916160	60	3906
2026-01-27 01:53:29.07	35.65	31.25	-44.0	-45.1	26.6	6.02e-01	0	43	0	431489024	60	3907
2026-01-27 01:53:30.07	35.79	31.47	-44.2	-45.3	26.3	6.03e-01	0	43	0	433586176	59	4220
2026-01-27 01:53:31.07	35.93	31.69	-44.3	-45.5	26.2	6.00e-01	0	43	0	435683328	59	4308
2026-01-27 01:53:32.08	36.07	31.91	-44.6	-45.7	25.9	6.02e-01	0	43	0	437256192	59	4437
2026-01-27 01:53:33.08	36.21	32.14	-44.6	-45.8	25.8	6.04e-01	0	43	0	439353344	59	4478
2026-01-27 01:53:34.09	36.36	32.36	-44.6	-45.8	25.9	6.03e-01	0	43	0	440926208	59	4446
2026-01-27 01:53:35.10	36.51	32.59	-44.6	-45.7	25.9	6.04e-01	0	43	0	443023360	59	4427
2026-01-27 01:53:36.11	36.66	32.82	-44.5	-45.7	25.9	6.01e-01	0	43	0	444596224	59	4424
2026-01-27 01:53:37.11	36.81	33.05	-44.6	-45.8	25.9	6.01e-01	0	43	0	446693376	59	4442
2026-01-27 01:53:38.12	36.97	33.29	-44.6	-45.8	25.9	6.04e-01	0	43	0	448790528	59	4445
2026-01-27 01:53:39.13	37.12	33.52	-44.6	-45.8	25.8	6.01e-01	0	43	0	450363392	60	4220
2026-01-27 01:53:40.13	37.28	33.76	-44.6	-45.8	26.0	6.00e-01	0	43	0	452460544	60	4217
2026-01-27 01:53:41.14	37.45	34.00	-44.7	-45.9	25.8	6.05e-01	0	43	0	454033408	60	4280
2026-01-27 01:53:42.15	37.61	34.24	-44.8	-46.0	25.4	6.03e-01	0	43	0	456130560	60	4326
2026-01-27 01:53:43.16	37.78	34.48	-44.8	-46.0	25.7	6.01e-01	0	43	0	458227712	60	4328
2026-01-27 01:53:44.16	37.95	34.72	-45.0	-46.2	25.6	6.00e-01	0	43	0	459800576	60	4402
2026-01-27 01:53:45.17	38.12	34.97	-45.1	-46.3	25.6	6.02e-01	0	43	0	461897728	60	4454
2026-01-27 01:53:46.18	38.29	35.22	-45.2	-46.4	25.4	6.04e-01	0	43	0	463994880	60	4523
2026-01-27 01:53:47.19	38.47	35.47	-45.4	-46.6	25.1	6.02e-01	0	43	0	465567744	61	4378
2026-01-27 01:53:48.19	38.65	35.71	-45.5	-46.8	24.9	6.01e-01	0	43	0	467664896	61	4444
2026-01-27 01:53:49.19	38.83	35.97	-45.4	-46.6	25.0	6.05e-01	0	43	0	469237760	61	4390
2026-01-27 01:53:50.20	39.02	36.22	-45.4	-46.6	25.1	6.01e-01	0	43	0	471334912	61	4382
2026-01-27 01:53:51.21	39.20	36.48	-45.5	-46.8	24.9	6.02e-01	0	43	0	472907776	61	4444
2026-01-27 01:53:52.21	39.39	36.73	-45.9	-47.2	24.5	6.01e-01	0	43	0	475004928	62	4421
2026-01-27 01:53:53.22	39.59	37.00	-45.9	-47.2	24.5	6.05e-01	0	43	0	477102080	62	4424
2026-01-27 01:53:54.23	39.79	37.26	-45.7	-47.0	24.8	6.01e-01	0	43	0	478674944	62	4305
2026-01-27 01:53:55.24	39.99	37.52	-45.9	-47.2	24.7	6.01e-01	0	43	0	480772096	62	4397
2026-01-27 01:53:56.25	40.19	37.79	-46.2	-47.6	24.2	6.01e-01	0	43	0	482869248	63	4355
2026-01-27 01:53:57.25	40.40	38.05	-46.3	-47.7	24.3	6.03e-01	0	43	0	484442112	63	4412
2026-01-27 01:53:58.26	40.61	38.32	-46.3	-47.6	24.4	6.02e-01	0	43	0	486539264	63	4370
2026-01-27 01:53:59.27	40.83	38.60	-46.2	-47.6	24.5	6.02e-01	0	43	0	488112128	63	4343
2026-01-27 01:54:00.28	41.04	38.87	-46.2	-47.5	24.6	6.06e-01	0	43	0	490209280	63	4320
2026-01-27 01:54:01.29	41.27	39.15	-46.1	-47.5	24.5	6.02e-01	0	43	0	492306432	63	4298
2026-01-27 01:54:02.30	41.49	39.42	-46.1	-47.5	24.5	6.05e-01	0	43	0	493879296	63	4301
2026-01-27 01:54:03.31	41.72	39.70	-46.0	-47.3	24.6	6.02e-01	0	43	0	495976448	63	4209
2026-01-27 01:54:04.31	41.95	39.98	-45.9	-47.2	24.7	6.02e-01	0	43	0	497549312	63	4169
2026-01-27 01:54:05.32	42.19	40.26	-45.9	-47.2	24.6	6.04e-01	0	43	0	499646464	63	4173
2026-01-27 01:54:06.33	42.43	40.55	-45.9	-47.2	24.6	6.03e-01	0	43	0	501219328	63	4184
2026-01-27 01:54:07.33	42.68	40.83	-45.6	-46.9	25.0	6.06e-01	0	43	0	503316480	63	4015
2026-01-27 01:54:08.34	42.93	41.12	-45.3	-46.6	25.2	6.03e-01	0	43	0	505413632	62	4118
2026-01-27 01:54:09.35	43.19	41.41	-45.3	-46.5	25.3	6.02e-01	0	43	0	507510784	62	4069
2026-01-27 01:54:10.35	43.44	41.70	-45.3	-46.6	25.3	6.01e-01	0	43	0	509083648	62	4100
2026-01-27 01:54:11.36	43.71	42.00	-45.4	-46.6	25.3	6.03e-01	0	43	0	511180800	62	4114
2026-01-27 01:54:12.37	43.98	42.29	-44.9	-46.1	25.7	6.03e-01	0	43	0	512753664	61	4134
2026-01-27 01:54:13.38	44.25	42.59	-44.6	-45.8	26.0	6.05e-01	0	43	0	514850816	61	3990
2026-01-27 01:54:14.39	44.53	42.89	-44.7	-45.8	26.1	6.01e-01	0	43	0	516423680	61	4003
2026-01-27 01:54:15.40	44.82	43.19	-44.5	-45.6	26.2	6.04e-01	0	43	0	518520832	61	3904
2026-01-27 01:54:16.40	45.11	43.49	-44.3	-45.4	26.4	6.04e-01	0	43	0	520617984	60	4039
2026-01-27 01:54:17.41	45.40	43.80	-44.2	-45.4	26.5	6.03e-01	0	43	0	522190848	60	4012
2026-01-27 01:54:18.42	45.70	44.10	-44.1	-45.2	26.6	6.04e-01	0	43	0	524288000	60	3929
2026-01-27 01:54:19.43	46.01	44.41	-44.2	-45.3	26.5	6.03e-01	0	43	0	525860864	60	3991
2026-01-27 01:54:20.43	46.32	44.72	-44.1	-45.3	26.6	6.04e-01	0	43	0	527958016	60	3959
2026-01-27 01:54:21.44	46.64	45.03	-44.0	-45.1	26.6	6.06e-01	0	43	0	529530880	59	4117
2026-01-27 01:54:22.45	46.97	45.35	-43.9	-44.9	26.8	6.02e-01	0	43	0	531628032	59	4051
2026-01-27 01:54:23.45	47.30	45.66	-43.8	-44.9	26.8	6.02e-01	0	43	0	533725184	59	4049
2026-01-27 01:54:24.46	47.64	45.97	-43.8	-44.9	26.8	6.05e-01	0	43	0	535822336	59	4031
2026-01-27 01:54:25.47	47.98	46.29	-43.8	-44.9	26.7	6.02e-01	0	43	0	537395200	59	4028
2026-01-27 01:54:26.48	48.34	46.61	-43.8	-44.9	26.7	6.02e-01	0	43	0	539492352	59	4035
2026-01-27 01:54:27.49	48.70	46.93	-44.0	-45.1	26.5	6.01e-01	0	43	0	541065216	59	4138
2026-01-27 01:54:28.49	49.06	47.25	-44.0	-45.1	26.4	6.00e-01	0	43	0	543162368	59	4144
2026-01-27 01:54:29.51	49.44	47.58	-44.2	-45.3	26.4	6.01e-01	0	43	0	544735232	59	4214
2026-01-27 01:54:30.51	49.82	47.90	-44.0	-45.1	26.5	6.03e-01	0	43	0	546832384	59	4137
2026-01-27 01:54:31.51	50.21	48.22	-44.1	-45.2	26.5	6.03e-01	0	43	0	548929536	59	4180
2026-01-27 01:54:32.52	50.61	48.55	-44.1	-45.2	26.4	6.03e-01	0	43	0	550502400	59	4180
2026-01-27 01:54:33.53	51.02	48.88	-43.9	-45.0	26.7	6.03e-01	0	43	0	552599552	59	4070
2026-01-27 01:54:34.53	51.44	49.20	-43.8	-44.9	26.7	6.02e-01	0	43	0	554172416	59	4033
2026-01-27 01:54:35.54	51.86	49.53	-43.8	-44.9	26.7	6.06e-01	0	43	0	556269568	59	4024
2026-01-27 01:54:36.55	52.30	49.87	-43.8	-44.8	26.8	6.04e-01	0	43	0	558366720	59	4000
2026-01-27 01:54:37.55	52.74	50.19	-43.9	-45.0	26.8	6.05e-01	0	43	0	559939584	59	4055
2026-01-27 01:54:38.56	53.20	50.53	-44.0	-45.1	26.7	6.05e-01	0	43	0	562036736	59	4109
2026-01-27 01:54:39.56	53.66	50.86	-43.6	-44.7	27.0	6.03e-01	0	43	0	564133888	59	3948
2026-01-27 01:54:40.57	54.13	51.19	-43.9	-45.0	26.7	6.03e-01	0	43	0	565706752	59	4060
2026-01-27 01:54:41.57	54.62	51.52	-43.7	-44.8	26.9	6.03e-01	0	43	0	567803904	59	3966
2026-01-27 01:54:42.58	55.11	51.86	-43.8	-44.9	26.8	6.03e-01	0	43	0	569376768	59	4033
2026-01-27 01:54:43.59	55.62	52.19	-43.8	-44.8	26.8	6.03e-01	0	43	0	571473920	59	4003
2026-01-27 01:54:44.60	56.14	52.53	-43.9	-45.0	26.7	6.04e-01	0	43	0	573046784	59	4088
2026-01-27 01:54:45.61	56.68	52.86	-43.5	-44.6	27.0	6.02e-01	0	43	0	575143936	59	3897
2026-01-27 01:54:46.62	57.22	53.20	-43.7	-44.8	26.9	6.04e-01	0	43	0	577241088	59	3968
2026-01-27 01:54:47.63	57.78	53.53	-43.9	-45.0	26.7	6.02e-01	0	43	0	578813952	59	4062
2026-01-27 01:54:48.63	58.34	53.86	-44.0	-45.1	26.6	6.04e-01	0	43	0	580911104	59	4108
2026-01-27 01:54:49.64	58.93	54.19	-44.3	-45.5	26.3	6.04e-01	0	43	0	583008256	59	4303
2026-01-27 01:54:50.64	59.52	54.52	-43.9	-45.0	26.7	6.00e-01	0	43	0	584581120	59	4082
2026-01-27 01:54:51.65	60.13	54.85	-43.8	-44.9	26.8	6.02e-01	0	43	0	586678272	59	4029
2026-01-27 01:54:52.66	60.76	55.19	-43.9	-45.0	26.7	6.01e-01	0	43	0	588251136	59	4089
2026-01-27 01:54:53.67	61.40	55.51	-44.1	-45.2	26.6	6.02e-01	0	43	0	590348288	59	4190
2026-01-27 01:54:54.67	62.05	55.84	-44.4	-45.5	26.4	6.03e-01	0	43	0	592445440	59	4313
2026-01-27 01:54:55.68	62.72	56.17	-44.3	-45.5	26.4	6.03e-01	0	43	0	594018304	59	4304
2026-01-27 01:54:56.69	63.41	56.49	-44.7	-45.8	25.8	6.03e-01	0	43	0	596115456	60	4223
2026-01-27 01:54:57.70	64.11	56.81	-44.9	-46.1	25.8	6.03e-01	0	43	0	597688320	60	4372
2026-01-27 01:54:58.70	64.82	57.13	-45.1	-46.3	25.7	6.03e-01	0	43	0	599785472	60	4448
2026-01-27 01:54:59.71	65.56	57.45	-45.2	-46.5	25.6	6.04e-01	0	43	0	601358336	60	4548
2026-01-27 01:55:00.71	66.31	57.76	-45.4	-46.6	25.4	6.01e-01	0	43	0	603455488	61	4389
2026-01-27 01:55:01.72	67.08	58.07	-46.0	-47.3	24.7	6.06e-01	0	43	0	605552640	62	4485
2026-01-27 01:55:02.73	67.87	58.38	-45.7	-46.9	25.0	6.00e-01	0	43	0	607125504	62	4275
2026-01-27 01:55:03.73	68.67	58.68	-46.1	-47.5	24.7	6.00e-01	0	43	0	609222656	62	4554
2026-01-27 01:55:04.74	69.50	58.99	-46.1	-47.4	24.7	6.04e-01	0	43	0	610795520	62	4509
2026-01-27 01:55:05.75	70.35	59.28	-46.3	-47.7	24.5	6.01e-01	0	43	0	612892672	63	4406
2026-01-27 01:55:06.75	71.20	59.57	-46.2	-47.5	24.6	6.03e-01	0	43	0	614989824	63	4330
2026-01-27 01:55:07.76	72.09	59.86	-46.5	-47.9	24.3	6.01e-01	0	43	0	616562688	63	4498
2026-01-27 01:55:08.77	72.99	60.15	-46.7	-48.1	24.0	6.04e-01	0	43	0	618659840	64	4390
2026-01-27 01:55:09.78	73.92	60.43	-46.4	-47.8	24.3	6.01e-01	0	43	0	620756992	64	4203
2026-01-27 01:55:10.79	74.87	60.70	-46.5	-47.9	24.3	6.02e-01	0	43	0	622329856	64	4254
2026-01-27 01:55:11.79	75.82	60.97	-46.6	-48.0	24.1	6.04e-01	0	42	0	624427008	64	4328
2026-01-27 01:55:12.80	76.81	61.23	-47.1	-48.6	23.6	6.02e-01	0	43	0	625999872	64	4622
2026-01-27 01:55:13.81	77.82	61.48	-47.0	-48.4	23.8	6.03e-01	0	43	0	628097024	64	4527
2026-01-27 01:55:14.82	78.85	61.73	-47.4	-49.0	23.2	6.00e-01	0	43	0	629669888	65	4564
2026-01-27 01:55:15.83	79.89	61.98	-47.5	-49.0	23.2	6.02e-01	0	43	0	631767040	65	4572
2026-01-27 01:55:16.83	80.95	62.21	-47.4	-48.9	23.3	6.03e-01	0	43	0	633864192	65	4523
2026-01-27 01:55:17.84	82.04	62.43	-47.7	-49.2	23.0	6.04e-01	0	43	0	635437056	65	4704
2026-01-27 01:55:18.85	83.15	62.65	-47.4	-48.8	23.4	6.00e-01	0	43	0	637534208	66	4242
2026-01-27 01:55:19.86	84.28	62.86	-47.3	-48.7	23.5	6.02e-01	0	43	0	639631360	66	4186
2026-01-27 01:55:20.86	85.42	63.06	-47.2	-48.7	23.5	6.02e-01	0	43	0	641204224	66	4152
2026-01-27 01:55:21.87	86.59	63.26	-47.6	-49.2	23.1	5.99e-01	0	43	0	643301376	66	4409
2026-01-27 01:55:22.87	87.77	63.44	-47.6	-49.1	23.1	6.01e-01	0	43	0	644874240	66	4390
2026-01-27 01:55:23.89	88.98	63.61	-47.4	-48.9	23.2	6.02e-01	0	43	0	646971392	66	4264
2026-01-27 01:55:24.89	90.19	63.78	-47.7	-49.2	23.0	6.03e-01	0	43	0	649068544	66	4421
2026-01-27 01:55:25.90	91.43	63.93	-47.4	-48.9	23.3	6.02e-01	0	43	0	650641408	66	4261
2026-01-27 01:55:26.91	92.69	64.07	-47.5	-49.0	23.2	6.04e-01	0	43	0	652738560	66	4320
2026-01-27 01:55:27.91	93.95	64.20	-47.9	-49.5	22.8	6.02e-01	0	42	0	654311424	66	4564
2026-01-27 01:55:28.93	95.25	64.33	-47.9	-49.5	22.7	6.01e-01	0	43	0	656408576	66	4572
2026-01-27 01:55:29.93	96.53	64.43	-47.8	-49.4	22.8	6.01e-01	0	43	0	657981440	66	4515
2026-01-27 01:55:30.94	97.84	64.53	-48.1	-49.7	22.6	6.01e-01	0	43	0	660078592	66	4698
2026-01-27 01:55:31.95	99.16	64.62	-47.6	-49.2	23.1	6.03e-01	0	43	0	662175744	66	4396
2026-01-27 01:55:32.95	100.48	64.69	-48.0	-49.6	22.5	6.03e-01	0	43	0	663748608	66	4628
2026-01-27 01:55:33.96	101.81	64.76	-47.5	-49.1	23.1	6.03e-01	0	43	0	665845760	66	4353
2026-01-27 01:55:34.97	103.16	64.81	-47.9	-49.5	22.7	6.03e-01	0	43	0	667942912	66	4592
2026-01-27 01:55:35.97	104.50	64.84	-47.3	-48.7	23.4	6.03e-01	0	43	0	669515776	66	4181
2026-01-27 01:55:36.98	105.85	64.87	-47.4	-48.9	23.2	6.02e-01	0	43	0	671612928	66	4290
2026-01-27 01:55:37.99	107.21	64.88	-47.2	-48.7	23.5	6.04e-01	0	43	0	673185792	66	4176
2026-01-27 01:55:39.00	108.56	64.88	-47.3	-48.7	23.4	6.03e-01	0	43	0	675282944	66	4193
2026-01-27 01:55:40.01	109.92	64.87	-47.3	-48.8	23.4	6.00e-01	0	43	0	677380096	66	4206
2026-01-27 01:55:41.01	111.26	64.85	-47.9	-49.5	22.8	6.04e-01	0	43	0	678952960	66	4555
2026-01-27 01:55:42.02	112.61	64.81	-47.1	-48.5	23.7	6.03e-01	0	43	0	681050112	66	4083
2026-01-27 01:55:43.03	113.96	64.76	-47.2	-48.6	23.6	6.03e-01	0	43	0	682622976	65	4391
2026-01-27 01:55:44.04	115.29	64.70	-47.2	-48.7	23.4	6.03e-01	0	43	0	684720128	65	4427
2026-01-27 01:55:45.05	116.63	64.63	-47.0	-48.4	23.8	6.05e-01	0	43	0	686817280	65	4280
2026-01-27 01:55:46.06	117.95	64.54	-47.3	-48.9	23.4	6.03e-01	0	43	0	688390144	65	4504
2026-01-27 01:55:47.07	119.26	64.44	-47.0	-48.4	23.7	6.03e-01	0	43	0	690487296	65	4268
2026-01-27 01:55:48.08	120.56	64.34	-46.8	-48.3	23.9	6.03e-01	0	43	0	692060160	65	4199
2026-01-27 01:55:49.08	121.83	64.22	-47.0	-48.4	23.8	6.01e-01	0	43	0	694157312	65	4261
2026-01-27 01:55:50.09	123.11	64.09	-46.6	-48.0	24.2	6.02e-01	0	43	0	696254464	65	4062
2026-01-27 01:55:51.10	124.36	63.94	-46.4	-47.8	24.4	6.02e-01	0	43	0	697827328	64	4205
2026-01-27 01:55:52.11	125.61	63.79	-46.3	-47.6	24.3	6.02e-01	0	43	0	699924480	64	4135
2026-01-27 01:55:53.11	126.82	63.63	-46.2	-47.5	24.7	6.01e-01	0	43	0	701497344	63	4296
2026-01-27 01:55:54.12	128.03	63.46	-46.7	-48.1	24.1	6.02e-01	0	43	0	703594496	64	4382
2026-01-27 01:55:55.13	129.22	63.27	-46.4	-47.7	24.4	6.02e-01	0	43	0	705691648	64	4177
2026-01-27 01:55:56.13	130.38	63.08	-46.5	-47.9	24.2	6.02e-01	0	43	0	707264512	64	4275
2026-01-27 01:55:57.13	131.52	62.89	-46.6	-48.0	24.3	6.02e-01	0	43	0	709361664	64	4297
2026-01-27 01:55:58.15	132.66	62.67	-46.8	-48.3	23.8	6.02e-01	0	43	0	711458816	64	4446
2026-01-27 01:55:59.16	133.78	62.46	-46.5	-47.9	24.2	6.03e-01	0	43	0	713031680	64	4263
2026-01-27 01:56:00.16	134.86	62.23	-46.0	-47.3	24.9	6.03e-01	0	43	0	715128832	63	4212
2026-01-27 01:56:01.17	135.93	62.00	-46.2	-47.5	24.6	6.04e-01	0	43	0	716701696	63	4328
2026-01-27 01:56:02.18	136.98	61.76	-45.8	-47.1	25.1	6.03e-01	0	43	0	718798848	63	4108
2026-01-27 01:56:03.19	138.01	61.51	-45.5	-46.7	25.4	6.01e-01	0	43	0	720371712	63	3939
2026-01-27 01:56:04.20	139.03	61.25	-45.8	-47.1	25.1	6.01e-01	0	43	0	722468864	63	4115
2026-01-27 01:56:05.20	140.01	60.99	-45.7	-47.0	25.0	6.04e-01	0	43	0	724566016	63	4052
2026-01-27 01:56:06.21	140.97	60.72	-45.4	-46.7	25.5	6.01e-01	0	43	0	726138880	62	4155
2026-01-27 01:56:07.22	141.92	60.45	-45.7	-47.0	25.1	6.02e-01	0	43	0	728236032	62	4297
2026-01-27 01:56:08.23	142.85	60.17	-45.4	-46.6	25.5	6.06e-01	0	43	0	729808896	62	4128
2026-01-27 01:56:09.24	143.76	59.89	-45.9	-47.2	25.0	6.01e-01	0	43	0	731906048	62	4406
2026-01-27 01:56:10.25	144.65	59.60	-45.3	-46.5	25.5	6.03e-01	0	43	0	734003200	62	4075
2026-01-27 01:56:11.26	145.52	59.30	-45.7	-46.9	25.2	6.00e-01	0	43	0	735576064	62	4275
2026-01-27 01:56:12.26	146.36	59.01	-45.7	-47.0	25.1	6.03e-01	0	43	0	737673216	62	4322
2026-01-27 01:56:13.27	147.19	58.71	-45.2	-46.4	25.6	6.05e-01	0	43	0	739770368	62	4020
2026-01-27 01:56:14.28	148.00	58.40	-45.1	-46.3	25.7	6.02e-01	0	43	0	741343232	61	4221
2026-01-27 01:56:15.29	148.79	58.09	-46.1	-47.4	24.8	6.00e-01	0	43	0	743440384	62	4527
2026-01-27 01:56:16.30	149.57	57.78	-45.3	-46.5	25.3	6.06e-01	0	43	0	745013248	62	4076
2026-01-27 01:56:17.30	150.32	57.47	-44.8	-46.0	26.0	6.01e-01	0	43	0	747110400	61	4080
2026-01-27 01:56:18.31	151.06	57.15	-44.8	-46.0	26.0	6.03e-01	0	43	0	749207552	61	4077
2026-01-27 01:56:19.31	151.77	56.83	-45.0	-46.2	25.8	6.03e-01	0	43	0	750780416	61	4162
2026-01-27 01:56:20.31	152.47	56.51	-45.3	-46.5	25.5	6.03e-01	0	43	0	752877568	61	4330
2026-01-27 01:56:21.32	153.16	56.18	-44.6	-45.7	26.2	6.03e-01	0	43	0	754450432	61	3949
2026-01-27 01:56:22.33	153.83	55.86	-44.0	-45.1	25.8	6.04e-01	0	43	0	756547584	60	3880
2026-01-27 01:56:23.33	154.49	55.53	-44.0	-45.1	26.6	6.06e-01	0	43	0	758120448	59	4129
2026-01-27 01:56:24.34	155.13	55.20	-44.3	-45.4	26.3	6.04e-01	0	43	0	760217600	59	4288
2026-01-27 01:56:25.35	155.76	54.87	-44.5	-45.7	26.2	6.03e-01	0	43	0	762314752	59	4406
2026-01-27 01:56:26.36	156.37	54.54	-44.3	-45.4	26.3	6.01e-01	0	43	0	763887616	59	4279
2026-01-27 01:56:27.36	156.97	54.21	-44.4	-45.5	26.3	6.04e-01	0	43	0	765984768	59	4340
2026-01-27 01:56:28.37	157.55	53.87	-44.1	-45.2	26.5	6.04e-01	0	43	0	768081920	59	4170
2026-01-27 01:56:29.38	158.12	53.54	-44.0	-45.1	26.6	6.02e-01	0	43	0	769654784	59	4106
2026-01-27 01:56:30.39	158.68	53.20	-44.5	-45.6	26.2	6.02e-01	0	43	0	771751936	59	4391
2026-01-27 01:56:31.40	159.23	52.87	-44.4	-45.6	26.2	6.05e-01	0	43	0	773324800	59	4349
2026-01-27 01:56:32.41	159.77	52.53	-44.4	-45.6	26.2	6.02e-01	0	43	0	775421952	59	4351
2026-01-27 01:56:33.41	160.28	52.20	-44.2	-45.3	26.5	6.03e-01	0	43	0	777519104	59	4239
2026-01-27 01:56:34.42	160.79	51.86	-44.3	-45.4	26.4	6.01e-01	0	43	0	779091968	59	4279
2026-01-27 01:56:35.43	161.29	51.53	-44.5	-45.7	26.1	6.05e-01	0	43	0	781189120	59	4413
2026-01-27 01:56:36.44	161.78	51.19	-44.7	-45.8	25.9	6.03e-01	0	43	0	783286272	60	4242
2026-01-27 01:56:37.45	162.26	50.86	-44.7	-45.9	26.0	6.02e-01	0	43	0	784859136	60	4276
2026-01-27 01:56:38.45	162.72	50.53	-44.7	-45.9	25.6	6.07e-01	0	43	0	786956288	60	4253
2026-01-27 01:56:39.46	163.18	50.19	-44.7	-45.9	26.1	6.01e-01	0	43	0	788529152	60	4251
2026-01-27 01:56:40.47	163.63	49.86	-44.7	-45.8	25.9	6.02e-01	0	43	0	790626304	60	4240
2026-01-27 01:56:41.48	164.06	49.53	-44.7	-45.8	26.1	6.03e-01	0	43	0	792199168	60	4236
2026-01-27 01:56:42.49	164.49	49.20	-45.1	-46.3	25.7	6.04e-01	0	43	0	794296320	60	4477
2026-01-27 01:56:43.49	164.91	48.87	-44.9	-46.1	25.7	6.05e-01	0	43	0	796393472	60	4351
2026-01-27 01:56:44.50	165.32	48.54	-45.0	-46.2	25.9	6.05e-01	0	43	0	797966336	60	4396
2026-01-27 01:56:45.51	165.72	48.21	-45.1	-46.4	25.6	6.06e-01	0	43	0	800063488	60	4503
2026-01-27 01:56:46.52	166.11	47.89	-45.0	-46.2	25.7	6.02e-01	0	43	0	801636352	60	4438
2026-01-27 01:56:47.53	166.49	47.56	-44.8	-45.9	26.0	6.04e-01	0	43	0	803733504	60	4285
2026-01-27 01:56:48.53	166.87	47.24	-44.8	-46.0	25.9	6.04e-01	0	43	0	805830656	60	4316
2026-01-27 01:56:49.54	167.24	46.92	-45.0	-46.2	25.7	6.02e-01	0	43	0	807403520	60	4424
2026-01-27 01:56:50.55	167.60	46.59	-44.9	-46.0	25.9	6.02e-01	0	43	0	809500672	60	4335
2026-01-27 01:56:51.55	167.95	46.28	-44.8	-46.0	25.9	6.03e-01	0	43	0	811597824	60	4338
2026-01-27 01:56:52.56	168.30	45.96	-44.8	-46.0	25.9	6.00e-01	0	43	0	813170688	60	4322
2026-01-27 01:56:53.57	168.64	45.64	-44.9	-46.1	25.7	6.04e-01	0	43	0	815267840	60	4379
2026-01-27 01:56:54.58	168.97	45.32	-45.0	-46.2	25.7	6.01e-01	0	43	0	816840704	60	4403
2026-01-27 01:56:55.59	169.30	45.01	-44.8	-45.9	25.9	6.02e-01	0	43	0	818937856	60	4290
2026-01-27 01:56:56.60	169.62	44.70	-44.6	-45.8	26.2	6.02e-01	0	43	0	820510720	60	4195
2026-01-27 01:56:57.60	169.93	44.39	-44.6	-45.8	26.1	6.02e-01	0	43	0	822607872	60	4197
2026-01-27 01:56:58.61	170.24	44.08	-44.6	-45.8	26.1	6.02e-01	0	43	0	824705024	60	4197
2026-01-27 01:56:59.62	170.54	43.77	-44.7	-45.9	26.0	6.02e-01	0	43	0	826277888	60	4249
2026-01-27 01:57:00.62	170.84	43.47	-44.8	-46.0	25.9	6.02e-01	0	43	0	828375040	60	4301
2026-01-27 01:57:01.63	171.13	43.16	-44.8	-46.0	25.9	5.99e-01	0	43	0	829947904	60	4300
2026-01-27 01:57:02.64	171.41	42.86	-44.8	-46.0	25.8	6.01e-01	0	43	0	832045056	60	4329
2026-01-27 01:57:03.65	171.69	42.56	-44.8	-46.0	25.9	6.02e-01	0	43	0	834142208	60	4330
2026-01-27 01:57:04.65	171.97	42.26	-44.9	-46.1	25.8	6.02e-01	0	43	0	835715072	60	4366
2026-01-27 01:57:05.66	172.24	41.97	-45.0	-46.2	25.7	6.02e-01	0	43	0	837812224	60	4435
2026-01-27 01:57:06.67	172.50	41.67	-45.0	-46.2	25.7	6.03e-01	0	43	0	839909376	60	4427
2026-01-27 01:57:07.68	172.76	41.38	-44.9	-46.1	25.7	6.03e-01	0	43	0	841482240	60	4385
2026-01-27 01:57:08.68	173.01	41.09	-44.9	-46.0	25.8	6.03e-01	0	43	0	843579392	60	4337
2026-01-27 01:57:09.69	173.27	40.80	-45.0	-46.2	25.6	6.02e-01	0	43	0	845152256	60	4421
2026-01-27 01:57:10.70	173.51	40.51	-45.3	-46.6	25.3	6.03e-01	0	43	0	847249408	61	4349
2026-01-27 01:57:11.71	173.76	40.22	-45.3	-46.6	25.2	6.02e-01	0	43	0	848822272	61	4369
2026-01-27 01:57:12.72	173.99	39.94	-45.4	-46.6	25.2	6.04e-01	0	43	0	850919424	61	4384
2026-01-27 01:57:13.73	174.23	39.66	-45.4	-46.6	25.3	6.03e-01	0	43	0	853016576	61	4367
2026-01-27 01:57:14.73	174.46	39.38	-45.2	-46.5	25.4	6.05e-01	0	43	0	854589440	61	4296
2026-01-27 01:57:15.74	174.68	39.10	-45.4	-46.7	25.2	6.03e-01	0	43	0	856686592	61	4405
2026-01-27 01:57:16.75	174.91	38.83	-45.5	-46.8	25.1	6.04e-01	0	43	0	858783744	61	4461
2026-01-27 01:57:17.76	175.12	38.55	-45.6	-46.9	25.0	5.99e-01	0	43	0	860356608	61	4503
2026-01-27 01:57:18.76	175.34	38.28	-45.4	-46.7	25.1	6.00e-01	0	43	0	862453760	61	4407
2026-01-27 01:57:19.77	175.55	38.01	-45.2	-46.4	25.3	6.05e-01	0	43	0	864026624	61	4290
2026-01-27 01:57:20.78	175.76	37.74	-45.0	-46.2	25.6	6.03e-01	0	43	0	866123776	61	4177
2026-01-27 01:57:21.78	175.96	37.48	-44.9	-46.1	25.7	6.03e-01	0	43	0	868220928	61	4118
2026-01-27 01:57:22.79	176.16	37.21	-44.9	-46.1	25.8	6.01e-01	0	43	0	869793792	61	4114
2026-01-27 01:57:23.80	176.36	36.95	-44.8	-45.9	25.9	6.01e-01	0	43	0	871890944	61	4048
2026-01-27 01:57:24.81	176.55	36.68	-44.5	-45.7	26.1	6.04e-01	0	43	0	873463808	61	3924
2026-01-27 01:57:25.81	176.75	36.43	-44.7	-45.9	26.0	6.03e-01	0	43	0	875560960	61	4006
2026-01-27 01:57:26.82	176.93	36.17	-44.7	-45.9	26.0	6.03e-01	0	43	0	877133824	61	4007
2026-01-27 01:57:27.83	177.12	35.91	-44.4	-45.6	26.1	6.05e-01	0	43	0	879230976	60	4106
2026-01-27 01:57:28.84	177.30	35.66	-44.4	-45.6	26.2	6.02e-01	0	43	0	881328128	60	4104
2026-01-27 01:57:29.84	177.48	35.41	-44.5	-45.6	26.1	6.01e-01	0	43	0	883425280	60	4142
2026-01-27 01:57:30.85	177.66	35.16	-44.3	-45.5	26.2	6.02e-01	0	43	0	884998144	60	4075
2026-01-27 01:57:31.86	177.83	34.91	-44.1	-45.3	26.4	6.00e-01	0	43	0	887095296	60	3977
2026-01-27 01:57:32.87	178.01	34.66	-43.9	-45.0	26.4	6.04e-01	0	43	0	888668160	59	4073
2026-01-27 01:57:33.87	178.18	34.42	-43.8	-44.9	26.6	6.05e-01	0	43	0	890765312	59	4013
2026-01-27 01:57:34.87	178.34	34.18	-43.8	-44.9	26.7	6.02e-01	0	43	0	892338176	59	4026
2026-01-27 01:57:35.88	178.51	33.94	-43.9	-45.0	26.5	6.03e-01	0	43	0	894435328	59	4074
2026-01-27 01:57:36.89	178.67	33.70	-43.9	-45.1	26.5	6.02e-01	0	43	0	896532480	59	4105
2026-01-27 01:57:37.90	178.83	33.46	-43.8	-44.9	26.6	6.05e-01	0	43	0	898105344	59	4025
2026-01-27 01:57:38.91	178.99	33.22	-43.9	-45.0	26.5	6.01e-01	0	43	0	900202496	59	4098
2026-01-27 01:57:39.91	179.14	32.99	-43.8	-44.9	26.6	6.01e-01	0	43	0	901775360	59	4039
2026-01-27 01:57:40.92	179.29	32.76	-43.5	-44.6	26.8	6.04e-01	0	43	0	903872512	59	3888
2026-01-27 01:57:41.93	179.44	32.52	-43.4	-44.5	26.8	6.05e-01	0	43	0	905445376	58	4087
2026-01-27 01:57:42.94	179.59	32.29	-43.4	-44.5	27.0	6.06e-01	0	43	0	907542528	58	4059
2026-01-27 01:57:43.95	179.74	32.07	-43.5	-44.6	26.9	6.05e-01	0	43	0	909639680	58	4105
2026-01-27 01:57:44.96	179.88	31.84	-43.4	-44.5	26.8	6.02e-01	0	43	0	911736832	58	4084
2026-01-27 01:57:45.97	180.03	31.62	-43.5	-44.7	26.7	5.99e-01	0	43	0	913309696	58	4146
2026-01-27 01:57:46.98	180.17	31.39	-43.3	-44.4	26.9	6.02e-01	0	43	0	915406848	58	4042
2026-01-27 01:57:47.99	180.31	31.17	-43.3	-44.4	27.0	6.02e-01	0	43	0	916979712	58	4019
2026-01-27 01:57:48.99	180.44	30.95	-43.3	-44.4	27.0	6.01e-01	0	43	0	919076864	58	4024
2026-01-27 01:57:50.00	180.58	30.74	-43.4	-44.5	26.9	6.05e-01	0	43	0	920649728	58	4072
2026-01-27 01:57:51.01	180.71	30.52	-43.1	-44.2	27.2	6.05e-01	0	43	0	922746880	58	3924
2026-01-27 01:57:52.02	180.84	30.30	-43.1	-44.2	27.2	6.03e-01	0	43	0	924844032	58	3929
2026-01-27 01:57:53.03	180.97	30.09	-43.3	-44.4	27.1	6.02e-01	0	43	0	926416896	58	4023
2026-01-27 01:57:54.04	181.10	29.88	-43.2	-44.2	27.2	6.00e-01	0	43	0	928514048	58	3956
2026-01-27 01:57:55.04	181.23	29.67	-43.4	-44.5	27.0	6.04e-01	0	43	0	930086912	58	4057
2026-01-27 01:57:56.05	181.35	29.46	-43.5	-44.6	26.8	6.03e-01	0	43	0	932184064	58	4134
2026-01-27 01:57:57.06	181.48	29.25	-43.8	-44.9	26.6	6.03e-01	0	43	0	934281216	58	4262
2026-01-27 01:57:58.07	181.60	29.05	-43.8	-44.9	26.5	6.04e-01	0	43	0	935854080	58	4289
2026-01-27 01:57:59.08	181.72	28.84	-43.8	-44.9	26.5	6.02e-01	0	43	0	937951232	58	4288
2026-01-27 01:58:00.08	181.84	28.64	-43.7	-44.8	26.5	6.04e-01	0	43	0	940048384	58	4241
2026-01-27 01:58:01.09	181.95	28.44	-43.6	-44.7	26.6	6.02e-01	0	43	0	941621248	58	4190
2026-01-27 01:58:02.10	182.07	28.24	-43.6	-44.8	26.6	6.05e-01	0	43	0	943718400	58	4194
2026-01-27 01:58:03.11	182.18	28.04	-43.7	-44.9	26.5	6.02e-01	0	43	0	945291264	58	4250
2026-01-27 01:58:04.12	182.30	27.84	-43.7	-44.8	26.5	6.03e-01	0	43	0	947388416	58	4230
2026-01-27 01:58:05.12	182.41	27.65	-43.7	-44.8	26.5	6.03e-01	0	43	0	948961280	58	4228
2026-01-27 01:58:06.13	182.52	27.45	-43.8	-44.9	26.4	6.03e-01	0	43	0	951058432	58	4287
2026-01-27 01:58:07.14	182.63	27.26	-43.7	-44.8	26.6	6.03e-01	0	43	0	953155584	58	4214
2026-01-27 01:58:08.15	182.73	27.07	-43.8	-44.9	26.5	6.08e-01	0	43	0	955252736	58	4255
2026-01-27 01:58:09.16	182.84	26.88	-43.8	-44.9	26.5	6.01e-01	0	43	0	956825600	58	4286
2026-01-27 01:58:10.16	182.94	26.69	-43.9	-45.0	26.4	6.02e-01	0	43	0	958922752	58	4318
2026-01-27 01:58:11.17	183.05	26.50	-44.0	-45.2	26.3	6.00e-01	0	43	0	960495616	58	4399
2026-01-27 01:58:12.17	183.15	26.32	-44.0	-45.2	26.2	6.04e-01	0	43	0	962592768	58	4410
2026-01-27 01:58:13.18	183.25	26.13	-44.1	-45.3	26.2	6.04e-01	0	43	0	964165632	58	4454
2026-01-27 01:58:14.19	183.35	25.95	-44.2	-45.4	25.3	6.05e-01	0	43	0	966262784	59	4262
2026-01-27 01:58:15.19	183.45	25.77	-44.3	-45.5	26.0	6.02e-01	0	43	0	968359936	59	4292
2026-01-27 01:58:16.20	183.55	25.59	-44.3	-45.4	26.0	6.05e-01	0	43	0	969932800	59	4286
2026-01-27 01:58:17.20	183.64	25.41	-44.3	-45.5	26.0	6.02e-01	0	43	0	972029952	59	4296
2026-01-27 01:58:18.21	183.74	25.23	-44.4	-45.6	25.9	6.01e-01	0	43	0	973602816	59	4361
2026-01-27 01:58:19.22	183.83	25.05	-44.5	-45.7	25.7	6.05e-01	0	43	0	975699968	59	4426
2026-01-27 01:58:20.22	183.93	24.88	-44.6	-45.8	25.7	6.00e-01	0	43	0	977272832	59	4466
2026-01-27 01:58:21.23	184.02	24.70	-44.5	-45.7	25.7	6.07e-01	0	43	0	979369984	59	4424
2026-01-27 01:58:22.24	184.11	24.53	-44.6	-45.9	25.6	6.01e-01	0	43	0	981467136	59	4494
2026-01-27 01:58:23.25	184.20	24.36	-44.5	-45.7	25.7	6.01e-01	0	43	0	983564288	59	4430
2026-01-27 01:58:24.25	184.29	24.19	-44.5	-45.7	25.8	6.03e-01	0	43	0	985137152	59	4399
2026-01-27 01:58:25.26	184.38	24.01	-44.5	-45.7	25.7	6.03e-01	0	43	0	987234304	59	4412
2026-01-27 01:58:26.27	184.47	23.85	-44.6	-45.8	25.7	6.02e-01	0	43	0	988807168	59	4458
2026-01-27 01:58:27.27	184.55	23.68	-44.6	-45.8	25.6	6.00e-01	0	43	0	990904320	59	4452
2026-01-27 01:58:28.28	184.64	23.51	-44.7	-45.9	25.5	6.02e-01	0	43	0	992477184	59	4501
2026-01-27 01:58:29.29	184.73	23.34	-44.4	-45.6	25.8	6.01e-01	0	43	0	994574336	59	4358
2026-01-27 01:58:30.30	184.81	23.18	-44.4	-45.6	24.8	6.03e-01	0	43	0	996671488	59	4376
2026-01-27 01:58:31.31	184.89	23.02	-44.5	-45.7	25.7	6.03e-01	0	43	0	998244352	59	4413
2026-01-27 01:58:32.32	184.97	22.85	-44.4	-45.6	25.8	6.04e-01	0	43	0	1000341504	59	4378
2026-01-27 01:58:33.32	185.06	22.69	-44.3	-45.5	26.0	6.03e-01	0	43	0	1001914368	59	4293
2026-01-27 01:58:34.33	185.14	22.53	-44.2	-45.4	26.0	6.03e-01	0	43	0	1004011520	59	4255
2026-01-27 01:58:35.33	185.22	22.37	-44.2	-45.3	26.1	6.02e-01	0	43	0	1005584384	59	4241
2026-01-27 01:58:36.33	185.29	22.22	-44.1	-45.3	26.1	6.03e-01	0	43	0	1007681536	59	4208
2026-01-27 01:58:37.34	185.37	22.06	-44.3	-45.5	26.0	6.01e-01	0	43	0	1009778688	59	4296
2026-01-27 01:58:38.35	185.45	21.90	-44.2	-45.4	26.0	6.03e-01	0	43	0	1011875840	59	4244
2026-01-27 01:58:39.36	185.53	21.75	-44.3	-45.5	25.9	6.03e-01	0	43	0	1013448704	59	4301
2026-01-27 01:58:40.37	185.60	21.59	-44.2	-45.4	26.0	6.02e-01	0	43	0	1015545856	59	4251
2026-01-27 01:58:41.38	185.68	21.44	-44.3	-45.5	25.9	6.03e-01	0	43	0	1017118720	59	4319
2026-01-27 01:58:42.39	185.75	21.28	-44.3	-45.5	25.9	6.02e-01	0	43	0	1019215872	59	4302
2026-01-27 01:58:43.40	185.83	21.13	-44.3	-45.5	25.9	6.02e-01	0	43	0	1020788736	59	4314
2026-01-27 01:58:44.41	185.90	20.98	-44.3	-45.5	25.9	6.04e-01	0	43	0	1022885888	59	4326
2026-01-27 01:58:45.42	185.97	20.83	-44.4	-45.6	25.9	6.02e-01	0	43	0	1024983040	59	4345
2026-01-27 01:58:46.42	186.04	20.68	-44.4	-45.6	25.7	6.02e-01	0	43	0	1026555904	59	4388
2026-01-27 01:58:47.43	186.11	20.54	-44.3	-45.5	25.9	6.01e-01	0	43	0	1028653056	59	4320
2026-01-27 01:58:48.44	186.18	20.39	-44.3	-45.5	25.9	6.04e-01	0	43	0	1030225920	59	4322
2026-01-27 01:58:49.44	186.25	20.24	-44.3	-45.5	25.9	6.03e-01	0	43	0	1032323072	59	4293
2026-01-27 01:58:50.45	186.32	20.10	-44.2	-45.4	25.9	6.01e-01	0	43	0	1034420224	59	4281
2026-01-27 01:58:51.46	186.39	19.95	-44.3	-45.5	25.9	6.04e-01	0	43	0	1035993088	59	4313
2026-01-27 01:58:52.47	186.46	19.81	-44.3	-45.5	25.9	6.03e-01	0	43	0	1038090240	59	4310
2026-01-27 01:58:53.48	186.53	19.67	-44.4	-45.6	25.8	5.99e-01	0	43	0	1040187392	59	4359
2026-01-27 01:58:54.49	186.59	19.53	-44.2	-45.4	26.0	6.02e-01	0	43	0	1041760256	59	4250
2026-01-27 01:58:55.49	186.66	19.39	-44.2	-45.3	26.0	6.02e-01	0	43	0	1043857408	59	4234
2026-01-27 01:58:56.50	186.72	19.25	-44.1	-45.3	26.0	6.02e-01	0	43	0	1045430272	59	4209
2026-01-27 01:58:57.51	186.79	19.11	-44.1	-45.3	26.0	6.00e-01	0	43	0	1047527424	59	4226
2026-01-27 01:58:58.52	186.85	18.97	-44.1	-45.2	26.0	6.01e-01	0	43	0	1049100288	59	4174
2026-01-27 01:58:59.53	186.92	18.83	-44.1	-45.2	26.0	6.02e-01	0	43	0	1051197440	59	4177
2026-01-27 01:59:00.54	186.98	18.69	-44.0	-45.2	26.0	6.03e-01	0	43	0	1053294592	59	4148
2026-01-27 01:59:01.55	187.04	18.56	-44.1	-45.2	26.0	6.04e-01	0	43	0	1054867456	59	4179
2026-01-27 01:59:02.56	187.10	18.42	-44.1	-45.3	26.0	6.04e-01	0	43	0	1056964608	59	4196
2026-01-27 01:59:03.56	187.16	18.29	-44.0	-45.1	26.2	6.02e-01	0	43	0	1059061760	59	4135
2026-01-27 01:59:04.57	187.23	18.15	-43.9	-45.0	26.2	6.02e-01	0	43	0	1060634624	59	4077
2026-01-27 01:59:05.58	187.29	18.02	-43.9	-45.0	26.2	6.01e-01	0	43	0	1062731776	59	4077
2026-01-27 01:59:06.59	187.35	17.89	-43.9	-45.1	26.2	6.03e-01	0	43	0	1064304640	59	4119
2026-01-27 01:59:07.60	187.40	17.76	-43.8	-44.9	26.3	6.01e-01	0	43	0	1066401792	59	4051
2026-01-27 01:59:08.61	187.46	17.63	-43.9	-45.1	26.2	6.04e-01	0	43	0	1068498944	59	4109
2026-01-27 01:59:09.62	187.52	17.50	-43.9	-45.1	26.2	6.03e-01	0	43	0	1070071808	59	4103
2026-01-27 01:59:10.63	187.58	17.37	-44.1	-45.2	26.1	6.01e-01	0	43	0	1072168960	59	4179
2026-01-27 01:59:11.63	187.64	17.24	-44.0	-45.2	26.1	6.04e-01	0	43	0	1073741824	59	4149
2026-01-27 01:59:12.64	187.69	17.11	-43.9	-45.1	26.2	6.03e-01	0	43	0	1075838976	59	4122
2026-01-27 01:59:13.64	187.75	16.99	-44.0	-45.1	26.1	6.02e-01	0	43	0	1077936128	59	4130
2026-01-27 01:59:14.65	187.80	16.86	-44.0	-45.1	26.1	6.07e-01	0	43	0	1079508992	59	4126
2026-01-27 01:59:15.66	187.86	16.73	-44.0	-45.2	26.1	6.03e-01	0	43	0	1081606144	59	4151
2026-01-27 01:59:16.67	187.92	16.61	-44.0	-45.1	26.1	6.02e-01	0	43	0	1083179008	59	4139
2026-01-27 01:59:17.67	187.97	16.48	-43.9	-45.1	26.0	6.03e-01	0	43	0	1085276160	59	4115
2026-01-27 01:59:18.68	188.02	16.36	-43.9	-45.1	26.1	6.04e-01	0	43	0	1087373312	59	4106
2026-01-27 01:59:19.68	188.08	16.24	-43.9	-45.1	26.2	6.05e-01	0	43	0	1088946176	59	4113
2026-01-27 01:59:20.69	188.13	16.12	-44.0	-45.2	26.0	6.05e-01	0	43	0	1091043328	59	4165
2026-01-27 01:59:21.70	188.18	15.99	-44.0	-45.2	26.1	6.05e-01	0	43	0	1092616192	59	4157
2026-01-27 01:59:22.70	188.23	15.87	-43.9	-45.1	26.1	6.01e-01	0	43	0	1094713344	59	4122
2026-01-27 01:59:23.71	188.29	15.75	-44.0	-45.1	26.1	6.04e-01	0	43	0	1096810496	59	4140
2026-01-27 01:59:24.72	188.34	15.63	-44.0	-45.2	26.0	6.01e-01	0	43	0	1098383360	59	4165
2026-01-27 01:59:25.73	188.39	15.52	-44.0	-45.2	26.0	6.02e-01	0	43	0	1100480512	59	4178
2026-01-27 01:59:26.74	188.44	15.40	-44.2	-45.4	25.8	6.02e-01	0	43	0	1102053376	59	4270
2026-01-27 01:59:27.75	188.49	15.28	-44.0	-45.2	26.0	6.00e-01	0	43	0	1104150528	59	4163
2026-01-27 01:59:28.75	188.54	15.16	-44.1	-45.3	26.0	6.03e-01	0	43	0	1106247680	59	4199
2026-01-27 01:59:29.76	188.59	15.05	-44.1	-45.3	25.8	6.04e-01	0	43	0	1107820544	59	4231
2026-01-27 01:59:30.77	188.64	14.93	-44.1	-45.3	25.9	6.04e-01	0	43	0	1109917696	59	4210
2026-01-27 01:59:31.77	188.69	14.81	-44.2	-45.4	25.8	6.03e-01	0	43	0	1111490560	59	4255
2026-01-27 01:59:32.78	188.74	14.70	-44.1	-45.3	25.9	6.02e-01	0	43	0	1113587712	59	4217
2026-01-27 01:59:33.79	188.78	14.59	-44.2	-45.4	25.8	6.03e-01	0	43	0	1115684864	59	4275
2026-01-27 01:59:34.80	188.83	14.47	-44.1	-45.3	25.8	6.03e-01	0	43	0	1117257728	59	4237
2026-01-27 01:59:35.80	188.88	14.36	-44.1	-45.2	25.9	6.02e-01	0	43	0	1119354880	59	4190
2026-01-27 01:59:36.81	188.93	14.25	-44.1	-45.3	25.9	6.03e-01	0	43	0	1120927744	59	4218
2026-01-27 01:59:37.82	188.97	14.13	-44.2	-45.4	25.8	6.02e-01	0	43	0	1123024896	59	4262
2026-01-27 01:59:38.82	189.02	14.02	-44.1	-45.3	25.8	6.02e-01	0	43	0	1125122048	59	4229
2026-01-27 01:59:39.83	189.06	13.91	-44.2	-45.4	25.7	6.03e-01	0	43	0	1126694912	59	4276
2026-01-27 01:59:40.84	189.11	13.80	-44.2	-45.4	25.8	6.03e-01	0	43	0	1128792064	59	4249
2026-01-27 01:59:41.85	189.16	13.69	-44.2	-45.4	25.7	6.04e-01	0	43	0	1130889216	59	4266
2026-01-27 01:59:42.85	189.20	13.58	-44.2	-45.4	25.7	6.01e-01	0	43	0	1132462080	59	4274
2026-01-27 01:59:43.86	189.24	13.48	-44.3	-45.5	25.6	6.02e-01	0	43	0	1134559232	59	4293
2026-01-27 01:59:44.87	189.29	13.37	-44.2	-45.4	25.7	6.03e-01	0	43	0	1136132096	59	4282
2026-01-27 01:59:45.88	189.33	13.26	-44.3	-45.5	25.7	5.99e-01	0	43	0	1138229248	59	4295
2026-01-27 01:59:46.89	189.38	13.15	-44.2	-45.4	25.7	6.04e-01	0	43	0	1139802112	59	4282
2026-01-27 01:59:47.90	189.42	13.04	-44.2	-45.4	25.6	6.02e-01	0	43	0	1141899264	59	4270
2026-01-27 01:59:48.90	189.46	12.94	-44.2	-45.4	25.6	6.03e-01	0	43	0	1143996416	59	4289
2026-01-27 01:59:49.90	189.51	12.83	-44.3	-45.5	25.6	6.02e-01	0	43	0	1145569280	59	4298
2026-01-27 01:59:50.91	189.55	12.73	-44.3	-45.5	25.5	6.01e-01	0	43	0	1147666432	59	4338
2026-01-27 01:59:51.92	189.59	12.62	-44.3	-45.5	25.6	6.03e-01	0	43	0	1149239296	59	4340
2026-01-27 01:59:52.93	189.63	12.52	-44.3	-45.6	25.5	6.03e-01	0	43	0	1151336448	59	4349
2026-01-27 01:59:53.94	189.67	12.42	-44.4	-45.7	25.5	6.05e-01	0	43	0	1153433600	59	4396
2026-01-27 01:59:54.94	189.72	12.31	-44.4	-45.7	25.4	6.04e-01	0	43	0	1155006464	59	4400
2026-01-27 01:59:55.95	189.76	12.21	-44.5	-45.8	25.3	6.02e-01	0	43	0	1157103616	59	4459
2026-01-27 01:59:56.96	189.80	12.11	-44.6	-45.9	25.2	6.03e-01	0	43	0	1159200768	59	4506
2026-01-27 01:59:57.96	189.84	12.01	-44.5	-45.8	25.2	6.03e-01	0	43	0	1160773632	59	4453
2026-01-27 01:59:58.97	189.88	11.91	-44.5	-45.7	25.3	6.02e-01	0	43	0	1162870784	59	4417
2026-01-27 01:59:59.98	189.92	11.80	-44.4	-45.6	25.4	6.02e-01	0	43	0	1164443648	59	4374
2026-01-27 02:00:00.98	189.96	11.71	-44.4	-45.6	25.4	6.03e-01	0	43	0	1166540800	59	4382
2026-01-27 02:00:01.99	190.00	11.61	-44.4	-45.6	25.4	6.04e-01	0	43	0	1168113664	59	4363
2026-01-27 02:00:03.00	190.04	11.51	-44.5	-45.8	25.2	6.01e-01	0	43	0	1170210816	59	4449
2026-01-27 02:00:04.01	190.07	11.41	-44.4	-45.6	25.4	6.05e-01	0	43	0	1172307968	59	4357
2026-01-27 02:00:05.02	190.11	11.31	-44.5	-45.7	25.4	6.03e-01	0	43	0	1173880832	59	4419
2026-01-27 02:00:06.03	190.15	11.21	-44.5	-45.7	25.4	6.00e-01	0	43	0	1175977984	59	4420
2026-01-27 02:00:07.03	190.19	11.11	-44.4	-45.7	25.3	6.04e-01	0	43	0	1177550848	59	4393
2026-01-27 02:00:08.04	190.23	11.01	-44.6	-45.8	25.2	6.02e-01	0	43	0	1179648000	59	4469
2026-01-27 02:00:09.05	190.27	10.92	-44.5	-45.8	25.2	6.02e-01	0	43	0	1181745152	59	4459
2026-01-27 02:00:10.06	190.30	10.82	-44.5	-45.7	25.3	6.01e-01	0	43	0	1183318016	59	4441
2026-01-27 02:00:11.07	190.34	10.72	-44.6	-45.8	25.2	6.01e-01	0	43	0	1185415168	59	4485
2026-01-27 02:00:12.07	190.38	10.63	-44.7	-46.0	25.0	6.03e-01	0	43	0	1187512320	60	4295
2026-01-27 02:00:13.08	190.41	10.53	-44.5	-45.8	25.3	6.03e-01	0	43	0	1189085184	60	4203
2026-01-27 02:00:14.08	190.45	10.44	-44.5	-45.8	25.4	6.05e-01	0	43	0	1191182336	60	4198
2026-01-27 02:00:15.09	190.49	10.34	-44.5	-45.8	25.3	6.02e-01	0	43	0	1192755200	60	4201
2026-01-27 02:00:16.09	190.52	10.25	-44.7	-45.9	25.2	6.04e-01	0	43	0	1194852352	60	4283
2026-01-27 02:00:17.10	190.56	10.16	-44.5	-45.8	25.3	6.05e-01	0	43	0	1196949504	60	4209
2026-01-27 02:00:18.11	190.59	10.06	-44.6	-45.9	25.3	6.03e-01	0	43	0	1198522368	60	4258
2026-01-27 02:00:19.11	190.63	9.97	-44.7	-45.9	25.2	6.04e-01	0	43	0	1200619520	60	4286
2026-01-27 02:00:20.12	190.66	9.88	-44.7	-45.9	25.2	6.02e-01	0	43	0	1202192384	60	4276
2026-01-27 02:00:21.13	190.70	9.79	-44.6	-45.8	25.2	6.01e-01	0	43	0	1204289536	60	4241
2026-01-27 02:00:22.14	190.73	9.69	-44.6	-45.9	25.2	6.01e-01	0	43	0	1206386688	60	4254
2026-01-27 02:00:23.15	190.77	9.60	-44.7	-46.0	25.1	6.04e-01	0	43	0	1207959552	60	4293
2026-01-27 02:00:24.15	190.80	9.51	-44.8	-46.0	25.0	6.04e-01	0	43	0	1210056704	60	4332
2026-01-27 02:00:25.16	190.84	9.42	-44.6	-45.9	25.1	6.01e-01	0	43	0	1211629568	60	4273
2026-01-27 02:00:26.17	190.87	9.33	-44.7	-46.0	25.1	6.02e-01	0	43	0	1213726720	60	4299
2026-01-27 02:00:27.18	190.90	9.24	-44.7	-46.0	25.1	6.03e-01	0	43	0	1215823872	60	4311
2026-01-27 02:00:28.18	190.94	9.15	-44.8	-46.0	25.0	6.03e-01	0	43	0	1217396736	60	4326
2026-01-27 02:00:29.19	190.97	9.06	-44.9	-46.1	24.9	6.01e-01	0	43	0	1219493888	60	4388
2026-01-27 02:00:30.20	191.00	8.97	-44.8	-46.0	25.0	6.05e-01	0	43	0	1221066752	60	4335
2026-01-27 02:00:31.20	191.04	8.88	-44.8	-46.0	24.9	6.02e-01	0	43	0	1223163904	60	4339
2026-01-27 02:00:32.21	191.07	8.80	-44.8	-46.1	24.9	6.03e-01	0	43	0	1225261056	60	4391
2026-01-27 02:00:33.22	191.10	8.71	-44.8	-46.1	24.9	6.02e-01	0	43	0	1226833920	60	4386
2026-01-27 02:00:34.23	191.13	8.62	-45.0	-46.3	24.7	6.04e-01	0	43	0	1228931072	60	4457
2026-01-27 02:00:35.24	191.17	8.53	-44.9	-46.2	24.8	6.02e-01	0	43	0	1230503936	60	4413
2026-01-27 02:00:36.25	191.20	8.45	-45.0	-46.3	24.7	6.02e-01	0	43	0	1232601088	60	4467
2026-01-27 02:00:37.26	191.23	8.36	-45.1	-46.4	24.6	6.01e-01	0	43	0	1234698240	60	4507
2026-01-27 02:00:38.27	191.26	8.27	-45.1	-46.5	24.5	6.03e-01	0	43	0	1236271104	60	4560
2026-01-27 02:00:39.27	191.29	8.19	-45.0	-46.4	24.6	6.01e-01	0	43	0	1238368256	60	4494
2026-01-27 02:00:40.29	191.33	8.10	-45.0	-46.3	24.6	6.01e-01	0	43	0	1239941120	60	4480
2026-01-27 02:00:41.30	191.36	8.01	-45.1	-46.4	24.5	6.04e-01	0	43	0	1242038272	60	4531
2026-01-27 02:00:42.30	191.39	7.93	-45.1	-46.4	24.5	6.03e-01	0	43	0	1244135424	60	4509
2026-01-27 02:00:43.31	191.42	7.85	-45.1	-46.5	24.5	6.03e-01	0	43	0	1245708288	60	4568
2026-01-27 02:00:44.32	191.45	7.76	-45.3	-46.7	24.3	6.03e-01	0	43	0	1247805440	61	4401
2026-01-27 02:00:45.33	191.48	7.68	-45.3	-46.7	24.3	6.02e-01	0	43	0	1249378304	61	4402
2026-01-27 02:00:46.33	191.51	7.59	-45.3	-46.7	24.2	6.01e-01	0	43	0	1251475456	61	4422
2026-01-27 02:00:47.34	191.54	7.51	-45.3	-46.7	24.3	6.01e-01	0	43	0	1253572608	61	4425
2026-01-27 02:00:48.35	191.57	7.43	-45.4	-46.8	24.2	6.01e-01	0	43	0	1255145472	61	4464
