passes_logs/2026/01/27/R3.2S_Murmansk/R3.2S_Murmansk__20260127_054544_SUOMI_NPP_rec.log

#Pass ID: 20260127_054544_SUOMI NPP
#Satellite: SUOMI NPP
#Configuration: NPP
#almurnet v.1.7.20251203
#Start time: 2026-01-27 05:45:45

#Version: 2.2.20231116
#Station: R3.2S_Murmansk
#Location: 33.079688 lon 68.888172 lat
#TLE: 1 37849U 11061A   26026.52266023  .00000173  00000+0  10323-3 0  9994
#TLE: 2 37849  98.7822 328.4727 0002140  43.9411 316.1934 14.19530258738341

#Time	Az	El	Level	Level2	SNR	BER	BlckErr	Temp	State	Recorded	gain1	gain2
2026-01-27 05:45:45.59	70.32	2.08	-52.0	-66.9	3.8	1.49e+00	0	41	0	0	76	19124
2026-01-27 05:45:46.60	70.26	2.14	-51.9	-66.9	3.8	1.49e+00	0	41	104	0	74	21439
2026-01-27 05:45:47.60	70.19	2.20	-52.0	-66.9	3.8	1.49e+00	0	41	104	0	74	21407
2026-01-27 05:45:48.61	70.13	2.26	-52.0	-66.9	3.8	1.49e+00	0	41	104	0	74	21340
2026-01-27 05:45:49.61	70.06	2.31	-52.0	-66.9	3.8	1.49e+00	0	41	104	0	74	21405
2026-01-27 05:45:50.63	70.00	2.37	-51.9	-66.9	3.8	1.49e+00	0	41	104	0	74	21387
2026-01-27 05:45:51.63	69.93	2.43	-51.9	-66.9	3.8	1.49e+00	0	41	104	0	74	21348
2026-01-27 05:45:52.64	69.87	2.49	-52.0	-66.9	3.8	1.49e+00	0	41	104	0	74	21372
2026-01-27 05:45:53.65	69.80	2.55	-52.0	-66.9	3.8	1.49e+00	0	41	104	0	74	21360
2026-01-27 05:45:54.65	69.74	2.60	-51.9	-66.9	3.8	1.49e+00	0	41	104	0	74	21323
2026-01-27 05:45:55.66	69.67	2.66	-51.9	-66.9	3.8	1.49e+00	0	41	104	0	74	21342
2026-01-27 05:45:56.67	69.61	2.72	-51.9	-66.9	3.8	1.49e+00	0	41	104	0	74	21304
2026-01-27 05:45:57.68	69.54	2.78	-51.9	-66.9	3.8	1.49e+00	0	41	104	0	74	21294
2026-01-27 05:45:58.69	69.47	2.84	-51.9	-66.9	3.8	1.49e+00	0	41	104	0	74	21288
2026-01-27 05:45:59.70	69.40	2.90	-51.9	-66.9	3.8	1.49e+00	0	41	104	0	74	21282
2026-01-27 05:46:00.71	69.34	2.96	-51.9	-66.9	3.8	1.49e+00	0	41	104	0	74	21313
2026-01-27 05:46:01.71	69.27	3.01	-51.9	-66.9	3.8	1.49e+00	0	41	104	0	74	21290
2026-01-27 05:46:02.72	69.20	3.07	-51.9	-66.9	3.8	1.49e+00	0	41	104	0	74	21340
2026-01-27 05:46:03.73	69.13	3.13	-51.9	-66.9	3.8	1.49e+00	0	41	104	0	74	21306
2026-01-27 05:46:04.73	69.07	3.19	-51.9	-66.9	3.8	1.49e+00	0	41	104	0	74	21312
2026-01-27 05:46:05.74	69.00	3.25	-51.9	-66.8	3.8	1.49e+00	0	41	104	0	74	21212
2026-01-27 05:46:06.75	68.93	3.31	-51.9	-66.8	3.8	1.49e+00	0	41	104	0	74	21212
2026-01-27 05:46:07.76	68.86	3.37	-51.9	-66.8	3.8	1.49e+00	0	41	104	0	74	21202
2026-01-27 05:46:08.76	68.79	3.43	-51.9	-66.8	3.8	1.49e+00	0	41	104	0	74	21232
2026-01-27 05:46:09.77	68.72	3.49	-51.9	-66.8	3.8	1.49e+00	0	41	104	0	74	21227
2026-01-27 05:46:10.78	68.65	3.55	-51.9	-66.9	3.8	1.49e+00	0	41	104	0	74	21271
2026-01-27 05:46:11.79	68.58	3.61	-51.9	-66.9	3.8	1.49e+00	0	41	104	0	74	21305
2026-01-27 05:46:12.79	68.51	3.67	-51.9	-66.9	3.8	1.49e+00	0	41	104	0	74	21279
2026-01-27 05:46:13.80	68.44	3.73	-51.9	-66.9	3.8	1.49e+00	0	41	104	0	74	21265
2026-01-27 05:46:14.80	68.36	3.79	-51.9	-66.8	3.8	1.49e+00	0	42	104	0	74	21241
2026-01-27 05:46:15.81	68.29	3.85	-51.9	-66.8	3.8	1.49e+00	0	41	104	0	74	21226
2026-01-27 05:46:16.82	68.22	3.91	-51.9	-66.9	3.8	1.49e+00	0	42	104	0	74	21297
2026-01-27 05:46:17.83	68.15	3.97	-51.9	-66.9	3.8	1.49e+00	0	41	104	0	74	21295
2026-01-27 05:46:18.84	68.07	4.03	-51.9	-66.7	3.8	1.49e+00	0	42	104	0	74	20985
2026-01-27 05:46:19.85	68.00	4.09	-51.9	-66.4	3.8	1.49e+00	0	42	104	0	74	20171
2026-01-27 05:46:20.85	67.93	4.15	-51.9	-65.9	3.8	1.49e+00	0	42	104	0	74	19070
2026-01-27 05:46:21.86	67.85	4.21	-51.9	-65.2	3.8	1.49e+00	0	42	104	0	74	17646
2026-01-27 05:46:22.87	67.78	4.27	-51.8	-64.5	3.8	1.48e+00	0	41	104	0	74	16297
2026-01-27 05:46:23.88	67.71	4.33	-51.8	-64.3	4.0	1.48e+00	0	42	104	0	74	15815
2026-01-27 05:46:24.89	67.63	4.39	-51.8	-63.9	4.1	1.45e+00	0	42	0	0	74	15118
2026-01-27 05:46:25.89	67.56	4.45	-51.8	-64.2	3.8	1.45e+00	0	42	104	0	74	15702
2026-01-27 05:46:26.90	67.48	4.51	-51.8	-64.1	4.0	1.46e+00	0	42	0	0	74	15502
2026-01-27 05:46:27.91	67.41	4.57	-51.8	-64.3	3.8	1.47e+00	0	42	104	0	74	15803
2026-01-27 05:46:28.91	67.33	4.63	-51.7	-63.2	4.2	1.44e+00	0	42	0	0	74	13983
2026-01-27 05:46:29.92	67.25	4.70	-51.5	-61.5	4.9	8.25e-01	0	42	0	1048576	74	11508
2026-01-27 05:46:30.93	67.18	4.76	-51.3	-59.9	5.9	4.34e-01	0	41	0	3145728	74	9516
2026-01-27 05:46:31.94	67.10	4.82	-51.0	-58.3	7.3	1.78e-01	0	42	0	4194304	74	7912
2026-01-27 05:46:32.94	67.02	4.88	-50.8	-57.3	8.1	8.70e-02	0	42	0	6291456	73	7537
2026-01-27 05:46:33.95	66.95	4.94	-50.5	-56.4	9.1	2.07e-02	0	42	0	8388608	73	6745
2026-01-27 05:46:34.96	66.87	5.00	-50.2	-55.2	10.4	9.66e-03	0	42	0	10485760	72	6256
2026-01-27 05:46:35.97	66.79	5.07	-49.6	-53.6	12.4	1.17e-03	0	42	0	12582912	70	5806
2026-01-27 05:46:36.97	66.71	5.13	-48.3	-51.1	14.9	2.20e-06	0	42	0	13631488	68	4887
2026-01-27 05:46:37.98	66.63	5.19	-51.9	-66.6	3.8	3.55e-01	0	42	104	15728640	74	20652
2026-01-27 05:46:38.98	66.55	5.25	-51.0	-57.2	8.6	1.35e+00	0	42	104	15728640	73	7450
2026-01-27 05:46:39.98	66.47	5.31	-48.4	-51.4	14.5	5.86e-03	0	42	0	16777216	68	5083
2026-01-27 05:46:40.99	66.39	5.37	-48.2	-51.0	14.8	7.00e-07	0	42	0	18874368	68	4857
2026-01-27 05:46:42.00	66.31	5.44	-48.3	-51.2	14.7	0.00e+00	0	42	0	20971520	68	4943
2026-01-27 05:46:43.01	66.23	5.50	-47.7	-50.3	15.6	0.00e+00	0	42	0	23068672	67	4715
2026-01-27 05:46:44.01	66.15	5.56	-47.9	-50.6	15.4	0.00e+00	0	42	0	25165824	67	4872
2026-01-27 05:46:45.02	66.07	5.62	-47.9	-50.5	15.4	0.00e+00	0	42	0	26214400	67	4859
2026-01-27 05:46:46.03	65.99	5.69	-47.9	-50.6	15.3	0.00e+00	0	42	0	28311552	67	4898
2026-01-27 05:46:47.03	65.91	5.75	-47.2	-49.5	16.3	0.00e+00	0	42	0	30408704	66	4594
2026-01-27 05:46:48.04	65.82	5.81	-47.3	-49.6	16.3	0.00e+00	0	42	0	32505856	66	4650
2026-01-27 05:46:49.04	65.74	5.88	-47.3	-49.6	16.3	0.00e+00	0	42	0	33554432	66	4626
2026-01-27 05:46:50.04	65.66	5.94	-47.1	-49.2	16.7	0.00e+00	0	42	0	35651584	66	4436
2026-01-27 05:46:51.05	65.57	6.00	-47.3	-49.6	16.4	0.00e+00	0	42	0	37748736	66	4610
2026-01-27 05:46:52.06	65.49	6.06	-47.3	-49.5	16.5	0.00e+00	0	42	0	39845888	66	4586
2026-01-27 05:46:53.06	65.41	6.13	-47.2	-49.4	16.6	0.00e+00	0	42	0	41943040	66	4521
2026-01-27 05:46:54.06	65.32	6.19	-47.2	-49.4	16.6	0.00e+00	0	42	0	42991616	66	4509
2026-01-27 05:46:55.07	65.24	6.25	-47.1	-49.3	16.7	0.00e+00	0	42	0	45088768	66	4468
2026-01-27 05:46:56.08	65.15	6.32	-47.3	-49.5	16.5	0.00e+00	0	42	0	47185920	66	4593
2026-01-27 05:46:57.09	65.06	6.38	-47.5	-49.8	16.3	0.00e+00	0	42	0	49283072	66	4731
2026-01-27 05:46:58.09	64.98	6.45	-47.6	-50.0	16.0	0.00e+00	0	42	0	51380224	66	4849
2026-01-27 05:46:59.10	64.89	6.51	-47.4	-49.8	16.3	0.00e+00	0	42	0	53477376	66	4737
2026-01-27 05:47:00.11	64.80	6.57	-47.5	-49.8	16.3	0.00e+00	0	42	0	54525952	66	4738
2026-01-27 05:47:01.12	64.72	6.64	-47.5	-49.9	16.2	0.00e+00	0	42	0	56623104	66	4801
2026-01-27 05:47:02.12	64.63	6.70	-47.5	-49.9	16.2	0.00e+00	0	42	0	58720256	66	4813
2026-01-27 05:47:03.12	64.54	6.77	-47.5	-49.9	16.2	0.00e+00	0	42	0	60817408	66	4783
2026-01-27 05:47:04.13	64.45	6.83	-47.4	-49.7	16.3	0.00e+00	0	42	0	61865984	66	4702
2026-01-27 05:47:05.13	64.36	6.89	-47.7	-50.2	16.0	0.00e+00	0	42	0	63963136	66	4946
2026-01-27 05:47:06.14	64.27	6.96	-47.6	-50.0	16.1	0.00e+00	0	42	0	66060288	66	4837
2026-01-27 05:47:07.14	64.18	7.02	-47.6	-50.0	16.0	0.00e+00	0	42	0	68157440	66	4865
2026-01-27 05:47:08.15	64.09	7.09	-47.8	-50.3	15.8	0.00e+00	0	42	0	70254592	66	5038
2026-01-27 05:47:09.15	64.00	7.15	-47.7	-50.2	16.0	0.00e+00	0	42	0	71303168	66	4950
2026-01-27 05:47:10.16	63.91	7.22	-48.0	-50.6	15.5	0.00e+00	0	42	0	73400320	66	5200
2026-01-27 05:47:11.17	63.82	7.28	-47.7	-50.2	15.9	0.00e+00	0	42	0	75497472	66	4957
2026-01-27 05:47:12.18	63.73	7.35	-47.6	-50.0	16.1	0.00e+00	0	42	0	77594624	66	4855
2026-01-27 05:47:13.18	63.64	7.41	-47.7	-50.1	16.1	0.00e+00	0	42	0	79691776	66	4901
2026-01-27 05:47:14.19	63.54	7.48	-47.4	-49.7	16.5	0.00e+00	0	42	0	80740352	66	4681
2026-01-27 05:47:15.19	63.45	7.54	-47.4	-49.7	16.5	0.00e+00	0	42	0	82837504	66	4660
2026-01-27 05:47:16.20	63.36	7.61	-47.3	-49.5	16.6	0.00e+00	0	42	0	84934656	66	4592
2026-01-27 05:47:17.21	63.26	7.68	-47.3	-49.5	16.6	0.00e+00	0	42	0	87031808	66	4594
2026-01-27 05:47:18.21	63.17	7.74	-47.2	-49.5	16.7	0.00e+00	0	42	0	89128960	66	4564
2026-01-27 05:47:19.21	63.07	7.81	-47.5	-49.9	16.3	0.00e+00	0	42	0	90177536	66	4793
2026-01-27 05:47:20.22	62.98	7.87	-47.4	-49.7	16.5	0.00e+00	0	42	0	92274688	66	4681
2026-01-27 05:47:21.23	62.88	7.94	-47.1	-49.3	16.9	0.00e+00	0	42	0	94371840	66	4463
2026-01-27 05:47:22.24	62.78	8.00	-47.3	-49.6	16.6	0.00e+00	0	42	0	96468992	66	4639
2026-01-27 05:47:23.25	62.69	8.07	-47.2	-49.4	16.8	0.00e+00	0	42	0	98566144	66	4521
2026-01-27 05:47:24.26	62.59	8.14	-46.8	-48.9	17.3	0.00e+00	0	43	0	99614720	65	4504
2026-01-27 05:47:25.26	62.49	8.20	-46.9	-48.9	17.2	0.00e+00	0	42	0	101711872	65	4530
2026-01-27 05:47:26.27	62.39	8.27	-46.8	-48.8	17.4	0.00e+00	0	42	0	103809024	65	4475
2026-01-27 05:47:27.28	62.29	8.34	-46.7	-48.7	17.5	0.00e+00	0	42	0	105906176	65	4427
2026-01-27 05:47:28.29	62.19	8.40	-46.7	-48.8	17.4	0.00e+00	0	42	0	108003328	65	4452
2026-01-27 05:47:29.29	62.10	8.47	-46.8	-48.9	17.3	0.00e+00	0	42	0	110100480	65	4539
2026-01-27 05:47:30.30	62.00	8.54	-46.8	-48.9	17.3	0.00e+00	0	42	0	111149056	65	4517
2026-01-27 05:47:31.31	61.89	8.60	-46.8	-48.9	17.3	0.00e+00	0	42	0	113246208	65	4528
2026-01-27 05:47:32.31	61.79	8.67	-46.8	-48.8	17.5	0.00e+00	0	42	0	115343360	65	4475
2026-01-27 05:47:33.32	61.69	8.74	-46.7	-48.7	17.6	0.00e+00	0	42	0	117440512	65	4397
2026-01-27 05:47:34.32	61.59	8.80	-46.7	-48.6	17.6	0.00e+00	0	42	0	118489088	65	4361
2026-01-27 05:47:35.33	61.49	8.87	-46.7	-48.6	17.7	0.00e+00	0	42	0	120586240	65	4353
2026-01-27 05:47:36.34	61.38	8.94	-46.5	-48.4	17.9	0.00e+00	0	42	0	122683392	65	4254
2026-01-27 05:47:37.34	61.28	9.01	-46.6	-48.4	17.8	0.00e+00	0	42	0	124780544	65	4285
2026-01-27 05:47:38.35	61.18	9.07	-46.7	-48.7	17.6	0.00e+00	0	42	0	126877696	65	4396
2026-01-27 05:47:39.36	61.07	9.14	-46.8	-48.8	17.5	0.00e+00	0	42	0	127926272	65	4442
2026-01-27 05:47:40.36	60.97	9.21	-46.9	-49.0	17.4	0.00e+00	0	42	0	130023424	65	4550
2026-01-27 05:47:41.36	60.86	9.28	-47.0	-49.0	17.3	0.00e+00	0	42	0	132120576	65	4584
2026-01-27 05:47:42.37	60.76	9.34	-46.9	-48.9	17.4	0.00e+00	0	43	0	134217728	65	4516
2026-01-27 05:47:43.38	60.65	9.41	-46.7	-48.6	17.7	0.00e+00	0	42	0	136314880	65	4361
2026-01-27 05:47:44.38	60.54	9.48	-46.8	-48.8	17.5	0.00e+00	0	43	0	137363456	65	4466
2026-01-27 05:47:45.38	60.44	9.55	-46.7	-48.6	17.7	0.00e+00	0	42	0	139460608	65	4385
2026-01-27 05:47:46.39	60.33	9.62	-46.8	-48.7	17.6	0.00e+00	0	42	0	141557760	65	4434
2026-01-27 05:47:47.39	60.22	9.68	-46.9	-48.8	17.5	0.00e+00	0	42	0	143654912	65	4493
2026-01-27 05:47:48.40	60.11	9.75	-46.9	-48.9	17.4	0.00e+00	0	42	0	145752064	65	4532
2026-01-27 05:47:49.41	60.00	9.82	-47.1	-49.2	17.2	0.00e+00	0	43	0	146800640	65	4671
2026-01-27 05:47:50.41	59.89	9.89	-47.2	-49.3	17.1	0.00e+00	0	42	0	148897792	65	4731
2026-01-27 05:47:51.42	59.78	9.96	-47.2	-49.3	17.0	0.00e+00	0	42	0	150994944	65	4746
2026-01-27 05:47:52.43	59.67	10.03	-47.1	-49.1	17.3	0.00e+00	0	42	0	153092096	65	4628
2026-01-27 05:47:53.44	59.56	10.10	-47.0	-49.0	17.4	0.00e+00	0	43	0	155189248	65	4564
2026-01-27 05:47:54.44	59.45	10.17	-47.2	-49.3	17.1	0.00e+00	0	42	0	156237824	65	4722
2026-01-27 05:47:55.44	59.33	10.23	-47.1	-49.1	17.3	0.00e+00	0	42	0	158334976	65	4634
2026-01-27 05:47:56.44	59.22	10.30	-47.2	-49.4	17.0	0.00e+00	0	42	0	160432128	65	4764
2026-01-27 05:47:57.45	59.11	10.37	-47.4	-49.6	16.8	0.00e+00	0	42	0	162529280	65	4893
2026-01-27 05:47:58.46	58.99	10.44	-47.1	-49.2	17.2	0.00e+00	0	42	0	164626432	65	4659
2026-01-27 05:47:59.46	58.88	10.51	-47.1	-49.1	17.3	0.00e+00	0	42	0	165675008	65	4619
2026-01-27 05:48:00.46	58.76	10.58	-47.0	-49.0	17.3	0.00e+00	0	43	0	167772160	65	4588
2026-01-27 05:48:01.47	58.65	10.65	-47.1	-49.1	17.3	0.00e+00	0	42	0	169869312	65	4629
2026-01-27 05:48:02.48	58.53	10.72	-47.0	-49.0	17.4	0.00e+00	0	42	0	171966464	65	4573
2026-01-27 05:48:03.49	58.41	10.79	-47.0	-49.0	17.4	0.00e+00	0	43	0	174063616	65	4579
2026-01-27 05:48:04.49	58.29	10.86	-46.9	-48.8	17.5	0.00e+00	0	42	0	175112192	65	4487
2026-01-27 05:48:05.50	58.17	10.93	-47.1	-49.2	17.2	0.00e+00	0	42	0	177209344	65	4662
2026-01-27 05:48:06.51	58.06	11.00	-47.0	-49.0	17.4	0.00e+00	0	42	0	179306496	65	4569
2026-01-27 05:48:07.51	57.94	11.07	-46.9	-48.8	17.6	0.00e+00	0	42	0	181403648	65	4463
2026-01-27 05:48:08.52	57.82	11.14	-46.8	-48.7	17.7	0.00e+00	0	43	0	183500800	65	4430
2026-01-27 05:48:09.52	57.70	11.21	-46.8	-48.7	17.7	0.00e+00	0	43	0	184549376	65	4427
2026-01-27 05:48:10.53	57.57	11.28	-46.6	-48.4	18.0	0.00e+00	0	43	0	186646528	65	4291
2026-01-27 05:48:11.54	57.45	11.35	-46.4	-48.2	18.2	0.00e+00	0	43	0	188743680	64	4429
2026-01-27 05:48:12.55	57.33	11.42	-46.4	-48.1	18.3	0.00e+00	0	42	0	190840832	64	4391
2026-01-27 05:48:13.56	57.21	11.49	-46.6	-48.4	18.0	0.00e+00	0	43	0	192937984	64	4535
2026-01-27 05:48:14.56	57.08	11.56	-46.5	-48.3	18.1	0.00e+00	0	43	0	193986560	64	4455
2026-01-27 05:48:15.57	56.96	11.63	-46.5	-48.3	18.2	0.00e+00	0	43	0	196083712	64	4452
2026-01-27 05:48:16.57	56.83	11.70	-46.5	-48.3	18.1	0.00e+00	0	42	0	198180864	64	4484
2026-01-27 05:48:17.58	56.71	11.77	-46.4	-48.1	18.3	0.00e+00	0	42	0	200278016	64	4380
2026-01-27 05:48:18.59	56.58	11.84	-46.3	-48.1	18.2	0.00e+00	0	43	0	201326592	64	4364
2026-01-27 05:48:19.60	56.45	11.91	-46.3	-48.1	18.3	0.00e+00	0	42	0	203423744	64	4361
2026-01-27 05:48:20.60	56.33	11.98	-46.1	-47.9	18.6	0.00e+00	0	43	0	205520896	64	4245
2026-01-27 05:48:21.61	56.20	12.05	-46.2	-47.9	18.5	0.00e+00	0	43	0	207618048	64	4279
2026-01-27 05:48:22.62	56.07	12.13	-46.0	-47.7	18.7	0.00e+00	0	42	0	209715200	64	4182
2026-01-27 05:48:23.62	55.94	12.20	-46.2	-47.8	18.7	0.00e+00	0	43	0	211812352	63	4493
2026-01-27 05:48:24.63	55.81	12.27	-46.2	-47.9	18.6	0.00e+00	0	43	0	212860928	63	4519
2026-01-27 05:48:25.63	55.68	12.34	-46.0	-47.7	18.8	0.00e+00	0	43	0	214958080	63	4401
2026-01-27 05:48:26.64	55.55	12.41	-46.1	-47.8	18.8	0.00e+00	0	43	0	217055232	63	4474
2026-01-27 05:48:27.65	55.42	12.48	-46.1	-47.8	18.7	0.00e+00	0	43	0	219152384	63	4483
2026-01-27 05:48:28.65	55.28	12.55	-46.2	-47.9	18.7	0.00e+00	0	43	0	221249536	63	4507
2026-01-27 05:48:29.66	55.15	12.62	-46.0	-47.7	18.9	0.00e+00	0	43	0	222298112	63	4402
2026-01-27 05:48:30.67	55.02	12.70	-46.2	-47.9	18.7	0.00e+00	0	43	0	224395264	63	4503
2026-01-27 05:48:31.67	54.88	12.77	-46.1	-47.8	18.7	0.00e+00	0	43	0	226492416	63	4462
2026-01-27 05:48:32.68	54.75	12.84	-45.8	-47.3	19.2	0.00e+00	0	42	0	228589568	63	4235
2026-01-27 05:48:33.69	54.61	12.91	-45.8	-47.4	19.1	0.00e+00	0	43	0	229638144	63	4272
2026-01-27 05:48:34.70	54.47	12.98	-46.0	-47.6	18.9	0.00e+00	0	42	0	231735296	63	4391
2026-01-27 05:48:35.70	54.34	13.05	-46.1	-47.7	18.8	0.00e+00	0	43	0	233832448	63	4432
2026-01-27 05:48:36.71	54.20	13.13	-46.1	-47.8	18.8	0.00e+00	0	43	0	235929600	63	4453
2026-01-27 05:48:37.72	54.06	13.20	-46.2	-47.9	18.7	0.00e+00	0	43	0	238026752	63	4504
2026-01-27 05:48:38.73	53.92	13.27	-46.1	-47.8	18.8	0.00e+00	0	43	0	240123904	63	4453
2026-01-27 05:48:39.73	53.78	13.34	-46.1	-47.7	18.8	0.00e+00	0	43	0	241172480	63	4424
2026-01-27 05:48:40.74	53.64	13.41	-46.0	-47.6	18.8	0.00e+00	0	43	0	243269632	63	4382
2026-01-27 05:48:41.75	53.50	13.49	-46.0	-47.7	18.8	0.00e+00	0	43	0	245366784	63	4393
2026-01-27 05:48:42.75	53.35	13.56	-46.1	-47.8	18.6	0.00e+00	0	43	0	247463936	63	4473
2026-01-27 05:48:43.76	53.21	13.63	-46.1	-47.8	18.6	0.00e+00	0	43	0	249561088	63	4483
2026-01-27 05:48:44.76	53.07	13.70	-46.0	-47.7	18.7	0.00e+00	0	43	0	250609664	63	4439
2026-01-27 05:48:45.77	52.92	13.77	-46.0	-47.6	18.6	0.00e+00	0	43	0	252706816	63	4391
2026-01-27 05:48:46.78	52.78	13.85	-46.0	-47.7	18.5	0.00e+00	0	43	0	254803968	63	4404
2026-01-27 05:48:47.78	52.63	13.92	-46.0	-47.7	18.5	0.00e+00	0	43	0	256901120	63	4408
2026-01-27 05:48:48.79	52.49	13.99	-46.2	-47.9	18.3	0.00e+00	0	42	0	257949696	63	4545
2026-01-27 05:48:49.79	52.34	14.06	-46.2	-47.9	18.3	0.00e+00	0	43	0	260046848	63	4534
2026-01-27 05:48:50.80	52.19	14.13	-46.0	-47.7	18.5	0.00e+00	0	43	0	262144000	63	4397
2026-01-27 05:48:51.80	52.04	14.21	-46.1	-47.9	18.3	0.00e+00	0	43	0	264241152	63	4500
2026-01-27 05:48:52.81	51.89	14.28	-46.2	-48.0	18.4	0.00e+00	0	42	0	266338304	63	4565
2026-01-27 05:48:53.82	51.74	14.35	-46.2	-48.0	18.4	0.00e+00	0	43	0	268435456	63	4560
2026-01-27 05:48:54.83	51.59	14.42	-46.4	-48.2	18.2	0.00e+00	0	42	0	269484032	63	4683
2026-01-27 05:48:55.83	51.44	14.49	-46.3	-48.2	18.3	0.00e+00	0	42	0	271581184	63	4654
2026-01-27 05:48:56.84	51.29	14.57	-46.3	-48.1	18.4	0.00e+00	0	43	0	273678336	63	4602
2026-01-27 05:48:57.84	51.14	14.64	-46.4	-48.3	18.2	0.00e+00	0	43	0	275775488	63	4707
2026-01-27 05:48:58.85	50.98	14.71	-46.3	-48.0	18.3	0.00e+00	0	42	0	277872640	63	4597
2026-01-27 05:48:59.85	50.83	14.78	-46.2	-48.0	18.5	0.00e+00	0	43	0	278921216	63	4546
2026-01-27 05:49:00.86	50.67	14.86	-46.3	-48.1	18.2	0.00e+00	0	43	0	281018368	63	4608
2026-01-27 05:49:01.87	50.52	14.93	-46.2	-47.9	18.1	0.00e+00	0	43	0	283115520	63	4514
2026-01-27 05:49:02.88	50.36	15.00	-46.3	-48.0	17.9	0.00e+00	0	43	0	285212672	63	4579
2026-01-27 05:49:03.89	50.20	15.07	-46.4	-48.2	17.7	0.00e+00	0	43	0	287309824	63	4705
2026-01-27 05:49:04.89	50.04	15.15	-46.3	-48.1	18.1	0.00e+00	0	43	0	288358400	63	4599
2026-01-27 05:49:05.90	49.88	15.22	-46.4	-48.2	18.0	0.00e+00	0	43	0	290455552	63	4685
2026-01-27 05:49:06.90	49.72	15.29	-46.6	-48.5	17.2	0.00e+00	0	43	0	292552704	63	4829
2026-01-27 05:49:07.91	49.56	15.36	-46.8	-48.8	16.9	0.00e+00	0	42	0	294649856	64	4735
2026-01-27 05:49:08.91	49.40	15.43	-47.0	-49.1	17.2	0.00e+00	0	43	0	296747008	64	4886
2026-01-27 05:49:09.91	49.24	15.51	-47.2	-49.4	17.0	0.00e+00	0	43	0	297795584	65	4788
2026-01-27 05:49:10.92	49.08	15.58	-47.1	-49.3	17.0	0.00e+00	0	43	0	299892736	65	4721
2026-01-27 05:49:11.93	48.91	15.65	-47.3	-49.5	17.1	0.00e+00	0	43	0	301989888	65	4855
2026-01-27 05:49:12.94	48.75	15.72	-47.2	-49.3	17.3	0.00e+00	0	43	0	304087040	65	4718
2026-01-27 05:49:13.95	48.58	15.80	-47.0	-49.0	17.5	0.00e+00	0	43	0	306184192	65	4572
2026-01-27 05:49:14.95	48.41	15.87	-47.0	-49.0	17.6	0.00e+00	0	43	0	307232768	65	4570
2026-01-27 05:49:15.96	48.25	15.94	-46.7	-48.6	17.9	0.00e+00	0	42	0	309329920	65	4366
2026-01-27 05:49:16.97	48.08	16.01	-46.4	-48.1	18.3	0.00e+00	0	43	0	311427072	64	4391
2026-01-27 05:49:17.96	47.91	16.08	-46.4	-48.2	18.3	0.00e+00	0	43	0	313524224	64	4418
2026-01-27 05:49:18.97	47.74	16.16	-46.3	-48.1	18.4	0.00e+00	0	43	0	315621376	64	4374
2026-01-27 05:49:19.98	47.57	16.23	-46.2	-47.9	18.5	0.00e+00	0	43	0	316669952	64	4289
2026-01-27 05:49:20.98	47.40	16.30	-46.2	-47.9	18.6	0.00e+00	0	43	0	318767104	64	4271
2026-01-27 05:49:21.98	47.23	16.37	-46.3	-48.0	18.5	0.00e+00	0	42	0	320864256	64	4327
2026-01-27 05:49:22.99	47.05	16.44	-46.1	-47.8	18.6	0.00e+00	0	43	0	322961408	64	4241
2026-01-27 05:49:24.00	46.88	16.51	-46.3	-48.1	18.4	0.00e+00	0	43	0	325058560	64	4376
2026-01-27 05:49:25.01	46.70	16.59	-46.3	-48.1	18.5	0.00e+00	0	43	0	326107136	64	4367
2026-01-27 05:49:26.01	46.53	16.66	-46.2	-47.9	18.6	0.00e+00	0	43	0	328204288	64	4263
2026-01-27 05:49:27.02	46.35	16.73	-46.3	-48.0	18.5	0.00e+00	0	43	0	330301440	64	4340
2026-01-27 05:49:28.02	46.18	16.80	-46.0	-47.6	19.0	0.00e+00	0	43	0	332398592	63	4374
2026-01-27 05:49:29.03	46.00	16.87	-46.1	-47.8	18.8	0.00e+00	0	43	0	334495744	63	4456
2026-01-27 05:49:30.04	45.82	16.94	-46.2	-47.9	18.7	0.00e+00	0	43	0	335544320	63	4540
2026-01-27 05:49:31.05	45.64	17.01	-46.3	-48.0	18.6	0.00e+00	0	43	0	337641472	63	4567
2026-01-27 05:49:32.05	45.46	17.08	-46.3	-47.9	18.7	0.00e+00	0	43	0	339738624	63	4540
2026-01-27 05:49:33.06	45.28	17.16	-46.4	-48.1	18.5	0.00e+00	0	43	0	341835776	63	4638
2026-01-27 05:49:34.06	45.09	17.23	-46.5	-48.2	18.3	0.00e+00	0	43	0	343932928	63	4679
2026-01-27 05:49:35.07	44.91	17.30	-46.6	-48.4	18.2	0.00e+00	0	43	0	344981504	63	4786
2026-01-27 05:49:36.08	44.73	17.37	-46.6	-48.5	18.1	0.00e+00	0	43	0	347078656	64	4566
2026-01-27 05:49:37.07	44.54	17.44	-46.9	-48.9	17.7	0.00e+00	0	43	0	349175808	64	4788
2026-01-27 05:49:38.08	44.36	17.51	-47.0	-49.0	17.6	0.00e+00	0	43	0	351272960	64	4852
2026-01-27 05:49:39.09	44.17	17.58	-46.7	-48.6	18.0	0.00e+00	0	43	0	352321536	64	4649
2026-01-27 05:49:40.09	43.98	17.65	-46.4	-48.1	18.4	0.00e+00	0	43	0	354418688	64	4382
2026-01-27 05:49:41.10	43.79	17.72	-46.0	-47.6	18.9	0.00e+00	0	43	0	356515840	64	4141
2026-01-27 05:49:42.11	43.60	17.79	-46.0	-47.6	18.9	0.00e+00	0	43	0	358612992	64	4144
2026-01-27 05:49:43.11	43.41	17.86	-45.9	-47.5	19.1	0.00e+00	0	43	0	360710144	63	4298
2026-01-27 05:49:44.12	43.22	17.93	-46.1	-47.8	18.8	0.00e+00	0	43	0	362807296	63	4446
2026-01-27 05:49:45.12	43.03	18.00	-45.8	-47.3	19.2	0.00e+00	0	43	0	363855872	63	4242
2026-01-27 05:49:46.13	42.84	18.07	-45.6	-47.0	19.5	0.00e+00	0	43	0	365953024	63	4097
2026-01-27 05:49:47.14	42.64	18.14	-45.6	-47.2	19.4	0.00e+00	0	43	0	368050176	63	4153
2026-01-27 05:49:48.14	42.45	18.21	-45.5	-47.0	19.7	0.00e+00	0	43	0	370147328	63	4074
2026-01-27 05:49:49.14	42.25	18.27	-45.8	-47.4	19.2	0.00e+00	0	43	0	372244480	63	4290
2026-01-27 05:49:50.15	42.06	18.34	-45.8	-47.5	19.1	0.00e+00	0	43	0	373293056	63	4294
2026-01-27 05:49:51.15	41.86	18.41	-45.9	-47.5	19.0	0.00e+00	0	43	0	375390208	63	4312
2026-01-27 05:49:52.16	41.66	18.48	-45.9	-47.6	18.9	0.00e+00	0	42	0	377487360	63	4371
2026-01-27 05:49:53.17	41.46	18.55	-45.7	-47.3	19.3	0.00e+00	0	43	0	379584512	63	4204
2026-01-27 05:49:54.17	41.26	18.62	-45.6	-47.2	19.4	0.00e+00	0	42	0	380633088	63	4161
2026-01-27 05:49:55.18	41.06	18.68	-45.4	-46.9	19.6	0.00e+00	0	43	0	382730240	62	4271
2026-01-27 05:49:56.18	40.86	18.75	-45.4	-46.9	19.6	0.00e+00	0	43	0	384827392	62	4275
2026-01-27 05:49:57.19	40.66	18.82	-45.4	-46.9	19.6	0.00e+00	0	43	0	386924544	62	4280
2026-01-27 05:49:58.19	40.45	18.89	-45.1	-46.6	19.9	0.00e+00	0	43	0	389021696	62	4103
2026-01-27 05:49:59.20	40.25	18.95	-44.9	-46.3	20.2	0.00e+00	0	43	0	391118848	61	4238
2026-01-27 05:50:00.19	40.04	19.02	-44.8	-46.2	20.3	0.00e+00	0	43	0	392167424	61	4159
2026-01-27 05:50:01.20	39.84	19.09	-44.9	-46.3	20.2	0.00e+00	0	43	0	394264576	61	4233
2026-01-27 05:50:02.20	39.63	19.15	-45.0	-46.4	20.1	0.00e+00	0	43	0	396361728	61	4280
2026-01-27 05:50:03.20	39.42	19.22	-45.1	-46.6	19.9	0.00e+00	0	43	0	398458880	61	4356
2026-01-27 05:50:04.20	39.22	19.29	-45.0	-46.4	20.1	0.00e+00	0	42	0	400556032	61	4278
2026-01-27 05:50:05.20	39.01	19.35	-45.0	-46.5	20.1	0.00e+00	0	43	0	401604608	61	4310
2026-01-27 05:50:06.20	38.80	19.42	-44.8	-46.2	20.3	0.00e+00	0	43	0	403701760	61	4171
2026-01-27 05:50:07.20	38.59	19.48	-44.7	-46.1	20.4	0.00e+00	0	42	0	405798912	61	4129
2026-01-27 05:50:08.21	38.37	19.55	-44.9	-46.3	20.2	0.00e+00	0	43	0	407896064	61	4213
2026-01-27 05:50:09.21	38.16	19.61	-44.5	-45.8	20.7	0.00e+00	0	43	0	408944640	61	4000
2026-01-27 05:50:10.22	37.94	19.68	-44.5	-45.8	20.7	0.00e+00	0	43	0	411041792	61	3977
2026-01-27 05:50:11.23	37.73	19.74	-44.4	-45.6	20.8	0.00e+00	0	43	0	413138944	60	4142
2026-01-27 05:50:12.23	37.51	19.80	-44.2	-45.5	20.9	0.00e+00	0	43	0	415236096	60	4060
2026-01-27 05:50:13.24	37.29	19.87	-44.4	-45.6	20.8	0.00e+00	0	43	0	417333248	60	4144
2026-01-27 05:50:14.24	37.08	19.93	-44.6	-45.9	20.6	0.00e+00	0	43	0	418381824	60	4266
2026-01-27 05:50:15.25	36.86	20.00	-44.6	-46.0	20.5	0.00e+00	0	43	0	420478976	60	4295
2026-01-27 05:50:16.25	36.64	20.06	-44.6	-45.9	20.6	0.00e+00	0	43	0	422576128	60	4271
2026-01-27 05:50:17.26	36.42	20.12	-44.6	-45.9	20.6	0.00e+00	0	43	0	424673280	60	4283
2026-01-27 05:50:18.27	36.19	20.18	-44.7	-46.0	20.5	0.00e+00	0	43	0	426770432	60	4323
2026-01-27 05:50:19.28	35.97	20.25	-44.6	-45.9	20.5	0.00e+00	0	43	0	427819008	60	4288
2026-01-27 05:50:20.29	35.74	20.31	-44.7	-46.1	20.4	0.00e+00	0	42	0	429916160	60	4379
2026-01-27 05:50:21.29	35.52	20.37	-44.5	-45.9	20.5	0.00e+00	0	43	0	432013312	60	4250
2026-01-27 05:50:22.29	35.30	20.43	-44.4	-45.7	20.7	0.00e+00	0	43	0	434110464	60	4182
2026-01-27 05:50:23.30	35.07	20.49	-44.2	-45.5	21.0	0.00e+00	0	43	0	436207616	60	4084
2026-01-27 05:50:24.30	34.84	20.55	-44.1	-45.4	21.0	0.00e+00	0	43	0	437256192	60	4029
2026-01-27 05:50:25.31	34.61	20.61	-44.1	-45.4	21.1	0.00e+00	0	43	0	439353344	60	4022
2026-01-27 05:50:26.32	34.38	20.67	-44.3	-45.5	20.9	0.00e+00	0	43	0	441450496	60	4094
2026-01-27 05:50:27.33	34.15	20.73	-44.3	-45.6	20.9	0.00e+00	0	42	0	443547648	60	4133
2026-01-27 05:50:28.33	33.92	20.79	-44.2	-45.4	21.1	0.00e+00	0	43	0	445644800	60	4027
2026-01-27 05:50:29.34	33.69	20.85	-44.4	-45.7	21.1	0.00e+00	0	43	0	446693376	59	4394
2026-01-27 05:50:30.35	33.45	20.91	-44.3	-45.6	21.2	0.00e+00	0	42	0	448790528	59	4347
2026-01-27 05:50:31.36	33.22	20.97	-44.5	-45.8	21.1	0.00e+00	0	43	0	450887680	59	4469
2026-01-27 05:50:32.37	32.98	21.03	-44.4	-45.7	21.1	0.00e+00	0	43	0	452984832	59	4405
2026-01-27 05:50:33.38	32.75	21.08	-44.5	-45.7	21.1	0.00e+00	0	43	0	455081984	59	4439
2026-01-27 05:50:34.38	32.51	21.14	-44.3	-45.6	21.3	0.00e+00	0	43	0	456130560	59	4359
2026-01-27 05:50:35.39	32.27	21.20	-44.1	-45.3	21.5	0.00e+00	0	43	0	458227712	59	4221
2026-01-27 05:50:36.40	32.03	21.25	-44.2	-45.4	21.4	0.00e+00	0	43	0	460324864	59	4274
2026-01-27 05:50:37.41	31.79	21.31	-44.3	-45.5	21.3	0.00e+00	0	43	0	462422016	59	4326
2026-01-27 05:50:38.41	31.56	21.36	-44.2	-45.4	21.4	0.00e+00	0	43	0	464519168	59	4279
2026-01-27 05:50:39.42	31.31	21.42	-44.4	-45.6	21.2	0.00e+00	0	43	0	465567744	59	4375
2026-01-27 05:50:40.42	31.07	21.47	-44.3	-45.5	21.3	0.00e+00	0	43	0	467664896	59	4302
2026-01-27 05:50:41.43	30.83	21.53	-44.0	-45.1	21.6	0.00e+00	0	43	0	469762048	59	4142
2026-01-27 05:50:42.43	30.59	21.58	-44.0	-45.2	21.6	0.00e+00	0	43	0	471859200	59	4166
2026-01-27 05:50:43.44	30.34	21.63	-44.3	-45.5	21.3	0.00e+00	0	43	0	473956352	59	4319
2026-01-27 05:50:44.44	30.10	21.69	-44.3	-45.6	21.2	0.00e+00	0	43	0	475004928	59	4361
2026-01-27 05:50:45.44	29.85	21.74	-44.4	-45.6	21.3	0.00e+00	0	43	0	477102080	59	4373
2026-01-27 05:50:46.45	29.61	21.79	-44.5	-45.8	21.1	0.00e+00	0	43	0	479199232	59	4474
2026-01-27 05:50:47.45	29.36	21.84	-44.6	-45.9	21.0	0.00e+00	0	43	0	481296384	59	4517
2026-01-27 05:50:48.46	29.11	21.89	-44.3	-45.5	21.4	0.00e+00	0	42	0	483393536	59	4313
2026-01-27 05:50:49.47	28.86	21.94	-44.5	-45.7	21.2	0.00e+00	0	43	0	484442112	59	4427
2026-01-27 05:50:50.48	28.61	21.99	-44.6	-45.9	21.1	0.00e+00	0	43	0	486539264	59	4497
2026-01-27 05:50:51.48	28.36	22.04	-44.6	-45.8	20.9	0.00e+00	0	43	0	488636416	59	4471
2026-01-27 05:50:52.49	28.11	22.09	-44.1	-45.3	21.3	0.00e+00	0	43	0	490733568	60	3988
2026-01-27 05:50:53.50	27.85	22.14	-44.0	-45.2	21.3	0.00e+00	0	43	0	492830720	60	3940
2026-01-27 05:50:54.50	27.60	22.19	-44.4	-45.6	21.3	0.00e+00	0	43	0	493879296	59	4368
2026-01-27 05:50:55.51	27.35	22.24	-44.4	-45.6	21.2	0.00e+00	0	43	0	495976448	59	4390
2026-01-27 05:50:56.52	27.09	22.28	-44.4	-45.7	21.2	0.00e+00	0	43	0	498073600	59	4398
2026-01-27 05:50:57.53	26.83	22.33	-44.4	-45.6	21.3	0.00e+00	0	43	0	500170752	59	4379
2026-01-27 05:50:58.54	26.58	22.38	-44.3	-45.5	21.4	0.00e+00	0	43	0	502267904	59	4304
2026-01-27 05:50:59.54	26.32	22.42	-44.2	-45.4	21.5	0.00e+00	0	42	0	503316480	59	4247
2026-01-27 05:51:00.55	26.06	22.47	-44.0	-45.2	21.6	0.00e+00	0	43	0	505413632	59	4168
2026-01-27 05:51:01.55	25.80	22.51	-43.9	-45.0	21.8	0.00e+00	0	43	0	507510784	59	4097
2026-01-27 05:51:02.57	25.54	22.55	-44.0	-45.2	21.6	0.00e+00	0	43	0	509607936	59	4171
2026-01-27 05:51:03.58	25.28	22.60	-44.3	-45.5	21.4	0.00e+00	0	42	0	511705088	59	4333
2026-01-27 05:51:04.58	25.02	22.64	-44.0	-45.1	21.7	0.00e+00	0	43	0	512753664	59	4144
2026-01-27 05:51:05.59	24.76	22.68	-43.9	-45.0	21.8	0.00e+00	0	43	0	514850816	59	4093
2026-01-27 05:51:06.60	24.49	22.72	-43.9	-45.1	21.8	0.00e+00	0	43	0	516947968	59	4112
2026-01-27 05:51:07.61	24.23	22.76	-44.1	-45.3	21.6	0.00e+00	0	43	0	519045120	59	4209
2026-01-27 05:51:08.61	23.97	22.80	-44.1	-45.2	21.6	0.00e+00	0	43	0	521142272	59	4184
2026-01-27 05:51:09.62	23.70	22.84	-44.1	-45.3	21.6	0.00e+00	0	43	0	522190848	59	4209
2026-01-27 05:51:10.63	23.44	22.88	-44.1	-45.2	21.7	0.00e+00	0	43	0	524288000	59	4166
2026-01-27 05:51:11.64	23.17	22.92	-44.5	-45.7	21.3	0.00e+00	0	42	0	526385152	59	4398
2026-01-27 05:51:12.65	22.90	22.96	-44.2	-45.4	21.1	0.00e+00	0	43	0	528482304	60	4045
2026-01-27 05:51:13.66	22.63	23.00	-44.6	-45.9	20.8	0.00e+00	0	43	0	530579456	60	4255
2026-01-27 05:51:14.67	22.37	23.03	-44.8	-46.1	20.6	0.00e+00	0	43	0	531628032	60	4341
2026-01-27 05:51:15.67	22.10	23.07	-44.9	-46.2	20.5	0.00e+00	0	43	0	533725184	60	4422
2026-01-27 05:51:16.68	21.83	23.10	-45.2	-46.6	20.1	0.00e+00	0	42	0	535822336	61	4341
2026-01-27 05:51:17.68	21.56	23.14	-45.7	-47.2	19.6	0.00e+00	0	43	0	537919488	61	4669
2026-01-27 05:51:18.68	21.29	23.17	-46.0	-47.5	19.3	0.00e+00	0	43	0	540016640	62	4584
2026-01-27 05:51:19.69	21.02	23.21	-46.0	-47.6	19.2	0.00e+00	0	43	0	542113792	62	4626
2026-01-27 05:51:20.70	20.75	23.24	-45.9	-47.4	19.4	0.00e+00	0	43	0	543162368	62	4528
2026-01-27 05:51:21.70	20.48	23.27	-45.5	-47.0	19.7	0.00e+00	0	42	0	545259520	62	4305
2026-01-27 05:51:22.71	20.20	23.30	-45.4	-46.9	19.9	0.00e+00	0	43	0	547356672	62	4244
2026-01-27 05:51:23.72	19.93	23.33	-45.3	-46.7	20.0	0.00e+00	0	42	0	549453824	62	4191
2026-01-27 05:51:24.72	19.66	23.36	-45.3	-46.7	20.0	0.00e+00	0	43	0	550502400	62	4187
2026-01-27 05:51:25.73	19.38	23.39	-45.0	-46.4	20.4	0.00e+00	0	43	0	552599552	62	4015
2026-01-27 05:51:26.74	19.11	23.42	-45.1	-46.5	20.3	0.00e+00	0	42	0	554696704	62	4079
2026-01-27 05:51:27.75	18.83	23.45	-45.1	-46.5	20.3	0.00e+00	0	43	0	556793856	62	4069
2026-01-27 05:51:28.75	18.56	23.48	-45.0	-46.4	20.4	0.00e+00	0	42	0	558891008	61	4245
2026-01-27 05:51:29.76	18.28	23.50	-45.1	-46.5	20.3	0.00e+00	0	43	0	559939584	61	4293
2026-01-27 05:51:30.76	18.01	23.53	-45.2	-46.6	20.2	0.00e+00	0	43	0	562036736	61	4368
2026-01-27 05:51:31.77	17.73	23.56	-45.2	-46.6	20.1	0.00e+00	0	43	0	564133888	61	4367
2026-01-27 05:51:32.78	17.45	23.58	-45.1	-46.4	20.3	0.00e+00	0	42	0	566231040	61	4278
2026-01-27 05:51:33.79	17.17	23.60	-45.3	-46.7	20.0	0.00e+00	0	43	0	568328192	61	4438
2026-01-27 05:51:34.79	16.89	23.63	-45.5	-47.0	19.7	0.00e+00	0	43	0	570425344	61	4587
2026-01-27 05:51:35.80	16.61	23.65	-45.7	-47.3	19.4	0.00e+00	0	43	0	571473920	62	4445
2026-01-27 05:51:36.80	16.34	23.67	-45.8	-47.3	19.4	0.00e+00	0	43	0	573571072	62	4484
2026-01-27 05:51:37.80	16.06	23.69	-45.8	-47.4	19.4	0.00e+00	0	43	0	575668224	62	4494
2026-01-27 05:51:38.81	15.78	23.71	-45.5	-46.9	19.8	0.00e+00	0	43	0	577765376	62	4286
2026-01-27 05:51:39.82	15.50	23.73	-45.8	-47.3	19.5	0.00e+00	0	42	0	578813952	62	4446
2026-01-27 05:51:40.82	15.22	23.75	-46.0	-47.5	19.3	0.00e+00	0	43	0	580911104	62	4572
2026-01-27 05:51:41.83	14.94	23.77	-46.2	-47.9	18.9	0.00e+00	0	43	0	583008256	63	4502
2026-01-27 05:51:42.84	14.65	23.79	-46.2	-47.8	19.0	0.00e+00	0	43	0	585105408	63	4481
2026-01-27 05:51:43.85	14.37	23.80	-46.4	-48.1	18.9	0.00e+00	0	43	0	587202560	63	4604
2026-01-27 05:51:44.85	14.09	23.82	-46.3	-48.0	18.9	0.00e+00	0	43	0	588251136	63	4550
2026-01-27 05:51:45.85	13.81	23.83	-46.1	-47.8	19.1	0.00e+00	0	43	0	590348288	63	4444
2026-01-27 05:51:46.86	13.53	23.85	-46.1	-47.7	19.1	0.00e+00	0	43	0	592445440	63	4432
2026-01-27 05:51:47.87	13.24	23.86	-45.8	-47.3	19.5	0.00e+00	0	42	0	594542592	63	4224
2026-01-27 05:51:48.88	12.96	23.87	-45.8	-47.4	19.5	0.00e+00	0	43	0	596639744	63	4247
2026-01-27 05:51:49.88	12.68	23.89	-46.1	-47.7	19.2	0.00e+00	0	43	0	597688320	63	4398
2026-01-27 05:51:50.88	12.40	23.90	-46.2	-47.9	19.0	0.00e+00	0	43	0	599785472	63	4511
2026-01-27 05:51:51.89	12.11	23.91	-46.4	-48.1	18.8	0.00e+00	0	43	0	601882624	63	4636
2026-01-27 05:51:52.90	11.83	23.92	-46.4	-48.2	18.6	0.00e+00	0	43	0	603979776	64	4403
2026-01-27 05:51:53.90	11.55	23.93	-46.3	-48.0	18.8	0.00e+00	0	43	0	606076928	64	4326
2026-01-27 05:51:54.91	11.26	23.94	-46.4	-48.2	18.7	0.00e+00	0	43	0	607125504	64	4405
2026-01-27 05:51:55.92	10.98	23.94	-46.3	-48.1	18.8	0.00e+00	0	43	0	609222656	64	4345
2026-01-27 05:51:56.92	10.69	23.95	-46.2	-47.9	19.0	0.00e+00	0	43	0	611319808	64	4247
2026-01-27 05:51:57.93	10.41	23.96	-46.0	-47.6	19.1	0.00e+00	0	43	0	613416960	64	4137
2026-01-27 05:51:58.94	10.12	23.96	-45.5	-47.0	19.7	0.00e+00	0	43	0	615514112	63	4073
2026-01-27 05:51:59.95	9.84	23.97	-45.2	-46.7	20.1	0.00e+00	0	43	0	616562688	62	4146
2026-01-27 05:52:00.96	9.55	23.97	-45.0	-46.4	20.3	0.00e+00	0	43	0	618659840	61	4247
2026-01-27 05:52:01.97	9.27	23.97	-44.9	-46.3	20.3	0.00e+00	0	43	0	620756992	61	4221
2026-01-27 05:52:02.98	8.98	23.98	-45.0	-46.4	20.3	0.00e+00	0	43	0	622854144	61	4272
2026-01-27 05:52:03.98	8.70	23.98	-45.6	-47.1	19.7	0.00e+00	0	43	0	624951296	61	4603
2026-01-27 05:52:04.99	8.41	23.98	-45.7	-47.2	19.5	0.00e+00	0	43	0	625999872	62	4413
2026-01-27 05:52:06.00	8.13	23.98	-45.9	-47.4	19.4	0.00e+00	0	43	0	628097024	62	4542
2026-01-27 05:52:07.00	7.84	23.98	-45.6	-47.1	19.6	0.00e+00	0	43	0	630194176	62	4389
2026-01-27 05:52:08.01	7.56	23.98	-45.4	-46.9	19.8	0.00e+00	0	43	0	632291328	62	4250
2026-01-27 05:52:09.02	7.27	23.97	-45.2	-46.6	20.0	0.00e+00	0	43	0	634388480	62	4138
2026-01-27 05:52:10.03	6.99	23.97	-45.5	-46.9	19.8	0.00e+00	0	43	0	635437056	62	4283
2026-01-27 05:52:11.04	6.70	23.97	-45.4	-46.8	19.9	0.00e+00	0	43	0	637534208	62	4238
2026-01-27 05:52:12.04	6.42	23.96	-45.6	-47.1	19.7	0.00e+00	0	43	0	639631360	62	4391
2026-01-27 05:52:13.04	6.13	23.96	-45.8	-47.3	19.5	0.00e+00	0	43	0	641728512	62	4458
2026-01-27 05:52:14.05	5.85	23.95	-45.4	-46.8	19.8	0.00e+00	0	43	0	643825664	62	4222
2026-01-27 05:52:15.06	5.56	23.94	-45.3	-46.7	20.0	0.00e+00	0	43	0	644874240	62	4163
2026-01-27 05:52:16.06	5.28	23.94	-45.3	-46.7	20.0	0.00e+00	0	43	0	646971392	62	4184
2026-01-27 05:52:17.07	5.00	23.93	-45.7	-47.1	19.7	0.00e+00	0	43	0	649068544	62	4381
2026-01-27 05:52:18.08	4.71	23.92	-45.3	-46.7	20.1	0.00e+00	0	43	0	651165696	62	4170
2026-01-27 05:52:19.09	4.43	23.91	-45.1	-46.5	20.2	0.00e+00	0	43	0	653262848	62	4087
2026-01-27 05:52:20.09	4.15	23.90	-45.0	-46.4	20.4	0.00e+00	0	43	0	655360000	61	4257
2026-01-27 05:52:21.10	3.86	23.89	-44.9	-46.2	20.5	0.00e+00	0	43	0	656408576	61	4150
2026-01-27 05:52:22.10	3.58	23.87	-44.6	-45.9	20.8	0.00e+00	0	43	0	658505728	61	4037
2026-01-27 05:52:23.11	3.30	23.86	-44.9	-46.3	20.5	0.00e+00	0	43	0	660602880	61	4194
2026-01-27 05:52:24.11	3.02	23.85	-44.9	-46.2	20.5	0.00e+00	0	42	0	662700032	61	4160
2026-01-27 05:52:25.12	2.73	23.83	-44.8	-46.1	20.6	0.00e+00	0	43	0	663748608	61	4142
2026-01-27 05:52:26.13	2.45	23.82	-44.6	-45.9	20.8	0.00e+00	0	43	0	665845760	61	4024
2026-01-27 05:52:27.14	2.17	23.80	-44.3	-45.5	21.2	0.00e+00	0	43	0	667942912	60	4062
2026-01-27 05:52:28.14	1.89	23.78	-44.3	-45.5	21.1	0.00e+00	0	43	0	670040064	60	4082
2026-01-27 05:52:29.15	1.60	23.77	-44.2	-45.4	21.3	0.00e+00	0	43	0	672137216	60	4010
2026-01-27 05:52:30.15	1.33	23.75	-44.2	-45.4	21.3	0.00e+00	0	43	0	673185792	60	4014
2026-01-27 05:52:31.16	1.04	23.73	-44.1	-45.3	21.3	0.00e+00	0	43	0	675282944	60	3998
2026-01-27 05:52:32.16	0.77	23.71	-44.2	-45.4	21.5	0.00e+00	0	43	0	677380096	59	4244
2026-01-27 05:52:33.16	0.49	23.69	-44.1	-45.2	21.7	0.00e+00	0	42	0	679477248	59	4175
2026-01-27 05:52:34.17	0.21	23.67	-44.1	-45.3	21.7	0.00e+00	0	43	0	681574400	59	4205
2026-01-27 05:52:35.18	359.93	23.65	-44.0	-45.1	21.8	0.00e+00	0	43	0	682622976	59	4122
2026-01-27 05:52:36.18	359.65	23.62	-44.1	-45.2	21.7	0.00e+00	0	43	0	684720128	59	4171
2026-01-27 05:52:37.19	359.37	23.60	-43.9	-45.0	21.9	0.00e+00	0	43	0	686817280	59	4071
2026-01-27 05:52:38.20	359.09	23.58	-44.0	-45.1	21.8	0.00e+00	0	43	0	688914432	59	4135
2026-01-27 05:52:39.21	358.81	23.55	-44.2	-45.3	21.6	0.00e+00	0	43	0	691011584	59	4220
2026-01-27 05:52:40.21	358.54	23.53	-44.4	-45.6	21.3	0.00e+00	0	43	0	692060160	59	4367
2026-01-27 05:52:41.22	358.26	23.50	-44.2	-45.4	21.6	0.00e+00	0	43	0	694157312	59	4251
2026-01-27 05:52:42.23	357.99	23.47	-44.4	-45.6	21.4	0.00e+00	0	43	0	696254464	59	4355
2026-01-27 05:52:43.24	357.71	23.45	-44.3	-45.4	21.5	0.00e+00	0	43	0	698351616	59	4288
2026-01-27 05:52:44.25	357.43	23.42	-44.4	-45.6	21.4	0.00e+00	0	43	0	700448768	59	4349
2026-01-27 05:52:45.25	357.16	23.39	-44.4	-45.5	21.4	0.00e+00	0	43	0	701497344	59	4339
2026-01-27 05:52:46.25	356.89	23.36	-44.6	-45.8	21.2	0.00e+00	0	43	0	703594496	59	4473
2026-01-27 05:52:47.26	356.61	23.33	-44.3	-45.5	21.1	0.00e+00	0	43	0	705691648	60	4091
2026-01-27 05:52:48.27	356.34	23.30	-44.3	-45.5	21.2	0.00e+00	0	43	0	707788800	60	4058
2026-01-27 05:52:49.28	356.07	23.27	-44.1	-45.3	21.4	0.00e+00	0	43	0	709885952	60	3959
2026-01-27 05:52:50.29	355.79	23.23	-44.2	-45.3	21.6	0.00e+00	0	43	0	710934528	59	4235
2026-01-27 05:52:51.29	355.52	23.20	-44.3	-45.5	21.5	0.00e+00	0	43	0	713031680	59	4306
2026-01-27 05:52:52.30	355.25	23.17	-44.3	-45.5	21.5	0.00e+00	0	43	0	715128832	59	4307
2026-01-27 05:52:53.31	354.98	23.13	-44.5	-45.8	21.0	0.00e+00	0	43	0	717225984	60	4195
2026-01-27 05:52:54.32	354.71	23.10	-44.4	-45.6	21.1	0.00e+00	0	43	0	719323136	60	4125
2026-01-27 05:52:55.33	354.44	23.06	-44.3	-45.5	21.2	0.00e+00	0	43	0	720371712	60	4073
2026-01-27 05:52:56.33	354.18	23.03	-44.2	-45.4	21.2	0.00e+00	0	43	0	722468864	60	4016
2026-01-27 05:52:57.34	353.91	22.99	-44.4	-45.5	21.1	0.00e+00	0	43	0	724566016	60	4091
2026-01-27 05:52:58.35	353.64	22.95	-44.3	-45.4	21.2	0.00e+00	0	43	0	726663168	60	4049
2026-01-27 05:52:59.35	353.37	22.92	-44.4	-45.7	21.0	0.00e+00	0	43	0	728760320	60	4146
2026-01-27 05:53:00.36	353.11	22.88	-44.4	-45.6	21.1	0.00e+00	0	43	0	729808896	60	4110
2026-01-27 05:53:01.37	352.84	22.84	-44.8	-46.0	20.7	0.00e+00	0	43	0	731906048	60	4331
2026-01-27 05:53:02.37	352.58	22.80	-44.7	-46.0	20.7	0.00e+00	0	43	0	734003200	60	4293
2026-01-27 05:53:03.38	352.31	22.76	-44.7	-46.0	20.7	0.00e+00	0	43	0	736100352	60	4295
2026-01-27 05:53:04.39	352.05	22.72	-45.1	-46.4	20.3	0.00e+00	0	43	0	738197504	60	4525
2026-01-27 05:53:05.39	351.79	22.68	-45.1	-46.4	20.3	0.00e+00	0	43	0	739246080	60	4545
2026-01-27 05:53:06.39	351.53	22.63	-45.4	-46.8	19.9	0.00e+00	0	43	0	741343232	61	4487
2026-01-27 05:53:07.40	351.27	22.59	-45.5	-47.0	19.8	0.00e+00	0	42	0	743440384	61	4547
2026-01-27 05:53:08.41	351.01	22.55	-45.9	-47.5	19.4	0.00e+00	0	43	0	745537536	62	4556
2026-01-27 05:53:09.41	350.75	22.50	-46.1	-47.7	19.2	0.00e+00	0	43	0	747634688	62	4660
2026-01-27 05:53:10.42	350.49	22.46	-46.3	-48.0	18.9	0.00e+00	0	42	0	748683264	63	4555
2026-01-27 05:53:11.42	350.23	22.42	-46.2	-47.8	19.0	0.00e+00	0	43	0	750780416	63	4461
2026-01-27 05:53:12.43	349.98	22.37	-46.1	-47.7	19.1	0.00e+00	0	43	0	752877568	63	4435
2026-01-27 05:53:13.44	349.72	22.32	-45.8	-47.3	19.5	0.00e+00	0	43	0	754974720	63	4198
2026-01-27 05:53:14.45	349.46	22.28	-45.6	-47.0	19.7	0.00e+00	0	43	0	757071872	63	4092
2026-01-27 05:53:15.46	349.21	22.23	-45.4	-46.8	19.9	0.00e+00	0	43	0	758120448	62	4239
2026-01-27 05:53:16.46	348.96	22.18	-45.5	-46.9	19.8	0.00e+00	0	43	0	760217600	62	4276
2026-01-27 05:53:17.47	348.70	22.13	-45.6	-47.0	19.7	0.00e+00	0	43	0	762314752	62	4340
2026-01-27 05:53:18.48	348.45	22.09	-45.7	-47.2	19.6	0.00e+00	0	43	0	764411904	62	4411
2026-01-27 05:53:19.48	348.20	22.04	-45.9	-47.4	19.4	0.00e+00	0	43	0	766509056	62	4545
2026-01-27 05:53:20.49	347.95	21.99	-45.9	-47.5	19.2	0.00e+00	0	43	0	767557632	62	4583
2026-01-27 05:53:21.50	347.70	21.94	-45.9	-47.5	19.3	0.00e+00	0	43	0	769654784	62	4553
2026-01-27 05:53:22.50	347.45	21.89	-45.8	-47.3	19.4	0.00e+00	0	42	0	771751936	62	4481
2026-01-27 05:53:23.51	347.20	21.84	-45.6	-47.0	19.7	0.00e+00	0	43	0	773849088	62	4332
2026-01-27 05:53:24.52	346.95	21.78	-45.5	-46.9	19.8	0.00e+00	0	43	0	775946240	62	4265
2026-01-27 05:53:25.53	346.70	21.73	-45.6	-47.1	19.7	0.00e+00	0	43	0	776994816	62	4364
2026-01-27 05:53:26.53	346.46	21.68	-45.5	-47.0	19.8	0.00e+00	0	43	0	779091968	62	4297
2026-01-27 05:53:27.53	346.22	21.63	-45.3	-46.7	20.0	0.00e+00	0	43	0	781189120	62	4172
2026-01-27 05:53:28.54	345.97	21.57	-45.4	-46.8	20.0	0.00e+00	0	43	0	783286272	62	4210
2026-01-27 05:53:29.55	345.73	21.52	-45.3	-46.8	20.0	0.00e+00	0	43	0	785383424	62	4198
2026-01-27 05:53:30.55	345.49	21.47	-45.4	-46.8	19.9	0.00e+00	0	43	0	786432000	62	4217
2026-01-27 05:53:31.56	345.24	21.41	-45.6	-47.2	19.5	0.00e+00	0	43	0	788529152	62	4397
2026-01-27 05:53:32.57	345.00	21.36	-46.1	-47.8	19.0	0.00e+00	0	43	0	790626304	62	4718
2026-01-27 05:53:33.57	344.76	21.30	-46.2	-47.9	19.0	0.00e+00	0	43	0	792723456	62	4798
2026-01-27 05:53:34.58	344.52	21.25	-46.4	-48.2	18.6	0.00e+00	0	43	0	794820608	63	4657
2026-01-27 05:53:35.59	344.28	21.19	-46.3	-48.0	18.8	0.00e+00	0	43	0	795869184	63	4578
2026-01-27 05:53:36.59	344.05	21.13	-45.9	-47.5	19.3	0.00e+00	0	43	0	797966336	63	4307
2026-01-27 05:53:37.60	343.81	21.08	-45.8	-47.4	19.4	0.00e+00	0	43	0	800063488	63	4260
2026-01-27 05:53:38.61	343.58	21.02	-45.9	-47.5	19.3	0.00e+00	0	43	0	802160640	63	4328
2026-01-27 05:53:39.62	343.34	20.96	-45.8	-47.4	19.4	0.00e+00	0	43	0	804257792	63	4257
2026-01-27 05:53:40.62	343.11	20.90	-46.1	-47.7	19.0	0.00e+00	0	43	0	805306368	63	4440
2026-01-27 05:53:41.62	342.88	20.85	-46.4	-48.2	18.6	0.00e+00	0	43	0	807403520	63	4670
2026-01-27 05:53:42.63	342.64	20.79	-47.0	-49.1	17.6	0.00e+00	0	43	0	809500672	64	4897
2026-01-27 05:53:43.63	342.41	20.73	-47.3	-49.5	17.2	0.00e+00	0	43	0	811597824	65	4865
2026-01-27 05:53:44.64	342.18	20.67	-47.3	-49.5	17.2	0.00e+00	0	43	0	813694976	65	4866
2026-01-27 05:53:45.64	341.96	20.61	-47.3	-49.5	17.2	0.00e+00	0	43	0	814743552	65	4842
2026-01-27 05:53:46.65	341.73	20.55	-46.7	-48.7	18.1	0.00e+00	0	43	0	816840704	65	4393
2026-01-27 05:53:47.66	341.50	20.49	-46.3	-48.0	18.6	0.00e+00	0	43	0	818937856	64	4334
2026-01-27 05:53:48.66	341.27	20.43	-45.8	-47.4	19.3	0.00e+00	0	43	0	821035008	63	4279
2026-01-27 05:53:49.67	341.05	20.36	-45.6	-47.2	19.6	0.00e+00	0	43	0	823132160	63	4166
2026-01-27 05:53:50.68	340.82	20.30	-45.3	-46.8	20.0	0.00e+00	0	43	0	824180736	62	4217
2026-01-27 05:53:51.69	340.60	20.24	-45.2	-46.6	20.1	0.00e+00	0	43	0	826277888	62	4131
2026-01-27 05:53:52.69	340.38	20.18	-45.1	-46.5	20.1	0.00e+00	0	43	0	828375040	62	4098
2026-01-27 05:53:53.70	340.15	20.12	-45.1	-46.5	20.1	0.00e+00	0	43	0	830472192	62	4090
2026-01-27 05:53:54.70	339.93	20.05	-44.8	-46.2	20.4	0.00e+00	0	43	0	832569344	61	4154
2026-01-27 05:53:55.71	339.71	19.99	-45.0	-46.4	20.2	0.00e+00	0	43	0	833617920	61	4254
2026-01-27 05:53:56.72	339.49	19.93	-44.9	-46.3	20.4	0.00e+00	0	43	0	835715072	61	4196
2026-01-27 05:53:57.73	339.27	19.86	-44.7	-46.0	20.6	0.00e+00	0	43	0	837812224	61	4090
2026-01-27 05:53:58.73	339.06	19.80	-44.7	-46.1	20.5	0.00e+00	0	43	0	839909376	61	4109
2026-01-27 05:53:59.74	338.84	19.74	-44.5	-45.8	20.8	0.00e+00	0	43	0	842006528	61	3963
2026-01-27 05:54:00.75	338.62	19.67	-44.4	-45.6	20.9	0.00e+00	0	43	0	843055104	60	4121
2026-01-27 05:54:01.76	338.41	19.61	-44.2	-45.5	21.0	0.00e+00	0	43	0	845152256	60	4054
2026-01-27 05:54:02.77	338.19	19.54	-44.2	-45.4	21.1	0.00e+00	0	43	0	847249408	60	4033
2026-01-27 05:54:03.78	337.98	19.48	-44.0	-45.2	21.2	0.00e+00	0	43	0	849346560	60	3943
2026-01-27 05:54:04.78	337.77	19.41	-44.0	-45.2	21.2	0.00e+00	0	43	0	851443712	60	3952
2026-01-27 05:54:05.79	337.56	19.34	-44.1	-45.4	21.1	0.00e+00	0	43	0	852492288	60	4008
2026-01-27 05:54:06.79	337.35	19.28	-44.6	-46.0	20.6	0.00e+00	0	43	0	854589440	60	4306
2026-01-27 05:54:07.80	337.14	19.21	-45.1	-46.6	20.0	0.00e+00	0	43	0	856686592	60	4606
2026-01-27 05:54:08.81	336.93	19.15	-45.3	-46.8	19.8	0.00e+00	0	43	0	858783744	61	4451
2026-01-27 05:54:09.81	336.73	19.08	-45.7	-47.3	19.4	0.00e+00	0	43	0	860880896	61	4716
2026-01-27 05:54:10.82	336.52	19.01	-45.5	-47.0	19.6	0.00e+00	0	43	0	861929472	61	4555
2026-01-27 05:54:11.83	336.31	18.95	-45.8	-47.4	19.2	0.00e+00	0	43	0	864026624	62	4544
2026-01-27 05:54:12.83	336.11	18.88	-45.8	-47.5	19.2	0.00e+00	0	43	0	866123776	62	4562
2026-01-27 05:54:13.84	335.90	18.81	-46.0	-47.7	19.0	0.00e+00	0	43	0	868220928	62	4665
2026-01-27 05:54:14.85	335.70	18.74	-45.8	-47.5	19.2	0.00e+00	0	43	0	870318080	62	4553
2026-01-27 05:54:15.85	335.50	18.68	-45.6	-47.1	19.6	0.00e+00	0	43	0	871366656	62	4378
2026-01-27 05:54:16.86	335.30	18.61	-45.4	-46.9	19.8	0.00e+00	0	43	0	873463808	62	4254
2026-01-27 05:54:17.87	335.10	18.54	-45.1	-46.5	20.0	0.00e+00	0	43	0	875560960	62	4086
2026-01-27 05:54:18.87	334.90	18.47	-45.0	-46.4	20.1	0.00e+00	0	43	0	877658112	61	4276
2026-01-27 05:54:19.88	334.70	18.40	-44.7	-46.1	20.5	0.00e+00	0	43	0	879755264	61	4102
2026-01-27 05:54:20.88	334.51	18.33	-44.7	-46.1	20.4	0.00e+00	0	43	0	880803840	61	4120
2026-01-27 05:54:21.89	334.31	18.27	-44.6	-45.9	20.6	0.00e+00	0	43	0	882900992	61	4016
2026-01-27 05:54:22.91	334.11	18.20	-44.4	-45.7	20.8	0.00e+00	0	43	0	884998144	60	4154
2026-01-27 05:54:23.91	333.92	18.13	-44.3	-45.5	21.0	0.00e+00	0	43	0	887095296	60	4091
2026-01-27 05:54:24.92	333.72	18.06	-44.4	-45.6	20.8	0.00e+00	0	43	0	889192448	60	4137
2026-01-27 05:54:25.93	333.53	17.99	-44.4	-45.7	20.8	0.00e+00	0	43	0	890241024	60	4180
2026-01-27 05:54:26.94	333.34	17.92	-44.7	-46.0	20.5	0.00e+00	0	43	0	892338176	60	4335
2026-01-27 05:54:27.94	333.15	17.85	-45.2	-46.6	20.0	0.00e+00	0	43	0	894435328	60	4628
2026-01-27 05:54:28.95	332.96	17.78	-45.3	-46.8	19.8	0.00e+00	0	43	0	896532480	61	4443
2026-01-27 05:54:29.95	332.77	17.71	-45.4	-47.0	19.7	0.00e+00	0	43	0	898629632	61	4547
2026-01-27 05:54:30.96	332.58	17.64	-45.3	-46.7	19.8	0.00e+00	0	43	0	899678208	61	4431
2026-01-27 05:54:31.96	332.39	17.57	-45.0	-46.4	20.0	0.00e+00	0	43	0	901775360	61	4260
2026-01-27 05:54:32.97	332.21	17.50	-45.1	-46.5	20.1	0.00e+00	0	43	0	903872512	61	4328
2026-01-27 05:54:33.98	332.02	17.43	-45.3	-46.8	19.9	0.00e+00	0	43	0	905969664	61	4448
2026-01-27 05:54:34.99	331.84	17.36	-45.3	-46.8	19.8	0.00e+00	0	43	0	908066816	61	4480
2026-01-27 05:54:36.00	331.65	17.29	-45.6	-47.1	19.6	0.00e+00	0	43	0	910163968	61	4620
2026-01-27 05:54:37.00	331.47	17.22	-45.7	-47.3	19.4	0.00e+00	0	43	0	911212544	61	4710
2026-01-27 05:54:38.01	331.29	17.15	-45.6	-47.1	19.5	0.00e+00	0	43	0	913309696	61	4633
2026-01-27 05:54:39.02	331.11	17.07	-45.4	-46.9	19.7	0.00e+00	0	43	0	915406848	61	4532
2026-01-27 05:54:40.02	330.93	17.00	-45.3	-46.8	19.8	0.00e+00	0	43	0	917504000	61	4476
2026-01-27 05:54:41.03	330.75	16.93	-45.0	-46.4	20.1	0.00e+00	0	43	0	918552576	61	4287
2026-01-27 05:54:42.04	330.57	16.86	-45.1	-46.5	20.1	0.00e+00	0	43	0	920649728	61	4322
2026-01-27 05:54:43.04	330.39	16.79	-45.0	-46.4	20.2	0.00e+00	0	43	0	922746880	61	4257
2026-01-27 05:54:44.05	330.21	16.72	-44.9	-46.3	20.2	0.00e+00	0	43	0	924844032	61	4212
2026-01-27 05:54:45.06	330.04	16.65	-44.8	-46.2	20.4	0.00e+00	0	43	0	926941184	61	4156
2026-01-27 05:54:46.07	329.86	16.57	-44.6	-45.9	20.6	0.00e+00	0	43	0	927989760	61	4026
2026-01-27 05:54:47.07	329.69	16.50	-44.6	-45.9	20.6	0.00e+00	0	43	0	930086912	61	4020
2026-01-27 05:54:48.07	329.51	16.43	-44.6	-45.8	20.7	0.00e+00	0	43	0	932184064	61	3998
2026-01-27 05:54:49.08	329.34	16.36	-44.5	-45.7	20.8	0.00e+00	0	43	0	934281216	60	4182
2026-01-27 05:54:50.08	329.17	16.29	-44.6	-45.9	20.6	0.00e+00	0	43	0	936378368	60	4264
2026-01-27 05:54:51.09	329.00	16.22	-44.7	-46.0	20.5	0.00e+00	0	43	0	937426944	60	4320
2026-01-27 05:54:52.10	328.83	16.15	-44.8	-46.1	20.4	0.00e+00	0	43	0	939524096	60	4377
2026-01-27 05:54:53.10	328.66	16.07	-44.7	-46.0	20.5	0.00e+00	0	43	0	941621248	60	4332
2026-01-27 05:54:54.11	328.49	16.00	-44.5	-45.8	20.7	0.00e+00	0	43	0	943718400	60	4230
2026-01-27 05:54:55.12	328.32	15.93	-44.2	-45.4	21.1	0.00e+00	0	43	0	945815552	60	4021
2026-01-27 05:54:56.12	328.16	15.86	-44.1	-45.3	21.2	0.00e+00	0	43	0	946864128	60	3986
2026-01-27 05:54:57.13	327.99	15.79	-44.2	-45.4	21.4	0.00e+00	0	43	0	948961280	59	4258
2026-01-27 05:54:58.14	327.82	15.71	-44.3	-45.4	21.3	0.00e+00	0	43	0	951058432	59	4283
2026-01-27 05:54:59.15	327.66	15.64	-44.2	-45.3	21.4	0.00e+00	0	43	0	953155584	59	4232
2026-01-27 05:55:00.15	327.50	15.57	-44.3	-45.5	21.3	0.00e+00	0	43	0	955252736	59	4310
2026-01-27 05:55:01.15	327.33	15.50	-44.4	-45.6	21.2	0.00e+00	0	43	0	956301312	59	4384
2026-01-27 05:55:02.16	327.17	15.43	-44.5	-45.8	21.0	0.00e+00	0	43	0	958398464	59	4448
2026-01-27 05:55:03.16	327.01	15.35	-44.5	-45.7	20.8	0.00e+00	0	43	0	960495616	60	4183
2026-01-27 05:55:04.17	326.85	15.28	-44.3	-45.6	20.9	0.00e+00	0	43	0	962592768	60	4112
2026-01-27 05:55:05.18	326.69	15.21	-44.7	-45.9	20.6	0.00e+00	0	43	0	964689920	60	4286
2026-01-27 05:55:06.19	326.53	15.14	-44.6	-45.8	20.7	0.00e+00	0	43	0	965738496	60	4239
2026-01-27 05:55:07.20	326.37	15.06	-44.6	-45.9	20.6	0.00e+00	0	43	0	967835648	60	4259
2026-01-27 05:55:08.21	326.21	14.99	-44.9	-46.2	20.3	0.00e+00	0	42	0	969932800	60	4424
2026-01-27 05:55:09.22	326.06	14.92	-44.8	-46.1	20.4	0.00e+00	0	43	0	972029952	60	4387
2026-01-27 05:55:10.23	325.90	14.85	-44.7	-46.0	20.5	0.00e+00	0	43	0	974127104	60	4308
2026-01-27 05:55:11.24	325.74	14.77	-44.2	-45.4	21.0	0.00e+00	0	43	0	975175680	60	4047
2026-01-27 05:55:12.24	325.59	14.70	-44.3	-45.5	20.9	0.00e+00	0	43	0	977272832	60	4083
2026-01-27 05:55:13.25	325.44	14.63	-44.3	-45.5	21.2	0.00e+00	0	43	0	979369984	59	4306
2026-01-27 05:55:14.26	325.28	14.56	-44.2	-45.4	21.3	0.00e+00	0	43	0	981467136	59	4258
2026-01-27 05:55:15.26	325.13	14.49	-44.3	-45.5	21.2	0.00e+00	0	43	0	983564288	59	4312
2026-01-27 05:55:16.27	324.98	14.41	-44.5	-45.8	21.0	0.00e+00	0	43	0	984612864	59	4450
2026-01-27 05:55:17.28	324.83	14.34	-44.5	-45.8	20.7	0.00e+00	0	43	0	986710016	60	4194
2026-01-27 05:55:18.29	324.68	14.27	-44.9	-46.2	20.3	0.00e+00	0	43	0	988807168	60	4416
2026-01-27 05:55:19.29	324.53	14.20	-45.3	-46.7	19.8	0.00e+00	0	43	0	990904320	61	4438
2026-01-27 05:55:20.30	324.38	14.12	-45.4	-46.9	19.7	0.00e+00	0	43	0	993001472	61	4502
2026-01-27 05:55:21.31	324.24	14.05	-45.5	-46.9	19.6	0.00e+00	0	43	0	995098624	61	4543
2026-01-27 05:55:22.31	324.09	13.98	-45.5	-47.0	19.5	0.00e+00	0	43	0	996147200	61	4584
2026-01-27 05:55:23.32	323.94	13.91	-45.5	-47.0	19.5	0.00e+00	0	43	0	998244352	61	4567
2026-01-27 05:55:24.32	323.80	13.84	-45.3	-46.8	19.8	0.00e+00	0	43	0	1000341504	61	4446
2026-01-27 05:55:25.32	323.65	13.77	-45.1	-46.6	19.9	0.00e+00	0	43	0	1002438656	61	4349
2026-01-27 05:55:26.33	323.51	13.69	-45.0	-46.4	20.1	0.00e+00	0	43	0	1003487232	61	4257
2026-01-27 05:55:27.34	323.37	13.62	-45.0	-46.3	20.1	0.00e+00	0	43	0	1005584384	61	4239
2026-01-27 05:55:28.35	323.22	13.55	-45.0	-46.4	20.0	0.00e+00	0	43	0	1007681536	61	4274
2026-01-27 05:55:29.35	323.08	13.48	-44.9	-46.2	20.2	0.00e+00	0	43	0	1009778688	61	4188
2026-01-27 05:55:30.36	322.94	13.41	-44.8	-46.1	20.3	0.00e+00	0	43	0	1011875840	61	4142
2026-01-27 05:55:31.36	322.80	13.33	-44.6	-45.9	20.5	0.00e+00	0	43	0	1012924416	61	4021
2026-01-27 05:55:32.37	322.66	13.26	-44.5	-45.8	20.6	0.00e+00	0	43	0	1015021568	61	3960
2026-01-27 05:55:33.37	322.52	13.19	-44.5	-45.8	20.6	0.00e+00	0	43	0	1017118720	60	4218
2026-01-27 05:55:34.37	322.39	13.12	-44.5	-45.7	20.7	0.00e+00	0	43	0	1019215872	60	4183
2026-01-27 05:55:35.38	322.25	13.05	-44.8	-46.2	20.3	0.00e+00	0	43	0	1021313024	60	4393
2026-01-27 05:55:36.38	322.11	12.98	-44.9	-46.2	20.2	0.00e+00	0	43	0	1022361600	60	4422
2026-01-27 05:55:37.39	321.98	12.90	-45.6	-47.1	19.5	0.00e+00	0	43	0	1024458752	61	4616
2026-01-27 05:55:38.40	321.84	12.83	-45.9	-47.5	19.1	0.00e+00	0	43	0	1026555904	62	4551
2026-01-27 05:55:39.41	321.70	12.76	-46.2	-47.9	18.7	0.00e+00	0	43	0	1028653056	62	4788
2026-01-27 05:55:40.42	321.57	12.69	-46.4	-48.1	18.5	0.00e+00	0	43	0	1030750208	63	4628
2026-01-27 05:55:41.43	321.43	12.62	-46.6	-48.4	18.3	0.00e+00	0	43	0	1031798784	63	4760
2026-01-27 05:55:42.44	321.30	12.55	-46.3	-48.0	18.6	0.00e+00	0	43	0	1033895936	63	4547
2026-01-27 05:55:43.45	321.17	12.47	-46.0	-47.7	18.9	0.00e+00	0	43	0	1035993088	63	4393
2026-01-27 05:55:44.45	321.04	12.40	-46.1	-47.7	18.9	0.00e+00	0	43	0	1038090240	63	4409
2026-01-27 05:55:45.46	320.91	12.33	-45.6	-47.1	19.4	0.00e+00	0	43	0	1040187392	63	4137
2026-01-27 05:55:46.47	320.78	12.26	-45.5	-47.0	19.5	0.00e+00	0	43	0	1041235968	63	4057
2026-01-27 05:55:47.47	320.65	12.19	-45.2	-46.6	19.9	0.00e+00	0	43	0	1043333120	62	4115
2026-01-27 05:55:48.48	320.52	12.12	-45.2	-46.6	19.8	0.00e+00	0	43	0	1045430272	62	4142
2026-01-27 05:55:49.49	320.39	12.05	-45.0	-46.4	20.0	0.00e+00	0	43	0	1047527424	61	4276
2026-01-27 05:55:50.49	320.26	11.98	-45.2	-46.6	19.8	0.00e+00	0	43	0	1049624576	61	4378
2026-01-27 05:55:51.49	320.14	11.91	-45.3	-46.7	19.7	0.00e+00	0	43	0	1051721728	61	4421
2026-01-27 05:55:52.50	320.01	11.84	-45.1	-46.5	19.9	0.00e+00	0	43	0	1052770304	61	4335
2026-01-27 05:55:53.50	319.88	11.77	-45.3	-46.8	19.6	0.00e+00	0	43	0	1054867456	61	4456
2026-01-27 05:55:54.51	319.76	11.70	-45.3	-46.7	19.7	0.00e+00	0	43	0	1056964608	61	4416
2026-01-27 05:55:55.51	319.63	11.63	-45.3	-46.7	19.7	0.00e+00	0	43	0	1059061760	61	4412
2026-01-27 05:55:56.52	319.51	11.56	-45.3	-46.8	19.7	0.00e+00	0	43	0	1060110336	61	4448
2026-01-27 05:55:57.53	319.39	11.48	-45.5	-47.0	19.4	0.00e+00	0	43	0	1062207488	61	4578
2026-01-27 05:55:58.54	319.26	11.41	-45.3	-46.8	19.6	0.00e+00	0	43	0	1064304640	61	4451
2026-01-27 05:55:59.54	319.14	11.34	-45.4	-46.9	19.5	0.00e+00	0	43	0	1066401792	61	4503
2026-01-27 05:56:00.55	319.02	11.27	-45.8	-47.3	19.2	0.00e+00	0	43	0	1068498944	62	4451
2026-01-27 05:56:01.56	318.90	11.20	-45.8	-47.3	19.1	0.00e+00	0	43	0	1069547520	62	4467
2026-01-27 05:56:02.57	318.78	11.13	-46.1	-47.8	18.7	0.00e+00	0	43	0	1071644672	62	4709
2026-01-27 05:56:03.58	318.66	11.06	-46.2	-47.9	18.6	0.00e+00	0	43	0	1073741824	63	4521
2026-01-27 05:56:04.58	318.54	10.99	-46.3	-48.0	18.5	0.00e+00	0	43	0	1075838976	63	4569
2026-01-27 05:56:05.58	318.42	10.92	-45.9	-47.6	18.9	0.00e+00	0	43	0	1077936128	63	4350
2026-01-27 05:56:06.59	318.30	10.85	-46.1	-47.8	18.7	0.00e+00	0	43	0	1080033280	63	4462
2026-01-27 05:56:07.60	318.18	10.78	-46.1	-47.8	18.7	0.00e+00	0	43	0	1081081856	63	4442
2026-01-27 05:56:08.61	318.07	10.71	-45.9	-47.6	18.9	0.00e+00	0	43	0	1083179008	63	4346
2026-01-27 05:56:09.62	317.95	10.64	-46.2	-47.9	18.6	0.00e+00	0	43	0	1085276160	63	4527
2026-01-27 05:56:10.62	317.83	10.58	-46.0	-47.6	18.8	0.00e+00	0	43	0	1087373312	63	4370
2026-01-27 05:56:11.63	317.72	10.51	-46.2	-47.9	18.5	0.00e+00	0	43	0	1088421888	63	4532
2026-01-27 05:56:12.63	317.60	10.44	-46.3	-48.1	18.4	0.00e+00	0	43	0	1090519040	63	4600
2026-01-27 05:56:13.64	317.49	10.37	-46.6	-48.4	18.1	0.00e+00	0	43	0	1092616192	63	4773
2026-01-27 05:56:14.65	317.38	10.30	-46.5	-48.3	18.1	0.00e+00	0	43	0	1094713344	63	4732
2026-01-27 05:56:15.66	317.26	10.23	-46.6	-48.4	18.0	0.00e+00	0	43	0	1096810496	63	4793
2026-01-27 05:56:16.66	317.15	10.16	-46.7	-48.6	17.8	0.00e+00	0	43	0	1097859072	64	4615
2026-01-27 05:56:17.67	317.04	10.09	-46.6	-48.4	17.9	0.00e+00	0	43	0	1099956224	64	4543
2026-01-27 05:56:18.68	316.93	10.02	-46.8	-48.7	17.6	0.00e+00	0	43	0	1102053376	64	4668
2026-01-27 05:56:19.69	316.81	9.95	-46.6	-48.4	17.9	0.00e+00	0	43	0	1104150528	64	4530
2026-01-27 05:56:20.69	316.70	9.89	-46.5	-48.3	18.0	0.00e+00	0	43	0	1106247680	64	4482
2026-01-27 05:56:21.70	316.59	9.82	-46.5	-48.3	18.1	0.00e+00	0	43	0	1108344832	64	4458
2026-01-27 05:56:22.71	316.49	9.75	-46.3	-48.1	18.3	0.00e+00	0	43	0	1109393408	64	4349
2026-01-27 05:56:23.71	316.38	9.68	-46.3	-48.0	18.3	0.00e+00	0	43	0	1111490560	64	4332
2026-01-27 05:56:24.72	316.27	9.61	-46.0	-47.6	18.8	0.00e+00	0	43	0	1113587712	63	4372
2026-01-27 05:56:25.73	316.16	9.54	-46.1	-47.8	18.6	0.00e+00	0	43	0	1115684864	63	4462
2026-01-27 05:56:26.74	316.05	9.48	-45.9	-47.5	18.8	0.00e+00	0	43	0	1116733440	63	4325
2026-01-27 05:56:27.74	315.95	9.41	-45.9	-47.5	18.8	0.00e+00	0	43	0	1118830592	63	4319
2026-01-27 05:56:28.74	315.84	9.34	-46.0	-47.7	18.7	0.00e+00	0	43	0	1120927744	63	4392
2026-01-27 05:56:29.75	315.74	9.27	-46.0	-47.6	18.7	0.00e+00	0	43	0	1123024896	63	4377
2026-01-27 05:56:30.76	315.63	9.21	-46.2	-47.9	18.4	0.00e+00	0	43	0	1125122048	63	4524
2026-01-27 05:56:31.76	315.53	9.14	-46.5	-48.3	18.1	0.00e+00	0	43	0	1126170624	63	4709
2026-01-27 05:56:32.77	315.42	9.07	-46.7	-48.5	17.9	0.00e+00	0	43	0	1128267776	63	4832
2026-01-27 05:56:33.77	315.32	9.00	-46.6	-48.5	17.9	0.00e+00	0	43	0	1130364928	63	4827
2026-01-27 05:56:34.78	315.21	8.94	-46.5	-48.3	18.1	0.00e+00	0	43	0	1132462080	63	4711
2026-01-27 05:56:35.78	315.11	8.87	-46.7	-48.5	17.8	0.00e+00	0	43	0	1134559232	64	4576
2026-01-27 05:56:36.79	315.01	8.80	-46.7	-48.6	17.7	0.00e+00	0	43	0	1135607808	64	4621
2026-01-27 05:56:37.79	314.91	8.73	-46.8	-48.7	17.6	0.00e+00	0	43	0	1137704960	64	4682
2026-01-27 05:56:38.80	314.81	8.67	-46.6	-48.5	17.8	0.00e+00	0	43	0	1139802112	64	4554
2026-01-27 05:56:39.81	314.71	8.60	-46.6	-48.4	17.9	0.00e+00	0	43	0	1141899264	64	4510
2026-01-27 05:56:40.81	314.61	8.53	-46.5	-48.3	17.9	0.00e+00	0	43	0	1143996416	64	4454
2026-01-27 05:56:41.82	314.51	8.47	-46.4	-48.2	18.0	0.00e+00	0	43	0	1145044992	64	4424
2026-01-27 05:56:42.83	314.41	8.40	-46.4	-48.2	18.0	0.00e+00	0	43	0	1147142144	64	4432
2026-01-27 05:56:43.83	314.31	8.33	-46.3	-48.1	18.1	0.00e+00	0	43	0	1149239296	64	4371
2026-01-27 05:56:44.84	314.21	8.27	-46.5	-48.4	17.9	0.00e+00	0	43	0	1151336448	64	4501
2026-01-27 05:56:45.84	314.11	8.20	-46.0	-47.7	18.4	0.00e+00	0	43	0	1153433600	64	4178
2026-01-27 05:56:46.85	314.01	8.14	-46.4	-48.1	18.1	0.00e+00	0	43	0	1154482176	63	4644
2026-01-27 05:56:47.85	313.92	8.07	-46.4	-48.2	18.2	0.00e+00	0	43	0	1156579328	63	4654
2026-01-27 05:56:48.85	313.82	8.00	-46.6	-48.5	17.8	0.00e+00	0	43	0	1158676480	63	4834
2026-01-27 05:56:49.86	313.73	7.94	-46.5	-48.3	18.0	0.00e+00	0	43	0	1160773632	63	4757
2026-01-27 05:56:50.87	313.63	7.87	-46.5	-48.3	17.9	0.00e+00	0	43	0	1162870784	63	4736
2026-01-27 05:56:51.87	313.54	7.81	-46.5	-48.3	18.0	0.00e+00	0	43	0	1163919360	63	4737
2026-01-27 05:56:52.88	313.44	7.74	-46.6	-48.4	17.9	0.00e+00	0	43	0	1166016512	63	4791
2026-01-27 05:56:53.89	313.35	7.67	-47.0	-49.0	17.2	0.00e+00	0	43	0	1168113664	64	4868
2026-01-27 05:56:54.89	313.25	7.61	-46.9	-49.0	17.2	0.00e+00	0	43	0	1170210816	64	4820
2026-01-27 05:56:55.90	313.16	7.54	-47.1	-49.2	17.0	0.00e+00	0	43	0	1172307968	64	4938
2026-01-27 05:56:56.90	313.07	7.48	-47.0	-49.1	17.1	0.00e+00	0	43	0	1173356544	64	4879
2026-01-27 05:56:57.90	312.97	7.41	-46.9	-49.0	17.2	0.00e+00	0	43	0	1175453696	64	4820
2026-01-27 05:56:58.90	312.88	7.35	-47.1	-49.2	17.0	0.00e+00	0	43	0	1177550848	64	4942
2026-01-27 05:56:59.91	312.79	7.28	-47.3	-49.5	16.6	0.00e+00	0	43	0	1179648000	65	4851
2026-01-27 05:57:00.92	312.70	7.22	-47.4	-49.6	16.5	0.00e+00	0	43	0	1181745152	65	4915
2026-01-27 05:57:01.93	312.61	7.15	-47.4	-49.6	16.5	0.00e+00	0	43	0	1182793728	65	4895
2026-01-27 05:57:02.93	312.52	7.09	-47.6	-50.0	16.1	0.00e+00	0	43	0	1184890880	65	5120
2026-01-27 05:57:03.94	312.43	7.03	-47.7	-50.1	16.0	0.00e+00	0	43	0	1186988032	66	4925
2026-01-27 05:57:04.95	312.34	6.96	-47.6	-50.0	16.1	0.00e+00	0	43	0	1189085184	66	4823
2026-01-27 05:57:05.96	312.25	6.90	-47.4	-49.7	16.4	0.00e+00	0	43	0	1191182336	66	4671
2026-01-27 05:57:06.96	312.16	6.83	-47.7	-50.1	16.0	0.00e+00	0	43	0	1192230912	66	4904
2026-01-27 05:57:07.97	312.07	6.77	-47.8	-50.2	15.9	0.00e+00	0	43	0	1194328064	66	4939
2026-01-27 05:57:08.98	311.98	6.70	-47.7	-50.1	15.9	0.00e+00	0	43	0	1196425216	66	4913
2026-01-27 05:57:09.99	311.89	6.64	-47.7	-50.1	16.0	0.00e+00	0	43	0	1198522368	66	4878
2026-01-27 05:57:10.99	311.81	6.57	-47.6	-49.9	16.1	0.00e+00	0	43	0	1200619520	66	4810
2026-01-27 05:57:12.00	311.72	6.51	-47.6	-49.8	16.3	0.00e+00	0	43	0	1201668096	66	4750
2026-01-27 05:57:13.00	311.63	6.45	-47.5	-49.8	16.3	0.00e+00	0	43	0	1203765248	66	4735
2026-01-27 05:57:14.01	311.55	6.38	-47.4	-49.6	16.4	0.00e+00	0	43	0	1205862400	66	4635
2026-01-27 05:57:15.01	311.46	6.32	-47.2	-49.4	16.7	0.00e+00	0	43	0	1207959552	66	4518
2026-01-27 05:57:16.02	311.38	6.26	-47.3	-49.5	16.6	0.00e+00	0	43	0	1210056704	66	4554
2026-01-27 05:57:17.02	311.29	6.19	-47.5	-49.8	16.2	0.00e+00	0	43	0	1211105280	66	4727
2026-01-27 05:57:18.03	311.21	6.13	-47.7	-50.0	16.0	0.00e+00	0	43	0	1213202432	66	4857
2026-01-27 05:57:19.04	311.12	6.07	-47.6	-49.9	16.1	0.00e+00	0	43	0	1215299584	66	4790
2026-01-27 05:57:20.04	311.04	6.00	-47.5	-49.8	16.2	0.00e+00	0	43	0	1217396736	66	4734
2026-01-27 05:57:21.05	310.96	5.94	-47.5	-49.8	16.2	0.00e+00	0	43	0	1219493888	66	4716
2026-01-27 05:57:22.05	310.87	5.88	-47.7	-50.1	15.9	0.00e+00	0	43	0	1220542464	66	4902
2026-01-27 05:57:23.06	310.79	5.81	-47.9	-50.4	15.6	0.00e+00	0	43	0	1222639616	66	5051
