passes_logs/2026/01/27/R3.2S_Murmansk/R3.2S_Murmansk__20260127_130803_AQUA_rec.log

#Pass ID: 20260127_130803_AQUA
#Satellite: AQUA
#Configuration: AQUA
#almurnet v.1.7.20251203
#Start time: 2026-01-27 13:08:02

#Version: 2.2.20231116
#Station: R3.2S_Murmansk
#Location: 33.079688 lon 68.888172 lat
#TLE: 1 27424U 02022A   26027.29059822  .00001896  00000+0  38917-3 0  9993
#TLE: 2 27424  98.4102 353.9260 0001849  63.9098  72.6772 14.61866390262689

#Time	Az	El	Level	Level2	SNR	BER	BlckErr	Temp	State	Recorded	gain1	gain2
2026-01-27 13:08:02.59	200.17	1.97	-55.5	-73.3	3.8	7.39e-01	0	40	0	0	81	29871
2026-01-27 13:08:03.59	200.23	2.03	-55.4	-73.3	3.8	7.40e-01	0	41	104	0	81	29878
2026-01-27 13:08:04.60	200.30	2.09	-55.4	-73.3	3.8	7.43e-01	0	41	104	0	81	29773
2026-01-27 13:08:05.61	200.36	2.15	-55.4	-73.3	3.8	7.45e-01	0	40	104	0	81	29696
2026-01-27 13:08:06.61	200.43	2.21	-55.4	-73.3	3.8	7.46e-01	0	41	104	0	81	29697
2026-01-27 13:08:07.62	200.49	2.27	-55.4	-73.3	3.8	7.44e-01	0	41	104	0	81	29715
2026-01-27 13:08:08.63	200.56	2.34	-55.4	-73.3	3.8	7.46e-01	0	41	104	0	81	29696
2026-01-27 13:08:09.63	200.63	2.40	-55.4	-73.2	3.8	7.43e-01	0	41	104	0	81	29615
2026-01-27 13:08:10.64	200.70	2.46	-55.4	-73.2	3.8	7.46e-01	0	41	104	0	81	29615
2026-01-27 13:08:11.65	200.76	2.52	-55.5	-73.3	3.8	7.45e-01	0	41	104	0	81	29873
2026-01-27 13:08:12.66	200.83	2.58	-55.6	-73.5	3.8	7.43e-01	0	41	104	0	81	30418
2026-01-27 13:08:13.67	200.90	2.64	-55.7	-73.5	3.8	7.47e-01	0	41	104	0	81	30612
2026-01-27 13:08:14.67	200.97	2.71	-55.7	-73.9	3.8	7.44e-01	0	41	104	0	82	30068
2026-01-27 13:08:15.68	201.04	2.77	-55.7	-73.6	3.8	7.49e-01	0	41	104	0	82	29145
2026-01-27 13:08:16.69	201.11	2.83	-55.7	-73.6	3.8	7.45e-01	0	41	104	0	82	29058
2026-01-27 13:08:17.70	201.18	2.89	-55.7	-73.5	3.8	7.43e-01	0	41	104	0	82	28938
2026-01-27 13:08:18.71	201.25	2.96	-55.7	-73.5	3.8	7.48e-01	0	41	104	0	82	28788
2026-01-27 13:08:19.72	201.32	3.02	-55.6	-73.5	3.8	7.44e-01	0	41	104	0	82	28743
2026-01-27 13:08:20.73	201.39	3.08	-55.6	-73.4	3.8	7.45e-01	0	41	104	0	82	28600
2026-01-27 13:08:21.74	201.46	3.15	-55.6	-73.4	3.8	7.50e-01	0	41	104	0	82	28593
2026-01-27 13:08:22.75	201.53	3.21	-55.5	-73.4	3.8	7.44e-01	0	41	104	0	82	28447
2026-01-27 13:08:23.75	201.60	3.27	-55.5	-73.3	3.8	7.44e-01	0	41	104	0	82	28306
2026-01-27 13:08:24.76	201.67	3.34	-55.5	-73.3	3.8	7.46e-01	0	41	104	0	82	28166
2026-01-27 13:08:25.77	201.75	3.40	-55.4	-73.2	3.8	7.46e-01	0	41	104	0	82	27977
2026-01-27 13:08:26.77	201.82	3.46	-55.4	-73.2	3.8	7.47e-01	0	41	104	0	82	27812
2026-01-27 13:08:27.78	201.89	3.53	-55.3	-73.1	3.8	7.44e-01	0	41	104	0	82	27417
2026-01-27 13:08:28.79	201.96	3.59	-55.2	-72.9	3.8	7.46e-01	0	41	104	0	82	27062
2026-01-27 13:08:29.80	202.04	3.65	-55.1	-72.8	3.8	7.47e-01	0	41	104	0	82	26756
2026-01-27 13:08:30.81	202.11	3.72	-54.9	-72.7	3.7	7.41e-01	0	41	104	0	81	27951
2026-01-27 13:08:31.82	202.19	3.78	-54.8	-72.6	3.8	7.42e-01	0	42	104	0	81	27677
2026-01-27 13:08:32.83	202.26	3.85	-54.6	-72.4	3.8	7.47e-01	0	41	104	0	81	26881
2026-01-27 13:08:33.83	202.33	3.91	-54.3	-71.9	3.8	7.42e-01	0	42	104	0	80	26879
2026-01-27 13:08:34.83	202.41	3.98	-54.0	-71.7	3.8	7.45e-01	0	41	104	0	80	26234
2026-01-27 13:08:35.84	202.48	4.04	-54.0	-71.6	3.8	7.47e-01	0	42	104	0	79	27524
2026-01-27 13:08:36.85	202.56	4.11	-54.0	-71.0	3.8	7.44e-01	0	42	104	0	79	25732
2026-01-27 13:08:37.86	202.64	4.17	-54.0	-70.5	3.8	7.44e-01	0	41	104	0	79	24175
2026-01-27 13:08:38.87	202.71	4.24	-54.0	-70.1	3.8	7.47e-01	0	42	104	0	79	23233
2026-01-27 13:08:39.87	202.79	4.30	-54.0	-70.0	3.8	7.47e-01	0	42	104	0	79	22904
2026-01-27 13:08:40.88	202.87	4.37	-53.9	-69.7	3.9	7.43e-01	0	42	104	0	79	22174
2026-01-27 13:08:41.89	202.95	4.43	-53.8	-66.2	5.0	7.11e-01	17	42	104	0	79	14825
2026-01-27 13:08:42.90	203.02	4.50	-53.3	-61.5	8.8	6.33e-01	2	42	0	1572864	78	9083
2026-01-27 13:08:43.90	203.10	4.57	-52.5	-58.2	12.4	6.10e-01	0	42	0	3145728	77	6617
2026-01-27 13:08:44.91	203.18	4.63	-51.3	-55.2	15.5	6.08e-01	0	42	0	5242880	74	5550
2026-01-27 13:08:45.92	203.26	4.70	-50.0	-52.9	17.9	6.06e-01	0	42	0	6815744	71	5052
2026-01-27 13:08:46.93	203.34	4.76	-48.9	-51.2	19.6	6.05e-01	0	42	0	8912896	69	4657
2026-01-27 13:08:47.94	203.42	4.83	-48.1	-50.1	20.7	6.05e-01	0	42	0	10485760	68	4377
2026-01-27 13:08:48.95	203.50	4.90	-47.4	-49.2	21.6	6.09e-01	0	42	0	12582912	66	4423
2026-01-27 13:08:49.96	203.58	4.97	-47.1	-48.8	22.1	6.07e-01	0	42	0	14680064	66	4227
2026-01-27 13:08:50.96	203.66	5.03	-47.0	-48.7	22.2	6.03e-01	0	42	0	16252928	66	4152
2026-01-27 13:08:51.97	203.74	5.10	-46.9	-48.6	22.3	6.05e-01	0	42	0	18350080	65	4375
2026-01-27 13:08:52.98	203.82	5.17	-50.5	-53.8	17.4	6.07e-01	0	42	0	19922944	71	5596
2026-01-27 13:08:53.98	203.90	5.23	-50.1	-53.0	18.4	6.03e-01	0	42	0	22020096	70	5424
2026-01-27 13:08:54.99	203.99	5.30	-50.3	-53.3	17.9	6.08e-01	0	42	0	24117248	71	5280
2026-01-27 13:08:55.99	204.07	5.37	-49.5	-52.1	19.1	6.08e-01	0	42	0	25690112	69	5199
2026-01-27 13:08:57.00	204.15	5.44	-47.2	-49.0	22.0	6.07e-01	0	42	0	27787264	66	4304
2026-01-27 13:08:58.01	204.24	5.50	-47.3	-49.1	21.9	6.07e-01	0	42	0	29884416	66	4360
2026-01-27 13:08:59.01	204.32	5.57	-47.1	-48.8	22.1	6.07e-01	0	42	0	31457280	66	4230
2026-01-27 13:09:00.02	204.41	5.64	-47.0	-48.7	22.3	6.06e-01	0	42	0	33554432	65	4407
2026-01-27 13:09:01.03	204.49	5.71	-47.0	-48.7	22.4	6.06e-01	0	42	0	35127296	65	4393
2026-01-27 13:09:02.03	204.58	5.78	-46.9	-48.5	22.4	6.05e-01	0	42	0	37224448	65	4339
2026-01-27 13:09:03.04	204.66	5.85	-47.1	-48.9	22.1	6.06e-01	0	42	0	38797312	65	4500
2026-01-27 13:09:04.05	204.75	5.92	-46.8	-48.4	22.6	6.07e-01	0	42	0	40894464	65	4261
2026-01-27 13:09:05.06	204.83	5.98	-46.9	-48.5	22.5	6.06e-01	0	42	0	42991616	65	4332
2026-01-27 13:09:06.07	204.92	6.05	-46.6	-48.3	22.8	6.06e-01	0	42	0	44564480	65	4195
2026-01-27 13:09:07.08	205.01	6.12	-46.8	-48.5	22.6	6.07e-01	0	42	0	46661632	65	4298
2026-01-27 13:09:08.09	205.10	6.19	-46.8	-48.5	22.5	6.06e-01	0	42	0	48234496	65	4306
2026-01-27 13:09:09.10	205.19	6.26	-46.8	-48.5	22.6	6.07e-01	0	42	0	50331648	65	4307
2026-01-27 13:09:10.11	205.27	6.33	-47.1	-48.8	22.3	6.04e-01	0	42	0	52428800	65	4466
2026-01-27 13:09:11.11	205.36	6.40	-46.9	-48.5	22.5	6.07e-01	0	42	0	54001664	65	4323
2026-01-27 13:09:12.12	205.45	6.47	-46.9	-48.5	22.6	6.06e-01	0	42	0	56098816	65	4309
2026-01-27 13:09:13.13	205.54	6.54	-46.8	-48.4	22.7	6.07e-01	0	42	0	58195968	65	4279
2026-01-27 13:09:14.14	205.63	6.61	-46.5	-48.0	23.1	6.09e-01	0	42	0	59768832	64	4330
2026-01-27 13:09:15.14	205.72	6.68	-46.6	-48.1	22.9	6.06e-01	0	42	0	61865984	64	4377
2026-01-27 13:09:16.15	205.82	6.75	-46.5	-48.1	23.0	6.04e-01	0	42	0	63438848	64	4369
2026-01-27 13:09:17.16	205.91	6.83	-46.6	-48.1	22.9	6.08e-01	0	42	0	65536000	64	4385
2026-01-27 13:09:18.17	206.00	6.90	-46.6	-48.2	22.9	6.06e-01	0	42	0	67108864	64	4420
2026-01-27 13:09:19.17	206.09	6.97	-46.4	-47.9	23.2	6.08e-01	0	42	0	69206016	64	4277
2026-01-27 13:09:20.18	206.19	7.04	-46.6	-48.2	22.9	6.07e-01	0	42	0	71303168	64	4414
2026-01-27 13:09:21.19	206.28	7.11	-46.7	-48.3	22.8	6.07e-01	0	42	0	72876032	64	4443
2026-01-27 13:09:22.20	206.38	7.18	-46.4	-47.9	23.2	6.06e-01	0	42	0	74973184	64	4271
2026-01-27 13:09:23.21	206.47	7.26	-46.3	-47.8	23.3	6.06e-01	0	42	0	77070336	64	4216
2026-01-27 13:09:24.22	206.57	7.33	-46.2	-47.7	23.4	6.05e-01	0	42	0	78643200	64	4166
2026-01-27 13:09:25.23	206.66	7.40	-46.1	-47.5	23.6	6.07e-01	0	42	0	80740352	64	4078
2026-01-27 13:09:26.23	206.76	7.47	-46.3	-47.8	23.3	6.05e-01	0	42	0	82313216	64	4235
2026-01-27 13:09:27.24	206.85	7.55	-46.2	-47.7	23.4	6.06e-01	0	42	0	84410368	64	4178
2026-01-27 13:09:28.25	206.95	7.62	-46.3	-47.8	23.4	6.05e-01	0	42	0	86507520	64	4204
2026-01-27 13:09:29.26	207.05	7.69	-46.2	-47.7	23.5	6.08e-01	0	42	0	88080384	64	4158
2026-01-27 13:09:30.26	207.15	7.76	-46.3	-47.8	23.3	6.04e-01	0	42	0	90177536	64	4228
2026-01-27 13:09:31.27	207.25	7.84	-46.4	-47.9	23.3	6.06e-01	0	42	0	91750400	64	4255
2026-01-27 13:09:32.28	207.35	7.91	-46.2	-47.6	23.5	6.05e-01	0	42	0	93847552	64	4136
2026-01-27 13:09:33.28	207.45	7.98	-46.2	-47.7	23.4	6.07e-01	0	42	0	95420416	64	4183
2026-01-27 13:09:34.29	207.55	8.06	-46.2	-47.7	23.5	6.07e-01	0	42	0	97517568	64	4160
2026-01-27 13:09:35.30	207.65	8.13	-46.2	-47.7	23.5	6.07e-01	0	42	0	99614720	64	4159
2026-01-27 13:09:36.30	207.75	8.21	-46.1	-47.5	23.7	6.06e-01	0	42	0	101711872	64	4075
2026-01-27 13:09:37.31	207.85	8.28	-46.0	-47.4	23.8	6.06e-01	0	42	0	103284736	63	4272
2026-01-27 13:09:38.31	207.95	8.35	-46.0	-47.4	23.9	6.08e-01	0	42	0	105381888	63	4265
2026-01-27 13:09:39.32	208.05	8.43	-46.0	-47.4	23.9	6.07e-01	0	42	0	106954752	63	4264
2026-01-27 13:09:40.33	208.16	8.50	-46.0	-47.4	23.9	6.07e-01	0	42	0	109051904	63	4275
2026-01-27 13:09:41.34	208.26	8.58	-46.1	-47.5	23.8	6.06e-01	0	42	0	110624768	63	4319
2026-01-27 13:09:42.35	208.37	8.65	-46.0	-47.4	23.9	6.06e-01	0	42	0	112721920	63	4272
2026-01-27 13:09:43.35	208.47	8.73	-46.0	-47.4	23.9	6.05e-01	0	42	0	114819072	63	4279
2026-01-27 13:09:44.36	208.58	8.80	-45.9	-47.3	24.0	6.10e-01	0	42	0	116391936	63	4206
2026-01-27 13:09:45.37	208.69	8.88	-46.0	-47.5	23.8	6.07e-01	0	42	0	118489088	63	4296
2026-01-27 13:09:46.38	208.79	8.96	-46.0	-47.4	23.9	6.08e-01	0	42	0	120061952	63	4291
2026-01-27 13:09:47.39	208.90	9.03	-46.0	-47.4	23.9	6.04e-01	0	42	0	122159104	63	4260
2026-01-27 13:09:48.39	209.01	9.11	-45.8	-47.2	24.1	6.05e-01	0	42	0	124256256	63	4193
2026-01-27 13:09:49.40	209.12	9.19	-45.9	-47.3	24.1	6.06e-01	0	42	0	125829120	63	4197
2026-01-27 13:09:50.40	209.23	9.26	-45.8	-47.2	24.2	6.07e-01	0	42	0	127926272	63	4156
2026-01-27 13:09:51.41	209.34	9.34	-45.9	-47.3	24.1	6.08e-01	0	42	0	130023424	63	4207
2026-01-27 13:09:52.42	209.45	9.42	-45.7	-47.1	24.2	6.06e-01	0	42	0	131596288	63	4132
2026-01-27 13:09:53.42	209.56	9.49	-45.8	-47.2	24.2	6.05e-01	0	42	0	133693440	63	4152
2026-01-27 13:09:54.44	209.67	9.57	-45.6	-47.0	24.4	6.07e-01	0	42	0	135266304	63	4073
2026-01-27 13:09:55.44	209.78	9.65	-45.7	-47.1	24.2	6.05e-01	0	42	0	137363456	63	4135
2026-01-27 13:09:56.45	209.89	9.73	-45.8	-47.1	24.2	6.06e-01	0	42	0	138936320	63	4137
2026-01-27 13:09:57.46	210.01	9.80	-45.8	-47.2	24.1	6.05e-01	0	42	0	141033472	63	4182
2026-01-27 13:09:58.47	210.12	9.88	-45.6	-47.0	24.3	6.05e-01	0	42	0	143130624	63	4071
2026-01-27 13:09:59.47	210.24	9.96	-45.7	-47.1	24.2	6.08e-01	0	42	0	144703488	63	4133
2026-01-27 13:10:00.48	210.35	10.04	-45.8	-47.2	24.2	6.07e-01	0	42	0	146800640	63	4158
2026-01-27 13:10:01.49	210.47	10.12	-45.6	-47.0	24.4	6.06e-01	0	42	0	148373504	63	4052
2026-01-27 13:10:02.50	210.59	10.20	-45.7	-47.0	24.3	6.05e-01	0	42	0	150470656	63	4093
2026-01-27 13:10:03.51	210.70	10.27	-45.6	-47.0	24.3	6.05e-01	0	42	0	152567808	63	4078
2026-01-27 13:10:04.51	210.82	10.35	-45.7	-47.1	24.3	6.05e-01	0	42	0	154140672	63	4108
2026-01-27 13:10:05.52	210.94	10.43	-45.6	-46.9	24.4	6.05e-01	0	42	0	156237824	63	4048
2026-01-27 13:10:06.53	211.06	10.51	-45.6	-46.9	24.4	6.05e-01	0	42	0	158334976	63	4050
2026-01-27 13:10:07.54	211.18	10.59	-45.6	-46.9	24.4	6.08e-01	0	42	0	159907840	63	4049
2026-01-27 13:10:08.54	211.30	10.67	-45.5	-46.8	24.5	6.06e-01	0	42	0	162004992	63	4003
2026-01-27 13:10:09.54	211.42	10.75	-45.5	-46.8	24.5	6.05e-01	0	42	0	163577856	62	4222
2026-01-27 13:10:10.55	211.54	10.83	-45.4	-46.8	24.6	6.05e-01	0	42	0	165675008	62	4194
2026-01-27 13:10:11.56	211.67	10.91	-45.6	-46.9	24.4	6.06e-01	0	42	0	167247872	62	4275
2026-01-27 13:10:12.57	211.79	10.99	-45.5	-46.9	24.5	6.06e-01	0	42	0	169345024	62	4257
2026-01-27 13:10:13.58	211.92	11.07	-45.8	-47.1	24.2	6.05e-01	0	42	0	171442176	62	4388
2026-01-27 13:10:14.58	212.04	11.15	-45.5	-46.8	24.5	6.07e-01	0	42	0	173015040	62	4237
2026-01-27 13:10:15.59	212.17	11.24	-45.3	-46.6	24.8	6.06e-01	0	42	0	175112192	62	4102
2026-01-27 13:10:16.60	212.29	11.32	-45.3	-46.6	24.8	6.06e-01	0	42	0	177209344	62	4127
2026-01-27 13:10:17.61	212.42	11.40	-45.3	-46.6	24.8	6.05e-01	0	42	0	178782208	62	4109
2026-01-27 13:10:18.61	212.55	11.48	-45.4	-46.7	24.7	6.06e-01	0	43	0	180879360	62	4164
2026-01-27 13:10:19.62	212.68	11.56	-45.3	-46.6	24.7	6.07e-01	0	42	0	182452224	62	4140
2026-01-27 13:10:20.63	212.81	11.64	-45.3	-46.7	24.8	6.03e-01	0	42	0	184549376	62	4146
2026-01-27 13:10:21.63	212.94	11.73	-45.4	-46.7	24.7	6.07e-01	0	42	0	186646528	62	4186
2026-01-27 13:10:22.64	213.07	11.81	-45.6	-47.0	24.5	6.06e-01	0	42	0	188219392	62	4299
2026-01-27 13:10:23.65	213.20	11.89	-45.7	-47.1	24.3	6.05e-01	0	42	0	190316544	62	4370
2026-01-27 13:10:24.65	213.33	11.97	-45.4	-46.7	24.7	6.06e-01	0	42	0	191889408	62	4186
2026-01-27 13:10:25.66	213.46	12.06	-45.5	-46.9	24.6	6.05e-01	0	42	0	193986560	62	4243
2026-01-27 13:10:26.67	213.60	12.14	-45.2	-46.5	24.9	6.07e-01	0	42	0	195559424	62	4094
2026-01-27 13:10:27.68	213.73	12.22	-45.2	-46.5	24.9	6.04e-01	0	42	0	197656576	62	4077
2026-01-27 13:10:28.68	213.87	12.31	-45.3	-46.6	24.8	6.08e-01	0	42	0	199753728	62	4122
2026-01-27 13:10:29.69	214.00	12.39	-45.3	-46.6	24.9	6.04e-01	0	42	0	201326592	62	4103
2026-01-27 13:10:30.70	214.14	12.47	-45.2	-46.5	24.9	6.05e-01	0	42	0	203423744	62	4088
2026-01-27 13:10:31.71	214.28	12.56	-45.3	-46.6	24.9	6.05e-01	0	42	0	205520896	62	4107
2026-01-27 13:10:32.71	214.42	12.64	-45.2	-46.5	24.9	6.05e-01	0	42	0	207093760	62	4094
2026-01-27 13:10:33.72	214.56	12.73	-45.2	-46.5	25.0	6.07e-01	0	42	0	209190912	62	4052
2026-01-27 13:10:34.73	214.70	12.81	-45.2	-46.5	25.0	6.07e-01	0	42	0	210763776	62	4052
2026-01-27 13:10:35.73	214.84	12.90	-45.1	-46.4	25.1	6.04e-01	0	43	0	212860928	62	4022
2026-01-27 13:10:36.74	214.98	12.98	-45.1	-46.3	25.1	6.04e-01	0	42	0	214958080	62	3990
2026-01-27 13:10:37.75	215.13	13.07	-45.1	-46.4	25.1	6.06e-01	0	42	0	216530944	62	4009
2026-01-27 13:10:38.76	215.27	13.15	-45.0	-46.3	25.1	6.07e-01	0	43	0	218628096	62	3987
2026-01-27 13:10:39.77	215.41	13.24	-45.0	-46.2	25.2	6.07e-01	0	42	0	220200960	61	4186
2026-01-27 13:10:40.77	215.56	13.32	-45.1	-46.3	25.1	6.06e-01	0	42	0	222298112	61	4239
2026-01-27 13:10:41.78	215.71	13.41	-44.9	-46.2	25.3	6.05e-01	0	42	0	223870976	61	4169
2026-01-27 13:10:42.79	215.85	13.50	-45.1	-46.4	25.1	6.04e-01	0	42	0	225968128	61	4249
2026-01-27 13:10:43.80	216.00	13.58	-45.1	-46.3	25.1	6.04e-01	0	42	0	228065280	61	4231
2026-01-27 13:10:44.81	216.15	13.67	-45.1	-46.3	25.1	6.05e-01	0	42	0	230162432	61	4237
2026-01-27 13:10:45.81	216.30	13.75	-45.1	-46.4	25.1	6.05e-01	0	42	0	231735296	61	4259
2026-01-27 13:10:46.82	216.45	13.84	-45.0	-46.2	25.2	6.02e-01	0	42	0	233832448	61	4190
2026-01-27 13:10:47.82	216.60	13.93	-45.1	-46.4	25.0	6.06e-01	0	42	0	235405312	61	4281
2026-01-27 13:10:48.83	216.76	14.01	-44.9	-46.1	25.3	6.07e-01	0	42	0	237502464	61	4127
2026-01-27 13:10:49.84	216.91	14.10	-44.9	-46.2	25.3	6.06e-01	0	42	0	239075328	61	4156
2026-01-27 13:10:50.85	217.07	14.19	-45.1	-46.3	25.1	6.06e-01	0	42	0	241172480	61	4235
2026-01-27 13:10:51.85	217.22	14.28	-45.0	-46.3	25.2	6.06e-01	0	42	0	243269632	61	4204
2026-01-27 13:10:52.86	217.38	14.36	-44.9	-46.2	25.3	6.05e-01	0	42	0	244842496	61	4161
2026-01-27 13:10:53.87	217.54	14.45	-44.9	-46.2	25.3	6.05e-01	0	42	0	246939648	61	4163
2026-01-27 13:10:54.87	217.69	14.54	-45.0	-46.2	25.3	6.07e-01	0	42	0	248512512	61	4177
2026-01-27 13:10:55.88	217.85	14.63	-44.9	-46.2	25.3	6.06e-01	0	42	0	250609664	61	4158
2026-01-27 13:10:56.89	218.01	14.72	-44.7	-46.0	25.5	6.04e-01	0	42	0	252182528	61	4055
2026-01-27 13:10:57.89	218.17	14.81	-44.8	-46.1	25.4	6.06e-01	0	43	0	254279680	61	4108
2026-01-27 13:10:58.90	218.34	14.89	-44.9	-46.1	25.3	6.06e-01	0	42	0	256376832	61	4138
2026-01-27 13:10:59.91	218.50	14.98	-44.9	-46.2	25.3	6.05e-01	0	42	0	258473984	61	4156
2026-01-27 13:11:00.92	218.67	15.07	-44.9	-46.2	25.3	6.08e-01	0	42	0	260046848	61	4149
2026-01-27 13:11:01.93	218.83	15.16	-44.9	-46.1	25.4	6.06e-01	0	42	0	262144000	61	4131
2026-01-27 13:11:02.93	219.00	15.25	-44.9	-46.1	25.3	6.06e-01	0	43	0	263716864	61	4135
2026-01-27 13:11:03.94	219.17	15.34	-44.8	-46.1	25.4	6.04e-01	0	42	0	265814016	61	4103
2026-01-27 13:11:04.95	219.33	15.43	-44.9	-46.1	25.4	6.07e-01	0	42	0	267386880	61	4120
2026-01-27 13:11:05.95	219.50	15.52	-44.8	-46.0	25.4	6.04e-01	0	42	0	269484032	61	4084
2026-01-27 13:11:06.96	219.67	15.61	-44.8	-46.0	25.4	6.03e-01	0	42	0	271581184	61	4092
2026-01-27 13:11:07.97	219.85	15.70	-44.8	-46.0	25.5	6.05e-01	0	42	0	273154048	61	4076
2026-01-27 13:11:08.97	220.02	15.79	-44.8	-46.0	25.5	6.03e-01	0	42	0	275251200	61	4068
2026-01-27 13:11:09.98	220.19	15.88	-44.7	-45.9	25.5	6.04e-01	0	42	0	276824064	61	4046
2026-01-27 13:11:10.99	220.37	15.97	-44.7	-45.9	25.6	6.07e-01	0	42	0	278921216	61	4025
2026-01-27 13:11:12.00	220.54	16.06	-44.6	-45.8	25.6	6.05e-01	0	42	0	281018368	61	4000
2026-01-27 13:11:13.01	220.72	16.15	-44.7	-45.9	25.5	6.04e-01	0	42	0	282591232	61	4046
2026-01-27 13:11:14.01	220.90	16.24	-44.7	-45.9	25.6	6.05e-01	0	42	0	284688384	61	4025
2026-01-27 13:11:15.01	221.08	16.33	-44.7	-46.0	25.5	6.04e-01	0	42	0	286785536	61	4055
2026-01-27 13:11:16.02	221.26	16.42	-44.8	-46.0	25.5	6.06e-01	0	42	0	288358400	61	4066
2026-01-27 13:11:17.03	221.44	16.51	-44.9	-46.1	25.4	6.06e-01	0	42	0	290455552	61	4116
2026-01-27 13:11:18.04	221.62	16.61	-44.6	-45.8	25.7	6.07e-01	0	42	0	292028416	61	3971
2026-01-27 13:11:19.04	221.81	16.70	-44.6	-45.8	25.7	6.04e-01	0	42	0	294125568	61	3972
2026-01-27 13:11:20.05	221.99	16.79	-44.6	-45.8	25.7	6.06e-01	0	42	0	295698432	61	3973
2026-01-27 13:11:21.06	222.18	16.88	-44.6	-45.8	25.7	6.05e-01	0	42	0	297795584	61	3974
2026-01-27 13:11:22.06	222.36	16.97	-44.6	-45.8	25.6	6.06e-01	0	42	0	299892736	61	3979
2026-01-27 13:11:23.07	222.55	17.06	-44.6	-45.8	25.7	6.05e-01	0	43	0	301465600	61	3973
2026-01-27 13:11:24.08	222.74	17.16	-44.7	-45.9	25.6	6.07e-01	0	42	0	303562752	61	4047
2026-01-27 13:11:25.08	222.93	17.25	-44.7	-45.9	25.6	6.04e-01	0	42	0	305135616	61	4028
2026-01-27 13:11:26.09	223.13	17.34	-44.7	-45.9	25.6	6.05e-01	0	43	0	307232768	61	4030
2026-01-27 13:11:27.10	223.32	17.43	-44.7	-46.0	25.5	6.04e-01	0	42	0	309329920	61	4055
2026-01-27 13:11:28.10	223.51	17.52	-44.8	-46.1	25.4	6.05e-01	0	43	0	310902784	61	4102
2026-01-27 13:11:29.11	223.71	17.62	-44.7	-45.9	25.6	6.06e-01	0	42	0	312999936	61	4038
2026-01-27 13:11:30.11	223.91	17.71	-44.5	-45.7	25.8	6.06e-01	0	43	0	315097088	61	3924
2026-01-27 13:11:31.12	224.11	17.80	-44.4	-45.6	25.8	6.04e-01	0	42	0	316669952	60	4132
2026-01-27 13:11:32.13	224.31	17.89	-44.5	-45.7	25.8	6.06e-01	0	43	0	318767104	60	4155
2026-01-27 13:11:33.13	224.50	17.98	-44.5	-45.7	25.8	6.05e-01	0	42	0	320339968	60	4164
2026-01-27 13:11:34.14	224.71	18.08	-44.6	-45.8	25.7	6.05e-01	0	42	0	322437120	60	4223
2026-01-27 13:11:35.15	224.91	18.17	-44.5	-45.7	24.1	6.06e-01	0	42	0	324009984	60	4182
2026-01-27 13:11:36.15	225.11	18.26	-44.6	-45.8	25.7	6.05e-01	0	42	0	326107136	60	4194
2026-01-27 13:11:37.16	225.32	18.36	-44.7	-45.9	25.5	6.05e-01	0	42	0	328204288	60	4290
2026-01-27 13:11:38.17	225.53	18.45	-44.7	-45.9	25.5	6.04e-01	0	42	0	329777152	60	4275
2026-01-27 13:11:39.17	225.74	18.54	-44.7	-45.9	25.6	6.06e-01	0	42	0	331874304	60	4270
2026-01-27 13:11:40.18	225.95	18.63	-44.7	-45.9	25.6	6.06e-01	0	42	0	333447168	60	4270
2026-01-27 13:11:41.19	226.16	18.73	-44.6	-45.8	25.6	6.06e-01	0	42	0	335544320	60	4233
2026-01-27 13:11:42.19	226.37	18.82	-44.6	-45.8	25.7	6.04e-01	0	42	0	337117184	60	4205
2026-01-27 13:11:43.20	226.58	18.91	-44.5	-45.7	25.7	6.05e-01	0	42	0	339214336	60	4174
2026-01-27 13:11:44.21	226.80	19.01	-44.6	-45.8	25.7	6.05e-01	0	42	0	341311488	60	4218
2026-01-27 13:11:45.22	227.02	19.10	-44.6	-45.8	25.7	6.07e-01	0	43	0	343408640	60	4210
2026-01-27 13:11:46.23	227.24	19.19	-44.6	-45.9	25.7	6.06e-01	0	42	0	344981504	60	4246
2026-01-27 13:11:47.23	227.45	19.28	-44.6	-45.8	25.7	6.04e-01	0	42	0	347078656	60	4224
2026-01-27 13:11:48.24	227.67	19.38	-44.6	-45.8	25.7	6.06e-01	0	43	0	348651520	60	4228
2026-01-27 13:11:49.25	227.90	19.47	-44.7	-45.9	25.6	6.06e-01	0	43	0	350748672	60	4274
2026-01-27 13:11:50.25	228.12	19.56	-44.8	-46.0	25.6	6.06e-01	0	42	0	352321536	60	4298
2026-01-27 13:11:51.26	228.35	19.66	-44.8	-46.0	25.5	6.04e-01	0	42	0	354418688	60	4327
2026-01-27 13:11:52.27	228.57	19.75	-44.6	-45.8	25.8	6.04e-01	0	43	0	356515840	60	4219
2026-01-27 13:11:53.28	228.80	19.84	-44.4	-45.6	25.9	6.05e-01	0	42	0	358088704	60	4121
2026-01-27 13:11:54.28	229.03	19.93	-44.5	-45.7	25.8	6.05e-01	0	43	0	360185856	60	4181
2026-01-27 13:11:55.29	229.26	20.03	-44.7	-45.9	25.7	6.05e-01	0	42	0	361758720	60	4271
2026-01-27 13:11:56.29	229.49	20.12	-44.6	-45.8	25.7	6.07e-01	0	42	0	363855872	60	4241
2026-01-27 13:11:57.30	229.72	20.21	-44.6	-45.8	25.7	6.06e-01	0	42	0	365953024	60	4218
2026-01-27 13:11:58.31	229.96	20.30	-44.6	-45.8	25.7	6.06e-01	0	43	0	367525888	60	4238
2026-01-27 13:11:59.32	230.20	20.40	-44.7	-45.9	25.6	6.04e-01	0	43	0	369623040	60	4275
2026-01-27 13:12:00.33	230.43	20.49	-44.8	-46.0	25.5	6.04e-01	0	42	0	371720192	60	4329
2026-01-27 13:12:01.33	230.67	20.58	-44.6	-45.8	25.8	6.06e-01	0	42	0	373293056	60	4223
2026-01-27 13:12:02.34	230.91	20.67	-44.6	-45.8	25.8	6.05e-01	0	43	0	375390208	60	4217
2026-01-27 13:12:03.35	231.16	20.77	-44.7	-46.0	25.6	6.06e-01	0	43	0	376963072	60	4300
2026-01-27 13:12:04.35	231.40	20.86	-44.6	-45.8	25.7	6.05e-01	0	43	0	379060224	60	4240
2026-01-27 13:12:05.36	231.64	20.95	-44.7	-45.8	25.8	6.06e-01	0	43	0	380633088	60	4240
2026-01-27 13:12:06.36	231.89	21.04	-44.7	-46.0	25.7	6.05e-01	0	42	0	382730240	60	4297
2026-01-27 13:12:07.37	232.14	21.13	-44.7	-45.9	25.7	6.06e-01	0	43	0	384827392	60	4277
2026-01-27 13:12:08.37	232.39	21.22	-44.7	-45.9	25.7	6.03e-01	0	43	0	386400256	60	4251
2026-01-27 13:12:09.38	232.64	21.31	-44.7	-45.9	25.7	6.05e-01	0	43	0	388497408	60	4260
2026-01-27 13:12:10.39	232.89	21.40	-44.7	-45.9	25.7	6.06e-01	0	42	0	390070272	60	4272
2026-01-27 13:12:11.39	233.14	21.49	-44.9	-46.1	25.5	6.06e-01	0	42	0	392167424	60	4391
2026-01-27 13:12:12.40	233.40	21.58	-44.9	-46.1	25.6	6.05e-01	0	43	0	394264576	60	4359
2026-01-27 13:12:13.41	233.66	21.68	-44.8	-46.0	25.6	6.07e-01	0	42	0	395837440	60	4311
2026-01-27 13:12:14.42	233.92	21.77	-44.9	-46.1	25.5	6.06e-01	0	43	0	397934592	60	4357
2026-01-27 13:12:15.43	234.18	21.86	-44.8	-46.0	25.6	6.04e-01	0	42	0	400031744	60	4326
2026-01-27 13:12:16.43	234.44	21.94	-44.8	-46.0	25.7	6.04e-01	0	43	0	401604608	60	4313
2026-01-27 13:12:17.44	234.70	22.03	-45.3	-56.1	3.8	7.44e-01	0	42	104	402128896	61	13029
2026-01-27 13:12:18.45	234.97	22.12	-45.3	-56.1	3.8	7.48e-01	0	42	104	402128896	61	13108
2026-01-27 13:12:19.46	235.24	22.21	-45.8	-56.7	3.8	7.49e-01	0	43	104	402128896	62	13226
2026-01-27 13:12:20.46	235.50	22.30	-45.3	-56.1	3.8	7.46e-01	0	43	104	402128896	62	12375
2026-01-27 13:12:21.47	235.77	22.39	-47.5	-58.7	3.8	7.47e-01	0	43	104	402128896	67	12469
2026-01-27 13:12:22.48	236.05	22.48	-45.2	-56.1	3.8	7.46e-01	0	43	104	402128896	62	12243
2026-01-27 13:12:23.49	236.32	22.57	-47.4	-58.7	3.8	7.41e-01	0	43	104	402128896	67	12415
2026-01-27 13:12:24.50	236.59	22.65	-45.4	-56.1	3.8	7.41e-01	0	43	104	402128896	62	12327
2026-01-27 13:12:25.50	236.87	22.74	-45.3	-56.0	3.9	7.40e-01	0	43	104	402128896	62	12218
2026-01-27 13:12:26.51	237.15	22.83	-46.4	-57.4	3.7	7.44e-01	0	42	104	402128896	63	13417
2026-01-27 13:12:27.51	237.42	22.91	-45.3	-56.1	3.8	7.45e-01	0	43	104	402128896	62	12262
2026-01-27 13:12:28.52	237.71	23.00	-46.8	-57.6	3.8	7.45e-01	0	43	104	402128896	63	13818
2026-01-27 13:12:29.53	237.99	23.08	-46.9	-58.0	3.9	7.45e-01	0	43	104	402128896	66	12104
2026-01-27 13:12:30.53	238.27	23.17	-45.8	-56.3	3.9	7.36e-01	0	43	104	402128896	62	12552
2026-01-27 13:12:31.54	238.56	23.25	-46.4	-57.4	3.8	7.28e-01	0	43	104	402128896	65	11966
2026-01-27 13:12:32.55	238.84	23.34	-45.4	-56.0	4.2	7.25e-01	0	43	104	402128896	62	12209
2026-01-27 13:12:33.55	239.13	23.42	-45.4	-56.1	3.9	7.27e-01	0	43	104	402128896	62	12266
2026-01-27 13:12:34.56	239.42	23.51	-47.6	-58.5	3.8	7.45e-01	0	43	104	402128896	65	13698
2026-01-27 13:12:35.57	239.72	23.59	-45.6	-56.3	4.0	7.40e-01	0	43	104	402128896	63	11860
2026-01-27 13:12:36.58	240.01	23.67	-46.9	-57.7	3.7	7.44e-01	0	43	104	402128896	64	13198
2026-01-27 13:12:37.59	240.31	23.76	-47.7	-58.8	3.8	7.44e-01	0	43	104	402128896	67	12522
2026-01-27 13:12:38.59	240.60	23.84	-45.9	-56.7	3.8	7.47e-01	0	42	104	402128896	62	13214
2026-01-27 13:12:39.60	240.90	23.92	-46.2	-57.1	3.9	7.45e-01	0	43	104	402128896	64	12326
2026-01-27 13:12:40.61	241.20	24.00	-45.4	-56.2	3.8	7.45e-01	0	43	104	402128896	62	12438
2026-01-27 13:12:41.61	241.50	24.08	-45.3	-56.1	3.8	7.45e-01	0	43	104	402128896	62	12238
2026-01-27 13:12:42.62	241.80	24.16	-46.9	-57.9	3.8	7.47e-01	0	43	104	402128896	64	13502
2026-01-27 13:12:43.63	242.11	24.24	-45.5	-56.3	3.8	7.45e-01	0	43	104	402128896	62	12644
2026-01-27 13:12:44.64	242.42	24.32	-49.3	-60.7	3.8	7.42e-01	0	42	104	402128896	68	14755
2026-01-27 13:12:45.64	242.72	24.39	-47.6	-58.6	3.8	7.45e-01	0	43	104	402128896	67	12314
2026-01-27 13:12:46.65	243.03	24.47	-47.8	-58.7	3.8	7.46e-01	0	43	104	402128896	65	13966
2026-01-27 13:12:47.66	243.34	24.55	-46.2	-57.2	3.9	7.47e-01	0	43	104	402128896	64	12430
2026-01-27 13:12:48.66	243.65	24.63	-45.4	-56.3	3.8	7.44e-01	0	42	104	402128896	62	12591
2026-01-27 13:12:49.67	243.97	24.70	-45.3	-56.1	3.8	7.45e-01	0	43	104	402128896	62	12269
2026-01-27 13:12:50.67	244.28	24.78	-46.8	-57.8	3.9	7.46e-01	0	43	104	402128896	64	13276
2026-01-27 13:12:51.68	244.60	24.85	-45.4	-56.2	3.8	7.46e-01	0	43	104	402128896	62	12466
2026-01-27 13:12:52.69	244.92	24.92	-49.5	-61.1	3.8	7.46e-01	0	43	104	402128896	69	14629
2026-01-27 13:12:53.69	245.23	25.00	-47.8	-58.9	3.8	7.45e-01	0	43	104	402128896	67	12746
2026-01-27 13:12:54.70	245.56	25.07	-49.8	-61.1	3.8	7.48e-01	0	43	104	402128896	69	14703
2026-01-27 13:12:55.71	245.88	25.14	-45.9	-56.8	3.9	7.45e-01	0	43	104	402128896	63	12624
2026-01-27 13:12:56.71	246.20	25.21	-45.3	-56.0	3.8	7.45e-01	0	43	104	402128896	62	12131
2026-01-27 13:12:57.72	246.53	25.28	-45.3	-56.2	3.8	7.42e-01	0	43	104	402128896	62	12509
2026-01-27 13:12:58.73	246.86	25.35	-49.1	-60.5	3.8	7.45e-01	0	43	104	402128896	68	14391
2026-01-27 13:12:59.73	247.18	25.42	-45.5	-56.3	3.8	7.44e-01	0	42	104	402128896	62	12641
2026-01-27 13:13:00.74	247.52	25.49	-51.6	-64.0	3.8	7.47e-01	0	43	104	402128896	73	16231
2026-01-27 13:13:01.75	247.85	25.56	-48.2	-59.4	3.8	7.44e-01	0	43	104	402128896	68	12763
2026-01-27 13:13:02.76	248.18	25.62	-49.1	-60.4	3.8	7.42e-01	0	43	104	402128896	68	14316
2026-01-27 13:13:03.77	248.52	25.69	-45.8	-56.7	3.9	7.46e-01	0	43	104	402128896	63	12420
2026-01-27 13:13:04.77	248.85	25.75	-45.5	-56.3	3.8	7.45e-01	0	43	104	402128896	62	12619
2026-01-27 13:13:05.78	249.19	25.82	-45.5	-56.3	3.8	7.46e-01	0	43	104	402128896	62	12627
2026-01-27 13:13:06.79	249.53	25.88	-50.0	-61.7	3.8	7.46e-01	0	43	104	402128896	70	14847
2026-01-27 13:13:07.80	249.87	25.94	-45.6	-56.4	3.8	7.44e-01	0	43	104	402128896	62	12748
2026-01-27 13:13:08.80	250.21	26.00	-52.9	-66.4	3.8	7.47e-01	0	43	104	402128896	76	17937
2026-01-27 13:13:09.80	250.55	26.06	-48.8	-60.2	3.8	7.46e-01	0	43	104	402128896	68	13984
2026-01-27 13:13:10.81	250.90	26.12	-50.7	-63.0	3.8	7.45e-01	0	43	104	402128896	72	15246
2026-01-27 13:13:11.82	251.24	26.18	-45.7	-56.4	3.8	7.45e-01	0	43	104	402128896	63	12058
2026-01-27 13:13:12.82	251.59	26.24	-45.4	-56.3	3.8	7.45e-01	0	43	104	402128896	62	12546
2026-01-27 13:13:13.83	251.93	26.30	-45.1	-55.9	3.8	7.49e-01	0	43	104	402128896	62	11999
2026-01-27 13:13:14.84	252.28	26.35	-47.7	-58.8	3.8	7.45e-01	0	43	104	402128896	65	14143
2026-01-27 13:13:15.85	252.64	26.41	-45.7	-56.6	3.8	7.49e-01	0	43	104	402128896	62	13061
2026-01-27 13:13:16.86	252.99	26.46	-53.1	-66.9	3.8	7.47e-01	0	43	104	402128896	76	19064
2026-01-27 13:13:17.86	253.34	26.51	-48.7	-59.9	3.8	7.47e-01	0	43	104	402128896	68	13487
2026-01-27 13:13:18.86	253.69	26.57	-50.6	-62.5	3.8	7.44e-01	0	43	104	402128896	71	15330
2026-01-27 13:13:19.86	254.04	26.62	-45.7	-56.6	3.9	7.46e-01	0	43	104	402128896	63	12345
2026-01-27 13:13:20.87	254.40	26.67	-45.3	-56.0	3.8	7.49e-01	0	43	104	402128896	62	12111
2026-01-27 13:13:21.88	254.76	26.72	-45.2	-56.0	3.8	7.42e-01	0	43	104	402128896	62	12145
2026-01-27 13:13:22.88	255.12	26.76	-48.7	-60.1	3.9	7.46e-01	0	43	104	402128896	67	14605
2026-01-27 13:13:23.88	255.47	26.81	-45.3	-56.2	3.8	7.43e-01	0	43	104	402128896	62	12408
2026-01-27 13:13:24.89	255.83	26.86	-53.3	-67.1	3.8	7.50e-01	0	43	104	402128896	76	19468
2026-01-27 13:13:25.89	256.19	26.90	-48.9	-60.2	3.8	7.43e-01	0	43	104	402128896	69	13255
2026-01-27 13:13:26.90	256.56	26.94	-51.0	-63.0	3.8	7.45e-01	0	43	104	402128896	72	15249
2026-01-27 13:13:27.91	256.92	26.99	-45.6	-56.4	3.8	7.46e-01	0	43	104	402128896	63	12066
2026-01-27 13:13:28.92	257.29	27.03	-45.6	-56.4	3.8	7.44e-01	0	43	104	402128896	63	12070
2026-01-27 13:13:29.93	257.65	27.07	-45.3	-56.1	3.8	7.46e-01	0	42	104	402128896	62	12361
2026-01-27 13:13:30.93	258.02	27.11	-48.1	-59.3	3.8	7.48e-01	0	43	104	402128896	66	14101
2026-01-27 13:13:31.94	258.39	27.14	-45.6	-56.4	3.8	7.44e-01	0	43	104	402128896	62	12735
2026-01-27 13:13:32.95	258.76	27.18	-54.0	-68.8	3.8	7.45e-01	0	43	104	402128896	78	21170
2026-01-27 13:13:33.96	259.13	27.22	-49.2	-60.6	3.8	7.43e-01	0	43	104	402128896	69	13810
2026-01-27 13:13:34.96	259.49	27.25	-50.8	-62.8	3.8	7.48e-01	0	43	104	402128896	72	14954
2026-01-27 13:13:35.96	259.86	27.28	-45.4	-56.2	3.8	7.44e-01	0	43	104	402128896	62	12458
2026-01-27 13:13:36.97	260.24	27.32	-45.3	-56.1	3.8	7.45e-01	0	43	104	402128896	62	12333
2026-01-27 13:13:37.98	260.61	27.35	-45.1	-55.9	3.8	7.47e-01	0	43	104	402128896	62	12068
2026-01-27 13:13:38.98	260.98	27.38	-49.1	-60.5	3.8	7.44e-01	0	43	104	402128896	68	14464
2026-01-27 13:13:39.99	261.35	27.40	-45.4	-56.2	3.8	7.45e-01	0	43	104	402128896	62	12416
2026-01-27 13:13:40.99	261.73	27.43	-54.0	-69.0	3.8	7.47e-01	0	43	104	402128896	78	21514
2026-01-27 13:13:42.00	262.10	27.46	-49.2	-60.7	3.8	7.47e-01	0	43	104	402128896	69	13919
2026-01-27 13:13:43.01	262.48	27.48	-50.8	-62.9	3.8	7.47e-01	0	43	104	402128896	72	15107
2026-01-27 13:13:44.01	262.85	27.51	-45.3	-56.0	3.8	7.48e-01	0	43	104	402128896	62	12114
2026-01-27 13:13:45.02	263.23	27.53	-45.4	-56.3	3.9	7.43e-01	0	43	104	402128896	62	12638
2026-01-27 13:13:46.02	263.60	27.55	-45.2	-56.0	3.8	7.46e-01	0	43	104	402128896	62	12149
2026-01-27 13:13:47.03	263.98	27.57	-49.0	-60.4	3.9	7.43e-01	0	43	104	402128896	69	13425
2026-01-27 13:13:48.03	264.36	27.59	-45.5	-56.3	3.8	7.47e-01	0	43	104	402128896	61	13308
2026-01-27 13:13:49.04	264.74	27.60	-54.0	-69.0	3.9	7.41e-01	0	43	104	402128896	78	21731
2026-01-27 13:13:50.05	265.12	27.62	-49.3	-60.7	3.8	7.42e-01	0	43	104	402128896	70	13170
2026-01-27 13:13:51.05	265.49	27.63	-50.6	-62.3	3.8	7.43e-01	0	42	104	402128896	71	15046
2026-01-27 13:13:52.06	265.87	27.65	-45.3	-56.1	3.8	7.45e-01	0	43	104	402128896	62	12358
2026-01-27 13:13:53.07	266.26	27.66	-45.0	-55.8	3.8	7.48e-01	0	43	104	402128896	62	11887
2026-01-27 13:13:54.07	266.63	27.67	-44.9	-55.6	3.8	7.44e-01	0	43	104	402128896	61	12318
2026-01-27 13:13:55.08	267.01	27.68	-49.2	-60.7	3.9	7.45e-01	0	43	104	402128896	69	14046
2026-01-27 13:13:56.09	267.40	27.69	-45.4	-56.2	3.8	7.43e-01	0	43	104	402128896	61	13192
2026-01-27 13:13:57.10	267.78	27.69	-53.2	-67.0	3.9	7.41e-01	0	43	104	402128896	78	17120
2026-01-27 13:13:58.10	268.16	27.70	-48.4	-59.3	3.9	7.40e-01	0	43	104	402128896	68	12565
2026-01-27 13:13:59.11	268.54	27.70	-49.3	-60.7	3.9	7.47e-01	0	43	104	402128896	70	13232
2026-01-27 13:14:00.12	268.92	27.71	-44.9	-55.8	3.8	7.42e-01	0	43	104	402128896	61	12633
2026-01-27 13:14:01.13	269.30	27.71	-44.9	-55.6	3.8	7.46e-01	0	43	104	402128896	61	12286
2026-01-27 13:14:02.14	269.69	27.71	-44.9	-55.6	3.8	7.42e-01	0	43	104	402128896	61	12337
2026-01-27 13:14:03.14	270.06	27.71	-48.5	-59.9	3.9	7.44e-01	0	43	104	402128896	69	12730
2026-01-27 13:14:04.15	270.45	27.70	-45.0	-55.7	3.8	7.46e-01	0	43	104	402128896	61	12499
2026-01-27 13:14:05.16	270.83	27.70	-53.3	-67.1	3.9	7.45e-01	0	43	104	402128896	78	17339
2026-01-27 13:14:06.16	271.21	27.70	-48.5	-59.8	3.9	7.42e-01	0	43	104	402128896	69	12569
2026-01-27 13:14:07.17	271.59	27.69	-49.0	-60.3	3.9	7.42e-01	0	43	104	402128896	69	13376
2026-01-27 13:14:08.18	271.97	27.68	-44.8	-55.5	3.8	7.45e-01	0	43	104	402128896	61	12209
2026-01-27 13:14:09.18	272.35	27.67	-44.8	-55.5	3.8	7.44e-01	0	43	104	402128896	61	12105
2026-01-27 13:14:10.19	272.73	27.66	-44.8	-55.6	3.8	7.46e-01	0	43	104	402128896	61	12287
2026-01-27 13:14:11.20	273.11	27.65	-46.0	-56.8	3.8	7.46e-01	0	43	104	402128896	63	12580
2026-01-27 13:14:12.21	273.49	27.64	-44.8	-55.5	3.8	7.44e-01	0	43	104	402128896	61	12202
2026-01-27 13:14:13.21	273.87	27.62	-52.4	-64.9	3.9	7.41e-01	0	43	104	402128896	76	15138
2026-01-27 13:14:14.22	274.25	27.61	-47.4	-58.6	3.8	7.43e-01	0	43	104	402128896	67	12248
2026-01-27 13:14:15.23	274.63	27.59	-48.5	-59.7	3.9	7.41e-01	0	43	104	402128896	69	12469
2026-01-27 13:14:16.23	275.00	27.57	-45.2	-55.8	3.8	7.43e-01	0	43	104	402128896	62	11934
2026-01-27 13:14:17.24	275.38	27.56	-44.9	-55.7	3.8	7.46e-01	0	43	104	402128896	61	12455
2026-01-27 13:14:18.24	275.75	27.54	-44.9	-55.6	3.8	7.47e-01	0	43	104	402128896	61	12361
2026-01-27 13:14:19.24	276.13	27.51	-47.0	-58.0	3.8	7.45e-01	0	43	104	402128896	66	12172
2026-01-27 13:14:20.25	276.50	27.49	-44.8	-55.6	3.8	7.42e-01	0	43	104	402128896	61	12318
2026-01-27 13:14:21.26	276.88	27.47	-52.5	-65.5	3.9	7.44e-01	0	43	104	402128896	77	15337
2026-01-27 13:14:22.26	277.25	27.44	-47.6	-58.7	3.8	7.47e-01	0	43	104	402128896	67	12445
2026-01-27 13:14:23.26	277.62	27.41	-48.3	-59.6	3.9	7.43e-01	0	43	104	402128896	68	13001
2026-01-27 13:14:24.26	278.00	27.39	-45.1	-55.9	3.8	7.44e-01	0	43	104	402128896	62	11975
2026-01-27 13:14:25.27	278.37	27.36	-45.2	-56.1	3.8	7.47e-01	0	43	104	402128896	62	12242
2026-01-27 13:14:26.28	278.74	27.33	-44.9	-55.6	3.8	7.47e-01	0	43	104	402128896	61	12302
2026-01-27 13:14:27.28	279.11	27.30	-46.0	-56.8	3.8	7.42e-01	0	43	104	402128896	64	11903
2026-01-27 13:14:28.29	279.48	27.26	-44.8	-55.5	3.8	7.46e-01	0	43	104	402128896	61	12232
2026-01-27 13:14:29.30	279.85	27.23	-51.4	-63.7	3.8	7.39e-01	0	43	104	402128896	75	14008
2026-01-27 13:14:30.31	280.22	27.19	-46.2	-57.1	3.8	7.42e-01	0	43	104	402128896	64	12339
2026-01-27 13:14:31.31	280.59	27.16	-47.5	-58.6	3.8	7.46e-01	0	43	104	402128896	67	12295
2026-01-27 13:14:32.31	280.95	27.12	-44.9	-55.6	3.8	7.45e-01	0	43	104	402128896	61	12347
2026-01-27 13:14:33.31	281.32	27.08	-44.8	-55.5	3.8	7.42e-01	0	43	104	402128896	61	12212
2026-01-27 13:14:34.32	281.68	27.04	-44.7	-55.4	3.8	7.47e-01	0	43	104	402128896	61	11984
2026-01-27 13:14:35.33	282.05	27.00	-45.5	-56.3	3.9	7.45e-01	0	43	104	402128896	62	12534
2026-01-27 13:14:36.34	282.41	26.96	-45.0	-55.8	3.8	7.46e-01	0	43	104	402128896	61	12530
2026-01-27 13:14:37.34	282.77	26.92	-51.6	-64.0	3.9	7.46e-01	0	43	104	402128896	75	14529
2026-01-27 13:14:38.35	283.14	26.87	-46.4	-57.4	3.8	7.45e-01	0	43	104	402128896	65	12094
2026-01-27 13:14:39.36	283.50	26.83	-47.2	-58.2	3.9	7.47e-01	0	43	104	402128896	66	12386
2026-01-27 13:14:40.37	283.86	26.78	-44.9	-55.7	3.9	7.48e-01	0	43	104	402128896	61	12405
2026-01-27 13:14:41.37	284.21	26.74	-44.9	-55.7	3.8	7.45e-01	0	43	104	402128896	61	12378
2026-01-27 13:14:42.38	284.57	26.69	-44.9	-55.6	3.8	7.44e-01	0	43	104	402128896	61	12325
2026-01-27 13:14:43.39	284.93	26.64	-45.6	-56.4	3.9	7.43e-01	0	43	104	402128896	63	12018
2026-01-27 13:14:44.39	285.28	26.59	-45.1	-55.9	3.8	7.43e-01	0	43	104	402128896	61	12669
2026-01-27 13:14:45.39	285.63	26.54	-51.6	-64.1	3.9	7.46e-01	0	43	104	402128896	75	14545
2026-01-27 13:14:46.40	285.99	26.48	-45.2	-55.7	3.8	7.45e-01	0	43	104	402128896	62	11801
2026-01-27 13:14:47.41	286.34	26.43	-46.3	-57.2	3.8	7.47e-01	0	43	104	402128896	64	12414
2026-01-27 13:14:48.41	286.69	26.38	-44.9	-55.8	3.8	7.40e-01	0	43	104	402128896	61	12602
2026-01-27 13:14:49.42	287.04	26.32	-44.9	-55.6	3.8	7.45e-01	0	43	104	402128896	61	12298
2026-01-27 13:14:50.42	287.38	26.26	-45.4	-56.1	3.9	7.46e-01	0	43	104	402128896	61	13084
2026-01-27 13:14:51.43	287.73	26.21	-45.6	-56.5	3.9	7.45e-01	0	43	104	402128896	63	12142
2026-01-27 13:14:52.44	288.08	26.15	-46.3	-57.0	3.8	7.43e-01	0	43	104	402128896	62	13644
2026-01-27 13:14:53.44	288.42	26.09	-51.8	-64.2	3.9	7.44e-01	0	43	104	402128896	75	14813
2026-01-27 13:14:54.45	288.76	26.03	-45.8	-56.6	3.9	7.43e-01	0	43	104	402128896	63	12260
2026-01-27 13:14:55.46	289.10	25.97	-46.4	-57.1	3.9	7.48e-01	0	43	104	402128896	64	12336
2026-01-27 13:14:56.47	289.44	25.91	-45.2	-56.0	3.9	7.45e-01	0	43	104	402128896	62	12104
2026-01-27 13:14:57.48	289.78	25.84	-45.2	-55.9	3.8	7.46e-01	0	43	104	402128896	62	12039
2026-01-27 13:14:58.49	290.12	25.78	-45.8	-56.7	3.8	7.43e-01	0	43	104	402128896	62	13196
2026-01-27 13:14:59.49	290.45	25.72	-45.6	-56.5	3.8	7.43e-01	0	43	104	402128896	63	12125
2026-01-27 13:15:00.50	290.79	25.65	-48.6	-59.7	3.8	7.50e-01	0	43	104	402128896	67	14006
2026-01-27 13:15:01.51	291.12	25.59	-51.0	-62.9	3.8	7.44e-01	0	43	104	402128896	74	13476
2026-01-27 13:15:02.52	291.45	25.52	-44.9	-55.5	3.9	7.47e-01	0	43	104	402128896	61	12184
2026-01-27 13:15:03.52	291.78	25.45	-45.6	-56.5	3.8	7.45e-01	0	43	104	402128896	63	12104
2026-01-27 13:15:04.53	292.11	25.38	-45.0	-55.7	3.8	7.44e-01	0	43	104	402128896	61	12491
2026-01-27 13:15:05.54	292.44	25.31	-45.0	-55.7	3.8	7.47e-01	0	43	104	402128896	61	12389
2026-01-27 13:15:06.54	292.76	25.25	-46.7	-57.6	3.8	7.45e-01	0	43	104	402128896	63	13737
2026-01-27 13:15:07.55	293.09	25.17	-45.7	-56.6	3.8	7.42e-01	0	43	104	402128896	63	12252
2026-01-27 13:15:08.56	293.41	25.10	-48.5	-59.7	3.8	7.45e-01	0	43	104	402128896	67	14036
2026-01-27 13:15:09.56	293.73	25.03	-51.4	-63.5	3.8	7.48e-01	0	42	104	402128896	74	14481
2026-01-27 13:15:10.57	294.05	24.96	-45.0	-55.6	3.8	7.42e-01	0	43	104	402128896	62	11671
2026-01-27 13:15:11.58	294.37	24.89	-45.5	-56.3	3.8	7.39e-01	0	43	104	402128896	63	11921
2026-01-27 13:15:12.59	294.69	24.81	-44.9	-55.6	3.9	7.42e-01	0	43	104	402128896	61	12335
2026-01-27 13:15:13.59	295.00	24.74	-45.0	-55.6	3.8	7.44e-01	0	43	104	402128896	61	12357
2026-01-27 13:15:14.60	295.31	24.66	-46.3	-57.3	3.8	7.46e-01	0	43	104	402128896	63	13295
2026-01-27 13:15:15.61	295.63	24.59	-45.6	-56.4	3.8	7.44e-01	0	43	104	402128896	63	11983
2026-01-27 13:15:16.61	295.93	24.51	-51.3	-63.2	3.8	7.46e-01	0	43	104	402128896	72	15730
2026-01-27 13:15:17.62	296.24	24.43	-51.9	-64.2	3.8	7.44e-01	0	43	104	402128896	75	14722
2026-01-27 13:15:18.63	296.55	24.36	-45.3	-56.0	3.8	7.45e-01	0	43	104	402128896	62	12210
2026-01-27 13:15:19.63	296.86	24.28	-45.2	-55.9	3.8	7.42e-01	0	43	104	402128896	62	12085
2026-01-27 13:15:20.64	297.16	24.20	-44.9	-55.6	3.8	7.43e-01	0	43	104	402128896	61	12310
2026-01-27 13:15:21.65	297.46	24.12	-45.0	-55.6	3.9	7.43e-01	0	43	104	402128896	61	12308
2026-01-27 13:15:22.66	297.77	24.04	-46.3	-57.2	3.8	7.43e-01	0	43	104	402128896	63	13193
2026-01-27 13:15:23.66	298.06	23.96	-45.8	-56.7	3.9	7.43e-01	0	43	104	402128896	63	12465
2026-01-27 13:15:24.67	298.36	23.88	-51.1	-63.1	3.8	7.46e-01	0	43	104	402128896	72	15471
2026-01-27 13:15:25.68	298.66	23.80	-53.0	-66.2	3.8	7.43e-01	0	43	104	402128896	76	17535
2026-01-27 13:15:26.68	298.95	23.72	-45.2	-55.9	3.9	7.46e-01	0	43	104	402128896	62	12020
2026-01-27 13:15:27.69	299.24	23.64	-45.1	-55.7	3.9	7.44e-01	0	43	104	402128896	62	11806
2026-01-27 13:15:28.69	299.53	23.55	-45.1	-55.8	3.9	7.44e-01	0	43	104	402128896	62	11857
2026-01-27 13:15:29.70	299.82	23.47	-45.0	-55.7	3.8	7.45e-01	0	43	104	402128896	61	12519
2026-01-27 13:15:30.71	300.11	23.39	-47.4	-58.5	3.8	7.42e-01	0	43	104	402128896	65	13715
2026-01-27 13:15:31.72	300.40	23.30	-45.3	-56.0	3.8	7.45e-01	0	43	104	402128896	62	12146
2026-01-27 13:15:32.73	300.69	23.22	-52.9	-66.2	3.8	7.46e-01	0	43	104	402128896	76	17492
2026-01-27 13:15:33.73	300.97	23.13	-52.9	-66.0	3.8	7.44e-01	0	43	104	402128896	76	17210
2026-01-27 13:15:34.74	301.25	23.05	-45.8	-56.8	3.8	7.47e-01	0	43	104	402128896	62	13351
2026-01-27 13:15:35.75	301.53	22.96	-44.7	-55.4	3.9	7.47e-01	0	43	104	402128896	61	11990
2026-01-27 13:15:36.75	301.81	22.88	-44.8	-55.5	3.8	7.44e-01	0	43	104	402128896	61	12188
2026-01-27 13:15:37.76	302.09	22.79	-44.8	-55.5	3.8	7.45e-01	0	43	104	402128896	61	12187
2026-01-27 13:15:38.76	302.36	22.71	-45.8	-56.8	3.8	7.41e-01	0	43	104	402128896	62	13277
2026-01-27 13:15:39.77	302.64	22.62	-45.4	-56.1	3.8	7.45e-01	0	43	104	402128896	61	13109
2026-01-27 13:15:40.78	302.91	22.53	-52.6	-65.5	3.8	7.45e-01	0	43	104	402128896	75	17193
2026-01-27 13:15:41.79	303.18	22.44	-53.8	-68.1	3.8	7.45e-01	0	43	104	402128896	78	19563
2026-01-27 13:15:42.79	303.45	22.36	-45.7	-56.4	3.8	7.46e-01	0	43	104	402128896	62	12738
2026-01-27 13:15:43.79	303.72	22.27	-45.3	-55.9	3.8	7.43e-01	0	43	104	402128896	62	12071
2026-01-27 13:15:44.80	303.98	22.18	-45.1	-55.7	3.8	7.46e-01	0	43	104	402128896	62	11810
2026-01-27 13:15:45.80	304.25	22.09	-44.9	-55.6	3.8	7.47e-01	0	43	104	402128896	61	12318
2026-01-27 13:15:46.81	304.51	22.00	-46.9	-57.9	3.8	7.44e-01	0	43	104	402128896	64	13443
2026-01-27 13:15:47.82	304.77	21.92	-47.1	-58.1	3.8	7.43e-01	0	43	104	402128896	64	13836
2026-01-27 13:15:48.82	305.03	21.83	-54.5	-70.2	3.8	7.44e-01	0	43	104	402128896	79	23454
2026-01-27 13:15:49.83	305.29	21.74	-52.1	-64.8	3.8	7.45e-01	0	43	104	402128896	75	15931
2026-01-27 13:15:50.84	305.55	21.65	-45.3	-56.0	3.8	7.46e-01	0	43	104	402128896	61	12877
2026-01-27 13:15:51.85	305.80	21.56	-44.7	-55.4	3.8	7.42e-01	0	43	104	402128896	61	12044
2026-01-27 13:15:52.85	306.06	21.47	-44.6	-55.4	3.8	7.47e-01	0	43	104	402128896	61	11973
2026-01-27 13:15:53.86	306.31	21.38	-44.7	-55.4	3.8	7.44e-01	0	43	104	402128896	61	12052
2026-01-27 13:15:54.87	306.56	21.29	-46.7	-57.8	3.8	7.45e-01	0	43	104	402128896	64	13285
2026-01-27 13:15:55.87	306.81	21.20	-46.8	-57.6	3.9	7.45e-01	0	43	104	402128896	64	13101
2026-01-27 13:15:56.88	307.06	21.11	-54.5	-70.3	3.8	7.48e-01	0	43	104	402128896	79	23792
2026-01-27 13:15:57.89	307.30	21.01	-51.8	-64.4	3.8	7.46e-01	0	43	104	402128896	75	15126
2026-01-27 13:15:58.90	307.55	20.92	-45.6	-56.3	3.8	7.45e-01	0	43	104	402128896	61	13406
2026-01-27 13:15:59.91	307.79	20.83	-44.7	-55.5	3.8	7.42e-01	0	43	104	402128896	61	12161
2026-01-27 13:16:00.91	308.03	20.74	-44.8	-55.5	3.8	7.43e-01	0	43	104	402128896	61	12227
2026-01-27 13:16:01.92	308.27	20.65	-44.8	-55.5	3.8	7.42e-01	0	43	104	402128896	61	12169
2026-01-27 13:16:02.93	308.51	20.56	-46.2	-57.0	3.8	7.48e-01	0	43	104	402128896	62	13588
2026-01-27 13:16:03.93	308.75	20.47	-46.2	-56.9	3.8	7.48e-01	0	43	104	402128896	62	13564
2026-01-27 13:16:04.94	308.99	20.37	-53.3	-67.3	3.8	7.44e-01	0	43	104	402128896	77	18841
2026-01-27 13:16:05.94	309.22	20.28	-54.5	-70.3	3.8	7.47e-01	0	43	104	402128896	79	23830
2026-01-27 13:16:06.95	309.45	20.19	-46.2	-57.4	3.8	7.46e-01	0	43	104	402128896	63	13503
2026-01-27 13:16:07.96	309.69	20.10	-44.7	-55.4	3.8	7.41e-01	0	43	104	402128896	61	12084
2026-01-27 13:16:08.97	309.92	20.01	-44.6	-55.4	3.8	7.41e-01	0	43	104	402128896	61	12037
2026-01-27 13:16:09.97	310.14	19.92	-44.6	-55.4	3.8	7.42e-01	0	43	104	402128896	61	12001
2026-01-27 13:16:10.98	310.37	19.82	-46.6	-57.6	3.8	7.42e-01	0	43	104	402128896	64	13064
2026-01-27 13:16:11.99	310.60	19.73	-46.3	-57.2	3.8	7.41e-01	0	43	104	402128896	64	12463
2026-01-27 13:16:13.00	310.82	19.64	-54.7	-71.6	3.8	7.45e-01	0	43	104	402128896	80	26094
2026-01-27 13:16:14.00	311.05	19.55	-52.4	-65.2	3.8	7.43e-01	0	43	104	402128896	76	15638
2026-01-27 13:16:15.01	311.27	19.45	-46.4	-57.3	3.8	7.43e-01	0	43	104	402128896	63	13342
2026-01-27 13:16:16.01	311.49	19.36	-45.5	-56.3	3.8	7.44e-01	0	43	104	402128896	63	11924
2026-01-27 13:16:17.02	311.71	19.27	-45.0	-55.8	3.8	7.44e-01	0	43	104	402128896	62	11901
2026-01-27 13:16:18.03	311.93	19.18	-44.6	-55.5	3.8	7.48e-01	0	43	104	402128896	61	12122
2026-01-27 13:16:19.04	312.14	19.08	-45.0	-55.8	3.8	7.46e-01	0	43	104	402128896	61	12624
2026-01-27 13:16:20.05	312.36	18.99	-46.5	-57.5	3.8	7.44e-01	0	43	104	402128896	63	13573
2026-01-27 13:16:21.05	312.57	18.90	-52.8	-66.3	3.8	7.47e-01	0	43	104	402128896	76	17791
2026-01-27 13:16:22.06	312.78	18.81	-54.7	-71.8	3.8	7.44e-01	0	43	104	402128896	80	26477
2026-01-27 13:16:23.07	313.00	18.72	-46.0	-56.8	3.8	7.47e-01	0	43	104	402128896	62	13372
2026-01-27 13:16:24.07	313.20	18.62	-44.8	-55.5	3.8	7.44e-01	0	43	104	402128896	61	12150
2026-01-27 13:16:25.08	313.41	18.53	-44.8	-55.6	3.8	7.45e-01	0	43	104	402128896	61	12360
2026-01-27 13:16:26.09	313.62	18.44	-44.6	-55.4	3.8	7.44e-01	0	43	104	402128896	61	11961
2026-01-27 13:16:27.09	313.82	18.35	-45.7	-56.4	3.9	7.43e-01	0	43	104	402128896	62	12793
2026-01-27 13:16:28.10	314.03	18.25	-45.2	-55.9	3.9	7.43e-01	0	43	104	402128896	62	12070
2026-01-27 13:16:29.11	314.23	18.16	-54.5	-71.4	3.8	7.44e-01	0	43	104	402128896	80	25349
2026-01-27 13:16:30.12	314.44	18.07	-49.4	-61.0	3.9	7.43e-01	0	43	104	402128896	71	12949
2026-01-27 13:16:31.13	314.64	17.98	-45.8	-56.7	3.8	7.43e-01	0	43	104	402128896	62	13187
2026-01-27 13:16:32.13	314.84	17.89	-44.7	-55.4	3.9	7.44e-01	0	43	104	402128896	61	12051
2026-01-27 13:16:33.14	315.03	17.79	-44.6	-55.4	3.8	7.47e-01	0	43	104	402128896	61	11985
2026-01-27 13:16:34.15	315.23	17.70	-44.4	-55.2	3.8	7.44e-01	0	43	104	402128896	60	12458
2026-01-27 13:16:35.16	315.43	17.61	-46.6	-57.5	3.8	7.45e-01	0	43	104	402128896	63	13695
2026-01-27 13:16:36.16	315.62	17.52	-46.4	-57.3	3.9	7.41e-01	0	43	104	402128896	64	12654
2026-01-27 13:16:37.17	315.82	17.43	-52.5	-65.8	3.9	7.45e-01	0	43	104	402128896	76	16702
2026-01-27 13:16:38.18	316.01	17.34	-54.2	-70.3	3.9	7.43e-01	0	43	104	402128896	80	22379
2026-01-27 13:16:39.19	316.20	17.24	-45.5	-56.3	3.8	7.45e-01	0	43	104	402128896	61	13305
2026-01-27 13:16:40.19	316.39	17.15	-44.8	-55.5	3.8	7.46e-01	0	43	104	402128896	61	12149
2026-01-27 13:16:41.20	316.58	17.06	-44.6	-55.3	3.9	7.42e-01	0	43	104	402128896	61	11894
2026-01-27 13:16:42.21	316.77	16.97	-44.4	-55.1	3.8	7.49e-01	0	43	104	402128896	60	12334
2026-01-27 13:16:43.22	316.95	16.88	-44.5	-55.3	3.8	7.45e-01	0	43	104	402128896	60	12567
2026-01-27 13:16:44.22	317.14	16.79	-44.7	-55.5	3.9	7.43e-01	0	43	104	402128896	61	12130
2026-01-27 13:16:45.23	317.32	16.70	-54.2	-70.2	3.9	7.41e-01	0	43	104	402128896	80	22173
2026-01-27 13:16:46.24	317.50	16.61	-47.4	-58.8	3.8	7.42e-01	0	43	104	402128896	67	12639
2026-01-27 13:16:47.25	317.69	16.52	-45.9	-56.9	3.8	7.45e-01	0	43	104	402128896	62	13522
2026-01-27 13:16:48.25	317.86	16.43	-45.2	-56.0	3.8	7.45e-01	0	43	104	402128896	62	12219
2026-01-27 13:16:49.25	318.04	16.34	-45.2	-56.0	3.8	7.41e-01	0	43	104	402128896	62	12133
2026-01-27 13:16:50.26	318.22	16.25	-44.9	-55.5	3.9	7.46e-01	0	43	104	402128896	61	12159
2026-01-27 13:16:51.27	318.40	16.16	-44.8	-55.5	3.8	7.43e-01	0	43	104	402128896	61	12129
2026-01-27 13:16:52.27	318.57	16.07	-46.2	-57.0	3.8	7.42e-01	0	43	104	402128896	64	12122
2026-01-27 13:16:53.28	318.75	15.98	-52.6	-65.8	3.8	7.41e-01	0	43	104	402128896	75	17867
2026-01-27 13:16:54.29	318.92	15.89	-53.1	-67.2	4.0	7.43e-01	0	43	104	402128896	78	17603
2026-01-27 13:16:55.29	319.10	15.80	-45.2	-55.9	3.8	7.41e-01	0	43	104	402128896	61	12778
2026-01-27 13:16:56.30	319.27	15.71	-45.2	-56.0	3.8	7.44e-01	0	43	104	402128896	61	12869
2026-01-27 13:16:57.31	319.44	15.62	-45.2	-55.9	3.8	7.45e-01	0	43	104	402128896	61	12786
2026-01-27 13:16:58.31	319.61	15.53	-44.9	-55.7	3.8	7.43e-01	0	43	104	402128896	61	12430
2026-01-27 13:16:59.32	319.78	15.44	-44.6	-55.3	3.8	7.46e-01	0	43	104	402128896	60	12623
2026-01-27 13:17:00.32	319.94	15.35	-45.1	-55.8	3.8	7.45e-01	0	43	104	402128896	61	12593
2026-01-27 13:17:01.33	320.11	15.26	-53.6	-68.7	3.9	7.42e-01	0	43	104	402128896	79	19780
2026-01-27 13:17:02.34	320.28	15.17	-46.6	-57.6	3.8	7.43e-01	0	43	104	402128896	65	12269
2026-01-27 13:17:03.34	320.44	15.09	-45.9	-56.8	3.8	7.43e-01	0	43	104	402128896	62	13331
2026-01-27 13:17:04.35	320.60	15.00	-45.4	-56.3	3.8	7.42e-01	0	43	104	402128896	62	12587
2026-01-27 13:17:05.36	320.77	14.91	-45.0	-55.9	3.8	7.41e-01	0	43	104	402128896	62	12025
2026-01-27 13:17:06.36	320.93	14.82	-44.7	-55.5	3.8	7.42e-01	0	43	104	402128896	61	12182
2026-01-27 13:17:07.37	321.09	14.73	-45.2	-55.9	3.8	7.47e-01	0	43	104	402128896	61	12785
2026-01-27 13:17:08.37	321.25	14.65	-46.5	-57.4	3.8	7.46e-01	0	43	104	402128896	65	11970
2026-01-27 13:17:09.38	321.40	14.56	-53.0	-66.9	3.9	7.46e-01	0	42	104	402128896	76	19082
2026-01-27 13:17:10.39	321.56	14.47	-50.7	-62.8	3.9	7.41e-01	0	43	104	402128896	73	14064
2026-01-27 13:17:11.39	321.72	14.39	-45.1	-55.8	3.8	7.47e-01	0	43	104	402128896	61	12655
2026-01-27 13:17:12.40	321.87	14.30	-45.1	-55.9	3.8	7.45e-01	0	43	104	402128896	61	12738
2026-01-27 13:17:13.41	322.03	14.21	-44.6	-55.4	3.8	7.45e-01	0	43	104	402128896	61	12042
2026-01-27 13:17:14.41	322.18	14.13	-44.6	-55.4	3.8	7.48e-01	0	43	104	402128896	61	12009
2026-01-27 13:17:15.42	322.34	14.04	-44.8	-55.6	3.8	7.46e-01	0	43	104	402128896	61	12365
2026-01-27 13:17:16.43	322.49	13.95	-47.1	-58.1	3.8	7.47e-01	0	43	104	402128896	64	13866
2026-01-27 13:17:17.44	322.64	13.87	-52.7	-66.7	3.9	7.42e-01	0	43	104	402128896	77	17491
2026-01-27 13:17:18.44	322.79	13.78	-45.6	-56.5	3.8	7.47e-01	0	43	104	402128896	63	12111
2026-01-27 13:17:19.45	322.94	13.69	-45.6	-56.5	3.9	7.44e-01	0	43	104	402128896	63	12118
2026-01-27 13:17:20.46	323.09	13.61	-45.1	-55.9	3.8	7.41e-01	0	43	104	402128896	62	12018
2026-01-27 13:17:21.47	323.24	13.52	-44.7	-55.5	3.8	7.44e-01	0	43	104	402128896	61	12148
2026-01-27 13:17:22.48	323.38	13.44	-44.7	-55.5	3.8	7.45e-01	0	43	104	402128896	61	12123
2026-01-27 13:17:23.49	323.53	13.35	-45.0	-55.7	3.8	7.44e-01	0	43	104	402128896	61	12479
2026-01-27 13:17:24.49	323.67	13.27	-47.9	-58.7	3.8	7.46e-01	0	43	104	402128896	65	13976
2026-01-27 13:17:25.51	323.82	13.18	-51.4	-64.5	3.9	7.43e-01	0	43	104	402128896	75	15351
2026-01-27 13:17:26.51	323.96	13.10	-45.0	-55.6	3.8	7.42e-01	0	43	104	402128896	62	11683
2026-01-27 13:17:27.52	324.10	13.01	-45.3	-56.0	3.8	7.43e-01	0	43	104	402128896	62	12166
2026-01-27 13:17:28.53	324.24	12.93	-45.0	-55.7	3.8	7.43e-01	0	43	104	402128896	62	11793
2026-01-27 13:17:29.54	324.39	12.84	-45.2	-56.0	3.8	7.43e-01	0	43	104	402128896	62	12098
2026-01-27 13:17:30.54	324.52	12.76	-44.8	-55.5	3.8	7.43e-01	0	43	104	402128896	61	12222
2026-01-27 13:17:31.55	324.66	12.68	-45.8	-56.8	3.8	7.47e-01	0	43	104	402128896	62	13333
2026-01-27 13:17:32.56	324.80	12.59	-49.0	-60.5	3.8	7.48e-01	0	43	104	402128896	68	14487
2026-01-27 13:17:33.57	324.94	12.51	-54.0	-70.2	3.8	7.46e-01	0	43	104	402128896	78	24808
2026-01-27 13:17:34.58	325.08	12.43	-45.9	-56.6	3.9	7.47e-01	0	43	104	402128896	63	12302
2026-01-27 13:17:35.59	325.21	12.34	-45.1	-56.0	3.8	7.44e-01	0	43	104	402128896	61	12849
2026-01-27 13:17:36.60	325.35	12.26	-45.0	-55.9	3.8	7.43e-01	0	43	104	402128896	61	12702
2026-01-27 13:17:37.61	325.48	12.18	-44.9	-55.8	3.8	7.44e-01	0	43	104	402128896	61	12603
2026-01-27 13:17:38.61	325.62	12.09	-44.9	-55.8	3.9	7.44e-01	0	43	104	402128896	61	12546
2026-01-27 13:17:39.62	325.75	12.01	-45.2	-56.1	3.8	7.45e-01	0	43	104	402128896	61	13025
2026-01-27 13:17:40.63	325.88	11.93	-53.3	-68.2	3.8	7.47e-01	0	43	104	402128896	77	20874
2026-01-27 13:17:41.64	326.01	11.85	-50.3	-62.4	3.9	7.42e-01	0	43	104	402128896	72	14287
2026-01-27 13:17:42.65	326.14	11.76	-45.0	-55.7	3.8	7.43e-01	0	43	104	402128896	61	12504
2026-01-27 13:17:43.65	326.27	11.68	-45.2	-56.0	3.9	7.48e-01	0	43	104	402128896	62	12102
2026-01-27 13:17:44.66	326.40	11.60	-45.0	-55.8	3.8	7.45e-01	0	43	104	402128896	62	11915
2026-01-27 13:17:45.66	326.53	11.52	-45.0	-55.8	3.8	7.43e-01	0	43	104	402128896	62	11835
2026-01-27 13:17:46.67	326.66	11.44	-45.1	-55.8	3.8	7.41e-01	0	43	104	402128896	61	12566
2026-01-27 13:17:47.68	326.78	11.36	-45.1	-55.9	3.9	7.44e-01	0	43	104	402128896	61	12740
2026-01-27 13:17:48.69	326.91	11.28	-53.4	-68.4	3.8	7.47e-01	0	43	104	402128896	77	21310
2026-01-27 13:17:49.69	327.03	11.20	-50.4	-62.4	3.8	7.42e-01	0	43	104	402128896	72	14314
2026-01-27 13:17:50.70	327.16	11.12	-45.5	-56.3	3.8	7.47e-01	0	43	104	402128896	61	13396
2026-01-27 13:17:51.71	327.28	11.04	-45.2	-56.1	3.8	7.44e-01	0	43	104	402128896	62	12235
2026-01-27 13:17:52.72	327.41	10.96	-45.4	-56.2	3.8	7.47e-01	0	43	104	402128896	62	12502
2026-01-27 13:17:53.73	327.53	10.88	-45.2	-56.0	3.8	7.47e-01	0	43	104	402128896	62	12127
2026-01-27 13:17:54.74	327.65	10.80	-45.0	-55.8	3.8	7.47e-01	0	43	104	402128896	62	11901
2026-01-27 13:17:55.75	327.77	10.72	-45.2	-56.1	3.8	7.43e-01	0	43	104	402128896	61	12975
2026-01-27 13:17:56.76	327.89	10.64	-54.0	-70.9	3.7	7.47e-01	0	43	104	402128896	78	26957
2026-01-27 13:17:57.77	328.01	10.56	-50.1	-62.2	3.8	7.45e-01	0	43	104	402128896	72	13929
2026-01-27 13:17:58.77	328.13	10.48	-45.7	-56.6	3.8	7.43e-01	0	43	104	402128896	62	13000
2026-01-27 13:17:59.78	328.25	10.40	-45.3	-56.1	3.8	7.45e-01	0	43	104	402128896	62	12367
2026-01-27 13:18:00.79	328.37	10.32	-45.4	-56.2	3.8	7.44e-01	0	43	104	402128896	62	12503
2026-01-27 13:18:01.80	328.49	10.24	-45.1	-55.9	3.8	7.45e-01	0	43	104	402128896	62	12065
2026-01-27 13:18:02.80	328.60	10.17	-45.3	-56.2	3.8	7.43e-01	0	43	104	402128896	62	12409
2026-01-27 13:18:03.81	328.72	10.09	-45.4	-56.3	3.8	7.48e-01	0	43	104	402128896	62	12557
2026-01-27 13:18:04.82	328.83	10.01	-54.0	-71.4	3.8	7.44e-01	0	43	104	402128896	78	28542
2026-01-27 13:18:05.83	328.95	9.93	-50.2	-62.1	3.8	7.45e-01	0	43	104	402128896	72	13851
2026-01-27 13:18:06.84	329.06	9.86	-46.4	-57.2	3.8	7.42e-01	0	43	104	402128896	63	13193
2026-01-27 13:18:07.85	329.17	9.78	-45.5	-56.3	3.9	7.45e-01	0	43	104	402128896	63	11911
2026-01-27 13:18:08.85	329.29	9.70	-45.7	-56.5	3.8	7.44e-01	0	43	104	402128896	62	12891
2026-01-27 13:18:09.86	329.40	9.62	-45.7	-56.5	3.8	7.44e-01	0	43	104	402128896	62	12952
2026-01-27 13:18:10.87	329.51	9.55	-45.5	-56.3	3.8	7.46e-01	0	43	104	402128896	62	12643
2026-01-27 13:18:11.88	329.62	9.47	-45.5	-56.3	3.8	7.42e-01	0	43	104	402128896	62	12654
2026-01-27 13:18:12.89	329.73	9.39	-53.9	-71.3	3.8	7.45e-01	0	43	104	402128896	78	28142
2026-01-27 13:18:13.89	329.84	9.32	-50.3	-62.5	3.8	7.43e-01	0	43	104	402128896	72	14469
2026-01-27 13:18:14.90	329.95	9.24	-46.7	-57.7	3.8	7.44e-01	0	43	104	402128896	63	14001
2026-01-27 13:18:15.91	330.06	9.17	-45.6	-56.5	3.8	7.44e-01	0	43	104	402128896	63	12142
2026-01-27 13:18:16.92	330.17	9.09	-45.6	-56.5	3.8	7.45e-01	0	43	104	402128896	63	12174
2026-01-27 13:18:17.92	330.27	9.02	-45.6	-56.5	3.8	7.44e-01	0	43	104	402128896	62	12934
2026-01-27 13:18:18.93	330.38	8.94	-46.9	-58.1	3.8	7.41e-01	0	43	104	402128896	64	13799
2026-01-27 13:18:19.94	330.49	8.87	-45.8	-56.8	3.8	7.45e-01	0	43	104	402128896	63	12606
2026-01-27 13:18:20.95	330.59	8.79	-53.7	-71.0	3.8	7.45e-01	0	43	104	402128896	78	27217
2026-01-27 13:18:21.96	330.70	8.71	-50.1	-62.3	3.8	7.50e-01	0	43	104	402128896	72	14110
2026-01-27 13:18:22.97	330.80	8.64	-46.9	-58.1	3.8	7.46e-01	0	43	104	402128896	64	13745
2026-01-27 13:18:23.97	330.91	8.57	-45.9	-57.0	3.8	7.45e-01	0	43	104	402128896	63	12811
2026-01-27 13:18:24.98	331.01	8.49	-45.8	-56.9	3.8	7.43e-01	0	43	104	402128896	63	12752
2026-01-27 13:18:25.99	331.11	8.42	-45.8	-56.9	3.8	7.46e-01	0	43	104	402128896	63	12733
2026-01-27 13:18:26.99	331.21	8.34	-46.7	-57.9	3.8	7.45e-01	0	43	104	402128896	64	13538
2026-01-27 13:18:28.00	331.32	8.27	-45.7	-56.7	3.9	7.46e-01	0	43	104	402128896	63	12484
2026-01-27 13:18:29.01	331.42	8.20	-53.7	-71.0	3.8	7.47e-01	0	43	104	402128896	78	27361
2026-01-27 13:18:30.02	331.52	8.12	-50.0	-62.0	3.8	7.44e-01	0	43	104	402128896	71	14470
2026-01-27 13:18:31.03	331.62	8.05	-47.0	-58.2	3.8	7.43e-01	0	43	104	402128896	64	14016
2026-01-27 13:18:32.04	331.72	7.98	-46.1	-57.1	3.8	7.49e-01	0	42	104	402128896	64	12250
2026-01-27 13:18:33.04	331.82	7.90	-45.8	-56.7	3.8	7.43e-01	0	43	104	402128896	63	12512
2026-01-27 13:18:34.05	331.92	7.83	-45.8	-56.8	3.8	7.43e-01	0	43	104	402128896	63	12571
2026-01-27 13:18:35.06	332.02	7.76	-46.4	-57.5	3.8	7.42e-01	0	43	104	402128896	63	13649
2026-01-27 13:18:36.06	332.11	7.69	-45.8	-56.8	3.8	7.42e-01	0	43	104	402128896	63	12643
2026-01-27 13:18:37.07	332.21	7.61	-53.1	-70.7	3.8	7.45e-01	0	43	104	402128896	77	28018
2026-01-27 13:18:38.07	332.31	7.54	-49.1	-61.8	3.8	7.44e-01	0	43	104	402128896	70	14955
2026-01-27 13:18:39.08	332.40	7.47	-47.0	-58.2	3.8	7.42e-01	0	43	104	402128896	64	14005
2026-01-27 13:18:40.09	332.50	7.40	-46.0	-56.9	3.8	7.46e-01	0	43	104	402128896	63	12797
2026-01-27 13:18:41.10	332.59	7.33	-46.0	-57.0	3.8	7.41e-01	0	43	104	402128896	63	12912
2026-01-27 13:18:42.10	332.69	7.26	-45.8	-56.7	3.8	7.44e-01	0	43	104	402128896	63	12442
2026-01-27 13:18:43.11	332.78	7.18	-46.1	-57.2	3.9	7.44e-01	0	43	104	402128896	63	13187
2026-01-27 13:18:44.12	332.88	7.11	-46.0	-57.0	3.8	7.44e-01	0	43	104	402128896	63	12924
2026-01-27 13:18:45.13	332.97	7.04	-44.3	-69.6	3.8	7.49e-01	0	43	104	402128896	60	65535
2026-01-27 13:18:46.13	333.06	6.97	-48.5	-60.6	3.8	7.44e-01	0	43	104	402128896	69	13765
2026-01-27 13:18:47.13	333.15	6.90	-47.1	-58.3	3.8	7.42e-01	0	43	104	402128896	65	13299
2026-01-27 13:18:48.13	333.24	6.83	-46.0	-56.9	3.8	7.44e-01	0	43	104	402128896	63	12796
2026-01-27 13:18:49.14	333.34	6.76	-46.4	-57.4	3.8	7.44e-01	0	43	104	402128896	63	13501
2026-01-27 13:18:50.15	333.43	6.69	-45.7	-56.5	3.8	7.45e-01	0	43	104	402128896	63	12201
2026-01-27 13:18:51.16	333.52	6.62	-46.9	-58.0	3.9	7.40e-01	0	43	104	402128896	64	13627
2026-01-27 13:18:52.17	333.61	6.55	-46.0	-47.6	22.0	6.00e-01	0	43	104	402128896	63	4346
2026-01-27 13:18:53.17	333.70	6.48	-44.5	-66.5	4.4	7.23e-01	0	43	104	402653184	59	48692
2026-01-27 13:18:54.18	333.79	6.41	-48.0	-50.3	19.7	6.03e-01	0	43	0	403701760	67	4716
2026-01-27 13:18:55.18	333.88	6.34	-47.2	-49.0	21.5	6.04e-01	0	43	0	405798912	65	4562
2026-01-27 13:18:56.19	333.96	6.27	-45.9	-47.4	23.1	6.03e-01	0	43	0	407896064	63	4267
2026-01-27 13:18:57.19	334.05	6.21	-46.1	-47.7	22.8	6.05e-01	0	43	0	409468928	63	4433
2026-01-27 13:18:58.20	334.14	6.14	-46.3	-48.0	22.4	6.04e-01	0	43	0	411566080	63	4555
2026-01-27 13:18:59.21	334.23	6.07	-46.0	-47.7	22.7	6.05e-01	0	43	0	413663232	63	4401
2026-01-27 13:19:00.22	334.31	6.00	-46.1	-47.7	22.6	6.03e-01	0	43	0	415236096	63	4423
2026-01-27 13:19:01.23	334.40	5.93	-46.0	-47.6	22.8	6.03e-01	0	43	0	417333248	63	4361
2026-01-27 13:19:02.23	334.48	5.86	-45.6	-47.2	23.1	6.03e-01	0	43	0	418906112	63	4156
2026-01-27 13:19:03.24	334.57	5.79	-46.2	-47.9	22.5	6.03e-01	0	43	0	421003264	63	4523
2026-01-27 13:19:04.25	334.66	5.73	-45.7	-47.3	23.0	6.03e-01	0	43	0	422576128	63	4203
2026-01-27 13:19:05.25	334.74	5.66	-46.0	-47.6	22.7	6.04e-01	0	43	0	424673280	63	4369
2026-01-27 13:19:06.26	334.82	5.59	-46.2	-47.9	22.4	6.05e-01	0	43	0	426770432	63	4522
2026-01-27 13:19:07.27	334.91	5.52	-46.1	-47.8	22.6	6.04e-01	0	43	0	428343296	63	4464
2026-01-27 13:19:08.27	334.99	5.46	-46.3	-48.0	22.4	6.04e-01	0	43	0	430440448	63	4547
2026-01-27 13:19:09.28	335.07	5.39	-46.3	-48.0	22.3	6.04e-01	0	43	0	432013312	63	4577
2026-01-27 13:19:10.28	335.16	5.32	-46.2	-47.8	22.5	6.02e-01	0	43	0	434110464	63	4475
2026-01-27 13:19:11.29	335.24	5.26	-46.0	-47.7	22.7	6.03e-01	0	43	0	436207616	63	4393
2026-01-27 13:19:12.30	335.32	5.19	-46.1	-47.8	22.4	6.01e-01	0	43	0	437780480	63	4467
2026-01-27 13:19:13.31	335.40	5.12	-46.2	-47.9	22.3	6.01e-01	0	43	0	439877632	63	4512
2026-01-27 13:19:14.31	335.48	5.06	-46.3	-48.0	22.2	6.04e-01	0	43	0	441974784	63	4552
2026-01-27 13:19:15.32	335.56	4.99	-47.4	-49.5	20.9	6.04e-01	0	43	0	443547648	65	4834
2026-01-27 13:19:16.33	335.64	4.92	-51.9	-70.4	3.8	7.49e-01	0	43	104	444071936	75	30312
2026-01-27 13:19:17.34	335.72	4.86	-49.9	-67.8	3.9	7.49e-01	0	43	104	444071936	71	28141
2026-01-27 13:19:18.34	335.80	4.79	-49.8	-67.5	3.8	7.46e-01	0	43	104	444071936	71	27246
2026-01-27 13:19:19.35	335.88	4.72	-49.8	-67.5	3.8	7.43e-01	0	43	104	444071936	71	27249
2026-01-27 13:19:20.36	335.96	4.66	-49.8	-67.5	3.8	7.47e-01	0	43	104	444071936	71	27374
2026-01-27 13:19:21.37	336.04	4.59	-49.8	-67.5	3.8	7.45e-01	0	43	104	444071936	71	27387
2026-01-27 13:19:22.38	336.12	4.53	-49.8	-67.6	3.8	7.42e-01	0	43	104	444071936	71	27582
2026-01-27 13:19:23.39	336.20	4.46	-49.8	-67.6	3.8	7.43e-01	0	43	104	444071936	71	27646
2026-01-27 13:19:24.40	336.27	4.40	-49.8	-67.6	3.8	7.49e-01	0	43	104	444071936	71	27662
2026-01-27 13:19:25.41	336.35	4.33	-49.8	-67.6	3.8	7.45e-01	0	43	104	444071936	71	27631
2026-01-27 13:19:26.41	336.43	4.27	-49.7	-67.6	3.8	7.42e-01	0	43	104	444071936	71	27698
