passes_logs/2026/01/27/R3.2S_Murmansk/R3.2S_Murmansk__20260127_124823_NOAA_20_JPSS-1_rec.log

#Pass ID: 20260127_124823_NOAA 20 (JPSS-1)
#Satellite: NOAA 20 (JPSS-1)
#Configuration: NOAA 20
#almurnet v.1.7.20251203
#Start time: 2026-01-27 12:48:24

#Version: 2.2.20231116
#Station: R3.2S_Murmansk
#Location: 33.079688 lon 68.888172 lat
#TLE: 1 43013U 17073A   26027.31247158  .00000160  00000+0  97001-4 0  9994
#TLE: 2 43013  98.7647 328.1226 0000969  21.9986 338.1231 14.19541059424489

#Time	Az	El	Level	Level2	SNR	BER	BlckErr	Temp	State	Recorded	gain1	gain2
2026-01-27 12:48:24.89	237.04	2.06	-54.1	-69.1	3.8	1.49e+00	0	41	0	0	79	20548
2026-01-27 12:48:25.89	237.13	2.11	-54.3	-69.3	3.8	1.49e+00	0	41	104	0	79	21176
2026-01-27 12:48:26.89	237.22	2.16	-54.3	-69.3	3.8	1.49e+00	0	41	104	0	79	21243
2026-01-27 12:48:27.90	237.32	2.21	-54.4	-69.4	3.8	1.49e+00	0	41	104	0	79	21310
2026-01-27 12:48:28.91	237.42	2.25	-54.4	-69.4	3.8	1.49e+00	0	41	104	0	79	21309
2026-01-27 12:48:29.92	237.51	2.30	-54.4	-69.4	3.8	1.49e+00	0	41	104	0	79	21339
2026-01-27 12:48:30.93	237.61	2.35	-54.4	-69.3	3.8	1.49e+00	0	41	104	0	79	21235
2026-01-27 12:48:31.93	237.71	2.39	-54.3	-69.3	3.8	1.49e+00	0	41	104	0	79	21107
2026-01-27 12:48:32.94	237.80	2.44	-54.3	-69.3	3.8	1.49e+00	0	41	104	0	79	21028
2026-01-27 12:48:33.94	237.90	2.49	-54.2	-69.2	3.8	1.49e+00	0	41	104	0	79	20978
2026-01-27 12:48:34.95	238.00	2.54	-54.2	-69.2	3.8	1.49e+00	0	41	104	0	79	20869
2026-01-27 12:48:35.96	238.10	2.58	-54.1	-69.1	3.8	1.49e+00	0	41	104	0	79	20650
2026-01-27 12:48:36.97	238.19	2.63	-54.1	-69.0	3.8	1.49e+00	0	41	104	0	79	20500
2026-01-27 12:48:37.97	238.29	2.68	-54.0	-68.9	3.8	1.49e+00	0	42	104	0	79	20296
2026-01-27 12:48:38.98	238.39	2.73	-53.9	-68.8	3.8	1.49e+00	0	42	104	0	79	20068
2026-01-27 12:48:39.99	238.49	2.77	-53.8	-68.7	3.8	1.49e+00	0	42	104	0	79	19834
2026-01-27 12:48:41.00	238.59	2.82	-53.7	-68.7	3.8	1.49e+00	0	41	104	0	79	19642
2026-01-27 12:48:42.01	238.69	2.87	-53.6	-68.6	3.8	1.49e+00	0	41	104	0	79	19489
2026-01-27 12:48:43.01	238.79	2.92	-53.5	-68.5	3.8	1.49e+00	0	42	104	0	79	19304
2026-01-27 12:48:44.02	238.89	2.96	-53.4	-68.4	3.8	1.49e+00	0	42	104	0	78	20122
2026-01-27 12:48:45.03	238.99	3.01	-53.2	-68.2	3.8	1.49e+00	0	42	104	0	78	19661
2026-01-27 12:48:46.03	239.09	3.06	-52.9	-67.9	3.8	1.49e+00	0	42	104	0	77	20134
2026-01-27 12:48:47.04	239.19	3.11	-52.6	-67.6	3.8	1.49e+00	0	42	104	0	77	19418
2026-01-27 12:48:48.05	239.30	3.15	-51.8	-67.4	3.8	1.49e+00	0	42	104	0	76	20240
2026-01-27 12:48:49.05	239.40	3.20	-52.5	-67.5	3.8	1.49e+00	0	42	104	0	75	21619
2026-01-27 12:48:50.06	239.50	3.25	-52.5	-67.5	3.8	1.49e+00	0	42	104	0	75	21584
2026-01-27 12:48:51.07	239.60	3.30	-52.5	-67.5	3.8	1.49e+00	0	42	104	0	75	21591
2026-01-27 12:48:52.08	239.71	3.34	-52.5	-67.5	3.8	1.49e+00	0	42	104	0	75	21624
2026-01-27 12:48:53.08	239.81	3.39	-52.5	-67.5	3.8	1.49e+00	0	42	104	0	75	21541
2026-01-27 12:48:54.09	239.91	3.44	-52.5	-67.4	3.8	1.49e+00	0	42	104	0	75	21473
2026-01-27 12:48:55.10	240.02	3.49	-52.5	-67.4	3.8	1.49e+00	0	42	104	0	75	21477
2026-01-27 12:48:56.10	240.12	3.53	-52.5	-67.4	3.8	1.49e+00	0	42	104	0	75	21471
2026-01-27 12:48:57.11	240.22	3.58	-52.5	-67.4	3.8	1.49e+00	0	42	104	0	75	21441
2026-01-27 12:48:58.12	240.33	3.63	-52.5	-67.4	3.8	1.49e+00	0	42	104	0	75	21430
2026-01-27 12:48:59.12	240.43	3.68	-52.5	-67.5	3.8	1.49e+00	0	42	104	0	75	21548
2026-01-27 12:49:00.13	240.54	3.72	-52.5	-67.4	3.8	1.49e+00	0	42	104	0	75	21480
2026-01-27 12:49:01.14	240.64	3.77	-52.5	-67.5	3.8	1.49e+00	0	42	104	0	75	21522
2026-01-27 12:49:02.15	240.75	3.82	-52.5	-67.4	3.8	1.49e+00	0	42	104	0	75	21451
2026-01-27 12:49:03.16	240.86	3.87	-52.5	-67.4	3.8	1.49e+00	0	42	104	0	75	21458
2026-01-27 12:49:04.16	240.96	3.91	-52.5	-67.4	3.8	1.49e+00	0	42	104	0	75	21401
2026-01-27 12:49:05.17	241.07	3.96	-52.5	-67.4	3.8	1.49e+00	0	42	104	0	75	21321
2026-01-27 12:49:06.17	241.18	4.01	-52.5	-67.3	3.8	1.49e+00	0	42	104	0	75	21075
2026-01-27 12:49:07.18	241.29	4.06	-52.5	-67.3	3.8	1.49e+00	0	42	104	0	75	21035
2026-01-27 12:49:08.19	241.39	4.10	-52.5	-67.3	3.8	1.49e+00	0	42	104	0	75	21032
2026-01-27 12:49:09.20	241.50	4.15	-52.5	-67.3	3.8	1.49e+00	0	42	104	0	75	21069
2026-01-27 12:49:10.20	241.61	4.20	-52.5	-67.3	3.8	1.49e+00	0	42	104	0	75	21222
2026-01-27 12:49:11.21	241.72	4.25	-52.5	-67.3	3.8	1.49e+00	0	42	104	0	75	21222
2026-01-27 12:49:12.22	241.83	4.29	-52.5	-67.3	3.8	1.49e+00	0	42	104	0	75	21235
2026-01-27 12:49:13.23	241.94	4.34	-52.5	-67.3	3.8	1.49e+00	0	42	104	0	75	21236
2026-01-27 12:49:14.23	242.05	4.39	-52.5	-67.4	3.8	1.49e+00	0	42	104	0	75	21300
2026-01-27 12:49:15.24	242.16	4.44	-52.5	-67.4	3.8	1.49e+00	0	42	104	0	75	21371
2026-01-27 12:49:16.25	242.27	4.49	-52.4	-67.2	3.8	1.49e+00	0	42	104	0	75	20881
2026-01-27 12:49:17.25	242.38	4.53	-52.4	-66.6	3.8	1.49e+00	0	42	104	0	75	19572
2026-01-27 12:49:18.26	242.49	4.58	-52.4	-65.7	3.8	1.49e+00	0	42	104	0	75	17535
2026-01-27 12:49:19.27	242.61	4.63	-52.3	-64.8	4.0	1.49e+00	0	42	104	0	75	15801
2026-01-27 12:49:20.28	242.72	4.68	-52.3	-64.4	4.1	1.46e+00	0	42	0	0	75	15097
2026-01-27 12:49:21.29	242.83	4.72	-52.3	-64.1	4.1	1.43e+00	0	42	0	0	75	14588
2026-01-27 12:49:22.29	242.94	4.77	-52.2	-63.0	4.4	1.29e+00	107	42	0	0	75	12939
2026-01-27 12:49:23.30	243.06	4.82	-52.0	-61.0	5.5	7.03e-01	0	42	0	2097152	74	10903
2026-01-27 12:49:24.31	243.17	4.87	-51.5	-58.4	7.7	2.15e-01	0	42	0	3145728	74	8054
2026-01-27 12:49:25.32	243.28	4.91	-50.8	-55.8	10.4	3.61e-02	0	42	0	5242880	73	6332
2026-01-27 12:49:26.33	243.40	4.96	-50.1	-54.2	12.1	6.06e-04	0	42	0	7340032	71	5861
2026-01-27 12:49:27.33	243.51	5.01	-49.0	-52.0	14.4	2.05e-05	0	42	0	9437184	70	4823
2026-01-27 12:49:28.34	243.63	5.06	-49.6	-53.0	13.9	7.00e-07	0	43	0	11534336	69	5730
2026-01-27 12:49:29.35	243.74	5.10	-52.8	-67.7	3.8	1.49e+00	0	42	104	11534336	76	20856
2026-01-27 12:49:30.36	243.86	5.15	-50.8	-55.9	9.5	5.59e-01	0	42	0	11534336	73	6378
2026-01-27 12:49:31.36	243.98	5.20	-49.6	-52.9	13.6	7.00e-07	0	42	0	13631488	69	5717
2026-01-27 12:49:32.37	244.09	5.25	-49.9	-53.6	12.6	1.33e-02	0	42	0	14680064	71	5503
2026-01-27 12:49:33.38	244.21	5.29	-47.5	-49.6	16.7	0.00e+00	0	42	0	16777216	66	4634
2026-01-27 12:49:34.39	244.33	5.34	-47.2	-49.3	17.1	0.00e+00	0	42	0	18874368	66	4450
2026-01-27 12:49:35.39	244.44	5.39	-47.3	-49.3	17.1	0.00e+00	0	42	0	20971520	65	4741
2026-01-27 12:49:36.40	244.56	5.44	-47.3	-49.4	17.0	0.00e+00	0	42	0	23068672	65	4784
2026-01-27 12:49:37.40	244.68	5.48	-47.2	-49.2	17.1	0.00e+00	0	42	0	24117248	64	4972
2026-01-27 12:49:38.41	244.80	5.53	-47.2	-49.3	17.1	0.00e+00	0	42	0	26214400	65	4714
2026-01-27 12:49:39.42	244.92	5.58	-47.4	-49.6	16.8	0.00e+00	0	42	0	28311552	65	4874
2026-01-27 12:49:40.43	245.04	5.63	-47.3	-49.3	17.1	0.00e+00	0	42	0	30408704	65	4748
2026-01-27 12:49:41.44	245.16	5.67	-47.2	-49.2	17.2	0.00e+00	0	42	0	32505856	65	4688
2026-01-27 12:49:42.45	245.28	5.72	-47.2	-49.2	17.2	0.00e+00	0	42	0	33554432	65	4666
2026-01-27 12:49:43.45	245.40	5.77	-47.2	-49.1	17.3	0.00e+00	0	42	0	35651584	65	4639
2026-01-27 12:49:44.46	245.52	5.82	-47.2	-49.2	17.3	0.00e+00	0	42	0	37748736	65	4668
2026-01-27 12:49:45.46	245.64	5.86	-47.2	-49.1	17.3	0.00e+00	0	42	0	39845888	65	4646
2026-01-27 12:49:46.47	245.76	5.91	-47.4	-49.5	17.0	0.00e+00	0	42	0	41943040	65	4825
2026-01-27 12:49:47.48	245.88	5.96	-47.4	-49.5	17.0	0.00e+00	0	42	0	42991616	65	4832
2026-01-27 12:49:48.48	246.01	6.00	-47.3	-49.2	17.2	0.00e+00	0	42	0	45088768	65	4697
2026-01-27 12:49:49.49	246.13	6.05	-47.2	-49.1	17.3	0.00e+00	0	42	0	47185920	64	4910
2026-01-27 12:49:50.50	246.25	6.10	-47.1	-49.0	17.5	0.00e+00	0	42	0	49283072	65	4585
2026-01-27 12:49:51.51	246.38	6.15	-46.9	-48.7	17.8	0.00e+00	0	42	0	51380224	65	4415
2026-01-27 12:49:52.51	246.50	6.19	-46.9	-48.8	17.7	0.00e+00	0	42	0	52428800	64	4727
2026-01-27 12:49:53.52	246.62	6.24	-47.1	-49.0	17.5	0.00e+00	0	42	0	54525952	64	4826
2026-01-27 12:49:54.53	246.75	6.29	-47.1	-49.0	17.5	0.00e+00	0	42	0	56623104	64	4820
2026-01-27 12:49:55.54	246.87	6.33	-47.0	-48.9	17.6	0.00e+00	0	42	0	58720256	64	4783
2026-01-27 12:49:56.55	247.00	6.38	-47.0	-48.8	17.6	0.00e+00	0	42	0	60817408	64	4747
2026-01-27 12:49:57.55	247.12	6.43	-47.1	-49.0	17.5	0.00e+00	0	42	0	61865984	64	4861
2026-01-27 12:49:58.56	247.25	6.48	-47.2	-49.1	17.4	0.00e+00	0	42	0	63963136	65	4640
2026-01-27 12:49:59.57	247.38	6.52	-47.2	-49.2	17.3	0.00e+00	0	42	0	66060288	65	4666
2026-01-27 12:50:00.57	247.50	6.57	-47.4	-49.5	17.1	0.00e+00	0	42	0	68157440	65	4827
2026-01-27 12:50:01.58	247.63	6.62	-47.1	-49.1	17.5	0.00e+00	0	42	0	70254592	65	4604
2026-01-27 12:50:02.59	247.76	6.66	-47.2	-49.1	17.5	0.00e+00	0	42	0	72351744	65	4625
2026-01-27 12:50:03.60	247.89	6.71	-47.3	-49.2	17.3	0.00e+00	0	42	0	73400320	65	4703
2026-01-27 12:50:04.60	248.02	6.76	-47.3	-49.3	17.3	0.00e+00	0	42	0	75497472	65	4712
2026-01-27 12:50:05.61	248.15	6.80	-46.9	-48.8	17.8	0.00e+00	0	42	0	77594624	65	4453
2026-01-27 12:50:06.61	248.27	6.85	-47.1	-49.0	17.6	0.00e+00	0	42	0	79691776	64	4834
2026-01-27 12:50:07.62	248.40	6.90	-47.0	-48.9	17.7	0.00e+00	0	42	0	80740352	64	4768
2026-01-27 12:50:08.63	248.54	6.94	-47.0	-48.9	17.6	0.00e+00	0	42	0	82837504	64	4791
2026-01-27 12:50:09.64	248.67	6.99	-47.0	-48.9	17.6	0.00e+00	0	43	0	84934656	64	4808
2026-01-27 12:50:10.64	248.80	7.04	-47.0	-48.9	17.7	0.00e+00	0	42	0	87031808	64	4763
2026-01-27 12:50:11.65	248.93	7.08	-46.8	-48.6	17.9	0.00e+00	0	42	0	89128960	64	4649
2026-01-27 12:50:12.66	249.06	7.13	-46.9	-48.7	17.9	0.00e+00	0	42	0	90177536	64	4684
2026-01-27 12:50:13.66	249.19	7.18	-46.9	-48.7	17.9	0.00e+00	0	42	0	92274688	64	4676
2026-01-27 12:50:14.67	249.32	7.22	-46.8	-48.6	17.9	0.00e+00	0	43	0	94371840	64	4651
2026-01-27 12:50:15.67	249.46	7.27	-46.8	-48.6	18.0	0.00e+00	0	42	0	96468992	64	4633
2026-01-27 12:50:16.68	249.59	7.31	-46.9	-48.7	17.9	0.00e+00	0	43	0	98566144	64	4653
2026-01-27 12:50:17.68	249.72	7.36	-46.9	-48.7	17.9	0.00e+00	0	42	0	99614720	64	4683
2026-01-27 12:50:18.69	249.86	7.41	-46.7	-48.4	18.2	0.00e+00	0	43	0	101711872	64	4525
2026-01-27 12:50:19.69	249.99	7.45	-46.8	-48.5	18.1	0.00e+00	0	43	0	103809024	64	4597
2026-01-27 12:50:20.70	250.13	7.50	-46.8	-48.6	18.0	0.00e+00	0	42	0	105906176	64	4604
2026-01-27 12:50:21.71	250.26	7.54	-46.8	-48.5	18.1	0.00e+00	0	42	0	108003328	64	4589
2026-01-27 12:50:22.72	250.40	7.59	-46.7	-48.5	18.1	0.00e+00	0	43	0	109051904	64	4579
2026-01-27 12:50:23.73	250.54	7.64	-46.8	-48.6	18.0	0.00e+00	0	42	0	111149056	64	4614
2026-01-27 12:50:24.73	250.67	7.68	-46.6	-48.4	18.3	0.00e+00	0	42	0	113246208	64	4501
2026-01-27 12:50:25.73	250.81	7.73	-46.9	-48.7	17.9	0.00e+00	0	42	0	115343360	64	4675
2026-01-27 12:50:26.74	250.95	7.77	-45.6	-48.8	17.8	0.00e+00	0	42	0	117440512	64	4726
2026-01-27 12:50:27.75	251.08	7.82	-46.7	-48.5	18.1	0.00e+00	0	42	0	118489088	64	4571
2026-01-27 12:50:28.75	251.22	7.86	-46.8	-48.5	18.1	0.00e+00	0	43	0	120586240	64	4598
2026-01-27 12:50:29.76	251.36	7.91	-46.8	-48.6	18.1	0.00e+00	0	42	0	122683392	64	4603
2026-01-27 12:50:30.77	251.50	7.96	-46.7	-48.4	18.2	0.00e+00	0	43	0	124780544	64	4511
2026-01-27 12:50:31.77	251.64	8.00	-46.4	-48.1	18.6	0.00e+00	0	42	0	126877696	64	4350
2026-01-27 12:50:32.78	251.78	8.05	-46.4	-48.1	18.5	0.00e+00	0	42	0	127926272	64	4360
2026-01-27 12:50:33.79	251.92	8.09	-46.4	-48.1	18.6	0.00e+00	0	42	0	130023424	64	4354
2026-01-27 12:50:34.79	252.06	8.14	-46.5	-48.2	18.5	0.00e+00	0	43	0	132120576	64	4408
2026-01-27 12:50:35.80	252.20	8.18	-46.5	-48.1	18.7	0.00e+00	0	42	0	134217728	63	4620
2026-01-27 12:50:36.81	252.34	8.23	-46.4	-48.1	18.7	0.00e+00	0	42	0	136314880	63	4604
2026-01-27 12:50:37.81	252.48	8.27	-46.4	-48.0	18.7	0.00e+00	0	43	0	137363456	63	4597
2026-01-27 12:50:38.82	252.63	8.32	-46.5	-48.1	18.7	0.00e+00	0	42	0	139460608	63	4623
2026-01-27 12:50:39.83	252.77	8.36	-46.3	-47.9	18.8	0.00e+00	0	42	0	141557760	63	4538
2026-01-27 12:50:40.83	252.91	8.41	-46.3	-47.9	18.9	0.00e+00	0	42	0	143654912	63	4525
2026-01-27 12:50:41.84	253.06	8.45	-46.3	-47.9	18.9	0.00e+00	0	42	0	145752064	63	4519
2026-01-27 12:50:42.85	253.20	8.50	-46.3	-47.8	18.9	0.00e+00	0	43	0	146800640	63	4489
2026-01-27 12:50:43.86	253.35	8.54	-46.4	-48.0	18.8	0.00e+00	0	43	0	148897792	63	4558
2026-01-27 12:50:44.87	253.49	8.59	-46.4	-48.1	18.7	0.00e+00	0	43	0	150994944	63	4600
2026-01-27 12:50:45.87	253.64	8.63	-46.5	-48.2	18.6	0.00e+00	0	43	0	153092096	63	4662
2026-01-27 12:50:46.88	253.78	8.68	-46.5	-48.1	18.7	0.00e+00	0	43	0	155189248	63	4613
2026-01-27 12:50:47.89	253.93	8.72	-46.5	-48.1	18.6	0.00e+00	0	43	0	156237824	63	4628
2026-01-27 12:50:48.89	254.08	8.76	-46.5	-48.2	18.6	0.00e+00	0	43	0	158334976	63	4664
2026-01-27 12:50:49.90	254.22	8.81	-46.4	-48.1	18.7	0.00e+00	0	43	0	160432128	63	4604
2026-01-27 12:50:50.91	254.37	8.85	-46.5	-48.1	18.6	0.00e+00	0	43	0	162529280	63	4639
2026-01-27 12:50:51.92	254.52	8.90	-46.4	-48.1	18.7	0.00e+00	0	43	0	164626432	63	4604
2026-01-27 12:50:52.93	254.67	8.94	-46.3	-47.9	18.9	0.00e+00	0	43	0	165675008	63	4501
2026-01-27 12:50:53.93	254.82	8.98	-46.3	-47.9	18.9	0.00e+00	0	43	0	167772160	63	4516
2026-01-27 12:50:54.94	254.97	9.03	-46.4	-47.9	18.9	0.00e+00	0	43	0	169869312	63	4537
2026-01-27 12:50:55.95	255.12	9.07	-46.4	-48.0	18.8	0.00e+00	0	43	0	171966464	63	4555
2026-01-27 12:50:56.95	255.27	9.11	-46.4	-48.0	18.8	0.00e+00	0	43	0	174063616	63	4581
2026-01-27 12:50:57.96	255.42	9.16	-46.5	-48.1	18.7	0.00e+00	0	42	0	175112192	63	4642
2026-01-27 12:50:58.97	255.57	9.20	-46.5	-48.2	18.6	0.00e+00	0	43	0	177209344	63	4667
2026-01-27 12:50:59.98	255.72	9.24	-46.5	-48.1	18.7	0.00e+00	0	43	0	179306496	63	4616
2026-01-27 12:51:00.98	255.87	9.29	-46.5	-48.1	18.8	0.00e+00	0	43	0	181403648	63	4612
2026-01-27 12:51:01.99	256.02	9.33	-46.5	-48.1	18.8	0.00e+00	0	42	0	183500800	63	4611
2026-01-27 12:51:03.00	256.18	9.37	-46.4	-48.0	18.8	0.00e+00	0	43	0	185597952	63	4585
2026-01-27 12:51:04.00	256.33	9.42	-46.4	-48.0	18.8	0.00e+00	0	43	0	186646528	63	4560
2026-01-27 12:51:05.01	256.48	9.46	-46.4	-48.0	18.8	0.00e+00	0	43	0	188743680	63	4562
2026-01-27 12:51:06.02	256.64	9.50	-46.4	-47.9	18.9	0.00e+00	0	43	0	190840832	63	4537
2026-01-27 12:51:07.03	256.79	9.54	-46.3	-47.9	18.9	0.00e+00	0	43	0	192937984	63	4525
2026-01-27 12:51:08.03	256.95	9.59	-46.6	-48.2	18.7	0.00e+00	0	42	0	193986560	63	4675
2026-01-27 12:51:09.04	257.10	9.63	-46.4	-48.0	18.8	0.00e+00	0	43	0	196083712	63	4591
2026-01-27 12:51:10.05	257.26	9.67	-46.5	-48.2	18.7	0.00e+00	0	43	0	198180864	63	4659
2026-01-27 12:51:11.05	257.41	9.71	-46.6	-48.2	18.7	0.00e+00	0	43	0	200278016	63	4677
2026-01-27 12:51:12.06	257.57	9.76	-46.7	-48.4	18.5	0.00e+00	0	43	0	202375168	63	4796
2026-01-27 12:51:13.06	257.73	9.80	-46.5	-48.1	18.6	0.00e+00	0	43	0	203423744	64	4375
2026-01-27 12:51:14.07	257.89	9.84	-46.5	-48.1	18.6	0.00e+00	0	43	0	205520896	64	4371
2026-01-27 12:51:15.08	258.04	9.88	-46.5	-48.2	18.6	0.00e+00	0	43	0	207618048	64	4405
2026-01-27 12:51:16.09	258.20	9.92	-46.6	-48.2	18.5	0.00e+00	0	43	0	209715200	64	4428
2026-01-27 12:51:17.09	258.36	9.96	-46.5	-48.2	18.6	0.00e+00	0	43	0	211812352	64	4417
2026-01-27 12:51:18.10	258.52	10.00	-46.7	-48.4	18.4	0.00e+00	0	43	0	213909504	64	4523
2026-01-27 12:51:19.10	258.68	10.05	-46.8	-48.5	18.3	0.00e+00	0	43	0	214958080	64	4584
2026-01-27 12:51:20.11	258.84	10.09	-46.8	-48.5	18.3	0.00e+00	0	43	0	217055232	64	4571
2026-01-27 12:51:21.11	259.00	10.13	-47.0	-48.8	18.1	0.00e+00	0	43	0	219152384	64	4707
2026-01-27 12:51:22.12	259.16	10.17	-46.8	-48.5	18.3	0.00e+00	0	43	0	221249536	64	4582
2026-01-27 12:51:23.13	259.32	10.21	-46.9	-48.6	18.1	0.00e+00	0	43	0	222298112	64	4649
2026-01-27 12:51:24.14	259.48	10.25	-46.8	-48.5	18.3	0.00e+00	0	42	0	224395264	64	4587
2026-01-27 12:51:25.15	259.65	10.29	-46.8	-48.5	18.3	0.00e+00	0	43	0	226492416	64	4555
2026-01-27 12:51:26.15	259.81	10.33	-46.6	-48.3	18.5	0.00e+00	0	43	0	228589568	64	4470
2026-01-27 12:51:27.16	259.97	10.37	-46.7	-48.4	18.4	0.00e+00	0	43	0	230686720	64	4506
2026-01-27 12:51:28.16	260.13	10.41	-46.7	-48.4	18.4	0.00e+00	0	43	0	231735296	64	4522
2026-01-27 12:51:29.17	260.30	10.45	-46.8	-48.5	18.3	0.00e+00	0	43	0	233832448	64	4589
2026-01-27 12:51:30.17	260.46	10.49	-46.8	-48.5	18.3	0.00e+00	0	43	0	235929600	64	4572
2026-01-27 12:51:31.18	260.63	10.53	-46.7	-48.4	18.4	0.00e+00	0	43	0	238026752	64	4514
2026-01-27 12:51:32.19	260.79	10.57	-46.7	-48.4	18.4	0.00e+00	0	43	0	240123904	64	4545
2026-01-27 12:51:33.20	260.96	10.61	-46.7	-48.4	18.5	0.00e+00	0	43	0	242221056	64	4499
2026-01-27 12:51:34.21	261.13	10.65	-46.9	-48.7	18.2	0.00e+00	0	42	0	243269632	64	4655
2026-01-27 12:51:35.21	261.29	10.68	-46.9	-48.7	18.1	0.00e+00	0	43	0	245366784	64	4662
2026-01-27 12:51:36.22	261.46	10.72	-47.0	-48.7	18.1	0.00e+00	0	43	0	247463936	64	4699
2026-01-27 12:51:37.23	261.63	10.76	-47.0	-48.7	18.1	0.00e+00	0	43	0	249561088	64	4692
2026-01-27 12:51:38.24	261.80	10.80	-46.9	-48.7	18.2	0.00e+00	0	43	0	250609664	64	4680
2026-01-27 12:51:39.25	261.96	10.84	-47.0	-48.8	18.1	0.00e+00	0	43	0	252706816	64	4743
2026-01-27 12:51:40.25	262.13	10.88	-47.2	-49.1	17.8	0.00e+00	0	43	0	254803968	64	4871
2026-01-27 12:51:41.26	262.30	10.91	-47.0	-48.8	18.0	0.00e+00	0	43	0	256901120	64	4749
2026-01-27 12:51:42.26	262.47	10.95	-47.1	-48.9	17.9	0.00e+00	0	43	0	258998272	64	4794
2026-01-27 12:51:43.27	262.64	10.99	-47.0	-48.8	18.1	0.00e+00	0	43	0	260046848	64	4723
2026-01-27 12:51:44.27	262.81	11.03	-47.0	-48.8	18.0	0.00e+00	0	43	0	262144000	64	4752
2026-01-27 12:51:45.28	262.98	11.06	-47.0	-48.8	18.1	0.00e+00	0	43	0	264241152	64	4742
2026-01-27 12:51:46.29	263.15	11.10	-47.0	-48.8	18.1	0.00e+00	0	43	0	266338304	64	4708
2026-01-27 12:51:47.29	263.32	11.14	-47.0	-48.8	18.1	0.00e+00	0	43	0	268435456	64	4725
2026-01-27 12:51:48.29	263.49	11.18	-47.1	-48.9	18.0	0.00e+00	0	43	0	270532608	64	4770
2026-01-27 12:51:49.30	263.67	11.21	-47.1	-48.9	17.9	0.00e+00	0	43	0	271581184	64	4808
2026-01-27 12:51:50.31	263.84	11.25	-47.2	-49.0	17.9	0.00e+00	0	43	0	273678336	64	4829
2026-01-27 12:51:51.32	264.01	11.28	-47.2	-49.0	17.9	0.00e+00	0	43	0	275775488	65	4582
2026-01-27 12:51:52.32	264.19	11.32	-47.2	-49.1	17.8	0.00e+00	0	43	0	277872640	65	4622
2026-01-27 12:51:53.34	264.36	11.36	-47.3	-49.1	17.8	0.00e+00	0	43	0	278921216	65	4631
2026-01-27 12:51:54.34	264.54	11.39	-47.2	-49.0	17.9	0.00e+00	0	43	0	281018368	65	4584
2026-01-27 12:51:55.35	264.71	11.43	-47.2	-49.0	17.9	0.00e+00	0	43	0	283115520	65	4570
2026-01-27 12:51:56.35	264.89	11.46	-47.1	-48.9	18.0	0.00e+00	0	43	0	285212672	65	4537
2026-01-27 12:51:57.37	265.06	11.50	-47.2	-49.0	17.9	0.00e+00	0	43	0	287309824	65	4554
2026-01-27 12:51:58.38	265.24	11.53	-47.0	-48.8	18.1	0.00e+00	0	43	0	288358400	65	4474
2026-01-27 12:51:59.38	265.42	11.57	-46.9	-48.6	18.3	0.00e+00	0	43	0	290455552	65	4363
2026-01-27 12:52:00.39	265.59	11.60	-46.9	-48.6	18.3	0.00e+00	0	43	0	292552704	65	4386
2026-01-27 12:52:01.39	265.77	11.64	-47.0	-48.7	18.2	0.00e+00	0	43	0	294649856	65	4412
2026-01-27 12:52:02.40	265.95	11.67	-46.9	-48.7	18.2	0.00e+00	0	43	0	296747008	65	4399
2026-01-27 12:52:03.41	266.13	11.71	-46.9	-48.6	18.3	0.00e+00	0	43	0	298844160	65	4366
2026-01-27 12:52:04.42	266.31	11.74	-47.0	-48.7	18.2	0.00e+00	0	43	0	299892736	65	4411
2026-01-27 12:52:05.42	266.48	11.77	-47.0	-48.7	18.2	0.00e+00	0	43	0	301989888	65	4417
2026-01-27 12:52:06.43	266.66	11.81	-47.0	-48.7	18.2	0.00e+00	0	43	0	304087040	65	4423
2026-01-27 12:52:07.44	266.84	11.84	-47.1	-48.9	18.0	0.00e+00	0	43	0	306184192	65	4537
2026-01-27 12:52:08.45	267.02	11.87	-47.2	-49.0	17.9	0.00e+00	0	43	0	307232768	65	4592
2026-01-27 12:52:09.45	267.20	11.90	-47.2	-49.1	17.8	0.00e+00	0	43	0	309329920	65	4599
2026-01-27 12:52:10.46	267.39	11.94	-47.3	-49.2	17.8	0.00e+00	0	43	0	311427072	65	4667
2026-01-27 12:52:11.47	267.57	11.97	-47.4	-49.3	17.6	0.00e+00	0	43	0	313524224	65	4725
2026-01-27 12:52:12.48	267.75	12.00	-47.3	-49.2	17.7	0.00e+00	0	43	0	315621376	65	4683
2026-01-27 12:52:13.49	267.93	12.03	-47.3	-49.2	17.8	0.00e+00	0	43	0	317718528	65	4657
2026-01-27 12:52:14.50	268.11	12.07	-47.3	-49.1	17.8	0.00e+00	0	43	0	318767104	65	4617
2026-01-27 12:52:15.50	268.30	12.10	-47.2	-49.0	18.0	0.00e+00	0	43	0	320864256	65	4562
2026-01-27 12:52:16.51	268.48	12.13	-47.2	-49.0	17.9	0.00e+00	0	43	0	322961408	65	4554
2026-01-27 12:52:17.52	268.66	12.16	-47.2	-49.0	17.9	0.00e+00	0	43	0	325058560	65	4581
2026-01-27 12:52:18.53	268.85	12.19	-47.2	-49.0	17.9	0.00e+00	0	43	0	327155712	65	4555
2026-01-27 12:52:19.54	269.03	12.22	-47.2	-48.9	17.9	0.00e+00	0	43	0	328204288	65	4543
2026-01-27 12:52:20.54	269.22	12.25	-47.2	-49.1	17.9	0.00e+00	0	43	0	330301440	65	4602
2026-01-27 12:52:21.55	269.40	12.28	-47.2	-49.1	17.9	0.00e+00	0	43	0	332398592	65	4605
2026-01-27 12:52:22.55	269.59	12.31	-47.1	-48.9	18.0	0.00e+00	0	43	0	334495744	65	4510
2026-01-27 12:52:23.56	269.77	12.34	-47.2	-49.0	17.9	0.00e+00	0	43	0	335544320	65	4561
2026-01-27 12:52:24.56	269.96	12.37	-47.2	-49.0	17.9	0.00e+00	0	43	0	337641472	65	4589
2026-01-27 12:52:25.57	270.14	12.40	-47.2	-49.0	17.9	0.00e+00	0	43	0	339738624	65	4594
2026-01-27 12:52:26.58	270.33	12.43	-47.2	-49.0	17.9	0.00e+00	0	43	0	341835776	65	4594
2026-01-27 12:52:27.59	270.52	12.46	-47.3	-49.1	17.8	0.00e+00	0	43	0	343932928	65	4648
2026-01-27 12:52:28.59	270.71	12.48	-47.4	-49.3	17.7	0.00e+00	0	43	0	346030080	65	4720
2026-01-27 12:52:29.60	270.89	12.51	-47.5	-49.4	17.6	0.00e+00	0	43	0	347078656	65	4764
2026-01-27 12:52:30.61	271.08	12.54	-47.5	-49.4	17.6	0.00e+00	0	43	0	349175808	65	4770
2026-01-27 12:52:31.62	271.27	12.57	-47.5	-49.4	17.6	0.00e+00	0	43	0	351272960	65	4781
2026-01-27 12:52:32.63	271.46	12.60	-47.3	-49.2	17.8	0.00e+00	0	43	0	353370112	65	4665
2026-01-27 12:52:33.63	271.65	12.62	-47.1	-48.9	18.1	0.00e+00	0	43	0	355467264	65	4496
2026-01-27 12:52:34.64	271.84	12.65	-47.0	-48.7	18.2	0.00e+00	0	43	0	356515840	65	4422
2026-01-27 12:52:35.64	272.03	12.68	-46.9	-48.7	18.3	0.00e+00	0	43	0	358612992	65	4393
2026-01-27 12:52:36.65	272.22	12.70	-46.9	-48.6	18.4	0.00e+00	0	43	0	360710144	65	4345
2026-01-27 12:52:37.66	272.41	12.73	-46.7	-48.4	18.5	0.00e+00	0	43	0	362807296	65	4275
2026-01-27 12:52:38.66	272.60	12.76	-46.8	-48.5	18.4	0.00e+00	0	43	0	363855872	65	4295
2026-01-27 12:52:39.67	272.79	12.78	-46.8	-48.5	18.5	0.00e+00	0	43	0	365953024	65	4298
2026-01-27 12:52:40.68	272.98	12.81	-46.8	-48.5	18.4	0.00e+00	0	43	0	368050176	65	4295
2026-01-27 12:52:41.69	273.18	12.83	-46.8	-48.5	18.4	0.00e+00	0	43	0	370147328	65	4338
2026-01-27 12:52:42.70	273.37	12.86	-46.9	-48.6	18.4	0.00e+00	0	43	0	372244480	65	4378
2026-01-27 12:52:43.70	273.56	12.88	-47.0	-48.7	18.3	0.00e+00	0	43	0	374341632	65	4407
2026-01-27 12:52:44.71	273.75	12.91	-46.8	-48.5	18.4	0.00e+00	0	43	0	375390208	65	4340
2026-01-27 12:52:45.71	273.94	12.93	-46.8	-48.5	18.5	0.00e+00	0	43	0	377487360	65	4316
2026-01-27 12:52:46.72	274.14	12.95	-46.9	-48.7	18.3	0.00e+00	0	43	0	379584512	65	4399
2026-01-27 12:52:47.73	274.33	12.98	-47.0	-48.7	18.3	0.00e+00	0	43	0	381681664	65	4412
2026-01-27 12:52:48.74	274.53	13.00	-46.7	-48.4	18.6	0.00e+00	0	43	0	383778816	65	4263
2026-01-27 12:52:49.75	274.72	13.02	-46.7	-48.4	18.6	0.00e+00	0	43	0	384827392	65	4257
2026-01-27 12:52:50.75	274.92	13.05	-46.7	-48.3	18.7	0.00e+00	0	43	0	386924544	65	4225
2026-01-27 12:52:51.75	275.11	13.07	-46.6	-48.3	18.7	0.00e+00	0	43	0	389021696	65	4201
2026-01-27 12:52:52.76	275.30	13.09	-46.3	-47.8	19.1	0.00e+00	0	43	0	391118848	64	4242
2026-01-27 12:52:53.77	275.50	13.11	-46.3	-47.8	19.1	0.00e+00	0	43	0	392167424	64	4230
2026-01-27 12:52:54.78	275.70	13.13	-46.3	-47.8	19.2	0.00e+00	0	43	0	394264576	64	4221
2026-01-27 12:52:55.79	275.89	13.15	-46.3	-47.9	19.1	0.00e+00	0	43	0	396361728	64	4255
2026-01-27 12:52:56.79	276.09	13.18	-46.4	-47.9	19.0	0.00e+00	0	43	0	398458880	64	4290
2026-01-27 12:52:57.80	276.28	13.20	-46.4	-48.0	19.0	0.00e+00	0	43	0	400556032	64	4316
2026-01-27 12:52:58.81	276.48	13.22	-46.6	-48.2	18.8	0.00e+00	0	43	0	402653184	64	4424
2026-01-27 12:52:59.81	276.68	13.24	-46.7	-48.3	18.6	0.00e+00	0	43	0	403701760	64	4489
2026-01-27 12:53:00.82	276.88	13.26	-46.8	-48.5	18.4	0.00e+00	0	43	0	405798912	64	4578
2026-01-27 12:53:01.83	277.07	13.28	-46.9	-48.6	18.4	0.00e+00	0	43	0	407896064	64	4629
2026-01-27 12:53:02.83	277.27	13.30	-47.0	-48.7	18.3	0.00e+00	0	43	0	409993216	64	4672
2026-01-27 12:53:03.84	277.47	13.31	-47.1	-48.8	18.2	0.00e+00	0	43	0	412090368	64	4742
2026-01-27 12:53:04.85	277.67	13.33	-47.3	-49.1	18.0	0.00e+00	0	43	0	413138944	65	4611
2026-01-27 12:53:05.85	277.86	13.35	-47.2	-49.0	18.0	0.00e+00	0	43	0	415236096	65	4579
2026-01-27 12:53:06.86	278.06	13.37	-47.3	-49.1	18.0	0.00e+00	0	43	0	417333248	65	4603
2026-01-27 12:53:07.87	278.26	13.39	-47.3	-49.1	18.0	0.00e+00	0	43	0	419430400	65	4613
2026-01-27 12:53:08.88	278.46	13.40	-47.2	-48.9	18.1	0.00e+00	0	43	0	420478976	65	4533
2026-01-27 12:53:09.89	278.66	13.42	-47.1	-48.9	18.1	0.00e+00	0	43	0	422576128	65	4530
2026-01-27 12:53:10.90	278.86	13.44	-47.2	-49.0	18.1	0.00e+00	0	43	0	424673280	65	4559
2026-01-27 12:53:11.91	279.06	13.46	-47.2	-49.0	18.0	0.00e+00	0	43	0	426770432	65	4591
2026-01-27 12:53:12.91	279.26	13.47	-47.3	-49.2	17.9	0.00e+00	0	43	0	428867584	65	4667
2026-01-27 12:53:13.92	279.46	13.49	-47.4	-49.3	17.7	0.00e+00	0	43	0	430964736	65	4738
2026-01-27 12:53:14.93	279.66	13.50	-47.5	-49.3	17.7	0.00e+00	0	42	0	432013312	65	4755
2026-01-27 12:53:15.93	279.86	13.52	-47.5	-49.3	17.7	0.00e+00	0	43	0	434110464	65	4749
2026-01-27 12:53:16.94	280.06	13.53	-47.5	-49.4	17.7	0.00e+00	0	43	0	436207616	65	4760
2026-01-27 12:53:17.95	280.27	13.55	-47.5	-49.3	17.7	0.00e+00	0	43	0	438304768	65	4753
2026-01-27 12:53:18.96	280.47	13.56	-47.4	-49.3	17.7	0.00e+00	0	43	0	440401920	65	4724
2026-01-27 12:53:19.97	280.67	13.58	-47.4	-49.3	17.8	0.00e+00	0	43	0	441450496	65	4706
2026-01-27 12:53:20.97	280.87	13.59	-47.4	-49.2	17.8	0.00e+00	0	43	0	443547648	65	4678
2026-01-27 12:53:21.98	281.07	13.60	-47.4	-49.2	17.8	0.00e+00	0	43	0	445644800	65	4697
2026-01-27 12:53:22.99	281.27	13.62	-47.3	-49.1	17.9	0.00e+00	0	43	0	447741952	65	4633
2026-01-27 12:53:24.00	281.48	13.63	-47.3	-49.1	18.0	0.00e+00	0	43	0	449839104	65	4614
2026-01-27 12:53:25.00	281.68	13.64	-47.3	-49.1	17.9	0.00e+00	0	43	0	450887680	65	4643
2026-01-27 12:53:26.01	281.88	13.65	-47.3	-49.2	17.9	0.00e+00	0	43	0	452984832	65	4659
2026-01-27 12:53:27.02	282.08	13.67	-47.3	-49.1	18.0	0.00e+00	0	43	0	455081984	65	4639
2026-01-27 12:53:28.03	282.29	13.68	-47.4	-49.2	17.9	0.00e+00	0	43	0	457179136	65	4667
2026-01-27 12:53:29.04	282.49	13.69	-47.4	-49.2	18.0	0.00e+00	0	43	0	459276288	65	4653
2026-01-27 12:53:30.05	282.69	13.70	-47.2	-49.0	18.1	0.00e+00	0	43	0	460324864	65	4570
2026-01-27 12:53:31.05	282.90	13.71	-47.2	-48.9	18.2	0.00e+00	0	43	0	462422016	65	4525
2026-01-27 12:53:32.06	283.10	13.72	-47.1	-48.8	18.3	0.00e+00	0	43	0	464519168	65	4480
2026-01-27 12:53:33.07	283.30	13.73	-47.2	-48.9	18.1	0.00e+00	0	43	0	466616320	65	4544
2026-01-27 12:53:34.07	283.51	13.74	-47.2	-49.0	18.2	0.00e+00	0	43	0	468713472	65	4546
2026-01-27 12:53:35.08	283.71	13.75	-47.3	-49.0	18.1	0.00e+00	0	43	0	469762048	65	4597
2026-01-27 12:53:36.09	283.91	13.76	-47.3	-49.1	17.9	0.00e+00	0	43	0	471859200	65	4648
2026-01-27 12:53:37.09	284.12	13.77	-47.4	-49.2	17.9	0.00e+00	0	43	0	473956352	65	4667
2026-01-27 12:53:38.10	284.32	13.77	-47.5	-49.3	17.8	0.00e+00	0	43	0	476053504	65	4752
2026-01-27 12:53:39.11	284.53	13.78	-47.4	-49.1	18.0	0.00e+00	0	43	0	478150656	65	4645
2026-01-27 12:53:40.12	284.73	13.79	-47.3	-49.1	18.0	0.00e+00	0	43	0	479199232	65	4641
2026-01-27 12:53:41.12	284.93	13.80	-47.2	-48.9	18.2	0.00e+00	0	43	0	481296384	65	4532
2026-01-27 12:53:42.13	285.14	13.80	-47.1	-48.8	18.3	0.00e+00	0	43	0	483393536	65	4464
2026-01-27 12:53:43.13	285.34	13.81	-47.0	-48.7	18.4	0.00e+00	0	43	0	485490688	65	4429
2026-01-27 12:53:44.14	285.55	13.82	-47.0	-48.7	18.4	0.00e+00	0	43	0	487587840	65	4403
2026-01-27 12:53:45.15	285.75	13.82	-47.0	-48.7	18.4	0.00e+00	0	43	0	488636416	65	4410
2026-01-27 12:53:46.16	285.96	13.83	-47.0	-48.7	18.4	0.00e+00	0	43	0	490733568	65	4434
2026-01-27 12:53:47.17	286.16	13.83	-47.0	-48.6	18.5	0.00e+00	0	43	0	492830720	65	4381
2026-01-27 12:53:48.17	286.37	13.84	-47.1	-48.8	18.4	0.00e+00	0	43	0	494927872	65	4451
2026-01-27 12:53:49.18	286.57	13.84	-46.9	-48.6	18.6	0.00e+00	0	43	0	497025024	65	4353
2026-01-27 12:53:50.19	286.78	13.85	-47.0	-48.7	18.4	0.00e+00	0	43	0	498073600	65	4423
2026-01-27 12:53:51.20	286.98	13.85	-47.0	-48.7	18.5	0.00e+00	0	43	0	500170752	65	4404
2026-01-27 12:53:52.21	287.19	13.85	-47.1	-48.7	18.4	0.00e+00	0	43	0	502267904	65	4438
2026-01-27 12:53:53.21	287.39	13.86	-47.1	-48.8	18.4	0.00e+00	0	43	0	504365056	65	4447
2026-01-27 12:53:54.22	287.60	13.86	-47.1	-48.8	18.4	0.00e+00	0	43	0	506462208	65	4450
2026-01-27 12:53:55.23	287.80	13.86	-47.0	-48.6	18.5	0.00e+00	0	43	0	507510784	65	4382
2026-01-27 12:53:56.23	288.01	13.86	-46.8	-48.5	18.7	0.00e+00	0	43	0	509607936	65	4302
2026-01-27 12:53:57.24	288.21	13.87	-46.8	-48.4	18.8	0.00e+00	0	43	0	511705088	65	4254
2026-01-27 12:53:58.25	288.42	13.87	-46.6	-48.2	19.0	0.00e+00	0	43	0	513802240	65	4176
2026-01-27 12:53:59.25	288.62	13.87	-46.5	-48.1	19.1	0.00e+00	0	43	0	515899392	65	4108
2026-01-27 12:54:00.26	288.83	13.87	-46.5	-48.1	19.2	0.00e+00	0	43	0	516947968	65	4099
2026-01-27 12:54:01.27	289.03	13.87	-46.5	-48.1	19.1	0.00e+00	0	43	0	519045120	65	4111
2026-01-27 12:54:02.28	289.24	13.87	-46.5	-48.0	19.2	0.00e+00	0	43	0	521142272	64	4326
2026-01-27 12:54:03.29	289.45	13.87	-46.4	-47.9	19.2	0.00e+00	0	43	0	523239424	64	4285
2026-01-27 12:54:04.29	289.65	13.87	-46.4	-48.0	19.3	0.00e+00	0	43	0	525336576	64	4295
2026-01-27 12:54:05.30	289.86	13.87	-46.5	-48.1	19.2	0.00e+00	0	43	0	527433728	64	4341
2026-01-27 12:54:06.31	290.06	13.87	-46.6	-48.2	19.1	0.00e+00	0	43	0	528482304	64	4419
2026-01-27 12:54:07.32	290.27	13.87	-46.7	-48.2	19.1	0.00e+00	0	43	0	530579456	64	4423
2026-01-27 12:54:08.32	290.47	13.86	-46.5	-48.0	19.2	0.00e+00	0	43	0	532676608	64	4332
2026-01-27 12:54:09.33	290.68	13.86	-46.5	-48.0	19.2	0.00e+00	0	43	0	534773760	64	4326
2026-01-27 12:54:10.34	290.88	13.86	-46.4	-47.9	19.3	0.00e+00	0	43	0	535822336	64	4271
2026-01-27 12:54:11.34	291.09	13.86	-46.2	-47.7	19.5	0.00e+00	0	43	0	537919488	64	4169
2026-01-27 12:54:12.35	291.29	13.85	-46.3	-47.7	19.4	0.00e+00	0	43	0	540016640	64	4191
2026-01-27 12:54:13.35	291.50	13.85	-46.0	-47.3	19.8	0.00e+00	0	43	0	542113792	64	4004
2026-01-27 12:54:14.36	291.70	13.85	-46.1	-47.5	19.8	0.00e+00	0	43	0	544210944	63	4315
2026-01-27 12:54:15.37	291.91	13.84	-46.1	-47.5	19.8	0.00e+00	0	43	0	545259520	63	4340
2026-01-27 12:54:16.37	292.11	13.84	-46.3	-47.7	19.6	0.00e+00	0	43	0	547356672	63	4415
2026-01-27 12:54:17.38	292.32	13.83	-46.2	-47.6	19.8	0.00e+00	0	43	0	549453824	63	4353
2026-01-27 12:54:18.39	292.52	13.83	-46.3	-47.7	19.6	0.00e+00	0	43	0	551550976	63	4425
2026-01-27 12:54:19.40	292.73	13.82	-46.2	-47.6	19.8	0.00e+00	0	43	0	553648128	63	4366
2026-01-27 12:54:20.40	292.93	13.82	-46.3	-47.7	19.7	0.00e+00	0	43	0	555745280	63	4414
2026-01-27 12:54:21.41	293.13	13.81	-46.1	-47.5	19.8	0.00e+00	0	43	0	556793856	63	4318
2026-01-27 12:54:22.42	293.34	13.80	-46.0	-47.4	19.9	0.00e+00	0	43	0	558891008	63	4274
2026-01-27 12:54:23.42	293.54	13.80	-45.9	-47.3	20.0	0.00e+00	0	43	0	560988160	63	4217
2026-01-27 12:54:24.43	293.75	13.79	-45.9	-47.2	20.1	0.00e+00	0	43	0	563085312	63	4185
2026-01-27 12:54:25.44	293.95	13.78	-45.8	-47.2	20.1	0.00e+00	0	42	0	564133888	63	4161
2026-01-27 12:54:26.45	294.16	13.77	-45.9	-47.3	20.0	0.00e+00	0	43	0	566231040	63	4204
2026-01-27 12:54:27.45	294.36	13.77	-45.9	-47.3	20.0	0.00e+00	0	43	0	568328192	63	4229
2026-01-27 12:54:28.46	294.56	13.76	-46.0	-47.4	19.9	0.00e+00	0	43	0	570425344	63	4272
2026-01-27 12:54:29.47	294.77	13.75	-45.9	-47.3	20.0	0.00e+00	0	43	0	572522496	63	4194
2026-01-27 12:54:30.47	294.97	13.74	-45.8	-47.1	20.2	0.00e+00	0	43	0	573571072	63	4118
2026-01-27 12:54:31.48	295.17	13.73	-45.8	-47.2	20.1	0.00e+00	0	43	0	575668224	63	4167
2026-01-27 12:54:32.49	295.38	13.72	-45.7	-47.0	20.2	0.00e+00	0	43	0	577765376	63	4085
2026-01-27 12:54:33.50	295.58	13.71	-45.6	-47.0	20.3	0.00e+00	0	43	0	579862528	63	4056
2026-01-27 12:54:34.50	295.78	13.70	-45.5	-46.8	20.4	0.00e+00	0	43	0	581959680	63	3999
2026-01-27 12:54:35.51	295.98	13.69	-45.7	-47.0	20.2	0.00e+00	0	43	0	584056832	63	4072
2026-01-27 12:54:36.52	296.19	13.68	-45.7	-47.0	20.2	0.00e+00	0	43	0	585105408	63	4082
2026-01-27 12:54:37.53	296.39	13.67	-45.8	-47.2	20.1	0.00e+00	0	43	0	587202560	63	4160
2026-01-27 12:54:38.53	296.59	13.65	-45.9	-47.3	20.0	0.00e+00	0	43	0	589299712	63	4214
2026-01-27 12:54:39.54	296.79	13.64	-45.9	-47.3	19.9	0.00e+00	0	43	0	591396864	63	4234
2026-01-27 12:54:40.55	297.00	13.63	-46.0	-47.4	19.8	0.00e+00	0	43	0	592445440	63	4269
2026-01-27 12:54:41.55	297.20	13.62	-46.1	-47.5	19.8	0.00e+00	0	43	0	594542592	63	4318
2026-01-27 12:54:42.56	297.40	13.60	-46.0	-47.4	19.8	0.00e+00	0	43	0	596639744	63	4291
2026-01-27 12:54:43.57	297.60	13.59	-46.0	-47.4	19.8	0.00e+00	0	43	0	598736896	63	4271
2026-01-27 12:54:44.57	297.80	13.58	-46.0	-47.4	19.8	0.00e+00	0	43	0	600834048	63	4259
2026-01-27 12:54:45.58	298.00	13.56	-46.1	-47.5	19.7	0.00e+00	0	43	0	601882624	63	4317
2026-01-27 12:54:46.59	298.20	13.55	-45.9	-47.3	19.9	0.00e+00	0	43	0	603979776	63	4234
2026-01-27 12:54:47.60	298.41	13.53	-46.1	-47.5	19.7	0.00e+00	0	43	0	606076928	63	4324
2026-01-27 12:54:48.60	298.61	13.52	-46.1	-47.5	19.7	0.00e+00	0	43	0	608174080	63	4322
2026-01-27 12:54:49.61	298.81	13.50	-46.1	-47.6	19.6	0.00e+00	0	43	0	610271232	63	4350
2026-01-27 12:54:50.62	299.01	13.49	-46.1	-47.6	19.6	0.00e+00	0	43	0	612368384	63	4343
2026-01-27 12:54:51.63	299.21	13.47	-46.0	-47.5	19.7	0.00e+00	0	43	0	613416960	63	4305
2026-01-27 12:54:52.63	299.41	13.46	-45.9	-47.3	19.8	0.00e+00	0	43	0	615514112	63	4222
2026-01-27 12:54:53.64	299.61	13.44	-45.8	-47.2	19.9	0.00e+00	0	43	0	617611264	63	4177
2026-01-27 12:54:54.64	299.80	13.42	-45.7	-47.0	20.1	0.00e+00	0	43	0	619708416	63	4094
2026-01-27 12:54:55.65	300.00	13.41	-45.7	-47.0	20.1	0.00e+00	0	43	0	620756992	63	4098
2026-01-27 12:54:56.66	300.20	13.39	-45.8	-47.1	20.0	0.00e+00	0	43	0	622854144	63	4139
2026-01-27 12:54:57.67	300.40	13.37	-45.8	-47.2	19.9	0.00e+00	0	43	0	624951296	63	4173
2026-01-27 12:54:58.67	300.60	13.35	-45.9	-47.3	19.8	0.00e+00	0	43	0	627048448	63	4219
2026-01-27 12:54:59.68	300.80	13.34	-46.0	-47.4	19.7	0.00e+00	0	43	0	629145600	63	4278
2026-01-27 12:55:00.69	301.00	13.32	-46.1	-47.6	19.6	0.00e+00	0	43	0	630194176	63	4343
2026-01-27 12:55:01.69	301.19	13.30	-46.2	-47.7	19.4	0.00e+00	0	43	0	632291328	63	4425
2026-01-27 12:55:02.70	301.39	13.28	-46.3	-47.8	19.3	0.00e+00	0	43	0	634388480	63	4480
2026-01-27 12:55:03.71	301.59	13.26	-46.3	-47.8	19.4	0.00e+00	0	43	0	636485632	63	4463
2026-01-27 12:55:04.72	301.78	13.24	-46.2	-47.6	19.5	0.00e+00	0	43	0	638582784	63	4387
2026-01-27 12:55:05.73	301.98	13.22	-46.1	-47.6	19.5	0.00e+00	0	43	0	640679936	63	4368
2026-01-27 12:55:06.73	302.18	13.20	-46.0	-47.5	19.6	0.00e+00	0	43	0	641728512	63	4301
2026-01-27 12:55:07.74	302.37	13.18	-45.9	-47.3	19.8	0.00e+00	0	43	0	643825664	63	4227
2026-01-27 12:55:08.74	302.57	13.16	-45.8	-47.2	19.9	0.00e+00	0	43	0	645922816	63	4149
2026-01-27 12:55:09.75	302.76	13.14	-45.7	-47.0	20.0	0.00e+00	0	43	0	648019968	63	4096
2026-01-27 12:55:10.76	302.96	13.12	-45.7	-47.0	20.0	0.00e+00	0	43	0	649068544	63	4091
2026-01-27 12:55:11.77	303.16	13.09	-45.6	-46.9	20.2	0.00e+00	0	43	0	651165696	63	4041
2026-01-27 12:55:12.77	303.35	13.07	-45.5	-46.8	20.2	0.00e+00	0	43	0	653262848	63	3989
2026-01-27 12:55:13.78	303.54	13.05	-45.5	-46.9	20.2	0.00e+00	0	43	0	655360000	63	4009
2026-01-27 12:55:14.79	303.74	13.03	-45.5	-46.8	20.3	0.00e+00	0	43	0	657457152	62	4211
2026-01-27 12:55:15.79	303.93	13.00	-45.4	-46.7	20.4	0.00e+00	0	43	0	659554304	62	4163
2026-01-27 12:55:16.80	304.12	12.98	-45.5	-46.8	20.2	0.00e+00	0	43	0	660602880	62	4212
2026-01-27 12:55:17.81	304.32	12.96	-45.6	-46.9	20.1	0.00e+00	0	43	0	662700032	62	4264
2026-01-27 12:55:18.82	304.51	12.93	-45.5	-46.9	20.2	0.00e+00	0	43	0	664797184	62	4254
2026-01-27 12:55:19.83	304.70	12.91	-45.6	-46.9	20.1	0.00e+00	0	43	0	666894336	62	4282
2026-01-27 12:55:20.83	304.90	12.89	-45.7	-47.1	20.0	0.00e+00	0	43	0	668991488	62	4350
2026-01-27 12:55:21.84	305.09	12.86	-45.7	-47.1	19.9	0.00e+00	0	43	0	670040064	62	4379
2026-01-27 12:55:22.85	305.28	12.84	-45.9	-47.3	19.7	0.00e+00	0	43	0	672137216	62	4470
2026-01-27 12:55:23.85	305.47	12.81	-45.9	-47.3	19.8	0.00e+00	0	42	0	674234368	62	4453
2026-01-27 12:55:24.86	305.66	12.79	-45.9	-47.3	19.7	0.00e+00	0	43	0	676331520	62	4469
2026-01-27 12:55:25.87	305.85	12.76	-45.9	-47.3	19.7	0.00e+00	0	43	0	677380096	62	4488
2026-01-27 12:55:26.87	306.04	12.74	-45.7	-47.1	19.9	0.00e+00	0	43	0	679477248	62	4381
2026-01-27 12:55:27.88	306.23	12.71	-45.5	-46.9	20.1	0.00e+00	0	43	0	681574400	62	4262
2026-01-27 12:55:28.89	306.42	12.68	-45.5	-46.8	20.2	0.00e+00	0	43	0	683671552	62	4232
2026-01-27 12:55:29.90	306.61	12.66	-45.4	-46.8	20.2	0.00e+00	0	43	0	685768704	62	4208
2026-01-27 12:55:30.91	306.80	12.63	-45.4	-46.7	20.3	0.00e+00	0	43	0	687865856	62	4181
2026-01-27 12:55:31.91	306.99	12.60	-45.5	-46.8	20.2	0.00e+00	0	43	0	688914432	62	4227
2026-01-27 12:55:32.92	307.18	12.57	-45.5	-46.8	20.1	0.00e+00	0	43	0	691011584	62	4237
2026-01-27 12:55:33.93	307.37	12.55	-45.5	-46.9	20.1	0.00e+00	0	43	0	693108736	62	4244
2026-01-27 12:55:34.94	307.56	12.52	-45.5	-46.8	20.1	0.00e+00	0	43	0	695205888	62	4239
2026-01-27 12:55:35.94	307.74	12.49	-45.6	-46.9	20.0	0.00e+00	0	43	0	697303040	62	4280
2026-01-27 12:55:36.95	307.93	12.46	-45.6	-47.0	19.9	0.00e+00	0	43	0	698351616	62	4313
2026-01-27 12:55:37.96	308.12	12.43	-45.7	-47.0	19.9	0.00e+00	0	43	0	700448768	62	4339
2026-01-27 12:55:38.96	308.30	12.41	-45.6	-46.9	20.0	0.00e+00	0	43	0	702545920	62	4285
2026-01-27 12:55:39.97	308.49	12.38	-45.7	-47.1	19.8	0.00e+00	0	43	0	704643072	62	4372
2026-01-27 12:55:40.97	308.67	12.35	-45.7	-47.2	19.8	0.00e+00	0	43	0	705691648	62	4393
2026-01-27 12:55:41.98	308.86	12.32	-45.7	-47.1	19.8	0.00e+00	0	43	0	707788800	62	4364
2026-01-27 12:55:42.99	309.04	12.29	-45.8	-47.2	19.7	0.00e+00	0	43	0	709885952	62	4416
2026-01-27 12:55:44.00	309.23	12.26	-45.7	-47.1	19.8	0.00e+00	0	43	0	711983104	62	4380
2026-01-27 12:55:45.00	309.41	12.23	-45.7	-47.1	19.7	0.00e+00	0	43	0	714080256	62	4373
2026-01-27 12:55:46.00	309.59	12.20	-45.7	-47.1	19.6	0.00e+00	0	43	0	716177408	62	4369
2026-01-27 12:55:47.01	309.78	12.17	-45.6	-47.0	19.9	0.00e+00	0	43	0	717225984	62	4309
2026-01-27 12:55:48.02	309.96	12.14	-45.6	-47.0	19.9	0.00e+00	0	43	0	719323136	62	4313
2026-01-27 12:55:49.03	310.14	12.11	-45.6	-47.0	19.9	0.00e+00	0	43	0	721420288	62	4300
2026-01-27 12:55:50.04	310.33	12.07	-45.6	-47.0	19.8	0.00e+00	0	43	0	723517440	62	4322
2026-01-27 12:55:51.04	310.51	12.04	-45.5	-46.9	19.9	0.00e+00	0	43	0	725614592	62	4271
2026-01-27 12:55:52.04	310.69	12.01	-45.7	-47.1	19.8	0.00e+00	0	43	0	726663168	62	4352
2026-01-27 12:55:53.05	310.87	11.98	-45.6	-47.0	19.8	0.00e+00	0	43	0	728760320	62	4312
2026-01-27 12:55:54.06	311.05	11.95	-45.7	-47.1	19.7	0.00e+00	0	43	0	730857472	62	4358
2026-01-27 12:55:55.06	311.23	11.92	-45.7	-47.1	19.7	0.00e+00	0	43	0	732954624	62	4385
2026-01-27 12:55:56.07	311.41	11.88	-45.6	-47.0	19.8	0.00e+00	0	43	0	734003200	62	4331
2026-01-27 12:55:57.08	311.59	11.85	-45.7	-47.1	19.5	0.00e+00	0	43	0	736100352	62	4360
2026-01-27 12:55:58.08	311.77	11.82	-45.7	-47.2	19.3	0.00e+00	0	43	0	738197504	62	4396
2026-01-27 12:55:59.09	311.95	11.78	-45.6	-47.1	19.5	0.00e+00	0	43	0	740294656	62	4349
2026-01-27 12:56:00.09	312.13	11.75	-45.8	-47.3	19.4	0.00e+00	0	43	0	742391808	62	4458
2026-01-27 12:56:01.08	312.30	11.72	-45.9	-47.4	19.3	0.00e+00	0	43	0	743440384	62	4526
2026-01-27 12:56:02.09	312.48	11.68	-46.0	-47.5	19.3	0.00e+00	0	43	0	745537536	62	4557
2026-01-27 12:56:03.10	312.66	11.65	-46.1	-47.6	19.2	0.00e+00	0	43	0	747634688	62	4634
2026-01-27 12:56:04.11	312.83	11.62	-46.1	-47.6	19.2	0.00e+00	0	43	0	749731840	62	4640
2026-01-27 12:56:05.12	313.01	11.58	-46.2	-47.7	19.2	0.00e+00	0	43	0	751828992	63	4430
2026-01-27 12:56:06.12	313.19	11.55	-46.2	-47.7	19.2	0.00e+00	0	43	0	753926144	63	4415
2026-01-27 12:56:07.13	313.36	11.51	-46.3	-47.8	19.1	0.00e+00	0	43	0	754974720	63	4493
2026-01-27 12:56:08.14	313.54	11.48	-46.4	-47.9	18.9	0.00e+00	0	43	0	757071872	63	4535
2026-01-27 12:56:09.15	313.71	11.44	-46.4	-48.0	18.6	0.00e+00	0	43	0	759169024	63	4546
2026-01-27 12:56:10.16	313.89	11.41	-46.6	-48.2	18.3	0.00e+00	0	43	0	761266176	63	4686
2026-01-27 12:56:11.17	314.06	11.37	-46.6	-48.3	18.2	0.00e+00	0	43	0	762314752	63	4728
2026-01-27 12:56:12.17	314.23	11.34	-46.7	-48.4	18.1	0.00e+00	0	43	0	764411904	64	4545
2026-01-27 12:56:13.18	314.41	11.30	-46.8	-48.6	18.0	0.00e+00	0	43	0	766509056	64	4614
2026-01-27 12:56:14.18	314.58	11.26	-47.0	-48.7	17.8	0.00e+00	0	43	0	768606208	64	4693
2026-01-27 12:56:15.19	314.75	11.23	-47.0	-48.8	17.6	0.00e+00	0	43	0	770703360	64	4738
2026-01-27 12:56:16.20	314.92	11.19	-47.0	-48.8	17.8	0.00e+00	0	43	0	772800512	64	4724
2026-01-27 12:56:17.20	315.09	11.16	-46.8	-48.6	18.1	0.00e+00	0	43	0	773849088	64	4628
2026-01-27 12:56:18.21	315.27	11.12	-46.8	-48.6	18.1	0.00e+00	0	43	0	775946240	64	4622
2026-01-27 12:56:19.22	315.44	11.08	-46.7	-48.4	18.4	0.00e+00	0	43	0	778043392	64	4525
2026-01-27 12:56:20.23	315.61	11.04	-46.7	-48.4	18.3	0.00e+00	0	43	0	780140544	64	4523
2026-01-27 12:56:21.24	315.78	11.01	-46.7	-48.5	18.2	0.00e+00	0	43	0	782237696	64	4552
2026-01-27 12:56:22.24	315.95	10.97	-46.8	-48.6	17.9	0.00e+00	0	43	0	783286272	64	4615
2026-01-27 12:56:23.25	316.12	10.93	-46.8	-48.6	17.9	0.00e+00	0	43	0	785383424	64	4620
2026-01-27 12:56:24.26	316.29	10.89	-46.9	-48.7	17.6	0.00e+00	0	43	0	787480576	64	4704
2026-01-27 12:56:25.27	316.45	10.86	-47.2	-49.0	17.3	0.00e+00	0	42	0	789577728	64	4860
2026-01-27 12:56:26.27	316.62	10.82	-47.2	-49.1	17.4	0.00e+00	0	43	0	790626304	65	4630
2026-01-27 12:56:27.28	316.79	10.78	-47.4	-49.3	17.3	0.00e+00	0	43	0	792723456	65	4727
2026-01-27 12:56:28.29	316.96	10.74	-47.5	-49.5	17.1	0.00e+00	0	43	0	794820608	65	4858
2026-01-27 12:56:29.30	317.12	10.70	-47.6	-49.6	17.0	0.00e+00	0	43	0	796917760	65	4926
2026-01-27 12:56:30.31	317.29	10.66	-47.7	-49.8	16.9	0.00e+00	0	43	0	799014912	66	4728
2026-01-27 12:56:31.31	317.45	10.63	-47.9	-50.0	16.7	0.00e+00	0	43	0	801112064	66	4856
2026-01-27 12:56:32.32	317.62	10.59	-48.0	-50.2	16.5	0.00e+00	0	43	0	802160640	66	4967
2026-01-27 12:56:33.33	317.78	10.55	-48.3	-50.6	16.0	0.00e+00	0	43	0	804257792	67	4922
2026-01-27 12:56:34.34	317.95	10.51	-48.5	-50.9	15.8	0.00e+00	0	43	0	806354944	67	5073
2026-01-27 12:56:35.35	318.11	10.47	-48.6	-51.1	15.6	0.00e+00	0	43	0	808452096	67	5208
2026-01-27 12:56:36.35	318.28	10.43	-48.7	-51.2	15.4	0.00e+00	0	43	0	810549248	67	5268
2026-01-27 12:56:37.36	318.44	10.39	-48.6	-51.2	15.4	0.00e+00	0	43	0	811597824	67	5241
2026-01-27 12:56:38.37	318.60	10.35	-48.7	-51.2	15.5	0.00e+00	0	43	0	813694976	67	5276
2026-01-27 12:56:39.38	318.77	10.31	-48.5	-50.9	15.8	0.00e+00	0	43	0	815792128	67	5097
2026-01-27 12:56:40.39	318.93	10.27	-48.3	-50.7	16.1	0.00e+00	0	43	0	817889280	67	4932
2026-01-27 12:56:41.39	319.09	10.23	-48.1	-50.4	16.3	0.00e+00	0	43	0	819986432	67	4785
2026-01-27 12:56:42.40	319.25	10.19	-48.1	-50.4	16.3	0.00e+00	0	43	0	821035008	67	4789
2026-01-27 12:56:43.40	319.41	10.15	-47.9	-50.1	16.6	0.00e+00	0	43	0	823132160	67	4651
2026-01-27 12:56:44.41	319.57	10.11	-47.9	-50.0	16.7	0.00e+00	0	43	0	825229312	67	4575
2026-01-27 12:56:45.42	319.73	10.07	-47.9	-50.1	16.6	0.00e+00	0	43	0	827326464	67	4607
2026-01-27 12:56:46.42	319.89	10.03	-47.8	-50.0	16.7	0.00e+00	0	43	0	829423616	67	4562
2026-01-27 12:56:47.43	320.05	9.99	-47.8	-49.9	16.7	0.00e+00	0	43	0	830472192	67	4541
2026-01-27 12:56:48.43	320.20	9.95	-47.8	-50.0	16.7	0.00e+00	0	43	0	832569344	67	4551
2026-01-27 12:56:49.44	320.36	9.91	-47.8	-50.0	16.7	0.00e+00	0	43	0	834666496	67	4547
2026-01-27 12:56:50.45	320.52	9.86	-47.9	-50.1	16.6	0.00e+00	0	43	0	836763648	67	4609
2026-01-27 12:56:51.46	320.68	9.82	-48.0	-50.3	16.4	0.00e+00	0	43	0	838860800	67	4725
2026-01-27 12:56:52.47	320.83	9.78	-48.2	-50.5	16.2	0.00e+00	0	43	0	839909376	67	4840
2026-01-27 12:56:53.48	320.99	9.74	-48.2	-50.5	16.1	0.00e+00	0	43	0	842006528	67	4863
2026-01-27 12:56:54.49	321.15	9.70	-48.3	-50.6	16.0	0.00e+00	0	43	0	844103680	67	4923
2026-01-27 12:56:55.49	321.30	9.66	-48.3	-50.6	16.1	0.00e+00	0	43	0	846200832	67	4903
2026-01-27 12:56:56.50	321.46	9.61	-48.3	-50.7	15.9	0.00e+00	0	43	0	848297984	67	4972
2026-01-27 12:56:57.50	321.61	9.57	-48.3	-50.7	15.9	0.00e+00	0	43	0	849346560	67	4963
2026-01-27 12:56:58.51	321.76	9.53	-48.3	-50.7	15.9	0.00e+00	0	43	0	851443712	67	4967
2026-01-27 12:56:59.52	321.92	9.49	-48.2	-50.6	16.0	0.00e+00	0	43	0	853540864	67	4881
2026-01-27 12:57:00.52	322.07	9.44	-47.9	-50.1	16.5	0.00e+00	0	43	0	855638016	67	4624
2026-01-27 12:57:01.53	322.22	9.40	-47.8	-49.9	16.7	0.00e+00	0	43	0	857735168	67	4527
2026-01-27 12:57:02.54	322.38	9.36	-47.8	-50.0	16.6	0.00e+00	0	43	0	858783744	67	4546
2026-01-27 12:57:03.55	322.53	9.32	-47.7	-49.9	16.7	0.00e+00	0	43	0	860880896	67	4498
2026-01-27 12:57:04.55	322.68	9.27	-47.6	-49.6	17.0	0.00e+00	0	43	0	862978048	67	4380
2026-01-27 12:57:05.55	322.83	9.23	-47.6	-49.7	16.9	0.00e+00	0	43	0	865075200	67	4427
2026-01-27 12:57:06.56	322.98	9.19	-47.8	-49.9	16.7	0.00e+00	0	43	0	867172352	67	4528
2026-01-27 12:57:07.57	323.13	9.15	-47.8	-50.0	16.6	0.00e+00	0	43	0	868220928	67	4569
2026-01-27 12:57:08.57	323.28	9.10	-47.8	-50.0	16.7	0.00e+00	0	43	0	870318080	67	4562
2026-01-27 12:57:09.58	323.43	9.06	-47.8	-50.0	16.7	0.00e+00	0	43	0	872415232	67	4574
2026-01-27 12:57:10.59	323.58	9.02	-47.8	-50.0	16.6	0.00e+00	0	43	0	874512384	67	4574
2026-01-27 12:57:11.60	323.73	8.97	-47.6	-49.7	16.9	0.00e+00	0	43	0	876609536	67	4413
2026-01-27 12:57:12.60	323.87	8.93	-47.4	-49.5	17.1	0.00e+00	0	43	0	877658112	66	4557
2026-01-27 12:57:13.61	324.02	8.89	-47.4	-49.4	17.2	0.00e+00	0	43	0	879755264	66	4519
2026-01-27 12:57:14.62	324.17	8.84	-47.3	-49.2	17.4	0.00e+00	0	43	0	881852416	66	4416
2026-01-27 12:57:15.62	324.32	8.80	-47.0	-48.9	17.6	0.00e+00	0	43	0	883949568	66	4279
2026-01-27 12:57:16.63	324.46	8.75	-47.1	-49.0	17.6	0.00e+00	0	43	0	886046720	66	4296
2026-01-27 12:57:17.64	324.61	8.71	-47.1	-49.0	17.6	0.00e+00	0	43	0	887095296	66	4335
2026-01-27 12:57:18.64	324.75	8.67	-47.2	-49.1	17.4	0.00e+00	0	43	0	889192448	66	4369
2026-01-27 12:57:19.65	324.90	8.62	-47.2	-49.2	17.4	0.00e+00	0	43	0	891289600	66	4418
2026-01-27 12:57:20.66	325.04	8.58	-47.3	-49.2	17.3	0.00e+00	0	43	0	893386752	66	4429
2026-01-27 12:57:21.67	325.19	8.53	-47.5	-49.6	17.0	0.00e+00	0	43	0	895483904	66	4636
2026-01-27 12:57:22.67	325.33	8.49	-47.4	-49.4	17.2	0.00e+00	0	43	0	896532480	66	4504
2026-01-27 12:57:23.68	325.47	8.44	-47.4	-49.5	17.1	0.00e+00	0	43	0	898629632	66	4563
2026-01-27 12:57:24.69	325.62	8.40	-47.4	-49.4	17.1	0.00e+00	0	43	0	900726784	66	4525
2026-01-27 12:57:25.69	325.76	8.36	-47.4	-49.4	17.1	0.00e+00	0	43	0	902823936	66	4527
2026-01-27 12:57:26.70	325.90	8.31	-47.4	-49.5	17.1	0.00e+00	0	43	0	904921088	66	4553
2026-01-27 12:57:27.71	326.04	8.27	-47.4	-49.4	17.1	0.00e+00	0	43	0	905969664	66	4514
2026-01-27 12:57:28.71	326.18	8.22	-47.4	-49.4	17.1	0.00e+00	0	43	0	908066816	66	4537
2026-01-27 12:57:29.72	326.33	8.18	-47.5	-49.6	17.0	0.00e+00	0	43	0	910163968	66	4606
2026-01-27 12:57:30.73	326.47	8.13	-47.5	-49.6	16.9	0.00e+00	0	43	0	912261120	66	4621
2026-01-27 12:57:31.73	326.61	8.09	-47.6	-49.8	16.7	0.00e+00	0	43	0	914358272	66	4716
2026-01-27 12:57:32.74	326.74	8.04	-47.7	-49.9	16.6	0.00e+00	0	43	0	915406848	66	4764
2026-01-27 12:57:33.75	326.88	8.00	-47.5	-49.6	16.9	0.00e+00	0	43	0	917504000	66	4623
2026-01-27 12:57:34.76	327.02	7.95	-47.3	-49.3	17.2	0.00e+00	0	43	0	919601152	66	4470
2026-01-27 12:57:35.77	327.16	7.91	-47.1	-49.0	17.5	0.00e+00	0	43	0	921698304	66	4335
2026-01-27 12:57:36.77	327.30	7.86	-47.0	-48.9	17.6	0.00e+00	0	43	0	923795456	66	4284
2026-01-27 12:57:37.78	327.44	7.82	-46.7	-48.5	17.9	0.00e+00	0	43	0	924844032	65	4335
2026-01-27 12:57:38.79	327.57	7.77	-46.6	-48.4	18.0	0.00e+00	0	43	0	926941184	65	4271
2026-01-27 12:57:39.80	327.71	7.72	-46.6	-48.3	18.1	0.00e+00	0	43	0	929038336	65	4222
2026-01-27 12:57:40.81	327.85	7.68	-46.6	-48.3	18.1	0.00e+00	0	43	0	931135488	64	4485
2026-01-27 12:57:41.81	327.98	7.63	-46.5	-48.3	18.2	0.00e+00	0	43	0	933232640	64	4448
2026-01-27 12:57:42.82	328.12	7.59	-46.5	-48.2	18.2	0.00e+00	0	43	0	934281216	64	4440
2026-01-27 12:57:43.83	328.25	7.54	-46.6	-48.4	18.0	0.00e+00	0	43	0	936378368	64	4517
2026-01-27 12:57:44.84	328.39	7.50	-46.7	-48.6	17.9	0.00e+00	0	43	0	938475520	64	4601
2026-01-27 12:57:45.85	328.52	7.45	-46.7	-48.5	17.9	0.00e+00	0	43	0	940572672	64	4562
2026-01-27 12:57:46.85	328.66	7.41	-46.7	-48.5	17.9	0.00e+00	0	43	0	942669824	64	4584
2026-01-27 12:57:47.85	328.79	7.36	-46.7	-48.5	17.9	0.00e+00	0	43	0	943718400	64	4578
2026-01-27 12:57:48.86	328.92	7.31	-46.8	-48.6	17.8	0.00e+00	0	43	0	945815552	64	4632
2026-01-27 12:57:49.87	329.06	7.27	-46.7	-48.5	17.9	0.00e+00	0	43	0	947912704	64	4584
2026-01-27 12:57:50.88	329.19	7.22	-46.6	-48.4	18.0	0.00e+00	0	43	0	950009856	64	4518
2026-01-27 12:57:51.88	329.32	7.18	-46.7	-48.5	17.9	0.00e+00	0	43	0	952107008	64	4597
2026-01-27 12:57:52.88	329.45	7.13	-46.6	-48.4	17.9	0.00e+00	0	43	0	953155584	64	4513
2026-01-27 12:57:53.89	329.58	7.08	-46.5	-48.3	18.0	0.00e+00	0	43	0	955252736	64	4473
2026-01-27 12:57:54.90	329.71	7.04	-46.4	-48.2	18.2	0.00e+00	0	43	0	957349888	64	4403
2026-01-27 12:57:55.91	329.84	6.99	-46.5	-48.3	18.1	0.00e+00	0	43	0	959447040	64	4466
2026-01-27 12:57:56.91	329.97	6.95	-46.6	-48.4	17.9	0.00e+00	0	43	0	961544192	64	4531
2026-01-27 12:57:57.92	330.10	6.90	-46.9	-48.7	17.6	0.00e+00	0	43	0	962592768	64	4695
2026-01-27 12:57:58.93	330.23	6.85	-46.8	-48.7	17.7	0.00e+00	0	43	0	964689920	64	4691
2026-01-27 12:57:59.94	330.36	6.81	-47.0	-48.9	17.4	0.00e+00	0	43	0	966787072	64	4793
2026-01-27 12:58:00.94	330.49	6.76	-47.0	-49.0	17.4	0.00e+00	0	43	0	968884224	64	4817
2026-01-27 12:58:01.94	330.61	6.71	-46.9	-48.8	17.6	0.00e+00	0	43	0	970981376	64	4721
2026-01-27 12:58:02.95	330.74	6.67	-46.9	-48.8	17.5	0.00e+00	0	43	0	972029952	64	4743
2026-01-27 12:58:03.95	330.87	6.62	-46.8	-48.7	17.6	0.00e+00	0	43	0	974127104	64	4685
2026-01-27 12:58:04.96	331.00	6.57	-46.6	-48.5	17.8	0.00e+00	0	43	0	976224256	64	4560
2026-01-27 12:58:05.97	331.12	6.53	-46.6	-48.5	17.8	0.00e+00	0	43	0	978321408	64	4570
2026-01-27 12:58:06.98	331.25	6.48	-46.5	-48.4	17.9	0.00e+00	0	43	0	980418560	64	4497
2026-01-27 12:58:07.98	331.37	6.44	-46.6	-48.4	17.9	0.00e+00	0	43	0	981467136	64	4522
2026-01-27 12:58:08.99	331.50	6.39	-46.7	-48.6	17.6	0.00e+00	0	43	0	983564288	64	4639
2026-01-27 12:58:10.00	331.62	6.34	-46.4	-48.1	18.1	0.00e+00	0	43	0	985661440	64	4381
2026-01-27 12:58:11.00	331.75	6.30	-46.6	-48.4	17.9	0.00e+00	0	43	0	987758592	64	4511
2026-01-27 12:58:12.01	331.87	6.25	-46.5	-48.3	17.9	0.00e+00	0	43	0	989855744	64	4463
2026-01-27 12:58:13.02	332.00	6.20	-46.7	-48.6	17.7	0.00e+00	0	43	0	990904320	64	4619
2026-01-27 12:58:14.03	332.12	6.15	-46.7	-48.5	17.7	0.00e+00	0	43	0	993001472	64	4593
2026-01-27 12:58:15.03	332.24	6.11	-46.7	-48.6	17.6	0.00e+00	0	43	0	995098624	64	4616
2026-01-27 12:58:16.03	332.36	6.06	-46.7	-48.5	17.7	0.00e+00	0	43	0	997195776	64	4595
2026-01-27 12:58:17.03	332.48	6.02	-46.7	-48.6	17.6	0.00e+00	0	43	0	999292928	64	4634
2026-01-27 12:58:18.04	332.61	5.97	-46.7	-48.6	17.6	0.00e+00	0	43	0	1000341504	64	4636
2026-01-27 12:58:19.05	332.73	5.92	-46.7	-48.6	17.6	0.00e+00	0	43	0	1002438656	64	4628
2026-01-27 12:58:20.05	332.85	5.88	-46.7	-48.6	17.6	0.00e+00	0	43	0	1004535808	64	4628
2026-01-27 12:58:21.06	332.97	5.83	-46.7	-48.5	17.6	0.00e+00	0	43	0	1006632960	64	4592
2026-01-27 12:58:22.07	333.09	5.78	-46.7	-48.6	17.6	0.00e+00	0	43	0	1008730112	64	4619
2026-01-27 12:58:23.08	333.21	5.73	-46.6	-48.4	17.7	0.00e+00	0	43	0	1009778688	64	4537
2026-01-27 12:58:24.09	333.33	5.69	-46.7	-48.6	17.5	0.00e+00	0	43	0	1011875840	64	4640
2026-01-27 12:58:25.10	333.45	5.64	-46.7	-48.6	17.6	0.00e+00	0	43	0	1013972992	64	4629
2026-01-27 12:58:26.11	333.57	5.59	-46.8	-48.8	17.3	0.00e+00	0	43	0	1016070144	64	4743
2026-01-27 12:58:27.12	333.69	5.55	-47.0	-49.0	17.1	0.00e+00	0	43	0	1018167296	64	4842
2026-01-27 12:58:28.13	333.81	5.50	-46.9	-49.0	17.1	0.00e+00	0	43	0	1019215872	64	4818
2026-01-27 12:58:29.14	333.92	5.45	-47.1	-49.2	16.8	0.00e+00	0	43	0	1021313024	64	4964
2026-01-27 12:58:30.14	334.04	5.40	-47.1	-49.3	16.7	0.00e+00	0	43	0	1023410176	64	4990
2026-01-27 12:58:31.15	334.16	5.36	-47.4	-49.7	16.1	0.00e+00	0	43	0	1025507328	65	4964
2026-01-27 12:58:32.16	334.28	5.31	-47.3	-49.7	16.1	0.00e+00	0	43	0	1027604480	65	4938
2026-01-27 12:58:33.16	334.39	5.26	-46.9	-49.1	16.6	0.00e+00	0	43	0	1028653056	65	4631
2026-01-27 12:58:34.17	334.51	5.22	-46.4	-48.4	17.2	0.00e+00	0	43	0	1030750208	64	4508
2026-01-27 12:58:35.17	334.62	5.17	-46.4	-48.3	17.3	0.00e+00	0	43	0	1032847360	64	4486
2026-01-27 12:58:36.18	334.74	5.12	-46.6	-48.7	16.8	0.00e+00	0	43	0	1034944512	64	4684
2026-01-27 12:58:37.19	334.85	5.08	-46.2	-48.2	17.2	0.00e+00	0	43	0	1037041664	64	4408
2026-01-27 12:58:38.19	334.97	5.03	-46.9	-49.1	16.6	0.00e+00	0	43	0	1038090240	64	4892
2026-01-27 12:58:39.20	335.08	4.98	-52.5	-67.3	3.8	7.53e-01	0	43	104	1039138816	75	21147
2026-01-27 12:58:40.21	335.19	4.93	-52.8	-67.8	3.8	1.49e+00	0	43	104	1039138816	76	21128
2026-01-27 12:58:41.22	335.31	4.89	-53.0	-68.0	3.8	1.49e+00	0	43	104	1039138816	76	21567
2026-01-27 12:58:42.23	335.42	4.84	-53.2	-68.1	3.8	1.49e+00	0	43	104	1039138816	76	21987
2026-01-27 12:58:43.24	335.53	4.79	-53.3	-68.2	3.8	1.49e+00	0	43	104	1039138816	77	20926
2026-01-27 12:58:44.25	335.65	4.74	-53.3	-68.3	3.8	1.49e+00	0	43	104	1039138816	77	21106
2026-01-27 12:58:45.25	335.76	4.70	-53.4	-68.3	3.8	1.49e+00	0	43	104	1039138816	77	21180
2026-01-27 12:58:46.26	335.87	4.65	-53.4	-68.4	3.8	1.49e+00	0	43	104	1039138816	77	21327
2026-01-27 12:58:47.27	335.98	4.60	-53.4	-68.3	3.8	1.49e+00	0	43	104	1039138816	77	21122
2026-01-27 12:58:48.28	336.09	4.56	-53.4	-68.3	3.8	1.49e+00	0	43	104	1039138816	77	21227
2026-01-27 12:58:49.29	336.20	4.51	-53.3	-68.1	3.8	1.49e+00	0	43	104	1039138816	77	20670
2026-01-27 12:58:50.29	336.31	4.46	-53.2	-68.0	3.8	1.49e+00	0	43	104	1039138816	77	20372
2026-01-27 12:58:51.30	336.42	4.41	-53.0	-67.6	3.8	1.49e+00	0	43	104	1039138816	77	19482
2026-01-27 12:58:52.31	336.53	4.37	-53.1	-67.6	3.8	1.49e+00	0	43	104	1039138816	77	19552
2026-01-27 12:58:53.32	336.64	4.32	-53.2	-67.8	3.8	1.49e+00	0	43	104	1039138816	77	20006
2026-01-27 12:58:54.32	336.75	4.27	-53.2	-68.0	3.8	1.49e+00	0	43	104	1039138816	77	20512
2026-01-27 12:58:55.33	336.86	4.23	-53.3	-68.2	3.8	1.49e+00	0	43	104	1039138816	77	20844
2026-01-27 12:58:56.34	336.97	4.18	-53.4	-68.3	3.8	1.49e+00	0	43	104	1039138816	77	21065
2026-01-27 12:58:57.35	337.08	4.13	-53.4	-68.3	3.8	1.49e+00	0	43	104	1039138816	77	21062
2026-01-27 12:58:58.36	337.19	4.08	-53.5	-68.3	3.8	1.49e+00	0	43	104	1039138816	77	21223
2026-01-27 12:58:59.36	337.29	4.04	-53.5	-68.4	3.8	1.49e+00	0	43	104	1039138816	77	21417
2026-01-27 12:59:00.37	337.40	3.99	-53.5	-68.4	3.8	1.49e+00	0	43	104	1039138816	77	21402
2026-01-27 12:59:01.38	337.51	3.94	-53.4	-68.4	3.8	1.49e+00	0	43	104	1039138816	77	21334
2026-01-27 12:59:02.39	337.61	3.89	-53.4	-68.4	3.8	1.49e+00	0	43	104	1039138816	77	21317
2026-01-27 12:59:03.40	337.72	3.85	-53.4	-68.4	3.8	1.49e+00	0	43	104	1039138816	77	21358
2026-01-27 12:59:04.40	337.83	3.80	-53.4	-68.4	3.8	1.49e+00	0	43	104	1039138816	77	21295
2026-01-27 12:59:05.41	337.93	3.75	-53.4	-68.3	3.8	1.49e+00	0	43	104	1039138816	77	21239
2026-01-27 12:59:06.42	338.04	3.71	-53.4	-68.4	3.8	1.49e+00	0	43	104	1039138816	77	21268
2026-01-27 12:59:07.42	338.14	3.66	-53.4	-68.3	3.8	1.49e+00	0	43	104	1039138816	77	21233
2026-01-27 12:59:08.43	338.24	3.61	-53.4	-68.3	3.8	1.49e+00	0	43	104	1039138816	77	21221
2026-01-27 12:59:09.43	338.35	3.57	-53.4	-68.3	3.8	1.49e+00	0	43	104	1039138816	77	21211
2026-01-27 12:59:10.44	338.45	3.52	-53.4	-68.3	3.8	1.49e+00	0	43	104	1039138816	77	21157
2026-01-27 12:59:11.45	338.56	3.47	-53.4	-68.3	3.8	1.49e+00	0	43	104	1039138816	77	21208
2026-01-27 12:59:12.46	338.66	3.42	-53.3	-68.3	3.8	1.49e+00	0	43	104	1039138816	77	21139
2026-01-27 12:59:13.47	338.76	3.38	-53.3	-68.3	3.8	1.49e+00	0	43	104	1039138816	77	21107
2026-01-27 12:59:14.48	338.87	3.33	-53.3	-68.3	3.8	1.49e+00	0	43	104	1039138816	77	21130
2026-01-27 12:59:15.49	338.97	3.28	-53.3	-68.3	3.8	1.49e+00	0	43	104	1039138816	77	21073
2026-01-27 12:59:16.49	339.07	3.24	-53.3	-68.3	3.8	1.49e+00	0	43	104	1039138816	77	21045
2026-01-27 12:59:17.50	339.17	3.19	-53.3	-68.2	3.8	1.49e+00	0	43	104	1039138816	77	20989
2026-01-27 12:59:18.51	339.27	3.14	-53.3	-68.2	3.8	1.49e+00	0	43	104	1039138816	77	20975
2026-01-27 12:59:19.52	339.37	3.09	-53.3	-68.3	3.8	1.49e+00	0	43	104	1039138816	77	21056
2026-01-27 12:59:20.53	339.47	3.05	-53.3	-68.2	3.8	1.49e+00	0	43	104	1039138816	77	20992
2026-01-27 12:59:21.53	339.57	3.00	-53.3	-68.3	3.8	1.49e+00	0	43	104	1039138816	77	21028
2026-01-27 12:59:22.53	339.67	2.95	-53.3	-68.2	3.8	1.49e+00	0	43	104	1039138816	77	21002
2026-01-27 12:59:23.54	339.77	2.91	-53.3	-68.3	3.8	1.49e+00	0	43	104	1039138816	77	21035
2026-01-27 12:59:24.55	339.87	2.86	-53.3	-68.2	3.8	1.49e+00	0	43	104	1039138816	77	21015
2026-01-27 12:59:25.55	339.97	2.81	-53.3	-68.3	3.8	1.49e+00	0	43	104	1039138816	77	21020
2026-01-27 12:59:26.56	340.07	2.77	-53.3	-68.2	3.8	1.49e+00	0	43	104	1039138816	77	20972
2026-01-27 12:59:27.56	340.17	2.72	-53.3	-68.2	3.8	1.49e+00	0	43	104	1039138816	77	20985
2026-01-27 12:59:28.57	340.27	2.67	-53.3	-68.2	3.8	1.49e+00	0	43	104	1039138816	77	20960
2026-01-27 12:59:29.58	340.37	2.62	-53.3	-68.2	3.8	1.49e+00	0	43	104	1039138816	77	20941
2026-01-27 12:59:30.59	340.46	2.58	-53.3	-68.2	3.8	1.49e+00	0	43	104	1039138816	77	20897
2026-01-27 12:59:31.59	340.56	2.53	-53.3	-68.2	3.8	1.49e+00	0	43	104	1039138816	77	20920
2026-01-27 12:59:32.60	340.66	2.48	-53.3	-68.2	3.8	1.49e+00	0	43	104	1039138816	77	20907
2026-01-27 12:59:33.61	340.76	2.44	-53.3	-68.2	3.8	1.49e+00	0	43	104	1039138816	77	20972
2026-01-27 12:59:34.62	340.85	2.39	-53.3	-68.2	3.8	1.49e+00	0	43	104	1039138816	77	20879
2026-01-27 12:59:35.63	340.95	2.34	-53.3	-68.2	3.8	1.49e+00	0	43	104	1039138816	77	20906
2026-01-27 12:59:36.63	341.04	2.30	-53.3	-68.2	3.8	1.49e+00	0	43	104	1039138816	77	20813
2026-01-27 12:59:37.64	341.14	2.25	-53.2	-68.2	3.8	1.49e+00	0	43	104	1039138816	77	20786
2026-01-27 12:59:38.65	341.24	2.20	-53.2	-68.2	3.8	1.49e+00	0	43	104	1039138816	77	20823
2026-01-27 12:59:39.65	341.33	2.16	-53.3	-68.2	3.8	1.49e+00	0	43	104	1039138816	77	20804
2026-01-27 12:59:40.66	341.42	2.11	-53.2	-68.2	3.8	1.49e+00	0	43	104	1039138816	77	20821
2026-01-27 12:59:41.67	341.52	2.06	-53.2	-68.2	3.8	1.49e+00	0	43	104	1039138816	77	20849
2026-01-27 12:59:42.67	341.61	2.02	-53.2	-68.2	3.8	1.49e+00	0	43	104	1039138816	77	20866
2026-01-27 12:59:43.68	341.71	1.97	-53.2	-68.2	3.8	1.49e+00	0	43	104	1039138816	77	20849

#Closed at: 2026-01-27 12:59:44
#Recorded file [1039 MB]: D:/lorett/data/31041_260127_154824.dat