passes_logs/2026/01/27/R3.2S_Murmansk/R3.2S_Murmansk__20260127_062250_KANOPUS-V_5_rec.log

#Pass ID: 20260127_062250_KANOPUS-V 5
#Satellite: KANOPUS-V 5
#Configuration: KANOPUS-V_8320
#almurnet v.1.7.20251203
#Start time: 2026-01-27 06:22:52

#Version: 2.2.20231116
#Station: R3.2S_Murmansk
#Location: 33.079688 lon 68.888172 lat
#TLE: 1 43876U 18111A   26026.53344362  .00004964  00000+0  21063-3 0  9993
#TLE: 2 43876  97.3674 294.8392 0001826  89.2862 270.8585 15.23550007393227

#Time	Az	El	Level	Level2	SNR	BER	BlckErr	Temp	State	Recorded	gain1	gain2
2026-01-27 06:22:52.31	121.65	2.12	-54.2	-63.0	3.8	7.44e-01	0	41	0	0	80	9645
2026-01-27 06:22:53.31	121.59	2.18	-53.9	-62.8	3.8	7.45e-01	0	41	104	0	79	9966
2026-01-27 06:22:54.31	121.54	2.25	-53.8	-62.7	3.8	7.45e-01	0	41	104	0	79	9874
2026-01-27 06:22:55.32	121.48	2.32	-53.7	-62.6	3.8	7.44e-01	0	42	104	0	79	9785
2026-01-27 06:22:56.33	121.43	2.39	-53.6	-62.4	3.8	7.44e-01	0	41	104	0	79	9574
2026-01-27 06:22:57.33	121.37	2.46	-53.4	-62.2	3.8	7.45e-01	0	42	104	0	78	9910
2026-01-27 06:22:58.34	121.31	2.53	-53.0	-61.8	3.8	7.43e-01	0	42	104	0	78	9481
2026-01-27 06:22:59.34	121.26	2.60	-52.9	-61.7	3.8	7.45e-01	0	42	104	0	77	9898
2026-01-27 06:23:00.35	121.20	2.67	-52.9	-61.7	3.8	7.46e-01	0	42	104	0	77	9925
2026-01-27 06:23:01.36	121.14	2.74	-52.9	-61.8	3.8	7.45e-01	0	42	104	0	77	9946
2026-01-27 06:23:02.37	121.08	2.81	-52.9	-61.7	3.8	7.45e-01	0	42	104	0	77	9937
2026-01-27 06:23:03.37	121.02	2.88	-52.9	-61.7	3.8	7.45e-01	0	42	104	0	77	9905
2026-01-27 06:23:04.38	120.96	2.95	-52.9	-61.7	3.8	7.46e-01	0	42	104	0	77	9915
2026-01-27 06:23:05.38	120.91	3.02	-52.9	-61.7	3.8	7.45e-01	0	42	104	0	77	9926
2026-01-27 06:23:06.39	120.85	3.09	-52.9	-61.8	3.8	7.46e-01	0	42	104	0	77	9947
2026-01-27 06:23:07.39	120.79	3.16	-52.9	-61.7	3.8	7.46e-01	0	42	104	0	77	9902
2026-01-27 06:23:08.40	120.73	3.23	-52.9	-61.7	3.8	7.45e-01	0	42	104	0	77	9905
2026-01-27 06:23:09.41	120.66	3.30	-52.9	-61.7	3.8	7.46e-01	0	42	104	0	77	9902
2026-01-27 06:23:10.42	120.60	3.37	-52.9	-61.7	3.8	7.46e-01	0	42	104	0	77	9902
2026-01-27 06:23:11.43	120.54	3.44	-52.9	-61.7	3.8	7.45e-01	0	42	104	0	77	9876
2026-01-27 06:23:12.43	120.48	3.52	-52.9	-61.7	3.8	7.44e-01	0	42	104	0	77	9898
2026-01-27 06:23:13.44	120.42	3.59	-52.9	-61.7	3.8	7.46e-01	0	42	104	0	77	9920
2026-01-27 06:23:14.45	120.35	3.66	-52.9	-61.7	3.8	7.45e-01	0	42	104	0	77	9912
2026-01-27 06:23:15.45	120.29	3.73	-52.9	-61.7	3.8	7.45e-01	0	42	104	0	77	9901
2026-01-27 06:23:16.46	120.23	3.81	-52.9	-61.7	3.8	7.45e-01	0	42	104	0	77	9919
2026-01-27 06:23:17.47	120.16	3.88	-52.9	-61.7	3.8	7.45e-01	0	42	104	0	77	9874
2026-01-27 06:23:18.48	120.10	3.95	-52.9	-61.7	3.8	7.44e-01	0	42	104	0	77	9861
2026-01-27 06:23:19.48	120.03	4.03	-52.9	-61.7	3.8	7.46e-01	0	42	104	0	77	9882
2026-01-27 06:23:20.49	119.97	4.10	-52.9	-61.7	3.8	7.45e-01	0	42	104	0	77	9899
2026-01-27 06:23:21.50	119.90	4.18	-52.9	-61.7	3.8	7.45e-01	0	42	104	0	77	9885
2026-01-27 06:23:22.51	119.83	4.25	-52.9	-61.7	3.8	7.45e-01	0	42	104	0	77	9893
2026-01-27 06:23:23.51	119.77	4.33	-52.9	-61.7	3.8	7.47e-01	0	42	104	0	77	9879
2026-01-27 06:23:24.52	119.70	4.40	-52.9	-61.7	3.8	7.45e-01	0	42	104	0	77	9910
2026-01-27 06:23:25.53	119.63	4.48	-52.9	-61.7	3.8	7.45e-01	0	42	104	0	77	9895
2026-01-27 06:23:26.53	119.56	4.55	-52.9	-61.7	3.8	7.46e-01	0	42	104	0	77	9880
2026-01-27 06:23:27.54	119.50	4.63	-52.9	-61.7	3.8	7.46e-01	0	42	104	0	77	9894
2026-01-27 06:23:28.55	119.43	4.70	-52.9	-61.7	3.8	7.46e-01	0	42	104	0	77	9881
2026-01-27 06:23:29.56	119.36	4.78	-52.9	-61.7	3.8	7.44e-01	0	42	104	0	77	9913
2026-01-27 06:23:30.57	119.29	4.86	-52.9	-61.7	3.8	7.44e-01	0	43	104	0	77	9897
2026-01-27 06:23:31.58	119.22	4.93	-52.9	-61.7	3.8	7.46e-01	0	42	104	0	77	9885
2026-01-27 06:23:32.58	119.14	5.01	-52.9	-61.7	3.8	7.47e-01	0	43	104	0	77	9833
2026-01-27 06:23:33.58	119.07	5.09	-52.9	-61.7	3.8	7.44e-01	0	43	104	0	77	9917
2026-01-27 06:23:34.59	119.00	5.16	-53.0	-61.8	3.8	7.46e-01	0	42	104	0	77	9989
2026-01-27 06:23:35.60	118.93	5.24	-53.0	-61.8	3.8	7.45e-01	0	43	104	0	77	9972
2026-01-27 06:23:36.61	118.85	5.32	-49.8	-61.7	3.8	7.45e-01	0	43	104	0	71	14000
2026-01-27 06:23:37.61	118.78	5.40	-51.1	-61.6	3.8	7.44e-01	0	43	104	0	72	13015
2026-01-27 06:23:38.62	118.71	5.48	-47.3	-49.6	11.0	6.18e-01	0	43	0	2097152	66	4633
2026-01-27 06:23:39.63	118.63	5.56	-46.3	-48.4	12.2	6.12e-01	0	43	0	18874368	62	5074
2026-01-27 06:23:40.63	118.56	5.64	-45.2	-47.1	13.4	6.11e-01	0	43	0	33554432	62	4370
2026-01-27 06:23:41.64	118.48	5.71	-48.8	-51.1	9.6	6.26e-01	0	43	0	48234496	67	5215
2026-01-27 06:23:42.65	118.40	5.79	-45.9	-48.0	12.5	6.13e-01	0	43	0	54525952	64	4307
2026-01-27 06:23:43.66	118.33	5.88	-44.6	-46.4	14.0	6.10e-01	0	43	0	54525952	61	4266
2026-01-27 06:23:44.66	118.25	5.96	-44.6	-46.4	14.0	6.10e-01	0	43	0	54525952	60	4544
2026-01-27 06:23:45.67	118.17	6.04	-44.6	-46.5	14.0	6.10e-01	0	43	0	56623104	60	4553
2026-01-27 06:23:46.68	118.09	6.12	-44.4	-46.2	14.3	6.10e-01	0	43	0	73400320	60	4410
2026-01-27 06:23:47.69	118.01	6.20	-44.2	-46.0	14.4	6.10e-01	0	43	0	88080384	60	4329
2026-01-27 06:23:48.70	117.93	6.28	-44.3	-46.1	14.3	6.10e-01	0	43	0	102760448	60	4380
2026-01-27 06:23:49.71	117.85	6.36	-44.5	-46.3	14.2	6.09e-01	0	43	0	119537664	60	4466
2026-01-27 06:23:50.72	117.77	6.44	-44.1	-45.9	14.5	6.10e-01	0	43	0	136314880	60	4288
2026-01-27 06:23:51.73	117.69	6.53	-44.3	-46.1	14.4	6.09e-01	0	43	0	150994944	60	4359
2026-01-27 06:23:52.73	117.61	6.61	-44.2	-46.0	14.5	6.09e-01	0	43	0	165675008	60	4307
2026-01-27 06:23:53.74	117.52	6.69	-44.4	-46.3	14.3	6.10e-01	0	43	0	182452224	60	4445
2026-01-27 06:23:54.75	117.44	6.78	-44.1	-45.9	14.6	6.09e-01	0	43	0	197132288	60	4278
2026-01-27 06:23:55.76	117.36	6.86	-44.0	-45.8	14.7	6.09e-01	0	43	0	211812352	60	4237
2026-01-27 06:23:56.76	117.27	6.94	-44.1	-46.0	14.6	6.10e-01	0	43	0	228589568	60	4321
2026-01-27 06:23:57.77	117.19	7.03	-44.4	-46.5	13.8	6.09e-01	0	43	0	243269632	60	4598
2026-01-27 06:23:58.78	117.10	7.11	-44.3	-46.4	14.4	5.87e-01	0	43	0	257949696	60	4541
2026-01-27 06:23:59.79	117.01	7.20	-44.5	-46.7	14.2	5.87e-01	0	43	0	272629760	60	4674
2026-01-27 06:24:00.79	116.93	7.28	-44.3	-46.5	14.4	5.88e-01	0	43	0	289406976	60	4547
2026-01-27 06:24:01.80	116.84	7.37	-44.4	-46.6	14.3	5.89e-01	0	43	0	304087040	60	4611
2026-01-27 06:24:02.81	116.75	7.46	-44.1	-46.3	14.6	5.88e-01	0	43	0	318767104	60	4459
2026-01-27 06:24:03.81	116.66	7.54	-44.2	-46.3	14.5	5.88e-01	0	43	0	335544320	60	4490
2026-01-27 06:24:04.81	116.57	7.63	-44.2	-46.3	14.5	5.88e-01	0	43	0	352321536	60	4475
2026-01-27 06:24:05.82	116.48	7.71	-44.3	-46.4	14.5	5.88e-01	0	43	0	367001600	59	4791
2026-01-27 06:24:06.83	116.39	7.80	-44.3	-46.5	14.5	5.88e-01	0	43	0	381681664	59	4818
2026-01-27 06:24:07.84	116.30	7.89	-44.2	-46.4	14.6	5.88e-01	0	43	0	398458880	59	4777
2026-01-27 06:24:08.85	116.20	7.98	-44.4	-46.5	14.5	5.88e-01	0	43	0	413138944	59	4849
2026-01-27 06:24:09.85	116.11	8.07	-44.3	-46.5	14.5	5.88e-01	0	43	0	427819008	59	4831
2026-01-27 06:24:10.86	116.01	8.16	-44.2	-46.3	14.6	5.88e-01	0	43	0	444596224	59	4743
2026-01-27 06:24:11.87	115.92	8.24	-44.2	-46.3	14.7	5.89e-01	0	43	0	459276288	59	4751
2026-01-27 06:24:12.87	115.82	8.33	-44.2	-46.3	14.7	5.88e-01	0	43	0	473956352	59	4720
2026-01-27 06:24:13.87	115.73	8.42	-44.0	-46.1	14.9	5.87e-01	0	43	0	490733568	59	4627
2026-01-27 06:24:14.88	115.63	8.51	-44.0	-46.1	14.8	5.87e-01	0	43	0	505413632	59	4647
2026-01-27 06:24:15.89	115.53	8.60	-44.1	-46.2	14.8	5.87e-01	0	43	0	520093696	59	4653
2026-01-27 06:24:16.90	115.43	8.70	-44.0	-46.1	14.9	5.88e-01	0	43	0	536870912	59	4616
2026-01-27 06:24:17.91	115.33	8.79	-44.0	-46.1	14.9	5.86e-01	0	43	0	551550976	59	4635
2026-01-27 06:24:18.91	115.23	8.88	-44.0	-46.1	15.0	5.87e-01	0	43	0	568328192	59	4615
2026-01-27 06:24:19.92	115.13	8.97	-44.0	-46.1	14.9	5.88e-01	0	43	0	583008256	59	4642
2026-01-27 06:24:20.93	115.03	9.06	-44.0	-46.0	15.0	5.87e-01	0	43	0	599785472	59	4596
2026-01-27 06:24:21.94	114.92	9.16	-44.0	-46.1	15.0	5.87e-01	0	43	0	614465536	59	4615
2026-01-27 06:24:22.95	114.82	9.25	-44.0	-46.1	15.0	5.87e-01	0	43	0	629145600	59	4615
2026-01-27 06:24:23.95	114.72	9.34	-44.1	-46.2	14.9	5.88e-01	0	43	0	645922816	59	4672
2026-01-27 06:24:24.96	114.61	9.44	-44.2	-46.3	14.9	5.87e-01	0	43	0	660602880	59	4731
2026-01-27 06:24:25.97	114.50	9.53	-44.1	-46.2	14.9	5.87e-01	0	43	0	675282944	59	4668
2026-01-27 06:24:26.98	114.40	9.63	-43.9	-46.0	15.1	5.87e-01	0	43	0	692060160	59	4551
2026-01-27 06:24:27.99	114.29	9.72	-44.0	-46.1	15.0	5.87e-01	0	43	0	706740224	59	4623
2026-01-27 06:24:29.00	114.18	9.82	-43.9	-46.0	15.1	5.87e-01	0	43	0	721420288	59	4579
2026-01-27 06:24:29.99	114.07	9.91	-43.8	-45.9	15.2	5.87e-01	0	43	0	738197504	59	4515
2026-01-27 06:24:31.00	113.96	10.01	-43.9	-46.0	15.1	5.88e-01	0	43	0	752877568	59	4571
2026-01-27 06:24:32.01	113.85	10.11	-43.8	-45.8	15.3	5.88e-01	0	43	0	767557632	59	4492
2026-01-27 06:24:33.02	113.73	10.20	-43.8	-45.9	15.2	5.87e-01	0	43	0	784334848	59	4540
2026-01-27 06:24:34.02	113.62	10.30	-43.9	-46.0	15.2	5.87e-01	0	43	0	801112064	59	4582
2026-01-27 06:24:35.03	113.50	10.40	-43.7	-45.8	15.3	5.86e-01	0	43	0	815792128	59	4485
2026-01-27 06:24:36.03	113.39	10.50	-43.7	-45.8	15.4	5.87e-01	0	43	0	830472192	59	4460
2026-01-27 06:24:37.04	113.27	10.60	-43.6	-45.7	15.5	5.86e-01	0	43	0	847249408	59	4411
2026-01-27 06:24:38.05	113.15	10.70	-43.5	-45.7	15.5	5.87e-01	0	43	0	861929472	59	4408
2026-01-27 06:24:39.05	113.04	10.79	-43.5	-45.7	15.5	5.87e-01	0	43	0	876609536	59	4414
2026-01-27 06:24:40.06	112.92	10.90	-43.6	-45.7	15.4	5.87e-01	0	43	0	893386752	58	4687
2026-01-27 06:24:41.07	112.80	11.00	-43.5	-45.6	15.5	5.87e-01	0	43	0	908066816	58	4619
2026-01-27 06:24:42.08	112.67	11.10	-43.3	-45.4	15.7	5.87e-01	0	43	0	922746880	58	4508
2026-01-27 06:24:43.08	112.55	11.20	-43.2	-45.3	15.8	5.87e-01	0	43	0	939524096	58	4473
2026-01-27 06:24:44.09	112.43	11.30	-43.2	-45.3	15.8	5.87e-01	0	43	0	954204160	58	4463
2026-01-27 06:24:45.09	112.30	11.40	-43.1	-45.1	15.9	5.86e-01	0	43	0	968884224	58	4388
2026-01-27 06:24:46.10	112.18	11.51	-42.9	-45.0	16.0	5.87e-01	0	43	0	985661440	57	4557
2026-01-27 06:24:47.10	112.05	11.61	-43.0	-45.0	16.0	5.87e-01	0	43	0	1000341504	57	4563
2026-01-27 06:24:48.10	111.92	11.71	-42.9	-44.9	16.1	5.87e-01	0	43	0	1015021568	57	4517
2026-01-27 06:24:49.11	111.79	11.82	-42.8	-44.7	16.3	5.86e-01	0	43	0	1031798784	57	4422
2026-01-27 06:24:50.12	111.66	11.92	-42.8	-44.7	16.3	5.87e-01	0	43	0	1048576000	57	4408
2026-01-27 06:24:51.13	111.53	12.03	-42.8	-44.7	16.2	5.87e-01	0	43	0	1063256064	57	4420
2026-01-27 06:24:52.14	111.39	12.13	-42.6	-44.5	16.5	5.88e-01	0	43	0	1077936128	57	4293
2026-01-27 06:24:53.15	111.26	12.24	-42.6	-44.5	16.5	5.87e-01	0	43	0	1094713344	57	4302
2026-01-27 06:24:54.15	111.13	12.35	-42.7	-44.5	16.4	5.87e-01	0	43	0	1109393408	57	4326
2026-01-27 06:24:55.16	110.99	12.45	-42.6	-44.4	16.5	5.87e-01	0	43	0	1124073472	57	4264
2026-01-27 06:24:56.17	110.85	12.56	-42.5	-44.4	16.6	5.87e-01	0	43	0	1140850688	57	4246
2026-01-27 06:24:57.18	110.71	12.67	-42.3	-44.1	16.8	5.87e-01	0	43	0	1155530752	56	4365
2026-01-27 06:24:58.19	110.57	12.78	-42.3	-44.1	16.8	5.86e-01	0	43	0	1170210816	56	4343
2026-01-27 06:24:59.19	110.43	12.89	-42.3	-44.1	16.8	5.87e-01	0	43	0	1186988032	56	4351
2026-01-27 06:25:00.20	110.29	13.00	-42.2	-44.0	16.9	5.86e-01	0	43	0	1201668096	56	4316
2026-01-27 06:25:01.21	110.14	13.11	-42.2	-44.0	16.8	5.86e-01	0	43	0	1218445312	56	4322
2026-01-27 06:25:02.23	109.99	13.22	-42.1	-43.9	16.9	5.87e-01	0	44	0	1233125376	56	4281
2026-01-27 06:25:03.23	109.85	13.33	-42.2	-44.1	16.8	5.87e-01	0	43	0	1249902592	56	4341
2026-01-27 06:25:04.24	109.70	13.44	-42.2	-44.0	16.9	5.86e-01	0	43	0	1264582656	56	4319
2026-01-27 06:25:05.25	109.55	13.55	-42.0	-43.9	16.9	5.87e-01	0	44	0	1279262720	56	4271
2026-01-27 06:25:06.25	109.40	13.67	-42.2	-44.1	17.0	5.86e-01	0	43	0	1296039936	55	4621
2026-01-27 06:25:07.26	109.24	13.78	-42.0	-43.9	17.1	5.87e-01	0	44	0	1310720000	55	4533
2026-01-27 06:25:08.27	109.09	13.89	-42.0	-44.0	17.0	5.86e-01	0	43	0	1325400064	55	4569
2026-01-27 06:25:09.28	108.93	14.01	-42.0	-44.0	17.0	5.87e-01	0	43	0	1342177280	55	4558
2026-01-27 06:25:10.29	108.78	14.12	-42.0	-44.0	17.0	5.86e-01	0	43	0	1356857344	55	4585
2026-01-27 06:25:11.29	108.62	14.24	-42.0	-44.0	17.0	5.87e-01	0	43	0	1371537408	55	4578
2026-01-27 06:25:12.30	108.46	14.35	-41.9	-43.9	17.1	5.87e-01	0	43	0	1388314624	55	4522
2026-01-27 06:25:13.31	108.30	14.47	-41.9	-43.9	17.1	5.86e-01	0	43	0	1402994688	55	4532
2026-01-27 06:25:14.31	108.14	14.59	-41.9	-43.9	17.2	5.87e-01	0	43	0	1417674752	55	4503
2026-01-27 06:25:15.32	107.97	14.71	-42.0	-44.0	17.1	5.87e-01	0	43	0	1434451968	55	4548
2026-01-27 06:25:16.32	107.80	14.82	-41.8	-43.7	17.3	5.86e-01	0	43	0	1451229184	55	4426
2026-01-27 06:25:17.33	107.64	14.94	-41.8	-43.8	17.3	5.87e-01	0	43	0	1465909248	55	4464
2026-01-27 06:25:18.34	107.47	15.06	-41.6	-43.6	17.4	5.88e-01	0	44	0	1480589312	55	4349
2026-01-27 06:25:19.35	107.30	15.18	-41.8	-43.7	17.3	5.87e-01	0	43	0	1497366528	55	4416
2026-01-27 06:25:20.35	107.12	15.30	-41.6	-43.5	17.4	5.86e-01	0	43	0	1512046592	55	4308
2026-01-27 06:25:21.36	106.95	15.42	-41.5	-43.4	17.5	5.87e-01	0	44	0	1526726656	55	4284
2026-01-27 06:25:22.36	106.77	15.54	-41.5	-43.4	17.5	5.87e-01	0	44	0	1541406720	55	4277
2026-01-27 06:25:23.37	106.60	15.66	-41.6	-43.5	17.4	5.96e-01	0	43	0	1558183936	55	4298
2026-01-27 06:25:24.37	106.42	15.79	-41.4	-43.3	17.5	5.99e-01	0	43	0	1572864000	54	4443
2026-01-27 06:25:25.38	106.24	15.91	-41.4	-43.3	17.5	5.99e-01	0	43	0	1587544064	54	4475
2026-01-27 06:25:26.38	106.05	16.03	-41.4	-43.3	17.5	5.98e-01	0	43	0	1604321280	54	4475
2026-01-27 06:25:27.38	105.87	16.15	-41.5	-43.4	17.4	5.98e-01	0	43	0	1619001344	54	4506
2026-01-27 06:25:28.39	105.68	16.28	-41.3	-43.3	17.5	6.00e-01	0	43	0	1633681408	54	4443
2026-01-27 06:25:29.39	105.50	16.40	-41.4	-43.3	17.5	5.95e-01	0	44	0	1650458624	54	4456
2026-01-27 06:25:30.40	105.30	16.53	-41.3	-43.2	17.5	5.97e-01	0	44	0	1665138688	54	4433
2026-01-27 06:25:31.41	105.11	16.66	-41.3	-43.2	17.6	6.00e-01	0	43	0	1679818752	54	4423
2026-01-27 06:25:32.41	104.92	16.78	-41.2	-43.2	17.6	5.98e-01	0	44	0	1696595968	54	4395
2026-01-27 06:25:33.42	104.72	16.91	-41.1	-43.0	17.7	5.98e-01	0	43	0	1713373184	54	4339
2026-01-27 06:25:34.42	104.52	17.04	-41.1	-43.0	17.6	6.00e-01	0	43	0	1728053248	54	4337
2026-01-27 06:25:35.43	104.32	17.16	-41.1	-43.0	17.7	6.03e-01	0	44	0	1742733312	54	4312
2026-01-27 06:25:36.43	104.12	17.29	-41.1	-43.0	17.7	6.00e-01	0	44	0	1759510528	54	4334
2026-01-27 06:25:37.44	103.92	17.42	-41.1	-43.0	17.7	6.00e-01	0	44	0	1774190592	54	4326
2026-01-27 06:25:38.45	103.71	17.55	-41.0	-42.9	17.8	6.02e-01	0	44	0	1788870656	54	4268
2026-01-27 06:25:39.45	103.50	17.68	-40.5	-42.8	17.8	6.02e-01	0	43	0	1805647872	53	4482
2026-01-27 06:25:40.46	103.29	17.81	-40.9	-42.8	17.8	6.02e-01	0	43	0	1820327936	53	4487
2026-01-27 06:25:41.47	103.08	17.95	-40.9	-42.8	17.9	6.01e-01	0	43	0	1835008000	53	4442
2026-01-27 06:25:42.47	102.87	18.08	-40.7	-42.6	18.0	6.02e-01	0	43	0	1851785216	53	4341
2026-01-27 06:25:43.48	102.65	18.21	-40.7	-42.6	18.0	6.03e-01	0	43	0	1866465280	53	4358
2026-01-27 06:25:44.48	102.43	18.34	-40.7	-42.6	18.0	6.03e-01	0	43	0	1881145344	53	4343
2026-01-27 06:25:45.49	102.21	18.48	-40.5	-42.4	18.2	6.02e-01	0	44	0	1897922560	53	4247
2026-01-27 06:25:46.50	101.98	18.61	-40.6	-42.4	18.1	6.03e-01	0	44	0	1912602624	53	4270
2026-01-27 06:25:47.51	101.76	18.75	-40.5	-42.3	18.2	6.01e-01	0	43	0	1929379840	53	4239
2026-01-27 06:25:48.52	101.53	18.88	-40.4	-42.2	18.2	6.05e-01	0	43	0	1944059904	52	4439
2026-01-27 06:25:49.53	101.29	19.02	-40.3	-42.1	18.3	6.01e-01	0	44	0	1960837120	52	4366
2026-01-27 06:25:50.53	101.06	19.15	-40.3	-42.2	18.3	6.01e-01	0	43	0	1975517184	52	4396
2026-01-27 06:25:51.54	100.83	19.29	-40.4	-42.3	18.2	6.04e-01	0	43	0	1990197248	52	4454
2026-01-27 06:25:52.55	100.59	19.43	-40.5	-42.4	18.1	6.01e-01	0	43	0	2006974464	52	4503
2026-01-27 06:25:53.56	100.34	19.57	-40.6	-42.4	18.1	6.01e-01	0	44	0	2021654528	52	4531
2026-01-27 06:25:54.57	100.10	19.71	-40.3	-42.1	18.3	6.01e-01	0	44	0	2036334592	52	4390
2026-01-27 06:25:55.57	99.86	19.84	-40.2	-42.1	18.4	6.01e-01	0	43	0	2053111808	52	4356
2026-01-27 06:25:56.57	99.61	19.98	-40.2	-42.1	18.4	6.02e-01	0	44	0	2067791872	52	4359
2026-01-27 06:25:57.58	99.36	20.12	-40.2	-42.0	18.4	6.01e-01	0	44	0	2082471936	52	4292
2026-01-27 06:25:58.58	99.10	20.26	-40.2	-42.0	18.4	6.04e-01	0	43	0	2099249152	52	4319
2026-01-27 06:25:59.59	98.85	20.40	-40.2	-42.0	18.4	6.02e-01	0	44	0	2113929216	52	4299
2026-01-27 06:26:00.59	98.59	20.54	-40.3	-42.0	18.4	6.02e-01	0	44	0	2128609280	52	4309
2026-01-27 06:26:01.60	98.33	20.69	-40.0	-41.8	18.6	6.06e-01	0	43	0	2145386496	52	4197
2026-01-27 06:26:02.61	98.06	20.83	-40.0	-41.8	18.6	6.01e-01	0	44	0	2160066560	52	4195
2026-01-27 06:26:03.61	97.79	20.97	-40.1	-41.8	18.6	6.03e-01	0	43	0	2176843776	51	4448
2026-01-27 06:26:04.62	97.52	21.11	-39.8	-41.5	18.8	6.03e-01	0	43	0	2191523840	51	4303
2026-01-27 06:26:05.63	97.25	21.26	-39.8	-41.4	18.8	6.02e-01	0	44	0	2208301056	51	4285
2026-01-27 06:26:06.63	96.97	21.40	-39.7	-41.4	18.8	6.03e-01	0	44	0	2222981120	51	4266
2026-01-27 06:26:07.64	96.69	21.54	-39.7	-41.4	18.8	6.03e-01	0	44	0	2237661184	51	4256
2026-01-27 06:26:08.65	96.41	21.69	-39.8	-41.5	18.8	6.02e-01	0	43	0	2254438400	51	4312
2026-01-27 06:26:09.66	96.12	21.83	-39.8	-41.6	18.7	6.03e-01	0	44	0	2269118464	51	4356
2026-01-27 06:26:10.67	95.83	21.98	-40.0	-41.8	18.6	5.99e-01	0	43	0	2283798528	51	4450
2026-01-27 06:26:11.68	95.54	22.13	-40.0	-41.8	18.6	6.02e-01	0	44	0	2300575744	51	4459
2026-01-27 06:26:12.69	95.25	22.27	-40.1	-42.0	18.4	6.03e-01	0	44	0	2315255808	51	4555
2026-01-27 06:26:13.70	94.95	22.42	-40.1	-42.0	18.5	6.03e-01	0	43	0	2329935872	51	4575
2026-01-27 06:26:14.71	94.65	22.57	-39.8	-41.8	18.6	6.02e-01	0	44	0	2346713088	51	4453
2026-01-27 06:26:15.72	94.34	22.71	-39.7	-41.6	18.7	6.03e-01	0	43	0	2363490304	51	4370
2026-01-27 06:26:16.73	94.03	22.86	-39.8	-41.6	18.7	6.04e-01	0	44	0	2378170368	51	4380
2026-01-27 06:26:17.73	93.72	23.01	-39.9	-41.7	18.7	6.02e-01	0	44	0	2392850432	51	4419
2026-01-27 06:26:18.74	93.41	23.15	-39.7	-41.5	18.8	6.04e-01	0	44	0	2409627648	51	4316
2026-01-27 06:26:19.75	93.09	23.30	-39.7	-41.5	18.8	6.03e-01	0	44	0	2424307712	51	4298
2026-01-27 06:26:20.75	92.77	23.45	-39.9	-41.7	18.7	6.02e-01	0	44	0	2438987776	51	4403
2026-01-27 06:26:21.76	92.44	23.60	-39.7	-41.4	18.8	6.04e-01	0	43	0	2455764992	51	4289
2026-01-27 06:26:22.77	92.11	23.75	-39.7	-41.5	18.8	6.04e-01	0	44	0	2470445056	51	4301
2026-01-27 06:26:23.77	91.79	23.89	-39.6	-41.4	18.8	6.05e-01	0	44	0	2485125120	51	4263
2026-01-27 06:26:24.78	91.45	24.04	-39.6	-41.3	18.9	6.03e-01	0	43	0	2501902336	51	4229
2026-01-27 06:26:25.79	91.11	24.19	-39.7	-41.4	18.9	6.05e-01	0	44	0	2516582400	51	4250
2026-01-27 06:26:26.79	90.77	24.34	-39.5	-41.2	19.0	6.04e-01	0	43	0	2531262464	51	4164
2026-01-27 06:26:27.80	90.42	24.49	-39.4	-41.1	19.1	6.04e-01	0	44	0	2545942528	50	4354
2026-01-27 06:26:28.80	90.08	24.63	-39.4	-41.2	19.0	6.02e-01	0	44	0	2562719744	50	4396
2026-01-27 06:26:29.81	89.72	24.78	-39.4	-41.2	19.0	6.03e-01	0	43	0	2577399808	50	4422
2026-01-27 06:26:30.82	89.36	24.93	-39.6	-41.4	18.8	6.03e-01	0	44	0	2594177024	50	4520
2026-01-27 06:26:31.83	89.00	25.08	-39.7	-41.6	18.7	6.04e-01	0	44	0	2610954240	50	4604
2026-01-27 06:26:32.84	88.64	25.23	-39.8	-41.6	18.7	6.04e-01	0	44	0	2625634304	50	4642
2026-01-27 06:26:33.85	88.27	25.38	-39.9	-41.7	18.6	6.05e-01	0	44	0	2640314368	50	4685
2026-01-27 06:26:34.85	87.90	25.52	-40.0	-41.8	18.6	6.05e-01	0	44	0	2654994432	50	4751
2026-01-27 06:26:35.86	87.52	25.67	-40.0	-41.8	18.6	6.03e-01	0	44	0	2671771648	50	4723
2026-01-27 06:26:36.87	87.14	25.82	-40.0	-41.8	18.6	6.04e-01	0	43	0	2686451712	50	4735
2026-01-27 06:26:37.88	86.75	25.96	-40.0	-41.7	18.7	6.03e-01	0	43	0	2701131776	50	4702
2026-01-27 06:26:38.88	86.37	26.11	-39.8	-41.5	18.8	6.04e-01	0	44	0	2717908992	50	4568
2026-01-27 06:26:39.89	85.97	26.26	-39.6	-41.4	18.9	6.03e-01	0	44	0	2732589056	50	4504
2026-01-27 06:26:40.90	85.58	26.40	-39.6	-41.3	18.9	6.03e-01	0	44	0	2747269120	50	4471
2026-01-27 06:26:41.91	85.17	26.55	-39.7	-41.4	18.8	6.04e-01	0	44	0	2764046336	50	4511
2026-01-27 06:26:42.92	84.77	26.69	-39.7	-41.5	18.8	6.03e-01	0	43	0	2780823552	50	4547
2026-01-27 06:26:43.93	84.36	26.84	-39.8	-41.6	18.7	6.03e-01	0	44	0	2795503616	50	4617
2026-01-27 06:26:44.93	83.95	26.98	-39.9	-41.7	18.6	6.04e-01	0	43	0	2810183680	50	4694
2026-01-27 06:26:45.94	83.53	27.12	-39.9	-41.7	18.7	6.03e-01	0	44	0	2826960896	50	4674
2026-01-27 06:26:46.95	83.11	27.27	-39.9	-41.7	18.6	6.03e-01	0	43	0	2841640960	50	4703
2026-01-27 06:26:47.95	82.69	27.41	-39.8	-41.6	18.7	6.03e-01	0	44	0	2856321024	50	4627
2026-01-27 06:26:48.96	82.26	27.55	-39.8	-41.6	18.7	6.04e-01	0	44	0	2873098240	50	4611
2026-01-27 06:26:49.96	81.83	27.69	-39.9	-41.7	18.7	6.05e-01	0	44	0	2887778304	50	4666
2026-01-27 06:26:50.97	81.39	27.83	-40.0	-41.8	18.6	6.05e-01	0	43	0	2902458368	50	4715
2026-01-27 06:26:51.98	80.95	27.97	-40.1	-41.9	18.5	6.03e-01	0	44	0	2919235584	50	4768
2026-01-27 06:26:52.99	80.50	28.10	-40.1	-42.0	18.5	6.03e-01	0	44	0	2933915648	50	4838
2026-01-27 06:26:54.00	80.05	28.24	-40.2	-42.0	18.4	6.05e-01	0	44	0	2948595712	50	4860
2026-01-27 06:26:55.01	79.59	28.38	-40.1	-42.0	18.5	6.04e-01	0	44	0	2965372928	51	4563
2026-01-27 06:26:56.02	79.13	28.51	-40.1	-41.9	18.6	6.05e-01	0	44	0	2982150144	51	4509
2026-01-27 06:26:57.03	78.67	28.65	-40.3	-42.1	18.4	6.01e-01	0	44	0	2996830208	51	4611
2026-01-27 06:26:58.03	78.21	28.78	-40.4	-42.2	18.4	6.02e-01	0	44	0	3011510272	51	4684
2026-01-27 06:26:59.04	77.73	28.91	-40.4	-42.3	18.3	6.05e-01	0	44	0	3028287488	51	4754
2026-01-27 06:27:00.05	77.26	29.04	-40.2	-42.1	18.4	6.04e-01	0	44	0	3042967552	51	4613
2026-01-27 06:27:01.06	76.78	29.17	-40.0	-41.9	18.5	6.04e-01	0	44	0	3057647616	51	4519
2026-01-27 06:27:02.07	76.29	29.29	-40.0	-41.9	18.6	6.03e-01	0	43	0	3074424832	51	4511
2026-01-27 06:27:03.08	75.80	29.42	-40.2	-41.9	18.6	6.04e-01	0	44	0	3089104896	51	4533
2026-01-27 06:27:04.09	75.31	29.54	-40.2	-42.0	18.5	6.04e-01	0	44	0	3103784960	51	4550
2026-01-27 06:27:05.09	74.82	29.66	-40.4	-42.2	18.3	6.03e-01	0	44	0	3120562176	51	4695
2026-01-27 06:27:06.10	74.32	29.78	-40.5	-42.5	18.2	6.04e-01	0	44	0	3135242240	51	4822
2026-01-27 06:27:07.11	73.81	29.90	-40.6	-42.4	18.2	6.03e-01	0	44	0	3149922304	51	4775
2026-01-27 06:27:08.12	73.30	30.02	-40.5	-42.3	18.3	6.02e-01	0	44	0	3166699520	51	4721
2026-01-27 06:27:09.12	72.79	30.14	-40.2	-42.1	18.5	6.02e-01	0	44	0	3183476736	51	4623
2026-01-27 06:27:10.13	72.28	30.25	-40.3	-42.2	18.4	6.04e-01	0	44	0	3198156800	51	4669
2026-01-27 06:27:11.14	71.75	30.36	-40.5	-42.5	18.1	6.03e-01	0	44	0	3212836864	51	4838
2026-01-27 06:27:12.15	71.23	30.47	-40.4	-42.5	18.2	6.06e-01	0	44	0	3229614080	51	4815
2026-01-27 06:27:13.16	70.70	30.58	-40.5	-42.4	18.2	6.05e-01	0	44	0	3244294144	51	4814
2026-01-27 06:27:14.16	70.17	30.68	-40.6	-42.5	18.1	6.05e-01	0	44	0	3258974208	51	4860
2026-01-27 06:27:15.17	69.64	30.79	-40.6	-42.6	18.1	6.04e-01	0	44	0	3275751424	51	4915
2026-01-27 06:27:16.18	69.10	30.89	-40.7	-42.6	18.1	6.02e-01	0	44	0	3290431488	52	4643
2026-01-27 06:27:17.19	68.55	30.99	-40.7	-42.6	18.1	6.05e-01	0	44	0	3305111552	52	4613
2026-01-27 06:27:18.19	68.01	31.08	-40.6	-42.5	18.2	6.05e-01	0	44	0	3321888768	52	4557
2026-01-27 06:27:19.20	67.46	31.18	-40.6	-42.4	18.2	6.06e-01	0	44	0	3336568832	52	4540
2026-01-27 06:27:20.21	66.90	31.27	-40.3	-42.2	18.3	6.04e-01	0	44	0	3351248896	52	4440
2026-01-27 06:27:21.22	66.35	31.36	-40.4	-42.4	18.2	6.00e-01	0	44	0	3368026112	52	4514
2026-01-27 06:27:22.23	65.78	31.44	-40.6	-42.6	18.1	6.02e-01	0	44	0	3384803328	52	4633
2026-01-27 06:27:23.23	65.23	31.53	-40.6	-42.7	18.1	5.88e-01	0	44	0	3399483392	52	4666
2026-01-27 06:27:24.24	64.66	31.61	-40.7	-42.7	18.0	6.02e-01	0	44	0	3414163456	52	4704
2026-01-27 06:27:25.24	64.09	31.69	-40.7	-42.8	17.9	6.03e-01	0	44	0	3430940672	52	4732
2026-01-27 06:27:26.25	63.52	31.76	-40.6	-42.7	18.1	6.04e-01	0	44	0	3445620736	52	4659
2026-01-27 06:27:27.25	62.95	31.84	-40.7	-42.7	18.0	6.04e-01	0	44	0	3460300800	52	4704
2026-01-27 06:27:28.26	62.37	31.91	-40.8	-42.9	17.9	5.98e-01	0	44	0	3477078016	52	4778
2026-01-27 06:27:29.27	61.79	31.97	-40.8	-43.1	17.7	6.02e-01	0	44	0	3491758080	52	4886
2026-01-27 06:27:30.28	61.21	32.04	-40.9	-43.2	17.6	6.05e-01	0	44	0	3506438144	52	4983
2026-01-27 06:27:31.29	60.62	32.10	-40.9	-43.2	17.6	6.06e-01	0	44	0	3523215360	52	4957
2026-01-27 06:27:32.30	60.03	32.16	-41.0	-43.4	17.5	6.04e-01	0	44	0	3537895424	52	5059
2026-01-27 06:27:33.30	59.45	32.21	-41.0	-43.4	17.5	6.02e-01	0	43	0	3552575488	52	5064
2026-01-27 06:27:34.31	58.85	32.26	-41.0	-43.4	17.5	6.03e-01	0	44	0	3569352704	52	5052
2026-01-27 06:27:35.32	58.26	32.31	-40.7	-43.0	17.8	6.04e-01	0	44	0	3586129920	52	4854
2026-01-27 06:27:36.33	57.66	32.36	-40.9	-43.2	17.7	6.02e-01	0	43	0	3600809984	52	4959
2026-01-27 06:27:37.33	57.07	32.40	-41.1	-43.5	17.4	6.05e-01	0	44	0	3615490048	52	5111
2026-01-27 06:27:38.34	56.47	32.44	-41.2	-43.6	17.4	6.05e-01	0	44	0	3632267264	52	5197
2026-01-27 06:27:39.34	55.87	32.48	-41.1	-43.4	17.5	6.05e-01	0	44	0	3646947328	52	5093
2026-01-27 06:27:40.35	55.27	32.51	-41.1	-43.3	17.6	6.04e-01	0	43	0	3661627392	53	4741
2026-01-27 06:27:41.36	54.67	32.54	-41.0	-43.3	17.6	5.99e-01	0	44	0	3678404608	53	4727
2026-01-27 06:27:42.37	54.06	32.57	-41.1	-43.5	17.5	6.01e-01	0	44	0	3693084672	53	4821
2026-01-27 06:27:43.38	53.45	32.59	-41.2	-43.6	17.4	6.05e-01	0	44	0	3707764736	53	4920
2026-01-27 06:27:44.39	52.85	32.61	-41.1	-43.6	17.4	6.04e-01	0	44	0	3724541952	53	4878
2026-01-27 06:27:45.40	52.24	32.62	-41.2	-43.6	17.4	6.04e-01	0	44	0	3739222016	53	4885
2026-01-27 06:27:46.41	51.63	32.64	-41.0	-43.5	17.5	6.05e-01	0	44	0	3753902080	53	4820
2026-01-27 06:27:47.41	51.03	32.64	-41.0	-43.4	17.5	6.04e-01	0	44	0	3770679296	53	4778
2026-01-27 06:27:48.42	50.42	32.65	-41.2	-43.5	17.5	6.06e-01	0	44	0	3787456512	53	4858
2026-01-27 06:27:49.43	49.81	32.65	-41.3	-43.7	17.3	6.03e-01	0	43	0	3802136576	53	4975
2026-01-27 06:27:50.44	49.20	32.65	-41.4	-43.9	17.1	6.02e-01	0	44	0	3816816640	53	5079
2026-01-27 06:27:51.44	48.60	32.65	-41.6	-44.0	17.1	6.03e-01	0	44	0	3833593856	53	5152
2026-01-27 06:27:52.45	47.99	32.64	-41.4	-43.9	17.2	6.03e-01	0	44	0	3848273920	53	5075
2026-01-27 06:27:53.45	47.39	32.63	-41.4	-43.8	17.3	6.02e-01	0	44	0	3862953984	53	4994
2026-01-27 06:27:54.46	46.78	32.61	-41.3	-43.7	17.3	6.03e-01	0	44	0	3879731200	53	4978
2026-01-27 06:27:55.47	46.17	32.59	-41.4	-44.0	17.1	6.04e-01	0	44	0	3894411264	53	5134
2026-01-27 06:27:56.47	45.57	32.57	-41.4	-44.0	17.1	6.05e-01	0	44	0	3909091328	53	5123
2026-01-27 06:27:57.48	44.96	32.55	-41.5	-44.1	17.0	6.03e-01	0	43	0	3923771392	53	5188
2026-01-27 06:27:58.49	44.36	32.52	-41.4	-44.1	17.0	6.04e-01	0	44	0	3940548608	53	5183
2026-01-27 06:27:59.50	43.76	32.49	-41.3	-44.0	17.1	6.02e-01	0	43	0	3955228672	53	5128
2026-01-27 06:28:00.50	43.16	32.45	-41.3	-43.9	17.1	6.04e-01	0	44	0	3969908736	53	5085
2026-01-27 06:28:01.51	42.56	32.41	-41.4	-44.0	17.1	6.02e-01	0	44	0	3986685952	53	5132
2026-01-27 06:28:02.52	41.96	32.37	-41.4	-44.1	17.0	6.02e-01	0	43	0	4003463168	53	5186
2026-01-27 06:28:03.52	41.37	32.33	-41.6	-44.4	16.8	6.02e-01	0	44	0	4018143232	53	5343
2026-01-27 06:28:04.53	40.78	32.28	-41.6	-44.2	16.9	6.02e-01	0	44	0	4032823296	53	5251
2026-01-27 06:28:05.54	40.18	32.23	-41.7	-44.2	17.0	6.03e-01	0	43	0	4049600512	53	5241
2026-01-27 06:28:06.55	39.59	32.18	-41.5	-44.0	17.1	6.02e-01	0	44	0	4064280576	54	4832
2026-01-27 06:28:07.55	39.01	32.12	-41.2	-43.6	17.4	6.03e-01	0	44	0	4078960640	54	4624
2026-01-27 06:28:08.56	38.42	32.06	-41.3	-43.6	17.3	6.03e-01	0	44	0	4095737856	54	4647
2026-01-27 06:28:09.57	37.84	32.00	-41.5	-43.9	17.2	6.01e-01	0	44	0	4110417920	54	4798
2026-01-27 06:28:10.57	37.26	31.93	-41.5	-43.8	17.2	6.03e-01	0	44	0	4125097984	54	4756
2026-01-27 06:28:11.58	36.68	31.86	-41.4	-43.7	17.3	6.05e-01	0	44	0	4141875200	54	4684
2026-01-27 06:28:12.59	36.11	31.79	-41.3	-43.5	17.5	6.01e-01	0	44	0	4156555264	54	4590
2026-01-27 06:28:13.60	35.53	31.71	-41.5	-43.8	17.3	6.03e-01	0	44	0	4171235328	54	4710
2026-01-27 06:28:14.61	34.96	31.64	-41.9	-44.2	17.0	6.01e-01	0	44	0	4188012544	54	4959
2026-01-27 06:28:15.61	34.40	31.56	-42.0	-44.3	16.9	6.01e-01	0	44	0	4204789760	54	5019
2026-01-27 06:28:16.62	33.84	31.47	-41.9	-44.2	16.9	6.02e-01	0	44	0	4219469824	54	4978
2026-01-27 06:28:17.63	33.27	31.39	-41.7	-44.0	17.1	6.01e-01	0	44	0	4234149888	54	4854
2026-01-27 06:28:18.63	32.72	31.30	-41.7	-43.9	17.1	6.02e-01	0	44	0	4250927104	54	4812
2026-01-27 06:28:19.64	32.17	31.21	-41.6	-43.9	17.2	6.02e-01	0	44	0	4265607168	54	4810
2026-01-27 06:28:20.65	31.62	31.12	-41.5	-43.9	17.2	6.02e-01	0	44	0	4280287232	54	4766
2026-01-27 06:28:21.66	31.07	31.02	-41.5	-43.8	17.2	6.01e-01	0	44	0	4297064448	54	4734
2026-01-27 06:28:22.66	30.53	30.92	-41.4	-43.7	17.3	6.02e-01	0	44	0	4311744512	54	4671
2026-01-27 06:28:23.66	29.99	30.82	-41.5	-43.7	17.3	6.02e-01	0	44	0	4326424576	54	4673
2026-01-27 06:28:24.67	29.46	30.72	-41.6	-43.7	17.3	6.01e-01	0	44	0	4343201792	54	4703
2026-01-27 06:28:25.67	28.93	30.62	-41.5	-43.6	17.4	6.03e-01	0	44	0	4357881856	54	4618
2026-01-27 06:28:26.68	28.40	30.51	-41.4	-43.5	17.5	6.03e-01	0	43	0	4372561920	54	4554
2026-01-27 06:28:27.69	27.87	30.40	-41.5	-43.6	17.4	6.01e-01	0	44	0	4389339136	54	4599
2026-01-27 06:28:28.69	27.36	30.29	-41.5	-43.6	17.3	6.02e-01	0	43	0	4404019200	54	4651
2026-01-27 06:28:29.70	26.84	30.18	-41.6	-43.7	17.3	6.02e-01	0	44	0	4418699264	54	4702
2026-01-27 06:28:30.71	26.33	30.07	-41.6	-43.7	17.3	6.00e-01	0	44	0	4435476480	54	4684
2026-01-27 06:28:31.72	25.82	29.95	-41.5	-43.6	17.4	6.01e-01	0	43	0	4452253696	54	4636
2026-01-27 06:28:32.72	25.32	29.83	-41.4	-43.6	17.4	6.01e-01	0	44	0	4466933760	54	4634
2026-01-27 06:28:33.73	24.81	29.71	-41.4	-43.7	17.3	6.02e-01	0	44	0	4481613824	54	4664
2026-01-27 06:28:34.74	24.32	29.59	-41.4	-43.7	17.3	6.00e-01	0	44	0	4498391040	54	4695
2026-01-27 06:28:35.75	23.82	29.47	-41.4	-43.6	17.4	6.01e-01	0	44	0	4513071104	54	4646
2026-01-27 06:28:36.76	23.33	29.34	-41.4	-43.6	17.3	6.01e-01	0	44	0	4527751168	54	4632
2026-01-27 06:28:37.77	22.85	29.22	-41.5	-43.6	17.4	5.99e-01	0	44	0	4544528384	54	4616
2026-01-27 06:28:38.77	22.37	29.09	-41.4	-43.4	17.5	5.99e-01	0	44	0	4559208448	54	4516
2026-01-27 06:28:39.78	21.90	28.96	-41.4	-43.5	17.5	6.00e-01	0	44	0	4573888512	54	4556
2026-01-27 06:28:40.79	21.42	28.83	-41.5	-43.6	17.4	6.01e-01	0	44	0	4590665728	54	4621
2026-01-27 06:28:41.79	20.96	28.70	-41.6	-43.7	17.3	6.01e-01	0	44	0	4605345792	54	4692
2026-01-27 06:28:42.80	20.50	28.57	-41.5	-43.8	17.3	6.00e-01	0	43	0	4620025856	54	4736
2026-01-27 06:28:43.80	20.04	28.43	-41.4	-43.7	17.3	6.01e-01	0	44	0	4636803072	54	4683
2026-01-27 06:28:44.81	19.58	28.30	-41.5	-43.8	17.3	5.99e-01	0	44	0	4653580288	54	4709
2026-01-27 06:28:45.81	19.14	28.16	-41.2	-43.3	17.6	5.99e-01	0	43	0	4668260352	54	4492
2026-01-27 06:28:46.82	18.69	28.03	-41.1	-43.1	17.7	6.01e-01	0	44	0	4682940416	54	4380
2026-01-27 06:28:47.83	18.25	27.89	-41.2	-43.1	17.7	6.01e-01	0	44	0	4699717632	54	4387
2026-01-27 06:28:48.84	17.81	27.75	-41.4	-43.3	17.6	6.01e-01	0	44	0	4714397696	54	4478
2026-01-27 06:28:49.84	17.38	27.61	-41.5	-43.4	17.5	6.00e-01	0	44	0	4729077760	54	4533
2026-01-27 06:28:50.85	16.95	27.47	-41.5	-43.5	17.5	6.00e-01	0	44	0	4745854976	54	4554
2026-01-27 06:28:51.86	16.52	27.33	-41.3	-43.4	17.6	6.01e-01	0	43	0	4760535040	54	4503
2026-01-27 06:28:52.87	16.10	27.19	-41.2	-43.2	17.7	6.00e-01	0	44	0	4775215104	54	4409
2026-01-27 06:28:53.88	15.68	27.05	-41.0	-43.0	17.8	6.00e-01	0	44	0	4791992320	54	4312
2026-01-27 06:28:54.89	15.27	26.90	-40.9	-43.0	17.9	6.01e-01	0	44	0	4806672384	53	4552
2026-01-27 06:28:55.89	14.86	26.76	-40.7	-42.8	17.9	6.01e-01	0	44	0	4821352448	53	4462
2026-01-27 06:28:56.90	14.45	26.62	-40.8	-42.8	17.9	6.03e-01	0	44	0	4838129664	53	4487
2026-01-27 06:28:57.91	14.05	26.47	-40.9	-43.0	17.8	6.00e-01	0	43	0	4854906880	53	4565
2026-01-27 06:28:58.92	13.66	26.33	-41.0	-43.1	17.8	6.03e-01	0	44	0	4869586944	53	4617
2026-01-27 06:28:59.93	13.26	26.18	-41.0	-43.1	17.7	6.00e-01	0	43	0	4884267008	53	4601
2026-01-27 06:29:00.93	12.88	26.03	-41.1	-43.1	17.7	5.99e-01	0	43	0	4901044224	53	4608
2026-01-27 06:29:01.94	12.49	25.89	-40.9	-42.8	17.9	5.99e-01	0	44	0	4915724288	53	4492
2026-01-27 06:29:02.95	12.11	25.74	-40.9	-42.9	17.9	5.97e-01	0	44	0	4930404352	53	4496
2026-01-27 06:29:03.95	11.73	25.60	-40.7	-42.7	17.9	5.96e-01	0	44	0	4947181568	53	4439
2026-01-27 06:29:04.96	11.36	25.45	-40.7	-42.8	17.9	5.99e-01	0	44	0	4961861632	53	4458
2026-01-27 06:29:05.96	10.99	25.30	-40.8	-42.9	17.8	5.97e-01	0	44	0	4976541696	53	4531
2026-01-27 06:29:06.97	10.63	25.15	-40.8	-42.9	17.8	6.02e-01	0	44	0	4993318912	53	4540
2026-01-27 06:29:07.98	10.27	25.01	-40.9	-43.0	17.7	6.00e-01	0	44	0	5007998976	53	4572
2026-01-27 06:29:08.99	9.91	24.86	-40.9	-43.0	17.7	5.98e-01	0	44	0	5022679040	53	4585
2026-01-27 06:29:10.00	9.55	24.71	-40.8	-42.9	17.8	6.00e-01	0	44	0	5037359104	53	4539
2026-01-27 06:29:11.00	9.21	24.56	-40.8	-42.9	17.9	6.04e-01	0	44	0	5054136320	53	4525
2026-01-27 06:29:12.01	8.86	24.42	-40.8	-42.9	17.8	6.01e-01	0	44	0	5068816384	53	4506
2026-01-27 06:29:13.01	8.52	24.27	-40.7	-42.8	18.0	6.00e-01	0	44	0	5085593600	53	4451
2026-01-27 06:29:14.02	8.18	24.12	-40.7	-42.8	17.8	6.02e-01	0	44	0	5100273664	53	4487
2026-01-27 06:29:15.03	7.84	23.97	-40.7	-42.8	17.9	6.00e-01	0	43	0	5117050880	53	4488
2026-01-27 06:29:16.04	7.51	23.82	-40.8	-43.0	17.7	6.02e-01	0	44	0	5131730944	53	4567
2026-01-27 06:29:17.05	7.18	23.68	-40.8	-43.0	17.7	6.01e-01	0	43	0	5146411008	53	4578
2026-01-27 06:29:18.06	6.85	23.53	-40.8	-42.9	17.8	6.00e-01	0	44	0	5163188224	53	4528
2026-01-27 06:29:19.07	6.53	23.38	-40.8	-42.9	17.9	6.01e-01	0	44	0	5177868288	53	4515
2026-01-27 06:29:20.08	6.21	23.23	-40.9	-42.9	17.8	6.01e-01	0	44	0	5192548352	53	4541
2026-01-27 06:29:21.09	5.90	23.09	-40.7	-42.7	18.0	6.00e-01	0	43	0	5209325568	53	4396
2026-01-27 06:29:22.09	5.59	22.94	-40.6	-42.5	18.1	6.00e-01	0	44	0	5224005632	53	4326
2026-01-27 06:29:23.10	5.28	22.79	-40.7	-42.6	18.0	6.00e-01	0	44	0	5238685696	53	4382
2026-01-27 06:29:24.11	4.97	22.65	-40.6	-42.6	18.1	6.00e-01	0	44	0	5255462912	53	4378
2026-01-27 06:29:25.11	4.67	22.50	-40.7	-42.7	18.0	5.99e-01	0	43	0	5272240128	53	4412
2026-01-27 06:29:26.12	4.38	22.36	-40.7	-42.7	17.9	5.99e-01	0	44	0	5286920192	53	4414
2026-01-27 06:29:27.13	4.08	22.21	-40.7	-42.8	17.9	6.01e-01	0	44	0	5301600256	53	4472
2026-01-27 06:29:28.13	3.79	22.07	-40.6	-42.7	17.9	6.01e-01	0	44	0	5318377472	53	4420
2026-01-27 06:29:29.13	3.50	21.92	-40.6	-42.7	17.9	6.02e-01	0	43	0	5333057536	53	4409
2026-01-27 06:29:30.13	3.22	21.78	-40.6	-42.6	18.0	5.99e-01	0	44	0	5347737600	53	4376
2026-01-27 06:29:31.14	2.94	21.64	-40.6	-42.6	17.9	5.99e-01	0	44	0	5364514816	53	4371
2026-01-27 06:29:32.15	2.66	21.49	-40.6	-42.7	17.9	5.98e-01	0	44	0	5379194880	53	4417
2026-01-27 06:29:33.15	2.38	21.35	-40.7	-42.8	17.8	6.01e-01	0	43	0	5393874944	53	4477
2026-01-27 06:29:34.16	2.11	21.21	-40.8	-42.9	17.8	5.99e-01	0	44	0	5410652160	53	4497
2026-01-27 06:29:35.16	1.84	21.06	-40.7	-42.8	17.9	5.99e-01	0	44	0	5425332224	53	4451
2026-01-27 06:29:36.17	1.57	20.92	-40.8	-42.8	17.8	6.01e-01	0	44	0	5440012288	53	4491
2026-01-27 06:29:37.18	1.30	20.78	-40.7	-42.8	17.9	5.99e-01	0	44	0	5456789504	53	4456
2026-01-27 06:29:38.19	1.04	20.64	-40.8	-42.9	17.8	6.00e-01	0	44	0	5471469568	53	4502
2026-01-27 06:29:39.20	0.78	20.50	-40.7	-42.7	17.9	6.02e-01	0	44	0	5486149632	53	4436
2026-01-27 06:29:40.20	0.52	20.36	-40.8	-42.8	17.8	6.00e-01	0	44	0	5502926848	53	4480
2026-01-27 06:29:41.21	0.27	20.22	-40.8	-42.9	17.8	6.00e-01	0	44	0	5519704064	53	4495
2026-01-27 06:29:42.23	0.01	20.08	-40.9	-43.0	17.7	6.02e-01	0	43	0	5534384128	53	4574
2026-01-27 06:29:43.23	359.77	19.94	-40.9	-43.0	17.6	5.97e-01	0	44	0	5549064192	53	4553
2026-01-27 06:29:44.24	359.52	19.80	-41.0	-43.1	17.6	6.00e-01	0	44	0	5565841408	53	4617
2026-01-27 06:29:45.25	359.28	19.66	-41.0	-43.1	17.6	5.99e-01	0	44	0	5580521472	53	4630
2026-01-27 06:29:46.25	359.04	19.52	-41.0	-43.1	17.6	5.99e-01	0	44	0	5595201536	53	4634
2026-01-27 06:29:47.26	358.80	19.39	-41.0	-43.2	17.5	5.98e-01	0	44	0	5611978752	53	4653
2026-01-27 06:29:48.27	358.56	19.25	-40.9	-43.0	17.6	6.01e-01	0	44	0	5626658816	53	4576
2026-01-27 06:29:49.28	358.33	19.11	-40.9	-43.0	17.6	6.00e-01	0	44	0	5641338880	53	4596
2026-01-27 06:29:50.28	358.10	18.98	-40.9	-43.0	17.6	5.97e-01	0	43	0	5658116096	53	4597
2026-01-27 06:29:51.29	357.87	18.84	-41.0	-43.1	17.6	6.00e-01	0	43	0	5672796160	53	4629
2026-01-27 06:29:52.30	357.64	18.71	-41.0	-43.2	17.5	5.97e-01	0	44	0	5687476224	53	4674
2026-01-27 06:29:53.31	357.41	18.57	-41.0	-43.2	17.5	5.98e-01	0	44	0	5704253440	53	4674
2026-01-27 06:29:54.32	357.19	18.44	-41.1	-43.3	17.4	5.98e-01	0	44	0	5721030656	53	4749
2026-01-27 06:29:55.32	356.97	18.31	-41.1	-43.4	17.4	5.87e-01	0	44	0	5735710720	53	4761
2026-01-27 06:29:56.33	356.76	18.17	-41.1	-43.3	17.5	5.86e-01	0	44	0	5750390784	53	4744
2026-01-27 06:29:57.33	356.54	18.04	-41.2	-43.4	17.4	5.87e-01	0	44	0	5767168000	53	4767
2026-01-27 06:29:58.34	356.33	17.91	-41.2	-43.4	17.4	5.87e-01	0	44	0	5781848064	53	4788
2026-01-27 06:29:59.35	356.12	17.78	-41.3	-43.4	17.4	5.87e-01	0	44	0	5796528128	53	4795
2026-01-27 06:30:00.36	355.91	17.65	-41.2	-43.4	17.4	5.86e-01	0	44	0	5813305344	53	4780
2026-01-27 06:30:01.36	355.70	17.52	-41.2	-43.3	17.4	5.87e-01	0	44	0	5827985408	53	4747
2026-01-27 06:30:02.37	355.50	17.39	-41.3	-43.5	17.3	5.87e-01	0	44	0	5842665472	53	4818
2026-01-27 06:30:03.38	355.30	17.26	-41.4	-43.5	17.3	5.87e-01	0	44	0	5859442688	53	4861
2026-01-27 06:30:04.38	355.10	17.14	-41.4	-43.6	17.3	5.87e-01	0	44	0	5874122752	53	4879
2026-01-27 06:30:05.39	354.90	17.01	-41.4	-43.6	17.2	5.87e-01	0	43	0	5888802816	53	4895
2026-01-27 06:30:06.39	354.70	16.88	-42.8	-43.7	17.1	5.88e-01	0	44	0	5905580032	56	4152
2026-01-27 06:30:07.40	354.51	16.75	-54.0	-63.0	3.8	7.44e-01	0	43	104	5916065792	78	10787
2026-01-27 06:30:08.41	354.31	16.63	-54.0	-62.8	3.8	7.48e-01	0	44	104	5916065792	78	10640
2026-01-27 06:30:09.41	354.13	16.50	-54.0	-62.8	3.8	7.46e-01	0	44	104	5916065792	78	10622
2026-01-27 06:30:10.41	353.94	16.38	-54.0	-62.8	3.8	7.45e-01	0	44	104	5916065792	78	10608
2026-01-27 06:30:11.42	353.75	16.26	-54.0	-62.8	3.8	7.46e-01	0	44	104	5916065792	78	10594
2026-01-27 06:30:12.43	353.57	16.13	-54.0	-62.8	3.8	7.46e-01	0	44	104	5916065792	78	10542
2026-01-27 06:30:13.44	353.38	16.01	-54.0	-62.8	3.8	7.47e-01	0	44	104	5916065792	78	10564
2026-01-27 06:30:14.44	353.20	15.89	-53.9	-62.7	3.8	7.44e-01	0	44	104	5916065792	78	10502
2026-01-27 06:30:15.45	353.02	15.76	-53.9	-62.7	3.8	7.46e-01	0	44	104	5916065792	78	10523
2026-01-27 06:30:16.45	352.85	15.64	-54.0	-62.8	3.8	7.43e-01	0	44	104	5916065792	78	10606
2026-01-27 06:30:17.46	352.67	15.52	-53.9	-62.8	3.8	7.44e-01	0	43	104	5916065792	78	10547
2026-01-27 06:30:18.47	352.49	15.40	-53.9	-62.7	3.8	7.45e-01	0	44	104	5916065792	78	10523
2026-01-27 06:30:19.48	352.32	15.28	-53.9	-62.8	3.8	7.46e-01	0	44	104	5916065792	78	10556
2026-01-27 06:30:20.49	352.15	15.16	-53.9	-62.8	3.8	7.44e-01	0	44	104	5916065792	78	10546
2026-01-27 06:30:21.49	351.98	15.04	-53.9	-62.8	3.8	7.46e-01	0	44	104	5916065792	78	10551
2026-01-27 06:30:22.50	351.81	14.92	-53.9	-62.7	3.8	7.45e-01	0	44	104	5916065792	78	10465
2026-01-27 06:30:23.51	351.65	14.81	-53.9	-62.7	3.8	7.46e-01	0	44	104	5916065792	78	10480
2026-01-27 06:30:24.52	351.48	14.69	-53.9	-62.7	3.8	7.45e-01	0	44	104	5916065792	78	10493
2026-01-27 06:30:25.53	351.32	14.57	-53.9	-62.7	3.8	7.45e-01	0	44	104	5916065792	78	10473
2026-01-27 06:30:26.53	351.16	14.46	-53.8	-62.7	3.8	7.46e-01	0	44	104	5916065792	78	10426
2026-01-27 06:30:27.54	351.00	14.34	-53.9	-62.7	3.8	7.44e-01	0	44	104	5916065792	78	10439
2026-01-27 06:30:28.55	350.84	14.22	-53.9	-62.7	3.8	7.46e-01	0	44	104	5916065792	78	10482
2026-01-27 06:30:29.56	350.68	14.11	-53.8	-62.6	3.8	7.46e-01	0	44	104	5916065792	78	10407
2026-01-27 06:30:30.56	350.53	14.00	-53.8	-62.6	3.8	7.46e-01	0	44	104	5916065792	78	10382
2026-01-27 06:30:31.57	350.37	13.88	-53.8	-62.6	3.8	7.45e-01	0	44	104	5916065792	78	10397
2026-01-27 06:30:32.58	350.22	13.77	-53.8	-62.6	3.8	7.47e-01	0	44	104	5916065792	78	10375
2026-01-27 06:30:33.59	350.07	13.66	-53.8	-62.6	3.8	7.47e-01	0	44	104	5916065792	78	10345
2026-01-27 06:30:34.59	349.92	13.54	-53.8	-62.6	3.8	7.43e-01	0	44	104	5916065792	78	10398
2026-01-27 06:30:35.60	349.77	13.43	-53.8	-62.6	3.8	7.45e-01	0	44	104	5916065792	78	10376
2026-01-27 06:30:36.60	349.63	13.32	-53.8	-62.6	3.8	7.44e-01	0	44	104	5916065792	78	10385
2026-01-27 06:30:37.61	349.48	13.21	-53.8	-62.6	3.8	7.46e-01	0	44	104	5916065792	78	10335
2026-01-27 06:30:38.62	349.34	13.10	-53.8	-62.6	3.8	7.45e-01	0	44	104	5916065792	78	10320
2026-01-27 06:30:39.63	349.19	12.99	-53.8	-62.6	3.8	7.45e-01	0	44	104	5916065792	78	10363
2026-01-27 06:30:40.63	349.05	12.88	-53.8	-62.6	3.8	7.45e-01	0	44	104	5916065792	78	10344
2026-01-27 06:30:41.64	348.91	12.77	-53.7	-62.6	3.8	7.45e-01	0	44	104	5916065792	78	10311
2026-01-27 06:30:42.64	348.77	12.67	-53.7	-62.5	3.8	7.45e-01	0	44	104	5916065792	78	10264
2026-01-27 06:30:43.65	348.63	12.56	-53.7	-62.6	3.8	7.45e-01	0	44	104	5916065792	78	10310
2026-01-27 06:30:44.65	348.50	12.45	-53.8	-62.6	3.8	7.47e-01	0	44	104	5916065792	78	10299
2026-01-27 06:30:45.66	348.36	12.35	-53.7	-62.5	3.8	7.45e-01	0	44	104	5916065792	78	10267
2026-01-27 06:30:46.67	348.23	12.24	-53.7	-62.5	3.8	7.45e-01	0	44	104	5916065792	78	10246
2026-01-27 06:30:47.67	348.10	12.14	-53.7	-62.5	3.8	7.43e-01	0	44	104	5916065792	78	10288
2026-01-27 06:30:48.68	347.96	12.03	-53.7	-62.5	3.8	7.44e-01	0	44	104	5916065792	78	10275
2026-01-27 06:30:49.68	347.83	11.93	-53.7	-62.5	3.8	7.46e-01	0	44	104	5916065792	78	10232
2026-01-27 06:30:50.69	347.70	11.82	-53.7	-62.5	3.8	7.44e-01	0	44	104	5916065792	78	10233
2026-01-27 06:30:51.69	347.58	11.72	-53.7	-62.5	3.8	7.45e-01	0	44	104	5916065792	78	10245
2026-01-27 06:30:52.70	347.45	11.61	-53.7	-62.5	3.8	7.46e-01	0	44	104	5916065792	78	10227
2026-01-27 06:30:53.71	347.32	11.51	-53.7	-62.5	3.8	7.44e-01	0	44	104	5916065792	78	10236
2026-01-27 06:30:54.71	347.20	11.41	-53.6	-62.5	3.8	7.44e-01	0	44	104	5916065792	78	10187
2026-01-27 06:30:55.72	347.08	11.31	-53.7	-62.5	3.8	7.47e-01	0	44	104	5916065792	78	10205
2026-01-27 06:30:56.73	346.95	11.21	-53.7	-62.5	3.8	7.45e-01	0	44	104	5916065792	78	10210
2026-01-27 06:30:57.73	346.83	11.11	-53.6	-62.4	3.8	7.44e-01	0	44	104	5916065792	78	10151
2026-01-27 06:30:58.74	346.71	11.01	-53.6	-62.4	3.8	7.45e-01	0	44	104	5916065792	78	10170
2026-01-27 06:30:59.75	346.59	10.90	-53.6	-62.5	3.8	7.44e-01	0	44	104	5916065792	78	10191
2026-01-27 06:31:00.75	346.47	10.81	-53.6	-62.4	3.8	7.46e-01	0	44	104	5916065792	78	10166
2026-01-27 06:31:01.76	346.35	10.71	-53.6	-62.4	3.8	7.46e-01	0	44	104	5916065792	78	10163
2026-01-27 06:31:02.77	346.24	10.61	-53.6	-62.4	3.8	7.46e-01	0	44	104	5916065792	78	10154
2026-01-27 06:31:03.77	346.12	10.51	-53.6	-62.4	3.8	7.46e-01	0	44	104	5916065792	78	10151
2026-01-27 06:31:04.77	346.01	10.41	-53.6	-62.4	3.8	7.44e-01	0	44	104	5916065792	78	10146
2026-01-27 06:31:05.78	345.90	10.31	-53.6	-62.4	3.8	7.46e-01	0	44	104	5916065792	78	10079
2026-01-27 06:31:06.78	345.78	10.22	-53.5	-62.4	3.8	7.44e-01	0	44	104	5916065792	78	10085
2026-01-27 06:31:07.78	345.67	10.12	-53.6	-62.4	3.8	7.44e-01	0	44	104	5916065792	78	10125
2026-01-27 06:31:08.79	345.56	10.03	-53.6	-62.4	3.8	7.45e-01	0	44	104	5916065792	78	10104
2026-01-27 06:31:09.79	345.45	9.93	-53.5	-62.3	3.8	7.46e-01	0	44	104	5916065792	78	10038
2026-01-27 06:31:10.80	345.34	9.83	-53.5	-62.3	3.8	7.46e-01	0	44	104	5916065792	78	10035
2026-01-27 06:31:11.81	345.23	9.74	-53.5	-62.4	3.8	7.46e-01	0	44	104	5916065792	78	10074
2026-01-27 06:31:12.82	345.13	9.64	-53.6	-62.4	3.8	7.45e-01	0	43	104	5916065792	78	10077
2026-01-27 06:31:13.82	345.02	9.55	-53.5	-62.3	3.8	7.45e-01	0	44	104	5916065792	78	9999
2026-01-27 06:31:14.83	344.92	9.46	-53.5	-62.3	3.8	7.46e-01	0	44	104	5916065792	78	10013
2026-01-27 06:31:15.84	344.81	9.36	-53.5	-62.3	3.8	7.45e-01	0	44	104	5916065792	78	10039
2026-01-27 06:31:16.85	344.71	9.27	-53.5	-62.3	3.8	7.45e-01	0	44	104	5916065792	78	10035
2026-01-27 06:31:17.86	344.60	9.18	-53.5	-62.3	3.8	7.46e-01	0	44	104	5916065792	78	9975
2026-01-27 06:31:18.87	344.50	9.08	-53.4	-62.3	3.8	7.45e-01	0	44	104	5916065792	78	9980
2026-01-27 06:31:19.87	344.40	8.99	-53.5	-62.3	3.8	7.45e-01	0	44	104	5916065792	78	10015
2026-01-27 06:31:20.88	344.30	8.90	-53.5	-62.3	3.8	7.46e-01	0	44	104	5916065792	78	10009
2026-01-27 06:31:21.89	344.20	8.81	-53.4	-62.2	3.8	7.46e-01	0	44	104	5916065792	78	9915
2026-01-27 06:31:22.89	344.10	8.72	-53.4	-62.2	3.8	7.45e-01	0	43	104	5916065792	78	9931
2026-01-27 06:31:23.90	344.00	8.63	-53.4	-62.3	3.8	7.45e-01	0	44	104	5916065792	78	9945
2026-01-27 06:31:24.91	343.91	8.54	-53.5	-62.3	3.8	7.45e-01	0	44	104	5916065792	78	9981
2026-01-27 06:31:25.92	343.81	8.45	-53.4	-62.2	3.8	7.45e-01	0	44	104	5916065792	78	9871
2026-01-27 06:31:26.92	343.72	8.36	-53.4	-62.2	3.8	7.46e-01	0	43	104	5916065792	78	9908
2026-01-27 06:31:27.93	343.62	8.27	-53.4	-62.2	3.8	7.46e-01	0	44	104	5916065792	78	9943
2026-01-27 06:31:28.93	343.53	8.18	-53.4	-62.2	3.8	7.45e-01	0	44	104	5916065792	78	9939
2026-01-27 06:31:29.94	343.43	8.09	-53.4	-62.2	3.8	7.42e-01	0	43	104	5916065792	78	9855
2026-01-27 06:31:30.94	343.34	8.01	-53.3	-62.1	3.8	7.44e-01	0	44	104	5916065792	78	9828
2026-01-27 06:31:31.95	343.25	7.92	-53.4	-62.2	3.8	7.44e-01	0	43	104	5916065792	78	9907
2026-01-27 06:31:32.96	343.16	7.83	-53.4	-62.2	3.8	7.45e-01	0	44	104	5916065792	78	9910
2026-01-27 06:31:33.97	343.07	7.74	-53.3	-62.1	3.8	7.44e-01	0	44	104	5916065792	78	9785
2026-01-27 06:31:34.97	342.98	7.66	-53.3	-62.1	3.8	7.45e-01	0	44	104	5916065792	78	9830
2026-01-27 06:31:35.98	342.89	7.57	-53.4	-62.2	3.8	7.46e-01	0	43	104	5916065792	78	9877
2026-01-27 06:31:36.99	342.80	7.48	-53.4	-62.2	3.8	7.44e-01	0	44	104	5916065792	78	9850
2026-01-27 06:31:38.01	342.71	7.40	-53.3	-62.1	3.8	7.45e-01	0	44	104	5916065792	78	9759
2026-01-27 06:31:39.01	342.62	7.31	-53.3	-62.1	3.8	7.44e-01	0	44	104	5916065792	78	9746
2026-01-27 06:31:40.03	342.54	7.23	-53.3	-62.1	3.8	7.45e-01	0	44	104	5916065792	78	9823
2026-01-27 06:31:41.03	342.45	7.14	-53.3	-62.1	3.8	7.47e-01	0	44	104	5916065792	78	9826
2026-01-27 06:31:42.04	342.37	7.06	-53.2	-62.0	3.8	7.44e-01	0	43	104	5916065792	78	9703
2026-01-27 06:31:43.05	342.28	6.97	-53.2	-62.0	3.8	7.44e-01	0	43	104	5916065792	78	9695
2026-01-27 06:31:44.06	342.20	6.89	-53.3	-62.1	3.8	7.45e-01	0	43	104	5916065792	78	9814
2026-01-27 06:31:45.07	342.11	6.81	-53.3	-62.1	3.8	7.44e-01	0	43	104	5916065792	78	9780
2026-01-27 06:31:46.07	342.03	6.72	-53.2	-62.0	3.8	7.45e-01	0	43	104	5916065792	78	9688
2026-01-27 06:31:47.08	341.95	6.64	-53.2	-62.0	3.8	7.45e-01	0	44	104	5916065792	78	9638
2026-01-27 06:31:48.09	341.87	6.56	-53.3	-62.1	3.8	7.44e-01	0	44	104	5916065792	78	9739
2026-01-27 06:31:49.09	341.79	6.48	-53.3	-62.1	3.8	7.45e-01	0	44	104	5916065792	78	9740
2026-01-27 06:31:50.10	341.71	6.40	-53.1	-62.0	3.8	7.45e-01	0	44	104	5916065792	78	9607
2026-01-27 06:31:51.11	341.63	6.31	-53.1	-62.0	3.8	7.44e-01	0	44	104	5916065792	78	9610
2026-01-27 06:31:52.12	341.55	6.23	-53.2	-62.0	3.8	7.44e-01	0	44	104	5916065792	78	9714
2026-01-27 06:31:53.13	341.47	6.15	-53.2	-62.1	3.8	7.46e-01	0	44	104	5916065792	78	9720
2026-01-27 06:31:54.14	341.39	6.07	-53.1	-61.9	3.8	7.46e-01	0	43	104	5916065792	78	9527
2026-01-27 06:31:55.15	341.31	5.99	-53.1	-61.9	3.8	7.46e-01	0	44	104	5916065792	78	9558
2026-01-27 06:31:56.15	341.24	5.91	-53.2	-62.0	3.8	7.46e-01	0	44	104	5916065792	78	9628
2026-01-27 06:31:57.16	341.16	5.83	-53.2	-62.0	3.8	7.45e-01	0	44	104	5916065792	78	9629
2026-01-27 06:31:58.17	341.09	5.75	-53.0	-61.8	3.8	7.45e-01	0	44	104	5916065792	78	9453
2026-01-27 06:31:59.18	341.01	5.67	-53.0	-61.8	3.8	7.45e-01	0	44	104	5916065792	78	9488
2026-01-27 06:32:00.19	340.94	5.59	-53.1	-61.9	3.8	7.46e-01	0	44	104	5916065792	78	9593
2026-01-27 06:32:01.20	340.86	5.51	-53.1	-62.0	3.8	7.46e-01	0	44	104	5916065792	78	9611
2026-01-27 06:32:02.20	340.79	5.44	-52.9	-61.7	3.8	7.46e-01	0	44	104	5916065792	77	9907
2026-01-27 06:32:03.21	340.72	5.36	-52.9	-61.7	3.8	7.46e-01	0	43	104	5916065792	77	9922
2026-01-27 06:32:04.22	340.64	5.28	-53.0	-61.8	3.8	7.45e-01	0	44	104	5916065792	77	10052
2026-01-27 06:32:05.23	340.57	5.20	-53.0	-61.9	3.8	7.45e-01	0	44	104	5916065792	77	10073
2026-01-27 06:32:06.23	340.50	5.13	-52.8	-61.6	3.8	7.46e-01	0	44	104	5916065792	77	9826
2026-01-27 06:32:07.24	340.43	5.05	-52.8	-61.6	3.8	7.46e-01	0	44	104	5916065792	77	9825
2026-01-27 06:32:08.25	340.36	4.97	-53.3	-62.1	3.8	7.46e-01	0	44	104	5916065792	77	10331
2026-01-27 06:32:09.26	340.29	4.89	-53.6	-62.4	3.8	7.45e-01	0	44	104	5916065792	77	10719
2026-01-27 06:32:10.27	340.22	4.82	-53.9	-62.7	3.8	7.45e-01	0	44	104	5916065792	78	10486
2026-01-27 06:32:11.28	340.15	4.74	-54.0	-62.8	3.8	7.45e-01	0	44	104	5916065792	78	10617
2026-01-27 06:32:12.29	340.08	4.67	-54.2	-63.0	3.8	7.46e-01	0	44	104	5916065792	78	10814
2026-01-27 06:32:13.29	340.02	4.59	-54.3	-63.1	3.8	7.46e-01	0	44	104	5916065792	79	10338
2026-01-27 06:32:14.30	339.95	4.52	-54.4	-63.2	3.8	7.46e-01	0	44	104	5916065792	79	10468
2026-01-27 06:32:15.31	339.88	4.44	-54.4	-63.3	3.8	7.45e-01	0	44	104	5916065792	79	10534
2026-01-27 06:32:16.32	339.81	4.37	-54.4	-63.2	3.8	7.46e-01	0	44	104	5916065792	79	10517
2026-01-27 06:32:17.33	339.75	4.29	-54.4	-63.2	3.8	7.45e-01	0	44	104	5916065792	79	10502
2026-01-27 06:32:18.33	339.68	4.22	-54.4	-63.2	3.8	7.44e-01	0	44	104	5916065792	79	10494
2026-01-27 06:32:19.34	339.62	4.14	-54.4	-63.2	3.8	7.46e-01	0	44	104	5916065792	79	10424
2026-01-27 06:32:20.35	339.55	4.07	-54.3	-63.1	3.8	7.45e-01	0	43	104	5916065792	79	10397
2026-01-27 06:32:21.36	339.49	4.00	-54.1	-63.0	3.8	7.45e-01	0	44	104	5916065792	79	10179
2026-01-27 06:32:22.37	339.42	3.92	-54.1	-62.9	3.8	7.43e-01	0	44	104	5916065792	79	10108
2026-01-27 06:32:23.37	339.36	3.85	-54.1	-63.0	3.8	7.46e-01	0	44	104	5916065792	79	10192
2026-01-27 06:32:24.38	339.30	3.78	-54.1	-63.0	3.8	7.45e-01	0	43	104	5916065792	79	10205
2026-01-27 06:32:25.39	339.24	3.70	-54.2	-63.0	3.8	7.45e-01	0	44	104	5916065792	79	10250
2026-01-27 06:32:26.40	339.17	3.63	-54.2	-63.0	3.8	7.44e-01	0	44	104	5916065792	79	10275
2026-01-27 06:32:27.41	339.11	3.56	-54.2	-63.0	3.8	7.47e-01	0	44	104	5916065792	79	10256
2026-01-27 06:32:28.41	339.05	3.49	-54.2	-63.0	3.8	7.46e-01	0	44	104	5916065792	79	10277
2026-01-27 06:32:29.42	338.99	3.42	-54.2	-63.0	3.8	7.47e-01	0	44	104	5916065792	79	10280
2026-01-27 06:32:30.43	338.93	3.34	-54.2	-63.0	3.8	7.45e-01	0	44	104	5916065792	79	10212
2026-01-27 06:32:31.44	338.87	3.27	-54.1	-63.0	3.8	7.46e-01	0	44	104	5916065792	79	10200
2026-01-27 06:32:32.45	338.81	3.20	-54.2	-63.0	3.8	7.44e-01	0	44	104	5916065792	79	10189
2026-01-27 06:32:33.45	338.75	3.13	-54.1	-63.0	3.8	7.45e-01	0	44	104	5916065792	79	10225
2026-01-27 06:32:34.46	338.69	3.06	-54.1	-62.9	3.8	7.45e-01	0	44	104	5916065792	79	10159
2026-01-27 06:32:35.47	338.63	2.99	-54.1	-62.9	3.8	7.45e-01	0	44	104	5916065792	79	10167
2026-01-27 06:32:36.48	338.57	2.92	-54.1	-63.0	3.8	7.46e-01	0	44	104	5916065792	79	10177
2026-01-27 06:32:37.48	338.52	2.85	-54.1	-62.9	3.8	7.45e-01	0	44	104	5916065792	79	10162
2026-01-27 06:32:38.49	338.46	2.78	-54.1	-63.0	3.8	7.45e-01	0	44	104	5916065792	79	10208
2026-01-27 06:32:39.50	338.40	2.71	-54.1	-63.0	3.8	7.44e-01	0	44	104	5916065792	79	10192
2026-01-27 06:32:40.51	338.35	2.64	-54.1	-62.9	3.8	7.46e-01	0	44	104	5916065792	79	10170
2026-01-27 06:32:41.52	338.29	2.57	-54.1	-62.9	3.8	7.46e-01	0	44	104	5916065792	79	10161
2026-01-27 06:32:42.52	338.23	2.50	-54.1	-62.9	3.8	7.46e-01	0	44	104	5916065792	79	10168
2026-01-27 06:32:43.53	338.18	2.44	-54.1	-62.9	3.8	7.44e-01	0	44	104	5916065792	79	10159
2026-01-27 06:32:44.54	338.12	2.37	-54.1	-62.9	3.8	7.45e-01	0	44	104	5916065792	79	10163
2026-01-27 06:32:45.55	338.07	2.30	-54.1	-62.9	3.8	7.44e-01	0	44	104	5916065792	79	10151
2026-01-27 06:32:46.56	338.01	2.23	-54.1	-62.9	3.8	7.45e-01	0	44	104	5916065792	79	10117
2026-01-27 06:32:47.57	337.96	2.16	-54.1	-62.9	3.8	7.46e-01	0	44	104	5916065792	79	10171
2026-01-27 06:32:48.58	337.91	2.09	-54.1	-62.9	3.8	7.44e-01	0	44	104	5916065792	79	10164
2026-01-27 06:32:49.58	337.85	2.03	-54.1	-63.0	3.8	7.44e-01	0	44	104	5916065792	79	10187
2026-01-27 06:32:50.59	337.80	1.96	-54.1	-62.9	3.8	7.46e-01	0	43	104	5916065792	79	10148

#Closed at: 2026-01-27 06:32:50
#Recorded file [5916 MB]: D:/lorett/data/31041_260127_092252.dat