passes_logs/2026/01/27/R3.2S_Murmansk/R3.2S_Murmansk__20260127_205218_JL1KF02B07_rec.log

#Pass ID: 20260127_205218_JL1KF02B07
#Satellite: JL1KF02B07
#Configuration: 01B_900M
#almurnet v.1.7.20251203
#Start time: 2026-01-27 20:52:18

#Version: 2.2.20231116
#Station: R3.2S_Murmansk
#Location: 33.079688 lon 68.888172 lat
#TLE: 1 65939U 25226B   26026.86604061  .00006800  00000+0  42973-3 0  9997
#TLE: 2 65939  97.6523 105.8489 0017785 257.8920 102.0316 15.09242664 16258

#Time	Az	El	Level	Level2	SNR	BER	BlckErr	Temp	State	Recorded	gain1	gain2
2026-01-27 20:52:18.73	208.62	2.00	-54.7	-56.8	6.2	0.00e+00	0	43	0	0	80	18869
2026-01-27 20:52:19.71	208.70	2.06	-54.7	-56.8	6.2	0.00e+00	0	43	104	0	80	18986
2026-01-27 20:52:20.68	208.79	2.12	-54.7	-56.8	6.2	0.00e+00	0	43	104	0	80	18899
2026-01-27 20:52:21.65	208.87	2.18	-54.7	-56.8	6.2	0.00e+00	0	43	104	0	80	18885
2026-01-27 20:52:22.63	208.96	2.24	-54.7	-56.8	6.2	0.00e+00	0	43	104	0	80	18832
2026-01-27 20:52:23.60	209.04	2.30	-54.7	-56.8	6.2	0.00e+00	0	43	104	0	80	18828
2026-01-27 20:52:24.57	209.13	2.36	-54.7	-56.8	6.2	0.00e+00	0	43	104	0	80	18833
2026-01-27 20:52:25.55	209.22	2.42	-54.7	-56.8	6.2	0.00e+00	0	43	104	0	80	18834
2026-01-27 20:52:26.52	209.30	2.48	-54.7	-56.8	6.2	0.00e+00	0	43	104	0	80	18857
2026-01-27 20:52:27.50	209.39	2.54	-54.8	-56.9	6.2	0.00e+00	0	43	104	0	80	19109
2026-01-27 20:52:28.47	209.48	2.60	-54.8	-56.9	6.2	0.00e+00	0	43	104	0	80	19222
2026-01-27 20:52:29.43	209.56	2.66	-54.9	-57.0	6.2	0.00e+00	0	44	104	0	80	19266
2026-01-27 20:52:30.41	209.65	2.72	-54.9	-57.0	6.2	0.00e+00	0	43	104	0	80	19293
2026-01-27 20:52:31.38	209.74	2.78	-54.8	-56.9	6.2	0.00e+00	0	44	104	0	80	19202
2026-01-27 20:52:32.36	209.83	2.84	-54.8	-56.9	6.2	0.00e+00	0	44	104	0	80	19184
2026-01-27 20:52:33.33	209.92	2.90	-54.8	-56.9	6.2	0.00e+00	0	44	104	0	80	19094
2026-01-27 20:52:34.30	210.01	2.96	-54.8	-56.8	6.2	0.00e+00	0	44	104	0	80	19030
2026-01-27 20:52:35.27	210.10	3.02	-54.7	-56.8	6.2	0.00e+00	0	44	104	0	80	18994
2026-01-27 20:52:36.24	210.19	3.08	-54.7	-56.8	6.2	0.00e+00	0	44	104	0	80	18981
2026-01-27 20:52:37.21	210.28	3.14	-54.7	-56.8	6.2	0.00e+00	0	44	104	0	80	18829
2026-01-27 20:52:38.19	210.37	3.20	-54.6	-56.7	6.2	0.00e+00	0	44	104	0	80	18704
2026-01-27 20:52:39.16	210.46	3.26	-54.6	-56.7	6.2	0.00e+00	0	44	104	0	80	18638
2026-01-27 20:52:40.13	210.55	3.32	-54.5	-56.6	6.2	0.00e+00	0	44	104	0	80	18520
2026-01-27 20:52:41.10	210.65	3.39	-54.5	-56.6	6.2	0.00e+00	0	44	104	0	80	18423
2026-01-27 20:52:42.08	210.74	3.45	-54.4	-56.5	6.2	0.00e+00	0	44	104	0	80	18257
2026-01-27 20:52:43.05	210.83	3.51	-54.3	-56.4	6.2	0.00e+00	0	44	104	0	80	18124
2026-01-27 20:52:44.02	210.93	3.57	-54.3	-56.3	6.2	0.00e+00	0	44	104	0	80	17897
2026-01-27 20:52:44.99	211.02	3.63	-54.2	-56.2	6.2	0.00e+00	0	44	104	0	80	17764
2026-01-27 20:52:45.96	211.12	3.69	-54.1	-56.1	6.2	0.00e+00	0	44	104	0	80	17537
2026-01-27 20:52:46.93	211.21	3.76	-54.0	-56.1	6.2	0.00e+00	0	44	104	0	79	18493
2026-01-27 20:52:47.90	211.31	3.82	-53.8	-55.9	6.2	0.00e+00	0	44	104	0	79	17995
2026-01-27 20:52:48.87	211.40	3.88	-53.4	-55.5	6.2	0.00e+00	0	44	104	0	78	18378
2026-01-27 20:52:49.84	211.50	3.94	-53.2	-55.4	6.2	0.00e+00	0	44	104	0	78	17989
2026-01-27 20:52:50.82	211.60	4.00	-53.2	-55.3	6.2	0.00e+00	0	44	104	0	78	17901
2026-01-27 20:52:51.79	211.70	4.07	-53.2	-55.3	6.2	0.00e+00	0	44	104	0	78	17968
2026-01-27 20:52:52.76	211.80	4.13	-53.2	-55.3	6.2	0.00e+00	0	44	104	0	78	17922
2026-01-27 20:52:53.73	211.89	4.19	-53.2	-55.3	6.2	0.00e+00	0	44	104	0	78	17910
2026-01-27 20:52:54.71	211.99	4.26	-53.2	-55.3	6.2	0.00e+00	0	44	104	0	78	17907
2026-01-27 20:52:55.68	212.09	4.32	-53.2	-55.3	6.2	0.00e+00	0	44	104	0	78	17888
2026-01-27 20:52:56.65	212.19	4.38	-53.2	-55.3	6.2	0.00e+00	0	44	104	0	78	17856
2026-01-27 20:52:57.62	212.30	4.45	-53.2	-55.3	6.2	0.00e+00	0	44	104	0	78	17873
2026-01-27 20:52:58.59	212.40	4.51	-53.2	-55.3	6.2	0.00e+00	0	44	104	0	78	17875
2026-01-27 20:52:59.56	212.50	4.57	-53.2	-55.3	6.2	0.00e+00	0	44	104	0	78	17846
2026-01-27 20:53:00.54	212.60	4.64	-53.2	-55.3	6.2	0.00e+00	0	44	104	0	78	17819
2026-01-27 20:53:01.51	212.70	4.70	-53.2	-55.3	6.2	0.00e+00	0	44	104	0	78	17846
2026-01-27 20:53:02.48	212.81	4.76	-53.2	-55.3	6.2	0.00e+00	0	44	104	0	78	17876
2026-01-27 20:53:03.45	212.91	4.83	-53.2	-55.2	6.2	0.00e+00	0	44	104	0	78	17734
2026-01-27 20:53:04.42	213.02	4.89	-53.2	-55.3	6.2	0.00e+00	0	45	104	0	78	17796
2026-01-27 20:53:05.39	213.12	4.96	-53.2	-55.3	6.2	0.00e+00	0	44	104	0	78	17818
2026-01-27 20:53:06.36	213.23	5.02	-53.2	-55.3	6.2	0.00e+00	0	44	104	0	78	17817
2026-01-27 20:53:07.33	213.33	5.08	-53.2	-55.3	6.2	0.00e+00	0	45	104	0	78	17810
2026-01-27 20:53:08.30	213.44	5.15	-53.3	-55.4	6.2	0.00e+00	0	45	104	0	78	18034
2026-01-27 20:53:09.27	213.55	5.21	-53.1	-55.2	6.2	0.00e+00	0	44	104	0	78	17713
2026-01-27 20:53:10.24	213.65	5.28	-53.3	-55.4	6.2	0.00e+00	0	44	104	0	78	17984
2026-01-27 20:53:11.21	213.76	5.34	-53.2	-55.3	6.2	0.00e+00	0	45	104	0	78	17849
2026-01-27 20:53:12.18	213.87	5.41	-53.1	-55.2	6.2	0.00e+00	0	45	104	0	78	17723
2026-01-27 20:53:13.15	213.98	5.47	-53.1	-55.2	6.2	0.00e+00	0	45	104	0	78	17626
2026-01-27 20:53:14.13	214.09	5.54	-53.3	-55.4	6.2	0.00e+00	0	45	104	0	78	17988
2026-01-27 20:53:15.10	214.20	5.61	-53.2	-55.3	6.2	0.00e+00	0	45	104	0	78	17807
2026-01-27 20:53:16.07	214.31	5.67	-53.1	-55.2	6.2	0.00e+00	0	45	104	0	78	17705
2026-01-27 20:53:17.04	214.42	5.74	-53.1	-55.2	6.2	0.00e+00	0	44	104	0	78	17589
2026-01-27 20:53:18.00	214.53	5.80	-53.2	-55.3	6.2	0.00e+00	0	44	104	0	78	17949
2026-01-27 20:53:18.97	214.65	5.87	-53.2	-55.3	6.2	0.00e+00	0	45	104	0	78	17855
2026-01-27 20:53:19.94	214.76	5.93	-53.1	-55.2	6.2	0.00e+00	0	45	104	0	78	17660
2026-01-27 20:53:20.92	214.87	6.00	-53.1	-55.2	6.2	0.00e+00	0	45	104	0	78	17651
2026-01-27 20:53:21.89	214.99	6.07	-53.2	-55.3	6.2	0.00e+00	0	45	104	0	78	17963
2026-01-27 20:53:22.86	215.10	6.13	-53.2	-55.3	6.2	0.00e+00	0	45	104	0	78	17828
2026-01-27 20:53:23.84	215.22	6.20	-53.1	-55.2	6.2	0.00e+00	0	45	104	0	78	17706
2026-01-27 20:53:24.81	215.34	6.27	-53.1	-55.2	6.2	0.00e+00	0	45	104	0	78	17586
2026-01-27 20:53:25.77	215.45	6.34	-53.2	-55.3	6.2	0.00e+00	0	45	104	0	78	17860
2026-01-27 20:53:26.75	215.57	6.40	-53.2	-55.3	6.2	0.00e+00	0	45	104	0	78	17900
2026-01-27 20:53:27.72	215.69	6.47	-53.1	-55.3	6.2	0.00e+00	0	45	104	0	78	17774
2026-01-27 20:53:28.70	215.81	6.54	-53.1	-55.2	6.2	0.00e+00	0	45	104	0	78	17621
2026-01-27 20:53:29.67	215.93	6.61	-53.2	-55.3	6.2	0.00e+00	0	45	104	0	78	17814
2026-01-27 20:53:30.64	216.05	6.67	-53.2	-55.3	6.2	0.00e+00	0	45	104	0	78	17905
2026-01-27 20:53:31.61	216.17	6.74	-53.1	-55.2	6.2	0.00e+00	0	45	104	0	78	17744
2026-01-27 20:53:32.58	216.29	6.81	-53.1	-55.2	6.2	0.00e+00	0	45	104	0	78	17636
2026-01-27 20:53:33.56	216.42	6.88	-53.1	-55.3	6.2	0.00e+00	0	45	104	0	78	17819
2026-01-27 20:53:34.53	216.54	6.95	-53.2	-55.3	6.2	0.00e+00	0	45	104	0	78	17913
2026-01-27 20:53:35.50	216.66	7.01	-53.2	-55.3	6.2	0.00e+00	0	45	104	0	78	17817
2026-01-27 20:53:36.48	216.79	7.08	-53.1	-55.2	6.2	0.00e+00	0	45	104	0	78	17687
2026-01-27 20:53:37.45	216.91	7.15	-53.1	-55.2	6.2	0.00e+00	0	45	104	0	78	17740
2026-01-27 20:53:38.42	217.04	7.22	-53.2	-55.3	6.2	0.00e+00	0	45	104	0	78	17919
2026-01-27 20:53:39.39	217.16	7.29	-53.2	-55.3	6.2	0.00e+00	0	45	104	0	78	17837
2026-01-27 20:53:40.36	217.29	7.36	-53.1	-55.2	6.2	0.00e+00	0	45	104	0	78	17696
2026-01-27 20:53:41.33	217.42	7.43	-53.1	-55.2	6.2	0.00e+00	0	45	104	0	78	17681
2026-01-27 20:53:42.30	217.55	7.50	-53.2	-55.3	6.2	0.00e+00	0	45	104	0	78	17936
2026-01-27 20:53:43.27	217.68	7.57	-53.2	-55.3	6.2	0.00e+00	0	45	104	0	78	17850
2026-01-27 20:53:44.25	217.81	7.64	-53.1	-55.2	6.2	0.00e+00	0	45	104	0	78	17729
2026-01-27 20:53:45.22	217.94	7.71	-53.1	-55.2	6.2	0.00e+00	0	45	104	0	78	17681
2026-01-27 20:53:46.19	218.07	7.78	-53.2	-55.3	6.2	0.00e+00	0	45	104	0	78	17917
2026-01-27 20:53:47.16	218.20	7.85	-53.2	-55.3	6.2	0.00e+00	0	45	104	0	78	17870
2026-01-27 20:53:48.13	218.33	7.92	-53.1	-55.2	6.2	0.00e+00	0	45	104	0	78	17725
2026-01-27 20:53:49.10	218.47	7.99	-53.1	-55.2	6.2	0.00e+00	0	45	104	0	78	17736
2026-01-27 20:53:50.07	218.60	8.06	-53.2	-55.4	6.2	0.00e+00	0	45	104	0	78	17996
2026-01-27 20:53:51.04	218.74	8.13	-53.2	-55.3	6.2	0.00e+00	0	45	104	0	78	17870
2026-01-27 20:53:52.01	218.87	8.20	-53.1	-55.2	6.2	0.00e+00	0	45	104	0	78	17760
2026-01-27 20:53:52.99	219.01	8.27	-53.1	-55.2	6.2	0.00e+00	0	45	104	0	78	17698
2026-01-27 20:53:53.96	219.15	8.34	-53.3	-55.4	6.2	0.00e+00	0	45	104	0	78	17992
2026-01-27 20:53:54.93	219.28	8.41	-53.2	-55.3	6.2	0.00e+00	0	45	104	0	78	17941
2026-01-27 20:53:55.91	219.42	8.48	-53.2	-55.3	6.2	0.00e+00	0	45	104	0	78	17795
2026-01-27 20:53:56.88	219.56	8.55	-53.2	-55.2	6.2	0.00e+00	0	45	104	0	78	17739
2026-01-27 20:53:57.85	219.70	8.62	-51.8	-53.1	6.3	0.00e+00	0	45	104	0	75	16538
2026-01-27 20:53:58.82	219.84	8.70	-53.3	-55.3	6.2	0.00e+00	0	45	104	0	77	19012
2026-01-27 20:53:59.79	219.99	8.77	-50.6	-51.5	6.4	0.00e+00	0	45	104	0	73	15344
2026-01-27 20:54:00.76	220.13	8.84	-50.5	-51.5	6.5	0.00e+00	0	45	104	0	72	16210
2026-01-27 20:54:01.73	220.27	8.91	-50.6	-51.7	6.4	0.00e+00	0	45	104	0	72	16638
2026-01-27 20:54:02.70	220.42	8.98	-50.6	-51.6	6.4	0.00e+00	0	45	104	0	72	16516
2026-01-27 20:54:03.67	220.56	9.05	-50.0	-51.0	6.5	0.00e+00	0	45	104	0	72	15308
2026-01-27 20:54:04.64	220.71	9.13	-49.8	-50.7	6.6	0.00e+00	0	45	104	0	71	15724
2026-01-27 20:54:05.61	220.85	9.20	-50.8	-52.0	6.4	0.00e+00	0	45	104	0	72	17248
2026-01-27 20:54:06.58	221.00	9.27	-51.9	-53.4	6.3	0.00e+00	0	46	104	0	75	17131
2026-01-27 20:54:07.55	221.15	9.34	-49.8	-50.6	6.6	0.00e+00	0	45	104	0	71	15594
2026-01-27 20:54:08.53	221.30	9.42	-50.7	-51.7	6.5	0.00e+00	0	45	104	0	73	15784
2026-01-27 20:54:09.50	221.45	9.49	-50.0	-50.9	6.6	0.00e+00	0	45	104	0	71	16032
2026-01-27 20:54:10.48	221.60	9.56	-49.6	-50.4	6.9	0.00e+00	0	46	104	0	71	15277
2026-01-27 20:54:11.45	221.75	9.64	-49.7	-50.5	6.9	0.00e+00	0	45	104	0	71	15418
2026-01-27 20:54:12.41	221.91	9.71	-49.7	-50.5	6.9	0.00e+00	0	45	104	0	71	15442
2026-01-27 20:54:13.39	222.06	9.78	-49.9	-50.8	6.8	0.00e+00	0	45	104	0	71	15961
2026-01-27 20:54:14.36	222.22	9.86	-52.3	-53.9	6.3	0.00e+00	0	45	104	0	76	17105
2026-01-27 20:54:15.33	222.37	9.93	-36.5	-36.4	14.9	5.11e-04	0	45	0	8388608	45	13508
2026-01-27 20:54:16.30	222.53	10.00	-35.3	-35.2	16.3	5.34e-05	0	45	0	125829120	42	13968
2026-01-27 20:54:17.28	222.69	10.08	-29.7	-29.5	17.3	0.00e+00	0	46	0	234881024	31	13778
2026-01-27 20:54:18.25	222.84	10.15	-29.4	-29.3	17.4	0.00e+00	0	46	0	352321536	30	14195
2026-01-27 20:54:19.22	223.00	10.22	-29.1	-29.0	17.6	0.00e+00	0	46	0	452984832	30	13679
2026-01-27 20:54:20.20	223.16	10.30	-29.2	-29.1	17.6	0.00e+00	0	46	0	562036736	30	13822
2026-01-27 20:54:21.17	223.33	10.37	-29.2	-29.1	17.6	0.00e+00	0	46	0	679477248	30	13887
2026-01-27 20:54:22.14	223.49	10.45	-28.9	-28.7	17.9	0.00e+00	0	46	0	788529152	29	14061
2026-01-27 20:54:23.11	223.65	10.52	-28.9	-28.7	17.8	0.00e+00	0	46	0	889192448	29	14066
2026-01-27 20:54:24.08	223.81	10.60	-29.0	-28.8	17.7	1.90e-06	0	46	0	998244352	29	14247
2026-01-27 20:54:25.06	223.98	10.67	-28.9	-28.8	17.7	0.00e+00	0	46	0	1115684864	29	14177
2026-01-27 20:54:26.03	224.15	10.75	-28.9	-28.7	17.8	0.00e+00	0	46	0	1224736768	29	14078
2026-01-27 20:54:27.01	224.31	10.82	-28.8	-28.7	17.7	0.00e+00	0	46	0	1325400064	29	13994
2026-01-27 20:54:27.97	224.48	10.90	-28.8	-28.6	17.8	1.90e-06	0	46	0	1442840576	29	13923
2026-01-27 20:54:28.94	224.65	10.97	-28.8	-28.7	17.7	0.00e+00	0	46	0	1551892480	29	14021
2026-01-27 20:54:29.91	224.82	11.05	-28.7	-28.6	17.7	0.00e+00	0	46	0	1652555776	29	13850
2026-01-27 20:54:30.88	224.99	11.12	-28.6	-28.4	17.9	0.00e+00	0	46	0	1769996288	29	13578
2026-01-27 20:54:31.86	225.16	11.20	-28.6	-28.4	17.8	3.80e-06	0	46	0	1879048192	29	13567
2026-01-27 20:54:32.82	225.33	11.27	-28.5	-28.3	18.0	0.00e+00	0	46	0	1979711488	28	14252
2026-01-27 20:54:33.80	225.51	11.35	-28.7	-28.5	17.9	0.00e+00	0	46	0	2088763392	28	14546
2026-01-27 20:54:34.77	225.68	11.42	-28.5	-28.4	17.9	1.90e-06	0	46	0	2206203904	28	14332
2026-01-27 20:54:35.74	225.86	11.50	-28.5	-28.3	18.0	0.00e+00	0	46	0	2315255808	28	14269
2026-01-27 20:54:36.71	226.03	11.57	-28.6	-28.4	17.9	0.00e+00	0	46	0	2415919104	28	14438
2026-01-27 20:54:37.68	226.21	11.65	-28.5	-28.4	17.9	0.00e+00	0	46	0	2533359616	28	14286
2026-01-27 20:54:38.65	226.39	11.72	-28.5	-28.3	17.9	0.00e+00	0	46	0	2642411520	28	14217
2026-01-27 20:54:39.62	226.57	11.80	-28.5	-28.4	18.0	1.90e-06	0	46	0	2743074816	28	14304
2026-01-27 20:54:40.59	226.75	11.88	-28.5	-28.4	18.0	0.00e+00	0	46	0	2860515328	28	14341
2026-01-27 20:54:41.56	226.93	11.95	-28.4	-28.2	18.1	0.00e+00	0	46	0	2969567232	28	14074
2026-01-27 20:54:42.53	227.11	12.03	-28.5	-28.4	18.0	1.90e-06	0	46	0	3070230528	28	14346
2026-01-27 20:54:43.50	227.30	12.10	-28.4	-28.3	18.0	0.00e+00	0	46	0	3187671040	28	14171
2026-01-27 20:54:44.47	227.48	12.18	-28.4	-28.3	18.1	0.00e+00	0	46	0	3296722944	28	14136
2026-01-27 20:54:45.44	227.67	12.26	-28.3	-28.2	18.1	0.00e+00	0	46	0	3405774848	28	13960
2026-01-27 20:54:46.42	227.86	12.33	-28.2	-28.1	18.0	0.00e+00	0	46	0	3506438144	28	13795
2026-01-27 20:54:47.38	228.05	12.41	-28.1	-28.0	18.2	0.00e+00	0	46	0	3623878656	28	13680
2026-01-27 20:54:48.36	228.24	12.49	-28.2	-28.1	18.0	0.00e+00	0	46	0	3732930560	28	13839
2026-01-27 20:54:49.33	228.43	12.56	-28.1	-27.9	18.2	0.00e+00	0	46	0	3833593856	28	13614
2026-01-27 20:54:50.30	228.62	12.64	-28.2	-28.0	18.2	0.00e+00	0	46	0	3951034368	28	13767
2026-01-27 20:54:51.27	228.81	12.72	-28.2	-28.0	18.2	0.00e+00	0	46	0	4060086272	28	13737
2026-01-27 20:54:52.24	229.01	12.79	-28.1	-27.9	18.0	0.00e+00	0	46	0	4177526784	28	13584
2026-01-27 20:54:53.21	229.20	12.87	-28.0	-27.9	18.1	0.00e+00	0	46	0	4278190080	28	13485
2026-01-27 20:54:54.19	229.40	12.95	-28.1	-27.9	18.1	1.90e-06	0	46	0	4387241984	27	14418
2026-01-27 20:54:55.16	229.60	13.02	-28.1	-28.0	18.1	0.00e+00	0	46	0	4496293888	27	14480
2026-01-27 20:54:56.13	229.79	13.10	-28.1	-27.9	18.3	0.00e+00	0	46	0	4605345792	27	14398
2026-01-27 20:54:57.10	229.99	13.18	-27.9	-27.8	18.1	0.00e+00	0	46	0	4714397696	27	14127
2026-01-27 20:54:58.07	230.20	13.25	-28.0	-27.9	18.2	0.00e+00	0	46	0	4823449600	27	14314
2026-01-27 20:54:59.04	230.40	13.33	-27.9	-27.8	18.2	0.00e+00	0	46	0	4940890112	27	14172
2026-01-27 20:55:00.01	230.60	13.40	-27.9	-27.8	18.1	0.00e+00	0	46	0	5041553408	27	14157
2026-01-27 20:55:00.98	230.80	13.48	-27.9	-27.8	18.0	0.00e+00	0	46	0	5150605312	27	14156
2026-01-27 20:55:01.95	231.01	13.56	-27.9	-27.7	18.1	0.00e+00	0	46	0	5268045824	27	14060
2026-01-27 20:55:02.92	231.22	13.63	-27.9	-27.8	18.1	0.00e+00	0	46	0	5368709120	27	14150
2026-01-27 20:55:03.89	231.43	13.71	-27.9	-27.7	18.2	0.00e+00	0	46	0	5477761024	27	14087
2026-01-27 20:55:04.86	231.63	13.79	-27.8	-27.6	18.3	0.00e+00	0	46	0	5595201536	27	13899
2026-01-27 20:55:05.83	231.84	13.86	-27.9	-27.7	18.2	0.00e+00	0	46	0	5704253440	27	14045
2026-01-27 20:55:06.81	232.06	13.94	-27.8	-27.7	18.2	0.00e+00	0	46	0	5804916736	27	13967
2026-01-27 20:55:07.78	232.27	14.02	-27.8	-27.6	18.0	0.00e+00	0	46	0	5913968640	27	13870
2026-01-27 20:55:08.75	232.49	14.09	-27.8	-27.6	18.2	0.00e+00	0	46	0	6031409152	27	13863
2026-01-27 20:55:09.72	232.70	14.17	-27.7	-27.6	18.3	0.00e+00	0	46	0	6132072448	27	13828
2026-01-27 20:55:10.69	232.92	14.25	-27.8	-27.6	18.1	0.00e+00	0	46	0	6241124352	27	13876
2026-01-27 20:55:11.66	233.14	14.32	-27.6	-27.5	18.2	0.00e+00	0	46	0	6358564864	27	13661
2026-01-27 20:55:12.63	233.35	14.40	-27.6	-27.4	18.2	0.00e+00	0	46	0	6459228160	27	13553
2026-01-27 20:55:13.60	233.57	14.48	-27.6	-27.4	18.2	3.80e-06	0	46	0	6568280064	27	13556
2026-01-27 20:55:14.57	233.80	14.55	-27.6	-27.5	18.1	0.00e+00	0	46	0	6685720576	27	13668
2026-01-27 20:55:15.54	234.02	14.63	-27.6	-27.4	18.2	0.00e+00	0	46	0	6794772480	27	13576
2026-01-27 20:55:16.51	234.24	14.70	-27.4	-27.3	18.2	0.00e+00	0	46	0	6895435776	26	14130
2026-01-27 20:55:17.48	234.47	14.78	-27.5	-27.4	18.1	0.00e+00	0	46	0	7012876288	26	14290
2026-01-27 20:55:18.45	234.70	14.86	-27.4	-27.3	18.1	0.00e+00	0	46	0	7121928192	26	14140
2026-01-27 20:55:19.43	234.93	14.93	-27.4	-27.2	18.1	0.00e+00	0	46	0	7222591488	26	14078
2026-01-27 20:55:20.40	235.16	15.01	-27.4	-27.3	18.1	0.00e+00	0	46	0	7331643392	26	14130
2026-01-27 20:55:21.36	235.38	15.08	-27.3	-27.2	18.2	0.00e+00	0	47	0	7449083904	26	14006
2026-01-27 20:55:22.34	235.62	15.16	-27.3	-27.1	18.2	0.00e+00	0	46	0	7558135808	26	13949
2026-01-27 20:55:23.31	235.85	15.24	-27.2	-27.1	18.3	0.00e+00	0	46	0	7658799104	26	13812
2026-01-27 20:55:24.28	236.09	15.31	-27.3	-27.1	18.2	0.00e+00	0	46	0	7776239616	26	13918
2026-01-27 20:55:25.25	236.32	15.39	-27.2	-27.0	18.2	0.00e+00	0	46	0	7885291520	26	13716
2026-01-27 20:55:26.22	236.56	15.46	-27.2	-27.0	18.2	0.00e+00	0	46	0	7985954816	26	13760
2026-01-27 20:55:27.19	236.80	15.54	-27.1	-27.0	18.3	0.00e+00	0	46	0	8103395328	26	13699
2026-01-27 20:55:28.16	237.04	15.61	-27.2	-27.0	18.2	0.00e+00	0	46	0	8212447232	26	13754
2026-01-27 20:55:29.13	237.28	15.68	-27.2	-27.0	18.1	0.00e+00	0	46	0	8321499136	26	13719
2026-01-27 20:55:30.10	237.52	15.76	-27.2	-27.0	18.3	0.00e+00	0	46	0	8430551040	26	13783
2026-01-27 20:55:31.08	237.77	15.83	-27.2	-27.0	18.1	0.00e+00	0	47	0	8539602944	26	13721
2026-01-27 20:55:32.05	238.01	15.91	-27.1	-26.9	18.2	0.00e+00	0	46	0	8648654848	26	13576
2026-01-27 20:55:33.02	238.26	15.98	-27.1	-27.0	18.3	0.00e+00	0	46	0	8749318144	26	13653
2026-01-27 20:55:33.98	238.51	16.06	-27.2	-27.1	18.3	0.00e+00	0	46	0	8866758656	26	13827
2026-01-27 20:55:34.96	238.76	16.13	-27.2	-27.1	18.2	0.00e+00	0	46	0	8975810560	26	13842
2026-01-27 20:55:35.93	239.01	16.20	-27.1	-26.9	18.3	0.00e+00	0	46	0	9076473856	26	13573
2026-01-27 20:55:36.90	239.26	16.28	-27.1	-27.0	18.1	0.00e+00	0	46	0	9193914368	26	13672
2026-01-27 20:55:37.87	239.51	16.35	-27.2	-27.0	18.2	0.00e+00	0	46	0	9302966272	26	13701
2026-01-27 20:55:38.84	239.77	16.42	-27.1	-26.9	18.2	0.00e+00	0	46	0	9420406784	26	13580
2026-01-27 20:55:39.81	240.03	16.49	-26.9	-26.8	18.2	0.00e+00	0	46	0	9521070080	25	14158
2026-01-27 20:55:40.78	240.28	16.57	-27.0	-26.8	18.0	0.00e+00	0	46	0	9630121984	25	14175
2026-01-27 20:55:41.76	240.54	16.64	-27.1	-26.9	18.0	0.00e+00	0	46	0	9739173888	25	14354
2026-01-27 20:55:42.73	240.81	16.71	-27.0	-26.9	18.2	0.00e+00	0	46	0	9848225792	25	14321
2026-01-27 20:55:43.69	241.06	16.78	-27.0	-26.9	18.1	0.00e+00	0	46	0	9957277696	25	14302
2026-01-27 20:55:44.66	241.33	16.85	-27.0	-26.8	17.9	0.00e+00	0	46	0	10066329600	25	14247
2026-01-27 20:55:45.63	241.59	16.92	-27.1	-26.9	17.9	1.90e-06	0	46	0	10183770112	25	14409
2026-01-27 20:55:46.61	241.86	17.00	-27.0	-26.8	18.1	0.00e+00	0	46	0	10284433408	25	14187
2026-01-27 20:55:47.57	242.12	17.07	-27.0	-26.8	18.0	0.00e+00	0	46	0	10393485312	25	14244
2026-01-27 20:55:48.54	242.39	17.14	-27.0	-26.8	18.1	0.00e+00	0	46	0	10510925824	25	14191
2026-01-27 20:55:49.51	242.66	17.21	-26.9	-26.7	17.9	0.00e+00	0	46	0	10611589120	25	14016
2026-01-27 20:55:50.48	242.94	17.27	-26.7	-26.6	18.1	0.00e+00	0	46	0	10720641024	25	13820
2026-01-27 20:55:51.46	243.21	17.34	-26.8	-26.7	18.1	0.00e+00	0	46	0	10838081536	25	13983
2026-01-27 20:55:52.43	243.48	17.41	-26.8	-26.6	18.1	0.00e+00	0	46	0	10947133440	25	13894
2026-01-27 20:55:53.40	243.76	17.48	-26.9	-26.7	18.0	0.00e+00	0	46	0	11047796736	25	14003
2026-01-27 20:55:54.37	244.04	17.55	-26.8	-26.6	18.1	0.00e+00	0	46	0	11156848640	25	13924
2026-01-27 20:55:55.34	244.32	17.62	-26.7	-26.5	17.8	0.00e+00	0	46	0	11274289152	25	13730
2026-01-27 20:55:56.31	244.60	17.68	-26.6	-26.5	17.9	0.00e+00	0	46	0	11374952448	25	13682
2026-01-27 20:55:57.28	244.88	17.75	-26.7	-26.5	17.9	0.00e+00	0	46	0	11484004352	25	13728
2026-01-27 20:55:58.24	245.16	17.82	-26.6	-26.5	17.5	0.00e+00	0	46	0	11601444864	25	13639
2026-01-27 20:55:59.21	245.44	17.88	-26.7	-26.5	17.6	0.00e+00	0	46	0	11702108160	25	13734
2026-01-27 20:56:00.18	245.72	17.95	-26.6	-26.4	17.5	0.00e+00	0	46	0	11811160064	25	13588
2026-01-27 20:56:01.15	246.01	18.02	-26.5	-26.4	17.6	0.00e+00	0	46	0	11928600576	25	13531
2026-01-27 20:56:02.12	246.30	18.08	-26.6	-26.4	17.5	0.00e+00	0	46	0	12029263872	25	13543
2026-01-27 20:56:03.09	246.59	18.14	-26.6	-26.5	17.5	0.00e+00	0	46	0	12138315776	25	13661
2026-01-27 20:56:04.06	246.88	18.21	-26.5	-26.3	17.6	0.00e+00	0	46	0	12255756288	25	13422
2026-01-27 20:56:05.03	247.17	18.27	-26.5	-26.3	17.4	0.00e+00	0	46	0	12364808192	24	14200
2026-01-27 20:56:06.00	247.46	18.34	-26.5	-26.4	17.3	0.00e+00	0	46	0	12465471488	24	14292
2026-01-27 20:56:06.97	247.76	18.40	-26.4	-26.2	17.3	0.00e+00	0	46	0	12574523392	24	14107
2026-01-27 20:56:07.94	248.05	18.46	-26.4	-26.2	17.4	0.00e+00	0	46	0	12691963904	24	14085
2026-01-27 20:56:08.92	248.35	18.52	-26.5	-26.3	17.3	0.00e+00	0	46	0	12792627200	24	14228
2026-01-27 20:56:09.89	248.65	18.58	-26.4	-26.2	17.4	0.00e+00	0	46	0	12901679104	24	14075
2026-01-27 20:56:10.86	248.95	18.64	-26.3	-26.1	17.4	0.00e+00	0	46	0	13019119616	24	13870
2026-01-27 20:56:11.83	249.25	18.70	-26.3	-26.1	17.3	0.00e+00	0	46	0	13119782912	24	13899
2026-01-27 20:56:12.81	249.56	18.76	-26.2	-26.1	17.4	0.00e+00	0	46	0	13228834816	24	13799
2026-01-27 20:56:13.78	249.86	18.82	-26.3	-26.1	17.4	0.00e+00	0	47	0	13346275328	24	13869
2026-01-27 20:56:14.75	250.17	18.88	-26.2	-26.0	17.1	0.00e+00	0	46	0	13455327232	24	13758
2026-01-27 20:56:15.72	250.48	18.94	-26.2	-26.1	17.4	0.00e+00	0	47	0	13555990528	24	13796
2026-01-27 20:56:16.69	250.78	19.00	-26.1	-26.0	17.2	0.00e+00	0	46	0	13673431040	24	13675
2026-01-27 20:56:17.66	251.09	19.05	-26.2	-26.1	16.8	1.90e-06	0	47	0	13782482944	24	13816
2026-01-27 20:56:18.63	251.40	19.11	-26.2	-26.0	16.9	0.00e+00	0	46	0	13883146240	24	13725
2026-01-27 20:56:19.60	251.71	19.17	-26.2	-26.1	17.3	0.00e+00	0	47	0	13992198144	24	13804
2026-01-27 20:56:20.56	252.02	19.22	-26.1	-25.9	17.0	1.90e-06	0	46	0	14109638656	24	13547
2026-01-27 20:56:21.54	252.34	19.28	-26.1	-25.9	16.8	0.00e+00	0	47	0	14218690560	24	13547
2026-01-27 20:56:22.50	252.65	19.33	-26.1	-25.9	16.8	0.00e+00	0	46	0	14319353856	24	13620
2026-01-27 20:56:23.47	252.97	19.38	-26.1	-26.0	16.7	0.00e+00	0	46	0	14436794368	24	13641
2026-01-27 20:56:24.45	253.29	19.43	-26.1	-25.9	16.8	0.00e+00	0	47	0	14545846272	24	13525
2026-01-27 20:56:25.42	253.61	19.49	-26.2	-26.0	17.0	0.00e+00	0	46	0	14646509568	24	13713
2026-01-27 20:56:26.39	253.93	19.54	-26.1	-25.9	16.9	0.00e+00	0	46	0	14763950080	24	13628
2026-01-27 20:56:27.36	254.25	19.59	-25.9	-25.8	17.1	0.00e+00	0	47	0	14873001984	23	14142
2026-01-27 20:56:28.33	254.57	19.64	-26.1	-25.9	17.0	0.00e+00	0	46	0	14973665280	23	14390
2026-01-27 20:56:29.30	254.89	19.69	-26.0	-25.9	17.0	0.00e+00	0	46	0	15082717184	23	14309
2026-01-27 20:56:30.27	255.22	19.73	-26.0	-25.8	16.9	0.00e+00	0	47	0	15200157696	23	14214
2026-01-27 20:56:31.24	255.54	19.78	-26.0	-25.8	17.2	0.00e+00	0	47	0	15309209600	23	14215
2026-01-27 20:56:32.21	255.87	19.83	-25.9	-25.8	17.2	0.00e+00	0	47	0	15409872896	23	14113
2026-01-27 20:56:33.18	256.20	19.87	-26.0	-25.8	16.9	0.00e+00	0	47	0	15527313408	23	14206
2026-01-27 20:56:34.15	256.53	19.92	-25.9	-25.7	17.0	0.00e+00	0	47	0	15636365312	23	14094
2026-01-27 20:56:35.12	256.86	19.96	-25.9	-25.8	17.0	0.00e+00	0	46	0	15737028608	23	14118
2026-01-27 20:56:36.10	257.19	20.01	-25.9	-25.8	17.1	0.00e+00	0	47	0	15854469120	23	14159
2026-01-27 20:56:37.07	257.52	20.05	-25.9	-25.8	17.1	0.00e+00	0	47	0	15963521024	23	14145
2026-01-27 20:56:38.04	257.86	20.09	-25.9	-25.7	17.1	0.00e+00	0	47	0	16072572928	23	14091
2026-01-27 20:56:39.02	258.19	20.14	-25.9	-25.7	17.3	0.00e+00	0	47	0	16181624832	23	14095
2026-01-27 20:56:39.99	258.53	20.18	-26.0	-25.9	17.5	0.00e+00	0	47	0	16290676736	23	14277
2026-01-27 20:56:40.96	258.86	20.22	-25.9	-25.7	17.3	0.00e+00	0	46	0	16399728640	23	14045
2026-01-27 20:56:41.93	259.20	20.25	-25.9	-25.7	17.4	0.00e+00	0	46	0	16500391936	23	14098
2026-01-27 20:56:42.90	259.54	20.29	-26.0	-25.8	17.5	0.00e+00	0	46	0	16617832448	23	14244
2026-01-27 20:56:43.87	259.88	20.33	-26.0	-25.8	17.6	0.00e+00	0	46	0	16726884352	23	14205
2026-01-27 20:56:44.84	260.22	20.37	-26.0	-25.8	17.6	0.00e+00	0	47	0	16844324864	23	14221
2026-01-27 20:56:45.81	260.56	20.40	-25.9	-25.7	17.7	0.00e+00	0	47	0	16944988160	23	14059
2026-01-27 20:56:46.78	260.90	20.44	-25.8	-25.7	17.9	0.00e+00	0	46	0	17054040064	23	13979
2026-01-27 20:56:47.75	261.24	20.47	-25.9	-25.7	17.7	0.00e+00	0	46	0	17171480576	23	14053
2026-01-27 20:56:48.73	261.58	20.50	-25.8	-25.6	17.9	0.00e+00	0	46	0	17272143872	23	13862
2026-01-27 20:56:49.70	261.93	20.53	-25.8	-25.6	17.9	0.00e+00	0	46	0	17381195776	23	13931
2026-01-27 20:56:50.67	262.27	20.57	-25.9	-25.7	17.8	0.00e+00	0	47	0	17490247680	23	14059
2026-01-27 20:56:51.64	262.62	20.60	-25.9	-25.7	18.1	0.00e+00	0	47	0	17607688192	23	14038
2026-01-27 20:56:52.62	262.97	20.63	-25.9	-25.7	17.8	0.00e+00	0	46	0	17708351488	23	14012
2026-01-27 20:56:53.59	263.31	20.65	-25.9	-25.7	17.9	0.00e+00	0	47	0	17817403392	23	14034
2026-01-27 20:56:54.56	263.66	20.68	-25.9	-25.7	18.3	0.00e+00	0	47	0	17934843904	23	14017
2026-01-27 20:56:55.53	264.01	20.71	-25.9	-25.7	17.9	0.00e+00	0	47	0	18035507200	23	14101
2026-01-27 20:56:56.50	264.36	20.73	-25.9	-25.7	18.2	0.00e+00	0	46	0	18144559104	23	14047
2026-01-27 20:56:57.46	264.70	20.76	-26.0	-25.8	18.2	0.00e+00	0	47	0	18261999616	23	14236
2026-01-27 20:56:58.44	265.05	20.78	-26.0	-25.8	18.0	0.00e+00	0	47	0	18371051520	23	14171
2026-01-27 20:56:59.41	265.40	20.80	-26.1	-25.9	18.2	0.00e+00	0	47	0	18471714816	23	14363
2026-01-27 20:57:00.39	265.76	20.82	-26.0	-25.8	18.4	0.00e+00	0	47	0	18589155328	23	14253
2026-01-27 20:57:01.36	266.11	20.85	-26.1	-25.9	18.4	0.00e+00	0	47	0	18698207232	23	14326
2026-01-27 20:57:02.33	266.46	20.87	-26.1	-25.9	18.4	0.00e+00	0	47	0	18798870528	23	14374
2026-01-27 20:57:03.30	266.81	20.88	-26.0	-25.8	18.6	0.00e+00	0	47	0	18907922432	23	14263
2026-01-27 20:57:04.28	267.17	20.90	-26.1	-25.9	18.5	0.00e+00	0	47	0	19025362944	23	14358
2026-01-27 20:57:05.25	267.52	20.92	-26.1	-25.9	18.5	0.00e+00	0	47	0	19134414848	23	14335
2026-01-27 20:57:06.22	267.88	20.93	-26.1	-25.9	18.5	0.00e+00	0	46	0	19235078144	23	14396
2026-01-27 20:57:07.19	268.23	20.95	-26.2	-26.0	18.8	0.00e+00	0	47	0	19352518656	23	14528
2026-01-27 20:57:08.16	268.58	20.96	-26.2	-26.0	18.7	0.00e+00	0	47	0	19461570560	23	14540
2026-01-27 20:57:09.13	268.94	20.98	-26.2	-26.0	18.8	0.00e+00	0	47	0	19562233856	23	14509
2026-01-27 20:57:10.10	269.29	20.99	-26.1	-25.9	18.8	0.00e+00	0	47	0	19679674368	23	14428
2026-01-27 20:57:11.07	269.65	21.00	-26.2	-26.0	18.9	0.00e+00	0	47	0	19788726272	23	14517
2026-01-27 20:57:12.05	270.01	21.01	-26.1	-25.9	18.8	0.00e+00	0	47	0	19897778176	23	14433
2026-01-27 20:57:13.02	270.36	21.02	-26.2	-26.0	18.9	0.00e+00	0	47	0	20006830080	23	14522
2026-01-27 20:57:13.99	270.72	21.02	-26.3	-26.2	19.0	0.00e+00	0	47	0	20115881984	23	14803
2026-01-27 20:57:14.96	271.07	21.03	-26.3	-26.1	19.0	0.00e+00	0	47	0	20224933888	23	14658
2026-01-27 20:57:15.93	271.43	21.04	-26.3	-26.1	19.0	0.00e+00	0	46	0	20325597184	23	14735
2026-01-27 20:57:16.91	271.79	21.04	-26.3	-26.1	19.0	0.00e+00	0	47	0	20443037696	23	14760
2026-01-27 20:57:17.88	272.15	21.04	-26.2	-26.0	19.2	0.00e+00	0	47	0	20552089600	23	14550
2026-01-27 20:57:18.85	272.50	21.05	-26.2	-26.0	19.2	0.00e+00	0	46	0	20669530112	23	14488
2026-01-27 20:57:19.82	272.86	21.05	-26.2	-26.1	19.2	0.00e+00	0	46	0	20770193408	23	14628
2026-01-27 20:57:20.79	273.21	21.05	-26.2	-26.0	19.2	0.00e+00	0	47	0	20879245312	23	14581
2026-01-27 20:57:21.76	273.57	21.05	-26.3	-26.1	19.5	0.00e+00	0	46	0	20996685824	23	14668
2026-01-27 20:57:22.73	273.93	21.05	-26.4	-26.2	19.3	0.00e+00	0	47	0	21097349120	23	14894
2026-01-27 20:57:23.70	274.28	21.04	-26.4	-26.3	19.5	0.00e+00	0	47	0	21206401024	23	14950
2026-01-27 20:57:24.67	274.64	21.04	-26.1	-25.9	19.6	0.00e+00	0	46	0	21315452928	23	14433
2026-01-27 20:57:25.64	274.99	21.03	-26.2	-26.0	19.7	0.00e+00	0	46	0	21432893440	23	14535
2026-01-27 20:57:26.61	275.35	21.03	-26.2	-26.0	19.7	0.00e+00	0	47	0	21533556736	23	14527
2026-01-27 20:57:27.58	275.71	21.02	-26.3	-26.1	19.6	0.00e+00	0	47	0	21642608640	23	14682
2026-01-27 20:57:28.56	276.06	21.01	-26.3	-26.1	19.6	0.00e+00	0	47	0	21760049152	23	14708
2026-01-27 20:57:29.53	276.42	21.01	-26.1	-26.0	19.7	0.00e+00	0	46	0	21860712448	23	14468
2026-01-27 20:57:30.50	276.77	21.00	-26.3	-26.1	19.7	0.00e+00	0	47	0	21969764352	23	14704
2026-01-27 20:57:31.47	277.13	20.99	-26.3	-26.1	19.7	0.00e+00	0	47	0	22087204864	23	14764
2026-01-27 20:57:32.44	277.48	20.97	-26.4	-26.2	19.7	0.00e+00	0	47	0	22196256768	23	14907
2026-01-27 20:57:33.41	277.84	20.96	-26.4	-26.2	19.7	0.00e+00	0	47	0	22296920064	23	14923
2026-01-27 20:57:34.38	278.19	20.95	-26.5	-26.3	19.8	0.00e+00	0	47	0	22414360576	23	15073
2026-01-27 20:57:35.36	278.55	20.93	-26.4	-26.2	19.9	0.00e+00	0	47	0	22523412480	23	14848
2026-01-27 20:57:36.32	278.90	20.92	-26.4	-26.2	19.8	0.00e+00	0	47	0	22624075776	23	14923
2026-01-27 20:57:37.29	279.25	20.90	-26.5	-26.3	19.9	0.00e+00	0	47	0	22733127680	23	15036
2026-01-27 20:57:38.26	279.60	20.88	-26.5	-26.3	19.8	0.00e+00	0	46	0	22850568192	23	15054
2026-01-27 20:57:39.23	279.95	20.86	-26.5	-26.3	20.0	0.00e+00	0	47	0	22951231488	23	15008
2026-01-27 20:57:40.20	280.30	20.84	-26.7	-26.5	19.8	0.00e+00	0	47	0	23060283392	23	15461
2026-01-27 20:57:41.17	280.66	20.82	-26.5	-26.4	20.0	0.00e+00	0	47	0	23177723904	24	14312
2026-01-27 20:57:42.14	281.01	20.80	-26.7	-26.5	19.8	0.00e+00	0	47	0	23286775808	24	14590
2026-01-27 20:57:43.11	281.35	20.78	-26.5	-26.4	19.9	0.00e+00	0	47	0	23387439104	24	14302
2026-01-27 20:57:44.08	281.70	20.75	-26.6	-26.4	19.9	0.00e+00	0	46	0	23504879616	24	14428
2026-01-27 20:57:45.05	282.05	20.73	-26.5	-26.4	19.9	0.00e+00	0	47	0	23613931520	24	14330
2026-01-27 20:57:46.02	282.40	20.70	-26.6	-26.4	19.8	0.00e+00	0	47	0	23714594816	24	14412
2026-01-27 20:57:46.99	282.75	20.68	-26.6	-26.5	19.8	0.00e+00	0	47	0	23832035328	24	14490
2026-01-27 20:57:47.96	283.09	20.65	-26.6	-26.5	19.8	0.00e+00	0	47	0	23941087232	24	14462
2026-01-27 20:57:48.93	283.44	20.62	-26.7	-26.6	19.7	0.00e+00	0	47	0	24050139136	24	14653
2026-01-27 20:57:49.91	283.79	20.59	-26.6	-26.4	19.7	0.00e+00	0	47	0	24150802432	24	14423
2026-01-27 20:57:50.87	284.13	20.56	-26.8	-26.6	19.6	0.00e+00	0	47	0	24268242944	24	14669
2026-01-27 20:57:51.84	284.47	20.53	-26.6	-26.4	19.7	0.00e+00	0	47	0	24377294848	24	14438
2026-01-27 20:57:52.82	284.82	20.50	-26.7	-26.5	19.7	0.00e+00	0	47	0	24477958144	24	14512
2026-01-27 20:57:53.79	285.16	20.47	-26.7	-26.6	19.7	0.00e+00	0	47	0	24595398656	24	14615
2026-01-27 20:57:54.76	285.50	20.43	-26.7	-26.5	19.7	0.00e+00	0	47	0	24704450560	24	14505
2026-01-27 20:57:55.73	285.84	20.40	-26.7	-26.6	19.6	0.00e+00	0	47	0	24805113856	24	14657
2026-01-27 20:57:56.70	286.18	20.36	-26.7	-26.6	19.6	0.00e+00	0	47	0	24922554368	24	14652
2026-01-27 20:57:57.67	286.52	20.33	-26.7	-26.5	19.6	0.00e+00	0	47	0	25031606272	24	14554
2026-01-27 20:57:58.65	286.86	20.29	-26.8	-26.6	19.6	0.00e+00	0	47	0	25140658176	24	14696
2026-01-27 20:57:59.62	287.20	20.25	-26.8	-26.6	19.6	0.00e+00	0	46	0	25241321472	24	14710
2026-01-27 20:58:00.59	287.53	20.21	-26.8	-26.6	19.5	0.00e+00	0	47	0	25358761984	24	14737
2026-01-27 20:58:01.56	287.87	20.17	-26.8	-26.6	19.5	0.00e+00	0	47	0	25467813888	24	14771
2026-01-27 20:58:02.53	288.20	20.13	-26.9	-26.7	19.5	0.00e+00	0	47	0	25585254400	24	14840
2026-01-27 20:58:03.50	288.53	20.09	-26.9	-26.7	19.6	0.00e+00	0	46	0	25685917696	24	14848
2026-01-27 20:58:04.47	288.86	20.05	-26.9	-26.7	19.5	0.00e+00	0	47	0	25794969600	24	14875
2026-01-27 20:58:05.44	289.19	20.01	-26.9	-26.8	19.4	0.00e+00	0	47	0	25912410112	24	14995
2026-01-27 20:58:06.41	289.52	19.96	-26.9	-26.8	19.4	0.00e+00	0	47	0	26013073408	24	14978
2026-01-27 20:58:07.38	289.85	19.92	-26.9	-26.7	19.4	0.00e+00	0	47	0	26122125312	24	14942
2026-01-27 20:58:08.35	290.18	19.87	-27.0	-26.8	19.4	0.00e+00	0	47	0	26239565824	24	15120
2026-01-27 20:58:09.32	290.51	19.83	-27.0	-26.8	19.5	0.00e+00	0	46	0	26340229120	24	15044
2026-01-27 20:58:10.29	290.83	19.78	-27.0	-26.9	19.4	0.00e+00	0	47	0	26449281024	24	15156
2026-01-27 20:58:11.26	291.16	19.73	-27.1	-26.9	19.4	0.00e+00	0	47	0	26558332928	25	14430
2026-01-27 20:58:12.23	291.48	19.69	-27.1	-27.0	19.5	0.00e+00	0	47	0	26675773440	25	14458
2026-01-27 20:58:13.21	291.81	19.64	-27.1	-27.0	19.5	0.00e+00	0	47	0	26776436736	25	14444
2026-01-27 20:58:14.18	292.13	19.59	-27.1	-26.9	19.5	0.00e+00	0	47	0	26885488640	25	14338
2026-01-27 20:58:15.15	292.45	19.54	-27.2	-27.0	19.3	0.00e+00	0	47	0	27002929152	25	14512
2026-01-27 20:58:16.12	292.76	19.49	-27.1	-27.0	19.4	0.00e+00	0	47	0	27103592448	25	14448
2026-01-27 20:58:17.10	293.09	19.43	-27.2	-27.0	19.3	0.00e+00	0	47	0	27212644352	25	14554
2026-01-27 20:58:18.07	293.40	19.38	-27.3	-27.1	19.2	0.00e+00	0	47	0	27330084864	25	14677
2026-01-27 20:58:19.04	293.72	19.33	-27.3	-27.1	19.2	0.00e+00	0	47	0	27439136768	25	14774
2026-01-27 20:58:20.01	294.03	19.27	-27.3	-27.1	19.1	0.00e+00	0	47	0	27539800064	25	14774
2026-01-27 20:58:20.98	294.34	19.22	-27.2	-27.0	19.2	0.00e+00	0	47	0	27648851968	25	14523
2026-01-27 20:58:21.95	294.65	19.17	-27.3	-27.2	19.2	0.00e+00	0	47	0	27766292480	25	14827
2026-01-27 20:58:22.92	294.96	19.11	-27.2	-27.0	19.2	0.00e+00	0	47	0	27866955776	25	14557
2026-01-27 20:58:23.89	295.27	19.05	-27.2	-27.0	19.4	0.00e+00	0	47	0	27976007680	25	14606
2026-01-27 20:58:24.86	295.58	19.00	-27.2	-27.0	19.4	0.00e+00	0	47	0	28093448192	25	14575
2026-01-27 20:58:25.84	295.89	18.94	-27.2	-27.1	19.3	0.00e+00	0	47	0	28202500096	25	14610
2026-01-27 20:58:26.81	296.20	18.88	-27.2	-27.1	19.2	0.00e+00	0	47	0	28303163392	25	14663
2026-01-27 20:58:27.78	296.50	18.82	-27.4	-27.2	19.2	0.00e+00	0	47	0	28420603904	25	14863
2026-01-27 20:58:28.75	296.80	18.77	-27.3	-27.2	19.3	0.00e+00	0	47	0	28529655808	25	14806
2026-01-27 20:58:29.72	297.10	18.71	-27.2	-27.1	19.4	0.00e+00	0	47	0	28630319104	25	14666
2026-01-27 20:58:30.69	297.40	18.65	-27.3	-27.1	19.3	0.00e+00	0	47	0	28747759616	25	14739
2026-01-27 20:58:31.67	297.70	18.59	-27.3	-27.1	19.2	0.00e+00	0	47	0	28856811520	25	14774
2026-01-27 20:58:32.64	298.00	18.52	-27.3	-27.2	19.3	0.00e+00	0	47	0	28965863424	25	14788
2026-01-27 20:58:33.61	298.30	18.46	-27.3	-27.1	19.3	0.00e+00	0	47	0	29066526720	25	14729
2026-01-27 20:58:34.58	298.59	18.40	-27.4	-27.2	19.4	0.00e+00	0	47	0	29183967232	25	14939
2026-01-27 20:58:35.55	298.88	18.34	-27.4	-27.2	19.5	0.00e+00	0	47	0	29293019136	25	14902
2026-01-27 20:58:36.52	299.18	18.28	-27.5	-27.3	19.5	0.00e+00	0	47	0	29393682432	25	15039
2026-01-27 20:58:37.49	299.47	18.21	-27.4	-27.2	19.4	0.00e+00	0	47	0	29511122944	25	14906
2026-01-27 20:58:38.46	299.76	18.15	-27.4	-27.2	19.5	0.00e+00	0	47	0	29620174848	25	14876
2026-01-27 20:58:39.44	300.05	18.08	-27.4	-27.3	19.5	0.00e+00	0	47	0	29737615360	25	15002
2026-01-27 20:58:40.41	300.33	18.02	-27.5	-27.3	19.3	0.00e+00	0	47	0	29838278656	25	15065
2026-01-27 20:58:41.38	300.62	17.96	-27.5	-27.3	19.4	0.00e+00	0	47	0	29947330560	25	15039
2026-01-27 20:58:42.35	300.90	17.89	-27.5	-27.3	19.4	0.00e+00	0	47	0	30056382464	25	15041
2026-01-27 20:58:43.32	301.18	17.82	-27.5	-27.4	19.4	0.00e+00	0	46	0	30165434368	25	15153
2026-01-27 20:58:44.30	301.47	17.76	-27.7	-27.5	19.4	0.00e+00	0	47	0	30274486272	25	15445
2026-01-27 20:58:45.27	301.75	17.69	-27.5	-27.4	19.4	0.00e+00	0	47	0	30383538176	26	14283
2026-01-27 20:58:46.25	302.03	17.62	-27.6	-27.5	19.4	0.00e+00	0	47	0	30500978688	26	14476
2026-01-27 20:58:47.22	302.31	17.56	-27.6	-27.4	19.4	0.00e+00	0	47	0	30601641984	26	14375
2026-01-27 20:58:48.19	302.58	17.49	-27.7	-27.5	19.3	0.00e+00	0	47	0	30710693888	26	14554
2026-01-27 20:58:49.16	302.85	17.42	-27.6	-27.4	19.2	0.00e+00	0	47	0	30828134400	26	14395
2026-01-27 20:58:50.13	303.13	17.35	-27.5	-27.4	19.3	0.00e+00	0	47	0	30928797696	26	14321
2026-01-27 20:58:51.10	303.40	17.28	-27.6	-27.4	19.2	0.00e+00	0	47	0	31037849600	26	14385
2026-01-27 20:58:52.07	303.67	17.21	-27.8	-27.6	19.0	0.00e+00	0	47	0	31155290112	26	14733
2026-01-27 20:58:53.04	303.94	17.14	-27.8	-27.6	19.0	0.00e+00	0	47	0	31264342016	26	14711
2026-01-27 20:58:54.02	304.21	17.07	-27.9	-27.7	18.9	0.00e+00	0	47	0	31365005312	26	14836
2026-01-27 20:58:54.99	304.47	17.00	-27.8	-27.6	18.8	0.00e+00	0	47	0	31474057216	26	14768
2026-01-27 20:58:55.96	304.74	16.93	-27.7	-27.6	18.8	0.00e+00	0	47	0	31591497728	26	14660
2026-01-27 20:58:56.93	305.00	16.86	-27.8	-27.6	18.7	0.00e+00	0	47	0	31692161024	26	14690
2026-01-27 20:58:57.89	305.26	16.79	-27.9	-27.7	18.6	0.00e+00	0	47	0	31801212928	26	14946
2026-01-27 20:58:58.87	305.52	16.72	-27.8	-27.6	18.6	0.00e+00	0	47	0	31918653440	26	14743
2026-01-27 20:58:59.84	305.78	16.65	-27.8	-27.6	18.2	0.00e+00	0	47	0	32027705344	26	14764
2026-01-27 20:59:00.81	306.04	16.58	-27.9	-27.8	18.1	0.00e+00	0	47	0	32128368640	26	14986
2026-01-27 20:59:01.78	306.29	16.51	-27.9	-27.8	18.0	0.00e+00	0	47	0	32245809152	26	14983
2026-01-27 20:59:02.75	306.55	16.43	-27.9	-27.7	18.1	0.00e+00	0	47	0	32354861056	26	14872
2026-01-27 20:59:03.72	306.80	16.36	-27.9	-27.8	17.7	1.90e-06	0	47	0	32455524352	26	14981
2026-01-27 20:59:04.70	307.06	16.29	-28.1	-27.9	17.5	3.80e-06	0	47	0	32572964864	26	15229
2026-01-27 20:59:05.67	307.31	16.22	-28.0	-27.9	17.6	0.00e+00	0	47	0	32682016768	26	15172
2026-01-27 20:59:06.64	307.56	16.14	-28.1	-27.9	17.6	0.00e+00	0	47	0	32791068672	26	15280
2026-01-27 20:59:07.61	307.81	16.07	-28.2	-28.0	17.6	3.80e-06	0	47	0	32891731968	27	14521
2026-01-27 20:59:08.58	308.05	16.00	-28.2	-28.0	17.7	1.90e-06	0	47	0	33009172480	27	14552
2026-01-27 20:59:09.55	308.30	15.92	-28.1	-28.0	17.9	0.00e+00	0	47	0	33118224384	27	14494
2026-01-27 20:59:10.52	308.54	15.85	-28.3	-28.1	17.8	0.00e+00	0	47	0	33218887680	27	14679
2026-01-27 20:59:11.50	308.79	15.78	-28.3	-28.2	17.8	0.00e+00	0	47	0	33336328192	27	14826
2026-01-27 20:59:12.48	309.03	15.70	-28.4	-28.2	17.8	3.80e-06	0	47	0	33445380096	27	14928
2026-01-27 20:59:13.45	309.27	15.63	-28.2	-28.0	18.0	0.00e+00	0	47	0	33562820608	27	14596
2026-01-27 20:59:14.42	309.51	15.55	-28.3	-28.2	18.2	0.00e+00	0	47	0	33663483904	27	14816
2026-01-27 20:59:15.40	309.75	15.48	-28.3	-28.1	17.9	0.00e+00	0	46	0	33772535808	27	14742
2026-01-27 20:59:16.38	309.99	15.40	-28.4	-28.3	18.1	0.00e+00	0	47	0	33881587712	27	14966
2026-01-27 20:59:17.35	310.22	15.33	-28.4	-28.2	18.0	0.00e+00	0	47	0	33999028224	27	14855
2026-01-27 20:59:18.32	310.45	15.25	-28.4	-28.2	18.2	0.00e+00	0	47	0	34099691520	27	14947
2026-01-27 20:59:19.30	310.69	15.18	-28.6	-28.4	18.0	0.00e+00	0	47	0	34208743424	27	15201
2026-01-27 20:59:20.27	310.92	15.10	-28.5	-28.4	18.2	0.00e+00	0	47	0	34326183936	27	15140
2026-01-27 20:59:21.24	311.15	15.03	-28.7	-28.5	18.1	0.00e+00	0	47	0	34435235840	27	15404
2026-01-27 20:59:22.21	311.38	14.95	-28.6	-28.4	18.2	0.00e+00	0	47	0	34535899136	27	15206
2026-01-27 20:59:23.18	311.60	14.88	-28.6	-28.4	18.2	0.00e+00	0	47	0	34653339648	27	15259
2026-01-27 20:59:24.15	311.83	14.80	-28.6	-28.4	18.1	0.00e+00	0	47	0	34762391552	27	15253
2026-01-27 20:59:25.12	312.05	14.73	-28.7	-28.5	18.2	0.00e+00	0	47	0	34863054848	27	15425
2026-01-27 20:59:26.09	312.28	14.65	-28.7	-28.5	18.2	0.00e+00	0	47	0	34980495360	27	15433
2026-01-27 20:59:27.07	312.50	14.58	-28.8	-28.7	18.2	0.00e+00	0	47	0	35089547264	28	14778
2026-01-27 20:59:28.04	312.72	14.50	-28.7	-28.5	18.2	0.00e+00	0	47	0	35198599168	28	14531
2026-01-27 20:59:29.01	312.94	14.42	-28.8	-28.7	18.0	0.00e+00	0	46	0	35299262464	28	14784
2026-01-27 20:59:29.98	313.16	14.35	-28.7	-28.5	18.2	0.00e+00	0	47	0	35416702976	28	14598
2026-01-27 20:59:30.95	313.37	14.27	-28.8	-28.7	18.0	0.00e+00	0	47	0	35525754880	28	14787
2026-01-27 20:59:31.92	313.59	14.20	-28.8	-28.6	18.1	0.00e+00	0	47	0	35626418176	28	14704
2026-01-27 20:59:32.90	313.80	14.12	-28.9	-28.7	17.9	0.00e+00	0	47	0	35743858688	28	14868
2026-01-27 20:59:33.87	314.02	14.04	-28.8	-28.7	18.1	0.00e+00	0	47	0	35852910592	28	14803
2026-01-27 20:59:34.84	314.23	13.97	-28.9	-28.7	18.0	0.00e+00	0	47	0	35970351104	28	14891
2026-01-27 20:59:35.81	314.44	13.89	-28.9	-28.7	18.0	0.00e+00	0	47	0	36071014400	28	14930
2026-01-27 20:59:36.78	314.65	13.82	-28.9	-28.8	18.0	0.00e+00	0	47	0	36180066304	28	15011
2026-01-27 20:59:37.76	314.86	13.74	-29.0	-28.8	18.1	0.00e+00	0	47	0	36289118208	28	15069
2026-01-27 20:59:38.73	315.07	13.66	-29.1	-28.9	18.0	1.90e-06	0	47	0	36398170112	28	15276
2026-01-27 20:59:39.71	315.27	13.59	-29.1	-28.9	18.0	0.00e+00	0	47	0	36507222016	28	15214
2026-01-27 20:59:40.68	315.48	13.51	-29.2	-29.0	17.9	1.90e-06	0	47	0	36616273920	28	15448
2026-01-27 20:59:41.65	315.68	13.44	-29.2	-29.0	17.9	0.00e+00	0	47	0	36733714432	29	14514
2026-01-27 20:59:42.63	315.88	13.36	-29.0	-28.9	17.9	0.00e+00	0	47	0	36834377728	29	14326
2026-01-27 20:59:43.60	316.09	13.28	-29.2	-29.0	17.8	1.90e-06	0	47	0	36943429632	29	14552
2026-01-27 20:59:44.57	316.28	13.21	-29.2	-29.0	17.9	0.00e+00	0	47	0	37060870144	29	14533
2026-01-27 20:59:45.55	316.49	13.13	-51.8	-53.0	6.6	0.00e+00	0	47	104	37077647360	74	17309
2026-01-27 20:59:46.51	316.68	13.06	-54.0	-56.1	6.2	0.00e+00	0	46	104	37077647360	78	19686
2026-01-27 20:59:47.49	316.88	12.98	-54.0	-56.1	6.2	0.00e+00	0	46	104	37077647360	78	19595
2026-01-27 20:59:48.46	317.07	12.90	-54.1	-56.1	6.2	0.00e+00	0	47	104	37077647360	78	19687
2026-01-27 20:59:49.43	317.27	12.83	-54.0	-56.1	6.2	0.00e+00	0	46	104	37077647360	78	19634
2026-01-27 20:59:50.40	317.46	12.75	-54.0	-56.2	6.2	0.00e+00	0	46	104	37077647360	78	19725
2026-01-27 20:59:51.37	317.65	12.68	-54.0	-56.1	6.2	0.00e+00	0	46	104	37077647360	78	19506
2026-01-27 20:59:52.34	317.84	12.60	-54.0	-56.1	6.2	0.00e+00	0	46	104	37077647360	78	19554
2026-01-27 20:59:53.32	318.03	12.52	-54.0	-56.1	6.2	0.00e+00	0	46	104	37077647360	78	19633
2026-01-27 20:59:54.29	318.22	12.45	-54.0	-56.0	6.2	0.00e+00	0	46	104	37077647360	78	19416
2026-01-27 20:59:55.26	318.41	12.37	-53.9	-55.9	6.2	0.00e+00	0	47	104	37077647360	78	19223
2026-01-27 20:59:56.24	318.60	12.30	-53.9	-56.0	6.2	0.00e+00	0	46	104	37077647360	78	19387
2026-01-27 20:59:57.21	318.78	12.22	-54.0	-56.1	6.2	0.00e+00	0	46	104	37077647360	78	19496
2026-01-27 20:59:58.18	318.97	12.14	-53.9	-56.0	6.2	0.00e+00	0	46	104	37077647360	78	19282
2026-01-27 20:59:59.15	319.15	12.07	-53.8	-55.9	6.2	0.00e+00	0	47	104	37077647360	78	19172
2026-01-27 21:00:00.12	319.33	11.99	-53.9	-56.0	6.2	0.00e+00	0	46	104	37077647360	78	19309
2026-01-27 21:00:01.09	319.51	11.92	-53.9	-56.0	6.2	0.00e+00	0	46	104	37077647360	78	19319
2026-01-27 21:00:02.06	319.69	11.84	-53.9	-55.9	6.2	0.00e+00	0	46	104	37077647360	78	19218
2026-01-27 21:00:03.03	319.87	11.77	-53.8	-55.9	6.2	0.00e+00	0	46	104	37077647360	78	19078
2026-01-27 21:00:04.01	320.05	11.69	-53.8	-55.9	6.2	0.00e+00	0	46	104	37077647360	78	19233
2026-01-27 21:00:04.98	320.23	11.62	-53.9	-55.9	6.2	0.00e+00	0	46	104	37077647360	78	19255
2026-01-27 21:00:05.95	320.40	11.54	-53.8	-55.9	6.2	0.00e+00	0	46	104	37077647360	78	19072
2026-01-27 21:00:06.92	320.58	11.47	-53.7	-55.8	6.2	0.00e+00	0	46	104	37077647360	78	18990
2026-01-27 21:00:07.89	320.75	11.39	-53.8	-55.9	6.2	0.00e+00	0	46	104	37077647360	78	19124
2026-01-27 21:00:08.87	320.92	11.32	-53.8	-55.9	6.2	0.00e+00	0	46	104	37077647360	78	19141
2026-01-27 21:00:09.84	321.10	11.24	-53.8	-55.8	6.2	0.00e+00	0	46	104	37077647360	78	18998
2026-01-27 21:00:10.82	321.27	11.17	-53.7	-55.8	6.2	0.00e+00	0	46	104	37077647360	78	18860
2026-01-27 21:00:11.79	321.44	11.09	-53.8	-55.9	6.2	0.00e+00	0	46	104	37077647360	78	19060
2026-01-27 21:00:12.76	321.61	11.02	-53.8	-55.8	6.2	0.00e+00	0	46	104	37077647360	78	19005
2026-01-27 21:00:13.73	321.77	10.94	-53.7	-55.8	6.2	0.00e+00	0	46	104	37077647360	78	18941
2026-01-27 21:00:14.70	321.94	10.87	-53.7	-55.8	6.2	0.00e+00	0	46	104	37077647360	78	18895
2026-01-27 21:00:15.67	322.11	10.80	-53.7	-55.8	6.2	0.00e+00	0	46	104	37077647360	78	18931
2026-01-27 21:00:16.64	322.27	10.72	-53.8	-55.8	6.2	0.00e+00	0	46	104	37077647360	78	19007
2026-01-27 21:00:17.62	322.44	10.65	-53.7	-55.8	6.2	0.00e+00	0	46	104	37077647360	78	18944
2026-01-27 21:00:18.59	322.60	10.57	-53.7	-55.7	6.2	0.00e+00	0	46	104	37077647360	78	18818
2026-01-27 21:00:19.55	322.76	10.50	-53.7	-55.7	6.2	0.00e+00	0	46	104	37077647360	78	18807
2026-01-27 21:00:20.53	322.92	10.43	-53.7	-55.8	6.2	0.00e+00	0	46	104	37077647360	78	18823
2026-01-27 21:00:21.49	323.08	10.35	-53.7	-55.7	6.2	0.00e+00	0	46	104	37077647360	78	18692
2026-01-27 21:00:22.46	323.24	10.28	-53.6	-55.7	6.2	0.00e+00	0	46	104	37077647360	78	18780
2026-01-27 21:00:23.43	323.40	10.21	-53.6	-55.7	6.2	0.00e+00	0	46	104	37077647360	78	18649
2026-01-27 21:00:24.40	323.55	10.13	-53.6	-55.7	6.2	0.00e+00	0	46	104	37077647360	78	18763
2026-01-27 21:00:25.37	323.71	10.06	-53.6	-55.7	6.2	0.00e+00	0	46	104	37077647360	78	18687
2026-01-27 21:00:26.34	323.87	9.99	-53.6	-55.7	6.2	0.00e+00	0	46	104	37077647360	78	18613
2026-01-27 21:00:27.32	324.02	9.92	-53.5	-55.6	6.2	0.00e+00	0	46	104	37077647360	78	18501
2026-01-27 21:00:28.29	324.18	9.84	-53.6	-55.6	6.2	0.00e+00	0	46	104	37077647360	78	18593
2026-01-27 21:00:29.26	324.33	9.77	-53.6	-55.6	6.2	0.00e+00	0	46	104	37077647360	78	18582
2026-01-27 21:00:30.23	324.48	9.70	-53.5	-55.6	6.2	0.00e+00	0	46	104	37077647360	78	18546
2026-01-27 21:00:31.20	324.63	9.63	-53.5	-55.6	6.2	0.00e+00	0	46	104	37077647360	78	18429
2026-01-27 21:00:32.17	324.78	9.55	-53.5	-55.6	6.2	0.00e+00	0	46	104	37077647360	78	18510
2026-01-27 21:00:33.14	324.93	9.48	-53.6	-55.7	6.2	0.00e+00	0	46	104	37077647360	78	18603
2026-01-27 21:00:34.11	325.08	9.41	-53.5	-55.6	6.2	0.00e+00	0	46	104	37077647360	78	18479
2026-01-27 21:00:35.08	325.23	9.34	-53.5	-55.5	6.2	0.00e+00	0	46	104	37077647360	78	18372
2026-01-27 21:00:36.05	325.37	9.27	-53.5	-55.5	6.2	0.00e+00	0	46	104	37077647360	78	18340
2026-01-27 21:00:37.02	325.52	9.19	-53.5	-55.6	6.2	0.00e+00	0	46	104	37077647360	78	18514
2026-01-27 21:00:37.99	325.67	9.12	-53.4	-55.5	6.2	0.00e+00	0	46	104	37077647360	78	18331
2026-01-27 21:00:38.96	325.81	9.05	-53.4	-55.5	6.2	0.00e+00	0	46	104	37077647360	78	18270
2026-01-27 21:00:39.93	325.95	8.98	-53.4	-55.5	6.2	0.00e+00	0	46	104	37077647360	78	18246
2026-01-27 21:00:40.91	326.10	8.91	-53.5	-55.5	6.2	0.00e+00	0	46	104	37077647360	78	18370
2026-01-27 21:00:41.88	326.24	8.84	-53.4	-55.5	6.2	0.00e+00	0	46	104	37077647360	78	18206
2026-01-27 21:00:42.85	326.38	8.77	-53.3	-55.4	6.2	0.00e+00	0	46	104	37077647360	78	18153
2026-01-27 21:00:43.82	326.52	8.69	-53.3	-55.4	6.2	0.00e+00	0	46	104	37077647360	78	18179
2026-01-27 21:00:44.80	326.66	8.62	-53.4	-55.5	6.2	0.00e+00	0	46	104	37077647360	78	18250
2026-01-27 21:00:45.78	326.80	8.55	-53.3	-55.4	6.2	0.00e+00	0	46	104	37077647360	78	18021
2026-01-27 21:00:46.75	326.94	8.48	-53.3	-55.4	6.2	0.00e+00	0	46	104	37077647360	78	17993
2026-01-27 21:00:47.72	327.08	8.41	-53.3	-55.4	6.2	0.00e+00	0	46	104	37077647360	78	17999
2026-01-27 21:00:48.70	327.22	8.34	-53.3	-55.4	6.2	0.00e+00	0	46	104	37077647360	78	18088
2026-01-27 21:00:49.67	327.35	8.27	-53.3	-55.4	6.2	0.00e+00	0	46	104	37077647360	78	17987
2026-01-27 21:00:50.65	327.49	8.20	-53.3	-55.3	6.2	0.00e+00	0	46	104	37077647360	78	17955
2026-01-27 21:00:51.62	327.62	8.13	-53.2	-55.3	6.2	0.00e+00	0	46	104	37077647360	78	17948
2026-01-27 21:00:52.59	327.76	8.06	-53.3	-55.3	6.2	0.00e+00	0	46	104	37077647360	78	17960
2026-01-27 21:00:53.57	327.89	7.99	-53.2	-55.3	6.2	0.00e+00	0	46	104	37077647360	78	17944
2026-01-27 21:00:54.54	328.02	7.92	-53.3	-55.3	6.2	0.00e+00	0	46	104	37077647360	78	17958
2026-01-27 21:00:55.52	328.15	7.85	-53.2	-55.3	6.2	0.00e+00	0	46	104	37077647360	78	17884
2026-01-27 21:00:56.49	328.29	7.78	-53.2	-55.3	6.2	0.00e+00	0	46	104	37077647360	78	17932
2026-01-27 21:00:57.47	328.42	7.71	-53.2	-55.3	6.2	0.00e+00	0	46	104	37077647360	78	17808
2026-01-27 21:00:58.45	328.55	7.64	-53.2	-55.3	6.2	0.00e+00	0	46	104	37077647360	78	17880
2026-01-27 21:00:59.42	328.68	7.57	-53.2	-55.2	6.2	0.00e+00	0	46	104	37077647360	78	17715
2026-01-27 21:01:00.40	328.80	7.50	-53.2	-55.3	6.2	0.00e+00	0	46	104	37077647360	78	17861
2026-01-27 21:01:01.37	328.93	7.44	-53.2	-55.3	6.2	0.00e+00	0	46	104	37077647360	78	17842
2026-01-27 21:01:02.34	329.06	7.37	-53.2	-55.3	6.2	0.00e+00	0	46	104	37077647360	78	17791
2026-01-27 21:01:03.32	329.18	7.30	-53.1	-55.2	6.2	0.00e+00	0	46	104	37077647360	78	17727
2026-01-27 21:01:04.29	329.31	7.23	-53.2	-55.2	6.2	0.00e+00	0	46	104	37077647360	78	17761
2026-01-27 21:01:05.27	329.44	7.16	-53.2	-55.3	6.2	0.00e+00	0	46	104	37077647360	78	17832
2026-01-27 21:01:06.24	329.56	7.09	-53.1	-55.2	6.2	0.00e+00	0	46	104	37077647360	78	17737
2026-01-27 21:01:07.22	329.68	7.02	-53.1	-55.2	6.2	0.00e+00	0	46	104	37077647360	78	17710
2026-01-27 21:01:08.20	329.81	6.96	-53.1	-55.2	6.2	0.00e+00	0	46	104	37077647360	78	17568
2026-01-27 21:01:09.18	329.93	6.89	-53.2	-55.3	6.2	0.00e+00	0	46	104	37077647360	78	17773
2026-01-27 21:01:10.15	330.05	6.82	-53.1	-55.2	6.2	0.00e+00	0	46	104	37077647360	78	17672
2026-01-27 21:01:11.13	330.17	6.75	-53.1	-55.2	6.2	0.00e+00	0	46	104	37077647360	78	17676
2026-01-27 21:01:12.11	330.29	6.69	-53.1	-55.2	6.2	0.00e+00	0	46	104	37077647360	78	17580
2026-01-27 21:01:13.08	330.41	6.62	-53.2	-55.2	6.2	0.00e+00	0	46	104	37077647360	78	17749
2026-01-27 21:01:14.05	330.53	6.55	-53.1	-55.1	6.2	0.00e+00	0	46	104	37077647360	78	17553
2026-01-27 21:01:15.03	330.65	6.48	-53.1	-55.2	6.2	0.00e+00	0	46	104	37077647360	78	17646
2026-01-27 21:01:16.00	330.77	6.42	-53.0	-55.1	6.2	0.00e+00	0	46	104	37077647360	78	17438
2026-01-27 21:01:16.98	330.89	6.35	-53.1	-55.2	6.2	0.00e+00	0	46	104	37077647360	78	17623
2026-01-27 21:01:17.96	331.00	6.28	-53.0	-55.1	6.2	0.00e+00	0	46	104	37077647360	78	17474
2026-01-27 21:01:18.95	331.12	6.22	-53.0	-55.1	6.2	0.00e+00	0	46	104	37077647360	78	17531
2026-01-27 21:01:19.93	331.24	6.15	-52.9	-55.0	6.2	0.00e+00	0	46	104	37077647360	77	18349
2026-01-27 21:01:20.92	331.35	6.08	-53.1	-55.1	6.2	0.00e+00	0	46	104	37077647360	77	18570
2026-01-27 21:01:21.90	331.47	6.02	-53.0	-55.0	6.2	0.00e+00	0	46	104	37077647360	77	18366
2026-01-27 21:01:22.88	331.58	5.95	-53.0	-55.1	6.2	0.00e+00	0	46	104	37077647360	77	18403
2026-01-27 21:01:23.86	331.70	5.88	-52.9	-54.9	6.2	0.00e+00	0	46	104	37077647360	77	18178
2026-01-27 21:01:24.84	331.81	5.82	-53.0	-55.1	6.2	0.00e+00	0	46	104	37077647360	77	18446
2026-01-27 21:01:25.83	331.92	5.75	-52.9	-55.0	6.2	0.00e+00	0	46	104	37077647360	77	18253
2026-01-27 21:01:26.81	332.03	5.68	-52.9	-55.0	6.2	0.00e+00	0	46	104	37077647360	77	18221
2026-01-27 21:01:27.79	332.14	5.62	-52.8	-54.9	6.2	0.00e+00	0	46	104	37077647360	77	18052
2026-01-27 21:01:28.77	332.26	5.55	-53.0	-55.1	6.2	0.00e+00	0	46	104	37077647360	77	18395
2026-01-27 21:01:29.75	332.37	5.49	-52.8	-54.9	6.2	0.00e+00	0	46	104	37077647360	77	18122
2026-01-27 21:01:30.73	332.47	5.42	-52.9	-54.9	6.2	0.00e+00	0	46	104	37077647360	77	18153
2026-01-27 21:01:31.71	332.58	5.36	-52.8	-54.9	6.2	0.00e+00	0	46	104	37077647360	77	17986
2026-01-27 21:01:32.69	332.69	5.29	-52.9	-55.0	6.2	0.00e+00	0	46	104	37077647360	77	18296
2026-01-27 21:01:33.67	332.80	5.23	-52.8	-54.9	6.2	0.00e+00	0	46	104	37077647360	77	18032
2026-01-27 21:01:34.65	332.91	5.16	-52.8	-54.9	6.2	0.00e+00	0	46	104	37077647360	77	18066
2026-01-27 21:01:35.64	333.01	5.10	-52.7	-54.8	6.2	0.00e+00	0	46	104	37077647360	77	17859
2026-01-27 21:01:36.62	333.12	5.03	-52.8	-54.9	6.2	0.00e+00	0	46	104	37077647360	77	18046
2026-01-27 21:01:37.60	333.23	4.97	-52.9	-55.0	6.2	0.00e+00	0	46	104	37077647360	77	18214
2026-01-27 21:01:38.58	333.33	4.91	-53.5	-55.6	6.2	0.00e+00	0	46	104	37077647360	77	19529
2026-01-27 21:01:39.56	333.44	4.84	-54.0	-56.1	6.2	0.00e+00	0	46	104	37077647360	78	19487
2026-01-27 21:01:40.53	333.54	4.78	-54.2	-56.3	6.2	0.00e+00	0	46	104	37077647360	79	18993
2026-01-27 21:01:41.51	333.64	4.71	-54.4	-56.5	6.2	0.00e+00	0	46	104	37077647360	79	19464
2026-01-27 21:01:42.49	333.75	4.65	-54.6	-56.7	6.2	0.00e+00	0	46	104	37077647360	79	19873
2026-01-27 21:01:43.47	333.85	4.59	-54.7	-56.7	6.2	0.00e+00	0	46	104	37077647360	80	18793
2026-01-27 21:01:44.45	333.95	4.52	-54.8	-56.8	6.2	0.00e+00	0	46	104	37077647360	80	19001
2026-01-27 21:01:45.43	334.05	4.46	-54.8	-56.9	6.2	0.00e+00	0	46	104	37077647360	80	19245
2026-01-27 21:01:46.41	334.15	4.40	-54.9	-57.0	6.2	0.00e+00	0	46	104	37077647360	80	19342
2026-01-27 21:01:47.39	334.25	4.33	-55.0	-57.1	6.2	0.00e+00	0	46	104	37077647360	80	19498
2026-01-27 21:01:48.37	334.35	4.27	-55.0	-57.1	6.2	0.00e+00	0	46	104	37077647360	80	19528
2026-01-27 21:01:49.36	334.45	4.21	-55.0	-57.1	6.2	0.00e+00	0	46	104	37077647360	80	19586
2026-01-27 21:01:50.34	334.55	4.14	-55.0	-57.1	6.2	0.00e+00	0	46	104	37077647360	80	19563
2026-01-27 21:01:51.32	334.65	4.08	-55.0	-57.1	6.2	0.00e+00	0	46	104	37077647360	80	19609
2026-01-27 21:01:52.31	334.75	4.02	-55.0	-57.1	6.2	0.00e+00	0	46	104	37077647360	80	19584
2026-01-27 21:01:53.29	334.85	3.96	-55.0	-57.1	6.2	0.00e+00	0	46	104	37077647360	80	19571
2026-01-27 21:01:54.27	334.94	3.89	-55.0	-57.1	6.2	0.00e+00	0	46	104	37077647360	80	19613
2026-01-27 21:01:55.26	335.04	3.83	-55.0	-57.1	6.2	0.00e+00	0	46	104	37077647360	80	19572
2026-01-27 21:01:56.25	335.14	3.77	-55.0	-57.1	6.2	0.00e+00	0	46	104	37077647360	80	19601
2026-01-27 21:01:57.23	335.23	3.71	-55.0	-57.1	6.2	0.00e+00	0	46	104	37077647360	80	19582
2026-01-27 21:01:58.22	335.33	3.64	-55.0	-57.1	6.2	0.00e+00	0	46	104	37077647360	80	19536
2026-01-27 21:01:59.20	335.42	3.58	-55.0	-57.1	6.2	0.00e+00	0	46	104	37077647360	80	19564
2026-01-27 21:02:00.18	335.52	3.52	-55.0	-57.0	6.2	0.00e+00	0	46	104	37077647360	80	19434
2026-01-27 21:02:01.17	335.61	3.46	-55.0	-57.0	6.2	0.00e+00	0	46	104	37077647360	80	19435
2026-01-27 21:02:02.17	335.71	3.40	-55.0	-57.0	6.2	0.00e+00	0	46	104	37077647360	80	19452
2026-01-27 21:02:03.16	335.80	3.34	-54.9	-57.1	6.2	0.00e+00	0	46	104	37077647360	80	19483
2026-01-27 21:02:04.15	335.90	3.27	-54.9	-57.0	6.2	0.00e+00	0	46	104	37077647360	80	19386
2026-01-27 21:02:05.13	335.99	3.21	-54.9	-57.0	6.2	0.00e+00	0	46	104	37077647360	80	19346
2026-01-27 21:02:06.12	336.08	3.15	-54.9	-57.0	6.2	0.00e+00	0	46	104	37077647360	80	19392
2026-01-27 21:02:07.11	336.17	3.09	-54.9	-57.0	6.2	0.00e+00	0	46	104	37077647360	80	19423
2026-01-27 21:02:08.11	336.26	3.03	-54.9	-57.0	6.2	0.00e+00	0	46	104	37077647360	80	19382
2026-01-27 21:02:09.11	336.36	2.97	-54.9	-57.0	6.2	0.00e+00	0	46	104	37077647360	80	19364
2026-01-27 21:02:10.10	336.45	2.91	-54.9	-57.0	6.2	0.00e+00	0	46	104	37077647360	80	19407
2026-01-27 21:02:11.10	336.54	2.84	-54.9	-57.0	6.2	0.00e+00	0	46	104	37077647360	80	19305
2026-01-27 21:02:12.10	336.63	2.78	-54.9	-57.0	6.2	0.00e+00	0	46	104	37077647360	80	19350
2026-01-27 21:02:13.10	336.72	2.72	-54.9	-57.0	6.2	0.00e+00	0	46	104	37077647360	80	19369
2026-01-27 21:02:14.11	336.81	2.66	-54.9	-57.0	6.2	0.00e+00	0	46	104	37077647360	80	19294
2026-01-27 21:02:15.11	336.90	2.60	-54.9	-57.0	6.2	0.00e+00	0	46	104	37077647360	80	19282
2026-01-27 21:02:16.11	336.99	2.54	-54.9	-57.0	6.2	0.00e+00	0	46	104	37077647360	80	19274
2026-01-27 21:02:17.11	337.08	2.48	-54.9	-56.9	6.2	0.00e+00	0	46	104	37077647360	80	19245
2026-01-27 21:02:18.10	337.16	2.42	-54.9	-57.0	6.2	0.00e+00	0	46	104	37077647360	80	19273
2026-01-27 21:02:19.10	337.25	2.36	-54.9	-56.9	6.2	0.00e+00	0	46	104	37077647360	80	19219
2026-01-27 21:02:20.10	337.34	2.30	-54.9	-56.9	6.2	0.00e+00	0	46	104	37077647360	80	19250
2026-01-27 21:02:21.10	337.43	2.24	-54.9	-56.9	6.2	0.00e+00	0	46	104	37077647360	80	19249
2026-01-27 21:02:22.10	337.51	2.18	-54.8	-56.9	6.2	0.00e+00	0	46	104	37077647360	80	19227
2026-01-27 21:02:23.10	337.60	2.12	-54.8	-56.9	6.2	0.00e+00	0	46	104	37077647360	80	19218
2026-01-27 21:02:24.10	337.68	2.06	-54.8	-56.9	6.2	0.00e+00	0	46	104	37077647360	80	19171
2026-01-27 21:02:25.09	337.77	2.00	-54.8	-57.0	6.2	0.00e+00	0	46	104	37077647360	80	19279
2026-01-27 21:02:26.09	337.85	1.94	-54.8	-56.9	6.2	0.00e+00	0	46	104	37077647360	80	19249

#Closed at: 2026-01-27 21:02:26
#Recorded file [37077 MB]: D:/lorett/data/31041_260127_235218.dat