passes_logs/2026/01/27/R3.2S_Murmansk/R3.2S_Murmansk__20260127_112933_AQUA_rec.log

#Pass ID: 20260127_112933_AQUA
#Satellite: AQUA
#Configuration: AQUA
#almurnet v.1.7.20251203
#Start time: 2026-01-27 11:29:32

#Version: 2.2.20231116
#Station: R3.2S_Murmansk
#Location: 33.079688 lon 68.888172 lat
#TLE: 1 27424U 02022A   26026.85810808  .00001813  00000+0  37258-3 0  9999
#TLE: 2 27424  98.4101 353.4861 0001866  64.3332 317.5249 14.61864179262622

#Time	Az	El	Level	Level2	SNR	BER	BlckErr	Temp	State	Recorded	gain1	gain2
2026-01-27 11:29:32.86	156.99	1.99	-55.6	-73.4	3.8	7.46e-01	0	41	0	0	82	28521
2026-01-27 11:29:33.86	156.99	2.06	-55.5	-73.4	3.8	7.46e-01	0	40	104	0	81	30291
2026-01-27 11:29:34.87	157.00	2.12	-55.5	-73.4	3.8	7.43e-01	0	41	104	0	81	30174
2026-01-27 11:29:35.88	157.01	2.19	-55.6	-73.5	3.8	7.46e-01	0	41	104	0	81	30478
2026-01-27 11:29:36.89	157.02	2.26	-55.7	-73.6	3.8	7.46e-01	0	41	104	0	82	29136
2026-01-27 11:29:37.90	157.03	2.33	-55.8	-73.6	3.8	7.47e-01	0	41	104	0	82	29128
2026-01-27 11:29:38.91	157.04	2.40	-55.8	-73.6	3.8	7.45e-01	0	41	104	0	82	29115
2026-01-27 11:29:39.91	157.04	2.46	-55.7	-73.6	3.8	7.43e-01	0	41	104	0	82	29064
2026-01-27 11:29:40.92	157.05	2.53	-55.7	-73.6	3.8	7.44e-01	0	41	104	0	82	29038
2026-01-27 11:29:41.93	157.06	2.60	-55.7	-73.5	3.8	7.43e-01	0	41	104	0	82	28929
2026-01-27 11:29:42.94	157.07	2.67	-55.7	-73.5	3.8	7.45e-01	0	41	104	0	82	28870
2026-01-27 11:29:43.94	157.08	2.74	-55.7	-73.5	3.8	7.44e-01	0	41	104	0	82	28805
2026-01-27 11:29:44.95	157.09	2.81	-55.6	-73.5	3.8	7.46e-01	0	41	104	0	82	28700
2026-01-27 11:29:45.95	157.10	2.88	-55.6	-73.4	3.8	7.45e-01	0	41	104	0	82	28565
2026-01-27 11:29:46.96	157.10	2.95	-55.5	-73.3	3.8	7.44e-01	0	41	104	0	82	28235
2026-01-27 11:29:47.97	157.11	3.02	-55.5	-73.3	3.8	7.46e-01	0	41	104	0	82	28086
2026-01-27 11:29:48.98	157.12	3.09	-55.4	-73.1	3.8	7.45e-01	0	41	104	0	82	27665
2026-01-27 11:29:49.99	157.13	3.16	-55.3	-73.2	3.8	7.45e-01	0	41	104	0	82	27782
2026-01-27 11:29:51.00	157.14	3.23	-55.3	-73.1	3.8	7.45e-01	0	41	104	0	82	27526
2026-01-27 11:29:52.01	157.15	3.30	-55.2	-73.0	3.8	7.44e-01	0	41	104	0	82	27234
2026-01-27 11:29:53.02	157.16	3.37	-55.1	-72.9	3.8	7.48e-01	0	41	104	0	82	26878
2026-01-27 11:29:54.03	157.17	3.44	-54.9	-72.8	3.8	7.46e-01	0	41	104	0	81	28172
2026-01-27 11:29:55.04	157.17	3.51	-54.8	-72.6	3.8	7.45e-01	0	41	104	0	81	27598
2026-01-27 11:29:56.04	157.18	3.58	-54.7	-72.5	3.8	7.45e-01	0	41	104	0	81	27146
2026-01-27 11:29:57.05	157.19	3.65	-54.4	-72.1	3.8	7.45e-01	0	41	104	0	80	27417
2026-01-27 11:29:58.06	157.20	3.72	-54.0	-70.8	3.9	7.46e-01	0	41	104	0	80	23589
2026-01-27 11:29:59.07	157.21	3.80	-54.0	-70.8	3.8	7.43e-01	0	41	104	0	80	23707
2026-01-27 11:30:00.07	157.22	3.87	-54.1	-71.3	3.8	7.46e-01	0	42	104	0	79	26739
2026-01-27 11:30:01.08	157.23	3.94	-54.0	-71.3	3.8	7.44e-01	0	41	104	0	79	26703
2026-01-27 11:30:02.09	157.24	4.01	-54.0	-70.0	3.8	7.41e-01	0	41	104	0	79	22801
2026-01-27 11:30:03.09	157.25	4.09	-53.8	-66.2	5.0	7.09e-01	0	41	104	0	79	14767
2026-01-27 11:30:04.10	157.25	4.16	-53.5	-62.8	7.8	6.51e-01	183	41	0	1048576	79	9948
2026-01-27 11:30:05.11	157.26	4.23	-52.9	-59.7	10.9	6.17e-01	0	41	0	3145728	77	7816
2026-01-27 11:30:06.12	157.27	4.31	-52.2	-57.4	13.3	6.10e-01	0	42	0	4718592	76	6391
2026-01-27 11:30:07.13	157.28	4.38	-51.4	-55.5	15.2	6.06e-01	0	41	0	6815744	74	5774
2026-01-27 11:30:08.13	157.29	4.45	-50.4	-53.6	17.2	6.05e-01	0	42	0	8388608	72	5188
2026-01-27 11:30:09.14	157.30	4.53	-49.6	-52.2	18.7	6.06e-01	0	41	0	10485760	71	4655
2026-01-27 11:30:10.15	157.31	4.60	-48.8	-51.0	19.8	6.04e-01	0	41	0	12582912	69	4582
2026-01-27 11:30:11.15	157.32	4.67	-48.1	-50.1	20.7	6.07e-01	0	41	0	14155776	68	4381
2026-01-27 11:30:12.16	157.33	4.75	-47.5	-49.3	21.7	6.06e-01	0	41	0	16252928	66	4466
2026-01-27 11:30:13.17	157.34	4.83	-47.1	-48.9	22.1	6.08e-01	0	41	0	18350080	66	4255
2026-01-27 11:30:14.18	157.35	4.90	-46.9	-48.6	22.3	6.05e-01	0	42	0	19922944	65	4364
2026-01-27 11:30:15.18	157.36	4.98	-46.7	-48.4	22.6	6.05e-01	0	42	0	22020096	65	4246
2026-01-27 11:30:16.19	157.37	5.05	-47.1	-48.8	22.1	6.06e-01	0	42	0	23592960	65	4474
2026-01-27 11:30:17.20	157.37	5.13	-51.8	-56.3	14.4	6.05e-01	0	42	0	25690112	75	5978
2026-01-27 11:30:18.21	157.38	5.20	-49.9	-52.7	17.9	6.08e-01	0	41	0	27262976	71	4955
2026-01-27 11:30:19.21	157.39	5.28	-47.1	-48.8	22.1	6.06e-01	0	42	0	29360128	65	4472
2026-01-27 11:30:20.22	157.40	5.36	-49.5	-52.1	18.4	6.06e-01	0	42	0	31457280	71	4607
2026-01-27 11:30:21.23	157.41	5.43	-51.3	-55.3	15.3	6.06e-01	0	42	0	33030144	74	5656
2026-01-27 11:30:22.23	157.42	5.51	-46.5	-48.0	22.8	6.05e-01	0	42	0	35127296	65	4098
2026-01-27 11:30:23.24	157.43	5.59	-46.3	-47.9	23.0	6.04e-01	0	42	0	36700160	64	4257
2026-01-27 11:30:24.24	157.44	5.66	-46.3	-47.8	23.1	6.05e-01	0	42	0	38797312	64	4220
2026-01-27 11:30:25.25	157.45	5.74	-46.4	-47.9	23.0	6.08e-01	0	42	0	40894464	64	4275
2026-01-27 11:30:26.25	157.46	5.82	-46.4	-48.0	22.9	6.07e-01	0	42	0	42467328	64	4298
2026-01-27 11:30:27.25	157.47	5.90	-46.3	-47.9	23.1	6.07e-01	0	42	0	44564480	64	4248
2026-01-27 11:30:28.26	157.48	5.98	-46.3	-47.8	23.2	6.07e-01	0	42	0	46137344	64	4220
2026-01-27 11:30:29.27	157.49	6.06	-46.4	-48.0	23.1	6.04e-01	0	42	0	48234496	64	4302
2026-01-27 11:30:30.27	157.50	6.14	-46.2	-47.7	23.2	6.05e-01	0	42	0	50331648	64	4148
2026-01-27 11:30:31.28	157.51	6.21	-46.2	-47.7	23.2	6.08e-01	0	42	0	51904512	64	4189
2026-01-27 11:30:32.29	157.52	6.29	-46.2	-47.7	23.4	6.07e-01	0	42	0	54001664	64	4148
2026-01-27 11:30:33.30	157.53	6.38	-46.2	-47.7	23.4	6.05e-01	0	42	0	55574528	64	4146
2026-01-27 11:30:34.30	157.54	6.46	-46.2	-47.7	23.4	6.05e-01	0	42	0	57671680	64	4159
2026-01-27 11:30:35.31	157.55	6.54	-46.1	-47.6	23.4	6.05e-01	0	42	0	59768832	64	4135
2026-01-27 11:30:36.32	157.56	6.62	-46.2	-47.7	23.4	6.05e-01	0	42	0	61341696	63	4435
2026-01-27 11:30:37.33	157.57	6.70	-46.2	-47.7	23.5	6.08e-01	0	42	0	63438848	63	4412
2026-01-27 11:30:38.33	157.58	6.78	-46.1	-47.6	23.6	6.09e-01	0	42	0	65011712	63	4370
2026-01-27 11:30:39.34	157.59	6.86	-46.2	-47.7	23.5	6.04e-01	0	42	0	67108864	63	4396
2026-01-27 11:30:40.35	157.60	6.94	-46.3	-47.8	23.4	6.04e-01	0	42	0	69206016	63	4458
2026-01-27 11:30:41.36	157.61	7.03	-46.0	-47.4	23.8	6.05e-01	0	42	0	70778880	63	4265
2026-01-27 11:30:42.37	157.62	7.11	-46.1	-47.5	23.7	6.06e-01	0	42	0	72876032	63	4322
2026-01-27 11:30:43.37	157.63	7.19	-46.2	-47.7	23.5	6.04e-01	0	42	0	74973184	63	4420
2026-01-27 11:30:44.38	157.64	7.27	-46.2	-47.7	23.5	6.05e-01	0	42	0	76546048	63	4413
2026-01-27 11:30:45.39	157.65	7.36	-46.2	-47.7	23.5	6.03e-01	0	42	0	78643200	63	4423
2026-01-27 11:30:46.40	157.67	7.44	-46.1	-47.6	23.6	6.07e-01	0	42	0	80216064	63	4359
2026-01-27 11:30:47.40	157.68	7.53	-46.1	-47.6	23.6	6.06e-01	0	42	0	82313216	63	4360
2026-01-27 11:30:48.41	157.69	7.61	-45.9	-47.3	23.9	6.06e-01	0	42	0	83886080	63	4233
2026-01-27 11:30:49.42	157.70	7.70	-45.9	-47.3	24.0	6.05e-01	0	42	0	85983232	63	4199
2026-01-27 11:30:50.43	157.71	7.78	-45.9	-47.3	24.0	6.05e-01	0	42	0	88080384	63	4208
2026-01-27 11:30:51.43	157.72	7.87	-45.9	-47.3	23.9	6.06e-01	0	42	0	89653248	63	4240
2026-01-27 11:30:52.44	157.73	7.95	-45.8	-47.2	24.1	6.05e-01	0	42	0	91750400	63	4179
2026-01-27 11:30:53.45	157.74	8.04	-45.8	-47.2	24.1	6.03e-01	0	42	0	93323264	63	4158
2026-01-27 11:30:54.45	157.75	8.12	-45.9	-47.3	24.0	6.04e-01	0	42	0	95420416	63	4217
2026-01-27 11:30:55.46	157.76	8.21	-45.7	-47.1	24.2	6.06e-01	0	42	0	97517568	63	4138
2026-01-27 11:30:56.47	157.77	8.30	-45.7	-47.1	24.2	6.08e-01	0	42	0	99090432	63	4112
2026-01-27 11:30:57.48	157.78	8.39	-45.7	-47.1	24.2	6.07e-01	0	42	0	101187584	63	4107
2026-01-27 11:30:58.49	157.80	8.47	-45.7	-47.1	24.2	6.03e-01	0	42	0	103284736	63	4133
2026-01-27 11:30:59.49	157.81	8.56	-45.7	-47.1	24.2	6.05e-01	0	42	0	104857600	63	4117
2026-01-27 11:31:00.50	157.82	8.65	-45.8	-47.2	24.1	6.06e-01	0	42	0	106954752	63	4191
2026-01-27 11:31:01.51	157.83	8.74	-45.7	-47.1	24.2	6.04e-01	0	42	0	108527616	63	4123
2026-01-27 11:31:02.52	157.84	8.83	-45.6	-47.0	24.4	6.08e-01	0	42	0	110624768	63	4067
2026-01-27 11:31:03.52	157.85	8.92	-45.6	-47.0	24.4	6.06e-01	0	42	0	112197632	63	4063
2026-01-27 11:31:04.53	157.86	9.01	-45.5	-46.8	24.5	6.04e-01	0	42	0	114294784	62	4224
2026-01-27 11:31:05.53	157.88	9.10	-45.6	-47.0	24.4	6.04e-01	0	42	0	116391936	62	4293
2026-01-27 11:31:06.54	157.89	9.19	-45.5	-46.8	24.5	6.07e-01	0	42	0	117964800	62	4228
2026-01-27 11:31:07.55	157.90	9.28	-45.5	-46.8	24.5	6.04e-01	0	42	0	120061952	62	4227
2026-01-27 11:31:08.55	157.91	9.37	-45.4	-46.8	24.6	6.06e-01	0	42	0	121634816	62	4199
2026-01-27 11:31:09.56	157.92	9.46	-45.6	-47.0	24.4	6.07e-01	0	42	0	123731968	62	4305
2026-01-27 11:31:10.57	157.93	9.55	-45.6	-47.0	24.4	6.06e-01	0	42	0	125829120	62	4307
2026-01-27 11:31:11.58	157.95	9.65	-45.3	-46.6	24.7	6.05e-01	0	42	0	127401984	62	4142
2026-01-27 11:31:12.58	157.96	9.74	-45.5	-46.8	24.6	6.05e-01	0	42	0	129499136	62	4213
2026-01-27 11:31:13.58	157.97	9.83	-45.3	-46.6	24.8	6.08e-01	0	42	0	131596288	62	4130
2026-01-27 11:31:14.59	157.98	9.92	-45.3	-46.7	24.7	6.06e-01	0	42	0	133169152	62	4161
2026-01-27 11:31:15.60	157.99	10.02	-45.4	-46.7	24.7	6.04e-01	0	42	0	135266304	62	4167
2026-01-27 11:31:16.60	158.01	10.11	-45.4	-46.8	24.6	6.06e-01	0	42	0	136839168	62	4197
2026-01-27 11:31:17.61	158.02	10.21	-45.7	-47.0	24.4	6.05e-01	0	42	0	138936320	62	4332
2026-01-27 11:31:18.61	158.03	10.30	-45.5	-46.8	24.6	6.07e-01	0	42	0	140509184	62	4220
2026-01-27 11:31:19.62	158.04	10.40	-45.4	-46.7	24.7	6.06e-01	0	42	0	142606336	62	4163
2026-01-27 11:31:20.62	158.06	10.49	-45.3	-46.6	24.8	6.07e-01	0	42	0	144703488	62	4135
2026-01-27 11:31:21.63	158.07	10.59	-45.3	-46.6	24.8	6.05e-01	0	42	0	146276352	62	4126
2026-01-27 11:31:22.64	158.08	10.69	-45.3	-46.6	24.8	6.07e-01	0	42	0	148373504	62	4141
2026-01-27 11:31:23.64	158.09	10.78	-45.3	-46.6	24.8	6.06e-01	0	42	0	149946368	62	4144
2026-01-27 11:31:24.65	158.11	10.88	-45.2	-46.5	24.9	6.06e-01	0	42	0	152043520	62	4089
2026-01-27 11:31:25.66	158.12	10.98	-45.3	-46.6	24.9	6.05e-01	0	42	0	154140672	62	4106
2026-01-27 11:31:26.66	158.13	11.08	-45.3	-46.6	24.9	6.07e-01	0	42	0	155713536	62	4110
2026-01-27 11:31:27.67	158.14	11.18	-45.3	-46.5	24.9	6.05e-01	0	42	0	157810688	62	4098
2026-01-27 11:31:28.68	158.16	11.28	-45.2	-46.5	25.0	6.04e-01	0	42	0	159907840	62	4055
2026-01-27 11:31:29.68	158.17	11.38	-45.3	-46.6	24.8	6.06e-01	0	42	0	161480704	62	4137
2026-01-27 11:31:30.69	158.18	11.48	-45.2	-46.5	24.9	6.06e-01	0	42	0	163577856	62	4083
2026-01-27 11:31:31.70	158.20	11.58	-45.1	-46.4	25.1	6.04e-01	0	42	0	165150720	62	4026
2026-01-27 11:31:32.71	158.21	11.68	-45.2	-46.4	25.0	6.05e-01	0	42	0	167247872	62	4047
2026-01-27 11:31:33.71	158.22	11.78	-45.1	-46.4	25.0	6.05e-01	0	42	0	168820736	62	4040
2026-01-27 11:31:34.72	158.24	11.88	-45.1	-46.4	25.0	6.06e-01	0	42	0	170917888	62	4032
2026-01-27 11:31:35.72	158.25	11.99	-44.9	-46.2	25.2	6.06e-01	0	42	0	173015040	61	4157
2026-01-27 11:31:36.72	158.26	12.09	-45.0	-46.3	25.2	6.04e-01	0	42	0	174587904	61	4214
2026-01-27 11:31:37.73	158.28	12.19	-45.0	-46.3	25.2	6.04e-01	0	42	0	176685056	61	4216
2026-01-27 11:31:38.74	158.29	12.30	-44.9	-46.1	25.3	6.06e-01	0	42	0	178257920	61	4129
2026-01-27 11:31:39.74	158.30	12.40	-44.8	-46.1	25.4	6.06e-01	0	42	0	180355072	61	4103
2026-01-27 11:31:40.74	158.32	12.50	-44.8	-46.1	25.4	6.04e-01	0	42	0	182452224	61	4120
2026-01-27 11:31:41.75	158.33	12.61	-44.7	-46.0	25.5	6.05e-01	0	42	0	184025088	61	4056
2026-01-27 11:31:42.76	158.34	12.72	-44.8	-46.0	25.4	6.04e-01	0	42	0	186122240	61	4082
2026-01-27 11:31:43.76	158.36	12.82	-44.6	-45.8	25.6	6.02e-01	0	42	0	188219392	61	3966
2026-01-27 11:31:44.77	158.37	12.93	-44.6	-45.8	25.7	6.05e-01	0	42	0	189792256	61	3995
2026-01-27 11:31:45.77	158.39	13.04	-44.7	-45.9	25.6	6.07e-01	0	42	0	191889408	61	4031
2026-01-27 11:31:46.78	158.40	13.15	-44.6	-45.8	25.7	6.06e-01	0	42	0	193462272	61	4001
2026-01-27 11:31:47.79	158.42	13.26	-44.6	-45.8	25.7	6.05e-01	0	42	0	195559424	61	3963
2026-01-27 11:31:48.79	158.43	13.36	-44.5	-45.7	25.7	6.08e-01	0	42	0	197132288	61	3945
2026-01-27 11:31:49.80	158.44	13.47	-44.5	-45.7	25.7	6.07e-01	0	42	0	199229440	61	3948
2026-01-27 11:31:50.81	158.46	13.58	-44.4	-45.5	25.9	6.05e-01	0	42	0	201326592	60	4087
2026-01-27 11:31:51.82	158.47	13.70	-44.3	-45.5	26.0	6.04e-01	0	42	0	202899456	60	4062
2026-01-27 11:31:52.82	158.49	13.81	-44.5	-45.7	25.8	6.04e-01	0	42	0	204996608	60	4169
2026-01-27 11:31:53.83	158.50	13.92	-44.5	-45.7	25.8	6.06e-01	0	42	0	206569472	60	4165
2026-01-27 11:31:54.84	158.52	14.03	-44.6	-45.8	25.7	6.04e-01	0	42	0	208666624	60	4198
2026-01-27 11:31:55.85	158.53	14.15	-44.5	-45.7	25.7	6.04e-01	0	42	0	210763776	60	4163
2026-01-27 11:31:56.85	158.55	14.26	-44.5	-45.7	25.8	6.04e-01	0	42	0	212336640	60	4149
2026-01-27 11:31:57.86	158.56	14.37	-44.6	-45.8	25.7	6.06e-01	0	42	0	214433792	60	4239
2026-01-27 11:31:58.87	158.58	14.49	-44.5	-45.8	25.7	6.06e-01	0	42	0	216530944	60	4194
2026-01-27 11:31:59.87	158.59	14.60	-44.6	-45.8	25.7	6.03e-01	0	42	0	218103808	60	4215
2026-01-27 11:32:00.88	158.61	14.72	-44.6	-45.8	25.7	6.06e-01	0	42	0	220200960	60	4201
2026-01-27 11:32:01.89	158.63	14.84	-44.7	-45.9	25.6	6.05e-01	0	42	0	221773824	60	4263
2026-01-27 11:32:02.89	158.64	14.95	-44.8	-46.0	25.5	6.06e-01	0	42	0	223870976	60	4336
2026-01-27 11:32:03.90	158.66	15.07	-44.7	-45.9	25.6	6.05e-01	0	42	0	225443840	60	4264
2026-01-27 11:32:04.91	158.67	15.19	-44.7	-45.9	25.6	6.05e-01	0	42	0	227540992	60	4268
2026-01-27 11:32:05.91	158.69	15.31	-44.6	-45.8	25.7	6.05e-01	0	42	0	229638144	60	4239
2026-01-27 11:32:06.91	158.71	15.43	-44.6	-45.8	25.7	6.05e-01	0	42	0	231211008	60	4207
2026-01-27 11:32:07.91	158.72	15.55	-44.6	-45.8	25.7	6.03e-01	0	42	0	233308160	60	4210
2026-01-27 11:32:08.92	158.74	15.67	-44.6	-45.8	25.8	6.04e-01	0	42	0	234881024	60	4195
2026-01-27 11:32:09.93	158.75	15.79	-44.5	-45.7	25.8	6.03e-01	0	42	0	236978176	60	4184
2026-01-27 11:32:10.94	158.77	15.92	-44.5	-45.7	25.8	6.06e-01	0	43	0	239075328	60	4189
2026-01-27 11:32:11.95	158.79	16.04	-44.4	-45.5	26.0	6.07e-01	0	42	0	240648192	60	4091
2026-01-27 11:32:12.96	158.81	16.17	-44.4	-45.6	26.0	6.06e-01	0	43	0	242745344	60	4111
2026-01-27 11:32:13.96	158.82	16.29	-44.4	-45.6	26.0	6.04e-01	0	42	0	244318208	60	4099
2026-01-27 11:32:14.97	158.84	16.42	-44.4	-45.5	26.1	6.05e-01	0	42	0	246415360	60	4087
2026-01-27 11:32:15.97	158.86	16.54	-44.3	-45.5	26.1	6.03e-01	0	42	0	248512512	60	4064
2026-01-27 11:32:16.98	158.87	16.67	-44.3	-45.5	26.0	6.04e-01	0	42	0	250085376	60	4082
2026-01-27 11:32:17.99	158.89	16.80	-44.4	-45.5	26.0	6.06e-01	0	42	0	252182528	60	4088
2026-01-27 11:32:19.00	158.91	16.92	-44.3	-45.5	26.1	6.07e-01	0	42	0	253755392	60	4061
2026-01-27 11:32:20.00	158.93	17.05	-44.4	-45.5	26.0	6.05e-01	0	42	0	255852544	60	4098
2026-01-27 11:32:21.01	158.94	17.18	-44.3	-45.5	26.1	6.03e-01	0	42	0	257949696	60	4067
2026-01-27 11:32:22.02	158.96	17.31	-44.4	-45.6	26.0	6.06e-01	0	42	0	259522560	60	4128
2026-01-27 11:32:23.03	158.98	17.45	-44.5	-45.7	25.9	6.05e-01	0	42	0	261619712	60	4179
2026-01-27 11:32:24.04	159.00	17.58	-44.5	-45.7	25.9	6.08e-01	0	42	0	263192576	60	4183
2026-01-27 11:32:25.05	159.02	17.71	-44.5	-45.7	25.9	6.06e-01	0	43	0	265289728	60	4176
2026-01-27 11:32:26.05	159.04	17.85	-44.5	-45.7	25.9	6.06e-01	0	42	0	267386880	60	4178
2026-01-27 11:32:27.06	159.05	17.98	-44.5	-45.7	25.9	6.05e-01	0	42	0	268959744	60	4164
2026-01-27 11:32:28.07	159.07	18.12	-44.5	-45.7	25.9	6.07e-01	0	42	0	271056896	60	4166
2026-01-27 11:32:29.08	159.09	18.25	-44.4	-45.6	26.0	6.06e-01	0	42	0	273154048	60	4132
2026-01-27 11:32:30.08	159.11	18.39	-44.4	-45.6	26.0	6.05e-01	0	42	0	274726912	60	4116
2026-01-27 11:32:31.09	159.13	18.53	-44.4	-45.6	26.1	6.04e-01	0	42	0	276824064	60	4106
2026-01-27 11:32:32.09	159.15	18.67	-44.4	-45.5	26.1	6.07e-01	0	42	0	278396928	60	4090
2026-01-27 11:32:33.10	159.17	18.81	-44.4	-45.5	26.0	6.05e-01	0	42	0	280494080	60	4093
2026-01-27 11:32:34.11	159.19	18.95	-44.4	-45.5	26.1	6.06e-01	0	42	0	282591232	60	4084
2026-01-27 11:32:35.12	159.21	19.09	-44.4	-45.5	26.1	6.03e-01	0	42	0	284164096	60	4080
2026-01-27 11:32:36.13	159.23	19.23	-44.2	-45.4	26.2	6.05e-01	0	43	0	286261248	60	4013
2026-01-27 11:32:37.14	159.25	19.37	-44.3	-45.4	26.2	6.04e-01	0	42	0	287834112	60	4050
2026-01-27 11:32:38.15	159.27	19.52	-44.4	-45.5	26.1	6.04e-01	0	42	0	289931264	60	4092
2026-01-27 11:32:39.15	159.29	19.66	-44.4	-45.6	26.0	6.05e-01	0	42	0	291504128	60	4132
2026-01-27 11:32:40.16	159.31	19.81	-44.6	-45.8	25.9	6.04e-01	0	42	0	293601280	60	4221
2026-01-27 11:32:41.16	159.33	19.96	-44.7	-45.9	25.7	6.04e-01	0	42	0	295698432	60	4269
2026-01-27 11:32:42.17	159.35	20.10	-44.6	-45.7	25.9	6.03e-01	0	42	0	297271296	60	4187
2026-01-27 11:32:43.18	159.37	20.25	-44.6	-45.8	25.8	6.04e-01	0	42	0	299368448	60	4236
2026-01-27 11:32:44.19	159.39	20.40	-44.7	-45.9	25.7	6.04e-01	0	42	0	301465600	60	4289
2026-01-27 11:32:45.19	159.42	20.55	-44.6	-45.8	25.8	6.06e-01	0	43	0	303038464	60	4236
2026-01-27 11:32:46.20	159.44	20.71	-44.6	-45.8	25.9	6.03e-01	0	42	0	305135616	60	4227
2026-01-27 11:32:47.20	159.46	20.86	-44.7	-45.9	25.8	6.05e-01	0	43	0	306708480	60	4265
2026-01-27 11:32:48.21	159.48	21.01	-44.6	-45.8	25.9	6.02e-01	0	42	0	308805632	60	4226
2026-01-27 11:32:49.22	159.50	21.17	-44.7	-45.9	25.8	6.05e-01	0	42	0	310902784	60	4276
2026-01-27 11:32:50.23	159.53	21.32	-44.7	-45.9	25.8	6.07e-01	0	42	0	312475648	60	4271
2026-01-27 11:32:51.24	159.55	21.48	-44.7	-45.9	25.8	6.04e-01	0	42	0	314572800	60	4284
2026-01-27 11:32:52.24	159.57	21.64	-44.7	-45.9	25.8	6.04e-01	0	42	0	316145664	60	4280
2026-01-27 11:32:53.25	159.59	21.80	-44.7	-45.9	25.8	6.06e-01	0	42	0	318242816	60	4268
2026-01-27 11:32:54.26	159.62	21.96	-44.8	-46.0	25.7	6.06e-01	0	43	0	319815680	60	4312
2026-01-27 11:32:55.27	159.64	22.12	-44.7	-45.9	25.7	6.05e-01	0	43	0	321912832	60	4288
2026-01-27 11:32:56.27	159.67	22.28	-44.9	-46.1	25.6	6.05e-01	0	42	0	324009984	60	4359
2026-01-27 11:32:57.28	159.69	22.44	-44.9	-46.1	25.6	6.07e-01	0	42	0	325582848	60	4365
2026-01-27 11:32:58.29	159.71	22.61	-44.9	-46.1	25.5	6.05e-01	0	42	0	327680000	60	4391
2026-01-27 11:32:59.30	159.74	22.78	-44.8	-46.0	25.7	6.05e-01	0	42	0	329777152	60	4334
2026-01-27 11:33:00.30	159.76	22.94	-44.9	-46.1	25.6	6.04e-01	0	43	0	331350016	60	4354
2026-01-27 11:33:01.31	159.79	23.11	-45.0	-46.2	25.5	6.06e-01	0	43	0	333447168	60	4428
2026-01-27 11:33:02.31	159.81	23.28	-45.0	-46.2	25.5	6.05e-01	0	42	0	335020032	60	4425
2026-01-27 11:33:03.33	159.84	23.45	-44.9	-46.1	25.6	6.05e-01	0	42	0	337117184	60	4385
2026-01-27 11:33:04.33	159.86	23.62	-44.9	-46.2	25.6	6.07e-01	0	43	0	339214336	60	4397
2026-01-27 11:33:05.34	159.89	23.80	-44.9	-46.1	25.6	6.05e-01	0	43	0	340787200	60	4390
2026-01-27 11:33:06.35	159.92	23.97	-44.9	-46.2	25.6	6.04e-01	0	43	0	342884352	60	4392
2026-01-27 11:33:07.36	159.94	24.15	-45.0	-46.2	25.5	6.06e-01	0	42	0	344457216	60	4420
2026-01-27 11:33:08.36	159.97	24.32	-45.0	-46.2	25.5	6.06e-01	0	43	0	346554368	60	4426
2026-01-27 11:33:09.37	160.00	24.50	-44.9	-46.2	25.6	6.03e-01	0	42	0	348651520	60	4397
2026-01-27 11:33:10.38	160.02	24.68	-45.0	-46.2	25.6	6.05e-01	0	43	0	350224384	60	4427
2026-01-27 11:33:11.38	160.05	24.86	-45.0	-46.2	25.6	6.04e-01	0	42	0	352321536	60	4408
2026-01-27 11:33:12.39	160.08	25.04	-45.0	-46.2	25.6	6.03e-01	0	42	0	353894400	60	4428
2026-01-27 11:33:13.39	160.11	25.22	-45.0	-46.2	25.6	6.06e-01	0	42	0	355991552	60	4428
2026-01-27 11:33:14.40	160.13	25.41	-44.9	-46.1	25.7	6.04e-01	0	42	0	358088704	60	4355
2026-01-27 11:33:15.41	160.16	25.60	-44.8	-46.1	25.7	6.05e-01	0	42	0	359661568	60	4341
2026-01-27 11:33:16.42	160.19	25.79	-44.6	-45.8	25.9	6.04e-01	0	43	0	361758720	60	4233
2026-01-27 11:33:17.43	160.22	25.98	-44.5	-45.7	26.0	6.07e-01	0	42	0	363331584	60	4173
2026-01-27 11:33:18.43	160.25	26.16	-44.3	-45.5	26.2	6.07e-01	0	42	0	365428736	60	4068
2026-01-27 11:33:19.44	160.28	26.36	-44.4	-45.5	26.2	6.05e-01	0	42	0	367525888	60	4087
2026-01-27 11:33:20.45	160.31	26.55	-44.5	-45.7	26.1	6.05e-01	0	43	0	369098752	60	4154
2026-01-27 11:33:21.46	160.34	26.75	-44.6	-45.8	25.9	6.06e-01	0	42	0	371195904	60	4226
2026-01-27 11:33:22.47	160.37	26.94	-44.7	-45.9	25.8	6.06e-01	0	42	0	373293056	60	4276
2026-01-27 11:33:23.48	160.40	27.14	-44.7	-45.9	25.8	6.04e-01	0	43	0	374865920	60	4266
2026-01-27 11:33:24.48	160.43	27.34	-44.4	-45.6	26.1	6.06e-01	0	42	0	376963072	60	4125
2026-01-27 11:33:25.49	160.47	27.54	-44.5	-45.7	26.1	6.04e-01	0	43	0	378535936	60	4148
2026-01-27 11:33:26.50	160.50	27.75	-44.5	-45.7	26.0	6.05e-01	0	42	0	380633088	60	4169
2026-01-27 11:33:27.50	160.53	27.95	-44.4	-45.6	26.2	6.06e-01	0	42	0	382205952	60	4100
2026-01-27 11:33:28.51	160.56	28.16	-44.3	-45.5	26.3	6.07e-01	0	42	0	384303104	60	4069
2026-01-27 11:33:29.52	160.60	28.36	-44.4	-45.6	26.2	6.03e-01	0	42	0	386400256	60	4099
2026-01-27 11:33:30.53	160.63	28.57	-44.4	-45.5	26.2	6.04e-01	0	43	0	387973120	60	4098
2026-01-27 11:33:31.53	160.67	28.78	-44.5	-45.6	26.2	6.06e-01	0	43	0	390070272	60	4138
2026-01-27 11:33:32.54	160.70	29.00	-44.9	-55.6	3.9	7.37e-01	0	42	104	390070272	60	12972
2026-01-27 11:33:33.55	160.74	29.21	-44.6	-55.4	3.8	7.45e-01	0	42	104	390070272	60	12782
2026-01-27 11:33:34.55	160.77	29.43	-45.3	-56.1	3.8	7.36e-01	0	43	104	390070272	61	13017
2026-01-27 11:33:35.56	160.81	29.65	-45.4	-56.1	3.8	7.47e-01	0	43	104	390070272	61	13084
2026-01-27 11:33:36.57	160.84	29.87	-49.1	-60.3	3.9	7.39e-01	0	43	104	390070272	70	12628
2026-01-27 11:33:37.58	160.88	30.09	-45.7	-56.3	3.9	7.38e-01	0	43	104	390070272	62	12580
2026-01-27 11:33:38.58	160.92	30.31	-46.2	-56.9	3.8	7.41e-01	0	43	104	390070272	64	12087
2026-01-27 11:33:39.59	160.96	30.54	-45.6	-56.3	3.9	7.39e-01	0	43	104	390070272	62	12558
2026-01-27 11:33:40.59	161.00	30.76	-45.6	-56.4	3.8	7.44e-01	0	42	104	390070272	62	12750
2026-01-27 11:33:41.60	161.03	30.99	-45.8	-56.6	3.9	7.42e-01	0	43	104	390070272	62	13047
2026-01-27 11:33:42.60	161.07	31.22	-47.1	-57.9	3.9	7.45e-01	0	43	104	390070272	64	13513
2026-01-27 11:33:43.61	161.11	31.46	-46.4	-57.1	3.8	7.44e-01	0	43	104	390070272	63	13094
2026-01-27 11:33:44.61	161.15	31.69	-52.5	-65.4	4.0	7.40e-01	0	42	104	390070272	75	16893
2026-01-27 11:33:45.62	161.19	31.93	-45.2	-55.7	4.2	7.41e-01	0	43	104	390070272	62	11727
2026-01-27 11:33:46.63	161.24	32.17	-45.7	-56.2	4.1	7.34e-01	0	42	104	390070272	63	11807
2026-01-27 11:33:47.64	161.28	32.41	-45.4	-56.1	3.8	7.47e-01	0	43	104	390070272	62	12276
2026-01-27 11:33:48.64	161.32	32.65	-45.4	-56.1	3.8	7.49e-01	0	43	104	390070272	62	12355
2026-01-27 11:33:49.65	161.37	32.90	-46.0	-56.8	3.8	7.46e-01	0	43	104	390070272	62	13350
2026-01-27 11:33:50.66	161.41	33.14	-45.4	-56.1	3.8	7.45e-01	0	43	104	390070272	62	12370
2026-01-27 11:33:51.67	161.45	33.39	-51.8	-64.1	3.8	7.43e-01	0	43	104	390070272	73	16372
2026-01-27 11:33:52.67	161.50	33.64	-49.7	-61.3	3.8	7.45e-01	0	43	104	390070272	71	13312
2026-01-27 11:33:53.68	161.55	33.90	-47.7	-58.6	3.8	7.49e-01	0	43	104	390070272	65	13837
2026-01-27 11:33:54.68	161.59	34.15	-47.1	-58.1	3.8	7.45e-01	0	42	104	390070272	66	12291
2026-01-27 11:33:55.69	161.64	34.41	-46.5	-57.5	3.8	7.46e-01	0	42	104	390070272	64	12832
2026-01-27 11:33:56.69	161.69	34.67	-46.6	-57.5	3.8	7.47e-01	0	42	104	390070272	64	12827
2026-01-27 11:33:57.70	161.74	34.93	-46.9	-57.9	3.8	7.43e-01	0	43	104	390070272	64	13521
2026-01-27 11:33:58.71	161.79	35.20	-49.6	-61.0	3.8	7.43e-01	0	43	104	390070272	69	14490
2026-01-27 11:33:59.72	161.84	35.47	-48.6	-59.8	3.8	7.44e-01	0	42	104	390070272	67	14105
2026-01-27 11:34:00.73	161.89	35.74	-54.4	-69.9	3.8	7.46e-01	0	43	104	390070272	79	22582
2026-01-27 11:34:01.73	161.94	36.01	-46.3	-57.1	3.8	7.42e-01	0	43	104	390070272	64	12330
2026-01-27 11:34:02.74	161.99	36.29	-46.4	-57.5	3.8	7.47e-01	0	43	104	390070272	65	12148
2026-01-27 11:34:03.75	162.05	36.56	-47.0	-58.0	3.8	7.45e-01	0	43	104	390070272	65	12836
2026-01-27 11:34:04.76	162.10	36.85	-46.9	-57.9	3.8	7.49e-01	0	42	104	390070272	65	12773
2026-01-27 11:34:05.77	162.16	37.13	-47.2	-58.3	3.8	7.47e-01	0	43	104	390070272	65	13311
2026-01-27 11:34:06.77	162.21	37.41	-47.1	-58.1	3.8	7.46e-01	0	42	104	390070272	64	13786
2026-01-27 11:34:07.77	162.27	37.70	-54.6	-70.2	3.7	7.46e-01	0	43	104	390070272	79	23499
2026-01-27 11:34:08.78	162.33	37.99	-51.4	-63.6	3.8	7.45e-01	0	43	104	390070272	74	14673
2026-01-27 11:34:09.79	162.39	38.28	-51.0	-62.9	3.8	7.42e-01	0	43	104	390070272	72	15135
2026-01-27 11:34:10.80	162.45	38.58	-48.8	-60.0	3.8	7.43e-01	0	42	104	390070272	69	12917
2026-01-27 11:34:11.81	162.51	38.88	-48.6	-59.7	3.8	7.45e-01	0	42	104	390070272	68	13252
2026-01-27 11:34:12.81	162.57	39.18	-48.6	-59.8	3.8	7.44e-01	0	43	104	390070272	68	13399
2026-01-27 11:34:13.82	162.63	39.48	-49.2	-60.7	3.8	7.44e-01	0	43	104	390070272	68	14758
2026-01-27 11:34:14.83	162.70	39.79	-51.9	-64.4	3.8	7.43e-01	0	43	104	390070272	74	15958
2026-01-27 11:34:15.83	162.76	40.09	-50.7	-62.9	3.8	7.46e-01	0	43	104	390070272	72	15219
2026-01-27 11:34:16.84	162.83	40.41	-55.0	-72.1	3.7	7.45e-01	0	42	104	390070272	80	27659
2026-01-27 11:34:17.85	162.90	40.72	-46.9	-57.7	3.8	7.43e-01	0	42	104	390070272	65	12484
2026-01-27 11:34:18.86	162.97	41.04	-46.6	-57.5	3.9	7.43e-01	0	43	104	390070272	65	12158
2026-01-27 11:34:19.87	163.04	41.36	-46.6	-57.6	3.8	7.42e-01	0	42	104	390070272	65	12252
2026-01-27 11:34:20.88	163.11	41.69	-46.1	-56.8	3.8	7.45e-01	0	43	104	390070272	64	11935
2026-01-27 11:34:21.88	163.19	42.01	-46.4	-57.3	3.8	7.43e-01	0	42	104	390070272	63	13374
2026-01-27 11:34:22.89	163.26	42.34	-46.2	-57.0	3.8	7.47e-01	0	43	104	390070272	63	12887
2026-01-27 11:34:23.90	163.34	42.68	-55.1	-72.3	3.7	7.41e-01	0	43	104	390070272	80	28341
2026-01-27 11:34:24.91	163.42	43.02	-49.3	-60.7	3.8	7.47e-01	0	43	104	390070272	70	13209
2026-01-27 11:34:25.92	163.50	43.36	-49.7	-61.1	3.9	7.46e-01	0	42	104	390070272	69	14702
2026-01-27 11:34:26.93	163.58	43.70	-46.0	-56.8	3.8	7.45e-01	0	43	104	390070272	64	11910
2026-01-27 11:34:27.93	163.66	44.04	-45.6	-56.4	3.8	7.43e-01	0	42	104	390070272	63	11964
2026-01-27 11:34:28.94	163.75	44.39	-45.4	-56.2	3.8	7.44e-01	0	43	104	390070272	62	12400
2026-01-27 11:34:29.95	163.83	44.74	-46.0	-56.8	3.8	7.43e-01	0	43	104	390070272	62	13328
2026-01-27 11:34:30.95	163.92	45.10	-45.5	-56.3	3.8	7.41e-01	0	42	104	390070272	61	13304
2026-01-27 11:34:31.96	164.01	45.46	-55.2	-72.7	3.7	7.46e-01	0	43	104	390070272	80	29436
2026-01-27 11:34:32.97	164.11	45.82	-48.9	-60.0	3.9	7.46e-01	0	43	104	390070272	69	12840
2026-01-27 11:34:33.98	164.20	46.18	-50.1	-61.7	3.8	7.44e-01	0	43	104	390070272	70	14782
2026-01-27 11:34:34.98	164.30	46.55	-45.4	-56.2	3.8	7.46e-01	0	43	104	390070272	62	12440
2026-01-27 11:34:35.99	164.40	46.92	-45.5	-56.3	3.8	7.43e-01	0	42	104	390070272	62	12569
2026-01-27 11:34:37.00	164.50	47.30	-44.8	-55.5	3.8	7.43e-01	0	43	104	390070272	61	12142
2026-01-27 11:34:38.01	164.60	47.68	-47.9	-59.1	3.8	7.44e-01	0	42	104	390070272	66	13747
2026-01-27 11:34:39.01	164.71	48.06	-45.6	-56.4	3.8	7.43e-01	0	43	104	390070272	62	12739
2026-01-27 11:34:40.02	164.82	48.44	-55.2	-73.0	3.9	7.43e-01	0	43	104	390070272	81	28879
2026-01-27 11:34:41.03	164.93	48.83	-49.1	-60.4	3.8	7.44e-01	0	43	104	390070272	70	12698
2026-01-27 11:34:42.04	165.04	49.23	-50.4	-62.1	3.8	7.44e-01	0	43	104	390070272	71	14609
2026-01-27 11:34:43.04	165.16	49.62	-45.6	-56.4	3.8	7.45e-01	0	43	104	390070272	63	12024
2026-01-27 11:34:44.05	165.28	50.02	-45.0	-55.9	3.9	7.37e-01	0	43	104	390070272	62	11967
2026-01-27 11:34:45.06	165.41	50.43	-44.5	-55.1	3.8	7.42e-01	0	43	104	390070272	61	11622
2026-01-27 11:34:46.07	165.53	50.83	-46.7	-57.7	3.8	7.48e-01	0	43	104	390070272	65	12518
2026-01-27 11:34:47.07	165.66	51.24	-44.9	-55.7	3.8	7.45e-01	0	43	104	390070272	61	12419
2026-01-27 11:34:48.08	165.80	51.66	-55.2	-72.9	3.8	7.46e-01	0	43	104	390070272	81	28435
2026-01-27 11:34:49.09	165.93	52.07	-48.0	-58.6	3.9	7.43e-01	0	43	104	390070272	67	12332
2026-01-27 11:34:50.10	166.08	52.50	-49.8	-61.5	3.9	7.42e-01	0	43	104	390070272	71	13677
2026-01-27 11:34:51.10	166.22	52.92	-44.8	-55.5	3.8	7.41e-01	0	43	104	390070272	61	12101
2026-01-27 11:34:52.11	166.37	53.35	-44.3	-55.0	3.8	7.42e-01	0	43	104	390070272	60	12176
2026-01-27 11:34:53.12	166.53	53.78	-44.2	-54.9	3.8	7.45e-01	0	43	104	390070272	60	12064
2026-01-27 11:34:54.13	166.68	54.22	-47.3	-58.2	3.8	7.42e-01	0	43	104	390070272	66	12485
2026-01-27 11:34:55.13	166.85	54.65	-44.3	-55.0	3.8	7.46e-01	0	43	104	390070272	60	12227
2026-01-27 11:34:56.14	167.02	55.10	-55.3	-73.0	3.8	7.47e-01	0	43	104	390070272	81	28929
2026-01-27 11:34:57.15	167.19	55.54	-47.9	-59.1	3.8	7.49e-01	0	43	104	390070272	68	12254
2026-01-27 11:34:58.15	167.37	55.99	-49.9	-61.6	3.8	7.45e-01	0	43	104	390070272	71	13874
2026-01-27 11:34:59.16	167.55	56.45	-45.7	-56.4	3.8	7.42e-01	0	42	104	390070272	63	12084
2026-01-27 11:35:00.16	167.74	56.90	-45.8	-56.6	3.8	7.44e-01	0	43	104	390070272	63	12352
2026-01-27 11:35:01.17	167.94	57.36	-46.1	-56.9	3.8	7.45e-01	0	42	104	390070272	63	12683
2026-01-27 11:35:02.18	168.15	57.83	-47.8	-59.0	3.9	7.48e-01	0	43	104	390070272	67	12853
2026-01-27 11:35:03.19	168.36	58.30	-45.5	-56.2	3.9	7.43e-01	0	43	104	390070272	63	11722
2026-01-27 11:35:04.20	168.58	58.77	-55.3	-72.8	3.8	7.43e-01	0	43	104	390070272	81	28203
2026-01-27 11:35:05.21	168.81	59.24	-48.2	-59.3	3.8	7.48e-01	0	43	104	390070272	68	12609
2026-01-27 11:35:06.21	169.04	59.72	-50.5	-62.3	3.9	7.46e-01	0	43	104	390070272	73	13274
2026-01-27 11:35:07.22	169.28	60.20	-46.5	-57.3	3.9	7.44e-01	0	43	104	390070272	64	12545
2026-01-27 11:35:08.23	169.54	60.69	-46.6	-57.4	3.8	7.47e-01	0	43	104	390070272	64	12753
2026-01-27 11:35:09.23	169.80	61.17	-46.9	-57.9	3.8	7.44e-01	0	43	104	390070272	64	13446
2026-01-27 11:35:10.24	170.07	61.67	-49.3	-60.7	3.8	7.43e-01	0	43	104	390070272	70	13156
2026-01-27 11:35:11.25	170.36	62.16	-46.8	-57.7	3.8	7.44e-01	0	43	104	390070272	65	12439
2026-01-27 11:35:12.26	170.66	62.66	-55.4	-73.1	3.8	7.47e-01	0	43	104	390070272	81	29337
2026-01-27 11:35:13.27	170.96	63.16	-48.7	-59.8	3.8	7.46e-01	0	43	104	390070272	69	12645
2026-01-27 11:35:14.28	171.29	63.67	-51.2	-63.3	3.8	7.46e-01	0	43	104	390070272	74	14147
2026-01-27 11:35:15.29	171.62	64.18	-48.6	-59.7	3.8	7.45e-01	0	43	104	390070272	68	13157
2026-01-27 11:35:16.29	171.97	64.68	-48.7	-59.9	3.8	7.44e-01	0	43	104	390070272	68	13528
2026-01-27 11:35:17.30	172.34	65.20	-48.7	-59.9	3.8	7.46e-01	0	43	104	390070272	68	13498
2026-01-27 11:35:18.31	172.73	65.71	-50.0	-61.5	3.8	7.46e-01	0	43	104	390070272	72	12882
2026-01-27 11:35:19.32	173.13	66.23	-49.9	-61.3	3.8	7.46e-01	0	43	104	390070272	70	14053
2026-01-27 11:35:20.33	173.55	66.75	-55.3	-73.0	3.8	7.47e-01	0	43	104	390070272	81	28823
2026-01-27 11:35:21.34	174.00	67.27	-50.1	-61.7	3.8	7.46e-01	0	43	104	390070272	72	13136
2026-01-27 11:35:22.34	174.46	67.79	-52.4	-64.8	3.8	7.43e-01	0	43	104	390070272	76	14982
2026-01-27 11:35:23.35	174.95	68.32	-49.7	-61.1	3.8	7.43e-01	0	43	104	390070272	71	13077
2026-01-27 11:35:24.36	175.47	68.85	-49.7	-61.1	3.8	7.47e-01	0	43	104	390070272	71	13047
2026-01-27 11:35:25.37	176.02	69.38	-50.0	-61.5	3.8	7.45e-01	0	43	104	390070272	71	13618
2026-01-27 11:35:26.37	176.59	69.91	-50.7	-62.8	3.8	7.45e-01	0	43	104	390070272	73	14118
2026-01-27 11:35:27.38	177.20	70.44	-51.7	-63.5	3.8	7.43e-01	0	43	104	390070272	73	15385
2026-01-27 11:35:28.39	177.85	70.97	-55.2	-72.4	3.8	7.43e-01	0	43	104	390070272	81	26895
2026-01-27 11:35:29.40	178.53	71.51	-50.1	-61.7	3.9	7.46e-01	0	43	104	390070272	72	13173
2026-01-27 11:35:30.40	179.26	72.04	-51.7	-63.9	3.8	7.48e-01	0	43	104	390070272	75	14242
2026-01-27 11:35:31.41	180.03	72.57	-49.7	-61.2	3.8	7.42e-01	0	43	104	390070272	71	13135
2026-01-27 11:35:32.41	180.85	73.10	-49.3	-60.6	3.8	7.44e-01	0	43	104	390070272	70	13100
2026-01-27 11:35:33.42	181.74	73.63	-50.5	-62.1	3.8	7.42e-01	0	42	104	390070272	71	14651
2026-01-27 11:35:34.43	182.68	74.16	-51.3	-63.3	3.8	7.43e-01	0	43	104	390070272	74	14180
2026-01-27 11:35:35.44	183.70	74.69	-51.9	-63.5	3.8	7.44e-01	0	43	104	390070272	73	15319
2026-01-27 11:35:36.45	184.79	75.22	-55.2	-72.0	3.8	7.42e-01	0	43	104	390070272	81	25839
2026-01-27 11:35:37.45	185.95	75.73	-48.4	-59.5	3.8	7.45e-01	0	43	104	390070272	68	12938
2026-01-27 11:35:38.45	187.20	76.25	-50.4	-61.7	3.8	7.44e-01	0	42	104	390070272	72	13144
2026-01-27 11:35:39.46	188.56	76.76	-48.1	-59.2	3.9	7.46e-01	0	43	104	390070272	67	13175
2026-01-27 11:35:40.47	190.04	77.27	-47.7	-58.6	3.8	7.42e-01	0	43	104	390070272	67	12352
2026-01-27 11:35:41.48	191.64	77.77	-48.7	-59.9	3.8	7.44e-01	0	43	104	390070272	67	14370
2026-01-27 11:35:42.49	193.38	78.26	-48.2	-59.2	3.8	7.45e-01	0	43	104	390070272	68	12417
2026-01-27 11:35:43.49	195.26	78.74	-54.5	-69.0	3.8	7.48e-01	0	43	104	390070272	79	20521
2026-01-27 11:35:44.50	197.32	79.21	-53.9	-67.8	4.0	7.44e-01	0	43	104	390070272	79	17838
2026-01-27 11:35:45.51	199.57	79.67	-46.9	-57.7	3.8	7.44e-01	0	43	104	390070272	65	12401
2026-01-27 11:35:46.51	202.01	80.10	-47.9	-58.9	3.8	7.45e-01	0	43	104	390070272	67	12752
2026-01-27 11:35:47.52	204.69	80.52	-46.0	-56.8	3.8	7.40e-01	0	43	104	390070272	64	11866
2026-01-27 11:35:48.53	207.63	80.93	-45.7	-56.6	3.8	7.46e-01	0	43	104	390070272	63	12270
2026-01-27 11:35:49.54	210.82	81.30	-46.7	-57.9	3.8	7.45e-01	0	43	104	390070272	64	13557
2026-01-27 11:35:50.55	214.30	81.65	-47.1	-58.1	3.8	7.45e-01	0	43	104	390070272	66	12257
2026-01-27 11:35:51.55	218.04	81.96	-54.9	-69.0	3.8	7.50e-01	0	43	104	390070272	79	20351
2026-01-27 11:35:52.56	222.09	82.24	-53.9	-67.7	4.0	7.42e-01	0	43	104	390070272	79	17626
2026-01-27 11:35:53.57	226.44	82.48	-47.7	-58.5	3.8	7.42e-01	0	43	104	390070272	65	13687
2026-01-27 11:35:54.58	231.03	82.67	-47.1	-57.9	3.8	7.46e-01	0	43	104	390070272	66	12078
2026-01-27 11:35:55.58	235.80	82.81	-46.2	-56.9	3.8	7.44e-01	0	43	104	390070272	64	12004
2026-01-27 11:35:56.59	240.78	82.90	-46.1	-57.0	3.8	7.47e-01	0	43	104	390070272	64	12230
2026-01-27 11:35:57.60	245.84	82.94	-51.6	-63.7	3.8	7.44e-01	0	43	104	390070272	73	15661
2026-01-27 11:35:58.61	250.93	82.93	-47.2	-58.0	3.8	7.46e-01	0	43	104	390070272	66	12155
2026-01-27 11:35:59.62	255.95	82.85	-55.6	-73.3	3.6	7.49e-01	0	43	104	390070272	81	29804
2026-01-27 11:36:00.63	260.83	82.73	-53.4	-66.8	3.9	7.41e-01	0	43	104	390070272	79	15840
2026-01-27 11:36:01.63	265.47	82.56	-48.5	-59.6	3.8	7.45e-01	0	43	104	390070272	67	13842
2026-01-27 11:36:02.64	269.91	82.34	-47.5	-58.3	3.9	7.45e-01	0	43	104	390070272	67	11883
2026-01-27 11:36:03.65	274.08	82.07	-46.7	-57.8	3.8	7.44e-01	0	43	104	390070272	64	13379
2026-01-27 11:36:04.66	277.96	81.77	-46.7	-57.4	3.8	7.45e-01	0	43	104	390070272	64	12786
2026-01-27 11:36:05.66	281.51	81.44	-49.9	-61.4	3.8	7.45e-01	0	43	104	390070272	70	14366
2026-01-27 11:36:06.67	284.82	81.07	-47.0	-57.9	3.9	7.43e-01	0	43	104	390070272	66	11966
2026-01-27 11:36:07.67	287.82	80.69	-55.6	-73.2	3.8	7.47e-01	0	43	104	390070272	81	29495
2026-01-27 11:36:08.68	290.60	80.27	-52.4	-64.9	3.9	7.44e-01	0	43	104	390070272	77	14236
2026-01-27 11:36:09.69	293.14	79.84	-49.9	-61.5	3.8	7.45e-01	0	43	104	390070272	70	14502
2026-01-27 11:36:10.70	295.47	79.39	-47.7	-58.8	3.9	7.46e-01	0	43	104	390070272	67	12533
2026-01-27 11:36:11.71	297.61	78.92	-47.4	-58.3	3.9	7.42e-01	0	43	104	390070272	66	12611
2026-01-27 11:36:12.71	299.54	78.45	-47.5	-58.5	3.8	7.41e-01	0	43	104	390070272	66	12956
2026-01-27 11:36:13.72	301.34	77.96	-51.2	-63.0	3.9	7.46e-01	0	43	104	390070272	72	15328
2026-01-27 11:36:14.73	302.99	77.47	-48.4	-59.4	3.8	7.41e-01	0	43	104	390070272	68	12695
2026-01-27 11:36:15.74	304.52	76.96	-55.6	-73.3	3.8	7.48e-01	0	43	104	390070272	81	29719
2026-01-27 11:36:16.75	305.92	76.45	-53.3	-66.4	3.8	7.41e-01	0	43	104	390070272	78	15979
2026-01-27 11:36:17.75	307.21	75.94	-51.1	-63.1	3.8	7.42e-01	0	43	104	390070272	72	15540
2026-01-27 11:36:18.76	308.42	75.42	-48.8	-59.6	3.8	7.44e-01	0	43	104	390070272	69	12279
2026-01-27 11:36:19.77	309.53	74.89	-48.5	-59.8	3.9	7.45e-01	0	43	104	390070272	68	13266
2026-01-27 11:36:20.77	310.57	74.37	-48.6	-59.7	3.8	7.45e-01	0	43	104	390070272	68	13220
2026-01-27 11:36:21.77	311.53	73.85	-54.1	-68.1	3.8	7.49e-01	0	43	104	390070272	78	19501
2026-01-27 11:36:22.78	312.44	73.32	-49.3	-60.5	3.9	7.46e-01	0	43	104	390070272	70	12815
2026-01-27 11:36:23.79	313.29	72.79	-55.7	-73.4	3.8	7.45e-01	0	43	104	390070272	81	30209
2026-01-27 11:36:24.80	314.08	72.25	-53.4	-66.4	3.9	7.48e-01	0	43	104	390070272	78	16054
2026-01-27 11:36:25.81	314.83	71.72	-52.4	-64.7	3.8	7.48e-01	0	43	104	390070272	75	15637
2026-01-27 11:36:26.82	315.53	71.19	-50.0	-61.6	3.8	7.42e-01	0	43	104	390070272	72	13013
2026-01-27 11:36:27.82	316.19	70.66	-49.1	-60.0	3.8	7.47e-01	0	43	104	390070272	70	12108
2026-01-27 11:36:28.83	316.81	70.13	-49.1	-60.4	3.8	7.46e-01	0	43	104	390070272	69	13436
2026-01-27 11:36:29.84	317.40	69.59	-54.2	-68.6	3.8	7.45e-01	0	43	104	390070272	78	20665
2026-01-27 11:36:30.85	317.96	69.06	-49.7	-60.7	3.8	7.41e-01	0	43	104	390070272	71	12482
2026-01-27 11:36:31.85	318.48	68.54	-55.7	-73.4	3.8	7.50e-01	0	43	104	390070272	81	30212
2026-01-27 11:36:32.86	318.98	68.01	-54.0	-68.5	3.8	7.43e-01	0	43	104	390070272	80	18096
2026-01-27 11:36:33.87	319.46	67.49	-53.5	-66.5	3.8	7.46e-01	0	43	104	390070272	77	17142
2026-01-27 11:36:34.87	319.91	66.97	-50.3	-62.1	3.9	7.40e-01	0	43	104	390070272	72	13823
2026-01-27 11:36:35.88	320.34	66.45	-49.4	-60.2	3.8	7.48e-01	0	43	104	390070272	70	12488
2026-01-27 11:36:36.89	320.75	65.93	-49.3	-60.8	3.8	7.43e-01	0	43	104	390070272	70	13348
2026-01-27 11:36:37.90	321.14	65.42	-52.1	-65.0	3.9	7.45e-01	0	43	104	390070272	74	17117
2026-01-27 11:36:38.91	321.52	64.90	-48.5	-59.4	3.8	7.42e-01	0	43	104	390070272	69	11969
2026-01-27 11:36:39.92	321.87	64.39	-55.7	-73.4	3.8	7.45e-01	0	43	104	390070272	81	30150
2026-01-27 11:36:40.93	322.22	63.88	-53.2	-66.2	3.8	7.45e-01	0	43	104	390070272	78	15616
2026-01-27 11:36:41.93	322.54	63.38	-52.0	-64.3	3.9	7.45e-01	0	43	104	390070272	74	15929
2026-01-27 11:36:42.94	322.86	62.88	-48.6	-59.8	3.8	7.42e-01	0	43	104	390070272	69	12555
2026-01-27 11:36:43.94	323.16	62.39	-47.5	-58.3	3.8	7.42e-01	0	43	104	390070272	67	11940
2026-01-27 11:36:44.95	323.44	61.89	-47.0	-58.0	3.8	7.45e-01	0	43	104	390070272	65	12847
2026-01-27 11:36:45.95	323.72	61.40	-51.9	-64.2	3.8	7.45e-01	0	43	104	390070272	74	15678
2026-01-27 11:36:46.96	323.99	60.91	-47.0	-57.9	3.8	7.45e-01	0	43	104	390070272	66	11989
2026-01-27 11:36:47.97	324.25	60.43	-55.6	-73.2	3.8	7.46e-01	0	43	104	390070272	81	29490
2026-01-27 11:36:48.98	324.49	59.94	-51.6	-63.5	3.8	7.47e-01	0	43	104	390070272	75	13641
2026-01-27 11:36:49.99	324.73	59.46	-50.1	-61.4	3.8	7.47e-01	0	43	104	390070272	70	14218
2026-01-27 11:36:50.99	324.96	58.99	-46.6	-57.7	3.8	7.44e-01	0	43	104	390070272	65	12481
2026-01-27 11:36:52.00	325.18	58.52	-46.1	-56.8	3.8	7.47e-01	0	43	104	390070272	64	11933
2026-01-27 11:36:53.01	325.40	58.05	-45.9	-56.6	3.9	7.47e-01	0	43	104	390070272	63	12367
2026-01-27 11:36:54.02	325.61	57.58	-49.2	-60.6	3.8	7.46e-01	0	43	104	390070272	69	13825
2026-01-27 11:36:55.03	325.81	57.12	-46.0	-56.9	3.8	7.46e-01	0	43	104	390070272	64	12020
2026-01-27 11:36:56.04	326.00	56.66	-55.5	-73.0	3.8	7.45e-01	0	43	104	390070272	81	28858
2026-01-27 11:36:57.04	326.19	56.21	-51.3	-63.0	3.8	7.44e-01	0	43	104	390070272	74	13581
2026-01-27 11:36:58.05	326.37	55.76	-48.7	-59.6	3.9	7.47e-01	0	43	104	390070272	67	13815
2026-01-27 11:36:59.05	326.55	55.32	-45.4	-55.9	3.8	7.45e-01	0	43	104	390070272	62	12001
2026-01-27 11:37:00.07	326.72	54.87	-45.0	-56.0	3.8	7.44e-01	0	43	104	390070272	62	12150
2026-01-27 11:37:01.08	326.89	54.43	-44.6	-55.3	3.8	7.43e-01	0	43	104	390070272	61	11871
2026-01-27 11:37:02.08	327.04	54.00	-45.6	-56.4	3.8	7.42e-01	0	43	104	390070272	62	12689
2026-01-27 11:37:03.09	327.20	53.56	-45.3	-56.1	3.8	7.48e-01	0	43	104	390070272	62	12336
2026-01-27 11:37:04.09	327.35	53.14	-55.4	-72.5	3.8	7.43e-01	0	43	104	390070272	81	27244
2026-01-27 11:37:05.10	327.50	52.71	-50.3	-61.9	3.8	7.42e-01	0	43	104	390070272	72	13534
2026-01-27 11:37:06.10	327.64	52.29	-47.6	-58.4	3.8	7.44e-01	0	43	104	390070272	66	12717
2026-01-27 11:37:07.10	327.78	51.88	-45.4	-56.1	3.8	7.39e-01	0	43	104	390070272	62	12357
2026-01-27 11:37:08.11	327.92	51.46	-45.3	-56.2	3.8	7.46e-01	0	43	104	390070272	62	12471
2026-01-27 11:37:09.12	328.05	51.05	-45.1	-55.9	3.8	7.44e-01	0	43	104	390070272	62	12064
2026-01-27 11:37:10.13	328.18	50.64	-48.6	-59.7	3.9	7.43e-01	0	43	104	390070272	69	12440
2026-01-27 11:37:11.13	328.30	50.24	-46.0	-56.6	3.8	7.42e-01	0	43	104	390070272	63	12321
2026-01-27 11:37:12.14	328.42	49.84	-55.4	-72.5	3.8	7.44e-01	0	43	104	390070272	81	27357
2026-01-27 11:37:13.15	328.54	49.45	-51.0	-63.0	3.9	7.47e-01	0	43	104	390070272	74	13622
2026-01-27 11:37:14.15	328.66	49.06	-48.0	-58.9	3.8	7.42e-01	0	43	104	390070272	67	12792
2026-01-27 11:37:15.16	328.77	48.67	-46.1	-57.0	3.9	7.47e-01	0	43	104	390070272	63	12834
2026-01-27 11:37:16.16	328.88	48.28	-46.1	-56.8	3.8	7.46e-01	0	43	104	390070272	63	12658
2026-01-27 11:37:17.17	328.99	47.90	-45.6	-56.1	3.8	7.45e-01	0	43	104	390070272	63	11660
2026-01-27 11:37:18.18	329.09	47.52	-46.8	-57.5	3.8	7.42e-01	0	43	104	390070272	65	12102
2026-01-27 11:37:19.19	329.20	47.14	-46.9	-57.7	3.8	7.46e-01	0	43	104	390070272	64	13152
2026-01-27 11:37:20.19	329.30	46.77	-55.3	-72.4	3.8	7.43e-01	0	43	104	390070272	81	26838
2026-01-27 11:37:21.20	329.39	46.40	-50.1	-61.9	3.9	7.47e-01	0	43	104	390070272	72	13428
2026-01-27 11:37:22.20	329.49	46.04	-47.3	-58.3	3.9	7.46e-01	0	43	104	390070272	66	12572
2026-01-27 11:37:23.21	329.58	45.68	-45.9	-56.8	3.9	7.44e-01	0	43	104	390070272	63	12622
2026-01-27 11:37:24.21	329.67	45.32	-45.9	-57.0	3.8	7.46e-01	0	43	104	390070272	63	12877
2026-01-27 11:37:25.22	329.76	44.96	-45.6	-56.6	3.8	7.42e-01	0	43	104	390070272	63	12251
2026-01-27 11:37:26.23	329.85	44.61	-46.9	-57.9	3.9	7.44e-01	0	43	104	390070272	65	12674
2026-01-27 11:37:27.24	329.94	44.26	-46.9	-57.7	3.8	7.43e-01	0	43	104	390070272	64	13177
2026-01-27 11:37:28.24	330.02	43.92	-55.3	-72.4	3.8	7.46e-01	0	43	104	390070272	81	26894
2026-01-27 11:37:29.25	330.10	43.57	-50.4	-61.8	3.8	7.45e-01	0	43	104	390070272	72	13357
2026-01-27 11:37:30.26	330.18	43.23	-47.3	-58.1	3.8	7.46e-01	0	43	104	390070272	65	13045
2026-01-27 11:37:31.26	330.26	42.90	-46.1	-56.8	3.8	7.47e-01	0	43	104	390070272	64	11934
2026-01-27 11:37:32.26	330.34	42.57	-46.0	-56.8	3.8	7.45e-01	0	43	104	390070272	63	12619
2026-01-27 11:37:33.27	330.42	42.24	-46.1	-57.0	3.8	7.47e-01	0	43	104	390070272	63	12893
2026-01-27 11:37:34.28	330.49	41.91	-47.2	-58.2	3.8	7.44e-01	0	43	104	390070272	66	12495
2026-01-27 11:37:35.29	330.56	41.58	-48.9	-60.2	3.8	7.42e-01	0	43	104	390070272	68	14020
2026-01-27 11:37:36.29	330.64	41.27	-55.4	-72.8	3.8	7.46e-01	0	43	104	390070272	81	28280
2026-01-27 11:37:37.30	330.71	40.95	-49.5	-60.7	3.8	7.42e-01	0	43	104	390070272	71	12507
2026-01-27 11:37:38.31	330.78	40.63	-47.3	-58.0	3.8	7.46e-01	0	43	104	390070272	66	12160
2026-01-27 11:37:39.32	330.84	40.32	-46.5	-57.5	3.8	7.44e-01	0	43	104	390070272	65	12141
2026-01-27 11:37:40.32	330.91	40.01	-46.6	-57.8	3.8	7.43e-01	0	43	104	390070272	65	12565
2026-01-27 11:37:41.33	330.98	39.70	-46.4	-57.4	3.8	7.42e-01	0	43	104	390070272	64	12762
2026-01-27 11:37:42.34	331.04	39.40	-47.0	-57.9	3.8	7.45e-01	0	43	104	390070272	65	12794
2026-01-27 11:37:43.35	331.10	39.09	-49.2	-60.3	3.8	7.43e-01	0	43	104	390070272	68	14199
2026-01-27 11:37:44.36	331.17	38.79	-55.4	-73.0	3.8	7.46e-01	0	43	104	390070272	81	28716
2026-01-27 11:37:45.36	331.23	38.50	-49.8	-61.4	3.9	7.47e-01	0	43	104	390070272	71	13535
2026-01-27 11:37:46.37	331.29	38.21	-46.9	-58.0	3.8	7.43e-01	0	43	104	390070272	65	12903
2026-01-27 11:37:47.38	331.34	37.91	-46.3	-57.3	3.8	7.43e-01	0	43	104	390070272	64	12615
2026-01-27 11:37:48.38	331.40	37.63	-46.0	-57.0	3.8	7.44e-01	0	43	104	390070272	64	12192
2026-01-27 11:37:49.39	331.46	37.34	-46.3	-57.0	3.8	7.43e-01	0	43	104	390070272	63	12898
2026-01-27 11:37:50.39	331.51	37.06	-46.8	-57.6	3.8	7.45e-01	0	43	104	390070272	65	12255
2026-01-27 11:37:51.40	331.57	36.78	-51.6	-63.5	3.8	7.47e-01	0	43	104	390070272	73	15318
2026-01-27 11:37:52.41	331.62	36.50	-55.3	-72.6	3.8	7.44e-01	0	43	104	390070272	81	27684
2026-01-27 11:37:53.41	331.68	36.23	-47.6	-58.5	3.8	7.45e-01	0	43	104	390070272	67	12149
2026-01-27 11:37:54.42	331.73	35.96	-46.0	-56.7	3.8	7.42e-01	0	43	104	390070272	64	11779
2026-01-27 11:37:55.43	331.78	35.68	-45.6	-56.4	3.8	7.42e-01	0	43	104	390070272	63	11987
2026-01-27 11:37:56.43	331.83	35.42	-45.4	-56.2	3.8	7.46e-01	0	43	104	390070272	62	12406
2026-01-27 11:37:57.44	331.88	35.15	-45.7	-56.6	3.8	7.43e-01	0	43	104	390070272	62	12980
2026-01-27 11:37:58.44	331.93	34.89	-46.0	-56.9	3.8	7.44e-01	0	43	104	390070272	63	12759
2026-01-27 11:37:59.45	331.98	34.63	-51.0	-63.1	3.8	7.46e-01	0	43	104	390070272	72	15555
2026-01-27 11:38:00.45	332.03	34.37	-55.2	-72.5	3.8	7.44e-01	0	43	104	390070272	81	27232
2026-01-27 11:38:01.46	332.08	34.11	-47.1	-58.2	3.8	7.43e-01	0	43	104	390070272	66	12498
2026-01-27 11:38:02.47	332.12	33.86	-45.3	-56.2	3.8	7.44e-01	0	43	104	390070272	62	12378
2026-01-27 11:38:03.48	332.17	33.61	-45.0	-55.8	3.8	7.47e-01	0	43	104	390070272	62	11833
2026-01-27 11:38:04.49	332.21	33.36	-44.7	-55.3	3.8	7.41e-01	0	43	104	390070272	61	11922
2026-01-27 11:38:05.49	332.26	33.11	-44.9	-55.5	3.8	7.46e-01	0	43	104	390070272	61	12162
2026-01-27 11:38:06.50	332.30	32.86	-45.3	-56.1	3.8	7.43e-01	0	43	104	390070272	61	13035
2026-01-27 11:38:07.51	332.34	32.62	-54.4	-69.3	3.8	7.53e-01	0	43	104	390070272	79	21061
2026-01-27 11:38:08.51	332.39	32.38	-54.2	-69.1	3.9	7.41e-01	0	43	104	390070272	80	19534
2026-01-27 11:38:09.52	332.43	32.14	-45.1	-55.8	3.8	7.43e-01	0	43	104	390070272	62	11820
2026-01-27 11:38:10.53	332.47	31.90	-44.7	-55.3	3.8	7.43e-01	0	43	104	390070272	60	12634
2026-01-27 11:38:11.54	332.51	31.67	-44.3	-55.0	3.8	7.45e-01	0	43	104	390070272	60	12129
2026-01-27 11:38:12.55	332.55	31.43	-44.2	-54.9	3.8	7.44e-01	0	43	104	390070272	60	11963
2026-01-27 11:38:13.56	332.59	31.20	-44.6	-55.3	3.8	7.45e-01	0	43	104	390070272	60	12578
2026-01-27 11:38:14.57	332.63	30.97	-45.0	-55.8	3.8	7.45e-01	0	43	104	390070272	60	13325
2026-01-27 11:38:15.58	332.67	30.74	-55.3	-73.1	3.5	7.45e-01	0	43	104	390070272	81	29156
2026-01-27 11:38:16.59	332.71	30.51	-53.2	-66.6	3.9	7.43e-01	0	43	104	390070272	78	16378
2026-01-27 11:38:17.59	332.75	30.29	-44.5	-55.2	3.8	7.46e-01	0	43	104	390070272	61	11800
2026-01-27 11:38:18.60	332.79	30.07	-44.6	-55.4	3.8	7.44e-01	0	43	104	390070272	60	12788
2026-01-27 11:38:19.61	332.82	29.85	-44.5	-55.3	3.8	7.43e-01	0	43	104	390070272	60	12573
2026-01-27 11:38:20.61	332.86	29.63	-44.6	-55.5	3.8	7.45e-01	0	43	104	390070272	60	12813
2026-01-27 11:38:21.62	332.89	29.42	-44.8	-55.6	3.8	7.45e-01	0	43	104	390070272	60	13094
2026-01-27 11:38:22.62	332.93	29.20	-45.4	-56.2	3.8	7.47e-01	0	43	104	390070272	61	13255
2026-01-27 11:38:23.63	332.97	28.99	-55.2	-73.0	3.6	7.44e-01	0	43	104	390070272	80	30414
2026-01-27 11:38:24.64	333.00	28.78	-53.2	-66.7	3.9	7.40e-01	0	43	104	390070272	78	16518
2026-01-27 11:38:25.65	333.03	28.57	-44.8	-55.3	3.9	7.47e-01	0	43	104	390070272	61	11845
2026-01-27 11:38:26.66	333.07	28.36	-44.8	-55.4	3.8	7.45e-01	0	43	104	390070272	61	11985
2026-01-27 11:38:27.66	333.10	28.15	-44.9	-55.4	3.8	7.48e-01	0	43	104	390070272	61	12034
2026-01-27 11:38:28.67	333.14	27.95	-44.7	-55.2	3.8	7.46e-01	0	43	104	390070272	61	11759
2026-01-27 11:38:29.68	333.17	27.74	-45.2	-55.9	3.8	7.43e-01	0	43	104	390070272	61	12675
2026-01-27 11:38:30.69	333.20	27.54	-46.0	-56.7	3.8	7.43e-01	0	43	104	390070272	62	13211
2026-01-27 11:38:31.70	333.23	27.34	-55.0	-72.1	3.8	7.43e-01	0	43	104	390070272	80	27675
2026-01-27 11:38:32.71	333.26	27.14	-52.8	-65.8	3.9	7.43e-01	0	43	104	390070272	77	15823
2026-01-27 11:38:33.72	333.30	26.95	-45.0	-55.7	3.9	7.43e-01	0	43	104	390070272	61	12482
2026-01-27 11:38:34.73	333.33	26.75	-45.1	-55.9	3.8	7.43e-01	0	43	104	390070272	61	12690
2026-01-27 11:38:35.73	333.36	26.56	-44.9	-55.7	3.8	7.44e-01	0	43	104	390070272	61	12502
2026-01-27 11:38:36.74	333.39	26.37	-45.0	-55.8	3.8	7.44e-01	0	43	104	390070272	61	12642
2026-01-27 11:38:37.75	333.42	26.17	-45.6	-56.5	3.8	7.46e-01	0	43	104	390070272	61	13601
2026-01-27 11:38:38.75	333.45	25.99	-46.4	-57.4	3.9	7.45e-01	0	43	104	390070272	63	13473
2026-01-27 11:38:39.76	333.48	25.80	-54.9	-72.1	3.8	7.44e-01	0	43	104	390070272	80	27443
2026-01-27 11:38:40.77	333.51	25.61	-52.8	-65.8	3.8	7.44e-01	0	43	104	390070272	77	15939
2026-01-27 11:38:41.78	333.54	25.42	-45.3	-56.2	3.8	7.45e-01	0	43	104	390070272	62	12434
2026-01-27 11:38:42.79	333.56	25.24	-45.3	-56.3	3.8	7.47e-01	0	43	104	390070272	62	12548
2026-01-27 11:38:43.79	333.59	25.06	-45.3	-56.3	3.8	7.44e-01	0	43	104	390070272	62	12623
2026-01-27 11:38:44.80	333.62	24.88	-45.3	-56.3	3.8	7.42e-01	0	43	104	390070272	62	12584
2026-01-27 11:38:45.81	333.65	24.70	-46.6	-57.8	3.8	7.44e-01	0	43	104	390070272	63	14063
2026-01-27 11:38:46.82	333.67	24.52	-46.8	-58.0	3.8	7.45e-01	0	43	104	390070272	64	13586
2026-01-27 11:38:47.83	333.70	24.34	-54.8	-71.7	3.8	7.48e-01	0	43	104	390070272	80	26247
2026-01-27 11:38:48.83	333.73	24.17	-52.8	-66.0	3.8	7.44e-01	0	43	104	390070272	77	16211
2026-01-27 11:38:49.84	333.76	23.99	-45.4	-56.2	3.8	7.43e-01	0	43	104	390070272	62	12464
2026-01-27 11:38:50.85	333.78	23.82	-45.4	-56.2	3.8	7.42e-01	0	43	104	390070272	62	12505
2026-01-27 11:38:51.85	333.81	23.65	-45.5	-56.4	3.8	7.46e-01	0	43	104	390070272	62	12673
2026-01-27 11:38:52.86	333.83	23.48	-45.5	-56.3	3.8	7.43e-01	0	43	104	390070272	62	12628
2026-01-27 11:38:53.87	333.86	23.31	-45.6	-56.4	3.8	7.43e-01	0	43	104	390070272	62	12761
2026-01-27 11:38:54.88	333.88	23.14	-47.1	-58.1	3.8	7.41e-01	0	43	104	390070272	64	13766
2026-01-27 11:38:55.88	333.91	22.97	-54.8	-71.4	3.8	7.45e-01	0	43	104	390070272	80	25519
2026-01-27 11:38:56.89	333.93	22.81	-52.8	-65.9	3.8	7.48e-01	0	43	104	390070272	77	15990
2026-01-27 11:38:57.90	333.96	22.64	-45.4	-56.2	3.8	7.47e-01	0	43	104	390070272	62	12412
2026-01-27 11:38:58.91	333.98	22.48	-45.2	-56.0	3.8	7.42e-01	0	43	104	390070272	62	12172
2026-01-27 11:38:59.91	334.01	22.31	-45.3	-56.1	3.8	7.47e-01	0	43	104	390070272	62	12265
2026-01-27 11:39:00.93	334.03	22.15	-45.3	-56.1	3.8	7.45e-01	0	43	104	390070272	62	12252
2026-01-27 11:39:01.93	334.06	21.99	-45.5	-56.3	3.8	7.41e-01	0	43	104	390070272	62	12636
2026-01-27 11:39:02.94	334.08	21.83	-47.0	-58.0	3.8	7.45e-01	0	43	104	390070272	64	13588
2026-01-27 11:39:03.95	334.10	21.67	-54.7	-71.4	3.8	7.49e-01	0	43	104	390070272	80	25433
2026-01-27 11:39:04.96	334.13	21.52	-52.8	-66.0	3.8	7.46e-01	0	43	104	390070272	77	16192
2026-01-27 11:39:05.97	334.15	21.36	-45.3	-56.0	3.8	7.41e-01	0	43	104	390070272	62	12134
2026-01-27 11:39:06.97	334.17	21.21	-45.1	-55.8	3.8	7.45e-01	0	43	104	390070272	62	11929
2026-01-27 11:39:07.98	334.19	21.05	-45.1	-55.7	3.8	7.45e-01	0	43	104	390070272	62	11784
2026-01-27 11:39:08.99	334.22	20.90	-45.2	-55.9	3.8	7.43e-01	0	43	104	390070272	62	12029
2026-01-27 11:39:10.00	334.24	20.75	-46.3	-57.1	3.8	7.41e-01	0	43	104	390070272	63	13025
2026-01-27 11:39:11.01	334.26	20.60	-49.9	-61.5	3.8	7.43e-01	0	43	104	390070272	70	14397
2026-01-27 11:39:12.01	334.28	20.45	-54.5	-70.7	3.8	7.45e-01	0	43	104	390070272	79	24727
2026-01-27 11:39:13.02	334.30	20.30	-54.5	-70.8	3.8	7.46e-01	0	43	104	390070272	80	23753
2026-01-27 11:39:14.03	334.33	20.15	-45.0	-55.7	3.8	7.47e-01	0	43	104	390070272	62	11699
2026-01-27 11:39:15.04	334.35	20.00	-44.9	-55.6	3.8	7.44e-01	0	43	104	390070272	61	12360
2026-01-27 11:39:16.05	334.37	19.85	-44.9	-55.5	3.8	7.43e-01	0	43	104	390070272	61	12204
2026-01-27 11:39:17.06	334.39	19.71	-44.9	-55.5	3.8	7.43e-01	0	43	104	390070272	61	12217
2026-01-27 11:39:18.07	334.41	19.56	-45.3	-56.0	3.8	7.41e-01	0	43	104	390070272	61	12957
2026-01-27 11:39:19.08	334.43	19.42	-47.3	-58.4	3.8	7.43e-01	0	43	104	390070272	65	13415
2026-01-27 11:39:20.08	334.45	19.28	-54.6	-71.4	3.8	7.46e-01	0	43	104	390070272	80	25395
2026-01-27 11:39:21.09	334.47	19.14	-52.3	-65.2	3.9	7.42e-01	0	43	104	390070272	76	15664
2026-01-27 11:39:22.10	334.49	19.00	-45.0	-55.6	3.8	7.45e-01	0	43	104	390070272	61	12353
2026-01-27 11:39:23.11	334.51	18.86	-44.8	-55.5	3.8	7.45e-01	0	43	104	390070272	61	12165
2026-01-27 11:39:24.11	334.53	18.72	-44.9	-55.6	3.8	7.42e-01	0	43	104	390070272	61	12327
2026-01-27 11:39:25.13	334.55	18.58	-44.9	-55.6	3.8	7.45e-01	0	43	104	390070272	61	12299
2026-01-27 11:39:26.14	334.57	18.44	-45.6	-56.4	3.8	7.47e-01	0	43	104	390070272	61	13456
2026-01-27 11:39:27.14	334.59	18.31	-47.3	-58.3	3.8	7.42e-01	0	43	104	390070272	65	13314
2026-01-27 11:39:28.14	334.61	18.17	-54.6	-71.4	3.8	7.45e-01	0	43	104	390070272	80	25271
2026-01-27 11:39:29.15	334.63	18.04	-52.4	-65.2	3.8	7.46e-01	0	43	104	390070272	76	15675
2026-01-27 11:39:30.16	334.65	17.90	-44.9	-55.6	3.8	7.44e-01	0	43	104	390070272	61	12258
2026-01-27 11:39:31.17	334.67	17.77	-44.9	-55.6	3.8	7.43e-01	0	43	104	390070272	61	12318
2026-01-27 11:39:32.18	334.68	17.64	-44.8	-55.5	3.8	7.45e-01	0	43	104	390070272	61	12170
2026-01-27 11:39:33.19	334.70	17.50	-44.9	-55.7	3.8	7.41e-01	0	43	104	390070272	61	12403
2026-01-27 11:39:34.19	334.72	17.37	-45.5	-56.3	3.8	7.46e-01	0	43	104	390070272	61	13356
2026-01-27 11:39:35.20	334.74	17.24	-49.6	-61.2	3.8	7.45e-01	0	43	104	390070272	69	14858
2026-01-27 11:39:36.21	334.76	17.11	-54.7	-71.5	3.8	7.46e-01	0	43	104	390070272	79	27179
2026-01-27 11:39:37.21	334.78	16.99	-54.6	-71.6	3.8	7.45e-01	0	43	104	390070272	80	25894
2026-01-27 11:39:38.22	334.79	16.86	-44.9	-55.7	3.8	7.42e-01	0	43	104	390070272	61	12420
2026-01-27 11:39:39.23	334.81	16.73	-45.0	-55.7	3.8	7.45e-01	0	43	104	390070272	61	12507
2026-01-27 11:39:40.24	334.83	16.60	-44.8	-55.5	3.8	7.43e-01	0	43	104	390070272	61	12210
2026-01-27 11:39:41.24	334.85	16.48	-44.8	-55.6	3.8	7.42e-01	0	43	104	390070272	61	12330
2026-01-27 11:39:42.25	334.86	16.35	-44.9	-55.7	3.8	7.46e-01	0	43	104	390070272	61	12465
2026-01-27 11:39:43.26	334.88	16.23	-47.8	-59.2	3.8	7.45e-01	0	43	104	390070272	66	13887
2026-01-27 11:39:44.27	334.90	16.11	-54.7	-72.0	3.8	7.45e-01	0	43	104	390070272	79	28726
2026-01-27 11:39:45.28	334.92	15.98	-50.6	-62.7	3.8	7.43e-01	0	43	104	390070272	73	13896
2026-01-27 11:39:46.29	334.93	15.86	-44.8	-55.6	3.8	7.44e-01	0	43	104	390070272	61	12353
2026-01-27 11:39:47.29	334.95	15.74	-44.9	-55.6	3.9	7.44e-01	0	43	104	390070272	61	12343
2026-01-27 11:39:48.30	334.97	15.62	-44.8	-55.7	3.8	7.43e-01	0	43	104	390070272	61	12391
2026-01-27 11:39:49.30	334.98	15.50	-44.9	-55.7	3.8	7.46e-01	0	43	104	390070272	61	12436
2026-01-27 11:39:50.31	335.00	15.38	-46.1	-57.0	3.8	7.42e-01	0	43	104	390070272	62	13631
2026-01-27 11:39:51.31	335.02	15.26	-50.4	-62.3	3.8	7.46e-01	0	43	104	390070272	71	14958
2026-01-27 11:39:52.32	335.03	15.14	-54.7	-71.9	3.8	7.49e-01	0	43	104	390070272	79	28547
2026-01-27 11:39:53.33	335.05	15.03	-53.6	-68.7	3.9	7.41e-01	0	43	104	390070272	79	19719
2026-01-27 11:39:54.34	335.06	14.91	-44.9	-55.5	3.8	7.43e-01	0	43	104	390070272	61	12121
2026-01-27 11:39:55.35	335.08	14.79	-44.9	-55.5	3.8	7.45e-01	0	43	104	390070272	61	12159
2026-01-27 11:39:56.35	335.10	14.68	-44.8	-55.5	3.9	7.46e-01	0	43	104	390070272	61	12127
2026-01-27 11:39:57.36	335.11	14.56	-44.8	-55.4	3.8	7.46e-01	0	43	104	390070272	61	12084
2026-01-27 11:39:58.36	335.13	14.45	-45.3	-55.9	3.8	7.44e-01	0	43	104	390070272	61	12784
2026-01-27 11:39:59.37	335.14	14.33	-51.6	-64.1	3.8	7.46e-01	0	43	104	390070272	73	16321
2026-01-27 11:40:00.38	335.16	14.22	-54.5	-71.9	3.8	7.46e-01	0	43	104	390070272	79	28438
2026-01-27 11:40:01.39	335.18	14.11	-48.0	-50.4	5.3	7.01e-01	0	43	104	390070272	68	4524
2026-01-27 11:40:02.39	335.19	14.00	-44.3	-45.4	25.3	6.03e-01	0	43	0	391118848	60	4032
2026-01-27 11:40:03.40	335.21	13.88	-44.3	-45.4	25.8	6.03e-01	0	43	0	392691712	60	4047
2026-01-27 11:40:04.41	335.22	13.77	-44.2	-45.4	25.8	6.04e-01	0	43	0	394788864	60	4028
2026-01-27 11:40:05.42	335.24	13.66	-44.4	-45.6	25.8	6.02e-01	0	43	0	396886016	60	4105
2026-01-27 11:40:06.42	335.25	13.55	-44.2	-45.4	25.9	6.02e-01	0	43	0	398458880	60	4024
2026-01-27 11:40:07.43	335.27	13.44	-44.3	-45.4	25.9	6.03e-01	0	43	0	400556032	60	4044
2026-01-27 11:40:08.44	335.28	13.33	-44.3	-45.5	25.8	6.02e-01	0	43	0	402128896	60	4071
2026-01-27 11:40:09.44	335.30	13.23	-44.4	-45.5	25.8	6.05e-01	0	43	0	404226048	60	4097
2026-01-27 11:40:10.45	335.31	13.12	-44.3	-45.5	25.8	6.01e-01	0	43	0	405798912	60	4074
2026-01-27 11:40:11.45	335.33	13.01	-44.4	-45.5	25.6	6.01e-01	0	43	0	407896064	60	4094
2026-01-27 11:40:12.46	335.34	12.90	-44.3	-45.5	25.7	6.02e-01	0	43	0	409993216	60	4088
2026-01-27 11:40:13.46	335.35	12.80	-44.4	-45.6	25.6	6.01e-01	0	43	0	411566080	60	4099
2026-01-27 11:40:14.47	335.37	12.69	-44.3	-45.5	25.7	6.00e-01	0	43	0	413663232	60	4075
2026-01-27 11:40:15.48	335.38	12.59	-44.4	-45.6	25.6	6.02e-01	0	43	0	415760384	60	4134
2026-01-27 11:40:16.49	335.40	12.48	-44.5	-45.7	25.5	6.00e-01	0	43	0	417333248	59	4412
2026-01-27 11:40:17.49	335.41	12.38	-44.7	-45.9	25.3	6.03e-01	0	43	0	419430400	59	4535
2026-01-27 11:40:18.50	335.43	12.28	-44.6	-45.8	25.5	6.01e-01	0	43	0	421003264	60	4210
2026-01-27 11:40:19.51	335.44	12.17	-44.6	-45.8	25.5	6.02e-01	0	43	0	423100416	60	4217
2026-01-27 11:40:20.51	335.45	12.07	-44.5	-45.7	25.5	6.01e-01	0	43	0	425197568	60	4192
2026-01-27 11:40:21.52	335.47	11.97	-44.5	-45.7	25.6	6.04e-01	0	43	0	426770432	60	4193
2026-01-27 11:40:22.53	335.48	11.87	-44.6	-45.8	25.5	6.05e-01	0	43	0	428867584	60	4206
2026-01-27 11:40:23.54	335.50	11.76	-44.6	-45.9	25.4	6.02e-01	0	43	0	430440448	60	4249
2026-01-27 11:40:24.55	335.51	11.66	-44.7	-45.9	25.3	6.04e-01	0	43	0	432537600	60	4272
2026-01-27 11:40:25.55	335.52	11.56	-44.7	-45.9	25.3	6.02e-01	0	43	0	434110464	60	4283
2026-01-27 11:40:26.56	335.54	11.46	-44.7	-45.9	25.2	6.00e-01	0	42	0	436207616	60	4266
2026-01-27 11:40:27.57	335.55	11.36	-44.5	-45.8	25.3	6.01e-01	0	43	0	438304768	60	4198
2026-01-27 11:40:28.57	335.56	11.26	-44.7	-45.9	25.2	6.02e-01	0	43	0	439877632	60	4276
2026-01-27 11:40:29.58	335.58	11.17	-44.8	-46.1	25.0	6.02e-01	0	43	0	441974784	60	4348
2026-01-27 11:40:30.59	335.59	11.07	-44.9	-46.2	25.0	6.02e-01	0	43	0	444071936	60	4398
2026-01-27 11:40:31.59	335.60	10.97	-44.8	-46.0	25.2	6.02e-01	0	43	0	445644800	60	4317
2026-01-27 11:40:32.60	335.62	10.87	-44.8	-46.1	25.2	6.01e-01	0	43	0	447741952	60	4350
2026-01-27 11:40:33.60	335.63	10.78	-44.9	-46.2	25.1	6.03e-01	0	43	0	449314816	60	4405
2026-01-27 11:40:34.61	335.64	10.68	-44.8	-46.1	25.2	6.05e-01	0	43	0	451411968	60	4354
2026-01-27 11:40:35.62	335.65	10.58	-44.7	-45.9	25.3	6.03e-01	0	43	0	453509120	60	4286
2026-01-27 11:40:36.63	335.67	10.49	-44.8	-46.1	25.2	6.00e-01	0	43	0	455081984	60	4371
2026-01-27 11:40:37.64	335.68	10.39	-45.0	-46.2	25.0	6.01e-01	0	43	0	457179136	60	4437
2026-01-27 11:40:38.64	335.69	10.30	-44.9	-46.2	25.0	6.02e-01	0	43	0	458752000	60	4402
2026-01-27 11:40:39.65	335.71	10.20	-44.9	-46.1	25.0	6.04e-01	0	43	0	460849152	60	4389
2026-01-27 11:40:40.66	335.72	10.11	-44.9	-46.2	25.0	6.04e-01	0	43	0	462422016	60	4414
2026-01-27 11:40:41.67	335.73	10.02	-44.8	-46.1	24.9	6.02e-01	0	43	0	464519168	60	4361
2026-01-27 11:40:42.68	335.74	9.92	-44.9	-46.2	24.8	6.06e-01	0	43	0	466616320	60	4398
2026-01-27 11:40:43.69	335.76	9.83	-45.0	-46.3	24.6	6.00e-01	0	43	0	468189184	60	4442
2026-01-27 11:40:44.69	335.77	9.74	-44.8	-46.1	24.6	6.03e-01	0	43	0	470286336	60	4388
2026-01-27 11:40:45.70	335.78	9.65	-45.0	-46.3	24.5	6.02e-01	0	43	0	472383488	60	4455
2026-01-27 11:40:46.70	335.79	9.55	-45.1	-46.4	24.4	6.04e-01	0	43	0	473956352	60	4498
2026-01-27 11:40:47.71	335.81	9.46	-45.1	-46.4	24.4	6.02e-01	0	43	0	476053504	60	4515
2026-01-27 11:40:48.72	335.82	9.37	-45.1	-46.5	24.4	6.03e-01	0	42	0	477626368	60	4548
2026-01-27 11:40:49.73	335.83	9.28	-45.1	-46.4	24.5	6.01e-01	0	43	0	479723520	60	4544
2026-01-27 11:40:50.73	335.84	9.19	-45.1	-46.3	24.6	6.03e-01	0	43	0	481820672	60	4493
2026-01-27 11:40:51.74	335.85	9.10	-45.3	-46.6	24.4	6.02e-01	0	43	0	483393536	61	4355
2026-01-27 11:40:52.75	335.87	9.01	-45.2	-46.5	24.4	6.02e-01	0	43	0	485490688	61	4338
2026-01-27 11:40:53.76	335.88	8.92	-45.2	-46.5	24.6	6.03e-01	0	43	0	487063552	60	4586
2026-01-27 11:40:54.76	335.89	8.83	-45.2	-46.6	24.6	6.02e-01	0	43	0	489160704	61	4342
2026-01-27 11:40:55.77	335.90	8.75	-45.2	-46.5	24.7	6.04e-01	0	43	0	491257856	61	4327
