passes_logs/2026/01/27/R3.2S_Murmansk/R3.2S_Murmansk__20260127_065506_NOAA_21_JPSS-2_rec.log

#Pass ID: 20260127_065506_NOAA 21 (JPSS-2)
#Satellite: NOAA 21 (JPSS-2)
#Configuration: NOAA-21
#almurnet v.1.7.20251203
#Start time: 2026-01-27 06:55:06

#Version: 2.2.20231116
#Station: R3.2S_Murmansk
#Location: 33.079688 lon 68.888172 lat
#TLE: 1 54234U 22150A   26026.43130734  .00000179  00000+0  10559-3 0  9998
#TLE: 2 54234  98.7509 327.1934 0000805 209.8356 150.2774 14.19539635166435

#Time	Az	El	Level	Level2	SNR	BER	BlckErr	Temp	State	Recorded	gain1	gain2
2026-01-27 06:55:06.86	93.28	2.03	-54.1	-66.8	3.8	1.49e+00	0	42	0	0	79	15919
2026-01-27 06:55:07.88	93.23	2.09	-54.1	-66.8	3.8	1.49e+00	0	42	104	0	78	16825
2026-01-27 06:55:08.88	93.17	2.15	-54.0	-66.8	3.8	1.49e+00	0	42	104	0	78	16801
2026-01-27 06:55:09.89	93.12	2.21	-54.0	-66.8	3.8	1.49e+00	0	42	104	0	78	16786
2026-01-27 06:55:10.90	93.07	2.27	-54.0	-66.8	3.8	1.49e+00	0	42	104	0	78	16775
2026-01-27 06:55:11.90	93.01	2.33	-54.0	-66.8	3.8	1.49e+00	0	42	104	0	78	16812
2026-01-27 06:55:12.91	92.96	2.39	-54.0	-66.8	3.8	1.49e+00	0	42	104	0	78	16732
2026-01-27 06:55:13.92	92.91	2.45	-54.2	-66.9	3.8	1.49e+00	0	42	104	0	78	16999
2026-01-27 06:55:14.93	92.85	2.51	-54.2	-67.0	3.8	1.49e+00	0	42	104	0	79	16245
2026-01-27 06:55:15.93	92.80	2.57	-54.2	-67.0	3.8	1.49e+00	0	42	104	0	79	16247
2026-01-27 06:55:16.94	92.74	2.63	-54.3	-67.0	3.8	1.49e+00	0	42	104	0	79	16247
2026-01-27 06:55:17.95	92.69	2.69	-54.2	-67.0	3.8	1.49e+00	0	42	104	0	79	16268
2026-01-27 06:55:18.96	92.64	2.75	-54.2	-67.0	3.8	1.49e+00	0	42	104	0	79	16129
2026-01-27 06:55:19.97	92.58	2.82	-54.2	-66.9	3.8	1.49e+00	0	42	104	0	79	16025
2026-01-27 06:55:20.97	92.53	2.88	-54.1	-66.9	3.8	1.49e+00	0	42	104	0	79	16038
2026-01-27 06:55:21.98	92.47	2.94	-54.1	-66.8	3.8	1.49e+00	0	42	104	0	79	15929
2026-01-27 06:55:22.99	92.41	3.00	-54.0	-66.8	3.8	1.49e+00	0	42	104	0	79	15921
2026-01-27 06:55:24.00	92.36	3.06	-53.9	-66.7	3.8	1.49e+00	0	43	104	0	79	15658
2026-01-27 06:55:25.01	92.30	3.12	-53.9	-66.7	3.8	1.49e+00	0	42	104	0	79	15608
2026-01-27 06:55:26.02	92.24	3.19	-53.9	-66.6	3.8	1.49e+00	0	42	104	0	79	15525
2026-01-27 06:55:27.03	92.19	3.25	-53.8	-66.6	3.8	1.49e+00	0	42	104	0	79	15410
2026-01-27 06:55:28.03	92.13	3.31	-53.7	-66.4	3.8	1.49e+00	0	42	104	0	79	15201
2026-01-27 06:55:29.04	92.07	3.37	-53.6	-66.3	3.8	1.49e+00	0	42	104	0	79	15013
2026-01-27 06:55:30.05	92.02	3.43	-53.4	-66.2	3.8	1.49e+00	0	42	104	0	78	15665
2026-01-27 06:55:31.05	91.96	3.50	-53.3	-66.0	3.8	1.49e+00	0	42	104	0	78	15343
2026-01-27 06:55:32.06	91.90	3.56	-53.1	-65.9	3.8	1.49e+00	0	42	104	0	78	15076
2026-01-27 06:55:33.07	91.84	3.62	-52.8	-65.5	3.8	1.49e+00	0	42	104	0	77	15297
2026-01-27 06:55:34.08	91.78	3.68	-52.6	-65.3	3.8	1.49e+00	0	42	104	0	77	14957
2026-01-27 06:55:35.09	91.72	3.75	-52.4	-65.2	3.8	1.49e+00	0	42	104	0	76	15593
2026-01-27 06:55:36.09	91.66	3.81	-52.3	-65.1	3.8	1.49e+00	0	43	104	0	76	15416
2026-01-27 06:55:37.10	91.61	3.87	-52.2	-64.9	3.8	1.49e+00	0	42	104	0	76	15208
2026-01-27 06:55:38.11	91.55	3.94	-52.1	-64.8	3.8	1.49e+00	0	42	104	0	76	15037
2026-01-27 06:55:39.12	91.49	4.00	-51.9	-62.8	3.9	1.49e+00	0	42	104	0	75	12644
2026-01-27 06:55:40.13	91.42	4.06	-51.8	-61.8	4.1	1.48e+00	0	42	104	0	75	11248
2026-01-27 06:55:41.14	91.36	4.13	-51.7	-61.4	4.1	1.47e+00	0	43	104	0	75	10693
2026-01-27 06:55:42.15	91.30	4.19	-51.7	-61.0	4.3	1.45e+00	0	43	104	0	75	10206
2026-01-27 06:55:43.15	91.24	4.25	-51.7	-61.1	4.2	1.46e+00	0	42	104	0	75	10360
2026-01-27 06:55:44.16	91.18	4.32	-51.7	-61.4	4.1	1.47e+00	0	43	104	0	75	10689
2026-01-27 06:55:45.17	91.12	4.38	-51.7	-61.2	4.2	1.47e+00	0	43	104	0	75	10443
2026-01-27 06:55:46.18	91.06	4.44	-51.7	-60.8	4.3	1.45e+00	0	43	104	0	75	9996
2026-01-27 06:55:47.19	90.99	4.51	-51.4	-59.4	4.9	9.33e-01	0	43	104	0	74	9019
2026-01-27 06:55:48.19	90.93	4.57	-51.1	-57.6	6.0	3.83e-01	0	43	0	2097152	74	7316
2026-01-27 06:55:49.20	90.87	4.64	-50.6	-56.0	7.4	1.35e-01	0	42	0	5242880	73	6466
2026-01-27 06:55:50.21	90.81	4.70	-50.2	-54.7	8.7	4.43e-02	0	42	0	8388608	72	5904
2026-01-27 06:55:51.21	90.74	4.77	-49.7	-53.5	10.0	1.14e-02	0	43	0	11534336	71	5459
2026-01-27 06:55:52.22	90.68	4.83	-49.3	-52.7	10.9	3.08e-03	0	43	0	14680064	70	5241
2026-01-27 06:55:53.23	90.62	4.90	-49.1	-52.4	11.3	1.10e-03	0	43	0	17825792	70	5043
2026-01-27 06:55:54.24	90.55	4.96	-48.8	-51.8	11.8	4.58e-04	0	42	0	20971520	69	5027
2026-01-27 06:55:55.25	90.49	5.03	-48.7	-51.5	11.9	3.27e-04	0	43	0	24117248	69	4861
2026-01-27 06:55:56.26	90.42	5.09	-52.5	-65.0	3.8	1.49e+00	0	43	104	25165824	75	16251
2026-01-27 06:55:57.27	90.36	5.16	-45.6	-47.0	16.9	0.00e+00	0	43	0	26214400	62	4311
2026-01-27 06:55:58.27	90.29	5.22	-51.8	-62.4	3.8	1.49e+00	0	43	104	27262976	74	12800
2026-01-27 06:55:59.27	90.23	5.29	-47.0	-48.9	14.8	3.88e-04	0	43	0	28311552	66	4253
2026-01-27 06:56:00.28	90.16	5.35	-46.2	-47.9	15.9	0.00e+00	0	43	0	31457280	63	4510
2026-01-27 06:56:01.29	90.09	5.42	-44.9	-46.3	17.5	0.00e+00	0	43	0	34603008	61	4198
2026-01-27 06:56:02.30	90.03	5.49	-44.7	-45.9	17.8	0.00e+00	0	42	0	37748736	61	4049
2026-01-27 06:56:03.31	89.96	5.55	-44.6	-45.9	17.9	0.00e+00	0	43	0	40894464	61	4022
2026-01-27 06:56:04.31	89.89	5.62	-44.5	-45.7	18.0	0.00e+00	0	43	0	44040192	60	4190
2026-01-27 06:56:05.31	89.83	5.68	-44.6	-45.9	17.9	0.00e+00	0	43	0	47185920	60	4252
2026-01-27 06:56:06.32	89.76	5.75	-44.4	-45.6	18.2	0.00e+00	0	43	0	50331648	60	4138
2026-01-27 06:56:07.33	89.69	5.82	-44.7	-46.0	17.8	0.00e+00	0	43	0	53477376	60	4310
2026-01-27 06:56:08.34	89.62	5.89	-44.5	-45.8	18.0	0.00e+00	0	42	0	56623104	60	4202
2026-01-27 06:56:09.35	89.55	5.95	-44.6	-45.9	17.9	0.00e+00	0	43	0	59768832	60	4268
2026-01-27 06:56:10.35	89.48	6.02	-44.6	-45.9	18.0	0.00e+00	0	43	0	62914560	60	4246
2026-01-27 06:56:11.36	89.41	6.09	-44.6	-45.8	18.0	0.00e+00	0	43	0	66060288	60	4237
2026-01-27 06:56:12.36	89.34	6.15	-44.7	-46.0	17.9	0.00e+00	0	43	0	69206016	60	4314
2026-01-27 06:56:13.37	89.27	6.22	-44.7	-46.0	17.9	0.00e+00	0	43	0	72351744	60	4331
2026-01-27 06:56:14.38	89.20	6.29	-44.8	-46.1	17.8	0.00e+00	0	43	0	75497472	60	4353
2026-01-27 06:56:15.39	89.13	6.36	-44.5	-45.7	18.1	0.00e+00	0	43	0	78643200	60	4180
2026-01-27 06:56:16.39	89.06	6.42	-44.5	-45.8	18.1	0.00e+00	0	43	0	81788928	60	4202
2026-01-27 06:56:17.39	88.99	6.49	-44.5	-45.8	18.1	0.00e+00	0	43	0	84934656	60	4197
2026-01-27 06:56:18.40	88.92	6.56	-44.5	-45.7	18.1	0.00e+00	0	43	0	88080384	60	4181
2026-01-27 06:56:19.40	88.84	6.63	-44.2	-45.4	18.4	0.00e+00	0	43	0	91226112	60	4051
2026-01-27 06:56:20.41	88.77	6.70	-44.4	-45.6	18.3	0.00e+00	0	43	0	94371840	60	4121
2026-01-27 06:56:21.41	88.70	6.76	-44.3	-45.5	18.4	0.00e+00	0	43	0	97517568	60	4086
2026-01-27 06:56:22.42	88.63	6.83	-44.3	-45.4	18.5	0.00e+00	0	43	0	100663296	60	4045
2026-01-27 06:56:23.42	88.55	6.90	-44.3	-45.5	18.4	0.00e+00	0	43	0	103809024	60	4082
2026-01-27 06:56:24.43	88.48	6.97	-44.3	-45.5	18.4	0.00e+00	0	43	0	106954752	60	4083
2026-01-27 06:56:25.43	88.40	7.04	-44.4	-45.6	18.3	0.00e+00	0	43	0	110100480	60	4137
2026-01-27 06:56:26.44	88.33	7.11	-44.1	-45.3	18.7	0.00e+00	0	43	0	113246208	60	3987
2026-01-27 06:56:27.45	88.25	7.18	-44.2	-45.4	18.6	0.00e+00	0	43	0	116391936	60	4010
2026-01-27 06:56:28.46	88.18	7.25	-44.2	-45.4	18.6	0.00e+00	0	43	0	119537664	60	4028
2026-01-27 06:56:29.47	88.10	7.32	-44.1	-45.2	18.8	0.00e+00	0	43	0	122683392	60	3948
2026-01-27 06:56:30.47	88.02	7.39	-44.1	-45.2	18.8	0.00e+00	0	43	0	125829120	60	3932
2026-01-27 06:56:31.48	87.95	7.46	-44.4	-45.6	18.8	0.00e+00	0	43	0	128974848	59	4345
2026-01-27 06:56:32.49	87.87	7.53	-44.4	-45.5	18.8	0.00e+00	0	43	0	132120576	59	4337
2026-01-27 06:56:33.49	87.79	7.60	-44.3	-45.5	18.8	0.00e+00	0	43	0	135266304	59	4315
2026-01-27 06:56:34.50	87.72	7.67	-44.4	-45.5	18.8	0.00e+00	0	43	0	138412032	59	4337
2026-01-27 06:56:35.51	87.64	7.74	-44.3	-45.4	18.9	0.00e+00	0	43	0	141557760	59	4278
2026-01-27 06:56:36.52	87.56	7.81	-44.2	-45.3	19.0	0.00e+00	0	43	0	144703488	59	4228
2026-01-27 06:56:37.53	87.48	7.88	-44.2	-45.3	19.0	0.00e+00	0	43	0	147849216	59	4230
2026-01-27 06:56:38.53	87.40	7.95	-44.3	-45.5	18.8	0.00e+00	0	43	0	150994944	59	4318
2026-01-27 06:56:39.54	87.32	8.02	-44.3	-45.5	18.9	0.00e+00	0	43	0	154140672	59	4297
2026-01-27 06:56:40.55	87.24	8.09	-44.2	-45.4	19.0	0.00e+00	0	43	0	157286400	59	4248
2026-01-27 06:56:41.56	87.16	8.16	-44.1	-45.2	19.1	0.00e+00	0	43	0	160432128	59	4191
2026-01-27 06:56:42.57	87.08	8.24	-44.2	-45.4	19.0	0.00e+00	0	43	0	163577856	59	4253
2026-01-27 06:56:43.58	86.99	8.31	-44.2	-45.3	19.0	0.00e+00	0	43	0	166723584	59	4240
2026-01-27 06:56:44.59	86.91	8.38	-44.2	-45.3	19.1	0.00e+00	0	43	0	169869312	59	4212
2026-01-27 06:56:45.60	86.83	8.45	-44.3	-45.5	18.9	0.00e+00	0	43	0	173015040	59	4300
2026-01-27 06:56:46.61	86.75	8.52	-44.1	-45.2	19.2	0.00e+00	0	43	0	176160768	59	4161
2026-01-27 06:56:47.61	86.66	8.60	-44.1	-45.2	19.2	0.00e+00	0	43	0	179306496	59	4151
2026-01-27 06:56:48.62	86.58	8.67	-44.1	-45.2	19.2	0.00e+00	0	43	0	182452224	59	4163
2026-01-27 06:56:49.62	86.50	8.74	-44.1	-45.2	19.2	0.00e+00	0	43	0	185597952	59	4170
2026-01-27 06:56:50.63	86.41	8.81	-44.1	-45.2	19.2	0.00e+00	0	43	0	188743680	59	4191
2026-01-27 06:56:51.64	86.33	8.89	-44.2	-45.3	19.2	0.00e+00	0	43	0	191889408	59	4206
2026-01-27 06:56:52.65	86.24	8.96	-44.0	-45.1	19.3	0.00e+00	0	43	0	195035136	59	4115
2026-01-27 06:56:53.65	86.16	9.03	-44.1	-45.2	19.3	0.00e+00	0	43	0	198180864	59	4164
2026-01-27 06:56:54.66	86.07	9.11	-44.2	-45.4	19.1	0.00e+00	0	43	0	201326592	59	4247
2026-01-27 06:56:55.66	85.98	9.18	-43.9	-45.0	19.5	0.00e+00	0	43	0	204472320	59	4057
2026-01-27 06:56:56.67	85.90	9.25	-43.9	-45.0	19.4	0.00e+00	0	43	0	207618048	59	4085
2026-01-27 06:56:57.68	85.81	9.33	-43.9	-44.9	19.6	0.00e+00	0	43	0	210763776	59	4035
2026-01-27 06:56:58.69	85.72	9.40	-43.8	-44.9	19.6	0.00e+00	0	43	0	213909504	59	4015
2026-01-27 06:56:59.69	85.63	9.47	-44.1	-45.2	19.3	0.00e+00	0	43	0	217055232	59	4148
2026-01-27 06:57:00.70	85.54	9.55	-44.1	-45.2	19.3	0.00e+00	0	43	0	220200960	59	4147
2026-01-27 06:57:01.70	85.45	9.62	-44.2	-45.3	19.2	0.00e+00	0	43	0	223346688	59	4199
2026-01-27 06:57:02.71	85.36	9.70	-43.8	-44.9	19.6	0.00e+00	0	43	0	226492416	59	4009
2026-01-27 06:57:03.72	85.27	9.77	-43.9	-44.9	19.6	0.00e+00	0	43	0	229638144	59	4030
2026-01-27 06:57:04.72	85.18	9.85	-43.9	-45.0	19.5	0.00e+00	0	43	0	232783872	59	4060
2026-01-27 06:57:05.73	85.09	9.92	-43.8	-44.8	19.7	0.00e+00	0	43	0	235929600	59	3989
2026-01-27 06:57:06.73	85.00	10.00	-43.9	-45.0	19.5	0.00e+00	0	43	0	239075328	59	4060
2026-01-27 06:57:07.74	84.91	10.07	-43.7	-44.7	19.7	0.00e+00	0	43	0	242221056	59	3952
2026-01-27 06:57:08.75	84.81	10.15	-43.7	-44.8	19.7	0.00e+00	0	43	0	245366784	59	3970
2026-01-27 06:57:09.75	84.72	10.22	-43.8	-44.9	19.6	0.00e+00	0	43	0	248512512	59	4024
2026-01-27 06:57:10.76	84.63	10.30	-43.6	-44.6	19.9	0.00e+00	0	43	0	251658240	59	3894
2026-01-27 06:57:11.77	84.53	10.37	-43.6	-44.6	19.9	0.00e+00	0	43	0	254803968	59	3898
2026-01-27 06:57:12.77	84.44	10.45	-43.7	-44.8	19.8	0.00e+00	0	43	0	257949696	59	3961
2026-01-27 06:57:13.78	84.34	10.53	-43.6	-44.6	19.9	0.00e+00	0	43	0	261095424	59	3894
2026-01-27 06:57:14.79	84.24	10.60	-43.6	-44.6	19.9	0.00e+00	0	43	0	264241152	59	3912
2026-01-27 06:57:15.79	84.15	10.68	-43.6	-44.6	19.9	0.00e+00	0	43	0	267386880	59	3895
2026-01-27 06:57:16.80	84.05	10.75	-43.6	-44.7	19.9	0.00e+00	0	43	0	270532608	59	3920
2026-01-27 06:57:17.81	83.95	10.83	-43.6	-44.6	20.0	0.00e+00	0	43	0	273678336	59	3886
2026-01-27 06:57:18.81	83.86	10.91	-43.7	-44.7	19.8	0.00e+00	0	43	0	276824064	59	3936
2026-01-27 06:57:19.82	83.76	10.99	-43.7	-44.8	19.8	0.00e+00	0	43	0	279969792	59	3966
2026-01-27 06:57:20.83	83.66	11.06	-43.6	-44.6	20.0	0.00e+00	0	43	0	283115520	59	3880
2026-01-27 06:57:21.83	83.56	11.14	-43.6	-44.6	19.9	0.00e+00	0	43	0	286261248	59	3913
2026-01-27 06:57:22.84	83.46	11.22	-43.5	-44.5	20.1	0.00e+00	0	43	0	289406976	59	3848
2026-01-27 06:57:23.84	83.36	11.30	-43.3	-44.3	20.2	0.00e+00	0	43	0	292552704	58	3992
2026-01-27 06:57:24.85	83.26	11.37	-43.3	-44.3	20.2	0.00e+00	0	43	0	295698432	58	3994
2026-01-27 06:57:25.86	83.16	11.45	-43.3	-44.3	20.3	0.00e+00	0	43	0	298844160	58	3971
2026-01-27 06:57:26.87	83.05	11.53	-43.3	-44.3	20.3	0.00e+00	0	43	0	301989888	58	3969
2026-01-27 06:57:27.87	82.95	11.61	-43.4	-44.3	20.2	0.00e+00	0	43	0	305135616	58	4003
2026-01-27 06:57:28.87	82.85	11.69	-43.2	-44.2	20.4	0.00e+00	0	43	0	308281344	58	3940
2026-01-27 06:57:29.88	82.74	11.76	-43.4	-44.4	20.2	0.00e+00	0	43	0	311427072	58	4009
2026-01-27 06:57:30.89	82.64	11.84	-43.5	-44.5	20.1	0.00e+00	0	43	0	314572800	58	4072
2026-01-27 06:57:31.89	82.53	11.92	-43.3	-44.3	20.3	0.00e+00	0	43	0	317718528	58	3971
2026-01-27 06:57:32.90	82.43	12.00	-43.3	-44.3	20.3	0.00e+00	0	43	0	320864256	58	3986
2026-01-27 06:57:33.91	82.32	12.08	-43.1	-44.0	20.6	0.00e+00	0	43	0	324009984	58	3865
2026-01-27 06:57:34.92	82.21	12.16	-43.0	-44.0	20.6	0.00e+00	0	43	0	327155712	58	3843
2026-01-27 06:57:35.92	82.11	12.24	-43.1	-44.1	20.6	0.00e+00	0	43	0	330301440	58	3874
2026-01-27 06:57:36.92	82.00	12.32	-43.2	-44.1	20.5	0.00e+00	0	43	0	333447168	58	3892
2026-01-27 06:57:37.93	81.89	12.40	-43.0	-44.0	20.6	0.00e+00	0	43	0	336592896	58	3840
2026-01-27 06:57:38.94	81.78	12.48	-43.1	-44.1	20.5	0.00e+00	0	43	0	339738624	58	3883
2026-01-27 06:57:39.94	81.67	12.56	-43.0	-43.9	20.7	0.00e+00	0	43	0	342884352	58	3810
2026-01-27 06:57:40.95	81.56	12.64	-43.1	-44.0	20.6	0.00e+00	0	43	0	346030080	58	3846
2026-01-27 06:57:41.96	81.45	12.72	-42.8	-43.8	20.8	0.00e+00	0	43	0	349175808	57	3964
2026-01-27 06:57:42.96	81.34	12.80	-43.0	-43.9	20.7	0.00e+00	0	43	0	352321536	57	4022
2026-01-27 06:57:43.97	81.22	12.88	-42.9	-43.8	20.7	0.00e+00	0	43	0	355467264	57	4003
2026-01-27 06:57:44.97	81.11	12.96	-42.7	-43.6	20.9	0.00e+00	0	43	0	358612992	57	3905
2026-01-27 06:57:45.98	81.00	13.04	-42.7	-43.6	20.9	0.00e+00	0	43	0	361758720	57	3910
2026-01-27 06:57:46.99	80.88	13.13	-42.7	-43.6	21.0	0.00e+00	0	43	0	364904448	57	3875
2026-01-27 06:57:48.00	80.77	13.21	-42.7	-43.6	21.0	0.00e+00	0	43	0	368050176	57	3882
2026-01-27 06:57:49.00	80.65	13.29	-42.7	-43.6	20.9	0.00e+00	0	43	0	371195904	57	3911
2026-01-27 06:57:50.01	80.54	13.37	-42.6	-43.6	21.0	0.00e+00	0	43	0	374341632	57	3869
2026-01-27 06:57:51.02	80.42	13.45	-42.7	-43.6	21.0	0.00e+00	0	43	0	377487360	57	3883
2026-01-27 06:57:52.03	80.30	13.54	-42.7	-43.6	21.0	0.00e+00	0	43	0	380633088	57	3886
2026-01-27 06:57:53.03	80.18	13.62	-42.7	-43.6	21.0	0.00e+00	0	43	0	383778816	57	3905
2026-01-27 06:57:54.04	80.06	13.70	-42.6	-43.5	21.1	0.00e+00	0	43	0	386924544	57	3851
2026-01-27 06:57:55.05	79.94	13.78	-42.6	-43.5	21.1	0.00e+00	0	43	0	390070272	57	3837
2026-01-27 06:57:56.06	79.82	13.87	-42.6	-43.5	21.1	0.00e+00	0	43	0	393216000	57	3863
2026-01-27 06:57:57.06	79.70	13.95	-42.6	-43.5	21.1	0.00e+00	0	43	0	396361728	57	3853
2026-01-27 06:57:58.07	79.58	14.03	-42.6	-43.5	21.1	0.00e+00	0	43	0	399507456	57	3850
2026-01-27 06:57:59.08	79.46	14.11	-42.6	-43.5	21.1	0.00e+00	0	43	0	402653184	57	3844
2026-01-27 06:58:00.09	79.33	14.20	-42.5	-43.4	21.2	0.00e+00	0	43	0	405798912	57	3798
2026-01-27 06:58:01.09	79.21	14.28	-42.5	-43.3	21.3	0.00e+00	0	43	0	408944640	56	3995
2026-01-27 06:58:02.10	79.09	14.36	-42.4	-43.3	21.3	0.00e+00	0	43	0	412090368	56	3975
2026-01-27 06:58:03.11	78.96	14.45	-42.6	-43.5	21.1	0.00e+00	0	43	0	415236096	56	4054
2026-01-27 06:58:04.11	78.84	14.53	-42.5	-43.4	21.2	0.00e+00	0	43	0	418381824	56	4044
2026-01-27 06:58:05.12	78.71	14.62	-42.5	-43.4	21.2	0.00e+00	0	43	0	421527552	56	4036
2026-01-27 06:58:06.13	78.58	14.70	-42.6	-43.5	21.1	0.00e+00	0	43	0	424673280	56	4085
2026-01-27 06:58:07.13	78.45	14.78	-42.6	-43.5	21.1	0.00e+00	0	43	0	427819008	56	4076
2026-01-27 06:58:08.14	78.32	14.87	-42.7	-43.5	21.1	0.00e+00	0	43	0	430964736	56	4095
2026-01-27 06:58:09.14	78.19	14.95	-42.7	-43.5	21.1	0.00e+00	0	43	0	434110464	56	4094
2026-01-27 06:58:10.15	78.06	15.04	-42.7	-43.6	21.0	0.00e+00	0	43	0	437256192	56	4145
2026-01-27 06:58:11.16	77.93	15.12	-42.8	-43.7	21.0	0.00e+00	0	43	0	440401920	56	4150
2026-01-27 06:58:12.17	77.80	15.21	-42.9	-43.8	20.9	0.00e+00	0	43	0	443547648	56	4220
2026-01-27 06:58:13.17	77.67	15.29	-42.9	-43.8	20.9	0.00e+00	0	43	0	446693376	56	4214
2026-01-27 06:58:14.18	77.53	15.38	-43.0	-43.9	20.9	0.00e+00	0	43	0	449839104	56	4254
2026-01-27 06:58:15.19	77.40	15.47	-42.9	-43.8	20.9	0.00e+00	0	43	0	452984832	56	4218
2026-01-27 06:58:16.20	77.26	15.55	-42.8	-43.7	21.0	0.00e+00	0	43	0	456130560	56	4176
2026-01-27 06:58:17.21	77.13	15.64	-42.8	-43.7	21.0	0.00e+00	0	43	0	459276288	56	4155
2026-01-27 06:58:18.22	76.99	15.72	-42.9	-43.8	20.9	0.00e+00	0	43	0	462422016	56	4207
2026-01-27 06:58:19.22	76.85	15.81	-42.9	-43.8	20.9	0.00e+00	0	43	0	465567744	56	4215
2026-01-27 06:58:20.23	76.71	15.90	-42.7	-43.6	21.1	0.00e+00	0	43	0	468713472	56	4116
2026-01-27 06:58:21.24	76.57	15.98	-42.7	-43.6	21.1	0.00e+00	0	43	0	471859200	56	4101
2026-01-27 06:58:22.25	76.43	16.07	-42.7	-43.5	21.1	0.00e+00	0	43	0	475004928	56	4093
2026-01-27 06:58:23.25	76.29	16.15	-42.7	-43.5	21.1	0.00e+00	0	43	0	478150656	56	4091
2026-01-27 06:58:24.26	76.15	16.24	-42.8	-43.7	21.0	0.00e+00	0	43	0	481296384	56	4154
2026-01-27 06:58:25.27	76.01	16.33	-42.8	-43.7	20.9	0.00e+00	0	43	0	484442112	56	4190
2026-01-27 06:58:26.27	75.87	16.41	-43.0	-43.9	20.8	0.00e+00	0	43	0	487587840	56	4253
2026-01-27 06:58:27.29	75.72	16.50	-42.9	-43.8	20.9	0.00e+00	0	43	0	490733568	56	4220
2026-01-27 06:58:28.30	75.58	16.59	-42.9	-43.8	20.9	0.00e+00	0	43	0	493879296	56	4229
2026-01-27 06:58:29.30	75.43	16.68	-43.0	-43.9	20.8	0.00e+00	0	43	0	497025024	56	4289
2026-01-27 06:58:30.31	75.28	16.76	-42.9	-43.8	21.0	0.00e+00	0	43	0	500170752	56	4203
2026-01-27 06:58:31.32	75.14	16.85	-42.8	-43.6	21.1	0.00e+00	0	43	0	503316480	56	4138
2026-01-27 06:58:32.33	74.99	16.94	-42.9	-43.8	21.0	0.00e+00	0	43	0	506462208	56	4203
2026-01-27 06:58:33.34	74.84	17.03	-42.7	-43.5	21.2	0.00e+00	0	43	0	509607936	56	4087
2026-01-27 06:58:34.34	74.69	17.12	-42.7	-43.6	21.1	0.00e+00	0	43	0	512753664	56	4126
2026-01-27 06:58:35.35	74.54	17.20	-42.8	-43.7	21.0	0.00e+00	0	43	0	515899392	56	4169
2026-01-27 06:58:36.36	74.38	17.29	-42.7	-43.6	21.1	0.00e+00	0	43	0	519045120	56	4135
2026-01-27 06:58:37.37	74.23	17.38	-42.7	-43.6	21.1	0.00e+00	0	43	0	522190848	56	4121
2026-01-27 06:58:38.37	74.08	17.47	-42.7	-43.6	21.2	0.00e+00	0	43	0	525336576	56	4109
2026-01-27 06:58:39.38	73.92	17.56	-42.8	-43.7	21.0	0.00e+00	0	43	0	528482304	56	4168
2026-01-27 06:58:40.39	73.77	17.65	-42.8	-43.7	21.1	0.00e+00	0	43	0	531628032	56	4153
2026-01-27 06:58:41.40	73.61	17.74	-42.7	-43.6	21.2	0.00e+00	0	43	0	534773760	56	4111
2026-01-27 06:58:42.41	73.45	17.82	-42.8	-43.7	21.1	0.00e+00	0	43	0	537919488	56	4169
2026-01-27 06:58:43.42	73.29	17.91	-42.8	-43.7	21.1	0.00e+00	0	43	0	541065216	56	4166
2026-01-27 06:58:44.43	73.13	18.00	-42.7	-43.6	21.1	0.00e+00	0	43	0	544210944	56	4111
2026-01-27 06:58:45.44	72.97	18.09	-42.7	-43.6	21.2	0.00e+00	0	43	0	547356672	56	4112
2026-01-27 06:58:46.44	72.81	18.18	-42.8	-43.7	21.1	0.00e+00	0	43	0	550502400	56	4157
2026-01-27 06:58:47.45	72.65	18.27	-42.8	-43.7	21.1	0.00e+00	0	43	0	553648128	56	4154
2026-01-27 06:58:48.45	72.48	18.36	-42.5	-43.4	21.4	0.00e+00	0	43	0	556793856	56	4017
2026-01-27 06:58:49.46	72.32	18.45	-42.5	-43.3	21.4	0.00e+00	0	43	0	559939584	56	4004
2026-01-27 06:58:50.47	72.15	18.54	-42.6	-43.5	21.2	0.00e+00	0	43	0	563085312	56	4062
2026-01-27 06:58:51.48	71.99	18.63	-42.6	-43.5	21.2	0.00e+00	0	43	0	566231040	56	4085
2026-01-27 06:58:52.48	71.82	18.72	-42.7	-43.6	21.1	0.00e+00	0	43	0	569376768	56	4129
2026-01-27 06:58:53.49	71.65	18.81	-42.7	-43.6	21.1	0.00e+00	0	43	0	572522496	56	4122
2026-01-27 06:58:54.50	71.48	18.90	-42.7	-43.6	21.2	0.00e+00	0	43	0	575668224	56	4113
2026-01-27 06:58:55.51	71.31	18.99	-42.6	-43.5	21.3	0.00e+00	0	43	0	578813952	56	4053
2026-01-27 06:58:56.52	71.14	19.08	-42.6	-43.5	21.3	0.00e+00	0	43	0	581959680	56	4058
2026-01-27 06:58:57.53	70.97	19.17	-42.7	-43.5	21.2	0.00e+00	0	43	0	585105408	56	4095
2026-01-27 06:58:58.53	70.79	19.25	-42.5	-43.3	21.4	0.00e+00	0	43	0	588251136	56	3995
2026-01-27 06:58:59.53	70.62	19.34	-42.5	-43.3	21.4	0.00e+00	0	43	0	591396864	56	3995
2026-01-27 06:59:00.55	70.44	19.44	-42.5	-43.4	21.4	0.00e+00	0	43	0	594542592	56	4015
2026-01-27 06:59:01.55	70.27	19.52	-42.5	-43.4	21.4	0.00e+00	0	43	0	597688320	56	4023
2026-01-27 06:59:02.56	70.09	19.62	-42.5	-43.3	21.4	0.00e+00	0	43	0	600834048	56	4004
2026-01-27 06:59:03.57	69.91	19.71	-42.5	-43.4	21.4	0.00e+00	0	43	0	603979776	56	4011
2026-01-27 06:59:04.57	69.73	19.79	-42.4	-43.2	21.5	0.00e+00	0	43	0	607125504	56	3938
2026-01-27 06:59:05.58	69.55	19.89	-42.4	-43.3	21.5	0.00e+00	0	43	0	610271232	56	3961
2026-01-27 06:59:06.59	69.37	19.98	-42.4	-43.3	21.5	0.00e+00	0	43	0	613416960	56	3967
2026-01-27 06:59:07.60	69.18	20.07	-42.3	-43.2	21.5	0.00e+00	0	43	0	616562688	56	3937
2026-01-27 06:59:08.61	69.00	20.16	-42.2	-43.0	21.7	0.00e+00	0	43	0	619708416	56	3868
2026-01-27 06:59:09.62	68.81	20.25	-42.3	-43.1	21.6	0.00e+00	0	43	0	622854144	56	3910
2026-01-27 06:59:10.63	68.63	20.34	-42.2	-43.1	21.7	0.00e+00	0	43	0	625999872	56	3883
2026-01-27 06:59:11.63	68.44	20.43	-42.1	-43.0	21.7	0.00e+00	0	43	0	629145600	56	3831
2026-01-27 06:59:12.64	68.25	20.52	-42.2	-43.1	21.7	0.00e+00	0	43	0	632291328	56	3878
2026-01-27 06:59:13.64	68.06	20.61	-42.2	-43.1	21.6	0.00e+00	0	43	0	635437056	56	3890
2026-01-27 06:59:14.65	67.87	20.70	-42.1	-43.0	21.7	0.00e+00	0	43	0	638582784	56	3837
2026-01-27 06:59:15.66	67.68	20.79	-42.2	-43.1	21.7	0.00e+00	0	43	0	641728512	56	3888
2026-01-27 06:59:16.67	67.49	20.88	-42.3	-43.1	21.7	0.00e+00	0	43	0	644874240	56	3902
2026-01-27 06:59:17.68	67.29	20.97	-42.2	-43.1	21.7	0.00e+00	0	43	0	648019968	56	3887
2026-01-27 06:59:18.69	67.10	21.06	-42.1	-42.9	21.8	0.00e+00	0	43	0	651165696	56	3815
2026-01-27 06:59:19.70	66.90	21.15	-42.1	-42.9	21.8	0.00e+00	0	43	0	654311424	56	3814
2026-01-27 06:59:20.71	66.70	21.24	-42.1	-42.9	21.8	0.00e+00	0	43	0	657457152	56	3801
2026-01-27 06:59:21.71	66.50	21.33	-41.9	-42.7	21.9	0.00e+00	0	43	0	660602880	55	3943
2026-01-27 06:59:22.72	66.30	21.42	-42.0	-42.9	21.8	0.00e+00	0	43	0	663748608	55	4023
2026-01-27 06:59:23.73	66.10	21.51	-42.0	-42.8	21.8	0.00e+00	0	43	0	666894336	55	4000
2026-01-27 06:59:24.74	65.90	21.60	-41.8	-42.6	22.0	0.00e+00	0	43	0	670040064	55	3896
2026-01-27 06:59:25.75	65.69	21.69	-41.7	-42.5	22.1	0.00e+00	0	42	0	673185792	55	3849
2026-01-27 06:59:26.75	65.49	21.78	-41.7	-42.5	22.0	0.00e+00	0	43	0	676331520	53	4326
2026-01-27 06:59:27.76	65.28	21.87	-41.8	-42.6	22.0	0.00e+00	0	42	0	679477248	54	4118
2026-01-27 06:59:28.77	65.08	21.96	-41.9	-42.7	21.9	0.00e+00	0	43	0	682622976	54	4188
2026-01-27 06:59:29.78	64.87	22.05	-42.0	-42.8	21.9	0.00e+00	0	43	0	685768704	54	4215
2026-01-27 06:59:30.79	64.66	22.14	-42.0	-42.9	21.8	0.00e+00	0	43	0	688914432	54	4244
2026-01-27 06:59:31.79	64.45	22.22	-42.0	-42.9	21.8	0.00e+00	0	43	0	692060160	54	4254
2026-01-27 06:59:32.80	64.23	22.31	-41.8	-42.7	22.0	0.00e+00	0	43	0	695205888	54	4153
2026-01-27 06:59:33.81	64.02	22.40	-41.8	-42.6	22.1	0.00e+00	0	43	0	698351616	54	4126
2026-01-27 06:59:34.82	63.81	22.49	-41.8	-42.6	22.1	0.00e+00	0	43	0	701497344	54	4128
2026-01-27 06:59:35.82	63.59	22.58	-41.8	-42.6	22.1	0.00e+00	0	43	0	704643072	54	4142
2026-01-27 06:59:36.83	63.37	22.67	-41.6	-42.4	22.3	0.00e+00	0	43	0	707788800	54	4020
2026-01-27 06:59:37.84	63.15	22.76	-41.5	-42.3	22.3	0.00e+00	0	43	0	710934528	54	3992
2026-01-27 06:59:38.84	62.94	22.85	-41.6	-42.4	22.2	0.00e+00	0	43	0	714080256	53	4278
2026-01-27 06:59:39.85	62.72	22.93	-41.7	-42.5	22.2	0.00e+00	0	43	0	717225984	53	4294
2026-01-27 06:59:40.86	62.49	23.02	-41.6	-42.4	22.2	0.00e+00	0	43	0	720371712	53	4275
2026-01-27 06:59:41.87	62.27	23.11	-41.7	-42.5	22.1	0.00e+00	0	43	0	723517440	53	4331
2026-01-27 06:59:42.87	62.05	23.20	-41.7	-42.5	22.2	0.00e+00	0	43	0	726663168	54	4063
2026-01-27 06:59:43.88	61.82	23.28	-41.7	-42.5	22.2	0.00e+00	0	43	0	729808896	54	4088
2026-01-27 06:59:44.89	61.59	23.37	-41.7	-42.5	22.2	0.00e+00	0	43	0	732954624	54	4075
2026-01-27 06:59:45.90	61.36	23.46	-41.3	-42.1	22.6	0.00e+00	0	43	0	736100352	54	3871
2026-01-27 06:59:46.91	61.13	23.55	-41.4	-42.2	22.5	0.00e+00	0	43	0	739246080	54	3914
2026-01-27 06:59:47.91	60.90	23.63	-41.4	-42.2	22.4	0.00e+00	0	43	0	742391808	53	4153
2026-01-27 06:59:48.92	60.67	23.72	-41.5	-42.3	22.3	0.00e+00	0	43	0	745537536	53	4207
2026-01-27 06:59:49.93	60.44	23.81	-41.6	-42.4	22.2	0.00e+00	0	43	0	748683264	53	4287
2026-01-27 06:59:50.93	60.20	23.89	-41.6	-42.4	22.2	0.00e+00	0	43	0	751828992	53	4253
2026-01-27 06:59:51.94	59.97	23.98	-41.6	-42.4	22.3	0.00e+00	0	43	0	754974720	53	4255
2026-01-27 06:59:52.94	59.73	24.06	-41.6	-42.4	22.2	0.00e+00	0	43	0	758120448	53	4272
2026-01-27 06:59:53.95	59.49	24.15	-41.8	-42.6	22.1	0.00e+00	0	43	0	761266176	54	4111
2026-01-27 06:59:54.95	59.25	24.23	-41.8	-42.6	22.1	0.00e+00	0	43	0	764411904	54	4104
2026-01-27 06:59:55.96	59.01	24.32	-41.8	-42.7	22.0	0.00e+00	0	43	0	767557632	54	4151
2026-01-27 06:59:56.97	58.77	24.40	-41.9	-42.7	22.0	0.00e+00	0	43	0	770703360	54	4187
2026-01-27 06:59:57.97	58.52	24.48	-41.9	-42.8	22.0	0.00e+00	0	43	0	773849088	54	4201
2026-01-27 06:59:58.98	58.28	24.57	-42.1	-42.9	21.8	0.00e+00	0	43	0	776994816	54	4260
2026-01-27 06:59:59.99	58.03	24.65	-42.1	-42.9	21.9	0.00e+00	0	43	0	780140544	54	4267
2026-01-27 07:00:01.00	57.78	24.73	-42.0	-42.8	21.9	0.00e+00	0	43	0	783286272	54	4225
2026-01-27 07:00:02.01	57.53	24.82	-42.2	-43.0	21.7	0.00e+00	0	43	0	786432000	54	4319
2026-01-27 07:00:03.02	57.28	24.90	-42.2	-43.0	21.7	0.00e+00	0	43	0	789577728	55	4083
2026-01-27 07:00:04.03	57.03	24.98	-42.2	-43.0	21.8	0.00e+00	0	43	0	792723456	55	4078
2026-01-27 07:00:05.04	56.78	25.06	-42.2	-43.1	21.7	0.00e+00	0	43	0	795869184	55	4109
2026-01-27 07:00:06.04	56.52	25.15	-42.2	-43.1	21.7	0.00e+00	0	43	0	799014912	55	4103
2026-01-27 07:00:07.04	56.27	25.23	-42.2	-43.0	21.8	0.00e+00	0	43	0	802160640	55	4087
2026-01-27 07:00:08.05	56.01	25.31	-42.3	-43.1	21.7	0.00e+00	0	43	0	805306368	55	4128
2026-01-27 07:00:09.06	55.75	25.39	-42.2	-43.1	21.7	0.00e+00	0	43	0	808452096	55	4109
2026-01-27 07:00:10.07	55.49	25.47	-42.1	-42.9	21.8	0.00e+00	0	43	0	811597824	54	4265
2026-01-27 07:00:11.08	55.23	25.55	-42.1	-43.0	21.8	0.00e+00	0	43	0	814743552	54	4294
2026-01-27 07:00:12.09	54.97	25.63	-42.2	-43.0	21.8	0.00e+00	0	43	0	817889280	54	4319
2026-01-27 07:00:13.10	54.70	25.70	-42.2	-43.0	21.8	0.00e+00	0	43	0	821035008	54	4313
2026-01-27 07:00:14.10	54.44	25.78	-42.2	-43.1	21.7	0.00e+00	0	43	0	824180736	55	4103
2026-01-27 07:00:15.11	54.17	25.86	-42.2	-43.0	21.8	0.00e+00	0	43	0	827326464	55	4088
2026-01-27 07:00:16.12	53.90	25.94	-42.2	-43.0	21.8	0.00e+00	0	43	0	830472192	55	4092
2026-01-27 07:00:17.13	53.63	26.01	-42.1	-42.9	21.9	0.00e+00	0	43	0	833617920	55	4016
2026-01-27 07:00:18.14	53.36	26.09	-42.0	-42.8	22.0	0.00e+00	0	43	0	836763648	55	3983
2026-01-27 07:00:19.14	53.09	26.17	-42.0	-42.9	21.9	0.00e+00	0	43	0	839909376	55	4006
2026-01-27 07:00:20.14	52.82	26.24	-42.1	-42.9	21.8	0.00e+00	0	43	0	843055104	55	4020
2026-01-27 07:00:21.15	52.55	26.31	-42.3	-43.2	21.6	0.00e+00	0	43	0	846200832	55	4152
2026-01-27 07:00:22.16	52.27	26.39	-42.5	-43.3	21.5	0.00e+00	0	43	0	849346560	55	4228
2026-01-27 07:00:23.17	51.99	26.46	-42.6	-43.5	21.4	0.00e+00	0	43	0	852492288	55	4314
2026-01-27 07:00:24.17	51.72	26.54	-42.5	-43.4	21.5	0.00e+00	0	43	0	855638016	55	4254
2026-01-27 07:00:25.18	51.44	26.61	-42.6	-43.4	21.4	0.00e+00	0	43	0	858783744	55	4284
2026-01-27 07:00:26.19	51.15	26.68	-42.4	-43.3	21.6	0.00e+00	0	43	0	861929472	55	4202
2026-01-27 07:00:27.20	50.87	26.75	-42.4	-43.2	21.6	0.00e+00	0	43	0	865075200	55	4171
2026-01-27 07:00:28.21	50.59	26.82	-42.4	-43.2	21.6	0.00e+00	0	43	0	868220928	55	4190
2026-01-27 07:00:29.21	50.30	26.89	-42.4	-43.2	21.6	0.00e+00	0	43	0	871366656	55	4178
2026-01-27 07:00:30.22	50.02	26.96	-42.3	-43.2	21.7	0.00e+00	0	43	0	874512384	55	4156
2026-01-27 07:00:31.23	49.73	27.03	-42.4	-43.3	21.6	0.00e+00	0	43	0	877658112	55	4196
2026-01-27 07:00:32.23	49.44	27.10	-42.2	-43.0	21.8	0.00e+00	0	43	0	880803840	55	4079
2026-01-27 07:00:33.24	49.15	27.17	-42.2	-43.1	21.8	0.00e+00	0	43	0	883949568	55	4121
2026-01-27 07:00:34.25	48.86	27.23	-42.0	-42.8	21.9	0.00e+00	0	43	0	887095296	55	3997
2026-01-27 07:00:35.26	48.57	27.30	-42.1	-42.9	21.9	0.00e+00	0	43	0	890241024	55	4008
2026-01-27 07:00:36.27	48.28	27.37	-42.1	-42.9	21.9	0.00e+00	0	43	0	893386752	55	4015
2026-01-27 07:00:37.27	47.98	27.43	-42.1	-43.0	21.8	0.00e+00	0	43	0	896532480	55	4058
2026-01-27 07:00:38.28	47.69	27.50	-42.3	-43.1	21.7	0.00e+00	0	43	0	899678208	55	4121
2026-01-27 07:00:39.29	47.39	27.56	-42.1	-42.9	21.9	0.00e+00	0	43	0	902823936	55	4031
2026-01-27 07:00:40.29	47.09	27.62	-42.1	-42.9	21.9	0.00e+00	0	43	0	905969664	55	4021
2026-01-27 07:00:41.30	46.79	27.68	-42.0	-42.8	22.0	0.00e+00	0	43	0	909115392	55	3973
2026-01-27 07:00:42.30	46.50	27.75	-41.8	-42.6	22.1	0.00e+00	0	43	0	912261120	54	4129
2026-01-27 07:00:43.30	46.20	27.81	-41.9	-42.7	22.0	0.00e+00	0	43	0	915406848	54	4176
2026-01-27 07:00:44.31	45.89	27.87	-42.0	-42.8	21.9	0.00e+00	0	43	0	918552576	54	4230
2026-01-27 07:00:45.32	45.59	27.93	-42.2	-43.0	21.8	0.00e+00	0	43	0	921698304	54	4337
2026-01-27 07:00:46.33	45.28	27.98	-42.3	-43.1	21.7	0.00e+00	0	43	0	924844032	55	4145
2026-01-27 07:00:47.34	44.98	28.04	-42.2	-43.0	21.8	0.00e+00	0	43	0	927989760	55	4081
2026-01-27 07:00:48.34	44.67	28.10	-42.2	-43.0	21.9	0.00e+00	0	43	0	931135488	55	4072
2026-01-27 07:00:49.34	44.36	28.15	-42.1	-43.0	21.9	0.00e+00	0	43	0	934281216	55	4057
2026-01-27 07:00:50.35	44.05	28.21	-42.1	-42.9	21.9	0.00e+00	0	43	0	937426944	55	4041
2026-01-27 07:00:51.36	43.74	28.26	-42.2	-43.1	21.8	0.00e+00	0	43	0	940572672	55	4101
2026-01-27 07:00:52.36	43.43	28.32	-42.1	-42.9	22.0	0.00e+00	0	43	0	943718400	55	4015
2026-01-27 07:00:53.37	43.12	28.37	-42.1	-42.9	21.9	0.00e+00	0	43	0	946864128	55	4051
2026-01-27 07:00:54.38	42.81	28.42	-42.2	-43.0	21.8	0.00e+00	0	43	0	950009856	55	4083
2026-01-27 07:00:55.39	42.49	28.47	-42.0	-42.8	22.0	0.00e+00	0	43	0	953155584	55	3987
2026-01-27 07:00:56.40	42.18	28.52	-42.0	-42.8	21.9	0.00e+00	0	43	0	956301312	55	4004
2026-01-27 07:00:57.41	41.86	28.57	-42.3	-43.1	21.7	0.00e+00	0	43	0	959447040	55	4120
2026-01-27 07:00:58.41	41.54	28.62	-42.3	-43.1	21.7	0.00e+00	0	43	0	962592768	55	4120
2026-01-27 07:00:59.42	41.22	28.67	-42.4	-43.3	21.6	0.00e+00	0	43	0	965738496	55	4194
2026-01-27 07:01:00.43	40.90	28.72	-42.5	-43.4	21.5	0.00e+00	0	43	0	968884224	55	4248
2026-01-27 07:01:01.44	40.58	28.76	-42.6	-43.4	21.5	0.00e+00	0	43	0	972029952	55	4286
2026-01-27 07:01:02.45	40.26	28.81	-42.6	-43.4	21.5	0.00e+00	0	43	0	975175680	55	4274
2026-01-27 07:01:03.45	39.94	28.85	-42.4	-43.3	21.6	0.00e+00	0	43	0	978321408	55	4214
2026-01-27 07:01:04.46	39.62	28.89	-42.5	-43.4	21.5	0.00e+00	0	43	0	981467136	55	4255
2026-01-27 07:01:05.47	39.29	28.93	-42.4	-43.2	21.7	0.00e+00	0	43	0	984612864	55	4179
2026-01-27 07:01:06.48	38.97	28.98	-42.3	-43.2	21.7	0.00e+00	0	43	0	987758592	55	4146
2026-01-27 07:01:07.49	38.64	29.02	-42.2	-43.0	21.8	0.00e+00	0	43	0	990904320	55	4091
2026-01-27 07:01:08.49	38.32	29.05	-42.2	-43.0	21.9	0.00e+00	0	43	0	994050048	55	4067
2026-01-27 07:01:09.50	37.99	29.09	-42.3	-43.1	21.8	0.00e+00	0	43	0	997195776	55	4110
2026-01-27 07:01:10.51	37.66	29.13	-42.3	-43.2	21.7	0.00e+00	0	43	0	1000341504	55	4160
2026-01-27 07:01:11.52	37.33	29.16	-42.4	-43.2	21.7	0.00e+00	0	43	0	1003487232	55	4171
2026-01-27 07:01:12.53	37.00	29.20	-42.5	-43.3	21.6	0.00e+00	0	43	0	1006632960	55	4235
2026-01-27 07:01:13.53	36.67	29.23	-42.7	-43.5	21.4	0.00e+00	0	43	0	1009778688	55	4340
2026-01-27 07:01:14.54	36.34	29.27	-42.5	-43.4	21.5	0.00e+00	0	43	0	1012924416	55	4259
2026-01-27 07:01:15.55	36.01	29.30	-42.6	-43.5	21.4	0.00e+00	0	43	0	1016070144	55	4300
2026-01-27 07:01:16.56	35.68	29.33	-42.8	-43.7	21.2	0.00e+00	0	43	0	1019215872	56	4166
2026-01-27 07:01:17.57	35.34	29.36	-43.0	-43.9	21.0	0.00e+00	0	43	0	1022361600	56	4289
2026-01-27 07:01:18.58	35.01	29.39	-43.0	-44.0	21.0	0.00e+00	0	43	0	1025507328	56	4293
2026-01-27 07:01:19.59	34.67	29.42	-42.9	-43.8	21.2	0.00e+00	0	43	0	1028653056	56	4232
2026-01-27 07:01:20.59	34.34	29.44	-43.0	-43.9	21.1	0.00e+00	0	43	0	1031798784	56	4266
2026-01-27 07:01:21.60	34.01	29.47	-42.8	-43.7	21.3	0.00e+00	0	43	0	1034944512	56	4182
2026-01-27 07:01:22.61	33.67	29.49	-42.7	-43.5	21.4	0.00e+00	0	43	0	1038090240	56	4081
2026-01-27 07:01:23.62	33.33	29.51	-42.7	-43.6	21.4	0.00e+00	0	43	0	1041235968	56	4114
2026-01-27 07:01:24.63	33.00	29.54	-42.6	-43.5	21.5	0.00e+00	0	43	0	1044381696	56	4077
2026-01-27 07:01:25.63	32.66	29.56	-42.5	-43.4	21.5	0.00e+00	0	43	0	1047527424	55	4269
2026-01-27 07:01:26.64	32.32	29.58	-42.7	-43.6	21.3	0.00e+00	0	43	0	1050673152	55	4367
2026-01-27 07:01:27.64	31.99	29.60	-42.6	-43.4	21.5	0.00e+00	0	43	0	1053818880	55	4283
2026-01-27 07:01:28.65	31.65	29.61	-42.5	-43.3	21.5	0.00e+00	0	43	0	1056964608	55	4238
2026-01-27 07:01:29.66	31.31	29.63	-42.5	-43.3	21.6	0.00e+00	0	43	0	1060110336	55	4227
2026-01-27 07:01:30.67	30.97	29.65	-42.3	-43.1	21.7	0.00e+00	0	43	0	1063256064	55	4128
2026-01-27 07:01:31.68	30.63	29.66	-42.3	-43.1	21.7	0.00e+00	0	43	0	1066401792	55	4131
2026-01-27 07:01:32.68	30.29	29.67	-42.2	-43.0	21.8	0.00e+00	0	43	0	1069547520	55	4081
2026-01-27 07:01:33.69	29.95	29.69	-42.1	-42.9	21.9	0.00e+00	0	43	0	1072693248	55	4018
2026-01-27 07:01:34.70	29.61	29.70	-42.1	-42.9	21.9	0.00e+00	0	43	0	1075838976	55	4022
2026-01-27 07:01:35.70	29.28	29.71	-42.0	-42.8	21.9	0.00e+00	0	43	0	1078984704	55	4000
2026-01-27 07:01:36.71	28.93	29.72	-42.2	-43.0	21.8	0.00e+00	0	43	0	1082130432	55	4068
2026-01-27 07:01:37.72	28.59	29.72	-42.1	-42.9	21.9	0.00e+00	0	43	0	1085276160	55	4043
2026-01-27 07:01:38.73	28.25	29.73	-42.1	-42.9	21.8	0.00e+00	0	43	0	1088421888	55	4050
2026-01-27 07:01:39.73	27.91	29.74	-42.1	-42.9	21.8	0.00e+00	0	43	0	1091567616	55	4038
2026-01-27 07:01:40.74	27.57	29.74	-42.1	-42.9	21.8	0.00e+00	0	43	0	1094713344	55	4025
2026-01-27 07:01:41.75	27.23	29.74	-42.2	-43.0	21.8	0.00e+00	0	43	0	1097859072	55	4078
2026-01-27 07:01:42.76	26.89	29.75	-42.2	-43.0	21.8	0.00e+00	0	43	0	1101004800	55	4067
2026-01-27 07:01:43.77	26.55	29.75	-42.3	-43.1	21.8	0.00e+00	0	43	0	1105199104	55	4115
2026-01-27 07:01:44.77	26.21	29.75	-42.1	-42.9	21.9	0.00e+00	0	43	0	1108344832	55	4042
2026-01-27 07:01:45.78	25.87	29.75	-42.1	-42.9	21.9	0.00e+00	0	43	0	1110441984	55	4026
2026-01-27 07:01:46.79	25.52	29.74	-42.1	-42.9	21.9	0.00e+00	0	43	0	1113587712	55	4031
2026-01-27 07:01:47.80	25.18	29.74	-42.2	-43.0	21.8	0.00e+00	0	43	0	1116733440	55	4061
2026-01-27 07:01:48.81	24.84	29.73	-42.2	-43.0	21.8	0.00e+00	0	43	0	1119879168	55	4069
2026-01-27 07:01:49.81	24.50	29.73	-42.1	-43.0	21.9	0.00e+00	0	43	0	1123024896	55	4054
2026-01-27 07:01:50.82	24.16	29.72	-42.1	-42.9	21.8	0.00e+00	0	43	0	1126170624	55	4047
2026-01-27 07:01:51.82	23.82	29.71	-42.1	-42.9	21.9	0.00e+00	0	43	0	1129316352	55	4034
2026-01-27 07:01:52.83	23.48	29.70	-42.3	-43.1	21.7	0.00e+00	0	43	0	1132462080	55	4129
2026-01-27 07:01:53.84	23.14	29.69	-42.7	-43.5	21.3	0.00e+00	0	43	0	1135607808	55	4332
2026-01-27 07:01:54.85	22.80	29.68	-43.0	-43.9	21.2	0.00e+00	0	43	0	1138753536	56	4245
2026-01-27 07:01:55.86	22.46	29.67	-43.1	-44.0	21.0	0.00e+00	0	43	0	1141899264	56	4312
2026-01-27 07:01:56.87	22.12	29.65	-43.0	-43.9	21.1	0.00e+00	0	43	0	1146093568	56	4273
2026-01-27 07:01:57.87	21.78	29.64	-42.9	-43.8	21.3	0.00e+00	0	43	0	1149239296	56	4198
2026-01-27 07:01:58.88	21.45	29.62	-42.5	-43.4	21.6	0.00e+00	0	43	0	1152385024	56	4023
2026-01-27 07:01:59.89	21.11	29.61	-42.5	-43.3	21.7	0.00e+00	0	43	0	1155530752	56	3980
2026-01-27 07:02:00.89	20.77	29.59	-42.4	-43.2	21.7	0.00e+00	0	43	0	1157627904	56	3953
2026-01-27 07:02:01.90	20.43	29.57	-42.4	-43.3	21.7	0.00e+00	0	43	0	1160773632	56	3971
2026-01-27 07:02:02.91	20.10	29.55	-42.4	-43.3	21.7	0.00e+00	0	43	0	1163919360	56	3963
2026-01-27 07:02:03.91	19.76	29.53	-42.4	-43.3	21.7	0.00e+00	0	43	0	1167065088	56	3973
2026-01-27 07:02:04.92	19.42	29.50	-42.5	-43.3	21.7	0.00e+00	0	43	0	1170210816	56	3993
2026-01-27 07:02:05.93	19.09	29.48	-42.4	-43.3	21.7	0.00e+00	0	43	0	1173356544	56	3973
2026-01-27 07:02:06.94	18.75	29.45	-42.4	-43.3	21.7	0.00e+00	0	43	0	1176502272	56	3970
2026-01-27 07:02:07.95	18.42	29.43	-42.2	-43.1	21.9	0.00e+00	0	43	0	1179648000	56	3870
2026-01-27 07:02:08.95	18.09	29.40	-42.3	-43.2	21.8	0.00e+00	0	43	0	1182793728	56	3919
2026-01-27 07:02:09.96	17.75	29.37	-42.5	-43.4	21.6	0.00e+00	0	43	0	1185939456	56	4005
2026-01-27 07:02:10.97	17.42	29.34	-42.6	-43.4	21.5	0.00e+00	0	43	0	1190133760	56	4046
2026-01-27 07:02:11.97	17.09	29.31	-42.7	-43.5	21.4	0.00e+00	0	43	0	1193279488	56	4097
2026-01-27 07:02:12.98	16.76	29.28	-42.8	-43.7	21.3	0.00e+00	0	43	0	1196425216	56	4171
2026-01-27 07:02:13.99	16.42	29.25	-42.8	-43.7	21.3	0.00e+00	0	43	0	1199570944	56	4171
2026-01-27 07:02:14.99	16.10	29.22	-42.7	-43.5	21.5	0.00e+00	0	43	0	1202716672	56	4092
2026-01-27 07:02:16.00	15.77	29.18	-42.5	-43.3	21.6	0.00e+00	0	43	0	1204813824	56	3993
2026-01-27 07:02:17.01	15.44	29.15	-42.5	-43.3	21.7	0.00e+00	0	43	0	1207959552	56	3987
2026-01-27 07:02:18.01	15.11	29.11	-42.5	-43.3	21.6	0.00e+00	0	43	0	1211105280	56	3995
2026-01-27 07:02:19.03	14.78	29.07	-42.5	-43.4	21.6	0.00e+00	0	43	0	1214251008	56	4023
2026-01-27 07:02:20.03	14.46	29.04	-42.5	-43.4	21.6	0.00e+00	0	43	0	1217396736	56	4007
2026-01-27 07:02:21.05	14.13	29.00	-42.6	-43.5	21.6	0.00e+00	0	43	0	1220542464	56	4058
2026-01-27 07:02:22.05	13.80	28.96	-42.4	-43.3	21.7	0.00e+00	0	43	0	1223688192	56	3971
2026-01-27 07:02:23.05	13.48	28.92	-42.5	-43.3	21.6	0.00e+00	0	43	0	1226833920	56	3988
2026-01-27 07:02:24.06	13.16	28.87	-42.6	-43.4	21.6	0.00e+00	0	43	0	1229979648	56	4030
2026-01-27 07:02:25.06	12.84	28.83	-42.7	-43.6	21.4	0.00e+00	0	43	0	1233125376	56	4112
2026-01-27 07:02:26.07	12.52	28.79	-42.7	-43.6	21.4	0.00e+00	0	43	0	1237319680	56	4123
2026-01-27 07:02:27.08	12.19	28.74	-42.8	-43.7	21.3	0.00e+00	0	43	0	1240465408	56	4169
2026-01-27 07:02:28.08	11.88	28.69	-42.9	-43.8	21.3	0.00e+00	0	43	0	1243611136	56	4207
2026-01-27 07:02:29.09	11.56	28.65	-42.6	-43.5	21.5	0.00e+00	0	43	0	1246756864	56	4068
2026-01-27 07:02:30.10	11.24	28.60	-42.7	-43.5	21.4	0.00e+00	0	43	0	1249902592	56	4098
2026-01-27 07:02:31.11	10.92	28.55	-42.5	-43.4	21.6	0.00e+00	0	43	0	1251999744	56	4010
2026-01-27 07:02:32.12	10.60	28.50	-42.5	-43.3	21.6	0.00e+00	0	43	0	1255145472	56	4004
2026-01-27 07:02:33.13	10.29	28.45	-42.5	-43.4	21.6	0.00e+00	0	43	0	1258291200	56	4019
2026-01-27 07:02:34.13	9.98	28.40	-42.5	-43.3	21.7	0.00e+00	0	43	0	1261436928	56	3979
2026-01-27 07:02:35.14	9.66	28.35	-42.4	-43.2	21.7	0.00e+00	0	43	0	1264582656	55	4163
2026-01-27 07:02:36.14	9.35	28.29	-42.3	-43.2	21.7	0.00e+00	0	43	0	1267728384	55	4161
2026-01-27 07:02:37.15	9.04	28.24	-42.4	-43.3	21.6	0.00e+00	0	43	0	1270874112	55	4218
2026-01-27 07:02:38.16	8.73	28.19	-42.4	-43.3	21.5	0.00e+00	0	43	0	1274019840	55	4213
2026-01-27 07:02:39.17	8.42	28.13	-42.4	-43.3	21.5	0.00e+00	0	43	0	1278214144	55	4195
2026-01-27 07:02:40.18	8.12	28.07	-42.4	-43.2	21.5	0.00e+00	0	43	0	1281359872	55	4189
2026-01-27 07:02:41.19	7.81	28.02	-42.4	-43.3	21.5	0.00e+00	0	43	0	1284505600	55	4198
2026-01-27 07:02:42.20	7.50	27.96	-42.4	-43.2	21.5	0.00e+00	0	43	0	1287651328	55	4193
2026-01-27 07:02:43.20	7.20	27.90	-42.2	-43.0	21.8	0.00e+00	0	43	0	1290797056	55	4089
2026-01-27 07:02:44.21	6.90	27.84	-42.2	-43.1	21.8	0.00e+00	0	43	0	1293942784	55	4104
2026-01-27 07:02:45.21	6.60	27.78	-42.2	-43.0	21.8	0.00e+00	0	43	0	1297088512	55	4095
2026-01-27 07:02:46.21	6.30	27.72	-42.2	-43.0	21.8	0.00e+00	0	43	0	1299185664	55	4098
2026-01-27 07:02:47.22	6.00	27.66	-42.2	-43.0	21.7	0.00e+00	0	43	0	1302331392	55	4094
2026-01-27 07:02:48.23	5.70	27.60	-42.3	-43.1	21.6	0.00e+00	0	43	0	1305477120	55	4120
2026-01-27 07:02:49.24	5.40	27.53	-42.3	-43.2	21.5	0.00e+00	0	43	0	1308622848	55	4165
2026-01-27 07:02:50.25	5.10	27.47	-42.1	-43.0	21.7	0.00e+00	0	43	0	1311768576	55	4054
2026-01-27 07:02:51.25	4.81	27.40	-42.0	-42.8	21.9	0.00e+00	0	43	0	1314914304	55	3973
2026-01-27 07:02:52.26	4.52	27.34	-41.8	-42.6	22.1	0.00e+00	0	43	0	1318060032	54	4124
2026-01-27 07:02:53.27	4.22	27.27	-41.6	-42.4	22.2	0.00e+00	0	43	0	1322254336	54	4049
2026-01-27 07:02:54.28	3.93	27.21	-41.6	-42.4	22.3	0.00e+00	0	43	0	1325400064	54	4029
2026-01-27 07:02:55.29	3.64	27.14	-41.9	-42.7	22.0	0.00e+00	0	43	0	1328545792	54	4157
2026-01-27 07:02:56.30	3.35	27.07	-42.1	-43.0	21.8	0.00e+00	0	43	0	1331691520	54	4300
2026-01-27 07:02:57.31	3.06	27.00	-42.5	-43.3	21.5	0.00e+00	0	43	0	1334837248	55	4232
2026-01-27 07:02:58.31	2.78	26.93	-42.6	-43.5	21.3	0.00e+00	0	43	0	1337982976	55	4328
2026-01-27 07:02:59.32	2.49	26.86	-42.8	-43.7	21.2	0.00e+00	0	43	0	1341128704	56	4180
2026-01-27 07:03:00.33	2.21	26.79	-42.7	-43.6	21.3	0.00e+00	0	43	0	1344274432	56	4133
2026-01-27 07:03:01.33	1.93	26.72	-42.6	-43.5	21.4	0.00e+00	0	43	0	1346371584	56	4052
2026-01-27 07:03:02.34	1.65	26.65	-42.3	-43.2	21.7	0.00e+00	0	43	0	1349517312	56	3927
2026-01-27 07:03:03.35	1.37	26.58	-42.1	-42.9	21.9	0.00e+00	0	43	0	1352663040	56	3812
2026-01-27 07:03:04.36	1.09	26.50	-41.7	-42.5	22.2	0.00e+00	0	43	0	1355808768	54	4077
2026-01-27 07:03:05.36	0.81	26.43	-41.7	-42.5	22.2	0.00e+00	0	43	0	1360003072	54	4082
2026-01-27 07:03:06.37	0.54	26.36	-41.7	-42.6	22.2	0.00e+00	0	43	0	1363148800	54	4099
2026-01-27 07:03:07.38	0.26	26.28	-41.8	-42.6	22.0	0.00e+00	0	43	0	1366294528	54	4139
2026-01-27 07:03:08.39	359.99	26.21	-42.0	-42.8	21.9	0.00e+00	0	43	0	1369440256	54	4204
2026-01-27 07:03:09.39	359.72	26.13	-41.6	-42.5	22.1	0.00e+00	0	43	0	1372585984	54	4096
2026-01-27 07:03:10.40	359.45	26.06	-41.7	-42.5	22.1	0.00e+00	0	43	0	1375731712	53	4320
2026-01-27 07:03:11.41	359.18	25.98	-41.9	-42.7	21.9	0.00e+00	0	43	0	1378877440	54	4176
2026-01-27 07:03:12.41	358.91	25.90	-42.0	-42.9	21.8	0.00e+00	0	43	0	1382023168	54	4250
2026-01-27 07:03:13.42	358.64	25.83	-42.2	-43.1	21.7	0.00e+00	0	43	0	1385168896	55	4114
2026-01-27 07:03:14.43	358.38	25.75	-42.5	-43.3	21.5	0.00e+00	0	43	0	1388314624	55	4233
2026-01-27 07:03:15.44	358.11	25.67	-42.6	-43.5	21.4	0.00e+00	0	43	0	1391460352	55	4299
2026-01-27 07:03:16.45	357.85	25.59	-42.6	-43.5	21.3	0.00e+00	0	43	0	1393557504	55	4338
2026-01-27 07:03:17.45	357.59	25.51	-42.4	-43.3	21.5	0.00e+00	0	43	0	1396703232	55	4197
2026-01-27 07:03:18.46	357.33	25.43	-42.2	-43.1	21.6	0.00e+00	0	43	0	1399848960	55	4111
2026-01-27 07:03:19.47	357.07	25.35	-42.1	-42.9	21.7	0.00e+00	0	43	0	1404043264	55	4031
2026-01-27 07:03:20.48	356.81	25.27	-41.6	-42.4	22.2	0.00e+00	0	43	0	1407188992	55	3813
2026-01-27 07:03:21.49	356.55	25.19	-41.4	-42.2	22.4	0.00e+00	0	43	0	1410334720	53	4161
2026-01-27 07:03:22.50	356.30	25.11	-41.5	-42.2	22.3	0.00e+00	0	43	0	1413480448	53	4186
2026-01-27 07:03:23.50	356.04	25.03	-41.6	-42.4	22.2	0.00e+00	0	43	0	1416626176	53	4268
2026-01-27 07:03:24.51	355.79	24.95	-41.8	-42.6	22.0	0.00e+00	0	43	0	1419771904	54	4135
2026-01-27 07:03:25.52	355.54	24.87	-42.0	-42.8	21.9	0.00e+00	0	43	0	1422917632	54	4212
2026-01-27 07:03:26.53	355.29	24.78	-42.1	-42.9	21.8	0.00e+00	0	43	0	1426063360	54	4279
2026-01-27 07:03:27.54	355.04	24.70	-42.1	-42.9	21.8	0.00e+00	0	43	0	1429209088	54	4271
2026-01-27 07:03:28.55	354.79	24.62	-42.0	-42.8	21.9	0.00e+00	0	43	0	1432354816	54	4226
2026-01-27 07:03:29.55	354.55	24.53	-41.8	-42.7	22.0	0.00e+00	0	43	0	1435500544	54	4151
2026-01-27 07:03:30.56	354.30	24.45	-41.8	-42.6	22.1	0.00e+00	0	43	0	1438646272	54	4114
2026-01-27 07:03:31.57	354.06	24.37	-41.8	-42.6	22.1	0.00e+00	0	43	0	1441792000	54	4116
2026-01-27 07:03:32.58	353.82	24.28	-41.7	-42.5	22.1	0.00e+00	0	43	0	1444937728	54	4088
2026-01-27 07:03:33.59	353.58	24.20	-41.8	-42.6	22.1	0.00e+00	0	43	0	1448083456	54	4107
2026-01-27 07:03:34.59	353.34	24.11	-41.9	-42.8	21.9	0.00e+00	0	43	0	1451229184	54	4199
2026-01-27 07:03:35.60	353.10	24.03	-41.9	-42.7	22.0	0.00e+00	0	43	0	1454374912	54	4187
2026-01-27 07:03:36.61	352.86	23.94	-41.9	-42.7	22.0	0.00e+00	0	43	0	1457520640	54	4191
2026-01-27 07:03:37.61	352.63	23.86	-41.7	-42.5	22.1	0.00e+00	0	43	0	1460666368	54	4098
2026-01-27 07:03:38.62	352.40	23.77	-41.6	-42.4	22.2	0.00e+00	0	43	0	1463812096	53	4279
2026-01-27 07:03:39.63	352.16	23.68	-41.6	-42.4	22.3	0.00e+00	0	43	0	1466957824	53	4243
2026-01-27 07:03:40.64	351.93	23.60	-41.5	-42.3	22.3	0.00e+00	0	43	0	1470103552	53	4217
2026-01-27 07:03:41.65	351.70	23.51	-41.5	-42.3	22.3	0.00e+00	0	43	0	1473249280	53	4231
2026-01-27 07:03:42.65	351.47	23.42	-41.8	-42.6	22.1	0.00e+00	0	43	0	1476395008	54	4110
2026-01-27 07:03:43.66	351.25	23.34	-42.0	-42.8	21.9	0.00e+00	0	43	0	1479540736	54	4240
2026-01-27 07:03:44.66	351.02	23.25	-42.2	-43.1	21.6	0.00e+00	0	43	0	1482686464	55	4116
2026-01-27 07:03:45.67	350.80	23.16	-42.3	-43.2	21.6	0.00e+00	0	43	0	1485832192	55	4157
2026-01-27 07:03:46.68	350.57	23.07	-42.4	-43.3	21.5	0.00e+00	0	43	0	1488977920	55	4208
2026-01-27 07:03:47.68	350.35	22.99	-42.5	-43.4	21.4	0.00e+00	0	43	0	1492123648	55	4254
2026-01-27 07:03:48.69	350.13	22.90	-42.3	-43.2	21.5	0.00e+00	0	43	0	1495269376	55	4152
2026-01-27 07:03:49.70	349.91	22.81	-42.1	-43.0	21.7	0.00e+00	0	43	0	1498415104	55	4069
2026-01-27 07:03:50.71	349.69	22.72	-42.1	-42.9	21.8	0.00e+00	0	43	0	1501560832	54	4276
2026-01-27 07:03:51.72	349.47	22.63	-42.1	-43.0	21.7	0.00e+00	0	43	0	1504706560	54	4296
2026-01-27 07:03:52.73	349.26	22.55	-42.0	-42.8	21.9	0.00e+00	0	43	0	1507852288	54	4224
2026-01-27 07:03:53.74	349.04	22.46	-42.0	-42.8	21.9	0.00e+00	0	43	0	1510998016	54	4231
2026-01-27 07:03:54.74	348.83	22.37	-41.9	-42.7	21.9	0.00e+00	0	43	0	1514143744	54	4191
2026-01-27 07:03:55.74	348.62	22.28	-41.8	-42.7	21.9	0.00e+00	0	43	0	1517289472	54	4149
2026-01-27 07:03:56.75	348.41	22.19	-41.8	-42.6	22.1	0.00e+00	0	43	0	1520435200	54	4135
2026-01-27 07:03:57.76	348.20	22.10	-41.8	-42.6	22.0	0.00e+00	0	43	0	1523580928	54	4130
2026-01-27 07:03:58.77	347.99	22.01	-41.9	-42.7	21.9	0.00e+00	0	43	0	1526726656	54	4191
2026-01-27 07:03:59.77	347.78	21.92	-42.0	-42.8	21.9	0.00e+00	0	42	0	1529872384	54	4209
2026-01-27 07:04:00.78	347.57	21.83	-42.0	-42.8	21.9	0.00e+00	0	43	0	1533018112	54	4210
2026-01-27 07:04:01.78	347.37	21.75	-42.1	-42.9	21.8	0.00e+00	0	42	0	1536163840	54	4275
2026-01-27 07:04:02.79	347.17	21.66	-42.1	-42.9	21.8	0.00e+00	0	43	0	1539309568	54	4288
2026-01-27 07:04:03.80	346.96	21.57	-42.1	-42.9	21.8	0.00e+00	0	43	0	1542455296	54	4279
2026-01-27 07:04:04.81	346.76	21.48	-42.1	-43.0	21.7	0.00e+00	0	43	0	1545601024	54	4297
2026-01-27 07:04:05.81	346.56	21.39	-42.2	-43.0	21.7	0.00e+00	0	43	0	1548746752	54	4313
2026-01-27 07:04:06.82	346.36	21.30	-42.2	-43.1	21.7	0.00e+00	0	43	0	1551892480	55	4110
2026-01-27 07:04:07.83	346.16	21.21	-42.3	-43.2	21.5	0.00e+00	0	43	0	1555038208	55	4169
2026-01-27 07:04:08.84	345.97	21.12	-42.4	-43.2	21.5	0.00e+00	0	43	0	1558183936	55	4187
2026-01-27 07:04:09.85	345.77	21.03	-42.2	-43.1	21.6	0.00e+00	0	43	0	1561329664	55	4121
2026-01-27 07:04:10.85	345.58	20.94	-42.2	-43.1	21.6	0.00e+00	0	43	0	1564475392	55	4107
2026-01-27 07:04:11.86	345.38	20.85	-42.2	-43.1	21.6	0.00e+00	0	43	0	1567621120	55	4100
2026-01-27 07:04:12.87	345.19	20.76	-42.2	-43.1	21.7	0.00e+00	0	43	0	1570766848	55	4099
2026-01-27 07:04:13.87	345.00	20.67	-42.2	-43.1	21.6	0.00e+00	0	43	0	1573912576	55	4115
2026-01-27 07:04:14.87	344.81	20.58	-42.3	-43.1	21.6	0.00e+00	0	43	0	1577058304	55	4145
2026-01-27 07:04:15.88	344.62	20.49	-42.4	-43.3	21.5	0.00e+00	0	43	0	1580204032	55	4200
2026-01-27 07:04:16.89	344.43	20.40	-42.5	-43.3	21.4	0.00e+00	0	43	0	1583349760	55	4231
2026-01-27 07:04:17.90	344.25	20.31	-42.5	-43.3	21.4	0.00e+00	0	43	0	1586495488	55	4238
2026-01-27 07:04:18.90	344.06	20.22	-42.4	-43.3	21.4	0.00e+00	0	43	0	1589641216	55	4222
2026-01-27 07:04:19.91	343.88	20.13	-42.5	-43.4	21.4	0.00e+00	0	43	0	1592786944	55	4243
2026-01-27 07:04:20.91	343.70	20.04	-42.5	-43.4	21.3	0.00e+00	0	43	0	1595932672	55	4275
2026-01-27 07:04:21.92	343.51	19.95	-42.4	-43.3	21.5	0.00e+00	0	43	0	1599078400	55	4209
2026-01-27 07:04:22.93	343.33	19.86	-42.4	-43.2	21.5	0.00e+00	0	43	0	1602224128	55	4188
2026-01-27 07:04:23.93	343.15	19.77	-42.3	-43.1	21.6	0.00e+00	0	43	0	1605369856	55	4123
2026-01-27 07:04:24.94	342.97	19.68	-42.2	-43.1	21.6	0.00e+00	0	43	0	1608515584	55	4114
2026-01-27 07:04:25.95	342.80	19.59	-42.2	-43.1	21.6	0.00e+00	0	43	0	1611661312	55	4118
2026-01-27 07:04:26.96	342.62	19.50	-42.1	-42.9	21.7	0.00e+00	0	43	0	1614807040	55	4047
2026-01-27 07:04:27.97	342.44	19.41	-42.1	-42.9	21.7	0.00e+00	0	43	0	1617952768	55	4025
2026-01-27 07:04:28.97	342.27	19.32	-42.1	-42.9	21.7	0.00e+00	0	43	0	1621098496	55	4025
2026-01-27 07:04:29.98	342.09	19.23	-42.0	-42.8	21.8	0.00e+00	0	43	0	1624244224	55	3975
2026-01-27 07:04:30.99	341.92	19.14	-41.8	-42.7	21.9	0.00e+00	0	43	0	1627389952	54	4154
2026-01-27 07:04:31.99	341.75	19.05	-41.9	-42.8	21.8	0.00e+00	0	43	0	1630535680	54	4195
2026-01-27 07:04:33.00	341.58	18.96	-41.8	-42.7	21.9	0.00e+00	0	43	0	1633681408	54	4149
2026-01-27 07:04:34.01	341.41	18.87	-42.0	-42.8	21.8	0.00e+00	0	43	0	1636827136	54	4208
2026-01-27 07:04:35.01	341.24	18.78	-42.1	-42.9	21.7	0.00e+00	0	43	0	1639972864	54	4272
2026-01-27 07:04:36.02	341.07	18.69	-42.3	-43.1	21.5	0.00e+00	0	43	0	1643118592	55	4139
2026-01-27 07:04:37.03	340.91	18.60	-42.4	-43.3	21.4	0.00e+00	0	43	0	1646264320	55	4215
2026-01-27 07:04:38.03	340.74	18.51	-42.6	-43.5	21.2	0.00e+00	0	43	0	1649410048	55	4304
2026-01-27 07:04:39.04	340.58	18.42	-42.7	-43.6	21.1	0.00e+00	0	43	0	1652555776	55	4374
2026-01-27 07:04:40.05	340.41	18.33	-42.9	-43.8	21.0	0.00e+00	0	43	0	1655701504	56	4208
2026-01-27 07:04:41.06	340.25	18.25	-42.9	-43.9	21.0	0.00e+00	0	43	0	1658847232	56	4243
2026-01-27 07:04:42.06	340.09	18.16	-42.9	-43.8	20.9	0.00e+00	0	43	0	1661992960	56	4230
2026-01-27 07:04:43.07	339.93	18.07	-42.7	-43.6	21.1	0.00e+00	0	43	0	1665138688	56	4121
2026-01-27 07:04:44.08	339.77	17.98	-42.6	-43.5	21.2	0.00e+00	0	43	0	1668284416	56	4075
2026-01-27 07:04:45.09	339.61	17.89	-42.5	-43.4	21.3	0.00e+00	0	43	0	1671430144	55	4267
2026-01-27 07:04:46.10	339.45	17.80	-42.5	-43.4	21.3	0.00e+00	0	43	0	1674575872	55	4266
2026-01-27 07:04:47.11	339.29	17.71	-42.5	-43.3	21.3	0.00e+00	0	43	0	1677721600	55	4230
2026-01-27 07:04:48.11	339.14	17.62	-42.5	-43.4	21.3	0.00e+00	0	43	0	1680867328	55	4243
2026-01-27 07:04:49.12	338.98	17.54	-42.6	-43.5	21.2	0.00e+00	0	43	0	1684013056	55	4298
2026-01-27 07:04:50.13	338.83	17.45	-42.6	-43.4	21.2	0.00e+00	0	43	0	1687158784	55	4289
2026-01-27 07:04:51.13	338.68	17.36	-42.6	-43.5	21.2	0.00e+00	0	43	0	1690304512	55	4317
2026-01-27 07:04:52.14	338.53	17.27	-42.9	-43.9	21.0	0.00e+00	0	43	0	1693450240	56	4248
2026-01-27 07:04:53.15	338.37	17.18	-42.9	-43.8	21.0	0.00e+00	0	43	0	1696595968	56	4234
2026-01-27 07:04:54.16	338.22	17.10	-43.0	-43.9	20.9	0.00e+00	0	43	0	1699741696	56	4289
2026-01-27 07:04:55.17	338.07	17.01	-43.0	-43.9	20.9	0.00e+00	0	43	0	1702887424	56	4269
2026-01-27 07:04:56.17	337.92	16.92	-43.0	-44.0	20.8	0.00e+00	0	43	0	1706033152	56	4293
2026-01-27 07:04:57.18	337.78	16.83	-43.0	-43.9	20.9	0.00e+00	0	43	0	1709178880	56	4278
2026-01-27 07:04:58.19	337.63	16.74	-42.8	-43.7	21.1	0.00e+00	0	43	0	1712324608	56	4149
2026-01-27 07:04:59.20	337.48	16.66	-42.6	-43.5	21.3	0.00e+00	0	43	0	1715470336	56	4054
2026-01-27 07:05:00.21	337.34	16.57	-42.4	-43.2	21.4	0.00e+00	0	43	0	1718616064	55	4185
2026-01-27 07:05:01.21	337.19	16.48	-42.4	-43.2	21.4	0.00e+00	0	43	0	1721761792	55	4193
2026-01-27 07:05:02.22	337.05	16.40	-42.3	-43.2	21.4	0.00e+00	0	43	0	1724907520	54	4395
2026-01-27 07:05:03.23	336.91	16.31	-42.4	-43.3	21.4	0.00e+00	0	43	0	1728053248	55	4194
2026-01-27 07:05:04.23	336.77	16.22	-42.4	-43.3	21.3	0.00e+00	0	43	0	1731198976	55	4221
2026-01-27 07:05:05.24	336.62	16.14	-42.6	-43.5	21.2	0.00e+00	0	43	0	1734344704	55	4310
2026-01-27 07:05:06.25	336.48	16.05	-43.0	-43.9	20.9	0.00e+00	0	43	0	1737490432	56	4262
2026-01-27 07:05:07.25	336.35	15.96	-43.0	-44.0	20.9	0.00e+00	0	43	0	1740636160	56	4294
2026-01-27 07:05:08.26	336.21	15.88	-43.1	-44.1	20.8	0.00e+00	0	43	0	1743781888	56	4344
2026-01-27 07:05:09.27	336.07	15.79	-43.2	-44.2	20.7	0.00e+00	0	43	0	1746927616	56	4395
2026-01-27 07:05:10.27	335.93	15.71	-43.1	-44.0	20.8	0.00e+00	0	43	0	1750073344	56	4323
2026-01-27 07:05:11.28	335.80	15.62	-43.1	-44.0	20.8	0.00e+00	0	43	0	1753219072	56	4304
2026-01-27 07:05:12.29	335.66	15.53	-43.1	-44.0	20.8	0.00e+00	0	43	0	1756364800	56	4321
2026-01-27 07:05:13.29	335.53	15.45	-42.9	-43.8	21.0	0.00e+00	0	43	0	1759510528	56	4202
2026-01-27 07:05:14.30	335.39	15.36	-42.7	-43.5	21.1	0.00e+00	0	43	0	1762656256	55	4340
2026-01-27 07:05:15.31	335.26	15.28	-42.5	-43.4	21.2	0.00e+00	0	43	0	1765801984	55	4275
2026-01-27 07:05:16.31	335.13	15.19	-42.6	-43.5	21.1	0.00e+00	0	43	0	1768947712	55	4302
2026-01-27 07:05:17.32	335.00	15.11	-42.5	-43.3	21.3	0.00e+00	0	43	0	1772093440	55	4235
2026-01-27 07:05:18.33	334.87	15.02	-42.5	-43.3	21.3	0.00e+00	0	43	0	1775239168	55	4233
2026-01-27 07:05:19.34	334.74	14.94	-42.5	-43.3	21.3	0.00e+00	0	43	0	1778384896	55	4226
2026-01-27 07:05:20.35	334.61	14.85	-42.6	-43.5	21.2	0.00e+00	0	43	0	1781530624	55	4296
2026-01-27 07:05:21.35	334.48	14.77	-42.8	-43.7	21.0	0.00e+00	0	43	0	1784676352	56	4186
2026-01-27 07:05:22.36	334.35	14.69	-42.8	-43.7	21.0	0.00e+00	0	43	0	1787822080	56	4191
2026-01-27 07:05:23.37	334.22	14.60	-43.0	-44.0	20.8	0.00e+00	0	43	0	1790967808	56	4292
2026-01-27 07:05:24.38	334.10	14.52	-43.1	-44.1	20.7	0.00e+00	0	43	0	1794113536	56	4342
2026-01-27 07:05:25.38	333.97	14.43	-43.2	-44.1	20.6	0.00e+00	0	43	0	1797259264	56	4378
2026-01-27 07:05:26.39	333.85	14.35	-43.3	-44.3	20.5	0.00e+00	0	43	0	1800404992	57	4197
2026-01-27 07:05:27.40	333.72	14.27	-43.2	-44.2	20.6	0.00e+00	0	43	0	1803550720	57	4146
2026-01-27 07:05:28.40	333.60	14.18	-43.2	-44.1	20.6	0.00e+00	0	43	0	1806696448	56	4369
2026-01-27 07:05:29.41	333.48	14.10	-43.2	-44.1	20.6	0.00e+00	0	43	0	1809842176	56	4386
2026-01-27 07:05:30.42	333.36	14.02	-43.1	-44.1	20.6	0.00e+00	0	43	0	1812987904	56	4343
2026-01-27 07:05:31.43	333.23	13.93	-42.9	-43.8	20.8	0.00e+00	0	43	0	1816133632	56	4227
2026-01-27 07:05:32.44	333.11	13.85	-42.7	-43.6	21.0	0.00e+00	0	43	0	1819279360	56	4132
2026-01-27 07:05:33.44	332.99	13.77	-42.7	-43.5	21.0	0.00e+00	0	43	0	1822425088	56	4098
2026-01-27 07:05:34.45	332.88	13.69	-42.5	-43.3	21.2	0.00e+00	0	43	0	1825570816	55	4238
2026-01-27 07:05:35.45	332.76	13.61	-42.4	-43.3	21.2	0.00e+00	0	43	0	1828716544	55	4200
2026-01-27 07:05:36.46	332.64	13.52	-42.4	-43.2	21.3	0.00e+00	0	43	0	1831862272	55	4191
2026-01-27 07:05:37.47	332.52	13.44	-42.5	-43.3	21.2	0.00e+00	0	43	0	1835008000	55	4237
2026-01-27 07:05:38.48	332.41	13.36	-42.5	-43.4	21.2	0.00e+00	0	43	0	1838153728	55	4243
2026-01-27 07:05:39.48	332.29	13.28	-42.5	-43.3	21.2	0.00e+00	0	43	0	1841299456	55	4240
2026-01-27 07:05:40.49	332.17	13.20	-42.6	-43.5	21.1	0.00e+00	0	43	0	1844445184	55	4314
2026-01-27 07:05:41.50	332.06	13.11	-42.8	-43.7	20.9	0.00e+00	0	43	0	1847590912	56	4193
2026-01-27 07:05:42.51	331.95	13.03	-43.1	-44.0	20.7	0.00e+00	0	43	0	1850736640	56	4306
2026-01-27 07:05:43.52	331.83	12.95	-43.1	-44.1	20.6	0.00e+00	0	43	0	1853882368	56	4352
2026-01-27 07:05:44.52	331.72	12.87	-43.3	-44.3	20.4	0.00e+00	0	43	0	1857028096	57	4212
2026-01-27 07:05:45.52	331.61	12.79	-43.5	-44.5	20.3	0.00e+00	0	43	0	1860173824	57	4313
2026-01-27 07:05:46.53	331.50	12.71	-43.6	-44.6	20.2	0.00e+00	0	43	0	1863319552	57	4356
2026-01-27 07:05:47.54	331.39	12.63	-43.6	-44.6	20.1	0.00e+00	0	43	0	1866465280	57	4388
2026-01-27 07:05:48.55	331.28	12.55	-43.7	-44.7	20.0	0.00e+00	0	43	0	1869611008	57	4418
2026-01-27 07:05:49.56	331.17	12.47	-43.7	-44.7	20.0	0.00e+00	0	43	0	1872756736	58	4172
2026-01-27 07:05:50.57	331.06	12.39	-43.7	-44.7	20.0	0.00e+00	0	43	0	1875902464	58	4154
2026-01-27 07:05:51.58	330.95	12.31	-43.8	-44.8	19.9	0.00e+00	0	43	0	1879048192	58	4241
2026-01-27 07:05:52.58	330.84	12.23	-43.6	-44.6	20.1	0.00e+00	0	43	0	1882193920	58	4131
2026-01-27 07:05:53.59	330.74	12.15	-43.6	-44.6	20.1	0.00e+00	0	43	0	1885339648	58	4139
2026-01-27 07:05:54.60	330.63	12.07	-43.6	-44.6	20.1	0.00e+00	0	43	0	1888485376	57	4353
2026-01-27 07:05:55.60	330.52	11.99	-43.5	-44.5	20.1	0.00e+00	0	43	0	1891631104	57	4321
2026-01-27 07:05:56.61	330.42	11.91	-43.3	-44.3	20.4	0.00e+00	0	43	0	1894776832	57	4206
2026-01-27 07:05:57.62	330.31	11.83	-43.4	-44.3	20.3	0.00e+00	0	43	0	1897922560	57	4233
2026-01-27 07:05:58.63	330.21	11.76	-43.3	-44.2	20.4	0.00e+00	0	43	0	1901068288	57	4192
2026-01-27 07:05:59.63	330.11	11.68	-43.4	-44.4	20.3	0.00e+00	0	43	0	1904214016	57	4257
2026-01-27 07:06:00.64	330.00	11.60	-43.3	-44.3	20.4	0.00e+00	0	43	0	1907359744	57	4194
2026-01-27 07:06:01.65	329.90	11.52	-43.4	-44.3	20.3	0.00e+00	0	43	0	1910505472	57	4224
2026-01-27 07:06:02.66	329.80	11.44	-43.6	-44.5	20.1	0.00e+00	0	43	0	1913651200	57	4340
2026-01-27 07:06:03.67	329.70	11.36	-43.5	-44.5	20.2	0.00e+00	0	43	0	1916796928	57	4312
2026-01-27 07:06:04.67	329.60	11.29	-43.6	-44.6	20.0	0.00e+00	0	43	0	1919942656	57	4377
2026-01-27 07:06:05.68	329.50	11.21	-43.7	-44.7	19.9	0.00e+00	0	43	0	1923088384	58	4186
2026-01-27 07:06:06.69	329.40	11.13	-43.9	-44.9	19.8	0.00e+00	0	43	0	1926234112	58	4278
2026-01-27 07:06:07.70	329.30	11.05	-44.0	-45.1	19.6	0.00e+00	0	43	0	1929379840	58	4367
2026-01-27 07:06:08.70	329.20	10.98	-44.2	-45.3	19.3	0.00e+00	0	43	0	1932525568	58	4455
2026-01-27 07:06:09.71	329.10	10.90	-44.2	-45.3	19.4	0.00e+00	0	43	0	1935671296	58	4446
2026-01-27 07:06:10.71	329.00	10.82	-44.3	-45.4	19.3	0.00e+00	0	43	0	1938817024	59	4274
2026-01-27 07:06:11.72	328.91	10.75	-44.4	-45.5	19.2	0.00e+00	0	43	0	1941962752	59	4313
2026-01-27 07:06:12.73	328.81	10.67	-44.3	-45.4	19.3	0.00e+00	0	43	0	1945108480	59	4264
2026-01-27 07:06:13.74	328.71	10.59	-44.3	-45.4	19.3	0.00e+00	0	43	0	1948254208	59	4269
2026-01-27 07:06:14.74	328.62	10.52	-44.3	-45.4	19.3	0.00e+00	0	43	0	1951399936	59	4256
2026-01-27 07:06:15.75	328.52	10.44	-44.3	-45.4	19.3	0.00e+00	0	43	0	1954545664	59	4243
2026-01-27 07:06:16.76	328.43	10.37	-44.1	-45.1	19.5	0.00e+00	0	43	0	1957691392	59	4135
2026-01-27 07:06:17.77	328.34	10.29	-44.1	-45.2	19.4	0.00e+00	0	43	0	1960837120	58	4405
2026-01-27 07:06:18.78	328.24	10.21	-44.2	-45.3	19.3	0.00e+00	0	43	0	1963982848	59	4218
2026-01-27 07:06:19.78	328.15	10.14	-44.2	-45.3	19.3	0.00e+00	0	43	0	1967128576	59	4216
2026-01-27 07:06:20.79	328.06	10.06	-44.0	-45.1	19.5	0.00e+00	0	43	0	1970274304	58	4342
2026-01-27 07:06:21.79	327.97	9.99	-43.8	-44.8	19.7	0.00e+00	0	43	0	1973420032	58	4236
2026-01-27 07:06:22.80	327.88	9.91	-43.8	-44.9	19.7	0.00e+00	0	43	0	1976565760	58	4251
2026-01-27 07:06:23.81	327.78	9.84	-44.0	-45.0	19.5	0.00e+00	0	43	0	1979711488	58	4326
2026-01-27 07:06:24.82	327.69	9.76	-43.9	-44.9	19.7	0.00e+00	0	43	0	1982857216	58	4267
2026-01-27 07:06:25.82	327.60	9.69	-44.0	-45.0	19.6	0.00e+00	0	43	0	1986002944	58	4327
2026-01-27 07:06:26.83	327.51	9.62	-44.0	-45.1	19.5	0.00e+00	0	43	0	1989148672	58	4359
2026-01-27 07:06:27.84	327.43	9.54	-43.9	-45.0	19.6	0.00e+00	0	43	0	1992294400	58	4293
2026-01-27 07:06:28.85	327.34	9.47	-44.2	-45.2	19.4	0.00e+00	0	43	0	1995440128	58	4440
2026-01-27 07:06:29.85	327.25	9.39	-44.1	-45.2	19.4	0.00e+00	0	43	0	1998585856	58	4434
2026-01-27 07:06:30.86	327.16	9.32	-44.2	-45.3	19.3	0.00e+00	0	43	0	2001731584	59	4236
2026-01-27 07:06:31.86	327.07	9.25	-44.4	-45.5	19.1	0.00e+00	0	43	0	2004877312	59	4316
2026-01-27 07:06:32.87	326.99	9.17	-44.4	-45.6	19.0	0.00e+00	0	43	0	2008023040	59	4353
2026-01-27 07:06:33.87	326.90	9.10	-44.6	-45.7	18.9	0.00e+00	0	43	0	2011168768	59	4440
2026-01-27 07:06:34.88	326.82	9.03	-44.6	-45.8	18.9	0.00e+00	0	43	0	2014314496	59	4453
2026-01-27 07:06:35.89	326.73	8.95	-44.4	-45.6	18.7	0.00e+00	0	43	0	2017460224	60	4103
2026-01-27 07:06:36.89	326.65	8.88	-44.4	-45.6	18.7	0.00e+00	0	43	0	2020605952	60	4126
2026-01-27 07:06:37.90	326.56	8.81	-44.4	-45.5	18.8	0.00e+00	0	43	0	2023751680	60	4091
2026-01-27 07:06:38.91	326.48	8.74	-44.4	-45.6	18.7	0.00e+00	0	43	0	2026897408	60	4112
2026-01-27 07:06:39.91	326.39	8.66	-44.5	-45.7	18.6	0.00e+00	0	43	0	2030043136	60	4166
2026-01-27 07:06:40.92	326.31	8.59	-44.5	-45.7	18.5	0.00e+00	0	43	0	2033188864	60	4185
2026-01-27 07:06:41.93	326.23	8.52	-44.5	-45.7	18.5	0.00e+00	0	43	0	2036334592	60	4190
