passes_logs/2026/01/27/R3.2S_Murmansk/R3.2S_Murmansk__20260127_215551_JL1KF02B04_rec.log

#Pass ID: 20260127_215551_JL1KF02B04
#Satellite: JL1KF02B04
#Configuration: 01B_900M
#almurnet v.1.7.20251203
#Start time: 2026-01-27 21:55:52

#Version: 2.2.20231116
#Station: R3.2S_Murmansk
#Location: 33.079688 lon 68.888172 lat
#TLE: 1 61189U 24169A   26026.84397647  .00007462  00000+0  46757-3 0  9991
#TLE: 2 61189  97.5621 118.4131 0007706 130.6672 229.5228 15.09619028 74508

#Time	Az	El	Level	Level2	SNR	BER	BlckErr	Temp	State	Recorded	gain1	gain2
2026-01-27 21:55:52.46	215.55	2.04	-54.7	-56.8	6.2	0.00e+00	0	43	0	0	80	18922
2026-01-27 21:55:53.47	215.65	2.10	-54.7	-56.8	6.2	0.00e+00	0	44	104	0	80	18959
2026-01-27 21:55:54.47	215.75	2.16	-54.7	-56.8	6.2	0.00e+00	0	44	104	0	80	18828
2026-01-27 21:55:55.49	215.85	2.22	-54.7	-56.7	6.2	0.00e+00	0	44	104	0	80	18817
2026-01-27 21:55:56.49	215.95	2.28	-54.7	-56.7	6.2	0.00e+00	0	44	104	0	80	18758
2026-01-27 21:55:57.50	216.05	2.34	-54.7	-56.7	6.2	0.00e+00	0	44	104	0	80	18815
2026-01-27 21:55:58.51	216.15	2.39	-54.7	-56.8	6.2	0.00e+00	0	44	104	0	80	18852
2026-01-27 21:55:59.52	216.25	2.45	-54.9	-56.9	6.2	0.00e+00	0	44	104	0	80	19253
2026-01-27 21:56:00.52	216.35	2.51	-54.9	-57.0	6.2	0.00e+00	0	44	104	0	80	19379
2026-01-27 21:56:01.53	216.46	2.57	-54.9	-57.0	6.2	0.00e+00	0	44	104	0	80	19436
2026-01-27 21:56:02.54	216.56	2.63	-54.9	-57.0	6.2	0.00e+00	0	44	104	0	80	19432
2026-01-27 21:56:03.55	216.66	2.69	-54.9	-57.0	6.2	0.00e+00	0	44	104	0	80	19411
2026-01-27 21:56:04.55	216.76	2.75	-54.9	-57.0	6.2	0.00e+00	0	44	104	0	80	19297
2026-01-27 21:56:05.56	216.87	2.81	-54.8	-56.9	6.2	0.00e+00	0	44	104	0	80	19215
2026-01-27 21:56:06.57	216.97	2.87	-54.8	-56.9	6.2	0.00e+00	0	44	104	0	80	19095
2026-01-27 21:56:07.57	217.08	2.93	-54.8	-56.8	6.2	0.00e+00	0	44	104	0	80	19013
2026-01-27 21:56:08.58	217.18	2.99	-54.7	-56.8	6.2	0.00e+00	0	44	104	0	80	18964
2026-01-27 21:56:09.59	217.29	3.05	-54.7	-56.8	6.2	0.00e+00	0	44	104	0	80	18838
2026-01-27 21:56:10.60	217.40	3.11	-54.6	-56.7	6.2	0.00e+00	0	44	104	0	80	18755
2026-01-27 21:56:11.61	217.50	3.17	-54.6	-56.7	6.2	0.00e+00	0	44	104	0	80	18693
2026-01-27 21:56:12.61	217.61	3.23	-54.5	-56.6	6.2	0.00e+00	0	44	104	0	80	18493
2026-01-27 21:56:13.62	217.72	3.29	-54.4	-56.5	6.2	0.00e+00	0	44	104	0	80	18374
2026-01-27 21:56:14.63	217.83	3.35	-54.4	-56.5	6.2	0.00e+00	0	44	104	0	80	18224
2026-01-27 21:56:15.63	217.94	3.41	-54.3	-56.4	6.2	0.00e+00	0	44	104	0	80	18044
2026-01-27 21:56:16.64	218.05	3.47	-54.2	-56.3	6.2	0.00e+00	0	44	104	0	80	17857
2026-01-27 21:56:17.65	218.16	3.54	-54.1	-56.2	6.2	0.00e+00	0	44	104	0	80	17662
2026-01-27 21:56:18.66	218.27	3.60	-54.0	-56.1	6.2	0.00e+00	0	44	104	0	80	17469
2026-01-27 21:56:19.66	218.38	3.66	-53.9	-56.0	6.2	0.00e+00	0	44	104	0	79	18222
2026-01-27 21:56:20.67	218.49	3.72	-53.5	-55.7	6.2	0.00e+00	0	44	104	0	79	17634
2026-01-27 21:56:21.68	218.61	3.78	-53.3	-55.4	6.2	0.00e+00	0	45	104	0	78	18090
2026-01-27 21:56:22.69	218.72	3.84	-53.3	-55.4	6.2	0.00e+00	0	44	104	0	78	18075
2026-01-27 21:56:23.69	218.83	3.90	-53.3	-55.4	6.2	0.00e+00	0	45	104	0	78	18015
2026-01-27 21:56:24.70	218.95	3.97	-53.3	-55.4	6.2	0.00e+00	0	44	104	0	78	18041
2026-01-27 21:56:25.71	219.06	4.03	-53.3	-55.4	6.2	0.00e+00	0	44	104	0	78	18004
2026-01-27 21:56:26.72	219.18	4.09	-53.3	-55.3	6.2	0.00e+00	0	44	104	0	78	17958
2026-01-27 21:56:27.72	219.29	4.15	-53.3	-55.4	6.2	0.00e+00	0	45	104	0	78	18002
2026-01-27 21:56:28.73	219.41	4.21	-53.3	-55.3	6.2	0.00e+00	0	45	104	0	78	17951
2026-01-27 21:56:29.74	219.53	4.28	-53.3	-55.3	6.2	0.00e+00	0	45	104	0	78	17951
2026-01-27 21:56:30.75	219.65	4.34	-53.3	-55.3	6.2	0.00e+00	0	45	104	0	78	17958
2026-01-27 21:56:31.76	219.76	4.40	-53.2	-55.3	6.2	0.00e+00	0	45	104	0	78	17935
2026-01-27 21:56:32.77	219.88	4.46	-53.2	-55.3	6.2	0.00e+00	0	45	104	0	78	17968
2026-01-27 21:56:33.77	220.00	4.52	-53.2	-55.3	6.2	0.00e+00	0	45	104	0	78	17971
2026-01-27 21:56:34.78	220.12	4.59	-53.2	-55.3	6.2	0.00e+00	0	45	104	0	78	17937
2026-01-27 21:56:35.79	220.24	4.65	-53.2	-55.3	6.2	0.00e+00	0	45	104	0	78	17964
2026-01-27 21:56:36.80	220.37	4.71	-53.2	-55.3	6.2	0.00e+00	0	45	104	0	78	17957
2026-01-27 21:56:37.80	220.49	4.78	-53.2	-55.3	6.2	0.00e+00	0	45	104	0	78	17962
2026-01-27 21:56:38.81	220.61	4.84	-53.2	-55.3	6.2	0.00e+00	0	45	104	0	78	17918
2026-01-27 21:56:39.82	220.73	4.90	-53.2	-55.3	6.2	0.00e+00	0	45	104	0	78	17935
2026-01-27 21:56:40.82	220.86	4.97	-53.2	-55.3	6.2	0.00e+00	0	45	104	0	78	17940
2026-01-27 21:56:41.83	220.98	5.03	-53.2	-55.3	6.2	0.00e+00	0	45	104	0	78	17888
2026-01-27 21:56:42.84	221.11	5.09	-53.3	-55.4	6.2	0.00e+00	0	45	104	0	78	17997
2026-01-27 21:56:43.85	221.23	5.16	-53.2	-55.3	6.2	0.00e+00	0	45	104	0	78	17816
2026-01-27 21:56:44.86	221.36	5.22	-53.4	-55.5	6.2	0.00e+00	0	45	104	0	78	18228
2026-01-27 21:56:45.86	221.49	5.28	-53.3	-55.4	6.2	0.00e+00	0	45	104	0	78	18082
2026-01-27 21:56:46.87	221.61	5.35	-53.2	-55.3	6.2	0.00e+00	0	45	104	0	78	17925
2026-01-27 21:56:47.88	221.74	5.41	-53.2	-55.3	6.2	0.00e+00	0	45	104	0	78	17804
2026-01-27 21:56:48.88	221.87	5.47	-53.3	-55.4	6.2	0.00e+00	0	45	104	0	78	18172
2026-01-27 21:56:49.89	222.00	5.54	-53.3	-55.4	6.2	0.00e+00	0	45	104	0	78	18033
2026-01-27 21:56:50.90	222.13	5.60	-53.2	-55.3	6.2	0.00e+00	0	45	104	0	78	17832
2026-01-27 21:56:51.91	222.26	5.67	-53.1	-55.3	6.2	0.00e+00	0	45	104	0	78	17766
2026-01-27 21:56:52.91	222.39	5.73	-53.3	-55.4	6.2	0.00e+00	0	45	104	0	78	18083
2026-01-27 21:56:53.92	222.53	5.80	-53.3	-55.4	6.2	0.00e+00	0	45	104	0	78	17984
2026-01-27 21:56:54.93	222.66	5.86	-53.2	-55.3	6.2	0.00e+00	0	45	104	0	78	17795
2026-01-27 21:56:55.94	222.80	5.93	-53.1	-55.2	6.2	0.00e+00	0	45	104	0	78	17695
2026-01-27 21:56:56.94	222.93	5.99	-53.3	-55.4	6.2	0.00e+00	0	45	104	0	78	18076
2026-01-27 21:56:57.95	223.06	6.06	-53.2	-55.3	6.2	0.00e+00	0	45	104	0	78	17924
2026-01-27 21:56:58.96	223.20	6.12	-53.2	-55.3	6.2	0.00e+00	0	45	104	0	78	17785
2026-01-27 21:56:59.96	223.34	6.19	-53.1	-55.2	6.2	0.00e+00	0	45	104	0	78	17753
2026-01-27 21:57:00.96	223.47	6.25	-53.3	-55.4	6.2	0.00e+00	0	45	104	0	78	18057
2026-01-27 21:57:01.97	223.61	6.32	-53.2	-55.3	6.2	0.00e+00	0	45	104	0	78	17893
2026-01-27 21:57:02.97	223.75	6.38	-53.2	-55.3	6.2	0.00e+00	0	45	104	0	78	17808
2026-01-27 21:57:03.98	223.89	6.45	-53.1	-55.2	6.2	0.00e+00	0	45	104	0	78	17691
2026-01-27 21:57:04.99	224.03	6.51	-53.3	-55.4	6.2	0.00e+00	0	45	104	0	78	18017
2026-01-27 21:57:06.00	224.17	6.58	-53.2	-55.3	6.2	0.00e+00	0	45	104	0	78	17857
2026-01-27 21:57:07.01	224.31	6.64	-53.2	-55.3	6.2	0.00e+00	0	45	104	0	78	17767
2026-01-27 21:57:08.01	224.46	6.71	-53.1	-55.2	6.2	0.00e+00	0	45	104	0	78	17701
2026-01-27 21:57:09.02	224.60	6.77	-53.3	-55.4	6.2	0.00e+00	0	45	104	0	78	18023
2026-01-27 21:57:10.03	224.75	6.84	-53.2	-55.3	6.2	0.00e+00	0	45	104	0	78	17950
2026-01-27 21:57:11.03	224.89	6.91	-53.2	-55.3	6.2	0.00e+00	0	45	104	0	78	17800
2026-01-27 21:57:12.03	225.03	6.97	-53.1	-55.2	6.2	0.00e+00	0	45	104	0	78	17758
2026-01-27 21:57:13.04	225.18	7.04	-53.3	-55.4	6.2	0.00e+00	0	45	104	0	78	18029
2026-01-27 21:57:14.05	225.33	7.10	-53.2	-55.3	6.2	0.00e+00	0	45	104	0	78	17919
2026-01-27 21:57:15.06	225.48	7.17	-53.2	-55.3	6.2	0.00e+00	0	45	104	0	78	17789
2026-01-27 21:57:16.06	225.62	7.24	-53.1	-55.3	6.2	0.00e+00	0	45	104	0	78	17766
2026-01-27 21:57:17.07	225.78	7.30	-53.3	-55.4	6.2	0.00e+00	0	45	104	0	78	17994
2026-01-27 21:57:18.08	225.93	7.37	-53.2	-55.3	6.2	0.00e+00	0	45	104	0	78	17870
2026-01-27 21:57:19.09	226.08	7.44	-53.2	-55.3	6.2	0.00e+00	0	45	104	0	78	17802
2026-01-27 21:57:20.09	226.23	7.50	-53.2	-55.2	6.2	0.00e+00	0	45	104	0	78	17729
2026-01-27 21:57:21.10	226.38	7.57	-53.3	-55.4	6.2	0.00e+00	0	45	104	0	78	18022
2026-01-27 21:57:22.10	226.53	7.64	-53.2	-55.4	6.2	0.00e+00	0	45	104	0	78	17999
2026-01-27 21:57:23.11	226.69	7.70	-53.2	-55.3	6.2	0.00e+00	0	46	104	0	78	17816
2026-01-27 21:57:24.12	226.85	7.77	-53.2	-55.3	6.2	0.00e+00	0	45	104	0	78	17777
2026-01-27 21:57:25.13	227.00	7.84	-53.3	-55.4	6.2	0.00e+00	0	45	104	0	78	18022
2026-01-27 21:57:26.14	227.16	7.91	-53.2	-55.3	6.2	0.00e+00	0	46	104	0	78	17912
2026-01-27 21:57:27.14	227.32	7.97	-53.2	-55.3	6.2	0.00e+00	0	45	104	0	78	17872
2026-01-27 21:57:28.15	227.48	8.04	-53.2	-55.3	6.2	0.00e+00	0	46	104	0	78	17796
2026-01-27 21:57:29.15	227.64	8.11	-53.3	-55.4	6.2	0.00e+00	0	46	104	0	78	18019
2026-01-27 21:57:30.16	227.80	8.17	-53.2	-55.3	6.2	0.00e+00	0	46	104	0	78	17928
2026-01-27 21:57:31.17	227.96	8.24	-53.2	-55.3	6.2	0.00e+00	0	46	104	0	78	17900
2026-01-27 21:57:32.18	228.12	8.31	-53.2	-55.3	6.2	0.00e+00	0	45	104	0	78	17817
2026-01-27 21:57:33.18	228.28	8.38	-53.3	-55.4	6.2	0.00e+00	0	45	104	0	78	17974
2026-01-27 21:57:34.19	228.45	8.44	-53.2	-55.3	6.2	0.00e+00	0	46	104	0	78	17912
2026-01-27 21:57:35.19	228.61	8.51	-53.2	-55.3	6.2	0.00e+00	0	45	104	0	78	17863
2026-01-27 21:57:36.20	228.78	8.58	-53.2	-55.3	6.2	0.00e+00	0	46	104	0	78	17794
2026-01-27 21:57:37.21	228.95	8.65	-53.3	-55.3	6.2	0.00e+00	0	46	104	0	78	17960
2026-01-27 21:57:38.21	229.11	8.72	-53.2	-55.3	6.2	0.00e+00	0	45	104	0	78	17921
2026-01-27 21:57:39.22	229.28	8.78	-52.1	-53.6	6.3	0.00e+00	0	46	104	0	76	16537
2026-01-27 21:57:40.23	229.45	8.85	-51.9	-53.4	6.3	0.00e+00	0	46	104	0	75	17070
2026-01-27 21:57:41.24	229.62	8.92	-52.0	-53.6	6.2	0.00e+00	0	46	104	0	75	17466
2026-01-27 21:57:42.24	229.79	8.99	-52.1	-53.7	6.2	0.00e+00	0	46	104	0	75	17608
2026-01-27 21:57:43.25	229.97	9.06	-52.1	-53.8	6.3	0.00e+00	0	46	104	0	75	17844
2026-01-27 21:57:44.27	230.14	9.12	-52.1	-53.7	6.2	0.00e+00	0	46	104	0	75	17684
2026-01-27 21:57:45.27	230.31	9.19	-53.1	-55.1	6.2	0.00e+00	0	46	104	0	76	19698
2026-01-27 21:57:46.28	230.49	9.26	-52.7	-54.6	6.2	0.00e+00	0	46	104	0	76	18437
2026-01-27 21:57:47.29	230.67	9.33	-52.8	-54.7	6.2	0.00e+00	0	46	104	0	76	18785
2026-01-27 21:57:48.29	230.84	9.40	-52.3	-54.0	6.2	0.00e+00	0	46	104	0	76	17236
2026-01-27 21:57:49.30	231.02	9.47	-52.4	-54.1	6.2	0.00e+00	0	46	104	0	76	17409
2026-01-27 21:57:50.30	231.20	9.53	-52.2	-53.9	6.3	0.00e+00	0	46	104	0	76	16995
2026-01-27 21:57:51.30	231.38	9.60	-52.2	-53.8	6.2	0.00e+00	0	46	104	0	76	16944
2026-01-27 21:57:52.31	231.56	9.67	-51.7	-53.2	6.3	0.00e+00	0	46	104	0	75	16633
2026-01-27 21:57:53.32	231.74	9.74	-53.1	-55.1	6.2	0.00e+00	0	46	104	0	77	18502
2026-01-27 21:57:54.33	231.92	9.81	-52.3	-53.9	6.3	0.00e+00	0	46	104	0	76	17074
2026-01-27 21:57:55.34	232.11	9.88	-52.4	-54.0	6.2	0.00e+00	0	46	104	0	75	18373
2026-01-27 21:57:56.35	232.30	9.95	-29.4	-29.2	17.6	1.90e-06	0	46	0	25165824	30	14045
2026-01-27 21:57:57.35	232.48	10.01	-29.1	-28.9	17.7	1.90e-06	0	46	0	134217728	30	13569
2026-01-27 21:57:58.36	232.67	10.08	-29.2	-29.0	17.5	0.00e+00	0	46	0	260046848	30	13705
2026-01-27 21:57:59.37	232.86	10.15	-28.8	-28.7	17.7	0.00e+00	0	46	0	369098752	29	13980
2026-01-27 21:58:00.38	233.05	10.22	-28.6	-28.5	17.9	0.00e+00	0	46	0	486539264	29	13698
2026-01-27 21:58:01.39	233.24	10.29	-28.5	-28.4	18.0	0.00e+00	0	46	0	595591168	29	13480
2026-01-27 21:58:02.40	233.43	10.36	-28.5	-28.4	17.9	0.00e+00	0	46	0	713031680	29	13526
2026-01-27 21:58:03.41	233.62	10.43	-28.4	-28.3	17.9	1.90e-06	0	46	0	822083584	28	14118
2026-01-27 21:58:04.42	233.81	10.49	-28.4	-28.3	17.9	0.00e+00	0	46	0	931135488	28	14142
2026-01-27 21:58:05.43	234.01	10.56	-28.4	-28.3	18.0	0.00e+00	0	46	0	1048576000	28	14120
2026-01-27 21:58:06.44	234.21	10.63	-28.2	-28.1	18.1	0.00e+00	0	46	0	1157627904	28	13804
2026-01-27 21:58:07.44	234.40	10.70	-28.4	-28.2	18.1	0.00e+00	0	46	0	1275068416	28	14078
2026-01-27 21:58:08.45	234.60	10.77	-28.3	-28.1	18.1	0.00e+00	0	46	0	1384120320	28	13879
2026-01-27 21:58:09.46	234.80	10.84	-28.2	-28.1	18.0	0.00e+00	0	46	0	1493172224	28	13793
2026-01-27 21:58:10.47	235.00	10.91	-28.2	-28.1	18.0	0.00e+00	0	46	0	1619001344	28	13802
2026-01-27 21:58:11.47	235.20	10.97	-28.1	-27.9	18.0	0.00e+00	0	46	0	1736441856	28	13587
2026-01-27 21:58:12.48	235.40	11.04	-28.1	-28.0	18.0	0.00e+00	0	46	0	1845493760	28	13671
2026-01-27 21:58:13.49	235.60	11.11	-28.2	-28.0	18.0	0.00e+00	0	46	0	1954545664	28	13707
2026-01-27 21:58:14.50	235.81	11.18	-28.1	-27.9	18.2	0.00e+00	0	46	0	2071986176	27	14349
2026-01-27 21:58:15.51	236.01	11.25	-28.2	-28.1	18.0	0.00e+00	0	46	0	2181038080	27	14654
2026-01-27 21:58:16.51	236.22	11.31	-28.1	-27.9	18.2	0.00e+00	0	46	0	2298478592	27	14426
2026-01-27 21:58:17.52	236.43	11.38	-28.1	-27.9	18.2	0.00e+00	0	46	0	2407530496	27	14410
2026-01-27 21:58:18.53	236.64	11.45	-28.1	-27.9	18.2	0.00e+00	0	46	0	2516582400	27	14424
2026-01-27 21:58:19.53	236.84	11.52	-28.1	-28.0	18.2	0.00e+00	0	46	0	2634022912	27	14499
2026-01-27 21:58:20.54	237.06	11.59	-28.2	-28.1	18.1	0.00e+00	0	46	0	2743074816	27	14656
2026-01-27 21:58:21.55	237.27	11.66	-28.0	-27.8	18.3	0.00e+00	0	46	0	2860515328	27	14260
2026-01-27 21:58:22.55	237.48	11.72	-28.0	-27.8	18.3	0.00e+00	0	46	0	2969567232	27	14270
2026-01-27 21:58:23.56	237.69	11.79	-28.0	-27.8	18.2	0.00e+00	0	46	0	3095396352	27	14201
2026-01-27 21:58:24.57	237.91	11.86	-28.0	-27.9	18.1	0.00e+00	0	46	0	3204448256	27	14298
2026-01-27 21:58:25.57	238.13	11.93	-28.0	-27.8	18.3	0.00e+00	0	46	0	3321888768	27	14250
2026-01-27 21:58:26.58	238.34	11.99	-27.9	-27.7	18.3	0.00e+00	0	46	0	3430940672	27	14035
2026-01-27 21:58:27.59	238.56	12.06	-27.9	-27.7	18.3	0.00e+00	0	46	0	3539992576	27	14054
2026-01-27 21:58:28.59	238.78	12.13	-27.9	-27.7	18.4	0.00e+00	0	46	0	3657433088	27	14026
2026-01-27 21:58:29.59	239.00	12.19	-27.9	-27.7	18.4	0.00e+00	0	46	0	3766484992	27	14074
2026-01-27 21:58:30.60	239.22	12.26	-27.9	-27.7	18.3	0.00e+00	0	46	0	3883925504	27	14038
2026-01-27 21:58:31.61	239.45	12.33	-27.8	-27.7	18.1	0.00e+00	0	46	0	3992977408	27	13964
2026-01-27 21:58:32.61	239.67	12.39	-27.8	-27.6	18.2	0.00e+00	0	46	0	4110417920	27	13921
2026-01-27 21:58:33.62	239.90	12.46	-27.8	-27.7	18.2	0.00e+00	0	46	0	4219469824	27	13958
2026-01-27 21:58:34.63	240.12	12.53	-27.8	-27.6	18.3	0.00e+00	0	46	0	4328521728	27	13877
2026-01-27 21:58:35.64	240.35	12.60	-27.7	-27.5	18.2	0.00e+00	0	47	0	4445962240	27	13742
2026-01-27 21:58:36.64	240.58	12.66	-27.8	-27.6	18.0	0.00e+00	0	46	0	4555014144	27	13875
2026-01-27 21:58:37.65	240.81	12.73	-27.7	-27.6	18.1	0.00e+00	0	46	0	4672454656	27	13840
2026-01-27 21:58:38.66	241.04	12.79	-27.7	-27.6	18.0	0.00e+00	0	47	0	4789895168	27	13806
2026-01-27 21:58:39.66	241.27	12.86	-27.8	-27.7	17.8	0.00e+00	0	46	0	4907335680	27	13998
2026-01-27 21:58:40.67	241.51	12.92	-27.8	-27.6	17.9	0.00e+00	0	46	0	5016387584	27	13856
2026-01-27 21:58:41.68	241.75	12.99	-27.7	-27.6	17.9	0.00e+00	0	46	0	5133828096	27	13814
2026-01-27 21:58:42.68	241.98	13.06	-27.8	-27.7	17.7	0.00e+00	0	46	0	5242880000	27	13972
2026-01-27 21:58:43.69	242.22	13.12	-27.8	-27.6	17.7	0.00e+00	0	47	0	5351931904	27	13944
2026-01-27 21:58:44.69	242.46	13.19	-27.7	-27.6	17.8	0.00e+00	0	47	0	5469372416	27	13832
2026-01-27 21:58:45.70	242.70	13.25	-27.8	-27.6	17.6	0.00e+00	0	46	0	5578424320	27	13902
2026-01-27 21:58:46.71	242.94	13.32	-27.8	-27.6	17.6	0.00e+00	0	47	0	5695864832	27	13833
2026-01-27 21:58:47.72	243.18	13.38	-27.6	-27.5	17.7	0.00e+00	0	46	0	5804916736	27	13645
2026-01-27 21:58:48.73	243.43	13.44	-27.7	-27.5	17.7	0.00e+00	0	47	0	5913968640	27	13745
2026-01-27 21:58:49.73	243.67	13.51	-27.6	-27.4	17.6	0.00e+00	0	46	0	6031409152	27	13580
2026-01-27 21:58:50.74	243.92	13.57	-27.6	-27.4	17.7	0.00e+00	0	47	0	6140461056	27	13543
2026-01-27 21:58:51.75	244.16	13.64	-27.6	-27.4	17.6	1.90e-06	0	46	0	6257901568	27	13546
2026-01-27 21:58:52.75	244.41	13.70	-27.5	-27.4	17.6	1.90e-06	0	47	0	6366953472	27	13493
2026-01-27 21:58:53.76	244.66	13.76	-27.7	-27.5	17.6	0.00e+00	0	47	0	6492782592	27	13683
2026-01-27 21:58:54.77	244.91	13.82	-27.5	-27.4	17.4	0.00e+00	0	47	0	6601834496	27	13519
2026-01-27 21:58:55.77	245.16	13.89	-27.5	-27.4	17.4	0.00e+00	0	47	0	6719275008	26	14279
2026-01-27 21:58:56.78	245.42	13.95	-27.5	-27.4	17.3	1.90e-06	0	47	0	6828326912	26	14317
2026-01-27 21:58:57.79	245.67	14.01	-27.5	-27.4	17.3	0.00e+00	0	47	0	6945767424	26	14278
2026-01-27 21:58:58.80	245.93	14.07	-27.4	-27.2	17.5	0.00e+00	0	47	0	7054819328	26	14065
2026-01-27 21:58:59.81	246.19	14.14	-27.5	-27.3	17.3	0.00e+00	0	47	0	7163871232	26	14222
2026-01-27 21:59:00.82	246.44	14.20	-27.5	-27.3	17.1	0.00e+00	0	47	0	7281311744	26	14244
2026-01-27 21:59:01.83	246.70	14.26	-27.5	-27.3	17.2	0.00e+00	0	46	0	7390363648	26	14212
2026-01-27 21:59:02.84	246.97	14.32	-27.3	-27.2	17.4	0.00e+00	0	47	0	7507804160	26	13991
2026-01-27 21:59:03.85	247.23	14.38	-27.4	-27.3	17.4	0.00e+00	0	47	0	7616856064	26	14131
2026-01-27 21:59:04.85	247.49	14.44	-27.4	-27.2	17.1	0.00e+00	0	47	0	7725907968	26	14010
2026-01-27 21:59:05.86	247.75	14.50	-27.3	-27.1	17.2	0.00e+00	0	47	0	7851737088	26	13861
2026-01-27 21:59:06.87	248.02	14.56	-27.3	-27.1	17.2	1.90e-06	0	47	0	7969177600	26	13909
2026-01-27 21:59:07.88	248.29	14.62	-27.3	-27.1	17.3	0.00e+00	0	47	0	8078229504	26	13912
2026-01-27 21:59:08.88	248.55	14.68	-27.2	-27.0	17.1	0.00e+00	0	47	0	8187281408	26	13751
2026-01-27 21:59:09.89	248.82	14.74	-27.1	-27.0	17.0	3.80e-06	0	47	0	8304721920	26	13651
2026-01-27 21:59:10.89	249.09	14.79	-27.2	-27.0	17.0	0.00e+00	0	47	0	8413773824	26	13703
2026-01-27 21:59:11.90	249.36	14.85	-27.2	-27.0	16.9	1.90e-06	0	47	0	8531214336	26	13774
2026-01-27 21:59:12.91	249.64	14.91	-27.1	-26.9	17.1	0.00e+00	0	47	0	8640266240	26	13596
2026-01-27 21:59:13.91	249.91	14.96	-27.1	-26.9	16.9	0.00e+00	0	47	0	8749318144	26	13628
2026-01-27 21:59:14.92	250.19	15.02	-27.1	-27.0	16.9	1.90e-06	0	47	0	8866758656	26	13648
2026-01-27 21:59:15.92	250.46	15.08	-27.1	-27.0	16.7	0.00e+00	0	47	0	8975810560	26	13640
2026-01-27 21:59:16.93	250.74	15.13	-27.1	-26.9	16.8	0.00e+00	0	47	0	9093251072	26	13628
2026-01-27 21:59:17.94	251.02	15.19	-27.0	-26.8	16.7	1.90e-06	0	47	0	9202302976	25	14160
2026-01-27 21:59:18.95	251.30	15.24	-26.9	-26.7	16.5	1.90e-06	0	47	0	9311354880	25	14029
2026-01-27 21:59:19.95	251.58	15.30	-26.9	-26.8	16.6	0.00e+00	0	47	0	9428795392	25	14145
2026-01-27 21:59:20.96	251.86	15.35	-26.9	-26.8	16.7	0.00e+00	0	47	0	9554624512	25	14162
2026-01-27 21:59:21.97	252.14	15.41	-26.9	-26.7	16.6	0.00e+00	0	47	0	9663676416	25	14082
2026-01-27 21:59:22.98	252.43	15.46	-27.0	-26.8	16.6	0.00e+00	0	47	0	9772728320	25	14189
2026-01-27 21:59:23.99	252.72	15.51	-26.9	-26.8	16.5	1.90e-06	0	47	0	9890168832	25	14138
2026-01-27 21:59:24.99	253.00	15.56	-26.9	-26.7	16.4	0.00e+00	0	47	0	9999220736	25	14031
2026-01-27 21:59:26.00	253.29	15.62	-26.9	-26.7	16.5	0.00e+00	0	47	0	10116661248	25	14092
2026-01-27 21:59:27.01	253.58	15.67	-26.9	-26.7	16.4	0.00e+00	0	47	0	10225713152	25	14015
2026-01-27 21:59:28.01	253.87	15.72	-26.9	-26.7	16.4	0.00e+00	0	47	0	10343153664	25	14044
2026-01-27 21:59:29.03	254.16	15.77	-26.9	-26.7	16.3	0.00e+00	0	47	0	10452205568	25	14069
2026-01-27 21:59:30.03	254.45	15.82	-26.9	-26.7	16.2	0.00e+00	0	47	0	10561257472	25	14025
2026-01-27 21:59:31.03	254.74	15.87	-26.8	-26.6	16.0	0.00e+00	0	47	0	10678697984	25	13904
2026-01-27 21:59:32.04	255.04	15.92	-26.8	-26.6	16.1	0.00e+00	0	47	0	10787749888	25	13924
2026-01-27 21:59:33.04	255.33	15.96	-26.8	-26.6	16.1	9.50e-06	0	47	0	10905190400	25	13903
2026-01-27 21:59:34.05	255.63	16.01	-26.8	-26.6	16.0	1.90e-06	0	47	0	11014242304	25	13933
2026-01-27 21:59:35.05	255.92	16.06	-26.7	-26.5	15.8	0.00e+00	0	47	0	11123294208	25	13773
2026-01-27 21:59:36.05	256.22	16.11	-26.7	-26.5	15.9	1.90e-06	0	47	0	11240734720	25	13738
2026-01-27 21:59:37.06	256.52	16.15	-26.7	-26.5	15.9	3.80e-06	0	47	0	11366563840	25	13707
2026-01-27 21:59:38.07	256.82	16.20	-26.7	-26.6	15.7	3.80e-06	0	47	0	11475615744	25	13799
2026-01-27 21:59:39.07	257.12	16.24	-26.8	-26.6	15.6	1.90e-06	0	47	0	11584667648	25	13877
2026-01-27 21:59:40.08	257.42	16.29	-26.8	-26.6	15.8	3.80e-06	0	47	0	11702108160	25	13854
2026-01-27 21:59:41.08	257.73	16.33	-26.6	-26.5	15.8	3.80e-06	0	47	0	11811160064	25	13642
2026-01-27 21:59:42.09	258.03	16.37	-26.6	-26.5	15.6	1.90e-06	0	47	0	11928600576	25	13683
2026-01-27 21:59:43.10	258.34	16.42	-26.8	-26.6	15.5	1.90e-06	0	47	0	12037652480	25	13859
2026-01-27 21:59:44.11	258.65	16.46	-26.6	-26.5	15.6	1.90e-06	0	47	0	12146704384	25	13677
2026-01-27 21:59:45.11	258.95	16.50	-26.7	-26.5	15.7	1.90e-06	0	47	0	12264144896	25	13760
2026-01-27 21:59:46.12	259.26	16.54	-26.6	-26.5	15.5	1.90e-06	0	47	0	12373196800	25	13680
2026-01-27 21:59:47.13	259.57	16.58	-26.7	-26.5	15.5	3.80e-06	0	47	0	12490637312	25	13773
2026-01-27 21:59:48.14	259.88	16.62	-26.8	-26.6	15.5	1.90e-06	0	47	0	12599689216	25	13891
2026-01-27 21:59:49.14	260.19	16.66	-26.7	-26.6	15.7	1.90e-06	0	47	0	12708741120	25	13798
2026-01-27 21:59:50.15	260.50	16.70	-26.6	-26.5	15.8	1.90e-06	0	47	0	12826181632	25	13633
2026-01-27 21:59:51.15	260.82	16.74	-26.6	-26.4	15.7	1.90e-06	0	47	0	12935233536	25	13578
2026-01-27 21:59:52.16	261.13	16.77	-26.6	-26.5	15.7	5.70e-06	0	47	0	13061062656	25	13662
2026-01-27 21:59:53.17	261.45	16.81	-26.6	-26.5	15.8	3.80e-06	0	47	0	13170114560	25	13668
2026-01-27 21:59:54.18	261.76	16.84	-26.6	-26.4	15.9	3.80e-06	0	47	0	13287555072	25	13617
2026-01-27 21:59:55.19	262.08	16.88	-26.6	-26.5	16.0	0.00e+00	0	47	0	13396606976	25	13639
2026-01-27 21:59:56.19	262.40	16.91	-26.7	-26.5	15.9	0.00e+00	0	47	0	13514047488	25	13748
2026-01-27 21:59:57.20	262.71	16.95	-26.7	-26.5	16.0	1.90e-06	0	47	0	13623099392	25	13774
2026-01-27 21:59:58.20	263.03	16.98	-26.6	-26.4	16.1	3.80e-06	0	47	0	13740539904	25	13514
2026-01-27 21:59:59.21	263.35	17.01	-26.5	-26.3	16.3	0.00e+00	0	47	0	13849591808	25	13475
2026-01-27 22:00:00.22	263.67	17.04	-26.6	-26.5	16.1	1.90e-06	0	47	0	13958643712	25	13640
2026-01-27 22:00:01.22	263.99	17.07	-26.6	-26.4	16.2	1.90e-06	0	47	0	14076084224	25	13616
2026-01-27 22:00:02.23	264.31	17.10	-26.6	-26.4	16.3	0.00e+00	0	47	0	14185136128	25	13533
2026-01-27 22:00:03.24	264.64	17.13	-26.6	-26.4	16.3	0.00e+00	0	47	0	14302576640	25	13614
2026-01-27 22:00:04.25	264.96	17.16	-26.6	-26.4	16.2	0.00e+00	0	47	0	14411628544	25	13586
2026-01-27 22:00:05.26	265.29	17.19	-26.6	-26.4	16.3	3.80e-06	0	47	0	14537457664	25	13610
2026-01-27 22:00:06.26	265.61	17.21	-26.7	-26.5	16.4	0.00e+00	0	47	0	14646509568	25	13687
2026-01-27 22:00:07.27	265.94	17.24	-26.7	-26.6	16.4	1.90e-06	0	47	0	14763950080	25	13824
2026-01-27 22:00:08.28	266.26	17.27	-26.7	-26.5	16.5	0.00e+00	0	47	0	14873001984	25	13748
2026-01-27 22:00:09.29	266.59	17.29	-26.7	-26.5	16.5	0.00e+00	0	47	0	14982053888	25	13681
2026-01-27 22:00:10.29	266.91	17.31	-26.7	-26.6	16.4	0.00e+00	0	47	0	15099494400	25	13800
2026-01-27 22:00:11.30	267.24	17.34	-26.7	-26.5	16.6	0.00e+00	0	47	0	15208546304	25	13692
2026-01-27 22:00:12.31	267.57	17.36	-26.8	-26.6	16.8	0.00e+00	0	47	0	15325986816	25	13870
2026-01-27 22:00:13.31	267.90	17.38	-26.6	-26.5	17.0	0.00e+00	0	47	0	15435038720	25	13669
2026-01-27 22:00:14.33	268.23	17.40	-26.6	-26.5	17.0	0.00e+00	0	47	0	15544090624	25	13644
2026-01-27 22:00:15.33	268.56	17.42	-26.7	-26.5	16.9	0.00e+00	0	47	0	15661531136	25	13703
2026-01-27 22:00:16.34	268.89	17.44	-26.6	-26.5	17.1	0.00e+00	0	47	0	15770583040	25	13641
2026-01-27 22:00:17.35	269.22	17.46	-26.7	-26.5	17.1	0.00e+00	0	47	0	15888023552	25	13754
2026-01-27 22:00:18.36	269.55	17.47	-26.6	-26.5	17.2	0.00e+00	0	47	0	16005464064	25	13652
2026-01-27 22:00:19.37	269.88	17.49	-26.6	-26.5	17.4	0.00e+00	0	47	0	16122904576	25	13661
2026-01-27 22:00:20.38	270.22	17.51	-26.7	-26.5	17.3	0.00e+00	0	47	0	16231956480	25	13711
2026-01-27 22:00:21.39	270.55	17.52	-26.7	-26.5	17.3	1.90e-06	0	47	0	16349396992	25	13764
2026-01-27 22:00:22.39	270.88	17.54	-26.7	-26.5	17.5	0.00e+00	0	47	0	16458448896	25	13790
2026-01-27 22:00:23.40	271.21	17.55	-26.7	-26.6	17.5	0.00e+00	0	47	0	16567500800	25	13824
2026-01-27 22:00:24.41	271.55	17.56	-26.9	-26.7	17.5	0.00e+00	0	47	0	16684941312	25	13995
2026-01-27 22:00:25.42	271.88	17.57	-26.8	-26.6	17.8	0.00e+00	0	47	0	16793993216	25	13900
2026-01-27 22:00:26.43	272.22	17.58	-26.8	-26.7	17.8	0.00e+00	0	47	0	16911433728	25	13961
2026-01-27 22:00:27.44	272.55	17.59	-26.9	-26.7	17.8	0.00e+00	0	47	0	17020485632	25	14099
2026-01-27 22:00:28.44	272.88	17.60	-26.9	-26.7	17.9	0.00e+00	0	47	0	17137926144	25	14037
2026-01-27 22:00:29.45	273.22	17.61	-26.9	-26.7	18.0	0.00e+00	0	47	0	17246978048	25	14040
2026-01-27 22:00:30.46	273.56	17.62	-26.9	-26.7	18.1	0.00e+00	0	47	0	17372807168	25	14091
2026-01-27 22:00:31.47	273.89	17.62	-26.9	-26.7	18.2	0.00e+00	0	47	0	17481859072	25	14099
2026-01-27 22:00:32.47	274.22	17.63	-26.9	-26.7	18.3	0.00e+00	0	47	0	17599299584	25	14032
2026-01-27 22:00:33.48	274.56	17.63	-26.9	-26.7	18.4	0.00e+00	0	47	0	17708351488	25	14104
2026-01-27 22:00:34.49	274.90	17.64	-27.0	-26.8	18.3	0.00e+00	0	47	0	17817403392	25	14272
2026-01-27 22:00:35.49	275.23	17.64	-27.0	-26.9	18.4	0.00e+00	0	47	0	17934843904	25	14309
2026-01-27 22:00:36.50	275.56	17.64	-26.9	-26.7	18.6	0.00e+00	0	47	0	18043895808	25	14074
2026-01-27 22:00:37.51	275.90	17.64	-27.0	-26.8	18.7	0.00e+00	0	47	0	18161336320	25	14187
2026-01-27 22:00:38.52	276.24	17.64	-27.0	-26.8	18.7	0.00e+00	0	47	0	18270388224	25	14186
2026-01-27 22:00:39.52	276.57	17.64	-26.9	-26.8	18.9	0.00e+00	0	47	0	18379440128	25	14126
2026-01-27 22:00:40.53	276.91	17.64	-26.9	-26.7	18.9	0.00e+00	0	47	0	18496880640	25	14054
2026-01-27 22:00:41.54	277.24	17.64	-27.0	-26.8	19.0	0.00e+00	0	47	0	18605932544	25	14171
2026-01-27 22:00:42.54	277.57	17.64	-26.9	-26.8	19.1	0.00e+00	0	47	0	18723373056	25	14133
2026-01-27 22:00:43.55	277.91	17.63	-27.0	-26.8	19.1	0.00e+00	0	47	0	18832424960	25	14230
2026-01-27 22:00:44.56	278.25	17.63	-27.1	-26.9	19.2	0.00e+00	0	47	0	18941476864	25	14333
2026-01-27 22:00:45.56	278.58	17.62	-27.0	-26.8	19.3	0.00e+00	0	47	0	19067305984	25	14199
2026-01-27 22:00:46.56	278.91	17.62	-27.0	-26.8	19.4	0.00e+00	0	47	0	19184746496	25	14251
2026-01-27 22:00:47.57	279.25	17.61	-27.2	-27.0	19.2	0.00e+00	0	47	0	19293798400	25	14591
2026-01-27 22:00:48.57	279.58	17.60	-27.1	-26.9	19.4	0.00e+00	0	47	0	19402850304	25	14392
2026-01-27 22:00:49.58	279.91	17.59	-27.2	-27.0	19.4	0.00e+00	0	47	0	19520290816	25	14528
2026-01-27 22:00:50.58	280.24	17.58	-27.2	-27.0	19.4	0.00e+00	0	47	0	19629342720	25	14543
2026-01-27 22:00:51.59	280.58	17.57	-27.1	-27.0	19.5	0.00e+00	0	47	0	19746783232	25	14460
2026-01-27 22:00:52.60	280.91	17.56	-27.1	-27.0	19.5	0.00e+00	0	47	0	19855835136	25	14458
2026-01-27 22:00:53.61	281.25	17.55	-27.2	-27.1	19.5	0.00e+00	0	47	0	19973275648	25	14619
2026-01-27 22:00:54.62	281.58	17.53	-27.2	-27.0	19.7	0.00e+00	0	47	0	20082327552	25	14573
2026-01-27 22:00:55.63	281.91	17.52	-27.3	-27.1	19.7	0.00e+00	0	47	0	20191379456	25	14729
2026-01-27 22:00:56.64	282.25	17.50	-27.3	-27.1	19.7	0.00e+00	0	47	0	20308819968	25	14679
2026-01-27 22:00:57.65	282.58	17.49	-27.3	-27.1	19.8	0.00e+00	0	47	0	20417871872	25	14729
2026-01-27 22:00:58.66	282.91	17.47	-27.2	-27.1	19.8	0.00e+00	0	47	0	20543700992	25	14628
2026-01-27 22:00:59.67	283.24	17.45	-27.4	-27.2	19.8	0.00e+00	0	47	0	20652752896	25	14884
2026-01-27 22:01:00.67	283.57	17.44	-27.3	-27.2	19.8	0.00e+00	0	47	0	20770193408	25	14820
2026-01-27 22:01:01.67	283.90	17.42	-27.4	-27.2	19.8	0.00e+00	0	47	0	20879245312	25	14850
2026-01-27 22:01:02.68	284.23	17.40	-27.4	-27.2	19.8	0.00e+00	0	47	0	20996685824	25	14910
2026-01-27 22:01:03.69	284.56	17.38	-27.4	-27.2	19.8	0.00e+00	0	47	0	21105737728	25	14829
2026-01-27 22:01:04.70	284.89	17.36	-27.4	-27.2	19.8	0.00e+00	0	47	0	21214789632	25	14865
2026-01-27 22:01:05.71	285.22	17.33	-27.4	-27.2	19.8	0.00e+00	0	47	0	21332230144	25	14943
2026-01-27 22:01:06.71	285.54	17.31	-27.4	-27.2	19.8	0.00e+00	0	47	0	21441282048	25	14898
2026-01-27 22:01:07.71	285.86	17.29	-27.4	-27.3	19.7	0.00e+00	0	47	0	21558722560	25	14957
2026-01-27 22:01:08.72	286.19	17.26	-27.3	-27.2	19.7	0.00e+00	0	47	0	21667774464	25	14787
2026-01-27 22:01:09.73	286.52	17.24	-27.5	-27.3	19.6	0.00e+00	0	47	0	21776826368	25	15045
2026-01-27 22:01:10.74	286.84	17.21	-27.5	-27.3	19.6	0.00e+00	0	47	0	21894266880	25	15051
2026-01-27 22:01:11.74	287.17	17.18	-27.5	-27.3	19.6	0.00e+00	0	47	0	22003318784	25	15105
2026-01-27 22:01:12.75	287.49	17.16	-27.6	-27.4	19.4	0.00e+00	0	47	0	22120759296	25	15292
2026-01-27 22:01:13.75	287.81	17.13	-27.5	-27.3	19.5	0.00e+00	0	47	0	22229811200	25	15116
2026-01-27 22:01:14.76	288.13	17.10	-27.6	-27.4	19.5	0.00e+00	0	47	0	22355640320	25	15240
2026-01-27 22:01:15.77	288.46	17.07	-27.7	-27.5	19.4	0.00e+00	0	47	0	22464692224	25	15416
2026-01-27 22:01:16.78	288.78	17.04	-27.8	-27.6	19.4	0.00e+00	0	47	0	22582132736	26	14681
2026-01-27 22:01:17.79	289.10	17.01	-27.8	-27.7	19.3	0.00e+00	0	47	0	22691184640	26	14813
2026-01-27 22:01:18.79	289.41	16.98	-27.9	-27.7	19.3	0.00e+00	0	47	0	22800236544	26	14868
2026-01-27 22:01:19.80	289.73	16.94	-28.0	-27.9	19.0	0.00e+00	0	47	0	22917677056	26	15123
2026-01-27 22:01:20.81	290.05	16.91	-27.8	-27.7	19.1	0.00e+00	0	47	0	23026728960	26	14834
2026-01-27 22:01:21.81	290.37	16.87	-27.9	-27.7	19.1	0.00e+00	0	47	0	23144169472	26	14911
2026-01-27 22:01:22.82	290.68	16.84	-28.0	-27.9	18.9	0.00e+00	0	47	0	23253221376	26	15123
2026-01-27 22:01:23.83	291.00	16.80	-27.9	-27.7	18.8	0.00e+00	0	47	0	23370661888	26	14933
2026-01-27 22:01:24.84	291.31	16.77	-28.0	-27.8	18.8	0.00e+00	0	47	0	23479713792	26	15045
2026-01-27 22:01:25.84	291.63	16.73	-28.0	-27.9	18.7	0.00e+00	0	47	0	23588765696	26	15145
2026-01-27 22:01:26.85	291.94	16.69	-28.1	-27.9	18.7	0.00e+00	0	47	0	23706206208	26	15251
2026-01-27 22:01:27.86	292.25	16.66	-28.1	-27.9	18.4	0.00e+00	0	47	0	23832035328	26	15208
2026-01-27 22:01:28.87	292.56	16.62	-28.0	-27.9	18.6	0.00e+00	0	47	0	23941087232	26	15168
2026-01-27 22:01:29.88	292.87	16.58	-28.1	-27.9	18.6	0.00e+00	0	47	0	24050139136	26	15207
2026-01-27 22:01:30.89	293.18	16.54	-28.2	-28.0	18.4	0.00e+00	0	47	0	24167579648	26	15391
2026-01-27 22:01:31.89	293.49	16.50	-28.1	-28.0	18.5	0.00e+00	0	47	0	24276631552	27	14491
2026-01-27 22:01:32.90	293.80	16.45	-28.1	-28.0	18.5	0.00e+00	0	47	0	24394072064	27	14503
2026-01-27 22:01:33.91	294.10	16.41	-28.3	-28.2	18.3	0.00e+00	0	47	0	24503123968	27	14784
2026-01-27 22:01:34.92	294.41	16.37	-28.2	-28.0	18.3	0.00e+00	0	47	0	24612175872	27	14554
2026-01-27 22:01:35.93	294.71	16.33	-28.1	-28.0	18.3	0.00e+00	0	47	0	24729616384	27	14532
2026-01-27 22:01:36.93	295.02	16.28	-28.2	-28.1	18.3	0.00e+00	0	47	0	24838668288	27	14653
2026-01-27 22:01:37.94	295.32	16.24	-28.1	-28.0	18.3	0.00e+00	0	47	0	24956108800	27	14441
2026-01-27 22:01:38.94	295.62	16.19	-28.3	-28.1	18.1	0.00e+00	0	47	0	25065160704	27	14690
2026-01-27 22:01:39.95	295.92	16.15	-28.3	-28.2	18.1	0.00e+00	0	47	0	25174212608	27	14778
2026-01-27 22:01:40.96	296.22	16.10	-28.4	-28.2	17.9	0.00e+00	0	47	0	25300041728	27	14886
2026-01-27 22:01:41.97	296.52	16.05	-28.3	-28.1	17.9	0.00e+00	0	47	0	25417482240	27	14755
2026-01-27 22:01:42.97	296.81	16.01	-28.3	-28.2	17.9	1.90e-06	0	47	0	25526534144	27	14846
2026-01-27 22:01:43.98	297.11	15.96	-28.3	-28.2	17.8	0.00e+00	0	47	0	25635586048	27	14792
2026-01-27 22:01:44.99	297.40	15.91	-28.2	-28.1	17.9	0.00e+00	0	47	0	25753026560	27	14630
2026-01-27 22:01:46.00	297.70	15.86	-28.4	-28.2	17.8	0.00e+00	0	47	0	25862078464	27	14855
2026-01-27 22:01:47.01	297.99	15.81	-28.2	-28.1	17.7	1.90e-06	0	47	0	25979518976	27	14679
2026-01-27 22:01:48.01	298.28	15.76	-28.3	-28.2	17.8	0.00e+00	0	47	0	26088570880	27	14822
2026-01-27 22:01:49.02	298.57	15.71	-28.3	-28.2	17.9	0.00e+00	0	47	0	26197622784	27	14803
2026-01-27 22:01:50.03	298.86	15.66	-28.2	-28.1	17.9	0.00e+00	0	47	0	26315063296	27	14665
2026-01-27 22:01:51.03	299.15	15.61	-28.3	-28.2	17.9	0.00e+00	0	47	0	26424115200	27	14839
2026-01-27 22:01:52.04	299.44	15.56	-28.4	-28.2	18.2	0.00e+00	0	47	0	26541555712	27	14845
2026-01-27 22:01:53.04	299.72	15.51	-28.3	-28.1	18.3	0.00e+00	0	47	0	26650607616	27	14769
2026-01-27 22:01:54.05	300.01	15.45	-28.3	-28.2	18.4	0.00e+00	0	47	0	26768048128	27	14786
2026-01-27 22:01:55.06	300.29	15.40	-28.3	-28.2	18.4	0.00e+00	0	47	0	26877100032	27	14790
2026-01-27 22:01:56.06	300.57	15.35	-28.4	-28.3	18.3	0.00e+00	0	47	0	27002929152	27	14987
2026-01-27 22:01:57.07	300.85	15.29	-28.3	-28.1	18.4	0.00e+00	0	47	0	27111981056	27	14752
2026-01-27 22:01:58.08	301.13	15.24	-28.3	-28.1	18.3	0.00e+00	0	47	0	27229421568	27	14774
2026-01-27 22:01:59.09	301.41	15.18	-28.4	-28.2	18.3	0.00e+00	0	47	0	27338473472	27	14916
2026-01-27 22:02:00.09	301.69	15.13	-28.7	-28.5	18.3	0.00e+00	0	47	0	27447525376	27	15375
2026-01-27 22:02:01.10	301.97	15.07	-28.4	-28.3	18.3	0.00e+00	0	47	0	27564965888	27	14950
2026-01-27 22:02:02.10	302.24	15.02	-28.5	-28.3	18.4	0.00e+00	0	47	0	27674017792	27	15025
2026-01-27 22:02:03.11	302.51	14.96	-28.3	-28.2	18.6	0.00e+00	0	47	0	27791458304	27	14784
2026-01-27 22:02:04.12	302.79	14.90	-28.3	-28.2	18.6	0.00e+00	0	47	0	27900510208	27	14778
2026-01-27 22:02:05.12	303.06	14.85	-28.3	-28.1	18.5	0.00e+00	0	47	0	28009562112	27	14738
2026-01-27 22:02:06.13	303.33	14.79	-28.4	-28.3	18.5	0.00e+00	0	47	0	28127002624	27	14969
2026-01-27 22:02:07.13	303.60	14.73	-28.3	-28.2	18.4	0.00e+00	0	47	0	28236054528	27	14820
2026-01-27 22:02:08.14	303.87	14.67	-28.4	-28.2	18.4	0.00e+00	0	47	0	28353495040	27	14911
2026-01-27 22:02:09.15	304.13	14.62	-28.6	-28.4	18.2	0.00e+00	0	47	0	28462546944	27	15253
2026-01-27 22:02:10.16	304.40	14.56	-28.5	-28.3	18.3	0.00e+00	0	47	0	28571598848	27	15079
2026-01-27 22:02:11.16	304.66	14.50	-28.4	-28.2	18.4	0.00e+00	0	47	0	28697427968	27	14927
2026-01-27 22:02:12.17	304.93	14.44	-28.4	-28.3	18.4	0.00e+00	0	47	0	28814868480	27	14956
2026-01-27 22:02:13.17	305.19	14.38	-28.5	-28.4	18.3	0.00e+00	0	47	0	28923920384	27	15144
2026-01-27 22:02:14.18	305.45	14.32	-28.5	-28.3	18.4	0.00e+00	0	47	0	29032972288	27	15112
2026-01-27 22:02:15.19	305.71	14.26	-28.5	-28.3	18.5	1.90e-06	0	47	0	29150412800	28	14225
2026-01-27 22:02:16.20	305.97	14.20	-28.4	-28.3	18.5	0.00e+00	0	47	0	29259464704	28	14132
2026-01-27 22:02:17.21	306.23	14.14	-28.5	-28.4	18.3	0.00e+00	0	47	0	29376905216	28	14344
2026-01-27 22:02:18.22	306.48	14.07	-28.6	-28.4	18.4	0.00e+00	0	47	0	29485957120	28	14347
2026-01-27 22:02:19.23	306.74	14.01	-28.6	-28.4	18.4	0.00e+00	0	47	0	29595009024	28	14330
2026-01-27 22:02:20.23	306.99	13.95	-28.6	-28.4	18.4	0.00e+00	0	47	0	29712449536	28	14383
2026-01-27 22:02:21.24	307.25	13.89	-28.6	-28.4	18.4	0.00e+00	0	47	0	29821501440	28	14342
2026-01-27 22:02:22.24	307.50	13.83	-28.6	-28.4	18.4	0.00e+00	0	47	0	29938941952	28	14418
2026-01-27 22:02:23.25	307.75	13.76	-28.7	-28.5	18.4	0.00e+00	0	47	0	30047993856	28	14509
2026-01-27 22:02:24.26	308.00	13.70	-28.6	-28.4	18.3	0.00e+00	0	47	0	30173822976	28	14433
2026-01-27 22:02:25.27	308.24	13.64	-28.6	-28.4	18.4	0.00e+00	0	47	0	30282874880	28	14407
2026-01-27 22:02:26.28	308.49	13.57	-28.7	-28.5	18.3	0.00e+00	0	47	0	30400315392	28	14538
2026-01-27 22:02:27.28	308.74	13.51	-28.7	-28.6	18.2	0.00e+00	0	47	0	30509367296	28	14676
2026-01-27 22:02:28.29	308.98	13.45	-28.7	-28.6	18.2	0.00e+00	0	47	0	30626807808	28	14653
2026-01-27 22:02:29.30	309.22	13.38	-28.8	-28.6	18.1	0.00e+00	0	47	0	30735859712	28	14770
2026-01-27 22:02:30.29	309.46	13.32	-28.9	-28.7	18.2	0.00e+00	0	47	0	30844911616	28	14852
2026-01-27 22:02:31.30	309.70	13.25	-28.8	-28.6	18.1	0.00e+00	0	47	0	30962352128	28	14769
2026-01-27 22:02:32.31	309.94	13.19	-28.9	-28.8	18.0	0.00e+00	0	47	0	31071404032	28	15009
2026-01-27 22:02:33.32	310.18	13.12	-28.8	-28.6	18.1	0.00e+00	0	47	0	31188844544	28	14678
2026-01-27 22:02:34.33	310.42	13.06	-28.9	-28.7	18.0	0.00e+00	0	47	0	31297896448	28	14890
2026-01-27 22:02:35.33	310.65	12.99	-28.8	-28.7	18.0	1.90e-06	0	47	0	31406948352	28	14817
2026-01-27 22:02:36.34	310.89	12.93	-28.9	-28.8	17.9	0.00e+00	0	47	0	31524388864	28	14958
2026-01-27 22:02:37.35	311.12	12.86	-29.1	-28.9	17.8	0.00e+00	0	47	0	31633440768	28	15258
2026-01-27 22:02:38.35	311.35	12.80	-29.0	-28.9	17.8	0.00e+00	0	47	0	31750881280	28	15166
2026-01-27 22:02:39.36	311.58	12.73	-29.1	-29.0	17.7	1.90e-06	0	47	0	31868321792	29	14467
2026-01-27 22:02:40.37	311.81	12.67	-29.0	-28.9	17.8	3.80e-06	0	47	0	31985762304	29	14326
2026-01-27 22:02:41.38	312.04	12.60	-29.0	-28.8	17.9	0.00e+00	0	47	0	32094814208	29	14193
2026-01-27 22:02:42.39	312.27	12.53	-29.1	-28.9	17.8	0.00e+00	0	47	0	32212254720	29	14415
2026-01-27 22:02:43.40	312.50	12.47	-29.1	-28.9	17.8	0.00e+00	0	47	0	32321306624	29	14382
2026-01-27 22:02:44.41	312.72	12.40	-29.2	-29.0	17.7	1.90e-06	0	47	0	32430358528	29	14599
2026-01-27 22:02:45.41	312.95	12.33	-29.2	-29.0	17.8	0.00e+00	0	47	0	32547799040	29	14503
2026-01-27 22:02:46.42	313.17	12.27	-29.1	-29.0	17.8	1.90e-06	0	47	0	32656850944	29	14492
2026-01-27 22:02:47.43	313.39	12.20	-29.2	-29.1	17.7	1.90e-06	0	47	0	32774291456	29	14668
2026-01-27 22:02:48.44	313.61	12.13	-29.3	-29.1	17.7	0.00e+00	0	47	0	32883343360	29	14764
2026-01-27 22:02:49.45	313.83	12.07	-29.3	-29.2	17.7	0.00e+00	0	47	0	32992395264	29	14786
2026-01-27 22:02:50.45	314.05	12.00	-29.5	-29.4	17.6	0.00e+00	0	47	0	33109835776	29	15152
2026-01-27 22:02:51.46	314.27	11.93	-29.4	-29.2	17.7	1.90e-06	0	47	0	33235664896	29	14923
2026-01-27 22:02:52.47	314.48	11.87	-29.3	-29.1	17.7	0.00e+00	0	47	0	33344716800	29	14732
2026-01-27 22:02:53.47	314.70	11.80	-29.3	-29.2	17.7	0.00e+00	0	47	0	33453768704	29	14819
2026-01-27 22:02:54.48	314.91	11.73	-29.5	-29.3	17.6	3.80e-06	0	47	0	33571209216	29	15093
2026-01-27 22:02:55.49	315.12	11.66	-29.5	-29.4	17.6	1.90e-06	0	47	0	33680261120	29	15171
2026-01-27 22:02:56.50	315.33	11.60	-29.6	-29.4	17.5	0.00e+00	0	47	0	33797701632	29	15219
2026-01-27 22:02:57.51	315.55	11.53	-29.4	-29.2	17.7	0.00e+00	0	47	0	33906753536	29	14895
2026-01-27 22:02:58.52	315.76	11.46	-29.4	-29.3	17.6	1.90e-06	0	47	0	34024194048	29	14950
2026-01-27 22:02:59.53	315.96	11.39	-29.4	-29.3	17.6	0.00e+00	0	47	0	34133245952	29	14982
2026-01-27 22:03:00.51	316.16	11.33	-29.5	-29.4	17.6	1.90e-06	0	47	0	34242297856	29	15146
2026-01-27 22:03:01.51	316.37	11.26	-29.4	-29.3	17.6	0.00e+00	0	47	0	34359738368	29	15011
2026-01-27 22:03:02.52	316.57	11.19	-29.6	-29.5	17.6	3.80e-06	0	47	0	34468790272	29	15343
2026-01-27 22:03:03.53	316.78	11.12	-29.5	-29.3	17.6	0.00e+00	0	47	0	34586230784	29	15096
2026-01-27 22:03:04.53	316.98	11.05	-29.7	-29.5	17.5	1.90e-06	0	47	0	34695282688	29	15442
2026-01-27 22:03:05.53	317.18	10.99	-29.8	-29.6	17.6	0.00e+00	0	47	0	34804334592	30	14740
2026-01-27 22:03:06.54	317.38	10.92	-29.6	-29.5	17.7	3.80e-06	0	47	0	34921775104	30	14479
2026-01-27 22:03:07.54	317.58	10.85	-29.6	-29.5	17.7	1.90e-06	0	47	0	35030827008	30	14456
2026-01-27 22:03:08.55	317.78	10.78	-29.8	-29.6	17.5	3.80e-06	0	47	0	35148267520	30	14703
2026-01-27 22:03:09.57	317.98	10.71	-29.7	-29.6	17.6	1.90e-06	0	47	0	35265708032	30	14674
2026-01-27 22:03:10.57	318.17	10.65	-29.8	-29.6	17.6	1.90e-06	0	47	0	35383148544	30	14685
2026-01-27 22:03:11.58	318.37	10.58	-51.7	-52.8	6.5	0.00e+00	0	47	104	35399925760	73	17880
2026-01-27 22:03:12.59	318.56	10.51	-53.8	-56.0	6.2	0.00e+00	0	47	104	35399925760	78	19368
2026-01-27 22:03:13.60	318.75	10.44	-53.8	-55.9	6.2	0.00e+00	0	47	104	35399925760	78	19225
2026-01-27 22:03:14.61	318.95	10.37	-54.0	-56.1	6.2	0.00e+00	0	47	104	35399925760	78	19499
2026-01-27 22:03:15.62	319.14	10.30	-53.9	-56.0	6.2	0.00e+00	0	47	104	35399925760	78	19346
2026-01-27 22:03:16.63	319.33	10.24	-53.9	-56.0	6.2	0.00e+00	0	47	104	35399925760	78	19463
2026-01-27 22:03:17.63	319.51	10.17	-53.9	-56.0	6.2	0.00e+00	0	47	104	35399925760	78	19296
2026-01-27 22:03:18.64	319.70	10.10	-53.9	-56.0	6.2	0.00e+00	0	47	104	35399925760	78	19446
2026-01-27 22:03:19.64	319.89	10.03	-53.9	-56.0	6.2	0.00e+00	0	47	104	35399925760	78	19339
2026-01-27 22:03:20.65	320.07	9.96	-53.8	-55.9	6.2	0.00e+00	0	47	104	35399925760	78	19244
2026-01-27 22:03:21.66	320.26	9.90	-53.8	-55.9	6.2	0.00e+00	0	47	104	35399925760	78	19210
2026-01-27 22:03:22.66	320.44	9.83	-53.9	-56.0	6.2	0.00e+00	0	47	104	35399925760	78	19313
2026-01-27 22:03:23.67	320.63	9.76	-53.8	-55.9	6.2	0.00e+00	0	47	104	35399925760	78	19158
2026-01-27 22:03:24.68	320.81	9.69	-53.8	-55.8	6.2	0.00e+00	0	47	104	35399925760	78	18997
2026-01-27 22:03:25.69	320.99	9.62	-53.7	-55.8	6.2	0.00e+00	0	47	104	35399925760	78	18994
2026-01-27 22:03:26.69	321.17	9.56	-53.8	-55.9	6.2	0.00e+00	0	47	104	35399925760	78	19141
2026-01-27 22:03:27.70	321.35	9.49	-53.7	-55.9	6.2	0.00e+00	0	47	104	35399925760	78	19053
2026-01-27 22:03:28.71	321.52	9.42	-53.7	-55.8	6.2	0.00e+00	0	47	104	35399925760	78	18853
2026-01-27 22:03:29.71	321.70	9.35	-53.7	-55.8	6.2	0.00e+00	0	47	104	35399925760	78	18848
2026-01-27 22:03:30.72	321.88	9.28	-53.7	-55.8	6.2	0.00e+00	0	47	104	35399925760	78	18976
2026-01-27 22:03:31.73	322.05	9.21	-53.6	-55.7	6.2	0.00e+00	0	47	104	35399925760	78	18780
2026-01-27 22:03:32.73	322.22	9.15	-53.6	-55.7	6.2	0.00e+00	0	47	104	35399925760	78	18730
2026-01-27 22:03:33.74	322.40	9.08	-53.6	-55.7	6.2	0.00e+00	0	47	104	35399925760	78	18648
2026-01-27 22:03:34.75	322.57	9.01	-53.6	-55.7	6.2	0.00e+00	0	47	104	35399925760	78	18799
2026-01-27 22:03:35.76	322.74	8.94	-53.6	-55.7	6.2	0.00e+00	0	47	104	35399925760	78	18617
2026-01-27 22:03:36.77	322.91	8.88	-53.5	-55.6	6.2	0.00e+00	0	47	104	35399925760	78	18531
2026-01-27 22:03:37.77	323.08	8.81	-53.5	-55.6	6.2	0.00e+00	0	47	104	35399925760	78	18521
2026-01-27 22:03:38.78	323.25	8.74	-53.6	-55.7	6.2	0.00e+00	0	47	104	35399925760	78	18760
2026-01-27 22:03:39.79	323.42	8.67	-53.5	-55.6	6.2	0.00e+00	0	47	104	35399925760	78	18423
2026-01-27 22:03:40.80	323.58	8.61	-53.5	-55.6	6.2	0.00e+00	0	47	104	35399925760	78	18431
2026-01-27 22:03:41.80	323.75	8.54	-53.5	-55.5	6.2	0.00e+00	0	47	104	35399925760	78	18380
2026-01-27 22:03:42.80	323.91	8.47	-53.5	-55.6	6.2	0.00e+00	0	46	104	35399925760	78	18507
2026-01-27 22:03:43.81	324.08	8.40	-53.4	-55.5	6.2	0.00e+00	0	47	104	35399925760	78	18312
2026-01-27 22:03:44.82	324.24	8.34	-53.4	-55.5	6.2	0.00e+00	0	47	104	35399925760	78	18321
2026-01-27 22:03:45.83	324.40	8.27	-53.4	-55.5	6.2	0.00e+00	0	47	104	35399925760	78	18231
2026-01-27 22:03:46.83	324.56	8.20	-53.4	-55.5	6.2	0.00e+00	0	46	104	35399925760	78	18385
2026-01-27 22:03:47.84	324.72	8.13	-53.4	-55.5	6.2	0.00e+00	0	47	104	35399925760	78	18205
2026-01-27 22:03:48.85	324.88	8.07	-53.4	-55.4	6.2	0.00e+00	0	47	104	35399925760	78	18170
2026-01-27 22:03:49.86	325.04	8.00	-53.4	-55.4	6.2	0.00e+00	0	46	104	35399925760	78	18121
2026-01-27 22:03:50.86	325.20	7.93	-53.4	-55.5	6.2	0.00e+00	0	47	104	35399925760	78	18352
2026-01-27 22:03:51.87	325.36	7.87	-53.4	-55.4	6.2	0.00e+00	0	47	104	35399925760	78	18159
2026-01-27 22:03:52.88	325.51	7.80	-53.3	-55.4	6.2	0.00e+00	0	46	104	35399925760	78	18126
2026-01-27 22:03:53.89	325.67	7.73	-53.3	-55.5	6.2	0.00e+00	0	47	104	35399925760	78	18197
2026-01-27 22:03:54.89	325.82	7.67	-53.4	-55.5	6.2	0.00e+00	0	47	104	35399925760	78	18309
2026-01-27 22:03:55.89	325.97	7.60	-53.3	-55.4	6.2	0.00e+00	0	47	104	35399925760	78	18099
2026-01-27 22:03:56.90	326.13	7.53	-53.3	-55.4	6.2	0.00e+00	0	47	104	35399925760	78	17984
2026-01-27 22:03:57.90	326.28	7.47	-53.3	-55.3	6.2	0.00e+00	0	46	104	35399925760	78	17959
2026-01-27 22:03:58.91	326.43	7.40	-53.3	-55.5	6.2	0.00e+00	0	47	104	35399925760	78	18187
2026-01-27 22:03:59.91	326.58	7.34	-53.3	-55.3	6.2	0.00e+00	0	47	104	35399925760	78	17951
2026-01-27 22:04:00.91	326.73	7.27	-53.3	-55.3	6.2	0.00e+00	0	47	104	35399925760	78	17940
2026-01-27 22:04:01.92	326.88	7.20	-53.2	-55.3	6.2	0.00e+00	0	46	104	35399925760	78	17910
2026-01-27 22:04:02.92	327.02	7.14	-53.3	-55.4	6.2	0.00e+00	0	47	104	35399925760	78	18083
2026-01-27 22:04:03.93	327.17	7.07	-53.2	-55.3	6.2	0.00e+00	0	47	104	35399925760	78	17926
2026-01-27 22:04:04.93	327.32	7.01	-53.2	-55.3	6.2	0.00e+00	0	47	104	35399925760	78	17890
2026-01-27 22:04:05.94	327.46	6.94	-53.2	-55.3	6.2	0.00e+00	0	47	104	35399925760	78	17798
2026-01-27 22:04:06.94	327.61	6.88	-53.3	-55.4	6.2	0.00e+00	0	47	104	35399925760	78	18060
2026-01-27 22:04:07.95	327.75	6.81	-53.2	-55.3	6.2	0.00e+00	0	46	104	35399925760	78	17836
2026-01-27 22:04:08.96	327.90	6.74	-53.2	-55.3	6.2	0.00e+00	0	47	104	35399925760	78	17864
2026-01-27 22:04:09.96	328.04	6.68	-53.1	-55.2	6.2	0.00e+00	0	47	104	35399925760	78	17737
2026-01-27 22:04:10.97	328.18	6.61	-53.2	-55.3	6.2	0.00e+00	0	47	104	35399925760	78	17939
2026-01-27 22:04:11.97	328.32	6.55	-53.2	-55.3	6.2	0.00e+00	0	47	104	35399925760	78	17768
2026-01-27 22:04:12.98	328.46	6.48	-53.2	-55.3	6.2	0.00e+00	0	46	104	35399925760	78	17783
2026-01-27 22:04:13.99	328.60	6.42	-53.1	-55.2	6.2	0.00e+00	0	46	104	35399925760	78	17665
2026-01-27 22:04:14.99	328.74	6.35	-53.2	-55.3	6.2	0.00e+00	0	47	104	35399925760	78	17954
2026-01-27 22:04:16.00	328.88	6.29	-53.1	-55.2	6.2	0.00e+00	0	47	104	35399925760	78	17666
2026-01-27 22:04:17.01	329.01	6.22	-53.1	-55.2	6.2	0.00e+00	0	47	104	35399925760	78	17618
2026-01-27 22:04:18.01	329.15	6.16	-53.0	-55.1	6.2	0.00e+00	0	47	104	35399925760	78	17524
2026-01-27 22:04:19.01	329.28	6.10	-53.2	-55.3	6.2	0.00e+00	0	47	104	35399925760	78	17822
2026-01-27 22:04:20.02	329.42	6.03	-53.0	-55.2	6.2	0.00e+00	0	46	104	35399925760	78	17563
2026-01-27 22:04:21.03	329.56	5.97	-53.1	-55.1	6.2	0.00e+00	0	46	104	35399925760	78	17557
2026-01-27 22:04:22.04	329.69	5.90	-53.0	-55.1	6.2	0.00e+00	0	47	104	35399925760	78	17397
2026-01-27 22:04:23.04	329.82	5.84	-53.1	-55.2	6.2	0.00e+00	0	47	104	35399925760	78	17682
2026-01-27 22:04:24.05	329.96	5.77	-53.0	-55.1	6.2	0.00e+00	0	46	104	35399925760	78	17431
2026-01-27 22:04:25.05	330.09	5.71	-53.0	-55.1	6.2	0.00e+00	0	46	104	35399925760	78	17484
2026-01-27 22:04:26.06	330.22	5.65	-52.9	-55.0	6.2	0.00e+00	0	46	104	35399925760	77	18322
2026-01-27 22:04:27.07	330.35	5.58	-53.0	-55.1	6.2	0.00e+00	0	46	104	35399925760	77	18554
2026-01-27 22:04:28.07	330.48	5.52	-52.9	-55.0	6.2	0.00e+00	0	47	104	35399925760	77	18297
2026-01-27 22:04:29.07	330.61	5.45	-52.9	-55.0	6.2	0.00e+00	0	47	104	35399925760	77	18273
2026-01-27 22:04:30.08	330.73	5.39	-52.8	-54.9	6.2	0.00e+00	0	46	104	35399925760	77	18138
2026-01-27 22:04:31.09	330.86	5.33	-53.0	-55.1	6.2	0.00e+00	0	46	104	35399925760	77	18405
2026-01-27 22:04:32.09	330.99	5.26	-52.8	-54.9	6.2	0.00e+00	0	47	104	35399925760	77	18110
2026-01-27 22:04:33.10	331.12	5.20	-52.9	-55.0	6.2	0.00e+00	0	46	104	35399925760	77	18212
2026-01-27 22:04:34.11	331.24	5.14	-52.8	-54.9	6.2	0.00e+00	0	47	104	35399925760	77	18015
2026-01-27 22:04:35.12	331.37	5.07	-52.9	-55.0	6.2	0.00e+00	0	46	104	35399925760	77	18341
2026-01-27 22:04:36.13	331.49	5.01	-52.8	-54.9	6.2	0.00e+00	0	47	104	35399925760	77	18028
2026-01-27 22:04:37.13	331.62	4.95	-53.1	-55.1	6.2	0.00e+00	0	47	104	35399925760	77	18564
2026-01-27 22:04:38.14	331.74	4.89	-53.6	-55.7	6.2	0.00e+00	0	46	104	35399925760	77	19834
2026-01-27 22:04:39.15	331.86	4.82	-54.0	-56.1	6.2	0.00e+00	0	47	104	35399925760	78	19535
2026-01-27 22:04:40.16	331.98	4.76	-54.2	-56.3	6.2	0.00e+00	0	46	104	35399925760	78	19940
2026-01-27 22:04:41.17	332.11	4.70	-54.3	-56.4	6.2	0.00e+00	0	46	104	35399925760	79	19085
2026-01-27 22:04:42.17	332.23	4.64	-54.4	-56.5	6.2	0.00e+00	0	47	104	35399925760	79	19265
2026-01-27 22:04:43.18	332.35	4.57	-54.4	-56.5	6.2	0.00e+00	0	46	104	35399925760	79	19318
2026-01-27 22:04:44.19	332.47	4.51	-54.4	-56.5	6.2	0.00e+00	0	47	104	35399925760	79	19319
2026-01-27 22:04:45.20	332.59	4.45	-54.3	-56.4	6.2	0.00e+00	0	46	104	35399925760	79	19161
2026-01-27 22:04:46.21	332.71	4.39	-54.3	-56.4	6.2	0.00e+00	0	47	104	35399925760	79	19069
2026-01-27 22:04:47.21	332.82	4.32	-54.2	-56.3	6.2	0.00e+00	0	46	104	35399925760	79	18863
2026-01-27 22:04:48.22	332.94	4.26	-54.0	-56.1	6.2	0.00e+00	0	46	104	35399925760	79	18535
2026-01-27 22:04:49.23	333.06	4.20	-54.1	-56.2	6.2	0.00e+00	0	47	104	35399925760	79	18706
2026-01-27 22:04:50.24	333.17	4.14	-54.1	-56.2	6.2	0.00e+00	0	46	104	35399925760	79	18724
2026-01-27 22:04:51.25	333.29	4.08	-54.1	-56.2	6.2	0.00e+00	0	47	104	35399925760	79	18702
2026-01-27 22:04:52.25	333.40	4.02	-54.2	-56.2	6.2	0.00e+00	0	46	104	35399925760	79	18802
2026-01-27 22:04:53.26	333.52	3.95	-54.2	-56.2	6.2	0.00e+00	0	46	104	35399925760	79	18789
2026-01-27 22:04:54.27	333.63	3.89	-54.2	-56.3	6.2	0.00e+00	0	46	104	35399925760	79	18820
2026-01-27 22:04:55.28	333.75	3.83	-54.2	-56.3	6.2	0.00e+00	0	46	104	35399925760	79	18831
2026-01-27 22:04:56.28	333.86	3.77	-54.2	-56.2	6.2	0.00e+00	0	46	104	35399925760	79	18796
2026-01-27 22:04:57.29	333.97	3.71	-54.2	-56.3	6.2	0.00e+00	0	46	104	35399925760	79	18847
2026-01-27 22:04:58.30	334.08	3.65	-54.2	-56.3	6.2	0.00e+00	0	46	104	35399925760	79	18890
2026-01-27 22:04:59.31	334.19	3.59	-54.1	-56.2	6.2	0.00e+00	0	46	104	35399925760	79	18791
2026-01-27 22:05:00.31	334.30	3.53	-54.1	-56.2	6.2	0.00e+00	0	46	104	35399925760	79	18655
2026-01-27 22:05:01.30	334.41	3.47	-54.1	-56.2	6.2	0.00e+00	0	46	104	35399925760	79	18609
2026-01-27 22:05:02.31	334.52	3.41	-54.1	-56.2	6.2	0.00e+00	0	46	104	35399925760	79	18640
2026-01-27 22:05:03.30	334.63	3.35	-54.1	-56.2	6.2	0.00e+00	0	47	104	35399925760	79	18659
2026-01-27 22:05:04.31	334.74	3.29	-54.1	-56.2	6.2	0.00e+00	0	46	104	35399925760	79	18606
2026-01-27 22:05:05.32	334.85	3.23	-54.1	-56.1	6.2	0.00e+00	0	46	104	35399925760	79	18552
2026-01-27 22:05:06.33	334.95	3.17	-54.0	-56.1	6.2	0.00e+00	0	47	104	35399925760	79	18559
2026-01-27 22:05:07.33	335.06	3.11	-54.0	-56.2	6.2	0.00e+00	0	46	104	35399925760	79	18616
2026-01-27 22:05:08.34	335.17	3.05	-54.0	-56.1	6.2	0.00e+00	0	46	104	35399925760	79	18597
2026-01-27 22:05:09.35	335.27	2.99	-54.0	-56.1	6.2	0.00e+00	0	46	104	35399925760	79	18466
2026-01-27 22:05:10.35	335.38	2.93	-54.0	-56.1	6.2	0.00e+00	0	46	104	35399925760	79	18550
2026-01-27 22:05:11.36	335.48	2.87	-54.0	-56.1	6.2	0.00e+00	0	47	104	35399925760	79	18446
2026-01-27 22:05:12.36	335.59	2.81	-54.0	-56.1	6.2	0.00e+00	0	46	104	35399925760	79	18506
2026-01-27 22:05:13.37	335.69	2.75	-54.0	-56.1	6.2	0.00e+00	0	46	104	35399925760	79	18539
2026-01-27 22:05:14.38	335.79	2.69	-54.0	-56.1	6.2	0.00e+00	0	46	104	35399925760	79	18438
2026-01-27 22:05:15.39	335.90	2.63	-54.0	-56.1	6.2	0.00e+00	0	46	104	35399925760	79	18459
2026-01-27 22:05:16.40	336.00	2.57	-54.0	-56.1	6.2	0.00e+00	0	47	104	35399925760	79	18460
2026-01-27 22:05:17.41	336.10	2.51	-54.0	-56.1	6.2	0.00e+00	0	47	104	35399925760	79	18460
2026-01-27 22:05:18.41	336.20	2.45	-54.0	-56.1	6.2	0.00e+00	0	46	104	35399925760	79	18410
2026-01-27 22:05:19.42	336.30	2.40	-54.0	-56.0	6.2	0.00e+00	0	46	104	35399925760	79	18384
2026-01-27 22:05:20.42	336.40	2.34	-54.0	-56.1	6.2	0.00e+00	0	46	104	35399925760	79	18456
2026-01-27 22:05:21.43	336.50	2.28	-54.0	-56.0	6.2	0.00e+00	0	46	104	35399925760	79	18370
2026-01-27 22:05:22.44	336.60	2.22	-54.0	-56.1	6.2	0.00e+00	0	46	104	35399925760	79	18427
2026-01-27 22:05:23.44	336.70	2.16	-54.0	-56.0	6.2	0.00e+00	0	47	104	35399925760	79	18373
2026-01-27 22:05:24.45	336.80	2.10	-54.0	-56.1	6.2	0.00e+00	0	46	104	35399925760	79	18419
2026-01-27 22:05:25.46	336.90	2.05	-53.9	-56.0	6.2	0.00e+00	0	47	104	35399925760	79	18289
2026-01-27 22:05:26.47	337.00	1.99	-53.9	-56.0	6.2	0.00e+00	0	46	104	35399925760	79	18386

#Closed at: 2026-01-27 22:05:27
#Recorded file [35399 MB]: D:/lorett/data/31041_260128_005552.dat