passes_logs/2026/01/27/R3.2S_Murmansk/R3.2S_Murmansk__20260127_083409_NOAA_21_JPSS-2_rec.log

#Pass ID: 20260127_083409_NOAA 21 (JPSS-2)
#Satellite: NOAA 21 (JPSS-2)
#Configuration: NOAA-21
#almurnet v.1.7.20251203
#Start time: 2026-01-27 08:35:28

#Version: 2.2.20231116
#Station: R3.2S_Murmansk
#Location: 33.079688 lon 68.888172 lat
#TLE: 1 54234U 22150A   26026.43130734  .00000179  00000+0  10559-3 0  9998
#TLE: 2 54234  98.7509 327.1934 0000805 209.8356 150.2774 14.19539635166435

#Time	Az	El	Level	Level2	SNR	BER	BlckErr	Temp	State	Recorded	gain1	gain2
2026-01-27 08:35:28.02	127.19	7.46	-53.1	-65.1	3.8	8.46e-01	0	42	0	0	76	15427
2026-01-27 08:35:29.02	127.15	7.54	-54.1	-66.9	3.8	1.49e+00	0	43	104	0	78	16959
2026-01-27 08:35:30.03	127.12	7.62	-54.1	-66.9	3.8	1.49e+00	0	43	104	0	78	16981
2026-01-27 08:35:31.04	127.09	7.69	-54.2	-66.9	3.8	1.49e+00	0	43	104	0	78	17051
2026-01-27 08:35:32.04	127.06	7.77	-54.2	-66.9	3.8	1.49e+00	0	43	104	0	78	17065
2026-01-27 08:35:33.05	127.02	7.85	-54.2	-67.0	3.8	1.49e+00	0	43	104	0	79	16220
2026-01-27 08:35:34.07	126.99	7.93	-54.3	-67.0	3.8	1.49e+00	0	43	104	0	79	16234
2026-01-27 08:35:35.07	126.96	8.01	-54.3	-67.0	3.8	1.49e+00	0	43	104	0	79	16253
2026-01-27 08:35:36.08	126.92	8.09	-54.3	-67.0	3.8	1.49e+00	0	43	104	0	79	16256
2026-01-27 08:35:37.09	126.89	8.17	-54.3	-67.0	3.8	1.49e+00	0	43	104	0	79	16253
2026-01-27 08:35:38.10	126.85	8.25	-54.3	-67.1	3.8	1.49e+00	0	43	104	0	79	16376
2026-01-27 08:35:39.11	126.82	8.33	-54.3	-67.0	3.8	1.49e+00	0	43	104	0	79	16288
2026-01-27 08:35:40.12	126.79	8.41	-54.4	-67.1	3.8	1.49e+00	0	43	104	0	79	16462
2026-01-27 08:35:41.12	126.75	8.49	-54.4	-67.2	3.8	1.49e+00	0	43	104	0	79	16504
2026-01-27 08:35:42.13	126.72	8.57	-54.4	-67.2	3.8	1.49e+00	0	43	104	0	79	16523
2026-01-27 08:35:43.14	126.68	8.65	-54.4	-67.1	3.8	1.49e+00	0	43	104	0	79	16484
2026-01-27 08:35:44.15	126.64	8.73	-54.4	-67.2	3.8	1.49e+00	0	43	104	0	79	16530
2026-01-27 08:35:45.16	126.61	8.82	-54.4	-67.1	3.8	1.49e+00	0	43	104	0	79	16497
2026-01-27 08:35:46.16	126.57	8.90	-54.4	-67.1	3.8	1.49e+00	0	43	104	0	79	16451
2026-01-27 08:35:47.17	126.54	8.98	-54.3	-66.9	3.8	1.49e+00	0	43	104	0	79	15990
2026-01-27 08:35:48.18	126.50	9.06	-54.4	-67.1	3.8	1.49e+00	0	43	104	0	79	16323
2026-01-27 08:35:49.19	126.46	9.15	-54.3	-67.1	3.8	1.49e+00	0	43	104	0	79	16337
2026-01-27 08:35:50.20	126.43	9.23	-54.3	-67.0	3.8	1.49e+00	0	43	104	0	79	16208
2026-01-27 08:35:51.20	126.39	9.31	-54.3	-67.1	3.8	1.49e+00	0	43	104	0	79	16403
2026-01-27 08:35:52.21	126.35	9.40	-54.3	-67.1	3.8	1.49e+00	0	43	104	0	79	16344
2026-01-27 08:35:53.22	126.32	9.48	-54.3	-67.1	3.8	1.49e+00	0	43	104	0	79	16345
2026-01-27 08:35:54.23	126.28	9.56	-54.3	-67.1	3.8	1.49e+00	0	43	104	0	79	16422
2026-01-27 08:35:55.24	126.24	9.65	-54.3	-67.0	3.8	1.49e+00	0	43	104	0	79	16295
2026-01-27 08:35:56.24	126.20	9.73	-54.3	-67.0	3.8	1.49e+00	0	43	104	0	79	16245
2026-01-27 08:35:57.25	126.16	9.82	-54.3	-67.0	3.8	1.49e+00	0	43	104	0	79	16294
2026-01-27 08:35:58.26	126.13	9.90	-54.2	-67.0	3.8	1.49e+00	0	43	104	0	79	16246
2026-01-27 08:35:59.27	126.09	9.99	-54.2	-67.0	3.8	1.49e+00	0	43	104	0	79	16189
2026-01-27 08:36:00.27	126.05	10.07	-54.3	-67.0	3.8	1.49e+00	0	43	104	0	79	16262
2026-01-27 08:36:01.28	126.01	10.16	-54.3	-67.1	3.8	1.49e+00	0	43	104	0	79	16349
2026-01-27 08:36:02.29	125.97	10.25	-54.3	-67.0	3.8	1.49e+00	0	43	104	0	79	16302
2026-01-27 08:36:03.30	125.93	10.33	-54.3	-67.0	3.8	1.49e+00	0	43	104	0	79	16284
2026-01-27 08:36:04.31	125.89	10.42	-54.2	-67.0	3.8	1.49e+00	0	43	104	0	79	16243
2026-01-27 08:36:05.32	125.85	10.51	-54.2	-67.0	3.8	1.49e+00	0	43	104	0	79	16207
2026-01-27 08:36:06.33	125.81	10.60	-54.2	-67.0	3.8	1.49e+00	0	43	104	0	79	16138
2026-01-27 08:36:07.33	125.77	10.68	-54.2	-66.9	3.8	1.49e+00	0	43	104	0	79	16094
2026-01-27 08:36:08.34	125.73	10.77	-54.2	-66.9	3.8	1.49e+00	0	43	104	0	79	16111
2026-01-27 08:36:09.34	125.68	10.86	-54.2	-67.0	3.8	1.49e+00	0	43	104	0	79	16142
2026-01-27 08:36:10.35	125.64	10.95	-54.2	-67.0	3.8	1.49e+00	0	43	104	0	79	16135
2026-01-27 08:36:11.36	125.60	11.04	-54.2	-66.9	3.8	1.49e+00	0	43	104	0	79	16120
2026-01-27 08:36:12.37	125.56	11.13	-54.2	-66.9	3.8	1.49e+00	0	43	104	0	79	16121
2026-01-27 08:36:13.38	125.52	11.22	-54.2	-66.9	3.8	1.49e+00	0	43	104	0	79	16088
2026-01-27 08:36:14.39	125.47	11.31	-54.2	-66.9	3.8	1.49e+00	0	43	104	0	79	16071
2026-01-27 08:36:15.40	125.43	11.40	-54.2	-66.9	3.8	1.49e+00	0	43	104	0	79	16110
2026-01-27 08:36:16.41	125.39	11.49	-54.1	-66.9	3.8	1.49e+00	0	43	104	0	79	16057
2026-01-27 08:36:17.41	125.34	11.58	-54.2	-66.9	3.8	1.49e+00	0	43	104	0	79	16086
2026-01-27 08:36:18.42	125.30	11.67	-54.3	-67.1	3.8	1.49e+00	0	43	104	0	79	16406
2026-01-27 08:36:19.43	125.25	11.76	-54.4	-67.2	3.8	1.49e+00	0	43	104	0	79	16510
2026-01-27 08:36:20.44	125.21	11.85	-54.3	-67.1	3.8	1.49e+00	0	43	104	0	79	16420
2026-01-27 08:36:21.44	125.16	11.94	-54.3	-67.1	3.8	1.49e+00	0	43	104	0	79	16365
2026-01-27 08:36:22.45	125.12	12.04	-54.3	-67.0	3.8	1.49e+00	0	43	104	0	79	16307
2026-01-27 08:36:23.46	125.07	12.13	-54.2	-67.0	3.8	1.49e+00	0	43	104	0	79	16263
2026-01-27 08:36:24.47	125.03	12.22	-54.2	-67.0	3.8	1.49e+00	0	43	104	0	79	16193
2026-01-27 08:36:25.48	124.98	12.32	-54.2	-66.9	3.8	1.49e+00	0	43	104	0	78	17042
2026-01-27 08:36:26.48	124.94	12.41	-54.2	-66.9	3.8	1.49e+00	0	43	104	0	78	16966
2026-01-27 08:36:27.49	124.89	12.50	-54.1	-66.9	3.8	1.49e+00	0	43	104	0	78	16898
2026-01-27 08:36:28.50	124.84	12.60	-54.0	-66.8	3.8	1.49e+00	0	43	104	0	78	16773
2026-01-27 08:36:29.51	124.79	12.69	-54.0	-66.7	3.8	1.49e+00	0	43	104	0	78	16681
2026-01-27 08:36:30.51	124.75	12.79	-53.9	-66.7	3.8	1.49e+00	0	43	104	0	78	16545
2026-01-27 08:36:31.52	124.70	12.88	-53.9	-66.6	3.8	1.49e+00	0	43	104	0	78	16457
2026-01-27 08:36:32.53	124.65	12.98	-53.8	-66.6	3.8	1.49e+00	0	43	104	0	78	16336
2026-01-27 08:36:33.53	124.60	13.08	-53.8	-66.5	3.8	1.49e+00	0	43	104	0	78	16265
2026-01-27 08:36:34.54	124.55	13.17	-53.7	-66.5	3.8	1.49e+00	0	43	104	0	78	16164
2026-01-27 08:36:35.55	124.50	13.27	-53.7	-66.4	3.8	1.49e+00	0	43	104	0	78	15963
2026-01-27 08:36:36.56	124.45	13.37	-53.6	-66.4	3.8	1.49e+00	0	43	104	0	78	16012
2026-01-27 08:36:37.57	124.40	13.47	-53.6	-66.3	3.8	1.49e+00	0	43	104	0	78	15871
2026-01-27 08:36:38.58	124.35	13.56	-53.5	-66.2	3.8	1.49e+00	0	43	104	0	78	15666
2026-01-27 08:36:39.58	124.30	13.66	-53.4	-66.1	3.8	1.49e+00	0	43	104	0	77	16474
2026-01-27 08:36:40.59	124.25	13.76	-53.3	-66.0	3.8	1.49e+00	0	43	104	0	77	16191
2026-01-27 08:36:41.59	124.20	13.86	-53.2	-65.9	3.8	1.49e+00	0	43	104	0	77	15981
2026-01-27 08:36:42.60	124.15	13.96	-43.7	-44.6	19.4	1.23e+00	0	43	104	0	58	4113
2026-01-27 08:36:43.61	124.10	14.06	-45.5	-46.7	18.0	0.00e+00	0	43	0	2097152	62	4187
2026-01-27 08:36:44.62	124.04	14.16	-46.8	-48.4	16.5	0.00e+00	0	43	0	5242880	64	4497
2026-01-27 08:36:45.62	123.99	14.26	-46.0	-47.4	17.6	0.00e+00	0	43	0	8388608	62	4494
2026-01-27 08:36:46.63	123.94	14.36	-43.8	-44.8	20.0	2.30e-04	0	43	0	12582912	59	3974
2026-01-27 08:36:47.63	123.88	14.46	-48.2	-50.3	14.7	0.00e+00	0	43	0	15728640	66	5009
2026-01-27 08:36:48.64	123.83	14.56	-44.0	-44.9	19.6	3.00e-06	0	43	0	18874368	60	3818
2026-01-27 08:36:49.65	123.77	14.67	-43.1	-44.0	20.9	0.00e+00	0	43	0	20971520	58	3867
2026-01-27 08:36:50.66	123.72	14.77	-43.1	-44.0	20.8	0.00e+00	0	43	0	24117248	58	3868
2026-01-27 08:36:51.66	123.66	14.87	-43.2	-44.1	20.8	0.00e+00	0	43	0	27262976	58	3910
2026-01-27 08:36:52.67	123.61	14.98	-43.2	-44.1	20.8	0.00e+00	0	43	0	30408704	58	3906
2026-01-27 08:36:53.67	123.55	15.08	-43.1	-44.1	20.9	0.00e+00	0	43	0	33554432	58	3879
2026-01-27 08:36:54.68	123.50	15.18	-43.1	-44.1	20.9	0.00e+00	0	43	0	36700160	58	3876
2026-01-27 08:36:55.69	123.44	15.29	-43.1	-44.0	20.9	0.00e+00	0	43	0	39845888	58	3851
2026-01-27 08:36:56.70	123.38	15.39	-43.1	-44.0	21.0	0.00e+00	0	43	0	42991616	58	3840
2026-01-27 08:36:57.70	123.32	15.50	-43.1	-44.0	20.9	0.00e+00	0	43	0	46137344	58	3851
2026-01-27 08:36:58.71	123.27	15.61	-43.2	-44.2	20.8	0.00e+00	0	43	0	49283072	58	3916
2026-01-27 08:36:59.72	123.21	15.71	-43.1	-44.0	20.9	0.00e+00	0	43	0	52428800	58	3868
2026-01-27 08:37:00.72	123.15	15.82	-43.1	-44.0	21.0	0.00e+00	0	43	0	55574528	58	3840
2026-01-27 08:37:01.73	123.09	15.93	-43.1	-44.0	21.0	0.00e+00	0	43	0	59768832	58	3860
2026-01-27 08:37:02.74	123.03	16.03	-43.1	-44.0	20.9	0.00e+00	0	43	0	62914560	58	3867
2026-01-27 08:37:03.74	122.97	16.14	-43.2	-44.1	20.9	0.00e+00	0	43	0	66060288	58	3885
2026-01-27 08:37:04.75	122.91	16.25	-43.0	-43.9	21.0	0.00e+00	0	43	0	68157440	58	3806
2026-01-27 08:37:05.76	122.85	16.36	-43.2	-44.1	20.9	0.00e+00	0	43	0	71303168	58	3878
2026-01-27 08:37:06.77	122.78	16.47	-43.2	-44.1	20.8	0.00e+00	0	43	0	74448896	58	3899
2026-01-27 08:37:07.78	122.72	16.58	-43.2	-44.1	20.9	0.00e+00	0	43	0	77594624	58	3874
2026-01-27 08:37:08.79	122.66	16.69	-43.3	-44.2	20.8	0.00e+00	0	43	0	80740352	58	3935
2026-01-27 08:37:09.80	122.59	16.80	-43.3	-44.2	20.8	0.00e+00	0	43	0	83886080	58	3931
2026-01-27 08:37:10.81	122.53	16.91	-43.3	-44.2	20.7	0.00e+00	0	43	0	87031808	58	3949
2026-01-27 08:37:11.81	122.47	17.02	-43.3	-44.2	20.8	0.00e+00	0	43	0	90177536	58	3938
2026-01-27 08:37:12.82	122.40	17.14	-43.3	-44.2	20.8	0.00e+00	0	43	0	93323264	58	3945
2026-01-27 08:37:13.83	122.34	17.25	-43.4	-44.3	20.7	0.00e+00	0	43	0	97517568	58	3985
2026-01-27 08:37:14.83	122.27	17.36	-43.5	-44.4	20.6	0.00e+00	0	43	0	100663296	58	4035
2026-01-27 08:37:15.84	122.20	17.48	-43.5	-44.5	20.5	0.00e+00	0	43	0	103809024	58	4063
2026-01-27 08:37:16.85	122.14	17.59	-43.4	-44.3	20.7	0.00e+00	0	43	0	106954752	58	3997
2026-01-27 08:37:17.87	122.07	17.71	-43.4	-44.4	20.6	0.00e+00	0	43	0	110100480	58	4014
2026-01-27 08:37:18.87	122.00	17.82	-43.3	-44.3	20.7	0.00e+00	0	43	0	113246208	58	3961
2026-01-27 08:37:19.88	121.93	17.94	-43.4	-44.4	20.6	0.00e+00	0	43	0	115343360	58	4017
2026-01-27 08:37:20.89	121.86	18.06	-43.4	-44.3	20.7	0.00e+00	0	43	0	118489088	58	3981
2026-01-27 08:37:21.90	121.79	18.17	-43.5	-44.4	20.6	0.00e+00	0	43	0	121634816	58	4031
2026-01-27 08:37:22.91	121.72	18.29	-43.5	-44.5	20.5	0.00e+00	0	43	0	124780544	58	4062
2026-01-27 08:37:23.92	121.65	18.41	-43.4	-44.3	20.7	0.00e+00	0	43	0	127926272	58	3992
2026-01-27 08:37:24.93	121.58	18.53	-43.5	-44.4	20.6	0.00e+00	0	43	0	132120576	58	4043
2026-01-27 08:37:25.93	121.51	18.64	-43.3	-44.2	20.8	0.00e+00	0	43	0	135266304	58	3941
2026-01-27 08:37:26.94	121.44	18.76	-43.2	-44.1	20.9	0.00e+00	0	43	0	138412032	58	3887
2026-01-27 08:37:27.95	121.36	18.88	-43.1	-44.0	21.0	0.00e+00	0	43	0	141557760	58	3852
2026-01-27 08:37:28.96	121.29	19.01	-43.2	-44.1	20.9	0.00e+00	0	43	0	144703488	58	3881
2026-01-27 08:37:29.97	121.21	19.13	-43.2	-44.1	20.9	0.00e+00	0	43	0	147849216	58	3899
2026-01-27 08:37:30.98	121.14	19.25	-43.2	-44.1	20.9	0.00e+00	0	43	0	150994944	58	3895
2026-01-27 08:37:31.99	121.06	19.37	-43.2	-44.1	20.9	0.00e+00	0	43	0	154140672	58	3912
2026-01-27 08:37:33.00	120.99	19.49	-43.0	-43.9	21.1	0.00e+00	0	43	0	157286400	58	3808
2026-01-27 08:37:34.01	120.91	19.62	-43.0	-43.9	21.1	0.00e+00	0	43	0	160432128	57	4029
2026-01-27 08:37:35.01	120.83	19.74	-42.9	-43.7	21.2	0.00e+00	0	43	0	162529280	57	3954
2026-01-27 08:37:36.02	120.75	19.86	-42.9	-43.8	21.2	0.00e+00	0	43	0	165675008	57	3994
2026-01-27 08:37:37.03	120.68	19.99	-42.7	-43.6	21.4	0.00e+00	0	43	0	169869312	57	3895
2026-01-27 08:37:38.03	120.60	20.11	-42.7	-43.6	21.4	0.00e+00	0	43	0	173015040	57	3889
2026-01-27 08:37:39.04	120.52	20.24	-42.9	-43.8	21.2	0.00e+00	0	43	0	176160768	57	3960
2026-01-27 08:37:40.04	120.44	20.37	-42.6	-43.4	21.5	0.00e+00	0	43	0	179306496	57	3816
2026-01-27 08:37:41.05	120.35	20.49	-42.6	-43.4	21.5	0.00e+00	0	43	0	182452224	57	3814
2026-01-27 08:37:42.06	120.27	20.62	-42.5	-43.4	21.5	0.00e+00	0	43	0	185597952	57	3805
2026-01-27 08:37:43.07	120.19	20.75	-42.5	-43.3	21.5	0.00e+00	0	43	0	188743680	56	3987
2026-01-27 08:37:44.08	120.11	20.88	-42.4	-43.3	21.6	0.00e+00	0	43	0	191889408	56	3974
2026-01-27 08:37:45.09	120.02	21.01	-42.4	-43.2	21.6	0.00e+00	0	43	0	195035136	56	3934
2026-01-27 08:37:46.10	119.94	21.14	-42.3	-43.2	21.7	0.00e+00	0	43	0	198180864	56	3922
2026-01-27 08:37:47.10	119.85	21.27	-42.4	-43.3	21.6	0.00e+00	0	43	0	201326592	56	3970
2026-01-27 08:37:48.11	119.76	21.40	-42.2	-43.1	21.8	0.00e+00	0	43	0	204472320	56	3882
2026-01-27 08:37:49.11	119.68	21.53	-42.2	-43.1	21.8	0.00e+00	0	43	0	207618048	56	3871
2026-01-27 08:37:50.12	119.59	21.67	-42.0	-42.8	22.1	0.00e+00	0	43	0	209715200	56	3753
2026-01-27 08:37:51.12	119.50	21.80	-41.9	-42.7	22.1	0.00e+00	0	43	0	212860928	55	3957
2026-01-27 08:37:52.13	119.41	21.93	-41.9	-42.7	22.1	0.00e+00	0	43	0	217055232	55	3925
2026-01-27 08:37:53.14	119.32	22.07	-41.8	-42.6	22.2	0.00e+00	0	43	0	220200960	55	3873
2026-01-27 08:37:54.15	119.23	22.20	-41.6	-42.4	22.3	0.00e+00	0	43	0	223346688	55	3805
2026-01-27 08:37:55.16	119.13	22.34	-41.7	-42.5	22.3	0.00e+00	0	43	0	226492416	55	3827
2026-01-27 08:37:56.16	119.04	22.47	-41.6	-42.4	22.4	0.00e+00	0	43	0	229638144	55	3796
2026-01-27 08:37:57.17	118.95	22.61	-41.5	-42.3	22.4	0.00e+00	0	43	0	232783872	55	3766
2026-01-27 08:37:58.18	118.85	22.75	-41.5	-42.2	22.5	0.00e+00	0	43	0	235929600	54	3950
2026-01-27 08:37:59.19	118.76	22.89	-41.4	-42.2	22.5	0.00e+00	0	43	0	239075328	54	3940
2026-01-27 08:38:00.19	118.66	23.02	-41.4	-42.2	22.5	0.00e+00	0	43	0	242221056	54	3944
2026-01-27 08:38:01.20	118.56	23.16	-41.5	-42.3	22.5	0.00e+00	0	43	0	245366784	54	3972
2026-01-27 08:38:02.20	118.47	23.30	-41.3	-42.1	22.6	0.00e+00	0	43	0	248512512	54	3898
2026-01-27 08:38:03.21	118.37	23.44	-41.4	-42.2	22.5	0.00e+00	0	43	0	251658240	54	3942
2026-01-27 08:38:04.22	118.27	23.59	-41.4	-42.2	22.5	0.00e+00	0	43	0	254803968	54	3949
2026-01-27 08:38:05.23	118.16	23.73	-41.4	-42.2	22.5	0.00e+00	0	43	0	257949696	54	3946
2026-01-27 08:38:06.24	118.06	23.87	-41.5	-42.3	22.5	0.00e+00	0	43	0	261095424	54	3964
2026-01-27 08:38:07.24	117.96	24.02	-41.4	-42.2	22.6	0.00e+00	0	43	0	264241152	54	3947
2026-01-27 08:38:08.26	117.86	24.16	-41.6	-42.4	22.4	0.00e+00	0	43	0	267386880	54	4007
2026-01-27 08:38:09.26	117.75	24.31	-41.7	-42.5	22.4	0.00e+00	0	43	0	270532608	54	4068
2026-01-27 08:38:10.27	117.64	24.45	-41.6	-42.4	22.4	0.00e+00	0	43	0	273678336	54	4033
2026-01-27 08:38:11.28	117.54	24.60	-41.7	-42.5	22.3	0.00e+00	0	43	0	276824064	54	4083
2026-01-27 08:38:12.29	117.43	24.75	-41.8	-42.6	22.3	0.00e+00	0	43	0	279969792	54	4114
2026-01-27 08:38:13.30	117.32	24.89	-41.8	-42.6	22.2	0.00e+00	0	43	0	283115520	54	4120
2026-01-27 08:38:14.31	117.21	25.04	-41.9	-42.7	22.2	0.00e+00	0	43	0	286261248	54	4151
2026-01-27 08:38:15.32	117.10	25.19	-42.0	-42.8	22.1	0.00e+00	0	43	0	289406976	54	4223
2026-01-27 08:38:16.32	116.99	25.34	-41.9	-42.7	22.1	0.00e+00	0	43	0	292552704	54	4185
2026-01-27 08:38:17.32	116.87	25.49	-42.0	-42.8	22.1	0.00e+00	0	43	0	295698432	54	4217
2026-01-27 08:38:18.33	116.76	25.64	-42.0	-42.8	22.1	0.00e+00	0	43	0	298844160	54	4223
2026-01-27 08:38:19.34	116.64	25.79	-42.1	-42.9	21.9	0.00e+00	0	43	0	301989888	54	4290
2026-01-27 08:38:20.34	116.53	25.95	-42.1	-43.0	21.9	0.00e+00	0	43	0	305135616	54	4298
2026-01-27 08:38:21.35	116.41	26.10	-42.3	-43.2	21.7	0.00e+00	0	43	0	308281344	55	4159
2026-01-27 08:38:22.37	116.29	26.26	-42.4	-43.3	21.6	0.00e+00	0	43	0	311427072	55	4206
2026-01-27 08:38:23.38	116.17	26.41	-42.5	-43.3	21.5	0.00e+00	0	43	0	314572800	55	4224
2026-01-27 08:38:24.38	116.05	26.57	-42.6	-43.4	21.5	0.00e+00	0	43	0	317718528	55	4276
2026-01-27 08:38:25.39	115.92	26.72	-42.7	-43.6	21.3	0.00e+00	0	43	0	320864256	55	4365
2026-01-27 08:38:26.40	115.80	26.88	-42.8	-43.6	21.4	0.00e+00	0	43	0	324009984	56	4136
2026-01-27 08:38:27.41	115.67	27.04	-42.9	-43.8	21.3	0.00e+00	0	43	0	327155712	56	4215
2026-01-27 08:38:28.41	115.55	27.20	-42.9	-43.8	21.3	0.00e+00	0	43	0	330301440	56	4210
2026-01-27 08:38:29.42	115.42	27.36	-43.1	-44.0	21.2	0.00e+00	0	43	0	333447168	56	4293
2026-01-27 08:38:30.42	115.29	27.52	-43.1	-44.0	21.1	0.00e+00	0	43	0	336592896	56	4338
2026-01-27 08:38:31.43	115.16	27.68	-43.2	-44.1	21.0	0.00e+00	0	43	0	339738624	57	4141
2026-01-27 08:38:32.44	115.03	27.84	-43.3	-44.2	21.0	0.00e+00	0	43	0	342884352	57	4158
2026-01-27 08:38:33.45	114.90	28.00	-43.3	-44.2	21.0	0.00e+00	0	43	0	346030080	57	4180
2026-01-27 08:38:34.46	114.76	28.17	-43.3	-44.2	21.0	0.00e+00	0	43	0	349175808	57	4186
2026-01-27 08:38:35.47	114.63	28.33	-43.4	-44.4	20.8	0.00e+00	0	43	0	352321536	57	4248
2026-01-27 08:38:36.47	114.49	28.50	-43.4	-44.3	20.9	0.00e+00	0	43	0	355467264	57	4214
2026-01-27 08:38:37.48	114.35	28.66	-43.4	-44.3	20.8	0.00e+00	0	43	0	358612992	57	4230
2026-01-27 08:38:38.49	114.21	28.83	-43.3	-44.2	21.0	0.00e+00	0	43	0	361758720	57	4157
2026-01-27 08:38:39.49	114.07	29.00	-43.4	-44.3	20.8	0.00e+00	0	43	0	364904448	57	4221
2026-01-27 08:38:40.50	113.92	29.17	-43.2	-44.1	21.0	0.00e+00	0	43	0	368050176	57	4113
2026-01-27 08:38:41.51	113.78	29.33	-43.2	-44.1	21.0	0.00e+00	0	43	0	371195904	57	4134
2026-01-27 08:38:42.51	113.63	29.50	-43.1	-44.0	21.1	0.00e+00	0	43	0	374341632	57	4065
2026-01-27 08:38:43.52	113.49	29.67	-43.3	-44.2	20.9	0.00e+00	0	43	0	377487360	57	4162
2026-01-27 08:38:44.53	113.34	29.85	-43.0	-43.9	21.1	0.00e+00	0	43	0	380633088	57	4040
2026-01-27 08:38:45.53	113.19	30.02	-43.0	-43.9	21.1	0.00e+00	0	43	0	383778816	57	4027
2026-01-27 08:38:46.54	113.03	30.19	-43.2	-44.1	21.0	0.00e+00	0	43	0	386924544	57	4106
2026-01-27 08:38:47.55	112.88	30.37	-43.0	-43.9	21.2	0.00e+00	0	43	0	390070272	57	4040
2026-01-27 08:38:48.56	112.72	30.54	-42.8	-43.7	21.4	0.00e+00	0	43	0	393216000	57	3926
2026-01-27 08:38:49.57	112.56	30.72	-42.7	-43.6	21.5	0.00e+00	0	43	0	396361728	57	3875
2026-01-27 08:38:50.58	112.40	30.89	-42.7	-43.6	21.5	0.00e+00	0	43	0	399507456	56	4103
2026-01-27 08:38:51.59	112.24	31.07	-42.8	-43.6	21.5	0.00e+00	0	43	0	402653184	56	4127
2026-01-27 08:38:52.60	112.08	31.25	-42.7	-43.5	21.6	0.00e+00	0	43	0	405798912	56	4075
2026-01-27 08:38:53.61	111.91	31.43	-42.7	-43.6	21.5	0.00e+00	0	43	0	408944640	56	4109
2026-01-27 08:38:54.61	111.74	31.61	-42.5	-43.3	21.6	0.00e+00	0	43	0	412090368	56	3977
2026-01-27 08:38:55.62	111.57	31.79	-42.4	-43.3	21.5	0.00e+00	0	43	0	415236096	56	3973
2026-01-27 08:38:56.63	111.40	31.97	-42.6	-43.4	21.4	0.00e+00	0	43	0	418381824	56	4042
2026-01-27 08:38:57.64	111.23	32.15	-42.7	-43.5	21.4	0.00e+00	0	43	0	421527552	56	4083
2026-01-27 08:38:58.65	111.05	32.34	-42.8	-43.7	21.3	0.00e+00	0	43	0	424673280	56	4172
2026-01-27 08:38:59.65	110.88	32.52	-42.9	-43.8	21.3	0.00e+00	0	43	0	427819008	56	4219
2026-01-27 08:39:00.66	110.70	32.70	-43.0	-43.9	21.2	0.00e+00	0	43	0	430964736	56	4266
2026-01-27 08:39:01.67	110.52	32.89	-42.9	-43.8	21.3	0.00e+00	0	43	0	434110464	56	4222
2026-01-27 08:39:02.68	110.33	33.07	-42.9	-43.7	21.3	0.00e+00	0	43	0	437256192	56	4191
2026-01-27 08:39:03.69	110.15	33.26	-42.8	-43.7	21.4	0.00e+00	0	43	0	440401920	56	4173
2026-01-27 08:39:04.70	109.96	33.45	-42.8	-43.6	21.5	0.00e+00	0	43	0	443547648	56	4144
2026-01-27 08:39:05.70	109.77	33.64	-42.7	-43.5	21.6	0.00e+00	0	43	0	446693376	56	4078
2026-01-27 08:39:06.71	109.58	33.83	-42.7	-43.5	21.6	0.00e+00	0	43	0	449839104	56	4066
2026-01-27 08:39:07.72	109.38	34.02	-42.8	-43.6	21.4	0.00e+00	0	43	0	452984832	56	4136
2026-01-27 08:39:08.73	109.19	34.21	-43.0	-43.9	21.1	0.00e+00	0	43	0	456130560	56	4274
2026-01-27 08:39:09.74	108.99	34.40	-43.3	-44.2	20.9	0.00e+00	0	43	0	459276288	57	4186
2026-01-27 08:39:10.74	108.79	34.59	-43.8	-44.7	20.5	0.00e+00	0	43	0	462422016	58	4171
2026-01-27 08:39:11.75	108.58	34.79	-43.8	-44.8	20.5	0.00e+00	0	43	0	465567744	58	4222
2026-01-27 08:39:12.76	108.38	34.98	-44.1	-45.0	20.3	0.00e+00	0	43	0	468713472	58	4334
2026-01-27 08:39:13.77	108.17	35.18	-44.0	-45.0	20.3	0.00e+00	0	43	0	471859200	58	4304
2026-01-27 08:39:14.77	107.96	35.37	-44.0	-45.0	20.3	0.00e+00	0	43	0	475004928	58	4318
2026-01-27 08:39:15.78	107.74	35.57	-44.1	-45.1	20.2	0.00e+00	0	43	0	478150656	58	4350
2026-01-27 08:39:16.79	107.53	35.76	-44.2	-45.2	20.1	0.00e+00	0	43	0	481296384	58	4414
2026-01-27 08:39:17.80	107.31	35.96	-44.2	-45.2	20.1	0.00e+00	0	43	0	484442112	58	4404
2026-01-27 08:39:18.81	107.08	36.16	-44.2	-45.2	20.2	0.00e+00	0	43	0	487587840	58	4409
2026-01-27 08:39:19.81	106.86	36.36	-44.3	-45.3	20.0	0.00e+00	0	43	0	490733568	59	4236
2026-01-27 08:39:20.82	106.63	36.56	-44.3	-45.3	20.0	0.00e+00	0	43	0	493879296	59	4222
2026-01-27 08:39:21.83	106.40	36.76	-44.4	-45.4	19.9	0.00e+00	0	43	0	497025024	59	4264
2026-01-27 08:39:22.83	106.17	36.96	-44.6	-45.6	19.7	0.00e+00	0	43	0	500170752	59	4366
2026-01-27 08:39:23.84	105.94	37.16	-44.5	-45.5	19.5	0.00e+00	0	43	0	503316480	60	4093
2026-01-27 08:39:24.85	105.70	37.37	-44.5	-45.6	19.5	0.00e+00	0	43	0	506462208	60	4119
2026-01-27 08:39:25.86	105.45	37.57	-44.5	-45.6	19.5	0.00e+00	0	43	0	509607936	60	4117
2026-01-27 08:39:26.87	105.21	37.77	-44.4	-45.4	19.6	0.00e+00	0	43	0	512753664	60	4048
2026-01-27 08:39:27.87	104.96	37.98	-44.4	-45.5	19.6	0.00e+00	0	43	0	515899392	60	4060
2026-01-27 08:39:28.88	104.71	38.18	-44.4	-45.5	19.6	0.00e+00	0	43	0	519045120	60	4066
2026-01-27 08:39:29.89	104.45	38.39	-44.5	-45.5	19.6	0.00e+00	0	43	0	522190848	60	4093
2026-01-27 08:39:30.90	104.19	38.60	-44.6	-45.6	19.5	0.00e+00	0	43	0	525336576	60	4138
2026-01-27 08:39:31.91	103.93	38.80	-44.6	-45.7	19.4	0.00e+00	0	43	0	528482304	60	4177
2026-01-27 08:39:32.91	103.67	39.01	-44.5	-45.5	19.6	0.00e+00	0	43	0	531628032	60	4094
2026-01-27 08:39:33.92	103.40	39.22	-44.5	-45.5	19.6	0.00e+00	0	43	0	534773760	60	4073
2026-01-27 08:39:34.93	103.13	39.43	-44.5	-45.5	19.7	0.00e+00	0	43	0	537919488	60	4070
2026-01-27 08:39:35.93	102.86	39.63	-44.4	-45.4	19.7	0.00e+00	0	43	0	541065216	60	4049
2026-01-27 08:39:36.94	102.58	39.84	-44.4	-45.4	19.8	0.00e+00	0	43	0	544210944	60	4022
2026-01-27 08:39:37.94	102.30	40.05	-44.4	-45.4	19.7	0.00e+00	0	43	0	547356672	60	4042
2026-01-27 08:39:38.95	102.01	40.26	-44.3	-45.3	19.8	0.00e+00	0	43	0	550502400	60	3991
2026-01-27 08:39:39.96	101.72	40.47	-44.3	-45.4	19.8	0.00e+00	0	43	0	553648128	60	4005
2026-01-27 08:39:40.96	101.43	40.68	-44.2	-45.2	20.0	0.00e+00	0	43	0	556793856	60	3916
2026-01-27 08:39:41.97	101.13	40.90	-44.2	-45.2	19.9	0.00e+00	0	43	0	559939584	60	3921
2026-01-27 08:39:42.98	100.83	41.11	-44.2	-45.2	20.2	0.00e+00	0	43	0	563085312	59	4173
2026-01-27 08:39:43.99	100.52	41.32	-44.2	-45.2	20.1	0.00e+00	0	43	0	566231040	59	4163
2026-01-27 08:39:44.99	100.21	41.53	-44.5	-45.5	19.9	0.00e+00	0	43	0	569376768	59	4300
2026-01-27 08:39:46.00	99.90	41.75	-44.7	-45.7	19.7	0.00e+00	0	43	0	572522496	59	4436
2026-01-27 08:39:47.01	99.58	41.96	-44.6	-45.7	19.4	0.00e+00	0	43	0	575668224	60	4166
2026-01-27 08:39:48.01	99.26	42.17	-44.5	-45.5	19.5	0.00e+00	0	43	0	578813952	60	4098
2026-01-27 08:39:49.02	98.93	42.39	-44.6	-45.6	19.4	0.00e+00	0	43	0	581959680	60	4132
2026-01-27 08:39:50.03	98.60	42.60	-44.5	-45.5	19.6	0.00e+00	0	43	0	585105408	60	4097
2026-01-27 08:39:51.04	98.27	42.81	-44.2	-45.2	19.9	0.00e+00	0	43	0	588251136	60	3921
2026-01-27 08:39:52.05	97.92	43.03	-44.1	-45.1	19.9	0.00e+00	0	43	0	591396864	60	3887
2026-01-27 08:39:53.05	97.58	43.24	-44.2	-45.1	19.8	0.00e+00	0	43	0	594542592	60	3901
2026-01-27 08:39:54.06	97.23	43.46	-44.2	-45.2	19.5	0.00e+00	0	43	0	597688320	60	3929
2026-01-27 08:39:55.07	96.88	43.67	-44.5	-45.6	19.2	0.00e+00	0	43	0	600834048	60	4107
2026-01-27 08:39:56.08	96.52	43.88	-44.7	-45.7	19.0	0.00e+00	0	43	0	603979776	60	4170
2026-01-27 08:39:57.08	96.16	44.10	-45.0	-46.1	18.8	0.00e+00	0	43	0	607125504	60	4381
2026-01-27 08:39:58.09	95.79	44.31	-45.1	-46.2	18.9	0.00e+00	0	43	0	610271232	60	4415
2026-01-27 08:39:59.10	95.41	44.52	-44.9	-46.0	19.0	0.00e+00	0	43	0	613416960	60	4315
2026-01-27 08:40:00.11	95.03	44.74	-44.7	-45.8	19.3	0.00e+00	0	43	0	616562688	60	4214
2026-01-27 08:40:01.11	94.65	44.95	-44.8	-45.9	19.2	0.00e+00	0	43	0	619708416	60	4269
2026-01-27 08:40:02.13	94.26	45.16	-44.7	-45.8	19.3	0.00e+00	0	43	0	622854144	60	4197
2026-01-27 08:40:03.13	93.87	45.37	-44.8	-45.9	19.1	0.00e+00	0	43	0	625999872	60	4253
2026-01-27 08:40:04.14	93.47	45.59	-45.1	-46.2	18.8	0.00e+00	0	43	0	629145600	60	4418
2026-01-27 08:40:05.15	93.06	45.80	-44.8	-45.9	19.1	0.00e+00	0	43	0	632291328	60	4269
2026-01-27 08:40:06.16	92.65	46.01	-44.7	-45.8	19.3	0.00e+00	0	43	0	635437056	60	4197
2026-01-27 08:40:07.16	92.24	46.22	-44.6	-45.7	19.4	0.00e+00	0	43	0	638582784	60	4167
2026-01-27 08:40:08.17	91.82	46.43	-44.4	-45.4	19.7	0.00e+00	0	43	0	641728512	60	4047
2026-01-27 08:40:09.18	91.39	46.64	-44.4	-45.5	19.6	0.00e+00	0	43	0	644874240	60	4057
2026-01-27 08:40:10.19	90.95	46.85	-44.3	-45.3	19.8	0.00e+00	0	43	0	648019968	60	3978
2026-01-27 08:40:11.20	90.51	47.05	-44.6	-45.6	19.8	0.00e+00	0	43	0	651165696	59	4368
2026-01-27 08:40:12.20	90.07	47.26	-44.6	-45.6	19.8	0.00e+00	0	43	0	654311424	59	4378
2026-01-27 08:40:13.21	89.62	47.47	-44.4	-45.4	19.7	0.00e+00	0	43	0	657457152	60	4027
2026-01-27 08:40:14.22	89.16	47.67	-44.7	-45.8	19.4	0.00e+00	0	43	0	660602880	60	4197
2026-01-27 08:40:15.23	88.70	47.87	-44.7	-45.8	19.4	0.00e+00	0	43	0	663748608	60	4194
2026-01-27 08:40:16.24	88.23	48.08	-44.5	-45.6	19.6	0.00e+00	0	43	0	666894336	60	4104
2026-01-27 08:40:17.24	87.76	48.28	-44.5	-45.5	19.6	0.00e+00	0	43	0	670040064	60	4098
2026-01-27 08:40:18.25	87.27	48.48	-44.2	-45.2	19.9	0.00e+00	0	43	0	673185792	60	3928
2026-01-27 08:40:19.26	86.79	48.68	-44.1	-45.0	20.0	0.00e+00	0	43	0	676331520	60	3862
2026-01-27 08:40:20.27	86.29	48.87	-44.4	-45.4	19.7	0.00e+00	0	43	0	679477248	60	4035
2026-01-27 08:40:21.27	85.79	49.07	-44.6	-45.6	19.5	0.00e+00	0	43	0	682622976	60	4130
2026-01-27 08:40:22.28	85.29	49.26	-44.3	-45.4	19.7	0.00e+00	0	43	0	685768704	60	4013
2026-01-27 08:40:23.29	84.77	49.46	-44.1	-45.0	20.1	0.00e+00	0	43	0	688914432	60	3859
2026-01-27 08:40:24.30	84.25	49.65	-44.5	-45.5	20.0	0.00e+00	0	43	0	692060160	59	4298
2026-01-27 08:40:25.30	83.73	49.84	-44.4	-45.3	20.0	0.00e+00	0	43	0	695205888	59	4230
2026-01-27 08:40:26.31	83.19	50.02	-44.6	-45.6	19.9	0.00e+00	0	43	0	698351616	59	4371
2026-01-27 08:40:27.32	82.65	50.21	-44.3	-45.3	20.2	0.00e+00	0	43	0	701497344	59	4234
2026-01-27 08:40:28.32	82.11	50.39	-44.0	-45.0	20.5	0.00e+00	0	43	0	704643072	59	4075
2026-01-27 08:40:29.33	81.56	50.57	-43.8	-44.8	20.7	0.00e+00	0	43	0	707788800	59	3972
2026-01-27 08:40:30.34	81.00	50.75	-43.9	-44.8	20.6	0.00e+00	0	43	0	710934528	59	3994
2026-01-27 08:40:31.35	80.43	50.93	-44.1	-45.1	20.4	0.00e+00	0	43	0	714080256	59	4110
2026-01-27 08:40:32.35	79.86	51.10	-44.2	-45.2	20.3	0.00e+00	0	43	0	717225984	59	4147
2026-01-27 08:40:33.36	79.28	51.28	-44.2	-45.2	20.3	0.00e+00	0	43	0	720371712	59	4171
2026-01-27 08:40:34.37	78.69	51.45	-44.2	-45.1	20.3	0.00e+00	0	43	0	723517440	59	4138
2026-01-27 08:40:35.38	78.10	51.61	-43.7	-44.6	20.7	0.00e+00	0	43	0	726663168	59	3913
2026-01-27 08:40:36.39	77.50	51.78	-43.4	-44.3	21.0	0.00e+00	0	43	0	729808896	58	3992
2026-01-27 08:40:37.40	76.89	51.94	-43.3	-44.2	21.1	0.00e+00	0	43	0	732954624	58	3940
2026-01-27 08:40:38.41	76.28	52.10	-43.4	-44.3	21.1	0.00e+00	0	43	0	736100352	58	3959
2026-01-27 08:40:39.42	75.66	52.26	-43.1	-44.0	21.4	0.00e+00	0	43	0	739246080	58	3832
2026-01-27 08:40:40.43	75.03	52.41	-42.9	-43.8	21.5	0.00e+00	0	43	0	742391808	57	3966
2026-01-27 08:40:41.44	74.39	52.56	-42.9	-43.8	21.5	0.00e+00	0	43	0	745537536	57	3975
2026-01-27 08:40:42.45	73.75	52.71	-43.1	-44.0	21.3	0.00e+00	0	43	0	748683264	57	4066
2026-01-27 08:40:43.46	73.11	52.85	-43.2	-44.1	21.2	0.00e+00	0	43	0	751828992	57	4118
2026-01-27 08:40:44.47	72.45	52.99	-43.4	-44.3	21.1	0.00e+00	0	43	0	754974720	57	4197
2026-01-27 08:40:45.47	71.80	53.13	-43.4	-44.3	21.0	0.00e+00	0	43	0	758120448	57	4238
2026-01-27 08:40:46.49	71.13	53.26	-43.6	-44.5	20.9	0.00e+00	0	43	0	761266176	57	4330
2026-01-27 08:40:47.50	70.46	53.39	-43.8	-44.8	20.7	0.00e+00	0	43	0	764411904	58	4197
2026-01-27 08:40:48.51	69.78	53.52	-44.0	-44.9	20.5	0.00e+00	0	43	0	767557632	58	4274
2026-01-27 08:40:49.51	69.10	53.64	-44.0	-45.0	20.4	0.00e+00	0	43	0	770703360	58	4305
2026-01-27 08:40:50.52	68.42	53.75	-43.7	-44.6	20.7	0.00e+00	0	43	0	773849088	58	4113
2026-01-27 08:40:51.53	67.72	53.87	-43.2	-44.1	21.3	0.00e+00	0	43	0	776994816	58	3883
2026-01-27 08:40:52.54	67.02	53.98	-43.2	-44.1	21.3	0.00e+00	0	43	0	780140544	58	3872
2026-01-27 08:40:53.55	66.32	54.08	-43.2	-44.0	21.4	0.00e+00	0	43	0	783286272	58	3851
2026-01-27 08:40:54.56	65.61	54.19	-42.9	-43.7	21.6	0.00e+00	0	43	0	786432000	57	3934
2026-01-27 08:40:55.57	64.89	54.28	-43.0	-43.8	21.5	0.00e+00	0	42	0	789577728	57	3984
2026-01-27 08:40:56.58	64.17	54.38	-42.9	-43.7	21.6	0.00e+00	0	43	0	792723456	57	3936
2026-01-27 08:40:57.59	63.45	54.47	-42.9	-43.8	21.5	0.00e+00	0	43	0	795869184	57	3971
2026-01-27 08:40:58.60	62.72	54.55	-42.9	-43.7	21.5	0.00e+00	0	43	0	799014912	57	3950
2026-01-27 08:40:59.61	61.99	54.63	-42.6	-43.5	21.7	0.00e+00	0	43	0	802160640	57	3833
2026-01-27 08:41:00.62	61.25	54.70	-42.6	-43.4	21.8	0.00e+00	0	43	0	805306368	57	3812
2026-01-27 08:41:01.63	60.51	54.77	-42.8	-43.6	21.5	0.00e+00	0	43	0	809500672	57	3908
2026-01-27 08:41:02.64	59.76	54.84	-43.2	-44.1	21.2	0.00e+00	0	43	0	811597824	57	4126
2026-01-27 08:41:03.65	59.02	54.90	-43.5	-44.4	21.0	0.00e+00	0	43	0	814743552	57	4247
2026-01-27 08:41:04.66	58.27	54.96	-43.5	-44.4	21.0	0.00e+00	0	43	0	817889280	57	4260
2026-01-27 08:41:05.67	57.51	55.01	-43.3	-44.2	21.2	0.00e+00	0	43	0	821035008	57	4165
2026-01-27 08:41:06.67	56.76	55.05	-43.1	-44.0	21.4	0.00e+00	0	43	0	824180736	57	4058
2026-01-27 08:41:07.68	56.01	55.09	-43.2	-44.0	21.4	0.00e+00	0	43	0	827326464	57	4096
2026-01-27 08:41:08.69	55.25	55.13	-43.3	-44.2	21.2	0.00e+00	0	43	0	830472192	57	4166
2026-01-27 08:41:09.70	54.48	55.16	-43.4	-44.3	21.1	0.00e+00	0	43	0	833617920	57	4227
2026-01-27 08:41:10.71	53.72	55.19	-43.4	-44.3	21.1	0.00e+00	0	43	0	836763648	57	4204
2026-01-27 08:41:11.72	52.96	55.21	-43.2	-44.0	21.1	0.00e+00	0	43	0	839909376	57	4093
2026-01-27 08:41:12.73	52.19	55.23	-43.1	-44.0	21.3	0.00e+00	0	43	0	844103680	57	4058
2026-01-27 08:41:13.74	51.42	55.24	-43.0	-43.9	21.5	0.00e+00	0	43	0	847249408	57	4023
2026-01-27 08:41:14.74	50.66	55.24	-43.2	-44.1	21.3	0.00e+00	0	43	0	850395136	57	4108
2026-01-27 08:41:15.75	49.90	55.24	-43.7	-44.6	20.8	0.00e+00	0	43	0	853540864	57	4370
2026-01-27 08:41:16.76	49.13	55.24	-43.9	-44.8	20.6	0.00e+00	0	43	0	856686592	58	4240
2026-01-27 08:41:17.77	48.36	55.23	-43.7	-44.7	20.8	0.00e+00	0	43	0	858783744	58	4151
2026-01-27 08:41:18.77	47.60	55.22	-43.5	-44.4	21.0	0.00e+00	0	43	0	861929472	58	4047
2026-01-27 08:41:19.78	46.84	55.20	-43.2	-44.1	21.3	0.00e+00	0	43	0	865075200	58	3875
2026-01-27 08:41:20.79	46.07	55.17	-43.2	-44.1	21.3	0.00e+00	0	43	0	868220928	58	3901
2026-01-27 08:41:21.80	45.31	55.14	-43.3	-44.2	21.1	0.00e+00	0	43	0	871366656	58	3951
2026-01-27 08:41:22.81	44.55	55.11	-44.0	-45.0	20.5	0.00e+00	0	43	0	874512384	58	4292
2026-01-27 08:41:23.82	43.79	55.07	-44.1	-45.1	20.4	0.00e+00	0	43	0	877658112	58	4350
2026-01-27 08:41:24.82	43.04	55.03	-43.8	-44.8	20.7	0.00e+00	0	43	0	880803840	58	4216
2026-01-27 08:41:25.83	42.29	54.98	-43.3	-44.2	21.2	0.00e+00	0	43	0	884998144	58	3916
2026-01-27 08:41:26.83	41.54	54.92	-43.3	-44.2	21.3	0.00e+00	0	43	0	888143872	58	3923
2026-01-27 08:41:27.84	40.80	54.86	-43.5	-44.5	21.0	0.00e+00	0	43	0	891289600	58	4068
2026-01-27 08:41:28.85	40.05	54.80	-43.6	-44.6	20.9	0.00e+00	0	43	0	894435328	58	4102
2026-01-27 08:41:29.86	39.31	54.73	-43.4	-44.3	21.1	0.00e+00	0	43	0	897581056	58	3977
2026-01-27 08:41:30.86	38.58	54.66	-43.3	-44.3	21.1	0.00e+00	0	43	0	900726784	58	3959
2026-01-27 08:41:31.87	37.84	54.58	-43.1	-44.0	21.3	0.00e+00	0	43	0	903872512	58	3859
2026-01-27 08:41:32.87	37.12	54.50	-42.7	-43.5	21.8	0.00e+00	0	43	0	907018240	57	3850
2026-01-27 08:41:33.88	36.40	54.41	-42.6	-43.4	21.9	0.00e+00	0	43	0	909115392	57	3823
2026-01-27 08:41:34.89	35.67	54.32	-43.1	-44.0	21.4	0.00e+00	0	43	0	912261120	57	4080
2026-01-27 08:41:35.90	34.96	54.23	-43.3	-44.2	21.2	0.00e+00	0	43	0	915406848	57	4177
2026-01-27 08:41:36.90	34.25	54.13	-43.2	-44.0	21.3	0.00e+00	0	43	0	918552576	57	4089
2026-01-27 08:41:37.91	33.55	54.02	-43.0	-43.8	21.5	0.00e+00	0	43	0	921698304	57	4001
2026-01-27 08:41:38.93	32.84	53.91	-42.7	-43.5	21.7	0.00e+00	0	43	0	925892608	57	3865
2026-01-27 08:41:39.93	32.15	53.80	-42.9	-43.8	21.5	0.00e+00	0	43	0	929038336	57	3977
2026-01-27 08:41:40.94	31.46	53.69	-43.6	-44.5	20.9	0.00e+00	0	43	0	932184064	57	4318
2026-01-27 08:41:41.95	30.77	53.57	-44.3	-45.3	20.2	0.00e+00	0	43	0	935329792	59	4218
2026-01-27 08:41:42.95	30.10	53.44	-44.3	-45.2	20.3	0.00e+00	0	43	0	938475520	59	4192
2026-01-27 08:41:43.96	29.43	53.32	-43.9	-44.9	20.6	0.00e+00	0	43	0	941621248	59	4021
2026-01-27 08:41:44.97	28.76	53.18	-43.6	-44.5	20.8	0.00e+00	0	43	0	944766976	59	3857
2026-01-27 08:41:45.98	28.10	53.05	-43.1	-43.9	21.4	0.00e+00	0	43	0	947912704	58	3823
2026-01-27 08:41:46.98	27.45	52.91	-43.1	-43.9	21.4	0.00e+00	0	43	0	951058432	57	4025
2026-01-27 08:41:47.99	26.80	52.77	-43.6	-44.5	20.9	0.00e+00	0	43	0	954204160	57	4326
2026-01-27 08:41:49.00	26.16	52.62	-44.5	-45.6	19.9	0.00e+00	0	43	0	956301312	59	4352
2026-01-27 08:41:50.01	25.53	52.48	-44.5	-45.5	19.9	0.00e+00	0	43	0	959447040	59	4324
2026-01-27 08:41:51.01	24.90	52.33	-44.2	-45.1	20.3	0.00e+00	0	43	0	962592768	59	4133
2026-01-27 08:41:52.03	24.27	52.17	-44.2	-45.1	20.3	0.00e+00	0	43	0	966787072	59	4139
2026-01-27 08:41:53.03	23.66	52.01	-44.0	-44.9	20.5	0.00e+00	0	43	0	969932800	59	4018
2026-01-27 08:41:54.04	23.05	51.85	-44.5	-45.5	19.8	0.00e+00	0	43	0	973078528	59	4327
2026-01-27 08:41:55.05	22.45	51.69	-45.1	-46.2	18.9	0.00e+00	0	43	0	976224256	60	4393
2026-01-27 08:41:56.06	21.85	51.52	-45.4	-46.5	18.6	0.00e+00	0	43	0	979369984	61	4334
2026-01-27 08:41:57.07	21.26	51.35	-44.2	-45.1	20.0	0.00e+00	0	43	0	982515712	60	3909
2026-01-27 08:41:58.08	20.68	51.18	-44.0	-45.0	20.3	0.00e+00	0	43	0	985661440	59	4072
2026-01-27 08:41:59.08	20.11	51.01	-44.0	-45.0	20.4	0.00e+00	0	43	0	988807168	59	4052
2026-01-27 08:42:00.09	19.54	50.83	-44.5	-45.5	20.0	0.00e+00	0	43	0	991952896	59	4300
2026-01-27 08:42:01.10	18.98	50.66	-44.7	-45.8	19.5	0.00e+00	0	43	0	995098624	60	4214
2026-01-27 08:42:02.11	18.42	50.48	-45.6	-46.8	18.5	0.00e+00	0	43	0	998244352	61	4452
2026-01-27 08:42:03.12	17.87	50.29	-44.8	-45.8	19.2	0.00e+00	0	43	0	1001390080	61	4004
2026-01-27 08:42:04.13	17.33	50.11	-44.3	-45.2	20.1	0.00e+00	0	43	0	1004535808	59	4187
2026-01-27 08:42:05.13	16.80	49.92	-44.0	-44.9	20.4	0.00e+00	0	43	0	1007681536	59	4045
2026-01-27 08:42:06.14	16.27	49.74	-44.4	-45.4	19.9	0.00e+00	0	43	0	1010827264	59	4268
2026-01-27 08:42:07.15	15.75	49.54	-44.6	-45.6	19.4	0.00e+00	0	43	0	1013972992	59	4391
2026-01-27 08:42:08.16	15.23	49.35	-44.4	-45.4	19.5	0.00e+00	0	43	0	1017118720	60	4041
2026-01-27 08:42:09.17	14.72	49.16	-45.0	-46.1	19.1	0.00e+00	0	43	0	1020264448	60	4375
2026-01-27 08:42:10.18	14.22	48.96	-45.6	-46.8	18.2	0.00e+00	0	43	0	1023410176	61	4493
2026-01-27 08:42:11.19	13.72	48.77	-45.2	-46.3	18.5	0.00e+00	0	43	0	1026555904	61	4232
2026-01-27 08:42:12.20	13.23	48.57	-44.4	-45.4	19.4	0.00e+00	0	43	0	1029701632	60	4006
2026-01-27 08:42:13.21	12.74	48.37	-44.3	-45.3	19.9	0.00e+00	0	43	0	1032847360	59	4195
2026-01-27 08:42:14.21	12.27	48.17	-44.6	-45.7	19.4	0.00e+00	0	43	0	1035993088	60	4154
2026-01-27 08:42:15.22	11.80	47.97	-44.7	-45.8	19.0	0.00e+00	0	43	0	1039138816	60	4223
2026-01-27 08:42:16.23	11.33	47.77	-45.4	-46.6	18.5	0.00e+00	0	43	0	1042284544	61	4341
2026-01-27 08:42:17.24	10.87	47.56	-46.0	-47.3	17.9	0.00e+00	0	43	0	1045430272	62	4483
2026-01-27 08:42:18.24	10.42	47.36	-46.1	-47.4	17.8	0.00e+00	0	43	0	1048576000	63	4290
2026-01-27 08:42:19.25	9.98	47.15	-45.5	-46.7	18.2	0.00e+00	0	43	0	1051721728	63	3949
2026-01-27 08:42:20.26	9.54	46.94	-44.6	-45.7	18.9	0.00e+00	0	43	0	1054867456	61	3936
2026-01-27 08:42:21.27	9.10	46.74	-44.3	-45.3	19.5	0.00e+00	0	43	0	1058013184	59	4235
2026-01-27 08:42:22.28	8.67	46.53	-44.0	-44.9	20.2	0.00e+00	0	43	0	1061158912	59	4026
2026-01-27 08:42:23.29	8.25	46.32	-44.1	-45.1	20.2	0.00e+00	0	43	0	1064304640	59	4124
2026-01-27 08:42:24.29	7.83	46.11	-44.5	-45.5	19.5	0.00e+00	0	43	0	1067450368	60	4098
2026-01-27 08:42:25.30	7.42	45.90	-45.5	-46.7	18.4	0.00e+00	0	43	0	1070596096	61	4429
2026-01-27 08:42:26.31	7.01	45.69	-46.1	-47.4	17.9	0.00e+00	0	43	0	1073741824	62	4540
2026-01-27 08:42:27.32	6.61	45.48	-45.9	-47.1	18.1	0.00e+00	0	43	0	1076887552	62	4373
2026-01-27 08:42:28.32	6.22	45.27	-45.5	-46.6	18.4	0.00e+00	0	43	0	1080033280	62	4134
2026-01-27 08:42:29.33	5.82	45.06	-45.0	-46.1	19.0	0.00e+00	0	43	0	1083179008	62	3896
2026-01-27 08:42:30.34	5.44	44.84	-44.8	-45.9	19.3	0.00e+00	0	43	0	1086324736	60	4256
2026-01-27 08:42:31.35	5.06	44.63	-44.9	-45.9	19.3	0.00e+00	0	43	0	1089470464	60	4271
2026-01-27 08:42:32.36	4.68	44.42	-45.0	-46.1	19.1	0.00e+00	0	43	0	1092616192	60	4350
2026-01-27 08:42:33.37	4.31	44.20	-45.1	-46.2	18.8	0.00e+00	0	43	0	1095761920	60	4393
2026-01-27 08:42:34.37	3.95	43.99	-45.6	-46.8	18.3	0.00e+00	0	43	0	1098907648	61	4452
2026-01-27 08:42:35.38	3.59	43.78	-46.4	-47.8	17.5	0.00e+00	0	43	0	1102053376	63	4457
2026-01-27 08:42:36.39	3.23	43.56	-46.6	-48.0	17.1	0.00e+00	0	43	0	1105199104	64	4322
2026-01-27 08:42:37.40	2.88	43.35	-45.4	-46.6	18.2	0.00e+00	0	43	0	1108344832	62	4109
2026-01-27 08:42:38.41	2.53	43.14	-44.4	-45.4	19.5	0.00e+00	0	43	0	1111490560	60	4013
2026-01-27 08:42:39.41	2.19	42.92	-43.8	-44.7	20.6	0.00e+00	0	43	0	1114636288	59	3920
2026-01-27 08:42:40.42	1.86	42.71	-43.2	-44.0	21.2	0.00e+00	0	43	0	1117782016	58	3858
2026-01-27 08:42:41.43	1.52	42.50	-43.6	-44.5	20.8	0.00e+00	0	43	0	1120927744	58	4072
2026-01-27 08:42:42.44	1.20	42.28	-43.9	-44.8	20.6	0.00e+00	0	43	0	1124073472	58	4237
2026-01-27 08:42:43.45	0.87	42.07	-44.3	-45.3	20.2	0.00e+00	0	43	0	1127219200	59	4199
2026-01-27 08:42:44.46	0.55	41.86	-44.5	-45.5	19.9	0.00e+00	0	43	0	1130364928	59	4325
2026-01-27 08:42:45.47	0.24	41.64	-44.5	-45.6	19.6	0.00e+00	0	43	0	1133510656	60	4101
2026-01-27 08:42:46.48	359.92	41.43	-45.3	-46.5	18.7	0.00e+00	0	43	0	1136656384	61	4321
2026-01-27 08:42:47.49	359.62	41.22	-45.8	-47.1	17.8	0.00e+00	0	43	0	1139802112	62	4365
2026-01-27 08:42:48.49	359.32	41.01	-45.5	-46.7	17.8	0.00e+00	0	43	0	1142947840	62	4176
2026-01-27 08:42:49.50	359.02	40.80	-44.6	-45.6	18.9	0.00e+00	0	43	0	1146093568	61	3899
2026-01-27 08:42:50.51	358.72	40.59	-44.1	-45.1	19.7	0.00e+00	0	43	0	1149239296	60	3879
2026-01-27 08:42:51.52	358.43	40.37	-44.2	-45.1	19.7	0.00e+00	0	43	0	1152385024	60	3913
2026-01-27 08:42:52.53	358.14	40.16	-44.5	-45.6	19.2	0.00e+00	0	43	0	1155530752	60	4099
2026-01-27 08:42:53.53	357.86	39.96	-44.9	-46.0	18.7	0.00e+00	0	43	0	1158676480	60	4295
2026-01-27 08:42:54.54	357.58	39.75	-45.1	-46.3	18.7	0.00e+00	0	43	0	1161822208	60	4447
2026-01-27 08:42:55.54	357.31	39.54	-45.1	-46.2	18.9	0.00e+00	0	43	0	1164967936	61	4193
2026-01-27 08:42:56.55	357.03	39.33	-44.2	-45.2	19.8	0.00e+00	0	43	0	1168113664	60	3934
2026-01-27 08:42:57.56	356.76	39.12	-44.1	-45.1	20.1	0.00e+00	0	43	0	1171259392	59	4099
2026-01-27 08:42:58.57	356.50	38.91	-43.9	-44.9	20.4	0.00e+00	0	43	0	1174405120	59	4007
2026-01-27 08:42:59.58	356.24	38.71	-43.9	-44.8	20.5	0.00e+00	0	43	0	1177550848	58	4240
2026-01-27 08:43:00.58	355.98	38.50	-44.2	-45.2	20.2	0.00e+00	0	43	0	1180696576	58	4397
2026-01-27 08:43:01.59	355.72	38.30	-44.3	-45.3	20.0	0.00e+00	0	43	0	1183842304	59	4233
2026-01-27 08:43:02.60	355.47	38.09	-44.6	-45.7	19.7	0.00e+00	0	43	0	1186988032	59	4406
2026-01-27 08:43:03.61	355.22	37.89	-44.7	-45.7	19.7	0.00e+00	0	43	0	1190133760	59	4424
2026-01-27 08:43:04.61	354.98	37.68	-44.4	-45.4	19.7	0.00e+00	0	43	0	1193279488	60	4029
2026-01-27 08:43:05.62	354.73	37.48	-44.4	-45.4	19.6	0.00e+00	0	43	0	1196425216	60	4026
2026-01-27 08:43:06.63	354.49	37.28	-44.5	-45.5	19.5	0.00e+00	0	43	0	1199570944	60	4093
2026-01-27 08:43:07.63	354.26	37.08	-44.6	-45.7	19.4	0.00e+00	0	43	0	1202716672	60	4168
2026-01-27 08:43:08.64	354.02	36.88	-44.5	-45.6	19.5	0.00e+00	0	43	0	1205862400	60	4109
2026-01-27 08:43:09.65	353.79	36.68	-44.4	-45.4	19.5	0.00e+00	0	43	0	1209008128	60	4026
2026-01-27 08:43:10.66	353.56	36.48	-44.4	-45.4	19.6	0.00e+00	0	43	0	1212153856	60	4024
2026-01-27 08:43:11.67	353.34	36.28	-44.1	-45.1	19.9	0.00e+00	0	43	0	1215299584	60	3871
2026-01-27 08:43:12.68	353.11	36.08	-44.4	-45.4	20.0	0.00e+00	0	43	0	1218445312	59	4246
2026-01-27 08:43:13.69	352.89	35.88	-43.8	-44.7	20.6	0.00e+00	0	43	0	1221591040	58	4156
2026-01-27 08:43:14.70	352.68	35.68	-43.8	-44.8	20.4	0.00e+00	0	43	0	1224736768	58	4200
2026-01-27 08:43:15.71	352.46	35.49	-43.8	-44.8	20.3	0.00e+00	0	43	0	1227882496	58	4195
2026-01-27 08:43:16.72	352.25	35.29	-44.0	-45.0	20.2	0.00e+00	0	43	0	1231028224	58	4304
2026-01-27 08:43:17.72	352.04	35.10	-44.0	-45.0	20.3	0.00e+00	0	43	0	1234173952	58	4294
2026-01-27 08:43:18.73	351.83	34.90	-43.9	-44.8	20.5	0.00e+00	0	43	0	1237319680	58	4217
2026-01-27 08:43:19.74	351.63	34.71	-43.9	-44.8	20.4	0.00e+00	0	43	0	1240465408	58	4227
2026-01-27 08:43:20.75	351.43	34.52	-43.9	-44.9	20.4	0.00e+00	0	43	0	1243611136	58	4262
2026-01-27 08:43:21.76	351.23	34.32	-44.0	-45.0	20.3	0.00e+00	0	43	0	1246756864	58	4301
2026-01-27 08:43:22.76	351.03	34.14	-44.0	-45.0	20.3	0.00e+00	0	43	0	1249902592	58	4315
2026-01-27 08:43:23.77	350.84	33.94	-43.7	-44.7	20.6	0.00e+00	0	43	0	1253048320	58	4159
2026-01-27 08:43:24.77	350.65	33.76	-43.7	-44.6	20.6	0.00e+00	0	43	0	1256194048	58	4143
2026-01-27 08:43:25.78	350.46	33.57	-43.6	-44.5	20.8	0.00e+00	0	43	0	1259339776	58	4091
2026-01-27 08:43:26.79	350.27	33.38	-43.6	-44.6	20.7	0.00e+00	0	43	0	1262485504	58	4099
2026-01-27 08:43:27.79	350.08	33.20	-43.7	-44.7	20.6	0.00e+00	0	43	0	1265631232	58	4150
2026-01-27 08:43:28.79	349.90	33.01	-43.5	-44.5	20.8	0.00e+00	0	43	0	1268776960	58	4055
2026-01-27 08:43:29.80	349.72	32.82	-43.6	-44.5	20.8	0.00e+00	0	43	0	1271922688	58	4071
2026-01-27 08:43:30.81	349.54	32.64	-43.6	-44.5	20.8	0.00e+00	0	43	0	1275068416	58	4080
2026-01-27 08:43:31.82	349.36	32.46	-43.6	-44.6	20.7	0.00e+00	0	43	0	1278214144	58	4099
2026-01-27 08:43:32.83	349.18	32.27	-43.5	-44.5	20.8	0.00e+00	0	43	0	1281359872	58	4053
2026-01-27 08:43:33.84	349.01	32.09	-43.4	-44.3	20.9	0.00e+00	0	43	0	1284505600	57	4238
2026-01-27 08:43:34.85	348.84	31.91	-43.3	-44.3	20.9	0.00e+00	0	43	0	1287651328	57	4194
2026-01-27 08:43:35.85	348.67	31.73	-43.2	-44.1	21.1	0.00e+00	0	43	0	1290797056	57	4108
2026-01-27 08:43:36.86	348.50	31.55	-42.7	-43.5	21.5	0.00e+00	0	43	0	1293942784	57	3867
2026-01-27 08:43:37.87	348.34	31.37	-42.3	-43.1	21.9	0.00e+00	0	43	0	1297088512	56	3901
2026-01-27 08:43:38.88	348.17	31.19	-41.9	-42.7	22.2	0.00e+00	0	43	0	1300234240	55	3928
2026-01-27 08:43:39.88	348.01	31.02	-41.9	-42.7	22.2	0.00e+00	0	43	0	1303379968	55	3945
2026-01-27 08:43:40.89	347.85	30.84	-41.8	-42.6	22.3	0.00e+00	0	43	0	1306525696	55	3889
2026-01-27 08:43:41.89	347.69	30.67	-41.9	-42.7	22.2	0.00e+00	0	43	0	1309671424	55	3942
2026-01-27 08:43:42.90	347.54	30.49	-41.8	-42.6	22.3	0.00e+00	0	43	0	1312817152	55	3874
2026-01-27 08:43:43.91	347.38	30.32	-42.1	-42.9	22.0	0.00e+00	0	43	0	1315962880	55	4039
2026-01-27 08:43:44.92	347.23	30.14	-42.2	-43.0	21.9	0.00e+00	0	43	0	1319108608	55	4094
2026-01-27 08:43:45.93	347.08	29.97	-42.5	-43.3	21.6	0.00e+00	0	43	0	1322254336	55	4240
2026-01-27 08:43:46.93	346.93	29.80	-42.9	-43.8	21.3	0.00e+00	0	43	0	1325400064	56	4222
2026-01-27 08:43:47.94	346.78	29.63	-43.0	-44.0	21.1	0.00e+00	0	43	0	1328545792	56	4294
2026-01-27 08:43:48.95	346.63	29.46	-43.2	-44.2	20.9	0.00e+00	0	43	0	1331691520	57	4160
2026-01-27 08:43:49.96	346.49	29.29	-43.2	-44.2	20.9	0.00e+00	0	43	0	1334837248	57	4160
2026-01-27 08:43:50.96	346.34	29.12	-43.3	-44.3	20.9	0.00e+00	0	43	0	1337982976	57	4200
2026-01-27 08:43:51.97	346.20	28.96	-43.2	-44.1	21.0	0.00e+00	0	43	0	1341128704	57	4123
2026-01-27 08:43:52.98	346.06	28.79	-43.2	-44.1	20.9	0.00e+00	0	43	0	1344274432	57	4125
2026-01-27 08:43:53.99	345.92	28.62	-43.2	-44.1	20.9	0.00e+00	0	43	0	1347420160	57	4137
2026-01-27 08:43:55.00	345.78	28.46	-42.8	-43.7	21.3	0.00e+00	0	43	0	1350565888	57	3923
2026-01-27 08:43:56.01	345.65	28.29	-42.6	-43.5	21.5	0.00e+00	0	43	0	1353711616	57	3829
2026-01-27 08:43:57.02	345.51	28.13	-42.4	-43.3	21.6	0.00e+00	0	43	0	1356857344	56	3980
2026-01-27 08:43:58.03	345.38	27.97	-42.3	-43.1	21.8	0.00e+00	0	43	0	1360003072	56	3908
2026-01-27 08:43:59.04	345.25	27.80	-42.1	-42.9	22.0	0.00e+00	0	43	0	1363148800	56	3806
2026-01-27 08:44:00.05	345.11	27.64	-41.7	-42.5	22.3	0.00e+00	0	43	0	1366294528	55	3831
2026-01-27 08:44:01.06	344.99	27.48	-41.6	-42.4	22.3	0.00e+00	0	43	0	1369440256	55	3810
2026-01-27 08:44:02.06	344.86	27.32	-41.6	-42.4	22.3	0.00e+00	0	43	0	1372585984	55	3808
2026-01-27 08:44:03.07	344.73	27.16	-41.6	-42.3	22.4	0.00e+00	0	43	0	1375731712	55	3777
2026-01-27 08:44:04.08	344.61	27.00	-41.5	-42.3	22.4	0.00e+00	0	43	0	1378877440	55	3769
2026-01-27 08:44:05.09	344.48	26.85	-41.6	-42.3	22.4	0.00e+00	0	43	0	1382023168	55	3778
2026-01-27 08:44:06.10	344.36	26.69	-41.6	-42.4	22.3	0.00e+00	0	43	0	1385168896	55	3813
2026-01-27 08:44:07.10	344.24	26.54	-41.6	-42.3	22.4	0.00e+00	0	43	0	1388314624	55	3777
2026-01-27 08:44:08.11	344.12	26.38	-41.6	-42.4	22.3	0.00e+00	0	43	0	1391460352	55	3800
2026-01-27 08:44:09.12	344.00	26.23	-41.7	-42.5	22.3	0.00e+00	0	43	0	1394606080	55	3834
2026-01-27 08:44:10.12	343.88	26.07	-41.8	-42.6	22.2	0.00e+00	0	43	0	1397751808	55	3906
2026-01-27 08:44:11.13	343.76	25.92	-41.9	-42.7	22.1	0.00e+00	0	43	0	1400897536	55	3946
2026-01-27 08:44:12.14	343.65	25.77	-42.0	-42.8	22.0	0.00e+00	0	43	0	1404043264	55	3984
2026-01-27 08:44:13.15	343.53	25.62	-42.0	-42.9	22.0	0.00e+00	0	43	0	1407188992	55	4013
2026-01-27 08:44:14.16	343.42	25.47	-42.0	-42.9	22.0	0.00e+00	0	43	0	1410334720	55	4009
2026-01-27 08:44:15.17	343.31	25.31	-42.2	-43.0	21.9	0.00e+00	0	43	0	1413480448	55	4064
2026-01-27 08:44:16.18	343.19	25.17	-42.2	-43.1	21.8	0.00e+00	0	43	0	1416626176	55	4108
2026-01-27 08:44:17.19	343.08	25.02	-42.3	-43.1	21.7	0.00e+00	0	43	0	1419771904	55	4134
2026-01-27 08:44:18.20	342.98	24.87	-42.4	-43.2	21.6	0.00e+00	0	43	0	1422917632	55	4188
2026-01-27 08:44:19.20	342.87	24.72	-42.4	-43.3	21.6	0.00e+00	0	43	0	1426063360	55	4206
2026-01-27 08:44:20.21	342.76	24.58	-42.5	-43.4	21.4	0.00e+00	0	43	0	1429209088	55	4261
2026-01-27 08:44:21.22	342.65	24.43	-42.4	-43.3	21.5	0.00e+00	0	43	0	1432354816	55	4214
2026-01-27 08:44:22.23	342.55	24.28	-42.5	-43.4	21.3	0.00e+00	0	43	0	1435500544	55	4276
2026-01-27 08:44:23.24	342.45	24.14	-42.5	-43.3	21.4	0.00e+00	0	43	0	1438646272	55	4235
2026-01-27 08:44:24.25	342.34	24.00	-42.4	-43.3	21.4	0.00e+00	0	43	0	1441792000	55	4215
2026-01-27 08:44:25.26	342.24	23.85	-42.3	-43.1	21.5	0.00e+00	0	43	0	1444937728	55	4130
2026-01-27 08:44:26.27	342.14	23.71	-42.2	-43.1	21.6	0.00e+00	0	43	0	1448083456	55	4105
2026-01-27 08:44:27.27	342.04	23.57	-42.2	-43.0	21.6	0.00e+00	0	43	0	1451229184	55	4078
2026-01-27 08:44:28.28	341.94	23.43	-42.3	-43.1	21.6	0.00e+00	0	43	0	1454374912	55	4117
2026-01-27 08:44:29.29	341.84	23.29	-42.1	-42.9	21.8	0.00e+00	0	43	0	1457520640	55	4022
2026-01-27 08:44:30.30	341.74	23.15	-42.0	-42.8	21.8	0.00e+00	0	43	0	1460666368	55	4002
2026-01-27 08:44:31.31	341.65	23.01	-42.0	-42.8	21.9	0.00e+00	0	43	0	1463812096	55	3989
2026-01-27 08:44:32.31	341.55	22.87	-42.1	-42.9	21.8	0.00e+00	0	43	0	1466957824	55	4009
2026-01-27 08:44:33.32	341.46	22.73	-41.9	-42.7	22.0	0.00e+00	0	43	0	1470103552	55	3950
2026-01-27 08:44:34.33	341.36	22.60	-41.9	-42.8	21.9	0.00e+00	0	43	0	1473249280	55	3961
2026-01-27 08:44:35.34	341.27	22.46	-41.9	-42.8	21.9	0.00e+00	0	43	0	1476395008	55	3964
2026-01-27 08:44:36.34	341.18	22.33	-42.1	-42.9	21.8	0.00e+00	0	43	0	1479540736	55	4018
2026-01-27 08:44:37.35	341.09	22.19	-42.1	-43.0	21.8	0.00e+00	0	43	0	1482686464	55	4066
2026-01-27 08:44:38.36	341.00	22.06	-42.1	-43.0	21.8	0.00e+00	0	43	0	1485832192	55	4063
2026-01-27 08:44:39.37	340.91	21.92	-42.2	-43.1	21.7	0.00e+00	0	43	0	1488977920	55	4099
2026-01-27 08:44:40.37	340.82	21.79	-42.2	-43.0	21.7	0.00e+00	0	43	0	1492123648	55	4087
2026-01-27 08:44:41.39	340.73	21.66	-42.1	-43.0	21.8	0.00e+00	0	43	0	1495269376	55	4069
2026-01-27 08:44:42.39	340.64	21.52	-42.2	-43.0	21.7	0.00e+00	0	43	0	1498415104	55	4079
2026-01-27 08:44:43.40	340.56	21.39	-42.2	-43.1	21.6	0.00e+00	0	43	0	1501560832	55	4106
2026-01-27 08:44:44.40	340.47	21.26	-42.1	-42.9	21.8	0.00e+00	0	43	0	1504706560	55	4046
2026-01-27 08:44:45.41	340.39	21.13	-42.1	-43.0	21.7	0.00e+00	0	43	0	1507852288	55	4060
2026-01-27 08:44:46.41	340.30	21.00	-42.0	-42.8	21.9	0.00e+00	0	43	0	1510998016	55	4001
2026-01-27 08:44:47.42	340.22	20.88	-42.0	-42.9	21.8	0.00e+00	0	43	0	1514143744	55	4014
2026-01-27 08:44:48.43	340.13	20.75	-42.0	-42.9	21.8	0.00e+00	0	43	0	1517289472	55	4015
2026-01-27 08:44:49.44	340.05	20.62	-42.0	-42.9	21.8	0.00e+00	0	42	0	1520435200	55	4017
2026-01-27 08:44:50.44	339.97	20.49	-42.2	-43.0	21.7	0.00e+00	0	43	0	1523580928	55	4068
2026-01-27 08:44:51.45	339.89	20.37	-42.2	-43.0	21.7	0.00e+00	0	43	0	1526726656	55	4071
2026-01-27 08:44:52.46	339.81	20.24	-42.2	-43.1	21.7	0.00e+00	0	43	0	1529872384	55	4101
2026-01-27 08:44:53.47	339.73	20.11	-42.2	-43.1	21.6	0.00e+00	0	43	0	1533018112	55	4119
2026-01-27 08:44:54.47	339.65	19.99	-42.3	-43.1	21.6	0.00e+00	0	43	0	1536163840	55	4120
2026-01-27 08:44:55.48	339.57	19.87	-42.1	-43.0	21.7	0.00e+00	0	43	0	1539309568	55	4069
2026-01-27 08:44:56.49	339.50	19.74	-42.2	-43.0	21.6	0.00e+00	0	43	0	1542455296	55	4085
2026-01-27 08:44:57.50	339.42	19.62	-42.1	-43.0	21.7	0.00e+00	0	43	0	1545601024	55	4060
2026-01-27 08:44:58.51	339.34	19.50	-42.1	-43.0	21.6	0.00e+00	0	43	0	1548746752	55	4072
2026-01-27 08:44:59.52	339.27	19.37	-42.2	-43.0	21.6	0.00e+00	0	43	0	1551892480	55	4090
2026-01-27 08:45:00.53	339.19	19.25	-42.3	-43.1	21.5	0.00e+00	0	43	0	1555038208	55	4128
2026-01-27 08:45:01.54	339.12	19.13	-42.3	-43.1	21.5	0.00e+00	0	43	0	1558183936	55	4129
2026-01-27 08:45:02.55	339.05	19.01	-42.2	-43.1	21.6	0.00e+00	0	43	0	1561329664	55	4101
2026-01-27 08:45:03.56	338.97	18.89	-42.3	-43.2	21.4	0.00e+00	0	43	0	1564475392	55	4170
2026-01-27 08:45:04.57	338.90	18.77	-42.3	-43.2	21.4	0.00e+00	0	43	0	1567621120	55	4157
2026-01-27 08:45:05.57	338.83	18.65	-42.3	-43.1	21.4	0.00e+00	0	43	0	1570766848	55	4138
2026-01-27 08:45:06.58	338.76	18.53	-42.3	-43.2	21.4	0.00e+00	0	43	0	1573912576	55	4153
2026-01-27 08:45:07.59	338.69	18.41	-42.2	-43.1	21.5	0.00e+00	0	43	0	1577058304	55	4115
2026-01-27 08:45:08.59	338.62	18.30	-42.3	-43.2	21.4	0.00e+00	0	43	0	1580204032	55	4152
2026-01-27 08:45:09.60	338.55	18.18	-42.2	-43.1	21.5	0.00e+00	0	43	0	1583349760	55	4108
2026-01-27 08:45:10.61	338.48	18.06	-42.3	-43.2	21.4	0.00e+00	0	43	0	1586495488	55	4146
2026-01-27 08:45:11.62	338.41	17.95	-42.2	-43.1	21.4	0.00e+00	0	43	0	1589641216	55	4120
2026-01-27 08:45:12.63	338.34	17.83	-42.2	-43.0	21.5	0.00e+00	0	43	0	1593835520	55	4094
2026-01-27 08:45:13.64	338.28	17.72	-42.2	-43.0	21.5	0.00e+00	0	43	0	1596981248	55	4094
2026-01-27 08:45:14.65	338.21	17.60	-42.3	-43.2	21.4	0.00e+00	0	43	0	1600126976	55	4160
2026-01-27 08:45:15.66	338.14	17.49	-42.3	-43.1	21.5	0.00e+00	0	43	0	1602224128	55	4123
2026-01-27 08:45:16.67	338.08	17.38	-42.3	-43.1	21.4	0.00e+00	0	43	0	1605369856	55	4130
2026-01-27 08:45:17.68	338.01	17.26	-42.3	-43.2	21.4	0.00e+00	0	43	0	1608515584	55	4161
2026-01-27 08:45:18.68	337.95	17.15	-42.4	-43.3	21.3	0.00e+00	0	43	0	1611661312	55	4204
2026-01-27 08:45:19.69	337.88	17.04	-42.5	-43.3	21.3	0.00e+00	0	43	0	1614807040	55	4236
2026-01-27 08:45:20.70	337.82	16.93	-42.5	-43.4	21.2	0.00e+00	0	43	0	1617952768	55	4260
2026-01-27 08:45:21.71	337.76	16.82	-42.4	-43.3	21.3	0.00e+00	0	43	0	1621098496	55	4224
2026-01-27 08:45:22.72	337.69	16.71	-42.6	-43.5	21.1	0.00e+00	0	43	0	1624244224	55	4305
2026-01-27 08:45:23.73	337.63	16.60	-42.6	-43.5	21.1	0.00e+00	0	43	0	1628438528	55	4314
2026-01-27 08:45:24.74	337.57	16.49	-42.6	-43.5	21.1	0.00e+00	0	43	0	1631584256	55	4328
2026-01-27 08:45:25.74	337.51	16.38	-42.8	-43.7	21.0	0.00e+00	0	43	0	1634729984	56	4175
2026-01-27 08:45:26.75	337.45	16.27	-43.0	-43.9	20.8	0.00e+00	0	43	0	1637875712	56	4259
2026-01-27 08:45:27.76	337.39	16.16	-42.9	-43.9	20.9	0.00e+00	0	43	0	1641021440	56	4245
2026-01-27 08:45:28.76	337.33	16.05	-42.9	-43.8	20.9	0.00e+00	0	43	0	1644167168	56	4219
2026-01-27 08:45:29.77	337.27	15.95	-43.0	-43.9	20.8	0.00e+00	0	43	0	1647312896	56	4253
2026-01-27 08:45:30.78	337.21	15.84	-43.0	-44.0	20.8	0.00e+00	0	43	0	1649410048	56	4293
2026-01-27 08:45:31.79	337.15	15.73	-43.1	-44.0	20.7	0.00e+00	0	43	0	1652555776	56	4318
2026-01-27 08:45:32.80	337.09	15.63	-43.1	-44.0	20.7	0.00e+00	0	43	0	1655701504	56	4322
2026-01-27 08:45:33.81	337.03	15.52	-43.1	-44.1	20.7	0.00e+00	0	43	0	1658847232	56	4343
2026-01-27 08:45:34.81	336.98	15.41	-43.1	-44.0	20.7	0.00e+00	0	43	0	1661992960	56	4320
2026-01-27 08:45:35.82	336.92	15.31	-43.2	-44.1	20.6	0.00e+00	0	43	0	1665138688	56	4380
2026-01-27 08:45:36.83	336.86	15.21	-43.2	-44.1	20.7	0.00e+00	0	43	0	1669332992	57	4126
2026-01-27 08:45:37.83	336.81	15.10	-43.2	-44.1	20.7	0.00e+00	0	43	0	1672478720	57	4118
2026-01-27 08:45:38.84	336.75	15.00	-43.2	-44.1	20.7	0.00e+00	0	42	0	1675624448	57	4111
2026-01-27 08:45:39.85	336.70	14.89	-43.1	-44.1	20.7	0.00e+00	0	43	0	1678770176	57	4109
2026-01-27 08:45:40.86	336.64	14.79	-43.1	-44.0	20.7	0.00e+00	0	43	0	1681915904	57	4098
2026-01-27 08:45:41.87	336.59	14.69	-43.1	-44.0	20.7	0.00e+00	0	43	0	1685061632	57	4075
2026-01-27 08:45:42.87	336.54	14.59	-43.2	-44.2	20.5	0.00e+00	0	43	0	1688207360	57	4165
2026-01-27 08:45:43.88	336.48	14.49	-43.1	-44.0	20.7	0.00e+00	0	43	0	1691353088	57	4062
2026-01-27 08:45:44.89	336.43	14.39	-43.1	-44.0	20.7	0.00e+00	0	43	0	1694498816	57	4093
2026-01-27 08:45:45.90	336.38	14.28	-43.1	-44.0	20.7	0.00e+00	0	43	0	1696595968	57	4090
2026-01-27 08:45:46.91	336.32	14.18	-43.0	-43.9	20.8	0.00e+00	0	43	0	1699741696	57	4037
2026-01-27 08:45:47.92	336.27	14.08	-43.0	-43.9	20.7	0.00e+00	0	43	0	1702887424	57	4043
2026-01-27 08:45:48.93	336.22	13.98	-43.0	-43.9	20.7	0.00e+00	0	43	0	1707081728	57	4046
2026-01-27 08:45:49.94	336.17	13.88	-43.1	-44.0	20.7	0.00e+00	0	43	0	1710227456	57	4091
2026-01-27 08:45:50.95	336.12	13.79	-43.0	-44.0	20.7	0.00e+00	0	43	0	1713373184	57	4056
2026-01-27 08:45:51.96	336.07	13.69	-43.1	-44.0	20.7	0.00e+00	0	43	0	1716518912	57	4061
2026-01-27 08:45:52.97	336.02	13.59	-42.9	-43.8	20.8	0.00e+00	0	43	0	1719664640	57	4004
2026-01-27 08:45:53.98	335.97	13.49	-43.0	-44.0	20.7	0.00e+00	0	43	0	1722810368	57	4056
2026-01-27 08:45:54.99	335.92	13.39	-43.0	-43.9	20.8	0.00e+00	0	43	0	1725956096	57	4014
2026-01-27 08:45:55.99	335.87	13.30	-43.0	-43.9	20.7	0.00e+00	0	43	0	1729101824	57	4051
2026-01-27 08:45:57.00	335.82	13.20	-43.0	-44.0	20.7	0.00e+00	0	43	0	1732247552	57	4059
2026-01-27 08:45:58.01	335.77	13.10	-43.0	-43.9	20.7	0.00e+00	0	43	0	1735393280	57	4023
2026-01-27 08:45:59.02	335.72	13.01	-43.0	-44.0	20.7	0.00e+00	0	43	0	1738539008	57	4054
2026-01-27 08:46:00.03	335.68	12.91	-43.1	-44.1	20.6	0.00e+00	0	43	0	1741684736	57	4099
2026-01-27 08:46:01.04	335.63	12.82	-43.1	-44.0	20.6	0.00e+00	0	43	0	1744830464	57	4082
2026-01-27 08:46:02.05	335.58	12.72	-43.2	-44.1	20.5	0.00e+00	0	43	0	1747976192	57	4122
2026-01-27 08:46:03.06	335.54	12.63	-43.1	-44.0	20.6	0.00e+00	0	43	0	1751121920	57	4068
2026-01-27 08:46:04.07	335.49	12.53	-43.1	-44.0	20.6	0.00e+00	0	43	0	1754267648	57	4081
2026-01-27 08:46:05.08	335.44	12.44	-43.1	-44.0	20.6	0.00e+00	0	43	0	1757413376	57	4094
2026-01-27 08:46:06.09	335.40	12.34	-43.1	-44.1	20.5	0.00e+00	0	43	0	1760559104	57	4110
2026-01-27 08:46:07.09	335.35	12.25	-43.1	-44.1	20.5	0.00e+00	0	43	0	1763704832	57	4110
2026-01-27 08:46:08.10	335.31	12.16	-43.2	-44.2	20.4	0.00e+00	0	43	0	1766850560	57	4155
2026-01-27 08:46:09.11	335.26	12.07	-43.2	-44.2	20.5	0.00e+00	0	43	0	1769996288	57	4148
2026-01-27 08:46:10.12	335.22	11.97	-43.2	-44.1	20.5	0.00e+00	0	43	0	1773142016	57	4144
2026-01-27 08:46:11.13	335.17	11.88	-43.3	-44.2	20.4	0.00e+00	0	43	0	1776287744	57	4182
2026-01-27 08:46:12.13	335.13	11.79	-43.2	-44.2	20.4	0.00e+00	0	43	0	1779433472	57	4160
2026-01-27 08:46:13.14	335.09	11.70	-43.4	-44.3	20.3	0.00e+00	0	43	0	1782579200	57	4239
2026-01-27 08:46:14.15	335.04	11.61	-43.3	-44.2	20.4	0.00e+00	0	43	0	1785724928	57	4180
2026-01-27 08:46:15.16	335.00	11.52	-43.3	-44.3	20.3	3.00e-06	0	43	0	1788870656	57	4195
2026-01-27 08:46:16.16	334.96	11.43	-43.3	-44.3	20.3	0.00e+00	0	43	0	1792016384	57	4198
2026-01-27 08:46:17.17	334.92	11.34	-43.4	-44.4	20.2	0.00e+00	0	43	0	1795162112	57	4255
2026-01-27 08:46:18.18	334.87	11.25	-43.5	-44.5	20.1	0.00e+00	0	43	0	1798307840	57	4329
2026-01-27 08:46:19.19	334.83	11.16	-43.5	-44.5	20.1	0.00e+00	0	43	0	1801453568	57	4296
2026-01-27 08:46:20.19	334.79	11.07	-43.5	-44.5	20.1	0.00e+00	0	43	0	1804599296	57	4309
2026-01-27 08:46:21.20	334.75	10.98	-43.5	-44.5	20.1	0.00e+00	0	43	0	1807745024	57	4295
2026-01-27 08:46:22.21	334.71	10.89	-43.3	-44.3	20.3	0.00e+00	0	43	0	1810890752	57	4208
2026-01-27 08:46:23.22	334.67	10.81	-43.4	-44.4	20.2	0.00e+00	0	43	0	1814036480	57	4266
2026-01-27 08:46:24.23	334.63	10.72	-43.4	-44.4	20.1	0.00e+00	0	43	0	1817182208	57	4285
2026-01-27 08:46:25.24	334.59	10.63	-43.4	-44.4	20.2	0.00e+00	0	43	0	1820327936	57	4271
2026-01-27 08:46:26.25	334.55	10.54	-43.4	-44.4	20.1	0.00e+00	0	43	0	1823473664	57	4265
2026-01-27 08:46:27.25	334.51	10.46	-43.5	-44.5	20.1	0.00e+00	0	43	0	1826619392	57	4309
2026-01-27 08:46:28.26	334.47	10.37	-43.4	-44.4	20.1	0.00e+00	0	43	0	1829765120	57	4256
2026-01-27 08:46:29.27	334.43	10.28	-43.4	-44.4	20.1	0.00e+00	0	43	0	1832910848	57	4282
2026-01-27 08:46:30.28	334.39	10.20	-43.6	-44.6	20.0	0.00e+00	0	43	0	1836056576	57	4351
2026-01-27 08:46:31.29	334.35	10.11	-43.6	-44.6	19.9	0.00e+00	0	43	0	1839202304	57	4360
2026-01-27 08:46:32.29	334.31	10.03	-43.4	-44.4	20.1	0.00e+00	0	43	0	1842348032	57	4288
2026-01-27 08:46:33.30	334.27	9.94	-43.4	-44.4	20.1	0.00e+00	0	43	0	1845493760	57	4276
2026-01-27 08:46:34.31	334.24	9.86	-43.5	-44.5	20.0	0.00e+00	0	43	0	1848639488	57	4318
2026-01-27 08:46:35.31	334.20	9.77	-43.5	-44.5	20.0	0.00e+00	0	43	0	1851785216	57	4337
2026-01-27 08:46:36.32	334.16	9.69	-43.6	-44.6	19.9	0.00e+00	0	43	0	1854930944	57	4362
2026-01-27 08:46:37.33	334.12	9.60	-43.6	-44.7	19.8	0.00e+00	0	43	0	1858076672	57	4399
2026-01-27 08:46:38.34	334.09	9.52	-43.5	-44.5	20.0	0.00e+00	0	43	0	1861222400	57	4336
2026-01-27 08:46:39.34	334.05	9.44	-43.7	-44.7	19.8	0.00e+00	0	43	0	1864368128	57	4418
2026-01-27 08:46:40.35	334.01	9.35	-43.7	-44.7	19.8	0.00e+00	0	43	0	1867513856	58	4169
2026-01-27 08:46:41.36	333.98	9.27	-43.7	-44.7	19.8	0.00e+00	0	43	0	1870659584	58	4193
2026-01-27 08:46:42.37	333.94	9.19	-43.8	-44.8	19.7	0.00e+00	0	43	0	1873805312	58	4220
2026-01-27 08:46:43.37	333.91	9.11	-43.8	-44.9	19.6	0.00e+00	0	43	0	1876951040	58	4260
2026-01-27 08:46:44.38	333.87	9.02	-44.0	-45.0	19.5	0.00e+00	0	43	0	1880096768	58	4335
2026-01-27 08:46:45.39	333.83	8.94	-44.0	-45.1	19.4	0.00e+00	0	43	0	1883242496	58	4368
2026-01-27 08:46:46.40	333.80	8.86	-43.9	-45.0	19.5	0.00e+00	0	43	0	1886388224	58	4318
2026-01-27 08:46:47.41	333.76	8.78	-44.0	-45.1	19.3	0.00e+00	0	43	0	1889533952	58	4373
2026-01-27 08:46:48.42	333.73	8.70	-43.9	-45.0	19.5	0.00e+00	0	43	0	1892679680	58	4320
2026-01-27 08:46:49.43	333.69	8.61	-44.2	-45.3	19.2	0.00e+00	0	43	0	1895825408	58	4448
2026-01-27 08:46:50.44	333.66	8.53	-44.1	-45.2	19.2	0.00e+00	0	43	0	1898971136	59	4192
2026-01-27 08:46:51.45	333.63	8.45	-44.1	-45.2	19.3	0.00e+00	0	43	0	1902116864	59	4152
2026-01-27 08:46:52.46	333.59	8.37	-44.2	-45.4	19.1	0.00e+00	0	43	0	1905262592	59	4249
2026-01-27 08:46:53.46	333.56	8.29	-44.3	-45.4	19.0	0.00e+00	0	43	0	1908408320	59	4290
2026-01-27 08:46:54.47	333.53	8.21	-44.3	-45.4	19.0	0.00e+00	0	43	0	1911554048	59	4290
2026-01-27 08:46:55.48	333.49	8.13	-44.4	-45.6	18.9	0.00e+00	0	43	0	1914699776	59	4357
2026-01-27 08:46:56.49	333.46	8.05	-44.5	-45.7	18.8	0.00e+00	0	43	0	1917845504	59	4424
2026-01-27 08:46:57.50	333.43	7.98	-44.6	-45.7	18.7	0.00e+00	0	43	0	1920991232	59	4428
2026-01-27 08:46:58.51	333.39	7.90	-44.3	-45.5	18.6	0.00e+00	0	43	0	1924136960	60	4074
2026-01-27 08:46:59.52	333.36	7.82	-44.4	-45.5	18.6	0.00e+00	0	43	0	1927282688	60	4084
2026-01-27 08:47:00.53	333.33	7.74	-44.2	-45.3	18.7	0.00e+00	0	43	0	1930428416	60	3993
2026-01-27 08:47:01.53	333.30	7.66	-44.3	-45.5	18.6	0.00e+00	0	43	0	1933574144	60	4079
