passes_logs/2026/01/27/R3.2S_Murmansk/R3.2S_Murmansk__20260127_090345_SUOMI_NPP_rec.log

#Pass ID: 20260127_090345_SUOMI NPP
#Satellite: SUOMI NPP
#Configuration: NPP
#almurnet v.1.7.20251203
#Start time: 2026-01-27 09:03:45

#Version: 2.2.20231116
#Station: R3.2S_Murmansk
#Location: 33.079688 lon 68.888172 lat
#TLE: 1 37849U 11061A   26026.52266023  .00000173  00000+0  10323-3 0  9994
#TLE: 2 37849  98.7822 328.4727 0002140  43.9411 316.1934 14.19530258738341

#Time	Az	El	Level	Level2	SNR	BER	BlckErr	Temp	State	Recorded	gain1	gain2
2026-01-27 09:03:45.07	138.88	1.96	-54.1	-69.1	3.8	1.49e+00	0	40	0	0	79	20707
2026-01-27 09:03:46.07	138.87	2.03	-54.1	-69.1	3.8	1.49e+00	0	41	104	0	78	21874
2026-01-27 09:03:47.08	138.86	2.09	-54.1	-69.1	3.8	1.49e+00	0	41	104	0	78	21834
2026-01-27 09:03:48.09	138.85	2.16	-54.1	-69.1	3.8	1.49e+00	0	41	104	0	78	21811
2026-01-27 09:03:49.09	138.84	2.22	-54.1	-69.1	3.8	1.49e+00	0	41	104	0	78	21784
2026-01-27 09:03:50.10	138.83	2.29	-54.1	-69.0	3.8	1.49e+00	0	41	104	0	78	21752
2026-01-27 09:03:51.11	138.81	2.35	-54.0	-69.0	3.8	1.49e+00	0	41	104	0	78	21700
2026-01-27 09:03:52.12	138.80	2.42	-54.0	-69.0	3.8	1.49e+00	0	41	104	0	78	21685
2026-01-27 09:03:53.12	138.79	2.48	-54.0	-69.0	3.8	1.49e+00	0	41	104	0	78	21687
2026-01-27 09:03:54.13	138.78	2.55	-54.3	-69.2	3.8	1.49e+00	0	41	104	0	79	20985
2026-01-27 09:03:55.14	138.77	2.61	-54.3	-69.3	3.8	1.49e+00	0	41	104	0	79	21150
2026-01-27 09:03:56.15	138.76	2.68	-54.3	-69.3	3.8	1.49e+00	0	41	104	0	79	21188
2026-01-27 09:03:57.15	138.75	2.74	-54.3	-69.3	3.8	1.49e+00	0	41	104	0	79	21075
2026-01-27 09:03:58.16	138.73	2.81	-54.3	-69.3	3.8	1.49e+00	0	41	104	0	79	21079
2026-01-27 09:03:59.17	138.72	2.88	-54.2	-69.2	3.8	1.49e+00	0	41	104	0	79	21017
2026-01-27 09:04:00.18	138.71	2.94	-54.2	-69.2	3.8	1.49e+00	0	41	104	0	79	20861
2026-01-27 09:04:01.19	138.70	3.01	-54.2	-69.2	3.8	1.49e+00	0	41	104	0	79	20837
2026-01-27 09:04:02.20	138.68	3.08	-54.2	-69.1	3.8	1.49e+00	0	41	104	0	79	20776
2026-01-27 09:04:03.21	138.67	3.15	-54.1	-69.1	3.8	1.49e+00	0	41	104	0	79	20659
2026-01-27 09:04:04.21	138.66	3.21	-54.1	-69.0	3.8	1.49e+00	0	41	104	0	79	20526
2026-01-27 09:04:05.22	138.65	3.28	-54.0	-69.0	3.8	1.49e+00	0	41	104	0	79	20364
2026-01-27 09:04:06.23	138.64	3.35	-53.9	-68.9	3.8	1.49e+00	0	41	104	0	79	20228
2026-01-27 09:04:07.23	138.62	3.42	-53.8	-68.8	3.8	1.49e+00	0	41	104	0	79	19962
2026-01-27 09:04:08.24	138.61	3.48	-53.8	-68.7	3.8	1.49e+00	0	41	104	0	79	19822
2026-01-27 09:04:09.24	138.60	3.55	-53.7	-68.6	3.8	1.49e+00	0	41	104	0	79	19613
2026-01-27 09:04:10.25	138.59	3.62	-53.5	-68.5	3.8	1.49e+00	0	41	104	0	78	20437
2026-01-27 09:04:11.26	138.57	3.69	-53.4	-68.3	3.8	1.49e+00	0	41	104	0	78	20024
2026-01-27 09:04:12.27	138.56	3.76	-53.2	-68.2	3.8	1.49e+00	0	41	104	0	78	19726
2026-01-27 09:04:13.28	138.55	3.83	-53.0	-67.9	3.8	1.49e+00	0	42	104	0	78	19051
2026-01-27 09:04:14.28	138.53	3.89	-52.6	-67.5	3.8	1.49e+00	0	41	104	0	77	19356
2026-01-27 09:04:15.29	138.52	3.96	-51.9	-62.4	4.0	1.49e+00	0	42	104	0	75	12025
2026-01-27 09:04:16.31	138.51	4.03	-51.6	-60.2	5.8	4.86e-01	0	42	0	0	75	9347
2026-01-27 09:04:17.31	138.49	4.10	-51.3	-58.7	7.0	2.29e-01	0	41	0	2097152	74	8364
2026-01-27 09:04:18.32	138.48	4.17	-51.0	-57.5	8.2	1.15e-01	0	41	0	4194304	74	7226
2026-01-27 09:04:19.33	138.47	4.24	-50.6	-56.2	9.6	3.29e-02	0	41	0	6291456	73	6576
2026-01-27 09:04:20.34	138.45	4.31	-50.4	-55.3	10.4	6.57e-03	0	41	0	7340032	72	6333
2026-01-27 09:04:21.35	138.44	4.38	-49.8	-53.8	12.1	7.64e-04	0	41	0	9437184	71	5633
2026-01-27 09:04:22.36	138.43	4.45	-49.2	-52.6	13.4	7.01e-05	0	41	0	11534336	70	5193
2026-01-27 09:04:23.37	138.41	4.52	-48.7	-51.8	14.2	2.20e-06	0	41	0	13631488	69	4999
2026-01-27 09:04:24.37	138.40	4.59	-48.5	-51.4	14.7	0.00e+00	0	42	0	15728640	68	5043
2026-01-27 09:04:25.38	138.38	4.67	-48.1	-50.6	15.4	0.00e+00	0	42	0	17825792	68	4643
2026-01-27 09:04:26.39	138.37	4.74	-47.9	-50.4	15.5	0.00e+00	0	42	0	18874368	67	4781
2026-01-27 09:04:27.40	138.36	4.81	-47.7	-50.2	15.7	0.00e+00	0	42	0	20971520	67	4660
2026-01-27 09:04:28.41	138.34	4.88	-47.8	-50.3	15.6	0.00e+00	0	42	0	23068672	67	4754
2026-01-27 09:04:29.42	138.33	4.95	-48.0	-50.6	15.3	0.00e+00	0	42	0	25165824	67	4895
2026-01-27 09:04:30.42	138.31	5.02	-48.2	-51.0	14.9	0.00e+00	0	42	0	27262976	67	5135
2026-01-27 09:04:31.43	138.30	5.09	-49.7	-53.7	12.6	0.00e+00	0	42	0	28311552	69	6215
2026-01-27 09:04:32.43	138.28	5.17	-50.8	-56.7	8.8	4.80e-01	0	42	0	30408704	73	6981
2026-01-27 09:04:33.44	138.27	5.24	-47.6	-49.9	16.1	0.00e+00	0	42	0	32505856	67	4543
2026-01-27 09:04:34.45	138.26	5.31	-50.7	-56.5	8.8	9.68e-01	0	42	0	33554432	73	6814
2026-01-27 09:04:35.46	138.24	5.38	-47.8	-50.3	15.8	0.00e+00	0	42	0	35651584	66	4996
2026-01-27 09:04:36.47	138.23	5.46	-49.9	-54.2	11.4	9.49e-02	0	42	0	37748736	71	5888
2026-01-27 09:04:37.47	138.21	5.53	-47.6	-49.9	16.1	0.00e+00	0	42	0	39845888	67	4519
2026-01-27 09:04:38.48	138.20	5.60	-47.3	-49.6	16.4	0.00e+00	0	42	0	41943040	66	4608
2026-01-27 09:04:39.48	138.18	5.68	-47.0	-49.1	16.9	0.00e+00	0	42	0	44040192	66	4370
2026-01-27 09:04:40.49	138.17	5.75	-47.2	-49.3	16.8	0.00e+00	0	42	0	45088768	66	4480
2026-01-27 09:04:41.49	138.15	5.82	-47.1	-49.2	16.9	0.00e+00	0	42	0	47185920	66	4416
2026-01-27 09:04:42.50	138.13	5.90	-47.0	-49.0	17.1	0.00e+00	0	42	0	49283072	66	4312
2026-01-27 09:04:43.51	138.12	5.97	-46.8	-48.8	17.3	0.00e+00	0	42	0	51380224	65	4474
2026-01-27 09:04:44.51	138.10	6.05	-46.7	-48.6	17.5	0.00e+00	0	42	0	52428800	65	4349
2026-01-27 09:04:45.52	138.09	6.12	-46.6	-48.5	17.6	0.00e+00	0	42	0	54525952	65	4315
2026-01-27 09:04:46.53	138.07	6.20	-46.5	-48.4	17.7	0.00e+00	0	42	0	56623104	65	4246
2026-01-27 09:04:47.54	138.06	6.27	-46.6	-48.5	17.6	0.00e+00	0	42	0	58720256	65	4307
2026-01-27 09:04:48.54	138.04	6.35	-46.5	-48.3	17.8	0.00e+00	0	42	0	60817408	64	4477
2026-01-27 09:04:49.54	138.02	6.42	-46.6	-48.4	17.7	0.00e+00	0	42	0	61865984	64	4544
2026-01-27 09:04:50.55	138.01	6.50	-46.3	-48.0	18.2	0.00e+00	0	42	0	63963136	64	4299
2026-01-27 09:04:51.56	137.99	6.58	-46.3	-48.1	18.1	0.00e+00	0	42	0	66060288	64	4351
2026-01-27 09:04:52.56	137.98	6.65	-46.4	-48.2	18.0	0.00e+00	0	42	0	68157440	64	4411
2026-01-27 09:04:53.57	137.96	6.73	-46.4	-48.1	18.1	0.00e+00	0	42	0	70254592	64	4372
2026-01-27 09:04:54.58	137.94	6.81	-46.5	-48.3	17.9	0.00e+00	0	42	0	72351744	64	4456
2026-01-27 09:04:55.58	137.93	6.88	-46.4	-48.1	18.1	0.00e+00	0	42	0	73400320	64	4373
2026-01-27 09:04:56.59	137.91	6.96	-46.5	-48.2	18.0	0.00e+00	0	42	0	75497472	64	4431
2026-01-27 09:04:57.59	137.89	7.04	-46.5	-48.2	18.0	0.00e+00	0	42	0	77594624	64	4428
2026-01-27 09:04:58.60	137.87	7.12	-46.2	-47.9	18.3	0.00e+00	0	42	0	79691776	64	4279
2026-01-27 09:04:59.61	137.86	7.19	-46.3	-48.0	18.2	0.00e+00	0	42	0	80740352	64	4315
2026-01-27 09:05:00.62	137.84	7.27	-46.4	-48.1	18.2	0.00e+00	0	42	0	82837504	64	4374
2026-01-27 09:05:01.62	137.82	7.35	-46.3	-48.0	18.3	0.00e+00	0	42	0	84934656	64	4301
2026-01-27 09:05:02.63	137.81	7.43	-46.1	-47.8	18.5	0.00e+00	0	42	0	87031808	64	4210
2026-01-27 09:05:03.64	137.79	7.51	-46.1	-47.7	18.6	0.00e+00	0	42	0	89128960	64	4177
2026-01-27 09:05:04.65	137.77	7.59	-46.1	-47.8	18.5	0.00e+00	0	42	0	90177536	64	4200
2026-01-27 09:05:05.65	137.75	7.67	-46.1	-47.7	18.5	0.00e+00	0	42	0	92274688	64	4193
2026-01-27 09:05:06.65	137.73	7.75	-46.1	-47.7	18.7	0.00e+00	0	42	0	94371840	63	4413
2026-01-27 09:05:07.66	137.72	7.83	-46.0	-47.6	18.8	0.00e+00	0	42	0	96468992	63	4350
2026-01-27 09:05:08.67	137.70	7.91	-46.0	-47.6	18.8	0.00e+00	0	42	0	98566144	63	4363
2026-01-27 09:05:09.68	137.68	7.99	-46.2	-47.8	18.6	0.00e+00	0	42	0	100663296	63	4462
2026-01-27 09:05:10.69	137.66	8.07	-46.1	-47.7	18.7	0.00e+00	0	42	0	101711872	63	4434
2026-01-27 09:05:11.69	137.64	8.15	-46.1	-47.7	18.7	0.00e+00	0	42	0	103809024	63	4422
2026-01-27 09:05:12.70	137.62	8.23	-46.2	-47.8	18.7	0.00e+00	0	42	0	105906176	63	4457
2026-01-27 09:05:13.71	137.61	8.31	-46.1	-47.7	18.7	0.00e+00	0	42	0	108003328	63	4431
2026-01-27 09:05:14.72	137.59	8.39	-46.2	-47.9	18.5	0.00e+00	0	42	0	109051904	63	4523
2026-01-27 09:05:15.72	137.57	8.47	-46.1	-47.7	18.8	0.00e+00	0	42	0	111149056	63	4408
2026-01-27 09:05:16.73	137.55	8.56	-46.0	-47.6	18.9	0.00e+00	0	42	0	113246208	63	4358
2026-01-27 09:05:17.74	137.53	8.64	-46.1	-47.7	18.7	0.00e+00	0	42	0	115343360	63	4424
2026-01-27 09:05:18.75	137.51	8.72	-46.1	-47.6	18.8	0.00e+00	0	42	0	117440512	63	4384
2026-01-27 09:05:19.76	137.49	8.81	-46.0	-47.6	18.9	0.00e+00	0	42	0	118489088	63	4352
2026-01-27 09:05:20.77	137.47	8.89	-45.9	-47.5	19.0	0.00e+00	0	42	0	120586240	63	4297
2026-01-27 09:05:21.77	137.45	8.97	-45.9	-47.4	19.0	0.00e+00	0	42	0	122683392	63	4291
2026-01-27 09:05:22.78	137.43	9.06	-45.9	-47.4	19.1	0.00e+00	0	42	0	124780544	63	4250
2026-01-27 09:05:23.79	137.41	9.14	-45.6	-47.1	19.4	0.00e+00	0	42	0	126877696	63	4102
2026-01-27 09:05:24.80	137.39	9.22	-45.7	-47.1	19.3	0.00e+00	0	42	0	128974848	63	4140
2026-01-27 09:05:25.80	137.37	9.31	-45.8	-47.3	19.3	0.00e+00	0	42	0	130023424	63	4208
2026-01-27 09:05:26.81	137.35	9.39	-45.8	-47.3	19.3	0.00e+00	0	42	0	132120576	63	4198
2026-01-27 09:05:27.82	137.33	9.48	-45.8	-47.3	19.2	0.00e+00	0	42	0	134217728	63	4214
2026-01-27 09:05:28.82	137.31	9.56	-45.8	-47.2	19.3	0.00e+00	0	42	0	136314880	63	4191
2026-01-27 09:05:29.83	137.29	9.65	-45.7	-47.2	19.3	0.00e+00	0	42	0	137363456	63	4161
2026-01-27 09:05:30.84	137.27	9.74	-45.5	-47.0	19.5	0.00e+00	0	42	0	139460608	63	4059
2026-01-27 09:05:31.84	137.25	9.82	-45.6	-47.0	19.5	0.00e+00	0	42	0	141557760	63	4091
2026-01-27 09:05:32.85	137.22	9.91	-45.7	-47.2	19.4	0.00e+00	0	42	0	143654912	63	4146
2026-01-27 09:05:33.86	137.20	10.00	-45.7	-47.2	19.3	0.00e+00	0	42	0	145752064	63	4180
2026-01-27 09:05:34.87	137.18	10.08	-45.9	-47.4	19.2	0.00e+00	0	42	0	146800640	63	4254
2026-01-27 09:05:35.87	137.16	10.17	-45.6	-47.1	19.4	0.00e+00	0	42	0	148897792	63	4124
2026-01-27 09:05:36.88	137.14	10.26	-45.5	-47.0	19.6	0.00e+00	0	42	0	150994944	63	4052
2026-01-27 09:05:37.89	137.11	10.35	-45.5	-46.9	19.6	0.00e+00	0	42	0	153092096	63	4021
2026-01-27 09:05:38.90	137.09	10.44	-45.5	-46.9	19.6	0.00e+00	0	42	0	155189248	62	4291
2026-01-27 09:05:39.90	137.07	10.53	-45.5	-46.9	19.6	0.00e+00	0	42	0	157286400	62	4273
2026-01-27 09:05:40.91	137.05	10.62	-45.4	-46.7	19.8	0.00e+00	0	42	0	158334976	62	4184
2026-01-27 09:05:41.92	137.02	10.70	-45.3	-46.6	19.9	0.00e+00	0	42	0	160432128	62	4137
2026-01-27 09:05:42.92	137.00	10.79	-45.1	-46.5	20.0	0.00e+00	0	42	0	162529280	62	4062
2026-01-27 09:05:43.93	136.98	10.88	-45.1	-46.4	20.0	0.00e+00	0	42	0	164626432	62	4035
2026-01-27 09:05:44.94	136.96	10.98	-45.2	-46.5	20.0	0.00e+00	0	42	0	165675008	62	4068
2026-01-27 09:05:45.95	136.93	11.07	-45.0	-46.3	20.3	0.00e+00	0	42	0	167772160	62	3961
2026-01-27 09:05:46.95	136.91	11.16	-44.9	-46.2	20.3	0.00e+00	0	42	0	169869312	61	4180
2026-01-27 09:05:47.96	136.89	11.25	-44.9	-46.1	20.4	0.00e+00	0	42	0	171966464	61	4133
2026-01-27 09:05:48.97	136.86	11.34	-45.0	-46.3	20.2	0.00e+00	0	42	0	174063616	61	4232
2026-01-27 09:05:49.98	136.84	11.43	-44.8	-46.1	20.4	0.00e+00	0	42	0	176160768	61	4100
2026-01-27 09:05:50.98	136.81	11.52	-44.8	-46.1	20.4	0.00e+00	0	42	0	177209344	61	4109
2026-01-27 09:05:51.99	136.79	11.62	-44.8	-46.1	20.4	0.00e+00	0	42	0	179306496	61	4128
2026-01-27 09:05:53.00	136.76	11.71	-45.0	-46.3	20.3	0.00e+00	0	42	0	181403648	61	4196
2026-01-27 09:05:54.01	136.74	11.81	-45.0	-46.3	20.3	0.00e+00	0	42	0	183500800	61	4212
2026-01-27 09:05:55.02	136.71	11.90	-45.1	-46.4	20.2	0.00e+00	0	42	0	185597952	61	4250
2026-01-27 09:05:56.03	136.69	11.99	-45.0	-46.3	20.3	0.00e+00	0	42	0	186646528	61	4214
2026-01-27 09:05:57.03	136.66	12.09	-44.8	-46.0	20.5	0.00e+00	0	42	0	188743680	61	4087
2026-01-27 09:05:58.04	136.64	12.18	-44.6	-45.9	20.7	0.00e+00	0	42	0	190840832	61	4009
2026-01-27 09:05:59.05	136.61	12.28	-44.7	-45.9	20.6	0.00e+00	0	42	0	192937984	61	4035
2026-01-27 09:06:00.05	136.59	12.37	-44.6	-45.9	20.7	0.00e+00	0	42	0	193986560	61	4010
2026-01-27 09:06:01.06	136.56	12.47	-44.8	-46.0	20.5	0.00e+00	0	42	0	196083712	61	4075
2026-01-27 09:06:02.07	136.53	12.57	-44.7	-45.9	20.7	0.00e+00	0	42	0	198180864	61	4027
2026-01-27 09:06:03.07	136.51	12.66	-44.7	-45.9	20.6	0.00e+00	0	42	0	200278016	61	4041
2026-01-27 09:06:04.08	136.48	12.76	-44.7	-45.9	20.6	0.00e+00	0	43	0	202375168	61	4030
2026-01-27 09:06:05.09	136.46	12.86	-44.6	-45.8	20.8	0.00e+00	0	42	0	204472320	61	3981
2026-01-27 09:06:06.10	136.43	12.96	-44.5	-45.7	20.9	0.00e+00	0	42	0	205520896	61	3948
2026-01-27 09:06:07.11	136.40	13.06	-44.5	-45.7	20.8	0.00e+00	0	42	0	207618048	60	4186
2026-01-27 09:06:08.12	136.37	13.15	-44.6	-45.8	20.8	0.00e+00	0	42	0	209715200	60	4218
2026-01-27 09:06:09.12	136.35	13.25	-44.5	-45.7	20.9	0.00e+00	0	42	0	211812352	60	4159
2026-01-27 09:06:10.13	136.32	13.35	-44.3	-45.5	21.0	0.00e+00	0	42	0	213909504	60	4064
2026-01-27 09:06:11.14	136.29	13.45	-44.4	-45.6	20.9	0.00e+00	0	42	0	214958080	60	4118
2026-01-27 09:06:12.15	136.26	13.55	-44.4	-45.5	21.0	0.00e+00	0	42	0	217055232	60	4080
2026-01-27 09:06:13.16	136.23	13.65	-44.3	-45.4	21.1	0.00e+00	0	42	0	219152384	60	4048
2026-01-27 09:06:14.16	136.20	13.76	-44.4	-45.5	21.0	0.00e+00	0	42	0	221249536	60	4090
2026-01-27 09:06:15.17	136.18	13.86	-44.3	-45.4	21.1	0.00e+00	0	42	0	222298112	60	4050
2026-01-27 09:06:16.18	136.15	13.96	-44.4	-45.6	20.9	0.00e+00	0	42	0	224395264	60	4138
2026-01-27 09:06:17.19	136.12	14.06	-44.4	-45.7	20.8	0.00e+00	0	43	0	226492416	60	4159
2026-01-27 09:06:18.19	136.09	14.16	-44.4	-45.7	20.8	0.00e+00	0	42	0	228589568	60	4169
2026-01-27 09:06:19.20	136.06	14.27	-44.5	-45.8	20.7	0.00e+00	0	42	0	230686720	60	4199
2026-01-27 09:06:20.21	136.03	14.37	-44.6	-45.9	20.6	0.00e+00	0	42	0	232783872	60	4250
2026-01-27 09:06:21.21	136.00	14.48	-44.7	-46.0	20.5	0.00e+00	0	43	0	233832448	60	4305
2026-01-27 09:06:22.22	135.97	14.58	-44.6	-45.9	20.6	0.00e+00	0	42	0	235929600	60	4282
2026-01-27 09:06:23.23	135.94	14.69	-44.7	-46.0	20.5	0.00e+00	0	42	0	238026752	60	4332
2026-01-27 09:06:24.23	135.91	14.79	-44.8	-46.1	20.4	0.00e+00	0	43	0	240123904	60	4377
2026-01-27 09:06:25.24	135.87	14.90	-44.6	-45.9	20.6	0.00e+00	0	43	0	242221056	60	4274
2026-01-27 09:06:26.25	135.84	15.00	-44.6	-45.9	20.6	0.00e+00	0	42	0	243269632	60	4256
2026-01-27 09:06:27.26	135.81	15.11	-44.7	-46.0	20.5	0.00e+00	0	43	0	245366784	60	4319
2026-01-27 09:06:28.27	135.78	15.22	-44.7	-46.1	20.4	0.00e+00	0	43	0	247463936	60	4344
2026-01-27 09:06:29.27	135.75	15.32	-44.7	-46.0	20.6	0.00e+00	0	43	0	249561088	60	4301
2026-01-27 09:06:30.28	135.71	15.43	-44.6	-45.9	20.6	0.00e+00	0	43	0	251658240	60	4280
2026-01-27 09:06:31.29	135.68	15.54	-44.5	-45.8	20.7	0.00e+00	0	43	0	252706816	60	4225
2026-01-27 09:06:32.29	135.65	15.65	-44.4	-45.7	20.8	0.00e+00	0	43	0	254803968	60	4159
2026-01-27 09:06:33.30	135.61	15.76	-44.6	-45.9	20.7	0.00e+00	0	43	0	256901120	60	4253
2026-01-27 09:06:34.31	135.58	15.87	-44.6	-45.9	20.6	0.00e+00	0	42	0	258998272	60	4288
2026-01-27 09:06:35.32	135.55	15.98	-44.7	-46.0	20.6	0.00e+00	0	42	0	261095424	60	4311
2026-01-27 09:06:36.32	135.51	16.09	-44.4	-45.7	20.8	0.00e+00	0	42	0	262144000	60	4171
2026-01-27 09:06:37.33	135.48	16.20	-44.4	-45.7	20.9	0.00e+00	0	42	0	264241152	60	4151
2026-01-27 09:06:38.34	135.44	16.32	-44.4	-45.7	20.9	0.00e+00	0	43	0	266338304	60	4158
2026-01-27 09:06:39.34	135.41	16.43	-44.4	-45.7	20.9	0.00e+00	0	42	0	268435456	60	4148
2026-01-27 09:06:40.35	135.37	16.54	-44.4	-45.7	20.9	0.00e+00	0	42	0	270532608	60	4147
2026-01-27 09:06:41.36	135.34	16.66	-44.5	-45.7	20.8	0.00e+00	0	43	0	271581184	60	4179
2026-01-27 09:06:42.36	135.30	16.77	-44.4	-45.6	21.0	0.00e+00	0	43	0	273678336	60	4123
2026-01-27 09:06:43.37	135.27	16.88	-44.4	-45.6	21.0	0.00e+00	0	42	0	275775488	60	4130
2026-01-27 09:06:44.38	135.23	17.00	-44.4	-45.6	20.9	0.00e+00	0	42	0	277872640	60	4128
2026-01-27 09:06:45.39	135.19	17.12	-44.3	-45.6	21.0	0.00e+00	0	42	0	279969792	60	4102
2026-01-27 09:06:46.39	135.16	17.23	-44.4	-45.7	20.9	0.00e+00	0	43	0	281018368	60	4146
2026-01-27 09:06:47.40	135.12	17.35	-44.4	-45.7	20.9	0.00e+00	0	43	0	283115520	60	4160
2026-01-27 09:06:48.40	135.08	17.47	-44.4	-45.6	20.9	0.00e+00	0	42	0	285212672	60	4143
2026-01-27 09:06:49.41	135.04	17.58	-44.4	-45.6	20.9	0.00e+00	0	42	0	287309824	60	4145
2026-01-27 09:06:50.42	135.01	17.70	-44.4	-45.7	21.0	0.00e+00	0	43	0	289406976	60	4155
2026-01-27 09:06:51.42	134.97	17.82	-44.3	-45.6	21.0	0.00e+00	0	42	0	290455552	60	4107
2026-01-27 09:06:52.43	134.93	17.94	-44.4	-45.6	21.0	0.00e+00	0	43	0	292552704	60	4140
2026-01-27 09:06:53.44	134.89	18.06	-44.4	-45.7	21.0	0.00e+00	0	42	0	294649856	60	4151
2026-01-27 09:06:54.45	134.85	18.18	-44.3	-45.5	21.1	0.00e+00	0	43	0	296747008	60	4083
2026-01-27 09:06:55.45	134.81	18.30	-44.3	-45.5	21.1	0.00e+00	0	42	0	298844160	60	4087
2026-01-27 09:06:56.46	134.77	18.43	-44.4	-45.6	21.0	0.00e+00	0	43	0	299892736	60	4132
2026-01-27 09:06:57.47	134.73	18.55	-44.3	-45.6	21.0	0.00e+00	0	43	0	301989888	60	4101
2026-01-27 09:06:58.47	134.69	18.67	-44.3	-45.5	21.1	0.00e+00	0	42	0	304087040	60	4092
2026-01-27 09:06:59.47	134.65	18.79	-44.2	-45.4	21.2	0.00e+00	0	43	0	306184192	60	4038
2026-01-27 09:07:00.48	134.60	18.92	-44.4	-45.6	21.1	0.00e+00	0	42	0	308281344	60	4114
2026-01-27 09:07:01.49	134.56	19.04	-44.2	-45.4	21.2	0.00e+00	0	42	0	309329920	60	4030
2026-01-27 09:07:02.50	134.52	19.17	-44.2	-45.4	21.2	0.00e+00	0	42	0	311427072	60	4039
2026-01-27 09:07:03.51	134.48	19.30	-44.2	-45.5	21.2	0.00e+00	0	43	0	313524224	60	4052
2026-01-27 09:07:04.51	134.43	19.42	-44.3	-45.6	21.1	0.00e+00	0	42	0	315621376	60	4103
2026-01-27 09:07:05.52	134.39	19.55	-44.4	-45.6	21.1	0.00e+00	0	43	0	317718528	60	4134
2026-01-27 09:07:06.53	134.34	19.68	-44.3	-45.5	21.1	0.00e+00	0	43	0	318767104	60	4098
2026-01-27 09:07:07.53	134.30	19.81	-44.3	-45.5	21.1	0.00e+00	0	43	0	320864256	60	4097
2026-01-27 09:07:08.54	134.26	19.94	-44.4	-45.7	20.9	0.00e+00	0	42	0	322961408	60	4171
2026-01-27 09:07:09.54	134.21	20.06	-44.6	-45.9	20.8	0.00e+00	0	43	0	325058560	60	4251
2026-01-27 09:07:10.55	134.16	20.20	-44.4	-45.6	21.1	0.00e+00	0	43	0	327155712	60	4137
2026-01-27 09:07:11.56	134.12	20.33	-44.5	-45.8	20.9	0.00e+00	0	43	0	328204288	60	4194
2026-01-27 09:07:12.57	134.07	20.46	-44.5	-45.7	21.0	0.00e+00	0	43	0	330301440	60	4192
2026-01-27 09:07:13.57	134.03	20.59	-44.4	-45.6	21.0	0.00e+00	0	42	0	332398592	60	4144
2026-01-27 09:07:14.57	133.98	20.72	-44.5	-45.8	20.9	0.00e+00	0	43	0	334495744	60	4198
2026-01-27 09:07:15.58	133.93	20.86	-44.4	-45.7	21.0	0.00e+00	0	43	0	336592896	60	4155
2026-01-27 09:07:16.59	133.88	20.99	-44.3	-45.6	21.1	0.00e+00	0	43	0	337641472	60	4107
2026-01-27 09:07:17.60	133.83	21.13	-44.5	-45.8	21.0	0.00e+00	0	43	0	339738624	60	4198
2026-01-27 09:07:18.61	133.78	21.27	-44.5	-45.7	21.0	0.00e+00	0	43	0	341835776	60	4176
2026-01-27 09:07:19.62	133.73	21.40	-44.5	-45.8	21.0	0.00e+00	0	43	0	343932928	60	4198
2026-01-27 09:07:20.63	133.68	21.54	-44.4	-45.7	21.1	0.00e+00	0	43	0	346030080	60	4149
2026-01-27 09:07:21.63	133.63	21.68	-44.6	-45.8	20.9	0.00e+00	0	43	0	347078656	60	4229
2026-01-27 09:07:22.63	133.58	21.82	-44.6	-45.9	20.9	0.00e+00	0	43	0	349175808	60	4260
2026-01-27 09:07:23.64	133.53	21.96	-44.7	-46.0	20.8	0.00e+00	0	43	0	351272960	60	4311
2026-01-27 09:07:24.64	133.48	22.10	-44.8	-46.1	20.7	0.00e+00	0	43	0	353370112	60	4377
2026-01-27 09:07:25.65	133.43	22.24	-45.0	-46.4	20.5	0.00e+00	0	43	0	355467264	60	4505
2026-01-27 09:07:26.66	133.37	22.38	-44.8	-46.2	20.7	0.00e+00	0	43	0	356515840	60	4393
2026-01-27 09:07:27.67	133.32	22.52	-44.9	-46.2	20.7	0.00e+00	0	43	0	358612992	60	4394
2026-01-27 09:07:28.68	133.27	22.67	-44.8	-46.1	20.7	0.00e+00	0	43	0	360710144	60	4381
2026-01-27 09:07:29.69	133.21	22.81	-44.8	-46.1	20.7	0.00e+00	0	43	0	362807296	60	4359
2026-01-27 09:07:30.69	133.16	22.96	-45.0	-46.3	20.6	0.00e+00	0	43	0	364904448	60	4461
2026-01-27 09:07:31.70	133.10	23.10	-44.9	-46.2	20.7	0.00e+00	0	43	0	365953024	60	4393
2026-01-27 09:07:32.70	133.04	23.25	-44.7	-46.0	20.8	0.00e+00	0	43	0	368050176	60	4299
2026-01-27 09:07:33.71	132.99	23.40	-44.7	-46.0	20.8	0.00e+00	0	42	0	370147328	60	4307
2026-01-27 09:07:34.72	132.93	23.54	-44.6	-45.8	20.9	0.00e+00	0	43	0	372244480	60	4220
2026-01-27 09:07:35.73	132.87	23.69	-44.8	-46.0	20.8	0.00e+00	0	43	0	374341632	60	4328
2026-01-27 09:07:36.73	132.81	23.84	-44.6	-45.8	21.0	0.00e+00	0	42	0	375390208	60	4234
2026-01-27 09:07:37.74	132.75	23.99	-44.6	-45.8	21.0	0.00e+00	0	43	0	377487360	60	4218
2026-01-27 09:07:38.75	132.69	24.15	-44.9	-46.2	20.7	0.00e+00	0	43	0	379584512	60	4411
2026-01-27 09:07:39.75	132.63	24.30	-44.8	-46.1	20.7	0.00e+00	0	43	0	381681664	60	4383
2026-01-27 09:07:40.76	132.57	24.45	-44.9	-46.2	20.6	0.00e+00	0	43	0	383778816	60	4441
2026-01-27 09:07:41.77	132.51	24.61	-45.4	-46.9	20.1	0.00e+00	0	43	0	384827392	61	4501
2026-01-27 09:07:42.77	132.45	24.76	-45.5	-46.8	20.1	0.00e+00	0	43	0	386924544	61	4493
2026-01-27 09:07:43.78	132.39	24.92	-45.7	-47.2	19.8	0.00e+00	0	42	0	389021696	61	4689
2026-01-27 09:07:44.78	132.32	25.07	-45.9	-47.4	19.6	0.00e+00	0	43	0	391118848	62	4510
2026-01-27 09:07:45.79	132.26	25.23	-46.0	-47.5	19.5	0.00e+00	0	43	0	393216000	62	4591
2026-01-27 09:07:46.80	132.19	25.39	-46.2	-47.8	19.2	0.00e+00	0	43	0	394264576	62	4756
2026-01-27 09:07:47.80	132.13	25.55	-46.3	-47.9	19.1	0.00e+00	0	43	0	396361728	63	4510
2026-01-27 09:07:48.81	132.06	25.71	-46.2	-47.8	19.3	0.00e+00	0	43	0	398458880	63	4451
2026-01-27 09:07:49.81	131.99	25.87	-46.4	-48.1	18.9	0.00e+00	0	43	0	400556032	63	4613
2026-01-27 09:07:50.82	131.93	26.03	-45.9	-47.4	19.7	0.00e+00	0	43	0	402653184	63	4247
2026-01-27 09:07:51.83	131.86	26.20	-46.0	-47.5	19.6	0.00e+00	0	43	0	403701760	63	4318
2026-01-27 09:07:52.83	131.79	26.36	-45.9	-47.4	19.7	0.00e+00	0	43	0	405798912	63	4249
2026-01-27 09:07:53.84	131.72	26.52	-45.8	-47.3	19.7	0.00e+00	0	43	0	407896064	63	4221
2026-01-27 09:07:54.84	131.65	26.69	-45.9	-47.4	19.7	0.00e+00	0	43	0	409993216	63	4259
2026-01-27 09:07:55.85	131.58	26.86	-46.0	-47.5	19.6	0.00e+00	0	43	0	412090368	63	4313
2026-01-27 09:07:56.86	131.50	27.02	-46.1	-47.7	19.4	0.00e+00	0	42	0	413138944	63	4400
2026-01-27 09:07:57.87	131.43	27.19	-46.3	-47.9	19.1	0.00e+00	0	43	0	415236096	63	4544
2026-01-27 09:07:58.87	131.36	27.36	-46.3	-47.9	19.2	0.00e+00	0	43	0	417333248	63	4504
2026-01-27 09:07:59.88	131.28	27.53	-46.6	-48.2	18.8	0.00e+00	0	43	0	419430400	63	4691
2026-01-27 09:08:00.89	131.21	27.71	-46.4	-48.1	19.1	0.00e+00	0	43	0	421527552	63	4602
2026-01-27 09:08:01.90	131.13	27.88	-46.3	-47.9	19.1	0.00e+00	0	43	0	422576128	64	4290
2026-01-27 09:08:02.90	131.05	28.05	-46.5	-48.2	18.9	0.00e+00	0	43	0	424673280	64	4417
2026-01-27 09:08:03.91	130.97	28.23	-46.3	-47.8	19.2	0.00e+00	0	43	0	426770432	64	4221
2026-01-27 09:08:04.92	130.90	28.41	-46.2	-47.8	19.3	0.00e+00	0	43	0	428867584	63	4454
2026-01-27 09:08:05.92	130.82	28.58	-46.0	-47.5	19.5	0.00e+00	0	43	0	430964736	63	4332
2026-01-27 09:08:06.93	130.73	28.76	-45.9	-47.4	19.7	0.00e+00	0	43	0	432013312	63	4243
2026-01-27 09:08:07.94	130.65	28.94	-46.1	-47.6	19.4	0.00e+00	0	43	0	434110464	63	4341
2026-01-27 09:08:08.95	130.57	29.12	-46.3	-47.9	19.1	0.00e+00	0	43	0	436207616	63	4533
2026-01-27 09:08:09.96	130.48	29.30	-46.4	-48.0	19.1	0.00e+00	0	43	0	438304768	63	4597
2026-01-27 09:08:10.97	130.40	29.49	-46.8	-48.6	18.5	0.00e+00	0	43	0	440401920	64	4633
2026-01-27 09:08:11.97	130.31	29.67	-47.1	-49.0	18.1	0.00e+00	0	43	0	441450496	64	4831
2026-01-27 09:08:12.98	130.23	29.86	-47.1	-48.9	18.2	0.00e+00	0	43	0	443547648	64	4808
2026-01-27 09:08:13.99	130.14	30.04	-47.2	-49.1	17.9	0.00e+00	0	43	0	445644800	65	4633
2026-01-27 09:08:15.00	130.05	30.23	-47.0	-48.9	18.2	0.00e+00	0	43	0	447741952	65	4508
2026-01-27 09:08:16.01	129.96	30.42	-46.4	-48.4	18.7	0.00e+00	0	43	0	449839104	65	4267
2026-01-27 09:08:17.02	129.87	30.61	-47.1	-49.0	18.0	0.00e+00	0	43	0	450887680	64	4856
2026-01-27 09:08:18.02	129.78	30.80	-47.1	-48.9	18.1	0.00e+00	0	43	0	452984832	64	4804
2026-01-27 09:08:19.03	129.68	30.99	-47.1	-49.0	17.8	0.00e+00	0	43	0	455081984	64	4817
2026-01-27 09:08:20.04	129.59	31.18	-47.2	-49.1	18.0	0.00e+00	0	42	0	457179136	64	4879
2026-01-27 09:08:21.04	129.49	31.38	-47.4	-49.4	17.8	0.00e+00	0	43	0	459276288	65	4775
2026-01-27 09:08:22.05	129.40	31.57	-47.3	-49.3	17.8	0.00e+00	0	43	0	460324864	65	4743
2026-01-27 09:08:23.05	129.30	31.77	-47.4	-49.5	17.6	0.00e+00	0	43	0	462422016	65	4834
2026-01-27 09:08:24.06	129.20	31.97	-47.4	-49.4	17.7	0.00e+00	0	43	0	464519168	66	4524
2026-01-27 09:08:25.07	129.10	32.17	-48.0	-50.3	16.8	0.00e+00	0	42	0	466616320	66	5039
2026-01-27 09:08:26.08	129.00	32.37	-47.9	-50.2	17.0	0.00e+00	0	43	0	468713472	66	4938
2026-01-27 09:08:27.08	128.89	32.57	-48.2	-50.7	16.6	0.00e+00	0	43	0	469762048	67	4927
2026-01-27 09:08:28.09	128.79	32.77	-48.4	-50.9	16.3	0.00e+00	0	43	0	471859200	67	5072
2026-01-27 09:08:29.10	128.68	32.97	-48.5	-51.0	16.2	0.00e+00	0	43	0	473956352	67	5134
2026-01-27 09:08:30.11	128.57	33.18	-48.8	-51.6	15.7	0.00e+00	0	43	0	476053504	68	5193
2026-01-27 09:08:31.12	128.47	33.39	-48.7	-51.4	15.9	0.00e+00	0	42	0	478150656	68	5057
2026-01-27 09:08:32.13	128.35	33.60	-49.1	-51.8	15.6	0.00e+00	0	43	0	479199232	68	5329
2026-01-27 09:08:33.14	128.24	33.80	-49.1	-51.8	15.5	0.00e+00	0	43	0	481296384	69	5020
2026-01-27 09:08:34.15	128.13	34.02	-49.3	-52.2	15.0	7.00e-07	0	43	0	483393536	69	5277
2026-01-27 09:08:35.15	128.02	34.23	-50.2	-53.7	13.6	5.30e-06	0	43	0	485490688	71	5570
2026-01-27 09:08:36.16	127.90	34.44	-50.3	-54.0	13.4	1.22e-05	0	43	0	487587840	71	5770
2026-01-27 09:08:37.17	127.78	34.65	-50.2	-53.8	13.6	1.29e-05	0	42	0	488636416	71	5650
2026-01-27 09:08:38.17	127.66	34.87	-50.2	-53.8	13.5	4.34e-05	0	43	0	490733568	71	5634
2026-01-27 09:08:39.18	127.54	35.09	-49.9	-53.2	13.8	5.30e-06	0	43	0	492830720	71	5251
2026-01-27 09:08:40.19	127.42	35.31	-50.3	-54.2	13.1	6.10e-06	0	43	0	494927872	71	5917
2026-01-27 09:08:41.20	127.29	35.53	-49.8	-53.1	14.2	7.00e-07	0	43	0	497025024	71	5202
2026-01-27 09:08:42.20	127.17	35.75	-50.1	-53.7	13.7	4.50e-06	0	43	0	498073600	71	5558
2026-01-27 09:08:43.21	127.04	35.97	-50.2	-54.0	13.0	5.03e-05	0	43	0	500170752	72	5455
2026-01-27 09:08:44.22	126.91	36.19	-50.1	-53.8	13.5	8.30e-06	0	43	0	502267904	71	5626
2026-01-27 09:08:45.23	126.78	36.42	-50.3	-54.3	13.0	6.80e-06	0	42	0	504365056	71	5985
2026-01-27 09:08:46.23	126.65	36.64	-49.7	-53.3	14.2	1.22e-04	0	43	0	506462208	71	5294
2026-01-27 09:08:47.24	126.51	36.87	-49.2	-52.4	14.9	7.00e-07	0	43	0	507510784	70	5054
2026-01-27 09:08:48.24	126.37	37.10	-49.2	-52.5	14.8	0.00e+00	0	43	0	509607936	70	5107
2026-01-27 09:08:49.25	126.23	37.33	-48.0	-50.4	16.9	0.00e+00	0	43	0	511705088	68	4507
2026-01-27 09:08:50.26	126.09	37.56	-47.4	-49.5	17.6	0.00e+00	0	43	0	513802240	66	4580
2026-01-27 09:08:51.27	125.95	37.80	-47.1	-49.0	18.0	0.00e+00	0	43	0	515899392	66	4340
2026-01-27 09:08:52.28	125.80	38.03	-46.9	-48.7	18.4	0.00e+00	0	43	0	517996544	65	4430
2026-01-27 09:08:53.29	125.65	38.27	-46.7	-48.5	18.6	0.00e+00	0	43	0	519045120	65	4310
2026-01-27 09:08:54.29	125.51	38.51	-47.2	-49.2	17.9	0.00e+00	0	43	0	521142272	65	4679
2026-01-27 09:08:55.30	125.35	38.75	-47.6	-49.7	17.3	0.00e+00	0	43	0	523239424	65	4979
2026-01-27 09:08:56.30	125.20	38.99	-47.6	-49.6	17.5	0.00e+00	0	43	0	525336576	66	4647
2026-01-27 09:08:57.32	125.04	39.23	-47.7	-49.8	17.4	0.00e+00	0	43	0	526385152	66	4739
2026-01-27 09:08:58.32	124.88	39.47	-47.5	-49.7	17.5	0.00e+00	0	43	0	528482304	66	4679
2026-01-27 09:08:59.33	124.72	39.72	-47.4	-49.5	17.8	0.00e+00	0	43	0	530579456	66	4569
2026-01-27 09:09:00.33	124.56	39.97	-47.6	-49.8	17.5	0.00e+00	0	43	0	532676608	66	4707
2026-01-27 09:09:01.34	124.39	40.21	-47.9	-50.2	17.2	0.00e+00	0	43	0	534773760	66	4964
2026-01-27 09:09:02.34	124.22	40.46	-48.2	-50.7	16.6	0.00e+00	0	43	0	535822336	67	4931
2026-01-27 09:09:03.35	124.05	40.71	-48.3	-50.8	16.5	0.00e+00	0	43	0	537919488	67	5014
2026-01-27 09:09:04.36	123.87	40.97	-47.5	-49.4	17.8	0.00e+00	0	43	0	540016640	67	4282
2026-01-27 09:09:05.37	123.70	41.22	-47.4	-49.3	17.9	0.00e+00	0	43	0	542113792	66	4457
2026-01-27 09:09:06.38	123.52	41.48	-47.2	-49.0	18.2	0.00e+00	0	43	0	544210944	66	4325
2026-01-27 09:09:07.39	123.33	41.74	-47.4	-49.4	17.9	0.00e+00	0	43	0	546308096	66	4500
2026-01-27 09:09:08.39	123.15	41.99	-47.5	-49.4	17.7	0.00e+00	0	43	0	547356672	66	4540
2026-01-27 09:09:09.40	122.96	42.25	-47.1	-48.9	18.2	0.00e+00	0	43	0	549453824	66	4267
2026-01-27 09:09:10.41	122.76	42.51	-46.7	-48.4	18.8	0.00e+00	0	43	0	551550976	65	4257
2026-01-27 09:09:11.41	122.57	42.77	-46.1	-47.7	19.4	0.00e+00	0	43	0	553648128	64	4154
2026-01-27 09:09:12.42	122.37	43.04	-45.9	-47.4	19.7	0.00e+00	0	43	0	554696704	63	4274
2026-01-27 09:09:13.43	122.17	43.31	-46.0	-47.5	19.6	0.00e+00	0	43	0	556793856	63	4323
2026-01-27 09:09:14.44	121.96	43.57	-45.9	-47.4	19.7	0.00e+00	0	42	0	558891008	63	4274
2026-01-27 09:09:15.45	121.75	43.84	-46.0	-47.6	19.6	0.00e+00	0	43	0	560988160	63	4355
2026-01-27 09:09:16.45	121.54	44.11	-45.9	-47.4	19.7	0.00e+00	0	43	0	563085312	63	4261
2026-01-27 09:09:17.46	121.32	44.38	-45.7	-47.2	19.9	0.00e+00	0	43	0	564133888	63	4161
2026-01-27 09:09:18.47	121.10	44.66	-45.4	-46.8	20.2	0.00e+00	0	43	0	566231040	62	4240
2026-01-27 09:09:19.47	120.88	44.93	-45.3	-46.7	20.4	0.00e+00	0	43	0	568328192	62	4188
2026-01-27 09:09:20.48	120.65	45.21	-45.6	-47.1	20.1	0.00e+00	0	42	0	570425344	62	4343
2026-01-27 09:09:21.49	120.42	45.48	-45.5	-46.9	20.2	0.00e+00	0	43	0	572522496	62	4276
2026-01-27 09:09:22.49	120.18	45.76	-46.1	-47.6	19.6	0.00e+00	0	43	0	574619648	62	4626
2026-01-27 09:09:23.50	119.94	46.04	-46.0	-47.4	19.7	0.00e+00	0	42	0	575668224	63	4280
2026-01-27 09:09:24.51	119.69	46.32	-46.0	-47.5	19.7	0.00e+00	0	43	0	577765376	63	4308
2026-01-27 09:09:25.52	119.44	46.60	-46.2	-47.9	19.2	0.00e+00	0	42	0	579862528	63	4507
2026-01-27 09:09:26.53	119.19	46.89	-45.6	-47.1	20.0	0.00e+00	0	43	0	581959680	62	4379
2026-01-27 09:09:27.53	118.93	47.17	-45.5	-47.0	20.2	0.00e+00	0	43	0	583008256	62	4304
2026-01-27 09:09:28.54	118.67	47.46	-45.3	-46.7	20.4	0.00e+00	0	43	0	585105408	62	4164
2026-01-27 09:09:29.55	118.40	47.75	-46.0	-47.6	19.6	0.00e+00	0	43	0	587202560	62	4622
2026-01-27 09:09:30.56	118.12	48.04	-46.1	-47.7	19.5	0.00e+00	0	43	0	589299712	62	4655
2026-01-27 09:09:31.56	117.84	48.32	-46.1	-47.8	19.4	0.00e+00	0	43	0	591396864	63	4443
2026-01-27 09:09:32.57	117.56	48.62	-45.8	-47.4	19.7	0.00e+00	0	43	0	592445440	63	4268
2026-01-27 09:09:33.58	117.27	48.91	-45.8	-47.3	19.7	0.00e+00	0	43	0	594542592	62	4491
2026-01-27 09:09:34.58	116.97	49.20	-45.5	-47.0	20.0	0.00e+00	0	43	0	596639744	62	4321
2026-01-27 09:09:35.59	116.67	49.50	-45.6	-47.2	19.9	0.00e+00	0	43	0	598736896	62	4400
2026-01-27 09:09:36.59	116.37	49.79	-45.5	-47.0	20.2	0.00e+00	0	43	0	600834048	62	4299
2026-01-27 09:09:37.60	116.05	50.09	-44.9	-46.3	20.7	0.00e+00	0	43	0	602931200	61	4206
2026-01-27 09:09:38.61	115.73	50.38	-44.3	-45.6	21.2	0.00e+00	0	43	0	603979776	60	4102
2026-01-27 09:09:39.62	115.41	50.68	-44.2	-45.3	21.9	0.00e+00	0	42	0	606076928	59	4239
2026-01-27 09:09:40.62	115.08	50.98	-44.3	-45.4	21.9	0.00e+00	0	42	0	608174080	59	4253
2026-01-27 09:09:41.63	114.74	51.28	-44.7	-45.9	21.4	0.00e+00	0	43	0	610271232	59	4501
2026-01-27 09:09:42.64	114.39	51.58	-44.3	-45.4	21.4	0.00e+00	0	43	0	611319808	60	4034
2026-01-27 09:09:43.65	114.03	51.89	-44.3	-45.5	21.4	0.00e+00	0	43	0	613416960	60	4077
2026-01-27 09:09:44.65	113.68	52.19	-44.2	-45.4	21.5	0.00e+00	0	43	0	615514112	60	4013
2026-01-27 09:09:45.66	113.31	52.49	-44.5	-45.7	21.2	0.00e+00	0	43	0	617611264	60	4170
2026-01-27 09:09:46.67	112.93	52.79	-45.1	-46.4	20.7	0.00e+00	0	42	0	619708416	60	4531
2026-01-27 09:09:47.68	112.54	53.10	-46.0	-47.5	19.7	0.00e+00	0	43	0	621805568	62	4568
2026-01-27 09:09:48.69	112.15	53.40	-46.5	-48.2	19.0	0.00e+00	0	43	0	622854144	63	4697
2026-01-27 09:09:49.69	111.75	53.71	-46.2	-47.8	19.4	0.00e+00	0	43	0	624951296	63	4472
2026-01-27 09:09:50.70	111.34	54.01	-46.1	-47.7	19.4	0.00e+00	0	43	0	627048448	63	4421
2026-01-27 09:09:51.71	110.92	54.32	-46.1	-47.8	19.4	0.00e+00	0	43	0	629145600	63	4466
2026-01-27 09:09:52.72	110.49	54.63	-46.5	-48.2	19.1	0.00e+00	0	43	0	631242752	63	4688
2026-01-27 09:09:53.73	110.06	54.93	-46.6	-48.3	19.0	0.00e+00	0	43	0	632291328	64	4456
2026-01-27 09:09:54.73	109.61	55.24	-46.5	-48.2	19.0	0.00e+00	0	43	0	634388480	64	4413
2026-01-27 09:09:55.74	109.16	55.55	-46.3	-47.9	19.3	0.00e+00	0	42	0	636485632	64	4276
2026-01-27 09:09:56.75	108.69	55.85	-46.0	-47.5	19.6	0.00e+00	0	43	0	638582784	64	4096
2026-01-27 09:09:57.76	108.21	56.16	-46.2	-47.6	19.5	0.00e+00	0	43	0	639631360	63	4390
2026-01-27 09:09:58.77	107.72	56.47	-46.5	-48.0	19.4	0.00e+00	0	43	0	641728512	63	4589
2026-01-27 09:09:59.78	107.22	56.77	-46.2	-47.7	19.6	0.00e+00	0	43	0	643825664	63	4399
2026-01-27 09:10:00.79	106.71	57.08	-46.0	-47.4	19.8	0.00e+00	0	43	0	645922816	63	4271
2026-01-27 09:10:01.79	106.20	57.38	-46.2	-47.7	19.6	0.00e+00	0	43	0	648019968	63	4392
2026-01-27 09:10:02.80	105.66	57.68	-46.2	-47.7	19.6	0.00e+00	0	43	0	650117120	63	4422
2026-01-27 09:10:03.80	105.12	57.98	-46.1	-47.5	19.7	0.00e+00	0	43	0	651165696	63	4334
2026-01-27 09:10:04.81	104.56	58.29	-46.2	-47.7	19.5	0.00e+00	0	43	0	653262848	63	4424
2026-01-27 09:10:05.82	103.99	58.59	-46.4	-48.0	19.4	0.00e+00	0	43	0	655360000	63	4552
2026-01-27 09:10:06.83	103.41	58.89	-46.8	-48.6	18.7	0.00e+00	0	43	0	657457152	64	4633
2026-01-27 09:10:07.84	102.81	59.19	-46.8	-48.5	18.9	0.00e+00	0	43	0	659554304	64	4582
2026-01-27 09:10:08.85	102.20	59.48	-46.2	-47.7	19.5	0.00e+00	0	43	0	660602880	64	4161
2026-01-27 09:10:09.86	101.57	59.78	-46.2	-47.8	19.6	0.00e+00	0	43	0	662700032	63	4451
2026-01-27 09:10:10.87	100.93	60.07	-46.3	-47.9	19.4	0.00e+00	0	43	0	664797184	63	4508
2026-01-27 09:10:11.88	100.28	60.37	-45.9	-47.4	19.7	0.00e+00	0	43	0	666894336	63	4251
2026-01-27 09:10:12.88	99.61	60.65	-45.5	-46.8	20.3	0.00e+00	0	43	0	668991488	62	4230
2026-01-27 09:10:13.89	98.93	60.94	-44.9	-46.2	20.9	0.00e+00	0	43	0	670040064	61	4173
2026-01-27 09:10:14.90	98.22	61.23	-44.3	-45.5	21.5	0.00e+00	0	43	0	672137216	60	4063
2026-01-27 09:10:15.91	97.51	61.51	-44.4	-45.5	21.7	0.00e+00	0	43	0	674234368	59	4331
2026-01-27 09:10:16.91	96.78	61.78	-44.3	-45.5	21.5	0.00e+00	0	43	0	676331520	60	4079
2026-01-27 09:10:17.92	96.03	62.06	-44.4	-45.6	21.4	0.00e+00	0	43	0	678428672	60	4134
2026-01-27 09:10:18.93	95.26	62.33	-45.0	-46.3	20.8	0.00e+00	0	43	0	679477248	60	4454
2026-01-27 09:10:19.93	94.48	62.60	-44.7	-46.0	21.0	0.00e+00	0	43	0	681574400	60	4295
2026-01-27 09:10:20.94	93.68	62.87	-44.7	-46.0	21.0	0.00e+00	0	43	0	683671552	60	4316
2026-01-27 09:10:21.95	92.86	63.13	-44.9	-46.3	20.8	0.00e+00	0	43	0	685768704	60	4448
2026-01-27 09:10:22.95	92.03	63.39	-45.0	-46.4	20.7	0.00e+00	0	43	0	687865856	60	4521
2026-01-27 09:10:23.96	91.17	63.64	-44.8	-46.1	20.9	0.00e+00	0	43	0	688914432	61	4120
2026-01-27 09:10:24.97	90.29	63.89	-44.3	-45.5	21.6	0.00e+00	0	43	0	691011584	59	4300
2026-01-27 09:10:25.98	89.40	64.14	-45.0	-46.3	20.8	0.00e+00	0	43	0	693108736	60	4468
2026-01-27 09:10:26.98	88.49	64.37	-45.3	-46.7	20.5	0.00e+00	0	43	0	695205888	61	4422
2026-01-27 09:10:27.99	87.56	64.61	-44.4	-45.7	21.3	0.00e+00	0	43	0	697303040	60	4151
2026-01-27 09:10:29.00	86.61	64.84	-44.1	-45.2	22.0	0.00e+00	0	43	0	698351616	59	4166
2026-01-27 09:10:30.01	85.63	65.06	-44.1	-45.2	22.0	0.00e+00	0	43	0	700448768	59	4166
2026-01-27 09:10:31.02	84.64	65.28	-44.1	-45.2	22.0	0.00e+00	0	43	0	702545920	59	4191
2026-01-27 09:10:32.02	83.64	65.49	-44.6	-45.8	21.3	0.00e+00	0	43	0	704643072	60	4215
2026-01-27 09:10:33.03	82.61	65.69	-45.9	-47.4	19.9	0.00e+00	0	43	0	706740224	62	4506
2026-01-27 09:10:34.04	81.56	65.89	-45.8	-47.3	20.0	0.00e+00	0	43	0	707788800	63	4217
2026-01-27 09:10:35.04	80.51	66.08	-45.7	-47.0	20.2	0.00e+00	0	43	0	709885952	62	4324
2026-01-27 09:10:36.05	79.42	66.26	-46.5	-48.2	19.1	0.00e+00	0	42	0	711983104	63	4655
2026-01-27 09:10:37.07	78.30	66.44	-46.8	-48.6	18.7	0.00e+00	0	43	0	714080256	64	4645
2026-01-27 09:10:38.07	77.19	66.61	-46.3	-47.9	19.5	0.00e+00	0	43	0	716177408	64	4244
2026-01-27 09:10:39.08	76.05	66.77	-46.0	-47.5	19.8	0.00e+00	0	43	0	718274560	63	4301
2026-01-27 09:10:40.08	74.91	66.92	-47.0	-48.8	18.5	0.00e+00	0	42	0	719323136	64	4745
2026-01-27 09:10:41.09	73.73	67.06	-47.5	-49.4	17.9	0.00e+00	0	43	0	721420288	65	4797
2026-01-27 09:10:42.10	72.55	67.20	-47.2	-48.9	18.6	0.00e+00	0	43	0	723517440	65	4527
2026-01-27 09:10:43.11	71.34	67.32	-46.1	-47.6	19.6	0.00e+00	0	43	0	725614592	64	4103
2026-01-27 09:10:44.11	70.14	67.44	-45.6	-46.9	20.4	0.00e+00	0	43	0	726663168	63	4036
2026-01-27 09:10:45.12	68.90	67.55	-45.8	-47.2	20.1	0.00e+00	0	43	0	728760320	62	4415
2026-01-27 09:10:46.13	67.66	67.65	-46.3	-47.8	19.6	0.00e+00	0	43	0	730857472	63	4474
2026-01-27 09:10:47.14	66.41	67.73	-45.9	-47.3	19.9	0.00e+00	0	43	0	732954624	63	4201
2026-01-27 09:10:48.14	65.15	67.81	-45.3	-46.6	20.7	0.00e+00	0	43	0	735051776	62	4112
2026-01-27 09:10:49.15	63.88	67.88	-46.6	-48.1	19.3	0.00e+00	0	43	0	736100352	63	4633
2026-01-27 09:10:50.16	62.60	67.94	-46.7	-48.3	19.1	0.00e+00	0	43	0	738197504	64	4453
2026-01-27 09:10:51.17	61.31	67.99	-46.3	-47.7	19.4	0.00e+00	0	43	0	740294656	64	4177
2026-01-27 09:10:52.17	60.03	68.02	-45.9	-47.2	20.0	0.00e+00	0	43	0	742391808	63	4187
2026-01-27 09:10:53.18	58.73	68.05	-46.2	-47.6	19.6	0.00e+00	0	43	0	744488960	63	4366
2026-01-27 09:10:54.19	57.43	68.07	-46.4	-47.9	19.5	0.00e+00	0	43	0	746586112	63	4505
2026-01-27 09:10:55.19	56.14	68.08	-45.7	-47.1	20.1	0.00e+00	0	43	0	747634688	63	4109
2026-01-27 09:10:56.20	54.83	68.07	-46.1	-47.5	19.8	0.00e+00	0	43	0	749731840	63	4308
2026-01-27 09:10:57.21	53.53	68.06	-45.7	-47.0	20.2	0.00e+00	0	43	0	751828992	63	4096
2026-01-27 09:10:58.22	52.23	68.03	-45.7	-47.0	20.2	0.00e+00	0	43	0	753926144	62	4320
2026-01-27 09:10:59.22	50.95	68.00	-45.6	-46.9	20.3	0.00e+00	0	43	0	754974720	62	4287
2026-01-27 09:11:00.23	49.66	67.95	-46.7	-48.4	18.7	0.00e+00	0	43	0	757071872	64	4523
2026-01-27 09:11:01.24	48.38	67.90	-46.5	-48.1	19.2	0.00e+00	0	43	0	759169024	64	4368
2026-01-27 09:11:02.25	47.10	67.83	-46.1	-47.6	19.6	0.00e+00	0	43	0	761266176	64	4133
2026-01-27 09:11:03.26	45.83	67.76	-47.2	-48.9	18.4	0.00e+00	0	43	0	763363328	64	4814
2026-01-27 09:11:04.27	44.57	67.67	-48.2	-50.4	17.1	0.00e+00	0	43	0	764411904	67	4792
2026-01-27 09:11:05.27	43.34	67.58	-48.9	-51.5	16.2	0.00e+00	0	43	0	766509056	69	4819
2026-01-27 09:11:06.28	42.11	67.47	-49.0	-51.6	16.0	0.00e+00	0	42	0	768606208	69	4905
2026-01-27 09:11:07.29	40.89	67.36	-48.2	-50.3	17.4	0.00e+00	0	43	0	770703360	68	4442
2026-01-27 09:11:08.29	39.69	67.24	-47.8	-49.8	17.7	0.00e+00	0	43	0	772800512	67	4448
2026-01-27 09:11:09.30	38.50	67.10	-48.3	-50.5	17.1	0.00e+00	0	43	0	774897664	67	4831
2026-01-27 09:11:10.31	37.32	66.96	-48.1	-50.2	17.3	0.00e+00	0	43	0	775946240	67	4699
2026-01-27 09:11:11.32	36.16	66.81	-47.1	-48.9	18.5	0.00e+00	0	43	0	778043392	66	4272
2026-01-27 09:11:12.33	35.02	66.65	-45.9	-47.2	20.1	0.00e+00	0	43	0	780140544	63	4192
2026-01-27 09:11:13.33	33.90	66.49	-45.4	-46.6	20.7	0.00e+00	0	43	0	782237696	62	4127
2026-01-27 09:11:14.34	32.79	66.32	-45.1	-46.3	21.0	0.00e+00	0	43	0	783286272	62	3967
2026-01-27 09:11:15.35	31.70	66.14	-45.9	-47.4	19.9	0.00e+00	0	43	0	785383424	62	4506
2026-01-27 09:11:16.36	30.63	65.95	-46.7	-48.4	19.1	0.00e+00	0	43	0	787480576	63	4791
2026-01-27 09:11:17.37	29.57	65.75	-45.7	-47.1	20.2	0.00e+00	0	43	0	789577728	63	4125
2026-01-27 09:11:18.38	28.54	65.55	-44.3	-45.4	22.0	0.00e+00	0	43	0	791674880	59	4272
2026-01-27 09:11:19.38	27.53	65.34	-43.9	-45.0	22.3	0.00e+00	0	43	0	793772032	59	4070
2026-01-27 09:11:20.39	26.54	65.13	-44.5	-45.8	21.8	0.00e+00	0	43	0	794820608	59	4449
2026-01-27 09:11:21.40	25.56	64.90	-44.5	-45.7	21.4	0.00e+00	0	43	0	796917760	60	4172
2026-01-27 09:11:22.41	24.60	64.68	-44.0	-45.2	22.0	0.00e+00	0	43	0	799014912	60	3914
2026-01-27 09:11:23.41	23.68	64.45	-43.9	-44.9	22.3	0.00e+00	0	42	0	801112064	59	4047
2026-01-27 09:11:24.42	22.76	64.21	-43.9	-44.9	22.4	0.00e+00	0	43	0	803209216	59	4035
2026-01-27 09:11:25.42	21.87	63.97	-44.2	-45.3	22.0	0.00e+00	0	42	0	804257792	59	4214
2026-01-27 09:11:26.43	20.98	63.72	-45.6	-47.1	20.2	0.00e+00	0	42	0	806354944	61	4600
2026-01-27 09:11:27.44	20.12	63.47	-45.6	-47.0	20.1	0.00e+00	0	43	0	808452096	62	4314
2026-01-27 09:11:28.45	19.28	63.21	-44.6	-45.7	21.4	0.00e+00	0	43	0	810549248	60	4186
2026-01-27 09:11:29.45	18.46	62.95	-45.5	-46.9	20.4	0.00e+00	0	43	0	811597824	61	4529
2026-01-27 09:11:30.46	17.65	62.69	-46.5	-48.1	19.2	0.00e+00	0	42	0	813694976	63	4630
2026-01-27 09:11:31.46	16.87	62.42	-46.4	-48.0	19.4	0.00e+00	0	43	0	815792128	63	4554
2026-01-27 09:11:32.47	16.10	62.15	-46.0	-47.5	19.8	0.00e+00	0	43	0	817889280	63	4320
2026-01-27 09:11:33.48	15.34	61.87	-47.0	-48.9	18.3	0.00e+00	0	43	0	819986432	64	4773
2026-01-27 09:11:34.49	14.60	61.60	-47.4	-49.4	17.9	0.00e+00	0	43	0	822083584	65	4793
2026-01-27 09:11:35.50	13.88	61.32	-47.1	-49.0	18.2	0.00e+00	0	43	0	823132160	65	4555
2026-01-27 09:11:36.51	13.18	61.03	-46.6	-48.2	18.9	0.00e+00	0	43	0	825229312	64	4440
2026-01-27 09:11:37.52	12.49	60.75	-47.1	-49.0	18.1	0.00e+00	0	43	0	827326464	65	4588
2026-01-27 09:11:38.53	11.81	60.46	-48.6	-51.3	16.1	0.00e+00	0	43	0	829423616	67	5313
2026-01-27 09:11:39.54	11.15	60.17	-47.4	-49.8	17.1	0.00e+00	0	43	0	831520768	67	4492
2026-01-27 09:11:40.54	10.52	59.88	-46.3	-47.8	18.8	0.00e+00	0	43	0	832569344	64	4236
2026-01-27 09:11:41.55	9.89	59.58	-46.3	-47.8	19.4	0.00e+00	0	43	0	834666496	64	4213
2026-01-27 09:11:42.56	9.27	59.29	-46.3	-47.7	19.3	0.00e+00	0	43	0	836763648	64	4193
2026-01-27 09:11:43.56	8.68	58.99	-45.9	-47.3	19.8	0.00e+00	0	43	0	838860800	63	4201
2026-01-27 09:11:44.57	8.09	58.69	-45.9	-47.3	20.0	0.00e+00	0	43	0	839909376	62	4476
2026-01-27 09:11:45.58	7.51	58.39	-45.3	-46.6	20.7	0.00e+00	0	43	0	842006528	62	4112
2026-01-27 09:11:46.58	6.96	58.09	-44.3	-45.4	21.7	0.00e+00	0	43	0	844103680	59	4288
2026-01-27 09:11:47.59	6.41	57.79	-43.7	-44.8	22.3	0.00e+00	0	43	0	846200832	59	3975
2026-01-27 09:11:48.60	5.87	57.49	-44.3	-45.5	21.3	0.00e+00	0	43	0	848297984	59	4331
2026-01-27 09:11:49.61	5.35	57.18	-44.4	-45.6	21.3	0.00e+00	0	43	0	850395136	60	4122
2026-01-27 09:11:50.62	4.83	56.88	-45.5	-46.9	20.3	0.00e+00	0	43	0	851443712	61	4506
2026-01-27 09:11:51.62	4.34	56.58	-45.5	-46.9	20.1	0.00e+00	0	43	0	853540864	61	4530
2026-01-27 09:11:52.63	3.85	56.27	-45.9	-47.3	19.8	0.00e+00	0	43	0	855638016	62	4478
2026-01-27 09:11:53.64	3.37	55.96	-45.6	-47.0	20.1	0.00e+00	0	43	0	857735168	62	4306
2026-01-27 09:11:54.64	2.90	55.66	-45.7	-47.1	19.9	0.00e+00	0	43	0	859832320	62	4368
2026-01-27 09:11:55.65	2.44	55.36	-46.2	-47.7	19.6	0.00e+00	0	43	0	860880896	62	4676
2026-01-27 09:11:56.66	1.99	55.05	-46.0	-47.5	19.7	0.00e+00	0	43	0	862978048	63	4293
2026-01-27 09:11:57.67	1.55	54.74	-44.8	-46.0	21.0	0.00e+00	0	43	0	865075200	61	4065
2026-01-27 09:11:58.68	1.12	54.44	-44.5	-45.6	21.4	0.00e+00	0	43	0	867172352	60	4137
2026-01-27 09:11:59.68	0.70	54.13	-44.5	-45.7	21.1	0.00e+00	0	43	0	869269504	60	4190
2026-01-27 09:12:00.69	0.29	53.83	-44.4	-45.6	21.5	0.00e+00	0	43	0	870318080	60	4106
2026-01-27 09:12:01.69	359.89	53.53	-44.5	-45.6	21.3	0.00e+00	0	43	0	872415232	60	4142
2026-01-27 09:12:02.70	359.50	53.22	-45.4	-46.8	20.4	0.00e+00	0	43	0	874512384	61	4478
2026-01-27 09:12:03.71	359.11	52.92	-46.3	-48.0	19.2	0.00e+00	0	43	0	876609536	63	4578
2026-01-27 09:12:04.72	358.73	52.61	-46.5	-48.2	19.1	0.00e+00	0	43	0	878706688	63	4694
2026-01-27 09:12:05.73	358.36	52.31	-46.5	-48.3	19.0	0.00e+00	0	43	0	879755264	64	4471
2026-01-27 09:12:06.73	358.00	52.01	-46.7	-48.5	18.7	0.00e+00	0	43	0	881852416	64	4579
2026-01-27 09:12:07.74	357.64	51.71	-46.0	-47.5	19.8	0.00e+00	0	43	0	883949568	63	4293
2026-01-27 09:12:08.75	357.29	51.41	-44.7	-45.9	21.1	0.00e+00	0	43	0	886046720	61	4042
2026-01-27 09:12:09.76	356.95	51.11	-44.9	-46.1	21.0	0.00e+00	0	43	0	888143872	61	4131
2026-01-27 09:12:10.76	356.62	50.81	-45.6	-47.0	20.1	0.00e+00	0	43	0	889192448	61	4550
2026-01-27 09:12:11.77	356.29	50.51	-45.5	-46.9	20.3	0.00e+00	0	43	0	891289600	61	4507
2026-01-27 09:12:12.78	355.97	50.21	-45.4	-46.8	20.4	0.00e+00	0	43	0	893386752	61	4474
2026-01-27 09:12:13.79	355.65	49.92	-46.4	-48.1	19.3	0.00e+00	0	43	0	895483904	63	4605
2026-01-27 09:12:14.80	355.34	49.62	-48.0	-50.3	17.1	0.00e+00	0	43	0	897581056	66	5008
2026-01-27 09:12:15.81	355.04	49.33	-48.7	-51.4	16.2	0.00e+00	0	43	0	898629632	68	5053
2026-01-27 09:12:16.81	354.74	49.03	-48.0	-50.2	17.1	0.00e+00	0	43	0	900726784	67	4668
2026-01-27 09:12:17.82	354.45	48.74	-47.9	-50.0	17.4	0.00e+00	0	43	0	902823936	67	4572
2026-01-27 09:12:18.83	354.17	48.45	-48.3	-50.6	16.8	0.00e+00	0	43	0	904921088	67	4926
2026-01-27 09:12:19.84	353.89	48.16	-47.5	-49.4	17.8	0.00e+00	0	43	0	907018240	67	4278
2026-01-27 09:12:20.85	353.61	47.87	-46.1	-47.6	19.6	0.00e+00	0	43	0	908066816	64	4139
2026-01-27 09:12:21.85	353.34	47.59	-45.7	-47.0	20.3	0.00e+00	0	43	0	910163968	63	4074
2026-01-27 09:12:22.86	353.08	47.30	-45.5	-46.9	20.4	0.00e+00	0	43	0	912261120	62	4246
2026-01-27 09:12:23.86	352.82	47.02	-44.6	-45.7	21.3	0.00e+00	0	43	0	914358272	61	3945
2026-01-27 09:12:24.87	352.56	46.73	-44.0	-45.0	22.0	0.00e+00	0	43	0	916455424	60	3856
2026-01-27 09:12:25.87	352.31	46.45	-44.5	-45.6	21.8	0.00e+00	0	43	0	917504000	59	4372
2026-01-27 09:12:26.88	352.07	46.17	-45.3	-46.6	20.7	0.00e+00	0	43	0	919601152	61	4368
2026-01-27 09:12:27.89	351.82	45.89	-45.7	-47.0	20.3	0.00e+00	0	43	0	921698304	62	4339
2026-01-27 09:12:28.89	351.59	45.62	-45.3	-46.5	20.8	0.00e+00	0	43	0	923795456	62	4093
2026-01-27 09:12:29.90	351.35	45.34	-45.2	-46.4	20.8	0.00e+00	0	43	0	925892608	61	4275
2026-01-27 09:12:30.91	351.12	45.06	-45.6	-47.0	20.3	0.00e+00	0	43	0	926941184	61	4569
2026-01-27 09:12:31.91	350.90	44.79	-47.0	-48.7	18.7	0.00e+00	0	43	0	929038336	64	4677
2026-01-27 09:12:32.92	350.68	44.52	-47.8	-49.8	17.5	0.00e+00	0	43	0	931135488	66	4752
2026-01-27 09:12:33.93	350.46	44.25	-47.6	-49.5	17.9	0.00e+00	0	43	0	933232640	66	4559
2026-01-27 09:12:34.94	350.24	43.98	-47.6	-49.6	17.8	0.00e+00	0	43	0	935329792	66	4611
2026-01-27 09:12:35.94	350.04	43.71	-47.8	-49.8	17.5	0.00e+00	0	43	0	936378368	66	4752
2026-01-27 09:12:36.95	349.83	43.44	-47.9	-50.0	17.3	0.00e+00	0	43	0	938475520	66	4831
2026-01-27 09:12:37.96	349.63	43.18	-47.6	-49.5	17.8	0.00e+00	0	43	0	940572672	67	4331
2026-01-27 09:12:38.97	349.43	42.91	-47.3	-49.1	18.2	0.00e+00	0	43	0	942669824	66	4348
2026-01-27 09:12:39.97	349.23	42.65	-47.4	-49.2	17.9	0.00e+00	0	43	0	944766976	65	4704
2026-01-27 09:12:40.98	349.04	42.39	-47.1	-48.9	18.4	0.00e+00	0	43	0	945815552	66	4250
2026-01-27 09:12:41.98	348.85	42.13	-47.0	-48.7	18.6	0.00e+00	0	43	0	947912704	65	4414
2026-01-27 09:12:42.99	348.66	41.87	-48.3	-50.6	16.8	0.00e+00	0	43	0	950009856	67	4873
2026-01-27 09:12:44.00	348.48	41.62	-48.9	-51.5	16.0	0.00e+00	0	43	0	952107008	68	5124
2026-01-27 09:12:45.01	348.29	41.36	-49.5	-52.4	14.9	0.00e+00	0	43	0	954204160	69	5380
2026-01-27 09:12:46.01	348.12	41.11	-49.0	-51.6	15.8	0.00e+00	0	43	0	955252736	69	4920
2026-01-27 09:12:47.02	347.94	40.86	-48.9	-51.5	15.9	0.00e+00	0	43	0	957349888	69	4865
2026-01-27 09:12:48.03	347.77	40.60	-48.3	-50.6	16.8	0.00e+00	0	43	0	959447040	68	4650
2026-01-27 09:12:49.04	347.60	40.35	-48.2	-50.5	16.9	0.00e+00	0	43	0	961544192	67	4834
2026-01-27 09:12:50.04	347.43	40.11	-47.8	-49.8	17.6	0.00e+00	0	43	0	963641344	67	4493
2026-01-27 09:12:51.05	347.27	39.86	-48.1	-50.2	17.2	0.00e+00	0	43	0	964689920	67	4677
2026-01-27 09:12:52.06	347.10	39.62	-47.4	-49.3	18.0	0.00e+00	0	43	0	966787072	66	4462
2026-01-27 09:12:53.06	346.95	39.37	-47.3	-49.2	18.1	0.00e+00	0	43	0	968884224	66	4400
2026-01-27 09:12:54.07	346.79	39.13	-47.8	-49.7	17.6	0.00e+00	0	43	0	970981376	66	4693
2026-01-27 09:12:55.07	346.63	38.89	-48.1	-50.2	17.1	0.00e+00	0	43	0	973078528	66	4962
2026-01-27 09:12:56.08	346.48	38.65	-47.8	-49.7	17.6	0.00e+00	0	43	0	975175680	67	4432
2026-01-27 09:12:57.09	346.33	38.41	-48.4	-50.6	16.7	0.00e+00	0	43	0	976224256	67	4888
2026-01-27 09:12:58.09	346.18	38.18	-48.2	-50.4	17.0	0.00e+00	0	43	0	978321408	67	4787
2026-01-27 09:12:59.10	346.04	37.94	-47.5	-49.3	17.9	0.00e+00	0	43	0	980418560	66	4474
2026-01-27 09:13:00.11	345.89	37.71	-47.2	-48.9	18.2	0.00e+00	0	43	0	982515712	65	4540
2026-01-27 09:13:01.12	345.75	37.48	-47.1	-48.9	18.3	0.00e+00	0	43	0	983564288	65	4512
2026-01-27 09:13:02.13	345.61	37.25	-47.2	-49.0	18.3	0.00e+00	0	43	0	985661440	66	4313
2026-01-27 09:13:03.13	345.47	37.02	-46.9	-48.7	18.8	0.00e+00	0	43	0	987758592	64	4667
2026-01-27 09:13:04.14	345.34	36.79	-46.9	-48.7	18.6	0.00e+00	0	43	0	989855744	64	4677
2026-01-27 09:13:05.15	345.20	36.56	-47.1	-48.8	18.5	0.00e+00	0	43	0	991952896	64	4758
2026-01-27 09:13:06.16	345.07	36.34	-47.1	-48.9	18.3	0.00e+00	0	43	0	993001472	64	4788
2026-01-27 09:13:07.17	344.94	36.11	-46.9	-48.6	18.6	0.00e+00	0	42	0	995098624	65	4362
2026-01-27 09:13:08.17	344.81	35.89	-46.7	-48.3	18.8	0.00e+00	0	43	0	997195776	65	4235
2026-01-27 09:13:09.18	344.69	35.67	-46.1	-47.6	19.4	0.00e+00	0	43	0	999292928	64	4139
2026-01-27 09:13:10.19	344.56	35.45	-45.9	-47.3	19.9	0.00e+00	0	43	0	1001390080	63	4233
2026-01-27 09:13:11.19	344.44	35.23	-45.5	-46.8	20.3	0.00e+00	0	43	0	1002438656	61	4488
2026-01-27 09:13:12.20	344.32	35.02	-45.4	-46.8	20.3	0.00e+00	0	43	0	1004535808	61	4456
2026-01-27 09:13:13.21	344.20	34.80	-45.7	-47.0	20.1	0.00e+00	0	43	0	1006632960	62	4324
2026-01-27 09:13:14.22	344.08	34.59	-46.1	-47.6	19.7	0.00e+00	0	43	0	1008730112	62	4604
2026-01-27 09:13:15.23	343.96	34.37	-47.7	-49.6	17.6	0.00e+00	0	43	0	1010827264	65	4917
2026-01-27 09:13:16.23	343.85	34.16	-48.3	-50.5	16.8	0.00e+00	0	43	0	1011875840	67	4867
2026-01-27 09:13:17.24	343.74	33.95	-49.0	-51.5	16.1	0.00e+00	0	43	0	1013972992	68	5152
2026-01-27 09:13:18.25	343.63	33.74	-48.6	-50.9	16.5	0.00e+00	0	43	0	1016070144	69	4514
2026-01-27 09:13:19.26	343.51	33.53	-48.1	-50.2	17.2	0.00e+00	0	43	0	1018167296	68	4402
2026-01-27 09:13:20.27	343.41	33.33	-47.9	-50.0	17.3	0.00e+00	0	43	0	1020264448	66	4820
2026-01-27 09:13:21.28	343.30	33.12	-48.0	-50.0	17.3	0.00e+00	0	43	0	1022361600	66	4842
2026-01-27 09:13:22.29	343.19	32.92	-47.7	-49.7	17.6	0.00e+00	0	43	0	1023410176	66	4664
2026-01-27 09:13:23.30	343.09	32.71	-47.7	-49.6	17.6	0.00e+00	0	43	0	1025507328	66	4629
2026-01-27 09:13:24.31	342.98	32.51	-47.6	-49.5	17.8	0.00e+00	0	43	0	1027604480	66	4563
2026-01-27 09:13:25.31	342.88	32.31	-47.3	-49.1	18.3	0.00e+00	0	43	0	1029701632	65	4612
2026-01-27 09:13:26.32	342.78	32.11	-46.9	-48.5	18.6	0.00e+00	0	43	0	1031798784	65	4338
2026-01-27 09:13:27.33	342.68	31.92	-46.6	-48.1	19.0	0.00e+00	0	43	0	1032847360	65	4137
2026-01-27 09:13:28.33	342.58	31.72	-46.4	-48.0	19.2	0.00e+00	0	43	0	1034944512	64	4303
2026-01-27 09:13:29.34	342.49	31.52	-46.5	-48.1	19.0	0.00e+00	0	43	0	1037041664	64	4382
2026-01-27 09:13:30.35	342.39	31.33	-46.8	-48.5	18.6	0.00e+00	0	43	0	1039138816	64	4598
2026-01-27 09:13:31.36	342.29	31.14	-47.2	-49.1	18.1	0.00e+00	0	43	0	1040187392	65	4615
2026-01-27 09:13:32.36	342.20	30.95	-47.7	-49.8	17.4	0.00e+00	0	43	0	1042284544	65	5015
2026-01-27 09:13:33.37	342.11	30.76	-48.1	-50.3	16.9	0.00e+00	0	43	0	1044381696	67	4731
2026-01-27 09:13:34.38	342.02	30.57	-48.2	-50.5	16.6	0.00e+00	0	43	0	1046478848	67	4869
2026-01-27 09:13:35.39	341.93	30.38	-48.5	-51.0	16.2	0.00e+00	0	43	0	1048576000	67	5121
2026-01-27 09:13:36.40	341.84	30.19	-48.5	-50.9	16.3	0.00e+00	0	43	0	1050673152	68	4794
2026-01-27 09:13:37.40	341.75	30.00	-48.8	-51.4	15.8	0.00e+00	0	43	0	1051721728	68	5088
2026-01-27 09:13:38.41	341.66	29.82	-49.0	-51.7	15.5	0.00e+00	0	43	0	1053818880	68	5273
2026-01-27 09:13:39.42	341.58	29.64	-49.2	-52.0	15.3	0.00e+00	0	43	0	1055916032	69	5112
2026-01-27 09:13:40.42	341.49	29.45	-49.4	-52.2	15.1	0.00e+00	0	43	0	1058013184	69	5269
2026-01-27 09:13:41.43	341.41	29.27	-49.8	-53.0	14.3	1.50e-06	0	43	0	1060110336	70	5448
2026-01-27 09:13:42.44	341.33	29.09	-49.5	-52.4	14.9	7.00e-07	0	43	0	1061158912	70	5083
2026-01-27 09:13:43.45	341.24	28.91	-49.5	-52.4	14.9	0.00e+00	0	43	0	1063256064	69	5394
2026-01-27 09:13:44.46	341.16	28.73	-49.6	-52.6	14.8	0.00e+00	0	43	0	1065353216	70	5214
2026-01-27 09:13:45.47	341.08	28.56	-49.4	-52.4	15.0	0.00e+00	0	43	0	1067450368	70	5044
2026-01-27 09:13:46.48	341.00	28.38	-49.3	-52.0	15.1	0.00e+00	0	43	0	1069547520	69	5149
2026-01-27 09:13:47.49	340.93	28.20	-49.3	-52.1	15.2	0.00e+00	0	43	0	1070596096	69	5195
2026-01-27 09:13:48.49	340.85	28.03	-48.9	-51.5	15.8	0.00e+00	0	43	0	1072693248	69	4843
2026-01-27 09:13:49.50	340.77	27.86	-48.8	-51.3	16.0	0.00e+00	0	43	0	1074790400	68	5007
2026-01-27 09:13:50.50	340.70	27.69	-48.6	-51.0	16.3	0.00e+00	0	43	0	1076887552	68	4843
2026-01-27 09:13:51.51	340.62	27.51	-48.1	-50.3	16.9	0.00e+00	0	43	0	1078984704	68	4478
2026-01-27 09:13:52.52	340.55	27.34	-47.7	-49.7	17.5	0.00e+00	0	43	0	1080033280	66	4667
2026-01-27 09:13:53.53	340.47	27.17	-47.3	-49.1	18.0	0.00e+00	0	43	0	1082130432	66	4376
2026-01-27 09:13:54.53	340.40	27.01	-46.7	-48.3	18.8	0.00e+00	0	43	0	1084227584	65	4219
2026-01-27 09:13:55.54	340.33	26.84	-46.1	-47.7	19.4	0.00e+00	0	43	0	1086324736	64	4147
2026-01-27 09:13:56.55	340.26	26.67	-45.9	-47.4	19.8	0.00e+00	0	43	0	1088421888	63	4246
2026-01-27 09:13:57.56	340.19	26.51	-45.9	-47.3	19.7	0.00e+00	0	43	0	1089470464	62	4491
2026-01-27 09:13:58.57	340.12	26.34	-45.5	-46.8	20.1	0.00e+00	0	43	0	1091567616	62	4230
2026-01-27 09:13:59.57	340.05	26.18	-45.7	-47.1	19.9	0.00e+00	0	43	0	1093664768	62	4356
2026-01-27 09:14:00.58	339.99	26.02	-45.4	-46.8	20.3	0.00e+00	0	43	0	1095761920	62	4201
2026-01-27 09:14:01.59	339.92	25.86	-45.7	-47.0	20.0	0.00e+00	0	43	0	1097859072	62	4338
2026-01-27 09:14:02.59	339.85	25.70	-46.2	-47.7	19.4	0.00e+00	0	43	0	1098907648	62	4659
2026-01-27 09:14:03.60	339.79	25.54	-46.5	-48.1	19.0	0.00e+00	0	43	0	1101004800	63	4610
2026-01-27 09:14:04.61	339.72	25.38	-46.7	-48.3	18.7	0.00e+00	0	43	0	1103101952	64	4488
2026-01-27 09:14:05.61	339.66	25.22	-47.2	-49.1	18.0	0.00e+00	0	43	0	1105199104	65	4631
2026-01-27 09:14:06.63	339.59	25.06	-47.8	-49.8	17.3	0.00e+00	0	43	0	1107296256	66	4744
2026-01-27 09:14:07.63	339.53	24.91	-48.3	-50.6	16.5	0.00e+00	0	43	0	1108344832	67	4882
2026-01-27 09:14:08.64	339.47	24.75	-49.0	-51.7	15.5	0.00e+00	0	43	0	1110441984	68	5273
2026-01-27 09:14:09.65	339.41	24.60	-49.2	-52.1	15.2	0.00e+00	0	43	0	1112539136	69	5164
2026-01-27 09:14:10.66	339.35	24.45	-49.3	-52.1	15.1	7.00e-07	0	43	0	1114636288	69	5195
2026-01-27 09:14:11.67	339.29	24.29	-49.1	-51.8	15.4	7.00e-07	0	43	0	1116733440	69	5039
2026-01-27 09:14:12.68	339.23	24.14	-48.7	-51.2	16.0	0.00e+00	0	43	0	1117782016	69	4675
2026-01-27 09:14:13.68	339.17	23.99	-48.5	-50.9	16.3	0.00e+00	0	43	0	1119879168	68	4761
2026-01-27 09:14:14.69	339.11	23.84	-48.5	-50.9	16.4	0.00e+00	0	43	0	1121976320	68	4773
2026-01-27 09:14:15.70	339.05	23.69	-48.3	-50.5	16.8	0.00e+00	0	43	0	1124073472	68	4586
2026-01-27 09:14:16.71	338.99	23.54	-47.6	-49.5	17.6	0.00e+00	0	43	0	1126170624	67	4322
2026-01-27 09:14:17.71	338.94	23.40	-47.2	-49.6	17.5	0.00e+00	0	43	0	1127219200	66	4618
2026-01-27 09:14:18.72	338.88	23.25	-47.0	-48.8	18.2	0.00e+00	0	43	0	1129316352	66	4220
2026-01-27 09:14:19.73	338.83	23.10	-47.0	-48.8	18.2	0.00e+00	0	43	0	1131413504	65	4462
2026-01-27 09:14:20.73	338.77	22.96	-46.9	-48.6	18.3	0.00e+00	0	43	0	1133510656	64	4651
2026-01-27 09:14:21.74	338.72	22.82	-46.9	-48.7	18.3	0.00e+00	0	43	0	1135607808	64	4672
2026-01-27 09:14:22.75	338.66	22.67	-46.7	-48.4	18.6	0.00e+00	0	43	0	1136656384	64	4513
2026-01-27 09:14:23.76	338.61	22.53	-46.6	-48.2	18.8	0.00e+00	0	43	0	1138753536	63	4693
2026-01-27 09:14:24.77	338.56	22.39	-46.5	-48.2	18.8	0.00e+00	0	43	0	1140850688	64	4404
2026-01-27 09:14:25.77	338.50	22.25	-46.4	-48.0	19.0	0.00e+00	0	43	0	1142947840	64	4296
2026-01-27 09:14:26.78	338.45	22.11	-46.2	-47.7	19.3	0.00e+00	0	43	0	1145044992	63	4408
2026-01-27 09:14:27.79	338.40	21.97	-46.0	-47.4	19.5	0.00e+00	0	43	0	1146093568	63	4286
2026-01-27 09:14:28.79	338.35	21.83	-45.6	-47.0	19.9	0.00e+00	0	43	0	1148190720	63	4094
2026-01-27 09:14:29.80	338.30	21.69	-45.7	-47.2	19.7	0.00e+00	0	43	0	1150287872	62	4399
2026-01-27 09:14:30.81	338.25	21.55	-45.4	-46.8	20.1	0.00e+00	0	43	0	1152385024	62	4230
2026-01-27 09:14:31.82	338.20	21.41	-45.4	-46.8	20.0	0.00e+00	0	43	0	1154482176	62	4227
2026-01-27 09:14:32.83	338.15	21.28	-45.6	-47.0	19.9	0.00e+00	0	43	0	1155530752	61	4564
2026-01-27 09:14:33.84	338.10	21.14	-45.3	-46.7	20.1	0.00e+00	0	43	0	1157627904	61	4422
2026-01-27 09:14:34.85	338.05	21.01	-45.3	-46.7	20.1	0.00e+00	0	43	0	1159725056	61	4406
2026-01-27 09:14:35.85	338.01	20.87	-45.5	-47.0	19.9	0.00e+00	0	43	0	1161822208	61	4551
2026-01-27 09:14:36.86	337.96	20.74	-45.5	-46.9	20.0	0.00e+00	0	43	0	1163919360	61	4513
2026-01-27 09:14:37.87	337.91	20.61	-45.5	-47.0	19.9	0.00e+00	0	43	0	1164967936	61	4554
2026-01-27 09:14:38.88	337.87	20.48	-45.9	-47.4	19.5	0.00e+00	0	43	0	1167065088	62	4511
2026-01-27 09:14:39.89	337.82	20.34	-45.5	-46.9	19.9	0.00e+00	0	43	0	1169162240	62	4287
2026-01-27 09:14:40.90	337.78	20.21	-45.9	-47.4	19.5	0.00e+00	0	43	0	1171259392	62	4543
2026-01-27 09:14:41.91	337.73	20.08	-45.9	-47.5	19.4	0.00e+00	0	43	0	1173356544	62	4567
2026-01-27 09:14:42.91	337.69	19.95	-45.9	-47.4	19.5	0.00e+00	0	43	0	1174405120	62	4504
2026-01-27 09:14:43.92	337.64	19.83	-45.9	-47.4	19.4	0.00e+00	0	43	0	1176502272	62	4520
2026-01-27 09:14:44.92	337.60	19.70	-45.9	-47.5	19.4	0.00e+00	0	43	0	1178599424	62	4562
2026-01-27 09:14:45.93	337.56	19.57	-46.2	-47.8	19.1	0.00e+00	0	43	0	1180696576	62	4719
2026-01-27 09:14:46.94	337.51	19.44	-46.0	-47.5	19.3	0.00e+00	0	43	0	1182793728	62	4585
2026-01-27 09:14:47.94	337.47	19.32	-46.0	-47.5	19.3	0.00e+00	0	43	0	1183842304	62	4583
2026-01-27 09:14:48.95	337.43	19.19	-46.0	-47.6	19.2	0.00e+00	0	43	0	1185939456	62	4632
2026-01-27 09:14:49.96	337.39	19.07	-46.2	-47.8	19.1	0.00e+00	0	43	0	1188036608	63	4459
2026-01-27 09:14:50.97	337.34	18.94	-46.2	-47.8	19.0	1.50e-06	0	43	0	1190133760	63	4472
2026-01-27 09:14:51.97	337.30	18.82	-46.3	-47.9	18.9	0.00e+00	0	43	0	1192230912	63	4541
2026-01-27 09:14:52.98	337.26	18.70	-46.4	-48.1	18.8	0.00e+00	0	43	0	1194328064	63	4599
2026-01-27 09:14:53.99	337.22	18.57	-46.6	-48.4	18.5	0.00e+00	0	43	0	1195376640	63	4768
2026-01-27 09:14:55.00	337.18	18.45	-46.8	-48.5	18.3	0.00e+00	0	43	0	1197473792	64	4594
2026-01-27 09:14:56.00	337.14	18.33	-46.9	-48.8	18.0	0.00e+00	0	43	0	1199570944	64	4724
2026-01-27 09:14:57.01	337.10	18.21	-47.1	-49.1	17.8	0.00e+00	0	43	0	1201668096	64	4875
2026-01-27 09:14:58.01	337.06	18.09	-47.1	-49.1	17.7	0.00e+00	0	43	0	1202716672	64	4882
2026-01-27 09:14:59.02	337.03	17.97	-47.3	-49.2	17.6	0.00e+00	0	43	0	1204813824	65	4679
2026-01-27 09:15:00.03	336.99	17.85	-47.4	-49.4	17.4	0.00e+00	0	43	0	1206910976	65	4791
2026-01-27 09:15:01.04	336.95	17.73	-47.5	-49.5	17.3	0.00e+00	0	43	0	1209008128	65	4859
2026-01-27 09:15:02.04	336.91	17.62	-47.6	-49.7	17.2	0.00e+00	0	43	0	1211105280	66	4693
2026-01-27 09:15:03.05	336.87	17.50	-47.6	-49.6	17.2	0.00e+00	0	43	0	1212153856	66	4637
2026-01-27 09:15:04.06	336.84	17.38	-47.2	-49.2	17.6	0.00e+00	0	43	0	1214251008	66	4419
2026-01-27 09:15:05.07	336.80	17.27	-47.0	-48.8	18.0	0.00e+00	0	43	0	1216348160	66	4239
2026-01-27 09:15:06.08	336.76	17.15	-46.9	-48.8	18.1	0.00e+00	0	43	0	1218445312	65	4451
2026-01-27 09:15:07.08	336.73	17.04	-46.7	-48.5	18.3	0.00e+00	0	43	0	1220542464	64	4580
2026-01-27 09:15:08.09	336.69	16.92	-46.6	-48.3	18.4	0.00e+00	0	43	0	1222639616	64	4486
2026-01-27 09:15:09.10	336.66	16.81	-46.4	-48.1	18.6	0.00e+00	0	43	0	1223688192	64	4344
2026-01-27 09:15:10.10	336.62	16.69	-46.3	-47.9	18.9	0.00e+00	0	43	0	1225785344	63	4528
2026-01-27 09:15:11.11	336.59	16.58	-46.3	-48.0	18.8	0.00e+00	0	43	0	1227882496	63	4561
2026-01-27 09:15:12.12	336.55	16.47	-46.2	-47.7	19.0	0.00e+00	0	43	0	1229979648	63	4440
2026-01-27 09:15:13.13	336.52	16.35	-46.2	-47.8	19.0	0.00e+00	0	43	0	1231028224	63	4476
2026-01-27 09:15:14.13	336.48	16.24	-46.4	-48.1	18.7	0.00e+00	0	43	0	1233125376	63	4624
2026-01-27 09:15:15.14	336.45	16.13	-46.3	-47.9	18.9	0.00e+00	0	43	0	1235222528	63	4541
2026-01-27 09:15:16.15	336.42	16.02	-46.5	-48.2	18.6	0.00e+00	0	43	0	1237319680	63	4660
2026-01-27 09:15:17.16	336.38	15.91	-46.7	-48.5	18.3	0.00e+00	0	43	0	1239416832	64	4550
