passes_logs/2026/01/27/R3.2S_Murmansk/R3.2S_Murmansk__20260127_001241_KANOPUS-V_5_rec.log

#Pass ID: 20260127_001241_KANOPUS-V 5
#Satellite: KANOPUS-V 5
#Configuration: KANOPUS-V_8320
#almurnet v.1.7.20251203
#Start time: 2026-01-27 00:12:41

#Version: 2.2.20231116
#Station: R3.2S_Murmansk
#Location: 33.079688 lon 68.888172 lat
#TLE: 1 43876U 18111A   26026.53344362  .00004964  00000+0  21063-3 0  9993
#TLE: 2 43876  97.3674 294.8392 0001826  89.2862 270.8585 15.23550007393227

#Time	Az	El	Level	Level2	SNR	BER	BlckErr	Temp	State	Recorded	gain1	gain2
2026-01-27 00:12:41.34	23.97	1.97	-55.1	-64.0	3.8	7.47e-01	0	42	0	0	81	10206
2026-01-27 00:12:42.35	23.90	2.03	-55.1	-64.0	3.8	7.44e-01	0	42	104	0	81	10218
2026-01-27 00:12:43.36	23.82	2.10	-55.1	-63.9	3.8	7.44e-01	0	42	104	0	81	10170
2026-01-27 00:12:44.37	23.74	2.16	-55.1	-63.9	3.8	7.47e-01	0	41	104	0	81	10155
2026-01-27 00:12:45.37	23.66	2.23	-55.1	-63.9	3.8	7.45e-01	0	42	104	0	81	10132
2026-01-27 00:12:46.38	23.59	2.29	-55.1	-63.9	3.8	7.45e-01	0	42	104	0	81	10175
2026-01-27 00:12:47.39	23.51	2.36	-55.1	-64.0	3.8	7.47e-01	0	41	104	0	81	10190
2026-01-27 00:12:48.39	23.43	2.42	-55.2	-64.0	3.8	7.44e-01	0	42	104	0	81	10282
2026-01-27 00:12:49.40	23.35	2.49	-55.3	-64.1	3.8	7.45e-01	0	42	104	0	81	10372
2026-01-27 00:12:50.41	23.27	2.55	-55.3	-64.1	3.8	7.46e-01	0	42	104	0	81	10376
2026-01-27 00:12:51.42	23.19	2.62	-55.3	-64.1	3.8	7.45e-01	0	42	104	0	81	10351
2026-01-27 00:12:52.43	23.11	2.68	-55.2	-64.1	3.8	7.44e-01	0	42	104	0	81	10343
2026-01-27 00:12:53.44	23.02	2.75	-55.2	-64.1	3.8	7.47e-01	0	42	104	0	81	10337
2026-01-27 00:12:54.44	22.94	2.82	-55.2	-64.1	3.8	7.46e-01	0	42	104	0	81	10301
2026-01-27 00:12:55.45	22.86	2.88	-55.2	-64.0	3.8	7.45e-01	0	42	104	0	81	10239
2026-01-27 00:12:56.46	22.78	2.95	-55.2	-64.0	3.8	7.46e-01	0	42	104	0	81	10282
2026-01-27 00:12:57.47	22.69	3.02	-55.1	-64.0	3.8	7.46e-01	0	42	104	0	81	10221
2026-01-27 00:12:58.47	22.61	3.08	-55.1	-63.9	3.8	7.44e-01	0	42	104	0	81	10146
2026-01-27 00:12:59.48	22.52	3.15	-55.1	-63.9	3.8	7.45e-01	0	42	104	0	81	10153
2026-01-27 00:13:00.49	22.44	3.22	-55.1	-63.9	3.8	7.45e-01	0	42	104	0	81	10119
2026-01-27 00:13:01.49	22.35	3.28	-55.0	-63.8	3.8	7.46e-01	0	42	104	0	81	10052
2026-01-27 00:13:02.50	22.27	3.35	-54.9	-63.8	3.8	7.44e-01	0	42	104	0	81	9947
2026-01-27 00:13:03.50	22.18	3.42	-54.8	-63.7	3.8	7.46e-01	0	42	104	0	81	9861
2026-01-27 00:13:04.51	22.09	3.48	-54.7	-63.6	3.8	7.46e-01	0	42	104	0	81	9737
2026-01-27 00:13:05.52	22.00	3.55	-54.7	-63.5	3.8	7.46e-01	0	42	104	0	81	9632
2026-01-27 00:13:06.53	21.92	3.62	-54.5	-63.4	3.8	7.46e-01	0	42	104	0	81	9524
2026-01-27 00:13:07.54	21.83	3.69	-54.4	-63.2	3.8	7.46e-01	0	42	104	0	80	9878
2026-01-27 00:13:08.55	21.74	3.76	-54.1	-62.9	3.8	7.45e-01	0	42	104	0	80	9605
2026-01-27 00:13:09.56	21.65	3.83	-53.8	-62.6	3.8	7.46e-01	0	42	104	0	79	9800
2026-01-27 00:13:10.57	21.56	3.89	-53.3	-62.1	3.8	7.45e-01	0	42	104	0	78	9817
2026-01-27 00:13:11.57	21.47	3.96	-53.3	-62.1	3.8	7.46e-01	0	42	104	0	78	9753
2026-01-27 00:13:12.58	21.37	4.03	-53.3	-62.1	3.8	7.45e-01	0	42	104	0	78	9759
2026-01-27 00:13:13.59	21.28	4.10	-53.3	-62.1	3.8	7.44e-01	0	42	104	0	78	9773
2026-01-27 00:13:14.60	21.19	4.17	-53.3	-62.1	3.8	7.46e-01	0	42	104	0	78	9771
2026-01-27 00:13:15.61	21.09	4.24	-53.2	-62.1	3.8	7.47e-01	0	42	104	0	78	9792
2026-01-27 00:13:16.62	21.00	4.31	-53.3	-62.1	3.8	7.45e-01	0	42	104	0	78	9732
2026-01-27 00:13:17.63	20.90	4.38	-53.2	-62.1	3.8	7.48e-01	0	43	104	0	78	9765
2026-01-27 00:13:18.64	20.81	4.45	-53.2	-62.1	3.8	7.46e-01	0	43	104	0	78	9752
2026-01-27 00:13:19.64	20.71	4.52	-53.2	-62.1	3.8	7.46e-01	0	42	104	0	78	9782
2026-01-27 00:13:20.65	20.62	4.59	-53.2	-62.0	3.8	7.44e-01	0	43	104	0	78	9707
2026-01-27 00:13:21.66	20.52	4.66	-53.2	-62.1	3.8	7.45e-01	0	43	104	0	78	9768
2026-01-27 00:13:22.67	20.42	4.73	-53.2	-62.1	3.8	7.45e-01	0	43	104	0	78	9721
2026-01-27 00:13:23.67	20.32	4.80	-53.2	-62.1	3.8	7.46e-01	0	43	104	0	78	9739
2026-01-27 00:13:24.67	20.22	4.87	-53.2	-62.1	3.8	7.44e-01	0	43	104	0	78	9727
2026-01-27 00:13:25.68	20.13	4.95	-53.2	-62.1	3.8	7.45e-01	0	43	104	0	78	9718
2026-01-27 00:13:26.69	20.02	5.02	-53.2	-62.1	3.8	7.44e-01	0	43	104	0	78	9733
2026-01-27 00:13:27.69	19.92	5.09	-53.4	-62.2	3.8	7.45e-01	0	43	104	0	78	9891
2026-01-27 00:13:28.70	19.82	5.16	-53.3	-62.2	3.8	7.46e-01	0	43	104	0	78	9843
2026-01-27 00:13:29.71	19.72	5.23	-53.3	-62.1	3.8	7.44e-01	0	43	104	0	78	9757
2026-01-27 00:13:30.72	19.62	5.30	-53.4	-62.2	3.8	7.46e-01	0	43	104	0	78	9901
2026-01-27 00:13:31.72	19.51	5.38	-53.2	-62.1	3.8	7.45e-01	0	43	104	0	78	9718
2026-01-27 00:13:32.73	19.41	5.45	-53.3	-62.2	3.8	7.45e-01	0	43	104	0	78	9861
2026-01-27 00:13:33.74	19.30	5.52	-53.3	-62.1	3.8	7.45e-01	0	43	104	0	78	9794
2026-01-27 00:13:34.75	19.20	5.60	-53.4	-62.2	3.8	7.46e-01	0	43	104	0	78	9939
2026-01-27 00:13:35.76	19.09	5.67	-53.2	-62.1	3.8	7.44e-01	0	43	104	0	78	9731
2026-01-27 00:13:36.77	18.98	5.74	-53.4	-62.2	3.8	7.45e-01	0	43	104	0	78	9906
2026-01-27 00:13:37.78	18.87	5.82	-53.3	-62.2	3.8	7.44e-01	0	43	104	0	78	9844
2026-01-27 00:13:38.78	18.77	5.89	-53.5	-62.3	3.8	7.46e-01	0	43	104	0	78	10026
2026-01-27 00:13:39.79	18.66	5.96	-53.3	-62.1	3.8	7.45e-01	0	43	104	0	78	9812
2026-01-27 00:13:40.80	18.55	6.04	-53.4	-62.2	3.8	7.45e-01	0	43	104	0	78	9942
2026-01-27 00:13:41.81	18.44	6.11	-53.4	-62.2	3.8	7.44e-01	0	43	104	0	78	9884
2026-01-27 00:13:42.81	18.33	6.19	-53.5	-62.4	3.8	7.46e-01	0	43	104	0	78	10065
2026-01-27 00:13:43.82	18.21	6.26	-53.4	-62.1	3.8	7.45e-01	0	43	104	0	78	9829
2026-01-27 00:13:44.82	18.10	6.34	-53.5	-62.3	3.8	7.44e-01	0	43	104	0	78	10001
2026-01-27 00:13:45.83	17.99	6.41	-53.4	-62.2	3.8	7.47e-01	0	43	104	0	78	9942
2026-01-27 00:13:46.83	17.87	6.49	-53.6	-62.4	3.8	7.44e-01	0	43	104	0	78	10094
2026-01-27 00:13:47.84	17.76	6.56	-53.4	-62.2	3.8	7.45e-01	0	43	104	0	78	9907
2026-01-27 00:13:48.85	17.64	6.64	-53.5	-62.4	3.8	7.44e-01	0	43	104	0	78	10096
2026-01-27 00:13:49.85	17.52	6.71	-53.5	-62.3	3.8	7.44e-01	0	43	104	0	78	9988
2026-01-27 00:13:50.86	17.41	6.79	-53.6	-62.4	3.8	7.43e-01	0	43	104	0	78	10175
2026-01-27 00:13:51.87	17.29	6.87	-53.5	-62.3	3.8	7.45e-01	0	43	104	0	78	9980
2026-01-27 00:13:52.88	17.17	6.95	-53.6	-62.5	3.8	7.45e-01	0	43	104	0	78	10207
2026-01-27 00:13:53.89	17.05	7.02	-53.5	-62.3	3.8	7.46e-01	0	43	104	0	78	10043
2026-01-27 00:13:54.89	16.93	7.10	-53.7	-62.5	3.8	7.46e-01	0	43	104	0	78	10224
2026-01-27 00:13:55.90	16.81	7.18	-53.5	-62.3	3.8	7.46e-01	0	43	104	0	78	10047
2026-01-27 00:13:56.91	16.68	7.25	-53.6	-62.5	3.8	7.44e-01	0	43	104	0	78	10204
2026-01-27 00:13:57.91	16.56	7.33	-53.6	-62.4	3.8	7.45e-01	0	43	104	0	78	10099
2026-01-27 00:13:58.93	16.43	7.41	-53.7	-62.5	3.8	7.46e-01	0	43	104	0	78	10268
2026-01-27 00:13:59.93	16.31	7.49	-53.6	-62.4	3.8	7.43e-01	0	43	104	0	78	10136
2026-01-27 00:14:00.94	16.18	7.57	-53.7	-62.5	3.8	7.46e-01	0	43	104	0	78	10231
2026-01-27 00:14:01.95	16.06	7.65	-53.6	-62.4	3.8	7.46e-01	0	43	104	0	78	10129
2026-01-27 00:14:02.96	15.93	7.72	-53.7	-62.6	3.8	7.46e-01	0	43	104	0	78	10343
2026-01-27 00:14:03.96	15.80	7.80	-53.6	-62.4	3.8	7.45e-01	0	43	104	0	78	10143
2026-01-27 00:14:04.97	15.67	7.88	-53.7	-62.6	3.8	7.44e-01	0	43	104	0	78	10320
2026-01-27 00:14:05.98	15.54	7.96	-53.6	-62.5	3.8	7.46e-01	0	43	104	0	78	10216
2026-01-27 00:14:06.98	15.41	8.04	-53.8	-62.6	3.8	7.44e-01	0	43	104	0	78	10350
2026-01-27 00:14:07.99	15.28	8.12	-53.6	-62.5	3.8	7.44e-01	0	43	104	0	78	10204
2026-01-27 00:14:09.00	15.14	8.20	-53.7	-62.5	3.8	7.45e-01	0	43	104	0	78	10246
2026-01-27 00:14:10.01	15.01	8.28	-53.7	-62.5	3.8	7.46e-01	0	43	104	0	78	10225
2026-01-27 00:14:11.02	14.87	8.36	-53.8	-62.6	3.8	7.44e-01	0	43	104	0	78	10393
2026-01-27 00:14:12.02	14.74	8.44	-53.7	-62.5	3.8	7.45e-01	0	43	104	0	78	10231
2026-01-27 00:14:13.03	14.60	8.52	-53.8	-62.6	3.8	7.48e-01	0	43	104	0	78	10331
2026-01-27 00:14:14.04	14.46	8.61	-53.7	-62.5	3.8	7.45e-01	0	43	104	0	78	10293
2026-01-27 00:14:15.04	14.32	8.69	-53.8	-62.6	3.8	7.44e-01	0	43	104	0	78	10410
2026-01-27 00:14:16.04	14.18	8.77	-53.7	-62.6	3.8	7.47e-01	0	43	104	0	78	10294
2026-01-27 00:14:17.04	14.04	8.85	-53.8	-62.6	3.8	7.46e-01	0	43	104	0	78	10375
2026-01-27 00:14:18.05	13.90	8.93	-53.7	-62.6	3.8	7.45e-01	0	43	104	0	78	10300
2026-01-27 00:14:19.06	13.76	9.01	-53.8	-62.7	3.8	7.45e-01	0	43	104	0	78	10416
2026-01-27 00:14:20.07	13.61	9.10	-53.7	-62.6	3.8	7.43e-01	0	43	104	0	78	10303
2026-01-27 00:14:21.07	13.47	9.18	-53.8	-62.6	3.8	7.46e-01	0	43	104	0	78	10402
2026-01-27 00:14:22.09	13.32	9.26	-53.8	-62.5	3.8	7.46e-01	0	43	104	0	78	10290
2026-01-27 00:14:23.09	13.17	9.34	-53.9	-62.7	3.8	7.45e-01	0	43	104	0	78	10449
2026-01-27 00:14:24.10	13.02	9.43	-53.8	-62.6	3.8	7.47e-01	0	43	104	0	78	10294
2026-01-27 00:14:25.11	12.87	9.51	-53.8	-62.7	3.8	7.46e-01	0	43	104	0	78	10419
2026-01-27 00:14:26.12	12.72	9.60	-53.8	-62.6	3.8	7.44e-01	0	43	104	0	78	10341
2026-01-27 00:14:27.12	12.57	9.68	-53.9	-62.7	3.8	7.45e-01	0	43	104	0	78	10490
2026-01-27 00:14:28.13	12.42	9.76	-53.8	-62.6	3.8	7.47e-01	0	43	104	0	78	10362
2026-01-27 00:14:29.13	12.27	9.85	-53.9	-62.7	3.8	7.47e-01	0	43	104	0	78	10488
2026-01-27 00:14:30.14	12.11	9.93	-53.8	-62.6	3.8	7.46e-01	0	43	104	0	78	10376
2026-01-27 00:14:31.15	11.95	10.02	-53.9	-62.7	3.8	7.47e-01	0	44	104	0	78	10528
2026-01-27 00:14:32.16	11.80	10.10	-53.8	-62.7	3.8	7.43e-01	0	43	104	0	78	10422
2026-01-27 00:14:33.17	11.64	10.19	-53.9	-62.7	3.8	7.45e-01	0	43	104	0	78	10463
2026-01-27 00:14:34.17	11.48	10.27	-53.8	-62.7	3.8	7.45e-01	0	43	104	0	78	10437
2026-01-27 00:14:35.18	11.32	10.36	-53.9	-62.8	3.8	7.44e-01	0	44	104	0	78	10559
2026-01-27 00:14:36.19	11.15	10.44	-53.9	-62.7	3.8	7.44e-01	0	44	104	0	78	10500
2026-01-27 00:14:37.20	10.99	10.53	-53.9	-62.7	3.8	7.45e-01	0	43	104	0	78	10524
2026-01-27 00:14:38.21	10.83	10.62	-53.9	-62.7	3.8	7.45e-01	0	43	104	0	78	10465
2026-01-27 00:14:39.22	10.66	10.70	-53.9	-62.8	3.8	7.46e-01	0	44	104	0	78	10578
2026-01-27 00:14:40.23	10.49	10.79	-53.9	-62.7	3.8	7.44e-01	0	44	104	0	78	10484
2026-01-27 00:14:41.23	10.33	10.88	-53.9	-62.7	3.8	7.45e-01	0	44	104	0	78	10522
2026-01-27 00:14:42.24	10.16	10.97	-53.9	-62.7	3.8	7.46e-01	0	43	104	0	78	10494
2026-01-27 00:14:43.25	9.98	11.05	-54.0	-62.8	3.8	7.45e-01	0	43	104	0	78	10592
2026-01-27 00:14:44.25	9.81	11.14	-53.9	-62.7	3.8	7.44e-01	0	43	104	0	78	10517
2026-01-27 00:14:45.26	9.64	11.23	-53.9	-62.8	3.8	7.46e-01	0	43	104	0	78	10548
2026-01-27 00:14:46.27	9.46	11.32	-53.9	-62.7	3.8	7.45e-01	0	43	104	0	78	10492
2026-01-27 00:14:47.28	9.29	11.40	-54.0	-62.8	3.8	7.44e-01	0	43	104	0	78	10605
2026-01-27 00:14:48.29	9.11	11.49	-53.9	-62.7	3.8	7.47e-01	0	43	104	0	78	10516
2026-01-27 00:14:49.30	8.93	11.58	-54.0	-62.8	3.8	7.44e-01	0	43	104	0	78	10599
2026-01-27 00:14:50.31	8.75	11.67	-53.9	-62.8	3.8	7.45e-01	0	43	104	0	78	10548
2026-01-27 00:14:51.32	8.57	11.76	-54.0	-62.8	3.8	7.44e-01	0	44	104	0	78	10628
2026-01-27 00:14:52.32	8.39	11.85	-53.9	-62.8	3.8	7.45e-01	0	43	104	0	78	10580
2026-01-27 00:14:53.33	8.20	11.94	-54.0	-62.8	3.8	7.46e-01	0	44	104	0	78	10614
2026-01-27 00:14:54.34	8.02	12.03	-54.0	-62.8	3.8	7.44e-01	0	44	104	0	78	10568
2026-01-27 00:14:55.35	7.83	12.12	-54.0	-62.8	3.8	7.45e-01	0	43	104	0	78	10633
2026-01-27 00:14:56.35	7.64	12.21	-54.0	-62.8	3.8	7.45e-01	0	43	104	0	78	10578
2026-01-27 00:14:57.36	7.45	12.30	-54.0	-62.9	3.8	7.46e-01	0	43	104	0	78	10700
2026-01-27 00:14:58.37	7.26	12.39	-54.0	-62.8	3.8	7.46e-01	0	43	104	0	78	10642
2026-01-27 00:14:59.38	7.07	12.48	-54.1	-62.9	3.8	7.45e-01	0	43	104	0	78	10684
2026-01-27 00:15:00.39	6.87	12.57	-54.0	-62.8	3.8	7.44e-01	0	44	104	0	78	10638
2026-01-27 00:15:01.39	6.68	12.66	-54.0	-62.9	3.8	7.44e-01	0	43	104	0	78	10676
2026-01-27 00:15:02.40	6.48	12.75	-54.0	-62.9	3.8	7.45e-01	0	43	104	0	78	10663
2026-01-27 00:15:03.41	6.28	12.84	-54.1	-62.9	3.8	7.45e-01	0	43	104	0	78	10718
2026-01-27 00:15:04.42	6.08	12.93	-54.0	-62.8	3.8	7.44e-01	0	44	104	0	78	10632
2026-01-27 00:15:05.42	5.88	13.02	-54.0	-62.9	3.8	7.44e-01	0	43	104	0	78	10692
2026-01-27 00:15:06.43	5.68	13.12	-54.0	-62.8	3.8	7.45e-01	0	44	104	0	78	10645
2026-01-27 00:15:07.44	5.47	13.21	-54.1	-62.9	3.8	7.44e-01	0	43	104	0	78	10736
2026-01-27 00:15:08.45	5.27	13.30	-54.0	-62.9	3.8	7.44e-01	0	44	104	0	78	10672
2026-01-27 00:15:09.45	5.06	13.39	-54.1	-62.9	3.8	7.45e-01	0	44	104	0	78	10721
2026-01-27 00:15:10.46	4.85	13.48	-54.1	-62.9	3.8	7.46e-01	0	44	104	0	78	10716
2026-01-27 00:15:11.47	4.64	13.58	-54.1	-62.9	3.8	7.45e-01	0	44	104	0	78	10698
2026-01-27 00:15:12.48	4.43	13.67	-54.1	-62.9	3.8	7.45e-01	0	43	104	0	78	10687
2026-01-27 00:15:13.49	4.21	13.76	-54.1	-62.9	3.8	7.45e-01	0	44	104	0	78	10726
2026-01-27 00:15:14.49	4.00	13.85	-54.1	-62.9	3.8	7.45e-01	0	44	104	0	78	10726
2026-01-27 00:15:15.50	3.78	13.95	-54.1	-62.9	3.8	7.45e-01	0	43	104	0	78	10777
2026-01-27 00:15:16.51	3.56	14.04	-54.1	-62.9	3.8	7.47e-01	0	43	104	0	78	10722
2026-01-27 00:15:17.52	3.34	14.13	-54.1	-62.9	3.8	7.44e-01	0	44	104	0	78	10758
2026-01-27 00:15:18.53	3.11	14.22	-54.1	-62.9	3.8	7.45e-01	0	44	104	0	78	10758
2026-01-27 00:15:19.54	2.89	14.32	-54.1	-62.9	3.8	7.46e-01	0	44	104	0	78	10734
2026-01-27 00:15:20.55	2.66	14.41	-54.1	-62.9	3.8	7.45e-01	0	44	104	0	78	10718
2026-01-27 00:15:21.55	2.44	14.50	-54.1	-62.9	3.8	7.45e-01	0	43	104	0	78	10776
2026-01-27 00:15:22.56	2.21	14.60	-54.1	-62.9	3.8	7.46e-01	0	44	104	0	78	10767
2026-01-27 00:15:23.57	1.98	14.69	-54.1	-63.0	3.8	7.46e-01	0	44	104	0	78	10838
2026-01-27 00:15:24.58	1.74	14.78	-54.1	-62.9	3.8	7.43e-01	0	44	104	0	78	10740
2026-01-27 00:15:25.59	1.51	14.88	-54.1	-62.9	3.8	7.45e-01	0	44	104	0	78	10777
2026-01-27 00:15:26.60	1.27	14.97	-54.1	-63.0	3.8	7.45e-01	0	44	104	0	78	10792
2026-01-27 00:15:27.61	1.03	15.07	-54.2	-63.0	3.8	7.46e-01	0	44	104	0	78	10808
2026-01-27 00:15:28.62	0.79	15.16	-54.1	-63.0	3.8	7.46e-01	0	43	104	0	78	10811
2026-01-27 00:15:29.63	0.55	15.25	-54.2	-63.0	3.8	7.46e-01	0	44	104	0	78	10802
2026-01-27 00:15:30.63	0.31	15.35	-54.2	-63.0	3.8	7.46e-01	0	44	104	0	78	10815
2026-01-27 00:15:31.64	0.06	15.44	-54.2	-63.0	3.8	7.46e-01	0	44	104	0	78	10843
2026-01-27 00:15:32.64	359.81	15.53	-54.2	-63.0	3.8	7.45e-01	0	44	104	0	78	10784
2026-01-27 00:15:33.65	359.56	15.63	-54.2	-63.0	3.8	7.45e-01	0	44	104	0	78	10803
2026-01-27 00:15:34.66	359.31	15.72	-54.2	-63.0	3.8	7.45e-01	0	44	104	0	78	10861
2026-01-27 00:15:35.67	359.06	15.82	-54.2	-63.0	3.8	7.45e-01	0	44	104	0	78	10823
2026-01-27 00:15:36.67	358.81	15.91	-54.2	-63.0	3.8	7.44e-01	0	44	104	0	78	10827
2026-01-27 00:15:37.68	358.55	16.00	-54.2	-63.0	3.8	7.45e-01	0	44	104	0	78	10820
2026-01-27 00:15:38.69	358.29	16.10	-54.2	-63.0	3.8	7.45e-01	0	44	104	0	78	10881
2026-01-27 00:15:39.70	358.03	16.19	-54.2	-63.0	3.8	7.47e-01	0	44	104	0	79	10270
2026-01-27 00:15:40.70	357.77	16.28	-54.2	-63.0	3.8	7.46e-01	0	43	104	0	79	10238
2026-01-27 00:15:41.71	357.50	16.38	-54.2	-63.0	3.8	7.44e-01	0	44	104	0	79	10259
2026-01-27 00:15:42.72	357.23	16.47	-54.2	-63.1	3.8	7.44e-01	0	44	104	0	79	10317
2026-01-27 00:15:43.73	356.96	16.56	-54.2	-63.0	3.8	7.45e-01	0	44	104	0	79	10262
2026-01-27 00:15:44.74	356.69	16.66	-54.2	-63.0	3.8	7.45e-01	0	44	104	0	79	10244
2026-01-27 00:15:45.74	356.42	16.75	-54.2	-63.0	3.8	7.45e-01	0	44	104	0	79	10274
2026-01-27 00:15:46.74	356.15	16.84	-54.2	-63.1	3.8	7.45e-01	0	43	104	0	79	10294
2026-01-27 00:15:47.75	355.87	16.93	-54.2	-63.0	3.8	7.45e-01	0	44	104	0	79	10266
2026-01-27 00:15:48.75	355.60	17.02	-54.2	-63.0	3.8	7.44e-01	0	44	104	0	79	10289
2026-01-27 00:15:49.76	355.31	17.12	-54.2	-63.1	3.8	7.45e-01	0	44	104	0	79	10297
2026-01-27 00:15:50.77	355.03	17.21	-54.3	-63.1	3.8	7.44e-01	0	44	104	0	79	10357
2026-01-27 00:15:51.78	354.75	17.30	-54.2	-63.1	3.8	7.45e-01	0	44	104	0	79	10314
2026-01-27 00:15:52.79	354.46	17.39	-54.2	-63.1	3.8	7.44e-01	0	44	104	0	79	10296
2026-01-27 00:15:53.80	354.17	17.49	-54.2	-63.0	3.8	7.45e-01	0	44	104	0	79	10285
2026-01-27 00:15:54.81	353.88	17.58	-54.3	-63.1	3.8	7.46e-01	0	44	104	0	79	10330
2026-01-27 00:15:55.81	353.59	17.67	-54.2	-63.1	3.8	7.45e-01	0	44	104	0	79	10320
2026-01-27 00:15:56.82	353.29	17.76	-54.3	-63.1	3.8	7.45e-01	0	44	104	0	79	10342
2026-01-27 00:15:57.82	352.99	17.85	-54.2	-63.1	3.8	7.45e-01	0	44	104	0	79	10344
2026-01-27 00:15:58.83	352.69	17.94	-54.3	-63.1	3.8	7.44e-01	0	44	104	0	79	10373
2026-01-27 00:15:59.84	352.39	18.03	-54.3	-63.1	3.8	7.45e-01	0	44	104	0	79	10339
2026-01-27 00:16:00.84	352.09	18.12	-54.3	-63.1	3.8	7.46e-01	0	44	104	0	79	10383
2026-01-27 00:16:01.85	351.78	18.21	-54.3	-63.1	3.8	7.45e-01	0	44	104	0	79	10330
2026-01-27 00:16:02.86	351.48	18.30	-54.3	-63.2	3.8	7.45e-01	0	44	104	0	79	10417
2026-01-27 00:16:03.87	351.17	18.39	-54.3	-63.1	3.8	7.45e-01	0	44	104	0	79	10323
2026-01-27 00:16:04.88	350.85	18.47	-54.3	-63.1	3.8	7.46e-01	0	44	104	0	79	10390
2026-01-27 00:16:05.89	350.54	18.56	-54.3	-63.1	3.8	7.46e-01	0	44	104	0	79	10400
2026-01-27 00:16:06.90	350.22	18.65	-54.3	-63.1	3.8	7.47e-01	0	44	104	0	79	10390
2026-01-27 00:16:07.90	349.90	18.74	-54.3	-63.1	3.8	7.46e-01	0	44	104	0	79	10344
2026-01-27 00:16:08.91	349.58	18.82	-54.3	-63.1	3.8	7.45e-01	0	44	104	0	79	10403
2026-01-27 00:16:09.92	349.26	18.91	-54.3	-63.1	3.8	7.46e-01	0	44	104	0	79	10368
2026-01-27 00:16:10.93	348.93	19.00	-54.3	-63.1	3.8	7.45e-01	0	44	104	0	79	10401
2026-01-27 00:16:11.93	348.61	19.08	-54.3	-63.1	3.8	7.46e-01	0	44	104	0	79	10366
2026-01-27 00:16:12.94	348.28	19.17	-54.3	-63.2	3.8	7.46e-01	0	44	104	0	79	10428
2026-01-27 00:16:13.95	347.95	19.25	-54.3	-63.1	3.8	7.45e-01	0	44	104	0	79	10395
2026-01-27 00:16:14.95	347.62	19.33	-54.4	-63.2	3.8	7.45e-01	0	44	104	0	79	10444
2026-01-27 00:16:15.96	347.28	19.42	-54.3	-63.1	3.8	7.46e-01	0	44	104	0	79	10400
2026-01-27 00:16:16.97	346.94	19.50	-54.3	-63.2	3.8	7.45e-01	0	44	104	0	79	10442
2026-01-27 00:16:17.98	346.60	19.58	-54.3	-63.1	3.8	7.47e-01	0	44	104	0	79	10409
2026-01-27 00:16:18.99	346.26	19.66	-54.4	-63.2	3.8	7.48e-01	0	44	104	0	79	10458
2026-01-27 00:16:20.00	345.91	19.75	-54.3	-63.2	3.8	7.44e-01	0	44	104	0	79	10419
2026-01-27 00:16:21.01	345.57	19.83	-54.3	-63.2	3.8	7.44e-01	0	44	104	0	79	10427
2026-01-27 00:16:22.02	345.22	19.91	-54.3	-63.2	3.8	7.46e-01	0	44	104	0	79	10430
2026-01-27 00:16:23.03	344.87	19.99	-54.4	-63.2	3.8	7.43e-01	0	44	104	0	79	10499
2026-01-27 00:16:24.03	344.52	20.06	-54.4	-63.2	3.8	7.44e-01	0	44	104	0	79	10451
2026-01-27 00:16:25.03	344.17	20.14	-54.4	-63.2	3.8	7.44e-01	0	44	104	0	79	10455
2026-01-27 00:16:26.04	343.81	20.22	-54.3	-63.2	3.8	7.44e-01	0	43	104	0	79	10475
2026-01-27 00:16:27.05	343.45	20.29	-54.4	-63.2	3.8	7.43e-01	0	44	104	0	79	10500
2026-01-27 00:16:28.06	343.09	20.37	-54.4	-63.2	3.8	7.44e-01	0	44	104	0	79	10432
2026-01-27 00:16:29.07	342.72	20.44	-54.4	-63.2	3.8	7.45e-01	0	44	104	0	79	10500
2026-01-27 00:16:30.08	342.36	20.52	-54.4	-63.2	3.8	7.44e-01	0	44	104	0	79	10464
2026-01-27 00:16:31.08	341.99	20.59	-54.4	-63.2	3.8	7.46e-01	0	44	104	0	79	10493
2026-01-27 00:16:32.09	341.62	20.66	-54.4	-63.2	3.8	7.46e-01	0	44	104	0	79	10466
2026-01-27 00:16:33.09	341.26	20.73	-54.4	-63.2	3.8	7.47e-01	0	44	104	0	79	10516
2026-01-27 00:16:34.10	340.88	20.80	-54.4	-63.2	3.8	7.46e-01	0	44	104	0	79	10475
2026-01-27 00:16:35.11	340.51	20.87	-54.4	-63.3	3.8	7.46e-01	0	44	104	0	79	10538
2026-01-27 00:16:36.11	340.13	20.94	-54.4	-63.2	3.8	7.46e-01	0	44	104	0	79	10492
2026-01-27 00:16:37.12	339.75	21.01	-54.4	-63.2	3.8	7.44e-01	0	44	104	0	79	10519
2026-01-27 00:16:38.13	339.37	21.07	-54.4	-63.2	3.8	7.47e-01	0	44	104	0	79	10504
2026-01-27 00:16:39.14	338.99	21.14	-54.4	-63.3	3.8	7.46e-01	0	44	104	0	79	10559
2026-01-27 00:16:40.15	338.60	21.21	-54.4	-63.2	3.8	7.44e-01	0	44	104	0	79	10467
2026-01-27 00:16:41.15	338.22	21.27	-54.4	-63.3	3.8	7.46e-01	0	44	104	0	79	10536
2026-01-27 00:16:42.16	337.83	21.33	-54.4	-63.2	3.8	7.45e-01	0	44	104	0	79	10507
2026-01-27 00:16:43.17	337.44	21.39	-54.5	-63.3	3.8	7.46e-01	0	44	104	0	79	10550
2026-01-27 00:16:44.18	337.05	21.45	-54.4	-63.2	3.8	7.46e-01	0	44	104	0	79	10521
2026-01-27 00:16:45.19	336.66	21.51	-54.5	-63.3	3.8	7.46e-01	0	44	104	0	79	10550
2026-01-27 00:16:46.19	336.26	21.57	-54.4	-63.2	3.8	7.45e-01	0	44	104	0	79	10502
2026-01-27 00:16:47.20	335.87	21.63	-54.5	-63.3	3.8	7.46e-01	0	44	104	0	79	10565
2026-01-27 00:16:48.21	335.47	21.68	-54.4	-63.3	3.8	7.45e-01	0	44	104	0	79	10546
2026-01-27 00:16:49.21	335.07	21.74	-54.5	-63.3	3.8	7.45e-01	0	44	104	0	79	10550
2026-01-27 00:16:50.22	334.67	21.79	-54.4	-63.2	3.8	7.44e-01	0	44	104	0	79	10504
2026-01-27 00:16:51.23	334.26	21.84	-54.5	-63.3	3.8	7.45e-01	0	44	104	0	79	10587
2026-01-27 00:16:52.24	333.86	21.89	-54.5	-63.3	3.8	7.45e-01	0	44	104	0	79	10581
2026-01-27 00:16:53.25	333.45	21.94	-54.5	-63.3	3.8	7.46e-01	0	44	104	0	79	10571
2026-01-27 00:16:54.26	333.04	21.99	-54.4	-63.3	3.8	7.46e-01	0	44	104	0	79	10583
2026-01-27 00:16:55.27	332.63	22.04	-54.5	-63.3	3.8	7.44e-01	0	44	104	0	79	10629
2026-01-27 00:16:56.28	332.22	22.09	-54.5	-63.3	3.8	7.46e-01	0	44	104	0	79	10584
2026-01-27 00:16:57.29	331.81	22.13	-54.5	-63.3	3.8	7.45e-01	0	44	104	0	79	10609
2026-01-27 00:16:58.29	331.40	22.17	-54.5	-63.3	3.8	7.47e-01	0	44	104	0	79	10612
2026-01-27 00:16:59.30	330.98	22.22	-54.5	-63.3	3.8	7.45e-01	0	44	104	0	79	10650
2026-01-27 00:17:00.30	330.57	22.26	-54.5	-63.3	3.8	7.44e-01	0	44	104	0	79	10581
2026-01-27 00:17:01.31	330.15	22.30	-54.5	-63.3	3.8	7.44e-01	0	44	104	0	79	10615
2026-01-27 00:17:02.32	329.73	22.33	-54.5	-63.3	3.8	7.47e-01	0	44	104	0	79	10598
2026-01-27 00:17:03.33	329.31	22.37	-54.5	-63.4	3.8	7.44e-01	0	44	104	0	79	10664
2026-01-27 00:17:04.34	328.89	22.41	-54.5	-63.3	3.8	7.45e-01	0	44	104	0	79	10607
2026-01-27 00:17:05.35	328.47	22.44	-54.5	-63.3	3.8	7.45e-01	0	44	104	0	79	10611
2026-01-27 00:17:06.36	328.05	22.47	-54.5	-63.3	3.8	7.44e-01	0	44	104	0	79	10610
2026-01-27 00:17:07.37	327.62	22.50	-54.5	-63.4	3.8	7.45e-01	0	44	104	0	79	10656
2026-01-27 00:17:08.37	327.20	22.53	-54.5	-63.3	3.8	7.45e-01	0	44	104	0	79	10639
2026-01-27 00:17:09.38	326.78	22.56	-54.5	-63.3	3.8	7.45e-01	0	44	104	0	79	10629
2026-01-27 00:17:10.39	326.35	22.59	-54.5	-63.3	3.8	7.43e-01	0	44	104	0	79	10631
2026-01-27 00:17:11.40	325.92	22.61	-54.6	-63.4	3.8	7.46e-01	0	44	104	0	79	10695
2026-01-27 00:17:12.40	325.50	22.63	-54.5	-63.3	3.8	7.46e-01	0	44	104	0	79	10652
2026-01-27 00:17:13.41	325.07	22.66	-54.6	-63.4	3.8	7.44e-01	0	44	104	0	79	10718
2026-01-27 00:17:14.42	324.64	22.68	-54.6	-63.4	3.8	7.45e-01	0	44	104	0	79	10660
2026-01-27 00:17:15.42	324.21	22.69	-54.6	-63.4	3.8	7.46e-01	0	44	104	0	79	10756
2026-01-27 00:17:16.43	323.78	22.71	-54.6	-63.4	3.8	7.44e-01	0	44	104	0	79	10715
2026-01-27 00:17:17.44	323.35	22.73	-54.6	-63.4	3.8	7.44e-01	0	44	104	0	79	10743
2026-01-27 00:17:18.45	322.91	22.74	-54.6	-63.4	3.8	7.45e-01	0	44	104	0	79	10734
2026-01-27 00:17:19.46	322.48	22.75	-54.6	-63.5	3.8	7.45e-01	0	44	104	0	79	10785
2026-01-27 00:17:20.47	322.05	22.76	-54.6	-63.4	3.8	7.45e-01	0	44	104	0	79	10752
2026-01-27 00:17:21.47	321.62	22.77	-54.6	-63.4	3.8	7.44e-01	0	44	104	0	79	10759
2026-01-27 00:17:22.48	321.19	22.78	-54.6	-63.4	3.8	7.44e-01	0	44	104	0	79	10737
2026-01-27 00:17:23.49	320.75	22.79	-54.6	-63.5	3.8	7.45e-01	0	44	104	0	79	10834
2026-01-27 00:17:24.49	320.32	22.79	-54.6	-63.4	3.8	7.45e-01	0	44	104	0	79	10767
2026-01-27 00:17:25.50	319.89	22.80	-54.6	-63.4	3.8	7.44e-01	0	44	104	0	79	10750
2026-01-27 00:17:26.51	319.45	22.80	-54.6	-63.5	3.8	7.46e-01	0	44	104	0	79	10779
2026-01-27 00:17:27.51	319.02	22.80	-54.7	-63.5	3.8	7.47e-01	0	44	104	0	79	10804
2026-01-27 00:17:28.53	318.59	22.80	-54.6	-63.5	3.8	7.43e-01	0	44	104	0	79	10782
2026-01-27 00:17:29.53	318.16	22.79	-54.7	-63.5	3.8	7.44e-01	0	44	104	0	79	10818
2026-01-27 00:17:30.54	317.72	22.79	-54.6	-63.5	3.8	7.45e-01	0	44	104	0	79	10791
2026-01-27 00:17:31.55	317.29	22.78	-54.7	-63.5	3.8	7.44e-01	0	44	104	0	79	10831
2026-01-27 00:17:32.56	316.85	22.77	-54.7	-63.5	3.8	7.45e-01	0	44	104	0	79	10866
2026-01-27 00:17:33.57	316.42	22.76	-54.7	-63.5	3.8	7.45e-01	0	44	104	0	79	10813
2026-01-27 00:17:34.58	315.99	22.75	-54.7	-63.5	3.8	7.45e-01	0	44	104	0	79	10843
2026-01-27 00:17:35.59	315.56	22.74	-54.7	-63.5	3.8	7.44e-01	0	44	104	0	79	10819
2026-01-27 00:17:36.59	315.13	22.72	-54.7	-63.5	3.8	7.45e-01	0	44	104	0	79	10889
2026-01-27 00:17:37.60	314.70	22.71	-54.7	-63.5	3.8	7.46e-01	0	44	104	0	79	10810
2026-01-27 00:17:38.61	314.26	22.69	-54.7	-63.5	3.8	7.45e-01	0	44	104	0	79	10869
2026-01-27 00:17:39.62	313.83	22.67	-54.7	-63.5	3.8	7.47e-01	0	44	104	0	79	10877
2026-01-27 00:17:40.63	313.40	22.65	-54.7	-63.5	3.8	7.46e-01	0	44	104	0	79	10833
2026-01-27 00:17:41.64	312.97	22.63	-54.7	-63.5	3.8	7.45e-01	0	44	104	0	79	10824
2026-01-27 00:17:42.65	312.54	22.61	-54.7	-63.5	3.8	7.46e-01	0	44	104	0	79	10869
2026-01-27 00:17:43.65	312.12	22.58	-54.7	-63.5	3.8	7.44e-01	0	44	104	0	79	10874
2026-01-27 00:17:44.66	311.69	22.55	-54.7	-63.6	3.8	7.45e-01	0	44	104	0	79	10915
2026-01-27 00:17:45.67	311.27	22.53	-54.7	-63.5	3.8	7.44e-01	0	44	104	0	79	10891
2026-01-27 00:17:46.67	310.85	22.50	-54.7	-63.5	3.8	7.45e-01	0	44	104	0	80	10211
2026-01-27 00:17:47.68	310.42	22.47	-54.7	-63.5	3.8	7.46e-01	0	44	104	0	80	10200
2026-01-27 00:17:48.69	310.00	22.43	-54.7	-63.5	3.8	7.44e-01	0	44	104	0	80	10253
2026-01-27 00:17:49.70	309.57	22.40	-54.7	-63.5	3.8	7.44e-01	0	44	104	0	80	10227
2026-01-27 00:17:50.71	309.15	22.36	-54.7	-63.5	3.8	7.46e-01	0	44	104	0	80	10256
2026-01-27 00:17:51.72	308.73	22.33	-54.7	-63.5	3.8	7.46e-01	0	44	104	0	80	10218
2026-01-27 00:17:52.73	308.31	22.29	-54.7	-63.5	3.8	7.45e-01	0	44	104	0	80	10268
2026-01-27 00:17:53.73	307.90	22.25	-54.7	-63.5	3.8	7.45e-01	0	44	104	0	80	10238
2026-01-27 00:17:54.75	307.48	22.21	-54.7	-63.5	3.8	7.45e-01	0	44	104	0	80	10251
2026-01-27 00:17:55.75	307.07	22.17	-54.7	-63.5	3.8	7.44e-01	0	44	104	0	80	10222
2026-01-27 00:17:56.76	306.65	22.12	-54.7	-63.5	3.8	7.45e-01	0	44	104	0	80	10231
2026-01-27 00:17:57.77	306.24	22.08	-54.7	-63.5	3.8	7.46e-01	0	44	104	0	80	10220
2026-01-27 00:17:58.78	305.83	22.03	-54.7	-63.5	3.8	7.44e-01	0	44	104	0	80	10260
2026-01-27 00:17:59.79	305.42	21.98	-54.7	-63.5	3.8	7.45e-01	0	44	104	0	80	10234
2026-01-27 00:18:00.79	305.01	21.94	-54.7	-63.5	3.8	7.45e-01	0	44	104	0	80	10289
2026-01-27 00:18:01.80	304.61	21.88	-54.7	-63.5	3.8	7.44e-01	0	44	104	0	80	10257
2026-01-27 00:18:02.81	304.20	21.83	-54.7	-63.5	3.8	7.46e-01	0	44	104	0	80	10272
2026-01-27 00:18:03.82	303.80	21.78	-54.7	-63.5	3.8	7.45e-01	0	44	104	0	80	10263
2026-01-27 00:18:04.83	303.39	21.73	-54.7	-63.5	3.8	7.44e-01	0	44	104	0	80	10293
2026-01-27 00:18:05.83	303.00	21.67	-54.7	-63.5	3.8	7.46e-01	0	44	104	0	80	10267
2026-01-27 00:18:06.84	302.60	21.62	-54.7	-63.6	3.8	7.44e-01	0	44	104	0	80	10326
2026-01-27 00:18:07.85	302.20	21.56	-54.7	-63.5	3.8	7.47e-01	0	44	104	0	80	10259
2026-01-27 00:18:08.86	301.80	21.50	-54.7	-63.6	3.8	7.46e-01	0	44	104	0	80	10314
2026-01-27 00:18:09.86	301.41	21.44	-54.7	-63.6	3.8	7.44e-01	0	44	104	0	80	10297
2026-01-27 00:18:10.87	301.02	21.38	-54.8	-63.6	3.8	7.45e-01	0	44	104	0	80	10313
2026-01-27 00:18:11.88	300.63	21.32	-54.7	-63.5	3.8	7.46e-01	0	44	104	0	80	10282
2026-01-27 00:18:12.89	300.24	21.25	-54.8	-63.6	3.8	7.45e-01	0	44	104	0	80	10328
2026-01-27 00:18:13.90	299.85	21.19	-54.7	-63.6	3.8	7.45e-01	0	44	104	0	80	10325
2026-01-27 00:18:14.91	299.47	21.13	-54.8	-63.6	3.8	7.44e-01	0	44	104	0	80	10364
2026-01-27 00:18:15.91	299.09	21.06	-54.7	-63.6	3.8	7.46e-01	0	44	104	0	80	10325
2026-01-27 00:18:16.92	298.70	20.99	-54.8	-63.6	3.8	7.46e-01	0	44	104	0	80	10358
2026-01-27 00:18:17.93	298.32	20.93	-54.8	-63.6	3.8	7.45e-01	0	44	104	0	80	10314
2026-01-27 00:18:18.94	297.95	20.86	-54.8	-63.6	3.8	7.44e-01	0	44	104	0	80	10346
2026-01-27 00:18:19.95	297.57	20.79	-54.7	-63.6	3.8	7.44e-01	0	44	104	0	80	10314
2026-01-27 00:18:20.96	297.20	20.72	-54.8	-63.6	3.8	7.46e-01	0	44	104	0	80	10405
2026-01-27 00:18:21.97	296.82	20.64	-54.8	-63.6	3.8	7.46e-01	0	44	104	0	80	10371
2026-01-27 00:18:22.98	296.45	20.57	-54.8	-63.7	3.8	7.43e-01	0	44	104	0	80	10423
2026-01-27 00:18:23.99	296.09	20.50	-54.8	-63.6	3.8	7.46e-01	0	44	104	0	80	10318
2026-01-27 00:18:25.00	295.72	20.42	-54.8	-63.7	3.8	7.45e-01	0	44	104	0	80	10415
2026-01-27 00:18:26.01	295.36	20.35	-54.8	-63.6	3.8	7.45e-01	0	44	104	0	80	10365
2026-01-27 00:18:27.01	295.00	20.27	-54.8	-63.6	3.8	7.44e-01	0	44	104	0	80	10392
2026-01-27 00:18:28.02	294.64	20.20	-54.8	-63.6	3.8	7.45e-01	0	44	104	0	80	10338
2026-01-27 00:18:29.03	294.28	20.12	-54.8	-63.6	3.8	7.45e-01	0	44	104	0	80	10407
2026-01-27 00:18:30.04	293.92	20.04	-54.8	-63.6	3.8	7.45e-01	0	44	104	0	80	10382
2026-01-27 00:18:31.05	293.57	19.96	-54.8	-63.6	3.8	7.45e-01	0	44	104	0	80	10373
2026-01-27 00:18:32.05	293.22	19.88	-54.8	-63.6	3.8	7.44e-01	0	44	104	0	80	10374
2026-01-27 00:18:33.06	292.87	19.80	-54.8	-63.6	3.8	7.46e-01	0	44	104	0	80	10387
2026-01-27 00:18:34.07	292.53	19.72	-54.8	-63.6	3.8	7.45e-01	0	44	104	0	80	10399
2026-01-27 00:18:35.08	292.18	19.64	-54.8	-63.6	3.8	7.46e-01	0	44	104	0	80	10406
2026-01-27 00:18:36.09	291.84	19.56	-54.8	-63.6	3.8	7.46e-01	0	44	104	0	80	10360
2026-01-27 00:18:37.10	291.50	19.48	-54.8	-63.6	3.8	7.45e-01	0	44	104	0	80	10385
2026-01-27 00:18:38.11	291.16	19.39	-54.8	-63.6	3.8	7.44e-01	0	44	104	0	80	10389
2026-01-27 00:18:39.11	290.82	19.31	-54.8	-63.7	3.8	7.46e-01	0	44	104	0	80	10431
2026-01-27 00:18:40.12	290.49	19.23	-54.8	-63.6	3.8	7.44e-01	0	44	104	0	80	10384
2026-01-27 00:18:41.12	290.16	19.14	-54.8	-63.6	3.8	7.45e-01	0	44	104	0	80	10394
2026-01-27 00:18:42.13	289.83	19.06	-54.8	-63.7	3.8	7.45e-01	0	44	104	0	80	10422
2026-01-27 00:18:43.14	289.50	18.97	-54.8	-63.6	3.8	7.43e-01	0	44	104	0	80	10392
2026-01-27 00:18:44.15	289.17	18.88	-54.8	-63.6	3.8	7.45e-01	0	44	104	0	80	10393
2026-01-27 00:18:45.16	288.85	18.80	-54.8	-63.6	3.8	7.47e-01	0	44	104	0	80	10317
2026-01-27 00:18:46.17	288.53	18.71	-54.8	-63.6	3.8	7.44e-01	0	44	104	0	80	10369
2026-01-27 00:18:47.18	288.21	18.62	-54.8	-63.6	3.8	7.45e-01	0	44	104	0	80	10370
2026-01-27 00:18:48.19	287.89	18.53	-54.7	-63.5	3.8	7.45e-01	0	44	104	0	80	10278
2026-01-27 00:18:49.20	287.58	18.45	-54.7	-63.5	3.8	7.45e-01	0	44	104	0	80	10275
2026-01-27 00:18:50.21	287.26	18.36	-54.7	-63.6	3.8	7.45e-01	0	44	104	0	80	10304
2026-01-27 00:18:51.21	286.96	18.27	-54.7	-63.5	3.8	7.43e-01	0	44	104	0	80	10280
2026-01-27 00:18:52.22	286.65	18.18	-54.7	-63.5	3.8	7.44e-01	0	44	104	0	80	10246
2026-01-27 00:18:53.23	286.34	18.09	-54.7	-63.5	3.8	7.46e-01	0	44	104	0	80	10268
2026-01-27 00:18:54.23	286.04	18.00	-54.7	-63.5	3.8	7.46e-01	0	44	104	0	80	10260
2026-01-27 00:18:55.24	285.73	17.91	-54.7	-63.5	3.8	7.45e-01	0	44	104	0	80	10224
2026-01-27 00:18:56.25	285.43	17.82	-54.6	-63.5	3.8	7.44e-01	0	44	104	0	80	10211
2026-01-27 00:18:57.25	285.14	17.73	-54.6	-63.5	3.8	7.44e-01	0	44	104	0	80	10191
2026-01-27 00:18:58.26	284.84	17.64	-54.6	-63.4	3.8	7.43e-01	0	44	104	0	80	10170
2026-01-27 00:18:59.27	284.55	17.54	-54.6	-63.4	3.8	7.46e-01	0	44	104	0	80	10155
2026-01-27 00:19:00.28	284.26	17.45	-54.6	-63.4	3.8	7.46e-01	0	44	104	0	80	10165
2026-01-27 00:19:01.29	283.97	17.36	-54.6	-63.4	3.8	7.43e-01	0	44	104	0	80	10140
2026-01-27 00:19:02.29	283.68	17.27	-54.6	-63.4	3.8	7.43e-01	0	44	104	0	80	10144
2026-01-27 00:19:03.30	283.39	17.18	-54.6	-63.4	3.8	7.46e-01	0	44	104	0	80	10130
2026-01-27 00:19:04.31	283.11	17.08	-54.5	-63.4	3.8	7.45e-01	0	44	104	0	80	10075
2026-01-27 00:19:05.32	282.83	16.99	-54.5	-63.3	3.8	7.45e-01	0	44	104	0	80	10058
2026-01-27 00:19:06.33	282.55	16.90	-54.5	-63.4	3.8	7.45e-01	0	44	104	0	80	10092
2026-01-27 00:19:07.33	282.27	16.80	-54.5	-63.4	3.8	7.44e-01	0	44	104	0	80	10096
2026-01-27 00:19:08.34	282.00	16.71	-54.5	-63.4	3.8	7.46e-01	0	44	104	0	80	10081
2026-01-27 00:19:09.35	281.72	16.62	-54.5	-63.3	3.8	7.46e-01	0	44	104	0	80	10057
2026-01-27 00:19:10.36	281.45	16.52	-54.5	-63.4	3.8	7.46e-01	0	44	104	0	80	10085
2026-01-27 00:19:11.36	281.19	16.43	-54.5	-63.3	3.8	7.45e-01	0	44	104	0	80	10055
2026-01-27 00:19:12.37	280.92	16.34	-54.5	-63.3	3.8	7.45e-01	0	44	104	0	80	10000
2026-01-27 00:19:13.38	280.65	16.24	-54.5	-63.3	3.8	7.46e-01	0	44	104	0	80	10004
2026-01-27 00:19:14.39	280.39	16.15	-54.5	-63.3	3.8	7.46e-01	0	44	104	0	80	10017
2026-01-27 00:19:15.39	280.13	16.06	-54.5	-63.3	3.8	7.45e-01	0	44	104	0	80	9997
2026-01-27 00:19:16.40	279.87	15.96	-54.4	-63.3	3.8	7.43e-01	0	44	104	0	80	9999
2026-01-27 00:19:17.40	279.61	15.87	-54.4	-63.3	3.8	7.45e-01	0	44	104	0	80	9948
2026-01-27 00:19:18.41	279.36	15.78	-54.4	-63.3	3.8	7.46e-01	0	44	104	0	80	9979
2026-01-27 00:19:19.43	279.10	15.68	-54.4	-63.3	3.8	7.46e-01	0	44	104	0	80	9969
2026-01-27 00:19:20.43	278.85	15.59	-54.4	-63.3	3.8	7.45e-01	0	44	104	0	80	9954
2026-01-27 00:19:21.44	278.60	15.49	-54.4	-63.2	3.8	7.45e-01	0	44	104	0	80	9943
2026-01-27 00:19:22.44	278.35	15.40	-54.4	-63.2	3.8	7.46e-01	0	44	104	0	80	9939
2026-01-27 00:19:23.45	278.11	15.30	-54.4	-63.2	3.8	7.45e-01	0	44	104	0	80	9943
2026-01-27 00:19:24.46	277.86	15.21	-54.4	-63.2	3.8	7.45e-01	0	44	104	0	80	9929
2026-01-27 00:19:25.47	277.62	15.12	-54.4	-63.2	3.8	7.45e-01	0	44	104	0	80	9925
2026-01-27 00:19:26.48	277.38	15.02	-54.4	-63.2	3.8	7.45e-01	0	44	104	0	80	9887
2026-01-27 00:19:27.49	277.14	14.93	-54.4	-63.2	3.8	7.45e-01	0	44	104	0	80	9924
2026-01-27 00:19:28.50	276.90	14.83	-54.4	-63.2	3.8	7.46e-01	0	44	104	0	80	9881
2026-01-27 00:19:29.50	276.67	14.74	-54.4	-63.2	3.8	7.47e-01	0	44	104	0	80	9871
2026-01-27 00:19:30.51	276.43	14.65	-54.4	-63.2	3.8	7.45e-01	0	44	104	0	80	9850
2026-01-27 00:19:31.53	276.20	14.55	-54.4	-63.2	3.8	7.46e-01	0	44	104	0	80	9874
2026-01-27 00:19:32.53	275.97	14.46	-54.3	-63.1	3.8	7.44e-01	0	44	104	0	80	9829
2026-01-27 00:19:33.55	275.74	14.36	-54.3	-63.2	3.8	7.45e-01	0	44	104	0	80	9842
2026-01-27 00:19:34.55	275.52	14.27	-54.3	-63.2	3.8	7.44e-01	0	44	104	0	80	9832
2026-01-27 00:19:35.56	275.29	14.18	-54.3	-63.1	3.8	7.43e-01	0	44	104	0	80	9827
2026-01-27 00:19:36.57	275.07	14.08	-54.3	-63.1	3.8	7.44e-01	0	44	104	0	80	9824
2026-01-27 00:19:37.58	274.85	13.99	-54.3	-63.1	3.8	7.45e-01	0	44	104	0	80	9802
2026-01-27 00:19:38.59	274.63	13.90	-54.3	-63.1	3.8	7.45e-01	0	44	104	0	80	9764
2026-01-27 00:19:39.60	274.41	13.80	-54.3	-63.1	3.8	7.44e-01	0	44	104	0	80	9807
2026-01-27 00:19:40.60	274.19	13.71	-54.3	-63.1	3.8	7.46e-01	0	44	104	0	80	9777
2026-01-27 00:19:41.61	273.98	13.62	-54.3	-63.1	3.8	7.48e-01	0	44	104	0	80	9757
2026-01-27 00:19:42.62	273.76	13.53	-54.3	-63.1	3.8	7.47e-01	0	44	104	0	80	9772
2026-01-27 00:19:43.63	273.55	13.43	-54.3	-63.1	3.8	7.46e-01	0	44	104	0	80	9757
2026-01-27 00:19:44.64	273.34	13.34	-54.2	-63.1	3.8	7.46e-01	0	44	104	0	80	9726
2026-01-27 00:19:45.65	273.13	13.25	-54.2	-63.1	3.8	7.45e-01	0	44	104	0	80	9733
2026-01-27 00:19:46.66	272.93	13.16	-54.2	-63.1	3.8	7.45e-01	0	44	104	0	80	9754
2026-01-27 00:19:47.66	272.72	13.07	-54.2	-63.1	3.8	7.44e-01	0	44	104	0	80	9727
2026-01-27 00:19:48.67	272.52	12.97	-54.2	-63.0	3.8	7.46e-01	0	44	104	0	80	9668
2026-01-27 00:19:49.68	272.31	12.88	-54.2	-63.1	3.8	7.46e-01	0	44	104	0	80	9752
2026-01-27 00:19:50.69	272.11	12.79	-54.2	-63.0	3.8	7.45e-01	0	44	104	0	80	9708
2026-01-27 00:19:51.70	271.91	12.70	-54.2	-63.0	3.8	7.47e-01	0	44	104	0	80	9668
2026-01-27 00:19:52.70	271.72	12.61	-54.1	-63.0	3.8	7.46e-01	0	44	104	0	80	9652
2026-01-27 00:19:53.71	271.52	12.52	-54.2	-63.0	3.8	7.45e-01	0	44	104	0	80	9666
2026-01-27 00:19:54.72	271.33	12.43	-54.1	-63.0	3.8	7.46e-01	0	44	104	0	80	9663
2026-01-27 00:19:55.73	271.13	12.33	-54.1	-63.0	3.8	7.45e-01	0	44	104	0	80	9622
2026-01-27 00:19:56.73	270.94	12.24	-54.1	-62.9	3.8	7.44e-01	0	44	104	0	80	9591
2026-01-27 00:19:57.74	270.75	12.15	-54.1	-63.0	3.8	7.44e-01	0	44	104	0	80	9625
2026-01-27 00:19:58.75	270.56	12.06	-54.1	-63.0	3.8	7.45e-01	0	44	104	0	80	9612
2026-01-27 00:19:59.76	270.38	11.97	-54.1	-62.9	3.8	7.46e-01	0	44	104	0	80	9592
2026-01-27 00:20:00.77	270.19	11.88	-54.1	-62.9	3.8	7.46e-01	0	44	104	0	80	9537
2026-01-27 00:20:01.78	270.00	11.79	-54.1	-62.9	3.8	7.45e-01	0	44	104	0	80	9585
2026-01-27 00:20:02.78	269.82	11.70	-54.1	-62.9	3.8	7.45e-01	0	44	104	0	80	9577
2026-01-27 00:20:03.79	269.64	11.62	-54.0	-62.9	3.8	7.44e-01	0	44	104	0	80	9500
2026-01-27 00:20:04.80	269.46	11.53	-54.0	-62.9	3.8	7.45e-01	0	44	104	0	79	10088
2026-01-27 00:20:05.81	269.28	11.44	-54.1	-62.9	3.8	7.45e-01	0	44	104	0	79	10139
2026-01-27 00:20:06.81	269.10	11.35	-54.1	-62.9	3.8	7.45e-01	0	44	104	0	79	10159
2026-01-27 00:20:07.82	268.93	11.26	-53.9	-62.7	3.8	7.45e-01	0	44	104	0	79	9940
2026-01-27 00:20:08.83	268.75	11.17	-53.9	-62.8	3.8	7.45e-01	0	44	104	0	79	9995
2026-01-27 00:20:09.85	268.58	11.08	-54.0	-62.9	3.8	7.46e-01	0	44	104	0	79	10064
2026-01-27 00:20:10.85	268.40	11.00	-54.0	-62.9	3.8	7.46e-01	0	44	104	0	79	10106
2026-01-27 00:20:11.86	268.23	10.91	-53.8	-62.6	3.8	7.45e-01	0	44	104	0	79	9773
2026-01-27 00:20:12.87	268.06	10.82	-53.8	-62.6	3.8	7.46e-01	0	44	104	0	79	9785
2026-01-27 00:20:13.88	267.89	10.73	-53.9	-62.8	3.8	7.45e-01	0	44	104	0	79	9971
2026-01-27 00:20:14.89	267.73	10.65	-54.0	-62.8	3.8	7.46e-01	0	44	104	0	79	10017
2026-01-27 00:20:15.90	267.56	10.56	-53.4	-62.3	3.8	7.44e-01	0	44	104	0	78	9967
2026-01-27 00:20:16.90	267.40	10.47	-53.8	-62.6	3.8	7.45e-01	0	44	104	0	78	10377
2026-01-27 00:20:17.91	267.23	10.39	-53.7	-62.6	3.8	7.44e-01	0	44	104	0	78	10334
2026-01-27 00:20:18.92	267.07	10.30	-54.0	-62.8	3.8	7.45e-01	0	44	104	0	78	10611
2026-01-27 00:20:19.93	266.91	10.21	-53.7	-62.4	3.8	7.45e-01	0	44	104	0	78	10173
2026-01-27 00:20:20.94	266.75	10.13	-53.9	-62.7	3.8	7.45e-01	0	44	104	0	78	10517
2026-01-27 00:20:21.95	266.59	10.04	-53.8	-62.7	3.8	7.46e-01	0	44	104	0	78	10421
2026-01-27 00:20:22.96	266.43	9.96	-54.0	-62.8	3.8	7.45e-01	0	44	104	0	78	10629
2026-01-27 00:20:23.97	266.27	9.87	-53.9	-62.7	3.8	7.46e-01	0	44	104	0	78	10483
2026-01-27 00:20:24.98	266.12	9.79	-53.9	-62.8	3.8	7.45e-01	0	44	104	0	78	10585
2026-01-27 00:20:25.99	265.96	9.70	-53.9	-62.7	3.8	7.46e-01	0	44	104	0	78	10512
2026-01-27 00:20:27.00	265.81	9.62	-54.0	-62.8	3.8	7.44e-01	0	44	104	0	78	10600
2026-01-27 00:20:28.01	265.65	9.53	-53.9	-62.8	3.8	7.47e-01	0	44	104	0	78	10570
2026-01-27 00:20:29.01	265.50	9.45	-53.9	-62.8	3.8	7.45e-01	0	44	104	0	78	10556
2026-01-27 00:20:30.02	265.35	9.36	-53.9	-62.8	3.8	7.45e-01	0	44	104	0	78	10537
2026-01-27 00:20:31.03	265.20	9.28	-53.9	-62.8	3.8	7.45e-01	0	44	104	0	78	10553
2026-01-27 00:20:32.04	265.06	9.20	-53.9	-62.7	3.8	7.44e-01	0	44	104	0	78	10489
2026-01-27 00:20:33.04	264.91	9.11	-53.9	-62.7	3.8	7.44e-01	0	44	104	0	78	10504
2026-01-27 00:20:34.05	264.76	9.03	-53.9	-62.7	3.8	7.44e-01	0	44	104	0	78	10497
2026-01-27 00:20:35.06	264.62	8.95	-53.9	-62.7	3.8	7.46e-01	0	44	104	0	78	10472
2026-01-27 00:20:36.07	264.48	8.87	-53.8	-62.7	3.8	7.45e-01	0	44	104	0	78	10449
2026-01-27 00:20:37.08	264.33	8.78	-53.8	-62.6	3.8	7.46e-01	0	44	104	0	78	10401
2026-01-27 00:20:38.09	264.19	8.70	-53.9	-62.7	3.8	7.45e-01	0	44	104	0	78	10457
2026-01-27 00:20:39.09	264.05	8.62	-53.9	-62.7	3.8	7.45e-01	0	44	104	0	78	10479
2026-01-27 00:20:40.10	263.91	8.54	-53.8	-62.6	3.8	7.44e-01	0	44	104	0	78	10393
2026-01-27 00:20:41.11	263.77	8.46	-53.8	-62.7	3.8	7.43e-01	0	44	104	0	78	10421
2026-01-27 00:20:42.11	263.64	8.38	-53.8	-62.7	3.8	7.46e-01	0	44	104	0	78	10414
2026-01-27 00:20:43.12	263.50	8.29	-53.8	-62.7	3.8	7.44e-01	0	44	104	0	78	10463
2026-01-27 00:20:44.13	263.36	8.21	-53.8	-62.6	3.8	7.46e-01	0	44	104	0	78	10353
2026-01-27 00:20:45.14	263.23	8.13	-53.8	-62.6	3.8	7.45e-01	0	44	104	0	78	10371
2026-01-27 00:20:46.15	263.09	8.05	-53.8	-62.6	3.8	7.47e-01	0	44	104	0	78	10411
2026-01-27 00:20:47.16	262.96	7.97	-53.8	-62.6	3.8	7.45e-01	0	44	104	0	78	10371
2026-01-27 00:20:48.17	262.83	7.89	-53.7	-62.6	3.8	7.46e-01	0	44	104	0	78	10299
2026-01-27 00:20:49.17	262.70	7.81	-53.7	-62.6	3.8	7.45e-01	0	44	104	0	78	10304
2026-01-27 00:20:50.18	262.57	7.73	-53.8	-62.6	3.8	7.46e-01	0	44	104	0	78	10335
2026-01-27 00:20:51.19	262.44	7.65	-53.8	-62.6	3.8	7.46e-01	0	44	104	0	78	10375
2026-01-27 00:20:52.20	262.31	7.58	-53.7	-62.5	3.8	7.44e-01	0	44	104	0	78	10279
2026-01-27 00:20:53.21	262.18	7.50	-53.7	-62.6	3.8	7.47e-01	0	44	104	0	78	10299
2026-01-27 00:20:54.21	262.06	7.42	-53.7	-62.6	3.8	7.45e-01	0	44	104	0	78	10332
2026-01-27 00:20:55.22	261.93	7.34	-53.7	-62.6	3.8	7.45e-01	0	44	104	0	78	10325
2026-01-27 00:20:56.23	261.81	7.26	-53.7	-62.5	3.8	7.45e-01	0	44	104	0	78	10224
2026-01-27 00:20:57.23	261.68	7.18	-53.7	-62.5	3.8	7.46e-01	0	44	104	0	78	10248
2026-01-27 00:20:58.25	261.56	7.11	-53.7	-62.5	3.8	7.47e-01	0	44	104	0	78	10275
2026-01-27 00:20:59.26	261.44	7.03	-53.7	-62.5	3.8	7.46e-01	0	44	104	0	78	10276
2026-01-27 00:21:00.27	261.31	6.95	-53.6	-62.5	3.8	7.45e-01	0	44	104	0	78	10180
2026-01-27 00:21:01.27	261.19	6.87	-53.6	-62.5	3.8	7.44e-01	0	44	104	0	78	10219
2026-01-27 00:21:02.28	261.07	6.80	-53.7	-62.5	3.8	7.42e-01	0	44	104	0	78	10231
2026-01-27 00:21:03.28	260.96	6.72	-53.7	-62.5	3.8	7.45e-01	0	44	104	0	78	10263
2026-01-27 00:21:04.29	260.84	6.64	-53.6	-62.4	3.8	7.45e-01	0	44	104	0	78	10149
2026-01-27 00:21:05.29	260.72	6.57	-53.6	-62.4	3.8	7.46e-01	0	44	104	0	78	10163
2026-01-27 00:21:06.30	260.60	6.49	-53.6	-62.4	3.8	7.44e-01	0	44	104	0	78	10175
2026-01-27 00:21:07.31	260.49	6.42	-53.6	-62.5	3.8	7.44e-01	0	44	104	0	78	10179
2026-01-27 00:21:08.32	260.37	6.34	-53.5	-62.4	3.8	7.46e-01	0	44	104	0	78	10123
2026-01-27 00:21:09.32	260.26	6.27	-53.6	-62.4	3.8	7.44e-01	0	44	104	0	78	10101
2026-01-27 00:21:10.33	260.15	6.19	-53.6	-62.4	3.8	7.44e-01	0	44	104	0	78	10113
2026-01-27 00:21:11.34	260.03	6.11	-53.6	-62.4	3.8	7.45e-01	0	44	104	0	78	10090
2026-01-27 00:21:12.34	259.92	6.04	-53.5	-62.3	3.8	7.46e-01	0	44	104	0	78	10019
2026-01-27 00:21:13.35	259.81	5.97	-53.5	-62.4	3.8	7.44e-01	0	44	104	0	78	10070
2026-01-27 00:21:14.36	259.70	5.89	-53.5	-62.3	3.8	7.45e-01	0	44	104	0	78	10050
2026-01-27 00:21:15.37	259.59	5.82	-53.5	-62.3	3.8	7.46e-01	0	44	104	0	78	10054
2026-01-27 00:21:16.37	259.48	5.74	-53.4	-62.3	3.8	7.45e-01	0	44	104	0	78	9955
2026-01-27 00:21:17.38	259.37	5.67	-53.5	-62.3	3.8	7.45e-01	0	44	104	0	78	10018
2026-01-27 00:21:18.39	259.26	5.60	-53.5	-62.3	3.8	7.46e-01	0	44	104	0	78	10026
2026-01-27 00:21:19.40	259.16	5.52	-53.5	-62.3	3.8	7.46e-01	0	44	104	0	78	9998
2026-01-27 00:21:20.40	259.05	5.45	-53.4	-62.2	3.8	7.46e-01	0	44	104	0	78	9903
2026-01-27 00:21:21.41	258.95	5.38	-53.4	-62.2	3.8	7.46e-01	0	44	104	0	78	9939
2026-01-27 00:21:22.42	258.84	5.30	-53.4	-62.3	3.8	7.47e-01	0	44	104	0	78	10000
2026-01-27 00:21:23.43	258.74	5.23	-53.4	-62.2	3.8	7.45e-01	0	44	104	0	78	9910
2026-01-27 00:21:24.44	258.63	5.16	-53.3	-62.1	3.8	7.45e-01	0	44	104	0	78	9806
2026-01-27 00:21:25.44	258.53	5.09	-53.4	-62.2	3.8	7.46e-01	0	44	104	0	78	9855
2026-01-27 00:21:26.45	258.43	5.01	-53.4	-62.3	3.8	7.45e-01	0	44	104	0	78	9958
2026-01-27 00:21:27.46	258.33	4.94	-53.6	-62.4	3.8	7.45e-01	0	44	104	0	78	10148
2026-01-27 00:21:28.47	258.23	4.87	-53.8	-62.6	3.8	7.45e-01	0	44	104	0	78	10336
2026-01-27 00:21:29.48	258.13	4.80	-52.3	-61.2	3.8	7.46e-01	0	44	104	0	76	9889
2026-01-27 00:21:30.48	258.03	4.73	-53.8	-62.7	3.8	7.46e-01	0	44	104	0	78	10423
2026-01-27 00:21:31.49	257.93	4.66	-53.9	-62.8	3.8	7.45e-01	0	44	104	0	78	10562
2026-01-27 00:21:32.50	257.83	4.59	-53.9	-62.8	3.8	7.45e-01	0	44	104	0	78	10541
2026-01-27 00:21:33.51	257.73	4.51	-53.8	-62.7	3.8	7.46e-01	0	44	104	0	78	10459
2026-01-27 00:21:34.52	257.63	4.44	-53.8	-62.6	3.8	7.45e-01	0	44	104	0	78	10393
2026-01-27 00:21:35.53	257.54	4.37	-53.9	-62.7	3.8	7.45e-01	0	44	104	0	78	10502
2026-01-27 00:21:36.53	257.44	4.30	-54.0	-62.8	3.8	7.45e-01	0	44	104	0	78	10596
2026-01-27 00:21:37.54	257.35	4.23	-54.0	-62.9	3.8	7.47e-01	0	44	104	0	78	10696
2026-01-27 00:21:38.55	257.25	4.16	-54.1	-62.9	3.8	7.46e-01	0	44	104	0	78	10752
2026-01-27 00:21:39.56	257.16	4.09	-54.2	-63.0	3.8	7.44e-01	0	44	104	0	78	10832
2026-01-27 00:21:40.57	257.06	4.02	-54.2	-63.1	3.8	7.46e-01	0	44	104	0	78	10909
2026-01-27 00:21:41.57	256.97	3.96	-54.3	-63.1	3.8	7.45e-01	0	44	104	0	79	10352
2026-01-27 00:21:42.58	256.88	3.89	-54.3	-63.1	3.8	7.45e-01	0	44	104	0	79	10366
2026-01-27 00:21:43.59	256.79	3.82	-54.4	-63.2	3.8	7.45e-01	0	44	104	0	79	10452
2026-01-27 00:21:44.60	256.70	3.75	-54.4	-63.3	3.8	7.45e-01	0	44	104	0	79	10577
2026-01-27 00:21:45.61	256.61	3.68	-54.4	-63.3	3.8	7.47e-01	0	44	104	0	79	10555
2026-01-27 00:21:46.62	256.52	3.61	-54.5	-63.3	3.8	7.46e-01	0	44	104	0	79	10653
2026-01-27 00:21:47.63	256.43	3.54	-54.5	-63.3	3.8	7.45e-01	0	44	104	0	79	10628
2026-01-27 00:21:48.64	256.34	3.47	-54.5	-63.3	3.8	7.44e-01	0	44	104	0	79	10602
2026-01-27 00:21:49.65	256.25	3.41	-54.5	-63.3	3.8	7.45e-01	0	44	104	0	79	10589
2026-01-27 00:21:50.66	256.16	3.34	-54.4	-63.3	3.8	7.46e-01	0	44	104	0	79	10549
2026-01-27 00:21:51.66	256.07	3.27	-54.4	-63.3	3.8	7.44e-01	0	44	104	0	79	10611
2026-01-27 00:21:52.67	255.99	3.20	-54.4	-63.3	3.8	7.44e-01	0	44	104	0	79	10580
2026-01-27 00:21:53.68	255.90	3.14	-54.4	-63.3	3.8	7.46e-01	0	44	104	0	79	10594
2026-01-27 00:21:54.69	255.81	3.07	-54.4	-63.3	3.8	7.46e-01	0	44	104	0	79	10541
2026-01-27 00:21:55.70	255.73	3.00	-54.4	-63.3	3.8	7.44e-01	0	44	104	0	79	10541
2026-01-27 00:21:56.70	255.65	2.94	-54.4	-63.2	3.8	7.44e-01	0	44	104	0	79	10531
2026-01-27 00:21:57.71	255.56	2.87	-54.4	-63.3	3.8	7.44e-01	0	44	104	0	79	10539
2026-01-27 00:21:58.72	255.48	2.80	-54.4	-63.2	3.8	7.45e-01	0	44	104	0	79	10529
2026-01-27 00:21:59.72	255.39	2.74	-54.4	-63.3	3.8	7.46e-01	0	44	104	0	79	10545
2026-01-27 00:22:00.73	255.31	2.67	-54.4	-63.3	3.8	7.44e-01	0	44	104	0	79	10538
2026-01-27 00:22:01.74	255.23	2.60	-54.4	-63.2	3.8	7.45e-01	0	44	104	0	79	10531
2026-01-27 00:22:02.75	255.15	2.54	-54.4	-63.3	3.8	7.44e-01	0	44	104	0	79	10539
2026-01-27 00:22:03.76	255.07	2.47	-54.4	-63.2	3.8	7.45e-01	0	44	104	0	79	10524
2026-01-27 00:22:04.77	254.99	2.41	-54.4	-63.2	3.8	7.46e-01	0	44	104	0	79	10489
2026-01-27 00:22:05.78	254.90	2.34	-54.4	-63.2	3.8	7.46e-01	0	44	104	0	79	10500
2026-01-27 00:22:06.79	254.82	2.28	-54.4	-63.2	3.8	7.47e-01	0	44	104	0	79	10488
2026-01-27 00:22:07.80	254.75	2.21	-54.4	-63.2	3.8	7.45e-01	0	44	104	0	79	10510
2026-01-27 00:22:08.81	254.67	2.15	-54.4	-63.2	3.8	7.46e-01	0	44	104	0	79	10533
2026-01-27 00:22:09.82	254.59	2.08	-54.4	-63.3	3.8	7.45e-01	0	44	104	0	79	10534
2026-01-27 00:22:10.82	254.51	2.02	-54.4	-63.2	3.8	7.46e-01	0	44	104	0	79	10524
2026-01-27 00:22:11.83	254.43	1.95	-54.4	-63.2	3.8	7.44e-01	0	44	104	0	79	10513
2026-01-27 00:22:12.83	254.36	1.89	-54.4	-63.2	3.8	7.44e-01	0	44	104	0	79	10511

#Closed at: 2026-01-27 00:22:13
#Recorded file [0 MB]: D:/lorett/data/31041_260127_031241.dat