passes_logs/2026/01/27/R3.2S_Murmansk/R3.2S_Murmansk__20260127_224716_SUOMI_NPP_rec.log

#Pass ID: 20260127_224716_SUOMI NPP
#Satellite: SUOMI NPP
#Configuration: NPP
#almurnet v.1.7.20251203
#Start time: 2026-01-27 22:47:18

#Version: 2.2.20231116
#Station: R3.2S_Murmansk
#Location: 33.079688 lon 68.888172 lat
#TLE: 1 37849U 11061A   26027.29799992  .00000188  00000+0  11027-3 0  9993
#TLE: 2 37849  98.7822 329.2414 0002113  42.5791 317.5548 14.19530708738457

#Time	Az	El	Level	Level2	SNR	BER	BlckErr	Temp	State	Recorded	gain1	gain2
2026-01-27 22:47:18.99	19.48	2.13	-53.9	-68.9	3.8	1.49e+00	0	41	0	0	79	20179
2026-01-27 22:47:20.00	19.54	2.19	-53.5	-68.9	3.8	1.49e+00	0	41	104	0	78	21378
2026-01-27 22:47:21.01	19.60	2.24	-53.7	-68.9	3.8	1.49e+00	0	41	104	0	78	21267
2026-01-27 22:47:22.01	19.66	2.30	-53.9	-68.9	3.8	1.49e+00	0	41	104	0	78	21266
2026-01-27 22:47:23.02	19.72	2.36	-53.9	-68.9	3.8	1.49e+00	0	41	104	0	78	21292
2026-01-27 22:47:24.03	19.78	2.42	-53.9	-68.8	3.8	1.49e+00	0	41	104	0	78	21237
2026-01-27 22:47:25.03	19.85	2.48	-53.9	-68.9	3.8	1.49e+00	0	41	104	0	78	21373
2026-01-27 22:47:26.04	19.91	2.54	-53.9	-68.9	3.8	1.49e+00	0	41	104	0	78	21349
2026-01-27 22:47:27.05	19.97	2.59	-53.9	-68.9	3.8	1.49e+00	0	41	104	0	78	21348
2026-01-27 22:47:28.05	20.03	2.65	-53.9	-68.9	3.8	1.49e+00	0	41	104	0	78	21314
2026-01-27 22:47:29.06	20.09	2.71	-53.9	-68.9	3.8	1.49e+00	0	41	104	0	78	21271
2026-01-27 22:47:30.06	20.16	2.77	-53.9	-68.9	3.8	1.49e+00	0	42	104	0	78	21354
2026-01-27 22:47:31.06	20.22	2.83	-53.9	-68.9	3.8	1.49e+00	0	42	104	0	78	21311
2026-01-27 22:47:32.07	20.28	2.89	-53.9	-68.9	3.8	1.49e+00	0	42	104	0	78	21264
2026-01-27 22:47:33.08	20.35	2.95	-53.9	-68.8	3.8	1.49e+00	0	42	104	0	78	21257
2026-01-27 22:47:34.08	20.41	3.01	-53.9	-68.9	3.8	1.49e+00	0	42	104	0	78	21286
2026-01-27 22:47:35.09	20.47	3.07	-53.9	-68.9	3.8	1.49e+00	0	42	104	0	78	21275
2026-01-27 22:47:36.10	20.54	3.13	-53.9	-68.9	3.8	1.49e+00	0	42	104	0	78	21288
2026-01-27 22:47:37.11	20.60	3.19	-53.9	-68.9	3.8	1.49e+00	0	42	104	0	78	21331
2026-01-27 22:47:38.12	20.67	3.25	-53.9	-68.8	3.8	1.49e+00	0	42	104	0	78	21252
2026-01-27 22:47:39.13	20.73	3.31	-53.8	-68.8	3.8	1.49e+00	0	42	104	0	78	21208
2026-01-27 22:47:40.13	20.80	3.37	-53.8	-68.8	3.8	1.49e+00	0	42	104	0	78	21229
2026-01-27 22:47:41.14	20.86	3.43	-53.8	-68.9	3.8	1.49e+00	0	42	104	0	78	21283
2026-01-27 22:47:42.15	20.93	3.49	-53.9	-68.8	3.8	1.49e+00	0	42	104	0	78	21225
2026-01-27 22:47:43.16	20.99	3.55	-54.1	-69.0	3.8	1.49e+00	0	42	104	0	78	21683
2026-01-27 22:47:44.17	21.06	3.61	-54.1	-69.0	3.8	1.49e+00	0	42	104	0	78	21687
2026-01-27 22:47:45.17	21.13	3.67	-53.6	-69.0	3.8	1.49e+00	0	42	104	0	78	21754
2026-01-27 22:47:46.18	21.19	3.73	-53.9	-69.1	3.8	1.49e+00	0	42	104	0	78	21901
2026-01-27 22:47:47.18	21.26	3.79	-53.8	-69.1	3.8	1.49e+00	0	42	104	0	78	21880
2026-01-27 22:47:48.19	21.33	3.85	-53.9	-69.1	3.8	1.49e+00	0	42	104	0	78	21897
2026-01-27 22:47:49.19	21.39	3.91	-54.1	-69.1	3.8	1.49e+00	0	42	104	0	78	21848
2026-01-27 22:47:50.20	21.46	3.97	-54.1	-69.0	3.8	1.49e+00	0	42	104	0	78	21747
2026-01-27 22:47:51.21	21.53	4.03	-54.1	-69.0	3.8	1.49e+00	0	42	104	0	78	21650
2026-01-27 22:47:52.21	21.60	4.09	-54.0	-69.0	3.8	1.49e+00	0	42	104	0	78	21669
2026-01-27 22:47:53.22	21.67	4.16	-54.0	-69.0	3.8	1.49e+00	0	42	104	0	78	21640
2026-01-27 22:47:54.22	21.73	4.22	-54.0	-69.0	3.8	1.49e+00	0	42	104	0	78	21610
2026-01-27 22:47:55.23	21.80	4.28	-54.0	-68.9	3.8	1.49e+00	0	42	104	0	78	21415
2026-01-27 22:47:56.24	21.87	4.34	-53.9	-68.9	3.8	1.49e+00	0	42	104	0	78	21320
2026-01-27 22:47:57.24	21.94	4.40	-53.9	-68.8	3.8	1.49e+00	0	42	104	0	78	21220
2026-01-27 22:47:58.25	22.01	4.46	-53.8	-68.7	3.8	1.49e+00	0	42	104	0	78	20985
2026-01-27 22:47:59.26	22.08	4.53	-53.7	-68.6	3.8	1.49e+00	0	42	104	0	78	20735
2026-01-27 22:48:00.26	22.15	4.59	-53.6	-68.5	3.8	1.49e+00	0	42	104	0	78	20483
2026-01-27 22:48:01.27	22.22	4.65	-53.4	-68.4	3.8	1.49e+00	0	42	104	0	78	20095
2026-01-27 22:48:02.28	22.29	4.71	-53.3	-68.2	3.8	1.49e+00	0	42	104	0	78	19657
2026-01-27 22:48:03.29	22.36	4.78	-53.0	-68.0	3.8	1.49e+00	0	42	104	0	78	19179
2026-01-27 22:48:04.29	22.43	4.84	-52.7	-67.6	3.8	1.49e+00	0	42	104	0	77	19450
2026-01-27 22:48:05.30	22.51	4.90	-49.2	-52.4	13.4	1.19e+00	0	42	104	0	70	5059
2026-01-27 22:48:06.31	22.58	4.96	-50.3	-55.2	10.7	4.32e-04	0	42	0	1048576	71	6604
2026-01-27 22:48:07.32	22.65	5.03	-50.4	-55.5	10.2	2.22e-02	0	42	0	3145728	72	6460
2026-01-27 22:48:08.32	22.72	5.09	-48.4	-51.1	14.9	7.00e-07	0	42	0	5242880	68	4893
2026-01-27 22:48:09.33	22.80	5.15	-48.6	-51.5	14.6	0.00e+00	0	42	0	7340032	67	5443
2026-01-27 22:48:10.34	22.87	5.22	-52.0	-66.7	3.8	1.49e+00	0	42	104	7340032	74	20854
2026-01-27 22:48:11.35	22.94	5.28	-48.4	-51.1	14.5	7.89e-04	0	43	0	7340032	68	4901
2026-01-27 22:48:12.35	23.02	5.34	-50.1	-54.3	11.6	1.08e-03	0	43	0	9437184	71	5950
2026-01-27 22:48:13.36	23.09	5.41	-47.8	-50.2	15.8	1.50e-06	0	42	0	11534336	67	4652
2026-01-27 22:48:14.37	23.17	5.47	-47.5	-49.8	16.2	0.00e+00	0	42	0	13631488	67	4474
2026-01-27 22:48:15.38	23.24	5.54	-47.3	-49.4	16.6	0.00e+00	0	42	0	14680064	66	4522
2026-01-27 22:48:16.38	23.31	5.60	-47.3	-49.4	16.5	0.00e+00	0	43	0	16777216	66	4537
2026-01-27 22:48:17.38	23.39	5.66	-47.2	-49.3	16.7	0.00e+00	0	42	0	18874368	66	4447
2026-01-27 22:48:18.39	23.47	5.73	-46.8	-48.7	17.2	0.00e+00	0	42	0	20971520	65	4437
2026-01-27 22:48:19.39	23.54	5.79	-46.8	-48.8	17.2	0.00e+00	0	42	0	23068672	65	4459
2026-01-27 22:48:20.40	23.62	5.86	-46.5	-48.3	17.7	0.00e+00	0	42	0	25165824	65	4227
2026-01-27 22:48:21.40	23.69	5.92	-46.5	-48.4	17.6	0.00e+00	0	42	0	26214400	64	4508
2026-01-27 22:48:22.40	23.77	5.98	-46.6	-48.5	17.5	0.00e+00	0	43	0	28311552	64	4560
2026-01-27 22:48:23.40	23.85	6.05	-46.7	-48.6	17.4	0.00e+00	0	42	0	30408704	64	4639
2026-01-27 22:48:24.41	23.92	6.11	-46.5	-48.4	17.6	0.00e+00	0	42	0	32505856	64	4508
2026-01-27 22:48:25.42	24.00	6.18	-46.4	-48.2	17.8	0.00e+00	0	42	0	34603008	64	4428
2026-01-27 22:48:26.42	24.08	6.24	-46.2	-47.9	18.0	0.00e+00	0	43	0	35651584	64	4281
2026-01-27 22:48:27.43	24.16	6.31	-46.3	-48.0	18.0	0.00e+00	0	42	0	37748736	64	4334
2026-01-27 22:48:28.43	24.24	6.37	-46.5	-48.4	17.7	0.00e+00	0	43	0	39845888	64	4511
2026-01-27 22:48:29.44	24.32	6.44	-46.6	-48.5	17.6	0.00e+00	0	43	0	41943040	64	4561
2026-01-27 22:48:30.45	24.40	6.51	-46.3	-48.0	18.0	0.00e+00	0	43	0	42991616	64	4324
2026-01-27 22:48:31.45	24.47	6.57	-46.5	-48.3	17.8	0.00e+00	0	43	0	45088768	64	4458
2026-01-27 22:48:32.46	24.55	6.64	-46.3	-48.0	18.1	0.00e+00	0	43	0	47185920	64	4326
2026-01-27 22:48:33.46	24.63	6.70	-46.3	-48.0	18.1	0.00e+00	0	43	0	49283072	64	4339
2026-01-27 22:48:34.47	24.72	6.77	-46.5	-48.3	17.8	0.00e+00	0	42	0	51380224	64	4478
2026-01-27 22:48:35.48	24.80	6.84	-46.5	-48.4	17.8	0.00e+00	0	42	0	52428800	64	4503
2026-01-27 22:48:36.47	24.88	6.90	-46.5	-48.4	17.8	0.00e+00	0	43	0	54525952	64	4500
2026-01-27 22:48:37.48	24.96	6.97	-46.5	-48.3	17.8	0.00e+00	0	42	0	56623104	64	4485
2026-01-27 22:48:38.49	25.04	7.04	-46.7	-48.5	17.6	0.00e+00	0	42	0	58720256	64	4592
2026-01-27 22:48:39.50	25.12	7.10	-46.7	-48.6	17.6	0.00e+00	0	43	0	60817408	64	4604
2026-01-27 22:48:40.51	25.21	7.17	-46.6	-48.5	17.7	0.00e+00	0	43	0	62914560	64	4571
2026-01-27 22:48:41.51	25.29	7.24	-46.8	-48.7	17.5	0.00e+00	0	43	0	63963136	64	4677
2026-01-27 22:48:42.51	25.37	7.30	-46.8	-48.7	17.4	0.00e+00	0	43	0	66060288	64	4698
2026-01-27 22:48:43.52	25.46	7.37	-46.6	-48.5	17.6	0.00e+00	0	43	0	68157440	64	4584
2026-01-27 22:48:44.53	25.54	7.44	-46.8	-48.7	17.5	0.00e+00	0	42	0	70254592	64	4662
2026-01-27 22:48:45.53	25.63	7.51	-46.6	-48.4	17.8	0.00e+00	0	43	0	71303168	64	4538
2026-01-27 22:48:46.53	25.71	7.57	-46.5	-48.3	17.8	0.00e+00	0	42	0	73400320	64	4483
2026-01-27 22:48:47.54	25.80	7.64	-46.5	-48.4	17.8	0.00e+00	0	43	0	75497472	64	4496
2026-01-27 22:48:48.55	25.88	7.71	-46.7	-48.5	17.7	0.00e+00	0	43	0	77594624	64	4583
2026-01-27 22:48:49.56	25.97	7.78	-46.6	-48.4	17.8	0.00e+00	0	43	0	79691776	64	4515
2026-01-27 22:48:50.56	26.06	7.85	-46.7	-48.5	17.7	0.00e+00	0	43	0	80740352	64	4570
2026-01-27 22:48:51.57	26.14	7.91	-46.5	-48.3	17.9	0.00e+00	0	43	0	82837504	64	4448
2026-01-27 22:48:52.57	26.23	7.98	-46.5	-48.2	18.0	0.00e+00	0	43	0	84934656	64	4433
2026-01-27 22:48:53.58	26.32	8.05	-46.3	-48.0	18.2	0.00e+00	0	43	0	87031808	64	4311
2026-01-27 22:48:54.59	26.41	8.12	-46.3	-48.0	18.3	0.00e+00	0	43	0	89128960	64	4294
2026-01-27 22:48:55.59	26.49	8.19	-46.2	-47.9	18.3	0.00e+00	0	43	0	91226112	64	4284
2026-01-27 22:48:56.59	26.58	8.26	-46.2	-47.9	18.3	0.00e+00	0	43	0	92274688	64	4266
2026-01-27 22:48:57.60	26.67	8.33	-46.4	-48.2	18.1	0.00e+00	0	43	0	94371840	64	4421
2026-01-27 22:48:58.61	26.76	8.40	-46.3	-47.9	18.3	0.00e+00	0	43	0	96468992	64	4289
2026-01-27 22:48:59.62	26.85	8.47	-46.0	-47.7	18.6	0.00e+00	0	43	0	98566144	64	4154
2026-01-27 22:49:00.63	26.94	8.53	-46.1	-47.8	18.4	0.00e+00	0	43	0	99614720	64	4211
2026-01-27 22:49:01.64	27.03	8.60	-46.1	-47.7	18.6	0.00e+00	0	43	0	101711872	64	4155
2026-01-27 22:49:02.64	27.12	8.67	-46.1	-47.7	18.6	0.00e+00	0	43	0	103809024	63	4432
2026-01-27 22:49:03.65	27.22	8.74	-46.1	-47.7	18.6	0.00e+00	0	43	0	105906176	63	4433
2026-01-27 22:49:04.66	27.31	8.81	-46.1	-47.8	18.6	0.00e+00	0	43	0	108003328	63	4450
2026-01-27 22:49:05.67	27.40	8.89	-46.1	-47.7	18.6	0.00e+00	0	43	0	109051904	63	4435
2026-01-27 22:49:06.67	27.49	8.96	-46.0	-47.6	18.8	0.00e+00	0	43	0	111149056	63	4357
2026-01-27 22:49:07.68	27.59	9.03	-46.3	-48.0	18.4	0.00e+00	0	43	0	113246208	63	4557
2026-01-27 22:49:08.69	27.68	9.10	-46.1	-47.8	18.6	0.00e+00	0	43	0	115343360	63	4445
2026-01-27 22:49:09.70	27.78	9.17	-46.0	-47.6	18.8	0.00e+00	0	43	0	117440512	63	4364
2026-01-27 22:49:10.70	27.87	9.24	-46.1	-47.7	18.7	0.00e+00	0	43	0	119537664	63	4426
2026-01-27 22:49:11.71	27.97	9.31	-46.1	-47.7	18.7	0.00e+00	0	43	0	120586240	63	4419
2026-01-27 22:49:12.72	28.06	9.38	-46.1	-47.8	18.4	0.00e+00	0	43	0	122683392	63	4442
2026-01-27 22:49:13.72	28.16	9.45	-46.1	-47.7	18.7	0.00e+00	0	43	0	124780544	63	4418
2026-01-27 22:49:14.73	28.25	9.52	-46.0	-47.6	18.9	0.00e+00	0	43	0	126877696	63	4350
2026-01-27 22:49:15.73	28.35	9.59	-46.1	-47.7	18.7	0.00e+00	0	43	0	127926272	63	4431
2026-01-27 22:49:16.74	28.45	9.67	-46.1	-47.8	18.7	0.00e+00	0	43	0	130023424	63	4443
2026-01-27 22:49:17.75	28.55	9.74	-46.1	-47.6	18.8	0.00e+00	0	43	0	132120576	63	4391
2026-01-27 22:49:18.75	28.64	9.81	-46.1	-47.6	18.8	0.00e+00	0	43	0	134217728	63	4391
2026-01-27 22:49:19.76	28.74	9.88	-45.8	-47.4	19.0	0.00e+00	0	43	0	136314880	63	4249
2026-01-27 22:49:20.77	28.84	9.96	-45.8	-47.3	19.2	0.00e+00	0	43	0	137363456	63	4214
2026-01-27 22:49:21.77	28.94	10.03	-45.9	-47.4	19.0	0.00e+00	0	43	0	139460608	63	4276
2026-01-27 22:49:22.78	29.04	10.10	-45.8	-47.4	19.0	0.00e+00	0	43	0	141557760	63	4246
2026-01-27 22:49:23.78	29.14	10.17	-45.6	-47.1	19.3	0.00e+00	0	43	0	143654912	63	4119
2026-01-27 22:49:24.79	29.24	10.25	-45.7	-47.2	19.2	0.00e+00	0	43	0	145752064	63	4187
2026-01-27 22:49:25.80	29.35	10.32	-45.7	-47.1	19.3	0.00e+00	0	43	0	147849216	63	4137
2026-01-27 22:49:26.80	29.45	10.39	-45.8	-47.3	19.2	0.00e+00	0	43	0	148897792	63	4200
2026-01-27 22:49:27.81	29.55	10.47	-45.9	-47.4	19.0	0.00e+00	0	43	0	150994944	63	4288
2026-01-27 22:49:28.81	29.65	10.54	-46.1	-47.6	18.9	0.00e+00	0	43	0	153092096	63	4389
2026-01-27 22:49:29.82	29.76	10.61	-46.1	-47.7	18.8	0.00e+00	0	43	0	155189248	63	4400
2026-01-27 22:49:30.83	29.86	10.69	-46.3	-47.9	18.6	0.00e+00	0	43	0	156237824	63	4513
2026-01-27 22:49:31.83	29.96	10.76	-46.3	-48.0	18.5	0.00e+00	0	43	0	158334976	63	4553
2026-01-27 22:49:32.84	30.07	10.83	-46.4	-48.0	18.5	0.00e+00	0	43	0	160432128	63	4581
2026-01-27 22:49:33.85	30.18	10.91	-46.6	-48.3	18.2	0.00e+00	0	43	0	162529280	63	4728
2026-01-27 22:49:34.85	30.28	10.98	-46.6	-48.3	18.2	0.00e+00	0	43	0	164626432	64	4486
2026-01-27 22:49:35.85	30.39	11.06	-46.5	-48.3	18.2	0.00e+00	0	43	0	165675008	64	4459
2026-01-27 22:49:36.86	30.49	11.13	-46.8	-48.6	17.9	0.00e+00	0	43	0	167772160	64	4626
2026-01-27 22:49:37.87	30.60	11.21	-46.7	-48.5	18.0	0.00e+00	0	43	0	169869312	64	4582
2026-01-27 22:49:38.87	30.71	11.28	-46.5	-48.3	18.2	0.00e+00	0	43	0	171966464	64	4448
2026-01-27 22:49:39.88	30.82	11.35	-46.4	-48.1	18.4	0.00e+00	0	43	0	174063616	64	4358
2026-01-27 22:49:40.88	30.93	11.43	-46.5	-48.1	18.4	0.00e+00	0	43	0	175112192	64	4385
2026-01-27 22:49:41.88	31.04	11.50	-46.5	-48.2	18.3	0.00e+00	0	43	0	177209344	64	4410
2026-01-27 22:49:42.88	31.15	11.58	-46.5	-48.2	18.3	0.00e+00	0	43	0	179306496	64	4440
2026-01-27 22:49:43.89	31.26	11.65	-46.3	-48.0	18.5	0.00e+00	0	43	0	181403648	64	4301
2026-01-27 22:49:44.90	31.37	11.73	-46.2	-47.8	18.7	0.00e+00	0	43	0	183500800	64	4225
2026-01-27 22:49:45.90	31.48	11.81	-46.3	-47.9	18.6	0.00e+00	0	43	0	184549376	64	4253
2026-01-27 22:49:46.91	31.59	11.88	-46.2	-47.8	18.7	0.00e+00	0	43	0	186646528	64	4232
2026-01-27 22:49:47.91	31.71	11.96	-46.2	-47.8	18.7	0.00e+00	0	43	0	188743680	64	4200
2026-01-27 22:49:48.92	31.82	12.03	-46.0	-47.6	19.0	0.00e+00	0	43	0	190840832	63	4356
2026-01-27 22:49:49.93	31.93	12.11	-45.9	-47.4	19.2	0.00e+00	0	43	0	192937984	63	4244
2026-01-27 22:49:50.93	32.05	12.19	-45.9	-47.5	19.1	0.00e+00	0	43	0	193986560	63	4293
2026-01-27 22:49:51.94	32.16	12.26	-45.8	-47.3	19.2	0.00e+00	0	43	0	196083712	63	4208
2026-01-27 22:49:52.95	32.28	12.34	-45.8	-47.3	19.3	0.00e+00	0	43	0	198180864	63	4197
2026-01-27 22:49:53.95	32.40	12.42	-45.6	-47.1	19.5	0.00e+00	0	43	0	200278016	63	4101
2026-01-27 22:49:54.96	32.51	12.50	-45.7	-47.1	19.4	0.00e+00	0	43	0	202375168	63	4129
2026-01-27 22:49:55.96	32.63	12.57	-45.6	-47.0	19.5	0.00e+00	0	43	0	203423744	63	4089
2026-01-27 22:49:56.97	32.75	12.65	-45.5	-46.9	19.6	0.00e+00	0	43	0	205520896	62	4279
2026-01-27 22:49:57.97	32.87	12.73	-45.6	-47.1	19.5	0.00e+00	0	43	0	207618048	62	4350
2026-01-27 22:49:58.98	32.99	12.80	-45.6	-47.1	19.5	0.00e+00	0	43	0	209715200	62	4342
2026-01-27 22:49:59.98	33.11	12.88	-45.6	-47.0	19.5	0.00e+00	0	43	0	210763776	62	4308
2026-01-27 22:50:00.99	33.23	12.96	-45.7	-47.2	19.4	0.00e+00	0	43	0	212860928	62	4419
2026-01-27 22:50:01.99	33.35	13.04	-45.7	-47.1	19.5	0.00e+00	0	43	0	214958080	62	4373
2026-01-27 22:50:02.99	33.47	13.12	-45.7	-47.2	19.4	0.00e+00	0	43	0	217055232	62	4400
2026-01-27 22:50:04.00	33.59	13.19	-45.7	-47.1	19.5	0.00e+00	0	43	0	219152384	62	4383
2026-01-27 22:50:05.00	33.71	13.27	-45.7	-47.2	19.4	0.00e+00	0	43	0	221249536	62	4404
2026-01-27 22:50:06.01	33.84	13.35	-45.7	-47.1	19.5	0.00e+00	0	43	0	222298112	62	4360
2026-01-27 22:50:07.01	33.96	13.43	-45.9	-47.3	19.3	0.00e+00	0	43	0	224395264	62	4492
2026-01-27 22:50:08.02	34.09	13.51	-45.7	-47.2	19.3	0.00e+00	0	43	0	226492416	62	4401
2026-01-27 22:50:09.03	34.21	13.59	-45.6	-47.0	19.6	0.00e+00	0	43	0	228589568	62	4318
2026-01-27 22:50:10.04	34.34	13.67	-45.7	-47.1	19.5	0.00e+00	0	43	0	230686720	62	4359
2026-01-27 22:50:11.04	34.46	13.75	-45.7	-47.1	19.5	0.00e+00	0	43	0	231735296	62	4367
2026-01-27 22:50:12.04	34.59	13.82	-45.6	-47.0	19.6	0.00e+00	0	43	0	233832448	62	4333
2026-01-27 22:50:13.05	34.72	13.90	-45.7	-47.2	19.4	0.00e+00	0	43	0	235929600	62	4406
2026-01-27 22:50:14.06	34.85	13.98	-46.0	-47.5	19.2	0.00e+00	0	43	0	238026752	62	4547
2026-01-27 22:50:15.06	34.98	14.06	-46.0	-47.5	19.1	0.00e+00	0	43	0	239075328	62	4570
2026-01-27 22:50:16.07	35.11	14.14	-46.0	-47.6	19.1	0.00e+00	0	43	0	241172480	62	4599
2026-01-27 22:50:17.08	35.24	14.22	-46.5	-48.1	18.6	0.00e+00	0	43	0	243269632	63	4636
2026-01-27 22:50:18.09	35.37	14.30	-46.5	-48.1	18.6	0.00e+00	0	43	0	245366784	63	4647
2026-01-27 22:50:19.09	35.50	14.38	-46.7	-48.3	18.4	0.00e+00	0	43	0	247463936	63	4758
2026-01-27 22:50:20.10	35.64	14.47	-46.7	-48.4	18.3	0.00e+00	0	43	0	249561088	63	4777
2026-01-27 22:50:21.10	35.77	14.55	-46.7	-48.4	18.2	0.00e+00	0	43	0	250609664	64	4529
2026-01-27 22:50:22.11	35.90	14.63	-46.8	-48.5	18.0	0.00e+00	0	43	0	252706816	64	4587
2026-01-27 22:50:23.12	36.04	14.71	-46.6	-48.3	18.3	0.00e+00	0	43	0	254803968	64	4489
2026-01-27 22:50:24.13	36.18	14.79	-46.5	-48.2	18.5	0.00e+00	0	43	0	256901120	64	4426
2026-01-27 22:50:25.14	36.31	14.87	-46.5	-48.2	18.4	0.00e+00	0	43	0	258998272	64	4412
2026-01-27 22:50:26.14	36.45	14.95	-46.4	-48.0	18.6	0.00e+00	0	43	0	260046848	64	4305
2026-01-27 22:50:27.15	36.59	15.03	-46.3	-47.9	18.8	0.00e+00	0	43	0	262144000	64	4253
2026-01-27 22:50:28.16	36.73	15.11	-46.2	-47.8	18.8	0.00e+00	0	43	0	264241152	64	4211
2026-01-27 22:50:29.17	36.87	15.20	-46.3	-47.9	18.8	0.00e+00	0	43	0	266338304	64	4252
2026-01-27 22:50:30.17	37.01	15.28	-46.1	-47.7	18.9	0.00e+00	0	43	0	267386880	64	4174
2026-01-27 22:50:31.18	37.15	15.36	-46.0	-47.5	19.1	0.00e+00	0	43	0	269484032	64	4081
2026-01-27 22:50:32.18	37.29	15.44	-46.2	-47.7	19.0	0.00e+00	0	43	0	271581184	63	4433
2026-01-27 22:50:33.18	37.43	15.52	-45.7	-47.2	19.5	0.00e+00	0	43	0	273678336	63	4154
2026-01-27 22:50:34.19	37.57	15.60	-45.6	-47.0	19.6	0.00e+00	0	43	0	275775488	63	4065
2026-01-27 22:50:35.20	37.72	15.69	-45.5	-46.8	19.8	0.00e+00	0	43	0	277872640	62	4232
2026-01-27 22:50:36.20	37.86	15.77	-45.3	-46.7	20.0	0.00e+00	0	43	0	278921216	62	4156
2026-01-27 22:50:37.21	38.01	15.85	-45.3	-46.6	20.0	0.00e+00	0	43	0	281018368	62	4135
2026-01-27 22:50:38.21	38.15	15.93	-45.1	-46.5	20.2	0.00e+00	0	43	0	283115520	62	4056
2026-01-27 22:50:39.22	38.30	16.02	-45.1	-46.4	20.2	0.00e+00	0	43	0	285212672	62	4050
2026-01-27 22:50:40.23	38.45	16.10	-45.0	-46.3	20.3	0.00e+00	0	43	0	287309824	62	3997
2026-01-27 22:50:41.24	38.60	16.18	-45.1	-46.4	20.2	0.00e+00	0	43	0	288358400	62	4044
2026-01-27 22:50:42.24	38.74	16.27	-45.0	-46.3	20.3	0.00e+00	0	43	0	290455552	61	4230
2026-01-27 22:50:43.25	38.90	16.35	-44.9	-46.2	20.5	0.00e+00	0	43	0	292552704	61	4156
2026-01-27 22:50:44.25	39.05	16.43	-44.9	-46.2	20.4	0.00e+00	0	43	0	294649856	61	4174
2026-01-27 22:50:45.26	39.20	16.52	-44.8	-46.0	20.6	0.00e+00	0	43	0	295698432	61	4082
2026-01-27 22:50:46.27	39.35	16.60	-44.7	-45.9	20.7	0.00e+00	0	43	0	297795584	61	4035
2026-01-27 22:50:47.28	39.50	16.68	-44.7	-45.9	20.6	0.00e+00	0	43	0	299892736	61	4040
2026-01-27 22:50:48.28	39.66	16.77	-44.6	-45.9	20.7	0.00e+00	0	43	0	301989888	61	4022
2026-01-27 22:50:49.29	39.81	16.85	-44.7	-45.9	20.7	0.00e+00	0	43	0	304087040	61	4045
2026-01-27 22:50:50.30	39.97	16.93	-44.7	-46.0	20.6	0.00e+00	0	43	0	306184192	61	4075
2026-01-27 22:50:51.31	40.13	17.02	-44.8	-46.1	20.6	0.00e+00	0	43	0	307232768	61	4128
2026-01-27 22:50:52.32	40.29	17.10	-44.8	-46.1	20.5	0.00e+00	0	43	0	309329920	61	4100
2026-01-27 22:50:53.32	40.44	17.19	-44.8	-46.1	20.6	0.00e+00	0	43	0	311427072	61	4119
2026-01-27 22:50:54.33	40.60	17.27	-45.1	-46.4	20.3	0.00e+00	0	43	0	313524224	61	4263
2026-01-27 22:50:55.33	40.76	17.36	-45.1	-46.4	20.3	0.00e+00	0	43	0	315621376	61	4248
2026-01-27 22:50:56.34	40.92	17.44	-45.1	-46.4	20.3	0.00e+00	0	43	0	316669952	61	4249
2026-01-27 22:50:57.34	41.08	17.52	-45.2	-46.6	20.1	0.00e+00	0	43	0	318767104	61	4353
2026-01-27 22:50:58.35	41.25	17.61	-45.3	-46.7	20.0	0.00e+00	0	43	0	320864256	61	4392
2026-01-27 22:50:59.35	41.41	17.69	-45.3	-46.7	20.0	0.00e+00	0	43	0	322961408	61	4416
2026-01-27 22:51:00.36	41.58	17.78	-45.3	-46.6	20.1	0.00e+00	0	43	0	324009984	61	4380
2026-01-27 22:51:01.36	41.74	17.86	-45.3	-46.7	20.0	0.00e+00	0	43	0	326107136	61	4392
2026-01-27 22:51:02.37	41.91	17.95	-45.1	-46.5	20.2	0.00e+00	0	43	0	328204288	61	4296
2026-01-27 22:51:03.38	42.07	18.03	-45.3	-46.6	20.1	0.00e+00	0	43	0	330301440	61	4359
2026-01-27 22:51:04.38	42.24	18.12	-45.3	-46.6	20.1	0.00e+00	0	43	0	332398592	61	4368
2026-01-27 22:51:05.39	42.41	18.20	-45.2	-46.6	20.1	0.00e+00	0	43	0	334495744	61	4355
2026-01-27 22:51:06.39	42.58	18.29	-45.1	-46.4	20.3	0.00e+00	0	43	0	335544320	61	4263
2026-01-27 22:51:07.40	42.75	18.37	-44.9	-46.1	20.5	0.00e+00	0	43	0	337641472	61	4136
2026-01-27 22:51:08.41	42.92	18.46	-44.8	-46.1	20.6	0.00e+00	0	43	0	339738624	61	4122
2026-01-27 22:51:09.42	43.10	18.54	-44.8	-46.1	20.6	0.00e+00	0	43	0	341835776	61	4101
2026-01-27 22:51:10.43	43.27	18.63	-44.9	-46.2	20.5	0.00e+00	0	43	0	343932928	61	4158
2026-01-27 22:51:11.43	43.44	18.71	-45.0	-46.3	20.4	0.00e+00	0	43	0	344981504	61	4195
2026-01-27 22:51:12.44	43.62	18.80	-45.0	-46.3	20.4	0.00e+00	0	43	0	347078656	61	4219
2026-01-27 22:51:13.45	43.80	18.88	-45.0	-46.3	20.4	0.00e+00	0	43	0	349175808	61	4211
2026-01-27 22:51:14.45	43.97	18.97	-44.9	-46.2	20.5	0.00e+00	0	43	0	351272960	61	4184
2026-01-27 22:51:15.45	44.15	19.05	-44.7	-45.9	20.7	0.00e+00	0	43	0	352321536	61	4051
2026-01-27 22:51:16.46	44.33	19.14	-44.7	-46.0	20.7	0.00e+00	0	43	0	354418688	60	4303
2026-01-27 22:51:17.47	44.51	19.22	-44.8	-46.0	20.7	0.00e+00	0	43	0	356515840	60	4335
2026-01-27 22:51:18.47	44.69	19.31	-44.6	-45.9	20.8	0.00e+00	0	43	0	358612992	60	4248
2026-01-27 22:51:19.48	44.88	19.40	-44.9	-46.2	20.5	0.00e+00	0	43	0	360710144	60	4423
2026-01-27 22:51:20.49	45.06	19.48	-44.8	-46.1	20.6	0.00e+00	0	43	0	361758720	60	4354
2026-01-27 22:51:21.50	45.25	19.57	-45.1	-46.4	20.3	0.00e+00	0	43	0	363855872	60	4494
2026-01-27 22:51:22.51	45.43	19.65	-44.8	-46.1	20.6	0.00e+00	0	43	0	365953024	60	4367
2026-01-27 22:51:23.52	45.62	19.74	-44.8	-46.1	20.6	0.00e+00	0	43	0	368050176	60	4351
2026-01-27 22:51:24.53	45.81	19.82	-44.7	-45.9	20.8	0.00e+00	0	43	0	370147328	60	4250
2026-01-27 22:51:25.53	45.99	19.91	-44.6	-45.9	20.8	0.00e+00	0	43	0	372244480	60	4252
2026-01-27 22:51:26.54	46.18	20.00	-44.5	-45.7	20.9	0.00e+00	0	43	0	373293056	60	4177
2026-01-27 22:51:27.55	46.38	20.08	-44.5	-45.7	21.0	0.00e+00	0	43	0	375390208	60	4186
2026-01-27 22:51:28.56	46.57	20.17	-44.7	-45.9	20.8	0.00e+00	0	43	0	377487360	60	4267
2026-01-27 22:51:29.57	46.76	20.25	-44.6	-45.8	20.8	0.00e+00	0	43	0	379584512	60	4242
2026-01-27 22:51:30.57	46.95	20.34	-44.7	-45.9	20.8	0.00e+00	0	43	0	380633088	60	4268
2026-01-27 22:51:31.58	47.15	20.42	-44.7	-45.9	20.8	0.00e+00	0	43	0	382730240	60	4270
2026-01-27 22:51:32.59	47.35	20.51	-44.5	-45.7	20.9	0.00e+00	0	43	0	384827392	60	4190
2026-01-27 22:51:33.59	47.54	20.59	-44.2	-45.4	21.2	0.00e+00	0	43	0	386924544	60	4026
2026-01-27 22:51:34.60	47.74	20.68	-44.1	-45.3	21.3	0.00e+00	0	43	0	389021696	60	3974
2026-01-27 22:51:35.60	47.94	20.76	-44.3	-45.4	21.2	0.00e+00	0	43	0	391118848	60	4034
2026-01-27 22:51:36.61	48.14	20.85	-44.3	-45.4	21.2	0.00e+00	0	43	0	392167424	60	4048
2026-01-27 22:51:37.61	48.34	20.93	-44.6	-45.8	20.9	0.00e+00	0	43	0	394264576	60	4212
2026-01-27 22:51:38.62	48.54	21.02	-44.6	-45.8	20.9	0.00e+00	0	43	0	396361728	60	4239
2026-01-27 22:51:39.63	48.75	21.10	-44.8	-46.0	20.7	0.00e+00	0	43	0	398458880	60	4320
2026-01-27 22:51:40.64	48.95	21.19	-44.7	-45.9	20.8	0.00e+00	0	43	0	400556032	60	4257
2026-01-27 22:51:41.64	49.15	21.27	-44.5	-45.6	21.0	0.00e+00	0	43	0	401604608	60	4141
2026-01-27 22:51:42.64	49.36	21.36	-44.5	-45.7	21.1	0.00e+00	0	43	0	403701760	60	4152
2026-01-27 22:51:43.65	49.57	21.44	-44.4	-45.6	21.2	0.00e+00	0	43	0	405798912	60	4112
2026-01-27 22:51:44.66	49.78	21.53	-44.4	-45.6	21.1	0.00e+00	0	43	0	407896064	60	4122
2026-01-27 22:51:45.67	49.99	21.61	-44.4	-45.6	21.0	0.00e+00	0	43	0	408944640	60	4130
2026-01-27 22:51:46.67	50.20	21.70	-44.5	-45.7	21.0	0.00e+00	0	43	0	411041792	60	4150
2026-01-27 22:51:47.68	50.41	21.78	-44.4	-45.6	21.1	0.00e+00	0	43	0	413138944	60	4125
2026-01-27 22:51:48.69	50.63	21.87	-44.6	-45.8	20.9	0.00e+00	0	43	0	415236096	60	4225
2026-01-27 22:51:49.69	50.84	21.95	-44.5	-45.7	21.0	0.00e+00	0	43	0	417333248	60	4178
2026-01-27 22:51:50.70	51.05	22.03	-44.5	-45.7	21.0	0.00e+00	0	43	0	419430400	60	4155
2026-01-27 22:51:51.71	51.27	22.12	-44.5	-45.7	21.1	0.00e+00	0	43	0	420478976	60	4165
2026-01-27 22:51:52.71	51.49	22.20	-44.6	-45.8	20.9	0.00e+00	0	43	0	422576128	60	4202
2026-01-27 22:51:53.71	51.71	22.28	-44.6	-45.8	20.9	0.00e+00	0	43	0	424673280	60	4210
2026-01-27 22:51:54.72	51.93	22.37	-44.6	-45.8	21.0	0.00e+00	0	43	0	426770432	60	4205
2026-01-27 22:51:55.73	52.15	22.45	-44.5	-45.7	21.0	0.00e+00	0	43	0	428867584	60	4183
2026-01-27 22:51:56.73	52.37	22.53	-44.6	-45.8	20.9	0.00e+00	0	43	0	429916160	60	4241
2026-01-27 22:51:57.74	52.59	22.62	-44.6	-45.7	21.0	0.00e+00	0	43	0	432013312	60	4190
2026-01-27 22:51:58.74	52.82	22.70	-44.5	-45.6	21.0	0.00e+00	0	43	0	434110464	60	4143
2026-01-27 22:51:59.75	53.04	22.78	-44.7	-45.9	20.8	0.00e+00	0	43	0	436207616	60	4251
2026-01-27 22:52:00.75	53.27	22.86	-44.8	-46.0	20.7	0.00e+00	0	43	0	437256192	60	4340
2026-01-27 22:52:01.76	53.50	22.95	-44.5	-45.7	21.1	0.00e+00	0	43	0	439353344	60	4169
2026-01-27 22:52:02.77	53.73	23.03	-44.6	-45.7	21.0	0.00e+00	0	43	0	441450496	60	4183
2026-01-27 22:52:03.77	53.96	23.11	-44.6	-45.8	21.0	0.00e+00	0	43	0	443547648	60	4205
2026-01-27 22:52:04.78	54.19	23.19	-44.4	-45.5	21.2	0.00e+00	0	43	0	445644800	60	4097
2026-01-27 22:52:05.79	54.43	23.27	-44.4	-45.6	21.1	0.00e+00	0	43	0	446693376	60	4123
2026-01-27 22:52:06.80	54.66	23.36	-44.3	-45.4	21.3	0.00e+00	0	43	0	448790528	60	4046
2026-01-27 22:52:07.81	54.90	23.44	-44.4	-45.6	21.2	0.00e+00	0	43	0	450887680	60	4109
2026-01-27 22:52:08.81	55.13	23.52	-44.4	-45.6	21.1	0.00e+00	0	43	0	452984832	60	4126
2026-01-27 22:52:09.82	55.37	23.60	-44.6	-45.8	20.8	0.00e+00	0	43	0	455081984	60	4222
2026-01-27 22:52:10.83	55.61	23.68	-44.7	-45.9	20.8	0.00e+00	0	43	0	457179136	60	4277
2026-01-27 22:52:11.84	55.85	23.76	-45.0	-46.2	20.6	0.00e+00	0	43	0	458227712	60	4420
2026-01-27 22:52:12.84	56.09	23.84	-45.2	-46.5	20.4	0.00e+00	0	43	0	460324864	60	4568
2026-01-27 22:52:13.85	56.34	23.92	-45.3	-46.6	20.2	0.00e+00	0	43	0	462422016	61	4387
2026-01-27 22:52:14.86	56.58	24.00	-45.4	-46.8	20.1	0.00e+00	0	43	0	464519168	61	4451
2026-01-27 22:52:15.87	56.83	24.08	-45.2	-46.5	20.4	0.00e+00	0	43	0	465567744	61	4313
2026-01-27 22:52:16.87	57.07	24.15	-45.3	-46.6	20.3	0.00e+00	0	43	0	467664896	61	4344
2026-01-27 22:52:17.88	57.32	24.23	-44.9	-46.1	20.7	0.00e+00	0	43	0	469762048	61	4137
2026-01-27 22:52:18.89	57.57	24.31	-44.7	-46.0	20.8	0.00e+00	0	43	0	471859200	61	4052
2026-01-27 22:52:19.89	57.82	24.39	-44.6	-45.9	20.9	0.00e+00	0	43	0	473956352	61	4007
2026-01-27 22:52:20.89	58.07	24.46	-44.6	-45.8	21.0	0.00e+00	0	43	0	476053504	60	4233
2026-01-27 22:52:21.90	58.32	24.54	-44.7	-45.9	20.9	0.00e+00	0	43	0	477102080	60	4247
2026-01-27 22:52:22.90	58.57	24.62	-44.3	-45.5	21.3	0.00e+00	0	43	0	479199232	60	4073
2026-01-27 22:52:23.91	58.83	24.69	-44.5	-45.6	21.2	0.00e+00	0	43	0	481296384	60	4140
2026-01-27 22:52:24.91	59.08	24.77	-44.5	-45.7	21.1	0.00e+00	0	43	0	483393536	60	4160
2026-01-27 22:52:25.92	59.34	24.84	-44.6	-45.8	21.0	0.00e+00	0	43	0	485490688	60	4224
2026-01-27 22:52:26.92	59.60	24.92	-45.0	-46.3	20.6	0.00e+00	0	43	0	486539264	60	4462
2026-01-27 22:52:27.92	59.85	24.99	-45.5	-46.9	20.0	0.00e+00	0	43	0	488636416	61	4519
2026-01-27 22:52:28.93	60.12	25.07	-45.6	-47.0	19.9	0.00e+00	0	43	0	490733568	61	4582
2026-01-27 22:52:29.93	60.38	25.14	-45.5	-46.9	20.0	0.00e+00	0	43	0	492830720	61	4531
2026-01-27 22:52:30.94	60.64	25.22	-44.9	-46.1	20.7	0.00e+00	0	43	0	493879296	61	4126
2026-01-27 22:52:31.95	60.91	25.29	-44.6	-45.8	21.0	0.00e+00	0	43	0	495976448	61	3998
2026-01-27 22:52:32.95	61.17	25.36	-44.6	-45.7	21.1	0.00e+00	0	43	0	498073600	60	4186
2026-01-27 22:52:33.96	61.44	25.43	-44.6	-45.8	21.0	0.00e+00	0	43	0	500170752	60	4236
2026-01-27 22:52:34.96	61.70	25.50	-45.1	-46.4	20.5	0.00e+00	0	43	0	502267904	60	4518
2026-01-27 22:52:35.97	61.97	25.58	-45.7	-47.1	19.8	0.00e+00	0	43	0	503316480	61	4635
2026-01-27 22:52:36.97	62.24	25.65	-45.9	-47.4	19.6	0.00e+00	0	43	0	505413632	62	4496
2026-01-27 22:52:37.98	62.51	25.72	-46.2	-47.7	19.4	0.00e+00	0	43	0	507510784	62	4671
2026-01-27 22:52:38.99	62.79	25.79	-45.9	-47.3	19.6	0.00e+00	0	43	0	509607936	63	4225
2026-01-27 22:52:40.00	63.06	25.86	-45.6	-46.9	20.0	0.00e+00	0	43	0	511705088	63	4050
2026-01-27 22:52:41.00	63.34	25.93	-45.4	-46.8	20.1	0.00e+00	0	43	0	513802240	62	4203
2026-01-27 22:52:42.01	63.61	25.99	-45.4	-46.8	20.1	0.00e+00	0	43	0	514850816	62	4195
2026-01-27 22:52:43.01	63.89	26.06	-45.4	-46.7	20.2	0.00e+00	0	43	0	516947968	62	4166
2026-01-27 22:52:44.02	64.17	26.13	-45.5	-46.9	20.0	0.00e+00	0	43	0	519045120	62	4253
2026-01-27 22:52:45.03	64.45	26.20	-45.7	-47.1	19.7	0.00e+00	0	43	0	521142272	62	4385
2026-01-27 22:52:46.04	64.73	26.26	-46.0	-47.5	19.5	0.00e+00	0	43	0	522190848	62	4579
2026-01-27 22:52:47.04	65.01	26.33	-46.3	-47.8	19.2	0.00e+00	0	43	0	524288000	63	4463
2026-01-27 22:52:48.05	65.30	26.39	-46.2	-47.7	19.4	0.00e+00	0	43	0	526385152	63	4394
2026-01-27 22:52:49.05	65.58	26.46	-46.5	-48.0	19.0	0.00e+00	0	43	0	528482304	63	4582
2026-01-27 22:52:50.05	65.86	26.52	-46.5	-48.0	19.1	0.00e+00	0	43	0	530579456	63	4581
2026-01-27 22:52:51.06	66.15	26.58	-46.2	-47.7	19.3	0.00e+00	0	43	0	531628032	63	4438
2026-01-27 22:52:52.07	66.44	26.65	-46.0	-47.4	19.5	0.00e+00	0	43	0	533725184	63	4281
2026-01-27 22:52:53.07	66.72	26.71	-45.9	-47.3	19.7	0.00e+00	0	43	0	535822336	63	4238
2026-01-27 22:52:54.08	67.02	26.77	-45.9	-47.3	19.7	0.00e+00	0	43	0	537919488	63	4210
2026-01-27 22:52:55.09	67.31	26.83	-45.8	-47.2	19.8	0.00e+00	0	43	0	540016640	63	4178
2026-01-27 22:52:56.10	67.60	26.89	-45.8	-47.2	19.9	0.00e+00	0	43	0	542113792	63	4164
2026-01-27 22:52:57.11	67.89	26.95	-46.1	-47.5	19.4	0.00e+00	0	43	0	543162368	63	4334
2026-01-27 22:52:58.12	68.19	27.01	-46.3	-47.8	19.2	0.00e+00	0	43	0	545259520	63	4454
2026-01-27 22:52:59.12	68.48	27.07	-46.4	-47.9	19.1	0.00e+00	0	43	0	547356672	63	4532
2026-01-27 22:53:00.13	68.78	27.13	-46.7	-48.3	18.8	0.00e+00	0	43	0	549453824	63	4737
2026-01-27 22:53:01.14	69.08	27.18	-46.5	-48.1	18.9	0.00e+00	0	43	0	550502400	64	4342
2026-01-27 22:53:02.15	69.38	27.24	-46.5	-48.1	18.9	0.00e+00	0	43	0	552599552	64	4364
2026-01-27 22:53:03.15	69.68	27.29	-46.0	-47.5	19.4	0.00e+00	0	43	0	554696704	64	4064
2026-01-27 22:53:04.16	69.98	27.35	-45.5	-46.9	20.1	0.00e+00	0	43	0	556793856	63	4012
2026-01-27 22:53:05.17	70.28	27.40	-45.5	-46.9	20.1	0.00e+00	0	43	0	558891008	62	4243
2026-01-27 22:53:06.17	70.58	27.46	-45.7	-47.1	19.9	0.00e+00	0	43	0	559939584	62	4352
2026-01-27 22:53:07.18	70.89	27.51	-46.3	-47.8	19.3	0.00e+00	0	43	0	562036736	63	4444
2026-01-27 22:53:08.19	71.19	27.56	-46.9	-48.6	18.4	0.00e+00	0	43	0	564133888	64	4617
2026-01-27 22:53:09.20	71.50	27.61	-47.1	-48.9	18.2	0.00e+00	0	43	0	566231040	64	4778
2026-01-27 22:53:10.21	71.81	27.66	-47.4	-49.2	17.9	0.00e+00	0	43	0	568328192	65	4684
2026-01-27 22:53:11.21	72.11	27.71	-47.3	-49.1	18.0	0.00e+00	0	43	0	570425344	65	4622
2026-01-27 22:53:12.22	72.42	27.76	-47.5	-49.3	17.7	0.00e+00	0	43	0	571473920	65	4721
2026-01-27 22:53:13.23	72.73	27.81	-47.7	-49.6	17.5	0.00e+00	0	43	0	573571072	65	4886
2026-01-27 22:53:14.23	73.04	27.86	-48.4	-50.6	16.4	0.00e+00	0	43	0	575668224	67	4920
2026-01-27 22:53:15.24	73.35	27.90	-48.9	-51.4	15.8	0.00e+00	0	43	0	577765376	68	5057
2026-01-27 22:53:16.24	73.66	27.95	-49.0	-51.5	15.7	0.00e+00	0	43	0	578813952	68	5115
2026-01-27 22:53:17.25	73.97	27.99	-48.5	-50.8	16.3	0.00e+00	0	43	0	580911104	68	4739
2026-01-27 22:53:18.25	74.29	28.04	-48.2	-50.4	16.8	0.00e+00	0	43	0	583008256	68	4496
2026-01-27 22:53:19.26	74.60	28.08	-48.2	-50.3	16.9	0.00e+00	0	43	0	585105408	68	4455
2026-01-27 22:53:20.27	74.92	28.12	-48.5	-50.7	16.5	0.00e+00	0	43	0	587202560	68	4702
2026-01-27 22:53:21.27	75.23	28.16	-48.6	-50.9	16.2	0.00e+00	0	43	0	588251136	68	4798
2026-01-27 22:53:22.28	75.55	28.20	-48.5	-50.8	16.4	0.00e+00	0	43	0	590348288	68	4736
2026-01-27 22:53:23.29	75.87	28.24	-48.2	-50.2	17.0	0.00e+00	0	43	0	592445440	68	4436
2026-01-27 22:53:24.29	76.19	28.28	-47.3	-49.0	18.0	0.00e+00	0	43	0	594542592	66	4324
2026-01-27 22:53:25.30	76.51	28.32	-47.1	-48.8	18.3	0.00e+00	0	43	0	596639744	66	4195
2026-01-27 22:53:26.31	76.83	28.36	-47.2	-48.9	18.1	0.00e+00	0	43	0	598736896	65	4523
2026-01-27 22:53:27.31	77.15	28.39	-47.6	-49.5	17.6	0.00e+00	0	43	0	599785472	65	4815
2026-01-27 22:53:28.32	77.47	28.43	-48.1	-50.1	16.9	0.00e+00	0	43	0	601882624	66	4918
2026-01-27 22:53:29.33	77.79	28.46	-48.2	-50.3	16.8	0.00e+00	0	43	0	603979776	67	4743
2026-01-27 22:53:30.33	78.11	28.49	-47.9	-49.9	17.1	0.00e+00	0	43	0	606076928	67	4544
2026-01-27 22:53:31.34	78.44	28.53	-47.6	-49.5	17.6	0.00e+00	0	43	0	607125504	67	4304
2026-01-27 22:53:32.34	78.76	28.56	-47.5	-49.3	17.7	0.00e+00	0	43	0	609222656	66	4483
2026-01-27 22:53:33.35	79.08	28.59	-47.6	-49.5	17.5	0.00e+00	0	43	0	611319808	66	4590
2026-01-27 22:53:34.36	79.41	28.62	-47.7	-49.7	17.3	0.00e+00	0	43	0	613416960	66	4675
2026-01-27 22:53:35.36	79.73	28.65	-47.6	-49.5	17.5	0.00e+00	0	43	0	615514112	66	4598
2026-01-27 22:53:36.37	80.06	28.67	-47.2	-48.9	18.1	0.00e+00	0	43	0	616562688	66	4290
2026-01-27 22:53:37.38	80.39	28.70	-46.9	-48.6	18.4	0.00e+00	0	43	0	618659840	65	4353
2026-01-27 22:53:38.39	80.72	28.73	-46.5	-48.0	18.9	0.00e+00	0	43	0	620756992	64	4328
2026-01-27 22:53:39.39	81.05	28.75	-46.3	-47.8	19.1	0.00e+00	0	43	0	622854144	64	4212
2026-01-27 22:53:40.40	81.37	28.77	-46.6	-48.2	18.8	0.00e+00	0	43	0	624951296	64	4399
2026-01-27 22:53:41.40	81.70	28.80	-46.8	-48.4	18.6	0.00e+00	0	43	0	627048448	64	4523
2026-01-27 22:53:42.41	82.03	28.82	-46.6	-48.2	18.8	0.00e+00	0	43	0	628097024	64	4418
2026-01-27 22:53:43.42	82.36	28.84	-46.5	-48.1	18.8	0.00e+00	0	43	0	630194176	64	4381
2026-01-27 22:53:44.43	82.69	28.86	-46.3	-47.8	19.2	0.00e+00	0	43	0	632291328	64	4213
2026-01-27 22:53:45.44	83.03	28.88	-46.4	-47.9	19.1	0.00e+00	0	43	0	634388480	64	4255
2026-01-27 22:53:46.45	83.36	28.90	-46.4	-47.9	19.1	0.00e+00	0	43	0	636485632	64	4270
2026-01-27 22:53:47.45	83.69	28.91	-46.4	-47.9	19.1	0.00e+00	0	44	0	637534208	64	4276
2026-01-27 22:53:48.46	84.02	28.93	-46.3	-47.8	19.1	0.00e+00	0	43	0	639631360	64	4214
2026-01-27 22:53:49.46	84.35	28.94	-46.3	-47.8	19.2	0.00e+00	0	43	0	641728512	64	4214
2026-01-27 22:53:50.47	84.68	28.96	-46.1	-47.6	19.3	0.00e+00	0	43	0	643825664	64	4134
2026-01-27 22:53:51.48	85.02	28.97	-46.2	-47.7	19.3	0.00e+00	0	43	0	644874240	64	4154
2026-01-27 22:53:52.49	85.35	28.98	-46.2	-47.7	19.4	0.00e+00	0	43	0	646971392	63	4402
2026-01-27 22:53:53.49	85.68	28.99	-46.5	-48.0	19.0	0.00e+00	0	43	0	649068544	63	4577
2026-01-27 22:53:54.50	86.02	29.00	-46.6	-48.2	18.9	0.00e+00	0	43	0	651165696	63	4689
2026-01-27 22:53:55.51	86.35	29.01	-46.7	-48.2	18.9	0.00e+00	0	43	0	653262848	63	4696
2026-01-27 22:53:56.52	86.69	29.02	-46.5	-48.0	19.0	0.00e+00	0	43	0	655360000	64	4332
2026-01-27 22:53:57.52	87.02	29.02	-46.3	-47.8	19.2	0.00e+00	0	43	0	656408576	64	4210
2026-01-27 22:53:58.53	87.35	29.03	-46.1	-47.6	19.4	0.00e+00	0	43	0	658505728	64	4105
2026-01-27 22:53:59.54	87.69	29.03	-46.0	-47.4	19.6	0.00e+00	0	43	0	660602880	63	4287
2026-01-27 22:54:00.54	88.02	29.04	-46.3	-47.8	19.2	0.00e+00	0	43	0	662700032	63	4450
2026-01-27 22:54:01.55	88.36	29.04	-46.7	-48.4	18.7	0.00e+00	0	43	0	663748608	64	4495
2026-01-27 22:54:02.55	88.69	29.04	-47.3	-49.1	18.0	0.00e+00	0	43	0	665845760	65	4601
2026-01-27 22:54:03.56	89.02	29.04	-47.4	-49.2	17.8	0.00e+00	0	43	0	667942912	65	4698
2026-01-27 22:54:04.56	89.36	29.04	-47.4	-49.2	17.8	0.00e+00	0	43	0	670040064	65	4704
2026-01-27 22:54:05.57	89.69	29.04	-47.3	-49.0	18.0	0.00e+00	0	43	0	672137216	65	4573
2026-01-27 22:54:06.58	90.03	29.04	-47.5	-49.4	17.7	0.00e+00	0	43	0	673185792	65	4787
2026-01-27 22:54:07.59	90.36	29.03	-47.5	-49.4	17.7	0.00e+00	0	43	0	675282944	65	4790
2026-01-27 22:54:08.59	90.69	29.03	-47.3	-49.0	18.0	0.00e+00	0	43	0	677380096	65	4587
2026-01-27 22:54:09.60	91.03	29.02	-46.7	-48.2	18.8	0.00e+00	0	43	0	679477248	65	4179
2026-01-27 22:54:10.61	91.36	29.01	-46.1	-47.6	19.4	0.00e+00	0	43	0	681574400	64	4100
2026-01-27 22:54:11.61	91.70	29.01	-45.7	-47.1	19.9	0.00e+00	0	43	0	683671552	63	4112
2026-01-27 22:54:12.62	92.03	29.00	-45.7	-47.0	20.0	0.00e+00	0	43	0	684720128	63	4087
2026-01-27 22:54:13.63	92.37	28.99	-46.0	-47.4	19.7	0.00e+00	0	43	0	686817280	63	4260
2026-01-27 22:54:14.64	92.70	28.97	-46.7	-48.2	18.9	0.00e+00	0	43	0	688914432	63	4698
2026-01-27 22:54:15.65	93.03	28.96	-47.2	-48.9	18.1	0.00e+00	0	43	0	691011584	64	4779
2026-01-27 22:54:16.65	93.36	28.95	-47.5	-49.3	17.7	0.00e+00	0	43	0	693108736	65	4756
2026-01-27 22:54:17.66	93.70	28.93	-47.8	-49.7	17.4	0.00e+00	0	43	0	694157312	66	4689
2026-01-27 22:54:18.67	94.03	28.92	-47.8	-49.8	17.2	0.00e+00	0	43	0	696254464	66	4706
2026-01-27 22:54:19.68	94.36	28.90	-47.8	-49.8	17.3	0.00e+00	0	43	0	698351616	66	4721
2026-01-27 22:54:20.69	94.70	28.89	-47.8	-49.7	17.4	0.00e+00	0	43	0	700448768	66	4690
2026-01-27 22:54:21.69	95.03	28.87	-47.8	-49.7	17.5	0.00e+00	0	43	0	701497344	66	4700
2026-01-27 22:54:22.70	95.36	28.85	-47.4	-49.2	17.8	0.00e+00	0	43	0	703594496	66	4434
2026-01-27 22:54:23.70	95.68	28.83	-47.2	-49.0	18.1	0.00e+00	0	43	0	705691648	66	4293
2026-01-27 22:54:24.71	96.02	28.81	-47.3	-49.0	18.1	0.00e+00	0	43	0	707788800	66	4321
2026-01-27 22:54:25.71	96.34	28.78	-47.7	-49.6	17.5	0.00e+00	0	43	0	709885952	66	4641
2026-01-27 22:54:26.72	96.67	28.76	-48.6	-50.9	16.2	0.00e+00	0	43	0	711983104	67	5080
2026-01-27 22:54:27.73	97.00	28.74	-49.1	-51.6	15.5	0.00e+00	0	43	0	713031680	69	4918
2026-01-27 22:54:28.73	97.33	28.71	-49.7	-52.6	14.9	0.00e+00	0	43	0	715128832	69	5478
2026-01-27 22:54:29.74	97.66	28.69	-49.4	-52.2	15.0	0.00e+00	0	43	0	717225984	69	5264
2026-01-27 22:54:30.75	97.99	28.66	-49.2	-51.8	15.4	0.00e+00	0	43	0	719323136	69	5015
2026-01-27 22:54:31.76	98.31	28.63	-49.0	-51.4	15.8	0.00e+00	0	43	0	721420288	69	4778
2026-01-27 22:54:32.77	98.64	28.60	-49.2	-51.7	15.5	0.00e+00	0	43	0	722468864	69	4976
2026-01-27 22:54:33.77	98.96	28.57	-48.9	-51.3	15.9	0.00e+00	0	43	0	724566016	69	4719
2026-01-27 22:54:34.78	99.29	28.54	-48.9	-51.3	15.9	0.00e+00	0	43	0	726663168	69	4710
2026-01-27 22:54:35.79	99.61	28.51	-48.8	-51.1	16.1	0.00e+00	0	43	0	728760320	69	4610
2026-01-27 22:54:36.80	99.94	28.47	-47.5	-49.3	17.7	0.00e+00	0	43	0	730857472	66	4472
2026-01-27 22:54:37.81	100.26	28.44	-47.5	-49.4	17.7	0.00e+00	0	43	0	731906048	66	4506
2026-01-27 22:54:38.82	100.59	28.41	-47.5	-49.4	17.7	0.00e+00	0	43	0	734003200	66	4501
2026-01-27 22:54:39.83	100.91	28.37	-48.2	-50.3	16.8	0.00e+00	0	43	0	736100352	66	5031
2026-01-27 22:54:40.84	101.23	28.33	-48.4	-50.7	16.4	0.00e+00	0	43	0	738197504	67	4947
2026-01-27 22:54:41.85	101.55	28.29	-48.1	-50.2	16.9	0.00e+00	0	43	0	740294656	67	4685
2026-01-27 22:54:42.86	101.87	28.26	-47.7	-49.6	17.4	0.00e+00	0	43	0	741343232	67	4384
2026-01-27 22:54:43.87	102.19	28.22	-47.0	-48.7	18.4	0.00e+00	0	43	0	743440384	65	4395
2026-01-27 22:54:44.87	102.51	28.18	-47.0	-48.7	18.3	0.00e+00	0	43	0	745537536	65	4419
2026-01-27 22:54:45.88	102.83	28.14	-47.0	-48.7	18.4	0.00e+00	0	43	0	747634688	65	4395
2026-01-27 22:54:46.89	103.14	28.09	-47.0	-48.7	18.4	0.00e+00	0	43	0	749731840	65	4427
2026-01-27 22:54:47.89	103.46	28.05	-46.8	-48.4	18.6	0.00e+00	0	43	0	750780416	65	4261
2026-01-27 22:54:48.90	103.77	28.01	-46.5	-48.0	19.0	0.00e+00	0	43	0	752877568	65	4088
2026-01-27 22:54:49.91	104.09	27.96	-46.2	-47.7	19.3	0.00e+00	0	43	0	754974720	64	4171
2026-01-27 22:54:50.91	104.40	27.92	-46.1	-47.6	19.3	0.00e+00	0	43	0	757071872	64	4100
2026-01-27 22:54:51.92	104.71	27.87	-46.3	-47.8	19.2	0.00e+00	0	43	0	759169024	64	4231
2026-01-27 22:54:52.93	105.02	27.82	-46.7	-48.3	18.7	0.00e+00	0	43	0	760217600	64	4478
2026-01-27 22:54:53.93	105.33	27.78	-46.9	-48.6	18.3	0.00e+00	0	43	0	762314752	64	4636
2026-01-27 22:54:54.94	105.64	27.73	-47.0	-48.7	18.3	0.00e+00	0	43	0	764411904	64	4655
2026-01-27 22:54:55.95	105.95	27.68	-47.2	-49.0	18.1	0.00e+00	0	43	0	766509056	64	4815
2026-01-27 22:54:56.95	106.25	27.63	-46.6	-48.2	18.7	0.00e+00	0	43	0	768606208	65	4173
2026-01-27 22:54:57.96	106.56	27.58	-46.4	-48.0	19.0	0.00e+00	0	43	0	769654784	64	4304
2026-01-27 22:54:58.97	106.87	27.53	-46.5	-48.0	18.9	0.00e+00	0	43	0	771751936	64	4333
2026-01-27 22:54:59.97	107.17	27.47	-46.4	-47.9	19.1	0.00e+00	0	43	0	773849088	64	4271
2026-01-27 22:55:00.98	107.48	27.42	-46.7	-48.3	18.7	0.00e+00	0	43	0	775946240	64	4457
2026-01-27 22:55:01.99	107.78	27.37	-46.6	-48.2	18.7	0.00e+00	0	43	0	778043392	64	4405
2026-01-27 22:55:03.00	108.08	27.31	-46.6	-48.2	18.7	0.00e+00	0	43	0	779091968	64	4439
2026-01-27 22:55:04.00	108.38	27.26	-46.3	-47.8	19.1	0.00e+00	0	43	0	781189120	64	4228
2026-01-27 22:55:05.00	108.68	27.20	-46.2	-47.7	19.3	0.00e+00	0	43	0	783286272	64	4156
2026-01-27 22:55:06.01	108.98	27.14	-46.2	-47.6	19.3	0.00e+00	0	43	0	785383424	64	4139
2026-01-27 22:55:07.02	109.28	27.09	-46.4	-47.9	19.0	0.00e+00	0	43	0	787480576	64	4290
2026-01-27 22:55:08.02	109.57	27.03	-46.1	-47.6	19.3	0.00e+00	0	43	0	788529152	64	4119
2026-01-27 22:55:09.03	109.87	26.97	-46.1	-47.6	19.3	0.00e+00	0	43	0	790626304	64	4106
2026-01-27 22:55:10.04	110.16	26.91	-46.3	-47.7	19.2	0.00e+00	0	43	0	792723456	64	4193
2026-01-27 22:55:11.05	110.46	26.85	-46.1	-47.5	19.5	0.00e+00	0	43	0	794820608	63	4311
2026-01-27 22:55:12.06	110.75	26.79	-45.9	-47.3	19.6	0.00e+00	0	43	0	796917760	63	4198
2026-01-27 22:55:13.06	111.04	26.73	-46.0	-47.4	19.6	0.00e+00	0	43	0	797966336	63	4258
2026-01-27 22:55:14.07	111.33	26.66	-46.5	-48.0	19.1	0.00e+00	0	43	0	800063488	63	4591
2026-01-27 22:55:15.08	111.62	26.60	-47.0	-48.6	18.4	0.00e+00	0	43	0	802160640	64	4638
2026-01-27 22:55:16.09	111.91	26.54	-47.3	-49.1	17.8	0.00e+00	0	43	0	804257792	65	4645
2026-01-27 22:55:17.09	112.19	26.47	-47.2	-48.9	18.0	0.00e+00	0	43	0	806354944	65	4538
2026-01-27 22:55:18.10	112.48	26.41	-47.0	-48.7	18.4	0.00e+00	0	43	0	807403520	65	4404
2026-01-27 22:55:19.11	112.76	26.34	-46.5	-48.0	18.9	0.00e+00	0	43	0	809500672	64	4322
2026-01-27 22:55:20.11	113.04	26.28	-46.4	-47.9	19.0	0.00e+00	0	43	0	811597824	64	4261
2026-01-27 22:55:21.12	113.33	26.21	-46.2	-47.7	19.2	0.00e+00	0	43	0	813694976	64	4193
2026-01-27 22:55:22.12	113.61	26.15	-46.4	-47.9	19.1	0.00e+00	0	43	0	815792128	64	4281
2026-01-27 22:55:23.12	113.88	26.08	-46.4	-47.9	18.9	0.00e+00	0	43	0	816840704	64	4261
2026-01-27 22:55:24.13	114.16	26.01	-46.4	-47.9	18.9	0.00e+00	0	43	0	818937856	64	4287
2026-01-27 22:55:25.13	114.44	25.94	-46.2	-47.7	19.1	0.00e+00	0	43	0	821035008	64	4178
2026-01-27 22:55:26.14	114.72	25.87	-46.0	-47.4	19.6	0.00e+00	0	43	0	823132160	63	4247
2026-01-27 22:55:27.15	114.99	25.80	-46.0	-47.4	19.6	0.00e+00	0	43	0	825229312	63	4283
2026-01-27 22:55:28.16	115.27	25.73	-46.3	-47.8	19.3	0.00e+00	0	43	0	826277888	63	4464
2026-01-27 22:55:29.17	115.54	25.66	-46.6	-48.1	18.9	0.00e+00	0	43	0	828375040	63	4628
2026-01-27 22:55:30.17	115.81	25.59	-47.0	-48.7	18.3	0.00e+00	0	43	0	830472192	64	4678
2026-01-27 22:55:31.18	116.08	25.52	-46.8	-48.5	18.6	0.00e+00	0	43	0	832569344	64	4560
2026-01-27 22:55:32.19	116.35	25.45	-46.4	-47.9	19.0	0.00e+00	0	43	0	834666496	64	4261
2026-01-27 22:55:33.19	116.62	25.38	-46.1	-47.6	19.3	0.00e+00	0	43	0	835715072	64	4129
2026-01-27 22:55:34.20	116.89	25.30	-46.0	-47.4	19.6	0.00e+00	0	43	0	837812224	63	4283
2026-01-27 22:55:35.21	117.15	25.23	-45.9	-47.3	19.6	0.00e+00	0	43	0	839909376	63	4222
2026-01-27 22:55:36.21	117.41	25.16	-46.1	-47.5	19.5	0.00e+00	0	43	0	842006528	63	4313
2026-01-27 22:55:37.22	117.68	25.08	-46.0	-47.4	19.6	0.00e+00	0	43	0	844103680	63	4287
2026-01-27 22:55:38.23	117.94	25.01	-45.8	-47.2	19.7	0.00e+00	0	43	0	845152256	63	4175
2026-01-27 22:55:39.23	118.20	24.93	-45.6	-46.9	20.0	0.00e+00	0	43	0	847249408	63	4022
2026-01-27 22:55:40.24	118.46	24.86	-45.5	-46.8	20.1	0.00e+00	0	43	0	849346560	62	4216
2026-01-27 22:55:41.25	118.72	24.78	-45.4	-46.7	20.2	0.00e+00	0	43	0	851443712	62	4157
2026-01-27 22:55:42.25	118.97	24.71	-45.3	-46.6	20.4	0.00e+00	0	43	0	853540864	62	4113
2026-01-27 22:55:43.26	119.23	24.63	-45.5	-46.8	20.1	0.00e+00	0	43	0	854589440	62	4233
2026-01-27 22:55:44.27	119.49	24.55	-45.8	-47.2	19.7	0.00e+00	0	43	0	856686592	62	4396
2026-01-27 22:55:45.27	119.74	24.48	-46.1	-47.5	19.4	0.00e+00	0	43	0	858783744	63	4321
2026-01-27 22:55:46.28	119.99	24.40	-46.1	-47.6	19.3	0.00e+00	0	43	0	860880896	63	4352
2026-01-27 22:55:47.29	120.24	24.32	-45.5	-46.8	20.0	0.00e+00	0	43	0	862978048	63	3990
2026-01-27 22:55:48.29	120.49	24.24	-44.9	-46.1	20.7	0.00e+00	0	43	0	864026624	61	4139
2026-01-27 22:55:49.30	120.74	24.16	-44.3	-45.4	21.2	0.00e+00	0	43	0	866123776	60	4049
2026-01-27 22:55:50.31	120.99	24.09	-44.3	-45.4	21.6	0.00e+00	0	43	0	868220928	59	4260
2026-01-27 22:55:51.32	121.24	24.01	-44.4	-45.5	21.2	0.00e+00	0	43	0	870318080	60	4094
2026-01-27 22:55:52.32	121.48	23.93	-44.9	-46.1	20.7	0.00e+00	0	43	0	872415232	60	4382
2026-01-27 22:55:53.33	121.72	23.85	-45.4	-46.8	20.2	0.00e+00	0	43	0	873463808	61	4444
2026-01-27 22:55:54.34	121.97	23.77	-45.6	-46.9	20.0	0.00e+00	0	43	0	875560960	61	4525
2026-01-27 22:55:55.34	122.21	23.69	-45.3	-46.6	20.2	0.00e+00	0	43	0	877658112	61	4368
2026-01-27 22:55:56.35	122.45	23.61	-45.1	-46.3	20.5	0.00e+00	0	43	0	879755264	61	4231
2026-01-27 22:55:57.35	122.69	23.53	-44.8	-46.0	20.7	0.00e+00	0	43	0	881852416	61	4083
2026-01-27 22:55:58.36	122.92	23.45	-44.9	-46.2	20.6	0.00e+00	0	43	0	882900992	61	4150
2026-01-27 22:55:59.37	123.16	23.36	-45.2	-46.4	20.2	0.00e+00	0	43	0	884998144	61	4287
2026-01-27 22:56:00.37	123.40	23.28	-45.7	-47.0	19.9	0.00e+00	0	43	0	887095296	61	4581
2026-01-27 22:56:01.38	123.63	23.20	-45.8	-47.2	19.7	0.00e+00	0	43	0	889192448	62	4409
2026-01-27 22:56:02.39	123.86	23.12	-45.3	-46.6	20.3	0.00e+00	0	43	0	891289600	62	4121
2026-01-27 22:56:03.40	124.10	23.04	-45.2	-46.4	20.4	0.00e+00	0	43	0	892338176	62	4050
2026-01-27 22:56:04.41	124.33	22.95	-44.4	-45.5	21.2	0.00e+00	0	43	0	894435328	60	4088
2026-01-27 22:56:05.41	124.56	22.87	-44.2	-45.4	21.4	0.00e+00	0	43	0	896532480	60	4007
2026-01-27 22:56:06.42	124.78	22.79	-44.6	-45.8	20.9	0.00e+00	0	43	0	898629632	60	4217
2026-01-27 22:56:07.42	125.01	22.71	-45.1	-46.4	20.4	0.00e+00	0	43	0	900726784	60	4533
2026-01-27 22:56:08.43	125.24	22.62	-46.0	-47.5	19.5	0.00e+00	0	43	0	901775360	62	4583
2026-01-27 22:56:09.44	125.46	22.54	-46.5	-48.2	18.8	0.00e+00	0	43	0	903872512	63	4652
2026-01-27 22:56:10.44	125.68	22.46	-46.4	-48.0	18.8	0.00e+00	0	43	0	905969664	64	4326
2026-01-27 22:56:11.45	125.91	22.37	-45.9	-47.4	19.4	0.00e+00	0	43	0	908066816	63	4250
2026-01-27 22:56:12.46	126.13	22.29	-45.4	-46.8	19.9	0.00e+00	0	43	0	910163968	62	4209
2026-01-27 22:56:13.47	126.35	22.20	-45.3	-46.6	20.2	0.00e+00	0	43	0	911212544	62	4124
2026-01-27 22:56:14.47	126.57	22.12	-44.8	-46.0	20.7	0.00e+00	0	43	0	913309696	61	4056
2026-01-27 22:56:15.48	126.79	22.04	-44.6	-45.8	20.8	0.00e+00	0	43	0	915406848	61	3989
2026-01-27 22:56:16.48	127.00	21.95	-44.5	-45.6	20.9	0.00e+00	0	43	0	917504000	60	4132
2026-01-27 22:56:17.49	127.22	21.87	-44.6	-45.9	20.8	0.00e+00	0	43	0	919601152	60	4248
2026-01-27 22:56:18.49	127.43	21.78	-44.6	-45.8	20.8	0.00e+00	0	43	0	920649728	60	4229
2026-01-27 22:56:19.49	127.64	21.70	-44.2	-45.4	21.2	0.00e+00	0	43	0	922746880	60	4010
2026-01-27 22:56:20.50	127.85	21.61	-44.4	-45.5	21.1	0.00e+00	0	43	0	924844032	60	4076
2026-01-27 22:56:21.51	128.07	21.53	-44.8	-46.0	20.7	0.00e+00	0	43	0	926941184	60	4307
2026-01-27 22:56:22.52	128.28	21.44	-45.1	-46.4	20.3	0.00e+00	0	43	0	929038336	60	4507
2026-01-27 22:56:23.52	128.48	21.36	-46.0	-47.5	19.3	0.00e+00	0	43	0	930086912	62	4553
2026-01-27 22:56:24.53	128.69	21.27	-46.7	-48.4	18.5	0.00e+00	0	43	0	932184064	63	4773
2026-01-27 22:56:25.53	128.90	21.19	-47.2	-49.1	17.6	0.00e+00	0	43	0	934281216	65	4619
2026-01-27 22:56:26.54	129.10	21.10	-47.4	-49.4	17.4	0.00e+00	0	43	0	936378368	65	4786
2026-01-27 22:56:27.54	129.31	21.02	-47.0	-48.9	17.9	0.00e+00	0	43	0	938475520	65	4497
2026-01-27 22:56:28.54	129.51	20.93	-46.8	-48.5	18.2	0.00e+00	0	43	0	939524096	65	4335
2026-01-27 22:56:29.55	129.71	20.85	-46.4	-48.0	18.7	0.00e+00	0	43	0	941621248	64	4306
2026-01-27 22:56:30.56	129.91	20.76	-45.6	-47.0	19.7	0.00e+00	0	43	0	943718400	63	4056
2026-01-27 22:56:31.57	130.11	20.67	-45.4	-46.7	20.0	0.00e+00	0	43	0	945815552	62	4170
2026-01-27 22:56:32.57	130.31	20.59	-45.6	-47.0	19.7	0.00e+00	0	43	0	947912704	62	4302
2026-01-27 22:56:33.58	130.51	20.50	-45.6	-47.0	19.8	0.00e+00	0	43	0	948961280	62	4292
2026-01-27 22:56:34.59	130.71	20.42	-45.5	-46.9	19.8	0.00e+00	0	43	0	951058432	62	4251
2026-01-27 22:56:35.59	130.90	20.33	-45.2	-46.6	20.1	0.00e+00	0	43	0	953155584	62	4101
2026-01-27 22:56:36.59	131.09	20.25	-44.8	-46.0	20.6	0.00e+00	0	43	0	955252736	61	4090
2026-01-27 22:56:37.60	131.29	20.16	-44.7	-45.9	20.7	0.00e+00	0	43	0	957349888	61	4010
2026-01-27 22:56:38.61	131.48	20.07	-44.6	-45.8	20.8	0.00e+00	0	43	0	958398464	61	3982
2026-01-27 22:56:39.61	131.67	19.99	-44.3	-45.4	21.0	0.00e+00	0	43	0	960495616	60	4048
2026-01-27 22:56:40.61	131.86	19.90	-44.5	-45.7	20.8	0.00e+00	0	43	0	962592768	60	4186
2026-01-27 22:56:41.62	132.05	19.82	-44.6	-45.8	20.8	0.00e+00	0	43	0	964689920	60	4205
2026-01-27 22:56:42.62	132.24	19.73	-44.9	-46.2	20.4	0.00e+00	0	43	0	966787072	60	4418
2026-01-27 22:56:43.63	132.42	19.64	-45.0	-46.3	20.3	0.00e+00	0	43	0	967835648	60	4442
2026-01-27 22:56:44.63	132.61	19.56	-45.1	-46.4	20.2	0.00e+00	0	43	0	969932800	61	4277
2026-01-27 22:56:45.64	132.79	19.47	-45.0	-46.3	20.3	0.00e+00	0	43	0	972029952	61	4197
2026-01-27 22:56:46.64	132.98	19.39	-45.0	-46.4	20.2	0.00e+00	0	43	0	974127104	61	4244
2026-01-27 22:56:47.65	133.16	19.30	-44.8	-46.1	20.4	0.00e+00	0	43	0	976224256	61	4126
2026-01-27 22:56:48.66	133.34	19.22	-44.8	-46.0	20.5	0.00e+00	0	43	0	977272832	61	4074
2026-01-27 22:56:49.66	133.52	19.13	-45.1	-46.4	20.2	0.00e+00	0	43	0	979369984	61	4268
2026-01-27 22:56:50.67	133.71	19.04	-45.2	-46.6	20.0	0.00e+00	0	43	0	981467136	61	4342
2026-01-27 22:56:51.68	133.88	18.96	-45.6	-47.0	19.6	0.00e+00	0	43	0	983564288	61	4570
2026-01-27 22:56:52.69	134.06	18.87	-45.7	-47.2	19.4	0.00e+00	0	43	0	984612864	62	4416
2026-01-27 22:56:53.69	134.24	18.79	-45.7	-47.1	19.5	0.00e+00	0	43	0	986710016	62	4375
2026-01-27 22:56:54.70	134.42	18.70	-45.5	-47.0	19.7	0.00e+00	0	43	0	988807168	62	4297
2026-01-27 22:56:55.71	134.59	18.61	-45.2	-46.5	20.0	0.00e+00	0	43	0	990904320	62	4083
2026-01-27 22:56:56.72	134.77	18.53	-44.8	-46.1	20.5	0.00e+00	0	43	0	993001472	61	4102
2026-01-27 22:56:57.72	134.94	18.44	-44.5	-45.8	20.7	0.00e+00	0	43	0	995098624	60	4207
2026-01-27 22:56:58.73	135.11	18.36	-44.6	-45.8	20.7	0.00e+00	0	43	0	996147200	60	4226
2026-01-27 22:56:59.74	135.29	18.27	-44.2	-45.4	21.0	0.00e+00	0	43	0	998244352	60	4039
2026-01-27 22:57:00.74	135.45	18.19	-44.2	-45.4	21.0	0.00e+00	0	43	0	1000341504	60	4033
2026-01-27 22:57:01.74	135.62	18.10	-44.5	-45.7	20.7	0.00e+00	0	43	0	1002438656	60	4188
2026-01-27 22:57:02.75	135.79	18.01	-44.3	-45.5	20.9	0.00e+00	0	43	0	1004535808	60	4074
2026-01-27 22:57:03.76	135.96	17.93	-44.4	-45.6	20.8	0.00e+00	0	43	0	1005584384	60	4130
2026-01-27 22:57:04.77	136.13	17.84	-44.2	-45.3	21.1	0.00e+00	0	43	0	1007681536	60	3991
2026-01-27 22:57:05.77	136.29	17.76	-44.1	-45.3	21.1	0.00e+00	0	43	0	1009778688	60	3979
2026-01-27 22:57:06.78	136.46	17.67	-44.1	-45.3	21.1	0.00e+00	0	43	0	1011875840	60	3979
2026-01-27 22:57:07.79	136.62	17.59	-44.4	-45.5	21.1	0.00e+00	0	43	0	1012924416	59	4328
2026-01-27 22:57:08.80	136.79	17.50	-44.5	-45.7	21.0	0.00e+00	0	43	0	1015021568	59	4392
2026-01-27 22:57:09.80	136.95	17.42	-44.5	-45.7	21.0	0.00e+00	0	43	0	1017118720	59	4403
2026-01-27 22:57:10.81	137.11	17.33	-44.5	-45.7	21.0	0.00e+00	0	43	0	1019215872	59	4420
2026-01-27 22:57:11.81	137.27	17.25	-44.4	-45.6	20.8	0.00e+00	0	43	0	1021313024	60	4145
2026-01-27 22:57:12.82	137.43	17.16	-44.4	-45.7	20.7	0.00e+00	0	43	0	1023410176	60	4160
2026-01-27 22:57:13.82	137.59	17.08	-44.6	-45.8	20.6	0.00e+00	0	43	0	1024458752	60	4225
2026-01-27 22:57:14.83	137.75	17.00	-44.8	-46.0	20.4	0.00e+00	0	43	0	1026555904	60	4336
2026-01-27 22:57:15.83	137.90	16.91	-44.7	-46.0	20.5	0.00e+00	0	43	0	1028653056	60	4321
2026-01-27 22:57:16.84	138.06	16.83	-44.6	-45.9	20.5	0.00e+00	0	43	0	1030750208	60	4255
2026-01-27 22:57:17.85	138.22	16.74	-44.7	-46.0	20.4	0.00e+00	0	43	0	1032847360	60	4314
2026-01-27 22:57:18.85	138.37	16.66	-44.7	-46.0	20.4	0.00e+00	0	43	0	1033895936	60	4319
2026-01-27 22:57:19.86	138.53	16.57	-44.6	-45.8	20.5	0.00e+00	0	43	0	1035993088	60	4241
2026-01-27 22:57:20.86	138.68	16.49	-44.4	-45.7	20.7	0.00e+00	0	43	0	1038090240	60	4159
2026-01-27 22:57:21.87	138.83	16.41	-44.4	-45.7	20.6	0.00e+00	0	43	0	1040187392	60	4165
2026-01-27 22:57:22.88	138.98	16.32	-44.4	-45.6	20.7	0.00e+00	0	43	0	1041235968	60	4130
2026-01-27 22:57:23.88	139.13	16.24	-44.4	-45.6	20.7	0.00e+00	0	43	0	1043333120	60	4129
2026-01-27 22:57:24.89	139.28	16.16	-44.3	-45.5	20.9	0.00e+00	0	43	0	1045430272	60	4062
2026-01-27 22:57:25.89	139.43	16.07	-44.3	-45.5	20.8	0.00e+00	0	43	0	1047527424	60	4096
2026-01-27 22:57:26.90	139.58	15.99	-44.4	-45.6	20.7	0.00e+00	0	43	0	1049624576	60	4126
2026-01-27 22:57:27.91	139.73	15.90	-44.3	-45.5	20.8	0.00e+00	0	43	0	1051721728	60	4098
2026-01-27 22:57:28.91	139.87	15.82	-44.6	-45.8	20.5	0.00e+00	0	43	0	1052770304	60	4240
2026-01-27 22:57:29.92	140.02	15.74	-44.7	-46.0	20.4	0.00e+00	0	43	0	1054867456	60	4296
2026-01-27 22:57:30.93	140.16	15.66	-44.4	-45.6	20.7	0.00e+00	0	43	0	1056964608	60	4139
2026-01-27 22:57:31.94	140.31	15.57	-44.6	-45.8	20.5	0.00e+00	0	43	0	1059061760	60	4234
2026-01-27 22:57:32.94	140.45	15.49	-44.4	-45.7	20.7	0.00e+00	0	43	0	1061158912	60	4151
2026-01-27 22:57:33.95	140.59	15.41	-44.4	-45.6	20.7	0.00e+00	0	43	0	1062207488	60	4132
2026-01-27 22:57:34.95	140.74	15.33	-44.2	-45.4	20.9	0.00e+00	0	43	0	1064304640	60	4009
2026-01-27 22:57:35.96	140.88	15.24	-44.1	-45.3	20.9	0.00e+00	0	43	0	1066401792	60	3993
2026-01-27 22:57:36.96	141.02	15.16	-44.4	-45.6	20.6	0.00e+00	0	43	0	1068498944	60	4134
2026-01-27 22:57:37.97	141.16	15.08	-44.4	-45.6	20.7	0.00e+00	0	43	0	1069547520	60	4130
2026-01-27 22:57:38.98	141.30	15.00	-44.6	-45.9	20.4	0.00e+00	0	43	0	1071644672	60	4262
2026-01-27 22:57:39.99	141.44	14.91	-44.9	-46.3	20.1	0.00e+00	0	43	0	1073741824	60	4444
2026-01-27 22:57:40.99	141.57	14.83	-45.1	-46.5	19.9	0.00e+00	0	43	0	1075838976	60	4553
2026-01-27 22:57:42.00	141.71	14.75	-45.6	-47.1	19.4	0.00e+00	0	43	0	1077936128	61	4614
2026-01-27 22:57:43.01	141.85	14.67	-45.6	-47.1	19.3	0.00e+00	0	43	0	1080033280	61	4646
2026-01-27 22:57:44.01	141.98	14.59	-45.8	-47.3	19.1	0.00e+00	0	43	0	1081081856	62	4475
2026-01-27 22:57:45.02	142.12	14.51	-46.0	-47.5	18.9	0.00e+00	0	43	0	1083179008	62	4591
2026-01-27 22:57:46.02	142.25	14.43	-45.9	-47.5	18.9	0.00e+00	0	43	0	1085276160	62	4583
2026-01-27 22:57:47.03	142.38	14.35	-45.6	-47.1	19.2	0.00e+00	0	43	0	1087373312	62	4387
2026-01-27 22:57:48.04	142.51	14.26	-45.5	-46.9	19.4	0.00e+00	0	43	0	1089470464	62	4268
2026-01-27 22:57:49.04	142.65	14.18	-45.2	-46.6	19.7	0.00e+00	0	43	0	1090519040	62	4142
2026-01-27 22:57:50.05	142.78	14.10	-45.3	-46.6	19.7	0.00e+00	0	43	0	1092616192	62	4145
2026-01-27 22:57:51.05	142.91	14.02	-45.1	-46.4	20.0	0.00e+00	0	43	0	1094713344	62	4023
2026-01-27 22:57:52.06	143.04	13.94	-45.1	-46.5	19.8	0.00e+00	0	43	0	1096810496	62	4055
2026-01-27 22:57:53.06	143.17	13.86	-45.2	-46.6	19.7	0.00e+00	0	43	0	1097859072	62	4105
2026-01-27 22:57:54.07	143.29	13.78	-45.4	-46.8	19.6	0.00e+00	0	43	0	1099956224	62	4222
2026-01-27 22:57:55.07	143.42	13.70	-45.6	-47.0	19.3	0.00e+00	0	43	0	1102053376	62	4338
2026-01-27 22:57:56.08	143.55	13.62	-45.8	-47.4	19.0	0.00e+00	0	43	0	1104150528	62	4502
2026-01-27 22:57:57.09	143.68	13.54	-46.2	-47.8	18.7	0.00e+00	0	43	0	1106247680	62	4740
2026-01-27 22:57:58.09	143.80	13.46	-46.7	-48.4	18.0	0.00e+00	0	43	0	1108344832	63	4813
2026-01-27 22:57:59.10	143.93	13.38	-46.6	-48.4	18.0	0.00e+00	0	43	0	1109393408	64	4513
2026-01-27 22:58:00.11	144.05	13.30	-46.7	-48.6	17.8	0.00e+00	0	43	0	1111490560	64	4609
2026-01-27 22:58:01.11	144.17	13.23	-46.9	-48.8	17.5	0.00e+00	0	43	0	1113587712	64	4741
2026-01-27 22:58:02.12	144.30	13.15	-47.0	-49.0	17.4	0.00e+00	0	43	0	1115684864	64	4830
2026-01-27 22:58:03.12	144.42	13.07	-46.8	-48.7	17.6	0.00e+00	0	43	0	1117782016	64	4677
2026-01-27 22:58:04.13	144.54	12.99	-46.7	-48.6	17.7	0.00e+00	0	43	0	1118830592	64	4617
2026-01-27 22:58:05.14	144.66	12.91	-46.7	-48.5	17.8	0.00e+00	0	43	0	1120927744	64	4583
2026-01-27 22:58:06.14	144.78	12.83	-46.8	-48.7	17.6	0.00e+00	0	43	0	1123024896	64	4687
2026-01-27 22:58:07.15	144.90	12.75	-46.6	-48.4	17.9	0.00e+00	0	43	0	1125122048	64	4509
2026-01-27 22:58:08.16	145.02	12.68	-46.5	-48.2	18.1	0.00e+00	0	43	0	1126170624	64	4411
2026-01-27 22:58:09.17	145.14	12.60	-46.7	-48.5	17.9	0.00e+00	0	43	0	1128267776	64	4550
2026-01-27 22:58:10.17	145.26	12.52	-46.5	-48.2	18.1	0.00e+00	0	43	0	1130364928	64	4418
2026-01-27 22:58:11.18	145.38	12.44	-46.4	-48.1	18.2	0.00e+00	0	43	0	1132462080	64	4371
2026-01-27 22:58:12.19	145.50	12.36	-46.3	-48.0	18.3	0.00e+00	0	43	0	1134559232	64	4306
2026-01-27 22:58:13.20	145.61	12.29	-46.3	-48.0	18.2	0.00e+00	0	43	0	1136656384	64	4340
2026-01-27 22:58:14.21	145.73	12.21	-46.5	-48.2	18.1	0.00e+00	0	43	0	1137704960	64	4427
2026-01-27 22:58:15.21	145.85	12.13	-46.4	-48.2	18.1	0.00e+00	0	43	0	1139802112	64	4395
2026-01-27 22:58:16.22	145.96	12.05	-46.3	-48.0	18.3	0.00e+00	0	43	0	1141899264	64	4309
2026-01-27 22:58:17.23	146.07	11.98	-46.2	-47.9	18.3	0.00e+00	0	43	0	1143996416	64	4262
2026-01-27 22:58:18.23	146.19	11.90	-46.0	-47.6	18.6	0.00e+00	0	43	0	1146093568	64	4126
2026-01-27 22:58:19.24	146.30	11.82	-45.9	-47.5	18.8	0.00e+00	0	43	0	1147142144	63	4321
2026-01-27 22:58:20.25	146.41	11.75	-45.8	-47.3	19.0	0.00e+00	0	43	0	1149239296	63	4234
2026-01-27 22:58:21.26	146.53	11.67	-45.7	-47.2	19.0	0.00e+00	0	43	0	1151336448	63	4180
2026-01-27 22:58:22.27	146.64	11.60	-45.9	-47.4	18.8	0.00e+00	0	43	0	1153433600	63	4285
2026-01-27 22:58:23.27	146.75	11.52	-45.7	-47.3	19.0	0.00e+00	0	43	0	1154482176	63	4196
2026-01-27 22:58:24.28	146.86	11.44	-45.7	-47.3	19.0	0.00e+00	0	43	0	1156579328	63	4196
2026-01-27 22:58:25.29	146.97	11.37	-45.7	-47.2	19.0	0.00e+00	0	43	0	1158676480	63	4183
2026-01-27 22:58:26.29	147.08	11.29	-45.6	-47.0	19.2	0.00e+00	0	43	0	1160773632	63	4090
2026-01-27 22:58:27.30	147.19	11.22	-45.7	-47.2	19.1	0.00e+00	0	43	0	1162870784	63	4151
2026-01-27 22:58:28.30	147.29	11.14	-45.8	-47.3	19.0	0.00e+00	0	43	0	1164967936	63	4218
2026-01-27 22:58:29.31	147.40	11.07	-45.8	-47.4	18.9	0.00e+00	0	43	0	1166016512	63	4246
2026-01-27 22:58:30.32	147.51	10.99	-46.1	-47.7	18.6	0.00e+00	0	43	0	1168113664	63	4412
2026-01-27 22:58:31.32	147.62	10.92	-46.2	-47.8	18.5	0.00e+00	0	43	0	1170210816	63	4465
2026-01-27 22:58:32.33	147.72	10.84	-46.3	-48.0	18.3	0.00e+00	0	43	0	1172307968	63	4554
2026-01-27 22:58:33.34	147.83	10.77	-46.4	-48.1	18.1	0.00e+00	0	43	0	1174405120	63	4631
2026-01-27 22:58:34.34	147.93	10.69	-46.4	-48.1	18.2	0.00e+00	0	43	0	1175453696	63	4641
2026-01-27 22:58:35.35	148.04	10.62	-46.6	-48.4	17.9	0.00e+00	0	43	0	1177550848	63	4778
2026-01-27 22:58:36.36	148.14	10.54	-46.5	-48.2	18.0	0.00e+00	0	43	0	1179648000	63	4703
2026-01-27 22:58:37.36	148.24	10.47	-46.5	-48.3	17.9	0.00e+00	0	43	0	1181745152	63	4742
2026-01-27 22:58:38.36	148.35	10.40	-46.8	-48.6	17.5	0.00e+00	0	43	0	1182793728	64	4646
2026-01-27 22:58:39.37	148.45	10.32	-46.7	-48.5	17.7	0.00e+00	0	43	0	1184890880	64	4580
2026-01-27 22:58:40.39	148.55	10.25	-46.6	-48.5	17.7	0.00e+00	0	43	0	1186988032	64	4551
2026-01-27 22:58:41.39	148.65	10.18	-46.5	-48.3	17.9	0.00e+00	0	43	0	1189085184	64	4475
2026-01-27 22:58:42.40	148.75	10.10	-46.2	-47.9	18.2	0.00e+00	0	43	0	1191182336	64	4286
2026-01-27 22:58:43.40	148.85	10.03	-46.4	-48.1	18.0	0.00e+00	0	43	0	1193279488	64	4389
2026-01-27 22:58:44.41	148.95	9.96	-46.1	-47.8	18.3	0.00e+00	0	43	0	1194328064	64	4205
2026-01-27 22:58:45.42	149.05	9.88	-46.2	-47.9	18.3	0.00e+00	0	43	0	1196425216	64	4261
2026-01-27 22:58:46.43	149.15	9.81	-46.1	-47.8	18.3	0.00e+00	0	43	0	1198522368	64	4218
2026-01-27 22:58:47.43	149.25	9.74	-46.0	-47.6	18.5	0.00e+00	0	43	0	1200619520	63	4388
2026-01-27 22:58:48.43	149.35	9.67	-46.2	-47.8	18.3	0.00e+00	0	43	0	1202716672	63	4479
2026-01-27 22:58:49.43	149.45	9.59	-46.1	-47.8	18.4	0.00e+00	0	43	0	1203765248	63	4462
2026-01-27 22:58:50.44	149.54	9.52	-45.9	-47.5	18.6	0.00e+00	0	43	0	1205862400	63	4338
2026-01-27 22:58:51.44	149.64	9.45	-46.3	-48.1	18.1	0.00e+00	0	43	0	1207959552	63	4611
2026-01-27 22:58:52.45	149.74	9.38	-46.3	-48.0	18.2	0.00e+00	0	43	0	1210056704	63	4569
2026-01-27 22:58:53.46	149.83	9.31	-46.2	-48.0	18.2	0.00e+00	0	43	0	1211105280	63	4546
2026-01-27 22:58:54.46	149.93	9.23	-46.3	-48.0	18.1	0.00e+00	0	43	0	1213202432	63	4579
2026-01-27 22:58:55.47	150.02	9.16	-46.3	-48.0	18.1	0.00e+00	0	43	0	1215299584	63	4556
