passes_logs/2026/01/27/R3.2S_Murmansk/R3.2S_Murmansk__20260127_082222_FENGYUN_3D_rec.log

#Pass ID: 20260127_082222_FENGYUN 3D
#Satellite: FENGYUN 3D
#Configuration: FENGYUN 3D
#almurnet v.1.7.20251203
#Start time: 2026-01-27 08:22:24

#Version: 2.2.20231116
#Station: R3.2S_Murmansk
#Location: 33.079688 lon 68.888172 lat
#TLE: 1 43010U 17072A   26026.49129444  .00000151  00000+0  93391-4 0  9993
#TLE: 2 43010  98.9962 358.4866 0002525  88.1664 271.9801 14.19700337424889

#Time	Az	El	Level	Level2	SNR	BER	BlckErr	Temp	State	Recorded	gain1	gain2
2026-01-27 08:22:24.56	81.48	2.10	-54.0	-65.9	3.8	8.47e-01	0	41	0	0	78	15196
2026-01-27 08:22:25.56	81.42	2.16	-54.2	-66.3	3.8	8.47e-01	0	41	104	0	79	14882
2026-01-27 08:22:26.57	81.36	2.22	-54.3	-66.2	3.8	8.45e-01	0	41	104	0	79	14836
2026-01-27 08:22:27.57	81.30	2.28	-54.2	-66.2	3.8	8.46e-01	0	41	104	0	79	14798
2026-01-27 08:22:28.58	81.24	2.34	-54.2	-66.2	3.8	8.46e-01	0	41	104	0	79	14732
2026-01-27 08:22:29.59	81.18	2.40	-54.2	-66.2	3.8	8.47e-01	0	41	104	0	79	14732
2026-01-27 08:22:30.60	81.12	2.46	-54.2	-66.2	3.8	8.45e-01	0	41	104	0	79	14722
2026-01-27 08:22:31.61	81.06	2.52	-54.1	-66.1	3.8	8.45e-01	0	41	104	0	79	14619
2026-01-27 08:22:32.62	81.00	2.58	-54.1	-66.0	3.8	8.46e-01	0	41	104	0	79	14511
2026-01-27 08:22:33.63	80.94	2.64	-54.0	-65.9	3.8	8.47e-01	0	41	104	0	78	15211
2026-01-27 08:22:34.64	80.88	2.70	-53.9	-65.9	3.8	8.45e-01	0	41	104	0	78	15064
2026-01-27 08:22:35.65	80.82	2.75	-53.9	-65.8	3.8	8.46e-01	0	41	104	0	78	14985
2026-01-27 08:22:36.66	80.76	2.81	-53.8	-65.8	3.8	8.46e-01	0	41	104	0	78	14932
2026-01-27 08:22:37.66	80.70	2.87	-53.8	-65.7	3.8	8.45e-01	0	41	104	0	78	14869
2026-01-27 08:22:38.67	80.64	2.93	-53.6	-65.6	3.8	8.46e-01	0	41	104	0	77	15453
2026-01-27 08:22:39.68	80.57	2.99	-53.5	-65.4	3.8	8.45e-01	0	41	104	0	77	15177
2026-01-27 08:22:40.69	80.51	3.06	-53.4	-65.3	3.8	8.47e-01	0	41	104	0	77	14986
2026-01-27 08:22:41.70	80.45	3.12	-53.2	-65.1	3.8	8.46e-01	0	41	104	0	77	14633
2026-01-27 08:22:42.71	80.39	3.18	-53.0	-64.9	3.8	8.46e-01	0	41	104	0	77	14267
2026-01-27 08:22:43.71	80.32	3.24	-52.7	-64.6	3.8	8.45e-01	0	41	104	0	77	13779
2026-01-27 08:22:44.72	80.26	3.30	-52.3	-64.0	3.8	8.47e-01	0	41	104	0	75	14523
2026-01-27 08:22:45.72	80.20	3.36	-52.1	-63.9	3.8	8.46e-01	0	41	104	0	75	14337
2026-01-27 08:22:46.73	80.13	3.42	-52.1	-64.0	3.8	8.46e-01	0	41	104	0	75	14506
2026-01-27 08:22:47.74	80.07	3.48	-52.1	-64.0	3.8	8.47e-01	0	41	104	0	74	15330
2026-01-27 08:22:48.74	80.00	3.54	-52.1	-63.9	3.8	8.47e-01	0	41	104	0	74	15202
2026-01-27 08:22:49.75	79.94	3.60	-52.1	-63.9	3.8	8.45e-01	0	42	104	0	74	15129
2026-01-27 08:22:50.76	79.87	3.66	-52.1	-63.9	3.8	8.45e-01	0	41	104	0	74	15101
2026-01-27 08:22:51.77	79.81	3.72	-52.1	-63.9	3.8	8.46e-01	0	41	104	0	74	15142
2026-01-27 08:22:52.77	79.74	3.78	-52.1	-64.0	3.8	8.46e-01	0	41	104	0	74	15285
2026-01-27 08:22:53.78	79.68	3.85	-52.1	-63.9	3.8	8.46e-01	0	41	104	0	74	15166
2026-01-27 08:22:54.79	79.61	3.91	-52.0	-63.7	3.8	8.47e-01	0	41	104	0	74	14709
2026-01-27 08:22:55.80	79.54	3.97	-52.0	-62.9	3.8	8.46e-01	0	42	104	0	74	13430
2026-01-27 08:22:56.81	79.48	4.03	-51.8	-61.6	4.0	8.44e-01	0	42	104	0	74	11564
2026-01-27 08:22:57.81	79.41	4.09	-51.7	-60.4	4.2	8.40e-01	0	42	0	0	74	10128
2026-01-27 08:22:58.82	79.34	4.16	-51.5	-59.2	4.6	8.22e-01	0	42	0	0	74	8827
2026-01-27 08:22:59.83	79.27	4.22	-51.4	-58.7	4.8	8.03e-01	0	42	0	0	73	8844
2026-01-27 08:23:00.84	79.20	4.28	-51.3	-58.4	5.0	7.71e-01	0	42	0	0	73	8500
2026-01-27 08:23:01.85	79.14	4.34	-51.1	-58.3	5.1	7.67e-01	0	42	0	0	73	8426
2026-01-27 08:23:02.85	79.07	4.40	-51.3	-58.5	5.0	7.66e-01	0	42	0	0	73	8573
2026-01-27 08:23:03.86	79.00	4.47	-51.3	-58.6	4.9	7.79e-01	0	42	0	0	73	8719
2026-01-27 08:23:04.87	78.93	4.53	-51.3	-58.4	5.0	7.82e-01	0	42	0	0	73	8499
2026-01-27 08:23:05.88	78.86	4.59	-51.0	-57.1	5.8	5.99e-01	0	42	0	1048576	73	7359
2026-01-27 08:23:06.88	78.79	4.66	-50.6	-55.7	7.0	2.15e-01	0	42	0	7340032	73	6234
2026-01-27 08:23:07.89	78.72	4.72	-50.0	-54.2	8.5	7.40e-02	0	42	0	12582912	71	5906
2026-01-27 08:23:08.90	78.65	4.78	-49.4	-53.0	9.8	2.38e-02	0	42	0	17825792	70	5403
2026-01-27 08:23:09.90	78.58	4.84	-48.9	-52.0	10.9	5.34e-03	0	42	0	24117248	69	5111
2026-01-27 08:23:10.91	78.51	4.91	-48.6	-51.5	11.4	2.13e-03	0	42	0	29360128	68	5119
2026-01-27 08:23:11.92	78.43	4.97	-48.4	-51.2	11.7	7.79e-04	0	42	0	35651584	68	4957
2026-01-27 08:23:12.93	78.36	5.04	-48.4	-51.1	11.8	7.07e-04	0	42	0	40894464	68	4906
2026-01-27 08:23:13.93	78.29	5.10	-44.9	-46.2	16.9	0.00e+00	0	42	0	46137344	61	4183
2026-01-27 08:23:14.94	78.22	5.16	-49.9	-53.9	9.1	8.23e-04	0	42	0	52428800	70	6016
2026-01-27 08:23:15.95	78.14	5.23	-50.5	-55.5	7.3	8.49e-04	0	42	0	57671680	71	6861
2026-01-27 08:23:16.96	78.07	5.29	-43.7	-44.9	18.6	0.00e+00	0	42	0	62914560	59	4010
2026-01-27 08:23:17.97	78.00	5.35	-51.8	-62.2	3.8	8.41e-01	0	42	104	67108864	74	12471
2026-01-27 08:23:18.97	77.92	5.42	-43.7	-44.8	18.1	2.72e-01	0	42	104	67108864	59	4004
2026-01-27 08:23:19.98	77.85	5.48	-43.4	-44.5	18.8	0.00e+00	0	42	0	72351744	58	4097
2026-01-27 08:23:20.99	77.78	5.55	-43.6	-44.7	18.7	0.00e+00	0	42	0	77594624	58	4187
2026-01-27 08:23:22.00	77.70	5.61	-43.7	-44.9	18.6	0.00e+00	0	42	0	83886080	58	4249
2026-01-27 08:23:23.01	77.62	5.68	-43.7	-44.9	18.6	0.00e+00	0	42	0	89128960	58	4246
2026-01-27 08:23:24.01	77.55	5.74	-43.4	-44.6	18.9	0.00e+00	0	42	0	95420416	58	4099
2026-01-27 08:23:25.02	77.47	5.81	-43.3	-44.4	19.1	0.00e+00	0	42	0	100663296	58	4039
2026-01-27 08:23:26.03	77.40	5.87	-43.1	-44.2	19.3	0.00e+00	0	42	0	105906176	58	3939
2026-01-27 08:23:27.03	77.32	5.94	-43.3	-44.4	19.1	0.00e+00	0	42	0	112197632	58	4022
2026-01-27 08:23:28.04	77.24	6.00	-43.2	-44.3	19.2	0.00e+00	0	42	0	117440512	58	3970
2026-01-27 08:23:29.05	77.17	6.07	-43.2	-44.4	19.1	0.00e+00	0	42	0	122683392	58	4010
2026-01-27 08:23:30.05	77.09	6.13	-43.2	-44.3	19.2	0.00e+00	0	42	0	128974848	58	3981
2026-01-27 08:23:31.06	77.01	6.20	-43.2	-44.3	19.2	0.00e+00	0	42	0	134217728	56	4456
2026-01-27 08:23:32.07	76.93	6.26	-43.2	-44.3	19.2	0.00e+00	0	42	0	140509184	57	4204
2026-01-27 08:23:33.08	76.85	6.33	-43.2	-44.3	19.3	0.00e+00	0	42	0	145752064	57	4200
2026-01-27 08:23:34.09	76.77	6.39	-43.2	-44.3	19.2	0.00e+00	0	42	0	152043520	57	4236
2026-01-27 08:23:35.10	76.69	6.46	-43.2	-44.4	19.2	0.00e+00	0	42	0	157286400	57	4244
2026-01-27 08:23:36.11	76.61	6.53	-43.1	-44.2	19.3	0.00e+00	0	42	0	162529280	57	4175
2026-01-27 08:23:37.11	76.53	6.59	-43.0	-44.1	19.4	0.00e+00	0	42	0	168820736	57	4139
2026-01-27 08:23:38.12	76.45	6.66	-43.1	-44.2	19.4	0.00e+00	0	42	0	174063616	57	4149
2026-01-27 08:23:39.13	76.37	6.73	-43.0	-44.1	19.5	0.00e+00	0	42	0	180355072	57	4116
2026-01-27 08:23:40.14	76.29	6.79	-42.9	-44.0	19.6	0.00e+00	0	42	0	185597952	57	4072
2026-01-27 08:23:41.15	76.21	6.86	-42.7	-43.8	19.8	0.00e+00	0	42	0	190840832	57	3974
2026-01-27 08:23:42.17	76.12	6.93	-42.8	-43.9	19.7	0.00e+00	0	42	0	197132288	57	4024
2026-01-27 08:23:43.17	76.04	6.99	-42.7	-43.8	19.8	0.00e+00	0	42	0	203423744	57	3965
2026-01-27 08:23:44.18	75.96	7.06	-42.7	-43.7	19.9	0.00e+00	0	42	0	208666624	57	3933
2026-01-27 08:23:45.19	75.87	7.13	-42.8	-43.8	19.8	0.00e+00	0	42	0	213909504	57	3981
2026-01-27 08:23:46.20	75.79	7.20	-42.8	-43.9	19.8	0.00e+00	0	42	0	220200960	57	4006
2026-01-27 08:23:47.21	75.71	7.26	-42.5	-43.5	20.1	0.00e+00	0	42	0	225443840	57	3854
2026-01-27 08:23:48.21	75.62	7.33	-42.7	-43.7	19.9	0.00e+00	0	42	0	230686720	56	4183
2026-01-27 08:23:49.22	75.54	7.40	-42.6	-43.6	20.0	0.00e+00	0	42	0	236978176	56	4141
2026-01-27 08:23:50.23	75.45	7.47	-42.6	-43.6	20.0	0.00e+00	0	42	0	242221056	56	4140
2026-01-27 08:23:51.24	75.36	7.53	-42.5	-43.5	20.1	0.00e+00	0	42	0	247463936	56	4086
2026-01-27 08:23:52.24	75.28	7.60	-42.7	-43.7	20.0	0.00e+00	0	42	0	253755392	56	4164
2026-01-27 08:23:53.25	75.19	7.67	-42.6	-43.7	20.0	0.00e+00	0	42	0	258998272	56	4156
2026-01-27 08:23:54.26	75.10	7.74	-42.7	-43.7	19.9	0.00e+00	0	42	0	265289728	56	4182
2026-01-27 08:23:55.27	75.02	7.81	-42.6	-43.6	20.1	0.00e+00	0	42	0	270532608	56	4126
2026-01-27 08:23:56.28	74.93	7.87	-42.6	-43.7	20.0	0.00e+00	0	42	0	276824064	56	4151
2026-01-27 08:23:57.29	74.84	7.94	-42.5	-43.5	20.1	0.00e+00	0	42	0	282066944	56	4094
2026-01-27 08:23:58.30	74.75	8.01	-42.6	-43.7	20.0	0.00e+00	0	42	0	288358400	56	4154
2026-01-27 08:23:59.31	74.66	8.08	-42.6	-43.6	20.1	0.00e+00	0	42	0	293601280	56	4124
2026-01-27 08:24:00.31	74.57	8.15	-42.4	-43.4	20.3	0.00e+00	0	42	0	298844160	56	4032
2026-01-27 08:24:01.32	74.48	8.22	-42.5	-43.5	20.2	0.00e+00	0	42	0	305135616	56	4061
2026-01-27 08:24:02.33	74.39	8.29	-42.5	-43.6	20.1	0.00e+00	0	42	0	310378496	56	4104
2026-01-27 08:24:03.33	74.30	8.36	-42.4	-43.4	20.3	0.00e+00	0	42	0	315621376	56	4028
2026-01-27 08:24:04.34	74.21	8.43	-42.3	-43.3	20.4	0.00e+00	0	43	0	321912832	56	3996
2026-01-27 08:24:05.34	74.12	8.49	-42.4	-43.4	20.3	0.00e+00	0	42	0	327155712	56	4047
2026-01-27 08:24:06.35	74.02	8.56	-42.5	-43.5	20.2	0.00e+00	0	42	0	332398592	56	4087
2026-01-27 08:24:07.36	73.93	8.63	-42.5	-43.5	20.2	0.00e+00	0	43	0	338690048	56	4067
2026-01-27 08:24:08.36	73.84	8.70	-42.5	-43.5	20.2	0.00e+00	0	42	0	343932928	56	4080
2026-01-27 08:24:09.37	73.74	8.77	-42.5	-43.5	20.3	0.00e+00	0	42	0	350224384	56	4065
2026-01-27 08:24:10.37	73.65	8.84	-42.4	-43.4	20.3	0.00e+00	0	42	0	355467264	56	4032
2026-01-27 08:24:11.38	73.56	8.91	-42.3	-43.2	20.5	0.00e+00	0	42	0	361758720	56	3952
2026-01-27 08:24:12.39	73.46	8.98	-42.3	-43.3	20.5	0.00e+00	0	43	0	367001600	56	3967
2026-01-27 08:24:13.39	73.36	9.05	-42.2	-43.2	20.7	0.00e+00	0	42	0	373293056	56	3920
2026-01-27 08:24:14.39	73.27	9.12	-42.1	-43.1	20.8	0.00e+00	0	42	0	378535936	56	3872
2026-01-27 08:24:15.40	73.17	9.20	-42.2	-43.1	20.8	0.00e+00	0	42	0	383778816	56	3889
2026-01-27 08:24:16.41	73.07	9.27	-42.1	-43.0	20.9	0.00e+00	0	42	0	390070272	56	3867
2026-01-27 08:24:17.41	72.98	9.34	-42.1	-43.0	20.9	0.00e+00	0	42	0	395313152	56	3864
2026-01-27 08:24:18.42	72.88	9.41	-42.1	-43.0	20.9	0.00e+00	0	42	0	400556032	56	3844
2026-01-27 08:24:19.43	72.78	9.48	-42.2	-43.1	20.8	0.00e+00	0	42	0	406847488	56	3905
2026-01-27 08:24:20.44	72.68	9.55	-42.2	-43.1	20.8	0.00e+00	0	42	0	412090368	56	3908
2026-01-27 08:24:21.44	72.58	9.62	-42.1	-43.0	20.9	0.00e+00	0	42	0	417333248	56	3865
2026-01-27 08:24:22.44	72.48	9.69	-42.0	-42.9	21.0	0.00e+00	0	42	0	423624704	56	3796
2026-01-27 08:24:23.45	72.38	9.76	-41.9	-42.8	21.0	0.00e+00	0	42	0	428867584	55	3988
2026-01-27 08:24:24.47	72.28	9.84	-41.9	-42.9	21.0	0.00e+00	0	42	0	435159040	55	4006
2026-01-27 08:24:25.48	72.18	9.91	-41.8	-42.7	21.1	0.00e+00	0	43	0	440401920	55	3947
2026-01-27 08:24:26.48	72.08	9.98	-41.9	-42.8	21.1	0.00e+00	0	42	0	446693376	55	3987
2026-01-27 08:24:27.49	71.97	10.05	-41.9	-42.8	21.0	0.00e+00	0	43	0	451936256	55	3976
2026-01-27 08:24:28.50	71.87	10.13	-41.9	-42.8	21.0	0.00e+00	0	42	0	458227712	55	3988
2026-01-27 08:24:29.51	71.76	10.20	-42.0	-42.9	21.0	0.00e+00	0	42	0	463470592	55	4020
2026-01-27 08:24:30.52	71.66	10.27	-41.8	-42.7	21.1	0.00e+00	0	42	0	468713472	55	3948
2026-01-27 08:24:31.53	71.56	10.34	-41.8	-42.6	21.2	0.00e+00	0	42	0	475004928	55	3909
2026-01-27 08:24:32.53	71.45	10.42	-41.8	-42.7	21.2	0.00e+00	0	43	0	480247808	55	3922
2026-01-27 08:24:33.54	71.34	10.49	-41.7	-42.6	21.2	0.00e+00	0	42	0	485490688	55	3910
2026-01-27 08:24:34.55	71.24	10.56	-41.7	-42.6	21.3	0.00e+00	0	43	0	491782144	55	3874
2026-01-27 08:24:35.56	71.13	10.63	-41.8	-42.7	21.2	0.00e+00	0	43	0	497025024	55	3933
2026-01-27 08:24:36.57	71.02	10.71	-41.7	-42.6	21.2	0.00e+00	0	43	0	503316480	55	3909
2026-01-27 08:24:37.57	70.92	10.78	-41.9	-42.8	21.1	0.00e+00	0	42	0	508559360	55	3974
2026-01-27 08:24:38.58	70.81	10.85	-42.0	-42.9	21.0	0.00e+00	0	43	0	514850816	55	4017
2026-01-27 08:24:39.59	70.70	10.93	-41.8	-42.7	21.2	0.00e+00	0	43	0	520093696	55	3955
2026-01-27 08:24:40.60	70.59	11.00	-41.9	-42.8	21.1	0.00e+00	0	42	0	525336576	55	3980
2026-01-27 08:24:41.61	70.48	11.08	-41.8	-42.7	21.2	0.00e+00	0	43	0	531628032	55	3926
2026-01-27 08:24:42.62	70.36	11.15	-41.8	-42.7	21.3	0.00e+00	0	43	0	536870912	55	3916
2026-01-27 08:24:43.63	70.25	11.22	-41.8	-42.7	21.3	0.00e+00	0	43	0	543162368	55	3916
2026-01-27 08:24:44.64	70.14	11.30	-41.8	-42.7	21.2	0.00e+00	0	43	0	548405248	55	3942
2026-01-27 08:24:45.65	70.03	11.37	-41.7	-42.6	21.3	0.00e+00	0	43	0	553648128	55	3896
2026-01-27 08:24:46.66	69.91	11.45	-41.8	-42.7	21.2	0.00e+00	0	43	0	559939584	55	3929
2026-01-27 08:24:47.66	69.80	11.52	-41.6	-42.5	21.4	0.00e+00	0	43	0	566231040	55	3854
2026-01-27 08:24:48.67	69.69	11.60	-41.8	-42.6	21.3	0.00e+00	0	43	0	571473920	55	3913
2026-01-27 08:24:49.68	69.57	11.67	-41.7	-42.6	21.3	0.00e+00	0	42	0	576716800	55	3902
2026-01-27 08:24:50.69	69.45	11.75	-41.7	-42.6	21.3	0.00e+00	0	42	0	583008256	55	3889
2026-01-27 08:24:51.70	69.34	11.82	-41.7	-42.5	21.4	0.00e+00	0	43	0	588251136	55	3859
2026-01-27 08:24:52.71	69.22	11.90	-41.8	-42.7	21.3	0.00e+00	0	43	0	593494016	55	3918
2026-01-27 08:24:53.71	69.10	11.97	-41.6	-42.5	21.4	0.00e+00	0	43	0	599785472	55	3855
2026-01-27 08:24:54.72	68.99	12.05	-41.7	-42.5	21.4	0.00e+00	0	43	0	605028352	55	3864
2026-01-27 08:24:55.73	68.87	12.12	-41.6	-42.5	21.4	0.00e+00	0	43	0	610271232	55	3859
2026-01-27 08:24:56.73	68.75	12.20	-41.5	-42.4	21.5	0.00e+00	0	43	0	616562688	55	3808
2026-01-27 08:24:57.73	68.63	12.27	-41.4	-42.2	21.7	0.00e+00	0	43	0	621805568	54	3956
2026-01-27 08:24:58.74	68.51	12.35	-41.4	-42.3	21.7	0.00e+00	0	42	0	628097024	54	3963
2026-01-27 08:24:59.75	68.39	12.42	-41.3	-42.2	21.8	0.00e+00	0	43	0	633339904	54	3935
2026-01-27 08:25:00.76	68.26	12.50	-41.3	-42.2	21.8	0.00e+00	0	43	0	638582784	54	3931
2026-01-27 08:25:01.76	68.14	12.58	-41.2	-42.1	21.9	0.00e+00	0	42	0	644874240	54	3879
2026-01-27 08:25:02.77	68.02	12.65	-41.2	-42.1	21.9	0.00e+00	0	43	0	651165696	54	3876
2026-01-27 08:25:03.78	67.89	12.73	-41.2	-42.0	22.0	0.00e+00	0	43	0	656408576	54	3848
2026-01-27 08:25:04.79	67.77	12.80	-41.1	-41.9	22.1	0.00e+00	0	43	0	661651456	54	3798
2026-01-27 08:25:05.79	67.65	12.88	-41.1	-42.0	22.0	0.00e+00	0	43	0	667942912	54	3837
2026-01-27 08:25:06.80	67.52	12.96	-41.2	-42.0	22.0	0.00e+00	0	43	0	673185792	54	3852
2026-01-27 08:25:07.80	67.39	13.03	-41.0	-41.9	22.1	0.00e+00	0	43	0	678428672	54	3790
2026-01-27 08:25:08.81	67.27	13.11	-41.1	-41.9	22.0	0.00e+00	0	43	0	684720128	54	3811
2026-01-27 08:25:09.82	67.14	13.19	-41.0	-41.8	22.1	0.00e+00	0	43	0	689963008	54	3758
2026-01-27 08:25:10.83	67.01	13.26	-40.9	-41.7	22.2	0.00e+00	0	43	0	695205888	53	3946
2026-01-27 08:25:11.84	66.88	13.34	-40.8	-41.6	22.3	0.00e+00	0	43	0	701497344	53	3902
2026-01-27 08:25:12.85	66.75	13.42	-40.8	-41.7	22.3	0.00e+00	0	43	0	706740224	53	3916
2026-01-27 08:25:13.85	66.62	13.50	-41.0	-41.9	22.1	0.00e+00	0	43	0	713031680	53	4012
2026-01-27 08:25:14.86	66.49	13.57	-41.0	-41.8	22.1	0.00e+00	0	42	0	718274560	53	3996
2026-01-27 08:25:15.87	66.36	13.65	-41.1	-41.9	22.1	0.00e+00	0	43	0	724566016	53	4024
2026-01-27 08:25:16.87	66.22	13.73	-41.1	-42.0	22.0	0.00e+00	0	43	0	729808896	53	4056
2026-01-27 08:25:17.88	66.09	13.81	-40.9	-41.8	22.2	0.00e+00	0	43	0	736100352	53	3965
2026-01-27 08:25:18.89	65.96	13.88	-40.9	-41.8	22.2	0.00e+00	0	43	0	741343232	53	3961
2026-01-27 08:25:19.90	65.82	13.96	-40.9	-41.7	22.3	0.00e+00	0	42	0	746586112	53	3927
2026-01-27 08:25:20.90	65.69	14.04	-40.7	-41.5	22.4	0.00e+00	0	43	0	752877568	53	3867
2026-01-27 08:25:21.91	65.55	14.12	-40.7	-41.5	22.5	0.00e+00	0	42	0	758120448	53	3862
2026-01-27 08:25:22.91	65.41	14.19	-40.8	-41.6	22.4	0.00e+00	0	43	0	763363328	53	3900
2026-01-27 08:25:23.92	65.27	14.27	-40.7	-41.6	22.4	0.00e+00	0	43	0	769654784	53	3870
2026-01-27 08:25:24.93	65.14	14.35	-40.8	-41.6	22.3	0.00e+00	0	43	0	774897664	53	3913
2026-01-27 08:25:25.93	65.00	14.43	-40.7	-41.5	22.5	0.00e+00	0	43	0	780140544	53	3858
2026-01-27 08:25:26.94	64.86	14.51	-40.5	-41.3	22.6	0.00e+00	0	42	0	786432000	53	3774
2026-01-27 08:25:27.95	64.72	14.59	-40.6	-41.4	22.6	0.00e+00	0	42	0	791674880	53	3822
2026-01-27 08:25:28.95	64.57	14.66	-40.6	-41.4	22.6	0.00e+00	0	43	0	797966336	53	3807
2026-01-27 08:25:29.95	64.43	14.74	-40.6	-41.4	22.6	0.00e+00	0	43	0	803209216	53	3808
2026-01-27 08:25:30.96	64.29	14.82	-40.5	-41.3	22.7	0.00e+00	0	43	0	808452096	53	3764
2026-01-27 08:25:31.97	64.15	14.90	-40.6	-41.4	22.6	0.00e+00	0	43	0	814743552	53	3824
2026-01-27 08:25:32.98	64.00	14.98	-40.5	-41.3	22.7	0.00e+00	0	43	0	821035008	52	3971
2026-01-27 08:25:33.98	63.86	15.06	-40.5	-41.3	22.7	0.00e+00	0	42	0	826277888	52	3968
2026-01-27 08:25:34.99	63.71	15.14	-40.6	-41.4	22.7	0.00e+00	0	43	0	831520768	52	4010
2026-01-27 08:25:35.99	63.56	15.21	-40.6	-41.4	22.6	0.00e+00	0	43	0	837812224	52	4023
2026-01-27 08:25:37.00	63.42	15.29	-40.5	-41.3	22.7	0.00e+00	0	43	0	843055104	52	3991
2026-01-27 08:25:38.01	63.27	15.37	-40.6	-41.4	22.6	0.00e+00	0	42	0	848297984	52	4027
2026-01-27 08:25:39.02	63.12	15.45	-40.6	-41.5	22.6	0.00e+00	0	43	0	854589440	52	4054
2026-01-27 08:25:40.03	62.97	15.53	-40.4	-41.2	22.8	0.00e+00	0	43	0	859832320	52	3939
2026-01-27 08:25:41.03	62.82	15.61	-40.5	-41.3	22.7	0.00e+00	0	43	0	865075200	52	3970
2026-01-27 08:25:42.04	62.66	15.69	-40.3	-41.1	22.9	0.00e+00	0	43	0	871366656	52	3897
2026-01-27 08:25:43.05	62.51	15.77	-40.2	-41.0	23.0	0.00e+00	0	43	0	876609536	52	3856
2026-01-27 08:25:44.05	62.36	15.85	-40.3	-41.1	22.9	0.00e+00	0	43	0	882900992	52	3881
2026-01-27 08:25:45.06	62.20	15.93	-40.2	-41.0	23.0	0.00e+00	0	43	0	888143872	52	3846
2026-01-27 08:25:46.06	62.05	16.01	-40.3	-41.0	23.0	0.00e+00	0	43	0	894435328	52	3864
2026-01-27 08:25:47.07	61.89	16.09	-40.3	-41.0	23.0	0.00e+00	0	43	0	899678208	52	3865
2026-01-27 08:25:48.08	61.74	16.17	-40.3	-41.0	23.0	0.00e+00	0	43	0	905969664	52	3865
2026-01-27 08:25:49.08	61.58	16.25	-40.3	-41.1	23.0	0.00e+00	0	43	0	911212544	52	3876
2026-01-27 08:25:50.09	61.42	16.33	-40.2	-41.0	23.1	0.00e+00	0	43	0	916455424	52	3833
2026-01-27 08:25:51.09	61.26	16.40	-40.3	-41.0	23.0	0.00e+00	0	43	0	922746880	52	3862
2026-01-27 08:25:52.10	61.10	16.48	-40.2	-40.9	23.1	0.00e+00	0	43	0	927989760	52	3816
2026-01-27 08:25:53.11	60.94	16.56	-40.0	-40.8	23.2	0.00e+00	0	43	0	933232640	52	3749
2026-01-27 08:25:54.12	60.78	16.64	-40.1	-40.9	23.1	0.00e+00	0	43	0	939524096	52	3795
2026-01-27 08:25:55.13	60.61	16.72	-40.3	-41.1	23.0	0.00e+00	0	43	0	944766976	52	3870
2026-01-27 08:25:56.13	60.45	16.80	-40.1	-40.9	23.1	0.00e+00	0	43	0	950009856	52	3794
2026-01-27 08:25:57.14	60.29	16.88	-40.1	-40.9	23.1	0.00e+00	0	43	0	956301312	52	3817
2026-01-27 08:25:58.15	60.12	16.96	-40.1	-40.9	23.1	0.00e+00	0	43	0	961544192	52	3801
2026-01-27 08:25:59.16	59.95	17.04	-40.1	-40.9	23.1	0.00e+00	0	42	0	967835648	52	3815
2026-01-27 08:26:00.16	59.79	17.12	-40.1	-40.8	23.2	0.00e+00	0	43	0	973078528	52	3775
2026-01-27 08:26:01.18	59.62	17.20	-39.9	-40.7	23.4	0.00e+00	0	43	0	979369984	51	3942
2026-01-27 08:26:02.19	59.45	17.28	-40.1	-40.9	23.3	0.00e+00	0	43	0	984612864	51	4020
2026-01-27 08:26:03.19	59.28	17.36	-40.2	-41.0	23.2	0.00e+00	0	43	0	990904320	51	4076
2026-01-27 08:26:04.20	59.11	17.44	-40.1	-40.9	23.3	0.00e+00	0	43	0	996147200	51	4007
2026-01-27 08:26:05.20	58.94	17.52	-40.1	-40.9	23.3	0.00e+00	0	43	0	1001390080	51	4030
2026-01-27 08:26:06.21	58.76	17.60	-40.1	-40.9	23.2	0.00e+00	0	43	0	1007681536	51	4037
2026-01-27 08:26:07.22	58.59	17.68	-40.1	-40.9	23.3	0.00e+00	0	43	0	1012924416	51	4032
2026-01-27 08:26:08.23	58.41	17.76	-40.2	-41.0	23.2	0.00e+00	0	43	0	1018167296	51	4073
2026-01-27 08:26:09.24	58.24	17.84	-40.2	-41.0	23.2	0.00e+00	0	43	0	1024458752	51	4075
2026-01-27 08:26:10.25	58.06	17.92	-40.2	-41.0	23.2	0.00e+00	0	43	0	1029701632	51	4081
2026-01-27 08:26:11.25	57.89	18.00	-40.2	-41.0	23.2	0.00e+00	0	43	0	1034944512	51	4068
2026-01-27 08:26:12.26	57.71	18.08	-39.9	-40.7	23.5	0.00e+00	0	43	0	1041235968	51	3926
2026-01-27 08:26:13.27	57.53	18.16	-39.9	-40.7	23.4	0.00e+00	0	43	0	1047527424	51	3933
2026-01-27 08:26:14.28	57.35	18.24	-39.9	-40.6	23.5	0.00e+00	0	43	0	1052770304	51	3902
2026-01-27 08:26:15.28	57.17	18.32	-39.9	-40.6	23.5	0.00e+00	0	43	0	1058013184	51	3909
2026-01-27 08:26:16.29	56.98	18.40	-39.8	-40.6	23.6	0.00e+00	0	43	0	1064304640	51	3891
2026-01-27 08:26:17.29	56.80	18.48	-39.9	-40.6	23.5	0.00e+00	0	43	0	1069547520	51	3901
2026-01-27 08:26:18.30	56.62	18.56	-39.8	-40.6	23.6	0.00e+00	0	43	0	1075838976	51	3889
2026-01-27 08:26:19.31	56.43	18.64	-39.7	-40.4	23.7	0.00e+00	0	43	0	1081081856	51	3811
2026-01-27 08:26:20.32	56.24	18.72	-39.7	-40.5	23.7	0.00e+00	0	43	0	1086324736	51	3825
2026-01-27 08:26:21.33	56.06	18.80	-39.6	-40.4	23.8	0.00e+00	0	43	0	1092616192	51	3784
2026-01-27 08:26:22.34	55.87	18.88	-39.6	-40.3	23.8	0.00e+00	0	43	0	1097859072	51	3779
2026-01-27 08:26:23.35	55.68	18.96	-39.6	-40.4	23.8	0.00e+00	0	43	0	1103101952	51	3786
2026-01-27 08:26:24.36	55.49	19.04	-39.7	-40.5	23.7	0.00e+00	0	43	0	1109393408	51	3829
2026-01-27 08:26:25.37	55.30	19.12	-39.8	-40.5	23.6	0.00e+00	0	43	0	1115684864	51	3855
2026-01-27 08:26:26.37	55.10	19.19	-39.8	-40.6	23.6	0.00e+00	0	43	0	1120927744	51	3870
2026-01-27 08:26:27.38	54.91	19.27	-39.9	-40.7	23.5	0.00e+00	0	43	0	1126170624	51	3928
2026-01-27 08:26:28.39	54.72	19.35	-39.8	-40.5	23.6	0.00e+00	0	43	0	1132462080	51	3859
2026-01-27 08:26:29.40	54.52	19.43	-39.8	-40.5	23.6	0.00e+00	0	43	0	1137704960	51	3868
2026-01-27 08:26:30.40	54.33	19.51	-39.7	-40.4	23.7	0.00e+00	0	43	0	1142947840	51	3809
2026-01-27 08:26:31.41	54.13	19.59	-39.4	-40.2	24.0	0.00e+00	0	43	0	1149239296	50	3924
2026-01-27 08:26:32.42	53.93	19.67	-39.6	-40.4	23.7	0.00e+00	0	43	0	1154482176	50	4028
2026-01-27 08:26:33.43	53.73	19.74	-39.5	-40.2	23.9	0.00e+00	0	43	0	1160773632	50	3958
2026-01-27 08:26:34.43	53.53	19.82	-39.6	-40.3	23.8	0.00e+00	0	43	0	1166016512	50	4002
2026-01-27 08:26:35.44	53.33	19.90	-39.5	-40.3	23.8	0.00e+00	0	43	0	1171259392	50	3980
2026-01-27 08:26:36.45	53.13	19.98	-39.5	-40.3	23.9	0.00e+00	0	43	0	1177550848	50	3969
2026-01-27 08:26:37.46	52.92	20.06	-39.5	-40.3	23.9	0.00e+00	0	43	0	1182793728	50	3980
2026-01-27 08:26:38.47	52.72	20.13	-39.3	-40.0	24.1	0.00e+00	0	43	0	1189085184	50	3867
2026-01-27 08:26:39.48	52.51	20.21	-39.3	-40.1	24.1	0.00e+00	0	43	0	1194328064	50	3870
2026-01-27 08:26:40.49	52.30	20.29	-39.4	-40.1	24.0	0.00e+00	0	43	0	1200619520	50	3898
2026-01-27 08:26:41.50	52.09	20.37	-39.3	-40.0	24.1	0.00e+00	0	43	0	1205862400	50	3848
2026-01-27 08:26:42.51	51.89	20.44	-39.2	-39.9	24.2	0.00e+00	0	43	0	1211105280	50	3816
2026-01-27 08:26:43.52	51.67	20.52	-39.1	-39.8	24.3	0.00e+00	0	43	0	1217396736	50	3744
2026-01-27 08:26:44.53	51.46	20.60	-39.0	-39.8	24.4	0.00e+00	0	43	0	1222639616	50	3741
2026-01-27 08:26:45.53	51.25	20.67	-39.1	-39.8	24.3	0.00e+00	0	43	0	1227882496	50	3767
2026-01-27 08:26:46.54	51.04	20.75	-38.9	-39.6	24.4	0.00e+00	0	43	0	1234173952	49	3910
2026-01-27 08:26:47.55	50.82	20.83	-38.8	-39.6	24.5	0.00e+00	0	43	0	1239416832	49	3875
2026-01-27 08:26:48.56	50.61	20.90	-38.9	-39.7	24.4	0.00e+00	0	43	0	1245708288	49	3915
2026-01-27 08:26:49.57	50.39	20.98	-38.8	-39.5	24.5	0.00e+00	0	43	0	1250951168	49	3867
2026-01-27 08:26:50.57	50.18	21.05	-38.8	-39.5	24.6	0.00e+00	0	43	0	1257242624	49	3853
2026-01-27 08:26:51.57	49.96	21.13	-38.9	-39.7	24.4	0.00e+00	0	43	0	1262485504	49	3925
2026-01-27 08:26:52.58	49.74	21.20	-38.9	-39.6	24.5	0.00e+00	0	43	0	1268776960	49	3911
2026-01-27 08:26:53.59	49.52	21.28	-38.9	-39.7	24.4	0.00e+00	0	43	0	1274019840	49	3918
2026-01-27 08:26:54.59	49.30	21.35	-38.8	-39.5	24.6	0.00e+00	0	43	0	1279262720	49	3846
2026-01-27 08:26:55.60	49.08	21.43	-38.9	-39.6	24.5	0.00e+00	0	43	0	1285554176	49	3906
2026-01-27 08:26:56.61	48.85	21.50	-39.0	-39.7	24.4	0.00e+00	0	43	0	1290797056	49	3950
2026-01-27 08:26:57.61	48.63	21.57	-39.0	-39.8	24.4	0.00e+00	0	43	0	1296039936	49	3959
2026-01-27 08:26:58.62	48.40	21.65	-39.0	-39.8	24.3	0.00e+00	0	43	0	1302331392	49	3974
2026-01-27 08:26:59.63	48.17	21.72	-39.0	-39.7	24.4	0.00e+00	0	43	0	1307574272	49	3955
2026-01-27 08:27:00.63	47.95	21.79	-39.0	-39.7	24.4	0.00e+00	0	43	0	1313865728	49	3943
2026-01-27 08:27:01.64	47.72	21.87	-39.0	-39.8	24.4	0.00e+00	0	43	0	1319108608	49	3973
2026-01-27 08:27:02.65	47.49	21.94	-39.0	-39.7	24.4	0.00e+00	0	43	0	1324351488	49	3939
2026-01-27 08:27:03.66	47.26	22.01	-39.0	-39.7	24.4	0.00e+00	0	43	0	1330642944	49	3952
2026-01-27 08:27:04.66	47.02	22.08	-38.9	-39.6	24.5	0.00e+00	0	43	0	1335885824	49	3896
2026-01-27 08:27:05.66	46.79	22.15	-38.9	-39.6	24.5	0.00e+00	0	43	0	1342177280	49	3878
2026-01-27 08:27:06.67	46.56	22.22	-38.8	-39.5	24.6	0.00e+00	0	43	0	1347420160	49	3845
2026-01-27 08:27:07.68	46.32	22.30	-38.9	-39.6	24.5	0.00e+00	0	43	0	1353711616	49	3882
2026-01-27 08:27:08.69	46.08	22.37	-38.9	-39.6	24.5	0.00e+00	0	43	0	1358954496	49	3909
2026-01-27 08:27:09.71	45.84	22.44	-39.0	-39.7	24.4	0.00e+00	0	43	0	1364197376	49	3930
2026-01-27 08:27:10.71	45.61	22.51	-39.0	-39.7	24.4	0.00e+00	0	43	0	1370488832	49	3957
2026-01-27 08:27:11.72	45.37	22.58	-39.0	-39.7	24.4	0.00e+00	0	43	0	1375731712	49	3938
2026-01-27 08:27:12.72	45.13	22.64	-38.9	-39.6	24.5	0.00e+00	0	43	0	1380974592	49	3902
2026-01-27 08:27:13.73	44.88	22.71	-38.8	-39.6	24.6	0.00e+00	0	43	0	1387266048	49	3879
2026-01-27 08:27:14.74	44.64	22.78	-38.9	-39.6	24.5	0.00e+00	0	43	0	1392508928	49	3884
2026-01-27 08:27:15.75	44.39	22.85	-38.7	-39.5	24.7	0.00e+00	0	43	0	1398800384	49	3830
2026-01-27 08:27:16.76	44.15	22.92	-38.6	-39.3	24.8	0.00e+00	0	43	0	1404043264	49	3764
2026-01-27 08:27:17.76	43.90	22.98	-38.7	-39.4	24.7	0.00e+00	0	43	0	1410334720	49	3790
2026-01-27 08:27:18.77	43.66	23.05	-38.6	-39.4	24.8	0.00e+00	0	43	0	1415577600	49	3783
2026-01-27 08:27:19.78	43.41	23.12	-38.6	-39.3	24.7	0.00e+00	0	43	0	1420820480	49	3778
2026-01-27 08:27:20.79	43.16	23.18	-38.7	-39.4	24.7	0.00e+00	0	43	0	1427111936	49	3804
2026-01-27 08:27:21.80	42.90	23.25	-38.7	-39.4	24.7	0.00e+00	0	43	0	1432354816	49	3824
2026-01-27 08:27:22.81	42.65	23.32	-38.7	-39.4	24.7	0.00e+00	0	43	0	1438646272	49	3821
2026-01-27 08:27:23.82	42.40	23.38	-38.7	-39.4	24.7	0.00e+00	0	43	0	1443889152	49	3801
2026-01-27 08:27:24.83	42.14	23.45	-38.6	-39.3	24.8	0.00e+00	0	43	0	1449132032	49	3762
2026-01-27 08:27:25.83	41.89	23.51	-38.7	-39.4	24.7	0.00e+00	0	43	0	1455423488	49	3809
2026-01-27 08:27:26.84	41.63	23.57	-38.7	-39.4	24.7	0.00e+00	0	43	0	1460666368	49	3816
2026-01-27 08:27:27.85	41.38	23.64	-38.6	-39.3	24.9	0.00e+00	0	43	0	1465909248	49	3746
2026-01-27 08:27:28.86	41.12	23.70	-38.5	-39.2	25.0	0.00e+00	0	43	0	1472200704	48	3916
2026-01-27 08:27:29.87	40.86	23.76	-38.3	-39.0	25.1	0.00e+00	0	43	0	1478492160	48	3849
2026-01-27 08:27:30.87	40.60	23.82	-38.4	-39.1	25.0	0.00e+00	0	43	0	1483735040	48	3884
2026-01-27 08:27:31.87	40.34	23.88	-38.4	-39.2	25.0	0.00e+00	0	43	0	1488977920	48	3915
2026-01-27 08:27:32.89	40.07	23.94	-38.4	-39.2	25.0	0.00e+00	0	43	0	1495269376	48	3916
2026-01-27 08:27:33.89	39.81	24.00	-38.5	-39.2	24.9	0.00e+00	0	43	0	1500512256	48	3948
2026-01-27 08:27:34.90	39.55	24.06	-38.5	-39.2	24.9	0.00e+00	0	43	0	1506803712	48	3953
2026-01-27 08:27:35.91	39.28	24.12	-38.5	-39.2	24.9	0.00e+00	0	43	0	1512046592	48	3958
2026-01-27 08:27:36.92	39.02	24.18	-38.5	-39.3	24.9	0.00e+00	0	43	0	1517289472	48	3959
2026-01-27 08:27:37.92	38.75	24.24	-38.6	-39.4	24.8	0.00e+00	0	43	0	1523580928	48	4006
2026-01-27 08:27:38.94	38.48	24.29	-38.7	-39.5	24.7	0.00e+00	0	43	0	1528823808	48	4063
2026-01-27 08:27:39.94	38.21	24.35	-38.7	-39.4	24.8	0.00e+00	0	43	0	1534066688	48	4039
2026-01-27 08:27:40.95	37.94	24.41	-38.7	-39.4	24.7	0.00e+00	0	43	0	1540358144	48	4050
2026-01-27 08:27:41.96	37.67	24.46	-38.6	-39.3	24.9	0.00e+00	0	43	0	1545601024	48	3967
2026-01-27 08:27:42.97	37.40	24.52	-38.5	-39.2	24.9	0.00e+00	0	43	0	1551892480	48	3956
2026-01-27 08:27:43.98	37.12	24.57	-38.4	-39.1	25.0	0.00e+00	0	43	0	1557135360	48	3887
2026-01-27 08:27:44.99	36.85	24.63	-38.4	-39.1	25.0	0.00e+00	0	43	0	1563426816	48	3893
2026-01-27 08:27:45.99	36.57	24.68	-38.3	-39.0	25.2	0.00e+00	0	43	0	1568669696	48	3838
2026-01-27 08:27:47.00	36.30	24.73	-38.4	-39.1	25.0	0.00e+00	0	43	0	1573912576	48	3908
2026-01-27 08:27:48.01	36.02	24.78	-38.4	-39.1	25.1	0.00e+00	0	43	0	1580204032	48	3884
2026-01-27 08:27:49.02	35.74	24.84	-38.2	-38.9	25.2	0.00e+00	0	43	0	1585446912	48	3815
2026-01-27 08:27:50.02	35.46	24.89	-38.2	-38.9	25.2	0.00e+00	0	43	0	1591738368	48	3814
2026-01-27 08:27:51.03	35.18	24.94	-38.3	-39.0	25.2	0.00e+00	0	43	0	1596981248	48	3828
2026-01-27 08:27:52.04	34.90	24.98	-38.3	-39.0	25.1	0.00e+00	0	43	0	1602224128	48	3863
2026-01-27 08:27:53.05	34.62	25.03	-38.3	-39.1	25.1	0.00e+00	0	43	0	1608515584	48	3870
2026-01-27 08:27:54.06	34.34	25.08	-38.2	-38.9	25.2	0.00e+00	0	43	0	1613758464	48	3812
2026-01-27 08:27:55.07	34.05	25.13	-38.3	-39.0	25.2	0.00e+00	0	43	0	1620049920	48	3845
2026-01-27 08:27:56.07	33.77	25.18	-38.3	-39.0	25.2	0.00e+00	0	43	0	1625292800	48	3847
2026-01-27 08:27:57.08	33.49	25.22	-38.2	-38.9	25.2	0.00e+00	0	43	0	1631584256	48	3802
2026-01-27 08:27:58.09	33.20	25.27	-38.2	-38.9	25.3	0.00e+00	0	43	0	1636827136	48	3782
2026-01-27 08:27:59.10	32.91	25.31	-38.1	-38.8	25.3	0.00e+00	0	43	0	1642070016	48	3750
2026-01-27 08:28:00.10	32.63	25.36	-38.2	-38.9	25.2	0.00e+00	0	43	0	1648361472	48	3814
2026-01-27 08:28:01.11	32.34	25.40	-38.4	-39.1	25.1	0.00e+00	0	43	0	1653604352	48	3891
2026-01-27 08:28:02.12	32.05	25.44	-38.5	-39.3	24.9	0.00e+00	0	43	0	1658847232	48	3973
2026-01-27 08:28:03.13	31.76	25.48	-38.6	-39.4	24.8	0.00e+00	0	43	0	1665138688	48	4006
2026-01-27 08:28:04.13	31.47	25.52	-38.6	-39.3	24.9	0.00e+00	0	43	0	1670381568	48	3974
2026-01-27 08:28:05.14	31.18	25.56	-38.6	-39.4	24.8	0.00e+00	0	43	0	1676673024	48	4009
2026-01-27 08:28:06.15	30.89	25.60	-38.6	-39.3	24.9	0.00e+00	0	43	0	1681915904	48	3982
2026-01-27 08:28:07.16	30.60	25.64	-38.4	-39.1	25.1	0.00e+00	0	43	0	1687158784	48	3905
2026-01-27 08:28:08.17	30.30	25.68	-38.2	-38.9	25.2	0.00e+00	0	43	0	1693450240	48	3821
2026-01-27 08:28:09.17	30.01	25.72	-38.2	-38.9	25.2	0.00e+00	0	43	0	1699741696	48	3819
2026-01-27 08:28:10.18	29.71	25.75	-38.2	-38.9	25.2	0.00e+00	0	43	0	1704984576	48	3812
2026-01-27 08:28:11.18	29.42	25.79	-38.2	-38.9	25.3	0.00e+00	0	43	0	1710227456	48	3792
2026-01-27 08:28:12.19	29.12	25.82	-38.2	-38.9	25.2	0.00e+00	0	43	0	1716518912	48	3816
2026-01-27 08:28:13.19	28.83	25.86	-38.3	-39.0	25.2	0.00e+00	0	43	0	1721761792	48	3845
2026-01-27 08:28:14.20	28.53	25.89	-38.3	-39.0	25.1	0.00e+00	0	43	0	1727004672	48	3863
2026-01-27 08:28:15.20	28.24	25.92	-38.3	-39.0	25.1	0.00e+00	0	43	0	1733296128	48	3857
2026-01-27 08:28:16.21	27.94	25.95	-38.4	-39.1	25.1	0.00e+00	0	43	0	1738539008	48	3878
2026-01-27 08:28:17.21	27.64	25.98	-38.4	-39.1	25.0	0.00e+00	0	43	0	1743781888	48	3910
2026-01-27 08:28:18.21	27.34	26.01	-38.4	-39.1	25.1	0.00e+00	0	43	0	1750073344	48	3891
2026-01-27 08:28:19.22	27.04	26.04	-38.4	-39.1	25.1	0.00e+00	0	43	0	1755316224	48	3886
2026-01-27 08:28:20.23	26.74	26.07	-38.2	-38.9	25.2	0.00e+00	0	43	0	1761607680	48	3817
2026-01-27 08:28:21.24	26.44	26.10	-38.2	-38.9	25.2	0.00e+00	0	43	0	1766850560	48	3815
2026-01-27 08:28:22.25	26.14	26.12	-38.2	-38.9	25.2	0.00e+00	0	43	0	1772093440	48	3803
2026-01-27 08:28:23.25	25.84	26.15	-38.3	-39.0	25.2	0.00e+00	0	43	0	1778384896	48	3847
2026-01-27 08:28:24.26	25.53	26.18	-38.3	-39.0	25.2	0.00e+00	0	43	0	1783627776	48	3832
2026-01-27 08:28:25.27	25.23	26.20	-38.3	-39.0	25.1	0.00e+00	0	43	0	1789919232	48	3858
2026-01-27 08:28:26.27	24.93	26.22	-38.5	-39.2	25.0	0.00e+00	0	43	0	1795162112	48	3943
2026-01-27 08:28:27.28	24.62	26.24	-38.5	-39.3	24.9	0.00e+00	0	43	0	1801453568	48	3959
2026-01-27 08:28:28.29	24.32	26.27	-38.4	-39.1	25.1	0.00e+00	0	43	0	1806696448	48	3891
2026-01-27 08:28:29.29	24.01	26.29	-38.5	-39.2	25.0	0.00e+00	0	43	0	1811939328	48	3933
2026-01-27 08:28:30.30	23.71	26.31	-38.5	-39.2	25.0	0.00e+00	0	43	0	1818230784	48	3957
2026-01-27 08:28:31.31	23.40	26.32	-38.4	-39.1	25.1	0.00e+00	0	43	0	1823473664	48	3885
2026-01-27 08:28:32.32	23.10	26.34	-38.5	-39.2	25.0	0.00e+00	0	43	0	1828716544	48	3933
2026-01-27 08:28:33.32	22.79	26.36	-38.6	-39.3	24.9	0.00e+00	0	43	0	1835008000	48	3972
2026-01-27 08:28:34.33	22.48	26.38	-38.4	-39.1	25.1	0.00e+00	0	43	0	1840250880	48	3888
2026-01-27 08:28:35.34	22.18	26.39	-38.4	-39.1	25.0	0.00e+00	0	43	0	1846542336	48	3911
2026-01-27 08:28:36.35	21.87	26.40	-38.3	-39.0	25.2	0.00e+00	0	43	0	1851785216	48	3837
2026-01-27 08:28:37.36	21.56	26.42	-38.0	-38.7	25.4	0.00e+00	0	43	0	1857028096	48	3713
2026-01-27 08:28:38.37	21.25	26.43	-37.6	-38.3	25.3	0.00e+00	0	43	0	1863319552	47	3776
2026-01-27 08:28:39.38	20.94	26.44	-37.6	-38.4	25.3	0.00e+00	0	43	0	1869611008	47	3786
2026-01-27 08:28:40.39	20.63	26.45	-37.4	-38.1	25.4	0.00e+00	0	43	0	1874853888	46	3913
2026-01-27 08:28:41.39	20.33	26.46	-37.4	-38.2	25.4	0.00e+00	0	43	0	1880096768	46	3916
2026-01-27 08:28:42.40	20.02	26.47	-37.4	-38.1	25.4	0.00e+00	0	43	0	1886388224	46	3909
2026-01-27 08:28:43.41	19.71	26.48	-37.6	-38.3	25.3	0.00e+00	0	43	0	1891631104	46	3967
2026-01-27 08:28:44.41	19.40	26.49	-37.5	-38.2	25.4	0.00e+00	0	43	0	1896873984	46	3942
2026-01-27 08:28:45.42	19.09	26.49	-37.6	-38.3	25.3	0.00e+00	0	43	0	1903165440	46	3992
2026-01-27 08:28:46.43	18.78	26.50	-37.7	-38.4	25.2	0.00e+00	0	43	0	1908408320	46	4049
2026-01-27 08:28:47.44	18.47	26.50	-37.9	-38.6	25.0	0.00e+00	0	43	0	1913651200	46	4132
2026-01-27 08:28:48.45	18.16	26.50	-38.1	-38.8	24.9	0.00e+00	0	43	0	1919942656	46	4214
2026-01-27 08:28:49.45	17.86	26.51	-38.2	-38.9	24.8	0.00e+00	0	43	0	1925185536	46	4261
2026-01-27 08:28:50.45	17.55	26.51	-38.1	-38.8	24.9	0.00e+00	0	43	0	1931476992	46	4204
2026-01-27 08:28:51.46	17.24	26.51	-38.0	-38.8	24.9	0.00e+00	0	43	0	1936719872	46	4198
2026-01-27 08:28:52.47	16.93	26.51	-37.9	-38.6	25.0	0.00e+00	0	43	0	1943011328	46	4137
2026-01-27 08:28:53.48	16.62	26.51	-37.9	-38.6	25.0	0.00e+00	0	43	0	1948254208	46	4116
2026-01-27 08:28:54.48	16.31	26.50	-37.9	-38.7	25.0	0.00e+00	0	43	0	1954545664	46	4152
2026-01-27 08:28:55.49	16.00	26.50	-37.8	-38.5	25.1	0.00e+00	0	43	0	1959788544	46	4086
2026-01-27 08:28:56.50	15.69	26.50	-37.6	-38.3	25.3	0.00e+00	0	43	0	1965031424	46	3966
2026-01-27 08:28:57.51	15.38	26.49	-37.5	-38.2	25.4	0.00e+00	0	43	0	1971322880	46	3952
2026-01-27 08:28:58.51	15.07	26.49	-37.5	-38.2	25.4	0.00e+00	0	43	0	1976565760	46	3917
2026-01-27 08:28:59.52	14.76	26.48	-37.5	-38.2	25.4	0.00e+00	0	43	0	1981808640	46	3919
2026-01-27 08:29:00.53	14.46	26.47	-37.5	-38.3	25.4	0.00e+00	0	43	0	1988100096	46	3961
2026-01-27 08:29:01.54	14.15	26.46	-37.7	-38.4	25.2	0.00e+00	0	43	0	1993342976	46	4028
2026-01-27 08:29:02.55	13.84	26.45	-37.9	-38.6	25.1	0.00e+00	0	43	0	1998585856	46	4112
2026-01-27 08:29:03.56	13.53	26.44	-37.9	-38.6	25.1	0.00e+00	0	43	0	2004877312	46	4107
2026-01-27 08:29:04.57	13.22	26.43	-37.8	-38.5	25.1	0.00e+00	0	43	0	2011168768	46	4084
2026-01-27 08:29:05.57	12.91	26.42	-37.8	-38.5	25.1	0.00e+00	0	43	0	2016411648	46	4078
2026-01-27 08:29:06.58	12.61	26.41	-37.9	-38.6	25.0	0.00e+00	0	43	0	2021654528	46	4136
2026-01-27 08:29:07.59	12.30	26.39	-37.9	-38.7	25.0	0.00e+00	0	43	0	2027945984	46	4156
2026-01-27 08:29:08.60	11.99	26.38	-38.0	-38.7	24.9	0.00e+00	0	43	0	2033188864	46	4193
2026-01-27 08:29:09.61	11.68	26.36	-37.9	-38.6	25.0	0.00e+00	0	43	0	2039480320	46	4126
2026-01-27 08:29:10.61	11.38	26.34	-37.8	-38.5	25.1	0.00e+00	0	43	0	2044723200	46	4067
2026-01-27 08:29:11.62	11.07	26.33	-37.7	-38.4	25.2	0.00e+00	0	43	0	2049966080	46	4027
2026-01-27 08:29:12.63	10.77	26.31	-37.7	-38.4	25.2	0.00e+00	0	43	0	2056257536	46	4019
2026-01-27 08:29:13.64	10.46	26.29	-37.8	-38.5	25.1	0.00e+00	0	43	0	2061500416	46	4060
2026-01-27 08:29:14.65	10.15	26.27	-37.7	-38.5	25.2	0.00e+00	0	43	0	2066743296	46	4056
2026-01-27 08:29:15.66	9.85	26.25	-37.9	-38.6	25.0	0.00e+00	0	43	0	2073034752	46	4111
2026-01-27 08:29:16.66	9.55	26.22	-37.8	-38.5	25.1	0.00e+00	0	43	0	2079326208	46	4092
2026-01-27 08:29:17.67	9.24	26.20	-37.5	-38.2	25.4	0.00e+00	0	43	0	2084569088	46	3921
2026-01-27 08:29:18.68	8.94	26.18	-37.6	-38.3	25.3	0.00e+00	0	43	0	2089811968	46	3989
2026-01-27 08:29:19.69	8.64	26.15	-37.6	-38.3	25.3	0.00e+00	0	43	0	2096103424	46	4002
2026-01-27 08:29:20.70	8.33	26.13	-37.7	-38.5	25.2	0.00e+00	0	43	0	2101346304	46	4060
2026-01-27 08:29:21.71	8.03	26.10	-37.8	-38.6	25.1	0.00e+00	0	43	0	2106589184	46	4106
2026-01-27 08:29:22.72	7.73	26.07	-38.0	-38.7	25.0	0.00e+00	0	43	0	2112880640	46	4172
2026-01-27 08:29:23.73	7.43	26.05	-38.1	-38.8	24.9	0.00e+00	0	43	0	2118123520	46	4219
2026-01-27 08:29:24.73	7.13	26.02	-38.1	-38.9	24.8	0.00e+00	0	43	0	2124414976	46	4255
2026-01-27 08:29:25.74	6.83	25.99	-38.0	-38.8	24.9	0.00e+00	0	43	0	2129657856	46	4207
2026-01-27 08:29:26.75	6.53	25.96	-38.1	-38.9	24.8	0.00e+00	0	43	0	2134900736	46	4243
2026-01-27 08:29:27.76	6.23	25.92	-37.8	-38.5	25.1	0.00e+00	0	43	0	2141192192	46	4086
2026-01-27 08:29:28.76	5.93	25.89	-37.7	-38.4	25.2	0.00e+00	0	43	0	2146435072	46	4031
2026-01-27 08:29:29.77	5.64	25.86	-37.6	-38.3	25.3	0.00e+00	0	43	0	2152726528	46	3991
2026-01-27 08:29:30.77	5.34	25.83	-37.7	-38.4	25.3	0.00e+00	0	43	0	2157969408	46	4012
2026-01-27 08:29:31.78	5.05	25.79	-37.6	-38.3	25.3	0.00e+00	0	43	0	2164260864	46	3978
2026-01-27 08:29:32.79	4.75	25.76	-37.6	-38.3	25.3	0.00e+00	0	43	0	2169503744	46	3970
2026-01-27 08:29:33.80	4.45	25.72	-37.7	-38.4	25.2	0.00e+00	0	43	0	2174746624	46	4005
2026-01-27 08:29:34.80	4.16	25.68	-37.7	-38.4	25.2	0.00e+00	0	43	0	2181038080	46	4022
2026-01-27 08:29:35.81	3.87	25.64	-37.8	-38.5	25.1	0.00e+00	0	43	0	2186280960	46	4083
2026-01-27 08:29:36.82	3.58	25.61	-37.7	-38.4	25.2	0.00e+00	0	43	0	2191523840	46	4033
2026-01-27 08:29:37.83	3.28	25.57	-37.7	-38.4	25.2	0.00e+00	0	43	0	2197815296	46	4041
2026-01-27 08:29:38.84	2.99	25.53	-37.8	-38.5	25.1	0.00e+00	0	43	0	2203058176	46	4077
2026-01-27 08:29:39.85	2.70	25.49	-37.9	-38.6	25.1	0.00e+00	0	43	0	2209349632	46	4107
2026-01-27 08:29:40.85	2.41	25.44	-37.8	-38.5	25.2	0.00e+00	0	43	0	2214592512	46	4059
2026-01-27 08:29:41.86	2.12	25.40	-37.9	-38.6	25.1	0.00e+00	0	43	0	2220883968	46	4115
2026-01-27 08:29:42.87	1.84	25.36	-37.8	-38.5	25.2	0.00e+00	0	43	0	2226126848	46	4079
2026-01-27 08:29:43.88	1.55	25.31	-37.9	-38.6	25.1	0.00e+00	0	43	0	2232418304	46	4111
2026-01-27 08:29:44.89	1.26	25.27	-37.9	-38.6	25.0	0.00e+00	0	43	0	2237661184	46	4121
2026-01-27 08:29:45.89	0.98	25.23	-37.9	-38.7	25.0	0.00e+00	0	43	0	2242904064	46	4150
2026-01-27 08:29:46.90	0.69	25.18	-37.9	-38.6	25.0	0.00e+00	0	43	0	2249195520	46	4142
2026-01-27 08:29:47.91	0.41	25.13	-37.8	-38.5	25.1	0.00e+00	0	43	0	2254438400	46	4089
2026-01-27 08:29:48.92	0.12	25.09	-37.8	-38.5	25.1	0.00e+00	0	43	0	2259681280	46	4090
2026-01-27 08:29:49.93	359.84	25.04	-37.7	-38.4	25.2	0.00e+00	0	43	0	2265972736	46	4046
2026-01-27 08:29:50.94	359.56	24.99	-37.7	-38.4	25.2	0.00e+00	0	43	0	2271215616	46	4041
2026-01-27 08:29:51.94	359.28	24.94	-37.7	-38.4	25.2	0.00e+00	0	43	0	2276458496	46	4030
2026-01-27 08:29:52.95	359.00	24.89	-37.7	-38.4	25.2	0.00e+00	0	43	0	2282749952	46	4027
2026-01-27 08:29:53.96	358.72	24.84	-37.6	-38.3	25.3	0.00e+00	0	43	0	2287992832	46	3976
2026-01-27 08:29:54.96	358.45	24.79	-37.6	-38.3	25.3	0.00e+00	0	43	0	2294284288	46	3982
2026-01-27 08:29:55.97	358.17	24.74	-37.6	-38.3	25.3	0.00e+00	0	43	0	2299527168	46	3986
2026-01-27 08:29:56.98	357.89	24.68	-37.5	-38.2	25.4	0.00e+00	0	43	0	2305818624	46	3931
2026-01-27 08:29:57.98	357.62	24.63	-37.6	-38.3	25.3	0.00e+00	0	43	0	2311061504	46	3970
2026-01-27 08:29:58.99	357.34	24.58	-37.4	-38.1	25.4	0.00e+00	0	43	0	2317352960	46	3906
2026-01-27 08:30:00.00	357.07	24.52	-37.5	-38.2	25.4	0.00e+00	0	43	0	2322595840	46	3926
2026-01-27 08:30:01.01	356.80	24.47	-37.5	-38.3	25.3	0.00e+00	0	43	0	2327838720	46	3961
2026-01-27 08:30:02.02	356.53	24.41	-37.7	-38.4	25.2	0.00e+00	0	43	0	2334130176	46	4015
2026-01-27 08:30:03.03	356.26	24.36	-37.8	-38.5	25.1	0.00e+00	0	43	0	2339373056	46	4071
2026-01-27 08:30:04.03	355.99	24.30	-37.8	-38.6	25.1	0.00e+00	0	43	0	2344615936	46	4100
2026-01-27 08:30:05.04	355.72	24.24	-37.8	-38.5	25.1	0.00e+00	0	43	0	2350907392	46	4098
2026-01-27 08:30:06.05	355.45	24.19	-37.9	-38.6	25.0	0.00e+00	0	43	0	2356150272	46	4102
2026-01-27 08:30:07.06	355.19	24.13	-37.9	-38.6	25.1	0.00e+00	0	43	0	2361393152	46	4110
2026-01-27 08:30:08.07	354.92	24.07	-37.8	-38.5	25.1	0.00e+00	0	43	0	2367684608	46	4094
2026-01-27 08:30:09.08	354.66	24.01	-37.8	-38.5	25.1	0.00e+00	0	43	0	2373976064	46	4095
2026-01-27 08:30:10.09	354.39	23.95	-37.7	-38.4	25.2	0.00e+00	0	43	0	2379218944	46	4044
2026-01-27 08:30:11.10	354.13	23.89	-37.8	-38.5	25.1	0.00e+00	0	43	0	2384461824	46	4076
2026-01-27 08:30:12.10	353.87	23.83	-37.8	-38.5	25.1	0.00e+00	0	43	0	2390753280	46	4080
2026-01-27 08:30:13.11	353.61	23.77	-37.8	-38.5	25.1	0.00e+00	0	43	0	2395996160	46	4067
2026-01-27 08:30:14.11	353.35	23.70	-37.8	-38.5	25.1	0.00e+00	0	43	0	2402287616	46	4052
2026-01-27 08:30:15.12	353.09	23.64	-37.8	-38.5	25.1	0.00e+00	0	43	0	2407530496	46	4085
2026-01-27 08:30:16.13	352.84	23.58	-37.8	-38.6	25.0	0.00e+00	0	43	0	2412773376	46	4102
2026-01-27 08:30:17.13	352.58	23.52	-37.9	-38.7	24.9	0.00e+00	0	43	0	2419064832	46	4149
2026-01-27 08:30:18.14	352.33	23.45	-38.1	-38.8	24.8	0.00e+00	0	43	0	2424307712	46	4215
2026-01-27 08:30:19.15	352.07	23.39	-38.1	-38.8	24.8	0.00e+00	0	43	0	2429550592	46	4238
2026-01-27 08:30:20.16	351.82	23.32	-37.9	-38.6	25.0	0.00e+00	0	43	0	2435842048	46	4142
2026-01-27 08:30:21.17	351.57	23.26	-37.9	-38.6	25.0	0.00e+00	0	43	0	2442133504	46	4108
2026-01-27 08:30:22.18	351.31	23.19	-37.9	-38.6	25.0	0.00e+00	0	43	0	2447376384	46	4128
2026-01-27 08:30:23.19	351.06	23.13	-37.9	-38.7	25.0	0.00e+00	0	43	0	2452619264	46	4152
2026-01-27 08:30:24.19	350.82	23.06	-38.1	-38.8	24.8	0.00e+00	0	43	0	2458910720	46	4222
2026-01-27 08:30:25.20	350.57	22.99	-38.0	-38.7	24.9	0.00e+00	0	43	0	2464153600	46	4191
2026-01-27 08:30:26.21	350.32	22.93	-38.0	-38.8	24.9	0.00e+00	0	43	0	2469396480	46	4197
2026-01-27 08:30:27.21	350.08	22.86	-38.0	-38.7	24.9	0.00e+00	0	43	0	2475687936	46	4168
2026-01-27 08:30:28.22	349.83	22.79	-37.9	-38.6	25.0	0.00e+00	0	43	0	2480930816	46	4121
2026-01-27 08:30:29.22	349.59	22.72	-37.8	-38.5	25.0	0.00e+00	0	43	0	2487222272	46	4084
2026-01-27 08:30:30.23	349.35	22.65	-37.8	-38.5	25.1	0.00e+00	0	43	0	2492465152	46	4082
2026-01-27 08:30:31.24	349.11	22.58	-37.8	-38.6	25.0	0.00e+00	0	43	0	2497708032	46	4104
2026-01-27 08:30:32.25	348.87	22.52	-37.8	-38.5	25.1	0.00e+00	0	43	0	2503999488	46	4056
2026-01-27 08:30:33.26	348.63	22.45	-37.7	-38.4	25.1	0.00e+00	0	43	0	2509242368	46	4039
2026-01-27 08:30:34.26	348.39	22.38	-37.8	-38.6	25.0	0.00e+00	0	43	0	2514485248	46	4099
2026-01-27 08:30:35.26	348.16	22.31	-38.0	-38.7	24.9	0.00e+00	0	43	0	2520776704	46	4182
2026-01-27 08:30:36.27	347.92	22.23	-38.1	-38.8	24.8	0.00e+00	0	43	0	2527068160	46	4213
2026-01-27 08:30:37.28	347.69	22.16	-38.1	-38.8	24.7	0.00e+00	0	43	0	2532311040	46	4239
2026-01-27 08:30:38.29	347.45	22.09	-38.1	-38.8	24.8	0.00e+00	0	43	0	2537553920	46	4230
2026-01-27 08:30:39.30	347.22	22.02	-38.1	-38.8	24.8	0.00e+00	0	43	0	2543845376	46	4215
2026-01-27 08:30:40.31	346.99	21.95	-38.1	-38.8	24.7	0.00e+00	0	43	0	2549088256	46	4237
2026-01-27 08:30:41.32	346.76	21.88	-38.1	-38.8	24.8	0.00e+00	0	43	0	2554331136	46	4214
2026-01-27 08:30:42.33	346.53	21.80	-38.2	-39.0	24.6	0.00e+00	0	43	0	2560622592	47	4064
2026-01-27 08:30:43.33	346.30	21.73	-38.1	-38.8	24.8	0.00e+00	0	43	0	2565865472	47	3981
2026-01-27 08:30:44.34	346.07	21.66	-38.1	-38.8	24.8	0.00e+00	0	43	0	2572156928	47	3982
2026-01-27 08:30:45.35	345.85	21.58	-38.0	-38.7	24.8	0.00e+00	0	43	0	2577399808	47	3953
2026-01-27 08:30:46.36	345.62	21.51	-38.2	-38.9	24.7	0.00e+00	0	43	0	2582642688	47	4018
2026-01-27 08:30:47.36	345.40	21.44	-38.3	-39.0	24.6	0.00e+00	0	43	0	2588934144	47	4093
2026-01-27 08:30:48.37	345.18	21.36	-38.4	-39.2	24.5	0.00e+00	0	43	0	2595225600	47	4158
2026-01-27 08:30:49.37	344.96	21.29	-38.4	-39.1	24.5	0.00e+00	0	43	0	2600468480	47	4139
2026-01-27 08:30:50.38	344.74	21.21	-38.4	-39.1	24.5	0.00e+00	0	43	0	2605711360	47	4130
2026-01-27 08:30:51.39	344.52	21.14	-38.3	-39.0	24.5	0.00e+00	0	43	0	2612002816	47	4097
2026-01-27 08:30:52.40	344.30	21.06	-38.4	-39.1	24.5	0.00e+00	0	43	0	2617245696	47	4111
2026-01-27 08:30:53.41	344.08	20.99	-38.5	-39.3	24.4	0.00e+00	0	43	0	2622488576	47	4210
2026-01-27 08:30:54.42	343.86	20.91	-38.7	-39.4	24.2	0.00e+00	0	43	0	2628780032	47	4273
2026-01-27 08:30:55.42	343.65	20.84	-38.7	-39.4	24.2	0.00e+00	0	43	0	2634022912	47	4284
2026-01-27 08:30:56.43	343.44	20.76	-38.7	-39.4	24.2	0.00e+00	0	43	0	2639265792	47	4275
2026-01-27 08:30:57.44	343.22	20.68	-38.9	-39.6	24.5	0.00e+00	0	43	0	2645557248	48	4135
2026-01-27 08:30:58.44	343.01	20.61	-38.9	-39.6	24.5	0.00e+00	0	43	0	2650800128	48	4125
2026-01-27 08:30:59.44	342.80	20.53	-39.0	-39.7	24.5	0.00e+00	0	43	0	2657091584	48	4167
2026-01-27 08:31:00.45	342.59	20.46	-39.0	-39.8	24.4	0.00e+00	0	43	0	2662334464	48	4200
2026-01-27 08:31:01.46	342.39	20.38	-39.2	-40.0	24.2	0.00e+00	0	43	0	2667577344	48	4301
2026-01-27 08:31:02.47	342.18	20.30	-39.2	-40.0	24.2	0.00e+00	0	43	0	2673868800	49	4065
2026-01-27 08:31:03.48	341.97	20.22	-39.2	-39.9	24.2	0.00e+00	0	43	0	2680160256	49	4051
2026-01-27 08:31:04.49	341.76	20.15	-39.0	-39.8	24.4	0.00e+00	0	43	0	2685403136	49	3959
2026-01-27 08:31:05.49	341.56	20.07	-39.0	-39.7	24.4	0.00e+00	0	43	0	2690646016	49	3957
2026-01-27 08:31:06.49	341.36	19.99	-39.1	-39.8	24.4	0.00e+00	0	43	0	2696937472	49	3969
2026-01-27 08:31:07.50	341.16	19.91	-39.0	-39.8	24.4	0.00e+00	0	43	0	2702180352	49	3967
2026-01-27 08:31:08.51	340.95	19.84	-39.1	-39.9	24.3	0.00e+00	0	43	0	2707423232	49	4012
2026-01-27 08:31:09.52	340.75	19.76	-39.2	-39.9	24.3	0.00e+00	0	43	0	2713714688	49	4036
2026-01-27 08:31:10.53	340.55	19.68	-39.1	-39.9	24.3	0.00e+00	0	43	0	2718957568	49	4010
2026-01-27 08:31:11.53	340.36	19.60	-39.1	-39.8	24.3	0.00e+00	0	43	0	2724200448	49	3992
2026-01-27 08:31:12.54	340.16	19.52	-39.1	-39.9	24.3	0.00e+00	0	43	0	2730491904	49	4005
2026-01-27 08:31:13.55	339.96	19.45	-39.1	-39.8	24.3	0.00e+00	0	43	0	2735734784	49	4002
2026-01-27 08:31:14.55	339.77	19.37	-39.1	-39.8	24.3	0.00e+00	0	43	0	2742026240	49	3998
2026-01-27 08:31:15.56	339.58	19.29	-39.0	-39.7	24.5	0.00e+00	0	43	0	2747269120	49	3934
2026-01-27 08:31:16.57	339.38	19.21	-39.0	-39.7	24.4	0.00e+00	0	43	0	2753560576	49	3956
2026-01-27 08:31:17.58	339.19	19.13	-38.9	-39.6	24.5	0.00e+00	0	43	0	2758803456	49	3908
2026-01-27 08:31:18.58	339.00	19.05	-38.9	-39.6	24.5	0.00e+00	0	43	0	2765094912	49	3902
2026-01-27 08:31:19.59	338.81	18.97	-39.0	-39.7	24.4	0.00e+00	0	43	0	2770337792	49	3958
2026-01-27 08:31:20.60	338.62	18.89	-39.0	-39.7	24.4	0.00e+00	0	43	0	2775580672	49	3955
2026-01-27 08:31:21.61	338.43	18.81	-39.1	-39.8	24.3	0.00e+00	0	43	0	2781872128	49	3997
2026-01-27 08:31:22.61	338.25	18.74	-39.2	-40.0	24.2	0.00e+00	0	43	0	2787115008	49	4056
2026-01-27 08:31:23.62	338.06	18.66	-39.2	-40.0	24.2	0.00e+00	0	43	0	2792357888	49	4058
2026-01-27 08:31:24.63	337.87	18.58	-39.4	-40.1	24.0	0.00e+00	0	43	0	2798649344	49	4133
2026-01-27 08:31:25.64	337.69	18.50	-39.5	-40.2	24.0	0.00e+00	0	43	0	2803892224	49	4174
2026-01-27 08:31:26.65	337.51	18.42	-39.4	-40.2	24.0	0.00e+00	0	43	0	2809135104	49	4163
2026-01-27 08:31:27.65	337.32	18.34	-39.6	-40.3	23.9	0.00e+00	0	43	0	2815426560	49	4223
2026-01-27 08:31:28.66	337.14	18.26	-39.5	-40.2	23.9	0.00e+00	0	43	0	2820669440	49	4177
2026-01-27 08:31:29.67	336.96	18.18	-39.3	-40.1	24.0	0.00e+00	0	43	0	2826960896	49	4121
2026-01-27 08:31:30.68	336.78	18.10	-39.3	-40.0	24.1	0.00e+00	0	43	0	2832203776	49	4095
2026-01-27 08:31:31.69	336.60	18.02	-39.2	-39.9	24.2	0.00e+00	0	43	0	2838495232	49	4034
2026-01-27 08:31:32.69	336.43	17.94	-39.2	-39.9	24.2	0.00e+00	0	43	0	2843738112	49	4044
2026-01-27 08:31:33.70	336.25	17.86	-39.3	-40.1	24.1	0.00e+00	0	43	0	2850029568	49	4100
2026-01-27 08:31:34.71	336.07	17.78	-39.3	-40.0	24.1	0.00e+00	0	43	0	2855272448	49	4067
2026-01-27 08:31:35.71	335.90	17.70	-39.4	-40.1	24.0	0.00e+00	0	43	0	2860515328	49	4123
2026-01-27 08:31:36.71	335.73	17.62	-39.4	-40.1	24.0	0.00e+00	0	43	0	2866806784	49	4136
2026-01-27 08:31:37.72	335.56	17.54	-39.5	-40.2	23.9	0.00e+00	0	43	0	2872049664	49	4189
2026-01-27 08:31:38.72	335.39	17.46	-39.5	-40.2	23.9	0.00e+00	0	43	0	2877292544	49	4172
2026-01-27 08:31:39.73	335.21	17.38	-39.6	-40.3	23.8	0.00e+00	0	43	0	2883584000	49	4227
2026-01-27 08:31:40.74	335.04	17.30	-39.7	-40.5	23.7	0.00e+00	0	43	0	2888826880	49	4294
2026-01-27 08:31:41.74	334.88	17.22	-39.7	-40.5	23.7	0.00e+00	0	43	0	2894069760	50	4077
2026-01-27 08:31:42.75	334.71	17.14	-39.9	-40.6	23.6	0.00e+00	0	43	0	2900361216	50	4135
2026-01-27 08:31:43.76	334.54	17.06	-39.8	-40.6	23.6	0.00e+00	0	43	0	2905604096	50	4104
2026-01-27 08:31:44.77	334.37	16.98	-39.7	-40.4	23.7	0.00e+00	0	43	0	2911895552	50	4051
2026-01-27 08:31:45.78	334.21	16.90	-39.8	-40.5	23.6	0.00e+00	0	43	0	2917138432	50	4078
2026-01-27 08:31:46.78	334.04	16.82	-39.8	-40.5	23.6	0.00e+00	0	43	0	2923429888	50	4085
2026-01-27 08:31:47.79	333.88	16.74	-39.8	-40.6	23.5	0.00e+00	0	43	0	2928672768	50	4123
2026-01-27 08:31:48.80	333.72	16.66	-39.9	-40.7	23.5	0.00e+00	0	43	0	2934964224	50	4146
2026-01-27 08:31:49.81	333.55	16.58	-39.9	-40.7	23.5	0.00e+00	0	43	0	2940207104	50	4171
2026-01-27 08:31:50.82	333.39	16.50	-40.1	-40.8	23.4	0.00e+00	0	43	0	2945449984	50	4230
2026-01-27 08:31:51.82	333.23	16.43	-40.0	-40.8	23.4	0.00e+00	0	43	0	2951741440	50	4219
2026-01-27 08:31:52.83	333.07	16.35	-40.0	-40.7	23.4	0.00e+00	0	43	0	2956984320	50	4187
2026-01-27 08:31:53.84	332.92	16.27	-40.0	-40.8	23.4	0.00e+00	0	43	0	2962227200	50	4203
2026-01-27 08:31:54.85	332.76	16.19	-40.1	-40.9	23.3	0.00e+00	0	43	0	2968518656	50	4253
2026-01-27 08:31:55.85	332.60	16.11	-40.0	-40.8	23.3	0.00e+00	0	43	0	2973761536	50	4209
2026-01-27 08:31:56.86	332.45	16.03	-40.1	-40.9	23.3	0.00e+00	0	43	0	2979004416	50	4255
2026-01-27 08:31:57.87	332.29	15.95	-40.1	-40.9	23.2	0.00e+00	0	43	0	2985295872	50	4270
2026-01-27 08:31:58.87	332.14	15.87	-40.0	-40.8	23.3	0.00e+00	0	43	0	2991587328	50	4218
2026-01-27 08:31:59.88	331.98	15.79	-40.0	-40.7	23.4	0.00e+00	0	43	0	2996830208	50	4191
2026-01-27 08:32:00.89	331.83	15.71	-40.0	-40.8	23.4	0.00e+00	0	43	0	3002073088	50	4198
2026-01-27 08:32:01.90	331.68	15.63	-40.1	-40.8	23.3	0.00e+00	0	43	0	3008364544	50	4230
2026-01-27 08:32:02.91	331.53	15.55	-40.1	-40.9	23.3	0.00e+00	0	43	0	3013607424	50	4245
2026-01-27 08:32:03.92	331.38	15.47	-40.1	-40.9	23.2	0.00e+00	0	43	0	3019898880	50	4272
2026-01-27 08:32:04.93	331.23	15.39	-40.1	-40.9	23.2	0.00e+00	0	43	0	3025141760	50	4274
2026-01-27 08:32:05.94	331.08	15.31	-40.2	-41.0	23.2	0.00e+00	0	43	0	3030384640	50	4299
2026-01-27 08:32:06.94	330.93	15.23	-40.0	-40.8	23.3	0.00e+00	0	43	0	3036676096	50	4221
2026-01-27 08:32:07.95	330.79	15.16	-40.0	-40.8	23.3	0.00e+00	0	43	0	3041918976	50	4224
2026-01-27 08:32:08.97	330.64	15.08	-40.1	-40.9	23.2	0.00e+00	0	43	0	3048210432	50	4277
2026-01-27 08:32:09.97	330.49	15.00	-40.3	-41.1	23.0	0.00e+00	0	43	0	3053453312	51	4110
2026-01-27 08:32:10.98	330.35	14.92	-40.3	-41.1	23.1	0.00e+00	0	43	0	3059744768	51	4105
2026-01-27 08:32:11.99	330.20	14.84	-40.4	-41.2	22.9	0.00e+00	0	43	0	3064987648	51	4175
2026-01-27 08:32:13.00	330.06	14.76	-40.4	-41.2	22.9	0.00e+00	0	43	0	3070230528	51	4186
2026-01-27 08:32:14.01	329.92	14.68	-40.3	-41.1	23.0	0.00e+00	0	43	0	3076521984	51	4126
2026-01-27 08:32:15.02	329.78	14.60	-40.3	-41.1	23.0	0.00e+00	0	43	0	3081764864	51	4106
2026-01-27 08:32:16.03	329.64	14.53	-40.4	-41.2	22.9	0.00e+00	0	43	0	3087007744	51	4162
2026-01-27 08:32:17.03	329.50	14.45	-40.5	-41.3	22.8	0.00e+00	0	43	0	3093299200	51	4200
2026-01-27 08:32:18.04	329.36	14.37	-40.5	-41.3	22.8	0.00e+00	0	43	0	3098542080	51	4219
2026-01-27 08:32:19.04	329.22	14.29	-40.5	-41.3	22.8	0.00e+00	0	43	0	3104833536	51	4211
2026-01-27 08:32:20.05	329.08	14.21	-40.4	-41.2	22.9	0.00e+00	0	43	0	3110076416	51	4158
2026-01-27 08:32:21.07	328.94	14.13	-40.5	-41.2	22.9	6.80e-06	0	43	0	3116367872	51	4192
2026-01-27 08:32:22.08	328.81	14.06	-40.5	-41.3	22.8	0.00e+00	0	43	0	3121610752	51	4215
2026-01-27 08:32:23.09	328.67	13.98	-40.5	-41.3	22.8	0.00e+00	0	43	0	3127902208	51	4204
2026-01-27 08:32:24.09	328.54	13.90	-40.5	-41.2	22.8	0.00e+00	0	43	0	3133145088	51	4193
2026-01-27 08:32:25.10	328.40	13.82	-40.6	-41.4	22.8	0.00e+00	0	43	0	3138387968	51	4243
2026-01-27 08:32:26.11	328.27	13.75	-40.7	-41.5	22.6	0.00e+00	0	43	0	3144679424	51	4318
2026-01-27 08:32:27.12	328.14	13.67	-40.8	-41.6	22.4	0.00e+00	0	43	0	3149922304	52	4107
2026-01-27 08:32:28.12	328.01	13.59	-40.8	-41.6	22.4	0.00e+00	0	43	0	3155165184	52	4136
2026-01-27 08:32:29.13	327.87	13.51	-40.8	-41.6	22.4	0.00e+00	0	43	0	3161456640	52	4122
2026-01-27 08:32:30.14	327.74	13.44	-40.9	-41.7	22.3	0.00e+00	0	43	0	3166699520	52	4188
2026-01-27 08:32:31.15	327.61	13.36	-40.9	-41.7	22.3	0.00e+00	0	43	0	3171942400	52	4178
2026-01-27 08:32:32.16	327.48	13.28	-41.0	-41.8	22.2	0.00e+00	0	43	0	3178233856	52	4233
2026-01-27 08:32:33.17	327.36	13.21	-40.9	-41.7	22.3	0.00e+00	0	43	0	3184525312	52	4155
2026-01-27 08:32:34.18	327.23	13.13	-40.9	-41.8	22.3	0.00e+00	0	43	0	3189768192	52	4198
2026-01-27 08:32:35.19	327.10	13.05	-40.9	-41.8	22.3	0.00e+00	0	43	0	3195011072	52	4196
2026-01-27 08:32:36.20	326.97	12.98	-40.8	-41.7	22.3	0.00e+00	0	43	0	3201302528	52	4148
2026-01-27 08:32:37.21	326.85	12.90	-40.9	-41.7	22.3	0.00e+00	0	43	0	3206545408	52	4164
2026-01-27 08:32:38.22	326.72	12.82	-40.9	-41.7	22.3	0.00e+00	0	43	0	3212836864	52	4166
2026-01-27 08:32:39.23	326.60	12.75	-41.0	-41.8	22.2	0.00e+00	0	43	0	3218079744	52	4217
2026-01-27 08:32:40.24	326.47	12.67	-41.0	-41.8	22.2	0.00e+00	0	43	0	3223322624	52	4212
2026-01-27 08:32:41.25	326.35	12.59	-40.8	-41.6	22.4	0.00e+00	0	43	0	3229614080	52	4119
2026-01-27 08:32:42.25	326.23	12.52	-40.9	-41.8	22.2	0.00e+00	0	43	0	3234856960	52	4204
2026-01-27 08:32:43.26	326.11	12.44	-40.8	-41.6	22.4	0.00e+00	0	43	0	3240099840	52	4112
2026-01-27 08:32:44.27	325.99	12.37	-40.8	-41.6	22.3	0.00e+00	0	43	0	3246391296	52	4131
2026-01-27 08:32:45.28	325.87	12.29	-40.8	-41.6	22.3	0.00e+00	0	43	0	3252682752	52	4116
2026-01-27 08:32:46.29	325.75	12.21	-40.9	-41.7	22.2	0.00e+00	0	43	0	3257925632	52	4170
2026-01-27 08:32:47.29	325.63	12.14	-41.0	-41.8	22.1	0.00e+00	0	43	0	3263168512	52	4214
2026-01-27 08:32:48.30	325.51	12.06	-40.8	-41.7	22.3	0.00e+00	0	43	0	3269459968	52	4149
2026-01-27 08:32:49.31	325.39	11.99	-40.9	-41.7	22.2	0.00e+00	0	43	0	3274702848	52	4186
2026-01-27 08:32:50.32	325.27	11.91	-40.9	-41.8	22.2	0.00e+00	0	43	0	3279945728	52	4196
2026-01-27 08:32:51.33	325.16	11.84	-41.0	-41.9	22.1	0.00e+00	0	43	0	3286237184	52	4254
2026-01-27 08:32:52.33	325.04	11.76	-41.2	-42.1	21.9	0.00e+00	0	43	0	3291480064	53	4109
2026-01-27 08:32:53.34	324.92	11.69	-41.3	-42.2	21.8	0.00e+00	0	43	0	3297771520	53	4149
2026-01-27 08:32:54.35	324.81	11.61	-41.2	-42.1	21.9	0.00e+00	0	43	0	3303014400	53	4121
2026-01-27 08:32:55.36	324.69	11.54	-41.3	-42.2	21.8	0.00e+00	0	43	0	3308257280	53	4146
2026-01-27 08:32:56.37	324.58	11.46	-41.3	-42.2	21.8	0.00e+00	0	43	0	3314548736	53	4170
2026-01-27 08:32:57.38	324.47	11.39	-41.2	-42.1	21.8	0.00e+00	0	43	0	3320840192	53	4119
2026-01-27 08:32:58.38	324.36	11.32	-41.2	-42.1	21.9	0.00e+00	0	43	0	3326083072	53	4099
2026-01-27 08:32:59.39	324.24	11.24	-41.2	-42.1	21.9	0.00e+00	0	43	0	3331325952	53	4106
2026-01-27 08:33:00.40	324.13	11.17	-41.3	-42.1	21.8	0.00e+00	0	43	0	3337617408	53	4135
2026-01-27 08:33:01.41	324.02	11.09	-41.3	-42.2	21.7	0.00e+00	0	43	0	3342860288	53	4151
2026-01-27 08:33:02.42	323.91	11.02	-41.3	-42.2	21.7	0.00e+00	0	43	0	3348103168	53	4158
2026-01-27 08:33:03.42	323.80	10.95	-41.3	-42.2	21.7	0.00e+00	0	43	0	3354394624	53	4168
2026-01-27 08:33:04.43	323.69	10.87	-41.4	-42.3	21.6	0.00e+00	0	43	0	3359637504	53	4210
2026-01-27 08:33:05.44	323.58	10.80	-41.5	-42.3	21.6	0.00e+00	0	43	0	3364880384	53	4241
2026-01-27 08:33:06.45	323.48	10.73	-41.4	-42.3	21.6	0.00e+00	0	43	0	3371171840	53	4227
2026-01-27 08:33:07.45	323.37	10.65	-41.6	-42.5	21.4	0.00e+00	0	43	0	3376414720	53	4297
2026-01-27 08:33:08.46	323.26	10.58	-41.6	-42.4	21.5	0.00e+00	0	43	0	3382706176	53	4285
2026-01-27 08:33:09.46	323.16	10.51	-41.5	-42.4	21.5	0.00e+00	0	43	0	3387949056	53	4244
2026-01-27 08:33:10.47	323.05	10.44	-41.6	-42.4	21.5	0.00e+00	0	43	0	3394240512	53	4289
2026-01-27 08:33:11.47	322.95	10.36	-41.4	-42.3	21.6	0.00e+00	0	43	0	3399483392	53	4200
2026-01-27 08:33:12.48	322.84	10.29	-41.4	-42.2	21.6	0.00e+00	0	43	0	3405774848	53	4188
2026-01-27 08:33:13.49	322.74	10.22	-41.4	-42.3	21.6	0.00e+00	0	43	0	3411017728	53	4220
2026-01-27 08:33:14.50	322.63	10.15	-41.6	-42.4	21.4	0.00e+00	0	43	0	3416260608	53	4285
2026-01-27 08:33:15.50	322.53	10.07	-41.6	-42.5	21.4	0.00e+00	0	43	0	3422552064	53	4300
2026-01-27 08:33:16.51	322.43	10.00	-41.6	-42.5	21.3	0.00e+00	0	43	0	3427794944	53	4332
2026-01-27 08:33:17.52	322.33	9.93	-41.7	-42.5	21.3	0.00e+00	0	43	0	3433037824	53	4336
2026-01-27 08:33:18.52	322.23	9.86	-41.7	-42.6	21.2	0.00e+00	0	43	0	3439329280	54	4139
2026-01-27 08:33:19.53	322.12	9.79	-41.7	-42.6	21.3	0.00e+00	0	43	0	3444572160	54	4131
2026-01-27 08:33:20.54	322.02	9.72	-41.8	-42.7	21.2	0.00e+00	0	43	0	3449815040	54	4160
2026-01-27 08:33:21.55	321.92	9.64	-41.8	-42.7	21.1	0.00e+00	0	43	0	3456106496	54	4180
2026-01-27 08:33:22.56	321.82	9.57	-41.8	-42.7	21.1	0.00e+00	0	43	0	3461349376	54	4178
2026-01-27 08:33:23.57	321.72	9.50	-42.0	-42.9	21.0	0.00e+00	0	43	0	3467640832	54	4275
2026-01-27 08:33:24.57	321.63	9.43	-41.8	-42.8	21.1	0.00e+00	0	43	0	3472883712	54	4195
2026-01-27 08:33:25.58	321.53	9.36	-42.0	-43.0	20.9	0.00e+00	0	43	0	3479175168	54	4302
2026-01-27 08:33:26.59	321.43	9.29	-41.9	-42.8	21.0	0.00e+00	0	43	0	3484418048	54	4230
2026-01-27 08:33:27.59	321.33	9.22	-41.8	-42.7	21.1	0.00e+00	0	43	0	3490709504	54	4183
2026-01-27 08:33:28.60	321.24	9.15	-41.9	-42.8	21.0	0.00e+00	0	43	0	3495952384	54	4236
2026-01-27 08:33:29.61	321.14	9.08	-41.8	-42.7	21.1	0.00e+00	0	43	0	3501195264	54	4176
2026-01-27 08:33:30.62	321.05	9.01	-41.9	-42.8	21.1	0.00e+00	0	43	0	3507486720	54	4200
2026-01-27 08:33:31.63	320.95	8.94	-41.9	-42.8	20.9	0.00e+00	0	43	0	3512729600	54	4235
2026-01-27 08:33:32.64	320.86	8.86	-42.0	-43.0	20.8	0.00e+00	0	43	0	3517972480	54	4296
2026-01-27 08:33:33.65	320.76	8.79	-41.9	-42.8	20.9	0.00e+00	0	43	0	3524263936	54	4236
2026-01-27 08:33:34.66	320.67	8.72	-41.8	-42.7	21.0	0.00e+00	0	43	0	3529506816	54	4184
2026-01-27 08:33:35.67	320.57	8.65	-41.9	-42.8	20.9	0.00e+00	0	43	0	3535798272	54	4236
2026-01-27 08:33:36.68	320.48	8.58	-41.9	-42.8	20.9	0.00e+00	0	43	0	3541041152	54	4224
2026-01-27 08:33:37.68	320.39	8.52	-42.0	-42.9	20.9	0.00e+00	0	43	0	3547332608	54	4260
2026-01-27 08:33:38.69	320.30	8.45	-42.0	-42.9	20.9	0.00e+00	0	43	0	3552575488	54	4257
2026-01-27 08:33:39.70	320.21	8.38	-42.1	-43.0	20.7	0.00e+00	0	43	0	3557818368	54	4326
2026-01-27 08:33:40.71	320.11	8.31	-42.1	-43.0	20.7	0.00e+00	0	43	0	3564109824	54	4328
2026-01-27 08:33:41.71	320.02	8.24	-42.0	-43.0	20.8	0.00e+00	0	43	0	3569352704	54	4303
2026-01-27 08:33:42.72	319.93	8.17	-42.1	-43.1	20.7	0.00e+00	0	43	0	3575644160	54	4356
2026-01-27 08:33:43.73	319.84	8.10	-42.1	-43.1	20.6	0.00e+00	0	43	0	3580887040	54	4361
2026-01-27 08:33:44.73	319.76	8.03	-42.3	-43.3	20.5	0.00e+00	0	43	0	3586129920	55	4216
2026-01-27 08:33:45.74	319.67	7.96	-42.4	-43.3	20.4	0.00e+00	0	43	0	3592421376	55	4234
2026-01-27 08:33:46.75	319.58	7.90	-42.2	-43.2	20.5	0.00e+00	0	43	0	3597664256	55	4160
2026-01-27 08:33:47.76	319.49	7.83	-42.4	-43.4	20.3	0.00e+00	0	43	0	3602907136	55	4258
2026-01-27 08:33:48.76	319.40	7.76	-42.5	-43.4	20.3	0.00e+00	0	43	0	3609198592	55	4273
2026-01-27 08:33:49.77	319.32	7.69	-42.4	-43.3	20.4	0.00e+00	0	43	0	3615490048	55	4239
2026-01-27 08:33:50.78	319.23	7.62	-42.2	-43.2	20.5	0.00e+00	0	43	0	3620732928	55	4162
2026-01-27 08:33:51.79	319.14	7.55	-42.2	-43.2	20.5	0.00e+00	0	43	0	3625975808	55	4146
2026-01-27 08:33:52.80	319.06	7.49	-42.3	-43.3	20.4	0.00e+00	0	43	0	3632267264	55	4206
2026-01-27 08:33:53.81	318.97	7.42	-42.1	-43.0	20.6	0.00e+00	0	43	0	3637510144	55	4089
2026-01-27 08:33:54.82	318.89	7.35	-42.3	-43.2	20.4	0.00e+00	0	43	0	3642753024	55	4186
2026-01-27 08:33:55.83	318.80	7.28	-42.3	-43.2	20.5	0.00e+00	0	43	0	3649044480	55	4179
2026-01-27 08:33:56.84	318.72	7.22	-42.2	-43.1	20.5	0.00e+00	0	43	0	3654287360	55	4139
2026-01-27 08:33:57.85	318.63	7.15	-42.2	-43.2	20.5	0.00e+00	0	43	0	3660578816	55	4153
