passes_logs/2026/01/27/R3.2S_Murmansk/R3.2S_Murmansk__20260127_123532_2024-095A_rec.log

#Pass ID: 20260127_123532_2024-095A
#Satellite: 2024-095A
#Configuration: WH1_900M
#almurnet v.1.7.20251203
#Start time: 2026-01-27 12:39:15

#Version: 2.2.20231116
#Station: R3.2S_Murmansk
#Location: 33.079688 lon 68.888172 lat
#TLE: 1 59810U 24095A   26027.31094692  .00009034  00000+0  53675-3 0  9998
#TLE: 2 59810  97.5461 108.2138 0001383 248.5076 111.6006 15.11518484 92865

#Time	Az	El	Level	Level2	SNR	BER	BlckErr	Temp	State	Recorded	gain1	gain2
2026-01-27 12:39:15.11	349.99	16.03	-53.3	-68.2	3.8	1.49e+00	0	42	0	0	77	20995
2026-01-27 12:39:16.12	349.68	16.08	-55.0	-57.2	6.2	0.00e+00	0	44	104	0	81	18630
2026-01-27 12:39:17.12	349.39	16.12	-55.0	-57.2	6.2	0.00e+00	0	44	104	0	81	18707
2026-01-27 12:39:18.13	349.08	16.16	-55.1	-57.2	6.2	0.00e+00	0	44	104	0	81	18718
2026-01-27 12:39:19.13	348.78	16.20	-55.1	-57.2	6.2	0.00e+00	0	44	104	0	81	18733
2026-01-27 12:39:20.14	348.48	16.25	-55.1	-57.2	6.2	0.00e+00	0	44	104	0	81	18779
2026-01-27 12:39:21.15	348.17	16.29	-55.1	-57.3	6.2	0.00e+00	0	44	104	0	81	18834
2026-01-27 12:39:22.16	347.86	16.33	-55.1	-57.3	6.2	0.00e+00	0	44	104	0	81	18838
2026-01-27 12:39:23.16	347.56	16.36	-55.1	-57.3	6.2	0.00e+00	0	44	104	0	81	18905
2026-01-27 12:39:24.17	347.25	16.40	-55.2	-57.3	6.2	0.00e+00	0	44	104	0	81	18876
2026-01-27 12:39:25.17	346.94	16.44	-55.2	-57.3	6.2	0.00e+00	0	44	104	0	81	18875
2026-01-27 12:39:26.18	346.63	16.48	-55.2	-57.3	6.2	0.00e+00	0	44	104	0	81	18942
2026-01-27 12:39:27.19	346.32	16.51	-55.2	-57.3	6.2	0.00e+00	0	44	104	0	81	18973
2026-01-27 12:39:28.20	346.01	16.55	-55.2	-57.3	6.2	0.00e+00	0	44	104	0	81	18957
2026-01-27 12:39:29.21	345.70	16.59	-55.2	-57.3	6.2	0.00e+00	0	44	104	0	81	18986
2026-01-27 12:39:30.21	345.39	16.62	-55.2	-57.3	6.2	0.00e+00	0	44	104	0	81	18999
2026-01-27 12:39:31.22	345.07	16.65	-55.2	-57.3	6.2	0.00e+00	0	44	104	0	81	19011
2026-01-27 12:39:32.23	344.75	16.69	-55.2	-57.4	6.2	0.00e+00	0	44	104	0	81	19096
2026-01-27 12:39:33.24	344.44	16.72	-55.2	-57.3	6.2	0.00e+00	0	44	104	0	81	18989
2026-01-27 12:39:34.24	344.12	16.75	-55.2	-57.4	6.2	0.00e+00	0	44	104	0	81	19102
2026-01-27 12:39:35.25	343.81	16.78	-55.2	-57.3	6.2	0.00e+00	0	44	104	0	81	18992
2026-01-27 12:39:36.26	343.49	16.81	-55.2	-57.3	6.2	0.00e+00	0	44	104	0	81	19017
2026-01-27 12:39:37.27	343.17	16.84	-55.2	-57.3	6.2	0.00e+00	0	44	104	0	81	18968
2026-01-27 12:39:38.28	342.85	16.87	-55.2	-57.3	6.2	0.00e+00	0	44	104	0	81	19021
2026-01-27 12:39:39.29	342.53	16.90	-55.2	-57.3	6.2	0.00e+00	0	44	104	0	81	18960
2026-01-27 12:39:40.29	342.21	16.92	-55.2	-57.3	6.2	0.00e+00	0	44	104	0	81	18968
2026-01-27 12:39:41.30	341.89	16.95	-55.2	-57.3	6.2	0.00e+00	0	44	104	0	81	18888
2026-01-27 12:39:42.31	341.56	16.97	-55.1	-57.3	6.2	0.00e+00	0	45	104	0	81	18873
2026-01-27 12:39:43.31	341.24	17.00	-55.1	-57.2	6.2	0.00e+00	0	44	104	0	81	18804
2026-01-27 12:39:44.32	340.92	17.02	-55.1	-57.2	6.2	0.00e+00	0	44	104	0	81	18811
2026-01-27 12:39:45.33	340.59	17.05	-55.1	-57.2	6.2	0.00e+00	0	45	104	0	81	18776
2026-01-27 12:39:46.34	340.27	17.07	-55.1	-57.2	6.2	0.00e+00	0	45	104	0	81	18707
2026-01-27 12:39:47.35	339.94	17.09	-55.1	-57.2	6.2	0.00e+00	0	44	104	0	81	18759
2026-01-27 12:39:48.36	339.62	17.11	-55.1	-57.3	6.2	0.00e+00	0	45	104	0	81	18819
2026-01-27 12:39:49.37	339.29	17.13	-55.1	-57.2	6.2	0.00e+00	0	45	104	0	81	18763
2026-01-27 12:39:50.37	338.97	17.15	-55.1	-57.2	6.2	0.00e+00	0	45	104	0	81	18729
2026-01-27 12:39:51.38	338.64	17.17	-55.1	-57.2	6.2	0.00e+00	0	45	104	0	81	18740
2026-01-27 12:39:52.39	338.31	17.18	-55.1	-57.2	6.2	0.00e+00	0	45	104	0	81	18754
2026-01-27 12:39:53.40	337.98	17.20	-55.1	-57.2	6.2	0.00e+00	0	45	104	0	81	18722
2026-01-27 12:39:54.41	337.65	17.22	-55.1	-57.2	6.2	0.00e+00	0	45	104	0	81	18690
2026-01-27 12:39:55.42	337.32	17.23	-55.1	-57.2	6.2	0.00e+00	0	45	104	0	81	18649
2026-01-27 12:39:56.43	336.99	17.24	-55.1	-57.2	6.2	0.00e+00	0	45	104	0	81	18718
2026-01-27 12:39:57.44	336.66	17.26	-55.1	-57.2	6.2	0.00e+00	0	45	104	0	81	18634
2026-01-27 12:39:58.45	336.33	17.27	-55.0	-57.2	6.2	0.00e+00	0	45	104	0	81	18636
2026-01-27 12:39:59.45	336.00	17.28	-55.0	-57.2	6.2	0.00e+00	0	44	104	0	81	18651
2026-01-27 12:40:00.46	335.67	17.29	-55.0	-57.2	6.2	0.00e+00	0	45	104	0	81	18617
2026-01-27 12:40:01.47	335.34	17.30	-55.0	-57.2	6.2	0.00e+00	0	45	104	0	81	18622
2026-01-27 12:40:02.48	335.01	17.31	-55.0	-57.2	6.2	0.00e+00	0	45	104	0	81	18610
2026-01-27 12:40:03.48	334.68	17.32	-55.0	-57.2	6.2	0.00e+00	0	45	104	0	81	18607
2026-01-27 12:40:04.49	334.35	17.32	-55.1	-57.2	6.2	0.00e+00	0	45	104	0	81	18643
2026-01-27 12:40:05.50	334.02	17.33	-55.0	-57.2	6.2	0.00e+00	0	45	104	0	81	18610
2026-01-27 12:40:06.51	333.68	17.33	-55.0	-57.2	6.2	0.00e+00	0	45	104	0	81	18660
2026-01-27 12:40:07.52	333.35	17.34	-55.0	-57.1	6.2	0.00e+00	0	45	104	0	81	18585
2026-01-27 12:40:08.53	333.02	17.34	-55.0	-57.1	6.2	0.00e+00	0	45	104	0	81	18547
2026-01-27 12:40:09.53	332.69	17.34	-55.0	-57.1	6.2	0.00e+00	0	45	104	0	81	18560
2026-01-27 12:40:10.53	332.36	17.35	-55.0	-57.1	6.2	0.00e+00	0	45	104	0	81	18592
2026-01-27 12:40:11.54	332.03	17.35	-55.1	-57.2	6.2	0.00e+00	0	45	104	0	81	18661
2026-01-27 12:40:12.55	331.70	17.35	-55.2	-57.3	6.2	0.00e+00	0	45	104	0	81	18909
2026-01-27 12:40:13.56	331.36	17.34	-55.2	-57.3	6.2	0.00e+00	0	45	104	0	81	18980
2026-01-27 12:40:14.57	331.03	17.34	-55.2	-57.3	6.2	0.00e+00	0	45	104	0	81	19028
2026-01-27 12:40:15.57	330.70	17.34	-55.3	-57.4	6.2	0.00e+00	0	45	104	0	81	19106
2026-01-27 12:40:16.58	330.37	17.34	-55.3	-57.4	6.2	0.00e+00	0	45	104	0	81	19076
2026-01-27 12:40:17.59	330.04	17.33	-55.2	-57.4	6.2	0.00e+00	0	45	104	0	81	19100
2026-01-27 12:40:18.60	329.70	17.33	-55.2	-57.4	6.2	0.00e+00	0	45	104	0	81	19049
2026-01-27 12:40:19.61	329.37	17.32	-55.2	-57.3	6.2	0.00e+00	0	45	104	0	81	19019
2026-01-27 12:40:20.62	329.04	17.31	-55.2	-57.3	6.2	0.00e+00	0	45	104	0	81	18973
2026-01-27 12:40:21.63	328.71	17.30	-55.2	-57.3	6.2	0.00e+00	0	45	104	0	81	18988
2026-01-27 12:40:22.63	328.38	17.30	-55.1	-57.2	6.2	0.00e+00	0	45	104	0	81	18791
2026-01-27 12:40:23.64	328.05	17.29	-55.1	-57.1	6.2	0.00e+00	0	45	104	0	81	18579
2026-01-27 12:40:24.65	327.72	17.28	-55.1	-57.2	6.2	0.00e+00	0	45	104	0	81	18704
2026-01-27 12:40:25.65	327.39	17.26	-55.0	-57.1	6.2	0.00e+00	0	45	104	0	81	18531
2026-01-27 12:40:26.66	327.06	17.25	-55.0	-57.1	6.2	0.00e+00	0	45	104	0	81	18503
2026-01-27 12:40:27.67	326.73	17.24	-54.9	-57.0	6.2	0.00e+00	0	45	104	0	81	18289
2026-01-27 12:40:28.68	326.40	17.22	-54.8	-56.9	6.2	0.00e+00	0	45	104	0	81	18039
2026-01-27 12:40:29.69	326.07	17.21	-54.7	-56.9	6.2	0.00e+00	0	45	104	0	81	17977
2026-01-27 12:40:30.70	325.74	17.19	-54.7	-56.8	6.2	0.00e+00	0	45	104	0	81	17961
2026-01-27 12:40:31.70	325.42	17.18	-54.7	-56.9	6.2	0.00e+00	0	45	104	0	81	18078
2026-01-27 12:40:32.71	325.09	17.16	-54.7	-56.8	6.2	0.00e+00	0	45	104	0	81	17941
2026-01-27 12:40:33.72	324.76	17.14	-54.7	-56.8	6.2	0.00e+00	0	45	104	0	81	17907
2026-01-27 12:40:34.72	324.44	17.12	-54.6	-56.8	6.2	0.00e+00	0	45	104	0	81	17829
2026-01-27 12:40:35.73	324.11	17.10	-54.7	-56.8	6.2	0.00e+00	0	45	104	0	81	17942
2026-01-27 12:40:36.74	323.78	17.08	-54.7	-56.8	6.2	0.00e+00	0	45	104	0	81	17839
2026-01-27 12:40:37.74	323.46	17.06	-54.6	-56.8	6.2	0.00e+00	0	45	104	0	81	17834
2026-01-27 12:40:38.75	323.13	17.04	-54.6	-56.8	6.2	0.00e+00	0	45	104	0	81	17776
2026-01-27 12:40:39.76	322.81	17.01	-54.6	-56.8	6.2	0.00e+00	0	45	104	0	81	17794
2026-01-27 12:40:40.76	322.49	16.99	-54.6	-56.8	6.2	0.00e+00	0	45	104	0	81	17807
2026-01-27 12:40:41.77	322.16	16.96	-54.6	-56.8	6.2	0.00e+00	0	45	104	0	81	17767
2026-01-27 12:40:42.77	321.84	16.94	-54.6	-56.7	6.2	0.00e+00	0	45	104	0	81	17667
2026-01-27 12:40:43.78	321.52	16.91	-54.6	-56.7	6.2	0.00e+00	0	45	104	0	81	17699
2026-01-27 12:40:44.79	321.20	16.88	-54.6	-56.7	6.2	0.00e+00	0	45	104	0	81	17726
2026-01-27 12:40:45.79	320.88	16.86	-54.6	-56.7	6.2	0.00e+00	0	45	104	0	81	17643
2026-01-27 12:40:46.80	320.56	16.83	-54.5	-56.7	6.2	0.00e+00	0	45	104	0	81	17634
2026-01-27 12:40:47.81	320.24	16.80	-54.5	-56.7	6.2	0.00e+00	0	45	104	0	80	18669
2026-01-27 12:40:48.81	319.93	16.77	-54.6	-56.7	6.2	0.00e+00	0	45	104	0	80	18655
2026-01-27 12:40:49.82	319.61	16.74	-54.5	-56.7	6.2	0.00e+00	0	45	104	0	80	18664
2026-01-27 12:40:50.83	319.29	16.71	-54.5	-56.6	6.2	0.00e+00	0	45	104	0	80	18489
2026-01-27 12:40:51.84	318.98	16.67	-54.5	-56.7	6.2	0.00e+00	0	45	104	0	80	18657
2026-01-27 12:40:52.84	318.66	16.64	-54.5	-56.6	6.2	0.00e+00	0	45	104	0	80	18581
2026-01-27 12:40:53.85	318.35	16.61	-54.5	-56.6	6.2	0.00e+00	0	45	104	0	80	18553
2026-01-27 12:40:54.85	318.04	16.57	-54.4	-56.6	6.2	0.00e+00	0	45	104	0	80	18467
2026-01-27 12:40:55.86	317.72	16.54	-54.5	-56.6	6.2	0.00e+00	0	45	104	0	80	18588
2026-01-27 12:40:56.87	317.41	16.50	-54.5	-56.6	6.2	0.00e+00	0	45	104	0	80	18536
2026-01-27 12:40:57.88	317.10	16.46	-54.5	-56.6	6.2	0.00e+00	0	45	104	0	80	18425
2026-01-27 12:40:58.88	316.79	16.43	-54.4	-56.5	6.2	0.00e+00	0	45	104	0	80	18325
2026-01-27 12:40:59.89	316.48	16.39	-54.5	-56.6	6.2	0.00e+00	0	46	104	0	80	18556
2026-01-27 12:41:00.90	316.17	16.35	-54.5	-56.6	6.2	0.00e+00	0	45	104	0	80	18436
2026-01-27 12:41:01.91	315.86	16.31	-54.4	-56.6	6.2	0.00e+00	0	45	104	0	80	18393
2026-01-27 12:41:02.92	315.56	16.27	-54.4	-56.5	6.2	0.00e+00	0	45	104	0	80	18262
2026-01-27 12:41:03.93	315.25	16.23	-54.4	-56.6	6.2	0.00e+00	0	45	104	0	80	18469
2026-01-27 12:41:04.93	314.95	16.19	-54.4	-56.5	6.2	0.00e+00	0	45	104	0	80	18344
2026-01-27 12:41:05.94	314.65	16.14	-54.4	-56.5	6.2	0.00e+00	0	45	104	0	80	18383
2026-01-27 12:41:06.95	314.34	16.10	-54.4	-56.5	6.2	0.00e+00	0	45	104	0	80	18228
2026-01-27 12:41:07.96	314.04	16.06	-54.4	-56.6	6.2	0.00e+00	0	45	104	0	80	18396
2026-01-27 12:41:08.97	313.74	16.01	-54.4	-56.5	6.2	0.00e+00	0	46	104	0	80	18374
2026-01-27 12:41:09.98	313.44	15.97	-54.4	-56.5	6.2	0.00e+00	0	45	104	0	80	18304
2026-01-27 12:41:10.99	313.14	15.92	-54.3	-56.4	6.2	0.00e+00	0	46	104	0	80	18169
2026-01-27 12:41:11.99	312.85	15.88	-54.4	-56.6	6.2	0.00e+00	0	45	104	0	80	18418
2026-01-27 12:41:13.00	312.55	15.83	-54.4	-56.5	6.2	0.00e+00	0	45	104	0	80	18335
2026-01-27 12:41:14.01	312.25	15.78	-54.4	-56.5	6.2	0.00e+00	0	45	104	0	80	18274
2026-01-27 12:41:15.02	311.96	15.74	-54.3	-56.4	6.2	0.00e+00	0	45	104	0	80	18092
2026-01-27 12:41:16.03	311.66	15.69	-54.4	-56.5	6.2	0.00e+00	0	45	104	0	80	18327
2026-01-27 12:41:17.03	311.37	15.64	-54.4	-56.5	6.2	0.00e+00	0	45	104	0	80	18240
2026-01-27 12:41:18.04	311.08	15.59	-54.4	-56.4	6.2	0.00e+00	0	45	104	0	80	18172
2026-01-27 12:41:19.05	310.79	15.54	-54.3	-56.4	6.2	0.00e+00	0	45	104	0	80	18167
2026-01-27 12:41:20.05	310.51	15.49	-54.4	-56.5	6.2	0.00e+00	0	45	104	0	80	18265
2026-01-27 12:41:21.06	310.22	15.44	-54.4	-56.5	6.2	0.00e+00	0	46	104	0	80	18247
2026-01-27 12:41:22.07	309.93	15.39	-54.3	-56.4	6.2	0.00e+00	0	45	104	0	80	18159
2026-01-27 12:41:23.08	309.65	15.34	-54.3	-56.4	6.2	0.00e+00	0	45	104	0	80	18112
2026-01-27 12:41:24.08	309.36	15.28	-54.3	-56.5	6.2	0.00e+00	0	45	104	0	80	18214
2026-01-27 12:41:25.09	309.08	15.23	-54.3	-56.5	6.2	0.00e+00	0	45	104	0	80	18243
2026-01-27 12:41:26.09	308.80	15.18	-54.3	-56.4	6.2	0.00e+00	0	45	104	0	80	18146
2026-01-27 12:41:27.10	308.52	15.13	-54.3	-56.4	6.2	0.00e+00	0	45	104	0	80	18078
2026-01-27 12:41:28.11	308.24	15.07	-54.3	-56.4	6.2	0.00e+00	0	46	104	0	80	18137
2026-01-27 12:41:29.12	307.96	15.02	-54.3	-56.4	6.2	0.00e+00	0	45	104	0	80	18154
2026-01-27 12:41:30.13	307.68	14.96	-54.3	-56.4	6.2	0.00e+00	0	46	104	0	80	18050
2026-01-27 12:41:31.13	307.41	14.91	-54.2	-56.4	6.2	0.00e+00	0	46	104	0	80	18034
2026-01-27 12:41:32.14	307.13	14.85	-54.3	-56.4	6.2	0.00e+00	0	45	104	0	80	18065
2026-01-27 12:41:33.14	306.86	14.79	-54.3	-56.4	6.2	0.00e+00	0	46	104	0	80	18068
2026-01-27 12:41:34.15	306.59	14.74	-54.3	-56.4	6.2	0.00e+00	0	45	104	0	80	18104
2026-01-27 12:41:35.16	306.32	14.68	-54.2	-56.3	6.2	0.00e+00	0	45	104	0	80	17949
2026-01-27 12:41:36.17	306.05	14.62	-54.3	-56.4	6.2	0.00e+00	0	46	104	0	80	18047
2026-01-27 12:41:37.17	305.78	14.57	-54.3	-56.4	6.2	0.00e+00	0	45	104	0	80	18016
2026-01-27 12:41:38.18	305.51	14.51	-54.3	-56.4	6.2	0.00e+00	0	45	104	0	80	17999
2026-01-27 12:41:39.19	305.25	14.45	-54.2	-56.3	6.2	0.00e+00	0	45	104	0	80	17849
2026-01-27 12:41:40.20	304.98	14.39	-54.2	-56.4	6.2	0.00e+00	0	45	104	0	80	18041
2026-01-27 12:41:41.20	304.72	14.33	-54.2	-56.3	6.2	0.00e+00	0	45	104	0	80	17956
2026-01-27 12:41:42.20	304.46	14.27	-54.2	-56.4	6.2	0.00e+00	0	46	104	0	80	17993
2026-01-27 12:41:43.21	304.20	14.21	-54.2	-56.3	6.2	0.00e+00	0	46	104	0	80	17868
2026-01-27 12:41:44.22	303.94	14.15	-54.3	-56.4	6.2	0.00e+00	0	45	104	0	80	18020
2026-01-27 12:41:45.23	303.68	14.09	-54.2	-56.3	6.2	0.00e+00	0	45	104	0	80	17935
2026-01-27 12:41:46.24	303.42	14.03	-54.2	-56.3	6.2	0.00e+00	0	45	104	0	80	17943
2026-01-27 12:41:47.24	303.17	13.97	-54.1	-56.3	6.2	0.00e+00	0	46	104	0	80	17811
2026-01-27 12:41:48.25	302.91	13.91	-54.2	-56.4	6.2	0.00e+00	0	46	104	0	80	17985
2026-01-27 12:41:49.26	302.66	13.84	-54.2	-56.3	6.2	0.00e+00	0	45	104	0	80	17912
2026-01-27 12:41:50.27	302.40	13.78	-54.2	-56.4	6.2	0.00e+00	0	45	104	0	80	17986
2026-01-27 12:41:51.27	302.16	13.72	-54.1	-56.3	6.2	0.00e+00	0	45	104	0	80	17828
2026-01-27 12:41:52.28	301.90	13.66	-54.2	-56.3	6.2	0.00e+00	0	46	104	0	80	17953
2026-01-27 12:41:53.28	301.66	13.59	-54.2	-56.3	6.2	0.00e+00	0	46	104	0	80	17776
2026-01-27 12:41:54.29	301.41	13.53	-54.2	-56.3	6.2	0.00e+00	0	45	104	0	80	17892
2026-01-27 12:41:55.29	301.17	13.47	-54.1	-56.3	6.2	0.00e+00	0	45	104	0	80	17846
2026-01-27 12:41:56.30	300.92	13.40	-54.2	-56.3	6.2	0.00e+00	0	46	104	0	80	17950
2026-01-27 12:41:57.31	300.68	13.34	-54.2	-56.3	6.2	0.00e+00	0	46	104	0	80	17821
2026-01-27 12:41:58.32	300.43	13.27	-54.2	-56.3	6.2	0.00e+00	0	45	104	0	80	17867
2026-01-27 12:41:59.33	300.19	13.21	-54.1	-56.2	6.2	0.00e+00	0	45	104	0	80	17731
2026-01-27 12:42:00.33	299.95	13.15	-54.1	-56.3	6.2	0.00e+00	0	46	104	0	80	17851
2026-01-27 12:42:01.33	299.72	13.08	-54.1	-56.3	6.2	0.00e+00	0	45	104	0	80	17803
2026-01-27 12:42:02.34	299.48	13.02	-54.2	-56.3	6.2	0.00e+00	0	46	104	0	80	17884
2026-01-27 12:42:03.35	299.24	12.95	-54.1	-56.2	6.2	0.00e+00	0	45	104	0	80	17760
2026-01-27 12:42:04.36	299.01	12.88	-54.1	-56.3	6.2	0.00e+00	0	45	104	0	80	17853
2026-01-27 12:42:05.37	298.77	12.82	-54.1	-56.2	6.2	0.00e+00	0	46	104	0	80	17749
2026-01-27 12:42:06.38	298.54	12.75	-54.2	-56.3	6.2	0.00e+00	0	46	104	0	80	17800
2026-01-27 12:42:07.39	298.31	12.69	-54.1	-56.3	6.2	0.00e+00	0	46	104	0	80	17781
2026-01-27 12:42:08.39	298.08	12.62	-54.1	-56.3	6.2	0.00e+00	0	46	104	0	80	17842
2026-01-27 12:42:09.40	297.85	12.55	-54.1	-56.2	6.2	0.00e+00	0	46	104	0	80	17730
2026-01-27 12:42:10.41	297.62	12.49	-54.1	-56.3	6.2	0.00e+00	0	46	104	0	80	17801
2026-01-27 12:42:11.42	297.39	12.42	-54.1	-56.2	6.2	0.00e+00	0	46	104	0	80	17763
2026-01-27 12:42:12.43	297.17	12.35	-54.1	-56.3	6.2	0.00e+00	0	45	104	0	80	17782
2026-01-27 12:42:13.44	296.94	12.29	-54.1	-56.2	6.2	0.00e+00	0	46	104	0	80	17692
2026-01-27 12:42:14.45	296.72	12.22	-54.1	-56.3	6.2	0.00e+00	0	46	104	0	80	17835
2026-01-27 12:42:15.46	296.50	12.15	-54.1	-56.2	6.2	0.00e+00	0	46	104	0	80	17756
2026-01-27 12:42:16.47	296.28	12.08	-54.1	-56.3	6.2	0.00e+00	0	46	104	0	80	17798
2026-01-27 12:42:17.48	296.06	12.02	-54.1	-56.2	6.2	0.00e+00	0	46	104	0	80	17690
2026-01-27 12:42:18.48	295.84	11.95	-54.1	-56.3	6.2	0.00e+00	0	46	104	0	80	17799
2026-01-27 12:42:19.49	295.63	11.88	-54.1	-56.2	6.2	0.00e+00	0	45	104	0	80	17752
2026-01-27 12:42:20.49	295.41	11.81	-54.1	-56.3	6.2	0.00e+00	0	46	104	0	80	17825
2026-01-27 12:42:21.50	295.20	11.75	-54.1	-56.2	6.2	0.00e+00	0	46	104	0	80	17694
2026-01-27 12:42:22.51	294.98	11.68	-54.2	-56.3	6.2	0.00e+00	0	46	104	0	80	17821
2026-01-27 12:42:23.51	294.77	11.61	-54.1	-56.3	6.2	0.00e+00	0	46	104	0	80	17850
2026-01-27 12:42:24.52	294.56	11.54	-54.1	-56.3	6.2	0.00e+00	0	46	104	0	80	17802
2026-01-27 12:42:25.53	294.35	11.47	-54.1	-56.2	6.2	0.00e+00	0	46	104	0	80	17755
2026-01-27 12:42:26.54	294.14	11.40	-54.2	-56.3	6.2	0.00e+00	0	46	104	0	80	17859
2026-01-27 12:42:27.54	293.94	11.34	-54.1	-56.2	6.2	0.00e+00	0	46	104	0	80	17762
2026-01-27 12:42:28.55	293.73	11.27	-54.2	-56.3	6.2	0.00e+00	0	46	104	0	80	17818
2026-01-27 12:42:29.56	293.52	11.20	-54.1	-56.3	6.2	0.00e+00	0	46	104	0	80	17800
2026-01-27 12:42:30.57	293.32	11.13	-54.1	-56.3	6.2	0.00e+00	0	46	104	0	80	17812
2026-01-27 12:42:31.58	293.12	11.06	-54.1	-56.3	6.2	0.00e+00	0	46	104	0	80	17787
2026-01-27 12:42:32.59	292.92	10.99	-54.1	-56.3	6.2	0.00e+00	0	45	104	0	80	17805
2026-01-27 12:42:33.60	292.71	10.92	-54.1	-56.3	6.2	0.00e+00	0	45	104	0	80	17780
2026-01-27 12:42:34.60	292.52	10.85	-54.2	-56.3	6.2	0.00e+00	0	45	104	0	80	17845
2026-01-27 12:42:35.61	292.32	10.78	-54.1	-56.3	6.2	0.00e+00	0	46	104	0	80	17851
2026-01-27 12:42:36.62	292.12	10.72	-54.2	-56.3	6.2	0.00e+00	0	46	104	0	79	19011
2026-01-27 12:42:37.63	291.92	10.65	-54.3	-56.4	6.2	0.00e+00	0	45	104	0	79	19044
2026-01-27 12:42:38.64	291.73	10.58	-54.3	-56.4	6.2	0.00e+00	0	46	104	0	79	19150
2026-01-27 12:42:39.65	291.53	10.51	-54.3	-56.4	6.2	0.00e+00	0	46	104	0	79	19192
2026-01-27 12:42:40.66	291.34	10.44	-54.2	-56.3	6.2	0.00e+00	0	45	104	0	79	19026
2026-01-27 12:42:41.66	291.15	10.37	-54.3	-56.4	6.2	0.00e+00	0	46	104	0	79	19127
2026-01-27 12:42:42.67	290.96	10.30	-54.3	-56.4	6.2	0.00e+00	0	46	104	0	79	19178
2026-01-27 12:42:43.67	290.77	10.23	-54.3	-56.4	6.2	0.00e+00	0	46	104	0	79	19135
2026-01-27 12:42:44.68	290.58	10.16	-54.2	-56.4	6.2	0.00e+00	0	46	104	0	79	19056
2026-01-27 12:42:45.69	290.40	10.09	-54.2	-56.4	6.2	0.00e+00	0	45	104	0	79	19101
2026-01-27 12:42:46.69	290.21	10.02	-54.3	-56.4	6.2	0.00e+00	0	45	104	0	79	19209
2026-01-27 12:42:47.70	290.03	9.96	-54.2	-56.4	6.2	0.00e+00	0	46	104	0	79	19102
2026-01-27 12:42:48.71	289.84	9.89	-54.2	-56.3	6.2	0.00e+00	0	46	104	0	79	18877
2026-01-27 12:42:49.71	289.66	9.82	-54.1	-56.3	6.2	0.00e+00	0	46	104	0	79	18850
2026-01-27 12:42:50.72	289.48	9.75	-54.2	-56.4	6.2	0.00e+00	0	46	104	0	79	19050
2026-01-27 12:42:51.73	289.30	9.68	-54.1	-56.3	6.2	0.00e+00	0	46	104	0	79	18917
2026-01-27 12:42:52.73	289.12	9.61	-54.1	-56.2	6.2	0.00e+00	0	46	104	0	79	18700
2026-01-27 12:42:53.74	288.94	9.54	-54.0	-56.1	6.2	0.00e+00	0	46	104	0	79	18536
2026-01-27 12:42:54.75	288.76	9.47	-54.1	-56.3	6.2	0.00e+00	0	45	104	0	79	18841
2026-01-27 12:42:55.76	288.58	9.40	-54.0	-56.2	6.2	0.00e+00	0	46	104	0	79	18719
2026-01-27 12:42:56.76	288.41	9.33	-53.9	-56.1	6.2	0.00e+00	0	46	104	0	79	18442
2026-01-27 12:42:57.77	288.24	9.26	-53.9	-56.0	6.2	0.00e+00	0	46	104	0	79	18314
2026-01-27 12:42:58.78	288.06	9.19	-54.0	-56.1	6.2	0.00e+00	0	46	104	0	79	18558
2026-01-27 12:42:59.78	287.89	9.13	-54.0	-56.1	6.2	0.00e+00	0	46	104	0	79	18493
2026-01-27 12:43:00.79	287.72	9.06	-53.8	-55.9	6.2	0.00e+00	0	46	104	0	78	19231
2026-01-27 12:43:01.79	287.55	8.99	-53.8	-55.9	6.2	0.00e+00	0	46	104	0	78	19126
2026-01-27 12:43:02.80	287.38	8.92	-53.9	-56.0	6.2	0.00e+00	0	46	104	0	78	19454
2026-01-27 12:43:03.81	287.21	8.85	-53.9	-56.0	6.2	0.00e+00	0	46	104	0	78	19331
2026-01-27 12:43:04.82	287.04	8.78	-53.7	-55.9	6.2	0.00e+00	0	46	104	0	78	19041
2026-01-27 12:43:05.82	286.88	8.71	-53.7	-55.8	6.2	0.00e+00	0	46	104	0	78	18992
2026-01-27 12:43:06.83	286.71	8.64	-53.8	-56.0	6.2	0.00e+00	0	46	104	0	78	19279
2026-01-27 12:43:07.83	286.55	8.58	-53.7	-55.9	6.2	0.00e+00	0	46	104	0	78	19148
2026-01-27 12:43:08.84	286.38	8.51	-53.7	-55.8	6.2	0.00e+00	0	46	104	0	78	18962
2026-01-27 12:43:09.84	286.22	8.44	-53.7	-55.8	6.2	0.00e+00	0	46	104	0	78	18921
2026-01-27 12:43:10.85	286.06	8.37	-53.8	-55.9	6.2	0.00e+00	0	46	104	0	78	19142
2026-01-27 12:43:11.85	285.90	8.30	-53.7	-55.8	6.2	0.00e+00	0	46	104	0	77	20091
2026-01-27 12:43:12.87	285.74	8.23	-53.6	-55.7	6.2	0.00e+00	0	46	104	0	77	19887
2026-01-27 12:43:13.88	285.58	8.16	-53.6	-55.7	6.2	0.00e+00	0	46	104	0	77	19862
2026-01-27 12:43:14.88	285.42	8.10	-53.7	-55.8	6.2	0.00e+00	0	46	104	0	77	20110
2026-01-27 12:43:15.88	285.26	8.03	-53.6	-55.8	6.2	0.00e+00	0	46	104	0	77	19977
2026-01-27 12:43:16.89	285.11	7.96	-53.5	-55.7	6.2	0.00e+00	0	46	104	0	77	19736
2026-01-27 12:43:17.90	284.95	7.89	-53.5	-55.7	6.2	0.00e+00	0	45	104	0	77	19723
2026-01-27 12:43:18.91	284.80	7.82	-53.6	-55.8	6.2	0.00e+00	0	46	104	0	77	19945
2026-01-27 12:43:19.92	284.64	7.75	-53.5	-55.7	6.2	0.00e+00	0	46	104	0	77	19766
2026-01-27 12:43:20.93	284.49	7.69	-53.4	-55.6	6.2	0.00e+00	0	46	104	0	77	19544
2026-01-27 12:43:21.93	284.34	7.62	-53.4	-55.5	6.2	0.00e+00	0	45	104	0	77	19471
2026-01-27 12:43:22.94	284.19	7.55	-53.5	-55.6	6.2	0.00e+00	0	46	104	0	77	19664
2026-01-27 12:43:23.95	284.03	7.48	-53.4	-55.6	6.2	0.00e+00	0	46	104	0	77	19553
2026-01-27 12:43:24.96	283.88	7.42	-53.4	-55.5	6.2	0.00e+00	0	46	104	0	77	19349
2026-01-27 12:43:25.97	283.74	7.35	-53.4	-55.5	6.2	0.00e+00	0	46	104	0	77	19438
2026-01-27 12:43:26.97	283.59	7.28	-53.5	-55.6	6.2	0.00e+00	0	46	104	0	77	19527
2026-01-27 12:43:27.98	283.44	7.21	-53.4	-55.5	6.2	0.00e+00	0	46	104	0	77	19446
2026-01-27 12:43:28.99	283.30	7.15	-53.3	-55.4	6.2	0.00e+00	0	46	104	0	77	19144
2026-01-27 12:43:30.00	283.15	7.08	-53.3	-55.5	6.2	0.00e+00	0	46	104	0	77	19342
2026-01-27 12:43:31.01	283.01	7.01	-53.4	-55.5	6.2	0.00e+00	0	46	104	0	77	19369
2026-01-27 12:43:32.01	282.86	6.94	-53.3	-55.5	6.2	0.00e+00	0	45	104	0	77	19300
2026-01-27 12:43:33.02	282.72	6.88	-53.2	-55.3	6.2	0.00e+00	0	46	104	0	77	18922
2026-01-27 12:43:34.03	282.58	6.81	-53.3	-55.4	6.2	0.00e+00	0	46	104	0	77	19123
2026-01-27 12:43:35.03	282.44	6.74	-53.3	-55.5	6.2	0.00e+00	0	46	104	0	77	19278
2026-01-27 12:43:36.04	282.30	6.68	-53.3	-55.4	6.2	0.00e+00	0	46	104	0	77	19244
2026-01-27 12:43:37.05	282.16	6.61	-53.1	-55.2	6.2	0.00e+00	0	46	104	0	77	18710
2026-01-27 12:43:38.06	282.02	6.54	-53.2	-55.3	6.2	0.00e+00	0	46	104	0	77	19000
2026-01-27 12:43:39.06	281.88	6.48	-53.3	-55.4	6.2	0.00e+00	0	46	104	0	77	19150
2026-01-27 12:43:40.07	281.74	6.41	-53.3	-55.4	6.2	0.00e+00	0	46	104	0	77	19130
2026-01-27 12:43:41.08	281.61	6.34	-53.2	-55.3	6.2	0.00e+00	0	46	104	0	76	20099
2026-01-27 12:43:42.09	281.47	6.28	-53.2	-55.3	6.2	0.00e+00	0	46	104	0	76	20095
2026-01-27 12:43:43.09	281.34	6.21	-53.2	-55.4	6.2	0.00e+00	0	46	104	0	77	19074
2026-01-27 12:43:44.10	281.20	6.14	-53.2	-55.4	6.2	0.00e+00	0	46	104	0	77	19147
2026-01-27 12:43:45.11	281.07	6.08	-53.1	-55.2	6.2	0.00e+00	0	46	104	0	77	18800
2026-01-27 12:43:46.12	280.94	6.01	-53.1	-55.3	6.2	0.00e+00	0	45	104	0	77	18891
2026-01-27 12:43:47.13	280.80	5.95	-53.2	-55.3	6.2	0.00e+00	0	45	104	0	77	18982
2026-01-27 12:43:48.14	280.67	5.88	-53.2	-55.3	6.2	0.00e+00	0	46	104	0	77	18997
2026-01-27 12:43:49.15	280.54	5.81	-52.8	-55.2	6.2	0.00e+00	0	46	104	0	77	18797
2026-01-27 12:43:50.15	280.41	5.75	-53.1	-55.2	6.2	0.00e+00	0	46	104	0	77	18805
2026-01-27 12:43:51.16	280.28	5.68	-53.2	-55.3	6.2	0.00e+00	0	45	104	0	77	18974
2026-01-27 12:43:52.17	280.16	5.62	-53.2	-55.3	6.2	0.00e+00	0	46	104	0	77	18950
2026-01-27 12:43:53.18	280.03	5.55	-53.1	-55.2	6.2	0.00e+00	0	46	104	0	77	18739
2026-01-27 12:43:54.18	279.90	5.49	-53.1	-55.2	6.2	0.00e+00	0	46	104	0	77	18692
2026-01-27 12:43:55.19	279.78	5.42	-53.1	-55.3	6.2	0.00e+00	0	46	104	0	76	19941
2026-01-27 12:43:56.19	279.65	5.36	-53.1	-55.3	6.2	0.00e+00	0	46	104	0	76	20006
2026-01-27 12:43:57.20	279.53	5.29	-53.0	-55.2	6.2	0.00e+00	0	46	104	0	76	19720
2026-01-27 12:43:58.21	279.40	5.23	-53.0	-55.2	6.2	0.00e+00	0	46	104	0	76	19843
2026-01-27 12:43:59.22	279.28	5.16	-53.1	-55.2	6.2	0.00e+00	0	46	104	0	76	19929
2026-01-27 12:44:00.23	279.16	5.10	-53.1	-55.2	6.2	0.00e+00	0	45	104	0	76	19911
2026-01-27 12:44:01.24	279.03	5.03	-53.0	-55.1	6.2	0.00e+00	0	46	104	0	76	19561
2026-01-27 12:44:02.25	278.91	4.97	-52.9	-55.1	6.2	0.00e+00	0	46	104	0	76	19501
2026-01-27 12:44:03.26	278.79	4.90	-53.0	-55.2	6.2	0.00e+00	0	46	104	0	76	19759
2026-01-27 12:44:04.27	278.67	4.84	-53.2	-55.3	6.2	0.00e+00	0	46	104	0	76	20029
2026-01-27 12:44:05.28	278.55	4.78	-53.3	-55.4	6.2	0.00e+00	0	46	104	0	77	19169
2026-01-27 12:44:06.28	278.43	4.71	-53.4	-55.5	6.2	0.00e+00	0	45	104	0	77	19368
2026-01-27 12:44:07.29	278.32	4.65	-53.5	-55.6	6.2	0.00e+00	0	46	104	0	77	19566
2026-01-27 12:44:08.30	278.20	4.58	-53.5	-55.6	6.2	0.00e+00	0	46	104	0	77	19699
2026-01-27 12:44:09.31	278.08	4.52	-53.6	-55.7	6.2	0.00e+00	0	46	104	0	77	19855
2026-01-27 12:44:10.32	277.97	4.46	-53.6	-55.8	6.2	0.00e+00	0	45	104	0	77	19948
2026-01-27 12:44:11.33	277.85	4.39	-53.7	-55.8	6.2	0.00e+00	0	46	104	0	77	20041
2026-01-27 12:44:12.33	277.74	4.33	-53.8	-55.9	6.2	0.00e+00	0	46	104	0	78	19087
2026-01-27 12:44:13.34	277.62	4.27	-53.8	-56.0	6.2	0.00e+00	0	46	104	0	78	19266
2026-01-27 12:44:14.35	277.51	4.20	-53.9	-56.0	6.2	0.00e+00	0	46	104	0	78	19383
2026-01-27 12:44:15.36	277.40	4.14	-53.9	-56.0	6.2	0.00e+00	0	46	104	0	78	19456
2026-01-27 12:44:16.37	277.28	4.08	-54.0	-56.1	6.2	0.00e+00	0	46	104	0	78	19594
2026-01-27 12:44:17.37	277.17	4.01	-54.0	-56.2	6.2	0.00e+00	0	46	104	0	78	19749
2026-01-27 12:44:18.38	277.06	3.95	-54.1	-56.2	6.2	0.00e+00	0	46	104	0	78	19794
2026-01-27 12:44:19.39	276.95	3.89	-54.1	-56.2	6.2	0.00e+00	0	46	104	0	78	19893
2026-01-27 12:44:20.40	276.84	3.83	-54.1	-56.2	6.2	0.00e+00	0	46	104	0	78	19819
2026-01-27 12:44:21.40	276.73	3.76	-54.1	-56.2	6.2	0.00e+00	0	46	104	0	78	19824
2026-01-27 12:44:22.41	276.62	3.70	-54.1	-56.2	6.2	0.00e+00	0	46	104	0	78	19818
2026-01-27 12:44:23.42	276.52	3.64	-54.0	-56.2	6.2	0.00e+00	0	45	104	0	78	19751
2026-01-27 12:44:24.43	276.41	3.58	-54.0	-56.2	6.2	0.00e+00	0	46	104	0	78	19746
2026-01-27 12:44:25.44	276.30	3.51	-54.0	-56.1	6.2	0.00e+00	0	46	104	0	78	19687
2026-01-27 12:44:26.45	276.19	3.45	-54.0	-56.2	6.2	0.00e+00	0	46	104	0	78	19746
2026-01-27 12:44:27.45	276.09	3.39	-54.0	-56.1	6.2	0.00e+00	0	46	104	0	78	19664
2026-01-27 12:44:28.46	275.98	3.33	-54.0	-56.1	6.2	0.00e+00	0	46	104	0	78	19704
2026-01-27 12:44:29.47	275.88	3.27	-54.0	-56.1	6.2	0.00e+00	0	46	104	0	78	19679
2026-01-27 12:44:30.47	275.78	3.21	-54.0	-56.2	6.2	0.00e+00	0	46	104	0	78	19730
2026-01-27 12:44:31.48	275.67	3.14	-54.0	-56.1	6.2	0.00e+00	0	46	104	0	78	19639
2026-01-27 12:44:32.49	275.57	3.08	-54.0	-56.1	6.2	0.00e+00	0	46	104	0	78	19625
2026-01-27 12:44:33.49	275.47	3.02	-54.0	-56.1	6.2	0.00e+00	0	46	104	0	78	19588
2026-01-27 12:44:34.50	275.37	2.96	-54.0	-56.1	6.2	0.00e+00	0	46	104	0	78	19673
2026-01-27 12:44:35.51	275.26	2.90	-54.0	-56.1	6.2	0.00e+00	0	46	104	0	78	19629
2026-01-27 12:44:36.52	275.16	2.84	-54.0	-56.1	6.2	0.00e+00	0	46	104	0	78	19620
2026-01-27 12:44:37.53	275.06	2.78	-54.0	-56.1	6.2	0.00e+00	0	46	104	0	78	19631
2026-01-27 12:44:38.54	274.96	2.72	-54.0	-56.1	6.2	0.00e+00	0	46	104	0	78	19597
2026-01-27 12:44:39.55	274.86	2.65	-54.0	-56.1	6.2	0.00e+00	0	46	104	0	78	19600
2026-01-27 12:44:40.55	274.77	2.59	-54.0	-56.1	6.2	0.00e+00	0	46	104	0	78	19629
2026-01-27 12:44:41.56	274.67	2.53	-54.0	-56.1	6.2	0.00e+00	0	45	104	0	78	19570
2026-01-27 12:44:42.57	274.57	2.47	-54.0	-56.1	6.2	0.00e+00	0	46	104	0	78	19582
2026-01-27 12:44:43.58	274.47	2.41	-54.0	-56.1	6.2	0.00e+00	0	46	104	0	78	19520
2026-01-27 12:44:44.59	274.38	2.35	-54.0	-56.1	6.2	0.00e+00	0	46	104	0	78	19588
2026-01-27 12:44:45.59	274.28	2.29	-54.0	-56.1	6.2	0.00e+00	0	46	104	0	78	19530
2026-01-27 12:44:46.60	274.18	2.23	-53.9	-56.0	6.2	0.00e+00	0	46	104	0	78	19477
2026-01-27 12:44:47.61	274.09	2.17	-53.9	-56.1	6.2	0.00e+00	0	46	104	0	78	19577
2026-01-27 12:44:48.62	273.99	2.11	-54.0	-56.1	6.2	0.00e+00	0	46	104	0	78	19522
2026-01-27 12:44:49.62	273.90	2.05	-53.9	-56.1	6.2	0.00e+00	0	46	104	0	78	19571
2026-01-27 12:44:50.63	273.81	1.99	-53.9	-56.1	6.2	0.00e+00	0	46	104	0	78	19481
2026-01-27 12:44:51.64	273.71	1.93	-53.9	-56.1	6.2	0.00e+00	0	46	104	0	78	19501

#Closed at: 2026-01-27 12:44:52
#Recorded file [0 MB]: D:/lorett/data/31041_260127_153914.dat