passes_logs/2026/01/27/R3.2S_Murmansk/R3.2S_Murmansk__20260127_045038_KANOPUS-V_5_rec.log

#Pass ID: 20260127_045038_KANOPUS-V 5
#Satellite: KANOPUS-V 5
#Configuration: KANOPUS-V_8320
#almurnet v.1.7.20251203
#Start time: 2026-01-27 04:50:39

#Version: 2.2.20231116
#Station: R3.2S_Murmansk
#Location: 33.079688 lon 68.888172 lat
#TLE: 1 43876U 18111A   26026.53344362  .00004964  00000+0  21063-3 0  9993
#TLE: 2 43876  97.3674 294.8392 0001826  89.2862 270.8585 15.23550007393227

#Time	Az	El	Level	Level2	SNR	BER	BlckErr	Temp	State	Recorded	gain1	gain2
2026-01-27 04:50:39.13	83.17	2.03	-54.8	-63.6	3.8	7.45e-01	0	41	0	0	80	10347
2026-01-27 04:50:40.12	83.07	2.09	-54.8	-63.7	3.8	7.45e-01	0	41	104	0	80	10431
2026-01-27 04:50:41.13	82.97	2.15	-54.8	-63.6	3.8	7.46e-01	0	41	104	0	80	10339
2026-01-27 04:50:42.14	82.86	2.21	-54.8	-63.6	3.8	7.45e-01	0	41	104	0	80	10369
2026-01-27 04:50:43.15	82.75	2.27	-54.8	-63.6	3.8	7.45e-01	0	41	104	0	80	10352
2026-01-27 04:50:44.15	82.65	2.33	-54.7	-63.6	3.8	7.46e-01	0	41	104	0	80	10350
2026-01-27 04:50:45.16	82.54	2.38	-54.8	-63.6	3.8	7.46e-01	0	41	104	0	80	10367
2026-01-27 04:50:46.17	82.43	2.44	-54.9	-63.7	3.8	7.45e-01	0	41	104	0	80	10499
2026-01-27 04:50:47.18	82.32	2.50	-54.9	-63.8	3.8	7.46e-01	0	41	104	0	80	10541
2026-01-27 04:50:48.19	82.21	2.56	-54.9	-63.8	3.8	7.45e-01	0	42	104	0	80	10550
2026-01-27 04:50:49.20	82.10	2.62	-54.9	-63.7	3.8	7.45e-01	0	42	104	0	80	10472
2026-01-27 04:50:50.21	81.99	2.68	-54.9	-63.7	3.8	7.44e-01	0	42	104	0	80	10489
2026-01-27 04:50:51.21	81.88	2.74	-54.9	-63.7	3.8	7.45e-01	0	42	104	0	80	10503
2026-01-27 04:50:52.22	81.77	2.80	-54.8	-63.7	3.8	7.47e-01	0	42	104	0	80	10496
2026-01-27 04:50:53.23	81.66	2.86	-54.8	-63.7	3.8	7.45e-01	0	42	104	0	80	10447
2026-01-27 04:50:54.23	81.55	2.92	-54.8	-63.6	3.8	7.45e-01	0	42	104	0	80	10392
2026-01-27 04:50:55.24	81.43	2.98	-54.8	-63.6	3.8	7.46e-01	0	42	104	0	80	10311
2026-01-27 04:50:56.25	81.32	3.04	-54.7	-63.5	3.8	7.45e-01	0	42	104	0	80	10239
2026-01-27 04:50:57.25	81.20	3.10	-54.6	-63.5	3.8	7.44e-01	0	42	104	0	80	10197
2026-01-27 04:50:58.26	81.09	3.16	-54.6	-63.4	3.8	7.45e-01	0	42	104	0	80	10166
2026-01-27 04:50:59.27	80.97	3.22	-54.5	-63.4	3.8	7.45e-01	0	42	104	0	80	10093
2026-01-27 04:51:00.28	80.86	3.28	-54.4	-63.3	3.8	7.47e-01	0	42	104	0	80	9949
2026-01-27 04:51:01.28	80.74	3.34	-54.3	-63.2	3.8	7.46e-01	0	42	104	0	80	9853
2026-01-27 04:51:02.29	80.62	3.40	-54.1	-63.0	3.8	7.45e-01	0	42	104	0	80	9628
2026-01-27 04:51:03.30	80.50	3.47	-54.0	-62.8	3.8	7.44e-01	0	42	104	0	79	10020
2026-01-27 04:51:04.30	80.38	3.53	-53.8	-62.7	3.8	7.45e-01	0	42	104	0	79	9831
2026-01-27 04:51:05.31	80.26	3.59	-53.6	-62.5	3.8	7.44e-01	0	42	104	0	79	9609
2026-01-27 04:51:06.32	80.14	3.65	-53.4	-62.2	3.8	7.46e-01	0	42	104	0	78	9848
2026-01-27 04:51:07.33	80.02	3.71	-53.1	-61.9	3.8	7.45e-01	0	42	104	0	78	9545
2026-01-27 04:51:08.34	79.90	3.77	-53.0	-61.9	3.8	7.44e-01	0	42	104	0	78	9511
2026-01-27 04:51:09.34	79.78	3.83	-53.0	-61.9	3.8	7.45e-01	0	42	104	0	78	9541
2026-01-27 04:51:10.35	79.65	3.89	-53.0	-61.8	3.8	7.46e-01	0	42	104	0	78	9491
2026-01-27 04:51:11.36	79.53	3.95	-53.0	-61.9	3.8	7.45e-01	0	42	104	0	78	9513
2026-01-27 04:51:12.37	79.41	4.02	-53.0	-61.8	3.8	7.45e-01	0	42	104	0	78	9460
2026-01-27 04:51:13.37	79.28	4.08	-53.0	-61.8	3.8	7.45e-01	0	42	104	0	78	9455
2026-01-27 04:51:14.38	79.16	4.14	-53.0	-61.8	3.8	7.43e-01	0	42	104	0	78	9483
2026-01-27 04:51:15.39	79.03	4.20	-53.0	-61.8	3.8	7.46e-01	0	42	104	0	78	9495
2026-01-27 04:51:16.40	78.90	4.26	-53.0	-61.8	3.8	7.46e-01	0	42	104	0	78	9477
2026-01-27 04:51:17.40	78.77	4.32	-53.0	-61.8	3.8	7.47e-01	0	42	104	0	78	9459
2026-01-27 04:51:18.41	78.65	4.39	-53.0	-61.8	3.8	7.45e-01	0	42	104	0	78	9494
2026-01-27 04:51:19.42	78.52	4.45	-53.0	-61.8	3.8	7.46e-01	0	42	104	0	78	9469
2026-01-27 04:51:20.43	78.39	4.51	-52.9	-61.5	3.8	7.46e-01	0	42	104	0	77	9646
2026-01-27 04:51:21.44	78.25	4.57	-52.7	-60.6	3.8	7.45e-01	0	42	104	0	77	8742
2026-01-27 04:51:22.44	78.12	4.63	-52.6	-60.0	3.8	7.44e-01	0	42	104	0	77	8151
2026-01-27 04:51:23.45	77.99	4.70	-52.6	-60.0	3.8	7.42e-01	0	43	104	0	77	8128
2026-01-27 04:51:24.45	77.86	4.76	-52.6	-60.1	3.8	7.45e-01	0	42	104	0	77	8270
2026-01-27 04:51:25.46	77.73	4.82	-52.6	-60.4	3.8	7.46e-01	0	42	104	0	77	8530
2026-01-27 04:51:26.47	77.59	4.88	-52.1	-58.7	3.9	7.41e-01	0	43	104	0	76	7454
2026-01-27 04:51:27.48	77.45	4.95	-51.2	-56.3	5.0	7.07e-01	0	43	0	2097152	74	6303
2026-01-27 04:51:28.48	77.32	5.01	-49.9	-53.7	7.0	6.54e-01	0	43	0	18874368	71	5558
2026-01-27 04:51:29.49	77.18	5.07	-49.5	-53.2	7.5	6.42e-01	0	43	0	33554432	70	5547
2026-01-27 04:51:30.50	77.05	5.14	-51.0	-55.8	5.3	6.93e-01	0	43	0	48234496	72	6712
2026-01-27 04:51:31.51	76.91	5.20	-50.1	-54.0	6.4	6.68e-01	0	43	104	56623104	72	5453
2026-01-27 04:51:32.51	76.77	5.26	-46.3	-48.7	11.8	6.03e-01	0	43	0	69206016	64	4699
2026-01-27 04:51:33.52	76.63	5.32	-47.4	-50.2	10.5	6.08e-01	0	42	0	83886080	65	5267
2026-01-27 04:51:34.52	76.49	5.39	-50.7	-55.4	4.4	7.34e-01	0	43	104	88080384	73	5994
2026-01-27 04:51:35.53	76.35	5.45	-44.8	-47.0	13.6	6.00e-01	0	43	0	96468992	61	4575
2026-01-27 04:51:36.54	76.20	5.51	-44.6	-46.8	13.8	5.99e-01	0	43	0	113246208	60	4740
2026-01-27 04:51:37.54	76.06	5.58	-44.6	-46.8	13.8	5.98e-01	0	42	0	127926272	60	4728
2026-01-27 04:51:38.54	75.92	5.64	-44.4	-46.6	14.0	5.97e-01	0	43	0	142606336	60	4626
2026-01-27 04:51:39.55	75.77	5.70	-44.5	-46.8	13.8	6.01e-01	0	43	0	157286400	60	4720
2026-01-27 04:51:40.56	75.63	5.77	-44.4	-46.7	13.9	5.97e-01	0	43	0	174063616	60	4680
2026-01-27 04:51:41.57	75.48	5.83	-44.4	-46.6	13.9	5.99e-01	0	43	0	188743680	60	4651
2026-01-27 04:51:42.57	75.34	5.89	-44.4	-46.7	13.9	6.01e-01	0	43	0	203423744	60	4665
2026-01-27 04:51:43.58	75.19	5.96	-44.3	-46.6	14.0	5.87e-01	0	43	0	220200960	60	4620
2026-01-27 04:51:44.59	75.04	6.02	-44.4	-46.6	14.1	5.87e-01	0	43	0	234881024	60	4628
2026-01-27 04:51:45.59	74.89	6.09	-44.2	-46.4	14.3	5.83e-01	0	43	0	249561088	60	4522
2026-01-27 04:51:46.60	74.74	6.15	-44.2	-46.4	14.2	5.84e-01	0	43	0	266338304	60	4531
2026-01-27 04:51:47.61	74.59	6.21	-44.1	-46.3	14.3	5.84e-01	0	43	0	281018368	60	4492
2026-01-27 04:51:48.62	74.44	6.28	-44.2	-46.4	14.3	5.84e-01	0	43	0	295698432	60	4509
2026-01-27 04:51:49.62	74.28	6.34	-44.1	-46.3	14.3	5.86e-01	0	43	0	312475648	60	4479
2026-01-27 04:51:50.63	74.13	6.41	-44.1	-46.3	14.4	5.86e-01	0	43	0	329252864	60	4452
2026-01-27 04:51:51.64	73.97	6.47	-44.2	-46.3	14.4	5.86e-01	0	43	0	343932928	60	4476
2026-01-27 04:51:52.65	73.82	6.54	-44.2	-46.3	14.4	5.86e-01	0	43	0	358612992	60	4471
2026-01-27 04:51:53.65	73.66	6.60	-44.2	-46.3	14.3	5.86e-01	0	43	0	375390208	60	4491
2026-01-27 04:51:54.66	73.50	6.66	-45.2	-46.3	14.5	5.84e-01	0	43	0	390070272	61	4200
2026-01-27 04:51:55.67	73.35	6.73	-53.3	-62.2	3.8	7.46e-01	0	43	104	398458880	77	10499
2026-01-27 04:51:56.68	73.19	6.79	-53.3	-62.2	3.8	7.47e-01	0	43	104	398458880	77	10438
2026-01-27 04:51:57.68	73.03	6.86	-53.3	-62.1	3.8	7.44e-01	0	43	104	398458880	77	10380
2026-01-27 04:51:58.69	72.87	6.92	-53.4	-62.2	3.8	7.45e-01	0	43	104	398458880	77	10461
2026-01-27 04:51:59.70	72.70	6.99	-53.3	-62.1	3.8	7.43e-01	0	43	104	398458880	77	10384
2026-01-27 04:52:00.71	72.54	7.05	-53.3	-62.1	3.8	7.45e-01	0	43	104	398458880	77	10360
2026-01-27 04:52:01.71	72.38	7.11	-53.3	-62.1	3.8	7.45e-01	0	43	104	398458880	77	10344
2026-01-27 04:52:02.72	72.21	7.18	-53.4	-62.2	3.8	7.45e-01	0	43	104	398458880	77	10440
2026-01-27 04:52:03.73	72.05	7.24	-53.3	-62.1	3.8	7.46e-01	0	43	104	398458880	77	10388
2026-01-27 04:52:04.73	71.88	7.31	-53.3	-62.1	3.8	7.44e-01	0	43	104	398458880	77	10369
2026-01-27 04:52:05.74	71.71	7.37	-53.3	-62.1	3.8	7.44e-01	0	43	104	398458880	77	10378
2026-01-27 04:52:06.75	71.54	7.44	-53.4	-62.2	3.8	7.45e-01	0	43	104	398458880	77	10506
2026-01-27 04:52:07.75	71.38	7.50	-53.3	-62.1	3.8	7.45e-01	0	43	104	398458880	77	10359
2026-01-27 04:52:08.76	71.21	7.57	-53.3	-62.2	3.8	7.44e-01	0	43	104	398458880	77	10483
2026-01-27 04:52:09.77	71.03	7.63	-53.3	-62.2	3.8	7.46e-01	0	43	104	398458880	77	10413
2026-01-27 04:52:10.78	70.86	7.70	-53.4	-62.2	3.8	7.43e-01	0	43	104	398458880	77	10493
2026-01-27 04:52:11.79	70.69	7.76	-53.3	-62.1	3.8	7.45e-01	0	43	104	398458880	77	10397
2026-01-27 04:52:12.80	70.51	7.83	-53.4	-62.2	3.8	7.45e-01	0	43	104	398458880	77	10487
2026-01-27 04:52:13.80	70.34	7.89	-53.3	-62.2	3.8	7.46e-01	0	43	104	398458880	77	10459
2026-01-27 04:52:14.81	70.16	7.96	-53.4	-62.3	3.8	7.44e-01	0	43	104	398458880	77	10564
2026-01-27 04:52:15.82	69.98	8.02	-53.3	-62.2	3.8	7.44e-01	0	43	104	398458880	77	10471
2026-01-27 04:52:16.83	69.80	8.09	-53.4	-62.2	3.8	7.46e-01	0	43	104	398458880	77	10477
2026-01-27 04:52:17.83	69.63	8.15	-53.3	-62.2	3.8	7.45e-01	0	43	104	398458880	77	10428
2026-01-27 04:52:18.84	69.45	8.22	-53.4	-62.3	3.8	7.45e-01	0	43	104	398458880	77	10577
2026-01-27 04:52:19.85	69.26	8.28	-53.3	-62.2	3.8	7.46e-01	0	43	104	398458880	77	10468
2026-01-27 04:52:20.85	69.08	8.35	-53.4	-62.2	3.8	7.43e-01	0	43	104	398458880	77	10496
2026-01-27 04:52:21.86	68.90	8.41	-53.4	-62.2	3.8	7.45e-01	0	43	104	398458880	77	10458
2026-01-27 04:52:22.86	68.72	8.48	-53.5	-62.3	3.8	7.46e-01	0	43	104	398458880	77	10601
2026-01-27 04:52:23.87	68.53	8.54	-53.4	-62.2	3.8	7.45e-01	0	43	104	398458880	77	10478
2026-01-27 04:52:24.88	68.34	8.61	-53.4	-62.2	3.8	7.47e-01	0	43	104	398458880	77	10498
2026-01-27 04:52:25.88	68.16	8.67	-53.4	-62.2	3.8	7.45e-01	0	43	104	398458880	77	10496
2026-01-27 04:52:26.88	67.97	8.74	-53.5	-62.3	3.8	7.43e-01	0	43	104	398458880	77	10580
2026-01-27 04:52:27.88	67.78	8.80	-53.4	-62.2	3.8	7.45e-01	0	43	104	398458880	77	10497
2026-01-27 04:52:28.89	67.59	8.86	-53.4	-62.3	3.8	7.46e-01	0	43	104	398458880	77	10534
2026-01-27 04:52:29.89	67.40	8.93	-53.4	-62.2	3.8	7.46e-01	0	43	104	398458880	77	10513
2026-01-27 04:52:30.90	67.21	8.99	-53.5	-62.3	3.8	7.45e-01	0	43	104	398458880	77	10618
2026-01-27 04:52:31.91	67.01	9.06	-53.4	-62.2	3.8	7.44e-01	0	43	104	398458880	77	10506
2026-01-27 04:52:32.92	66.82	9.12	-53.5	-62.3	3.8	7.46e-01	0	43	104	398458880	77	10559
2026-01-27 04:52:33.92	66.62	9.19	-53.4	-62.2	3.8	7.45e-01	0	43	104	398458880	77	10526
2026-01-27 04:52:34.93	66.42	9.25	-53.5	-62.4	3.8	7.46e-01	0	43	104	398458880	77	10663
2026-01-27 04:52:35.94	66.23	9.32	-53.4	-62.3	3.8	7.46e-01	0	43	104	398458880	77	10541
2026-01-27 04:52:36.94	66.03	9.38	-53.5	-62.3	3.8	7.46e-01	0	43	104	398458880	77	10573
2026-01-27 04:52:37.95	65.83	9.45	-53.4	-62.2	3.8	7.45e-01	0	43	104	398458880	77	10528
2026-01-27 04:52:38.96	65.62	9.51	-53.5	-62.4	3.8	7.44e-01	0	43	104	398458880	77	10692
2026-01-27 04:52:39.96	65.42	9.57	-53.4	-62.3	3.8	7.47e-01	0	43	104	398458880	77	10554
2026-01-27 04:52:40.97	65.22	9.64	-53.5	-62.3	3.8	7.45e-01	0	43	104	398458880	77	10613
2026-01-27 04:52:41.99	65.01	9.70	-53.5	-62.3	3.8	7.44e-01	0	43	104	398458880	77	10576
2026-01-27 04:52:42.99	64.81	9.77	-53.6	-62.4	3.8	7.43e-01	0	43	104	398458880	77	10692
2026-01-27 04:52:43.99	64.60	9.83	-53.5	-62.3	3.8	7.47e-01	0	43	104	398458880	77	10578
2026-01-27 04:52:45.00	64.39	9.89	-53.5	-62.3	3.8	7.45e-01	0	43	104	398458880	77	10610
2026-01-27 04:52:46.01	64.18	9.96	-53.5	-62.3	3.8	7.46e-01	0	43	104	398458880	77	10601
2026-01-27 04:52:47.01	63.97	10.02	-53.6	-62.4	3.8	7.45e-01	0	43	104	398458880	77	10692
2026-01-27 04:52:48.02	63.76	10.08	-53.5	-62.3	3.8	7.47e-01	0	43	104	398458880	77	10584
2026-01-27 04:52:49.03	63.55	10.15	-53.5	-62.3	3.8	7.46e-01	0	43	104	398458880	77	10648
2026-01-27 04:52:50.03	63.33	10.21	-53.5	-62.3	3.8	7.45e-01	0	43	104	398458880	77	10645
2026-01-27 04:52:51.04	63.12	10.27	-53.6	-62.4	3.8	7.47e-01	0	43	104	398458880	77	10753
2026-01-27 04:52:52.05	62.90	10.34	-53.5	-62.3	3.8	7.44e-01	0	43	104	398458880	77	10600
2026-01-27 04:52:53.06	62.68	10.40	-53.5	-62.4	3.8	7.46e-01	0	43	104	398458880	77	10659
2026-01-27 04:52:54.07	62.46	10.46	-53.5	-62.3	3.8	7.46e-01	0	43	104	398458880	77	10630
2026-01-27 04:52:55.08	62.24	10.53	-53.6	-62.4	3.8	7.44e-01	0	43	104	398458880	77	10763
2026-01-27 04:52:56.08	62.02	10.59	-53.5	-62.3	3.8	7.44e-01	0	43	104	398458880	77	10647
2026-01-27 04:52:57.09	61.80	10.65	-53.6	-62.4	3.8	7.45e-01	0	43	104	398458880	77	10676
2026-01-27 04:52:58.09	61.58	10.71	-53.5	-62.3	3.8	7.45e-01	0	43	104	398458880	77	10644
2026-01-27 04:52:59.10	61.35	10.78	-53.6	-62.4	3.8	7.47e-01	0	43	104	398458880	77	10765
2026-01-27 04:53:00.11	61.13	10.84	-53.5	-62.4	3.8	7.45e-01	0	43	104	398458880	77	10656
2026-01-27 04:53:01.12	60.90	10.90	-53.6	-62.4	3.8	7.46e-01	0	43	104	398458880	77	10736
2026-01-27 04:53:02.13	60.67	10.96	-53.5	-62.4	3.8	7.46e-01	0	43	104	398458880	77	10668
2026-01-27 04:53:03.13	60.44	11.02	-53.6	-62.4	3.8	7.44e-01	0	43	104	398458880	77	10754
2026-01-27 04:53:04.14	60.21	11.08	-53.5	-62.4	3.8	7.44e-01	0	43	104	398458880	77	10687
2026-01-27 04:53:05.15	59.98	11.15	-53.6	-62.4	3.8	7.45e-01	0	43	104	398458880	77	10737
2026-01-27 04:53:06.16	59.75	11.21	-53.6	-62.4	3.8	7.45e-01	0	43	104	398458880	77	10714
2026-01-27 04:53:07.16	59.51	11.27	-53.6	-62.5	3.8	7.45e-01	0	43	104	398458880	77	10782
2026-01-27 04:53:08.16	59.28	11.33	-53.6	-62.4	3.8	7.45e-01	0	43	104	398458880	77	10678
2026-01-27 04:53:09.17	59.04	11.39	-53.6	-62.4	3.8	7.45e-01	0	43	104	398458880	77	10764
2026-01-27 04:53:10.18	58.80	11.45	-53.6	-62.4	3.8	7.45e-01	0	43	104	398458880	77	10741
2026-01-27 04:53:11.19	58.57	11.51	-53.6	-62.5	3.8	7.46e-01	0	43	104	398458880	77	10805
2026-01-27 04:53:12.19	58.33	11.57	-53.6	-62.4	3.8	7.44e-01	0	43	104	398458880	77	10703
2026-01-27 04:53:13.20	58.08	11.63	-53.6	-62.4	3.8	7.44e-01	0	43	104	398458880	77	10746
2026-01-27 04:53:14.20	57.84	11.69	-53.6	-62.4	3.8	7.45e-01	0	43	104	398458880	77	10714
2026-01-27 04:53:15.21	57.60	11.75	-53.6	-62.5	3.8	7.46e-01	0	43	104	398458880	77	10807
2026-01-27 04:53:16.22	57.35	11.80	-53.6	-62.5	3.8	7.45e-01	0	43	104	398458880	77	10779
2026-01-27 04:53:17.23	57.11	11.86	-53.6	-62.5	3.8	7.45e-01	0	43	104	398458880	77	10794
2026-01-27 04:53:18.23	56.86	11.92	-53.6	-62.4	3.8	7.45e-01	0	44	104	398458880	77	10746
2026-01-27 04:53:19.23	56.62	11.98	-53.6	-62.5	3.8	7.46e-01	0	43	104	398458880	77	10811
2026-01-27 04:53:20.24	56.36	12.04	-53.6	-62.4	3.8	7.46e-01	0	43	104	398458880	77	10733
2026-01-27 04:53:21.24	56.12	12.09	-53.6	-62.5	3.8	7.45e-01	0	43	104	398458880	77	10794
2026-01-27 04:53:22.25	55.86	12.15	-53.6	-62.4	3.8	7.46e-01	0	43	104	398458880	77	10767
2026-01-27 04:53:23.25	55.61	12.21	-53.7	-62.5	3.8	7.45e-01	0	44	104	398458880	77	10784
2026-01-27 04:53:24.26	55.36	12.26	-53.6	-62.5	3.8	7.45e-01	0	44	104	398458880	77	10786
2026-01-27 04:53:25.27	55.10	12.32	-53.6	-62.5	3.8	7.46e-01	0	43	104	398458880	77	10807
2026-01-27 04:53:26.28	54.84	12.38	-53.6	-62.5	3.8	7.46e-01	0	43	104	398458880	77	10816
2026-01-27 04:53:27.28	54.59	12.43	-53.7	-62.5	3.8	7.45e-01	0	44	104	398458880	77	10846
2026-01-27 04:53:28.29	54.33	12.49	-53.6	-62.4	3.8	7.45e-01	0	43	104	398458880	77	10774
2026-01-27 04:53:29.30	54.06	12.54	-53.7	-62.5	3.8	7.45e-01	0	43	104	398458880	77	10834
2026-01-27 04:53:30.31	53.80	12.60	-53.6	-62.5	3.8	7.48e-01	0	43	104	398458880	77	10805
2026-01-27 04:53:31.31	53.54	12.65	-53.7	-62.5	3.8	7.45e-01	0	44	104	398458880	77	10825
2026-01-27 04:53:32.32	53.28	12.71	-53.6	-62.4	3.8	7.45e-01	0	44	104	398458880	77	10772
2026-01-27 04:53:33.33	53.01	12.76	-53.7	-62.5	3.8	7.47e-01	0	44	104	398458880	77	10779
2026-01-27 04:53:34.33	52.75	12.81	-53.7	-62.5	3.8	7.44e-01	0	43	104	398458880	77	10796
2026-01-27 04:53:35.34	52.48	12.87	-53.7	-62.5	3.8	7.46e-01	0	43	104	398458880	77	10894
2026-01-27 04:53:36.35	52.21	12.92	-53.6	-62.5	3.8	7.45e-01	0	43	104	398458880	77	10818
2026-01-27 04:53:37.36	51.94	12.97	-53.7	-62.5	3.8	7.45e-01	0	44	104	398458880	77	10840
2026-01-27 04:53:38.37	51.67	13.02	-53.7	-62.5	3.8	7.46e-01	0	43	104	398458880	77	10814
2026-01-27 04:53:39.37	51.40	13.07	-53.7	-62.5	3.8	7.45e-01	0	44	104	398458880	77	10886
2026-01-27 04:53:40.38	51.12	13.13	-53.7	-62.5	3.8	7.46e-01	0	43	104	398458880	77	10818
2026-01-27 04:53:41.39	50.85	13.18	-53.7	-62.5	3.8	7.44e-01	0	44	104	398458880	77	10847
2026-01-27 04:53:42.39	50.57	13.23	-53.7	-62.5	3.8	7.45e-01	0	43	104	398458880	77	10837
2026-01-27 04:53:43.40	50.30	13.28	-53.7	-62.5	3.8	7.45e-01	0	44	104	398458880	78	10284
2026-01-27 04:53:44.41	50.02	13.33	-53.7	-62.5	3.8	7.45e-01	0	43	104	398458880	78	10236
2026-01-27 04:53:45.41	49.74	13.37	-53.7	-62.5	3.8	7.44e-01	0	43	104	398458880	78	10273
2026-01-27 04:53:46.42	49.46	13.42	-53.7	-62.5	3.8	7.44e-01	0	44	104	398458880	78	10263
2026-01-27 04:53:47.43	49.18	13.47	-53.7	-62.6	3.8	7.45e-01	0	43	104	398458880	78	10313
2026-01-27 04:53:48.43	48.90	13.52	-53.7	-62.5	3.8	7.44e-01	0	44	104	398458880	78	10271
2026-01-27 04:53:49.44	48.61	13.57	-53.7	-62.5	3.8	7.44e-01	0	43	104	398458880	78	10257
2026-01-27 04:53:50.45	48.33	13.61	-53.7	-62.6	3.8	7.45e-01	0	44	104	398458880	78	10299
2026-01-27 04:53:51.46	48.04	13.66	-53.7	-62.5	3.8	7.46e-01	0	43	104	398458880	78	10292
2026-01-27 04:53:52.46	47.76	13.70	-53.7	-62.5	3.8	7.45e-01	0	43	104	398458880	78	10252
2026-01-27 04:53:53.47	47.47	13.75	-53.7	-62.6	3.8	7.46e-01	0	44	104	398458880	78	10302
2026-01-27 04:53:54.47	47.18	13.79	-53.7	-62.5	3.8	7.44e-01	0	43	104	398458880	78	10282
2026-01-27 04:53:55.48	46.89	13.84	-53.7	-62.5	3.8	7.44e-01	0	44	104	398458880	78	10275
2026-01-27 04:53:56.49	46.60	13.88	-53.7	-62.5	3.8	7.46e-01	0	43	104	398458880	78	10270
2026-01-27 04:53:57.49	46.31	13.92	-53.7	-62.5	3.8	7.47e-01	0	43	104	398458880	78	10275
2026-01-27 04:53:58.49	46.02	13.97	-53.7	-62.6	3.8	7.44e-01	0	44	104	398458880	78	10296
2026-01-27 04:53:59.50	45.72	14.01	-53.7	-62.5	3.8	7.44e-01	0	43	104	398458880	78	10267
2026-01-27 04:54:00.51	45.43	14.05	-53.7	-62.5	3.8	7.45e-01	0	43	104	398458880	78	10259
2026-01-27 04:54:01.52	45.13	14.09	-53.7	-62.5	3.8	7.46e-01	0	44	104	398458880	78	10277
2026-01-27 04:54:02.52	44.84	14.13	-53.7	-62.6	3.8	7.45e-01	0	43	104	398458880	78	10308
2026-01-27 04:54:03.53	44.54	14.17	-53.7	-62.5	3.8	7.47e-01	0	43	104	398458880	78	10217
2026-01-27 04:54:04.54	44.24	14.21	-53.7	-62.5	3.8	7.44e-01	0	44	104	398458880	78	10260
2026-01-27 04:54:05.55	43.94	14.25	-53.7	-62.5	3.8	7.46e-01	0	44	104	398458880	78	10276
2026-01-27 04:54:06.55	43.64	14.28	-53.7	-62.5	3.8	7.45e-01	0	44	104	398458880	78	10292
2026-01-27 04:54:07.56	43.34	14.32	-53.7	-62.6	3.8	7.45e-01	0	43	104	398458880	78	10304
2026-01-27 04:54:08.57	43.04	14.36	-53.7	-62.5	3.8	7.45e-01	0	43	104	398458880	78	10266
2026-01-27 04:54:09.58	42.73	14.39	-53.7	-62.5	3.8	7.45e-01	0	43	104	398458880	78	10292
2026-01-27 04:54:10.59	42.43	14.43	-53.7	-62.6	3.8	7.46e-01	0	43	104	398458880	78	10295
2026-01-27 04:54:11.59	42.12	14.46	-53.7	-62.6	3.8	7.45e-01	0	43	104	398458880	78	10296
2026-01-27 04:54:12.60	41.82	14.50	-53.7	-62.5	3.8	7.46e-01	0	44	104	398458880	78	10269
2026-01-27 04:54:13.60	41.51	14.53	-53.7	-62.5	3.8	7.46e-01	0	43	104	398458880	78	10229
2026-01-27 04:54:14.61	41.21	14.56	-53.7	-62.6	3.8	7.44e-01	0	44	104	398458880	78	10321
2026-01-27 04:54:15.62	40.90	14.60	-53.7	-62.6	3.8	7.44e-01	0	44	104	398458880	78	10317
2026-01-27 04:54:16.62	40.59	14.63	-53.7	-62.6	3.8	7.44e-01	0	43	104	398458880	78	10318
2026-01-27 04:54:17.63	40.28	14.66	-53.7	-62.5	3.8	7.45e-01	0	43	104	398458880	78	10272
2026-01-27 04:54:18.64	39.97	14.69	-53.7	-62.6	3.8	7.46e-01	0	43	104	398458880	78	10323
2026-01-27 04:54:19.65	39.66	14.72	-53.7	-62.6	3.8	7.45e-01	0	43	104	398458880	78	10311
2026-01-27 04:54:20.66	39.34	14.75	-53.7	-62.6	3.8	7.45e-01	0	44	104	398458880	78	10308
2026-01-27 04:54:21.67	39.03	14.78	-53.7	-62.6	3.8	7.43e-01	0	44	104	398458880	78	10313
2026-01-27 04:54:22.67	38.72	14.80	-53.7	-62.6	3.8	7.45e-01	0	44	104	398458880	78	10324
2026-01-27 04:54:23.68	38.40	14.83	-53.7	-62.5	3.8	7.45e-01	0	43	104	398458880	78	10291
2026-01-27 04:54:24.69	38.09	14.86	-53.7	-62.5	3.8	7.45e-01	0	43	104	398458880	78	10275
2026-01-27 04:54:25.70	37.77	14.88	-53.7	-62.5	3.8	7.43e-01	0	43	104	398458880	78	10279
2026-01-27 04:54:26.71	37.45	14.91	-53.6	-62.6	3.8	7.47e-01	0	43	104	398458880	78	10326
2026-01-27 04:54:27.72	37.14	14.93	-53.7	-62.5	3.8	7.46e-01	0	44	104	398458880	78	10288
2026-01-27 04:54:28.72	36.82	14.95	-53.7	-62.5	3.8	7.44e-01	0	44	104	398458880	78	10241
2026-01-27 04:54:29.73	36.50	14.98	-53.7	-62.5	3.8	7.45e-01	0	44	104	398458880	78	10290
2026-01-27 04:54:30.73	36.19	15.00	-53.7	-62.6	3.8	7.45e-01	0	44	104	398458880	78	10302
2026-01-27 04:54:31.74	35.87	15.02	-53.6	-62.6	3.8	7.46e-01	0	43	104	398458880	78	10294
2026-01-27 04:54:32.75	35.55	15.04	-53.7	-62.6	3.8	7.45e-01	0	44	104	398458880	78	10308
2026-01-27 04:54:33.76	35.23	15.06	-53.7	-62.5	3.8	7.46e-01	0	43	104	398458880	78	10275
2026-01-27 04:54:34.77	34.90	15.08	-53.8	-62.6	3.8	7.44e-01	0	43	104	398458880	78	10348
2026-01-27 04:54:35.77	34.59	15.09	-53.7	-62.5	3.8	7.44e-01	0	44	104	398458880	78	10272
2026-01-27 04:54:36.78	34.26	15.11	-53.6	-62.5	3.8	7.45e-01	0	44	104	398458880	78	10259
2026-01-27 04:54:37.79	33.94	15.13	-53.7	-62.6	3.8	7.47e-01	0	44	104	398458880	78	10299
2026-01-27 04:54:38.80	33.62	15.14	-53.6	-62.6	3.8	7.45e-01	0	43	104	398458880	78	10331
2026-01-27 04:54:39.81	33.29	15.16	-53.7	-62.5	3.8	7.46e-01	0	44	104	398458880	78	10291
2026-01-27 04:54:40.82	32.97	15.17	-53.6	-62.6	3.8	7.45e-01	0	43	104	398458880	78	10296
2026-01-27 04:54:41.83	32.65	15.18	-53.7	-62.6	3.8	7.44e-01	0	44	104	398458880	78	10304
2026-01-27 04:54:42.83	32.33	15.20	-53.5	-62.6	3.8	7.45e-01	0	44	104	398458880	78	10333
2026-01-27 04:54:43.84	32.00	15.21	-53.6	-62.6	3.8	7.46e-01	0	43	104	398458880	78	10305
2026-01-27 04:54:44.85	31.68	15.22	-53.8	-62.6	3.8	7.45e-01	0	43	104	398458880	78	10309
2026-01-27 04:54:45.86	31.35	15.23	-53.7	-62.6	3.8	7.45e-01	0	44	104	398458880	78	10311
2026-01-27 04:54:46.87	31.02	15.24	-53.7	-62.6	3.8	7.44e-01	0	44	104	398458880	78	10362
2026-01-27 04:54:47.87	30.70	15.25	-53.7	-62.6	3.8	7.45e-01	0	43	104	398458880	78	10310
2026-01-27 04:54:48.88	30.38	15.26	-53.5	-62.5	3.8	7.45e-01	0	43	104	398458880	78	10285
2026-01-27 04:54:49.89	30.05	15.26	-53.6	-62.6	3.8	7.45e-01	0	44	104	398458880	78	10302
2026-01-27 04:54:50.89	29.73	15.27	-53.7	-62.6	3.8	7.46e-01	0	44	104	398458880	78	10321
2026-01-27 04:54:51.90	29.40	15.27	-53.7	-62.5	3.8	7.45e-01	0	43	104	398458880	78	10291
2026-01-27 04:54:52.91	29.07	15.28	-53.5	-62.6	3.8	7.45e-01	0	44	104	398458880	78	10301
2026-01-27 04:54:53.92	28.75	15.28	-53.6	-62.5	3.8	7.46e-01	0	43	104	398458880	78	10279
2026-01-27 04:54:54.93	28.42	15.28	-53.7	-62.6	3.8	7.45e-01	0	44	104	398458880	78	10377
2026-01-27 04:54:55.94	28.09	15.29	-53.6	-62.5	3.8	7.44e-01	0	44	104	398458880	78	10267
2026-01-27 04:54:56.95	27.77	15.29	-51.9	-62.4	3.8	7.45e-01	0	44	104	398458880	75	12075
2026-01-27 04:54:57.95	27.44	15.29	-53.6	-62.5	3.8	7.45e-01	0	44	104	398458880	77	10839
2026-01-27 04:54:58.96	27.12	15.29	-49.2	-62.5	3.8	7.46e-01	0	44	104	398458880	70	16132
2026-01-27 04:54:59.97	26.79	15.29	-53.4	-62.5	3.8	7.45e-01	0	44	104	398458880	77	10849
2026-01-27 04:55:00.97	26.46	15.28	-53.4	-62.6	3.8	7.44e-01	0	43	104	398458880	77	10905
2026-01-27 04:55:01.98	26.14	15.28	-53.2	-62.5	3.8	7.45e-01	0	44	104	398458880	77	10872
2026-01-27 04:55:02.99	25.81	15.28	-52.9	-62.6	3.8	7.45e-01	0	43	104	398458880	77	10934
2026-01-27 04:55:04.00	25.48	15.27	-53.3	-62.5	3.8	7.45e-01	0	44	104	398458880	77	10901
2026-01-27 04:55:05.01	25.16	15.27	-53.6	-62.6	3.8	7.45e-01	0	44	104	398458880	77	10918
2026-01-27 04:55:06.02	24.83	15.26	-53.2	-62.5	3.8	7.45e-01	0	43	104	398458880	77	10900
2026-01-27 04:55:07.03	24.51	15.25	-53.8	-62.6	3.8	7.47e-01	0	44	104	398458880	78	10329
2026-01-27 04:55:08.04	24.18	15.25	-53.7	-62.5	3.8	7.46e-01	0	44	104	398458880	78	10256
2026-01-27 04:55:09.05	23.85	15.24	-53.7	-62.6	3.8	7.47e-01	0	44	104	398458880	78	10309
2026-01-27 04:55:10.06	23.53	15.23	-53.7	-62.6	3.8	7.45e-01	0	44	104	398458880	78	10310
2026-01-27 04:55:11.06	23.21	15.22	-53.8	-62.6	3.8	7.45e-01	0	44	104	398458880	78	10332
2026-01-27 04:55:12.07	22.88	15.21	-53.7	-62.5	3.8	7.44e-01	0	44	104	398458880	78	10270
2026-01-27 04:55:13.08	22.56	15.20	-53.8	-62.6	3.8	7.47e-01	0	44	104	398458880	78	10323
2026-01-27 04:55:14.09	22.23	15.18	-53.7	-62.6	3.8	7.45e-01	0	44	104	398458880	78	10331
2026-01-27 04:55:15.09	21.91	15.17	-53.8	-62.6	3.8	7.45e-01	0	43	104	398458880	78	10351
2026-01-27 04:55:16.10	21.59	15.16	-53.7	-62.5	3.8	7.45e-01	0	44	104	398458880	78	10289
2026-01-27 04:55:17.11	21.27	15.14	-53.7	-62.6	3.8	7.45e-01	0	44	104	398458880	78	10333
2026-01-27 04:55:18.12	20.94	15.13	-53.8	-62.6	3.8	7.46e-01	0	44	104	398458880	78	10313
2026-01-27 04:55:19.12	20.62	15.11	-53.8	-62.6	3.8	7.46e-01	0	44	104	398458880	78	10331
2026-01-27 04:55:20.13	20.30	15.09	-53.7	-62.5	3.8	7.45e-01	0	44	104	398458880	78	10288
2026-01-27 04:55:21.14	19.98	15.08	-53.7	-62.6	3.8	7.44e-01	0	43	104	398458880	78	10316
2026-01-27 04:55:22.14	19.66	15.06	-53.7	-62.6	3.8	7.45e-01	0	44	104	398458880	78	10298
2026-01-27 04:55:23.15	19.34	15.04	-53.8	-62.6	3.8	7.45e-01	0	44	104	398458880	78	10382
2026-01-27 04:55:24.16	19.02	15.02	-53.7	-62.6	3.8	7.46e-01	0	43	104	398458880	78	10307
2026-01-27 04:55:25.17	18.70	15.00	-53.7	-62.6	3.8	7.45e-01	0	44	104	398458880	78	10334
2026-01-27 04:55:26.17	18.39	14.98	-53.7	-62.5	3.8	7.45e-01	0	43	104	398458880	78	10282
2026-01-27 04:55:27.18	18.07	14.95	-53.8	-62.6	3.8	7.46e-01	0	44	104	398458880	78	10313
2026-01-27 04:55:28.19	17.75	14.93	-53.7	-62.5	3.8	7.45e-01	0	43	104	398458880	78	10256
2026-01-27 04:55:29.19	17.44	14.91	-53.7	-62.5	3.8	7.45e-01	0	43	104	398458880	78	10292
2026-01-27 04:55:30.20	17.12	14.88	-53.7	-62.6	3.8	7.45e-01	0	43	104	398458880	78	10300
2026-01-27 04:55:31.20	16.81	14.86	-53.8	-62.6	3.8	7.45e-01	0	44	104	398458880	78	10340
2026-01-27 04:55:32.21	16.49	14.83	-53.7	-62.6	3.8	7.46e-01	0	44	104	398458880	78	10322
2026-01-27 04:55:33.22	16.18	14.80	-53.7	-62.6	3.8	7.46e-01	0	44	104	398458880	78	10340
2026-01-27 04:55:34.23	15.86	14.78	-53.7	-62.6	3.8	7.45e-01	0	43	104	398458880	78	10335
2026-01-27 04:55:35.24	15.55	14.75	-53.8	-62.6	3.8	7.46e-01	0	44	104	398458880	78	10309
2026-01-27 04:55:36.24	15.24	14.72	-53.7	-62.5	3.8	7.45e-01	0	44	104	398458880	78	10275
2026-01-27 04:55:37.25	14.93	14.69	-53.7	-62.6	3.8	7.45e-01	0	43	104	398458880	78	10306
2026-01-27 04:55:38.25	14.62	14.66	-53.7	-62.6	3.8	7.43e-01	0	44	104	398458880	78	10321
2026-01-27 04:55:39.26	14.31	14.63	-53.8	-62.6	3.8	7.46e-01	0	44	104	398458880	78	10331
2026-01-27 04:55:40.27	14.00	14.60	-53.7	-62.5	3.8	7.44e-01	0	44	104	398458880	78	10251
2026-01-27 04:55:41.27	13.69	14.57	-53.7	-62.5	3.8	7.46e-01	0	44	104	398458880	78	10264
2026-01-27 04:55:42.28	13.39	14.53	-53.7	-62.5	3.8	7.46e-01	0	44	104	398458880	78	10271
2026-01-27 04:55:43.29	13.08	14.50	-53.7	-62.6	3.8	7.43e-01	0	44	104	398458880	78	10315
2026-01-27 04:55:44.30	12.77	14.46	-53.7	-62.5	3.8	7.44e-01	0	44	104	398458880	78	10270
2026-01-27 04:55:45.30	12.47	14.43	-53.7	-62.5	3.8	7.45e-01	0	44	104	398458880	78	10255
2026-01-27 04:55:46.31	12.17	14.39	-53.7	-62.5	3.8	7.44e-01	0	44	104	398458880	78	10257
2026-01-27 04:55:47.32	11.86	14.36	-53.7	-62.5	3.8	7.46e-01	0	44	104	398458880	78	10264
2026-01-27 04:55:48.33	11.56	14.32	-53.7	-62.5	3.8	7.47e-01	0	44	104	398458880	78	10255
2026-01-27 04:55:49.33	11.26	14.29	-53.7	-62.6	3.8	7.45e-01	0	43	104	398458880	78	10302
2026-01-27 04:55:50.34	10.96	14.25	-53.7	-62.5	3.8	7.44e-01	0	44	104	398458880	78	10247
2026-01-27 04:55:51.35	10.66	14.21	-53.7	-62.5	3.8	7.45e-01	0	44	104	398458880	78	10252
2026-01-27 04:55:52.35	10.36	14.17	-53.7	-62.5	3.8	7.47e-01	0	44	104	398458880	78	10214
2026-01-27 04:55:53.36	10.07	14.13	-53.7	-62.5	3.8	7.45e-01	0	44	104	398458880	78	10236
2026-01-27 04:55:54.36	9.77	14.09	-53.7	-62.5	3.8	7.45e-01	0	44	104	398458880	78	10254
2026-01-27 04:55:55.37	9.48	14.05	-53.7	-62.5	3.8	7.45e-01	0	44	104	398458880	78	10229
2026-01-27 04:55:56.38	9.18	14.01	-53.7	-62.5	3.8	7.46e-01	0	44	104	398458880	78	10202
2026-01-27 04:55:57.39	8.89	13.97	-53.7	-62.5	3.8	7.47e-01	0	44	104	398458880	78	10212
2026-01-27 04:55:58.40	8.59	13.92	-53.7	-62.5	3.8	7.44e-01	0	44	104	398458880	78	10237
2026-01-27 04:55:59.41	8.30	13.88	-53.7	-62.5	3.8	7.44e-01	0	44	104	398458880	78	10275
2026-01-27 04:56:00.42	8.01	13.84	-53.7	-62.5	3.8	7.45e-01	0	44	104	398458880	78	10284
2026-01-27 04:56:01.43	7.72	13.79	-53.7	-62.5	3.8	7.45e-01	0	44	104	398458880	78	10245
2026-01-27 04:56:02.43	7.44	13.75	-53.7	-62.5	3.8	7.46e-01	0	44	104	398458880	78	10280
2026-01-27 04:56:03.43	7.15	13.70	-53.7	-62.5	3.8	7.47e-01	0	44	104	398458880	78	10263
2026-01-27 04:56:04.44	6.86	13.66	-53.7	-62.5	3.8	7.44e-01	0	44	104	398458880	78	10224
2026-01-27 04:56:05.45	6.58	13.61	-53.7	-62.5	3.8	7.46e-01	0	44	104	398458880	78	10263
2026-01-27 04:56:06.45	6.30	13.57	-53.7	-62.5	3.8	7.46e-01	0	44	104	398458880	78	10270
2026-01-27 04:56:07.46	6.01	13.52	-53.7	-62.5	3.8	7.46e-01	0	44	104	398458880	78	10218
2026-01-27 04:56:08.46	5.73	13.47	-53.6	-62.5	3.8	7.44e-01	0	43	104	398458880	78	10208
2026-01-27 04:56:09.47	5.45	13.42	-53.7	-62.5	3.8	7.46e-01	0	44	104	398458880	78	10183
2026-01-27 04:56:10.48	5.17	13.38	-53.7	-62.5	3.8	7.45e-01	0	44	104	398458880	78	10260
2026-01-27 04:56:11.49	4.89	13.33	-53.7	-62.5	3.8	7.45e-01	0	44	104	398458880	78	10230
2026-01-27 04:56:12.49	4.62	13.28	-53.6	-62.4	3.8	7.45e-01	0	44	104	398458880	78	10141
2026-01-27 04:56:13.50	4.34	13.23	-53.6	-62.5	3.8	7.45e-01	0	44	104	398458880	78	10209
2026-01-27 04:56:14.51	4.06	13.18	-53.7	-62.5	3.8	7.45e-01	0	44	104	398458880	78	10246
2026-01-27 04:56:15.52	3.79	13.13	-53.6	-62.5	3.8	7.45e-01	0	44	104	398458880	78	10220
2026-01-27 04:56:16.53	3.52	13.08	-53.6	-62.4	3.8	7.45e-01	0	44	104	398458880	78	10173
2026-01-27 04:56:17.54	3.24	13.03	-53.6	-62.5	3.8	7.46e-01	0	44	104	398458880	78	10180
2026-01-27 04:56:18.54	2.97	12.97	-53.6	-62.5	3.8	7.45e-01	0	44	104	398458880	78	10217
2026-01-27 04:56:19.55	2.70	12.92	-53.6	-62.4	3.8	7.45e-01	0	44	104	398458880	78	10132
2026-01-27 04:56:20.56	2.44	12.87	-53.6	-62.4	3.8	7.46e-01	0	43	104	398458880	78	10148
2026-01-27 04:56:21.57	2.17	12.82	-53.6	-62.4	3.8	7.45e-01	0	44	104	398458880	78	10128
2026-01-27 04:56:22.58	1.90	12.76	-53.6	-62.4	3.8	7.45e-01	0	43	104	398458880	78	10142
2026-01-27 04:56:23.59	1.64	12.71	-53.6	-62.4	3.8	7.46e-01	0	44	104	398458880	78	10141
2026-01-27 04:56:24.60	1.37	12.65	-53.6	-62.4	3.8	7.46e-01	0	44	104	398458880	78	10137
2026-01-27 04:56:25.60	1.11	12.60	-53.6	-62.4	3.8	7.45e-01	0	44	104	398458880	78	10127
2026-01-27 04:56:26.61	0.85	12.55	-53.6	-62.4	3.8	7.44e-01	0	44	104	398458880	78	10148
2026-01-27 04:56:27.61	0.59	12.49	-53.6	-62.4	3.8	7.45e-01	0	44	104	398458880	78	10123
2026-01-27 04:56:28.62	0.33	12.44	-53.6	-62.4	3.8	7.45e-01	0	44	104	398458880	78	10111
2026-01-27 04:56:29.63	0.08	12.38	-53.6	-62.4	3.8	7.44e-01	0	43	104	398458880	78	10150
2026-01-27 04:56:30.64	359.82	12.32	-53.6	-62.4	3.8	7.44e-01	0	43	104	398458880	78	10133
2026-01-27 04:56:31.65	359.56	12.27	-53.6	-62.4	3.8	7.45e-01	0	44	104	398458880	78	10096
2026-01-27 04:56:32.66	359.31	12.21	-53.6	-62.4	3.8	7.44e-01	0	43	104	398458880	78	10106
2026-01-27 04:56:33.67	359.05	12.15	-53.6	-62.4	3.8	7.47e-01	0	43	104	398458880	78	10094
2026-01-27 04:56:34.67	358.80	12.10	-53.6	-62.4	3.8	7.45e-01	0	44	104	398458880	78	10138
2026-01-27 04:56:35.69	358.55	12.04	-53.6	-62.4	3.8	7.45e-01	0	44	104	398458880	78	10076
2026-01-27 04:56:36.69	358.30	11.98	-53.6	-62.4	3.8	7.47e-01	0	44	104	398458880	78	10101
2026-01-27 04:56:37.70	358.06	11.92	-53.6	-62.4	3.8	7.46e-01	0	44	104	398458880	78	10096
2026-01-27 04:56:38.71	357.81	11.87	-53.6	-62.4	3.8	7.46e-01	0	44	104	398458880	78	10162
2026-01-27 04:56:39.71	357.56	11.81	-53.6	-62.4	3.8	7.45e-01	0	44	104	398458880	78	10100
2026-01-27 04:56:40.72	357.32	11.75	-53.6	-62.4	3.8	7.45e-01	0	44	104	398458880	78	10079
2026-01-27 04:56:41.73	357.08	11.69	-53.6	-62.4	3.8	7.43e-01	0	44	104	398458880	78	10117
2026-01-27 04:56:42.73	356.84	11.63	-53.6	-62.4	3.8	7.46e-01	0	44	104	398458880	78	10151
2026-01-27 04:56:43.74	356.59	11.57	-53.5	-62.4	3.8	7.45e-01	0	44	104	398458880	78	10088
2026-01-27 04:56:44.75	356.35	11.51	-53.5	-62.3	3.8	7.46e-01	0	44	104	398458880	78	10035
2026-01-27 04:56:45.75	356.12	11.45	-53.5	-62.4	3.8	7.43e-01	0	44	104	398458880	78	10076
2026-01-27 04:56:46.76	355.88	11.39	-53.5	-62.4	3.8	7.45e-01	0	44	104	398458880	78	10070
2026-01-27 04:56:47.77	355.64	11.33	-53.5	-62.4	3.8	7.46e-01	0	44	104	398458880	78	10063
2026-01-27 04:56:48.78	355.41	11.27	-53.5	-62.3	3.8	7.44e-01	0	43	104	398458880	78	10017
2026-01-27 04:56:49.78	355.18	11.21	-53.5	-62.4	3.8	7.46e-01	0	43	104	398458880	78	10076
2026-01-27 04:56:50.79	354.94	11.15	-53.5	-62.4	3.8	7.45e-01	0	44	104	398458880	78	10065
2026-01-27 04:56:51.80	354.71	11.09	-53.5	-62.3	3.8	7.45e-01	0	44	104	398458880	78	10051
2026-01-27 04:56:52.81	354.48	11.03	-53.5	-62.3	3.8	7.46e-01	0	44	104	398458880	78	10004
2026-01-27 04:56:53.81	354.26	10.97	-53.5	-62.4	3.8	7.45e-01	0	44	104	398458880	78	10066
2026-01-27 04:56:54.82	354.03	10.90	-53.5	-62.4	3.8	7.44e-01	0	44	104	398458880	78	10061
2026-01-27 04:56:55.83	353.80	10.84	-53.5	-62.3	3.8	7.46e-01	0	44	104	398458880	78	10020
2026-01-27 04:56:56.84	353.57	10.78	-53.5	-62.3	3.8	7.45e-01	0	44	104	398458880	78	10010
2026-01-27 04:56:57.84	353.35	10.72	-53.5	-62.3	3.8	7.45e-01	0	44	104	398458880	78	10003
2026-01-27 04:56:58.85	353.13	10.66	-53.5	-62.3	3.8	7.45e-01	0	44	104	398458880	78	10030
2026-01-27 04:56:59.85	352.91	10.59	-53.5	-62.3	3.8	7.45e-01	0	44	104	398458880	78	10007
2026-01-27 04:57:00.86	352.69	10.53	-53.5	-62.3	3.8	7.46e-01	0	44	104	398458880	78	10006
2026-01-27 04:57:01.87	352.47	10.47	-53.5	-62.3	3.8	7.47e-01	0	44	104	398458880	78	10022
2026-01-27 04:57:02.88	352.25	10.41	-53.5	-62.3	3.8	7.45e-01	0	44	104	398458880	78	10057
2026-01-27 04:57:03.89	352.03	10.34	-53.4	-62.3	3.8	7.46e-01	0	44	104	398458880	78	9979
2026-01-27 04:57:04.89	351.82	10.28	-53.4	-62.3	3.8	7.46e-01	0	44	104	398458880	78	9988
2026-01-27 04:57:05.90	351.60	10.22	-53.5	-62.3	3.8	7.45e-01	0	44	104	398458880	78	9998
2026-01-27 04:57:06.91	351.39	10.15	-53.5	-62.3	3.8	7.44e-01	0	44	104	398458880	78	10045
2026-01-27 04:57:07.92	351.18	10.09	-53.4	-62.2	3.8	7.45e-01	0	44	104	398458880	78	9938
2026-01-27 04:57:08.92	350.97	10.03	-53.4	-62.3	3.8	7.45e-01	0	44	104	398458880	78	9975
2026-01-27 04:57:09.93	350.76	9.96	-53.5	-62.3	3.8	7.45e-01	0	44	104	398458880	78	9973
2026-01-27 04:57:10.94	350.55	9.90	-53.5	-62.3	3.8	7.46e-01	0	44	104	398458880	78	9998
2026-01-27 04:57:11.95	350.34	9.84	-53.4	-62.2	3.8	7.44e-01	0	44	104	398458880	78	9898
2026-01-27 04:57:12.95	350.13	9.77	-53.4	-62.2	3.8	7.46e-01	0	44	104	398458880	78	9920
2026-01-27 04:57:13.96	349.93	9.71	-53.4	-62.2	3.8	7.44e-01	0	43	104	398458880	78	9892
2026-01-27 04:57:14.97	349.72	9.64	-53.5	-62.3	3.8	7.44e-01	0	44	104	398458880	78	9974
2026-01-27 04:57:15.98	349.52	9.58	-53.4	-62.2	3.8	7.45e-01	0	44	104	398458880	78	9873
2026-01-27 04:57:16.99	349.32	9.52	-53.4	-62.2	3.8	7.45e-01	0	44	104	398458880	78	9891
2026-01-27 04:57:17.99	349.12	9.45	-53.4	-62.2	3.8	7.44e-01	0	44	104	398458880	78	9919
2026-01-27 04:57:19.00	348.92	9.39	-53.4	-62.2	3.8	7.45e-01	0	44	104	398458880	78	9940
2026-01-27 04:57:20.01	348.72	9.32	-53.3	-62.2	3.8	7.46e-01	0	44	104	398458880	78	9847
2026-01-27 04:57:21.02	348.52	9.26	-53.4	-62.2	3.8	7.46e-01	0	44	104	398458880	78	9872
2026-01-27 04:57:22.02	348.32	9.20	-53.4	-62.2	3.8	7.45e-01	0	44	104	398458880	78	9865
2026-01-27 04:57:23.03	348.13	9.13	-53.4	-62.2	3.8	7.45e-01	0	44	104	398458880	78	9908
2026-01-27 04:57:24.03	347.94	9.07	-53.3	-62.1	3.8	7.46e-01	0	44	104	398458880	78	9805
2026-01-27 04:57:25.04	347.74	9.00	-53.3	-62.2	3.8	7.46e-01	0	43	104	398458880	78	9834
2026-01-27 04:57:26.05	347.55	8.94	-53.3	-62.2	3.8	7.47e-01	0	43	104	398458880	78	9900
2026-01-27 04:57:27.06	347.36	8.87	-53.4	-62.2	3.8	7.45e-01	0	44	104	398458880	78	9904
2026-01-27 04:57:28.07	347.17	8.81	-53.3	-62.1	3.8	7.45e-01	0	44	104	398458880	78	9776
2026-01-27 04:57:29.07	346.98	8.74	-53.3	-62.1	3.8	7.45e-01	0	44	104	398458880	78	9818
2026-01-27 04:57:30.08	346.79	8.68	-53.3	-62.1	3.8	7.46e-01	0	44	104	398458880	78	9817
2026-01-27 04:57:31.08	346.60	8.62	-53.4	-62.2	3.8	7.45e-01	0	44	104	398458880	78	9873
2026-01-27 04:57:32.09	346.42	8.55	-53.3	-62.1	3.8	7.45e-01	0	44	104	398458880	78	9774
2026-01-27 04:57:33.09	346.24	8.49	-53.3	-62.1	3.8	7.44e-01	0	44	104	398458880	78	9763
2026-01-27 04:57:34.10	346.05	8.42	-53.3	-62.1	3.8	7.46e-01	0	44	104	398458880	78	9798
2026-01-27 04:57:35.11	345.87	8.36	-53.3	-62.1	3.8	7.45e-01	0	43	104	398458880	78	9794
2026-01-27 04:57:36.12	345.69	8.29	-53.3	-62.1	3.8	7.46e-01	0	44	104	398458880	78	9777
2026-01-27 04:57:37.12	345.51	8.23	-53.3	-62.1	3.8	7.47e-01	0	44	104	398458880	78	9753
2026-01-27 04:57:38.13	345.33	8.16	-53.3	-62.1	3.8	7.45e-01	0	44	104	398458880	78	9762
2026-01-27 04:57:39.14	345.15	8.10	-53.3	-62.1	3.8	7.45e-01	0	44	104	398458880	78	9802
2026-01-27 04:57:40.15	344.97	8.03	-53.3	-62.1	3.8	7.45e-01	0	44	104	398458880	78	9736
2026-01-27 04:57:41.15	344.79	7.97	-53.2	-62.1	3.8	7.47e-01	0	44	104	398458880	78	9743
2026-01-27 04:57:42.16	344.62	7.90	-53.3	-62.1	3.8	7.46e-01	0	44	104	398458880	78	9797
2026-01-27 04:57:43.17	344.44	7.84	-53.3	-62.1	3.8	7.45e-01	0	44	104	398458880	78	9755
2026-01-27 04:57:44.18	344.27	7.77	-53.2	-62.0	3.8	7.47e-01	0	44	104	398458880	78	9714
2026-01-27 04:57:45.19	344.10	7.71	-53.3	-62.1	3.8	7.45e-01	0	44	104	398458880	78	9752
2026-01-27 04:57:46.19	343.92	7.64	-53.3	-62.1	3.8	7.45e-01	0	44	104	398458880	78	9763
2026-01-27 04:57:47.20	343.75	7.58	-53.3	-62.1	3.8	7.46e-01	0	44	104	398458880	78	9785
2026-01-27 04:57:48.21	343.58	7.51	-53.2	-62.0	3.8	7.44e-01	0	43	104	398458880	78	9680
2026-01-27 04:57:49.21	343.42	7.45	-53.2	-62.0	3.8	7.45e-01	0	44	104	398458880	78	9669
2026-01-27 04:57:50.23	343.25	7.38	-53.3	-62.1	3.8	7.44e-01	0	44	104	398458880	78	9762
2026-01-27 04:57:51.23	343.08	7.32	-53.2	-62.1	3.8	7.46e-01	0	44	104	398458880	78	9741
2026-01-27 04:57:52.24	342.91	7.26	-53.2	-62.0	3.8	7.46e-01	0	44	104	398458880	78	9648
2026-01-27 04:57:53.25	342.75	7.19	-53.2	-62.0	3.8	7.46e-01	0	44	104	398458880	78	9707
2026-01-27 04:57:54.26	342.58	7.13	-53.2	-62.1	3.8	7.45e-01	0	44	104	398458880	78	9760
2026-01-27 04:57:55.27	342.42	7.06	-53.2	-62.1	3.8	7.45e-01	0	44	104	398458880	78	9731
2026-01-27 04:57:56.27	342.26	7.00	-53.2	-62.0	3.8	7.45e-01	0	44	104	398458880	78	9611
2026-01-27 04:57:57.28	342.10	6.93	-53.2	-62.0	3.8	7.45e-01	0	44	104	398458880	78	9639
2026-01-27 04:57:58.28	341.94	6.87	-53.2	-62.0	3.8	7.45e-01	0	44	104	398458880	78	9692
2026-01-27 04:57:59.29	341.78	6.81	-53.2	-62.0	3.8	7.45e-01	0	44	104	398458880	78	9680
2026-01-27 04:58:00.30	341.62	6.74	-53.1	-62.0	3.8	7.45e-01	0	44	104	398458880	78	9608
2026-01-27 04:58:01.31	341.46	6.68	-53.2	-62.0	3.8	7.46e-01	0	44	104	398458880	78	9640
2026-01-27 04:58:02.32	341.30	6.61	-53.2	-62.0	3.8	7.45e-01	0	44	104	398458880	78	9658
2026-01-27 04:58:03.32	341.15	6.55	-53.2	-62.0	3.8	7.44e-01	0	44	104	398458880	78	9687
2026-01-27 04:58:04.33	340.99	6.48	-53.1	-61.9	3.8	7.45e-01	0	44	104	398458880	78	9529
2026-01-27 04:58:05.34	340.84	6.42	-53.1	-62.0	3.8	7.46e-01	0	44	104	398458880	78	9646
2026-01-27 04:58:06.35	340.69	6.36	-53.2	-62.0	3.8	7.45e-01	0	44	104	398458880	78	9615
2026-01-27 04:58:07.35	340.54	6.29	-53.1	-61.9	3.8	7.44e-01	0	43	104	398458880	78	9602
2026-01-27 04:58:08.36	340.38	6.23	-53.0	-61.9	3.8	7.44e-01	0	44	104	398458880	78	9513
2026-01-27 04:58:09.37	340.23	6.16	-53.1	-61.9	3.8	7.46e-01	0	44	104	398458880	78	9548
2026-01-27 04:58:10.37	340.08	6.10	-53.1	-62.0	3.8	7.46e-01	0	44	104	398458880	78	9613
2026-01-27 04:58:11.39	339.93	6.04	-53.1	-62.0	3.8	7.46e-01	0	44	104	398458880	78	9608
2026-01-27 04:58:12.39	339.79	5.97	-52.9	-61.7	3.8	7.45e-01	0	44	104	398458880	77	9942
2026-01-27 04:58:13.40	339.64	5.91	-53.0	-61.8	3.8	7.44e-01	0	44	104	398458880	77	10031
2026-01-27 04:58:14.40	339.49	5.85	-53.1	-61.9	3.8	7.45e-01	0	44	104	398458880	77	10108
2026-01-27 04:58:15.41	339.35	5.78	-53.0	-61.8	3.8	7.44e-01	0	44	104	398458880	77	10010
2026-01-27 04:58:16.42	339.20	5.72	-52.9	-61.7	3.8	7.47e-01	0	44	104	398458880	77	9913
2026-01-27 04:58:17.43	339.06	5.66	-52.9	-61.8	3.8	7.46e-01	0	44	104	398458880	77	9975
2026-01-27 04:58:18.43	338.92	5.59	-53.0	-61.8	3.8	7.46e-01	0	44	104	398458880	77	10034
2026-01-27 04:58:19.44	338.77	5.53	-52.9	-61.8	3.8	7.44e-01	0	44	104	398458880	77	9945
2026-01-27 04:58:20.45	338.63	5.47	-52.8	-61.7	3.8	7.44e-01	0	44	104	398458880	77	9843
2026-01-27 04:58:21.45	338.49	5.40	-52.9	-61.7	3.8	7.46e-01	0	44	104	398458880	77	9905
2026-01-27 04:58:22.46	338.35	5.34	-53.0	-61.8	3.8	7.45e-01	0	44	104	398458880	77	9988
2026-01-27 04:58:23.47	338.21	5.28	-52.9	-61.7	3.8	7.47e-01	0	44	104	398458880	77	9894
2026-01-27 04:58:24.47	338.07	5.21	-52.8	-61.6	3.8	7.46e-01	0	44	104	398458880	77	9809
2026-01-27 04:58:25.48	337.94	5.15	-52.8	-61.7	3.8	7.44e-01	0	44	104	398458880	77	9845
2026-01-27 04:58:26.49	337.80	5.09	-52.9	-61.8	3.8	7.46e-01	0	44	104	398458880	77	9950
2026-01-27 04:58:27.50	337.66	5.03	-53.0	-61.8	3.8	7.43e-01	0	44	104	398458880	77	10026
2026-01-27 04:58:28.50	337.53	4.96	-53.4	-62.2	3.8	7.46e-01	0	44	104	398458880	77	10459
2026-01-27 04:58:29.51	337.39	4.90	-53.6	-62.4	3.8	7.46e-01	0	44	104	398458880	77	10764
2026-01-27 04:58:30.52	337.26	4.84	-53.8	-62.6	3.8	7.43e-01	0	44	104	398458880	78	10398
2026-01-27 04:58:31.53	337.12	4.78	-54.0	-62.8	3.8	7.45e-01	0	44	104	398458880	78	10593
2026-01-27 04:58:32.54	336.99	4.71	-54.1	-62.9	3.8	7.46e-01	0	44	104	398458880	78	10727
2026-01-27 04:58:33.55	336.86	4.65	-54.2	-63.0	3.8	7.45e-01	0	44	104	398458880	78	10809
2026-01-27 04:58:34.56	336.73	4.59	-54.2	-63.1	3.8	7.46e-01	0	44	104	398458880	79	10314
2026-01-27 04:58:35.57	336.60	4.53	-54.3	-63.1	3.8	7.47e-01	0	44	104	398458880	79	10305
2026-01-27 04:58:36.57	336.47	4.47	-54.3	-63.1	3.8	7.46e-01	0	43	104	398458880	79	10305
2026-01-27 04:58:37.58	336.34	4.40	-54.2	-63.1	3.8	7.46e-01	0	44	104	398458880	79	10359
2026-01-27 04:58:38.59	336.21	4.34	-54.2	-63.0	3.8	7.45e-01	0	44	104	398458880	79	10282
2026-01-27 04:58:39.60	336.09	4.28	-54.1	-63.0	3.8	7.46e-01	0	44	104	398458880	79	10179
2026-01-27 04:58:40.60	335.96	4.22	-54.0	-62.9	3.8	7.46e-01	0	43	104	398458880	79	10083
2026-01-27 04:58:41.61	335.83	4.16	-53.9	-62.8	3.8	7.47e-01	0	43	104	398458880	79	10008
2026-01-27 04:58:42.62	335.71	4.09	-54.0	-62.8	3.8	7.45e-01	0	44	104	398458880	79	10045
2026-01-27 04:58:43.63	335.58	4.03	-54.1	-62.9	3.8	7.44e-01	0	44	104	398458880	79	10105
2026-01-27 04:58:44.64	335.46	3.97	-54.1	-62.9	3.8	7.46e-01	0	44	104	398458880	79	10136
2026-01-27 04:58:45.64	335.34	3.91	-54.1	-63.0	3.8	7.47e-01	0	44	104	398458880	79	10178
2026-01-27 04:58:46.65	335.21	3.85	-54.1	-63.0	3.8	7.45e-01	0	44	104	398458880	79	10232
2026-01-27 04:58:47.66	335.09	3.79	-54.1	-63.0	3.8	7.46e-01	0	44	104	398458880	79	10238
2026-01-27 04:58:48.67	334.97	3.73	-54.1	-63.0	3.8	7.45e-01	0	44	104	398458880	79	10196
2026-01-27 04:58:49.67	334.85	3.67	-54.1	-63.0	3.8	7.47e-01	0	44	104	398458880	79	10186
2026-01-27 04:58:50.68	334.73	3.61	-54.1	-63.0	3.8	7.44e-01	0	44	104	398458880	79	10192
2026-01-27 04:58:51.69	334.61	3.54	-54.1	-62.9	3.8	7.46e-01	0	44	104	398458880	79	10103
2026-01-27 04:58:52.70	334.49	3.48	-54.1	-62.9	3.8	7.44e-01	0	44	104	398458880	79	10129
2026-01-27 04:58:53.70	334.38	3.42	-54.1	-62.9	3.8	7.46e-01	0	44	104	398458880	79	10151
2026-01-27 04:58:54.71	334.26	3.36	-54.1	-62.9	3.8	7.47e-01	0	43	104	398458880	79	10118
2026-01-27 04:58:55.72	334.14	3.30	-54.1	-62.9	3.8	7.47e-01	0	44	104	398458880	79	10154
2026-01-27 04:58:56.73	334.02	3.24	-54.1	-62.9	3.8	7.43e-01	0	44	104	398458880	79	10151
2026-01-27 04:58:57.74	333.91	3.18	-54.1	-62.9	3.8	7.44e-01	0	44	104	398458880	79	10125
2026-01-27 04:58:58.75	333.79	3.12	-54.1	-62.9	3.8	7.46e-01	0	44	104	398458880	79	10138
2026-01-27 04:58:59.76	333.68	3.06	-54.1	-62.9	3.8	7.46e-01	0	44	104	398458880	79	10083
2026-01-27 04:59:00.77	333.57	3.00	-54.1	-62.9	3.8	7.44e-01	0	44	104	398458880	79	10113
2026-01-27 04:59:01.77	333.45	2.94	-54.1	-62.9	3.8	7.45e-01	0	44	104	398458880	79	10111
2026-01-27 04:59:02.78	333.34	2.88	-54.1	-62.9	3.8	7.46e-01	0	44	104	398458880	79	10122
2026-01-27 04:59:03.79	333.23	2.82	-54.1	-62.9	3.8	7.45e-01	0	43	104	398458880	79	10086
2026-01-27 04:59:04.79	333.12	2.76	-54.1	-62.9	3.8	7.45e-01	0	44	104	398458880	79	10108
2026-01-27 04:59:05.80	333.01	2.70	-54.1	-62.9	3.8	7.46e-01	0	44	104	398458880	79	10118
2026-01-27 04:59:06.81	332.90	2.64	-54.1	-62.9	3.8	7.46e-01	0	44	104	398458880	79	10134
2026-01-27 04:59:07.82	332.79	2.58	-54.1	-62.9	3.8	7.46e-01	0	44	104	398458880	79	10123
2026-01-27 04:59:08.82	332.68	2.52	-54.1	-62.9	3.8	7.44e-01	0	44	104	398458880	79	10117
2026-01-27 04:59:09.83	332.57	2.47	-54.1	-62.9	3.8	7.47e-01	0	43	104	398458880	79	10116
2026-01-27 04:59:10.83	332.47	2.41	-54.1	-62.9	3.8	7.45e-01	0	44	104	398458880	79	10091
2026-01-27 04:59:11.84	332.36	2.35	-54.1	-62.9	3.8	7.46e-01	0	44	104	398458880	79	10089
2026-01-27 04:59:12.85	332.25	2.29	-54.0	-62.9	3.8	7.45e-01	0	44	104	398458880	79	10111
2026-01-27 04:59:13.86	332.15	2.23	-54.1	-62.9	3.8	7.45e-01	0	44	104	398458880	79	10105
2026-01-27 04:59:14.87	332.04	2.17	-54.1	-62.9	3.8	7.45e-01	0	43	104	398458880	79	10083
2026-01-27 04:59:15.88	331.94	2.11	-54.0	-62.9	3.8	7.44e-01	0	44	104	398458880	79	10069
2026-01-27 04:59:16.89	331.83	2.05	-54.1	-62.9	3.8	7.46e-01	0	43	104	398458880	79	10112
2026-01-27 04:59:17.89	331.73	1.99	-54.1	-62.9	3.8	7.46e-01	0	44	104	398458880	79	10097
2026-01-27 04:59:18.90	331.63	1.94	-54.0	-62.9	3.8	7.46e-01	0	44	104	398458880	79	10097

#Closed at: 2026-01-27 04:59:19
#Recorded file [398 MB]: D:/lorett/data/31041_260127_075038.dat