passes_logs/2026/01/27/R3.2S_Murmansk/R3.2S_Murmansk__20260127_024722_NOAA_20_JPSS-1_rec.log

#Pass ID: 20260127_024722_NOAA 20 (JPSS-1)
#Satellite: NOAA 20 (JPSS-1)
#Configuration: NOAA 20
#almurnet v.1.7.20251203
#Start time: 2026-01-27 02:47:24

#Version: 2.2.20231116
#Station: R3.2S_Murmansk
#Location: 33.079688 lon 68.888172 lat
#TLE: 1 43013U 17073A   26026.46665230  .00000148  00000+0  91302-4 0  9998
#TLE: 2 43013  98.7646 327.2856 0001008  22.9532 337.1688 14.19540616424360

#Time	Az	El	Level	Level2	SNR	BER	BlckErr	Temp	State	Recorded	gain1	gain2
2026-01-27 02:47:24.27	35.90	2.12	-52.2	-67.2	3.8	1.49e+00	0	41	0	0	76	19621
2026-01-27 02:47:25.27	35.86	2.18	-52.2	-67.2	3.8	1.49e+00	0	41	104	0	74	22011
2026-01-27 02:47:26.28	35.81	2.24	-52.2	-67.1	3.8	1.49e+00	0	41	104	0	74	21957
2026-01-27 02:47:27.29	35.77	2.30	-52.2	-67.1	3.8	1.49e+00	0	41	104	0	74	21925
2026-01-27 02:47:28.30	35.72	2.37	-52.2	-67.1	3.8	1.49e+00	0	41	104	0	74	21859
2026-01-27 02:47:29.30	35.68	2.43	-52.2	-67.1	3.8	1.49e+00	0	41	104	0	74	21903
2026-01-27 02:47:30.31	35.63	2.49	-52.2	-67.0	3.8	1.49e+00	0	41	104	0	74	21653
2026-01-27 02:47:31.32	35.59	2.55	-52.2	-67.0	3.8	1.49e+00	0	41	104	0	74	21676
2026-01-27 02:47:32.33	35.54	2.61	-52.2	-67.0	3.8	1.49e+00	0	41	104	0	74	21627
2026-01-27 02:47:33.34	35.50	2.68	-52.2	-67.0	3.8	1.49e+00	0	41	104	0	74	21682
2026-01-27 02:47:34.35	35.45	2.74	-52.2	-67.1	3.8	1.49e+00	0	41	104	0	74	21770
2026-01-27 02:47:35.36	35.41	2.80	-52.2	-67.1	3.8	1.49e+00	0	41	104	0	74	21899
2026-01-27 02:47:36.37	35.36	2.86	-52.2	-67.1	3.8	1.49e+00	0	41	104	0	74	21917
2026-01-27 02:47:37.37	35.31	2.93	-52.2	-67.1	3.8	1.49e+00	0	41	104	0	74	21867
2026-01-27 02:47:38.38	35.27	2.99	-52.2	-67.1	3.8	1.49e+00	0	41	104	0	74	21804
2026-01-27 02:47:39.39	35.22	3.05	-52.2	-67.0	3.8	1.49e+00	0	41	104	0	74	21705
2026-01-27 02:47:40.39	35.17	3.12	-52.2	-67.0	3.8	1.49e+00	0	42	104	0	74	21547
2026-01-27 02:47:41.40	35.13	3.18	-52.2	-67.0	3.8	1.49e+00	0	41	104	0	74	21607
2026-01-27 02:47:42.41	35.08	3.24	-52.2	-66.9	3.8	1.49e+00	0	41	104	0	74	21472
2026-01-27 02:47:43.42	35.03	3.31	-52.2	-67.0	3.8	1.49e+00	0	41	104	0	74	21603
2026-01-27 02:47:44.42	34.98	3.37	-52.2	-67.1	3.8	1.49e+00	0	42	104	0	74	21807
2026-01-27 02:47:45.43	34.94	3.43	-52.2	-67.1	3.8	1.49e+00	0	42	104	0	74	21847
2026-01-27 02:47:46.43	34.89	3.50	-52.2	-67.1	3.8	1.49e+00	0	42	104	0	74	21871
2026-01-27 02:47:47.44	34.84	3.56	-52.2	-67.0	3.8	1.49e+00	0	41	104	0	74	21528
2026-01-27 02:47:48.45	34.79	3.63	-52.1	-66.6	3.8	1.49e+00	0	41	104	0	74	20592
2026-01-27 02:47:49.46	34.74	3.69	-52.1	-66.2	3.8	1.49e+00	0	41	104	0	74	19733
2026-01-27 02:47:50.47	34.69	3.75	-52.1	-65.5	3.8	1.49e+00	0	41	104	0	74	18271
2026-01-27 02:47:51.48	34.64	3.82	-52.1	-65.1	3.8	1.49e+00	0	42	104	0	74	17368
2026-01-27 02:47:52.49	34.59	3.88	-52.0	-64.3	4.0	1.48e+00	0	42	104	0	74	15824
2026-01-27 02:47:53.49	34.54	3.95	-52.0	-63.9	4.1	1.44e+00	0	42	0	0	74	15189
2026-01-27 02:47:54.50	34.49	4.01	-52.0	-63.5	4.2	1.47e+00	0	42	0	0	74	14530
2026-01-27 02:47:55.51	34.44	4.08	-52.0	-63.5	4.2	1.39e+00	0	42	0	0	74	14528
2026-01-27 02:47:56.52	34.39	4.14	-51.9	-62.6	4.5	1.29e+00	53	42	0	1048576	74	13108
2026-01-27 02:47:57.52	34.34	4.21	-51.8	-61.5	5.0	8.60e-01	0	42	0	2097152	74	11540
2026-01-27 02:47:58.53	34.29	4.27	-51.6	-60.3	5.8	5.44e-01	0	42	0	4194304	74	9961
2026-01-27 02:47:59.54	34.24	4.34	-51.3	-58.5	7.3	1.83e-01	0	42	0	6291456	74	8167
2026-01-27 02:48:00.51	34.19	4.40	-51.0	-57.2	8.6	7.13e-02	0	42	0	8388608	74	6999
2026-01-27 02:48:01.52	34.14	4.47	-50.7	-56.4	9.5	1.71e-02	0	42	0	9437184	73	6735
2026-01-27 02:48:02.52	34.08	4.53	-50.4	-55.3	10.6	5.56e-03	0	42	0	11534336	72	6294
2026-01-27 02:48:03.53	34.03	4.60	-50.0	-54.4	11.5	1.81e-03	0	42	0	13631488	72	5690
2026-01-27 02:48:04.54	33.98	4.67	-49.9	-54.0	12.0	3.58e-04	0	42	0	15728640	71	5767
2026-01-27 02:48:05.55	33.93	4.73	-49.8	-53.7	12.3	2.73e-04	0	42	0	17825792	71	5587
2026-01-27 02:48:06.56	33.87	4.80	-49.8	-53.8	12.3	1.98e-04	0	42	0	18874368	71	5621
2026-01-27 02:48:07.57	33.82	4.87	-49.8	-53.7	12.4	1.17e-04	0	42	0	20971520	71	5545
2026-01-27 02:48:08.58	33.76	4.93	-49.9	-54.1	12.0	3.07e-04	0	42	0	23068672	71	5815
2026-01-27 02:48:09.59	33.71	5.00	-50.3	-55.0	11.0	1.05e-03	0	42	0	25165824	71	6457
2026-01-27 02:48:10.59	33.66	5.07	-49.7	-53.5	12.6	3.45e-03	0	42	0	27262976	71	5440
2026-01-27 02:48:11.60	33.60	5.13	-48.0	-50.4	15.8	2.13e-05	0	42	0	29360128	68	4531
2026-01-27 02:48:12.61	33.55	5.20	-51.3	-58.6	8.0	6.86e-05	0	43	0	30408704	73	8709
2026-01-27 02:48:13.62	33.49	5.27	-49.0	-51.9	5.8	1.49e+00	0	42	104	31457280	70	4814
2026-01-27 02:48:14.63	33.44	5.34	-48.7	-51.5	15.0	2.20e-06	0	42	0	32505856	68	5129
2026-01-27 02:48:15.64	33.38	5.41	-49.2	-52.3	13.7	1.99e-03	0	42	0	33554432	70	5035
2026-01-27 02:48:16.65	33.32	5.47	-48.6	-51.4	14.8	0.00e+00	0	42	0	35651584	68	5096
2026-01-27 02:48:17.66	33.27	5.54	-48.4	-51.1	15.3	0.00e+00	0	42	0	37748736	68	4871
2026-01-27 02:48:18.67	33.21	5.61	-48.3	-50.8	15.6	0.00e+00	0	42	0	39845888	68	4732
2026-01-27 02:48:19.68	33.16	5.68	-48.0	-50.4	16.0	0.00e+00	0	42	0	41943040	68	4510
2026-01-27 02:48:20.69	33.10	5.75	-47.7	-49.9	16.4	0.00e+00	0	42	0	44040192	67	4514
2026-01-27 02:48:21.69	33.04	5.82	-47.7	-49.9	16.5	0.00e+00	0	42	0	45088768	67	4518
2026-01-27 02:48:22.70	32.98	5.89	-47.4	-49.5	16.8	0.00e+00	0	42	0	47185920	66	4567
2026-01-27 02:48:23.71	32.93	5.95	-47.5	-49.7	16.7	0.00e+00	0	42	0	49283072	66	4656
2026-01-27 02:48:24.72	32.87	6.02	-47.6	-49.7	16.6	0.00e+00	0	42	0	51380224	66	4696
2026-01-27 02:48:25.73	32.81	6.09	-47.4	-49.5	16.9	0.00e+00	0	42	0	52428800	66	4561
2026-01-27 02:48:26.74	32.75	6.16	-47.4	-49.5	16.9	0.00e+00	0	42	0	54525952	66	4553
2026-01-27 02:48:27.74	32.69	6.23	-47.4	-49.5	16.9	0.00e+00	0	42	0	56623104	66	4582
2026-01-27 02:48:28.75	32.63	6.30	-47.4	-49.5	17.0	0.00e+00	0	42	0	58720256	66	4550
2026-01-27 02:48:29.76	32.57	6.37	-47.4	-49.5	16.9	0.00e+00	0	42	0	60817408	66	4576
2026-01-27 02:48:30.77	32.51	6.44	-47.4	-49.5	16.9	0.00e+00	0	42	0	61865984	66	4576
2026-01-27 02:48:31.77	32.45	6.51	-47.5	-49.7	16.7	0.00e+00	0	42	0	63963136	66	4667
2026-01-27 02:48:32.78	32.39	6.58	-47.5	-49.6	16.9	0.00e+00	0	42	0	66060288	66	4602
2026-01-27 02:48:33.79	32.33	6.65	-47.4	-49.5	17.0	0.00e+00	0	42	0	68157440	66	4559
2026-01-27 02:48:34.80	32.27	6.72	-47.4	-49.5	17.0	0.00e+00	0	42	0	70254592	66	4549
2026-01-27 02:48:35.81	32.21	6.80	-47.4	-49.4	17.0	0.00e+00	0	43	0	72351744	66	4531
2026-01-27 02:48:36.82	32.14	6.87	-47.1	-49.0	17.4	0.00e+00	0	42	0	73400320	66	4337
2026-01-27 02:48:37.83	32.08	6.94	-47.2	-49.1	17.4	0.00e+00	0	42	0	75497472	66	4371
2026-01-27 02:48:38.84	32.02	7.01	-47.2	-49.2	17.3	0.00e+00	0	43	0	77594624	66	4399
2026-01-27 02:48:39.85	31.96	7.08	-47.2	-49.2	17.3	0.00e+00	0	42	0	79691776	66	4400
2026-01-27 02:48:40.85	31.89	7.15	-47.3	-49.3	17.2	0.00e+00	0	42	0	80740352	66	4450
2026-01-27 02:48:41.86	31.83	7.23	-47.1	-49.1	17.5	0.00e+00	0	42	0	82837504	66	4345
2026-01-27 02:48:42.87	31.77	7.30	-47.2	-49.1	17.4	0.00e+00	0	42	0	84934656	66	4371
2026-01-27 02:48:43.88	31.70	7.37	-47.1	-49.0	17.6	0.00e+00	0	42	0	87031808	66	4315
2026-01-27 02:48:44.88	31.64	7.44	-47.1	-49.1	17.5	0.00e+00	0	42	0	89128960	66	4356
2026-01-27 02:48:45.88	31.57	7.51	-47.0	-48.9	17.7	0.00e+00	0	42	0	91226112	66	4263
2026-01-27 02:48:46.89	31.51	7.59	-47.0	-48.9	17.6	0.00e+00	0	43	0	92274688	65	4533
2026-01-27 02:48:47.90	31.44	7.66	-47.2	-49.2	17.4	0.00e+00	0	42	0	94371840	65	4667
2026-01-27 02:48:48.91	31.38	7.73	-47.0	-48.8	17.7	0.00e+00	0	42	0	96468992	65	4468
2026-01-27 02:48:49.92	31.31	7.81	-47.1	-48.9	17.6	0.00e+00	0	43	0	98566144	65	4540
2026-01-27 02:48:50.93	31.24	7.88	-47.1	-48.9	17.7	0.00e+00	0	43	0	100663296	65	4532
2026-01-27 02:48:51.94	31.18	7.95	-47.1	-49.0	17.6	0.00e+00	0	42	0	101711872	65	4581
2026-01-27 02:48:52.95	31.11	8.03	-47.2	-49.1	17.5	0.00e+00	0	43	0	103809024	65	4609
2026-01-27 02:48:53.96	31.04	8.10	-47.0	-48.9	17.7	0.00e+00	0	42	0	105906176	65	4536
2026-01-27 02:48:54.97	30.97	8.18	-47.2	-49.1	17.5	0.00e+00	0	42	0	108003328	65	4611
2026-01-27 02:48:55.97	30.91	8.25	-47.0	-48.9	17.7	0.00e+00	0	42	0	110100480	65	4517
2026-01-27 02:48:56.98	30.84	8.32	-47.1	-48.9	17.7	0.00e+00	0	42	0	111149056	65	4528
2026-01-27 02:48:57.99	30.77	8.40	-47.0	-48.9	17.7	0.00e+00	0	42	0	113246208	65	4518
2026-01-27 02:48:59.00	30.70	8.47	-47.2	-49.1	17.6	0.00e+00	0	42	0	115343360	65	4608
2026-01-27 02:49:00.00	30.63	8.55	-47.1	-48.9	17.7	0.00e+00	0	42	0	117440512	65	4530
2026-01-27 02:49:01.01	30.56	8.62	-47.0	-48.9	17.7	0.00e+00	0	43	0	119537664	65	4516
2026-01-27 02:49:02.02	30.49	8.70	-46.9	-48.8	17.9	0.00e+00	0	43	0	120586240	65	4446
2026-01-27 02:49:03.02	30.42	8.77	-47.0	-48.9	17.8	0.00e+00	0	42	0	122683392	65	4504
2026-01-27 02:49:04.02	30.35	8.85	-46.8	-48.6	18.0	0.00e+00	0	43	0	124780544	65	4375
2026-01-27 02:49:05.03	30.27	8.93	-47.0	-48.8	17.9	0.00e+00	0	42	0	126877696	65	4474
2026-01-27 02:49:06.04	30.20	9.00	-46.9	-48.7	18.0	0.00e+00	0	42	0	128974848	65	4406
2026-01-27 02:49:07.04	30.13	9.08	-46.9	-48.7	18.0	0.00e+00	0	43	0	130023424	65	4434
2026-01-27 02:49:08.05	30.06	9.15	-47.0	-48.9	17.8	0.00e+00	0	43	0	132120576	65	4521
2026-01-27 02:49:09.06	29.98	9.23	-46.8	-48.6	18.1	0.00e+00	0	43	0	134217728	65	4344
2026-01-27 02:49:10.07	29.91	9.31	-46.9	-48.7	18.0	0.00e+00	0	43	0	136314880	65	4421
2026-01-27 02:49:11.07	29.83	9.39	-46.9	-48.8	17.9	0.00e+00	0	43	0	138412032	65	4445
2026-01-27 02:49:12.08	29.76	9.46	-46.9	-48.7	18.0	0.00e+00	0	42	0	139460608	65	4419
2026-01-27 02:49:13.09	29.68	9.54	-46.9	-48.8	17.9	0.00e+00	0	43	0	141557760	65	4446
2026-01-27 02:49:14.10	29.61	9.62	-46.9	-48.7	18.0	0.00e+00	0	43	0	143654912	65	4402
2026-01-27 02:49:15.11	29.53	9.70	-46.8	-48.6	18.1	0.00e+00	0	43	0	145752064	65	4341
2026-01-27 02:49:16.11	29.46	9.77	-46.9	-48.6	18.1	0.00e+00	0	43	0	147849216	65	4385
2026-01-27 02:49:17.12	29.38	9.85	-46.9	-48.6	18.1	0.00e+00	0	43	0	148897792	65	4374
2026-01-27 02:49:18.12	29.30	9.93	-46.8	-48.6	18.1	0.00e+00	0	43	0	150994944	65	4350
2026-01-27 02:49:19.12	29.23	10.01	-46.8	-48.6	18.1	0.00e+00	0	42	0	153092096	65	4377
2026-01-27 02:49:20.13	29.15	10.09	-46.8	-48.6	18.1	0.00e+00	0	43	0	155189248	65	4349
2026-01-27 02:49:21.14	29.07	10.17	-46.7	-48.4	18.3	0.00e+00	0	43	0	157286400	65	4290
2026-01-27 02:49:22.15	28.99	10.25	-46.8	-48.5	18.2	0.00e+00	0	43	0	158334976	65	4327
2026-01-27 02:49:23.15	28.91	10.32	-46.7	-48.5	18.3	0.00e+00	0	43	0	160432128	65	4294
2026-01-27 02:49:24.16	28.83	10.40	-46.7	-48.4	18.3	0.00e+00	0	43	0	162529280	65	4276
2026-01-27 02:49:25.17	28.75	10.48	-46.7	-48.4	18.3	0.00e+00	0	43	0	164626432	65	4275
2026-01-27 02:49:26.18	28.67	10.56	-46.6	-48.3	18.5	0.00e+00	0	43	0	166723584	65	4227
2026-01-27 02:49:27.19	28.59	10.64	-46.7	-48.4	18.4	0.00e+00	0	43	0	167772160	65	4285
2026-01-27 02:49:28.20	28.51	10.72	-46.7	-48.4	18.4	0.00e+00	0	43	0	169869312	65	4264
2026-01-27 02:49:29.20	28.42	10.80	-46.7	-48.3	18.4	0.00e+00	0	43	0	171966464	65	4240
2026-01-27 02:49:30.21	28.34	10.89	-46.6	-48.3	18.5	0.00e+00	0	43	0	174063616	65	4199
2026-01-27 02:49:31.22	28.26	10.97	-46.7	-48.4	18.4	0.00e+00	0	43	0	176160768	65	4253
2026-01-27 02:49:32.22	28.18	11.05	-46.6	-48.3	18.5	0.00e+00	0	43	0	177209344	65	4221
2026-01-27 02:49:33.23	28.09	11.13	-46.8	-48.5	18.4	0.00e+00	0	43	0	179306496	65	4297
2026-01-27 02:49:34.24	28.01	11.21	-46.6	-48.2	18.6	0.00e+00	0	43	0	181403648	65	4175
2026-01-27 02:49:35.25	27.92	11.29	-46.7	-48.3	18.5	0.00e+00	0	43	0	183500800	65	4240
2026-01-27 02:49:36.25	27.84	11.37	-46.7	-48.4	18.4	0.00e+00	0	43	0	185597952	65	4268
2026-01-27 02:49:37.26	27.75	11.46	-46.6	-48.3	18.5	0.00e+00	0	43	0	186646528	65	4209
2026-01-27 02:49:38.27	27.66	11.54	-46.6	-48.2	18.6	0.00e+00	0	43	0	188743680	65	4176
2026-01-27 02:49:39.27	27.58	11.62	-46.6	-48.2	18.6	0.00e+00	0	43	0	190840832	65	4193
2026-01-27 02:49:40.28	27.49	11.70	-46.5	-48.2	18.7	0.00e+00	0	43	0	192937984	65	4163
2026-01-27 02:49:41.29	27.40	11.79	-46.5	-48.1	18.7	0.00e+00	0	43	0	195035136	64	4373
2026-01-27 02:49:42.30	27.31	11.87	-46.6	-48.2	18.6	0.00e+00	0	43	0	196083712	64	4416
2026-01-27 02:49:43.31	27.22	11.96	-46.4	-48.0	18.8	0.00e+00	0	43	0	198180864	64	4305
2026-01-27 02:49:44.31	27.13	12.04	-46.4	-48.0	18.9	0.00e+00	0	43	0	200278016	64	4299
2026-01-27 02:49:45.32	27.04	12.12	-46.4	-48.0	18.9	0.00e+00	0	43	0	202375168	64	4297
2026-01-27 02:49:46.33	26.95	12.21	-46.3	-47.9	19.0	0.00e+00	0	43	0	204472320	64	4252
2026-01-27 02:49:47.33	26.86	12.29	-46.2	-47.8	19.1	0.00e+00	0	43	0	205520896	64	4200
2026-01-27 02:49:48.34	26.77	12.38	-46.3	-47.8	19.0	0.00e+00	0	43	0	207618048	64	4229
2026-01-27 02:49:49.35	26.68	12.46	-46.3	-47.8	19.0	0.00e+00	0	43	0	209715200	64	4229
2026-01-27 02:49:50.36	26.58	12.55	-46.3	-47.8	19.0	0.00e+00	0	43	0	211812352	64	4220
2026-01-27 02:49:51.37	26.49	12.63	-46.2	-47.7	19.1	0.00e+00	0	43	0	213909504	64	4184
2026-01-27 02:49:52.37	26.40	12.72	-46.1	-47.7	19.2	0.00e+00	0	43	0	214958080	64	4152
2026-01-27 02:49:53.38	26.30	12.80	-46.1	-47.6	19.2	0.00e+00	0	43	0	217055232	64	4136
2026-01-27 02:49:54.39	26.21	12.89	-46.1	-47.6	19.3	0.00e+00	0	43	0	219152384	64	4130
2026-01-27 02:49:55.39	26.11	12.97	-46.1	-47.6	19.3	0.00e+00	0	43	0	221249536	64	4113
2026-01-27 02:49:56.40	26.01	13.06	-46.2	-47.7	19.2	0.00e+00	0	43	0	223346688	64	4161
2026-01-27 02:49:57.41	25.92	13.15	-46.0	-47.5	19.4	0.00e+00	0	43	0	224395264	64	4084
2026-01-27 02:49:58.42	25.82	13.23	-46.1	-47.5	19.5	0.00e+00	0	43	0	226492416	63	4334
2026-01-27 02:49:59.43	25.72	13.32	-46.1	-47.6	19.4	0.00e+00	0	43	0	228589568	63	4380
2026-01-27 02:50:00.44	25.62	13.41	-46.1	-47.6	19.4	0.00e+00	0	43	0	230686720	63	4361
2026-01-27 02:50:01.44	25.52	13.50	-46.2	-47.7	19.3	0.00e+00	0	43	0	232783872	63	4412
2026-01-27 02:50:02.45	25.42	13.58	-46.2	-47.7	19.3	0.00e+00	0	43	0	233832448	63	4408
2026-01-27 02:50:03.45	25.32	13.67	-46.1	-47.6	19.4	0.00e+00	0	43	0	235929600	63	4388
2026-01-27 02:50:04.46	25.22	13.76	-46.1	-47.6	19.4	0.00e+00	0	43	0	238026752	63	4367
2026-01-27 02:50:05.47	25.12	13.85	-46.2	-47.7	19.3	0.00e+00	0	43	0	240123904	63	4422
2026-01-27 02:50:06.48	25.02	13.94	-46.2	-47.7	19.3	0.00e+00	0	43	0	242221056	63	4428
2026-01-27 02:50:07.48	24.92	14.02	-46.2	-47.7	19.3	0.00e+00	0	43	0	244318208	63	4439
2026-01-27 02:50:08.49	24.81	14.11	-46.2	-47.7	19.3	0.00e+00	0	42	0	245366784	63	4409
2026-01-27 02:50:09.50	24.71	14.20	-46.2	-47.7	19.4	0.00e+00	0	43	0	247463936	63	4395
2026-01-27 02:50:10.51	24.60	14.29	-46.2	-47.7	19.4	0.00e+00	0	43	0	249561088	63	4424
2026-01-27 02:50:11.52	24.50	14.38	-46.2	-47.7	19.3	0.00e+00	0	43	0	251658240	63	4440
2026-01-27 02:50:12.52	24.39	14.47	-46.1	-47.6	19.5	0.00e+00	0	43	0	252706816	63	4348
2026-01-27 02:50:13.52	24.28	14.56	-46.3	-47.8	19.3	0.00e+00	0	43	0	254803968	63	4454
2026-01-27 02:50:14.53	24.18	14.65	-46.2	-47.6	19.4	0.00e+00	0	43	0	256901120	63	4390
2026-01-27 02:50:15.53	24.07	14.74	-46.1	-47.5	19.5	0.00e+00	0	43	0	258998272	63	4332
2026-01-27 02:50:16.53	23.96	14.83	-45.9	-47.3	19.7	0.00e+00	0	43	0	261095424	63	4242
2026-01-27 02:50:17.54	23.85	14.92	-46.1	-47.5	19.5	0.00e+00	0	43	0	262144000	63	4334
2026-01-27 02:50:18.55	23.74	15.02	-46.1	-47.6	19.5	0.00e+00	0	43	0	264241152	63	4342
2026-01-27 02:50:19.55	23.63	15.11	-46.0	-47.5	19.6	0.00e+00	0	43	0	266338304	63	4316
2026-01-27 02:50:20.56	23.52	15.20	-46.0	-47.4	19.7	0.00e+00	0	43	0	268435456	63	4266
2026-01-27 02:50:21.57	23.40	15.29	-45.9	-47.3	19.8	0.00e+00	0	43	0	270532608	63	4211
2026-01-27 02:50:22.58	23.29	15.38	-45.9	-47.3	19.7	0.00e+00	0	43	0	272629760	63	4242
2026-01-27 02:50:23.59	23.18	15.48	-46.0	-47.4	19.7	0.00e+00	0	43	0	273678336	63	4264
2026-01-27 02:50:24.59	23.06	15.57	-46.0	-47.4	19.7	0.00e+00	0	43	0	275775488	63	4283
2026-01-27 02:50:25.60	22.95	15.66	-45.7	-47.1	20.0	0.00e+00	0	43	0	277872640	63	4106
2026-01-27 02:50:26.61	22.83	15.76	-45.8	-47.2	19.9	0.00e+00	0	43	0	279969792	63	4160
2026-01-27 02:50:27.61	22.71	15.85	-45.9	-47.4	19.8	0.00e+00	0	43	0	281018368	63	4247
2026-01-27 02:50:28.62	22.60	15.94	-45.9	-47.3	19.8	0.00e+00	0	43	0	283115520	63	4211
2026-01-27 02:50:29.63	22.48	16.04	-46.0	-47.4	19.7	0.00e+00	0	43	0	285212672	63	4290
2026-01-27 02:50:30.64	22.36	16.13	-45.9	-47.3	19.8	0.00e+00	0	43	0	287309824	63	4238
2026-01-27 02:50:31.65	22.24	16.23	-46.0	-47.5	19.7	0.00e+00	0	43	0	289406976	63	4301
2026-01-27 02:50:32.65	22.12	16.32	-46.0	-47.4	19.8	0.00e+00	0	43	0	290455552	63	4273
2026-01-27 02:50:33.66	22.00	16.41	-46.1	-47.5	19.6	0.00e+00	0	43	0	292552704	63	4340
2026-01-27 02:50:34.67	21.87	16.51	-46.1	-47.6	19.5	0.00e+00	0	43	0	294649856	63	4369
2026-01-27 02:50:35.68	21.75	16.61	-46.0	-47.5	19.7	0.00e+00	0	43	0	296747008	63	4303
2026-01-27 02:50:36.69	21.63	16.70	-46.1	-47.6	19.6	0.00e+00	0	43	0	298844160	63	4355
2026-01-27 02:50:37.70	21.50	16.80	-46.0	-47.4	19.8	0.00e+00	0	43	0	300941312	63	4262
2026-01-27 02:50:38.70	21.38	16.89	-46.0	-47.4	19.7	0.00e+00	0	43	0	301989888	63	4291
2026-01-27 02:50:39.71	21.25	16.99	-46.1	-47.5	19.6	0.00e+00	0	43	0	304087040	63	4326
2026-01-27 02:50:40.72	21.12	17.09	-46.1	-47.6	19.6	0.00e+00	0	43	0	306184192	63	4366
2026-01-27 02:50:41.73	20.99	17.18	-46.0	-47.5	19.7	0.00e+00	0	43	0	308281344	63	4302
2026-01-27 02:50:42.73	20.87	17.28	-46.1	-47.6	19.6	0.00e+00	0	43	0	309329920	63	4353
2026-01-27 02:50:43.74	20.74	17.38	-46.1	-47.6	19.6	0.00e+00	0	43	0	311427072	63	4355
2026-01-27 02:50:44.75	20.60	17.47	-46.2	-47.7	19.5	0.00e+00	0	43	0	313524224	63	4410
2026-01-27 02:50:45.76	20.47	17.57	-46.3	-47.7	19.4	0.00e+00	0	43	0	315621376	63	4440
2026-01-27 02:50:46.77	20.34	17.67	-46.2	-47.6	19.6	0.00e+00	0	43	0	317718528	63	4384
2026-01-27 02:50:47.77	20.21	17.77	-46.2	-47.7	19.5	0.00e+00	0	43	0	318767104	63	4396
2026-01-27 02:50:48.78	20.07	17.87	-46.3	-47.8	19.4	0.00e+00	0	43	0	320864256	63	4448
2026-01-27 02:50:49.79	19.94	17.96	-46.4	-48.0	19.1	0.00e+00	0	43	0	322961408	64	4292
2026-01-27 02:50:50.79	19.80	18.06	-46.4	-47.9	19.2	0.00e+00	0	43	0	325058560	64	4281
2026-01-27 02:50:51.80	19.67	18.16	-46.2	-47.6	19.5	0.00e+00	0	43	0	327155712	64	4136
2026-01-27 02:50:52.81	19.53	18.26	-46.3	-47.7	19.4	0.00e+00	0	43	0	329252864	64	4193
2026-01-27 02:50:53.81	19.39	18.36	-46.3	-47.8	19.3	0.00e+00	0	43	0	330301440	64	4205
2026-01-27 02:50:54.82	19.25	18.46	-46.4	-47.9	19.2	0.00e+00	0	43	0	332398592	64	4267
2026-01-27 02:50:55.83	19.11	18.56	-46.4	-47.9	19.2	0.00e+00	0	43	0	334495744	64	4287
2026-01-27 02:50:56.83	18.97	18.66	-46.5	-48.0	19.2	0.00e+00	0	43	0	336592896	64	4308
2026-01-27 02:50:57.84	18.83	18.76	-46.5	-48.0	19.2	0.00e+00	0	43	0	337641472	64	4322
2026-01-27 02:50:58.85	18.68	18.86	-46.5	-48.1	19.1	0.00e+00	0	43	0	339738624	64	4342
2026-01-27 02:50:59.86	18.54	18.96	-46.6	-48.1	19.1	0.00e+00	0	43	0	341835776	64	4375
2026-01-27 02:51:00.87	18.39	19.06	-46.7	-48.3	18.9	0.00e+00	0	43	0	343932928	64	4448
2026-01-27 02:51:01.88	18.24	19.17	-46.7	-48.3	18.9	0.00e+00	0	43	0	346030080	64	4454
2026-01-27 02:51:02.89	18.10	19.27	-46.6	-48.2	19.0	0.00e+00	0	43	0	348127232	64	4413
2026-01-27 02:51:03.89	17.95	19.37	-46.7	-48.3	18.9	0.00e+00	0	43	0	349175808	64	4478
2026-01-27 02:51:04.90	17.80	19.47	-46.7	-48.3	18.9	0.00e+00	0	43	0	351272960	64	4459
2026-01-27 02:51:05.91	17.65	19.57	-46.5	-48.1	19.1	0.00e+00	0	43	0	353370112	64	4346
2026-01-27 02:51:06.92	17.50	19.67	-46.6	-48.2	19.1	0.00e+00	0	43	0	355467264	64	4395
2026-01-27 02:51:07.93	17.34	19.78	-46.6	-48.2	19.1	0.00e+00	0	43	0	357564416	64	4404
2026-01-27 02:51:08.93	17.19	19.88	-46.6	-48.2	19.0	0.00e+00	0	43	0	358612992	64	4395
2026-01-27 02:51:09.94	17.04	19.98	-46.4	-47.9	19.3	0.00e+00	0	43	0	360710144	64	4258
2026-01-27 02:51:10.94	16.88	20.09	-46.2	-47.6	19.5	0.00e+00	0	43	0	362807296	64	4143
2026-01-27 02:51:11.95	16.73	20.19	-46.2	-47.6	19.6	0.00e+00	0	43	0	364904448	64	4123
2026-01-27 02:51:12.96	16.57	20.29	-46.2	-47.6	19.5	0.00e+00	0	43	0	365953024	64	4142
2026-01-27 02:51:13.97	16.41	20.40	-46.1	-47.5	19.7	0.00e+00	0	43	0	368050176	64	4076
2026-01-27 02:51:14.98	16.25	20.50	-46.1	-47.5	19.7	0.00e+00	0	43	0	370147328	64	4084
2026-01-27 02:51:15.98	16.09	20.60	-46.0	-47.5	19.8	0.00e+00	0	43	0	372244480	64	4055
2026-01-27 02:51:16.99	15.92	20.71	-46.0	-47.4	19.8	0.00e+00	0	43	0	374341632	64	4045
2026-01-27 02:51:17.99	15.76	20.81	-46.0	-47.5	19.8	0.00e+00	0	43	0	376438784	64	4053
2026-01-27 02:51:19.00	15.60	20.92	-46.1	-47.5	19.8	0.00e+00	0	43	0	377487360	63	4301
2026-01-27 02:51:20.00	15.43	21.02	-46.1	-47.5	19.8	0.00e+00	0	43	0	379584512	63	4334
2026-01-27 02:51:21.01	15.27	21.13	-46.1	-47.4	19.9	0.00e+00	0	43	0	381681664	63	4289
2026-01-27 02:51:22.02	15.10	21.23	-46.1	-47.6	19.8	0.00e+00	0	43	0	383778816	63	4342
2026-01-27 02:51:23.02	14.93	21.34	-46.2	-47.6	19.7	0.00e+00	0	43	0	385875968	63	4376
2026-01-27 02:51:24.03	14.76	21.44	-46.1	-47.5	19.8	0.00e+00	0	43	0	386924544	63	4309
2026-01-27 02:51:25.03	14.59	21.55	-46.0	-47.4	19.9	0.00e+00	0	43	0	389021696	63	4260
2026-01-27 02:51:26.04	14.42	21.65	-46.1	-47.5	19.8	0.00e+00	0	43	0	391118848	63	4328
2026-01-27 02:51:27.05	14.24	21.76	-46.0	-47.4	20.0	0.00e+00	0	43	0	393216000	63	4254
2026-01-27 02:51:28.05	14.07	21.86	-45.9	-47.3	20.0	0.00e+00	0	43	0	394264576	63	4223
2026-01-27 02:51:29.06	13.89	21.97	-45.9	-47.3	20.0	0.00e+00	0	43	0	396361728	63	4221
2026-01-27 02:51:30.07	13.71	22.08	-45.9	-47.2	20.1	0.00e+00	0	43	0	398458880	63	4185
2026-01-27 02:51:31.08	13.53	22.18	-46.0	-47.3	20.0	0.00e+00	0	43	0	400556032	63	4233
2026-01-27 02:51:32.09	13.35	22.29	-46.0	-47.4	19.9	0.00e+00	0	43	0	402653184	63	4268
2026-01-27 02:51:33.10	13.17	22.40	-46.1	-47.4	19.9	0.00e+00	0	43	0	404750336	63	4291
2026-01-27 02:51:34.11	12.99	22.51	-46.0	-47.4	19.9	0.00e+00	0	43	0	405798912	63	4278
2026-01-27 02:51:35.11	12.81	22.61	-46.1	-47.4	19.9	0.00e+00	0	43	0	407896064	63	4290
2026-01-27 02:51:36.12	12.62	22.72	-46.0	-47.3	20.0	0.00e+00	0	43	0	409993216	63	4230
2026-01-27 02:51:37.12	12.44	22.83	-46.0	-47.4	20.0	0.00e+00	0	43	0	412090368	63	4257
2026-01-27 02:51:38.13	12.25	22.93	-46.1	-47.5	19.9	0.00e+00	0	43	0	414187520	63	4292
2026-01-27 02:51:39.14	12.06	23.04	-46.1	-47.5	19.9	0.00e+00	0	43	0	415236096	63	4315
2026-01-27 02:51:40.15	11.87	23.15	-46.3	-47.8	19.7	0.00e+00	0	43	0	417333248	63	4444
2026-01-27 02:51:41.15	11.68	23.26	-46.3	-47.7	19.7	0.00e+00	0	43	0	419430400	63	4417
2026-01-27 02:51:42.16	11.48	23.37	-46.5	-48.0	19.3	0.00e+00	0	43	0	421527552	63	4593
2026-01-27 02:51:43.17	11.29	23.47	-46.5	-48.0	19.4	0.00e+00	0	43	0	423624704	63	4573
2026-01-27 02:51:44.18	11.09	23.58	-46.6	-48.1	19.3	0.00e+00	0	43	0	424673280	63	4629
2026-01-27 02:51:45.18	10.90	23.69	-46.6	-48.1	19.2	0.00e+00	0	43	0	426770432	64	4381
2026-01-27 02:51:46.19	10.70	23.80	-46.7	-48.2	19.1	0.00e+00	0	43	0	428867584	64	4413
2026-01-27 02:51:47.20	10.50	23.91	-46.7	-48.2	19.0	0.00e+00	0	43	0	430964736	64	4439
2026-01-27 02:51:48.21	10.29	24.01	-46.8	-48.4	18.9	0.00e+00	0	43	0	433061888	64	4508
2026-01-27 02:51:49.22	10.09	24.12	-46.9	-48.5	18.9	0.00e+00	0	43	0	434110464	64	4550
2026-01-27 02:51:50.22	9.89	24.23	-46.8	-48.4	18.9	0.00e+00	0	43	0	436207616	64	4510
2026-01-27 02:51:51.23	9.68	24.34	-46.8	-48.4	18.9	0.00e+00	0	43	0	438304768	64	4523
2026-01-27 02:51:52.24	9.47	24.45	-46.9	-48.4	18.9	0.00e+00	0	43	0	440401920	64	4541
2026-01-27 02:51:53.24	9.27	24.56	-46.8	-48.4	18.9	0.00e+00	0	43	0	442499072	64	4525
2026-01-27 02:51:54.25	9.06	24.67	-46.9	-48.4	18.9	0.00e+00	0	43	0	443547648	64	4534
2026-01-27 02:51:55.26	8.85	24.77	-46.8	-48.3	19.0	0.00e+00	0	43	0	445644800	64	4466
2026-01-27 02:51:56.27	8.63	24.88	-46.8	-48.4	18.9	0.00e+00	0	43	0	447741952	64	4527
2026-01-27 02:51:57.28	8.42	24.99	-47.0	-48.6	18.8	0.00e+00	0	43	0	449839104	64	4612
2026-01-27 02:51:58.29	8.20	25.10	-46.8	-48.4	19.0	0.00e+00	0	43	0	451936256	64	4517
2026-01-27 02:51:59.29	7.98	25.21	-46.9	-48.5	18.9	0.00e+00	0	43	0	452984832	64	4577
2026-01-27 02:52:00.30	7.76	25.32	-47.0	-48.6	18.8	0.00e+00	0	43	0	455081984	64	4599
2026-01-27 02:52:01.30	7.55	25.43	-46.8	-48.4	18.9	0.00e+00	0	43	0	457179136	64	4531
2026-01-27 02:52:02.31	7.32	25.54	-46.8	-48.4	18.9	0.00e+00	0	43	0	459276288	64	4530
2026-01-27 02:52:03.31	7.10	25.64	-46.9	-48.5	18.9	0.00e+00	0	43	0	461373440	64	4578
2026-01-27 02:52:04.32	6.88	25.75	-46.9	-48.4	18.9	0.00e+00	0	43	0	462422016	64	4545
2026-01-27 02:52:05.33	6.65	25.86	-47.0	-48.6	18.8	0.00e+00	0	43	0	464519168	64	4611
2026-01-27 02:52:06.34	6.42	25.97	-47.0	-48.6	18.8	0.00e+00	0	43	0	466616320	64	4615
2026-01-27 02:52:07.34	6.19	26.08	-46.9	-48.6	18.8	0.00e+00	0	43	0	468713472	64	4604
2026-01-27 02:52:08.35	5.96	26.19	-46.9	-48.5	18.9	0.00e+00	0	43	0	470810624	64	4563
2026-01-27 02:52:09.36	5.72	26.29	-46.9	-48.5	18.9	0.00e+00	0	43	0	471859200	64	4593
2026-01-27 02:52:10.37	5.49	26.40	-46.7	-48.2	19.1	0.00e+00	0	43	0	473956352	64	4439
2026-01-27 02:52:11.38	5.25	26.51	-46.6	-48.1	19.3	0.00e+00	0	43	0	476053504	64	4351
2026-01-27 02:52:12.38	5.02	26.62	-46.8	-48.3	19.1	0.00e+00	0	43	0	478150656	64	4474
2026-01-27 02:52:13.39	4.78	26.73	-46.5	-48.0	19.4	0.00e+00	0	43	0	480247808	64	4315
2026-01-27 02:52:14.40	4.53	26.83	-46.6	-48.1	19.3	0.00e+00	0	43	0	481296384	64	4358
2026-01-27 02:52:15.40	4.29	26.94	-46.6	-48.1	19.3	0.00e+00	0	43	0	483393536	64	4350
2026-01-27 02:52:16.41	4.05	27.05	-46.7	-48.2	19.2	0.00e+00	0	43	0	485490688	64	4407
2026-01-27 02:52:17.42	3.80	27.16	-46.8	-48.3	19.1	0.00e+00	0	43	0	487587840	64	4471
2026-01-27 02:52:18.42	3.55	27.26	-46.8	-48.4	19.0	0.00e+00	0	43	0	489684992	64	4514
2026-01-27 02:52:19.43	3.30	27.37	-46.8	-48.4	19.0	0.00e+00	0	43	0	490733568	64	4521
2026-01-27 02:52:20.44	3.05	27.48	-46.8	-48.3	19.1	0.00e+00	0	43	0	492830720	64	4484
2026-01-27 02:52:21.45	2.80	27.58	-46.8	-48.3	19.1	0.00e+00	0	43	0	494927872	64	4476
2026-01-27 02:52:22.46	2.54	27.69	-46.8	-48.3	19.1	0.00e+00	0	43	0	497025024	64	4488
2026-01-27 02:52:23.47	2.29	27.79	-46.7	-48.3	19.1	0.00e+00	0	43	0	499122176	64	4458
2026-01-27 02:52:24.47	2.03	27.90	-46.7	-48.2	19.2	0.00e+00	0	43	0	501219328	64	4434
2026-01-27 02:52:25.48	1.77	28.01	-46.6	-48.1	19.3	0.00e+00	0	43	0	502267904	64	4378
2026-01-27 02:52:26.49	1.51	28.11	-46.7	-48.2	19.2	0.00e+00	0	43	0	504365056	64	4438
2026-01-27 02:52:27.49	1.25	28.21	-46.6	-48.1	19.3	0.00e+00	0	43	0	506462208	64	4383
2026-01-27 02:52:28.50	0.98	28.32	-46.7	-48.3	19.1	0.00e+00	0	43	0	508559360	64	4449
2026-01-27 02:52:29.51	0.71	28.42	-46.8	-48.4	19.1	0.00e+00	0	43	0	509607936	64	4494
2026-01-27 02:52:30.52	0.44	28.53	-46.8	-48.3	19.1	0.00e+00	0	43	0	511705088	64	4473
2026-01-27 02:52:31.53	0.17	28.63	-46.9	-48.5	18.9	0.00e+00	0	43	0	513802240	64	4565
2026-01-27 02:52:32.53	359.90	28.74	-47.1	-48.7	18.7	0.00e+00	0	43	0	515899392	64	4684
2026-01-27 02:52:33.54	359.63	28.84	-47.1	-48.8	18.7	0.00e+00	0	43	0	517996544	64	4734
2026-01-27 02:52:34.55	359.35	28.94	-47.2	-48.9	18.6	0.00e+00	0	43	0	519045120	64	4787
2026-01-27 02:52:35.55	359.07	29.04	-47.2	-48.8	18.6	0.00e+00	0	43	0	521142272	65	4486
2026-01-27 02:52:36.56	358.79	29.15	-47.3	-48.9	18.5	0.00e+00	0	43	0	523239424	65	4539
2026-01-27 02:52:37.57	358.51	29.25	-47.4	-49.1	18.3	0.00e+00	0	43	0	525336576	65	4647
2026-01-27 02:52:38.57	358.23	29.35	-47.8	-49.6	17.8	0.00e+00	0	43	0	527433728	66	4649
2026-01-27 02:52:39.58	357.95	29.45	-48.0	-49.9	17.6	0.00e+00	0	43	0	529530880	66	4791
2026-01-27 02:52:40.59	357.66	29.55	-48.2	-50.1	17.4	0.00e+00	0	43	0	530579456	66	4901
2026-01-27 02:52:41.60	357.37	29.65	-48.4	-50.5	17.1	0.00e+00	0	43	0	532676608	67	4823
2026-01-27 02:52:42.61	357.08	29.75	-48.6	-50.8	16.7	0.00e+00	0	43	0	534773760	67	4999
2026-01-27 02:52:43.61	356.79	29.85	-48.8	-50.9	16.7	0.00e+00	0	43	0	536870912	68	4803
2026-01-27 02:52:44.62	356.50	29.94	-48.8	-50.9	16.7	0.00e+00	0	43	0	537919488	68	4806
2026-01-27 02:52:45.63	356.20	30.04	-48.9	-51.1	16.5	0.00e+00	0	43	0	540016640	68	4920
2026-01-27 02:52:46.64	355.90	30.14	-49.0	-51.3	16.3	0.00e+00	0	43	0	542113792	68	5011
2026-01-27 02:52:47.64	355.60	30.24	-49.3	-51.8	15.8	0.00e+00	0	43	0	544210944	69	4998
2026-01-27 02:52:48.64	355.31	30.33	-49.2	-51.6	16.0	0.00e+00	0	43	0	546308096	69	4915
2026-01-27 02:52:49.65	355.00	30.43	-49.3	-51.7	16.0	0.00e+00	0	43	0	547356672	69	4928
2026-01-27 02:52:50.66	354.70	30.52	-49.3	-51.7	15.9	0.00e+00	0	43	0	549453824	69	4943
2026-01-27 02:52:51.66	354.39	30.62	-49.3	-51.6	16.1	0.00e+00	0	43	0	551550976	69	4912
2026-01-27 02:52:52.67	354.08	30.71	-49.3	-51.7	15.8	0.00e+00	0	43	0	553648128	69	4973
2026-01-27 02:52:53.68	353.77	30.80	-49.6	-52.1	15.6	0.00e+00	0	43	0	555745280	69	5206
2026-01-27 02:52:54.69	353.46	30.90	-49.9	-52.8	14.9	7.00e-07	0	43	0	557842432	70	5284
2026-01-27 02:52:55.69	353.15	30.99	-49.9	-52.6	15.0	0.00e+00	0	43	0	558891008	70	5192
2026-01-27 02:52:56.70	352.83	31.08	-49.8	-52.5	15.1	0.00e+00	0	43	0	560988160	70	5143
2026-01-27 02:52:57.71	352.52	31.17	-50.0	-52.8	14.9	0.00e+00	0	43	0	563085312	70	5297
2026-01-27 02:52:58.71	352.20	31.26	-50.1	-52.9	14.7	0.00e+00	0	43	0	565182464	70	5384
2026-01-27 02:52:59.72	351.88	31.35	-50.1	-53.0	14.7	7.00e-07	0	43	0	566231040	71	5122
2026-01-27 02:53:00.73	351.55	31.44	-50.1	-53.0	14.7	0.00e+00	0	43	0	568328192	71	5134
2026-01-27 02:53:01.74	351.23	31.52	-49.9	-52.7	15.0	0.00e+00	0	43	0	570425344	71	4934
2026-01-27 02:53:02.75	350.90	31.61	-49.4	-51.9	15.8	0.00e+00	0	43	0	572522496	70	4770
2026-01-27 02:53:03.75	350.58	31.69	-49.2	-51.5	16.2	0.00e+00	0	43	0	574619648	70	4561
2026-01-27 02:53:04.76	350.25	31.78	-48.9	-51.1	16.6	0.00e+00	0	43	0	575668224	69	4602
2026-01-27 02:53:05.77	349.91	31.86	-48.9	-51.1	16.6	0.00e+00	0	43	0	577765376	69	4625
2026-01-27 02:53:06.78	349.58	31.95	-48.9	-51.1	16.5	0.00e+00	0	43	0	579862528	69	4617
2026-01-27 02:53:07.79	349.24	32.03	-48.8	-51.0	16.7	0.00e+00	0	43	0	581959680	69	4554
2026-01-27 02:53:08.79	348.91	32.11	-48.8	-50.9	16.7	0.00e+00	0	43	0	584056832	69	4535
2026-01-27 02:53:09.80	348.57	32.19	-48.6	-50.7	17.0	0.00e+00	0	43	0	586153984	69	4395
2026-01-27 02:53:10.81	348.23	32.27	-48.4	-50.4	17.2	0.00e+00	0	43	0	587202560	68	4531
2026-01-27 02:53:11.81	347.89	32.35	-48.5	-50.5	17.2	0.00e+00	0	43	0	589299712	68	4564
2026-01-27 02:53:12.82	347.55	32.43	-48.6	-50.6	17.0	0.00e+00	0	43	0	591396864	68	4651
2026-01-27 02:53:13.83	347.20	32.51	-48.5	-50.5	17.1	0.00e+00	0	43	0	593494016	68	4597
2026-01-27 02:53:14.84	346.86	32.58	-48.4	-50.3	17.4	0.00e+00	0	43	0	594542592	68	4484
2026-01-27 02:53:15.85	346.51	32.66	-48.1	-49.9	17.7	0.00e+00	0	43	0	596639744	68	4287
2026-01-27 02:53:16.85	346.16	32.73	-48.0	-49.8	17.8	0.00e+00	0	43	0	598736896	68	4226
2026-01-27 02:53:17.86	345.81	32.80	-47.9	-49.7	17.8	0.00e+00	0	43	0	600834048	67	4413
2026-01-27 02:53:18.87	345.45	32.87	-48.0	-49.8	17.8	0.00e+00	0	43	0	602931200	67	4492
2026-01-27 02:53:19.88	345.10	32.94	-48.0	-49.8	17.8	0.00e+00	0	43	0	605028352	67	4482
2026-01-27 02:53:20.88	344.74	33.01	-47.8	-49.6	17.9	0.00e+00	0	43	0	606076928	67	4388
2026-01-27 02:53:21.88	344.39	33.08	-47.7	-49.5	18.1	0.00e+00	0	43	0	608174080	67	4303
2026-01-27 02:53:22.89	344.03	33.15	-47.7	-49.4	18.2	0.00e+00	0	43	0	610271232	67	4268
2026-01-27 02:53:23.89	343.67	33.21	-47.7	-49.4	18.2	0.00e+00	0	43	0	612368384	66	4515
2026-01-27 02:53:24.90	343.31	33.28	-47.6	-49.3	18.3	0.00e+00	0	43	0	614465536	66	4469
2026-01-27 02:53:25.91	342.95	33.34	-47.7	-49.5	18.1	0.00e+00	0	43	0	615514112	66	4562
2026-01-27 02:53:26.92	342.58	33.41	-47.6	-49.3	18.2	0.00e+00	0	43	0	617611264	66	4492
2026-01-27 02:53:27.93	342.21	33.47	-47.5	-49.2	18.4	0.00e+00	0	43	0	619708416	66	4397
2026-01-27 02:53:28.93	341.85	33.53	-47.4	-49.1	18.5	0.00e+00	0	43	0	621805568	66	4367
2026-01-27 02:53:29.94	341.48	33.59	-47.2	-48.8	18.8	0.00e+00	0	43	0	622854144	66	4217
2026-01-27 02:53:30.95	341.11	33.65	-47.2	-48.8	18.8	0.00e+00	0	43	0	624951296	66	4239
2026-01-27 02:53:31.94	340.74	33.70	-47.1	-48.6	18.9	0.00e+00	0	43	0	627048448	66	4141
2026-01-27 02:53:32.95	340.37	33.76	-47.0	-48.6	19.0	0.00e+00	0	43	0	629145600	66	4115
2026-01-27 02:53:33.96	339.99	33.81	-46.9	-48.4	19.2	0.00e+00	0	43	0	631242752	65	4270
2026-01-27 02:53:34.97	339.62	33.86	-46.8	-48.3	19.3	0.00e+00	0	43	0	633339904	65	4210
2026-01-27 02:53:35.98	339.24	33.91	-47.0	-48.6	19.0	0.00e+00	0	43	0	634388480	65	4376
2026-01-27 02:53:36.99	338.86	33.96	-47.0	-48.5	19.1	0.00e+00	0	43	0	636485632	65	4330
2026-01-27 02:53:38.00	338.48	34.01	-47.0	-48.6	19.0	0.00e+00	0	43	0	638582784	65	4357
2026-01-27 02:53:39.01	338.10	34.06	-46.9	-48.4	19.2	0.00e+00	0	43	0	640679936	65	4265
2026-01-27 02:53:40.01	337.72	34.11	-46.7	-48.2	19.4	0.00e+00	0	43	0	642777088	65	4184
2026-01-27 02:53:41.01	337.34	34.15	-46.4	-47.8	19.8	0.00e+00	0	43	0	643825664	64	4206
2026-01-27 02:53:42.02	336.96	34.19	-46.0	-47.3	20.2	0.00e+00	0	43	0	645922816	64	3988
2026-01-27 02:53:43.03	336.57	34.24	-46.1	-47.4	20.3	0.00e+00	0	43	0	648019968	63	4265
2026-01-27 02:53:44.04	336.19	34.28	-46.0	-47.4	20.3	0.00e+00	0	43	0	650117120	63	4251
2026-01-27 02:53:45.04	335.80	34.31	-45.9	-47.3	20.4	0.00e+00	0	43	0	651165696	63	4194
2026-01-27 02:53:46.05	335.41	34.35	-45.9	-47.2	20.5	0.00e+00	0	43	0	653262848	63	4168
2026-01-27 02:53:47.06	335.02	34.39	-45.8	-47.1	20.5	0.00e+00	0	43	0	655360000	63	4134
2026-01-27 02:53:48.07	334.63	34.42	-45.9	-47.2	20.4	0.00e+00	0	43	0	657457152	63	4174
2026-01-27 02:53:49.07	334.25	34.46	-45.9	-47.2	20.4	0.00e+00	0	43	0	659554304	63	4163
2026-01-27 02:53:50.08	333.86	34.49	-45.8	-47.1	20.5	0.00e+00	0	43	0	661651456	63	4133
2026-01-27 02:53:51.09	333.46	34.52	-46.2	-47.6	20.1	0.00e+00	0	43	0	662700032	63	4359
2026-01-27 02:53:52.09	333.08	34.55	-46.3	-47.7	20.0	0.00e+00	0	43	0	664797184	63	4400
2026-01-27 02:53:53.10	332.68	34.57	-46.2	-47.5	20.1	0.00e+00	0	43	0	666894336	63	4339
2026-01-27 02:53:54.11	332.29	34.60	-46.0	-47.3	20.3	0.00e+00	0	43	0	668991488	63	4218
2026-01-27 02:53:55.11	331.90	34.62	-45.9	-47.2	20.5	0.00e+00	0	43	0	671088640	63	4191
2026-01-27 02:53:56.12	331.50	34.64	-45.9	-47.2	20.4	0.00e+00	0	43	0	672137216	63	4174
2026-01-27 02:53:57.13	331.11	34.67	-46.1	-47.4	20.2	0.00e+00	0	43	0	674234368	63	4286
2026-01-27 02:53:58.14	330.71	34.69	-46.3	-47.7	20.0	0.00e+00	0	43	0	676331520	63	4405
2026-01-27 02:53:59.15	330.31	34.70	-46.3	-47.6	20.0	0.00e+00	0	43	0	678428672	63	4383
2026-01-27 02:54:00.15	329.92	34.72	-46.2	-47.5	20.1	0.00e+00	0	43	0	679477248	63	4325
2026-01-27 02:54:01.16	329.52	34.73	-46.0	-47.4	20.3	0.00e+00	0	43	0	681574400	63	4259
2026-01-27 02:54:02.17	329.12	34.75	-46.1	-47.5	20.2	0.00e+00	0	43	0	683671552	63	4295
2026-01-27 02:54:03.17	328.73	34.76	-46.3	-47.6	20.0	0.00e+00	0	43	0	685768704	63	4378
2026-01-27 02:54:04.18	328.33	34.77	-46.5	-47.9	19.8	0.00e+00	0	43	0	687865856	63	4500
2026-01-27 02:54:05.19	327.93	34.78	-46.6	-48.0	19.7	0.00e+00	0	43	0	689963008	63	4579
2026-01-27 02:54:06.20	327.53	34.78	-46.5	-47.9	19.8	0.00e+00	0	43	0	691011584	63	4513
2026-01-27 02:54:07.21	327.13	34.79	-46.5	-47.9	19.8	0.00e+00	0	43	0	693108736	63	4518
2026-01-27 02:54:08.21	326.74	34.79	-46.4	-47.8	19.9	0.00e+00	0	43	0	695205888	63	4463
2026-01-27 02:54:09.22	326.34	34.80	-46.5	-47.9	19.9	0.00e+00	0	43	0	697303040	63	4501
2026-01-27 02:54:10.23	325.94	34.80	-46.5	-47.9	19.8	0.00e+00	0	43	0	699400192	63	4527
2026-01-27 02:54:11.24	325.54	34.80	-46.6	-48.0	19.7	0.00e+00	0	43	0	700448768	63	4570
2026-01-27 02:54:12.24	325.14	34.79	-46.5	-47.8	19.9	0.00e+00	0	43	0	702545920	63	4493
2026-01-27 02:54:13.25	324.74	34.79	-46.4	-47.8	19.8	0.00e+00	0	43	0	704643072	63	4458
2026-01-27 02:54:14.25	324.35	34.78	-46.3	-47.7	20.0	0.00e+00	0	43	0	706740224	63	4392
2026-01-27 02:54:15.26	323.95	34.78	-46.2	-47.5	20.1	0.00e+00	0	43	0	707788800	63	4334
2026-01-27 02:54:16.27	323.55	34.77	-46.1	-47.5	20.2	0.00e+00	0	43	0	709885952	63	4293
2026-01-27 02:54:17.28	323.15	34.76	-46.0	-47.3	20.3	0.00e+00	0	43	0	711983104	63	4224
2026-01-27 02:54:18.29	322.75	34.74	-46.3	-47.6	20.1	0.00e+00	0	43	0	714080256	63	4374
2026-01-27 02:54:19.29	322.36	34.73	-46.7	-48.1	19.6	0.00e+00	0	43	0	716177408	63	4646
2026-01-27 02:54:20.30	321.96	34.72	-47.0	-48.5	19.1	0.00e+00	0	43	0	718274560	64	4578
2026-01-27 02:54:21.31	321.56	34.70	-47.3	-48.9	18.7	0.00e+00	0	43	0	719323136	65	4520
2026-01-27 02:54:22.31	321.17	34.68	-47.3	-48.9	18.7	0.00e+00	0	43	0	721420288	65	4512
2026-01-27 02:54:23.32	320.78	34.66	-47.2	-48.8	18.8	0.00e+00	0	43	0	723517440	65	4480
2026-01-27 02:54:24.33	320.38	34.64	-47.0	-48.5	19.1	0.00e+00	0	43	0	725614592	65	4318
2026-01-27 02:54:25.33	319.99	34.62	-46.9	-48.4	19.3	0.00e+00	0	43	0	727711744	65	4257
2026-01-27 02:54:26.34	319.59	34.59	-46.9	-48.4	19.1	0.00e+00	0	43	0	728760320	65	4290
2026-01-27 02:54:27.35	319.20	34.57	-47.0	-48.6	19.1	0.00e+00	0	43	0	730857472	65	4347
2026-01-27 02:54:28.35	318.81	34.54	-47.3	-48.9	18.7	0.00e+00	0	43	0	732954624	65	4511
2026-01-27 02:54:29.36	318.42	34.51	-47.3	-49.0	18.7	0.00e+00	0	43	0	735051776	65	4569
2026-01-27 02:54:30.37	318.02	34.48	-47.4	-49.0	18.6	0.00e+00	0	43	0	736100352	65	4598
2026-01-27 02:54:31.38	317.63	34.45	-47.7	-49.4	18.2	0.00e+00	0	43	0	738197504	66	4542
2026-01-27 02:54:32.39	317.24	34.42	-47.9	-49.7	18.0	0.00e+00	0	43	0	740294656	66	4654
2026-01-27 02:54:33.39	316.86	34.38	-48.1	-50.0	17.7	0.00e+00	0	43	0	742391808	66	4861
2026-01-27 02:54:34.40	316.47	34.34	-48.1	-50.0	17.6	0.00e+00	0	43	0	744488960	66	4863
2026-01-27 02:54:35.41	316.08	34.31	-48.1	-50.0	17.7	0.00e+00	0	43	0	746586112	67	4573
2026-01-27 02:54:36.42	315.69	34.27	-48.0	-49.8	17.8	0.00e+00	0	43	0	747634688	67	4486
2026-01-27 02:54:37.43	315.31	34.23	-47.7	-49.4	18.2	0.00e+00	0	43	0	749731840	67	4264
2026-01-27 02:54:38.43	314.92	34.18	-47.5	-49.1	18.5	0.00e+00	0	43	0	751828992	66	4381
2026-01-27 02:54:39.44	314.54	34.14	-47.6	-49.3	18.4	0.00e+00	0	43	0	753926144	66	4452
2026-01-27 02:54:40.45	314.16	34.10	-47.8	-49.5	18.1	0.00e+00	0	43	0	756023296	66	4597
2026-01-27 02:54:41.46	313.77	34.05	-48.0	-49.9	17.8	0.00e+00	0	43	0	757071872	66	4783
2026-01-27 02:54:42.47	313.39	34.00	-48.2	-50.1	17.6	0.00e+00	0	43	0	759169024	67	4633
2026-01-27 02:54:43.47	313.02	33.95	-48.3	-50.2	17.4	0.00e+00	0	43	0	761266176	67	4694
2026-01-27 02:54:44.48	312.64	33.90	-48.1	-50.0	17.6	0.00e+00	0	43	0	763363328	67	4593
2026-01-27 02:54:45.49	312.26	33.85	-48.1	-49.9	17.8	0.00e+00	0	43	0	765460480	67	4536
2026-01-27 02:54:46.49	311.89	33.80	-48.0	-49.9	17.8	0.00e+00	0	43	0	766509056	67	4503
2026-01-27 02:54:47.50	311.51	33.74	-48.0	-49.8	17.8	0.00e+00	0	43	0	768606208	67	4487
2026-01-27 02:54:48.51	311.14	33.69	-47.9	-49.7	17.9	0.00e+00	0	43	0	770703360	67	4430
2026-01-27 02:54:49.52	310.77	33.63	-47.8	-49.5	18.1	0.00e+00	0	43	0	772800512	67	4340
2026-01-27 02:54:50.52	310.40	33.57	-47.7	-49.5	18.2	0.00e+00	0	43	0	774897664	67	4292
2026-01-27 02:54:51.53	310.03	33.52	-47.9	-49.6	18.1	0.00e+00	0	43	0	775946240	67	4385
2026-01-27 02:54:52.54	309.66	33.45	-48.0	-49.8	17.9	0.00e+00	0	43	0	778043392	67	4464
2026-01-27 02:54:53.55	309.29	33.39	-48.1	-49.9	17.8	0.00e+00	0	43	0	780140544	67	4518
2026-01-27 02:54:54.55	308.93	33.33	-48.1	-49.9	17.8	0.00e+00	0	43	0	782237696	67	4521
2026-01-27 02:54:55.56	308.57	33.27	-47.9	-49.6	18.1	0.00e+00	0	43	0	784334848	67	4386
2026-01-27 02:54:56.57	308.20	33.20	-47.7	-49.5	18.2	0.00e+00	0	43	0	785383424	67	4298
2026-01-27 02:54:57.57	307.85	33.13	-47.8	-49.5	18.2	0.00e+00	0	43	0	787480576	67	4327
2026-01-27 02:54:58.58	307.49	33.07	-47.6	-49.2	18.4	0.00e+00	0	43	0	789577728	67	4189
2026-01-27 02:54:59.59	307.13	33.00	-47.6	-49.2	18.4	0.00e+00	0	43	0	791674880	67	4187
2026-01-27 02:55:00.60	306.77	32.93	-47.6	-49.3	18.4	0.00e+00	0	43	0	793772032	67	4209
2026-01-27 02:55:01.61	306.42	32.86	-47.7	-49.3	18.3	0.00e+00	0	43	0	794820608	67	4242
2026-01-27 02:55:02.61	306.07	32.79	-47.7	-49.4	18.4	0.00e+00	0	43	0	796917760	67	4243
2026-01-27 02:55:03.62	305.71	32.71	-47.6	-49.3	18.4	0.00e+00	0	43	0	799014912	67	4237
2026-01-27 02:55:04.63	305.36	32.64	-47.4	-49.0	18.6	0.00e+00	0	43	0	801112064	66	4319
2026-01-27 02:55:05.64	305.01	32.56	-47.5	-49.1	18.6	0.00e+00	0	43	0	803209216	66	4367
2026-01-27 02:55:06.65	304.67	32.49	-47.6	-49.3	18.4	0.00e+00	0	43	0	804257792	66	4477
2026-01-27 02:55:07.66	304.32	32.41	-47.8	-49.6	18.1	0.00e+00	0	43	0	806354944	66	4630
2026-01-27 02:55:08.67	303.98	32.33	-47.9	-49.8	18.0	0.00e+00	0	43	0	808452096	66	4715
2026-01-27 02:55:09.67	303.64	32.25	-48.2	-50.1	17.6	0.00e+00	0	43	0	810549248	66	4901
2026-01-27 02:55:10.68	303.30	32.17	-48.4	-50.4	17.3	0.00e+00	0	43	0	812646400	67	4787
2026-01-27 02:55:11.69	302.96	32.09	-48.3	-50.3	17.4	0.00e+00	0	43	0	813694976	67	4737
2026-01-27 02:55:12.70	302.62	32.01	-48.4	-50.4	17.3	0.00e+00	0	43	0	815792128	67	4772
2026-01-27 02:55:13.70	302.29	31.93	-48.3	-50.2	17.5	0.00e+00	0	43	0	817889280	67	4672
2026-01-27 02:55:14.71	301.95	31.84	-48.2	-50.1	17.7	0.00e+00	0	43	0	819986432	67	4610
2026-01-27 02:55:15.72	301.62	31.76	-48.1	-50.0	17.7	0.00e+00	0	43	0	822083584	67	4580
2026-01-27 02:55:16.73	301.29	31.67	-48.2	-50.0	17.7	0.00e+00	0	43	0	823132160	67	4597
2026-01-27 02:55:17.73	300.97	31.59	-48.3	-50.2	17.5	0.00e+00	0	43	0	825229312	67	4671
2026-01-27 02:55:18.74	300.64	31.50	-48.4	-50.5	17.3	0.00e+00	0	43	0	827326464	67	4816
2026-01-27 02:55:19.75	300.31	31.41	-48.3	-50.2	17.5	0.00e+00	0	43	0	829423616	67	4679
2026-01-27 02:55:20.76	299.99	31.32	-48.3	-50.3	17.4	0.00e+00	0	43	0	831520768	67	4734
2026-01-27 02:55:21.77	299.67	31.23	-48.3	-50.2	17.5	0.00e+00	0	43	0	832569344	67	4677
2026-01-27 02:55:22.78	299.35	31.14	-48.3	-50.2	17.5	0.00e+00	0	43	0	834666496	67	4671
2026-01-27 02:55:23.79	299.03	31.05	-48.2	-50.1	17.6	0.00e+00	0	43	0	836763648	67	4650
2026-01-27 02:55:24.79	298.72	30.96	-48.1	-50.0	17.7	0.00e+00	0	43	0	838860800	67	4570
2026-01-27 02:55:25.80	298.40	30.87	-48.0	-49.8	17.9	0.00e+00	0	43	0	840957952	67	4484
2026-01-27 02:55:26.81	298.09	30.78	-48.2	-50.1	17.6	0.00e+00	0	43	0	842006528	67	4601
2026-01-27 02:55:27.82	297.78	30.68	-48.3	-50.2	17.5	0.00e+00	0	43	0	844103680	67	4674
2026-01-27 02:55:28.82	297.47	30.59	-48.5	-50.5	17.2	0.00e+00	0	43	0	846200832	67	4837
2026-01-27 02:55:29.83	297.17	30.50	-48.4	-50.4	17.3	0.00e+00	0	43	0	848297984	67	4787
2026-01-27 02:55:30.83	296.87	30.40	-48.3	-50.2	17.6	0.00e+00	0	43	0	850395136	67	4663
2026-01-27 02:55:31.83	296.56	30.31	-48.0	-49.9	17.8	0.00e+00	0	43	0	851443712	67	4503
2026-01-27 02:55:32.84	296.26	30.21	-47.9	-49.7	18.0	0.00e+00	0	43	0	853540864	67	4413
2026-01-27 02:55:33.85	295.96	30.11	-48.0	-49.8	17.9	0.00e+00	0	43	0	855638016	67	4465
2026-01-27 02:55:34.86	295.67	30.01	-47.7	-49.4	18.2	0.00e+00	0	43	0	857735168	67	4286
2026-01-27 02:55:35.87	295.37	29.92	-47.7	-49.4	18.3	0.00e+00	0	43	0	859832320	67	4256
2026-01-27 02:55:36.87	295.08	29.82	-47.8	-49.5	18.2	0.00e+00	0	43	0	861929472	67	4340
2026-01-27 02:55:37.88	294.78	29.72	-47.8	-49.6	18.1	0.00e+00	0	43	0	862978048	67	4363
2026-01-27 02:55:38.89	294.49	29.62	-47.8	-49.6	18.1	0.00e+00	0	43	0	865075200	67	4379
2026-01-27 02:55:39.89	294.21	29.52	-47.7	-49.5	18.2	0.00e+00	0	43	0	867172352	67	4294
2026-01-27 02:55:40.90	293.92	29.42	-47.7	-49.5	18.3	0.00e+00	0	43	0	869269504	67	4310
2026-01-27 02:55:41.91	293.63	29.32	-47.5	-49.2	18.5	0.00e+00	0	43	0	870318080	67	4166
2026-01-27 02:55:42.92	293.35	29.22	-47.5	-49.2	18.4	0.00e+00	0	43	0	872415232	66	4431
2026-01-27 02:55:43.93	293.07	29.11	-47.6	-49.2	18.4	0.00e+00	0	43	0	874512384	66	4438
2026-01-27 02:55:44.93	292.79	29.01	-47.8	-49.5	18.1	0.00e+00	0	43	0	876609536	66	4594
2026-01-27 02:55:45.94	292.51	28.91	-47.8	-49.6	18.1	0.00e+00	0	43	0	878706688	66	4646
2026-01-27 02:55:46.95	292.24	28.81	-47.8	-49.6	18.1	0.00e+00	0	43	0	879755264	66	4650
2026-01-27 02:55:47.96	291.96	28.70	-47.8	-49.5	18.1	0.00e+00	0	43	0	881852416	66	4596
2026-01-27 02:55:48.96	291.69	28.60	-47.7	-49.5	18.2	0.00e+00	0	43	0	883949568	66	4549
2026-01-27 02:55:49.97	291.42	28.50	-47.3	-48.9	18.7	0.00e+00	0	43	0	886046720	66	4271
2026-01-27 02:55:50.98	291.15	28.39	-47.0	-48.6	19.1	0.00e+00	0	43	0	888143872	66	4116
2026-01-27 02:55:51.99	290.88	28.29	-46.9	-48.5	19.2	0.00e+00	0	43	0	890241024	65	4292
2026-01-27 02:55:52.99	290.62	28.18	-47.0	-48.5	19.1	0.00e+00	0	43	0	891289600	65	4307
2026-01-27 02:55:53.99	290.36	28.08	-47.0	-48.5	19.1	0.00e+00	0	43	0	893386752	65	4313
2026-01-27 02:55:55.00	290.10	27.97	-47.0	-48.5	19.1	0.00e+00	0	43	0	895483904	65	4329
2026-01-27 02:55:56.01	289.84	27.87	-46.9	-48.4	19.2	0.00e+00	0	43	0	897581056	65	4276
2026-01-27 02:55:57.02	289.58	27.76	-46.8	-48.3	19.3	0.00e+00	0	43	0	898629632	65	4222
2026-01-27 02:55:58.03	289.32	27.65	-46.7	-48.2	19.4	0.00e+00	0	43	0	900726784	65	4173
2026-01-27 02:55:59.03	289.07	27.55	-46.6	-48.1	19.5	0.00e+00	0	43	0	902823936	65	4119
2026-01-27 02:56:00.04	288.81	27.44	-46.5	-48.0	19.7	0.00e+00	0	43	0	904921088	65	4057
2026-01-27 02:56:01.05	288.56	27.33	-46.1	-47.5	20.1	0.00e+00	0	43	0	907018240	64	4069
2026-01-27 02:56:02.06	288.31	27.23	-46.1	-47.4	20.2	0.00e+00	0	43	0	908066816	64	4026
2026-01-27 02:56:03.06	288.06	27.12	-46.1	-47.4	20.2	0.00e+00	0	43	0	910163968	64	4039
2026-01-27 02:56:04.07	287.82	27.01	-46.1	-47.4	20.3	0.00e+00	0	43	0	912261120	63	4268
2026-01-27 02:56:05.08	287.57	26.90	-46.1	-47.5	20.2	0.00e+00	0	43	0	914358272	63	4297
2026-01-27 02:56:06.09	287.33	26.80	-46.0	-47.3	20.4	0.00e+00	0	43	0	916455424	63	4208
2026-01-27 02:56:07.09	287.09	26.69	-45.9	-47.2	20.5	0.00e+00	0	43	0	918552576	63	4165
2026-01-27 02:56:08.10	286.85	26.58	-45.9	-47.2	20.4	0.00e+00	0	43	0	919601152	63	4173
2026-01-27 02:56:09.11	286.61	26.47	-45.7	-47.0	20.7	0.00e+00	0	43	0	921698304	63	4077
2026-01-27 02:56:10.12	286.37	26.36	-45.2	-46.4	21.2	0.00e+00	0	43	0	923795456	62	4030
2026-01-27 02:56:11.12	286.14	26.26	-45.1	-46.3	21.3	0.00e+00	0	43	0	925892608	62	3979
2026-01-27 02:56:12.12	285.91	26.15	-45.0	-46.1	21.5	0.00e+00	0	43	0	927989760	61	4122
2026-01-27 02:56:13.13	285.68	26.04	-45.0	-46.1	21.4	0.00e+00	0	43	0	929038336	61	4132
2026-01-27 02:56:14.14	285.45	25.93	-44.9	-46.1	21.5	0.00e+00	0	43	0	931135488	61	4124
2026-01-27 02:56:15.15	285.22	25.82	-45.0	-46.2	21.4	0.00e+00	0	43	0	933232640	61	4156
2026-01-27 02:56:16.16	284.99	25.71	-44.9	-46.0	21.5	0.00e+00	0	43	0	935329792	61	4089
2026-01-27 02:56:17.16	284.77	25.61	-44.8	-46.0	21.6	0.00e+00	0	43	0	936378368	61	4061
2026-01-27 02:56:18.16	284.54	25.50	-44.6	-45.7	21.8	0.00e+00	0	43	0	938475520	61	3938
2026-01-27 02:56:19.17	284.32	25.39	-44.8	-45.9	21.7	0.00e+00	0	43	0	940572672	61	4017
2026-01-27 02:56:20.18	284.10	25.28	-44.4	-45.4	22.0	0.00e+00	0	43	0	942669824	60	4050
2026-01-27 02:56:21.19	283.88	25.17	-44.3	-45.4	22.1	0.00e+00	0	43	0	944766976	60	4010
2026-01-27 02:56:22.20	283.66	25.06	-44.4	-45.4	22.0	0.00e+00	0	43	0	946864128	60	4049
2026-01-27 02:56:23.21	283.44	24.95	-44.4	-45.4	22.0	0.00e+00	0	43	0	947912704	60	4051
2026-01-27 02:56:24.21	283.23	24.84	-44.5	-45.5	21.9	0.00e+00	0	43	0	950009856	60	4098
2026-01-27 02:56:25.22	283.02	24.73	-44.3	-45.4	22.1	0.00e+00	0	43	0	952107008	60	4010
2026-01-27 02:56:26.23	282.81	24.63	-44.3	-45.4	22.1	0.00e+00	0	43	0	954204160	60	4009
2026-01-27 02:56:27.24	282.59	24.52	-44.4	-45.4	22.0	0.00e+00	0	43	0	956301312	60	4046
2026-01-27 02:56:28.25	282.39	24.41	-44.4	-45.5	22.0	0.00e+00	0	43	0	957349888	60	4067
2026-01-27 02:56:29.25	282.18	24.30	-44.4	-45.4	22.0	0.00e+00	0	43	0	959447040	60	4047
2026-01-27 02:56:30.26	281.97	24.19	-44.5	-45.6	21.8	0.00e+00	0	43	0	961544192	60	4142
2026-01-27 02:56:31.27	281.77	24.08	-44.4	-45.5	22.0	0.00e+00	0	43	0	963641344	60	4066
2026-01-27 02:56:32.28	281.57	23.97	-44.4	-45.5	21.9	0.00e+00	0	43	0	965738496	60	4076
2026-01-27 02:56:33.28	281.37	23.86	-44.4	-45.5	22.0	0.00e+00	0	43	0	966787072	60	4066
2026-01-27 02:56:34.29	281.16	23.76	-44.4	-45.5	21.9	0.00e+00	0	43	0	968884224	60	4092
2026-01-27 02:56:35.29	280.97	23.65	-44.5	-45.6	21.9	0.00e+00	0	43	0	970981376	60	4111
2026-01-27 02:56:36.30	280.77	23.54	-44.5	-45.6	21.9	0.00e+00	0	43	0	973078528	60	4110
2026-01-27 02:56:37.31	280.57	23.43	-44.6	-45.7	21.8	0.00e+00	0	43	0	975175680	60	4155
2026-01-27 02:56:38.32	280.38	23.32	-44.5	-45.6	21.8	0.00e+00	0	43	0	976224256	60	4128
2026-01-27 02:56:39.32	280.19	23.21	-44.6	-45.8	21.7	0.00e+00	0	43	0	978321408	60	4195
2026-01-27 02:56:40.34	279.99	23.11	-44.7	-45.9	21.6	0.00e+00	0	43	0	980418560	60	4249
2026-01-27 02:56:41.34	279.80	23.00	-44.8	-45.9	21.5	0.00e+00	0	43	0	982515712	60	4265
2026-01-27 02:56:42.35	279.61	22.89	-44.8	-46.0	21.4	0.00e+00	0	43	0	984612864	60	4314
2026-01-27 02:56:43.35	279.43	22.78	-45.0	-46.2	21.3	0.00e+00	0	43	0	985661440	60	4403
2026-01-27 02:56:44.35	279.24	22.68	-45.0	-46.2	21.3	0.00e+00	0	43	0	987758592	60	4400
2026-01-27 02:56:45.36	279.06	22.57	-45.1	-46.3	21.1	0.00e+00	0	43	0	989855744	60	4490
2026-01-27 02:56:46.37	278.87	22.46	-45.0	-46.2	21.2	0.00e+00	0	43	0	991952896	60	4406
2026-01-27 02:56:47.37	278.69	22.35	-45.1	-46.3	21.1	0.00e+00	0	43	0	994050048	60	4493
2026-01-27 02:56:48.38	278.51	22.25	-45.1	-46.3	21.1	0.00e+00	0	43	0	995098624	60	4479
2026-01-27 02:56:49.39	278.33	22.14	-45.2	-46.4	21.1	0.00e+00	0	43	0	997195776	60	4507
2026-01-27 02:56:50.40	278.15	22.03	-45.2	-46.4	21.1	0.00e+00	0	43	0	999292928	60	4500
2026-01-27 02:56:51.40	277.97	21.93	-45.2	-46.4	21.1	0.00e+00	0	43	0	1001390080	60	4523
2026-01-27 02:56:52.41	277.79	21.82	-45.2	-46.4	21.0	0.00e+00	0	43	0	1003487232	60	4536
2026-01-27 02:56:53.42	277.62	21.71	-45.3	-46.5	20.9	0.00e+00	0	43	0	1004535808	61	4324
2026-01-27 02:56:54.43	277.44	21.61	-45.3	-46.5	21.0	0.00e+00	0	43	0	1006632960	61	4316
2026-01-27 02:56:55.44	277.27	21.50	-45.1	-46.3	21.1	0.00e+00	0	43	0	1008730112	61	4227
2026-01-27 02:56:56.44	277.10	21.40	-45.1	-46.3	21.1	0.00e+00	0	43	0	1010827264	61	4210
2026-01-27 02:56:57.44	276.93	21.29	-45.2	-46.4	21.0	0.00e+00	0	43	0	1012924416	61	4250
2026-01-27 02:56:58.45	276.76	21.19	-45.2	-46.4	21.0	0.00e+00	0	43	0	1013972992	61	4245
2026-01-27 02:56:59.46	276.59	21.08	-45.3	-46.5	20.9	0.00e+00	0	43	0	1016070144	61	4314
2026-01-27 02:57:00.47	276.43	20.97	-45.3	-46.6	20.8	0.00e+00	0	43	0	1018167296	61	4358
2026-01-27 02:57:01.47	276.26	20.87	-45.4	-46.6	20.8	0.00e+00	0	43	0	1020264448	61	4365
2026-01-27 02:57:02.48	276.10	20.77	-45.3	-46.6	20.8	0.00e+00	0	43	0	1022361600	61	4354
2026-01-27 02:57:03.49	275.93	20.66	-45.4	-46.6	20.7	0.00e+00	0	43	0	1023410176	61	4390
2026-01-27 02:57:04.50	275.77	20.56	-45.4	-46.7	20.7	0.00e+00	0	43	0	1025507328	61	4408
2026-01-27 02:57:05.50	275.61	20.45	-45.5	-46.7	20.6	0.00e+00	0	43	0	1027604480	61	4441
2026-01-27 02:57:06.51	275.45	20.35	-45.3	-46.6	20.8	0.00e+00	0	43	0	1029701632	61	4355
2026-01-27 02:57:07.52	275.29	20.24	-45.5	-46.8	20.6	0.00e+00	0	43	0	1031798784	61	4454
2026-01-27 02:57:08.53	275.13	20.14	-45.5	-46.8	20.6	0.00e+00	0	43	0	1032847360	61	4471
2026-01-27 02:57:09.53	274.98	20.04	-45.6	-46.9	20.4	0.00e+00	0	43	0	1034944512	61	4542
2026-01-27 02:57:10.54	274.82	19.93	-45.8	-47.1	20.3	0.00e+00	0	43	0	1037041664	62	4354
2026-01-27 02:57:11.55	274.66	19.83	-45.8	-47.1	20.2	0.00e+00	0	43	0	1039138816	62	4381
2026-01-27 02:57:12.55	274.51	19.73	-45.9	-47.2	20.1	0.00e+00	0	43	0	1041235968	62	4440
2026-01-27 02:57:13.56	274.36	19.63	-45.9	-47.3	20.1	0.00e+00	0	43	0	1042284544	62	4467
2026-01-27 02:57:14.57	274.21	19.52	-46.1	-47.5	19.9	0.00e+00	0	43	0	1044381696	62	4566
2026-01-27 02:57:15.57	274.06	19.42	-46.1	-47.5	19.9	0.00e+00	0	43	0	1046478848	62	4568
2026-01-27 02:57:16.58	273.91	19.32	-46.1	-47.5	19.9	0.00e+00	0	43	0	1048576000	62	4585
2026-01-27 02:57:17.59	273.76	19.22	-46.1	-47.5	19.8	0.00e+00	0	43	0	1050673152	62	4595
2026-01-27 02:57:18.60	273.61	19.12	-46.2	-47.6	19.7	0.00e+00	0	43	0	1051721728	62	4632
2026-01-27 02:57:19.61	273.46	19.01	-46.1	-47.5	19.9	0.00e+00	0	43	0	1053818880	63	4323
2026-01-27 02:57:20.61	273.32	18.91	-46.2	-47.6	19.8	0.00e+00	0	43	0	1055916032	63	4369
2026-01-27 02:57:21.62	273.17	18.81	-46.2	-47.6	19.8	0.00e+00	0	43	0	1058013184	63	4363
2026-01-27 02:57:22.63	273.03	18.71	-46.3	-47.7	19.6	0.00e+00	0	43	0	1060110336	63	4429
2026-01-27 02:57:23.64	272.89	18.61	-46.5	-47.9	19.4	0.00e+00	0	43	0	1061158912	63	4544
2026-01-27 02:57:24.65	272.74	18.51	-46.6	-48.1	19.3	0.00e+00	0	43	0	1063256064	63	4612
2026-01-27 02:57:25.66	272.60	18.41	-46.6	-48.1	19.2	0.00e+00	0	43	0	1065353216	63	4629
2026-01-27 02:57:26.66	272.46	18.31	-46.6	-48.1	19.2	0.00e+00	0	43	0	1067450368	63	4648
2026-01-27 02:57:27.67	272.32	18.21	-46.6	-48.1	19.2	0.00e+00	0	43	0	1069547520	63	4651
2026-01-27 02:57:28.68	272.19	18.11	-46.6	-48.1	19.3	0.00e+00	0	43	0	1070596096	63	4610
2026-01-27 02:57:29.69	272.05	18.01	-46.5	-48.0	19.3	0.00e+00	0	43	0	1072693248	63	4563
2026-01-27 02:57:30.70	271.91	17.91	-46.6	-48.1	19.3	0.00e+00	0	43	0	1074790400	63	4605
2026-01-27 02:57:31.70	271.78	17.81	-46.4	-47.8	19.5	0.00e+00	0	43	0	1076887552	63	4468
2026-01-27 02:57:32.71	271.64	17.72	-46.3	-47.8	19.6	0.00e+00	0	43	0	1078984704	63	4462
2026-01-27 02:57:33.72	271.51	17.62	-46.3	-47.8	19.5	0.00e+00	0	43	0	1080033280	63	4468
2026-01-27 02:57:34.73	271.38	17.52	-46.4	-47.8	19.5	0.00e+00	0	43	0	1082130432	63	4492
2026-01-27 02:57:35.74	271.24	17.42	-46.4	-47.9	19.5	0.00e+00	0	43	0	1084227584	63	4501
2026-01-27 02:57:36.74	271.11	17.32	-46.6	-48.1	19.2	0.00e+00	0	43	0	1086324736	63	4647
2026-01-27 02:57:37.75	270.98	17.23	-46.7	-48.3	19.1	0.00e+00	0	43	0	1088421888	63	4714
2026-01-27 02:57:38.76	270.86	17.13	-46.7	-48.2	19.0	0.00e+00	0	43	0	1089470464	64	4439
2026-01-27 02:57:39.77	270.73	17.03	-46.7	-48.3	18.9	0.00e+00	0	43	0	1091567616	64	4454
2026-01-27 02:57:40.77	270.60	16.94	-46.8	-48.4	18.8	0.00e+00	0	43	0	1093664768	64	4534
2026-01-27 02:57:41.78	270.47	16.84	-46.7	-48.3	18.8	0.00e+00	0	43	0	1095761920	64	4481
2026-01-27 02:57:42.79	270.35	16.74	-46.8	-48.4	18.8	0.00e+00	0	43	0	1097859072	64	4510
2026-01-27 02:57:43.80	270.22	16.65	-46.7	-48.2	19.0	0.00e+00	0	43	0	1098907648	64	4423
2026-01-27 02:57:44.80	270.10	16.55	-46.6	-48.1	19.1	0.00e+00	0	43	0	1101004800	64	4357
2026-01-27 02:57:45.81	269.97	16.46	-46.5	-48.1	19.1	0.00e+00	0	43	0	1103101952	64	4344
2026-01-27 02:57:46.81	269.85	16.36	-46.6	-48.2	19.0	0.00e+00	0	43	0	1105199104	64	4415
2026-01-27 02:57:47.82	269.73	16.27	-46.7	-48.3	18.9	0.00e+00	0	43	0	1107296256	64	4484
2026-01-27 02:57:48.83	269.61	16.17	-46.7	-48.3	18.9	0.00e+00	0	43	0	1108344832	64	4451
2026-01-27 02:57:49.84	269.49	16.08	-46.7	-48.3	18.9	0.00e+00	0	43	0	1110441984	64	4488
2026-01-27 02:57:50.85	269.37	15.98	-46.7	-48.3	18.9	0.00e+00	0	43	0	1112539136	64	4458
2026-01-27 02:57:51.86	269.25	15.89	-46.8	-48.4	18.8	0.00e+00	0	43	0	1114636288	64	4528
2026-01-27 02:57:52.87	269.13	15.79	-46.9	-48.5	18.6	0.00e+00	0	43	0	1116733440	64	4594
2026-01-27 02:57:53.87	269.02	15.70	-46.9	-48.5	18.6	0.00e+00	0	43	0	1118830592	64	4596
2026-01-27 02:57:54.88	268.90	15.61	-46.8	-48.5	18.7	0.00e+00	0	43	0	1119879168	64	4555
2026-01-27 02:57:55.89	268.78	15.51	-46.8	-48.4	18.7	0.00e+00	0	43	0	1121976320	64	4535
2026-01-27 02:57:56.90	268.67	15.42	-46.7	-48.3	18.8	0.00e+00	0	43	0	1124073472	64	4453
2026-01-27 02:57:57.91	268.55	15.33	-46.7	-48.3	18.9	0.00e+00	0	43	0	1126170624	64	4456
2026-01-27 02:57:58.91	268.44	15.24	-46.6	-48.1	19.0	0.00e+00	0	43	0	1127219200	64	4376
2026-01-27 02:57:59.92	268.33	15.14	-46.4	-47.9	19.2	0.00e+00	0	43	0	1129316352	64	4255
2026-01-27 02:58:00.93	268.22	15.05	-46.4	-47.9	19.3	0.00e+00	0	43	0	1131413504	64	4255
2026-01-27 02:58:01.93	268.10	14.96	-46.5	-48.0	19.1	0.00e+00	0	43	0	1133510656	64	4327
2026-01-27 02:58:02.94	267.99	14.87	-46.4	-47.9	19.2	0.00e+00	0	43	0	1135607808	64	4282
2026-01-27 02:58:03.95	267.88	14.78	-46.5	-48.1	19.1	0.00e+00	0	43	0	1136656384	64	4347
2026-01-27 02:58:04.96	267.77	14.69	-46.5	-48.1	19.0	0.00e+00	0	43	0	1138753536	64	4368
2026-01-27 02:58:05.97	267.67	14.59	-46.6	-48.2	18.9	0.00e+00	0	43	0	1140850688	64	4419
2026-01-27 02:58:06.97	267.56	14.51	-46.7	-48.4	18.7	0.00e+00	0	43	0	1142947840	64	4494
2026-01-27 02:58:07.98	267.45	14.41	-46.8	-48.5	18.6	0.00e+00	0	43	0	1145044992	64	4550
2026-01-27 02:58:08.99	267.34	14.32	-46.9	-48.6	18.5	0.00e+00	0	43	0	1147142144	64	4625
2026-01-27 02:58:09.99	267.24	14.23	-46.9	-48.6	18.4	0.00e+00	0	43	0	1148190720	64	4642
2026-01-27 02:58:11.00	267.13	14.15	-46.9	-48.5	18.5	0.00e+00	0	43	0	1150287872	64	4580
2026-01-27 02:58:12.01	267.03	14.06	-46.9	-48.5	18.6	0.00e+00	0	43	0	1152385024	64	4576
2026-01-27 02:58:13.02	266.92	13.97	-46.8	-48.5	18.6	0.00e+00	0	43	0	1154482176	64	4552
2026-01-27 02:58:14.02	266.82	13.88	-46.8	-48.5	18.6	0.00e+00	0	43	0	1155530752	64	4567
2026-01-27 02:58:15.03	266.72	13.79	-46.9	-48.5	18.5	0.00e+00	0	43	0	1157627904	64	4592
2026-01-27 02:58:16.04	266.62	13.70	-46.7	-48.3	18.7	0.00e+00	0	43	0	1159725056	64	4493
2026-01-27 02:58:17.05	266.51	13.61	-46.7	-48.3	18.8	0.00e+00	0	43	0	1161822208	64	4455
2026-01-27 02:58:18.05	266.41	13.52	-46.6	-48.2	18.8	0.00e+00	0	43	0	1163919360	64	4438
2026-01-27 02:58:19.06	266.31	13.44	-46.6	-48.2	18.8	0.00e+00	0	43	0	1164967936	64	4427
2026-01-27 02:58:20.06	266.22	13.35	-46.8	-48.4	18.6	0.00e+00	0	43	0	1167065088	64	4536
2026-01-27 02:58:21.06	266.12	13.26	-46.8	-48.5	18.6	0.00e+00	0	43	0	1169162240	64	4558
2026-01-27 02:58:22.07	266.02	13.18	-46.9	-48.5	18.5	0.00e+00	0	43	0	1171259392	64	4583
2026-01-27 02:58:23.08	265.92	13.09	-46.8	-48.5	18.5	0.00e+00	0	43	0	1173356544	64	4582
2026-01-27 02:58:24.09	265.82	13.00	-46.8	-48.5	18.5	0.00e+00	0	43	0	1175453696	64	4552
2026-01-27 02:58:25.09	265.73	12.92	-46.9	-48.6	18.4	0.00e+00	0	43	0	1176502272	64	4615
2026-01-27 02:58:26.10	265.63	12.83	-46.8	-48.5	18.5	0.00e+00	0	43	0	1178599424	64	4572
2026-01-27 02:58:27.11	265.53	12.74	-46.9	-48.5	18.4	0.00e+00	0	43	0	1180696576	64	4592
2026-01-27 02:58:28.12	265.44	12.66	-46.8	-48.5	18.6	0.00e+00	0	43	0	1182793728	64	4561
2026-01-27 02:58:29.12	265.35	12.57	-46.6	-48.2	18.8	0.00e+00	0	43	0	1183842304	64	4426
2026-01-27 02:58:30.13	265.25	12.49	-46.7	-48.3	18.7	0.00e+00	0	43	0	1185939456	64	4478
2026-01-27 02:58:31.14	265.16	12.40	-46.7	-48.4	18.6	0.00e+00	0	43	0	1188036608	64	4500
2026-01-27 02:58:32.15	265.07	12.32	-46.7	-48.3	18.7	0.00e+00	0	43	0	1190133760	64	4468
2026-01-27 02:58:33.16	264.97	12.23	-46.6	-48.2	18.7	0.00e+00	0	43	0	1192230912	64	4431
2026-01-27 02:58:34.17	264.88	12.15	-46.8	-48.5	18.5	0.00e+00	0	43	0	1193279488	64	4556
2026-01-27 02:58:35.18	264.79	12.06	-46.7	-48.3	18.6	0.00e+00	0	43	0	1195376640	64	4480
2026-01-27 02:58:36.19	264.70	11.98	-46.9	-48.6	18.4	0.00e+00	0	43	0	1197473792	64	4623
2026-01-27 02:58:37.20	264.61	11.89	-47.0	-48.7	18.3	0.00e+00	0	43	0	1199570944	64	4679
2026-01-27 02:58:38.21	264.52	11.81	-47.0	-48.8	18.2	0.00e+00	0	43	0	1201668096	64	4707
2026-01-27 02:58:39.21	264.43	11.73	-47.1	-48.9	18.1	0.00e+00	0	43	0	1203765248	64	4785
2026-01-27 02:58:40.22	264.34	11.64	-47.2	-49.0	17.9	0.00e+00	0	43	0	1204813824	64	4856
2026-01-27 02:58:41.23	264.25	11.56	-47.3	-49.1	17.9	0.00e+00	0	43	0	1206910976	65	4630
2026-01-27 02:58:42.24	264.17	11.48	-47.4	-49.2	17.7	0.00e+00	0	43	0	1209008128	65	4687
2026-01-27 02:58:43.25	264.08	11.40	-47.4	-49.2	17.7	0.00e+00	0	43	0	1211105280	65	4695
2026-01-27 02:58:44.25	263.99	11.31	-47.3	-49.2	17.7	0.00e+00	0	43	0	1212153856	65	4672
2026-01-27 02:58:45.26	263.91	11.23	-47.3	-49.2	17.7	0.00e+00	0	43	0	1214251008	65	4674
2026-01-27 02:58:46.27	263.82	11.15	-47.4	-49.3	17.6	0.00e+00	0	43	0	1216348160	65	4729
2026-01-27 02:58:47.28	263.74	11.07	-47.4	-49.2	17.7	0.00e+00	0	43	0	1218445312	65	4703
2026-01-27 02:58:48.29	263.65	10.99	-47.4	-49.2	17.7	0.00e+00	0	43	0	1220542464	65	4698
2026-01-27 02:58:49.29	263.57	10.90	-47.4	-49.3	17.7	0.00e+00	0	43	0	1222639616	65	4715
2026-01-27 02:58:50.30	263.49	10.82	-47.4	-49.3	17.6	0.00e+00	0	43	0	1223688192	65	4731
2026-01-27 02:58:51.31	263.40	10.74	-47.5	-49.4	17.5	0.00e+00	0	43	0	1225785344	65	4773
2026-01-27 02:58:52.32	263.32	10.66	-47.5	-49.4	17.5	0.00e+00	0	43	0	1227882496	65	4801
2026-01-27 02:58:53.32	263.24	10.58	-47.5	-49.5	17.4	0.00e+00	0	43	0	1229979648	65	4818
2026-01-27 02:58:54.33	263.16	10.50	-47.5	-49.4	17.5	0.00e+00	0	43	0	1232076800	65	4811
2026-01-27 02:58:55.34	263.08	10.42	-47.6	-49.6	17.3	0.00e+00	0	43	0	1233125376	65	4898
2026-01-27 02:58:56.35	263.00	10.34	-47.6	-49.5	17.3	0.00e+00	0	43	0	1235222528	65	4869
2026-01-27 02:58:57.35	262.92	10.26	-47.5	-49.5	17.4	0.00e+00	0	43	0	1237319680	65	4836
2026-01-27 02:58:58.36	262.84	10.18	-47.6	-49.6	17.3	0.00e+00	0	43	0	1239416832	65	4889
2026-01-27 02:58:59.37	262.76	10.10	-47.6	-49.6	17.2	0.00e+00	0	43	0	1241513984	65	4917
