passes_logs/2026/01/27/R3.2S_Murmansk/R3.2S_Murmansk__20260127_194058_TY-42_rec.log

#Pass ID: 20260127_194058_TY-42
#Satellite: TY-42
#Configuration: TY-42_900M
#almurnet v.1.7.20251203
#Start time: 2026-01-27 19:40:58

#Version: 2.2.20231116
#Station: R3.2S_Murmansk
#Location: 33.079688 lon 68.888172 lat
#TLE: 1 64048U 25103A   26027.24398148  .00008010  00000-0  38191-3 0 09993
#TLE: 2 64048 097.4117 102.4316 0001655 092.8662 047.1811 15.19167201 38679

#Time	Az	El	Level	Level2	SNR	BER	BlckErr	Temp	State	Recorded	gain1	gain2
2026-01-27 19:40:58.25	181.57	1.96	-54.3	-56.5	6.3	0.00e+00	0	49	0	0	79	19334
2026-01-27 19:40:59.25	181.62	2.03	-54.3	-56.4	6.2	0.00e+00	0	49	104	0	80	18167
2026-01-27 19:41:00.25	181.66	2.10	-54.3	-56.5	6.2	0.00e+00	0	49	104	0	80	18194
2026-01-27 19:41:01.26	181.71	2.17	-54.4	-56.6	6.2	0.00e+00	0	49	104	0	80	18466
2026-01-27 19:41:02.27	181.76	2.24	-54.4	-56.6	6.2	0.00e+00	0	49	104	0	80	18450
2026-01-27 19:41:03.28	181.80	2.31	-54.5	-56.6	6.2	0.00e+00	0	49	104	0	80	18482
2026-01-27 19:41:04.29	181.85	2.38	-54.5	-56.6	6.2	0.00e+00	0	49	104	0	80	18519
2026-01-27 19:41:05.29	181.90	2.45	-54.4	-56.6	6.2	0.00e+00	0	50	104	0	80	18444
2026-01-27 19:41:06.30	181.95	2.52	-54.4	-56.5	6.2	0.00e+00	0	50	104	0	80	18376
2026-01-27 19:41:07.31	182.00	2.59	-54.4	-56.5	6.2	0.00e+00	0	50	104	0	80	18379
2026-01-27 19:41:08.32	182.04	2.66	-54.4	-56.5	6.2	0.00e+00	0	50	104	0	80	18275
2026-01-27 19:41:09.33	182.09	2.73	-54.3	-56.5	6.2	0.00e+00	0	50	104	0	80	18225
2026-01-27 19:41:10.33	182.14	2.80	-54.3	-56.4	6.2	0.00e+00	0	50	104	0	80	18162
2026-01-27 19:41:11.34	182.19	2.87	-54.3	-56.4	6.2	0.00e+00	0	50	104	0	80	18109
2026-01-27 19:41:12.35	182.24	2.94	-54.2	-56.4	6.2	0.00e+00	0	50	104	0	80	18032
2026-01-27 19:41:13.36	182.29	3.01	-54.2	-56.3	6.2	0.00e+00	0	50	104	0	80	17900
2026-01-27 19:41:14.36	182.34	3.08	-54.1	-56.3	6.2	0.00e+00	0	50	104	0	80	17826
2026-01-27 19:41:15.37	182.39	3.15	-54.1	-56.2	6.2	0.00e+00	0	50	104	0	80	17731
2026-01-27 19:41:16.38	182.44	3.23	-54.0	-56.1	6.2	0.00e+00	0	50	104	0	80	17526
2026-01-27 19:41:17.39	182.49	3.30	-54.0	-56.1	6.2	0.00e+00	0	50	104	0	79	18563
2026-01-27 19:41:18.40	182.55	3.37	-53.9	-56.1	6.2	0.00e+00	0	50	104	0	79	18440
2026-01-27 19:41:19.40	182.60	3.44	-53.8	-55.9	6.2	0.00e+00	0	50	104	0	79	18145
2026-01-27 19:41:20.41	182.65	3.52	-53.7	-55.8	6.2	0.00e+00	0	50	104	0	79	17831
2026-01-27 19:41:21.42	182.70	3.59	-53.5	-55.6	6.2	0.00e+00	0	50	104	0	79	17510
2026-01-27 19:41:22.42	182.75	3.66	-53.2	-55.3	6.2	0.00e+00	0	51	104	0	78	17944
2026-01-27 19:41:23.43	182.81	3.74	-52.8	-54.9	6.2	0.00e+00	0	51	104	0	77	18155
2026-01-27 19:41:24.44	182.86	3.81	-52.8	-54.9	6.2	0.00e+00	0	51	104	0	77	18093
2026-01-27 19:41:25.45	182.91	3.88	-52.8	-54.9	6.2	0.00e+00	0	50	104	0	77	18053
2026-01-27 19:41:26.45	182.97	3.96	-52.8	-54.9	6.2	0.00e+00	0	51	104	0	77	17997
2026-01-27 19:41:27.46	183.02	4.03	-52.8	-54.9	6.2	0.00e+00	0	51	104	0	77	18076
2026-01-27 19:41:28.47	183.08	4.11	-52.8	-54.9	6.2	0.00e+00	0	51	104	0	77	18023
2026-01-27 19:41:29.47	183.13	4.18	-52.7	-54.9	6.2	0.00e+00	0	51	104	0	77	18017
2026-01-27 19:41:30.48	183.19	4.26	-52.7	-54.8	6.2	0.00e+00	0	51	104	0	77	17969
2026-01-27 19:41:31.49	183.24	4.33	-52.7	-54.9	6.2	0.00e+00	0	51	104	0	77	18009
2026-01-27 19:41:32.50	183.30	4.41	-52.7	-54.9	6.2	0.00e+00	0	51	104	0	77	17997
2026-01-27 19:41:33.51	183.35	4.49	-52.7	-54.9	6.2	0.00e+00	0	51	104	0	77	18004
2026-01-27 19:41:34.52	183.41	4.56	-52.7	-54.9	6.2	0.00e+00	0	51	104	0	77	17989
2026-01-27 19:41:35.53	183.47	4.64	-52.7	-54.9	6.2	0.00e+00	0	51	104	0	77	18016
2026-01-27 19:41:36.54	183.53	4.72	-52.7	-54.9	6.2	0.00e+00	0	51	104	0	77	18010
2026-01-27 19:41:37.55	183.58	4.80	-52.7	-54.8	6.2	0.00e+00	0	51	104	0	77	17956
2026-01-27 19:41:38.55	183.64	4.87	-52.7	-54.9	6.2	0.00e+00	0	51	104	0	77	17984
2026-01-27 19:41:39.56	183.70	4.95	-52.7	-54.8	6.2	0.00e+00	0	51	104	0	77	17964
2026-01-27 19:41:40.57	183.76	5.03	-52.7	-54.8	6.2	0.00e+00	0	51	104	0	77	17924
2026-01-27 19:41:41.57	183.82	5.11	-52.8	-54.9	6.2	0.00e+00	0	51	104	0	77	18051
2026-01-27 19:41:42.58	183.88	5.19	-52.8	-55.0	6.2	0.00e+00	0	51	104	0	77	18201
2026-01-27 19:41:43.59	183.94	5.27	-52.7	-54.9	6.2	0.00e+00	0	51	104	0	77	17982
2026-01-27 19:41:44.60	184.00	5.35	-52.7	-54.8	6.2	0.00e+00	0	51	104	0	77	17949
2026-01-27 19:41:45.60	184.06	5.42	-52.8	-54.9	6.2	0.00e+00	0	51	104	0	77	18088
2026-01-27 19:41:46.61	184.12	5.50	-40.6	-40.5	12.4	0.00e+00	0	53	0	8388608	51	15435
2026-01-27 19:41:47.62	184.18	5.58	-42.4	-42.5	11.2	2.51e-02	4606	55	0	125829120	55	15362
2026-01-27 19:41:48.62	184.24	5.66	-48.6	-49.3	7.4	0.00e+00	54	52	104	159383552	68	15952
2026-01-27 19:41:49.63	184.30	5.75	-40.0	-39.9	12.6	0.00e+00	6653	54	104	159383552	52	13545
2026-01-27 19:41:50.64	184.37	5.83	-38.5	-38.4	13.7	0.00e+00	0	54	0	268435456	49	13606
2026-01-27 19:41:51.65	184.43	5.91	-38.3	-38.2	13.8	0.00e+00	0	54	0	385875968	48	14026
2026-01-27 19:41:52.66	184.49	5.99	-38.1	-38.0	13.9	7.08e-02	0	54	0	511705088	48	13726
2026-01-27 19:41:53.67	184.56	6.07	-36.9	-36.8	13.7	7.08e-02	0	54	0	620756992	45	14261
2026-01-27 19:41:54.67	184.62	6.16	-37.0	-36.9	13.6	7.08e-02	0	54	0	729808896	45	14436
2026-01-27 19:41:55.68	184.69	6.24	-36.8	-36.8	13.7	4.00e-02	0	54	0	847249408	45	14136
2026-01-27 19:41:56.69	184.75	6.32	-37.0	-36.9	13.7	4.00e-02	0	54	0	956301312	45	14360
2026-01-27 19:41:57.69	184.82	6.40	-36.5	-36.4	13.9	4.00e-02	0	54	0	1073741824	45	13624
2026-01-27 19:41:58.70	184.88	6.49	-36.2	-36.2	14.0	3.43e-02	0	54	0	1182793728	44	13955
2026-01-27 19:41:59.71	184.95	6.57	-36.2	-36.2	14.1	3.43e-02	0	54	0	1300234240	44	13966
2026-01-27 19:42:00.71	185.02	6.66	-36.3	-36.2	13.9	3.43e-02	0	54	0	1409286144	44	14050
2026-01-27 19:42:01.72	185.08	6.74	-36.2	-36.2	13.9	2.65e-02	0	55	0	1518338048	44	13951
2026-01-27 19:42:02.72	185.15	6.83	-36.1	-36.0	14.0	2.65e-02	0	54	0	1635778560	44	13726
2026-01-27 19:42:03.73	185.22	6.91	-36.2	-36.1	14.0	2.55e-02	0	54	0	1744830464	44	13827
2026-01-27 19:42:04.73	185.29	7.00	-36.1	-36.1	14.0	2.55e-02	0	55	0	1862270976	44	13800
2026-01-27 19:42:05.74	185.36	7.08	-35.9	-35.8	14.2	2.55e-02	0	54	0	1971322880	43	14251
2026-01-27 19:42:06.75	185.43	7.17	-35.9	-35.8	14.2	2.29e-02	0	54	0	2080374784	43	14257
2026-01-27 19:42:07.75	185.50	7.26	-36.0	-35.9	14.2	2.29e-02	0	55	0	2206203904	43	14340
2026-01-27 19:42:08.76	185.57	7.34	-35.7	-35.6	14.3	2.29e-02	0	55	0	2323644416	43	13804
2026-01-27 19:42:09.77	185.64	7.43	-36.0	-35.9	14.2	1.97e-02	0	55	0	2432696320	43	14303
2026-01-27 19:42:10.78	185.71	7.52	-36.0	-35.9	14.1	1.97e-02	0	55	0	2541748224	43	14378
2026-01-27 19:42:11.79	185.79	7.61	-35.9	-35.8	14.2	1.97e-02	0	54	0	2659188736	43	14212
2026-01-27 19:42:12.79	185.86	7.70	-35.6	-35.5	14.3	1.94e-02	0	55	0	2768240640	43	13784
2026-01-27 19:42:13.80	185.93	7.79	-35.7	-35.6	14.3	1.94e-02	0	55	0	2885681152	43	13916
2026-01-27 19:42:14.81	186.01	7.88	-35.6	-35.5	14.4	1.74e-02	0	55	0	2994733056	43	13751
2026-01-27 19:42:15.81	186.08	7.96	-35.7	-35.6	14.3	1.74e-02	0	55	0	3103784960	43	13844
2026-01-27 19:42:16.81	186.15	8.05	-35.6	-35.5	14.4	1.74e-02	0	55	0	3221225472	43	13685
2026-01-27 19:42:17.82	186.23	8.15	-35.5	-35.4	14.4	1.63e-02	0	55	0	3330277376	43	13570
2026-01-27 19:42:18.83	186.31	8.24	-35.5	-35.4	14.4	1.63e-02	0	55	0	3447717888	43	13575
2026-01-27 19:42:19.83	186.38	8.33	-35.4	-35.3	14.4	1.63e-02	0	55	0	3556769792	42	14268
2026-01-27 19:42:20.84	186.46	8.42	-35.4	-35.3	14.5	1.50e-02	0	55	0	3665821696	42	14149
2026-01-27 19:42:21.84	186.54	8.51	-35.3	-35.2	14.6	1.50e-02	0	55	0	3783262208	42	14013
2026-01-27 19:42:22.85	186.61	8.60	-35.3	-35.2	14.6	1.50e-02	0	55	0	3892314112	42	14002
2026-01-27 19:42:23.86	186.69	8.70	-35.2	-35.1	14.6	1.26e-02	0	55	0	4018143232	42	13859
2026-01-27 19:42:24.87	186.77	8.79	-35.0	-34.9	14.7	1.26e-02	0	55	0	4127195136	41	14380
2026-01-27 19:42:25.87	186.85	8.88	-35.0	-34.9	14.7	1.04e-02	0	55	0	4244635648	41	14353
2026-01-27 19:42:26.88	186.93	8.98	-35.1	-35.0	14.7	1.04e-02	0	55	0	4353687552	41	14534
2026-01-27 19:42:27.89	187.01	9.07	-35.0	-34.9	14.7	1.04e-02	0	56	0	4471128064	41	14293
2026-01-27 19:42:28.89	187.10	9.17	-34.9	-34.8	14.7	1.09e-02	0	56	0	4580179968	41	14217
2026-01-27 19:42:29.90	187.18	9.27	-35.0	-34.9	14.7	1.09e-02	0	56	0	4697620480	41	14359
2026-01-27 19:42:30.91	187.26	9.36	-34.9	-34.8	14.7	1.09e-02	0	56	0	4806672384	41	14234
2026-01-27 19:42:31.91	187.35	9.46	-34.7	-34.6	14.8	9.84e-03	0	56	0	4915724288	41	13851
2026-01-27 19:42:32.92	187.43	9.55	-34.7	-34.6	14.8	9.84e-03	0	56	0	5033164800	41	13883
2026-01-27 19:42:33.93	187.52	9.65	-34.7	-34.6	14.8	9.84e-03	0	56	0	5142216704	41	13820
2026-01-27 19:42:34.93	187.60	9.75	-34.7	-34.6	14.9	7.74e-03	0	56	0	5259657216	41	13840
2026-01-27 19:42:35.94	187.69	9.85	-34.5	-34.4	15.0	7.74e-03	0	56	0	5368709120	41	13575
2026-01-27 19:42:36.95	187.78	9.95	-34.6	-34.5	14.9	7.74e-03	0	56	0	5477761024	41	13693
2026-01-27 19:42:37.96	187.86	10.05	-34.4	-34.3	15.0	7.26e-03	0	56	0	5603590144	40	14184
2026-01-27 19:42:38.96	187.95	10.15	-34.4	-34.3	15.0	7.26e-03	0	56	0	5721030656	40	14183
2026-01-27 19:42:39.97	188.04	10.25	-34.5	-34.4	15.0	6.79e-03	0	56	0	5830082560	40	14283
2026-01-27 19:42:40.98	188.13	10.35	-34.2	-34.1	15.1	6.79e-03	0	56	0	5939134464	40	13919
2026-01-27 19:42:41.99	188.22	10.45	-34.3	-34.2	15.0	6.79e-03	0	56	0	6056574976	40	14070
2026-01-27 19:42:43.00	188.31	10.55	-34.3	-34.2	15.0	6.79e-03	0	56	0	6165626880	40	14086
2026-01-27 19:42:44.01	188.41	10.66	-34.2	-34.1	15.1	6.27e-03	0	56	0	6283067392	40	13839
2026-01-27 19:42:45.01	188.50	10.76	-34.2	-34.1	15.0	6.27e-03	0	56	0	6392119296	40	13907
2026-01-27 19:42:46.02	188.59	10.86	-34.1	-34.0	15.1	5.82e-03	0	56	0	6501171200	40	13768
2026-01-27 19:42:47.02	188.69	10.96	-34.1	-34.0	15.1	5.82e-03	0	56	0	6618611712	40	13655
2026-01-27 19:42:48.03	188.78	11.07	-34.1	-34.0	15.1	5.82e-03	0	56	0	6727663616	40	13673
2026-01-27 19:42:49.03	188.88	11.17	-34.1	-34.0	15.1	4.97e-03	0	56	0	6845104128	39	14557
2026-01-27 19:42:50.05	188.97	11.28	-34.1	-34.0	15.2	4.97e-03	0	56	0	6954156032	39	14461
2026-01-27 19:42:51.05	189.07	11.39	-34.1	-34.0	15.3	4.97e-03	0	56	0	7071596544	39	14583
2026-01-27 19:42:52.06	189.17	11.49	-34.1	-34.0	15.3	5.01e-03	0	57	0	7189037056	39	14478
2026-01-27 19:42:53.07	189.27	11.60	-33.8	-33.7	15.4	5.01e-03	0	57	0	7306477568	39	14109
2026-01-27 19:42:54.07	189.37	11.71	-33.8	-33.7	15.4	4.77e-03	0	57	0	7415529472	39	14080
2026-01-27 19:42:55.08	189.47	11.81	-33.7	-33.6	15.5	4.77e-03	0	57	0	7524581376	39	13889
2026-01-27 19:42:56.09	189.57	11.92	-33.8	-33.7	15.4	4.77e-03	0	57	0	7642021888	39	13968
2026-01-27 19:42:57.10	189.68	12.03	-33.7	-33.6	15.4	3.98e-03	0	57	0	7751073792	39	13908
2026-01-27 19:42:58.10	189.78	12.14	-33.8	-33.7	15.3	3.98e-03	0	57	0	7868514304	39	14043
2026-01-27 19:42:59.11	189.88	12.25	-33.5	-33.4	15.5	3.98e-03	0	57	0	7977566208	39	13542
2026-01-27 19:43:00.12	189.99	12.37	-33.3	-33.2	15.6	2.94e-03	0	57	0	8095006720	38	14059
2026-01-27 19:43:01.12	190.09	12.48	-33.4	-33.3	15.5	2.94e-03	0	57	0	8204058624	38	14194
2026-01-27 19:43:02.12	190.20	12.59	-33.3	-33.2	15.6	2.94e-03	0	57	0	8313110528	38	14036
2026-01-27 19:43:03.12	190.31	12.70	-33.3	-33.2	15.6	2.25e-03	0	57	0	8430551040	38	14066
2026-01-27 19:43:04.13	190.42	12.81	-33.3	-33.2	15.6	2.25e-03	0	57	0	8539602944	38	14029
2026-01-27 19:43:05.14	190.53	12.93	-33.2	-33.1	15.6	2.25e-03	0	57	0	8657043456	38	13836
2026-01-27 19:43:06.14	190.64	13.04	-33.1	-33.0	15.7	2.04e-03	0	57	0	8766095360	38	13771
2026-01-27 19:43:07.15	190.75	13.16	-33.1	-33.0	15.7	2.04e-03	0	57	0	8875147264	38	13681
2026-01-27 19:43:08.15	190.86	13.27	-33.2	-33.1	15.6	1.86e-03	0	57	0	8992587776	38	13819
2026-01-27 19:43:09.16	190.98	13.39	-33.2	-33.1	15.6	1.86e-03	0	57	0	9118416896	38	13870
2026-01-27 19:43:10.17	191.09	13.51	-32.9	-32.8	15.7	1.74e-03	0	57	0	9227468800	37	14147
2026-01-27 19:43:11.18	191.21	13.63	-32.9	-32.8	15.7	1.74e-03	0	57	0	9336520704	37	14218
2026-01-27 19:43:12.18	191.33	13.74	-32.8	-32.7	15.8	1.74e-03	0	57	0	9453961216	37	14013
2026-01-27 19:43:13.19	191.45	13.86	-32.9	-32.8	15.8	1.43e-03	0	57	0	9563013120	37	14146
2026-01-27 19:43:14.19	191.56	13.98	-32.8	-32.7	15.8	1.43e-03	0	57	0	9680453632	37	13971
2026-01-27 19:43:15.20	191.69	14.10	-32.7	-32.6	15.8	1.43e-03	0	57	0	9789505536	37	13899
2026-01-27 19:43:16.20	191.81	14.22	-32.6	-32.5	15.8	1.34e-03	0	57	0	9898557440	37	13757
2026-01-27 19:43:17.22	191.93	14.35	-32.7	-32.6	15.8	1.34e-03	0	57	0	10015997952	37	13861
2026-01-27 19:43:18.22	192.05	14.47	-32.7	-32.6	15.8	1.26e-03	0	57	0	10125049856	37	13825
2026-01-27 19:43:19.22	192.18	14.59	-32.6	-32.5	15.8	1.26e-03	0	57	0	10242490368	37	13758
2026-01-27 19:43:20.23	192.30	14.71	-32.6	-32.5	15.9	1.26e-03	0	57	0	10351542272	37	13654
2026-01-27 19:43:21.23	192.43	14.84	-32.5	-32.4	15.9	1.07e-03	0	57	0	10468982784	37	13559
2026-01-27 19:43:22.24	192.56	14.96	-32.4	-32.3	15.9	1.07e-03	0	58	0	10578034688	36	14157
2026-01-27 19:43:23.24	192.69	15.09	-32.4	-32.3	15.9	1.07e-03	0	57	0	10687086592	36	14246
2026-01-27 19:43:24.25	192.82	15.22	-32.4	-32.3	15.9	1.03e-03	0	57	0	10804527104	36	14151
2026-01-27 19:43:25.25	192.95	15.34	-32.4	-32.3	15.9	1.03e-03	0	57	0	10930356224	36	14221
2026-01-27 19:43:26.26	193.09	15.47	-32.4	-32.3	15.9	1.03e-03	0	57	0	11039408128	36	14232
2026-01-27 19:43:27.27	193.22	15.60	-32.4	-32.3	15.9	8.44e-04	0	58	0	11148460032	36	14239
2026-01-27 19:43:28.28	193.36	15.73	-32.3	-32.2	16.0	8.44e-04	0	57	0	11265900544	36	13954
2026-01-27 19:43:29.28	193.50	15.86	-32.2	-32.1	16.0	9.06e-04	0	57	0	11374952448	36	13878
2026-01-27 19:43:30.29	193.64	15.99	-32.2	-32.1	16.0	9.06e-04	0	58	0	11492392960	36	13890
2026-01-27 19:43:31.30	193.78	16.13	-32.1	-32.0	16.0	9.06e-04	0	57	0	11601444864	36	13772
2026-01-27 19:43:32.29	193.92	16.26	-32.1	-32.0	16.0	7.20e-04	0	57	0	11710496768	36	13664
2026-01-27 19:43:33.30	194.06	16.39	-32.1	-31.9	16.0	7.20e-04	0	57	0	11827937280	36	13620
2026-01-27 19:43:34.31	194.21	16.53	-29.7	-29.6	15.6	7.20e-04	0	57	0	11936989184	31	13809
2026-01-27 19:43:35.31	194.35	16.66	-29.6	-29.5	15.7	1.85e-03	0	57	0	12054429696	31	13723
2026-01-27 19:43:36.32	194.50	16.80	-29.6	-29.5	15.7	1.85e-03	0	57	0	12163481600	31	13686
2026-01-27 19:43:37.33	194.65	16.93	-29.6	-29.5	15.7	1.85e-03	0	58	0	12272533504	31	13690
2026-01-27 19:43:38.33	194.80	17.07	-29.6	-29.5	15.7	1.96e-03	0	58	0	12389974016	31	13678
2026-01-27 19:43:39.34	194.95	17.21	-29.3	-29.2	15.7	1.96e-03	0	58	0	12499025920	30	14086
2026-01-27 19:43:40.35	195.11	17.35	-29.2	-29.1	15.8	1.96e-03	0	57	0	12616466432	30	13861
2026-01-27 19:43:41.36	195.26	17.49	-29.1	-29.0	15.8	1.55e-03	0	57	0	12733906944	30	13646
2026-01-27 19:43:42.37	195.42	17.63	-29.0	-28.9	15.9	1.55e-03	0	57	0	12851347456	30	13571
2026-01-27 19:43:43.38	195.58	17.77	-29.0	-28.9	15.9	1.55e-03	0	57	0	12960399360	30	13537
2026-01-27 19:43:44.38	195.74	17.92	-28.8	-28.7	15.9	1.28e-03	0	57	0	13077839872	29	14012
2026-01-27 19:43:45.39	195.90	18.06	-28.9	-28.8	15.9	1.28e-03	0	58	0	13186891776	29	14153
2026-01-27 19:43:46.39	196.07	18.20	-28.8	-28.7	15.9	1.09e-03	0	58	0	13295943680	29	14017
2026-01-27 19:43:47.40	196.23	18.35	-28.8	-28.7	15.9	1.09e-03	0	58	0	13413384192	29	14051
2026-01-27 19:43:48.41	196.40	18.50	-28.8	-28.7	15.9	1.09e-03	0	57	0	13522436096	29	14085
2026-01-27 19:43:49.41	196.57	18.64	-28.8	-28.7	15.9	1.14e-03	0	58	0	13639876608	29	14011
2026-01-27 19:43:50.42	196.74	18.79	-28.6	-28.5	16.0	1.14e-03	0	58	0	13748928512	29	13737
2026-01-27 19:43:51.43	196.92	18.94	-28.5	-28.4	16.0	1.14e-03	0	58	0	13866369024	29	13519
2026-01-27 19:43:52.43	197.09	19.09	-28.5	-28.4	16.0	1.07e-03	0	58	0	13975420928	29	13527
2026-01-27 19:43:53.44	197.27	19.24	-28.4	-28.3	16.0	1.07e-03	0	58	0	14084472832	28	14264
2026-01-27 19:43:54.45	197.45	19.39	-28.4	-28.3	16.0	1.07e-03	0	58	0	14201913344	28	14222
2026-01-27 19:43:55.45	197.63	19.54	-28.5	-28.4	16.0	7.44e-04	0	58	0	14310965248	28	14320
2026-01-27 19:43:56.46	197.81	19.70	-28.2	-28.1	16.1	7.44e-04	0	58	0	14436794368	28	13835
2026-01-27 19:43:57.47	198.00	19.85	-28.2	-28.1	16.1	7.44e-04	0	58	0	14545846272	28	13838
2026-01-27 19:43:58.47	198.18	20.01	-28.2	-28.1	16.1	7.06e-04	0	58	0	14663286784	28	13877
2026-01-27 19:43:59.47	198.37	20.16	-28.1	-28.0	16.1	7.06e-04	0	58	0	14772338688	28	13705
2026-01-27 19:44:00.48	198.56	20.32	-28.1	-28.0	16.1	7.06e-04	0	58	0	14889779200	28	13778
2026-01-27 19:44:01.49	198.76	20.48	-28.0	-27.9	16.2	7.39e-04	0	58	0	14998831104	28	13581
2026-01-27 19:44:02.50	198.95	20.64	-28.0	-27.9	16.2	7.39e-04	0	58	0	15107883008	28	13570
2026-01-27 19:44:03.50	199.15	20.80	-28.0	-27.9	16.2	7.39e-04	0	58	0	15225323520	28	13587
2026-01-27 19:44:04.51	199.35	20.96	-28.0	-27.9	16.2	5.05e-04	0	58	0	15334375424	27	14421
2026-01-27 19:44:05.52	199.56	21.12	-28.0	-27.9	16.2	5.05e-04	0	58	0	15451815936	27	14336
2026-01-27 19:44:06.53	199.76	21.29	-27.9	-27.8	16.2	5.29e-04	0	58	0	15560867840	27	14213
2026-01-27 19:44:07.53	199.97	21.45	-27.8	-27.7	16.3	5.29e-04	0	58	0	15669919744	27	14075
2026-01-27 19:44:08.54	200.18	21.61	-27.7	-27.6	16.3	5.29e-04	0	58	0	15787360256	27	13820
2026-01-27 19:44:09.55	200.39	21.78	-27.7	-27.6	16.3	6.05e-04	0	58	0	15896412160	27	13806
2026-01-27 19:44:10.55	200.61	21.95	-28.0	-27.9	16.2	6.05e-04	0	58	0	16022241280	27	14290
2026-01-27 19:44:11.56	200.82	22.11	-27.6	-27.5	16.3	4.77e-04	0	58	0	16131293184	27	13707
2026-01-27 19:44:12.57	201.04	22.28	-27.3	-27.3	16.3	4.77e-04	0	58	0	16248733696	26	14114
2026-01-27 19:44:13.57	201.27	22.45	-27.4	-27.3	16.3	4.77e-04	0	58	0	16357785600	26	14167
2026-01-27 19:44:14.58	201.49	22.62	-27.5	-27.4	16.3	4.77e-04	0	58	0	16475226112	26	14293
2026-01-27 19:44:15.59	201.72	22.80	-27.4	-27.3	16.3	2.48e-04	0	58	0	16584278016	26	14229
2026-01-27 19:44:16.60	201.95	22.97	-27.3	-27.2	16.3	2.48e-04	0	58	0	16701718528	26	14060
2026-01-27 19:44:17.61	202.19	23.14	-27.2	-27.1	16.4	2.48e-04	0	58	0	16810770432	26	13904
2026-01-27 19:44:18.61	202.42	23.32	-27.2	-27.1	16.4	2.81e-04	0	58	0	16919822336	26	13924
2026-01-27 19:44:19.62	202.66	23.50	-27.1	-27.0	16.4	2.81e-04	0	58	0	17037262848	26	13734
2026-01-27 19:44:20.62	202.90	23.67	-27.2	-27.1	16.4	2.81e-04	0	58	0	17146314752	26	13800
2026-01-27 19:44:21.63	203.15	23.85	-26.9	-26.8	16.4	2.00e-04	0	58	0	17263755264	25	14227
2026-01-27 19:44:22.64	203.40	24.03	-26.8	-26.7	16.5	2.00e-04	0	58	0	17372807168	25	14090
2026-01-27 19:44:23.64	203.65	24.21	-26.7	-26.6	16.5	2.00e-04	0	58	0	17481859072	25	13891
2026-01-27 19:44:24.65	203.91	24.39	-26.6	-26.5	16.5	2.29e-04	0	58	0	17607688192	25	13742
2026-01-27 19:44:25.66	204.17	24.57	-26.7	-26.6	16.5	2.29e-04	0	58	0	17725128704	25	13803
2026-01-27 19:44:26.67	204.43	24.76	-26.6	-26.5	16.5	2.29e-04	0	58	0	17834180608	25	13709
2026-01-27 19:44:27.68	204.69	24.94	-26.4	-26.3	16.6	1.38e-04	0	58	0	17943232512	24	14157
2026-01-27 19:44:28.69	204.96	25.13	-26.4	-26.3	16.5	1.38e-04	0	58	0	18060673024	24	14253
2026-01-27 19:44:29.70	205.24	25.31	-26.2	-26.1	16.6	1.38e-04	0	58	0	18169724928	24	13897
2026-01-27 19:44:30.71	205.51	25.50	-26.3	-26.2	16.6	1.10e-04	0	58	0	18287165440	24	13981
2026-01-27 19:44:31.71	205.79	25.69	-26.2	-26.1	16.6	1.10e-04	0	58	0	18396217344	24	13884
2026-01-27 19:44:32.72	206.07	25.87	-26.2	-26.1	16.6	1.10e-04	0	58	0	18505269248	24	13902
2026-01-27 19:44:33.73	206.36	26.07	-26.2	-26.0	16.6	1.38e-04	0	58	0	18622709760	24	13779
2026-01-27 19:44:34.73	206.65	26.25	-26.0	-25.9	16.6	1.38e-04	0	58	0	18731761664	24	13590
2026-01-27 19:44:35.74	206.94	26.45	-26.0	-25.9	16.6	1.24e-04	0	58	0	18849202176	24	13608
2026-01-27 19:44:36.75	207.24	26.64	-25.9	-25.8	16.7	1.24e-04	0	58	0	18958254080	23	14161
2026-01-27 19:44:37.75	207.54	26.83	-25.7	-25.6	16.7	1.24e-04	0	58	0	19084083200	23	13838
2026-01-27 19:44:38.76	207.85	27.03	-25.8	-25.7	16.7	3.33e-05	0	58	0	19193135104	23	13990
2026-01-27 19:44:39.77	208.16	27.22	-25.7	-25.6	16.7	3.33e-05	0	58	0	19310575616	23	13893
2026-01-27 19:44:40.78	208.47	27.42	-25.7	-25.5	16.7	3.33e-05	0	58	0	19419627520	23	13778
2026-01-27 19:44:41.78	208.79	27.61	-25.4	-25.3	16.7	2.86e-05	0	58	0	19528679424	22	14120
2026-01-27 19:44:42.79	209.11	27.81	-25.4	-25.2	16.7	2.86e-05	0	58	0	19646119936	22	14099
2026-01-27 19:44:43.80	209.44	28.01	-25.4	-25.3	16.7	2.86e-05	0	58	0	19755171840	22	14252
2026-01-27 19:44:44.81	209.77	28.21	-25.4	-25.3	16.7	2.86e-05	0	58	0	19872612352	22	14142
2026-01-27 19:44:45.81	210.10	28.41	-25.1	-25.0	16.8	2.86e-05	0	58	0	19981664256	22	13648
2026-01-27 19:44:46.82	210.44	28.61	-25.0	-24.9	16.8	2.86e-05	0	58	0	20099104768	22	13599
2026-01-27 19:44:47.83	210.79	28.81	-24.9	-24.8	16.8	4.76e-05	0	58	0	20208156672	21	14188
2026-01-27 19:44:48.84	211.14	29.01	-24.9	-24.8	16.8	4.76e-05	0	58	0	20317208576	21	14176
2026-01-27 19:44:49.84	211.49	29.22	-25.0	-24.9	16.8	1.90e-05	0	58	0	20434649088	21	14320
2026-01-27 19:44:50.85	211.85	29.42	-24.7	-24.5	16.9	1.90e-05	0	58	0	20543700992	21	13784
2026-01-27 19:44:51.85	212.21	29.62	-24.5	-24.4	16.9	1.90e-05	0	58	0	20669530112	21	13570
2026-01-27 19:44:52.86	212.58	29.83	-24.5	-24.4	16.9	4.70e-06	0	58	0	20778582016	20	14298
2026-01-27 19:44:53.87	212.95	30.03	-24.3	-24.2	16.9	4.70e-06	0	58	0	20896022528	20	14067
2026-01-27 19:44:54.87	213.33	30.24	-24.4	-24.3	16.9	4.70e-06	0	58	0	21005074432	20	14129
2026-01-27 19:44:55.88	213.71	30.44	-24.4	-24.3	16.9	4.70e-06	0	58	0	21122514944	20	14160
2026-01-27 19:44:56.89	214.10	30.65	-24.2	-24.0	16.9	9.50e-06	0	58	0	21231566848	20	13783
2026-01-27 19:44:57.89	214.49	30.85	-24.1	-24.0	16.9	9.50e-06	0	58	0	21340618752	20	13773
2026-01-27 19:44:58.90	214.89	31.06	-24.1	-24.0	16.9	9.50e-06	0	58	0	21458059264	20	13700
2026-01-27 19:44:59.90	215.30	31.27	-24.1	-24.0	17.0	0.00e+00	0	58	0	21567111168	20	13654
2026-01-27 19:45:00.90	215.70	31.47	-24.0	-23.9	17.0	0.00e+00	0	58	0	21684551680	19	14326
2026-01-27 19:45:01.91	216.12	31.68	-24.0	-23.9	17.0	0.00e+00	0	58	0	21793603584	19	14302
2026-01-27 19:45:02.93	216.55	31.89	-23.9	-23.8	17.0	0.00e+00	0	58	0	21902655488	19	14205
2026-01-27 19:45:03.93	216.97	32.10	-23.9	-23.8	17.0	0.00e+00	0	58	0	22020096000	19	14195
2026-01-27 19:45:04.94	217.41	32.31	-24.0	-23.9	17.0	0.00e+00	0	58	0	22129147904	19	14340
2026-01-27 19:45:05.95	217.85	32.52	-23.8	-23.6	17.0	1.90e-05	0	58	0	22246588416	19	13945
2026-01-27 19:45:06.96	218.29	32.72	-23.6	-23.5	17.0	1.90e-05	0	58	0	22364028928	19	13679
2026-01-27 19:45:07.97	218.75	32.93	-23.7	-23.6	17.0	0.00e+00	0	58	0	22481469440	19	13821
2026-01-27 19:45:08.97	219.20	33.14	-23.5	-23.4	17.1	0.00e+00	0	58	0	22590521344	19	13540
2026-01-27 19:45:09.98	219.67	33.35	-23.5	-23.4	17.1	0.00e+00	0	58	0	22707961856	19	13535
2026-01-27 19:45:10.99	220.14	33.55	-23.4	-23.3	17.1	0.00e+00	0	58	0	22817013760	18	14213
2026-01-27 19:45:12.00	220.61	33.76	-23.3	-23.2	17.1	0.00e+00	0	58	0	22934454272	18	14048
2026-01-27 19:45:13.01	221.10	33.97	-23.4	-23.3	17.1	0.00e+00	0	58	0	23043506176	18	14163
2026-01-27 19:45:14.01	221.58	34.17	-23.3	-23.2	17.1	0.00e+00	0	58	0	23152558080	18	14079
2026-01-27 19:45:15.02	222.08	34.38	-23.3	-23.2	17.1	9.50e-06	0	58	0	23269998592	18	14025
2026-01-27 19:45:16.03	222.58	34.58	-23.2	-23.1	17.1	9.50e-06	0	58	0	23379050496	18	13885
2026-01-27 19:45:17.04	223.09	34.79	-23.2	-23.1	17.1	9.50e-06	0	58	0	23496491008	18	13827
2026-01-27 19:45:18.04	223.61	34.99	-23.3	-23.2	17.1	4.70e-06	0	58	0	23605542912	18	14063
2026-01-27 19:45:19.05	224.13	35.19	-23.3	-23.2	17.1	4.70e-06	0	58	0	23714594816	18	13951
2026-01-27 19:45:20.06	224.66	35.39	-23.2	-23.1	17.2	0.00e+00	0	58	0	23840423936	18	13867
2026-01-27 19:45:21.07	225.20	35.59	-23.2	-23.1	17.1	0.00e+00	0	58	0	23957864448	18	13907
2026-01-27 19:45:22.07	225.73	35.79	-22.9	-22.8	17.2	0.00e+00	0	58	0	24066916352	17	14173
2026-01-27 19:45:23.08	226.29	35.98	-23.0	-22.9	17.2	0.00e+00	0	58	0	24175968256	17	14386
2026-01-27 19:45:24.09	226.84	36.18	-23.0	-22.9	17.2	0.00e+00	0	58	0	24293408768	17	14288
2026-01-27 19:45:25.10	227.41	36.37	-22.9	-22.8	17.2	0.00e+00	0	58	0	24402460672	17	14269
2026-01-27 19:45:26.11	227.98	36.56	-23.1	-23.0	17.2	0.00e+00	0	58	0	24519901184	17	14556
2026-01-27 19:45:27.12	228.56	36.76	-22.8	-22.7	17.2	0.00e+00	0	58	0	24628953088	17	14080
2026-01-27 19:45:28.13	229.15	36.94	-22.6	-22.5	17.2	0.00e+00	0	58	0	24738004992	17	13727
2026-01-27 19:45:29.14	229.74	37.13	-22.7	-22.6	17.2	0.00e+00	0	58	0	24855445504	17	13939
2026-01-27 19:45:30.15	230.34	37.32	-22.5	-22.4	17.3	0.00e+00	0	58	0	24964497408	17	13569
2026-01-27 19:45:31.15	230.94	37.50	-22.5	-22.4	17.2	0.00e+00	0	58	0	25090326528	16	14344
2026-01-27 19:45:32.16	231.56	37.68	-22.4	-22.3	17.2	0.00e+00	0	58	0	25199378432	16	14187
2026-01-27 19:45:33.17	232.18	37.85	-22.4	-22.3	17.2	0.00e+00	0	58	0	25316818944	16	14164
2026-01-27 19:45:34.18	232.81	38.03	-22.4	-22.2	17.2	0.00e+00	0	58	0	25425870848	16	14102
2026-01-27 19:45:35.18	233.43	38.20	-22.4	-22.2	17.2	0.00e+00	0	58	0	25543311360	16	14110
2026-01-27 19:45:36.19	234.08	38.37	-22.3	-22.2	17.2	0.00e+00	0	58	0	25652363264	16	13993
2026-01-27 19:45:37.19	234.72	38.54	-22.3	-22.2	17.2	0.00e+00	0	58	0	25761415168	16	14020
2026-01-27 19:45:38.20	235.38	38.70	-22.3	-22.2	17.2	0.00e+00	0	58	0	25878855680	16	13990
2026-01-27 19:45:39.21	236.04	38.86	-22.5	-22.4	17.2	0.00e+00	0	58	0	25987907584	16	14327
2026-01-27 19:45:40.22	236.71	39.02	-22.3	-22.2	17.2	0.00e+00	0	58	0	26105348096	16	13985
2026-01-27 19:45:41.23	237.39	39.17	-22.2	-22.1	17.2	0.00e+00	0	58	0	26214400000	16	13801
2026-01-27 19:45:42.24	238.07	39.32	-22.1	-22.0	17.2	0.00e+00	0	58	0	26331840512	16	13738
2026-01-27 19:45:43.25	238.76	39.47	-22.1	-21.9	17.3	0.00e+00	0	58	0	26440892416	16	13602
2026-01-27 19:45:44.25	239.45	39.61	-21.9	-21.7	17.2	0.00e+00	0	58	0	26566721536	15	14087
2026-01-27 19:45:45.26	240.15	39.75	-21.9	-21.7	17.2	0.00e+00	0	58	0	26675773440	15	14083
2026-01-27 19:45:46.27	240.86	39.89	-21.8	-21.7	17.3	0.00e+00	0	58	0	26793213952	15	14025
2026-01-27 19:45:47.28	241.57	40.02	-21.8	-21.7	17.3	0.00e+00	0	58	0	26902265856	15	13977
2026-01-27 19:45:48.28	242.29	40.14	-21.6	-21.5	17.2	0.00e+00	0	58	0	27011317760	15	13726
2026-01-27 19:45:49.29	243.01	40.26	-21.7	-21.6	17.2	0.00e+00	0	58	0	27128758272	15	13852
2026-01-27 19:45:50.29	243.74	40.38	-21.5	-21.4	17.2	0.00e+00	0	58	0	27237810176	15	13538
2026-01-27 19:45:51.30	244.47	40.49	-21.5	-21.4	17.3	0.00e+00	0	58	0	27355250688	15	13506
2026-01-27 19:45:52.31	245.21	40.60	-21.6	-21.5	17.2	0.00e+00	0	58	0	27464302592	15	13668
2026-01-27 19:45:53.32	245.96	40.71	-21.4	-21.3	17.2	0.00e+00	0	58	0	27573354496	14	14150
2026-01-27 19:45:54.33	246.71	40.81	-21.4	-21.3	17.2	0.00e+00	0	58	0	27690795008	14	14194
2026-01-27 19:45:55.33	247.46	40.90	-21.4	-21.3	17.2	0.00e+00	0	58	0	27799846912	14	14138
2026-01-27 19:45:56.33	248.22	40.99	-21.5	-21.4	17.2	0.00e+00	0	58	0	27917287424	14	14364
2026-01-27 19:45:57.34	248.98	41.07	-21.5	-21.4	17.3	0.00e+00	0	58	0	28026339328	14	14280
2026-01-27 19:45:58.35	249.75	41.15	-21.4	-21.3	17.2	0.00e+00	0	58	0	28135391232	14	14193
2026-01-27 19:45:59.35	250.52	41.22	-21.6	-21.5	17.2	0.00e+00	0	58	0	28261220352	14	14528
2026-01-27 19:46:00.36	251.29	41.29	-21.6	-21.5	17.2	0.00e+00	0	58	0	28378660864	14	14463
2026-01-27 19:46:01.37	252.07	41.35	-21.4	-21.3	17.3	0.00e+00	0	58	0	28487712768	14	14151
2026-01-27 19:46:02.38	252.85	41.41	-21.4	-21.3	17.2	0.00e+00	0	58	0	28596764672	14	14144
2026-01-27 19:46:03.39	253.64	41.46	-21.4	-21.3	17.2	0.00e+00	0	58	0	28714205184	14	14215
2026-01-27 19:46:04.40	254.43	41.51	-21.4	-21.3	17.2	0.00e+00	0	58	0	28823257088	14	14245
2026-01-27 19:46:05.41	255.22	41.55	-21.5	-21.4	17.2	0.00e+00	0	58	0	28940697600	14	14294
2026-01-27 19:46:06.41	256.00	41.58	-21.6	-21.5	17.2	0.00e+00	0	58	0	29049749504	14	14499
2026-01-27 19:46:07.42	256.79	41.61	-21.4	-21.3	17.2	0.00e+00	0	58	0	29158801408	14	14230
2026-01-27 19:46:08.43	257.59	41.63	-21.5	-21.3	17.1	0.00e+00	0	58	0	29276241920	14	14265
2026-01-27 19:46:09.44	258.38	41.65	-21.6	-21.5	17.1	0.00e+00	0	58	0	29385293824	14	14481
2026-01-27 19:46:10.45	259.18	41.66	-21.6	-21.5	17.1	0.00e+00	0	58	0	29502734336	14	14516
2026-01-27 19:46:11.46	259.97	41.66	-21.5	-21.4	17.2	0.00e+00	0	58	0	29620174848	14	14413
2026-01-27 19:46:12.47	260.77	41.66	-21.5	-21.4	17.1	4.70e-06	0	58	0	29737615360	14	14346
2026-01-27 19:46:13.47	261.56	41.65	-21.6	-21.5	17.1	4.70e-06	0	58	0	29846667264	14	14454
2026-01-27 19:46:14.48	262.35	41.64	-21.6	-21.5	17.1	4.70e-06	0	58	0	29964107776	14	14512
2026-01-27 19:46:15.49	263.15	41.62	-21.6	-21.4	17.1	0.00e+00	0	58	0	30073159680	14	14429
2026-01-27 19:46:16.50	263.94	41.60	-21.6	-21.5	17.1	0.00e+00	0	58	0	30190600192	14	14461
2026-01-27 19:46:17.51	264.73	41.57	-21.7	-21.6	17.1	0.00e+00	0	58	0	30299652096	14	14628
2026-01-27 19:46:18.51	265.52	41.53	-21.6	-21.5	17.1	0.00e+00	0	58	0	30408704000	14	14460
2026-01-27 19:46:19.52	266.31	41.49	-21.6	-21.4	17.1	0.00e+00	0	58	0	30526144512	14	14423
2026-01-27 19:46:20.53	267.09	41.44	-21.5	-21.4	17.1	0.00e+00	0	58	0	30635196416	14	14343
2026-01-27 19:46:21.53	267.87	41.39	-21.5	-21.4	17.1	0.00e+00	0	58	0	30752636928	14	14326
2026-01-27 19:46:22.53	268.64	41.33	-21.7	-21.6	17.1	0.00e+00	0	58	0	30861688832	14	14635
2026-01-27 19:46:23.54	269.42	41.27	-21.5	-21.4	17.1	0.00e+00	0	58	0	30970740736	14	14380
2026-01-27 19:46:24.55	270.19	41.20	-21.6	-21.5	17.1	0.00e+00	0	58	0	31088181248	14	14550
2026-01-27 19:46:25.56	270.96	41.12	-21.5	-21.4	17.2	0.00e+00	0	58	0	31214010368	14	14325
2026-01-27 19:46:26.57	271.73	41.04	-21.6	-21.5	17.2	0.00e+00	0	58	0	31323062272	14	14444
2026-01-27 19:46:27.57	272.49	40.96	-21.6	-21.4	17.2	0.00e+00	0	58	0	31432114176	14	14439
2026-01-27 19:46:28.58	273.24	40.86	-21.7	-21.5	17.2	0.00e+00	0	58	0	31549554688	14	14581
2026-01-27 19:46:29.59	274.00	40.77	-21.6	-21.5	17.2	0.00e+00	0	58	0	31658606592	14	14484
2026-01-27 19:46:30.59	274.74	40.67	-21.8	-21.6	17.1	0.00e+00	0	58	0	31776047104	14	14759
2026-01-27 19:46:31.60	275.48	40.56	-21.7	-21.6	17.1	0.00e+00	0	58	0	31885099008	14	14630
2026-01-27 19:46:32.61	276.22	40.45	-21.8	-21.6	17.2	0.00e+00	0	58	0	31994150912	14	14774
2026-01-27 19:46:33.61	276.95	40.34	-21.8	-21.6	17.1	0.00e+00	0	58	0	32111591424	14	14775
2026-01-27 19:46:34.62	277.68	40.22	-21.9	-21.8	17.1	0.00e+00	0	58	0	32220643328	14	15045
2026-01-27 19:46:35.63	278.40	40.10	-21.9	-21.8	17.1	0.00e+00	0	58	0	32338083840	14	15013
2026-01-27 19:46:36.64	279.12	39.97	-21.9	-21.8	17.1	0.00e+00	0	58	0	32447135744	14	15047
2026-01-27 19:46:37.65	279.83	39.84	-22.0	-21.9	17.1	0.00e+00	0	58	0	32556187648	14	15256
2026-01-27 19:46:38.66	280.53	39.70	-22.1	-21.9	17.1	0.00e+00	0	58	0	32682016768	14	15251
2026-01-27 19:46:39.66	281.22	39.56	-22.1	-22.0	17.1	0.00e+00	0	58	0	32799457280	14	15335
2026-01-27 19:46:40.67	281.92	39.42	-22.3	-22.2	17.1	0.00e+00	0	58	0	32908509184	15	14810
2026-01-27 19:46:41.68	282.60	39.27	-22.4	-22.3	17.1	0.00e+00	0	58	0	33017561088	15	14979
2026-01-27 19:46:42.69	283.28	39.12	-22.3	-22.2	17.1	0.00e+00	0	58	0	33135001600	15	14787
2026-01-27 19:46:43.69	283.95	38.96	-22.3	-22.2	17.2	0.00e+00	0	58	0	33244053504	15	14785
2026-01-27 19:46:44.70	284.61	38.81	-22.4	-22.3	17.1	0.00e+00	0	58	0	33361494016	15	14992
2026-01-27 19:46:45.71	285.27	38.64	-22.4	-22.2	17.1	0.00e+00	0	58	0	33470545920	15	14935
2026-01-27 19:46:46.71	285.92	38.48	-22.4	-22.3	17.2	0.00e+00	0	58	0	33587986432	15	15009
2026-01-27 19:46:47.72	286.56	38.31	-22.4	-22.3	17.1	0.00e+00	0	58	0	33697038336	15	14987
2026-01-27 19:46:48.73	287.20	38.14	-22.4	-22.3	17.2	0.00e+00	0	58	0	33806090240	15	15050
2026-01-27 19:46:49.74	287.83	37.97	-22.4	-22.3	17.2	0.00e+00	0	58	0	33923530752	15	14993
2026-01-27 19:46:50.75	288.46	37.79	-22.4	-22.3	17.2	0.00e+00	0	58	0	34032582656	15	15078
2026-01-27 19:46:51.75	289.07	37.62	-22.5	-22.3	17.3	0.00e+00	0	58	0	34150023168	15	15103
2026-01-27 19:46:52.76	289.68	37.44	-22.5	-22.4	17.3	0.00e+00	0	58	0	34267463680	15	15161
2026-01-27 19:46:53.77	290.28	37.25	-22.5	-22.4	17.3	0.00e+00	0	58	0	34384904192	15	15231
2026-01-27 19:46:54.78	290.88	37.07	-22.6	-22.5	17.3	0.00e+00	0	58	0	34493956096	15	15302
2026-01-27 19:46:55.79	291.47	36.88	-22.6	-22.5	17.3	0.00e+00	0	58	0	34611396608	15	15400
2026-01-27 19:46:56.79	292.04	36.70	-22.6	-22.5	17.3	0.00e+00	0	58	0	34720448512	15	15314
2026-01-27 19:46:57.80	292.62	36.51	-22.6	-22.5	17.4	0.00e+00	0	58	0	34829500416	15	15414
2026-01-27 19:46:58.81	293.19	36.31	-22.7	-22.5	17.4	0.00e+00	0	58	0	34946940928	15	15455
2026-01-27 19:46:59.82	293.75	36.12	-22.9	-22.8	17.3	0.00e+00	0	58	0	35055992832	16	14966
2026-01-27 19:47:00.82	294.30	35.93	-22.9	-22.8	17.4	0.00e+00	0	58	0	35173433344	16	14979
2026-01-27 19:47:01.83	294.84	35.73	-23.1	-23.0	17.3	0.00e+00	0	58	0	35282485248	16	15394
2026-01-27 19:47:02.83	295.38	35.53	-23.1	-22.9	17.3	0.00e+00	0	58	0	35391537152	16	15293
2026-01-27 19:47:03.84	295.91	35.33	-23.0	-22.9	17.4	0.00e+00	0	58	0	35508977664	16	15203
2026-01-27 19:47:04.85	296.44	35.13	-23.2	-23.1	17.4	0.00e+00	0	58	0	35618029568	17	14646
2026-01-27 19:47:05.85	296.95	34.93	-23.2	-23.1	17.4	0.00e+00	0	58	0	35743858688	17	14609
2026-01-27 19:47:06.86	297.46	34.73	-23.3	-23.2	17.3	0.00e+00	0	58	0	35852910592	17	14884
2026-01-27 19:47:07.87	297.97	34.53	-23.3	-23.2	17.4	0.00e+00	0	58	0	35970351104	17	14814
2026-01-27 19:47:08.88	298.47	34.32	-23.4	-23.3	17.3	0.00e+00	0	58	0	36079403008	17	15062
2026-01-27 19:47:09.89	298.96	34.12	-23.5	-23.4	17.3	0.00e+00	0	58	0	36196843520	17	15139
2026-01-27 19:47:10.89	299.45	33.92	-23.3	-23.2	17.3	0.00e+00	0	58	0	36305895424	17	14913
2026-01-27 19:47:11.90	299.93	33.71	-23.4	-23.3	17.3	0.00e+00	0	58	0	36414947328	17	15091
2026-01-27 19:47:12.91	300.40	33.50	-23.5	-23.4	17.3	0.00e+00	0	58	0	36532387840	17	15177
2026-01-27 19:47:13.91	300.86	33.30	-23.4	-23.3	17.2	0.00e+00	0	58	0	36641439744	17	15092
2026-01-27 19:47:14.93	301.33	33.09	-23.5	-23.4	17.2	4.70e-06	0	58	0	36758880256	17	15132
2026-01-27 19:47:15.93	301.78	32.88	-23.9	-23.8	17.2	4.70e-06	0	58	0	36867932160	18	14994
2026-01-27 19:47:16.94	302.23	32.68	-23.7	-23.6	17.2	4.70e-06	0	58	0	36985372672	18	14675
2026-01-27 19:47:17.95	302.67	32.47	-23.6	-23.5	17.2	0.00e+00	0	58	0	37094424576	18	14580
2026-01-27 19:47:18.96	303.11	32.26	-23.8	-23.7	17.2	0.00e+00	0	58	0	37220253696	18	14860
2026-01-27 19:47:19.97	303.54	32.05	-23.8	-23.7	17.2	9.50e-06	0	58	0	37329305600	18	14846
2026-01-27 19:47:20.97	303.96	31.85	-23.9	-23.8	17.1	9.50e-06	0	58	0	37446746112	18	14960
2026-01-27 19:47:21.98	304.38	31.64	-23.9	-23.8	17.2	9.50e-06	0	58	0	37555798016	18	14976
2026-01-27 19:47:22.99	304.79	31.43	-23.9	-23.8	17.1	0.00e+00	0	58	0	37664849920	18	15065
2026-01-27 19:47:23.99	305.20	31.23	-24.0	-23.9	17.1	0.00e+00	0	58	0	37782290432	18	15173
2026-01-27 19:47:25.00	305.60	31.02	-24.1	-24.0	17.1	0.00e+00	0	58	0	37891342336	18	15326
2026-01-27 19:47:26.01	306.00	30.82	-24.1	-24.0	17.1	0.00e+00	0	58	0	38008782848	18	15353
2026-01-27 19:47:27.02	306.39	30.61	-24.2	-24.1	17.1	0.00e+00	0	58	0	38117834752	18	15569
2026-01-27 19:47:28.03	306.78	30.40	-24.1	-24.0	17.1	0.00e+00	0	58	0	38226886656	18	15395
2026-01-27 19:47:29.03	307.16	30.20	-24.3	-24.2	17.1	4.70e-06	0	58	0	38344327168	19	14863
2026-01-27 19:47:30.04	307.53	30.00	-24.4	-24.3	17.0	4.70e-06	0	58	0	38453379072	19	15013
2026-01-27 19:47:31.05	307.90	29.79	-24.4	-24.3	17.0	4.70e-06	0	58	0	38570819584	19	15097
2026-01-27 19:47:32.05	308.27	29.59	-24.6	-24.5	17.0	0.00e+00	0	58	0	38688260096	19	15363
2026-01-27 19:47:33.06	308.63	29.39	-24.6	-24.4	17.0	0.00e+00	0	58	0	38805700608	19	15270
2026-01-27 19:47:34.07	308.99	29.19	-24.6	-24.5	17.0	0.00e+00	0	58	0	38914752512	20	14466
2026-01-27 19:47:35.07	309.33	28.99	-24.7	-24.6	17.0	9.50e-06	0	58	0	39032193024	20	14618
2026-01-27 19:47:36.07	309.68	28.79	-24.7	-24.6	16.9	9.50e-06	0	58	0	39141244928	20	14633
2026-01-27 19:47:37.08	310.02	28.59	-24.8	-24.7	16.9	9.50e-06	0	58	0	39250296832	20	14811
2026-01-27 19:47:38.09	310.36	28.39	-24.9	-24.8	16.9	0.00e+00	0	58	0	39367737344	20	15057
2026-01-27 19:47:39.10	310.69	28.19	-25.0	-24.9	16.9	0.00e+00	0	58	0	39476789248	20	15141
2026-01-27 19:47:40.11	311.02	27.99	-25.0	-24.9	16.9	0.00e+00	0	58	0	39594229760	20	15183
2026-01-27 19:47:41.11	311.34	27.79	-25.1	-25.0	16.8	1.90e-05	0	58	0	39703281664	20	15322
2026-01-27 19:47:42.13	311.67	27.59	-25.1	-24.9	16.8	1.90e-05	0	58	0	39812333568	20	15288
2026-01-27 19:47:43.13	311.98	27.40	-25.1	-25.0	16.8	1.90e-05	0	58	0	39929774080	20	15321
2026-01-27 19:47:44.13	312.29	27.21	-25.2	-25.1	16.8	2.38e-05	0	58	0	40038825984	21	14699
2026-01-27 19:47:45.14	312.60	27.01	-25.2	-25.1	16.8	2.38e-05	0	58	0	40156266496	21	14665
2026-01-27 19:47:46.15	312.90	26.82	-25.2	-25.1	16.8	2.38e-05	0	58	0	40265318400	21	14740
2026-01-27 19:47:47.15	313.20	26.63	-25.4	-25.3	16.8	2.86e-05	0	58	0	40391147520	21	15013
2026-01-27 19:47:48.16	313.50	26.44	-25.4	-25.3	16.8	2.86e-05	0	58	0	40500199424	21	15014
2026-01-27 19:47:49.17	313.79	26.25	-25.5	-25.3	16.8	1.90e-05	0	58	0	40617639936	21	15089
2026-01-27 19:47:50.18	314.08	26.06	-25.5	-25.4	16.7	1.90e-05	0	58	0	40726691840	21	15249
2026-01-27 19:47:51.19	314.36	25.87	-25.7	-25.6	16.7	1.90e-05	0	58	0	40844132352	21	15558
2026-01-27 19:47:52.20	314.64	25.68	-25.7	-25.6	16.7	1.90e-05	0	58	0	40953184256	21	15505
2026-01-27 19:47:53.21	314.92	25.49	-25.7	-25.6	16.7	1.90e-05	0	58	0	41062236160	21	15508
2026-01-27 19:47:54.21	315.19	25.31	-25.9	-25.8	16.6	1.90e-05	0	58	0	41179676672	22	15022
2026-01-27 19:47:55.22	315.46	25.12	-25.9	-25.8	16.7	7.62e-05	0	58	0	41288728576	22	14961
2026-01-27 19:47:56.23	315.73	24.94	-26.0	-25.9	16.6	7.62e-05	0	58	0	41406169088	22	15212
2026-01-27 19:47:57.23	315.99	24.76	-26.0	-25.9	16.6	7.62e-05	0	58	0	41515220992	22	15259
2026-01-27 19:47:58.23	316.25	24.58	-26.2	-26.1	16.6	5.72e-05	0	58	0	41624272896	22	15498
2026-01-27 19:47:59.24	316.51	24.39	-26.2	-26.1	16.6	5.72e-05	0	58	0	41741713408	22	15586
2026-01-27 19:48:00.25	316.76	24.21	-26.3	-26.2	16.6	5.72e-05	0	58	0	41850765312	23	14831
2026-01-27 19:48:01.26	317.01	24.03	-26.4	-26.2	16.6	1.62e-04	0	58	0	41976594432	23	14932
2026-01-27 19:48:02.26	317.26	23.86	-26.4	-26.3	16.5	1.62e-04	0	58	0	42085646336	23	15090
2026-01-27 19:48:03.27	317.50	23.68	-26.5	-26.3	16.5	1.62e-04	0	58	0	42203086848	23	15098
2026-01-27 19:48:04.28	317.75	23.50	-26.5	-26.4	16.5	1.19e-04	0	58	0	42312138752	23	15216
2026-01-27 19:48:05.29	317.99	23.33	-26.6	-26.5	16.5	1.19e-04	0	58	0	42429579264	23	15317
2026-01-27 19:48:06.30	318.22	23.16	-26.7	-26.6	16.5	1.81e-04	0	58	0	42538631168	23	15489
2026-01-27 19:48:07.31	318.46	22.98	-26.6	-26.5	16.5	1.81e-04	0	58	0	42647683072	23	15432
2026-01-27 19:48:08.32	318.69	22.81	-26.8	-26.7	16.5	1.81e-04	0	58	0	42765123584	24	14841
2026-01-27 19:48:09.33	318.91	22.64	-26.8	-26.7	16.5	1.81e-04	0	58	0	42874175488	24	14887
2026-01-27 19:48:10.33	319.14	22.47	-26.9	-26.8	16.5	1.81e-04	0	59	0	42991616000	24	14958
2026-01-27 19:48:11.34	319.36	22.30	-26.9	-26.8	16.5	1.81e-04	0	58	0	43100667904	24	14966
2026-01-27 19:48:12.35	319.58	22.13	-26.9	-26.8	16.4	2.19e-04	0	58	0	43209719808	24	15037
2026-01-27 19:48:13.36	319.80	21.96	-27.0	-26.9	16.4	2.19e-04	0	58	0	43335548928	24	15152
2026-01-27 19:48:14.37	320.01	21.80	-27.0	-26.8	16.4	2.19e-04	0	58	0	43452989440	24	15098
2026-01-27 19:48:15.37	320.22	21.63	-27.0	-26.9	16.4	1.72e-04	0	58	0	43562041344	24	15131
2026-01-27 19:48:16.38	320.43	21.47	-26.9	-26.8	16.4	1.72e-04	0	58	0	43671093248	24	15119
2026-01-27 19:48:17.39	320.64	21.31	-26.9	-26.8	16.4	1.72e-04	0	58	0	43788533760	24	15079
2026-01-27 19:48:18.39	320.84	21.15	-27.0	-26.9	16.4	2.38e-04	0	58	0	43897585664	24	15140
2026-01-27 19:48:19.39	321.04	20.99	-27.1	-27.0	16.4	2.38e-04	0	58	0	44015026176	24	15393
2026-01-27 19:48:20.40	321.24	20.83	-27.1	-27.0	16.4	2.38e-04	0	58	0	44124078080	24	15365
2026-01-27 19:48:21.41	321.44	20.67	-27.2	-27.1	16.4	2.72e-04	0	58	0	44241518592	24	15537
2026-01-27 19:48:22.42	321.63	20.51	-27.4	-27.3	16.4	2.72e-04	0	58	0	44350570496	25	15036
2026-01-27 19:48:23.43	321.83	20.35	-27.4	-27.3	16.4	2.72e-04	0	58	0	44459622400	25	15023
2026-01-27 19:48:24.44	322.02	20.19	-27.4	-27.3	16.4	3.62e-04	0	58	0	44577062912	25	15079
2026-01-27 19:48:25.44	322.20	20.04	-27.5	-27.4	16.3	3.62e-04	0	58	0	44686114816	25	15158
2026-01-27 19:48:26.45	322.39	19.88	-27.5	-27.4	16.3	4.86e-04	0	58	0	44811943936	25	15249
2026-01-27 19:48:27.46	322.58	19.73	-27.6	-27.5	16.3	4.86e-04	0	58	0	44920995840	25	15406
2026-01-27 19:48:28.47	322.76	19.58	-27.6	-27.5	16.3	4.86e-04	0	58	0	45038436352	25	15377
2026-01-27 19:48:29.47	322.94	19.43	-27.7	-27.6	16.3	4.77e-04	0	58	0	45147488256	26	14683
2026-01-27 19:48:30.48	323.12	19.28	-27.8	-27.7	16.2	4.77e-04	0	58	0	45264928768	26	14834
2026-01-27 19:48:31.49	323.29	19.13	-27.8	-27.7	16.2	4.77e-04	0	59	0	45373980672	26	14870
2026-01-27 19:48:32.50	323.47	18.98	-27.9	-27.8	16.2	4.96e-04	0	58	0	45483032576	26	14997
2026-01-27 19:48:33.51	323.64	18.83	-27.9	-27.7	16.2	4.96e-04	0	58	0	45600473088	26	14945
2026-01-27 19:48:34.52	323.81	18.68	-27.9	-27.8	16.2	4.96e-04	0	58	0	45709524992	26	15071
2026-01-27 19:48:35.53	323.98	18.53	-28.0	-27.9	16.2	4.96e-04	0	58	0	45826965504	26	15240
2026-01-27 19:48:36.54	324.15	18.39	-28.0	-27.9	16.2	5.72e-04	0	58	0	45936017408	26	15197
2026-01-27 19:48:37.55	324.31	18.24	-28.1	-28.0	16.2	5.72e-04	0	58	0	46045069312	26	15366
2026-01-27 19:48:38.56	324.48	18.10	-28.0	-27.9	16.2	5.72e-04	0	59	0	46170898432	27	14381
2026-01-27 19:48:39.57	324.64	17.96	-28.3	-28.2	16.1	7.72e-04	0	58	0	46288338944	27	14823
2026-01-27 19:48:40.58	324.80	17.81	-28.3	-28.2	16.1	7.72e-04	0	58	0	46397390848	27	14813
2026-01-27 19:48:41.59	324.96	17.67	-28.4	-28.3	16.1	7.72e-04	0	59	0	46506442752	27	14953
2026-01-27 19:48:42.60	325.12	17.53	-28.4	-28.3	16.1	7.72e-04	0	59	0	46623883264	27	15016
2026-01-27 19:48:43.60	325.27	17.39	-28.6	-28.5	16.0	1.06e-03	0	59	0	46732935168	27	15311
2026-01-27 19:48:44.61	325.42	17.25	-28.5	-28.4	16.0	1.06e-03	0	59	0	46850375680	27	15269
2026-01-27 19:48:45.62	325.58	17.12	-28.6	-28.5	16.0	2.95e-03	0	59	0	46959427584	28	14449
2026-01-27 19:48:46.63	325.73	16.98	-28.6	-28.5	16.0	2.95e-03	0	58	0	47068479488	28	14505
2026-01-27 19:48:47.64	325.88	16.84	-28.7	-28.6	16.0	2.95e-03	0	58	0	47185920000	28	14708
2026-01-27 19:48:48.64	326.02	16.71	-28.7	-28.6	16.0	3.71e-03	0	59	0	47294971904	28	14622
2026-01-27 19:48:49.65	326.17	16.57	-28.8	-28.7	16.0	3.71e-03	0	59	0	47412412416	28	14784
2026-01-27 19:48:50.66	326.31	16.44	-28.8	-28.7	15.9	3.56e-03	0	59	0	47529852928	28	14924
2026-01-27 19:48:51.67	326.46	16.31	-28.8	-28.7	15.9	3.56e-03	0	59	0	47647293440	28	14872
2026-01-27 19:48:52.68	326.60	16.17	-28.7	-28.6	16.0	3.56e-03	0	58	0	47756345344	28	14706
2026-01-27 19:48:53.68	326.74	16.04	-28.7	-28.6	16.0	3.96e-03	0	59	0	47873785856	28	14625
2026-01-27 19:48:54.69	326.88	15.91	-28.7	-28.6	16.0	3.96e-03	0	59	0	47982837760	28	14761
2026-01-27 19:48:55.69	327.01	15.78	-28.8	-28.7	15.9	3.96e-03	0	59	0	48100278272	28	14846
2026-01-27 19:48:56.70	327.15	15.65	-28.9	-28.8	15.9	3.94e-03	0	59	0	48209330176	28	15015
2026-01-27 19:48:57.71	327.29	15.53	-28.8	-28.7	15.9	3.94e-03	0	59	0	48318382080	28	14839
2026-01-27 19:48:58.71	327.42	15.40	-28.9	-28.8	15.9	3.94e-03	0	59	0	48435822592	28	15068
2026-01-27 19:48:59.72	327.55	15.27	-29.0	-28.9	15.8	3.94e-03	0	59	0	48544874496	28	15237
2026-01-27 19:49:00.73	327.68	15.15	-29.1	-29.0	15.8	4.38e-03	0	59	0	48662315008	28	15403
2026-01-27 19:49:01.73	327.81	15.02	-29.1	-29.0	15.8	4.38e-03	0	59	0	48771366912	28	15350
2026-01-27 19:49:02.74	327.94	14.90	-29.1	-29.1	15.8	5.25e-03	0	59	0	48880418816	29	14613
2026-01-27 19:49:03.75	328.07	14.77	-29.3	-29.2	15.8	5.25e-03	0	59	0	49006247936	29	14829
2026-01-27 19:49:04.76	328.19	14.65	-29.4	-29.3	15.7	5.25e-03	0	59	0	49123688448	29	14979
2026-01-27 19:49:05.76	328.32	14.53	-29.5	-29.4	15.7	5.78e-03	0	59	0	49232740352	29	15202
2026-01-27 19:49:06.76	328.44	14.41	-29.5	-29.4	15.7	5.78e-03	0	59	0	49341792256	29	15179
2026-01-27 19:49:07.77	328.56	14.28	-29.3	-29.2	15.8	5.78e-03	0	59	0	49459232768	29	14927
2026-01-27 19:49:08.78	328.68	14.16	-29.5	-29.4	15.7	6.33e-03	0	59	0	49568284672	29	15253
2026-01-27 19:49:09.78	328.80	14.05	-29.5	-29.5	15.6	6.33e-03	0	59	0	49685725184	29	15299
2026-01-27 19:49:10.79	328.92	13.93	-29.4	-29.3	15.7	6.33e-03	0	59	0	49794777088	29	15095
2026-01-27 19:49:11.80	329.04	13.81	-29.6	-29.5	15.6	6.79e-03	0	59	0	49903828992	29	15394
2026-01-27 19:49:12.80	329.16	13.69	-29.6	-29.5	15.6	6.79e-03	0	59	0	50021269504	29	15319
2026-01-27 19:49:13.81	329.27	13.57	-29.5	-29.4	15.6	6.79e-03	0	59	0	50130321408	29	15251
2026-01-27 19:49:14.81	329.39	13.46	-29.6	-29.5	15.6	7.55e-03	0	59	0	50247761920	29	15338
2026-01-27 19:49:15.82	329.50	13.34	-29.6	-29.5	15.6	7.55e-03	0	59	0	50356813824	29	15395
2026-01-27 19:49:16.83	329.62	13.22	-29.7	-29.6	15.5	7.55e-03	0	59	0	50465865728	30	14766
2026-01-27 19:49:17.84	329.73	13.11	-29.7	-29.7	15.5	8.71e-03	0	59	0	50583306240	30	14816
2026-01-27 19:49:18.85	329.84	13.00	-29.8	-29.7	15.5	8.71e-03	0	59	0	50692358144	30	14905
2026-01-27 19:49:19.86	329.95	12.88	-29.8	-29.7	15.5	8.71e-03	0	59	0	50818187264	30	14865
2026-01-27 19:49:20.87	330.06	12.77	-29.8	-29.7	15.5	9.78e-03	0	59	0	50927239168	30	14858
2026-01-27 19:49:21.87	330.17	12.66	-29.8	-29.7	15.4	9.78e-03	0	59	0	51044679680	30	14943
2026-01-27 19:49:22.88	330.27	12.55	-29.9	-29.9	15.4	9.78e-03	0	59	0	51153731584	30	15127
2026-01-27 19:49:23.89	330.38	12.43	-30.0	-29.9	15.4	1.11e-02	0	59	0	51271172096	30	15190
2026-01-27 19:49:24.90	330.49	12.32	-30.2	-30.1	15.3	1.11e-02	0	59	0	51380224000	31	14767
2026-01-27 19:49:25.90	330.59	12.21	-30.2	-30.2	15.3	1.11e-02	0	59	0	51497664512	31	14801
2026-01-27 19:49:26.92	330.69	12.10	-30.2	-30.1	15.3	1.25e-02	0	59	0	51606716416	31	14708
2026-01-27 19:49:27.92	330.80	12.00	-30.4	-30.3	15.2	1.25e-02	0	59	0	51715768320	31	15078
2026-01-27 19:49:28.93	330.90	11.89	-30.5	-30.4	15.2	1.25e-02	0	59	0	51833208832	31	15290
2026-01-27 19:49:29.94	331.00	11.78	-30.5	-30.4	15.2	1.41e-02	0	59	0	51942260736	31	15255
2026-01-27 19:49:30.95	331.10	11.67	-30.5	-30.4	15.2	1.41e-02	0	59	0	52059701248	31	15233
2026-01-27 19:49:31.96	331.20	11.57	-30.7	-30.6	15.1	1.41e-02	0	59	0	52177141760	31	15623
2026-01-27 19:49:32.97	331.30	11.46	-30.5	-30.4	15.1	1.51e-02	0	59	0	52294582272	32	14438
2026-01-27 19:49:33.97	331.39	11.35	-30.5	-30.5	15.1	1.51e-02	0	59	0	52403634176	32	14458
2026-01-27 19:49:34.98	331.49	11.25	-30.5	-30.4	15.2	1.51e-02	0	59	0	52521074688	32	14313
2026-01-27 19:49:35.99	331.59	11.14	-30.6	-30.5	15.1	1.56e-02	0	59	0	52630126592	32	14561
2026-01-27 19:49:36.99	331.68	11.04	-30.8	-30.8	15.0	1.56e-02	0	59	0	52739178496	32	14948
2026-01-27 19:49:38.00	331.78	10.94	-30.6	-30.6	15.1	1.56e-02	0	59	0	52856619008	32	14616
2026-01-27 19:49:39.01	331.87	10.83	-30.7	-30.6	15.1	1.82e-02	0	59	0	52965670912	32	14702
2026-01-27 19:49:40.01	331.96	10.73	-30.9	-30.8	15.0	1.82e-02	0	59	0	53083111424	32	15026
2026-01-27 19:49:41.02	332.05	10.63	-31.0	-31.0	14.9	1.82e-02	0	59	0	53192163328	32	15296
2026-01-27 19:49:42.03	332.15	10.53	-30.9	-30.8	15.0	1.82e-02	0	59	0	53301215232	32	15012
2026-01-27 19:49:43.04	332.24	10.43	-31.0	-30.9	14.9	2.01e-02	0	59	0	53418655744	32	15227
2026-01-27 19:49:44.04	332.33	10.33	-31.0	-30.9	14.9	2.01e-02	0	59	0	53527707648	32	15265
2026-01-27 19:49:45.05	332.42	10.23	-31.0	-30.9	14.9	2.10e-02	0	59	0	53653536768	32	15212
2026-01-27 19:49:46.06	332.50	10.13	-31.0	-30.9	14.9	2.10e-02	0	59	0	53762588672	32	15258
2026-01-27 19:49:47.07	332.59	10.03	-31.2	-31.1	14.8	2.10e-02	0	59	0	53880029184	32	15549
2026-01-27 19:49:48.07	332.68	9.93	-31.1	-31.1	14.8	2.27e-02	0	59	0	53989081088	32	15500
2026-01-27 19:49:49.08	332.77	9.83	-31.3	-31.2	14.8	2.27e-02	0	59	0	54106521600	33	14860
2026-01-27 19:49:50.09	332.85	9.74	-31.3	-31.2	14.7	2.27e-02	0	59	0	54215573504	33	14904
2026-01-27 19:49:51.09	332.94	9.64	-31.2	-31.2	14.8	2.27e-02	0	59	0	54324625408	33	14813
2026-01-27 19:49:52.10	333.02	9.54	-31.3	-31.2	14.7	2.50e-02	0	59	0	54442065920	33	14907
2026-01-27 19:49:53.11	333.11	9.45	-31.4	-31.3	14.7	2.50e-02	0	59	0	54551117824	33	15079
2026-01-27 19:49:54.11	333.19	9.35	-31.3	-31.2	14.7	2.50e-02	0	59	0	54668558336	33	14926
2026-01-27 19:49:55.12	333.27	9.26	-31.4	-31.3	14.7	2.64e-02	0	59	0	54777610240	33	15110
2026-01-27 19:49:56.13	333.35	9.16	-31.5	-31.5	14.6	2.64e-02	0	59	0	54895050752	33	15352
2026-01-27 19:49:57.13	333.43	9.07	-31.5	-31.4	14.6	2.97e-02	0	59	0	55004102656	33	15293
2026-01-27 19:49:58.14	333.51	8.97	-31.7	-31.6	14.6	2.97e-02	0	59	0	55113154560	34	14702
2026-01-27 19:49:59.15	333.60	8.88	-31.5	-31.5	14.6	2.97e-02	0	59	0	55230595072	34	14460
2026-01-27 19:50:00.16	333.68	8.79	-31.6	-31.5	14.6	2.97e-02	0	59	0	55356424192	34	14548
2026-01-27 19:50:01.16	333.75	8.70	-31.7	-31.6	14.5	3.12e-02	0	59	0	55465476096	34	14697
2026-01-27 19:50:02.17	333.83	8.60	-31.6	-31.6	14.5	3.12e-02	0	59	0	55574528000	34	14649
2026-01-27 19:50:03.18	333.91	8.51	-31.7	-31.6	14.5	3.28e-02	0	59	0	55691968512	34	14702
2026-01-27 19:50:04.19	333.99	8.42	-32.0	-32.0	14.4	3.28e-02	0	59	0	55801020416	34	15323
2026-01-27 19:50:05.20	334.06	8.33	-31.9	-31.8	14.4	3.28e-02	0	59	0	55918460928	34	15100
2026-01-27 19:50:06.21	334.14	8.24	-31.8	-31.8	14.5	3.63e-02	0	59	0	56027512832	34	15000
2026-01-27 19:50:07.22	334.22	8.15	-32.0	-31.9	14.4	3.63e-02	0	59	0	56136564736	34	15194
2026-01-27 19:50:08.23	334.29	8.06	-32.0	-31.9	14.4	3.63e-02	0	59	0	56254005248	34	15253
2026-01-27 19:50:09.24	334.37	7.97	-31.9	-31.9	14.4	3.63e-02	0	59	0	56363057152	34	15188
2026-01-27 19:50:10.25	334.44	7.88	-32.1	-32.1	14.3	3.71e-02	0	59	0	56480497664	34	15516
2026-01-27 19:50:11.25	334.51	7.79	-32.2	-32.1	14.3	3.71e-02	0	59	0	56597938176	35	14689
2026-01-27 19:50:12.26	334.59	7.70	-32.2	-32.1	14.3	3.80e-02	0	59	0	56715378688	35	14765
2026-01-27 19:50:13.27	334.66	7.61	-32.4	-32.4	14.2	3.80e-02	0	59	0	56824430592	35	15141
2026-01-27 19:50:14.28	334.73	7.52	-32.4	-32.4	14.1	3.80e-02	0	59	0	56941871104	35	15193
2026-01-27 19:50:15.29	334.80	7.44	-32.2	-32.1	14.3	4.06e-02	0	59	0	57050923008	35	14731
2026-01-27 19:50:16.29	334.87	7.35	-32.4	-32.3	14.2	4.06e-02	0	59	0	57159974912	35	15112
2026-01-27 19:50:17.30	334.94	7.26	-32.5	-32.4	14.1	4.06e-02	0	59	0	57277415424	35	15256
2026-01-27 19:50:18.31	335.01	7.18	-32.5	-32.4	14.1	4.06e-02	0	59	0	57386467328	35	15267
2026-01-27 19:50:19.31	335.08	7.09	-32.6	-32.6	14.0	4.63e-02	0	59	0	57503907840	35	15477
2026-01-27 19:50:20.32	335.15	7.01	-35.0	-35.0	14.7	4.63e-02	0	59	0	57612959744	40	15305
2026-01-27 19:50:21.33	335.22	6.92	-35.3	-35.2	14.6	4.63e-02	0	59	0	57722011648	41	14847
2026-01-27 19:50:22.34	335.29	6.84	-35.1	-35.1	14.6	2.83e-02	0	59	0	57839452160	41	14627
2026-01-27 19:50:23.35	335.36	6.75	-35.0	-35.0	14.7	2.83e-02	0	59	0	57948504064	41	14461
2026-01-27 19:50:24.35	335.42	6.67	-34.9	-34.8	14.7	2.83e-02	0	59	0	58074333184	41	14272
2026-01-27 19:50:25.36	335.49	6.59	-35.0	-35.0	14.6	2.46e-02	0	59	0	58183385088	41	14461
2026-01-27 19:50:26.37	335.56	6.50	-35.1	-35.0	14.6	2.46e-02	0	59	0	58300825600	41	14581
2026-01-27 19:50:27.38	335.62	6.42	-35.1	-35.1	14.6	2.46e-02	0	59	0	58409877504	41	14649
2026-01-27 19:50:28.39	335.69	6.34	-35.2	-35.1	14.6	2.57e-02	0	59	0	58527318016	41	14716
2026-01-27 19:50:29.40	335.75	6.25	-35.2	-35.2	14.6	2.57e-02	0	59	0	58636369920	41	14787
2026-01-27 19:50:30.40	335.82	6.17	-35.4	-35.3	14.5	2.57e-02	0	59	0	58753810432	41	15103
2026-01-27 19:50:31.41	335.88	6.09	-35.5	-35.4	14.4	2.74e-02	0	59	0	58862862336	41	15245
2026-01-27 19:50:32.42	335.95	6.01	-35.4	-35.4	14.4	2.74e-02	0	59	0	58971914240	41	15133
2026-01-27 19:50:33.43	336.01	5.93	-35.4	-35.4	14.4	2.74e-02	0	59	0	59089354752	41	15161
2026-01-27 19:50:34.43	336.07	5.85	-35.5	-35.5	14.4	2.96e-02	0	59	0	59198406656	41	15332
2026-01-27 19:50:35.44	336.14	5.77	-35.7	-35.7	14.3	2.96e-02	0	59	0	59315847168	42	14813
2026-01-27 19:50:36.45	336.20	5.69	-35.5	-35.4	14.4	2.96e-02	0	59	0	59424899072	42	14381
2026-01-27 19:50:37.45	336.26	5.61	-35.7	-35.6	14.3	2.96e-02	0	59	0	59533950976	42	14763
2026-01-27 19:50:38.46	336.32	5.53	-35.4	-35.4	14.4	3.25e-02	0	59	0	59659780096	42	14296
2026-01-27 19:50:39.47	336.38	5.45	-35.7	-35.7	14.3	3.25e-02	0	59	0	59777220608	42	14794
2026-01-27 19:50:40.48	336.44	5.37	-35.7	-35.6	14.3	3.25e-02	0	59	0	59886272512	42	14744
2026-01-27 19:50:41.49	336.50	5.29	-35.6	-35.5	14.3	3.24e-02	0	59	0	59995324416	42	14572
2026-01-27 19:50:42.49	336.56	5.21	-35.7	-35.6	14.3	3.24e-02	0	59	0	60112764928	42	14763
2026-01-27 19:50:43.50	336.62	5.13	-35.9	-35.9	14.1	3.24e-02	0	59	0	60221816832	42	15135
2026-01-27 19:50:44.51	336.68	5.06	-35.7	-35.7	14.2	3.63e-02	0	59	0	60339257344	42	14777
2026-01-27 19:50:45.51	336.74	4.98	-38.1	-38.1	12.9	3.63e-02	0	59	0	60448309248	46	15628
2026-01-27 19:50:46.52	336.80	4.90	-53.0	-55.2	6.2	5.84e-02	0	58	104	60473475072	76	19771
2026-01-27 19:50:47.53	336.86	4.82	-53.4	-55.6	6.2	5.84e-02	0	58	104	60473475072	77	19526
2026-01-27 19:50:48.54	336.91	4.75	-53.6	-55.7	6.2	5.84e-02	0	58	104	60473475072	77	19872
2026-01-27 19:50:49.55	336.97	4.67	-53.7	-55.8	6.2	0.00e+00	0	58	104	60473475072	77	20074
2026-01-27 19:50:50.55	337.03	4.59	-53.8	-56.0	6.2	0.00e+00	0	58	104	60473475072	78	19296
2026-01-27 19:50:51.56	337.08	4.52	-53.9	-56.1	6.2	0.00e+00	0	58	104	60473475072	78	19482
2026-01-27 19:50:52.57	337.14	4.44	-54.0	-56.1	6.2	0.00e+00	0	58	104	60473475072	78	19605
2026-01-27 19:50:53.58	337.20	4.37	-54.0	-56.1	6.2	0.00e+00	0	58	104	60473475072	78	19653
2026-01-27 19:50:54.59	337.25	4.29	-54.0	-56.1	6.2	0.00e+00	0	58	104	60473475072	78	19649
2026-01-27 19:50:55.60	337.31	4.22	-54.0	-56.1	6.2	0.00e+00	0	58	104	60473475072	78	19659
2026-01-27 19:50:56.61	337.36	4.14	-53.9	-56.1	6.2	0.00e+00	0	58	104	60473475072	78	19509
2026-01-27 19:50:57.62	337.42	4.07	-53.9	-56.0	6.2	0.00e+00	0	58	104	60473475072	78	19435
2026-01-27 19:50:58.63	337.47	3.99	-53.7	-55.9	6.2	0.00e+00	0	57	104	60473475072	78	19077
2026-01-27 19:50:59.64	337.53	3.92	-53.7	-55.8	6.2	0.00e+00	0	58	104	60473475072	78	19026
2026-01-27 19:51:00.65	337.58	3.85	-53.7	-55.9	6.2	0.00e+00	0	57	104	60473475072	78	19134
2026-01-27 19:51:01.66	337.63	3.77	-53.8	-55.9	6.2	0.00e+00	0	57	104	60473475072	78	19221
2026-01-27 19:51:02.67	337.69	3.70	-53.8	-56.0	6.2	0.00e+00	0	57	104	60473475072	78	19284
2026-01-27 19:51:03.67	337.74	3.63	-53.8	-56.0	6.2	0.00e+00	0	57	104	60473475072	78	19321
2026-01-27 19:51:04.68	337.79	3.55	-53.9	-56.0	6.2	0.00e+00	0	57	104	60473475072	78	19326
2026-01-27 19:51:05.69	337.84	3.48	-53.9	-56.0	6.2	0.00e+00	0	57	104	60473475072	78	19392
2026-01-27 19:51:06.70	337.90	3.41	-53.9	-56.0	6.2	0.00e+00	0	57	104	60473475072	78	19393
2026-01-27 19:51:07.70	337.95	3.34	-53.8	-56.0	6.2	0.00e+00	0	57	104	60473475072	78	19301
2026-01-27 19:51:08.71	338.00	3.27	-53.8	-55.9	6.2	0.00e+00	0	57	104	60473475072	78	19182
2026-01-27 19:51:09.72	338.05	3.19	-53.8	-55.9	6.2	0.00e+00	0	57	104	60473475072	78	19101
2026-01-27 19:51:10.73	338.10	3.12	-53.8	-55.9	6.2	0.00e+00	0	57	104	60473475072	78	19116
2026-01-27 19:51:11.73	338.15	3.05	-53.7	-55.9	6.2	0.00e+00	0	57	104	60473475072	78	19150
2026-01-27 19:51:12.74	338.20	2.98	-53.7	-55.9	6.2	0.00e+00	0	57	104	60473475072	78	19037
2026-01-27 19:51:13.75	338.25	2.91	-53.7	-55.8	6.2	0.00e+00	0	57	104	60473475072	78	19018
2026-01-27 19:51:14.76	338.30	2.84	-53.7	-55.8	6.2	0.00e+00	0	57	104	60473475072	78	18977
2026-01-27 19:51:15.77	338.35	2.77	-53.7	-55.8	6.2	0.00e+00	0	57	104	60473475072	78	19022
2026-01-27 19:51:16.78	338.40	2.70	-53.7	-55.9	6.2	0.00e+00	0	57	104	60473475072	78	19045
2026-01-27 19:51:17.79	338.45	2.63	-53.7	-55.8	6.2	0.00e+00	0	57	104	60473475072	78	19024
2026-01-27 19:51:18.79	338.50	2.56	-53.7	-55.8	6.2	0.00e+00	0	57	104	60473475072	78	19010
2026-01-27 19:51:19.80	338.55	2.49	-53.7	-55.8	6.2	0.00e+00	0	57	104	60473475072	78	19030
2026-01-27 19:51:20.81	338.59	2.42	-53.7	-55.8	6.2	0.00e+00	0	57	104	60473475072	78	18976
2026-01-27 19:51:21.81	338.64	2.35	-53.7	-55.8	6.2	0.00e+00	0	57	104	60473475072	78	18955
2026-01-27 19:51:22.81	338.69	2.29	-53.7	-55.8	6.2	0.00e+00	0	57	104	60473475072	78	18940
2026-01-27 19:51:23.82	338.74	2.22	-53.7	-55.8	6.2	0.00e+00	0	57	104	60473475072	78	18909
2026-01-27 19:51:24.83	338.78	2.15	-53.7	-55.8	6.2	0.00e+00	0	57	104	60473475072	78	18941
2026-01-27 19:51:25.83	338.83	2.08	-53.7	-55.8	6.2	0.00e+00	0	57	104	60473475072	78	18968
2026-01-27 19:51:26.84	338.88	2.01	-53.7	-55.8	6.2	0.00e+00	0	57	104	60473475072	78	18957
2026-01-27 19:51:27.85	338.92	1.95	-53.6	-55.8	6.2	0.00e+00	0	57	104	60473475072	78	18838
2026-01-27 19:51:28.86	338.97	1.88	-53.7	-55.8	6.2	0.00e+00	0	57	104	60473475072	78	18919

#Closed at: 2026-01-27 19:51:29
#Recorded file [60473 MB]: D:/lorett/data/31041_260127_224058.dat