passes_logs/2026/01/27/R3.2S_Murmansk/R3.2S_Murmansk__20260127_060553_NOAA_20_JPSS-1_rec.log

#Pass ID: 20260127_060553_NOAA 20 (JPSS-1)
#Satellite: NOAA 20 (JPSS-1)
#Configuration: NOAA 20
#almurnet v.1.7.20251203
#Start time: 2026-01-27 06:05:53

#Version: 2.2.20231116
#Station: R3.2S_Murmansk
#Location: 33.079688 lon 68.888172 lat
#TLE: 1 43013U 17073A   26026.46665230  .00000148  00000+0  91302-4 0  9998
#TLE: 2 43013  98.7646 327.2856 0001008  22.9532 337.1688 14.19540616424360

#Time	Az	El	Level	Level2	SNR	BER	BlckErr	Temp	State	Recorded	gain1	gain2
2026-01-27 06:05:53.61	77.52	2.00	-54.0	-69.0	3.8	1.49e+00	0	41	0	0	79	20509
2026-01-27 06:05:54.61	77.46	2.06	-54.2	-69.2	3.8	1.49e+00	0	40	104	0	78	22226
2026-01-27 06:05:55.62	77.40	2.12	-54.2	-69.2	3.8	1.49e+00	0	41	104	0	79	20936
2026-01-27 06:05:56.63	77.34	2.18	-54.2	-69.2	3.8	1.49e+00	0	41	104	0	79	20988
2026-01-27 06:05:57.64	77.28	2.24	-54.2	-69.2	3.8	1.49e+00	0	41	104	0	79	20932
2026-01-27 06:05:58.65	77.22	2.30	-54.2	-69.2	3.8	1.49e+00	0	41	104	0	79	20883
2026-01-27 06:05:59.66	77.16	2.35	-54.2	-69.2	3.8	1.49e+00	0	41	104	0	79	20818
2026-01-27 06:06:00.66	77.09	2.41	-54.1	-69.1	3.8	1.49e+00	0	41	104	0	79	20689
2026-01-27 06:06:01.67	77.03	2.47	-54.1	-69.1	3.8	1.49e+00	0	41	104	0	79	20582
2026-01-27 06:06:02.68	76.97	2.53	-54.1	-69.1	3.8	1.49e+00	0	41	104	0	79	20567
2026-01-27 06:06:03.69	76.90	2.59	-54.0	-69.0	3.8	1.49e+00	0	41	104	0	79	20432
2026-01-27 06:06:04.69	76.84	2.65	-53.9	-68.9	3.8	1.49e+00	0	41	104	0	79	20152
2026-01-27 06:06:05.70	76.78	2.71	-53.9	-68.9	3.8	1.49e+00	0	41	104	0	79	20079
2026-01-27 06:06:06.71	76.71	2.77	-53.8	-68.8	3.8	1.49e+00	0	41	104	0	79	19921
2026-01-27 06:06:07.72	76.65	2.82	-53.7	-68.7	3.8	1.49e+00	0	41	104	0	79	19780
2026-01-27 06:06:08.73	76.58	2.88	-53.6	-68.6	3.8	1.49e+00	0	41	104	0	79	19408
2026-01-27 06:06:09.74	76.52	2.94	-53.4	-68.2	3.8	1.49e+00	0	41	104	0	78	19823
2026-01-27 06:06:10.75	76.45	3.00	-53.3	-68.3	3.8	1.49e+00	0	41	104	0	78	19902
2026-01-27 06:06:11.76	76.39	3.06	-53.1	-68.1	3.8	1.49e+00	0	41	104	0	78	19517
2026-01-27 06:06:12.76	76.32	3.12	-52.9	-67.9	3.8	1.49e+00	0	41	104	0	77	20151
2026-01-27 06:06:13.77	76.26	3.18	-52.7	-67.7	3.8	1.49e+00	0	41	104	0	77	19701
2026-01-27 06:06:14.78	76.19	3.24	-52.4	-67.3	3.8	1.49e+00	0	41	104	0	76	19933
2026-01-27 06:06:15.78	76.13	3.30	-52.1	-67.0	3.8	1.49e+00	0	42	104	0	76	19168
2026-01-27 06:06:16.79	76.06	3.36	-52.1	-67.0	3.8	1.49e+00	0	41	104	0	76	19168
2026-01-27 06:06:17.79	75.99	3.42	-52.0	-67.0	3.8	1.49e+00	0	41	104	0	76	19207
2026-01-27 06:06:18.79	75.93	3.48	-52.0	-67.0	3.8	1.49e+00	0	41	104	0	76	19276
2026-01-27 06:06:19.80	75.86	3.54	-52.0	-67.0	3.8	1.49e+00	0	42	104	0	76	19233
2026-01-27 06:06:20.81	75.79	3.60	-52.0	-67.0	3.8	1.49e+00	0	41	104	0	76	19174
2026-01-27 06:06:21.81	75.72	3.66	-52.0	-66.9	3.8	1.49e+00	0	42	104	0	76	19126
2026-01-27 06:06:22.82	75.65	3.72	-52.0	-66.9	3.8	1.49e+00	0	41	104	0	76	19126
2026-01-27 06:06:23.83	75.58	3.78	-52.0	-67.0	3.8	1.49e+00	0	42	104	0	76	19174
2026-01-27 06:06:24.84	75.52	3.84	-52.0	-67.0	3.8	1.49e+00	0	42	104	0	76	19195
2026-01-27 06:06:25.84	75.45	3.90	-52.0	-66.9	3.8	1.49e+00	0	41	104	0	76	19045
2026-01-27 06:06:26.85	75.38	3.96	-52.0	-66.7	3.8	1.49e+00	0	42	104	0	76	18580
2026-01-27 06:06:27.86	75.31	4.03	-52.0	-66.2	3.8	1.49e+00	0	42	104	0	76	17521
2026-01-27 06:06:28.87	75.24	4.09	-51.9	-65.6	3.8	1.49e+00	0	42	104	0	75	17298
2026-01-27 06:06:29.88	75.17	4.15	-51.9	-64.9	3.8	1.49e+00	0	42	104	0	75	16040
2026-01-27 06:06:30.89	75.09	4.21	-51.9	-64.3	4.0	1.48e+00	0	42	104	0	75	14985
2026-01-27 06:06:31.90	75.02	4.27	-51.8	-63.9	4.1	1.45e+00	0	42	0	0	75	14368
2026-01-27 06:06:32.91	74.95	4.33	-51.9	-64.0	4.1	1.47e+00	0	42	104	0	75	14427
2026-01-27 06:06:33.91	74.88	4.39	-51.8	-64.1	3.9	1.46e+00	0	42	104	0	75	14680
2026-01-27 06:06:34.92	74.81	4.46	-51.8	-63.9	4.1	1.45e+00	0	42	0	0	75	14257
2026-01-27 06:06:35.93	74.73	4.52	-51.8	-63.3	4.2	1.42e+00	0	42	0	0	75	13348
2026-01-27 06:06:36.93	74.66	4.58	-51.6	-61.4	5.0	1.07e+00	0	42	0	1048576	75	10710
2026-01-27 06:06:37.94	74.59	4.64	-51.4	-59.7	6.1	3.64e-01	0	42	0	3145728	74	9328
2026-01-27 06:06:38.95	74.52	4.70	-51.1	-58.0	7.6	1.46e-01	0	42	0	5242880	74	7714
2026-01-27 06:06:39.96	74.44	4.76	-50.7	-56.7	9.0	4.68e-02	0	42	0	6291456	73	6966
2026-01-27 06:06:40.96	74.37	4.83	-50.4	-55.5	10.2	1.85e-02	0	42	0	8388608	72	6442
2026-01-27 06:06:41.97	74.29	4.89	-50.1	-54.9	10.8	3.51e-03	0	42	0	10485760	72	6021
2026-01-27 06:06:42.98	74.22	4.95	-50.0	-54.4	11.4	1.44e-03	0	42	0	12582912	71	6061
2026-01-27 06:06:43.99	74.14	5.01	-49.9	-54.1	11.8	6.86e-04	0	42	0	14680064	71	5818
2026-01-27 06:06:45.00	74.07	5.08	-49.9	-54.3	11.6	5.87e-04	0	42	0	15728640	71	5943
2026-01-27 06:06:46.00	73.99	5.14	-48.2	-50.8	15.3	7.00e-07	0	42	0	17825792	68	4749
2026-01-27 06:06:47.01	73.92	5.20	-51.9	-66.1	3.8	2.03e-02	0	42	104	19922944	74	19547
2026-01-27 06:06:48.02	73.84	5.27	-50.6	-55.5	10.5	4.26e-01	0	42	104	19922944	71	6836
2026-01-27 06:06:49.02	73.76	5.33	-49.0	-52.2	13.9	0.00e+00	0	42	0	20971520	68	5569
2026-01-27 06:06:50.03	73.69	5.39	-48.1	-50.7	15.4	0.00e+00	0	42	0	23068672	68	4673
2026-01-27 06:06:51.03	73.61	5.45	-47.8	-50.2	15.8	0.00e+00	0	42	0	25165824	67	4668
2026-01-27 06:06:52.04	73.53	5.52	-48.0	-50.5	15.5	0.00e+00	0	42	0	27262976	67	4853
2026-01-27 06:06:53.04	73.45	5.58	-47.6	-49.9	16.2	0.00e+00	0	42	0	29360128	67	4532
2026-01-27 06:06:54.05	73.37	5.64	-47.7	-50.0	16.1	0.00e+00	0	42	0	30408704	67	4559
2026-01-27 06:06:55.07	73.29	5.71	-47.7	-50.1	16.0	0.00e+00	0	42	0	32505856	67	4638
2026-01-27 06:06:56.07	73.22	5.77	-47.7	-50.0	16.1	0.00e+00	0	42	0	34603008	67	4574
2026-01-27 06:06:57.08	73.14	5.84	-47.8	-50.2	16.0	0.00e+00	0	42	0	36700160	67	4671
2026-01-27 06:06:58.09	73.06	5.90	-47.7	-50.1	16.1	0.00e+00	0	42	0	37748736	67	4611
2026-01-27 06:06:59.09	72.98	5.96	-47.9	-50.3	15.9	0.00e+00	0	42	0	39845888	67	4730
2026-01-27 06:07:00.10	72.90	6.03	-47.8	-50.2	16.1	0.00e+00	0	42	0	41943040	67	4663
2026-01-27 06:07:01.11	72.81	6.09	-48.0	-50.5	15.8	0.00e+00	0	42	0	44040192	67	4817
2026-01-27 06:07:02.12	72.73	6.16	-48.1	-50.7	15.5	0.00e+00	0	42	0	46137344	67	4941
2026-01-27 06:07:03.12	72.65	6.22	-48.0	-50.4	15.8	0.00e+00	0	42	0	48234496	67	4777
2026-01-27 06:07:04.13	72.57	6.29	-47.8	-50.2	16.1	0.00e+00	0	42	0	49283072	67	4662
2026-01-27 06:07:05.14	72.49	6.35	-47.7	-50.0	16.2	0.00e+00	0	42	0	51380224	67	4587
2026-01-27 06:07:06.15	72.40	6.42	-47.7	-50.0	16.2	0.00e+00	0	42	0	53477376	67	4589
2026-01-27 06:07:07.16	72.32	6.48	-47.7	-49.9	16.3	0.00e+00	0	42	0	55574528	67	4529
2026-01-27 06:07:08.17	72.24	6.55	-47.6	-49.9	16.4	0.00e+00	0	42	0	57671680	67	4503
2026-01-27 06:07:09.17	72.15	6.61	-47.8	-50.2	16.1	0.00e+00	0	42	0	58720256	67	4674
2026-01-27 06:07:10.18	72.07	6.68	-47.9	-50.2	16.1	0.00e+00	0	42	0	60817408	67	4689
2026-01-27 06:07:11.19	71.98	6.74	-47.8	-50.2	16.1	0.00e+00	0	42	0	62914560	67	4662
2026-01-27 06:07:12.19	71.90	6.81	-47.7	-49.9	16.4	0.00e+00	0	42	0	65011712	67	4532
2026-01-27 06:07:13.20	71.81	6.87	-47.8	-50.2	16.1	0.00e+00	0	42	0	66060288	67	4669
2026-01-27 06:07:14.21	71.72	6.94	-47.9	-50.2	16.1	0.00e+00	0	42	0	68157440	67	4667
2026-01-27 06:07:15.22	71.64	7.00	-47.7	-49.9	16.4	0.00e+00	0	42	0	70254592	67	4533
2026-01-27 06:07:16.22	71.55	7.07	-47.5	-49.7	16.7	0.00e+00	0	42	0	72351744	67	4402
2026-01-27 06:07:17.23	71.46	7.13	-47.6	-49.8	16.5	0.00e+00	0	42	0	74448896	67	4487
2026-01-27 06:07:18.24	71.38	7.20	-47.6	-49.9	16.5	0.00e+00	0	42	0	76546048	67	4499
2026-01-27 06:07:19.25	71.29	7.27	-47.7	-49.9	16.5	0.00e+00	0	42	0	77594624	67	4538
2026-01-27 06:07:20.25	71.20	7.33	-47.7	-49.9	16.4	0.00e+00	0	42	0	79691776	67	4538
2026-01-27 06:07:21.26	71.11	7.40	-47.6	-49.8	16.6	0.00e+00	0	42	0	81788928	67	4469
2026-01-27 06:07:22.27	71.02	7.47	-47.6	-49.8	16.6	0.00e+00	0	42	0	83886080	67	4442
2026-01-27 06:07:23.28	70.93	7.53	-47.4	-49.5	16.9	0.00e+00	0	42	0	85983232	66	4585
2026-01-27 06:07:24.28	70.84	7.60	-47.5	-49.6	16.8	0.00e+00	0	42	0	87031808	66	4639
2026-01-27 06:07:25.29	70.75	7.67	-47.5	-49.7	16.7	0.00e+00	0	42	0	89128960	66	4664
2026-01-27 06:07:26.30	70.66	7.73	-47.6	-49.7	16.7	0.00e+00	0	42	0	91226112	66	4694
2026-01-27 06:07:27.31	70.57	7.80	-47.5	-49.7	16.7	0.00e+00	0	42	0	93323264	66	4668
2026-01-27 06:07:28.31	70.48	7.87	-47.6	-49.7	16.7	0.00e+00	0	42	0	94371840	66	4690
2026-01-27 06:07:29.32	70.38	7.93	-47.6	-49.8	16.6	0.00e+00	0	42	0	96468992	66	4754
2026-01-27 06:07:30.33	70.29	8.00	-47.6	-49.8	16.6	0.00e+00	0	42	0	98566144	66	4730
2026-01-27 06:07:31.33	70.20	8.07	-47.6	-49.7	16.7	0.00e+00	0	42	0	100663296	66	4691
2026-01-27 06:07:32.34	70.10	8.14	-47.6	-49.8	16.6	0.00e+00	0	42	0	102760448	66	4712
2026-01-27 06:07:33.35	70.01	8.20	-47.4	-49.5	16.9	0.00e+00	0	42	0	104857600	66	4574
2026-01-27 06:07:34.36	69.91	8.27	-47.6	-49.8	16.7	0.00e+00	0	42	0	105906176	66	4708
2026-01-27 06:07:35.37	69.82	8.34	-47.5	-49.6	16.8	0.00e+00	0	42	0	108003328	66	4621
2026-01-27 06:07:36.37	69.72	8.41	-47.5	-49.6	16.8	0.00e+00	0	42	0	110100480	66	4630
2026-01-27 06:07:37.38	69.63	8.47	-47.6	-49.7	16.7	0.00e+00	0	43	0	112197632	66	4693
2026-01-27 06:07:38.38	69.53	8.54	-47.5	-49.7	16.8	0.00e+00	0	42	0	114294784	66	4660
2026-01-27 06:07:39.39	69.44	8.61	-47.5	-49.6	16.9	0.00e+00	0	42	0	115343360	66	4628
2026-01-27 06:07:40.40	69.34	8.68	-47.5	-49.7	16.8	0.00e+00	0	42	0	117440512	66	4662
2026-01-27 06:07:41.41	69.24	8.75	-47.7	-49.9	16.6	0.00e+00	0	42	0	119537664	66	4777
2026-01-27 06:07:42.41	69.14	8.82	-47.7	-50.0	16.5	0.00e+00	0	42	0	121634816	66	4819
2026-01-27 06:07:43.42	69.04	8.88	-47.4	-49.5	17.0	0.00e+00	0	42	0	123731968	66	4551
2026-01-27 06:07:44.43	68.94	8.95	-47.5	-49.6	16.9	0.00e+00	0	43	0	124780544	66	4632
2026-01-27 06:07:45.43	68.84	9.02	-47.5	-49.6	16.9	0.00e+00	0	42	0	126877696	66	4624
2026-01-27 06:07:46.43	68.74	9.09	-47.4	-49.4	17.1	0.00e+00	0	42	0	128974848	66	4531
2026-01-27 06:07:47.44	68.64	9.16	-47.4	-49.5	17.0	0.00e+00	0	42	0	131072000	66	4561
2026-01-27 06:07:48.45	68.54	9.23	-47.4	-49.4	17.1	0.00e+00	0	42	0	133169152	66	4536
2026-01-27 06:07:49.45	68.44	9.30	-47.4	-49.4	17.1	0.00e+00	0	42	0	134217728	66	4504
2026-01-27 06:07:50.46	68.34	9.37	-47.3	-49.3	17.2	0.00e+00	0	43	0	136314880	66	4482
2026-01-27 06:07:51.47	68.23	9.44	-47.2	-49.1	17.4	0.00e+00	0	42	0	138412032	66	4354
2026-01-27 06:07:52.47	68.13	9.51	-47.1	-49.1	17.4	0.00e+00	0	42	0	140509184	66	4347
2026-01-27 06:07:53.47	68.03	9.57	-47.1	-49.0	17.5	0.00e+00	0	42	0	142606336	66	4328
2026-01-27 06:07:54.47	67.93	9.64	-47.1	-49.0	17.5	0.00e+00	0	42	0	143654912	66	4312
2026-01-27 06:07:55.48	67.82	9.71	-47.1	-49.0	17.5	0.00e+00	0	43	0	145752064	66	4334
2026-01-27 06:07:56.48	67.72	9.78	-47.0	-48.9	17.6	0.00e+00	0	42	0	147849216	66	4280
2026-01-27 06:07:57.49	67.61	9.85	-46.9	-48.8	17.7	0.00e+00	0	42	0	149946368	65	4463
2026-01-27 06:07:58.50	67.50	9.92	-46.9	-48.8	17.8	0.00e+00	0	42	0	150994944	65	4443
2026-01-27 06:07:59.51	67.40	9.99	-47.0	-48.9	17.6	0.00e+00	0	42	0	153092096	65	4523
2026-01-27 06:08:00.51	67.29	10.06	-47.1	-49.0	17.6	0.00e+00	0	42	0	155189248	65	4552
2026-01-27 06:08:01.52	67.18	10.14	-47.0	-48.9	17.7	0.00e+00	0	43	0	157286400	65	4506
2026-01-27 06:08:02.52	67.07	10.21	-47.0	-48.8	17.7	0.00e+00	0	43	0	159383552	65	4470
2026-01-27 06:08:03.53	66.96	10.28	-47.0	-48.8	17.7	0.00e+00	0	42	0	161480704	65	4486
2026-01-27 06:08:04.54	66.85	10.35	-46.9	-48.7	17.8	0.00e+00	0	43	0	162529280	65	4440
2026-01-27 06:08:05.55	66.74	10.42	-47.0	-48.8	17.7	0.00e+00	0	42	0	164626432	65	4486
2026-01-27 06:08:06.56	66.63	10.49	-46.9	-48.8	17.8	0.00e+00	0	42	0	166723584	65	4466
2026-01-27 06:08:07.57	66.52	10.56	-46.9	-48.8	17.7	0.00e+00	0	43	0	168820736	65	4457
2026-01-27 06:08:08.57	66.41	10.63	-47.0	-48.8	17.7	0.00e+00	0	42	0	170917888	65	4485
2026-01-27 06:08:09.58	66.30	10.70	-47.0	-48.9	17.7	0.00e+00	0	42	0	171966464	65	4508
2026-01-27 06:08:10.59	66.18	10.77	-47.2	-49.1	17.4	0.00e+00	0	42	0	174063616	65	4648
2026-01-27 06:08:11.60	66.07	10.85	-47.3	-49.2	17.4	0.00e+00	0	43	0	176160768	65	4685
2026-01-27 06:08:12.61	65.96	10.92	-47.2	-49.2	17.4	0.00e+00	0	42	0	178257920	65	4669
2026-01-27 06:08:13.62	65.84	10.99	-47.2	-49.2	17.4	0.00e+00	0	42	0	180355072	65	4663
2026-01-27 06:08:14.63	65.73	11.06	-47.2	-49.1	17.5	0.00e+00	0	43	0	181403648	65	4638
2026-01-27 06:08:15.63	65.61	11.13	-47.0	-48.8	17.8	0.00e+00	0	43	0	183500800	65	4469
2026-01-27 06:08:16.64	65.49	11.20	-47.1	-49.0	17.6	0.00e+00	0	42	0	185597952	65	4556
2026-01-27 06:08:17.65	65.38	11.28	-47.0	-48.9	17.8	0.00e+00	0	42	0	187695104	65	4512
2026-01-27 06:08:18.66	65.26	11.35	-47.1	-48.9	17.7	0.00e+00	0	42	0	189792256	65	4531
2026-01-27 06:08:19.66	65.14	11.42	-47.1	-48.9	17.7	0.00e+00	0	43	0	190840832	65	4526
2026-01-27 06:08:20.67	65.02	11.49	-47.1	-48.9	17.7	0.00e+00	0	43	0	192937984	65	4539
2026-01-27 06:08:21.68	64.90	11.57	-47.0	-48.8	17.9	0.00e+00	0	42	0	195035136	65	4460
2026-01-27 06:08:22.69	64.78	11.64	-47.0	-48.8	17.8	0.00e+00	0	43	0	197132288	65	4484
2026-01-27 06:08:23.69	64.66	11.71	-47.1	-48.9	17.7	0.00e+00	0	42	0	199229440	65	4543
2026-01-27 06:08:24.70	64.54	11.78	-47.1	-48.9	17.8	0.00e+00	0	42	0	200278016	65	4522
2026-01-27 06:08:25.71	64.42	11.86	-46.9	-48.7	17.9	0.00e+00	0	42	0	202375168	65	4433
2026-01-27 06:08:26.71	64.30	11.93	-46.9	-48.7	17.9	0.00e+00	0	42	0	204472320	65	4430
2026-01-27 06:08:27.72	64.18	12.00	-47.0	-48.9	17.8	0.00e+00	0	43	0	206569472	65	4506
2026-01-27 06:08:28.73	64.05	12.08	-46.8	-48.6	18.1	0.00e+00	0	42	0	208666624	65	4358
2026-01-27 06:08:29.73	63.93	12.15	-46.8	-48.6	18.0	0.00e+00	0	42	0	209715200	65	4379
2026-01-27 06:08:30.74	63.80	12.22	-46.9	-48.7	18.0	0.00e+00	0	43	0	211812352	65	4403
2026-01-27 06:08:31.74	63.68	12.29	-46.7	-48.4	18.2	0.00e+00	0	42	0	213909504	65	4291
2026-01-27 06:08:32.75	63.55	12.37	-46.7	-48.5	18.2	0.00e+00	0	43	0	216006656	65	4310
2026-01-27 06:08:33.76	63.42	12.44	-46.7	-48.4	18.3	0.00e+00	0	42	0	218103808	65	4270
2026-01-27 06:08:34.77	63.30	12.51	-46.7	-48.4	18.2	0.00e+00	0	42	0	219152384	65	4290
2026-01-27 06:08:35.77	63.17	12.59	-46.7	-48.4	18.3	0.00e+00	0	42	0	221249536	65	4280
2026-01-27 06:08:36.78	63.04	12.66	-46.6	-48.3	18.4	0.00e+00	0	42	0	223346688	65	4207
2026-01-27 06:08:37.79	62.91	12.74	-46.5	-48.2	18.5	0.00e+00	0	43	0	225443840	65	4182
2026-01-27 06:08:38.80	62.78	12.81	-46.5	-48.1	18.6	0.00e+00	0	43	0	227540992	64	4364
2026-01-27 06:08:39.81	62.65	12.88	-46.4	-48.0	18.7	0.00e+00	0	43	0	228589568	64	4331
2026-01-27 06:08:40.81	62.52	12.96	-46.5	-48.1	18.6	0.00e+00	0	42	0	230686720	64	4372
2026-01-27 06:08:41.82	62.39	13.03	-46.4	-48.1	18.6	0.00e+00	0	43	0	232783872	64	4363
2026-01-27 06:08:42.83	62.25	13.11	-46.4	-48.0	18.7	0.00e+00	0	42	0	234881024	64	4322
2026-01-27 06:08:43.83	62.12	13.18	-46.5	-48.1	18.5	0.00e+00	0	43	0	236978176	64	4389
2026-01-27 06:08:44.84	61.99	13.25	-46.5	-48.2	18.5	0.00e+00	0	43	0	238026752	64	4411
2026-01-27 06:08:45.85	61.85	13.33	-46.6	-48.3	18.5	0.00e+00	0	43	0	240123904	64	4447
2026-01-27 06:08:46.85	61.72	13.40	-46.5	-48.2	18.5	0.00e+00	0	43	0	242221056	64	4417
2026-01-27 06:08:47.86	61.58	13.48	-46.7	-48.4	18.4	0.00e+00	0	43	0	244318208	64	4499
2026-01-27 06:08:48.87	61.44	13.55	-46.5	-48.1	18.6	0.00e+00	0	43	0	246415360	64	4379
2026-01-27 06:08:49.88	61.30	13.63	-46.5	-48.1	18.6	0.00e+00	0	43	0	247463936	64	4367
2026-01-27 06:08:50.89	61.17	13.70	-46.4	-48.1	18.6	0.00e+00	0	43	0	249561088	64	4362
2026-01-27 06:08:51.89	61.03	13.78	-46.4	-48.0	18.7	0.00e+00	0	43	0	251658240	64	4336
2026-01-27 06:08:52.90	60.89	13.85	-46.4	-48.1	18.7	0.00e+00	0	42	0	253755392	64	4341
2026-01-27 06:08:53.91	60.75	13.93	-46.5	-48.2	18.5	0.00e+00	0	43	0	255852544	64	4412
2026-01-27 06:08:54.92	60.61	14.00	-46.5	-48.1	18.6	0.00e+00	0	43	0	256901120	64	4380
2026-01-27 06:08:55.93	60.46	14.08	-46.3	-47.9	18.9	0.00e+00	0	43	0	258998272	64	4247
2026-01-27 06:08:56.94	60.32	14.15	-46.2	-47.8	19.0	0.00e+00	0	43	0	261095424	64	4205
2026-01-27 06:08:57.95	60.18	14.23	-46.2	-47.8	19.0	0.00e+00	0	43	0	263192576	64	4208
2026-01-27 06:08:58.96	60.03	14.30	-46.2	-47.8	18.9	0.00e+00	0	43	0	265289728	64	4222
2026-01-27 06:08:59.97	59.89	14.38	-46.3	-47.9	18.9	0.00e+00	0	43	0	266338304	64	4243
2026-01-27 06:09:00.97	59.74	14.45	-46.1	-47.6	19.1	0.00e+00	0	43	0	268435456	64	4120
2026-01-27 06:09:01.98	59.60	14.53	-46.1	-47.6	19.3	0.00e+00	0	43	0	270532608	63	4359
2026-01-27 06:09:02.98	59.45	14.60	-46.2	-47.8	19.0	0.00e+00	0	43	0	272629760	63	4469
2026-01-27 06:09:03.99	59.30	14.68	-45.9	-47.4	19.4	0.00e+00	0	43	0	274726912	63	4282
2026-01-27 06:09:05.00	59.15	14.75	-46.1	-47.7	19.2	0.00e+00	0	43	0	275775488	63	4392
2026-01-27 06:09:06.00	59.00	14.83	-45.9	-47.4	19.5	0.00e+00	0	43	0	277872640	63	4256
2026-01-27 06:09:07.01	58.85	14.90	-46.0	-47.5	19.4	0.00e+00	0	43	0	279969792	63	4308
2026-01-27 06:09:08.02	58.70	14.98	-46.0	-47.5	19.3	0.00e+00	0	42	0	282066944	63	4322
2026-01-27 06:09:09.03	58.55	15.05	-46.1	-47.6	19.3	0.00e+00	0	43	0	284164096	63	4362
2026-01-27 06:09:10.03	58.40	15.13	-46.1	-47.6	19.3	0.00e+00	0	43	0	285212672	63	4370
2026-01-27 06:09:11.04	58.24	15.20	-46.2	-47.7	19.2	0.00e+00	0	43	0	287309824	63	4409
2026-01-27 06:09:12.04	58.09	15.28	-46.3	-47.8	19.1	0.00e+00	0	43	0	289406976	63	4477
2026-01-27 06:09:13.05	57.94	15.35	-46.3	-47.8	19.1	0.00e+00	0	43	0	291504128	63	4471
2026-01-27 06:09:14.05	57.78	15.43	-46.3	-47.9	19.0	0.00e+00	0	43	0	293601280	63	4508
2026-01-27 06:09:15.06	57.62	15.51	-46.3	-47.9	19.0	0.00e+00	0	43	0	294649856	63	4508
2026-01-27 06:09:16.06	57.47	15.58	-46.3	-47.9	19.0	0.00e+00	0	43	0	296747008	63	4517
2026-01-27 06:09:17.07	57.31	15.66	-46.4	-48.0	18.9	0.00e+00	0	43	0	298844160	63	4561
2026-01-27 06:09:18.07	57.15	15.73	-46.4	-47.9	19.0	0.00e+00	0	42	0	300941312	63	4532
2026-01-27 06:09:19.08	56.99	15.81	-46.4	-47.9	19.0	0.00e+00	0	43	0	303038464	63	4541
2026-01-27 06:09:20.09	56.83	15.88	-46.3	-47.9	19.1	0.00e+00	0	43	0	304087040	63	4497
2026-01-27 06:09:21.09	56.67	15.96	-46.3	-47.9	19.0	0.00e+00	0	42	0	306184192	63	4511
2026-01-27 06:09:22.10	56.51	16.03	-46.4	-48.0	18.9	0.00e+00	0	43	0	308281344	63	4564
2026-01-27 06:09:23.10	56.35	16.11	-46.4	-48.0	18.9	0.00e+00	0	43	0	310378496	63	4581
2026-01-27 06:09:24.11	56.18	16.18	-46.4	-48.0	18.9	0.00e+00	0	43	0	312475648	63	4582
2026-01-27 06:09:25.12	56.02	16.26	-46.4	-48.0	18.9	0.00e+00	0	43	0	313524224	63	4590
2026-01-27 06:09:26.12	55.85	16.34	-46.5	-48.1	18.8	0.00e+00	0	43	0	315621376	63	4649
2026-01-27 06:09:27.13	55.68	16.41	-46.6	-48.2	18.7	0.00e+00	0	43	0	317718528	63	4704
2026-01-27 06:09:28.13	55.52	16.49	-46.6	-48.2	18.7	0.00e+00	0	43	0	319815680	63	4681
2026-01-27 06:09:29.14	55.35	16.56	-46.6	-48.2	18.7	0.00e+00	0	43	0	321912832	63	4705
2026-01-27 06:09:30.14	55.18	16.64	-46.6	-48.3	18.7	0.00e+00	0	43	0	322961408	63	4710
2026-01-27 06:09:31.15	55.01	16.71	-46.5	-48.1	18.9	0.00e+00	0	42	0	325058560	63	4602
2026-01-27 06:09:32.15	54.84	16.79	-46.6	-48.2	18.8	0.00e+00	0	43	0	327155712	63	4664
2026-01-27 06:09:33.16	54.67	16.86	-46.5	-48.1	18.8	0.00e+00	0	43	0	329252864	63	4600
2026-01-27 06:09:34.17	54.50	16.94	-46.5	-48.1	18.9	0.00e+00	0	43	0	331350016	63	4612
2026-01-27 06:09:35.17	54.33	17.01	-46.5	-48.1	18.8	0.00e+00	0	43	0	332398592	63	4626
2026-01-27 06:09:36.18	54.15	17.09	-46.6	-48.2	18.7	0.00e+00	0	43	0	334495744	63	4684
2026-01-27 06:09:37.19	53.98	17.17	-46.6	-48.2	18.7	0.00e+00	0	43	0	336592896	63	4680
2026-01-27 06:09:38.19	53.80	17.24	-46.6	-48.3	18.5	0.00e+00	0	43	0	338690048	64	4464
2026-01-27 06:09:39.20	53.62	17.32	-46.7	-48.4	18.5	0.00e+00	0	43	0	340787200	64	4500
2026-01-27 06:09:40.21	53.44	17.39	-46.7	-48.4	18.4	0.00e+00	0	43	0	341835776	64	4520
2026-01-27 06:09:41.21	53.27	17.46	-46.8	-48.5	18.4	0.00e+00	0	43	0	343932928	64	4548
2026-01-27 06:09:42.22	53.09	17.54	-46.7	-48.4	18.5	0.00e+00	0	43	0	346030080	64	4512
2026-01-27 06:09:43.23	52.91	17.62	-46.6	-48.3	18.5	0.00e+00	0	43	0	348127232	64	4467
2026-01-27 06:09:44.24	52.72	17.69	-46.7	-48.4	18.5	0.00e+00	0	43	0	350224384	64	4503
2026-01-27 06:09:45.25	52.54	17.77	-46.6	-48.2	18.6	0.00e+00	0	43	0	351272960	64	4428
2026-01-27 06:09:46.25	52.36	17.84	-46.5	-48.1	18.7	0.00e+00	0	43	0	353370112	64	4376
2026-01-27 06:09:47.26	52.18	17.91	-46.5	-48.1	18.8	0.00e+00	0	43	0	355467264	64	4351
2026-01-27 06:09:48.27	51.99	17.99	-46.5	-48.1	18.8	0.00e+00	0	43	0	357564416	64	4362
2026-01-27 06:09:49.27	51.80	18.06	-46.5	-48.1	18.7	0.00e+00	0	43	0	359661568	64	4375
2026-01-27 06:09:50.28	51.62	18.14	-46.6	-48.2	18.7	0.00e+00	0	43	0	360710144	64	4427
2026-01-27 06:09:51.29	51.43	18.21	-46.4	-48.0	18.9	0.00e+00	0	43	0	362807296	64	4326
2026-01-27 06:09:52.29	51.24	18.29	-46.4	-48.0	18.9	0.00e+00	0	43	0	364904448	64	4306
2026-01-27 06:09:53.30	51.05	18.36	-46.3	-47.9	19.0	0.00e+00	0	43	0	367001600	64	4264
2026-01-27 06:09:54.31	50.86	18.43	-46.3	-47.8	19.1	0.00e+00	0	43	0	369098752	64	4207
2026-01-27 06:09:55.31	50.67	18.51	-46.2	-47.8	19.1	0.00e+00	0	43	0	370147328	64	4206
2026-01-27 06:09:56.32	50.48	18.58	-46.2	-47.7	19.2	0.00e+00	0	43	0	372244480	64	4184
2026-01-27 06:09:57.33	50.28	18.66	-46.1	-47.6	19.3	0.00e+00	0	43	0	374341632	64	4112
2026-01-27 06:09:58.34	50.09	18.73	-46.1	-47.6	19.3	0.00e+00	0	43	0	376438784	64	4135
2026-01-27 06:09:59.34	49.89	18.80	-46.1	-47.5	19.3	0.00e+00	0	43	0	378535936	64	4097
2026-01-27 06:10:00.35	49.70	18.88	-46.0	-47.5	19.4	0.00e+00	0	43	0	379584512	64	4085
2026-01-27 06:10:01.36	49.50	18.95	-46.1	-47.5	19.5	0.00e+00	0	43	0	381681664	63	4323
2026-01-27 06:10:02.37	49.30	19.02	-46.1	-47.6	19.4	0.00e+00	0	43	0	383778816	63	4341
2026-01-27 06:10:03.37	49.10	19.09	-46.1	-47.5	19.5	0.00e+00	0	43	0	385875968	63	4329
2026-01-27 06:10:04.38	48.90	19.17	-45.9	-47.3	19.7	0.00e+00	0	43	0	387973120	63	4208
2026-01-27 06:10:05.39	48.70	19.24	-45.8	-47.2	19.7	0.00e+00	0	43	0	389021696	63	4187
2026-01-27 06:10:06.39	48.50	19.31	-45.7	-47.1	19.9	0.00e+00	0	43	0	391118848	63	4105
2026-01-27 06:10:07.40	48.30	19.38	-45.6	-47.0	20.0	0.00e+00	0	43	0	393216000	63	4071
2026-01-27 06:10:08.41	48.09	19.46	-45.5	-46.8	20.1	0.00e+00	0	43	0	395313152	63	4002
2026-01-27 06:10:09.41	47.89	19.53	-45.3	-46.7	20.3	0.00e+00	0	43	0	397410304	62	4151
2026-01-27 06:10:10.42	47.68	19.60	-45.3	-46.6	20.3	0.00e+00	0	43	0	399507456	62	4125
2026-01-27 06:10:11.42	47.48	19.67	-45.2	-46.5	20.5	0.00e+00	0	43	0	400556032	62	4057
2026-01-27 06:10:12.43	47.27	19.74	-44.9	-46.2	20.8	0.00e+00	0	43	0	402653184	61	4160
2026-01-27 06:10:13.44	47.06	19.81	-44.7	-45.9	21.0	0.00e+00	0	43	0	404750336	61	4030
2026-01-27 06:10:14.45	46.85	19.88	-44.7	-45.9	21.0	0.00e+00	0	43	0	406847488	61	4031
2026-01-27 06:10:15.45	46.64	19.95	-44.6	-45.8	21.1	0.00e+00	0	43	0	407896064	61	3985
2026-01-27 06:10:16.46	46.43	20.02	-44.6	-45.8	21.1	0.00e+00	0	43	0	409993216	61	3961
2026-01-27 06:10:17.46	46.21	20.09	-44.6	-45.8	21.1	0.00e+00	0	43	0	412090368	61	3995
2026-01-27 06:10:18.47	46.00	20.16	-44.6	-45.8	21.2	0.00e+00	0	43	0	414187520	61	3974
2026-01-27 06:10:19.48	45.78	20.23	-44.7	-45.9	21.1	0.00e+00	0	43	0	416284672	61	4019
2026-01-27 06:10:20.48	45.57	20.30	-44.5	-45.7	21.2	0.00e+00	0	43	0	417333248	61	3933
2026-01-27 06:10:21.49	45.35	20.37	-44.5	-45.7	21.2	0.00e+00	0	43	0	419430400	60	4148
2026-01-27 06:10:22.50	45.13	20.44	-44.5	-45.7	21.2	0.00e+00	0	43	0	421527552	60	4150
2026-01-27 06:10:23.51	44.92	20.51	-44.5	-45.7	21.2	0.00e+00	0	43	0	423624704	60	4186
2026-01-27 06:10:24.52	44.70	20.58	-44.5	-45.7	21.1	0.00e+00	0	43	0	425721856	60	4175
2026-01-27 06:10:25.52	44.48	20.65	-44.4	-45.6	21.2	0.00e+00	0	43	0	427819008	60	4101
2026-01-27 06:10:26.52	44.26	20.72	-44.3	-45.5	21.2	0.00e+00	0	43	0	428867584	60	4072
2026-01-27 06:10:27.53	44.03	20.78	-44.5	-45.7	21.2	0.00e+00	0	43	0	430964736	60	4149
2026-01-27 06:10:28.54	43.81	20.85	-44.3	-45.4	21.5	0.00e+00	0	43	0	433061888	60	4039
2026-01-27 06:10:29.55	43.58	20.92	-44.4	-45.5	21.4	0.00e+00	0	43	0	435159040	60	4092
2026-01-27 06:10:30.56	43.36	20.99	-44.3	-45.4	21.5	0.00e+00	0	43	0	436207616	60	4031
2026-01-27 06:10:31.57	43.13	21.05	-44.2	-45.3	21.6	0.00e+00	0	43	0	438304768	60	3983
2026-01-27 06:10:32.57	42.90	21.12	-44.1	-45.2	21.7	0.00e+00	0	43	0	440401920	60	3932
2026-01-27 06:10:33.58	42.67	21.18	-44.0	-45.1	21.7	0.00e+00	0	43	0	442499072	60	3894
2026-01-27 06:10:34.59	42.44	21.25	-44.1	-45.2	21.5	0.00e+00	0	43	0	444596224	60	3930
2026-01-27 06:10:35.60	42.21	21.32	-44.1	-45.3	21.5	0.00e+00	0	42	0	445644800	60	3968
2026-01-27 06:10:36.61	41.98	21.38	-44.0	-45.1	21.8	0.00e+00	0	43	0	447741952	60	3898
2026-01-27 06:10:37.61	41.75	21.45	-44.0	-45.1	21.7	0.00e+00	0	43	0	449839104	60	3912
2026-01-27 06:10:38.62	41.52	21.51	-44.0	-45.1	21.8	0.00e+00	0	43	0	451936256	60	3884
2026-01-27 06:10:39.63	41.28	21.57	-44.3	-45.4	21.8	0.00e+00	0	43	0	454033408	59	4288
2026-01-27 06:10:40.64	41.04	21.64	-44.4	-45.6	21.6	0.00e+00	0	43	0	456130560	59	4355
2026-01-27 06:10:41.65	40.81	21.70	-44.6	-45.7	21.4	0.00e+00	0	43	0	457179136	59	4426
2026-01-27 06:10:42.65	40.57	21.76	-44.5	-45.6	21.3	0.00e+00	0	43	0	459276288	60	4130
2026-01-27 06:10:43.66	40.33	21.83	-44.3	-45.5	21.5	0.00e+00	0	43	0	461373440	60	4067
2026-01-27 06:10:44.67	40.09	21.89	-44.4	-45.5	21.5	0.00e+00	0	43	0	463470592	60	4082
2026-01-27 06:10:45.68	39.85	21.95	-44.5	-45.6	21.3	0.00e+00	0	43	0	464519168	60	4139
2026-01-27 06:10:46.69	39.61	22.01	-44.5	-45.6	21.4	0.00e+00	0	43	0	466616320	60	4129
2026-01-27 06:10:47.69	39.37	22.07	-44.7	-45.9	21.1	0.00e+00	0	43	0	468713472	60	4262
2026-01-27 06:10:48.70	39.12	22.13	-44.5	-45.7	21.2	0.00e+00	0	43	0	470810624	60	4166
2026-01-27 06:10:49.71	38.88	22.19	-44.4	-45.5	21.4	0.00e+00	0	43	0	472907776	60	4098
2026-01-27 06:10:50.72	38.63	22.25	-44.4	-45.5	21.4	0.00e+00	0	43	0	475004928	60	4094
2026-01-27 06:10:51.73	38.39	22.31	-44.5	-45.7	21.3	0.00e+00	0	43	0	476053504	60	4169
2026-01-27 06:10:52.74	38.14	22.37	-44.6	-45.8	21.2	0.00e+00	0	43	0	478150656	60	4219
2026-01-27 06:10:53.74	37.89	22.43	-44.6	-45.8	21.2	0.00e+00	0	43	0	480247808	60	4198
2026-01-27 06:10:54.75	37.64	22.49	-44.3	-45.4	21.5	0.00e+00	0	43	0	482344960	60	4047
2026-01-27 06:10:55.76	37.39	22.55	-44.3	-45.4	21.6	0.00e+00	0	43	0	484442112	60	4022
2026-01-27 06:10:56.77	37.14	22.60	-44.2	-45.3	21.6	0.00e+00	0	43	0	485490688	60	3981
2026-01-27 06:10:57.77	36.89	22.66	-44.2	-45.3	21.7	0.00e+00	0	43	0	487587840	60	3968
2026-01-27 06:10:58.78	36.64	22.72	-44.1	-45.2	21.8	0.00e+00	0	43	0	489684992	60	3919
2026-01-27 06:10:59.79	36.38	22.77	-44.1	-45.2	21.8	0.00e+00	0	43	0	491782144	60	3951
2026-01-27 06:11:00.79	36.13	22.83	-44.0	-45.1	21.8	0.00e+00	0	43	0	492830720	60	3908
2026-01-27 06:11:01.80	35.88	22.88	-44.1	-45.2	21.7	0.00e+00	0	43	0	494927872	60	3953
2026-01-27 06:11:02.80	35.62	22.93	-44.1	-45.3	21.7	0.00e+00	0	43	0	497025024	60	3962
2026-01-27 06:11:03.81	35.36	22.99	-44.2	-45.3	21.7	0.00e+00	0	43	0	499122176	60	3965
2026-01-27 06:11:04.82	35.10	23.04	-44.2	-45.3	21.7	0.00e+00	0	43	0	501219328	60	3980
2026-01-27 06:11:05.83	34.84	23.09	-44.1	-45.2	21.8	0.00e+00	0	43	0	503316480	60	3942
2026-01-27 06:11:06.84	34.58	23.15	-44.1	-45.2	21.8	0.00e+00	0	43	0	504365056	60	3934
2026-01-27 06:11:07.84	34.33	23.20	-44.1	-45.1	21.8	0.00e+00	0	43	0	506462208	60	3910
2026-01-27 06:11:08.84	34.07	23.25	-44.0	-45.1	21.9	0.00e+00	0	43	0	508559360	60	3903
2026-01-27 06:11:09.85	33.80	23.30	-44.2	-45.3	22.0	0.00e+00	0	43	0	510656512	59	4221
2026-01-27 06:11:10.86	33.54	23.35	-44.1	-45.2	22.1	0.00e+00	0	43	0	512753664	59	4152
2026-01-27 06:11:11.87	33.27	23.40	-44.1	-45.1	22.2	0.00e+00	0	43	0	513802240	59	4145
2026-01-27 06:11:12.87	33.01	23.45	-44.0	-45.1	22.2	0.00e+00	0	43	0	515899392	59	4131
2026-01-27 06:11:13.88	32.74	23.49	-44.1	-45.1	22.2	0.00e+00	0	43	0	517996544	59	4138
2026-01-27 06:11:14.89	32.48	23.54	-44.1	-45.2	22.2	0.00e+00	0	43	0	520093696	59	4161
2026-01-27 06:11:15.90	32.21	23.59	-44.1	-45.2	22.1	0.00e+00	0	43	0	521142272	59	4158
2026-01-27 06:11:16.91	31.94	23.64	-44.2	-45.4	22.0	0.00e+00	0	43	0	523239424	59	4244
2026-01-27 06:11:17.92	31.67	23.68	-44.3	-45.4	22.0	0.00e+00	0	43	0	525336576	59	4247
2026-01-27 06:11:18.92	31.40	23.73	-44.3	-45.5	21.9	0.00e+00	0	43	0	527433728	59	4297
2026-01-27 06:11:19.93	31.13	23.77	-44.5	-45.6	21.7	0.00e+00	0	43	0	529530880	59	4381
2026-01-27 06:11:20.94	30.86	23.82	-44.6	-45.8	21.6	0.00e+00	0	43	0	531628032	59	4462
2026-01-27 06:11:21.95	30.59	23.86	-44.6	-45.8	21.6	0.00e+00	0	43	0	532676608	59	4474
2026-01-27 06:11:22.96	30.31	23.90	-44.6	-45.8	21.6	0.00e+00	0	43	0	534773760	59	4445
2026-01-27 06:11:23.97	30.04	23.94	-44.7	-45.8	21.6	0.00e+00	0	43	0	536870912	59	4490
2026-01-27 06:11:24.98	29.76	23.99	-44.6	-45.8	21.6	0.00e+00	0	43	0	538968064	59	4460
2026-01-27 06:11:25.99	29.49	24.03	-44.4	-45.5	21.5	0.00e+00	0	43	0	541065216	60	4088
2026-01-27 06:11:26.98	29.22	24.07	-44.5	-45.6	21.4	0.00e+00	0	43	0	542113792	60	4137
2026-01-27 06:11:27.99	28.94	24.11	-44.4	-45.5	21.5	0.00e+00	0	43	0	544210944	60	4084
2026-01-27 06:11:29.00	28.66	24.14	-44.6	-45.7	21.4	0.00e+00	0	43	0	546308096	60	4175
2026-01-27 06:11:30.01	28.38	24.18	-44.7	-45.8	21.2	0.00e+00	0	43	0	548405248	60	4239
2026-01-27 06:11:31.02	28.10	24.22	-44.8	-46.0	21.1	0.00e+00	0	43	0	549453824	60	4329
2026-01-27 06:11:32.03	27.82	24.26	-45.1	-46.4	20.8	0.00e+00	0	43	0	551550976	60	4496
2026-01-27 06:11:33.03	27.55	24.29	-45.1	-46.3	20.8	0.00e+00	0	43	0	553648128	60	4491
2026-01-27 06:11:34.04	27.27	24.33	-45.0	-46.3	20.8	0.00e+00	0	43	0	555745280	60	4452
2026-01-27 06:11:35.05	26.98	24.36	-45.2	-46.5	20.6	0.00e+00	0	43	0	557842432	60	4559
2026-01-27 06:11:36.06	26.70	24.40	-45.4	-46.7	20.5	0.00e+00	0	43	0	559939584	61	4410
2026-01-27 06:11:37.06	26.42	24.43	-45.5	-46.8	20.3	0.00e+00	0	43	0	560988160	61	4460
2026-01-27 06:11:38.07	26.14	24.46	-45.5	-46.8	20.3	0.00e+00	0	43	0	563085312	61	4477
2026-01-27 06:11:39.08	25.85	24.49	-45.6	-46.9	20.2	0.00e+00	0	43	0	565182464	61	4517
2026-01-27 06:11:40.09	25.57	24.53	-45.5	-46.8	20.3	0.00e+00	0	43	0	567279616	61	4446
2026-01-27 06:11:41.10	25.28	24.56	-45.6	-46.9	20.2	0.00e+00	0	43	0	569376768	61	4510
2026-01-27 06:11:42.11	25.00	24.59	-45.8	-47.1	20.0	0.00e+00	0	43	0	570425344	62	4374
2026-01-27 06:11:43.12	24.71	24.62	-45.7	-47.1	20.1	0.00e+00	0	43	0	572522496	62	4363
2026-01-27 06:11:44.13	24.42	24.64	-45.7	-47.0	20.1	0.00e+00	0	43	0	574619648	62	4339
2026-01-27 06:11:45.13	24.14	24.67	-45.7	-47.0	20.2	0.00e+00	0	43	0	576716800	62	4309
2026-01-27 06:11:46.13	23.85	24.70	-45.6	-47.0	20.1	0.00e+00	0	43	0	578813952	62	4307
2026-01-27 06:11:47.14	23.57	24.72	-45.6	-47.0	20.2	0.00e+00	0	43	0	579862528	62	4304
2026-01-27 06:11:48.15	23.28	24.75	-45.7	-47.0	20.1	0.00e+00	0	43	0	581959680	62	4321
2026-01-27 06:11:49.15	22.99	24.77	-45.8	-47.1	20.0	0.00e+00	0	43	0	584056832	62	4381
2026-01-27 06:11:50.16	22.70	24.80	-45.8	-47.1	20.1	0.00e+00	0	43	0	586153984	62	4376
2026-01-27 06:11:51.17	22.41	24.82	-45.9	-47.2	20.0	0.00e+00	0	43	0	588251136	62	4438
2026-01-27 06:11:52.18	22.12	24.84	-45.9	-47.3	19.9	0.00e+00	0	43	0	589299712	62	4487
2026-01-27 06:11:53.19	21.83	24.86	-46.0	-47.5	19.7	0.00e+00	0	43	0	591396864	62	4546
2026-01-27 06:11:54.19	21.54	24.88	-46.2	-47.7	19.5	0.00e+00	0	43	0	593494016	62	4652
2026-01-27 06:11:55.20	21.25	24.90	-46.3	-47.7	19.5	0.00e+00	0	43	0	595591168	63	4424
2026-01-27 06:11:56.21	20.96	24.92	-46.2	-47.7	19.5	0.00e+00	0	43	0	597688320	63	4418
2026-01-27 06:11:57.21	20.67	24.94	-46.2	-47.6	19.6	0.00e+00	0	43	0	598736896	63	4368
2026-01-27 06:11:58.22	20.37	24.96	-46.2	-47.6	19.6	0.00e+00	0	43	0	600834048	63	4365
2026-01-27 06:11:59.23	20.08	24.97	-46.1	-47.5	19.7	0.00e+00	0	43	0	602931200	63	4299
2026-01-27 06:12:00.23	19.79	24.99	-45.9	-47.2	20.0	0.00e+00	0	43	0	605028352	63	4190
2026-01-27 06:12:01.24	19.50	25.00	-45.9	-47.2	20.0	0.00e+00	0	43	0	607125504	63	4187
2026-01-27 06:12:02.24	19.20	25.02	-45.8	-47.2	20.0	0.00e+00	0	43	0	608174080	63	4172
2026-01-27 06:12:03.24	18.91	25.03	-45.9	-47.3	19.9	0.00e+00	0	43	0	610271232	63	4194
2026-01-27 06:12:04.25	18.62	25.04	-46.0	-47.4	19.8	0.00e+00	0	43	0	612368384	63	4276
2026-01-27 06:12:05.26	18.32	25.05	-46.0	-47.4	19.7	0.00e+00	0	43	0	614465536	63	4285
2026-01-27 06:12:06.26	18.03	25.06	-46.2	-47.6	19.6	0.00e+00	0	43	0	616562688	63	4385
2026-01-27 06:12:07.27	17.74	25.07	-46.2	-47.7	19.5	0.00e+00	0	43	0	617611264	63	4414
2026-01-27 06:12:08.27	17.44	25.08	-46.3	-47.8	19.5	0.00e+00	0	43	0	619708416	63	4463
2026-01-27 06:12:09.27	17.15	25.09	-46.2	-47.7	19.5	0.00e+00	0	43	0	621805568	63	4412
2026-01-27 06:12:10.29	16.85	25.10	-46.2	-47.6	19.6	0.00e+00	0	43	0	623902720	63	4376
2026-01-27 06:12:11.29	16.56	25.11	-46.2	-47.7	19.6	0.00e+00	0	43	0	625999872	63	4412
2026-01-27 06:12:12.30	16.27	25.11	-46.0	-47.4	19.8	0.00e+00	0	43	0	627048448	63	4289
2026-01-27 06:12:13.31	15.97	25.12	-45.9	-47.3	19.9	0.00e+00	0	43	0	629145600	63	4230
2026-01-27 06:12:14.32	15.67	25.12	-45.7	-47.0	20.2	0.00e+00	0	43	0	631242752	63	4080
2026-01-27 06:12:15.32	15.38	25.12	-45.6	-47.0	20.2	0.00e+00	0	43	0	633339904	63	4053
2026-01-27 06:12:16.33	15.08	25.13	-45.8	-47.1	20.1	0.00e+00	0	43	0	635437056	63	4130
2026-01-27 06:12:17.33	14.79	25.13	-45.7	-47.1	20.1	0.00e+00	0	43	0	636485632	63	4126
2026-01-27 06:12:18.34	14.49	25.13	-45.7	-47.1	20.1	0.00e+00	0	43	0	638582784	63	4116
2026-01-27 06:12:19.35	14.20	25.13	-45.8	-47.1	20.1	0.00e+00	0	43	0	640679936	63	4131
2026-01-27 06:12:20.36	13.90	25.13	-45.4	-46.7	20.4	0.00e+00	0	43	0	642777088	62	4182
2026-01-27 06:12:21.36	13.61	25.13	-45.3	-46.6	20.5	0.00e+00	0	43	0	644874240	62	4130
2026-01-27 06:12:22.37	13.31	25.12	-45.3	-46.6	20.6	0.00e+00	0	43	0	645922816	62	4126
2026-01-27 06:12:23.38	13.02	25.12	-45.3	-46.5	20.6	0.00e+00	0	43	0	648019968	62	4086
2026-01-27 06:12:24.39	12.72	25.12	-45.0	-46.2	20.9	0.00e+00	0	43	0	650117120	62	3935
2026-01-27 06:12:25.39	12.43	25.11	-44.9	-46.1	21.1	0.00e+00	0	43	0	652214272	61	4099
2026-01-27 06:12:26.40	12.13	25.10	-44.8	-46.0	21.1	0.00e+00	0	43	0	654311424	61	4086
2026-01-27 06:12:27.40	11.84	25.10	-44.9	-46.1	21.0	0.00e+00	0	43	0	655360000	61	4126
2026-01-27 06:12:28.41	11.54	25.09	-44.8	-46.0	21.1	0.00e+00	0	43	0	657457152	61	4075
2026-01-27 06:12:29.42	11.25	25.08	-44.8	-45.9	21.2	0.00e+00	0	43	0	659554304	61	4046
2026-01-27 06:12:30.42	10.96	25.07	-44.7	-45.8	21.3	0.00e+00	0	43	0	661651456	61	4000
2026-01-27 06:12:31.43	10.66	25.06	-44.4	-45.6	21.5	0.00e+00	0	43	0	663748608	60	4115
2026-01-27 06:12:32.44	10.37	25.05	-44.5	-45.6	21.5	0.00e+00	0	43	0	664797184	60	4124
2026-01-27 06:12:33.44	10.07	25.04	-44.3	-45.4	21.6	0.00e+00	0	43	0	666894336	60	4042
2026-01-27 06:12:34.45	9.78	25.03	-44.4	-45.5	21.6	0.00e+00	0	43	0	668991488	60	4071
2026-01-27 06:12:35.46	9.49	25.01	-44.4	-45.6	21.6	0.00e+00	0	43	0	671088640	60	4099
2026-01-27 06:12:36.47	9.19	25.00	-44.3	-45.4	21.7	0.00e+00	0	43	0	673185792	60	4023
2026-01-27 06:12:37.48	8.90	24.99	-44.3	-45.4	21.7	0.00e+00	0	43	0	674234368	60	4014
2026-01-27 06:12:38.49	8.61	24.97	-44.3	-45.4	22.0	0.00e+00	0	43	0	676331520	59	4250
2026-01-27 06:12:39.49	8.31	24.95	-44.2	-45.2	22.1	0.00e+00	0	43	0	678428672	59	4189
2026-01-27 06:12:40.50	8.02	24.94	-44.2	-45.2	22.1	0.00e+00	0	43	0	680525824	59	4190
2026-01-27 06:12:41.51	7.73	24.92	-44.0	-45.1	22.2	0.00e+00	0	43	0	682622976	59	4129
2026-01-27 06:12:42.51	7.44	24.90	-44.0	-45.1	22.3	0.00e+00	0	43	0	683671552	59	4122
2026-01-27 06:12:43.52	7.15	24.88	-44.0	-45.0	22.3	0.00e+00	0	43	0	685768704	59	4088
2026-01-27 06:12:44.52	6.86	24.86	-44.1	-45.2	22.2	0.00e+00	0	43	0	687865856	59	4166
2026-01-27 06:12:45.53	6.57	24.84	-44.1	-45.2	22.2	0.00e+00	0	43	0	689963008	59	4176
2026-01-27 06:12:46.53	6.28	24.82	-44.2	-45.3	22.1	0.00e+00	0	43	0	692060160	59	4199
2026-01-27 06:12:47.53	6.00	24.79	-44.0	-45.1	22.3	0.00e+00	0	43	0	693108736	59	4114
2026-01-27 06:12:48.54	5.71	24.77	-44.0	-45.1	22.3	0.00e+00	0	43	0	695205888	59	4101
2026-01-27 06:12:49.55	5.42	24.74	-44.1	-45.1	22.2	0.00e+00	0	43	0	697303040	59	4139
2026-01-27 06:12:50.56	5.13	24.72	-44.0	-45.0	22.3	0.00e+00	0	43	0	699400192	59	4086
2026-01-27 06:12:51.57	4.84	24.69	-44.1	-45.2	22.2	0.00e+00	0	43	0	701497344	59	4152
2026-01-27 06:12:52.57	4.55	24.67	-44.2	-45.3	22.1	0.00e+00	0	43	0	702545920	59	4208
2026-01-27 06:12:53.58	4.27	24.64	-44.3	-45.4	22.0	0.00e+00	0	43	0	704643072	59	4250
2026-01-27 06:12:54.59	3.98	24.61	-44.4	-45.5	21.9	0.00e+00	0	43	0	706740224	59	4334
2026-01-27 06:12:55.60	3.69	24.58	-44.4	-45.5	21.9	0.00e+00	0	43	0	708837376	59	4312
2026-01-27 06:12:56.60	3.41	24.55	-44.4	-45.5	21.9	0.00e+00	0	43	0	710934528	59	4317
2026-01-27 06:12:57.61	3.13	24.52	-44.4	-45.5	21.9	0.00e+00	0	43	0	711983104	59	4320
2026-01-27 06:12:58.62	2.84	24.49	-44.3	-45.5	22.0	0.00e+00	0	43	0	714080256	59	4299
2026-01-27 06:12:59.63	2.56	24.46	-44.3	-45.4	22.0	0.00e+00	0	43	0	716177408	59	4265
2026-01-27 06:13:00.63	2.28	24.43	-44.4	-45.5	21.9	0.00e+00	0	43	0	718274560	59	4304
2026-01-27 06:13:01.64	1.99	24.39	-44.5	-45.7	21.8	0.00e+00	0	43	0	720371712	59	4392
2026-01-27 06:13:02.65	1.71	24.36	-44.7	-45.9	21.5	0.00e+00	0	43	0	721420288	59	4519
2026-01-27 06:13:03.65	1.43	24.32	-44.5	-45.6	21.5	0.00e+00	0	43	0	723517440	60	4128
2026-01-27 06:13:04.66	1.15	24.29	-44.5	-45.7	21.5	0.00e+00	0	43	0	725614592	60	4148
2026-01-27 06:13:05.67	0.87	24.25	-44.5	-45.6	21.5	0.00e+00	0	43	0	727711744	60	4144
2026-01-27 06:13:06.67	0.59	24.22	-44.6	-45.7	21.4	0.00e+00	0	43	0	729808896	60	4188
2026-01-27 06:13:07.68	0.32	24.18	-44.5	-45.6	21.5	0.00e+00	0	43	0	730857472	60	4138
2026-01-27 06:13:08.69	0.04	24.14	-44.5	-45.7	21.5	0.00e+00	0	43	0	732954624	60	4151
2026-01-27 06:13:09.69	359.76	24.10	-44.6	-45.8	21.3	0.00e+00	0	43	0	735051776	60	4206
2026-01-27 06:13:10.70	359.49	24.06	-44.6	-45.8	21.3	0.00e+00	0	43	0	737148928	60	4210
2026-01-27 06:13:11.71	359.21	24.02	-44.7	-45.8	21.3	0.00e+00	0	43	0	739246080	60	4226
2026-01-27 06:13:12.71	358.94	23.98	-44.8	-46.0	21.1	0.00e+00	0	43	0	740294656	60	4326
2026-01-27 06:13:13.72	358.66	23.94	-44.9	-46.1	21.1	0.00e+00	0	43	0	742391808	60	4364
2026-01-27 06:13:14.72	358.39	23.90	-44.9	-46.2	21.0	0.00e+00	0	43	0	744488960	60	4399
2026-01-27 06:13:15.73	358.12	23.85	-44.9	-46.1	21.0	0.00e+00	0	43	0	746586112	60	4385
2026-01-27 06:13:16.74	357.85	23.81	-45.0	-46.2	20.9	0.00e+00	0	43	0	748683264	60	4418
2026-01-27 06:13:17.75	357.57	23.77	-45.1	-46.4	20.8	0.00e+00	0	43	0	749731840	60	4501
2026-01-27 06:13:18.76	357.30	23.72	-45.3	-46.6	20.5	0.00e+00	0	43	0	751828992	61	4381
2026-01-27 06:13:19.76	357.03	23.68	-45.3	-46.6	20.6	0.00e+00	0	43	0	753926144	61	4372
2026-01-27 06:13:20.77	356.77	23.63	-45.4	-46.6	20.5	0.00e+00	0	43	0	756023296	61	4384
2026-01-27 06:13:21.78	356.50	23.59	-45.5	-46.8	20.4	0.00e+00	0	43	0	758120448	61	4463
2026-01-27 06:13:22.78	356.23	23.54	-45.5	-46.8	20.4	0.00e+00	0	43	0	759169024	61	4484
2026-01-27 06:13:23.79	355.96	23.49	-45.6	-46.9	20.3	0.00e+00	0	43	0	761266176	61	4539
2026-01-27 06:13:24.80	355.70	23.44	-45.7	-47.0	20.2	0.00e+00	0	43	0	763363328	61	4570
2026-01-27 06:13:25.81	355.43	23.39	-45.5	-46.8	20.4	0.00e+00	0	43	0	765460480	61	4475
2026-01-27 06:13:26.82	355.17	23.34	-45.5	-46.8	20.4	0.00e+00	0	43	0	767557632	61	4463
2026-01-27 06:13:27.82	354.91	23.29	-45.5	-46.8	20.3	0.00e+00	0	43	0	768606208	61	4474
2026-01-27 06:13:28.83	354.65	23.24	-45.6	-46.9	20.3	0.00e+00	0	43	0	770703360	61	4518
2026-01-27 06:13:29.84	354.38	23.19	-45.8	-47.2	20.0	0.00e+00	0	43	0	772800512	62	4403
2026-01-27 06:13:30.84	354.12	23.14	-45.8	-47.2	20.0	0.00e+00	0	43	0	774897664	62	4409
2026-01-27 06:13:31.85	353.86	23.09	-45.9	-47.2	20.0	0.00e+00	0	43	0	776994816	62	4438
2026-01-27 06:13:32.87	353.60	23.04	-45.9	-47.3	19.9	0.00e+00	0	43	0	778043392	62	4447
2026-01-27 06:13:33.87	353.35	22.98	-45.9	-47.2	20.0	0.00e+00	0	43	0	780140544	62	4433
2026-01-27 06:13:34.88	353.09	22.93	-45.8	-47.2	20.0	0.00e+00	0	43	0	782237696	62	4398
2026-01-27 06:13:35.88	352.84	22.88	-45.7	-47.0	20.2	0.00e+00	0	43	0	784334848	62	4322
2026-01-27 06:13:36.89	352.58	22.82	-45.7	-47.0	20.1	0.00e+00	0	43	0	786432000	62	4334
2026-01-27 06:13:37.89	352.33	22.77	-45.6	-47.0	20.2	0.00e+00	0	43	0	787480576	62	4302
2026-01-27 06:13:38.90	352.07	22.71	-45.7	-47.0	20.2	0.00e+00	0	43	0	789577728	62	4307
2026-01-27 06:13:39.91	351.82	22.65	-45.8	-47.1	20.1	0.00e+00	0	43	0	791674880	62	4364
2026-01-27 06:13:40.92	351.57	22.60	-45.9	-47.3	19.9	0.00e+00	0	43	0	793772032	62	4492
2026-01-27 06:13:41.91	351.32	22.54	-46.1	-47.6	19.6	0.00e+00	0	43	0	795869184	62	4602
2026-01-27 06:13:42.92	351.07	22.48	-46.2	-47.7	19.5	0.00e+00	0	43	0	796917760	63	4399
2026-01-27 06:13:43.93	350.82	22.43	-46.2	-47.6	19.5	0.00e+00	0	43	0	799014912	63	4384
2026-01-27 06:13:44.94	350.57	22.37	-46.1	-47.6	19.6	0.00e+00	0	43	0	801112064	63	4351
2026-01-27 06:13:45.94	350.33	22.31	-45.8	-47.2	20.0	0.00e+00	0	43	0	803209216	63	4158
2026-01-27 06:13:46.95	350.08	22.25	-45.8	-47.2	20.0	0.00e+00	0	43	0	805306368	63	4152
2026-01-27 06:13:47.96	349.84	22.19	-45.7	-47.0	20.1	0.00e+00	0	43	0	806354944	63	4094
2026-01-27 06:13:48.96	349.60	22.13	-45.7	-47.1	20.1	0.00e+00	0	43	0	808452096	63	4111
2026-01-27 06:13:49.97	349.35	22.07	-45.8	-47.2	20.0	0.00e+00	0	43	0	810549248	63	4149
2026-01-27 06:13:50.98	349.11	22.01	-45.8	-47.2	20.0	0.00e+00	0	43	0	812646400	63	4160
2026-01-27 06:13:51.99	348.87	21.95	-45.9	-47.3	19.9	0.00e+00	0	43	0	814743552	63	4213
2026-01-27 06:13:52.99	348.63	21.89	-46.0	-47.4	19.8	0.00e+00	0	43	0	815792128	63	4249
2026-01-27 06:13:54.00	348.39	21.82	-46.1	-47.5	19.7	0.00e+00	0	43	0	817889280	63	4335
2026-01-27 06:13:55.01	348.15	21.76	-45.9	-47.3	19.8	0.00e+00	0	43	0	819986432	63	4232
2026-01-27 06:13:56.01	347.92	21.70	-45.7	-47.1	20.1	0.00e+00	0	43	0	822083584	63	4103
2026-01-27 06:13:57.02	347.68	21.63	-45.5	-46.8	20.4	0.00e+00	0	43	0	824180736	62	4198
2026-01-27 06:13:58.03	347.44	21.57	-45.6	-46.9	20.2	0.00e+00	0	43	0	825229312	62	4265
2026-01-27 06:13:59.03	347.21	21.51	-45.3	-46.6	20.5	0.00e+00	0	43	0	827326464	62	4115
2026-01-27 06:14:00.05	346.97	21.44	-45.3	-46.6	20.6	0.00e+00	0	43	0	829423616	62	4108
2026-01-27 06:14:01.05	346.74	21.38	-45.2	-46.5	20.6	0.00e+00	0	43	0	831520768	62	4053
2026-01-27 06:14:02.05	346.51	21.31	-45.3	-46.5	20.6	0.00e+00	0	43	0	833617920	62	4093
2026-01-27 06:14:03.06	346.28	21.25	-45.2	-46.5	20.6	0.00e+00	0	43	0	834666496	62	4068
2026-01-27 06:14:04.07	346.05	21.18	-45.0	-46.2	20.8	0.00e+00	0	43	0	836763648	61	4193
2026-01-27 06:14:05.07	345.83	21.12	-45.1	-46.3	20.8	0.00e+00	0	43	0	838860800	61	4219
2026-01-27 06:14:06.08	345.60	21.05	-44.9	-46.2	20.9	0.00e+00	0	43	0	840957952	61	4147
2026-01-27 06:14:07.09	345.37	20.98	-44.9	-46.1	21.0	0.00e+00	0	43	0	843055104	61	4117
2026-01-27 06:14:08.09	345.15	20.92	-45.0	-46.2	20.8	0.00e+00	0	43	0	844103680	61	4193
2026-01-27 06:14:09.10	344.92	20.85	-45.2	-46.5	20.6	0.00e+00	0	43	0	846200832	61	4308
2026-01-27 06:14:10.11	344.70	20.78	-45.3	-46.6	20.5	0.00e+00	0	43	0	848297984	61	4349
2026-01-27 06:14:11.11	344.48	20.72	-45.2	-46.4	20.6	0.00e+00	0	43	0	850395136	61	4282
2026-01-27 06:14:12.12	344.26	20.65	-45.1	-46.4	20.7	0.00e+00	0	43	0	852492288	61	4249
2026-01-27 06:14:13.13	344.04	20.58	-45.1	-46.4	20.7	0.00e+00	0	43	0	853540864	61	4244
2026-01-27 06:14:14.14	343.82	20.51	-45.1	-46.3	20.8	0.00e+00	0	43	0	855638016	61	4218
2026-01-27 06:14:15.15	343.60	20.44	-45.1	-46.3	20.7	0.00e+00	0	43	0	857735168	61	4231
2026-01-27 06:14:16.16	343.38	20.37	-45.0	-46.2	20.8	0.00e+00	0	43	0	859832320	61	4192
2026-01-27 06:14:17.17	343.16	20.30	-45.0	-46.2	20.8	0.00e+00	0	43	0	861929472	61	4187
2026-01-27 06:14:18.18	342.95	20.23	-45.1	-46.3	20.7	0.00e+00	0	43	0	862978048	61	4239
2026-01-27 06:14:19.18	342.73	20.16	-45.0	-46.2	20.9	0.00e+00	0	42	0	865075200	61	4179
2026-01-27 06:14:20.19	342.52	20.09	-45.0	-46.3	20.8	0.00e+00	0	43	0	867172352	61	4207
2026-01-27 06:14:21.19	342.31	20.02	-45.0	-46.3	20.7	0.00e+00	0	43	0	869269504	61	4208
2026-01-27 06:14:22.20	342.10	19.95	-45.0	-46.3	20.8	0.00e+00	0	43	0	871366656	61	4212
2026-01-27 06:14:23.20	341.89	19.88	-45.1	-46.3	20.7	0.00e+00	0	43	0	872415232	61	4235
2026-01-27 06:14:24.21	341.68	19.81	-45.1	-46.3	20.7	0.00e+00	0	43	0	874512384	61	4223
2026-01-27 06:14:25.22	341.47	19.74	-45.2	-46.4	20.6	0.00e+00	0	43	0	876609536	61	4279
2026-01-27 06:14:26.23	341.26	19.67	-45.1	-46.3	20.7	0.00e+00	0	43	0	878706688	61	4226
2026-01-27 06:14:27.24	341.05	19.60	-45.2	-46.4	20.6	0.00e+00	0	43	0	880803840	61	4278
2026-01-27 06:14:28.24	340.85	19.53	-45.1	-46.3	20.7	0.00e+00	0	43	0	881852416	61	4227
2026-01-27 06:14:29.25	340.64	19.45	-45.1	-46.4	20.7	0.00e+00	0	43	0	883949568	61	4243
2026-01-27 06:14:30.26	340.44	19.38	-45.0	-46.3	20.7	0.00e+00	0	43	0	886046720	61	4202
2026-01-27 06:14:31.27	340.24	19.31	-45.0	-46.2	20.8	0.00e+00	0	43	0	888143872	61	4187
2026-01-27 06:14:32.27	340.04	19.24	-44.9	-46.1	20.9	0.00e+00	0	43	0	890241024	61	4139
2026-01-27 06:14:33.28	339.83	19.17	-44.8	-46.0	21.0	0.00e+00	0	43	0	891289600	61	4093
2026-01-27 06:14:34.29	339.63	19.09	-44.8	-46.0	21.0	0.00e+00	0	43	0	893386752	61	4076
2026-01-27 06:14:35.29	339.44	19.02	-44.9	-46.1	21.0	0.00e+00	0	43	0	895483904	61	4115
2026-01-27 06:14:36.30	339.24	18.95	-44.8	-45.9	21.1	0.00e+00	0	43	0	897581056	61	4050
2026-01-27 06:14:37.31	339.04	18.87	-44.7	-45.9	21.1	0.00e+00	0	43	0	899678208	61	4035
2026-01-27 06:14:38.32	338.84	18.80	-44.7	-45.9	21.1	0.00e+00	0	43	0	901775360	61	4042
2026-01-27 06:14:39.32	338.65	18.73	-44.6	-45.8	21.2	0.00e+00	0	43	0	902823936	61	3998
2026-01-27 06:14:40.33	338.46	18.65	-44.7	-45.9	21.1	0.00e+00	0	43	0	904921088	61	4010
2026-01-27 06:14:41.33	338.26	18.58	-44.6	-45.7	21.2	0.00e+00	0	43	0	907018240	61	3954
2026-01-27 06:14:42.34	338.07	18.51	-44.5	-45.7	21.3	0.00e+00	0	43	0	909115392	61	3944
2026-01-27 06:14:43.34	337.88	18.43	-44.5	-45.7	21.3	0.00e+00	0	43	0	910163968	61	3938
2026-01-27 06:14:44.34	337.69	18.36	-44.6	-45.8	21.2	0.00e+00	0	43	0	912261120	61	3960
2026-01-27 06:14:45.34	337.50	18.29	-44.4	-45.6	21.4	0.00e+00	0	42	0	914358272	60	4112
2026-01-27 06:14:46.35	337.32	18.21	-44.5	-45.6	21.3	0.00e+00	0	43	0	916455424	60	4136
2026-01-27 06:14:47.36	337.13	18.14	-44.6	-45.7	21.2	0.00e+00	0	43	0	918552576	60	4178
2026-01-27 06:14:48.37	336.94	18.06	-44.1	-45.2	21.7	0.00e+00	0	43	0	919601152	60	3947
2026-01-27 06:14:49.38	336.75	17.99	-44.2	-45.3	21.6	0.00e+00	0	42	0	921698304	60	3987
2026-01-27 06:14:50.39	336.57	17.92	-44.3	-45.4	21.5	0.00e+00	0	43	0	923795456	60	4041
2026-01-27 06:14:51.40	336.39	17.84	-44.1	-45.3	21.7	0.00e+00	0	43	0	925892608	60	3966
2026-01-27 06:14:52.40	336.20	17.77	-44.3	-45.4	21.5	0.00e+00	0	43	0	927989760	60	4034
2026-01-27 06:14:53.41	336.02	17.69	-44.4	-45.5	21.4	0.00e+00	0	43	0	929038336	60	4081
2026-01-27 06:14:54.42	335.84	17.62	-44.3	-45.5	21.4	0.00e+00	0	43	0	931135488	60	4054
2026-01-27 06:14:55.43	335.66	17.54	-44.3	-45.4	21.5	0.00e+00	0	43	0	933232640	60	4043
2026-01-27 06:14:56.44	335.48	17.47	-44.2	-45.3	21.6	3.00e-06	0	43	0	935329792	60	3981
2026-01-27 06:14:57.44	335.30	17.39	-44.2	-45.3	21.6	0.00e+00	0	43	0	937426944	60	4002
2026-01-27 06:14:58.44	335.13	17.32	-44.2	-45.3	21.6	0.00e+00	0	43	0	938475520	60	3997
2026-01-27 06:14:59.45	334.95	17.24	-44.2	-45.3	21.6	0.00e+00	0	43	0	940572672	60	3979
2026-01-27 06:15:00.46	334.77	17.17	-44.1	-45.2	21.7	0.00e+00	0	43	0	942669824	60	3942
2026-01-27 06:15:01.47	334.60	17.09	-44.2	-45.3	21.6	0.00e+00	0	43	0	944766976	60	3991
2026-01-27 06:15:02.47	334.43	17.02	-44.2	-45.3	21.6	0.00e+00	0	43	0	946864128	60	4004
2026-01-27 06:15:03.48	334.25	16.94	-44.0	-45.1	21.8	0.00e+00	0	43	0	947912704	60	3890
2026-01-27 06:15:04.49	334.08	16.87	-44.3	-45.5	21.8	0.00e+00	0	43	0	950009856	59	4304
2026-01-27 06:15:05.49	333.91	16.79	-44.5	-45.7	21.6	0.00e+00	0	43	0	952107008	59	4401
2026-01-27 06:15:06.50	333.74	16.72	-44.5	-45.7	21.6	0.00e+00	0	43	0	954204160	59	4420
2026-01-27 06:15:07.51	333.57	16.64	-44.6	-45.8	21.4	0.00e+00	0	43	0	956301312	59	4474
2026-01-27 06:15:08.51	333.40	16.57	-44.4	-45.6	21.4	0.00e+00	0	43	0	957349888	60	4102
2026-01-27 06:15:09.52	333.23	16.49	-44.3	-45.5	21.4	0.00e+00	0	43	0	959447040	60	4066
2026-01-27 06:15:10.52	333.07	16.41	-44.4	-45.6	21.3	0.00e+00	0	43	0	961544192	60	4118
2026-01-27 06:15:11.53	332.90	16.34	-44.3	-45.4	21.5	0.00e+00	0	43	0	963641344	60	4023
2026-01-27 06:15:12.53	332.74	16.26	-44.3	-45.5	21.5	0.00e+00	0	43	0	965738496	60	4052
2026-01-27 06:15:13.54	332.57	16.19	-44.4	-45.5	21.4	0.00e+00	0	43	0	966787072	60	4092
2026-01-27 06:15:14.55	332.41	16.11	-44.3	-45.5	21.5	0.00e+00	0	43	0	968884224	60	4064
2026-01-27 06:15:15.56	332.24	16.04	-44.3	-45.5	21.4	0.00e+00	0	43	0	970981376	60	4075
2026-01-27 06:15:16.56	332.08	15.96	-44.3	-45.5	21.4	0.00e+00	0	43	0	973078528	60	4068
2026-01-27 06:15:17.57	331.92	15.89	-44.4	-45.5	21.3	0.00e+00	0	43	0	975175680	60	4097
2026-01-27 06:15:18.58	331.76	15.81	-44.4	-45.5	21.4	0.00e+00	0	43	0	976224256	60	4079
2026-01-27 06:15:19.59	331.60	15.73	-44.4	-45.5	21.4	0.00e+00	0	43	0	978321408	60	4077
2026-01-27 06:15:20.59	331.44	15.66	-44.3	-45.5	21.4	0.00e+00	0	43	0	980418560	60	4061
2026-01-27 06:15:21.60	331.29	15.58	-44.5	-45.6	21.3	0.00e+00	0	43	0	982515712	60	4139
2026-01-27 06:15:22.61	331.13	15.51	-44.4	-45.6	21.3	0.00e+00	0	43	0	984612864	60	4115
2026-01-27 06:15:23.61	330.97	15.43	-44.5	-45.7	21.2	0.00e+00	0	43	0	985661440	60	4169
2026-01-27 06:15:24.62	330.82	15.36	-44.6	-45.8	21.1	0.00e+00	0	43	0	987758592	60	4208
2026-01-27 06:15:25.62	330.66	15.28	-44.7	-45.9	21.0	0.00e+00	0	43	0	989855744	60	4274
2026-01-27 06:15:26.63	330.51	15.21	-44.8	-46.1	20.8	0.00e+00	0	43	0	991952896	60	4361
2026-01-27 06:15:27.64	330.36	15.13	-45.0	-46.3	20.7	0.00e+00	0	43	0	994050048	60	4452
2026-01-27 06:15:28.65	330.20	15.06	-45.1	-46.4	20.5	0.00e+00	0	43	0	995098624	60	4527
2026-01-27 06:15:29.65	330.05	14.98	-45.2	-46.6	20.4	0.00e+00	0	43	0	997195776	61	4345
2026-01-27 06:15:30.66	329.90	14.91	-45.2	-46.5	20.4	0.00e+00	0	43	0	999292928	61	4326
2026-01-27 06:15:31.67	329.75	14.83	-45.3	-46.6	20.4	0.00e+00	0	43	0	1001390080	61	4351
2026-01-27 06:15:32.67	329.61	14.76	-45.3	-46.6	20.3	0.00e+00	0	43	0	1003487232	61	4389
2026-01-27 06:15:33.67	329.46	14.68	-45.3	-46.7	20.3	0.00e+00	0	43	0	1004535808	61	4392
2026-01-27 06:15:34.68	329.31	14.61	-45.2	-46.5	20.4	0.00e+00	0	43	0	1006632960	61	4325
2026-01-27 06:15:35.69	329.16	14.53	-45.2	-46.5	20.4	0.00e+00	0	43	0	1008730112	61	4302
2026-01-27 06:15:36.69	329.02	14.46	-45.1	-46.4	20.5	0.00e+00	0	43	0	1010827264	61	4281
2026-01-27 06:15:37.69	328.87	14.38	-45.2	-46.5	20.4	0.00e+00	0	43	0	1012924416	61	4312
2026-01-27 06:15:38.70	328.73	14.31	-45.1	-46.4	20.5	0.00e+00	0	43	0	1013972992	61	4249
2026-01-27 06:15:39.71	328.58	14.23	-45.1	-46.4	20.5	0.00e+00	0	43	0	1016070144	61	4243
2026-01-27 06:15:40.72	328.44	14.16	-45.2	-46.5	20.4	0.00e+00	0	43	0	1018167296	61	4328
2026-01-27 06:15:41.73	328.30	14.08	-45.3	-46.6	20.3	0.00e+00	0	43	0	1020264448	61	4363
2026-01-27 06:15:42.73	328.16	14.01	-45.4	-46.8	20.1	0.00e+00	0	43	0	1022361600	61	4450
2026-01-27 06:15:43.74	328.02	13.93	-45.3	-46.7	20.2	0.00e+00	0	43	0	1023410176	61	4403
2026-01-27 06:15:44.74	327.88	13.86	-45.5	-46.8	20.1	0.00e+00	0	43	0	1025507328	61	4490
2026-01-27 06:15:45.74	327.74	13.78	-45.5	-46.9	20.0	0.00e+00	0	43	0	1027604480	61	4513
2026-01-27 06:15:46.75	327.60	13.71	-45.5	-46.9	20.0	0.00e+00	0	43	0	1029701632	61	4497
2026-01-27 06:15:47.76	327.46	13.63	-45.5	-46.9	20.0	0.00e+00	0	43	0	1031798784	61	4521
2026-01-27 06:15:48.77	327.32	13.56	-45.5	-46.9	20.0	0.00e+00	0	43	0	1032847360	61	4501
2026-01-27 06:15:49.77	327.19	13.49	-45.5	-46.8	20.0	0.00e+00	0	43	0	1034944512	61	4492
2026-01-27 06:15:50.78	327.05	13.41	-45.4	-46.7	20.1	0.00e+00	0	43	0	1037041664	61	4437
2026-01-27 06:15:51.79	326.92	13.34	-45.5	-46.9	20.0	0.00e+00	0	43	0	1039138816	61	4503
2026-01-27 06:15:52.79	326.78	13.26	-45.6	-46.9	19.9	0.00e+00	0	43	0	1041235968	61	4538
2026-01-27 06:15:53.80	326.65	13.19	-45.6	-47.0	19.9	0.00e+00	0	43	0	1042284544	61	4549
2026-01-27 06:15:54.81	326.51	13.11	-45.6	-46.9	19.9	0.00e+00	0	43	0	1044381696	61	4545
2026-01-27 06:15:55.82	326.38	13.04	-45.6	-47.0	19.9	0.00e+00	0	43	0	1046478848	61	4580
2026-01-27 06:15:56.82	326.25	12.97	-45.8	-47.2	19.7	0.00e+00	0	43	0	1048576000	62	4408
2026-01-27 06:15:57.83	326.12	12.89	-45.8	-47.3	19.6	0.00e+00	0	43	0	1050673152	62	4444
2026-01-27 06:15:58.84	325.99	12.82	-45.8	-47.2	19.7	0.00e+00	0	43	0	1051721728	62	4425
2026-01-27 06:15:59.85	325.86	12.74	-45.8	-47.3	19.6	0.00e+00	0	43	0	1053818880	62	4463
2026-01-27 06:16:00.85	325.73	12.67	-45.7	-47.1	19.7	0.00e+00	0	43	0	1055916032	62	4379
2026-01-27 06:16:01.85	325.60	12.60	-45.6	-47.0	19.9	0.00e+00	0	43	0	1058013184	62	4297
2026-01-27 06:16:02.86	325.48	12.53	-45.7	-47.1	19.8	0.00e+00	0	43	0	1060110336	62	4346
2026-01-27 06:16:03.87	325.35	12.45	-45.7	-47.1	19.8	0.00e+00	0	43	0	1061158912	62	4359
2026-01-27 06:16:04.87	325.22	12.38	-45.8	-47.2	19.6	0.00e+00	0	43	0	1063256064	62	4429
2026-01-27 06:16:05.87	325.10	12.31	-45.9	-47.3	19.5	0.00e+00	0	43	0	1065353216	62	4485
2026-01-27 06:16:06.88	324.97	12.23	-46.0	-47.5	19.4	0.00e+00	0	43	0	1067450368	62	4574
2026-01-27 06:16:07.89	324.85	12.16	-46.1	-47.6	19.3	0.00e+00	0	43	0	1069547520	62	4622
2026-01-27 06:16:08.90	324.72	12.09	-46.0	-47.4	19.3	0.00e+00	0	43	0	1070596096	62	4538
2026-01-27 06:16:09.91	324.60	12.01	-46.1	-47.6	19.3	0.00e+00	0	43	0	1072693248	62	4605
2026-01-27 06:16:10.91	324.48	11.94	-46.1	-47.6	19.2	0.00e+00	0	43	0	1074790400	62	4650
2026-01-27 06:16:11.91	324.36	11.87	-45.9	-47.4	19.5	0.00e+00	0	43	0	1076887552	62	4521
2026-01-27 06:16:12.92	324.23	11.80	-46.0	-47.5	19.3	0.00e+00	0	43	0	1078984704	62	4576
2026-01-27 06:16:13.93	324.11	11.72	-46.0	-47.4	19.4	0.00e+00	0	43	0	1080033280	62	4537
2026-01-27 06:16:14.93	323.99	11.65	-46.0	-47.5	19.3	0.00e+00	0	43	0	1082130432	62	4560
2026-01-27 06:16:15.94	323.87	11.58	-46.1	-47.6	19.2	0.00e+00	0	43	0	1084227584	62	4637
2026-01-27 06:16:16.94	323.76	11.51	-46.2	-47.7	19.1	0.00e+00	0	43	0	1086324736	62	4671
2026-01-27 06:16:17.95	323.64	11.43	-46.2	-47.7	19.1	0.00e+00	0	43	0	1088421888	62	4700
2026-01-27 06:16:18.96	323.52	11.36	-46.2	-47.7	19.1	0.00e+00	0	43	0	1089470464	63	4435
2026-01-27 06:16:19.96	323.40	11.29	-46.2	-47.7	19.1	0.00e+00	0	43	0	1091567616	63	4433
2026-01-27 06:16:20.97	323.29	11.22	-46.2	-47.8	19.0	0.00e+00	0	43	0	1093664768	63	4466
2026-01-27 06:16:21.98	323.17	11.15	-46.4	-48.0	18.8	0.00e+00	0	43	0	1095761920	63	4559
2026-01-27 06:16:22.99	323.05	11.07	-46.3	-47.9	18.9	0.00e+00	0	43	0	1097859072	63	4505
2026-01-27 06:16:23.99	322.94	11.00	-46.5	-48.1	18.7	0.00e+00	0	43	0	1098907648	63	4633
2026-01-27 06:16:25.00	322.82	10.93	-46.5	-48.1	18.7	0.00e+00	0	43	0	1101004800	63	4648
2026-01-27 06:16:26.00	322.71	10.86	-46.5	-48.2	18.6	0.00e+00	0	43	0	1103101952	63	4671
2026-01-27 06:16:27.01	322.60	10.79	-46.4	-48.1	18.7	0.00e+00	0	43	0	1105199104	63	4607
2026-01-27 06:16:28.02	322.48	10.72	-46.6	-48.2	18.6	0.00e+00	0	43	0	1107296256	63	4682
2026-01-27 06:16:29.03	322.37	10.65	-46.6	-48.3	18.5	0.00e+00	0	43	0	1108344832	63	4741
2026-01-27 06:16:30.03	322.26	10.58	-46.6	-48.3	18.4	0.00e+00	0	43	0	1110441984	64	4463
2026-01-27 06:16:31.04	322.15	10.50	-46.9	-48.6	18.1	0.00e+00	0	43	0	1112539136	64	4638
2026-01-27 06:16:32.05	322.04	10.43	-46.8	-48.6	18.1	0.00e+00	0	43	0	1114636288	64	4634
2026-01-27 06:16:33.05	321.93	10.36	-46.8	-48.6	18.1	0.00e+00	0	43	0	1116733440	64	4612
2026-01-27 06:16:34.06	321.82	10.29	-46.8	-48.6	18.1	0.00e+00	0	43	0	1117782016	64	4619
2026-01-27 06:16:35.06	321.71	10.22	-46.8	-48.6	18.1	0.00e+00	0	43	0	1119879168	64	4614
2026-01-27 06:16:36.07	321.60	10.15	-46.7	-48.5	18.2	0.00e+00	0	43	0	1121976320	64	4554
2026-01-27 06:16:37.07	321.50	10.08	-46.7	-48.4	18.3	0.00e+00	0	43	0	1124073472	64	4520
2026-01-27 06:16:38.08	321.39	10.01	-46.8	-48.6	18.1	0.00e+00	0	43	0	1126170624	64	4631
2026-01-27 06:16:39.09	321.28	9.94	-47.0	-48.8	17.9	0.00e+00	0	43	0	1127219200	64	4721
2026-01-27 06:16:40.10	321.18	9.87	-47.0	-48.9	17.8	0.00e+00	0	43	0	1129316352	64	4763
2026-01-27 06:16:41.10	321.07	9.80	-47.1	-49.0	17.7	0.00e+00	0	43	0	1131413504	64	4826
2026-01-27 06:16:42.11	320.97	9.73	-47.1	-49.0	17.6	0.00e+00	0	43	0	1133510656	64	4862
2026-01-27 06:16:43.12	320.86	9.66	-47.2	-49.1	17.5	0.00e+00	0	43	0	1135607808	65	4641
2026-01-27 06:16:44.13	320.76	9.59	-47.0	-48.9	17.8	0.00e+00	0	43	0	1136656384	65	4523
2026-01-27 06:16:45.13	320.66	9.52	-47.0	-48.9	17.7	0.00e+00	0	43	0	1138753536	65	4503
2026-01-27 06:16:46.14	320.55	9.45	-47.0	-48.8	17.8	0.00e+00	0	43	0	1140850688	65	4486
2026-01-27 06:16:47.15	320.45	9.38	-46.9	-48.7	17.9	0.00e+00	0	43	0	1142947840	65	4433
2026-01-27 06:16:48.15	320.35	9.31	-46.8	-48.6	18.0	0.00e+00	0	43	0	1145044992	65	4388
2026-01-27 06:16:49.15	320.25	9.25	-46.9	-48.8	17.9	0.00e+00	0	43	0	1146093568	65	4448
2026-01-27 06:16:50.16	320.15	9.18	-47.1	-49.0	17.6	0.00e+00	0	43	0	1148190720	65	4550
2026-01-27 06:16:51.17	320.05	9.11	-46.9	-48.7	17.9	0.00e+00	0	43	0	1150287872	65	4426
2026-01-27 06:16:52.17	319.95	9.04	-46.8	-48.5	18.1	0.00e+00	0	43	0	1152385024	65	4325
2026-01-27 06:16:53.18	319.85	8.97	-47.0	-48.8	17.8	0.00e+00	0	43	0	1154482176	65	4466
2026-01-27 06:16:54.19	319.75	8.90	-46.9	-48.8	17.8	0.00e+00	0	43	0	1155530752	65	4443
2026-01-27 06:16:55.19	319.65	8.83	-47.0	-48.9	17.7	0.00e+00	0	43	0	1157627904	65	4523
2026-01-27 06:16:56.20	319.55	8.76	-46.9	-48.8	17.8	0.00e+00	0	43	0	1159725056	65	4454
2026-01-27 06:16:57.20	319.45	8.70	-47.1	-48.9	17.6	0.00e+00	0	43	0	1161822208	65	4543
2026-01-27 06:16:58.21	319.36	8.63	-46.9	-48.7	17.8	0.00e+00	0	43	0	1163919360	65	4439
2026-01-27 06:16:59.21	319.26	8.56	-46.9	-48.8	17.8	0.00e+00	0	43	0	1164967936	65	4469
2026-01-27 06:17:00.22	319.16	8.49	-47.0	-48.8	17.8	0.00e+00	0	43	0	1167065088	65	4470
2026-01-27 06:17:01.23	319.07	8.42	-46.9	-48.8	17.7	0.00e+00	0	43	0	1169162240	65	4479
2026-01-27 06:17:02.23	318.97	8.36	-47.0	-48.9	17.7	0.00e+00	0	43	0	1171259392	65	4501
2026-01-27 06:17:03.23	318.88	8.29	-47.0	-48.9	17.6	0.00e+00	0	43	0	1173356544	65	4533
2026-01-27 06:17:04.23	318.79	8.22	-47.0	-48.9	17.6	0.00e+00	0	43	0	1174405120	65	4524
2026-01-27 06:17:05.24	318.69	8.15	-47.1	-49.0	17.5	0.00e+00	0	43	0	1176502272	65	4590
2026-01-27 06:17:06.25	318.60	8.09	-47.1	-49.1	17.4	0.00e+00	0	43	0	1178599424	65	4609
2026-01-27 06:17:07.24	318.51	8.02	-47.2	-49.2	17.3	0.00e+00	0	43	0	1180696576	65	4658
2026-01-27 06:17:08.25	318.41	7.95	-47.2	-49.2	17.3	0.00e+00	0	43	0	1182793728	65	4680
2026-01-27 06:17:09.26	318.32	7.89	-47.3	-49.2	17.3	0.00e+00	0	43	0	1183842304	65	4696
2026-01-27 06:17:10.27	318.23	7.82	-47.2	-49.2	17.3	0.00e+00	0	43	0	1185939456	65	4673
2026-01-27 06:17:11.28	318.14	7.75	-47.4	-49.4	17.0	0.00e+00	0	43	0	1188036608	65	4807
2026-01-27 06:17:12.28	318.05	7.69	-47.5	-49.6	16.9	0.00e+00	0	43	0	1190133760	65	4884
2026-01-27 06:17:13.29	317.96	7.62	-47.5	-49.6	16.8	0.00e+00	0	43	0	1192230912	65	4917
2026-01-27 06:17:14.30	317.87	7.55	-47.3	-49.3	17.1	0.00e+00	0	43	0	1193279488	65	4759
2026-01-27 06:17:15.31	317.78	7.49	-47.5	-49.6	16.8	0.00e+00	0	43	0	1195376640	65	4903
2026-01-27 06:17:16.31	317.69	7.42	-47.6	-49.7	16.7	0.00e+00	0	43	0	1197473792	65	4982
2026-01-27 06:17:17.31	317.60	7.35	-47.6	-49.8	16.6	0.00e+00	0	43	0	1199570944	65	5014
2026-01-27 06:17:18.32	317.51	7.29	-47.6	-49.7	16.7	0.00e+00	0	43	0	1201668096	65	4977
2026-01-27 06:17:19.32	317.42	7.22	-47.7	-49.9	16.5	0.00e+00	0	43	0	1202716672	66	4808
2026-01-27 06:17:20.32	317.34	7.16	-47.7	-49.9	16.5	0.00e+00	0	43	0	1204813824	66	4787
2026-01-27 06:17:21.33	317.25	7.09	-47.7	-49.9	16.5	0.00e+00	0	43	0	1206910976	66	4768
2026-01-27 06:17:22.33	317.16	7.03	-47.9	-50.2	16.1	0.00e+00	0	43	0	1209008128	66	4969
2026-01-27 06:17:23.34	317.08	6.96	-47.7	-49.9	16.5	0.00e+00	0	43	0	1211105280	66	4777
2026-01-27 06:17:24.35	316.99	6.89	-47.8	-50.2	16.2	0.00e+00	0	43	0	1212153856	66	4928
2026-01-27 06:17:25.35	316.91	6.83	-47.9	-50.3	16.1	0.00e+00	0	43	0	1214251008	66	4990
2026-01-27 06:17:26.36	316.82	6.76	-47.9	-50.2	16.1	0.00e+00	0	43	0	1216348160	66	4964
2026-01-27 06:17:27.37	316.74	6.70	-47.9	-50.3	16.1	0.00e+00	0	43	0	1218445312	66	4989
2026-01-27 06:17:28.37	316.65	6.63	-48.0	-50.3	16.0	0.00e+00	0	43	0	1220542464	66	5028
2026-01-27 06:17:29.38	316.57	6.57	-47.7	-50.0	16.4	0.00e+00	0	43	0	1221591040	66	4815
2026-01-27 06:17:30.39	316.48	6.50	-47.8	-50.1	16.2	0.00e+00	0	43	0	1223688192	66	4914
2026-01-27 06:17:31.39	316.40	6.44	-47.8	-50.2	16.1	0.00e+00	0	43	0	1225785344	66	4949
