passes_logs/2026/01/27/R3.2S_Murmansk/R3.2S_Murmansk__20260127_010712_NOAA_20_JPSS-1_rec.log

#Pass ID: 20260127_010712_NOAA 20 (JPSS-1)
#Satellite: NOAA 20 (JPSS-1)
#Configuration: NOAA 20
#almurnet v.1.7.20251203
#Start time: 2026-01-27 01:07:12

#Version: 2.2.20231116
#Station: R3.2S_Murmansk
#Location: 33.079688 lon 68.888172 lat
#TLE: 1 43013U 17073A   26026.46665230  .00000148  00000+0  91302-4 0  9998
#TLE: 2 43013  98.7646 327.2856 0001008  22.9532 337.1688 14.19540616424360

#Time	Az	El	Level	Level2	SNR	BER	BlckErr	Temp	State	Recorded	gain1	gain2
2026-01-27 01:07:12.82	26.26	2.03	-54.1	-69.1	3.8	1.49e+00	0	41	0	0	79	20697
2026-01-27 01:07:13.81	26.25	2.09	-54.1	-69.1	3.8	1.49e+00	0	41	104	0	78	21900
2026-01-27 01:07:14.82	26.25	2.15	-54.1	-69.1	3.8	1.49e+00	0	41	104	0	78	21814
2026-01-27 01:07:15.83	26.24	2.22	-54.1	-69.0	3.8	1.49e+00	0	41	104	0	78	21741
2026-01-27 01:07:16.84	26.23	2.28	-54.1	-69.1	3.8	1.49e+00	0	41	104	0	78	21770
2026-01-27 01:07:17.85	26.22	2.35	-54.1	-69.0	3.8	1.49e+00	0	41	104	0	78	21742
2026-01-27 01:07:18.85	26.21	2.41	-54.1	-69.1	3.8	1.49e+00	0	41	104	0	78	21797
2026-01-27 01:07:19.86	26.21	2.48	-54.1	-69.0	3.8	1.49e+00	0	41	104	0	78	21754
2026-01-27 01:07:20.87	26.20	2.54	-54.2	-69.2	3.8	1.49e+00	0	41	104	0	78	22048
2026-01-27 01:07:21.87	26.19	2.61	-54.2	-69.2	3.8	1.49e+00	0	41	104	0	79	20954
2026-01-27 01:07:22.88	26.18	2.68	-54.2	-69.2	3.8	1.49e+00	0	41	104	0	79	20970
2026-01-27 01:07:23.89	26.17	2.74	-54.2	-69.2	3.8	1.49e+00	0	41	104	0	79	20948
2026-01-27 01:07:24.90	26.17	2.81	-54.2	-69.2	3.8	1.49e+00	0	41	104	0	79	20928
2026-01-27 01:07:25.91	26.16	2.87	-54.2	-69.2	3.8	1.49e+00	0	41	104	0	79	20906
2026-01-27 01:07:26.91	26.15	2.94	-54.2	-69.2	3.8	1.49e+00	0	41	104	0	79	20917
2026-01-27 01:07:27.92	26.14	3.01	-54.2	-69.2	3.8	1.49e+00	0	42	104	0	79	20881
2026-01-27 01:07:28.93	26.13	3.07	-54.2	-69.1	3.8	1.49e+00	0	41	104	0	79	20739
2026-01-27 01:07:29.94	26.13	3.14	-54.1	-69.1	3.8	1.49e+00	0	41	104	0	79	20661
2026-01-27 01:07:30.95	26.12	3.21	-54.1	-69.1	3.8	1.49e+00	0	41	104	0	79	20624
2026-01-27 01:07:31.95	26.11	3.27	-54.1	-69.1	3.8	1.49e+00	0	41	104	0	79	20682
2026-01-27 01:07:32.96	26.10	3.34	-54.1	-69.1	3.8	1.49e+00	0	42	104	0	79	20548
2026-01-27 01:07:33.97	26.09	3.41	-54.0	-69.0	3.8	1.49e+00	0	41	104	0	79	20443
2026-01-27 01:07:34.98	26.08	3.48	-53.9	-68.9	3.8	1.49e+00	0	42	104	0	79	20204
2026-01-27 01:07:35.98	26.07	3.54	-53.9	-68.9	3.8	1.49e+00	0	41	104	0	79	20104
2026-01-27 01:07:36.99	26.07	3.61	-53.8	-68.8	3.8	1.49e+00	0	41	104	0	79	19926
2026-01-27 01:07:38.00	26.06	3.68	-53.7	-68.7	3.8	1.49e+00	0	42	104	0	79	19683
2026-01-27 01:07:39.01	26.05	3.75	-53.6	-68.6	3.8	1.49e+00	0	42	104	0	79	19398
2026-01-27 01:07:40.01	26.04	3.82	-53.5	-68.2	3.8	1.49e+00	0	42	104	0	78	19697
2026-01-27 01:07:41.02	26.03	3.88	-53.2	-68.2	3.8	1.49e+00	0	42	104	0	78	19740
2026-01-27 01:07:42.03	26.02	3.95	-53.0	-67.9	3.8	1.49e+00	0	42	104	0	78	19072
2026-01-27 01:07:43.04	26.01	4.02	-52.5	-66.9	3.8	1.49e+00	0	42	104	0	77	18065
2026-01-27 01:07:44.04	26.00	4.09	-50.7	-55.8	10.1	7.93e-03	0	42	0	0	73	6314
2026-01-27 01:07:45.05	25.99	4.16	-50.0	-54.1	11.9	7.47e-04	0	42	0	2097152	72	5518
2026-01-27 01:07:46.06	25.98	4.23	-50.0	-53.9	12.2	3.49e-04	0	42	0	4194304	71	5714
2026-01-27 01:07:47.07	25.97	4.30	-49.4	-52.9	13.3	9.00e-05	0	42	0	6291456	70	5345
2026-01-27 01:07:48.07	25.96	4.37	-49.2	-52.5	13.7	1.14e-05	0	42	0	7340032	70	5140
2026-01-27 01:07:49.08	25.96	4.44	-49.2	-52.4	13.9	1.50e-06	0	42	0	9437184	70	5054
2026-01-27 01:07:50.08	25.95	4.51	-49.0	-52.0	14.2	6.10e-06	0	42	0	11534336	70	4852
2026-01-27 01:07:51.09	25.94	4.58	-48.8	-51.8	14.4	1.50e-06	0	42	0	13631488	69	4999
2026-01-27 01:07:52.10	25.93	4.65	-48.9	-51.9	14.3	1.50e-06	0	42	0	15728640	69	5080
2026-01-27 01:07:53.10	25.92	4.72	-48.9	-51.9	14.4	0.00e+00	0	42	0	16777216	69	5057
2026-01-27 01:07:54.11	25.91	4.79	-49.1	-52.3	13.9	2.20e-06	0	42	0	18874368	69	5329
2026-01-27 01:07:55.12	25.90	4.86	-49.6	-53.2	13.1	5.30e-06	0	42	0	20971520	69	5869
2026-01-27 01:07:56.13	25.89	4.93	-49.9	-53.8	12.4	1.45e-04	0	42	0	23068672	70	5939
2026-01-27 01:07:57.14	25.88	5.01	-50.1	-54.4	11.7	3.58e-04	0	42	0	25165824	70	6409
2026-01-27 01:07:58.14	25.87	5.08	-50.4	-55.2	10.9	1.43e-03	0	42	0	27262976	71	6600
2026-01-27 01:07:59.15	25.86	5.15	-51.7	-60.4	5.8	1.45e-01	0	42	0	28311552	74	10062
2026-01-27 01:08:00.16	25.85	5.22	-48.8	-51.6	14.7	7.69e-03	0	42	0	30408704	69	4909
2026-01-27 01:08:01.17	25.84	5.29	-52.0	-65.6	3.8	1.27e+00	0	42	104	31457280	74	18433
2026-01-27 01:08:02.17	25.83	5.36	-48.6	-51.3	14.9	5.69e-01	0	42	0	31457280	69	4737
2026-01-27 01:08:03.18	25.81	5.44	-51.2	-57.5	8.5	2.84e-04	0	42	0	33554432	73	7684
2026-01-27 01:08:04.19	25.80	5.51	-48.8	-51.5	14.8	0.00e+00	0	42	0	34603008	69	4859
2026-01-27 01:08:05.19	25.79	5.58	-48.8	-51.7	14.7	7.00e-07	0	42	0	36700160	69	4944
2026-01-27 01:08:06.20	25.78	5.66	-48.5	-51.0	15.4	0.00e+00	0	42	0	38797312	68	4853
2026-01-27 01:08:07.21	25.77	5.73	-48.5	-51.0	15.4	0.00e+00	0	42	0	40894464	68	4867
2026-01-27 01:08:08.22	25.76	5.80	-48.4	-50.9	15.6	0.00e+00	0	42	0	42991616	68	4778
2026-01-27 01:08:09.22	25.75	5.88	-48.1	-50.5	16.0	0.00e+00	0	42	0	44040192	68	4578
2026-01-27 01:08:10.23	25.74	5.95	-48.3	-50.7	15.8	0.00e+00	0	42	0	46137344	68	4680
2026-01-27 01:08:11.23	25.73	6.03	-48.3	-50.7	15.8	0.00e+00	0	42	0	48234496	68	4684
2026-01-27 01:08:12.24	25.72	6.10	-48.0	-50.3	16.2	0.00e+00	0	42	0	50331648	68	4487
2026-01-27 01:08:13.25	25.71	6.17	-48.1	-50.5	16.1	0.00e+00	0	42	0	52428800	68	4567
2026-01-27 01:08:14.26	25.69	6.25	-48.2	-50.6	15.9	0.00e+00	0	42	0	53477376	68	4635
2026-01-27 01:08:15.26	25.68	6.32	-48.1	-50.5	16.1	0.00e+00	0	42	0	55574528	68	4564
2026-01-27 01:08:16.27	25.67	6.40	-48.1	-50.4	16.1	0.00e+00	0	42	0	57671680	68	4541
2026-01-27 01:08:17.28	25.66	6.48	-48.1	-50.3	16.2	0.00e+00	0	42	0	59768832	68	4493
2026-01-27 01:08:18.29	25.65	6.55	-48.1	-50.4	16.2	0.00e+00	0	42	0	61865984	68	4528
2026-01-27 01:08:19.30	25.64	6.63	-48.1	-50.4	16.2	0.00e+00	0	42	0	62914560	68	4542
2026-01-27 01:08:20.31	25.62	6.70	-48.1	-50.5	16.1	0.00e+00	0	42	0	65011712	68	4565
2026-01-27 01:08:21.31	25.61	6.78	-48.2	-50.6	16.0	0.00e+00	0	42	0	67108864	68	4615
2026-01-27 01:08:22.32	25.60	6.86	-48.0	-50.2	16.4	0.00e+00	0	42	0	69206016	68	4417
2026-01-27 01:08:23.32	25.59	6.93	-47.7	-49.8	16.8	0.00e+00	0	42	0	71303168	67	4475
2026-01-27 01:08:24.33	25.58	7.01	-47.9	-50.1	16.5	0.00e+00	0	42	0	72351744	67	4612
2026-01-27 01:08:25.34	25.56	7.09	-47.8	-50.0	16.5	0.00e+00	0	42	0	74448896	67	4583
2026-01-27 01:08:26.34	25.55	7.16	-47.9	-50.1	16.5	0.00e+00	0	42	0	76546048	67	4632
2026-01-27 01:08:27.35	25.54	7.24	-47.8	-49.9	16.6	0.00e+00	0	42	0	78643200	67	4545
2026-01-27 01:08:28.36	25.53	7.32	-47.7	-49.8	16.8	0.00e+00	0	42	0	80740352	67	4483
2026-01-27 01:08:29.37	25.51	7.40	-47.8	-49.9	16.7	0.00e+00	0	42	0	81788928	67	4535
2026-01-27 01:08:30.38	25.50	7.48	-47.8	-50.0	16.6	0.00e+00	0	42	0	83886080	67	4556
2026-01-27 01:08:31.38	25.49	7.56	-47.6	-49.6	17.0	0.00e+00	0	42	0	85983232	67	4383
2026-01-27 01:08:32.39	25.47	7.64	-47.7	-49.8	16.9	0.00e+00	0	42	0	88080384	67	4458
2026-01-27 01:08:33.40	25.46	7.71	-47.7	-49.8	16.8	0.00e+00	0	42	0	90177536	67	4469
2026-01-27 01:08:34.41	25.45	7.79	-47.6	-49.7	16.9	0.00e+00	0	42	0	91226112	67	4427
2026-01-27 01:08:35.41	25.44	7.87	-47.7	-49.8	16.9	0.00e+00	0	42	0	93323264	67	4474
2026-01-27 01:08:36.42	25.42	7.95	-47.7	-49.8	16.8	0.00e+00	0	42	0	95420416	67	4469
2026-01-27 01:08:37.43	25.41	8.03	-47.6	-49.7	17.0	0.00e+00	0	42	0	97517568	67	4412
2026-01-27 01:08:38.44	25.40	8.11	-47.6	-49.6	17.1	0.00e+00	0	43	0	99614720	67	4356
2026-01-27 01:08:39.44	25.38	8.19	-47.6	-49.7	17.0	0.00e+00	0	42	0	100663296	67	4395
2026-01-27 01:08:40.45	25.37	8.28	-47.6	-49.6	17.1	0.00e+00	0	43	0	102760448	67	4353
2026-01-27 01:08:41.46	25.35	8.36	-47.5	-49.5	17.2	0.00e+00	0	42	0	104857600	67	4302
2026-01-27 01:08:42.47	25.34	8.44	-47.7	-49.7	17.0	0.00e+00	0	43	0	106954752	66	4691
2026-01-27 01:08:43.47	25.33	8.52	-47.6	-49.7	17.0	0.00e+00	0	42	0	109051904	66	4681
2026-01-27 01:08:44.48	25.31	8.60	-47.6	-49.7	17.0	0.00e+00	0	43	0	110100480	66	4655
2026-01-27 01:08:45.49	25.30	8.68	-47.5	-49.5	17.3	0.00e+00	0	42	0	112197632	66	4552
2026-01-27 01:08:46.49	25.28	8.77	-47.4	-49.3	17.4	0.00e+00	0	43	0	114294784	66	4467
2026-01-27 01:08:47.50	25.27	8.85	-47.5	-49.5	17.2	0.00e+00	0	43	0	116391936	66	4569
2026-01-27 01:08:48.51	25.25	8.93	-47.5	-49.5	17.2	0.00e+00	0	43	0	118489088	66	4581
2026-01-27 01:08:49.52	25.24	9.02	-47.5	-49.5	17.2	0.00e+00	0	43	0	120586240	66	4564
2026-01-27 01:08:50.53	25.23	9.10	-47.4	-49.3	17.5	0.00e+00	0	42	0	121634816	66	4468
2026-01-27 01:08:51.53	25.21	9.18	-47.3	-49.2	17.5	0.00e+00	0	42	0	123731968	66	4430
2026-01-27 01:08:52.54	25.20	9.27	-47.3	-49.2	17.5	0.00e+00	0	43	0	125829120	66	4432
2026-01-27 01:08:53.55	25.18	9.35	-47.3	-49.3	17.5	0.00e+00	0	42	0	127926272	66	4445
2026-01-27 01:08:54.56	25.17	9.44	-47.5	-49.4	17.3	0.00e+00	0	42	0	128974848	66	4529
2026-01-27 01:08:55.57	25.15	9.52	-47.3	-49.2	17.5	0.00e+00	0	42	0	131072000	66	4414
2026-01-27 01:08:56.57	25.13	9.61	-47.2	-49.0	17.8	0.00e+00	0	43	0	133169152	66	4331
2026-01-27 01:08:57.58	25.12	9.69	-47.2	-49.0	17.8	0.00e+00	0	42	0	135266304	66	4326
2026-01-27 01:08:58.59	25.10	9.78	-47.2	-49.1	17.7	0.00e+00	0	43	0	137363456	66	4370
2026-01-27 01:08:59.59	25.09	9.87	-47.2	-49.1	17.7	0.00e+00	0	43	0	138412032	66	4350
2026-01-27 01:09:00.60	25.07	9.95	-47.1	-48.9	17.9	0.00e+00	0	42	0	140509184	66	4272
2026-01-27 01:09:01.61	25.06	10.04	-47.1	-48.9	17.9	0.00e+00	0	43	0	142606336	66	4278
2026-01-27 01:09:02.61	25.04	10.13	-47.2	-49.0	17.8	0.00e+00	0	43	0	144703488	66	4318
2026-01-27 01:09:03.62	25.02	10.21	-47.1	-48.9	18.0	0.00e+00	0	42	0	146800640	66	4250
2026-01-27 01:09:04.63	25.01	10.30	-47.2	-49.0	17.8	0.00e+00	0	43	0	148897792	66	4333
2026-01-27 01:09:05.64	24.99	10.39	-46.9	-48.7	18.1	0.00e+00	0	42	0	149946368	65	4424
2026-01-27 01:09:06.65	24.97	10.48	-47.0	-48.8	18.0	0.00e+00	0	43	0	152043520	65	4460
2026-01-27 01:09:07.66	24.96	10.57	-47.1	-48.9	18.0	0.00e+00	0	43	0	154140672	65	4497
2026-01-27 01:09:08.67	24.94	10.66	-47.1	-48.9	18.0	0.00e+00	0	43	0	156237824	65	4507
2026-01-27 01:09:09.67	24.92	10.75	-47.0	-48.8	18.1	0.00e+00	0	43	0	157286400	65	4448
2026-01-27 01:09:10.68	24.91	10.84	-46.9	-48.7	18.2	0.00e+00	0	43	0	159383552	65	4403
2026-01-27 01:09:11.68	24.89	10.92	-46.9	-48.7	18.2	0.00e+00	0	43	0	161480704	65	4405
2026-01-27 01:09:12.69	24.87	11.01	-46.9	-48.7	18.2	0.00e+00	0	43	0	163577856	65	4397
2026-01-27 01:09:13.70	24.85	11.11	-46.9	-48.6	18.3	0.00e+00	0	42	0	165675008	65	4364
2026-01-27 01:09:14.71	24.84	11.20	-46.8	-48.5	18.4	0.00e+00	0	43	0	166723584	65	4331
2026-01-27 01:09:15.72	24.82	11.29	-46.9	-48.6	18.2	0.00e+00	0	43	0	168820736	65	4382
2026-01-27 01:09:16.73	24.80	11.38	-46.8	-48.5	18.3	0.00e+00	0	43	0	170917888	65	4337
2026-01-27 01:09:17.74	24.78	11.47	-46.8	-48.5	18.4	0.00e+00	0	43	0	173015040	65	4292
2026-01-27 01:09:18.74	24.76	11.56	-46.7	-48.4	18.4	0.00e+00	0	43	0	175112192	65	4281
2026-01-27 01:09:19.75	24.75	11.66	-46.7	-48.4	18.5	0.00e+00	0	42	0	177209344	65	4266
2026-01-27 01:09:20.76	24.73	11.75	-46.7	-48.4	18.5	0.00e+00	0	43	0	178257920	65	4263
2026-01-27 01:09:21.77	24.71	11.84	-46.7	-48.4	18.5	0.00e+00	0	43	0	180355072	65	4277
2026-01-27 01:09:22.77	24.69	11.94	-46.6	-48.3	18.7	0.00e+00	0	43	0	182452224	65	4203
2026-01-27 01:09:23.78	24.67	12.03	-46.6	-48.3	18.6	0.00e+00	0	42	0	184549376	65	4214
2026-01-27 01:09:24.79	24.65	12.13	-46.8	-48.4	18.5	0.00e+00	0	43	0	185597952	65	4282
2026-01-27 01:09:25.79	24.63	12.22	-46.7	-48.3	18.6	0.00e+00	0	43	0	187695104	65	4230
2026-01-27 01:09:26.80	24.61	12.32	-46.6	-48.3	18.7	0.00e+00	0	43	0	189792256	65	4205
2026-01-27 01:09:27.81	24.59	12.41	-46.5	-48.2	18.8	0.00e+00	0	43	0	191889408	65	4150
2026-01-27 01:09:28.81	24.57	12.51	-46.6	-48.2	18.7	0.00e+00	0	43	0	193986560	65	4189
2026-01-27 01:09:29.82	24.55	12.60	-46.6	-48.2	18.8	0.00e+00	0	42	0	196083712	65	4164
2026-01-27 01:09:30.83	24.53	12.70	-46.6	-48.2	18.8	0.00e+00	0	42	0	197132288	65	4159
2026-01-27 01:09:31.83	24.51	12.80	-46.6	-48.3	18.7	0.00e+00	0	43	0	199229440	65	4217
2026-01-27 01:09:32.83	24.49	12.89	-46.5	-48.1	18.9	0.00e+00	0	43	0	201326592	65	4130
2026-01-27 01:09:33.84	24.47	12.99	-46.6	-48.3	18.7	0.00e+00	0	43	0	203423744	65	4209
2026-01-27 01:09:34.85	24.45	13.09	-46.6	-48.2	18.8	0.00e+00	0	43	0	205520896	65	4147
2026-01-27 01:09:35.86	24.43	13.19	-46.4	-48.0	19.0	0.00e+00	0	43	0	206569472	64	4306
2026-01-27 01:09:36.87	24.41	13.29	-46.4	-48.0	19.0	0.00e+00	0	43	0	208666624	64	4293
2026-01-27 01:09:37.88	24.39	13.39	-46.3	-47.9	19.1	0.00e+00	0	43	0	210763776	64	4248
2026-01-27 01:09:38.88	24.37	13.49	-46.3	-47.8	19.1	0.00e+00	0	43	0	212860928	64	4242
2026-01-27 01:09:39.89	24.35	13.59	-46.3	-47.8	19.2	0.00e+00	0	43	0	213909504	64	4216
2026-01-27 01:09:40.90	24.32	13.69	-46.2	-47.7	19.3	0.00e+00	0	43	0	216006656	64	4184
2026-01-27 01:09:41.91	24.30	13.79	-46.2	-47.7	19.3	0.00e+00	0	43	0	218103808	64	4173
2026-01-27 01:09:42.92	24.28	13.89	-46.3	-47.8	19.2	0.00e+00	0	43	0	220200960	64	4225
2026-01-27 01:09:43.93	24.26	13.99	-46.3	-47.8	19.2	0.00e+00	0	43	0	222298112	64	4230
2026-01-27 01:09:44.93	24.24	14.09	-46.2	-47.7	19.3	0.00e+00	0	43	0	224395264	64	4191
2026-01-27 01:09:45.94	24.21	14.20	-46.1	-47.6	19.4	0.00e+00	0	43	0	225443840	64	4142
2026-01-27 01:09:46.95	24.19	14.30	-46.1	-47.6	19.4	0.00e+00	0	43	0	227540992	64	4116
2026-01-27 01:09:47.96	24.17	14.40	-46.0	-47.5	19.5	0.00e+00	0	43	0	229638144	64	4077
2026-01-27 01:09:48.97	24.14	14.51	-46.1	-47.6	19.4	0.00e+00	0	43	0	231735296	64	4123
2026-01-27 01:09:49.97	24.12	14.61	-46.0	-47.4	19.6	0.00e+00	0	43	0	233832448	64	4042
2026-01-27 01:09:50.98	24.10	14.72	-46.1	-47.5	19.6	0.00e+00	0	43	0	234881024	63	4319
2026-01-27 01:09:51.99	24.07	14.82	-46.1	-47.5	19.6	0.00e+00	0	43	0	236978176	63	4335
2026-01-27 01:09:52.99	24.05	14.93	-46.2	-47.7	19.5	0.00e+00	0	43	0	239075328	63	4392
2026-01-27 01:09:54.00	24.03	15.03	-46.1	-47.5	19.6	0.00e+00	0	43	0	241172480	63	4328
2026-01-27 01:09:55.01	24.00	15.14	-46.0	-47.4	19.7	0.00e+00	0	43	0	242221056	63	4272
2026-01-27 01:09:56.02	23.98	15.25	-46.1	-47.5	19.6	0.00e+00	0	43	0	244318208	63	4318
2026-01-27 01:09:57.03	23.95	15.36	-46.0	-47.4	19.7	0.00e+00	0	43	0	246415360	63	4266
2026-01-27 01:09:58.04	23.93	15.46	-45.9	-47.3	19.8	0.00e+00	0	43	0	248512512	63	4205
2026-01-27 01:09:59.05	23.90	15.57	-45.9	-47.3	19.8	0.00e+00	0	43	0	250609664	63	4231
2026-01-27 01:10:00.05	23.88	15.68	-46.0	-47.4	19.7	0.00e+00	0	43	0	252706816	63	4250
2026-01-27 01:10:01.06	23.85	15.79	-45.9	-47.3	19.8	0.00e+00	0	43	0	253755392	63	4241
2026-01-27 01:10:02.07	23.83	15.90	-46.0	-47.4	19.7	0.00e+00	0	43	0	255852544	63	4282
2026-01-27 01:10:03.07	23.80	16.01	-45.9	-47.3	19.9	0.00e+00	0	43	0	257949696	63	4202
2026-01-27 01:10:04.08	23.77	16.12	-45.8	-47.2	20.0	0.00e+00	0	43	0	260046848	63	4160
2026-01-27 01:10:05.09	23.75	16.23	-45.7	-47.1	20.1	0.00e+00	0	43	0	262144000	63	4119
2026-01-27 01:10:06.10	23.72	16.35	-45.7	-47.1	20.1	0.00e+00	0	43	0	263192576	63	4108
2026-01-27 01:10:07.11	23.69	16.46	-45.7	-47.0	20.1	0.00e+00	0	43	0	265289728	63	4086
2026-01-27 01:10:08.12	23.67	16.57	-45.7	-47.0	20.1	0.00e+00	0	43	0	267386880	63	4090
2026-01-27 01:10:09.13	23.64	16.69	-45.7	-47.1	20.1	0.00e+00	0	43	0	269484032	63	4104
2026-01-27 01:10:10.13	23.61	16.80	-45.5	-46.8	20.4	0.00e+00	0	43	0	271581184	63	3980
2026-01-27 01:10:11.14	23.58	16.91	-45.6	-47.0	20.2	0.00e+00	0	43	0	272629760	63	4059
2026-01-27 01:10:12.15	23.55	17.03	-45.5	-46.8	20.4	0.00e+00	0	43	0	274726912	62	4201
2026-01-27 01:10:13.16	23.53	17.15	-45.5	-46.8	20.4	0.00e+00	0	43	0	276824064	62	4198
2026-01-27 01:10:14.17	23.50	17.26	-45.5	-46.8	20.4	0.00e+00	0	43	0	278921216	62	4218
2026-01-27 01:10:15.18	23.47	17.38	-45.4	-46.6	20.5	0.00e+00	0	43	0	281018368	62	4139
2026-01-27 01:10:16.18	23.44	17.50	-45.3	-46.6	20.6	0.00e+00	0	43	0	282066944	62	4106
2026-01-27 01:10:17.19	23.41	17.61	-45.3	-46.6	20.6	0.00e+00	0	43	0	284164096	62	4106
2026-01-27 01:10:18.20	23.38	17.73	-45.2	-46.5	20.7	0.00e+00	0	43	0	286261248	62	4072
2026-01-27 01:10:19.21	23.35	17.85	-45.3	-46.5	20.7	0.00e+00	0	43	0	288358400	62	4083
2026-01-27 01:10:20.22	23.32	17.97	-45.2	-46.5	20.7	0.00e+00	0	43	0	290455552	62	4053
2026-01-27 01:10:21.23	23.29	18.09	-45.2	-46.4	20.7	0.00e+00	0	43	0	291504128	62	4033
2026-01-27 01:10:22.24	23.26	18.21	-45.2	-46.4	20.8	0.00e+00	0	43	0	293601280	62	4043
2026-01-27 01:10:23.24	23.23	18.33	-45.2	-46.4	20.7	0.00e+00	0	43	0	295698432	62	4037
2026-01-27 01:10:24.25	23.20	18.46	-45.0	-46.2	20.9	0.00e+00	0	43	0	297795584	62	3955
2026-01-27 01:10:25.25	23.17	18.58	-45.0	-46.2	21.0	0.00e+00	0	43	0	299892736	62	3932
2026-01-27 01:10:26.26	23.13	18.70	-44.9	-46.1	21.0	0.00e+00	0	43	0	300941312	61	4129
2026-01-27 01:10:27.26	23.10	18.82	-44.9	-46.1	21.1	0.00e+00	0	43	0	303038464	61	4126
2026-01-27 01:10:28.27	23.07	18.95	-45.0	-46.2	21.0	0.00e+00	0	43	0	305135616	61	4151
2026-01-27 01:10:29.28	23.04	19.07	-44.9	-46.1	21.1	0.00e+00	0	43	0	307232768	61	4138
2026-01-27 01:10:30.29	23.00	19.20	-45.0	-46.2	21.0	0.00e+00	0	43	0	309329920	61	4153
2026-01-27 01:10:31.29	22.97	19.32	-44.9	-46.1	21.1	0.00e+00	0	43	0	310378496	61	4137
2026-01-27 01:10:32.30	22.94	19.45	-44.8	-46.0	21.2	0.00e+00	0	43	0	312475648	61	4082
2026-01-27 01:10:33.31	22.90	19.58	-44.8	-46.0	21.2	0.00e+00	0	43	0	314572800	61	4068
2026-01-27 01:10:34.31	22.87	19.71	-44.8	-46.0	21.2	0.00e+00	0	43	0	316669952	61	4085
2026-01-27 01:10:35.32	22.83	19.84	-44.7	-45.9	21.3	0.00e+00	0	43	0	318767104	61	4022
2026-01-27 01:10:36.33	22.80	19.97	-44.6	-45.8	21.4	0.00e+00	0	43	0	319815680	61	3966
2026-01-27 01:10:37.34	22.76	20.10	-44.6	-45.7	21.5	0.00e+00	0	43	0	321912832	61	3951
2026-01-27 01:10:38.35	22.73	20.23	-44.6	-45.8	21.4	0.00e+00	0	43	0	324009984	61	3976
2026-01-27 01:10:39.36	22.69	20.36	-44.6	-45.8	21.4	0.00e+00	0	43	0	326107136	61	3980
2026-01-27 01:10:40.37	22.65	20.49	-44.5	-45.6	21.6	0.00e+00	0	43	0	328204288	61	3910
2026-01-27 01:10:41.38	22.62	20.62	-44.5	-45.6	21.6	0.00e+00	0	43	0	329252864	60	4116
2026-01-27 01:10:42.39	22.58	20.76	-44.5	-45.6	21.6	0.00e+00	0	43	0	331350016	60	4142
2026-01-27 01:10:43.39	22.54	20.89	-44.5	-45.6	21.6	0.00e+00	0	43	0	333447168	60	4115
2026-01-27 01:10:44.40	22.51	21.03	-44.4	-45.5	21.7	0.00e+00	0	43	0	335544320	60	4084
2026-01-27 01:10:45.41	22.47	21.16	-44.4	-45.6	21.6	0.00e+00	0	43	0	337641472	60	4111
2026-01-27 01:10:46.42	22.43	21.30	-44.3	-45.5	21.7	0.00e+00	0	43	0	339738624	60	4053
2026-01-27 01:10:47.43	22.39	21.44	-44.3	-45.4	21.8	0.00e+00	0	43	0	340787200	60	4034
2026-01-27 01:10:48.43	22.35	21.57	-44.3	-45.4	21.8	0.00e+00	0	43	0	342884352	60	4007
2026-01-27 01:10:49.44	22.31	21.71	-44.3	-45.4	21.8	0.00e+00	0	43	0	344981504	60	4011
2026-01-27 01:10:50.45	22.27	21.85	-44.3	-45.4	21.8	0.00e+00	0	43	0	347078656	60	4044
2026-01-27 01:10:51.46	22.23	21.99	-44.4	-45.5	21.7	0.00e+00	0	43	0	348127232	60	4087
2026-01-27 01:10:52.46	22.19	22.13	-44.3	-45.4	21.8	0.00e+00	0	43	0	350224384	60	4033
2026-01-27 01:10:53.47	22.15	22.27	-44.4	-45.6	21.7	0.00e+00	0	43	0	352321536	60	4101
2026-01-27 01:10:54.48	22.11	22.42	-44.3	-45.4	21.9	0.00e+00	0	43	0	354418688	60	4019
2026-01-27 01:10:55.49	22.06	22.56	-44.2	-45.3	21.9	0.00e+00	0	43	0	356515840	60	3992
2026-01-27 01:10:56.50	22.02	22.70	-44.2	-45.3	21.9	0.00e+00	0	43	0	357564416	60	4002
2026-01-27 01:10:57.51	21.98	22.85	-44.3	-45.4	21.8	0.00e+00	0	43	0	359661568	60	4033
2026-01-27 01:10:58.51	21.94	22.99	-44.4	-45.5	21.7	0.00e+00	0	43	0	361758720	60	4060
2026-01-27 01:10:59.52	21.89	23.14	-44.5	-45.6	21.6	0.00e+00	0	43	0	363855872	60	4118
2026-01-27 01:11:00.53	21.85	23.29	-44.4	-45.5	21.7	0.00e+00	0	43	0	365953024	60	4092
2026-01-27 01:11:01.53	21.80	23.43	-44.4	-45.5	21.7	0.00e+00	0	43	0	368050176	60	4080
2026-01-27 01:11:02.54	21.76	23.58	-44.5	-45.6	21.7	0.00e+00	0	43	0	369098752	60	4123
2026-01-27 01:11:03.54	21.71	23.73	-44.5	-45.7	21.6	0.00e+00	0	43	0	371195904	60	4156
2026-01-27 01:11:04.55	21.67	23.88	-44.6	-45.7	21.6	0.00e+00	0	43	0	373293056	60	4167
2026-01-27 01:11:05.56	21.62	24.03	-44.6	-45.7	21.6	0.00e+00	0	43	0	375390208	60	4176
2026-01-27 01:11:06.56	21.57	24.18	-44.6	-45.8	21.5	0.00e+00	0	43	0	376438784	60	4209
2026-01-27 01:11:07.57	21.52	24.34	-44.7	-45.9	21.4	0.00e+00	0	43	0	378535936	60	4262
2026-01-27 01:11:08.58	21.48	24.49	-44.6	-45.7	21.6	0.00e+00	0	43	0	380633088	60	4188
2026-01-27 01:11:09.58	21.43	24.65	-44.7	-45.8	21.4	0.00e+00	0	43	0	382730240	60	4240
2026-01-27 01:11:10.59	21.38	24.80	-44.8	-46.0	21.3	0.00e+00	0	43	0	384827392	60	4324
2026-01-27 01:11:11.59	21.33	24.96	-44.8	-46.0	21.3	0.00e+00	0	43	0	385875968	60	4304
2026-01-27 01:11:12.60	21.28	25.11	-44.8	-46.0	21.4	0.00e+00	0	43	0	387973120	60	4316
2026-01-27 01:11:13.61	21.23	25.27	-44.9	-46.0	21.3	0.00e+00	0	43	0	390070272	60	4339
2026-01-27 01:11:14.61	21.18	25.43	-44.9	-46.1	21.2	0.00e+00	0	43	0	392167424	60	4364
2026-01-27 01:11:15.62	21.13	25.59	-45.0	-46.2	21.1	0.00e+00	0	43	0	394264576	60	4419
2026-01-27 01:11:16.63	21.07	25.75	-45.0	-46.2	21.1	0.00e+00	0	43	0	396361728	60	4437
2026-01-27 01:11:17.64	21.02	25.92	-45.0	-46.1	21.2	0.00e+00	0	43	0	397410304	60	4390
2026-01-27 01:11:18.64	20.97	26.08	-45.1	-46.3	21.0	0.00e+00	0	43	0	399507456	60	4480
2026-01-27 01:11:19.65	20.91	26.24	-45.2	-46.4	21.0	0.00e+00	0	43	0	401604608	60	4511
2026-01-27 01:11:20.66	20.86	26.41	-45.2	-46.4	20.9	0.00e+00	0	43	0	403701760	60	4534
2026-01-27 01:11:21.67	20.80	26.57	-45.2	-46.4	20.9	0.00e+00	0	43	0	404750336	61	4282
2026-01-27 01:11:22.67	20.75	26.74	-45.3	-46.5	20.9	0.00e+00	0	43	0	406847488	61	4325
2026-01-27 01:11:23.68	20.69	26.91	-45.5	-46.7	20.7	0.00e+00	0	43	0	408944640	61	4426
2026-01-27 01:11:24.69	20.63	27.08	-45.4	-46.7	20.7	0.00e+00	0	43	0	411041792	61	4419
2026-01-27 01:11:25.70	20.57	27.25	-45.5	-46.7	20.6	0.00e+00	0	43	0	413138944	61	4425
2026-01-27 01:11:26.71	20.51	27.42	-45.5	-46.8	20.6	0.00e+00	0	43	0	414187520	61	4469
2026-01-27 01:11:27.72	20.45	27.59	-45.7	-47.0	20.5	0.00e+00	0	43	0	416284672	61	4552
2026-01-27 01:11:28.72	20.40	27.76	-45.7	-47.0	20.4	0.00e+00	0	43	0	418381824	62	4339
2026-01-27 01:11:29.73	20.33	27.94	-45.8	-47.1	20.3	0.00e+00	0	43	0	420478976	62	4390
2026-01-27 01:11:30.74	20.27	28.11	-46.0	-47.4	20.1	0.00e+00	0	43	0	422576128	62	4509
2026-01-27 01:11:31.75	20.21	28.29	-46.2	-47.6	19.9	0.00e+00	0	43	0	424673280	63	4378
2026-01-27 01:11:32.75	20.15	28.47	-46.3	-47.7	19.7	0.00e+00	0	43	0	425721856	63	4438
2026-01-27 01:11:33.76	20.08	28.65	-46.6	-48.0	19.5	0.00e+00	0	43	0	427819008	63	4586
2026-01-27 01:11:34.77	20.02	28.83	-46.6	-48.1	19.5	0.00e+00	0	43	0	429916160	63	4622
2026-01-27 01:11:35.78	19.95	29.01	-46.7	-48.3	19.2	0.00e+00	0	43	0	432013312	64	4446
2026-01-27 01:11:36.78	19.89	29.19	-46.8	-48.4	19.0	0.00e+00	0	43	0	433061888	64	4515
2026-01-27 01:11:37.79	19.82	29.37	-47.0	-48.6	18.8	0.00e+00	0	43	0	435159040	64	4634
2026-01-27 01:11:38.80	19.75	29.56	-47.2	-48.8	18.7	0.00e+00	0	43	0	437256192	64	4738
2026-01-27 01:11:39.81	19.69	29.74	-47.3	-48.9	18.5	0.00e+00	0	43	0	439353344	65	4538
2026-01-27 01:11:40.81	19.62	29.93	-47.2	-48.9	18.6	0.00e+00	0	43	0	441450496	65	4517
2026-01-27 01:11:41.82	19.55	30.11	-47.4	-49.2	18.3	0.00e+00	0	43	0	442499072	65	4656
2026-01-27 01:11:42.81	19.48	30.30	-47.3	-49.0	18.5	0.00e+00	0	43	0	444596224	65	4580
2026-01-27 01:11:43.83	19.40	30.49	-47.5	-49.2	18.3	0.00e+00	0	43	0	446693376	65	4670
2026-01-27 01:11:44.83	19.33	30.68	-47.5	-49.2	18.3	0.00e+00	0	43	0	448790528	65	4700
2026-01-27 01:11:45.83	19.26	30.87	-47.5	-49.2	18.3	0.00e+00	0	43	0	450887680	65	4696
2026-01-27 01:11:46.83	19.19	31.07	-47.6	-49.4	18.1	0.00e+00	0	43	0	452984832	65	4776
2026-01-27 01:11:47.84	19.11	31.26	-47.5	-49.3	18.1	0.00e+00	0	43	0	454033408	65	4751
2026-01-27 01:11:48.85	19.03	31.46	-47.5	-49.4	18.1	0.00e+00	0	43	0	456130560	65	4790
2026-01-27 01:11:49.86	18.96	31.66	-47.7	-49.6	18.0	0.00e+00	0	43	0	458227712	66	4599
2026-01-27 01:11:50.86	18.88	31.85	-47.7	-49.5	18.0	0.00e+00	0	43	0	460324864	66	4572
2026-01-27 01:11:51.87	18.80	32.05	-47.7	-49.5	18.1	0.00e+00	0	43	0	462422016	66	4557
2026-01-27 01:11:52.87	18.72	32.25	-47.8	-49.5	18.0	0.00e+00	0	43	0	463470592	66	4595
2026-01-27 01:11:53.88	18.64	32.46	-47.6	-49.3	18.2	0.00e+00	0	43	0	465567744	66	4477
2026-01-27 01:11:54.89	18.55	32.66	-47.6	-49.3	18.2	0.00e+00	0	43	0	467664896	66	4464
2026-01-27 01:11:55.89	18.47	32.86	-47.8	-49.6	17.9	0.00e+00	0	43	0	469762048	66	4621
2026-01-27 01:11:56.90	18.39	33.07	-47.8	-49.6	17.9	0.00e+00	0	43	0	470810624	66	4616
2026-01-27 01:11:57.90	18.30	33.28	-47.9	-49.7	17.9	0.00e+00	0	43	0	472907776	66	4677
2026-01-27 01:11:58.91	18.21	33.49	-48.0	-49.8	17.7	0.00e+00	0	43	0	475004928	66	4754
2026-01-27 01:11:59.92	18.13	33.70	-47.9	-49.8	17.8	0.00e+00	0	43	0	477102080	66	4726
2026-01-27 01:12:00.92	18.04	33.91	-48.1	-50.0	17.6	0.00e+00	0	43	0	479199232	66	4823
2026-01-27 01:12:01.93	17.95	34.12	-48.0	-49.8	17.7	0.00e+00	0	43	0	481296384	66	4757
2026-01-27 01:12:02.94	17.85	34.34	-47.8	-49.6	18.1	0.00e+00	0	43	0	482344960	66	4602
2026-01-27 01:12:03.95	17.76	34.55	-47.7	-49.4	18.1	0.00e+00	0	43	0	484442112	66	4541
2026-01-27 01:12:04.95	17.67	34.77	-47.6	-49.3	18.3	0.00e+00	0	43	0	486539264	66	4467
2026-01-27 01:12:05.96	17.57	34.99	-47.3	-48.9	18.6	0.00e+00	0	43	0	488636416	66	4270
2026-01-27 01:12:06.97	17.47	35.21	-47.2	-48.8	18.7	0.00e+00	0	43	0	490733568	66	4239
2026-01-27 01:12:07.98	17.37	35.43	-47.0	-48.6	19.0	0.00e+00	0	43	0	491782144	66	4122
2026-01-27 01:12:08.99	17.27	35.66	-47.2	-48.8	18.8	0.00e+00	0	43	0	493879296	65	4452
2026-01-27 01:12:09.99	17.17	35.88	-47.0	-48.5	19.1	0.00e+00	0	43	0	495976448	65	4323
2026-01-27 01:12:11.00	17.07	36.11	-46.8	-48.3	19.2	0.00e+00	0	43	0	498073600	65	4220
2026-01-27 01:12:12.01	16.97	36.33	-46.5	-48.0	19.6	0.00e+00	0	43	0	499122176	65	4055
2026-01-27 01:12:13.02	16.86	36.56	-46.5	-47.9	19.6	0.00e+00	0	43	0	501219328	65	4041
2026-01-27 01:12:14.03	16.75	36.79	-46.5	-48.0	19.6	0.00e+00	0	43	0	503316480	65	4064
2026-01-27 01:12:15.04	16.64	37.03	-46.4	-47.9	19.7	0.00e+00	0	43	0	505413632	64	4256
2026-01-27 01:12:16.05	16.53	37.26	-46.5	-48.0	19.6	0.00e+00	0	43	0	507510784	64	4297
2026-01-27 01:12:17.05	16.42	37.50	-46.6	-48.1	19.5	0.00e+00	0	43	0	509607936	64	4354
2026-01-27 01:12:18.06	16.31	37.73	-46.5	-48.0	19.6	0.00e+00	0	43	0	510656512	64	4309
2026-01-27 01:12:19.07	16.19	37.97	-46.6	-48.1	19.4	0.00e+00	0	43	0	512753664	64	4374
2026-01-27 01:12:20.07	16.07	38.21	-46.6	-48.1	19.5	0.00e+00	0	43	0	514850816	64	4359
2026-01-27 01:12:21.08	15.95	38.45	-46.7	-48.1	19.5	0.00e+00	0	43	0	516947968	64	4383
2026-01-27 01:12:22.09	15.83	38.70	-46.8	-48.3	19.2	0.00e+00	0	43	0	519045120	64	4468
2026-01-27 01:12:23.09	15.71	38.94	-47.0	-48.5	19.1	0.00e+00	0	43	0	520093696	64	4583
2026-01-27 01:12:24.10	15.58	39.19	-47.1	-48.7	18.8	0.00e+00	0	43	0	522190848	64	4689
2026-01-27 01:12:25.11	15.46	39.43	-47.1	-48.7	18.9	0.00e+00	0	43	0	524288000	65	4425
2026-01-27 01:12:26.12	15.33	39.68	-47.4	-49.0	18.6	0.00e+00	0	43	0	526385152	65	4593
2026-01-27 01:12:27.12	15.20	39.93	-47.3	-48.9	18.7	0.00e+00	0	43	0	528482304	65	4507
2026-01-27 01:12:28.13	15.06	40.19	-47.3	-49.0	18.7	0.00e+00	0	43	0	529530880	65	4550
2026-01-27 01:12:29.14	14.93	40.44	-47.1	-48.7	19.0	0.00e+00	0	43	0	531628032	65	4392
2026-01-27 01:12:30.15	14.79	40.70	-47.2	-48.8	18.8	0.00e+00	0	43	0	533725184	65	4463
2026-01-27 01:12:31.16	14.65	40.96	-47.1	-48.7	19.0	0.00e+00	0	43	0	535822336	65	4408
2026-01-27 01:12:32.17	14.51	41.22	-47.2	-48.8	18.8	0.00e+00	0	43	0	537919488	65	4486
2026-01-27 01:12:33.18	14.36	41.48	-47.3	-48.9	18.8	0.00e+00	0	43	0	538968064	65	4530
2026-01-27 01:12:34.19	14.22	41.74	-47.4	-49.1	18.6	0.00e+00	0	43	0	541065216	65	4628
2026-01-27 01:12:35.20	14.07	42.01	-47.4	-49.0	18.6	0.00e+00	0	43	0	543162368	65	4582
2026-01-27 01:12:36.20	13.92	42.27	-47.7	-49.4	18.3	0.00e+00	0	43	0	545259520	65	4777
2026-01-27 01:12:37.21	13.76	42.54	-47.6	-49.3	18.4	0.00e+00	0	43	0	547356672	65	4735
2026-01-27 01:12:38.22	13.60	42.81	-47.5	-49.2	18.5	0.00e+00	0	43	0	548405248	65	4662
2026-01-27 01:12:39.23	13.44	43.08	-47.5	-49.2	18.5	0.00e+00	0	43	0	550502400	65	4685
2026-01-27 01:12:40.23	13.28	43.35	-47.6	-49.3	18.4	0.00e+00	0	43	0	552599552	65	4706
2026-01-27 01:12:41.24	13.12	43.63	-47.6	-49.3	18.4	0.00e+00	0	43	0	554696704	65	4757
2026-01-27 01:12:42.25	12.95	43.90	-47.7	-49.4	18.3	0.00e+00	0	43	0	556793856	65	4774
2026-01-27 01:12:43.25	12.78	44.18	-47.6	-49.3	18.4	0.00e+00	0	43	0	557842432	66	4490
2026-01-27 01:12:44.26	12.60	44.46	-47.6	-49.3	18.4	0.00e+00	0	43	0	559939584	66	4481
2026-01-27 01:12:45.27	12.42	44.74	-47.4	-49.1	18.6	0.00e+00	0	43	0	562036736	66	4372
2026-01-27 01:12:46.28	12.24	45.03	-47.5	-49.1	18.6	0.00e+00	0	43	0	564133888	66	4391
2026-01-27 01:12:47.29	12.06	45.31	-47.2	-48.8	18.9	0.00e+00	0	43	0	566231040	66	4233
2026-01-27 01:12:48.29	11.87	45.59	-47.1	-48.6	19.1	0.00e+00	0	43	0	567279616	66	4136
2026-01-27 01:12:49.30	11.68	45.88	-47.0	-48.5	19.2	0.00e+00	0	43	0	569376768	66	4075
2026-01-27 01:12:50.31	11.48	46.17	-46.9	-48.4	19.3	0.00e+00	0	43	0	571473920	65	4286
2026-01-27 01:12:51.31	11.29	46.46	-47.0	-48.5	19.2	0.00e+00	0	43	0	573571072	65	4315
2026-01-27 01:12:52.32	11.08	46.76	-47.2	-48.8	19.0	0.00e+00	0	43	0	575668224	65	4446
2026-01-27 01:12:53.33	10.88	47.05	-47.3	-48.9	18.9	0.00e+00	0	43	0	576716800	65	4519
2026-01-27 01:12:54.33	10.67	47.35	-47.2	-48.8	18.9	0.00e+00	0	43	0	578813952	65	4475
2026-01-27 01:12:55.34	10.45	47.65	-47.2	-48.8	19.0	0.00e+00	0	43	0	580911104	65	4453
2026-01-27 01:12:56.35	10.23	47.95	-47.2	-48.8	18.9	0.00e+00	0	43	0	583008256	65	4470
2026-01-27 01:12:57.35	10.01	48.25	-47.2	-48.8	19.0	0.00e+00	0	43	0	585105408	65	4447
2026-01-27 01:12:58.36	9.79	48.55	-47.3	-48.9	18.8	0.00e+00	0	43	0	586153984	65	4530
2026-01-27 01:12:59.37	9.55	48.85	-47.4	-49.0	18.7	0.00e+00	0	43	0	588251136	65	4571
2026-01-27 01:13:00.37	9.32	49.16	-47.0	-48.5	19.2	0.00e+00	0	43	0	590348288	65	4331
2026-01-27 01:13:01.38	9.08	49.47	-46.8	-48.3	19.3	0.00e+00	0	43	0	592445440	65	4234
2026-01-27 01:13:02.39	8.83	49.78	-46.5	-47.9	19.8	0.00e+00	0	43	0	594542592	65	4030
2026-01-27 01:13:03.39	8.58	50.09	-46.2	-47.5	20.2	0.00e+00	0	43	0	595591168	64	4097
2026-01-27 01:13:04.40	8.32	50.40	-46.0	-47.3	20.4	0.00e+00	0	43	0	597688320	64	3986
2026-01-27 01:13:05.41	8.06	50.71	-45.8	-47.1	20.6	0.00e+00	0	43	0	599785472	63	4122
2026-01-27 01:13:06.42	7.79	51.03	-45.5	-46.8	21.0	0.00e+00	0	43	0	601882624	63	3961
2026-01-27 01:13:07.42	7.52	51.34	-45.1	-46.3	21.4	0.00e+00	0	43	0	603979776	62	3967
2026-01-27 01:13:08.44	7.23	51.67	-44.9	-46.0	21.7	0.00e+00	0	43	0	605028352	61	4086
2026-01-27 01:13:09.44	6.95	51.98	-44.4	-45.4	22.2	0.00e+00	0	43	0	607125504	60	4038
2026-01-27 01:13:10.45	6.66	52.30	-44.1	-45.1	22.5	0.00e+00	0	43	0	609222656	60	3909
2026-01-27 01:13:11.46	6.36	52.63	-44.1	-45.2	22.5	0.00e+00	0	43	0	611319808	60	3916
2026-01-27 01:13:12.47	6.05	52.95	-44.4	-45.5	22.2	0.00e+00	0	43	0	613416960	60	4053
2026-01-27 01:13:13.47	5.74	53.27	-44.7	-45.8	21.9	0.00e+00	0	43	0	614465536	60	4202
2026-01-27 01:13:14.48	5.42	53.60	-44.9	-46.0	21.7	0.00e+00	0	43	0	616562688	60	4315
2026-01-27 01:13:15.48	5.10	53.93	-45.1	-46.2	21.4	0.00e+00	0	43	0	618659840	60	4425
2026-01-27 01:13:16.49	4.76	54.25	-45.1	-46.3	21.4	0.00e+00	0	43	0	620756992	60	4454
2026-01-27 01:13:17.50	4.42	54.58	-45.5	-46.7	21.1	0.00e+00	0	43	0	622854144	61	4399
2026-01-27 01:13:18.50	4.07	54.91	-45.9	-47.2	20.6	0.00e+00	0	43	0	623902720	62	4413
2026-01-27 01:13:19.51	3.71	55.24	-45.9	-47.2	20.6	0.00e+00	0	43	0	625999872	62	4432
2026-01-27 01:13:20.52	3.34	55.58	-45.9	-47.2	20.6	0.00e+00	0	43	0	628097024	62	4406
2026-01-27 01:13:21.53	2.96	55.91	-46.1	-47.4	20.4	0.00e+00	0	43	0	630194176	62	4501
2026-01-27 01:13:22.53	2.58	56.24	-46.4	-47.8	20.1	0.00e+00	0	43	0	632291328	63	4467
2026-01-27 01:13:23.54	2.19	56.58	-46.8	-48.3	19.5	0.00e+00	0	43	0	633339904	64	4470
2026-01-27 01:13:24.55	1.78	56.91	-46.9	-48.4	19.4	0.00e+00	0	43	0	635437056	64	4535
2026-01-27 01:13:25.55	1.37	57.25	-47.3	-48.8	19.0	0.00e+00	0	43	0	637534208	65	4488
2026-01-27 01:13:26.56	0.94	57.58	-47.6	-49.2	18.5	0.00e+00	0	43	0	639631360	65	4704
2026-01-27 01:13:27.57	0.50	57.92	-47.6	-49.3	18.6	0.00e+00	0	43	0	641728512	65	4712
2026-01-27 01:13:28.57	0.06	58.26	-47.2	-48.8	18.9	0.00e+00	0	43	0	642777088	65	4442
2026-01-27 01:13:29.58	359.60	58.60	-47.3	-48.9	18.9	0.00e+00	0	43	0	644874240	65	4517
2026-01-27 01:13:30.59	359.13	58.93	-47.6	-49.2	18.6	0.00e+00	0	43	0	646971392	65	4705
2026-01-27 01:13:31.60	358.64	59.27	-47.5	-49.1	18.7	0.00e+00	0	43	0	649068544	66	4376
2026-01-27 01:13:32.60	358.15	59.61	-47.2	-48.7	19.1	0.00e+00	0	43	0	651165696	66	4182
2026-01-27 01:13:33.61	357.64	59.94	-47.0	-48.6	19.3	0.00e+00	0	43	0	652214272	66	4104
2026-01-27 01:13:34.63	357.11	60.29	-46.9	-48.3	19.4	0.00e+00	0	43	0	654311424	65	4239
2026-01-27 01:13:35.63	356.58	60.62	-46.5	-47.9	19.9	0.00e+00	0	43	0	656408576	65	4023
2026-01-27 01:13:36.64	356.03	60.96	-46.0	-47.3	20.5	0.00e+00	0	43	0	658505728	64	3980
2026-01-27 01:13:37.65	355.46	61.29	-46.0	-47.2	20.6	0.00e+00	0	43	0	660602880	63	4187
2026-01-27 01:13:38.65	354.88	61.62	-45.7	-47.0	20.8	0.00e+00	0	43	0	661651456	63	4059
2026-01-27 01:13:39.66	354.28	61.96	-45.5	-46.7	21.2	0.00e+00	0	43	0	663748608	62	4159
2026-01-27 01:13:40.67	353.67	62.29	-45.0	-46.2	21.6	0.00e+00	0	43	0	665845760	62	3920
2026-01-27 01:13:41.68	353.04	62.62	-44.8	-45.9	21.9	0.00e+00	0	43	0	667942912	61	4019
2026-01-27 01:13:42.69	352.38	62.95	-44.6	-45.6	22.1	0.00e+00	0	43	0	670040064	61	3897
2026-01-27 01:13:43.70	351.72	63.28	-44.7	-45.7	22.0	0.00e+00	0	43	0	671088640	60	4186
2026-01-27 01:13:44.71	351.03	63.61	-44.9	-46.1	21.8	0.00e+00	0	43	0	673185792	60	4344
2026-01-27 01:13:45.71	350.33	63.93	-45.2	-46.4	21.4	0.00e+00	0	43	0	675282944	61	4255
2026-01-27 01:13:46.73	349.59	64.26	-45.4	-46.5	21.3	0.00e+00	0	43	0	677380096	61	4325
2026-01-27 01:13:47.73	348.85	64.58	-46.1	-47.3	20.6	0.00e+00	0	43	0	679477248	62	4480
2026-01-27 01:13:48.74	348.08	64.89	-46.7	-48.1	19.8	0.00e+00	0	43	0	681574400	64	4375
2026-01-27 01:13:49.75	347.29	65.21	-47.3	-48.8	19.0	0.00e+00	0	43	0	682622976	65	4479
2026-01-27 01:13:50.75	346.49	65.52	-47.2	-48.7	19.1	0.00e+00	0	43	0	684720128	65	4416
2026-01-27 01:13:51.76	345.65	65.82	-47.0	-48.5	19.3	0.00e+00	0	43	0	686817280	65	4339
2026-01-27 01:13:52.77	344.79	66.13	-47.1	-48.6	19.2	0.00e+00	0	43	0	688914432	65	4389
2026-01-27 01:13:53.77	343.91	66.43	-47.2	-48.8	19.2	0.00e+00	0	43	0	689963008	65	4450
2026-01-27 01:13:54.78	343.00	66.72	-47.1	-48.6	19.3	0.00e+00	0	43	0	692060160	65	4360
2026-01-27 01:13:55.78	342.07	67.01	-47.3	-48.8	19.1	0.00e+00	0	43	0	694157312	65	4473
2026-01-27 01:13:56.79	341.11	67.30	-47.9	-49.6	18.4	0.00e+00	0	43	0	696254464	66	4632
2026-01-27 01:13:57.80	340.12	67.58	-48.2	-50.1	17.9	0.00e+00	0	43	0	698351616	66	4881
2026-01-27 01:13:58.81	339.11	67.86	-48.6	-50.5	17.5	0.00e+00	0	43	0	699400192	67	4859
2026-01-27 01:13:59.82	338.06	68.13	-48.8	-50.7	17.2	0.00e+00	0	43	0	701497344	68	4700
2026-01-27 01:14:00.83	336.99	68.40	-48.7	-50.6	17.5	0.00e+00	0	43	0	703594496	68	4649
2026-01-27 01:14:01.84	335.89	68.65	-48.2	-50.0	18.0	0.00e+00	0	43	0	705691648	68	4334
2026-01-27 01:14:02.85	334.76	68.91	-48.0	-49.8	18.1	0.00e+00	0	43	0	707788800	68	4213
2026-01-27 01:14:03.85	333.61	69.15	-48.1	-49.9	18.1	0.00e+00	0	43	0	709885952	68	4288
2026-01-27 01:14:04.86	332.42	69.38	-47.5	-49.2	18.8	0.00e+00	0	43	0	710934528	66	4396
2026-01-27 01:14:05.86	331.22	69.61	-46.8	-48.2	19.6	0.00e+00	0	43	0	713031680	65	4163
2026-01-27 01:14:06.86	329.98	69.83	-46.6	-47.9	19.9	0.00e+00	0	43	0	715128832	65	4044
2026-01-27 01:14:07.87	328.71	70.04	-46.4	-47.8	20.1	0.00e+00	0	43	0	717225984	64	4214
2026-01-27 01:14:08.88	327.40	70.25	-46.2	-47.6	20.2	0.00e+00	0	43	0	718274560	64	4106
2026-01-27 01:14:09.89	326.07	70.44	-46.3	-47.6	20.3	0.00e+00	0	43	0	720371712	64	4118
2026-01-27 01:14:10.89	324.73	70.62	-46.4	-47.8	20.1	0.00e+00	0	43	0	722468864	64	4208
2026-01-27 01:14:11.90	323.34	70.80	-46.2	-47.5	20.4	0.00e+00	0	43	0	724566016	64	4061
2026-01-27 01:14:12.91	321.93	70.96	-46.2	-47.5	20.4	0.00e+00	0	43	0	726663168	64	4083
2026-01-27 01:14:13.92	320.49	71.11	-46.2	-47.5	20.4	0.00e+00	0	43	0	728760320	64	4082
2026-01-27 01:14:14.92	319.04	71.25	-45.6	-46.8	21.1	0.00e+00	0	43	0	729808896	63	3986
2026-01-27 01:14:15.93	317.55	71.38	-45.4	-46.6	21.3	0.00e+00	0	43	0	731906048	62	4108
2026-01-27 01:14:16.93	316.06	71.50	-45.7	-46.9	21.0	0.00e+00	0	43	0	734003200	62	4285
2026-01-27 01:14:17.94	314.54	71.60	-46.4	-47.7	20.4	0.00e+00	0	43	0	736100352	63	4405
2026-01-27 01:14:18.95	312.99	71.70	-46.6	-48.0	20.0	0.00e+00	0	43	0	738197504	64	4292
2026-01-27 01:14:19.96	311.43	71.78	-46.8	-48.2	19.7	0.00e+00	0	43	0	739246080	64	4412
2026-01-27 01:14:20.97	309.86	71.85	-46.8	-48.3	19.6	0.00e+00	0	43	0	741343232	64	4454
2026-01-27 01:14:21.97	308.29	71.90	-46.9	-48.4	19.5	0.00e+00	0	43	0	743440384	64	4518
2026-01-27 01:14:22.98	306.70	71.94	-47.2	-48.7	19.3	0.00e+00	0	43	0	745537536	65	4395
2026-01-27 01:14:23.99	305.10	71.97	-46.9	-48.3	19.7	0.00e+00	0	43	0	746586112	65	4222
2026-01-27 01:14:25.00	303.50	71.99	-46.6	-48.0	19.9	0.00e+00	0	43	0	748683264	65	4077
2026-01-27 01:14:26.00	301.91	71.99	-46.8	-48.2	19.8	0.00e+00	0	43	0	750780416	65	4152
2026-01-27 01:14:27.01	300.30	71.98	-46.7	-48.1	19.8	0.00e+00	0	43	0	752877568	65	4125
2026-01-27 01:14:28.01	298.72	71.95	-47.1	-48.6	19.3	0.00e+00	0	43	0	754974720	65	4365
2026-01-27 01:14:29.02	297.12	71.91	-47.4	-48.9	19.1	0.00e+00	0	43	0	757071872	65	4542
2026-01-27 01:14:30.03	295.53	71.86	-46.9	-48.3	19.6	0.00e+00	0	43	0	758120448	65	4242
2026-01-27 01:14:31.04	293.96	71.80	-46.4	-47.8	20.2	0.00e+00	0	43	0	760217600	64	4197
2026-01-27 01:14:32.04	292.41	71.72	-46.2	-47.6	20.4	0.00e+00	0	43	0	762314752	64	4100
2026-01-27 01:14:33.05	290.86	71.63	-46.1	-47.4	20.5	0.00e+00	0	43	0	764411904	64	4041
2026-01-27 01:14:34.06	289.33	71.53	-46.0	-47.2	20.8	0.00e+00	0	43	0	766509056	63	4192
2026-01-27 01:14:35.07	287.82	71.41	-46.1	-47.3	20.8	0.00e+00	0	43	0	767557632	63	4220
2026-01-27 01:14:36.08	286.33	71.29	-46.0	-47.3	20.7	0.00e+00	0	43	0	769654784	63	4198
2026-01-27 01:14:37.09	284.86	71.15	-46.3	-47.6	20.5	0.00e+00	0	43	0	771751936	63	4357
2026-01-27 01:14:38.10	283.41	71.00	-46.0	-47.3	20.8	0.00e+00	0	43	0	773849088	63	4200
2026-01-27 01:14:39.10	282.00	70.84	-46.0	-47.2	20.9	0.00e+00	0	43	0	774897664	63	4156
2026-01-27 01:14:40.11	280.61	70.67	-46.4	-47.7	20.4	0.00e+00	0	43	0	776994816	63	4441
2026-01-27 01:14:41.12	279.24	70.49	-46.7	-48.0	19.9	0.00e+00	0	43	0	779091968	64	4339
2026-01-27 01:14:42.13	277.90	70.30	-47.0	-48.5	19.6	0.00e+00	0	43	0	781189120	64	4551
2026-01-27 01:14:43.14	276.59	70.10	-47.3	-48.8	19.2	0.00e+00	0	43	0	783286272	65	4492
2026-01-27 01:14:44.14	275.32	69.89	-47.8	-49.5	18.6	0.00e+00	0	43	0	785383424	66	4571
2026-01-27 01:14:45.15	274.06	69.67	-48.2	-50.0	18.0	0.00e+00	0	43	0	786432000	67	4579
2026-01-27 01:14:46.15	272.85	69.44	-48.9	-50.9	17.2	0.00e+00	0	43	0	788529152	68	4783
2026-01-27 01:14:47.16	271.65	69.21	-48.9	-50.8	17.4	0.00e+00	0	43	0	790626304	68	4758
2026-01-27 01:14:48.17	270.49	68.97	-48.6	-50.4	17.8	0.00e+00	0	43	0	792723456	68	4523
2026-01-27 01:14:49.17	269.36	68.72	-48.4	-50.2	18.0	0.00e+00	0	43	0	794820608	68	4429
2026-01-27 01:14:50.18	268.25	68.46	-48.3	-50.1	18.0	0.00e+00	0	43	0	795869184	68	4373
2026-01-27 01:14:51.19	267.17	68.20	-48.9	-50.9	17.1	0.00e+00	0	43	0	797966336	68	4776
2026-01-27 01:14:52.20	266.12	67.93	-49.7	-52.1	16.0	0.00e+00	0	43	0	800063488	70	4895
2026-01-27 01:14:53.21	265.09	67.65	-49.5	-51.7	16.5	0.00e+00	0	43	0	802160640	70	4654
2026-01-27 01:14:54.21	264.10	67.37	-49.4	-51.5	16.6	0.00e+00	0	43	0	803209216	70	4594
2026-01-27 01:14:55.22	263.13	67.09	-49.0	-51.0	17.3	0.00e+00	0	43	0	805306368	69	4571
2026-01-27 01:14:56.23	262.19	66.80	-48.2	-50.0	18.1	0.00e+00	0	43	0	807403520	68	4310
2026-01-27 01:14:57.24	261.27	66.50	-47.6	-49.3	18.7	0.00e+00	0	43	0	809500672	67	4196
2026-01-27 01:14:58.25	260.38	66.20	-47.5	-49.1	19.0	0.00e+00	0	43	0	811597824	66	4349
2026-01-27 01:14:59.25	259.52	65.90	-47.2	-48.7	19.3	0.00e+00	0	43	0	813694976	66	4173
2026-01-27 01:15:00.26	258.68	65.59	-47.1	-48.6	19.4	0.00e+00	0	43	0	814743552	66	4117
2026-01-27 01:15:01.27	257.86	65.28	-46.5	-47.9	20.1	0.00e+00	0	43	0	816840704	65	4014
2026-01-27 01:15:02.28	257.06	64.97	-45.7	-46.9	21.1	0.00e+00	0	43	0	818937856	63	4015
2026-01-27 01:15:03.28	256.29	64.65	-45.3	-46.4	21.6	0.00e+00	0	43	0	821035008	62	4017
2026-01-27 01:15:04.29	255.54	64.33	-45.2	-46.3	21.7	0.00e+00	0	43	0	823132160	62	3999
2026-01-27 01:15:05.30	254.80	64.01	-44.9	-46.0	21.9	0.00e+00	0	43	0	824180736	61	4081
2026-01-27 01:15:06.31	254.09	63.68	-45.1	-46.2	21.8	0.00e+00	0	43	0	826277888	61	4152
2026-01-27 01:15:07.31	253.40	63.36	-45.0	-46.1	21.8	0.00e+00	0	43	0	828375040	61	4129
2026-01-27 01:15:08.32	252.73	63.03	-45.0	-46.2	21.8	0.00e+00	0	43	0	830472192	61	4151
2026-01-27 01:15:09.33	252.07	62.70	-45.0	-46.1	21.9	0.00e+00	0	43	0	832569344	61	4120
2026-01-27 01:15:10.33	251.44	62.37	-45.1	-46.3	21.6	0.00e+00	0	43	0	833617920	61	4212
2026-01-27 01:15:11.34	250.82	62.04	-45.1	-46.2	21.8	0.00e+00	0	43	0	835715072	61	4164
2026-01-27 01:15:12.35	250.21	61.70	-45.2	-46.4	21.6	0.00e+00	0	43	0	837812224	61	4258
2026-01-27 01:15:13.36	249.63	61.37	-45.7	-46.9	21.2	0.00e+00	0	43	0	839909376	61	4500
2026-01-27 01:15:14.37	249.05	61.03	-46.0	-47.3	20.7	0.00e+00	0	43	0	842006528	62	4463
2026-01-27 01:15:15.37	248.50	60.70	-46.1	-47.4	20.6	0.00e+00	0	43	0	843055104	62	4506
2026-01-27 01:15:16.38	247.96	60.36	-46.1	-47.4	20.6	0.00e+00	0	43	0	845152256	62	4532
2026-01-27 01:15:17.39	247.43	60.02	-46.4	-47.7	20.3	0.00e+00	0	43	0	847249408	63	4413
2026-01-27 01:15:18.40	246.92	59.68	-46.7	-48.1	19.9	0.00e+00	0	43	0	849346560	63	4606
2026-01-27 01:15:19.41	246.42	59.34	-46.6	-48.0	19.9	0.00e+00	0	43	0	851443712	64	4332
2026-01-27 01:15:20.41	245.93	59.01	-47.3	-48.9	19.2	0.00e+00	0	43	0	852492288	65	4494
2026-01-27 01:15:21.41	245.46	58.67	-48.0	-49.7	18.4	0.00e+00	0	43	0	854589440	66	4677
2026-01-27 01:15:22.42	245.00	58.33	-48.0	-49.7	18.3	0.00e+00	0	43	0	856686592	66	4704
2026-01-27 01:15:23.43	244.55	58.00	-47.7	-49.3	18.6	0.00e+00	0	43	0	858783744	66	4488
2026-01-27 01:15:24.44	244.11	57.66	-47.9	-49.7	18.2	0.00e+00	0	43	0	860880896	66	4654
2026-01-27 01:15:25.45	243.68	57.32	-47.9	-49.6	18.4	0.00e+00	0	43	0	861929472	66	4613
2026-01-27 01:15:26.45	243.26	56.99	-47.7	-49.3	18.6	0.00e+00	0	43	0	864026624	66	4486
2026-01-27 01:15:27.46	242.85	56.65	-47.5	-49.1	18.8	0.00e+00	0	43	0	866123776	66	4388
2026-01-27 01:15:28.47	242.46	56.31	-47.4	-49.0	18.9	0.00e+00	0	43	0	868220928	66	4325
2026-01-27 01:15:29.48	242.07	55.98	-46.6	-47.9	20.0	0.00e+00	0	43	0	870318080	65	4045
2026-01-27 01:15:30.48	241.69	55.64	-45.7	-46.9	21.0	0.00e+00	0	43	0	871366656	63	4038
2026-01-27 01:15:31.49	241.32	55.31	-45.6	-46.8	21.0	0.00e+00	0	43	0	873463808	63	3993
2026-01-27 01:15:32.50	240.96	54.98	-45.7	-46.9	21.0	0.00e+00	0	43	0	875560960	63	4013
2026-01-27 01:15:33.51	240.60	54.65	-45.5	-46.7	21.2	0.00e+00	0	43	0	877658112	63	3935
2026-01-27 01:15:34.52	240.26	54.31	-45.6	-46.8	21.1	0.00e+00	0	43	0	879755264	62	4196
2026-01-27 01:15:35.53	239.92	53.98	-45.1	-46.3	21.6	0.00e+00	0	43	0	881852416	62	3960
2026-01-27 01:15:36.53	239.59	53.66	-45.1	-46.2	21.7	0.00e+00	0	43	0	882900992	62	3936
2026-01-27 01:15:37.54	239.27	53.33	-44.9	-46.0	21.8	0.00e+00	0	43	0	884998144	61	4091
2026-01-27 01:15:38.54	238.96	53.01	-45.0	-46.1	21.7	0.00e+00	0	43	0	887095296	61	4130
2026-01-27 01:15:39.56	238.65	52.68	-45.1	-46.3	21.6	0.00e+00	0	43	0	889192448	61	4196
2026-01-27 01:15:40.56	238.35	52.36	-45.1	-46.2	21.6	0.00e+00	0	43	0	890241024	61	4192
2026-01-27 01:15:41.57	238.05	52.04	-45.4	-46.6	21.3	0.00e+00	0	43	0	892338176	61	4378
2026-01-27 01:15:42.58	237.76	51.71	-45.9	-47.1	20.7	0.00e+00	0	43	0	894435328	62	4385
2026-01-27 01:15:43.59	237.48	51.39	-46.0	-47.3	20.6	0.00e+00	0	43	0	896532480	62	4461
2026-01-27 01:15:44.60	237.20	51.08	-46.0	-47.3	20.6	0.00e+00	0	43	0	898629632	62	4473
2026-01-27 01:15:45.60	236.94	50.76	-46.2	-47.5	20.4	0.00e+00	0	43	0	899678208	62	4566
2026-01-27 01:15:46.61	236.67	50.45	-46.5	-47.9	20.0	0.00e+00	0	43	0	901775360	63	4521
2026-01-27 01:15:47.61	236.41	50.13	-46.6	-48.0	19.9	0.00e+00	0	43	0	903872512	64	4331
2026-01-27 01:15:48.62	236.16	49.82	-46.9	-48.4	19.5	0.00e+00	0	43	0	905969664	64	4517
2026-01-27 01:15:49.63	235.91	49.51	-47.2	-48.8	19.0	0.00e+00	0	43	0	908066816	65	4475
2026-01-27 01:15:50.64	235.67	49.20	-47.5	-49.2	18.7	0.00e+00	0	43	0	910163968	65	4652
2026-01-27 01:15:51.64	235.43	48.90	-47.6	-49.3	18.6	0.00e+00	0	43	0	911212544	65	4719
2026-01-27 01:15:52.65	235.20	48.59	-47.6	-49.2	18.7	0.00e+00	0	43	0	913309696	65	4680
2026-01-27 01:15:53.66	234.97	48.28	-47.7	-49.3	18.5	0.00e+00	0	43	0	915406848	65	4748
2026-01-27 01:15:54.67	234.74	47.98	-47.8	-49.5	18.4	0.00e+00	0	43	0	917504000	66	4561
2026-01-27 01:15:55.68	234.52	47.68	-47.5	-49.1	18.7	0.00e+00	0	43	0	918552576	66	4388
2026-01-27 01:15:56.68	234.31	47.38	-47.6	-49.2	18.7	0.00e+00	0	43	0	920649728	66	4417
2026-01-27 01:15:57.69	234.10	47.08	-47.5	-49.1	18.7	0.00e+00	0	43	0	922746880	66	4375
2026-01-27 01:15:58.70	233.89	46.79	-47.7	-49.4	18.4	0.00e+00	0	43	0	924844032	66	4541
2026-01-27 01:15:59.71	233.68	46.49	-47.6	-49.3	18.5	0.00e+00	0	43	0	926941184	66	4453
2026-01-27 01:16:00.71	233.49	46.20	-47.7	-49.4	18.5	0.00e+00	0	43	0	927989760	66	4495
2026-01-27 01:16:01.72	233.29	45.91	-48.0	-49.7	18.1	0.00e+00	0	43	0	930086912	66	4702
2026-01-27 01:16:02.73	233.10	45.62	-48.0	-49.8	18.0	0.00e+00	0	43	0	932184064	66	4758
2026-01-27 01:16:03.73	232.91	45.34	-47.7	-49.4	18.5	0.00e+00	0	43	0	934281216	66	4498
2026-01-27 01:16:04.74	232.72	45.05	-47.7	-49.4	18.4	0.00e+00	0	43	0	936378368	66	4535
2026-01-27 01:16:05.75	232.54	44.77	-47.7	-49.3	18.5	0.00e+00	0	43	0	938475520	66	4480
2026-01-27 01:16:06.76	232.36	44.48	-47.9	-49.6	18.1	0.00e+00	0	43	0	939524096	66	4645
2026-01-27 01:16:07.77	232.19	44.20	-48.0	-49.8	18.0	0.00e+00	0	43	0	941621248	66	4716
2026-01-27 01:16:08.78	232.01	43.92	-48.1	-50.0	17.9	0.00e+00	0	43	0	943718400	66	4823
2026-01-27 01:16:09.79	231.84	43.64	-48.2	-50.0	17.8	0.00e+00	0	43	0	945815552	67	4597
2026-01-27 01:16:10.80	231.68	43.37	-48.2	-50.0	17.8	0.00e+00	0	43	0	946864128	67	4572
2026-01-27 01:16:11.81	231.51	43.09	-48.3	-50.2	17.6	0.00e+00	0	43	0	948961280	67	4657
2026-01-27 01:16:12.81	231.35	42.82	-48.3	-50.1	17.7	0.00e+00	0	43	0	951058432	67	4634
2026-01-27 01:16:13.82	231.19	42.55	-48.1	-49.9	18.0	0.00e+00	0	43	0	953155584	67	4505
2026-01-27 01:16:14.83	231.04	42.28	-48.2	-50.0	17.8	0.00e+00	0	43	0	955252736	67	4571
2026-01-27 01:16:15.83	230.89	42.02	-48.1	-50.0	17.9	0.00e+00	0	43	0	957349888	67	4546
2026-01-27 01:16:16.84	230.74	41.75	-48.5	-50.5	17.2	0.00e+00	0	43	0	958398464	67	4836
2026-01-27 01:16:17.85	230.59	41.49	-48.8	-50.8	17.0	0.00e+00	0	43	0	960495616	68	4746
2026-01-27 01:16:18.86	230.44	41.22	-48.7	-50.7	17.2	0.00e+00	0	43	0	962592768	68	4688
2026-01-27 01:16:19.87	230.30	40.96	-48.8	-50.8	17.0	0.00e+00	0	43	0	964689920	68	4754
2026-01-27 01:16:20.88	230.16	40.70	-48.8	-50.8	17.0	0.00e+00	0	43	0	966787072	68	4758
2026-01-27 01:16:21.89	230.02	40.45	-48.8	-50.8	16.9	0.00e+00	0	43	0	967835648	68	4738
2026-01-27 01:16:22.90	229.88	40.19	-48.8	-51.0	16.9	0.00e+00	0	43	0	969932800	68	4817
2026-01-27 01:16:23.90	229.75	39.94	-48.8	-50.9	16.9	0.00e+00	0	43	0	972029952	68	4794
2026-01-27 01:16:24.91	229.62	39.68	-48.7	-50.7	17.1	0.00e+00	0	43	0	974127104	68	4688
2026-01-27 01:16:25.91	229.49	39.44	-48.5	-50.4	17.4	0.00e+00	0	43	0	975175680	68	4524
2026-01-27 01:16:26.92	229.36	39.19	-48.2	-50.1	17.7	0.00e+00	0	43	0	977272832	68	4358
2026-01-27 01:16:27.93	229.23	38.94	-48.1	-50.0	17.9	0.00e+00	0	43	0	979369984	68	4301
2026-01-27 01:16:28.94	229.11	38.69	-47.7	-49.4	18.3	0.00e+00	0	43	0	981467136	67	4257
2026-01-27 01:16:29.94	228.99	38.45	-47.8	-49.6	18.1	0.00e+00	0	43	0	983564288	67	4354
2026-01-27 01:16:30.95	228.87	38.21	-48.1	-49.9	17.8	0.00e+00	0	43	0	985661440	67	4525
2026-01-27 01:16:31.96	228.75	37.97	-48.0	-49.9	17.8	0.00e+00	0	43	0	986710016	67	4504
2026-01-27 01:16:32.96	228.64	37.73	-47.7	-49.5	18.2	0.00e+00	0	43	0	988807168	67	4306
2026-01-27 01:16:33.97	228.52	37.49	-47.6	-49.3	18.4	0.00e+00	0	43	0	990904320	67	4212
2026-01-27 01:16:34.97	228.41	37.26	-47.4	-49.1	18.6	0.00e+00	0	43	0	993001472	66	4350
2026-01-27 01:16:35.98	228.30	37.02	-47.4	-49.0	18.7	0.00e+00	0	43	0	995098624	66	4325
2026-01-27 01:16:36.99	228.19	36.79	-47.1	-48.6	19.0	0.00e+00	0	43	0	996147200	66	4142
2026-01-27 01:16:38.00	228.08	36.55	-47.0	-48.6	19.0	0.00e+00	0	43	0	998244352	65	4355
2026-01-27 01:16:39.01	227.97	36.32	-47.1	-48.6	19.0	0.00e+00	0	43	0	1000341504	65	4385
2026-01-27 01:16:40.01	227.87	36.10	-47.2	-48.8	18.8	0.00e+00	0	43	0	1002438656	65	4460
2026-01-27 01:16:41.02	227.76	35.87	-47.1	-48.7	18.9	0.00e+00	0	43	0	1004535808	65	4413
2026-01-27 01:16:42.03	227.66	35.64	-47.1	-48.7	18.9	0.00e+00	0	43	0	1005584384	65	4433
2026-01-27 01:16:43.04	227.56	35.42	-47.3	-49.0	18.7	0.00e+00	0	43	0	1007681536	65	4553
2026-01-27 01:16:44.05	227.46	35.19	-47.6	-49.4	18.3	0.00e+00	0	43	0	1009778688	65	4768
2026-01-27 01:16:45.06	227.36	34.97	-48.0	-49.9	17.8	0.00e+00	0	43	0	1011875840	66	4768
2026-01-27 01:16:46.07	227.27	34.75	-48.2	-50.1	17.6	0.00e+00	0	43	0	1013972992	67	4614
2026-01-27 01:16:47.08	227.17	34.53	-48.3	-50.2	17.4	0.00e+00	0	43	0	1015021568	67	4695
2026-01-27 01:16:48.09	227.08	34.32	-48.2	-50.2	17.5	0.00e+00	0	43	0	1017118720	67	4662
2026-01-27 01:16:49.09	226.98	34.10	-48.2	-50.1	17.5	0.00e+00	0	43	0	1019215872	67	4605
2026-01-27 01:16:50.10	226.89	33.89	-47.9	-49.8	17.9	0.00e+00	0	43	0	1021313024	67	4448
2026-01-27 01:16:51.11	226.80	33.67	-47.8	-49.6	18.0	0.00e+00	0	43	0	1023410176	67	4342
2026-01-27 01:16:52.12	226.71	33.46	-47.9	-49.7	17.9	0.00e+00	0	43	0	1024458752	67	4437
2026-01-27 01:16:53.12	226.63	33.25	-48.1	-50.0	17.6	0.00e+00	0	43	0	1026555904	67	4560
2026-01-27 01:16:54.13	226.54	33.05	-48.2	-50.2	17.4	0.00e+00	0	43	0	1028653056	67	4667
2026-01-27 01:16:55.14	226.45	32.84	-48.4	-50.4	17.2	0.00e+00	0	43	0	1030750208	67	4792
2026-01-27 01:16:56.15	226.37	32.63	-48.6	-50.7	16.9	0.00e+00	0	43	0	1032847360	67	4937
2026-01-27 01:16:57.16	226.29	32.43	-48.8	-50.9	16.8	0.00e+00	0	43	0	1033895936	68	4810
2026-01-27 01:16:58.17	226.20	32.22	-49.0	-51.3	16.4	0.00e+00	0	43	0	1035993088	68	5000
2026-01-27 01:16:59.17	226.12	32.02	-49.4	-51.9	15.8	0.00e+00	0	43	0	1038090240	69	5055
2026-01-27 01:17:00.18	226.04	31.82	-49.7	-52.3	15.4	0.00e+00	0	43	0	1040187392	70	5032
2026-01-27 01:17:01.18	225.97	31.62	-49.8	-52.5	15.2	0.00e+00	0	43	0	1042284544	70	5120
2026-01-27 01:17:02.19	225.89	31.42	-49.8	-52.5	15.1	0.00e+00	0	43	0	1043333120	70	5158
2026-01-27 01:17:03.20	225.81	31.23	-49.8	-52.5	15.2	0.00e+00	0	43	0	1045430272	70	5112
2026-01-27 01:17:04.21	225.73	31.03	-49.7	-52.3	15.4	0.00e+00	0	43	0	1047527424	70	5022
2026-01-27 01:17:05.22	225.66	30.84	-49.5	-52.0	15.7	0.00e+00	0	43	0	1049624576	70	4835
2026-01-27 01:17:06.23	225.58	30.64	-49.3	-51.7	16.0	0.00e+00	0	43	0	1051721728	70	4662
2026-01-27 01:17:07.24	225.51	30.45	-49.3	-51.6	16.0	0.00e+00	0	43	0	1052770304	70	4642
2026-01-27 01:17:08.24	225.44	30.26	-49.0	-51.2	16.4	0.00e+00	0	43	0	1054867456	70	4420
2026-01-27 01:17:09.25	225.37	30.07	-48.9	-51.1	16.5	0.00e+00	0	43	0	1056964608	69	4624
2026-01-27 01:17:10.26	225.30	29.88	-48.8	-50.9	16.7	0.00e+00	0	43	0	1059061760	69	4545
2026-01-27 01:17:11.26	225.23	29.70	-48.6	-50.7	16.9	0.00e+00	0	43	0	1061158912	69	4423
2026-01-27 01:17:12.27	225.16	29.51	-48.6	-50.6	17.0	0.00e+00	0	43	0	1062207488	69	4389
2026-01-27 01:17:13.28	225.09	29.33	-48.6	-50.7	16.9	0.00e+00	0	43	0	1064304640	69	4429
2026-01-27 01:17:14.29	225.02	29.14	-48.6	-50.6	17.0	0.00e+00	0	43	0	1066401792	69	4368
2026-01-27 01:17:15.30	224.96	28.96	-48.7	-50.9	16.8	0.00e+00	0	43	0	1068498944	69	4494
2026-01-27 01:17:16.30	224.89	28.78	-48.8	-51.0	16.6	0.00e+00	0	43	0	1070596096	69	4592
2026-01-27 01:17:17.31	224.83	28.60	-48.9	-51.1	16.5	0.00e+00	0	43	0	1071644672	69	4625
2026-01-27 01:17:18.32	224.76	28.42	-48.9	-51.2	16.4	0.00e+00	0	43	0	1073741824	69	4664
2026-01-27 01:17:19.33	224.70	28.24	-49.0	-51.3	16.3	0.00e+00	0	43	0	1075838976	69	4719
2026-01-27 01:17:20.32	224.64	28.07	-48.8	-51.1	16.6	0.00e+00	0	43	0	1077936128	69	4602
2026-01-27 01:17:21.33	224.58	27.89	-48.7	-50.9	16.7	0.00e+00	0	43	0	1080033280	69	4516
2026-01-27 01:17:22.34	224.51	27.71	-48.7	-50.9	16.7	0.00e+00	0	43	0	1081081856	69	4498
2026-01-27 01:17:23.35	224.45	27.54	-48.6	-50.7	16.9	0.00e+00	0	43	0	1083179008	69	4415
2026-01-27 01:17:24.36	224.39	27.37	-48.6	-50.7	16.9	0.00e+00	0	43	0	1085276160	69	4440
2026-01-27 01:17:25.36	224.34	27.20	-48.6	-50.7	16.9	0.00e+00	0	43	0	1087373312	69	4420
2026-01-27 01:17:26.37	224.28	27.03	-48.4	-50.4	17.1	0.00e+00	0	43	0	1089470464	68	4521
2026-01-27 01:17:27.38	224.22	26.86	-48.2	-50.1	17.5	0.00e+00	0	43	0	1090519040	68	4368
2026-01-27 01:17:28.39	224.16	26.69	-48.0	-49.9	17.6	0.00e+00	0	43	0	1092616192	68	4268
2026-01-27 01:17:29.39	224.11	26.52	-47.7	-49.5	17.9	0.00e+00	0	43	0	1094713344	67	4312
2026-01-27 01:17:30.40	224.05	26.35	-47.4	-49.1	18.3	0.00e+00	0	43	0	1096810496	66	4370
2026-01-27 01:17:31.41	223.99	26.19	-47.3	-49.0	18.4	0.00e+00	0	43	0	1098907648	66	4333
2026-01-27 01:17:32.42	223.94	26.02	-47.3	-49.0	18.4	0.00e+00	0	43	0	1101004800	66	4329
2026-01-27 01:17:33.43	223.88	25.86	-47.4	-49.1	18.4	0.00e+00	0	43	0	1102053376	66	4344
2026-01-27 01:17:34.43	223.83	25.70	-47.6	-49.3	18.1	0.00e+00	0	43	0	1104150528	66	4484
2026-01-27 01:17:35.44	223.78	25.54	-47.5	-49.3	18.1	0.00e+00	0	43	0	1106247680	66	4453
2026-01-27 01:17:36.45	223.73	25.37	-47.7	-49.5	17.9	0.00e+00	0	43	0	1108344832	66	4562
2026-01-27 01:17:37.46	223.67	25.21	-47.8	-49.7	17.7	0.00e+00	0	43	0	1109393408	66	4655
2026-01-27 01:17:38.47	223.62	25.05	-47.9	-49.8	17.6	0.00e+00	0	43	0	1111490560	66	4725
2026-01-27 01:17:39.47	223.57	24.90	-47.9	-49.8	17.6	0.00e+00	0	43	0	1113587712	66	4744
2026-01-27 01:17:40.48	223.52	24.74	-47.9	-49.8	17.6	0.00e+00	0	43	0	1115684864	66	4745
2026-01-27 01:17:41.49	223.47	24.58	-47.9	-49.8	17.6	0.00e+00	0	43	0	1117782016	66	4744
2026-01-27 01:17:42.49	223.42	24.43	-47.7	-49.6	17.8	0.00e+00	0	43	0	1118830592	66	4617
2026-01-27 01:17:43.50	223.38	24.28	-47.5	-49.3	18.1	0.00e+00	0	43	0	1120927744	66	4487
2026-01-27 01:17:44.51	223.33	24.12	-47.4	-49.1	18.3	0.00e+00	0	43	0	1123024896	66	4390
2026-01-27 01:17:45.51	223.28	23.97	-47.1	-48.8	18.6	0.00e+00	0	43	0	1125122048	66	4219
2026-01-27 01:17:46.52	223.23	23.82	-47.0	-48.6	18.8	0.00e+00	0	43	0	1127219200	66	4123
2026-01-27 01:17:47.53	223.19	23.67	-46.7	-48.3	19.1	0.00e+00	0	43	0	1129316352	65	4208
2026-01-27 01:17:48.53	223.14	23.52	-46.7	-48.2	19.1	0.00e+00	0	43	0	1130364928	65	4175
2026-01-27 01:17:49.54	223.09	23.37	-46.4	-47.8	19.5	0.00e+00	0	43	0	1132462080	64	4229
2026-01-27 01:17:50.55	223.05	23.22	-46.1	-47.5	19.8	0.00e+00	0	43	0	1134559232	64	4066
2026-01-27 01:17:51.55	223.00	23.07	-46.0	-47.3	19.9	0.00e+00	0	43	0	1136656384	64	4004
2026-01-27 01:17:52.55	222.96	22.93	-46.1	-47.4	20.0	0.00e+00	0	43	0	1137704960	63	4279
2026-01-27 01:17:53.56	222.92	22.78	-46.1	-47.5	19.9	0.00e+00	0	43	0	1139802112	63	4309
2026-01-27 01:17:54.57	222.87	22.64	-46.0	-47.3	20.0	0.00e+00	0	43	0	1141899264	63	4234
2026-01-27 01:17:55.57	222.83	22.49	-46.1	-47.5	19.8	0.00e+00	0	43	0	1143996416	63	4333
2026-01-27 01:17:56.58	222.79	22.35	-46.2	-47.6	19.8	0.00e+00	0	43	0	1146093568	63	4365
2026-01-27 01:17:57.59	222.75	22.21	-46.1	-47.5	19.8	0.00e+00	0	43	0	1147142144	63	4332
2026-01-27 01:17:58.60	222.70	22.06	-46.1	-47.5	19.9	0.00e+00	0	43	0	1149239296	63	4319
2026-01-27 01:17:59.60	222.66	21.92	-46.1	-47.5	19.9	0.00e+00	0	43	0	1151336448	63	4302
2026-01-27 01:18:00.61	222.62	21.78	-46.1	-47.5	19.8	0.00e+00	0	43	0	1153433600	63	4322
2026-01-27 01:18:01.62	222.58	21.64	-46.2	-47.6	19.8	0.00e+00	0	43	0	1155530752	63	4349
2026-01-27 01:18:02.63	222.54	21.50	-46.3	-47.7	19.6	0.00e+00	0	43	0	1157627904	63	4413
2026-01-27 01:18:03.64	222.50	21.36	-46.2	-47.6	19.7	0.00e+00	0	43	0	1158676480	63	4386
2026-01-27 01:18:04.64	222.46	21.23	-46.3	-47.7	19.6	0.00e+00	0	43	0	1160773632	63	4408
2026-01-27 01:18:05.64	222.42	21.09	-46.2	-47.7	19.6	0.00e+00	0	43	0	1162870784	63	4401
2026-01-27 01:18:06.65	222.38	20.96	-46.3	-47.7	19.6	0.00e+00	0	43	0	1164967936	63	4411
2026-01-27 01:18:07.66	222.35	20.82	-46.3	-47.7	19.6	0.00e+00	0	43	0	1166016512	63	4413
2026-01-27 01:18:08.67	222.31	20.69	-46.2	-47.6	19.7	0.00e+00	0	43	0	1168113664	63	4373
2026-01-27 01:18:09.68	222.27	20.55	-46.3	-47.7	19.6	0.00e+00	0	43	0	1170210816	63	4424
2026-01-27 01:18:10.69	222.23	20.42	-46.2	-47.6	19.7	0.00e+00	0	43	0	1172307968	63	4384
2026-01-27 01:18:11.69	222.20	20.29	-46.3	-47.7	19.6	0.00e+00	0	43	0	1174405120	63	4421
2026-01-27 01:18:12.70	222.16	20.15	-46.4	-47.9	19.4	0.00e+00	0	43	0	1175453696	63	4509
2026-01-27 01:18:13.71	222.12	20.02	-46.5	-48.0	19.4	0.00e+00	0	43	0	1177550848	63	4557
2026-01-27 01:18:14.72	222.09	19.89	-46.4	-47.9	19.4	0.00e+00	0	43	0	1179648000	63	4535
2026-01-27 01:18:15.72	222.05	19.76	-46.5	-47.9	19.3	0.00e+00	0	43	0	1181745152	63	4543
2026-01-27 01:18:16.73	222.02	19.63	-46.5	-48.0	19.3	0.00e+00	0	43	0	1183842304	63	4567
2026-01-27 01:18:17.73	221.98	19.51	-46.5	-48.0	19.3	0.00e+00	0	43	0	1185939456	63	4571
2026-01-27 01:18:18.74	221.95	19.38	-46.5	-48.1	19.2	0.00e+00	0	43	0	1186988032	63	4607
2026-01-27 01:18:19.75	221.91	19.25	-46.7	-48.2	19.1	0.00e+00	0	43	0	1189085184	63	4689
2026-01-27 01:18:20.76	221.88	19.12	-46.7	-48.2	19.1	0.00e+00	0	43	0	1191182336	63	4695
2026-01-27 01:18:21.77	221.85	19.00	-46.6	-48.2	19.0	0.00e+00	0	43	0	1193279488	64	4418
2026-01-27 01:18:22.77	221.81	18.87	-46.7	-48.3	18.8	0.00e+00	0	43	0	1194328064	64	4490
2026-01-27 01:18:23.78	221.78	18.75	-46.8	-48.4	18.8	0.00e+00	0	43	0	1196425216	64	4518
2026-01-27 01:18:24.79	221.75	18.62	-46.9	-48.5	18.7	0.00e+00	0	43	0	1198522368	64	4587
2026-01-27 01:18:25.80	221.71	18.50	-47.0	-48.6	18.6	0.00e+00	0	43	0	1200619520	64	4635
2026-01-27 01:18:26.80	221.68	18.38	-46.9	-48.5	18.6	0.00e+00	0	43	0	1202716672	64	4583
2026-01-27 01:18:27.81	221.65	18.26	-46.8	-48.4	18.7	0.00e+00	0	43	0	1203765248	64	4528
2026-01-27 01:18:28.82	221.62	18.13	-46.6	-48.2	19.0	0.00e+00	0	43	0	1205862400	64	4422
2026-01-27 01:18:29.83	221.59	18.01	-46.7	-48.3	18.9	0.00e+00	0	43	0	1207959552	64	4455
2026-01-27 01:18:30.83	221.56	17.89	-46.7	-48.3	18.8	0.00e+00	0	43	0	1210056704	64	4478
2026-01-27 01:18:31.84	221.53	17.77	-46.6	-48.2	18.9	0.00e+00	0	43	0	1212153856	64	4422
2026-01-27 01:18:32.85	221.50	17.65	-46.6	-48.2	19.0	0.00e+00	0	43	0	1214251008	64	4396
2026-01-27 01:18:33.85	221.47	17.54	-46.6	-48.2	19.0	0.00e+00	0	43	0	1215299584	64	4404
2026-01-27 01:18:34.86	221.44	17.42	-46.5	-48.1	19.1	0.00e+00	0	43	0	1217396736	64	4356
2026-01-27 01:18:35.87	221.41	17.30	-46.5	-48.1	19.1	0.00e+00	0	43	0	1219493888	64	4348
2026-01-27 01:18:36.87	221.38	17.18	-46.6	-48.2	19.0	0.00e+00	0	43	0	1221591040	64	4394
2026-01-27 01:18:37.88	221.35	17.07	-46.6	-48.1	19.0	0.00e+00	0	43	0	1222639616	64	4373
2026-01-27 01:18:38.89	221.32	16.95	-46.5	-48.0	19.1	0.00e+00	0	43	0	1224736768	64	4326
2026-01-27 01:18:39.89	221.29	16.84	-46.5	-48.0	19.1	0.00e+00	0	43	0	1226833920	64	4316
2026-01-27 01:18:40.90	221.26	16.72	-46.5	-48.0	19.1	0.00e+00	0	43	0	1228931072	64	4317
2026-01-27 01:18:41.91	221.23	16.61	-46.6	-48.1	19.0	0.00e+00	0	43	0	1231028224	64	4373
2026-01-27 01:18:42.91	221.21	16.49	-46.7	-48.3	18.8	0.00e+00	0	43	0	1232076800	64	4465
2026-01-27 01:18:43.92	221.18	16.38	-46.6	-48.2	18.9	0.00e+00	0	43	0	1234173952	64	4419
2026-01-27 01:18:44.93	221.15	16.27	-46.6	-48.2	18.9	0.00e+00	0	43	0	1236271104	64	4423
2026-01-27 01:18:45.93	221.12	16.15	-46.6	-48.2	18.9	0.00e+00	0	43	0	1238368256	64	4404
2026-01-27 01:18:46.94	221.10	16.04	-46.7	-48.3	18.8	0.00e+00	0	43	0	1240465408	64	4449
2026-01-27 01:18:47.94	221.07	15.93	-46.8	-48.4	18.7	0.00e+00	0	43	0	1242562560	64	4523
