passes_logs/2026/01/27/R3.2S_Murmansk/R3.2S_Murmansk__20260127_230752_NOAA_20_JPSS-1_rec.log

#Pass ID: 20260127_230752_NOAA 20 (JPSS-1)
#Satellite: NOAA 20 (JPSS-1)
#Configuration: NOAA 20
#almurnet v.1.7.20251203
#Start time: 2026-01-27 23:07:53

#Version: 2.2.20231116
#Station: R3.2S_Murmansk
#Location: 33.079688 lon 68.888172 lat
#TLE: 1 43013U 17073A   26027.31247158  .00000160  00000+0  97001-4 0  9994
#TLE: 2 43013  98.7647 328.1226 0000969  21.9986 338.1231 14.19541059424489

#Time	Az	El	Level	Level2	SNR	BER	BlckErr	Temp	State	Recorded	gain1	gain2
2026-01-27 23:07:53.79	20.09	2.07	-53.5	-68.5	3.8	1.49e+00	0	41	0	0	79	19211
2026-01-27 23:07:54.80	20.14	2.13	-52.3	-67.3	3.8	1.49e+00	0	41	104	0	76	19964
2026-01-27 23:07:55.81	20.19	2.19	-52.0	-66.9	3.8	1.49e+00	0	41	104	0	76	19036
2026-01-27 23:07:56.81	20.23	2.25	-52.0	-66.9	3.8	1.49e+00	0	41	104	0	76	18992
2026-01-27 23:07:57.82	20.28	2.31	-52.0	-66.8	3.8	1.49e+00	0	41	104	0	75	19945
2026-01-27 23:07:58.83	20.33	2.37	-52.0	-66.8	3.8	1.49e+00	0	41	104	0	75	19983
2026-01-27 23:07:59.83	20.38	2.43	-52.0	-66.8	3.8	1.49e+00	0	41	104	0	75	19916
2026-01-27 23:08:00.84	20.43	2.49	-52.0	-66.8	3.8	1.49e+00	0	41	104	0	75	19885
2026-01-27 23:08:01.84	20.48	2.55	-52.0	-66.8	3.8	1.49e+00	0	41	104	0	75	19885
2026-01-27 23:08:02.85	20.53	2.61	-51.9	-66.7	3.8	1.49e+00	0	41	104	0	74	20990
2026-01-27 23:08:03.86	20.58	2.67	-52.0	-66.8	3.8	1.49e+00	0	41	104	0	74	21098
2026-01-27 23:08:04.87	20.63	2.74	-52.0	-66.8	3.8	1.49e+00	0	41	104	0	74	21075
2026-01-27 23:08:05.88	20.68	2.80	-52.0	-66.8	3.8	1.49e+00	0	41	104	0	74	21169
2026-01-27 23:08:06.88	20.73	2.86	-51.9	-66.8	3.8	1.49e+00	0	41	104	0	74	21194
2026-01-27 23:08:07.89	20.78	2.92	-51.9	-66.9	3.8	1.49e+00	0	42	104	0	74	21353
2026-01-27 23:08:08.90	20.83	2.98	-51.9	-66.9	3.8	1.49e+00	0	42	104	0	74	21359
2026-01-27 23:08:09.91	20.88	3.05	-52.0	-66.9	3.8	1.49e+00	0	42	104	0	74	21349
2026-01-27 23:08:10.91	20.93	3.11	-51.9	-66.8	3.8	1.49e+00	0	42	104	0	74	21158
2026-01-27 23:08:11.92	20.98	3.17	-51.9	-66.7	3.8	1.49e+00	0	42	104	0	74	20957
2026-01-27 23:08:12.92	21.03	3.23	-51.9	-66.7	3.8	1.49e+00	0	42	104	0	74	20777
2026-01-27 23:08:13.93	21.08	3.30	-51.9	-66.6	3.8	1.49e+00	0	42	104	0	74	20700
2026-01-27 23:08:14.93	21.14	3.36	-51.9	-66.6	3.8	1.49e+00	0	42	104	0	74	20646
2026-01-27 23:08:15.94	21.19	3.42	-51.9	-66.7	3.8	1.49e+00	0	42	104	0	74	20817
2026-01-27 23:08:16.95	21.24	3.48	-51.9	-66.7	3.8	1.49e+00	0	42	104	0	74	20993
2026-01-27 23:08:17.95	21.29	3.55	-51.9	-66.6	3.8	1.49e+00	0	42	104	0	74	20712
2026-01-27 23:08:18.96	21.34	3.61	-51.9	-66.0	3.8	1.49e+00	0	42	104	0	74	19170
2026-01-27 23:08:19.97	21.40	3.67	-51.8	-64.4	4.0	1.49e+00	0	42	104	0	74	16094
2026-01-27 23:08:20.97	21.45	3.74	-51.7	-62.6	4.4	1.41e+00	136	42	0	0	74	12998
2026-01-27 23:08:21.98	21.50	3.80	-51.4	-60.3	5.6	8.07e-01	0	42	0	2097152	74	9994
2026-01-27 23:08:22.99	21.56	3.86	-50.9	-58.6	7.0	2.39e-01	0	42	0	3145728	74	8224
2026-01-27 23:08:23.99	21.61	3.93	-50.7	-56.9	8.7	7.81e-02	0	42	0	5242880	73	7165
2026-01-27 23:08:25.00	21.66	3.99	-50.2	-55.2	10.4	6.75e-03	0	42	0	7340032	72	6216
2026-01-27 23:08:26.01	21.72	4.06	-49.9	-54.4	11.4	1.62e-03	0	42	0	9437184	71	6019
2026-01-27 23:08:27.01	21.77	4.12	-49.4	-53.2	12.5	3.56e-04	0	42	0	11534336	70	5564
2026-01-27 23:08:28.02	21.83	4.19	-49.2	-52.7	13.2	4.80e-05	0	42	0	12582912	70	5236
2026-01-27 23:08:29.02	21.88	4.25	-48.7	-51.9	14.0	8.30e-06	0	42	0	14680064	69	5048
2026-01-27 23:08:30.03	21.94	4.31	-48.7	-51.9	14.0	2.20e-06	0	42	0	16777216	69	5056
2026-01-27 23:08:31.03	21.99	4.38	-48.7	-51.7	14.2	6.80e-06	0	42	0	18874368	69	4980
2026-01-27 23:08:32.04	22.05	4.44	-48.8	-52.0	13.8	4.50e-06	0	42	0	20971520	69	5141
2026-01-27 23:08:33.05	22.10	4.51	-49.1	-52.5	13.3	5.30e-06	0	42	0	22020096	69	5447
2026-01-27 23:08:34.06	22.16	4.58	-49.3	-53.1	12.8	1.52e-05	0	42	0	24117248	69	5796
2026-01-27 23:08:35.06	22.21	4.64	-49.8	-54.1	11.7	1.91e-04	0	42	0	26214400	70	6192
2026-01-27 23:08:36.07	22.27	4.71	-50.3	-55.3	10.4	2.73e-03	0	42	0	28311552	71	6713
2026-01-27 23:08:37.08	22.33	4.77	-50.7	-56.8	8.9	1.40e-02	0	42	0	30408704	72	7487
2026-01-27 23:08:38.09	22.38	4.84	-51.1	-58.5	7.1	6.56e-02	0	42	0	31457280	72	9139
2026-01-27 23:08:39.09	22.44	4.90	-51.5	-61.2	5.1	4.38e-01	0	42	0	33554432	73	11814
2026-01-27 23:08:40.10	22.50	4.97	-51.8	-63.8	4.1	1.20e+00	0	42	0	34603008	74	14964
2026-01-27 23:08:41.11	22.55	5.04	-51.9	-66.0	3.8	1.48e+00	0	42	104	34603008	74	19339
2026-01-27 23:08:42.11	22.61	5.10	-51.5	-60.3	5.8	5.75e-01	0	42	0	34603008	74	9965
2026-01-27 23:08:43.12	22.67	5.17	-51.8	-66.4	3.8	1.49e+00	0	42	104	34603008	74	20083
2026-01-27 23:08:44.12	22.73	5.24	-51.9	-63.4	4.2	1.48e+00	0	42	104	34603008	74	14298
2026-01-27 23:08:45.13	22.79	5.30	-50.3	-55.0	11.0	4.36e-03	0	42	0	35651584	72	6062
2026-01-27 23:08:46.14	22.84	5.37	-51.9	-65.3	3.8	1.49e+00	0	42	104	36700160	74	17791
2026-01-27 23:08:47.14	22.90	5.44	-50.3	-54.9	10.9	1.47e+00	0	42	104	36700160	72	6033
2026-01-27 23:08:48.14	22.96	5.50	-49.8	-53.8	12.3	7.33e-04	0	42	0	37748736	71	5609
2026-01-27 23:08:49.15	23.02	5.57	-49.6	-53.2	12.9	1.35e-04	0	43	0	39845888	71	5251
2026-01-27 23:08:50.15	23.08	5.64	-49.2	-52.5	13.6	1.22e-05	0	42	0	41943040	70	5133
2026-01-27 23:08:51.16	23.14	5.71	-48.9	-51.9	14.2	3.00e-06	0	42	0	42991616	69	5077
2026-01-27 23:08:52.17	23.20	5.77	-48.6	-51.5	14.7	7.00e-07	0	43	0	45088768	68	5114
2026-01-27 23:08:53.17	23.26	5.84	-48.7	-51.6	14.6	7.00e-07	0	42	0	47185920	68	5167
2026-01-27 23:08:54.17	23.32	5.91	-48.7	-51.5	14.6	0.00e+00	0	42	0	49283072	68	5157
2026-01-27 23:08:55.18	23.38	5.98	-48.5	-51.2	15.0	0.00e+00	0	42	0	51380224	68	4975
2026-01-27 23:08:56.18	23.44	6.05	-48.5	-51.2	15.0	0.00e+00	0	43	0	52428800	68	4978
2026-01-27 23:08:57.18	23.50	6.11	-48.5	-51.2	15.0	1.50e-06	0	43	0	54525952	68	4964
2026-01-27 23:08:58.19	23.57	6.18	-48.7	-51.6	14.6	0.00e+00	0	42	0	56623104	68	5185
2026-01-27 23:08:59.20	23.63	6.25	-48.5	-51.2	15.0	0.00e+00	0	42	0	58720256	68	4955
2026-01-27 23:09:00.21	23.69	6.32	-48.3	-50.9	15.3	0.00e+00	0	42	0	60817408	68	4801
2026-01-27 23:09:01.21	23.75	6.39	-48.4	-51.0	15.3	0.00e+00	0	43	0	61865984	68	4841
2026-01-27 23:09:02.22	23.81	6.46	-48.1	-50.7	15.6	0.00e+00	0	42	0	63963136	68	4657
2026-01-27 23:09:03.22	23.88	6.53	-48.1	-50.6	15.7	0.00e+00	0	42	0	66060288	68	4616
2026-01-27 23:09:04.23	23.94	6.60	-47.9	-50.3	15.9	0.00e+00	0	43	0	68157440	67	4729
2026-01-27 23:09:05.23	24.00	6.67	-47.9	-50.2	16.0	0.00e+00	0	43	0	70254592	67	4695
2026-01-27 23:09:06.24	24.07	6.74	-48.0	-50.4	15.8	0.00e+00	0	43	0	71303168	67	4781
2026-01-27 23:09:07.25	24.13	6.81	-47.9	-50.2	16.0	0.00e+00	0	42	0	73400320	67	4698
2026-01-27 23:09:08.25	24.20	6.88	-47.8	-50.2	16.0	0.00e+00	0	43	0	75497472	67	4668
2026-01-27 23:09:09.26	24.26	6.95	-47.7	-50.1	16.1	0.00e+00	0	43	0	77594624	67	4601
2026-01-27 23:09:10.27	24.33	7.02	-47.6	-49.8	16.4	0.00e+00	0	43	0	79691776	67	4468
2026-01-27 23:09:11.28	24.39	7.09	-47.6	-49.8	16.4	0.00e+00	0	43	0	80740352	67	4486
2026-01-27 23:09:12.28	24.46	7.16	-47.6	-49.8	16.5	0.00e+00	0	43	0	82837504	67	4462
2026-01-27 23:09:13.29	24.52	7.24	-47.6	-49.8	16.5	0.00e+00	0	43	0	84934656	67	4465
2026-01-27 23:09:14.29	24.59	7.31	-47.6	-49.8	16.5	0.00e+00	0	43	0	87031808	66	4728
2026-01-27 23:09:15.30	24.66	7.38	-47.5	-49.7	16.6	0.00e+00	0	42	0	89128960	66	4671
2026-01-27 23:09:16.30	24.72	7.45	-47.4	-49.5	16.8	0.00e+00	0	43	0	90177536	66	4576
2026-01-27 23:09:17.31	24.79	7.52	-47.5	-49.6	16.7	0.00e+00	0	43	0	92274688	66	4633
2026-01-27 23:09:18.32	24.86	7.59	-47.4	-49.6	16.7	0.00e+00	0	43	0	94371840	66	4605
2026-01-27 23:09:19.32	24.92	7.67	-47.4	-49.5	16.8	0.00e+00	0	43	0	96468992	66	4569
2026-01-27 23:09:20.32	24.99	7.74	-47.3	-49.3	17.0	0.00e+00	0	43	0	98566144	66	4488
2026-01-27 23:09:21.33	25.06	7.81	-47.4	-49.5	16.9	0.00e+00	0	43	0	99614720	66	4560
2026-01-27 23:09:22.34	25.13	7.88	-47.3	-49.4	16.9	0.00e+00	0	43	0	101711872	66	4508
2026-01-27 23:09:23.35	25.20	7.96	-47.3	-49.3	17.0	0.00e+00	0	43	0	103809024	66	4477
2026-01-27 23:09:24.35	25.27	8.03	-47.3	-49.4	17.0	0.00e+00	0	43	0	105906176	66	4500
2026-01-27 23:09:25.36	25.34	8.10	-47.2	-49.2	17.1	0.00e+00	0	43	0	108003328	66	4416
2026-01-27 23:09:26.37	25.41	8.18	-47.3	-49.3	17.0	0.00e+00	0	43	0	109051904	66	4489
2026-01-27 23:09:27.37	25.48	8.25	-47.2	-49.2	17.2	0.00e+00	0	43	0	111149056	66	4424
2026-01-27 23:09:28.38	25.55	8.32	-47.2	-49.2	17.2	0.00e+00	0	43	0	113246208	66	4404
2026-01-27 23:09:29.39	25.62	8.40	-47.1	-49.1	17.2	0.00e+00	0	43	0	115343360	66	4384
2026-01-27 23:09:30.39	25.69	8.47	-47.1	-49.1	17.2	0.00e+00	0	43	0	116391936	65	4642
2026-01-27 23:09:31.39	25.76	8.55	-47.1	-49.0	17.4	0.00e+00	0	43	0	118489088	65	4592
2026-01-27 23:09:32.40	25.83	8.62	-47.0	-49.0	17.4	0.00e+00	0	43	0	120586240	65	4549
2026-01-27 23:09:33.41	25.91	8.70	-47.1	-49.1	17.3	0.00e+00	0	43	0	122683392	65	4620
2026-01-27 23:09:34.40	25.98	8.77	-47.1	-49.0	17.4	0.00e+00	0	43	0	124780544	65	4582
2026-01-27 23:09:35.41	26.05	8.85	-47.1	-49.0	17.4	0.00e+00	0	43	0	126877696	65	4580
2026-01-27 23:09:36.41	26.12	8.92	-46.9	-48.8	17.6	0.00e+00	0	43	0	127926272	65	4474
2026-01-27 23:09:37.42	26.20	9.00	-47.0	-48.9	17.5	0.00e+00	0	43	0	130023424	65	4545
2026-01-27 23:09:38.43	26.27	9.07	-47.0	-48.9	17.6	0.00e+00	0	43	0	132120576	65	4495
2026-01-27 23:09:39.43	26.35	9.15	-46.9	-48.7	17.7	0.00e+00	0	43	0	134217728	65	4428
2026-01-27 23:09:40.43	26.42	9.22	-46.8	-48.6	17.9	0.00e+00	0	43	0	136314880	65	4374
2026-01-27 23:09:41.44	26.50	9.30	-46.7	-48.6	17.9	0.00e+00	0	43	0	137363456	65	4341
2026-01-27 23:09:42.45	26.57	9.38	-46.7	-48.5	18.0	0.00e+00	0	43	0	139460608	65	4294
2026-01-27 23:09:43.45	26.65	9.45	-46.7	-48.5	18.0	0.00e+00	0	43	0	141557760	65	4313
2026-01-27 23:09:44.46	26.72	9.53	-46.6	-48.4	18.1	0.00e+00	0	43	0	143654912	65	4263
2026-01-27 23:09:45.46	26.80	9.61	-46.6	-48.3	18.2	0.00e+00	0	43	0	144703488	65	4228
2026-01-27 23:09:46.47	26.88	9.68	-46.6	-48.3	18.1	0.00e+00	0	43	0	146800640	65	4218
2026-01-27 23:09:47.48	26.95	9.76	-46.6	-48.4	18.1	0.00e+00	0	43	0	148897792	65	4252
2026-01-27 23:09:48.48	27.03	9.84	-46.4	-48.1	18.3	0.00e+00	0	43	0	150994944	64	4390
2026-01-27 23:09:49.49	27.11	9.92	-46.5	-48.2	18.3	0.00e+00	0	43	0	153092096	64	4397
2026-01-27 23:09:50.49	27.19	10.00	-46.5	-48.3	18.2	0.00e+00	0	43	0	155189248	64	4444
2026-01-27 23:09:51.50	27.27	10.07	-46.5	-48.2	18.3	0.00e+00	0	43	0	156237824	64	4429
2026-01-27 23:09:52.51	27.35	10.15	-46.5	-48.2	18.3	0.00e+00	0	43	0	158334976	64	4427
2026-01-27 23:09:53.52	27.43	10.23	-46.4	-48.1	18.4	0.00e+00	0	43	0	160432128	64	4386
2026-01-27 23:09:54.53	27.51	10.31	-46.4	-48.1	18.5	0.00e+00	0	43	0	162529280	64	4354
2026-01-27 23:09:55.53	27.59	10.39	-46.5	-48.2	18.3	0.00e+00	0	43	0	164626432	64	4432
2026-01-27 23:09:56.54	27.67	10.47	-46.5	-48.2	18.3	0.00e+00	0	43	0	165675008	64	4434
2026-01-27 23:09:57.55	27.75	10.55	-46.5	-48.2	18.3	0.00e+00	0	43	0	167772160	64	4420
2026-01-27 23:09:58.55	27.83	10.63	-46.4	-48.1	18.5	0.00e+00	0	43	0	169869312	64	4354
2026-01-27 23:09:59.56	27.91	10.71	-46.4	-48.1	18.4	0.00e+00	0	43	0	171966464	64	4375
2026-01-27 23:10:00.57	28.00	10.79	-46.5	-48.2	18.3	0.00e+00	0	43	0	173015040	64	4429
2026-01-27 23:10:01.57	28.08	10.87	-46.4	-48.1	18.5	0.00e+00	0	43	0	175112192	64	4353
2026-01-27 23:10:02.58	28.16	10.95	-46.5	-48.2	18.4	0.00e+00	0	43	0	177209344	64	4409
2026-01-27 23:10:03.58	28.25	11.03	-46.4	-48.1	18.5	0.00e+00	0	43	0	179306496	64	4348
2026-01-27 23:10:04.59	28.33	11.11	-46.4	-48.0	18.5	0.00e+00	0	43	0	181403648	64	4332
2026-01-27 23:10:05.60	28.42	11.19	-46.4	-48.1	18.5	0.00e+00	0	43	0	183500800	64	4355
2026-01-27 23:10:06.61	28.50	11.28	-46.3	-47.9	18.7	0.00e+00	0	43	0	184549376	64	4263
2026-01-27 23:10:07.61	28.59	11.36	-46.3	-48.0	18.6	0.00e+00	0	43	0	186646528	64	4312
2026-01-27 23:10:08.62	28.67	11.44	-46.4	-48.1	18.5	0.00e+00	0	43	0	188743680	64	4351
2026-01-27 23:10:09.63	28.76	11.52	-46.2	-47.7	18.9	0.00e+00	0	43	0	190840832	64	4189
2026-01-27 23:10:10.63	28.85	11.60	-46.2	-47.7	18.9	0.00e+00	0	43	0	192937984	64	4186
2026-01-27 23:10:11.64	28.93	11.69	-46.0	-47.5	19.1	0.00e+00	0	43	0	193986560	64	4088
2026-01-27 23:10:12.65	29.02	11.77	-46.1	-47.6	19.1	0.00e+00	0	43	0	196083712	63	4362
2026-01-27 23:10:13.65	29.11	11.85	-46.1	-47.7	19.0	0.00e+00	0	43	0	198180864	63	4418
2026-01-27 23:10:14.66	29.20	11.93	-46.0	-47.5	19.2	0.00e+00	0	43	0	200278016	63	4310
2026-01-27 23:10:15.67	29.29	12.02	-45.9	-47.4	19.3	0.00e+00	0	43	0	201326592	63	4275
2026-01-27 23:10:16.68	29.38	12.10	-45.9	-47.4	19.3	0.00e+00	0	43	0	203423744	63	4267
2026-01-27 23:10:17.68	29.47	12.19	-45.8	-47.3	19.4	0.00e+00	0	43	0	205520896	63	4223
2026-01-27 23:10:18.69	29.56	12.27	-45.8	-47.2	19.5	0.00e+00	0	43	0	207618048	63	4177
2026-01-27 23:10:19.70	29.65	12.36	-45.6	-47.0	19.7	0.00e+00	0	43	0	209715200	63	4060
2026-01-27 23:10:20.70	29.74	12.44	-45.6	-47.0	19.7	0.00e+00	0	43	0	211812352	63	4078
2026-01-27 23:10:21.71	29.84	12.52	-45.5	-46.9	19.9	0.00e+00	0	43	0	212860928	63	4019
2026-01-27 23:10:22.71	29.93	12.61	-45.7	-47.1	19.6	0.00e+00	0	43	0	214958080	62	4363
2026-01-27 23:10:23.72	30.02	12.69	-45.5	-46.9	19.8	0.00e+00	0	43	0	217055232	62	4270
2026-01-27 23:10:24.73	30.12	12.78	-45.5	-46.9	19.9	0.00e+00	0	43	0	219152384	62	4259
2026-01-27 23:10:25.74	30.21	12.87	-45.5	-46.9	19.8	0.00e+00	0	43	0	221249536	62	4287
2026-01-27 23:10:26.75	30.31	12.95	-45.5	-46.9	19.9	0.00e+00	0	43	0	222298112	62	4261
2026-01-27 23:10:27.75	30.40	13.04	-45.5	-46.8	19.9	0.00e+00	0	43	0	224395264	62	4232
2026-01-27 23:10:28.76	30.50	13.13	-45.4	-46.8	20.0	0.00e+00	0	43	0	226492416	62	4212
2026-01-27 23:10:29.76	30.59	13.21	-45.5	-46.9	19.9	0.00e+00	0	43	0	228589568	62	4266
2026-01-27 23:10:30.77	30.69	13.30	-45.5	-46.9	19.9	0.00e+00	0	43	0	229638144	62	4255
2026-01-27 23:10:31.77	30.79	13.39	-45.5	-46.9	19.9	0.00e+00	0	43	0	231735296	62	4250
2026-01-27 23:10:32.78	30.89	13.47	-45.6	-47.0	19.8	0.00e+00	0	43	0	233832448	62	4293
2026-01-27 23:10:33.79	30.99	13.56	-45.4	-46.8	20.0	0.00e+00	0	43	0	235929600	62	4225
2026-01-27 23:10:34.79	31.08	13.65	-45.5	-46.9	19.8	0.00e+00	0	43	0	238026752	62	4284
2026-01-27 23:10:35.80	31.19	13.74	-45.5	-46.9	19.8	0.00e+00	0	43	0	240123904	62	4290
2026-01-27 23:10:36.80	31.28	13.83	-45.6	-47.0	19.8	0.00e+00	0	43	0	241172480	62	4317
2026-01-27 23:10:37.81	31.39	13.91	-45.6	-47.0	19.8	0.00e+00	0	43	0	243269632	62	4329
2026-01-27 23:10:38.81	31.49	14.00	-45.7	-47.2	19.7	0.00e+00	0	43	0	245366784	62	4394
2026-01-27 23:10:39.82	31.59	14.09	-45.6	-47.1	19.8	0.00e+00	0	43	0	247463936	62	4343
2026-01-27 23:10:40.83	31.69	14.18	-45.7	-47.2	19.6	0.00e+00	0	43	0	249561088	62	4408
2026-01-27 23:10:41.83	31.80	14.27	-45.7	-47.2	19.7	0.00e+00	0	43	0	250609664	62	4395
2026-01-27 23:10:42.84	31.90	14.36	-45.8	-47.2	19.6	0.00e+00	0	43	0	252706816	62	4423
2026-01-27 23:10:43.85	32.00	14.45	-45.8	-47.2	19.6	0.00e+00	0	43	0	254803968	62	4440
2026-01-27 23:10:44.85	32.11	14.54	-45.8	-47.2	19.6	0.00e+00	0	43	0	256901120	62	4433
2026-01-27 23:10:45.86	32.22	14.63	-45.8	-47.2	19.6	0.00e+00	0	43	0	257949696	62	4427
2026-01-27 23:10:46.87	32.32	14.72	-45.8	-47.2	19.6	0.00e+00	0	43	0	260046848	62	4437
2026-01-27 23:10:47.87	32.43	14.81	-45.7	-47.1	19.7	0.00e+00	0	43	0	262144000	62	4350
2026-01-27 23:10:48.88	32.54	14.91	-45.7	-47.1	19.7	0.00e+00	0	43	0	264241152	62	4387
2026-01-27 23:10:49.89	32.64	15.00	-45.7	-47.1	19.7	0.00e+00	0	43	0	266338304	62	4387
2026-01-27 23:10:50.89	32.75	15.09	-45.8	-47.2	19.7	0.00e+00	0	43	0	268435456	62	4416
2026-01-27 23:10:51.90	32.86	15.18	-45.8	-47.2	19.6	0.00e+00	0	43	0	269484032	62	4435
2026-01-27 23:10:52.90	32.97	15.27	-45.7	-47.1	19.8	0.00e+00	0	43	0	271581184	62	4347
2026-01-27 23:10:53.91	33.08	15.37	-45.8	-47.2	19.7	0.00e+00	0	43	0	273678336	62	4408
2026-01-27 23:10:54.92	33.20	15.46	-45.7	-47.1	19.8	0.00e+00	0	43	0	275775488	62	4376
2026-01-27 23:10:55.93	33.31	15.55	-45.7	-47.1	19.7	0.00e+00	0	43	0	277872640	62	4386
2026-01-27 23:10:56.93	33.42	15.65	-45.6	-47.1	19.8	0.00e+00	0	43	0	278921216	62	4345
2026-01-27 23:10:57.93	33.53	15.74	-45.8	-47.2	19.7	0.00e+00	0	43	0	281018368	62	4420
2026-01-27 23:10:58.94	33.65	15.84	-45.8	-47.2	19.7	0.00e+00	0	43	0	283115520	62	4413
2026-01-27 23:10:59.94	33.76	15.93	-45.6	-47.0	19.9	0.00e+00	0	43	0	285212672	62	4328
2026-01-27 23:11:00.95	33.88	16.02	-45.7	-47.1	19.8	0.00e+00	0	43	0	286261248	62	4383
2026-01-27 23:11:01.96	33.99	16.12	-45.7	-47.2	19.7	0.00e+00	0	43	0	288358400	62	4393
2026-01-27 23:11:02.97	34.11	16.21	-45.9	-47.3	19.5	0.00e+00	0	43	0	290455552	62	4490
2026-01-27 23:11:03.97	34.23	16.31	-45.8	-47.3	19.6	0.00e+00	0	43	0	292552704	62	4462
2026-01-27 23:11:04.98	34.35	16.41	-45.9	-47.3	19.5	0.00e+00	0	43	0	294649856	62	4492
2026-01-27 23:11:05.99	34.47	16.50	-46.0	-47.4	19.5	0.00e+00	0	43	0	295698432	62	4539
2026-01-27 23:11:06.99	34.59	16.60	-46.1	-47.6	19.3	0.00e+00	0	43	0	297795584	62	4619
2026-01-27 23:11:08.00	34.71	16.69	-46.0	-47.5	19.4	0.00e+00	0	43	0	299892736	62	4576
2026-01-27 23:11:09.01	34.83	16.79	-46.0	-47.5	19.4	0.00e+00	0	43	0	301989888	62	4591
2026-01-27 23:11:10.02	34.95	16.89	-46.2	-47.7	19.2	0.00e+00	0	43	0	304087040	63	4430
2026-01-27 23:11:11.03	35.07	16.99	-46.3	-47.9	19.0	0.00e+00	0	43	0	306184192	63	4511
2026-01-27 23:11:12.03	35.20	17.08	-46.3	-47.9	19.1	0.00e+00	0	43	0	307232768	63	4506
2026-01-27 23:11:13.04	35.32	17.18	-46.4	-48.0	19.0	0.00e+00	0	43	0	309329920	63	4557
2026-01-27 23:11:14.05	35.45	17.28	-46.4	-48.0	18.9	0.00e+00	0	43	0	311427072	63	4591
2026-01-27 23:11:15.05	35.57	17.38	-46.5	-48.1	18.8	0.00e+00	0	43	0	313524224	63	4629
2026-01-27 23:11:16.06	35.70	17.48	-46.6	-48.2	18.8	0.00e+00	0	43	0	314572800	63	4666
2026-01-27 23:11:17.07	35.83	17.57	-46.7	-48.3	18.7	0.00e+00	0	43	0	316669952	63	4727
2026-01-27 23:11:18.07	35.96	17.67	-46.6	-48.2	18.7	0.00e+00	0	43	0	318767104	64	4429
2026-01-27 23:11:19.08	36.09	17.77	-46.7	-48.3	18.6	0.00e+00	0	43	0	320864256	64	4489
2026-01-27 23:11:20.09	36.22	17.87	-46.7	-48.4	18.5	0.00e+00	0	43	0	322961408	64	4508
2026-01-27 23:11:21.09	36.35	17.97	-46.8	-48.4	18.5	0.00e+00	0	43	0	325058560	64	4544
2026-01-27 23:11:22.10	36.48	18.07	-46.8	-48.5	18.4	0.00e+00	0	43	0	326107136	64	4569
2026-01-27 23:11:23.10	36.61	18.17	-46.7	-48.4	18.5	0.00e+00	0	43	0	328204288	64	4513
2026-01-27 23:11:24.11	36.74	18.27	-46.7	-48.4	18.5	0.00e+00	0	43	0	330301440	64	4534
2026-01-27 23:11:25.12	36.88	18.37	-46.7	-48.3	18.5	0.00e+00	0	43	0	332398592	64	4488
2026-01-27 23:11:26.13	37.01	18.48	-46.6	-48.3	18.6	0.00e+00	0	43	0	334495744	64	4460
2026-01-27 23:11:27.13	37.15	18.58	-46.6	-48.2	18.7	0.00e+00	0	43	0	335544320	64	4424
2026-01-27 23:11:28.14	37.29	18.68	-46.6	-48.2	18.7	0.00e+00	0	43	0	337641472	64	4436
2026-01-27 23:11:29.15	37.42	18.78	-46.5	-48.1	18.8	0.00e+00	0	43	0	339738624	64	4345
2026-01-27 23:11:30.16	37.56	18.88	-46.4	-48.0	18.9	0.00e+00	0	43	0	341835776	64	4313
2026-01-27 23:11:31.16	37.70	18.99	-46.5	-48.0	18.8	0.00e+00	0	43	0	342884352	64	4340
2026-01-27 23:11:32.17	37.84	19.09	-46.4	-48.0	18.9	0.00e+00	0	43	0	344981504	64	4334
2026-01-27 23:11:33.18	37.98	19.19	-46.5	-48.1	18.8	0.00e+00	0	43	0	347078656	64	4390
2026-01-27 23:11:34.19	38.13	19.30	-46.6	-48.2	18.7	0.00e+00	0	43	0	349175808	64	4414
2026-01-27 23:11:35.19	38.27	19.40	-46.6	-48.2	18.7	0.00e+00	0	43	0	351272960	64	4417
2026-01-27 23:11:36.20	38.41	19.50	-46.6	-48.2	18.8	0.00e+00	0	43	0	353370112	64	4415
2026-01-27 23:11:37.20	38.56	19.61	-46.6	-48.3	18.7	0.00e+00	0	43	0	354418688	64	4458
2026-01-27 23:11:38.21	38.71	19.71	-46.7	-48.3	18.6	0.00e+00	0	43	0	356515840	64	4472
2026-01-27 23:11:39.22	38.85	19.82	-46.6	-48.2	18.7	0.00e+00	0	43	0	358612992	64	4429
2026-01-27 23:11:40.22	39.00	19.92	-46.6	-48.2	18.7	0.00e+00	0	43	0	360710144	64	4437
2026-01-27 23:11:41.22	39.15	20.03	-46.6	-48.3	18.7	0.00e+00	0	43	0	362807296	64	4448
2026-01-27 23:11:42.23	39.30	20.13	-46.6	-48.2	18.8	0.00e+00	0	43	0	363855872	64	4405
2026-01-27 23:11:43.24	39.45	20.24	-46.5	-48.1	18.8	0.00e+00	0	43	0	365953024	64	4376
2026-01-27 23:11:44.25	39.60	20.34	-46.5	-48.1	18.9	0.00e+00	0	43	0	368050176	64	4352
2026-01-27 23:11:45.25	39.75	20.45	-46.5	-48.1	18.9	0.00e+00	0	43	0	370147328	64	4373
2026-01-27 23:11:46.26	39.91	20.56	-46.6	-48.2	18.8	0.00e+00	0	43	0	371195904	64	4407
2026-01-27 23:11:47.27	40.06	20.66	-46.6	-48.2	18.7	0.00e+00	0	43	0	373293056	64	4440
2026-01-27 23:11:48.28	40.22	20.77	-46.6	-48.2	18.8	0.00e+00	0	43	0	375390208	64	4401
2026-01-27 23:11:49.29	40.38	20.88	-46.4	-47.9	19.0	0.00e+00	0	43	0	377487360	64	4275
2026-01-27 23:11:50.29	40.54	20.99	-46.3	-47.8	19.1	0.00e+00	0	43	0	379584512	64	4232
2026-01-27 23:11:51.30	40.70	21.09	-46.4	-47.9	19.0	0.00e+00	0	43	0	381681664	64	4277
2026-01-27 23:11:52.31	40.86	21.20	-46.3	-47.9	19.1	0.00e+00	0	43	0	382730240	64	4257
2026-01-27 23:11:53.31	41.02	21.31	-46.3	-47.8	19.2	0.00e+00	0	43	0	384827392	64	4216
2026-01-27 23:11:54.32	41.18	21.42	-46.2	-47.7	19.3	0.00e+00	0	43	0	386924544	64	4153
2026-01-27 23:11:55.33	41.34	21.53	-46.0	-47.5	19.4	0.00e+00	0	43	0	389021696	64	4077
2026-01-27 23:11:56.33	41.51	21.64	-45.9	-47.3	19.8	0.00e+00	0	43	0	391118848	63	4225
2026-01-27 23:11:57.34	41.67	21.74	-45.9	-47.3	19.8	0.00e+00	0	43	0	392167424	63	4218
2026-01-27 23:11:58.35	41.84	21.85	-45.7	-47.1	20.0	0.00e+00	0	43	0	394264576	63	4103
2026-01-27 23:11:59.36	42.01	21.96	-45.6	-47.0	20.1	0.00e+00	0	43	0	396361728	63	4075
2026-01-27 23:12:00.36	42.18	22.07	-45.7	-47.1	20.0	0.00e+00	0	43	0	398458880	63	4109
2026-01-27 23:12:01.37	42.35	22.18	-45.8	-47.2	19.9	0.00e+00	0	43	0	399507456	63	4175
2026-01-27 23:12:02.38	42.52	22.29	-45.8	-47.2	19.8	0.00e+00	0	43	0	401604608	63	4188
2026-01-27 23:12:03.39	42.70	22.41	-45.9	-47.4	19.8	0.00e+00	0	43	0	403701760	63	4247
2026-01-27 23:12:04.39	42.87	22.52	-46.0	-47.5	19.6	0.00e+00	0	43	0	405798912	63	4296
2026-01-27 23:12:05.40	43.05	22.63	-46.0	-47.4	19.7	0.00e+00	0	43	0	407896064	63	4288
2026-01-27 23:12:06.40	43.22	22.74	-45.9	-47.4	19.8	0.00e+00	0	43	0	409993216	63	4249
2026-01-27 23:12:07.41	43.40	22.85	-45.9	-47.3	19.8	0.00e+00	0	43	0	411041792	63	4212
2026-01-27 23:12:08.42	43.58	22.96	-45.8	-47.2	19.9	0.00e+00	0	43	0	413138944	63	4170
2026-01-27 23:12:09.43	43.76	23.07	-45.6	-46.9	20.1	0.00e+00	0	43	0	415236096	63	4035
2026-01-27 23:12:10.43	43.94	23.19	-45.3	-46.6	20.5	0.00e+00	0	43	0	417333248	62	4113
2026-01-27 23:12:11.44	44.12	23.30	-45.3	-46.6	20.5	0.00e+00	0	43	0	419430400	62	4113
2026-01-27 23:12:12.45	44.31	23.41	-45.4	-46.8	20.4	0.00e+00	0	43	0	420478976	62	4195
2026-01-27 23:12:13.46	44.49	23.52	-45.3	-46.6	20.4	0.00e+00	0	43	0	422576128	62	4130
2026-01-27 23:12:14.46	44.68	23.64	-45.3	-46.6	20.5	0.00e+00	0	43	0	424673280	62	4139
2026-01-27 23:12:15.47	44.87	23.75	-45.4	-46.7	20.4	0.00e+00	0	43	0	426770432	62	4175
2026-01-27 23:12:16.47	45.06	23.86	-45.5	-46.8	20.4	0.00e+00	0	43	0	427819008	62	4224
2026-01-27 23:12:17.48	45.25	23.98	-45.4	-46.7	20.4	0.00e+00	0	43	0	429916160	62	4182
2026-01-27 23:12:18.49	45.44	24.09	-45.5	-46.8	20.3	0.00e+00	0	43	0	432013312	62	4223
2026-01-27 23:12:19.50	45.63	24.20	-45.4	-46.7	20.5	0.00e+00	0	43	0	434110464	62	4155
2026-01-27 23:12:20.50	45.83	24.32	-45.2	-46.5	20.6	0.00e+00	0	43	0	436207616	62	4074
2026-01-27 23:12:21.51	46.02	24.43	-45.2	-46.4	20.7	0.00e+00	0	43	0	438304768	62	4045
2026-01-27 23:12:22.52	46.22	24.55	-44.9	-46.1	20.9	0.00e+00	0	43	0	439353344	61	4142
2026-01-27 23:12:23.53	46.42	24.66	-44.9	-46.2	20.9	0.00e+00	0	43	0	441450496	61	4151
2026-01-27 23:12:24.53	46.62	24.77	-44.9	-46.1	21.0	0.00e+00	0	43	0	443547648	61	4117
2026-01-27 23:12:25.54	46.82	24.89	-44.9	-46.1	21.0	0.00e+00	0	43	0	445644800	61	4133
2026-01-27 23:12:26.55	47.03	25.00	-45.0	-46.2	20.9	0.00e+00	0	43	0	447741952	61	4163
2026-01-27 23:12:27.55	47.23	25.12	-44.9	-46.1	21.0	0.00e+00	0	43	0	448790528	61	4122
2026-01-27 23:12:28.56	47.44	25.23	-45.0	-46.3	20.8	0.00e+00	0	43	0	450887680	61	4194
2026-01-27 23:12:29.57	47.65	25.35	-44.9	-46.1	21.0	0.00e+00	0	43	0	452984832	61	4128
2026-01-27 23:12:30.58	47.86	25.46	-44.9	-46.1	21.0	0.00e+00	0	43	0	455081984	61	4137
2026-01-27 23:12:31.59	48.07	25.58	-44.8	-46.0	21.1	0.00e+00	0	43	0	456130560	61	4091
2026-01-27 23:12:32.59	48.28	25.70	-44.6	-45.8	21.3	0.00e+00	0	43	0	458227712	61	3983
2026-01-27 23:12:33.59	48.49	25.81	-44.6	-45.8	21.3	0.00e+00	0	43	0	460324864	61	3968
2026-01-27 23:12:34.60	48.71	25.93	-44.7	-45.9	21.2	0.00e+00	0	43	0	462422016	61	4045
2026-01-27 23:12:35.60	48.92	26.04	-44.8	-46.0	21.1	0.00e+00	0	43	0	464519168	61	4091
2026-01-27 23:12:36.61	49.14	26.16	-44.9	-46.1	21.0	0.00e+00	0	43	0	466616320	61	4142
2026-01-27 23:12:37.61	49.36	26.27	-45.1	-46.4	20.7	0.00e+00	0	43	0	467664896	61	4272
2026-01-27 23:12:38.61	49.58	26.39	-45.3	-46.6	20.6	0.00e+00	0	43	0	469762048	61	4379
2026-01-27 23:12:39.62	49.80	26.50	-45.4	-46.8	20.4	0.00e+00	0	43	0	471859200	61	4451
2026-01-27 23:12:40.63	50.03	26.62	-45.4	-46.7	20.5	0.00e+00	0	43	0	473956352	61	4397
2026-01-27 23:12:41.64	50.25	26.74	-45.5	-46.8	20.4	0.00e+00	0	43	0	476053504	61	4456
2026-01-27 23:12:42.65	50.48	26.85	-45.3	-46.6	20.6	0.00e+00	0	43	0	477102080	61	4347
2026-01-27 23:12:43.65	50.71	26.97	-45.3	-46.6	20.6	0.00e+00	0	43	0	479199232	61	4363
2026-01-27 23:12:44.65	50.94	27.08	-45.3	-46.5	20.6	0.00e+00	0	43	0	481296384	61	4337
2026-01-27 23:12:45.66	51.17	27.20	-45.3	-46.6	20.5	0.00e+00	0	43	0	483393536	61	4369
2026-01-27 23:12:46.66	51.41	27.32	-45.4	-46.6	20.5	0.00e+00	0	43	0	484442112	61	4382
2026-01-27 23:12:47.67	51.64	27.43	-45.5	-46.8	20.4	0.00e+00	0	43	0	486539264	61	4458
2026-01-27 23:12:48.67	51.88	27.55	-45.5	-46.8	20.4	0.00e+00	0	43	0	488636416	61	4483
2026-01-27 23:12:49.68	52.12	27.66	-45.6	-46.9	20.3	0.00e+00	0	43	0	490733568	61	4518
2026-01-27 23:12:50.69	52.36	27.78	-45.6	-46.9	20.3	0.00e+00	0	43	0	492830720	61	4507
2026-01-27 23:12:51.70	52.60	27.90	-45.8	-47.1	20.1	0.00e+00	0	43	0	494927872	62	4372
2026-01-27 23:12:52.70	52.85	28.01	-45.9	-47.3	19.9	0.00e+00	0	43	0	495976448	62	4476
2026-01-27 23:12:53.71	53.09	28.13	-45.9	-47.3	19.9	0.00e+00	0	43	0	498073600	62	4467
2026-01-27 23:12:54.72	53.34	28.25	-46.1	-47.5	19.7	0.00e+00	0	43	0	500170752	62	4556
2026-01-27 23:12:55.73	53.59	28.36	-46.3	-47.8	19.5	0.00e+00	0	43	0	502267904	63	4447
2026-01-27 23:12:56.73	53.84	28.48	-46.5	-48.1	19.3	0.00e+00	0	43	0	504365056	63	4599
2026-01-27 23:12:57.74	54.10	28.59	-46.6	-48.2	19.0	0.00e+00	0	43	0	505413632	64	4409
2026-01-27 23:12:58.75	54.35	28.71	-46.7	-48.3	18.9	0.00e+00	0	43	0	507510784	64	4458
2026-01-27 23:12:59.75	54.61	28.82	-46.8	-48.4	18.8	0.00e+00	0	43	0	509607936	64	4510
2026-01-27 23:13:00.76	54.87	28.94	-46.7	-48.3	18.9	0.00e+00	0	43	0	511705088	64	4447
2026-01-27 23:13:01.77	55.13	29.05	-46.6	-48.2	19.0	0.00e+00	0	43	0	512753664	64	4410
2026-01-27 23:13:02.78	55.39	29.17	-46.6	-48.1	19.0	0.00e+00	0	43	0	514850816	64	4385
2026-01-27 23:13:03.78	55.66	29.28	-46.7	-48.3	18.8	0.00e+00	0	43	0	516947968	64	4489
2026-01-27 23:13:04.79	55.92	29.40	-47.0	-48.7	18.5	0.00e+00	0	43	0	519045120	64	4679
2026-01-27 23:13:05.80	56.19	29.51	-47.4	-49.3	17.9	0.00e+00	0	43	0	521142272	65	4707
2026-01-27 23:13:06.81	56.46	29.63	-47.8	-49.8	17.5	0.00e+00	0	43	0	523239424	66	4709
2026-01-27 23:13:07.82	56.74	29.74	-48.2	-50.2	17.0	0.00e+00	0	43	0	524288000	67	4695
2026-01-27 23:13:08.83	57.01	29.86	-48.5	-50.7	16.5	0.00e+00	0	43	0	526385152	67	4961
2026-01-27 23:13:09.83	57.28	29.97	-48.7	-51.0	16.3	0.00e+00	0	43	0	528482304	67	5126
2026-01-27 23:13:10.84	57.56	30.08	-49.0	-51.4	15.9	0.00e+00	0	43	0	530579456	68	5068
2026-01-27 23:13:11.85	57.84	30.20	-49.2	-51.7	15.6	0.00e+00	0	43	0	532676608	68	5227
2026-01-27 23:13:12.85	58.12	30.31	-49.4	-52.0	15.3	0.00e+00	0	43	0	533725184	69	5147
2026-01-27 23:13:13.86	58.41	30.42	-49.6	-52.4	15.0	0.00e+00	0	43	0	535822336	69	5377
2026-01-27 23:13:14.87	58.69	30.53	-50.1	-53.3	14.1	7.00e-07	0	43	0	537919488	70	5609
2026-01-27 23:13:15.88	58.98	30.64	-50.2	-53.5	13.8	1.50e-06	0	43	0	540016640	71	5424
2026-01-27 23:13:16.89	59.27	30.76	-50.4	-53.8	13.5	1.06e-05	0	43	0	541065216	71	5637
2026-01-27 23:13:17.89	59.56	30.87	-50.4	-53.9	13.5	1.75e-05	0	43	0	543162368	71	5661
2026-01-27 23:13:18.90	59.85	30.98	-50.4	-53.7	13.6	1.06e-05	0	43	0	545259520	71	5558
2026-01-27 23:13:19.91	60.15	31.09	-50.1	-53.2	14.1	7.00e-07	0	43	0	547356672	71	5225
2026-01-27 23:13:20.92	60.45	31.20	-50.0	-53.0	14.4	7.00e-07	0	43	0	549453824	71	5109
2026-01-27 23:13:21.92	60.75	31.31	-49.9	-52.8	14.5	7.00e-07	0	43	0	551550976	71	5037
2026-01-27 23:13:22.93	61.05	31.42	-49.9	-52.9	14.4	7.00e-07	0	43	0	552599552	71	5057
2026-01-27 23:13:23.93	61.35	31.52	-50.0	-53.1	14.3	7.00e-07	0	43	0	554696704	71	5181
2026-01-27 23:13:24.94	61.65	31.63	-50.0	-53.0	14.3	7.00e-07	0	43	0	556793856	71	5145
2026-01-27 23:13:25.95	61.96	31.74	-50.0	-53.0	14.3	7.00e-07	0	43	0	558891008	71	5116
2026-01-27 23:13:26.96	62.27	31.85	-49.7	-52.6	14.7	0.00e+00	0	43	0	560988160	71	4892
2026-01-27 23:13:27.97	62.58	31.95	-49.6	-52.4	15.0	0.00e+00	0	43	0	562036736	71	4778
2026-01-27 23:13:28.97	62.90	32.06	-49.5	-52.1	15.2	0.00e+00	0	43	0	564133888	70	4883
2026-01-27 23:13:29.98	63.21	32.16	-49.3	-51.8	15.5	0.00e+00	0	43	0	566231040	70	4739
2026-01-27 23:13:30.99	63.53	32.27	-49.3	-51.9	15.6	0.00e+00	0	43	0	568328192	70	4762
2026-01-27 23:13:32.00	63.85	32.37	-49.4	-52.1	15.3	0.00e+00	0	43	0	570425344	70	4895
2026-01-27 23:13:33.01	64.17	32.48	-49.5	-52.2	15.2	0.00e+00	0	43	0	571473920	70	4945
2026-01-27 23:13:34.01	64.49	32.58	-49.2	-51.7	15.6	0.00e+00	0	43	0	573571072	70	4694
2026-01-27 23:13:35.02	64.82	32.68	-48.8	-51.1	16.3	0.00e+00	0	43	0	575668224	69	4631
2026-01-27 23:13:36.03	65.15	32.79	-48.5	-50.7	16.6	0.00e+00	0	43	0	577765376	69	4429
2026-01-27 23:13:37.03	65.47	32.89	-48.2	-50.3	17.1	0.00e+00	0	43	0	579862528	68	4442
2026-01-27 23:13:38.04	65.81	32.99	-47.9	-49.8	17.5	0.00e+00	0	43	0	580911104	67	4478
2026-01-27 23:13:39.05	66.14	33.09	-47.7	-49.5	17.8	0.00e+00	0	43	0	583008256	67	4312
2026-01-27 23:13:40.06	66.48	33.19	-47.6	-49.5	17.8	0.00e+00	0	43	0	585105408	67	4300
2026-01-27 23:13:41.06	66.81	33.28	-47.8	-49.7	17.6	0.00e+00	0	43	0	587202560	67	4419
2026-01-27 23:13:42.07	67.15	33.38	-48.0	-49.9	17.4	0.00e+00	0	43	0	589299712	67	4529
2026-01-27 23:13:43.07	67.49	33.48	-47.9	-49.8	17.5	0.00e+00	0	43	0	590348288	67	4483
2026-01-27 23:13:44.08	67.84	33.57	-47.8	-49.7	17.6	0.00e+00	0	43	0	592445440	67	4439
2026-01-27 23:13:45.08	68.18	33.67	-47.7	-49.5	17.8	0.00e+00	0	43	0	594542592	67	4321
2026-01-27 23:13:46.09	68.53	33.76	-47.3	-49.1	18.2	0.00e+00	0	43	0	596639744	66	4346
2026-01-27 23:13:47.09	68.87	33.86	-47.2	-48.9	18.4	0.00e+00	0	43	0	598736896	66	4273
2026-01-27 23:13:48.10	69.23	33.95	-47.2	-48.8	18.4	0.00e+00	0	43	0	599785472	66	4229
2026-01-27 23:13:49.10	69.58	34.04	-47.1	-48.7	18.5	0.00e+00	0	43	0	601882624	66	4191
2026-01-27 23:13:50.11	69.93	34.13	-47.2	-48.9	18.4	0.00e+00	0	43	0	603979776	66	4272
2026-01-27 23:13:51.11	70.29	34.22	-47.5	-49.2	18.0	0.00e+00	0	43	0	606076928	66	4441
2026-01-27 23:13:52.12	70.65	34.31	-47.4	-49.2	18.1	0.00e+00	0	43	0	608174080	66	4394
2026-01-27 23:13:53.13	71.01	34.40	-46.9	-48.5	18.7	0.00e+00	0	43	0	609222656	65	4321
2026-01-27 23:13:54.13	71.37	34.48	-46.5	-48.0	19.2	0.00e+00	0	43	0	611319808	65	4091
2026-01-27 23:13:55.14	71.74	34.57	-46.3	-47.8	19.4	0.00e+00	0	43	0	613416960	64	4216
2026-01-27 23:13:56.15	72.11	34.65	-46.4	-47.9	19.3	0.00e+00	0	43	0	615514112	64	4255
2026-01-27 23:13:57.15	72.47	34.74	-46.0	-47.4	19.8	0.00e+00	0	43	0	617611264	64	4029
2026-01-27 23:13:58.16	72.84	34.82	-46.4	-47.9	19.4	0.00e+00	0	43	0	618659840	64	4254
2026-01-27 23:13:59.16	73.21	34.90	-47.1	-48.8	18.5	0.00e+00	0	43	0	620756992	64	4733
2026-01-27 23:14:00.17	73.59	34.98	-47.5	-49.3	18.0	0.00e+00	0	43	0	622854144	65	4744
2026-01-27 23:14:01.18	73.96	35.06	-47.6	-49.5	17.8	0.00e+00	0	43	0	624951296	65	4817
2026-01-27 23:14:02.18	74.34	35.14	-47.5	-49.3	17.9	0.00e+00	0	43	0	625999872	65	4745
2026-01-27 23:14:03.19	74.72	35.21	-47.2	-48.8	18.4	0.00e+00	0	43	0	628097024	65	4484
2026-01-27 23:14:04.20	75.10	35.29	-47.1	-48.8	18.4	0.00e+00	0	43	0	630194176	65	4461
2026-01-27 23:14:05.20	75.48	35.36	-46.8	-48.3	18.9	0.00e+00	0	43	0	632291328	65	4240
2026-01-27 23:14:06.20	75.87	35.44	-46.9	-48.4	18.8	0.00e+00	0	43	0	634388480	65	4287
2026-01-27 23:14:07.21	76.25	35.51	-47.0	-48.7	18.6	0.00e+00	0	43	0	636485632	65	4409
2026-01-27 23:14:08.22	76.64	35.58	-47.1	-48.8	18.4	0.00e+00	0	43	0	637534208	65	4476
2026-01-27 23:14:09.22	77.03	35.65	-47.4	-49.2	18.1	0.00e+00	0	43	0	639631360	65	4672
2026-01-27 23:14:10.23	77.42	35.72	-47.4	-49.1	18.2	0.00e+00	0	43	0	641728512	65	4642
2026-01-27 23:14:11.23	77.81	35.78	-47.1	-48.8	18.5	0.00e+00	0	43	0	643825664	65	4451
2026-01-27 23:14:12.24	78.21	35.85	-47.0	-48.6	18.7	0.00e+00	0	43	0	645922816	65	4364
2026-01-27 23:14:13.24	78.60	35.91	-46.6	-48.1	19.1	0.00e+00	0	43	0	646971392	65	4126
2026-01-27 23:14:14.25	79.00	35.98	-46.2	-47.6	19.7	0.00e+00	0	43	0	649068544	64	4118
2026-01-27 23:14:15.26	79.40	36.04	-46.2	-47.6	19.7	0.00e+00	0	43	0	651165696	63	4358
2026-01-27 23:14:16.26	79.80	36.10	-46.2	-47.7	19.7	0.00e+00	0	43	0	653262848	63	4401
2026-01-27 23:14:17.27	80.20	36.15	-46.5	-48.0	19.4	0.00e+00	0	43	0	654311424	63	4563
2026-01-27 23:14:18.28	80.61	36.21	-46.5	-48.0	19.4	0.00e+00	0	43	0	656408576	63	4581
2026-01-27 23:14:19.28	81.01	36.27	-46.5	-48.0	19.3	0.00e+00	0	43	0	658505728	63	4579
2026-01-27 23:14:20.29	81.42	36.32	-46.5	-48.0	19.3	0.00e+00	0	43	0	660602880	63	4574
2026-01-27 23:14:21.30	81.82	36.37	-46.5	-48.0	19.4	0.00e+00	0	43	0	662700032	63	4570
2026-01-27 23:14:22.31	82.23	36.42	-46.2	-47.6	19.7	0.00e+00	0	43	0	664797184	63	4371
2026-01-27 23:14:23.31	82.64	36.47	-46.3	-47.8	19.6	0.00e+00	0	43	0	665845760	63	4443
2026-01-27 23:14:24.31	83.05	36.52	-46.7	-48.2	19.1	0.00e+00	0	43	0	667942912	64	4428
2026-01-27 23:14:25.32	83.46	36.57	-47.3	-49.1	18.3	0.00e+00	0	43	0	670040064	65	4616
2026-01-27 23:14:26.32	83.87	36.61	-48.0	-50.0	17.2	0.00e+00	0	43	0	672137216	66	4816
2026-01-27 23:14:27.33	84.29	36.66	-48.5	-50.7	16.7	0.00e+00	0	43	0	674234368	67	4947
2026-01-27 23:14:28.34	84.71	36.70	-48.8	-51.0	16.4	0.00e+00	0	43	0	675282944	68	4857
2026-01-27 23:14:29.35	85.12	36.74	-48.5	-50.7	16.7	0.00e+00	0	43	0	677380096	68	4679
2026-01-27 23:14:30.35	85.54	36.78	-48.2	-50.2	17.3	0.00e+00	0	43	0	679477248	68	4405
2026-01-27 23:14:31.36	85.96	36.81	-47.7	-49.6	17.7	0.00e+00	0	43	0	681574400	67	4365
2026-01-27 23:14:32.37	86.38	36.85	-47.6	-49.4	18.0	0.00e+00	0	43	0	682622976	67	4263
2026-01-27 23:14:33.38	86.80	36.88	-47.9	-49.8	17.6	0.00e+00	0	43	0	684720128	67	4461
2026-01-27 23:14:34.39	87.23	36.91	-48.3	-50.4	16.9	0.00e+00	0	43	0	686817280	67	4781
2026-01-27 23:14:35.39	87.64	36.94	-48.7	-51.0	16.4	0.00e+00	0	43	0	688914432	68	4852
2026-01-27 23:14:36.40	88.07	36.97	-49.0	-51.5	16.0	0.00e+00	0	43	0	691011584	68	5108
2026-01-27 23:14:37.41	88.49	37.00	-49.1	-51.6	15.9	0.00e+00	0	43	0	693108736	68	5170
2026-01-27 23:14:38.41	88.92	37.02	-49.0	-51.3	16.1	0.00e+00	0	43	0	694157312	68	5028
2026-01-27 23:14:39.42	89.34	37.05	-49.1	-51.5	15.9	0.00e+00	0	43	0	696254464	68	5124
2026-01-27 23:14:40.43	89.77	37.07	-48.7	-50.9	16.4	0.00e+00	0	43	0	698351616	68	4810
2026-01-27 23:14:41.43	90.19	37.09	-48.5	-50.6	16.8	0.00e+00	0	43	0	700448768	68	4625
2026-01-27 23:14:42.44	90.62	37.11	-48.3	-50.3	17.2	0.00e+00	0	43	0	702545920	68	4452
2026-01-27 23:14:43.44	91.04	37.12	-48.2	-50.2	17.2	0.00e+00	0	43	0	703594496	68	4404
2026-01-27 23:14:44.45	91.47	37.14	-48.5	-50.6	16.8	0.00e+00	0	43	0	705691648	68	4633
2026-01-27 23:14:45.46	91.90	37.15	-48.9	-51.3	16.1	0.00e+00	0	43	0	707788800	68	5007
2026-01-27 23:14:46.47	92.33	37.16	-49.4	-52.0	15.4	0.00e+00	0	43	0	709885952	69	5149
2026-01-27 23:14:47.47	92.76	37.17	-49.5	-52.1	15.3	0.00e+00	0	43	0	711983104	69	5178
2026-01-27 23:14:48.48	93.19	37.18	-49.0	-51.3	16.1	0.00e+00	0	43	0	713031680	69	4747
2026-01-27 23:14:49.49	93.62	37.18	-48.0	-49.9	17.4	0.00e+00	0	43	0	715128832	68	4289
2026-01-27 23:14:50.50	94.05	37.19	-47.4	-49.1	18.2	0.00e+00	0	43	0	717225984	66	4367
2026-01-27 23:14:51.50	94.47	37.19	-47.2	-48.9	18.4	0.00e+00	0	43	0	719323136	66	4270
2026-01-27 23:14:52.51	94.90	37.19	-47.4	-49.1	18.3	0.00e+00	0	43	0	721420288	66	4370
2026-01-27 23:14:53.52	95.33	37.19	-47.8	-49.6	17.8	0.00e+00	0	43	0	722468864	66	4625
2026-01-27 23:14:54.52	95.76	37.19	-48.0	-49.9	17.5	0.00e+00	0	43	0	724566016	66	4784
2026-01-27 23:14:55.53	96.19	37.18	-47.6	-49.4	18.0	0.00e+00	0	43	0	726663168	66	4512
2026-01-27 23:14:56.53	96.62	37.18	-47.1	-48.7	18.6	0.00e+00	0	43	0	728760320	66	4189
2026-01-27 23:14:57.54	97.05	37.17	-46.7	-48.3	19.0	0.00e+00	0	43	0	730857472	65	4214
2026-01-27 23:14:58.54	97.47	37.16	-46.8	-48.4	19.0	0.00e+00	0	43	0	731906048	65	4246
2026-01-27 23:14:59.55	97.90	37.15	-46.7	-48.3	19.0	0.00e+00	0	43	0	734003200	65	4213
2026-01-27 23:15:00.56	98.33	37.13	-46.8	-48.4	18.9	0.00e+00	0	43	0	736100352	65	4282
2026-01-27 23:15:01.57	98.76	37.12	-47.3	-49.0	18.4	0.00e+00	0	43	0	738197504	65	4558
2026-01-27 23:15:02.57	99.18	37.10	-47.5	-49.3	18.0	0.00e+00	0	43	0	740294656	65	4751
2026-01-27 23:15:03.58	99.61	37.08	-47.4	-49.1	18.2	0.00e+00	0	43	0	741343232	65	4650
2026-01-27 23:15:04.58	100.03	37.06	-47.3	-49.0	18.3	0.00e+00	0	43	0	743440384	65	4577
2026-01-27 23:15:05.59	100.46	37.04	-47.4	-49.1	18.3	0.00e+00	0	43	0	745537536	65	4616
2026-01-27 23:15:06.60	100.89	37.02	-47.2	-48.8	18.5	0.00e+00	0	43	0	747634688	65	4490
2026-01-27 23:15:07.60	101.31	36.99	-47.3	-49.0	18.4	0.00e+00	0	43	0	749731840	65	4567
2026-01-27 23:15:08.61	101.73	36.96	-47.3	-49.0	18.4	0.00e+00	0	43	0	750780416	65	4557
2026-01-27 23:15:09.61	102.15	36.93	-47.4	-49.2	18.1	0.00e+00	0	43	0	752877568	65	4681
2026-01-27 23:15:10.62	102.58	36.90	-48.1	-50.2	17.2	0.00e+00	0	43	0	754974720	66	4927
2026-01-27 23:15:11.63	103.00	36.87	-48.8	-51.2	16.2	0.00e+00	0	43	0	757071872	68	4930
2026-01-27 23:15:12.63	103.42	36.84	-49.1	-51.6	15.8	0.00e+00	0	43	0	759169024	68	5190
2026-01-27 23:15:13.64	103.84	36.80	-49.0	-51.4	16.0	0.00e+00	0	43	0	760217600	68	5050
2026-01-27 23:15:14.64	104.25	36.76	-48.6	-50.8	16.7	0.00e+00	0	43	0	762314752	68	4718
2026-01-27 23:15:15.65	104.67	36.72	-48.2	-50.3	17.2	0.00e+00	0	43	0	764411904	68	4452
2026-01-27 23:15:16.66	105.09	36.68	-48.2	-50.1	17.3	0.00e+00	0	43	0	766509056	68	4386
2026-01-27 23:15:17.67	105.51	36.64	-47.9	-49.7	17.6	0.00e+00	0	43	0	768606208	67	4432
2026-01-27 23:15:18.67	105.92	36.60	-47.9	-49.8	17.5	0.00e+00	0	43	0	769654784	67	4485
2026-01-27 23:15:19.68	106.34	36.55	-47.9	-49.8	17.5	0.00e+00	0	43	0	771751936	67	4483
2026-01-27 23:15:20.69	106.75	36.50	-47.7	-49.6	17.7	0.00e+00	0	43	0	773849088	67	4348
2026-01-27 23:15:21.70	107.16	36.46	-47.5	-49.3	18.0	0.00e+00	0	43	0	775946240	67	4217
2026-01-27 23:15:22.70	107.57	36.41	-47.6	-49.4	17.9	0.00e+00	0	43	0	778043392	67	4272
2026-01-27 23:15:23.71	107.98	36.35	-47.7	-49.6	17.8	0.00e+00	0	43	0	779091968	67	4344
2026-01-27 23:15:24.71	108.38	36.30	-47.9	-49.8	17.5	0.00e+00	0	43	0	781189120	67	4489
2026-01-27 23:15:25.72	108.79	36.25	-47.8	-49.7	17.6	0.00e+00	0	43	0	783286272	67	4434
2026-01-27 23:15:26.72	109.19	36.19	-47.5	-49.3	17.9	0.00e+00	0	43	0	785383424	67	4232
2026-01-27 23:15:27.73	109.60	36.13	-47.4	-49.1	18.2	0.00e+00	0	43	0	787480576	66	4370
2026-01-27 23:15:28.73	110.00	36.08	-47.2	-48.9	18.4	0.00e+00	0	43	0	788529152	66	4261
2026-01-27 23:15:29.74	110.40	36.01	-47.0	-48.6	18.7	0.00e+00	0	43	0	790626304	66	4130
2026-01-27 23:15:30.75	110.80	35.95	-46.9	-48.5	18.9	0.00e+00	0	43	0	792723456	65	4299
2026-01-27 23:15:31.75	111.19	35.89	-46.2	-47.6	19.6	0.00e+00	0	43	0	794820608	64	4132
2026-01-27 23:15:32.75	111.59	35.83	-45.8	-47.1	20.2	0.00e+00	0	43	0	796917760	63	4134
2026-01-27 23:15:33.76	111.98	35.76	-45.7	-47.0	20.4	0.00e+00	0	43	0	797966336	63	4062
2026-01-27 23:15:34.77	112.38	35.69	-45.6	-46.9	20.4	0.00e+00	0	43	0	800063488	63	4051
2026-01-27 23:15:35.77	112.77	35.62	-45.7	-47.0	20.3	0.00e+00	0	43	0	802160640	63	4080
2026-01-27 23:15:36.78	113.16	35.55	-45.5	-46.8	20.5	0.00e+00	0	43	0	804257792	62	4221
2026-01-27 23:15:37.78	113.54	35.48	-45.3	-46.6	20.7	0.00e+00	0	43	0	805306368	62	4112
2026-01-27 23:15:38.79	113.93	35.41	-45.0	-46.2	21.0	0.00e+00	0	43	0	807403520	62	3949
2026-01-27 23:15:39.80	114.32	35.34	-45.1	-46.3	21.0	0.00e+00	0	43	0	809500672	61	4220
2026-01-27 23:15:40.81	114.70	35.26	-45.3	-46.5	20.7	0.00e+00	0	43	0	811597824	61	4322
2026-01-27 23:15:41.81	115.08	35.18	-45.8	-47.1	20.2	0.00e+00	0	43	0	813694976	62	4379
2026-01-27 23:15:42.82	115.46	35.11	-45.9	-47.3	20.0	0.00e+00	0	43	0	815792128	62	4470
2026-01-27 23:15:43.82	115.84	35.03	-45.6	-46.9	20.4	0.00e+00	0	43	0	816840704	62	4247
2026-01-27 23:15:44.83	116.21	34.95	-45.4	-46.6	20.6	0.00e+00	0	43	0	818937856	62	4136
2026-01-27 23:15:45.84	116.59	34.87	-45.3	-46.6	20.7	0.00e+00	0	43	0	821035008	62	4117
2026-01-27 23:15:46.85	116.96	34.79	-45.7	-47.0	20.3	0.00e+00	0	43	0	823132160	62	4338
2026-01-27 23:15:47.85	117.33	34.70	-46.3	-47.8	19.5	0.00e+00	0	43	0	825229312	63	4458
2026-01-27 23:15:48.85	117.70	34.62	-46.6	-48.2	19.0	0.00e+00	0	43	0	826277888	64	4422
2026-01-27 23:15:49.86	118.06	34.53	-46.3	-47.8	19.5	0.00e+00	0	43	0	828375040	64	4200
2026-01-27 23:15:50.87	118.43	34.45	-46.1	-47.5	19.9	0.00e+00	0	43	0	830472192	63	4297
2026-01-27 23:15:51.87	118.79	34.36	-45.4	-46.7	20.6	0.00e+00	0	43	0	832569344	62	4166
2026-01-27 23:15:52.88	119.15	34.27	-45.7	-47.1	20.3	0.00e+00	0	43	0	833617920	62	4351
2026-01-27 23:15:53.88	119.51	34.18	-46.4	-47.9	19.5	0.00e+00	0	43	0	835715072	63	4495
2026-01-27 23:15:54.89	119.87	34.09	-46.7	-48.3	19.0	0.00e+00	0	43	0	837812224	64	4472
2026-01-27 23:15:55.89	120.22	34.00	-46.6	-48.2	19.1	0.00e+00	0	43	0	839909376	64	4407
2026-01-27 23:15:56.90	120.57	33.91	-46.1	-47.6	19.7	0.00e+00	0	43	0	842006528	64	4102
2026-01-27 23:15:57.90	120.92	33.82	-45.8	-47.2	20.1	0.00e+00	0	43	0	844103680	63	4156
2026-01-27 23:15:58.91	121.27	33.72	-46.0	-47.4	19.9	0.00e+00	0	43	0	845152256	63	4275
2026-01-27 23:15:59.91	121.62	33.63	-46.7	-48.2	19.1	0.00e+00	0	43	0	847249408	63	4702
2026-01-27 23:16:00.92	121.97	33.53	-47.2	-48.9	18.3	0.00e+00	0	43	0	849346560	64	4790
2026-01-27 23:16:01.93	122.31	33.44	-47.2	-48.9	18.4	0.00e+00	0	43	0	851443712	65	4500
2026-01-27 23:16:02.93	122.65	33.34	-46.8	-48.3	19.0	0.00e+00	0	43	0	853540864	65	4227
2026-01-27 23:16:03.94	122.99	33.24	-46.6	-48.1	19.1	0.00e+00	0	43	0	854589440	65	4128
2026-01-27 23:16:04.94	123.32	33.14	-46.4	-47.8	19.4	0.00e+00	0	43	0	856686592	64	4220
2026-01-27 23:16:05.95	123.66	33.04	-46.8	-48.4	18.9	0.00e+00	0	43	0	858783744	64	4523
2026-01-27 23:16:06.95	123.99	32.94	-47.8	-49.6	17.7	0.00e+00	0	43	0	860880896	66	4646
2026-01-27 23:16:07.96	124.32	32.84	-47.8	-49.6	17.7	0.00e+00	0	43	0	861929472	66	4636
2026-01-27 23:16:08.97	124.65	32.74	-47.0	-48.6	18.6	0.00e+00	0	43	0	864026624	66	4139
2026-01-27 23:16:09.97	124.98	32.64	-46.4	-47.8	19.3	0.00e+00	0	43	0	866123776	64	4231
2026-01-27 23:16:10.98	125.31	32.53	-46.2	-47.6	19.6	0.00e+00	0	43	0	868220928	64	4142
2026-01-27 23:16:11.99	125.63	32.43	-46.7	-48.3	19.0	0.00e+00	0	43	0	870318080	64	4468
2026-01-27 23:16:12.99	125.95	32.33	-47.4	-49.2	18.0	0.00e+00	0	43	0	872415232	65	4704
2026-01-27 23:16:13.99	126.27	32.22	-47.8	-49.7	17.5	0.00e+00	0	43	0	873463808	66	4684
2026-01-27 23:16:15.00	126.58	32.12	-47.8	-49.6	17.7	0.00e+00	0	43	0	875560960	66	4645
2026-01-27 23:16:16.00	126.90	32.01	-47.5	-49.3	18.0	0.00e+00	0	43	0	877658112	66	4485
2026-01-27 23:16:17.01	127.21	31.90	-47.3	-49.0	18.3	0.00e+00	0	43	0	879755264	66	4296
2026-01-27 23:16:18.01	127.52	31.80	-47.5	-49.3	18.0	0.00e+00	0	43	0	881852416	66	4450
2026-01-27 23:16:19.02	127.83	31.69	-48.3	-50.5	17.0	0.00e+00	0	43	0	882900992	67	4825
2026-01-27 23:16:20.02	128.14	31.58	-48.9	-51.3	16.1	0.00e+00	0	43	0	884998144	68	5032
2026-01-27 23:16:21.02	128.44	31.47	-48.7	-50.9	16.4	0.00e+00	0	43	0	887095296	68	4797
2026-01-27 23:16:22.03	128.74	31.36	-47.8	-49.8	17.6	0.00e+00	0	43	0	889192448	67	4443
2026-01-27 23:16:23.04	129.05	31.25	-47.1	-48.7	18.5	0.00e+00	0	43	0	890241024	66	4192
2026-01-27 23:16:24.04	129.34	31.15	-46.8	-48.4	18.8	0.00e+00	0	43	0	892338176	65	4273
2026-01-27 23:16:25.04	129.64	31.04	-47.0	-48.6	18.7	0.00e+00	0	43	0	894435328	65	4382
2026-01-27 23:16:26.05	129.93	30.92	-47.8	-49.7	17.6	0.00e+00	0	43	0	896532480	66	4693
2026-01-27 23:16:27.06	130.23	30.81	-48.2	-50.3	17.0	0.00e+00	0	43	0	898629632	67	4737
2026-01-27 23:16:28.06	130.52	30.70	-48.1	-50.1	17.2	0.00e+00	0	43	0	899678208	67	4636
2026-01-27 23:16:29.07	130.81	30.59	-46.9	-48.5	18.7	0.00e+00	0	43	0	901775360	65	4304
2026-01-27 23:16:30.07	131.09	30.48	-46.2	-47.7	19.6	0.00e+00	0	43	0	903872512	64	4161
2026-01-27 23:16:31.07	131.38	30.37	-46.3	-47.7	19.4	0.00e+00	0	43	0	905969664	64	4191
2026-01-27 23:16:32.08	131.66	30.25	-46.8	-48.5	18.8	0.00e+00	0	43	0	908066816	64	4552
2026-01-27 23:16:33.08	131.94	30.14	-48.0	-50.0	17.3	0.00e+00	0	43	0	909115392	66	4829
2026-01-27 23:16:34.09	132.22	30.03	-48.9	-51.3	16.1	0.00e+00	0	43	0	911212544	68	5034
2026-01-27 23:16:35.09	132.50	29.91	-48.6	-50.9	16.4	0.00e+00	0	43	0	913309696	68	4785
2026-01-27 23:16:36.10	132.77	29.80	-47.7	-49.6	17.7	0.00e+00	0	43	0	915406848	67	4347
2026-01-27 23:16:37.11	133.05	29.68	-47.4	-49.2	18.1	0.00e+00	0	43	0	917504000	66	4415
2026-01-27 23:16:38.11	133.32	29.57	-47.3	-49.0	18.1	0.00e+00	0	43	0	918552576	66	4311
2026-01-27 23:16:39.12	133.59	29.46	-47.7	-49.6	17.6	0.00e+00	0	43	0	920649728	66	4625
2026-01-27 23:16:40.13	133.86	29.34	-48.9	-51.3	16.1	0.00e+00	0	43	0	922746880	68	5008
2026-01-27 23:16:41.13	134.12	29.23	-49.4	-52.1	15.1	0.00e+00	0	43	0	924844032	69	5213
2026-01-27 23:16:42.13	134.39	29.11	-48.7	-51.0	16.2	0.00e+00	0	43	0	926941184	69	4591
2026-01-27 23:16:43.13	134.65	29.00	-47.3	-49.1	18.1	0.00e+00	0	43	0	927989760	66	4352
2026-01-27 23:16:44.14	134.91	28.88	-46.3	-47.8	19.2	0.00e+00	0	43	0	930086912	64	4240
2026-01-27 23:16:45.15	135.17	28.76	-45.8	-47.1	20.0	0.00e+00	0	43	0	932184064	63	4134
2026-01-27 23:16:46.15	135.42	28.65	-46.1	-47.5	19.6	0.00e+00	0	43	0	934281216	63	4338
2026-01-27 23:16:47.16	135.68	28.53	-46.9	-48.6	18.5	0.00e+00	0	43	0	936378368	64	4623
2026-01-27 23:16:48.17	135.93	28.42	-47.8	-49.8	17.4	0.00e+00	0	43	0	937426944	66	4719
2026-01-27 23:16:49.16	136.18	28.30	-48.0	-50.1	17.0	0.00e+00	0	43	0	939524096	66	4921
2026-01-27 23:16:50.16	136.43	28.19	-47.1	-48.9	18.2	0.00e+00	0	43	0	941621248	66	4252
2026-01-27 23:16:51.17	136.68	28.07	-46.2	-47.7	19.4	0.00e+00	0	43	0	943718400	64	4152
2026-01-27 23:16:52.17	136.92	27.95	-45.9	-47.3	19.9	0.00e+00	0	43	0	944766976	63	4203
2026-01-27 23:16:53.18	137.17	27.84	-45.7	-47.0	20.1	0.00e+00	0	43	0	946864128	63	4094
2026-01-27 23:16:54.18	137.41	27.72	-46.2	-47.6	19.5	0.00e+00	0	43	0	948961280	63	4373
2026-01-27 23:16:55.19	137.65	27.60	-46.7	-48.3	18.9	0.00e+00	0	43	0	951058432	63	4721
2026-01-27 23:16:56.19	137.89	27.49	-46.8	-48.5	18.6	0.00e+00	0	43	0	953155584	64	4573
2026-01-27 23:16:57.19	138.13	27.37	-46.4	-47.9	19.1	0.00e+00	0	43	0	955252736	64	4276
2026-01-27 23:16:58.20	138.36	27.25	-45.8	-47.1	20.0	0.00e+00	0	43	0	956301312	63	4138
2026-01-27 23:16:59.21	138.60	27.14	-45.7	-47.1	20.1	0.00e+00	0	43	0	958398464	63	4101
2026-01-27 23:17:00.21	138.83	27.02	-45.0	-46.2	20.9	0.00e+00	0	43	0	960495616	61	4163
2026-01-27 23:17:01.22	139.06	26.90	-45.1	-46.3	20.7	0.00e+00	0	43	0	962592768	61	4217
2026-01-27 23:17:02.22	139.29	26.79	-45.4	-46.7	20.4	0.00e+00	0	43	0	964689920	61	4432
2026-01-27 23:17:03.23	139.52	26.67	-45.8	-47.2	19.9	0.00e+00	0	43	0	965738496	62	4428
2026-01-27 23:17:04.23	139.74	26.55	-46.0	-47.5	19.6	0.00e+00	0	43	0	967835648	62	4565
2026-01-27 23:17:05.23	139.97	26.44	-45.9	-47.3	19.8	0.00e+00	0	43	0	969932800	62	4473
2026-01-27 23:17:06.24	140.19	26.32	-45.3	-46.7	20.4	0.00e+00	0	43	0	972029952	62	4147
2026-01-27 23:17:07.25	140.41	26.20	-44.8	-46.0	21.0	0.00e+00	0	43	0	973078528	61	4085
2026-01-27 23:17:08.24	140.63	26.09	-44.6	-45.8	21.1	0.00e+00	0	43	0	975175680	61	3987
2026-01-27 23:17:09.25	140.85	25.97	-44.4	-45.6	21.4	0.00e+00	0	43	0	977272832	60	4125
2026-01-27 23:17:10.26	141.06	25.86	-44.4	-45.5	21.4	0.00e+00	0	43	0	979369984	60	4079
2026-01-27 23:17:11.27	141.28	25.74	-44.7	-45.9	21.2	0.00e+00	0	43	0	981467136	60	4245
2026-01-27 23:17:12.27	141.49	25.62	-45.0	-46.2	20.8	0.00e+00	0	43	0	982515712	60	4433
2026-01-27 23:17:13.28	141.71	25.51	-45.1	-46.4	20.6	0.00e+00	0	43	0	984612864	60	4509
2026-01-27 23:17:14.29	141.92	25.39	-44.7	-45.9	21.1	0.00e+00	0	43	0	986710016	60	4257
2026-01-27 23:17:15.29	142.13	25.28	-44.0	-45.2	21.7	0.00e+00	0	43	0	988807168	60	3920
2026-01-27 23:17:16.29	142.33	25.16	-43.9	-45.0	22.2	0.00e+00	0	43	0	990904320	59	4080
2026-01-27 23:17:17.29	142.54	25.05	-43.6	-44.7	22.5	0.00e+00	0	43	0	993001472	59	3926
2026-01-27 23:17:18.30	142.74	24.93	-43.7	-44.7	22.5	0.00e+00	0	43	0	994050048	59	3956
2026-01-27 23:17:19.31	142.95	24.82	-43.8	-44.9	22.2	0.00e+00	0	43	0	996147200	59	4015
2026-01-27 23:17:20.31	143.15	24.70	-44.1	-45.2	22.0	0.00e+00	0	43	0	998244352	59	4190
2026-01-27 23:17:21.32	143.35	24.59	-44.6	-45.8	21.5	0.00e+00	0	43	0	1000341504	59	4462
2026-01-27 23:17:22.33	143.55	24.47	-44.4	-45.6	21.3	0.00e+00	0	43	0	1001390080	60	4130
2026-01-27 23:17:23.34	143.75	24.36	-44.5	-45.7	21.3	0.00e+00	0	43	0	1003487232	60	4148
2026-01-27 23:17:24.34	143.94	24.24	-44.4	-45.5	21.4	0.00e+00	0	43	0	1005584384	60	4094
2026-01-27 23:17:25.35	144.14	24.13	-44.2	-45.3	21.6	0.00e+00	0	43	0	1007681536	60	3997
2026-01-27 23:17:26.35	144.33	24.01	-44.2	-45.3	21.9	0.00e+00	0	43	0	1009778688	59	4206
2026-01-27 23:17:27.35	144.52	23.90	-44.0	-45.1	22.1	0.00e+00	0	43	0	1010827264	59	4129
2026-01-27 23:17:28.36	144.71	23.79	-44.0	-45.1	22.1	0.00e+00	0	43	0	1012924416	59	4142
2026-01-27 23:17:29.36	144.90	23.67	-44.1	-45.2	22.0	0.00e+00	0	43	0	1015021568	59	4190
2026-01-27 23:17:30.37	145.09	23.56	-44.5	-45.6	21.6	0.00e+00	0	43	0	1017118720	59	4370
2026-01-27 23:17:31.37	145.27	23.45	-44.5	-45.7	21.2	0.00e+00	0	43	0	1019215872	60	4148
2026-01-27 23:17:32.38	145.46	23.33	-44.6	-45.9	21.0	0.00e+00	0	43	0	1020264448	60	4244
2026-01-27 23:17:33.38	145.64	23.22	-44.7	-46.0	20.9	0.00e+00	0	43	0	1022361600	60	4292
2026-01-27 23:17:34.39	145.82	23.11	-44.8	-46.0	20.9	0.00e+00	0	43	0	1024458752	60	4334
2026-01-27 23:17:35.39	146.00	22.99	-44.1	-45.3	21.6	0.00e+00	0	43	0	1026555904	60	3969
2026-01-27 23:17:36.40	146.19	22.88	-44.3	-45.4	21.8	0.00e+00	0	43	0	1028653056	59	4265
2026-01-27 23:17:37.41	146.37	22.77	-44.0	-45.1	22.1	0.00e+00	0	43	0	1029701632	59	4119
2026-01-27 23:17:38.41	146.54	22.66	-44.2	-45.3	21.8	0.00e+00	0	43	0	1031798784	59	4237
2026-01-27 23:17:39.42	146.72	22.55	-44.3	-45.4	21.8	0.00e+00	0	43	0	1033895936	59	4267
2026-01-27 23:17:40.42	146.89	22.44	-44.4	-45.5	21.7	0.00e+00	0	43	0	1035993088	59	4311
2026-01-27 23:17:41.42	147.07	22.32	-44.7	-45.9	21.3	0.00e+00	0	43	0	1038090240	59	4509
2026-01-27 23:17:42.43	147.24	22.21	-44.5	-45.7	21.1	0.00e+00	0	43	0	1039138816	60	4162
2026-01-27 23:17:43.44	147.41	22.10	-44.6	-45.9	21.0	0.00e+00	0	43	0	1041235968	60	4245
2026-01-27 23:17:44.44	147.58	21.99	-44.6	-45.8	21.0	0.00e+00	0	43	0	1043333120	60	4226
2026-01-27 23:17:45.45	147.75	21.88	-44.5	-45.7	21.1	0.00e+00	0	43	0	1045430272	60	4190
2026-01-27 23:17:46.45	147.92	21.77	-44.5	-45.7	21.1	0.00e+00	0	43	0	1047527424	60	4189
2026-01-27 23:17:47.46	148.09	21.66	-44.4	-45.6	21.2	0.00e+00	0	43	0	1048576000	60	4116
2026-01-27 23:17:48.47	148.25	21.55	-44.4	-45.6	21.3	0.00e+00	0	43	0	1050673152	60	4110
2026-01-27 23:17:49.47	148.42	21.44	-44.5	-45.6	21.2	0.00e+00	0	43	0	1052770304	60	4138
2026-01-27 23:17:50.47	148.58	21.33	-44.6	-45.8	21.0	0.00e+00	0	43	0	1054867456	60	4217
2026-01-27 23:17:51.48	148.74	21.22	-44.8	-46.1	20.5	0.00e+00	0	43	0	1056964608	60	4355
2026-01-27 23:17:52.48	148.90	21.12	-44.8	-46.1	20.8	0.00e+00	0	43	0	1058013184	60	4355
2026-01-27 23:17:53.49	149.06	21.01	-44.9	-46.2	20.7	0.00e+00	0	43	0	1060110336	60	4402
2026-01-27 23:17:54.50	149.22	20.90	-44.8	-46.1	20.8	0.00e+00	0	43	0	1062207488	60	4348
2026-01-27 23:17:55.51	149.38	20.79	-44.7	-45.9	20.9	0.00e+00	0	43	0	1064304640	60	4254
2026-01-27 23:17:56.51	149.54	20.68	-44.4	-45.5	21.2	0.00e+00	0	43	0	1066401792	60	4098
2026-01-27 23:17:57.52	149.69	20.58	-44.2	-45.4	21.4	0.00e+00	0	43	0	1067450368	60	4009
2026-01-27 23:17:58.52	149.85	20.47	-44.3	-45.5	21.3	0.00e+00	0	43	0	1069547520	60	4068
2026-01-27 23:17:59.52	150.00	20.36	-44.3	-45.4	21.3	0.00e+00	0	43	0	1071644672	60	4039
2026-01-27 23:18:00.53	150.16	20.26	-44.2	-45.4	21.3	0.00e+00	0	43	0	1073741824	60	4028
2026-01-27 23:18:01.54	150.31	20.15	-44.6	-45.8	21.0	0.00e+00	0	43	0	1075838976	60	4229
2026-01-27 23:18:02.55	150.46	20.04	-44.9	-46.2	20.6	0.00e+00	0	43	0	1076887552	60	4419
2026-01-27 23:18:03.55	150.61	19.94	-45.1	-46.4	20.4	0.00e+00	0	43	0	1078984704	60	4522
2026-01-27 23:18:04.56	150.76	19.83	-45.4	-46.7	20.1	0.00e+00	0	43	0	1081081856	61	4432
2026-01-27 23:18:05.57	150.91	19.72	-45.4	-46.8	20.0	0.00e+00	0	43	0	1083179008	61	4476
2026-01-27 23:18:06.57	151.05	19.62	-45.4	-46.8	20.0	0.00e+00	0	43	0	1085276160	61	4486
2026-01-27 23:18:07.58	151.20	19.51	-45.4	-46.8	20.1	0.00e+00	0	43	0	1086324736	61	4444
2026-01-27 23:18:08.59	151.34	19.41	-45.3	-46.6	20.2	0.00e+00	0	43	0	1088421888	61	4370
2026-01-27 23:18:09.59	151.49	19.31	-45.3	-46.7	20.1	0.00e+00	0	43	0	1090519040	61	4404
2026-01-27 23:18:10.59	151.63	19.20	-45.4	-46.8	20.0	0.00e+00	0	43	0	1092616192	61	4460
2026-01-27 23:18:11.60	151.77	19.10	-45.6	-47.1	19.8	0.00e+00	0	43	0	1094713344	61	4599
2026-01-27 23:18:12.61	151.91	18.99	-45.8	-47.3	19.5	0.00e+00	0	43	0	1095761920	62	4478
2026-01-27 23:18:13.62	152.05	18.89	-46.1	-47.6	19.2	0.00e+00	0	43	0	1097859072	62	4623
2026-01-27 23:18:14.62	152.19	18.79	-46.4	-48.0	18.9	0.00e+00	0	43	0	1099956224	63	4563
2026-01-27 23:18:15.62	152.33	18.69	-46.5	-48.1	18.7	0.00e+00	0	43	0	1102053376	63	4635
2026-01-27 23:18:16.63	152.47	18.58	-46.5	-48.1	18.8	0.00e+00	0	43	0	1104150528	63	4627
2026-01-27 23:18:17.64	152.61	18.48	-46.4	-48.0	18.9	0.00e+00	0	43	0	1105199104	63	4554
2026-01-27 23:18:18.65	152.74	18.38	-46.1	-47.7	19.1	0.00e+00	0	43	0	1107296256	63	4406
2026-01-27 23:18:19.65	152.88	18.28	-46.1	-47.6	19.2	0.00e+00	0	43	0	1109393408	63	4390
2026-01-27 23:18:20.65	153.01	18.18	-45.9	-47.4	19.4	0.00e+00	0	43	0	1111490560	63	4246
2026-01-27 23:18:21.66	153.14	18.07	-45.3	-46.6	20.1	0.00e+00	0	43	0	1113587712	62	4141
2026-01-27 23:18:22.67	153.28	17.97	-45.1	-46.4	20.4	0.00e+00	0	43	0	1114636288	62	4042
2026-01-27 23:18:23.67	153.41	17.87	-45.0	-46.3	20.4	0.00e+00	0	43	0	1116733440	62	3997
2026-01-27 23:18:24.68	153.54	17.77	-45.1	-46.5	20.3	0.00e+00	0	43	0	1118830592	62	4052
2026-01-27 23:18:25.69	153.67	17.67	-45.2	-46.5	20.2	0.00e+00	0	43	0	1120927744	62	4093
2026-01-27 23:18:26.69	153.80	17.57	-45.4	-46.7	20.0	0.00e+00	0	43	0	1123024896	62	4190
2026-01-27 23:18:27.70	153.92	17.47	-45.6	-47.0	19.8	0.00e+00	0	43	0	1124073472	62	4312
2026-01-27 23:18:28.71	154.05	17.37	-45.8	-47.2	19.5	0.00e+00	0	43	0	1126170624	62	4436
2026-01-27 23:18:29.71	154.18	17.28	-45.8	-47.3	19.5	0.00e+00	0	43	0	1128267776	62	4481
2026-01-27 23:18:30.72	154.30	17.18	-46.0	-47.5	19.3	0.00e+00	0	43	0	1130364928	62	4594
2026-01-27 23:18:31.72	154.43	17.08	-46.1	-47.7	19.1	0.00e+00	0	43	0	1132462080	62	4670
2026-01-27 23:18:32.73	154.55	16.98	-46.2	-47.7	19.0	0.00e+00	0	43	0	1133510656	62	4695
2026-01-27 23:18:33.74	154.68	16.88	-46.1	-47.6	19.1	0.00e+00	0	43	0	1135607808	62	4625
2026-01-27 23:18:34.75	154.80	16.78	-46.0	-47.5	19.2	0.00e+00	0	43	0	1137704960	62	4563
2026-01-27 23:18:35.75	154.92	16.69	-45.8	-47.3	19.5	0.00e+00	0	43	0	1139802112	62	4443
2026-01-27 23:18:36.76	155.04	16.59	-45.6	-47.0	19.7	0.00e+00	0	43	0	1141899264	62	4321
2026-01-27 23:18:37.77	155.16	16.49	-45.6	-47.0	19.7	0.00e+00	0	43	0	1142947840	62	4330
2026-01-27 23:18:38.77	155.28	16.40	-45.6	-47.1	19.7	0.00e+00	0	43	0	1145044992	62	4346
2026-01-27 23:18:39.78	155.40	16.30	-45.4	-46.8	19.9	0.00e+00	0	43	0	1147142144	62	4227
2026-01-27 23:18:40.79	155.52	16.20	-45.4	-46.8	19.9	0.00e+00	0	43	0	1149239296	62	4218
2026-01-27 23:18:41.79	155.64	16.11	-45.4	-46.8	19.9	0.00e+00	0	43	0	1151336448	62	4206
2026-01-27 23:18:42.80	155.75	16.01	-45.5	-46.9	19.8	0.00e+00	0	43	0	1152385024	62	4271
2026-01-27 23:18:43.81	155.87	15.92	-45.5	-46.9	19.8	0.00e+00	0	43	0	1154482176	62	4280
2026-01-27 23:18:44.82	155.99	15.82	-45.6	-47.0	19.7	0.00e+00	0	43	0	1156579328	62	4319
2026-01-27 23:18:45.82	156.10	15.73	-45.7	-47.1	19.6	0.00e+00	0	43	0	1158676480	62	4378
2026-01-27 23:18:46.83	156.21	15.63	-45.8	-47.3	19.5	0.00e+00	0	43	0	1160773632	62	4445
2026-01-27 23:18:47.84	156.33	15.54	-45.9	-47.4	19.3	0.00e+00	0	43	0	1161822208	62	4511
2026-01-27 23:18:48.85	156.44	15.44	-45.9	-47.4	19.2	0.00e+00	0	43	0	1163919360	62	4520
2026-01-27 23:18:49.86	156.55	15.35	-45.9	-47.4	19.2	0.00e+00	0	43	0	1166016512	62	4545
2026-01-27 23:18:50.87	156.66	15.26	-45.9	-47.4	19.3	0.00e+00	0	43	0	1168113664	62	4534
2026-01-27 23:18:51.88	156.78	15.16	-45.8	-47.3	19.4	0.00e+00	0	43	0	1170210816	62	4472
2026-01-27 23:18:52.88	156.88	15.07	-45.8	-47.3	19.4	0.00e+00	0	43	0	1171259392	62	4442
2026-01-27 23:18:53.89	156.99	14.98	-45.9	-47.4	19.3	0.00e+00	0	43	0	1173356544	62	4508
2026-01-27 23:18:54.90	157.10	14.88	-45.8	-47.3	19.3	0.00e+00	0	43	0	1175453696	62	4470
2026-01-27 23:18:55.90	157.21	14.79	-45.7	-47.2	19.5	0.00e+00	0	43	0	1177550848	62	4406
2026-01-27 23:18:56.91	157.32	14.70	-45.7	-47.1	19.5	0.00e+00	0	43	0	1179648000	62	4385
2026-01-27 23:18:57.91	157.42	14.61	-45.7	-47.2	19.4	0.00e+00	0	43	0	1180696576	62	4428
2026-01-27 23:18:58.92	157.53	14.52	-45.8	-47.3	19.4	0.00e+00	0	43	0	1182793728	62	4443
2026-01-27 23:18:59.92	157.64	14.43	-45.8	-47.2	19.4	0.00e+00	0	43	0	1184890880	62	4432
2026-01-27 23:19:00.93	157.74	14.34	-45.8	-47.3	19.4	0.00e+00	0	43	0	1186988032	62	4450
2026-01-27 23:19:01.93	157.84	14.25	-45.9	-47.4	19.3	0.00e+00	0	43	0	1189085184	62	4525
2026-01-27 23:19:02.94	157.95	14.15	-45.9	-47.5	19.2	0.00e+00	0	43	0	1190133760	62	4559
2026-01-27 23:19:03.94	158.05	14.07	-46.1	-47.6	19.1	0.00e+00	0	43	0	1192230912	62	4639
2026-01-27 23:19:04.95	158.15	13.98	-46.1	-47.7	19.0	0.00e+00	0	43	0	1194328064	62	4664
2026-01-27 23:19:05.96	158.26	13.89	-46.2	-47.8	18.9	0.00e+00	0	43	0	1196425216	62	4728
2026-01-27 23:19:06.97	158.36	13.80	-46.3	-47.9	18.7	0.00e+00	0	43	0	1198522368	63	4528
2026-01-27 23:19:07.97	158.46	13.71	-46.3	-47.9	18.7	0.00e+00	0	43	0	1199570944	63	4541
2026-01-27 23:19:08.98	158.56	13.62	-46.4	-48.1	18.6	0.00e+00	0	43	0	1201668096	63	4620
2026-01-27 23:19:09.99	158.66	13.53	-46.3	-48.0	18.6	0.00e+00	0	43	0	1203765248	63	4565
2026-01-27 23:19:11.00	158.76	13.44	-46.3	-47.9	18.7	0.00e+00	0	43	0	1205862400	63	4522
2026-01-27 23:19:12.00	158.85	13.35	-46.3	-47.9	18.7	0.00e+00	0	43	0	1207959552	63	4539
2026-01-27 23:19:13.01	158.95	13.26	-46.2	-47.9	18.8	0.00e+00	0	43	0	1209008128	63	4498
2026-01-27 23:19:14.01	159.05	13.18	-46.1	-47.6	19.0	0.00e+00	0	43	0	1211105280	63	4386
2026-01-27 23:19:15.02	159.15	13.09	-46.2	-47.8	18.9	0.00e+00	0	43	0	1213202432	63	4447
2026-01-27 23:19:16.03	159.24	13.00	-46.1	-47.7	18.9	0.00e+00	0	43	0	1215299584	63	4421
2026-01-27 23:19:17.03	159.34	12.92	-46.1	-47.6	19.0	0.00e+00	0	43	0	1217396736	63	4390
2026-01-27 23:19:18.03	159.43	12.83	-45.9	-47.5	19.1	0.00e+00	0	43	0	1218445312	63	4299
2026-01-27 23:19:19.04	159.53	12.74	-46.0	-47.5	19.1	0.00e+00	0	43	0	1220542464	63	4319
2026-01-27 23:19:20.05	159.62	12.66	-46.0	-47.6	19.0	0.00e+00	0	43	0	1222639616	63	4356
2026-01-27 23:19:21.06	159.72	12.57	-45.9	-47.4	19.1	0.00e+00	0	43	0	1224736768	63	4285
2026-01-27 23:19:22.07	159.81	12.48	-46.0	-47.5	19.1	0.00e+00	0	43	0	1226833920	63	4319
2026-01-27 23:19:23.07	159.90	12.40	-46.0	-47.6	19.0	0.00e+00	0	43	0	1227882496	63	4347
2026-01-27 23:19:24.08	159.99	12.31	-46.0	-47.5	19.1	0.00e+00	0	43	0	1229979648	63	4333
2026-01-27 23:19:25.09	160.08	12.23	-46.0	-47.5	19.1	0.00e+00	0	43	0	1232076800	63	4333
2026-01-27 23:19:26.09	160.17	12.14	-46.0	-47.6	19.0	0.00e+00	0	43	0	1234173952	63	4347
2026-01-27 23:19:27.10	160.27	12.06	-46.0	-47.6	19.0	0.00e+00	0	43	0	1236271104	63	4364
2026-01-27 23:19:28.10	160.35	11.98	-46.2	-47.8	18.8	0.00e+00	0	43	0	1237319680	63	4457
