passes_logs/2026/01/27/R3.2S_Murmansk/R3.2S_Murmansk__20260127_150536_FENGYUN_3D_rec.log

#Pass ID: 20260127_150536_FENGYUN 3D
#Satellite: FENGYUN 3D
#Configuration: FENGYUN 3D
#almurnet v.1.7.20251203
#Start time: 2026-01-27 15:05:36

#Version: 2.2.20231116
#Station: R3.2S_Murmansk
#Location: 33.079688 lon 68.888172 lat
#TLE: 1 43010U 17072A   26027.26653803  .00000472  00000+0  24513-3 0  9995
#TLE: 2 43010  98.9961 359.2743 0002530  88.0161 272.1305 14.19701760424993

#Time	Az	El	Level	Level2	SNR	BER	BlckErr	Temp	State	Recorded	gain1	gain2
2026-01-27 15:05:36.94	243.62	2.03	-54.0	-66.0	3.8	8.47e-01	0	41	0	0	79	14434
2026-01-27 15:05:37.94	243.72	2.07	-54.0	-66.0	3.8	8.47e-01	0	41	104	0	78	15345
2026-01-27 15:05:38.95	243.83	2.11	-54.2	-66.1	3.8	8.47e-01	0	41	104	0	78	15542
2026-01-27 15:05:39.95	243.93	2.16	-54.3	-66.2	3.8	8.46e-01	0	41	104	0	79	14831
2026-01-27 15:05:40.96	244.03	2.20	-54.3	-66.3	3.8	8.46e-01	0	41	104	0	79	14965
2026-01-27 15:05:41.97	244.13	2.25	-54.4	-66.3	3.8	8.46e-01	0	41	104	0	79	15010
2026-01-27 15:05:42.97	244.23	2.29	-54.3	-66.3	3.8	8.47e-01	0	41	104	0	79	14937
2026-01-27 15:05:43.98	244.34	2.33	-54.3	-66.3	3.8	8.46e-01	0	41	104	0	79	14937
2026-01-27 15:05:44.99	244.44	2.38	-54.3	-66.2	3.8	8.46e-01	0	41	104	0	79	14861
2026-01-27 15:05:46.00	244.54	2.42	-54.3	-66.2	3.8	8.47e-01	0	41	104	0	79	14853
2026-01-27 15:05:47.01	244.65	2.47	-54.2	-66.2	3.8	8.46e-01	0	41	104	0	79	14787
2026-01-27 15:05:48.02	244.75	2.51	-54.2	-66.2	3.8	8.47e-01	0	41	104	0	79	14731
2026-01-27 15:05:49.02	244.86	2.56	-54.2	-66.1	3.8	8.46e-01	0	41	104	0	79	14704
2026-01-27 15:05:50.02	244.96	2.60	-54.1	-66.1	3.8	8.46e-01	0	41	104	0	79	14554
2026-01-27 15:05:51.03	245.07	2.64	-54.0	-66.0	3.8	8.45e-01	0	41	104	0	79	14402
2026-01-27 15:05:52.04	245.17	2.69	-54.0	-65.9	3.8	8.46e-01	0	41	104	0	79	14315
2026-01-27 15:05:53.05	245.28	2.73	-53.9	-65.8	3.8	8.46e-01	0	41	104	0	79	14144
2026-01-27 15:05:54.06	245.38	2.78	-53.8	-65.7	3.8	8.45e-01	0	41	104	0	79	14040
2026-01-27 15:05:55.07	245.49	2.82	-53.6	-65.6	3.8	8.46e-01	0	41	104	0	79	13773
2026-01-27 15:05:56.08	245.60	2.87	-53.5	-65.5	3.8	8.46e-01	0	41	104	0	79	13650
2026-01-27 15:05:57.09	245.70	2.91	-53.4	-65.3	3.8	8.46e-01	0	41	104	0	78	14105
2026-01-27 15:05:58.10	245.81	2.95	-53.2	-65.2	3.8	8.47e-01	0	41	104	0	78	13946
2026-01-27 15:05:59.11	245.92	3.00	-53.0	-65.0	3.8	8.46e-01	0	41	104	0	78	13585
2026-01-27 15:06:00.12	246.03	3.04	-52.7	-64.7	3.8	8.46e-01	0	41	104	0	77	13924
2026-01-27 15:06:01.13	246.14	3.09	-52.6	-64.5	3.8	8.45e-01	0	42	104	0	77	13630
2026-01-27 15:06:02.13	246.24	3.13	-52.6	-64.5	3.8	8.46e-01	0	41	104	0	77	13618
2026-01-27 15:06:03.14	246.35	3.17	-52.5	-64.5	3.8	8.45e-01	0	42	104	0	77	13592
2026-01-27 15:06:04.15	246.46	3.22	-52.5	-64.5	3.8	8.47e-01	0	42	104	0	77	13582
2026-01-27 15:06:05.16	246.57	3.26	-52.5	-64.4	3.8	8.46e-01	0	42	104	0	77	13543
2026-01-27 15:06:06.17	246.68	3.31	-52.5	-64.5	3.8	8.47e-01	0	42	104	0	77	13613
2026-01-27 15:06:07.17	246.79	3.35	-52.5	-64.4	3.8	8.47e-01	0	42	104	0	77	13551
2026-01-27 15:06:08.18	246.90	3.39	-52.5	-64.5	3.8	8.45e-01	0	42	104	0	77	13596
2026-01-27 15:06:09.19	247.01	3.44	-52.5	-64.5	3.8	8.46e-01	0	42	104	0	77	13586
2026-01-27 15:06:10.20	247.12	3.48	-52.5	-64.4	3.8	8.46e-01	0	42	104	0	77	13557
2026-01-27 15:06:11.20	247.23	3.53	-52.5	-64.4	3.8	8.47e-01	0	42	104	0	77	13564
2026-01-27 15:06:12.21	247.34	3.57	-52.5	-64.4	3.8	8.46e-01	0	42	104	0	77	13477
2026-01-27 15:06:13.22	247.46	3.61	-52.5	-64.4	3.8	8.46e-01	0	42	104	0	77	13542
2026-01-27 15:06:14.23	247.57	3.66	-52.5	-64.4	3.8	8.46e-01	0	42	104	0	77	13497
2026-01-27 15:06:15.23	247.68	3.70	-52.5	-64.4	3.8	8.45e-01	0	42	104	0	77	13486
2026-01-27 15:06:16.24	247.79	3.75	-52.5	-64.4	3.8	8.45e-01	0	42	104	0	77	13415
2026-01-27 15:06:17.25	247.91	3.79	-52.5	-64.4	3.8	8.46e-01	0	42	104	0	77	13479
2026-01-27 15:06:18.25	248.02	3.83	-52.5	-64.4	3.8	8.47e-01	0	42	104	0	77	13523
2026-01-27 15:06:19.26	248.13	3.88	-52.5	-64.4	3.8	8.46e-01	0	42	104	0	77	13534
2026-01-27 15:06:20.27	248.25	3.92	-52.5	-64.4	3.8	8.46e-01	0	42	104	0	77	13496
2026-01-27 15:06:21.28	248.36	3.97	-52.5	-64.4	3.8	8.46e-01	0	42	104	0	77	13501
2026-01-27 15:06:22.29	248.48	4.01	-52.5	-64.4	3.8	8.45e-01	0	42	104	0	77	13488
2026-01-27 15:06:23.30	248.59	4.05	-52.5	-64.3	3.8	8.46e-01	0	42	104	0	77	13301
2026-01-27 15:06:24.30	248.71	4.10	-52.5	-64.3	3.8	8.47e-01	0	42	104	0	77	13354
2026-01-27 15:06:25.31	248.82	4.14	-52.5	-64.3	3.8	8.47e-01	0	42	104	0	76	14050
2026-01-27 15:06:26.31	248.94	4.18	-52.5	-64.2	3.8	8.45e-01	0	42	104	0	76	13886
2026-01-27 15:06:27.32	249.06	4.23	-52.5	-64.2	3.8	8.45e-01	0	42	104	0	76	13889
2026-01-27 15:06:28.33	249.17	4.27	-52.5	-64.3	3.8	8.45e-01	0	42	104	0	76	14064
2026-01-27 15:06:29.34	249.29	4.31	-52.5	-64.3	3.8	8.45e-01	0	42	104	0	76	14137
2026-01-27 15:06:30.35	249.41	4.36	-52.5	-64.3	3.8	8.46e-01	0	42	104	0	76	14117
2026-01-27 15:06:31.36	249.53	4.40	-52.5	-64.2	3.8	8.47e-01	0	42	104	0	76	13891
2026-01-27 15:06:32.36	249.64	4.45	-52.4	-64.1	3.8	8.47e-01	0	42	104	0	76	13876
2026-01-27 15:06:33.37	249.76	4.49	-52.5	-64.3	3.8	8.46e-01	0	42	104	0	76	14076
2026-01-27 15:06:34.37	249.88	4.53	-52.4	-64.2	3.8	8.46e-01	0	42	104	0	76	14004
2026-01-27 15:06:35.38	250.00	4.58	-52.4	-63.5	3.8	8.47e-01	0	42	104	0	76	12909
2026-01-27 15:06:36.39	250.12	4.62	-52.3	-62.4	3.8	8.47e-01	0	42	104	0	76	11412
2026-01-27 15:06:37.40	250.24	4.66	-52.1	-61.2	4.1	8.41e-01	0	42	104	0	76	9925
2026-01-27 15:06:38.40	250.36	4.71	-52.1	-60.7	4.2	8.38e-01	0	42	0	0	76	9372
2026-01-27 15:06:39.41	250.48	4.75	-52.1	-61.0	4.1	8.39e-01	0	42	0	0	76	9629
2026-01-27 15:06:40.41	250.60	4.79	-51.9	-60.0	4.4	8.33e-01	0	42	0	0	75	9080
2026-01-27 15:06:41.42	250.72	4.83	-51.3	-57.0	6.2	7.32e-01	0	42	0	1048576	74	6850
2026-01-27 15:06:42.43	250.84	4.88	-49.6	-52.9	10.2	2.34e-02	0	42	0	6291456	71	5092
2026-01-27 15:06:43.44	250.96	4.92	-48.0	-50.3	13.1	3.64e-04	0	42	0	11534336	68	4457
2026-01-27 15:06:44.45	251.09	4.96	-46.1	-47.7	15.6	0.00e+00	0	42	0	17825792	64	4169
2026-01-27 15:06:45.45	251.21	5.01	-44.8	-46.1	17.3	0.00e+00	0	42	0	24117248	61	4123
2026-01-27 15:06:46.46	251.33	5.05	-44.6	-45.9	17.6	0.00e+00	0	42	0	29360128	60	4248
2026-01-27 15:06:47.47	251.45	5.09	-45.7	-47.2	16.3	0.00e+00	0	42	0	34603008	62	4412
2026-01-27 15:06:48.47	251.58	5.14	-44.6	-45.8	17.5	1.57e-04	0	42	0	40894464	61	4003
2026-01-27 15:06:49.48	251.70	5.18	-47.5	-49.5	13.9	1.37e-05	0	42	0	46137344	66	4575
2026-01-27 15:06:50.49	251.83	5.22	-44.7	-45.9	17.4	4.00e-05	0	42	0	51380224	61	4027
2026-01-27 15:06:51.50	251.95	5.27	-43.5	-44.5	19.2	0.00e+00	0	42	0	57671680	59	3864
2026-01-27 15:06:52.51	252.08	5.31	-43.5	-44.6	19.1	0.00e+00	0	42	0	62914560	58	4122
2026-01-27 15:06:53.52	252.20	5.35	-43.4	-44.5	19.2	0.00e+00	0	42	0	69206016	58	4070
2026-01-27 15:06:54.52	252.33	5.39	-43.4	-44.5	19.2	0.00e+00	0	42	0	74448896	58	4077
2026-01-27 15:06:55.53	252.45	5.44	-43.4	-44.5	19.2	0.00e+00	0	42	0	79691776	58	4053
2026-01-27 15:06:56.53	252.58	5.48	-43.7	-44.8	19.0	0.00e+00	0	42	0	85983232	58	4205
2026-01-27 15:06:57.54	252.71	5.52	-43.7	-44.8	18.9	0.00e+00	0	42	0	91226112	58	4240
2026-01-27 15:06:58.55	252.83	5.56	-43.7	-44.8	18.9	0.00e+00	0	42	0	97517568	58	4240
2026-01-27 15:06:59.56	252.96	5.61	-43.4	-44.4	19.3	0.00e+00	0	42	0	102760448	58	4051
2026-01-27 15:07:00.56	253.09	5.65	-43.4	-44.5	19.3	0.00e+00	0	42	0	109051904	58	4076
2026-01-27 15:07:01.57	253.22	5.69	-43.4	-44.4	19.4	0.00e+00	0	42	0	114294784	58	4041
2026-01-27 15:07:02.58	253.34	5.73	-43.1	-44.2	19.6	0.00e+00	0	42	0	119537664	58	3926
2026-01-27 15:07:03.58	253.47	5.78	-43.1	-44.1	19.7	0.00e+00	0	42	0	125829120	58	3887
2026-01-27 15:07:04.59	253.60	5.82	-43.2	-44.2	19.6	0.00e+00	0	42	0	131072000	58	3943
2026-01-27 15:07:05.60	253.73	5.86	-43.0	-44.0	19.8	0.00e+00	0	42	0	136314880	57	4083
2026-01-27 15:07:06.61	253.86	5.90	-43.3	-44.4	19.4	0.00e+00	0	42	0	142606336	57	4259
2026-01-27 15:07:07.62	253.99	5.94	-43.1	-44.2	19.6	0.00e+00	0	42	0	147849216	57	4159
2026-01-27 15:07:08.63	254.12	5.99	-43.2	-44.3	19.5	0.00e+00	0	42	0	154140672	57	4209
2026-01-27 15:07:09.64	254.25	6.03	-43.2	-44.3	19.5	0.00e+00	0	42	0	159383552	57	4201
2026-01-27 15:07:10.65	254.39	6.07	-43.5	-44.5	19.2	0.00e+00	0	42	0	165675008	57	4339
2026-01-27 15:07:11.65	254.52	6.11	-43.4	-44.5	19.3	0.00e+00	0	42	0	170917888	57	4316
2026-01-27 15:07:12.66	254.65	6.15	-43.2	-44.3	19.5	0.00e+00	0	42	0	177209344	57	4226
2026-01-27 15:07:13.67	254.78	6.20	-43.4	-44.5	19.3	0.00e+00	0	42	0	182452224	57	4307
2026-01-27 15:07:14.67	254.91	6.24	-43.4	-44.5	19.3	0.00e+00	0	42	0	187695104	57	4303
2026-01-27 15:07:15.68	255.05	6.28	-43.3	-44.4	19.4	0.00e+00	0	42	0	193986560	57	4245
2026-01-27 15:07:16.68	255.18	6.32	-43.4	-44.5	19.3	0.00e+00	0	42	0	199229440	57	4328
2026-01-27 15:07:17.69	255.31	6.36	-43.2	-44.2	19.6	0.00e+00	0	42	0	204472320	57	4171
2026-01-27 15:07:18.70	255.45	6.40	-43.1	-44.1	19.7	0.00e+00	0	43	0	210763776	57	4126
2026-01-27 15:07:19.71	255.58	6.44	-43.1	-44.1	19.7	0.00e+00	0	42	0	216006656	57	4133
2026-01-27 15:07:20.72	255.72	6.49	-43.2	-44.2	19.6	0.00e+00	0	42	0	221249536	57	4180
2026-01-27 15:07:21.73	255.86	6.53	-43.1	-44.1	19.7	0.00e+00	0	42	0	227540992	57	4137
2026-01-27 15:07:22.73	255.99	6.57	-43.1	-44.1	19.7	0.00e+00	0	43	0	232783872	57	4138
2026-01-27 15:07:23.74	256.13	6.61	-42.9	-43.9	20.0	0.00e+00	0	42	0	239075328	57	4028
2026-01-27 15:07:24.74	256.26	6.65	-42.9	-43.9	19.9	0.00e+00	0	43	0	244318208	57	4030
2026-01-27 15:07:25.75	256.40	6.69	-42.9	-43.9	20.0	0.00e+00	0	42	0	250609664	57	4006
2026-01-27 15:07:26.75	256.54	6.73	-43.0	-44.0	19.9	0.00e+00	0	42	0	255852544	57	4075
2026-01-27 15:07:27.76	256.67	6.77	-42.9	-43.9	20.0	0.00e+00	0	42	0	262144000	57	4016
2026-01-27 15:07:28.77	256.81	6.81	-42.7	-43.7	20.1	0.00e+00	0	42	0	267386880	57	3947
2026-01-27 15:07:29.78	256.95	6.85	-42.7	-43.7	20.2	0.00e+00	0	42	0	272629760	57	3928
2026-01-27 15:07:30.79	257.09	6.89	-42.8	-43.8	20.1	0.00e+00	0	43	0	278921216	57	3980
2026-01-27 15:07:31.80	257.23	6.94	-42.8	-43.8	20.1	0.00e+00	0	42	0	284164096	57	3987
2026-01-27 15:07:32.80	257.37	6.98	-42.6	-43.5	20.4	0.00e+00	0	42	0	289406976	57	3856
2026-01-27 15:07:33.81	257.51	7.02	-42.6	-43.5	20.3	0.00e+00	0	43	0	295698432	57	3858
2026-01-27 15:07:34.82	257.65	7.06	-42.6	-43.6	20.3	0.00e+00	0	42	0	300941312	57	3883
2026-01-27 15:07:35.82	257.79	7.10	-42.5	-43.4	20.4	0.00e+00	0	42	0	307232768	56	4050
2026-01-27 15:07:36.83	257.93	7.14	-42.7	-43.7	20.2	0.00e+00	0	42	0	312475648	56	4182
2026-01-27 15:07:37.84	258.07	7.18	-42.7	-43.7	20.2	0.00e+00	0	42	0	317718528	56	4178
2026-01-27 15:07:38.85	258.21	7.22	-42.6	-43.5	20.3	0.00e+00	0	43	0	324009984	56	4080
2026-01-27 15:07:39.85	258.35	7.26	-42.5	-43.4	20.4	0.00e+00	0	42	0	329252864	56	4049
2026-01-27 15:07:40.86	258.50	7.30	-42.5	-43.5	20.4	0.00e+00	0	43	0	335544320	56	4074
2026-01-27 15:07:41.87	258.64	7.34	-42.6	-43.6	20.3	0.00e+00	0	43	0	340787200	56	4125
2026-01-27 15:07:42.87	258.78	7.38	-42.6	-43.5	20.4	0.00e+00	0	43	0	347078656	56	4085
2026-01-27 15:07:43.88	258.93	7.41	-42.6	-43.5	20.4	0.00e+00	0	42	0	352321536	56	4093
2026-01-27 15:07:44.88	259.07	7.45	-42.6	-43.6	20.3	0.00e+00	0	42	0	357564416	56	4133
2026-01-27 15:07:45.89	259.21	7.49	-42.7	-43.6	20.3	0.00e+00	0	43	0	363855872	56	4128
2026-01-27 15:07:46.90	259.36	7.53	-42.6	-43.5	20.3	0.00e+00	0	43	0	369098752	56	4097
2026-01-27 15:07:47.91	259.50	7.57	-42.6	-43.5	20.3	0.00e+00	0	43	0	374341632	56	4094
2026-01-27 15:07:48.92	259.65	7.61	-42.3	-43.3	20.6	0.00e+00	0	43	0	380633088	56	3970
2026-01-27 15:07:49.92	259.79	7.65	-42.4	-43.4	20.5	0.00e+00	0	43	0	385875968	56	4029
2026-01-27 15:07:50.93	259.94	7.69	-42.5	-43.5	20.4	0.00e+00	0	43	0	392167424	56	4080
2026-01-27 15:07:51.93	260.09	7.73	-42.5	-43.4	20.5	0.00e+00	0	43	0	397410304	56	4037
2026-01-27 15:07:52.94	260.23	7.77	-42.4	-43.4	20.5	0.00e+00	0	43	0	402653184	56	4020
2026-01-27 15:07:53.94	260.38	7.80	-42.6	-43.6	20.3	0.00e+00	0	43	0	408944640	56	4124
2026-01-27 15:07:54.95	260.53	7.84	-42.5	-43.5	20.4	0.00e+00	0	43	0	414187520	56	4068
2026-01-27 15:07:55.96	260.68	7.88	-42.5	-43.5	20.5	0.00e+00	0	43	0	420478976	56	4061
2026-01-27 15:07:56.97	260.83	7.92	-42.6	-43.5	20.4	0.00e+00	0	42	0	425721856	56	4080
2026-01-27 15:07:57.98	260.97	7.96	-42.4	-43.3	20.6	0.00e+00	0	43	0	432013312	56	3985
2026-01-27 15:07:58.99	261.12	8.00	-42.2	-43.2	20.8	0.00e+00	0	43	0	437256192	56	3915
2026-01-27 15:08:00.00	261.27	8.03	-42.1	-43.0	20.9	0.00e+00	0	43	0	442499072	56	3851
2026-01-27 15:08:00.99	261.42	8.07	-42.4	-43.4	20.5	0.00e+00	0	43	0	448790528	56	4027
2026-01-27 15:08:02.00	261.57	8.11	-42.4	-43.4	20.6	0.00e+00	0	43	0	454033408	56	4005
2026-01-27 15:08:03.01	261.72	8.15	-42.5	-43.4	20.6	0.00e+00	0	42	0	459276288	56	4038
2026-01-27 15:08:04.01	261.87	8.18	-42.4	-43.3	20.6	0.00e+00	0	43	0	465567744	56	3985
2026-01-27 15:08:05.02	262.02	8.22	-42.4	-43.3	20.6	0.00e+00	0	42	0	470810624	56	3980
2026-01-27 15:08:06.02	262.18	8.26	-42.3	-43.2	20.7	0.00e+00	0	42	0	477102080	56	3949
2026-01-27 15:08:07.03	262.33	8.29	-42.3	-43.3	20.7	0.00e+00	0	42	0	482344960	56	3973
2026-01-27 15:08:08.03	262.48	8.33	-42.2	-43.2	20.8	0.00e+00	0	43	0	487587840	56	3920
2026-01-27 15:08:09.04	262.63	8.37	-42.3	-43.2	20.7	0.00e+00	0	43	0	493879296	56	3943
2026-01-27 15:08:10.05	262.79	8.41	-42.3	-43.2	20.7	0.00e+00	0	43	0	500170752	56	3950
2026-01-27 15:08:11.06	262.94	8.44	-42.2	-43.1	20.8	0.00e+00	0	43	0	505413632	56	3905
2026-01-27 15:08:12.07	263.09	8.48	-42.2	-43.2	20.8	0.00e+00	0	43	0	510656512	56	3919
2026-01-27 15:08:13.07	263.25	8.51	-42.2	-43.2	20.8	0.00e+00	0	43	0	516947968	56	3919
2026-01-27 15:08:14.08	263.40	8.55	-42.2	-43.1	20.8	0.00e+00	0	43	0	522190848	56	3893
2026-01-27 15:08:15.09	263.56	8.59	-42.1	-43.0	21.0	0.00e+00	0	43	0	527433728	56	3852
2026-01-27 15:08:16.09	263.71	8.62	-42.2	-43.1	20.8	0.00e+00	0	43	0	533725184	56	3890
2026-01-27 15:08:17.10	263.87	8.66	-42.3	-43.2	20.7	0.00e+00	0	43	0	538968064	56	3941
2026-01-27 15:08:18.11	264.03	8.69	-42.0	-42.9	21.0	0.00e+00	0	43	0	544210944	56	3815
2026-01-27 15:08:19.13	264.18	8.73	-42.0	-42.9	21.0	0.00e+00	0	43	0	550502400	55	4034
2026-01-27 15:08:20.13	264.34	8.77	-42.2	-43.1	20.8	0.00e+00	0	43	0	555745280	55	4133
2026-01-27 15:08:21.14	264.50	8.80	-42.3	-43.2	20.7	0.00e+00	0	43	0	562036736	55	4181
2026-01-27 15:08:22.15	264.66	8.84	-42.2	-43.1	20.8	0.00e+00	0	43	0	567279616	55	4142
2026-01-27 15:08:23.15	264.81	8.87	-42.2	-43.2	20.8	0.00e+00	0	43	0	573571072	55	4152
2026-01-27 15:08:24.16	264.97	8.91	-42.2	-43.2	20.7	0.00e+00	0	43	0	578813952	55	4163
2026-01-27 15:08:25.17	265.13	8.94	-42.4	-43.4	20.6	0.00e+00	0	43	0	585105408	55	4266
2026-01-27 15:08:26.18	265.29	8.98	-42.2	-43.2	20.8	0.00e+00	0	42	0	590348288	55	4151
2026-01-27 15:08:27.19	265.45	9.01	-42.3	-43.3	20.7	0.00e+00	0	43	0	595591168	55	4202
2026-01-27 15:08:28.20	265.61	9.05	-42.3	-43.3	20.6	0.00e+00	0	43	0	601882624	55	4203
2026-01-27 15:08:29.20	265.77	9.08	-42.0	-43.0	21.0	0.00e+00	0	42	0	607125504	55	4053
2026-01-27 15:08:30.21	265.93	9.11	-41.9	-42.8	21.1	0.00e+00	0	43	0	612368384	55	3986
2026-01-27 15:08:31.21	266.09	9.15	-41.9	-42.8	21.1	0.00e+00	0	43	0	618659840	55	3990
2026-01-27 15:08:32.22	266.25	9.18	-41.9	-42.8	21.0	0.00e+00	0	43	0	623902720	55	3989
2026-01-27 15:08:33.23	266.41	9.21	-41.9	-42.9	21.0	0.00e+00	0	43	0	629145600	55	4018
2026-01-27 15:08:34.24	266.58	9.25	-42.3	-43.3	20.5	0.00e+00	0	43	0	635437056	55	4199
2026-01-27 15:08:35.25	266.74	9.28	-43.0	-44.1	19.8	0.00e+00	0	42	0	641728512	56	4353
2026-01-27 15:08:36.25	266.90	9.31	-43.6	-44.7	19.0	0.00e+00	0	43	0	646971392	57	4441
2026-01-27 15:08:37.26	267.06	9.35	-44.2	-45.4	18.2	0.00e+00	0	43	0	652214272	58	4518
2026-01-27 15:08:38.27	267.23	9.38	-44.4	-45.7	17.5	0.00e+00	0	43	0	658505728	60	4164
2026-01-27 15:08:39.28	267.39	9.41	-44.7	-46.0	17.1	0.00e+00	0	43	0	663748608	60	4325
2026-01-27 15:08:40.29	267.56	9.45	-44.7	-46.1	16.9	0.00e+00	0	42	0	670040064	60	4345
2026-01-27 15:08:41.30	267.72	9.48	-44.5	-45.8	17.1	0.00e+00	0	43	0	675282944	60	4236
2026-01-27 15:08:42.31	267.89	9.51	-44.7	-46.1	16.7	0.00e+00	0	43	0	680525824	60	4378
2026-01-27 15:08:43.32	268.05	9.54	-45.1	-46.5	16.3	0.00e+00	0	43	0	686817280	60	4595
2026-01-27 15:08:44.32	268.22	9.57	-45.6	-47.2	15.6	0.00e+00	0	43	0	692060160	61	4671
2026-01-27 15:08:45.33	268.38	9.61	-45.6	-47.2	15.6	0.00e+00	0	43	0	697303040	61	4694
2026-01-27 15:08:46.34	268.55	9.64	-45.8	-47.4	15.5	0.00e+00	0	43	0	703594496	62	4534
2026-01-27 15:08:47.35	268.72	9.67	-45.6	-47.1	15.8	0.00e+00	0	43	0	709885952	62	4381
2026-01-27 15:08:48.35	268.88	9.70	-45.6	-47.2	15.9	0.00e+00	0	43	0	715128832	62	4409
2026-01-27 15:08:49.36	269.05	9.73	-45.2	-46.7	16.4	0.00e+00	0	43	0	720371712	62	4152
2026-01-27 15:08:50.37	269.22	9.76	-44.7	-46.1	17.0	0.00e+00	0	43	0	726663168	61	4101
2026-01-27 15:08:51.37	269.39	9.79	-44.3	-45.6	17.4	0.00e+00	0	43	0	731906048	60	4126
2026-01-27 15:08:52.38	269.55	9.82	-44.2	-45.4	17.6	0.00e+00	0	43	0	737148928	60	4037
2026-01-27 15:08:53.39	269.72	9.85	-44.1	-45.3	17.7	0.00e+00	0	43	0	743440384	60	3979
2026-01-27 15:08:54.40	269.89	9.88	-44.4	-45.6	17.9	0.00e+00	0	43	0	748683264	59	4375
2026-01-27 15:08:55.41	270.06	9.91	-44.1	-45.2	18.4	0.00e+00	0	43	0	754974720	59	4186
2026-01-27 15:08:56.42	270.23	9.94	-43.3	-44.4	19.4	0.00e+00	0	43	0	760217600	58	4019
2026-01-27 15:08:57.43	270.40	9.97	-42.8	-43.8	20.1	0.00e+00	0	43	0	765460480	57	3984
2026-01-27 15:08:58.43	270.57	10.00	-42.6	-43.5	20.5	0.00e+00	0	43	0	771751936	57	3855
2026-01-27 15:08:59.44	270.74	10.03	-42.5	-43.4	20.6	0.00e+00	0	43	0	776994816	56	4029
2026-01-27 15:09:00.45	270.91	10.06	-42.4	-43.4	20.7	0.00e+00	0	43	0	783286272	56	4009
2026-01-27 15:09:01.45	271.08	10.09	-42.2	-43.1	21.0	0.00e+00	0	43	0	788529152	56	3880
2026-01-27 15:09:02.46	271.26	10.12	-42.2	-43.1	21.0	0.00e+00	0	43	0	794820608	56	3889
2026-01-27 15:09:03.47	271.43	10.15	-41.8	-42.7	21.2	0.00e+00	0	43	0	800063488	55	3952
2026-01-27 15:09:04.48	271.60	10.17	-41.8	-42.7	21.2	0.00e+00	0	43	0	805306368	55	3946
2026-01-27 15:09:05.49	271.77	10.20	-41.8	-42.7	21.3	0.00e+00	0	43	0	811597824	55	3938
2026-01-27 15:09:06.49	271.95	10.23	-41.9	-42.8	21.1	0.00e+00	0	43	0	816840704	55	4003
2026-01-27 15:09:07.50	272.12	10.26	-42.0	-42.9	21.1	0.00e+00	0	43	0	822083584	55	4015
2026-01-27 15:09:08.51	272.29	10.29	-41.9	-42.8	21.2	0.00e+00	0	43	0	828375040	55	3971
2026-01-27 15:09:09.51	272.47	10.31	-41.8	-42.7	21.2	0.00e+00	0	43	0	833617920	55	3942
2026-01-27 15:09:10.52	272.64	10.34	-41.7	-42.6	21.3	0.00e+00	0	43	0	839909376	55	3907
2026-01-27 15:09:11.52	272.81	10.37	-41.8	-42.7	21.3	0.00e+00	0	43	0	845152256	55	3957
2026-01-27 15:09:12.53	272.99	10.39	-41.9	-42.8	21.2	0.00e+00	0	43	0	850395136	55	3967
2026-01-27 15:09:13.54	273.17	10.42	-41.7	-42.6	21.4	0.00e+00	0	43	0	856686592	55	3892
2026-01-27 15:09:14.55	273.34	10.45	-41.7	-42.6	21.4	0.00e+00	0	43	0	862978048	55	3872
2026-01-27 15:09:15.57	273.52	10.47	-41.8	-42.7	21.3	0.00e+00	0	43	0	868220928	55	3942
2026-01-27 15:09:16.57	273.69	10.50	-41.8	-42.8	21.2	0.00e+00	0	43	0	873463808	55	3962
2026-01-27 15:09:17.58	273.87	10.52	-41.9	-42.8	21.2	0.00e+00	0	43	0	879755264	55	3979
2026-01-27 15:09:18.59	274.05	10.55	-41.9	-42.8	21.1	0.00e+00	0	43	0	884998144	55	4001
2026-01-27 15:09:19.60	274.22	10.57	-41.8	-42.7	21.3	0.00e+00	0	43	0	890241024	55	3932
2026-01-27 15:09:20.61	274.40	10.60	-41.9	-42.8	21.2	0.00e+00	0	43	0	896532480	55	3972
2026-01-27 15:09:21.61	274.58	10.62	-41.9	-42.8	21.3	0.00e+00	0	43	0	901775360	55	3962
2026-01-27 15:09:22.62	274.76	10.65	-41.7	-42.6	21.4	0.00e+00	0	43	0	907018240	55	3895
2026-01-27 15:09:23.63	274.94	10.67	-41.8	-42.7	21.4	0.00e+00	0	43	0	913309696	55	3917
2026-01-27 15:09:24.64	275.11	10.70	-41.8	-42.7	21.3	0.00e+00	0	43	0	918552576	55	3918
2026-01-27 15:09:25.65	275.29	10.72	-41.9	-42.8	21.2	0.00e+00	0	43	0	924844032	55	3985
2026-01-27 15:09:26.65	275.47	10.74	-41.9	-42.8	21.2	0.00e+00	0	43	0	930086912	55	3992
2026-01-27 15:09:27.66	275.65	10.77	-42.1	-43.0	21.1	0.00e+00	0	43	0	936378368	55	4073
2026-01-27 15:09:28.67	275.83	10.79	-42.2	-43.1	20.9	0.00e+00	0	43	0	941621248	55	4126
2026-01-27 15:09:29.68	276.01	10.81	-42.1	-43.0	21.1	0.00e+00	0	43	0	947912704	55	4061
2026-01-27 15:09:30.69	276.19	10.84	-41.9	-42.8	21.3	0.00e+00	0	43	0	953155584	55	3987
2026-01-27 15:09:31.69	276.37	10.86	-41.9	-42.8	21.2	0.00e+00	0	43	0	958398464	55	3978
2026-01-27 15:09:32.70	276.55	10.88	-41.9	-42.8	21.3	0.00e+00	0	43	0	964689920	55	3959
2026-01-27 15:09:33.70	276.73	10.90	-41.8	-42.7	21.3	0.00e+00	0	43	0	969932800	55	3947
2026-01-27 15:09:34.71	276.91	10.93	-41.7	-42.6	21.4	0.00e+00	0	43	0	975175680	55	3911
2026-01-27 15:09:35.72	277.09	10.95	-41.7	-42.6	21.4	0.00e+00	0	43	0	981467136	55	3907
2026-01-27 15:09:36.73	277.28	10.97	-41.6	-42.5	21.5	0.00e+00	0	43	0	986710016	55	3851
2026-01-27 15:09:37.74	277.46	10.99	-41.7	-42.6	21.4	0.00e+00	0	43	0	991952896	55	3891
2026-01-27 15:09:38.75	277.64	11.01	-41.6	-42.5	21.6	0.00e+00	0	43	0	998244352	55	3838
2026-01-27 15:09:39.75	277.82	11.03	-41.5	-42.4	21.7	0.00e+00	0	43	0	1004535808	55	3785
2026-01-27 15:09:40.76	278.00	11.05	-41.4	-42.2	21.8	0.00e+00	0	43	0	1009778688	54	3938
2026-01-27 15:09:41.77	278.19	11.07	-41.5	-42.3	21.7	0.00e+00	0	43	0	1015021568	54	3997
2026-01-27 15:09:42.78	278.37	11.09	-41.5	-42.4	21.7	0.00e+00	0	43	0	1021313024	54	4036
2026-01-27 15:09:43.78	278.55	11.11	-41.5	-42.4	21.7	0.00e+00	0	43	0	1026555904	54	4026
2026-01-27 15:09:44.79	278.74	11.13	-41.8	-42.6	21.4	0.00e+00	0	43	0	1031798784	54	4132
2026-01-27 15:09:45.80	278.92	11.15	-41.6	-42.4	21.6	0.00e+00	0	43	0	1038090240	54	4048
2026-01-27 15:09:46.80	279.10	11.17	-41.4	-42.3	21.8	0.00e+00	0	43	0	1043333120	54	3977
2026-01-27 15:09:47.81	279.29	11.19	-41.5	-42.3	21.7	0.00e+00	0	43	0	1049624576	54	3996
2026-01-27 15:09:48.82	279.47	11.21	-41.5	-42.3	21.8	0.00e+00	0	43	0	1054867456	54	3990
2026-01-27 15:09:49.83	279.66	11.22	-41.3	-42.2	21.9	0.00e+00	0	43	0	1060110336	54	3915
2026-01-27 15:09:50.83	279.84	11.24	-41.3	-42.2	21.9	0.00e+00	0	43	0	1066401792	54	3915
2026-01-27 15:09:51.83	280.02	11.26	-41.3	-42.2	21.9	0.00e+00	0	43	0	1071644672	54	3914
2026-01-27 15:09:52.84	280.21	11.28	-41.3	-42.1	21.9	0.00e+00	0	43	0	1076887552	54	3907
2026-01-27 15:09:53.85	280.40	11.29	-41.2	-42.0	22.0	0.00e+00	0	43	0	1083179008	54	3853
2026-01-27 15:09:54.86	280.58	11.31	-41.3	-42.1	22.0	0.00e+00	0	43	0	1089470464	54	3890
2026-01-27 15:09:55.87	280.77	11.33	-41.4	-42.2	21.9	0.00e+00	0	43	0	1094713344	54	3936
2026-01-27 15:09:56.87	280.95	11.34	-41.3	-42.1	22.0	0.00e+00	0	43	0	1099956224	54	3885
2026-01-27 15:09:57.88	281.14	11.36	-41.5	-42.3	21.8	0.00e+00	0	43	0	1106247680	54	3998
2026-01-27 15:09:58.89	281.33	11.38	-41.5	-42.3	21.8	0.00e+00	0	43	0	1111490560	54	3998
2026-01-27 15:09:59.89	281.51	11.39	-41.6	-42.5	21.6	0.00e+00	0	43	0	1117782016	54	4061
2026-01-27 15:10:00.90	281.70	11.41	-41.7	-42.6	21.5	0.00e+00	0	43	0	1123024896	54	4113
2026-01-27 15:10:01.91	281.89	11.42	-41.6	-42.5	21.6	0.00e+00	0	43	0	1128267776	54	4075
2026-01-27 15:10:02.91	282.07	11.44	-41.6	-42.5	21.6	0.00e+00	0	43	0	1134559232	54	4075
2026-01-27 15:10:03.92	282.26	11.45	-41.7	-42.6	21.6	0.00e+00	0	43	0	1139802112	54	4110
2026-01-27 15:10:04.93	282.45	11.47	-41.5	-42.4	21.7	0.00e+00	0	43	0	1145044992	54	4033
2026-01-27 15:10:05.93	282.64	11.48	-41.6	-42.4	21.7	0.00e+00	0	43	0	1151336448	54	4043
2026-01-27 15:10:06.94	282.82	11.49	-41.6	-42.4	21.7	0.00e+00	0	43	0	1156579328	54	4048
2026-01-27 15:10:07.95	283.01	11.51	-41.7	-42.6	21.6	0.00e+00	0	43	0	1162870784	54	4127
2026-01-27 15:10:08.96	283.20	11.52	-41.7	-42.6	21.6	0.00e+00	0	43	0	1168113664	54	4121
2026-01-27 15:10:09.97	283.39	11.53	-41.7	-42.6	21.6	0.00e+00	0	43	0	1174405120	54	4110
2026-01-27 15:10:10.97	283.58	11.55	-41.7	-42.6	21.6	0.00e+00	0	43	0	1179648000	54	4129
2026-01-27 15:10:11.98	283.77	11.56	-41.7	-42.6	21.6	0.00e+00	0	43	0	1184890880	54	4110
2026-01-27 15:10:12.99	283.96	11.57	-41.8	-42.7	21.6	0.00e+00	0	43	0	1191182336	54	4158
2026-01-27 15:10:14.00	284.15	11.58	-41.8	-42.7	21.5	0.00e+00	0	43	0	1196425216	54	4188
2026-01-27 15:10:15.01	284.34	11.60	-41.8	-42.7	21.6	0.00e+00	0	43	0	1202716672	54	4152
2026-01-27 15:10:16.01	284.52	11.61	-41.9	-42.8	21.5	0.00e+00	0	43	0	1207959552	54	4195
2026-01-27 15:10:17.02	284.71	11.62	-41.8	-42.7	21.5	0.00e+00	0	43	0	1213202432	54	4171
2026-01-27 15:10:18.03	284.90	11.63	-41.9	-42.8	21.4	0.00e+00	0	43	0	1219493888	54	4236
2026-01-27 15:10:19.03	285.09	11.64	-42.0	-42.9	21.4	0.00e+00	0	43	0	1224736768	54	4261
2026-01-27 15:10:20.04	285.28	11.65	-41.9	-42.8	21.5	0.00e+00	0	43	0	1229979648	54	4220
2026-01-27 15:10:21.05	285.47	11.66	-41.9	-42.8	21.4	0.00e+00	0	43	0	1236271104	54	4234
2026-01-27 15:10:22.06	285.66	11.67	-41.8	-42.7	21.5	0.00e+00	0	43	0	1242562560	54	4166
2026-01-27 15:10:23.06	285.85	11.68	-41.7	-42.6	21.6	0.00e+00	0	43	0	1247805440	54	4134
2026-01-27 15:10:24.07	286.04	11.69	-41.8	-42.7	21.6	0.00e+00	0	43	0	1253048320	54	4152
2026-01-27 15:10:25.08	286.23	11.70	-41.8	-42.7	21.6	0.00e+00	0	43	0	1259339776	54	4153
2026-01-27 15:10:26.09	286.42	11.71	-41.8	-42.7	21.6	0.00e+00	0	43	0	1264582656	54	4177
2026-01-27 15:10:27.11	286.62	11.71	-41.9	-42.7	21.5	0.00e+00	0	43	0	1269825536	54	4190
2026-01-27 15:10:28.11	286.81	11.72	-41.8	-42.7	21.6	0.00e+00	0	43	0	1276116992	54	4167
2026-01-27 15:10:29.12	287.00	11.73	-41.9	-42.7	21.5	0.00e+00	0	43	0	1281359872	54	4187
2026-01-27 15:10:30.13	287.19	11.74	-41.9	-42.7	21.5	0.00e+00	0	43	0	1287651328	54	4192
2026-01-27 15:10:31.14	287.38	11.74	-41.7	-42.5	21.8	0.00e+00	0	43	0	1292894208	54	4082
2026-01-27 15:10:32.15	287.57	11.75	-41.7	-42.6	21.8	0.00e+00	0	43	0	1299185664	54	4100
2026-01-27 15:10:33.15	287.76	11.76	-41.7	-42.6	21.7	0.00e+00	0	43	0	1304428544	54	4113
2026-01-27 15:10:34.16	287.95	11.76	-41.7	-42.5	21.7	0.00e+00	0	43	0	1310720000	54	4094
2026-01-27 15:10:35.16	288.14	11.77	-41.6	-42.4	21.8	0.00e+00	0	43	0	1315962880	54	4046
2026-01-27 15:10:36.17	288.34	11.78	-41.6	-42.5	21.8	0.00e+00	0	43	0	1321205760	54	4070
2026-01-27 15:10:37.17	288.53	11.78	-41.8	-42.6	21.7	0.00e+00	0	43	0	1327497216	54	4143
2026-01-27 15:10:38.18	288.72	11.79	-41.8	-42.6	21.7	0.00e+00	0	43	0	1332740096	54	4135
2026-01-27 15:10:39.19	288.91	11.79	-41.8	-42.7	21.7	0.00e+00	0	43	0	1337982976	54	4157
2026-01-27 15:10:40.20	289.10	11.80	-41.9	-42.8	21.5	0.00e+00	0	43	0	1344274432	54	4230
2026-01-27 15:10:41.21	289.29	11.80	-41.9	-42.8	21.6	0.00e+00	0	43	0	1349517312	54	4203
2026-01-27 15:10:42.22	289.49	11.80	-42.0	-42.8	21.5	0.00e+00	0	43	0	1354760192	54	4233
2026-01-27 15:10:43.22	289.68	11.81	-41.9	-42.8	21.6	0.00e+00	0	43	0	1361051648	54	4232
2026-01-27 15:10:44.23	289.87	11.81	-42.0	-42.8	21.5	0.00e+00	0	43	0	1366294528	54	4239
2026-01-27 15:10:45.24	290.06	11.81	-42.0	-42.8	21.5	0.00e+00	0	43	0	1372585984	54	4235
2026-01-27 15:10:46.24	290.25	11.82	-41.7	-42.5	21.8	0.00e+00	0	43	0	1377828864	54	4098
2026-01-27 15:10:47.25	290.44	11.82	-41.8	-42.7	21.7	0.00e+00	0	43	0	1384120320	54	4153
2026-01-27 15:10:48.26	290.64	11.82	-41.9	-42.7	21.7	0.00e+00	0	43	0	1389363200	54	4178
2026-01-27 15:10:49.27	290.83	11.82	-41.7	-42.6	21.8	0.00e+00	0	43	0	1395654656	54	4108
2026-01-27 15:10:50.28	291.02	11.83	-41.7	-42.5	21.9	0.00e+00	0	43	0	1400897536	54	4075
2026-01-27 15:10:51.29	291.21	11.83	-41.8	-42.6	21.8	0.00e+00	0	43	0	1406140416	54	4126
2026-01-27 15:10:52.30	291.41	11.83	-41.7	-42.5	21.8	0.00e+00	0	43	0	1412431872	54	4098
2026-01-27 15:10:53.31	291.60	11.83	-41.7	-42.5	21.9	0.00e+00	0	43	0	1417674752	54	4093
2026-01-27 15:10:54.31	291.79	11.83	-41.8	-42.7	21.7	0.00e+00	0	43	0	1422917632	54	4174
2026-01-27 15:10:55.32	291.98	11.83	-41.8	-42.7	21.7	0.00e+00	0	43	0	1429209088	54	4170
2026-01-27 15:10:56.33	292.18	11.83	-41.8	-42.6	21.8	0.00e+00	0	43	0	1434451968	54	4145
2026-01-27 15:10:57.34	292.37	11.83	-41.7	-42.6	21.8	0.00e+00	0	43	0	1439694848	54	4127
2026-01-27 15:10:58.35	292.56	11.83	-41.8	-42.7	21.7	0.00e+00	0	43	0	1445986304	54	4168
2026-01-27 15:10:59.35	292.75	11.83	-41.9	-42.7	21.7	0.00e+00	0	43	0	1452277760	54	4192
2026-01-27 15:11:00.35	292.94	11.83	-41.8	-42.6	21.8	0.00e+00	0	43	0	1457520640	54	4137
2026-01-27 15:11:01.37	293.14	11.83	-41.8	-42.6	21.8	0.00e+00	0	43	0	1462763520	54	4142
2026-01-27 15:11:02.37	293.33	11.83	-41.7	-42.6	21.8	0.00e+00	0	43	0	1469054976	54	4118
2026-01-27 15:11:03.38	293.52	11.82	-41.7	-42.6	21.8	0.00e+00	0	43	0	1474297856	54	4109
2026-01-27 15:11:04.38	293.71	11.82	-41.8	-42.6	21.8	0.00e+00	0	43	0	1480589312	54	4139
2026-01-27 15:11:05.39	293.90	11.82	-41.9	-42.8	21.7	0.00e+00	0	43	0	1485832192	54	4194
2026-01-27 15:11:06.40	294.09	11.82	-42.0	-42.9	21.5	0.00e+00	0	43	0	1491075072	54	4245
2026-01-27 15:11:07.40	294.29	11.81	-42.0	-42.8	21.6	0.00e+00	0	43	0	1497366528	54	4242
2026-01-27 15:11:08.41	294.48	11.81	-41.9	-42.7	21.6	0.00e+00	0	43	0	1502609408	54	4186
2026-01-27 15:11:09.42	294.67	11.81	-41.7	-42.6	21.7	0.00e+00	0	43	0	1507852288	54	4121
2026-01-27 15:11:10.43	294.86	11.80	-41.7	-42.6	21.8	0.00e+00	0	43	0	1514143744	54	4105
2026-01-27 15:11:11.43	295.05	11.80	-41.9	-42.7	21.6	0.00e+00	0	43	0	1519386624	54	4183
2026-01-27 15:11:12.44	295.24	11.79	-41.7	-42.6	21.8	0.00e+00	0	43	0	1524629504	54	4109
2026-01-27 15:11:13.45	295.44	11.79	-41.7	-42.6	21.8	0.00e+00	0	43	0	1530920960	54	4100
2026-01-27 15:11:14.45	295.63	11.78	-41.6	-42.4	21.9	0.00e+00	0	43	0	1537212416	54	4044
2026-01-27 15:11:15.46	295.82	11.78	-41.6	-42.5	21.8	0.00e+00	0	43	0	1542455296	54	4067
2026-01-27 15:11:16.47	296.01	11.77	-41.8	-42.6	21.7	0.00e+00	0	43	0	1547698176	54	4134
2026-01-27 15:11:17.48	296.20	11.77	-41.8	-42.7	21.6	0.00e+00	0	43	0	1553989632	54	4163
2026-01-27 15:11:18.49	296.39	11.76	-41.7	-42.6	21.7	0.00e+00	0	43	0	1559232512	54	4100
2026-01-27 15:11:19.50	296.59	11.75	-41.7	-42.6	21.7	0.00e+00	0	43	0	1565523968	54	4113
2026-01-27 15:11:20.50	296.77	11.75	-41.8	-42.6	21.7	0.00e+00	0	43	0	1570766848	54	4137
2026-01-27 15:11:21.50	296.96	11.74	-41.8	-42.6	21.7	0.00e+00	0	43	0	1576009728	54	4138
2026-01-27 15:11:22.51	297.16	11.73	-41.7	-42.5	21.7	0.00e+00	0	43	0	1582301184	54	4092
2026-01-27 15:11:23.52	297.35	11.72	-41.7	-42.6	21.6	0.00e+00	0	43	0	1587544064	54	4121
2026-01-27 15:11:24.53	297.54	11.72	-41.8	-42.6	21.6	0.00e+00	0	43	0	1592786944	54	4128
2026-01-27 15:11:25.54	297.73	11.71	-41.6	-42.4	21.8	0.00e+00	0	43	0	1599078400	54	4046
2026-01-27 15:11:26.55	297.92	11.70	-41.7	-42.6	21.6	0.00e+00	0	43	0	1605369856	54	4120
2026-01-27 15:11:27.55	298.11	11.69	-41.8	-42.6	21.6	0.00e+00	0	43	0	1610612736	54	4145
2026-01-27 15:11:28.56	298.30	11.68	-41.9	-42.8	21.5	0.00e+00	0	43	0	1615855616	54	4211
2026-01-27 15:11:29.57	298.49	11.67	-42.0	-42.9	21.4	0.00e+00	0	43	0	1622147072	54	4245
2026-01-27 15:11:30.58	298.68	11.66	-41.9	-42.8	21.4	0.00e+00	0	43	0	1627389952	54	4227
2026-01-27 15:11:31.59	298.87	11.65	-41.9	-42.7	21.5	0.00e+00	0	43	0	1632632832	54	4190
2026-01-27 15:11:32.59	299.06	11.64	-41.8	-42.7	21.5	0.00e+00	0	43	0	1638924288	54	4156
2026-01-27 15:11:33.60	299.25	11.63	-41.8	-42.7	21.5	0.00e+00	0	43	0	1644167168	54	4168
2026-01-27 15:11:34.60	299.44	11.62	-41.8	-42.7	21.5	0.00e+00	0	43	0	1650458624	54	4174
2026-01-27 15:11:35.61	299.63	11.61	-41.8	-42.6	21.6	0.00e+00	0	43	0	1655701504	54	4145
2026-01-27 15:11:36.62	299.82	11.60	-41.8	-42.7	21.5	0.00e+00	0	43	0	1660944384	54	4156
2026-01-27 15:11:37.63	300.01	11.59	-41.6	-42.5	21.7	0.00e+00	0	43	0	1667235840	54	4084
2026-01-27 15:11:38.63	300.19	11.58	-41.6	-42.5	21.7	0.00e+00	0	43	0	1672478720	54	4059
2026-01-27 15:11:39.64	300.38	11.56	-41.7	-42.6	21.6	0.00e+00	0	43	0	1677721600	54	4115
2026-01-27 15:11:40.65	300.57	11.55	-41.7	-42.5	21.6	0.00e+00	0	43	0	1684013056	54	4086
2026-01-27 15:11:41.65	300.76	11.54	-41.7	-42.6	21.6	0.00e+00	0	43	0	1690304512	54	4115
2026-01-27 15:11:42.65	300.95	11.53	-41.6	-42.4	21.7	0.00e+00	0	43	0	1695547392	54	4048
2026-01-27 15:11:43.66	301.13	11.51	-41.6	-42.4	21.7	0.00e+00	0	43	0	1700790272	54	4051
2026-01-27 15:11:44.67	301.32	11.50	-41.6	-42.4	21.7	0.00e+00	0	43	0	1707081728	54	4035
2026-01-27 15:11:45.68	301.51	11.49	-41.5	-42.4	21.8	0.00e+00	0	43	0	1712324608	54	4011
2026-01-27 15:11:46.69	301.70	11.47	-41.5	-42.3	21.8	0.00e+00	0	43	0	1717567488	54	4001
2026-01-27 15:11:47.69	301.88	11.46	-41.6	-42.4	21.7	0.00e+00	0	43	0	1723858944	54	4039
2026-01-27 15:11:48.70	302.07	11.44	-41.5	-42.4	21.7	0.00e+00	0	43	0	1729101824	54	4028
2026-01-27 15:11:49.70	302.26	11.43	-41.6	-42.5	21.7	0.00e+00	0	43	0	1735393280	54	4061
2026-01-27 15:11:50.71	302.44	11.41	-41.6	-42.5	21.7	0.00e+00	0	43	0	1740636160	54	4080
2026-01-27 15:11:51.72	302.63	11.40	-41.7	-42.6	21.5	0.00e+00	0	43	0	1745879040	54	4140
2026-01-27 15:11:52.73	302.82	11.38	-41.9	-42.8	21.3	0.00e+00	0	43	0	1752170496	54	4237
2026-01-27 15:11:53.73	303.00	11.37	-41.9	-42.8	21.4	0.00e+00	0	43	0	1757413376	54	4217
2026-01-27 15:11:54.74	303.19	11.35	-41.7	-42.5	21.6	0.00e+00	0	43	0	1762656256	54	4092
2026-01-27 15:11:55.75	303.38	11.34	-41.6	-42.4	21.7	0.00e+00	0	43	0	1768947712	54	4044
2026-01-27 15:11:56.76	303.56	11.32	-41.4	-42.3	21.8	0.00e+00	0	43	0	1775239168	54	3978
2026-01-27 15:11:57.77	303.75	11.30	-41.4	-42.3	21.9	0.00e+00	0	43	0	1780482048	54	3977
2026-01-27 15:11:58.77	303.93	11.29	-41.4	-42.3	21.8	0.00e+00	0	43	0	1785724928	54	3973
2026-01-27 15:11:59.78	304.12	11.27	-41.6	-42.4	21.6	0.00e+00	0	43	0	1792016384	54	4045
2026-01-27 15:12:00.79	304.30	11.25	-41.5	-42.4	21.7	0.00e+00	0	43	0	1797259264	54	4008
2026-01-27 15:12:01.80	304.49	11.23	-41.7	-42.6	21.5	0.00e+00	0	43	0	1802502144	54	4100
2026-01-27 15:12:02.80	304.67	11.21	-41.7	-42.6	21.5	0.00e+00	0	43	0	1808793600	54	4101
2026-01-27 15:12:03.81	304.86	11.20	-41.7	-42.5	21.5	0.00e+00	0	43	0	1814036480	54	4093
2026-01-27 15:12:04.82	305.04	11.18	-41.7	-42.5	21.5	0.00e+00	0	43	0	1820327936	54	4082
2026-01-27 15:12:05.83	305.22	11.16	-41.6	-42.5	21.6	0.00e+00	0	43	0	1825570816	54	4083
2026-01-27 15:12:06.83	305.41	11.14	-41.7	-42.6	21.5	0.00e+00	0	43	0	1830813696	54	4124
2026-01-27 15:12:07.83	305.59	11.12	-41.8	-42.7	21.4	0.00e+00	0	43	0	1837105152	54	4166
2026-01-27 15:12:08.84	305.77	11.10	-41.8	-42.7	21.4	0.00e+00	0	43	0	1842348032	54	4154
2026-01-27 15:12:09.85	305.95	11.08	-41.7	-42.6	21.5	0.00e+00	0	43	0	1848639488	54	4122
2026-01-27 15:12:10.85	306.14	11.06	-41.8	-42.7	21.4	0.00e+00	0	43	0	1853882368	54	4164
2026-01-27 15:12:11.86	306.32	11.04	-41.7	-42.6	21.4	0.00e+00	0	43	0	1860173824	54	4123
2026-01-27 15:12:12.87	306.50	11.02	-41.7	-42.6	21.4	0.00e+00	0	43	0	1865416704	54	4119
2026-01-27 15:12:13.88	306.68	11.00	-41.8	-42.7	21.4	0.00e+00	0	43	0	1870659584	54	4173
2026-01-27 15:12:14.89	306.86	10.98	-42.0	-42.9	21.2	0.00e+00	0	43	0	1876951040	54	4243
2026-01-27 15:12:15.89	307.04	10.96	-41.9	-42.7	21.3	0.00e+00	0	43	0	1882193920	54	4192
2026-01-27 15:12:16.89	307.22	10.94	-41.8	-42.6	21.4	0.00e+00	0	43	0	1887436800	54	4140
2026-01-27 15:12:17.90	307.41	10.91	-41.8	-42.7	21.4	0.00e+00	0	43	0	1893728256	54	4167
2026-01-27 15:12:18.91	307.59	10.89	-41.6	-42.5	21.5	0.00e+00	0	43	0	1898971136	54	4088
2026-01-27 15:12:19.92	307.77	10.87	-41.8	-42.7	21.4	0.00e+00	0	43	0	1905262592	54	4147
2026-01-27 15:12:20.93	307.95	10.85	-41.6	-42.5	21.5	0.00e+00	0	43	0	1910505472	54	4069
2026-01-27 15:12:21.93	308.13	10.83	-41.6	-42.4	21.6	0.00e+00	0	43	0	1915748352	54	4044
2026-01-27 15:12:22.94	308.31	10.80	-41.6	-42.4	21.5	0.00e+00	0	43	0	1922039808	54	4050
2026-01-27 15:12:23.95	308.49	10.78	-41.6	-42.5	21.5	0.00e+00	0	43	0	1928331264	54	4060
2026-01-27 15:12:24.96	308.66	10.76	-41.6	-42.5	21.5	0.00e+00	0	43	0	1933574144	54	4087
2026-01-27 15:12:25.97	308.84	10.73	-41.7	-42.6	21.4	0.00e+00	0	43	0	1938817024	54	4136
2026-01-27 15:12:26.97	309.02	10.71	-41.7	-42.6	21.4	0.00e+00	0	43	0	1945108480	54	4141
2026-01-27 15:12:27.98	309.20	10.69	-41.7	-42.6	21.4	0.00e+00	0	43	0	1950351360	54	4128
2026-01-27 15:12:28.99	309.38	10.66	-41.7	-42.6	21.4	0.00e+00	0	43	0	1955594240	54	4120
2026-01-27 15:12:29.99	309.55	10.64	-41.8	-42.7	21.3	0.00e+00	0	43	0	1961885696	54	4147
2026-01-27 15:12:31.00	309.73	10.61	-41.8	-42.7	21.3	0.00e+00	0	43	0	1967128576	54	4174
2026-01-27 15:12:32.00	309.91	10.59	-41.9	-42.8	21.2	0.00e+00	0	43	0	1972371456	54	4201
2026-01-27 15:12:33.01	310.08	10.56	-41.7	-42.6	21.4	0.00e+00	0	43	0	1978662912	54	4144
2026-01-27 15:12:34.02	310.26	10.54	-41.7	-42.6	21.4	0.00e+00	0	43	0	1983905792	54	4120
2026-01-27 15:12:35.03	310.44	10.51	-41.8	-42.7	21.3	0.00e+00	0	43	0	1990197248	54	4167
2026-01-27 15:12:36.04	310.61	10.49	-41.9	-42.8	21.2	0.00e+00	0	43	0	1995440128	54	4196
2026-01-27 15:12:37.04	310.79	10.46	-41.7	-42.6	21.4	0.00e+00	0	43	0	2000683008	54	4131
2026-01-27 15:12:38.05	310.96	10.44	-41.8	-42.7	21.3	0.00e+00	0	43	0	2006974464	54	4164
2026-01-27 15:12:39.05	311.14	10.41	-41.8	-42.7	21.3	0.00e+00	0	43	0	2013265920	54	4171
2026-01-27 15:12:40.06	311.31	10.38	-41.8	-42.7	21.3	0.00e+00	0	43	0	2018508800	54	4174
2026-01-27 15:12:41.07	311.48	10.36	-41.8	-42.7	21.3	0.00e+00	0	43	0	2023751680	54	4152
2026-01-27 15:12:42.08	311.66	10.33	-42.0	-42.9	21.1	0.00e+00	0	43	0	2030043136	54	4252
2026-01-27 15:12:43.09	311.83	10.30	-41.9	-42.8	21.2	0.00e+00	0	43	0	2035286016	54	4208
2026-01-27 15:12:44.09	312.01	10.27	-41.9	-42.8	21.1	0.00e+00	0	43	0	2040528896	54	4236
2026-01-27 15:12:45.10	312.18	10.25	-42.0	-42.9	21.0	0.00e+00	0	43	0	2046820352	54	4290
2026-01-27 15:12:46.11	312.35	10.22	-42.1	-43.0	21.0	0.00e+00	0	43	0	2052063232	54	4314
2026-01-27 15:12:47.12	312.52	10.19	-42.2	-43.1	20.9	0.00e+00	0	43	0	2057306112	54	4371
2026-01-27 15:12:48.12	312.69	10.16	-41.9	-42.8	21.1	0.00e+00	0	43	0	2063597568	54	4241
2026-01-27 15:12:49.13	312.87	10.14	-42.0	-43.0	21.0	0.00e+00	0	43	0	2068840448	54	4297
2026-01-27 15:12:50.14	313.04	10.11	-42.1	-43.0	21.0	0.00e+00	0	43	0	2075131904	54	4318
2026-01-27 15:12:51.15	313.21	10.08	-42.2	-43.1	20.9	0.00e+00	0	43	0	2080374784	54	4359
2026-01-27 15:12:52.15	313.38	10.05	-42.0	-43.0	21.0	0.00e+00	0	43	0	2086666240	54	4293
2026-01-27 15:12:53.16	313.55	10.02	-42.0	-42.9	21.0	0.00e+00	0	43	0	2091909120	54	4277
2026-01-27 15:12:54.17	313.72	9.99	-42.0	-43.0	21.0	0.00e+00	0	43	0	2098200576	54	4299
2026-01-27 15:12:55.18	313.89	9.96	-42.0	-42.9	21.0	0.00e+00	0	43	0	2103443456	54	4284
2026-01-27 15:12:56.19	314.06	9.93	-42.0	-42.9	21.0	0.00e+00	0	43	0	2108686336	54	4271
2026-01-27 15:12:57.19	314.23	9.90	-42.0	-42.9	21.1	0.00e+00	0	43	0	2114977792	54	4246
2026-01-27 15:12:58.20	314.40	9.87	-41.8	-42.7	21.2	0.00e+00	0	43	0	2120220672	54	4169
2026-01-27 15:12:59.20	314.56	9.84	-41.9	-42.8	21.1	0.00e+00	0	43	0	2125463552	54	4225
2026-01-27 15:13:00.21	314.73	9.81	-41.8	-42.7	21.2	0.00e+00	0	43	0	2131755008	54	4168
2026-01-27 15:13:01.22	314.90	9.78	-41.8	-42.7	21.1	0.00e+00	0	43	0	2136997888	54	4185
2026-01-27 15:13:02.23	315.07	9.75	-41.9	-42.8	21.1	0.00e+00	0	43	0	2142240768	54	4229
2026-01-27 15:13:03.24	315.24	9.72	-41.9	-42.8	21.1	0.00e+00	0	43	0	2148532224	54	4195
2026-01-27 15:13:04.25	315.40	9.69	-41.8	-42.8	21.1	0.00e+00	0	43	0	2154823680	54	4196
2026-01-27 15:13:05.25	315.57	9.66	-42.0	-42.9	21.0	0.00e+00	0	43	0	2160066560	54	4264
2026-01-27 15:13:06.26	315.73	9.63	-42.0	-42.9	21.0	0.00e+00	0	43	0	2165309440	54	4261
2026-01-27 15:13:07.26	315.90	9.60	-42.0	-42.9	20.9	0.00e+00	0	43	0	2171600896	54	4284
2026-01-27 15:13:08.27	316.06	9.56	-42.0	-42.9	21.0	0.00e+00	0	43	0	2176843776	54	4277
2026-01-27 15:13:09.28	316.23	9.53	-42.1	-43.0	20.9	0.00e+00	0	43	0	2183135232	54	4312
2026-01-27 15:13:10.29	316.39	9.50	-42.0	-42.9	21.0	0.00e+00	0	43	0	2188378112	54	4254
2026-01-27 15:13:11.29	316.56	9.47	-42.1	-43.0	20.9	0.00e+00	0	43	0	2193620992	54	4314
2026-01-27 15:13:12.30	316.72	9.44	-42.1	-43.0	20.8	0.00e+00	0	43	0	2199912448	54	4313
2026-01-27 15:13:13.31	316.89	9.40	-42.1	-43.1	20.8	0.00e+00	0	43	0	2205155328	54	4350
2026-01-27 15:13:14.32	317.05	9.37	-42.1	-43.0	20.8	0.00e+00	0	43	0	2210398208	54	4327
2026-01-27 15:13:15.32	317.21	9.34	-42.2	-43.1	20.7	0.00e+00	0	43	0	2216689664	54	4386
2026-01-27 15:13:16.33	317.37	9.31	-42.2	-43.2	20.7	0.00e+00	0	43	0	2221932544	55	4164
2026-01-27 15:13:17.33	317.53	9.27	-42.2	-43.1	20.7	0.00e+00	0	43	0	2227175424	55	4130
2026-01-27 15:13:18.34	317.70	9.24	-42.1	-43.1	20.8	0.00e+00	0	43	0	2233466880	55	4111
2026-01-27 15:13:19.34	317.86	9.21	-42.2	-43.2	20.7	0.00e+00	0	43	0	2238709760	55	4152
2026-01-27 15:13:20.35	318.02	9.17	-42.3	-43.3	20.6	0.00e+00	0	43	0	2245001216	55	4201
2026-01-27 15:13:21.36	318.18	9.14	-41.9	-42.8	21.0	0.00e+00	0	43	0	2250244096	55	3989
2026-01-27 15:13:22.36	318.34	9.11	-42.0	-42.9	21.0	0.00e+00	0	43	0	2256535552	55	4018
2026-01-27 15:13:23.37	318.50	9.07	-41.9	-42.8	21.0	0.00e+00	0	43	0	2261778432	55	3969
2026-01-27 15:13:24.38	318.66	9.04	-41.9	-42.8	21.0	0.00e+00	0	43	0	2268069888	55	3993
2026-01-27 15:13:25.38	318.82	9.00	-42.0	-43.0	20.9	0.00e+00	0	43	0	2273312768	55	4052
2026-01-27 15:13:26.39	318.98	8.97	-42.0	-42.9	20.9	0.00e+00	0	43	0	2278555648	55	4042
2026-01-27 15:13:27.39	319.13	8.94	-42.2	-43.1	20.7	0.00e+00	0	43	0	2284847104	55	4125
2026-01-27 15:13:28.40	319.29	8.90	-42.3	-43.2	20.6	0.00e+00	0	43	0	2290089984	55	4187
2026-01-27 15:13:29.41	319.45	8.87	-42.3	-43.3	20.6	0.00e+00	0	43	0	2295332864	55	4197
2026-01-27 15:13:30.42	319.61	8.83	-42.4	-43.4	20.4	0.00e+00	0	43	0	2301624320	55	4273
2026-01-27 15:13:31.42	319.76	8.80	-42.5	-43.5	20.3	0.00e+00	0	43	0	2306867200	55	4307
2026-01-27 15:13:32.43	319.92	8.76	-42.3	-43.3	20.5	0.00e+00	0	43	0	2312110080	55	4204
2026-01-27 15:13:33.44	320.08	8.73	-42.3	-43.3	20.5	0.00e+00	0	43	0	2318401536	55	4205
2026-01-27 15:13:34.45	320.23	8.69	-42.3	-43.2	20.6	0.00e+00	0	43	0	2324692992	55	4167
2026-01-27 15:13:35.45	320.39	8.65	-42.3	-43.3	20.5	0.00e+00	0	43	0	2329935872	55	4220
2026-01-27 15:13:36.46	320.54	8.62	-42.4	-43.4	20.4	0.00e+00	0	43	0	2335178752	55	4260
2026-01-27 15:13:37.47	320.70	8.58	-42.3	-43.2	20.6	0.00e+00	0	43	0	2341470208	55	4181
2026-01-27 15:13:38.48	320.85	8.55	-42.3	-43.3	20.5	0.00e+00	0	43	0	2346713088	55	4219
2026-01-27 15:13:39.49	321.01	8.51	-42.2	-43.1	20.6	0.00e+00	0	43	0	2353004544	55	4137
2026-01-27 15:13:40.49	321.16	8.47	-42.1	-43.1	20.7	0.00e+00	0	43	0	2358247424	55	4113
2026-01-27 15:13:41.50	321.31	8.44	-42.2	-43.1	20.6	0.00e+00	0	43	0	2363490304	55	4145
2026-01-27 15:13:42.51	321.47	8.40	-42.3	-43.2	20.5	0.00e+00	0	43	0	2369781760	55	4187
2026-01-27 15:13:43.51	321.62	8.37	-42.3	-43.2	20.6	0.00e+00	0	43	0	2375024640	55	4175
2026-01-27 15:13:44.52	321.77	8.33	-42.2	-43.2	20.6	0.00e+00	0	43	0	2380267520	55	4158
2026-01-27 15:13:45.52	321.92	8.29	-42.1	-43.1	20.7	0.00e+00	0	43	0	2386558976	55	4111
2026-01-27 15:13:46.53	322.07	8.26	-42.4	-43.3	20.4	0.00e+00	0	43	0	2391801856	55	4223
2026-01-27 15:13:47.54	322.22	8.22	-42.4	-43.4	20.4	0.00e+00	0	43	0	2397044736	55	4263
2026-01-27 15:13:48.54	322.37	8.18	-42.3	-43.3	20.4	0.00e+00	0	43	0	2403336192	55	4212
2026-01-27 15:13:49.55	322.53	8.14	-42.3	-43.3	20.5	0.00e+00	0	43	0	2409627648	55	4216
2026-01-27 15:13:50.56	322.68	8.11	-42.4	-43.3	20.4	0.00e+00	0	43	0	2414870528	55	4229
2026-01-27 15:13:51.56	322.82	8.07	-42.3	-43.3	20.4	0.00e+00	0	43	0	2420113408	55	4223
2026-01-27 15:13:52.57	322.97	8.03	-42.3	-43.2	20.5	0.00e+00	0	43	0	2426404864	55	4190
2026-01-27 15:13:53.58	323.12	7.99	-42.4	-43.3	20.4	0.00e+00	0	43	0	2431647744	55	4227
2026-01-27 15:13:54.58	323.27	7.96	-42.3	-43.2	20.5	0.00e+00	0	43	0	2437939200	55	4187
2026-01-27 15:13:55.59	323.42	7.92	-42.2	-43.1	20.6	0.00e+00	0	43	0	2443182080	55	4115
2026-01-27 15:13:56.60	323.57	7.88	-42.1	-43.0	20.7	0.00e+00	0	43	0	2448424960	55	4088
2026-01-27 15:13:57.60	323.71	7.84	-42.2	-43.1	20.6	0.00e+00	0	43	0	2454716416	55	4140
2026-01-27 15:13:58.61	323.86	7.80	-42.2	-43.1	20.6	0.00e+00	0	43	0	2459959296	55	4127
2026-01-27 15:13:59.62	324.01	7.77	-42.2	-43.2	20.5	0.00e+00	0	43	0	2465202176	55	4161
2026-01-27 15:14:00.63	324.15	7.73	-42.5	-43.5	20.2	0.00e+00	0	43	0	2471493632	55	4297
2026-01-27 15:14:01.64	324.30	7.69	-42.6	-43.6	20.1	0.00e+00	0	43	0	2476736512	55	4360
2026-01-27 15:14:02.64	324.44	7.65	-42.6	-43.6	20.1	0.00e+00	0	43	0	2481979392	55	4349
2026-01-27 15:14:03.65	324.59	7.61	-42.8	-43.8	20.0	0.00e+00	0	43	0	2488270848	56	4237
2026-01-27 15:14:04.65	324.73	7.57	-42.9	-43.9	19.9	0.00e+00	0	43	0	2494562304	56	4276
2026-01-27 15:14:05.66	324.88	7.53	-43.0	-44.0	19.7	0.00e+00	0	43	0	2499805184	56	4337
2026-01-27 15:14:06.67	325.02	7.49	-43.0	-44.0	19.8	0.00e+00	0	43	0	2505048064	56	4326
2026-01-27 15:14:07.67	325.17	7.46	-42.9	-43.9	19.9	0.00e+00	0	43	0	2511339520	56	4258
2026-01-27 15:14:08.68	325.31	7.42	-42.9	-43.9	19.9	0.00e+00	0	43	0	2516582400	56	4250
2026-01-27 15:14:09.69	325.45	7.38	-42.9	-43.9	19.9	0.00e+00	0	43	0	2522873856	56	4253
2026-01-27 15:14:10.70	325.60	7.34	-43.0	-44.0	19.8	0.00e+00	0	43	0	2528116736	56	4297
2026-01-27 15:14:11.70	325.74	7.30	-42.9	-44.0	19.8	0.00e+00	0	43	0	2533359616	56	4297
2026-01-27 15:14:12.70	325.88	7.26	-42.8	-43.8	20.0	0.00e+00	0	43	0	2539651072	56	4220
2026-01-27 15:14:13.71	326.02	7.22	-42.9	-43.9	19.9	0.00e+00	0	43	0	2544893952	56	4250
2026-01-27 15:14:14.72	326.16	7.18	-42.8	-43.8	19.9	0.00e+00	0	43	0	2550136832	56	4215
2026-01-27 15:14:15.72	326.30	7.14	-42.8	-43.8	20.0	0.00e+00	0	43	0	2556428288	56	4200
2026-01-27 15:14:16.73	326.44	7.10	-42.7	-43.7	20.0	0.00e+00	0	43	0	2561671168	56	4183
2026-01-27 15:14:17.74	326.58	7.06	-42.8	-43.9	19.9	0.00e+00	0	43	0	2566914048	56	4249
2026-01-27 15:14:18.75	326.72	7.02	-42.9	-43.9	19.8	0.00e+00	0	43	0	2573205504	56	4278
2026-01-27 15:14:19.75	326.86	6.98	-42.9	-44.0	19.7	0.00e+00	0	43	0	2579496960	56	4299
2026-01-27 15:14:20.75	327.00	6.94	-42.8	-43.8	19.9	0.00e+00	0	43	0	2584739840	56	4242
2026-01-27 15:14:21.76	327.14	6.90	-42.9	-44.0	19.7	0.00e+00	0	43	0	2589982720	56	4299
2026-01-27 15:14:22.77	327.27	6.86	-43.0	-44.0	19.7	0.00e+00	0	43	0	2596274176	56	4324
2026-01-27 15:14:23.78	327.41	6.82	-43.0	-44.1	19.6	0.00e+00	0	43	0	2601517056	56	4363
2026-01-27 15:14:24.78	327.55	6.78	-43.0	-44.0	19.7	0.00e+00	0	43	0	2607808512	56	4321
2026-01-27 15:14:25.79	327.69	6.74	-43.0	-44.0	19.7	0.00e+00	0	43	0	2613051392	56	4331
2026-01-27 15:14:26.80	327.82	6.70	-42.8	-43.8	19.8	0.00e+00	0	43	0	2618294272	56	4235
2026-01-27 15:14:27.81	327.96	6.66	-42.8	-43.8	19.9	0.00e+00	0	43	0	2624585728	56	4218
2026-01-27 15:14:28.81	328.09	6.62	-42.6	-43.6	20.0	0.00e+00	0	43	0	2629828608	56	4136
2026-01-27 15:14:29.82	328.23	6.58	-42.7	-43.7	19.9	0.00e+00	0	43	0	2635071488	56	4190
2026-01-27 15:14:30.83	328.37	6.54	-42.7	-43.7	19.9	0.00e+00	0	43	0	2641362944	56	4190
2026-01-27 15:14:31.83	328.50	6.49	-42.6	-43.6	20.1	0.00e+00	0	43	0	2646605824	56	4099
2026-01-27 15:14:32.84	328.63	6.45	-42.7	-43.7	19.9	0.00e+00	0	43	0	2651848704	56	4179
2026-01-27 15:14:33.85	328.77	6.41	-42.7	-43.7	20.0	0.00e+00	0	43	0	2658140160	56	4152
2026-01-27 15:14:34.85	328.90	6.37	-42.8	-43.8	19.8	0.00e+00	0	43	0	2664431616	56	4217
2026-01-27 15:14:35.86	329.04	6.33	-42.8	-43.8	19.8	0.00e+00	0	43	0	2669674496	56	4220
2026-01-27 15:14:36.87	329.17	6.29	-42.8	-43.8	19.8	0.00e+00	0	43	0	2674917376	56	4238
2026-01-27 15:14:37.87	329.30	6.25	-42.9	-44.0	19.6	0.00e+00	0	43	0	2681208832	56	4308
2026-01-27 15:14:38.88	329.43	6.21	-43.0	-44.0	19.6	0.00e+00	0	43	0	2686451712	56	4322
2026-01-27 15:14:39.89	329.57	6.16	-42.9	-44.0	19.6	0.00e+00	0	43	0	2692743168	56	4307
2026-01-27 15:14:40.89	329.70	6.12	-43.2	-44.3	19.3	0.00e+00	0	43	0	2697986048	56	4465
2026-01-27 15:14:41.90	329.83	6.08	-43.3	-44.4	19.2	0.00e+00	0	43	0	2703228928	57	4258
2026-01-27 15:14:42.90	329.96	6.04	-43.3	-44.4	19.2	0.00e+00	0	43	0	2709520384	57	4260
2026-01-27 15:14:43.91	330.09	6.00	-43.5	-44.6	19.0	0.00e+00	0	43	0	2714763264	57	4350
2026-01-27 15:14:44.92	330.22	5.96	-43.4	-44.5	19.1	0.00e+00	0	43	0	2720006144	57	4312
2026-01-27 15:14:45.93	330.35	5.92	-43.4	-44.5	19.1	0.00e+00	0	43	0	2726297600	57	4326
2026-01-27 15:14:46.93	330.48	5.87	-43.4	-44.5	19.1	0.00e+00	0	43	0	2731540480	57	4310
2026-01-27 15:14:47.93	330.61	5.83	-43.2	-44.3	19.3	0.00e+00	0	43	0	2736783360	57	4224
2026-01-27 15:14:48.94	330.73	5.79	-43.1	-44.2	19.4	0.00e+00	0	43	0	2743074816	57	4161
2026-01-27 15:14:49.95	330.86	5.75	-43.1	-44.1	19.4	0.00e+00	0	43	0	2749366272	57	4131
2026-01-27 15:14:50.96	330.99	5.71	-43.2	-44.2	19.3	0.00e+00	0	43	0	2754609152	57	4169
2026-01-27 15:14:51.96	331.12	5.66	-43.1	-44.1	19.4	0.00e+00	0	43	0	2759852032	57	4117
2026-01-27 15:14:52.97	331.25	5.62	-43.4	-44.5	19.0	0.00e+00	0	43	0	2766143488	57	4322
2026-01-27 15:14:53.98	331.37	5.58	-43.3	-44.3	19.2	0.00e+00	0	43	0	2771386368	57	4228
2026-01-27 15:14:54.99	331.50	5.54	-43.0	-44.1	19.4	0.00e+00	0	43	0	2777677824	57	4107
2026-01-27 15:14:56.00	331.63	5.50	-43.2	-44.3	19.2	0.00e+00	0	43	0	2782920704	57	4202
2026-01-27 15:14:57.00	331.75	5.45	-43.4	-44.5	19.0	0.00e+00	0	43	0	2788163584	57	4333
2026-01-27 15:14:58.01	331.88	5.41	-43.5	-44.6	18.9	0.00e+00	0	43	0	2794455040	57	4385
2026-01-27 15:14:59.01	332.00	5.37	-43.6	-44.8	18.7	0.00e+00	0	43	0	2799697920	58	4209
2026-01-27 15:15:00.02	332.13	5.33	-43.5	-44.7	18.8	0.00e+00	0	43	0	2804940800	58	4163
2026-01-27 15:15:01.03	332.25	5.28	-43.5	-44.6	18.9	0.00e+00	0	43	0	2811232256	58	4135
2026-01-27 15:15:02.03	332.37	5.24	-43.7	-44.8	18.7	0.00e+00	0	43	0	2816475136	58	4215
2026-01-27 15:15:03.04	332.50	5.20	-43.9	-45.1	18.4	0.00e+00	0	43	0	2821718016	58	4360
2026-01-27 15:15:04.04	332.62	5.16	-43.8	-45.0	18.5	0.00e+00	0	43	0	2828009472	58	4312
2026-01-27 15:15:05.05	332.74	5.11	-43.7	-44.8	18.6	0.00e+00	0	43	0	2834300928	58	4238
2026-01-27 15:15:06.06	332.87	5.07	-43.7	-44.8	18.7	0.00e+00	0	43	0	2839543808	58	4232
2026-01-27 15:15:07.06	332.99	5.03	-43.4	-44.6	18.9	0.00e+00	0	43	0	2844786688	58	4109
2026-01-27 15:15:08.07	333.11	4.99	-52.3	-63.7	3.8	5.51e-01	0	43	104	2848980992	75	13907
2026-01-27 15:15:09.08	333.23	4.94	-52.8	-64.8	3.8	8.46e-01	0	43	104	2848980992	76	14914
2026-01-27 15:15:10.08	333.35	4.90	-53.0	-64.9	3.8	8.46e-01	0	43	104	2848980992	76	15211
2026-01-27 15:15:11.09	333.48	4.86	-53.1	-65.0	3.8	8.45e-01	0	43	104	2848980992	76	15391
2026-01-27 15:15:12.10	333.60	4.81	-53.2	-65.1	3.8	8.47e-01	0	43	104	2848980992	76	15555
2026-01-27 15:15:13.11	333.72	4.77	-53.3	-65.2	3.8	8.46e-01	0	43	104	2848980992	77	14858
2026-01-27 15:15:14.12	333.84	4.73	-53.4	-65.3	3.8	8.47e-01	0	43	104	2848980992	77	14924
2026-01-27 15:15:15.13	333.96	4.69	-53.4	-65.3	3.8	8.46e-01	0	43	104	2848980992	77	14949
2026-01-27 15:15:16.14	334.08	4.64	-53.3	-65.3	3.8	8.46e-01	0	43	104	2848980992	77	14887
2026-01-27 15:15:17.15	334.20	4.60	-53.3	-65.2	3.8	8.45e-01	0	43	104	2848980992	77	14805
2026-01-27 15:15:18.16	334.32	4.56	-53.3	-65.2	3.8	8.45e-01	0	43	104	2848980992	77	14774
2026-01-27 15:15:19.17	334.43	4.51	-53.2	-65.1	3.8	8.46e-01	0	43	104	2848980992	77	14606
2026-01-27 15:15:20.17	334.55	4.47	-53.1	-65.0	3.8	8.47e-01	0	43	104	2848980992	77	14506
2026-01-27 15:15:21.18	334.67	4.43	-53.2	-65.1	3.8	8.46e-01	0	43	104	2848980992	77	14614
2026-01-27 15:15:22.19	334.79	4.38	-53.3	-65.1	3.8	8.46e-01	0	43	104	2848980992	77	14703
2026-01-27 15:15:23.20	334.90	4.34	-53.3	-65.2	3.8	8.46e-01	0	43	104	2848980992	77	14848
2026-01-27 15:15:24.21	335.02	4.30	-53.3	-65.3	3.8	8.47e-01	0	43	104	2848980992	77	14880
2026-01-27 15:15:25.21	335.14	4.25	-53.4	-65.3	3.8	8.48e-01	0	43	104	2848980992	77	14944
2026-01-27 15:15:26.22	335.25	4.21	-53.4	-65.3	3.8	8.45e-01	0	43	104	2848980992	77	14994
2026-01-27 15:15:27.23	335.37	4.17	-53.4	-65.4	3.8	8.45e-01	0	43	104	2848980992	77	15093
2026-01-27 15:15:28.23	335.48	4.12	-53.5	-65.4	3.8	8.46e-01	0	43	104	2848980992	77	15113
2026-01-27 15:15:29.24	335.60	4.08	-53.5	-65.4	3.8	8.47e-01	0	43	104	2848980992	77	15198
2026-01-27 15:15:30.25	335.71	4.04	-53.5	-65.4	3.8	8.46e-01	0	43	104	2848980992	77	15108
2026-01-27 15:15:31.26	335.83	3.99	-53.4	-65.3	3.8	8.46e-01	0	43	104	2848980992	77	15030
2026-01-27 15:15:32.26	335.94	3.95	-53.4	-65.3	3.8	8.46e-01	0	43	104	2848980992	77	15046
2026-01-27 15:15:33.27	336.06	3.91	-53.4	-65.3	3.8	8.44e-01	0	43	104	2848980992	77	15037
2026-01-27 15:15:34.28	336.17	3.86	-53.4	-65.3	3.8	8.46e-01	0	43	104	2848980992	77	15019
2026-01-27 15:15:35.29	336.28	3.82	-53.4	-65.3	3.8	8.46e-01	0	43	104	2848980992	77	15039
2026-01-27 15:15:36.30	336.40	3.78	-53.4	-65.3	3.8	8.46e-01	0	43	104	2848980992	77	14990
2026-01-27 15:15:37.30	336.51	3.73	-53.4	-65.3	3.8	8.47e-01	0	43	104	2848980992	77	14965
2026-01-27 15:15:38.31	336.62	3.69	-53.4	-65.3	3.8	8.47e-01	0	43	104	2848980992	77	14971
2026-01-27 15:15:39.33	336.73	3.65	-53.4	-65.3	3.8	8.46e-01	0	43	104	2848980992	77	14943
2026-01-27 15:15:40.33	336.84	3.60	-53.4	-65.3	3.8	8.45e-01	0	43	104	2848980992	77	14916
2026-01-27 15:15:41.34	336.96	3.56	-53.3	-65.3	3.8	8.46e-01	0	43	104	2848980992	77	14904
2026-01-27 15:15:42.35	337.07	3.52	-53.3	-65.3	3.8	8.46e-01	0	43	104	2848980992	77	14910
2026-01-27 15:15:43.36	337.18	3.47	-53.3	-65.3	3.8	8.45e-01	0	43	104	2848980992	77	14899
2026-01-27 15:15:44.36	337.29	3.43	-53.3	-65.3	3.8	8.45e-01	0	43	104	2848980992	77	14916
2026-01-27 15:15:45.37	337.40	3.38	-53.3	-65.3	3.8	8.47e-01	0	43	104	2848980992	77	14915
2026-01-27 15:15:46.38	337.51	3.34	-53.3	-65.3	3.8	8.46e-01	0	43	104	2848980992	77	14895
2026-01-27 15:15:47.39	337.62	3.30	-53.3	-65.2	3.8	8.46e-01	0	43	104	2848980992	77	14855
2026-01-27 15:15:48.40	337.73	3.25	-53.3	-65.2	3.8	8.46e-01	0	43	104	2848980992	77	14851
2026-01-27 15:15:49.41	337.84	3.21	-53.3	-65.3	3.8	8.46e-01	0	43	104	2848980992	77	14895
2026-01-27 15:15:50.42	337.94	3.17	-53.3	-65.2	3.8	8.47e-01	0	43	104	2848980992	77	14873
2026-01-27 15:15:51.43	338.05	3.12	-53.3	-65.3	3.8	8.45e-01	0	43	104	2848980992	77	14922
2026-01-27 15:15:52.43	338.16	3.08	-53.3	-65.3	3.8	8.45e-01	0	43	104	2848980992	77	14894
2026-01-27 15:15:53.44	338.27	3.03	-53.3	-65.2	3.8	8.45e-01	0	43	104	2848980992	77	14864
2026-01-27 15:15:54.45	338.37	2.99	-53.3	-65.2	3.8	8.47e-01	0	43	104	2848980992	77	14837
2026-01-27 15:15:55.45	338.48	2.95	-53.3	-65.2	3.8	8.46e-01	0	43	104	2848980992	77	14841
2026-01-27 15:15:56.46	338.59	2.90	-53.3	-65.2	3.8	8.46e-01	0	43	104	2848980992	77	14830
2026-01-27 15:15:57.47	338.69	2.86	-53.3	-65.2	3.8	8.46e-01	0	43	104	2848980992	77	14809
2026-01-27 15:15:58.47	338.80	2.82	-53.3	-65.2	3.8	8.47e-01	0	43	104	2848980992	77	14861
2026-01-27 15:15:59.48	338.91	2.77	-53.3	-65.2	3.8	8.47e-01	0	43	104	2848980992	77	14803
2026-01-27 15:16:00.49	339.01	2.73	-53.3	-65.2	3.8	8.45e-01	0	43	104	2848980992	77	14860
2026-01-27 15:16:01.50	339.12	2.68	-53.3	-65.2	3.8	8.46e-01	0	43	104	2848980992	77	14845
2026-01-27 15:16:02.50	339.22	2.64	-53.3	-65.2	3.8	8.46e-01	0	43	104	2848980992	77	14833
2026-01-27 15:16:03.51	339.33	2.60	-53.3	-65.2	3.8	8.46e-01	0	43	104	2848980992	77	14820
2026-01-27 15:16:04.52	339.43	2.55	-53.3	-65.2	3.8	8.48e-01	0	43	104	2848980992	77	14800
2026-01-27 15:16:05.53	339.53	2.51	-53.3	-65.2	3.8	8.47e-01	0	43	104	2848980992	77	14793
2026-01-27 15:16:06.53	339.64	2.47	-53.3	-65.2	3.8	8.46e-01	0	43	104	2848980992	77	14828
2026-01-27 15:16:07.54	339.74	2.42	-53.3	-65.2	3.8	8.46e-01	0	43	104	2848980992	77	14793
2026-01-27 15:16:08.54	339.84	2.38	-53.3	-65.2	3.8	8.46e-01	0	43	104	2848980992	77	14742
2026-01-27 15:16:09.55	339.95	2.33	-53.3	-65.2	3.8	8.46e-01	0	43	104	2848980992	77	14787
2026-01-27 15:16:10.55	340.05	2.29	-53.3	-65.2	3.8	8.46e-01	0	43	104	2848980992	77	14777
2026-01-27 15:16:11.56	340.15	2.25	-53.3	-65.2	3.8	8.46e-01	0	43	104	2848980992	77	14779
2026-01-27 15:16:12.57	340.25	2.20	-53.3	-65.2	3.8	8.45e-01	0	43	104	2848980992	77	14755
2026-01-27 15:16:13.57	340.35	2.16	-53.3	-65.2	3.8	8.47e-01	0	43	104	2848980992	77	14790
2026-01-27 15:16:14.58	340.45	2.12	-53.3	-65.2	3.8	8.46e-01	0	43	104	2848980992	77	14774
2026-01-27 15:16:15.59	340.56	2.07	-53.3	-65.2	3.8	8.46e-01	0	43	104	2848980992	77	14753
2026-01-27 15:16:16.60	340.66	2.03	-53.3	-65.2	3.8	8.46e-01	0	43	104	2848980992	77	14740

#Closed at: 2026-01-27 15:16:17
#Recorded file [2848 MB]: D:/lorett/data/31041_260127_180536.dat