passes_logs/2026/01/27/R3.2S_Murmansk/R3.2S_Murmansk__20260127_132209_FENGYUN_3D_rec.log

#Pass ID: 20260127_132209_FENGYUN 3D
#Satellite: FENGYUN 3D
#Configuration: FENGYUN 3D
#almurnet v.1.7.20251203
#Start time: 2026-01-27 13:22:09

#Version: 2.2.20231116
#Station: R3.2S_Murmansk
#Location: 33.079688 lon 68.888172 lat
#TLE: 1 43010U 17072A   26027.26653803  .00000472  00000+0  24513-3 0  9995
#TLE: 2 43010  98.9961 359.2743 0002530  88.0161 272.1305 14.19701760424993

#Time	Az	El	Level	Level2	SNR	BER	BlckErr	Temp	State	Recorded	gain1	gain2
2026-01-27 13:22:09.52	195.93	2.02	-48.0	-59.9	3.8	8.46e-01	0	42	0	0	66	15062
2026-01-27 13:22:10.53	195.99	2.08	-48.0	-59.9	3.8	8.45e-01	0	42	104	0	66	15069
2026-01-27 13:22:11.54	196.04	2.14	-48.0	-59.9	3.8	8.47e-01	0	42	104	0	66	15079
2026-01-27 13:22:12.55	196.10	2.20	-48.0	-59.8	3.8	8.46e-01	0	42	104	0	66	15045
2026-01-27 13:22:13.56	196.15	2.26	-48.0	-59.9	3.8	8.46e-01	0	42	104	0	66	15068
2026-01-27 13:22:14.56	196.21	2.32	-48.0	-59.8	3.8	8.46e-01	0	42	104	0	66	15037
2026-01-27 13:22:15.57	196.26	2.38	-48.0	-59.8	3.8	8.46e-01	0	42	104	0	66	15037
2026-01-27 13:22:16.58	196.32	2.44	-48.0	-59.9	3.8	8.47e-01	0	42	104	0	66	15057
2026-01-27 13:22:17.59	196.37	2.50	-48.0	-59.8	3.8	8.47e-01	0	42	104	0	66	15046
2026-01-27 13:22:18.59	196.43	2.56	-48.0	-59.9	3.8	8.47e-01	0	42	104	0	66	15077
2026-01-27 13:22:19.60	196.49	2.62	-48.0	-59.8	3.8	8.46e-01	0	42	104	0	66	15050
2026-01-27 13:22:20.61	196.54	2.68	-48.0	-59.9	3.8	8.46e-01	0	42	104	0	66	15063
2026-01-27 13:22:21.61	196.60	2.74	-48.0	-59.9	3.8	8.46e-01	0	42	104	0	66	15094
2026-01-27 13:22:22.62	196.66	2.80	-48.0	-59.8	3.8	8.46e-01	0	42	104	0	66	15011
2026-01-27 13:22:23.63	196.71	2.86	-48.0	-59.9	3.8	8.45e-01	0	42	104	0	66	15072
2026-01-27 13:22:24.63	196.77	2.92	-48.0	-59.9	3.8	8.46e-01	0	42	104	0	66	15071
2026-01-27 13:22:25.63	196.83	2.99	-48.0	-59.9	3.8	8.45e-01	0	42	104	0	66	15060
2026-01-27 13:22:26.64	196.89	3.05	-48.0	-59.9	3.8	8.47e-01	0	42	104	0	66	15072
2026-01-27 13:22:27.65	196.94	3.11	-48.0	-59.9	3.8	8.45e-01	0	42	104	0	66	15090
2026-01-27 13:22:28.65	197.00	3.17	-48.0	-59.8	3.8	8.46e-01	0	42	104	0	66	15037
2026-01-27 13:22:29.66	197.06	3.23	-48.0	-59.9	3.8	8.46e-01	0	42	104	0	66	15104
2026-01-27 13:22:30.66	197.12	3.29	-48.0	-59.9	3.8	8.45e-01	0	42	104	0	66	15066
2026-01-27 13:22:31.67	197.18	3.36	-48.0	-59.8	3.8	8.46e-01	0	42	104	0	66	15018
2026-01-27 13:22:32.68	197.24	3.42	-48.0	-59.8	3.8	8.47e-01	0	42	104	0	66	15039
2026-01-27 13:22:33.68	197.30	3.48	-48.0	-59.9	3.8	8.46e-01	0	42	104	0	66	15106
2026-01-27 13:22:34.69	197.36	3.54	-48.0	-59.8	3.8	8.46e-01	0	42	104	0	66	15032
2026-01-27 13:22:35.70	197.42	3.60	-48.0	-59.9	3.8	8.46e-01	0	42	104	0	66	15062
2026-01-27 13:22:36.71	197.48	3.67	-48.0	-59.8	3.8	8.47e-01	0	42	104	0	66	15032
2026-01-27 13:22:37.72	197.54	3.73	-48.0	-59.8	3.8	8.45e-01	0	42	104	0	66	15049
2026-01-27 13:22:38.73	197.60	3.79	-48.0	-59.9	3.8	8.47e-01	0	42	104	0	66	15070
2026-01-27 13:22:39.73	197.66	3.86	-48.0	-59.9	3.8	8.45e-01	0	42	104	0	66	15056
2026-01-27 13:22:40.74	197.72	3.92	-48.0	-59.8	3.8	8.46e-01	0	42	104	0	66	15014
2026-01-27 13:22:41.75	197.78	3.98	-48.0	-59.9	3.8	8.47e-01	0	42	104	0	66	15057
2026-01-27 13:22:42.76	197.84	4.05	-48.0	-59.8	3.8	8.46e-01	0	42	104	0	66	15022
2026-01-27 13:22:43.77	197.91	4.11	-48.0	-59.8	3.8	8.46e-01	0	42	104	0	66	15013
2026-01-27 13:22:44.77	197.97	4.17	-48.0	-59.8	3.8	8.46e-01	0	42	104	0	66	15015
2026-01-27 13:22:45.78	198.03	4.24	-48.0	-59.8	3.8	8.47e-01	0	42	104	0	66	15025
2026-01-27 13:22:46.79	198.09	4.30	-48.0	-59.9	3.8	8.47e-01	0	42	104	0	66	15085
2026-01-27 13:22:47.80	198.16	4.36	-48.0	-59.8	3.8	8.46e-01	0	42	104	0	66	15036
2026-01-27 13:22:48.80	198.22	4.43	-48.0	-59.9	3.8	8.46e-01	0	43	104	0	66	15077
2026-01-27 13:22:49.81	198.28	4.49	-48.0	-59.8	3.8	8.46e-01	0	42	104	0	66	15028
2026-01-27 13:22:50.81	198.34	4.56	-48.0	-59.8	3.8	8.46e-01	0	42	104	0	66	15051
2026-01-27 13:22:51.82	198.41	4.62	-48.0	-59.8	3.8	8.45e-01	0	43	104	0	66	15038
2026-01-27 13:22:52.83	198.47	4.69	-48.0	-59.8	3.8	8.46e-01	0	43	104	0	66	15051
2026-01-27 13:22:53.84	198.54	4.75	-48.0	-59.9	3.8	8.46e-01	0	43	104	0	66	15073
2026-01-27 13:22:54.84	198.60	4.81	-48.0	-59.9	3.8	8.46e-01	0	43	104	0	66	15074
2026-01-27 13:22:55.85	198.67	4.88	-48.0	-59.8	3.8	8.46e-01	0	43	104	0	66	15016
2026-01-27 13:22:56.86	198.73	4.95	-48.0	-59.8	3.8	8.47e-01	0	43	104	0	66	15045
2026-01-27 13:22:57.87	198.80	5.01	-48.0	-59.9	3.8	8.45e-01	0	43	104	0	66	15080
2026-01-27 13:22:58.87	198.86	5.08	-48.0	-59.8	3.8	8.46e-01	0	42	104	0	66	15038
2026-01-27 13:22:59.88	198.93	5.14	-48.0	-59.9	3.8	8.46e-01	0	42	104	0	66	15084
2026-01-27 13:23:00.89	199.00	5.21	-48.0	-59.8	3.8	8.46e-01	0	43	104	0	66	15034
2026-01-27 13:23:01.90	199.06	5.27	-48.0	-59.8	3.8	8.47e-01	0	43	104	0	66	15040
2026-01-27 13:23:02.91	199.13	5.34	-48.0	-59.8	3.8	8.45e-01	0	43	104	0	66	15048
2026-01-27 13:23:03.92	199.20	5.41	-48.0	-59.9	3.8	8.46e-01	0	43	104	0	66	15053
2026-01-27 13:23:04.93	199.27	5.47	-48.0	-59.9	3.8	8.46e-01	0	43	104	0	66	15084
2026-01-27 13:23:05.93	199.33	5.54	-48.0	-59.8	3.8	8.47e-01	0	43	104	0	66	15022
2026-01-27 13:23:06.95	199.40	5.60	-48.0	-59.8	3.8	8.45e-01	0	43	104	0	66	15030
2026-01-27 13:23:07.96	199.47	5.67	-48.0	-59.9	3.8	8.46e-01	0	43	104	0	66	15055
2026-01-27 13:23:08.97	199.54	5.74	-48.0	-59.8	3.8	8.45e-01	0	42	104	0	66	15013
2026-01-27 13:23:09.97	199.61	5.80	-48.0	-59.8	3.8	8.47e-01	0	43	104	0	66	15029
2026-01-27 13:23:10.98	199.68	5.87	-48.0	-59.8	3.8	8.46e-01	0	43	104	0	66	15042
2026-01-27 13:23:11.99	199.75	5.94	-48.0	-59.9	3.8	8.46e-01	0	43	104	0	66	15057
2026-01-27 13:23:13.00	199.82	6.01	-48.0	-59.8	3.8	8.46e-01	0	43	104	0	66	15044
2026-01-27 13:23:14.01	199.89	6.07	-48.0	-59.8	3.8	8.47e-01	0	43	104	0	66	15024
2026-01-27 13:23:15.01	199.96	6.14	-48.0	-59.9	3.8	8.46e-01	0	43	104	0	66	15061
2026-01-27 13:23:16.01	200.03	6.21	-48.0	-59.8	3.8	8.46e-01	0	43	104	0	66	15016
2026-01-27 13:23:17.02	200.10	6.28	-48.0	-59.8	3.8	8.45e-01	0	43	104	0	66	15035
2026-01-27 13:23:18.03	200.17	6.34	-48.0	-59.8	3.8	8.46e-01	0	43	104	0	66	14971
2026-01-27 13:23:19.04	200.24	6.41	-48.0	-59.9	3.8	8.46e-01	0	43	104	0	66	15061
2026-01-27 13:23:20.05	200.31	6.48	-48.0	-59.9	3.8	8.46e-01	0	43	104	0	66	15062
2026-01-27 13:23:21.05	200.39	6.55	-48.0	-59.8	3.8	8.45e-01	0	43	104	0	66	15041
2026-01-27 13:23:22.06	200.46	6.62	-48.0	-59.8	3.8	8.46e-01	0	43	104	0	66	15025
2026-01-27 13:23:23.07	200.53	6.69	-48.0	-59.8	3.8	8.47e-01	0	43	104	0	66	15039
2026-01-27 13:23:24.08	200.61	6.76	-48.0	-59.8	3.8	8.47e-01	0	43	104	0	66	15011
2026-01-27 13:23:25.09	200.68	6.82	-48.0	-59.9	3.8	8.45e-01	0	43	104	0	66	15088
2026-01-27 13:23:26.09	200.75	6.89	-48.0	-59.9	3.8	8.46e-01	0	43	104	0	66	15059
2026-01-27 13:23:27.10	200.83	6.96	-48.0	-59.8	3.8	8.46e-01	0	43	104	0	66	14977
2026-01-27 13:23:28.11	200.90	7.03	-48.0	-59.9	3.8	8.45e-01	0	43	104	0	66	15094
2026-01-27 13:23:29.12	200.98	7.10	-48.0	-59.9	3.8	8.46e-01	0	43	104	0	66	15078
2026-01-27 13:23:30.12	201.05	7.17	-48.0	-59.8	3.8	8.46e-01	0	43	104	0	66	15030
2026-01-27 13:23:31.13	201.13	7.24	-48.0	-59.8	3.8	8.47e-01	0	43	104	0	66	15023
2026-01-27 13:23:32.14	201.21	7.31	-48.0	-59.8	3.8	8.45e-01	0	43	104	0	66	15037
2026-01-27 13:23:33.14	201.28	7.38	-48.0	-59.8	3.8	8.47e-01	0	43	104	0	66	15021
2026-01-27 13:23:34.15	201.36	7.45	-48.0	-59.8	3.8	8.46e-01	0	43	104	0	66	15024
2026-01-27 13:23:35.16	201.44	7.52	-48.0	-59.8	3.8	8.47e-01	0	43	104	0	66	15023
2026-01-27 13:23:36.16	201.51	7.59	-48.0	-59.8	3.8	8.47e-01	0	43	104	0	66	15033
2026-01-27 13:23:37.17	201.59	7.66	-48.0	-59.8	3.8	8.46e-01	0	43	104	0	66	15022
2026-01-27 13:23:38.17	201.67	7.73	-48.0	-59.8	3.8	8.46e-01	0	43	104	0	66	15015
2026-01-27 13:23:39.18	201.75	7.81	-48.0	-59.9	3.8	8.47e-01	0	43	104	0	66	15057
2026-01-27 13:23:40.19	201.83	7.88	-48.0	-59.8	3.8	8.47e-01	0	43	104	0	66	15032
2026-01-27 13:23:41.19	201.90	7.95	-48.0	-59.8	3.8	8.46e-01	0	43	104	0	66	15031
2026-01-27 13:23:42.20	201.98	8.02	-48.0	-59.8	3.8	8.45e-01	0	43	104	0	66	15021
2026-01-27 13:23:43.21	202.06	8.09	-48.0	-59.9	3.8	8.46e-01	0	43	104	0	66	15055
2026-01-27 13:23:44.22	202.15	8.16	-48.0	-59.8	3.8	8.47e-01	0	43	104	0	66	15030
2026-01-27 13:23:45.22	202.23	8.24	-48.0	-59.8	3.8	8.46e-01	0	43	104	0	66	15038
2026-01-27 13:23:46.23	202.31	8.31	-48.0	-59.9	3.8	8.45e-01	0	43	104	0	66	15068
2026-01-27 13:23:47.24	202.39	8.38	-48.0	-59.9	3.8	8.45e-01	0	43	104	0	66	15054
2026-01-27 13:23:48.25	202.47	8.45	-48.0	-59.9	3.8	8.46e-01	0	43	104	0	66	15057
2026-01-27 13:23:49.24	202.55	8.52	-48.0	-59.8	3.8	8.46e-01	0	43	104	0	66	15023
2026-01-27 13:23:50.25	202.63	8.60	-48.0	-59.8	3.8	8.45e-01	0	43	104	0	66	15035
2026-01-27 13:23:51.26	202.72	8.67	-48.0	-59.9	3.8	8.46e-01	0	43	104	0	66	15070
2026-01-27 13:23:52.27	202.80	8.74	-48.0	-59.8	3.8	8.47e-01	0	43	104	0	66	15049
2026-01-27 13:23:53.27	202.88	8.82	-48.0	-59.9	3.8	8.46e-01	0	43	104	0	66	15077
2026-01-27 13:23:54.28	202.97	8.89	-48.0	-59.8	3.8	8.46e-01	0	43	104	0	66	15032
2026-01-27 13:23:55.29	203.05	8.96	-48.0	-59.8	3.8	8.45e-01	0	43	104	0	66	15030
2026-01-27 13:23:56.30	203.14	9.04	-48.0	-59.8	3.8	8.47e-01	0	43	104	0	66	15010
2026-01-27 13:23:57.30	203.22	9.11	-48.0	-59.9	3.8	8.46e-01	0	43	104	0	66	15074
2026-01-27 13:23:58.31	203.31	9.19	-48.0	-59.8	3.8	8.46e-01	0	43	104	0	66	15041
2026-01-27 13:23:59.32	203.40	9.26	-48.0	-59.8	3.8	8.46e-01	0	43	104	0	66	15042
2026-01-27 13:24:00.33	203.48	9.34	-48.0	-59.8	3.8	8.45e-01	0	43	104	0	66	15048
2026-01-27 13:24:01.33	203.57	9.41	-48.0	-59.8	3.8	8.45e-01	0	43	104	0	66	15014
2026-01-27 13:24:02.34	203.66	9.48	-48.0	-59.9	3.8	8.45e-01	0	43	104	0	66	15092
2026-01-27 13:24:03.35	203.75	9.56	-48.0	-59.8	3.8	8.46e-01	0	43	104	0	66	15031
2026-01-27 13:24:04.36	203.84	9.64	-48.0	-59.8	3.8	8.46e-01	0	43	104	0	66	15044
2026-01-27 13:24:05.36	203.92	9.71	-48.0	-59.8	3.8	8.45e-01	0	43	104	0	66	15017
2026-01-27 13:24:06.37	204.01	9.79	-48.0	-59.9	3.8	8.45e-01	0	43	104	0	66	15066
2026-01-27 13:24:07.38	204.10	9.86	-48.0	-59.8	3.8	8.46e-01	0	43	104	0	66	15032
2026-01-27 13:24:08.39	204.19	9.94	-48.0	-59.8	3.8	8.46e-01	0	43	104	0	66	15049
2026-01-27 13:24:09.40	204.28	10.01	-48.0	-59.8	3.8	8.46e-01	0	43	104	0	66	15011
2026-01-27 13:24:10.40	204.38	10.09	-48.0	-59.9	3.8	8.46e-01	0	43	104	0	66	15065
2026-01-27 13:24:11.41	204.47	10.17	-48.0	-59.8	3.8	8.45e-01	0	43	104	0	66	15027
2026-01-27 13:24:12.42	204.56	10.24	-48.0	-59.8	3.8	8.47e-01	0	43	104	0	66	15041
2026-01-27 13:24:13.43	204.65	10.32	-48.0	-59.8	3.8	8.46e-01	0	43	104	0	66	15028
2026-01-27 13:24:14.44	204.75	10.40	-48.0	-59.8	3.8	8.47e-01	0	43	104	0	66	15045
2026-01-27 13:24:15.45	204.84	10.47	-48.0	-59.8	3.8	8.46e-01	0	43	104	0	66	15037
2026-01-27 13:24:16.46	204.93	10.55	-48.0	-59.8	3.8	8.45e-01	0	43	104	0	66	15033
2026-01-27 13:24:17.47	205.03	10.63	-48.0	-59.8	3.8	8.46e-01	0	43	104	0	66	15046
2026-01-27 13:24:18.48	205.12	10.71	-48.0	-59.9	3.8	8.45e-01	0	43	104	0	66	15052
2026-01-27 13:24:19.49	205.22	10.79	-48.0	-59.8	3.8	8.46e-01	0	43	104	0	66	15006
2026-01-27 13:24:20.49	205.31	10.86	-48.0	-59.8	3.8	8.46e-01	0	43	104	0	66	15016
2026-01-27 13:24:21.50	205.41	10.94	-48.0	-59.9	3.8	8.47e-01	0	43	104	0	66	15071
2026-01-27 13:24:22.51	205.51	11.02	-48.0	-59.8	3.8	8.46e-01	0	43	104	0	66	15014
2026-01-27 13:24:23.51	205.60	11.10	-48.0	-59.9	3.8	8.47e-01	0	43	104	0	66	15060
2026-01-27 13:24:24.52	205.70	11.18	-48.0	-59.9	3.8	8.46e-01	0	43	104	0	66	15065
2026-01-27 13:24:25.52	205.80	11.26	-48.0	-59.9	3.8	8.47e-01	0	43	104	0	66	15089
2026-01-27 13:24:26.53	205.90	11.33	-48.0	-59.8	3.8	8.47e-01	0	43	104	0	66	15009
2026-01-27 13:24:27.53	206.00	11.41	-48.0	-59.8	3.8	8.45e-01	0	43	104	0	66	15050
2026-01-27 13:24:28.54	206.10	11.49	-48.0	-59.8	3.8	8.46e-01	0	43	104	0	66	15008
2026-01-27 13:24:29.55	206.20	11.57	-48.0	-59.8	3.8	8.46e-01	0	43	104	0	66	15029
2026-01-27 13:24:30.55	206.30	11.65	-48.0	-59.9	3.8	8.47e-01	0	43	104	0	66	15063
2026-01-27 13:24:31.56	206.40	11.73	-48.0	-59.8	3.8	8.46e-01	0	43	104	0	66	15049
2026-01-27 13:24:32.57	206.50	11.81	-48.0	-59.8	3.8	8.47e-01	0	43	104	0	66	15027
2026-01-27 13:24:33.58	206.61	11.89	-48.0	-59.8	3.8	8.47e-01	0	43	104	0	66	15048
2026-01-27 13:24:34.58	206.71	11.97	-48.0	-59.8	3.8	8.46e-01	0	43	104	0	66	15035
2026-01-27 13:24:35.59	206.81	12.05	-48.0	-59.9	3.8	8.46e-01	0	43	104	0	66	15069
2026-01-27 13:24:36.60	206.92	12.14	-48.0	-59.9	3.8	8.48e-01	0	43	104	0	66	15059
2026-01-27 13:24:37.61	207.02	12.22	-48.0	-59.8	3.8	8.46e-01	0	43	104	0	66	15026
2026-01-27 13:24:38.61	207.13	12.30	-48.0	-59.8	3.8	8.46e-01	0	43	104	0	66	15017
2026-01-27 13:24:39.62	207.23	12.38	-48.0	-59.9	3.8	8.45e-01	0	43	104	0	66	15059
2026-01-27 13:24:40.63	207.34	12.46	-48.0	-59.8	3.8	8.47e-01	0	43	104	0	66	15047
2026-01-27 13:24:41.63	207.44	12.54	-48.0	-59.9	3.8	8.46e-01	0	43	104	0	66	15062
2026-01-27 13:24:42.64	207.55	12.62	-48.0	-59.9	3.8	8.46e-01	0	43	104	0	66	15065
2026-01-27 13:24:43.65	207.66	12.71	-48.0	-59.8	3.8	8.47e-01	0	43	104	0	66	15012
2026-01-27 13:24:44.66	207.77	12.79	-48.0	-59.9	3.8	8.46e-01	0	43	104	0	66	15057
2026-01-27 13:24:45.67	207.88	12.87	-48.0	-59.8	3.8	8.46e-01	0	43	104	0	66	15026
2026-01-27 13:24:46.67	207.99	12.95	-48.0	-59.8	3.8	8.46e-01	0	43	104	0	66	15040
2026-01-27 13:24:47.68	208.10	13.04	-48.0	-59.8	3.8	8.46e-01	0	43	104	0	66	15025
2026-01-27 13:24:48.69	208.21	13.12	-48.0	-59.8	3.8	8.47e-01	0	43	104	0	66	15045
2026-01-27 13:24:49.69	208.32	13.20	-48.0	-59.8	3.8	8.47e-01	0	43	104	0	66	15043
2026-01-27 13:24:50.69	208.43	13.29	-48.0	-59.8	3.8	8.45e-01	0	43	104	0	66	15029
2026-01-27 13:24:51.70	208.54	13.37	-48.0	-59.8	3.8	8.46e-01	0	43	104	0	66	15042
2026-01-27 13:24:52.71	208.66	13.45	-48.0	-59.8	3.8	8.46e-01	0	43	104	0	66	15037
2026-01-27 13:24:53.72	208.77	13.54	-48.0	-59.8	3.8	8.46e-01	0	43	104	0	66	15024
2026-01-27 13:24:54.73	208.89	13.62	-48.0	-59.8	3.8	8.46e-01	0	43	104	0	66	15022
2026-01-27 13:24:55.73	209.00	13.71	-48.0	-59.8	3.8	8.46e-01	0	43	104	0	66	15007
2026-01-27 13:24:56.74	209.12	13.79	-48.0	-59.9	3.8	8.47e-01	0	43	104	0	66	15082
2026-01-27 13:24:57.75	209.24	13.88	-48.0	-59.8	3.8	8.46e-01	0	43	104	0	66	15051
2026-01-27 13:24:58.76	209.35	13.96	-48.0	-59.8	3.8	8.46e-01	0	43	104	0	66	15048
2026-01-27 13:24:59.76	209.47	14.05	-48.0	-59.8	3.8	8.46e-01	0	43	104	0	66	15037
2026-01-27 13:25:00.77	209.59	14.13	-48.0	-59.9	3.8	8.46e-01	0	43	104	0	66	15067
2026-01-27 13:25:01.78	209.71	14.22	-48.0	-59.9	3.8	8.46e-01	0	43	104	0	66	15063
2026-01-27 13:25:02.79	209.83	14.30	-48.0	-59.9	3.8	8.46e-01	0	43	104	0	66	15082
2026-01-27 13:25:03.80	209.95	14.39	-48.0	-59.8	3.8	8.45e-01	0	43	104	0	66	15032
2026-01-27 13:25:04.81	210.07	14.48	-48.0	-59.8	3.8	8.45e-01	0	43	104	0	66	15050
2026-01-27 13:25:05.82	210.19	14.56	-48.0	-59.9	3.8	8.46e-01	0	43	104	0	66	15069
2026-01-27 13:25:06.82	210.31	14.65	-48.0	-59.8	3.8	8.47e-01	0	43	104	0	66	14997
2026-01-27 13:25:07.82	210.44	14.74	-48.0	-59.8	3.8	8.46e-01	0	43	104	0	66	15044
2026-01-27 13:25:08.83	210.56	14.82	-48.0	-59.9	3.8	8.47e-01	0	43	104	0	66	15084
2026-01-27 13:25:09.84	210.69	14.91	-48.0	-59.8	3.8	8.46e-01	0	43	104	0	66	15044
2026-01-27 13:25:10.85	210.81	15.00	-48.0	-59.9	3.8	8.46e-01	0	43	104	0	66	15056
2026-01-27 13:25:11.85	210.94	15.09	-48.0	-59.8	3.8	8.45e-01	0	43	104	0	66	15003
2026-01-27 13:25:12.86	211.06	15.17	-48.0	-59.8	3.8	8.47e-01	0	43	104	0	66	15045
2026-01-27 13:25:13.87	211.19	15.26	-48.0	-59.8	3.8	8.46e-01	0	43	104	0	66	15027
2026-01-27 13:25:14.88	211.32	15.35	-48.0	-59.9	3.8	8.47e-01	0	43	104	0	66	15076
2026-01-27 13:25:15.88	211.45	15.44	-48.0	-59.9	3.8	8.46e-01	0	43	104	0	66	15083
2026-01-27 13:25:16.89	211.58	15.53	-48.0	-59.8	3.8	8.46e-01	0	43	104	0	66	15044
2026-01-27 13:25:17.90	211.71	15.62	-48.0	-59.9	3.8	8.45e-01	0	43	104	0	66	15112
2026-01-27 13:25:18.91	211.84	15.70	-48.0	-59.9	3.8	8.47e-01	0	43	104	0	66	15057
2026-01-27 13:25:19.92	211.97	15.79	-48.0	-59.9	3.8	8.46e-01	0	43	104	0	66	15092
2026-01-27 13:25:20.93	212.11	15.88	-48.0	-59.9	3.8	8.46e-01	0	43	104	0	66	15086
2026-01-27 13:25:21.94	212.24	15.97	-48.0	-59.8	3.8	8.47e-01	0	43	104	0	66	15024
2026-01-27 13:25:22.94	212.37	16.06	-48.0	-59.9	3.8	8.45e-01	0	43	104	0	66	15090
2026-01-27 13:25:23.95	212.51	16.15	-48.0	-59.9	3.8	8.47e-01	0	43	104	0	66	15089
2026-01-27 13:25:24.96	212.65	16.24	-48.0	-59.9	3.8	8.46e-01	0	43	104	0	66	15097
2026-01-27 13:25:25.97	212.78	16.33	-48.0	-59.8	3.8	8.47e-01	0	43	104	0	66	15039
2026-01-27 13:25:26.97	212.92	16.42	-48.0	-59.9	3.8	8.46e-01	0	43	104	0	66	15058
2026-01-27 13:25:27.98	213.06	16.51	-48.0	-59.9	3.8	8.45e-01	0	43	104	0	66	15065
2026-01-27 13:25:28.99	213.20	16.60	-48.0	-59.9	3.8	8.46e-01	0	43	104	0	66	15084
2026-01-27 13:25:29.99	213.34	16.69	-48.0	-59.9	3.8	8.46e-01	0	43	104	0	66	15067
2026-01-27 13:25:31.00	213.48	16.78	-48.0	-59.9	3.8	8.47e-01	0	43	104	0	66	15110
2026-01-27 13:25:32.01	213.62	16.88	-48.0	-59.9	3.8	8.47e-01	0	43	104	0	66	15062
2026-01-27 13:25:33.02	213.76	16.97	-48.0	-59.9	3.8	8.46e-01	0	43	104	0	66	15077
2026-01-27 13:25:34.03	213.90	17.06	-48.0	-59.9	3.8	8.46e-01	0	43	104	0	66	15054
2026-01-27 13:25:35.04	214.05	17.15	-48.0	-59.8	3.8	8.47e-01	0	43	104	0	66	15043
2026-01-27 13:25:36.05	214.19	17.24	-48.0	-59.8	3.8	8.46e-01	0	43	104	0	66	15050
2026-01-27 13:25:37.06	214.34	17.34	-48.0	-59.8	3.8	8.45e-01	0	43	104	0	66	15020
2026-01-27 13:25:38.07	214.49	17.43	-48.0	-59.8	3.8	8.47e-01	0	43	104	0	66	15045
2026-01-27 13:25:39.07	214.63	17.52	-48.0	-59.9	3.8	8.46e-01	0	43	104	0	66	15085
2026-01-27 13:25:40.07	214.78	17.61	-48.0	-59.9	3.8	8.46e-01	0	43	104	0	66	15067
2026-01-27 13:25:41.08	214.93	17.71	-48.0	-59.8	3.8	8.45e-01	0	43	104	0	66	15045
2026-01-27 13:25:42.09	215.08	17.80	-48.0	-59.9	3.8	8.46e-01	0	43	104	0	66	15070
2026-01-27 13:25:43.09	215.23	17.89	-48.0	-59.8	3.8	8.45e-01	0	43	104	0	66	15031
2026-01-27 13:25:44.10	215.38	17.98	-48.0	-59.9	3.8	8.46e-01	0	43	104	0	66	15076
2026-01-27 13:25:45.11	215.54	18.08	-48.0	-59.9	3.8	8.46e-01	0	43	104	0	66	15081
2026-01-27 13:25:46.12	215.69	18.17	-48.0	-59.8	3.8	8.46e-01	0	43	104	0	66	15000
2026-01-27 13:25:47.13	215.84	18.27	-48.0	-59.9	3.8	8.46e-01	0	43	104	0	66	15067
2026-01-27 13:25:48.13	216.00	18.36	-48.0	-59.9	3.8	8.47e-01	0	43	104	0	66	15078
2026-01-27 13:25:49.14	216.16	18.45	-48.0	-59.8	3.8	8.47e-01	0	43	104	0	66	15028
2026-01-27 13:25:50.15	216.31	18.55	-48.0	-59.9	3.8	8.46e-01	0	43	104	0	66	15086
2026-01-27 13:25:51.15	216.47	18.64	-48.0	-59.8	3.8	8.47e-01	0	43	104	0	66	15045
2026-01-27 13:25:52.16	216.63	18.74	-48.0	-59.8	3.8	8.45e-01	0	43	104	0	66	15048
2026-01-27 13:25:53.17	216.79	18.83	-48.0	-59.9	3.8	8.46e-01	0	43	104	0	66	15062
2026-01-27 13:25:54.17	216.95	18.93	-48.0	-59.8	3.8	8.47e-01	0	43	104	0	66	15043
2026-01-27 13:25:55.18	217.11	19.02	-48.0	-59.8	3.8	8.46e-01	0	43	104	0	66	15036
2026-01-27 13:25:56.19	217.28	19.12	-48.0	-59.8	3.8	8.45e-01	0	43	104	0	66	15027
2026-01-27 13:25:57.20	217.44	19.21	-48.0	-59.9	3.8	8.46e-01	0	43	104	0	66	15063
2026-01-27 13:25:58.21	217.61	19.31	-48.0	-59.9	3.8	8.47e-01	0	43	104	0	66	15075
2026-01-27 13:25:59.21	217.77	19.40	-48.0	-59.9	3.8	8.47e-01	0	43	104	0	66	15070
2026-01-27 13:26:00.22	217.94	19.50	-48.0	-59.9	3.8	8.46e-01	0	43	104	0	66	15052
2026-01-27 13:26:01.22	218.11	19.59	-48.0	-59.8	3.8	8.46e-01	0	43	104	0	66	15024
2026-01-27 13:26:02.23	218.28	19.69	-48.0	-59.9	3.8	8.46e-01	0	43	104	0	66	15065
2026-01-27 13:26:03.24	218.45	19.79	-48.0	-59.9	3.8	8.45e-01	0	43	104	0	66	15061
2026-01-27 13:26:04.25	218.62	19.88	-48.0	-59.8	3.8	8.46e-01	0	43	104	0	66	15043
2026-01-27 13:26:05.25	218.79	19.98	-48.0	-59.8	3.8	8.45e-01	0	43	104	0	66	15022
2026-01-27 13:26:06.27	218.97	20.08	-48.0	-59.8	3.8	8.47e-01	0	43	104	0	66	15043
2026-01-27 13:26:07.28	219.14	20.17	-48.0	-59.9	3.8	8.46e-01	0	43	104	0	66	15072
2026-01-27 13:26:08.29	219.32	20.27	-48.0	-59.9	3.8	8.45e-01	0	43	104	0	66	15059
2026-01-27 13:26:09.29	219.49	20.37	-48.0	-59.9	3.8	8.46e-01	0	43	104	0	66	15084
2026-01-27 13:26:10.30	219.67	20.46	-48.0	-59.9	3.8	8.46e-01	0	43	104	0	66	15073
2026-01-27 13:26:11.31	219.85	20.56	-48.0	-59.9	3.8	8.46e-01	0	43	104	0	66	15072
2026-01-27 13:26:12.31	220.03	20.66	-48.0	-59.9	3.8	8.46e-01	0	43	104	0	66	15082
2026-01-27 13:26:13.33	220.21	20.75	-48.0	-59.9	3.8	8.47e-01	0	43	104	0	66	15070
2026-01-27 13:26:14.34	220.39	20.85	-48.0	-59.8	3.8	8.46e-01	0	43	104	0	66	15030
2026-01-27 13:26:15.34	220.58	20.95	-48.0	-59.9	3.8	8.46e-01	0	43	104	0	66	15055
2026-01-27 13:26:16.35	220.76	21.05	-48.0	-59.8	3.8	8.46e-01	0	43	104	0	66	15051
2026-01-27 13:26:17.36	220.95	21.14	-48.0	-59.8	3.8	8.46e-01	0	43	104	0	66	15034
2026-01-27 13:26:18.37	221.13	21.24	-48.0	-59.9	3.8	8.46e-01	0	43	104	0	66	15063
2026-01-27 13:26:19.37	221.32	21.34	-48.0	-59.9	3.8	8.46e-01	0	43	104	0	66	15104
2026-01-27 13:26:20.38	221.51	21.44	-48.0	-59.8	3.8	8.46e-01	0	43	104	0	66	15034
2026-01-27 13:26:21.39	221.70	21.54	-48.0	-59.8	3.8	8.45e-01	0	43	104	0	66	15035
2026-01-27 13:26:22.40	221.89	21.63	-48.0	-59.8	3.8	8.46e-01	0	43	104	0	66	15019
2026-01-27 13:26:23.41	222.09	21.73	-48.0	-59.9	3.8	8.45e-01	0	43	104	0	66	15100
2026-01-27 13:26:24.41	222.28	21.83	-48.0	-59.9	3.8	8.47e-01	0	43	104	0	66	15074
2026-01-27 13:26:25.43	222.47	21.93	-48.0	-59.8	3.8	8.47e-01	0	43	104	0	66	15041
2026-01-27 13:26:26.43	222.67	22.03	-48.0	-59.8	3.8	8.46e-01	0	43	104	0	66	15029
2026-01-27 13:26:27.44	222.87	22.12	-48.0	-59.9	3.8	8.46e-01	0	43	104	0	66	15061
2026-01-27 13:26:28.45	223.07	22.22	-48.0	-59.8	3.8	8.46e-01	0	43	104	0	66	15025
2026-01-27 13:26:29.46	223.27	22.32	-48.0	-59.9	3.8	8.46e-01	0	43	104	0	66	15074
2026-01-27 13:26:30.47	223.47	22.42	-48.0	-59.9	3.8	8.45e-01	0	43	104	0	66	15072
2026-01-27 13:26:31.48	223.67	22.52	-48.0	-59.9	3.8	8.45e-01	0	43	104	0	66	15082
2026-01-27 13:26:32.49	223.87	22.62	-48.0	-59.8	3.8	8.46e-01	0	43	104	0	66	15033
2026-01-27 13:26:33.49	224.08	22.71	-48.0	-59.9	3.8	8.46e-01	0	43	104	0	66	15058
2026-01-27 13:26:34.50	224.28	22.81	-48.0	-59.9	3.8	8.46e-01	0	43	104	0	66	15060
2026-01-27 13:26:35.51	224.49	22.91	-48.0	-59.9	3.8	8.45e-01	0	43	104	0	66	15092
2026-01-27 13:26:36.52	224.70	23.01	-48.0	-59.9	3.8	8.45e-01	0	43	104	0	66	15093
2026-01-27 13:26:37.53	224.91	23.11	-48.0	-59.8	3.8	8.47e-01	0	43	104	0	66	15032
2026-01-27 13:26:38.53	225.12	23.21	-48.0	-59.8	3.8	8.46e-01	0	43	104	0	66	15029
2026-01-27 13:26:39.54	225.33	23.30	-48.0	-59.9	3.8	8.46e-01	0	43	104	0	66	15071
2026-01-27 13:26:40.55	225.55	23.40	-48.0	-59.8	3.8	8.46e-01	0	43	104	0	66	14998
2026-01-27 13:26:41.56	225.76	23.50	-48.0	-59.9	3.8	8.47e-01	0	43	104	0	66	15071
2026-01-27 13:26:42.57	225.98	23.60	-48.0	-59.9	3.8	8.46e-01	0	43	104	0	66	15100
2026-01-27 13:26:43.57	226.20	23.70	-48.0	-59.8	3.8	8.46e-01	0	43	104	0	66	15037
2026-01-27 13:26:44.58	226.42	23.80	-48.0	-59.9	3.8	8.47e-01	0	43	104	0	66	15072
2026-01-27 13:26:45.59	226.64	23.89	-48.0	-59.9	3.8	8.46e-01	0	43	104	0	66	15083
2026-01-27 13:26:46.59	226.86	23.99	-48.0	-59.8	3.8	8.46e-01	0	43	104	0	66	15045
2026-01-27 13:26:47.61	227.08	24.09	-48.0	-59.9	3.8	8.45e-01	0	43	104	0	66	15061
2026-01-27 13:26:48.61	227.31	24.19	-48.0	-59.9	3.8	8.47e-01	0	43	104	0	66	15079
2026-01-27 13:26:49.62	227.53	24.28	-48.0	-59.9	3.8	8.47e-01	0	43	104	0	66	15075
2026-01-27 13:26:50.63	227.76	24.38	-48.0	-59.8	3.8	8.48e-01	0	43	104	0	66	15048
2026-01-27 13:26:51.64	227.99	24.48	-48.0	-59.9	3.8	8.47e-01	0	43	104	0	66	15060
2026-01-27 13:26:52.65	228.22	24.58	-48.0	-59.9	3.8	8.46e-01	0	43	104	0	66	15057
2026-01-27 13:26:53.65	228.45	24.67	-48.0	-59.9	3.8	8.46e-01	0	43	104	0	66	15086
2026-01-27 13:26:54.66	228.68	24.77	-48.0	-59.9	3.8	8.46e-01	0	43	104	0	66	15079
2026-01-27 13:26:55.67	228.92	24.87	-48.0	-59.9	3.8	8.46e-01	0	43	104	0	66	15074
2026-01-27 13:26:56.68	229.15	24.97	-48.0	-59.9	3.8	8.45e-01	0	43	104	0	66	15056
2026-01-27 13:26:57.69	229.39	25.06	-48.0	-59.8	3.8	8.47e-01	0	43	104	0	66	15027
2026-01-27 13:26:58.70	229.63	25.16	-48.0	-59.8	3.8	8.46e-01	0	43	104	0	66	15041
2026-01-27 13:26:59.71	229.87	25.26	-48.0	-59.9	3.8	8.46e-01	0	43	104	0	66	15055
2026-01-27 13:27:00.72	230.11	25.35	-48.0	-59.9	3.8	8.46e-01	0	43	104	0	66	15080
2026-01-27 13:27:01.72	230.35	25.45	-48.0	-59.9	3.8	8.45e-01	0	43	104	0	66	15074
2026-01-27 13:27:02.73	230.60	25.54	-48.0	-59.9	3.8	8.48e-01	0	43	104	0	66	15081
2026-01-27 13:27:03.74	230.84	25.64	-48.0	-59.9	3.8	8.46e-01	0	43	104	0	66	15076
2026-01-27 13:27:04.75	231.09	25.74	-48.0	-59.9	3.8	8.46e-01	0	43	104	0	66	15055
2026-01-27 13:27:05.76	231.34	25.83	-48.0	-59.9	3.8	8.46e-01	0	43	104	0	66	15079
2026-01-27 13:27:06.77	231.59	25.93	-48.0	-59.9	3.8	8.47e-01	0	43	104	0	66	15068
2026-01-27 13:27:07.78	231.84	26.02	-48.0	-59.9	3.8	8.45e-01	0	43	104	0	66	15104
2026-01-27 13:27:08.78	232.09	26.12	-48.0	-59.8	3.8	8.47e-01	0	43	104	0	66	15038
2026-01-27 13:27:09.79	232.35	26.21	-48.0	-59.9	3.8	8.45e-01	0	43	104	0	66	15095
2026-01-27 13:27:10.80	232.60	26.30	-48.0	-59.9	3.8	8.46e-01	0	43	104	0	66	15075
2026-01-27 13:27:11.81	232.86	26.40	-48.0	-59.9	3.8	8.46e-01	0	43	104	0	66	15056
2026-01-27 13:27:12.81	233.12	26.49	-48.0	-59.8	3.8	8.45e-01	0	43	104	0	66	15048
2026-01-27 13:27:13.82	233.38	26.59	-48.0	-59.8	3.8	8.47e-01	0	43	104	0	66	15038
2026-01-27 13:27:14.83	233.64	26.68	-48.0	-59.8	3.8	8.46e-01	0	43	104	0	66	15016
2026-01-27 13:27:15.84	233.91	26.77	-48.0	-59.8	3.8	8.46e-01	0	43	104	0	66	15044
2026-01-27 13:27:16.84	234.17	26.86	-48.0	-59.9	3.8	8.46e-01	0	43	104	0	66	15085
2026-01-27 13:27:17.85	234.44	26.95	-48.0	-59.8	3.8	8.46e-01	0	43	104	0	66	15033
2026-01-27 13:27:18.86	234.70	27.05	-48.0	-59.9	3.8	8.46e-01	0	43	104	0	66	15063
2026-01-27 13:27:19.86	234.97	27.14	-48.0	-59.9	3.8	8.47e-01	0	43	104	0	66	15065
2026-01-27 13:27:20.87	235.24	27.23	-48.0	-59.9	3.8	8.47e-01	0	43	104	0	66	15082
2026-01-27 13:27:21.88	235.52	27.32	-48.0	-59.9	3.8	8.45e-01	0	43	104	0	66	15069
2026-01-27 13:27:22.89	235.79	27.41	-48.0	-59.8	3.8	8.46e-01	0	43	104	0	66	15049
2026-01-27 13:27:23.89	236.06	27.50	-48.0	-59.9	3.8	8.46e-01	0	43	104	0	66	15074
2026-01-27 13:27:24.90	236.34	27.59	-48.0	-59.9	3.8	8.46e-01	0	43	104	0	66	15076
2026-01-27 13:27:25.91	236.62	27.68	-48.0	-59.9	3.8	8.45e-01	0	43	104	0	66	15080
2026-01-27 13:27:26.92	236.90	27.77	-48.0	-59.9	3.8	8.46e-01	0	43	104	0	66	15058
2026-01-27 13:27:27.93	237.18	27.85	-48.0	-59.9	3.8	8.46e-01	0	43	104	0	66	15092
2026-01-27 13:27:28.93	237.46	27.94	-48.0	-59.9	3.8	8.46e-01	0	43	104	0	66	15054
2026-01-27 13:27:29.94	237.75	28.03	-48.0	-59.8	3.8	8.46e-01	0	43	104	0	66	15007
2026-01-27 13:27:30.95	238.03	28.12	-48.0	-59.9	3.8	8.46e-01	0	43	104	0	66	15052
2026-01-27 13:27:31.96	238.32	28.20	-48.0	-59.9	3.8	8.47e-01	0	43	104	0	66	15069
2026-01-27 13:27:32.97	238.61	28.29	-48.0	-59.9	3.8	8.46e-01	0	43	104	0	66	15053
2026-01-27 13:27:33.98	238.90	28.37	-48.0	-59.8	3.8	8.46e-01	0	43	104	0	66	15034
2026-01-27 13:27:34.99	239.20	28.46	-48.0	-59.9	3.8	8.46e-01	0	43	104	0	66	15074
2026-01-27 13:27:35.99	239.49	28.54	-48.0	-59.9	3.8	8.47e-01	0	43	104	0	66	15090
2026-01-27 13:27:37.00	239.78	28.62	-48.0	-59.9	3.8	8.46e-01	0	43	104	0	66	15115
2026-01-27 13:27:38.01	240.08	28.71	-48.0	-59.9	3.8	8.46e-01	0	43	104	0	66	15062
2026-01-27 13:27:39.01	240.38	28.79	-48.0	-59.9	3.8	8.45e-01	0	43	104	0	66	15066
2026-01-27 13:27:40.02	240.68	28.87	-48.0	-59.8	3.8	8.46e-01	0	43	104	0	66	15039
2026-01-27 13:27:41.03	240.98	28.95	-48.0	-59.9	3.8	8.45e-01	0	43	104	0	66	15084
2026-01-27 13:27:42.03	241.28	29.03	-48.0	-59.9	3.8	8.46e-01	0	43	104	0	66	15092
2026-01-27 13:27:43.04	241.58	29.11	-48.0	-59.9	3.8	8.46e-01	0	43	104	0	66	15084
2026-01-27 13:27:44.05	241.89	29.19	-48.0	-59.9	3.8	8.46e-01	0	43	104	0	66	15083
2026-01-27 13:27:45.06	242.20	29.27	-48.0	-59.8	3.8	8.46e-01	0	43	104	0	66	15047
2026-01-27 13:27:46.06	242.50	29.35	-48.0	-59.9	3.8	8.46e-01	0	43	104	0	66	15073
2026-01-27 13:27:47.06	242.81	29.43	-48.0	-59.9	3.8	8.46e-01	0	43	104	0	66	15072
2026-01-27 13:27:48.07	243.12	29.50	-48.0	-59.9	3.8	8.45e-01	0	43	104	0	66	15080
2026-01-27 13:27:49.08	243.43	29.58	-48.0	-59.9	3.8	8.47e-01	0	43	104	0	66	15061
2026-01-27 13:27:50.08	243.75	29.65	-48.0	-59.9	3.8	8.45e-01	0	43	104	0	66	15072
2026-01-27 13:27:51.08	244.06	29.73	-48.0	-59.8	3.8	8.46e-01	0	43	104	0	66	15050
2026-01-27 13:27:52.09	244.38	29.80	-48.0	-59.9	3.8	8.46e-01	0	43	104	0	66	15075
2026-01-27 13:27:53.10	244.70	29.87	-48.0	-59.9	3.8	8.45e-01	0	43	104	0	66	15094
2026-01-27 13:27:54.11	245.02	29.95	-48.0	-59.9	3.8	8.47e-01	0	43	104	0	66	15074
2026-01-27 13:27:55.12	245.34	30.02	-48.0	-59.9	3.8	8.45e-01	0	43	104	0	66	15074
2026-01-27 13:27:56.13	245.66	30.09	-48.0	-59.8	3.8	8.47e-01	0	43	104	0	66	15050
2026-01-27 13:27:57.14	245.99	30.16	-48.0	-59.9	3.8	8.47e-01	0	43	104	0	66	15067
2026-01-27 13:27:58.15	246.31	30.23	-48.0	-59.8	3.8	8.46e-01	0	43	104	0	66	15045
2026-01-27 13:27:59.15	246.64	30.30	-48.0	-59.8	3.8	8.46e-01	0	43	104	0	66	15045
2026-01-27 13:28:00.16	246.97	30.36	-48.0	-59.8	3.8	8.47e-01	0	43	104	0	66	15051
2026-01-27 13:28:01.17	247.30	30.43	-48.0	-59.8	3.8	8.47e-01	0	43	104	0	66	15030
2026-01-27 13:28:02.18	247.63	30.50	-48.0	-59.9	3.8	8.45e-01	0	43	104	0	66	15104
2026-01-27 13:28:03.19	247.96	30.56	-48.0	-59.8	3.8	8.47e-01	0	43	104	0	66	15014
2026-01-27 13:28:04.20	248.29	30.63	-48.0	-59.8	3.8	8.47e-01	0	43	104	0	66	15017
2026-01-27 13:28:05.20	248.63	30.69	-48.0	-59.8	3.8	8.47e-01	0	43	104	0	66	15031
2026-01-27 13:28:06.21	248.96	30.75	-48.0	-59.8	3.8	8.45e-01	0	43	104	0	66	15034
2026-01-27 13:28:07.22	249.30	30.81	-48.0	-59.9	3.8	8.46e-01	0	43	104	0	66	15053
2026-01-27 13:28:08.23	249.64	30.87	-48.0	-59.8	3.8	8.46e-01	0	43	104	0	66	15032
2026-01-27 13:28:09.24	249.98	30.93	-48.0	-59.9	3.8	8.47e-01	0	43	104	0	66	15056
2026-01-27 13:28:10.25	250.32	30.99	-48.0	-59.9	3.8	8.47e-01	0	43	104	0	66	15074
2026-01-27 13:28:11.25	250.66	31.05	-48.0	-59.9	3.8	8.46e-01	0	43	104	0	66	15081
2026-01-27 13:28:12.26	251.01	31.10	-48.0	-59.8	3.8	8.46e-01	0	43	104	0	66	15038
2026-01-27 13:28:13.27	251.35	31.16	-48.0	-59.9	3.8	8.46e-01	0	43	104	0	66	15060
2026-01-27 13:28:14.28	251.70	31.21	-48.0	-59.9	3.8	8.45e-01	0	43	104	0	66	15086
2026-01-27 13:28:15.29	252.04	31.27	-48.0	-59.9	3.8	8.46e-01	0	43	104	0	66	15093
2026-01-27 13:28:16.29	252.39	31.32	-48.0	-59.9	3.8	8.46e-01	0	43	104	0	66	15053
2026-01-27 13:28:17.30	252.74	31.37	-48.0	-59.8	3.8	8.46e-01	0	43	104	0	66	15048
2026-01-27 13:28:18.31	253.09	31.42	-48.0	-59.8	3.8	8.46e-01	0	43	104	0	66	15026
2026-01-27 13:28:19.32	253.44	31.47	-48.0	-59.8	3.8	8.46e-01	0	43	104	0	66	15031
2026-01-27 13:28:20.33	253.79	31.52	-48.0	-59.9	3.8	8.47e-01	0	43	104	0	66	15117
2026-01-27 13:28:21.33	254.14	31.56	-48.0	-59.8	3.8	8.46e-01	0	43	104	0	66	15037
2026-01-27 13:28:22.34	254.50	31.61	-48.0	-59.9	3.8	8.45e-01	0	43	104	0	66	15098
2026-01-27 13:28:23.35	254.85	31.65	-48.0	-59.9	3.8	8.46e-01	0	43	104	0	66	15074
2026-01-27 13:28:24.36	255.21	31.70	-48.0	-59.9	3.8	8.47e-01	0	43	104	0	66	15078
2026-01-27 13:28:25.36	255.56	31.74	-48.0	-59.8	3.8	8.46e-01	0	43	104	0	66	15040
2026-01-27 13:28:26.37	255.92	31.78	-48.0	-59.8	3.8	8.45e-01	0	43	104	0	66	15041
2026-01-27 13:28:27.38	256.28	31.82	-48.0	-59.9	3.8	8.46e-01	0	43	104	0	66	15084
2026-01-27 13:28:28.38	256.64	31.86	-48.0	-59.8	3.8	8.46e-01	0	43	104	0	66	15038
2026-01-27 13:28:29.39	257.00	31.90	-48.0	-59.9	3.8	8.46e-01	0	43	104	0	66	15088
2026-01-27 13:28:30.40	257.36	31.93	-48.0	-59.9	3.8	8.47e-01	0	43	104	0	66	15077
2026-01-27 13:28:31.41	257.72	31.97	-48.0	-59.8	3.8	8.46e-01	0	43	104	0	66	15036
2026-01-27 13:28:32.42	258.09	32.00	-48.0	-59.8	3.8	8.45e-01	0	43	104	0	66	15001
2026-01-27 13:28:33.42	258.45	32.04	-48.0	-59.8	3.8	8.45e-01	0	43	104	0	66	15032
2026-01-27 13:28:34.43	258.81	32.07	-48.0	-59.8	3.8	8.46e-01	0	43	104	0	66	15020
2026-01-27 13:28:35.44	259.18	32.10	-48.0	-59.9	3.8	8.45e-01	0	43	104	0	66	15070
2026-01-27 13:28:36.44	259.54	32.13	-48.0	-59.9	3.8	8.47e-01	0	43	104	0	66	15085
2026-01-27 13:28:37.45	259.91	32.15	-48.0	-59.9	3.8	8.47e-01	0	43	104	0	66	15075
2026-01-27 13:28:38.46	260.28	32.18	-48.0	-59.8	3.8	8.47e-01	0	43	104	0	66	15045
2026-01-27 13:28:39.47	260.64	32.21	-48.0	-59.8	3.8	8.47e-01	0	43	104	0	66	15051
2026-01-27 13:28:40.48	261.01	32.23	-48.0	-59.9	3.8	8.46e-01	0	43	104	0	66	15110
2026-01-27 13:28:41.49	261.38	32.25	-48.0	-59.9	3.8	8.45e-01	0	43	104	0	66	15082
2026-01-27 13:28:42.50	261.75	32.28	-48.0	-59.8	3.8	8.46e-01	0	43	104	0	66	15009
2026-01-27 13:28:43.51	262.12	32.30	-48.0	-59.9	3.8	8.44e-01	0	43	104	0	66	15062
2026-01-27 13:28:44.51	262.49	32.32	-48.0	-59.8	3.8	8.46e-01	0	43	104	0	66	15041
2026-01-27 13:28:45.52	262.86	32.33	-48.0	-59.8	3.8	8.45e-01	0	43	104	0	66	15027
2026-01-27 13:28:46.53	263.23	32.35	-48.0	-59.8	3.8	8.46e-01	0	43	104	0	66	15040
2026-01-27 13:28:47.54	263.60	32.37	-48.0	-59.8	3.8	8.46e-01	0	43	104	0	66	15019
2026-01-27 13:28:48.54	263.97	32.38	-48.0	-59.8	3.8	8.46e-01	0	43	104	0	66	15017
2026-01-27 13:28:49.55	264.34	32.39	-48.0	-59.9	3.8	8.46e-01	0	43	104	0	66	15090
2026-01-27 13:28:50.55	264.71	32.40	-48.0	-59.8	3.8	8.46e-01	0	43	104	0	66	15049
2026-01-27 13:28:51.56	265.08	32.41	-48.0	-59.9	3.8	8.46e-01	0	43	104	0	66	15074
2026-01-27 13:28:52.57	265.45	32.42	-48.0	-59.9	3.8	8.47e-01	0	43	104	0	66	15083
2026-01-27 13:28:53.58	265.83	32.43	-48.0	-59.8	3.8	8.47e-01	0	43	104	0	66	15042
2026-01-27 13:28:54.59	266.20	32.44	-48.0	-59.9	3.8	8.47e-01	0	43	104	0	66	15071
2026-01-27 13:28:55.59	266.57	32.44	-48.0	-59.9	3.8	8.46e-01	0	43	104	0	66	15071
2026-01-27 13:28:56.60	266.94	32.44	-48.0	-59.9	3.8	8.46e-01	0	43	104	0	66	15086
2026-01-27 13:28:57.61	267.32	32.45	-48.0	-59.9	3.8	8.46e-01	0	43	104	0	66	15078
2026-01-27 13:28:58.61	267.69	32.45	-48.0	-59.9	3.8	8.46e-01	0	43	104	0	66	15055
2026-01-27 13:28:59.62	268.06	32.45	-48.0	-59.9	3.8	8.46e-01	0	43	104	0	66	15076
2026-01-27 13:29:00.63	268.43	32.44	-48.0	-59.8	3.8	8.46e-01	0	43	104	0	66	15040
2026-01-27 13:29:01.64	268.81	32.44	-48.0	-59.9	3.8	8.45e-01	0	43	104	0	66	15101
2026-01-27 13:29:02.64	269.18	32.44	-48.0	-59.9	3.8	8.45e-01	0	43	104	0	66	15066
2026-01-27 13:29:03.65	269.55	32.43	-48.0	-59.8	3.8	8.46e-01	0	43	104	0	66	15045
2026-01-27 13:29:04.66	269.92	32.42	-48.0	-59.9	3.8	8.47e-01	0	43	104	0	66	15097
2026-01-27 13:29:05.67	270.30	32.42	-48.0	-59.8	3.8	8.46e-01	0	43	104	0	66	15029
2026-01-27 13:29:06.67	270.66	32.41	-48.0	-59.9	3.8	8.46e-01	0	43	104	0	66	15064
2026-01-27 13:29:07.68	271.04	32.40	-48.0	-59.8	3.8	8.46e-01	0	43	104	0	66	15039
2026-01-27 13:29:08.69	271.41	32.38	-48.0	-59.9	3.8	8.46e-01	0	43	104	0	66	15099
2026-01-27 13:29:09.70	271.78	32.37	-48.0	-59.8	3.8	8.46e-01	0	43	104	0	66	15039
2026-01-27 13:29:10.71	272.15	32.36	-48.0	-59.9	3.8	8.46e-01	0	43	104	0	66	15068
2026-01-27 13:29:11.71	272.52	32.34	-48.0	-59.8	3.8	8.47e-01	0	43	104	0	66	15050
2026-01-27 13:29:12.71	272.89	32.32	-48.0	-59.8	3.8	8.46e-01	0	43	104	0	66	15021
2026-01-27 13:29:13.72	273.26	32.30	-48.0	-59.9	3.8	8.46e-01	0	43	104	0	66	15091
2026-01-27 13:29:14.73	273.63	32.28	-48.0	-59.8	3.8	8.47e-01	0	43	104	0	66	15051
2026-01-27 13:29:15.73	273.99	32.26	-48.0	-59.8	3.8	8.46e-01	0	43	104	0	66	15025
2026-01-27 13:29:16.73	274.36	32.24	-48.0	-59.9	3.8	8.46e-01	0	43	104	0	66	15056
2026-01-27 13:29:17.74	274.73	32.22	-48.0	-59.8	3.8	8.45e-01	0	43	104	0	66	15032
2026-01-27 13:29:18.75	275.09	32.19	-48.0	-59.9	3.8	8.47e-01	0	43	104	0	66	15071
2026-01-27 13:29:19.76	275.46	32.16	-48.0	-59.9	3.8	8.47e-01	0	43	104	0	66	15072
2026-01-27 13:29:20.77	275.83	32.14	-48.0	-59.9	3.8	8.47e-01	0	43	104	0	66	15065
2026-01-27 13:29:21.77	276.19	32.11	-48.0	-59.9	3.8	8.46e-01	0	43	104	0	66	15070
2026-01-27 13:29:22.77	276.55	32.08	-48.0	-59.9	3.8	8.46e-01	0	43	104	0	66	15069
2026-01-27 13:29:23.79	276.92	32.05	-48.0	-59.8	3.8	8.45e-01	0	43	104	0	66	15007
2026-01-27 13:29:24.79	277.28	32.02	-48.0	-59.8	3.8	8.46e-01	0	43	104	0	66	15043
2026-01-27 13:29:25.80	277.64	31.98	-48.0	-59.9	3.8	8.46e-01	0	43	104	0	66	15061
2026-01-27 13:29:26.81	278.01	31.95	-48.0	-59.8	3.8	8.46e-01	0	43	104	0	66	15037
2026-01-27 13:29:27.82	278.37	31.91	-48.0	-59.8	3.8	8.46e-01	0	43	104	0	66	15046
2026-01-27 13:29:28.83	278.73	31.87	-48.0	-59.9	3.8	8.46e-01	0	43	104	0	66	15079
2026-01-27 13:29:29.84	279.09	31.83	-48.0	-59.9	3.8	8.46e-01	0	43	104	0	66	15065
2026-01-27 13:29:30.84	279.45	31.80	-48.0	-59.8	3.8	8.46e-01	0	43	104	0	66	15047
2026-01-27 13:29:31.85	279.80	31.75	-48.0	-59.9	3.8	8.46e-01	0	43	104	0	66	15066
2026-01-27 13:29:32.85	280.16	31.71	-48.0	-59.8	3.8	8.46e-01	0	43	104	0	66	15018
2026-01-27 13:29:33.86	280.51	31.67	-48.0	-59.9	3.8	8.47e-01	0	43	104	0	66	15077
2026-01-27 13:29:34.87	280.87	31.63	-48.0	-59.8	3.8	8.47e-01	0	43	104	0	66	15028
2026-01-27 13:29:35.88	281.22	31.58	-48.0	-59.9	3.8	8.46e-01	0	43	104	0	66	15077
2026-01-27 13:29:36.89	281.58	31.53	-48.0	-59.8	3.8	8.46e-01	0	43	104	0	66	15000
2026-01-27 13:29:37.90	281.93	31.49	-48.0	-59.9	3.8	8.46e-01	0	43	104	0	66	15074
2026-01-27 13:29:38.91	282.28	31.44	-48.0	-59.8	3.8	8.46e-01	0	43	104	0	66	15049
2026-01-27 13:29:39.91	282.63	31.39	-48.0	-59.9	3.8	8.46e-01	0	43	104	0	66	15070
2026-01-27 13:29:40.92	282.98	31.34	-48.0	-59.9	3.8	8.45e-01	0	43	104	0	66	15081
2026-01-27 13:29:41.93	283.33	31.29	-48.0	-59.8	3.8	8.46e-01	0	43	104	0	66	15047
2026-01-27 13:29:42.94	283.67	31.23	-48.0	-59.8	3.8	8.46e-01	0	43	104	0	66	15034
2026-01-27 13:29:43.94	284.02	31.18	-48.0	-59.8	3.8	8.47e-01	0	43	104	0	66	15048
2026-01-27 13:29:44.95	284.36	31.13	-48.0	-59.8	3.8	8.47e-01	0	44	104	0	66	15029
2026-01-27 13:29:45.96	284.70	31.07	-48.0	-59.8	3.8	8.46e-01	0	43	104	0	66	15016
2026-01-27 13:29:46.96	285.04	31.01	-48.0	-59.9	3.8	8.46e-01	0	43	104	0	66	15058
2026-01-27 13:29:47.97	285.39	30.96	-48.0	-59.9	3.8	8.46e-01	0	43	104	0	66	15090
2026-01-27 13:29:48.97	285.72	30.90	-48.0	-59.8	3.8	8.46e-01	0	43	104	0	66	15047
2026-01-27 13:29:49.98	286.06	30.84	-48.0	-59.8	3.8	8.46e-01	0	43	104	0	66	15048
2026-01-27 13:29:50.99	286.40	30.78	-48.0	-59.9	3.8	8.46e-01	0	43	104	0	66	15079
2026-01-27 13:29:52.00	286.74	30.72	-48.0	-59.8	3.8	8.46e-01	0	43	104	0	66	15049
2026-01-27 13:29:53.01	287.07	30.65	-48.0	-59.9	3.8	8.48e-01	0	43	104	0	66	15110
2026-01-27 13:29:54.02	287.40	30.59	-48.0	-59.9	3.8	8.45e-01	0	43	104	0	66	15066
2026-01-27 13:29:55.02	287.73	30.53	-48.0	-59.9	3.8	8.47e-01	0	43	104	0	66	15054
2026-01-27 13:29:56.02	288.06	30.46	-48.0	-59.9	3.8	8.45e-01	0	43	104	0	66	15055
2026-01-27 13:29:57.02	288.39	30.40	-48.0	-59.9	3.8	8.46e-01	0	43	104	0	66	15094
2026-01-27 13:29:58.03	288.72	30.33	-48.0	-59.8	3.8	8.47e-01	0	43	104	0	66	15051
2026-01-27 13:29:59.04	289.04	30.26	-48.0	-59.9	3.8	8.45e-01	0	43	104	0	66	15080
2026-01-27 13:30:00.04	289.37	30.19	-48.0	-59.8	3.8	8.46e-01	0	43	104	0	66	15043
2026-01-27 13:30:01.05	289.69	30.12	-48.0	-59.9	3.8	8.46e-01	0	43	104	0	66	15072
2026-01-27 13:30:02.05	290.01	30.05	-48.0	-59.8	3.8	8.48e-01	0	43	104	0	66	15048
2026-01-27 13:30:03.06	290.33	29.98	-48.0	-59.8	3.8	8.48e-01	0	43	104	0	66	15016
2026-01-27 13:30:04.07	290.65	29.91	-48.0	-59.8	3.8	8.46e-01	0	43	104	0	66	15044
2026-01-27 13:30:05.08	290.97	29.84	-48.0	-59.8	3.8	8.47e-01	0	43	104	0	66	15028
2026-01-27 13:30:06.08	291.29	29.77	-48.0	-59.8	3.8	8.45e-01	0	43	104	0	66	15034
2026-01-27 13:30:07.09	291.60	29.69	-48.0	-59.9	3.8	8.46e-01	0	43	104	0	66	15088
2026-01-27 13:30:08.10	291.92	29.62	-48.0	-59.8	3.8	8.46e-01	0	43	104	0	66	15041
2026-01-27 13:30:09.11	292.23	29.54	-48.0	-59.9	3.8	8.46e-01	0	43	104	0	66	15054
2026-01-27 13:30:10.11	292.54	29.47	-48.0	-59.8	3.8	8.46e-01	0	43	104	0	66	15000
2026-01-27 13:30:11.12	292.85	29.39	-48.0	-59.9	3.8	8.47e-01	0	43	104	0	66	15061
2026-01-27 13:30:12.13	293.16	29.31	-48.0	-59.8	3.8	8.45e-01	0	43	104	0	66	15046
2026-01-27 13:30:13.14	293.47	29.23	-48.0	-59.8	3.8	8.47e-01	0	43	104	0	66	15024
2026-01-27 13:30:14.15	293.77	29.15	-48.0	-59.9	3.8	8.46e-01	0	43	104	0	66	15086
2026-01-27 13:30:15.15	294.07	29.07	-48.0	-59.8	3.8	8.47e-01	0	43	104	0	66	15045
2026-01-27 13:30:16.16	294.38	28.99	-48.0	-59.8	3.8	8.46e-01	0	43	104	0	66	15050
2026-01-27 13:30:17.17	294.68	28.91	-48.0	-59.9	3.8	8.46e-01	0	43	104	0	66	15079
2026-01-27 13:30:18.18	294.98	28.83	-48.0	-59.9	3.8	8.45e-01	0	43	104	0	66	15055
2026-01-27 13:30:19.19	295.28	28.75	-48.0	-59.8	3.8	8.46e-01	0	43	104	0	66	15040
2026-01-27 13:30:20.19	295.57	28.67	-48.0	-59.9	3.8	8.46e-01	0	43	104	0	66	15078
2026-01-27 13:30:21.20	295.87	28.59	-48.0	-59.8	3.8	8.46e-01	0	43	104	0	66	15026
2026-01-27 13:30:22.21	296.16	28.50	-48.0	-59.8	3.8	8.45e-01	0	43	104	0	66	15020
2026-01-27 13:30:23.22	296.45	28.42	-48.0	-59.8	3.8	8.45e-01	0	43	104	0	66	15023
2026-01-27 13:30:24.23	296.74	28.33	-48.0	-59.8	3.8	8.46e-01	0	43	104	0	66	15028
2026-01-27 13:30:25.23	297.03	28.25	-48.0	-59.8	3.8	8.46e-01	0	43	104	0	66	15025
2026-01-27 13:30:26.24	297.32	28.16	-48.0	-59.8	3.8	8.47e-01	0	43	104	0	66	15002
2026-01-27 13:30:27.25	297.60	28.08	-48.0	-59.8	3.8	8.46e-01	0	43	104	0	66	15044
2026-01-27 13:30:28.26	297.89	27.99	-48.0	-59.9	3.8	8.45e-01	0	43	104	0	66	15078
2026-01-27 13:30:29.26	298.17	27.90	-48.0	-59.9	3.8	8.46e-01	0	43	104	0	66	15052
2026-01-27 13:30:30.27	298.45	27.82	-48.0	-59.8	3.8	8.47e-01	0	43	104	0	66	15013
2026-01-27 13:30:31.28	298.73	27.73	-48.0	-59.8	3.8	8.47e-01	0	43	104	0	66	15047
2026-01-27 13:30:32.29	299.01	27.64	-48.0	-59.9	3.8	8.46e-01	0	43	104	0	66	15070
2026-01-27 13:30:33.30	299.29	27.55	-48.0	-59.8	3.8	8.46e-01	0	43	104	0	66	15035
2026-01-27 13:30:34.31	299.56	27.46	-48.0	-59.9	3.8	8.46e-01	0	43	104	0	66	15062
2026-01-27 13:30:35.32	299.84	27.37	-48.0	-59.8	3.8	8.46e-01	0	43	104	0	66	15050
2026-01-27 13:30:36.32	300.11	27.28	-48.0	-59.8	3.8	8.46e-01	0	43	104	0	66	15050
2026-01-27 13:30:37.33	300.38	27.19	-48.0	-59.8	3.8	8.47e-01	0	43	104	0	66	15037
2026-01-27 13:30:38.34	300.65	27.10	-48.0	-59.8	3.8	8.45e-01	0	43	104	0	66	15049
2026-01-27 13:30:39.35	300.92	27.01	-48.0	-59.8	3.8	8.46e-01	0	43	104	0	66	15048
2026-01-27 13:30:40.36	301.18	26.92	-48.0	-59.8	3.8	8.46e-01	0	43	104	0	66	15039
2026-01-27 13:30:41.36	301.45	26.83	-48.0	-59.8	3.8	8.45e-01	0	43	104	0	66	15025
2026-01-27 13:30:42.37	301.71	26.73	-48.0	-59.9	3.8	8.46e-01	0	43	104	0	66	15053
2026-01-27 13:30:43.38	301.97	26.64	-48.0	-59.8	3.8	8.47e-01	0	43	104	0	66	15046
2026-01-27 13:30:44.39	302.23	26.55	-48.0	-59.9	3.8	8.46e-01	0	43	104	0	66	15086
2026-01-27 13:30:45.39	302.49	26.46	-48.0	-59.8	3.8	8.46e-01	0	43	104	0	66	15045
2026-01-27 13:30:46.40	302.75	26.36	-48.0	-59.8	3.8	8.46e-01	0	43	104	0	66	15043
2026-01-27 13:30:47.41	303.01	26.27	-48.0	-59.9	3.8	8.47e-01	0	43	104	0	66	15068
2026-01-27 13:30:48.42	303.26	26.18	-48.0	-59.8	3.8	8.47e-01	0	43	104	0	66	15024
2026-01-27 13:30:49.43	303.51	26.08	-48.0	-59.9	3.8	8.47e-01	0	43	104	0	66	15090
2026-01-27 13:30:50.44	303.77	25.99	-48.0	-59.8	3.8	8.46e-01	0	43	104	0	66	15041
2026-01-27 13:30:51.45	304.02	25.89	-48.0	-59.8	3.8	8.46e-01	0	43	104	0	66	15047
2026-01-27 13:30:52.46	304.26	25.80	-48.0	-59.9	3.8	8.47e-01	0	43	104	0	66	15062
2026-01-27 13:30:53.47	304.51	25.70	-48.0	-59.9	3.8	8.46e-01	0	43	104	0	66	15053
2026-01-27 13:30:54.47	304.76	25.61	-48.0	-59.8	3.8	8.46e-01	0	43	104	0	66	15048
2026-01-27 13:30:55.48	305.00	25.51	-48.0	-59.8	3.8	8.45e-01	0	43	104	0	66	15033
2026-01-27 13:30:56.49	305.24	25.42	-48.0	-59.8	3.8	8.47e-01	0	43	104	0	66	15042
2026-01-27 13:30:57.50	305.48	25.32	-48.0	-59.9	3.8	8.46e-01	0	43	104	0	66	15057
2026-01-27 13:30:58.50	305.72	25.23	-48.0	-59.8	3.8	8.46e-01	0	43	104	0	66	15031
2026-01-27 13:30:59.50	305.96	25.13	-48.0	-59.8	3.8	8.47e-01	0	43	104	0	66	15019
2026-01-27 13:31:00.51	306.20	25.03	-48.0	-59.8	3.8	8.46e-01	0	43	104	0	66	15040
2026-01-27 13:31:01.51	306.43	24.94	-48.0	-59.9	3.8	8.46e-01	0	43	104	0	66	15081
2026-01-27 13:31:02.52	306.67	24.84	-48.0	-59.9	3.8	8.47e-01	0	43	104	0	66	15072
2026-01-27 13:31:03.52	306.90	24.75	-48.0	-59.9	3.8	8.46e-01	0	43	104	0	66	15055
2026-01-27 13:31:04.53	307.13	24.65	-48.0	-59.9	3.8	8.45e-01	0	43	104	0	66	15055
2026-01-27 13:31:05.54	307.36	24.55	-48.0	-59.8	3.8	8.47e-01	0	43	104	0	66	15051
2026-01-27 13:31:06.55	307.59	24.45	-48.0	-59.9	3.8	8.46e-01	0	43	104	0	66	15087
2026-01-27 13:31:07.56	307.81	24.36	-48.0	-59.9	3.8	8.48e-01	0	43	104	0	66	15065
2026-01-27 13:31:08.57	308.04	24.26	-48.0	-59.8	3.8	8.47e-01	0	43	104	0	66	15023
2026-01-27 13:31:09.58	308.27	24.16	-48.0	-59.9	3.8	8.47e-01	0	43	104	0	66	15072
2026-01-27 13:31:10.58	308.49	24.07	-48.0	-59.9	3.8	8.45e-01	0	43	104	0	66	15067
2026-01-27 13:31:11.59	308.71	23.97	-48.0	-59.9	3.8	8.45e-01	0	43	104	0	66	15073
2026-01-27 13:31:12.60	308.93	23.87	-48.0	-59.9	3.8	8.47e-01	0	43	104	0	66	15081
2026-01-27 13:31:13.61	309.15	23.77	-48.0	-59.9	3.8	8.46e-01	0	43	104	0	66	15053
2026-01-27 13:31:14.62	309.37	23.67	-48.0	-59.8	3.8	8.46e-01	0	43	104	0	66	15041
2026-01-27 13:31:15.62	309.58	23.58	-48.0	-59.9	3.8	8.47e-01	0	43	104	0	66	15070
2026-01-27 13:31:16.63	309.80	23.48	-48.0	-59.8	3.8	8.46e-01	0	43	104	0	66	15036
2026-01-27 13:31:17.64	310.01	23.38	-48.0	-59.8	3.8	8.45e-01	0	43	104	0	66	15051
2026-01-27 13:31:18.65	310.23	23.28	-48.0	-59.8	3.8	8.46e-01	0	43	104	0	66	15045
2026-01-27 13:31:19.65	310.44	23.19	-48.0	-59.9	3.8	8.47e-01	0	43	104	0	66	15055
2026-01-27 13:31:20.66	310.65	23.09	-48.0	-59.8	3.8	8.46e-01	0	43	104	0	66	15027
2026-01-27 13:31:21.67	310.85	22.99	-48.0	-59.8	3.8	8.46e-01	0	43	104	0	66	15015
2026-01-27 13:31:22.67	311.06	22.89	-48.0	-59.8	3.8	8.45e-01	0	43	104	0	66	15049
2026-01-27 13:31:23.68	311.27	22.80	-48.0	-59.8	3.8	8.45e-01	0	43	104	0	66	15003
2026-01-27 13:31:24.69	311.47	22.70	-48.0	-59.8	3.8	8.47e-01	0	43	104	0	66	15049
2026-01-27 13:31:25.70	311.68	22.60	-48.0	-59.8	3.8	8.47e-01	0	43	104	0	66	15029
2026-01-27 13:31:26.71	311.88	22.50	-48.0	-59.9	3.8	8.46e-01	0	43	104	0	66	15088
2026-01-27 13:31:27.70	312.08	22.41	-48.0	-59.8	3.8	8.46e-01	0	43	104	0	66	15020
2026-01-27 13:31:28.71	312.28	22.31	-48.0	-59.8	3.8	8.46e-01	0	43	104	0	66	15034
2026-01-27 13:31:29.71	312.47	22.21	-48.0	-59.9	3.8	8.44e-01	0	43	104	0	66	15068
2026-01-27 13:31:30.72	312.67	22.11	-48.0	-59.9	3.8	8.46e-01	0	43	104	0	66	15062
2026-01-27 13:31:31.73	312.87	22.02	-48.0	-59.9	3.8	8.46e-01	0	43	104	0	66	15082
2026-01-27 13:31:32.74	313.06	21.92	-48.0	-59.9	3.8	8.45e-01	0	43	104	0	66	15062
2026-01-27 13:31:33.75	313.26	21.82	-48.0	-59.8	3.8	8.47e-01	0	43	104	0	66	15016
2026-01-27 13:31:34.76	313.45	21.72	-48.0	-59.8	3.8	8.45e-01	0	43	104	0	66	15025
2026-01-27 13:31:35.76	313.64	21.63	-48.0	-59.8	3.8	8.46e-01	0	43	104	0	66	15010
2026-01-27 13:31:36.77	313.83	21.53	-48.0	-59.8	3.8	8.45e-01	0	43	104	0	66	15019
2026-01-27 13:31:37.77	314.02	21.43	-48.0	-59.8	3.8	8.46e-01	0	43	104	0	66	15051
2026-01-27 13:31:38.78	314.21	21.34	-48.0	-59.8	3.8	8.45e-01	0	43	104	0	66	15009
2026-01-27 13:31:39.79	314.40	21.24	-48.0	-59.8	3.8	8.46e-01	0	43	104	0	66	15027
2026-01-27 13:31:40.80	314.58	21.14	-48.0	-59.9	3.8	8.46e-01	0	43	104	0	66	15057
2026-01-27 13:31:41.80	314.76	21.04	-48.0	-59.9	3.8	8.48e-01	0	43	104	0	66	15054
2026-01-27 13:31:42.81	314.95	20.95	-48.0	-59.9	3.8	8.45e-01	0	43	104	0	66	15067
2026-01-27 13:31:43.82	315.13	20.85	-48.0	-59.8	3.8	8.47e-01	0	43	104	0	66	15031
2026-01-27 13:31:44.83	315.31	20.75	-48.0	-59.8	3.8	8.46e-01	0	43	104	0	66	15014
2026-01-27 13:31:45.83	315.49	20.66	-48.0	-59.8	3.8	8.47e-01	0	43	104	0	66	15023
2026-01-27 13:31:46.84	315.67	20.56	-48.0	-59.8	3.8	8.46e-01	0	43	104	0	66	15038
2026-01-27 13:31:47.85	315.85	20.46	-48.0	-59.8	3.8	8.47e-01	0	43	104	0	66	15012
2026-01-27 13:31:48.86	316.03	20.37	-48.0	-59.8	3.8	8.47e-01	0	43	104	0	66	15033
2026-01-27 13:31:49.87	316.20	20.27	-48.0	-59.9	3.8	8.47e-01	0	43	104	0	66	15084
2026-01-27 13:31:50.87	316.38	20.18	-48.0	-59.8	3.8	8.46e-01	0	43	104	0	66	15020
2026-01-27 13:31:51.88	316.55	20.08	-48.0	-59.8	3.8	8.47e-01	0	43	104	0	66	15026
2026-01-27 13:31:52.89	316.72	19.98	-48.0	-59.8	3.8	8.46e-01	0	43	104	0	66	15020
2026-01-27 13:31:53.90	316.90	19.89	-48.0	-59.8	3.8	8.45e-01	0	43	104	0	66	14991
2026-01-27 13:31:54.91	317.07	19.79	-48.0	-59.8	3.8	8.45e-01	0	43	104	0	66	15011
2026-01-27 13:31:55.92	317.24	19.70	-48.0	-59.8	3.8	8.46e-01	0	43	104	0	66	15000
2026-01-27 13:31:56.92	317.40	19.60	-48.0	-59.8	3.8	8.45e-01	0	43	104	0	66	15003
2026-01-27 13:31:57.93	317.57	19.51	-48.0	-59.8	3.8	8.46e-01	0	43	104	0	66	15048
2026-01-27 13:31:58.94	317.74	19.41	-48.0	-59.9	3.8	8.45e-01	0	43	104	0	66	15059
2026-01-27 13:31:59.95	317.90	19.32	-48.0	-59.9	3.8	8.46e-01	0	43	104	0	66	15055
2026-01-27 13:32:00.96	318.07	19.22	-48.0	-59.9	3.8	8.46e-01	0	43	104	0	66	15070
2026-01-27 13:32:01.97	318.23	19.13	-48.0	-59.8	3.8	8.46e-01	0	43	104	0	66	15051
2026-01-27 13:32:02.98	318.40	19.03	-48.0	-59.9	3.8	8.47e-01	0	43	104	0	66	15057
2026-01-27 13:32:03.99	318.56	18.94	-48.0	-59.9	3.8	8.45e-01	0	43	104	0	66	15077
2026-01-27 13:32:04.99	318.72	18.84	-48.0	-59.8	3.8	8.45e-01	0	43	104	0	66	15037
2026-01-27 13:32:05.99	318.87	18.75	-48.0	-59.8	3.8	8.46e-01	0	43	104	0	66	15033
2026-01-27 13:32:07.00	319.03	18.66	-48.0	-59.8	3.8	8.45e-01	0	43	104	0	66	15036
2026-01-27 13:32:08.01	319.19	18.56	-48.0	-59.8	3.8	8.45e-01	0	43	104	0	66	15002
2026-01-27 13:32:09.02	319.35	18.47	-48.0	-59.8	3.8	8.46e-01	0	43	104	0	66	15014
2026-01-27 13:32:10.03	319.51	18.37	-48.0	-59.8	3.8	8.46e-01	0	43	104	0	66	15036
2026-01-27 13:32:11.04	319.66	18.28	-48.0	-59.8	3.8	8.45e-01	0	43	104	0	66	15050
2026-01-27 13:32:12.04	319.81	18.19	-48.0	-59.8	3.8	8.45e-01	0	43	104	0	66	15023
2026-01-27 13:32:13.05	319.97	18.10	-48.0	-59.8	3.8	8.46e-01	0	43	104	0	66	15021
2026-01-27 13:32:14.06	320.12	18.00	-48.0	-59.8	3.8	8.47e-01	0	43	104	0	66	15038
2026-01-27 13:32:15.07	320.27	17.91	-48.0	-59.8	3.8	8.46e-01	0	43	104	0	66	15033
2026-01-27 13:32:16.07	320.42	17.82	-48.0	-59.9	3.8	8.45e-01	0	43	104	0	66	15053
2026-01-27 13:32:17.08	320.57	17.72	-48.0	-59.8	3.8	8.46e-01	0	43	104	0	66	15021
2026-01-27 13:32:18.09	320.72	17.63	-48.0	-59.8	3.8	8.46e-01	0	43	104	0	66	15034
2026-01-27 13:32:19.10	320.87	17.54	-48.0	-59.9	3.8	8.46e-01	0	43	104	0	66	15054
2026-01-27 13:32:20.10	321.01	17.45	-48.0	-59.8	3.8	8.46e-01	0	43	104	0	66	15049
2026-01-27 13:32:21.11	321.16	17.36	-48.0	-59.9	3.8	8.45e-01	0	43	104	0	66	15064
2026-01-27 13:32:22.12	321.30	17.27	-48.0	-59.8	3.8	8.47e-01	0	43	104	0	66	15051
2026-01-27 13:32:23.13	321.45	17.17	-48.0	-59.8	3.8	8.46e-01	0	43	104	0	66	15023
2026-01-27 13:32:24.14	321.59	17.08	-48.0	-59.9	3.8	8.46e-01	0	43	104	0	66	15090
2026-01-27 13:32:25.14	321.73	16.99	-48.0	-59.9	3.8	8.46e-01	0	43	104	0	66	15063
2026-01-27 13:32:26.15	321.88	16.90	-48.0	-59.8	3.8	8.46e-01	0	43	104	0	66	15026
2026-01-27 13:32:27.16	322.02	16.81	-48.0	-59.8	3.8	8.47e-01	0	43	104	0	66	15011
2026-01-27 13:32:28.16	322.16	16.72	-48.0	-59.8	3.8	8.46e-01	0	43	104	0	66	15014
2026-01-27 13:32:29.17	322.30	16.63	-48.0	-59.8	3.8	8.46e-01	0	43	104	0	66	15045
2026-01-27 13:32:30.18	322.44	16.54	-48.0	-59.9	3.8	8.46e-01	0	43	104	0	66	15065
2026-01-27 13:32:31.19	322.57	16.45	-48.0	-59.9	3.8	8.46e-01	0	43	104	0	66	15093
2026-01-27 13:32:32.19	322.71	16.36	-48.0	-59.9	3.8	8.46e-01	0	43	104	0	66	15100
2026-01-27 13:32:33.20	322.85	16.27	-48.0	-59.8	3.8	8.47e-01	0	43	104	0	66	15044
2026-01-27 13:32:34.21	322.98	16.18	-48.0	-59.8	3.8	8.46e-01	0	43	104	0	66	15028
2026-01-27 13:32:35.21	323.11	16.09	-48.0	-59.8	3.8	8.46e-01	0	43	104	0	66	15013
2026-01-27 13:32:36.22	323.25	16.00	-48.0	-59.8	3.8	8.46e-01	0	43	104	0	66	15044
2026-01-27 13:32:37.23	323.38	15.91	-48.0	-59.9	3.8	8.47e-01	0	43	104	0	66	15083
2026-01-27 13:32:38.24	323.52	15.83	-48.0	-59.9	3.8	8.47e-01	0	43	104	0	66	15063
2026-01-27 13:32:39.25	323.65	15.74	-48.0	-59.8	3.8	8.46e-01	0	43	104	0	66	15018
2026-01-27 13:32:40.26	323.78	15.65	-48.0	-59.8	3.8	8.46e-01	0	43	104	0	66	15001
2026-01-27 13:32:41.27	323.91	15.56	-48.0	-59.8	3.8	8.46e-01	0	43	104	0	66	14999
2026-01-27 13:32:42.27	324.04	15.47	-48.0	-59.8	3.8	8.48e-01	0	43	104	0	66	15033
2026-01-27 13:32:43.28	324.17	15.39	-48.0	-59.8	3.8	8.47e-01	0	43	104	0	66	15019
2026-01-27 13:32:44.29	324.29	15.30	-48.0	-59.8	3.8	8.46e-01	0	43	104	0	66	15035
2026-01-27 13:32:45.30	324.42	15.21	-48.0	-59.8	3.8	8.45e-01	0	43	104	0	66	15018
2026-01-27 13:32:46.31	324.55	15.12	-48.0	-59.8	3.8	8.45e-01	0	43	104	0	66	15026
2026-01-27 13:32:47.31	324.67	15.04	-48.0	-59.8	3.8	8.47e-01	0	43	104	0	66	14982
2026-01-27 13:32:48.32	324.80	14.95	-48.0	-59.8	3.8	8.46e-01	0	43	104	0	66	14986
2026-01-27 13:32:49.33	324.92	14.86	-48.0	-59.8	3.8	8.47e-01	0	43	104	0	66	14964
2026-01-27 13:32:50.33	325.05	14.78	-48.0	-59.8	3.8	8.46e-01	0	43	104	0	66	14984
2026-01-27 13:32:51.34	325.17	14.69	-48.0	-59.8	3.8	8.46e-01	0	43	104	0	66	15005
2026-01-27 13:32:52.35	325.29	14.60	-48.0	-59.8	3.8	8.47e-01	0	43	104	0	66	14987
2026-01-27 13:32:53.36	325.41	14.52	-48.0	-59.8	3.8	8.47e-01	0	43	104	0	66	14955
2026-01-27 13:32:54.36	325.53	14.43	-48.0	-59.8	3.8	8.46e-01	0	43	104	0	66	14956
2026-01-27 13:32:55.37	325.65	14.35	-48.0	-59.8	3.8	8.46e-01	0	43	104	0	66	14938
2026-01-27 13:32:56.38	325.77	14.26	-48.0	-59.7	3.8	8.48e-01	0	43	104	0	66	14871
2026-01-27 13:32:57.39	325.89	14.18	-48.0	-59.8	3.8	8.46e-01	0	43	104	0	66	14897
2026-01-27 13:32:58.39	326.01	14.09	-48.0	-59.8	3.8	8.47e-01	0	43	104	0	66	14905
2026-01-27 13:32:59.41	326.13	14.01	-48.0	-59.8	3.8	8.46e-01	0	43	104	0	66	14954
2026-01-27 13:33:00.41	326.25	13.92	-48.0	-59.8	3.8	8.46e-01	0	43	104	0	66	14932
2026-01-27 13:33:01.42	326.36	13.84	-48.0	-59.8	3.8	8.46e-01	0	43	104	0	66	15012
2026-01-27 13:33:02.43	326.48	13.75	-48.0	-59.8	3.8	8.45e-01	0	43	104	0	66	15031
2026-01-27 13:33:03.44	326.59	13.67	-48.0	-59.9	3.8	8.46e-01	0	43	104	0	66	15052
2026-01-27 13:33:04.44	326.71	13.59	-48.0	-59.8	3.8	8.46e-01	0	43	104	0	66	15013
2026-01-27 13:33:05.45	326.82	13.50	-48.0	-59.8	3.8	8.46e-01	0	43	104	0	66	15042
2026-01-27 13:33:06.46	326.94	13.42	-48.0	-59.8	3.8	8.46e-01	0	43	104	0	66	15010
2026-01-27 13:33:07.47	327.05	13.34	-48.0	-59.8	3.8	8.44e-01	0	43	104	0	66	15040
2026-01-27 13:33:08.48	327.16	13.25	-48.0	-59.8	3.8	8.47e-01	0	43	104	0	66	15001
2026-01-27 13:33:09.48	327.27	13.17	-48.0	-59.9	3.8	8.47e-01	0	43	104	0	66	15068
2026-01-27 13:33:10.49	327.38	13.09	-48.0	-59.9	3.8	8.46e-01	0	43	104	0	66	15055
2026-01-27 13:33:11.50	327.49	13.01	-48.0	-59.8	3.8	8.46e-01	0	43	104	0	66	15022
2026-01-27 13:33:12.50	327.60	12.92	-48.0	-59.8	3.8	8.47e-01	0	43	104	0	66	15043
2026-01-27 13:33:13.51	327.71	12.84	-48.0	-59.8	3.8	8.47e-01	0	43	104	0	66	15010
2026-01-27 13:33:14.52	327.82	12.76	-48.0	-59.8	3.8	8.47e-01	0	43	104	0	66	15013
2026-01-27 13:33:15.53	327.93	12.68	-48.0	-59.9	3.8	8.47e-01	0	43	104	0	66	15065
2026-01-27 13:33:16.53	328.03	12.60	-48.0	-59.8	3.8	8.45e-01	0	43	104	0	66	15035
2026-01-27 13:33:17.54	328.14	12.52	-48.0	-59.8	3.8	8.46e-01	0	43	104	0	66	15024
2026-01-27 13:33:18.55	328.25	12.43	-48.0	-59.9	3.8	8.45e-01	0	43	104	0	66	15059
2026-01-27 13:33:19.56	328.35	12.35	-48.0	-59.8	3.8	8.46e-01	0	43	104	0	66	15036
2026-01-27 13:33:20.56	328.46	12.27	-48.0	-59.9	3.8	8.45e-01	0	43	104	0	66	15071
2026-01-27 13:33:21.57	328.56	12.19	-48.0	-59.8	3.8	8.46e-01	0	43	104	0	66	15028
2026-01-27 13:33:22.58	328.67	12.11	-48.0	-59.8	3.8	8.46e-01	0	43	104	0	66	15049
2026-01-27 13:33:23.59	328.77	12.03	-48.0	-59.9	3.8	8.46e-01	0	43	104	0	66	15057
2026-01-27 13:33:24.60	328.87	11.95	-48.0	-59.8	3.8	8.46e-01	0	43	104	0	66	15013
2026-01-27 13:33:25.60	328.98	11.87	-48.0	-59.8	3.8	8.46e-01	0	43	104	0	66	15037
2026-01-27 13:33:26.61	329.08	11.79	-48.0	-59.8	3.8	8.47e-01	0	43	104	0	66	15036
2026-01-27 13:33:27.62	329.18	11.71	-48.0	-59.8	3.8	8.46e-01	0	43	104	0	66	15018
2026-01-27 13:33:28.63	329.28	11.63	-48.0	-59.8	3.8	8.47e-01	0	43	104	0	66	15011
2026-01-27 13:33:29.64	329.38	11.55	-48.0	-59.8	3.8	8.45e-01	0	43	104	0	66	14963
2026-01-27 13:33:30.65	329.48	11.47	-48.0	-59.8	3.8	8.46e-01	0	43	104	0	66	14971
2026-01-27 13:33:31.66	329.58	11.40	-48.0	-59.8	3.8	8.46e-01	0	43	104	0	66	14993
2026-01-27 13:33:32.66	329.68	11.32	-48.0	-59.8	3.8	8.45e-01	0	43	104	0	66	14933
2026-01-27 13:33:33.67	329.78	11.24	-48.0	-59.8	3.8	8.47e-01	0	43	104	0	66	14972
2026-01-27 13:33:34.68	329.88	11.16	-48.0	-59.8	3.8	8.46e-01	0	43	104	0	66	14943
2026-01-27 13:33:35.69	329.97	11.08	-48.0	-59.8	3.8	8.47e-01	0	43	104	0	66	14926
2026-01-27 13:33:36.69	330.07	11.00	-48.0	-59.8	3.8	8.46e-01	0	43	104	0	66	14986
2026-01-27 13:33:37.70	330.17	10.93	-48.0	-59.8	3.8	8.46e-01	0	43	104	0	66	14936
2026-01-27 13:33:38.71	330.26	10.85	-48.0	-59.8	3.8	8.46e-01	0	43	104	0	66	14938
2026-01-27 13:33:39.72	330.36	10.77	-48.0	-59.8	3.8	8.46e-01	0	43	104	0	66	14977
2026-01-27 13:33:40.72	330.45	10.70	-48.0	-59.8	3.8	8.45e-01	0	43	104	0	66	14983
2026-01-27 13:33:41.73	330.55	10.62	-48.0	-59.8	3.8	8.45e-01	0	43	104	0	66	14947
2026-01-27 13:33:42.74	330.64	10.54	-48.0	-59.8	3.8	8.47e-01	0	43	104	0	66	14988
2026-01-27 13:33:43.75	330.73	10.46	-48.0	-59.8	3.8	8.46e-01	0	43	104	0	66	14925
2026-01-27 13:33:44.75	330.83	10.39	-48.0	-59.8	3.8	8.46e-01	0	43	104	0	66	14897
2026-01-27 13:33:45.76	330.92	10.31	-48.0	-59.8	3.8	8.45e-01	0	43	104	0	66	14896
2026-01-27 13:33:46.77	331.01	10.24	-48.0	-59.8	3.8	8.46e-01	0	43	104	0	66	14908
2026-01-27 13:33:47.77	331.10	10.16	-48.0	-59.8	3.8	8.46e-01	0	43	104	0	66	14887
2026-01-27 13:33:48.78	331.19	10.08	-48.0	-59.8	3.8	8.46e-01	0	43	104	0	66	14919
2026-01-27 13:33:49.79	331.29	10.01	-48.0	-59.8	3.8	8.46e-01	0	43	104	0	66	14947
2026-01-27 13:33:50.80	331.38	9.93	-48.0	-59.8	3.8	8.45e-01	0	43	104	0	66	14962
2026-01-27 13:33:51.81	331.47	9.86	-48.0	-59.8	3.8	8.47e-01	0	43	104	0	66	14919
2026-01-27 13:33:52.82	331.56	9.78	-48.0	-59.8	3.8	8.46e-01	0	43	104	0	66	15029
2026-01-27 13:33:53.83	331.65	9.71	-48.0	-59.8	3.8	8.46e-01	0	43	104	0	66	15009
2026-01-27 13:33:54.84	331.73	9.63	-48.0	-59.8	3.8	8.46e-01	0	43	104	0	66	14998
2026-01-27 13:33:55.85	331.82	9.56	-48.0	-59.8	3.8	8.47e-01	0	43	104	0	66	15013
2026-01-27 13:33:56.85	331.91	9.48	-48.0	-59.8	3.8	8.47e-01	0	43	104	0	66	15032
2026-01-27 13:33:57.86	332.00	9.41	-48.0	-59.8	3.8	8.46e-01	0	43	104	0	66	15013
2026-01-27 13:33:58.87	332.08	9.34	-48.0	-59.8	3.8	8.46e-01	0	43	104	0	66	15011
2026-01-27 13:33:59.87	332.17	9.26	-48.0	-59.8	3.8	8.45e-01	0	43	104	0	66	15007
2026-01-27 13:34:00.88	332.26	9.19	-48.0	-59.8	3.8	8.45e-01	0	43	104	0	66	15025
2026-01-27 13:34:01.89	332.34	9.11	-48.0	-59.8	3.8	8.46e-01	0	43	104	0	66	15031
2026-01-27 13:34:02.90	332.43	9.04	-48.0	-59.8	3.8	8.46e-01	0	43	104	0	66	14995
2026-01-27 13:34:03.90	332.51	8.97	-48.0	-59.8	3.8	8.46e-01	0	43	104	0	66	15007
2026-01-27 13:34:04.91	332.60	8.90	-48.0	-59.8	3.8	8.47e-01	0	43	104	0	66	15045
2026-01-27 13:34:05.92	332.68	8.82	-48.0	-59.8	3.8	8.45e-01	0	43	104	0	66	15002
2026-01-27 13:34:06.93	332.76	8.75	-48.0	-59.8	3.8	8.46e-01	0	43	104	0	66	15016
2026-01-27 13:34:07.93	332.85	8.68	-48.0	-59.8	3.8	8.46e-01	0	43	104	0	66	15027
2026-01-27 13:34:08.94	332.93	8.60	-48.0	-59.8	3.8	8.46e-01	0	43	104	0	66	15025
2026-01-27 13:34:09.95	333.01	8.53	-48.0	-59.8	3.8	8.46e-01	0	43	104	0	66	15030
2026-01-27 13:34:10.96	333.10	8.46	-48.0	-59.8	3.8	8.45e-01	0	43	104	0	66	15019
2026-01-27 13:34:11.97	333.18	8.39	-48.0	-59.8	3.8	8.46e-01	0	43	104	0	66	15025
2026-01-27 13:34:12.97	333.26	8.32	-48.0	-59.8	3.8	8.45e-01	0	43	104	0	66	15008
2026-01-27 13:34:13.98	333.34	8.24	-48.0	-59.8	3.8	8.46e-01	0	43	104	0	66	15010
2026-01-27 13:34:14.99	333.42	8.17	-48.0	-59.8	3.8	8.46e-01	0	43	104	0	66	15019
2026-01-27 13:34:16.00	333.50	8.10	-48.0	-59.8	3.8	8.47e-01	0	43	104	0	66	15020
2026-01-27 13:34:17.00	333.58	8.03	-48.0	-59.8	3.8	8.46e-01	0	43	104	0	66	15009
2026-01-27 13:34:18.02	333.66	7.96	-48.0	-59.8	3.8	8.45e-01	0	43	104	0	66	15009
2026-01-27 13:34:19.03	333.74	7.89	-48.0	-59.8	3.8	8.47e-01	0	43	104	0	66	15050
2026-01-27 13:34:20.03	333.82	7.82	-48.0	-59.9	3.8	8.46e-01	0	43	104	0	66	15111
2026-01-27 13:34:21.04	333.90	7.75	-48.0	-59.8	3.8	8.46e-01	0	43	104	0	66	15043
2026-01-27 13:34:22.05	333.98	7.68	-48.0	-59.8	3.8	8.46e-01	0	43	104	0	66	15049
2026-01-27 13:34:23.06	334.05	7.61	-48.0	-59.8	3.8	8.47e-01	0	43	104	0	66	15037
2026-01-27 13:34:24.07	334.13	7.54	-48.0	-59.8	3.8	8.46e-01	0	43	104	0	66	14997
2026-01-27 13:34:25.08	334.21	7.47	-48.0	-59.8	3.8	8.45e-01	0	43	104	0	66	15026
2026-01-27 13:34:26.08	334.28	7.40	-48.0	-59.9	3.8	8.45e-01	0	43	104	0	66	15061
2026-01-27 13:34:27.08	334.36	7.33	-48.0	-59.8	3.8	8.46e-01	0	43	104	0	66	15029
2026-01-27 13:34:28.09	334.44	7.26	-48.0	-59.8	3.8	8.47e-01	0	43	104	0	66	15041
2026-01-27 13:34:29.10	334.51	7.19	-48.0	-59.8	3.8	8.46e-01	0	43	104	0	66	15031
2026-01-27 13:34:30.11	334.59	7.12	-48.0	-59.9	3.8	8.46e-01	0	43	104	0	66	15065
2026-01-27 13:34:31.12	334.66	7.05	-48.0	-59.8	3.8	8.45e-01	0	43	104	0	66	15018
