passes_logs/2026/01/27/R3.2S_Murmansk/R3.2S_Murmansk__20260127_101422_NOAA_21_JPSS-2_rec.log

#Pass ID: 20260127_101422_NOAA 21 (JPSS-2)
#Satellite: NOAA 21 (JPSS-2)
#Configuration: NOAA-21
#almurnet v.1.7.20251203
#Start time: 2026-01-27 10:15:16

#Version: 2.2.20231116
#Station: R3.2S_Murmansk
#Location: 33.079688 lon 68.888172 lat
#TLE: 1 54234U 22150A   26026.43130734  .00000179  00000+0  10559-3 0  9998
#TLE: 2 54234  98.7509 327.1934 0000805 209.8356 150.2774 14.19539635166435

#Time	Az	El	Level	Level2	SNR	BER	BlckErr	Temp	State	Recorded	gain1	gain2
2026-01-27 10:15:16.28	170.42	5.66	-53.1	-65.0	3.8	8.46e-01	0	42	0	0	76	15288
2026-01-27 10:15:17.28	170.45	5.74	-54.0	-66.8	3.8	1.49e+00	0	43	104	0	78	16795
2026-01-27 10:15:18.29	170.47	5.81	-54.0	-66.8	3.8	1.49e+00	0	43	104	0	78	16801
2026-01-27 10:15:19.30	170.50	5.88	-54.1	-66.8	3.8	1.49e+00	0	43	104	0	78	16844
2026-01-27 10:15:20.31	170.53	5.96	-54.1	-66.9	3.8	1.49e+00	0	43	104	0	78	16930
2026-01-27 10:15:21.31	170.56	6.03	-54.2	-66.9	3.8	1.49e+00	0	43	104	0	78	17034
2026-01-27 10:15:22.32	170.59	6.11	-54.2	-66.9	3.8	1.49e+00	0	43	104	0	78	17024
2026-01-27 10:15:23.33	170.62	6.18	-54.2	-66.9	3.8	1.49e+00	0	43	104	0	78	17067
2026-01-27 10:15:24.33	170.65	6.25	-54.2	-67.0	3.8	1.49e+00	0	43	104	0	78	17111
2026-01-27 10:15:25.34	170.68	6.33	-54.2	-67.0	3.8	1.49e+00	0	43	104	0	78	17140
2026-01-27 10:15:26.35	170.71	6.40	-54.2	-67.0	3.8	1.49e+00	0	43	104	0	79	16213
2026-01-27 10:15:27.36	170.73	6.48	-54.2	-67.0	3.8	1.49e+00	0	43	104	0	79	16225
2026-01-27 10:15:28.36	170.76	6.55	-54.3	-67.0	3.8	1.49e+00	0	43	104	0	79	16289
2026-01-27 10:15:29.37	170.79	6.63	-54.3	-67.0	3.8	1.49e+00	0	43	104	0	79	16300
2026-01-27 10:15:30.38	170.82	6.70	-54.3	-67.1	3.8	1.49e+00	0	43	104	0	79	16321
2026-01-27 10:15:31.39	170.85	6.78	-54.3	-67.1	3.8	1.49e+00	0	42	104	0	79	16381
2026-01-27 10:15:32.40	170.88	6.86	-54.3	-67.1	3.8	1.49e+00	0	43	104	0	79	16394
2026-01-27 10:15:33.41	170.92	6.93	-54.3	-67.1	3.8	1.49e+00	0	43	104	0	79	16329
2026-01-27 10:15:34.41	170.95	7.01	-54.3	-67.0	3.8	1.49e+00	0	43	104	0	79	16302
2026-01-27 10:15:35.43	170.98	7.09	-54.3	-67.1	3.8	1.49e+00	0	43	104	0	79	16345
2026-01-27 10:15:36.43	171.01	7.16	-54.3	-67.0	3.8	1.49e+00	0	43	104	0	79	16282
2026-01-27 10:15:37.44	171.04	7.24	-54.3	-67.0	3.8	1.49e+00	0	43	104	0	79	16277
2026-01-27 10:15:38.45	171.07	7.32	-54.2	-67.0	3.8	1.49e+00	0	43	104	0	79	16190
2026-01-27 10:15:39.45	171.10	7.39	-54.2	-67.0	3.8	1.49e+00	0	43	104	0	79	16262
2026-01-27 10:15:40.46	171.13	7.47	-54.2	-67.0	3.8	1.49e+00	0	43	104	0	79	16197
2026-01-27 10:15:41.47	171.16	7.55	-54.2	-67.0	3.8	1.49e+00	0	43	104	0	79	16183
2026-01-27 10:15:42.48	171.20	7.63	-54.2	-67.0	3.8	1.49e+00	0	43	104	0	79	16161
2026-01-27 10:15:43.48	171.23	7.71	-54.1	-66.9	3.8	1.49e+00	0	43	104	0	79	16080
2026-01-27 10:15:44.49	171.26	7.79	-54.1	-66.9	3.8	1.49e+00	0	43	104	0	79	16029
2026-01-27 10:15:45.50	171.29	7.87	-54.1	-66.9	3.8	1.49e+00	0	43	104	0	79	16002
2026-01-27 10:15:46.51	171.32	7.94	-54.1	-66.9	3.8	1.49e+00	0	43	104	0	79	15987
2026-01-27 10:15:47.51	171.36	8.02	-54.1	-66.9	3.8	1.49e+00	0	43	104	0	79	16037
2026-01-27 10:15:48.52	171.39	8.10	-54.2	-66.9	3.8	1.49e+00	0	43	104	0	79	16026
2026-01-27 10:15:49.53	171.42	8.18	-54.2	-66.9	3.8	1.49e+00	0	43	104	0	79	16111
2026-01-27 10:15:50.54	171.45	8.26	-54.2	-66.9	3.8	1.49e+00	0	43	104	0	79	16116
2026-01-27 10:15:51.55	171.49	8.34	-54.1	-66.9	3.8	1.49e+00	0	43	104	0	79	16036
2026-01-27 10:15:52.55	171.52	8.43	-54.1	-66.9	3.8	1.49e+00	0	43	104	0	79	15998
2026-01-27 10:15:53.56	171.55	8.51	-54.1	-66.9	3.8	1.49e+00	0	43	104	0	79	15977
2026-01-27 10:15:54.56	171.59	8.59	-54.1	-66.9	3.8	1.49e+00	0	43	104	0	79	15978
2026-01-27 10:15:55.57	171.62	8.67	-54.1	-66.9	3.8	1.49e+00	0	43	104	0	79	16011
2026-01-27 10:15:56.58	171.65	8.75	-54.1	-66.9	3.8	1.49e+00	0	43	104	0	79	15953
2026-01-27 10:15:57.59	171.69	8.83	-54.1	-66.8	3.8	1.49e+00	0	43	104	0	79	15910
2026-01-27 10:15:58.60	171.72	8.92	-54.1	-66.8	3.8	1.49e+00	0	43	104	0	79	15860
2026-01-27 10:15:59.61	171.76	9.00	-54.0	-66.8	3.8	1.49e+00	0	43	104	0	79	15843
2026-01-27 10:16:00.62	171.79	9.08	-54.0	-66.8	3.8	1.49e+00	0	43	104	0	79	15838
2026-01-27 10:16:01.63	171.83	9.16	-54.0	-66.8	3.8	1.49e+00	0	43	104	0	79	15868
2026-01-27 10:16:02.64	171.86	9.25	-54.0	-66.8	3.8	1.49e+00	0	43	104	0	79	15863
2026-01-27 10:16:03.65	171.90	9.33	-54.0	-66.8	3.8	1.49e+00	0	43	104	0	79	15843
2026-01-27 10:16:04.66	171.93	9.42	-54.1	-66.8	3.8	1.49e+00	0	43	104	0	79	15853
2026-01-27 10:16:05.67	171.97	9.50	-54.0	-66.8	3.8	1.49e+00	0	43	104	0	79	15877
2026-01-27 10:16:06.67	172.00	9.58	-54.0	-66.8	3.8	1.49e+00	0	43	104	0	79	15822
2026-01-27 10:16:07.68	172.04	9.67	-54.0	-66.8	3.8	1.49e+00	0	43	104	0	79	15784
2026-01-27 10:16:08.69	172.08	9.75	-54.0	-66.8	3.8	1.49e+00	0	43	104	0	79	15803
2026-01-27 10:16:09.69	172.11	9.84	-54.0	-66.8	3.8	1.49e+00	0	43	104	0	79	15791
2026-01-27 10:16:10.70	172.15	9.92	-54.0	-66.8	3.8	1.49e+00	0	43	104	0	79	15823
2026-01-27 10:16:11.70	172.18	10.01	-54.0	-66.7	3.8	1.49e+00	0	43	104	0	79	15739
2026-01-27 10:16:12.71	172.22	10.10	-54.0	-66.7	3.8	1.49e+00	0	43	104	0	79	15734
2026-01-27 10:16:13.72	172.26	10.18	-54.0	-66.8	3.8	1.49e+00	0	43	104	0	79	15764
2026-01-27 10:16:14.73	172.30	10.27	-54.0	-66.7	3.8	1.49e+00	0	43	104	0	79	15700
2026-01-27 10:16:15.74	172.33	10.36	-54.0	-66.7	3.8	1.49e+00	0	43	104	0	79	15743
2026-01-27 10:16:16.74	172.37	10.44	-54.1	-66.8	3.8	1.49e+00	0	43	104	0	79	15912
2026-01-27 10:16:17.75	172.41	10.53	-54.2	-67.0	3.8	1.49e+00	0	43	104	0	79	16167
2026-01-27 10:16:18.76	172.45	10.62	-54.2	-67.0	3.8	1.49e+00	0	43	104	0	79	16247
2026-01-27 10:16:19.77	172.49	10.71	-54.2	-67.0	3.8	1.49e+00	0	43	104	0	79	16156
2026-01-27 10:16:20.77	172.52	10.80	-54.2	-67.0	3.8	1.49e+00	0	43	104	0	79	16152
2026-01-27 10:16:21.77	172.56	10.88	-54.2	-67.0	3.8	1.49e+00	0	43	104	0	79	16136
2026-01-27 10:16:22.78	172.60	10.97	-54.1	-66.9	3.8	1.49e+00	0	43	104	0	79	16082
2026-01-27 10:16:23.79	172.64	11.06	-54.1	-66.9	3.8	1.49e+00	0	43	104	0	79	16047
2026-01-27 10:16:24.80	172.68	11.15	-54.1	-66.8	3.8	1.49e+00	0	43	104	0	79	15932
2026-01-27 10:16:25.81	172.72	11.24	-54.1	-66.8	3.8	1.49e+00	0	43	104	0	79	15872
2026-01-27 10:16:26.82	172.76	11.33	-54.0	-66.8	3.8	1.49e+00	0	43	104	0	79	15844
2026-01-27 10:16:27.83	172.80	11.43	-54.0	-66.7	3.8	1.49e+00	0	43	104	0	79	15757
2026-01-27 10:16:28.84	172.84	11.52	-54.0	-66.7	3.8	1.49e+00	0	43	104	0	79	15736
2026-01-27 10:16:29.85	172.88	11.61	-53.9	-66.7	3.8	1.49e+00	0	43	104	0	79	15660
2026-01-27 10:16:30.85	172.92	11.70	-53.9	-66.6	3.8	1.49e+00	0	43	104	0	79	15563
2026-01-27 10:16:31.86	172.96	11.79	-53.8	-66.6	3.8	1.49e+00	0	43	104	0	79	15435
2026-01-27 10:16:32.87	173.00	11.88	-53.8	-66.4	3.8	1.49e+00	0	43	104	0	79	15146
2026-01-27 10:16:33.87	173.04	11.98	-53.7	-66.2	3.8	1.49e+00	0	43	104	0	79	14850
2026-01-27 10:16:34.89	173.09	12.07	-53.5	-66.3	3.8	1.49e+00	0	43	104	0	79	14898
2026-01-27 10:16:35.89	173.13	12.16	-53.4	-66.1	3.8	1.49e+00	0	43	104	0	78	15467
2026-01-27 10:16:36.90	173.17	12.26	-44.9	-45.9	17.8	2.50e-01	0	43	104	0	61	4019
2026-01-27 10:16:37.91	173.21	12.35	-43.8	-44.7	20.0	0.00e+00	0	43	0	2097152	59	3942
2026-01-27 10:16:38.91	173.25	12.45	-47.7	-49.5	15.3	0.00e+00	0	43	0	5242880	65	4852
2026-01-27 10:16:39.92	173.30	12.54	-47.9	-49.7	15.1	0.00e+00	0	43	0	8388608	66	4691
2026-01-27 10:16:40.93	173.34	12.64	-47.2	-48.9	15.9	0.00e+00	0	43	0	11534336	64	4800
2026-01-27 10:16:41.93	173.38	12.73	-48.9	-51.2	13.6	7.00e-07	0	43	0	14680064	68	4950
2026-01-27 10:16:42.94	173.43	12.83	-44.6	-45.7	19.3	0.00e+00	0	43	0	17825792	59	4405
2026-01-27 10:16:43.94	173.47	12.92	-43.6	-44.6	20.2	0.00e+00	0	43	0	20971520	59	3890
2026-01-27 10:16:44.95	173.51	13.02	-43.8	-44.7	20.1	0.00e+00	0	43	0	24117248	59	3958
2026-01-27 10:16:45.96	173.56	13.12	-43.7	-44.7	20.2	0.00e+00	0	43	0	27262976	59	3920
2026-01-27 10:16:46.97	173.60	13.22	-43.5	-44.5	20.4	0.00e+00	0	43	0	30408704	59	3837
2026-01-27 10:16:47.97	173.65	13.31	-43.7	-44.7	20.2	0.00e+00	0	43	0	33554432	59	3927
2026-01-27 10:16:48.98	173.69	13.41	-43.6	-44.6	20.3	0.00e+00	0	43	0	36700160	59	3869
2026-01-27 10:16:49.99	173.74	13.51	-43.2	-44.1	20.7	0.00e+00	0	43	0	39845888	58	3905
2026-01-27 10:16:50.99	173.78	13.61	-43.3	-44.2	20.6	0.00e+00	0	43	0	42991616	58	3928
2026-01-27 10:16:52.00	173.83	13.71	-43.3	-44.3	20.6	0.00e+00	0	43	0	46137344	58	3959
2026-01-27 10:16:53.01	173.88	13.81	-43.2	-44.2	20.7	0.00e+00	0	43	0	49283072	58	3920
2026-01-27 10:16:54.01	173.92	13.91	-43.2	-44.1	20.8	0.00e+00	0	43	0	52428800	58	3882
2026-01-27 10:16:55.02	173.97	14.01	-43.2	-44.2	20.7	0.00e+00	0	43	0	55574528	58	3915
2026-01-27 10:16:56.02	174.02	14.11	-43.2	-44.1	20.7	0.00e+00	0	43	0	58720256	58	3902
2026-01-27 10:16:57.03	174.06	14.21	-43.2	-44.1	20.7	0.00e+00	0	43	0	61865984	58	3911
2026-01-27 10:16:58.04	174.11	14.31	-43.1	-44.0	20.9	0.00e+00	0	43	0	65011712	58	3848
2026-01-27 10:16:59.05	174.16	14.41	-43.1	-44.0	20.8	0.00e+00	0	43	0	68157440	58	3850
2026-01-27 10:17:00.06	174.21	14.52	-43.2	-44.1	20.8	0.00e+00	0	43	0	71303168	58	3880
2026-01-27 10:17:01.07	174.26	14.62	-43.3	-44.2	20.7	0.00e+00	0	43	0	74448896	58	3922
2026-01-27 10:17:02.07	174.31	14.72	-43.1	-44.0	20.9	0.00e+00	0	43	0	77594624	58	3842
2026-01-27 10:17:03.08	174.36	14.83	-43.1	-44.0	20.9	0.00e+00	0	43	0	80740352	58	3842
2026-01-27 10:17:04.09	174.41	14.93	-43.1	-44.0	20.8	0.00e+00	0	43	0	83886080	58	3859
2026-01-27 10:17:05.10	174.46	15.04	-43.1	-44.0	20.9	0.00e+00	0	43	0	87031808	58	3842
2026-01-27 10:17:06.11	174.51	15.14	-43.1	-44.0	20.9	0.00e+00	0	43	0	90177536	58	3853
2026-01-27 10:17:07.12	174.56	15.25	-43.0	-43.9	20.9	0.00e+00	0	43	0	93323264	58	3812
2026-01-27 10:17:08.12	174.61	15.35	-43.1	-44.1	20.8	0.00e+00	0	43	0	96468992	58	3870
2026-01-27 10:17:09.13	174.66	15.46	-43.2	-44.1	20.8	0.00e+00	0	43	0	99614720	58	3888
2026-01-27 10:17:10.14	174.71	15.57	-43.1	-44.0	20.9	0.00e+00	0	43	0	102760448	58	3847
2026-01-27 10:17:11.15	174.76	15.67	-43.2	-44.1	20.8	0.00e+00	0	43	0	105906176	58	3888
2026-01-27 10:17:12.15	174.81	15.78	-43.3	-44.2	20.7	0.00e+00	0	43	0	109051904	58	3928
2026-01-27 10:17:13.16	174.87	15.89	-43.2	-44.1	20.8	0.00e+00	0	43	0	112197632	58	3889
2026-01-27 10:17:14.17	174.92	16.00	-43.2	-44.1	20.8	0.00e+00	0	43	0	115343360	58	3912
2026-01-27 10:17:15.18	174.97	16.11	-43.3	-44.2	20.7	0.00e+00	0	43	0	118489088	58	3934
2026-01-27 10:17:16.19	175.03	16.22	-43.3	-44.2	20.7	0.00e+00	0	43	0	121634816	58	3954
2026-01-27 10:17:17.20	175.08	16.33	-43.2	-44.1	20.8	0.00e+00	0	43	0	124780544	58	3911
2026-01-27 10:17:18.20	175.14	16.44	-43.4	-44.3	20.6	0.00e+00	0	43	0	127926272	58	3987
2026-01-27 10:17:19.21	175.19	16.55	-43.4	-44.4	20.6	0.00e+00	0	43	0	131072000	58	4023
2026-01-27 10:17:20.22	175.25	16.66	-43.3	-44.3	20.7	0.00e+00	0	43	0	134217728	58	3960
2026-01-27 10:17:21.23	175.30	16.77	-43.4	-44.3	20.7	0.00e+00	0	43	0	137363456	58	3978
2026-01-27 10:17:22.23	175.36	16.89	-43.4	-44.4	20.6	0.00e+00	0	43	0	140509184	58	4006
2026-01-27 10:17:23.24	175.41	17.00	-43.3	-44.3	20.7	0.00e+00	0	43	0	143654912	58	3960
2026-01-27 10:17:24.24	175.47	17.11	-43.4	-44.3	20.6	0.00e+00	0	43	0	146800640	58	4002
2026-01-27 10:17:25.25	175.53	17.23	-43.4	-44.4	20.6	0.00e+00	0	43	0	149946368	58	4006
2026-01-27 10:17:26.26	175.58	17.34	-43.4	-44.4	20.6	0.00e+00	0	43	0	153092096	58	4010
2026-01-27 10:17:27.27	175.64	17.46	-43.4	-44.3	20.7	0.00e+00	0	43	0	156237824	58	3969
2026-01-27 10:17:28.28	175.70	17.57	-43.4	-44.3	20.6	0.00e+00	0	43	0	160432128	58	3994
2026-01-27 10:17:29.29	175.76	17.69	-43.4	-44.4	20.6	0.00e+00	0	43	0	162529280	58	4012
2026-01-27 10:17:30.30	175.82	17.81	-43.5	-44.5	20.5	0.00e+00	0	43	0	165675008	58	4075
2026-01-27 10:17:31.31	175.88	17.92	-43.5	-44.4	20.6	0.00e+00	0	43	0	168820736	58	4032
2026-01-27 10:17:32.32	175.94	18.04	-43.5	-44.5	20.5	0.00e+00	0	43	0	171966464	58	4067
2026-01-27 10:17:33.33	176.00	18.16	-43.6	-44.6	20.4	0.00e+00	0	43	0	175112192	58	4121
2026-01-27 10:17:34.34	176.06	18.28	-43.5	-44.4	20.6	0.00e+00	0	43	0	178257920	58	4029
2026-01-27 10:17:35.35	176.12	18.40	-43.5	-44.5	20.5	0.00e+00	0	43	0	181403648	58	4053
2026-01-27 10:17:36.36	176.18	18.52	-43.4	-44.3	20.7	0.00e+00	0	43	0	184549376	58	3997
2026-01-27 10:17:37.37	176.25	18.64	-43.5	-44.4	20.5	0.00e+00	0	43	0	187695104	58	4051
2026-01-27 10:17:38.38	176.31	18.76	-43.4	-44.4	20.6	0.00e+00	0	43	0	190840832	58	4013
2026-01-27 10:17:39.39	176.37	18.88	-43.5	-44.4	20.6	0.00e+00	0	43	0	195035136	58	4025
2026-01-27 10:17:40.39	176.44	19.00	-43.5	-44.5	20.6	0.00e+00	0	43	0	198180864	58	4052
2026-01-27 10:17:41.40	176.50	19.13	-43.2	-44.1	20.8	0.00e+00	0	43	0	201326592	58	3910
2026-01-27 10:17:42.41	176.57	19.25	-43.2	-44.1	20.9	0.00e+00	0	43	0	204472320	58	3889
2026-01-27 10:17:43.42	176.63	19.38	-43.3	-44.2	20.8	0.00e+00	0	43	0	207618048	58	3930
2026-01-27 10:17:44.42	176.70	19.50	-43.2	-44.1	20.9	0.00e+00	0	43	0	209715200	58	3894
2026-01-27 10:17:45.43	176.76	19.62	-43.0	-43.9	21.0	0.00e+00	0	43	0	212860928	58	3806
2026-01-27 10:17:46.44	176.83	19.75	-43.0	-43.9	21.1	0.00e+00	0	43	0	216006656	58	3794
2026-01-27 10:17:47.45	176.90	19.88	-42.9	-43.8	21.1	0.00e+00	0	43	0	219152384	57	3997
2026-01-27 10:17:48.46	176.97	20.00	-42.9	-43.8	21.2	0.00e+00	0	43	0	222298112	57	3959
2026-01-27 10:17:49.47	177.03	20.13	-42.9	-43.8	21.2	0.00e+00	0	43	0	225443840	57	3969
2026-01-27 10:17:50.48	177.10	20.26	-42.8	-43.7	21.3	0.00e+00	0	43	0	228589568	57	3919
2026-01-27 10:17:51.49	177.17	20.39	-42.7	-43.6	21.4	0.00e+00	0	43	0	232783872	57	3885
2026-01-27 10:17:52.49	177.24	20.52	-42.6	-43.5	21.4	0.00e+00	0	43	0	235929600	57	3826
2026-01-27 10:17:53.50	177.31	20.65	-42.5	-43.3	21.6	0.00e+00	0	43	0	239075328	57	3770
2026-01-27 10:17:54.51	177.38	20.78	-42.5	-43.3	21.6	0.00e+00	0	43	0	242221056	56	4001
2026-01-27 10:17:55.52	177.46	20.91	-42.4	-43.2	21.6	0.00e+00	0	43	0	245366784	56	3944
2026-01-27 10:17:56.52	177.53	21.04	-42.2	-43.1	21.8	0.00e+00	0	43	0	248512512	56	3874
2026-01-27 10:17:57.53	177.60	21.17	-42.3	-43.2	21.7	0.00e+00	0	43	0	251658240	56	3923
2026-01-27 10:17:58.54	177.67	21.31	-42.3	-43.2	21.7	0.00e+00	0	43	0	254803968	56	3929
2026-01-27 10:17:59.55	177.75	21.44	-42.1	-43.0	21.9	0.00e+00	0	43	0	257949696	56	3826
2026-01-27 10:18:00.55	177.82	21.58	-42.2	-43.0	21.8	0.00e+00	0	43	0	260046848	56	3864
2026-01-27 10:18:01.56	177.90	21.71	-42.1	-42.9	21.9	0.00e+00	0	43	0	263192576	56	3810
2026-01-27 10:18:02.57	177.97	21.85	-42.2	-43.1	21.8	0.00e+00	0	43	0	266338304	56	3870
2026-01-27 10:18:03.57	178.05	21.98	-42.2	-43.1	21.9	0.00e+00	0	43	0	269484032	56	3869
2026-01-27 10:18:04.58	178.13	22.12	-42.0	-42.8	22.0	0.00e+00	0	43	0	273678336	56	3774
2026-01-27 10:18:05.59	178.20	22.26	-41.9	-42.7	22.1	0.00e+00	0	43	0	276824064	55	3922
2026-01-27 10:18:06.60	178.28	22.40	-41.8	-42.7	22.1	0.00e+00	0	43	0	279969792	55	3915
2026-01-27 10:18:07.61	178.36	22.54	-41.8	-42.7	22.1	0.00e+00	0	43	0	283115520	55	3917
2026-01-27 10:18:08.61	178.44	22.68	-41.8	-42.6	22.1	0.00e+00	0	43	0	286261248	55	3910
2026-01-27 10:18:09.62	178.52	22.82	-41.8	-42.6	22.2	0.00e+00	0	43	0	289406976	55	3903
2026-01-27 10:18:10.63	178.60	22.96	-41.7	-42.5	22.2	0.00e+00	0	43	0	292552704	55	3867
2026-01-27 10:18:11.64	178.68	23.10	-41.8	-42.6	22.2	0.00e+00	0	43	0	295698432	55	3870
2026-01-27 10:18:12.65	178.77	23.25	-41.7	-42.5	22.3	0.00e+00	0	43	0	298844160	55	3842
2026-01-27 10:18:13.66	178.85	23.39	-41.7	-42.5	22.3	0.00e+00	0	43	0	301989888	55	3855
2026-01-27 10:18:14.67	178.94	23.53	-41.7	-42.5	22.3	0.00e+00	0	43	0	305135616	55	3830
2026-01-27 10:18:15.68	179.02	23.68	-41.8	-42.6	22.2	0.00e+00	0	43	0	307232768	55	3881
2026-01-27 10:18:16.69	179.11	23.83	-41.8	-42.6	22.2	0.00e+00	0	43	0	311427072	55	3889
2026-01-27 10:18:17.69	179.19	23.97	-41.7	-42.5	22.3	0.00e+00	0	43	0	314572800	55	3860
2026-01-27 10:18:18.70	179.28	24.12	-41.8	-42.6	22.2	0.00e+00	0	43	0	317718528	55	3878
2026-01-27 10:18:19.71	179.37	24.27	-41.7	-42.5	22.3	0.00e+00	0	43	0	320864256	55	3851
2026-01-27 10:18:20.72	179.46	24.42	-41.8	-42.6	22.2	0.00e+00	0	43	0	324009984	55	3875
2026-01-27 10:18:21.73	179.54	24.57	-41.8	-42.6	22.2	0.00e+00	0	43	0	327155712	55	3891
2026-01-27 10:18:22.73	179.63	24.72	-41.7	-42.5	22.3	0.00e+00	0	43	0	330301440	55	3853
2026-01-27 10:18:23.74	179.73	24.87	-41.8	-42.7	22.2	0.00e+00	0	43	0	333447168	55	3916
2026-01-27 10:18:24.75	179.82	25.02	-41.8	-42.7	22.2	0.00e+00	0	43	0	336592896	55	3918
2026-01-27 10:18:25.76	179.91	25.18	-41.9	-42.7	22.2	0.00e+00	0	43	0	339738624	55	3922
2026-01-27 10:18:26.77	180.00	25.33	-41.9	-42.7	22.1	0.00e+00	0	43	0	342884352	55	3955
2026-01-27 10:18:27.78	180.10	25.48	-41.9	-42.7	22.2	0.00e+00	0	43	0	346030080	55	3956
2026-01-27 10:18:28.78	180.19	25.64	-42.0	-42.8	22.1	0.00e+00	0	43	0	349175808	55	3991
2026-01-27 10:18:29.79	180.29	25.80	-42.2	-43.0	21.9	0.00e+00	0	43	0	352321536	55	4080
2026-01-27 10:18:30.80	180.39	25.95	-42.2	-43.1	21.9	0.00e+00	0	43	0	355467264	55	4107
2026-01-27 10:18:31.81	180.49	26.11	-42.3	-43.1	21.8	0.00e+00	0	43	0	358612992	55	4144
2026-01-27 10:18:32.81	180.58	26.27	-42.4	-43.2	21.7	0.00e+00	0	43	0	361758720	55	4180
2026-01-27 10:18:33.82	180.68	26.43	-42.5	-43.4	21.6	0.00e+00	0	43	0	364904448	55	4249
2026-01-27 10:18:34.82	180.78	26.59	-42.5	-43.3	21.7	0.00e+00	0	43	0	368050176	55	4222
2026-01-27 10:18:35.83	180.89	26.75	-42.5	-43.4	21.6	0.00e+00	0	43	0	371195904	55	4257
2026-01-27 10:18:36.84	180.99	26.91	-42.7	-43.5	21.5	0.00e+00	0	43	0	374341632	55	4335
2026-01-27 10:18:37.84	181.09	27.08	-42.8	-43.7	21.4	0.00e+00	0	43	0	377487360	56	4188
2026-01-27 10:18:38.84	181.20	27.24	-43.0	-43.9	21.2	0.00e+00	0	43	0	380633088	56	4265
2026-01-27 10:18:39.85	181.30	27.40	-43.1	-43.9	21.2	0.00e+00	0	43	0	383778816	56	4290
2026-01-27 10:18:40.85	181.41	27.57	-43.2	-44.1	21.1	0.00e+00	0	43	0	386924544	56	4349
2026-01-27 10:18:41.86	181.52	27.74	-43.1	-44.1	21.1	0.00e+00	0	43	0	390070272	56	4342
2026-01-27 10:18:42.87	181.63	27.90	-43.2	-44.1	21.1	0.00e+00	0	43	0	393216000	56	4343
2026-01-27 10:18:43.88	181.74	28.07	-43.1	-44.0	21.1	0.00e+00	0	43	0	396361728	56	4340
2026-01-27 10:18:44.89	181.85	28.24	-43.1	-44.0	21.1	0.00e+00	0	43	0	399507456	56	4338
2026-01-27 10:18:45.89	181.96	28.41	-43.1	-44.0	21.1	0.00e+00	0	43	0	402653184	56	4319
2026-01-27 10:18:46.91	182.08	28.59	-43.1	-44.1	21.1	0.00e+00	0	42	0	405798912	56	4341
2026-01-27 10:18:47.91	182.19	28.76	-43.2	-44.1	21.1	0.00e+00	0	43	0	408944640	56	4352
2026-01-27 10:18:48.92	182.31	28.93	-43.1	-44.0	21.2	0.00e+00	0	43	0	412090368	56	4315
2026-01-27 10:18:49.93	182.43	29.10	-43.0	-43.9	21.2	0.00e+00	0	43	0	415236096	56	4280
2026-01-27 10:18:50.93	182.54	29.28	-43.0	-43.9	21.2	0.00e+00	0	43	0	418381824	56	4273
2026-01-27 10:18:51.94	182.66	29.45	-43.0	-43.9	21.2	0.00e+00	0	43	0	421527552	56	4265
2026-01-27 10:18:52.95	182.78	29.63	-43.1	-44.0	21.2	0.00e+00	0	43	0	424673280	56	4295
2026-01-27 10:18:53.95	182.91	29.81	-43.1	-43.9	21.2	0.00e+00	0	43	0	427819008	56	4289
2026-01-27 10:18:54.96	183.03	29.99	-42.9	-43.8	21.3	0.00e+00	0	42	0	430964736	56	4220
2026-01-27 10:18:55.97	183.16	30.17	-42.9	-43.8	21.3	0.00e+00	0	43	0	434110464	56	4228
2026-01-27 10:18:56.97	183.28	30.35	-42.9	-43.7	21.4	0.00e+00	0	42	0	437256192	56	4179
2026-01-27 10:18:57.98	183.41	30.53	-42.8	-43.6	21.5	0.00e+00	0	43	0	440401920	56	4145
2026-01-27 10:18:58.99	183.54	30.71	-42.8	-43.6	21.5	0.00e+00	0	43	0	443547648	56	4133
2026-01-27 10:18:59.99	183.67	30.90	-42.8	-43.7	21.5	0.00e+00	0	43	0	446693376	56	4151
2026-01-27 10:19:01.00	183.80	31.08	-42.7	-43.5	21.6	0.00e+00	0	43	0	449839104	56	4095
2026-01-27 10:19:02.00	183.93	31.27	-42.4	-43.3	21.8	0.00e+00	0	43	0	452984832	56	3968
2026-01-27 10:19:03.01	184.07	31.46	-42.4	-43.3	21.8	0.00e+00	0	43	0	456130560	56	3960
2026-01-27 10:19:04.02	184.20	31.64	-42.5	-43.3	21.8	0.00e+00	0	43	0	459276288	56	3986
2026-01-27 10:19:05.02	184.34	31.83	-42.4	-43.2	21.9	0.00e+00	0	43	0	462422016	56	3938
2026-01-27 10:19:06.03	184.48	32.02	-42.5	-43.3	21.8	0.00e+00	0	43	0	465567744	56	3993
2026-01-27 10:19:07.04	184.62	32.21	-42.6	-43.4	21.7	0.00e+00	0	43	0	468713472	56	4027
2026-01-27 10:19:08.04	184.76	32.40	-42.7	-43.6	21.6	0.00e+00	0	43	0	471859200	56	4112
2026-01-27 10:19:09.05	184.91	32.60	-42.9	-43.8	21.3	0.00e+00	0	43	0	475004928	56	4217
2026-01-27 10:19:10.05	185.05	32.79	-42.8	-43.7	21.5	0.00e+00	0	43	0	478150656	56	4148
2026-01-27 10:19:11.05	185.20	32.99	-42.8	-43.7	21.4	0.00e+00	0	42	0	481296384	56	4175
2026-01-27 10:19:12.06	185.35	33.18	-43.0	-43.8	21.3	0.00e+00	0	43	0	484442112	56	4242
2026-01-27 10:19:13.07	185.50	33.38	-43.1	-44.0	21.2	0.00e+00	0	43	0	487587840	56	4293
2026-01-27 10:19:14.07	185.66	33.58	-43.0	-43.8	21.3	0.00e+00	0	43	0	490733568	56	4241
2026-01-27 10:19:15.08	185.81	33.78	-43.0	-43.9	21.2	0.00e+00	0	43	0	493879296	56	4268
2026-01-27 10:19:16.09	185.97	33.98	-43.1	-44.0	21.1	0.00e+00	0	43	0	497025024	56	4309
2026-01-27 10:19:17.09	186.13	34.18	-43.2	-44.1	21.1	0.00e+00	0	43	0	500170752	57	4118
2026-01-27 10:19:18.10	186.29	34.38	-43.3	-44.2	21.1	0.00e+00	0	43	0	503316480	57	4146
2026-01-27 10:19:19.11	186.45	34.59	-43.4	-44.3	20.9	0.00e+00	0	43	0	506462208	57	4234
2026-01-27 10:19:20.12	186.61	34.79	-43.6	-44.5	20.8	0.00e+00	0	43	0	509607936	57	4334
2026-01-27 10:19:21.12	186.78	35.00	-43.8	-44.8	20.5	0.00e+00	0	43	0	512753664	58	4204
2026-01-27 10:19:22.13	186.95	35.21	-44.0	-45.0	20.4	0.00e+00	0	43	0	515899392	58	4301
2026-01-27 10:19:23.14	187.12	35.41	-44.3	-45.3	20.0	0.00e+00	0	43	0	519045120	59	4241
2026-01-27 10:19:24.14	187.29	35.62	-44.6	-45.6	19.8	0.00e+00	0	43	0	522190848	59	4362
2026-01-27 10:19:25.15	187.47	35.83	-44.3	-45.4	19.7	0.00e+00	0	43	0	525336576	60	4017
2026-01-27 10:19:26.15	187.64	36.04	-44.5	-45.6	19.5	0.00e+00	0	43	0	528482304	60	4109
2026-01-27 10:19:27.15	187.82	36.26	-44.6	-45.6	19.5	0.00e+00	0	43	0	531628032	60	4131
2026-01-27 10:19:28.16	188.00	36.47	-44.4	-45.5	19.6	0.00e+00	0	43	0	534773760	60	4075
2026-01-27 10:19:29.17	188.19	36.69	-44.4	-45.5	19.6	0.00e+00	0	42	0	537919488	60	4053
2026-01-27 10:19:30.17	188.37	36.90	-44.3	-45.4	19.7	0.00e+00	0	43	0	541065216	60	4017
2026-01-27 10:19:31.18	188.56	37.12	-44.5	-45.5	19.5	0.00e+00	0	43	0	543162368	60	4084
2026-01-27 10:19:32.18	188.75	37.33	-44.6	-45.7	19.4	0.00e+00	0	43	0	547356672	60	4157
2026-01-27 10:19:33.19	188.95	37.55	-44.7	-45.8	19.4	0.00e+00	0	43	0	550502400	60	4194
2026-01-27 10:19:34.19	189.14	37.77	-44.7	-45.8	19.4	0.00e+00	0	43	0	553648128	60	4212
2026-01-27 10:19:35.20	189.34	37.99	-44.8	-45.9	19.2	0.00e+00	0	43	0	556793856	60	4251
2026-01-27 10:19:36.20	189.54	38.22	-44.8	-45.9	19.3	0.00e+00	0	43	0	559939584	60	4259
2026-01-27 10:19:37.21	189.75	38.44	-44.9	-46.0	19.1	0.00e+00	0	43	0	563085312	60	4314
2026-01-27 10:19:38.21	189.95	38.66	-44.8	-45.9	19.3	0.00e+00	0	43	0	566231040	60	4251
2026-01-27 10:19:39.21	190.16	38.89	-44.7	-45.8	19.3	0.00e+00	0	43	0	569376768	60	4204
2026-01-27 10:19:40.21	190.37	39.11	-44.5	-45.6	19.5	0.00e+00	0	43	0	572522496	60	4112
2026-01-27 10:19:41.22	190.59	39.34	-44.5	-45.5	19.6	0.00e+00	0	43	0	575668224	60	4095
2026-01-27 10:19:42.23	190.81	39.57	-44.3	-45.3	19.8	0.00e+00	0	43	0	578813952	60	3990
2026-01-27 10:19:43.24	191.03	39.80	-44.3	-45.3	19.8	0.00e+00	0	43	0	581959680	60	3977
2026-01-27 10:19:44.25	191.26	40.03	-44.2	-45.1	19.9	0.00e+00	0	43	0	585105408	60	3911
2026-01-27 10:19:45.25	191.48	40.26	-44.2	-45.2	19.9	0.00e+00	0	43	0	588251136	60	3923
2026-01-27 10:19:46.26	191.72	40.50	-44.2	-45.1	19.9	0.00e+00	0	43	0	590348288	60	3909
2026-01-27 10:19:47.26	191.95	40.73	-44.3	-45.3	20.1	0.00e+00	0	43	0	593494016	59	4230
2026-01-27 10:19:48.27	192.19	40.97	-44.4	-45.4	20.0	0.00e+00	0	43	0	596639744	59	4255
2026-01-27 10:19:49.28	192.43	41.20	-44.5	-45.5	19.9	0.00e+00	0	43	0	599785472	59	4323
2026-01-27 10:19:50.27	192.67	41.43	-44.4	-45.4	20.0	0.00e+00	0	43	0	602931200	59	4279
2026-01-27 10:19:51.28	192.92	41.67	-44.5	-45.5	19.9	0.00e+00	0	43	0	606076928	59	4337
2026-01-27 10:19:52.29	193.17	41.91	-44.4	-45.4	20.0	0.00e+00	0	43	0	610271232	59	4286
2026-01-27 10:19:53.30	193.43	42.15	-44.4	-45.4	20.0	0.00e+00	0	43	0	613416960	59	4247
2026-01-27 10:19:54.30	193.69	42.39	-44.4	-45.4	20.0	0.00e+00	0	43	0	616562688	59	4268
2026-01-27 10:19:55.31	193.95	42.64	-44.6	-45.6	19.8	0.00e+00	0	43	0	619708416	59	4359
2026-01-27 10:19:56.31	194.22	42.88	-44.5	-45.5	19.6	0.00e+00	0	43	0	622854144	60	4061
2026-01-27 10:19:57.32	194.49	43.12	-44.8	-45.9	19.3	0.00e+00	0	43	0	625999872	60	4270
2026-01-27 10:19:58.32	194.76	43.36	-45.1	-46.2	19.0	0.00e+00	0	43	0	629145600	60	4420
2026-01-27 10:19:59.33	195.04	43.61	-45.3	-46.5	18.7	0.00e+00	0	43	0	632291328	61	4310
2026-01-27 10:20:00.34	195.33	43.86	-45.5	-46.7	18.6	0.00e+00	0	43	0	635437056	61	4393
2026-01-27 10:20:01.35	195.62	44.10	-45.7	-47.0	18.3	0.00e+00	0	43	0	637534208	62	4298
2026-01-27 10:20:02.36	195.91	44.35	-45.9	-47.1	18.2	0.00e+00	0	43	0	640679936	62	4385
2026-01-27 10:20:03.36	196.20	44.60	-46.3	-47.6	17.7	0.00e+00	0	43	0	643825664	63	4373
2026-01-27 10:20:04.37	196.51	44.85	-46.1	-47.5	17.7	0.00e+00	0	43	0	646971392	63	4308
2026-01-27 10:20:05.38	196.81	45.10	-46.1	-47.5	17.7	0.00e+00	0	43	0	650117120	63	4308
2026-01-27 10:20:06.38	197.12	45.35	-46.0	-47.3	17.9	0.00e+00	0	43	0	653262848	63	4211
2026-01-27 10:20:07.39	197.44	45.60	-46.0	-47.3	17.9	0.00e+00	0	43	0	657457152	63	4198
2026-01-27 10:20:08.39	197.76	45.85	-46.1	-47.5	17.8	0.00e+00	0	43	0	660602880	63	4314
2026-01-27 10:20:09.40	198.08	46.10	-46.4	-47.9	17.4	0.00e+00	0	43	0	663748608	63	4508
2026-01-27 10:20:10.41	198.42	46.36	-46.4	-47.8	17.5	0.00e+00	0	43	0	666894336	63	4460
2026-01-27 10:20:11.41	198.75	46.61	-45.8	-47.0	18.1	0.00e+00	0	43	0	670040064	63	4092
2026-01-27 10:20:12.42	199.09	46.86	-45.0	-46.1	18.9	0.00e+00	0	43	0	673185792	62	3903
2026-01-27 10:20:13.43	199.44	47.12	-44.6	-45.6	19.4	0.00e+00	0	43	0	676331520	61	3910
2026-01-27 10:20:14.44	199.80	47.37	-44.4	-45.4	19.6	0.00e+00	0	43	0	679477248	60	4017
2026-01-27 10:20:15.45	200.16	47.63	-44.1	-45.1	19.8	0.00e+00	0	43	0	682622976	60	3906
2026-01-27 10:20:16.45	200.52	47.88	-44.1	-45.0	20.0	0.00e+00	0	43	0	685768704	60	3865
2026-01-27 10:20:17.46	200.89	48.14	-43.4	-44.5	20.1	0.00e+00	0	43	0	687865856	59	3842
2026-01-27 10:20:18.47	201.27	48.40	-44.5	-45.6	19.9	0.00e+00	0	43	0	691011584	59	4342
2026-01-27 10:20:19.48	201.65	48.65	-44.5	-45.5	19.9	0.00e+00	0	43	0	694157312	59	4338
2026-01-27 10:20:20.49	202.04	48.91	-44.3	-45.3	19.8	0.00e+00	0	43	0	698351616	60	3978
2026-01-27 10:20:21.49	202.44	49.17	-44.6	-45.6	19.5	0.00e+00	0	43	0	701497344	60	4132
2026-01-27 10:20:22.50	202.84	49.42	-44.7	-45.7	19.5	0.00e+00	0	43	0	704643072	60	4188
2026-01-27 10:20:23.51	203.25	49.68	-44.8	-45.8	19.3	0.00e+00	0	43	0	707788800	60	4235
2026-01-27 10:20:24.52	203.67	49.94	-44.7	-45.7	19.4	0.00e+00	0	43	0	710934528	60	4193
2026-01-27 10:20:25.52	204.09	50.19	-44.6	-45.7	19.5	0.00e+00	0	43	0	714080256	60	4158
2026-01-27 10:20:26.53	204.52	50.45	-44.7	-45.8	19.4	0.00e+00	0	43	0	717225984	60	4219
2026-01-27 10:20:27.54	204.96	50.70	-44.8	-45.9	19.3	0.00e+00	0	43	0	720371712	60	4264
2026-01-27 10:20:28.55	205.40	50.96	-44.8	-45.9	19.4	0.00e+00	0	43	0	723517440	60	4263
2026-01-27 10:20:29.56	205.86	51.22	-44.6	-45.6	19.6	0.00e+00	0	43	0	726663168	60	4142
2026-01-27 10:20:30.57	206.32	51.47	-44.6	-45.7	19.5	0.00e+00	0	43	0	729808896	60	4162
2026-01-27 10:20:31.57	206.78	51.72	-44.6	-45.6	19.5	0.00e+00	0	43	0	732954624	60	4129
2026-01-27 10:20:32.58	207.26	51.98	-44.6	-45.7	19.5	0.00e+00	0	43	0	735051776	60	4161
2026-01-27 10:20:33.59	207.74	52.23	-44.2	-45.2	19.9	0.00e+00	0	43	0	739246080	60	3928
2026-01-27 10:20:34.60	208.24	52.48	-44.2	-45.2	20.3	0.00e+00	0	43	0	742391808	59	4178
2026-01-27 10:20:35.61	208.74	52.73	-44.0	-45.0	20.5	0.00e+00	0	43	0	745537536	59	4058
2026-01-27 10:20:36.62	209.25	52.98	-43.5	-44.4	20.9	0.00e+00	0	43	0	748683264	59	3823
2026-01-27 10:20:37.63	209.77	53.23	-43.4	-44.2	21.1	0.00e+00	0	43	0	751828992	58	3953
2026-01-27 10:20:38.64	210.30	53.48	-43.4	-44.3	21.1	0.00e+00	0	43	0	754974720	58	3986
2026-01-27 10:20:39.65	210.83	53.73	-43.7	-44.6	20.8	0.00e+00	0	43	0	758120448	58	4120
2026-01-27 10:20:40.65	211.37	53.97	-43.6	-44.5	20.9	0.00e+00	0	43	0	761266176	58	4095
2026-01-27 10:20:41.66	211.93	54.22	-43.5	-44.4	21.0	0.00e+00	0	43	0	764411904	58	4021
2026-01-27 10:20:42.67	212.49	54.46	-43.3	-44.2	21.2	0.00e+00	0	43	0	767557632	58	3942
2026-01-27 10:20:43.68	213.07	54.70	-43.0	-43.9	21.5	0.00e+00	0	43	0	770703360	58	3796
2026-01-27 10:20:44.68	213.65	54.94	-42.7	-43.6	21.7	0.00e+00	0	43	0	773849088	57	3877
2026-01-27 10:20:45.69	214.24	55.17	-42.9	-43.8	21.6	0.00e+00	0	43	0	776994816	57	3963
2026-01-27 10:20:46.70	214.84	55.41	-43.3	-44.2	21.2	0.00e+00	0	43	0	780140544	57	4151
2026-01-27 10:20:47.71	215.46	55.64	-43.6	-44.5	20.9	0.00e+00	0	43	0	783286272	57	4298
2026-01-27 10:20:48.72	216.08	55.87	-43.6	-44.5	20.8	0.00e+00	0	43	0	786432000	57	4297
2026-01-27 10:20:49.73	216.72	56.10	-43.4	-44.3	20.9	0.00e+00	0	43	0	789577728	57	4208
2026-01-27 10:20:50.73	217.35	56.33	-43.1	-44.0	21.1	0.00e+00	0	43	0	792723456	57	4080
2026-01-27 10:20:51.74	218.01	56.55	-43.1	-43.9	21.2	0.00e+00	0	43	0	795869184	57	4045
2026-01-27 10:20:52.75	218.67	56.77	-43.0	-43.9	21.3	0.00e+00	0	43	0	799014912	57	4024
2026-01-27 10:20:53.76	219.35	56.99	-42.9	-43.8	21.4	0.00e+00	0	43	0	802160640	57	3990
2026-01-27 10:20:54.77	220.03	57.20	-42.9	-43.8	21.3	0.00e+00	0	43	0	805306368	57	3960
2026-01-27 10:20:55.78	220.73	57.42	-42.7	-43.6	21.2	0.00e+00	0	43	0	808452096	57	3875
2026-01-27 10:20:56.79	221.44	57.63	-42.8	-43.7	21.3	0.00e+00	0	43	0	811597824	57	3940
2026-01-27 10:20:57.80	222.16	57.83	-42.6	-43.4	21.6	0.00e+00	0	43	0	814743552	57	3820
2026-01-27 10:20:58.81	222.89	58.03	-42.4	-43.2	22.0	0.00e+00	0	43	0	817889280	56	3923
2026-01-27 10:20:59.82	223.63	58.23	-42.1	-42.9	22.2	0.00e+00	0	43	0	821035008	56	3807
2026-01-27 10:21:00.83	224.38	58.43	-42.2	-43.0	21.9	0.00e+00	0	43	0	824180736	56	3829
2026-01-27 10:21:01.84	225.14	58.62	-42.4	-43.2	21.7	0.00e+00	0	43	0	827326464	56	3949
2026-01-27 10:21:02.85	225.92	58.80	-42.5	-43.4	21.7	0.00e+00	0	43	0	830472192	56	4009
2026-01-27 10:21:03.86	226.70	58.98	-42.4	-43.2	22.0	0.00e+00	0	43	0	833617920	56	3920
2026-01-27 10:21:04.87	227.49	59.16	-41.9	-42.7	22.4	0.00e+00	0	43	0	836763648	55	3923
2026-01-27 10:21:05.88	228.30	59.33	-41.9	-42.7	22.3	0.00e+00	0	43	0	839909376	55	3944
2026-01-27 10:21:06.89	229.11	59.50	-42.0	-42.7	22.4	0.00e+00	0	43	0	843055104	55	3958
2026-01-27 10:21:07.89	229.93	59.67	-42.1	-42.9	22.2	0.00e+00	0	43	0	846200832	55	4018
2026-01-27 10:21:08.90	230.77	59.82	-42.2	-43.0	22.1	0.00e+00	0	43	0	849346560	55	4098
2026-01-27 10:21:09.91	231.61	59.98	-42.3	-43.1	22.1	0.00e+00	0	43	0	852492288	55	4099
2026-01-27 10:21:10.91	232.46	60.12	-42.3	-43.1	22.0	0.00e+00	0	43	0	855638016	55	4139
2026-01-27 10:21:11.92	233.33	60.27	-42.3	-43.1	22.1	0.00e+00	0	43	0	858783744	55	4115
2026-01-27 10:21:12.93	234.20	60.40	-42.1	-42.9	22.3	0.00e+00	0	43	0	861929472	55	4009
2026-01-27 10:21:13.94	235.09	60.54	-41.9	-42.7	22.4	0.00e+00	0	43	0	865075200	55	3936
2026-01-27 10:21:14.95	235.98	60.66	-41.9	-42.6	22.5	0.00e+00	0	43	0	868220928	55	3911
2026-01-27 10:21:15.96	236.88	60.78	-42.1	-42.9	22.3	0.00e+00	0	43	0	871366656	55	4013
2026-01-27 10:21:16.97	237.79	60.90	-42.5	-43.3	21.9	0.00e+00	0	43	0	874512384	55	4215
2026-01-27 10:21:17.97	238.70	61.00	-42.5	-43.3	21.9	0.00e+00	0	43	0	877658112	55	4223
2026-01-27 10:21:18.98	239.63	61.11	-42.4	-43.2	22.1	0.00e+00	0	43	0	880803840	55	4165
2026-01-27 10:21:19.99	240.56	61.20	-42.2	-43.0	22.2	0.00e+00	0	43	0	883949568	55	4073
2026-01-27 10:21:21.01	241.51	61.29	-41.7	-42.5	22.6	0.00e+00	0	43	0	887095296	55	3840
2026-01-27 10:21:22.01	242.45	61.37	-41.9	-42.7	22.5	0.00e+00	0	43	0	890241024	55	3923
2026-01-27 10:21:23.02	243.40	61.45	-41.9	-42.7	22.5	0.00e+00	0	43	0	893386752	55	3918
2026-01-27 10:21:24.03	244.36	61.52	-41.7	-42.4	22.7	0.00e+00	0	43	0	896532480	55	3814
2026-01-27 10:21:25.04	245.32	61.58	-41.8	-42.6	22.6	0.00e+00	0	43	0	899678208	55	3881
2026-01-27 10:21:26.05	246.29	61.63	-41.9	-42.7	22.5	0.00e+00	0	43	0	902823936	55	3931
2026-01-27 10:21:27.06	247.26	61.68	-42.1	-42.9	22.3	0.00e+00	0	43	0	905969664	55	4034
2026-01-27 10:21:28.07	248.24	61.72	-42.0	-42.8	22.3	0.00e+00	0	43	0	909115392	55	3980
2026-01-27 10:21:29.07	249.20	61.76	-42.0	-42.8	22.3	0.00e+00	0	43	0	912261120	55	3965
2026-01-27 10:21:30.08	250.18	61.78	-42.0	-42.8	22.2	0.00e+00	0	43	0	915406848	55	3998
2026-01-27 10:21:31.09	251.17	61.80	-42.0	-42.8	22.4	0.00e+00	0	43	0	918552576	55	3985
2026-01-27 10:21:32.10	252.15	61.82	-41.7	-42.5	22.6	0.00e+00	0	43	0	921698304	55	3843
2026-01-27 10:21:33.11	253.13	61.82	-41.9	-42.7	22.5	0.00e+00	0	43	0	924844032	55	3940
2026-01-27 10:21:34.12	254.12	61.82	-42.4	-43.2	22.0	0.00e+00	0	43	0	927989760	55	4169
2026-01-27 10:21:35.13	255.10	61.81	-42.5	-43.4	21.8	0.00e+00	0	43	0	931135488	55	4261
2026-01-27 10:21:36.14	256.09	61.79	-42.2	-43.0	22.1	0.00e+00	0	43	0	934281216	55	4076
2026-01-27 10:21:37.15	257.07	61.77	-42.1	-42.9	22.2	0.00e+00	0	43	0	937426944	55	4022
2026-01-27 10:21:38.16	258.05	61.74	-42.7	-43.5	21.7	0.00e+00	0	43	0	940572672	55	4333
2026-01-27 10:21:39.17	259.02	61.70	-42.7	-43.6	21.7	0.00e+00	0	43	0	943718400	56	4126
2026-01-27 10:21:40.18	259.99	61.66	-42.5	-43.3	22.0	0.00e+00	0	43	0	946864128	56	3996
2026-01-27 10:21:41.19	260.96	61.61	-42.3	-43.1	22.2	0.00e+00	0	43	0	950009856	56	3911
2026-01-27 10:21:42.19	261.92	61.55	-42.0	-42.7	22.5	0.00e+00	0	43	0	953155584	56	3736
2026-01-27 10:21:43.20	262.88	61.49	-41.8	-42.5	22.6	0.00e+00	0	43	0	956301312	55	3862
2026-01-27 10:21:44.21	263.84	61.41	-41.5	-42.3	22.9	0.00e+00	0	43	0	959447040	55	3743
2026-01-27 10:21:45.22	264.78	61.33	-41.8	-42.5	22.6	0.00e+00	0	43	0	962592768	55	3864
2026-01-27 10:21:46.23	265.73	61.25	-42.3	-43.1	22.1	0.00e+00	0	43	0	965738496	55	4111
2026-01-27 10:21:47.24	266.66	61.16	-42.3	-43.1	22.2	0.00e+00	0	43	0	968884224	55	4113
2026-01-27 10:21:48.25	267.59	61.06	-42.4	-43.2	22.1	0.00e+00	0	43	0	972029952	55	4165
2026-01-27 10:21:49.26	268.52	60.95	-42.4	-43.2	22.1	0.00e+00	0	43	0	975175680	55	4178
2026-01-27 10:21:50.26	269.42	60.85	-42.2	-43.0	22.3	0.00e+00	0	43	0	978321408	55	4096
2026-01-27 10:21:51.27	270.33	60.73	-41.9	-42.7	22.4	0.00e+00	0	43	0	981467136	55	3938
2026-01-27 10:21:52.28	271.22	60.61	-42.2	-43.0	22.2	0.00e+00	0	43	0	984612864	55	4080
2026-01-27 10:21:53.28	272.10	60.48	-42.3	-43.1	22.1	0.00e+00	0	43	0	987758592	55	4143
2026-01-27 10:21:54.28	272.97	60.35	-42.3	-43.2	22.0	0.00e+00	0	43	0	990904320	55	4147
2026-01-27 10:21:55.29	273.85	60.21	-42.1	-42.9	22.2	0.00e+00	0	43	0	994050048	55	4045
2026-01-27 10:21:56.30	274.71	60.06	-42.1	-42.9	22.1	0.00e+00	0	43	0	997195776	55	4038
2026-01-27 10:21:57.31	275.56	59.91	-42.1	-42.9	22.3	0.00e+00	0	43	0	1000341504	55	4013
2026-01-27 10:21:58.31	276.39	59.76	-42.1	-42.9	22.3	0.00e+00	0	43	0	1003487232	55	4035
2026-01-27 10:21:59.32	277.22	59.60	-42.2	-43.0	22.2	0.00e+00	0	43	0	1006632960	55	4086
2026-01-27 10:22:00.33	278.04	59.43	-42.2	-43.0	22.3	0.00e+00	0	43	0	1009778688	55	4074
2026-01-27 10:22:01.33	278.84	59.26	-42.3	-43.1	22.1	0.00e+00	0	43	0	1012924416	55	4107
2026-01-27 10:22:02.34	279.64	59.09	-42.2	-43.0	22.2	0.00e+00	0	43	0	1016070144	55	4054
2026-01-27 10:22:03.35	280.43	58.91	-42.1	-42.9	22.3	0.00e+00	0	43	0	1019215872	55	4037
2026-01-27 10:22:04.36	281.21	58.72	-42.1	-42.9	22.3	0.00e+00	0	43	0	1022361600	55	4024
2026-01-27 10:22:05.37	281.98	58.54	-42.4	-43.2	22.1	0.00e+00	0	43	0	1025507328	55	4190
2026-01-27 10:22:06.37	282.73	58.35	-42.0	-43.1	22.0	0.00e+00	0	43	0	1028653056	55	4143
2026-01-27 10:22:07.38	283.47	58.15	-42.4	-43.2	22.1	0.00e+00	0	43	0	1031798784	55	4155
2026-01-27 10:22:08.39	284.21	57.95	-42.3	-43.1	22.0	0.00e+00	0	43	0	1034944512	55	4132
2026-01-27 10:22:09.40	284.93	57.75	-42.9	-43.8	21.5	0.00e+00	0	43	0	1038090240	56	4198
2026-01-27 10:22:10.41	285.64	57.54	-43.4	-44.4	21.2	0.00e+00	0	43	0	1041235968	57	4244
2026-01-27 10:22:11.41	286.34	57.33	-43.2	-44.1	21.4	0.00e+00	0	43	0	1044381696	57	4108
2026-01-27 10:22:12.42	287.03	57.12	-43.2	-44.1	21.4	0.00e+00	0	43	0	1047527424	57	4103
2026-01-27 10:22:13.43	287.71	56.91	-43.0	-43.9	21.5	0.00e+00	0	43	0	1050673152	57	4022
2026-01-27 10:22:14.44	288.38	56.69	-42.9	-43.8	21.7	0.00e+00	0	43	0	1053818880	57	3964
2026-01-27 10:22:15.45	289.04	56.46	-42.5	-43.3	22.1	0.00e+00	0	43	0	1056964608	56	3976
2026-01-27 10:22:16.45	289.69	56.24	-42.7	-43.5	21.9	0.00e+00	0	43	0	1060110336	56	4096
2026-01-27 10:22:17.46	290.33	56.02	-42.9	-43.8	21.7	0.00e+00	0	43	0	1063256064	56	4211
2026-01-27 10:22:18.47	290.95	55.79	-43.1	-43.9	21.6	0.00e+00	0	43	0	1066401792	56	4274
2026-01-27 10:22:19.48	291.57	55.56	-42.9	-43.7	21.7	0.00e+00	0	43	0	1069547520	56	4192
2026-01-27 10:22:20.49	292.18	55.32	-43.1	-43.9	21.4	0.00e+00	0	43	0	1072693248	56	4280
2026-01-27 10:22:21.48	292.77	55.09	-43.3	-44.1	21.2	0.00e+00	0	43	0	1075838976	57	4139
2026-01-27 10:22:22.49	293.36	54.85	-43.4	-44.2	21.3	0.00e+00	0	43	0	1078984704	57	4188
2026-01-27 10:22:23.50	293.94	54.61	-43.5	-44.3	21.1	0.00e+00	0	43	0	1082130432	57	4234
2026-01-27 10:22:24.51	294.51	54.37	-43.9	-44.9	20.8	0.00e+00	0	43	0	1085276160	58	4252
2026-01-27 10:22:25.52	295.07	54.13	-44.3	-45.3	20.4	0.00e+00	0	43	0	1088421888	59	4215
2026-01-27 10:22:26.53	295.62	53.89	-44.2	-45.2	20.5	0.00e+00	0	43	0	1091567616	59	4169
2026-01-27 10:22:27.53	296.15	53.64	-44.1	-45.0	20.5	0.00e+00	0	43	0	1094713344	59	4090
2026-01-27 10:22:28.54	296.69	53.40	-44.2	-45.2	20.3	0.00e+00	0	43	0	1097859072	59	4174
2026-01-27 10:22:29.55	297.21	53.15	-44.2	-45.2	20.4	0.00e+00	0	43	0	1101004800	59	4164
2026-01-27 10:22:30.56	297.72	52.90	-44.0	-45.0	20.5	0.00e+00	0	43	0	1104150528	59	4052
2026-01-27 10:22:31.57	298.23	52.65	-43.9	-44.8	20.8	0.00e+00	0	43	0	1107296256	59	3974
2026-01-27 10:22:32.57	298.72	52.40	-44.1	-45.1	20.6	0.00e+00	0	43	0	1110441984	59	4117
2026-01-27 10:22:33.58	299.21	52.15	-44.6	-45.6	20.2	0.00e+00	0	43	0	1113587712	59	4360
2026-01-27 10:22:34.59	299.69	51.89	-44.3	-45.3	20.3	0.00e+00	0	43	0	1116733440	59	4219
2026-01-27 10:22:35.60	300.17	51.64	-44.1	-45.1	20.5	0.00e+00	0	43	0	1119879168	59	4105
2026-01-27 10:22:36.61	300.63	51.39	-44.2	-45.1	20.3	0.00e+00	0	43	0	1123024896	59	4125
2026-01-27 10:22:37.61	301.09	51.14	-44.3	-45.3	20.3	0.00e+00	0	43	0	1126170624	59	4223
2026-01-27 10:22:38.62	301.54	50.88	-44.3	-45.3	20.3	0.00e+00	0	43	0	1129316352	59	4220
2026-01-27 10:22:39.63	301.98	50.63	-44.3	-45.3	20.4	0.00e+00	0	43	0	1132462080	59	4216
2026-01-27 10:22:40.64	302.41	50.37	-44.5	-45.5	20.1	0.00e+00	0	43	0	1135607808	59	4334
2026-01-27 10:22:41.64	302.84	50.12	-45.1	-46.2	19.2	0.00e+00	0	43	0	1138753536	60	4392
2026-01-27 10:22:42.65	303.26	49.86	-46.0	-47.3	18.3	0.00e+00	0	43	0	1141899264	62	4446
2026-01-27 10:22:43.66	303.67	49.60	-46.1	-47.4	18.1	0.00e+00	0	43	0	1145044992	62	4497
2026-01-27 10:22:44.67	304.08	49.35	-45.8	-47.0	17.8	0.00e+00	0	43	0	1148190720	62	4333
2026-01-27 10:22:45.68	304.48	49.09	-45.5	-46.7	18.1	0.00e+00	0	43	0	1151336448	62	4175
2026-01-27 10:22:46.68	304.87	48.84	-45.0	-46.1	19.0	0.00e+00	0	43	0	1154482176	62	3894
2026-01-27 10:22:47.69	305.26	48.58	-44.6	-45.6	19.6	0.00e+00	0	43	0	1157627904	61	3891
2026-01-27 10:22:48.70	305.64	48.33	-44.3	-45.3	20.0	0.00e+00	0	43	0	1160773632	60	3991
2026-01-27 10:22:49.71	306.01	48.07	-44.9	-46.0	19.4	0.00e+00	0	43	0	1163919360	60	4306
2026-01-27 10:22:50.71	306.38	47.82	-45.6	-46.9	18.6	0.00e+00	0	43	0	1167065088	61	4494
2026-01-27 10:22:51.72	306.74	47.56	-45.9	-47.1	18.2	0.00e+00	0	43	0	1170210816	62	4385
2026-01-27 10:22:52.73	307.10	47.31	-45.6	-46.8	18.6	0.00e+00	0	43	0	1173356544	62	4242
2026-01-27 10:22:53.74	307.45	47.05	-45.5	-46.7	18.8	0.00e+00	0	43	0	1176502272	62	4153
2026-01-27 10:22:54.74	307.79	46.80	-45.4	-46.5	19.0	0.00e+00	0	43	0	1179648000	62	4074
2026-01-27 10:22:55.75	308.13	46.55	-44.9	-46.0	19.5	0.00e+00	0	43	0	1182793728	61	4053
2026-01-27 10:22:56.76	308.47	46.29	-44.7	-45.7	19.7	0.00e+00	0	43	0	1185939456	61	3954
2026-01-27 10:22:57.76	308.80	46.04	-44.5	-45.4	19.9	0.00e+00	0	43	0	1189085184	60	4047
2026-01-27 10:22:58.77	309.12	45.79	-44.4	-45.4	19.8	0.00e+00	0	43	0	1192230912	60	4028
2026-01-27 10:22:59.78	309.44	45.54	-45.1	-46.2	19.1	0.00e+00	0	43	0	1195376640	60	4397
2026-01-27 10:23:00.79	309.75	45.29	-45.9	-47.1	18.0	0.00e+00	0	43	0	1198522368	62	4370
2026-01-27 10:23:01.80	310.06	45.04	-46.1	-47.4	17.8	0.00e+00	0	43	0	1201668096	62	4512
2026-01-27 10:23:02.81	310.37	44.79	-46.1	-47.3	18.1	0.00e+00	0	43	0	1204813824	62	4472
2026-01-27 10:23:03.81	310.67	44.54	-46.0	-47.3	18.0	0.00e+00	0	43	0	1207959552	62	4459
2026-01-27 10:23:04.83	310.97	44.29	-45.9	-47.1	18.2	0.00e+00	0	43	0	1211105280	62	4391
2026-01-27 10:23:05.83	311.25	44.05	-45.5	-46.7	18.7	0.00e+00	0	43	0	1214251008	62	4160
2026-01-27 10:23:06.84	311.54	43.80	-45.1	-46.2	19.1	0.00e+00	0	43	0	1217396736	62	3924
2026-01-27 10:23:07.85	311.82	43.56	-44.7	-45.7	19.5	0.00e+00	0	43	0	1220542464	61	3938
2026-01-27 10:23:08.86	312.10	43.31	-44.6	-45.6	19.7	0.00e+00	0	43	0	1223688192	61	3874
2026-01-27 10:23:09.86	312.37	43.07	-44.2	-45.1	20.1	0.00e+00	0	43	0	1226833920	60	3906
2026-01-27 10:23:10.87	312.64	42.83	-44.3	-45.3	20.3	0.00e+00	0	43	0	1229979648	59	4209
2026-01-27 10:23:11.88	312.91	42.58	-44.5	-45.4	20.2	0.00e+00	0	43	0	1233125376	59	4279
2026-01-27 10:23:12.89	313.17	42.34	-44.7	-45.7	19.9	0.00e+00	0	43	0	1237319680	59	4397
2026-01-27 10:23:13.90	313.43	42.10	-44.7	-45.7	19.4	0.00e+00	0	42	0	1239416832	60	4158
2026-01-27 10:23:14.90	313.68	41.87	-44.8	-45.9	19.1	0.00e+00	0	43	0	1242562560	60	4267
2026-01-27 10:23:15.91	313.93	41.63	-44.8	-45.9	19.2	0.00e+00	0	43	0	1245708288	60	4249
2026-01-27 10:23:16.91	314.18	41.39	-44.6	-45.6	19.5	0.00e+00	0	43	0	1248854016	60	4103
2026-01-27 10:23:17.91	314.42	41.16	-44.3	-45.3	20.0	0.00e+00	0	43	0	1251999744	59	4219
2026-01-27 10:23:18.92	314.66	40.92	-43.9	-44.8	20.3	0.00e+00	0	43	0	1255145472	59	3961
2026-01-27 10:23:19.93	314.90	40.69	-44.0	-44.9	20.2	0.00e+00	0	43	0	1258291200	59	4029
2026-01-27 10:23:20.93	315.13	40.46	-44.4	-45.3	19.9	0.00e+00	0	43	0	1261436928	59	4237
2026-01-27 10:23:21.94	315.36	40.22	-44.6	-45.6	19.5	0.00e+00	0	43	0	1264582656	60	4124
2026-01-27 10:23:22.95	315.59	39.99	-44.8	-45.9	19.3	0.00e+00	0	43	0	1267728384	60	4261
2026-01-27 10:23:23.96	315.81	39.76	-45.0	-46.1	19.1	0.00e+00	0	43	0	1270874112	60	4351
2026-01-27 10:23:24.97	316.03	39.53	-45.1	-46.2	19.0	0.00e+00	0	43	0	1274019840	60	4402
2026-01-27 10:23:25.98	316.25	39.30	-45.1	-46.2	18.9	0.00e+00	0	43	0	1277165568	60	4409
2026-01-27 10:23:26.99	316.47	39.08	-45.0	-46.1	18.9	0.00e+00	0	43	0	1281359872	60	4381
2026-01-27 10:23:27.99	316.68	38.85	-45.1	-46.2	18.9	0.00e+00	0	43	0	1284505600	60	4414
2026-01-27 10:23:29.00	316.89	38.63	-45.0	-46.2	18.9	0.00e+00	0	43	0	1286602752	60	4401
2026-01-27 10:23:30.01	317.09	38.40	-45.0	-46.2	19.0	0.00e+00	0	43	0	1289748480	60	4399
2026-01-27 10:23:31.02	317.30	38.18	-44.7	-45.7	19.5	0.00e+00	0	43	0	1292894208	60	4189
2026-01-27 10:23:32.02	317.50	37.96	-44.6	-45.6	19.6	0.00e+00	0	43	0	1296039936	60	4121
2026-01-27 10:23:33.03	317.69	37.74	-44.5	-45.6	19.6	0.00e+00	0	43	0	1299185664	60	4108
2026-01-27 10:23:34.04	317.89	37.52	-44.1	-45.1	20.0	0.00e+00	0	43	0	1302331392	60	3894
2026-01-27 10:23:35.05	318.08	37.30	-44.3	-45.3	20.2	0.00e+00	0	43	0	1305477120	59	4213
2026-01-27 10:23:36.05	318.27	37.09	-44.3	-45.3	20.2	0.00e+00	0	43	0	1308622848	59	4227
2026-01-27 10:23:37.06	318.46	36.87	-44.2	-45.1	20.3	0.00e+00	0	43	0	1311768576	59	4133
2026-01-27 10:23:38.07	318.65	36.66	-44.1	-45.1	20.3	0.00e+00	0	43	0	1314914304	59	4107
2026-01-27 10:23:39.07	318.83	36.44	-44.4	-45.4	20.0	0.00e+00	0	43	0	1318060032	59	4270
2026-01-27 10:23:40.07	319.01	36.23	-44.7	-45.8	19.7	0.00e+00	0	43	0	1321205760	59	4476
2026-01-27 10:23:41.08	319.19	36.02	-44.5	-45.6	19.6	0.00e+00	0	43	0	1324351488	60	4103
2026-01-27 10:23:42.09	319.36	35.81	-44.3	-45.4	19.8	0.00e+00	0	43	0	1328545792	60	4008
2026-01-27 10:23:43.10	319.54	35.60	-44.0	-45.0	20.1	0.00e+00	0	43	0	1331691520	60	3844
2026-01-27 10:23:44.10	319.71	35.39	-44.1	-45.0	20.4	0.00e+00	0	43	0	1333788672	59	4091
2026-01-27 10:23:45.11	319.88	35.18	-43.7	-44.7	20.7	0.00e+00	0	43	0	1336934400	59	3914
2026-01-27 10:23:46.12	320.05	34.98	-43.8	-44.7	20.7	0.00e+00	0	43	0	1340080128	59	3925
2026-01-27 10:23:47.12	320.21	34.77	-43.7	-44.7	20.7	0.00e+00	0	43	0	1343225856	59	3914
2026-01-27 10:23:48.13	320.38	34.57	-43.4	-44.2	21.0	0.00e+00	0	43	0	1346371584	58	3948
2026-01-27 10:23:49.14	320.54	34.37	-43.4	-44.2	21.1	0.00e+00	0	43	0	1349517312	58	3953
2026-01-27 10:23:50.15	320.70	34.16	-43.7	-44.6	20.8	0.00e+00	0	43	0	1352663040	58	4106
2026-01-27 10:23:51.15	320.86	33.97	-43.9	-44.9	20.5	0.00e+00	0	43	0	1355808768	58	4259
2026-01-27 10:23:52.16	321.01	33.77	-44.1	-45.0	20.4	0.00e+00	0	43	0	1358954496	58	4330
2026-01-27 10:23:53.16	321.17	33.57	-44.2	-45.2	20.2	0.00e+00	0	43	0	1362100224	58	4397
2026-01-27 10:23:54.17	321.32	33.37	-44.3	-45.3	20.1	0.00e+00	0	43	0	1365245952	59	4215
2026-01-27 10:23:55.17	321.47	33.18	-44.2	-45.2	20.1	0.00e+00	0	43	0	1368391680	59	4176
2026-01-27 10:23:56.18	321.62	32.98	-44.1	-45.1	20.3	0.00e+00	0	43	0	1371537408	59	4108
2026-01-27 10:23:57.19	321.76	32.78	-43.9	-44.9	20.5	0.00e+00	0	43	0	1375731712	59	4009
2026-01-27 10:23:58.20	321.91	32.59	-43.9	-44.8	20.4	0.00e+00	0	43	0	1378877440	59	4002
2026-01-27 10:23:59.20	322.05	32.40	-43.6	-44.5	20.7	0.00e+00	0	43	0	1380974592	59	3849
2026-01-27 10:24:00.21	322.20	32.21	-43.3	-44.2	21.0	0.00e+00	0	43	0	1384120320	58	3915
2026-01-27 10:24:01.22	322.34	32.02	-43.2	-44.1	21.1	0.00e+00	0	43	0	1387266048	58	3882
2026-01-27 10:24:02.23	322.48	31.83	-43.2	-44.1	21.0	0.00e+00	0	43	0	1390411776	58	3903
2026-01-27 10:24:03.24	322.61	31.64	-43.0	-43.8	21.3	0.00e+00	0	43	0	1393557504	58	3775
2026-01-27 10:24:04.25	322.75	31.45	-42.7	-43.6	21.5	0.00e+00	0	43	0	1396703232	57	3879
2026-01-27 10:24:05.26	322.89	31.27	-42.8	-43.6	21.5	0.00e+00	0	43	0	1399848960	57	3895
2026-01-27 10:24:06.27	323.02	31.08	-42.8	-43.7	21.4	0.00e+00	0	43	0	1402994688	57	3928
2026-01-27 10:24:07.27	323.15	30.90	-42.7	-43.6	21.5	0.00e+00	0	43	0	1406140416	57	3879
2026-01-27 10:24:08.28	323.28	30.71	-42.7	-43.6	21.5	0.00e+00	0	43	0	1409286144	57	3881
2026-01-27 10:24:09.29	323.41	30.53	-42.8	-43.7	21.5	0.00e+00	0	43	0	1413480448	57	3924
2026-01-27 10:24:10.30	323.54	30.35	-42.8	-43.6	21.5	0.00e+00	0	43	0	1416626176	57	3900
2026-01-27 10:24:11.31	323.66	30.17	-42.8	-43.6	21.5	0.00e+00	0	43	0	1419771904	57	3898
2026-01-27 10:24:12.32	323.79	29.99	-42.7	-43.5	21.6	0.00e+00	0	43	0	1422917632	57	3860
2026-01-27 10:24:13.33	323.91	29.81	-42.7	-43.6	21.5	0.00e+00	0	43	0	1426063360	57	3887
2026-01-27 10:24:14.33	324.03	29.64	-42.9	-43.7	21.4	0.00e+00	0	43	0	1428160512	57	3950
2026-01-27 10:24:15.34	324.15	29.46	-42.9	-43.8	21.4	0.00e+00	0	43	0	1431306240	57	3963
2026-01-27 10:24:16.34	324.27	29.29	-42.9	-43.8	21.4	0.00e+00	0	43	0	1434451968	57	3975
2026-01-27 10:24:17.35	324.39	29.11	-42.9	-43.8	21.4	0.00e+00	0	43	0	1437597696	57	3970
2026-01-27 10:24:18.36	324.51	28.94	-42.9	-43.8	21.3	0.00e+00	0	43	0	1440743424	57	3965
2026-01-27 10:24:19.37	324.62	28.77	-42.9	-43.7	21.3	0.00e+00	0	43	0	1443889152	57	3952
2026-01-27 10:24:20.37	324.74	28.60	-43.0	-43.8	21.3	0.00e+00	0	43	0	1447034880	57	4004
2026-01-27 10:24:21.37	324.85	28.43	-43.0	-43.9	21.2	0.00e+00	0	43	0	1450180608	57	4030
2026-01-27 10:24:22.39	324.96	28.26	-43.0	-43.9	21.2	0.00e+00	0	43	0	1454374912	57	4025
2026-01-27 10:24:23.40	325.07	28.09	-43.1	-44.0	21.1	0.00e+00	0	43	0	1457520640	57	4066
2026-01-27 10:24:24.40	325.18	27.92	-43.0	-43.9	21.2	0.00e+00	0	43	0	1460666368	57	4042
2026-01-27 10:24:25.41	325.29	27.75	-42.8	-43.7	21.4	0.00e+00	0	43	0	1463812096	57	3918
2026-01-27 10:24:26.42	325.40	27.59	-42.7	-43.6	21.5	0.00e+00	0	43	0	1466957824	57	3891
2026-01-27 10:24:27.43	325.51	27.42	-42.6	-43.5	21.6	0.00e+00	0	43	0	1470103552	57	3847
2026-01-27 10:24:28.44	325.61	27.26	-42.5	-43.3	21.7	0.00e+00	0	43	0	1473249280	57	3777
2026-01-27 10:24:29.44	325.72	27.10	-42.2	-43.1	21.9	0.00e+00	0	43	0	1475346432	56	3876
2026-01-27 10:24:30.45	325.82	26.93	-42.1	-42.9	22.0	0.00e+00	0	43	0	1478492160	56	3817
2026-01-27 10:24:31.46	325.92	26.77	-42.1	-43.0	21.9	0.00e+00	0	43	0	1481637888	56	3827
2026-01-27 10:24:32.47	326.03	26.61	-42.1	-42.9	21.9	0.00e+00	0	43	0	1484783616	56	3818
2026-01-27 10:24:33.48	326.13	26.45	-42.2	-43.1	21.8	0.00e+00	0	43	0	1487929344	56	3878
2026-01-27 10:24:34.49	326.23	26.29	-42.1	-42.9	22.0	0.00e+00	0	43	0	1492123648	56	3810
2026-01-27 10:24:35.49	326.33	26.13	-42.0	-42.9	22.1	0.00e+00	0	43	0	1495269376	56	3782
2026-01-27 10:24:36.50	326.42	25.98	-41.9	-42.7	22.1	0.00e+00	0	43	0	1498415104	55	3930
2026-01-27 10:24:37.51	326.52	25.82	-41.9	-42.7	22.2	0.00e+00	0	43	0	1501560832	55	3919
2026-01-27 10:24:38.52	326.62	25.66	-41.9	-42.7	22.1	0.00e+00	0	43	0	1504706560	55	3942
2026-01-27 10:24:39.53	326.71	25.51	-41.8	-42.6	22.2	0.00e+00	0	43	0	1507852288	55	3912
2026-01-27 10:24:40.54	326.81	25.36	-41.8	-42.6	22.2	0.00e+00	0	43	0	1510998016	55	3901
2026-01-27 10:24:41.55	326.90	25.20	-41.8	-42.6	22.2	0.00e+00	0	43	0	1514143744	55	3887
2026-01-27 10:24:42.55	326.99	25.05	-41.9	-42.7	22.1	0.00e+00	0	43	0	1517289472	55	3940
2026-01-27 10:24:43.56	327.08	24.90	-41.8	-42.6	22.2	0.00e+00	0	43	0	1520435200	55	3907
2026-01-27 10:24:44.57	327.18	24.75	-41.9	-42.7	22.1	0.00e+00	0	43	0	1522532352	55	3926
2026-01-27 10:24:45.57	327.26	24.60	-42.0	-42.8	22.0	0.00e+00	0	43	0	1525678080	55	3965
2026-01-27 10:24:46.59	327.35	24.45	-42.0	-42.9	21.9	0.00e+00	0	43	0	1529872384	55	4010
2026-01-27 10:24:47.59	327.44	24.30	-42.2	-43.0	21.9	0.00e+00	0	43	0	1533018112	55	4063
2026-01-27 10:24:48.60	327.53	24.15	-42.3	-43.1	21.7	0.00e+00	0	43	0	1536163840	55	4145
2026-01-27 10:24:49.61	327.62	24.01	-42.3	-43.1	21.7	0.00e+00	0	43	0	1539309568	55	4140
2026-01-27 10:24:50.62	327.70	23.86	-42.3	-43.1	21.8	0.00e+00	0	43	0	1542455296	55	4120
2026-01-27 10:24:51.62	327.79	23.72	-42.3	-43.2	21.7	0.00e+00	0	43	0	1545601024	55	4146
2026-01-27 10:24:52.63	327.87	23.57	-42.5	-43.3	21.6	0.00e+00	0	43	0	1548746752	55	4230
2026-01-27 10:24:53.64	327.96	23.43	-42.6	-43.4	21.5	0.00e+00	0	43	0	1551892480	55	4277
2026-01-27 10:24:54.65	328.04	23.28	-42.5	-43.4	21.5	0.00e+00	0	43	0	1555038208	55	4267
2026-01-27 10:24:55.66	328.12	23.14	-42.6	-43.5	21.3	0.00e+00	0	43	0	1558183936	55	4326
2026-01-27 10:24:56.67	328.21	23.00	-42.7	-43.6	21.4	0.00e+00	0	43	0	1561329664	55	4343
2026-01-27 10:24:57.68	328.29	22.86	-42.7	-43.6	21.3	0.00e+00	0	43	0	1564475392	55	4347
2026-01-27 10:24:58.69	328.37	22.72	-42.6	-43.5	21.4	0.00e+00	0	43	0	1567621120	55	4305
2026-01-27 10:24:59.69	328.45	22.58	-42.7	-43.6	21.2	0.00e+00	0	43	0	1570766848	55	4361
2026-01-27 10:25:00.70	328.53	22.44	-42.6	-43.5	21.3	0.00e+00	0	43	0	1573912576	55	4317
2026-01-27 10:25:01.71	328.60	22.30	-42.7	-43.6	21.1	7.00e-07	0	43	0	1577058304	55	4354
2026-01-27 10:25:02.71	328.68	22.17	-42.7	-43.5	21.2	0.00e+00	0	43	0	1580204032	56	4097
2026-01-27 10:25:03.73	328.76	22.03	-42.7	-43.6	21.1	0.00e+00	0	43	0	1583349760	56	4132
2026-01-27 10:25:04.74	328.84	21.89	-42.7	-43.6	21.1	0.00e+00	0	43	0	1586495488	56	4134
2026-01-27 10:25:05.74	328.91	21.76	-42.7	-43.6	21.1	0.00e+00	0	43	0	1589641216	56	4106
2026-01-27 10:25:06.75	328.99	21.62	-42.8	-43.7	21.0	0.00e+00	0	43	0	1592786944	56	4183
2026-01-27 10:25:07.76	329.06	21.49	-42.8	-43.8	21.0	0.00e+00	0	43	0	1595932672	56	4204
2026-01-27 10:25:08.77	329.14	21.36	-42.8	-43.7	21.1	0.00e+00	0	43	0	1599078400	56	4152
2026-01-27 10:25:09.78	329.21	21.22	-42.8	-43.7	21.1	0.00e+00	0	43	0	1602224128	56	4177
2026-01-27 10:25:10.79	329.28	21.09	-42.6	-43.5	21.3	0.00e+00	0	43	0	1605369856	56	4087
2026-01-27 10:25:11.80	329.36	20.96	-42.7	-43.5	21.3	0.00e+00	0	43	0	1608515584	56	4089
2026-01-27 10:25:12.81	329.43	20.83	-42.5	-43.4	21.5	0.00e+00	0	43	0	1611661312	56	4026
2026-01-27 10:25:13.81	329.50	20.70	-42.3	-43.2	21.6	0.00e+00	0	43	0	1614807040	56	3923
2026-01-27 10:25:14.82	329.57	20.57	-42.4	-43.2	21.6	0.00e+00	0	43	0	1617952768	56	3943
2026-01-27 10:25:15.83	329.64	20.44	-42.4	-43.2	21.6	0.00e+00	0	43	0	1621098496	56	3941
2026-01-27 10:25:16.83	329.71	20.31	-42.3	-43.2	21.6	0.00e+00	0	43	0	1624244224	56	3927
2026-01-27 10:25:17.84	329.78	20.19	-42.1	-42.9	21.9	0.00e+00	0	43	0	1627389952	56	3789
2026-01-27 10:25:18.85	329.85	20.06	-42.0	-42.8	21.9	0.00e+00	0	43	0	1630535680	56	3773
2026-01-27 10:25:19.86	329.91	19.93	-42.0	-42.8	21.9	0.00e+00	0	43	0	1633681408	55	3973
2026-01-27 10:25:20.87	329.98	19.81	-42.0	-42.9	21.8	0.00e+00	0	43	0	1636827136	55	4006
2026-01-27 10:25:21.88	330.05	19.68	-42.1	-43.0	21.7	0.00e+00	0	43	0	1639972864	55	4053
2026-01-27 10:25:22.88	330.11	19.56	-42.1	-43.0	21.7	0.00e+00	0	43	0	1643118592	55	4052
2026-01-27 10:25:23.89	330.18	19.43	-42.2	-43.0	21.6	0.00e+00	0	43	0	1646264320	55	4093
2026-01-27 10:25:24.90	330.25	19.31	-42.3	-43.1	21.6	0.00e+00	0	43	0	1649410048	55	4127
2026-01-27 10:25:25.91	330.31	19.19	-42.3	-43.2	21.5	0.00e+00	0	43	0	1652555776	55	4160
2026-01-27 10:25:26.92	330.38	19.07	-42.4	-43.2	21.4	0.00e+00	0	43	0	1655701504	55	4189
2026-01-27 10:25:27.93	330.44	18.94	-42.5	-43.3	21.4	0.00e+00	0	43	0	1658847232	55	4240
2026-01-27 10:25:28.93	330.50	18.82	-42.5	-43.3	21.4	0.00e+00	0	43	0	1661992960	55	4236
2026-01-27 10:25:29.94	330.57	18.70	-42.6	-43.5	21.2	0.00e+00	0	43	0	1665138688	55	4315
2026-01-27 10:25:30.94	330.63	18.58	-42.7	-43.6	21.2	0.00e+00	0	43	0	1668284416	55	4342
2026-01-27 10:25:31.95	330.69	18.46	-42.5	-43.4	21.3	0.00e+00	0	43	0	1671430144	55	4251
2026-01-27 10:25:32.96	330.75	18.35	-42.6	-43.5	21.2	0.00e+00	0	43	0	1674575872	55	4301
2026-01-27 10:25:33.97	330.81	18.23	-42.6	-43.4	21.2	0.00e+00	0	43	0	1677721600	55	4282
2026-01-27 10:25:34.98	330.87	18.11	-42.7	-43.5	21.2	0.00e+00	0	43	0	1680867328	55	4338
2026-01-27 10:25:35.99	330.93	17.99	-42.7	-43.5	21.2	0.00e+00	0	43	0	1684013056	55	4337
2026-01-27 10:25:36.99	330.99	17.88	-42.7	-43.6	21.1	0.00e+00	0	43	0	1687158784	55	4375
2026-01-27 10:25:38.00	331.05	17.76	-42.8	-43.7	21.1	0.00e+00	0	43	0	1690304512	56	4189
2026-01-27 10:25:39.01	331.11	17.64	-42.9	-43.8	21.0	0.00e+00	0	43	0	1693450240	56	4217
2026-01-27 10:25:40.01	331.17	17.53	-42.9	-43.8	21.0	0.00e+00	0	43	0	1696595968	56	4218
2026-01-27 10:25:41.02	331.23	17.41	-43.0	-43.9	20.9	0.00e+00	0	43	0	1699741696	56	4274
2026-01-27 10:25:42.03	331.29	17.30	-43.1	-44.0	20.8	0.00e+00	0	43	0	1702887424	56	4312
2026-01-27 10:25:43.04	331.34	17.19	-43.0	-44.0	20.8	0.00e+00	0	43	0	1706033152	56	4301
2026-01-27 10:25:44.05	331.40	17.07	-43.0	-43.9	20.9	0.00e+00	0	43	0	1709178880	56	4254
2026-01-27 10:25:45.05	331.46	16.96	-43.1	-44.0	20.8	0.00e+00	0	43	0	1712324608	56	4317
2026-01-27 10:25:46.06	331.51	16.85	-43.1	-44.0	20.8	0.00e+00	0	43	0	1715470336	56	4330
2026-01-27 10:25:47.07	331.57	16.74	-43.0	-43.9	20.9	0.00e+00	0	43	0	1718616064	56	4275
2026-01-27 10:25:48.08	331.63	16.63	-43.0	-43.9	20.8	0.00e+00	0	43	0	1721761792	56	4289
2026-01-27 10:25:49.08	331.68	16.52	-43.1	-44.0	20.8	0.00e+00	0	43	0	1724907520	56	4337
2026-01-27 10:25:50.09	331.73	16.41	-43.0	-43.9	20.9	0.00e+00	0	43	0	1728053248	56	4279
2026-01-27 10:25:51.10	331.79	16.30	-42.8	-44.0	20.8	0.00e+00	0	43	0	1731198976	56	4307
2026-01-27 10:25:52.11	331.84	16.19	-43.1	-44.0	20.8	0.00e+00	0	43	0	1734344704	56	4318
2026-01-27 10:25:53.11	331.90	16.08	-43.2	-44.1	20.6	0.00e+00	0	43	0	1737490432	56	4380
2026-01-27 10:25:54.12	331.95	15.97	-43.1	-44.1	20.7	0.00e+00	0	43	0	1740636160	57	4109
2026-01-27 10:25:55.13	332.00	15.86	-43.2	-44.1	20.7	0.00e+00	0	43	0	1743781888	57	4129
2026-01-27 10:25:56.13	332.06	15.76	-43.2	-44.2	20.6	0.00e+00	0	43	0	1746927616	57	4146
2026-01-27 10:25:57.14	332.11	15.65	-43.2	-44.1	20.6	0.00e+00	0	43	0	1750073344	56	4380
2026-01-27 10:25:58.15	332.16	15.54	-43.3	-44.3	20.5	0.00e+00	0	43	0	1753219072	57	4199
2026-01-27 10:25:59.16	332.21	15.44	-43.3	-44.3	20.5	0.00e+00	0	43	0	1756364800	57	4202
2026-01-27 10:26:00.16	332.26	15.33	-43.4	-44.3	20.4	0.00e+00	0	43	0	1759510528	57	4239
2026-01-27 10:26:01.17	332.31	15.23	-43.4	-44.4	20.4	0.00e+00	0	43	0	1762656256	57	4264
2026-01-27 10:26:02.18	332.36	15.12	-43.3	-44.3	20.4	0.00e+00	0	43	0	1765801984	57	4219
2026-01-27 10:26:03.18	332.41	15.02	-43.4	-44.4	20.3	0.00e+00	0	43	0	1768947712	57	4274
2026-01-27 10:26:04.19	332.46	14.91	-43.5	-44.5	20.3	0.00e+00	0	43	0	1772093440	57	4308
2026-01-27 10:26:05.20	332.51	14.81	-43.5	-44.5	20.2	0.00e+00	0	43	0	1775239168	57	4321
2026-01-27 10:26:06.21	332.56	14.71	-43.6	-44.6	20.2	0.00e+00	0	43	0	1778384896	57	4361
2026-01-27 10:26:07.21	332.61	14.61	-43.6	-44.6	20.2	0.00e+00	0	43	0	1781530624	57	4341
2026-01-27 10:26:08.21	332.66	14.50	-43.6	-44.6	20.2	0.00e+00	0	43	0	1784676352	57	4370
2026-01-27 10:26:09.22	332.71	14.40	-43.7	-44.7	20.1	0.00e+00	0	43	0	1787822080	57	4398
2026-01-27 10:26:10.22	332.76	14.30	-43.6	-44.6	20.2	0.00e+00	0	43	0	1790967808	57	4372
2026-01-27 10:26:11.22	332.80	14.20	-43.7	-44.7	20.1	0.00e+00	0	43	0	1794113536	57	4407
2026-01-27 10:26:12.23	332.85	14.10	-43.7	-44.7	20.1	0.00e+00	0	43	0	1797259264	57	4428
2026-01-27 10:26:13.24	332.90	14.00	-43.7	-44.8	20.1	0.00e+00	0	43	0	1800404992	58	4197
2026-01-27 10:26:14.25	332.95	13.90	-43.6	-44.7	20.1	0.00e+00	0	43	0	1803550720	58	4147
2026-01-27 10:26:15.26	332.99	13.80	-43.7	-44.7	20.0	0.00e+00	0	43	0	1806696448	58	4189
2026-01-27 10:26:16.26	333.04	13.70	-43.7	-44.7	20.1	0.00e+00	0	43	0	1809842176	58	4178
2026-01-27 10:26:17.27	333.09	13.60	-43.7	-44.7	20.1	0.00e+00	0	43	0	1812987904	57	4410
2026-01-27 10:26:18.28	333.13	13.51	-43.7	-44.7	20.1	0.00e+00	0	43	0	1816133632	57	4408
2026-01-27 10:26:19.29	333.18	13.41	-43.8	-44.8	20.0	0.00e+00	0	43	0	1819279360	58	4214
2026-01-27 10:26:20.30	333.22	13.31	-43.7	-44.7	20.0	0.00e+00	0	43	0	1822425088	58	4190
2026-01-27 10:26:21.31	333.27	13.21	-43.8	-44.8	20.0	0.00e+00	0	43	0	1825570816	58	4219
2026-01-27 10:26:22.31	333.31	13.12	-43.8	-44.9	19.9	0.00e+00	0	43	0	1828716544	58	4243
2026-01-27 10:26:23.32	333.36	13.02	-43.9	-44.9	19.9	0.00e+00	0	43	0	1831862272	58	4260
2026-01-27 10:26:24.33	333.40	12.92	-43.7	-44.7	20.1	0.00e+00	0	43	0	1835008000	58	4162
2026-01-27 10:26:25.34	333.45	12.83	-43.7	-44.8	20.0	0.00e+00	0	43	0	1838153728	58	4198
2026-01-27 10:26:26.35	333.49	12.73	-43.8	-44.8	19.9	0.00e+00	0	43	0	1841299456	58	4215
2026-01-27 10:26:27.35	333.53	12.64	-43.9	-44.9	19.9	0.00e+00	0	43	0	1844445184	58	4254
2026-01-27 10:26:28.36	333.58	12.54	-43.8	-44.8	20.0	0.00e+00	0	43	0	1847590912	58	4202
2026-01-27 10:26:29.36	333.62	12.45	-43.9	-44.9	19.8	0.00e+00	0	43	0	1850736640	58	4269
2026-01-27 10:26:30.37	333.66	12.36	-43.7	-44.8	20.0	0.00e+00	0	43	0	1853882368	58	4196
2026-01-27 10:26:31.38	333.70	12.26	-43.7	-44.8	19.9	0.00e+00	0	43	0	1857028096	58	4196
2026-01-27 10:26:32.39	333.75	12.17	-43.8	-44.8	19.9	0.00e+00	0	43	0	1860173824	58	4223
2026-01-27 10:26:33.40	333.79	12.08	-43.7	-44.7	20.0	0.00e+00	0	43	0	1863319552	58	4183
2026-01-27 10:26:34.41	333.83	11.98	-43.8	-44.8	19.9	0.00e+00	0	43	0	1866465280	58	4219
2026-01-27 10:26:35.41	333.87	11.89	-43.8	-44.8	19.8	0.00e+00	0	43	0	1869611008	58	4240
2026-01-27 10:26:36.42	333.91	11.80	-43.7	-44.7	19.9	0.00e+00	0	43	0	1872756736	58	4170
2026-01-27 10:26:37.43	333.95	11.71	-43.8	-44.8	19.8	0.00e+00	0	43	0	1875902464	58	4227
2026-01-27 10:26:38.44	334.00	11.62	-43.8	-44.9	19.8	0.00e+00	0	43	0	1879048192	58	4251
2026-01-27 10:26:39.45	334.04	11.53	-43.7	-44.8	19.9	0.00e+00	0	43	0	1882193920	58	4202
2026-01-27 10:26:40.46	334.08	11.44	-43.7	-44.8	19.8	0.00e+00	0	43	0	1885339648	58	4202
2026-01-27 10:26:41.46	334.12	11.35	-43.9	-44.9	19.7	0.00e+00	0	43	0	1888485376	58	4274
2026-01-27 10:26:42.47	334.16	11.26	-43.8	-44.8	19.8	0.00e+00	0	43	0	1891631104	58	4231
2026-01-27 10:26:43.48	334.20	11.17	-43.9	-44.9	19.7	0.00e+00	0	43	0	1894776832	58	4270
2026-01-27 10:26:44.49	334.24	11.08	-43.8	-44.9	19.8	0.00e+00	0	43	0	1897922560	58	4244
2026-01-27 10:26:45.50	334.28	10.99	-43.8	-44.8	19.7	0.00e+00	0	43	0	1901068288	58	4241
2026-01-27 10:26:46.51	334.32	10.90	-43.9	-45.0	19.6	0.00e+00	0	43	0	1904214016	58	4299
2026-01-27 10:26:47.51	334.35	10.81	-43.9	-44.9	19.6	0.00e+00	0	43	0	1907359744	58	4290
