passes_logs/2026/01/27/R3.2S_Murmansk/R3.2S_Murmansk__20260127_212721_NOAA_20_JPSS-1_rec.log

#Pass ID: 20260127_212721_NOAA 20 (JPSS-1)
#Satellite: NOAA 20 (JPSS-1)
#Configuration: NOAA 20
#almurnet v.1.7.20251203
#Start time: 2026-01-27 21:27:21

#Version: 2.2.20231116
#Station: R3.2S_Murmansk
#Location: 33.079688 lon 68.888172 lat
#TLE: 1 43013U 17073A   26027.31247158  .00000160  00000+0  97001-4 0  9994
#TLE: 2 43013  98.7647 328.1226 0000969  21.9986 338.1231 14.19541059424489

#Time	Az	El	Level	Level2	SNR	BER	BlckErr	Temp	State	Recorded	gain1	gain2
2026-01-27 21:27:21.88	18.37	2.01	-54.0	-69.0	3.8	1.49e+00	0	41	0	0	79	20411
2026-01-27 21:27:22.86	18.46	2.05	-54.0	-69.0	3.8	1.49e+00	0	41	104	0	78	21667
2026-01-27 21:27:23.83	18.55	2.10	-54.0	-69.0	3.8	1.49e+00	0	41	104	0	78	21551
2026-01-27 21:27:24.80	18.64	2.14	-54.0	-69.0	3.8	1.49e+00	0	41	104	0	78	21608
2026-01-27 21:27:25.77	18.73	2.19	-54.0	-69.0	3.8	1.49e+00	0	41	104	0	78	21571
2026-01-27 21:27:26.75	18.83	2.23	-54.0	-69.0	3.8	1.49e+00	0	41	104	0	78	21540
2026-01-27 21:27:27.72	18.92	2.28	-54.0	-68.9	3.8	1.49e+00	0	41	104	0	78	21495
2026-01-27 21:27:28.69	19.01	2.32	-54.1	-69.1	3.8	1.49e+00	0	41	104	0	78	21843
2026-01-27 21:27:29.66	19.10	2.37	-54.2	-69.1	3.8	1.49e+00	0	41	104	0	78	22000
2026-01-27 21:27:30.63	19.20	2.41	-54.2	-69.2	3.8	1.49e+00	0	41	104	0	78	22070
2026-01-27 21:27:31.61	19.29	2.46	-54.2	-69.2	3.8	1.49e+00	0	41	104	0	78	22066
2026-01-27 21:27:32.58	19.38	2.50	-54.2	-69.2	3.8	1.49e+00	0	41	104	0	78	22075
2026-01-27 21:27:33.55	19.48	2.55	-54.2	-69.2	3.8	1.49e+00	0	41	104	0	78	22078
2026-01-27 21:27:34.53	19.57	2.59	-54.2	-69.2	3.8	1.49e+00	0	41	104	0	78	22039
2026-01-27 21:27:35.50	19.67	2.64	-54.1	-69.1	3.8	1.49e+00	0	41	104	0	78	21963
2026-01-27 21:27:36.47	19.76	2.68	-54.1	-69.1	3.8	1.49e+00	0	41	104	0	78	21932
2026-01-27 21:27:37.44	19.86	2.73	-54.1	-69.1	3.8	1.49e+00	0	41	104	0	79	20679
2026-01-27 21:27:38.42	19.95	2.77	-54.0	-69.0	3.8	1.49e+00	0	41	104	0	79	20512
2026-01-27 21:27:39.39	20.05	2.82	-54.0	-69.0	3.8	1.49e+00	0	41	104	0	79	20382
2026-01-27 21:27:40.36	20.14	2.86	-54.0	-68.9	3.8	1.49e+00	0	42	104	0	79	20270
2026-01-27 21:27:41.33	20.24	2.91	-53.9	-68.9	3.8	1.49e+00	0	41	104	0	79	20144
2026-01-27 21:27:42.31	20.34	2.95	-53.8	-68.8	3.8	1.49e+00	0	41	104	0	79	19997
2026-01-27 21:27:43.28	20.43	3.00	-53.8	-68.8	3.8	1.49e+00	0	42	104	0	79	19859
2026-01-27 21:27:44.25	20.53	3.04	-53.7	-68.7	3.8	1.49e+00	0	42	104	0	79	19658
2026-01-27 21:27:45.23	20.63	3.09	-53.5	-68.5	3.8	1.49e+00	0	41	104	0	79	19280
2026-01-27 21:27:46.20	20.73	3.14	-53.4	-68.4	3.8	1.49e+00	0	42	104	0	78	20188
2026-01-27 21:27:47.17	20.82	3.18	-53.3	-68.3	3.8	1.49e+00	0	42	104	0	78	19941
2026-01-27 21:27:48.15	20.92	3.23	-53.2	-68.1	3.8	1.49e+00	0	42	104	0	78	19507
2026-01-27 21:27:49.12	21.02	3.27	-52.9	-67.8	3.8	1.49e+00	0	42	104	0	77	19980
2026-01-27 21:27:50.09	21.12	3.32	-52.5	-67.5	3.8	1.49e+00	0	42	104	0	77	19265
2026-01-27 21:27:51.07	21.22	3.36	-52.1	-66.8	3.8	1.49e+00	0	42	104	0	76	18744
2026-01-27 21:27:52.04	21.32	3.41	-51.9	-66.6	3.8	1.49e+00	0	42	104	0	75	19508
2026-01-27 21:27:53.01	21.42	3.45	-51.9	-66.7	3.8	1.49e+00	0	42	104	0	75	19647
2026-01-27 21:27:53.98	21.52	3.50	-51.9	-66.6	3.8	1.49e+00	0	42	104	0	75	19611
2026-01-27 21:27:54.96	21.62	3.54	-51.9	-66.6	3.8	1.49e+00	0	42	104	0	75	19597
2026-01-27 21:27:55.93	21.72	3.59	-51.9	-66.7	3.8	1.49e+00	0	42	104	0	75	19710
2026-01-27 21:27:56.90	21.82	3.63	-51.9	-66.7	3.8	1.49e+00	0	42	104	0	75	19703
2026-01-27 21:27:57.87	21.92	3.68	-51.9	-66.7	3.8	1.49e+00	0	42	104	0	75	19621
2026-01-27 21:27:58.84	22.02	3.73	-51.9	-66.7	3.8	1.49e+00	0	42	104	0	75	19663
2026-01-27 21:27:59.81	22.12	3.77	-51.9	-66.6	3.8	1.49e+00	0	42	104	0	75	19493
2026-01-27 21:28:00.78	22.23	3.82	-51.9	-66.6	3.8	1.49e+00	0	42	104	0	75	19506
2026-01-27 21:28:01.75	22.33	3.86	-51.9	-66.7	3.8	1.49e+00	0	42	104	0	75	19620
2026-01-27 21:28:02.72	22.43	3.91	-51.9	-66.6	3.8	1.49e+00	0	42	104	0	75	19575
2026-01-27 21:28:03.69	22.53	3.95	-51.9	-66.7	3.8	1.49e+00	0	42	104	0	75	19753
2026-01-27 21:28:04.67	22.64	4.00	-51.9	-66.7	3.8	1.49e+00	0	42	104	0	75	19801
2026-01-27 21:28:05.64	22.74	4.04	-51.9	-66.7	3.8	1.49e+00	0	42	104	0	75	19836
2026-01-27 21:28:06.61	22.84	4.09	-51.8	-66.6	3.8	1.49e+00	0	42	104	0	75	19587
2026-01-27 21:28:07.58	22.95	4.13	-51.8	-66.5	3.8	1.49e+00	0	42	104	0	75	19259
2026-01-27 21:28:08.55	23.05	4.18	-51.8	-66.1	3.8	1.49e+00	0	42	104	0	75	18346
2026-01-27 21:28:09.52	23.16	4.22	-51.8	-65.3	3.8	1.49e+00	0	42	104	0	75	16782
2026-01-27 21:28:10.49	23.26	4.27	-51.7	-64.4	4.0	1.49e+00	0	42	104	0	75	15131
2026-01-27 21:28:11.47	23.37	4.32	-51.7	-63.6	4.1	1.47e+00	0	42	0	0	75	13780
2026-01-27 21:28:12.44	23.47	4.36	-51.6	-62.4	4.5	1.31e+00	111	42	0	0	75	11992
2026-01-27 21:28:13.42	23.58	4.41	-51.5	-61.6	4.8	9.12e-01	0	42	0	2097152	75	10904
2026-01-27 21:28:14.39	23.69	4.45	-51.3	-60.1	5.6	6.06e-01	0	42	0	4194304	74	9803
2026-01-27 21:28:15.36	23.79	4.50	-51.2	-59.4	6.2	3.60e-01	0	42	0	5242880	74	8983
2026-01-27 21:28:16.33	23.90	4.54	-50.9	-57.6	7.8	1.22e-01	0	42	0	7340032	73	7795
2026-01-27 21:28:17.30	24.01	4.59	-50.6	-56.6	9.0	4.21e-02	0	42	0	9437184	73	6882
2026-01-27 21:28:18.27	24.11	4.63	-50.3	-55.5	10.0	1.33e-02	0	42	0	10485760	72	6462
2026-01-27 21:28:19.25	24.22	4.68	-50.0	-54.6	11.1	3.49e-03	0	42	0	12582912	71	6202
2026-01-27 21:28:20.22	24.33	4.72	-49.7	-53.9	11.8	5.94e-04	0	42	0	14680064	71	5720
2026-01-27 21:28:21.20	24.44	4.77	-49.7	-53.8	11.9	4.78e-04	0	42	0	16777216	71	5656
2026-01-27 21:28:22.17	24.55	4.82	-49.6	-53.8	11.9	2.89e-04	0	42	0	17825792	71	5631
2026-01-27 21:28:23.15	24.66	4.86	-49.9	-54.4	11.4	5.81e-04	0	42	0	19922944	71	5997
2026-01-27 21:28:24.12	24.77	4.91	-50.2	-55.2	10.4	1.75e-03	0	43	0	22020096	71	6638
2026-01-27 21:28:25.09	24.88	4.95	-50.7	-57.0	8.7	2.07e-02	0	43	0	24117248	71	8084
2026-01-27 21:28:26.06	24.99	5.00	-51.1	-59.0	6.7	1.07e-01	0	43	0	25165824	72	9663
2026-01-27 21:28:27.03	25.10	5.04	-51.5	-62.1	4.6	5.19e-01	0	43	0	27262976	73	12973
2026-01-27 21:28:28.00	25.21	5.09	-50.0	-54.6	11.1	3.32e-01	0	43	0	29360128	71	6151
2026-01-27 21:28:28.97	25.32	5.13	-51.4	-65.3	3.8	2.32e-01	0	43	104	30408704	73	18843
2026-01-27 21:28:29.94	25.43	5.18	-49.9	-54.2	11.6	1.22e+00	0	43	104	30408704	71	5921
2026-01-27 21:28:30.91	25.54	5.22	-47.4	-49.7	16.2	1.98e-05	0	43	0	31457280	66	4653
2026-01-27 21:28:31.89	25.66	5.27	-51.9	-64.4	4.0	2.04e-04	50	43	0	33554432	74	16004
2026-01-27 21:28:32.87	25.77	5.31	-47.9	-50.3	15.5	1.19e+00	0	43	0	33554432	67	4753
2026-01-27 21:28:33.84	25.88	5.36	-47.6	-50.0	15.9	0.00e+00	0	43	0	35651584	67	4578
2026-01-27 21:28:34.81	26.00	5.41	-47.5	-49.8	16.2	0.00e+00	0	43	0	37748736	67	4467
2026-01-27 21:28:35.78	26.11	5.45	-47.4	-49.7	16.3	0.00e+00	0	42	0	38797312	66	4682
2026-01-27 21:28:36.76	26.22	5.50	-47.4	-49.7	16.3	0.00e+00	0	43	0	40894464	66	4688
2026-01-27 21:28:37.73	26.34	5.54	-47.4	-49.6	16.5	0.00e+00	0	43	0	42991616	66	4621
2026-01-27 21:28:38.70	26.45	5.59	-47.4	-49.6	16.4	0.00e+00	0	43	0	45088768	66	4647
2026-01-27 21:28:39.67	26.57	5.63	-47.3	-49.5	16.5	0.00e+00	0	43	0	46137344	66	4590
2026-01-27 21:28:40.64	26.68	5.68	-47.4	-49.6	16.5	0.00e+00	0	43	0	48234496	66	4617
2026-01-27 21:28:41.62	26.80	5.72	-47.5	-49.8	16.3	0.00e+00	0	42	0	50331648	66	4728
2026-01-27 21:28:42.59	26.91	5.77	-47.6	-50.0	16.1	0.00e+00	0	43	0	52428800	66	4826
2026-01-27 21:28:43.56	27.03	5.81	-47.2	-49.4	16.7	0.00e+00	0	43	0	53477376	66	4510
2026-01-27 21:28:44.54	27.15	5.86	-47.3	-49.5	16.6	0.00e+00	0	42	0	55574528	66	4554
2026-01-27 21:28:45.51	27.26	5.90	-47.2	-49.3	16.8	0.00e+00	0	43	0	57671680	66	4491
2026-01-27 21:28:46.48	27.38	5.95	-47.4	-49.6	16.5	0.00e+00	0	43	0	58720256	66	4604
2026-01-27 21:28:47.45	27.50	5.99	-47.2	-49.4	16.8	0.00e+00	0	43	0	60817408	66	4497
2026-01-27 21:28:48.43	27.62	6.04	-47.1	-49.2	16.9	0.00e+00	0	43	0	62914560	66	4413
2026-01-27 21:28:49.40	27.74	6.08	-47.1	-49.2	17.0	0.00e+00	0	42	0	65011712	66	4399
2026-01-27 21:28:50.38	27.85	6.13	-47.0	-49.1	17.1	0.00e+00	0	43	0	66060288	66	4341
2026-01-27 21:28:51.35	27.97	6.17	-47.0	-49.1	17.0	0.00e+00	0	43	0	68157440	66	4361
2026-01-27 21:28:52.31	28.09	6.22	-47.1	-49.2	16.9	0.00e+00	0	43	0	70254592	66	4417
2026-01-27 21:28:53.29	28.21	6.26	-47.0	-49.1	17.1	0.00e+00	0	42	0	72351744	66	4358
2026-01-27 21:28:54.26	28.33	6.31	-47.2	-49.2	16.9	0.00e+00	0	43	0	73400320	66	4441
2026-01-27 21:28:55.24	28.45	6.35	-47.0	-49.1	17.1	0.00e+00	0	43	0	75497472	65	4603
2026-01-27 21:28:56.21	28.57	6.40	-47.0	-49.0	17.2	0.00e+00	0	43	0	77594624	65	4547
2026-01-27 21:28:57.19	28.70	6.44	-46.9	-48.8	17.3	0.00e+00	0	43	0	79691776	65	4478
2026-01-27 21:28:58.16	28.82	6.49	-46.9	-48.9	17.3	0.00e+00	0	43	0	80740352	65	4524
2026-01-27 21:28:59.13	28.94	6.53	-46.8	-48.7	17.4	0.00e+00	0	43	0	82837504	65	4416
2026-01-27 21:29:00.10	29.06	6.58	-46.7	-48.6	17.6	0.00e+00	0	43	0	84934656	65	4356
2026-01-27 21:29:01.07	29.18	6.62	-46.7	-48.5	17.6	0.00e+00	0	43	0	87031808	65	4332
2026-01-27 21:29:02.04	29.31	6.67	-46.8	-48.7	17.5	0.00e+00	0	43	0	88080384	65	4416
2026-01-27 21:29:03.01	29.43	6.71	-46.9	-48.8	17.4	0.00e+00	0	43	0	90177536	65	4468
2026-01-27 21:29:03.98	29.55	6.76	-46.7	-48.6	17.6	0.00e+00	0	43	0	92274688	65	4381
2026-01-27 21:29:04.96	29.68	6.80	-46.7	-48.6	17.6	0.00e+00	0	43	0	94371840	65	4371
2026-01-27 21:29:05.93	29.80	6.84	-46.6	-48.5	17.7	0.00e+00	0	43	0	95420416	65	4319
2026-01-27 21:29:06.90	29.93	6.89	-46.8	-48.7	17.5	0.00e+00	0	43	0	97517568	65	4419
2026-01-27 21:29:07.87	30.05	6.93	-46.7	-48.6	17.6	0.00e+00	0	43	0	99614720	65	4364
2026-01-27 21:29:08.84	30.18	6.98	-46.6	-48.5	17.7	0.00e+00	0	43	0	100663296	65	4313
2026-01-27 21:29:09.81	30.30	7.02	-46.8	-48.7	17.5	0.00e+00	0	43	0	102760448	65	4399
2026-01-27 21:29:10.78	30.43	7.07	-46.7	-48.6	17.6	0.00e+00	0	43	0	104857600	65	4346
2026-01-27 21:29:11.76	30.56	7.11	-46.7	-48.6	17.6	0.00e+00	0	43	0	106954752	65	4364
2026-01-27 21:29:12.73	30.68	7.16	-46.6	-48.4	17.9	0.00e+00	0	43	0	108003328	65	4252
2026-01-27 21:29:13.70	30.81	7.20	-46.6	-48.4	17.8	0.00e+00	0	43	0	110100480	65	4268
2026-01-27 21:29:14.67	30.94	7.24	-46.6	-48.4	17.8	0.00e+00	0	43	0	112197632	65	4289
2026-01-27 21:29:15.64	31.06	7.29	-46.5	-48.3	18.0	0.00e+00	0	43	0	114294784	64	4447
2026-01-27 21:29:16.61	31.19	7.33	-46.4	-48.2	18.0	0.00e+00	0	43	0	115343360	64	4439
2026-01-27 21:29:17.58	31.32	7.38	-46.5	-48.3	17.9	0.00e+00	0	43	0	117440512	64	4470
2026-01-27 21:29:18.55	31.45	7.42	-46.6	-48.4	17.8	0.00e+00	0	43	0	119537664	64	4527
2026-01-27 21:29:19.52	31.58	7.46	-46.6	-48.4	17.8	0.00e+00	0	43	0	121634816	64	4519
2026-01-27 21:29:20.49	31.71	7.51	-46.6	-48.4	17.8	0.00e+00	0	43	0	122683392	64	4528
2026-01-27 21:29:21.46	31.84	7.55	-46.7	-48.5	17.7	0.00e+00	0	43	0	124780544	64	4590
2026-01-27 21:29:22.44	31.97	7.60	-46.7	-48.5	17.7	0.00e+00	0	43	0	126877696	64	4598
2026-01-27 21:29:23.41	32.10	7.64	-46.6	-48.5	17.8	0.00e+00	0	43	0	128974848	64	4555
2026-01-27 21:29:24.38	32.23	7.68	-46.6	-48.5	17.8	0.00e+00	0	43	0	130023424	64	4548
2026-01-27 21:29:25.35	32.36	7.73	-46.5	-48.4	17.9	0.00e+00	0	43	0	132120576	64	4495
2026-01-27 21:29:26.32	32.50	7.77	-46.7	-48.5	17.8	0.00e+00	0	43	0	134217728	64	4578
2026-01-27 21:29:27.28	32.63	7.81	-46.6	-48.4	17.8	0.00e+00	0	43	0	136314880	64	4533
2026-01-27 21:29:28.25	32.76	7.86	-46.8	-48.7	17.6	0.00e+00	0	43	0	137363456	64	4679
2026-01-27 21:29:29.22	32.89	7.90	-46.6	-48.5	17.8	0.00e+00	0	43	0	139460608	64	4571
2026-01-27 21:29:30.20	33.03	7.94	-46.5	-48.2	18.0	0.00e+00	0	43	0	141557760	64	4436
2026-01-27 21:29:31.17	33.16	7.99	-46.5	-48.3	18.0	0.00e+00	0	43	0	142606336	64	4442
2026-01-27 21:29:32.14	33.30	8.03	-46.5	-48.3	17.9	0.00e+00	0	43	0	144703488	64	4489
2026-01-27 21:29:33.11	33.43	8.07	-46.5	-48.3	17.9	0.00e+00	0	43	0	146800640	64	4479
2026-01-27 21:29:34.08	33.57	8.12	-46.5	-48.3	17.9	0.00e+00	0	43	0	148897792	64	4470
2026-01-27 21:29:35.05	33.70	8.16	-46.6	-48.5	17.8	0.00e+00	0	43	0	149946368	64	4566
2026-01-27 21:29:36.02	33.84	8.20	-46.6	-48.4	17.8	0.00e+00	0	43	0	152043520	64	4537
2026-01-27 21:29:36.99	33.97	8.25	-46.6	-48.4	17.9	0.00e+00	0	43	0	154140672	64	4532
2026-01-27 21:29:37.97	34.11	8.29	-46.5	-48.4	17.9	0.00e+00	0	43	0	156237824	64	4496
2026-01-27 21:29:38.94	34.25	8.33	-46.5	-48.3	18.0	0.00e+00	0	43	0	157286400	64	4472
2026-01-27 21:29:39.91	34.38	8.37	-46.5	-48.3	18.0	0.00e+00	0	43	0	159383552	64	4472
2026-01-27 21:29:40.88	34.52	8.42	-46.7	-48.5	17.8	0.00e+00	0	43	0	161480704	64	4571
2026-01-27 21:29:41.86	34.66	8.46	-46.6	-48.5	17.8	0.00e+00	0	43	0	162529280	64	4559
2026-01-27 21:29:42.83	34.80	8.50	-46.7	-48.6	17.7	0.00e+00	0	43	0	164626432	64	4622
2026-01-27 21:29:43.80	34.94	8.55	-46.6	-48.4	17.9	0.00e+00	0	43	0	166723584	64	4536
2026-01-27 21:29:44.77	35.08	8.59	-46.7	-48.5	17.8	0.00e+00	0	43	0	168820736	64	4579
2026-01-27 21:29:45.75	35.22	8.63	-46.5	-48.3	18.0	0.00e+00	0	43	0	169869312	64	4486
2026-01-27 21:29:46.72	35.36	8.67	-46.7	-48.5	17.8	0.00e+00	0	43	0	171966464	64	4580
2026-01-27 21:29:47.70	35.50	8.72	-46.6	-48.5	17.8	0.00e+00	0	43	0	174063616	64	4561
2026-01-27 21:29:48.67	35.64	8.76	-46.7	-48.6	17.8	0.00e+00	0	43	0	176160768	64	4602
2026-01-27 21:29:49.64	35.78	8.80	-46.6	-48.5	17.9	0.00e+00	0	43	0	177209344	64	4548
2026-01-27 21:29:50.61	35.93	8.84	-46.7	-48.6	17.7	0.00e+00	0	43	0	179306496	64	4616
2026-01-27 21:29:51.58	36.07	8.88	-46.7	-48.6	17.8	0.00e+00	0	43	0	181403648	64	4613
2026-01-27 21:29:52.56	36.21	8.93	-46.7	-48.6	17.7	0.00e+00	0	43	0	183500800	64	4624
2026-01-27 21:29:53.53	36.35	8.97	-46.9	-48.8	17.6	0.00e+00	0	43	0	184549376	64	4713
2026-01-27 21:29:54.51	36.50	9.01	-46.8	-48.6	17.7	0.00e+00	0	43	0	186646528	64	4644
2026-01-27 21:29:55.48	36.64	9.05	-46.6	-48.5	17.9	0.00e+00	0	43	0	188743680	64	4550
2026-01-27 21:29:56.45	36.79	9.09	-46.6	-48.5	17.9	0.00e+00	0	43	0	190840832	64	4556
2026-01-27 21:29:57.42	36.93	9.13	-46.7	-48.5	17.9	0.00e+00	0	43	0	191889408	64	4583
2026-01-27 21:29:58.40	37.08	9.18	-46.6	-48.4	17.9	0.00e+00	0	43	0	193986560	64	4534
2026-01-27 21:29:59.37	37.22	9.22	-46.6	-48.4	18.0	0.00e+00	0	43	0	196083712	64	4507
2026-01-27 21:30:00.34	37.37	9.26	-46.6	-48.3	18.1	0.00e+00	0	43	0	198180864	64	4480
2026-01-27 21:30:01.31	37.51	9.30	-46.7	-48.5	17.9	0.00e+00	0	43	0	199229440	64	4566
2026-01-27 21:30:02.29	37.66	9.34	-46.7	-48.5	17.8	0.00e+00	0	43	0	201326592	64	4562
2026-01-27 21:30:03.26	37.81	9.38	-46.7	-48.6	17.8	0.00e+00	0	43	0	203423744	64	4612
2026-01-27 21:30:04.24	37.96	9.42	-46.8	-48.7	17.8	0.00e+00	0	43	0	205520896	64	4665
2026-01-27 21:30:05.21	38.10	9.46	-46.8	-48.7	17.7	0.00e+00	0	43	0	206569472	64	4676
2026-01-27 21:30:06.18	38.25	9.50	-46.8	-48.6	17.8	0.00e+00	0	43	0	208666624	64	4621
2026-01-27 21:30:07.16	38.40	9.54	-46.9	-48.8	17.7	0.00e+00	0	43	0	210763776	64	4709
2026-01-27 21:30:08.13	38.55	9.58	-47.0	-49.0	17.5	0.00e+00	0	43	0	212860928	64	4833
2026-01-27 21:30:09.10	38.70	9.62	-47.0	-48.9	17.5	0.00e+00	0	43	0	213909504	64	4768
2026-01-27 21:30:10.08	38.85	9.66	-47.0	-48.9	17.5	0.00e+00	0	43	0	216006656	64	4813
2026-01-27 21:30:11.06	39.00	9.71	-47.0	-48.8	17.7	0.00e+00	0	43	0	218103808	64	4751
2026-01-27 21:30:12.03	39.15	9.75	-46.8	-48.6	17.9	0.00e+00	0	43	0	219152384	64	4614
2026-01-27 21:30:13.01	39.31	9.79	-46.8	-48.6	17.9	0.00e+00	0	43	0	221249536	64	4628
2026-01-27 21:30:13.98	39.46	9.83	-46.8	-48.6	17.8	0.00e+00	0	43	0	223346688	64	4637
2026-01-27 21:30:14.95	39.61	9.86	-46.9	-48.8	17.7	0.00e+00	0	43	0	225443840	64	4709
2026-01-27 21:30:15.93	39.76	9.90	-46.9	-48.7	17.7	0.00e+00	0	43	0	226492416	64	4694
2026-01-27 21:30:16.91	39.92	9.94	-46.9	-48.8	17.7	0.00e+00	0	43	0	228589568	64	4743
2026-01-27 21:30:17.89	40.07	9.98	-46.9	-48.8	17.7	0.00e+00	0	43	0	230686720	64	4724
2026-01-27 21:30:18.86	40.22	10.02	-46.9	-48.8	17.7	0.00e+00	0	43	0	232783872	64	4706
2026-01-27 21:30:19.83	40.38	10.06	-46.9	-48.7	17.8	0.00e+00	0	43	0	233832448	64	4698
2026-01-27 21:30:20.81	40.53	10.10	-47.0	-48.9	17.5	0.00e+00	0	43	0	235929600	64	4808
2026-01-27 21:30:21.79	40.69	10.14	-47.1	-49.0	17.6	0.00e+00	0	43	0	238026752	64	4835
2026-01-27 21:30:22.76	40.84	10.18	-46.9	-48.8	17.8	0.00e+00	0	43	0	240123904	64	4729
2026-01-27 21:30:23.73	41.00	10.22	-47.0	-48.9	17.6	0.00e+00	0	43	0	241172480	64	4788
2026-01-27 21:30:24.72	41.16	10.26	-47.0	-48.8	17.7	0.00e+00	0	43	0	243269632	64	4755
2026-01-27 21:30:25.69	41.31	10.30	-46.9	-48.8	17.8	0.00e+00	0	43	0	245366784	64	4712
2026-01-27 21:30:26.67	41.47	10.33	-47.0	-48.8	17.7	0.00e+00	0	43	0	247463936	64	4742
2026-01-27 21:30:27.64	41.63	10.37	-47.1	-48.9	17.6	0.00e+00	0	43	0	248512512	64	4814
2026-01-27 21:30:28.62	41.79	10.41	-46.9	-48.8	17.8	0.00e+00	0	43	0	250609664	64	4731
2026-01-27 21:30:29.60	41.95	10.45	-46.9	-48.7	17.8	0.00e+00	0	43	0	252706816	64	4705
2026-01-27 21:30:30.58	42.11	10.49	-47.0	-48.8	17.7	0.00e+00	0	43	0	254803968	64	4747
2026-01-27 21:30:31.56	42.27	10.52	-47.0	-48.9	17.7	0.00e+00	0	43	0	255852544	64	4765
2026-01-27 21:30:32.53	42.42	10.56	-47.0	-48.9	17.6	0.00e+00	0	43	0	257949696	64	4778
2026-01-27 21:30:33.51	42.58	10.60	-47.1	-49.0	17.6	0.00e+00	0	43	0	260046848	64	4820
2026-01-27 21:30:34.49	42.75	10.64	-47.1	-49.0	17.6	0.00e+00	0	43	0	262144000	64	4830
2026-01-27 21:30:35.46	42.91	10.67	-47.1	-49.0	17.6	0.00e+00	0	43	0	263192576	64	4843
2026-01-27 21:30:36.44	43.07	10.71	-47.1	-49.0	17.6	0.00e+00	0	43	0	265289728	64	4821
2026-01-27 21:30:37.43	43.23	10.75	-47.0	-48.8	17.7	0.00e+00	0	43	0	267386880	64	4757
2026-01-27 21:30:38.41	43.39	10.79	-46.9	-48.8	17.8	0.00e+00	0	43	0	269484032	64	4726
2026-01-27 21:30:39.38	43.56	10.82	-46.9	-48.8	17.8	0.00e+00	0	43	0	270532608	64	4719
2026-01-27 21:30:40.36	43.72	10.86	-46.9	-48.7	17.9	0.00e+00	0	43	0	272629760	64	4674
2026-01-27 21:30:41.34	43.88	10.89	-46.9	-48.8	17.9	0.00e+00	0	43	0	274726912	64	4715
2026-01-27 21:30:42.31	44.05	10.93	-47.0	-48.8	17.8	0.00e+00	0	43	0	276824064	64	4748
2026-01-27 21:30:43.29	44.21	10.97	-46.8	-48.6	18.0	0.00e+00	0	43	0	277872640	64	4626
2026-01-27 21:30:44.26	44.37	11.00	-46.7	-48.4	18.1	0.00e+00	0	43	0	279969792	64	4540
2026-01-27 21:30:45.24	44.54	11.04	-46.8	-48.6	18.0	0.00e+00	0	43	0	282066944	64	4605
2026-01-27 21:30:46.22	44.71	11.07	-46.8	-48.6	18.0	0.00e+00	0	43	0	284164096	64	4601
2026-01-27 21:30:47.22	44.88	11.11	-46.8	-48.5	18.1	0.00e+00	0	43	0	285212672	64	4597
2026-01-27 21:30:48.19	45.04	11.15	-46.7	-48.4	18.2	0.00e+00	0	43	0	287309824	64	4540
2026-01-27 21:30:49.17	45.21	11.18	-46.8	-48.5	18.1	0.00e+00	0	43	0	289406976	64	4587
2026-01-27 21:30:50.15	45.38	11.22	-46.9	-48.7	17.9	0.00e+00	0	43	0	291504128	64	4668
2026-01-27 21:30:51.12	45.54	11.25	-47.0	-48.8	17.8	0.00e+00	0	43	0	292552704	64	4750
2026-01-27 21:30:52.10	45.71	11.28	-47.0	-48.9	17.7	0.00e+00	0	43	0	294649856	64	4768
2026-01-27 21:30:53.08	45.88	11.32	-47.1	-49.1	17.6	0.00e+00	0	43	0	296747008	64	4872
2026-01-27 21:30:54.06	46.05	11.35	-47.1	-49.0	17.6	0.00e+00	0	43	0	298844160	64	4868
2026-01-27 21:30:55.04	46.22	11.39	-47.1	-49.0	17.6	0.00e+00	0	43	0	299892736	64	4865
2026-01-27 21:30:56.02	46.39	11.42	-47.1	-49.0	17.7	0.00e+00	0	43	0	301989888	65	4547
2026-01-27 21:30:56.99	46.55	11.45	-47.1	-48.9	17.7	0.00e+00	0	43	0	304087040	65	4539
2026-01-27 21:30:57.97	46.73	11.49	-47.0	-48.9	17.7	0.00e+00	0	43	0	306184192	65	4518
2026-01-27 21:30:58.95	46.90	11.52	-46.9	-48.8	17.8	0.00e+00	0	43	0	307232768	65	4450
2026-01-27 21:30:59.94	47.07	11.56	-47.1	-49.0	17.6	0.00e+00	0	43	0	309329920	65	4567
2026-01-27 21:31:00.93	47.24	11.59	-47.0	-48.9	17.7	0.00e+00	0	43	0	311427072	65	4508
2026-01-27 21:31:01.92	47.42	11.62	-47.0	-48.9	17.7	0.00e+00	0	43	0	313524224	65	4525
2026-01-27 21:31:02.90	47.59	11.66	-47.1	-49.0	17.6	0.00e+00	0	43	0	315621376	65	4547
2026-01-27 21:31:03.88	47.76	11.69	-47.2	-49.1	17.5	0.00e+00	0	43	0	316669952	65	4629
2026-01-27 21:31:04.87	47.94	11.72	-47.1	-49.1	17.6	0.00e+00	0	43	0	318767104	65	4599
2026-01-27 21:31:05.86	48.11	11.75	-47.1	-49.0	17.7	0.00e+00	0	43	0	320864256	65	4567
2026-01-27 21:31:06.84	48.29	11.78	-47.1	-48.9	17.7	0.00e+00	0	43	0	321912832	65	4543
2026-01-27 21:31:07.84	48.46	11.82	-47.2	-49.1	17.5	0.00e+00	0	43	0	324009984	65	4619
2026-01-27 21:31:08.83	48.64	11.85	-46.9	-48.8	17.8	0.00e+00	0	43	0	326107136	65	4454
2026-01-27 21:31:09.82	48.82	11.88	-47.0	-48.8	17.9	0.00e+00	0	43	0	328204288	65	4461
2026-01-27 21:31:10.82	49.00	11.91	-47.0	-48.8	17.8	0.00e+00	0	43	0	330301440	65	4465
2026-01-27 21:31:11.81	49.17	11.94	-47.1	-49.0	17.7	0.00e+00	0	43	0	331350016	65	4553
2026-01-27 21:31:12.81	49.35	11.98	-47.2	-49.1	17.6	0.00e+00	0	43	0	333447168	65	4624
2026-01-27 21:31:13.81	49.53	12.01	-47.2	-49.1	17.6	0.00e+00	0	43	0	335544320	65	4623
2026-01-27 21:31:14.81	49.71	12.04	-47.2	-49.1	17.6	0.00e+00	0	43	0	337641472	65	4641
2026-01-27 21:31:15.82	49.90	12.07	-47.3	-49.3	17.5	0.00e+00	0	43	0	339738624	65	4710
2026-01-27 21:31:16.82	50.08	12.10	-47.2	-49.1	17.6	0.00e+00	0	43	0	340787200	65	4621
2026-01-27 21:31:17.83	50.26	12.13	-47.2	-49.0	17.6	0.00e+00	0	43	0	342884352	65	4592
2026-01-27 21:31:18.83	50.44	12.16	-47.2	-49.1	17.6	0.00e+00	0	43	0	344981504	65	4603
2026-01-27 21:31:19.83	50.63	12.19	-47.0	-48.8	17.9	0.00e+00	0	43	0	347078656	65	4470
2026-01-27 21:31:20.84	50.81	12.22	-46.9	-48.7	17.9	0.00e+00	0	43	0	349175808	65	4439
2026-01-27 21:31:21.85	51.00	12.25	-46.7	-48.5	18.2	0.00e+00	0	43	0	350224384	65	4314
2026-01-27 21:31:22.86	51.18	12.28	-46.8	-48.5	18.2	0.00e+00	0	43	0	352321536	65	4319
2026-01-27 21:31:23.86	51.36	12.31	-46.5	-48.1	18.5	0.00e+00	0	43	0	354418688	64	4381
2026-01-27 21:31:24.87	51.55	12.34	-46.5	-48.2	18.5	0.00e+00	0	43	0	356515840	64	4411
2026-01-27 21:31:25.87	51.73	12.37	-46.5	-48.1	18.5	0.00e+00	0	43	0	357564416	64	4380
2026-01-27 21:31:26.88	51.92	12.39	-46.5	-48.2	18.4	0.00e+00	0	43	0	359661568	64	4399
2026-01-27 21:31:27.88	52.11	12.42	-46.6	-48.3	18.4	0.00e+00	0	43	0	361758720	64	4448
2026-01-27 21:31:28.89	52.29	12.45	-46.6	-48.3	18.4	0.00e+00	0	43	0	363855872	64	4466
2026-01-27 21:31:29.89	52.48	12.48	-46.6	-48.3	18.5	0.00e+00	0	43	0	365953024	64	4447
2026-01-27 21:31:30.90	52.67	12.51	-46.6	-48.3	18.3	0.00e+00	0	43	0	368050176	64	4482
2026-01-27 21:31:31.91	52.86	12.53	-46.6	-48.4	18.3	0.00e+00	0	43	0	369098752	64	4499
2026-01-27 21:31:32.92	53.05	12.56	-46.7	-48.5	18.3	0.00e+00	0	43	0	371195904	64	4557
2026-01-27 21:31:33.92	53.23	12.59	-46.5	-48.2	18.4	0.00e+00	0	43	0	373293056	64	4424
2026-01-27 21:31:34.93	53.42	12.61	-46.5	-48.2	18.4	0.00e+00	0	43	0	375390208	64	4435
2026-01-27 21:31:35.94	53.61	12.64	-46.3	-48.0	18.7	0.00e+00	0	43	0	377487360	64	4303
2026-01-27 21:31:36.95	53.80	12.67	-46.3	-47.9	18.8	0.00e+00	0	43	0	378535936	64	4291
2026-01-27 21:31:37.96	53.99	12.69	-46.2	-47.8	18.9	0.00e+00	0	43	0	380633088	64	4222
2026-01-27 21:31:38.97	54.18	12.72	-46.0	-47.6	19.1	0.00e+00	0	43	0	382730240	64	4111
2026-01-27 21:31:39.97	54.37	12.74	-46.1	-47.7	19.1	0.00e+00	0	43	0	384827392	63	4396
2026-01-27 21:31:40.98	54.56	12.77	-46.1	-47.6	19.1	0.00e+00	0	43	0	385875968	63	4388
2026-01-27 21:31:41.99	54.75	12.79	-46.1	-47.6	19.1	0.00e+00	0	43	0	387973120	63	4376
2026-01-27 21:31:42.99	54.95	12.82	-46.3	-47.9	18.9	0.00e+00	0	43	0	390070272	63	4517
2026-01-27 21:31:44.00	55.14	12.84	-46.4	-48.1	18.7	0.00e+00	0	43	0	392167424	63	4607
2026-01-27 21:31:45.01	55.33	12.86	-46.7	-48.4	18.4	0.00e+00	0	43	0	394264576	63	4767
2026-01-27 21:31:46.01	55.52	12.89	-46.6	-48.3	18.3	0.00e+00	0	43	0	396361728	64	4476
2026-01-27 21:31:47.02	55.71	12.91	-46.8	-48.5	18.2	0.00e+00	0	43	0	397410304	64	4594
2026-01-27 21:31:48.02	55.91	12.93	-46.9	-48.7	17.9	0.00e+00	0	43	0	399507456	64	4699
2026-01-27 21:31:49.03	56.10	12.96	-47.1	-48.9	17.8	0.00e+00	0	43	0	401604608	64	4811
2026-01-27 21:31:50.04	56.29	12.98	-47.1	-48.9	17.8	0.00e+00	0	43	0	403701760	64	4797
2026-01-27 21:31:51.05	56.49	13.00	-47.1	-48.9	17.8	0.00e+00	0	43	0	405798912	64	4794
2026-01-27 21:31:52.05	56.68	13.02	-47.0	-48.8	17.9	0.00e+00	0	43	0	406847488	64	4743
2026-01-27 21:31:53.06	56.88	13.05	-46.9	-48.7	18.0	0.00e+00	0	43	0	408944640	64	4653
2026-01-27 21:31:54.06	57.07	13.07	-46.9	-48.7	18.0	0.00e+00	0	43	0	411041792	64	4670
2026-01-27 21:31:55.07	57.26	13.09	-46.8	-48.5	18.2	0.00e+00	0	43	0	413138944	64	4585
2026-01-27 21:31:56.08	57.46	13.11	-46.8	-48.6	18.1	0.00e+00	0	43	0	414187520	64	4613
2026-01-27 21:31:57.08	57.65	13.13	-46.9	-48.6	18.1	0.00e+00	0	43	0	416284672	64	4646
2026-01-27 21:31:58.09	57.85	13.15	-47.0	-48.8	17.9	0.00e+00	0	43	0	418381824	64	4738
2026-01-27 21:31:59.10	58.05	13.17	-47.1	-48.9	17.7	0.00e+00	0	43	0	420478976	64	4791
2026-01-27 21:32:00.11	58.24	13.19	-47.1	-49.0	17.6	0.00e+00	0	43	0	422576128	64	4846
2026-01-27 21:32:01.11	58.44	13.21	-47.3	-49.3	17.5	0.00e+00	0	43	0	424673280	65	4717
2026-01-27 21:32:02.12	58.64	13.23	-47.4	-49.4	17.3	0.00e+00	0	43	0	425721856	65	4792
2026-01-27 21:32:03.12	58.83	13.25	-47.5	-49.5	17.2	0.00e+00	0	43	0	427819008	65	4846
2026-01-27 21:32:04.13	59.03	13.27	-47.4	-49.4	17.4	0.00e+00	0	43	0	429916160	65	4783
2026-01-27 21:32:05.14	59.23	13.28	-47.3	-49.3	17.5	0.00e+00	0	43	0	432013312	65	4726
2026-01-27 21:32:06.14	59.42	13.30	-47.3	-49.2	17.5	0.00e+00	0	43	0	434110464	65	4672
2026-01-27 21:32:07.15	59.62	13.32	-47.3	-49.3	17.5	0.00e+00	0	43	0	435159040	65	4725
2026-01-27 21:32:08.16	59.82	13.34	-47.1	-49.0	17.7	0.00e+00	0	43	0	437256192	65	4570
2026-01-27 21:32:09.17	60.02	13.35	-47.2	-49.1	17.6	0.00e+00	0	43	0	439353344	65	4599
2026-01-27 21:32:10.17	60.22	13.37	-47.0	-48.8	17.9	0.00e+00	0	43	0	441450496	65	4462
2026-01-27 21:32:11.18	60.42	13.39	-46.9	-48.7	17.9	0.00e+00	0	43	0	442499072	65	4418
2026-01-27 21:32:12.18	60.62	13.40	-47.0	-48.8	17.9	0.00e+00	0	43	0	444596224	65	4465
2026-01-27 21:32:13.19	60.82	13.42	-47.0	-48.8	18.0	0.00e+00	0	43	0	446693376	65	4459
2026-01-27 21:32:14.20	61.02	13.44	-47.0	-48.9	17.9	0.00e+00	0	43	0	448790528	65	4508
2026-01-27 21:32:15.21	61.22	13.45	-47.0	-48.9	17.8	0.00e+00	0	43	0	450887680	65	4499
2026-01-27 21:32:16.21	61.41	13.47	-47.2	-49.0	17.6	0.00e+00	0	43	0	452984832	65	4589
2026-01-27 21:32:17.22	61.62	13.48	-47.2	-49.0	17.7	0.00e+00	0	43	0	454033408	65	4590
2026-01-27 21:32:18.23	61.82	13.49	-47.1	-48.9	17.9	0.00e+00	0	43	0	456130560	65	4514
2026-01-27 21:32:19.23	62.02	13.51	-46.9	-48.6	18.1	0.00e+00	0	43	0	458227712	65	4376
2026-01-27 21:32:20.24	62.22	13.52	-46.9	-48.7	18.1	0.00e+00	0	43	0	460324864	65	4395
2026-01-27 21:32:21.24	62.42	13.54	-46.8	-48.6	18.2	0.00e+00	0	43	0	462422016	65	4358
2026-01-27 21:32:22.25	62.62	13.55	-46.8	-48.6	18.1	0.00e+00	0	43	0	463470592	65	4366
2026-01-27 21:32:23.25	62.82	13.56	-46.8	-48.6	18.2	0.00e+00	0	43	0	465567744	65	4348
2026-01-27 21:32:24.26	63.02	13.57	-46.9	-48.7	18.1	0.00e+00	0	43	0	467664896	65	4406
2026-01-27 21:32:25.27	63.22	13.59	-46.8	-48.6	18.2	0.00e+00	0	43	0	469762048	65	4359
2026-01-27 21:32:26.28	63.42	13.60	-46.8	-48.6	18.2	0.00e+00	0	43	0	470810624	65	4365
2026-01-27 21:32:27.29	63.63	13.61	-46.8	-48.6	18.2	0.00e+00	0	43	0	472907776	65	4352
2026-01-27 21:32:28.29	63.83	13.62	-46.7	-48.4	18.3	0.00e+00	0	43	0	475004928	65	4269
2026-01-27 21:32:29.30	64.03	13.63	-46.7	-48.5	18.3	0.00e+00	0	43	0	477102080	65	4294
2026-01-27 21:32:30.31	64.23	13.64	-46.7	-48.4	18.3	0.00e+00	0	43	0	479199232	65	4290
2026-01-27 21:32:31.32	64.44	13.65	-46.8	-48.5	18.2	0.00e+00	0	43	0	481296384	65	4325
2026-01-27 21:32:32.33	64.64	13.66	-46.7	-48.4	18.3	0.00e+00	0	43	0	482344960	65	4288
2026-01-27 21:32:33.33	64.84	13.67	-46.6	-48.3	18.5	0.00e+00	0	43	0	484442112	65	4213
2026-01-27 21:32:34.34	65.04	13.68	-46.6	-48.3	18.4	0.00e+00	0	43	0	486539264	65	4230
2026-01-27 21:32:35.35	65.25	13.69	-46.5	-48.1	18.6	0.00e+00	0	43	0	488636416	65	4133
2026-01-27 21:32:36.36	65.45	13.70	-46.4	-48.1	18.7	0.00e+00	0	43	0	490733568	64	4344
2026-01-27 21:32:37.37	65.66	13.71	-46.4	-48.1	18.7	0.00e+00	0	43	0	491782144	64	4341
2026-01-27 21:32:38.37	65.86	13.72	-46.6	-48.3	18.5	0.00e+00	0	43	0	493879296	64	4480
2026-01-27 21:32:39.38	66.06	13.72	-46.4	-48.1	18.6	0.00e+00	0	43	0	495976448	64	4371
2026-01-27 21:32:40.39	66.27	13.73	-46.6	-48.3	18.4	0.00e+00	0	43	0	498073600	64	4458
2026-01-27 21:32:41.40	66.47	13.74	-46.6	-48.3	18.4	0.00e+00	0	43	0	500170752	64	4484
2026-01-27 21:32:42.40	66.67	13.74	-46.6	-48.3	18.4	0.00e+00	0	43	0	501219328	64	4450
2026-01-27 21:32:43.41	66.88	13.75	-46.6	-48.2	18.5	0.00e+00	0	43	0	503316480	64	4437
2026-01-27 21:32:44.42	67.08	13.76	-46.4	-48.1	18.6	0.00e+00	0	43	0	505413632	64	4365
2026-01-27 21:32:45.43	67.29	13.76	-46.3	-48.0	18.8	0.00e+00	0	43	0	507510784	64	4293
2026-01-27 21:32:46.43	67.49	13.77	-46.3	-47.9	18.8	0.00e+00	0	43	0	509607936	64	4279
2026-01-27 21:32:47.44	67.69	13.77	-46.3	-47.9	18.8	0.00e+00	0	43	0	510656512	64	4269
2026-01-27 21:32:48.45	67.90	13.78	-46.2	-47.8	18.9	0.00e+00	0	43	0	512753664	64	4236
2026-01-27 21:32:49.45	68.10	13.78	-46.3	-47.9	18.8	0.00e+00	0	43	0	514850816	64	4262
2026-01-27 21:32:50.46	68.31	13.78	-46.2	-47.8	18.9	0.00e+00	0	43	0	516947968	64	4211
2026-01-27 21:32:51.47	68.51	13.79	-46.1	-47.7	18.9	0.00e+00	0	43	0	519045120	64	4182
2026-01-27 21:32:52.48	68.72	13.79	-46.0	-47.6	19.1	0.00e+00	0	43	0	520093696	64	4108
2026-01-27 21:32:53.48	68.92	13.79	-46.1	-47.7	19.0	0.00e+00	0	43	0	522190848	64	4157
2026-01-27 21:32:54.49	69.12	13.80	-46.1	-47.6	19.1	0.00e+00	0	43	0	524288000	64	4125
2026-01-27 21:32:55.49	69.33	13.80	-46.1	-47.6	19.0	0.00e+00	0	43	0	526385152	64	4120
2026-01-27 21:32:56.50	69.53	13.80	-45.9	-47.3	19.4	0.00e+00	0	43	0	528482304	63	4233
2026-01-27 21:32:57.51	69.74	13.80	-45.8	-47.3	19.5	0.00e+00	0	43	0	529530880	63	4215
2026-01-27 21:32:58.51	69.94	13.80	-45.8	-47.3	19.5	0.00e+00	0	43	0	531628032	63	4198
2026-01-27 21:32:59.52	70.15	13.81	-45.6	-47.1	19.6	0.00e+00	0	43	0	533725184	63	4099
2026-01-27 21:33:00.53	70.35	13.81	-45.7	-47.1	19.6	0.00e+00	0	43	0	535822336	63	4137
2026-01-27 21:33:01.53	70.55	13.81	-45.9	-47.4	19.5	0.00e+00	0	43	0	537919488	63	4254
2026-01-27 21:33:02.54	70.76	13.81	-46.0	-47.5	19.2	0.00e+00	0	43	0	538968064	63	4316
2026-01-27 21:33:03.55	70.97	13.81	-46.1	-47.7	19.1	0.00e+00	0	43	0	541065216	63	4411
2026-01-27 21:33:04.56	71.17	13.81	-46.2	-47.8	19.0	0.00e+00	0	43	0	543162368	63	4480
2026-01-27 21:33:05.56	71.37	13.80	-46.2	-47.8	19.0	0.00e+00	0	43	0	545259520	63	4455
2026-01-27 21:33:06.57	71.58	13.80	-46.2	-47.7	19.0	0.00e+00	0	43	0	547356672	63	4424
2026-01-27 21:33:07.58	71.78	13.80	-46.2	-47.7	19.0	0.00e+00	0	43	0	548405248	63	4432
2026-01-27 21:33:08.59	71.99	13.80	-46.0	-47.6	19.2	0.00e+00	0	43	0	550502400	63	4353
2026-01-27 21:33:09.60	72.19	13.80	-45.8	-47.3	19.5	0.00e+00	0	43	0	552599552	63	4200
2026-01-27 21:33:10.61	72.40	13.79	-45.7	-47.1	19.6	0.00e+00	0	43	0	554696704	63	4140
2026-01-27 21:33:11.61	72.60	13.79	-45.6	-47.0	19.7	0.00e+00	0	43	0	556793856	63	4085
2026-01-27 21:33:12.62	72.81	13.79	-45.5	-46.9	19.8	0.00e+00	0	43	0	557842432	63	4019
2026-01-27 21:33:13.63	73.01	13.78	-45.5	-46.9	19.9	0.00e+00	0	43	0	559939584	62	4267
2026-01-27 21:33:14.63	73.22	13.78	-45.5	-46.9	19.9	0.00e+00	0	43	0	562036736	62	4254
2026-01-27 21:33:15.64	73.42	13.78	-45.4	-46.8	19.9	0.00e+00	0	43	0	564133888	62	4230
2026-01-27 21:33:16.65	73.63	13.77	-45.4	-46.8	19.9	0.00e+00	0	43	0	566231040	62	4204
2026-01-27 21:33:17.65	73.83	13.77	-45.5	-46.8	19.9	0.00e+00	0	43	0	567279616	62	4241
2026-01-27 21:33:18.66	74.03	13.76	-45.5	-46.9	19.9	0.00e+00	0	43	0	569376768	62	4257
2026-01-27 21:33:19.67	74.24	13.76	-45.4	-46.8	20.0	0.00e+00	0	43	0	571473920	62	4201
2026-01-27 21:33:20.68	74.44	13.75	-45.6	-47.0	19.8	0.00e+00	0	43	0	573571072	62	4317
2026-01-27 21:33:21.69	74.65	13.74	-45.6	-47.0	19.8	0.00e+00	0	43	0	575668224	62	4329
2026-01-27 21:33:22.70	74.85	13.74	-45.6	-47.1	19.7	0.00e+00	0	43	0	577765376	62	4356
2026-01-27 21:33:23.71	75.06	13.73	-45.8	-47.3	19.5	0.00e+00	0	43	0	578813952	62	4479
2026-01-27 21:33:24.72	75.26	13.72	-46.0	-47.5	19.3	0.00e+00	0	43	0	580911104	62	4574
2026-01-27 21:33:25.73	75.46	13.71	-46.0	-47.6	19.2	0.00e+00	0	43	0	583008256	62	4617
2026-01-27 21:33:26.73	75.67	13.71	-46.0	-47.6	19.1	0.00e+00	0	43	0	585105408	62	4619
2026-01-27 21:33:27.74	75.87	13.70	-46.1	-47.7	19.1	0.00e+00	0	43	0	586153984	62	4653
2026-01-27 21:33:28.75	76.07	13.69	-46.0	-47.5	19.3	0.00e+00	0	43	0	588251136	62	4570
2026-01-27 21:33:29.75	76.28	13.68	-45.9	-47.3	19.5	0.00e+00	0	43	0	590348288	62	4484
2026-01-27 21:33:30.76	76.48	13.67	-45.8	-47.2	19.5	0.00e+00	0	43	0	592445440	62	4441
2026-01-27 21:33:31.77	76.68	13.66	-45.7	-47.1	19.7	0.00e+00	0	43	0	594542592	62	4372
2026-01-27 21:33:32.77	76.89	13.65	-45.8	-47.3	19.5	0.00e+00	0	43	0	595591168	62	4451
2026-01-27 21:33:33.78	77.09	13.64	-45.7	-47.1	19.6	0.00e+00	0	43	0	597688320	62	4389
2026-01-27 21:33:34.78	77.29	13.63	-45.8	-47.3	19.6	0.00e+00	0	43	0	599785472	62	4453
2026-01-27 21:33:35.79	77.49	13.62	-45.8	-47.2	19.6	0.00e+00	0	43	0	601882624	62	4440
2026-01-27 21:33:36.80	77.70	13.61	-45.8	-47.3	19.3	0.00e+00	0	43	0	603979776	62	4469
2026-01-27 21:33:37.81	77.90	13.60	-45.8	-47.3	19.5	0.00e+00	0	43	0	606076928	62	4466
2026-01-27 21:33:38.81	78.10	13.58	-45.8	-47.2	19.5	0.00e+00	0	43	0	607125504	62	4434
2026-01-27 21:33:39.82	78.30	13.57	-45.6	-47.1	19.7	0.00e+00	0	43	0	609222656	62	4343
2026-01-27 21:33:40.83	78.50	13.56	-45.5	-46.9	19.9	0.00e+00	0	43	0	611319808	62	4269
2026-01-27 21:33:41.83	78.70	13.55	-45.6	-47.0	19.8	0.00e+00	0	43	0	613416960	62	4316
2026-01-27 21:33:42.84	78.90	13.53	-45.6	-47.0	19.8	0.00e+00	0	43	0	614465536	62	4316
2026-01-27 21:33:43.85	79.11	13.52	-45.7	-47.1	19.7	0.00e+00	0	43	0	616562688	62	4370
2026-01-27 21:33:44.85	79.31	13.51	-45.9	-47.4	19.4	0.00e+00	0	43	0	618659840	62	4505
2026-01-27 21:33:45.86	79.51	13.49	-46.0	-47.6	19.1	0.00e+00	0	43	0	620756992	62	4614
2026-01-27 21:33:46.87	79.71	13.48	-46.2	-47.8	19.0	0.00e+00	0	43	0	622854144	63	4454
2026-01-27 21:33:47.88	79.91	13.46	-46.3	-47.9	18.9	0.00e+00	0	43	0	623902720	63	4522
2026-01-27 21:33:48.89	80.11	13.45	-46.3	-48.0	18.8	0.00e+00	0	43	0	625999872	63	4548
2026-01-27 21:33:49.89	80.31	13.43	-46.3	-47.9	18.8	0.00e+00	0	43	0	628097024	63	4534
2026-01-27 21:33:50.89	80.51	13.42	-46.1	-47.6	19.1	0.00e+00	0	43	0	630194176	63	4380
2026-01-27 21:33:51.90	80.71	13.40	-46.0	-47.6	19.2	0.00e+00	0	43	0	632291328	63	4353
2026-01-27 21:33:52.91	80.91	13.38	-45.9	-47.5	19.3	0.00e+00	0	43	0	634388480	63	4293
2026-01-27 21:33:53.91	81.11	13.37	-45.7	-47.2	19.5	0.00e+00	0	43	0	635437056	63	4167
2026-01-27 21:33:54.92	81.30	13.35	-45.8	-47.2	19.5	0.00e+00	0	43	0	637534208	63	4171
2026-01-27 21:33:55.93	81.50	13.33	-45.5	-46.9	19.8	0.00e+00	0	43	0	639631360	63	4030
2026-01-27 21:33:56.93	81.70	13.32	-45.4	-46.8	19.9	0.00e+00	0	43	0	641728512	62	4203
2026-01-27 21:33:57.94	81.90	13.30	-45.3	-46.7	20.0	0.00e+00	0	43	0	642777088	62	4148
2026-01-27 21:33:58.94	82.10	13.28	-45.3	-46.7	20.0	0.00e+00	0	43	0	644874240	62	4173
2026-01-27 21:33:59.95	82.30	13.26	-45.2	-46.5	20.2	0.00e+00	0	43	0	646971392	62	4092
2026-01-27 21:34:00.96	82.49	13.24	-45.2	-46.5	20.2	0.00e+00	0	43	0	649068544	62	4095
2026-01-27 21:34:01.97	82.69	13.22	-45.2	-46.5	20.2	0.00e+00	0	43	0	651165696	62	4087
2026-01-27 21:34:02.98	82.89	13.21	-45.2	-46.6	20.1	0.00e+00	0	43	0	652214272	62	4113
2026-01-27 21:34:03.98	83.08	13.19	-45.3	-46.7	19.9	0.00e+00	0	43	0	654311424	62	4179
2026-01-27 21:34:04.99	83.28	13.17	-45.5	-47.0	19.8	0.00e+00	0	43	0	656408576	62	4294
2026-01-27 21:34:06.00	83.48	13.15	-45.4	-46.8	19.9	0.00e+00	0	43	0	658505728	62	4220
2026-01-27 21:34:07.00	83.67	13.13	-45.4	-46.8	19.9	0.00e+00	0	43	0	660602880	62	4223
2026-01-27 21:34:08.01	83.87	13.11	-45.4	-46.8	19.9	0.00e+00	0	43	0	662700032	62	4211
2026-01-27 21:34:09.02	84.07	13.08	-45.6	-47.0	19.7	0.00e+00	0	43	0	663748608	62	4314
2026-01-27 21:34:10.03	84.26	13.06	-45.5	-46.9	19.8	0.00e+00	0	43	0	665845760	62	4279
2026-01-27 21:34:11.03	84.46	13.04	-45.6	-47.0	19.7	0.00e+00	0	43	0	667942912	62	4332
2026-01-27 21:34:12.04	84.65	13.02	-45.5	-47.0	19.7	0.00e+00	0	43	0	670040064	62	4295
2026-01-27 21:34:13.04	84.84	13.00	-45.4	-46.8	19.8	0.00e+00	0	43	0	671088640	62	4240
2026-01-27 21:34:14.05	85.04	12.97	-45.4	-46.8	19.8	0.00e+00	0	43	0	673185792	62	4236
2026-01-27 21:34:15.06	85.23	12.95	-45.5	-46.9	19.8	0.00e+00	0	43	0	675282944	62	4258
2026-01-27 21:34:16.06	85.43	12.93	-45.3	-46.6	20.0	0.00e+00	0	43	0	677380096	62	4137
2026-01-27 21:34:17.07	85.62	12.91	-45.2	-46.5	20.1	0.00e+00	0	43	0	679477248	62	4087
2026-01-27 21:34:18.07	85.81	12.88	-45.3	-46.6	20.0	0.00e+00	0	43	0	680525824	62	4138
2026-01-27 21:34:19.08	86.00	12.86	-45.2	-46.6	20.1	0.00e+00	0	43	0	682622976	62	4104
2026-01-27 21:34:20.09	86.20	12.83	-45.3	-46.7	20.0	0.00e+00	0	43	0	684720128	62	4179
2026-01-27 21:34:21.09	86.39	12.81	-45.3	-46.7	19.9	0.00e+00	0	43	0	686817280	62	4165
2026-01-27 21:34:22.09	86.58	12.79	-45.3	-46.7	19.9	0.00e+00	0	43	0	688914432	62	4187
2026-01-27 21:34:23.10	86.77	12.76	-45.4	-46.9	19.8	0.00e+00	0	43	0	691011584	62	4244
2026-01-27 21:34:24.10	86.96	12.74	-45.5	-46.9	19.8	0.00e+00	0	43	0	692060160	62	4272
2026-01-27 21:34:25.11	87.15	12.71	-45.5	-46.9	19.8	0.00e+00	0	43	0	694157312	62	4255
2026-01-27 21:34:26.12	87.34	12.69	-45.6	-47.0	19.6	0.00e+00	0	43	0	696254464	62	4330
2026-01-27 21:34:27.13	87.53	12.66	-45.5	-46.9	19.8	0.00e+00	0	43	0	698351616	62	4257
2026-01-27 21:34:28.13	87.72	12.63	-45.4	-46.8	19.8	0.00e+00	0	43	0	699400192	62	4226
2026-01-27 21:34:29.14	87.91	12.61	-45.4	-46.8	19.9	0.00e+00	0	43	0	701497344	62	4199
2026-01-27 21:34:30.15	88.10	12.58	-45.3	-46.7	20.0	0.00e+00	0	43	0	703594496	62	4156
2026-01-27 21:34:31.16	88.29	12.55	-45.2	-46.5	20.0	0.00e+00	0	43	0	705691648	62	4098
2026-01-27 21:34:32.16	88.48	12.53	-45.1	-46.5	20.2	0.00e+00	0	43	0	707788800	62	4054
2026-01-27 21:34:33.17	88.67	12.50	-45.0	-46.4	20.2	0.00e+00	0	43	0	708837376	62	4008
2026-01-27 21:34:34.17	88.85	12.47	-45.1	-46.4	20.2	0.00e+00	0	43	0	710934528	62	4037
2026-01-27 21:34:35.18	89.04	12.44	-45.1	-46.4	20.2	0.00e+00	0	43	0	713031680	62	4050
2026-01-27 21:34:36.19	89.23	12.41	-45.2	-46.6	20.1	0.00e+00	0	43	0	715128832	62	4102
2026-01-27 21:34:37.19	89.42	12.39	-45.2	-46.6	20.1	0.00e+00	0	43	0	717225984	62	4110
2026-01-27 21:34:38.20	89.60	12.36	-45.3	-46.6	20.0	0.00e+00	0	43	0	719323136	62	4136
2026-01-27 21:34:39.21	89.79	12.33	-45.2	-46.6	20.1	0.00e+00	0	43	0	720371712	62	4118
2026-01-27 21:34:40.21	89.97	12.30	-45.3	-46.7	20.0	0.00e+00	0	43	0	722468864	62	4162
2026-01-27 21:34:41.22	90.16	12.27	-45.3	-46.6	20.0	0.00e+00	0	43	0	724566016	62	4140
2026-01-27 21:34:42.23	90.35	12.24	-45.3	-46.7	19.9	0.00e+00	0	43	0	726663168	62	4157
2026-01-27 21:34:43.23	90.53	12.21	-45.4	-46.8	19.9	0.00e+00	0	43	0	727711744	62	4199
2026-01-27 21:34:44.24	90.71	12.18	-45.4	-46.8	19.8	0.00e+00	0	43	0	729808896	62	4215
2026-01-27 21:34:45.25	90.90	12.15	-45.4	-46.9	19.7	0.00e+00	0	43	0	731906048	62	4244
2026-01-27 21:34:46.25	91.08	12.12	-45.7	-47.2	19.5	0.00e+00	0	43	0	734003200	62	4393
2026-01-27 21:34:47.26	91.27	12.09	-45.7	-47.2	19.4	0.00e+00	0	43	0	736100352	62	4426
2026-01-27 21:34:48.26	91.45	12.06	-45.8	-47.4	19.3	0.00e+00	0	43	0	737148928	62	4494
2026-01-27 21:34:49.26	91.63	12.03	-45.9	-47.4	19.2	0.00e+00	0	43	0	739246080	62	4523
2026-01-27 21:34:50.27	91.81	12.00	-46.0	-47.6	19.0	0.00e+00	0	43	0	741343232	62	4627
2026-01-27 21:34:51.28	91.99	11.96	-46.1	-47.7	19.0	0.00e+00	0	43	0	743440384	62	4669
2026-01-27 21:34:52.28	92.17	11.93	-46.1	-47.7	19.0	0.00e+00	0	43	0	745537536	62	4673
2026-01-27 21:34:53.29	92.36	11.90	-46.2	-47.8	18.9	0.00e+00	0	43	0	747634688	62	4715
2026-01-27 21:34:54.29	92.54	11.87	-46.3	-47.9	18.7	0.00e+00	0	43	0	748683264	63	4521
2026-01-27 21:34:55.30	92.72	11.84	-46.3	-48.0	18.6	0.00e+00	0	43	0	750780416	63	4565
2026-01-27 21:34:56.31	92.90	11.80	-46.5	-48.1	18.5	0.00e+00	0	43	0	752877568	63	4639
2026-01-27 21:34:57.32	93.08	11.77	-46.5	-48.2	18.5	0.00e+00	0	43	0	754974720	63	4694
2026-01-27 21:34:58.33	93.26	11.74	-46.6	-48.3	18.3	0.00e+00	0	43	0	756023296	63	4739
2026-01-27 21:34:59.33	93.43	11.70	-46.6	-48.3	18.3	0.00e+00	0	43	0	758120448	63	4757
2026-01-27 21:35:00.34	93.61	11.67	-46.6	-48.3	18.2	0.00e+00	0	43	0	760217600	63	4757
2026-01-27 21:35:01.35	93.79	11.64	-46.6	-48.3	18.4	0.00e+00	0	43	0	762314752	63	4733
2026-01-27 21:35:02.35	93.97	11.60	-46.5	-48.2	18.5	0.00e+00	0	43	0	764411904	63	4680
2026-01-27 21:35:03.36	94.15	11.57	-46.5	-48.2	18.4	0.00e+00	0	43	0	765460480	63	4701
2026-01-27 21:35:04.37	94.32	11.53	-46.5	-48.2	18.3	0.00e+00	0	43	0	767557632	63	4698
2026-01-27 21:35:05.38	94.50	11.50	-46.6	-48.3	18.4	0.00e+00	0	43	0	769654784	63	4752
2026-01-27 21:35:06.38	94.67	11.47	-46.5	-48.3	18.3	0.00e+00	0	43	0	771751936	64	4443
2026-01-27 21:35:07.39	94.85	11.43	-46.8	-48.6	17.9	0.00e+00	0	43	0	773849088	64	4638
2026-01-27 21:35:08.40	95.03	11.40	-47.0	-48.8	17.6	0.00e+00	0	43	0	775946240	64	4751
2026-01-27 21:35:09.41	95.20	11.36	-47.2	-49.1	17.4	0.00e+00	0	43	0	776994816	65	4631
2026-01-27 21:35:10.41	95.37	11.33	-47.3	-49.3	17.1	0.00e+00	0	43	0	779091968	65	4754
2026-01-27 21:35:11.42	95.55	11.29	-47.3	-49.3	17.2	0.00e+00	0	43	0	781189120	65	4759
2026-01-27 21:35:12.43	95.72	11.25	-47.4	-49.5	17.1	0.00e+00	0	43	0	783286272	65	4846
2026-01-27 21:35:13.43	95.90	11.22	-47.5	-49.7	16.9	0.00e+00	0	43	0	784334848	65	4932
2026-01-27 21:35:14.44	96.07	11.18	-47.6	-49.7	16.7	0.00e+00	0	43	0	786432000	65	4947
2026-01-27 21:35:15.44	96.24	11.15	-47.8	-50.0	16.4	0.00e+00	0	43	0	788529152	66	4834
2026-01-27 21:35:16.45	96.41	11.11	-47.9	-50.1	16.2	0.00e+00	0	43	0	790626304	66	4924
2026-01-27 21:35:17.46	96.58	11.07	-48.1	-50.5	16.0	0.00e+00	0	43	0	792723456	66	5135
2026-01-27 21:35:18.47	96.76	11.04	-48.2	-50.7	15.8	0.00e+00	0	43	0	793772032	67	4946
2026-01-27 21:35:19.47	96.93	11.00	-48.4	-50.9	15.6	0.00e+00	0	43	0	795869184	67	5057
2026-01-27 21:35:20.48	97.10	10.96	-48.3	-50.7	15.8	0.00e+00	0	43	0	797966336	67	4973
2026-01-27 21:35:21.49	97.27	10.92	-48.1	-50.5	15.9	0.00e+00	0	43	0	800063488	67	4816
2026-01-27 21:35:22.49	97.43	10.89	-48.0	-50.3	16.3	0.00e+00	0	43	0	802160640	67	4714
2026-01-27 21:35:23.50	97.60	10.85	-47.7	-49.9	16.6	0.00e+00	0	43	0	804257792	67	4527
2026-01-27 21:35:24.51	97.77	10.81	-47.6	-49.8	16.8	0.00e+00	0	43	0	805306368	67	4457
2026-01-27 21:35:25.52	97.94	10.77	-47.6	-49.7	16.9	0.00e+00	0	43	0	807403520	66	4655
2026-01-27 21:35:26.52	98.11	10.73	-47.4	-49.4	17.1	0.00e+00	0	43	0	809500672	66	4515
2026-01-27 21:35:27.53	98.28	10.70	-47.4	-49.5	17.0	0.00e+00	0	43	0	811597824	66	4552
2026-01-27 21:35:28.54	98.44	10.66	-47.4	-49.5	17.0	0.00e+00	0	43	0	812646400	66	4557
2026-01-27 21:35:29.55	98.61	10.62	-47.6	-49.7	16.9	0.00e+00	0	43	0	814743552	66	4669
2026-01-27 21:35:30.55	98.78	10.58	-47.5	-49.7	16.8	0.00e+00	0	43	0	816840704	66	4653
2026-01-27 21:35:31.56	98.94	10.54	-47.6	-49.8	16.7	0.00e+00	0	43	0	818937856	66	4718
2026-01-27 21:35:32.57	99.11	10.50	-47.7	-49.9	16.6	0.00e+00	0	43	0	821035008	66	4783
2026-01-27 21:35:33.58	99.27	10.46	-47.7	-49.9	16.6	0.00e+00	0	43	0	822083584	66	4798
2026-01-27 21:35:34.58	99.44	10.42	-47.8	-50.1	16.4	0.00e+00	0	43	0	824180736	66	4897
2026-01-27 21:35:35.59	99.60	10.38	-47.9	-50.2	16.4	0.00e+00	0	43	0	826277888	66	4948
2026-01-27 21:35:36.60	99.76	10.34	-48.1	-50.5	16.0	0.00e+00	0	43	0	828375040	66	5103
2026-01-27 21:35:37.61	99.93	10.30	-48.1	-50.5	16.0	0.00e+00	0	43	0	830472192	66	5128
2026-01-27 21:35:38.61	100.09	10.26	-48.1	-50.4	16.0	0.00e+00	0	43	0	832569344	66	5097
2026-01-27 21:35:39.62	100.25	10.22	-48.1	-50.4	16.0	0.00e+00	0	43	0	833617920	66	5095
2026-01-27 21:35:40.63	100.42	10.18	-47.9	-50.2	16.3	0.00e+00	0	43	0	835715072	66	4939
2026-01-27 21:35:41.63	100.58	10.14	-47.8	-50.1	16.4	0.00e+00	0	43	0	837812224	66	4882
2026-01-27 21:35:42.63	100.74	10.10	-47.7	-49.8	16.6	0.00e+00	0	43	0	839909376	66	4746
2026-01-27 21:35:43.64	100.90	10.06	-47.6	-49.7	16.9	0.00e+00	0	43	0	840957952	66	4663
2026-01-27 21:35:44.65	101.06	10.02	-47.5	-49.5	16.9	0.00e+00	0	43	0	843055104	66	4587
2026-01-27 21:35:45.65	101.22	9.98	-47.4	-49.4	17.1	0.00e+00	0	43	0	845152256	66	4539
2026-01-27 21:35:46.66	101.38	9.94	-47.4	-49.5	17.0	0.00e+00	0	43	0	847249408	66	4582
2026-01-27 21:35:47.67	101.53	9.90	-47.5	-49.6	16.8	0.00e+00	0	43	0	849346560	66	4622
2026-01-27 21:35:48.67	101.69	9.86	-47.5	-49.6	16.8	0.00e+00	0	43	0	850395136	66	4617
2026-01-27 21:35:49.68	101.85	9.82	-47.5	-49.6	16.9	0.00e+00	0	43	0	852492288	66	4600
2026-01-27 21:35:50.69	102.01	9.78	-47.5	-49.5	16.9	0.00e+00	0	43	0	854589440	66	4588
2026-01-27 21:35:51.69	102.16	9.73	-47.4	-49.4	17.1	0.00e+00	0	43	0	856686592	66	4534
2026-01-27 21:35:52.70	102.32	9.69	-47.2	-49.1	17.2	0.00e+00	0	43	0	858783744	66	4387
2026-01-27 21:35:53.71	102.48	9.65	-47.0	-48.9	17.5	0.00e+00	0	43	0	860880896	65	4514
2026-01-27 21:35:54.71	102.63	9.61	-46.8	-48.6	17.7	0.00e+00	0	43	0	861929472	65	4390
2026-01-27 21:35:55.72	102.79	9.57	-46.6	-48.3	18.1	0.00e+00	0	43	0	864026624	65	4229
2026-01-27 21:35:56.73	102.94	9.52	-46.7	-48.5	18.0	0.00e+00	0	43	0	866123776	65	4294
2026-01-27 21:35:57.73	103.10	9.48	-46.5	-48.3	18.1	0.00e+00	0	43	0	868220928	64	4467
2026-01-27 21:35:58.74	103.25	9.44	-46.7	-48.5	17.9	0.00e+00	0	43	0	869269504	64	4555
2026-01-27 21:35:59.74	103.40	9.40	-46.7	-48.5	18.0	0.00e+00	0	43	0	871366656	64	4555
2026-01-27 21:36:00.74	103.56	9.36	-46.9	-48.7	17.7	0.00e+00	0	43	0	873463808	64	4691
2026-01-27 21:36:01.75	103.71	9.31	-47.0	-48.9	17.6	0.00e+00	0	43	0	875560960	64	4772
2026-01-27 21:36:02.76	103.86	9.27	-47.0	-48.9	17.6	0.00e+00	0	43	0	877658112	64	4776
2026-01-27 21:36:03.77	104.02	9.23	-47.0	-48.9	17.5	0.00e+00	0	43	0	878706688	64	4773
2026-01-27 21:36:04.77	104.17	9.18	-47.1	-49.0	17.4	0.00e+00	0	43	0	880803840	64	4868
2026-01-27 21:36:05.78	104.32	9.14	-47.0	-49.0	17.3	0.00e+00	0	43	0	882900992	64	4844
2026-01-27 21:36:06.79	104.47	9.10	-47.1	-49.1	17.3	0.00e+00	0	43	0	884998144	64	4910
2026-01-27 21:36:07.80	104.62	9.05	-47.1	-49.1	17.4	0.00e+00	0	43	0	887095296	64	4880
2026-01-27 21:36:08.80	104.77	9.01	-47.1	-49.1	17.3	0.00e+00	0	43	0	889192448	64	4897
2026-01-27 21:36:09.81	104.92	8.97	-47.0	-49.0	17.4	0.00e+00	0	43	0	890241024	64	4822
2026-01-27 21:36:10.82	105.07	8.92	-47.0	-49.0	17.4	0.00e+00	0	43	0	892338176	64	4827
2026-01-27 21:36:11.83	105.22	8.88	-46.9	-48.8	17.5	0.00e+00	0	43	0	894435328	64	4759
2026-01-27 21:36:12.83	105.36	8.84	-47.0	-48.9	17.6	0.00e+00	0	43	0	896532480	64	4778
2026-01-27 21:36:13.83	105.51	8.79	-46.7	-48.6	17.8	0.00e+00	0	43	0	897581056	64	4617
2026-01-27 21:36:14.84	105.66	8.75	-46.7	-48.5	18.0	0.00e+00	0	43	0	899678208	64	4553
2026-01-27 21:36:15.85	105.80	8.71	-46.5	-48.3	18.1	0.00e+00	0	43	0	901775360	64	4478
2026-01-27 21:36:16.85	105.95	8.66	-46.3	-48.0	18.4	0.00e+00	0	43	0	903872512	64	4301
2026-01-27 21:36:17.86	106.10	8.62	-46.2	-47.8	18.5	0.00e+00	0	43	0	905969664	64	4226
2026-01-27 21:36:18.87	106.24	8.57	-46.1	-47.7	18.6	0.00e+00	0	43	0	907018240	64	4174
2026-01-27 21:36:19.87	106.39	8.53	-46.0	-47.7	18.6	0.00e+00	0	43	0	909115392	64	4146
2026-01-27 21:36:20.87	106.53	8.48	-46.2	-47.8	18.6	0.00e+00	0	43	0	911212544	63	4470
2026-01-27 21:36:21.88	106.67	8.44	-46.2	-47.9	18.6	0.00e+00	0	43	0	913309696	63	4507
2026-01-27 21:36:22.89	106.82	8.40	-46.4	-48.1	18.4	0.00e+00	0	43	0	915406848	63	4622
2026-01-27 21:36:23.89	106.96	8.35	-46.5	-48.3	18.2	0.00e+00	0	43	0	917504000	63	4706
2026-01-27 21:36:24.90	107.10	8.31	-46.5	-48.3	18.1	0.00e+00	0	43	0	918552576	63	4720
2026-01-27 21:36:25.91	107.25	8.26	-46.5	-48.3	18.1	0.00e+00	0	43	0	920649728	63	4726
2026-01-27 21:36:26.92	107.39	8.22	-46.6	-48.4	17.9	0.00e+00	0	43	0	922746880	64	4545
2026-01-27 21:36:27.93	107.53	8.17	-46.5	-48.3	18.0	0.00e+00	0	43	0	924844032	64	4456
2026-01-27 21:36:28.94	107.67	8.13	-46.5	-48.2	18.1	0.00e+00	0	43	0	925892608	64	4436
2026-01-27 21:36:29.95	107.82	8.08	-46.4	-48.2	18.1	0.00e+00	0	43	0	927989760	64	4401
2026-01-27 21:36:30.96	107.96	8.04	-46.4	-48.1	18.3	0.00e+00	0	43	0	930086912	64	4367
2026-01-27 21:36:31.96	108.10	7.99	-46.3	-48.0	18.4	0.00e+00	0	43	0	932184064	64	4340
2026-01-27 21:36:32.97	108.24	7.95	-46.3	-48.0	18.3	0.00e+00	0	43	0	934281216	64	4308
2026-01-27 21:36:33.97	108.37	7.90	-46.4	-48.1	18.3	0.00e+00	0	43	0	935329792	64	4355
2026-01-27 21:36:34.98	108.51	7.86	-46.4	-48.1	18.2	0.00e+00	0	43	0	937426944	64	4382
2026-01-27 21:36:35.99	108.65	7.81	-46.4	-48.2	18.1	0.00e+00	0	43	0	939524096	64	4393
2026-01-27 21:36:37.00	108.79	7.76	-46.7	-48.5	17.8	0.00e+00	0	43	0	941621248	64	4590
2026-01-27 21:36:38.00	108.93	7.72	-46.5	-48.3	18.0	0.00e+00	0	43	0	943718400	64	4465
2026-01-27 21:36:39.01	109.06	7.67	-46.6	-48.4	18.0	0.00e+00	0	43	0	945815552	64	4524
2026-01-27 21:36:40.02	109.20	7.63	-46.6	-48.4	17.8	0.00e+00	0	43	0	946864128	64	4514
2026-01-27 21:36:41.02	109.34	7.58	-46.6	-48.4	17.9	0.00e+00	0	43	0	948961280	64	4498
2026-01-27 21:36:42.04	109.47	7.54	-46.4	-48.1	18.2	0.00e+00	0	43	0	951058432	64	4369
2026-01-27 21:36:43.04	109.61	7.49	-46.3	-48.0	18.3	0.00e+00	0	43	0	953155584	64	4325
2026-01-27 21:36:44.05	109.75	7.44	-46.4	-48.2	18.1	0.00e+00	0	43	0	954204160	64	4419
2026-01-27 21:36:45.06	109.88	7.40	-46.2	-47.9	18.4	0.00e+00	0	43	0	956301312	64	4262
2026-01-27 21:36:46.06	110.01	7.35	-46.4	-48.2	18.1	0.00e+00	0	43	0	958398464	64	4396
2026-01-27 21:36:47.07	110.15	7.31	-46.3	-48.0	18.3	0.00e+00	0	43	0	960495616	64	4339
2026-01-27 21:36:48.08	110.28	7.26	-46.4	-48.2	18.0	0.00e+00	0	43	0	962592768	64	4415
2026-01-27 21:36:49.09	110.42	7.21	-46.5	-48.2	18.0	0.00e+00	0	43	0	964689920	64	4439
2026-01-27 21:36:50.09	110.55	7.17	-46.6	-48.5	17.8	0.00e+00	0	43	0	965738496	64	4569
2026-01-27 21:36:51.10	110.68	7.12	-46.7	-48.5	17.7	0.00e+00	0	43	0	967835648	64	4589
2026-01-27 21:36:52.11	110.81	7.07	-46.7	-48.6	17.7	0.00e+00	0	43	0	969932800	64	4626
2026-01-27 21:36:53.11	110.94	7.03	-46.8	-48.7	17.5	0.00e+00	0	43	0	972029952	64	4670
2026-01-27 21:36:54.12	111.07	6.98	-46.5	-48.3	17.9	0.00e+00	0	43	0	974127104	64	4485
2026-01-27 21:36:55.12	111.20	6.94	-46.5	-48.2	18.0	0.00e+00	0	43	0	975175680	64	4440
2026-01-27 21:36:56.13	111.33	6.89	-46.5	-48.3	17.9	0.00e+00	0	43	0	977272832	64	4460
2026-01-27 21:36:57.14	111.46	6.84	-46.3	-48.0	18.3	0.00e+00	0	43	0	979369984	64	4314
2026-01-27 21:36:58.15	111.59	6.80	-46.2	-47.9	18.4	0.00e+00	0	43	0	981467136	64	4260
2026-01-27 21:36:59.15	111.72	6.75	-46.2	-48.0	18.3	0.00e+00	0	43	0	982515712	64	4296
2026-01-27 21:37:00.15	111.85	6.70	-46.4	-48.2	18.1	0.00e+00	0	43	0	984612864	64	4405
2026-01-27 21:37:01.16	111.98	6.66	-46.4	-48.1	18.1	0.00e+00	0	43	0	986710016	64	4382
2026-01-27 21:37:02.16	112.11	6.61	-46.6	-48.4	17.9	0.00e+00	0	43	0	988807168	64	4517
2026-01-27 21:37:03.17	112.23	6.56	-46.6	-48.5	17.8	0.00e+00	0	43	0	990904320	64	4559
2026-01-27 21:37:04.17	112.36	6.52	-46.8	-48.7	17.5	0.00e+00	0	43	0	991952896	64	4679
2026-01-27 21:37:05.19	112.49	6.47	-46.8	-48.7	17.5	0.00e+00	0	43	0	994050048	64	4679
2026-01-27 21:37:06.20	112.62	6.42	-46.7	-48.6	17.6	0.00e+00	0	43	0	996147200	64	4648
2026-01-27 21:37:07.21	112.74	6.38	-46.8	-48.7	17.5	0.00e+00	0	43	0	998244352	64	4677
2026-01-27 21:37:08.22	112.87	6.33	-46.9	-48.8	17.4	0.00e+00	0	43	0	1000341504	64	4731
2026-01-27 21:37:09.22	112.99	6.28	-46.8	-48.7	17.4	0.00e+00	0	43	0	1002438656	64	4702
2026-01-27 21:37:10.23	113.12	6.24	-46.8	-48.7	17.4	0.00e+00	0	43	0	1003487232	64	4668
2026-01-27 21:37:11.24	113.24	6.19	-46.9	-48.9	17.2	0.00e+00	0	43	0	1005584384	64	4792
2026-01-27 21:37:12.24	113.36	6.14	-46.8	-48.7	17.4	0.00e+00	0	43	0	1007681536	64	4684
2026-01-27 21:37:13.25	113.49	6.10	-46.9	-48.9	17.2	0.00e+00	0	43	0	1009778688	64	4802
2026-01-27 21:37:14.26	113.61	6.05	-47.0	-49.0	17.0	0.00e+00	0	43	0	1010827264	64	4861
2026-01-27 21:37:15.26	113.73	6.00	-47.0	-49.1	17.0	0.00e+00	0	43	0	1012924416	64	4888
2026-01-27 21:37:16.27	113.86	5.95	-47.1	-49.2	17.0	0.00e+00	0	43	0	1015021568	65	4695
2026-01-27 21:37:17.28	113.98	5.91	-47.4	-49.6	16.6	0.00e+00	0	43	0	1017118720	65	4877
2026-01-27 21:37:18.29	114.10	5.86	-47.5	-49.8	16.3	0.00e+00	0	43	0	1019215872	65	5014
2026-01-27 21:37:19.30	114.22	5.81	-47.3	-49.5	16.6	0.00e+00	0	43	0	1021313024	65	4841
2026-01-27 21:37:20.31	114.35	5.77	-47.2	-49.3	16.8	0.00e+00	0	43	0	1022361600	65	4722
2026-01-27 21:37:21.31	114.46	5.72	-47.4	-49.6	16.5	0.00e+00	0	43	0	1024458752	65	4896
2026-01-27 21:37:22.33	114.59	5.67	-47.3	-49.5	16.5	0.00e+00	0	43	0	1026555904	65	4863
2026-01-27 21:37:23.33	114.71	5.62	-47.4	-49.7	16.3	0.00e+00	0	43	0	1028653056	65	4931
2026-01-27 21:37:24.34	114.83	5.58	-47.3	-49.5	16.5	0.00e+00	0	43	0	1030750208	65	4852
2026-01-27 21:37:25.34	114.94	5.53	-47.1	-49.3	16.6	0.00e+00	0	43	0	1031798784	65	4716
2026-01-27 21:37:26.35	115.06	5.48	-47.2	-49.4	16.5	0.00e+00	0	43	0	1033895936	65	4793
2026-01-27 21:37:27.36	115.18	5.43	-47.0	-49.2	16.7	0.00e+00	0	43	0	1035993088	65	4666
2026-01-27 21:37:28.36	115.30	5.39	-47.0	-49.2	16.7	0.00e+00	0	43	0	1038090240	65	4657
2026-01-27 21:37:29.36	115.42	5.34	-47.1	-49.3	16.5	0.00e+00	0	43	0	1039138816	65	4741
2026-01-27 21:37:30.37	115.53	5.29	-47.2	-49.5	16.4	0.00e+00	0	43	0	1041235968	65	4831
2026-01-27 21:37:31.38	115.65	5.25	-47.0	-49.2	16.7	0.00e+00	0	43	0	1043333120	65	4681
2026-01-27 21:37:32.39	115.77	5.20	-47.2	-49.5	16.4	0.00e+00	0	43	0	1045430272	65	4847
2026-01-27 21:37:33.39	115.88	5.15	-47.2	-49.5	16.3	0.00e+00	0	43	0	1047527424	65	4835
2026-01-27 21:37:34.39	116.00	5.10	-47.4	-49.7	16.1	0.00e+00	0	43	0	1049624576	65	4966
2026-01-27 21:37:35.40	116.11	5.06	-47.4	-49.8	16.0	0.00e+00	0	43	0	1050673152	65	5016
2026-01-27 21:37:36.41	116.23	5.01	-47.6	-50.1	15.8	0.00e+00	0	43	0	1052770304	65	5191
2026-01-27 21:37:37.41	116.34	4.96	-52.3	-67.2	3.8	1.38e+00	0	43	104	1053818880	75	20921
2026-01-27 21:37:38.43	116.46	4.91	-52.6	-67.4	3.8	1.49e+00	0	43	104	1053818880	75	21496
2026-01-27 21:37:39.43	116.57	4.87	-52.9	-67.9	3.8	1.49e+00	0	43	104	1053818880	76	21291
2026-01-27 21:37:40.44	116.69	4.82	-53.1	-68.0	3.8	1.49e+00	0	43	104	1053818880	76	21723
2026-01-27 21:37:41.45	116.80	4.77	-53.2	-68.5	3.8	1.49e+00	0	43	104	1053818880	77	21698
2026-01-27 21:37:42.45	116.91	4.73	-53.4	-68.4	3.8	1.49e+00	0	43	104	1053818880	77	21384
2026-01-27 21:37:43.46	117.03	4.68	-53.5	-68.5	3.8	1.49e+00	0	43	104	1053818880	77	21535
2026-01-27 21:37:44.47	117.14	4.63	-53.6	-68.6	3.8	1.49e+00	0	43	104	1053818880	77	21778
2026-01-27 21:37:45.48	117.25	4.58	-53.6	-68.6	3.8	1.49e+00	0	43	104	1053818880	77	21836
2026-01-27 21:37:46.48	117.36	4.54	-53.7	-68.6	3.8	1.49e+00	0	43	104	1053818880	77	21915
2026-01-27 21:37:47.49	117.47	4.49	-53.7	-68.7	3.8	1.49e+00	0	43	104	1053818880	77	22093
2026-01-27 21:37:48.50	117.58	4.44	-53.8	-68.7	3.8	1.49e+00	0	43	104	1053818880	78	20958
2026-01-27 21:37:49.51	117.70	4.39	-53.8	-68.8	3.8	1.49e+00	0	43	104	1053818880	78	21060
2026-01-27 21:37:50.51	117.80	4.35	-53.8	-68.8	3.8	1.49e+00	0	43	104	1053818880	78	21130
2026-01-27 21:37:51.52	117.92	4.30	-53.9	-68.9	3.8	1.49e+00	0	43	104	1053818880	78	21272
2026-01-27 21:37:52.52	118.02	4.25	-53.9	-68.9	3.8	1.49e+00	0	43	104	1053818880	78	21378
2026-01-27 21:37:53.53	118.13	4.20	-53.9	-68.9	3.8	1.49e+00	0	43	104	1053818880	78	21393
2026-01-27 21:37:54.53	118.24	4.16	-54.0	-68.9	3.8	1.49e+00	0	43	104	1053818880	78	21422
2026-01-27 21:37:55.54	118.35	4.11	-54.0	-68.9	3.8	1.49e+00	0	43	104	1053818880	78	21468
2026-01-27 21:37:56.55	118.46	4.06	-54.0	-68.9	3.8	1.49e+00	0	43	104	1053818880	78	21506
2026-01-27 21:37:57.56	118.57	4.01	-54.0	-69.0	3.8	1.49e+00	0	43	104	1053818880	78	21565
2026-01-27 21:37:58.56	118.67	3.97	-54.0	-68.9	3.8	1.49e+00	0	43	104	1053818880	78	21491
2026-01-27 21:37:59.57	118.78	3.92	-54.0	-68.9	3.8	1.49e+00	0	43	104	1053818880	78	21462
2026-01-27 21:38:00.58	118.89	3.87	-54.0	-69.0	3.8	1.49e+00	0	43	104	1053818880	78	21593
2026-01-27 21:38:01.59	119.00	3.82	-54.0	-69.0	3.8	1.49e+00	0	43	104	1053818880	78	21733
2026-01-27 21:38:02.59	119.10	3.78	-54.1	-69.1	3.8	1.49e+00	0	43	104	1053818880	78	21782
2026-01-27 21:38:03.60	119.21	3.73	-54.1	-69.1	3.8	1.49e+00	0	43	104	1053818880	78	21802
2026-01-27 21:38:04.61	119.31	3.68	-54.1	-69.1	3.8	1.49e+00	0	43	104	1053818880	78	21928
2026-01-27 21:38:05.61	119.42	3.63	-54.2	-69.1	3.8	1.49e+00	0	43	104	1053818880	78	21960
2026-01-27 21:38:06.62	119.52	3.59	-54.2	-69.1	3.8	1.49e+00	0	43	104	1053818880	78	22002
2026-01-27 21:38:07.63	119.63	3.54	-54.2	-69.2	3.8	1.49e+00	0	43	104	1053818880	78	22036
2026-01-27 21:38:08.64	119.73	3.49	-54.2	-69.2	3.8	1.49e+00	0	43	104	1053818880	79	20951
2026-01-27 21:38:09.65	119.84	3.44	-54.3	-69.2	3.8	1.49e+00	0	43	104	1053818880	79	21000
2026-01-27 21:38:10.65	119.94	3.40	-54.3	-69.3	3.8	1.49e+00	0	43	104	1053818880	79	21147
2026-01-27 21:38:11.66	120.04	3.35	-54.3	-69.3	3.8	1.49e+00	0	43	104	1053818880	79	21133
2026-01-27 21:38:12.67	120.15	3.30	-54.3	-69.3	3.8	1.49e+00	0	43	104	1053818880	79	21191
2026-01-27 21:38:13.67	120.25	3.25	-54.3	-69.3	3.8	1.49e+00	0	43	104	1053818880	79	21127
2026-01-27 21:38:14.68	120.35	3.21	-54.3	-69.3	3.8	1.49e+00	0	43	104	1053818880	79	21161
2026-01-27 21:38:15.69	120.45	3.16	-54.3	-69.3	3.8	1.49e+00	0	43	104	1053818880	79	21173
2026-01-27 21:38:16.70	120.56	3.11	-54.3	-69.3	3.8	1.49e+00	0	43	104	1053818880	79	21207
2026-01-27 21:38:17.71	120.66	3.06	-54.3	-69.3	3.8	1.49e+00	0	43	104	1053818880	79	21192
2026-01-27 21:38:18.72	120.76	3.02	-54.3	-69.3	3.8	1.49e+00	0	43	104	1053818880	79	21173
2026-01-27 21:38:19.73	120.86	2.97	-54.3	-69.3	3.8	1.49e+00	0	43	104	1053818880	79	21104
2026-01-27 21:38:20.74	120.96	2.92	-54.3	-69.3	3.8	1.49e+00	0	43	104	1053818880	79	21081
2026-01-27 21:38:21.75	121.06	2.87	-54.2	-69.2	3.8	1.49e+00	0	43	104	1053818880	79	20992
2026-01-27 21:38:22.76	121.16	2.83	-54.2	-69.2	3.8	1.49e+00	0	43	104	1053818880	79	20926
2026-01-27 21:38:23.76	121.26	2.78	-54.2	-69.2	3.8	1.49e+00	0	43	104	1053818880	79	20859
2026-01-27 21:38:24.77	121.36	2.73	-54.2	-69.1	3.8	1.49e+00	0	43	104	1053818880	79	20697
2026-01-27 21:38:25.77	121.46	2.69	-54.1	-69.1	3.8	1.49e+00	0	43	104	1053818880	79	20664
2026-01-27 21:38:26.78	121.56	2.64	-54.1	-69.0	3.8	1.49e+00	0	43	104	1053818880	79	20529
2026-01-27 21:38:27.79	121.66	2.59	-54.0	-69.0	3.8	1.49e+00	0	44	104	1053818880	79	20440
2026-01-27 21:38:28.80	121.75	2.54	-54.0	-68.9	3.8	1.49e+00	0	43	104	1053818880	79	20283
2026-01-27 21:38:29.81	121.85	2.50	-53.9	-68.9	3.8	1.49e+00	0	43	104	1053818880	79	20175
2026-01-27 21:38:30.81	121.95	2.45	-53.8	-68.8	3.8	1.49e+00	0	43	104	1053818880	79	19998
2026-01-27 21:38:31.82	122.05	2.40	-53.7	-68.7	3.8	1.49e+00	0	43	104	1053818880	79	19700
2026-01-27 21:38:32.83	122.14	2.35	-53.6	-68.6	3.8	1.49e+00	0	43	104	1053818880	79	19413
2026-01-27 21:38:33.83	122.24	2.31	-53.4	-68.4	3.8	1.49e+00	0	43	104	1053818880	78	20142
2026-01-27 21:38:34.84	122.34	2.26	-53.3	-68.2	3.8	1.49e+00	0	43	104	1053818880	78	19813
2026-01-27 21:38:35.85	122.43	2.21	-53.3	-68.2	3.8	1.49e+00	0	43	104	1053818880	78	19767
2026-01-27 21:38:36.85	122.53	2.17	-53.3	-68.2	3.8	1.49e+00	0	43	104	1053818880	78	19780
2026-01-27 21:38:37.87	122.62	2.12	-53.2	-68.2	3.8	1.49e+00	0	44	104	1053818880	78	19768
2026-01-27 21:38:38.88	122.72	2.07	-53.2	-68.2	3.8	1.49e+00	0	43	104	1053818880	78	19693
2026-01-27 21:38:39.89	122.81	2.02	-53.2	-68.2	3.8	1.49e+00	0	43	104	1053818880	78	19742
2026-01-27 21:38:40.89	122.91	1.98	-53.2	-68.2	3.8	1.49e+00	0	43	104	1053818880	78	19674

#Closed at: 2026-01-27 21:38:41
#Recorded file [1053 MB]: D:/lorett/data/31041_260128_002721.dat