passes_logs/2026/01/27/R3.2S_Murmansk/R3.2S_Murmansk__20260127_072429_SUOMI_NPP_rec.log

#Pass ID: 20260127_072429_SUOMI NPP
#Satellite: SUOMI NPP
#Configuration: NPP
#almurnet v.1.7.20251203
#Start time: 2026-01-27 07:24:28

#Version: 2.2.20231116
#Station: R3.2S_Murmansk
#Location: 33.079688 lon 68.888172 lat
#TLE: 1 37849U 11061A   26026.52266023  .00000173  00000+0  10323-3 0  9994
#TLE: 2 37849  98.7822 328.4727 0002140  43.9411 316.1934 14.19530258738341

#Time	Az	El	Level	Level2	SNR	BER	BlckErr	Temp	State	Recorded	gain1	gain2
2026-01-27 07:24:28.66	101.84	1.96	-54.2	-69.1	3.8	1.49e+00	0	41	0	0	78	21997
2026-01-27 07:24:29.66	101.80	2.02	-54.1	-69.2	3.8	1.49e+00	0	41	104	0	78	22013
2026-01-27 07:24:30.67	101.75	2.08	-54.1	-69.2	3.8	1.49e+00	0	41	104	0	78	22053
2026-01-27 07:24:31.68	101.71	2.15	-54.1	-69.1	3.8	1.49e+00	0	41	104	0	78	21871
2026-01-27 07:24:32.69	101.66	2.21	-54.1	-69.1	3.8	1.49e+00	0	41	104	0	78	21926
2026-01-27 07:24:33.70	101.61	2.27	-54.1	-69.1	3.8	1.49e+00	0	41	104	0	78	21955
2026-01-27 07:24:34.70	101.57	2.33	-54.1	-69.1	3.8	1.49e+00	0	41	104	0	78	21907
2026-01-27 07:24:35.71	101.52	2.39	-54.1	-69.1	3.8	1.49e+00	0	41	104	0	78	21959
2026-01-27 07:24:36.72	101.47	2.45	-54.2	-69.2	3.8	1.49e+00	0	41	104	0	79	20941
2026-01-27 07:24:37.73	101.42	2.52	-54.3	-69.3	3.8	1.49e+00	0	41	104	0	79	21139
2026-01-27 07:24:38.74	101.38	2.58	-54.3	-69.3	3.8	1.49e+00	0	41	104	0	79	21081
2026-01-27 07:24:39.74	101.33	2.64	-54.3	-69.3	3.8	1.49e+00	0	41	104	0	79	21094
2026-01-27 07:24:40.75	101.28	2.70	-54.3	-69.3	3.8	1.49e+00	0	41	104	0	79	21102
2026-01-27 07:24:41.76	101.23	2.76	-54.3	-69.2	3.8	1.49e+00	0	41	104	0	79	20998
2026-01-27 07:24:42.76	101.18	2.83	-54.3	-69.2	3.8	1.49e+00	0	41	104	0	79	20961
2026-01-27 07:24:43.77	101.13	2.89	-54.2	-69.2	3.8	1.49e+00	0	41	104	0	79	20981
2026-01-27 07:24:44.78	101.08	2.95	-54.2	-69.2	3.8	1.49e+00	0	41	104	0	79	20832
2026-01-27 07:24:45.78	101.04	3.01	-54.2	-69.1	3.8	1.49e+00	0	41	104	0	79	20758
2026-01-27 07:24:46.79	100.99	3.08	-54.1	-69.1	3.8	1.49e+00	0	41	104	0	79	20563
2026-01-27 07:24:47.80	100.94	3.14	-54.0	-69.0	3.8	1.49e+00	0	41	104	0	79	20390
2026-01-27 07:24:48.81	100.89	3.20	-53.9	-68.9	3.8	1.49e+00	0	41	104	0	78	21444
2026-01-27 07:24:49.82	100.83	3.27	-53.9	-68.9	3.8	1.49e+00	0	41	104	0	78	21358
2026-01-27 07:24:50.82	100.78	3.33	-53.8	-68.8	3.8	1.49e+00	0	41	104	0	78	21171
2026-01-27 07:24:51.83	100.73	3.39	-53.7	-68.7	3.8	1.49e+00	0	41	104	0	78	20826
2026-01-27 07:24:52.84	100.68	3.46	-53.6	-68.6	3.8	1.49e+00	0	41	104	0	78	20556
2026-01-27 07:24:53.85	100.63	3.52	-53.4	-68.4	3.8	1.49e+00	0	41	104	0	78	20110
2026-01-27 07:24:54.85	100.58	3.58	-53.3	-68.3	3.8	1.49e+00	0	41	104	0	77	21081
2026-01-27 07:24:55.86	100.53	3.65	-53.3	-68.3	3.8	1.49e+00	0	41	104	0	77	21023
2026-01-27 07:24:56.87	100.48	3.71	-53.2	-68.2	3.8	1.49e+00	0	41	104	0	77	20863
2026-01-27 07:24:57.87	100.43	3.78	-53.1	-68.1	3.8	1.49e+00	0	41	104	0	77	20624
2026-01-27 07:24:58.88	100.37	3.84	-53.0	-68.0	3.8	1.49e+00	0	41	104	0	77	20409
2026-01-27 07:24:59.89	100.32	3.91	-53.0	-67.9	3.8	1.49e+00	0	41	104	0	77	20283
2026-01-27 07:25:00.90	100.27	3.97	-52.9	-67.8	3.8	1.49e+00	0	41	104	0	77	19963
2026-01-27 07:25:01.90	100.21	4.04	-52.8	-67.7	3.8	1.49e+00	0	41	104	0	77	19723
2026-01-27 07:25:02.91	100.16	4.10	-52.6	-67.6	3.8	1.49e+00	0	41	104	0	76	20568
2026-01-27 07:25:03.92	100.11	4.17	-52.4	-67.3	3.8	1.49e+00	0	42	104	0	76	20025
2026-01-27 07:25:04.93	100.05	4.23	-52.0	-63.0	4.4	1.47e+00	97	42	104	0	76	12174
2026-01-27 07:25:05.94	100.00	4.30	-51.9	-62.2	4.7	1.08e+00	0	41	0	1048576	75	11781
2026-01-27 07:25:06.95	99.94	4.36	-51.7	-60.3	5.9	4.78e-01	0	42	0	3145728	75	9419
2026-01-27 07:25:07.95	99.89	4.43	-51.5	-59.2	6.7	2.52e-01	0	42	0	5242880	75	8323
2026-01-27 07:25:08.96	99.84	4.49	-51.1	-57.4	8.4	8.84e-02	0	42	0	7340032	74	7157
2026-01-27 07:25:09.97	99.78	4.56	-50.7	-56.1	9.8	1.25e-02	0	41	0	8388608	73	6552
2026-01-27 07:25:10.97	99.72	4.62	-50.3	-55.0	10.9	4.27e-03	0	42	0	10485760	72	6108
2026-01-27 07:25:11.98	99.67	4.69	-50.0	-54.1	11.8	9.08e-04	0	42	0	12582912	72	5526
2026-01-27 07:25:12.98	99.61	4.76	-49.8	-53.6	12.5	1.26e-04	0	42	0	14680064	71	5517
2026-01-27 07:25:13.99	99.56	4.82	-49.6	-53.2	12.8	3.96e-05	0	42	0	16777216	71	5277
2026-01-27 07:25:15.00	99.50	4.89	-49.3	-52.7	13.4	3.35e-05	0	42	0	17825792	70	5231
2026-01-27 07:25:16.01	99.44	4.96	-49.4	-52.9	13.3	1.06e-05	0	42	0	19922944	70	5350
2026-01-27 07:25:17.01	99.39	5.02	-49.6	-53.3	12.8	4.42e-05	0	42	0	22020096	70	5639
2026-01-27 07:25:18.02	99.33	5.09	-49.6	-53.1	13.0	1.37e-05	0	42	0	24117248	70	5517
2026-01-27 07:25:19.02	99.27	5.16	-48.1	-50.5	15.7	7.00e-07	0	42	0	26214400	68	4594
2026-01-27 07:25:20.02	99.21	5.22	-52.2	-65.4	3.9	6.75e-01	0	42	0	27262976	74	17970
2026-01-27 07:25:21.03	99.16	5.29	-50.1	-53.9	12.5	2.75e-03	0	42	0	27262976	70	6050
2026-01-27 07:25:22.03	99.10	5.36	-50.3	-54.7	11.6	0.00e+00	0	42	0	29360128	71	6253
2026-01-27 07:25:23.04	99.04	5.43	-48.1	-50.6	15.7	1.65e-04	0	42	0	31457280	68	4612
2026-01-27 07:25:24.05	98.98	5.49	-48.2	-50.7	15.6	0.00e+00	0	42	0	32505856	68	4662
2026-01-27 07:25:25.05	98.92	5.56	-48.1	-50.6	15.7	0.00e+00	0	42	0	34603008	68	4627
2026-01-27 07:25:26.06	98.86	5.63	-48.0	-50.4	15.8	0.00e+00	0	42	0	36700160	67	4800
2026-01-27 07:25:27.07	98.80	5.70	-47.9	-50.3	15.9	0.00e+00	0	42	0	38797312	67	4732
2026-01-27 07:25:28.07	98.74	5.77	-47.7	-50.0	16.2	0.00e+00	0	42	0	40894464	67	4568
2026-01-27 07:25:29.08	98.68	5.84	-47.9	-50.2	16.0	0.00e+00	0	42	0	42991616	67	4672
2026-01-27 07:25:30.09	98.62	5.90	-47.8	-50.1	16.2	0.00e+00	0	42	0	44040192	67	4607
2026-01-27 07:25:31.09	98.56	5.97	-47.8	-50.0	16.2	0.00e+00	0	42	0	46137344	67	4587
2026-01-27 07:25:32.10	98.50	6.04	-47.7	-50.0	16.3	0.00e+00	0	42	0	48234496	67	4555
2026-01-27 07:25:33.11	98.44	6.11	-47.7	-50.0	16.2	0.00e+00	0	42	0	50331648	67	4565
2026-01-27 07:25:34.12	98.37	6.18	-47.7	-50.0	16.2	0.00e+00	0	42	0	52428800	67	4565
2026-01-27 07:25:35.12	98.31	6.25	-47.7	-50.0	16.2	0.00e+00	0	42	0	53477376	67	4569
2026-01-27 07:25:36.13	98.25	6.32	-47.8	-50.0	16.2	0.00e+00	0	42	0	55574528	67	4589
2026-01-27 07:25:37.14	98.19	6.39	-47.9	-50.2	16.1	0.00e+00	0	42	0	57671680	67	4667
2026-01-27 07:25:38.15	98.12	6.46	-47.9	-50.2	16.1	0.00e+00	0	42	0	59768832	67	4674
2026-01-27 07:25:39.16	98.06	6.53	-47.7	-50.0	16.3	0.00e+00	0	42	0	60817408	67	4578
2026-01-27 07:25:40.16	98.00	6.60	-47.7	-49.9	16.4	0.00e+00	0	42	0	62914560	67	4536
2026-01-27 07:25:41.17	97.93	6.67	-47.8	-50.1	16.3	0.00e+00	0	42	0	65011712	67	4617
2026-01-27 07:25:42.18	97.87	6.74	-47.7	-50.0	16.3	0.00e+00	0	42	0	67108864	67	4558
2026-01-27 07:25:43.19	97.80	6.81	-47.6	-49.8	16.5	0.00e+00	0	42	0	69206016	67	4489
2026-01-27 07:25:44.20	97.74	6.88	-47.5	-49.7	16.7	0.00e+00	0	42	0	71303168	66	4652
2026-01-27 07:25:45.20	97.67	6.95	-47.6	-49.8	16.5	0.00e+00	0	42	0	72351744	66	4713
2026-01-27 07:25:46.21	97.61	7.02	-47.5	-49.7	16.6	0.00e+00	0	42	0	74448896	66	4682
2026-01-27 07:25:47.21	97.54	7.09	-47.6	-49.7	16.6	0.00e+00	0	42	0	76546048	66	4694
2026-01-27 07:25:48.22	97.47	7.17	-47.6	-49.7	16.6	0.00e+00	0	42	0	78643200	66	4694
2026-01-27 07:25:49.23	97.41	7.24	-47.4	-49.5	16.8	0.00e+00	0	42	0	80740352	66	4571
2026-01-27 07:25:50.24	97.34	7.31	-47.4	-49.5	16.8	0.00e+00	0	42	0	81788928	66	4579
2026-01-27 07:25:51.24	97.27	7.38	-47.5	-49.7	16.7	0.00e+00	0	42	0	83886080	66	4654
2026-01-27 07:25:52.25	97.20	7.45	-47.4	-49.5	16.8	0.00e+00	0	42	0	85983232	66	4574
2026-01-27 07:25:53.26	97.13	7.53	-47.3	-49.3	17.0	0.00e+00	0	42	0	88080384	66	4467
2026-01-27 07:25:54.27	97.07	7.60	-47.0	-49.1	17.2	0.00e+00	0	42	0	90177536	65	4607
2026-01-27 07:25:55.28	97.00	7.67	-47.0	-49.1	17.1	0.00e+00	0	42	0	91226112	65	4619
2026-01-27 07:25:56.29	96.93	7.75	-46.9	-48.9	17.4	0.00e+00	0	42	0	93323264	65	4509
2026-01-27 07:25:57.29	96.86	7.82	-46.9	-48.9	17.3	0.00e+00	0	42	0	95420416	65	4535
2026-01-27 07:25:58.30	96.79	7.89	-47.0	-49.1	17.1	0.00e+00	0	42	0	97517568	65	4620
2026-01-27 07:25:59.31	96.72	7.96	-46.9	-48.9	17.3	0.00e+00	0	42	0	99614720	65	4540
2026-01-27 07:26:00.31	96.65	8.04	-46.9	-49.0	17.3	0.00e+00	0	42	0	100663296	65	4555
2026-01-27 07:26:01.32	96.58	8.11	-47.0	-49.1	17.1	0.00e+00	0	42	0	102760448	65	4629
2026-01-27 07:26:02.33	96.50	8.19	-47.1	-49.1	17.1	0.00e+00	0	42	0	104857600	65	4640
2026-01-27 07:26:03.34	96.43	8.26	-46.9	-48.9	17.3	0.00e+00	0	42	0	106954752	65	4512
2026-01-27 07:26:04.35	96.36	8.33	-47.0	-49.0	17.2	0.00e+00	0	42	0	109051904	65	4572
2026-01-27 07:26:05.36	96.29	8.41	-46.9	-48.8	17.4	0.00e+00	0	42	0	110100480	65	4488
2026-01-27 07:26:06.37	96.21	8.48	-46.8	-48.7	17.5	0.00e+00	0	42	0	112197632	65	4428
2026-01-27 07:26:07.37	96.14	8.56	-46.7	-48.6	17.7	0.00e+00	0	42	0	114294784	65	4349
2026-01-27 07:26:08.38	96.07	8.63	-46.8	-48.7	17.6	0.00e+00	0	42	0	116391936	65	4409
2026-01-27 07:26:09.39	95.99	8.71	-46.8	-48.7	17.6	0.00e+00	0	42	0	118489088	65	4438
2026-01-27 07:26:10.40	95.92	8.78	-46.7	-48.6	17.7	0.00e+00	0	42	0	119537664	65	4372
2026-01-27 07:26:11.41	95.84	8.86	-46.8	-48.8	17.5	0.00e+00	0	42	0	121634816	65	4484
2026-01-27 07:26:12.41	95.77	8.93	-47.0	-49.0	17.3	0.00e+00	0	42	0	123731968	65	4591
2026-01-27 07:26:13.42	95.69	9.01	-46.9	-48.8	17.5	0.00e+00	0	42	0	125829120	65	4493
2026-01-27 07:26:14.43	95.61	9.09	-47.0	-49.0	17.3	0.00e+00	0	42	0	127926272	65	4579
2026-01-27 07:26:15.43	95.54	9.16	-46.8	-48.8	17.5	0.00e+00	0	42	0	128974848	65	4457
2026-01-27 07:26:16.44	95.46	9.24	-46.7	-48.6	17.7	0.00e+00	0	42	0	131072000	65	4379
2026-01-27 07:26:17.44	95.38	9.31	-46.7	-48.7	17.7	0.00e+00	0	42	0	133169152	65	4400
2026-01-27 07:26:18.45	95.30	9.39	-46.6	-48.5	17.9	0.00e+00	0	42	0	135266304	65	4310
2026-01-27 07:26:19.46	95.23	9.47	-46.5	-48.4	18.0	0.00e+00	0	42	0	137363456	64	4503
2026-01-27 07:26:20.47	95.15	9.54	-46.5	-48.3	18.0	0.00e+00	0	42	0	139460608	64	4485
2026-01-27 07:26:21.48	95.07	9.62	-46.7	-48.6	17.7	0.00e+00	0	42	0	140509184	64	4651
2026-01-27 07:26:22.48	94.99	9.70	-46.7	-48.7	17.7	0.00e+00	0	42	0	142606336	64	4656
2026-01-27 07:26:23.49	94.91	9.78	-46.8	-48.7	17.6	0.00e+00	0	42	0	144703488	64	4699
2026-01-27 07:26:24.50	94.83	9.85	-46.8	-48.7	17.7	0.00e+00	0	42	0	146800640	64	4669
2026-01-27 07:26:25.51	94.75	9.93	-46.8	-48.8	17.6	0.00e+00	0	42	0	147849216	64	4736
2026-01-27 07:26:26.52	94.66	10.01	-46.7	-48.6	17.7	0.00e+00	0	42	0	149946368	64	4619
2026-01-27 07:26:27.53	94.58	10.09	-46.7	-48.6	17.8	0.00e+00	0	42	0	152043520	64	4634
2026-01-27 07:26:28.53	94.50	10.17	-46.6	-48.4	17.9	0.00e+00	0	42	0	154140672	64	4544
2026-01-27 07:26:29.54	94.42	10.25	-46.7	-48.5	17.8	0.00e+00	0	42	0	156237824	64	4597
2026-01-27 07:26:30.55	94.33	10.33	-46.4	-48.2	18.2	0.00e+00	0	42	0	157286400	64	4419
2026-01-27 07:26:31.56	94.25	10.40	-46.3	-48.1	18.3	0.00e+00	0	42	0	159383552	64	4353
2026-01-27 07:26:32.56	94.17	10.48	-46.4	-48.2	18.2	0.00e+00	0	42	0	161480704	64	4411
2026-01-27 07:26:33.57	94.08	10.56	-46.6	-48.5	17.9	0.00e+00	0	43	0	163577856	64	4573
2026-01-27 07:26:34.58	94.00	10.64	-46.6	-48.4	18.0	0.00e+00	0	43	0	165675008	64	4531
2026-01-27 07:26:35.59	93.91	10.72	-46.7	-48.6	17.8	0.00e+00	0	42	0	167772160	64	4608
2026-01-27 07:26:36.59	93.82	10.80	-46.8	-48.7	17.7	0.00e+00	0	43	0	168820736	64	4687
2026-01-27 07:26:37.60	93.74	10.88	-46.9	-48.8	17.6	0.00e+00	0	42	0	170917888	64	4737
2026-01-27 07:26:38.61	93.65	10.96	-46.8	-48.8	17.7	0.00e+00	0	42	0	173015040	64	4716
2026-01-27 07:26:39.62	93.56	11.04	-47.0	-49.0	17.5	0.00e+00	0	42	0	175112192	64	4816
2026-01-27 07:26:40.62	93.47	11.12	-46.8	-48.8	17.6	0.00e+00	0	42	0	176160768	64	4717
2026-01-27 07:26:41.63	93.38	11.21	-47.0	-48.9	17.6	0.00e+00	0	42	0	178257920	64	4794
2026-01-27 07:26:42.63	93.30	11.29	-47.0	-49.0	17.4	0.00e+00	0	42	0	180355072	64	4826
2026-01-27 07:26:43.64	93.21	11.37	-46.6	-48.4	18.0	0.00e+00	0	42	0	182452224	64	4543
2026-01-27 07:26:44.65	93.12	11.45	-46.6	-48.5	18.0	0.00e+00	0	42	0	184549376	64	4550
2026-01-27 07:26:45.65	93.03	11.53	-46.7	-48.6	17.8	0.00e+00	0	42	0	185597952	64	4627
2026-01-27 07:26:46.65	92.93	11.61	-46.6	-48.5	18.0	0.00e+00	0	42	0	187695104	64	4554
2026-01-27 07:26:47.66	92.84	11.70	-46.8	-48.7	17.8	0.00e+00	0	42	0	189792256	64	4690
2026-01-27 07:26:48.67	92.75	11.78	-46.9	-48.8	17.7	0.00e+00	0	42	0	191889408	64	4728
2026-01-27 07:26:49.68	92.66	11.86	-46.7	-48.5	18.0	0.00e+00	0	42	0	193986560	64	4575
2026-01-27 07:26:50.69	92.56	11.94	-46.6	-48.5	18.0	0.00e+00	0	42	0	196083712	64	4569
2026-01-27 07:26:51.69	92.47	12.03	-46.4	-48.2	18.3	0.00e+00	0	43	0	197132288	64	4423
2026-01-27 07:26:52.70	92.38	12.11	-46.7	-48.5	17.9	0.00e+00	0	42	0	199229440	64	4571
2026-01-27 07:26:53.71	92.28	12.19	-46.6	-48.4	18.1	0.00e+00	0	42	0	201326592	64	4499
2026-01-27 07:26:54.71	92.19	12.28	-46.6	-48.4	18.1	0.00e+00	0	43	0	203423744	64	4507
2026-01-27 07:26:55.72	92.09	12.36	-46.5	-48.3	18.3	0.00e+00	0	42	0	204472320	64	4442
2026-01-27 07:26:56.73	91.99	12.44	-46.2	-47.9	18.6	0.00e+00	0	42	0	206569472	64	4279
2026-01-27 07:26:57.74	91.89	12.53	-46.0	-47.6	18.9	0.00e+00	0	42	0	208666624	63	4363
2026-01-27 07:26:58.75	91.80	12.61	-46.0	-47.6	19.0	0.00e+00	0	42	0	210763776	63	4360
2026-01-27 07:26:59.75	91.70	12.70	-45.9	-47.5	19.1	0.00e+00	0	42	0	212860928	63	4296
2026-01-27 07:27:00.76	91.60	12.78	-46.0	-47.6	19.0	0.00e+00	0	43	0	213909504	63	4367
2026-01-27 07:27:01.77	91.50	12.87	-46.0	-47.6	19.0	0.00e+00	0	43	0	216006656	63	4356
2026-01-27 07:27:02.77	91.40	12.95	-46.0	-47.7	18.9	0.00e+00	0	42	0	218103808	63	4401
2026-01-27 07:27:03.78	91.30	13.04	-46.2	-47.9	18.7	0.00e+00	0	42	0	220200960	63	4499
2026-01-27 07:27:04.79	91.20	13.13	-46.1	-47.7	18.9	0.00e+00	0	42	0	222298112	63	4408
2026-01-27 07:27:05.80	91.09	13.21	-46.0	-47.6	19.0	0.00e+00	0	42	0	224395264	63	4349
2026-01-27 07:27:06.81	90.99	13.30	-45.9	-47.5	19.1	0.00e+00	0	43	0	225443840	63	4294
2026-01-27 07:27:07.81	90.89	13.38	-45.8	-47.4	19.2	0.00e+00	0	42	0	227540992	63	4256
2026-01-27 07:27:08.82	90.78	13.47	-45.8	-47.3	19.2	0.00e+00	0	42	0	229638144	63	4229
2026-01-27 07:27:09.83	90.68	13.56	-45.9	-47.4	19.2	0.00e+00	0	42	0	231735296	63	4269
2026-01-27 07:27:10.83	90.58	13.64	-46.1	-47.7	18.9	0.00e+00	0	42	0	232783872	63	4437
2026-01-27 07:27:11.84	90.47	13.73	-46.0	-47.6	19.0	0.00e+00	0	42	0	234881024	63	4363
2026-01-27 07:27:12.84	90.36	13.82	-45.8	-47.3	19.2	0.00e+00	0	42	0	236978176	63	4238
2026-01-27 07:27:13.85	90.26	13.91	-45.9	-47.5	19.1	0.00e+00	0	43	0	239075328	63	4320
2026-01-27 07:27:14.86	90.15	13.99	-45.9	-47.4	18.8	0.00e+00	0	42	0	241172480	63	4257
2026-01-27 07:27:15.87	90.04	14.08	-45.9	-47.4	19.2	0.00e+00	0	42	0	243269632	63	4266
2026-01-27 07:27:16.88	89.93	14.17	-46.0	-47.5	19.1	0.00e+00	0	42	0	244318208	63	4322
2026-01-27 07:27:17.89	89.82	14.26	-46.0	-47.6	19.1	0.00e+00	0	43	0	246415360	63	4343
2026-01-27 07:27:18.90	89.71	14.35	-46.2	-47.8	18.9	0.00e+00	0	43	0	248512512	63	4475
2026-01-27 07:27:19.91	89.60	14.44	-46.2	-47.8	18.9	0.00e+00	0	42	0	250609664	63	4473
2026-01-27 07:27:20.91	89.49	14.53	-46.0	-47.6	19.1	0.00e+00	0	43	0	252706816	63	4346
2026-01-27 07:27:21.92	89.37	14.62	-46.0	-47.6	19.1	0.00e+00	0	43	0	253755392	63	4373
2026-01-27 07:27:22.93	89.26	14.71	-45.9	-47.4	19.2	0.00e+00	0	42	0	255852544	63	4272
2026-01-27 07:27:23.94	89.15	14.80	-45.8	-47.3	19.3	0.00e+00	0	42	0	257949696	63	4237
2026-01-27 07:27:24.95	89.03	14.89	-45.8	-47.3	19.3	0.00e+00	0	43	0	260046848	63	4225
2026-01-27 07:27:25.95	88.92	14.98	-45.8	-47.3	19.3	0.00e+00	0	43	0	261095424	63	4225
2026-01-27 07:27:26.96	88.80	15.07	-46.0	-47.6	19.1	0.00e+00	0	42	0	263192576	63	4341
2026-01-27 07:27:27.96	88.68	15.16	-46.1	-47.7	19.0	0.00e+00	0	42	0	265289728	63	4412
2026-01-27 07:27:28.97	88.57	15.25	-46.1	-47.8	18.9	0.00e+00	0	42	0	267386880	63	4447
2026-01-27 07:27:29.97	88.45	15.34	-46.2	-47.8	18.9	0.00e+00	0	43	0	269484032	63	4470
2026-01-27 07:27:30.98	88.33	15.43	-46.2	-47.8	18.9	0.00e+00	0	43	0	271581184	63	4452
2026-01-27 07:27:31.99	88.21	15.52	-46.0	-47.6	19.0	0.00e+00	0	43	0	272629760	63	4389
2026-01-27 07:27:32.99	88.09	15.61	-46.1	-47.7	19.0	0.00e+00	0	43	0	274726912	63	4418
2026-01-27 07:27:33.99	87.97	15.70	-45.9	-47.4	19.2	0.00e+00	0	43	0	276824064	63	4287
2026-01-27 07:27:35.00	87.85	15.80	-46.1	-47.7	19.0	0.00e+00	0	43	0	278921216	63	4409
2026-01-27 07:27:36.01	87.73	15.89	-45.9	-47.5	19.3	0.00e+00	0	43	0	281018368	63	4301
2026-01-27 07:27:37.02	87.60	15.98	-45.9	-47.5	19.1	0.00e+00	0	43	0	282066944	63	4329
2026-01-27 07:27:38.03	87.48	16.07	-46.2	-47.8	18.9	0.00e+00	0	42	0	284164096	63	4482
2026-01-27 07:27:39.03	87.35	16.17	-46.1	-47.7	19.0	0.00e+00	0	43	0	286261248	63	4396
2026-01-27 07:27:40.04	87.23	16.26	-46.0	-47.6	19.0	0.00e+00	0	43	0	288358400	63	4365
2026-01-27 07:27:41.05	87.10	16.35	-45.9	-47.4	19.3	0.00e+00	0	43	0	289406976	63	4276
2026-01-27 07:27:42.05	86.97	16.45	-45.8	-47.3	19.4	0.00e+00	0	42	0	291504128	63	4198
2026-01-27 07:27:43.06	86.84	16.54	-45.7	-47.2	19.5	0.00e+00	0	43	0	293601280	63	4161
2026-01-27 07:27:44.07	86.71	16.64	-45.5	-46.9	19.7	0.00e+00	0	42	0	295698432	63	4047
2026-01-27 07:27:45.07	86.59	16.73	-45.7	-47.2	19.5	0.00e+00	0	42	0	297795584	63	4177
2026-01-27 07:27:46.08	86.45	16.82	-45.9	-47.4	19.4	0.00e+00	0	43	0	299892736	63	4257
2026-01-27 07:27:47.09	86.32	16.92	-45.8	-47.3	19.4	0.00e+00	0	43	0	300941312	63	4235
2026-01-27 07:27:48.09	86.19	17.01	-45.9	-47.5	19.3	0.00e+00	0	42	0	303038464	63	4309
2026-01-27 07:27:49.09	86.06	17.11	-45.8	-47.3	19.5	0.00e+00	0	42	0	305135616	63	4198
2026-01-27 07:27:50.10	85.92	17.20	-45.6	-47.1	19.6	0.00e+00	0	43	0	307232768	62	4359
2026-01-27 07:27:51.11	85.79	17.30	-45.7	-47.2	19.6	0.00e+00	0	42	0	309329920	62	4400
2026-01-27 07:27:52.12	85.65	17.39	-45.6	-47.1	19.6	0.00e+00	0	42	0	310378496	62	4349
2026-01-27 07:27:53.12	85.52	17.49	-45.9	-47.5	19.3	0.00e+00	0	43	0	312475648	62	4549
2026-01-27 07:27:54.13	85.38	17.59	-46.4	-48.0	18.8	0.00e+00	0	42	0	314572800	63	4580
2026-01-27 07:27:55.13	85.24	17.68	-46.5	-48.2	18.6	0.00e+00	0	43	0	316669952	63	4690
2026-01-27 07:27:56.14	85.10	17.78	-46.7	-48.6	18.2	0.00e+00	0	42	0	317718528	64	4606
2026-01-27 07:27:57.14	84.96	17.88	-47.0	-48.9	17.9	0.00e+00	0	42	0	319815680	64	4814
2026-01-27 07:27:58.15	84.82	17.97	-46.8	-48.7	18.1	0.00e+00	0	42	0	321912832	64	4661
2026-01-27 07:27:59.15	84.68	18.07	-46.8	-48.6	18.2	0.00e+00	0	42	0	324009984	64	4603
2026-01-27 07:28:00.15	84.54	18.17	-46.7	-48.4	18.3	0.00e+00	0	42	0	326107136	64	4530
2026-01-27 07:28:01.16	84.39	18.26	-46.6	-48.4	18.4	0.00e+00	0	42	0	327155712	64	4510
2026-01-27 07:28:02.17	84.25	18.36	-46.9	-48.7	18.1	0.00e+00	0	43	0	329252864	64	4685
2026-01-27 07:28:03.18	84.10	18.46	-46.7	-48.5	18.2	0.00e+00	0	42	0	331350016	64	4582
2026-01-27 07:28:04.19	83.95	18.56	-46.6	-48.4	18.4	0.00e+00	0	42	0	333447168	64	4517
2026-01-27 07:28:05.19	83.81	18.66	-46.5	-48.2	18.6	0.00e+00	0	43	0	335544320	64	4418
2026-01-27 07:28:06.20	83.66	18.75	-46.4	-48.1	18.7	0.00e+00	0	43	0	337641472	64	4359
2026-01-27 07:28:07.21	83.51	18.85	-46.1	-47.7	19.0	0.00e+00	0	43	0	338690048	64	4154
2026-01-27 07:28:08.22	83.36	18.95	-46.1	-47.6	19.2	0.00e+00	0	42	0	340787200	63	4362
2026-01-27 07:28:09.23	83.20	19.05	-46.0	-47.5	19.3	0.00e+00	0	43	0	342884352	63	4330
2026-01-27 07:28:10.24	83.05	19.15	-46.0	-47.5	19.3	0.00e+00	0	43	0	344981504	63	4316
2026-01-27 07:28:11.24	82.90	19.25	-46.2	-47.8	19.1	0.00e+00	0	42	0	346030080	63	4458
2026-01-27 07:28:12.25	82.74	19.35	-46.2	-47.8	19.0	0.00e+00	0	43	0	348127232	63	4480
2026-01-27 07:28:13.26	82.58	19.45	-46.2	-47.8	19.2	0.00e+00	0	43	0	350224384	63	4448
2026-01-27 07:28:14.26	82.43	19.55	-46.4	-48.1	18.8	0.00e+00	0	43	0	352321536	63	4602
2026-01-27 07:28:15.27	82.27	19.65	-46.3	-47.9	19.0	0.00e+00	0	43	0	354418688	63	4531
2026-01-27 07:28:16.28	82.11	19.75	-46.4	-48.0	18.9	0.00e+00	0	43	0	356515840	63	4591
2026-01-27 07:28:17.29	81.95	19.85	-46.3	-47.9	18.9	0.00e+00	0	42	0	357564416	63	4545
2026-01-27 07:28:18.30	81.79	19.95	-46.2	-47.8	19.1	0.00e+00	0	43	0	359661568	63	4485
2026-01-27 07:28:19.30	81.63	20.05	-46.5	-48.2	18.7	0.00e+00	0	43	0	361758720	63	4667
2026-01-27 07:28:20.31	81.46	20.15	-46.3	-47.9	18.9	0.00e+00	0	43	0	363855872	63	4530
2026-01-27 07:28:21.32	81.30	20.25	-46.2	-47.8	19.0	0.00e+00	0	42	0	365953024	63	4491
2026-01-27 07:28:22.32	81.13	20.35	-46.0	-47.5	19.4	0.00e+00	0	42	0	367001600	63	4307
2026-01-27 07:28:23.33	80.97	20.46	-46.1	-47.6	19.3	0.00e+00	0	43	0	369098752	63	4368
2026-01-27 07:28:24.33	80.80	20.56	-46.3	-47.9	19.0	0.00e+00	0	43	0	371195904	63	4510
2026-01-27 07:28:25.34	80.63	20.66	-46.3	-47.9	19.1	0.00e+00	0	43	0	373293056	63	4495
2026-01-27 07:28:26.35	80.46	20.76	-46.4	-48.0	18.9	0.00e+00	0	43	0	374341632	63	4573
2026-01-27 07:28:27.35	80.29	20.86	-46.3	-47.9	19.0	0.00e+00	0	43	0	376438784	63	4530
2026-01-27 07:28:28.36	80.12	20.96	-46.2	-47.8	19.1	0.00e+00	0	43	0	378535936	63	4442
2026-01-27 07:28:29.37	79.94	21.07	-46.5	-48.2	18.8	0.00e+00	0	43	0	380633088	63	4660
2026-01-27 07:28:30.38	79.77	21.17	-46.6	-48.2	18.7	0.00e+00	0	43	0	382730240	63	4688
2026-01-27 07:28:31.38	79.59	21.27	-46.6	-48.4	18.6	0.00e+00	0	43	0	384827392	63	4765
2026-01-27 07:28:32.38	79.42	21.37	-46.5	-48.2	18.6	0.00e+00	0	43	0	385875968	64	4437
2026-01-27 07:28:33.39	79.24	21.48	-46.7	-48.5	18.4	0.00e+00	0	43	0	387973120	64	4562
2026-01-27 07:28:34.39	79.06	21.58	-46.6	-48.3	18.6	0.00e+00	0	43	0	390070272	64	4459
2026-01-27 07:28:35.40	78.88	21.68	-46.7	-48.5	18.4	0.00e+00	0	43	0	392167424	64	4547
2026-01-27 07:28:36.41	78.70	21.79	-46.4	-48.1	18.7	0.00e+00	0	43	0	394264576	64	4382
2026-01-27 07:28:37.41	78.52	21.89	-46.7	-48.5	18.4	0.00e+00	0	43	0	395313152	64	4572
2026-01-27 07:28:38.42	78.33	21.99	-46.7	-48.5	18.4	0.00e+00	0	43	0	397410304	64	4584
2026-01-27 07:28:39.43	78.14	22.10	-46.5	-48.2	18.6	0.00e+00	0	43	0	399507456	64	4422
2026-01-27 07:28:40.43	77.96	22.20	-46.3	-47.9	18.9	0.00e+00	0	43	0	401604608	64	4280
2026-01-27 07:28:41.44	77.77	22.30	-46.2	-47.8	19.0	0.00e+00	0	43	0	402653184	64	4232
2026-01-27 07:28:42.45	77.58	22.41	-46.1	-47.7	19.1	0.00e+00	0	43	0	404750336	64	4185
2026-01-27 07:28:43.46	77.39	22.51	-46.1	-47.7	19.2	0.00e+00	0	43	0	406847488	63	4403
2026-01-27 07:28:44.47	77.20	22.61	-46.2	-47.8	19.1	0.00e+00	0	43	0	408944640	63	4454
2026-01-27 07:28:45.48	77.00	22.72	-46.3	-48.0	19.0	0.00e+00	0	43	0	411041792	63	4548
2026-01-27 07:28:46.49	76.81	22.82	-46.0	-47.5	19.4	0.00e+00	0	43	0	413138944	63	4333
2026-01-27 07:28:47.50	76.61	22.93	-45.8	-47.3	19.6	0.00e+00	0	43	0	414187520	63	4223
2026-01-27 07:28:48.51	76.41	23.03	-45.9	-47.4	19.6	0.00e+00	0	43	0	416284672	63	4257
2026-01-27 07:28:49.52	76.21	23.14	-46.0	-47.5	19.5	0.00e+00	0	43	0	418381824	63	4295
2026-01-27 07:28:50.53	76.01	23.24	-45.8	-47.3	19.6	0.00e+00	0	43	0	420478976	63	4222
2026-01-27 07:28:51.54	75.81	23.34	-45.8	-47.2	19.7	0.00e+00	0	43	0	422576128	63	4192
2026-01-27 07:28:52.54	75.61	23.45	-45.8	-47.3	19.7	0.00e+00	0	43	0	423624704	63	4195
2026-01-27 07:28:53.55	75.41	23.55	-46.1	-47.7	19.3	0.00e+00	0	43	0	425721856	63	4395
2026-01-27 07:28:54.56	75.20	23.66	-46.0	-47.5	19.5	0.00e+00	0	43	0	427819008	63	4309
2026-01-27 07:28:55.57	74.99	23.76	-46.1	-47.5	19.4	0.00e+00	0	43	0	429916160	63	4337
2026-01-27 07:28:56.58	74.78	23.87	-46.3	-47.9	19.1	0.00e+00	0	43	0	432013312	63	4508
2026-01-27 07:28:57.59	74.57	23.97	-46.1	-47.6	19.4	0.00e+00	0	43	0	433061888	63	4353
2026-01-27 07:28:58.60	74.36	24.08	-45.9	-47.3	19.7	0.00e+00	0	43	0	435159040	63	4226
2026-01-27 07:28:59.60	74.15	24.18	-45.9	-47.3	19.7	0.00e+00	0	43	0	437256192	63	4212
2026-01-27 07:29:00.61	73.94	24.28	-46.1	-47.5	19.5	0.00e+00	0	43	0	439353344	63	4326
2026-01-27 07:29:01.62	73.72	24.39	-46.2	-47.7	19.2	0.00e+00	0	43	0	441450496	63	4438
2026-01-27 07:29:02.63	73.50	24.49	-46.1	-47.6	19.4	0.00e+00	0	43	0	442499072	63	4371
2026-01-27 07:29:03.63	73.29	24.60	-46.2	-47.7	19.3	0.00e+00	0	43	0	444596224	63	4423
2026-01-27 07:29:04.64	73.07	24.70	-46.3	-47.8	19.2	0.00e+00	0	43	0	446693376	63	4479
2026-01-27 07:29:05.65	72.84	24.80	-46.3	-47.9	19.1	0.00e+00	0	43	0	448790528	63	4522
2026-01-27 07:29:06.66	72.62	24.91	-46.2	-47.8	19.3	0.00e+00	0	43	0	450887680	63	4449
2026-01-27 07:29:07.66	72.40	25.01	-46.2	-47.8	19.2	0.00e+00	0	43	0	451936256	63	4469
2026-01-27 07:29:08.67	72.17	25.12	-46.3	-47.8	19.2	0.00e+00	0	43	0	454033408	63	4488
2026-01-27 07:29:09.68	71.94	25.22	-46.1	-47.7	19.4	0.00e+00	0	43	0	456130560	63	4393
2026-01-27 07:29:10.69	71.72	25.32	-46.3	-47.9	19.2	0.00e+00	0	43	0	458227712	63	4501
2026-01-27 07:29:11.69	71.49	25.43	-46.4	-48.1	19.0	0.00e+00	0	43	0	460324864	63	4602
2026-01-27 07:29:12.70	71.25	25.53	-46.4	-48.0	19.1	0.00e+00	0	43	0	461373440	63	4571
2026-01-27 07:29:13.71	71.02	25.63	-46.4	-47.9	19.2	0.00e+00	0	43	0	463470592	63	4540
2026-01-27 07:29:14.71	70.79	25.74	-46.0	-47.5	19.5	0.00e+00	0	43	0	465567744	63	4318
2026-01-27 07:29:15.72	70.55	25.84	-46.3	-47.9	19.2	0.00e+00	0	43	0	467664896	63	4509
2026-01-27 07:29:16.73	70.31	25.94	-46.6	-48.3	18.9	0.00e+00	0	43	0	469762048	63	4709
2026-01-27 07:29:17.73	70.07	26.05	-46.6	-48.2	18.9	0.00e+00	0	42	0	470810624	63	4686
2026-01-27 07:29:18.74	69.83	26.15	-46.5	-48.1	19.1	0.00e+00	0	43	0	472907776	63	4619
2026-01-27 07:29:19.75	69.59	26.25	-46.3	-47.8	19.2	0.00e+00	0	43	0	475004928	63	4489
2026-01-27 07:29:20.76	69.34	26.35	-46.0	-47.5	19.6	0.00e+00	0	43	0	477102080	63	4300
2026-01-27 07:29:21.77	69.10	26.46	-45.7	-47.1	19.9	0.00e+00	0	43	0	479199232	63	4142
2026-01-27 07:29:22.77	68.85	26.56	-45.6	-47.0	20.0	0.00e+00	0	43	0	480247808	63	4097
2026-01-27 07:29:23.78	68.60	26.66	-45.3	-46.6	20.4	0.00e+00	0	43	0	482344960	62	4128
2026-01-27 07:29:24.79	68.35	26.76	-44.9	-46.1	20.8	0.00e+00	0	43	0	484442112	61	4132
2026-01-27 07:29:25.79	68.10	26.86	-44.6	-45.8	21.0	0.00e+00	0	43	0	486539264	61	4002
2026-01-27 07:29:26.80	67.85	26.96	-44.6	-45.8	21.1	0.00e+00	0	43	0	488636416	61	3966
2026-01-27 07:29:27.81	67.59	27.06	-44.6	-45.8	21.1	0.00e+00	0	43	0	489684992	61	3995
2026-01-27 07:29:28.82	67.33	27.16	-44.9	-46.2	20.7	0.00e+00	0	43	0	491782144	61	4192
2026-01-27 07:29:29.83	67.07	27.26	-45.1	-46.4	20.5	0.00e+00	0	43	0	493879296	61	4278
2026-01-27 07:29:30.83	66.82	27.36	-45.3	-46.6	20.3	0.00e+00	0	43	0	495976448	61	4387
2026-01-27 07:29:31.84	66.55	27.46	-45.5	-46.9	20.0	0.00e+00	0	43	0	498073600	61	4510
2026-01-27 07:29:32.85	66.29	27.56	-45.8	-47.3	19.7	0.00e+00	0	43	0	499122176	62	4476
2026-01-27 07:29:33.86	66.02	27.66	-45.6	-47.0	20.0	0.00e+00	0	43	0	501219328	62	4315
2026-01-27 07:29:34.87	65.76	27.76	-45.8	-47.3	19.7	0.00e+00	0	43	0	503316480	62	4471
2026-01-27 07:29:35.88	65.49	27.86	-45.9	-47.4	19.5	0.00e+00	0	43	0	505413632	62	4539
2026-01-27 07:29:36.88	65.22	27.96	-46.4	-48.0	19.1	0.00e+00	0	43	0	507510784	63	4573
2026-01-27 07:29:37.89	64.95	28.05	-46.7	-48.5	18.5	0.00e+00	0	43	0	508559360	64	4565
2026-01-27 07:29:38.90	64.67	28.15	-46.9	-48.7	18.2	0.00e+00	0	43	0	510656512	64	4705
2026-01-27 07:29:39.91	64.39	28.25	-47.0	-48.8	18.2	0.00e+00	0	43	0	512753664	65	4457
2026-01-27 07:29:40.91	64.12	28.34	-47.0	-48.8	18.2	0.00e+00	0	43	0	514850816	65	4488
2026-01-27 07:29:41.92	63.84	28.44	-47.0	-48.8	18.3	0.00e+00	0	43	0	516947968	65	4443
2026-01-27 07:29:42.93	63.56	28.54	-46.6	-48.2	18.8	0.00e+00	0	43	0	517996544	65	4172
2026-01-27 07:29:43.93	63.28	28.63	-46.7	-48.4	18.7	0.00e+00	0	43	0	520093696	65	4261
2026-01-27 07:29:44.93	63.00	28.72	-46.6	-48.3	18.7	0.00e+00	0	43	0	522190848	65	4221
2026-01-27 07:29:45.94	62.71	28.82	-46.4	-48.1	18.9	0.00e+00	0	43	0	524288000	64	4342
2026-01-27 07:29:46.94	62.43	28.91	-46.1	-47.6	19.4	0.00e+00	0	43	0	526385152	63	4380
2026-01-27 07:29:47.95	62.14	29.01	-46.4	-48.0	19.0	0.00e+00	0	43	0	527433728	63	4576
2026-01-27 07:29:48.95	61.85	29.10	-46.7	-48.4	18.6	0.00e+00	0	43	0	529530880	63	4786
2026-01-27 07:29:49.96	61.56	29.19	-46.8	-48.5	18.4	0.00e+00	0	43	0	531628032	64	4581
2026-01-27 07:29:50.96	61.27	29.28	-47.1	-49.0	18.0	0.00e+00	0	43	0	533725184	64	4860
2026-01-27 07:29:51.97	60.97	29.37	-47.0	-48.9	18.1	0.00e+00	0	43	0	535822336	65	4506
2026-01-27 07:29:52.97	60.67	29.46	-47.2	-49.1	17.9	0.00e+00	0	43	0	536870912	65	4635
2026-01-27 07:29:53.97	60.38	29.55	-47.4	-49.4	17.7	0.00e+00	0	43	0	538968064	65	4772
2026-01-27 07:29:54.98	60.08	29.64	-48.0	-50.2	16.9	0.00e+00	0	43	0	541065216	66	4981
2026-01-27 07:29:55.99	59.77	29.73	-48.3	-50.7	16.5	0.00e+00	0	43	0	543162368	67	4957
2026-01-27 07:29:57.00	59.47	29.82	-48.5	-51.0	16.2	0.00e+00	0	43	0	545259520	67	5154
2026-01-27 07:29:58.01	59.16	29.90	-49.0	-51.7	15.6	0.00e+00	0	43	0	546308096	68	5243
2026-01-27 07:29:59.02	58.86	29.99	-49.0	-51.8	15.5	0.00e+00	0	43	0	548405248	68	5307
2026-01-27 07:30:00.03	58.55	30.08	-49.1	-51.8	15.5	0.00e+00	0	43	0	550502400	68	5340
2026-01-27 07:30:01.03	58.24	30.16	-49.0	-51.7	15.5	0.00e+00	0	43	0	552599552	69	4966
2026-01-27 07:30:02.04	57.92	30.25	-48.7	-51.2	16.1	0.00e+00	0	43	0	554696704	69	4667
2026-01-27 07:30:03.05	57.61	30.33	-48.3	-50.6	16.7	0.00e+00	0	43	0	555745280	68	4613
2026-01-27 07:30:04.05	57.30	30.41	-47.9	-50.0	17.1	0.00e+00	0	43	0	557842432	67	4587
2026-01-27 07:30:05.06	56.98	30.50	-48.1	-50.2	17.0	0.00e+00	0	43	0	559939584	67	4696
2026-01-27 07:30:06.07	56.66	30.58	-48.1	-50.2	17.0	0.00e+00	0	42	0	562036736	67	4685
2026-01-27 07:30:07.07	56.34	30.66	-47.7	-49.7	17.4	0.00e+00	0	43	0	564133888	67	4410
2026-01-27 07:30:08.08	56.02	30.74	-47.9	-50.0	17.1	0.00e+00	0	43	0	565182464	67	4596
2026-01-27 07:30:09.08	55.70	30.82	-48.0	-50.2	16.8	0.00e+00	0	43	0	567279616	67	4690
2026-01-27 07:30:10.09	55.37	30.90	-47.5	-49.6	17.4	0.00e+00	0	43	0	569376768	67	4341
2026-01-27 07:30:11.10	55.05	30.97	-47.5	-49.5	17.5	0.00e+00	0	43	0	571473920	66	4579
2026-01-27 07:30:12.10	54.72	31.05	-47.5	-49.6	17.4	0.00e+00	0	43	0	573571072	66	4629
2026-01-27 07:30:13.11	54.39	31.13	-47.6	-49.7	17.3	0.00e+00	0	43	0	574619648	66	4676
2026-01-27 07:30:14.12	54.06	31.20	-47.5	-49.5	17.5	0.00e+00	0	43	0	576716800	67	4334
2026-01-27 07:30:15.13	53.72	31.28	-47.6	-49.6	17.4	0.00e+00	0	43	0	578813952	67	4378
2026-01-27 07:30:16.13	53.39	31.35	-47.4	-49.4	17.5	0.00e+00	0	43	0	580911104	66	4519
2026-01-27 07:30:17.14	53.06	31.42	-47.3	-49.3	17.7	0.00e+00	0	43	0	583008256	66	4480
2026-01-27 07:30:18.15	52.72	31.49	-47.2	-49.1	17.9	0.00e+00	0	43	0	584056832	66	4377
2026-01-27 07:30:19.16	52.38	31.56	-47.2	-49.2	17.8	0.00e+00	0	43	0	586153984	66	4413
2026-01-27 07:30:20.16	52.04	31.63	-47.1	-49.0	18.0	0.00e+00	0	43	0	588251136	66	4332
2026-01-27 07:30:21.17	51.70	31.70	-47.4	-49.5	17.5	0.00e+00	0	43	0	590348288	66	4571
2026-01-27 07:30:22.18	51.35	31.77	-47.6	-49.6	17.4	0.00e+00	0	43	0	592445440	66	4631
2026-01-27 07:30:23.19	51.01	31.83	-47.4	-49.4	17.7	0.00e+00	0	43	0	593494016	66	4541
2026-01-27 07:30:24.19	50.66	31.90	-47.0	-48.8	18.3	0.00e+00	0	43	0	595591168	65	4488
2026-01-27 07:30:25.20	50.32	31.96	-46.8	-48.6	18.4	0.00e+00	0	43	0	597688320	65	4368
2026-01-27 07:30:26.21	49.97	32.03	-46.7	-48.4	18.5	0.00e+00	0	43	0	599785472	65	4289
2026-01-27 07:30:27.22	49.62	32.09	-46.9	-48.7	18.0	0.00e+00	0	43	0	601882624	65	4405
2026-01-27 07:30:28.23	49.26	32.15	-47.1	-49.0	17.2	0.00e+00	0	43	0	602931200	65	4564
2026-01-27 07:30:29.23	48.91	32.21	-47.0	-48.9	17.5	0.00e+00	0	43	0	605028352	65	4494
2026-01-27 07:30:30.24	48.56	32.27	-47.0	-48.9	17.7	0.00e+00	0	43	0	607125504	65	4542
2026-01-27 07:30:31.24	48.21	32.33	-46.8	-48.7	18.2	0.00e+00	0	43	0	609222656	65	4394
2026-01-27 07:30:32.25	47.85	32.38	-46.3	-48.0	19.0	0.00e+00	0	43	0	611319808	64	4296
2026-01-27 07:30:33.26	47.49	32.44	-46.0	-47.6	19.3	0.00e+00	0	43	0	612368384	64	4114
2026-01-27 07:30:34.26	47.13	32.49	-46.1	-47.6	19.4	0.00e+00	0	43	0	614465536	63	4366
2026-01-27 07:30:35.27	46.77	32.55	-46.4	-48.0	19.0	0.00e+00	0	43	0	616562688	63	4558
2026-01-27 07:30:36.28	46.41	32.60	-46.7	-48.4	18.8	0.00e+00	0	43	0	618659840	63	4787
2026-01-27 07:30:37.29	46.05	32.65	-46.9	-48.7	18.4	0.00e+00	0	43	0	620756992	64	4659
2026-01-27 07:30:38.29	45.69	32.70	-47.2	-49.0	18.1	0.00e+00	0	43	0	621805568	65	4597
2026-01-27 07:30:39.30	45.32	32.75	-46.9	-48.7	18.3	0.00e+00	0	43	0	623902720	65	4437
2026-01-27 07:30:40.31	44.95	32.79	-46.7	-48.5	18.6	0.00e+00	0	42	0	625999872	65	4302
2026-01-27 07:30:41.31	44.59	32.84	-46.3	-47.9	19.0	0.00e+00	0	43	0	628097024	64	4284
2026-01-27 07:30:42.32	44.22	32.88	-45.8	-47.2	19.8	0.00e+00	0	43	0	630194176	63	4168
2026-01-27 07:30:43.33	43.85	32.93	-45.4	-46.7	20.2	0.00e+00	0	43	0	631242752	62	4168
2026-01-27 07:30:44.34	43.48	32.97	-45.3	-46.6	20.3	0.00e+00	0	43	0	633339904	62	4142
2026-01-27 07:30:45.35	43.11	33.01	-45.5	-46.9	20.2	0.00e+00	0	43	0	635437056	62	4269
2026-01-27 07:30:46.35	42.74	33.05	-45.0	-46.3	20.6	0.00e+00	0	43	0	637534208	62	3982
2026-01-27 07:30:47.36	42.37	33.09	-44.9	-46.2	20.7	0.00e+00	0	43	0	639631360	61	4161
2026-01-27 07:30:48.37	41.99	33.12	-45.2	-46.5	20.4	0.00e+00	0	43	0	641728512	61	4321
2026-01-27 07:30:49.37	41.62	33.16	-46.0	-47.5	19.6	0.00e+00	0	43	0	642777088	62	4561
2026-01-27 07:30:50.38	41.24	33.19	-46.8	-48.7	18.4	0.00e+00	0	43	0	644874240	64	4654
2026-01-27 07:30:51.39	40.87	33.22	-47.5	-49.6	17.5	0.00e+00	0	43	0	646971392	65	4920
2026-01-27 07:30:52.39	40.49	33.26	-47.1	-49.0	18.1	0.00e+00	0	43	0	649068544	65	4550
2026-01-27 07:30:53.40	40.12	33.29	-46.4	-48.0	18.9	0.00e+00	0	43	0	650117120	64	4331
2026-01-27 07:30:54.41	39.74	33.31	-46.3	-47.8	19.2	0.00e+00	0	43	0	652214272	63	4484
2026-01-27 07:30:55.41	39.36	33.34	-46.6	-48.3	18.8	0.00e+00	0	43	0	654311424	63	4713
2026-01-27 07:30:56.42	38.98	33.37	-47.0	-48.8	18.3	0.00e+00	0	42	0	656408576	64	4747
2026-01-27 07:30:57.43	38.60	33.39	-46.9	-48.7	18.3	0.00e+00	0	43	0	658505728	64	4670
2026-01-27 07:30:58.44	38.22	33.41	-46.4	-48.0	19.1	0.00e+00	0	42	0	659554304	64	4320
2026-01-27 07:30:59.45	37.84	33.43	-46.2	-47.7	19.3	0.00e+00	0	43	0	661651456	64	4153
2026-01-27 07:31:00.46	37.46	33.45	-46.0	-47.5	19.6	0.00e+00	0	43	0	663748608	64	4055
2026-01-27 07:31:01.46	37.08	33.47	-45.8	-47.2	19.9	0.00e+00	0	43	0	665845760	63	4191
2026-01-27 07:31:02.47	36.69	33.49	-45.7	-47.1	20.0	0.00e+00	0	43	0	667942912	63	4120
2026-01-27 07:31:03.48	36.31	33.51	-45.6	-47.0	20.1	0.00e+00	0	43	0	670040064	63	4069
2026-01-27 07:31:04.48	35.93	33.52	-45.9	-47.3	19.9	0.00e+00	0	43	0	671088640	63	4207
2026-01-27 07:31:05.49	35.55	33.53	-46.3	-47.9	19.3	0.00e+00	0	43	0	673185792	63	4510
2026-01-27 07:31:06.49	35.16	33.54	-46.9	-48.7	18.5	0.00e+00	0	43	0	675282944	64	4656
2026-01-27 07:31:07.50	34.78	33.55	-47.4	-49.3	17.9	0.00e+00	0	43	0	677380096	65	4735
2026-01-27 07:31:08.51	34.40	33.56	-47.5	-49.5	17.6	0.00e+00	0	43	0	678428672	65	4846
2026-01-27 07:31:09.51	34.01	33.57	-47.9	-50.0	17.1	0.00e+00	0	43	0	680525824	66	4827
2026-01-27 07:31:10.52	33.63	33.57	-48.0	-50.1	17.1	0.00e+00	0	43	0	682622976	66	4910
2026-01-27 07:31:11.53	33.24	33.58	-48.4	-50.7	16.4	0.00e+00	0	43	0	684720128	67	4958
2026-01-27 07:31:12.54	32.86	33.58	-48.5	-50.9	16.3	0.00e+00	0	43	0	686817280	67	5064
2026-01-27 07:31:13.54	32.48	33.58	-48.4	-50.7	16.5	0.00e+00	0	43	0	687865856	67	4964
2026-01-27 07:31:14.55	32.09	33.58	-48.2	-50.5	16.7	0.00e+00	0	42	0	689963008	67	4864
2026-01-27 07:31:15.55	31.71	33.58	-47.8	-49.9	17.3	0.00e+00	0	43	0	692060160	67	4500
2026-01-27 07:31:16.56	31.32	33.58	-47.5	-49.4	17.8	0.00e+00	0	43	0	694157312	66	4519
2026-01-27 07:31:17.57	30.94	33.57	-47.1	-48.8	18.1	0.00e+00	0	43	0	696254464	66	4236
2026-01-27 07:31:18.57	30.56	33.57	-46.9	-48.7	18.4	0.00e+00	0	43	0	698351616	65	4392
2026-01-27 07:31:19.58	30.17	33.56	-46.7	-48.3	18.8	0.00e+00	0	43	0	699400192	65	4233
2026-01-27 07:31:20.59	29.79	33.55	-46.9	-48.6	18.5	0.00e+00	0	43	0	701497344	65	4355
2026-01-27 07:31:21.59	29.41	33.54	-47.3	-49.2	18.0	0.00e+00	0	43	0	703594496	65	4671
2026-01-27 07:31:22.60	29.02	33.53	-47.8	-49.9	17.3	0.00e+00	0	43	0	705691648	66	4792
2026-01-27 07:31:23.61	28.64	33.51	-47.7	-49.7	17.5	0.00e+00	0	43	0	706740224	67	4412
2026-01-27 07:31:24.61	28.26	33.50	-47.5	-49.3	17.9	0.00e+00	0	43	0	708837376	66	4490
2026-01-27 07:31:25.62	27.88	33.48	-46.9	-48.6	18.5	0.00e+00	0	43	0	710934528	65	4354
2026-01-27 07:31:26.63	27.49	33.46	-46.7	-48.3	18.8	0.00e+00	0	43	0	713031680	65	4224
2026-01-27 07:31:27.64	27.11	33.44	-47.2	-49.1	18.1	0.00e+00	0	43	0	715128832	65	4612
2026-01-27 07:31:28.65	26.73	33.42	-48.0	-50.1	17.0	0.00e+00	0	43	0	716177408	66	4909
2026-01-27 07:31:29.66	26.35	33.40	-48.3	-50.6	16.6	0.00e+00	0	43	0	718274560	67	4893
2026-01-27 07:31:30.67	25.97	33.38	-47.7	-49.7	17.4	0.00e+00	0	43	0	720371712	67	4405
2026-01-27 07:31:31.67	25.59	33.35	-47.8	-49.9	17.3	0.00e+00	0	43	0	722468864	67	4509
2026-01-27 07:31:32.68	25.21	33.33	-48.0	-50.2	17.0	0.00e+00	0	43	0	724566016	67	4682
2026-01-27 07:31:33.68	24.84	33.30	-48.1	-50.3	16.8	0.00e+00	0	43	0	726663168	67	4732
2026-01-27 07:31:34.68	24.46	33.27	-47.9	-50.1	17.1	0.00e+00	0	43	0	727711744	67	4633
2026-01-27 07:31:35.69	24.09	33.24	-47.9	-50.1	17.1	0.00e+00	0	43	0	729808896	67	4632
2026-01-27 07:31:36.70	23.71	33.21	-47.3	-49.2	18.0	0.00e+00	0	43	0	731906048	66	4436
2026-01-27 07:31:37.71	23.33	33.17	-46.8	-48.5	18.6	0.00e+00	0	43	0	734003200	65	4339
2026-01-27 07:31:38.71	22.96	33.14	-46.5	-48.1	19.0	0.00e+00	0	43	0	735051776	64	4362
2026-01-27 07:31:39.72	22.59	33.10	-47.2	-49.1	18.0	0.00e+00	0	43	0	737148928	65	4650
2026-01-27 07:31:40.73	22.21	33.06	-47.3	-49.2	17.9	0.00e+00	0	43	0	739246080	65	4690
2026-01-27 07:31:41.73	21.84	33.03	-47.3	-49.3	17.7	0.00e+00	0	43	0	741343232	65	4733
2026-01-27 07:31:42.74	21.47	32.99	-47.3	-49.3	17.7	0.00e+00	0	43	0	743440384	65	4732
2026-01-27 07:31:43.74	21.10	32.95	-47.0	-48.8	18.2	0.00e+00	0	43	0	744488960	65	4487
2026-01-27 07:31:44.75	20.74	32.90	-47.0	-48.9	18.2	0.00e+00	0	43	0	746586112	65	4503
2026-01-27 07:31:45.75	20.37	32.86	-47.3	-49.2	18.0	0.00e+00	0	43	0	748683264	65	4674
2026-01-27 07:31:46.76	20.00	32.81	-47.2	-49.1	18.1	0.00e+00	0	43	0	750780416	65	4608
2026-01-27 07:31:47.76	19.64	32.77	-47.8	-49.9	17.2	0.00e+00	0	43	0	752877568	66	4811
2026-01-27 07:31:48.77	19.27	32.72	-47.6	-49.7	17.4	0.00e+00	0	43	0	754974720	66	4681
2026-01-27 07:31:49.78	18.91	32.67	-46.7	-48.5	18.6	0.00e+00	0	43	0	756023296	65	4302
2026-01-27 07:31:50.79	18.54	32.62	-46.3	-48.0	18.9	0.00e+00	0	43	0	758120448	64	4321
2026-01-27 07:31:51.79	18.19	32.57	-46.2	-47.8	19.2	0.00e+00	0	43	0	760217600	64	4234
2026-01-27 07:31:52.80	17.82	32.52	-46.5	-48.3	18.8	0.00e+00	0	43	0	762314752	64	4450
2026-01-27 07:31:53.80	17.47	32.46	-46.6	-48.4	18.6	0.00e+00	0	43	0	763363328	64	4536
2026-01-27 07:31:54.81	17.11	32.41	-46.3	-48.0	19.0	0.00e+00	0	43	0	765460480	64	4296
2026-01-27 07:31:55.82	16.75	32.35	-46.1	-47.7	19.3	0.00e+00	0	43	0	767557632	64	4155
2026-01-27 07:31:56.82	16.40	32.30	-45.6	-47.0	20.0	0.00e+00	0	43	0	769654784	63	4069
2026-01-27 07:31:57.83	16.04	32.24	-45.5	-46.9	20.1	0.00e+00	0	43	0	771751936	62	4265
2026-01-27 07:31:58.84	15.69	32.18	-46.1	-47.7	19.4	0.00e+00	0	43	0	772800512	62	4665
2026-01-27 07:31:59.85	15.34	32.12	-46.7	-48.5	18.6	0.00e+00	0	43	0	774897664	64	4561
2026-01-27 07:32:00.86	14.99	32.06	-47.2	-49.1	18.0	0.00e+00	0	43	0	776994816	64	4890
2026-01-27 07:32:01.86	14.64	31.99	-46.9	-48.7	18.4	0.00e+00	0	43	0	779091968	64	4682
2026-01-27 07:32:02.87	14.29	31.93	-46.5	-48.1	18.9	0.00e+00	0	43	0	781189120	64	4357
2026-01-27 07:32:03.88	13.95	31.86	-46.4	-47.9	19.0	0.00e+00	0	43	0	783286272	64	4291
2026-01-27 07:32:04.89	13.60	31.80	-46.5	-48.1	18.9	0.00e+00	0	43	0	784334848	64	4361
2026-01-27 07:32:05.89	13.26	31.73	-46.3	-47.9	19.1	0.00e+00	0	43	0	786432000	64	4272
2026-01-27 07:32:06.90	12.92	31.66	-46.7	-48.4	18.6	0.00e+00	0	43	0	788529152	64	4533
2026-01-27 07:32:07.91	12.57	31.60	-47.0	-48.8	18.2	0.00e+00	0	43	0	790626304	64	4756
2026-01-27 07:32:08.91	12.24	31.53	-47.1	-49.0	18.1	0.00e+00	0	43	0	791674880	64	4827
2026-01-27 07:32:09.92	11.90	31.45	-47.3	-49.3	17.7	0.00e+00	0	43	0	793772032	65	4722
2026-01-27 07:32:10.91	11.57	31.38	-47.5	-49.5	17.5	0.00e+00	0	43	0	795869184	65	4858
2026-01-27 07:32:11.92	11.23	31.31	-47.6	-49.7	17.4	0.00e+00	0	43	0	797966336	66	4663
2026-01-27 07:32:12.93	10.90	31.24	-47.9	-50.1	17.0	0.00e+00	0	43	0	800063488	66	4904
2026-01-27 07:32:13.94	10.57	31.16	-48.0	-50.3	16.8	0.00e+00	0	43	0	801112064	66	5025
2026-01-27 07:32:14.95	10.24	31.09	-47.9	-50.1	17.0	0.00e+00	0	43	0	803209216	66	4912
2026-01-27 07:32:15.95	9.91	31.01	-47.6	-49.6	17.5	0.00e+00	0	43	0	805306368	66	4625
2026-01-27 07:32:16.96	9.58	30.93	-47.0	-48.8	18.3	0.00e+00	0	43	0	807403520	65	4493
2026-01-27 07:32:17.97	9.26	30.86	-46.8	-48.5	18.6	0.00e+00	0	43	0	809500672	65	4340
2026-01-27 07:32:18.97	8.94	30.78	-47.1	-48.9	18.2	0.00e+00	0	43	0	811597824	65	4519
2026-01-27 07:32:19.98	8.61	30.70	-47.2	-49.0	18.0	0.00e+00	0	43	0	812646400	65	4585
2026-01-27 07:32:20.99	8.29	30.62	-46.8	-48.5	18.5	0.00e+00	0	43	0	814743552	65	4330
2026-01-27 07:32:21.99	7.98	30.54	-46.3	-47.9	19.1	0.00e+00	0	43	0	816840704	64	4275
2026-01-27 07:32:23.00	7.66	30.45	-46.4	-48.0	18.9	0.00e+00	0	43	0	818937856	64	4306
2026-01-27 07:32:24.01	7.34	30.37	-46.0	-47.5	19.4	0.00e+00	0	43	0	819986432	63	4333
2026-01-27 07:32:25.01	7.03	30.29	-46.2	-47.7	19.3	0.00e+00	0	43	0	822083584	63	4423
2026-01-27 07:32:26.02	6.72	30.20	-46.1	-47.6	19.4	0.00e+00	0	43	0	824180736	63	4348
2026-01-27 07:32:27.02	6.41	30.12	-45.6	-47.0	19.9	0.00e+00	0	43	0	826277888	62	4292
2026-01-27 07:32:28.03	6.10	30.04	-45.4	-46.7	20.2	0.00e+00	0	43	0	828375040	62	4167
2026-01-27 07:32:29.04	5.79	29.95	-45.2	-46.5	20.5	0.00e+00	0	43	0	829423616	62	4072
2026-01-27 07:32:30.05	5.49	29.86	-45.5	-46.9	20.1	0.00e+00	0	43	0	831520768	62	4258
2026-01-27 07:32:31.05	5.18	29.77	-45.9	-47.3	19.6	0.00e+00	0	43	0	833617920	62	4484
2026-01-27 07:32:32.05	4.88	29.69	-46.4	-48.0	19.0	0.00e+00	0	43	0	835715072	63	4570
2026-01-27 07:32:33.06	4.58	29.60	-47.1	-48.9	18.1	0.00e+00	0	43	0	837812224	64	4803
2026-01-27 07:32:34.07	4.28	29.51	-47.6	-49.9	17.3	0.00e+00	0	43	0	839909376	66	4772
2026-01-27 07:32:35.07	3.99	29.42	-47.7	-49.7	17.3	0.00e+00	0	43	0	840957952	66	4693
2026-01-27 07:32:36.08	3.69	29.33	-47.2	-49.1	17.9	0.00e+00	0	43	0	843055104	66	4367
2026-01-27 07:32:37.09	3.40	29.24	-46.2	-47.8	19.1	0.00e+00	0	43	0	845152256	64	4228
2026-01-27 07:32:38.09	3.11	29.15	-45.9	-47.4	19.6	0.00e+00	0	43	0	847249408	63	4270
2026-01-27 07:32:39.10	2.82	29.05	-46.1	-47.6	19.4	0.00e+00	0	43	0	848297984	63	4361
2026-01-27 07:32:40.11	2.53	28.96	-46.8	-48.6	18.5	0.00e+00	0	43	0	850395136	64	4601
2026-01-27 07:32:41.11	2.24	28.87	-47.7	-49.9	17.3	0.00e+00	0	43	0	852492288	65	5060
2026-01-27 07:32:42.12	1.95	28.77	-48.2	-50.5	16.6	0.00e+00	0	43	0	854589440	66	5142
2026-01-27 07:32:43.13	1.67	28.68	-47.4	-49.3	17.7	0.00e+00	0	43	0	856686592	66	4490
2026-01-27 07:32:44.14	1.39	28.59	-47.7	-49.8	17.3	0.00e+00	0	43	0	857735168	66	4719
2026-01-27 07:32:45.15	1.11	28.49	-47.5	-49.5	17.6	0.00e+00	0	43	0	859832320	66	4574
2026-01-27 07:32:46.15	0.83	28.40	-47.5	-49.4	17.6	0.00e+00	0	43	0	861929472	65	4814
2026-01-27 07:32:47.16	0.55	28.30	-47.2	-49.1	18.0	0.00e+00	0	43	0	864026624	65	4616
2026-01-27 07:32:48.17	0.28	28.20	-47.0	-48.8	18.2	0.00e+00	0	43	0	866123776	65	4490
2026-01-27 07:32:49.17	0.00	28.11	-47.2	-49.0	18.0	0.00e+00	0	43	0	868220928	65	4580
2026-01-27 07:32:50.18	359.73	28.01	-47.3	-49.2	17.9	0.00e+00	0	43	0	869269504	65	4684
2026-01-27 07:32:51.19	359.46	27.91	-47.4	-49.4	17.8	0.00e+00	0	43	0	871366656	65	4776
2026-01-27 07:32:52.20	359.19	27.81	-47.8	-49.8	17.3	0.00e+00	0	43	0	873463808	66	4758
2026-01-27 07:32:53.21	358.92	27.72	-47.3	-49.1	17.9	0.00e+00	0	43	0	875560960	66	4390
2026-01-27 07:32:54.21	358.66	27.62	-46.7	-48.4	18.6	0.00e+00	0	43	0	876609536	65	4258
2026-01-27 07:32:55.22	358.40	27.52	-46.2	-47.7	19.4	0.00e+00	0	43	0	878706688	64	4149
2026-01-27 07:32:56.23	358.13	27.42	-45.7	-47.0	20.0	0.00e+00	0	43	0	880803840	63	4082
2026-01-27 07:32:57.24	357.87	27.32	-45.5	-46.8	20.3	0.00e+00	0	43	0	882900992	62	4209
2026-01-27 07:32:58.25	357.61	27.22	-45.6	-47.0	20.0	0.00e+00	0	43	0	884998144	62	4303
2026-01-27 07:32:59.26	357.35	27.12	-45.9	-47.3	19.7	0.00e+00	0	43	0	886046720	62	4462
2026-01-27 07:33:00.27	357.10	27.02	-46.2	-47.7	19.4	0.00e+00	0	43	0	888143872	62	4688
2026-01-27 07:33:01.28	356.84	26.92	-46.3	-47.8	19.2	0.00e+00	0	43	0	890241024	63	4477
2026-01-27 07:33:02.28	356.59	26.82	-46.4	-48.0	19.1	0.00e+00	0	43	0	892338176	63	4586
2026-01-27 07:33:03.29	356.34	26.72	-46.5	-48.2	18.9	0.00e+00	0	43	0	894435328	63	4669
2026-01-27 07:33:04.30	356.09	26.61	-46.5	-48.1	19.0	0.00e+00	0	43	0	896532480	63	4644
2026-01-27 07:33:05.31	355.84	26.51	-46.1	-47.6	19.5	0.00e+00	0	43	0	897581056	63	4362
2026-01-27 07:33:06.32	355.60	26.41	-45.7	-47.1	19.9	0.00e+00	0	43	0	899678208	63	4133
2026-01-27 07:33:07.32	355.35	26.31	-45.5	-46.9	20.1	0.00e+00	0	43	0	901775360	63	4037
2026-01-27 07:33:08.33	355.11	26.21	-45.6	-47.0	20.0	0.00e+00	0	43	0	903872512	62	4295
2026-01-27 07:33:09.34	354.87	26.10	-45.7	-47.1	19.9	0.00e+00	0	42	0	904921088	62	4386
2026-01-27 07:33:10.34	354.63	26.00	-45.7	-47.2	19.9	0.00e+00	0	43	0	907018240	62	4399
2026-01-27 07:33:11.35	354.39	25.90	-45.8	-47.3	19.8	0.00e+00	0	43	0	909115392	62	4478
2026-01-27 07:33:12.36	354.16	25.80	-45.9	-47.4	19.7	0.00e+00	0	43	0	911212544	62	4525
2026-01-27 07:33:13.37	353.92	25.69	-45.9	-47.3	19.7	0.00e+00	0	43	0	913309696	62	4489
2026-01-27 07:33:14.37	353.69	25.59	-45.9	-47.3	19.7	0.00e+00	0	43	0	915406848	62	4487
2026-01-27 07:33:15.38	353.46	25.49	-45.4	-46.8	20.2	0.00e+00	0	43	0	916455424	62	4207
2026-01-27 07:33:16.39	353.23	25.38	-45.1	-46.4	20.5	0.00e+00	0	43	0	918552576	62	4015
2026-01-27 07:33:17.40	353.00	25.28	-44.6	-45.8	21.1	0.00e+00	0	43	0	920649728	61	3978
2026-01-27 07:33:18.40	352.77	25.18	-44.5	-45.7	21.2	0.00e+00	0	43	0	922746880	60	4155
2026-01-27 07:33:19.41	352.54	25.07	-44.3	-45.5	21.3	0.00e+00	0	43	0	924844032	60	4077
2026-01-27 07:33:20.42	352.32	24.97	-44.3	-45.5	21.3	0.00e+00	0	43	0	925892608	60	4052
2026-01-27 07:33:21.43	352.10	24.87	-44.5	-45.8	21.1	0.00e+00	0	43	0	927989760	60	4209
2026-01-27 07:33:22.44	351.87	24.76	-45.0	-46.3	20.6	0.00e+00	0	43	0	930086912	60	4481
2026-01-27 07:33:23.44	351.66	24.66	-45.7	-46.8	20.3	0.00e+00	0	43	0	932184064	61	4456
2026-01-27 07:33:24.45	351.44	24.56	-45.3	-46.7	20.3	0.00e+00	0	43	0	933232640	61	4411
2026-01-27 07:33:25.45	351.22	24.45	-45.0	-46.3	20.6	0.00e+00	0	43	0	935329792	61	4224
2026-01-27 07:33:26.45	351.01	24.35	-45.0	-46.3	20.7	0.00e+00	0	43	0	937426944	60	4449
2026-01-27 07:33:27.46	350.79	24.24	-44.5	-45.7	21.1	0.00e+00	0	43	0	939524096	60	4172
2026-01-27 07:33:28.47	350.58	24.14	-44.3	-45.4	21.4	0.00e+00	0	43	0	941621248	60	4043
2026-01-27 07:33:29.47	350.37	24.04	-44.7	-45.9	21.3	0.00e+00	0	43	0	943718400	59	4527
2026-01-27 07:33:30.48	350.16	23.93	-44.6	-45.9	20.9	0.00e+00	0	43	0	944766976	60	4245
2026-01-27 07:33:31.49	349.95	23.83	-44.8	-46.1	20.8	0.00e+00	0	43	0	946864128	60	4349
2026-01-27 07:33:32.50	349.74	23.72	-44.9	-46.2	20.7	0.00e+00	0	43	0	948961280	60	4395
2026-01-27 07:33:33.50	349.54	23.62	-45.0	-46.2	20.7	0.00e+00	0	43	0	951058432	60	4437
2026-01-27 07:33:34.51	349.34	23.52	-44.8	-46.1	20.8	0.00e+00	0	43	0	953155584	60	4342
2026-01-27 07:33:35.52	349.13	23.41	-44.7	-46.0	20.9	0.00e+00	0	43	0	954204160	60	4299
2026-01-27 07:33:36.53	348.93	23.31	-44.7	-46.0	20.9	0.00e+00	0	43	0	956301312	60	4295
2026-01-27 07:33:37.54	348.73	23.20	-44.9	-46.2	20.6	0.00e+00	0	43	0	958398464	60	4414
2026-01-27 07:33:38.55	348.53	23.10	-44.9	-46.2	20.8	0.00e+00	0	43	0	960495616	60	4394
2026-01-27 07:33:39.55	348.34	23.00	-44.5	-45.7	21.1	0.00e+00	0	43	0	961544192	60	4190
2026-01-27 07:33:40.56	348.14	22.89	-44.4	-45.6	21.1	0.00e+00	0	43	0	963641344	60	4142
2026-01-27 07:33:41.56	347.95	22.79	-44.4	-45.6	21.2	0.00e+00	0	43	0	965738496	60	4126
2026-01-27 07:33:42.57	347.75	22.69	-44.4	-45.6	21.2	0.00e+00	0	43	0	967835648	60	4102
2026-01-27 07:33:43.58	347.56	22.58	-44.6	-45.8	21.0	0.00e+00	0	43	0	969932800	60	4224
2026-01-27 07:33:44.58	347.37	22.48	-45.0	-46.3	20.6	0.00e+00	0	43	0	972029952	60	4458
2026-01-27 07:33:45.59	347.18	22.38	-45.0	-46.3	20.6	0.00e+00	0	43	0	973078528	60	4457
2026-01-27 07:33:46.60	346.99	22.27	-44.9	-46.2	20.6	0.00e+00	0	43	0	975175680	60	4395
2026-01-27 07:33:47.61	346.80	22.17	-45.2	-46.5	20.4	0.00e+00	0	43	0	977272832	60	4563
2026-01-27 07:33:48.62	346.62	22.07	-45.2	-46.6	20.4	0.00e+00	0	43	0	979369984	61	4344
2026-01-27 07:33:49.62	346.43	21.96	-44.8	-46.1	20.7	0.00e+00	0	43	0	981467136	61	4121
2026-01-27 07:33:50.63	346.25	21.86	-45.1	-46.4	20.5	0.00e+00	0	43	0	982515712	61	4287
2026-01-27 07:33:51.63	346.07	21.76	-45.3	-46.6	20.2	0.00e+00	0	43	0	984612864	61	4383
2026-01-27 07:33:52.64	345.89	21.65	-45.4	-46.7	20.1	0.00e+00	0	43	0	986710016	61	4441
2026-01-27 07:33:53.65	345.71	21.55	-45.5	-46.9	20.0	0.00e+00	0	43	0	988807168	61	4540
2026-01-27 07:33:54.65	345.53	21.45	-45.8	-47.3	19.7	0.00e+00	0	43	0	989855744	62	4467
2026-01-27 07:33:55.66	345.35	21.35	-45.5	-46.9	20.0	0.00e+00	0	43	0	991952896	62	4276
2026-01-27 07:33:56.67	345.18	21.24	-45.6	-47.0	20.0	0.00e+00	0	43	0	994050048	62	4310
2026-01-27 07:33:57.67	345.00	21.14	-45.8	-47.2	19.7	0.00e+00	0	43	0	996147200	62	4441
2026-01-27 07:33:58.68	344.83	21.04	-45.6	-47.0	19.9	0.00e+00	0	43	0	998244352	61	4569
2026-01-27 07:33:59.69	344.66	20.94	-45.7	-47.1	19.9	0.00e+00	0	43	0	1000341504	62	4354
2026-01-27 07:34:00.69	344.49	20.84	-45.9	-47.3	19.7	0.00e+00	0	43	0	1001390080	62	4484
2026-01-27 07:34:01.70	344.32	20.74	-46.5	-48.1	18.9	0.00e+00	0	43	0	1003487232	63	4639
2026-01-27 07:34:02.71	344.15	20.63	-46.4	-48.1	19.0	0.00e+00	0	43	0	1005584384	63	4607
2026-01-27 07:34:03.71	343.98	20.53	-46.5	-48.2	18.8	0.00e+00	0	43	0	1007681536	63	4674
2026-01-27 07:34:04.72	343.81	20.43	-46.3	-47.9	19.1	0.00e+00	0	43	0	1009778688	63	4542
2026-01-27 07:34:05.73	343.65	20.33	-46.2	-47.8	19.2	0.00e+00	0	43	0	1010827264	63	4460
2026-01-27 07:34:06.73	343.48	20.23	-45.9	-47.3	19.6	0.00e+00	0	43	0	1012924416	63	4241
2026-01-27 07:34:07.74	343.32	20.13	-45.6	-47.0	19.9	0.00e+00	0	43	0	1015021568	62	4303
2026-01-27 07:34:08.75	343.16	20.03	-45.5	-46.9	20.0	0.00e+00	0	43	0	1017118720	62	4286
2026-01-27 07:34:09.76	343.00	19.93	-43.2	-46.4	20.3	0.00e+00	0	43	0	1018167296	61	4270
2026-01-27 07:34:10.77	342.83	19.83	-45.4	-46.8	20.1	0.00e+00	0	43	0	1020264448	61	4460
2026-01-27 07:34:11.77	342.68	19.73	-45.4	-46.7	20.1	0.00e+00	0	43	0	1022361600	61	4429
2026-01-27 07:34:12.78	342.52	19.63	-45.6	-47.0	19.8	0.00e+00	0	43	0	1024458752	61	4582
2026-01-27 07:34:13.79	342.36	19.53	-45.5	-46.8	20.0	0.00e+00	0	43	0	1026555904	61	4486
2026-01-27 07:34:14.79	342.21	19.43	-45.4	-46.8	20.0	0.00e+00	0	43	0	1028653056	61	4475
2026-01-27 07:34:15.80	342.05	19.33	-45.4	-46.7	20.0	0.00e+00	0	43	0	1029701632	61	4439
2026-01-27 07:34:16.81	341.90	19.23	-45.2	-46.5	20.2	0.00e+00	0	43	0	1031798784	61	4322
2026-01-27 07:34:17.81	341.74	19.13	-45.1	-46.4	20.4	0.00e+00	0	43	0	1033895936	61	4269
2026-01-27 07:34:18.82	341.59	19.03	-44.9	-46.2	20.5	0.00e+00	0	43	0	1035993088	60	4424
2026-01-27 07:34:19.83	341.44	18.93	-44.9	-46.1	20.6	0.00e+00	0	43	0	1038090240	60	4380
2026-01-27 07:34:20.84	341.29	18.83	-44.8	-46.0	20.7	0.00e+00	0	43	0	1039138816	60	4322
2026-01-27 07:34:21.85	341.14	18.74	-45.0	-46.4	20.4	0.00e+00	0	43	0	1041235968	60	4496
2026-01-27 07:34:22.86	340.99	18.64	-44.8	-46.1	20.6	0.00e+00	0	43	0	1043333120	60	4364
2026-01-27 07:34:23.87	340.85	18.54	-44.9	-46.2	20.5	0.00e+00	0	43	0	1045430272	60	4414
2026-01-27 07:34:24.88	340.70	18.44	-45.0	-46.3	20.5	0.00e+00	0	43	0	1047527424	60	4452
2026-01-27 07:34:25.88	340.56	18.34	-44.9	-46.2	20.6	0.00e+00	0	43	0	1048576000	60	4414
2026-01-27 07:34:26.88	340.41	18.25	-45.0	-46.3	20.5	0.00e+00	0	43	0	1050673152	60	4448
2026-01-27 07:34:27.89	340.27	18.15	-45.3	-46.6	20.2	0.00e+00	0	43	0	1052770304	61	4361
2026-01-27 07:34:28.90	340.13	18.05	-45.1	-46.4	20.4	0.00e+00	0	43	0	1054867456	61	4250
2026-01-27 07:34:29.90	339.99	17.96	-44.9	-46.2	20.6	0.00e+00	0	43	0	1056964608	61	4167
2026-01-27 07:34:30.91	339.85	17.86	-45.3	-46.6	20.1	0.00e+00	0	43	0	1058013184	61	4380
2026-01-27 07:34:31.92	339.71	17.76	-45.2	-46.5	20.3	0.00e+00	0	43	0	1060110336	61	4305
2026-01-27 07:34:32.93	339.57	17.67	-45.1	-46.4	20.3	0.00e+00	0	43	0	1062207488	60	4510
2026-01-27 07:34:33.94	339.43	17.57	-45.2	-46.5	20.2	0.00e+00	0	43	0	1064304640	60	4589
2026-01-27 07:34:34.94	339.29	17.48	-45.1	-46.4	20.3	0.00e+00	0	43	0	1066401792	60	4544
2026-01-27 07:34:35.95	339.16	17.38	-45.1	-46.4	20.4	0.00e+00	0	43	0	1067450368	60	4513
2026-01-27 07:34:36.96	339.02	17.28	-45.2	-46.5	20.3	0.00e+00	0	43	0	1069547520	61	4316
2026-01-27 07:34:37.97	338.89	17.19	-45.4	-46.8	19.9	0.00e+00	0	43	0	1071644672	61	4482
2026-01-27 07:34:38.97	338.76	17.09	-45.7	-47.1	19.7	0.00e+00	0	43	0	1073741824	61	4633
2026-01-27 07:34:39.98	338.62	17.00	-46.3	-48.0	18.9	0.00e+00	0	43	0	1075838976	63	4547
2026-01-27 07:34:40.99	338.49	16.90	-46.7	-48.4	18.5	0.00e+00	0	43	0	1076887552	63	4803
2026-01-27 07:34:42.00	338.36	16.81	-46.9	-48.8	18.0	0.00e+00	0	43	0	1078984704	64	4718
2026-01-27 07:34:43.00	338.23	16.72	-47.5	-49.5	17.4	0.00e+00	0	43	0	1081081856	65	4834
2026-01-27 07:34:44.01	338.10	16.62	-47.6	-49.7	17.1	0.00e+00	0	43	0	1083179008	66	4691
2026-01-27 07:34:45.02	337.97	16.53	-47.6	-49.7	17.2	0.00e+00	0	43	0	1085276160	65	4956
2026-01-27 07:34:46.02	337.85	16.44	-47.4	-49.3	17.5	0.00e+00	0	43	0	1086324736	65	4755
2026-01-27 07:34:47.03	337.72	16.34	-46.9	-48.7	18.1	0.00e+00	0	43	0	1088421888	65	4414
2026-01-27 07:34:48.04	337.59	16.25	-46.3	-48.0	18.7	0.00e+00	0	43	0	1090519040	64	4295
2026-01-27 07:34:49.05	337.47	16.16	-46.0	-47.5	19.3	0.00e+00	0	43	0	1092616192	63	4302
2026-01-27 07:34:50.04	337.35	16.06	-45.7	-47.2	19.6	0.00e+00	0	43	0	1094713344	63	4155
2026-01-27 07:34:51.05	337.22	15.97	-45.3	-46.7	20.0	0.00e+00	0	43	0	1095761920	61	4424
2026-01-27 07:34:52.06	337.10	15.88	-45.4	-46.8	20.0	0.00e+00	0	43	0	1097859072	61	4451
2026-01-27 07:34:53.07	336.98	15.79	-45.3	-46.7	20.1	0.00e+00	0	43	0	1099956224	61	4408
2026-01-27 07:34:54.07	336.86	15.70	-45.5	-46.9	19.8	0.00e+00	0	43	0	1102053376	61	4523
2026-01-27 07:34:55.08	336.74	15.60	-45.6	-47.1	19.7	0.00e+00	0	43	0	1104150528	61	4628
2026-01-27 07:34:56.08	336.62	15.51	-45.9	-47.5	19.3	0.00e+00	0	43	0	1105199104	62	4566
2026-01-27 07:34:57.09	336.50	15.42	-46.1	-47.7	19.1	0.00e+00	0	43	0	1107296256	62	4672
2026-01-27 07:34:58.10	336.38	15.33	-46.3	-48.0	18.8	0.00e+00	0	43	0	1109393408	63	4566
2026-01-27 07:34:59.11	336.26	15.24	-46.4	-48.1	18.7	0.00e+00	0	43	0	1111490560	63	4614
2026-01-27 07:35:00.12	336.15	15.15	-46.5	-48.2	18.7	0.00e+00	0	43	0	1113587712	63	4656
2026-01-27 07:35:01.12	336.03	15.06	-46.5	-48.2	18.6	0.00e+00	0	43	0	1114636288	63	4680
2026-01-27 07:35:02.13	335.92	14.97	-46.4	-48.1	18.7	0.00e+00	0	43	0	1116733440	63	4612
2026-01-27 07:35:03.14	335.80	14.88	-46.4	-48.1	18.7	0.00e+00	0	43	0	1118830592	63	4617
2026-01-27 07:35:04.14	335.69	14.79	-46.3	-47.9	18.9	0.00e+00	0	43	0	1120927744	63	4507
2026-01-27 07:35:05.15	335.57	14.70	-46.1	-47.7	19.1	0.00e+00	0	43	0	1123024896	63	4422
2026-01-27 07:35:06.16	335.46	14.61	-46.1	-47.6	19.1	0.00e+00	0	43	0	1124073472	63	4388
2026-01-27 07:35:07.16	335.35	14.52	-46.1	-47.6	19.1	0.00e+00	0	43	0	1126170624	63	4391
2026-01-27 07:35:08.17	335.24	14.43	-46.1	-47.7	19.1	0.00e+00	0	43	0	1128267776	62	4663
2026-01-27 07:35:09.17	335.13	14.34	-46.1	-47.6	19.0	0.00e+00	0	43	0	1130364928	63	4389
2026-01-27 07:35:10.18	335.02	14.26	-46.4	-48.1	18.7	0.00e+00	0	43	0	1132462080	63	4600
2026-01-27 07:35:11.19	334.91	14.17	-46.3	-48.0	18.7	0.00e+00	0	43	0	1133510656	63	4576
2026-01-27 07:35:12.20	334.80	14.08	-46.3	-48.0	18.7	0.00e+00	0	43	0	1135607808	63	4568
2026-01-27 07:35:13.20	334.70	13.99	-46.5	-48.1	18.6	0.00e+00	0	43	0	1137704960	63	4643
2026-01-27 07:35:14.20	334.59	13.91	-46.5	-48.2	18.5	0.00e+00	0	43	0	1139802112	63	4689
2026-01-27 07:35:15.21	334.48	13.82	-46.5	-48.2	18.5	0.00e+00	0	43	0	1141899264	63	4685
2026-01-27 07:35:16.22	334.38	13.73	-46.7	-48.4	18.3	0.00e+00	0	43	0	1142947840	63	4813
2026-01-27 07:35:17.23	334.27	13.64	-46.7	-48.4	18.2	0.00e+00	0	42	0	1145044992	64	4540
2026-01-27 07:35:18.24	334.17	13.56	-46.6	-48.4	18.3	0.00e+00	0	43	0	1147142144	64	4499
2026-01-27 07:35:19.25	334.06	13.47	-46.8	-48.6	18.1	0.00e+00	0	43	0	1149239296	64	4603
2026-01-27 07:35:20.25	333.96	13.38	-46.7	-48.5	18.2	0.00e+00	0	43	0	1151336448	64	4566
2026-01-27 07:35:21.26	333.86	13.30	-46.7	-48.5	18.2	0.00e+00	0	43	0	1152385024	64	4579
2026-01-27 07:35:22.27	333.76	13.21	-46.8	-48.6	18.1	0.00e+00	0	43	0	1154482176	64	4614
2026-01-27 07:35:23.28	333.65	13.13	-46.8	-48.6	18.1	0.00e+00	0	43	0	1156579328	64	4626
2026-01-27 07:35:24.29	333.55	13.04	-46.6	-48.4	18.3	0.00e+00	0	43	0	1158676480	64	4501
2026-01-27 07:35:25.29	333.45	12.96	-46.6	-48.4	18.3	0.00e+00	0	43	0	1160773632	64	4508
2026-01-27 07:35:26.30	333.35	12.87	-46.4	-48.1	18.6	0.00e+00	0	43	0	1161822208	64	4342
2026-01-27 07:35:27.31	333.26	12.79	-46.1	-47.7	18.9	0.00e+00	0	43	0	1163919360	64	4147
2026-01-27 07:35:28.32	333.16	12.70	-46.1	-47.7	18.9	0.00e+00	0	43	0	1166016512	63	4425
2026-01-27 07:35:29.32	333.06	12.62	-46.3	-47.9	18.7	0.00e+00	0	43	0	1168113664	63	4534
2026-01-27 07:35:30.33	332.96	12.53	-46.1	-47.6	19.1	0.00e+00	0	43	0	1170210816	63	4363
2026-01-27 07:35:31.34	332.87	12.45	-45.9	-47.5	19.2	0.00e+00	0	43	0	1171259392	62	4553
2026-01-27 07:35:32.35	332.77	12.36	-46.1	-47.6	19.0	0.00e+00	0	43	0	1173356544	62	4633
2026-01-27 07:35:33.35	332.67	12.28	-46.1	-47.6	19.1	0.00e+00	0	43	0	1175453696	62	4640
2026-01-27 07:35:34.37	332.58	12.20	-46.4	-48.0	18.7	0.00e+00	0	43	0	1177550848	63	4587
2026-01-27 07:35:35.37	332.48	12.11	-46.6	-48.3	18.4	0.00e+00	0	43	0	1179648000	63	4757
2026-01-27 07:35:36.38	332.39	12.03	-46.8	-48.6	18.0	7.00e-07	0	43	0	1181745152	64	4634
2026-01-27 07:35:37.37	332.30	11.95	-47.1	-49.1	17.6	0.00e+00	0	43	0	1182793728	64	4894
2026-01-27 07:35:38.38	332.21	11.87	-47.5	-49.5	17.1	0.00e+00	0	43	0	1184890880	65	4859
2026-01-27 07:35:39.39	332.11	11.78	-47.7	-49.9	16.8	0.00e+00	0	43	0	1186988032	66	4795
2026-01-27 07:35:40.39	332.02	11.70	-48.1	-50.5	16.2	0.00e+00	0	43	0	1189085184	66	5122
2026-01-27 07:35:41.40	331.93	11.62	-48.2	-50.7	16.0	0.00e+00	0	43	0	1190133760	67	4935
2026-01-27 07:35:42.41	331.84	11.54	-48.5	-51.2	15.5	0.00e+00	0	43	0	1192230912	67	5236
2026-01-27 07:35:43.41	331.75	11.46	-48.5	-51.2	15.5	0.00e+00	0	43	0	1194328064	67	5238
2026-01-27 07:35:44.42	331.66	11.38	-48.6	-51.3	15.4	0.00e+00	0	43	0	1196425216	68	5010
2026-01-27 07:35:45.43	331.57	11.30	-48.4	-50.9	15.8	0.00e+00	0	43	0	1198522368	67	5078
2026-01-27 07:35:46.43	331.48	11.21	-48.4	-51.0	15.7	0.00e+00	0	43	0	1199570944	67	5115
2026-01-27 07:35:47.44	331.40	11.13	-48.2	-50.7	15.9	0.00e+00	0	43	0	1201668096	67	4967
2026-01-27 07:35:48.45	331.31	11.05	-48.1	-50.5	16.2	0.00e+00	0	43	0	1203765248	66	5113
2026-01-27 07:35:49.46	331.22	10.97	-47.8	-50.1	16.5	0.00e+00	0	43	0	1205862400	66	4918
2026-01-27 07:35:50.47	331.13	10.89	-47.8	-50.1	16.5	0.00e+00	0	43	0	1207959552	66	4892
2026-01-27 07:35:51.48	331.05	10.81	-47.5	-49.7	16.9	0.00e+00	0	43	0	1210056704	65	4949
2026-01-27 07:35:52.49	330.96	10.73	-47.4	-49.5	17.0	0.00e+00	0	43	0	1211105280	65	4859
2026-01-27 07:35:53.49	330.88	10.65	-47.3	-49.4	17.2	0.00e+00	0	43	0	1213202432	65	4793
2026-01-27 07:35:54.50	330.79	10.57	-47.4	-49.5	17.1	0.00e+00	0	43	0	1215299584	65	4822
2026-01-27 07:35:55.50	330.71	10.49	-47.3	-49.3	17.2	0.00e+00	0	43	0	1217396736	65	4747
2026-01-27 07:35:56.50	330.63	10.42	-47.2	-49.3	17.2	0.00e+00	0	43	0	1218445312	65	4708
2026-01-27 07:35:57.51	330.54	10.34	-46.9	-48.7	17.7	0.00e+00	0	43	0	1220542464	64	4701
2026-01-27 07:35:58.52	330.46	10.26	-46.8	-48.6	17.9	0.00e+00	0	43	0	1222639616	64	4619
2026-01-27 07:35:59.52	330.38	10.18	-46.8	-48.7	17.8	0.00e+00	0	43	0	1224736768	64	4656
2026-01-27 07:36:00.53	330.30	10.10	-46.7	-48.5	18.0	0.00e+00	0	43	0	1226833920	64	4583
2026-01-27 07:36:01.54	330.22	10.02	-46.8	-48.6	17.8	0.00e+00	0	43	0	1227882496	64	4631
2026-01-27 07:36:02.55	330.14	9.95	-46.5	-48.3	18.1	0.00e+00	0	43	0	1229979648	64	4465
2026-01-27 07:36:03.55	330.06	9.87	-46.6	-48.4	18.0	0.00e+00	0	43	0	1232076800	64	4509
2026-01-27 07:36:04.56	329.98	9.79	-46.3	-48.0	18.4	0.00e+00	0	43	0	1234173952	64	4308
2026-01-27 07:36:05.57	329.90	9.71	-46.5	-48.2	18.3	0.00e+00	0	43	0	1236271104	63	4674
