passes_logs/2026/01/27/R3.2S_Murmansk/R3.2S_Murmansk__20260127_174814_TY-39_rec.log

#Pass ID: 20260127_174814_TY-39
#Satellite: TY-39
#Configuration: TY-39
#almurnet v.1.7.20251203
#Start time: 2026-01-27 17:48:15

#Version: 2.2.20231116
#Station: R3.2S_Murmansk
#Location: 33.079688 lon 68.888172 lat
#TLE: 1 51832U 22019J   26026.87657933  .00002312  00000-0  11128-3 0  9991
#TLE: 2 51832  97.3624  93.2762 0008991  14.8578 345.2919 15.19726420216336

#Time	Az	El	Level	Level2	SNR	BER	BlckErr	Temp	State	Recorded	gain1	gain2
2026-01-27 17:48:15.14	145.49	2.03	-54.2	-56.3	3.7	0.00e+00	0	46	0	0	79	18952
2026-01-27 17:48:16.14	145.48	2.10	-54.1	-56.3	3.7	0.00e+00	0	46	104	0	80	17812
2026-01-27 17:48:17.15	145.46	2.17	-54.1	-56.2	3.7	0.00e+00	0	46	104	0	80	17711
2026-01-27 17:48:18.16	145.44	2.24	-54.1	-56.2	3.7	0.00e+00	0	46	104	0	80	17687
2026-01-27 17:48:19.16	145.43	2.31	-54.3	-56.4	3.7	0.00e+00	0	46	104	0	80	18036
2026-01-27 17:48:20.17	145.41	2.38	-54.3	-56.4	3.7	0.00e+00	0	46	104	0	80	18068
2026-01-27 17:48:21.18	145.40	2.45	-54.3	-56.4	3.7	0.00e+00	0	46	104	0	80	18122
2026-01-27 17:48:22.18	145.38	2.52	-54.3	-56.4	3.7	0.00e+00	0	46	104	0	80	18063
2026-01-27 17:48:23.19	145.36	2.60	-54.3	-56.4	3.7	0.00e+00	0	46	104	0	80	18044
2026-01-27 17:48:24.20	145.35	2.67	-54.3	-56.4	3.7	0.00e+00	0	46	104	0	80	18128
2026-01-27 17:48:25.21	145.33	2.74	-54.3	-56.4	3.7	0.00e+00	0	46	104	0	80	17979
2026-01-27 17:48:26.21	145.31	2.82	-54.2	-56.4	3.7	0.00e+00	0	46	104	0	80	17996
2026-01-27 17:48:27.22	145.29	2.89	-54.2	-56.3	3.7	0.00e+00	0	46	104	0	80	17905
2026-01-27 17:48:28.23	145.28	2.96	-54.2	-56.3	3.7	0.00e+00	0	47	104	0	80	17829
2026-01-27 17:48:29.24	145.26	3.04	-54.1	-56.2	3.7	0.00e+00	0	47	104	0	80	17688
2026-01-27 17:48:30.25	145.24	3.11	-54.0	-56.2	3.7	0.00e+00	0	46	104	0	80	17573
2026-01-27 17:48:31.26	145.23	3.19	-54.0	-56.1	3.7	0.00e+00	0	46	104	0	80	17521
2026-01-27 17:48:32.27	145.21	3.26	-54.0	-56.1	3.7	0.00e+00	0	46	104	0	79	18499
2026-01-27 17:48:33.28	145.19	3.34	-53.9	-56.0	3.7	0.00e+00	0	46	104	0	79	18346
2026-01-27 17:48:34.29	145.17	3.41	-53.8	-55.9	3.7	0.00e+00	0	47	104	0	79	18137
2026-01-27 17:48:35.29	145.15	3.49	-53.6	-55.8	3.7	0.00e+00	0	47	104	0	79	17809
2026-01-27 17:48:36.31	145.13	3.56	-53.5	-55.7	3.7	0.00e+00	0	47	104	0	79	17563
2026-01-27 17:48:37.31	145.12	3.64	-53.3	-55.5	3.7	0.00e+00	0	47	104	0	78	18184
2026-01-27 17:48:38.32	145.10	3.71	-53.1	-55.2	3.7	0.00e+00	0	47	104	0	78	17760
2026-01-27 17:48:39.33	145.08	3.79	-52.9	-55.0	3.7	0.00e+00	0	47	104	0	77	18268
2026-01-27 17:48:40.33	145.06	3.87	-52.5	-54.6	3.7	0.00e+00	0	47	104	0	77	17554
2026-01-27 17:48:41.34	145.04	3.95	-52.4	-54.5	3.7	0.00e+00	0	47	104	0	76	18332
2026-01-27 17:48:42.35	145.02	4.02	-52.4	-54.5	3.7	0.00e+00	0	47	104	0	76	18302
2026-01-27 17:48:43.36	145.00	4.10	-52.4	-54.5	3.7	0.00e+00	0	47	104	0	76	18290
2026-01-27 17:48:44.37	144.98	4.18	-52.4	-54.5	3.7	0.00e+00	0	47	104	0	76	18295
2026-01-27 17:48:45.38	144.96	4.26	-52.4	-54.5	3.7	0.00e+00	0	47	104	0	76	18364
2026-01-27 17:48:46.39	144.94	4.34	-52.4	-54.5	3.7	0.00e+00	0	47	104	0	76	18284
2026-01-27 17:48:47.39	144.92	4.41	-52.4	-54.5	3.7	0.00e+00	0	47	104	0	76	18228
2026-01-27 17:48:48.40	144.90	4.49	-52.4	-54.5	3.7	0.00e+00	0	47	104	0	76	18311
2026-01-27 17:48:49.41	144.88	4.57	-52.4	-54.5	3.7	0.00e+00	0	47	104	0	76	18300
2026-01-27 17:48:50.41	144.86	4.65	-52.4	-54.5	3.7	0.00e+00	0	47	104	0	76	18254
2026-01-27 17:48:51.41	144.84	4.73	-52.4	-54.5	3.7	0.00e+00	0	47	104	0	76	18183
2026-01-27 17:48:52.42	144.82	4.81	-52.4	-54.5	3.7	0.00e+00	0	47	104	0	76	18243
2026-01-27 17:48:53.43	144.80	4.89	-52.4	-54.5	3.7	0.00e+00	0	47	104	0	76	18280
2026-01-27 17:48:54.43	144.78	4.97	-52.3	-54.5	3.7	0.00e+00	0	48	104	0	76	18210
2026-01-27 17:48:55.44	144.76	5.06	-52.3	-54.5	3.7	0.00e+00	0	47	104	0	76	18258
2026-01-27 17:48:56.45	144.74	5.14	-52.5	-54.6	3.7	0.00e+00	0	47	104	0	76	18578
2026-01-27 17:48:57.45	144.72	5.22	-52.4	-54.6	3.7	0.00e+00	0	48	104	0	76	18465
2026-01-27 17:48:58.46	144.69	5.30	-52.3	-54.5	3.7	0.00e+00	0	47	104	0	76	18261
2026-01-27 17:48:59.46	144.67	5.38	-52.4	-54.6	3.7	0.00e+00	0	48	104	0	76	18454
2026-01-27 17:49:00.47	144.65	5.47	-52.4	-54.6	3.7	0.00e+00	0	48	104	0	76	18476
2026-01-27 17:49:01.48	144.63	5.55	-52.5	-54.6	3.7	0.00e+00	0	48	104	0	76	18527
2026-01-27 17:49:02.49	144.61	5.64	-52.4	-54.5	3.7	0.00e+00	0	48	104	0	76	18295
2026-01-27 17:49:03.49	144.58	5.72	-52.5	-54.6	3.7	0.00e+00	0	48	104	0	76	18482
2026-01-27 17:49:04.50	144.56	5.80	-52.5	-54.6	3.7	0.00e+00	0	48	104	0	76	18454
2026-01-27 17:49:05.50	144.54	5.89	-52.5	-54.6	3.7	0.00e+00	0	48	104	0	76	18543
2026-01-27 17:49:06.51	144.51	5.97	-52.4	-54.6	3.7	0.00e+00	0	48	104	0	76	18397
2026-01-27 17:49:07.52	144.49	6.06	-52.5	-54.6	3.7	0.00e+00	0	48	104	0	76	18539
2026-01-27 17:49:08.53	144.47	6.15	-52.5	-54.6	3.7	0.00e+00	0	48	104	0	76	18549
2026-01-27 17:49:09.54	144.44	6.23	-52.5	-54.7	3.7	0.00e+00	0	48	104	0	76	18603
2026-01-27 17:49:10.55	144.42	6.32	-52.5	-54.6	3.7	0.00e+00	0	48	104	0	76	18549
2026-01-27 17:49:11.55	144.39	6.41	-52.5	-54.6	3.7	0.00e+00	0	48	104	0	76	18567
2026-01-27 17:49:12.56	144.37	6.49	-52.6	-54.7	3.7	0.00e+00	0	48	104	0	76	18708
2026-01-27 17:49:13.57	144.34	6.58	-52.5	-54.6	3.7	0.00e+00	0	48	104	0	76	18574
2026-01-27 17:49:14.58	144.32	6.67	-52.5	-54.6	3.7	0.00e+00	0	48	104	0	76	18597
2026-01-27 17:49:15.59	144.29	6.76	-52.5	-54.7	3.7	0.00e+00	0	48	104	0	76	18636
2026-01-27 17:49:16.59	144.27	6.85	-52.6	-54.7	3.7	0.00e+00	0	48	104	0	76	18718
2026-01-27 17:49:17.60	144.24	6.94	-52.5	-54.7	3.7	0.00e+00	0	48	104	0	76	18661
2026-01-27 17:49:18.61	144.22	7.03	-52.5	-54.7	3.7	0.00e+00	0	48	104	0	76	18709
2026-01-27 17:49:19.61	144.19	7.12	-52.6	-54.7	3.7	0.00e+00	0	48	104	0	76	18715
2026-01-27 17:49:20.62	144.17	7.21	-52.6	-54.7	3.7	0.00e+00	0	48	104	0	76	18770
2026-01-27 17:49:21.63	144.14	7.30	-52.6	-54.7	3.7	0.00e+00	0	48	104	0	76	18678
2026-01-27 17:49:22.64	144.11	7.39	-52.6	-54.7	3.7	0.00e+00	0	48	104	0	76	18728
2026-01-27 17:49:23.64	144.09	7.48	-52.6	-54.7	3.7	0.00e+00	0	48	104	0	76	18804
2026-01-27 17:49:24.65	144.06	7.58	-52.7	-54.8	3.7	0.00e+00	0	48	104	0	76	18886
2026-01-27 17:49:25.66	144.03	7.67	-52.6	-54.7	3.7	0.00e+00	0	48	104	0	76	18749
2026-01-27 17:49:26.67	144.00	7.76	-52.6	-54.8	3.6	0.00e+00	0	48	104	0	76	18830
2026-01-27 17:49:27.67	143.98	7.86	-52.6	-54.7	3.7	0.00e+00	0	48	104	0	76	18787
2026-01-27 17:49:28.68	143.95	7.95	-52.7	-54.8	3.7	0.00e+00	0	48	104	0	76	18990
2026-01-27 17:49:29.69	143.92	8.05	-52.6	-54.7	3.7	0.00e+00	0	48	104	0	76	18815
2026-01-27 17:49:30.69	143.89	8.14	-52.7	-54.8	3.7	0.00e+00	0	48	104	0	76	18903
2026-01-27 17:49:31.70	143.86	8.24	-52.6	-54.8	3.7	0.00e+00	0	48	104	0	76	18854
2026-01-27 17:49:32.70	143.83	8.33	-52.7	-54.8	3.7	0.00e+00	0	48	104	0	76	18963
2026-01-27 17:49:33.71	143.80	8.43	-52.7	-54.8	3.7	0.00e+00	0	48	104	0	76	18880
2026-01-27 17:49:34.72	143.77	8.53	-52.7	-54.8	3.6	0.00e+00	0	48	104	0	76	18979
2026-01-27 17:49:35.73	143.74	8.62	-52.7	-54.8	3.7	0.00e+00	0	48	104	0	76	19017
2026-01-27 17:49:36.73	143.71	8.72	-52.7	-54.9	3.7	0.00e+00	0	48	104	0	76	19086
2026-01-27 17:49:37.74	143.68	8.82	-52.7	-54.8	3.7	0.00e+00	0	48	104	0	76	18950
2026-01-27 17:49:38.74	143.65	8.92	-52.7	-54.8	3.7	0.00e+00	0	48	104	0	76	18977
2026-01-27 17:49:39.75	143.62	9.02	-52.7	-54.8	3.7	0.00e+00	0	48	104	0	76	19010
2026-01-27 17:49:40.76	143.59	9.12	-52.8	-54.9	3.7	0.00e+00	0	48	104	0	76	19115
2026-01-27 17:49:41.77	143.56	9.22	-52.7	-54.8	3.7	0.00e+00	0	48	104	0	76	19005
2026-01-27 17:49:42.77	143.52	9.32	-52.7	-54.9	3.7	0.00e+00	0	48	104	0	76	19091
2026-01-27 17:49:43.78	143.49	9.42	-52.7	-54.8	3.7	0.00e+00	0	48	104	0	76	19029
2026-01-27 17:49:44.78	143.46	9.53	-52.8	-54.9	3.7	0.00e+00	0	49	104	0	76	19203
2026-01-27 17:49:45.79	143.43	9.63	-52.7	-54.8	3.7	0.00e+00	0	49	104	0	76	18988
2026-01-27 17:49:46.79	143.39	9.73	-52.8	-54.9	3.7	0.00e+00	0	49	104	0	76	19115
2026-01-27 17:49:47.80	143.36	9.84	-52.7	-54.9	3.7	0.00e+00	0	49	104	0	76	19113
2026-01-27 17:49:48.81	143.33	9.94	-52.8	-54.9	3.7	0.00e+00	0	49	104	0	76	19235
2026-01-27 17:49:49.82	143.29	10.05	-52.7	-54.9	3.7	0.00e+00	0	49	104	0	76	19062
2026-01-27 17:49:50.83	143.26	10.15	-52.8	-54.9	3.7	0.00e+00	0	49	104	0	76	19196
2026-01-27 17:49:51.84	143.22	10.26	-52.8	-54.9	3.7	0.00e+00	0	49	104	0	76	19157
2026-01-27 17:49:52.84	143.19	10.37	-52.8	-55.0	3.7	0.00e+00	0	49	104	0	76	19310
2026-01-27 17:49:53.85	143.15	10.47	-52.8	-54.9	3.7	0.00e+00	0	49	104	0	76	19146
2026-01-27 17:49:54.86	143.11	10.58	-52.8	-54.9	3.7	0.00e+00	0	49	104	0	76	19239
2026-01-27 17:49:55.87	143.08	10.69	-52.8	-54.9	3.7	0.00e+00	0	49	104	0	76	19135
2026-01-27 17:49:56.88	143.04	10.80	-52.9	-55.0	3.7	0.00e+00	0	49	104	0	76	19355
2026-01-27 17:49:57.89	143.00	10.91	-52.8	-54.9	3.7	0.00e+00	0	49	104	0	76	19224
2026-01-27 17:49:58.89	142.97	11.02	-52.8	-54.9	3.7	0.00e+00	0	49	104	0	76	19254
2026-01-27 17:49:59.90	142.93	11.13	-52.8	-54.9	3.7	0.00e+00	0	49	104	0	76	19207
2026-01-27 17:50:00.90	142.89	11.24	-52.9	-55.0	3.7	0.00e+00	0	49	104	0	76	19423
2026-01-27 17:50:01.90	142.85	11.36	-52.8	-55.0	3.7	0.00e+00	0	49	104	0	76	19288
2026-01-27 17:50:02.91	142.81	11.47	-52.9	-55.0	3.7	0.00e+00	0	49	104	0	76	19319
2026-01-27 17:50:03.92	142.77	11.58	-52.8	-55.0	3.7	0.00e+00	0	49	104	0	76	19301
2026-01-27 17:50:04.93	142.73	11.70	-52.9	-55.0	3.7	0.00e+00	0	49	104	0	76	19465
2026-01-27 17:50:05.93	142.69	11.81	-52.8	-55.0	3.7	0.00e+00	0	49	104	0	76	19324
2026-01-27 17:50:06.94	142.65	11.93	-52.9	-55.0	3.7	0.00e+00	0	49	104	0	76	19423
2026-01-27 17:50:07.95	142.61	12.05	-52.9	-55.0	3.7	0.00e+00	0	49	104	0	76	19389
2026-01-27 17:50:08.95	142.57	12.16	-52.9	-55.1	3.7	0.00e+00	0	49	104	0	76	19498
2026-01-27 17:50:09.96	142.53	12.28	-52.9	-55.0	3.7	0.00e+00	0	49	104	0	76	19348
2026-01-27 17:50:10.96	142.49	12.40	-52.9	-55.0	3.7	0.00e+00	0	49	104	0	76	19432
2026-01-27 17:50:11.97	142.44	12.52	-52.9	-55.0	3.7	0.00e+00	0	49	104	0	76	19357
2026-01-27 17:50:12.98	142.40	12.64	-53.0	-55.1	3.7	0.00e+00	0	49	104	0	76	19552
2026-01-27 17:50:13.98	142.36	12.76	-52.9	-55.0	3.7	0.00e+00	0	49	104	0	76	19465
2026-01-27 17:50:14.99	142.31	12.89	-52.9	-55.0	3.7	0.00e+00	0	49	104	0	76	19457
2026-01-27 17:50:15.99	142.27	13.01	-52.9	-55.0	3.7	0.00e+00	0	49	104	0	76	19449
2026-01-27 17:50:17.00	142.22	13.13	-53.0	-55.1	3.7	0.00e+00	0	49	104	0	76	19635
2026-01-27 17:50:18.00	142.18	13.26	-52.9	-55.0	3.7	0.00e+00	0	49	104	0	76	19474
2026-01-27 17:50:19.01	142.13	13.38	-53.0	-55.1	3.7	0.00e+00	0	49	104	0	76	19608
2026-01-27 17:50:20.02	142.09	13.51	-52.9	-55.1	3.7	0.00e+00	0	49	104	0	76	19511
2026-01-27 17:50:21.03	142.04	13.64	-53.0	-55.1	3.7	0.00e+00	0	49	104	0	76	19693
2026-01-27 17:50:22.03	141.99	13.76	-53.0	-55.1	3.7	0.00e+00	0	49	104	0	76	19540
2026-01-27 17:50:23.04	141.94	13.89	-53.0	-55.1	3.7	0.00e+00	0	49	104	0	76	19612
2026-01-27 17:50:24.05	141.89	14.02	-53.0	-55.1	3.7	0.00e+00	0	49	104	0	76	19643
2026-01-27 17:50:25.05	141.84	14.15	-53.1	-55.2	3.7	0.00e+00	0	49	104	0	76	19799
2026-01-27 17:50:26.06	141.79	14.28	-53.0	-55.1	3.7	0.00e+00	0	49	104	0	76	19584
2026-01-27 17:50:27.07	141.74	14.42	-53.0	-55.1	3.7	0.00e+00	0	49	104	0	76	19673
2026-01-27 17:50:28.08	141.69	14.55	-53.0	-55.1	3.7	0.00e+00	0	49	104	0	76	19626
2026-01-27 17:50:29.08	141.64	14.68	-53.1	-55.2	3.7	0.00e+00	0	49	104	0	76	19747
2026-01-27 17:50:30.09	141.59	14.82	-53.0	-55.1	3.7	0.00e+00	0	49	104	0	76	19652
2026-01-27 17:50:31.10	141.54	14.96	-53.0	-55.1	3.7	0.00e+00	0	49	104	0	76	19691
2026-01-27 17:50:32.10	141.48	15.09	-53.0	-55.1	3.7	0.00e+00	0	49	104	0	76	19662
2026-01-27 17:50:33.11	141.43	15.23	-53.1	-55.2	3.7	0.00e+00	0	49	104	0	76	19846
2026-01-27 17:50:34.11	141.38	15.37	-53.0	-55.1	3.7	0.00e+00	0	49	104	0	76	19693
2026-01-27 17:50:35.12	141.32	15.51	-53.1	-55.2	3.7	0.00e+00	0	49	104	0	76	19770
2026-01-27 17:50:36.13	141.26	15.65	-53.0	-55.2	3.7	0.00e+00	0	49	104	0	76	19760
2026-01-27 17:50:37.14	141.21	15.79	-53.1	-55.2	3.6	0.00e+00	0	49	104	0	76	19892
2026-01-27 17:50:38.15	141.15	15.94	-53.0	-55.2	3.7	0.00e+00	0	49	104	0	76	19775
2026-01-27 17:50:39.15	141.09	16.08	-53.1	-55.2	3.7	0.00e+00	0	49	104	0	76	19880
2026-01-27 17:50:40.16	141.03	16.23	-53.1	-55.2	3.7	0.00e+00	0	49	104	0	76	19763
2026-01-27 17:50:41.17	140.97	16.37	-53.1	-55.2	3.7	0.00e+00	0	49	104	0	76	19913
2026-01-27 17:50:42.18	140.91	16.52	-53.1	-55.2	3.7	0.00e+00	0	49	104	0	76	19808
2026-01-27 17:50:43.19	140.85	16.67	-53.1	-55.3	3.7	0.00e+00	0	49	104	0	76	19946
2026-01-27 17:50:44.19	140.79	16.82	-53.1	-55.2	3.7	0.00e+00	0	49	104	0	76	19834
2026-01-27 17:50:45.20	140.73	16.97	-53.1	-55.3	3.7	0.00e+00	0	49	104	0	76	19956
2026-01-27 17:50:46.21	140.67	17.12	-53.1	-55.2	3.7	0.00e+00	0	49	104	0	76	19882
2026-01-27 17:50:47.21	140.60	17.27	-53.1	-55.3	3.7	0.00e+00	0	49	104	0	76	20030
2026-01-27 17:50:48.22	140.54	17.43	-53.1	-55.2	3.7	0.00e+00	0	49	104	0	76	19897
2026-01-27 17:50:49.23	140.47	17.59	-53.2	-55.3	3.7	0.00e+00	0	49	104	0	76	19994
2026-01-27 17:50:50.24	140.41	17.74	-53.1	-55.3	3.7	0.00e+00	0	49	104	0	76	19937
2026-01-27 17:50:51.24	140.34	17.90	-53.2	-55.3	3.7	0.00e+00	0	49	104	0	76	19984
2026-01-27 17:50:52.26	140.27	18.06	-53.1	-55.2	3.7	0.00e+00	0	49	104	0	76	19904
2026-01-27 17:50:53.26	140.20	18.22	-53.2	-55.3	3.7	0.00e+00	0	49	104	0	76	20050
2026-01-27 17:50:54.26	140.13	18.38	-53.2	-55.3	3.7	0.00e+00	0	49	104	0	76	20036
2026-01-27 17:50:55.27	140.06	18.55	-53.2	-55.3	3.7	0.00e+00	0	49	104	0	76	20076
2026-01-27 17:50:56.28	139.99	18.71	-53.2	-55.3	3.7	0.00e+00	0	49	104	0	76	20001
2026-01-27 17:50:57.29	139.92	18.88	-53.2	-55.3	3.7	0.00e+00	0	49	104	0	77	19011
2026-01-27 17:50:58.30	139.84	19.04	-53.2	-55.3	3.7	0.00e+00	0	49	104	0	77	18959
2026-01-27 17:50:59.30	139.77	19.21	-53.2	-55.4	3.7	0.00e+00	0	49	104	0	77	19046
2026-01-27 17:51:00.31	139.69	19.38	-53.2	-55.3	3.7	0.00e+00	0	49	104	0	77	19020
2026-01-27 17:51:01.32	139.62	19.56	-53.2	-55.4	3.7	0.00e+00	0	49	104	0	77	19106
2026-01-27 17:51:02.32	139.54	19.73	-53.2	-55.3	3.7	0.00e+00	0	49	104	0	77	19032
2026-01-27 17:51:03.33	139.46	19.90	-53.2	-55.4	3.7	0.00e+00	0	49	104	0	77	19069
2026-01-27 17:51:04.34	139.38	20.08	-53.2	-55.4	3.7	0.00e+00	0	49	104	0	77	19064
2026-01-27 17:51:05.35	139.30	20.26	-53.3	-55.4	3.7	0.00e+00	0	49	104	0	77	19126
2026-01-27 17:51:06.36	139.22	20.44	-53.3	-55.4	3.7	0.00e+00	0	49	104	0	77	19088
2026-01-27 17:51:07.37	139.14	20.62	-53.3	-55.4	3.7	0.00e+00	0	49	104	0	77	19177
2026-01-27 17:51:08.37	139.05	20.80	-53.3	-55.4	3.7	0.00e+00	0	49	104	0	77	19138
2026-01-27 17:51:09.38	138.97	20.98	-53.3	-55.4	3.7	0.00e+00	0	49	104	0	77	19243
2026-01-27 17:51:10.39	138.88	21.17	-53.3	-55.4	3.7	0.00e+00	0	49	104	0	77	19188
2026-01-27 17:51:11.39	138.79	21.36	-53.3	-55.4	3.7	0.00e+00	0	49	104	0	77	19239
2026-01-27 17:51:12.40	138.70	21.54	-53.3	-55.4	3.7	0.00e+00	0	49	104	0	77	19236
2026-01-27 17:51:13.41	138.61	21.74	-34.7	-34.5	15.0	9.15e-04	0	50	0	25165824	41	13643
2026-01-27 17:51:14.42	138.52	21.93	-36.2	-36.0	14.2	0.00e+00	0	50	0	100663296	44	13762
2026-01-27 17:51:15.43	138.43	22.12	-34.4	-34.3	15.1	0.00e+00	0	50	0	176160768	41	13366
2026-01-27 17:51:16.43	138.33	22.32	-35.3	-35.1	14.7	0.00e+00	0	50	0	251658240	42	13946
2026-01-27 17:51:17.44	138.24	22.52	-33.5	-33.4	15.5	0.00e+00	0	50	0	327155712	38	14436
2026-01-27 17:51:18.44	138.14	22.71	-33.1	-33.0	15.6	0.00e+00	0	50	0	402653184	38	13790
2026-01-27 17:51:19.45	138.04	22.92	-33.1	-33.0	15.7	0.00e+00	0	50	0	486539264	38	13780
2026-01-27 17:51:20.45	137.94	23.12	-32.9	-32.8	15.7	0.00e+00	0	50	0	562036736	37	14248
2026-01-27 17:51:21.46	137.84	23.32	-32.7	-32.6	15.8	0.00e+00	0	50	0	637534208	37	13818
2026-01-27 17:51:22.47	137.74	23.53	-32.7	-32.6	15.8	0.00e+00	0	50	0	713031680	37	13923
2026-01-27 17:51:23.48	137.63	23.74	-32.4	-32.3	15.9	0.00e+00	0	50	0	788529152	36	14222
2026-01-27 17:51:24.49	137.53	23.95	-32.2	-32.1	16.0	0.00e+00	0	50	0	864026624	36	13933
2026-01-27 17:51:25.50	137.42	24.16	-32.2	-32.1	16.0	0.00e+00	0	50	0	939524096	36	13910
2026-01-27 17:51:26.50	137.31	24.38	-32.2	-32.1	16.0	0.00e+00	0	50	0	1015021568	36	13814
2026-01-27 17:51:27.51	137.20	24.59	-32.2	-32.1	16.0	0.00e+00	0	50	0	1090519040	36	13802
2026-01-27 17:51:28.51	137.09	24.81	-32.0	-31.9	16.0	0.00e+00	0	50	0	1157627904	36	13611
2026-01-27 17:51:29.52	136.97	25.03	-32.1	-32.0	16.0	0.00e+00	0	50	0	1233125376	36	13781
2026-01-27 17:51:30.53	136.85	25.26	-32.1	-32.0	16.0	0.00e+00	0	50	0	1308622848	36	13707
2026-01-27 17:51:31.54	136.73	25.48	-32.0	-31.9	16.0	0.00e+00	0	51	0	1384120320	36	13583
2026-01-27 17:51:32.55	136.61	25.71	-29.7	-29.6	15.6	0.00e+00	0	51	0	1468006400	31	13830
2026-01-27 17:51:33.55	136.49	25.94	-29.5	-29.4	15.6	0.00e+00	0	50	0	1543503872	31	13548
2026-01-27 17:51:34.56	136.37	26.17	-29.6	-29.5	15.6	0.00e+00	0	51	0	1619001344	31	13708
2026-01-27 17:51:35.57	136.24	26.41	-29.6	-29.6	15.6	0.00e+00	0	50	0	1694498816	31	13793
2026-01-27 17:51:36.57	136.11	26.64	-29.5	-29.4	15.6	0.00e+00	0	51	0	1769996288	31	13558
2026-01-27 17:51:37.58	135.98	26.88	-29.5	-29.4	15.7	0.00e+00	0	50	0	1845493760	31	13555
2026-01-27 17:51:38.59	135.85	27.12	-29.3	-29.2	15.7	0.00e+00	0	50	0	1920991232	30	14059
2026-01-27 17:51:39.60	135.71	27.37	-29.3	-29.2	15.7	0.00e+00	0	51	0	1996488704	30	13973
2026-01-27 17:51:40.60	135.57	27.61	-29.3	-29.2	15.7	0.00e+00	0	51	0	2071986176	30	14088
2026-01-27 17:51:41.61	135.43	27.86	-29.3	-29.2	15.7	0.00e+00	0	51	0	2147483648	30	14047
2026-01-27 17:51:42.62	135.29	28.12	-29.2	-29.1	15.7	0.00e+00	0	51	0	2222981120	30	13871
2026-01-27 17:51:43.63	135.14	28.37	-29.0	-28.9	15.8	0.00e+00	0	51	0	2290089984	30	13574
2026-01-27 17:51:44.64	134.99	28.63	-29.0	-28.9	15.8	0.00e+00	0	51	0	2365587456	30	13605
2026-01-27 17:51:45.65	134.84	28.89	-28.9	-28.8	15.8	0.00e+00	0	51	0	2449473536	29	14192
2026-01-27 17:51:46.66	134.69	29.15	-28.8	-28.7	15.8	0.00e+00	0	50	0	2524971008	29	14055
2026-01-27 17:51:47.67	134.53	29.42	-28.8	-28.7	15.9	0.00e+00	0	51	0	2600468480	29	14051
2026-01-27 17:51:48.68	134.37	29.68	-28.8	-28.7	15.9	0.00e+00	0	51	0	2675965952	29	14096
2026-01-27 17:51:49.69	134.21	29.95	-28.9	-28.8	15.8	0.00e+00	0	51	0	2751463424	29	14257
2026-01-27 17:51:50.70	134.04	30.23	-28.8	-28.7	15.9	0.00e+00	0	51	0	2826960896	29	14016
2026-01-27 17:51:51.71	133.87	30.50	-28.9	-28.8	15.8	0.00e+00	0	51	0	2902458368	29	14137
2026-01-27 17:51:52.72	133.70	30.78	-28.7	-28.6	15.9	0.00e+00	0	50	0	2977955840	29	13891
2026-01-27 17:51:53.73	133.53	31.07	-28.7	-28.6	15.9	0.00e+00	0	51	0	3053453312	29	13868
2026-01-27 17:51:54.73	133.35	31.35	-28.5	-28.4	16.0	0.00e+00	0	51	0	3128950784	29	13511
2026-01-27 17:51:55.74	133.17	31.64	-28.3	-28.2	16.0	0.00e+00	0	51	0	3204448256	28	14058
2026-01-27 17:51:56.75	132.98	31.93	-28.4	-28.3	16.0	0.00e+00	0	51	0	3279945728	28	14116
2026-01-27 17:51:57.76	132.79	32.22	-28.4	-28.3	16.0	0.00e+00	0	51	0	3355443200	28	14114
2026-01-27 17:51:58.77	132.60	32.52	-28.4	-28.3	16.0	0.00e+00	0	51	0	3430940672	28	14203
2026-01-27 17:51:59.78	132.40	32.82	-28.2	-28.1	16.1	0.00e+00	0	51	0	3506438144	28	13829
2026-01-27 17:52:00.78	132.20	33.12	-28.0	-27.9	16.1	0.00e+00	0	51	0	3581935616	28	13593
2026-01-27 17:52:01.79	132.00	33.43	-28.0	-27.9	16.1	0.00e+00	0	51	0	3657433088	28	13555
2026-01-27 17:52:02.79	131.79	33.73	-28.0	-27.9	16.1	0.00e+00	0	51	0	3732930560	27	14428
2026-01-27 17:52:03.80	131.58	34.05	-28.1	-28.0	16.1	0.00e+00	0	51	0	3808428032	27	14506
2026-01-27 17:52:04.80	131.36	34.36	-28.0	-27.9	16.1	0.00e+00	0	51	0	3883925504	27	14430
2026-01-27 17:52:05.81	131.14	34.68	-28.0	-27.9	16.2	0.00e+00	0	51	0	3959422976	27	14318
2026-01-27 17:52:06.81	130.91	35.00	-27.9	-27.8	16.2	0.00e+00	0	51	0	4034920448	27	14268
2026-01-27 17:52:07.82	130.68	35.33	-27.8	-27.7	16.2	0.00e+00	0	51	0	4110417920	27	14008
2026-01-27 17:52:08.83	130.44	35.66	-27.9	-27.8	16.2	0.00e+00	0	51	0	4185915392	27	14128
2026-01-27 17:52:09.84	130.20	35.99	-27.7	-27.6	16.2	0.00e+00	0	51	0	4261412864	27	13869
2026-01-27 17:52:10.85	129.95	36.33	-27.7	-27.6	16.3	0.00e+00	0	51	0	4336910336	27	13862
2026-01-27 17:52:11.85	129.70	36.66	-27.6	-27.4	16.3	0.00e+00	0	51	0	4412407808	27	13620
2026-01-27 17:52:12.86	129.44	37.01	-27.5	-27.4	16.3	0.00e+00	0	51	0	4487905280	27	13604
2026-01-27 17:52:13.86	129.18	37.35	-27.5	-27.4	16.3	0.00e+00	0	51	0	4563402752	26	14300
2026-01-27 17:52:14.87	128.91	37.70	-27.4	-27.3	16.3	0.00e+00	0	51	0	4638900224	26	14154
2026-01-27 17:52:15.88	128.63	38.05	-27.3	-27.2	16.4	0.00e+00	0	51	0	4714397696	26	14042
2026-01-27 17:52:16.89	128.34	38.41	-27.4	-27.3	16.3	0.00e+00	0	51	0	4789895168	26	14177
2026-01-27 17:52:17.89	128.05	38.77	-27.2	-27.1	16.4	0.00e+00	0	51	0	4865392640	26	13850
2026-01-27 17:52:18.90	127.76	39.13	-27.1	-27.0	16.4	0.00e+00	0	51	0	4940890112	26	13750
2026-01-27 17:52:19.91	127.45	39.50	-27.1	-27.0	16.4	0.00e+00	0	51	0	5016387584	26	13675
2026-01-27 17:52:20.92	127.14	39.87	-27.2	-27.1	16.4	0.00e+00	0	51	0	5091885056	26	13816
2026-01-27 17:52:21.93	126.82	40.25	-27.1	-27.0	16.4	0.00e+00	0	51	0	5167382528	26	13738
2026-01-27 17:52:22.94	126.49	40.63	-27.0	-26.9	16.4	0.00e+00	0	51	0	5242880000	26	13566
2026-01-27 17:52:23.94	126.16	41.00	-27.1	-27.0	16.4	0.00e+00	0	51	0	5318377472	26	13700
2026-01-27 17:52:24.95	125.81	41.39	-26.8	-26.7	16.5	0.00e+00	0	51	0	5402263552	25	14022
2026-01-27 17:52:25.96	125.46	41.78	-26.8	-26.7	16.5	0.00e+00	0	51	0	5477761024	25	14060
2026-01-27 17:52:26.97	125.10	42.17	-26.7	-26.6	16.5	0.00e+00	0	51	0	5544869888	25	13807
2026-01-27 17:52:27.97	124.73	42.56	-26.8	-26.7	16.5	0.00e+00	0	51	0	5620367360	25	13985
2026-01-27 17:52:28.98	124.35	42.96	-26.8	-26.7	16.5	0.00e+00	0	51	0	5695864832	25	14094
2026-01-27 17:52:29.99	123.95	43.37	-26.6	-26.5	16.5	0.00e+00	0	51	0	5771362304	25	13790
2026-01-27 17:52:31.00	123.55	43.77	-26.5	-26.4	16.6	0.00e+00	0	51	0	5846859776	25	13506
2026-01-27 17:52:32.01	123.14	44.18	-26.5	-26.4	16.5	0.00e+00	0	51	0	5922357248	24	14304
2026-01-27 17:52:33.01	122.72	44.59	-26.4	-26.3	16.6	0.00e+00	0	51	0	5997854720	24	14226
2026-01-27 17:52:34.02	122.28	45.00	-26.4	-26.3	16.6	0.00e+00	0	51	0	6073352192	24	14229
2026-01-27 17:52:35.02	121.84	45.42	-26.5	-26.4	16.6	0.00e+00	0	51	0	6148849664	24	14336
2026-01-27 17:52:36.03	121.38	45.84	-26.2	-26.1	16.6	0.00e+00	0	51	0	6224347136	24	13919
2026-01-27 17:52:37.04	120.90	46.26	-26.1	-26.0	16.6	0.00e+00	0	51	0	6299844608	24	13715
2026-01-27 17:52:38.04	120.42	46.69	-26.2	-26.1	16.6	0.00e+00	0	51	0	6375342080	24	13800
2026-01-27 17:52:39.05	119.92	47.12	-26.0	-25.9	16.7	0.00e+00	0	51	0	6459228160	24	13582
2026-01-27 17:52:40.05	119.41	47.54	-26.1	-26.0	16.6	0.00e+00	0	51	0	6534725632	24	13649
2026-01-27 17:52:41.06	118.88	47.98	-26.0	-25.9	16.6	0.00e+00	0	51	0	6610223104	24	13622
2026-01-27 17:52:42.07	118.34	48.41	-25.9	-25.8	16.7	0.00e+00	0	51	0	6677331968	23	14208
2026-01-27 17:52:43.07	117.78	48.85	-25.9	-25.8	16.7	0.00e+00	0	51	0	6752829440	23	14233
2026-01-27 17:52:44.08	117.20	49.29	-25.9	-25.8	16.7	0.00e+00	0	51	0	6828326912	23	14167
2026-01-27 17:52:45.09	116.61	49.73	-25.9	-25.8	16.6	0.00e+00	0	51	0	6903824384	23	14215
2026-01-27 17:52:46.09	116.00	50.17	-25.7	-25.6	16.7	0.00e+00	0	51	0	6979321856	23	13895
2026-01-27 17:52:47.10	115.36	50.61	-25.6	-25.5	16.7	0.00e+00	0	51	0	7054819328	23	13741
2026-01-27 17:52:48.11	114.71	51.06	-25.6	-25.5	16.7	0.00e+00	0	51	0	7130316800	23	13741
2026-01-27 17:52:49.12	114.04	51.51	-25.6	-25.5	16.7	0.00e+00	0	51	0	7205814272	23	13647
2026-01-27 17:52:50.13	113.35	51.95	-25.5	-25.4	16.8	0.00e+00	0	51	0	7281311744	23	13591
2026-01-27 17:52:51.14	112.63	52.40	-25.5	-25.4	16.7	0.00e+00	0	51	0	7356809216	22	14299
2026-01-27 17:52:52.14	111.90	52.84	-25.3	-25.2	16.8	0.00e+00	0	51	0	7432306688	22	14096
2026-01-27 17:52:53.15	111.14	53.29	-25.4	-25.3	16.8	0.00e+00	0	51	0	7516192768	22	14143
2026-01-27 17:52:54.15	110.36	53.73	-25.3	-25.2	16.8	0.00e+00	0	51	0	7591690240	22	14047
2026-01-27 17:52:55.16	109.55	54.17	-25.3	-25.2	16.8	0.00e+00	0	51	0	7667187712	22	14047
2026-01-27 17:52:56.17	108.72	54.61	-25.2	-25.1	16.8	0.00e+00	0	52	0	7742685184	22	13841
2026-01-27 17:52:57.18	107.86	55.05	-25.2	-25.1	16.8	0.00e+00	0	51	0	7809794048	22	13939
2026-01-27 17:52:58.19	106.97	55.49	-25.2	-25.1	16.8	0.00e+00	0	51	0	7885291520	22	13808
2026-01-27 17:52:59.20	106.05	55.92	-25.1	-25.0	16.8	0.00e+00	0	51	0	7960788992	22	13717
2026-01-27 17:53:00.20	105.11	56.35	-25.1	-25.0	16.8	0.00e+00	0	51	0	8036286464	22	13720
2026-01-27 17:53:01.21	104.13	56.78	-25.2	-25.0	16.8	0.00e+00	0	51	0	8111783936	22	13790
2026-01-27 17:53:02.22	103.12	57.20	-25.1	-25.0	16.8	0.00e+00	0	51	0	8187281408	22	13710
2026-01-27 17:53:03.22	102.09	57.61	-25.0	-24.9	16.8	0.00e+00	0	51	0	8262778880	22	13605
2026-01-27 17:53:04.23	101.02	58.02	-24.9	-24.8	16.8	0.00e+00	0	51	0	8338276352	21	14201
2026-01-27 17:53:05.24	99.91	58.43	-25.0	-24.9	16.8	0.00e+00	0	51	0	8413773824	21	14352
2026-01-27 17:53:06.25	98.77	58.82	-25.0	-24.9	16.8	0.00e+00	0	51	0	8489271296	21	14332
2026-01-27 17:53:07.25	97.61	59.21	-24.9	-24.8	16.9	0.00e+00	0	51	0	8573157376	21	14212
2026-01-27 17:53:08.26	96.39	59.59	-24.8	-24.7	16.8	0.00e+00	0	51	0	8648654848	21	14060
2026-01-27 17:53:09.26	95.16	59.96	-24.7	-24.6	16.9	0.00e+00	0	51	0	8724152320	21	13921
2026-01-27 17:53:10.27	93.87	60.32	-24.9	-24.8	16.8	0.00e+00	0	52	0	8799649792	21	14112
2026-01-27 17:53:11.27	92.57	60.66	-24.7	-24.6	16.9	0.00e+00	0	51	0	8875147264	21	13895
2026-01-27 17:53:12.28	91.21	61.00	-24.6	-24.5	16.9	0.00e+00	0	52	0	8950644736	21	13767
2026-01-27 17:53:13.29	89.82	61.33	-24.6	-24.5	16.9	0.00e+00	0	51	0	9017753600	21	13689
2026-01-27 17:53:14.29	88.40	61.64	-24.6	-24.5	16.9	0.00e+00	0	51	0	9093251072	21	13731
2026-01-27 17:53:15.30	86.93	61.93	-24.6	-24.5	16.9	0.00e+00	0	51	0	9168748544	21	13693
2026-01-27 17:53:16.30	85.45	62.22	-24.6	-24.5	16.9	0.00e+00	0	52	0	9244246016	21	13664
2026-01-27 17:53:17.31	83.91	62.48	-24.5	-24.4	16.9	0.00e+00	0	51	0	9319743488	21	13587
2026-01-27 17:53:18.32	82.34	62.73	-24.6	-24.5	16.9	0.00e+00	0	52	0	9395240960	21	13735
2026-01-27 17:53:19.33	80.74	62.97	-24.6	-24.5	16.9	0.00e+00	0	52	0	9470738432	21	13703
2026-01-27 17:53:20.34	79.11	63.18	-24.6	-24.5	16.9	0.00e+00	0	51	0	9546235904	21	13752
2026-01-27 17:53:21.34	77.46	63.38	-24.6	-24.5	16.9	0.00e+00	0	51	0	9621733376	21	13751
2026-01-27 17:53:22.35	75.78	63.55	-24.5	-24.4	16.9	0.00e+00	0	51	0	9705619456	21	13520
2026-01-27 17:53:23.36	74.06	63.71	-24.4	-24.3	16.9	0.00e+00	0	51	0	9781116928	20	14217
2026-01-27 17:53:24.36	72.35	63.85	-24.4	-24.3	16.9	0.00e+00	0	51	0	9856614400	20	14213
2026-01-27 17:53:25.36	70.61	63.96	-24.4	-24.3	16.9	0.00e+00	0	51	0	9932111872	20	14219
2026-01-27 17:53:26.37	68.84	64.06	-24.4	-24.3	16.9	0.00e+00	0	51	0	10007609344	20	14198
2026-01-27 17:53:27.37	67.08	64.13	-24.5	-24.4	16.9	0.00e+00	0	52	0	10083106816	20	14378
2026-01-27 17:53:28.37	65.30	64.18	-24.4	-24.3	16.9	0.00e+00	0	52	0	10150215680	20	14218
2026-01-27 17:53:29.38	63.51	64.20	-24.4	-24.3	16.9	0.00e+00	0	52	0	10225713152	20	14200
2026-01-27 17:53:30.39	61.71	64.21	-24.6	-24.5	16.9	0.00e+00	0	52	0	10301210624	20	14463
2026-01-27 17:53:31.39	59.93	64.19	-24.5	-24.4	16.9	0.00e+00	0	52	0	10376708096	20	14310
2026-01-27 17:53:32.40	58.13	64.15	-24.4	-24.3	16.9	0.00e+00	0	52	0	10452205568	20	14253
2026-01-27 17:53:33.41	56.35	64.09	-24.4	-24.3	16.9	0.00e+00	0	52	0	10527703040	20	14249
2026-01-27 17:53:34.42	54.58	64.01	-24.5	-24.4	16.9	0.00e+00	0	52	0	10603200512	20	14301
2026-01-27 17:53:35.43	52.82	63.90	-24.5	-24.4	16.9	0.00e+00	0	52	0	10678697984	20	14429
2026-01-27 17:53:36.44	51.07	63.77	-24.4	-24.3	16.9	0.00e+00	0	52	0	10754195456	20	14258
2026-01-27 17:53:37.45	49.35	63.62	-24.5	-24.4	16.9	0.00e+00	0	52	0	10829692928	20	14355
2026-01-27 17:53:38.45	47.67	63.46	-24.5	-24.4	16.9	0.00e+00	0	52	0	10913579008	20	14372
2026-01-27 17:53:39.46	46.00	63.27	-24.6	-24.5	16.9	0.00e+00	0	52	0	10989076480	20	14548
2026-01-27 17:53:40.47	44.36	63.06	-24.6	-24.5	16.9	0.00e+00	0	52	0	11064573952	20	14485
2026-01-27 17:53:41.47	42.76	62.84	-24.6	-24.5	16.9	0.00e+00	0	52	0	11131682816	20	14476
2026-01-27 17:53:42.48	41.18	62.60	-24.5	-24.4	16.9	0.00e+00	0	52	0	11215568896	20	14413
2026-01-27 17:53:43.49	39.63	62.34	-24.6	-24.5	16.9	0.00e+00	0	52	0	11282677760	20	14454
2026-01-27 17:53:44.50	38.12	62.06	-24.5	-24.4	16.9	0.00e+00	0	52	0	11358175232	20	14430
2026-01-27 17:53:45.50	36.65	61.77	-24.7	-24.6	16.9	0.00e+00	0	52	0	11433672704	20	14642
2026-01-27 17:53:46.51	35.21	61.47	-24.6	-24.5	16.9	0.00e+00	0	52	0	11509170176	20	14576
2026-01-27 17:53:47.52	33.80	61.15	-24.7	-24.6	16.9	0.00e+00	0	52	0	11584667648	20	14641
2026-01-27 17:53:48.52	32.44	60.82	-24.7	-24.6	16.9	0.00e+00	0	52	0	11660165120	20	14659
2026-01-27 17:53:49.53	31.11	60.47	-24.8	-24.7	16.8	0.00e+00	0	52	0	11735662592	20	14790
2026-01-27 17:53:50.54	29.81	60.12	-24.8	-24.7	16.8	0.00e+00	0	52	0	11811160064	20	14799
2026-01-27 17:53:51.55	28.55	59.75	-24.7	-24.6	16.9	0.00e+00	0	52	0	11895046144	20	14747
2026-01-27 17:53:52.56	27.33	59.38	-24.8	-24.7	16.8	0.00e+00	0	52	0	11970543616	20	14808
2026-01-27 17:53:53.56	26.15	59.00	-24.8	-24.7	16.9	0.00e+00	0	52	0	12046041088	20	14876
2026-01-27 17:53:54.57	25.00	58.61	-24.9	-24.8	16.8	0.00e+00	0	52	0	12121538560	20	14963
2026-01-27 17:53:55.57	23.89	58.21	-24.9	-24.8	16.9	0.00e+00	0	52	0	12197036032	20	15056
2026-01-27 17:53:56.58	22.80	57.80	-25.0	-24.9	16.8	0.00e+00	0	52	0	12272533504	20	15172
2026-01-27 17:53:57.59	21.75	57.39	-25.0	-24.9	16.9	0.00e+00	0	52	0	12339642368	20	15128
2026-01-27 17:53:58.59	20.74	56.98	-25.0	-24.8	16.8	0.00e+00	0	52	0	12415139840	20	15118
2026-01-27 17:53:59.59	19.76	56.56	-25.0	-24.9	16.8	0.00e+00	0	52	0	12490637312	20	15197
2026-01-27 17:54:00.60	18.80	56.13	-25.2	-25.1	16.8	0.00e+00	0	52	0	12566134784	20	15501
2026-01-27 17:54:01.61	17.87	55.70	-25.1	-25.0	16.8	0.00e+00	0	52	0	12641632256	20	15404
2026-01-27 17:54:02.62	16.97	55.27	-25.2	-25.1	16.8	0.00e+00	0	52	0	12717129728	20	15560
2026-01-27 17:54:03.63	16.10	54.83	-25.2	-25.1	16.8	0.00e+00	0	52	0	12792627200	21	14692
2026-01-27 17:54:04.64	15.25	54.39	-25.3	-25.2	16.8	0.00e+00	0	52	0	12868124672	21	14792
2026-01-27 17:54:05.64	14.44	53.95	-25.4	-25.3	16.8	0.00e+00	0	52	0	12943622144	21	14966
2026-01-27 17:54:06.65	13.65	53.51	-25.5	-25.4	16.8	0.00e+00	0	52	0	13027508224	21	15127
2026-01-27 17:54:07.66	12.88	53.07	-25.4	-25.3	16.7	0.00e+00	0	52	0	13103005696	21	15088
2026-01-27 17:54:08.67	12.13	52.62	-25.5	-25.4	16.8	0.00e+00	0	52	0	13178503168	21	15128
2026-01-27 17:54:09.67	11.42	52.18	-25.6	-25.5	16.7	0.00e+00	0	52	0	13254000640	21	15304
2026-01-27 17:54:10.68	10.72	51.74	-25.6	-25.5	16.7	0.00e+00	0	52	0	13329498112	21	15317
2026-01-27 17:54:11.69	10.04	51.29	-25.6	-25.5	16.7	0.00e+00	0	52	0	13404995584	21	15349
2026-01-27 17:54:12.69	9.39	50.85	-25.7	-25.6	16.7	0.00e+00	0	52	0	13480493056	22	14730
2026-01-27 17:54:13.70	8.75	50.41	-25.7	-25.6	16.7	0.00e+00	0	52	0	13547601920	22	14713
2026-01-27 17:54:14.70	8.13	49.97	-25.8	-25.7	16.7	0.00e+00	0	52	0	13623099392	22	14818
2026-01-27 17:54:15.71	7.53	49.53	-25.9	-25.8	16.7	0.00e+00	0	52	0	13698596864	22	15046
2026-01-27 17:54:16.72	6.94	49.09	-25.9	-25.8	16.7	0.00e+00	0	52	0	13774094336	22	15108
2026-01-27 17:54:17.73	6.38	48.66	-25.9	-25.8	16.7	0.00e+00	0	52	0	13849591808	22	15080
2026-01-27 17:54:18.74	5.82	48.22	-26.1	-26.0	16.6	0.00e+00	0	52	0	13925089280	22	15306
2026-01-27 17:54:19.75	5.29	47.79	-26.2	-26.0	16.6	0.00e+00	0	52	0	14000586752	22	15471
2026-01-27 17:54:20.76	4.77	47.36	-26.1	-26.0	16.6	0.00e+00	0	52	0	14084472832	22	15472
2026-01-27 17:54:21.77	4.26	46.93	-26.2	-26.1	16.6	0.00e+00	0	52	0	14159970304	23	14714
2026-01-27 17:54:22.77	3.77	46.51	-26.2	-26.1	16.6	0.00e+00	0	52	0	14235467776	23	14735
2026-01-27 17:54:23.78	3.30	46.08	-26.3	-26.2	16.6	0.00e+00	0	52	0	14310965248	23	14817
2026-01-27 17:54:24.79	2.83	45.66	-26.4	-26.3	16.5	0.00e+00	0	52	0	14386462720	23	15118
2026-01-27 17:54:25.79	2.38	45.25	-26.4	-26.3	16.6	0.00e+00	0	52	0	14461960192	23	15104
2026-01-27 17:54:26.80	1.94	44.84	-26.4	-26.3	16.6	0.00e+00	0	52	0	14537457664	23	15023
2026-01-27 17:54:27.81	1.52	44.42	-26.5	-26.4	16.6	0.00e+00	0	52	0	14612955136	23	15210
2026-01-27 17:54:28.82	1.10	44.02	-26.6	-26.5	16.5	0.00e+00	0	52	0	14680064000	23	15368
2026-01-27 17:54:29.83	0.69	43.61	-26.5	-26.4	16.5	0.00e+00	0	52	0	14755561472	23	15283
2026-01-27 17:54:30.83	0.30	43.21	-26.7	-26.6	16.5	0.00e+00	0	52	0	14831058944	23	15498
2026-01-27 17:54:31.84	359.92	42.81	-26.7	-26.6	16.5	0.00e+00	0	52	0	14906556416	23	15583
2026-01-27 17:54:32.85	359.54	42.42	-26.8	-26.7	16.5	0.00e+00	0	52	0	14990442496	24	14830
2026-01-27 17:54:33.86	359.17	42.03	-26.9	-26.8	16.4	0.00e+00	0	52	0	15065939968	24	14995
2026-01-27 17:54:34.86	358.82	41.64	-26.9	-26.8	16.4	0.00e+00	0	52	0	15141437440	24	15012
2026-01-27 17:54:35.87	358.47	41.26	-27.0	-26.9	16.4	0.00e+00	0	52	0	15216934912	24	15136
2026-01-27 17:54:36.88	358.13	40.87	-27.1	-27.0	16.4	0.00e+00	0	52	0	15292432384	24	15336
2026-01-27 17:54:37.89	357.80	40.50	-27.0	-26.9	16.4	0.00e+00	0	52	0	15367929856	24	15291
2026-01-27 17:54:38.90	357.48	40.12	-27.1	-27.0	16.4	0.00e+00	0	52	0	15443427328	24	15343
2026-01-27 17:54:39.90	357.17	39.75	-27.2	-27.1	16.4	0.00e+00	0	52	0	15518924800	24	15494
2026-01-27 17:54:40.91	356.86	39.39	-27.2	-27.1	16.4	0.00e+00	0	52	0	15594422272	24	15507
2026-01-27 17:54:41.92	356.56	39.02	-27.3	-27.2	16.3	0.00e+00	0	52	0	15669919744	25	14928
2026-01-27 17:54:42.93	356.27	38.66	-27.3	-27.2	16.3	0.00e+00	0	52	0	15745417216	25	14840
2026-01-27 17:54:43.93	355.98	38.31	-27.5	-27.4	16.3	0.00e+00	0	52	0	15812526080	25	15134
2026-01-27 17:54:44.94	355.70	37.96	-27.4	-27.3	16.3	0.00e+00	0	52	0	15888023552	25	15081
2026-01-27 17:54:45.94	355.43	37.61	-27.5	-27.4	16.3	0.00e+00	0	52	0	15963521024	25	15290
2026-01-27 17:54:46.95	355.17	37.26	-27.5	-27.4	16.3	0.00e+00	0	52	0	16047407104	25	15258
2026-01-27 17:54:47.96	354.90	36.92	-27.7	-27.6	16.2	0.00e+00	0	52	0	16122904576	25	15489
2026-01-27 17:54:48.97	354.65	36.58	-27.7	-27.6	16.3	0.00e+00	0	52	0	16198402048	25	15518
2026-01-27 17:54:49.97	354.40	36.25	-27.8	-27.7	16.2	0.00e+00	0	52	0	16273899520	26	14803
2026-01-27 17:54:50.98	354.16	35.91	-27.8	-27.7	16.3	0.00e+00	0	52	0	16349396992	26	14931
2026-01-27 17:54:51.99	353.92	35.58	-27.9	-27.8	16.2	0.00e+00	0	52	0	16424894464	26	15016
2026-01-27 17:54:52.99	353.68	35.26	-28.0	-27.9	16.2	0.00e+00	0	52	0	16500391936	26	15175
2026-01-27 17:54:54.00	353.46	34.94	-28.0	-27.9	16.2	0.00e+00	0	52	0	16575889408	26	15239
2026-01-27 17:54:55.00	353.23	34.62	-28.1	-28.0	16.2	0.00e+00	0	52	0	16651386880	26	15317
2026-01-27 17:54:56.00	353.02	34.31	-28.1	-28.0	16.1	0.00e+00	0	52	0	16726884352	26	15464
2026-01-27 17:54:57.01	352.80	34.00	-28.2	-28.1	16.2	0.00e+00	0	52	0	16802381824	26	15522
2026-01-27 17:54:58.02	352.59	33.69	-28.2	-28.1	16.2	0.00e+00	0	52	0	16877879296	27	14660
2026-01-27 17:54:59.02	352.38	33.38	-28.3	-28.2	16.1	0.00e+00	0	52	0	16944988160	27	14845
2026-01-27 17:55:00.03	352.18	33.08	-28.4	-28.3	16.1	0.00e+00	0	52	0	17020485632	27	15029
2026-01-27 17:55:01.04	351.98	32.78	-28.4	-28.4	16.1	0.00e+00	0	52	0	17095983104	27	15127
2026-01-27 17:55:02.05	351.79	32.48	-28.4	-28.4	16.0	0.00e+00	0	52	0	17179869184	27	15132
2026-01-27 17:55:03.05	351.60	32.19	-28.5	-28.4	16.1	0.00e+00	0	52	0	17255366656	27	15185
2026-01-27 17:55:04.06	351.41	31.90	-28.5	-28.4	16.0	0.00e+00	0	52	0	17330864128	27	15271
2026-01-27 17:55:05.07	351.23	31.61	-28.7	-28.6	16.0	0.00e+00	0	52	0	17406361600	27	15503
2026-01-27 17:55:06.07	351.05	31.33	-28.6	-28.5	16.0	0.00e+00	0	52	0	17481859072	28	14551
2026-01-27 17:55:07.08	350.88	31.05	-28.6	-28.5	16.0	0.00e+00	0	52	0	17557356544	28	14540
2026-01-27 17:55:08.09	350.70	30.77	-28.7	-28.6	16.0	0.00e+00	0	52	0	17632854016	28	14670
2026-01-27 17:55:09.10	350.53	30.49	-28.8	-28.7	15.9	0.00e+00	0	52	0	17708351488	28	14836
2026-01-27 17:55:10.10	350.37	30.22	-28.9	-28.8	15.9	0.00e+00	0	52	0	17783848960	28	15042
2026-01-27 17:55:11.11	350.20	29.95	-28.9	-28.8	15.9	0.00e+00	0	52	0	17859346432	28	15108
2026-01-27 17:55:12.11	350.05	29.68	-29.0	-28.9	15.9	0.00e+00	0	52	0	17934843904	28	15161
2026-01-27 17:55:13.12	349.89	29.42	-28.9	-28.8	15.9	0.00e+00	0	52	0	18010341376	28	15108
2026-01-27 17:55:14.13	349.73	29.16	-28.9	-28.8	15.9	0.00e+00	0	52	0	18077450240	28	15092
2026-01-27 17:55:15.14	349.58	28.90	-29.1	-29.0	15.8	0.00e+00	0	52	0	18152947712	28	15339
2026-01-27 17:55:16.14	349.43	28.64	-29.2	-29.1	15.8	0.00e+00	0	52	0	18228445184	28	15496
2026-01-27 17:55:17.15	349.29	28.39	-29.1	-29.0	15.8	0.00e+00	0	52	0	18312331264	28	15467
2026-01-27 17:55:18.16	349.14	28.13	-29.3	-29.2	15.7	0.00e+00	0	52	0	18387828736	29	14873
2026-01-27 17:55:19.17	349.00	27.88	-29.3	-29.2	15.8	0.00e+00	0	52	0	18463326208	29	14837
2026-01-27 17:55:20.17	348.86	27.64	-29.4	-29.3	15.7	0.00e+00	0	52	0	18538823680	29	15008
2026-01-27 17:55:21.18	348.73	27.39	-29.3	-29.2	15.7	0.00e+00	0	52	0	18614321152	29	14926
2026-01-27 17:55:22.19	348.59	27.15	-29.5	-29.4	15.7	0.00e+00	0	52	0	18689818624	29	15153
2026-01-27 17:55:23.20	348.46	26.91	-29.5	-29.4	15.7	0.00e+00	0	52	0	18765316096	29	15173
2026-01-27 17:55:24.21	348.33	26.68	-29.6	-29.5	15.6	0.00e+00	0	52	0	18840813568	29	15352
2026-01-27 17:55:25.21	348.20	26.44	-29.6	-29.5	15.6	0.00e+00	0	52	0	18916311040	30	14606
2026-01-27 17:55:26.22	348.08	26.21	-29.7	-29.6	15.6	0.00e+00	0	52	0	18991808512	30	14664
2026-01-27 17:55:27.23	347.95	25.98	-29.8	-29.7	15.6	0.00e+00	0	52	0	19067305984	30	14837
2026-01-27 17:55:28.24	347.83	25.75	-29.8	-29.7	15.6	0.00e+00	0	52	0	19142803456	30	14802
2026-01-27 17:55:29.24	347.71	25.53	-29.8	-29.7	15.6	0.00e+00	0	52	0	19209912320	30	14944
2026-01-27 17:55:30.25	347.60	25.30	-29.9	-29.8	15.5	0.00e+00	0	52	0	19293798400	30	15093
2026-01-27 17:55:31.26	347.48	25.08	-30.0	-29.9	15.5	0.00e+00	0	52	0	19369295872	30	15242
2026-01-27 17:55:32.26	347.37	24.86	-30.0	-29.9	15.5	0.00e+00	0	52	0	19444793344	30	15194
2026-01-27 17:55:33.27	347.25	24.65	-29.9	-29.9	15.5	0.00e+00	0	52	0	19520290816	30	15123
2026-01-27 17:55:34.28	347.14	24.43	-30.0	-30.0	15.5	0.00e+00	0	52	0	19595788288	30	15297
2026-01-27 17:55:35.29	347.04	24.22	-30.2	-30.1	15.4	0.00e+00	0	52	0	19671285760	30	15586
2026-01-27 17:55:36.30	346.93	24.01	-30.1	-30.0	15.4	0.00e+00	0	52	0	19746783232	31	14563
2026-01-27 17:55:37.31	346.82	23.80	-30.2	-30.1	15.4	0.00e+00	0	52	0	19822280704	31	14726
2026-01-27 17:55:38.32	346.72	23.59	-30.3	-30.2	15.4	0.00e+00	0	52	0	19897778176	31	14869
2026-01-27 17:55:39.33	346.62	23.38	-30.3	-30.2	15.4	0.00e+00	0	52	0	19973275648	31	14857
2026-01-27 17:55:40.33	346.52	23.18	-30.4	-30.3	15.3	0.00e+00	0	52	0	20048773120	31	14996
2026-01-27 17:55:41.34	346.42	22.98	-53.6	-55.9	3.7	0.00e+00	0	52	104	20082327552	77	20338
2026-01-27 17:55:42.35	346.32	22.78	-53.6	-55.8	3.7	0.00e+00	0	51	104	20082327552	77	20072
2026-01-27 17:55:43.35	346.23	22.58	-53.6	-55.8	3.7	0.00e+00	0	51	104	20082327552	77	20018
2026-01-27 17:55:44.36	346.13	22.39	-53.6	-55.7	3.7	0.00e+00	0	51	104	20082327552	77	19920
2026-01-27 17:55:45.37	346.04	22.19	-53.6	-55.7	3.7	0.00e+00	0	51	104	20082327552	77	19873
2026-01-27 17:55:46.37	345.95	22.00	-53.6	-55.7	3.7	0.00e+00	0	51	104	20082327552	77	19815
2026-01-27 17:55:47.38	345.85	21.81	-53.6	-55.7	3.7	0.00e+00	0	51	104	20082327552	77	19836
2026-01-27 17:55:48.39	345.77	21.62	-53.6	-55.7	3.7	0.00e+00	0	51	104	20082327552	77	19772
2026-01-27 17:55:49.39	345.68	21.44	-53.6	-55.7	3.7	0.00e+00	0	51	104	20082327552	77	19750
2026-01-27 17:55:50.39	345.59	21.25	-53.5	-55.7	3.7	0.00e+00	0	51	104	20082327552	77	19748
2026-01-27 17:55:51.40	345.51	21.07	-53.5	-55.7	3.7	0.00e+00	0	51	104	20082327552	77	19801
2026-01-27 17:55:52.41	345.42	20.88	-53.5	-55.6	3.7	0.00e+00	0	51	104	20082327552	77	19686
2026-01-27 17:55:53.42	345.34	20.70	-53.5	-55.7	3.7	0.00e+00	0	51	104	20082327552	77	19734
2026-01-27 17:55:54.43	345.26	20.52	-53.5	-55.6	3.7	0.00e+00	0	51	104	20082327552	77	19648
2026-01-27 17:55:55.44	345.18	20.35	-53.5	-55.7	3.7	0.00e+00	0	51	104	20082327552	77	19707
2026-01-27 17:55:56.45	345.10	20.17	-53.5	-55.6	3.7	0.00e+00	0	51	104	20082327552	77	19628
2026-01-27 17:55:57.46	345.02	19.99	-53.5	-55.6	3.7	0.00e+00	0	51	104	20082327552	77	19649
2026-01-27 17:55:58.47	344.94	19.82	-53.5	-55.6	3.7	0.00e+00	0	51	104	20082327552	77	19552
2026-01-27 17:55:59.47	344.86	19.65	-53.5	-55.6	3.7	0.00e+00	0	51	104	20082327552	77	19569
2026-01-27 17:56:00.48	344.79	19.48	-53.4	-55.6	3.7	0.00e+00	0	51	104	20082327552	77	19528
2026-01-27 17:56:01.49	344.71	19.31	-53.4	-55.6	3.7	0.00e+00	0	51	104	20082327552	77	19549
2026-01-27 17:56:02.50	344.64	19.14	-53.4	-55.6	3.7	0.00e+00	0	51	104	20082327552	77	19536
2026-01-27 17:56:03.51	344.57	18.97	-53.4	-55.5	3.7	0.00e+00	0	51	104	20082327552	77	19434
2026-01-27 17:56:04.51	344.49	18.81	-53.4	-55.6	3.7	0.00e+00	0	51	104	20082327552	77	19502
2026-01-27 17:56:05.52	344.42	18.65	-53.4	-55.5	3.7	0.00e+00	0	51	104	20082327552	77	19452
2026-01-27 17:56:06.53	344.35	18.48	-53.4	-55.5	3.7	0.00e+00	0	51	104	20082327552	77	19374
2026-01-27 17:56:07.54	344.28	18.32	-53.4	-55.5	3.7	0.00e+00	0	51	104	20082327552	77	19438
2026-01-27 17:56:08.55	344.22	18.16	-53.4	-55.5	3.7	0.00e+00	0	51	104	20082327552	77	19439
2026-01-27 17:56:09.56	344.15	18.00	-53.4	-55.5	3.7	0.00e+00	0	51	104	20082327552	77	19374
2026-01-27 17:56:10.56	344.08	17.85	-53.4	-55.5	3.7	0.00e+00	0	51	104	20082327552	77	19336
2026-01-27 17:56:11.57	344.02	17.69	-53.4	-55.5	3.7	0.00e+00	0	51	104	20082327552	77	19312
2026-01-27 17:56:12.58	343.95	17.54	-53.3	-55.5	3.7	0.00e+00	0	51	104	20082327552	77	19342
2026-01-27 17:56:13.59	343.89	17.38	-53.3	-55.5	3.7	0.00e+00	0	51	104	20082327552	77	19287
2026-01-27 17:56:14.60	343.83	17.23	-53.3	-55.5	3.7	0.00e+00	0	51	104	20082327552	77	19269
2026-01-27 17:56:15.61	343.76	17.08	-53.3	-55.5	3.7	0.00e+00	0	51	104	20082327552	77	19258
2026-01-27 17:56:16.61	343.70	16.93	-53.3	-55.5	3.7	0.00e+00	0	51	104	20082327552	77	19259
2026-01-27 17:56:17.62	343.64	16.78	-53.3	-55.5	3.7	0.00e+00	0	50	104	20082327552	77	19294
2026-01-27 17:56:18.63	343.58	16.63	-53.3	-55.4	3.7	0.00e+00	0	51	104	20082327552	77	19237
2026-01-27 17:56:19.64	343.52	16.49	-53.3	-55.4	3.7	0.00e+00	0	51	104	20082327552	77	19221
2026-01-27 17:56:20.65	343.46	16.34	-53.3	-55.5	3.7	0.00e+00	0	51	104	20082327552	77	19291
2026-01-27 17:56:21.65	343.41	16.20	-53.3	-55.5	3.7	0.00e+00	0	50	104	20082327552	77	19312
2026-01-27 17:56:22.66	343.35	16.05	-53.3	-55.4	3.7	0.00e+00	0	50	104	20082327552	77	19208
2026-01-27 17:56:23.67	343.29	15.91	-53.3	-55.4	3.7	0.00e+00	0	51	104	20082327552	77	19235
2026-01-27 17:56:24.67	343.24	15.77	-53.3	-55.4	3.7	0.00e+00	0	51	104	20082327552	77	19203
2026-01-27 17:56:25.68	343.18	15.63	-53.3	-55.4	3.7	0.00e+00	0	51	104	20082327552	77	19191
2026-01-27 17:56:26.69	343.13	15.49	-53.3	-55.4	3.7	0.00e+00	0	50	104	20082327552	77	19187
2026-01-27 17:56:27.69	343.07	15.36	-53.3	-55.4	3.7	0.00e+00	0	50	104	20082327552	77	19103
2026-01-27 17:56:28.70	343.02	15.22	-53.3	-55.4	3.7	0.00e+00	0	50	104	20082327552	77	19170
2026-01-27 17:56:29.71	342.97	15.08	-53.3	-55.4	3.7	0.00e+00	0	51	104	20082327552	77	19109
2026-01-27 17:56:30.71	342.92	14.95	-53.2	-55.4	3.7	0.00e+00	0	50	104	20082327552	77	19098
2026-01-27 17:56:31.72	342.86	14.81	-53.2	-55.3	3.7	0.00e+00	0	50	104	20082327552	77	18990
2026-01-27 17:56:32.73	342.81	14.68	-53.3	-55.4	3.7	0.00e+00	0	50	104	20082327552	77	19149
2026-01-27 17:56:33.73	342.76	14.55	-53.2	-55.4	3.7	0.00e+00	0	50	104	20082327552	77	19069
2026-01-27 17:56:34.73	342.71	14.42	-53.2	-55.3	3.7	0.00e+00	0	50	104	20082327552	77	19018
2026-01-27 17:56:35.75	342.66	14.28	-53.2	-55.3	3.7	0.00e+00	0	50	104	20082327552	77	18977
2026-01-27 17:56:36.76	342.62	14.15	-53.2	-55.4	3.7	0.00e+00	0	50	104	20082327552	77	19040
2026-01-27 17:56:37.76	342.57	14.03	-53.2	-55.3	3.7	0.00e+00	0	50	104	20082327552	77	18972
2026-01-27 17:56:38.77	342.52	13.90	-53.2	-55.3	3.7	0.00e+00	0	50	104	20082327552	77	18932
2026-01-27 17:56:39.77	342.47	13.77	-53.1	-55.3	3.7	0.00e+00	0	50	104	20082327552	77	18838
2026-01-27 17:56:40.77	342.43	13.65	-53.2	-55.3	3.7	0.00e+00	0	50	104	20082327552	77	18948
2026-01-27 17:56:41.78	342.38	13.52	-53.1	-55.3	3.7	0.00e+00	0	50	104	20082327552	77	18866
2026-01-27 17:56:42.79	342.34	13.40	-53.1	-55.3	3.7	0.00e+00	0	50	104	20082327552	77	18828
2026-01-27 17:56:43.79	342.29	13.27	-53.1	-55.2	3.7	0.00e+00	0	50	104	20082327552	77	18757
2026-01-27 17:56:44.80	342.25	13.15	-53.1	-55.3	3.7	0.00e+00	0	50	104	20082327552	77	18857
2026-01-27 17:56:45.81	342.20	13.03	-53.1	-55.3	3.7	0.00e+00	0	50	104	20082327552	77	18835
2026-01-27 17:56:46.82	342.16	12.91	-53.1	-55.2	3.7	0.00e+00	0	50	104	20082327552	77	18763
2026-01-27 17:56:47.82	342.12	12.79	-53.0	-55.2	3.7	0.00e+00	0	50	104	20082327552	77	18704
2026-01-27 17:56:48.83	342.07	12.67	-53.1	-55.3	3.7	0.00e+00	0	50	104	20082327552	77	18824
2026-01-27 17:56:49.84	342.03	12.55	-53.1	-55.2	3.7	0.00e+00	0	50	104	20082327552	77	18767
2026-01-27 17:56:50.85	341.99	12.43	-53.0	-55.2	3.7	0.00e+00	0	50	104	20082327552	77	18646
2026-01-27 17:56:51.86	341.95	12.31	-53.0	-55.1	3.7	0.00e+00	0	50	104	20082327552	77	18533
2026-01-27 17:56:52.87	341.91	12.19	-53.1	-55.2	3.7	0.00e+00	0	50	104	20082327552	77	18732
2026-01-27 17:56:53.88	341.87	12.08	-53.0	-55.1	3.7	0.00e+00	0	50	104	20082327552	77	18582
2026-01-27 17:56:54.89	341.83	11.96	-53.0	-55.1	3.6	0.00e+00	0	50	104	20082327552	77	18498
2026-01-27 17:56:55.90	341.79	11.84	-52.9	-55.0	3.7	0.00e+00	0	50	104	20082327552	77	18367
2026-01-27 17:56:56.90	341.75	11.73	-53.0	-55.2	3.7	0.00e+00	0	50	104	20082327552	77	18612
2026-01-27 17:56:57.91	341.71	11.62	-52.9	-55.1	3.7	0.00e+00	0	50	104	20082327552	77	18484
2026-01-27 17:56:58.92	341.67	11.50	-52.9	-55.0	3.7	0.00e+00	0	50	104	20082327552	77	18381
2026-01-27 17:56:59.93	341.63	11.39	-52.9	-55.0	3.7	0.00e+00	0	50	104	20082327552	77	18377
2026-01-27 17:57:00.93	341.60	11.28	-52.9	-55.1	3.7	0.00e+00	0	50	104	20082327552	77	18464
2026-01-27 17:57:01.94	341.56	11.17	-52.9	-55.1	3.7	0.00e+00	0	50	104	20082327552	77	18396
2026-01-27 17:57:02.94	341.52	11.06	-52.9	-55.0	3.7	0.00e+00	0	50	104	20082327552	77	18319
2026-01-27 17:57:03.95	341.49	10.95	-52.8	-55.0	3.7	0.00e+00	0	50	104	20082327552	77	18310
2026-01-27 17:57:04.96	341.45	10.84	-52.9	-55.0	3.7	0.00e+00	0	50	104	20082327552	77	18364
2026-01-27 17:57:05.97	341.41	10.73	-52.8	-55.0	3.7	0.00e+00	0	50	104	20082327552	77	18254
2026-01-27 17:57:06.98	341.38	10.63	-52.8	-55.0	3.7	0.00e+00	0	50	104	20082327552	77	18261
2026-01-27 17:57:07.99	341.34	10.52	-52.8	-54.9	3.7	0.00e+00	0	50	104	20082327552	77	18138
2026-01-27 17:57:09.00	341.31	10.41	-52.9	-55.0	3.7	0.00e+00	0	50	104	20082327552	77	18317
2026-01-27 17:57:10.01	341.27	10.31	-52.8	-55.0	3.7	0.00e+00	0	50	104	20082327552	77	18202
2026-01-27 17:57:11.01	341.24	10.20	-52.8	-55.0	3.7	0.00e+00	0	50	104	20082327552	77	18244
2026-01-27 17:57:12.02	341.21	10.10	-52.8	-54.9	3.7	0.00e+00	0	50	104	20082327552	77	18104
2026-01-27 17:57:13.02	341.17	9.99	-52.8	-55.0	3.7	0.00e+00	0	50	104	20082327552	77	18242
2026-01-27 17:57:14.03	341.14	9.89	-52.8	-54.9	3.7	0.00e+00	0	50	104	20082327552	77	18143
2026-01-27 17:57:15.04	341.11	9.79	-52.8	-54.9	3.7	0.00e+00	0	50	104	20082327552	77	18148
2026-01-27 17:57:16.05	341.08	9.68	-52.8	-54.9	3.7	0.00e+00	0	50	104	20082327552	77	18018
2026-01-27 17:57:17.05	341.04	9.58	-52.8	-55.0	3.7	0.00e+00	0	50	104	20082327552	77	18190
2026-01-27 17:57:18.06	341.01	9.48	-52.8	-54.9	3.7	0.00e+00	0	50	104	20082327552	77	18124
2026-01-27 17:57:19.07	340.98	9.38	-52.7	-54.9	3.7	0.00e+00	0	50	104	20082327552	77	18052
2026-01-27 17:57:20.07	340.95	9.28	-52.7	-54.9	3.7	0.00e+00	0	50	104	20082327552	77	18036
2026-01-27 17:57:21.09	340.92	9.18	-52.8	-54.9	3.7	0.00e+00	0	50	104	20082327552	77	18117
2026-01-27 17:57:22.09	340.89	9.08	-52.7	-54.9	3.7	0.00e+00	0	50	104	20082327552	77	18085
2026-01-27 17:57:23.10	340.86	8.98	-52.7	-54.9	3.7	0.00e+00	0	50	104	20082327552	77	18048
2026-01-27 17:57:24.11	340.83	8.88	-52.7	-54.9	3.7	0.00e+00	0	50	104	20082327552	77	17997
2026-01-27 17:57:25.12	340.80	8.79	-52.7	-54.9	3.7	0.00e+00	0	50	104	20082327552	77	18012
2026-01-27 17:57:26.13	340.77	8.69	-52.7	-54.9	3.7	0.00e+00	0	50	104	20082327552	77	18025
2026-01-27 17:57:27.13	340.74	8.59	-52.7	-54.8	3.7	0.00e+00	0	50	104	20082327552	77	17954
2026-01-27 17:57:28.14	340.71	8.50	-52.7	-54.8	3.7	0.00e+00	0	50	104	20082327552	77	17938
2026-01-27 17:57:29.15	340.68	8.40	-52.7	-54.9	3.7	0.00e+00	0	50	104	20082327552	77	18076
2026-01-27 17:57:30.15	340.65	8.31	-52.7	-54.9	3.7	0.00e+00	0	50	104	20082327552	77	17981
2026-01-27 17:57:31.16	340.63	8.21	-52.7	-54.8	3.7	0.00e+00	0	50	104	20082327552	77	17899
2026-01-27 17:57:32.17	340.60	8.12	-52.7	-54.8	3.7	0.00e+00	0	50	104	20082327552	77	17878
2026-01-27 17:57:33.17	340.57	8.02	-52.7	-54.9	3.7	0.00e+00	0	50	104	20082327552	77	18031
2026-01-27 17:57:34.18	340.54	7.93	-52.7	-54.8	3.7	0.00e+00	0	50	104	20082327552	77	17936
2026-01-27 17:57:35.19	340.52	7.84	-52.7	-54.8	3.7	0.00e+00	0	50	104	20082327552	77	17907
2026-01-27 17:57:36.20	340.49	7.74	-52.6	-54.7	3.7	0.00e+00	0	50	104	20082327552	77	17754
2026-01-27 17:57:37.21	340.46	7.65	-52.7	-54.8	3.7	0.00e+00	0	50	104	20082327552	77	17907
2026-01-27 17:57:38.22	340.44	7.56	-52.6	-54.8	3.7	0.00e+00	0	50	104	20082327552	77	17813
2026-01-27 17:57:39.23	340.41	7.47	-52.6	-54.7	3.7	0.00e+00	0	50	104	20082327552	77	17704
2026-01-27 17:57:40.23	340.38	7.38	-52.6	-54.7	3.7	0.00e+00	0	50	104	20082327552	77	17659
2026-01-27 17:57:41.24	340.36	7.29	-52.7	-54.8	3.7	0.00e+00	0	50	104	20082327552	77	17869
2026-01-27 17:57:42.24	340.33	7.20	-52.6	-54.7	3.7	0.00e+00	0	50	104	20082327552	77	17714
2026-01-27 17:57:43.25	340.31	7.11	-52.5	-54.7	3.7	0.00e+00	0	50	104	20082327552	77	17580
2026-01-27 17:57:44.26	340.28	7.02	-52.5	-54.6	3.7	0.00e+00	0	50	104	20082327552	77	17557
2026-01-27 17:57:45.27	340.26	6.93	-52.6	-54.8	3.7	0.00e+00	0	50	104	20082327552	77	17768
2026-01-27 17:57:46.27	340.23	6.84	-52.5	-54.7	3.7	0.00e+00	0	50	104	20082327552	77	17606
2026-01-27 17:57:47.28	340.21	6.75	-52.5	-54.6	3.7	0.00e+00	0	50	104	20082327552	77	17466
2026-01-27 17:57:48.29	340.19	6.67	-52.5	-54.6	3.7	0.00e+00	0	50	104	20082327552	76	18520
2026-01-27 17:57:49.29	340.16	6.58	-52.5	-54.7	3.7	0.00e+00	0	50	104	20082327552	76	18642
2026-01-27 17:57:50.30	340.14	6.49	-52.5	-54.6	3.7	0.00e+00	0	50	104	20082327552	76	18541
2026-01-27 17:57:51.31	340.11	6.41	-52.4	-54.6	3.7	0.00e+00	0	50	104	20082327552	76	18473
2026-01-27 17:57:52.32	340.09	6.32	-52.4	-54.6	3.7	0.00e+00	0	50	104	20082327552	76	18394
2026-01-27 17:57:53.33	340.07	6.23	-52.5	-54.7	3.7	0.00e+00	0	50	104	20082327552	76	18657
2026-01-27 17:57:54.34	340.05	6.15	-52.4	-54.6	3.7	0.00e+00	0	50	104	20082327552	76	18435
2026-01-27 17:57:55.35	340.02	6.06	-52.4	-54.5	3.7	0.00e+00	0	50	104	20082327552	76	18234
2026-01-27 17:57:56.35	340.00	5.98	-52.4	-54.5	3.7	0.00e+00	0	50	104	20082327552	76	18287
2026-01-27 17:57:57.36	339.98	5.90	-52.4	-54.6	3.7	0.00e+00	0	50	104	20082327552	76	18468
2026-01-27 17:57:58.37	339.96	5.81	-52.4	-54.5	3.7	0.00e+00	0	50	104	20082327552	76	18295
2026-01-27 17:57:59.37	339.93	5.73	-52.3	-54.4	3.7	0.00e+00	0	50	104	20082327552	76	18106
2026-01-27 17:58:00.38	339.91	5.65	-52.3	-54.5	3.7	0.00e+00	0	50	104	20082327552	76	18209
2026-01-27 17:58:01.39	339.89	5.56	-52.4	-54.5	3.7	0.00e+00	0	50	104	20082327552	76	18294
2026-01-27 17:58:02.40	339.87	5.48	-52.3	-54.5	3.7	0.00e+00	0	50	104	20082327552	76	18219
2026-01-27 17:58:03.41	339.85	5.40	-52.3	-54.4	3.7	0.00e+00	0	50	104	20082327552	76	18051
2026-01-27 17:58:04.41	339.83	5.32	-52.3	-54.4	3.7	0.00e+00	0	50	104	20082327552	76	18015
2026-01-27 17:58:05.42	339.81	5.24	-52.3	-54.4	3.7	0.00e+00	0	50	104	20082327552	76	18153
2026-01-27 17:58:06.42	339.79	5.15	-52.2	-54.3	3.7	0.00e+00	0	50	104	20082327552	76	17890
2026-01-27 17:58:07.43	339.77	5.07	-52.2	-54.3	3.7	0.00e+00	0	50	104	20082327552	76	17904
2026-01-27 17:58:08.43	339.75	4.99	-52.1	-54.3	3.7	0.00e+00	0	50	104	20082327552	76	17768
2026-01-27 17:58:09.44	339.73	4.91	-52.6	-54.7	3.7	0.00e+00	0	50	104	20082327552	76	18758
2026-01-27 17:58:10.45	339.71	4.83	-53.0	-55.1	3.7	0.00e+00	0	50	104	20082327552	76	19588
2026-01-27 17:58:11.46	339.69	4.75	-53.2	-55.3	3.7	0.00e+00	0	50	104	20082327552	76	19990
2026-01-27 17:58:12.46	339.67	4.68	-53.3	-55.5	3.7	0.00e+00	0	50	104	20082327552	77	19295
2026-01-27 17:58:13.47	339.65	4.60	-53.5	-55.6	3.7	0.00e+00	0	50	104	20082327552	77	19555
2026-01-27 17:58:14.48	339.63	4.52	-53.6	-55.7	3.7	0.00e+00	0	50	104	20082327552	77	19807
2026-01-27 17:58:15.49	339.61	4.44	-53.7	-55.8	3.7	0.00e+00	0	50	104	20082327552	77	20123
2026-01-27 17:58:16.50	339.59	4.36	-53.8	-55.9	3.7	0.00e+00	0	50	104	20082327552	78	19143
2026-01-27 17:58:17.51	339.57	4.28	-53.8	-55.9	3.7	0.00e+00	0	50	104	20082327552	78	19167
2026-01-27 17:58:18.52	339.55	4.21	-53.7	-55.9	3.7	0.00e+00	0	50	104	20082327552	78	19041
2026-01-27 17:58:19.52	339.53	4.13	-53.7	-55.9	3.7	0.00e+00	0	50	104	20082327552	78	19036
2026-01-27 17:58:20.53	339.52	4.05	-53.7	-55.8	3.7	0.00e+00	0	50	104	20082327552	78	18979
2026-01-27 17:58:21.54	339.50	3.98	-53.6	-55.8	3.7	0.00e+00	0	50	104	20082327552	78	18832
2026-01-27 17:58:22.55	339.48	3.90	-53.4	-55.5	3.7	0.00e+00	0	50	104	20082327552	78	18375
2026-01-27 17:58:23.56	339.46	3.82	-53.4	-55.5	3.7	0.00e+00	0	50	104	20082327552	78	18372
2026-01-27 17:58:24.57	339.44	3.75	-53.4	-55.6	3.6	0.00e+00	0	50	104	20082327552	78	18459
2026-01-27 17:58:25.58	339.43	3.67	-53.5	-55.6	3.7	0.00e+00	0	50	104	20082327552	78	18586
2026-01-27 17:58:26.59	339.41	3.60	-53.5	-55.7	3.7	0.00e+00	0	50	104	20082327552	78	18608
2026-01-27 17:58:27.60	339.39	3.52	-53.6	-55.7	3.7	0.00e+00	0	50	104	20082327552	78	18688
2026-01-27 17:58:28.61	339.37	3.45	-53.6	-55.7	3.7	0.00e+00	0	50	104	20082327552	78	18723
2026-01-27 17:58:29.61	339.36	3.37	-53.6	-55.7	3.7	0.00e+00	0	50	104	20082327552	78	18719
2026-01-27 17:58:30.62	339.34	3.30	-53.6	-55.8	3.7	0.00e+00	0	50	104	20082327552	78	18847
2026-01-27 17:58:31.63	339.32	3.22	-53.6	-55.7	3.7	0.00e+00	0	50	104	20082327552	78	18740
2026-01-27 17:58:32.64	339.31	3.15	-53.5	-55.7	3.7	0.00e+00	0	50	104	20082327552	78	18686
2026-01-27 17:58:33.65	339.29	3.08	-53.5	-55.7	3.7	0.00e+00	0	50	104	20082327552	78	18655
2026-01-27 17:58:34.66	339.27	3.00	-53.5	-55.7	3.7	0.00e+00	0	50	104	20082327552	78	18643
2026-01-27 17:58:35.66	339.26	2.93	-53.5	-55.6	3.7	0.00e+00	0	50	104	20082327552	78	18584
2026-01-27 17:58:36.67	339.24	2.86	-53.5	-55.6	3.7	0.00e+00	0	50	104	20082327552	78	18547
2026-01-27 17:58:37.68	339.23	2.79	-53.5	-55.6	3.7	0.00e+00	0	50	104	20082327552	78	18513
2026-01-27 17:58:38.69	339.21	2.71	-53.5	-55.6	3.7	0.00e+00	0	50	104	20082327552	78	18540
2026-01-27 17:58:39.70	339.19	2.64	-53.5	-55.6	3.7	0.00e+00	0	50	104	20082327552	78	18518
2026-01-27 17:58:40.71	339.18	2.57	-53.5	-55.6	3.7	0.00e+00	0	50	104	20082327552	78	18481
2026-01-27 17:58:41.72	339.16	2.50	-53.5	-55.6	3.7	0.00e+00	0	50	104	20082327552	78	18454
2026-01-27 17:58:42.72	339.15	2.43	-53.4	-55.6	3.7	0.00e+00	0	50	104	20082327552	78	18480
2026-01-27 17:58:43.72	339.13	2.36	-53.4	-55.6	3.7	0.00e+00	0	50	104	20082327552	78	18445
2026-01-27 17:58:44.73	339.12	2.29	-53.4	-55.6	3.7	0.00e+00	0	50	104	20082327552	78	18402
2026-01-27 17:58:45.73	339.10	2.22	-53.4	-55.5	3.7	0.00e+00	0	50	104	20082327552	77	19433
2026-01-27 17:58:46.74	339.09	2.15	-53.4	-55.5	3.7	0.00e+00	0	50	104	20082327552	77	19464
2026-01-27 17:58:47.75	339.07	2.08	-53.4	-55.5	3.7	0.00e+00	0	50	104	20082327552	77	19424
2026-01-27 17:58:48.76	339.06	2.01	-53.4	-55.5	3.7	0.00e+00	0	50	104	20082327552	77	19430

#Closed at: 2026-01-27 17:58:49
#Recorded file [20082 MB]: D:/lorett/data/31041_260127_204814.dat