passes_logs/2026/01/27/R3.2S_Murmansk/R3.2S_Murmansk__20260127_210649_SUOMI_NPP_rec.log

#Pass ID: 20260127_210649_SUOMI NPP
#Satellite: SUOMI NPP
#Configuration: NPP
#almurnet v.1.7.20251203
#Start time: 2026-01-27 21:06:49

#Version: 2.2.20231116
#Station: R3.2S_Murmansk
#Location: 33.079688 lon 68.888172 lat
#TLE: 1 37849U 11061A   26027.29799992  .00000188  00000+0  11027-3 0  9993
#TLE: 2 37849  98.7822 329.2414 0002113  42.5791 317.5548 14.19530708738457

#Time	Az	El	Level	Level2	SNR	BER	BlckErr	Temp	State	Recorded	gain1	gain2
2026-01-27 21:06:49.70	18.73	2.00	-51.9	-66.9	3.8	1.49e+00	0	41	0	0	75	20073
2026-01-27 21:06:50.71	18.83	2.04	-51.9	-66.9	3.8	1.49e+00	0	41	104	0	74	21367
2026-01-27 21:06:51.71	18.94	2.08	-51.9	-66.9	3.8	1.49e+00	0	42	104	0	74	21263
2026-01-27 21:06:52.72	19.04	2.12	-51.9	-66.9	3.8	1.49e+00	0	41	104	0	74	21332
2026-01-27 21:06:53.73	19.15	2.16	-51.9	-66.9	3.8	1.49e+00	0	41	104	0	74	21314
2026-01-27 21:06:54.73	19.26	2.20	-51.9	-66.9	3.8	1.49e+00	0	41	104	0	74	21286
2026-01-27 21:06:55.74	19.36	2.25	-51.9	-66.9	3.8	1.49e+00	0	41	104	0	74	21282
2026-01-27 21:06:56.75	19.47	2.29	-51.9	-66.8	3.8	1.49e+00	0	42	104	0	74	21237
2026-01-27 21:06:57.75	19.58	2.33	-51.9	-66.8	3.8	1.49e+00	0	42	104	0	74	21208
2026-01-27 21:06:58.75	19.68	2.37	-51.9	-66.8	3.8	1.49e+00	0	42	104	0	74	21222
2026-01-27 21:06:59.76	19.79	2.41	-51.9	-66.8	3.8	1.49e+00	0	42	104	0	74	21229
2026-01-27 21:07:00.77	19.90	2.45	-51.9	-66.8	3.8	1.49e+00	0	42	104	0	74	21227
2026-01-27 21:07:01.78	20.01	2.49	-51.9	-66.8	3.8	1.49e+00	0	42	104	0	74	21196
2026-01-27 21:07:02.79	20.12	2.53	-51.9	-66.8	3.8	1.49e+00	0	42	104	0	74	21180
2026-01-27 21:07:03.80	20.22	2.58	-51.9	-66.8	3.8	1.49e+00	0	42	104	0	74	21102
2026-01-27 21:07:04.81	20.33	2.62	-51.9	-66.8	3.8	1.49e+00	0	42	104	0	74	21039
2026-01-27 21:07:05.81	20.44	2.66	-51.9	-66.7	3.8	1.49e+00	0	42	104	0	74	21013
2026-01-27 21:07:06.82	20.55	2.70	-51.9	-66.7	3.8	1.49e+00	0	42	104	0	74	20924
2026-01-27 21:07:07.83	20.66	2.74	-51.9	-66.7	3.8	1.49e+00	0	42	104	0	74	20822
2026-01-27 21:07:08.84	20.77	2.78	-51.9	-66.6	3.8	1.49e+00	0	42	104	0	74	20700
2026-01-27 21:07:09.85	20.88	2.82	-51.9	-66.6	3.8	1.49e+00	0	42	104	0	74	20623
2026-01-27 21:07:10.85	20.99	2.86	-51.9	-66.6	3.8	1.49e+00	0	42	104	0	74	20640
2026-01-27 21:07:11.86	21.10	2.90	-51.9	-66.6	3.8	1.49e+00	0	42	104	0	74	20662
2026-01-27 21:07:12.87	21.22	2.94	-51.9	-66.5	3.8	1.49e+00	0	42	104	0	74	20389
2026-01-27 21:07:13.88	21.33	2.99	-51.9	-66.5	3.8	1.49e+00	0	42	104	0	74	20339
2026-01-27 21:07:14.89	21.44	3.03	-51.9	-66.5	3.8	1.49e+00	0	42	104	0	74	20471
2026-01-27 21:07:15.90	21.55	3.07	-51.9	-66.5	3.8	1.49e+00	0	42	104	0	74	20333
2026-01-27 21:07:16.91	21.67	3.11	-51.9	-66.4	3.8	1.49e+00	0	42	104	0	74	20286
2026-01-27 21:07:17.92	21.78	3.15	-51.9	-66.4	3.8	1.49e+00	0	42	104	0	74	20303
2026-01-27 21:07:18.93	21.89	3.19	-51.9	-66.4	3.8	1.49e+00	0	42	104	0	74	20203
2026-01-27 21:07:19.93	22.01	3.23	-51.9	-66.4	3.8	1.49e+00	0	42	104	0	74	20299
2026-01-27 21:07:20.94	22.12	3.27	-51.9	-66.5	3.8	1.49e+00	0	42	104	0	74	20426
2026-01-27 21:07:21.95	22.23	3.31	-51.9	-66.5	3.8	1.49e+00	0	42	104	0	74	20537
2026-01-27 21:07:22.96	22.35	3.35	-51.9	-66.6	3.8	1.49e+00	0	42	104	0	74	20611
2026-01-27 21:07:23.96	22.46	3.39	-51.9	-66.6	3.8	1.49e+00	0	43	104	0	74	20631
2026-01-27 21:07:24.97	22.58	3.43	-51.9	-66.6	3.8	1.49e+00	0	42	104	0	74	20669
2026-01-27 21:07:25.98	22.69	3.48	-51.9	-66.6	3.8	1.49e+00	0	42	104	0	74	20693
2026-01-27 21:07:26.99	22.81	3.52	-51.9	-66.6	3.8	1.49e+00	0	42	104	0	74	20725
2026-01-27 21:07:28.00	22.92	3.56	-51.9	-66.6	3.8	1.49e+00	0	42	104	0	74	20636
2026-01-27 21:07:29.01	23.04	3.60	-51.9	-66.6	3.8	1.49e+00	0	42	104	0	74	20695
2026-01-27 21:07:30.01	23.16	3.64	-51.9	-66.7	3.8	1.49e+00	0	43	104	0	74	20782
2026-01-27 21:07:31.02	23.27	3.68	-51.9	-66.7	3.8	1.49e+00	0	43	104	0	74	20909
2026-01-27 21:07:32.03	23.39	3.72	-51.9	-66.8	3.8	1.49e+00	0	42	104	0	74	21037
2026-01-27 21:07:33.03	23.51	3.76	-51.9	-66.7	3.8	1.49e+00	0	43	104	0	74	20916
2026-01-27 21:07:34.04	23.63	3.80	-51.9	-66.7	3.8	1.49e+00	0	43	104	0	74	20996
2026-01-27 21:07:35.05	23.74	3.84	-51.9	-66.9	3.8	1.49e+00	0	42	104	0	74	21271
2026-01-27 21:07:36.06	23.86	3.88	-51.9	-66.8	3.8	1.49e+00	0	42	104	0	74	21159
2026-01-27 21:07:37.06	23.98	3.92	-51.9	-66.8	3.8	1.49e+00	0	43	104	0	74	21148
2026-01-27 21:07:38.07	24.10	3.96	-51.9	-66.8	3.8	1.49e+00	0	43	104	0	74	21168
2026-01-27 21:07:39.08	24.22	4.00	-51.9	-66.8	3.8	1.49e+00	0	43	104	0	74	21128
2026-01-27 21:07:40.09	24.34	4.04	-51.9	-66.8	3.8	1.49e+00	0	43	104	0	74	21140
2026-01-27 21:07:41.09	24.46	4.08	-51.9	-66.8	3.8	1.49e+00	0	42	104	0	74	21032
2026-01-27 21:07:42.10	24.58	4.12	-51.9	-66.8	3.8	1.49e+00	0	42	104	0	74	21065
2026-01-27 21:07:43.11	24.70	4.16	-51.9	-66.8	3.8	1.49e+00	0	43	104	0	74	21018
2026-01-27 21:07:44.12	24.82	4.20	-51.9	-66.8	3.8	1.49e+00	0	42	104	0	74	21130
2026-01-27 21:07:45.13	24.94	4.24	-51.9	-66.7	3.8	1.49e+00	0	42	104	0	74	20980
2026-01-27 21:07:46.13	25.06	4.28	-51.9	-66.7	3.8	1.49e+00	0	43	104	0	74	20873
2026-01-27 21:07:47.14	25.18	4.32	-51.9	-66.5	3.8	1.49e+00	0	43	104	0	74	20311
2026-01-27 21:07:48.15	25.31	4.36	-51.9	-66.0	3.8	1.49e+00	0	43	104	0	74	19237
2026-01-27 21:07:49.15	25.43	4.40	-51.8	-65.4	3.8	1.49e+00	0	43	104	0	74	17967
2026-01-27 21:07:50.16	25.55	4.44	-51.8	-64.5	3.8	1.49e+00	0	43	104	0	74	16292
2026-01-27 21:07:51.17	25.67	4.48	-51.7	-63.4	4.1	1.44e+00	0	43	0	0	74	14321
2026-01-27 21:07:52.17	25.80	4.52	-51.6	-62.4	4.5	1.30e+00	109	43	0	0	74	12795
2026-01-27 21:07:53.18	25.92	4.56	-51.6	-61.7	4.8	9.53e-01	0	43	0	2097152	74	11723
2026-01-27 21:07:54.19	26.05	4.60	-51.5	-60.7	5.3	6.08e-01	0	43	0	4194304	74	10459
2026-01-27 21:07:55.20	26.17	4.64	-51.3	-59.6	6.1	3.76e-01	0	43	0	6291456	74	9237
2026-01-27 21:07:56.21	26.29	4.68	-51.0	-58.1	7.4	2.35e-01	0	43	0	8388608	74	7784
2026-01-27 21:07:57.22	26.42	4.71	-50.8	-57.3	8.2	6.68e-02	0	43	0	9437184	73	7517
2026-01-27 21:07:58.23	26.55	4.75	-50.5	-56.3	9.2	2.34e-02	0	43	0	11534336	73	6686
2026-01-27 21:07:59.24	26.67	4.79	-50.3	-55.5	10.1	1.03e-02	0	43	0	13631488	72	6471
2026-01-27 21:08:00.25	26.80	4.83	-50.2	-55.3	10.3	4.24e-03	0	43	0	15728640	72	6295
2026-01-27 21:08:01.26	26.92	4.87	-50.2	-55.2	10.4	3.74e-03	0	43	0	17825792	72	6236
2026-01-27 21:08:02.27	27.05	4.91	-50.3	-55.6	10.1	4.19e-03	0	43	0	18874368	72	6538
2026-01-27 21:08:03.28	27.18	4.95	-50.6	-56.5	9.1	9.54e-03	0	43	0	20971520	72	7233
2026-01-27 21:08:04.29	27.31	4.99	-51.1	-58.5	7.1	7.68e-02	0	43	0	23068672	72	9112
2026-01-27 21:08:05.30	27.43	5.03	-50.6	-56.3	8.8	4.08e-01	0	43	0	25165824	73	6692
2026-01-27 21:08:06.31	27.56	5.07	-47.3	-49.5	16.6	0.00e+00	0	43	0	27262976	66	4549
2026-01-27 21:08:07.32	27.69	5.11	-51.8	-66.3	3.8	1.49e+00	0	43	104	27262976	74	20042
2026-01-27 21:08:08.33	27.82	5.14	-48.4	-51.1	14.7	8.34e-04	0	43	0	27262976	68	4904
2026-01-27 21:08:09.33	27.95	5.18	-47.5	-49.8	16.3	0.00e+00	0	43	0	29360128	65	5002
2026-01-27 21:08:10.33	28.08	5.22	-51.0	-57.7	7.5	6.73e-01	0	43	0	31457280	74	7377
2026-01-27 21:08:11.34	28.21	5.26	-47.2	-49.3	16.7	0.00e+00	0	43	0	33554432	66	4454
2026-01-27 21:08:12.34	28.33	5.30	-47.1	-49.2	16.7	0.00e+00	0	43	0	34603008	66	4418
2026-01-27 21:08:13.35	28.46	5.34	-47.1	-49.3	16.6	0.00e+00	0	43	0	36700160	66	4447
2026-01-27 21:08:14.36	28.60	5.38	-47.2	-49.3	16.7	0.00e+00	0	43	0	38797312	66	4472
2026-01-27 21:08:15.36	28.73	5.41	-47.3	-49.5	16.5	0.00e+00	0	43	0	40894464	66	4546
2026-01-27 21:08:16.37	28.86	5.45	-47.2	-49.3	16.7	0.00e+00	0	43	0	42991616	66	4487
2026-01-27 21:08:17.38	28.99	5.49	-47.2	-49.4	16.6	0.00e+00	0	43	0	44040192	66	4497
2026-01-27 21:08:18.39	29.12	5.53	-47.3	-49.4	16.6	0.00e+00	0	43	0	46137344	66	4540
2026-01-27 21:08:19.40	29.25	5.57	-47.4	-49.7	16.4	0.00e+00	0	43	0	48234496	66	4655
2026-01-27 21:08:20.41	29.39	5.60	-47.4	-49.5	16.4	0.00e+00	0	43	0	50331648	66	4593
2026-01-27 21:08:21.41	29.52	5.64	-47.4	-49.6	16.4	0.00e+00	0	43	0	52428800	66	4634
2026-01-27 21:08:22.42	29.65	5.68	-47.6	-49.9	16.1	0.00e+00	0	43	0	54525952	66	4776
2026-01-27 21:08:23.43	29.78	5.72	-47.6	-49.9	16.2	0.00e+00	0	43	0	55574528	66	4786
2026-01-27 21:08:24.44	29.92	5.75	-47.7	-50.0	16.1	0.00e+00	0	43	0	57671680	66	4849
2026-01-27 21:08:25.45	30.05	5.79	-47.5	-49.8	16.2	0.00e+00	0	43	0	59768832	66	4738
2026-01-27 21:08:26.46	30.19	5.83	-47.5	-49.7	16.3	0.00e+00	0	43	0	61865984	66	4697
2026-01-27 21:08:27.47	30.32	5.87	-47.5	-49.7	16.4	0.00e+00	0	43	0	62914560	66	4692
2026-01-27 21:08:28.47	30.46	5.90	-47.3	-49.5	16.6	0.00e+00	0	43	0	65011712	66	4553
2026-01-27 21:08:29.48	30.59	5.94	-47.4	-49.6	16.5	0.00e+00	0	43	0	67108864	66	4627
2026-01-27 21:08:30.49	30.73	5.98	-47.3	-49.4	16.7	0.00e+00	0	43	0	69206016	66	4517
2026-01-27 21:08:31.50	30.87	6.02	-47.4	-49.6	16.5	0.00e+00	0	43	0	71303168	66	4603
2026-01-27 21:08:32.50	31.00	6.05	-47.4	-49.6	16.5	0.00e+00	0	43	0	73400320	66	4630
2026-01-27 21:08:33.51	31.14	6.09	-47.2	-49.2	16.9	0.00e+00	0	43	0	74448896	66	4429
2026-01-27 21:08:34.52	31.28	6.13	-47.5	-49.7	16.4	0.00e+00	0	43	0	76546048	66	4663
2026-01-27 21:08:35.53	31.41	6.16	-47.7	-50.0	16.0	0.00e+00	0	43	0	78643200	66	4827
2026-01-27 21:08:36.53	31.55	6.20	-47.5	-49.7	16.4	0.00e+00	0	43	0	80740352	66	4675
2026-01-27 21:08:37.54	31.69	6.24	-47.7	-50.0	16.2	0.00e+00	0	43	0	82837504	66	4826
2026-01-27 21:08:38.55	31.83	6.27	-47.8	-50.2	15.8	0.00e+00	0	43	0	83886080	66	4975
2026-01-27 21:08:39.56	31.97	6.31	-47.8	-50.1	16.0	0.00e+00	0	43	0	85983232	66	4919
2026-01-27 21:08:40.57	32.11	6.35	-47.7	-50.0	16.0	0.00e+00	0	43	0	88080384	66	4827
2026-01-27 21:08:41.58	32.25	6.38	-47.9	-50.3	15.8	0.00e+00	0	43	0	90177536	66	4992
2026-01-27 21:08:42.59	32.39	6.42	-47.7	-50.0	16.1	0.00e+00	0	43	0	91226112	66	4821
2026-01-27 21:08:43.59	32.53	6.45	-47.7	-50.1	16.1	0.00e+00	0	43	0	93323264	66	4879
2026-01-27 21:08:44.60	32.67	6.49	-47.6	-49.9	16.2	0.00e+00	0	43	0	95420416	66	4765
2026-01-27 21:08:45.61	32.81	6.53	-47.3	-49.5	16.7	0.00e+00	0	43	0	97517568	66	4562
2026-01-27 21:08:46.61	32.95	6.56	-47.2	-49.2	16.9	0.00e+00	0	43	0	99614720	66	4434
2026-01-27 21:08:47.62	33.09	6.60	-47.4	-49.6	16.5	0.00e+00	0	43	0	101711872	66	4630
2026-01-27 21:08:48.62	33.23	6.63	-47.4	-49.5	16.6	0.00e+00	0	43	0	102760448	66	4587
2026-01-27 21:08:49.63	33.37	6.67	-47.4	-49.6	16.5	0.00e+00	0	43	0	104857600	66	4629
2026-01-27 21:08:50.64	33.52	6.70	-47.5	-49.8	16.3	0.00e+00	0	43	0	106954752	66	4728
2026-01-27 21:08:51.65	33.66	6.74	-47.5	-49.7	16.4	0.00e+00	0	43	0	109051904	66	4691
2026-01-27 21:08:52.65	33.80	6.77	-47.5	-49.7	16.4	0.00e+00	0	43	0	111149056	66	4687
2026-01-27 21:08:53.66	33.94	6.81	-47.5	-49.7	16.4	0.00e+00	0	43	0	112197632	66	4692
2026-01-27 21:08:54.66	34.09	6.84	-47.7	-50.0	16.2	0.00e+00	0	43	0	114294784	66	4822
2026-01-27 21:08:55.66	34.23	6.88	-47.7	-50.0	16.3	0.00e+00	0	43	0	116391936	66	4827
2026-01-27 21:08:56.64	34.37	6.91	-47.7	-50.0	16.1	0.00e+00	0	43	0	118489088	66	4854
2026-01-27 21:08:57.63	34.51	6.95	-47.7	-50.1	16.1	0.00e+00	0	43	0	119537664	66	4876
2026-01-27 21:08:58.60	34.65	6.98	-47.6	-49.8	16.4	0.00e+00	0	43	0	121634816	66	4730
2026-01-27 21:08:59.58	34.79	7.01	-47.7	-49.9	16.2	0.00e+00	0	44	0	123731968	66	4787
2026-01-27 21:09:00.54	34.93	7.05	-47.6	-49.7	16.5	0.00e+00	0	43	0	125829120	66	4700
2026-01-27 21:09:01.51	35.07	7.08	-47.5	-49.7	16.5	0.00e+00	0	43	0	126877696	66	4659
2026-01-27 21:09:02.48	35.21	7.11	-47.6	-49.8	16.4	0.00e+00	0	43	0	128974848	66	4708
2026-01-27 21:09:03.45	35.36	7.15	-47.6	-49.8	16.5	0.00e+00	0	44	0	131072000	66	4726
2026-01-27 21:09:04.42	35.50	7.18	-47.7	-49.9	16.3	0.00e+00	0	43	0	133169152	66	4789
2026-01-27 21:09:05.38	35.64	7.21	-47.6	-49.8	16.4	0.00e+00	0	43	0	134217728	66	4737
2026-01-27 21:09:06.35	35.78	7.24	-47.8	-50.1	16.2	0.00e+00	0	43	0	136314880	66	4886
2026-01-27 21:09:07.32	35.92	7.28	-47.8	-50.0	16.2	0.00e+00	0	43	0	138412032	66	4865
2026-01-27 21:09:08.30	36.07	7.31	-47.6	-49.8	16.4	0.00e+00	0	43	0	139460608	66	4753
2026-01-27 21:09:09.26	36.21	7.34	-47.8	-50.1	16.2	0.00e+00	0	43	0	141557760	66	4873
2026-01-27 21:09:10.23	36.35	7.37	-47.7	-50.0	16.3	0.00e+00	0	43	0	143654912	66	4854
2026-01-27 21:09:11.20	36.49	7.40	-47.8	-50.0	16.2	0.00e+00	0	43	0	145752064	66	4860
2026-01-27 21:09:12.17	36.64	7.44	-47.8	-50.0	16.3	0.00e+00	0	43	0	146800640	66	4854
2026-01-27 21:09:13.14	36.78	7.47	-47.7	-49.9	16.3	0.00e+00	0	43	0	148897792	66	4778
2026-01-27 21:09:14.11	36.93	7.50	-47.6	-49.8	16.3	0.00e+00	0	43	0	150994944	66	4736
2026-01-27 21:09:15.07	37.07	7.53	-47.6	-49.8	16.5	0.00e+00	0	43	0	153092096	66	4744
2026-01-27 21:09:16.04	37.22	7.56	-47.6	-49.9	16.4	0.00e+00	0	43	0	154140672	66	4773
2026-01-27 21:09:17.01	37.36	7.59	-47.6	-49.9	16.4	0.00e+00	0	43	0	156237824	66	4761
2026-01-27 21:09:17.98	37.51	7.62	-47.7	-49.9	16.3	0.00e+00	0	43	0	158334976	66	4802
2026-01-27 21:09:18.95	37.65	7.65	-47.6	-49.8	16.5	0.00e+00	0	43	0	160432128	66	4711
2026-01-27 21:09:19.92	37.80	7.69	-47.5	-49.7	16.7	0.00e+00	0	43	0	161480704	66	4657
2026-01-27 21:09:20.89	37.95	7.72	-47.5	-49.6	16.8	0.00e+00	0	43	0	163577856	66	4622
2026-01-27 21:09:21.85	38.09	7.75	-47.6	-49.8	16.6	0.00e+00	0	43	0	165675008	66	4714
2026-01-27 21:09:22.82	38.24	7.78	-47.6	-49.8	16.5	0.00e+00	0	43	0	167772160	66	4726
2026-01-27 21:09:23.79	38.39	7.81	-47.6	-49.8	16.5	0.00e+00	0	43	0	168820736	66	4730
2026-01-27 21:09:24.76	38.53	7.84	-47.6	-49.7	16.6	0.00e+00	0	43	0	170917888	66	4702
2026-01-27 21:09:25.73	38.68	7.87	-47.8	-50.0	16.2	0.00e+00	0	43	0	173015040	66	4867
2026-01-27 21:09:26.70	38.83	7.90	-47.7	-49.9	16.4	0.00e+00	0	43	0	174063616	66	4784
2026-01-27 21:09:27.66	38.98	7.93	-47.9	-50.2	16.1	0.00e+00	0	43	0	176160768	66	4966
2026-01-27 21:09:28.63	39.13	7.96	-48.0	-50.3	16.0	0.00e+00	0	43	0	178257920	66	5019
2026-01-27 21:09:29.60	39.28	7.99	-47.9	-50.2	16.0	0.00e+00	0	43	0	180355072	66	4947
2026-01-27 21:09:30.57	39.43	8.02	-47.9	-50.3	16.1	0.00e+00	0	43	0	181403648	66	4987
2026-01-27 21:09:31.54	39.58	8.05	-47.6	-49.8	16.5	0.00e+00	0	43	0	183500800	66	4733
2026-01-27 21:09:32.50	39.73	8.08	-47.6	-49.8	16.6	0.00e+00	0	43	0	185597952	66	4724
2026-01-27 21:09:33.48	39.88	8.10	-47.4	-49.5	16.7	0.00e+00	0	43	0	186646528	66	4572
2026-01-27 21:09:34.45	40.03	8.13	-47.5	-49.6	16.8	0.00e+00	0	43	0	188743680	66	4634
2026-01-27 21:09:35.42	40.18	8.16	-47.2	-49.1	17.1	0.00e+00	0	43	0	190840832	66	4384
2026-01-27 21:09:36.38	40.33	8.19	-47.1	-49.1	17.1	0.00e+00	0	43	0	192937984	66	4375
2026-01-27 21:09:37.35	40.48	8.22	-47.3	-49.4	16.9	0.00e+00	0	43	0	193986560	66	4510
2026-01-27 21:09:38.32	40.63	8.25	-47.4	-49.5	16.8	0.00e+00	0	43	0	196083712	66	4571
2026-01-27 21:09:39.29	40.79	8.28	-47.6	-49.8	16.5	0.00e+00	0	43	0	198180864	66	4750
2026-01-27 21:09:40.26	40.94	8.30	-47.7	-49.9	16.4	0.00e+00	0	43	0	200278016	66	4790
2026-01-27 21:09:41.23	41.09	8.33	-47.9	-50.3	16.0	0.00e+00	0	43	0	201326592	66	4998
2026-01-27 21:09:42.19	41.24	8.36	-48.0	-50.4	15.9	0.00e+00	0	43	0	203423744	66	5082
2026-01-27 21:09:43.16	41.40	8.39	-48.1	-50.5	15.9	0.00e+00	0	43	0	205520896	66	5125
2026-01-27 21:09:44.13	41.55	8.42	-47.9	-50.2	16.1	0.00e+00	0	43	0	207618048	66	4969
2026-01-27 21:09:45.10	41.70	8.44	-48.1	-50.4	16.0	0.00e+00	0	43	0	208666624	66	5091
2026-01-27 21:09:46.07	41.86	8.47	-48.1	-50.4	16.0	0.00e+00	0	43	0	210763776	66	5085
2026-01-27 21:09:47.04	42.01	8.50	-47.9	-50.1	16.2	0.00e+00	0	43	0	212860928	66	4908
2026-01-27 21:09:48.01	42.17	8.52	-48.0	-50.3	16.1	0.00e+00	0	43	0	214958080	66	5014
2026-01-27 21:09:48.97	42.32	8.55	-48.0	-50.3	16.1	0.00e+00	0	43	0	216006656	66	5015
2026-01-27 21:09:49.94	42.48	8.58	-47.9	-50.2	16.2	0.00e+00	0	43	0	218103808	66	4960
2026-01-27 21:09:50.91	42.63	8.60	-47.9	-50.3	16.1	0.00e+00	0	43	0	220200960	66	4999
2026-01-27 21:09:51.88	42.79	8.63	-47.9	-50.2	16.1	0.00e+00	0	43	0	221249536	66	4980
2026-01-27 21:09:52.85	42.94	8.66	-47.7	-49.9	16.4	0.00e+00	0	43	0	223346688	66	4790
2026-01-27 21:09:53.82	43.10	8.68	-47.6	-49.8	16.7	0.00e+00	0	43	0	225443840	66	4717
2026-01-27 21:09:54.79	43.26	8.71	-47.5	-49.6	16.8	0.00e+00	0	43	0	227540992	66	4610
2026-01-27 21:09:55.76	43.41	8.73	-47.2	-49.2	17.2	0.00e+00	0	43	0	228589568	66	4421
2026-01-27 21:09:56.72	43.57	8.76	-47.3	-49.3	17.1	0.00e+00	0	43	0	230686720	66	4445
2026-01-27 21:09:57.69	43.73	8.79	-47.3	-49.3	17.0	0.00e+00	0	43	0	232783872	66	4488
2026-01-27 21:09:58.66	43.88	8.81	-47.2	-49.1	17.2	0.00e+00	0	43	0	234881024	66	4387
2026-01-27 21:09:59.63	44.04	8.84	-47.2	-49.2	17.1	0.00e+00	0	43	0	235929600	66	4430
2026-01-27 21:10:00.60	44.20	8.86	-47.3	-49.3	17.0	0.00e+00	0	43	0	238026752	66	4489
2026-01-27 21:10:01.57	44.36	8.89	-47.3	-49.4	17.0	0.00e+00	0	43	0	240123904	66	4511
2026-01-27 21:10:02.54	44.52	8.91	-47.6	-49.8	16.6	0.00e+00	0	43	0	241172480	66	4706
2026-01-27 21:10:03.50	44.68	8.94	-47.8	-50.0	16.4	0.00e+00	0	43	0	243269632	66	4848
2026-01-27 21:10:04.47	44.83	8.96	-48.1	-50.5	16.0	0.00e+00	0	43	0	245366784	66	5106
2026-01-27 21:10:05.44	44.99	8.98	-48.1	-50.6	15.8	0.00e+00	0	43	0	247463936	66	5163
2026-01-27 21:10:06.41	45.15	9.01	-48.4	-51.0	15.4	0.00e+00	0	43	0	248512512	67	5136
2026-01-27 21:10:07.38	45.31	9.03	-48.5	-51.0	15.4	0.00e+00	0	43	0	250609664	67	5155
2026-01-27 21:10:08.34	45.47	9.05	-48.5	-51.1	15.3	0.00e+00	0	43	0	252706816	67	5209
2026-01-27 21:10:09.31	45.63	9.08	-48.6	-51.2	15.2	0.00e+00	0	43	0	254803968	67	5264
2026-01-27 21:10:10.28	45.79	9.10	-48.4	-50.9	15.5	0.00e+00	0	43	0	255852544	67	5083
2026-01-27 21:10:11.25	45.96	9.12	-48.1	-50.5	15.9	0.00e+00	0	43	0	257949696	67	4843
2026-01-27 21:10:12.22	46.12	9.15	-47.9	-50.1	16.3	0.00e+00	0	43	0	260046848	67	4645
2026-01-27 21:10:13.19	46.28	9.17	-47.6	-49.8	16.7	0.00e+00	0	43	0	261095424	67	4450
2026-01-27 21:10:14.16	46.44	9.19	-47.4	-49.4	17.0	0.00e+00	0	43	0	263192576	66	4539
2026-01-27 21:10:15.13	46.60	9.22	-47.4	-49.4	17.0	0.00e+00	0	43	0	265289728	66	4524
2026-01-27 21:10:16.10	46.77	9.24	-47.5	-49.6	16.9	0.00e+00	0	43	0	267386880	66	4602
2026-01-27 21:10:17.07	46.93	9.26	-47.3	-49.3	17.1	0.00e+00	0	43	0	268435456	66	4465
2026-01-27 21:10:18.04	47.09	9.28	-47.5	-49.7	16.8	0.00e+00	0	43	0	270532608	66	4656
2026-01-27 21:10:19.00	47.25	9.30	-47.4	-49.5	16.9	0.00e+00	0	43	0	272629760	66	4547
2026-01-27 21:10:19.97	47.42	9.32	-47.5	-49.6	16.9	0.00e+00	0	43	0	274726912	66	4635
2026-01-27 21:10:20.94	47.58	9.35	-47.3	-49.3	17.2	0.00e+00	0	43	0	275775488	66	4467
2026-01-27 21:10:21.90	47.74	9.37	-47.1	-49.1	17.3	0.00e+00	0	43	0	277872640	66	4344
2026-01-27 21:10:22.87	47.90	9.39	-47.1	-49.1	17.3	0.00e+00	0	43	0	279969792	66	4355
2026-01-27 21:10:23.84	48.07	9.41	-47.1	-49.0	17.4	0.00e+00	0	43	0	282066944	65	4552
2026-01-27 21:10:24.81	48.23	9.43	-47.0	-48.9	17.6	0.00e+00	0	43	0	283115520	65	4501
2026-01-27 21:10:25.78	48.40	9.45	-47.1	-49.0	17.3	0.00e+00	0	43	0	285212672	65	4585
2026-01-27 21:10:26.75	48.56	9.47	-47.1	-49.1	17.3	0.00e+00	0	43	0	287309824	65	4615
2026-01-27 21:10:27.72	48.73	9.49	-47.4	-49.4	17.0	0.00e+00	0	43	0	289406976	65	4797
2026-01-27 21:10:28.69	48.89	9.51	-47.6	-49.8	16.7	0.00e+00	0	43	0	290455552	65	4998
2026-01-27 21:10:29.66	49.06	9.53	-47.8	-50.0	16.5	0.00e+00	0	43	0	292552704	66	4840
2026-01-27 21:10:30.62	49.22	9.55	-47.6	-49.8	16.6	0.00e+00	0	43	0	294649856	66	4737
2026-01-27 21:10:31.59	49.39	9.57	-47.6	-49.7	16.7	0.00e+00	0	43	0	295698432	66	4665
2026-01-27 21:10:32.56	49.56	9.59	-47.4	-49.4	16.9	0.00e+00	0	43	0	297795584	66	4543
2026-01-27 21:10:33.52	49.72	9.61	-47.1	-49.0	17.4	0.00e+00	0	43	0	299892736	66	4331
2026-01-27 21:10:34.49	49.89	9.63	-47.0	-48.9	17.5	0.00e+00	0	43	0	301989888	66	4257
2026-01-27 21:10:35.46	50.05	9.64	-46.9	-48.7	17.7	0.00e+00	0	43	0	303038464	65	4422
2026-01-27 21:10:36.43	50.22	9.66	-47.0	-48.9	17.6	0.00e+00	0	43	0	305135616	65	4500
2026-01-27 21:10:37.40	50.39	9.68	-47.0	-48.9	17.5	0.00e+00	0	43	0	307232768	65	4530
2026-01-27 21:10:38.36	50.55	9.70	-47.4	-49.5	17.0	0.00e+00	0	43	0	309329920	65	4818
2026-01-27 21:10:39.33	50.72	9.72	-47.6	-49.8	16.7	0.00e+00	0	43	0	310378496	65	5014
2026-01-27 21:10:40.30	50.89	9.73	-47.5	-49.6	16.8	0.00e+00	0	43	0	312475648	65	4921
2026-01-27 21:10:41.27	51.06	9.75	-47.6	-49.7	16.8	0.00e+00	0	43	0	314572800	65	4939
2026-01-27 21:10:42.23	51.22	9.77	-47.4	-49.4	17.0	0.00e+00	0	43	0	315621376	65	4810
2026-01-27 21:10:43.20	51.39	9.78	-47.2	-49.2	17.2	0.00e+00	0	43	0	317718528	65	4678
2026-01-27 21:10:44.17	51.56	9.80	-46.9	-48.8	17.6	0.00e+00	0	43	0	319815680	65	4447
2026-01-27 21:10:45.14	51.73	9.82	-46.8	-48.7	17.8	0.00e+00	0	43	0	321912832	65	4393
2026-01-27 21:10:46.10	51.90	9.83	-46.8	-48.6	17.8	0.00e+00	0	43	0	322961408	65	4386
2026-01-27 21:10:47.07	52.07	9.85	-46.8	-48.6	17.7	0.00e+00	0	43	0	325058560	65	4387
2026-01-27 21:10:48.04	52.23	9.87	-47.1	-49.0	17.4	0.00e+00	0	43	0	327155712	65	4579
2026-01-27 21:10:49.01	52.40	9.88	-47.1	-49.0	17.4	0.00e+00	0	43	0	329252864	65	4575
2026-01-27 21:10:49.98	52.57	9.90	-47.1	-49.1	17.4	0.00e+00	0	43	0	330301440	65	4619
2026-01-27 21:10:50.95	52.74	9.91	-47.3	-49.3	17.1	0.00e+00	0	43	0	332398592	65	4734
2026-01-27 21:10:51.92	52.91	9.93	-47.3	-49.3	17.1	0.00e+00	0	43	0	334495744	65	4719
2026-01-27 21:10:52.89	53.08	9.94	-47.3	-49.3	17.1	0.00e+00	0	43	0	335544320	65	4727
2026-01-27 21:10:53.86	53.25	9.96	-47.1	-49.0	17.4	0.00e+00	0	43	0	337641472	65	4547
2026-01-27 21:10:54.83	53.43	9.97	-47.3	-49.3	17.1	0.00e+00	0	43	0	339738624	65	4735
2026-01-27 21:10:55.79	53.59	9.99	-47.3	-49.3	17.0	0.00e+00	0	43	0	341835776	65	4749
2026-01-27 21:10:56.76	53.77	10.00	-47.7	-49.9	16.7	0.00e+00	0	43	0	342884352	65	5046
2026-01-27 21:10:57.73	53.94	10.01	-48.1	-50.4	16.1	0.00e+00	0	43	0	344981504	66	5080
2026-01-27 21:10:58.70	54.11	10.03	-48.4	-50.9	15.6	0.00e+00	0	43	0	347078656	67	5089
2026-01-27 21:10:59.67	54.28	10.04	-48.7	-51.3	15.2	7.00e-07	0	43	0	349175808	67	5340
2026-01-27 21:11:00.64	54.45	10.05	-49.0	-51.9	14.7	7.00e-07	0	43	0	350224384	68	5367
2026-01-27 21:11:01.61	54.62	10.07	-49.0	-51.9	14.7	0.00e+00	0	43	0	352321536	68	5359
2026-01-27 21:11:02.58	54.79	10.08	-48.8	-51.6	14.9	0.00e+00	0	43	0	354418688	68	5173
2026-01-27 21:11:03.55	54.97	10.09	-48.7	-51.4	15.1	0.00e+00	0	43	0	356515840	68	5089
2026-01-27 21:11:04.52	55.14	10.10	-48.6	-51.2	15.3	0.00e+00	0	43	0	357564416	68	4954
2026-01-27 21:11:05.49	55.31	10.12	-48.4	-50.9	15.7	0.00e+00	0	43	0	359661568	68	4761
2026-01-27 21:11:06.45	55.48	10.13	-48.3	-50.7	15.9	0.00e+00	0	43	0	361758720	68	4691
2026-01-27 21:11:07.42	55.65	10.14	-48.4	-50.8	15.8	0.00e+00	0	43	0	363855872	68	4730
2026-01-27 21:11:08.39	55.83	10.15	-48.3	-50.8	15.8	0.00e+00	0	43	0	364904448	68	4709
2026-01-27 21:11:09.36	56.00	10.16	-48.4	-50.8	15.8	0.00e+00	0	43	0	367001600	68	4755
2026-01-27 21:11:10.33	56.17	10.17	-48.4	-50.9	15.6	0.00e+00	0	43	0	369098752	68	4774
2026-01-27 21:11:11.30	56.34	10.18	-48.4	-50.9	15.7	0.00e+00	0	43	0	371195904	68	4775
2026-01-27 21:11:12.27	56.52	10.19	-48.4	-50.9	15.8	0.00e+00	0	43	0	372244480	68	4781
2026-01-27 21:11:13.23	56.69	10.20	-48.4	-50.8	15.8	0.00e+00	0	43	0	374341632	68	4745
2026-01-27 21:11:14.20	56.86	10.21	-48.2	-50.6	15.9	0.00e+00	0	43	0	376438784	68	4632
2026-01-27 21:11:15.17	57.04	10.22	-48.1	-50.4	16.2	0.00e+00	0	43	0	377487360	68	4509
2026-01-27 21:11:16.14	57.21	10.23	-48.1	-50.4	16.1	0.00e+00	0	43	0	379584512	68	4519
2026-01-27 21:11:17.11	57.38	10.24	-48.0	-50.2	16.2	0.00e+00	0	43	0	381681664	67	4705
2026-01-27 21:11:18.07	57.56	10.25	-48.0	-50.3	16.2	0.00e+00	0	43	0	382730240	67	4753
2026-01-27 21:11:19.04	57.73	10.26	-48.0	-50.3	16.2	0.00e+00	0	43	0	384827392	67	4744
2026-01-27 21:11:20.01	57.90	10.27	-48.1	-50.4	16.2	0.00e+00	0	43	0	386924544	67	4794
2026-01-27 21:11:20.98	58.08	10.28	-48.0	-50.3	16.2	0.00e+00	0	43	0	389021696	67	4726
2026-01-27 21:11:21.95	58.25	10.29	-48.0	-50.3	16.3	0.00e+00	0	43	0	390070272	67	4710
2026-01-27 21:11:22.92	58.43	10.29	-48.0	-50.3	16.2	0.00e+00	0	43	0	392167424	67	4735
2026-01-27 21:11:23.89	58.60	10.30	-47.8	-50.1	16.4	0.00e+00	0	43	0	394264576	67	4603
2026-01-27 21:11:24.86	58.77	10.31	-47.8	-50.0	16.5	0.00e+00	0	43	0	396361728	67	4583
2026-01-27 21:11:25.83	58.95	10.32	-47.4	-49.5	16.9	0.00e+00	0	43	0	397410304	66	4563
2026-01-27 21:11:26.80	59.12	10.32	-47.6	-49.7	16.8	0.00e+00	0	43	0	399507456	66	4653
2026-01-27 21:11:27.77	59.30	10.33	-47.3	-49.4	17.2	0.00e+00	0	43	0	401604608	66	4500
2026-01-27 21:11:28.74	59.47	10.34	-47.2	-49.2	17.3	0.00e+00	0	43	0	403701760	66	4412
2026-01-27 21:11:29.70	59.65	10.34	-47.4	-49.4	17.1	0.00e+00	0	43	0	404750336	66	4538
2026-01-27 21:11:30.67	59.82	10.35	-47.4	-49.4	17.1	0.00e+00	0	43	0	406847488	66	4525
2026-01-27 21:11:31.64	60.00	10.36	-47.4	-49.4	17.1	0.00e+00	0	43	0	408944640	66	4506
2026-01-27 21:11:32.61	60.17	10.36	-47.5	-49.5	17.0	0.00e+00	0	43	0	411041792	66	4575
2026-01-27 21:11:33.58	60.35	10.37	-47.4	-49.4	17.0	0.00e+00	0	43	0	412090368	66	4536
2026-01-27 21:11:34.55	60.52	10.37	-47.3	-49.3	17.1	0.00e+00	0	43	0	414187520	66	4457
2026-01-27 21:11:35.52	60.70	10.38	-47.2	-49.1	17.4	0.00e+00	0	43	0	416284672	66	4382
2026-01-27 21:11:36.49	60.87	10.38	-47.0	-48.9	17.5	0.00e+00	0	43	0	417333248	66	4271
2026-01-27 21:11:37.46	61.05	10.39	-47.1	-49.0	17.4	0.00e+00	0	43	0	419430400	66	4300
2026-01-27 21:11:38.43	61.22	10.39	-47.2	-49.1	17.3	0.00e+00	0	43	0	421527552	66	4387
2026-01-27 21:11:39.39	61.40	10.39	-47.2	-49.2	17.2	0.00e+00	0	43	0	423624704	66	4427
2026-01-27 21:11:40.36	61.57	10.40	-47.2	-49.1	17.4	0.00e+00	0	43	0	424673280	66	4369
2026-01-27 21:11:41.33	61.75	10.40	-47.3	-49.2	17.1	0.00e+00	0	43	0	426770432	66	4439
2026-01-27 21:11:42.30	61.92	10.41	-47.3	-49.3	17.1	0.00e+00	0	43	0	428867584	66	4490
2026-01-27 21:11:43.27	62.10	10.41	-47.2	-49.2	17.2	0.00e+00	0	43	0	430964736	66	4414
2026-01-27 21:11:44.24	62.28	10.41	-47.1	-49.1	17.4	0.00e+00	0	43	0	432013312	66	4348
2026-01-27 21:11:45.21	62.45	10.41	-47.0	-48.8	17.7	0.00e+00	0	43	0	434110464	65	4491
2026-01-27 21:11:46.17	62.63	10.42	-46.9	-48.7	17.7	0.00e+00	0	43	0	436207616	65	4414
2026-01-27 21:11:47.14	62.80	10.42	-46.8	-48.6	17.9	0.00e+00	0	43	0	438304768	65	4358
2026-01-27 21:11:48.10	62.98	10.42	-46.7	-48.5	17.9	0.00e+00	0	43	0	439353344	65	4318
2026-01-27 21:11:49.07	63.15	10.42	-46.5	-48.3	18.1	0.00e+00	0	43	0	441450496	64	4454
2026-01-27 21:11:50.04	63.33	10.42	-46.6	-48.4	18.0	0.00e+00	0	43	0	443547648	64	4525
2026-01-27 21:11:51.01	63.50	10.43	-46.6	-48.4	18.0	0.00e+00	0	43	0	445644800	64	4496
2026-01-27 21:11:51.98	63.68	10.43	-46.5	-48.3	18.0	0.00e+00	0	43	0	446693376	64	4464
2026-01-27 21:11:52.94	63.85	10.43	-46.6	-48.3	18.1	0.00e+00	0	43	0	448790528	64	4487
2026-01-27 21:11:53.91	64.03	10.43	-46.5	-48.2	18.3	0.00e+00	0	43	0	450887680	64	4412
2026-01-27 21:11:54.88	64.21	10.43	-46.4	-48.1	18.2	0.00e+00	0	43	0	451936256	64	4388
2026-01-27 21:11:55.84	64.38	10.43	-46.2	-47.8	18.5	0.00e+00	0	43	0	454033408	64	4206
2026-01-27 21:11:56.81	64.56	10.43	-46.1	-47.7	18.7	0.00e+00	0	43	0	456130560	64	4157
2026-01-27 21:11:57.79	64.73	10.43	-46.1	-47.7	18.6	0.00e+00	0	43	0	457179136	64	4161
2026-01-27 21:11:58.75	64.91	10.43	-46.3	-47.9	18.5	0.00e+00	0	43	0	459276288	64	4281
2026-01-27 21:11:59.72	65.08	10.43	-46.5	-48.2	18.3	0.00e+00	0	43	0	461373440	64	4415
2026-01-27 21:12:00.69	65.26	10.42	-46.5	-48.3	18.1	0.00e+00	0	43	0	463470592	64	4463
2026-01-27 21:12:01.66	65.44	10.42	-46.7	-48.5	17.9	0.00e+00	0	43	0	464519168	64	4578
2026-01-27 21:12:02.63	65.61	10.42	-46.8	-48.7	17.6	0.00e+00	0	43	0	466616320	64	4669
2026-01-27 21:12:03.60	65.79	10.42	-46.8	-48.6	17.8	0.00e+00	0	43	0	468713472	64	4639
2026-01-27 21:12:04.57	65.96	10.42	-46.7	-48.5	17.9	0.00e+00	0	43	0	470810624	64	4576
2026-01-27 21:12:05.54	66.14	10.42	-46.5	-48.2	18.1	0.00e+00	0	43	0	471859200	64	4422
2026-01-27 21:12:06.50	66.31	10.41	-46.5	-48.3	18.2	0.00e+00	0	43	0	473956352	64	4448
2026-01-27 21:12:07.47	66.49	10.41	-46.5	-48.3	18.1	0.00e+00	0	43	0	476053504	64	4449
2026-01-27 21:12:08.44	66.67	10.41	-46.5	-48.2	18.1	0.00e+00	0	43	0	478150656	64	4425
2026-01-27 21:12:09.41	66.84	10.40	-46.4	-48.2	18.1	0.00e+00	0	43	0	479199232	64	4411
2026-01-27 21:12:10.38	67.02	10.40	-46.5	-48.2	18.1	0.00e+00	0	43	0	481296384	64	4441
2026-01-27 21:12:11.35	67.19	10.40	-46.6	-48.4	18.0	0.00e+00	0	43	0	483393536	64	4499
2026-01-27 21:12:12.32	67.37	10.39	-46.5	-48.3	18.0	0.00e+00	0	43	0	485490688	64	4477
2026-01-27 21:12:13.29	67.54	10.39	-46.7	-48.5	17.9	0.00e+00	0	43	0	486539264	64	4579
2026-01-27 21:12:14.25	67.72	10.38	-46.8	-48.6	17.8	0.00e+00	0	43	0	488636416	64	4637
2026-01-27 21:12:15.22	67.89	10.38	-46.5	-48.3	18.1	0.00e+00	0	43	0	490733568	64	4479
2026-01-27 21:12:16.19	68.07	10.37	-46.4	-48.2	18.1	0.00e+00	0	43	0	491782144	64	4410
2026-01-27 21:12:17.16	68.24	10.37	-46.4	-48.2	18.3	0.00e+00	0	43	0	493879296	64	4406
2026-01-27 21:12:18.13	68.42	10.36	-46.3	-48.2	18.2	0.00e+00	0	43	0	495976448	64	4404
2026-01-27 21:12:19.10	68.59	10.36	-46.2	-48.1	18.2	0.00e+00	0	43	0	498073600	64	4349
2026-01-27 21:12:20.07	68.77	10.35	-46.0	-47.9	18.6	0.00e+00	0	43	0	499122176	63	4503
2026-01-27 21:12:21.03	68.94	10.35	-46.1	-48.1	18.4	0.00e+00	0	43	0	501219328	63	4621
2026-01-27 21:12:22.00	69.12	10.34	-45.9	-48.1	18.3	0.00e+00	0	43	0	503316480	63	4605
2026-01-27 21:12:22.97	69.29	10.33	-45.6	-48.1	18.3	0.00e+00	0	43	0	505413632	63	4620
2026-01-27 21:12:23.94	69.47	10.33	-45.2	-48.0	18.4	0.00e+00	0	43	0	506462208	62	4840
2026-01-27 21:12:24.90	69.64	10.32	-45.4	-47.8	18.5	0.00e+00	0	43	0	508559360	62	4724
2026-01-27 21:12:25.87	69.82	10.31	-45.6	-47.8	18.5	0.00e+00	0	43	0	510656512	62	4737
2026-01-27 21:12:26.84	69.99	10.30	-45.7	-47.4	18.9	0.00e+00	0	43	0	512753664	62	4503
2026-01-27 21:12:27.81	70.17	10.30	-45.6	-47.0	19.3	0.00e+00	0	43	0	513802240	62	4335
2026-01-27 21:12:28.78	70.34	10.29	-45.5	-47.0	19.4	0.00e+00	0	43	0	515899392	62	4308
2026-01-27 21:12:29.75	70.51	10.28	-45.8	-47.3	19.1	0.00e+00	0	43	0	517996544	62	4458
2026-01-27 21:12:30.72	70.69	10.27	-45.4	-46.8	19.6	0.00e+00	0	43	0	519045120	62	4220
2026-01-27 21:12:31.69	70.86	10.26	-45.5	-47.0	19.5	0.00e+00	0	43	0	521142272	62	4292
2026-01-27 21:12:32.65	71.03	10.26	-45.6	-47.0	19.4	0.00e+00	0	43	0	523239424	62	4329
2026-01-27 21:12:33.62	71.21	10.25	-45.8	-47.3	19.1	0.00e+00	0	43	0	525336576	62	4462
2026-01-27 21:12:34.59	71.38	10.24	-45.9	-47.5	18.9	0.00e+00	0	43	0	526385152	62	4572
2026-01-27 21:12:35.56	71.56	10.23	-46.0	-47.6	18.8	0.00e+00	0	43	0	528482304	62	4617
2026-01-27 21:12:36.53	71.73	10.22	-46.1	-47.7	18.8	0.00e+00	0	43	0	530579456	62	4664
2026-01-27 21:12:37.50	71.90	10.21	-46.0	-47.6	18.8	0.00e+00	0	43	0	532676608	62	4648
2026-01-27 21:12:38.47	72.08	10.20	-45.9	-47.4	18.9	0.00e+00	0	43	0	533725184	62	4537
2026-01-27 21:12:39.44	72.25	10.19	-45.9	-47.5	18.9	0.00e+00	0	43	0	535822336	62	4555
2026-01-27 21:12:40.42	72.43	10.18	-46.0	-47.6	18.8	0.00e+00	0	43	0	537919488	62	4616
2026-01-27 21:12:41.38	72.60	10.17	-45.9	-47.5	18.9	0.00e+00	0	43	0	538968064	62	4566
2026-01-27 21:12:42.35	72.77	10.15	-46.0	-47.6	18.8	0.00e+00	0	43	0	541065216	62	4615
2026-01-27 21:12:43.32	72.94	10.14	-46.0	-47.6	18.9	0.00e+00	0	43	0	543162368	62	4606
2026-01-27 21:12:44.29	73.12	10.13	-46.0	-47.6	18.9	0.00e+00	0	43	0	545259520	62	4636
2026-01-27 21:12:45.26	73.29	10.12	-46.1	-47.7	18.8	0.00e+00	0	43	0	546308096	62	4659
2026-01-27 21:12:46.23	73.46	10.11	-46.0	-47.6	18.8	0.00e+00	0	43	0	548405248	62	4619
2026-01-27 21:12:47.20	73.63	10.10	-46.0	-47.6	18.7	0.00e+00	0	43	0	550502400	62	4628
2026-01-27 21:12:48.16	73.80	10.08	-46.0	-47.6	18.8	0.00e+00	0	43	0	552599552	62	4613
2026-01-27 21:12:49.13	73.98	10.07	-46.1	-47.7	18.7	0.00e+00	0	43	0	553648128	62	4660
2026-01-27 21:12:50.10	74.15	10.06	-46.1	-47.7	18.7	0.00e+00	0	43	0	555745280	62	4666
2026-01-27 21:12:51.07	74.32	10.04	-46.1	-47.7	18.7	0.00e+00	0	43	0	557842432	62	4663
2026-01-27 21:12:52.04	74.49	10.03	-46.0	-47.6	18.8	0.00e+00	0	43	0	559939584	62	4609
2026-01-27 21:12:53.02	74.66	10.02	-46.2	-47.8	18.6	0.00e+00	0	43	0	560988160	62	4733
2026-01-27 21:12:53.98	74.83	10.00	-46.3	-47.9	18.5	0.00e+00	0	43	0	563085312	63	4531
2026-01-27 21:12:54.95	75.01	9.99	-46.3	-47.9	18.4	0.00e+00	0	43	0	565182464	63	4542
2026-01-27 21:12:55.92	75.18	9.98	-46.4	-48.0	18.3	0.00e+00	0	43	0	567279616	63	4587
2026-01-27 21:12:56.88	75.35	9.96	-46.5	-48.2	18.2	0.00e+00	0	43	0	568328192	63	4697
2026-01-27 21:12:57.85	75.52	9.95	-46.6	-48.4	18.0	0.00e+00	0	43	0	570425344	63	4786
2026-01-27 21:12:58.82	75.69	9.93	-46.7	-48.6	17.8	0.00e+00	0	43	0	572522496	64	4617
2026-01-27 21:12:59.79	75.86	9.92	-46.8	-48.7	17.6	0.00e+00	0	43	0	573571072	64	4674
2026-01-27 21:13:00.76	76.03	9.90	-46.8	-48.7	17.6	0.00e+00	0	43	0	575668224	64	4686
2026-01-27 21:13:01.73	76.20	9.89	-46.7	-48.6	17.7	0.00e+00	0	43	0	577765376	64	4629
2026-01-27 21:13:02.70	76.37	9.87	-46.5	-48.2	18.1	0.00e+00	0	43	0	579862528	64	4431
2026-01-27 21:13:03.67	76.54	9.85	-46.3	-48.0	18.4	0.00e+00	0	43	0	580911104	64	4326
2026-01-27 21:13:04.63	76.70	9.84	-46.2	-47.9	18.4	0.00e+00	0	43	0	583008256	64	4243
2026-01-27 21:13:05.60	76.87	9.82	-46.1	-47.7	18.6	0.00e+00	0	43	0	585105408	64	4161
2026-01-27 21:13:06.57	77.04	9.81	-45.9	-47.5	18.9	0.00e+00	0	43	0	587202560	63	4323
2026-01-27 21:13:07.54	77.21	9.79	-45.9	-47.4	18.9	0.00e+00	0	43	0	588251136	63	4289
2026-01-27 21:13:08.51	77.38	9.77	-45.8	-47.3	19.0	0.00e+00	0	43	0	590348288	63	4233
2026-01-27 21:13:09.47	77.55	9.76	-45.8	-47.4	18.9	0.00e+00	0	43	0	592445440	63	4257
2026-01-27 21:13:10.44	77.72	9.74	-45.5	-46.9	19.3	0.00e+00	0	43	0	593494016	63	4051
2026-01-27 21:13:11.41	77.88	9.72	-45.4	-46.9	19.4	0.00e+00	0	43	0	595591168	62	4261
2026-01-27 21:13:12.38	78.05	9.70	-45.3	-46.7	19.6	0.00e+00	0	43	0	597688320	62	4165
2026-01-27 21:13:13.35	78.22	9.68	-45.0	-46.3	19.9	0.00e+00	0	43	0	599785472	61	4233
2026-01-27 21:13:14.32	78.39	9.67	-45.0	-46.3	19.9	0.00e+00	0	43	0	600834048	61	4224
2026-01-27 21:13:15.28	78.55	9.65	-45.1	-46.4	19.9	0.00e+00	0	43	0	602931200	61	4273
2026-01-27 21:13:16.26	78.72	9.63	-45.0	-46.3	19.9	0.00e+00	0	43	0	605028352	61	4219
2026-01-27 21:13:17.22	78.89	9.61	-44.9	-46.2	20.0	0.00e+00	0	43	0	607125504	61	4174
2026-01-27 21:13:18.19	79.05	9.59	-45.0	-46.4	19.9	0.00e+00	0	43	0	608174080	61	4256
2026-01-27 21:13:19.16	79.22	9.57	-45.2	-46.6	19.7	0.00e+00	0	43	0	610271232	61	4391
2026-01-27 21:13:20.13	79.39	9.55	-45.4	-46.8	19.5	0.00e+00	0	43	0	612368384	61	4493
2026-01-27 21:13:21.10	79.55	9.53	-45.5	-47.0	19.3	0.00e+00	0	43	0	614465536	61	4553
2026-01-27 21:13:22.07	79.72	9.51	-45.5	-47.0	19.3	0.00e+00	0	43	0	615514112	61	4586
2026-01-27 21:13:23.04	79.89	9.49	-45.4	-46.9	19.4	0.00e+00	0	43	0	617611264	61	4504
2026-01-27 21:13:24.01	80.05	9.47	-45.6	-47.1	19.2	0.00e+00	0	43	0	619708416	61	4612
2026-01-27 21:13:24.98	80.22	9.45	-45.6	-47.1	19.1	0.00e+00	0	43	0	620756992	62	4377
2026-01-27 21:13:25.95	80.38	9.43	-45.7	-47.2	19.1	0.00e+00	0	43	0	622854144	62	4401
2026-01-27 21:13:26.92	80.55	9.41	-45.7	-47.3	19.1	0.00e+00	0	43	0	624951296	62	4452
2026-01-27 21:13:27.89	80.71	9.39	-45.6	-47.1	19.2	0.00e+00	0	43	0	627048448	62	4342
2026-01-27 21:13:28.86	80.87	9.37	-45.7	-47.2	19.0	0.00e+00	0	43	0	628097024	62	4438
2026-01-27 21:13:29.84	81.04	9.35	-45.6	-47.1	19.2	0.00e+00	0	43	0	630194176	62	4346
2026-01-27 21:13:30.80	81.20	9.33	-45.7	-47.2	19.1	0.00e+00	0	43	0	632291328	62	4418
2026-01-27 21:13:31.77	81.37	9.31	-45.6	-47.0	19.2	0.00e+00	0	43	0	634388480	62	4339
2026-01-27 21:13:32.74	81.53	9.29	-45.7	-47.3	19.1	0.00e+00	0	43	0	635437056	62	4447
2026-01-27 21:13:33.71	81.69	9.26	-45.6	-47.2	19.1	0.00e+00	0	43	0	637534208	62	4393
2026-01-27 21:13:34.68	81.86	9.24	-45.9	-47.5	18.9	0.00e+00	0	43	0	639631360	62	4549
2026-01-27 21:13:35.64	82.02	9.22	-45.8	-47.3	19.0	0.00e+00	0	43	0	641728512	62	4470
2026-01-27 21:13:36.61	82.18	9.20	-45.8	-47.3	19.0	0.00e+00	0	43	0	642777088	62	4491
2026-01-27 21:13:37.58	82.34	9.17	-45.6	-47.1	19.1	0.00e+00	0	43	0	644874240	62	4386
2026-01-27 21:13:38.55	82.50	9.15	-45.4	-46.8	19.4	0.00e+00	0	43	0	646971392	62	4232
2026-01-27 21:13:39.51	82.66	9.13	-45.2	-46.6	19.5	0.00e+00	0	43	0	649068544	62	4121
2026-01-27 21:13:40.48	82.83	9.11	-45.1	-46.5	19.8	0.00e+00	0	43	0	650117120	62	4060
2026-01-27 21:13:41.45	82.99	9.08	-45.0	-46.4	19.8	0.00e+00	0	43	0	652214272	61	4283
2026-01-27 21:13:42.42	83.15	9.06	-45.1	-46.4	19.8	0.00e+00	0	43	0	654311424	61	4286
2026-01-27 21:13:43.39	83.31	9.03	-45.0	-46.4	19.8	0.00e+00	0	43	0	655360000	61	4262
2026-01-27 21:13:44.36	83.47	9.01	-45.2	-46.6	19.5	0.00e+00	0	43	0	657457152	61	4350
2026-01-27 21:13:45.33	83.63	8.99	-45.2	-46.6	19.6	0.00e+00	0	43	0	659554304	61	4375
2026-01-27 21:13:46.30	83.79	8.96	-45.4	-46.9	19.3	0.00e+00	0	43	0	661651456	61	4500
2026-01-27 21:13:47.27	83.95	8.94	-45.4	-46.9	19.3	0.00e+00	0	43	0	662700032	61	4513
2026-01-27 21:13:48.24	84.11	8.91	-45.6	-47.1	19.1	0.00e+00	0	43	0	664797184	61	4635
2026-01-27 21:13:49.21	84.27	8.89	-45.6	-47.1	19.2	0.00e+00	0	43	0	666894336	61	4612
2026-01-27 21:13:50.18	84.43	8.86	-45.6	-47.2	19.1	0.00e+00	0	43	0	667942912	61	4658
2026-01-27 21:13:51.15	84.59	8.84	-45.6	-47.2	19.0	0.00e+00	0	43	0	670040064	61	4659
2026-01-27 21:13:52.12	84.75	8.81	-45.5	-47.0	19.2	0.00e+00	0	43	0	672137216	61	4583
2026-01-27 21:13:53.09	84.90	8.79	-45.5	-47.0	19.2	0.00e+00	0	43	0	674234368	61	4596
2026-01-27 21:13:54.06	85.06	8.76	-45.6	-47.1	19.1	0.00e+00	0	43	0	675282944	61	4646
2026-01-27 21:13:55.03	85.22	8.74	-45.7	-47.3	18.9	0.00e+00	0	43	0	677380096	62	4463
2026-01-27 21:13:56.00	85.38	8.71	-46.1	-47.7	18.6	0.00e+00	0	43	0	679477248	62	4673
2026-01-27 21:13:56.97	85.53	8.69	-46.1	-47.7	18.6	0.00e+00	0	43	0	681574400	62	4681
2026-01-27 21:13:57.94	85.69	8.66	-46.4	-48.1	18.2	0.00e+00	0	43	0	682622976	63	4651
2026-01-27 21:13:58.91	85.85	8.63	-46.3	-48.0	18.1	0.00e+00	0	43	0	684720128	63	4588
2026-01-27 21:13:59.88	86.00	8.61	-46.5	-48.3	18.1	0.00e+00	0	43	0	686817280	63	4721
2026-01-27 21:14:00.84	86.16	8.58	-46.7	-48.5	17.6	0.00e+00	0	43	0	688914432	64	4586
2026-01-27 21:14:01.81	86.31	8.55	-46.7	-48.6	17.6	0.00e+00	0	43	0	689963008	64	4635
2026-01-27 21:14:02.78	86.47	8.53	-47.0	-49.0	17.2	0.00e+00	0	43	0	692060160	64	4819
2026-01-27 21:14:03.74	86.62	8.50	-46.9	-48.8	17.4	0.00e+00	0	43	0	694157312	64	4728
2026-01-27 21:14:04.71	86.78	8.47	-47.1	-49.1	17.2	0.00e+00	0	43	0	696254464	64	4912
2026-01-27 21:14:05.69	86.93	8.44	-46.9	-48.9	17.3	0.00e+00	0	43	0	697303040	64	4781
2026-01-27 21:14:06.65	87.09	8.42	-46.9	-48.9	17.3	0.00e+00	0	43	0	699400192	64	4769
2026-01-27 21:14:07.62	87.24	8.39	-47.0	-48.9	17.3	0.00e+00	0	43	0	701497344	64	4812
2026-01-27 21:14:08.59	87.40	8.36	-47.0	-49.0	17.3	0.00e+00	0	43	0	702545920	64	4851
2026-01-27 21:14:09.56	87.55	8.33	-47.0	-49.0	17.3	0.00e+00	0	43	0	704643072	64	4834
2026-01-27 21:14:10.54	87.70	8.30	-47.0	-49.0	17.2	0.00e+00	0	43	0	706740224	64	4848
2026-01-27 21:14:11.51	87.86	8.28	-47.1	-49.1	17.1	0.00e+00	0	43	0	708837376	64	4882
2026-01-27 21:14:12.47	88.01	8.25	-47.1	-49.1	17.0	0.00e+00	0	43	0	709885952	64	4891
2026-01-27 21:14:13.44	88.16	8.22	-47.2	-49.2	17.0	0.00e+00	0	43	0	711983104	65	4683
2026-01-27 21:14:14.41	88.31	8.19	-46.9	-48.9	17.3	0.00e+00	0	43	0	714080256	65	4501
2026-01-27 21:14:15.38	88.46	8.16	-46.9	-48.9	17.3	0.00e+00	0	43	0	716177408	65	4500
2026-01-27 21:14:16.35	88.62	8.13	-46.8	-48.8	17.4	0.00e+00	0	43	0	717225984	65	4443
2026-01-27 21:14:17.32	88.77	8.10	-46.9	-48.9	17.3	0.00e+00	0	43	0	719323136	65	4503
2026-01-27 21:14:18.29	88.92	8.07	-46.9	-48.9	17.2	0.00e+00	0	43	0	721420288	65	4515
2026-01-27 21:14:19.26	89.07	8.05	-47.0	-49.0	17.2	0.00e+00	0	43	0	723517440	65	4581
2026-01-27 21:14:20.23	89.22	8.02	-47.2	-49.2	17.0	0.00e+00	0	43	0	724566016	65	4696
2026-01-27 21:14:21.20	89.37	7.99	-47.1	-49.2	17.0	0.00e+00	0	43	0	726663168	65	4680
2026-01-27 21:14:22.17	89.52	7.96	-47.3	-49.4	16.8	0.00e+00	0	43	0	728760320	65	4774
2026-01-27 21:14:23.13	89.67	7.93	-47.3	-49.5	16.7	0.00e+00	0	43	0	729808896	65	4841
2026-01-27 21:14:24.10	89.82	7.90	-47.4	-49.5	16.6	0.00e+00	0	43	0	731906048	65	4852
2026-01-27 21:14:25.07	89.97	7.87	-47.4	-49.5	16.6	0.00e+00	0	43	0	734003200	65	4851
2026-01-27 21:14:26.03	90.11	7.84	-47.3	-49.5	16.7	0.00e+00	0	43	0	736100352	65	4824
2026-01-27 21:14:27.01	90.26	7.81	-47.4	-49.5	16.5	0.00e+00	0	43	0	737148928	65	4847
2026-01-27 21:14:27.98	90.41	7.78	-47.4	-49.5	16.6	0.00e+00	0	43	0	739246080	65	4815
2026-01-27 21:14:28.95	90.56	7.74	-47.5	-49.7	16.4	0.00e+00	0	43	0	741343232	65	4977
2026-01-27 21:14:29.92	90.71	7.71	-47.8	-50.1	16.1	0.00e+00	0	43	0	743440384	66	4910
2026-01-27 21:14:30.88	90.85	7.68	-48.1	-50.6	15.5	0.00e+00	0	43	0	744488960	66	5184
2026-01-27 21:14:31.85	91.00	7.65	-48.2	-50.8	15.4	0.00e+00	0	43	0	746586112	67	5008
2026-01-27 21:14:32.82	91.15	7.62	-48.4	-51.0	15.2	0.00e+00	0	43	0	748683264	67	5142
2026-01-27 21:14:33.78	91.29	7.59	-48.5	-51.3	14.9	0.00e+00	0	43	0	749731840	67	5320
2026-01-27 21:14:34.75	91.44	7.56	-48.4	-51.2	15.0	0.00e+00	0	43	0	751828992	67	5221
2026-01-27 21:14:35.72	91.58	7.53	-48.5	-51.3	14.9	0.00e+00	0	43	0	753926144	67	5290
2026-01-27 21:14:36.69	91.73	7.50	-48.4	-51.1	15.1	0.00e+00	0	43	0	756023296	67	5201
2026-01-27 21:14:37.66	91.87	7.46	-48.4	-51.1	15.1	0.00e+00	0	43	0	757071872	67	5177
2026-01-27 21:14:38.63	92.02	7.43	-48.2	-50.8	15.4	0.00e+00	0	43	0	759169024	67	4996
2026-01-27 21:14:39.60	92.16	7.40	-48.1	-50.6	15.6	0.00e+00	0	43	0	761266176	67	4889
2026-01-27 21:14:40.57	92.31	7.37	-48.1	-50.6	15.6	0.00e+00	0	43	0	763363328	67	4886
2026-01-27 21:14:41.54	92.45	7.34	-47.9	-50.4	15.7	0.00e+00	0	43	0	764411904	67	4780
2026-01-27 21:14:42.51	92.59	7.30	-47.9	-50.3	15.9	0.00e+00	0	43	0	766509056	67	4724
2026-01-27 21:14:43.48	92.74	7.27	-47.9	-50.3	15.7	0.00e+00	0	43	0	768606208	67	4756
2026-01-27 21:14:44.45	92.88	7.24	-47.9	-50.3	15.9	0.00e+00	0	43	0	770703360	67	4712
2026-01-27 21:14:45.42	93.02	7.21	-48.0	-50.4	15.7	0.00e+00	0	43	0	771751936	67	4796
2026-01-27 21:14:46.39	93.16	7.17	-47.9	-50.4	15.7	0.00e+00	0	43	0	773849088	67	4777
2026-01-27 21:14:47.36	93.31	7.14	-47.8	-50.2	15.8	0.00e+00	0	43	0	775946240	67	4705
2026-01-27 21:14:48.33	93.45	7.11	-47.8	-50.2	15.9	0.00e+00	0	43	0	778043392	67	4686
2026-01-27 21:14:49.30	93.59	7.07	-47.8	-50.3	15.9	0.00e+00	0	43	0	779091968	67	4714
2026-01-27 21:14:50.27	93.73	7.04	-47.9	-50.4	15.7	0.00e+00	0	43	0	781189120	67	4770
2026-01-27 21:14:51.24	93.87	7.01	-48.0	-50.5	15.5	0.00e+00	0	43	0	783286272	67	4866
2026-01-27 21:14:52.21	94.01	6.97	-48.1	-50.7	15.3	0.00e+00	0	43	0	785383424	67	4934
2026-01-27 21:14:53.18	94.15	6.94	-48.2	-50.9	15.1	0.00e+00	0	43	0	786432000	67	5055
2026-01-27 21:14:54.15	94.29	6.91	-48.1	-50.7	15.3	0.00e+00	0	43	0	788529152	67	4948
2026-01-27 21:14:55.12	94.43	6.87	-48.2	-50.8	15.3	0.00e+00	0	43	0	790626304	67	5011
2026-01-27 21:14:56.09	94.57	6.84	-48.1	-50.7	15.3	0.00e+00	0	43	0	791674880	67	4948
2026-01-27 21:14:57.06	94.71	6.81	-48.2	-50.8	15.3	0.00e+00	0	43	0	793772032	67	4993
2026-01-27 21:14:58.02	94.85	6.77	-48.1	-50.8	15.2	0.00e+00	0	43	0	795869184	67	4984
2026-01-27 21:14:58.99	94.98	6.74	-47.9	-50.4	15.6	0.00e+00	0	43	0	796917760	67	4800
2026-01-27 21:14:59.96	95.12	6.70	-48.1	-50.6	15.3	0.00e+00	0	43	0	799014912	67	4924
2026-01-27 21:15:00.93	95.26	6.67	-47.8	-50.3	15.7	0.00e+00	0	43	0	801112064	67	4730
2026-01-27 21:15:01.90	95.40	6.63	-47.8	-50.3	15.7	0.00e+00	0	43	0	803209216	67	4711
2026-01-27 21:15:02.87	95.53	6.60	-47.8	-50.2	15.8	0.00e+00	0	43	0	804257792	67	4694
2026-01-27 21:15:03.84	95.67	6.57	-47.7	-50.1	15.8	0.00e+00	0	43	0	806354944	67	4628
2026-01-27 21:15:04.81	95.81	6.53	-47.6	-49.9	16.1	0.00e+00	0	43	0	808452096	67	4522
2026-01-27 21:15:05.77	95.94	6.50	-47.6	-49.9	16.0	0.00e+00	0	43	0	810549248	67	4525
2026-01-27 21:15:06.74	96.08	6.46	-47.6	-49.9	16.0	0.00e+00	0	43	0	811597824	67	4543
2026-01-27 21:15:07.71	96.21	6.43	-47.7	-50.1	15.9	0.00e+00	0	43	0	813694976	67	4647
2026-01-27 21:15:08.68	96.35	6.39	-47.7	-50.1	15.8	0.00e+00	0	43	0	815792128	67	4639
2026-01-27 21:15:09.65	96.48	6.36	-47.8	-50.2	15.7	0.00e+00	0	43	0	817889280	67	4674
2026-01-27 21:15:10.62	96.62	6.32	-47.8	-50.3	15.7	0.00e+00	0	43	0	818937856	67	4707
2026-01-27 21:15:11.59	96.75	6.29	-47.6	-49.9	16.1	0.00e+00	0	43	0	821035008	67	4514
2026-01-27 21:15:12.56	96.89	6.25	-47.4	-49.7	16.2	0.00e+00	0	43	0	823132160	66	4695
2026-01-27 21:15:13.53	97.02	6.22	-47.5	-49.8	16.1	0.00e+00	0	43	0	825229312	66	4747
2026-01-27 21:15:14.50	97.15	6.18	-47.6	-49.9	16.0	0.00e+00	0	43	0	826277888	66	4805
2026-01-27 21:15:15.47	97.29	6.15	-47.5	-49.8	16.1	0.00e+00	0	43	0	828375040	66	4735
2026-01-27 21:15:16.44	97.42	6.11	-47.5	-49.9	16.1	0.00e+00	0	43	0	830472192	66	4764
2026-01-27 21:15:17.41	97.55	6.07	-47.3	-49.6	16.3	0.00e+00	0	43	0	832569344	66	4603
2026-01-27 21:15:18.38	97.68	6.04	-47.3	-49.5	16.4	0.00e+00	0	43	0	833617920	66	4552
2026-01-27 21:15:19.35	97.82	6.00	-47.4	-49.6	16.2	0.00e+00	0	43	0	835715072	66	4631
2026-01-27 21:15:20.32	97.95	5.97	-47.3	-49.6	16.3	0.00e+00	0	43	0	837812224	66	4613
2026-01-27 21:15:21.28	98.08	5.93	-47.4	-49.7	16.1	0.00e+00	0	43	0	838860800	66	4659
2026-01-27 21:15:22.25	98.21	5.89	-47.4	-49.7	16.3	0.00e+00	0	43	0	840957952	66	4652
2026-01-27 21:15:23.22	98.34	5.86	-47.3	-49.5	16.3	0.00e+00	0	43	0	843055104	66	4592
2026-01-27 21:15:24.19	98.47	5.82	-47.4	-49.6	16.2	0.00e+00	0	43	0	845152256	66	4649
2026-01-27 21:15:25.16	98.60	5.79	-47.4	-49.8	16.2	0.00e+00	0	43	0	846200832	66	4710
2026-01-27 21:15:26.13	98.73	5.75	-47.4	-49.7	16.1	0.00e+00	0	43	0	848297984	66	4702
2026-01-27 21:15:27.11	98.86	5.71	-47.3	-49.5	16.3	0.00e+00	0	43	0	850395136	66	4589
2026-01-27 21:15:28.09	98.99	5.68	-47.4	-49.7	16.1	0.00e+00	0	43	0	852492288	66	4694
2026-01-27 21:15:29.07	99.12	5.64	-47.4	-49.7	16.1	0.00e+00	0	43	0	853540864	66	4667
2026-01-27 21:15:30.04	99.25	5.60	-47.4	-49.7	16.1	0.00e+00	0	43	0	855638016	66	4704
2026-01-27 21:15:31.01	99.38	5.57	-47.4	-49.8	16.0	0.00e+00	0	43	0	857735168	66	4729
2026-01-27 21:15:31.98	99.50	5.53	-47.4	-49.8	16.0	0.00e+00	0	43	0	859832320	66	4728
2026-01-27 21:15:32.95	99.63	5.49	-47.7	-50.1	15.7	0.00e+00	0	43	0	860880896	66	4919
2026-01-27 21:15:33.93	99.76	5.45	-47.7	-50.1	15.7	0.00e+00	0	43	0	862978048	66	4924
2026-01-27 21:15:34.90	99.89	5.42	-47.7	-50.2	15.6	0.00e+00	0	43	0	865075200	66	4975
2026-01-27 21:15:35.87	100.01	5.38	-47.6	-50.1	15.7	0.00e+00	0	43	0	866123776	66	4902
2026-01-27 21:15:36.85	100.14	5.34	-47.4	-49.7	16.1	0.00e+00	0	43	0	868220928	66	4681
2026-01-27 21:15:37.83	100.27	5.31	-47.6	-50.0	15.8	0.00e+00	0	43	0	870318080	66	4847
2026-01-27 21:15:38.80	100.39	5.27	-47.3	-49.6	16.1	0.00e+00	0	43	0	872415232	66	4645
2026-01-27 21:15:39.77	100.52	5.23	-47.0	-49.2	16.6	0.00e+00	0	43	0	873463808	66	4404
2026-01-27 21:15:40.74	100.64	5.19	-47.0	-49.1	16.6	0.00e+00	0	43	0	875560960	65	4642
2026-01-27 21:15:41.72	100.77	5.16	-47.1	-49.3	16.5	0.00e+00	0	43	0	877658112	65	4711
2026-01-27 21:15:42.69	100.89	5.12	-46.8	-48.9	16.8	0.00e+00	0	43	0	879755264	65	4505
2026-01-27 21:15:43.66	101.02	5.08	-46.7	-48.7	17.0	0.00e+00	0	43	0	880803840	65	4413
2026-01-27 21:15:44.64	101.14	5.04	-46.8	-48.9	16.7	0.00e+00	0	43	0	882900992	65	4542
2026-01-27 21:15:45.61	101.27	5.00	-49.0	-52.3	13.9	0.00e+00	0	43	0	884998144	68	5645
2026-01-27 21:15:46.59	101.39	4.97	-52.3	-67.1	3.8	1.18e+00	0	43	104	886046720	75	20554
2026-01-27 21:15:47.56	101.51	4.93	-52.6	-67.6	3.8	1.49e+00	0	43	104	886046720	75	21784
2026-01-27 21:15:48.53	101.63	4.89	-52.8	-67.7	3.8	1.49e+00	0	43	104	886046720	76	21016
2026-01-27 21:15:49.50	101.76	4.85	-53.0	-68.0	3.8	1.49e+00	0	43	104	886046720	76	21543
2026-01-27 21:15:50.48	101.88	4.81	-53.1	-68.1	3.8	1.49e+00	0	43	104	886046720	76	21844
2026-01-27 21:15:51.45	102.00	4.78	-53.3	-68.2	3.8	1.49e+00	0	43	104	886046720	77	20990
2026-01-27 21:15:52.42	102.12	4.74	-53.4	-68.4	3.8	1.49e+00	0	43	104	886046720	77	21279
2026-01-27 21:15:53.39	102.24	4.70	-53.5	-68.5	3.8	1.49e+00	0	43	104	886046720	77	21628
2026-01-27 21:15:54.36	102.36	4.66	-53.6	-68.6	3.8	1.49e+00	0	43	104	886046720	77	21897
2026-01-27 21:15:55.33	102.49	4.62	-53.7	-68.7	3.8	1.49e+00	0	43	104	886046720	77	22080
2026-01-27 21:15:56.30	102.61	4.59	-53.8	-68.7	3.8	1.49e+00	0	43	104	886046720	78	20971
2026-01-27 21:15:57.28	102.73	4.55	-53.8	-68.8	3.8	1.49e+00	0	43	104	886046720	78	21034
2026-01-27 21:15:58.25	102.85	4.51	-53.9	-68.8	3.8	1.49e+00	0	43	104	886046720	78	21242
2026-01-27 21:15:59.22	102.96	4.47	-53.9	-68.9	3.8	1.49e+00	0	43	104	886046720	78	21309
2026-01-27 21:16:00.19	103.08	4.43	-53.9	-68.9	3.8	1.49e+00	0	43	104	886046720	78	21393
2026-01-27 21:16:01.16	103.20	4.39	-54.0	-68.9	3.8	1.49e+00	0	43	104	886046720	78	21503
2026-01-27 21:16:02.14	103.32	4.36	-54.0	-69.0	3.8	1.49e+00	0	43	104	886046720	78	21649
2026-01-27 21:16:03.11	103.44	4.32	-54.1	-69.1	3.8	1.49e+00	0	43	104	886046720	78	21762
2026-01-27 21:16:04.08	103.56	4.28	-54.1	-69.1	3.8	1.49e+00	0	43	104	886046720	78	21816
2026-01-27 21:16:05.05	103.67	4.24	-54.1	-69.1	3.8	1.49e+00	0	43	104	886046720	78	21923
2026-01-27 21:16:06.03	103.79	4.20	-54.1	-69.1	3.8	1.49e+00	0	43	104	886046720	78	21978
2026-01-27 21:16:07.00	103.91	4.16	-54.2	-69.1	3.8	1.49e+00	0	43	104	886046720	78	21984
2026-01-27 21:16:07.97	104.03	4.12	-54.2	-69.1	3.8	1.49e+00	0	43	104	886046720	78	21993
2026-01-27 21:16:08.95	104.14	4.08	-54.2	-69.2	3.8	1.49e+00	0	43	104	886046720	78	22032
2026-01-27 21:16:09.91	104.26	4.05	-54.2	-69.2	3.8	1.49e+00	0	43	104	886046720	78	22065
2026-01-27 21:16:10.88	104.37	4.01	-54.2	-69.2	3.8	1.49e+00	0	43	104	886046720	78	22050
2026-01-27 21:16:11.86	104.49	3.97	-54.2	-69.2	3.8	1.49e+00	0	43	104	886046720	78	22133
2026-01-27 21:16:12.84	104.61	3.93	-54.2	-69.2	3.8	1.49e+00	0	43	104	886046720	79	20895
2026-01-27 21:16:13.81	104.72	3.89	-54.3	-69.2	3.8	1.49e+00	0	43	104	886046720	79	20991
2026-01-27 21:16:14.78	104.84	3.85	-54.3	-69.2	3.8	1.49e+00	0	43	104	886046720	79	21017
2026-01-27 21:16:15.75	104.95	3.81	-54.3	-69.3	3.8	1.49e+00	0	43	104	886046720	79	21044
2026-01-27 21:16:16.72	105.06	3.77	-54.3	-69.3	3.8	1.49e+00	0	43	104	886046720	79	21138
2026-01-27 21:16:17.69	105.18	3.73	-54.3	-69.3	3.8	1.49e+00	0	43	104	886046720	79	21155
2026-01-27 21:16:18.66	105.29	3.69	-54.3	-69.3	3.8	1.49e+00	0	43	104	886046720	79	21196
2026-01-27 21:16:19.63	105.40	3.65	-54.4	-69.4	3.8	1.49e+00	0	43	104	886046720	79	21300
2026-01-27 21:16:20.61	105.52	3.61	-54.4	-69.4	3.8	1.49e+00	0	43	104	886046720	79	21339
2026-01-27 21:16:21.58	105.63	3.58	-54.4	-69.4	3.8	1.49e+00	0	43	104	886046720	79	21307
2026-01-27 21:16:22.55	105.74	3.54	-54.4	-69.4	3.8	1.49e+00	0	43	104	886046720	79	21313
2026-01-27 21:16:23.52	105.85	3.50	-54.4	-69.4	3.8	1.49e+00	0	43	104	886046720	79	21287
2026-01-27 21:16:24.50	105.97	3.46	-54.4	-69.3	3.8	1.49e+00	0	43	104	886046720	79	21217
2026-01-27 21:16:25.46	106.08	3.42	-54.3	-69.3	3.8	1.49e+00	0	43	104	886046720	79	21183
2026-01-27 21:16:26.43	106.19	3.38	-54.3	-69.3	3.8	1.49e+00	0	43	104	886046720	79	21128
2026-01-27 21:16:27.40	106.30	3.34	-54.3	-69.3	3.8	1.49e+00	0	43	104	886046720	79	21210
2026-01-27 21:16:28.38	106.41	3.30	-54.3	-69.3	3.8	1.49e+00	0	43	104	886046720	79	21069
2026-01-27 21:16:29.35	106.52	3.26	-54.2	-69.2	3.8	1.49e+00	0	43	104	886046720	79	20964
2026-01-27 21:16:30.32	106.63	3.22	-54.2	-69.2	3.8	1.49e+00	0	43	104	886046720	79	20875
2026-01-27 21:16:31.28	106.74	3.18	-54.2	-69.1	3.8	1.49e+00	0	43	104	886046720	79	20766
2026-01-27 21:16:32.26	106.85	3.14	-54.1	-69.1	3.8	1.49e+00	0	43	104	886046720	79	20720
2026-01-27 21:16:33.23	106.96	3.10	-54.1	-69.0	3.8	1.49e+00	0	43	104	886046720	79	20502
2026-01-27 21:16:34.21	107.07	3.06	-54.0	-69.0	3.8	1.49e+00	0	43	104	886046720	79	20374
2026-01-27 21:16:35.18	107.18	3.02	-54.0	-69.0	3.8	1.49e+00	0	43	104	886046720	79	20371
2026-01-27 21:16:36.16	107.29	2.98	-54.0	-68.9	3.8	1.49e+00	0	43	104	886046720	79	20224
2026-01-27 21:16:37.13	107.39	2.94	-53.9	-68.9	3.8	1.49e+00	0	43	104	886046720	79	20191
2026-01-27 21:16:38.10	107.50	2.90	-53.9	-68.8	3.8	1.49e+00	0	43	104	886046720	79	20033
2026-01-27 21:16:39.07	107.61	2.86	-53.7	-68.7	3.8	1.49e+00	0	43	104	886046720	79	19782
2026-01-27 21:16:40.04	107.72	2.82	-53.6	-68.6	3.8	1.49e+00	0	43	104	886046720	79	19486
2026-01-27 21:16:41.01	107.82	2.78	-53.5	-68.4	3.8	1.49e+00	0	43	104	886046720	79	19156
2026-01-27 21:16:41.98	107.93	2.74	-53.3	-68.3	3.8	1.49e+00	0	43	104	886046720	78	19955
2026-01-27 21:16:42.96	108.04	2.70	-53.2	-68.2	3.8	1.49e+00	0	43	104	886046720	78	19627
2026-01-27 21:16:43.93	108.14	2.66	-53.2	-68.2	3.8	1.49e+00	0	43	104	886046720	78	19615
2026-01-27 21:16:44.90	108.25	2.62	-53.2	-68.1	3.8	1.49e+00	0	43	104	886046720	78	19509
2026-01-27 21:16:45.87	108.35	2.58	-53.2	-68.1	3.8	1.49e+00	0	43	104	886046720	78	19590
2026-01-27 21:16:46.84	108.46	2.54	-53.1	-68.1	3.8	1.49e+00	0	43	104	886046720	78	19489
2026-01-27 21:16:47.81	108.56	2.50	-53.1	-68.1	3.8	1.49e+00	0	43	104	886046720	78	19454
2026-01-27 21:16:48.78	108.67	2.46	-53.1	-68.1	3.8	1.49e+00	0	43	104	886046720	78	19468
2026-01-27 21:16:49.75	108.77	2.42	-53.1	-68.1	3.8	1.49e+00	0	43	104	886046720	78	19470
2026-01-27 21:16:50.72	108.88	2.38	-53.1	-68.1	3.8	1.49e+00	0	43	104	886046720	78	19441
2026-01-27 21:16:51.69	108.98	2.34	-53.1	-68.1	3.8	1.49e+00	0	43	104	886046720	78	19415
2026-01-27 21:16:52.66	109.08	2.30	-53.1	-68.1	3.8	1.49e+00	0	44	104	886046720	78	19400
2026-01-27 21:16:53.63	109.19	2.26	-53.1	-68.0	3.8	1.49e+00	0	43	104	886046720	78	19384
2026-01-27 21:16:54.61	109.29	2.22	-53.1	-68.1	3.8	1.49e+00	0	43	104	886046720	78	19411
2026-01-27 21:16:55.58	109.39	2.18	-53.1	-68.0	3.8	1.49e+00	0	43	104	886046720	78	19335
2026-01-27 21:16:56.54	109.50	2.14	-53.1	-68.1	3.8	1.49e+00	0	43	104	886046720	78	19396
2026-01-27 21:16:57.52	109.60	2.10	-53.1	-68.0	3.8	1.49e+00	0	43	104	886046720	78	19336
2026-01-27 21:16:58.49	109.70	2.06	-53.1	-68.0	3.8	1.49e+00	0	44	104	886046720	78	19358
2026-01-27 21:16:59.47	109.80	2.02	-53.1	-68.0	3.8	1.49e+00	0	43	104	886046720	78	19384

#Closed at: 2026-01-27 21:17:00
#Recorded file [886 MB]: D:/lorett/data/31041_260128_000649.dat