passes_logs/2026/01/27/R3.2S_Murmansk/R3.2S_Murmansk__20260127_004638_SUOMI_NPP_rec.log

#Pass ID: 20260127_004638_SUOMI NPP
#Satellite: SUOMI NPP
#Configuration: NPP
#almurnet v.1.7.20251203
#Start time: 2026-01-27 00:46:40

#Version: 2.2.20231116
#Station: R3.2S_Murmansk
#Location: 33.079688 lon 68.888172 lat
#TLE: 1 37849U 11061A   26026.52266023  .00000173  00000+0  10323-3 0  9994
#TLE: 2 37849  98.7822 328.4727 0002140  43.9411 316.1934 14.19530258738341

#Time	Az	El	Level	Level2	SNR	BER	BlckErr	Temp	State	Recorded	gain1	gain2
2026-01-27 00:46:40.47	24.60	2.14	-54.1	-69.1	3.8	1.49e+00	0	41	0	0	79	20679
2026-01-27 00:46:41.47	24.61	2.21	-54.3	-69.3	3.8	1.49e+00	0	41	104	0	79	21106
2026-01-27 00:46:42.48	24.61	2.27	-54.3	-69.3	3.8	1.49e+00	0	41	104	0	79	21152
2026-01-27 00:46:43.48	24.61	2.34	-54.3	-69.3	3.8	1.49e+00	0	41	104	0	79	21111
2026-01-27 00:46:44.49	24.62	2.40	-54.3	-69.3	3.8	1.49e+00	0	41	104	0	79	21108
2026-01-27 00:46:45.50	24.62	2.47	-54.3	-69.3	3.8	1.49e+00	0	41	104	0	79	21026
2026-01-27 00:46:46.51	24.62	2.53	-54.3	-69.2	3.8	1.49e+00	0	41	104	0	79	20970
2026-01-27 00:46:47.51	24.63	2.60	-54.2	-69.2	3.8	1.49e+00	0	41	104	0	79	20948
2026-01-27 00:46:48.52	24.63	2.66	-54.2	-69.2	3.8	1.49e+00	0	41	104	0	79	20823
2026-01-27 00:46:49.53	24.63	2.73	-54.2	-69.1	3.8	1.49e+00	0	41	104	0	79	20770
2026-01-27 00:46:50.53	24.64	2.80	-54.1	-69.1	3.8	1.49e+00	0	41	104	0	79	20700
2026-01-27 00:46:51.54	24.64	2.86	-54.1	-69.1	3.8	1.49e+00	0	41	104	0	79	20668
2026-01-27 00:46:52.56	24.64	2.93	-54.1	-69.0	3.8	1.49e+00	0	41	104	0	79	20521
2026-01-27 00:46:53.56	24.65	2.99	-54.0	-69.0	3.8	1.49e+00	0	41	104	0	79	20383
2026-01-27 00:46:54.57	24.65	3.06	-53.9	-68.9	3.8	1.49e+00	0	41	104	0	79	20210
2026-01-27 00:46:55.57	24.65	3.13	-53.9	-68.8	3.8	1.49e+00	0	41	104	0	79	20021
2026-01-27 00:46:56.58	24.66	3.20	-53.8	-68.7	3.8	1.49e+00	0	41	104	0	79	19780
2026-01-27 00:46:57.59	24.66	3.26	-53.7	-68.6	3.8	1.49e+00	0	41	104	0	79	19576
2026-01-27 00:46:58.60	24.67	3.33	-53.5	-68.5	3.8	1.49e+00	0	41	104	0	79	19294
2026-01-27 00:46:59.61	24.67	3.40	-53.4	-68.3	3.8	1.49e+00	0	41	104	0	78	19971
2026-01-27 00:47:00.62	24.67	3.47	-53.1	-68.0	3.8	1.49e+00	0	41	104	0	78	19364
2026-01-27 00:47:01.63	24.68	3.53	-52.6	-67.6	3.8	1.49e+00	0	42	104	0	77	19543
2026-01-27 00:47:02.64	24.68	3.60	-52.1	-64.4	3.9	1.49e+00	0	41	104	0	76	14287
2026-01-27 00:47:03.65	24.68	3.67	-52.0	-63.0	4.3	1.43e+00	10	42	0	0	76	12202
2026-01-27 00:47:04.66	24.69	3.74	-51.8	-61.7	4.9	1.03e+00	0	42	0	1048576	75	11126
2026-01-27 00:47:05.66	24.69	3.81	-51.6	-60.3	5.8	5.50e-01	0	42	0	3145728	75	9430
2026-01-27 00:47:06.67	24.69	3.88	-51.4	-59.1	6.7	2.30e-01	0	42	0	5242880	74	8739
2026-01-27 00:47:07.68	24.70	3.94	-51.1	-57.8	8.0	1.50e-01	0	42	0	7340032	74	7461
2026-01-27 00:47:08.69	24.70	4.01	-50.8	-56.6	9.2	2.93e-02	0	42	0	9437184	73	6930
2026-01-27 00:47:09.70	24.70	4.08	-50.6	-55.9	9.9	1.13e-02	0	42	0	10485760	73	6370
2026-01-27 00:47:10.70	24.71	4.15	-50.2	-54.8	11.1	3.39e-03	0	42	0	12582912	72	5971
2026-01-27 00:47:11.72	24.71	4.22	-49.9	-54.0	12.0	8.66e-04	0	42	0	14680064	71	5741
2026-01-27 00:47:12.72	24.71	4.29	-49.7	-53.6	12.4	1.49e-04	0	42	0	16777216	71	5515
2026-01-27 00:47:13.73	24.72	4.36	-49.5	-53.2	12.9	8.01e-05	0	42	0	18874368	71	5222
2026-01-27 00:47:14.74	24.72	4.43	-49.3	-52.7	13.4	1.75e-05	0	42	0	19922944	70	5243
2026-01-27 00:47:15.75	24.72	4.50	-49.2	-52.6	13.5	1.67e-05	0	42	0	22020096	70	5160
2026-01-27 00:47:16.76	24.73	4.57	-49.4	-52.9	13.1	1.75e-05	0	42	0	24117248	70	5372
2026-01-27 00:47:17.77	24.73	4.64	-49.6	-53.3	12.8	1.98e-05	0	42	0	26214400	70	5603
2026-01-27 00:47:18.77	24.73	4.71	-49.5	-53.1	12.9	5.72e-05	0	42	0	28311552	70	5476
2026-01-27 00:47:19.77	24.74	4.78	-49.6	-53.4	12.6	8.23e-05	0	42	0	29360128	70	5705
2026-01-27 00:47:20.77	24.74	4.85	-50.2	-54.7	11.2	2.55e-04	0	42	0	31457280	70	6644
2026-01-27 00:47:21.78	24.74	4.93	-50.4	-55.3	10.7	2.19e-03	0	42	0	33554432	71	6666
2026-01-27 00:47:22.79	24.75	5.00	-50.7	-56.4	9.4	7.58e-03	0	42	0	35651584	72	7190
2026-01-27 00:47:23.80	24.75	5.07	-48.9	-51.8	14.4	8.24e-03	0	42	0	37748736	69	5012
2026-01-27 00:47:24.81	24.75	5.14	-49.0	-52.1	14.1	0.00e+00	0	42	0	38797312	69	5203
2026-01-27 00:47:25.81	24.76	5.21	-52.0	-65.6	3.9	6.16e-02	0	42	0	40894464	74	18354
2026-01-27 00:47:26.82	24.76	5.29	-49.1	-52.3	13.4	1.48e+00	0	42	104	40894464	70	5004
2026-01-27 00:47:27.83	24.76	5.36	-51.0	-56.8	9.4	0.00e+00	0	42	0	41943040	72	7542
2026-01-27 00:47:28.84	24.77	5.43	-48.8	-51.6	14.5	5.67e-03	0	42	0	44040192	69	4920
2026-01-27 00:47:29.84	24.77	5.50	-48.7	-51.5	14.7	7.00e-07	0	42	0	46137344	69	4833
2026-01-27 00:47:30.85	24.77	5.58	-48.7	-51.5	14.7	7.00e-07	0	42	0	47185920	69	4820
2026-01-27 00:47:31.86	24.78	5.65	-48.8	-51.6	14.6	0.00e+00	0	42	0	49283072	69	4909
2026-01-27 00:47:32.87	24.78	5.73	-48.6	-51.3	14.9	0.00e+00	0	42	0	51380224	69	4750
2026-01-27 00:47:33.88	24.78	5.80	-48.7	-51.5	14.8	0.00e+00	0	42	0	53477376	69	4820
2026-01-27 00:47:34.88	24.79	5.87	-48.6	-51.3	14.9	7.00e-07	0	42	0	55574528	68	5025
2026-01-27 00:47:35.89	24.79	5.95	-48.6	-51.3	15.0	0.00e+00	0	42	0	56623104	68	4993
2026-01-27 00:47:36.89	24.79	6.02	-48.8	-51.6	14.6	0.00e+00	0	42	0	58720256	68	5199
2026-01-27 00:47:37.90	24.80	6.10	-48.6	-51.3	14.9	0.00e+00	0	42	0	60817408	68	5019
2026-01-27 00:47:38.91	24.80	6.17	-48.9	-51.9	14.5	0.00e+00	0	42	0	62914560	68	5372
2026-01-27 00:47:39.92	24.80	6.25	-48.4	-51.0	15.3	0.00e+00	0	42	0	65011712	68	4863
2026-01-27 00:47:40.92	24.81	6.32	-48.6	-51.2	15.1	7.00e-07	0	42	0	66060288	68	4965
2026-01-27 00:47:41.93	24.81	6.40	-48.8	-51.7	14.7	0.00e+00	0	42	0	68157440	68	5231
2026-01-27 00:47:42.93	24.81	6.47	-48.4	-51.0	15.4	0.00e+00	0	42	0	70254592	68	4826
2026-01-27 00:47:43.94	24.82	6.55	-48.6	-51.2	15.2	0.00e+00	0	42	0	72351744	68	4956
2026-01-27 00:47:44.95	24.82	6.62	-48.2	-50.7	15.7	0.00e+00	0	42	0	74448896	68	4683
2026-01-27 00:47:45.96	24.82	6.70	-48.6	-51.3	15.1	0.00e+00	0	42	0	75497472	68	5004
2026-01-27 00:47:46.97	24.83	6.78	-48.8	-51.6	14.8	0.00e+00	0	42	0	77594624	68	5190
2026-01-27 00:47:47.97	24.83	6.85	-48.8	-51.6	14.8	0.00e+00	0	42	0	79691776	68	5189
2026-01-27 00:47:48.98	24.83	6.93	-49.3	-52.5	13.9	7.00e-07	0	42	0	81788928	69	5444
2026-01-27 00:47:49.99	24.83	7.01	-48.9	-51.8	14.6	2.20e-06	0	42	0	83886080	69	5028
2026-01-27 00:47:51.00	24.84	7.09	-49.2	-52.3	14.1	2.20e-06	0	42	0	84934656	69	5329
2026-01-27 00:47:52.01	24.84	7.16	-49.0	-52.0	14.5	3.00e-06	0	42	0	87031808	69	5104
2026-01-27 00:47:53.01	24.84	7.24	-48.9	-51.7	14.7	0.00e+00	0	42	0	89128960	69	4969
2026-01-27 00:47:54.02	24.85	7.32	-48.4	-50.9	15.6	0.00e+00	0	42	0	91226112	68	4796
2026-01-27 00:47:55.02	24.85	7.40	-48.6	-51.2	15.4	0.00e+00	0	42	0	93323264	68	4929
2026-01-27 00:47:56.03	24.85	7.48	-48.5	-51.0	15.5	0.00e+00	0	42	0	94371840	68	4867
2026-01-27 00:47:57.04	24.86	7.56	-48.3	-50.6	15.9	0.00e+00	0	42	0	96468992	68	4643
2026-01-27 00:47:58.05	24.86	7.64	-48.3	-50.8	15.8	0.00e+00	0	42	0	98566144	68	4727
2026-01-27 00:47:59.05	24.86	7.71	-48.5	-51.0	15.5	0.00e+00	0	42	0	100663296	68	4866
2026-01-27 00:48:00.06	24.87	7.79	-48.4	-50.9	15.6	0.00e+00	0	42	0	102760448	68	4795
2026-01-27 00:48:01.05	24.87	7.87	-48.6	-51.2	15.4	0.00e+00	0	42	0	103809024	68	4967
2026-01-27 00:48:02.06	24.87	7.95	-48.2	-50.6	16.0	0.00e+00	0	42	0	105906176	68	4610
2026-01-27 00:48:03.07	24.88	8.03	-48.4	-50.8	15.7	0.00e+00	0	42	0	108003328	68	4744
2026-01-27 00:48:04.07	24.88	8.11	-48.3	-50.7	15.9	0.00e+00	0	42	0	110100480	68	4685
2026-01-27 00:48:05.08	24.88	8.20	-48.3	-50.6	16.0	0.00e+00	0	42	0	112197632	68	4650
2026-01-27 00:48:06.09	24.88	8.28	-48.4	-50.8	15.8	0.00e+00	0	42	0	113246208	68	4738
2026-01-27 00:48:07.10	24.89	8.36	-48.4	-50.8	15.8	0.00e+00	0	42	0	115343360	68	4725
2026-01-27 00:48:08.10	24.89	8.44	-48.5	-51.0	15.7	0.00e+00	0	42	0	117440512	68	4820
2026-01-27 00:48:09.11	24.89	8.52	-48.3	-50.7	15.9	0.00e+00	0	42	0	119537664	68	4702
2026-01-27 00:48:10.12	24.90	8.60	-48.0	-50.3	16.3	0.00e+00	0	42	0	121634816	68	4461
2026-01-27 00:48:11.13	24.90	8.69	-48.0	-50.3	16.2	0.00e+00	0	42	0	122683392	67	4735
2026-01-27 00:48:12.14	24.90	8.77	-48.2	-50.5	16.1	0.00e+00	0	42	0	124780544	67	4839
2026-01-27 00:48:13.15	24.91	8.85	-48.1	-50.4	16.2	0.00e+00	0	42	0	126877696	67	4799
2026-01-27 00:48:14.16	24.91	8.94	-47.8	-50.0	16.6	0.00e+00	0	42	0	128974848	67	4577
2026-01-27 00:48:15.16	24.91	9.02	-48.0	-50.3	16.3	0.00e+00	0	43	0	131072000	67	4722
2026-01-27 00:48:16.17	24.91	9.10	-47.9	-50.1	16.5	0.00e+00	0	42	0	133169152	67	4611
2026-01-27 00:48:17.18	24.92	9.19	-47.9	-50.1	16.5	0.00e+00	0	43	0	134217728	67	4630
2026-01-27 00:48:18.19	24.92	9.27	-48.0	-50.2	16.4	0.00e+00	0	42	0	136314880	67	4674
2026-01-27 00:48:19.19	24.92	9.36	-48.1	-50.3	16.3	0.00e+00	0	42	0	138412032	67	4742
2026-01-27 00:48:20.20	24.93	9.44	-48.1	-50.3	16.3	0.00e+00	0	43	0	140509184	67	4729
2026-01-27 00:48:21.21	24.93	9.53	-47.8	-49.9	16.6	0.00e+00	0	42	0	141557760	67	4538
2026-01-27 00:48:22.22	24.93	9.62	-47.8	-49.9	16.7	0.00e+00	0	42	0	143654912	67	4523
2026-01-27 00:48:23.23	24.94	9.70	-47.9	-50.1	16.6	0.00e+00	0	43	0	145752064	67	4612
2026-01-27 00:48:24.24	24.94	9.79	-47.8	-49.9	16.7	0.00e+00	0	42	0	147849216	67	4503
2026-01-27 00:48:25.25	24.94	9.87	-47.7	-49.8	16.8	0.00e+00	0	42	0	149946368	67	4483
2026-01-27 00:48:26.26	24.94	9.96	-47.6	-49.6	17.0	0.00e+00	0	43	0	150994944	67	4391
2026-01-27 00:48:27.27	24.95	10.05	-47.6	-49.6	17.0	0.00e+00	0	43	0	153092096	67	4391
2026-01-27 00:48:28.28	24.95	10.14	-47.6	-49.6	17.0	0.00e+00	0	43	0	155189248	67	4390
2026-01-27 00:48:29.29	24.95	10.23	-47.7	-49.8	16.9	0.00e+00	0	43	0	157286400	67	4465
2026-01-27 00:48:30.30	24.96	10.31	-47.6	-49.7	17.0	0.00e+00	0	43	0	159383552	67	4417
2026-01-27 00:48:31.31	24.96	10.40	-47.5	-49.5	17.2	0.00e+00	0	43	0	161480704	67	4317
2026-01-27 00:48:32.32	24.96	10.49	-47.7	-49.7	17.0	0.00e+00	0	43	0	162529280	66	4690
2026-01-27 00:48:33.32	24.96	10.58	-47.6	-49.6	17.1	0.00e+00	0	42	0	164626432	66	4605
2026-01-27 00:48:34.33	24.97	10.67	-47.4	-49.3	17.4	0.00e+00	0	43	0	166723584	66	4465
2026-01-27 00:48:35.34	24.97	10.76	-47.3	-49.3	17.4	0.00e+00	0	42	0	168820736	66	4445
2026-01-27 00:48:36.34	24.97	10.85	-47.4	-49.3	17.4	0.00e+00	0	42	0	169869312	66	4456
2026-01-27 00:48:37.35	24.98	10.94	-47.5	-49.4	17.3	0.00e+00	0	42	0	171966464	66	4542
2026-01-27 00:48:38.36	24.98	11.03	-47.3	-49.2	17.5	0.00e+00	0	43	0	174063616	66	4436
2026-01-27 00:48:39.36	24.98	11.12	-47.3	-49.2	17.5	0.00e+00	0	43	0	176160768	66	4406
2026-01-27 00:48:40.37	24.98	11.21	-47.1	-49.0	17.7	0.00e+00	0	42	0	178257920	66	4297
2026-01-27 00:48:41.39	24.99	11.31	-47.1	-48.9	17.7	0.00e+00	0	43	0	180355072	66	4271
2026-01-27 00:48:42.40	24.99	11.40	-47.1	-48.9	17.8	0.00e+00	0	43	0	181403648	66	4261
2026-01-27 00:48:43.40	24.99	11.49	-47.0	-48.8	17.9	0.00e+00	0	42	0	183500800	66	4210
2026-01-27 00:48:44.41	24.99	11.58	-47.2	-49.1	17.7	0.00e+00	0	43	0	185597952	66	4341
2026-01-27 00:48:45.42	25.00	11.68	-47.2	-49.1	17.7	0.00e+00	0	42	0	187695104	66	4349
2026-01-27 00:48:46.43	25.00	11.77	-47.2	-49.0	17.7	0.00e+00	0	43	0	189792256	66	4337
2026-01-27 00:48:47.43	25.00	11.86	-47.1	-49.0	17.8	0.00e+00	0	43	0	190840832	66	4311
2026-01-27 00:48:48.44	25.01	11.96	-47.3	-49.2	17.6	0.00e+00	0	43	0	192937984	66	4419
2026-01-27 00:48:49.44	25.01	12.05	-47.0	-48.8	18.0	0.00e+00	0	43	0	195035136	66	4198
2026-01-27 00:48:50.45	25.01	12.15	-46.9	-48.6	18.1	0.00e+00	0	43	0	197132288	65	4391
2026-01-27 00:48:51.46	25.01	12.24	-46.8	-48.6	18.1	0.00e+00	0	42	0	198180864	65	4362
2026-01-27 00:48:52.47	25.02	12.34	-46.8	-48.5	18.2	0.00e+00	0	43	0	200278016	65	4323
2026-01-27 00:48:53.48	25.02	12.44	-46.7	-48.4	18.4	0.00e+00	0	43	0	202375168	65	4254
2026-01-27 00:48:54.49	25.02	12.53	-46.6	-48.3	18.4	0.00e+00	0	43	0	204472320	65	4223
2026-01-27 00:48:55.50	25.02	12.63	-46.7	-48.4	18.4	0.00e+00	0	43	0	206569472	65	4249
2026-01-27 00:48:56.50	25.03	12.73	-46.6	-48.3	18.5	0.00e+00	0	43	0	208666624	65	4206
2026-01-27 00:48:57.51	25.03	12.82	-46.6	-48.3	18.5	0.00e+00	0	43	0	209715200	65	4219
2026-01-27 00:48:58.52	25.03	12.92	-46.7	-48.3	18.4	0.00e+00	0	43	0	211812352	65	4242
2026-01-27 00:48:59.53	25.03	13.02	-46.6	-48.3	18.5	0.00e+00	0	43	0	213909504	65	4199
2026-01-27 00:49:00.53	25.04	13.12	-46.6	-48.2	18.5	0.00e+00	0	43	0	216006656	65	4178
2026-01-27 00:49:01.54	25.04	13.22	-46.5	-48.1	18.6	0.00e+00	0	43	0	218103808	64	4375
2026-01-27 00:49:02.55	25.04	13.32	-46.4	-48.0	18.7	0.00e+00	0	43	0	219152384	64	4322
2026-01-27 00:49:03.56	25.04	13.42	-46.3	-47.8	18.9	0.00e+00	0	43	0	221249536	64	4221
2026-01-27 00:49:04.57	25.05	13.52	-46.2	-47.8	19.0	0.00e+00	0	43	0	223346688	64	4208
2026-01-27 00:49:05.57	25.05	13.62	-46.3	-47.8	18.9	0.00e+00	0	43	0	225443840	64	4224
2026-01-27 00:49:06.58	25.05	13.72	-46.3	-47.8	18.9	0.00e+00	0	43	0	227540992	64	4239
2026-01-27 00:49:07.59	25.05	13.82	-46.2	-47.8	19.0	0.00e+00	0	43	0	228589568	64	4202
2026-01-27 00:49:08.59	25.06	13.92	-46.2	-47.8	19.0	0.00e+00	0	43	0	230686720	64	4199
2026-01-27 00:49:09.60	25.06	14.03	-46.3	-47.8	19.0	0.00e+00	0	43	0	232783872	64	4209
2026-01-27 00:49:10.61	25.06	14.13	-46.1	-47.6	19.1	0.00e+00	0	43	0	234881024	64	4132
2026-01-27 00:49:11.62	25.06	14.23	-46.2	-47.7	19.1	0.00e+00	0	43	0	236978176	64	4185
2026-01-27 00:49:12.63	25.07	14.34	-46.0	-47.5	19.3	0.00e+00	0	43	0	238026752	63	4323
2026-01-27 00:49:13.63	25.07	14.44	-46.2	-47.7	19.2	0.00e+00	0	43	0	240123904	63	4393
2026-01-27 00:49:14.64	25.07	14.55	-45.9	-47.3	19.5	0.00e+00	0	43	0	242221056	63	4229
2026-01-27 00:49:15.65	25.07	14.65	-45.8	-47.2	19.6	0.00e+00	0	43	0	244318208	63	4185
2026-01-27 00:49:16.66	25.08	14.76	-45.8	-47.2	19.6	0.00e+00	0	43	0	246415360	63	4173
2026-01-27 00:49:17.67	25.08	14.87	-45.8	-47.3	19.6	0.00e+00	0	43	0	247463936	63	4194
2026-01-27 00:49:18.68	25.08	14.97	-46.0	-47.5	19.4	0.00e+00	0	43	0	249561088	63	4303
2026-01-27 00:49:19.69	25.08	15.08	-46.0	-47.4	19.5	0.00e+00	0	43	0	251658240	63	4275
2026-01-27 00:49:20.69	25.08	15.19	-45.8	-47.2	19.7	0.00e+00	0	43	0	253755392	63	4150
2026-01-27 00:49:21.70	25.09	15.30	-45.7	-47.1	19.8	0.00e+00	0	43	0	255852544	63	4121
2026-01-27 00:49:22.71	25.09	15.40	-45.5	-46.8	20.0	0.00e+00	0	43	0	256901120	62	4222
2026-01-27 00:49:23.72	25.09	15.51	-45.6	-46.9	19.9	0.00e+00	0	43	0	258998272	62	4291
2026-01-27 00:49:24.73	25.09	15.62	-45.6	-47.0	19.8	0.00e+00	0	43	0	261095424	62	4311
2026-01-27 00:49:25.74	25.10	15.73	-45.4	-46.8	20.1	0.00e+00	0	43	0	263192576	62	4205
2026-01-27 00:49:26.75	25.10	15.84	-45.7	-47.1	19.7	0.00e+00	0	43	0	265289728	62	4378
2026-01-27 00:49:27.75	25.10	15.95	-45.6	-47.0	19.9	0.00e+00	0	43	0	266338304	62	4309
2026-01-27 00:49:28.76	25.10	16.07	-45.7	-47.1	19.8	0.00e+00	0	43	0	268435456	62	4344
2026-01-27 00:49:29.76	25.10	16.18	-45.6	-47.0	19.9	0.00e+00	0	43	0	270532608	62	4295
2026-01-27 00:49:30.77	25.11	16.29	-45.6	-47.0	19.8	0.00e+00	0	43	0	272629760	62	4320
2026-01-27 00:49:31.78	25.11	16.40	-45.6	-47.0	19.9	0.00e+00	0	43	0	274726912	62	4320
2026-01-27 00:49:32.79	25.11	16.52	-45.6	-47.0	19.8	0.00e+00	0	43	0	276824064	62	4326
2026-01-27 00:49:33.79	25.11	16.63	-45.6	-46.9	19.9	0.00e+00	0	43	0	277872640	62	4284
2026-01-27 00:49:34.81	25.11	16.75	-45.6	-47.0	19.9	0.00e+00	0	43	0	279969792	62	4318
2026-01-27 00:49:35.81	25.12	16.86	-45.5	-46.8	20.0	0.00e+00	0	43	0	282066944	62	4219
2026-01-27 00:49:36.82	25.12	16.98	-45.6	-46.9	20.0	0.00e+00	0	43	0	284164096	62	4273
2026-01-27 00:49:37.83	25.12	17.09	-45.4	-46.8	20.0	0.00e+00	0	43	0	285212672	62	4214
2026-01-27 00:49:38.83	25.12	17.21	-45.5	-46.9	20.0	0.00e+00	0	43	0	287309824	62	4243
2026-01-27 00:49:39.84	25.12	17.33	-45.6	-46.9	20.0	0.00e+00	0	43	0	289406976	62	4279
2026-01-27 00:49:40.85	25.13	17.45	-45.4	-46.8	20.1	0.00e+00	0	43	0	291504128	62	4212
2026-01-27 00:49:41.85	25.13	17.56	-45.3	-46.6	20.2	0.00e+00	0	43	0	293601280	62	4145
2026-01-27 00:49:42.86	25.13	17.68	-45.4	-46.8	20.1	0.00e+00	0	43	0	294649856	62	4216
2026-01-27 00:49:43.87	25.13	17.80	-45.3	-46.6	20.3	0.00e+00	0	43	0	296747008	62	4130
2026-01-27 00:49:44.88	25.13	17.93	-45.3	-46.6	20.3	0.00e+00	0	43	0	298844160	62	4128
2026-01-27 00:49:45.89	25.14	18.05	-45.4	-46.7	20.2	0.00e+00	0	43	0	300941312	62	4187
2026-01-27 00:49:46.89	25.14	18.17	-45.3	-46.6	20.3	0.00e+00	0	43	0	303038464	62	4128
2026-01-27 00:49:47.90	25.14	18.29	-45.3	-46.6	20.3	0.00e+00	0	43	0	305135616	62	4103
2026-01-27 00:49:48.91	25.14	18.41	-45.4	-46.7	20.2	0.00e+00	0	43	0	306184192	62	4166
2026-01-27 00:49:49.92	25.14	18.54	-45.4	-46.7	20.2	0.00e+00	0	43	0	308281344	62	4166
2026-01-27 00:49:50.93	25.14	18.66	-45.4	-46.8	20.2	0.00e+00	0	43	0	310378496	62	4195
2026-01-27 00:49:51.93	25.15	18.78	-45.3	-46.6	20.3	0.00e+00	0	43	0	312475648	62	4139
2026-01-27 00:49:52.95	25.15	18.91	-45.4	-46.8	20.2	0.00e+00	0	43	0	313524224	62	4201
2026-01-27 00:49:53.95	25.15	19.04	-45.7	-47.1	19.9	0.00e+00	0	43	0	315621376	62	4373
2026-01-27 00:49:54.96	25.15	19.16	-45.6	-47.0	20.0	0.00e+00	0	43	0	317718528	62	4313
2026-01-27 00:49:55.97	25.15	19.29	-45.6	-47.0	19.9	0.00e+00	0	43	0	319815680	62	4329
2026-01-27 00:49:56.98	25.15	19.42	-45.6	-46.9	20.1	0.00e+00	0	43	0	321912832	62	4271
2026-01-27 00:49:57.99	25.16	19.55	-45.6	-47.0	20.0	0.00e+00	0	43	0	324009984	62	4319
2026-01-27 00:49:59.00	25.16	19.68	-45.6	-47.0	19.9	0.00e+00	0	43	0	325058560	62	4324
2026-01-27 00:50:00.01	25.16	19.81	-45.5	-46.9	20.1	0.00e+00	0	43	0	327155712	62	4263
2026-01-27 00:50:01.02	25.16	19.94	-45.5	-46.9	20.1	0.00e+00	0	43	0	329252864	62	4261
2026-01-27 00:50:02.03	25.16	20.07	-45.6	-47.0	20.0	0.00e+00	0	43	0	331350016	62	4314
2026-01-27 00:50:03.03	25.16	20.20	-45.4	-46.7	20.2	0.00e+00	0	43	0	333447168	62	4192
2026-01-27 00:50:04.04	25.17	20.33	-45.4	-46.8	20.2	0.00e+00	0	43	0	334495744	62	4195
2026-01-27 00:50:05.04	25.17	20.47	-45.4	-46.8	20.2	0.00e+00	0	43	0	336592896	62	4201
2026-01-27 00:50:06.05	25.17	20.60	-45.4	-46.8	20.2	0.00e+00	0	43	0	338690048	62	4201
2026-01-27 00:50:07.05	25.17	20.74	-45.4	-46.7	20.3	0.00e+00	0	43	0	340787200	62	4193
2026-01-27 00:50:08.06	25.17	20.87	-45.5	-46.8	20.2	0.00e+00	0	43	0	341835776	62	4218
2026-01-27 00:50:09.07	25.17	21.01	-45.4	-46.7	20.3	0.00e+00	0	43	0	343932928	62	4189
2026-01-27 00:50:10.08	25.17	21.15	-45.5	-46.8	20.2	0.00e+00	0	43	0	346030080	62	4230
2026-01-27 00:50:11.09	25.17	21.28	-45.4	-46.7	20.3	0.00e+00	0	43	0	348127232	62	4182
2026-01-27 00:50:12.09	25.18	21.42	-45.6	-46.9	20.1	0.00e+00	0	43	0	350224384	62	4269
2026-01-27 00:50:13.09	25.18	21.56	-45.5	-46.9	20.1	0.00e+00	0	43	0	352321536	62	4243
2026-01-27 00:50:14.10	25.18	21.70	-45.7	-47.1	20.0	0.00e+00	0	43	0	353370112	62	4361
2026-01-27 00:50:15.11	25.18	21.84	-45.8	-47.2	19.8	0.00e+00	0	43	0	355467264	62	4423
2026-01-27 00:50:16.12	25.18	21.98	-45.9	-47.3	19.8	0.00e+00	0	43	0	357564416	62	4449
2026-01-27 00:50:17.13	25.18	22.13	-45.9	-47.3	19.8	0.00e+00	0	43	0	359661568	62	4444
2026-01-27 00:50:18.13	25.18	22.27	-45.8	-47.2	19.9	0.00e+00	0	43	0	361758720	62	4411
2026-01-27 00:50:19.14	25.18	22.41	-45.9	-47.3	19.8	0.00e+00	0	43	0	362807296	62	4462
2026-01-27 00:50:20.14	25.19	22.56	-45.7	-47.1	20.0	0.00e+00	0	43	0	364904448	62	4346
2026-01-27 00:50:21.15	25.19	22.70	-45.8	-47.2	19.8	0.00e+00	0	43	0	367001600	62	4410
2026-01-27 00:50:22.16	25.19	22.85	-45.7	-47.1	20.0	0.00e+00	0	43	0	369098752	62	4352
2026-01-27 00:50:23.17	25.19	23.00	-45.6	-46.9	20.1	0.00e+00	0	43	0	370147328	62	4290
2026-01-27 00:50:24.17	25.19	23.14	-45.5	-46.8	20.2	0.00e+00	0	43	0	372244480	62	4216
2026-01-27 00:50:25.18	25.19	23.29	-45.6	-46.9	20.2	0.00e+00	0	43	0	374341632	62	4257
2026-01-27 00:50:26.19	25.19	23.44	-45.6	-46.9	20.2	0.00e+00	0	43	0	376438784	62	4255
2026-01-27 00:50:27.19	25.19	23.59	-45.4	-46.7	20.3	0.00e+00	0	43	0	378535936	62	4176
2026-01-27 00:50:28.20	25.19	23.75	-45.6	-46.9	20.2	0.00e+00	0	43	0	380633088	62	4284
2026-01-27 00:50:29.21	25.19	23.90	-45.6	-47.0	20.1	0.00e+00	0	43	0	381681664	62	4307
2026-01-27 00:50:30.22	25.19	24.05	-45.6	-47.0	20.1	0.00e+00	0	43	0	383778816	62	4295
2026-01-27 00:50:31.23	25.19	24.21	-45.8	-47.2	20.0	0.00e+00	0	43	0	385875968	62	4393
2026-01-27 00:50:32.23	25.20	24.36	-45.6	-46.9	20.2	0.00e+00	0	43	0	387973120	62	4279
2026-01-27 00:50:33.24	25.20	24.52	-45.8	-47.1	20.0	0.00e+00	0	43	0	390070272	62	4373
2026-01-27 00:50:34.25	25.20	24.68	-45.7	-47.1	20.1	0.00e+00	0	43	0	391118848	62	4342
2026-01-27 00:50:35.25	25.20	24.83	-45.6	-46.9	20.2	0.00e+00	0	43	0	393216000	62	4258
2026-01-27 00:50:36.26	25.20	24.99	-45.5	-46.8	20.3	0.00e+00	0	43	0	395313152	62	4225
2026-01-27 00:50:37.27	25.20	25.15	-45.6	-46.9	20.3	0.00e+00	0	43	0	397410304	62	4271
2026-01-27 00:50:38.28	25.20	25.31	-45.3	-46.6	20.5	0.00e+00	0	43	0	399507456	62	4103
2026-01-27 00:50:39.29	25.20	25.48	-45.4	-46.6	20.5	0.00e+00	0	43	0	400556032	62	4145
2026-01-27 00:50:40.30	25.20	25.64	-45.4	-46.7	20.5	0.00e+00	0	43	0	402653184	62	4150
2026-01-27 00:50:41.31	25.20	25.80	-45.3	-46.5	20.5	0.00e+00	0	43	0	404750336	62	4091
2026-01-27 00:50:42.31	25.20	25.97	-45.6	-46.8	20.3	0.00e+00	0	43	0	406847488	62	4238
2026-01-27 00:50:43.32	25.20	26.14	-45.7	-47.0	20.2	0.00e+00	0	43	0	408944640	62	4300
2026-01-27 00:50:44.33	25.20	26.30	-45.8	-47.1	20.0	0.00e+00	0	43	0	409993216	62	4378
2026-01-27 00:50:45.34	25.20	26.47	-46.1	-47.4	19.8	0.00e+00	0	43	0	412090368	62	4537
2026-01-27 00:50:46.35	25.20	26.64	-46.0	-47.3	19.8	0.00e+00	0	43	0	414187520	63	4235
2026-01-27 00:50:47.35	25.20	26.81	-45.9	-47.3	19.9	0.00e+00	0	43	0	416284672	63	4203
2026-01-27 00:50:48.36	25.20	26.98	-46.1	-47.5	19.7	0.00e+00	0	43	0	418381824	63	4304
2026-01-27 00:50:49.37	25.20	27.15	-45.9	-47.2	20.0	0.00e+00	0	43	0	419430400	63	4180
2026-01-27 00:50:50.38	25.20	27.33	-45.8	-47.1	20.1	0.00e+00	0	43	0	421527552	63	4108
2026-01-27 00:50:51.39	25.20	27.50	-45.7	-47.0	20.1	0.00e+00	0	43	0	423624704	63	4074
2026-01-27 00:50:52.39	25.20	27.68	-45.7	-47.0	20.1	0.00e+00	0	43	0	425721856	63	4095
2026-01-27 00:50:53.40	25.20	27.86	-46.0	-47.3	19.9	0.00e+00	0	43	0	427819008	63	4211
2026-01-27 00:50:54.41	25.20	28.03	-45.8	-47.1	20.1	0.00e+00	0	43	0	428867584	63	4138
2026-01-27 00:50:55.41	25.20	28.21	-46.2	-47.6	19.7	0.00e+00	0	43	0	430964736	63	4363
2026-01-27 00:50:56.42	25.20	28.39	-46.7	-48.2	19.0	0.00e+00	0	43	0	433061888	63	4702
2026-01-27 00:50:57.43	25.20	28.58	-46.4	-47.8	19.3	0.00e+00	0	43	0	435159040	64	4241
2026-01-27 00:50:58.44	25.20	28.76	-46.5	-48.0	19.1	0.00e+00	0	43	0	437256192	64	4335
2026-01-27 00:50:59.44	25.20	28.94	-46.6	-48.1	19.0	0.00e+00	0	43	0	438304768	65	4144
2026-01-27 00:51:00.45	25.20	29.13	-46.9	-48.5	18.7	0.00e+00	0	43	0	440401920	65	4328
2026-01-27 00:51:01.46	25.20	29.31	-47.2	-48.9	18.4	0.00e+00	0	43	0	442499072	65	4497
2026-01-27 00:51:02.47	25.20	29.50	-47.0	-48.6	18.6	0.00e+00	0	43	0	444596224	65	4358
2026-01-27 00:51:03.47	25.19	29.69	-47.3	-49.0	18.3	0.00e+00	0	43	0	446693376	65	4556
2026-01-27 00:51:04.48	25.19	29.88	-47.3	-49.1	18.2	0.00e+00	0	43	0	448790528	65	4614
2026-01-27 00:51:05.49	25.19	30.07	-47.1	-48.8	18.5	0.00e+00	0	43	0	449839104	65	4453
2026-01-27 00:51:06.50	25.19	30.27	-46.9	-48.5	18.8	0.00e+00	0	43	0	451936256	65	4326
2026-01-27 00:51:07.51	25.19	30.46	-47.2	-48.9	18.3	0.00e+00	0	43	0	454033408	65	4530
2026-01-27 00:51:08.52	25.19	30.66	-47.3	-49.1	18.3	0.00e+00	0	43	0	456130560	65	4610
2026-01-27 00:51:09.53	25.19	30.85	-47.4	-49.2	18.1	0.00e+00	0	43	0	457179136	65	4677
2026-01-27 00:51:10.54	25.19	31.05	-47.7	-49.5	17.9	0.00e+00	0	43	0	459276288	66	4571
2026-01-27 00:51:11.54	25.19	31.25	-47.7	-49.5	17.9	0.00e+00	0	43	0	461373440	66	4566
2026-01-27 00:51:12.55	25.18	31.45	-47.7	-49.5	17.9	0.00e+00	0	43	0	463470592	66	4580
2026-01-27 00:51:13.56	25.18	31.65	-47.6	-49.3	18.0	0.00e+00	0	43	0	465567744	66	4488
2026-01-27 00:51:14.57	25.18	31.86	-47.4	-49.1	18.3	0.00e+00	0	43	0	467664896	66	4360
2026-01-27 00:51:15.58	25.18	32.06	-47.1	-48.8	18.5	0.00e+00	0	43	0	468713472	66	4213
2026-01-27 00:51:16.58	25.18	32.27	-47.2	-48.8	18.4	0.00e+00	0	43	0	470810624	66	4229
2026-01-27 00:51:17.59	25.18	32.48	-47.0	-48.6	18.7	0.00e+00	0	43	0	472907776	65	4370
2026-01-27 00:51:18.60	25.18	32.69	-47.2	-48.8	18.5	0.00e+00	0	43	0	475004928	65	4476
2026-01-27 00:51:19.61	25.17	32.90	-47.4	-49.1	18.3	0.00e+00	0	43	0	477102080	65	4622
2026-01-27 00:51:20.61	25.17	33.11	-47.4	-49.2	18.2	0.00e+00	0	43	0	478150656	65	4657
2026-01-27 00:51:21.62	25.17	33.32	-47.6	-49.4	18.0	0.00e+00	0	43	0	480247808	65	4785
2026-01-27 00:51:22.63	25.17	33.54	-47.7	-49.6	17.8	0.00e+00	0	43	0	482344960	66	4612
2026-01-27 00:51:23.63	25.17	33.75	-47.2	-48.9	18.4	0.00e+00	0	43	0	484442112	65	4509
2026-01-27 00:51:24.63	25.16	33.97	-47.0	-48.6	18.7	0.00e+00	0	43	0	485490688	65	4376
2026-01-27 00:51:25.64	25.16	34.19	-46.4	-47.8	19.5	0.00e+00	0	43	0	487587840	64	4220
2026-01-27 00:51:26.65	25.16	34.41	-46.3	-47.7	19.6	0.00e+00	0	43	0	489684992	64	4162
2026-01-27 00:51:27.66	25.16	34.64	-46.1	-47.5	19.7	0.00e+00	0	43	0	491782144	64	4058
2026-01-27 00:51:28.66	25.15	34.86	-46.0	-47.3	20.0	0.00e+00	0	43	0	493879296	63	4210
2026-01-27 00:51:29.67	25.15	35.09	-46.0	-47.4	20.0	0.00e+00	0	43	0	494927872	63	4259
2026-01-27 00:51:30.68	25.15	35.32	-46.0	-47.3	20.0	0.00e+00	0	43	0	497025024	63	4241
2026-01-27 00:51:31.69	25.15	35.55	-45.8	-47.1	20.1	0.00e+00	0	43	0	499122176	63	4131
2026-01-27 00:51:32.70	25.14	35.78	-45.7	-47.0	20.3	0.00e+00	0	43	0	501219328	62	4309
2026-01-27 00:51:33.70	25.14	36.01	-45.2	-46.5	20.7	0.00e+00	0	43	0	503316480	62	4055
2026-01-27 00:51:34.71	25.14	36.24	-45.1	-46.4	20.9	0.00e+00	0	43	0	505413632	62	4006
2026-01-27 00:51:35.72	25.13	36.48	-44.7	-45.9	21.2	0.00e+00	0	43	0	506462208	61	4032
2026-01-27 00:51:36.73	25.13	36.72	-44.5	-45.7	21.5	0.00e+00	0	43	0	508559360	61	3919
2026-01-27 00:51:37.73	25.13	36.96	-44.6	-45.7	21.5	0.00e+00	0	43	0	510656512	60	4172
2026-01-27 00:51:38.74	25.12	37.20	-44.5	-45.7	21.5	0.00e+00	0	43	0	512753664	60	4159
2026-01-27 00:51:39.75	25.12	37.44	-44.7	-45.9	21.3	0.00e+00	0	43	0	513802240	60	4265
2026-01-27 00:51:40.76	25.12	37.69	-44.6	-45.8	21.4	0.00e+00	0	43	0	515899392	60	4214
2026-01-27 00:51:41.77	25.11	37.94	-44.8	-46.0	21.2	0.00e+00	0	43	0	517996544	60	4309
2026-01-27 00:51:42.77	25.11	38.19	-44.9	-46.0	21.2	0.00e+00	0	43	0	520093696	60	4328
2026-01-27 00:51:43.77	25.10	38.43	-44.4	-45.4	21.6	0.00e+00	0	43	0	522190848	60	4043
2026-01-27 00:51:44.78	25.10	38.69	-44.3	-45.3	21.8	0.00e+00	0	43	0	524288000	60	3995
2026-01-27 00:51:45.79	25.09	38.94	-44.3	-45.4	21.7	0.00e+00	0	43	0	525336576	60	4032
2026-01-27 00:51:46.79	25.09	39.20	-44.3	-45.4	21.7	0.00e+00	0	43	0	527433728	60	4038
2026-01-27 00:51:47.80	25.08	39.46	-44.6	-45.7	21.5	0.00e+00	0	43	0	529530880	60	4156
2026-01-27 00:51:48.81	25.08	39.72	-44.7	-45.8	21.4	0.00e+00	0	43	0	531628032	60	4222
2026-01-27 00:51:49.82	25.07	39.98	-45.2	-46.4	20.8	0.00e+00	0	43	0	533725184	61	4285
2026-01-27 00:51:50.83	25.07	40.25	-45.0	-46.2	21.1	0.00e+00	0	43	0	534773760	61	4181
2026-01-27 00:51:51.84	25.06	40.51	-45.2	-46.4	21.0	0.00e+00	0	43	0	536870912	61	4268
2026-01-27 00:51:52.84	25.06	40.78	-45.1	-46.4	20.9	0.00e+00	0	43	0	538968064	61	4243
2026-01-27 00:51:53.85	25.05	41.05	-44.9	-46.2	21.1	0.00e+00	0	43	0	541065216	61	4148
2026-01-27 00:51:54.86	25.05	41.32	-45.3	-46.5	20.9	0.00e+00	0	43	0	542113792	61	4327
2026-01-27 00:51:55.86	25.04	41.59	-45.0	-46.1	21.1	0.00e+00	0	43	0	544210944	61	4141
2026-01-27 00:51:56.87	25.04	41.87	-45.0	-46.3	21.1	0.00e+00	0	43	0	546308096	61	4195
2026-01-27 00:51:57.88	25.03	42.15	-45.0	-46.2	21.0	0.00e+00	0	43	0	548405248	61	4193
2026-01-27 00:51:58.89	25.02	42.43	-44.9	-46.1	21.2	0.00e+00	0	43	0	550502400	61	4109
2026-01-27 00:51:59.89	25.02	42.71	-44.8	-46.0	21.2	0.00e+00	0	43	0	552599552	61	4059
2026-01-27 00:52:00.90	25.01	43.00	-44.9	-46.0	21.1	0.00e+00	0	43	0	553648128	61	4094
2026-01-27 00:52:01.91	25.00	43.29	-45.2	-46.4	20.9	0.00e+00	0	43	0	555745280	61	4282
2026-01-27 00:52:02.92	24.99	43.58	-44.8	-45.9	21.3	0.00e+00	0	43	0	557842432	61	4039
2026-01-27 00:52:03.93	24.99	43.87	-44.9	-46.0	21.3	0.00e+00	0	43	0	559939584	61	4086
2026-01-27 00:52:04.94	24.98	44.16	-45.0	-46.1	21.2	0.00e+00	0	43	0	562036736	61	4127
2026-01-27 00:52:05.94	24.97	44.46	-44.9	-46.0	21.3	0.00e+00	0	43	0	563085312	61	4076
2026-01-27 00:52:06.95	24.96	44.76	-45.7	-46.9	20.5	0.00e+00	0	43	0	565182464	61	4531
2026-01-27 00:52:07.96	24.95	45.06	-46.0	-47.2	20.2	0.00e+00	0	43	0	567279616	62	4441
2026-01-27 00:52:08.97	24.95	45.36	-46.4	-47.8	19.7	0.00e+00	0	43	0	569376768	63	4465
2026-01-27 00:52:09.97	24.94	45.66	-46.8	-48.3	19.2	0.00e+00	0	43	0	571473920	64	4464
2026-01-27 00:52:10.98	24.93	45.97	-47.3	-49.0	18.6	0.00e+00	0	43	0	572522496	65	4546
2026-01-27 00:52:11.99	24.92	46.28	-47.1	-48.7	18.8	0.00e+00	0	43	0	574619648	65	4392
2026-01-27 00:52:13.00	24.91	46.60	-46.7	-48.2	19.2	0.00e+00	0	43	0	576716800	65	4172
2026-01-27 00:52:14.00	24.90	46.91	-46.6	-48.1	19.4	0.00e+00	0	43	0	578813952	65	4101
2026-01-27 00:52:15.00	24.89	47.22	-46.6	-48.1	19.4	0.00e+00	0	43	0	580911104	65	4114
2026-01-27 00:52:16.01	24.88	47.54	-46.9	-48.4	19.0	0.00e+00	0	43	0	581959680	64	4538
2026-01-27 00:52:17.02	24.87	47.86	-47.2	-48.8	18.7	0.00e+00	0	43	0	584056832	65	4491
2026-01-27 00:52:18.03	24.86	48.19	-47.6	-49.3	18.2	0.00e+00	0	43	0	586153984	65	4752
2026-01-27 00:52:19.04	24.85	48.52	-48.0	-49.9	17.7	0.00e+00	0	43	0	588251136	66	4760
2026-01-27 00:52:20.05	24.83	48.85	-47.6	-49.3	18.2	0.00e+00	0	43	0	590348288	66	4484
2026-01-27 00:52:21.05	24.82	49.18	-47.3	-49.0	18.5	0.00e+00	0	43	0	591396864	66	4292
2026-01-27 00:52:22.06	24.81	49.51	-46.9	-48.4	19.1	0.00e+00	0	43	0	593494016	65	4259
2026-01-27 00:52:23.07	24.80	49.85	-46.8	-48.3	19.2	0.00e+00	0	43	0	595591168	65	4210
2026-01-27 00:52:24.08	24.78	50.19	-46.7	-48.2	19.3	0.00e+00	0	43	0	597688320	65	4148
2026-01-27 00:52:25.08	24.77	50.53	-46.0	-47.3	20.1	0.00e+00	0	43	0	599785472	63	4203
2026-01-27 00:52:26.09	24.76	50.87	-45.8	-47.1	20.2	0.00e+00	0	43	0	600834048	63	4129
2026-01-27 00:52:27.09	24.74	51.22	-45.7	-47.0	20.5	0.00e+00	0	43	0	602931200	62	4317
2026-01-27 00:52:28.10	24.73	51.57	-45.5	-46.8	20.7	0.00e+00	0	43	0	605028352	62	4207
2026-01-27 00:52:29.11	24.71	51.92	-45.6	-46.9	20.7	0.00e+00	0	43	0	607125504	62	4254
2026-01-27 00:52:30.12	24.69	52.27	-45.6	-46.9	20.5	0.00e+00	0	43	0	609222656	62	4268
2026-01-27 00:52:31.13	24.68	52.63	-45.3	-46.6	20.8	0.00e+00	0	43	0	610271232	62	4101
2026-01-27 00:52:32.13	24.66	52.99	-45.1	-46.3	21.0	0.00e+00	0	43	0	612368384	62	3971
2026-01-27 00:52:33.14	24.64	53.35	-44.9	-46.1	21.3	0.00e+00	0	43	0	614465536	61	4103
2026-01-27 00:52:34.15	24.63	53.72	-44.3	-45.3	22.2	0.00e+00	0	43	0	616562688	59	4207
2026-01-27 00:52:35.16	24.61	54.09	-44.1	-45.2	22.3	0.00e+00	0	43	0	618659840	59	4149
2026-01-27 00:52:36.16	24.59	54.45	-44.4	-45.4	22.0	0.00e+00	0	43	0	619708416	59	4286
2026-01-27 00:52:37.17	24.57	54.83	-44.3	-45.4	21.8	0.00e+00	0	43	0	621805568	60	4011
2026-01-27 00:52:38.18	24.55	55.20	-44.7	-45.9	21.4	0.00e+00	0	43	0	623902720	60	4246
2026-01-27 00:52:39.18	24.53	55.58	-44.7	-45.9	21.5	0.00e+00	0	43	0	625999872	60	4244
2026-01-27 00:52:40.19	24.51	55.96	-44.0	-45.0	22.2	0.00e+00	0	43	0	628097024	60	3851
2026-01-27 00:52:41.19	24.49	56.34	-44.1	-45.2	22.3	0.00e+00	0	43	0	629145600	59	4146
2026-01-27 00:52:42.20	24.46	56.73	-44.0	-45.0	22.5	0.00e+00	0	43	0	631242752	59	4079
2026-01-27 00:52:43.21	24.44	57.12	-44.4	-45.5	22.1	0.00e+00	0	43	0	633339904	59	4312
2026-01-27 00:52:44.21	24.41	57.51	-44.7	-45.8	21.8	0.00e+00	0	43	0	635437056	59	4443
2026-01-27 00:52:45.22	24.39	57.90	-44.7	-45.8	21.5	0.00e+00	0	43	0	637534208	60	4219
2026-01-27 00:52:46.22	24.36	58.29	-44.9	-46.0	21.4	0.00e+00	0	43	0	638582784	60	4304
2026-01-27 00:52:47.23	24.34	58.70	-45.7	-47.0	20.4	0.00e+00	0	43	0	640679936	62	4324
2026-01-27 00:52:48.24	24.31	59.10	-46.7	-48.2	19.5	0.00e+00	0	43	0	642777088	63	4674
2026-01-27 00:52:49.25	24.28	59.50	-46.7	-48.2	19.2	0.00e+00	0	43	0	644874240	64	4438
2026-01-27 00:52:50.26	24.25	59.91	-46.1	-47.5	20.1	0.00e+00	0	43	0	646971392	64	4055
2026-01-27 00:52:51.27	24.22	60.32	-45.7	-47.0	20.6	0.00e+00	0	43	0	648019968	62	4299
2026-01-27 00:52:52.27	24.18	60.73	-45.9	-47.2	20.3	0.00e+00	0	43	0	650117120	62	4392
2026-01-27 00:52:53.28	24.15	61.15	-45.7	-47.0	20.5	0.00e+00	0	43	0	652214272	62	4295
2026-01-27 00:52:54.29	24.12	61.57	-45.1	-46.3	21.1	0.00e+00	0	43	0	654311424	62	3965
2026-01-27 00:52:55.29	24.08	61.99	-44.4	-45.4	21.9	0.00e+00	0	43	0	656408576	60	4032
2026-01-27 00:52:56.30	24.04	62.41	-43.9	-44.9	22.6	0.00e+00	0	43	0	657457152	59	4038
2026-01-27 00:52:57.30	24.00	62.83	-43.2	-44.1	23.3	0.00e+00	0	43	0	659554304	58	3893
2026-01-27 00:52:58.31	23.96	63.26	-43.0	-43.9	23.4	0.00e+00	0	43	0	661651456	57	4012
2026-01-27 00:52:59.32	23.92	63.70	-42.9	-43.8	23.5	0.00e+00	0	43	0	663748608	57	3959
2026-01-27 00:53:00.33	23.88	64.13	-43.5	-44.4	23.0	0.00e+00	0	43	0	665845760	57	4280
2026-01-27 00:53:01.33	23.83	64.56	-44.2	-45.2	22.3	0.00e+00	0	43	0	666894336	59	4173
2026-01-27 00:53:02.34	23.78	65.00	-44.6	-45.8	21.6	0.00e+00	0	43	0	668991488	60	4208
2026-01-27 00:53:03.35	23.73	65.45	-44.5	-45.6	21.8	0.00e+00	0	43	0	671088640	60	4101
2026-01-27 00:53:04.35	23.68	65.89	-44.6	-45.6	21.7	0.00e+00	0	43	0	673185792	60	4139
2026-01-27 00:53:05.36	23.63	66.34	-44.8	-46.0	21.5	0.00e+00	0	43	0	675282944	60	4298
2026-01-27 00:53:06.37	23.57	66.79	-45.4	-46.6	20.8	0.00e+00	0	43	0	676331520	61	4386
2026-01-27 00:53:07.38	23.51	67.24	-45.2	-46.4	21.0	0.00e+00	0	43	0	678428672	62	4028
2026-01-27 00:53:08.39	23.45	67.69	-44.9	-46.0	21.5	0.00e+00	0	43	0	680525824	61	4053
2026-01-27 00:53:09.39	23.38	68.15	-45.4	-46.5	21.0	0.00e+00	0	43	0	682622976	61	4330
2026-01-27 00:53:10.40	23.31	68.60	-46.2	-47.5	20.2	0.00e+00	0	43	0	684720128	63	4300
2026-01-27 00:53:11.41	23.24	69.07	-46.8	-48.2	19.4	0.00e+00	0	43	0	685768704	64	4428
2026-01-27 00:53:12.42	23.16	69.53	-47.5	-49.1	18.5	0.00e+00	0	43	0	687865856	65	4647
2026-01-27 00:53:13.42	23.08	69.99	-49.2	-51.3	16.6	0.00e+00	0	43	0	689963008	68	5039
2026-01-27 00:53:14.42	23.00	70.46	-49.4	-51.7	16.1	0.00e+00	0	43	0	692060160	69	4948
2026-01-27 00:53:15.43	22.91	70.93	-49.0	-51.1	16.8	0.00e+00	0	43	0	694157312	69	4619
2026-01-27 00:53:16.44	22.82	71.40	-49.3	-51.6	16.3	0.00e+00	0	43	0	695205888	69	4900
2026-01-27 00:53:17.45	22.72	71.88	-50.5	-53.6	14.4	0.00e+00	0	43	0	697303040	71	5514
2026-01-27 00:53:18.46	22.61	72.35	-51.1	-54.9	12.8	3.05e-05	0	43	0	699400192	72	6018
2026-01-27 00:53:19.47	22.50	72.83	-50.1	-53.0	14.6	5.30e-06	0	43	0	701497344	72	4853
2026-01-27 00:53:20.48	22.38	73.31	-48.4	-50.3	17.4	0.00e+00	0	43	0	703594496	68	4462
2026-01-27 00:53:21.48	22.26	73.79	-47.7	-49.4	18.2	0.00e+00	0	43	0	704643072	67	4284
2026-01-27 00:53:22.49	22.12	74.28	-47.5	-49.3	18.3	0.00e+00	0	43	0	706740224	66	4442
2026-01-27 00:53:23.50	21.98	74.76	-47.3	-48.9	18.7	0.00e+00	0	43	0	708837376	66	4261
2026-01-27 00:53:24.51	21.83	75.25	-46.6	-48.0	19.6	0.00e+00	0	43	0	710934528	65	4079
2026-01-27 00:53:25.52	21.66	75.74	-47.3	-48.9	18.8	0.00e+00	0	43	0	713031680	65	4516
2026-01-27 00:53:26.53	21.48	76.23	-47.9	-49.6	18.0	0.00e+00	0	43	0	714080256	66	4626
2026-01-27 00:53:27.54	21.29	76.73	-49.2	-51.4	16.4	0.00e+00	0	43	0	716177408	69	4810
2026-01-27 00:53:28.55	21.08	77.22	-49.5	-51.9	16.1	0.00e+00	0	43	0	718274560	70	4795
2026-01-27 00:53:29.56	20.86	77.72	-49.1	-51.2	16.7	0.00e+00	0	43	0	720371712	69	4685
2026-01-27 00:53:30.56	20.61	78.21	-49.8	-52.3	15.5	0.00e+00	0	43	0	722468864	70	5001
2026-01-27 00:53:31.57	20.35	78.71	-50.8	-54.2	13.6	3.00e-06	0	43	0	724566016	72	5584
2026-01-27 00:53:32.58	20.05	79.21	-48.7	-50.7	17.0	0.00e+00	0	43	0	725614592	69	4428
2026-01-27 00:53:33.59	19.73	79.71	-47.4	-49.0	18.6	0.00e+00	0	43	0	727711744	66	4305
2026-01-27 00:53:34.59	19.38	80.21	-46.9	-48.3	19.4	0.00e+00	0	43	0	729808896	65	4216
2026-01-27 00:53:35.60	18.98	80.71	-46.2	-47.5	20.1	0.00e+00	0	43	0	731906048	64	4082
2026-01-27 00:53:36.61	18.54	81.22	-47.4	-49.0	18.7	0.00e+00	0	43	0	732954624	65	4578
2026-01-27 00:53:37.62	18.04	81.72	-49.3	-51.7	16.3	0.00e+00	0	43	0	735051776	69	4966
2026-01-27 00:53:38.63	17.48	82.23	-47.9	-49.7	18.0	0.00e+00	0	43	0	737148928	67	4427
2026-01-27 00:53:39.64	16.84	82.73	-47.3	-48.9	18.8	0.00e+00	0	43	0	739246080	66	4266
2026-01-27 00:53:40.65	16.09	83.24	-47.1	-48.8	19.0	0.00e+00	0	43	0	741343232	65	4448
2026-01-27 00:53:41.66	15.23	83.74	-46.2	-47.5	20.0	0.00e+00	0	43	0	742391808	64	4093
2026-01-27 00:53:42.67	14.22	84.24	-44.8	-45.9	21.4	0.00e+00	0	43	0	744488960	61	4027
2026-01-27 00:53:43.68	13.01	84.75	-45.3	-46.5	21.1	0.00e+00	0	43	0	746586112	61	4308
2026-01-27 00:53:44.68	11.55	85.24	-45.3	-46.5	21.1	0.00e+00	0	43	0	748683264	62	4053
2026-01-27 00:53:45.69	9.74	85.74	-45.4	-46.6	21.0	0.00e+00	0	43	0	750780416	62	4099
2026-01-27 00:53:46.70	7.45	86.23	-45.2	-46.4	21.2	0.00e+00	0	43	0	752877568	61	4276
2026-01-27 00:53:47.71	4.48	86.71	-45.5	-46.6	20.9	0.00e+00	0	43	0	753926144	61	4377
2026-01-27 00:53:48.71	0.54	87.18	-47.1	-48.7	19.1	0.00e+00	0	43	0	756023296	64	4653
2026-01-27 00:53:49.72	354.99	87.64	-47.5	-49.1	18.6	0.00e+00	0	43	0	758120448	66	4390
2026-01-27 00:53:50.73	346.92	88.06	-48.1	-49.9	17.8	0.00e+00	0	43	0	760217600	66	4773
2026-01-27 00:53:51.74	334.77	88.42	-48.9	-51.1	16.7	0.00e+00	0	43	0	761266176	69	4617
2026-01-27 00:53:52.75	316.75	88.68	-47.0	-48.5	19.2	0.00e+00	0	43	0	763363328	66	4057
2026-01-27 00:53:53.76	293.64	88.76	-46.9	-48.3	19.5	0.00e+00	0	43	0	765460480	64	4469
2026-01-27 00:53:54.77	271.43	88.63	-47.7	-49.4	18.3	0.00e+00	0	43	0	767557632	66	4525
2026-01-27 00:53:55.77	255.14	88.34	-45.8	-47.0	20.6	0.00e+00	0	43	0	769654784	63	4097
2026-01-27 00:53:56.78	244.16	87.96	-46.4	-47.7	20.1	0.00e+00	0	43	0	771751936	63	4416
2026-01-27 00:53:57.79	236.82	87.53	-48.4	-50.3	17.5	0.00e+00	0	43	0	772800512	67	4745
2026-01-27 00:53:58.80	231.72	87.07	-48.5	-50.4	17.6	0.00e+00	0	43	0	774897664	68	4502
2026-01-27 00:53:59.80	228.06	86.60	-46.9	-48.3	19.3	0.00e+00	0	43	0	776994816	65	4229
2026-01-27 00:54:00.81	225.28	86.11	-46.7	-48.1	19.6	0.00e+00	0	43	0	779091968	65	4129
2026-01-27 00:54:01.81	223.14	85.62	-46.3	-47.7	19.8	0.00e+00	0	43	0	781189120	64	4147
2026-01-27 00:54:02.82	221.42	85.12	-45.6	-46.9	20.8	0.00e+00	0	43	0	782237696	62	4247
2026-01-27 00:54:03.82	220.04	84.63	-45.2	-46.3	21.2	0.00e+00	0	43	0	784334848	62	4003
2026-01-27 00:54:04.83	218.88	84.13	-44.3	-45.3	22.1	0.00e+00	0	43	0	786432000	60	3989
2026-01-27 00:54:05.83	217.91	83.63	-44.5	-45.6	22.1	0.00e+00	0	43	0	788529152	59	4378
2026-01-27 00:54:06.84	217.08	83.12	-44.7	-45.8	21.7	0.00e+00	0	43	0	789577728	60	4237
2026-01-27 00:54:07.84	216.37	82.62	-45.7	-46.9	20.7	0.00e+00	0	43	0	791674880	61	4538
2026-01-27 00:54:08.85	215.74	82.12	-45.7	-46.9	20.8	0.00e+00	0	43	0	793772032	62	4288
2026-01-27 00:54:09.86	215.19	81.61	-46.6	-48.1	19.7	0.00e+00	0	43	0	795869184	64	4354
2026-01-27 00:54:10.86	214.71	81.11	-45.5	-46.7	20.9	0.00e+00	0	43	0	797966336	63	3917
2026-01-27 00:54:11.87	214.28	80.61	-45.4	-46.6	20.9	0.00e+00	0	43	0	799014912	62	4111
2026-01-27 00:54:12.88	213.89	80.10	-46.8	-48.2	19.6	0.00e+00	0	43	0	801112064	64	4421
2026-01-27 00:54:13.89	213.54	79.60	-46.1	-47.4	20.3	0.00e+00	0	43	0	803209216	64	4005
2026-01-27 00:54:14.89	213.23	79.11	-48.2	-50.1	17.9	0.00e+00	0	43	0	805306368	66	4879
2026-01-27 00:54:15.90	212.94	78.61	-47.6	-49.3	18.4	0.00e+00	0	43	0	807403520	67	4200
2026-01-27 00:54:16.91	212.68	78.11	-46.2	-47.5	20.2	0.00e+00	0	43	0	809500672	64	4079
2026-01-27 00:54:17.92	212.44	77.61	-46.3	-47.6	20.1	0.00e+00	0	43	0	810549248	63	4363
2026-01-27 00:54:18.93	212.22	77.11	-47.5	-49.1	18.9	0.00e+00	0	43	0	812646400	65	4617
2026-01-27 00:54:19.93	212.02	76.62	-47.4	-49.0	18.9	0.00e+00	0	43	0	814743552	65	4585
2026-01-27 00:54:20.94	211.83	76.13	-46.9	-48.3	19.5	0.00e+00	0	43	0	816840704	65	4220
2026-01-27 00:54:21.94	211.65	75.64	-47.5	-49.1	18.8	0.00e+00	0	43	0	817889280	65	4606
2026-01-27 00:54:22.95	211.49	75.15	-47.3	-48.9	18.8	0.00e+00	0	43	0	819986432	66	4256
2026-01-27 00:54:23.96	211.34	74.66	-47.3	-48.9	19.1	0.00e+00	0	43	0	822083584	65	4499
2026-01-27 00:54:24.97	211.20	74.17	-47.1	-48.5	19.3	0.00e+00	0	43	0	824180736	65	4339
2026-01-27 00:54:25.97	211.07	73.69	-46.6	-47.9	19.8	0.00e+00	0	43	0	826277888	65	4049
2026-01-27 00:54:26.98	210.94	73.21	-46.1	-47.4	20.2	0.00e+00	0	43	0	828375040	64	4025
2026-01-27 00:54:27.99	210.82	72.73	-47.8	-49.5	18.4	0.00e+00	0	43	0	829423616	66	4572
2026-01-27 00:54:28.99	210.71	72.25	-49.3	-51.5	16.6	0.00e+00	0	43	0	831520768	69	4849
2026-01-27 00:54:30.00	210.61	71.78	-49.8	-52.3	15.8	0.00e+00	0	43	0	833617920	71	4752
2026-01-27 00:54:31.01	210.51	71.30	-50.7	-53.8	14.3	0.00e+00	0	43	0	835715072	71	5631
2026-01-27 00:54:32.02	210.42	70.83	-51.5	-55.6	12.4	6.10e-06	0	43	0	837812224	73	6147
2026-01-27 00:54:33.02	210.33	70.36	-51.8	-56.3	11.6	1.04e-03	0	43	0	838860800	74	6294
2026-01-27 00:54:34.03	210.25	69.89	-49.9	-52.4	15.3	6.80e-06	0	43	0	840957952	71	4808
2026-01-27 00:54:35.04	210.17	69.43	-47.0	-48.4	19.3	0.00e+00	0	43	0	843055104	65	4254
2026-01-27 00:54:36.05	210.09	68.96	-46.5	-47.8	19.8	0.00e+00	0	43	0	845152256	65	3999
2026-01-27 00:54:37.05	210.02	68.50	-46.3	-47.6	20.1	0.00e+00	0	43	0	846200832	64	4103
2026-01-27 00:54:38.06	209.95	68.04	-46.3	-47.6	19.9	0.00e+00	0	43	0	848297984	64	4144
2026-01-27 00:54:39.07	209.89	67.59	-46.4	-47.7	19.9	0.00e+00	0	43	0	850395136	64	4180
2026-01-27 00:54:40.08	209.83	67.13	-46.1	-47.4	20.3	0.00e+00	0	43	0	852492288	64	4019
2026-01-27 00:54:41.08	209.77	66.68	-45.5	-46.7	20.9	0.00e+00	0	43	0	854589440	63	3956
2026-01-27 00:54:42.09	209.71	66.23	-45.0	-46.1	21.4	0.00e+00	0	43	0	856686592	62	3886
2026-01-27 00:54:43.10	209.66	65.79	-44.7	-45.8	21.8	0.00e+00	0	43	0	857735168	61	3975
2026-01-27 00:54:44.10	209.60	65.34	-44.1	-45.1	22.3	0.00e+00	0	43	0	859832320	60	3880
2026-01-27 00:54:45.11	209.55	64.90	-44.0	-45.0	22.6	0.00e+00	0	43	0	861929472	59	4087
2026-01-27 00:54:46.11	209.51	64.47	-44.4	-45.4	22.3	0.00e+00	0	43	0	864026624	59	4263
2026-01-27 00:54:47.12	209.46	64.03	-44.8	-45.8	21.7	0.00e+00	0	43	0	866123776	60	4226
2026-01-27 00:54:48.13	209.42	63.59	-45.1	-46.3	21.4	0.00e+00	0	43	0	867172352	60	4448
2026-01-27 00:54:49.13	209.38	63.17	-44.5	-45.6	21.9	0.00e+00	0	43	0	869269504	60	4106
2026-01-27 00:54:50.14	209.33	62.74	-44.6	-45.6	21.8	0.00e+00	0	43	0	871366656	60	4144
2026-01-27 00:54:51.15	209.30	62.31	-44.5	-45.6	22.1	0.00e+00	0	43	0	873463808	59	4371
2026-01-27 00:54:52.16	209.26	61.88	-43.9	-44.9	22.7	0.00e+00	0	43	0	874512384	59	4016
2026-01-27 00:54:53.16	209.22	61.47	-44.6	-45.6	22.1	0.00e+00	0	43	0	876609536	59	4390
2026-01-27 00:54:54.17	209.19	61.05	-46.6	-48.1	19.8	0.00e+00	0	43	0	878706688	63	4604
2026-01-27 00:54:55.18	209.15	60.63	-47.6	-49.3	18.5	0.00e+00	0	43	0	880803840	65	4735
2026-01-27 00:54:56.19	209.12	60.21	-48.5	-50.6	17.1	0.00e+00	0	43	0	882900992	67	4898
2026-01-27 00:54:57.20	209.09	59.80	-47.7	-49.3	18.4	0.00e+00	0	43	0	884998144	67	4219
2026-01-27 00:54:58.21	209.06	59.39	-47.4	-48.9	18.8	0.00e+00	0	43	0	886046720	66	4285
2026-01-27 00:54:59.21	209.03	58.99	-46.7	-48.2	19.4	0.00e+00	0	43	0	888143872	65	4167
2026-01-27 00:55:00.22	209.00	58.59	-46.0	-47.3	20.3	0.00e+00	0	43	0	890241024	63	4219
2026-01-27 00:55:01.23	208.98	58.19	-44.2	-45.2	22.2	0.00e+00	0	43	0	892338176	60	3950
2026-01-27 00:55:02.23	208.95	57.79	-44.5	-45.5	22.1	0.00e+00	0	43	0	894435328	59	4332
2026-01-27 00:55:03.24	208.92	57.40	-44.6	-45.7	21.7	0.00e+00	0	43	0	895483904	60	4158
2026-01-27 00:55:04.24	208.90	57.01	-44.4	-45.4	21.9	0.00e+00	0	43	0	897581056	60	4042
2026-01-27 00:55:05.25	208.88	56.62	-44.7	-45.7	21.7	0.00e+00	0	43	0	899678208	60	4186
2026-01-27 00:55:06.26	208.85	56.23	-44.4	-45.5	21.9	0.00e+00	0	43	0	901775360	60	4056
2026-01-27 00:55:07.27	208.83	55.85	-43.4	-44.3	23.1	0.00e+00	0	43	0	902823936	58	3987
2026-01-27 00:55:08.28	208.81	55.47	-43.1	-44.0	23.4	0.00e+00	0	43	0	904921088	58	3833
2026-01-27 00:55:09.28	208.79	55.09	-43.5	-44.5	23.0	0.00e+00	0	43	0	907018240	58	4065
2026-01-27 00:55:10.29	208.77	54.71	-44.8	-45.9	21.6	0.00e+00	0	43	0	909115392	60	4272
2026-01-27 00:55:11.30	208.75	54.34	-46.1	-47.4	20.2	0.00e+00	0	43	0	911212544	62	4544
2026-01-27 00:55:12.30	208.73	53.97	-46.5	-47.9	19.8	0.00e+00	0	43	0	913309696	63	4519
2026-01-27 00:55:13.31	208.71	53.60	-45.8	-47.0	20.5	0.00e+00	0	43	0	914358272	63	4096
2026-01-27 00:55:14.32	208.69	53.24	-45.3	-46.4	21.0	0.00e+00	0	43	0	916455424	62	4050
2026-01-27 00:55:15.33	208.68	52.88	-45.4	-46.5	21.0	0.00e+00	0	43	0	918552576	62	4070
2026-01-27 00:55:16.34	208.66	52.51	-45.9	-47.2	20.4	0.00e+00	0	43	0	920649728	62	4413
2026-01-27 00:55:17.34	208.64	52.16	-47.7	-49.5	18.2	0.00e+00	0	43	0	922746880	66	4591
2026-01-27 00:55:18.35	208.63	51.80	-49.7	-52.5	15.5	0.00e+00	0	43	0	923795456	69	5414
2026-01-27 00:55:19.36	208.61	51.45	-50.0	-52.9	14.9	0.00e+00	0	43	0	925892608	70	5388
2026-01-27 00:55:20.37	208.60	51.10	-47.7	-49.5	18.1	0.00e+00	0	43	0	927989760	67	4327
2026-01-27 00:55:21.37	208.58	50.76	-45.8	-47.1	20.4	0.00e+00	0	43	0	930086912	63	4122
2026-01-27 00:55:22.39	208.57	50.41	-45.5	-46.7	20.8	0.00e+00	0	43	0	932184064	62	4162
2026-01-27 00:55:23.40	208.55	50.07	-46.4	-47.8	19.8	0.00e+00	0	43	0	933232640	63	4451
2026-01-27 00:55:24.40	208.54	49.73	-46.2	-47.5	20.0	0.00e+00	0	43	0	935329792	64	4091
2026-01-27 00:55:25.41	208.53	49.39	-45.3	-46.4	20.9	0.00e+00	0	43	0	937426944	62	4034
2026-01-27 00:55:26.42	208.52	49.06	-45.9	-47.1	20.5	0.00e+00	0	43	0	939524096	62	4374
2026-01-27 00:55:27.43	208.50	48.72	-48.1	-49.9	17.9	0.00e+00	0	43	0	941621248	66	4814
2026-01-27 00:55:28.44	208.49	48.39	-49.8	-52.5	15.3	0.00e+00	0	43	0	942669824	70	5157
2026-01-27 00:55:29.45	208.48	48.07	-49.5	-52.0	15.8	0.00e+00	0	43	0	944766976	71	4566
2026-01-27 00:55:30.46	208.47	47.74	-47.0	-48.5	18.8	0.00e+00	0	43	0	946864128	66	4090
2026-01-27 00:55:31.47	208.46	47.42	-45.5	-46.7	20.7	0.00e+00	0	43	0	948961280	63	3926
2026-01-27 00:55:32.47	208.45	47.10	-44.7	-45.7	21.6	0.00e+00	0	43	0	951058432	61	3950
2026-01-27 00:55:33.47	208.44	46.79	-44.9	-46.0	21.4	0.00e+00	0	43	0	953155584	60	4302
2026-01-27 00:55:34.48	208.43	46.47	-45.1	-46.2	21.2	0.00e+00	0	43	0	954204160	61	4177
2026-01-27 00:55:35.48	208.42	46.16	-46.2	-47.5	20.0	0.00e+00	0	43	0	956301312	62	4562
2026-01-27 00:55:36.49	208.41	45.85	-47.3	-48.9	18.6	0.00e+00	0	43	0	958398464	65	4537
2026-01-27 00:55:37.50	208.40	45.54	-49.9	-52.7	15.1	0.00e+00	0	43	0	960495616	70	5264
2026-01-27 00:55:38.51	208.39	45.24	-51.1	-55.1	11.4	1.10e-04	0	43	0	961544192	73	5802
2026-01-27 00:55:39.51	208.38	44.94	-50.7	-54.3	13.4	6.10e-06	0	43	0	963641344	72	5611
2026-01-27 00:55:40.52	208.37	44.64	-49.3	-51.7	16.0	0.00e+00	0	43	0	965738496	70	4665
2026-01-27 00:55:41.53	208.36	44.34	-48.2	-50.1	17.5	0.00e+00	0	43	0	967835648	68	4368
2026-01-27 00:55:42.53	208.36	44.04	-46.8	-48.3	19.2	0.00e+00	0	43	0	969932800	65	4217
2026-01-27 00:55:43.54	208.35	43.75	-46.9	-48.4	19.1	0.00e+00	0	43	0	970981376	64	4510
2026-01-27 00:55:44.55	208.34	43.45	-47.8	-49.6	18.0	0.00e+00	0	43	0	973078528	66	4614
2026-01-27 00:55:45.56	208.33	43.16	-48.0	-49.8	17.8	0.00e+00	0	43	0	975175680	66	4749
2026-01-27 00:55:46.57	208.33	42.88	-48.0	-49.9	17.6	0.00e+00	0	43	0	977272832	67	4516
2026-01-27 00:55:47.57	208.32	42.59	-48.9	-51.2	16.5	0.00e+00	0	43	0	979369984	68	4956
2026-01-27 00:55:48.58	208.31	42.31	-50.2	-53.3	14.4	0.00e+00	0	43	0	981467136	70	5653
2026-01-27 00:55:49.59	208.31	42.03	-50.7	-54.5	13.2	2.51e-05	0	43	0	982515712	72	5785
2026-01-27 00:55:50.59	208.30	41.75	-51.5	-56.5	11.0	6.17e-05	0	43	0	984612864	73	6842
2026-01-27 00:55:51.60	208.29	41.47	-51.3	-55.8	11.8	1.04e-03	0	43	0	986710016	73	6320
2026-01-27 00:55:52.61	208.29	41.20	-50.0	-53.1	14.4	6.10e-06	0	43	0	988807168	72	4892
2026-01-27 00:55:53.62	208.28	40.93	-49.0	-51.4	16.3	0.00e+00	0	43	0	989855744	70	4520
2026-01-27 00:55:54.63	208.27	40.66	-48.0	-49.9	17.6	0.00e+00	0	43	0	991952896	67	4509
2026-01-27 00:55:55.64	208.27	40.39	-46.7	-48.2	19.1	0.00e+00	0	43	0	994050048	65	4191
2026-01-27 00:55:56.65	208.26	40.12	-46.2	-47.5	20.0	0.00e+00	0	43	0	996147200	63	4331
2026-01-27 00:55:57.66	208.26	39.85	-45.8	-47.1	20.3	0.00e+00	0	43	0	998244352	63	4131
2026-01-27 00:55:58.67	208.25	39.59	-46.2	-47.5	20.0	0.00e+00	0	43	0	999292928	63	4329
2026-01-27 00:55:59.67	208.25	39.33	-47.1	-48.6	18.8	0.00e+00	0	43	0	1001390080	64	4635
2026-01-27 00:56:00.68	208.24	39.07	-48.3	-50.3	17.3	0.00e+00	0	43	0	1003487232	67	4714
2026-01-27 00:56:01.69	208.24	38.82	-49.3	-51.6	16.1	0.00e+00	0	43	0	1005584384	69	4917
2026-01-27 00:56:02.69	208.23	38.56	-49.1	-51.4	16.4	0.00e+00	0	43	0	1007681536	69	4780
2026-01-27 00:56:03.70	208.23	38.31	-49.5	-52.0	15.6	0.00e+00	0	43	0	1009778688	69	5155
2026-01-27 00:56:04.71	208.22	38.06	-49.4	-51.9	15.8	0.00e+00	0	43	0	1010827264	70	4783
2026-01-27 00:56:05.72	208.22	37.81	-48.5	-50.6	16.9	0.00e+00	0	43	0	1012924416	69	4370
2026-01-27 00:56:06.73	208.22	37.56	-48.3	-50.4	17.1	0.00e+00	0	43	0	1015021568	68	4510
2026-01-27 00:56:07.74	208.21	37.31	-47.8	-49.6	17.8	0.00e+00	0	43	0	1017118720	67	4390
2026-01-27 00:56:08.74	208.21	37.07	-47.7	-49.5	17.9	0.00e+00	0	43	0	1018167296	67	4317
2026-01-27 00:56:09.75	208.20	36.83	-47.3	-49.0	18.5	0.00e+00	0	43	0	1020264448	66	4295
2026-01-27 00:56:10.76	208.20	36.59	-47.5	-49.1	18.4	0.00e+00	0	43	0	1022361600	66	4386
2026-01-27 00:56:11.77	208.20	36.35	-46.8	-48.3	19.1	0.00e+00	0	43	0	1024458752	65	4209
2026-01-27 00:56:12.77	208.19	36.12	-46.6	-48.0	19.3	0.00e+00	0	43	0	1026555904	65	4093
2026-01-27 00:56:13.78	208.19	35.88	-46.8	-48.2	19.1	0.00e+00	0	43	0	1028653056	65	4191
2026-01-27 00:56:14.78	208.19	35.65	-46.7	-48.2	19.2	0.00e+00	0	43	0	1029701632	65	4170
2026-01-27 00:56:15.79	208.18	35.42	-46.6	-48.0	19.1	0.00e+00	0	43	0	1031798784	65	4085
2026-01-27 00:56:16.80	208.18	35.19	-47.2	-48.8	18.5	0.00e+00	0	43	0	1033895936	65	4470
2026-01-27 00:56:17.80	208.18	34.96	-48.2	-50.1	17.3	0.00e+00	0	43	0	1035993088	66	4914
2026-01-27 00:56:18.81	208.17	34.73	-48.3	-50.3	17.2	0.00e+00	0	43	0	1038090240	67	4741
2026-01-27 00:56:19.81	208.17	34.51	-50.2	-53.2	14.4	0.00e+00	0	43	0	1039138816	70	5542
2026-01-27 00:56:20.82	208.17	34.29	-50.9	-54.7	12.8	7.60e-06	0	43	0	1041235968	72	5918
2026-01-27 00:56:21.83	208.17	34.06	-51.2	-55.4	12.2	1.60e-04	0	43	0	1043333120	73	6049
2026-01-27 00:56:22.83	208.16	33.85	-51.6	-56.3	11.1	2.04e-03	0	43	0	1045430272	74	6319
2026-01-27 00:56:23.84	208.16	33.63	-51.5	-56.1	11.6	5.44e-04	0	43	0	1046478848	74	6156
2026-01-27 00:56:24.85	208.16	33.41	-50.7	-54.3	13.3	1.29e-05	0	43	0	1048576000	72	5621
2026-01-27 00:56:25.85	208.16	33.20	-49.2	-51.6	15.9	0.00e+00	0	43	0	1050673152	70	4644
2026-01-27 00:56:26.86	208.15	32.98	-48.6	-50.7	16.8	0.00e+00	0	43	0	1052770304	69	4415
2026-01-27 00:56:27.87	208.15	32.77	-47.1	-48.7	18.6	0.00e+00	0	43	0	1054867456	66	4183
2026-01-27 00:56:28.87	208.15	32.56	-46.6	-48.1	19.2	0.00e+00	0	43	0	1056964608	65	4131
2026-01-27 00:56:29.88	208.15	32.35	-46.6	-48.1	19.2	0.00e+00	0	43	0	1058013184	65	4118
2026-01-27 00:56:30.89	208.15	32.14	-46.7	-48.2	19.0	0.00e+00	0	43	0	1060110336	65	4187
2026-01-27 00:56:31.90	208.14	31.93	-47.2	-48.9	18.6	0.00e+00	0	43	0	1062207488	65	4527
2026-01-27 00:56:32.90	208.14	31.73	-47.3	-49.0	18.4	0.00e+00	0	43	0	1064304640	65	4586
2026-01-27 00:56:33.91	208.14	31.53	-47.8	-49.7	17.8	0.00e+00	0	43	0	1066401792	66	4658
2026-01-27 00:56:34.91	208.14	31.32	-47.9	-49.8	17.6	0.00e+00	0	43	0	1067450368	66	4712
2026-01-27 00:56:35.92	208.14	31.12	-47.9	-49.7	17.7	0.00e+00	0	43	0	1069547520	66	4686
2026-01-27 00:56:36.93	208.14	30.92	-47.5	-49.2	18.1	0.00e+00	0	43	0	1071644672	66	4416
2026-01-27 00:56:37.94	208.13	30.72	-47.8	-49.6	17.7	0.00e+00	0	43	0	1073741824	66	4627
2026-01-27 00:56:38.95	208.13	30.53	-47.6	-49.4	17.9	0.00e+00	0	43	0	1074790400	66	4527
2026-01-27 00:56:39.95	208.13	30.33	-48.0	-49.9	17.4	0.00e+00	0	43	0	1076887552	66	4813
2026-01-27 00:56:40.96	208.13	30.14	-48.6	-50.8	16.6	0.00e+00	0	43	0	1078984704	67	4991
2026-01-27 00:56:41.97	208.13	29.94	-49.3	-51.7	15.8	0.00e+00	0	43	0	1081081856	69	4980
2026-01-27 00:56:42.98	208.13	29.75	-49.6	-52.2	15.3	0.00e+00	0	43	0	1083179008	69	5268
2026-01-27 00:56:43.99	208.13	29.56	-50.1	-53.1	14.4	0.00e+00	0	43	0	1085276160	70	5520
2026-01-27 00:56:45.00	208.13	29.37	-50.5	-53.9	13.6	2.20e-06	0	43	0	1086324736	71	5688
2026-01-27 00:56:46.00	208.12	29.19	-50.4	-53.7	13.8	3.00e-06	0	43	0	1088421888	72	5239
2026-01-27 00:56:47.01	208.12	29.00	-50.0	-53.0	14.4	7.00e-07	0	43	0	1090519040	72	4861
2026-01-27 00:56:48.02	208.12	28.81	-49.5	-52.1	15.4	0.00e+00	0	43	0	1092616192	71	4647
2026-01-27 00:56:49.03	208.12	28.63	-48.6	-50.8	16.6	0.00e+00	0	43	0	1094713344	69	4481
2026-01-27 00:56:50.04	208.12	28.45	-47.8	-49.6	17.7	0.00e+00	0	43	0	1095761920	67	4388
2026-01-27 00:56:51.05	208.12	28.26	-46.8	-48.4	18.8	0.00e+00	0	43	0	1097859072	65	4265
2026-01-27 00:56:52.06	208.12	28.08	-46.5	-48.0	19.2	0.00e+00	0	43	0	1099956224	65	4097
2026-01-27 00:56:53.06	208.12	27.90	-46.0	-47.5	19.7	0.00e+00	0	43	0	1102053376	64	4054
2026-01-27 00:56:54.07	208.12	27.73	-45.7	-47.0	20.2	0.00e+00	0	43	0	1103101952	63	4089
2026-01-27 00:56:55.08	208.12	27.55	-45.6	-46.9	20.3	0.00e+00	0	43	0	1105199104	63	4030
2026-01-27 00:56:56.09	208.12	27.37	-45.4	-46.7	20.5	0.00e+00	0	43	0	1107296256	62	4148
2026-01-27 00:56:57.10	208.12	27.20	-45.5	-46.8	20.4	0.00e+00	0	43	0	1109393408	62	4221
2026-01-27 00:56:58.10	208.12	27.02	-45.4	-46.6	20.5	0.00e+00	0	43	0	1111490560	62	4119
2026-01-27 00:56:59.11	208.12	26.85	-45.3	-46.5	20.6	0.00e+00	0	43	0	1113587712	61	4333
2026-01-27 00:57:00.12	208.12	26.68	-45.0	-46.2	20.9	0.00e+00	0	43	0	1114636288	61	4148
2026-01-27 00:57:01.13	208.12	26.51	-45.0	-46.2	20.9	0.00e+00	0	43	0	1116733440	61	4179
2026-01-27 00:57:02.13	208.11	26.34	-45.2	-46.4	20.7	0.00e+00	0	43	0	1118830592	61	4272
2026-01-27 00:57:03.14	208.11	26.17	-45.2	-46.4	20.7	0.00e+00	0	43	0	1120927744	61	4270
2026-01-27 00:57:04.15	208.11	26.00	-45.2	-46.4	20.7	0.00e+00	0	43	0	1123024896	61	4262
2026-01-27 00:57:05.16	208.11	25.84	-45.3	-46.6	20.5	0.00e+00	0	43	0	1124073472	61	4342
2026-01-27 00:57:06.17	208.11	25.67	-45.4	-46.7	20.5	0.00e+00	0	43	0	1126170624	61	4405
2026-01-27 00:57:07.18	208.11	25.51	-45.5	-46.8	20.3	0.00e+00	0	43	0	1128267776	61	4489
2026-01-27 00:57:08.18	208.11	25.35	-45.7	-47.0	20.1	0.00e+00	0	43	0	1130364928	61	4582
2026-01-27 00:57:09.19	208.11	25.18	-46.0	-47.4	19.9	0.00e+00	0	43	0	1132462080	62	4498
2026-01-27 00:57:10.20	208.11	25.02	-46.0	-47.3	19.8	0.00e+00	0	43	0	1133510656	62	4491
2026-01-27 00:57:11.21	208.11	24.86	-45.9	-47.2	19.9	0.00e+00	0	43	0	1135607808	63	4191
2026-01-27 00:57:12.22	208.11	24.70	-46.1	-47.5	19.6	0.00e+00	0	43	0	1137704960	63	4334
2026-01-27 00:57:13.21	208.11	24.55	-46.0	-47.4	19.7	0.00e+00	0	43	0	1139802112	63	4275
2026-01-27 00:57:14.22	208.11	24.39	-45.9	-47.3	19.9	0.00e+00	0	43	0	1141899264	63	4205
2026-01-27 00:57:15.23	208.12	24.23	-45.7	-47.0	20.1	0.00e+00	0	43	0	1142947840	63	4092
2026-01-27 00:57:16.24	208.12	24.08	-45.9	-47.3	19.9	0.00e+00	0	43	0	1145044992	63	4198
2026-01-27 00:57:17.25	208.12	23.92	-45.7	-47.1	20.0	0.00e+00	0	43	0	1147142144	63	4107
2026-01-27 00:57:18.26	208.12	23.77	-45.4	-46.7	20.4	0.00e+00	0	43	0	1149239296	62	4153
2026-01-27 00:57:19.27	208.12	23.61	-45.8	-47.2	19.8	0.00e+00	0	43	0	1151336448	62	4420
2026-01-27 00:57:20.26	208.12	23.46	-45.8	-47.2	19.9	0.00e+00	0	43	0	1152385024	62	4431
2026-01-27 00:57:21.27	208.12	23.31	-45.9	-47.3	19.8	0.00e+00	0	43	0	1154482176	62	4465
2026-01-27 00:57:22.28	208.12	23.16	-46.1	-47.5	19.6	0.00e+00	0	43	0	1156579328	62	4567
2026-01-27 00:57:23.29	208.12	23.01	-46.0	-47.3	19.8	0.00e+00	0	43	0	1158676480	62	4492
2026-01-27 00:57:24.30	208.12	22.86	-46.2	-47.7	19.5	0.00e+00	0	43	0	1160773632	63	4416
2026-01-27 00:57:25.31	208.12	22.72	-46.2	-47.6	19.5	0.00e+00	0	43	0	1161822208	63	4374
2026-01-27 00:57:26.32	208.12	22.57	-46.1	-47.5	19.6	0.00e+00	0	43	0	1163919360	63	4311
2026-01-27 00:57:27.33	208.12	22.42	-46.0	-47.4	19.7	0.00e+00	0	43	0	1166016512	63	4286
2026-01-27 00:57:28.33	208.12	22.28	-45.7	-47.0	20.1	0.00e+00	0	43	0	1168113664	63	4093
2026-01-27 00:57:29.34	208.12	22.13	-45.5	-46.8	20.3	0.00e+00	0	43	0	1170210816	62	4202
2026-01-27 00:57:30.35	208.12	21.99	-45.0	-46.2	20.7	0.00e+00	0	43	0	1171259392	62	3945
2026-01-27 00:57:31.36	208.12	21.85	-45.1	-46.3	20.7	0.00e+00	0	43	0	1173356544	62	3961
2026-01-27 00:57:32.37	208.12	21.71	-44.7	-45.8	21.1	0.00e+00	0	43	0	1175453696	61	3994
2026-01-27 00:57:33.38	208.12	21.56	-44.6	-45.8	21.2	0.00e+00	0	43	0	1177550848	60	4195
2026-01-27 00:57:34.38	208.13	21.43	-44.6	-45.7	21.2	0.00e+00	0	43	0	1179648000	60	4173
2026-01-27 00:57:35.39	208.13	21.29	-44.3	-45.4	21.4	0.00e+00	0	43	0	1180696576	60	4031
2026-01-27 00:57:36.39	208.13	21.15	-44.5	-45.6	21.2	0.00e+00	0	43	0	1182793728	60	4131
2026-01-27 00:57:37.40	208.13	21.01	-44.6	-45.8	21.1	0.00e+00	0	43	0	1184890880	60	4216
2026-01-27 00:57:38.41	208.13	20.87	-44.6	-45.8	21.1	0.00e+00	0	43	0	1186988032	60	4222
2026-01-27 00:57:39.42	208.13	20.74	-44.6	-45.7	21.1	0.00e+00	0	43	0	1189085184	60	4187
2026-01-27 00:57:40.42	208.13	20.60	-44.6	-45.8	21.1	0.00e+00	0	43	0	1190133760	60	4200
2026-01-27 00:57:41.43	208.13	20.47	-44.6	-45.7	21.1	0.00e+00	0	43	0	1192230912	60	4190
2026-01-27 00:57:42.44	208.13	20.33	-44.9	-46.1	20.8	0.00e+00	0	43	0	1194328064	60	4386
2026-01-27 00:57:43.45	208.13	20.20	-45.0	-46.2	20.7	0.00e+00	0	43	0	1196425216	60	4434
2026-01-27 00:57:44.46	208.13	20.06	-45.0	-46.3	20.6	0.00e+00	0	43	0	1198522368	60	4462
2026-01-27 00:57:45.47	208.14	19.93	-45.0	-46.3	20.7	0.00e+00	0	43	0	1199570944	60	4446
2026-01-27 00:57:46.47	208.14	19.80	-45.1	-46.3	20.6	0.00e+00	0	43	0	1201668096	60	4478
2026-01-27 00:57:47.48	208.14	19.67	-45.1	-46.3	20.6	0.00e+00	0	43	0	1203765248	61	4224
2026-01-27 00:57:48.49	208.14	19.54	-45.1	-46.4	20.5	0.00e+00	0	43	0	1205862400	61	4252
2026-01-27 00:57:49.50	208.14	19.41	-45.1	-46.4	20.5	0.00e+00	0	43	0	1207959552	61	4267
2026-01-27 00:57:50.50	208.14	19.28	-45.4	-46.7	20.2	0.00e+00	0	43	0	1209008128	61	4429
2026-01-27 00:57:51.51	208.14	19.15	-45.3	-46.6	20.4	0.00e+00	0	43	0	1211105280	61	4366
2026-01-27 00:57:52.52	208.14	19.03	-45.6	-46.9	20.0	0.00e+00	0	43	0	1213202432	61	4525
2026-01-27 00:57:53.53	208.14	18.90	-45.6	-47.0	20.0	0.00e+00	0	43	0	1215299584	61	4563
2026-01-27 00:57:54.54	208.15	18.77	-45.9	-47.3	19.7	0.00e+00	0	43	0	1217396736	62	4489
2026-01-27 00:57:55.55	208.15	18.65	-46.0	-47.4	19.6	0.00e+00	0	43	0	1218445312	62	4509
2026-01-27 00:57:56.55	208.15	18.52	-46.2	-47.7	19.4	0.00e+00	0	43	0	1220542464	62	4657
2026-01-27 00:57:57.56	208.15	18.40	-46.3	-47.8	19.3	0.00e+00	0	43	0	1222639616	63	4445
2026-01-27 00:57:58.57	208.15	18.28	-46.5	-48.1	18.9	0.00e+00	0	43	0	1224736768	63	4624
2026-01-27 00:57:59.58	208.15	18.15	-46.7	-48.3	18.7	0.00e+00	0	43	0	1226833920	64	4462
2026-01-27 00:58:00.59	208.15	18.03	-46.7	-48.3	18.6	0.00e+00	0	43	0	1228931072	64	4487
2026-01-27 00:58:01.60	208.16	17.91	-47.1	-48.8	18.2	0.00e+00	0	43	0	1229979648	64	4733
2026-01-27 00:58:02.61	208.16	17.79	-46.9	-48.6	18.4	0.00e+00	0	43	0	1232076800	64	4617
2026-01-27 00:58:03.61	208.16	17.67	-47.0	-48.7	18.3	0.00e+00	0	43	0	1234173952	64	4682
2026-01-27 00:58:04.62	208.16	17.55	-47.1	-48.9	18.1	0.00e+00	0	43	0	1236271104	65	4522
2026-01-27 00:58:05.62	208.16	17.43	-47.0	-48.7	18.3	0.00e+00	0	43	0	1237319680	65	4398
2026-01-27 00:58:06.63	208.16	17.31	-47.0	-48.7	18.3	0.00e+00	0	43	0	1239416832	65	4412
2026-01-27 00:58:07.64	208.16	17.19	-47.0	-48.7	18.2	0.00e+00	0	43	0	1241513984	65	4441
2026-01-27 00:58:08.65	208.17	17.07	-46.7	-48.3	18.6	0.00e+00	0	43	0	1243611136	65	4238
2026-01-27 00:58:09.66	208.17	16.96	-46.5	-48.1	18.8	0.00e+00	0	43	0	1245708288	65	4101
2026-01-27 00:58:10.67	208.17	16.84	-46.4	-48.0	19.0	0.00e+00	0	43	0	1247805440	64	4300
2026-01-27 00:58:11.68	208.17	16.72	-46.4	-47.9	18.9	0.00e+00	0	43	0	1248854016	64	4263
2026-01-27 00:58:12.69	208.17	16.61	-46.2	-47.7	19.0	0.00e+00	0	43	0	1250951168	64	4179
2026-01-27 00:58:13.70	208.17	16.49	-46.1	-47.6	19.2	0.00e+00	0	43	0	1253048320	64	4124
2026-01-27 00:58:14.71	208.17	16.38	-46.0	-47.4	19.4	0.00e+00	0	43	0	1255145472	64	4049
2026-01-27 00:58:15.72	208.18	16.26	-46.0	-47.4	19.5	0.00e+00	0	43	0	1257242624	63	4285
