passes_logs/2026/01/27/R3.2S_Murmansk/R3.2S_Murmansk__20260127_032356_FENGYUN_3D_rec.log

#Pass ID: 20260127_032356_FENGYUN 3D
#Satellite: FENGYUN 3D
#Configuration: FENGYUN 3D
#almurnet v.1.7.20251203
#Start time: 2026-01-27 03:23:56

#Version: 2.2.20231116
#Station: R3.2S_Murmansk
#Location: 33.079688 lon 68.888172 lat
#TLE: 1 43010U 17072A   26026.49129444  .00000151  00000+0  93391-4 0  9993
#TLE: 2 43010  98.9962 358.4866 0002525  88.1664 271.9801 14.19700337424889

#Time	Az	El	Level	Level2	SNR	BER	BlckErr	Temp	State	Recorded	gain1	gain2
2026-01-27 03:23:56.86	27.68	2.02	-54.1	-66.0	3.8	8.48e-01	0	41	0	0	79	14533
2026-01-27 03:23:57.86	27.67	2.08	-54.1	-66.1	3.8	8.47e-01	0	41	104	0	78	15474
2026-01-27 03:23:58.87	27.66	2.15	-54.1	-66.0	3.8	8.47e-01	0	41	104	0	78	15401
2026-01-27 03:23:59.88	27.65	2.21	-54.1	-66.1	3.8	8.46e-01	0	41	104	0	78	15429
2026-01-27 03:24:00.89	27.63	2.28	-54.1	-66.1	3.8	8.47e-01	0	41	104	0	78	15413
2026-01-27 03:24:01.89	27.62	2.34	-54.1	-66.0	3.8	8.46e-01	0	41	104	0	78	15350
2026-01-27 03:24:02.91	27.61	2.41	-54.1	-66.0	3.8	8.46e-01	0	41	104	0	78	15390
2026-01-27 03:24:03.91	27.60	2.47	-54.1	-66.0	3.8	8.47e-01	0	41	104	0	78	15365
2026-01-27 03:24:04.92	27.59	2.54	-54.1	-66.0	3.8	8.46e-01	0	41	104	0	78	15341
2026-01-27 03:24:05.93	27.58	2.60	-54.1	-66.0	3.8	8.46e-01	0	41	104	0	78	15334
2026-01-27 03:24:06.93	27.56	2.67	-54.1	-66.0	3.8	8.47e-01	0	41	104	0	78	15372
2026-01-27 03:24:07.94	27.55	2.73	-54.2	-66.1	3.8	8.46e-01	0	41	104	0	78	15542
2026-01-27 03:24:08.95	27.54	2.80	-54.2	-66.1	3.8	8.47e-01	0	41	104	0	78	15576
2026-01-27 03:24:09.96	27.53	2.87	-54.2	-66.2	3.8	8.47e-01	0	41	104	0	79	14763
2026-01-27 03:24:10.97	27.52	2.93	-54.2	-66.1	3.8	8.47e-01	0	41	104	0	79	14707
2026-01-27 03:24:11.98	27.50	3.00	-54.2	-66.2	3.8	8.46e-01	0	41	104	0	79	14731
2026-01-27 03:24:12.99	27.49	3.07	-54.2	-66.2	3.8	8.46e-01	0	41	104	0	79	14732
2026-01-27 03:24:14.00	27.48	3.13	-54.2	-66.2	3.8	8.46e-01	0	41	104	0	79	14710
2026-01-27 03:24:15.01	27.47	3.20	-54.2	-66.1	3.8	8.45e-01	0	41	104	0	79	14691
2026-01-27 03:24:16.02	27.45	3.27	-54.2	-66.1	3.8	8.46e-01	0	41	104	0	79	14628
2026-01-27 03:24:17.03	27.44	3.33	-54.1	-66.1	3.8	8.47e-01	0	41	104	0	79	14558
2026-01-27 03:24:18.03	27.43	3.40	-54.1	-66.0	3.8	8.46e-01	0	41	104	0	79	14522
2026-01-27 03:24:19.04	27.41	3.47	-54.1	-66.1	3.8	8.45e-01	0	41	104	0	79	14551
2026-01-27 03:24:20.04	27.40	3.54	-54.1	-66.0	3.8	8.44e-01	0	41	104	0	79	14502
2026-01-27 03:24:21.05	27.39	3.60	-54.0	-66.0	3.8	8.47e-01	0	42	104	0	79	14447
2026-01-27 03:24:22.06	27.38	3.67	-53.9	-65.9	3.8	8.46e-01	0	42	104	0	79	14269
2026-01-27 03:24:23.07	27.36	3.74	-53.9	-65.8	3.8	8.46e-01	0	41	104	0	79	14174
2026-01-27 03:24:24.07	27.35	3.81	-53.8	-65.7	3.8	8.46e-01	0	42	104	0	79	14017
2026-01-27 03:24:25.08	27.34	3.88	-53.7	-65.6	3.8	8.46e-01	0	42	104	0	79	13839
2026-01-27 03:24:26.09	27.32	3.95	-53.6	-65.5	3.8	8.46e-01	0	42	104	0	79	13678
2026-01-27 03:24:27.10	27.31	4.01	-53.4	-65.3	3.8	8.45e-01	0	41	104	0	78	14117
2026-01-27 03:24:28.10	27.30	4.08	-53.2	-65.1	3.8	8.46e-01	0	42	104	0	78	13783
2026-01-27 03:24:29.11	27.28	4.15	-52.8	-64.6	3.8	8.46e-01	0	42	104	0	77	13731
2026-01-27 03:24:30.12	27.27	4.22	-51.9	-60.0	4.0	8.45e-01	0	42	104	0	75	9171
2026-01-27 03:24:31.13	27.25	4.29	-47.9	-50.2	12.8	6.75e-05	0	42	0	3145728	67	4655
2026-01-27 03:24:32.13	27.24	4.36	-47.4	-49.5	13.5	9.10e-06	0	42	0	8388608	66	4575
2026-01-27 03:24:33.14	27.23	4.43	-47.0	-49.0	14.1	4.50e-06	0	42	0	14680064	66	4297
2026-01-27 03:24:34.15	27.21	4.50	-46.6	-48.5	14.6	0.00e+00	0	42	0	19922944	65	4298
2026-01-27 03:24:35.16	27.20	4.57	-46.5	-48.3	14.8	0.00e+00	0	42	0	25165824	64	4444
2026-01-27 03:24:36.17	27.18	4.64	-46.0	-47.6	15.4	0.00e+00	0	42	0	31457280	64	4137
2026-01-27 03:24:37.18	27.17	4.71	-46.2	-47.9	15.2	0.00e+00	0	42	0	37748736	64	4262
2026-01-27 03:24:38.19	27.15	4.78	-46.7	-48.5	14.5	0.00e+00	0	42	0	42991616	64	4580
2026-01-27 03:24:39.19	27.14	4.85	-46.8	-48.7	14.3	0.00e+00	0	42	0	48234496	64	4678
2026-01-27 03:24:40.20	27.13	4.92	-47.2	-49.3	13.7	2.20e-06	0	42	0	54525952	64	5001
2026-01-27 03:24:41.21	27.11	5.00	-47.8	-50.1	12.8	2.17e-05	0	42	0	59768832	66	4924
2026-01-27 03:24:42.22	27.10	5.07	-48.4	-51.0	11.9	1.70e-04	0	42	0	65011712	67	5133
2026-01-27 03:24:43.23	27.08	5.14	-48.7	-51.5	11.6	5.21e-04	0	42	0	71303168	68	5107
2026-01-27 03:24:44.24	27.07	5.21	-46.4	-48.1	15.1	0.00e+00	0	42	0	76546048	64	4349
2026-01-27 03:24:45.25	27.05	5.28	-51.8	-61.8	3.8	8.41e-01	0	42	104	79691776	74	11850
2026-01-27 03:24:46.26	27.04	5.36	-43.6	-44.7	18.9	0.00e+00	0	42	0	82837504	58	4175
2026-01-27 03:24:47.27	27.02	5.43	-50.5	-55.1	7.6	5.91e-01	0	42	0	87031808	73	5805
2026-01-27 03:24:48.28	27.00	5.50	-43.6	-44.6	19.0	0.00e+00	0	42	0	93323264	59	3911
2026-01-27 03:24:49.29	26.99	5.57	-43.5	-44.6	19.1	0.00e+00	0	42	0	98566144	58	4108
2026-01-27 03:24:50.30	26.97	5.65	-43.3	-44.4	19.2	0.00e+00	0	42	0	103809024	58	4031
2026-01-27 03:24:51.31	26.96	5.72	-43.6	-44.7	18.9	0.00e+00	0	42	0	110100480	58	4169
2026-01-27 03:24:52.32	26.94	5.80	-43.3	-44.3	19.3	0.00e+00	0	42	0	115343360	58	3994
2026-01-27 03:24:53.33	26.93	5.87	-43.3	-44.3	19.4	0.00e+00	0	42	0	120586240	58	3983
2026-01-27 03:24:54.33	26.91	5.94	-43.3	-44.4	19.3	0.00e+00	0	42	0	126877696	58	4033
2026-01-27 03:24:55.34	26.89	6.02	-43.3	-44.4	19.3	0.00e+00	0	42	0	132120576	58	4006
2026-01-27 03:24:56.34	26.88	6.09	-43.4	-44.5	19.2	0.00e+00	0	42	0	138412032	58	4065
2026-01-27 03:24:57.35	26.86	6.17	-43.1	-44.2	19.5	0.00e+00	0	42	0	143654912	58	3931
2026-01-27 03:24:58.36	26.84	6.24	-43.4	-44.4	19.3	0.00e+00	0	42	0	148897792	58	4041
2026-01-27 03:24:59.37	26.83	6.32	-43.1	-44.1	19.6	0.00e+00	0	42	0	155189248	58	3899
2026-01-27 03:25:00.38	26.81	6.39	-43.2	-44.2	19.5	0.00e+00	0	42	0	161480704	58	3949
2026-01-27 03:25:01.39	26.79	6.47	-43.1	-44.1	19.6	0.00e+00	0	42	0	166723584	58	3904
2026-01-27 03:25:02.39	26.78	6.54	-43.0	-44.0	19.7	0.00e+00	0	42	0	171966464	58	3861
2026-01-27 03:25:03.40	26.76	6.62	-42.9	-43.9	19.8	0.00e+00	0	42	0	178257920	57	4045
2026-01-27 03:25:04.41	26.74	6.69	-43.1	-44.2	19.6	0.00e+00	0	42	0	183500800	57	4147
2026-01-27 03:25:05.42	26.73	6.77	-43.1	-44.1	19.7	0.00e+00	0	42	0	188743680	57	4117
2026-01-27 03:25:06.42	26.71	6.85	-43.0	-44.0	19.7	0.00e+00	0	42	0	195035136	57	4078
2026-01-27 03:25:07.43	26.69	6.92	-43.1	-44.1	19.7	0.00e+00	0	42	0	200278016	57	4115
2026-01-27 03:25:08.44	26.67	7.00	-43.1	-44.1	19.7	0.00e+00	0	42	0	205520896	57	4116
2026-01-27 03:25:09.45	26.66	7.08	-43.1	-44.1	19.7	0.00e+00	0	42	0	211812352	57	4118
2026-01-27 03:25:10.46	26.64	7.15	-43.1	-44.2	19.7	0.00e+00	0	42	0	217055232	57	4147
2026-01-27 03:25:11.47	26.62	7.23	-43.1	-44.2	19.6	0.00e+00	0	42	0	223346688	57	4149
2026-01-27 03:25:12.48	26.60	7.31	-42.8	-43.7	20.1	0.00e+00	0	42	0	228589568	57	3957
2026-01-27 03:25:13.49	26.58	7.39	-42.8	-43.8	20.0	0.00e+00	0	42	0	234881024	57	3967
2026-01-27 03:25:14.50	26.57	7.47	-42.9	-44.0	19.8	0.00e+00	0	42	0	240123904	57	4060
2026-01-27 03:25:15.51	26.55	7.55	-42.9	-44.0	19.8	0.00e+00	0	42	0	246415360	57	4057
2026-01-27 03:25:16.52	26.53	7.62	-42.7	-43.7	20.1	0.00e+00	0	42	0	251658240	57	3942
2026-01-27 03:25:17.53	26.51	7.70	-42.7	-43.7	20.1	0.00e+00	0	43	0	256901120	57	3948
2026-01-27 03:25:18.53	26.49	7.78	-42.8	-43.8	20.1	0.00e+00	0	42	0	263192576	57	3977
2026-01-27 03:25:19.54	26.47	7.86	-42.8	-43.8	20.1	0.00e+00	0	42	0	268435456	57	3989
2026-01-27 03:25:20.55	26.45	7.94	-43.0	-44.0	19.9	0.00e+00	0	42	0	273678336	57	4072
2026-01-27 03:25:21.56	26.44	8.02	-42.7	-43.7	20.2	0.00e+00	0	42	0	279969792	57	3931
2026-01-27 03:25:22.57	26.42	8.10	-42.8	-43.8	20.1	0.00e+00	0	43	0	285212672	57	3979
2026-01-27 03:25:23.57	26.40	8.18	-42.6	-43.6	20.2	0.00e+00	0	42	0	291504128	57	3906
2026-01-27 03:25:24.58	26.38	8.26	-42.6	-43.6	20.2	0.00e+00	0	42	0	296747008	57	3890
2026-01-27 03:25:25.59	26.36	8.34	-42.6	-43.5	20.3	0.00e+00	0	42	0	303038464	57	3866
2026-01-27 03:25:26.60	26.34	8.43	-42.6	-43.6	20.3	0.00e+00	0	42	0	308281344	57	3871
2026-01-27 03:25:27.61	26.32	8.51	-42.8	-43.8	20.1	0.00e+00	0	43	0	313524224	57	3962
2026-01-27 03:25:28.62	26.30	8.59	-42.4	-43.4	20.5	0.00e+00	0	43	0	319815680	56	4031
2026-01-27 03:25:29.63	26.28	8.67	-42.5	-43.4	20.4	0.00e+00	0	42	0	325058560	56	4050
2026-01-27 03:25:30.64	26.26	8.75	-42.4	-43.4	20.5	0.00e+00	0	42	0	331350016	56	4025
2026-01-27 03:25:31.65	26.24	8.84	-42.5	-43.4	20.5	0.00e+00	0	43	0	336592896	56	4045
2026-01-27 03:25:32.66	26.22	8.92	-42.3	-43.2	20.7	0.00e+00	0	42	0	341835776	56	3953
2026-01-27 03:25:33.67	26.19	9.00	-42.3	-43.2	20.7	0.00e+00	0	42	0	348127232	56	3946
2026-01-27 03:25:34.68	26.17	9.09	-42.4	-43.3	20.6	0.00e+00	0	43	0	354418688	56	3999
2026-01-27 03:25:35.69	26.15	9.17	-42.3	-43.3	20.7	0.00e+00	0	42	0	359661568	56	3966
2026-01-27 03:25:36.70	26.13	9.26	-42.4	-43.4	20.6	0.00e+00	0	43	0	364904448	56	4020
2026-01-27 03:25:37.71	26.11	9.34	-42.4	-43.4	20.6	0.00e+00	0	42	0	371195904	56	4028
2026-01-27 03:25:38.72	26.09	9.42	-42.4	-43.4	20.6	0.00e+00	0	42	0	376438784	56	4023
2026-01-27 03:25:39.73	26.07	9.51	-42.2	-43.1	20.9	0.00e+00	0	43	0	381681664	56	3890
2026-01-27 03:25:40.74	26.05	9.60	-41.9	-42.8	21.1	0.00e+00	0	42	0	387973120	55	3983
2026-01-27 03:25:41.75	26.02	9.68	-41.9	-42.9	21.0	0.00e+00	0	43	0	393216000	55	4007
2026-01-27 03:25:42.75	26.00	9.77	-41.9	-42.8	21.1	0.00e+00	0	42	0	398458880	55	3989
2026-01-27 03:25:43.76	25.98	9.85	-42.1	-43.0	20.9	0.00e+00	0	43	0	404750336	55	4083
2026-01-27 03:25:44.77	25.96	9.94	-41.6	-42.4	21.5	0.00e+00	0	43	0	411041792	55	3819
2026-01-27 03:25:45.78	25.93	10.03	-41.9	-42.8	21.2	0.00e+00	0	43	0	416284672	55	3970
2026-01-27 03:25:46.79	25.91	10.11	-41.9	-42.8	21.1	0.00e+00	0	43	0	421527552	55	4004
2026-01-27 03:25:47.80	25.89	10.20	-41.9	-42.8	21.2	0.00e+00	0	43	0	427819008	55	3970
2026-01-27 03:25:48.81	25.87	10.29	-41.6	-42.5	21.4	0.00e+00	0	43	0	433061888	55	3853
2026-01-27 03:25:49.81	25.84	10.37	-41.7	-42.6	21.3	0.00e+00	0	43	0	439353344	55	3892
2026-01-27 03:25:50.81	25.82	10.46	-41.5	-42.4	21.6	0.00e+00	0	43	0	444596224	55	3788
2026-01-27 03:25:51.82	25.80	10.55	-41.6	-42.5	21.4	0.00e+00	0	43	0	449839104	55	3856
2026-01-27 03:25:52.83	25.77	10.64	-41.5	-42.4	21.6	0.00e+00	0	43	0	456130560	55	3792
2026-01-27 03:25:53.84	25.75	10.73	-41.5	-42.4	21.6	0.00e+00	0	43	0	461373440	55	3783
2026-01-27 03:25:54.85	25.72	10.82	-41.5	-42.3	21.6	0.00e+00	0	43	0	466616320	54	3998
2026-01-27 03:25:55.85	25.70	10.91	-41.5	-42.3	21.6	0.00e+00	0	43	0	472907776	54	3996
2026-01-27 03:25:56.86	25.68	11.00	-41.6	-42.5	21.5	0.00e+00	0	43	0	478150656	54	4064
2026-01-27 03:25:57.87	25.65	11.09	-41.3	-42.2	21.8	0.00e+00	0	43	0	484442112	54	3918
2026-01-27 03:25:58.88	25.63	11.18	-41.5	-42.4	21.6	0.00e+00	0	43	0	489684992	54	4022
2026-01-27 03:25:59.89	25.60	11.27	-41.5	-42.3	21.7	0.00e+00	0	43	0	495976448	54	3996
2026-01-27 03:26:00.89	25.58	11.36	-41.3	-42.1	21.8	0.00e+00	0	43	0	501219328	54	3896
2026-01-27 03:26:01.90	25.55	11.45	-41.3	-42.2	21.8	0.00e+00	0	43	0	506462208	54	3927
2026-01-27 03:26:02.91	25.53	11.54	-41.3	-42.1	21.9	0.00e+00	0	43	0	512753664	54	3912
2026-01-27 03:26:03.91	25.50	11.64	-41.4	-42.2	21.8	0.00e+00	0	43	0	517996544	54	3941
2026-01-27 03:26:04.92	25.47	11.73	-41.5	-42.4	21.6	0.00e+00	0	43	0	524288000	54	4025
2026-01-27 03:26:05.93	25.45	11.82	-41.2	-42.1	21.9	0.00e+00	0	43	0	529530880	54	3884
2026-01-27 03:26:06.93	25.42	11.91	-41.1	-42.0	22.0	0.00e+00	0	43	0	534773760	54	3827
2026-01-27 03:26:07.95	25.39	12.01	-41.1	-41.9	22.1	0.00e+00	0	43	0	541065216	54	3823
2026-01-27 03:26:08.95	25.37	12.10	-41.1	-41.9	22.1	0.00e+00	0	43	0	546308096	54	3807
2026-01-27 03:26:09.96	25.34	12.20	-41.2	-42.0	22.0	0.00e+00	0	43	0	551550976	54	3841
2026-01-27 03:26:10.96	25.31	12.29	-41.1	-42.0	22.1	0.00e+00	0	43	0	557842432	54	3830
2026-01-27 03:26:11.97	25.29	12.39	-41.1	-42.0	22.1	0.00e+00	0	43	0	564133888	54	3840
2026-01-27 03:26:12.98	25.26	12.48	-41.0	-41.9	22.2	0.00e+00	0	43	0	569376768	54	3793
2026-01-27 03:26:13.99	25.23	12.58	-41.1	-42.0	22.1	0.00e+00	0	43	0	574619648	54	3831
2026-01-27 03:26:15.00	25.20	12.68	-41.1	-42.0	22.1	0.00e+00	0	43	0	580911104	54	3833
2026-01-27 03:26:16.01	25.18	12.77	-40.9	-41.8	22.3	0.00e+00	0	43	0	586153984	53	3971
2026-01-27 03:26:17.01	25.15	12.87	-41.0	-41.9	22.2	0.00e+00	0	43	0	591396864	53	4008
2026-01-27 03:26:18.02	25.12	12.97	-40.8	-41.7	22.4	0.00e+00	0	43	0	597688320	53	3920
2026-01-27 03:26:19.03	25.09	13.06	-40.9	-41.7	22.4	0.00e+00	0	43	0	602931200	53	3923
2026-01-27 03:26:20.04	25.06	13.16	-41.0	-41.9	22.2	0.00e+00	0	43	0	609222656	53	4011
2026-01-27 03:26:21.05	25.03	13.26	-40.9	-41.7	22.3	0.00e+00	0	43	0	614465536	53	3957
2026-01-27 03:26:22.06	25.00	13.36	-41.0	-41.8	22.3	0.00e+00	0	43	0	619708416	53	3974
2026-01-27 03:26:23.06	24.97	13.46	-40.9	-41.7	22.3	0.00e+00	0	43	0	625999872	53	3943
2026-01-27 03:26:24.07	24.94	13.56	-40.8	-41.7	22.4	0.00e+00	0	43	0	632291328	53	3922
2026-01-27 03:26:25.08	24.91	13.66	-40.8	-41.6	22.5	0.00e+00	0	43	0	637534208	53	3902
2026-01-27 03:26:26.09	24.88	13.76	-40.7	-41.5	22.6	0.00e+00	0	43	0	642777088	53	3845
2026-01-27 03:26:27.09	24.85	13.86	-40.7	-41.5	22.5	0.00e+00	0	43	0	649068544	53	3862
2026-01-27 03:26:28.10	24.82	13.96	-40.6	-41.5	22.6	0.00e+00	0	43	0	654311424	53	3831
2026-01-27 03:26:29.11	24.79	14.06	-40.7	-41.5	22.6	0.00e+00	0	43	0	659554304	53	3856
2026-01-27 03:26:30.11	24.76	14.16	-40.7	-41.5	22.6	0.00e+00	0	43	0	665845760	53	3850
2026-01-27 03:26:31.12	24.73	14.27	-40.7	-41.5	22.6	0.00e+00	0	43	0	671088640	53	3833
2026-01-27 03:26:32.13	24.70	14.37	-40.7	-41.6	22.5	0.00e+00	0	43	0	676331520	53	3869
2026-01-27 03:26:33.14	24.67	14.47	-40.5	-41.3	22.8	0.00e+00	0	43	0	682622976	53	3758
2026-01-27 03:26:34.15	24.63	14.58	-40.5	-41.3	22.8	0.00e+00	0	43	0	687865856	53	3774
2026-01-27 03:26:35.16	24.60	14.68	-40.5	-41.3	22.8	0.00e+00	0	43	0	694157312	53	3774
2026-01-27 03:26:36.17	24.57	14.79	-40.4	-41.2	22.9	0.00e+00	0	43	0	699400192	52	3952
2026-01-27 03:26:37.18	24.53	14.89	-40.4	-41.2	22.9	0.00e+00	0	43	0	705691648	52	3938
2026-01-27 03:26:38.19	24.50	15.00	-40.4	-41.2	22.9	0.00e+00	0	43	0	710934528	52	3932
2026-01-27 03:26:39.20	24.47	15.11	-40.5	-41.3	22.8	0.00e+00	0	43	0	717225984	52	3961
2026-01-27 03:26:40.21	24.43	15.21	-40.2	-41.0	23.1	0.00e+00	0	43	0	722468864	52	3836
2026-01-27 03:26:41.21	24.40	15.32	-40.2	-41.0	23.1	0.00e+00	0	43	0	727711744	52	3832
2026-01-27 03:26:42.22	24.37	15.43	-40.1	-40.9	23.2	0.00e+00	0	43	0	734003200	52	3798
2026-01-27 03:26:43.23	24.33	15.53	-40.1	-40.9	23.2	0.00e+00	0	43	0	739246080	52	3781
2026-01-27 03:26:44.24	24.30	15.64	-40.1	-40.9	23.2	0.00e+00	0	43	0	744488960	52	3787
2026-01-27 03:26:45.24	24.26	15.75	-40.0	-40.8	23.3	0.00e+00	0	43	0	750780416	52	3746
2026-01-27 03:26:46.24	24.23	15.86	-40.0	-40.8	23.4	0.00e+00	0	43	0	756023296	51	3982
2026-01-27 03:26:47.25	24.19	15.97	-40.1	-40.9	23.3	0.00e+00	0	43	0	761266176	51	4007
2026-01-27 03:26:48.26	24.15	16.08	-39.9	-40.7	23.5	0.00e+00	0	43	0	767557632	51	3934
2026-01-27 03:26:49.27	24.12	16.19	-40.0	-40.7	23.4	0.00e+00	0	43	0	773849088	51	3956
2026-01-27 03:26:50.27	24.08	16.30	-39.9	-40.6	23.6	0.00e+00	0	43	0	779091968	51	3891
2026-01-27 03:26:51.28	24.04	16.41	-39.9	-40.7	23.5	0.00e+00	0	43	0	784334848	51	3919
2026-01-27 03:26:52.29	24.01	16.53	-40.0	-40.7	23.5	0.00e+00	0	43	0	790626304	51	3943
2026-01-27 03:26:53.30	23.97	16.64	-39.9	-40.6	23.6	0.00e+00	0	43	0	795869184	51	3893
2026-01-27 03:26:54.31	23.93	16.75	-39.9	-40.7	23.5	0.00e+00	0	43	0	802160640	51	3921
2026-01-27 03:26:55.32	23.89	16.87	-39.7	-40.5	23.7	0.00e+00	0	43	0	807403520	51	3836
2026-01-27 03:26:56.33	23.85	16.98	-39.8	-40.6	23.6	0.00e+00	0	43	0	812646400	51	3877
2026-01-27 03:26:57.33	23.82	17.10	-39.8	-40.6	23.6	0.00e+00	0	43	0	818937856	51	3869
2026-01-27 03:26:58.34	23.78	17.21	-39.7	-40.4	23.8	0.00e+00	0	43	0	824180736	51	3815
2026-01-27 03:26:59.35	23.74	17.33	-39.6	-40.3	23.8	0.00e+00	0	43	0	829423616	51	3771
2026-01-27 03:27:00.36	23.70	17.44	-39.6	-40.3	23.8	0.00e+00	0	43	0	835715072	51	3775
2026-01-27 03:27:01.36	23.66	17.56	-39.6	-40.3	23.8	0.00e+00	0	43	0	840957952	51	3780
2026-01-27 03:27:02.37	23.62	17.68	-39.6	-40.3	23.9	0.00e+00	0	43	0	847249408	51	3770
2026-01-27 03:27:03.38	23.58	17.80	-39.6	-40.3	23.9	0.00e+00	0	43	0	852492288	51	3763
2026-01-27 03:27:04.38	23.53	17.91	-39.7	-40.5	23.7	0.00e+00	0	43	0	858783744	51	3830
2026-01-27 03:27:05.39	23.49	18.03	-39.7	-40.4	23.8	0.00e+00	0	43	0	864026624	51	3810
2026-01-27 03:27:06.40	23.45	18.15	-39.7	-40.4	23.8	0.00e+00	0	43	0	869269504	51	3819
2026-01-27 03:27:07.41	23.41	18.27	-39.6	-40.4	23.8	0.00e+00	0	43	0	875560960	51	3798
2026-01-27 03:27:08.42	23.37	18.40	-39.5	-40.3	23.9	0.00e+00	0	43	0	880803840	51	3749
2026-01-27 03:27:09.43	23.32	18.52	-39.6	-40.4	23.9	0.00e+00	0	43	0	887095296	51	3797
2026-01-27 03:27:10.44	23.28	18.64	-39.7	-40.4	23.8	0.00e+00	0	43	0	892338176	51	3823
2026-01-27 03:27:11.45	23.23	18.76	-39.5	-40.3	23.9	0.00e+00	0	43	0	897581056	51	3752
2026-01-27 03:27:12.45	23.19	18.89	-39.6	-40.3	23.9	0.00e+00	0	43	0	903872512	51	3778
2026-01-27 03:27:13.46	23.15	19.01	-39.6	-40.4	23.9	0.00e+00	0	43	0	909115392	51	3783
2026-01-27 03:27:14.47	23.10	19.13	-39.4	-40.2	24.0	0.00e+00	0	43	0	915406848	50	3935
2026-01-27 03:27:15.47	23.06	19.26	-39.6	-40.3	23.9	0.00e+00	0	43	0	920649728	50	3985
2026-01-27 03:27:16.48	23.01	19.38	-39.6	-40.3	23.9	0.00e+00	0	43	0	926941184	50	3989
2026-01-27 03:27:17.49	22.96	19.51	-39.5	-40.3	23.9	0.00e+00	0	43	0	932184064	50	3986
2026-01-27 03:27:18.50	22.92	19.64	-39.5	-40.3	24.0	0.00e+00	0	43	0	937426944	50	3968
2026-01-27 03:27:19.50	22.87	19.76	-39.4	-40.2	24.0	0.00e+00	0	43	0	943718400	50	3932
2026-01-27 03:27:20.51	22.82	19.89	-39.6	-40.4	23.9	0.00e+00	0	43	0	948961280	50	4009
2026-01-27 03:27:21.52	22.77	20.02	-39.5	-40.2	24.0	0.00e+00	0	43	0	954204160	50	3946
2026-01-27 03:27:22.53	22.73	20.15	-39.4	-40.2	24.1	0.00e+00	0	43	0	960495616	50	3925
2026-01-27 03:27:23.53	22.68	20.28	-39.3	-40.1	24.2	0.00e+00	0	43	0	965738496	50	3884
2026-01-27 03:27:24.54	22.63	20.41	-39.3	-40.0	24.2	0.00e+00	0	43	0	972029952	50	3864
2026-01-27 03:27:25.55	22.58	20.54	-39.3	-40.0	24.1	0.00e+00	0	43	0	977272832	50	3859
2026-01-27 03:27:26.56	22.53	20.68	-39.3	-40.1	24.2	0.00e+00	0	43	0	982515712	50	3876
2026-01-27 03:27:27.57	22.48	20.81	-39.3	-40.0	24.1	0.00e+00	0	43	0	988807168	50	3859
2026-01-27 03:27:28.57	22.43	20.94	-39.3	-40.0	24.2	0.00e+00	0	43	0	995098624	50	3855
2026-01-27 03:27:29.58	22.38	21.08	-39.4	-40.2	24.1	0.00e+00	0	43	0	1000341504	50	3925
2026-01-27 03:27:30.59	22.32	21.21	-39.4	-40.1	24.1	0.00e+00	0	43	0	1005584384	50	3907
2026-01-27 03:27:31.60	22.27	21.35	-39.3	-40.0	24.2	0.00e+00	0	43	0	1011875840	50	3859
2026-01-27 03:27:32.60	22.22	21.48	-39.3	-40.0	24.2	0.00e+00	0	43	0	1017118720	50	3861
2026-01-27 03:27:33.61	22.16	21.62	-39.2	-40.0	24.3	0.00e+00	0	43	0	1022361600	50	3833
2026-01-27 03:27:34.62	22.11	21.76	-39.3	-40.0	24.2	0.00e+00	0	43	0	1028653056	50	3868
2026-01-27 03:27:35.63	22.05	21.90	-39.1	-39.9	24.3	0.00e+00	0	43	0	1033895936	50	3785
2026-01-27 03:27:36.63	22.00	22.03	-38.9	-39.6	24.6	0.00e+00	0	43	0	1039138816	49	3912
2026-01-27 03:27:37.64	21.94	22.18	-38.8	-39.6	24.6	0.00e+00	0	43	0	1045430272	49	3875
2026-01-27 03:27:38.65	21.89	22.32	-38.9	-39.6	24.6	0.00e+00	0	43	0	1050673152	49	3889
2026-01-27 03:27:39.66	21.83	22.46	-38.8	-39.5	24.6	0.00e+00	0	43	0	1056964608	49	3864
2026-01-27 03:27:40.66	21.77	22.60	-38.6	-39.3	24.8	0.00e+00	0	43	0	1062207488	49	3780
2026-01-27 03:27:41.67	21.72	22.74	-38.6	-39.3	24.8	0.00e+00	0	43	0	1068498944	49	3770
2026-01-27 03:27:42.68	21.66	22.89	-38.4	-39.1	25.0	0.00e+00	0	43	0	1073741824	48	3895
2026-01-27 03:27:43.69	21.60	23.03	-38.4	-39.1	25.1	0.00e+00	0	43	0	1080033280	48	3871
2026-01-27 03:27:44.70	21.54	23.18	-38.3	-39.0	25.1	0.00e+00	0	43	0	1085276160	48	3837
2026-01-27 03:27:45.70	21.48	23.32	-38.3	-39.0	25.2	0.00e+00	0	43	0	1090519040	48	3835
2026-01-27 03:27:46.71	21.42	23.47	-38.3	-39.0	25.1	0.00e+00	0	43	0	1096810496	48	3865
2026-01-27 03:27:47.72	21.36	23.62	-38.3	-39.0	25.1	0.00e+00	0	43	0	1102053376	48	3851
2026-01-27 03:27:48.73	21.29	23.76	-38.3	-39.0	25.1	0.00e+00	0	43	0	1107296256	48	3864
2026-01-27 03:27:49.74	21.23	23.91	-38.3	-39.0	25.1	0.00e+00	0	43	0	1113587712	48	3853
2026-01-27 03:27:50.74	21.17	24.06	-38.3	-39.0	25.2	0.00e+00	0	43	0	1118830592	48	3868
2026-01-27 03:27:51.75	21.10	24.21	-38.3	-39.0	25.2	0.00e+00	0	43	0	1125122048	48	3863
2026-01-27 03:27:52.76	21.04	24.37	-38.3	-39.0	25.2	0.00e+00	0	43	0	1130364928	48	3864
2026-01-27 03:27:53.77	20.97	24.52	-38.5	-39.2	25.0	0.00e+00	0	43	0	1135607808	48	3916
2026-01-27 03:27:54.77	20.91	24.67	-38.4	-39.1	25.1	0.00e+00	0	43	0	1141899264	48	3883
2026-01-27 03:27:55.78	20.84	24.83	-38.5	-39.2	25.0	0.00e+00	0	43	0	1147142144	48	3921
2026-01-27 03:27:56.79	20.77	24.98	-38.5	-39.2	25.0	0.00e+00	0	43	0	1153433600	48	3927
2026-01-27 03:27:57.80	20.71	25.14	-38.4	-39.1	25.1	0.00e+00	0	43	0	1158676480	48	3896
2026-01-27 03:27:58.80	20.64	25.29	-38.5	-39.2	25.1	0.00e+00	0	43	0	1164967936	48	3921
2026-01-27 03:27:59.81	20.57	25.45	-38.4	-39.1	25.1	0.00e+00	0	43	0	1170210816	48	3876
2026-01-27 03:28:00.82	20.50	25.61	-38.5	-39.2	25.1	0.00e+00	0	43	0	1175453696	48	3921
2026-01-27 03:28:01.82	20.43	25.77	-38.3	-39.0	25.2	0.00e+00	0	43	0	1181745152	48	3850
2026-01-27 03:28:02.83	20.36	25.93	-38.3	-39.0	25.2	0.00e+00	0	43	0	1186988032	48	3862
2026-01-27 03:28:03.83	20.28	26.09	-38.4	-39.1	25.1	0.00e+00	0	43	0	1192230912	48	3883
2026-01-27 03:28:04.84	20.21	26.25	-38.2	-38.9	25.3	0.00e+00	0	43	0	1198522368	48	3783
2026-01-27 03:28:05.85	20.14	26.42	-38.3	-38.9	25.3	0.00e+00	0	43	0	1203765248	48	3822
2026-01-27 03:28:06.86	20.06	26.58	-38.1	-38.8	25.4	0.00e+00	0	43	0	1210056704	48	3776
2026-01-27 03:28:07.87	19.99	26.75	-38.2	-38.9	25.4	0.00e+00	0	43	0	1215299584	48	3783
2026-01-27 03:28:08.88	19.91	26.91	-38.2	-38.9	25.3	0.00e+00	0	43	0	1221591040	48	3793
2026-01-27 03:28:09.88	19.83	27.08	-38.2	-38.9	25.3	0.00e+00	0	43	0	1226833920	48	3815
2026-01-27 03:28:10.89	19.75	27.25	-38.9	-39.7	24.8	0.00e+00	0	43	0	1233125376	48	4151
2026-01-27 03:28:11.89	19.68	27.41	-38.5	-39.2	25.1	0.00e+00	0	43	0	1238368256	49	3718
2026-01-27 03:28:12.90	19.59	27.58	-38.6	-39.3	25.0	0.00e+00	0	43	0	1243611136	49	3755
2026-01-27 03:28:13.91	19.51	27.76	-38.5	-39.2	25.0	0.00e+00	0	43	0	1249902592	49	3729
2026-01-27 03:28:14.92	19.43	27.93	-38.5	-39.2	25.1	0.00e+00	0	43	0	1255145472	49	3730
2026-01-27 03:28:15.93	19.35	28.10	-38.5	-39.2	25.1	0.00e+00	0	43	0	1260388352	48	3938
2026-01-27 03:28:16.94	19.27	28.28	-38.5	-39.2	25.1	0.00e+00	0	43	0	1266679808	48	3933
2026-01-27 03:28:17.95	19.18	28.45	-38.6	-39.3	25.0	0.00e+00	0	43	0	1271922688	48	3977
2026-01-27 03:28:18.95	19.10	28.63	-38.2	-38.9	25.3	0.00e+00	0	43	0	1277165568	48	3815
2026-01-27 03:28:19.96	19.01	28.80	-38.2	-38.9	25.4	0.00e+00	0	43	0	1283457024	48	3794
2026-01-27 03:28:20.97	18.92	28.98	-38.2	-38.9	25.4	0.00e+00	0	43	0	1289748480	48	3788
2026-01-27 03:28:21.98	18.83	29.16	-38.0	-38.7	25.5	0.00e+00	0	43	0	1294991360	48	3717
2026-01-27 03:28:22.99	18.74	29.34	-37.7	-38.4	25.4	0.00e+00	0	43	0	1300234240	47	3792
2026-01-27 03:28:24.00	18.65	29.52	-37.8	-38.5	25.3	0.00e+00	0	43	0	1306525696	47	3835
2026-01-27 03:28:25.00	18.56	29.71	-37.7	-38.4	25.3	0.00e+00	0	43	0	1311768576	47	3815
2026-01-27 03:28:26.01	18.47	29.89	-37.7	-38.4	25.3	0.00e+00	0	43	0	1318060032	47	3803
2026-01-27 03:28:27.02	18.37	30.07	-37.8	-38.5	25.2	0.00e+00	0	43	0	1323302912	47	3853
2026-01-27 03:28:28.03	18.28	30.26	-37.7	-38.4	25.3	0.00e+00	0	43	0	1328545792	47	3789
2026-01-27 03:28:29.04	18.18	30.45	-37.7	-38.4	25.3	0.00e+00	0	43	0	1334837248	47	3819
2026-01-27 03:28:30.05	18.08	30.64	-37.7	-38.4	25.4	0.00e+00	0	43	0	1340080128	47	3794
2026-01-27 03:28:31.05	17.99	30.82	-37.8	-38.5	25.3	0.00e+00	0	43	0	1345323008	47	3849
2026-01-27 03:28:32.06	17.89	31.01	-37.7	-38.4	25.4	0.00e+00	0	43	0	1351614464	47	3797
2026-01-27 03:28:33.07	17.78	31.21	-37.7	-38.4	25.3	0.00e+00	0	43	0	1357905920	47	3812
2026-01-27 03:28:34.08	17.68	31.40	-37.7	-38.4	25.4	0.00e+00	0	43	0	1363148800	47	3789
2026-01-27 03:28:35.08	17.58	31.59	-37.7	-38.4	25.3	0.00e+00	0	43	0	1368391680	47	3804
2026-01-27 03:28:36.09	17.47	31.79	-37.6	-38.3	25.4	0.00e+00	0	43	0	1374683136	47	3776
2026-01-27 03:28:37.10	17.37	31.98	-37.5	-38.2	25.5	0.00e+00	0	43	0	1379926016	47	3721
2026-01-27 03:28:38.11	17.26	32.18	-37.5	-38.2	25.5	0.00e+00	0	43	0	1385168896	47	3724
2026-01-27 03:28:39.12	17.15	32.38	-37.5	-38.2	25.5	0.00e+00	0	43	0	1391460352	47	3726
2026-01-27 03:28:40.13	17.04	32.58	-37.6	-38.3	25.5	0.00e+00	0	43	0	1396703232	47	3757
2026-01-27 03:28:41.13	16.93	32.78	-37.5	-38.2	25.5	0.00e+00	0	43	0	1402994688	46	3925
2026-01-27 03:28:42.15	16.81	32.98	-37.5	-38.2	25.5	0.00e+00	0	43	0	1408237568	46	3954
2026-01-27 03:28:43.16	16.70	33.19	-37.6	-38.3	25.5	0.00e+00	0	43	0	1413480448	46	3966
2026-01-27 03:28:44.16	16.58	33.39	-37.5	-38.2	25.6	0.00e+00	0	43	0	1419771904	46	3921
2026-01-27 03:28:45.17	16.47	33.60	-37.4	-38.1	25.7	0.00e+00	0	43	0	1426063360	46	3876
2026-01-27 03:28:46.18	16.35	33.80	-37.4	-38.1	25.6	0.00e+00	0	43	0	1431306240	46	3903
2026-01-27 03:28:47.19	16.23	34.01	-37.4	-38.1	25.7	0.00e+00	0	43	0	1436549120	46	3879
2026-01-27 03:28:48.20	16.10	34.22	-37.5	-38.2	25.6	0.00e+00	0	43	0	1442840576	46	3924
2026-01-27 03:28:49.20	15.98	34.43	-37.4	-38.0	25.7	0.00e+00	0	43	0	1448083456	46	3865
2026-01-27 03:28:50.21	15.85	34.65	-37.4	-38.1	25.6	0.00e+00	0	43	0	1453326336	46	3894
2026-01-27 03:28:51.22	15.73	34.86	-37.4	-38.1	25.6	0.00e+00	0	43	0	1459617792	46	3892
2026-01-27 03:28:52.23	15.60	35.07	-37.4	-38.1	25.7	0.00e+00	0	43	0	1464860672	46	3878
2026-01-27 03:28:53.23	15.47	35.29	-37.3	-38.0	25.7	0.00e+00	0	43	0	1470103552	46	3852
2026-01-27 03:28:54.23	15.34	35.50	-37.3	-38.0	25.7	0.00e+00	0	43	0	1476395008	46	3844
2026-01-27 03:28:55.24	15.20	35.72	-37.3	-38.0	25.7	0.00e+00	0	43	0	1481637888	46	3863
2026-01-27 03:28:56.25	15.06	35.94	-37.1	-37.8	25.9	0.00e+00	0	43	0	1487929344	46	3774
2026-01-27 03:28:57.25	14.93	36.16	-37.2	-37.9	25.8	0.00e+00	0	43	0	1493172224	46	3821
2026-01-27 03:28:58.26	14.79	36.39	-37.2	-37.9	25.8	0.00e+00	0	43	0	1498415104	46	3802
2026-01-27 03:28:59.27	14.64	36.61	-37.2	-37.9	25.8	0.00e+00	0	43	0	1504706560	46	3815
2026-01-27 03:29:00.27	14.50	36.83	-37.4	-38.0	25.7	0.00e+00	0	43	0	1510998016	46	3867
2026-01-27 03:29:01.28	14.35	37.06	-37.2	-37.9	25.8	0.00e+00	0	43	0	1516240896	46	3812
2026-01-27 03:29:02.29	14.21	37.29	-37.2	-37.9	25.8	0.00e+00	0	43	0	1521483776	46	3801
2026-01-27 03:29:03.30	14.05	37.52	-37.2	-37.9	25.9	0.00e+00	0	43	0	1527775232	46	3784
2026-01-27 03:29:04.31	13.90	37.75	-37.3	-38.0	25.8	0.00e+00	0	43	0	1533018112	46	3844
2026-01-27 03:29:05.31	13.75	37.98	-37.3	-38.0	25.8	0.00e+00	0	43	0	1538260992	46	3845
2026-01-27 03:29:06.32	13.59	38.21	-37.3	-38.0	25.7	0.00e+00	0	43	0	1544552448	46	3858
2026-01-27 03:29:07.33	13.43	38.45	-37.4	-38.1	25.7	0.00e+00	0	43	0	1549795328	46	3885
2026-01-27 03:29:08.34	13.27	38.69	-37.4	-38.1	25.6	0.00e+00	0	43	0	1555038208	46	3912
2026-01-27 03:29:09.35	13.10	38.92	-37.5	-38.2	25.6	0.00e+00	0	43	0	1561329664	46	3954
2026-01-27 03:29:10.35	12.94	39.16	-37.5	-38.2	25.6	0.00e+00	0	43	0	1566572544	46	3947
2026-01-27 03:29:11.36	12.77	39.40	-37.5	-38.3	25.6	0.00e+00	0	43	0	1572864000	46	3961
2026-01-27 03:29:12.37	12.59	39.65	-37.6	-38.3	25.5	0.00e+00	0	43	0	1578106880	46	3987
2026-01-27 03:29:13.38	12.42	39.89	-37.4	-38.1	25.7	0.00e+00	0	43	0	1584398336	46	3905
2026-01-27 03:29:14.39	12.24	40.13	-37.4	-38.1	25.7	0.00e+00	0	43	0	1589641216	46	3885
2026-01-27 03:29:15.40	12.06	40.38	-37.5	-38.1	25.7	0.00e+00	0	43	0	1595932672	46	3912
2026-01-27 03:29:16.41	11.88	40.63	-37.5	-38.2	25.6	0.00e+00	0	43	0	1601175552	46	3948
2026-01-27 03:29:17.41	11.69	40.87	-37.8	-38.5	25.4	0.00e+00	0	43	0	1606418432	46	4079
2026-01-27 03:29:18.42	11.50	41.12	-38.1	-38.8	25.1	0.00e+00	0	43	0	1612709888	46	4239
2026-01-27 03:29:19.43	11.31	41.38	-38.2	-38.9	25.0	0.00e+00	0	43	0	1617952768	46	4264
2026-01-27 03:29:20.44	11.12	41.63	-38.1	-38.8	25.1	0.00e+00	0	43	0	1623195648	47	3990
2026-01-27 03:29:21.45	10.92	41.88	-37.9	-38.7	25.2	0.00e+00	0	43	0	1629487104	47	3916
2026-01-27 03:29:22.45	10.72	42.14	-37.7	-38.4	25.5	0.00e+00	0	43	0	1634729984	47	3791
2026-01-27 03:29:23.46	10.51	42.40	-37.6	-38.3	25.6	0.00e+00	0	43	0	1639972864	47	3755
2026-01-27 03:29:24.47	10.31	42.65	-37.8	-38.5	25.4	0.00e+00	0	43	0	1646264320	47	3830
2026-01-27 03:29:25.47	10.10	42.91	-37.9	-38.7	25.3	0.00e+00	0	43	0	1652555776	47	3917
2026-01-27 03:29:26.47	9.88	43.17	-38.0	-38.7	25.2	0.00e+00	0	43	0	1657798656	47	3927
2026-01-27 03:29:27.48	9.66	43.43	-38.0	-38.7	25.2	0.00e+00	0	43	0	1663041536	47	3951
2026-01-27 03:29:28.49	9.44	43.70	-37.9	-38.7	25.3	0.00e+00	0	43	0	1669332992	47	3920
2026-01-27 03:29:29.50	9.22	43.96	-38.0	-38.8	25.2	0.00e+00	0	43	0	1674575872	47	3959
2026-01-27 03:29:30.51	8.99	44.23	-38.0	-38.7	25.3	0.00e+00	0	43	0	1680867328	47	3927
2026-01-27 03:29:31.51	8.75	44.49	-38.0	-38.8	25.2	0.00e+00	0	43	0	1686110208	47	3961
2026-01-27 03:29:32.52	8.52	44.76	-38.0	-38.7	25.2	0.00e+00	0	43	0	1691353088	47	3928
2026-01-27 03:29:33.53	8.27	45.03	-37.9	-38.6	25.3	0.00e+00	0	43	0	1697644544	47	3897
2026-01-27 03:29:34.53	8.03	45.30	-37.9	-38.6	25.3	0.00e+00	0	43	0	1702887424	47	3905
2026-01-27 03:29:35.54	7.78	45.58	-37.8	-38.5	25.4	0.00e+00	0	43	0	1708130304	47	3847
2026-01-27 03:29:36.55	7.52	45.85	-37.9	-38.6	25.3	0.00e+00	0	43	0	1714421760	47	3892
2026-01-27 03:29:37.56	7.26	46.13	-37.8	-38.5	25.4	0.00e+00	0	43	0	1719664640	47	3839
2026-01-27 03:29:38.56	7.00	46.40	-37.9	-38.6	25.4	0.00e+00	0	43	0	1724907520	47	3885
2026-01-27 03:29:39.56	6.74	46.68	-37.9	-38.7	25.3	0.00e+00	0	43	0	1731198976	47	3914
2026-01-27 03:29:40.57	6.46	46.95	-37.9	-38.6	25.3	0.00e+00	0	43	0	1737490432	47	3906
2026-01-27 03:29:41.58	6.18	47.23	-37.9	-38.6	25.3	0.00e+00	0	43	0	1742733312	47	3902
2026-01-27 03:29:42.59	5.90	47.52	-37.9	-38.6	25.3	0.00e+00	0	43	0	1747976192	47	3897
2026-01-27 03:29:43.60	5.61	47.80	-38.0	-38.7	25.2	0.00e+00	0	43	0	1754267648	47	3943
2026-01-27 03:29:44.61	5.31	48.08	-38.2	-38.9	25.1	0.00e+00	0	43	0	1759510528	47	4017
2026-01-27 03:29:45.62	5.01	48.37	-38.2	-38.9	25.1	0.00e+00	0	43	0	1765801984	47	4048
2026-01-27 03:29:46.63	4.71	48.65	-38.2	-38.9	25.1	0.00e+00	0	43	0	1771044864	47	4036
2026-01-27 03:29:47.64	4.40	48.94	-38.2	-39.0	25.1	0.00e+00	0	43	0	1776287744	47	4056
2026-01-27 03:29:48.65	4.08	49.23	-38.5	-39.2	24.8	0.00e+00	0	43	0	1782579200	47	4162
2026-01-27 03:29:49.66	3.75	49.51	-39.1	-39.8	24.8	0.00e+00	0	43	0	1787822080	48	4224
2026-01-27 03:29:50.66	3.43	49.80	-39.2	-39.9	24.7	0.00e+00	0	43	0	1793064960	48	4273
2026-01-27 03:29:51.67	3.09	50.09	-39.1	-39.8	24.8	0.00e+00	0	43	0	1799356416	49	3996
2026-01-27 03:29:52.67	2.75	50.38	-39.1	-39.8	24.8	0.00e+00	0	43	0	1805647872	49	4002
2026-01-27 03:29:53.68	2.40	50.67	-39.2	-40.0	24.7	0.00e+00	0	43	0	1810890752	49	4057
2026-01-27 03:29:54.69	2.05	50.96	-39.5	-40.3	24.4	0.00e+00	0	43	0	1816133632	49	4198
2026-01-27 03:29:55.70	1.68	51.25	-39.4	-40.1	24.5	0.00e+00	0	43	0	1822425088	49	4145
2026-01-27 03:29:56.71	1.31	51.55	-39.4	-40.1	24.6	0.00e+00	0	43	0	1827667968	49	4118
2026-01-27 03:29:57.72	0.93	51.84	-39.3	-40.1	24.6	0.00e+00	0	43	0	1832910848	49	4100
2026-01-27 03:29:58.73	0.55	52.13	-39.1	-39.8	24.9	0.00e+00	0	43	0	1839202304	49	3962
2026-01-27 03:29:59.74	0.15	52.43	-39.0	-39.7	24.9	0.00e+00	0	43	0	1844445184	49	3956
2026-01-27 03:30:00.75	359.75	52.72	-39.2	-39.9	24.8	0.00e+00	0	43	0	1850736640	49	4031
2026-01-27 03:30:01.76	359.34	53.02	-39.2	-39.9	24.7	0.00e+00	0	43	0	1855979520	49	4044
2026-01-27 03:30:02.77	358.92	53.31	-39.1	-39.8	24.8	0.00e+00	0	43	0	1862270976	49	4001
2026-01-27 03:30:03.78	358.50	53.61	-39.0	-39.7	25.0	0.00e+00	0	43	0	1867513856	49	3942
2026-01-27 03:30:04.79	358.06	53.90	-39.3	-40.0	24.6	0.00e+00	0	43	0	1873805312	49	4084
2026-01-27 03:30:05.79	357.62	54.20	-39.2	-39.9	24.7	0.00e+00	0	43	0	1879048192	49	4042
2026-01-27 03:30:06.80	357.17	54.49	-39.1	-39.8	24.9	0.00e+00	0	43	0	1884291072	49	3981
2026-01-27 03:30:07.80	356.71	54.79	-39.1	-39.8	24.9	0.00e+00	0	43	0	1890582528	49	3967
2026-01-27 03:30:08.81	356.23	55.08	-39.1	-39.8	24.9	0.00e+00	0	43	0	1895825408	49	3980
2026-01-27 03:30:09.82	355.75	55.37	-39.0	-39.7	25.0	0.00e+00	0	43	0	1901068288	49	3941
2026-01-27 03:30:10.83	355.26	55.67	-39.0	-39.7	25.0	0.00e+00	0	43	0	1907359744	49	3936
2026-01-27 03:30:11.84	354.75	55.96	-39.0	-39.7	24.9	0.00e+00	0	43	0	1912602624	49	3935
2026-01-27 03:30:12.85	354.24	56.26	-39.1	-39.8	24.9	0.00e+00	0	43	0	1917845504	49	3986
2026-01-27 03:30:13.86	353.71	56.55	-38.9	-39.6	25.0	0.00e+00	0	43	0	1924136960	49	3901
2026-01-27 03:30:14.87	353.17	56.84	-38.5	-39.2	25.4	0.00e+00	0	43	0	1930428416	49	3710
2026-01-27 03:30:15.88	352.62	57.13	-38.5	-39.2	25.4	0.00e+00	0	43	0	1935671296	49	3709
2026-01-27 03:30:16.89	352.06	57.42	-38.5	-39.2	25.4	0.00e+00	0	43	0	1940914176	48	3956
2026-01-27 03:30:17.90	351.49	57.71	-38.3	-39.0	25.6	0.00e+00	0	43	0	1947205632	48	3827
2026-01-27 03:30:18.91	350.90	57.99	-38.4	-39.1	25.5	0.00e+00	0	43	0	1952448512	48	3882
2026-01-27 03:30:19.92	350.30	58.28	-38.8	-39.5	25.1	0.00e+00	0	43	0	1958739968	48	4081
2026-01-27 03:30:20.92	349.70	58.56	-38.7	-39.4	25.2	0.00e+00	0	43	0	1963982848	48	4030
2026-01-27 03:30:21.93	349.08	58.84	-38.8	-39.5	25.2	0.00e+00	0	43	0	1969225728	48	4053
2026-01-27 03:30:22.94	348.44	59.12	-38.9	-39.6	25.0	0.00e+00	0	43	0	1975517184	48	4144
2026-01-27 03:30:23.95	347.79	59.40	-38.7	-39.4	25.2	0.00e+00	0	43	0	1980760064	48	4036
2026-01-27 03:30:24.96	347.12	59.67	-38.8	-39.5	25.1	0.00e+00	0	43	0	1986002944	48	4081
2026-01-27 03:30:25.96	346.45	59.94	-39.0	-39.8	24.9	0.00e+00	0	43	0	1992294400	48	4194
2026-01-27 03:30:26.97	345.75	60.22	-39.0	-39.7	25.0	0.00e+00	0	43	0	1998585856	48	4168
2026-01-27 03:30:27.98	345.04	60.48	-38.8	-39.5	25.2	0.00e+00	0	43	0	2003828736	48	4079
2026-01-27 03:30:28.99	344.32	60.75	-38.7	-39.4	25.2	0.00e+00	0	43	0	2009071616	48	4042
2026-01-27 03:30:29.99	343.59	61.01	-38.8	-39.5	25.2	0.00e+00	0	43	0	2015363072	48	4086
2026-01-27 03:30:31.00	342.83	61.27	-38.9	-39.6	25.1	0.00e+00	0	43	0	2020605952	48	4115
2026-01-27 03:30:32.01	342.06	61.52	-38.9	-39.6	25.1	0.00e+00	0	43	0	2025848832	48	4118
2026-01-27 03:30:33.02	341.27	61.77	-38.8	-39.5	25.2	0.00e+00	0	43	0	2032140288	48	4062
2026-01-27 03:30:34.02	340.48	62.02	-38.7	-39.4	25.3	0.00e+00	0	43	0	2037383168	48	4030
2026-01-27 03:30:35.03	339.66	62.26	-38.6	-39.4	25.3	0.00e+00	0	43	0	2043674624	48	4015
2026-01-27 03:30:36.04	338.82	62.50	-37.7	-38.4	25.6	0.00e+00	0	43	0	2048917504	47	3806
2026-01-27 03:30:37.05	337.97	62.74	-37.5	-38.2	25.9	0.00e+00	0	43	0	2054160384	46	3917
2026-01-27 03:30:38.06	337.10	62.97	-37.7	-38.4	25.6	0.00e+00	0	43	0	2060451840	46	4048
2026-01-27 03:30:39.07	336.22	63.19	-38.1	-38.8	25.3	0.00e+00	0	43	0	2066743296	46	4224
2026-01-27 03:30:40.07	335.32	63.41	-38.1	-38.8	25.3	0.00e+00	0	43	0	2071986176	46	4222
2026-01-27 03:30:41.08	334.40	63.63	-38.0	-38.7	25.4	0.00e+00	0	43	0	2077229056	46	4179
2026-01-27 03:30:42.09	333.47	63.84	-37.8	-38.5	25.6	0.00e+00	0	43	0	2083520512	46	4052
2026-01-27 03:30:43.10	332.51	64.04	-37.8	-38.5	25.6	0.00e+00	0	43	0	2088763392	46	4065
2026-01-27 03:30:44.11	331.54	64.24	-37.4	-38.1	25.9	0.00e+00	0	43	0	2094006272	46	3880
2026-01-27 03:30:45.11	330.57	64.43	-37.0	-37.7	26.2	0.00e+00	0	43	0	2100297728	46	3719
2026-01-27 03:30:46.12	329.56	64.61	-37.1	-37.7	26.2	0.00e+00	0	43	0	2105540608	46	3736
2026-01-27 03:30:47.13	328.54	64.79	-37.3	-38.0	26.0	0.00e+00	0	43	0	2110783488	46	3834
2026-01-27 03:30:48.14	327.51	64.96	-37.3	-38.0	26.0	0.00e+00	0	43	0	2117074944	46	3836
2026-01-27 03:30:49.15	326.46	65.13	-36.9	-37.6	26.3	0.00e+00	0	43	0	2122317824	45	3892
2026-01-27 03:30:50.15	325.40	65.28	-36.8	-37.5	26.4	0.00e+00	0	43	0	2128609280	45	3853
2026-01-27 03:30:51.16	324.32	65.43	-36.9	-37.6	26.3	0.00e+00	0	43	0	2133852160	45	3880
2026-01-27 03:30:52.17	323.22	65.57	-37.2	-37.9	26.1	0.00e+00	0	43	0	2140143616	45	4027
2026-01-27 03:30:53.17	322.13	65.71	-37.4	-38.1	25.9	0.00e+00	0	43	0	2145386496	45	4109
2026-01-27 03:30:54.18	321.00	65.83	-37.5	-38.2	25.8	0.00e+00	0	43	0	2151677952	45	4154
2026-01-27 03:30:55.19	319.87	65.95	-37.5	-38.2	25.8	0.00e+00	0	43	0	2156920832	45	4189
2026-01-27 03:30:56.20	318.72	66.06	-37.2	-37.9	26.1	0.00e+00	0	43	0	2162163712	45	4011
2026-01-27 03:30:57.21	317.56	66.16	-37.1	-37.8	26.2	0.00e+00	0	43	0	2168455168	45	3971
2026-01-27 03:30:58.22	316.40	66.25	-37.1	-37.7	26.2	0.00e+00	0	43	0	2173698048	45	3955
2026-01-27 03:30:59.23	315.22	66.33	-37.2	-37.9	26.1	0.00e+00	0	43	0	2178940928	45	4014
2026-01-27 03:31:00.24	314.03	66.41	-37.1	-37.8	26.1	0.00e+00	0	43	0	2185232384	45	3985
2026-01-27 03:31:01.24	312.85	66.47	-37.1	-37.7	26.2	0.00e+00	0	43	0	2190475264	45	3953
2026-01-27 03:31:02.25	311.65	66.52	-36.8	-37.5	26.5	0.00e+00	0	43	0	2195718144	45	3848
2026-01-27 03:31:03.26	310.44	66.57	-36.9	-37.6	26.4	0.00e+00	0	43	0	2202009600	45	3872
2026-01-27 03:31:04.27	309.23	66.61	-36.9	-37.6	26.4	0.00e+00	0	43	0	2208301056	45	3885
2026-01-27 03:31:05.27	308.03	66.63	-36.9	-37.6	26.3	0.00e+00	0	43	0	2213543936	45	3891
2026-01-27 03:31:06.28	306.81	66.65	-37.0	-37.6	26.3	0.00e+00	0	43	0	2218786816	45	3911
2026-01-27 03:31:07.29	305.59	66.65	-36.8	-37.5	26.5	0.00e+00	0	43	0	2225078272	45	3827
2026-01-27 03:31:08.30	304.38	66.65	-36.5	-37.1	26.7	0.00e+00	0	43	0	2230321152	45	3689
2026-01-27 03:31:09.30	303.17	66.64	-36.6	-37.3	26.6	0.00e+00	0	43	0	2236612608	45	3741
2026-01-27 03:31:10.31	301.95	66.62	-36.7	-37.4	26.6	0.00e+00	0	43	0	2241855488	45	3793
2026-01-27 03:31:11.32	300.74	66.59	-36.8	-37.4	26.5	0.00e+00	0	43	0	2247098368	45	3816
2026-01-27 03:31:12.33	299.53	66.55	-36.8	-37.5	26.4	0.00e+00	0	43	0	2253389824	45	3857
2026-01-27 03:31:13.34	298.33	66.49	-36.6	-37.3	26.6	0.00e+00	0	43	0	2258632704	45	3760
2026-01-27 03:31:14.35	297.13	66.43	-36.7	-37.3	26.6	0.00e+00	0	43	0	2263875584	45	3778
2026-01-27 03:31:15.35	295.95	66.37	-36.8	-37.4	26.5	0.00e+00	0	43	0	2270167040	45	3820
2026-01-27 03:31:16.36	294.77	66.29	-36.7	-37.3	26.6	0.00e+00	0	43	0	2275409920	45	3776
2026-01-27 03:31:17.37	293.60	66.20	-36.7	-37.4	26.5	0.00e+00	0	43	0	2281701376	45	3794
2026-01-27 03:31:18.38	292.43	66.10	-36.8	-37.5	26.4	0.00e+00	0	43	0	2286944256	45	3845
2026-01-27 03:31:19.39	291.28	66.00	-36.8	-37.5	26.4	0.00e+00	0	43	0	2293235712	45	3855
2026-01-27 03:31:20.40	290.14	65.89	-36.7	-37.4	26.6	0.00e+00	0	43	0	2298478592	45	3782
2026-01-27 03:31:21.41	289.01	65.76	-36.7	-37.4	26.6	0.00e+00	0	43	0	2303721472	45	3784
2026-01-27 03:31:22.42	287.90	65.63	-37.0	-37.7	26.3	0.00e+00	0	43	0	2310012928	45	3924
2026-01-27 03:31:23.43	286.80	65.49	-36.9	-37.6	26.4	0.00e+00	0	43	0	2315255808	45	3905
2026-01-27 03:31:24.44	285.71	65.35	-36.9	-37.5	26.4	0.00e+00	0	43	0	2321547264	45	3855
2026-01-27 03:31:25.45	284.63	65.19	-37.0	-37.6	26.4	0.00e+00	0	43	0	2326790144	45	3896
2026-01-27 03:31:26.46	283.58	65.03	-37.3	-38.0	26.0	0.00e+00	0	43	0	2332033024	45	4085
2026-01-27 03:31:27.46	282.54	64.87	-37.5	-38.2	25.8	0.00e+00	0	43	0	2338324480	45	4186
2026-01-27 03:31:28.47	281.52	64.69	-37.6	-38.3	25.8	0.00e+00	0	43	0	2344615936	45	4212
2026-01-27 03:31:29.48	280.51	64.51	-37.5	-38.2	25.9	0.00e+00	0	43	0	2349858816	45	4167
2026-01-27 03:31:30.49	279.51	64.32	-37.5	-38.2	25.8	0.00e+00	0	43	0	2355101696	45	4184
2026-01-27 03:31:31.50	278.53	64.12	-37.5	-38.2	25.9	0.00e+00	0	43	0	2361393152	45	4150
2026-01-27 03:31:32.51	277.57	63.92	-37.4	-38.1	26.0	0.00e+00	0	43	0	2366636032	45	4125
2026-01-27 03:31:33.52	276.63	63.71	-37.4	-38.1	26.0	0.00e+00	0	43	0	2371878912	45	4110
2026-01-27 03:31:34.53	275.70	63.50	-37.3	-37.9	26.1	0.00e+00	0	43	0	2378170368	45	4049
2026-01-27 03:31:35.54	274.79	63.28	-37.3	-38.0	26.0	0.00e+00	0	43	0	2383413248	45	4068
2026-01-27 03:31:36.55	273.89	63.06	-37.3	-38.0	26.0	0.00e+00	0	43	0	2388656128	45	4058
2026-01-27 03:31:37.56	273.02	62.83	-37.6	-38.2	25.8	0.00e+00	0	43	0	2394947584	45	4183
2026-01-27 03:31:38.57	272.16	62.60	-38.1	-38.9	25.3	0.00e+00	0	43	0	2400190464	46	4246
2026-01-27 03:31:39.57	271.32	62.36	-38.1	-38.8	25.3	0.00e+00	0	43	0	2406481920	47	3987
2026-01-27 03:31:40.58	270.49	62.12	-37.7	-38.4	25.7	0.00e+00	0	43	0	2411724800	47	3795
2026-01-27 03:31:41.59	269.68	61.87	-37.5	-38.2	25.8	0.00e+00	0	43	0	2418016256	47	3711
2026-01-27 03:31:42.60	268.89	61.62	-37.7	-38.4	25.7	0.00e+00	0	43	0	2423259136	47	3803
2026-01-27 03:31:43.61	268.11	61.37	-37.7	-38.4	25.7	0.00e+00	0	43	0	2429550592	47	3816
2026-01-27 03:31:44.62	267.35	61.11	-37.7	-38.4	25.7	0.00e+00	0	43	0	2434793472	47	3791
2026-01-27 03:31:45.63	266.60	60.85	-37.8	-38.5	25.7	0.00e+00	0	43	0	2440036352	47	3834
2026-01-27 03:31:46.63	265.88	60.59	-37.9	-38.6	25.5	0.00e+00	0	43	0	2446327808	47	3885
2026-01-27 03:31:47.64	265.16	60.32	-38.2	-39.0	25.2	0.00e+00	0	43	0	2451570688	47	4067
2026-01-27 03:31:48.65	264.46	60.05	-38.4	-39.2	25.0	0.00e+00	0	43	0	2456813568	47	4161
2026-01-27 03:31:49.65	263.78	59.78	-38.4	-39.1	25.1	0.00e+00	0	43	0	2463105024	47	4119
2026-01-27 03:31:50.66	263.11	59.51	-38.4	-39.1	25.1	0.00e+00	0	43	0	2468347904	47	4126
2026-01-27 03:31:51.67	262.45	59.23	-38.5	-39.2	25.0	0.00e+00	0	43	0	2474639360	47	4174
2026-01-27 03:31:52.68	261.81	58.95	-38.6	-39.4	24.9	0.00e+00	0	43	0	2479882240	47	4247
2026-01-27 03:31:53.69	261.18	58.67	-38.6	-39.4	24.8	0.00e+00	0	43	0	2486173696	47	4253
2026-01-27 03:31:54.69	260.57	58.39	-38.6	-39.3	24.9	0.00e+00	0	43	0	2491416576	47	4203
2026-01-27 03:31:55.70	259.96	58.10	-38.4	-39.1	25.0	0.00e+00	0	43	0	2496659456	47	4123
2026-01-27 03:31:56.71	259.37	57.82	-38.2	-38.9	25.2	0.00e+00	0	43	0	2502950912	47	4033
2026-01-27 03:31:57.72	258.79	57.53	-38.2	-38.9	25.2	0.00e+00	0	43	0	2508193792	47	4031
2026-01-27 03:31:58.73	258.22	57.24	-38.3	-39.0	25.2	0.00e+00	0	43	0	2514485248	47	4056
2026-01-27 03:31:59.73	257.67	56.95	-38.4	-39.1	25.0	0.00e+00	0	43	0	2519728128	47	4115
2026-01-27 03:32:00.74	257.13	56.66	-39.2	-40.0	24.9	0.00e+00	0	43	0	2524971008	48	4297
2026-01-27 03:32:01.75	256.60	56.37	-39.2	-40.0	24.8	0.00e+00	0	43	0	2531262464	49	4062
2026-01-27 03:32:02.76	256.08	56.07	-38.9	-39.6	25.2	0.00e+00	0	43	0	2536505344	49	3878
2026-01-27 03:32:03.77	255.57	55.78	-38.7	-39.4	25.4	0.00e+00	0	43	0	2542796800	49	3781
2026-01-27 03:32:04.78	255.07	55.48	-38.7	-39.4	25.4	0.00e+00	0	43	0	2548039680	49	3813
2026-01-27 03:32:05.79	254.58	55.19	-38.8	-39.4	25.3	0.00e+00	0	43	0	2554331136	49	3824
2026-01-27 03:32:06.79	254.11	54.90	-38.7	-39.4	25.3	0.00e+00	0	43	0	2559574016	49	3822
2026-01-27 03:32:07.80	253.64	54.60	-38.9	-39.6	25.2	0.00e+00	0	43	0	2564816896	49	3895
2026-01-27 03:32:08.81	253.18	54.31	-39.1	-39.8	25.0	0.00e+00	0	43	0	2571108352	49	3983
2026-01-27 03:32:09.82	252.73	54.01	-39.1	-39.9	24.9	0.00e+00	0	43	0	2576351232	49	4007
2026-01-27 03:32:10.83	252.29	53.71	-39.1	-39.8	25.0	0.00e+00	0	43	0	2581594112	49	3963
2026-01-27 03:32:11.84	251.86	53.42	-38.9	-39.6	25.1	0.00e+00	0	43	0	2587885568	49	3898
2026-01-27 03:32:12.85	251.44	53.12	-39.0	-39.7	25.0	0.00e+00	0	43	0	2593128448	49	3954
2026-01-27 03:32:13.85	251.03	52.83	-38.9	-39.6	25.1	0.00e+00	0	43	0	2599419904	49	3901
2026-01-27 03:32:14.85	250.63	52.54	-39.0	-39.7	25.0	0.00e+00	0	43	0	2604662784	49	3936
2026-01-27 03:32:15.86	250.23	52.24	-39.1	-39.8	24.9	0.00e+00	0	43	0	2609905664	49	3974
2026-01-27 03:32:16.87	249.84	51.94	-39.1	-39.8	24.9	0.00e+00	0	43	0	2616197120	49	4001
2026-01-27 03:32:17.88	249.46	51.65	-39.1	-39.8	24.9	0.00e+00	0	43	0	2622488576	49	3979
2026-01-27 03:32:18.89	249.08	51.36	-39.1	-39.8	24.9	0.00e+00	0	43	0	2627731456	49	3995
2026-01-27 03:32:19.89	248.72	51.07	-39.1	-39.8	25.0	0.00e+00	0	43	0	2632974336	49	3970
2026-01-27 03:32:20.90	248.36	50.77	-39.0	-39.8	25.0	0.00e+00	0	43	0	2639265792	49	3960
2026-01-27 03:32:21.91	248.01	50.48	-38.9	-39.5	25.2	0.00e+00	0	43	0	2644508672	49	3866
2026-01-27 03:32:22.92	247.66	50.19	-38.7	-39.4	25.3	0.00e+00	0	43	0	2649751552	49	3816
2026-01-27 03:32:23.93	247.32	49.90	-38.8	-39.5	25.2	0.00e+00	0	43	0	2656043008	49	3830
2026-01-27 03:32:24.93	246.99	49.61	-38.8	-39.5	25.1	0.00e+00	0	43	0	2661285888	49	3861
2026-01-27 03:32:25.94	246.66	49.32	-38.8	-39.5	25.2	0.00e+00	0	43	0	2666528768	49	3834
2026-01-27 03:32:26.95	246.34	49.03	-38.4	-39.1	25.5	0.00e+00	0	43	0	2672820224	48	3891
2026-01-27 03:32:27.96	246.03	48.75	-38.3	-39.0	25.6	0.00e+00	0	43	0	2678063104	48	3851
2026-01-27 03:32:28.97	245.72	48.46	-38.2	-38.9	25.7	0.00e+00	0	43	0	2684354560	48	3803
2026-01-27 03:32:29.98	245.42	48.17	-38.3	-38.9	25.7	0.00e+00	0	43	0	2689597440	48	3817
2026-01-27 03:32:30.99	245.12	47.89	-38.2	-38.9	25.7	0.00e+00	0	43	0	2695888896	48	3790
2026-01-27 03:32:32.00	244.83	47.61	-38.3	-39.0	25.6	0.00e+00	0	43	0	2701131776	48	3858
2026-01-27 03:32:33.01	244.54	47.32	-38.3	-39.0	25.6	0.00e+00	0	43	0	2707423232	48	3848
2026-01-27 03:32:34.01	244.26	47.05	-38.3	-39.0	25.5	0.00e+00	0	43	0	2712666112	48	3863
2026-01-27 03:32:35.02	243.98	46.77	-38.2	-38.9	25.6	0.00e+00	0	43	0	2717908992	48	3814
2026-01-27 03:32:36.03	243.71	46.49	-38.1	-38.8	25.7	0.00e+00	0	43	0	2724200448	48	3767
2026-01-27 03:32:37.04	243.45	46.21	-37.6	-38.3	25.7	0.00e+00	0	43	0	2729443328	47	3746
2026-01-27 03:32:38.05	243.18	45.93	-37.6	-38.4	25.6	0.00e+00	0	43	0	2734686208	47	3782
2026-01-27 03:32:39.05	242.93	45.66	-37.7	-38.4	25.6	0.00e+00	0	43	0	2740977664	47	3799
2026-01-27 03:32:40.06	242.68	45.38	-37.8	-38.5	25.5	0.00e+00	0	43	0	2746220544	47	3841
2026-01-27 03:32:41.07	242.43	45.11	-37.6	-38.3	25.7	0.00e+00	0	43	0	2752512000	47	3753
2026-01-27 03:32:42.08	242.18	44.84	-37.7	-38.3	25.6	0.00e+00	0	43	0	2757754880	47	3774
2026-01-27 03:32:43.09	241.94	44.57	-37.7	-38.4	25.6	0.00e+00	0	43	0	2764046336	47	3787
2026-01-27 03:32:44.10	241.71	44.30	-38.0	-38.7	25.3	0.00e+00	0	43	0	2769289216	47	3934
2026-01-27 03:32:45.11	241.47	44.03	-38.1	-38.8	25.2	0.00e+00	0	43	0	2774532096	47	3993
2026-01-27 03:32:46.12	241.25	43.77	-38.1	-38.9	25.1	0.00e+00	0	43	0	2780823552	47	4018
2026-01-27 03:32:47.13	241.02	43.50	-38.2	-39.0	25.0	0.00e+00	0	43	0	2786066432	47	4057
2026-01-27 03:32:48.13	240.80	43.24	-38.0	-38.8	25.3	0.00e+00	0	43	0	2792357888	47	3960
2026-01-27 03:32:49.15	240.58	42.97	-37.7	-38.4	25.6	0.00e+00	0	43	0	2797600768	47	3786
2026-01-27 03:32:50.16	240.37	42.71	-37.6	-38.2	25.7	0.00e+00	0	43	0	2802843648	47	3733
2026-01-27 03:32:51.17	240.16	42.45	-37.7	-38.4	25.6	0.00e+00	0	43	0	2809135104	47	3787
2026-01-27 03:32:52.17	239.96	42.20	-37.5	-38.2	25.7	0.00e+00	0	43	0	2815426560	46	3917
2026-01-27 03:32:53.18	239.75	41.94	-37.5	-38.2	25.7	0.00e+00	0	43	0	2820669440	46	3925
2026-01-27 03:32:54.19	239.55	41.68	-37.5	-38.2	25.7	0.00e+00	0	43	0	2825912320	46	3917
2026-01-27 03:32:55.20	239.36	41.43	-37.5	-38.2	25.7	0.00e+00	0	43	0	2832203776	46	3944
2026-01-27 03:32:56.21	239.16	41.18	-37.5	-38.2	25.7	0.00e+00	0	43	0	2837446656	46	3944
2026-01-27 03:32:57.21	238.97	40.93	-37.4	-38.1	25.8	0.00e+00	0	43	0	2842689536	46	3896
2026-01-27 03:32:58.22	238.79	40.68	-37.3	-38.0	25.9	0.00e+00	0	43	0	2848980992	46	3845
2026-01-27 03:32:59.23	238.60	40.43	-37.3	-38.0	25.8	0.00e+00	0	43	0	2854223872	46	3837
2026-01-27 03:33:00.24	238.42	40.18	-37.2	-37.9	25.9	0.00e+00	0	43	0	2859466752	46	3818
2026-01-27 03:33:01.25	238.24	39.93	-37.2	-37.9	25.9	0.00e+00	0	43	0	2865758208	46	3815
2026-01-27 03:33:02.25	238.07	39.69	-37.3	-38.0	25.9	0.00e+00	0	43	0	2871001088	46	3827
2026-01-27 03:33:03.26	237.89	39.45	-37.3	-38.0	25.9	0.00e+00	0	43	0	2877292544	46	3828
2026-01-27 03:33:04.27	237.72	39.21	-37.3	-38.0	25.8	0.00e+00	0	43	0	2882535424	46	3852
2026-01-27 03:33:05.27	237.55	38.97	-37.2	-37.9	25.9	0.00e+00	0	43	0	2888826880	46	3812
2026-01-27 03:33:06.29	237.39	38.73	-37.2	-37.8	26.0	0.00e+00	0	43	0	2894069760	46	3775
2026-01-27 03:33:07.30	237.22	38.49	-37.1	-37.8	26.0	0.00e+00	0	43	0	2900361216	46	3758
2026-01-27 03:33:08.31	237.06	38.25	-37.3	-37.9	25.9	0.00e+00	0	43	0	2905604096	46	3816
2026-01-27 03:33:09.32	236.90	38.02	-37.4	-38.1	25.7	0.00e+00	0	43	0	2910846976	46	3885
2026-01-27 03:33:10.33	236.75	37.78	-37.5	-38.2	25.7	0.00e+00	0	43	0	2917138432	46	3938
2026-01-27 03:33:11.33	236.59	37.55	-37.6	-38.3	25.6	0.00e+00	0	43	0	2922381312	46	3992
2026-01-27 03:33:12.34	236.44	37.32	-37.5	-38.2	25.6	0.00e+00	0	43	0	2927624192	46	3932
2026-01-27 03:33:13.35	236.29	37.09	-37.4	-38.0	25.8	0.00e+00	0	43	0	2933915648	46	3864
2026-01-27 03:33:14.36	236.14	36.87	-37.3	-38.0	25.8	0.00e+00	0	43	0	2939158528	46	3843
2026-01-27 03:33:15.37	236.00	36.64	-37.3	-38.0	25.8	0.00e+00	0	43	0	2945449984	46	3841
2026-01-27 03:33:16.38	235.85	36.41	-37.4	-38.1	25.7	0.00e+00	0	43	0	2950692864	46	3883
2026-01-27 03:33:17.38	235.71	36.19	-37.3	-38.0	25.8	0.00e+00	0	43	0	2956984320	46	3853
2026-01-27 03:33:18.39	235.57	35.97	-37.4	-38.1	25.7	0.00e+00	0	43	0	2962227200	46	3874
2026-01-27 03:33:19.40	235.44	35.75	-37.4	-38.1	25.7	0.00e+00	0	43	0	2967470080	46	3893
2026-01-27 03:33:20.41	235.30	35.53	-37.5	-38.2	25.6	0.00e+00	0	43	0	2973761536	46	3950
2026-01-27 03:33:21.42	235.17	35.31	-37.4	-38.1	25.7	0.00e+00	0	43	0	2979004416	46	3893
2026-01-27 03:33:22.43	235.03	35.09	-37.3	-38.0	25.8	0.00e+00	0	43	0	2985295872	46	3841
2026-01-27 03:33:23.44	234.90	34.87	-37.3	-38.0	25.8	0.00e+00	0	43	0	2990538752	46	3861
2026-01-27 03:33:24.44	234.78	34.66	-37.3	-38.0	25.8	0.00e+00	0	43	0	2995781632	46	3854
2026-01-27 03:33:25.45	234.65	34.45	-37.4	-38.1	25.7	0.00e+00	0	43	0	3002073088	46	3881
2026-01-27 03:33:26.46	234.52	34.24	-37.4	-38.1	25.7	0.00e+00	0	43	0	3007315968	46	3876
2026-01-27 03:33:27.47	234.40	34.02	-37.4	-38.0	25.7	0.00e+00	0	43	0	3013607424	46	3867
2026-01-27 03:33:28.48	234.28	33.82	-37.3	-38.0	25.8	0.00e+00	0	43	0	3018850304	46	3856
2026-01-27 03:33:29.49	234.16	33.61	-37.4	-38.1	25.7	0.00e+00	0	43	0	3025141760	46	3881
2026-01-27 03:33:30.49	234.04	33.40	-37.2	-37.9	25.8	0.00e+00	0	43	0	3030384640	46	3811
2026-01-27 03:33:31.51	233.92	33.19	-37.3	-38.0	25.8	0.00e+00	0	43	0	3035627520	46	3844
2026-01-27 03:33:32.51	233.81	32.99	-37.4	-38.1	25.7	0.00e+00	0	43	0	3041918976	46	3871
2026-01-27 03:33:33.53	233.69	32.79	-37.4	-38.2	25.6	0.00e+00	0	43	0	3047161856	46	3914
2026-01-27 03:33:34.53	233.58	32.59	-37.5	-38.3	25.5	0.00e+00	0	43	0	3052404736	46	3964
2026-01-27 03:33:35.54	233.47	32.38	-37.6	-38.3	25.5	0.00e+00	0	43	0	3058696192	46	4003
2026-01-27 03:33:36.55	233.36	32.18	-37.6	-38.3	25.5	0.00e+00	0	43	0	3063939072	46	3998
2026-01-27 03:33:37.56	233.25	31.99	-37.7	-38.4	25.4	0.00e+00	0	43	0	3070230528	46	4015
2026-01-27 03:33:38.57	233.14	31.79	-37.7	-38.5	25.4	0.00e+00	0	43	0	3075473408	46	4055
2026-01-27 03:33:39.58	233.04	31.59	-37.6	-38.3	25.5	0.00e+00	0	43	0	3081764864	46	3985
2026-01-27 03:33:40.59	232.93	31.40	-37.6	-38.3	25.4	0.00e+00	0	43	0	3087007744	46	3992
2026-01-27 03:33:41.60	232.83	31.20	-37.6	-38.3	25.5	0.00e+00	0	43	0	3093299200	46	3975
2026-01-27 03:33:42.61	232.73	31.01	-37.6	-38.3	25.4	0.00e+00	0	43	0	3098542080	46	3995
2026-01-27 03:33:43.62	232.63	30.82	-37.6	-38.3	25.5	0.00e+00	0	43	0	3103784960	46	3987
2026-01-27 03:33:44.63	232.53	30.63	-37.6	-38.3	25.4	0.00e+00	0	43	0	3110076416	46	3986
2026-01-27 03:33:45.64	232.43	30.44	-37.6	-38.3	25.4	0.00e+00	0	43	0	3115319296	46	3988
2026-01-27 03:33:46.65	232.33	30.25	-37.6	-38.3	25.4	0.00e+00	0	43	0	3120562176	46	3993
2026-01-27 03:33:47.65	232.24	30.07	-37.7	-38.4	25.4	0.00e+00	0	43	0	3126853632	46	4026
2026-01-27 03:33:48.66	232.14	29.88	-37.7	-38.4	25.4	0.00e+00	0	43	0	3132096512	46	4025
2026-01-27 03:33:49.67	232.05	29.70	-37.8	-38.5	25.3	0.00e+00	0	43	0	3138387968	46	4062
2026-01-27 03:33:50.68	231.96	29.51	-37.7	-38.4	25.3	0.00e+00	0	43	0	3143630848	46	4033
2026-01-27 03:33:51.69	231.86	29.33	-37.7	-38.4	25.4	0.00e+00	0	43	0	3149922304	46	4020
2026-01-27 03:33:52.69	231.77	29.15	-37.6	-38.3	25.4	0.00e+00	0	43	0	3155165184	46	3998
2026-01-27 03:33:53.70	231.68	28.97	-37.6	-38.3	25.4	0.00e+00	0	43	0	3160408064	46	4004
2026-01-27 03:33:54.71	231.60	28.79	-37.7	-38.4	25.3	0.00e+00	0	43	0	3166699520	46	4047
2026-01-27 03:33:55.72	231.51	28.61	-37.8	-38.5	25.2	0.00e+00	0	43	0	3171942400	46	4081
2026-01-27 03:33:56.73	231.42	28.43	-37.8	-38.5	25.2	0.00e+00	0	43	0	3178233856	46	4093
2026-01-27 03:33:57.74	231.34	28.26	-37.8	-38.6	25.2	0.00e+00	0	43	0	3183476736	46	4108
2026-01-27 03:33:58.75	231.25	28.08	-37.9	-38.7	25.1	0.00e+00	0	43	0	3188719616	46	4150
2026-01-27 03:33:59.76	231.17	27.91	-38.0	-38.7	25.0	0.00e+00	0	43	0	3195011072	46	4183
2026-01-27 03:34:00.77	231.09	27.74	-37.9	-38.7	25.1	0.00e+00	0	43	0	3201302528	46	4148
2026-01-27 03:34:01.77	231.01	27.57	-38.0	-38.7	25.0	0.00e+00	0	43	0	3206545408	46	4182
2026-01-27 03:34:02.78	230.92	27.40	-37.9	-38.7	25.1	0.00e+00	0	43	0	3211788288	46	4146
2026-01-27 03:34:03.79	230.84	27.23	-37.9	-38.6	25.1	0.00e+00	0	43	0	3218079744	46	4137
2026-01-27 03:34:04.79	230.77	27.06	-37.9	-38.6	25.1	0.00e+00	0	43	0	3223322624	46	4121
2026-01-27 03:34:05.80	230.69	26.89	-37.8	-38.5	25.2	0.00e+00	0	43	0	3228565504	46	4079
2026-01-27 03:34:06.81	230.61	26.72	-37.8	-38.5	25.2	0.00e+00	0	43	0	3234856960	46	4091
2026-01-27 03:34:07.81	230.53	26.56	-37.8	-38.5	25.2	0.00e+00	0	43	0	3240099840	46	4073
2026-01-27 03:34:08.82	230.46	26.39	-37.8	-38.5	25.2	0.00e+00	0	43	0	3245342720	46	4084
2026-01-27 03:34:09.83	230.38	26.23	-37.8	-38.5	25.2	0.00e+00	0	43	0	3251634176	46	4074
2026-01-27 03:34:10.84	230.31	26.07	-37.8	-38.5	25.2	0.00e+00	0	43	0	3256877056	46	4069
2026-01-27 03:34:11.84	230.24	25.90	-37.9	-38.6	25.1	0.00e+00	0	43	0	3263168512	46	4111
2026-01-27 03:34:12.85	230.17	25.74	-37.9	-38.7	25.0	0.00e+00	0	43	0	3268411392	46	4153
2026-01-27 03:34:13.87	230.09	25.58	-37.9	-38.6	25.1	0.00e+00	0	43	0	3274702848	46	4121
2026-01-27 03:34:14.87	230.02	25.42	-38.1	-38.8	24.9	0.00e+00	0	43	0	3279945728	46	4211
2026-01-27 03:34:15.88	229.95	25.26	-38.1	-38.8	24.9	0.00e+00	0	43	0	3286237184	46	4221
2026-01-27 03:34:16.89	229.88	25.11	-38.0	-38.8	24.9	0.00e+00	0	43	0	3291480064	46	4199
2026-01-27 03:34:17.90	229.81	24.95	-38.1	-38.9	24.8	0.00e+00	0	43	0	3296722944	46	4256
2026-01-27 03:34:18.91	229.75	24.79	-38.1	-38.9	24.8	0.00e+00	0	43	0	3303014400	46	4256
2026-01-27 03:34:19.92	229.68	24.64	-38.1	-38.8	24.9	0.00e+00	0	43	0	3308257280	46	4231
2026-01-27 03:34:20.93	229.61	24.48	-38.2	-38.9	24.8	0.00e+00	0	43	0	3313500160	46	4280
2026-01-27 03:34:21.94	229.55	24.33	-38.2	-38.9	24.8	0.00e+00	0	43	0	3319791616	47	4034
2026-01-27 03:34:22.95	229.48	24.18	-38.2	-39.0	24.7	0.00e+00	0	43	0	3325034496	47	4064
2026-01-27 03:34:23.96	229.42	24.03	-38.3	-39.0	24.7	0.00e+00	0	43	0	3330277376	47	4091
2026-01-27 03:34:24.97	229.35	23.87	-38.3	-39.1	24.7	0.00e+00	0	43	0	3336568832	47	4104
2026-01-27 03:34:25.97	229.29	23.73	-38.2	-38.9	24.8	0.00e+00	0	43	0	3342860288	47	4025
2026-01-27 03:34:26.98	229.23	23.58	-38.2	-38.9	24.8	0.00e+00	0	43	0	3348103168	47	4035
2026-01-27 03:34:27.99	229.16	23.43	-38.2	-38.9	24.8	0.00e+00	0	43	0	3353346048	47	4040
2026-01-27 03:34:28.99	229.10	23.28	-38.1	-38.8	24.9	0.00e+00	0	43	0	3359637504	47	3998
2026-01-27 03:34:30.00	229.04	23.14	-38.2	-38.9	24.8	0.00e+00	0	43	0	3364880384	47	4016
2026-01-27 03:34:31.01	228.98	22.99	-38.2	-38.9	24.8	0.00e+00	0	43	0	3371171840	47	4032
2026-01-27 03:34:32.02	228.92	22.84	-38.2	-38.9	24.8	0.00e+00	0	43	0	3376414720	47	4036
2026-01-27 03:34:33.03	228.86	22.70	-38.2	-38.9	24.7	0.00e+00	0	43	0	3381657600	47	4050
2026-01-27 03:34:34.04	228.80	22.56	-38.3	-39.0	24.7	0.00e+00	0	43	0	3387949056	47	4073
2026-01-27 03:34:35.05	228.75	22.41	-38.4	-39.1	24.6	0.00e+00	0	43	0	3393191936	47	4124
2026-01-27 03:34:36.06	228.69	22.27	-38.4	-39.1	24.6	0.00e+00	0	43	0	3398434816	47	4135
2026-01-27 03:34:37.07	228.63	22.13	-38.5	-39.2	24.5	0.00e+00	0	43	0	3404726272	47	4177
2026-01-27 03:34:38.08	228.58	21.99	-38.5	-39.3	24.5	0.00e+00	0	43	0	3411017728	47	4195
2026-01-27 03:34:39.09	228.52	21.85	-38.6	-39.4	24.4	0.00e+00	0	43	0	3416260608	47	4256
2026-01-27 03:34:40.10	228.46	21.71	-39.0	-39.7	24.6	0.00e+00	0	43	0	3421503488	48	4169
2026-01-27 03:34:41.11	228.41	21.57	-39.1	-39.8	24.4	0.00e+00	0	43	0	3427794944	48	4218
2026-01-27 03:34:42.11	228.36	21.43	-39.1	-39.8	24.4	0.00e+00	0	43	0	3433037824	48	4236
2026-01-27 03:34:43.12	228.30	21.30	-39.0	-39.7	24.5	0.00e+00	0	43	0	3438280704	48	4178
2026-01-27 03:34:44.13	228.25	21.16	-39.0	-39.7	24.5	0.00e+00	0	43	0	3444572160	48	4178
2026-01-27 03:34:45.14	228.20	21.03	-38.9	-39.7	24.5	0.00e+00	0	43	0	3449815040	48	4170
2026-01-27 03:34:46.15	228.14	20.89	-38.9	-39.7	24.5	0.00e+00	0	43	0	3456106496	48	4159
2026-01-27 03:34:47.16	228.09	20.76	-39.0	-39.7	24.5	0.00e+00	0	43	0	3461349376	48	4186
2026-01-27 03:34:48.17	228.04	20.62	-38.9	-39.6	24.6	0.00e+00	0	43	0	3467640832	48	4126
2026-01-27 03:34:49.17	227.99	20.49	-38.9	-39.6	24.6	0.00e+00	0	43	0	3472883712	48	4131
2026-01-27 03:34:50.18	227.94	20.36	-38.8	-39.5	24.7	0.00e+00	0	43	0	3479175168	48	4095
2026-01-27 03:34:51.19	227.89	20.23	-38.8	-39.5	24.7	0.00e+00	0	43	0	3484418048	48	4085
2026-01-27 03:34:52.20	227.84	20.10	-38.9	-39.6	24.6	0.00e+00	0	43	0	3489660928	48	4107
2026-01-27 03:34:53.20	227.79	19.97	-38.8	-39.5	24.7	0.00e+00	0	43	0	3495952384	48	4063
2026-01-27 03:34:54.21	227.74	19.84	-38.8	-39.5	24.6	0.00e+00	0	43	0	3501195264	48	4098
2026-01-27 03:34:55.22	227.70	19.71	-38.8	-39.5	24.7	0.00e+00	0	43	0	3506438144	48	4081
2026-01-27 03:34:56.23	227.65	19.58	-38.8	-39.5	24.6	0.00e+00	0	43	0	3512729600	48	4080
2026-01-27 03:34:57.24	227.60	19.45	-38.9	-39.6	24.5	0.00e+00	0	43	0	3517972480	48	4126
2026-01-27 03:34:58.24	227.55	19.33	-38.9	-39.6	24.5	0.00e+00	0	43	0	3523215360	48	4122
2026-01-27 03:34:59.25	227.51	19.20	-38.9	-39.6	24.6	0.00e+00	0	43	0	3529506816	48	4126
2026-01-27 03:35:00.25	227.46	19.08	-39.0	-39.7	24.4	0.00e+00	0	43	0	3534749696	48	4193
2026-01-27 03:35:01.26	227.42	18.95	-39.2	-39.9	24.3	0.00e+00	0	43	0	3541041152	48	4252
2026-01-27 03:35:02.27	227.37	18.83	-39.1	-39.9	24.3	0.00e+00	0	43	0	3546284032	49	4013
2026-01-27 03:35:03.28	227.33	18.70	-39.2	-39.9	24.3	0.00e+00	0	43	0	3552575488	49	4034
2026-01-27 03:35:04.29	227.28	18.58	-39.4	-40.1	24.1	0.00e+00	0	43	0	3557818368	49	4113
2026-01-27 03:35:05.30	227.24	18.46	-39.3	-40.0	24.2	0.00e+00	0	43	0	3564109824	49	4080
2026-01-27 03:35:06.31	227.19	18.33	-39.3	-40.1	24.1	0.00e+00	0	43	0	3569352704	49	4114
2026-01-27 03:35:07.32	227.15	18.21	-39.4	-40.1	24.1	0.00e+00	0	43	0	3574595584	49	4140
2026-01-27 03:35:08.33	227.11	18.09	-39.5	-40.2	23.9	0.00e+00	0	43	0	3580887040	49	4191
2026-01-27 03:35:09.33	227.07	17.97	-39.6	-40.4	23.8	0.00e+00	0	43	0	3586129920	49	4245
2026-01-27 03:35:10.33	227.02	17.85	-39.7	-40.5	23.7	0.00e+00	0	43	0	3591372800	49	4299
2026-01-27 03:35:11.34	226.98	17.73	-39.7	-40.5	23.8	0.00e+00	0	43	0	3597664256	50	4068
2026-01-27 03:35:12.35	226.94	17.62	-39.8	-40.6	23.6	0.00e+00	0	43	0	3602907136	50	4105
2026-01-27 03:35:13.35	226.90	17.50	-39.8	-40.6	23.7	0.00e+00	0	43	0	3608150016	50	4100
2026-01-27 03:35:14.36	226.86	17.38	-39.9	-40.7	23.6	0.00e+00	0	43	0	3614441472	50	4149
2026-01-27 03:35:15.37	226.82	17.26	-39.9	-40.6	23.6	0.00e+00	0	43	0	3620732928	50	4139
2026-01-27 03:35:16.38	226.78	17.15	-39.9	-40.7	23.5	0.00e+00	0	43	0	3625975808	50	4174
2026-01-27 03:35:17.39	226.74	17.03	-40.0	-40.7	23.5	0.00e+00	0	43	0	3631218688	50	4182
2026-01-27 03:35:18.39	226.70	16.92	-40.0	-40.7	23.5	0.00e+00	0	43	0	3637510144	50	4184
2026-01-27 03:35:19.40	226.66	16.80	-40.1	-40.8	23.4	0.00e+00	0	43	0	3642753024	50	4236
2026-01-27 03:35:20.40	226.62	16.69	-40.1	-40.8	23.4	0.00e+00	0	43	0	3649044480	50	4229
2026-01-27 03:35:21.41	226.58	16.57	-40.0	-40.8	23.4	0.00e+00	0	43	0	3654287360	50	4229
2026-01-27 03:35:22.42	226.55	16.46	-40.0	-40.8	23.4	0.00e+00	0	43	0	3659530240	50	4219
2026-01-27 03:35:23.43	226.51	16.35	-40.1	-40.8	23.4	0.00e+00	0	43	0	3665821696	50	4232
2026-01-27 03:35:24.44	226.47	16.24	-40.2	-41.0	23.3	0.00e+00	0	43	0	3671064576	50	4292
2026-01-27 03:35:25.45	226.43	16.12	-40.2	-40.9	23.3	0.00e+00	0	43	0	3676307456	50	4278
2026-01-27 03:35:26.44	226.40	16.02	-40.1	-40.9	23.3	0.00e+00	0	43	0	3682598912	50	4267
2026-01-27 03:35:27.45	226.36	15.90	-40.2	-40.9	23.3	0.00e+00	0	43	0	3687841792	50	4279
2026-01-27 03:35:28.47	226.32	15.79	-40.2	-40.9	23.3	0.00e+00	0	43	0	3694133248	50	4291
