passes_logs/2026/01/27/R3.2S_Murmansk/R3.2S_Murmansk__20260127_075605_KANOPUS-V_5_rec.log

#Pass ID: 20260127_075605_KANOPUS-V 5
#Satellite: KANOPUS-V 5
#Configuration: KANOPUS-V_8320
#almurnet v.1.7.20251203
#Start time: 2026-01-27 07:56:06

#Version: 2.2.20231116
#Station: R3.2S_Murmansk
#Location: 33.079688 lon 68.888172 lat
#TLE: 1 43876U 18111A   26026.53344362  .00004964  00000+0  21063-3 0  9993
#TLE: 2 43876  97.3674 294.8392 0001826  89.2862 270.8585 15.23550007393227

#Time	Az	El	Level	Level2	SNR	BER	BlckErr	Temp	State	Recorded	gain1	gain2
2026-01-27 07:56:06.27	164.00	2.07	-54.9	-63.7	3.8	7.45e-01	0	41	0	0	80	10522
2026-01-27 07:56:07.27	164.01	2.15	-54.9	-63.8	3.8	7.46e-01	0	41	104	0	80	10552
2026-01-27 07:56:08.28	164.03	2.22	-54.9	-63.7	3.8	7.44e-01	0	41	104	0	80	10518
2026-01-27 07:56:09.29	164.05	2.29	-54.9	-63.7	3.8	7.45e-01	0	41	104	0	80	10498
2026-01-27 07:56:10.30	164.06	2.36	-54.9	-63.7	3.8	7.46e-01	0	41	104	0	80	10486
2026-01-27 07:56:11.31	164.08	2.43	-54.9	-63.8	3.8	7.45e-01	0	41	104	0	80	10561
2026-01-27 07:56:12.32	164.09	2.50	-55.1	-63.9	3.8	7.46e-01	0	41	104	0	80	10735
2026-01-27 07:56:13.32	164.11	2.58	-55.1	-64.0	3.8	7.44e-01	0	41	104	0	80	10791
2026-01-27 07:56:14.33	164.13	2.65	-55.1	-63.9	3.8	7.44e-01	0	42	104	0	80	10768
2026-01-27 07:56:15.34	164.15	2.72	-55.1	-63.9	3.8	7.44e-01	0	41	104	0	80	10725
2026-01-27 07:56:16.35	164.16	2.80	-55.1	-63.9	3.8	7.46e-01	0	42	104	0	80	10697
2026-01-27 07:56:17.36	164.18	2.87	-55.0	-63.9	3.8	7.45e-01	0	41	104	0	80	10656
2026-01-27 07:56:18.36	164.20	2.94	-55.0	-63.8	3.8	7.45e-01	0	42	104	0	80	10610
2026-01-27 07:56:19.37	164.21	3.02	-55.0	-63.8	3.8	7.46e-01	0	42	104	0	80	10577
2026-01-27 07:56:20.38	164.23	3.09	-54.9	-63.8	3.8	7.45e-01	0	42	104	0	80	10542
2026-01-27 07:56:21.39	164.25	3.17	-54.9	-63.7	3.8	7.45e-01	0	42	104	0	80	10515
2026-01-27 07:56:22.40	164.27	3.24	-54.8	-63.6	3.8	7.45e-01	0	42	104	0	80	10376
2026-01-27 07:56:23.40	164.28	3.31	-54.8	-63.6	3.8	7.45e-01	0	42	104	0	80	10396
2026-01-27 07:56:24.41	164.30	3.39	-54.7	-63.6	3.8	7.44e-01	0	42	104	0	80	10305
2026-01-27 07:56:25.42	164.32	3.47	-54.7	-63.5	3.8	7.45e-01	0	42	104	0	80	10246
2026-01-27 07:56:26.43	164.34	3.54	-54.6	-63.5	3.8	7.45e-01	0	42	104	0	80	10181
2026-01-27 07:56:27.43	164.35	3.62	-54.5	-63.4	3.8	7.46e-01	0	42	104	0	80	10076
2026-01-27 07:56:28.44	164.37	3.69	-54.4	-63.3	3.8	7.44e-01	0	42	104	0	80	10008
2026-01-27 07:56:29.44	164.39	3.77	-54.4	-63.2	3.8	7.46e-01	0	42	104	0	80	9880
2026-01-27 07:56:30.45	164.41	3.85	-54.3	-63.1	3.8	7.45e-01	0	42	104	0	80	9763
2026-01-27 07:56:31.46	164.43	3.92	-54.2	-63.0	3.8	7.46e-01	0	42	104	0	80	9660
2026-01-27 07:56:32.47	164.45	4.00	-54.0	-62.8	3.8	7.46e-01	0	42	104	0	80	9436
2026-01-27 07:56:33.48	164.46	4.08	-53.7	-62.4	3.8	7.45e-01	0	42	104	0	79	9572
2026-01-27 07:56:34.48	164.48	4.16	-52.3	-58.0	4.3	7.30e-01	0	42	104	0	76	6867
2026-01-27 07:56:35.49	164.50	4.24	-51.3	-55.8	5.5	6.90e-01	0	42	0	0	74	5976
2026-01-27 07:56:36.50	164.52	4.32	-50.4	-54.2	7.0	6.63e-01	0	42	0	0	72	5546
2026-01-27 07:56:37.51	164.54	4.39	-49.2	-52.3	8.7	6.37e-01	0	42	0	0	70	5026
2026-01-27 07:56:38.51	164.56	4.47	-48.3	-51.1	9.8	6.26e-01	0	42	0	12582912	68	4913
2026-01-27 07:56:39.52	164.58	4.55	-47.5	-50.0	11.0	6.18e-01	0	42	0	27262976	67	4584
2026-01-27 07:56:40.53	164.60	4.63	-46.8	-49.1	11.8	6.15e-01	0	42	0	41943040	65	4645
2026-01-27 07:56:41.54	164.62	4.71	-46.2	-48.4	12.5	6.12e-01	0	42	0	58720256	64	4536
2026-01-27 07:56:42.54	164.64	4.79	-45.7	-47.9	13.0	6.11e-01	0	42	0	73400320	63	4501
2026-01-27 07:56:43.55	164.66	4.88	-45.5	-47.7	13.2	6.11e-01	0	42	0	88080384	63	4422
2026-01-27 07:56:44.56	164.68	4.96	-45.6	-47.8	13.1	6.11e-01	0	42	0	104857600	63	4456
2026-01-27 07:56:45.57	164.70	5.04	-45.8	-47.9	13.0	6.11e-01	0	42	0	121634816	63	4545
2026-01-27 07:56:46.58	164.72	5.12	-46.5	-48.8	12.3	6.13e-01	0	42	0	136314880	63	4994
2026-01-27 07:56:47.59	164.74	5.20	-47.1	-49.6	11.5	6.16e-01	0	42	0	150994944	66	4601
2026-01-27 07:56:48.59	164.76	5.29	-45.9	-48.1	12.8	6.11e-01	0	42	0	167772160	63	4639
2026-01-27 07:56:49.60	164.78	5.37	-47.1	-49.6	11.5	6.15e-01	0	42	0	182452224	65	4875
2026-01-27 07:56:50.61	164.80	5.45	-46.8	-49.2	11.7	6.14e-01	0	42	0	197132288	64	4964
2026-01-27 07:56:51.62	164.82	5.54	-48.7	-51.6	9.3	6.31e-01	0	42	0	213909504	69	4906
2026-01-27 07:56:52.62	164.84	5.62	-46.5	-48.9	12.0	6.14e-01	0	42	0	228589568	65	4506
2026-01-27 07:56:53.63	164.86	5.70	-46.4	-48.9	12.1	5.89e-01	0	42	0	243269632	64	4769
2026-01-27 07:56:54.64	164.88	5.79	-46.4	-48.9	12.2	5.88e-01	0	42	0	260046848	64	4764
2026-01-27 07:56:55.65	164.90	5.87	-46.3	-48.8	12.2	5.88e-01	0	42	0	274726912	64	4739
2026-01-27 07:56:56.65	164.92	5.96	-46.2	-48.7	12.4	5.88e-01	0	42	0	289406976	63	4932
2026-01-27 07:56:57.66	164.94	6.05	-45.6	-48.0	13.1	5.87e-01	0	42	0	304087040	63	4546
2026-01-27 07:56:58.67	164.96	6.13	-45.4	-47.7	13.3	5.86e-01	0	42	0	320864256	62	4701
2026-01-27 07:56:59.67	164.99	6.22	-45.4	-47.7	13.4	5.86e-01	0	42	0	337641472	62	4652
2026-01-27 07:57:00.68	165.01	6.31	-44.9	-47.1	13.9	5.86e-01	0	43	0	352321536	61	4634
2026-01-27 07:57:01.69	165.03	6.39	-45.0	-47.3	13.8	5.87e-01	0	42	0	369098752	61	4732
2026-01-27 07:57:02.70	165.05	6.48	-45.0	-47.2	13.9	5.85e-01	0	42	0	383778816	61	4689
2026-01-27 07:57:03.71	165.07	6.57	-44.9	-47.1	13.9	5.85e-01	0	42	0	398458880	61	4638
2026-01-27 07:57:04.72	165.10	6.66	-44.9	-47.1	14.0	5.86e-01	0	42	0	415236096	61	4624
2026-01-27 07:57:05.72	165.12	6.75	-44.8	-47.0	14.1	5.86e-01	0	42	0	429916160	61	4566
2026-01-27 07:57:06.73	165.14	6.84	-44.8	-47.0	14.1	5.85e-01	0	42	0	444596224	61	4559
2026-01-27 07:57:07.74	165.16	6.93	-44.8	-47.0	14.1	5.85e-01	0	42	0	459276288	61	4558
2026-01-27 07:57:08.75	165.19	7.02	-44.7	-46.9	14.2	5.84e-01	0	42	0	476053504	61	4507
2026-01-27 07:57:09.76	165.21	7.11	-44.7	-46.9	14.2	5.85e-01	0	42	0	490733568	61	4531
2026-01-27 07:57:10.77	165.23	7.20	-44.5	-46.7	14.3	5.84e-01	0	43	0	505413632	61	4431
2026-01-27 07:57:11.77	165.26	7.29	-44.6	-46.8	14.3	5.85e-01	0	43	0	524288000	61	4465
2026-01-27 07:57:12.78	165.28	7.38	-44.4	-46.5	14.5	5.85e-01	0	43	0	538968064	60	4596
2026-01-27 07:57:13.79	165.30	7.48	-44.5	-46.7	14.4	5.84e-01	0	43	0	553648128	60	4670
2026-01-27 07:57:14.80	165.33	7.57	-44.4	-46.5	14.5	5.84e-01	0	43	0	568328192	60	4593
2026-01-27 07:57:15.81	165.35	7.66	-44.4	-46.6	14.5	5.84e-01	0	42	0	585105408	60	4622
2026-01-27 07:57:16.81	165.38	7.76	-44.3	-46.5	14.6	5.85e-01	0	43	0	599785472	60	4554
2026-01-27 07:57:17.82	165.40	7.85	-44.3	-46.5	14.6	5.84e-01	0	43	0	614465536	60	4559
2026-01-27 07:57:18.82	165.42	7.94	-44.4	-46.5	14.6	5.84e-01	0	43	0	631242752	60	4574
2026-01-27 07:57:19.83	165.45	8.04	-44.3	-46.5	14.6	5.84e-01	0	43	0	645922816	60	4565
2026-01-27 07:57:20.84	165.47	8.14	-44.2	-46.3	14.7	6.00e-01	0	43	0	660602880	60	4471
2026-01-27 07:57:21.85	165.50	8.23	-44.1	-46.2	14.8	5.98e-01	0	43	0	677380096	60	4415
2026-01-27 07:57:22.86	165.52	8.33	-44.2	-46.3	14.7	5.97e-01	0	43	0	692060160	60	4453
2026-01-27 07:57:23.87	165.55	8.43	-44.1	-46.1	14.9	5.99e-01	0	43	0	706740224	60	4389
2026-01-27 07:57:24.88	165.58	8.53	-44.1	-46.2	14.8	6.01e-01	0	43	0	723517440	60	4441
2026-01-27 07:57:25.89	165.60	8.62	-44.0	-46.1	14.9	5.94e-01	0	43	0	740294656	60	4370
2026-01-27 07:57:26.89	165.63	8.72	-44.0	-46.1	14.9	5.99e-01	0	43	0	754974720	60	4360
2026-01-27 07:57:27.90	165.65	8.82	-44.2	-46.3	14.8	5.98e-01	0	43	0	769654784	59	4716
2026-01-27 07:57:28.91	165.68	8.92	-44.1	-46.2	14.9	5.98e-01	0	43	0	786432000	59	4657
2026-01-27 07:57:29.91	165.71	9.02	-44.2	-46.3	14.7	5.98e-01	0	43	0	801112064	59	4745
2026-01-27 07:57:30.92	165.73	9.12	-43.9	-46.1	15.0	5.98e-01	0	43	0	815792128	59	4600
2026-01-27 07:57:31.92	165.76	9.22	-44.0	-46.1	14.9	5.98e-01	0	43	0	832569344	59	4633
2026-01-27 07:57:32.93	165.79	9.33	-44.0	-46.1	14.9	5.98e-01	0	43	0	847249408	59	4646
2026-01-27 07:57:33.93	165.81	9.43	-44.0	-46.1	14.9	5.99e-01	0	43	0	861929472	59	4628
2026-01-27 07:57:34.94	165.84	9.53	-43.9	-46.0	15.0	5.99e-01	0	43	0	878706688	59	4586
2026-01-27 07:57:35.95	165.87	9.64	-43.8	-45.9	15.1	5.98e-01	0	43	0	893386752	59	4522
2026-01-27 07:57:36.95	165.90	9.74	-43.8	-45.9	15.1	6.00e-01	0	43	0	908066816	59	4519
2026-01-27 07:57:37.96	165.92	9.84	-43.9	-45.9	15.1	6.00e-01	0	43	0	924844032	59	4544
2026-01-27 07:57:38.96	165.95	9.95	-43.8	-45.9	15.1	5.98e-01	0	43	0	939524096	59	4542
2026-01-27 07:57:39.97	165.98	10.06	-43.9	-46.0	15.1	5.99e-01	0	43	0	956301312	59	4565
2026-01-27 07:57:40.97	166.01	10.16	-43.8	-46.0	15.1	5.97e-01	0	43	0	970981376	59	4547
2026-01-27 07:57:41.97	166.04	10.27	-43.6	-45.6	15.3	6.01e-01	0	43	0	987758592	59	4387
2026-01-27 07:57:42.98	166.07	10.38	-43.7	-45.8	15.2	6.00e-01	0	43	0	1002438656	59	4468
2026-01-27 07:57:43.99	166.10	10.48	-43.7	-45.8	15.2	6.00e-01	0	43	0	1017118720	59	4462
2026-01-27 07:57:45.00	166.13	10.59	-43.7	-45.8	15.3	6.00e-01	0	43	0	1033895936	59	4460
2026-01-27 07:57:46.00	166.16	10.70	-43.5	-45.6	15.4	5.99e-01	0	43	0	1048576000	59	4370
2026-01-27 07:57:47.00	166.19	10.81	-43.6	-45.6	15.4	5.97e-01	0	43	0	1063256064	59	4385
2026-01-27 07:57:48.01	166.22	10.92	-43.5	-45.6	15.5	5.98e-01	0	43	0	1080033280	59	4346
2026-01-27 07:57:49.01	166.25	11.04	-43.4	-45.5	15.5	5.97e-01	0	43	0	1094713344	58	4571
2026-01-27 07:57:50.02	166.28	11.15	-43.4	-45.4	15.6	5.99e-01	0	43	0	1109393408	58	4543
2026-01-27 07:57:51.02	166.31	11.26	-43.4	-45.5	15.5	5.99e-01	0	43	0	1126170624	58	4559
2026-01-27 07:57:52.03	166.34	11.38	-43.3	-45.4	15.6	6.00e-01	0	43	0	1140850688	58	4531
2026-01-27 07:57:53.04	166.37	11.49	-43.3	-45.4	15.6	5.98e-01	0	43	0	1155530752	58	4523
2026-01-27 07:57:54.04	166.41	11.60	-43.3	-45.4	15.7	5.97e-01	0	43	0	1172307968	58	4495
2026-01-27 07:57:55.04	166.44	11.72	-43.4	-45.5	15.5	5.99e-01	0	43	0	1186988032	58	4577
2026-01-27 07:57:56.05	166.47	11.84	-43.2	-45.3	15.7	5.98e-01	0	43	0	1201668096	58	4458
2026-01-27 07:57:57.05	166.50	11.95	-43.3	-45.3	15.7	6.00e-01	0	43	0	1218445312	58	4489
2026-01-27 07:57:58.06	166.54	12.07	-43.2	-45.3	15.7	5.98e-01	0	43	0	1233125376	58	4454
2026-01-27 07:57:59.06	166.57	12.19	-43.1	-45.1	15.9	6.00e-01	0	43	0	1247805440	58	4381
2026-01-27 07:58:00.07	166.60	12.31	-43.2	-45.2	15.8	6.00e-01	0	43	0	1264582656	58	4417
2026-01-27 07:58:01.07	166.64	12.43	-43.0	-45.0	16.0	6.02e-01	0	43	0	1281359872	58	4338
2026-01-27 07:58:02.08	166.67	12.55	-43.0	-45.0	16.0	6.00e-01	0	43	0	1296039936	57	4579
2026-01-27 07:58:03.08	166.71	12.67	-43.0	-45.0	15.9	6.04e-01	0	43	0	1310720000	57	4582
2026-01-27 07:58:04.09	166.74	12.80	-42.8	-44.8	16.1	6.01e-01	0	43	0	1327497216	57	4474
2026-01-27 07:58:05.10	166.78	12.92	-42.7	-44.7	16.2	6.04e-01	0	43	0	1342177280	57	4432
2026-01-27 07:58:06.10	166.81	13.04	-42.8	-44.8	16.1	6.04e-01	0	43	0	1356857344	57	4454
2026-01-27 07:58:07.11	166.85	13.17	-42.6	-44.6	16.3	5.99e-01	0	43	0	1373634560	57	4370
2026-01-27 07:58:08.12	166.88	13.30	-42.5	-44.5	16.4	6.03e-01	0	43	0	1388314624	56	4567
2026-01-27 07:58:09.13	166.92	13.42	-42.6	-44.6	16.3	6.04e-01	0	43	0	1402994688	56	4611
2026-01-27 07:58:10.13	166.96	13.55	-42.4	-44.4	16.5	6.04e-01	0	43	0	1419771904	56	4511
2026-01-27 07:58:11.14	166.99	13.68	-42.5	-44.5	16.4	6.05e-01	0	43	0	1434451968	56	4549
2026-01-27 07:58:12.14	167.03	13.81	-42.5	-44.4	16.4	6.04e-01	0	43	0	1449132032	56	4537
2026-01-27 07:58:13.15	167.07	13.94	-42.2	-44.2	16.6	6.04e-01	0	43	0	1463812096	56	4406
2026-01-27 07:58:14.16	167.11	14.07	-42.3	-44.3	16.5	6.06e-01	0	43	0	1480589312	56	4471
2026-01-27 07:58:15.17	167.15	14.21	-42.3	-44.2	16.6	6.04e-01	0	43	0	1495269376	56	4424
2026-01-27 07:58:16.17	167.19	14.34	-42.1	-44.0	16.9	6.04e-01	0	43	0	1512046592	55	4595
2026-01-27 07:58:17.18	167.22	14.47	-42.2	-44.2	16.8	6.03e-01	0	43	0	1528823808	55	4674
2026-01-27 07:58:18.18	167.26	14.61	-42.1	-44.0	16.9	6.08e-01	0	43	0	1543503872	55	4593
2026-01-27 07:58:19.19	167.30	14.74	-41.8	-43.8	17.1	6.01e-01	0	43	0	1558183936	55	4470
2026-01-27 07:58:20.20	167.35	14.88	-41.9	-43.9	17.1	5.97e-01	0	43	0	1572864000	55	4505
2026-01-27 07:58:21.21	167.39	15.02	-41.7	-43.7	17.2	5.94e-01	0	43	0	1589641216	55	4428
2026-01-27 07:58:22.21	167.43	15.16	-41.8	-43.8	17.2	5.97e-01	0	43	0	1604321280	55	4456
2026-01-27 07:58:23.22	167.47	15.30	-41.8	-43.8	17.1	5.97e-01	0	43	0	1619001344	55	4476
2026-01-27 07:58:24.23	167.51	15.44	-41.9	-43.9	17.1	5.95e-01	0	43	0	1635778560	55	4511
2026-01-27 07:58:25.23	167.55	15.58	-41.8	-43.8	17.2	5.98e-01	0	43	0	1650458624	55	4442
2026-01-27 07:58:26.24	167.60	15.73	-41.6	-43.6	17.4	5.96e-01	0	43	0	1665138688	55	4364
2026-01-27 07:58:27.25	167.64	15.87	-41.6	-43.6	17.3	5.95e-01	0	43	0	1681915904	55	4366
2026-01-27 07:58:28.26	167.69	16.02	-41.7	-43.7	17.3	5.95e-01	0	43	0	1696595968	55	4404
2026-01-27 07:58:29.27	167.73	16.17	-41.5	-43.5	17.4	5.95e-01	0	43	0	1711276032	55	4329
2026-01-27 07:58:30.27	167.78	16.32	-41.3	-43.4	17.5	5.98e-01	0	43	0	1728053248	54	4496
2026-01-27 07:58:31.28	167.82	16.47	-41.3	-43.3	17.5	5.98e-01	0	43	0	1744830464	54	4481
2026-01-27 07:58:32.28	167.87	16.61	-41.4	-43.4	17.4	5.96e-01	0	43	0	1759510528	54	4521
2026-01-27 07:58:33.29	167.91	16.77	-41.3	-43.3	17.5	6.03e-01	0	43	0	1774190592	54	4483
2026-01-27 07:58:34.30	167.96	16.92	-41.1	-43.1	17.7	5.97e-01	0	43	0	1790967808	54	4364
2026-01-27 07:58:35.30	168.01	17.07	-41.2	-43.1	17.7	6.00e-01	0	43	0	1805647872	54	4381
2026-01-27 07:58:36.31	168.06	17.23	-41.2	-43.2	17.6	5.95e-01	0	43	0	1820327936	54	4406
2026-01-27 07:58:37.31	168.10	17.39	-41.2	-43.2	17.7	5.97e-01	0	43	0	1837105152	54	4407
2026-01-27 07:58:38.32	168.15	17.54	-41.1	-43.1	17.8	5.98e-01	0	43	0	1851785216	54	4348
2026-01-27 07:58:39.33	168.20	17.70	-41.2	-43.1	17.7	5.97e-01	0	43	0	1866465280	54	4391
2026-01-27 07:58:40.33	168.25	17.86	-41.2	-43.2	17.6	5.94e-01	0	43	0	1883242496	54	4402
2026-01-27 07:58:41.34	168.30	18.03	-41.1	-43.1	17.8	5.97e-01	0	43	0	1897922560	54	4361
2026-01-27 07:58:42.35	168.35	18.19	-41.2	-43.2	17.7	6.01e-01	0	43	0	1912602624	54	4403
2026-01-27 07:58:43.36	168.41	18.35	-41.2	-43.2	17.7	5.98e-01	0	43	0	1929379840	54	4399
2026-01-27 07:58:44.37	168.46	18.52	-41.1	-43.1	17.7	5.99e-01	0	43	0	1946157056	54	4367
2026-01-27 07:58:45.37	168.51	18.69	-41.1	-43.1	17.7	6.01e-01	0	43	0	1960837120	54	4353
2026-01-27 07:58:46.38	168.57	18.86	-41.2	-43.1	17.7	6.00e-01	0	43	0	1975517184	54	4384
2026-01-27 07:58:47.39	168.62	19.03	-41.1	-43.0	17.8	5.99e-01	0	43	0	1992294400	54	4334
2026-01-27 07:58:48.39	168.68	19.20	-40.9	-42.8	17.9	5.98e-01	0	43	0	2006974464	53	4466
2026-01-27 07:58:49.40	168.73	19.37	-40.8	-42.7	17.9	5.98e-01	0	43	0	2021654528	53	4432
2026-01-27 07:58:50.40	168.79	19.55	-40.8	-42.7	18.1	6.01e-01	0	43	0	2038431744	53	4402
2026-01-27 07:58:51.41	168.85	19.72	-40.6	-42.5	18.1	5.98e-01	0	43	0	2053111808	53	4309
2026-01-27 07:58:52.41	168.90	19.90	-40.6	-42.4	18.2	5.95e-01	0	43	0	2067791872	53	4284
2026-01-27 07:58:53.42	168.96	20.08	-40.5	-42.3	18.3	5.97e-01	0	43	0	2084569088	53	4208
2026-01-27 07:58:54.43	169.02	20.26	-40.4	-42.2	18.4	5.95e-01	0	43	0	2099249152	52	4392
2026-01-27 07:58:55.44	169.08	20.45	-40.4	-42.2	18.4	5.96e-01	0	43	0	2113929216	52	4413
2026-01-27 07:58:56.44	169.14	20.63	-40.3	-42.1	18.4	5.98e-01	0	43	0	2130706432	52	4366
2026-01-27 07:58:57.45	169.20	20.82	-40.1	-41.8	18.6	6.01e-01	0	43	0	2145386496	52	4240
2026-01-27 07:58:58.45	169.27	21.00	-40.1	-41.8	18.7	6.01e-01	0	43	0	2160066560	52	4228
2026-01-27 07:58:59.46	169.33	21.19	-40.1	-41.8	18.6	6.02e-01	0	43	0	2176843776	52	4237
2026-01-27 07:59:00.47	169.39	21.39	-40.0	-41.7	18.7	5.98e-01	0	43	0	2191523840	51	4439
2026-01-27 07:59:01.47	169.46	21.58	-40.2	-41.9	18.7	6.00e-01	0	43	0	2208301056	51	4506
2026-01-27 07:59:02.48	169.53	21.77	-40.1	-41.8	18.7	6.01e-01	0	43	0	2222981120	51	4490
2026-01-27 07:59:03.49	169.59	21.97	-40.2	-41.9	18.6	6.03e-01	0	43	0	2239758336	51	4521
2026-01-27 07:59:04.49	169.66	22.17	-40.2	-42.0	18.6	5.97e-01	0	43	0	2254438400	51	4552
2026-01-27 07:59:05.50	169.73	22.37	-40.3	-42.1	18.5	5.97e-01	0	43	0	2269118464	51	4630
2026-01-27 07:59:06.51	169.80	22.58	-40.3	-42.1	18.5	5.95e-01	0	43	0	2285895680	51	4631
2026-01-27 07:59:07.51	169.87	22.78	-40.4	-42.2	18.4	5.96e-01	0	44	0	2300575744	51	4664
2026-01-27 07:59:08.52	169.94	22.99	-40.4	-42.2	18.4	5.97e-01	0	43	0	2315255808	51	4684
2026-01-27 07:59:09.52	170.01	23.19	-40.5	-42.4	18.4	5.96e-01	0	43	0	2332033024	51	4760
2026-01-27 07:59:10.53	170.09	23.41	-40.3	-42.2	18.5	5.95e-01	0	43	0	2346713088	51	4655
2026-01-27 07:59:11.54	170.16	23.62	-40.4	-42.3	18.4	5.96e-01	0	43	0	2361393152	51	4718
2026-01-27 07:59:12.55	170.24	23.84	-40.4	-42.3	18.4	5.95e-01	0	43	0	2378170368	51	4710
2026-01-27 07:59:13.55	170.31	24.05	-40.3	-42.1	18.5	5.97e-01	0	43	0	2392850432	51	4650
2026-01-27 07:59:14.55	170.39	24.27	-40.2	-42.0	18.6	5.94e-01	0	43	0	2407530496	51	4574
2026-01-27 07:59:15.56	170.47	24.49	-40.2	-42.0	18.6	5.99e-01	0	43	0	2424307712	51	4563
2026-01-27 07:59:16.57	170.55	24.72	-40.1	-41.8	18.7	5.97e-01	0	43	0	2441084928	51	4483
2026-01-27 07:59:17.58	170.63	24.94	-40.3	-41.9	18.7	5.97e-01	0	43	0	2455764992	51	4544
2026-01-27 07:59:18.58	170.71	25.17	-40.2	-41.8	18.7	6.02e-01	0	43	0	2470445056	51	4481
2026-01-27 07:59:19.59	170.80	25.40	-40.1	-41.8	18.8	5.96e-01	0	43	0	2487222272	51	4460
2026-01-27 07:59:20.59	170.88	25.64	-40.2	-41.8	18.7	5.98e-01	0	43	0	2501902336	51	4476
2026-01-27 07:59:21.60	170.97	25.87	-40.2	-41.9	18.8	5.98e-01	0	43	0	2516582400	51	4497
2026-01-27 07:59:22.61	171.06	26.11	-40.3	-42.0	18.6	5.96e-01	0	43	0	2533359616	51	4559
2026-01-27 07:59:23.61	171.15	26.35	-40.4	-42.1	18.5	5.97e-01	0	44	0	2548039680	51	4638
2026-01-27 07:59:24.61	171.24	26.59	-40.4	-42.1	18.5	5.97e-01	0	44	0	2562719744	51	4634
2026-01-27 07:59:25.62	171.33	26.84	-40.4	-42.1	18.5	5.95e-01	0	44	0	2579496960	51	4650
2026-01-27 07:59:26.63	171.43	27.09	-40.4	-42.2	18.5	5.98e-01	0	43	0	2594177024	51	4684
2026-01-27 07:59:27.63	171.52	27.34	-40.4	-42.2	18.5	6.00e-01	0	43	0	2608857088	51	4682
2026-01-27 07:59:28.64	171.62	27.60	-40.4	-42.2	18.4	5.98e-01	0	43	0	2623537152	51	4696
2026-01-27 07:59:29.65	171.72	27.85	-40.5	-42.3	18.5	5.96e-01	0	44	0	2640314368	51	4732
2026-01-27 07:59:30.66	171.82	28.11	-40.3	-42.1	18.6	6.00e-01	0	43	0	2654994432	51	4611
2026-01-27 07:59:31.67	171.92	28.38	-40.4	-42.1	18.5	5.99e-01	0	43	0	2671771648	51	4644
2026-01-27 07:59:32.68	172.03	28.64	-40.2	-42.0	18.7	5.97e-01	0	44	0	2688548864	51	4554
2026-01-27 07:59:33.69	172.13	28.91	-40.2	-41.9	18.7	5.99e-01	0	43	0	2703228928	51	4495
2026-01-27 07:59:34.70	172.24	29.19	-40.2	-41.8	18.7	5.98e-01	0	43	0	2717908992	51	4490
2026-01-27 07:59:35.71	172.35	29.46	-40.1	-41.7	18.8	5.98e-01	0	43	0	2732589056	51	4437
2026-01-27 07:59:36.71	172.46	29.74	-40.3	-41.9	18.8	5.96e-01	0	43	0	2749366272	51	4541
2026-01-27 07:59:37.72	172.58	30.02	-40.3	-42.0	18.6	5.97e-01	0	43	0	2764046336	51	4584
2026-01-27 07:59:38.73	172.69	30.31	-40.5	-42.2	18.5	5.97e-01	0	43	0	2778726400	51	4677
2026-01-27 07:59:39.73	172.81	30.59	-40.6	-42.4	18.4	5.93e-01	0	43	0	2795503616	51	4766
2026-01-27 07:59:40.74	172.93	30.89	-40.6	-42.4	18.4	5.96e-01	0	43	0	2810183680	51	4781
2026-01-27 07:59:41.75	173.05	31.18	-40.6	-42.4	18.4	6.04e-01	0	43	0	2824863744	51	4811
2026-01-27 07:59:42.76	173.18	31.48	-40.5	-42.4	18.4	6.05e-01	0	43	0	2841640960	51	4785
2026-01-27 07:59:43.77	173.31	31.78	-40.4	-42.3	18.4	6.05e-01	0	44	0	2858418176	51	4749
2026-01-27 07:59:44.78	173.44	32.09	-40.3	-42.3	18.5	5.84e-01	0	43	0	2873098240	51	4720
2026-01-27 07:59:45.78	173.57	32.39	-40.3	-42.3	18.6	5.84e-01	0	43	0	2887778304	51	4727
2026-01-27 07:59:46.79	173.70	32.71	-40.3	-42.2	18.5	5.84e-01	0	43	0	2904555520	51	4674
2026-01-27 07:59:47.80	173.84	33.02	-40.2	-42.1	18.7	5.84e-01	0	43	0	2919235584	51	4639
2026-01-27 07:59:48.81	173.98	33.34	-40.1	-42.0	18.7	5.85e-01	0	43	0	2933915648	51	4588
2026-01-27 07:59:49.81	174.13	33.67	-40.1	-42.0	18.7	5.83e-01	0	44	0	2950692864	51	4570
2026-01-27 07:59:50.82	174.27	33.99	-40.1	-42.1	18.7	5.84e-01	0	43	0	2965372928	51	4603
2026-01-27 07:59:51.83	174.42	34.33	-40.2	-42.2	18.6	5.84e-01	0	43	0	2980052992	51	4667
2026-01-27 07:59:52.84	174.58	34.66	-39.9	-41.8	18.8	5.84e-01	0	43	0	2996830208	51	4490
2026-01-27 07:59:53.84	174.73	35.00	-39.8	-41.8	18.9	5.84e-01	0	43	0	3011510272	51	4482
2026-01-27 07:59:54.85	174.89	35.34	-39.6	-41.5	18.9	5.84e-01	0	43	0	3026190336	51	4336
2026-01-27 07:59:55.86	175.06	35.69	-39.4	-41.3	19.1	5.84e-01	0	43	0	3042967552	50	4493
2026-01-27 07:59:56.87	175.23	36.04	-39.3	-41.3	19.1	5.84e-01	0	44	0	3057647616	50	4477
2026-01-27 07:59:57.88	175.40	36.40	-39.4	-41.5	19.0	5.83e-01	0	43	0	3074424832	50	4555
2026-01-27 07:59:58.89	175.57	36.76	-39.3	-41.5	19.0	5.84e-01	0	43	0	3089104896	50	4567
2026-01-27 07:59:59.90	175.75	37.13	-39.3	-41.5	19.0	5.84e-01	0	44	0	3105882112	50	4579
2026-01-27 08:00:00.90	175.93	37.49	-39.1	-41.4	19.1	5.83e-01	0	43	0	3120562176	50	4518
2026-01-27 08:00:01.91	176.12	37.87	-39.1	-41.4	19.1	5.84e-01	0	43	0	3135242240	50	4524
2026-01-27 08:00:02.92	176.31	38.25	-39.0	-41.3	19.1	5.84e-01	0	43	0	3152019456	50	4492
2026-01-27 08:00:03.93	176.51	38.63	-39.0	-41.3	19.1	5.84e-01	0	43	0	3166699520	50	4460
2026-01-27 08:00:04.94	176.71	39.02	-38.6	-40.9	19.3	6.02e-01	0	44	0	3181379584	49	4503
2026-01-27 08:00:05.94	176.92	39.41	-38.5	-40.7	19.4	6.00e-01	0	43	0	3198156800	49	4420
2026-01-27 08:00:06.95	177.13	39.81	-38.4	-40.6	19.4	6.03e-01	0	43	0	3212836864	48	4649
2026-01-27 08:00:07.96	177.35	40.21	-38.4	-40.6	19.4	6.05e-01	0	44	0	3227516928	48	4643
2026-01-27 08:00:08.97	177.57	40.62	-38.2	-40.3	19.7	6.01e-01	0	43	0	3244294144	48	4467
2026-01-27 08:00:09.98	177.80	41.03	-37.0	-39.0	19.4	6.05e-01	0	43	0	3261071360	46	4315
2026-01-27 08:00:10.99	178.03	41.45	-36.6	-38.6	19.6	6.03e-01	0	43	0	3275751424	45	4362
2026-01-27 08:00:11.99	178.27	41.86	-36.6	-38.7	19.6	6.02e-01	0	43	0	3290431488	45	4407
2026-01-27 08:00:13.01	178.52	42.29	-36.5	-38.7	19.6	6.04e-01	0	43	0	3307208704	45	4392
2026-01-27 08:00:14.01	178.78	42.72	-36.6	-38.7	19.5	6.03e-01	0	43	0	3321888768	45	4436
2026-01-27 08:00:15.02	179.04	43.16	-36.8	-38.9	19.4	6.03e-01	0	43	0	3336568832	45	4511
2026-01-27 08:00:16.03	179.31	43.60	-36.6	-38.6	19.7	6.04e-01	0	43	0	3353346048	45	4379
2026-01-27 08:00:17.03	179.58	44.04	-36.3	-38.4	19.8	6.05e-01	0	43	0	3368026112	44	4517
2026-01-27 08:00:18.04	179.87	44.50	-36.3	-38.5	19.6	6.03e-01	0	43	0	3382706176	44	4572
2026-01-27 08:00:19.05	180.16	44.95	-36.2	-38.5	19.6	5.95e-01	0	43	0	3399483392	44	4591
2026-01-27 08:00:20.05	180.46	45.41	-36.2	-38.4	19.8	6.05e-01	0	43	0	3414163456	44	4524
2026-01-27 08:00:21.06	180.77	45.88	-36.3	-38.4	19.7	6.01e-01	0	43	0	3428843520	44	4529
2026-01-27 08:00:22.07	181.10	46.35	-36.3	-38.3	19.7	6.00e-01	0	44	0	3445620736	44	4442
2026-01-27 08:00:23.08	181.43	46.83	-36.2	-38.1	19.8	6.00e-01	0	43	0	3462397952	44	4368
2026-01-27 08:00:24.09	181.77	47.31	-36.3	-38.2	19.9	5.99e-01	0	43	0	3477078016	44	4432
2026-01-27 08:00:25.09	182.12	47.80	-36.2	-38.2	19.8	6.00e-01	0	43	0	3491758080	44	4415
2026-01-27 08:00:26.10	182.48	48.29	-36.3	-38.4	19.8	6.00e-01	0	44	0	3508535296	44	4494
2026-01-27 08:00:27.11	182.86	48.79	-36.4	-38.4	19.7	6.01e-01	0	43	0	3523215360	44	4527
2026-01-27 08:00:28.11	183.24	49.29	-36.4	-38.4	19.7	6.01e-01	0	43	0	3537895424	44	4515
2026-01-27 08:00:29.12	183.65	49.80	-36.5	-38.5	19.7	6.00e-01	0	43	0	3554672640	44	4550
2026-01-27 08:00:30.13	184.06	50.31	-36.5	-38.5	19.7	5.98e-01	0	43	0	3569352704	44	4577
2026-01-27 08:00:31.14	184.49	50.83	-36.6	-38.7	19.6	6.01e-01	0	44	0	3584032768	44	4681
2026-01-27 08:00:32.15	184.94	51.35	-36.8	-39.0	19.4	6.02e-01	0	43	0	3600809984	44	4835
2026-01-27 08:00:33.16	185.40	51.88	-37.0	-39.3	19.2	6.01e-01	0	44	0	3615490048	44	4987
2026-01-27 08:00:34.17	185.88	52.41	-37.1	-39.4	19.2	6.01e-01	0	44	0	3632267264	44	5051
2026-01-27 08:00:35.18	186.38	52.95	-37.3	-39.5	19.1	6.01e-01	0	44	0	3646947328	45	4830
2026-01-27 08:00:36.19	186.89	53.49	-37.2	-39.3	19.2	6.03e-01	0	43	0	3663724544	45	4758
2026-01-27 08:00:37.20	187.43	54.03	-37.4	-39.5	19.2	6.00e-01	0	43	0	3678404608	45	4815
2026-01-27 08:00:38.21	187.99	54.58	-37.6	-39.7	19.0	6.00e-01	0	43	0	3693084672	45	4975
2026-01-27 08:00:39.22	188.57	55.13	-37.6	-39.8	19.0	6.00e-01	0	43	0	3709861888	45	5035
2026-01-27 08:00:40.23	189.17	55.69	-37.5	-39.5	19.2	6.00e-01	0	43	0	3724541952	45	4856
2026-01-27 08:00:41.24	189.80	56.25	-37.4	-39.4	19.2	6.01e-01	0	43	0	3739222016	45	4760
2026-01-27 08:00:42.25	190.45	56.81	-37.5	-39.4	19.3	6.01e-01	0	43	0	3755999232	45	4784
2026-01-27 08:00:43.26	191.13	57.37	-37.6	-39.5	19.2	6.01e-01	0	43	0	3770679296	45	4825
2026-01-27 08:00:44.26	191.83	57.93	-37.7	-39.7	19.1	6.01e-01	0	43	0	3785359360	45	4966
2026-01-27 08:00:45.27	192.57	58.50	-37.7	-39.7	19.1	6.00e-01	0	43	0	3802136576	46	4665
2026-01-27 08:00:46.27	193.34	59.07	-37.7	-39.7	19.1	6.01e-01	0	44	0	3818913792	46	4656
2026-01-27 08:00:47.28	194.15	59.64	-37.9	-39.8	19.0	5.99e-01	0	43	0	3833593856	46	4714
2026-01-27 08:00:48.29	194.99	60.21	-38.1	-40.1	18.8	6.00e-01	0	43	0	3848273920	46	4910
2026-01-27 08:00:49.30	195.87	60.78	-38.3	-40.5	18.5	6.01e-01	0	43	0	3865051136	47	4837
2026-01-27 08:00:50.31	196.80	61.35	-37.8	-39.9	19.0	5.98e-01	0	44	0	3879731200	47	4512
2026-01-27 08:00:51.31	197.75	61.91	-37.8	-39.8	19.1	6.05e-01	0	44	0	3894411264	47	4455
2026-01-27 08:00:52.32	198.77	62.48	-37.8	-39.8	19.0	5.97e-01	0	44	0	3911188480	47	4458
2026-01-27 08:00:53.33	199.83	63.04	-37.8	-39.7	19.1	6.00e-01	0	44	0	3925868544	47	4396
2026-01-27 08:00:54.33	200.93	63.60	-37.3	-39.2	19.4	6.01e-01	0	43	0	3940548608	46	4425
2026-01-27 08:00:55.34	202.10	64.15	-37.5	-39.7	19.1	5.98e-01	0	43	0	3955228672	46	4672
2026-01-27 08:00:56.34	203.31	64.70	-37.7	-39.9	19.0	5.99e-01	0	44	0	3972005888	46	4782
2026-01-27 08:00:57.35	204.59	65.24	-37.5	-39.6	19.2	5.99e-01	0	44	0	3986685952	46	4603
2026-01-27 08:00:58.36	205.94	65.78	-37.2	-39.2	19.4	6.00e-01	0	43	0	4001366016	46	4423
2026-01-27 08:00:59.37	207.36	66.31	-37.3	-39.3	19.3	5.97e-01	0	43	0	4020240384	46	4472
2026-01-27 08:01:00.38	208.85	66.83	-36.9	-38.9	19.6	5.99e-01	0	44	0	4034920448	45	4521
2026-01-27 08:01:01.39	210.41	67.33	-36.9	-39.0	19.5	6.00e-01	0	44	0	4049600512	45	4565
2026-01-27 08:01:02.40	212.05	67.83	-37.1	-39.2	19.4	5.99e-01	0	44	0	4064280576	45	4672
2026-01-27 08:01:03.41	213.77	68.31	-37.1	-39.2	19.4	6.00e-01	0	43	0	4081057792	45	4670
2026-01-27 08:01:04.41	215.55	68.77	-37.4	-39.7	19.1	6.01e-01	0	44	0	4095737856	45	4954
2026-01-27 08:01:05.42	217.44	69.21	-37.2	-39.6	19.2	5.98e-01	0	44	0	4110417920	45	4900
2026-01-27 08:01:06.43	219.42	69.64	-36.7	-38.9	19.6	6.02e-01	0	43	0	4127195136	45	4530
2026-01-27 08:01:07.44	221.48	70.05	-36.5	-38.7	19.6	6.00e-01	0	43	0	4141875200	45	4441
2026-01-27 08:01:08.45	223.63	70.43	-36.8	-39.1	19.4	6.00e-01	0	43	0	4156555264	45	4628
2026-01-27 08:01:09.46	225.87	70.78	-36.8	-39.2	19.4	6.00e-01	0	44	0	4173332480	45	4680
2026-01-27 08:01:10.47	228.20	71.11	-36.6	-39.0	19.6	5.99e-01	0	43	0	4188012544	45	4548
2026-01-27 08:01:11.47	230.59	71.41	-36.2	-38.3	19.8	6.00e-01	0	43	0	4204789760	44	4489
2026-01-27 08:01:12.48	233.08	71.68	-36.1	-38.3	20.0	6.00e-01	0	43	0	4219469824	44	4466
2026-01-27 08:01:13.49	235.65	71.92	-36.2	-38.6	19.8	5.99e-01	0	43	0	4236247040	44	4618
2026-01-27 08:01:14.50	238.28	72.12	-36.3	-38.6	19.7	6.01e-01	0	43	0	4250927104	44	4641
2026-01-27 08:01:15.51	240.97	72.29	-36.2	-38.5	19.8	6.01e-01	0	44	0	4265607168	44	4561
2026-01-27 08:01:16.51	243.69	72.41	-36.3	-38.7	19.7	6.00e-01	0	43	0	4282384384	44	4664
2026-01-27 08:01:17.52	246.46	72.51	-36.5	-38.9	19.6	6.01e-01	0	44	0	4297064448	44	4761
2026-01-27 08:01:18.53	249.26	72.56	-36.5	-39.0	19.6	5.99e-01	0	43	0	4311744512	44	4844
2026-01-27 08:01:19.54	252.07	72.57	-36.3	-38.7	19.7	6.00e-01	0	43	0	4328521728	44	4662
2026-01-27 08:01:20.55	254.87	72.54	-36.3	-38.5	19.8	6.01e-01	0	43	0	4343201792	44	4556
2026-01-27 08:01:21.55	257.64	72.48	-36.2	-38.4	19.9	5.97e-01	0	44	0	4357881856	44	4519
2026-01-27 08:01:22.56	260.40	72.37	-36.3	-38.5	19.8	5.97e-01	0	43	0	4374659072	44	4592
2026-01-27 08:01:23.57	263.12	72.23	-36.4	-38.6	19.8	5.96e-01	0	44	0	4391436288	44	4645
2026-01-27 08:01:24.58	265.79	72.05	-36.3	-38.5	19.9	6.01e-01	0	44	0	4406116352	44	4592
2026-01-27 08:01:25.59	268.40	71.84	-36.5	-38.9	19.6	6.01e-01	0	44	0	4420796416	44	4772
2026-01-27 08:01:26.59	270.92	71.59	-36.6	-38.9	19.6	6.00e-01	0	44	0	4437573632	44	4806
2026-01-27 08:01:27.60	273.38	71.31	-36.5	-38.9	19.6	5.99e-01	0	43	0	4452253696	44	4775
2026-01-27 08:01:28.60	275.74	71.00	-36.8	-39.0	19.5	5.99e-01	0	44	0	4466933760	44	4842
2026-01-27 08:01:29.61	278.04	70.67	-36.8	-39.0	19.6	6.00e-01	0	43	0	4483710976	44	4845
2026-01-27 08:01:30.62	280.25	70.30	-36.8	-39.1	19.5	6.00e-01	0	43	0	4498391040	44	4906
2026-01-27 08:01:31.63	282.37	69.91	-36.9	-39.2	19.5	6.01e-01	0	44	0	4513071104	44	4942
2026-01-27 08:01:32.63	284.38	69.50	-37.0	-39.1	19.5	6.02e-01	0	43	0	4529848320	44	4888
2026-01-27 08:01:33.64	286.33	69.07	-37.1	-39.4	19.4	5.99e-01	0	43	0	4544528384	44	5071
2026-01-27 08:01:34.65	288.18	68.62	-37.0	-39.4	19.4	6.00e-01	0	44	0	4559208448	44	5044
2026-01-27 08:01:35.65	289.94	68.15	-37.1	-39.0	19.4	6.01e-01	0	43	0	4575985664	44	4870
2026-01-27 08:01:36.66	291.63	67.67	-37.0	-38.9	19.6	5.98e-01	0	43	0	4590665728	44	4804
2026-01-27 08:01:37.67	293.24	67.17	-37.6	-39.7	19.2	6.01e-01	0	43	0	4607442944	45	4935
2026-01-27 08:01:38.68	294.78	66.66	-37.7	-39.9	19.2	5.98e-01	0	44	0	4622123008	46	4765
2026-01-27 08:01:39.69	296.24	66.14	-37.7	-39.8	19.2	5.99e-01	0	43	0	4638900224	46	4717
2026-01-27 08:01:40.69	297.62	65.62	-37.5	-39.6	19.3	6.00e-01	0	43	0	4653580288	46	4640
2026-01-27 08:01:41.70	298.95	65.08	-37.7	-40.0	19.1	5.99e-01	0	43	0	4668260352	46	4817
2026-01-27 08:01:42.70	300.20	64.54	-38.0	-40.2	18.9	6.01e-01	0	43	0	4685037568	46	4959
2026-01-27 08:01:43.71	301.40	63.99	-38.2	-40.3	18.8	6.01e-01	0	43	0	4699717632	46	5030
2026-01-27 08:01:44.71	302.54	63.43	-38.2	-40.3	18.8	6.02e-01	0	43	0	4714397696	47	4733
2026-01-27 08:01:45.72	303.63	62.87	-38.2	-40.2	18.9	6.00e-01	0	44	0	4731174912	47	4693
2026-01-27 08:01:46.73	304.68	62.31	-38.3	-40.3	18.7	5.98e-01	0	43	0	4745854976	47	4743
2026-01-27 08:01:47.73	305.67	61.75	-38.3	-40.5	18.7	5.98e-01	0	44	0	4760535040	47	4825
2026-01-27 08:01:48.74	306.62	61.18	-38.2	-40.3	18.9	5.98e-01	0	43	0	4777312256	47	4710
2026-01-27 08:01:49.75	307.53	60.61	-38.3	-40.1	19.0	6.01e-01	0	43	0	4791992320	47	4647
2026-01-27 08:01:50.75	308.39	60.05	-38.3	-40.2	18.9	6.00e-01	0	43	0	4806672384	47	4677
2026-01-27 08:01:51.76	309.22	59.48	-38.6	-40.8	18.5	5.99e-01	0	43	0	4823449600	47	5027
2026-01-27 08:01:52.77	310.02	58.91	-39.8	-42.2	18.8	6.02e-01	0	44	0	4840226816	50	4938
2026-01-27 08:01:53.78	310.78	58.34	-39.7	-42.1	18.8	6.00e-01	0	44	0	4854906880	50	4896
2026-01-27 08:01:54.79	311.51	57.78	-39.6	-41.9	19.0	6.00e-01	0	43	0	4869586944	50	4777
2026-01-27 08:01:55.79	312.20	57.22	-39.6	-41.7	19.0	6.01e-01	0	44	0	4886364160	50	4675
2026-01-27 08:01:56.80	312.87	56.66	-39.4	-41.3	19.3	5.99e-01	0	44	0	4901044224	50	4474
2026-01-27 08:01:57.81	313.51	56.10	-39.1	-41.0	19.6	6.02e-01	0	44	0	4915724288	50	4328
2026-01-27 08:01:58.81	314.13	55.55	-39.0	-41.0	19.5	6.01e-01	0	44	0	4932501504	50	4315
2026-01-27 08:01:59.82	314.72	54.99	-38.8	-40.9	19.5	6.02e-01	0	43	0	4947181568	49	4529
2026-01-27 08:02:00.83	315.29	54.44	-38.8	-41.0	19.5	6.00e-01	0	44	0	4961861632	49	4576
2026-01-27 08:02:01.83	315.84	53.90	-38.7	-41.0	19.4	6.01e-01	0	43	0	4978638848	49	4566
2026-01-27 08:02:02.84	316.37	53.36	-38.7	-41.0	19.5	6.00e-01	0	43	0	4993318912	49	4554
2026-01-27 08:02:03.85	316.88	52.82	-38.8	-41.0	19.5	6.00e-01	0	44	0	5007998976	49	4557
2026-01-27 08:02:04.85	317.36	52.29	-38.7	-40.7	19.6	6.03e-01	0	44	0	5024776192	49	4429
2026-01-27 08:02:05.85	317.83	51.77	-38.5	-40.5	19.8	5.99e-01	0	44	0	5039456256	49	4297
2026-01-27 08:02:06.86	318.29	51.25	-38.2	-40.1	20.0	6.00e-01	0	44	0	5054136320	48	4374
2026-01-27 08:02:07.87	318.73	50.73	-38.0	-40.0	20.0	6.01e-01	0	43	0	5070913536	48	4340
2026-01-27 08:02:08.88	319.16	50.21	-38.0	-40.0	19.9	6.01e-01	0	44	0	5087690752	48	4329
2026-01-27 08:02:09.89	319.57	49.70	-38.1	-40.2	19.9	6.01e-01	0	44	0	5102370816	48	4409
2026-01-27 08:02:10.89	319.97	49.20	-37.0	-39.0	19.6	5.99e-01	0	44	0	5117050880	46	4324
2026-01-27 08:02:11.90	320.35	48.70	-36.9	-38.9	19.6	6.01e-01	0	43	0	5133828096	45	4539
2026-01-27 08:02:12.91	320.72	48.20	-36.9	-39.0	19.5	6.01e-01	0	44	0	5148508160	45	4566
2026-01-27 08:02:13.92	321.08	47.71	-36.8	-38.9	19.6	6.01e-01	0	44	0	5163188224	45	4500
2026-01-27 08:02:14.92	321.43	47.23	-36.6	-38.6	19.8	5.97e-01	0	43	0	5177868288	45	4375
2026-01-27 08:02:15.93	321.77	46.75	-36.6	-38.6	19.8	5.97e-01	0	44	0	5194645504	45	4382
2026-01-27 08:02:16.94	322.10	46.28	-36.7	-38.7	19.7	5.97e-01	0	44	0	5209325568	45	4394
2026-01-27 08:02:17.94	322.41	45.81	-36.7	-38.6	19.7	5.99e-01	0	43	0	5224005632	45	4379
2026-01-27 08:02:18.94	322.72	45.35	-36.6	-38.5	19.8	5.98e-01	0	43	0	5240782848	45	4332
2026-01-27 08:02:19.95	323.02	44.89	-36.5	-38.5	19.8	6.02e-01	0	43	0	5255462912	45	4295
2026-01-27 08:02:20.96	323.31	44.44	-36.5	-38.5	19.8	5.99e-01	0	43	0	5270142976	44	4587
2026-01-27 08:02:21.97	323.59	43.99	-36.5	-38.5	19.7	5.95e-01	0	44	0	5286920192	44	4572
2026-01-27 08:02:22.97	323.87	43.55	-36.5	-38.6	19.8	5.96e-01	0	43	0	5303697408	44	4605
2026-01-27 08:02:23.98	324.13	43.11	-36.7	-38.7	19.7	5.97e-01	0	44	0	5318377472	44	4654
2026-01-27 08:02:24.98	324.39	42.68	-36.7	-38.7	19.6	5.99e-01	0	43	0	5333057536	44	4668
2026-01-27 08:02:25.99	324.65	42.25	-36.7	-38.6	19.8	5.97e-01	0	44	0	5349834752	44	4620
2026-01-27 08:02:26.99	324.89	41.83	-36.8	-38.7	19.8	5.85e-01	0	44	0	5364514816	44	4672
2026-01-27 08:02:28.00	325.13	41.41	-36.9	-38.8	19.6	5.84e-01	0	44	0	5379194880	44	4728
2026-01-27 08:02:29.01	325.36	40.99	-37.0	-39.0	19.6	5.84e-01	0	44	0	5395972096	44	4816
2026-01-27 08:02:30.02	325.59	40.58	-37.1	-39.0	19.5	5.83e-01	0	43	0	5410652160	44	4837
2026-01-27 08:02:31.02	325.81	40.18	-37.2	-39.1	19.4	5.84e-01	0	44	0	5425332224	44	4904
2026-01-27 08:02:32.03	326.03	39.78	-37.3	-39.2	19.5	5.84e-01	0	43	0	5442109440	45	4670
2026-01-27 08:02:33.04	326.24	39.39	-37.3	-39.3	19.4	5.84e-01	0	43	0	5456789504	45	4720
2026-01-27 08:02:34.05	326.44	39.00	-37.5	-39.5	19.2	5.85e-01	0	44	0	5471469568	45	4832
2026-01-27 08:02:35.06	326.64	38.61	-37.6	-39.6	19.2	5.85e-01	0	44	0	5488246784	45	4876
2026-01-27 08:02:36.06	326.84	38.23	-37.8	-39.7	19.1	5.85e-01	0	44	0	5502926848	46	4680
2026-01-27 08:02:37.07	327.03	37.86	-40.4	-41.1	19.4	5.85e-01	0	44	0	5519704064	51	4122
2026-01-27 08:02:38.08	327.22	37.48	-40.6	-41.3	19.3	5.84e-01	0	43	0	5534384128	51	4205
2026-01-27 08:02:39.09	327.40	37.12	-54.7	-63.6	3.8	7.44e-01	0	43	104	5536481280	80	10317
2026-01-27 08:02:40.09	327.58	36.76	-54.7	-63.5	3.8	7.46e-01	0	44	104	5536481280	80	10246
2026-01-27 08:02:41.10	327.75	36.40	-54.6	-63.5	3.8	7.46e-01	0	43	104	5536481280	80	10210
2026-01-27 08:02:42.11	327.92	36.04	-54.7	-63.5	3.8	7.46e-01	0	43	104	5536481280	80	10208
2026-01-27 08:02:43.12	328.09	35.69	-54.7	-63.5	3.8	7.46e-01	0	43	104	5536481280	80	10284
2026-01-27 08:02:44.12	328.25	35.35	-54.7	-63.5	3.8	7.45e-01	0	44	104	5536481280	80	10196
2026-01-27 08:02:45.13	328.41	35.01	-54.7	-63.5	3.8	7.45e-01	0	44	104	5536481280	80	10249
2026-01-27 08:02:46.14	328.56	34.67	-54.7	-63.5	3.8	7.44e-01	0	44	104	5536481280	80	10224
2026-01-27 08:02:47.15	328.72	34.33	-54.7	-63.5	3.8	7.44e-01	0	44	104	5536481280	80	10210
2026-01-27 08:02:48.16	328.87	34.00	-54.6	-63.5	3.8	7.44e-01	0	43	104	5536481280	80	10196
2026-01-27 08:02:49.17	329.01	33.68	-54.7	-63.5	3.8	7.44e-01	0	44	104	5536481280	80	10197
2026-01-27 08:02:50.17	329.15	33.36	-54.6	-63.5	3.8	7.44e-01	0	44	104	5536481280	80	10198
2026-01-27 08:02:51.18	329.30	33.04	-54.6	-63.5	3.8	7.45e-01	0	44	104	5536481280	80	10183
2026-01-27 08:02:52.19	329.43	32.72	-54.6	-63.4	3.8	7.45e-01	0	44	104	5536481280	80	10172
2026-01-27 08:02:53.20	329.57	32.41	-54.6	-63.4	3.8	7.46e-01	0	44	104	5536481280	80	10167
2026-01-27 08:02:54.20	329.70	32.11	-54.6	-63.4	3.8	7.45e-01	0	44	104	5536481280	80	10175
2026-01-27 08:02:55.21	329.83	31.80	-54.6	-63.4	3.8	7.46e-01	0	44	104	5536481280	80	10174
2026-01-27 08:02:56.22	329.96	31.50	-54.6	-63.4	3.8	7.44e-01	0	44	104	5536481280	80	10139
2026-01-27 08:02:57.22	330.08	31.21	-54.6	-63.5	3.8	7.46e-01	0	44	104	5536481280	80	10189
2026-01-27 08:02:58.22	330.20	30.92	-54.5	-63.4	3.8	7.45e-01	0	44	104	5536481280	80	10068
2026-01-27 08:02:59.23	330.32	30.63	-54.5	-63.3	3.8	7.45e-01	0	44	104	5536481280	80	10053
2026-01-27 08:03:00.24	330.44	30.34	-54.5	-63.3	3.8	7.44e-01	0	44	104	5536481280	80	10046
2026-01-27 08:03:01.24	330.56	30.06	-54.6	-63.4	3.8	7.44e-01	0	43	104	5536481280	80	10091
2026-01-27 08:03:02.25	330.67	29.78	-54.5	-63.3	3.8	7.44e-01	0	44	104	5536481280	80	10056
2026-01-27 08:03:03.26	330.78	29.50	-54.5	-63.4	3.8	7.46e-01	0	43	104	5536481280	80	10062
2026-01-27 08:03:04.27	330.89	29.23	-54.5	-63.4	3.8	7.44e-01	0	43	104	5536481280	80	10093
2026-01-27 08:03:05.28	331.00	28.96	-54.5	-63.4	3.8	7.46e-01	0	43	104	5536481280	80	10112
2026-01-27 08:03:06.29	331.11	28.69	-54.5	-63.3	3.8	7.46e-01	0	43	104	5536481280	80	10036
2026-01-27 08:03:07.29	331.21	28.42	-54.5	-63.3	3.8	7.45e-01	0	44	104	5536481280	80	10050
2026-01-27 08:03:08.30	331.31	28.16	-54.4	-63.3	3.8	7.45e-01	0	43	104	5536481280	80	9949
2026-01-27 08:03:09.31	331.41	27.90	-54.5	-63.4	3.8	7.45e-01	0	44	104	5536481280	80	10080
2026-01-27 08:03:10.32	331.51	27.65	-54.5	-63.3	3.8	7.46e-01	0	44	104	5536481280	80	10002
2026-01-27 08:03:11.33	331.61	27.39	-54.5	-63.3	3.8	7.45e-01	0	44	104	5536481280	80	10023
2026-01-27 08:03:12.34	331.70	27.14	-54.5	-63.3	3.8	7.47e-01	0	44	104	5536481280	80	9981
2026-01-27 08:03:13.35	331.80	26.89	-54.5	-63.3	3.8	7.44e-01	0	44	104	5536481280	80	10036
2026-01-27 08:03:14.36	331.89	26.65	-54.5	-63.3	3.8	7.44e-01	0	44	104	5536481280	80	9993
2026-01-27 08:03:15.37	331.98	26.40	-54.4	-63.3	3.8	7.44e-01	0	44	104	5536481280	80	9970
2026-01-27 08:03:16.37	332.07	26.16	-54.4	-63.3	3.8	7.45e-01	0	44	104	5536481280	80	9984
2026-01-27 08:03:17.38	332.16	25.93	-54.5	-63.3	3.8	7.47e-01	0	44	104	5536481280	80	9967
2026-01-27 08:03:18.39	332.25	25.69	-54.4	-63.2	3.8	7.45e-01	0	43	104	5536481280	80	9933
2026-01-27 08:03:19.40	332.33	25.46	-54.4	-63.2	3.8	7.46e-01	0	44	104	5536481280	80	9927
2026-01-27 08:03:20.40	332.42	25.23	-54.4	-63.2	3.8	7.46e-01	0	43	104	5536481280	80	9943
2026-01-27 08:03:21.42	332.50	25.00	-54.4	-63.2	3.8	7.45e-01	0	44	104	5536481280	80	9941
2026-01-27 08:03:22.43	332.58	24.77	-54.4	-63.2	3.8	7.45e-01	0	44	104	5536481280	80	9889
2026-01-27 08:03:23.43	332.66	24.55	-54.4	-63.2	3.8	7.46e-01	0	44	104	5536481280	80	9898
2026-01-27 08:03:24.44	332.74	24.33	-54.4	-63.2	3.8	7.45e-01	0	44	104	5536481280	80	9877
2026-01-27 08:03:25.44	332.82	24.11	-54.4	-63.2	3.8	7.45e-01	0	43	104	5536481280	80	9921
2026-01-27 08:03:26.45	332.89	23.90	-54.4	-63.2	3.8	7.45e-01	0	44	104	5536481280	80	9841
2026-01-27 08:03:27.47	332.97	23.68	-54.4	-63.2	3.8	7.45e-01	0	43	104	5536481280	80	9872
2026-01-27 08:03:28.47	333.05	23.47	-54.3	-63.2	3.8	7.45e-01	0	44	104	5536481280	80	9861
2026-01-27 08:03:29.48	333.12	23.26	-54.4	-63.2	3.8	7.46e-01	0	43	104	5536481280	80	9842
2026-01-27 08:03:30.48	333.19	23.05	-54.3	-63.2	3.8	7.46e-01	0	44	104	5536481280	80	9837
2026-01-27 08:03:31.49	333.26	22.84	-54.3	-63.1	3.8	7.46e-01	0	43	104	5536481280	80	9818
2026-01-27 08:03:32.49	333.33	22.64	-54.3	-63.2	3.8	7.46e-01	0	43	104	5536481280	80	9842
2026-01-27 08:03:33.50	333.40	22.44	-54.3	-63.2	3.8	7.46e-01	0	44	104	5536481280	80	9838
2026-01-27 08:03:34.51	333.47	22.24	-54.3	-63.1	3.8	7.45e-01	0	44	104	5536481280	80	9813
2026-01-27 08:03:35.52	333.54	22.04	-54.3	-63.1	3.8	7.44e-01	0	44	104	5536481280	80	9795
2026-01-27 08:03:36.53	333.61	21.84	-54.3	-63.1	3.8	7.45e-01	0	44	104	5536481280	80	9787
2026-01-27 08:03:37.53	333.67	21.65	-54.3	-63.1	3.8	7.45e-01	0	43	104	5536481280	80	9784
2026-01-27 08:03:38.54	333.74	21.46	-54.3	-63.1	3.8	7.46e-01	0	43	104	5536481280	80	9757
2026-01-27 08:03:39.55	333.80	21.27	-54.3	-63.1	3.8	7.45e-01	0	44	104	5536481280	80	9769
2026-01-27 08:03:40.56	333.87	21.08	-54.2	-63.1	3.8	7.45e-01	0	44	104	5536481280	80	9750
2026-01-27 08:03:41.57	333.93	20.89	-54.3	-63.1	3.8	7.46e-01	0	44	104	5536481280	80	9792
2026-01-27 08:03:42.57	333.99	20.70	-54.3	-63.1	3.8	7.45e-01	0	44	104	5536481280	80	9771
2026-01-27 08:03:43.58	334.05	20.52	-54.2	-63.1	3.8	7.45e-01	0	44	104	5536481280	80	9718
2026-01-27 08:03:44.59	334.11	20.34	-54.2	-63.0	3.8	7.46e-01	0	44	104	5536481280	80	9704
2026-01-27 08:03:45.60	334.17	20.16	-54.2	-63.0	3.8	7.46e-01	0	44	104	5536481280	80	9706
2026-01-27 08:03:46.61	334.23	19.98	-54.2	-63.1	3.8	7.46e-01	0	43	104	5536481280	80	9718
2026-01-27 08:03:47.62	334.29	19.80	-54.2	-63.0	3.8	7.45e-01	0	44	104	5536481280	80	9689
2026-01-27 08:03:48.63	334.35	19.62	-54.2	-63.0	3.8	7.45e-01	0	44	104	5536481280	80	9625
2026-01-27 08:03:49.63	334.40	19.45	-54.2	-63.0	3.8	7.45e-01	0	44	104	5536481280	80	9689
2026-01-27 08:03:50.64	334.46	19.28	-54.2	-63.0	3.8	7.44e-01	0	44	104	5536481280	80	9681
2026-01-27 08:03:51.64	334.51	19.11	-54.2	-63.0	3.8	7.44e-01	0	44	104	5536481280	80	9615
2026-01-27 08:03:52.66	334.57	18.93	-54.1	-63.0	3.8	7.47e-01	0	44	104	5536481280	80	9630
2026-01-27 08:03:53.66	334.62	18.77	-54.2	-63.0	3.8	7.45e-01	0	43	104	5536481280	80	9626
2026-01-27 08:03:54.67	334.68	18.60	-54.2	-63.0	3.8	7.43e-01	0	44	104	5536481280	80	9627
2026-01-27 08:03:55.68	334.73	18.43	-54.1	-63.0	3.8	7.47e-01	0	44	104	5536481280	80	9621
2026-01-27 08:03:56.69	334.78	18.27	-54.1	-62.9	3.8	7.46e-01	0	44	104	5536481280	80	9573
2026-01-27 08:03:57.70	334.83	18.11	-54.1	-63.0	3.8	7.44e-01	0	43	104	5536481280	80	9607
2026-01-27 08:03:58.70	334.88	17.95	-54.1	-63.0	3.8	7.46e-01	0	44	104	5536481280	80	9616
2026-01-27 08:03:59.72	334.93	17.78	-54.1	-62.9	3.8	7.46e-01	0	43	104	5536481280	80	9585
2026-01-27 08:04:00.73	334.98	17.63	-54.1	-62.9	3.8	7.45e-01	0	43	104	5536481280	80	9575
2026-01-27 08:04:01.73	335.03	17.47	-54.1	-62.9	3.8	7.47e-01	0	44	104	5536481280	80	9548
2026-01-27 08:04:02.74	335.08	17.31	-54.1	-62.9	3.8	7.44e-01	0	44	104	5536481280	80	9574
2026-01-27 08:04:03.75	335.13	17.16	-54.1	-62.9	3.8	7.45e-01	0	44	104	5536481280	80	9541
2026-01-27 08:04:04.75	335.18	17.01	-54.1	-62.9	3.8	7.44e-01	0	44	104	5536481280	80	9516
2026-01-27 08:04:05.76	335.22	16.85	-54.1	-62.9	3.8	7.46e-01	0	44	104	5536481280	80	9549
2026-01-27 08:04:06.77	335.27	16.70	-54.1	-62.9	3.8	7.44e-01	0	43	104	5536481280	80	9542
2026-01-27 08:04:07.78	335.32	16.55	-54.0	-62.9	3.8	7.45e-01	0	43	104	5536481280	80	9499
2026-01-27 08:04:08.79	335.36	16.40	-54.0	-62.8	3.8	7.45e-01	0	44	104	5536481280	80	9482
2026-01-27 08:04:09.79	335.41	16.25	-54.0	-62.8	3.8	7.46e-01	0	44	104	5536481280	80	9470
2026-01-27 08:04:10.79	335.45	16.11	-54.0	-62.9	3.8	7.45e-01	0	44	104	5536481280	80	9518
2026-01-27 08:04:11.80	335.50	15.96	-54.0	-62.9	3.8	7.46e-01	0	44	104	5536481280	80	9499
2026-01-27 08:04:12.80	335.54	15.82	-54.0	-62.8	3.8	7.46e-01	0	43	104	5536481280	80	9440
2026-01-27 08:04:13.81	335.58	15.68	-54.0	-62.8	3.8	7.46e-01	0	43	104	5536481280	80	9474
2026-01-27 08:04:14.82	335.63	15.53	-54.0	-62.8	3.8	7.44e-01	0	43	104	5536481280	80	9474
2026-01-27 08:04:15.82	335.67	15.39	-54.0	-62.8	3.8	7.44e-01	0	44	104	5536481280	79	10025
2026-01-27 08:04:16.83	335.71	15.25	-54.0	-62.8	3.8	7.44e-01	0	43	104	5536481280	79	10022
2026-01-27 08:04:17.83	335.75	15.12	-54.0	-62.8	3.8	7.44e-01	0	43	104	5536481280	79	10036
2026-01-27 08:04:18.84	335.79	14.98	-54.0	-62.9	3.8	7.46e-01	0	44	104	5536481280	79	10081
2026-01-27 08:04:19.85	335.84	14.84	-54.0	-62.8	3.8	7.46e-01	0	44	104	5536481280	79	10007
2026-01-27 08:04:20.85	335.88	14.71	-54.0	-62.8	3.8	7.45e-01	0	44	104	5536481280	79	9997
2026-01-27 08:04:21.86	335.92	14.57	-54.0	-62.8	3.8	7.44e-01	0	44	104	5536481280	79	9991
2026-01-27 08:04:22.87	335.96	14.44	-54.0	-62.8	3.8	7.47e-01	0	44	104	5536481280	79	10037
2026-01-27 08:04:23.87	335.99	14.30	-53.9	-62.8	3.8	7.43e-01	0	44	104	5536481280	79	9977
2026-01-27 08:04:24.88	336.03	14.17	-53.9	-62.8	3.8	7.46e-01	0	44	104	5536481280	79	10005
2026-01-27 08:04:25.88	336.07	14.04	-53.9	-62.8	3.8	7.45e-01	0	44	104	5536481280	79	9969
2026-01-27 08:04:26.89	336.11	13.91	-54.0	-62.8	3.8	7.45e-01	0	43	104	5536481280	79	9967
2026-01-27 08:04:27.90	336.15	13.78	-53.9	-62.7	3.8	7.44e-01	0	44	104	5536481280	79	9936
2026-01-27 08:04:28.91	336.19	13.65	-53.9	-62.7	3.8	7.47e-01	0	43	104	5536481280	79	9910
2026-01-27 08:04:29.92	336.22	13.52	-53.9	-62.7	3.8	7.45e-01	0	44	104	5536481280	79	9903
2026-01-27 08:04:30.92	336.26	13.40	-53.9	-62.8	3.8	7.46e-01	0	43	104	5536481280	79	9961
2026-01-27 08:04:31.93	336.30	13.27	-53.9	-62.7	3.8	7.44e-01	0	43	104	5536481280	79	9882
2026-01-27 08:04:32.94	336.33	13.15	-53.9	-62.7	3.8	7.45e-01	0	44	104	5536481280	79	9907
2026-01-27 08:04:33.95	336.37	13.02	-53.9	-62.7	3.8	7.46e-01	0	43	104	5536481280	79	9855
2026-01-27 08:04:34.96	336.40	12.90	-53.9	-62.7	3.8	7.44e-01	0	43	104	5536481280	79	9924
2026-01-27 08:04:35.97	336.44	12.78	-53.8	-62.6	3.8	7.45e-01	0	43	104	5536481280	79	9830
2026-01-27 08:04:36.97	336.47	12.66	-53.8	-62.7	3.8	7.46e-01	0	43	104	5536481280	79	9860
2026-01-27 08:04:37.98	336.51	12.53	-53.8	-62.6	3.8	7.45e-01	0	44	104	5536481280	79	9816
2026-01-27 08:04:38.98	336.54	12.41	-53.9	-62.7	3.8	7.46e-01	0	43	104	5536481280	79	9862
2026-01-27 08:04:39.99	336.58	12.29	-53.8	-62.6	3.8	7.44e-01	0	44	104	5536481280	79	9768
2026-01-27 08:04:41.00	336.61	12.18	-53.8	-62.6	3.8	7.44e-01	0	43	104	5536481280	79	9811
2026-01-27 08:04:42.01	336.64	12.06	-53.8	-62.6	3.8	7.46e-01	0	44	104	5536481280	79	9731
2026-01-27 08:04:43.01	336.68	11.94	-53.8	-62.7	3.8	7.45e-01	0	43	104	5536481280	79	9845
2026-01-27 08:04:44.02	336.71	11.82	-53.8	-62.6	3.8	7.46e-01	0	44	104	5536481280	79	9741
2026-01-27 08:04:45.03	336.74	11.71	-53.8	-62.6	3.8	7.45e-01	0	43	104	5536481280	79	9763
2026-01-27 08:04:46.03	336.77	11.59	-53.7	-62.6	3.8	7.47e-01	0	44	104	5536481280	79	9724
2026-01-27 08:04:47.04	336.81	11.48	-53.8	-62.6	3.8	7.45e-01	0	44	104	5536481280	79	9763
2026-01-27 08:04:48.04	336.84	11.37	-53.7	-62.6	3.8	7.44e-01	0	44	104	5536481280	79	9729
2026-01-27 08:04:49.04	336.87	11.26	-53.7	-62.6	3.8	7.46e-01	0	44	104	5536481280	79	9743
2026-01-27 08:04:50.05	336.90	11.14	-53.7	-62.5	3.8	7.45e-01	0	44	104	5536481280	79	9665
2026-01-27 08:04:51.05	336.93	11.03	-53.8	-62.6	3.8	7.46e-01	0	43	104	5536481280	79	9736
2026-01-27 08:04:52.06	336.96	10.92	-53.7	-62.5	3.8	7.45e-01	0	44	104	5536481280	79	9703
2026-01-27 08:04:53.07	336.99	10.81	-53.7	-62.5	3.8	7.45e-01	0	43	104	5536481280	79	9668
2026-01-27 08:04:54.08	337.02	10.70	-53.7	-62.5	3.8	7.46e-01	0	44	104	5536481280	79	9634
2026-01-27 08:04:55.09	337.05	10.59	-53.7	-62.5	3.8	7.46e-01	0	44	104	5536481280	79	9711
2026-01-27 08:04:56.09	337.08	10.48	-53.7	-62.5	3.8	7.44e-01	0	44	104	5536481280	79	9639
2026-01-27 08:04:57.10	337.11	10.38	-53.7	-62.5	3.8	7.45e-01	0	43	104	5536481280	79	9678
2026-01-27 08:04:58.11	337.14	10.27	-53.7	-62.5	3.8	7.46e-01	0	43	104	5536481280	79	9640
2026-01-27 08:04:59.12	337.17	10.16	-53.7	-62.5	3.8	7.46e-01	0	44	104	5536481280	79	9677
2026-01-27 08:05:00.12	337.20	10.06	-53.6	-62.5	3.8	7.45e-01	0	43	104	5536481280	79	9615
2026-01-27 08:05:01.13	337.23	9.95	-53.6	-62.4	3.8	7.45e-01	0	44	104	5536481280	79	9605
2026-01-27 08:05:02.13	337.26	9.85	-53.6	-62.4	3.8	7.44e-01	0	43	104	5536481280	79	9589
2026-01-27 08:05:03.14	337.29	9.74	-53.7	-62.5	3.8	7.44e-01	0	43	104	5536481280	79	9634
2026-01-27 08:05:04.15	337.31	9.64	-53.6	-62.5	3.8	7.46e-01	0	43	104	5536481280	79	9624
2026-01-27 08:05:05.15	337.34	9.54	-53.6	-62.4	3.8	7.45e-01	0	44	104	5536481280	79	9587
2026-01-27 08:05:06.16	337.37	9.44	-53.6	-62.4	3.8	7.43e-01	0	44	104	5536481280	79	9563
2026-01-27 08:05:07.17	337.40	9.33	-53.6	-62.5	3.8	7.45e-01	0	43	104	5536481280	79	9627
2026-01-27 08:05:08.18	337.43	9.23	-53.6	-62.4	3.8	7.46e-01	0	43	104	5536481280	79	9544
2026-01-27 08:05:09.19	337.45	9.13	-53.6	-62.4	3.8	7.46e-01	0	44	104	5536481280	79	9544
2026-01-27 08:05:10.19	337.48	9.03	-53.5	-62.4	3.8	7.45e-01	0	44	104	5536481280	79	9537
2026-01-27 08:05:11.20	337.51	8.93	-53.6	-62.4	3.8	7.45e-01	0	44	104	5536481280	79	9579
2026-01-27 08:05:12.21	337.53	8.83	-53.5	-62.4	3.8	7.45e-01	0	44	104	5536481280	79	9518
2026-01-27 08:05:13.21	337.56	8.74	-53.5	-62.3	3.8	7.46e-01	0	44	104	5536481280	79	9492
2026-01-27 08:05:14.22	337.59	8.64	-53.5	-62.3	3.8	7.46e-01	0	44	104	5536481280	79	9475
2026-01-27 08:05:15.22	337.61	8.54	-53.6	-62.4	3.8	7.45e-01	0	43	104	5536481280	79	9531
2026-01-27 08:05:16.23	337.64	8.44	-53.5	-62.3	3.8	7.46e-01	0	44	104	5536481280	79	9467
2026-01-27 08:05:17.24	337.66	8.35	-53.5	-62.3	3.8	7.45e-01	0	43	104	5536481280	79	9490
2026-01-27 08:05:18.25	337.69	8.25	-53.5	-62.3	3.8	7.45e-01	0	43	104	5536481280	79	9475
2026-01-27 08:05:19.25	337.71	8.16	-53.5	-62.4	3.8	7.46e-01	0	44	104	5536481280	79	9551
2026-01-27 08:05:20.26	337.74	8.06	-53.5	-62.2	3.8	7.46e-01	0	44	104	5536481280	78	9944
2026-01-27 08:05:21.27	337.76	7.97	-53.5	-62.3	3.8	7.46e-01	0	43	104	5536481280	78	9981
2026-01-27 08:05:22.28	337.79	7.87	-53.4	-62.3	3.8	7.45e-01	0	44	104	5536481280	78	9958
2026-01-27 08:05:23.29	337.81	7.78	-53.5	-62.3	3.8	7.44e-01	0	44	104	5536481280	78	10048
2026-01-27 08:05:24.30	337.84	7.68	-53.4	-62.2	3.8	7.46e-01	0	44	104	5536481280	78	9942
2026-01-27 08:05:25.31	337.86	7.59	-53.4	-62.3	3.8	7.45e-01	0	44	104	5536481280	78	9973
2026-01-27 08:05:26.31	337.89	7.50	-53.4	-62.2	3.8	7.43e-01	0	43	104	5536481280	78	9899
2026-01-27 08:05:27.32	337.91	7.41	-53.4	-62.3	3.8	7.44e-01	0	44	104	5536481280	78	9987
2026-01-27 08:05:28.32	337.93	7.32	-53.4	-62.2	3.8	7.45e-01	0	44	104	5536481280	78	9895
2026-01-27 08:05:29.33	337.96	7.23	-53.4	-62.2	3.8	7.45e-01	0	44	104	5536481280	78	9884
2026-01-27 08:05:30.34	337.98	7.14	-53.4	-62.2	3.8	7.46e-01	0	44	104	5536481280	78	9857
2026-01-27 08:05:31.35	338.00	7.05	-53.4	-62.2	3.8	7.45e-01	0	43	104	5536481280	78	9926
2026-01-27 08:05:32.35	338.03	6.96	-53.3	-62.2	3.8	7.45e-01	0	44	104	5536481280	78	9853
2026-01-27 08:05:33.36	338.05	6.87	-53.3	-62.2	3.8	7.45e-01	0	44	104	5536481280	78	9832
2026-01-27 08:05:34.36	338.07	6.78	-53.3	-62.1	3.8	7.45e-01	0	43	104	5536481280	78	9796
2026-01-27 08:05:35.37	338.10	6.69	-53.4	-62.2	3.8	7.46e-01	0	43	104	5536481280	78	9840
2026-01-27 08:05:36.38	338.12	6.60	-53.3	-62.1	3.8	7.45e-01	0	44	104	5536481280	78	9800
2026-01-27 08:05:37.39	338.14	6.51	-53.3	-62.1	3.8	7.46e-01	0	44	104	5536481280	78	9797
2026-01-27 08:05:38.40	338.16	6.43	-53.3	-62.1	3.8	7.45e-01	0	43	104	5536481280	78	9771
2026-01-27 08:05:39.40	338.19	6.34	-53.3	-62.1	3.8	7.46e-01	0	43	104	5536481280	78	9821
2026-01-27 08:05:40.41	338.21	6.25	-53.2	-62.1	3.8	7.46e-01	0	43	104	5536481280	78	9753
2026-01-27 08:05:41.42	338.23	6.17	-53.2	-62.0	3.8	7.45e-01	0	44	104	5536481280	78	9697
2026-01-27 08:05:42.43	338.25	6.08	-53.2	-62.0	3.8	7.45e-01	0	44	104	5536481280	78	9698
2026-01-27 08:05:43.43	338.27	6.00	-53.3	-62.1	3.8	7.46e-01	0	43	104	5536481280	78	9761
2026-01-27 08:05:44.43	338.29	5.91	-53.2	-62.0	3.8	7.45e-01	0	44	104	5536481280	78	9644
2026-01-27 08:05:45.44	338.32	5.83	-53.2	-62.0	3.8	7.46e-01	0	43	104	5536481280	78	9659
2026-01-27 08:05:46.45	338.34	5.74	-53.2	-62.0	3.8	7.45e-01	0	44	104	5536481280	78	9640
2026-01-27 08:05:47.46	338.36	5.66	-53.2	-62.0	3.8	7.44e-01	0	43	104	5536481280	78	9674
2026-01-27 08:05:48.46	338.38	5.58	-53.1	-62.0	3.8	7.46e-01	0	44	104	5536481280	78	9607
2026-01-27 08:05:49.47	338.40	5.49	-53.1	-61.9	3.8	7.45e-01	0	44	104	5536481280	78	9568
2026-01-27 08:05:50.47	338.42	5.41	-53.2	-62.0	3.8	7.44e-01	0	44	104	5536481280	78	9621
2026-01-27 08:05:51.48	338.44	5.33	-53.1	-61.9	3.8	7.45e-01	0	44	104	5536481280	78	9587
2026-01-27 08:05:52.49	338.46	5.25	-53.1	-61.9	3.8	7.46e-01	0	44	104	5536481280	78	9561
2026-01-27 08:05:53.50	338.48	5.16	-53.0	-61.8	3.8	7.46e-01	0	44	104	5536481280	78	9460
2026-01-27 08:05:54.50	338.50	5.08	-53.1	-61.9	3.8	7.46e-01	0	44	104	5536481280	77	10121
2026-01-27 08:05:55.51	338.52	5.00	-53.2	-62.0	3.8	7.45e-01	0	44	104	5536481280	77	10265
2026-01-27 08:05:56.52	338.54	4.92	-53.6	-62.4	3.8	7.46e-01	0	43	104	5536481280	77	10680
2026-01-27 08:05:57.52	338.56	4.84	-53.8	-62.7	3.8	7.46e-01	0	44	104	5536481280	78	10424
2026-01-27 08:05:58.53	338.58	4.76	-54.0	-62.8	3.8	7.45e-01	0	43	104	5536481280	78	10632
2026-01-27 08:05:59.54	338.60	4.68	-54.1	-63.0	3.8	7.44e-01	0	44	104	5536481280	78	10819
2026-01-27 08:06:00.55	338.62	4.60	-54.3	-63.1	3.8	7.46e-01	0	43	104	5536481280	79	10355
2026-01-27 08:06:01.55	338.64	4.52	-54.3	-63.1	3.8	7.45e-01	0	43	104	5536481280	79	10408
2026-01-27 08:06:02.56	338.66	4.44	-54.5	-63.3	3.8	7.47e-01	0	44	104	5536481280	79	10563
2026-01-27 08:06:03.57	338.68	4.37	-54.5	-63.3	3.8	7.43e-01	0	44	104	5536481280	79	10609
2026-01-27 08:06:04.58	338.70	4.29	-54.5	-63.3	3.8	7.45e-01	0	43	104	5536481280	79	10601
2026-01-27 08:06:05.58	338.72	4.21	-54.5	-63.3	3.8	7.44e-01	0	43	104	5536481280	79	10576
2026-01-27 08:06:06.59	338.74	4.13	-54.4	-63.3	3.8	7.45e-01	0	43	104	5536481280	79	10549
2026-01-27 08:06:07.60	338.76	4.05	-54.4	-63.2	3.8	7.46e-01	0	43	104	5536481280	79	10496
2026-01-27 08:06:08.61	338.78	3.98	-54.3	-63.1	3.8	7.45e-01	0	43	104	5536481280	79	10378
2026-01-27 08:06:09.61	338.80	3.90	-54.2	-63.0	3.8	7.45e-01	0	43	104	5536481280	79	10274
2026-01-27 08:06:10.62	338.82	3.82	-54.2	-63.1	3.8	7.46e-01	0	43	104	5536481280	79	10307
2026-01-27 08:06:11.63	338.83	3.75	-54.3	-63.1	3.8	7.45e-01	0	43	104	5536481280	79	10326
2026-01-27 08:06:12.64	338.85	3.67	-54.3	-63.1	3.8	7.45e-01	0	43	104	5536481280	79	10400
2026-01-27 08:06:13.64	338.87	3.60	-54.3	-63.2	3.8	7.46e-01	0	43	104	5536481280	79	10448
2026-01-27 08:06:14.65	338.89	3.52	-54.4	-63.2	3.8	7.44e-01	0	43	104	5536481280	79	10422
2026-01-27 08:06:15.66	338.91	3.45	-54.4	-63.2	3.8	7.45e-01	0	43	104	5536481280	79	10495
2026-01-27 08:06:16.66	338.93	3.37	-54.4	-63.2	3.8	7.46e-01	0	44	104	5536481280	79	10484
2026-01-27 08:06:17.67	338.94	3.30	-54.4	-63.2	3.8	7.44e-01	0	43	104	5536481280	79	10436
2026-01-27 08:06:18.68	338.96	3.22	-54.3	-63.1	3.8	7.47e-01	0	44	104	5536481280	79	10394
2026-01-27 08:06:19.69	338.98	3.15	-54.3	-63.1	3.8	7.45e-01	0	44	104	5536481280	79	10397
2026-01-27 08:06:20.69	339.00	3.08	-54.3	-63.1	3.8	7.45e-01	0	44	104	5536481280	79	10381
2026-01-27 08:06:21.70	339.02	3.00	-54.3	-63.1	3.8	7.45e-01	0	43	104	5536481280	79	10394
2026-01-27 08:06:22.71	339.03	2.93	-54.3	-63.1	3.8	7.48e-01	0	44	104	5536481280	79	10363
2026-01-27 08:06:23.72	339.05	2.86	-54.3	-63.1	3.8	7.46e-01	0	43	104	5536481280	79	10377
2026-01-27 08:06:24.73	339.07	2.78	-54.3	-63.1	3.8	7.45e-01	0	44	104	5536481280	79	10365
2026-01-27 08:06:25.73	339.09	2.71	-54.3	-63.1	3.8	7.45e-01	0	44	104	5536481280	79	10324
2026-01-27 08:06:26.74	339.10	2.64	-54.3	-63.1	3.8	7.46e-01	0	43	104	5536481280	79	10326
2026-01-27 08:06:27.75	339.12	2.57	-54.3	-63.1	3.8	7.45e-01	0	44	104	5536481280	79	10366
2026-01-27 08:06:28.76	339.14	2.49	-54.3	-63.1	3.8	7.44e-01	0	44	104	5536481280	79	10298
2026-01-27 08:06:29.77	339.16	2.42	-54.3	-63.1	3.8	7.44e-01	0	43	104	5536481280	79	10365
2026-01-27 08:06:30.77	339.17	2.35	-54.3	-63.1	3.8	7.46e-01	0	44	104	5536481280	79	10311
2026-01-27 08:06:31.78	339.19	2.28	-54.3	-63.1	3.8	7.44e-01	0	44	104	5536481280	79	10359
2026-01-27 08:06:32.79	339.21	2.21	-54.3	-63.1	3.8	7.44e-01	0	43	104	5536481280	79	10360
2026-01-27 08:06:33.80	339.22	2.14	-54.3	-63.1	3.8	7.45e-01	0	44	104	5536481280	79	10304
2026-01-27 08:06:34.81	339.24	2.07	-54.3	-63.1	3.8	7.46e-01	0	44	104	5536481280	79	10322
2026-01-27 08:06:35.81	339.26	2.00	-54.3	-63.1	3.8	7.45e-01	0	44	104	5536481280	79	10336
2026-01-27 08:06:36.82	339.27	1.93	-54.3	-63.1	3.8	7.45e-01	0	44	104	5536481280	79	10347
2026-01-27 08:06:37.83	339.29	1.86	-54.3	-63.1	3.8	7.47e-01	0	43	104	5536481280	79	10352

#Closed at: 2026-01-27 08:06:37
#Recorded file [5536 MB]: D:/lorett/data/31041_260127_105606.dat