passes_logs/2026/01/27/R3.2S_Murmansk/R3.2S_Murmansk__20260127_122655_SUOMI_NPP_rec.log

#Pass ID: 20260127_122655_SUOMI NPP
#Satellite: SUOMI NPP
#Configuration: NPP
#almurnet v.1.7.20251203
#Start time: 2026-01-27 12:26:57

#Version: 2.2.20231116
#Station: R3.2S_Murmansk
#Location: 33.079688 lon 68.888172 lat
#TLE: 1 37849U 11061A   26027.29799992  .00000188  00000+0  11027-3 0  9993
#TLE: 2 37849  98.7822 329.2414 0002113  42.5791 317.5548 14.19530708738457

#Time	Az	El	Level	Level2	SNR	BER	BlckErr	Temp	State	Recorded	gain1	gain2
2026-01-27 12:26:57.08	224.83	2.11	-54.1	-69.1	3.8	1.49e+00	0	41	0	0	79	20543
2026-01-27 12:26:58.06	224.91	2.16	-54.3	-69.3	3.8	1.49e+00	0	41	104	0	79	21214
2026-01-27 12:26:59.05	224.99	2.21	-54.4	-69.4	3.8	1.49e+00	0	41	104	0	79	21276
2026-01-27 12:27:00.05	225.08	2.26	-54.4	-69.4	3.8	1.49e+00	0	41	104	0	79	21297
2026-01-27 12:27:01.05	225.16	2.31	-54.4	-69.4	3.8	1.49e+00	0	41	104	0	79	21301
2026-01-27 12:27:02.04	225.24	2.36	-54.4	-69.4	3.8	1.49e+00	0	41	104	0	79	21296
2026-01-27 12:27:03.04	225.33	2.41	-54.4	-69.3	3.8	1.49e+00	0	41	104	0	79	21170
2026-01-27 12:27:04.03	225.41	2.46	-54.3	-69.3	3.8	1.49e+00	0	41	104	0	79	21113
2026-01-27 12:27:05.03	225.50	2.52	-54.3	-69.2	3.8	1.49e+00	0	41	104	0	79	20989
2026-01-27 12:27:06.02	225.58	2.57	-54.2	-69.2	3.8	1.49e+00	0	41	104	0	79	20889
2026-01-27 12:27:07.03	225.67	2.62	-54.2	-69.2	3.8	1.49e+00	0	41	104	0	79	20802
2026-01-27 12:27:08.04	225.76	2.67	-54.1	-69.1	3.8	1.49e+00	0	41	104	0	79	20695
2026-01-27 12:27:09.04	225.84	2.72	-54.1	-69.1	3.8	1.49e+00	0	41	104	0	79	20600
2026-01-27 12:27:10.05	225.93	2.78	-54.0	-69.0	3.8	1.49e+00	0	41	104	0	79	20505
2026-01-27 12:27:11.06	226.02	2.83	-54.0	-69.0	3.8	1.49e+00	0	41	104	0	79	20308
2026-01-27 12:27:12.07	226.11	2.88	-53.9	-68.9	3.8	1.49e+00	0	41	104	0	79	20135
2026-01-27 12:27:13.08	226.20	2.93	-53.8	-68.8	3.8	1.49e+00	0	41	104	0	79	19911
2026-01-27 12:27:14.09	226.29	2.99	-53.7	-68.7	3.8	1.49e+00	0	41	104	0	79	19760
2026-01-27 12:27:15.09	226.37	3.04	-53.7	-68.7	3.8	1.49e+00	0	41	104	0	79	19651
2026-01-27 12:27:16.10	226.46	3.09	-53.6	-68.5	3.8	1.49e+00	0	41	104	0	79	19356
2026-01-27 12:27:17.11	226.55	3.14	-53.4	-68.4	3.8	1.49e+00	0	41	104	0	78	20084
2026-01-27 12:27:18.12	226.64	3.20	-53.1	-68.0	3.8	1.49e+00	0	41	104	0	78	19326
2026-01-27 12:27:19.13	226.73	3.25	-52.6	-67.6	3.8	1.49e+00	0	41	104	0	77	19432
2026-01-27 12:27:20.13	226.82	3.30	-52.6	-67.5	3.8	1.49e+00	0	41	104	0	76	20435
2026-01-27 12:27:21.14	226.92	3.35	-52.6	-67.5	3.8	1.49e+00	0	41	104	0	76	20466
2026-01-27 12:27:22.15	227.01	3.41	-52.5	-67.5	3.8	1.49e+00	0	41	104	0	76	20421
2026-01-27 12:27:23.16	227.10	3.46	-52.5	-67.5	3.8	1.49e+00	0	41	104	0	75	21653
2026-01-27 12:27:24.17	227.19	3.51	-52.5	-67.5	3.8	1.49e+00	0	42	104	0	75	21604
2026-01-27 12:27:25.17	227.28	3.57	-52.5	-67.5	3.8	1.49e+00	0	41	104	0	75	21584
2026-01-27 12:27:26.18	227.37	3.62	-52.5	-67.5	3.8	1.49e+00	0	42	104	0	75	21539
2026-01-27 12:27:27.19	227.47	3.67	-52.5	-67.5	3.8	1.49e+00	0	42	104	0	75	21581
2026-01-27 12:27:28.19	227.56	3.73	-52.5	-67.4	3.8	1.49e+00	0	41	104	0	75	21443
2026-01-27 12:27:29.20	227.65	3.78	-52.5	-67.4	3.8	1.49e+00	0	41	104	0	75	21342
2026-01-27 12:27:30.21	227.75	3.83	-52.5	-67.4	3.8	1.49e+00	0	42	104	0	75	21296
2026-01-27 12:27:31.22	227.84	3.89	-52.5	-67.3	3.8	1.49e+00	0	42	104	0	75	21245
2026-01-27 12:27:32.23	227.94	3.94	-52.5	-67.3	3.8	1.49e+00	0	42	104	0	75	21211
2026-01-27 12:27:33.23	228.03	3.99	-52.5	-67.4	3.8	1.49e+00	0	42	104	0	75	21349
2026-01-27 12:27:34.24	228.13	4.05	-52.1	-67.1	3.8	1.49e+00	0	42	104	0	73	23275
2026-01-27 12:27:35.25	228.22	4.10	-52.5	-67.4	3.8	1.49e+00	0	42	104	0	75	21356
2026-01-27 12:27:36.26	228.32	4.15	-52.5	-67.4	3.8	1.49e+00	0	42	104	0	75	21352
2026-01-27 12:27:37.27	228.41	4.21	-52.5	-67.4	3.8	1.49e+00	0	42	104	0	75	21336
2026-01-27 12:27:38.28	228.51	4.26	-52.5	-67.4	3.8	1.49e+00	0	42	104	0	75	21433
2026-01-27 12:27:39.29	228.61	4.31	-52.5	-67.4	3.8	1.49e+00	0	42	104	0	75	21367
2026-01-27 12:27:40.29	228.70	4.37	-52.5	-67.4	3.8	1.49e+00	0	42	104	0	75	21278
2026-01-27 12:27:41.30	228.80	4.42	-52.5	-67.0	3.8	1.49e+00	0	42	104	0	75	20384
2026-01-27 12:27:42.31	228.90	4.47	-52.5	-66.6	3.8	1.49e+00	0	42	104	0	75	19428
2026-01-27 12:27:43.32	229.00	4.53	-52.4	-66.2	3.8	1.49e+00	0	42	104	0	75	18545
2026-01-27 12:27:44.33	229.10	4.58	-52.4	-65.8	3.8	1.49e+00	0	42	104	0	75	17762
2026-01-27 12:27:45.33	229.19	4.64	-52.4	-65.6	3.8	1.49e+00	0	42	104	0	75	17410
2026-01-27 12:27:46.34	229.29	4.69	-52.4	-65.2	3.9	1.48e+00	0	42	104	0	75	16676
2026-01-27 12:27:47.35	229.39	4.74	-52.3	-64.0	4.1	1.47e+00	0	42	104	0	75	14535
2026-01-27 12:27:48.35	229.49	4.80	-52.1	-61.8	5.0	1.23e+00	0	42	0	1048576	75	11243
2026-01-27 12:27:49.36	229.59	4.85	-51.7	-59.2	7.0	2.51e-01	0	42	0	2097152	74	8809
2026-01-27 12:27:50.37	229.69	4.90	-51.1	-56.8	9.3	4.74e-02	0	42	0	4194304	74	6653
2026-01-27 12:27:51.38	229.79	4.96	-50.5	-55.0	11.2	6.46e-03	0	42	0	6291456	73	5764
2026-01-27 12:27:52.39	229.90	5.01	-49.8	-53.3	13.0	1.50e-04	0	42	0	8388608	71	5320
2026-01-27 12:27:53.40	230.00	5.07	-49.9	-53.7	12.8	6.10e-06	0	42	0	10485760	70	5904
2026-01-27 12:27:54.40	230.10	5.12	-51.6	-58.6	7.5	1.13e-01	0	42	0	12582912	74	8267
2026-01-27 12:27:55.41	230.20	5.18	-50.1	-54.0	11.9	5.50e-02	0	42	0	13631488	72	5458
2026-01-27 12:27:56.42	230.30	5.23	-50.3	-54.6	11.8	6.10e-06	0	42	0	15728640	71	6186
2026-01-27 12:27:57.42	230.41	5.28	-49.9	-54.5	11.3	5.97e-01	0	42	0	17825792	71	6118
2026-01-27 12:27:58.43	230.51	5.34	-49.1	-52.0	14.4	0.00e+00	0	42	0	19922944	69	5156
2026-01-27 12:27:59.44	230.61	5.39	-48.6	-51.3	15.2	0.00e+00	0	42	0	20971520	69	4728
2026-01-27 12:28:00.45	230.72	5.45	-48.3	-50.7	15.6	0.00e+00	0	42	0	23068672	68	4700
2026-01-27 12:28:01.46	230.82	5.50	-48.6	-51.2	15.3	0.00e+00	0	42	0	25165824	68	4972
2026-01-27 12:28:02.46	230.93	5.56	-48.2	-50.6	15.9	0.00e+00	0	42	0	27262976	68	4607
2026-01-27 12:28:03.47	231.03	5.61	-48.0	-50.3	16.1	0.00e+00	0	42	0	29360128	66	5018
2026-01-27 12:28:04.48	231.14	5.66	-48.0	-50.3	16.1	0.00e+00	0	42	0	30408704	66	5022
2026-01-27 12:28:05.48	231.24	5.72	-47.9	-50.2	16.3	0.00e+00	0	42	0	32505856	66	4933
2026-01-27 12:28:06.49	231.35	5.77	-47.9	-50.1	16.3	0.00e+00	0	42	0	34603008	66	4915
2026-01-27 12:28:07.50	231.46	5.83	-47.6	-49.8	16.7	0.00e+00	0	42	0	36700160	66	4713
2026-01-27 12:28:08.51	231.57	5.88	-47.8	-50.0	16.4	0.00e+00	0	42	0	38797312	66	4850
2026-01-27 12:28:09.52	231.67	5.94	-47.5	-49.5	16.9	0.00e+00	0	42	0	40894464	66	4592
2026-01-27 12:28:10.52	231.78	5.99	-47.7	-49.8	16.7	0.00e+00	0	42	0	41943040	66	4721
2026-01-27 12:28:11.53	231.89	6.05	-47.6	-49.7	16.7	0.00e+00	0	42	0	44040192	66	4676
2026-01-27 12:28:12.54	232.00	6.10	-47.5	-49.6	16.9	0.00e+00	0	42	0	46137344	66	4632
2026-01-27 12:28:13.55	232.11	6.16	-47.6	-49.7	16.7	0.00e+00	0	42	0	48234496	66	4688
2026-01-27 12:28:14.56	232.22	6.21	-47.7	-49.8	16.6	0.00e+00	0	42	0	49283072	66	4753
2026-01-27 12:28:15.57	232.33	6.27	-47.5	-49.6	16.8	0.00e+00	0	42	0	51380224	66	4618
2026-01-27 12:28:16.58	232.44	6.32	-47.6	-49.7	16.8	0.00e+00	0	42	0	53477376	66	4680
2026-01-27 12:28:17.59	232.55	6.38	-47.6	-49.7	16.8	0.00e+00	0	42	0	55574528	66	4681
2026-01-27 12:28:18.59	232.66	6.43	-47.6	-49.7	16.8	0.00e+00	0	42	0	57671680	66	4700
2026-01-27 12:28:19.60	232.77	6.49	-47.8	-49.9	16.6	0.00e+00	0	42	0	59768832	66	4795
2026-01-27 12:28:20.61	232.88	6.54	-47.7	-50.0	16.6	0.00e+00	0	42	0	60817408	66	4821
2026-01-27 12:28:21.62	233.00	6.60	-47.8	-50.0	16.5	0.00e+00	0	42	0	62914560	66	4853
2026-01-27 12:28:22.63	233.11	6.65	-47.9	-50.0	16.5	0.00e+00	0	42	0	65011712	66	4865
2026-01-27 12:28:23.64	233.22	6.71	-47.8	-49.9	16.6	0.00e+00	0	42	0	67108864	66	4806
2026-01-27 12:28:24.65	233.34	6.76	-48.1	-50.3	16.2	0.00e+00	0	42	0	69206016	66	5028
2026-01-27 12:28:25.66	233.45	6.82	-48.1	-50.3	16.2	0.00e+00	0	42	0	70254592	66	5036
2026-01-27 12:28:26.66	233.56	6.87	-47.9	-50.1	16.5	0.00e+00	0	42	0	72351744	66	4872
2026-01-27 12:28:27.67	233.68	6.93	-47.8	-49.9	16.6	0.00e+00	0	42	0	74448896	66	4795
2026-01-27 12:28:28.67	233.79	6.98	-47.8	-49.9	16.7	0.00e+00	0	42	0	76546048	66	4794
2026-01-27 12:28:29.68	233.91	7.04	-47.7	-49.8	16.8	0.00e+00	0	42	0	77594624	66	4711
2026-01-27 12:28:30.69	234.03	7.09	-47.8	-49.9	16.7	0.00e+00	0	42	0	79691776	66	4792
2026-01-27 12:28:31.69	234.14	7.15	-47.7	-49.8	16.8	0.00e+00	0	42	0	81788928	66	4743
2026-01-27 12:28:32.70	234.26	7.20	-47.5	-49.5	17.1	0.00e+00	0	42	0	83886080	66	4569
2026-01-27 12:28:33.71	234.38	7.26	-47.4	-49.3	17.2	0.00e+00	0	42	0	85983232	66	4487
2026-01-27 12:28:34.71	234.49	7.31	-47.2	-49.2	17.4	0.00e+00	0	42	0	88080384	66	4400
2026-01-27 12:28:35.71	234.61	7.37	-47.1	-49.0	17.6	0.00e+00	0	42	0	89128960	66	4318
2026-01-27 12:28:36.72	234.73	7.42	-47.1	-49.0	17.5	0.00e+00	0	43	0	91226112	66	4329
2026-01-27 12:28:37.73	234.85	7.48	-46.9	-48.7	17.9	0.00e+00	0	43	0	93323264	65	4396
2026-01-27 12:28:38.73	234.97	7.53	-46.8	-48.6	17.9	0.00e+00	0	42	0	95420416	65	4352
2026-01-27 12:28:39.74	235.09	7.59	-46.7	-48.4	18.1	0.00e+00	0	42	0	97517568	65	4281
2026-01-27 12:28:40.75	235.21	7.65	-46.7	-48.5	18.0	0.00e+00	0	42	0	98566144	65	4300
2026-01-27 12:28:41.75	235.33	7.70	-46.7	-48.5	18.1	0.00e+00	0	42	0	100663296	65	4298
2026-01-27 12:28:42.75	235.45	7.76	-46.6	-48.3	18.3	0.00e+00	0	43	0	102760448	65	4194
2026-01-27 12:28:43.76	235.57	7.81	-46.8	-48.6	17.9	0.00e+00	0	42	0	104857600	65	4373
2026-01-27 12:28:44.77	235.69	7.87	-46.9	-48.7	17.8	0.00e+00	0	43	0	105906176	65	4434
2026-01-27 12:28:45.78	235.81	7.92	-46.8	-48.6	17.9	0.00e+00	0	42	0	108003328	65	4372
2026-01-27 12:28:46.78	235.94	7.98	-46.8	-48.5	18.0	0.00e+00	0	42	0	110100480	65	4333
2026-01-27 12:28:47.79	236.06	8.03	-46.8	-48.6	18.0	0.00e+00	0	42	0	112197632	65	4372
2026-01-27 12:28:48.80	236.18	8.09	-46.9	-48.7	17.9	0.00e+00	0	42	0	114294784	65	4431
2026-01-27 12:28:49.81	236.31	8.14	-47.0	-48.8	17.8	0.00e+00	0	42	0	116391936	65	4451
2026-01-27 12:28:50.81	236.43	8.20	-47.2	-49.0	17.6	0.00e+00	0	42	0	117440512	65	4591
2026-01-27 12:28:51.82	236.56	8.26	-46.6	-48.3	18.3	0.00e+00	0	43	0	119537664	65	4218
2026-01-27 12:28:52.83	236.68	8.31	-46.8	-48.5	18.1	0.00e+00	0	43	0	121634816	65	4334
2026-01-27 12:28:53.84	236.81	8.37	-46.8	-48.6	18.0	0.00e+00	0	42	0	123731968	65	4368
2026-01-27 12:28:54.84	236.94	8.42	-46.8	-48.6	18.1	0.00e+00	0	42	0	125829120	65	4352
2026-01-27 12:28:55.85	237.06	8.48	-46.8	-48.6	18.1	0.00e+00	0	42	0	126877696	65	4360
2026-01-27 12:28:56.86	237.19	8.53	-46.9	-48.6	18.1	0.00e+00	0	43	0	128974848	65	4384
2026-01-27 12:28:57.87	237.32	8.59	-46.8	-48.5	18.2	0.00e+00	0	42	0	131072000	65	4307
2026-01-27 12:28:58.88	237.45	8.64	-47.0	-48.7	17.9	0.00e+00	0	42	0	133169152	65	4436
2026-01-27 12:28:59.89	237.58	8.70	-47.0	-48.7	18.0	0.00e+00	0	43	0	135266304	65	4439
2026-01-27 12:29:00.89	237.71	8.76	-46.8	-48.5	18.2	0.00e+00	0	43	0	136314880	65	4324
2026-01-27 12:29:01.90	237.84	8.81	-46.8	-48.6	18.2	0.00e+00	0	42	0	138412032	65	4341
2026-01-27 12:29:02.90	237.97	8.87	-46.8	-48.5	18.2	0.00e+00	0	43	0	140509184	65	4316
2026-01-27 12:29:03.91	238.10	8.92	-46.9	-48.6	18.1	0.00e+00	0	42	0	142606336	65	4365
2026-01-27 12:29:04.92	238.23	8.98	-46.8	-48.5	18.2	0.00e+00	0	42	0	144703488	65	4298
2026-01-27 12:29:05.93	238.36	9.03	-46.8	-48.6	18.1	0.00e+00	0	42	0	145752064	65	4364
2026-01-27 12:29:06.93	238.49	9.09	-46.9	-48.6	18.1	0.00e+00	0	42	0	147849216	65	4368
2026-01-27 12:29:07.94	238.63	9.14	-47.0	-48.8	17.9	0.00e+00	0	43	0	149946368	65	4462
2026-01-27 12:29:08.95	238.76	9.20	-47.0	-48.8	18.0	0.00e+00	0	42	0	152043520	65	4444
2026-01-27 12:29:09.96	238.89	9.26	-46.7	-48.4	18.3	0.00e+00	0	43	0	154140672	65	4262
2026-01-27 12:29:10.97	239.03	9.31	-46.8	-48.6	18.2	0.00e+00	0	42	0	155189248	65	4347
2026-01-27 12:29:11.97	239.16	9.37	-46.7	-48.4	18.3	0.00e+00	0	42	0	157286400	65	4277
2026-01-27 12:29:12.98	239.30	9.42	-46.6	-48.3	18.5	0.00e+00	0	42	0	159383552	65	4200
2026-01-27 12:29:13.98	239.43	9.48	-46.7	-48.4	18.4	0.00e+00	0	42	0	161480704	64	4500
2026-01-27 12:29:14.99	239.57	9.53	-46.5	-48.1	18.6	0.00e+00	0	42	0	163577856	64	4363
2026-01-27 12:29:16.00	239.71	9.59	-46.4	-48.0	18.7	0.00e+00	0	43	0	164626432	64	4320
2026-01-27 12:29:17.01	239.84	9.64	-46.4	-48.0	18.7	0.00e+00	0	42	0	166723584	64	4338
2026-01-27 12:29:18.01	239.98	9.70	-46.6	-48.2	18.5	0.00e+00	0	42	0	168820736	64	4412
2026-01-27 12:29:19.02	240.12	9.75	-46.7	-48.4	18.3	0.00e+00	0	42	0	170917888	64	4530
2026-01-27 12:29:20.02	240.26	9.81	-46.6	-48.2	18.5	0.00e+00	0	43	0	173015040	64	4438
2026-01-27 12:29:21.03	240.40	9.86	-46.8	-48.5	18.3	0.00e+00	0	43	0	174063616	64	4553
2026-01-27 12:29:22.04	240.54	9.92	-46.5	-48.1	18.6	0.00e+00	0	43	0	176160768	64	4351
2026-01-27 12:29:23.04	240.68	9.97	-46.6	-48.3	18.5	0.00e+00	0	43	0	178257920	64	4450
2026-01-27 12:29:24.05	240.82	10.03	-46.6	-48.2	18.5	0.00e+00	0	43	0	180355072	64	4407
2026-01-27 12:29:25.06	240.96	10.09	-46.5	-48.2	18.5	0.00e+00	0	42	0	182452224	64	4402
2026-01-27 12:29:26.06	241.10	10.14	-46.5	-48.1	18.7	0.00e+00	0	42	0	183500800	64	4353
2026-01-27 12:29:27.07	241.24	10.20	-46.6	-48.3	18.5	0.00e+00	0	42	0	185597952	64	4457
2026-01-27 12:29:28.08	241.39	10.25	-46.6	-48.3	18.4	0.00e+00	0	42	0	187695104	64	4480
2026-01-27 12:29:29.09	241.53	10.31	-46.4	-48.0	18.7	0.00e+00	0	43	0	189792256	64	4328
2026-01-27 12:29:30.10	241.67	10.36	-46.5	-48.2	18.6	0.00e+00	0	43	0	191889408	64	4393
2026-01-27 12:29:31.11	241.82	10.42	-46.5	-48.1	18.6	0.00e+00	0	42	0	192937984	64	4379
2026-01-27 12:29:32.12	241.96	10.47	-46.5	-48.1	18.6	0.00e+00	0	43	0	195035136	64	4380
2026-01-27 12:29:33.12	242.11	10.53	-46.5	-48.2	18.5	0.00e+00	0	43	0	197132288	64	4411
2026-01-27 12:29:34.13	242.25	10.58	-46.6	-48.2	18.5	0.00e+00	0	43	0	199229440	64	4420
2026-01-27 12:29:35.14	242.40	10.64	-46.6	-48.2	18.5	0.00e+00	0	42	0	201326592	64	4420
2026-01-27 12:29:36.14	242.55	10.69	-46.6	-48.2	18.5	0.00e+00	0	42	0	202375168	64	4414
2026-01-27 12:29:37.15	242.69	10.75	-46.8	-48.5	18.3	0.00e+00	0	42	0	204472320	64	4573
2026-01-27 12:29:38.16	242.84	10.80	-46.7	-48.4	18.3	0.00e+00	0	43	0	206569472	64	4541
2026-01-27 12:29:39.16	242.99	10.85	-46.8	-48.5	18.3	0.00e+00	0	42	0	208666624	64	4579
2026-01-27 12:29:40.17	243.14	10.91	-46.9	-48.7	18.1	0.00e+00	0	42	0	210763776	64	4662
2026-01-27 12:29:41.17	243.29	10.96	-47.3	-49.2	17.6	0.00e+00	0	42	0	211812352	65	4653
2026-01-27 12:29:42.18	243.44	11.02	-47.2	-49.0	17.8	0.00e+00	0	42	0	213909504	65	4567
2026-01-27 12:29:43.19	243.59	11.07	-47.0	-48.8	18.0	0.00e+00	0	42	0	216006656	65	4466
2026-01-27 12:29:44.19	243.74	11.13	-47.0	-48.7	18.1	0.00e+00	0	43	0	218103808	65	4436
2026-01-27 12:29:45.20	243.89	11.18	-46.6	-48.3	18.5	0.00e+00	0	43	0	220200960	65	4211
2026-01-27 12:29:46.21	244.05	11.24	-46.7	-48.3	18.5	0.00e+00	0	43	0	221249536	65	4229
2026-01-27 12:29:47.21	244.20	11.29	-46.5	-48.1	18.6	0.00e+00	0	42	0	223346688	65	4143
2026-01-27 12:29:48.22	244.35	11.34	-46.3	-47.9	18.9	0.00e+00	0	43	0	225443840	64	4250
2026-01-27 12:29:49.22	244.50	11.40	-46.4	-48.0	18.8	0.00e+00	0	43	0	227540992	64	4293
2026-01-27 12:29:50.23	244.66	11.45	-46.2	-47.7	19.0	0.00e+00	0	43	0	229638144	64	4185
2026-01-27 12:29:51.24	244.81	11.51	-46.1	-47.6	19.1	0.00e+00	0	43	0	230686720	64	4119
2026-01-27 12:29:52.25	244.97	11.56	-46.2	-47.7	19.0	0.00e+00	0	42	0	232783872	64	4187
2026-01-27 12:29:53.25	245.13	11.61	-46.3	-47.8	18.9	0.00e+00	0	42	0	234881024	64	4240
2026-01-27 12:29:54.26	245.28	11.67	-46.3	-47.9	18.9	0.00e+00	0	42	0	236978176	64	4250
2026-01-27 12:29:55.26	245.44	11.72	-46.1	-47.7	19.1	0.00e+00	0	43	0	239075328	64	4158
2026-01-27 12:29:56.27	245.60	11.77	-46.1	-47.5	19.3	0.00e+00	0	43	0	240123904	63	4329
2026-01-27 12:29:57.27	245.76	11.83	-46.1	-47.6	19.2	0.00e+00	0	43	0	242221056	63	4355
2026-01-27 12:29:58.28	245.91	11.88	-45.7	-47.1	19.7	0.00e+00	0	43	0	244318208	63	4143
2026-01-27 12:29:59.29	246.07	11.94	-45.5	-46.8	19.9	0.00e+00	0	43	0	246415360	63	3999
2026-01-27 12:30:00.30	246.23	11.99	-45.3	-46.7	20.1	0.00e+00	0	42	0	248512512	62	4149
2026-01-27 12:30:01.31	246.40	12.04	-45.3	-46.6	20.2	0.00e+00	0	43	0	249561088	62	4134
2026-01-27 12:30:02.31	246.56	12.09	-45.3	-46.7	20.1	0.00e+00	0	43	0	251658240	62	4146
2026-01-27 12:30:03.32	246.72	12.15	-45.4	-46.7	20.1	0.00e+00	0	43	0	253755392	62	4191
2026-01-27 12:30:04.33	246.88	12.20	-45.6	-47.0	19.8	0.00e+00	0	43	0	255852544	62	4303
2026-01-27 12:30:05.33	247.04	12.25	-45.7	-47.1	19.8	0.00e+00	0	43	0	257949696	62	4350
2026-01-27 12:30:06.35	247.21	12.31	-46.0	-47.4	19.4	0.00e+00	0	43	0	258998272	62	4536
2026-01-27 12:30:07.36	247.37	12.36	-45.9	-47.3	19.6	0.00e+00	0	43	0	261095424	62	4463
2026-01-27 12:30:08.36	247.54	12.41	-45.9	-47.4	19.4	0.00e+00	0	43	0	263192576	62	4516
2026-01-27 12:30:09.37	247.70	12.46	-45.9	-47.4	19.4	0.00e+00	0	43	0	265289728	62	4519
2026-01-27 12:30:10.37	247.87	12.52	-45.9	-47.4	19.5	0.00e+00	0	43	0	267386880	62	4513
2026-01-27 12:30:11.38	248.03	12.57	-45.9	-47.3	19.5	0.00e+00	0	43	0	268435456	62	4483
2026-01-27 12:30:12.39	248.20	12.62	-45.8	-47.2	19.6	0.00e+00	0	43	0	270532608	62	4419
2026-01-27 12:30:13.39	248.37	12.67	-45.8	-47.2	19.7	0.00e+00	0	43	0	272629760	62	4408
2026-01-27 12:30:14.40	248.54	12.73	-45.8	-47.2	19.6	0.00e+00	0	42	0	274726912	62	4412
2026-01-27 12:30:15.41	248.70	12.78	-45.7	-47.1	19.7	0.00e+00	0	43	0	276824064	62	4366
2026-01-27 12:30:16.41	248.87	12.83	-45.7	-47.1	19.7	0.00e+00	0	43	0	277872640	62	4391
2026-01-27 12:30:17.42	249.04	12.88	-45.7	-47.1	19.7	0.00e+00	0	43	0	279969792	62	4374
2026-01-27 12:30:18.43	249.21	12.93	-45.8	-47.3	19.6	0.00e+00	0	43	0	282066944	62	4446
2026-01-27 12:30:19.44	249.38	12.98	-45.7	-47.1	19.7	0.00e+00	0	42	0	284164096	62	4391
2026-01-27 12:30:20.45	249.56	13.04	-45.8	-47.2	19.6	0.00e+00	0	42	0	286261248	62	4429
2026-01-27 12:30:21.46	249.73	13.09	-45.6	-47.0	19.8	0.00e+00	0	43	0	287309824	62	4303
2026-01-27 12:30:22.47	249.90	13.14	-45.8	-47.2	19.6	0.00e+00	0	43	0	289406976	62	4426
2026-01-27 12:30:23.47	250.07	13.19	-45.8	-47.2	19.6	0.00e+00	0	43	0	291504128	62	4418
2026-01-27 12:30:24.48	250.25	13.24	-45.8	-47.3	19.6	0.00e+00	0	43	0	293601280	62	4442
2026-01-27 12:30:25.48	250.42	13.29	-46.0	-47.4	19.3	0.00e+00	0	42	0	295698432	62	4529
2026-01-27 12:30:26.49	250.60	13.34	-46.1	-47.5	19.3	0.00e+00	0	42	0	296747008	62	4593
2026-01-27 12:30:27.50	250.77	13.39	-46.0	-47.4	19.4	0.00e+00	0	43	0	298844160	62	4543
2026-01-27 12:30:28.51	250.95	13.44	-46.0	-47.5	19.3	0.00e+00	0	42	0	300941312	62	4584
2026-01-27 12:30:29.51	251.12	13.49	-45.9	-47.3	19.5	0.00e+00	0	43	0	303038464	62	4487
2026-01-27 12:30:30.52	251.30	13.54	-45.9	-47.4	19.4	0.00e+00	0	43	0	305135616	62	4516
2026-01-27 12:30:31.52	251.48	13.59	-45.9	-47.4	19.4	0.00e+00	0	43	0	306184192	62	4508
2026-01-27 12:30:32.53	251.66	13.64	-46.1	-47.5	19.3	0.00e+00	0	43	0	308281344	62	4585
2026-01-27 12:30:33.53	251.84	13.69	-45.9	-47.3	19.6	0.00e+00	0	42	0	310378496	62	4467
2026-01-27 12:30:34.54	252.02	13.74	-46.0	-47.5	19.4	0.00e+00	0	43	0	312475648	62	4554
2026-01-27 12:30:35.54	252.19	13.79	-46.0	-47.5	19.4	0.00e+00	0	43	0	314572800	62	4551
2026-01-27 12:30:36.55	252.38	13.84	-46.1	-47.6	19.3	0.00e+00	0	43	0	315621376	62	4620
2026-01-27 12:30:37.55	252.56	13.88	-46.1	-47.6	19.3	0.00e+00	0	43	0	317718528	62	4632
2026-01-27 12:30:38.56	252.74	13.93	-46.3	-47.8	19.2	0.00e+00	0	43	0	319815680	63	4466
2026-01-27 12:30:39.56	252.92	13.98	-46.5	-48.0	19.0	0.00e+00	0	43	0	321912832	63	4580
2026-01-27 12:30:40.57	253.10	14.03	-46.3	-47.8	19.2	0.00e+00	0	43	0	324009984	63	4465
2026-01-27 12:30:41.58	253.29	14.08	-46.5	-48.1	19.0	0.00e+00	0	43	0	325058560	63	4619
2026-01-27 12:30:42.59	253.47	14.13	-46.6	-48.1	18.9	0.00e+00	0	43	0	327155712	63	4638
2026-01-27 12:30:43.60	253.66	14.17	-46.3	-47.8	19.2	0.00e+00	0	43	0	329252864	63	4462
2026-01-27 12:30:44.60	253.84	14.22	-46.3	-47.8	19.2	0.00e+00	0	43	0	331350016	63	4480
2026-01-27 12:30:45.61	254.03	14.27	-46.5	-48.1	19.0	0.00e+00	0	43	0	333447168	63	4602
2026-01-27 12:30:46.62	254.21	14.32	-46.5	-48.1	19.0	0.00e+00	0	43	0	334495744	63	4607
2026-01-27 12:30:47.63	254.40	14.36	-46.7	-48.3	18.7	0.00e+00	0	43	0	336592896	64	4468
2026-01-27 12:30:48.63	254.59	14.41	-46.7	-48.4	18.5	0.00e+00	0	43	0	338690048	64	4526
2026-01-27 12:30:49.64	254.78	14.46	-46.8	-48.5	18.4	0.00e+00	0	43	0	340787200	64	4574
2026-01-27 12:30:50.65	254.97	14.50	-46.7	-48.3	18.6	0.00e+00	0	43	0	342884352	64	4469
2026-01-27 12:30:51.65	255.15	14.55	-46.9	-48.6	18.4	0.00e+00	0	43	0	343932928	64	4608
2026-01-27 12:30:52.66	255.34	14.60	-46.7	-48.3	18.6	0.00e+00	0	43	0	346030080	64	4483
2026-01-27 12:30:53.67	255.53	14.64	-46.5	-48.1	18.9	0.00e+00	0	43	0	348127232	64	4343
2026-01-27 12:30:54.68	255.73	14.69	-46.5	-48.1	18.9	0.00e+00	0	43	0	350224384	64	4358
2026-01-27 12:30:55.68	255.92	14.73	-46.5	-48.1	18.8	0.00e+00	0	43	0	352321536	64	4373
2026-01-27 12:30:56.69	256.11	14.78	-46.5	-48.1	18.8	0.00e+00	0	42	0	353370112	64	4370
2026-01-27 12:30:57.70	256.30	14.82	-46.4	-47.9	19.0	0.00e+00	0	43	0	355467264	64	4283
2026-01-27 12:30:58.71	256.50	14.87	-46.4	-48.0	18.9	0.00e+00	0	43	0	357564416	64	4318
2026-01-27 12:30:59.71	256.69	14.91	-46.4	-47.9	19.0	0.00e+00	0	43	0	359661568	64	4279
2026-01-27 12:31:00.72	256.88	14.96	-46.4	-48.0	19.0	0.00e+00	0	43	0	361758720	64	4303
2026-01-27 12:31:01.73	257.08	15.00	-46.6	-48.1	18.8	0.00e+00	0	43	0	362807296	64	4391
2026-01-27 12:31:02.73	257.27	15.04	-46.5	-48.0	18.9	0.00e+00	0	42	0	364904448	64	4330
2026-01-27 12:31:03.74	257.47	15.09	-46.6	-48.3	18.7	0.00e+00	0	42	0	367001600	64	4451
2026-01-27 12:31:04.75	257.67	15.13	-46.7	-48.4	18.6	0.00e+00	0	43	0	369098752	64	4506
2026-01-27 12:31:05.75	257.86	15.17	-46.9	-48.7	18.3	0.00e+00	0	42	0	371195904	64	4661
2026-01-27 12:31:06.76	258.06	15.22	-47.1	-48.8	18.1	0.00e+00	0	43	0	372244480	64	4755
2026-01-27 12:31:07.77	258.26	15.26	-47.0	-48.8	18.2	0.00e+00	0	43	0	374341632	64	4714
2026-01-27 12:31:08.77	258.46	15.30	-46.9	-48.5	18.5	0.00e+00	0	43	0	376438784	64	4588
2026-01-27 12:31:09.78	258.66	15.35	-46.6	-48.2	18.7	0.00e+00	0	43	0	378535936	64	4424
2026-01-27 12:31:10.79	258.86	15.39	-46.5	-48.0	18.9	0.00e+00	0	42	0	380633088	64	4335
2026-01-27 12:31:11.79	259.06	15.43	-46.4	-48.0	18.9	0.00e+00	0	42	0	381681664	64	4338
2026-01-27 12:31:12.80	259.26	15.47	-46.5	-48.1	18.8	0.00e+00	0	42	0	383778816	64	4378
2026-01-27 12:31:13.81	259.46	15.51	-46.7	-48.4	18.6	0.00e+00	0	43	0	385875968	64	4495
2026-01-27 12:31:14.81	259.66	15.55	-46.9	-48.7	18.3	0.00e+00	0	43	0	387973120	64	4658
2026-01-27 12:31:15.82	259.86	15.59	-47.1	-48.8	18.1	0.00e+00	0	43	0	390070272	64	4757
2026-01-27 12:31:16.83	260.07	15.63	-47.1	-48.8	18.2	0.00e+00	0	43	0	391118848	64	4730
2026-01-27 12:31:17.84	260.27	15.67	-47.0	-48.7	18.3	0.00e+00	0	43	0	393216000	64	4678
2026-01-27 12:31:18.84	260.47	15.71	-46.8	-48.5	18.5	0.00e+00	0	43	0	395313152	64	4552
2026-01-27 12:31:19.85	260.68	15.75	-47.1	-48.8	18.2	0.00e+00	0	43	0	397410304	64	4743
2026-01-27 12:31:20.85	260.88	15.79	-47.0	-48.7	18.3	0.00e+00	0	43	0	399507456	65	4418
2026-01-27 12:31:21.86	261.09	15.83	-47.1	-48.9	18.1	0.00e+00	0	43	0	400556032	65	4509
2026-01-27 12:31:22.87	261.30	15.87	-47.3	-49.1	17.9	0.00e+00	0	43	0	402653184	65	4631
2026-01-27 12:31:23.87	261.50	15.91	-47.3	-49.1	17.9	0.00e+00	0	43	0	404750336	65	4634
2026-01-27 12:31:24.88	261.71	15.95	-47.3	-49.2	17.9	0.00e+00	0	43	0	406847488	65	4655
2026-01-27 12:31:25.89	261.92	15.98	-47.3	-49.0	18.0	0.00e+00	0	43	0	408944640	65	4586
2026-01-27 12:31:26.90	262.13	16.02	-47.1	-48.8	18.1	0.00e+00	0	43	0	409993216	65	4485
2026-01-27 12:31:27.91	262.34	16.06	-46.9	-48.5	18.5	0.00e+00	0	43	0	412090368	65	4321
2026-01-27 12:31:28.91	262.54	16.10	-46.5	-48.0	18.9	0.00e+00	0	43	0	414187520	65	4090
2026-01-27 12:31:29.92	262.75	16.13	-46.4	-48.0	19.0	0.00e+00	0	43	0	416284672	64	4300
2026-01-27 12:31:30.93	262.97	16.17	-46.6	-48.2	18.7	0.00e+00	0	43	0	418381824	64	4425
2026-01-27 12:31:31.93	263.17	16.20	-46.9	-48.6	18.4	0.00e+00	0	43	0	419430400	64	4602
2026-01-27 12:31:32.94	263.39	16.24	-46.8	-48.4	18.5	0.00e+00	0	43	0	421527552	64	4542
2026-01-27 12:31:33.95	263.60	16.28	-47.0	-48.7	18.3	0.00e+00	0	43	0	423624704	64	4667
2026-01-27 12:31:34.96	263.81	16.31	-46.9	-48.6	18.4	0.00e+00	0	43	0	425721856	64	4601
2026-01-27 12:31:35.97	264.02	16.35	-46.6	-48.1	18.8	0.00e+00	0	43	0	427819008	64	4387
2026-01-27 12:31:36.97	264.24	16.38	-46.4	-48.0	18.9	0.00e+00	0	43	0	428867584	64	4298
2026-01-27 12:31:37.98	264.45	16.41	-46.1	-47.6	19.3	0.00e+00	0	43	0	430964736	64	4127
2026-01-27 12:31:38.99	264.67	16.45	-46.3	-47.8	19.2	0.00e+00	0	43	0	433061888	63	4448
2026-01-27 12:31:39.99	264.88	16.48	-46.3	-47.8	19.2	0.00e+00	0	43	0	435159040	63	4475
2026-01-27 12:31:41.00	265.09	16.51	-46.3	-47.8	19.2	0.00e+00	0	43	0	437256192	63	4490
2026-01-27 12:31:42.01	265.31	16.55	-46.4	-47.9	19.1	0.00e+00	0	43	0	438304768	63	4517
2026-01-27 12:31:43.01	265.52	16.58	-46.3	-47.8	19.2	0.00e+00	0	43	0	440401920	63	4455
2026-01-27 12:31:44.02	265.74	16.61	-46.4	-47.9	19.2	0.00e+00	0	43	0	442499072	63	4528
2026-01-27 12:31:45.03	265.96	16.64	-46.3	-47.8	19.2	0.00e+00	0	43	0	444596224	63	4475
2026-01-27 12:31:46.03	266.17	16.68	-46.1	-47.6	19.4	0.00e+00	0	43	0	446693376	63	4354
2026-01-27 12:31:47.04	266.39	16.71	-46.0	-47.5	19.5	0.00e+00	0	43	0	447741952	63	4308
2026-01-27 12:31:48.05	266.61	16.74	-46.2	-47.7	19.4	0.00e+00	0	43	0	449839104	63	4397
2026-01-27 12:31:49.05	266.83	16.77	-46.2	-47.6	19.4	0.00e+00	0	43	0	451936256	63	4387
2026-01-27 12:31:50.05	267.05	16.80	-46.2	-47.6	19.4	0.00e+00	0	43	0	454033408	63	4375
2026-01-27 12:31:51.06	267.27	16.83	-46.0	-47.4	19.6	0.00e+00	0	43	0	456130560	63	4271
2026-01-27 12:31:52.07	267.49	16.86	-46.0	-47.4	19.6	0.00e+00	0	43	0	457179136	63	4264
2026-01-27 12:31:53.07	267.71	16.88	-45.9	-47.3	19.7	0.00e+00	0	43	0	459276288	63	4207
2026-01-27 12:31:54.08	267.93	16.91	-45.7	-47.1	19.8	0.00e+00	0	43	0	461373440	63	4120
2026-01-27 12:31:55.09	268.15	16.94	-45.9	-47.3	19.7	0.00e+00	0	43	0	463470592	63	4194
2026-01-27 12:31:56.09	268.37	16.97	-45.9	-47.2	19.8	0.00e+00	0	43	0	465567744	63	4188
2026-01-27 12:31:57.10	268.59	17.00	-46.1	-47.6	19.4	0.00e+00	0	43	0	466616320	63	4341
2026-01-27 12:31:58.11	268.81	17.02	-46.4	-47.9	19.1	0.00e+00	0	43	0	468713472	63	4526
2026-01-27 12:31:59.12	269.04	17.05	-46.7	-48.3	18.8	0.00e+00	0	42	0	470810624	63	4724
2026-01-27 12:32:00.12	269.26	17.08	-46.5	-48.1	18.9	0.00e+00	0	43	0	472907776	64	4366
2026-01-27 12:32:01.13	269.48	17.10	-46.8	-48.4	18.6	0.00e+00	0	43	0	475004928	64	4522
2026-01-27 12:32:02.14	269.71	17.13	-46.6	-48.2	18.8	0.00e+00	0	43	0	476053504	64	4409
2026-01-27 12:32:03.15	269.93	17.15	-46.6	-48.2	18.8	0.00e+00	0	43	0	478150656	64	4393
2026-01-27 12:32:04.16	270.16	17.18	-46.5	-48.1	18.9	0.00e+00	0	43	0	480247808	64	4351
2026-01-27 12:32:05.16	270.38	17.20	-46.4	-47.9	19.1	0.00e+00	0	43	0	482344960	64	4259
2026-01-27 12:32:06.17	270.60	17.23	-46.2	-47.7	19.3	0.00e+00	0	43	0	484442112	64	4170
2026-01-27 12:32:07.18	270.83	17.25	-45.9	-47.3	19.7	0.00e+00	0	43	0	485490688	63	4242
2026-01-27 12:32:08.18	271.06	17.27	-45.8	-47.1	19.8	0.00e+00	0	43	0	487587840	63	4145
2026-01-27 12:32:09.19	271.28	17.29	-45.4	-46.7	20.3	0.00e+00	0	43	0	489684992	62	4164
2026-01-27 12:32:10.19	271.51	17.32	-45.3	-46.6	20.4	0.00e+00	0	43	0	491782144	62	4113
2026-01-27 12:32:11.20	271.73	17.34	-45.4	-46.7	20.3	0.00e+00	0	43	0	493879296	62	4169
2026-01-27 12:32:12.21	271.96	17.36	-45.7	-47.0	20.0	0.00e+00	0	43	0	494927872	62	4320
2026-01-27 12:32:13.22	272.19	17.38	-46.0	-47.4	19.7	0.00e+00	0	43	0	497025024	62	4525
2026-01-27 12:32:14.23	272.42	17.40	-46.0	-47.5	19.6	0.00e+00	0	43	0	499122176	62	4557
2026-01-27 12:32:15.23	272.64	17.42	-46.4	-47.9	19.2	0.00e+00	0	43	0	501219328	63	4510
2026-01-27 12:32:16.23	272.87	17.44	-46.3	-47.8	19.3	0.00e+00	0	43	0	503316480	63	4448
2026-01-27 12:32:17.24	273.10	17.46	-46.1	-47.6	19.5	0.00e+00	0	43	0	504365056	63	4354
2026-01-27 12:32:18.25	273.33	17.48	-46.1	-47.5	19.5	0.00e+00	0	43	0	506462208	63	4311
2026-01-27 12:32:19.26	273.56	17.50	-46.0	-47.5	19.6	0.00e+00	0	43	0	508559360	63	4301
2026-01-27 12:32:20.26	273.79	17.52	-46.2	-47.6	19.4	0.00e+00	0	43	0	510656512	63	4389
2026-01-27 12:32:21.27	274.02	17.53	-46.4	-47.9	19.2	0.00e+00	0	43	0	512753664	63	4499
2026-01-27 12:32:22.28	274.25	17.55	-46.5	-48.1	19.0	0.00e+00	0	43	0	513802240	63	4617
2026-01-27 12:32:23.29	274.48	17.57	-46.4	-48.0	19.1	0.00e+00	0	43	0	515899392	63	4560
2026-01-27 12:32:24.29	274.71	17.59	-46.1	-47.5	19.5	0.00e+00	0	42	0	517996544	63	4333
2026-01-27 12:32:25.30	274.94	17.60	-45.9	-47.3	19.8	0.00e+00	0	42	0	520093696	63	4221
2026-01-27 12:32:26.31	275.17	17.62	-45.8	-47.2	19.8	0.00e+00	0	43	0	522190848	63	4166
2026-01-27 12:32:27.31	275.40	17.63	-45.9	-47.3	19.8	0.00e+00	0	43	0	523239424	63	4209
2026-01-27 12:32:28.32	275.63	17.65	-46.2	-47.6	19.4	0.00e+00	0	43	0	525336576	63	4388
2026-01-27 12:32:29.33	275.86	17.66	-46.2	-47.7	19.4	0.00e+00	0	43	0	527433728	63	4426
2026-01-27 12:32:30.33	276.09	17.67	-46.4	-47.9	19.2	0.00e+00	0	43	0	529530880	63	4515
2026-01-27 12:32:31.33	276.32	17.69	-46.2	-47.6	19.4	0.00e+00	0	43	0	531628032	63	4388
2026-01-27 12:32:32.34	276.56	17.70	-46.2	-47.6	19.4	0.00e+00	0	43	0	532676608	63	4375
2026-01-27 12:32:33.35	276.79	17.71	-46.1	-47.5	19.5	0.00e+00	0	43	0	534773760	63	4339
2026-01-27 12:32:34.36	277.02	17.73	-46.0	-47.4	19.7	0.00e+00	0	43	0	536870912	63	4249
2026-01-27 12:32:35.36	277.25	17.74	-46.2	-47.6	19.4	0.00e+00	0	42	0	538968064	63	4380
2026-01-27 12:32:36.37	277.49	17.75	-46.6	-48.1	19.0	0.00e+00	0	43	0	541065216	63	4649
2026-01-27 12:32:37.37	277.72	17.76	-47.0	-48.7	18.4	0.00e+00	0	43	0	542113792	64	4701
2026-01-27 12:32:38.38	277.95	17.77	-47.3	-49.0	18.0	0.00e+00	0	43	0	544210944	65	4588
2026-01-27 12:32:39.39	278.19	17.78	-47.4	-49.3	17.8	0.00e+00	0	42	0	546308096	65	4711
2026-01-27 12:32:40.40	278.42	17.79	-47.4	-49.1	17.9	0.00e+00	0	43	0	548405248	65	4650
2026-01-27 12:32:41.40	278.65	17.80	-47.5	-49.3	17.8	0.00e+00	0	43	0	550502400	65	4752
2026-01-27 12:32:42.41	278.89	17.80	-47.4	-49.2	17.9	0.00e+00	0	43	0	551550976	65	4686
2026-01-27 12:32:43.41	279.12	17.81	-47.4	-49.2	17.9	0.00e+00	0	43	0	553648128	65	4654
2026-01-27 12:32:44.42	279.35	17.82	-47.4	-49.2	17.8	0.00e+00	0	43	0	555745280	65	4685
2026-01-27 12:32:45.43	279.59	17.83	-47.7	-49.6	17.5	0.00e+00	0	43	0	557842432	65	4900
2026-01-27 12:32:46.43	279.82	17.83	-47.6	-49.5	17.6	0.00e+00	0	43	0	559939584	66	4576
2026-01-27 12:32:47.44	280.05	17.84	-47.4	-49.1	18.0	0.00e+00	0	43	0	560988160	66	4375
2026-01-27 12:32:48.45	280.29	17.85	-47.1	-48.7	18.4	0.00e+00	0	43	0	563085312	66	4174
2026-01-27 12:32:49.45	280.52	17.85	-46.8	-48.4	18.6	0.00e+00	0	43	0	565182464	65	4270
2026-01-27 12:32:50.46	280.76	17.86	-46.7	-48.3	18.8	0.00e+00	0	43	0	567279616	65	4205
2026-01-27 12:32:51.47	280.99	17.86	-46.7	-48.3	18.8	0.00e+00	0	43	0	569376768	65	4194
2026-01-27 12:32:52.48	281.23	17.86	-46.8	-48.4	18.7	0.00e+00	0	43	0	571473920	65	4260
2026-01-27 12:32:53.49	281.46	17.87	-46.7	-48.3	18.8	0.00e+00	0	43	0	572522496	65	4210
2026-01-27 12:32:54.49	281.70	17.87	-46.5	-48.0	19.1	0.00e+00	0	43	0	574619648	64	4320
2026-01-27 12:32:55.50	281.93	17.87	-46.5	-48.0	19.1	0.00e+00	0	43	0	576716800	64	4312
2026-01-27 12:32:56.50	282.16	17.87	-46.2	-47.7	19.4	0.00e+00	0	43	0	578813952	64	4158
2026-01-27 12:32:57.50	282.40	17.88	-46.3	-47.7	19.3	0.00e+00	0	43	0	579862528	64	4187
2026-01-27 12:32:58.51	282.63	17.88	-46.5	-48.0	19.1	0.00e+00	0	43	0	581959680	64	4333
2026-01-27 12:32:59.52	282.87	17.88	-46.7	-48.3	18.8	0.00e+00	0	43	0	584056832	64	4468
2026-01-27 12:33:00.53	283.10	17.88	-46.8	-48.4	18.7	0.00e+00	0	43	0	586153984	64	4532
2026-01-27 12:33:01.54	283.34	17.88	-46.8	-48.4	18.8	0.00e+00	0	43	0	588251136	64	4512
2026-01-27 12:33:02.55	283.57	17.88	-46.7	-48.2	18.8	0.00e+00	0	43	0	589299712	64	4437
2026-01-27 12:33:03.55	283.81	17.87	-46.6	-48.1	18.8	0.00e+00	0	42	0	591396864	64	4387
2026-01-27 12:33:04.56	284.04	17.87	-46.6	-48.1	18.9	0.00e+00	0	42	0	593494016	64	4374
2026-01-27 12:33:05.57	284.28	17.87	-46.8	-48.4	18.7	0.00e+00	0	43	0	595591168	64	4521
2026-01-27 12:33:06.57	284.51	17.87	-46.8	-48.4	18.7	0.00e+00	0	43	0	597688320	64	4520
2026-01-27 12:33:07.58	284.75	17.87	-46.9	-48.5	18.6	0.00e+00	0	42	0	599785472	64	4560
2026-01-27 12:33:08.59	284.98	17.86	-47.0	-48.6	18.5	0.00e+00	0	43	0	600834048	64	4639
2026-01-27 12:33:09.60	285.22	17.86	-46.9	-48.5	18.6	0.00e+00	0	43	0	602931200	64	4575
2026-01-27 12:33:10.61	285.45	17.85	-46.6	-48.2	18.9	0.00e+00	0	43	0	605028352	64	4413
2026-01-27 12:33:11.61	285.68	17.85	-46.5	-48.0	19.1	0.00e+00	0	43	0	607125504	64	4327
2026-01-27 12:33:12.62	285.92	17.84	-46.3	-47.8	19.3	0.00e+00	0	43	0	608174080	64	4207
2026-01-27 12:33:13.63	286.15	17.84	-46.2	-47.6	19.4	0.00e+00	0	43	0	610271232	64	4106
2026-01-27 12:33:14.64	286.39	17.83	-46.1	-47.5	19.5	0.00e+00	0	43	0	612368384	64	4077
2026-01-27 12:33:15.64	286.62	17.82	-46.3	-47.8	19.3	0.00e+00	0	42	0	614465536	64	4209
2026-01-27 12:33:16.65	286.85	17.82	-46.4	-47.8	19.3	0.00e+00	0	43	0	616562688	64	4238
2026-01-27 12:33:17.66	287.09	17.81	-46.5	-48.0	19.1	0.00e+00	0	43	0	617611264	64	4305
2026-01-27 12:33:18.66	287.32	17.80	-46.4	-47.9	19.2	0.00e+00	0	43	0	619708416	64	4283
2026-01-27 12:33:19.67	287.55	17.79	-46.7	-48.2	18.9	0.00e+00	0	43	0	621805568	64	4432
2026-01-27 12:33:20.68	287.79	17.78	-46.6	-48.2	19.0	0.00e+00	0	43	0	623902720	64	4415
2026-01-27 12:33:21.69	288.02	17.77	-46.7	-48.3	18.9	0.00e+00	0	43	0	625999872	64	4468
2026-01-27 12:33:22.69	288.25	17.76	-47.0	-48.6	18.6	0.00e+00	0	43	0	628097024	64	4633
2026-01-27 12:33:23.70	288.49	17.75	-47.1	-48.8	18.4	0.00e+00	0	43	0	629145600	64	4750
2026-01-27 12:33:24.71	288.72	17.74	-47.4	-49.2	18.0	0.00e+00	0	43	0	631242752	65	4687
2026-01-27 12:33:25.72	288.95	17.73	-47.4	-49.2	18.0	0.00e+00	0	43	0	633339904	65	4691
2026-01-27 12:33:26.73	289.19	17.72	-47.6	-49.4	17.8	0.00e+00	0	43	0	635437056	65	4811
2026-01-27 12:33:27.73	289.42	17.71	-47.6	-49.4	17.9	0.00e+00	0	43	0	636485632	65	4768
2026-01-27 12:33:28.74	289.65	17.69	-47.5	-49.2	18.0	0.00e+00	0	43	0	638582784	65	4685
2026-01-27 12:33:29.74	289.88	17.68	-47.5	-49.3	17.9	0.00e+00	0	43	0	640679936	65	4751
2026-01-27 12:33:30.75	290.11	17.67	-47.7	-49.5	17.7	0.00e+00	0	43	0	642777088	65	4844
2026-01-27 12:33:31.76	290.34	17.65	-47.6	-49.4	17.9	0.00e+00	0	43	0	644874240	66	4524
2026-01-27 12:33:32.76	290.57	17.64	-47.6	-49.5	17.8	0.00e+00	0	43	0	645922816	66	4549
2026-01-27 12:33:33.77	290.80	17.62	-47.6	-49.4	17.9	0.00e+00	0	43	0	648019968	66	4527
2026-01-27 12:33:34.77	291.03	17.61	-47.2	-48.9	18.3	0.00e+00	0	43	0	650117120	66	4267
2026-01-27 12:33:35.78	291.26	17.59	-46.7	-48.3	18.9	0.00e+00	0	43	0	652214272	65	4214
2026-01-27 12:33:36.79	291.50	17.58	-46.4	-47.8	19.4	0.00e+00	0	43	0	654311424	64	4237
2026-01-27 12:33:37.80	291.73	17.56	-46.1	-47.5	19.7	0.00e+00	0	43	0	656408576	63	4309
2026-01-27 12:33:38.81	291.96	17.54	-46.1	-47.5	19.8	0.00e+00	0	43	0	657457152	63	4307
2026-01-27 12:33:39.81	292.18	17.53	-45.8	-47.2	20.0	0.00e+00	0	43	0	659554304	63	4163
2026-01-27 12:33:40.82	292.41	17.51	-45.8	-47.2	20.0	0.00e+00	0	42	0	661651456	63	4154
2026-01-27 12:33:41.83	292.64	17.49	-45.7	-47.0	20.1	0.00e+00	0	43	0	663748608	63	4088
2026-01-27 12:33:42.84	292.87	17.47	-45.6	-46.9	20.2	0.00e+00	0	43	0	664797184	63	4009
2026-01-27 12:33:43.84	293.10	17.45	-45.7	-47.0	20.2	0.00e+00	0	43	0	666894336	62	4301
2026-01-27 12:33:44.85	293.33	17.43	-45.8	-47.1	20.1	0.00e+00	0	43	0	668991488	62	4386
2026-01-27 12:33:45.86	293.56	17.41	-46.1	-47.5	19.8	0.00e+00	0	43	0	671088640	62	4547
2026-01-27 12:33:46.87	293.78	17.39	-46.4	-47.8	19.5	0.00e+00	0	43	0	673185792	63	4468
2026-01-27 12:33:47.88	294.01	17.37	-46.5	-47.9	19.4	0.00e+00	0	43	0	674234368	63	4542
2026-01-27 12:33:48.88	294.24	17.35	-46.7	-48.2	19.1	0.00e+00	0	43	0	676331520	63	4674
2026-01-27 12:33:49.89	294.46	17.33	-46.7	-48.2	19.0	0.00e+00	0	43	0	678428672	64	4434
2026-01-27 12:33:50.90	294.69	17.31	-46.5	-48.0	19.2	0.00e+00	0	43	0	680525824	64	4332
2026-01-27 12:33:51.91	294.92	17.28	-46.6	-48.1	19.1	0.00e+00	0	43	0	682622976	64	4373
2026-01-27 12:33:52.92	295.14	17.26	-46.7	-48.3	18.9	0.00e+00	0	43	0	684720128	64	4468
2026-01-27 12:33:53.92	295.37	17.24	-46.6	-48.1	19.1	0.00e+00	0	43	0	685768704	64	4383
2026-01-27 12:33:54.93	295.59	17.21	-46.4	-47.9	19.3	0.00e+00	0	42	0	687865856	64	4276
2026-01-27 12:33:55.94	295.82	17.19	-46.3	-47.7	19.4	0.00e+00	0	43	0	689963008	64	4184
2026-01-27 12:33:56.95	296.04	17.17	-46.0	-47.3	19.8	0.00e+00	0	43	0	692060160	64	4003
2026-01-27 12:33:57.95	296.26	17.14	-45.9	-47.2	20.0	0.00e+00	0	43	0	693108736	63	4193
2026-01-27 12:33:58.96	296.49	17.12	-45.9	-47.2	20.0	0.00e+00	0	43	0	695205888	63	4182
2026-01-27 12:33:59.97	296.71	17.09	-45.6	-46.9	20.3	0.00e+00	0	43	0	697303040	63	4045
2026-01-27 12:34:00.98	296.94	17.06	-45.6	-47.0	20.2	0.00e+00	0	43	0	699400192	63	4053
2026-01-27 12:34:01.99	297.16	17.04	-45.7	-47.0	20.2	0.00e+00	0	42	0	701497344	63	4072
2026-01-27 12:34:02.99	297.38	17.01	-45.9	-47.3	19.9	0.00e+00	0	43	0	703594496	63	4200
2026-01-27 12:34:04.00	297.60	16.98	-45.9	-47.3	19.9	0.00e+00	0	43	0	704643072	63	4214
2026-01-27 12:34:05.01	297.82	16.96	-45.9	-47.2	19.9	0.00e+00	0	43	0	706740224	63	4191
2026-01-27 12:34:06.02	298.04	16.93	-46.0	-47.4	19.8	0.00e+00	0	43	0	708837376	63	4270
2026-01-27 12:34:07.02	298.26	16.90	-45.9	-47.3	19.9	0.00e+00	0	43	0	710934528	63	4201
2026-01-27 12:34:08.02	298.48	16.87	-46.0	-47.4	19.8	0.00e+00	0	43	0	713031680	63	4276
2026-01-27 12:34:09.03	298.70	16.84	-46.0	-47.4	19.8	0.00e+00	0	43	0	714080256	63	4243
2026-01-27 12:34:10.04	298.92	16.81	-45.9	-47.3	19.8	0.00e+00	0	43	0	716177408	63	4238
2026-01-27 12:34:11.05	299.14	16.78	-45.7	-47.0	20.1	0.00e+00	0	43	0	718274560	63	4087
2026-01-27 12:34:12.05	299.36	16.75	-45.6	-47.0	20.2	0.00e+00	0	43	0	720371712	63	4060
2026-01-27 12:34:13.06	299.57	16.72	-45.6	-47.0	20.1	0.00e+00	0	43	0	721420288	63	4059
2026-01-27 12:34:14.07	299.79	16.69	-45.5	-46.8	20.3	0.00e+00	0	43	0	723517440	63	3996
2026-01-27 12:34:15.08	300.01	16.66	-45.7	-47.0	20.1	0.00e+00	0	42	0	725614592	63	4084
2026-01-27 12:34:16.08	300.22	16.63	-45.7	-47.1	20.0	0.00e+00	0	43	0	727711744	63	4101
2026-01-27 12:34:17.09	300.44	16.60	-45.9	-47.3	19.8	0.00e+00	0	43	0	729808896	63	4205
2026-01-27 12:34:18.10	300.66	16.57	-45.8	-47.2	19.9	0.00e+00	0	42	0	731906048	63	4162
2026-01-27 12:34:19.11	300.87	16.53	-45.5	-46.8	20.2	0.00e+00	0	43	0	732954624	62	4237
2026-01-27 12:34:20.11	301.09	16.50	-45.3	-46.6	20.4	0.00e+00	0	43	0	735051776	62	4132
2026-01-27 12:34:21.12	301.30	16.47	-45.1	-46.3	20.6	0.00e+00	0	43	0	737148928	62	3992
2026-01-27 12:34:22.13	301.52	16.43	-45.2	-46.5	20.5	0.00e+00	0	43	0	739246080	62	4057
2026-01-27 12:34:23.14	301.73	16.40	-45.1	-46.3	20.6	0.00e+00	0	43	0	741343232	62	4004
2026-01-27 12:34:24.14	301.94	16.37	-45.1	-46.3	20.6	0.00e+00	0	43	0	742391808	61	4224
2026-01-27 12:34:25.15	302.15	16.33	-45.1	-46.4	20.5	0.00e+00	0	43	0	744488960	61	4268
2026-01-27 12:34:26.16	302.37	16.30	-45.1	-46.3	20.6	0.00e+00	0	43	0	746586112	61	4225
2026-01-27 12:34:27.17	302.58	16.26	-45.2	-46.5	20.5	0.00e+00	0	43	0	748683264	61	4295
2026-01-27 12:34:28.18	302.79	16.23	-45.5	-46.8	20.2	0.00e+00	0	43	0	749731840	61	4477
2026-01-27 12:34:29.19	303.00	16.19	-45.2	-46.5	20.4	0.00e+00	0	43	0	751828992	61	4329
2026-01-27 12:34:30.19	303.21	16.15	-45.4	-46.7	20.2	0.00e+00	0	43	0	753926144	61	4428
2026-01-27 12:34:31.20	303.42	16.12	-45.3	-46.6	20.3	0.00e+00	0	43	0	756023296	61	4377
2026-01-27 12:34:32.20	303.63	16.08	-45.4	-46.7	20.2	0.00e+00	0	43	0	758120448	61	4417
2026-01-27 12:34:33.22	303.84	16.04	-45.3	-46.6	20.3	0.00e+00	0	43	0	760217600	61	4370
2026-01-27 12:34:34.22	304.04	16.01	-45.1	-46.4	20.5	0.00e+00	0	43	0	761266176	61	4259
2026-01-27 12:34:35.23	304.25	15.97	-45.2	-46.5	20.4	0.00e+00	0	43	0	763363328	61	4304
2026-01-27 12:34:36.24	304.46	15.93	-45.6	-46.9	19.9	0.00e+00	0	43	0	765460480	61	4526
2026-01-27 12:34:37.25	304.67	15.89	-45.6	-47.0	20.0	0.00e+00	0	43	0	767557632	61	4561
2026-01-27 12:34:38.26	304.87	15.86	-45.9	-47.3	19.5	0.00e+00	0	43	0	769654784	62	4453
2026-01-27 12:34:39.26	305.08	15.82	-45.8	-47.2	19.4	0.00e+00	0	43	0	770703360	62	4402
2026-01-27 12:34:40.27	305.28	15.78	-45.7	-47.0	19.6	0.00e+00	0	43	0	772800512	62	4334
2026-01-27 12:34:41.27	305.48	15.74	-45.8	-47.1	19.6	0.00e+00	0	43	0	774897664	62	4388
2026-01-27 12:34:42.28	305.69	15.70	-45.6	-46.9	19.4	0.00e+00	0	43	0	776994816	62	4272
2026-01-27 12:34:43.29	305.89	15.66	-45.4	-46.8	19.9	0.00e+00	0	43	0	779091968	62	4199
2026-01-27 12:34:44.29	306.09	15.62	-45.1	-46.5	17.2	0.00e+00	0	43	0	780140544	62	4058
2026-01-27 12:34:45.30	306.30	15.58	-45.0	-46.6	12.2	0.00e+00	0	42	0	782237696	61	4390
2026-01-27 12:34:46.31	306.50	15.54	-43.4	-45.9	5.8	1.40e-02	0	43	0	784334848	58	4766
2026-01-27 12:34:47.31	306.70	15.50	-42.1	-45.2	4.4	5.84e-01	0	43	0	786432000	56	4942
2026-01-27 12:34:48.32	306.90	15.46	-43.3	-45.9	5.4	5.65e-01	0	43	0	788529152	57	5077
2026-01-27 12:34:49.33	307.10	15.42	-44.6	-46.5	8.9	7.05e-02	0	43	0	789577728	59	4839
2026-01-27 12:34:50.34	307.30	15.37	-45.0	-46.6	12.9	7.60e-06	0	43	0	791674880	60	4610
2026-01-27 12:34:51.35	307.50	15.33	-45.3	-46.7	16.4	0.00e+00	0	43	0	793772032	61	4438
2026-01-27 12:34:52.35	307.70	15.29	-45.5	-46.9	19.0	0.00e+00	0	43	0	795869184	61	4494
2026-01-27 12:34:53.36	307.89	15.25	-45.5	-46.8	19.6	0.00e+00	0	43	0	797966336	61	4482
2026-01-27 12:34:54.36	308.09	15.20	-45.5	-46.8	19.6	0.00e+00	0	43	0	799014912	61	4487
2026-01-27 12:34:55.37	308.29	15.16	-45.5	-46.8	19.9	0.00e+00	0	43	0	801112064	61	4493
2026-01-27 12:34:56.37	308.48	15.12	-45.5	-46.8	19.9	0.00e+00	0	43	0	803209216	61	4489
2026-01-27 12:34:57.38	308.68	15.08	-45.8	-47.2	19.7	0.00e+00	0	43	0	805306368	62	4401
2026-01-27 12:34:58.39	308.87	15.03	-46.1	-47.5	19.4	0.00e+00	0	43	0	807403520	62	4581
2026-01-27 12:34:59.39	309.07	14.99	-46.4	-48.0	19.0	0.00e+00	0	43	0	808452096	63	4559
2026-01-27 12:35:00.40	309.26	14.94	-46.6	-48.3	18.7	0.00e+00	0	43	0	810549248	63	4711
2026-01-27 12:35:01.41	309.45	14.90	-46.7	-48.3	18.5	0.00e+00	0	43	0	812646400	63	4748
2026-01-27 12:35:02.42	309.65	14.86	-46.7	-48.3	18.4	0.00e+00	0	43	0	814743552	64	4482
2026-01-27 12:35:03.43	309.84	14.81	-46.6	-48.2	18.6	0.00e+00	0	43	0	816840704	64	4428
2026-01-27 12:35:04.44	310.03	14.77	-46.5	-48.0	18.8	0.00e+00	0	43	0	817889280	64	4340
2026-01-27 12:35:05.45	310.22	14.72	-46.3	-47.8	19.1	0.00e+00	0	43	0	819986432	64	4213
2026-01-27 12:35:06.46	310.42	14.68	-46.0	-47.4	19.4	0.00e+00	0	43	0	822083584	64	4049
2026-01-27 12:35:07.47	310.61	14.63	-45.8	-47.2	19.7	0.00e+00	0	43	0	824180736	63	4161
2026-01-27 12:35:08.48	310.80	14.58	-45.6	-47.0	19.9	0.00e+00	0	43	0	826277888	63	4058
2026-01-27 12:35:09.49	310.99	14.54	-45.8	-47.2	19.7	0.00e+00	0	43	0	828375040	63	4165
2026-01-27 12:35:10.49	311.17	14.49	-45.9	-47.4	19.5	0.00e+00	0	43	0	829423616	63	4243
2026-01-27 12:35:11.50	311.36	14.45	-46.1	-47.6	19.3	0.00e+00	0	43	0	831520768	63	4364
2026-01-27 12:35:12.51	311.55	14.40	-46.3	-47.8	19.0	0.00e+00	0	43	0	833617920	63	4472
2026-01-27 12:35:13.52	311.74	14.35	-46.4	-47.9	18.9	0.00e+00	0	43	0	835715072	63	4527
2026-01-27 12:35:14.52	311.92	14.31	-46.4	-48.0	18.9	0.00e+00	0	43	0	836763648	63	4553
2026-01-27 12:35:15.53	312.11	14.26	-46.4	-47.9	19.0	0.00e+00	0	43	0	838860800	63	4512
2026-01-27 12:35:16.53	312.29	14.21	-46.5	-48.1	18.9	0.00e+00	0	43	0	840957952	63	4618
2026-01-27 12:35:17.54	312.47	14.16	-46.6	-48.1	18.7	0.00e+00	0	43	0	843055104	63	4645
2026-01-27 12:35:18.55	312.66	14.12	-46.5	-48.0	18.8	0.00e+00	0	43	0	845152256	64	4338
2026-01-27 12:35:19.56	312.84	14.07	-46.8	-48.5	18.4	0.00e+00	0	43	0	846200832	64	4561
2026-01-27 12:35:20.57	313.02	14.02	-46.7	-48.4	18.5	0.00e+00	0	43	0	848297984	64	4502
2026-01-27 12:35:21.58	313.21	13.97	-47.1	-48.9	18.0	0.00e+00	0	43	0	850395136	64	4762
2026-01-27 12:35:22.59	313.39	13.92	-47.1	-48.8	18.0	0.00e+00	0	43	0	852492288	64	4750
2026-01-27 12:35:23.59	313.57	13.88	-47.1	-48.8	18.0	0.00e+00	0	43	0	854589440	64	4749
2026-01-27 12:35:24.60	313.75	13.83	-46.9	-48.6	18.2	0.00e+00	0	43	0	856686592	64	4646
2026-01-27 12:35:25.61	313.93	13.78	-46.9	-48.6	18.2	0.00e+00	0	43	0	857735168	64	4624
2026-01-27 12:35:26.61	314.11	13.73	-46.8	-48.5	18.3	0.00e+00	0	43	0	859832320	64	4584
2026-01-27 12:35:27.62	314.29	13.68	-46.9	-48.7	18.1	0.00e+00	0	43	0	861929472	64	4658
2026-01-27 12:35:28.63	314.47	13.63	-47.2	-49.0	17.8	0.00e+00	0	43	0	864026624	64	4825
2026-01-27 12:35:29.63	314.64	13.58	-47.4	-49.2	17.6	0.00e+00	0	43	0	865075200	65	4700
2026-01-27 12:35:30.64	314.82	13.53	-47.2	-49.0	17.8	0.00e+00	0	43	0	867172352	65	4575
2026-01-27 12:35:31.65	315.00	13.48	-47.5	-49.4	17.4	0.00e+00	0	43	0	869269504	65	4777
2026-01-27 12:35:32.66	315.17	13.43	-47.2	-49.0	17.8	0.00e+00	0	43	0	871366656	65	4585
2026-01-27 12:35:33.66	315.35	13.38	-47.2	-49.0	17.8	0.00e+00	0	43	0	873463808	65	4565
2026-01-27 12:35:34.67	315.52	13.33	-47.0	-48.8	18.0	0.00e+00	0	43	0	874512384	65	4461
2026-01-27 12:35:35.68	315.69	13.28	-46.7	-48.3	18.4	0.00e+00	0	43	0	876609536	65	4233
2026-01-27 12:35:36.68	315.87	13.23	-46.6	-48.3	18.5	0.00e+00	0	43	0	878706688	65	4216
2026-01-27 12:35:37.69	316.04	13.18	-46.6	-48.2	18.6	0.00e+00	0	43	0	880803840	65	4164
2026-01-27 12:35:38.71	316.21	13.13	-46.6	-48.2	18.5	0.00e+00	0	43	0	882900992	64	4417
2026-01-27 12:35:39.71	316.38	13.08	-46.6	-48.3	18.5	0.00e+00	0	43	0	884998144	64	4461
2026-01-27 12:35:40.72	316.56	13.03	-46.5	-48.1	18.6	0.00e+00	0	43	0	886046720	64	4350
2026-01-27 12:35:41.73	316.73	12.98	-46.6	-48.3	18.5	0.00e+00	0	43	0	888143872	64	4446
2026-01-27 12:35:42.74	316.90	12.93	-46.6	-48.3	18.5	0.00e+00	0	43	0	890241024	64	4458
2026-01-27 12:35:43.75	317.07	12.88	-46.6	-48.2	18.5	0.00e+00	0	43	0	892338176	64	4439
2026-01-27 12:35:44.75	317.23	12.83	-46.7	-48.4	18.3	0.00e+00	0	43	0	893386752	64	4526
2026-01-27 12:35:45.76	317.40	12.77	-46.8	-48.6	18.2	0.00e+00	0	43	0	895483904	64	4601
2026-01-27 12:35:46.77	317.57	12.72	-46.8	-48.6	18.2	0.00e+00	0	43	0	897581056	64	4602
2026-01-27 12:35:47.77	317.74	12.67	-46.9	-48.7	18.0	0.00e+00	0	43	0	899678208	64	4675
2026-01-27 12:35:48.79	317.91	12.62	-47.3	-49.2	17.7	0.00e+00	0	43	0	901775360	65	4656
2026-01-27 12:35:49.79	318.07	12.57	-47.1	-49.0	17.8	0.00e+00	0	43	0	903872512	65	4557
2026-01-27 12:35:50.79	318.24	12.52	-47.2	-49.1	17.7	0.00e+00	0	43	0	904921088	65	4619
2026-01-27 12:35:51.80	318.40	12.46	-47.4	-49.3	17.5	0.00e+00	0	43	0	907018240	65	4711
2026-01-27 12:35:52.80	318.56	12.41	-47.3	-49.1	17.7	0.00e+00	0	43	0	909115392	65	4629
2026-01-27 12:35:53.81	318.73	12.36	-47.2	-49.1	17.7	0.00e+00	0	43	0	911212544	65	4622
2026-01-27 12:35:54.81	318.89	12.31	-47.2	-49.0	17.8	0.00e+00	0	43	0	913309696	65	4569
2026-01-27 12:35:55.82	319.05	12.25	-46.9	-48.6	18.1	0.00e+00	0	43	0	914358272	65	4355
2026-01-27 12:35:56.83	319.21	12.20	-46.9	-48.7	18.1	0.00e+00	0	43	0	916455424	65	4424
2026-01-27 12:35:57.84	319.38	12.15	-46.9	-48.7	18.1	0.00e+00	0	43	0	918552576	65	4403
2026-01-27 12:35:58.84	319.54	12.10	-47.0	-48.7	18.0	0.00e+00	0	43	0	920649728	65	4432
2026-01-27 12:35:59.85	319.70	12.04	-47.0	-48.8	18.0	0.00e+00	0	43	0	921698304	65	4462
2026-01-27 12:36:00.86	319.86	11.99	-47.0	-48.7	18.1	0.00e+00	0	43	0	923795456	65	4435
2026-01-27 12:36:01.87	320.02	11.94	-46.8	-48.5	18.3	0.00e+00	0	43	0	925892608	65	4307
2026-01-27 12:36:02.87	320.17	11.89	-46.8	-48.5	18.2	0.00e+00	0	43	0	927989760	65	4327
2026-01-27 12:36:03.88	320.33	11.83	-46.8	-48.6	18.2	0.00e+00	0	43	0	930086912	65	4350
2026-01-27 12:36:04.88	320.49	11.78	-46.2	-47.8	18.9	0.00e+00	0	43	0	932184064	64	4204
2026-01-27 12:36:05.89	320.65	11.73	-46.1	-47.7	19.0	0.00e+00	0	43	0	933232640	64	4157
2026-01-27 12:36:06.90	320.80	11.67	-46.1	-47.6	19.0	0.00e+00	0	43	0	935329792	64	4124
2026-01-27 12:36:07.91	320.96	11.62	-46.0	-47.5	19.2	0.00e+00	0	43	0	937426944	63	4308
2026-01-27 12:36:08.91	321.11	11.57	-46.1	-47.6	19.2	0.00e+00	0	43	0	939524096	63	4346
2026-01-27 12:36:09.93	321.27	11.51	-46.1	-47.6	19.1	0.00e+00	0	43	0	941621248	63	4358
2026-01-27 12:36:10.93	321.42	11.46	-46.2	-47.7	19.0	0.00e+00	0	43	0	942669824	63	4441
2026-01-27 12:36:11.94	321.58	11.40	-46.3	-47.8	18.9	0.00e+00	0	43	0	944766976	63	4481
2026-01-27 12:36:12.95	321.73	11.35	-46.2	-47.8	18.9	0.00e+00	0	43	0	946864128	63	4456
2026-01-27 12:36:13.96	321.88	11.30	-46.4	-48.0	18.8	0.00e+00	0	43	0	948961280	63	4551
2026-01-27 12:36:14.97	322.04	11.24	-46.3	-47.9	18.9	0.00e+00	0	43	0	950009856	63	4503
2026-01-27 12:36:15.97	322.19	11.19	-46.1	-47.6	19.1	0.00e+00	0	43	0	952107008	63	4384
2026-01-27 12:36:16.98	322.34	11.13	-46.3	-47.9	18.8	0.00e+00	0	43	0	954204160	63	4516
2026-01-27 12:36:17.98	322.49	11.08	-46.1	-47.6	19.1	0.00e+00	0	43	0	956301312	63	4348
2026-01-27 12:36:18.98	322.64	11.03	-45.9	-47.4	19.2	0.00e+00	0	43	0	958398464	63	4275
2026-01-27 12:36:19.99	322.79	10.97	-45.9	-47.3	19.3	0.00e+00	0	43	0	960495616	63	4225
2026-01-27 12:36:20.99	322.94	10.92	-46.0	-47.5	19.2	0.00e+00	0	43	0	961544192	63	4332
2026-01-27 12:36:22.00	323.08	10.87	-46.1	-47.6	19.1	0.00e+00	0	43	0	963641344	63	4358
2026-01-27 12:36:23.01	323.23	10.81	-46.1	-47.6	19.1	0.00e+00	0	43	0	965738496	63	4375
2026-01-27 12:36:24.01	323.38	10.76	-46.2	-47.8	18.9	0.00e+00	0	43	0	967835648	63	4445
2026-01-27 12:36:25.02	323.53	10.70	-46.4	-48.0	18.7	0.00e+00	0	43	0	969932800	63	4594
2026-01-27 12:36:26.03	323.67	10.65	-46.4	-48.0	18.7	0.00e+00	0	43	0	970981376	63	4591
2026-01-27 12:36:27.04	323.82	10.59	-46.3	-47.8	18.9	0.00e+00	0	43	0	973078528	63	4485
2026-01-27 12:36:28.05	323.96	10.54	-46.3	-47.8	18.8	0.00e+00	0	43	0	975175680	63	4492
2026-01-27 12:36:29.05	324.11	10.48	-46.0	-47.6	19.1	0.00e+00	0	43	0	977272832	63	4348
2026-01-27 12:36:30.06	324.25	10.43	-46.0	-47.5	19.1	0.00e+00	0	43	0	978321408	63	4325
2026-01-27 12:36:31.07	324.40	10.38	-45.9	-47.4	19.2	0.00e+00	0	43	0	980418560	63	4270
2026-01-27 12:36:32.07	324.54	10.32	-45.8	-47.2	19.3	0.00e+00	0	43	0	982515712	63	4189
2026-01-27 12:36:33.08	324.68	10.27	-45.6	-47.0	19.6	0.00e+00	0	43	0	984612864	63	4093
2026-01-27 12:36:34.08	324.82	10.21	-45.6	-47.0	19.6	0.00e+00	0	43	0	986710016	63	4059
2026-01-27 12:36:35.09	324.96	10.16	-45.4	-46.8	19.8	0.00e+00	0	43	0	988807168	62	4200
2026-01-27 12:36:36.10	325.11	10.10	-45.5	-46.9	19.7	0.00e+00	0	43	0	989855744	62	4276
2026-01-27 12:36:37.11	325.25	10.05	-45.6	-47.1	19.5	0.00e+00	0	43	0	991952896	62	4344
2026-01-27 12:36:38.12	325.39	9.99	-45.4	-46.8	19.8	0.00e+00	0	43	0	994050048	62	4213
2026-01-27 12:36:39.12	325.53	9.94	-45.6	-47.0	19.6	0.00e+00	0	43	0	996147200	62	4322
2026-01-27 12:36:40.13	325.66	9.88	-45.6	-47.0	19.6	0.00e+00	0	43	0	998244352	62	4318
2026-01-27 12:36:41.14	325.80	9.83	-45.7	-47.1	19.5	0.00e+00	0	43	0	999292928	62	4372
2026-01-27 12:36:42.15	325.94	9.77	-46.0	-47.5	19.1	0.00e+00	0	43	0	1001390080	62	4592
2026-01-27 12:36:43.15	326.08	9.72	-45.9	-47.4	19.2	0.00e+00	0	43	0	1003487232	62	4499
2026-01-27 12:36:44.16	326.22	9.66	-46.0	-47.5	19.1	0.00e+00	0	43	0	1005584384	62	4574
2026-01-27 12:36:45.17	326.35	9.61	-46.0	-47.6	19.0	0.00e+00	0	43	0	1006632960	62	4623
2026-01-27 12:36:46.17	326.49	9.55	-46.2	-47.8	18.8	0.00e+00	0	43	0	1008730112	63	4452
2026-01-27 12:36:47.18	326.62	9.50	-46.5	-48.1	18.4	0.00e+00	0	43	0	1010827264	63	4646
2026-01-27 12:36:48.19	326.76	9.44	-46.5	-48.2	18.3	0.00e+00	0	43	0	1012924416	64	4431
2026-01-27 12:36:49.20	326.89	9.39	-46.5	-48.2	18.3	0.00e+00	0	43	0	1015021568	64	4412
2026-01-27 12:36:50.21	327.03	9.33	-46.6	-48.3	18.2	0.00e+00	0	43	0	1017118720	64	4480
2026-01-27 12:36:51.21	327.16	9.28	-46.5	-48.3	18.2	0.00e+00	0	43	0	1018167296	64	4445
2026-01-27 12:36:52.22	327.29	9.22	-46.6	-48.4	18.1	0.00e+00	0	43	0	1020264448	64	4503
2026-01-27 12:36:53.23	327.43	9.17	-46.5	-48.3	18.2	0.00e+00	0	43	0	1022361600	64	4444
2026-01-27 12:36:54.24	327.56	9.11	-46.5	-48.2	18.3	0.00e+00	0	43	0	1024458752	64	4394
2026-01-27 12:36:55.24	327.69	9.06	-46.1	-47.7	18.7	0.00e+00	0	43	0	1026555904	64	4175
2026-01-27 12:36:56.24	327.82	9.00	-46.1	-47.6	18.9	0.00e+00	0	43	0	1027604480	63	4389
2026-01-27 12:36:57.25	327.95	8.95	-45.8	-47.3	19.2	0.00e+00	0	43	0	1029701632	63	4201
2026-01-27 12:36:58.26	328.08	8.89	-45.8	-47.3	19.2	0.00e+00	0	43	0	1031798784	63	4213
2026-01-27 12:36:59.27	328.21	8.84	-45.9	-47.4	19.1	0.00e+00	0	43	0	1033895936	63	4267
2026-01-27 12:37:00.27	328.34	8.78	-45.7	-47.2	19.3	0.00e+00	0	43	0	1034944512	63	4155
2026-01-27 12:37:01.28	328.47	8.73	-45.8	-47.2	19.3	0.00e+00	0	43	0	1037041664	63	4188
2026-01-27 12:37:02.29	328.60	8.67	-46.0	-47.5	19.0	0.00e+00	0	43	0	1039138816	63	4328
2026-01-27 12:37:03.29	328.73	8.62	-46.0	-47.5	18.9	0.00e+00	0	43	0	1041235968	63	4339
2026-01-27 12:37:04.30	328.85	8.56	-46.3	-47.9	18.6	0.00e+00	0	43	0	1043333120	63	4526
2026-01-27 12:37:05.31	328.98	8.51	-46.3	-48.0	18.6	0.00e+00	0	43	0	1045430272	63	4550
2026-01-27 12:37:06.31	329.11	8.45	-46.6	-48.3	18.1	0.00e+00	0	43	0	1046478848	64	4493
2026-01-27 12:37:07.31	329.23	8.40	-46.5	-48.2	18.2	0.00e+00	0	43	0	1048576000	64	4405
2026-01-27 12:37:08.32	329.36	8.34	-46.8	-48.6	17.9	0.00e+00	0	43	0	1050673152	64	4622
2026-01-27 12:37:09.33	329.48	8.29	-46.7	-48.4	18.0	0.00e+00	0	43	0	1052770304	64	4535
2026-01-27 12:37:10.33	329.61	8.23	-46.5	-48.2	18.2	0.00e+00	0	43	0	1054867456	64	4437
2026-01-27 12:37:11.34	329.73	8.18	-46.6	-48.4	18.0	0.00e+00	0	43	0	1055916032	64	4519
2026-01-27 12:37:12.34	329.85	8.12	-46.5	-48.3	18.1	0.00e+00	0	43	0	1058013184	64	4449
2026-01-27 12:37:13.35	329.98	8.07	-46.6	-48.3	18.1	0.00e+00	0	43	0	1060110336	64	4468
2026-01-27 12:37:14.36	330.10	8.01	-46.6	-48.4	18.0	0.00e+00	0	43	0	1062207488	64	4508
2026-01-27 12:37:15.36	330.22	7.96	-46.7	-48.6	17.9	0.00e+00	0	43	0	1063256064	64	4599
2026-01-27 12:37:16.37	330.35	7.90	-47.0	-48.8	17.6	0.00e+00	0	43	0	1065353216	64	4752
2026-01-27 12:37:17.38	330.47	7.85	-47.1	-49.0	17.4	0.00e+00	0	43	0	1067450368	64	4855
2026-01-27 12:37:18.39	330.59	7.79	-47.2	-49.1	17.3	0.00e+00	0	43	0	1069547520	64	4919
2026-01-27 12:37:19.40	330.71	7.74	-47.4	-49.4	17.1	0.00e+00	0	43	0	1071644672	65	4780
2026-01-27 12:37:20.40	330.83	7.68	-47.2	-49.2	17.2	0.00e+00	0	43	0	1073741824	65	4678
2026-01-27 12:37:21.41	330.95	7.63	-47.4	-49.5	16.9	0.00e+00	0	43	0	1074790400	65	4834
2026-01-27 12:37:22.42	331.07	7.57	-47.5	-49.6	16.8	0.00e+00	0	43	0	1076887552	65	4874
2026-01-27 12:37:23.43	331.19	7.52	-47.3	-49.4	16.9	0.00e+00	0	43	0	1078984704	65	4791
2026-01-27 12:37:24.44	331.31	7.46	-47.5	-49.7	16.7	0.00e+00	0	43	0	1081081856	65	4929
2026-01-27 12:37:25.44	331.43	7.41	-47.4	-49.5	16.9	0.00e+00	0	43	0	1083179008	65	4843
2026-01-27 12:37:26.45	331.54	7.35	-47.3	-49.4	17.0	0.00e+00	0	43	0	1084227584	65	4777
2026-01-27 12:37:27.46	331.66	7.30	-47.3	-49.4	16.9	0.00e+00	0	43	0	1086324736	65	4789
2026-01-27 12:37:28.47	331.78	7.24	-47.3	-49.4	17.0	0.00e+00	0	43	0	1088421888	65	4786
2026-01-27 12:37:29.47	331.89	7.19	-47.4	-49.5	16.9	0.00e+00	0	43	0	1090519040	65	4826
2026-01-27 12:37:30.48	332.01	7.13	-47.5	-49.6	16.7	0.00e+00	0	43	0	1091567616	65	4914
2026-01-27 12:37:31.49	332.13	7.08	-47.4	-49.5	16.8	0.00e+00	0	43	0	1093664768	65	4822
2026-01-27 12:37:32.49	332.24	7.03	-47.6	-49.8	16.5	0.00e+00	0	43	0	1095761920	66	4743
2026-01-27 12:37:33.50	332.36	6.97	-47.7	-49.9	16.5	0.00e+00	0	43	0	1097859072	66	4775
2026-01-27 12:37:34.51	332.47	6.92	-47.7	-49.9	16.4	0.00e+00	0	43	0	1099956224	66	4810
2026-01-27 12:37:35.52	332.58	6.86	-47.6	-49.7	16.6	0.00e+00	0	43	0	1102053376	66	4696
2026-01-27 12:37:36.53	332.70	6.81	-47.7	-49.9	16.4	0.00e+00	0	43	0	1103101952	66	4780
2026-01-27 12:37:37.54	332.81	6.75	-47.5	-49.6	16.7	0.00e+00	0	43	0	1105199104	66	4647
2026-01-27 12:37:38.54	332.92	6.70	-47.2	-49.3	17.0	0.00e+00	0	43	0	1107296256	66	4458
2026-01-27 12:37:39.55	333.04	6.64	-47.0	-49.0	17.3	0.00e+00	0	43	0	1109393408	66	4318
2026-01-27 12:37:40.55	333.15	6.59	-46.8	-48.7	17.5	0.00e+00	0	43	0	1111490560	65	4414
2026-01-27 12:37:41.56	333.26	6.53	-46.7	-48.5	17.7	0.00e+00	0	43	0	1112539136	65	4300
2026-01-27 12:37:42.57	333.37	6.48	-46.9	-48.8	17.4	0.00e+00	0	43	0	1114636288	65	4477
2026-01-27 12:37:43.57	333.48	6.43	-46.8	-48.6	17.6	0.00e+00	0	43	0	1116733440	65	4389
2026-01-27 12:37:44.58	333.59	6.37	-46.9	-48.9	17.4	0.00e+00	0	43	0	1118830592	65	4500
2026-01-27 12:37:45.59	333.70	6.32	-46.9	-48.8	17.4	0.00e+00	0	43	0	1120927744	65	4471
2026-01-27 12:37:46.60	333.81	6.26	-47.0	-49.0	17.2	0.00e+00	0	43	0	1121976320	65	4577
2026-01-27 12:37:47.61	333.92	6.21	-47.5	-49.6	16.5	0.00e+00	0	43	0	1124073472	65	4925
2026-01-27 12:37:48.61	334.03	6.15	-47.6	-49.8	16.4	0.00e+00	0	43	0	1126170624	65	4999
2026-01-27 12:37:49.62	334.14	6.10	-47.9	-50.2	15.9	0.00e+00	0	43	0	1128267776	66	4967
2026-01-27 12:37:50.63	334.25	6.04	-48.1	-50.7	15.5	0.00e+00	0	43	0	1130364928	66	5233
2026-01-27 12:37:51.64	334.35	5.99	-48.0	-50.5	15.7	0.00e+00	0	43	0	1131413504	66	5136
2026-01-27 12:37:52.65	334.46	5.94	-48.5	-51.2	14.9	0.00e+00	0	43	0	1133510656	67	5271
2026-01-27 12:37:53.66	334.57	5.88	-48.5	-51.2	14.9	0.00e+00	0	43	0	1135607808	67	5270
2026-01-27 12:37:54.66	334.67	5.83	-48.6	-51.4	14.7	0.00e+00	0	43	0	1137704960	67	5354
2026-01-27 12:37:55.67	334.78	5.77	-48.5	-51.3	14.9	0.00e+00	0	43	0	1139802112	68	5018
2026-01-27 12:37:56.67	334.89	5.72	-48.2	-50.7	15.6	0.00e+00	0	43	0	1140850688	68	4661
2026-01-27 12:37:57.68	334.99	5.67	-48.1	-50.6	15.7	0.00e+00	0	43	0	1142947840	68	4625
2026-01-27 12:37:58.69	335.10	5.61	-48.0	-50.5	15.8	0.00e+00	0	43	0	1145044992	68	4550
2026-01-27 12:37:59.69	335.20	5.56	-47.7	-50.0	16.1	0.00e+00	0	43	0	1147142144	67	4548
2026-01-27 12:38:00.70	335.30	5.50	-47.7	-50.1	16.0	0.00e+00	0	43	0	1149239296	67	4601
2026-01-27 12:38:01.71	335.41	5.45	-47.6	-49.8	16.3	0.00e+00	0	43	0	1150287872	67	4449
2026-01-27 12:38:02.71	335.51	5.40	-47.7	-49.9	16.2	0.00e+00	0	43	0	1152385024	66	4802
2026-01-27 12:38:03.72	335.62	5.34	-47.7	-50.0	16.1	0.00e+00	0	43	0	1154482176	66	4838
2026-01-27 12:38:04.72	335.72	5.29	-47.5	-49.7	16.4	0.00e+00	0	43	0	1156579328	66	4672
2026-01-27 12:38:05.73	335.82	5.24	-47.7	-50.0	16.0	0.00e+00	0	43	0	1158676480	66	4860
2026-01-27 12:38:06.74	335.92	5.18	-47.9	-50.3	15.8	0.00e+00	0	43	0	1159725056	66	5000
2026-01-27 12:38:07.74	336.02	5.13	-47.8	-50.2	15.9	0.00e+00	0	43	0	1161822208	66	4936
2026-01-27 12:38:08.75	336.13	5.07	-48.0	-50.4	15.7	0.00e+00	0	43	0	1163919360	66	5093
2026-01-27 12:38:09.76	336.23	5.02	-48.2	-50.7	15.4	0.00e+00	0	43	0	1166016512	66	5266
2026-01-27 12:38:10.77	336.33	4.97	-52.2	-64.6	4.1	2.22e-03	41	43	0	1167065088	75	15459
2026-01-27 12:38:11.78	336.43	4.91	-52.8	-67.8	3.8	1.49e+00	0	43	104	1167065088	76	21081
2026-01-27 12:38:12.79	336.53	4.86	-53.1	-68.1	3.8	1.49e+00	0	43	104	1167065088	76	21761
2026-01-27 12:38:13.79	336.63	4.81	-53.2	-68.2	3.8	1.49e+00	0	43	104	1167065088	76	22098
2026-01-27 12:38:14.80	336.73	4.75	-53.3	-68.3	3.8	1.49e+00	0	43	104	1167065088	77	21168
2026-01-27 12:38:15.81	336.83	4.70	-53.4	-68.4	3.8	1.49e+00	0	43	104	1167065088	77	21357
2026-01-27 12:38:16.82	336.93	4.65	-53.5	-68.5	3.8	1.49e+00	0	43	104	1167065088	77	21539
2026-01-27 12:38:17.83	337.02	4.59	-53.5	-68.5	3.8	1.49e+00	0	43	104	1167065088	77	21675
2026-01-27 12:38:18.84	337.12	4.54	-53.5	-68.5	3.8	1.49e+00	0	43	104	1167065088	77	21655
2026-01-27 12:38:19.84	337.22	4.49	-53.5	-68.4	3.8	1.49e+00	0	43	104	1167065088	77	21505
2026-01-27 12:38:20.85	337.32	4.43	-53.5	-68.4	3.8	1.49e+00	0	43	104	1167065088	77	21403
2026-01-27 12:38:21.86	337.41	4.38	-53.4	-68.4	3.8	1.49e+00	0	43	104	1167065088	77	21268
2026-01-27 12:38:22.87	337.51	4.33	-53.4	-68.3	3.8	1.49e+00	0	43	104	1167065088	77	21119
2026-01-27 12:38:23.88	337.61	4.27	-53.2	-68.2	3.8	1.49e+00	0	43	104	1167065088	77	20838
2026-01-27 12:38:24.89	337.70	4.22	-53.3	-68.2	3.8	1.49e+00	0	43	104	1167065088	77	20946
2026-01-27 12:38:25.90	337.80	4.17	-53.3	-68.2	3.8	1.49e+00	0	43	104	1167065088	77	21017
2026-01-27 12:38:26.91	337.89	4.11	-53.3	-68.3	3.8	1.49e+00	0	43	104	1167065088	77	21131
2026-01-27 12:38:27.91	337.99	4.06	-53.4	-68.4	3.8	1.49e+00	0	43	104	1167065088	77	21333
2026-01-27 12:38:28.92	338.08	4.01	-53.4	-68.4	3.8	1.49e+00	0	43	104	1167065088	77	21304
2026-01-27 12:38:29.92	338.18	3.96	-53.4	-68.4	3.8	1.49e+00	0	43	104	1167065088	77	21346
2026-01-27 12:38:30.94	338.27	3.90	-53.5	-68.4	3.8	1.49e+00	0	43	104	1167065088	77	21406
