passes_logs/2026/01/27/R3.2S_Murmansk/R3.2S_Murmansk__20260127_050358_AQUA_rec.log

#Pass ID: 20260127_050358_AQUA
#Satellite: AQUA
#Configuration: AQUA
#almurnet v.1.7.20251203
#Start time: 2026-01-27 05:04:01

#Version: 2.2.20231116
#Station: R3.2S_Murmansk
#Location: 33.079688 lon 68.888172 lat
#TLE: 1 27424U 02022A   26026.53345137  .00001758  00000+0  36150-3 0  9990
#TLE: 2 27424  98.4100 353.1559 0001880  64.8012  49.4917 14.61862630262575

#Time	Az	El	Level	Level2	SNR	BER	BlckErr	Temp	State	Recorded	gain1	gain2
2026-01-27 05:04:01.10	37.08	2.14	-55.5	-73.4	3.8	7.45e-01	0	41	0	0	82	28444
2026-01-27 05:04:02.09	37.01	2.20	-55.7	-73.6	3.8	7.49e-01	0	41	104	0	81	30805
2026-01-27 05:04:03.10	36.94	2.26	-55.7	-73.5	3.8	7.44e-01	0	41	104	0	81	30726
2026-01-27 05:04:04.11	36.87	2.32	-55.7	-73.5	3.8	7.44e-01	0	41	104	0	81	30599
2026-01-27 05:04:05.12	36.81	2.38	-55.7	-73.5	3.8	7.45e-01	0	41	104	0	81	30646
2026-01-27 05:04:06.13	36.74	2.44	-55.7	-73.5	3.8	7.47e-01	0	41	104	0	81	30618
2026-01-27 05:04:07.14	36.67	2.50	-55.7	-73.5	3.8	7.46e-01	0	41	104	0	81	30444
2026-01-27 05:04:08.14	36.60	2.56	-55.6	-73.4	3.8	7.44e-01	0	41	104	0	81	30338
2026-01-27 05:04:09.14	36.53	2.62	-55.6	-73.4	3.8	7.43e-01	0	41	104	0	81	30201
2026-01-27 05:04:10.15	36.46	2.68	-55.5	-73.3	3.8	7.46e-01	0	41	104	0	81	29994
2026-01-27 05:04:11.16	36.39	2.75	-55.5	-73.3	3.8	7.46e-01	0	41	104	0	81	29894
2026-01-27 05:04:12.17	36.32	2.81	-55.5	-73.3	3.8	7.44e-01	0	41	104	0	81	29844
2026-01-27 05:04:13.18	36.25	2.87	-55.4	-73.3	3.8	7.45e-01	0	41	104	0	81	29708
2026-01-27 05:04:14.19	36.18	2.93	-55.4	-73.2	3.8	7.46e-01	0	41	104	0	81	29481
2026-01-27 05:04:15.19	36.11	2.99	-55.3	-73.1	3.8	7.45e-01	0	42	104	0	81	29162
2026-01-27 05:04:16.20	36.04	3.05	-55.2	-73.0	3.8	7.45e-01	0	41	104	0	81	28890
2026-01-27 05:04:17.21	35.97	3.12	-55.0	-72.9	3.8	7.46e-01	0	41	104	0	81	28466
2026-01-27 05:04:18.22	35.89	3.18	-54.9	-72.7	3.8	7.44e-01	0	42	104	0	81	27965
2026-01-27 05:04:19.23	35.82	3.24	-54.7	-72.5	3.8	7.45e-01	0	42	104	0	81	27262
2026-01-27 05:04:20.23	35.75	3.30	-54.5	-72.3	3.8	7.47e-01	0	42	104	0	81	26540
2026-01-27 05:04:21.24	35.67	3.37	-54.2	-72.0	3.8	7.48e-01	0	42	104	0	80	27137
2026-01-27 05:04:22.25	35.60	3.43	-53.7	-71.4	3.8	7.44e-01	0	42	104	0	79	26927
2026-01-27 05:04:23.26	35.53	3.49	-53.6	-71.4	3.8	7.46e-01	0	42	104	0	79	26792
2026-01-27 05:04:24.27	35.45	3.56	-53.6	-71.4	3.8	7.46e-01	0	42	104	0	79	27004
2026-01-27 05:04:25.28	35.38	3.62	-53.6	-71.4	3.8	7.41e-01	0	42	104	0	79	26982
2026-01-27 05:04:26.29	35.30	3.68	-53.6	-71.4	3.8	7.47e-01	0	42	104	0	79	26889
2026-01-27 05:04:27.29	35.23	3.75	-53.6	-71.4	3.8	7.44e-01	0	42	104	0	79	26922
2026-01-27 05:04:28.30	35.15	3.81	-53.6	-71.4	3.8	7.46e-01	0	42	104	0	79	26971
2026-01-27 05:04:29.31	35.07	3.87	-53.6	-71.4	3.8	7.43e-01	0	42	104	0	79	26824
2026-01-27 05:04:30.32	35.00	3.94	-53.6	-71.2	3.8	7.48e-01	0	42	104	0	79	26406
2026-01-27 05:04:31.32	34.92	4.00	-53.5	-71.0	3.8	7.44e-01	0	42	104	0	79	25583
2026-01-27 05:04:32.33	34.84	4.06	-53.4	-70.5	3.8	7.47e-01	0	42	104	0	78	25605
2026-01-27 05:04:33.34	34.76	4.13	-53.3	-70.0	3.8	7.41e-01	0	42	104	0	78	24347
2026-01-27 05:04:34.34	34.69	4.19	-53.2	-69.6	3.8	7.45e-01	0	42	104	0	78	23082
2026-01-27 05:04:35.35	34.61	4.26	-53.2	-69.4	3.8	7.43e-01	0	42	104	0	78	22677
2026-01-27 05:04:36.36	34.53	4.32	-53.2	-69.4	3.8	7.45e-01	0	42	104	0	78	22654
2026-01-27 05:04:37.37	34.45	4.39	-53.2	-69.5	3.8	7.45e-01	0	42	104	0	78	22871
2026-01-27 05:04:38.37	34.37	4.45	-53.2	-69.5	3.8	7.44e-01	0	42	104	0	78	22982
2026-01-27 05:04:39.38	34.29	4.51	-53.1	-69.2	3.8	7.44e-01	0	42	104	0	78	22231
2026-01-27 05:04:40.39	34.21	4.58	-53.0	-68.8	3.8	7.50e-01	0	42	104	0	78	21219
2026-01-27 05:04:41.40	34.13	4.64	-52.7	-67.8	3.8	7.47e-01	0	42	104	0	77	20042
2026-01-27 05:04:42.41	34.04	4.71	-52.4	-67.2	3.8	7.44e-01	0	42	104	0	76	19651
2026-01-27 05:04:43.41	33.96	4.77	-52.1	-66.4	3.8	7.46e-01	0	42	104	0	76	17922
2026-01-27 05:04:44.42	33.88	4.84	-52.1	-66.2	3.8	7.47e-01	0	42	104	0	76	17631
2026-01-27 05:04:45.42	33.80	4.90	-52.1	-66.2	3.8	7.44e-01	0	42	104	0	76	17575
2026-01-27 05:04:46.43	33.71	4.97	-52.3	-66.7	3.8	7.46e-01	0	42	104	0	76	18642
2026-01-27 05:04:47.44	33.63	5.04	-51.9	-65.5	3.8	7.44e-01	0	42	104	0	75	17257
2026-01-27 05:04:48.45	33.55	5.10	-49.9	-61.9	3.8	7.43e-01	0	42	104	0	71	14368
2026-01-27 05:04:49.46	33.46	5.17	-50.4	-63.0	3.8	7.45e-01	0	42	104	0	71	16310
2026-01-27 05:04:50.46	33.38	5.23	-53.2	-70.1	3.8	7.43e-01	0	42	104	0	77	25883
2026-01-27 05:04:51.47	33.29	5.30	-46.8	-57.9	3.8	7.46e-01	0	42	104	0	65	12686
2026-01-27 05:04:52.48	33.21	5.37	-49.2	-61.1	3.9	7.42e-01	0	42	104	0	70	13776
2026-01-27 05:04:53.49	33.12	5.43	-47.1	-58.3	3.8	7.44e-01	0	42	104	0	66	12595
2026-01-27 05:04:54.49	33.03	5.50	-47.2	-58.5	3.8	7.43e-01	0	42	104	0	65	13656
2026-01-27 05:04:55.50	32.95	5.57	-46.5	-57.6	3.8	7.46e-01	0	42	104	0	65	12299
2026-01-27 05:04:56.50	32.86	5.63	-46.4	-57.4	3.8	7.46e-01	0	42	104	0	64	12768
2026-01-27 05:04:57.51	32.77	5.70	-52.3	-66.2	3.8	7.46e-01	0	42	104	0	74	19783
2026-01-27 05:04:58.52	32.68	5.77	-52.4	-66.7	3.9	7.37e-01	0	42	104	0	76	18716
2026-01-27 05:04:59.53	32.59	5.84	-47.1	-58.2	3.9	7.42e-01	0	42	104	0	66	12444
2026-01-27 05:05:00.54	32.50	5.90	-48.9	-60.3	3.8	7.43e-01	0	42	104	0	69	13375
2026-01-27 05:05:01.54	32.41	5.97	-47.4	-58.6	3.8	7.43e-01	0	42	104	0	66	13100
2026-01-27 05:05:02.55	32.32	6.04	-47.0	-58.2	3.8	7.45e-01	0	42	104	0	66	12494
2026-01-27 05:05:03.56	32.23	6.11	-46.4	-57.4	3.8	7.47e-01	0	42	104	0	64	12773
2026-01-27 05:05:04.56	32.14	6.17	-46.3	-57.4	3.9	7.43e-01	0	42	104	0	64	12697
2026-01-27 05:05:05.57	32.05	6.24	-52.3	-66.1	3.8	7.44e-01	0	42	104	0	74	19429
2026-01-27 05:05:06.57	31.96	6.31	-51.9	-65.9	4.0	7.40e-01	0	42	104	0	76	17060
2026-01-27 05:05:07.58	31.86	6.38	-46.5	-57.5	3.8	7.44e-01	0	42	104	0	64	12844
2026-01-27 05:05:08.59	31.77	6.45	-47.9	-59.2	3.9	7.46e-01	0	42	104	0	67	13194
2026-01-27 05:05:09.60	31.68	6.51	-46.7	-57.8	3.8	7.42e-01	0	42	104	0	65	12547
2026-01-27 05:05:10.61	31.58	6.58	-46.5	-57.5	3.8	7.46e-01	0	42	104	0	64	12879
2026-01-27 05:05:11.62	31.49	6.65	-45.9	-56.9	3.8	7.45e-01	0	42	104	0	63	12688
2026-01-27 05:05:12.62	31.39	6.72	-46.0	-57.0	3.8	7.43e-01	0	42	104	0	63	12908
2026-01-27 05:05:13.63	31.30	6.79	-53.5	-69.9	3.7	7.46e-01	0	42	104	0	77	25458
2026-01-27 05:05:14.64	31.20	6.86	-49.8	-61.8	3.9	7.44e-01	0	42	104	0	71	14077
2026-01-27 05:05:15.65	31.10	6.93	-46.5	-57.4	3.8	7.46e-01	0	42	104	0	63	13544
2026-01-27 05:05:16.66	31.00	7.00	-47.1	-58.3	3.8	7.45e-01	0	42	104	0	66	12606
2026-01-27 05:05:17.67	30.91	7.07	-46.7	-57.8	3.8	7.46e-01	0	42	104	0	64	13414
2026-01-27 05:05:18.67	30.81	7.14	-47.0	-58.1	3.8	7.42e-01	0	42	104	0	64	13841
2026-01-27 05:05:19.68	30.71	7.21	-46.1	-57.1	3.8	7.43e-01	0	42	104	0	63	12998
2026-01-27 05:05:20.69	30.61	7.28	-45.8	-56.8	3.8	7.45e-01	0	43	104	0	63	12661
2026-01-27 05:05:21.70	30.51	7.35	-53.7	-70.6	3.8	7.42e-01	0	42	104	0	77	27667
2026-01-27 05:05:22.71	30.41	7.42	-48.6	-60.2	3.8	7.46e-01	0	43	104	0	69	13116
2026-01-27 05:05:23.72	30.31	7.49	-46.9	-57.9	3.8	7.44e-01	0	42	104	0	64	13569
2026-01-27 05:05:24.73	30.20	7.56	-46.4	-57.1	3.8	7.45e-01	0	42	104	0	64	12344
2026-01-27 05:05:25.73	30.10	7.63	-46.0	-57.0	3.9	7.44e-01	0	42	104	0	63	12873
2026-01-27 05:05:26.74	30.00	7.70	-45.8	-56.7	3.8	7.43e-01	0	42	104	0	63	12475
2026-01-27 05:05:27.75	29.90	7.77	-45.8	-56.7	3.8	7.44e-01	0	42	104	0	62	13236
2026-01-27 05:05:28.75	29.79	7.84	-45.5	-56.4	3.8	7.43e-01	0	43	104	0	63	11997
2026-01-27 05:05:29.76	29.69	7.91	-53.7	-70.7	3.7	7.46e-01	0	43	104	0	78	26289
2026-01-27 05:05:30.77	29.58	7.99	-48.4	-59.9	3.9	7.45e-01	0	42	104	0	69	12708
2026-01-27 05:05:31.77	29.48	8.06	-47.0	-58.1	3.8	7.49e-01	0	43	104	0	64	13739
2026-01-27 05:05:32.78	29.37	8.13	-46.1	-57.1	3.9	7.43e-01	0	42	104	0	64	12353
2026-01-27 05:05:33.79	29.26	8.20	-46.5	-57.6	3.8	7.43e-01	0	42	104	0	63	13756
2026-01-27 05:05:34.80	29.16	8.27	-46.3	-57.3	3.8	7.42e-01	0	42	104	0	63	13305
2026-01-27 05:05:35.80	29.05	8.35	-46.9	-58.0	3.8	7.42e-01	0	43	104	0	64	13703
2026-01-27 05:05:36.81	28.94	8.42	-45.6	-56.6	3.8	7.46e-01	0	43	104	0	63	12276
2026-01-27 05:05:37.82	28.83	8.49	-53.7	-70.5	3.8	7.45e-01	0	43	104	0	78	25764
2026-01-27 05:05:38.83	28.72	8.56	-48.5	-59.9	3.8	7.44e-01	0	43	104	0	69	12805
2026-01-27 05:05:39.84	28.61	8.64	-47.9	-59.2	3.8	7.44e-01	0	43	104	0	66	13950
2026-01-27 05:05:40.84	28.50	8.71	-46.4	-57.4	3.9	7.45e-01	0	43	104	0	64	12741
2026-01-27 05:05:41.85	28.39	8.78	-45.9	-56.9	3.8	7.44e-01	0	43	104	0	63	12727
2026-01-27 05:05:42.86	28.27	8.85	-45.8	-56.7	3.8	7.46e-01	0	43	104	0	63	12386
2026-01-27 05:05:43.87	28.16	8.93	-46.3	-57.3	3.8	7.47e-01	0	43	104	0	63	13377
2026-01-27 05:05:44.87	28.05	9.00	-45.5	-56.4	3.8	7.43e-01	0	43	104	0	63	11980
2026-01-27 05:05:45.88	27.93	9.07	-53.8	-70.6	3.8	7.43e-01	0	42	104	0	78	25938
2026-01-27 05:05:46.89	27.82	9.15	-48.4	-59.8	3.8	7.43e-01	0	43	104	0	68	13318
2026-01-27 05:05:47.89	27.70	9.22	-47.0	-58.0	3.8	7.45e-01	0	42	104	0	64	13667
2026-01-27 05:05:48.90	27.59	9.29	-45.5	-56.4	3.8	7.49e-01	0	43	104	0	63	11993
2026-01-27 05:05:49.91	27.47	9.37	-45.9	-56.8	3.8	7.44e-01	0	42	104	0	63	12644
2026-01-27 05:05:50.91	27.35	9.44	-45.8	-56.8	3.8	7.43e-01	0	43	104	0	63	12609
2026-01-27 05:05:51.92	27.23	9.52	-46.3	-57.2	3.8	7.43e-01	0	43	104	0	63	13209
2026-01-27 05:05:52.93	27.11	9.59	-45.2	-56.0	3.8	7.43e-01	0	43	104	0	62	12198
2026-01-27 05:05:53.93	27.00	9.67	-53.8	-70.5	3.8	7.45e-01	0	43	104	0	78	25672
2026-01-27 05:05:54.94	26.88	9.74	-48.6	-60.1	3.8	7.42e-01	0	43	104	0	69	12992
2026-01-27 05:05:55.95	26.75	9.82	-48.8	-60.0	3.8	7.41e-01	0	43	104	0	67	14528
2026-01-27 05:05:56.96	26.63	9.89	-46.0	-56.9	3.8	7.47e-01	0	43	104	0	63	12798
2026-01-27 05:05:57.97	26.51	9.97	-46.0	-56.9	3.8	7.42e-01	0	42	104	0	63	12730
2026-01-27 05:05:58.98	26.39	10.04	-45.6	-56.4	3.8	7.44e-01	0	43	104	0	63	12092
2026-01-27 05:05:59.99	26.26	10.12	-46.3	-57.3	3.8	7.44e-01	0	43	104	0	63	13305
2026-01-27 05:06:00.99	26.14	10.19	-45.2	-56.1	3.8	7.45e-01	0	43	104	0	62	12276
2026-01-27 05:06:02.00	26.01	10.27	-53.9	-70.6	3.8	7.47e-01	0	43	104	0	78	25991
2026-01-27 05:06:03.01	25.89	10.34	-48.5	-59.9	3.8	7.47e-01	0	43	104	0	68	13534
2026-01-27 05:06:04.01	25.76	10.42	-47.7	-58.9	3.8	7.42e-01	0	43	104	0	65	14244
2026-01-27 05:06:05.01	25.63	10.49	-45.3	-56.1	3.8	7.44e-01	0	43	104	0	62	12314
2026-01-27 05:06:06.02	25.51	10.57	-45.0	-55.8	3.8	7.41e-01	0	43	104	0	62	11945
2026-01-27 05:06:07.03	25.38	10.65	-44.8	-55.6	3.8	7.49e-01	0	43	104	0	61	12336
2026-01-27 05:06:08.03	25.25	10.72	-46.0	-56.9	3.8	7.41e-01	0	43	104	0	62	13538
2026-01-27 05:06:09.04	25.12	10.80	-44.7	-55.5	3.8	7.44e-01	0	43	104	0	61	12209
2026-01-27 05:06:10.05	24.99	10.88	-53.9	-70.5	3.8	7.45e-01	0	43	104	0	78	25791
2026-01-27 05:06:11.06	24.85	10.95	-48.5	-60.0	3.8	7.44e-01	0	43	104	0	68	13583
2026-01-27 05:06:12.07	24.72	11.03	-47.3	-58.5	3.8	7.44e-01	0	43	104	0	65	13634
2026-01-27 05:06:13.07	24.59	11.11	-44.9	-55.7	3.8	7.43e-01	0	43	104	0	61	12386
2026-01-27 05:06:14.08	24.45	11.18	-44.7	-55.4	3.8	7.46e-01	0	43	104	0	61	12054
2026-01-27 05:06:15.09	24.32	11.26	-44.6	-55.3	3.9	7.44e-01	0	43	104	0	61	11936
2026-01-27 05:06:16.09	24.18	11.34	-46.3	-57.3	3.8	7.45e-01	0	43	104	0	63	13300
2026-01-27 05:06:17.10	24.05	11.41	-44.8	-55.6	3.8	7.45e-01	0	43	104	0	61	12239
2026-01-27 05:06:18.11	23.91	11.49	-53.9	-70.5	3.8	7.46e-01	0	43	104	0	78	25771
2026-01-27 05:06:19.12	23.77	11.57	-48.0	-59.0	3.8	7.46e-01	0	43	104	0	67	12827
2026-01-27 05:06:20.13	23.63	11.65	-47.0	-58.0	3.8	7.43e-01	0	43	104	0	64	13675
2026-01-27 05:06:21.14	23.49	11.73	-44.6	-55.4	3.9	7.46e-01	0	43	104	0	61	12010
2026-01-27 05:06:22.15	23.35	11.81	-44.8	-55.6	3.9	7.41e-01	0	43	104	0	61	12333
2026-01-27 05:06:23.15	23.21	11.88	-44.7	-55.5	3.8	7.45e-01	0	43	104	0	61	12201
2026-01-27 05:06:24.16	23.07	11.96	-45.4	-56.3	3.9	7.44e-01	0	43	104	0	61	13310
2026-01-27 05:06:25.17	22.93	12.04	-44.8	-55.5	3.8	7.47e-01	0	43	104	0	61	12138
2026-01-27 05:06:26.18	22.78	12.12	-54.0	-70.4	3.8	7.48e-01	0	43	104	0	78	25403
2026-01-27 05:06:27.18	22.64	12.20	-47.4	-58.8	3.8	7.42e-01	0	43	104	0	67	12571
2026-01-27 05:06:28.19	22.49	12.28	-47.1	-58.2	3.8	7.42e-01	0	43	104	0	64	14013
2026-01-27 05:06:29.19	22.35	12.35	-44.9	-55.8	3.8	7.41e-01	0	43	104	0	61	12525
2026-01-27 05:06:30.20	22.20	12.43	-45.1	-55.8	3.8	7.46e-01	0	43	104	0	61	12663
2026-01-27 05:06:31.21	22.05	12.51	-44.6	-55.4	3.8	7.45e-01	0	43	104	0	61	11965
2026-01-27 05:06:32.21	21.90	12.59	-45.3	-56.2	3.9	7.47e-01	0	43	104	0	61	13192
2026-01-27 05:06:33.22	21.75	12.67	-45.2	-56.1	3.8	7.46e-01	0	43	104	0	61	12981
2026-01-27 05:06:34.23	21.60	12.75	-54.0	-70.5	3.8	7.46e-01	0	43	104	0	78	25747
2026-01-27 05:06:35.24	21.45	12.83	-47.2	-58.3	3.8	7.45e-01	0	43	104	0	66	12645
2026-01-27 05:06:36.25	21.30	12.91	-46.8	-57.9	3.9	7.43e-01	0	43	104	0	64	13444
2026-01-27 05:06:37.25	21.14	12.99	-44.8	-55.5	3.8	7.43e-01	0	43	104	0	61	12192
2026-01-27 05:06:38.25	20.99	13.07	-44.7	-55.4	3.8	7.43e-01	0	43	104	0	61	12034
2026-01-27 05:06:39.26	20.83	13.15	-44.4	-55.1	3.9	7.42e-01	0	43	104	0	60	12251
2026-01-27 05:06:40.27	20.68	13.23	-45.4	-56.3	3.8	7.44e-01	0	43	104	0	62	12570
2026-01-27 05:06:41.28	20.52	13.31	-45.0	-55.7	3.8	7.43e-01	0	43	104	0	61	12490
2026-01-27 05:06:42.28	20.36	13.39	-54.1	-70.5	3.8	7.46e-01	0	43	104	0	78	25694
2026-01-27 05:06:43.29	20.20	13.47	-47.1	-58.2	3.8	7.43e-01	0	43	104	0	66	12477
2026-01-27 05:06:44.29	20.04	13.55	-46.5	-57.5	3.8	7.46e-01	0	43	104	0	64	12856
2026-01-27 05:06:45.30	19.88	13.63	-44.5	-55.3	3.9	7.44e-01	0	43	104	0	61	11934
2026-01-27 05:06:46.31	19.72	13.71	-44.6	-55.3	3.8	7.45e-01	0	43	104	0	60	12640
2026-01-27 05:06:47.31	19.56	13.79	-44.8	-55.5	3.8	7.41e-01	0	43	104	0	60	12903
2026-01-27 05:06:48.32	19.39	13.87	-46.4	-57.5	3.9	7.44e-01	0	43	104	0	65	12192
2026-01-27 05:06:49.32	19.23	13.95	-46.1	-56.9	3.8	7.43e-01	0	43	104	0	62	13482
2026-01-27 05:06:50.33	19.06	14.03	-54.2	-70.6	3.8	7.45e-01	0	43	104	0	78	25885
2026-01-27 05:06:51.34	18.90	14.11	-46.2	-57.1	3.9	7.43e-01	0	43	104	0	64	12292
2026-01-27 05:06:52.35	18.73	14.19	-46.5	-57.5	3.9	7.46e-01	0	43	104	0	64	12921
2026-01-27 05:06:53.36	18.56	14.27	-44.8	-55.5	3.8	7.42e-01	0	43	104	0	61	12170
2026-01-27 05:06:54.36	18.39	14.35	-44.5	-55.3	3.9	7.41e-01	0	43	104	0	61	11934
2026-01-27 05:06:55.37	18.22	14.43	-44.3	-55.1	3.8	7.44e-01	0	43	104	0	60	12266
2026-01-27 05:06:56.37	18.05	14.51	-45.8	-56.7	3.9	7.46e-01	0	43	104	0	63	12430
2026-01-27 05:06:57.38	17.88	14.60	-46.0	-56.9	3.8	7.42e-01	0	43	104	0	62	13476
2026-01-27 05:06:58.39	17.70	14.68	-54.1	-70.4	3.8	7.45e-01	0	43	104	0	78	25522
2026-01-27 05:06:59.40	17.53	14.76	-44.9	-55.4	3.9	7.43e-01	0	43	104	0	61	12067
2026-01-27 05:07:00.40	17.35	14.84	-45.3	-56.1	3.9	7.41e-01	0	43	104	0	62	12342
2026-01-27 05:07:01.41	17.18	14.92	-44.2	-55.0	3.9	7.44e-01	0	43	104	0	60	12105
2026-01-27 05:07:02.42	17.00	15.00	-44.1	-54.8	3.9	7.43e-01	0	43	104	0	60	11876
2026-01-27 05:07:03.42	16.82	15.08	-44.3	-55.0	3.9	7.46e-01	0	43	104	0	60	12219
2026-01-27 05:07:04.44	16.64	15.16	-45.4	-56.2	3.9	7.48e-01	0	43	104	0	62	12469
2026-01-27 05:07:05.44	16.46	15.25	-48.0	-59.4	3.8	7.42e-01	0	43	104	0	66	14314
2026-01-27 05:07:06.45	16.27	15.33	-53.1	-67.6	3.9	7.42e-01	0	43	104	0	78	18488
2026-01-27 05:07:07.46	16.09	15.41	-45.0	-55.8	3.9	7.42e-01	0	43	104	0	62	11860
2026-01-27 05:07:08.47	15.91	15.49	-45.6	-56.5	3.9	7.46e-01	0	43	104	0	63	12197
2026-01-27 05:07:09.48	15.72	15.57	-44.5	-55.3	3.8	7.46e-01	0	43	104	0	61	11855
2026-01-27 05:07:10.49	15.53	15.65	-44.3	-55.1	3.8	7.45e-01	0	43	104	0	60	12247
2026-01-27 05:07:11.50	15.34	15.74	-44.2	-55.0	3.8	7.44e-01	0	43	104	0	60	12120
2026-01-27 05:07:12.51	15.15	15.82	-44.1	-54.8	3.9	7.44e-01	0	43	104	0	60	11879
2026-01-27 05:07:13.51	14.97	15.90	-51.3	-63.6	3.8	7.47e-01	0	43	104	0	72	16473
2026-01-27 05:07:14.52	14.77	15.98	-49.8	-62.0	3.9	7.42e-01	0	43	104	0	72	13695
2026-01-27 05:07:15.53	14.58	16.06	-44.2	-54.9	3.9	7.45e-01	0	43	104	0	60	12027
2026-01-27 05:07:16.53	14.39	16.14	-44.7	-55.5	3.9	7.43e-01	0	43	104	0	61	12157
2026-01-27 05:07:17.54	14.19	16.22	-44.2	-54.9	3.8	7.43e-01	0	43	104	0	60	12055
2026-01-27 05:07:18.55	14.00	16.31	-44.1	-54.9	3.8	7.45e-01	0	43	104	0	60	11965
2026-01-27 05:07:19.56	13.80	16.39	-44.8	-55.6	3.8	7.44e-01	0	43	104	0	60	12996
2026-01-27 05:07:20.57	13.60	16.47	-45.3	-56.1	3.9	7.45e-01	0	43	104	0	62	12327
2026-01-27 05:07:21.57	13.41	16.55	-51.9	-64.2	3.8	7.46e-01	0	43	104	0	73	16631
2026-01-27 05:07:22.58	13.20	16.63	-51.0	-63.5	3.9	7.39e-01	0	43	104	0	74	14398
2026-01-27 05:07:23.59	13.00	16.71	-44.6	-55.3	3.9	7.49e-01	0	43	104	0	61	11954
2026-01-27 05:07:24.60	12.80	16.79	-45.2	-56.0	3.8	7.44e-01	0	43	104	0	62	12166
2026-01-27 05:07:25.61	12.60	16.87	-44.8	-55.6	3.8	7.43e-01	0	43	104	0	61	12331
2026-01-27 05:07:26.61	12.39	16.95	-44.7	-55.5	3.8	7.45e-01	0	43	104	0	61	12169
2026-01-27 05:07:27.62	12.19	17.04	-44.9	-55.7	3.8	7.45e-01	0	43	104	0	60	13123
2026-01-27 05:07:28.63	11.98	17.12	-44.7	-55.4	3.8	7.43e-01	0	43	104	0	61	12084
2026-01-27 05:07:29.63	11.77	17.20	-53.8	-68.6	3.8	7.51e-01	0	43	104	0	77	21972
2026-01-27 05:07:30.64	11.56	17.28	-49.7	-61.4	3.8	7.42e-01	0	43	104	0	71	13533
2026-01-27 05:07:31.64	11.35	17.36	-44.5	-55.2	3.9	7.46e-01	0	43	104	0	60	12416
2026-01-27 05:07:32.65	11.14	17.44	-44.9	-55.5	3.8	7.44e-01	0	43	104	0	61	12112
2026-01-27 05:07:33.66	10.92	17.52	-44.5	-55.2	3.8	7.42e-01	0	43	104	0	61	11783
2026-01-27 05:07:34.67	10.71	17.60	-44.3	-55.1	3.9	7.47e-01	0	43	104	0	60	12262
2026-01-27 05:07:35.68	10.49	17.68	-44.6	-55.3	3.8	7.42e-01	0	43	104	0	60	12650
2026-01-27 05:07:36.69	10.27	17.76	-44.5	-55.3	3.9	7.42e-01	0	43	104	0	60	12542
2026-01-27 05:07:37.70	10.06	17.84	-54.3	-70.9	3.7	7.48e-01	0	43	104	0	79	25451
2026-01-27 05:07:38.71	9.84	17.92	-49.2	-60.7	3.8	7.40e-01	0	43	104	0	70	13135
2026-01-27 05:07:39.71	9.62	18.00	-44.7	-55.4	3.8	7.43e-01	0	43	104	0	60	12672
2026-01-27 05:07:40.72	9.39	18.08	-44.6	-55.4	3.9	7.44e-01	0	43	104	0	61	11998
2026-01-27 05:07:41.72	9.17	18.16	-44.6	-55.3	3.8	7.42e-01	0	43	104	0	61	11900
2026-01-27 05:07:42.73	8.95	18.24	-44.6	-55.3	3.8	7.46e-01	0	43	104	0	61	11905
2026-01-27 05:07:43.73	8.72	18.32	-45.0	-55.8	3.8	7.42e-01	0	43	104	0	60	13322
2026-01-27 05:07:44.74	8.50	18.40	-44.8	-55.5	3.8	7.47e-01	0	43	104	0	61	12222
2026-01-27 05:07:45.75	8.27	18.48	-54.4	-70.9	3.7	7.47e-01	0	43	104	0	79	25394
2026-01-27 05:07:46.76	8.04	18.55	-49.2	-60.6	3.8	7.45e-01	0	43	104	0	70	12999
2026-01-27 05:07:47.77	7.80	18.63	-44.6	-55.3	3.8	7.48e-01	0	43	104	0	60	12623
2026-01-27 05:07:48.78	7.57	18.71	-44.7	-55.5	3.9	7.45e-01	0	43	104	0	61	12154
2026-01-27 05:07:49.79	7.34	18.79	-44.5	-55.2	3.8	7.44e-01	0	43	104	0	61	11767
2026-01-27 05:07:50.79	7.10	18.87	-44.5	-55.2	3.8	7.47e-01	0	43	104	0	60	12490
2026-01-27 05:07:51.80	6.87	18.94	-45.1	-55.8	3.8	7.44e-01	0	43	104	0	60	13390
2026-01-27 05:07:52.81	6.63	19.02	-44.7	-55.5	3.8	7.47e-01	0	43	104	0	61	12191
2026-01-27 05:07:53.82	6.39	19.10	-54.4	-71.1	3.8	7.45e-01	0	43	104	0	79	26109
2026-01-27 05:07:54.83	6.15	19.18	-49.8	-61.4	3.8	7.48e-01	0	43	104	0	71	13547
2026-01-27 05:07:55.84	5.91	19.25	-45.8	-56.4	3.8	7.46e-01	0	43	104	0	61	13541
2026-01-27 05:07:56.85	5.67	19.33	-44.7	-55.4	3.8	7.41e-01	0	43	104	0	61	12022
2026-01-27 05:07:57.85	5.42	19.41	-44.5	-55.1	3.8	7.46e-01	0	43	104	0	61	11653
2026-01-27 05:07:58.86	5.18	19.48	-44.3	-55.1	3.8	7.40e-01	0	43	104	0	60	12257
2026-01-27 05:07:59.87	4.93	19.56	-44.7	-55.4	3.8	7.42e-01	0	43	104	0	60	12734
2026-01-27 05:08:00.87	4.68	19.63	-44.7	-55.5	3.9	7.43e-01	0	43	104	0	60	12831
2026-01-27 05:08:01.88	4.44	19.71	-54.4	-71.2	3.8	7.47e-01	0	43	104	0	79	26342
2026-01-27 05:08:02.89	4.18	19.78	-50.0	-61.8	3.8	7.47e-01	0	43	104	0	71	14078
2026-01-27 05:08:03.89	3.93	19.86	-45.3	-56.3	3.8	7.44e-01	0	43	104	0	61	13278
2026-01-27 05:08:04.89	3.68	19.93	-44.7	-55.4	3.8	7.45e-01	0	43	104	0	61	12025
2026-01-27 05:08:05.90	3.43	20.00	-44.6	-55.4	3.8	7.43e-01	0	43	104	0	61	12003
2026-01-27 05:08:06.91	3.17	20.08	-44.5	-55.2	3.8	7.44e-01	0	43	104	0	61	11763
2026-01-27 05:08:07.92	2.91	20.15	-46.0	-56.9	3.8	7.48e-01	0	43	104	0	62	13445
2026-01-27 05:08:08.93	2.66	20.22	-44.7	-55.5	3.8	7.42e-01	0	43	104	0	61	12137
2026-01-27 05:08:09.94	2.40	20.30	-54.4	-71.1	3.8	7.44e-01	0	43	104	0	79	26024
2026-01-27 05:08:10.94	2.14	20.37	-50.3	-62.1	3.8	7.46e-01	0	43	104	0	71	14667
2026-01-27 05:08:11.95	1.87	20.44	-45.8	-56.7	3.8	7.45e-01	0	43	104	0	62	13210
2026-01-27 05:08:12.96	1.61	20.51	-44.7	-55.4	3.8	7.46e-01	0	43	104	0	61	12063
2026-01-27 05:08:13.96	1.35	20.58	-44.5	-55.2	3.9	7.44e-01	0	43	104	0	61	11780
2026-01-27 05:08:14.97	1.08	20.65	-44.6	-55.3	3.9	7.48e-01	0	43	104	0	61	11923
2026-01-27 05:08:15.98	0.81	20.72	-45.8	-56.6	3.8	7.45e-01	0	43	104	0	62	13104
2026-01-27 05:08:16.99	0.54	20.79	-45.0	-55.9	3.9	7.42e-01	0	43	104	0	62	11961
2026-01-27 05:08:17.99	0.28	20.86	-54.5	-71.3	3.8	7.45e-01	0	43	104	0	79	26471
2026-01-27 05:08:19.00	0.00	20.93	-50.3	-62.2	3.8	7.44e-01	0	43	104	0	71	14779
2026-01-27 05:08:20.00	359.73	21.00	-46.0	-56.9	3.9	7.47e-01	0	43	104	0	62	13426
2026-01-27 05:08:21.01	359.46	21.06	-44.6	-55.4	3.8	7.46e-01	0	43	104	0	61	12037
2026-01-27 05:08:22.02	359.18	21.13	-44.6	-55.3	3.9	7.44e-01	0	43	104	0	61	11874
2026-01-27 05:08:23.03	358.91	21.20	-44.7	-55.4	3.8	7.44e-01	0	43	104	0	61	12069
2026-01-27 05:08:24.03	358.63	21.27	-45.5	-56.4	3.8	7.43e-01	0	43	104	0	61	13416
2026-01-27 05:08:25.04	358.35	21.33	-45.0	-55.8	3.8	7.45e-01	0	43	104	0	61	12625
2026-01-27 05:08:26.05	358.07	21.40	-54.5	-71.2	3.8	7.45e-01	0	43	104	0	79	26452
2026-01-27 05:08:27.06	357.79	21.46	-50.3	-62.2	3.8	7.44e-01	0	43	104	0	72	13993
2026-01-27 05:08:28.07	357.51	21.53	-46.1	-56.9	3.8	7.42e-01	0	43	104	0	62	13516
2026-01-27 05:08:29.08	357.22	21.59	-44.8	-55.5	3.8	7.41e-01	0	43	104	0	61	12155
2026-01-27 05:08:30.08	356.94	21.65	-44.6	-55.4	3.8	7.46e-01	0	43	104	0	61	11959
2026-01-27 05:08:31.09	356.65	21.72	-44.7	-55.4	3.8	7.45e-01	0	43	104	0	61	12014
2026-01-27 05:08:32.10	356.36	21.78	-46.1	-57.0	3.8	7.41e-01	0	43	104	0	63	12959
2026-01-27 05:08:33.11	356.08	21.84	-44.9	-55.5	3.8	7.43e-01	0	43	104	0	61	12181
2026-01-27 05:08:34.11	355.79	21.90	-54.6	-71.5	3.8	7.47e-01	0	43	104	0	79	27209
2026-01-27 05:08:35.11	355.50	21.96	-49.4	-61.1	3.9	7.45e-01	0	43	104	0	71	13054
2026-01-27 05:08:36.12	355.21	22.02	-46.1	-56.9	3.8	7.43e-01	0	43	104	0	62	13547
2026-01-27 05:08:37.13	354.91	22.08	-44.7	-55.4	3.8	7.46e-01	0	43	104	0	61	12002
2026-01-27 05:08:38.13	354.62	22.14	-44.8	-55.6	3.8	7.44e-01	0	43	104	0	61	12344
2026-01-27 05:08:39.14	354.32	22.20	-44.7	-55.5	3.8	7.46e-01	0	43	104	0	61	12111
2026-01-27 05:08:40.15	354.02	22.25	-46.1	-57.0	3.8	7.48e-01	0	43	104	0	63	12930
2026-01-27 05:08:41.15	353.73	22.31	-45.0	-55.8	3.8	7.43e-01	0	43	104	0	62	11865
2026-01-27 05:08:42.16	353.43	22.36	-54.6	-71.6	3.8	7.46e-01	0	43	104	0	79	27549
2026-01-27 05:08:43.17	353.13	22.42	-49.7	-61.3	3.8	7.47e-01	0	43	104	0	71	13381
2026-01-27 05:08:44.18	352.83	22.47	-46.4	-57.3	3.8	7.42e-01	0	43	104	0	63	13316
2026-01-27 05:08:45.19	352.52	22.53	-45.1	-55.9	3.8	7.45e-01	0	43	104	0	62	12086
2026-01-27 05:08:46.19	352.22	22.58	-45.2	-56.0	3.8	7.43e-01	0	43	104	0	62	12197
2026-01-27 05:08:47.20	351.92	22.63	-44.8	-55.6	3.8	7.46e-01	0	43	104	0	61	12350
2026-01-27 05:08:48.21	351.61	22.69	-45.8	-56.7	3.9	7.43e-01	0	43	104	0	63	12441
2026-01-27 05:08:49.22	351.30	22.74	-45.1	-55.9	3.8	7.43e-01	0	43	104	0	62	12018
2026-01-27 05:08:50.23	350.99	22.79	-54.6	-71.6	3.8	7.44e-01	0	43	104	0	79	27671
2026-01-27 05:08:51.24	350.68	22.84	-48.8	-60.0	3.9	7.42e-01	0	43	104	0	69	12930
2026-01-27 05:08:52.24	350.37	22.88	-46.5	-57.5	3.8	7.45e-01	0	43	104	0	63	13574
2026-01-27 05:08:53.25	350.06	22.93	-45.0	-55.8	3.8	7.45e-01	0	43	104	0	62	11866
2026-01-27 05:08:54.26	349.75	22.98	-44.8	-55.6	3.8	7.44e-01	0	43	104	0	61	12293
2026-01-27 05:08:55.27	349.44	23.03	-45.2	-55.9	3.8	7.45e-01	0	43	104	0	61	12783
2026-01-27 05:08:56.28	349.12	23.07	-46.8	-57.9	3.8	7.45e-01	0	43	104	0	65	12669
2026-01-27 05:08:57.28	348.81	23.12	-45.2	-56.0	3.8	7.43e-01	0	43	104	0	62	12192
2026-01-27 05:08:58.29	348.49	23.16	-54.6	-71.7	3.8	7.44e-01	0	43	104	0	79	27828
2026-01-27 05:08:59.30	348.17	23.20	-47.3	-58.2	3.8	7.41e-01	0	43	104	0	66	12493
2026-01-27 05:09:00.31	347.86	23.25	-46.0	-56.9	3.8	7.45e-01	0	43	104	0	63	12682
2026-01-27 05:09:01.32	347.54	23.29	-45.1	-55.9	3.8	7.41e-01	0	43	104	0	62	11990
2026-01-27 05:09:02.32	347.22	23.33	-45.1	-55.9	3.8	7.43e-01	0	43	104	0	62	12000
2026-01-27 05:09:03.33	346.90	23.37	-44.7	-55.5	3.8	7.44e-01	0	43	104	0	61	12114
2026-01-27 05:09:04.33	346.58	23.41	-45.6	-56.3	3.8	7.45e-01	0	43	104	0	62	12643
2026-01-27 05:09:05.34	346.26	23.44	-45.6	-56.4	3.8	7.48e-01	0	43	104	0	62	12760
2026-01-27 05:09:06.35	345.93	23.48	-54.0	-69.6	3.9	7.40e-01	0	43	104	0	80	20755
2026-01-27 05:09:07.36	345.61	23.52	-47.5	-58.6	3.8	7.48e-01	0	43	104	0	67	12360
2026-01-27 05:09:08.36	345.28	23.55	-46.0	-56.9	3.8	7.45e-01	0	43	104	0	63	12744
2026-01-27 05:09:09.37	344.96	23.59	-45.1	-55.9	3.8	7.43e-01	0	43	104	0	62	11966
2026-01-27 05:09:10.38	344.63	23.62	-44.9	-55.6	3.8	7.45e-01	0	43	104	0	61	12367
2026-01-27 05:09:11.39	344.30	23.65	-44.8	-55.6	3.8	7.46e-01	0	43	104	0	61	12281
2026-01-27 05:09:12.40	343.98	23.68	-46.1	-57.0	3.8	7.46e-01	0	43	104	0	64	12151
2026-01-27 05:09:13.41	343.65	23.71	-47.2	-58.2	3.8	7.44e-01	0	43	104	0	64	13920
2026-01-27 05:09:14.42	343.32	23.74	-52.9	-66.3	3.9	7.47e-01	0	43	104	0	77	16711
2026-01-27 05:09:15.43	342.99	23.77	-46.1	-57.0	3.8	7.44e-01	0	43	104	0	64	12204
2026-01-27 05:09:16.43	342.66	23.80	-45.6	-56.5	3.9	7.41e-01	0	43	104	0	63	12150
2026-01-27 05:09:17.44	342.33	23.83	-44.9	-55.6	3.8	7.42e-01	0	43	104	0	61	12274
2026-01-27 05:09:18.45	342.00	23.85	-45.0	-55.7	3.8	7.42e-01	0	43	104	0	61	12408
2026-01-27 05:09:19.45	341.67	23.88	-45.0	-55.8	3.8	7.40e-01	0	43	104	0	61	12601
2026-01-27 05:09:20.46	341.33	23.90	-46.1	-57.0	3.8	7.48e-01	0	43	104	0	63	12901
2026-01-27 05:09:21.47	341.00	23.93	-47.2	-58.1	3.8	7.45e-01	0	43	104	0	64	13792
2026-01-27 05:09:22.47	340.67	23.95	-52.6	-65.9	3.9	7.39e-01	0	43	104	0	77	16116
2026-01-27 05:09:23.47	340.34	23.97	-45.9	-56.8	3.8	7.44e-01	0	43	104	0	64	11842
2026-01-27 05:09:24.48	340.00	23.99	-45.5	-56.4	3.8	7.44e-01	0	43	104	0	62	12777
2026-01-27 05:09:25.49	339.67	24.01	-45.0	-55.8	3.8	7.43e-01	0	43	104	0	62	11906
2026-01-27 05:09:26.50	339.33	24.02	-45.0	-55.7	3.8	7.44e-01	0	43	104	0	62	11712
2026-01-27 05:09:27.50	339.00	24.04	-45.8	-56.8	3.8	7.44e-01	0	43	104	0	62	13369
2026-01-27 05:09:28.51	338.66	24.06	-46.3	-57.2	3.8	7.46e-01	0	43	104	0	64	12422
2026-01-27 05:09:29.51	338.33	24.07	-50.0	-61.9	3.8	7.43e-01	0	43	104	0	70	15102
2026-01-27 05:09:30.52	337.99	24.09	-51.6	-64.2	3.9	7.42e-01	0	43	104	0	75	14805
2026-01-27 05:09:31.52	337.65	24.10	-45.3	-56.0	3.8	7.42e-01	0	43	104	0	62	12183
2026-01-27 05:09:32.53	337.32	24.11	-45.2	-56.0	3.8	7.43e-01	0	43	104	0	62	12116
2026-01-27 05:09:33.54	336.98	24.12	-45.0	-55.7	3.8	7.44e-01	0	43	104	0	61	12440
2026-01-27 05:09:34.55	336.64	24.13	-45.0	-55.8	3.8	7.42e-01	0	43	104	0	61	12578
2026-01-27 05:09:35.56	336.30	24.14	-45.7	-56.5	3.8	7.46e-01	0	43	104	0	61	13663
2026-01-27 05:09:36.57	335.96	24.15	-46.5	-57.5	3.8	7.44e-01	0	43	104	0	64	12826
2026-01-27 05:09:37.58	335.62	24.15	-50.0	-61.8	3.8	7.46e-01	0	43	104	0	70	14979
2026-01-27 05:09:38.58	335.29	24.16	-51.4	-63.5	3.9	7.45e-01	0	43	104	0	74	14477
2026-01-27 05:09:39.59	334.95	24.16	-45.2	-56.0	3.8	7.46e-01	0	43	104	0	62	12104
2026-01-27 05:09:40.60	334.61	24.17	-45.2	-56.0	3.8	7.45e-01	0	43	104	0	62	12106
2026-01-27 05:09:41.61	334.27	24.17	-44.9	-55.7	3.8	7.45e-01	0	43	104	0	61	12408
2026-01-27 05:09:42.62	333.93	24.17	-45.1	-55.8	3.8	7.45e-01	0	43	104	0	61	12646
2026-01-27 05:09:43.62	333.59	24.17	-46.1	-56.9	3.9	7.46e-01	0	43	104	0	62	13505
2026-01-27 05:09:44.63	333.25	24.17	-46.8	-57.7	3.8	7.46e-01	0	43	104	0	64	13248
2026-01-27 05:09:45.63	332.91	24.17	-52.7	-65.9	3.8	7.45e-01	0	43	104	0	75	17913
2026-01-27 05:09:46.64	332.58	24.17	-51.3	-63.5	3.9	7.45e-01	0	43	104	0	74	14439
2026-01-27 05:09:47.65	332.24	24.16	-45.0	-55.7	3.8	7.45e-01	0	43	104	0	62	11767
2026-01-27 05:09:48.66	331.90	24.16	-45.1	-55.9	3.8	7.42e-01	0	43	104	0	62	11978
2026-01-27 05:09:49.66	331.56	24.15	-45.2	-56.0	3.8	7.44e-01	0	43	104	0	62	12138
2026-01-27 05:09:50.67	331.22	24.14	-45.1	-55.9	3.8	7.39e-01	0	43	104	0	62	12044
2026-01-27 05:09:51.67	330.89	24.14	-45.7	-56.5	3.8	7.42e-01	0	43	104	0	62	12901
2026-01-27 05:09:52.68	330.55	24.13	-46.3	-57.2	3.8	7.44e-01	0	43	104	0	63	13229
2026-01-27 05:09:53.69	330.21	24.12	-52.6	-65.7	3.8	7.44e-01	0	43	104	0	75	17519
2026-01-27 05:09:54.70	329.87	24.10	-51.5	-63.9	3.8	7.46e-01	0	43	104	0	74	15123
2026-01-27 05:09:55.71	329.53	24.09	-45.3	-56.0	3.8	7.47e-01	0	43	104	0	62	12168
2026-01-27 05:09:56.72	329.19	24.08	-45.4	-56.2	3.8	7.45e-01	0	43	104	0	62	12478
2026-01-27 05:09:57.73	328.86	24.07	-45.4	-56.2	3.8	7.43e-01	0	43	104	0	62	12407
2026-01-27 05:09:58.73	328.52	24.05	-45.4	-56.2	3.8	7.44e-01	0	43	104	0	62	12400
2026-01-27 05:09:59.74	328.19	24.03	-45.5	-56.3	3.8	7.44e-01	0	43	104	0	62	12543
2026-01-27 05:10:00.75	327.85	24.02	-46.7	-57.6	3.9	7.43e-01	0	43	104	0	63	13757
2026-01-27 05:10:01.75	327.52	24.00	-52.3	-65.5	3.8	7.48e-01	0	43	104	0	75	17219
2026-01-27 05:10:02.75	327.18	23.98	-46.1	-57.1	3.8	7.41e-01	0	43	104	0	64	12297
2026-01-27 05:10:03.76	326.85	23.96	-53.7	-67.7	3.8	7.48e-01	0	43	104	0	77	19794
2026-01-27 05:10:04.77	326.51	23.94	-46.2	-57.0	3.8	7.43e-01	0	43	104	0	64	12162
2026-01-27 05:10:05.77	326.18	23.91	-45.5	-56.4	3.8	7.43e-01	0	43	104	0	62	12684
2026-01-27 05:10:06.78	325.85	23.89	-45.3	-56.1	3.8	7.46e-01	0	43	104	0	62	12295
2026-01-27 05:10:07.79	325.52	23.87	-49.2	-60.7	3.8	7.43e-01	0	43	104	0	68	14729
2026-01-27 05:10:08.80	325.18	23.84	-47.7	-58.8	3.8	7.45e-01	0	43	104	0	67	12589
2026-01-27 05:10:09.81	324.85	23.81	-54.7	-71.5	3.8	7.52e-01	0	43	104	0	80	25628
2026-01-27 05:10:10.81	324.52	23.79	-51.9	-64.4	3.8	7.44e-01	0	43	104	0	74	15997
2026-01-27 05:10:11.82	324.19	23.76	-45.6	-56.3	3.8	7.45e-01	0	43	104	0	62	12599
2026-01-27 05:10:12.83	323.86	23.73	-45.3	-56.1	3.8	7.44e-01	0	43	104	0	62	12345
2026-01-27 05:10:13.84	323.53	23.70	-45.4	-56.2	3.8	7.42e-01	0	43	104	0	62	12411
2026-01-27 05:10:14.84	323.21	23.67	-45.2	-55.8	3.8	7.45e-01	0	43	104	0	62	11885
2026-01-27 05:10:15.85	322.88	23.64	-47.9	-59.1	3.8	7.45e-01	0	43	104	0	66	13824
2026-01-27 05:10:16.86	322.55	23.60	-47.2	-58.3	3.8	7.44e-01	0	43	104	0	66	12574
2026-01-27 05:10:17.87	322.23	23.57	-54.7	-70.9	3.8	7.44e-01	0	43	104	0	79	25415
2026-01-27 05:10:18.87	321.90	23.54	-52.4	-65.2	3.8	7.42e-01	0	43	104	0	76	15674
2026-01-27 05:10:19.88	321.58	23.50	-45.9	-56.8	3.8	7.44e-01	0	43	104	0	63	12526
2026-01-27 05:10:20.88	321.26	23.46	-45.4	-56.3	3.8	7.49e-01	0	43	104	0	62	12612
2026-01-27 05:10:21.89	320.93	23.43	-45.4	-56.0	3.8	7.43e-01	0	43	104	0	62	12213
2026-01-27 05:10:22.90	320.61	23.39	-45.4	-56.1	3.9	7.46e-01	0	43	104	0	62	12343
2026-01-27 05:10:23.91	320.29	23.35	-48.9	-60.5	3.8	7.44e-01	0	43	104	0	68	14403
2026-01-27 05:10:24.91	319.97	23.31	-47.2	-58.3	3.8	7.47e-01	0	43	104	0	66	12564
2026-01-27 05:10:25.92	319.65	23.27	-54.8	-71.8	3.8	7.47e-01	0	43	104	0	80	26650
2026-01-27 05:10:26.93	319.33	23.23	-52.3	-65.2	3.8	7.46e-01	0	43	104	0	76	15650
2026-01-27 05:10:27.93	319.02	23.18	-46.1	-57.3	3.8	7.44e-01	0	43	104	0	63	13338
2026-01-27 05:10:28.94	318.70	23.14	-45.3	-56.0	3.8	7.44e-01	0	43	104	0	62	12211
2026-01-27 05:10:29.95	318.38	23.10	-45.4	-55.6	3.8	7.42e-01	0	43	104	0	62	11576
2026-01-27 05:10:30.96	318.07	23.05	-45.4	-56.2	3.8	7.51e-01	0	43	104	0	62	12395
2026-01-27 05:10:31.96	317.75	23.00	-46.3	-57.8	3.9	7.40e-01	0	43	104	0	63	14119
2026-01-27 05:10:32.97	317.44	22.96	-46.8	-48.3	22.1	5.99e-01	0	43	104	0	64	4459
2026-01-27 05:10:33.97	317.13	22.91	-52.5	-56.8	15.1	6.03e-01	0	43	0	1572864	75	6304
2026-01-27 05:10:34.97	316.82	22.86	-46.4	-47.8	23.5	6.00e-01	0	43	0	3145728	64	4199
2026-01-27 05:10:35.98	316.51	22.81	-54.7	-65.5	7.4	6.68e-01	128	43	0	5242880	79	13658
2026-01-27 05:10:36.99	316.20	22.76	-44.7	-45.9	25.7	6.02e-01	0	43	0	6815744	61	4026
2026-01-27 05:10:37.99	315.90	22.71	-44.3	-45.4	26.2	6.01e-01	0	43	0	8912896	60	4030
2026-01-27 05:10:39.00	315.59	22.66	-45.2	-46.5	24.8	5.99e-01	0	43	0	11010048	62	4066
2026-01-27 05:10:40.01	315.28	22.61	-46.4	-47.8	24.0	6.02e-01	0	43	0	12582912	63	4489
2026-01-27 05:10:41.02	314.98	22.56	-44.8	-46.0	25.6	6.01e-01	0	43	0	14680064	60	4328
2026-01-27 05:10:42.02	314.68	22.50	-44.4	-45.5	26.0	6.00e-01	0	43	0	16252928	60	4070
2026-01-27 05:10:43.03	314.37	22.45	-45.6	-46.9	24.4	6.01e-01	0	43	0	18350080	62	4250
2026-01-27 05:10:44.04	314.07	22.39	-46.1	-47.5	24.3	6.02e-01	0	43	0	20447232	62	4594
2026-01-27 05:10:45.05	313.77	22.34	-45.1	-46.3	25.4	6.01e-01	0	43	0	22020096	61	4218
2026-01-27 05:10:46.06	313.47	22.28	-45.0	-46.2	25.2	5.99e-01	0	43	0	24117248	62	3936
2026-01-27 05:10:47.06	313.17	22.23	-45.6	-47.0	24.8	6.00e-01	0	43	0	25690112	61	4558
2026-01-27 05:10:48.07	312.88	22.17	-45.1	-46.3	25.3	5.98e-01	0	43	0	27787264	61	4225
2026-01-27 05:10:49.08	312.58	22.11	-44.5	-45.6	25.8	6.01e-01	0	43	0	29360128	61	3903
2026-01-27 05:10:50.09	312.28	22.05	-45.1	-46.4	25.3	6.04e-01	0	43	0	31457280	61	4264
2026-01-27 05:10:51.09	311.99	21.99	-45.1	-46.4	25.4	6.01e-01	0	43	0	33554432	61	4250
2026-01-27 05:10:52.10	311.70	21.93	-45.1	-46.3	25.5	6.00e-01	0	43	0	35651584	61	4213
2026-01-27 05:10:53.11	311.41	21.87	-45.1	-46.4	25.4	6.00e-01	0	43	0	37224448	61	4250
2026-01-27 05:10:54.11	311.12	21.81	-44.9	-46.0	25.7	6.01e-01	0	43	0	39321600	61	4094
2026-01-27 05:10:55.12	310.83	21.75	-44.7	-45.9	25.6	6.02e-01	0	43	0	40894464	61	4037
2026-01-27 05:10:56.13	310.54	21.69	-45.3	-46.6	25.2	5.98e-01	0	43	0	42991616	61	4343
2026-01-27 05:10:57.13	310.26	21.62	-45.0	-46.2	25.6	6.01e-01	0	43	0	44564480	61	4176
2026-01-27 05:10:58.14	309.97	21.56	-45.1	-46.4	25.4	6.02e-01	0	43	0	46661632	61	4249
2026-01-27 05:10:59.14	309.69	21.50	-45.2	-46.4	25.4	6.02e-01	0	43	0	48758784	61	4275
2026-01-27 05:11:00.15	309.41	21.43	-44.8	-46.0	25.7	6.02e-01	0	43	0	50331648	61	4091
2026-01-27 05:11:01.15	309.13	21.37	-45.0	-46.2	25.5	6.01e-01	0	43	0	52428800	61	4173
2026-01-27 05:11:02.16	308.85	21.30	-44.8	-46.0	25.7	6.01e-01	0	43	0	54001664	61	4089
2026-01-27 05:11:03.17	308.57	21.23	-44.8	-46.0	25.8	6.01e-01	0	43	0	56098816	61	4062
2026-01-27 05:11:04.17	308.30	21.17	-44.8	-46.1	25.7	6.01e-01	0	43	0	57671680	61	4102
2026-01-27 05:11:05.18	308.02	21.10	-44.9	-46.1	25.7	6.03e-01	0	43	0	59768832	61	4128
2026-01-27 05:11:06.19	307.74	21.03	-44.4	-45.6	25.9	6.03e-01	0	43	0	61865984	60	4104
2026-01-27 05:11:07.19	307.47	20.97	-45.3	-46.6	25.1	6.02e-01	0	43	0	63438848	61	4352
2026-01-27 05:11:08.20	307.20	20.90	-45.1	-46.4	25.3	5.98e-01	0	43	0	65536000	60	4497
2026-01-27 05:11:09.21	306.93	20.83	-44.4	-45.5	26.2	6.01e-01	0	43	0	67633152	60	4065
2026-01-27 05:11:10.22	306.66	20.76	-44.7	-45.9	25.7	6.02e-01	0	43	0	69206016	60	4287
2026-01-27 05:11:11.23	306.39	20.69	-44.7	-45.9	25.8	6.03e-01	0	43	0	71303168	60	4290
2026-01-27 05:11:12.23	306.12	20.62	-44.8	-46.0	25.7	6.00e-01	0	43	0	72876032	60	4330
2026-01-27 05:11:13.24	305.86	20.55	-44.5	-45.7	25.9	6.01e-01	0	43	0	74973184	61	3933
2026-01-27 05:11:14.24	305.60	20.48	-45.3	-46.6	25.1	6.03e-01	0	43	0	77070336	61	4360
2026-01-27 05:11:15.25	305.33	20.40	-44.2	-45.4	26.1	6.03e-01	0	43	0	78643200	60	4010
2026-01-27 05:11:16.26	305.07	20.33	-44.4	-45.6	25.6	6.00e-01	0	43	0	80740352	60	4100
2026-01-27 05:11:17.26	304.81	20.26	-45.6	-47.0	24.8	6.02e-01	0	43	0	82313216	61	4558
2026-01-27 05:11:18.27	304.55	20.19	-44.4	-45.5	26.1	6.04e-01	0	43	0	84410368	60	4093
2026-01-27 05:11:19.28	304.29	20.11	-44.7	-45.9	25.5	6.03e-01	0	43	0	85983232	61	4017
2026-01-27 05:11:20.29	304.03	20.04	-45.0	-46.3	25.4	6.01e-01	0	43	0	88080384	60	4455
2026-01-27 05:11:21.30	303.78	19.97	-44.6	-45.8	25.9	6.06e-01	0	43	0	90177536	60	4212
2026-01-27 05:11:22.30	303.53	19.89	-44.9	-46.2	25.3	6.00e-01	0	43	0	92274688	61	4157
2026-01-27 05:11:23.31	303.27	19.82	-44.9	-46.1	25.5	6.02e-01	0	43	0	93847552	60	4372
2026-01-27 05:11:24.31	303.02	19.75	-44.8	-46.0	25.7	6.01e-01	0	43	0	95944704	60	4311
2026-01-27 05:11:25.32	302.77	19.67	-44.8	-46.1	25.4	6.00e-01	0	43	0	97517568	60	4345
2026-01-27 05:11:26.32	302.53	19.60	-44.9	-46.1	25.4	6.04e-01	0	43	0	99614720	60	4384
2026-01-27 05:11:27.32	302.28	19.52	-44.4	-45.5	25.9	6.01e-01	0	43	0	101187584	60	4091
2026-01-27 05:11:28.33	302.03	19.44	-45.5	-46.9	24.8	6.03e-01	0	43	0	103284736	61	4495
2026-01-27 05:11:29.33	301.79	19.37	-44.7	-45.9	25.7	6.03e-01	0	43	0	105381888	61	4012
2026-01-27 05:11:30.34	301.55	19.29	-45.9	-47.3	24.1	6.02e-01	0	43	0	106954752	62	4477
2026-01-27 05:11:31.35	301.30	19.22	-45.2	-46.4	25.0	6.02e-01	0	43	0	109051904	62	4028
2026-01-27 05:11:32.35	301.06	19.14	-45.5	-46.8	24.4	6.01e-01	0	43	0	110624768	62	4242
2026-01-27 05:11:33.36	300.82	19.06	-45.1	-46.3	25.0	6.03e-01	0	43	0	112721920	61	4222
2026-01-27 05:11:34.37	300.58	18.98	-45.0	-46.2	24.9	6.01e-01	0	43	0	114294784	61	4155
2026-01-27 05:11:35.37	300.35	18.91	-44.6	-45.8	25.2	6.00e-01	0	43	0	116391936	61	3997
2026-01-27 05:11:36.38	300.11	18.83	-44.8	-46.0	25.1	6.00e-01	0	43	0	118489088	61	4087
2026-01-27 05:11:37.38	299.88	18.75	-44.7	-45.9	25.2	6.00e-01	0	43	0	120061952	61	4025
2026-01-27 05:11:38.39	299.64	18.67	-44.9	-46.1	25.2	6.04e-01	0	43	0	122159104	61	4123
2026-01-27 05:11:39.39	299.41	18.60	-44.9	-46.1	25.3	6.01e-01	0	43	0	123731968	61	4132
2026-01-27 05:11:40.40	299.18	18.52	-45.3	-46.6	25.0	6.01e-01	0	43	0	125829120	61	4345
2026-01-27 05:11:41.41	298.95	18.44	-44.6	-45.8	25.7	5.99e-01	0	43	0	127926272	61	3959
2026-01-27 05:11:42.41	298.73	18.36	-44.9	-46.1	25.4	6.01e-01	0	43	0	129499136	61	4141
2026-01-27 05:11:43.42	298.50	18.28	-44.4	-45.6	25.9	6.02e-01	0	43	0	131596288	60	4111
2026-01-27 05:11:44.42	298.27	18.20	-45.1	-46.4	25.2	6.03e-01	0	43	0	133693440	60	4517
2026-01-27 05:11:45.43	298.05	18.12	-44.4	-45.5	25.9	6.01e-01	0	43	0	135266304	60	4080
2026-01-27 05:11:46.44	297.83	18.04	-45.0	-46.3	25.3	6.00e-01	0	43	0	137363456	60	4462
2026-01-27 05:11:47.44	297.61	17.96	-44.4	-45.6	25.7	6.03e-01	0	43	0	138936320	60	4112
2026-01-27 05:11:48.45	297.38	17.88	-45.0	-46.2	25.1	6.02e-01	0	43	0	141033472	60	4435
2026-01-27 05:11:49.45	297.17	17.80	-45.1	-46.3	25.2	6.02e-01	0	43	0	142606336	61	4221
2026-01-27 05:11:50.46	296.95	17.72	-44.8	-45.9	25.6	6.03e-01	0	43	0	144703488	61	4044
2026-01-27 05:11:51.47	296.73	17.64	-45.5	-46.9	24.8	6.00e-01	0	43	0	146800640	61	4507
2026-01-27 05:11:52.47	296.52	17.56	-45.0	-46.2	25.3	6.00e-01	0	43	0	148373504	61	4158
2026-01-27 05:11:53.48	296.30	17.48	-44.9	-46.1	25.5	6.01e-01	0	43	0	150470656	61	4111
2026-01-27 05:11:54.48	296.09	17.40	-44.9	-46.2	25.4	6.04e-01	0	43	0	152043520	61	4161
2026-01-27 05:11:55.49	295.88	17.32	-44.5	-45.6	26.1	6.04e-01	0	43	0	154140672	60	4125
2026-01-27 05:11:56.50	295.66	17.24	-45.1	-46.3	25.4	6.00e-01	0	43	0	155713536	60	4484
2026-01-27 05:11:57.50	295.46	17.16	-44.5	-45.7	26.0	6.00e-01	0	43	0	157810688	60	4153
2026-01-27 05:11:58.51	295.25	17.08	-44.8	-46.0	25.7	6.00e-01	0	43	0	159907840	60	4338
2026-01-27 05:11:59.51	295.04	17.00	-44.5	-45.7	26.0	6.04e-01	0	43	0	162004992	60	4152
2026-01-27 05:12:00.53	294.83	16.92	-44.6	-45.8	25.9	6.02e-01	0	43	0	163577856	60	4216
2026-01-27 05:12:01.53	294.63	16.84	-44.9	-46.1	25.6	6.01e-01	0	43	0	165675008	60	4379
2026-01-27 05:12:02.54	294.42	16.75	-44.4	-45.5	26.1	6.02e-01	0	43	0	167247872	60	4089
2026-01-27 05:12:03.54	294.22	16.67	-44.7	-45.9	25.7	6.02e-01	0	43	0	169345024	60	4290
2026-01-27 05:12:04.55	294.02	16.59	-44.4	-45.6	25.8	6.02e-01	0	43	0	170917888	60	4130
2026-01-27 05:12:05.55	293.82	16.51	-44.5	-45.6	26.0	6.02e-01	0	43	0	173015040	60	4120
2026-01-27 05:12:06.56	293.62	16.43	-45.1	-46.4	25.4	6.02e-01	0	43	0	175112192	60	4504
2026-01-27 05:12:07.57	293.42	16.35	-44.5	-45.6	25.8	6.01e-01	0	43	0	176685056	60	4132
2026-01-27 05:12:08.57	293.23	16.27	-44.5	-45.7	25.9	6.01e-01	0	43	0	178782208	60	4153
2026-01-27 05:12:09.58	293.03	16.18	-44.7	-45.9	25.7	6.00e-01	0	43	0	180355072	60	4291
2026-01-27 05:12:10.59	292.84	16.10	-44.3	-45.4	26.1	6.00e-01	0	43	0	182452224	60	4036
2026-01-27 05:12:11.59	292.65	16.02	-44.8	-45.9	25.7	6.00e-01	0	43	0	184025088	60	4291
2026-01-27 05:12:12.60	292.45	15.94	-45.1	-46.4	25.3	6.03e-01	0	43	0	186122240	60	4498
2026-01-27 05:12:13.60	292.26	15.86	-44.3	-45.4	26.2	6.02e-01	0	43	0	188219392	60	4051
2026-01-27 05:12:14.61	292.07	15.78	-44.8	-46.0	25.5	6.02e-01	0	43	0	190316544	60	4307
2026-01-27 05:12:15.62	291.88	15.70	-44.9	-46.2	25.2	6.03e-01	0	43	0	191889408	60	4405
2026-01-27 05:12:16.63	291.70	15.61	-44.3	-45.4	26.0	6.01e-01	0	43	0	193986560	60	4028
2026-01-27 05:12:17.64	291.51	15.53	-45.1	-46.4	24.6	6.00e-01	0	43	0	195559424	60	4516
2026-01-27 05:12:18.64	291.32	15.45	-45.7	-47.1	24.1	6.02e-01	0	43	0	197656576	62	4362
2026-01-27 05:12:19.65	291.14	15.37	-44.8	-46.0	25.5	6.03e-01	0	43	0	199229440	61	4060
2026-01-27 05:12:20.65	290.96	15.29	-45.4	-46.7	24.8	6.01e-01	0	43	0	201326592	61	4393
2026-01-27 05:12:21.66	290.77	15.21	-45.5	-46.8	24.7	6.02e-01	0	43	0	203423744	61	4472
2026-01-27 05:12:22.66	290.59	15.13	-44.5	-45.7	25.7	6.02e-01	0	43	0	204996608	61	3930
2026-01-27 05:12:23.67	290.41	15.04	-44.7	-45.9	25.6	6.02e-01	0	43	0	207093760	61	4020
2026-01-27 05:12:24.68	290.23	14.96	-45.2	-46.6	25.1	6.01e-01	0	43	0	208666624	61	4345
2026-01-27 05:12:25.68	290.06	14.88	-44.7	-45.9	25.5	6.00e-01	0	43	0	210763776	61	4022
2026-01-27 05:12:26.69	289.88	14.80	-44.6	-45.8	25.8	6.03e-01	0	43	0	212336640	61	3965
2026-01-27 05:12:27.71	289.70	14.72	-45.4	-46.7	25.0	5.99e-01	0	43	0	214433792	61	4434
2026-01-27 05:12:28.71	289.53	14.64	-45.3	-46.6	24.7	5.99e-01	0	43	0	216530944	61	4365
2026-01-27 05:12:29.72	289.35	14.56	-44.9	-46.0	25.6	6.00e-01	0	43	0	218628096	61	4083
2026-01-27 05:12:30.73	289.18	14.47	-45.4	-46.7	24.8	6.03e-01	0	43	0	220200960	61	4393
2026-01-27 05:12:31.73	289.01	14.39	-45.9	-47.3	24.4	6.00e-01	0	43	0	222298112	62	4480
2026-01-27 05:12:32.74	288.84	14.31	-44.8	-46.0	25.2	5.99e-01	0	43	0	223870976	61	4086
2026-01-27 05:12:33.75	288.67	14.23	-44.4	-45.5	26.0	6.01e-01	0	43	0	225968128	60	4073
2026-01-27 05:12:34.76	288.50	14.15	-45.1	-46.3	25.1	6.02e-01	0	43	0	227540992	60	4475
2026-01-27 05:12:35.77	288.33	14.07	-45.6	-47.0	24.7	6.03e-01	0	43	0	229638144	61	4566
2026-01-27 05:12:36.77	288.17	13.99	-45.0	-46.2	24.9	6.00e-01	0	43	0	231735296	61	4191
2026-01-27 05:12:37.77	288.00	13.91	-44.9	-46.1	25.5	5.99e-01	0	43	0	233308160	61	4108
2026-01-27 05:12:38.79	287.83	13.83	-45.6	-46.9	24.5	5.99e-01	0	43	0	235405312	61	4534
2026-01-27 05:12:39.79	287.67	13.75	-45.9	-47.3	24.3	6.00e-01	0	43	0	236978176	62	4475
2026-01-27 05:12:40.80	287.51	13.67	-45.6	-46.9	24.5	6.02e-01	0	43	0	239075328	62	4270
2026-01-27 05:12:41.80	287.35	13.59	-45.3	-46.5	25.1	6.01e-01	0	43	0	241172480	62	4076
2026-01-27 05:12:42.81	287.19	13.51	-45.9	-47.2	24.3	6.01e-01	0	43	0	242745344	62	4424
2026-01-27 05:12:43.81	287.03	13.43	-46.3	-47.7	24.0	6.01e-01	0	43	0	244842496	63	4425
2026-01-27 05:12:44.82	286.87	13.34	-46.3	-47.7	23.8	6.00e-01	0	43	0	246939648	63	4408
2026-01-27 05:12:45.83	286.71	13.26	-46.1	-47.4	24.2	6.00e-01	0	43	0	248512512	63	4275
2026-01-27 05:12:46.83	286.55	13.19	-45.7	-47.0	24.7	6.01e-01	0	43	0	250609664	63	4053
2026-01-27 05:12:47.84	286.40	13.10	-45.9	-47.3	24.3	6.02e-01	0	43	0	252182528	63	4228
2026-01-27 05:12:48.85	286.24	13.02	-45.8	-47.2	24.4	5.98e-01	0	43	0	254279680	63	4187
2026-01-27 05:12:49.86	286.09	12.94	-45.7	-47.0	24.5	6.01e-01	0	43	0	255852544	63	4079
2026-01-27 05:12:50.87	285.93	12.86	-45.7	-47.0	24.6	6.01e-01	0	43	0	257949696	63	4097
2026-01-27 05:12:51.87	285.78	12.79	-45.6	-46.9	24.6	6.01e-01	0	43	0	260046848	63	4040
2026-01-27 05:12:52.88	285.63	12.71	-45.9	-47.3	24.3	6.02e-01	0	43	0	261619712	63	4221
2026-01-27 05:12:53.88	285.48	12.63	-45.8	-47.1	24.5	6.00e-01	0	43	0	263716864	63	4137
2026-01-27 05:12:54.89	285.33	12.55	-45.3	-46.6	24.9	6.00e-01	0	43	0	265289728	62	4120
2026-01-27 05:12:55.90	285.18	12.47	-45.4	-46.7	24.9	6.00e-01	0	43	0	267386880	62	4160
2026-01-27 05:12:56.91	285.03	12.39	-45.4	-46.7	24.9	6.00e-01	0	43	0	269484032	62	4153
2026-01-27 05:12:57.92	284.88	12.31	-45.6	-47.0	24.6	6.03e-01	0	43	0	271056896	62	4303
2026-01-27 05:12:58.92	284.74	12.23	-45.9	-47.3	24.4	5.99e-01	0	43	0	273154048	62	4465
2026-01-27 05:12:59.93	284.59	12.15	-45.6	-46.9	24.6	6.01e-01	0	43	0	275251200	62	4271
2026-01-27 05:13:00.94	284.44	12.07	-45.1	-46.3	25.1	6.01e-01	0	43	0	276824064	62	3983
2026-01-27 05:13:01.94	284.30	12.00	-44.9	-46.1	25.4	6.02e-01	0	43	0	278921216	61	4133
2026-01-27 05:13:02.95	284.16	11.92	-45.1	-46.3	25.2	6.01e-01	0	43	0	280494080	61	4217
2026-01-27 05:13:03.96	284.02	11.84	-45.4	-46.7	24.8	6.04e-01	0	43	0	282591232	61	4410
2026-01-27 05:13:04.97	283.87	11.76	-45.5	-46.9	24.7	6.02e-01	0	43	0	284164096	61	4498
2026-01-27 05:13:05.98	283.73	11.68	-45.4	-46.7	24.7	6.01e-01	0	43	0	286261248	61	4438
2026-01-27 05:13:06.98	283.59	11.60	-45.2	-46.4	25.0	6.03e-01	0	43	0	288358400	61	4286
2026-01-27 05:13:07.99	283.45	11.53	-45.1	-46.4	25.1	6.03e-01	0	43	0	289931264	61	4270
2026-01-27 05:13:09.00	283.32	11.45	-45.3	-46.6	24.9	6.03e-01	0	43	0	292028416	61	4382
2026-01-27 05:13:10.01	283.18	11.37	-45.5	-46.8	24.7	6.05e-01	0	43	0	294125568	61	4459
2026-01-27 05:13:11.02	283.04	11.29	-45.7	-47.1	24.4	6.01e-01	0	43	0	295698432	62	4349
2026-01-27 05:13:12.02	282.91	11.22	-45.6	-47.0	24.4	6.01e-01	0	43	0	297795584	62	4295
2026-01-27 05:13:13.03	282.77	11.14	-45.6	-46.9	24.4	6.00e-01	0	43	0	299368448	62	4259
2026-01-27 05:13:14.04	282.64	11.06	-45.2	-46.5	24.8	6.01e-01	0	43	0	301465600	62	4076
2026-01-27 05:13:15.05	282.50	10.98	-45.1	-46.3	25.0	6.01e-01	0	43	0	303562752	61	4217
2026-01-27 05:13:16.06	282.37	10.91	-45.2	-46.5	24.9	6.02e-01	0	43	0	305135616	61	4306
2026-01-27 05:13:17.07	282.24	10.83	-45.3	-46.7	24.8	6.01e-01	0	43	0	307232768	61	4400
2026-01-27 05:13:18.07	282.11	10.75	-45.5	-46.9	24.6	6.00e-01	0	43	0	308805632	61	4511
2026-01-27 05:13:19.08	281.98	10.68	-45.6	-47.0	24.4	5.99e-01	0	43	0	310902784	61	4560
2026-01-27 05:13:20.09	281.85	10.60	-45.7	-47.0	24.3	6.01e-01	0	43	0	312475648	61	4589
2026-01-27 05:13:21.09	281.72	10.52	-45.5	-46.8	24.5	6.01e-01	0	43	0	314572800	61	4483
2026-01-27 05:13:22.10	281.59	10.45	-45.6	-46.9	24.5	6.01e-01	0	43	0	316669952	61	4519
2026-01-27 05:13:23.11	281.46	10.37	-45.5	-46.8	24.5	6.01e-01	0	43	0	318767104	61	4455
2026-01-27 05:13:24.11	281.34	10.30	-45.3	-46.6	24.7	6.01e-01	0	43	0	320339968	61	4364
2026-01-27 05:13:25.12	281.21	10.22	-45.5	-46.8	24.6	5.99e-01	0	43	0	322437120	61	4475
2026-01-27 05:13:26.12	281.09	10.15	-45.6	-47.0	24.4	6.01e-01	0	43	0	324009984	61	4557
2026-01-27 05:13:27.13	280.96	10.07	-45.4	-46.7	24.6	6.02e-01	0	43	0	326107136	61	4414
2026-01-27 05:13:28.14	280.84	9.99	-45.8	-47.2	24.2	6.01e-01	0	43	0	327680000	62	4401
2026-01-27 05:13:29.15	280.71	9.92	-45.8	-47.2	24.2	5.99e-01	0	43	0	329777152	62	4413
2026-01-27 05:13:30.16	280.59	9.84	-45.8	-47.2	24.2	6.03e-01	0	43	0	331874304	62	4407
2026-01-27 05:13:31.17	280.47	9.77	-45.6	-46.9	24.4	6.02e-01	0	43	0	333447168	62	4276
2026-01-27 05:13:32.18	280.35	9.69	-45.5	-46.9	24.5	6.02e-01	0	43	0	335544320	62	4250
2026-01-27 05:13:33.19	280.23	9.62	-45.6	-46.9	24.4	5.99e-01	0	43	0	337117184	62	4264
2026-01-27 05:13:34.20	280.11	9.54	-45.7	-47.1	24.3	6.00e-01	0	43	0	339214336	62	4375
2026-01-27 05:13:35.21	279.99	9.47	-45.9	-47.3	24.0	6.04e-01	0	43	0	341311488	62	4490
2026-01-27 05:13:36.22	279.87	9.39	-45.8	-47.2	24.1	6.02e-01	0	43	0	342884352	62	4393
2026-01-27 05:13:37.22	279.75	9.32	-45.9	-47.3	24.0	6.00e-01	0	43	0	344981504	62	4470
2026-01-27 05:13:38.23	279.63	9.25	-45.8	-47.2	24.1	5.99e-01	0	43	0	347078656	62	4417
2026-01-27 05:13:39.24	279.52	9.17	-45.8	-47.2	24.0	5.99e-01	0	43	0	348651520	62	4441
2026-01-27 05:13:40.24	279.40	9.10	-45.9	-47.4	23.9	6.00e-01	0	43	0	350748672	62	4504
2026-01-27 05:13:41.25	279.29	9.03	-45.8	-47.2	24.0	6.03e-01	0	43	0	352321536	62	4429
2026-01-27 05:13:42.25	279.17	8.95	-45.9	-47.3	23.9	6.04e-01	0	43	0	354418688	62	4476
2026-01-27 05:13:43.26	279.06	8.88	-45.8	-47.2	24.0	6.00e-01	0	43	0	355991552	62	4430
2026-01-27 05:13:44.27	278.95	8.81	-45.8	-47.3	24.0	6.01e-01	0	43	0	358088704	62	4449
2026-01-27 05:13:45.28	278.83	8.73	-45.7	-47.1	24.1	6.01e-01	0	43	0	360185856	62	4376
2026-01-27 05:13:46.29	278.72	8.66	-46.2	-47.7	23.6	6.03e-01	0	43	0	361758720	63	4410
2026-01-27 05:13:47.29	278.61	8.59	-45.9	-47.3	24.0	6.01e-01	0	43	0	363855872	63	4203
2026-01-27 05:13:48.30	278.50	8.51	-46.1	-47.5	23.8	5.99e-01	0	43	0	365953024	63	4329
2026-01-27 05:13:49.31	278.39	8.44	-46.0	-47.4	23.8	6.02e-01	0	43	0	367525888	63	4272
2026-01-27 05:13:50.32	278.28	8.37	-46.2	-47.6	23.6	6.00e-01	0	43	0	369623040	63	4386
2026-01-27 05:13:51.33	278.17	8.30	-46.2	-47.7	23.6	6.01e-01	0	43	0	371195904	63	4401
2026-01-27 05:13:52.34	278.06	8.22	-46.2	-47.7	23.5	6.02e-01	0	43	0	373293056	63	4395
2026-01-27 05:13:53.34	277.95	8.15	-46.2	-47.7	23.5	6.01e-01	0	43	0	375390208	63	4425
2026-01-27 05:13:54.34	277.85	8.08	-46.1	-47.5	23.7	6.01e-01	0	43	0	376963072	63	4321
2026-01-27 05:13:55.35	277.74	8.01	-46.5	-48.0	23.2	5.99e-01	0	43	0	379060224	63	4579
2026-01-27 05:13:56.36	277.64	7.94	-46.5	-48.0	23.1	6.00e-01	0	43	0	380633088	63	4594
2026-01-27 05:13:57.37	277.53	7.87	-46.4	-47.9	23.2	6.03e-01	0	43	0	382730240	63	4543
2026-01-27 05:13:58.37	277.43	7.79	-46.3	-47.8	23.3	6.02e-01	0	43	0	384303104	63	4492
2026-01-27 05:13:59.38	277.32	7.72	-46.4	-47.9	23.2	6.02e-01	0	43	0	386400256	63	4518
2026-01-27 05:14:00.39	277.22	7.65	-46.1	-47.6	23.5	6.01e-01	0	43	0	388497408	63	4379
2026-01-27 05:14:01.39	277.12	7.58	-46.3	-47.8	23.3	6.00e-01	0	43	0	390070272	63	4486
2026-01-27 05:14:02.40	277.01	7.51	-46.4	-47.9	23.2	6.02e-01	0	43	0	392167424	63	4524
2026-01-27 05:14:03.41	276.91	7.44	-46.1	-47.6	23.5	6.00e-01	0	43	0	394264576	63	4359
2026-01-27 05:14:04.42	276.81	7.37	-46.1	-47.5	23.6	6.01e-01	0	43	0	395837440	63	4338
2026-01-27 05:14:05.42	276.71	7.30	-46.0	-47.5	23.6	6.01e-01	0	43	0	397934592	63	4312
2026-01-27 05:14:06.43	276.61	7.23	-46.2	-47.6	23.4	6.00e-01	0	43	0	399507456	63	4390
2026-01-27 05:14:07.44	276.51	7.16	-46.3	-47.8	23.3	6.00e-01	0	43	0	401604608	63	4469
2026-01-27 05:14:08.44	276.41	7.09	-46.3	-47.8	23.2	6.02e-01	0	43	0	403701760	63	4488
2026-01-27 05:14:09.45	276.31	7.02	-46.2	-47.7	23.4	6.02e-01	0	43	0	405274624	63	4394
2026-01-27 05:14:10.46	276.21	6.95	-46.6	-48.2	22.9	6.02e-01	0	43	0	407371776	63	4663
2026-01-27 05:14:11.47	276.11	6.88	-46.4	-48.0	23.1	6.01e-01	0	43	0	408944640	63	4555
2026-01-27 05:14:12.48	276.02	6.81	-46.5	-48.0	23.0	6.01e-01	0	43	0	411041792	63	4595
2026-01-27 05:14:13.49	275.92	6.74	-46.5	-48.1	23.0	6.03e-01	0	43	0	412614656	63	4607
2026-01-27 05:14:14.49	275.82	6.67	-46.5	-48.0	23.0	6.00e-01	0	43	0	414711808	63	4592
2026-01-27 05:14:15.50	275.73	6.60	-46.4	-48.0	23.0	6.01e-01	0	43	0	416808960	63	4568
2026-01-27 05:14:16.51	275.63	6.53	-46.0	-47.4	23.5	6.03e-01	0	43	0	418381824	63	4274
2026-01-27 05:14:17.52	275.54	6.47	-46.4	-47.9	23.1	5.99e-01	0	43	0	420478976	63	4534
2026-01-27 05:14:18.52	275.45	6.40	-46.6	-48.2	22.8	6.00e-01	0	43	0	422576128	63	4659
2026-01-27 05:14:19.53	275.35	6.33	-46.4	-47.9	23.0	6.01e-01	0	43	0	424148992	63	4530
2026-01-27 05:14:20.54	275.26	6.26	-46.5	-48.1	22.8	6.04e-01	0	43	0	426246144	64	4349
2026-01-27 05:14:21.54	275.17	6.19	-46.6	-48.3	22.5	6.04e-01	0	43	0	427819008	64	4443
2026-01-27 05:14:22.54	275.07	6.12	-46.4	-48.0	22.7	6.00e-01	0	43	0	429916160	64	4339
2026-01-27 05:14:23.55	274.98	6.06	-46.5	-48.1	22.5	5.99e-01	0	43	0	432013312	64	4378
2026-01-27 05:14:24.56	274.89	5.99	-46.6	-48.2	22.5	6.02e-01	0	43	0	433586176	64	4437
2026-01-27 05:14:25.57	274.80	5.92	-46.6	-48.2	22.4	6.02e-01	0	43	0	435683328	64	4439
2026-01-27 05:14:26.57	274.71	5.85	-46.7	-48.4	22.2	5.99e-01	0	43	0	437256192	64	4518
2026-01-27 05:14:27.58	274.62	5.79	-46.9	-48.7	22.0	6.01e-01	0	43	0	439353344	64	4672
2026-01-27 05:14:28.59	274.53	5.72	-46.7	-48.4	22.2	6.01e-01	0	43	0	440926208	64	4507
2026-01-27 05:14:29.59	274.44	5.65	-46.5	-48.2	22.3	6.00e-01	0	43	0	443023360	64	4415
2026-01-27 05:14:30.60	274.36	5.58	-46.7	-48.4	22.2	5.98e-01	0	43	0	445120512	64	4543
2026-01-27 05:14:31.61	274.27	5.52	-46.8	-48.6	22.0	5.98e-01	0	43	0	446693376	64	4608
2026-01-27 05:14:32.62	274.18	5.45	-46.7	-48.4	22.3	6.02e-01	0	43	0	448790528	64	4494
2026-01-27 05:14:33.62	274.09	5.38	-46.8	-48.5	22.1	5.98e-01	0	43	0	450887680	64	4579
2026-01-27 05:14:34.63	274.01	5.32	-46.8	-48.5	22.1	6.03e-01	0	43	0	452460544	64	4568
2026-01-27 05:14:35.64	273.92	5.25	-47.0	-48.8	21.8	6.00e-01	0	43	0	454557696	64	4718
2026-01-27 05:14:36.64	273.83	5.19	-47.2	-49.0	21.6	6.02e-01	0	43	0	456130560	65	4573
2026-01-27 05:14:37.64	273.75	5.12	-47.6	-49.6	21.1	6.02e-01	0	43	0	458227712	65	4908
2026-01-27 05:14:38.65	273.67	5.05	-47.1	-48.9	21.6	6.04e-01	0	43	0	460324864	66	4269
2026-01-27 05:14:39.65	273.58	4.99	-50.4	-54.0	18.2	6.02e-01	0	43	0	461897728	71	5735
2026-01-27 05:14:40.66	273.50	4.92	-53.8	-71.3	3.8	7.44e-01	0	43	104	462422016	78	28335
2026-01-27 05:14:41.67	273.41	4.86	-53.7	-70.7	3.9	7.45e-01	0	43	104	462422016	78	26216
2026-01-27 05:14:42.68	273.33	4.79	-53.7	-69.8	3.8	7.45e-01	0	43	104	462422016	78	23833
2026-01-27 05:14:43.69	273.25	4.73	-53.9	-70.7	3.8	7.46e-01	0	43	104	462422016	78	26447
2026-01-27 05:14:44.69	273.17	4.66	-54.1	-71.5	3.8	7.46e-01	0	43	104	462422016	78	28930
2026-01-27 05:14:45.70	273.08	4.60	-54.2	-71.8	3.8	7.49e-01	0	43	104	462422016	78	30012
2026-01-27 05:14:46.71	273.00	4.53	-54.3	-71.8	3.8	7.43e-01	0	43	104	462422016	79	28233
2026-01-27 05:14:47.72	272.92	4.46	-54.4	-71.8	3.8	7.46e-01	0	43	104	462422016	79	28084
2026-01-27 05:14:48.73	272.84	4.40	-54.4	-71.9	3.8	7.45e-01	0	43	104	462422016	79	28534
2026-01-27 05:14:49.73	272.76	4.34	-54.5	-72.2	3.8	7.43e-01	0	43	104	462422016	79	29653
2026-01-27 05:14:50.74	272.68	4.27	-54.5	-72.4	3.8	7.47e-01	0	43	104	462422016	79	30145
2026-01-27 05:14:51.75	272.60	4.21	-54.6	-72.4	3.8	7.51e-01	0	43	104	462422016	79	30164
2026-01-27 05:14:52.76	272.52	4.14	-54.6	-72.5	3.8	7.41e-01	0	43	104	462422016	79	30396
2026-01-27 05:14:53.77	272.44	4.08	-54.7	-72.4	3.8	7.46e-01	0	43	104	462422016	79	30284
2026-01-27 05:14:54.77	272.37	4.01	-54.7	-72.5	3.8	7.44e-01	0	43	104	462422016	79	30487
2026-01-27 05:14:55.78	272.29	3.95	-54.7	-72.4	3.8	7.46e-01	0	43	104	462422016	80	28627
2026-01-27 05:14:56.79	272.21	3.89	-54.7	-72.4	3.8	7.44e-01	0	43	104	462422016	80	28501
2026-01-27 05:14:57.80	272.13	3.82	-54.8	-72.5	3.8	7.49e-01	0	43	104	462422016	80	28866
2026-01-27 05:14:58.80	272.06	3.76	-54.8	-72.5	3.8	7.48e-01	0	43	104	462422016	80	28802
2026-01-27 05:14:59.81	271.98	3.70	-54.8	-72.5	3.8	7.47e-01	0	43	104	462422016	80	28687
2026-01-27 05:15:00.81	271.91	3.63	-54.8	-72.4	3.8	7.48e-01	0	43	104	462422016	80	28558
2026-01-27 05:15:01.82	271.83	3.57	-54.8	-72.4	3.8	7.46e-01	0	43	104	462422016	80	28536
2026-01-27 05:15:02.83	271.75	3.51	-54.8	-72.4	3.8	7.45e-01	0	43	104	462422016	80	28427
2026-01-27 05:15:03.84	271.68	3.44	-54.8	-72.4	3.8	7.48e-01	0	43	104	462422016	80	28470
2026-01-27 05:15:04.85	271.60	3.38	-54.7	-72.4	3.8	7.49e-01	0	43	104	462422016	80	28457
2026-01-27 05:15:05.85	271.53	3.32	-54.7	-72.4	3.8	7.42e-01	0	43	104	462422016	80	28557
2026-01-27 05:15:06.86	271.46	3.25	-54.7	-72.4	3.8	7.46e-01	0	43	104	462422016	80	28573
2026-01-27 05:15:07.87	271.38	3.19	-54.7	-72.4	3.8	7.45e-01	0	43	104	462422016	80	28503
2026-01-27 05:15:08.88	271.31	3.13	-54.7	-72.4	3.8	7.41e-01	0	43	104	462422016	80	28487
2026-01-27 05:15:09.89	271.24	3.07	-54.7	-72.4	3.8	7.45e-01	0	43	104	462422016	80	28622
2026-01-27 05:15:10.89	271.17	3.01	-54.7	-72.4	3.8	7.46e-01	0	43	104	462422016	80	28573
2026-01-27 05:15:11.90	271.09	2.94	-54.7	-72.4	3.8	7.46e-01	0	43	104	462422016	80	28647
2026-01-27 05:15:12.91	271.02	2.88	-54.7	-72.4	3.8	7.47e-01	0	43	104	462422016	80	28364
2026-01-27 05:15:13.91	270.95	2.82	-54.7	-72.4	3.8	7.47e-01	0	43	104	462422016	80	28403
2026-01-27 05:15:14.92	270.88	2.76	-54.7	-72.4	3.8	7.42e-01	0	43	104	462422016	80	28409
2026-01-27 05:15:15.93	270.81	2.70	-54.7	-72.4	3.8	7.45e-01	0	43	104	462422016	80	28518
2026-01-27 05:15:16.94	270.74	2.63	-54.7	-72.4	3.8	7.46e-01	0	43	104	462422016	80	28602
2026-01-27 05:15:17.94	270.67	2.57	-54.7	-72.4	3.8	7.47e-01	0	43	104	462422016	80	28480
2026-01-27 05:15:18.95	270.60	2.51	-54.7	-72.4	3.8	7.46e-01	0	43	104	462422016	80	28552
2026-01-27 05:15:19.96	270.53	2.45	-54.7	-72.5	3.8	7.46e-01	0	43	104	462422016	80	28752
2026-01-27 05:15:20.97	270.46	2.39	-54.7	-72.5	3.8	7.48e-01	0	43	104	462422016	80	28749
2026-01-27 05:15:21.97	270.39	2.33	-54.7	-72.5	3.8	7.46e-01	0	43	104	462422016	80	28893
2026-01-27 05:15:22.98	270.33	2.27	-54.7	-72.5	3.8	7.45e-01	0	43	104	462422016	80	28920
2026-01-27 05:15:23.98	270.26	2.21	-54.7	-72.5	3.8	7.46e-01	0	43	104	462422016	80	28925
2026-01-27 05:15:24.99	270.19	2.15	-54.7	-72.5	3.8	7.43e-01	0	43	104	462422016	80	28915
2026-01-27 05:15:26.00	270.12	2.09	-54.7	-72.5	3.8	7.45e-01	0	43	104	462422016	80	28880
2026-01-27 05:15:27.01	270.06	2.03	-54.7	-72.5	3.8	7.45e-01	0	43	104	462422016	80	28809
2026-01-27 05:15:28.02	269.99	1.97	-54.7	-72.5	3.8	7.45e-01	0	43	104	462422016	80	28794
2026-01-27 05:15:29.02	269.92	1.91	-54.7	-72.5	3.8	7.45e-01	0	43	104	462422016	80	28824

#Closed at: 2026-01-27 05:15:30
#Recorded file [462 MB]: D:/lorett/data/31041_260127_080400.dat