passes_logs/2026/01/27/R3.2S_Murmansk/R3.2S_Murmansk__20260127_200549_JL1KF02B01_rec.log

#Pass ID: 20260127_200549_JL1KF02B01
#Satellite: JL1KF02B01
#Configuration: 01B_900M
#almurnet v.1.7.20251203
#Start time: 2026-01-27 20:05:48

#Version: 2.2.20231116
#Station: R3.2S_Murmansk
#Location: 33.079688 lon 68.888172 lat
#TLE: 1 61191U 24169C   26026.83418031  .00007092  00000+0  44292-3 0  9995
#TLE: 2 61191  97.5611 118.2382 0014824  86.6194 273.6731 15.09693162 74504

#Time	Az	El	Level	Level2	SNR	BER	BlckErr	Temp	State	Recorded	gain1	gain2
2026-01-27 20:05:48.68	163.06	1.97	-54.3	-56.4	6.2	0.00e+00	0	43	0	0	80	18060
2026-01-27 20:05:49.69	163.08	2.04	-54.0	-56.2	6.2	0.00e+00	0	43	104	0	79	18637
2026-01-27 20:05:50.69	163.09	2.11	-53.9	-56.0	6.2	0.00e+00	0	43	104	0	79	18296
2026-01-27 20:05:51.70	163.11	2.18	-53.7	-55.8	6.2	0.00e+00	0	43	104	0	79	17859
2026-01-27 20:05:52.71	163.12	2.25	-53.4	-55.5	6.2	0.00e+00	0	43	104	0	78	18242
2026-01-27 20:05:53.72	163.14	2.32	-53.2	-55.3	6.2	0.00e+00	0	43	104	0	78	17839
2026-01-27 20:05:54.72	163.16	2.39	-53.2	-55.3	6.2	0.00e+00	0	43	104	0	78	17864
2026-01-27 20:05:55.72	163.17	2.46	-53.2	-55.3	6.2	0.00e+00	0	43	104	0	78	17907
2026-01-27 20:05:56.73	163.19	2.53	-53.2	-55.3	6.2	0.00e+00	0	43	104	0	78	17834
2026-01-27 20:05:57.74	163.20	2.61	-53.2	-55.3	6.2	0.00e+00	0	43	104	0	78	17839
2026-01-27 20:05:58.75	163.22	2.68	-53.2	-55.3	6.2	0.00e+00	0	43	104	0	78	17770
2026-01-27 20:05:59.75	163.23	2.75	-53.2	-55.3	6.2	0.00e+00	0	43	104	0	78	17805
2026-01-27 20:06:00.76	163.25	2.82	-53.1	-55.2	6.2	0.00e+00	0	43	104	0	78	17747
2026-01-27 20:06:01.77	163.26	2.89	-53.2	-55.3	6.2	0.00e+00	0	44	104	0	78	17773
2026-01-27 20:06:02.78	163.28	2.97	-53.1	-55.3	6.2	0.00e+00	0	44	104	0	78	17773
2026-01-27 20:06:03.79	163.30	3.04	-53.1	-55.2	6.2	0.00e+00	0	44	104	0	78	17721
2026-01-27 20:06:04.79	163.31	3.11	-53.1	-55.2	6.2	0.00e+00	0	44	104	0	78	17750
2026-01-27 20:06:05.80	163.33	3.19	-53.1	-55.2	6.2	0.00e+00	0	44	104	0	78	17729
2026-01-27 20:06:06.81	163.34	3.26	-53.1	-55.3	6.2	0.00e+00	0	44	104	0	78	17785
2026-01-27 20:06:07.82	163.36	3.33	-53.1	-55.2	6.2	0.00e+00	0	44	104	0	78	17702
2026-01-27 20:06:08.82	163.38	3.41	-53.1	-55.2	6.2	0.00e+00	0	44	104	0	78	17739
2026-01-27 20:06:09.83	163.39	3.48	-53.1	-55.3	6.2	0.00e+00	0	44	104	0	78	17772
2026-01-27 20:06:10.84	163.41	3.56	-53.1	-55.2	6.2	0.00e+00	0	44	104	0	78	17757
2026-01-27 20:06:11.85	163.43	3.63	-53.1	-55.2	6.2	0.00e+00	0	44	104	0	78	17711
2026-01-27 20:06:12.85	163.44	3.71	-53.1	-55.2	6.2	0.00e+00	0	44	104	0	78	17751
2026-01-27 20:06:13.86	163.46	3.78	-53.1	-55.2	6.2	0.00e+00	0	44	104	0	78	17704
2026-01-27 20:06:14.87	163.48	3.86	-53.1	-55.2	6.2	0.00e+00	0	44	104	0	78	17693
2026-01-27 20:06:15.87	163.49	3.94	-53.1	-55.2	6.2	0.00e+00	0	44	104	0	78	17703
2026-01-27 20:06:16.88	163.51	4.01	-53.1	-55.2	6.2	0.00e+00	0	44	104	0	78	17593
2026-01-27 20:06:17.88	163.53	4.09	-53.1	-55.2	6.2	0.00e+00	0	44	104	0	78	17641
2026-01-27 20:06:18.89	163.55	4.17	-53.1	-55.1	6.2	0.00e+00	0	44	104	0	78	17547
2026-01-27 20:06:19.90	163.56	4.24	-53.1	-55.2	6.2	0.00e+00	0	44	104	0	78	17619
2026-01-27 20:06:20.91	163.58	4.32	-53.1	-55.1	6.2	0.00e+00	0	44	104	0	78	17557
2026-01-27 20:06:21.91	163.60	4.40	-53.1	-55.2	6.2	0.00e+00	0	44	104	0	78	17591
2026-01-27 20:06:22.92	163.61	4.48	-53.1	-55.2	6.2	0.00e+00	0	44	104	0	78	17644
2026-01-27 20:06:23.93	163.63	4.56	-53.1	-55.2	6.2	0.00e+00	0	44	104	0	78	17629
2026-01-27 20:06:24.93	163.65	4.63	-53.1	-55.2	6.2	0.00e+00	0	44	104	0	78	17624
2026-01-27 20:06:25.95	163.67	4.71	-53.1	-55.2	6.2	0.00e+00	0	44	104	0	78	17629
2026-01-27 20:06:26.96	163.69	4.79	-53.1	-55.2	6.2	0.00e+00	0	44	104	0	78	17609
2026-01-27 20:06:27.96	163.70	4.87	-53.1	-55.2	6.2	0.00e+00	0	44	104	0	78	17587
2026-01-27 20:06:28.97	163.72	4.95	-53.1	-55.2	6.2	0.00e+00	0	44	104	0	78	17604
2026-01-27 20:06:29.98	163.74	5.03	-53.1	-55.2	6.2	0.00e+00	0	44	104	0	78	17626
2026-01-27 20:06:30.99	163.76	5.11	-53.1	-55.2	6.2	0.00e+00	0	44	104	0	78	17683
2026-01-27 20:06:32.00	163.78	5.19	-53.3	-55.4	6.2	0.00e+00	0	44	104	0	78	18028
2026-01-27 20:06:33.00	163.80	5.28	-53.1	-55.1	6.2	0.00e+00	0	44	104	0	78	17497
2026-01-27 20:06:34.01	163.81	5.36	-53.1	-55.2	6.2	0.00e+00	0	44	104	0	78	17646
2026-01-27 20:06:35.02	163.83	5.44	-53.1	-55.2	6.2	0.00e+00	0	44	104	0	78	17744
2026-01-27 20:06:36.02	163.85	5.52	-53.2	-55.3	6.2	0.00e+00	0	44	104	0	78	17966
2026-01-27 20:06:37.03	163.87	5.60	-53.0	-55.1	6.2	0.00e+00	0	44	104	0	78	17479
2026-01-27 20:06:38.04	163.89	5.69	-53.0	-55.1	6.2	0.00e+00	0	44	104	0	78	17553
2026-01-27 20:06:39.05	163.91	5.77	-53.1	-55.2	6.2	0.00e+00	0	45	104	0	78	17692
2026-01-27 20:06:40.05	163.93	5.85	-53.2	-55.3	6.2	0.00e+00	0	44	104	0	78	17886
2026-01-27 20:06:41.06	163.95	5.94	-53.0	-55.1	6.2	0.00e+00	0	45	104	0	78	17477
2026-01-27 20:06:42.07	163.97	6.02	-53.0	-55.1	6.2	0.00e+00	0	45	104	0	78	17474
2026-01-27 20:06:43.07	163.99	6.11	-53.1	-55.2	6.2	0.00e+00	0	45	104	0	78	17623
2026-01-27 20:06:44.08	164.01	6.19	-53.2	-55.3	6.2	0.00e+00	0	45	104	0	78	17843
2026-01-27 20:06:45.09	164.03	6.28	-53.0	-55.1	6.2	0.00e+00	0	45	104	0	78	17478
2026-01-27 20:06:46.10	164.05	6.36	-53.0	-55.1	6.2	0.00e+00	0	45	104	0	78	17514
2026-01-27 20:06:47.11	164.07	6.45	-53.1	-55.2	6.2	0.00e+00	0	45	104	0	78	17570
2026-01-27 20:06:48.11	164.09	6.53	-53.2	-55.3	6.2	0.00e+00	0	45	104	0	78	17805
2026-01-27 20:06:49.11	164.11	6.62	-53.0	-55.1	6.2	0.00e+00	0	45	104	0	78	17510
2026-01-27 20:06:50.12	164.13	6.71	-53.0	-55.1	6.2	0.00e+00	0	45	104	0	78	17499
2026-01-27 20:06:51.13	164.15	6.80	-53.1	-55.2	6.2	0.00e+00	0	45	104	0	78	17592
2026-01-27 20:06:52.13	164.17	6.88	-53.2	-55.3	6.2	0.00e+00	0	45	104	0	78	17876
2026-01-27 20:06:53.14	164.19	6.97	-53.0	-55.1	6.2	0.00e+00	0	45	104	0	78	17461
2026-01-27 20:06:54.15	164.21	7.06	-53.0	-55.1	6.2	0.00e+00	0	45	104	0	78	17502
2026-01-27 20:06:55.15	164.23	7.15	-53.1	-55.2	6.2	0.00e+00	0	45	104	0	78	17578
2026-01-27 20:06:56.16	164.25	7.24	-53.2	-55.3	6.2	0.00e+00	0	45	104	0	78	17845
2026-01-27 20:06:57.17	164.27	7.33	-53.0	-55.1	6.2	0.00e+00	0	45	104	0	78	17446
2026-01-27 20:06:58.17	164.30	7.42	-53.0	-55.1	6.2	0.00e+00	0	45	104	0	78	17539
2026-01-27 20:06:59.18	164.32	7.51	-53.1	-55.2	6.2	0.00e+00	0	45	104	0	78	17690
2026-01-27 20:07:00.19	164.34	7.60	-53.2	-55.3	6.2	0.00e+00	0	45	104	0	78	17789
2026-01-27 20:07:01.20	164.36	7.69	-53.0	-55.1	6.2	0.00e+00	0	45	104	0	78	17525
2026-01-27 20:07:02.20	164.38	7.78	-53.1	-55.2	6.2	0.00e+00	0	45	104	0	78	17612
2026-01-27 20:07:03.21	164.41	7.88	-53.1	-55.2	6.2	0.00e+00	0	45	104	0	78	17685
2026-01-27 20:07:04.21	164.43	7.97	-53.2	-55.3	6.2	0.00e+00	0	45	104	0	78	17872
2026-01-27 20:07:05.22	164.45	8.06	-53.1	-55.2	6.2	0.00e+00	0	45	104	0	78	17618
2026-01-27 20:07:06.23	164.47	8.16	-53.1	-55.2	6.2	0.00e+00	0	45	104	0	78	17600
2026-01-27 20:07:07.24	164.50	8.25	-50.1	-51.0	6.6	0.00e+00	0	45	104	0	72	15425
2026-01-27 20:07:08.25	164.52	8.35	-46.1	-46.6	6.7	0.00e+00	0	45	104	0	64	14617
2026-01-27 20:07:09.25	164.54	8.44	-46.1	-46.5	6.6	0.00e+00	0	45	104	0	64	14602
2026-01-27 20:07:10.26	164.56	8.54	-46.1	-46.5	6.6	0.00e+00	0	45	104	0	64	14492
2026-01-27 20:07:11.26	164.59	8.63	-45.9	-46.3	6.6	0.00e+00	0	45	104	0	63	15046
2026-01-27 20:07:12.27	164.61	8.73	-45.8	-46.2	6.6	0.00e+00	0	45	104	0	63	14898
2026-01-27 20:07:13.28	164.64	8.83	-49.5	-50.3	6.4	0.00e+00	0	45	104	0	71	15022
2026-01-27 20:07:14.29	164.66	8.92	-48.0	-48.5	6.5	0.00e+00	0	45	104	0	68	14597
2026-01-27 20:07:15.30	164.68	9.02	-48.8	-49.5	6.4	0.00e+00	0	45	104	0	69	15310
2026-01-27 20:07:16.31	164.71	9.12	-45.8	-46.3	6.6	0.00e+00	0	45	104	0	63	15002
2026-01-27 20:07:17.31	164.73	9.22	-45.6	-46.0	6.5	0.00e+00	0	45	104	0	63	14469
2026-01-27 20:07:18.32	164.76	9.32	-45.6	-46.0	6.6	0.00e+00	0	45	104	0	63	14486
2026-01-27 20:07:19.32	164.78	9.42	-45.6	-46.0	6.4	0.00e+00	0	45	104	0	63	14557
2026-01-27 20:07:20.33	164.81	9.52	-45.0	-45.3	6.8	0.00e+00	0	45	104	0	62	14232
2026-01-27 20:07:21.33	164.83	9.62	-49.1	-49.8	6.4	0.00e+00	0	45	104	0	70	15000
2026-01-27 20:07:22.34	164.86	9.72	-47.6	-48.1	6.6	0.00e+00	0	45	104	0	67	14761
2026-01-27 20:07:23.34	164.88	9.82	-39.3	-39.1	11.1	2.01e-02	0	45	104	0	49	14722
2026-01-27 20:07:24.35	164.91	9.93	-39.2	-39.1	14.1	9.27e-04	0	45	0	67108864	49	14670
2026-01-27 20:07:25.36	164.93	10.03	-37.8	-37.7	14.0	9.78e-04	0	45	0	184549376	46	14787
2026-01-27 20:07:26.37	164.96	10.13	-37.4	-37.3	14.2	6.31e-04	0	45	0	293601280	45	14977
2026-01-27 20:07:27.38	164.99	10.24	-37.6	-37.5	14.0	1.43e-03	0	45	0	419430400	47	13705
2026-01-27 20:07:28.39	165.01	10.35	-37.3	-37.1	14.3	5.91e-04	0	45	0	528482304	45	14772
2026-01-27 20:07:29.39	165.04	10.45	-36.5	-36.4	14.7	3.85e-04	0	46	0	637534208	44	14302
2026-01-27 20:07:30.39	165.07	10.56	-36.4	-36.3	14.8	4.37e-04	0	46	0	754974720	44	14145
2026-01-27 20:07:31.40	165.09	10.66	-36.5	-36.3	14.8	2.86e-04	0	45	0	864026624	43	15103
2026-01-27 20:07:32.41	165.12	10.77	-36.3	-36.2	14.9	2.94e-04	0	45	0	981467136	43	14856
2026-01-27 20:07:33.41	165.15	10.88	-36.5	-36.4	14.8	3.62e-04	0	46	0	1090519040	44	14329
2026-01-27 20:07:34.42	165.17	10.99	-36.2	-36.0	15.0	2.54e-04	0	45	0	1207959552	43	14567
2026-01-27 20:07:35.43	165.20	11.10	-35.9	-35.8	15.2	1.47e-04	0	46	0	1317011456	43	14131
2026-01-27 20:07:36.43	165.23	11.20	-35.0	-34.9	15.8	6.86e-05	0	45	0	1426063360	42	13510
2026-01-27 20:07:37.44	165.26	11.32	-34.6	-34.4	16.0	4.00e-05	0	46	0	1543503872	40	14417
2026-01-27 20:07:38.44	165.29	11.43	-34.2	-34.0	16.2	1.71e-05	0	46	0	1652555776	39	14601
2026-01-27 20:07:39.45	165.32	11.54	-34.2	-34.0	16.3	3.43e-05	0	45	0	1769996288	39	14578
2026-01-27 20:07:40.46	165.34	11.65	-33.9	-33.8	16.4	2.28e-05	0	46	0	1879048192	39	14191
2026-01-27 20:07:41.47	165.37	11.76	-32.9	-32.7	16.8	0.00e+00	0	46	0	1988100096	37	14071
2026-01-27 20:07:42.48	165.40	11.88	-32.2	-32.1	17.0	1.90e-06	0	46	0	2105540608	36	13858
2026-01-27 20:07:43.49	165.43	11.99	-29.4	-29.3	16.8	5.70e-06	0	46	0	2231369728	30	14131
2026-01-27 20:07:44.49	165.46	12.11	-29.4	-29.2	16.7	1.90e-06	0	46	0	2340421632	30	14107
2026-01-27 20:07:45.50	165.49	12.22	-29.3	-29.1	16.8	5.70e-06	0	46	0	2449473536	30	13874
2026-01-27 20:07:46.51	165.52	12.34	-29.1	-28.9	16.7	1.14e-05	0	46	0	2566914048	30	13629
2026-01-27 20:07:47.52	165.55	12.46	-29.1	-28.9	16.6	5.70e-06	0	46	0	2675965952	30	13614
2026-01-27 20:07:48.52	165.58	12.57	-29.0	-28.9	16.7	7.60e-06	0	46	0	2793406464	30	13539
2026-01-27 20:07:49.53	165.62	12.69	-29.1	-28.9	16.6	1.14e-05	0	46	0	2902458368	30	13623
2026-01-27 20:07:50.54	165.65	12.81	-29.1	-28.9	16.6	1.90e-06	0	46	0	3011510272	30	13582
2026-01-27 20:07:51.55	165.68	12.93	-28.9	-28.7	16.6	5.70e-06	0	46	0	3128950784	29	14051
2026-01-27 20:07:52.55	165.71	13.05	-28.9	-28.8	16.7	7.60e-06	0	46	0	3238002688	29	14112
2026-01-27 20:07:53.56	165.74	13.18	-28.8	-28.6	16.7	3.80e-06	0	46	0	3355443200	29	13914
2026-01-27 20:07:54.57	165.78	13.30	-28.8	-28.7	16.6	3.80e-06	0	46	0	3464495104	29	14031
2026-01-27 20:07:55.57	165.81	13.42	-28.6	-28.5	16.8	5.70e-06	0	46	0	3581935616	29	13696
2026-01-27 20:07:56.58	165.84	13.55	-28.7	-28.6	16.8	3.80e-06	0	46	0	3690987520	29	13838
2026-01-27 20:07:57.59	165.87	13.67	-28.6	-28.5	17.0	3.80e-06	0	46	0	3816816640	29	13675
2026-01-27 20:07:58.59	165.91	13.80	-28.6	-28.5	17.1	1.90e-06	0	46	0	3925868544	29	13674
2026-01-27 20:07:59.60	165.94	13.92	-28.6	-28.5	17.1	0.00e+00	0	46	0	4043309056	29	13684
2026-01-27 20:08:00.61	165.98	14.05	-28.7	-28.5	17.1	1.90e-06	0	46	0	4152360960	29	13731
2026-01-27 20:08:01.61	166.01	14.18	-28.5	-28.3	17.2	1.90e-06	0	46	0	4261412864	28	14212
2026-01-27 20:08:02.62	166.05	14.31	-28.4	-28.2	17.0	3.80e-06	0	46	0	4378853376	28	14093
2026-01-27 20:08:03.63	166.08	14.44	-28.3	-28.2	17.2	0.00e+00	0	46	0	4487905280	28	13986
2026-01-27 20:08:04.64	166.12	14.57	-28.3	-28.1	17.0	0.00e+00	0	46	0	4605345792	28	13908
2026-01-27 20:08:05.65	166.15	14.70	-28.2	-28.1	16.9	3.80e-06	0	46	0	4714397696	28	13838
2026-01-27 20:08:06.65	166.19	14.83	-28.3	-28.1	16.9	7.60e-06	0	46	0	4823449600	28	13855
2026-01-27 20:08:07.66	166.23	14.97	-28.2	-28.0	16.8	1.90e-06	0	46	0	4940890112	28	13704
2026-01-27 20:08:08.67	166.26	15.10	-28.2	-28.0	16.7	1.90e-06	0	46	0	5049942016	28	13714
2026-01-27 20:08:09.67	166.30	15.23	-28.0	-27.9	16.8	3.80e-06	0	46	0	5167382528	28	13519
2026-01-27 20:08:10.68	166.34	15.37	-28.1	-28.0	16.8	1.90e-06	0	46	0	5284823040	28	13699
2026-01-27 20:08:11.69	166.37	15.51	-28.1	-28.0	17.0	1.90e-06	0	46	0	5402263552	28	13639
2026-01-27 20:08:12.70	166.41	15.65	-28.0	-27.9	17.2	0.00e+00	0	46	0	5511315456	27	14295
2026-01-27 20:08:13.71	166.45	15.79	-27.9	-27.8	17.3	1.90e-06	0	46	0	5628755968	27	14138
2026-01-27 20:08:14.72	166.49	15.93	-28.0	-27.9	17.3	0.00e+00	0	46	0	5737807872	27	14347
2026-01-27 20:08:15.72	166.53	16.07	-28.1	-27.9	17.3	1.90e-06	0	46	0	5846859776	27	14433
2026-01-27 20:08:16.73	166.57	16.21	-28.0	-27.8	17.5	0.00e+00	0	46	0	5964300288	27	14194
2026-01-27 20:08:17.73	166.61	16.35	-27.8	-27.6	17.5	1.90e-06	0	46	0	6073352192	27	13928
2026-01-27 20:08:18.74	166.65	16.50	-27.7	-27.6	17.3	1.90e-06	0	46	0	6190792704	27	13799
2026-01-27 20:08:19.75	166.69	16.64	-27.8	-27.6	17.2	0.00e+00	0	46	0	6299844608	27	13884
2026-01-27 20:08:20.75	166.73	16.79	-27.7	-27.5	17.1	1.90e-06	0	46	0	6408896512	27	13781
2026-01-27 20:08:21.76	166.77	16.94	-27.7	-27.5	17.0	0.00e+00	0	46	0	6526337024	27	13743
2026-01-27 20:08:22.77	166.82	17.09	-27.7	-27.6	17.0	1.90e-06	0	46	0	6635388928	27	13796
2026-01-27 20:08:23.77	166.86	17.24	-27.4	-27.2	17.0	0.00e+00	0	46	0	6752829440	26	14100
2026-01-27 20:08:24.78	166.90	17.39	-27.5	-27.3	17.1	0.00e+00	0	46	0	6870269952	26	14264
2026-01-27 20:08:25.79	166.95	17.54	-27.4	-27.3	17.3	0.00e+00	0	46	0	6987710464	26	14154
2026-01-27 20:08:26.79	166.99	17.69	-27.5	-27.3	17.5	0.00e+00	0	46	0	7096762368	26	14241
2026-01-27 20:08:27.81	167.04	17.85	-27.2	-27.1	17.6	0.00e+00	0	46	0	7214202880	26	13844
2026-01-27 20:08:28.81	167.08	18.00	-27.3	-27.1	17.8	0.00e+00	0	46	0	7323254784	26	13901
2026-01-27 20:08:29.82	167.13	18.16	-27.3	-27.2	17.7	0.00e+00	0	46	0	7440695296	26	14006
2026-01-27 20:08:30.83	167.17	18.32	-27.2	-27.1	17.7	0.00e+00	0	46	0	7549747200	26	13858
2026-01-27 20:08:31.84	167.22	18.48	-27.3	-27.1	17.7	0.00e+00	0	46	0	7658799104	26	13921
2026-01-27 20:08:32.85	167.27	18.64	-27.0	-26.8	17.7	0.00e+00	0	46	0	7776239616	26	13467
2026-01-27 20:08:33.86	167.31	18.80	-27.0	-26.9	17.5	0.00e+00	0	46	0	7885291520	25	14324
2026-01-27 20:08:34.87	167.36	18.97	-27.0	-26.9	17.5	0.00e+00	0	46	0	8002732032	25	14317
2026-01-27 20:08:35.88	167.41	19.13	-26.7	-26.6	17.6	0.00e+00	0	46	0	8120172544	25	13845
2026-01-27 20:08:36.89	167.46	19.30	-26.9	-26.7	17.6	0.00e+00	0	46	0	8237613056	25	14001
2026-01-27 20:08:37.89	167.51	19.46	-26.7	-26.5	17.6	0.00e+00	0	47	0	8346664960	25	13777
2026-01-27 20:08:38.90	167.56	19.63	-26.7	-26.6	17.8	0.00e+00	0	46	0	8464105472	25	13802
2026-01-27 20:08:39.91	167.61	19.80	-26.6	-26.5	17.9	0.00e+00	0	46	0	8573157376	25	13643
2026-01-27 20:08:40.92	167.66	19.98	-26.6	-26.4	18.0	0.00e+00	0	46	0	8682209280	25	13612
2026-01-27 20:08:41.93	167.72	20.15	-26.7	-26.5	18.0	0.00e+00	0	46	0	8799649792	25	13743
2026-01-27 20:08:42.93	167.77	20.32	-26.4	-26.3	18.1	0.00e+00	0	46	0	8908701696	24	14119
2026-01-27 20:08:43.94	167.82	20.50	-26.5	-26.4	17.9	0.00e+00	0	46	0	9026142208	24	14283
2026-01-27 20:08:44.95	167.88	20.68	-26.4	-26.2	17.9	0.00e+00	0	46	0	9135194112	24	14054
2026-01-27 20:08:45.96	167.93	20.86	-26.1	-26.0	17.9	0.00e+00	0	46	0	9244246016	24	13650
2026-01-27 20:08:46.96	167.99	21.04	-26.1	-25.9	17.8	0.00e+00	0	46	0	9361686528	24	13601
2026-01-27 20:08:47.97	168.04	21.22	-26.2	-26.1	17.8	0.00e+00	0	46	0	9470738432	24	13830
2026-01-27 20:08:48.98	168.10	21.41	-25.9	-25.8	18.0	0.00e+00	0	46	0	9596567552	23	14129
2026-01-27 20:08:49.99	168.16	21.59	-26.0	-25.8	18.1	0.00e+00	0	46	0	9705619456	23	14179
2026-01-27 20:08:51.00	168.21	21.78	-26.0	-25.8	18.2	0.00e+00	0	46	0	9823059968	23	14176
2026-01-27 20:08:52.01	168.27	21.97	-25.9	-25.7	18.2	0.00e+00	0	46	0	9932111872	23	14099
2026-01-27 20:08:53.01	168.33	22.16	-25.7	-25.5	18.2	0.00e+00	0	46	0	10049552384	23	13707
2026-01-27 20:08:54.02	168.39	22.35	-25.7	-25.5	18.2	0.00e+00	0	46	0	10158604288	23	13720
2026-01-27 20:08:55.02	168.45	22.54	-25.7	-25.5	18.1	0.00e+00	0	47	0	10276044800	23	13730
2026-01-27 20:08:56.03	168.52	22.74	-25.4	-25.2	18.3	0.00e+00	0	46	0	10385096704	22	14096
2026-01-27 20:08:57.04	168.58	22.94	-25.4	-25.2	18.3	0.00e+00	0	46	0	10494148608	22	14039
2026-01-27 20:08:58.05	168.64	23.14	-25.3	-25.2	18.5	0.00e+00	0	46	0	10611589120	22	13974
2026-01-27 20:08:59.05	168.71	23.34	-25.2	-25.0	18.5	0.00e+00	0	46	0	10720641024	22	13758
2026-01-27 20:09:00.06	168.77	23.54	-25.1	-25.0	18.6	0.00e+00	0	46	0	10838081536	22	13688
2026-01-27 20:09:01.06	168.84	23.74	-25.2	-25.1	18.6	0.00e+00	0	46	0	10947133440	22	13798
2026-01-27 20:09:02.07	168.91	23.95	-25.1	-24.9	18.6	0.00e+00	0	46	0	11056185344	22	13611
2026-01-27 20:09:03.08	168.98	24.16	-25.0	-24.9	18.5	0.00e+00	0	46	0	11182014464	22	13492
2026-01-27 20:09:04.09	169.04	24.37	-25.0	-24.8	18.6	0.00e+00	0	46	0	11299454976	21	14243
2026-01-27 20:09:05.10	169.12	24.59	-24.8	-24.6	18.6	0.00e+00	0	46	0	11408506880	21	13860
2026-01-27 20:09:06.11	169.19	24.80	-24.8	-24.6	18.7	0.00e+00	0	46	0	11517558784	21	13923
2026-01-27 20:09:07.11	169.26	25.02	-24.7	-24.6	18.6	0.00e+00	0	46	0	11634999296	21	13793
2026-01-27 20:09:08.12	169.33	25.24	-24.6	-24.5	18.7	0.00e+00	0	46	0	11744051200	21	13643
2026-01-27 20:09:09.13	169.41	25.46	-24.5	-24.4	18.7	0.00e+00	0	47	0	11861491712	21	13500
2026-01-27 20:09:10.13	169.48	25.68	-24.5	-24.4	18.6	0.00e+00	0	46	0	11970543616	21	13504
2026-01-27 20:09:11.14	169.56	25.91	-24.4	-24.2	18.7	0.00e+00	0	46	0	12079595520	20	14065
2026-01-27 20:09:12.15	169.64	26.14	-24.4	-24.2	18.7	0.00e+00	0	46	0	12197036032	20	14062
2026-01-27 20:09:13.16	169.71	26.37	-24.4	-24.2	18.6	0.00e+00	0	46	0	12306087936	20	14095
2026-01-27 20:09:14.17	169.79	26.60	-24.3	-24.1	18.6	0.00e+00	0	46	0	12423528448	20	13918
2026-01-27 20:09:15.18	169.88	26.84	-24.2	-24.0	18.6	0.00e+00	0	46	0	12540968960	20	13784
2026-01-27 20:09:16.19	169.96	27.08	-24.1	-23.9	18.6	0.00e+00	0	46	0	12658409472	20	13576
2026-01-27 20:09:17.20	170.04	27.32	-24.1	-23.9	18.5	0.00e+00	0	46	0	12767461376	20	13571
2026-01-27 20:09:18.21	170.13	27.56	-24.0	-23.9	18.5	0.00e+00	0	46	0	12884901888	20	13503
2026-01-27 20:09:19.22	170.21	27.80	-24.0	-23.9	18.5	0.00e+00	0	46	0	12993953792	19	14311
2026-01-27 20:09:20.23	170.30	28.05	-24.1	-24.0	18.5	0.00e+00	0	46	0	13103005696	19	14481
2026-01-27 20:09:21.23	170.39	28.30	-24.1	-23.9	18.6	0.00e+00	0	46	0	13220446208	19	14405
2026-01-27 20:09:22.25	170.48	28.56	-24.0	-23.8	18.6	0.00e+00	0	46	0	13329498112	19	14195
2026-01-27 20:09:23.25	170.57	28.81	-23.9	-23.8	18.6	0.00e+00	0	46	0	13446938624	19	14142
2026-01-27 20:09:24.26	170.67	29.07	-23.8	-23.6	18.6	0.00e+00	0	46	0	13555990528	19	13932
2026-01-27 20:09:25.26	170.76	29.33	-23.8	-23.6	18.6	0.00e+00	0	46	0	13673431040	19	13878
2026-01-27 20:09:26.27	170.86	29.59	-23.7	-23.5	18.7	0.00e+00	0	46	0	13782482944	19	13741
2026-01-27 20:09:27.28	170.96	29.86	-23.5	-23.4	18.7	0.00e+00	0	46	0	13908312064	19	13522
2026-01-27 20:09:28.29	171.06	30.13	-23.6	-23.4	18.7	0.00e+00	0	46	0	14017363968	19	13577
2026-01-27 20:09:29.30	171.16	30.40	-23.7	-23.5	18.6	0.00e+00	0	46	0	14134804480	19	13712
2026-01-27 20:09:30.31	171.27	30.68	-23.4	-23.2	18.8	0.00e+00	0	46	0	14243856384	18	14067
2026-01-27 20:09:31.31	171.37	30.95	-23.4	-23.2	18.7	0.00e+00	0	46	0	14352908288	18	14024
2026-01-27 20:09:32.32	171.48	31.23	-23.1	-23.0	18.9	0.00e+00	0	46	0	14470348800	18	13683
2026-01-27 20:09:33.33	171.59	31.52	-23.0	-22.8	18.7	0.00e+00	0	46	0	14579400704	18	13431
2026-01-27 20:09:34.33	171.70	31.80	-23.0	-22.9	18.6	0.00e+00	0	47	0	14696841216	17	14277
2026-01-27 20:09:35.34	171.81	32.10	-22.9	-22.7	18.7	0.00e+00	0	46	0	14805893120	17	14018
2026-01-27 20:09:36.35	171.93	32.39	-22.6	-22.5	18.6	0.00e+00	0	47	0	14914945024	17	13649
2026-01-27 20:09:37.36	172.05	32.69	-22.7	-22.6	18.7	0.00e+00	0	47	0	15032385536	17	13800
2026-01-27 20:09:38.36	172.17	32.98	-22.7	-22.6	18.8	0.00e+00	0	46	0	15141437440	17	13836
2026-01-27 20:09:39.37	172.29	33.29	-22.5	-22.3	18.8	0.00e+00	0	46	0	15258877952	17	13429
2026-01-27 20:09:40.38	172.42	33.60	-22.4	-22.2	18.8	0.00e+00	0	47	0	15376318464	16	14082
2026-01-27 20:09:41.39	172.54	33.91	-22.3	-22.2	18.9	0.00e+00	0	47	0	15493758976	16	13998
2026-01-27 20:09:42.40	172.67	34.22	-22.5	-22.3	18.9	0.00e+00	0	46	0	15602810880	16	14192
2026-01-27 20:09:43.41	172.81	34.54	-22.4	-22.2	18.9	0.00e+00	0	46	0	15720251392	16	14009
2026-01-27 20:09:44.41	172.94	34.86	-22.1	-22.0	18.8	0.00e+00	0	46	0	15829303296	16	13670
2026-01-27 20:09:45.43	173.08	35.19	-22.2	-22.0	18.8	0.00e+00	0	47	0	15938355200	16	13720
2026-01-27 20:09:46.43	173.22	35.51	-22.2	-22.0	18.8	0.00e+00	0	47	0	16055795712	16	13693
2026-01-27 20:09:47.44	173.36	35.85	-22.1	-21.9	18.8	0.00e+00	0	47	0	16164847616	16	13520
2026-01-27 20:09:48.45	173.51	36.18	-22.0	-21.9	18.8	0.00e+00	0	47	0	16282288128	16	13515
2026-01-27 20:09:49.46	173.66	36.52	-21.9	-21.7	18.9	0.00e+00	0	46	0	16391340032	15	14057
2026-01-27 20:09:50.47	173.81	36.87	-21.7	-21.6	18.9	0.00e+00	0	46	0	16500391936	15	13792
2026-01-27 20:09:51.48	173.97	37.21	-21.6	-21.4	18.7	0.00e+00	0	47	0	16626221056	15	13630
2026-01-27 20:09:52.49	174.13	37.57	-21.4	-21.3	18.6	0.00e+00	0	47	0	16743661568	14	14120
2026-01-27 20:09:53.50	174.30	37.92	-21.4	-21.2	18.7	0.00e+00	0	47	0	16852713472	14	14102
2026-01-27 20:09:54.50	174.46	38.28	-21.4	-21.3	18.6	0.00e+00	0	46	0	16961765376	14	14116
2026-01-27 20:09:55.51	174.63	38.64	-21.2	-21.0	18.6	0.00e+00	0	46	0	17079205888	14	13741
2026-01-27 20:09:56.52	174.81	39.01	-21.2	-21.0	18.5	0.00e+00	0	46	0	17188257792	14	13768
2026-01-27 20:09:57.53	174.99	39.39	-21.1	-20.9	18.4	0.00e+00	0	46	0	17305698304	14	13550
2026-01-27 20:09:58.54	175.17	39.76	-21.1	-21.0	18.4	0.00e+00	0	46	0	17414750208	14	13668
2026-01-27 20:09:59.55	175.36	40.14	-20.9	-20.8	18.5	0.00e+00	0	46	0	17532190720	13	14149
2026-01-27 20:10:00.55	175.55	40.53	-20.9	-20.8	18.3	0.00e+00	0	47	0	17641242624	13	14120
2026-01-27 20:10:01.55	175.75	40.91	-20.9	-20.7	18.4	0.00e+00	0	46	0	17750294528	13	14032
2026-01-27 20:10:02.56	175.95	41.31	-20.7	-20.6	18.3	0.00e+00	0	46	0	17867735040	13	13828
2026-01-27 20:10:03.57	176.16	41.70	-20.6	-20.5	18.4	0.00e+00	0	47	0	17976786944	13	13641
2026-01-27 20:10:04.58	176.37	42.11	-20.5	-20.3	18.4	0.00e+00	0	46	0	18102616064	13	13465
2026-01-27 20:10:05.58	176.59	42.51	-20.4	-20.3	18.3	0.00e+00	0	46	0	18211667968	12	14146
2026-01-27 20:10:06.59	176.81	42.92	-20.5	-20.3	18.3	0.00e+00	0	47	0	18329108480	12	14199
2026-01-27 20:10:07.60	177.04	43.34	-20.2	-20.1	18.4	0.00e+00	0	47	0	18438160384	12	13847
2026-01-27 20:10:08.61	177.28	43.76	-20.2	-20.0	18.4	0.00e+00	0	47	0	18555600896	12	13775
2026-01-27 20:10:09.61	177.52	44.19	-20.1	-20.0	18.4	0.00e+00	0	46	0	18664652800	12	13695
2026-01-27 20:10:10.62	177.77	44.62	-20.2	-20.1	18.5	0.00e+00	0	46	0	18773704704	12	13815
2026-01-27 20:10:11.63	178.02	45.05	-20.1	-20.0	18.5	0.00e+00	0	46	0	18891145216	12	13648
2026-01-27 20:10:12.64	178.29	45.49	-20.0	-19.8	18.4	0.00e+00	0	46	0	19000197120	12	13437
2026-01-27 20:10:13.64	178.56	45.93	-20.0	-19.9	18.5	0.00e+00	0	46	0	19117637632	11	14311
2026-01-27 20:10:14.65	178.84	46.38	-20.0	-19.8	18.5	0.00e+00	0	46	0	19226689536	11	14219
2026-01-27 20:10:15.66	179.12	46.84	-20.0	-19.8	18.7	0.00e+00	0	47	0	19335741440	11	14220
2026-01-27 20:10:16.67	179.42	47.30	-19.9	-19.7	18.6	0.00e+00	0	46	0	19453181952	11	14080
2026-01-27 20:10:17.67	179.72	47.76	-19.9	-19.7	18.6	0.00e+00	0	47	0	19562233856	11	14020
2026-01-27 20:10:18.68	180.04	48.23	-19.8	-19.7	18.6	0.00e+00	0	46	0	19688062976	11	13957
2026-01-27 20:10:19.69	180.36	48.70	-20.0	-19.8	18.6	0.00e+00	0	46	0	19797114880	11	14188
2026-01-27 20:10:20.69	180.69	49.17	-19.7	-19.5	18.5	0.00e+00	0	46	0	19914555392	11	13745
2026-01-27 20:10:21.70	181.04	49.66	-19.6	-19.5	18.5	0.00e+00	0	46	0	20023607296	11	13639
2026-01-27 20:10:22.71	181.39	50.14	-19.5	-19.4	18.5	0.00e+00	0	46	0	20141047808	11	13515
2026-01-27 20:10:23.72	181.76	50.64	-19.5	-19.4	18.6	0.00e+00	0	46	0	20250099712	11	13529
2026-01-27 20:10:24.73	182.14	51.13	-19.5	-19.3	18.7	0.00e+00	0	47	0	20359151616	11	13456
2026-01-27 20:10:25.73	182.53	51.63	-19.3	-19.2	18.6	0.00e+00	0	46	0	20476592128	10	13957
2026-01-27 20:10:26.74	182.94	52.13	-19.3	-19.1	18.5	0.00e+00	0	47	0	20585644032	10	13873
2026-01-27 20:10:27.74	183.36	52.64	-19.3	-19.1	18.5	0.00e+00	0	47	0	20703084544	10	13928
2026-01-27 20:10:28.75	183.79	53.15	-19.2	-19.0	18.6	0.00e+00	0	46	0	20812136448	10	13776
2026-01-27 20:10:29.75	184.24	53.67	-19.1	-19.0	18.6	0.00e+00	0	46	0	20929576960	10	13657
2026-01-27 20:10:30.75	184.71	54.18	-19.2	-19.0	18.5	0.00e+00	0	46	0	21038628864	10	13716
2026-01-27 20:10:31.76	185.19	54.71	-19.4	-19.2	18.8	0.00e+00	0	46	0	21147680768	10	14038
2026-01-27 20:10:32.77	185.70	55.24	-19.1	-18.9	18.7	0.00e+00	0	47	0	21265121280	10	13577
2026-01-27 20:10:33.78	186.22	55.77	-19.2	-19.0	18.5	0.00e+00	0	46	0	21390950400	10	13703
2026-01-27 20:10:34.78	186.76	56.30	-18.9	-18.7	18.3	0.00e+00	0	47	0	21500002304	9	14069
2026-01-27 20:10:35.79	187.33	56.84	-18.9	-18.8	18.4	0.00e+00	0	47	0	21609054208	9	14129
2026-01-27 20:10:36.80	187.92	57.38	-18.8	-18.7	18.2	0.00e+00	0	46	0	21726494720	9	13956
2026-01-27 20:10:37.80	188.52	57.92	-18.8	-18.7	18.1	0.00e+00	0	47	0	21835546624	9	14002
2026-01-27 20:10:38.81	189.16	58.47	-18.7	-18.5	18.0	0.00e+00	0	47	0	21952987136	9	13739
2026-01-27 20:10:39.82	189.83	59.02	-18.7	-18.5	17.9	0.00e+00	0	47	0	22062039040	9	13716
2026-01-27 20:10:40.83	190.52	59.57	-18.7	-18.6	18.2	0.00e+00	0	46	0	22171090944	9	13797
2026-01-27 20:10:41.83	191.24	60.12	-18.6	-18.4	17.8	0.00e+00	0	47	0	22288531456	9	13551
2026-01-27 20:10:42.84	191.99	60.67	-18.5	-18.3	17.8	0.00e+00	0	46	0	22397583360	9	13446
2026-01-27 20:10:43.85	192.79	61.23	-18.4	-18.2	17.9	0.00e+00	0	46	0	22515023872	8	14067
2026-01-27 20:10:44.85	193.60	61.78	-18.3	-18.1	17.5	0.00e+00	0	47	0	22624075776	8	13931
2026-01-27 20:10:45.86	194.47	62.33	-18.2	-18.0	17.3	0.00e+00	0	47	0	22733127680	8	13736
2026-01-27 20:10:46.87	195.37	62.89	-18.2	-18.1	17.3	0.00e+00	0	46	0	22850568192	8	13800
2026-01-27 20:10:47.87	196.31	63.43	-18.2	-18.0	17.3	0.00e+00	0	46	0	22959620096	8	13768
2026-01-27 20:10:48.88	197.30	63.98	-18.2	-18.0	17.2	0.00e+00	0	46	0	23077060608	8	13774
2026-01-27 20:10:49.88	198.34	64.52	-18.0	-17.9	16.5	0.00e+00	0	47	0	23194501120	8	13496
2026-01-27 20:10:50.89	199.43	65.07	-18.0	-17.8	16.6	0.00e+00	0	46	0	23311941632	7	14237
2026-01-27 20:10:51.90	200.57	65.61	-18.0	-17.8	16.6	0.00e+00	0	46	0	23420993536	7	14175
2026-01-27 20:10:52.91	201.78	66.14	-18.0	-17.9	16.6	0.00e+00	0	46	0	23538434048	7	14289
2026-01-27 20:10:53.91	203.03	66.67	-17.9	-17.8	16.6	0.00e+00	0	46	0	23647485952	7	14144
2026-01-27 20:10:54.92	204.36	67.19	-18.0	-17.8	16.7	0.00e+00	0	46	0	23764926464	7	14228
2026-01-27 20:10:55.93	205.75	67.70	-18.0	-17.8	16.6	0.00e+00	0	47	0	23873978368	7	14229
2026-01-27 20:10:56.93	207.20	68.20	-18.0	-17.8	16.6	0.00e+00	0	47	0	23983030272	7	14266
2026-01-27 20:10:57.94	208.75	68.69	-17.9	-17.7	16.5	0.00e+00	0	46	0	24100470784	7	14083
2026-01-27 20:10:58.95	210.36	69.17	-17.8	-17.7	16.7	0.00e+00	0	47	0	24209522688	7	13967
2026-01-27 20:10:59.95	212.05	69.63	-17.8	-17.7	16.9	0.00e+00	0	46	0	24326963200	7	13951
2026-01-27 20:11:00.96	213.83	70.09	-17.8	-17.6	17.1	0.00e+00	0	47	0	24436015104	7	13911
2026-01-27 20:11:01.97	215.70	70.52	-17.8	-17.6	16.9	0.00e+00	0	47	0	24545067008	7	13852
2026-01-27 20:11:02.98	217.66	70.94	-17.8	-17.6	16.8	0.00e+00	0	46	0	24662507520	7	13911
2026-01-27 20:11:03.99	219.72	71.34	-17.8	-17.6	16.8	0.00e+00	0	47	0	24788336640	7	13914
2026-01-27 20:11:04.99	221.84	71.71	-17.8	-17.6	17.2	0.00e+00	0	46	0	24897388544	7	13867
2026-01-27 20:11:06.00	224.08	72.06	-17.8	-17.6	16.9	0.00e+00	0	46	0	25006440448	7	13931
2026-01-27 20:11:07.01	226.40	72.39	-17.8	-17.6	17.2	0.00e+00	0	47	0	25123880960	7	13879
2026-01-27 20:11:08.02	228.82	72.69	-17.7	-17.6	17.3	0.00e+00	0	47	0	25232932864	7	13796
2026-01-27 20:11:09.03	231.32	72.96	-17.8	-17.6	17.2	0.00e+00	0	46	0	25350373376	7	13859
2026-01-27 20:11:10.03	233.88	73.19	-17.8	-17.6	17.3	0.00e+00	0	47	0	25459425280	7	13919
2026-01-27 20:11:11.03	236.51	73.40	-17.8	-17.6	17.2	0.00e+00	0	46	0	25568477184	7	13878
2026-01-27 20:11:12.04	239.22	73.57	-17.8	-17.6	17.3	0.00e+00	0	46	0	25685917696	7	13896
2026-01-27 20:11:13.05	241.99	73.71	-17.8	-17.6	17.5	0.00e+00	0	47	0	25794969600	7	13886
2026-01-27 20:11:14.06	244.81	73.81	-17.8	-17.6	17.1	0.00e+00	0	47	0	25912410112	7	13870
2026-01-27 20:11:15.06	247.62	73.87	-17.8	-17.6	17.4	0.00e+00	0	46	0	26021462016	7	13846
2026-01-27 20:11:16.06	250.45	73.90	-17.8	-17.6	17.6	0.00e+00	0	47	0	26130513920	7	13914
2026-01-27 20:11:17.07	253.31	73.88	-17.8	-17.7	17.3	0.00e+00	0	46	0	26247954432	7	13964
2026-01-27 20:11:18.08	256.16	73.83	-17.9	-17.8	17.3	0.00e+00	0	47	0	26357006336	7	14136
2026-01-27 20:11:19.08	258.96	73.74	-17.9	-17.7	17.8	0.00e+00	0	47	0	26482835456	7	14057
2026-01-27 20:11:20.09	261.74	73.62	-18.0	-17.8	17.6	0.00e+00	0	47	0	26591887360	7	14171
2026-01-27 20:11:21.09	264.45	73.46	-18.0	-17.8	17.5	0.00e+00	0	46	0	26709327872	7	14256
2026-01-27 20:11:22.09	267.10	73.27	-18.0	-17.8	17.6	0.00e+00	0	46	0	26818379776	7	14247
2026-01-27 20:11:23.10	269.70	73.04	-18.0	-17.8	17.7	0.00e+00	0	46	0	26935820288	7	14195
2026-01-27 20:11:24.10	272.21	72.78	-18.1	-17.9	17.8	0.00e+00	0	47	0	27044872192	7	14352
2026-01-27 20:11:25.11	274.65	72.49	-18.0	-17.9	17.9	0.00e+00	0	46	0	27162312704	7	14298
2026-01-27 20:11:26.12	277.01	72.17	-18.1	-18.0	17.8	0.00e+00	0	47	0	27271364608	7	14464
2026-01-27 20:11:27.13	279.27	71.83	-18.1	-17.9	17.9	0.00e+00	0	47	0	27380416512	7	14383
2026-01-27 20:11:28.13	281.42	71.46	-18.1	-17.9	18.1	0.00e+00	0	46	0	27497857024	7	14360
2026-01-27 20:11:29.14	283.50	71.07	-18.1	-18.0	18.1	0.00e+00	0	47	0	27606908928	7	14484
2026-01-27 20:11:30.14	285.48	70.67	-18.2	-18.0	18.1	0.00e+00	0	47	0	27724349440	7	14511
2026-01-27 20:11:31.14	287.36	70.24	-18.3	-18.2	18.2	0.00e+00	0	46	0	27833401344	7	14791
2026-01-27 20:11:32.15	289.17	69.79	-18.3	-18.1	18.4	0.00e+00	0	46	0	27942453248	7	14711
2026-01-27 20:11:33.16	290.90	69.33	-18.5	-18.3	18.4	0.00e+00	0	47	0	28059893760	7	15086
2026-01-27 20:11:34.17	292.54	68.86	-18.4	-18.2	18.3	0.00e+00	0	47	0	28168945664	7	14852
2026-01-27 20:11:35.17	294.09	68.37	-18.4	-18.2	18.2	0.00e+00	0	47	0	28286386176	7	14863
2026-01-27 20:11:36.17	295.57	67.88	-18.5	-18.3	18.6	0.00e+00	0	46	0	28395438080	7	15040
2026-01-27 20:11:37.18	296.99	67.37	-18.4	-18.2	18.7	0.00e+00	0	46	0	28521267200	7	14865
2026-01-27 20:11:38.18	298.32	66.86	-18.4	-18.2	18.5	0.00e+00	0	47	0	28630319104	7	14920
2026-01-27 20:11:39.18	299.60	66.34	-18.4	-18.3	18.5	0.00e+00	0	46	0	28747759616	7	14986
2026-01-27 20:11:40.19	300.82	65.81	-18.5	-18.4	18.7	0.00e+00	0	46	0	28856811520	7	15128
2026-01-27 20:11:41.20	301.99	65.27	-18.6	-18.4	18.5	0.00e+00	0	46	0	28965863424	7	15234
2026-01-27 20:11:42.20	303.09	64.73	-18.6	-18.5	18.8	0.00e+00	0	46	0	29083303936	7	15337
2026-01-27 20:11:43.21	304.15	64.19	-18.7	-18.5	18.7	0.00e+00	0	46	0	29192355840	7	15399
2026-01-27 20:11:44.22	305.15	63.64	-18.8	-18.7	18.8	0.00e+00	0	46	0	29309796352	8	14834
2026-01-27 20:11:45.23	306.12	63.09	-18.8	-18.6	19.0	0.00e+00	0	47	0	29418848256	8	14675
2026-01-27 20:11:46.23	307.03	62.54	-18.8	-18.7	18.9	0.00e+00	0	47	0	29527900160	8	14816
2026-01-27 20:11:47.24	307.91	61.99	-18.9	-18.7	19.1	0.00e+00	0	47	0	29645340672	8	14945
2026-01-27 20:11:48.25	308.74	61.43	-18.9	-18.7	19.2	0.00e+00	0	47	0	29754392576	8	14861
2026-01-27 20:11:49.26	309.55	60.88	-18.9	-18.7	19.1	0.00e+00	0	46	0	29871833088	8	14907
2026-01-27 20:11:50.27	310.31	60.33	-18.9	-18.8	19.3	0.00e+00	0	46	0	29980884992	8	14969
2026-01-27 20:11:51.27	311.04	59.78	-19.0	-18.9	19.4	0.00e+00	0	46	0	30098325504	8	15150
2026-01-27 20:11:52.28	311.75	59.23	-19.1	-19.0	19.3	0.00e+00	0	47	0	30207377408	8	15325
2026-01-27 20:11:53.29	312.42	58.68	-19.1	-18.9	19.3	0.00e+00	0	46	0	30333206528	8	15269
2026-01-27 20:11:54.29	313.06	58.14	-19.1	-18.9	19.5	0.00e+00	0	46	0	30442258432	8	15295
2026-01-27 20:11:55.30	313.68	57.59	-19.2	-19.0	19.6	0.00e+00	0	47	0	30559698944	9	14587
2026-01-27 20:11:56.31	314.28	57.05	-19.4	-19.2	19.4	0.00e+00	0	47	0	30668750848	9	14836
2026-01-27 20:11:57.31	314.85	56.52	-19.4	-19.3	18.7	0.00e+00	0	46	0	30777802752	9	14954
2026-01-27 20:11:58.32	315.40	55.98	-19.3	-19.2	18.5	0.00e+00	0	46	0	30895243264	9	14815
2026-01-27 20:11:59.33	315.93	55.45	-19.5	-19.3	18.4	0.00e+00	0	47	0	31004295168	9	15028
2026-01-27 20:12:00.33	316.44	54.92	-19.4	-19.2	18.5	0.00e+00	0	47	0	31121735680	9	14936
2026-01-27 20:12:01.34	316.93	54.40	-19.5	-19.3	18.4	0.00e+00	0	46	0	31230787584	9	15110
2026-01-27 20:12:02.34	317.40	53.88	-19.5	-19.4	18.4	0.00e+00	0	47	0	31339839488	9	15165
2026-01-27 20:12:03.35	317.86	53.36	-19.7	-19.5	18.4	0.00e+00	0	46	0	31457280000	9	15385
2026-01-27 20:12:04.36	318.30	52.85	-19.7	-19.5	18.5	0.00e+00	0	47	0	31566331904	9	15400
2026-01-27 20:12:05.37	318.73	52.34	-19.8	-19.6	18.7	0.00e+00	0	47	0	31683772416	10	14776
2026-01-27 20:12:06.38	319.14	51.83	-19.9	-19.7	18.6	0.00e+00	0	46	0	31801212928	10	14883
2026-01-27 20:12:07.39	319.54	51.33	-20.0	-19.8	18.7	0.00e+00	0	47	0	31918653440	10	15076
2026-01-27 20:12:08.39	319.92	50.84	-20.1	-19.9	18.5	0.00e+00	0	46	0	32027705344	10	15198
2026-01-27 20:12:09.40	320.29	50.34	-20.1	-19.9	18.5	0.00e+00	0	46	0	32145145856	10	15240
2026-01-27 20:12:10.40	320.65	49.86	-20.2	-20.0	18.5	0.00e+00	0	46	0	32254197760	10	15373
2026-01-27 20:12:11.41	321.00	49.38	-20.1	-20.0	18.4	0.00e+00	0	46	0	32363249664	10	15304
2026-01-27 20:12:12.41	321.33	48.90	-20.4	-20.2	18.5	0.00e+00	0	46	0	32480690176	11	14881
2026-01-27 20:12:13.42	321.66	48.43	-20.3	-20.2	18.4	0.00e+00	0	47	0	32589742080	11	14784
2026-01-27 20:12:14.42	321.97	47.96	-20.4	-20.3	18.6	0.00e+00	0	47	0	32707182592	11	14952
2026-01-27 20:12:15.43	322.28	47.50	-20.5	-20.3	18.5	0.00e+00	0	47	0	32816234496	11	15047
2026-01-27 20:12:16.43	322.58	47.04	-20.6	-20.4	18.7	0.00e+00	0	46	0	32933675008	11	15257
2026-01-27 20:12:17.44	322.87	46.59	-20.7	-20.5	18.6	0.00e+00	0	46	0	33042726912	11	15370
2026-01-27 20:12:18.44	323.15	46.14	-20.7	-20.5	18.7	0.00e+00	0	46	0	33151778816	12	14503
2026-01-27 20:12:19.45	323.42	45.70	-20.6	-20.4	18.8	0.00e+00	0	47	0	33269219328	12	14406
2026-01-27 20:12:20.46	323.69	45.26	-20.7	-20.6	18.7	0.00e+00	0	47	0	33378271232	12	14637
2026-01-27 20:12:21.47	323.95	44.82	-20.8	-20.6	18.7	0.00e+00	0	47	0	33495711744	12	14730
2026-01-27 20:12:22.47	324.20	44.39	-20.9	-20.8	18.8	0.00e+00	0	46	0	33604763648	12	14962
2026-01-27 20:12:23.48	324.44	43.97	-21.0	-20.8	18.7	0.00e+00	0	47	0	33730592768	12	15058
2026-01-27 20:12:24.49	324.68	43.54	-21.0	-20.8	18.7	0.00e+00	0	46	0	33839644672	12	15092
2026-01-27 20:12:25.49	324.91	43.13	-21.1	-21.0	18.6	0.00e+00	0	46	0	33957085184	12	15300
2026-01-27 20:12:26.49	325.14	42.72	-21.1	-21.0	18.7	0.00e+00	0	46	0	34066137088	12	15337
2026-01-27 20:12:27.50	325.36	42.31	-21.3	-21.2	18.7	0.00e+00	0	46	0	34175188992	13	14833
2026-01-27 20:12:28.49	325.57	41.91	-21.3	-21.1	18.4	0.00e+00	0	46	0	34292629504	13	14728
2026-01-27 20:12:29.50	325.78	41.52	-21.4	-21.3	18.6	0.00e+00	0	46	0	34401681408	13	14968
2026-01-27 20:12:30.51	325.98	41.12	-21.4	-21.3	18.5	0.00e+00	0	46	0	34519121920	13	14959
2026-01-27 20:12:31.51	326.18	40.73	-21.6	-21.4	18.4	0.00e+00	0	47	0	34628173824	13	15230
2026-01-27 20:12:32.52	326.37	40.35	-21.6	-21.4	18.4	0.00e+00	0	46	0	34737225728	13	15295
2026-01-27 20:12:33.52	326.56	39.97	-21.8	-21.7	18.5	0.00e+00	0	46	0	34854666240	14	14801
2026-01-27 20:12:34.53	326.75	39.59	-21.8	-21.6	18.6	0.00e+00	0	47	0	34963718144	14	14700
2026-01-27 20:12:35.54	326.93	39.22	-21.8	-21.7	18.7	0.00e+00	0	47	0	35081158656	14	14797
2026-01-27 20:12:36.55	327.11	38.85	-22.0	-21.8	18.8	0.00e+00	0	46	0	35190210560	14	15060
2026-01-27 20:12:37.55	327.28	38.49	-22.1	-22.0	18.7	0.00e+00	0	46	0	35299262464	14	15336
2026-01-27 20:12:38.56	327.45	38.13	-22.1	-21.9	18.9	0.00e+00	0	46	0	35416702976	14	15279
2026-01-27 20:12:39.56	327.61	37.77	-22.2	-22.0	18.7	0.00e+00	0	47	0	35525754880	14	15348
2026-01-27 20:12:40.57	327.77	37.42	-22.3	-22.1	18.8	0.00e+00	0	47	0	35643195392	15	14726
2026-01-27 20:12:41.58	327.93	37.07	-22.4	-22.2	18.8	0.00e+00	0	46	0	35760635904	15	14941
2026-01-27 20:12:42.58	328.09	36.73	-22.4	-22.3	18.8	0.00e+00	0	46	0	35878076416	15	14974
2026-01-27 20:12:43.59	328.24	36.39	-22.5	-22.4	18.8	0.00e+00	0	47	0	35987128320	15	15160
2026-01-27 20:12:44.59	328.38	36.05	-22.6	-22.4	18.8	0.00e+00	0	46	0	36104568832	15	15199
2026-01-27 20:12:45.60	328.53	35.72	-22.6	-22.5	18.8	0.00e+00	0	47	0	36213620736	15	15316
2026-01-27 20:12:46.60	328.67	35.39	-22.9	-22.7	18.9	0.00e+00	0	46	0	36331061248	16	14838
2026-01-27 20:12:47.61	328.81	35.07	-23.0	-22.8	18.8	0.00e+00	0	46	0	36440113152	16	15086
2026-01-27 20:12:48.61	328.95	34.75	-23.1	-22.9	18.9	0.00e+00	0	46	0	36549165056	16	15218
2026-01-27 20:12:49.62	329.08	34.43	-23.1	-22.9	18.8	0.00e+00	0	47	0	36666605568	16	15249
2026-01-27 20:12:50.63	329.21	34.11	-23.2	-23.1	18.9	0.00e+00	0	47	0	36775657472	17	14622
2026-01-27 20:12:51.63	329.34	33.80	-23.3	-23.1	18.9	0.00e+00	0	47	0	36893097984	17	14763
2026-01-27 20:12:52.64	329.47	33.50	-23.4	-23.2	18.8	0.00e+00	0	47	0	37002149888	17	14878
2026-01-27 20:12:53.64	329.59	33.19	-23.4	-23.3	18.9	0.00e+00	0	46	0	37111201792	17	14956
2026-01-27 20:12:54.65	329.71	32.89	-23.5	-23.3	18.8	0.00e+00	0	47	0	37228642304	17	15094
2026-01-27 20:12:55.66	329.83	32.59	-23.7	-23.5	18.7	0.00e+00	0	47	0	37337694208	17	15367
2026-01-27 20:12:56.66	329.95	32.30	-23.7	-23.5	18.9	0.00e+00	0	47	0	37455134720	17	15368
2026-01-27 20:12:57.67	330.06	32.01	-23.8	-23.6	19.0	0.00e+00	0	47	0	37564186624	18	14702
2026-01-27 20:12:58.67	330.17	31.72	-23.8	-23.7	18.9	0.00e+00	0	47	0	37673238528	18	14833
2026-01-27 20:12:59.68	330.28	31.44	-23.9	-23.8	18.8	0.00e+00	0	47	0	37799067648	18	14969
2026-01-27 20:13:00.69	330.39	31.16	-24.0	-23.8	18.8	0.00e+00	0	47	0	37916508160	18	15115
2026-01-27 20:13:01.69	330.50	30.88	-24.1	-23.9	18.9	0.00e+00	0	47	0	38025560064	18	15219
2026-01-27 20:13:02.69	330.60	30.61	-24.3	-24.1	18.9	0.00e+00	0	46	0	38134611968	19	14740
2026-01-27 20:13:03.70	330.71	30.33	-24.3	-24.1	18.9	0.00e+00	0	46	0	38252052480	19	14749
2026-01-27 20:13:04.71	330.81	30.06	-24.3	-24.2	18.9	0.00e+00	0	47	0	38361104384	19	14818
2026-01-27 20:13:05.72	330.91	29.79	-24.5	-24.3	18.9	0.00e+00	0	47	0	38478544896	19	15019
2026-01-27 20:13:06.73	331.01	29.53	-24.5	-24.4	18.8	0.00e+00	0	46	0	38587596800	19	15164
2026-01-27 20:13:07.73	331.10	29.27	-24.6	-24.5	18.9	0.00e+00	0	47	0	38696648704	19	15345
2026-01-27 20:13:08.74	331.20	29.01	-24.7	-24.6	18.9	0.00e+00	0	47	0	38814089216	20	14613
2026-01-27 20:13:09.75	331.29	28.75	-24.7	-24.6	18.9	0.00e+00	0	46	0	38923141120	20	14622
2026-01-27 20:13:10.75	331.38	28.50	-24.8	-24.6	18.9	0.00e+00	0	46	0	39040581632	20	14770
2026-01-27 20:13:11.76	331.47	28.25	-25.0	-24.8	18.7	0.00e+00	0	46	0	39149633536	20	15057
2026-01-27 20:13:12.76	331.56	28.00	-25.0	-24.8	18.7	0.00e+00	0	47	0	39267074048	20	15106
2026-01-27 20:13:13.77	331.65	27.76	-24.9	-24.8	18.8	0.00e+00	0	47	0	39376125952	20	15007
2026-01-27 20:13:14.78	331.73	27.51	-25.1	-25.0	18.7	0.00e+00	0	47	0	39501955072	20	15307
2026-01-27 20:13:15.79	331.82	27.27	-25.1	-24.9	18.7	0.00e+00	0	47	0	39611006976	20	15210
2026-01-27 20:13:16.80	331.90	27.03	-25.2	-25.0	18.8	0.00e+00	0	47	0	39728447488	20	15377
2026-01-27 20:13:17.80	331.98	26.80	-25.2	-25.1	18.6	0.00e+00	0	47	0	39837499392	21	14673
2026-01-27 20:13:18.80	332.06	26.57	-25.4	-25.2	18.6	0.00e+00	0	46	0	39946551296	21	14867
2026-01-27 20:13:19.81	332.14	26.34	-25.4	-25.2	18.4	0.00e+00	0	47	0	40063991808	21	14846
2026-01-27 20:13:20.82	332.22	26.11	-25.5	-25.3	18.4	0.00e+00	0	47	0	40173043712	21	15093
2026-01-27 20:13:21.82	332.30	25.88	-25.5	-25.3	18.4	0.00e+00	0	47	0	40290484224	21	15109
2026-01-27 20:13:22.83	332.37	25.66	-25.7	-25.5	18.5	0.00e+00	0	46	0	40399536128	21	15388
2026-01-27 20:13:23.84	332.45	25.44	-25.7	-25.5	18.4	0.00e+00	0	46	0	40508588032	22	14550
2026-01-27 20:13:24.84	332.52	25.22	-25.7	-25.6	18.6	0.00e+00	0	46	0	40626028544	22	14645
2026-01-27 20:13:25.84	332.60	25.00	-25.8	-25.7	18.3	0.00e+00	0	47	0	40735080448	22	14819
2026-01-27 20:13:26.85	332.67	24.78	-25.8	-25.7	18.2	0.00e+00	0	47	0	40852520960	22	14816
2026-01-27 20:13:27.85	332.74	24.57	-26.0	-25.8	18.3	0.00e+00	0	47	0	40961572864	22	15037
2026-01-27 20:13:28.86	332.81	24.36	-26.1	-25.9	18.3	0.00e+00	0	47	0	41070624768	22	15183
2026-01-27 20:13:29.87	332.88	24.15	-26.1	-25.9	18.2	0.00e+00	0	46	0	41188065280	22	15202
2026-01-27 20:13:30.88	332.95	23.94	-26.3	-26.1	18.1	0.00e+00	0	46	0	41313894400	23	14662
2026-01-27 20:13:31.88	333.01	23.74	-26.2	-26.0	18.0	0.00e+00	0	47	0	41422946304	23	14547
2026-01-27 20:13:32.89	333.08	23.53	-26.3	-26.1	17.9	0.00e+00	0	46	0	41531998208	23	14776
2026-01-27 20:13:33.89	333.14	23.33	-26.4	-26.2	17.9	0.00e+00	0	46	0	41649438720	23	14847
2026-01-27 20:13:34.90	333.21	23.13	-26.5	-26.4	17.8	0.00e+00	0	47	0	41758490624	23	15150
2026-01-27 20:13:35.90	333.27	22.94	-26.5	-26.4	17.8	0.00e+00	0	47	0	41875931136	23	15141
2026-01-27 20:13:36.91	333.33	22.74	-26.5	-26.4	17.8	0.00e+00	0	47	0	41984983040	23	15141
2026-01-27 20:13:37.91	333.40	22.55	-26.7	-26.5	17.5	0.00e+00	0	46	0	42094034944	23	15388
2026-01-27 20:13:38.91	333.46	22.35	-26.7	-26.5	17.5	0.00e+00	0	47	0	42211475456	24	14552
2026-01-27 20:13:39.92	333.52	22.16	-26.8	-26.7	17.4	0.00e+00	0	47	0	42320527360	24	14792
2026-01-27 20:13:40.93	333.58	21.97	-27.0	-26.8	17.4	0.00e+00	0	46	0	42437967872	24	15088
2026-01-27 20:13:41.93	333.64	21.79	-27.0	-26.8	17.5	0.00e+00	0	47	0	42547019776	24	15116
2026-01-27 20:13:42.94	333.69	21.60	-27.0	-26.8	17.6	0.00e+00	0	46	0	42664460288	24	15045
2026-01-27 20:13:43.95	333.75	21.41	-27.0	-26.8	17.5	0.00e+00	0	47	0	42773512192	24	15102
2026-01-27 20:13:44.95	333.81	21.23	-27.1	-26.9	17.4	1.90e-06	0	47	0	42882564096	24	15293
2026-01-27 20:13:45.96	333.86	21.05	-27.1	-27.0	17.4	0.00e+00	0	47	0	43000004608	24	15309
2026-01-27 20:13:46.97	333.92	20.87	-27.3	-27.1	17.4	1.90e-06	0	47	0	43109056512	25	14697
2026-01-27 20:13:47.97	333.97	20.69	-27.3	-27.1	17.4	0.00e+00	0	46	0	43226497024	25	14749
2026-01-27 20:13:48.97	334.03	20.52	-27.3	-27.2	17.4	0.00e+00	0	47	0	43335548928	25	14809
2026-01-27 20:13:49.98	334.08	20.34	-27.5	-27.4	17.2	0.00e+00	0	47	0	43461378048	25	15151
2026-01-27 20:13:50.99	334.13	20.17	-27.5	-27.3	17.4	1.90e-06	0	47	0	43570429952	25	15077
2026-01-27 20:13:51.99	334.19	20.00	-27.5	-27.4	17.4	0.00e+00	0	47	0	43687870464	25	15148
2026-01-27 20:13:53.00	334.24	19.83	-27.7	-27.6	17.4	0.00e+00	0	47	0	43796922368	25	15480
2026-01-27 20:13:54.01	334.29	19.66	-27.8	-27.6	17.4	0.00e+00	0	46	0	43905974272	26	14731
2026-01-27 20:13:55.01	334.34	19.49	-27.8	-27.7	17.6	0.00e+00	0	47	0	44023414784	26	14821
2026-01-27 20:13:56.02	334.39	19.32	-27.8	-27.6	17.7	1.90e-06	0	47	0	44132466688	26	14725
2026-01-27 20:13:57.03	334.44	19.16	-27.9	-27.7	17.6	1.90e-06	0	47	0	44249907200	26	14885
2026-01-27 20:13:58.03	334.49	18.99	-27.9	-27.7	17.7	0.00e+00	0	47	0	44358959104	26	14935
2026-01-27 20:13:59.04	334.53	18.83	-28.0	-27.9	17.6	0.00e+00	0	47	0	44468011008	26	15157
2026-01-27 20:14:00.05	334.58	18.67	-28.0	-27.9	17.6	1.90e-06	0	47	0	44585451520	26	15183
2026-01-27 20:14:01.05	334.63	18.51	-28.1	-28.0	17.7	0.00e+00	0	46	0	44694503424	26	15333
2026-01-27 20:14:02.06	334.68	18.35	-28.3	-28.1	17.7	0.00e+00	0	47	0	44811943936	27	14678
2026-01-27 20:14:03.07	334.72	18.19	-28.2	-28.1	17.5	0.00e+00	0	47	0	44920995840	27	14670
2026-01-27 20:14:04.08	334.77	18.04	-28.3	-28.2	17.6	0.00e+00	0	47	0	45030047744	27	14821
2026-01-27 20:14:05.08	334.81	17.88	-28.4	-28.3	17.7	0.00e+00	0	46	0	45155876864	27	14951
2026-01-27 20:14:06.09	334.86	17.73	-28.5	-28.3	17.8	0.00e+00	0	47	0	45273317376	27	15057
2026-01-27 20:14:07.09	334.90	17.58	-28.5	-28.3	17.8	0.00e+00	0	47	0	45382369280	27	15093
2026-01-27 20:14:08.10	334.95	17.43	-28.5	-28.3	17.8	0.00e+00	0	47	0	45491421184	27	15094
2026-01-27 20:14:09.11	334.99	17.27	-28.5	-28.3	17.8	1.90e-06	0	47	0	45608861696	27	15116
2026-01-27 20:14:10.12	335.03	17.13	-28.6	-28.5	17.7	0.00e+00	0	47	0	45717913600	27	15329
2026-01-27 20:14:11.12	335.07	16.98	-28.7	-28.5	17.8	0.00e+00	0	47	0	45835354112	27	15404
2026-01-27 20:14:12.13	335.12	16.83	-28.6	-28.5	17.8	1.90e-06	0	46	0	45944406016	28	14467
2026-01-27 20:14:13.14	335.16	16.68	-28.7	-28.6	17.7	0.00e+00	0	47	0	46061846528	28	14623
2026-01-27 20:14:14.15	335.20	16.54	-28.8	-28.6	17.6	0.00e+00	0	47	0	46170898432	28	14757
2026-01-27 20:14:15.16	335.24	16.40	-28.9	-28.7	17.5	0.00e+00	0	47	0	46279950336	28	14927
2026-01-27 20:14:16.17	335.28	16.25	-28.8	-28.7	17.5	3.80e-06	0	47	0	46397390848	28	14787
2026-01-27 20:14:17.18	335.32	16.11	-28.9	-28.7	17.5	0.00e+00	0	47	0	46523219968	28	14927
2026-01-27 20:14:18.18	335.36	15.97	-29.1	-28.9	17.3	1.90e-06	0	47	0	46632271872	28	15293
2026-01-27 20:14:19.19	335.40	15.83	-29.0	-28.8	17.4	1.90e-06	0	47	0	46741323776	28	15098
2026-01-27 20:14:20.20	335.44	15.69	-29.0	-28.9	17.4	0.00e+00	0	47	0	46858764288	28	15138
2026-01-27 20:14:21.21	335.48	15.55	-29.1	-29.0	17.3	1.90e-06	0	47	0	46967816192	28	15300
2026-01-27 20:14:22.21	335.52	15.42	-29.2	-29.0	17.3	1.90e-06	0	47	0	47085256704	28	15470
2026-01-27 20:14:23.22	335.55	15.28	-29.1	-29.0	17.4	1.90e-06	0	47	0	47194308608	29	14455
2026-01-27 20:14:24.23	335.59	15.15	-29.1	-29.0	17.3	1.90e-06	0	47	0	47303360512	29	14460
2026-01-27 20:14:25.24	335.63	15.01	-29.2	-29.1	17.3	1.90e-06	0	47	0	47420801024	29	14662
2026-01-27 20:14:26.25	335.67	14.88	-29.3	-29.1	17.2	0.00e+00	0	47	0	47529852928	29	14775
2026-01-27 20:14:27.26	335.70	14.75	-29.3	-29.2	17.1	3.80e-06	0	47	0	47647293440	29	14815
2026-01-27 20:14:28.26	335.74	14.62	-29.5	-29.3	17.1	3.80e-06	0	47	0	47756345344	29	15117
2026-01-27 20:14:29.27	335.77	14.49	-29.4	-29.3	16.9	0.00e+00	0	47	0	47865397248	29	14978
2026-01-27 20:14:30.28	335.81	14.36	-29.6	-29.4	16.8	3.80e-06	0	47	0	47991226368	29	15242
2026-01-27 20:14:31.29	335.84	14.23	-29.6	-29.5	16.9	5.70e-06	0	47	0	48108666880	30	14458
2026-01-27 20:14:32.29	335.88	14.10	-29.8	-29.6	16.9	1.90e-06	0	47	0	48217718784	30	14688
2026-01-27 20:14:33.30	335.91	13.97	-29.6	-29.5	16.8	5.70e-06	0	47	0	48326770688	30	14462
2026-01-27 20:14:34.31	335.95	13.85	-29.7	-29.5	16.7	3.80e-06	0	47	0	48444211200	30	14559
2026-01-27 20:14:35.32	335.98	13.72	-29.7	-29.6	16.7	5.70e-06	0	47	0	48553263104	30	14658
2026-01-27 20:14:36.32	336.02	13.60	-29.7	-29.6	16.7	5.70e-06	0	47	0	48670703616	30	14678
2026-01-27 20:14:37.32	336.05	13.48	-29.7	-29.5	16.8	0.00e+00	0	47	0	48779755520	30	14591
2026-01-27 20:14:38.33	336.08	13.35	-29.9	-29.7	16.7	9.50e-06	0	47	0	48888807424	30	14855
2026-01-27 20:14:39.34	336.11	13.23	-29.7	-29.6	16.7	5.70e-06	0	47	0	49006247936	30	14640
2026-01-27 20:14:40.35	336.15	13.11	-29.8	-29.7	16.5	2.47e-05	0	47	0	49115299840	30	14816
2026-01-27 20:14:41.36	336.18	12.99	-29.9	-29.7	16.5	5.70e-06	0	47	0	49232740352	30	14861
2026-01-27 20:14:42.37	336.21	12.87	-29.9	-29.8	16.5	1.14e-05	0	47	0	49341792256	30	14981
2026-01-27 20:14:43.37	336.24	12.75	-30.0	-29.9	16.6	5.70e-06	0	47	0	49459232768	30	15125
2026-01-27 20:14:44.38	336.27	12.63	-30.0	-29.9	16.5	1.33e-05	0	47	0	49576673280	30	15158
2026-01-27 20:14:45.39	336.31	12.51	-29.9	-29.8	16.5	9.50e-06	0	47	0	49694113792	30	15030
2026-01-27 20:14:46.40	336.34	12.40	-30.1	-29.9	16.4	5.70e-06	0	47	0	49803165696	30	15249
2026-01-27 20:14:47.41	336.37	12.28	-30.1	-30.0	16.3	1.71e-05	0	47	0	49920606208	30	15369
2026-01-27 20:14:48.42	336.40	12.16	-30.2	-30.0	16.4	1.52e-05	0	47	0	50029658112	31	14586
2026-01-27 20:14:49.43	336.43	12.05	-30.2	-30.0	16.3	1.52e-05	0	47	0	50138710016	31	14575
2026-01-27 20:14:50.43	336.46	11.94	-30.2	-30.0	16.3	5.70e-06	0	47	0	50256150528	31	14559
2026-01-27 20:14:51.44	336.49	11.82	-30.3	-30.2	16.2	2.09e-05	0	47	0	50365202432	31	14787
2026-01-27 20:14:52.45	336.52	11.71	-30.3	-30.2	16.2	2.09e-05	0	47	0	50482642944	31	14851
2026-01-27 20:14:53.46	336.55	11.60	-30.4	-30.2	16.1	2.09e-05	0	46	0	50591694848	31	14924
2026-01-27 20:14:54.46	336.58	11.49	-30.5	-30.4	16.1	2.86e-05	0	47	0	50700746752	31	15128
2026-01-27 20:14:55.47	336.60	11.38	-30.5	-30.3	16.1	3.05e-05	0	47	0	50818187264	31	15091
2026-01-27 20:14:56.48	336.63	11.27	-30.6	-30.4	16.1	4.57e-05	0	47	0	50944016384	31	15229
2026-01-27 20:14:57.49	336.66	11.16	-51.5	-52.7	6.3	0.00e+00	0	46	104	50969182208	73	17701
2026-01-27 20:14:58.49	336.69	11.05	-53.7	-55.9	6.2	0.00e+00	0	46	104	50969182208	77	20204
2026-01-27 20:14:59.50	336.72	10.94	-53.7	-55.8	6.2	0.00e+00	0	46	104	50969182208	77	20161
2026-01-27 20:15:00.51	336.75	10.83	-53.7	-55.9	6.2	0.00e+00	0	46	104	50969182208	78	19040
2026-01-27 20:15:01.51	336.77	10.73	-53.7	-55.8	6.2	0.00e+00	0	46	104	50969182208	78	18902
2026-01-27 20:15:02.52	336.80	10.62	-53.7	-55.9	6.2	0.00e+00	0	46	104	50969182208	78	19056
2026-01-27 20:15:03.52	336.83	10.51	-53.7	-55.8	6.2	0.00e+00	0	46	104	50969182208	78	18830
2026-01-27 20:15:04.53	336.85	10.41	-53.6	-55.7	6.2	0.00e+00	0	46	104	50969182208	78	18753
2026-01-27 20:15:05.54	336.88	10.30	-53.6	-55.8	6.2	0.00e+00	0	46	104	50969182208	78	18822
2026-01-27 20:15:06.54	336.91	10.20	-53.7	-55.8	6.2	0.00e+00	0	46	104	50969182208	78	18831
2026-01-27 20:15:07.55	336.93	10.10	-53.6	-55.7	6.2	0.00e+00	0	46	104	50969182208	78	18643
2026-01-27 20:15:08.56	336.96	9.99	-53.6	-55.7	6.2	0.00e+00	0	46	104	50969182208	78	18623
2026-01-27 20:15:09.57	336.99	9.89	-53.6	-55.6	6.2	0.00e+00	0	46	104	50969182208	78	18579
2026-01-27 20:15:10.57	337.01	9.79	-53.6	-55.7	6.2	0.00e+00	0	46	104	50969182208	78	18716
2026-01-27 20:15:11.58	337.04	9.69	-53.5	-55.6	6.2	0.00e+00	0	46	104	50969182208	78	18536
2026-01-27 20:15:12.59	337.06	9.59	-53.5	-55.6	6.2	0.00e+00	0	46	104	50969182208	78	18489
2026-01-27 20:15:13.60	337.09	9.49	-53.5	-55.6	6.2	0.00e+00	0	46	104	50969182208	78	18532
2026-01-27 20:15:14.61	337.11	9.39	-53.5	-55.6	6.2	0.00e+00	0	46	104	50969182208	78	18601
2026-01-27 20:15:15.61	337.14	9.29	-53.5	-55.5	6.2	0.00e+00	0	46	104	50969182208	78	18383
2026-01-27 20:15:16.62	337.16	9.19	-53.4	-55.6	6.2	0.00e+00	0	46	104	50969182208	78	18414
2026-01-27 20:15:17.63	337.19	9.09	-53.5	-55.6	6.2	0.00e+00	0	46	104	50969182208	78	18392
2026-01-27 20:15:18.64	337.21	8.99	-53.5	-55.6	6.2	0.00e+00	0	46	104	50969182208	78	18511
2026-01-27 20:15:19.65	337.24	8.90	-53.4	-55.5	6.2	0.00e+00	0	46	104	50969182208	78	18281
2026-01-27 20:15:20.66	337.26	8.80	-53.4	-55.5	6.2	0.00e+00	0	46	104	50969182208	78	18289
2026-01-27 20:15:21.67	337.29	8.70	-53.4	-55.5	6.2	0.00e+00	0	46	104	50969182208	78	18367
2026-01-27 20:15:22.67	337.31	8.61	-53.5	-55.6	6.2	0.00e+00	0	46	104	50969182208	78	18409
2026-01-27 20:15:23.69	337.33	8.51	-53.4	-55.4	6.2	0.00e+00	0	46	104	50969182208	78	18172
2026-01-27 20:15:24.69	337.36	8.42	-53.4	-55.5	6.2	0.00e+00	0	46	104	50969182208	78	18263
2026-01-27 20:15:25.70	337.38	8.32	-53.4	-55.4	6.2	0.00e+00	0	46	104	50969182208	78	18167
2026-01-27 20:15:26.71	337.40	8.23	-53.4	-55.5	6.2	0.00e+00	0	46	104	50969182208	78	18311
2026-01-27 20:15:27.72	337.43	8.13	-53.3	-55.4	6.2	0.00e+00	0	46	104	50969182208	78	18060
2026-01-27 20:15:28.73	337.45	8.04	-53.3	-55.4	6.2	0.00e+00	0	46	104	50969182208	78	18148
2026-01-27 20:15:29.74	337.47	7.95	-53.3	-55.4	6.2	0.00e+00	0	46	104	50969182208	78	18137
2026-01-27 20:15:30.74	337.50	7.86	-53.4	-55.5	6.2	0.00e+00	0	46	104	50969182208	78	18241
2026-01-27 20:15:31.75	337.52	7.76	-53.3	-55.4	6.2	0.00e+00	0	46	104	50969182208	78	18044
2026-01-27 20:15:32.76	337.54	7.67	-53.3	-55.3	6.2	0.00e+00	0	46	104	50969182208	78	17970
2026-01-27 20:15:33.77	337.56	7.58	-53.3	-55.4	6.2	0.00e+00	0	46	104	50969182208	78	18015
2026-01-27 20:15:34.78	337.58	7.49	-53.3	-55.4	6.2	0.00e+00	0	46	104	50969182208	78	18123
2026-01-27 20:15:35.79	337.61	7.40	-53.2	-55.3	6.2	0.00e+00	0	46	104	50969182208	78	17868
2026-01-27 20:15:36.80	337.63	7.31	-53.2	-55.3	6.2	0.00e+00	0	46	104	50969182208	78	17925
2026-01-27 20:15:37.81	337.65	7.22	-53.2	-55.3	6.2	0.00e+00	0	46	104	50969182208	78	17862
2026-01-27 20:15:38.81	337.67	7.13	-53.3	-55.4	6.2	0.00e+00	0	46	104	50969182208	78	18062
2026-01-27 20:15:39.82	337.69	7.04	-53.2	-55.3	6.2	0.00e+00	0	46	104	50969182208	78	17769
2026-01-27 20:15:40.83	337.71	6.96	-53.2	-55.3	6.2	0.00e+00	0	46	104	50969182208	78	17785
2026-01-27 20:15:41.83	337.74	6.87	-53.1	-55.2	6.2	0.00e+00	0	46	104	50969182208	78	17646
2026-01-27 20:15:42.83	337.76	6.78	-53.2	-55.4	6.2	0.00e+00	0	46	104	50969182208	78	17987
2026-01-27 20:15:43.84	337.78	6.70	-53.1	-55.2	6.2	0.00e+00	0	46	104	50969182208	78	17665
2026-01-27 20:15:44.85	337.80	6.61	-53.1	-55.2	6.2	0.00e+00	0	46	104	50969182208	78	17665
2026-01-27 20:15:45.86	337.82	6.52	-53.1	-55.1	6.2	0.00e+00	0	46	104	50969182208	78	17529
2026-01-27 20:15:46.86	337.84	6.44	-53.2	-55.3	6.2	0.00e+00	0	46	104	50969182208	78	17820
2026-01-27 20:15:47.87	337.86	6.35	-53.0	-55.1	6.2	0.00e+00	0	46	104	50969182208	78	17462
2026-01-27 20:15:48.87	337.88	6.27	-53.0	-55.1	6.2	0.00e+00	0	46	104	50969182208	78	17507
2026-01-27 20:15:49.88	337.90	6.18	-52.9	-55.0	6.2	0.00e+00	0	46	104	50969182208	77	18245
2026-01-27 20:15:50.89	337.92	6.10	-53.1	-55.2	6.2	0.00e+00	0	46	104	50969182208	77	18660
2026-01-27 20:15:51.90	337.94	6.01	-52.9	-55.0	6.2	0.00e+00	0	46	104	50969182208	77	18254
2026-01-27 20:15:52.91	337.96	5.93	-52.9	-55.0	6.2	0.00e+00	0	46	104	50969182208	77	18351
2026-01-27 20:15:53.91	337.98	5.85	-52.8	-54.9	6.2	0.00e+00	0	46	104	50969182208	77	18128
2026-01-27 20:15:54.93	338.00	5.76	-53.1	-55.2	6.2	0.00e+00	0	46	104	50969182208	77	18624
2026-01-27 20:15:55.93	338.02	5.68	-52.8	-54.9	6.2	0.00e+00	0	46	104	50969182208	77	18148
2026-01-27 20:15:56.93	338.04	5.60	-52.9	-55.0	6.2	0.00e+00	0	46	104	50969182208	77	18242
2026-01-27 20:15:57.94	338.06	5.52	-52.7	-54.8	6.2	0.00e+00	0	46	104	50969182208	77	17939
2026-01-27 20:15:58.95	338.08	5.44	-53.0	-55.1	6.2	0.00e+00	0	46	104	50969182208	77	18395
2026-01-27 20:15:59.96	338.10	5.35	-52.8	-54.9	6.2	0.00e+00	0	46	104	50969182208	77	17972
2026-01-27 20:16:00.97	338.12	5.27	-52.8	-54.9	6.2	0.00e+00	0	46	104	50969182208	77	17982
2026-01-27 20:16:01.97	338.14	5.19	-52.7	-54.8	6.2	0.00e+00	0	46	104	50969182208	77	17848
2026-01-27 20:16:02.98	338.15	5.11	-52.9	-54.9	6.2	0.00e+00	0	46	104	50969182208	77	18147
2026-01-27 20:16:03.99	338.17	5.03	-52.7	-54.8	6.2	0.00e+00	0	46	104	50969182208	77	17801
2026-01-27 20:16:05.00	338.19	4.95	-52.9	-55.1	6.2	0.00e+00	0	46	104	50969182208	77	18443
2026-01-27 20:16:06.00	338.21	4.87	-53.7	-55.8	6.2	0.00e+00	0	46	104	50969182208	77	19974
2026-01-27 20:16:07.01	338.23	4.79	-54.1	-56.2	6.2	0.00e+00	0	46	104	50969182208	78	19804
2026-01-27 20:16:08.02	338.25	4.71	-54.3	-56.3	6.2	0.00e+00	0	46	104	50969182208	79	19008
2026-01-27 20:16:09.02	338.27	4.64	-54.4	-56.5	6.2	0.00e+00	0	46	104	50969182208	79	19266
2026-01-27 20:16:10.03	338.28	4.56	-54.5	-56.6	6.2	0.00e+00	0	46	104	50969182208	79	19623
2026-01-27 20:16:11.04	338.30	4.48	-54.5	-56.6	6.2	0.00e+00	0	46	104	50969182208	79	19655
2026-01-27 20:16:12.04	338.32	4.40	-54.5	-56.6	6.2	0.00e+00	0	46	104	50969182208	79	19664
2026-01-27 20:16:13.05	338.34	4.33	-54.5	-56.6	6.2	0.00e+00	0	46	104	50969182208	79	19667
2026-01-27 20:16:14.06	338.36	4.25	-54.5	-56.6	6.2	0.00e+00	0	46	104	50969182208	79	19665
2026-01-27 20:16:15.07	338.37	4.17	-54.5	-56.5	6.2	0.00e+00	0	46	104	50969182208	79	19415
2026-01-27 20:16:16.08	338.39	4.09	-54.4	-56.5	6.2	0.00e+00	0	46	104	50969182208	79	19289
2026-01-27 20:16:17.09	338.41	4.02	-54.3	-56.4	6.2	0.00e+00	0	46	104	50969182208	79	19083
2026-01-27 20:16:18.10	338.43	3.94	-54.1	-56.2	6.2	0.00e+00	0	46	104	50969182208	79	18790
2026-01-27 20:16:19.10	338.44	3.87	-54.1	-56.2	6.2	0.00e+00	0	46	104	50969182208	79	18714
2026-01-27 20:16:20.11	338.46	3.79	-54.2	-56.3	6.2	0.00e+00	0	46	104	50969182208	79	18852
2026-01-27 20:16:21.11	338.48	3.72	-54.2	-56.2	6.2	0.00e+00	0	46	104	50969182208	79	18769
2026-01-27 20:16:22.12	338.50	3.64	-54.2	-56.3	6.2	0.00e+00	0	46	104	50969182208	79	18871
2026-01-27 20:16:23.12	338.51	3.57	-54.2	-56.3	6.2	0.00e+00	0	46	104	50969182208	79	18836
2026-01-27 20:16:24.13	338.53	3.49	-54.1	-56.2	6.2	0.00e+00	0	46	104	50969182208	79	18794
2026-01-27 20:16:25.14	338.55	3.42	-54.1	-56.2	6.2	0.00e+00	0	46	104	50969182208	79	18795
2026-01-27 20:16:26.14	338.56	3.35	-54.2	-56.2	6.2	0.00e+00	0	46	104	50969182208	79	18772
2026-01-27 20:16:27.15	338.58	3.27	-54.1	-56.2	6.2	0.00e+00	0	46	104	50969182208	79	18649
2026-01-27 20:16:28.16	338.60	3.20	-54.0	-56.1	6.2	0.00e+00	0	46	104	50969182208	79	18595
2026-01-27 20:16:29.17	338.61	3.13	-54.0	-56.1	6.2	0.00e+00	0	46	104	50969182208	79	18517
2026-01-27 20:16:30.18	338.63	3.05	-54.0	-56.1	6.2	0.00e+00	0	46	104	50969182208	79	18536
2026-01-27 20:16:31.19	338.65	2.98	-54.0	-56.1	6.2	0.00e+00	0	46	104	50969182208	79	18482
2026-01-27 20:16:32.20	338.66	2.91	-54.0	-56.1	6.2	0.00e+00	0	46	104	50969182208	79	18513
2026-01-27 20:16:33.20	338.68	2.84	-54.0	-56.1	6.2	0.00e+00	0	46	104	50969182208	79	18478
2026-01-27 20:16:34.21	338.70	2.76	-54.0	-56.1	6.2	0.00e+00	0	46	104	50969182208	79	18458
2026-01-27 20:16:35.22	338.71	2.69	-54.0	-56.1	6.2	0.00e+00	0	46	104	50969182208	79	18410
2026-01-27 20:16:36.23	338.73	2.62	-54.0	-56.1	6.2	0.00e+00	0	46	104	50969182208	79	18418
2026-01-27 20:16:37.23	338.74	2.55	-54.0	-56.1	6.2	0.00e+00	0	46	104	50969182208	79	18397
2026-01-27 20:16:38.24	338.76	2.48	-54.0	-56.0	6.2	0.00e+00	0	46	104	50969182208	79	18386
2026-01-27 20:16:39.25	338.78	2.41	-53.9	-56.0	6.2	0.00e+00	0	46	104	50969182208	79	18387
2026-01-27 20:16:40.26	338.79	2.34	-53.9	-56.0	6.2	0.00e+00	0	46	104	50969182208	79	18354
2026-01-27 20:16:41.27	338.81	2.27	-53.9	-56.0	6.2	0.00e+00	0	46	104	50969182208	79	18371
2026-01-27 20:16:42.27	338.82	2.20	-53.9	-56.0	6.2	0.00e+00	0	46	104	50969182208	79	18336
2026-01-27 20:16:43.28	338.84	2.13	-53.9	-56.0	6.2	0.00e+00	0	46	104	50969182208	79	18315
2026-01-27 20:16:44.29	338.86	2.06	-53.9	-56.0	6.2	0.00e+00	0	46	104	50969182208	79	18272
2026-01-27 20:16:45.30	338.87	1.99	-53.9	-56.0	6.2	0.00e+00	0	46	104	50969182208	79	18314
2026-01-27 20:16:46.31	338.89	1.92	-53.9	-56.0	6.2	0.00e+00	0	46	104	50969182208	79	18258

#Closed at: 2026-01-27 20:16:47
#Recorded file [50969 MB]: D:/lorett/data/31041_260127_230548.dat