passes_logs/2026/01/27/R3.2S_Murmansk/R3.2S_Murmansk__20260127_234401_FENGYUN_3D_rec.log

#Pass ID: 20260127_234401_FENGYUN 3D
#Satellite: FENGYUN 3D
#Configuration: FENGYUN 3D
#almurnet v.1.7.20251203
#Start time: 2026-01-27 23:44:03

#Version: 2.2.20231116
#Station: R3.2S_Murmansk
#Location: 33.079688 lon 68.888172 lat
#TLE: 1 43010U 17072A   26027.26653803  .00000472  00000+0  24513-3 0  9995
#TLE: 2 43010  98.9961 359.2743 0002530  88.0161 272.1305 14.19701760424993

#Time	Az	El	Level	Level2	SNR	BER	BlckErr	Temp	State	Recorded	gain1	gain2
2026-01-27 23:44:03.81	19.29	2.10	-53.8	-65.8	3.8	8.47e-01	0	41	0	0	78	14968
2026-01-27 23:44:04.81	19.38	2.15	-54.1	-66.1	3.8	8.45e-01	0	41	104	0	78	15411
2026-01-27 23:44:05.81	19.47	2.19	-54.0	-66.0	3.8	8.47e-01	0	41	104	0	78	15279
2026-01-27 23:44:06.82	19.56	2.24	-54.0	-66.0	3.8	8.45e-01	0	41	104	0	78	15295
2026-01-27 23:44:07.83	19.66	2.29	-54.0	-65.9	3.8	8.46e-01	0	41	104	0	78	15224
2026-01-27 23:44:08.84	19.75	2.34	-54.0	-65.9	3.8	8.47e-01	0	41	104	0	78	15201
2026-01-27 23:44:09.84	19.84	2.39	-54.0	-65.9	3.8	8.46e-01	0	41	104	0	78	15186
2026-01-27 23:44:10.84	19.93	2.44	-53.9	-65.9	3.8	8.46e-01	0	42	104	0	78	15067
2026-01-27 23:44:11.85	20.03	2.49	-53.9	-65.9	3.8	8.45e-01	0	41	104	0	78	15069
2026-01-27 23:44:12.85	20.12	2.53	-53.9	-65.9	3.8	8.46e-01	0	41	104	0	78	15095
2026-01-27 23:44:13.86	20.21	2.58	-53.9	-65.9	3.8	8.47e-01	0	42	104	0	78	15072
2026-01-27 23:44:14.87	20.31	2.63	-53.9	-65.8	3.8	8.46e-01	0	41	104	0	78	15001
2026-01-27 23:44:15.87	20.40	2.68	-53.8	-65.7	3.8	8.46e-01	0	42	104	0	78	14859
2026-01-27 23:44:16.88	20.50	2.73	-53.7	-65.7	3.8	8.47e-01	0	42	104	0	78	14750
2026-01-27 23:44:17.88	20.59	2.78	-53.7	-65.6	3.8	8.47e-01	0	42	104	0	78	14602
2026-01-27 23:44:18.89	20.69	2.83	-53.5	-65.5	3.8	8.46e-01	0	42	104	0	78	14400
2026-01-27 23:44:19.90	20.78	2.87	-53.4	-65.3	3.8	8.47e-01	0	42	104	0	78	14133
2026-01-27 23:44:20.90	20.88	2.92	-53.3	-65.2	3.8	8.47e-01	0	42	104	0	78	13921
2026-01-27 23:44:21.91	20.97	2.97	-53.0	-64.9	3.8	8.46e-01	0	42	104	0	78	13527
2026-01-27 23:44:22.92	21.07	3.02	-52.7	-64.6	3.8	8.46e-01	0	42	104	0	77	13877
2026-01-27 23:44:23.92	21.17	3.07	-52.2	-64.0	3.8	8.45e-01	0	42	104	0	76	13588
2026-01-27 23:44:24.93	21.26	3.12	-51.9	-63.2	3.8	8.47e-01	0	42	104	0	75	13155
2026-01-27 23:44:25.93	21.36	3.17	-51.9	-63.2	3.8	8.46e-01	0	42	104	0	75	13191
2026-01-27 23:44:26.95	21.46	3.22	-51.9	-63.3	3.8	8.45e-01	0	42	104	0	75	13385
2026-01-27 23:44:27.95	21.56	3.27	-51.9	-63.5	3.8	8.46e-01	0	42	104	0	75	13632
2026-01-27 23:44:28.96	21.65	3.31	-51.9	-63.4	3.8	8.47e-01	0	42	104	0	75	13485
2026-01-27 23:44:29.97	21.75	3.36	-51.9	-63.5	3.8	8.46e-01	0	42	104	0	75	13575
2026-01-27 23:44:30.98	21.85	3.41	-51.9	-63.6	3.8	8.46e-01	0	42	104	0	75	13765
2026-01-27 23:44:31.98	21.95	3.46	-51.9	-63.5	3.8	8.46e-01	0	42	104	0	75	13582
2026-01-27 23:44:32.99	22.05	3.51	-51.9	-63.4	3.8	8.46e-01	0	42	104	0	75	13513
2026-01-27 23:44:34.00	22.15	3.56	-51.9	-63.4	3.8	8.46e-01	0	42	104	0	75	13519
2026-01-27 23:44:35.01	22.25	3.61	-51.8	-63.1	3.8	8.47e-01	0	42	104	0	75	13087
2026-01-27 23:44:36.01	22.35	3.66	-51.9	-63.2	3.8	8.46e-01	0	42	104	0	75	13162
2026-01-27 23:44:37.01	22.45	3.71	-51.8	-63.0	3.8	8.47e-01	0	42	104	0	75	12929
2026-01-27 23:44:38.01	22.55	3.76	-51.8	-63.1	3.8	8.47e-01	0	42	104	0	75	12976
2026-01-27 23:44:39.02	22.65	3.81	-51.8	-63.2	3.8	8.47e-01	0	42	104	0	75	13111
2026-01-27 23:44:40.03	22.76	3.85	-51.8	-63.3	3.8	8.46e-01	0	42	104	0	75	13305
2026-01-27 23:44:41.04	22.86	3.90	-51.9	-63.3	3.8	8.45e-01	0	42	104	0	75	13333
2026-01-27 23:44:42.05	22.96	3.95	-51.9	-63.5	3.8	8.45e-01	0	42	104	0	75	13678
2026-01-27 23:44:43.05	23.06	4.00	-51.8	-63.3	3.8	8.47e-01	0	42	104	0	75	13368
2026-01-27 23:44:44.06	23.17	4.05	-51.8	-63.2	3.8	8.46e-01	0	42	104	0	75	13204
2026-01-27 23:44:45.07	23.27	4.10	-51.8	-62.6	3.8	8.46e-01	0	42	104	0	75	12319
2026-01-27 23:44:46.08	23.37	4.15	-51.7	-61.9	3.8	8.45e-01	0	42	104	0	75	11289
2026-01-27 23:44:47.08	23.48	4.20	-51.6	-60.9	4.0	8.42e-01	0	42	0	0	75	10098
2026-01-27 23:44:48.08	23.58	4.25	-51.4	-59.7	4.3	8.35e-01	0	42	0	0	74	9334
2026-01-27 23:44:49.09	23.69	4.30	-51.3	-59.0	4.6	8.15e-01	0	42	0	0	74	8655
2026-01-27 23:44:50.10	23.79	4.35	-51.1	-57.8	5.2	7.66e-01	0	42	0	0	74	7493
2026-01-27 23:44:51.11	23.90	4.40	-50.7	-56.4	6.2	4.43e-01	0	42	0	3145728	73	6767
2026-01-27 23:44:52.12	24.00	4.45	-50.0	-54.3	8.2	1.16e-01	0	42	0	9437184	71	5990
2026-01-27 23:44:53.13	24.11	4.50	-49.0	-52.3	10.4	1.13e-02	0	42	0	14680064	70	4996
2026-01-27 23:44:54.13	24.21	4.55	-47.8	-50.3	12.4	5.72e-04	0	42	0	19922944	67	4726
2026-01-27 23:44:55.13	24.32	4.59	-46.8	-48.9	13.8	4.00e-05	0	42	0	26214400	65	4498
2026-01-27 23:44:56.14	24.43	4.64	-45.9	-47.6	15.2	0.00e+00	0	42	0	31457280	63	4350
2026-01-27 23:44:57.14	24.53	4.69	-45.2	-46.7	16.2	0.00e+00	0	42	0	36700160	62	4156
2026-01-27 23:44:58.15	24.64	4.74	-44.6	-45.9	16.9	0.00e+00	0	42	0	42991616	61	4048
2026-01-27 23:44:59.16	24.75	4.79	-44.6	-46.0	16.9	0.00e+00	0	42	0	48234496	60	4299
2026-01-27 23:45:00.17	24.86	4.84	-45.1	-46.6	16.2	0.00e+00	0	42	0	53477376	60	4621
2026-01-27 23:45:01.17	24.97	4.89	-45.7	-47.4	15.5	0.00e+00	0	42	0	59768832	61	4760
2026-01-27 23:45:02.18	25.08	4.94	-46.6	-48.6	14.3	0.00e+00	0	43	0	65011712	63	4879
2026-01-27 23:45:03.19	25.19	4.99	-48.1	-50.8	11.8	1.76e-04	0	43	0	71303168	66	5331
2026-01-27 23:45:04.19	25.30	5.04	-49.6	-53.6	9.0	7.52e-03	0	43	0	76546048	69	6181
2026-01-27 23:45:05.20	25.41	5.09	-43.3	-44.4	18.9	0.00e+00	0	42	0	81788928	58	4039
2026-01-27 23:45:06.21	25.52	5.14	-51.6	-63.6	3.8	8.45e-01	0	43	104	84934656	73	15514
2026-01-27 23:45:07.22	25.63	5.19	-46.5	-48.3	14.5	3.40e-06	0	43	0	85983232	65	4223
2026-01-27 23:45:08.23	25.74	5.24	-43.8	-45.0	18.4	0.00e+00	0	42	0	92274688	59	4073
2026-01-27 23:45:09.23	25.85	5.29	-51.3	-58.6	4.9	8.15e-01	0	43	0	95420416	73	8680
2026-01-27 23:45:10.24	25.96	5.34	-43.7	-44.8	18.6	0.00e+00	0	43	0	100663296	59	3975
2026-01-27 23:45:11.25	26.08	5.39	-43.6	-44.7	18.7	0.00e+00	0	43	0	105906176	59	3925
2026-01-27 23:45:12.26	26.19	5.44	-43.3	-44.5	18.9	0.00e+00	0	43	0	112197632	58	4057
2026-01-27 23:45:13.26	26.30	5.49	-43.2	-44.3	19.1	0.00e+00	0	43	0	117440512	58	3978
2026-01-27 23:45:14.27	26.42	5.54	-43.0	-44.0	19.3	0.00e+00	0	43	0	122683392	57	4091
2026-01-27 23:45:15.28	26.53	5.59	-43.0	-44.1	19.3	0.00e+00	0	43	0	128974848	57	4109
2026-01-27 23:45:16.29	26.65	5.64	-43.0	-44.1	19.3	0.00e+00	0	43	0	134217728	57	4111
2026-01-27 23:45:17.30	26.76	5.69	-43.0	-44.0	19.4	0.00e+00	0	43	0	139460608	57	4073
2026-01-27 23:45:18.30	26.87	5.73	-43.0	-44.0	19.4	0.00e+00	0	43	0	145752064	57	4077
2026-01-27 23:45:19.31	26.99	5.78	-43.0	-44.1	19.3	0.00e+00	0	43	0	150994944	57	4110
2026-01-27 23:45:20.32	27.11	5.83	-43.0	-44.0	19.4	0.00e+00	0	43	0	157286400	57	4079
2026-01-27 23:45:21.33	27.22	5.88	-43.1	-44.2	19.3	0.00e+00	0	43	0	162529280	57	4157
2026-01-27 23:45:22.33	27.34	5.93	-43.1	-44.2	19.3	0.00e+00	0	43	0	168820736	57	4154
2026-01-27 23:45:23.34	27.46	5.98	-43.1	-44.1	19.3	0.00e+00	0	43	0	174063616	57	4145
2026-01-27 23:45:24.35	27.57	6.03	-43.1	-44.2	19.3	0.00e+00	0	43	0	180355072	57	4165
2026-01-27 23:45:25.36	27.69	6.08	-43.2	-44.3	19.2	0.00e+00	0	43	0	185597952	57	4219
2026-01-27 23:45:26.36	27.81	6.13	-43.1	-44.2	19.3	0.00e+00	0	43	0	190840832	57	4169
2026-01-27 23:45:27.36	27.93	6.18	-42.9	-43.9	19.6	0.00e+00	0	43	0	197132288	57	4029
2026-01-27 23:45:28.37	28.04	6.23	-42.7	-43.7	19.8	0.00e+00	0	43	0	202375168	57	3939
2026-01-27 23:45:29.37	28.16	6.28	-42.7	-43.7	19.7	0.00e+00	0	43	0	207618048	57	3953
2026-01-27 23:45:30.38	28.28	6.33	-42.9	-43.9	19.6	0.00e+00	0	43	0	213909504	57	4028
2026-01-27 23:45:31.39	28.40	6.38	-42.9	-43.9	19.5	0.00e+00	0	43	0	219152384	57	4044
2026-01-27 23:45:32.39	28.52	6.43	-43.0	-44.1	19.4	0.00e+00	0	43	0	224395264	57	4122
2026-01-27 23:45:33.40	28.64	6.48	-42.7	-43.7	19.8	0.00e+00	0	43	0	230686720	57	3938
2026-01-27 23:45:34.41	28.77	6.53	-42.8	-43.8	19.6	0.00e+00	0	43	0	235929600	57	4004
2026-01-27 23:45:35.41	28.89	6.58	-42.9	-44.0	19.5	0.00e+00	0	43	0	242221056	57	4060
2026-01-27 23:45:36.43	29.01	6.63	-42.7	-43.7	19.9	0.00e+00	0	43	0	247463936	57	3928
2026-01-27 23:45:37.43	29.13	6.68	-42.7	-43.7	19.8	0.00e+00	0	43	0	253755392	57	3953
2026-01-27 23:45:38.44	29.25	6.73	-42.8	-43.8	19.7	0.00e+00	0	43	0	258998272	57	3994
2026-01-27 23:45:39.45	29.38	6.78	-42.7	-43.7	19.9	0.00e+00	0	43	0	265289728	57	3930
2026-01-27 23:45:40.45	29.50	6.82	-42.7	-43.8	19.8	0.00e+00	0	43	0	270532608	57	3970
2026-01-27 23:45:41.46	29.62	6.87	-42.7	-43.8	19.8	0.00e+00	0	43	0	275775488	57	3960
2026-01-27 23:45:42.47	29.75	6.92	-42.7	-43.8	19.8	0.00e+00	0	43	0	282066944	57	3971
2026-01-27 23:45:43.48	29.87	6.97	-42.6	-43.6	19.9	0.00e+00	0	43	0	287309824	57	3907
2026-01-27 23:45:44.49	30.00	7.02	-42.5	-43.5	20.1	0.00e+00	0	43	0	292552704	57	3850
2026-01-27 23:45:45.49	30.12	7.07	-42.6	-43.6	20.0	0.00e+00	0	43	0	298844160	56	4124
2026-01-27 23:45:46.50	30.25	7.12	-42.6	-43.6	20.0	0.00e+00	0	43	0	304087040	56	4102
2026-01-27 23:45:47.51	30.38	7.17	-42.6	-43.7	19.9	0.00e+00	0	43	0	310378496	56	4148
2026-01-27 23:45:48.52	30.50	7.22	-42.6	-43.7	19.9	0.00e+00	0	43	0	315621376	56	4147
2026-01-27 23:45:49.52	30.63	7.27	-42.6	-43.6	20.0	0.00e+00	0	43	0	321912832	56	4135
2026-01-27 23:45:50.53	30.76	7.32	-42.6	-43.6	20.0	0.00e+00	0	43	0	327155712	56	4116
2026-01-27 23:45:51.54	30.89	7.37	-42.7	-43.7	19.9	0.00e+00	0	43	0	332398592	56	4167
2026-01-27 23:45:52.54	31.02	7.42	-42.6	-43.6	20.0	0.00e+00	0	43	0	338690048	56	4140
2026-01-27 23:45:53.55	31.14	7.47	-42.3	-43.3	20.3	0.00e+00	0	43	0	343932928	56	3979
2026-01-27 23:45:54.56	31.27	7.52	-42.4	-43.4	20.2	0.00e+00	0	43	0	350224384	56	4007
2026-01-27 23:45:55.57	31.40	7.56	-42.1	-43.0	20.6	0.00e+00	0	43	0	355467264	56	3867
2026-01-27 23:45:56.58	31.53	7.61	-42.2	-43.1	20.5	0.00e+00	0	43	0	360710144	56	3906
2026-01-27 23:45:57.58	31.66	7.66	-42.2	-43.2	20.4	0.00e+00	0	43	0	367001600	56	3925
2026-01-27 23:45:58.59	31.80	7.71	-42.1	-43.0	20.6	0.00e+00	0	43	0	372244480	56	3853
2026-01-27 23:45:59.59	31.93	7.76	-42.0	-42.9	20.7	0.00e+00	0	43	0	377487360	56	3815
2026-01-27 23:46:00.60	32.06	7.81	-41.9	-42.8	20.7	0.00e+00	0	43	0	383778816	55	3996
2026-01-27 23:46:01.61	32.19	7.86	-42.0	-42.9	20.6	0.00e+00	0	43	0	390070272	55	4020
2026-01-27 23:46:02.62	32.32	7.91	-42.0	-43.0	20.6	0.00e+00	0	43	0	395313152	55	4056
2026-01-27 23:46:03.63	32.46	7.96	-42.1	-43.0	20.5	0.00e+00	0	43	0	400556032	55	4074
2026-01-27 23:46:04.63	32.59	8.01	-42.1	-43.0	20.5	0.00e+00	0	43	0	406847488	55	4094
2026-01-27 23:46:05.64	32.72	8.05	-42.1	-43.0	20.6	0.00e+00	0	43	0	412090368	55	4071
2026-01-27 23:46:06.65	32.86	8.10	-42.1	-43.0	20.6	0.00e+00	0	43	0	417333248	55	4068
2026-01-27 23:46:07.66	32.99	8.15	-42.0	-42.9	20.7	0.00e+00	0	43	0	423624704	55	4038
2026-01-27 23:46:08.66	33.13	8.20	-42.0	-42.9	20.7	0.00e+00	0	43	0	428867584	55	4023
2026-01-27 23:46:09.66	33.26	8.25	-42.1	-43.0	20.6	0.00e+00	0	43	0	435159040	55	4077
2026-01-27 23:46:10.67	33.40	8.30	-42.1	-43.0	20.5	0.00e+00	0	43	0	440401920	55	4091
2026-01-27 23:46:11.68	33.54	8.35	-42.0	-42.9	20.7	0.00e+00	0	43	0	445644800	55	4032
2026-01-27 23:46:12.68	33.67	8.40	-42.0	-43.0	20.6	0.00e+00	0	43	0	451936256	55	4070
2026-01-27 23:46:13.69	33.81	8.44	-42.0	-43.0	20.6	0.00e+00	0	43	0	457179136	55	4073
2026-01-27 23:46:14.70	33.95	8.49	-42.1	-43.0	20.6	0.00e+00	0	43	0	462422016	55	4095
2026-01-27 23:46:15.70	34.09	8.54	-42.1	-43.1	20.5	0.00e+00	0	43	0	468713472	55	4116
2026-01-27 23:46:16.70	34.22	8.59	-42.1	-43.1	20.5	0.00e+00	0	43	0	473956352	55	4113
2026-01-27 23:46:17.72	34.37	8.64	-42.0	-43.0	20.6	0.00e+00	0	43	0	480247808	55	4081
2026-01-27 23:46:18.72	34.50	8.69	-42.1	-43.0	20.6	0.00e+00	0	43	0	485490688	55	4095
2026-01-27 23:46:19.73	34.64	8.73	-42.0	-43.0	20.6	0.00e+00	0	43	0	491782144	55	4064
2026-01-27 23:46:20.74	34.79	8.78	-42.0	-42.9	20.7	0.00e+00	0	43	0	497025024	55	4040
2026-01-27 23:46:21.74	34.93	8.83	-41.9	-42.9	20.8	0.00e+00	0	43	0	503316480	55	4013
2026-01-27 23:46:22.75	35.07	8.88	-41.9	-42.8	20.8	0.00e+00	0	43	0	508559360	55	3998
2026-01-27 23:46:23.75	35.21	8.93	-42.0	-42.9	20.7	0.00e+00	0	43	0	513802240	55	4033
2026-01-27 23:46:24.76	35.35	8.97	-41.9	-42.9	20.8	0.00e+00	0	43	0	520093696	55	4008
2026-01-27 23:46:25.77	35.49	9.02	-42.0	-43.0	20.7	0.00e+00	0	43	0	525336576	55	4055
2026-01-27 23:46:26.77	35.64	9.07	-41.9	-42.8	20.8	0.00e+00	0	43	0	530579456	55	3993
2026-01-27 23:46:27.78	35.78	9.12	-41.9	-42.8	20.8	0.00e+00	0	43	0	536870912	55	3975
2026-01-27 23:46:28.79	35.93	9.17	-41.8	-42.8	20.9	0.00e+00	0	43	0	542113792	55	3966
2026-01-27 23:46:29.80	36.07	9.21	-41.8	-42.7	20.9	0.00e+00	0	43	0	547356672	55	3954
2026-01-27 23:46:30.81	36.22	9.26	-41.7	-42.6	21.0	0.00e+00	0	43	0	553648128	55	3891
2026-01-27 23:46:31.81	36.36	9.31	-41.7	-42.6	21.0	0.00e+00	0	43	0	559939584	55	3900
2026-01-27 23:46:32.82	36.51	9.36	-41.6	-42.5	21.1	0.00e+00	0	43	0	565182464	55	3868
2026-01-27 23:46:33.82	36.65	9.40	-41.5	-42.4	21.2	0.00e+00	0	43	0	570425344	55	3807
2026-01-27 23:46:34.83	36.80	9.45	-41.6	-42.5	21.1	0.00e+00	0	43	0	576716800	55	3848
2026-01-27 23:46:35.84	36.95	9.50	-41.5	-42.4	21.2	0.00e+00	0	43	0	581959680	55	3802
2026-01-27 23:46:36.84	37.09	9.54	-41.5	-42.4	21.3	0.00e+00	0	43	0	588251136	54	4014
2026-01-27 23:46:37.85	37.24	9.59	-41.6	-42.5	21.2	0.00e+00	0	43	0	593494016	54	4054
2026-01-27 23:46:38.86	37.39	9.64	-41.4	-42.3	21.4	0.00e+00	0	43	0	598736896	54	3966
2026-01-27 23:46:39.86	37.54	9.69	-41.4	-42.3	21.3	0.00e+00	0	43	0	605028352	54	3992
2026-01-27 23:46:40.87	37.69	9.73	-41.5	-42.4	21.3	0.00e+00	0	43	0	610271232	54	4016
2026-01-27 23:46:41.88	37.84	9.78	-41.6	-42.5	21.2	0.00e+00	0	43	0	615514112	54	4055
2026-01-27 23:46:42.88	37.99	9.83	-41.5	-42.4	21.3	0.00e+00	0	43	0	621805568	54	4026
2026-01-27 23:46:43.89	38.14	9.87	-41.7	-42.6	21.1	0.00e+00	0	43	0	627048448	54	4105
2026-01-27 23:46:44.90	38.29	9.92	-41.6	-42.5	21.2	0.00e+00	0	43	0	632291328	54	4072
2026-01-27 23:46:45.91	38.45	9.97	-41.6	-42.5	21.2	0.00e+00	0	43	0	638582784	54	4070
2026-01-27 23:46:46.92	38.60	10.01	-41.6	-42.5	21.2	0.00e+00	0	43	0	644874240	54	4076
2026-01-27 23:46:47.92	38.75	10.06	-41.4	-42.3	21.3	0.00e+00	0	43	0	650117120	54	3994
2026-01-27 23:46:48.93	38.91	10.10	-41.6	-42.5	21.2	0.00e+00	0	43	0	655360000	54	4074
2026-01-27 23:46:49.94	39.06	10.15	-41.4	-42.3	21.4	0.00e+00	0	43	0	661651456	54	3968
2026-01-27 23:46:50.94	39.21	10.20	-41.3	-42.2	21.5	0.00e+00	0	43	0	666894336	54	3916
2026-01-27 23:46:51.95	39.37	10.24	-41.3	-42.2	21.5	0.00e+00	0	43	0	673185792	54	3946
2026-01-27 23:46:52.96	39.52	10.29	-41.3	-42.1	21.6	0.00e+00	0	43	0	678428672	54	3907
2026-01-27 23:46:53.96	39.68	10.33	-41.3	-42.2	21.5	0.00e+00	0	43	0	683671552	54	3927
2026-01-27 23:46:54.97	39.84	10.38	-41.2	-42.1	21.6	0.00e+00	0	43	0	689963008	54	3893
2026-01-27 23:46:55.98	39.99	10.43	-41.3	-42.2	21.5	0.00e+00	0	43	0	695205888	54	3920
2026-01-27 23:46:56.99	40.15	10.47	-41.3	-42.2	21.5	0.00e+00	0	43	0	700448768	54	3917
2026-01-27 23:46:57.99	40.31	10.52	-41.3	-42.1	21.6	0.00e+00	0	43	0	706740224	54	3904
2026-01-27 23:46:59.00	40.47	10.56	-41.3	-42.1	21.6	0.00e+00	0	43	0	711983104	54	3907
2026-01-27 23:47:00.01	40.62	10.61	-41.2	-42.1	21.6	0.00e+00	0	43	0	718274560	54	3886
2026-01-27 23:47:01.02	40.78	10.65	-41.3	-42.1	21.6	0.00e+00	0	43	0	723517440	54	3910
2026-01-27 23:47:02.03	40.94	10.70	-41.3	-42.2	21.5	0.00e+00	0	43	0	729808896	54	3927
2026-01-27 23:47:03.04	41.11	10.74	-41.2	-42.0	21.7	0.00e+00	0	43	0	735051776	54	3862
2026-01-27 23:47:04.04	41.26	10.79	-41.2	-42.0	21.7	0.00e+00	0	43	0	740294656	54	3861
2026-01-27 23:47:05.05	41.43	10.83	-41.1	-41.9	21.8	0.00e+00	0	43	0	746586112	54	3804
2026-01-27 23:47:06.06	41.59	10.87	-40.9	-41.8	21.9	0.00e+00	0	43	0	751828992	53	3977
2026-01-27 23:47:07.07	41.75	10.92	-41.1	-41.9	21.8	0.00e+00	0	43	0	758120448	53	4033
2026-01-27 23:47:08.08	41.91	10.96	-41.0	-41.9	21.8	0.00e+00	0	43	0	763363328	53	4018
2026-01-27 23:47:09.08	42.07	11.01	-41.0	-41.9	21.8	0.00e+00	0	43	0	768606208	53	4021
2026-01-27 23:47:10.09	42.24	11.05	-41.1	-41.9	21.8	0.00e+00	0	43	0	774897664	53	4033
2026-01-27 23:47:11.09	42.40	11.09	-41.0	-41.9	21.8	0.00e+00	0	43	0	780140544	53	4005
2026-01-27 23:47:12.09	42.56	11.14	-41.1	-41.9	21.8	0.00e+00	0	43	0	785383424	53	4041
2026-01-27 23:47:13.10	42.73	11.18	-41.2	-42.1	21.7	0.00e+00	0	43	0	791674880	53	4108
2026-01-27 23:47:14.11	42.90	11.23	-41.1	-41.9	21.8	0.00e+00	0	43	0	796917760	53	4032
2026-01-27 23:47:15.11	43.06	11.27	-41.0	-41.8	21.9	0.00e+00	0	43	0	803209216	53	3982
2026-01-27 23:47:16.12	43.23	11.31	-40.9	-41.8	21.9	0.00e+00	0	43	0	808452096	53	3961
2026-01-27 23:47:17.12	43.39	11.35	-40.8	-41.7	22.0	0.00e+00	0	43	0	814743552	53	3916
2026-01-27 23:47:18.13	43.56	11.40	-40.9	-41.7	22.0	0.00e+00	0	43	0	819986432	53	3930
2026-01-27 23:47:19.14	43.73	11.44	-40.9	-41.7	22.0	0.00e+00	0	43	0	825229312	53	3934
2026-01-27 23:47:20.15	43.90	11.48	-40.8	-41.6	22.1	0.00e+00	0	44	0	831520768	53	3902
2026-01-27 23:47:21.15	44.06	11.53	-40.9	-41.7	22.0	0.00e+00	0	43	0	836763648	53	3939
2026-01-27 23:47:22.15	44.23	11.57	-41.0	-41.8	21.9	0.00e+00	0	43	0	843055104	53	3988
2026-01-27 23:47:23.17	44.40	11.61	-41.0	-41.8	21.9	0.00e+00	0	43	0	848297984	53	3981
2026-01-27 23:47:24.17	44.57	11.65	-41.1	-41.9	21.8	0.00e+00	0	43	0	853540864	53	4038
2026-01-27 23:47:25.18	44.74	11.69	-41.2	-42.0	21.7	0.00e+00	0	43	0	859832320	53	4092
2026-01-27 23:47:26.18	44.91	11.73	-41.2	-42.1	21.7	0.00e+00	0	43	0	865075200	53	4108
2026-01-27 23:47:27.19	45.09	11.78	-41.0	-41.9	21.9	0.00e+00	0	43	0	870318080	53	4016
2026-01-27 23:47:28.20	45.26	11.82	-41.0	-41.9	21.9	0.00e+00	0	43	0	876609536	53	4008
2026-01-27 23:47:29.20	45.43	11.86	-41.0	-41.9	21.8	0.00e+00	0	43	0	881852416	53	4023
2026-01-27 23:47:30.21	45.60	11.90	-40.9	-41.8	21.9	0.00e+00	0	43	0	888143872	53	3971
2026-01-27 23:47:31.21	45.77	11.94	-41.0	-41.8	21.9	0.00e+00	0	43	0	893386752	53	3987
2026-01-27 23:47:32.22	45.95	11.98	-40.9	-41.7	22.0	0.00e+00	0	43	0	899678208	53	3947
2026-01-27 23:47:33.23	46.12	12.02	-41.0	-41.8	21.9	0.00e+00	0	43	0	904921088	53	3988
2026-01-27 23:47:34.24	46.30	12.06	-40.9	-41.8	22.0	0.00e+00	0	43	0	910163968	53	3966
2026-01-27 23:47:35.25	46.47	12.10	-40.9	-41.8	21.9	0.00e+00	0	43	0	916455424	53	3975
2026-01-27 23:47:36.26	46.65	12.14	-40.9	-41.7	22.0	0.00e+00	0	43	0	921698304	53	3957
2026-01-27 23:47:37.26	46.83	12.18	-40.7	-41.6	22.2	0.00e+00	0	43	0	927989760	53	3877
2026-01-27 23:47:38.26	47.00	12.22	-40.6	-41.4	22.3	0.00e+00	0	43	0	933232640	53	3820
2026-01-27 23:47:39.27	47.18	12.26	-40.6	-41.4	22.3	0.00e+00	0	43	0	938475520	53	3812
2026-01-27 23:47:40.28	47.36	12.30	-40.7	-41.5	22.2	0.00e+00	0	43	0	944766976	53	3865
2026-01-27 23:47:41.28	47.53	12.34	-40.8	-41.7	22.1	0.00e+00	0	43	0	950009856	53	3916
2026-01-27 23:47:42.29	47.71	12.38	-40.9	-41.8	21.9	0.00e+00	0	43	0	955252736	53	3979
2026-01-27 23:47:43.29	47.89	12.42	-40.9	-41.8	22.0	0.00e+00	0	43	0	961544192	53	3961
2026-01-27 23:47:44.30	48.07	12.46	-41.0	-41.9	21.9	0.00e+00	0	43	0	966787072	53	4020
2026-01-27 23:47:45.30	48.25	12.49	-41.0	-41.8	21.9	0.00e+00	0	43	0	972029952	53	4004
2026-01-27 23:47:46.30	48.43	12.53	-40.9	-41.8	22.0	0.00e+00	0	43	0	978321408	53	3972
2026-01-27 23:47:47.31	48.61	12.57	-40.9	-41.7	22.0	0.00e+00	0	43	0	983564288	53	3946
2026-01-27 23:47:48.31	48.79	12.61	-40.6	-41.4	22.3	0.00e+00	0	43	0	989855744	53	3804
2026-01-27 23:47:49.32	48.97	12.65	-40.6	-41.4	22.4	0.00e+00	0	43	0	995098624	53	3792
2026-01-27 23:47:50.33	49.15	12.68	-40.4	-41.2	22.5	0.00e+00	0	43	0	1001390080	52	3941
2026-01-27 23:47:51.33	49.33	12.72	-40.3	-41.1	22.6	0.00e+00	0	43	0	1006632960	52	3898
2026-01-27 23:47:52.34	49.52	12.76	-40.4	-41.2	22.6	0.00e+00	0	43	0	1012924416	52	3930
2026-01-27 23:47:53.35	49.70	12.79	-40.3	-41.1	22.6	0.00e+00	0	43	0	1018167296	52	3888
2026-01-27 23:47:54.36	49.89	12.83	-40.5	-41.3	22.5	0.00e+00	0	43	0	1023410176	52	3961
2026-01-27 23:47:55.36	50.07	12.87	-40.7	-41.5	22.3	0.00e+00	0	43	0	1029701632	52	4067
2026-01-27 23:47:56.37	50.25	12.90	-40.7	-41.5	22.2	0.00e+00	0	43	0	1034944512	52	4082
2026-01-27 23:47:57.38	50.44	12.94	-40.7	-41.5	22.3	0.00e+00	0	43	0	1040187392	52	4077
2026-01-27 23:47:58.39	50.63	12.98	-40.8	-41.6	22.1	0.00e+00	0	43	0	1046478848	52	4144
2026-01-27 23:47:59.40	50.81	13.01	-40.8	-41.6	22.2	0.00e+00	0	43	0	1051721728	52	4124
2026-01-27 23:48:00.41	51.00	13.05	-40.7	-41.5	22.2	0.00e+00	0	43	0	1056964608	52	4090
2026-01-27 23:48:01.41	51.18	13.08	-40.6	-41.5	22.3	0.00e+00	0	43	0	1063256064	52	4059
2026-01-27 23:48:02.42	51.37	13.12	-40.6	-41.4	22.3	0.00e+00	0	43	0	1069547520	52	4043
2026-01-27 23:48:03.43	51.56	13.15	-40.5	-41.3	22.5	0.00e+00	0	43	0	1074790400	52	3977
2026-01-27 23:48:04.43	51.75	13.19	-40.5	-41.3	22.4	0.00e+00	0	43	0	1080033280	52	3982
2026-01-27 23:48:05.44	51.94	13.22	-40.4	-41.2	22.5	0.00e+00	0	43	0	1086324736	52	3955
2026-01-27 23:48:06.44	52.12	13.25	-40.5	-41.3	22.5	0.00e+00	0	43	0	1091567616	52	3978
2026-01-27 23:48:07.44	52.31	13.29	-40.3	-41.1	22.6	0.00e+00	0	43	0	1097859072	52	3902
2026-01-27 23:48:08.45	52.50	13.32	-40.3	-41.1	22.6	0.00e+00	0	43	0	1103101952	52	3908
2026-01-27 23:48:09.46	52.69	13.35	-40.4	-41.2	22.5	0.00e+00	0	43	0	1108344832	52	3937
2026-01-27 23:48:10.47	52.89	13.39	-40.4	-41.3	22.5	0.00e+00	0	43	0	1114636288	52	3963
2026-01-27 23:48:11.48	53.08	13.42	-40.6	-41.4	22.5	0.00e+00	0	43	0	1119879168	52	4017
2026-01-27 23:48:12.48	53.27	13.45	-40.5	-41.3	22.5	0.00e+00	0	43	0	1125122048	52	3977
2026-01-27 23:48:13.49	53.46	13.48	-40.5	-41.3	22.5	0.00e+00	0	43	0	1131413504	52	3997
2026-01-27 23:48:14.50	53.65	13.52	-40.4	-41.2	22.5	0.00e+00	0	43	0	1136656384	52	3951
2026-01-27 23:48:15.51	53.85	13.55	-40.5	-41.3	22.4	0.00e+00	0	43	0	1141899264	52	4004
2026-01-27 23:48:16.52	54.04	13.58	-40.5	-41.3	22.5	0.00e+00	0	43	0	1148190720	52	3994
2026-01-27 23:48:17.52	54.23	13.61	-40.6	-41.4	22.4	0.00e+00	0	43	0	1154482176	52	4029
2026-01-27 23:48:18.53	54.43	13.64	-40.5	-41.3	22.5	0.00e+00	0	43	0	1159725056	52	3983
2026-01-27 23:48:19.54	54.62	13.67	-40.4	-41.3	22.5	0.00e+00	0	43	0	1164967936	52	3962
2026-01-27 23:48:20.54	54.82	13.70	-40.6	-41.4	22.4	0.00e+00	0	43	0	1171259392	52	4018
2026-01-27 23:48:21.55	55.01	13.73	-40.7	-41.5	22.3	0.00e+00	0	43	0	1176502272	52	4069
2026-01-27 23:48:22.57	55.21	13.76	-40.4	-41.3	22.5	0.00e+00	0	43	0	1182793728	52	3963
2026-01-27 23:48:23.58	55.41	13.79	-40.5	-41.4	22.4	0.00e+00	0	43	0	1188036608	52	4014
2026-01-27 23:48:24.58	55.60	13.82	-40.4	-41.2	22.6	0.00e+00	0	43	0	1193279488	52	3955
2026-01-27 23:48:25.59	55.80	13.85	-40.4	-41.2	22.5	0.00e+00	0	43	0	1199570944	52	3941
2026-01-27 23:48:26.60	56.00	13.88	-40.4	-41.2	22.6	0.00e+00	0	43	0	1204813824	52	3944
2026-01-27 23:48:27.60	56.19	13.91	-40.5	-41.3	22.5	0.00e+00	0	43	0	1210056704	52	3972
2026-01-27 23:48:28.61	56.39	13.94	-40.5	-41.3	22.4	0.00e+00	0	43	0	1216348160	52	4001
2026-01-27 23:48:29.62	56.59	13.97	-40.4	-41.2	22.6	0.00e+00	0	43	0	1222639616	52	3925
2026-01-27 23:48:30.63	56.79	13.99	-40.5	-41.3	22.5	0.00e+00	0	43	0	1227882496	52	3988
2026-01-27 23:48:31.63	56.99	14.02	-40.3	-41.1	22.6	0.00e+00	0	43	0	1233125376	52	3898
2026-01-27 23:48:32.64	57.19	14.05	-40.2	-41.0	22.8	0.00e+00	0	43	0	1239416832	52	3830
2026-01-27 23:48:33.65	57.39	14.07	-40.1	-40.9	22.9	0.00e+00	0	43	0	1244659712	52	3787
2026-01-27 23:48:34.66	57.59	14.10	-40.1	-40.9	22.9	0.00e+00	0	43	0	1249902592	52	3799
2026-01-27 23:48:35.67	57.79	14.13	-40.2	-41.0	22.8	0.00e+00	0	43	0	1256194048	52	3834
2026-01-27 23:48:36.68	57.99	14.15	-40.3	-41.0	22.7	0.00e+00	0	43	0	1261436928	52	3867
2026-01-27 23:48:37.68	58.19	14.18	-40.3	-41.1	22.7	0.00e+00	0	43	0	1267728384	52	3883
2026-01-27 23:48:38.69	58.39	14.20	-40.2	-41.0	22.8	0.00e+00	0	43	0	1272971264	52	3865
2026-01-27 23:48:39.69	58.59	14.23	-40.2	-41.0	22.8	0.00e+00	0	43	0	1278214144	52	3850
2026-01-27 23:48:40.70	58.79	14.25	-40.2	-41.0	22.8	0.00e+00	0	43	0	1284505600	52	3835
2026-01-27 23:48:41.71	59.00	14.28	-40.1	-40.9	22.9	0.00e+00	0	43	0	1289748480	52	3790
2026-01-27 23:48:42.72	59.20	14.30	-40.0	-40.8	23.0	0.00e+00	0	43	0	1296039936	52	3778
2026-01-27 23:48:43.72	59.40	14.33	-40.1	-40.9	22.9	0.00e+00	0	43	0	1301282816	52	3785
2026-01-27 23:48:44.73	59.60	14.35	-40.1	-40.9	23.0	0.00e+00	0	43	0	1307574272	51	4030
2026-01-27 23:48:45.74	59.81	14.37	-40.2	-41.0	22.9	0.00e+00	0	43	0	1312817152	51	4054
2026-01-27 23:48:46.75	60.01	14.40	-40.1	-40.9	23.0	0.00e+00	0	43	0	1318060032	51	4021
2026-01-27 23:48:47.75	60.22	14.42	-40.2	-41.0	22.9	0.00e+00	0	43	0	1324351488	51	4065
2026-01-27 23:48:48.76	60.42	14.44	-40.2	-41.0	22.9	0.00e+00	0	43	0	1329594368	51	4053
2026-01-27 23:48:49.76	60.62	14.46	-40.3	-41.1	22.8	0.00e+00	0	43	0	1334837248	51	4119
2026-01-27 23:48:50.77	60.83	14.49	-40.3	-41.1	22.8	0.00e+00	0	43	0	1341128704	51	4115
2026-01-27 23:48:51.77	61.03	14.51	-40.4	-41.2	22.7	0.00e+00	0	43	0	1346371584	51	4156
2026-01-27 23:48:52.78	61.24	14.53	-40.5	-41.3	22.6	0.00e+00	0	43	0	1352663040	51	4226
2026-01-27 23:48:53.79	61.45	14.55	-40.4	-41.3	22.6	0.00e+00	0	43	0	1357905920	51	4205
2026-01-27 23:48:54.80	61.65	14.57	-40.6	-41.4	22.5	0.00e+00	0	43	0	1363148800	51	4259
2026-01-27 23:48:55.81	61.86	14.59	-40.6	-41.4	22.5	0.00e+00	0	43	0	1369440256	51	4284
2026-01-27 23:48:56.81	62.07	14.61	-40.6	-41.4	22.5	0.00e+00	0	43	0	1374683136	51	4257
2026-01-27 23:48:57.81	62.27	14.63	-40.5	-41.3	22.6	0.00e+00	0	43	0	1380974592	51	4222
2026-01-27 23:48:58.82	62.48	14.65	-40.3	-41.1	22.8	0.00e+00	0	43	0	1386217472	51	4107
2026-01-27 23:48:59.83	62.69	14.67	-40.3	-41.1	22.8	0.00e+00	0	43	0	1392508928	51	4114
2026-01-27 23:49:00.84	62.90	14.68	-40.2	-41.0	22.8	0.00e+00	0	43	0	1397751808	51	4083
2026-01-27 23:49:01.85	63.11	14.70	-40.2	-40.9	22.9	0.00e+00	0	43	0	1402994688	51	4047
2026-01-27 23:49:02.85	63.31	14.72	-40.2	-41.0	22.9	0.00e+00	0	43	0	1409286144	51	4074
2026-01-27 23:49:03.86	63.52	14.74	-40.3	-41.1	22.8	0.00e+00	0	43	0	1414529024	51	4134
2026-01-27 23:49:04.87	63.73	14.76	-40.4	-41.2	22.7	0.00e+00	0	43	0	1419771904	51	4148
2026-01-27 23:49:05.87	63.94	14.77	-40.5	-41.3	22.6	0.00e+00	0	43	0	1426063360	51	4210
2026-01-27 23:49:06.88	64.15	14.79	-40.5	-41.3	22.6	0.00e+00	0	43	0	1431306240	51	4212
2026-01-27 23:49:07.89	64.36	14.80	-40.3	-41.1	22.8	0.00e+00	0	43	0	1437597696	51	4138
2026-01-27 23:49:08.89	64.57	14.82	-40.2	-41.0	22.8	0.00e+00	0	43	0	1442840576	51	4094
2026-01-27 23:49:09.90	64.78	14.84	-40.2	-41.0	22.9	0.00e+00	0	43	0	1448083456	51	4055
2026-01-27 23:49:10.91	64.99	14.85	-40.2	-41.0	22.9	0.00e+00	0	43	0	1454374912	51	4080
2026-01-27 23:49:11.92	65.20	14.86	-40.2	-40.9	22.9	0.00e+00	0	43	0	1460666368	51	4047
2026-01-27 23:49:12.93	65.41	14.88	-40.3	-41.0	22.8	0.00e+00	0	43	0	1465909248	51	4092
2026-01-27 23:49:13.93	65.62	14.89	-40.4	-41.2	22.8	0.00e+00	0	43	0	1471152128	51	4148
2026-01-27 23:49:14.93	65.83	14.91	-40.3	-41.1	22.8	0.00e+00	0	43	0	1477443584	51	4121
2026-01-27 23:49:15.94	66.04	14.92	-40.2	-41.0	23.0	0.00e+00	0	43	0	1482686464	51	4060
2026-01-27 23:49:16.95	66.25	14.93	-40.1	-40.9	23.0	0.00e+00	0	43	0	1487929344	51	4020
2026-01-27 23:49:17.96	66.47	14.95	-40.0	-40.8	23.1	0.00e+00	0	43	0	1494220800	51	3987
2026-01-27 23:49:18.96	66.68	14.96	-40.1	-40.8	23.1	0.00e+00	0	43	0	1499463680	51	3992
2026-01-27 23:49:19.96	66.89	14.97	-40.0	-40.8	23.1	0.00e+00	0	43	0	1504706560	51	3961
2026-01-27 23:49:20.97	67.10	14.98	-40.0	-40.8	23.1	0.00e+00	0	43	0	1510998016	51	3976
2026-01-27 23:49:21.98	67.31	14.99	-40.1	-40.8	23.0	0.00e+00	0	43	0	1516240896	51	4001
2026-01-27 23:49:22.99	67.53	15.00	-40.1	-40.8	23.1	0.00e+00	0	43	0	1522532352	51	4000
2026-01-27 23:49:23.99	67.74	15.01	-40.2	-41.0	22.9	0.00e+00	0	43	0	1527775232	51	4063
2026-01-27 23:49:25.00	67.95	15.02	-40.2	-41.0	22.9	0.00e+00	0	43	0	1533018112	51	4066
2026-01-27 23:49:26.01	68.16	15.03	-40.3	-41.1	22.8	0.00e+00	0	43	0	1539309568	51	4115
2026-01-27 23:49:27.01	68.38	15.04	-40.1	-40.8	23.0	0.00e+00	0	44	0	1545601024	51	3999
2026-01-27 23:49:28.01	68.59	15.05	-40.2	-41.0	22.9	0.00e+00	0	43	0	1550843904	51	4070
2026-01-27 23:49:29.02	68.80	15.06	-40.2	-41.0	22.9	0.00e+00	0	43	0	1556086784	51	4070
2026-01-27 23:49:30.02	69.01	15.07	-40.2	-41.0	22.9	0.00e+00	0	43	0	1562378240	51	4077
2026-01-27 23:49:31.03	69.23	15.08	-40.3	-41.1	22.8	0.00e+00	0	43	0	1567621120	51	4140
2026-01-27 23:49:32.04	69.44	15.08	-40.3	-41.1	22.8	0.00e+00	0	43	0	1572864000	51	4140
2026-01-27 23:49:33.05	69.66	15.09	-40.3	-41.2	22.8	0.00e+00	0	43	0	1579155456	51	4153
2026-01-27 23:49:34.05	69.87	15.10	-40.5	-41.3	22.7	0.00e+00	0	43	0	1584398336	51	4198
2026-01-27 23:49:35.05	70.08	15.10	-40.3	-41.1	22.8	0.00e+00	0	43	0	1589641216	51	4115
2026-01-27 23:49:36.06	70.29	15.11	-40.3	-41.1	22.8	0.00e+00	0	43	0	1595932672	51	4116
2026-01-27 23:49:37.07	70.51	15.12	-40.4	-41.2	22.8	0.00e+00	0	43	0	1601175552	51	4147
2026-01-27 23:49:38.07	70.72	15.12	-40.2	-41.0	22.9	0.00e+00	0	43	0	1607467008	51	4091
2026-01-27 23:49:39.08	70.94	15.13	-40.3	-41.1	22.8	0.00e+00	0	43	0	1612709888	51	4127
2026-01-27 23:49:40.09	71.15	15.13	-40.1	-40.9	23.0	0.00e+00	0	43	0	1617952768	51	4022
2026-01-27 23:49:41.10	71.37	15.13	-40.1	-40.9	23.0	0.00e+00	0	43	0	1624244224	51	4040
2026-01-27 23:49:42.10	71.58	15.14	-40.2	-41.0	22.9	0.00e+00	0	43	0	1629487104	51	4077
2026-01-27 23:49:43.11	71.79	15.14	-40.1	-40.9	23.0	0.00e+00	0	43	0	1634729984	51	4019
2026-01-27 23:49:44.11	72.01	15.14	-40.1	-40.9	23.0	0.00e+00	0	43	0	1641021440	51	4026
2026-01-27 23:49:45.12	72.22	15.15	-40.1	-40.9	23.0	0.00e+00	0	43	0	1647312896	51	4017
2026-01-27 23:49:46.13	72.44	15.15	-40.2	-40.9	22.9	0.00e+00	0	43	0	1652555776	51	4046
2026-01-27 23:49:47.14	72.65	15.15	-40.2	-41.0	23.0	0.00e+00	0	43	0	1657798656	51	4054
2026-01-27 23:49:48.14	72.87	15.15	-40.3	-41.1	22.8	0.00e+00	0	43	0	1664090112	51	4142
2026-01-27 23:49:49.14	73.08	15.15	-40.3	-41.1	22.8	0.00e+00	0	43	0	1669332992	51	4138
2026-01-27 23:49:50.15	73.30	15.15	-40.3	-41.1	22.8	0.00e+00	0	43	0	1674575872	51	4112
2026-01-27 23:49:51.16	73.51	15.15	-40.4	-41.2	22.7	0.00e+00	0	43	0	1680867328	51	4156
2026-01-27 23:49:52.17	73.73	15.15	-40.4	-41.3	22.7	0.00e+00	0	43	0	1686110208	51	4195
2026-01-27 23:49:53.18	73.94	15.15	-40.5	-41.3	22.6	0.00e+00	0	43	0	1692401664	51	4215
2026-01-27 23:49:54.19	74.16	15.15	-40.4	-41.2	22.7	0.00e+00	0	44	0	1697644544	51	4168
2026-01-27 23:49:55.19	74.37	15.15	-40.4	-41.2	22.7	0.00e+00	0	43	0	1702887424	51	4171
2026-01-27 23:49:56.20	74.58	15.15	-40.4	-41.2	22.7	0.00e+00	0	43	0	1709178880	51	4174
2026-01-27 23:49:57.21	74.80	15.15	-40.3	-41.1	22.8	0.00e+00	0	43	0	1714421760	51	4100
2026-01-27 23:49:58.21	75.01	15.15	-40.4	-41.2	22.7	0.00e+00	0	43	0	1720713216	51	4147
2026-01-27 23:49:59.21	75.23	15.14	-40.4	-41.2	22.7	0.00e+00	0	43	0	1725956096	51	4166
2026-01-27 23:50:00.22	75.44	15.14	-40.4	-41.2	22.7	0.00e+00	0	43	0	1732247552	51	4183
2026-01-27 23:50:01.23	75.66	15.14	-40.4	-41.3	22.6	0.00e+00	0	44	0	1737490432	51	4198
2026-01-27 23:50:02.23	75.87	15.13	-40.4	-41.2	22.7	0.00e+00	0	43	0	1742733312	51	4191
2026-01-27 23:50:03.24	76.08	15.13	-40.3	-41.1	22.8	0.00e+00	0	43	0	1749024768	51	4123
2026-01-27 23:50:04.25	76.30	15.13	-40.1	-40.9	23.0	0.00e+00	0	43	0	1754267648	51	4022
2026-01-27 23:50:05.26	76.51	15.12	-40.0	-40.8	23.0	0.00e+00	0	43	0	1759510528	51	3992
2026-01-27 23:50:06.26	76.73	15.12	-40.1	-40.9	23.0	0.00e+00	0	43	0	1765801984	51	4035
2026-01-27 23:50:07.27	76.94	15.11	-40.1	-40.9	23.0	0.00e+00	0	43	0	1771044864	51	4041
2026-01-27 23:50:08.27	77.16	15.10	-40.2	-41.0	22.9	0.00e+00	0	43	0	1777336320	51	4079
2026-01-27 23:50:09.28	77.37	15.10	-40.3	-41.1	22.8	0.00e+00	0	43	0	1782579200	51	4115
2026-01-27 23:50:10.29	77.58	15.09	-40.3	-41.1	22.8	0.00e+00	0	43	0	1787822080	51	4104
2026-01-27 23:50:11.30	77.80	15.08	-40.2	-41.0	22.9	0.00e+00	0	43	0	1794113536	51	4072
2026-01-27 23:50:12.31	78.01	15.08	-40.3	-41.1	22.8	0.00e+00	0	43	0	1799356416	51	4104
2026-01-27 23:50:13.32	78.23	15.07	-40.5	-41.3	22.6	0.00e+00	0	43	0	1805647872	51	4197
2026-01-27 23:50:14.33	78.44	15.06	-40.3	-41.1	22.8	0.00e+00	0	43	0	1810890752	51	4115
2026-01-27 23:50:15.33	78.65	15.05	-40.3	-41.1	22.8	0.00e+00	0	43	0	1817182208	51	4101
2026-01-27 23:50:16.34	78.87	15.04	-40.3	-41.1	22.7	0.00e+00	0	43	0	1822425088	51	4132
2026-01-27 23:50:17.35	79.08	15.03	-40.4	-41.2	22.7	0.00e+00	0	43	0	1827667968	51	4178
2026-01-27 23:50:18.35	79.29	15.03	-40.2	-41.0	22.8	0.00e+00	0	43	0	1833959424	51	4094
2026-01-27 23:50:19.36	79.51	15.02	-40.3	-41.1	22.8	0.00e+00	0	43	0	1839202304	51	4114
2026-01-27 23:50:20.37	79.72	15.00	-40.3	-41.1	22.7	0.00e+00	0	43	0	1844445184	51	4139
2026-01-27 23:50:21.38	79.93	14.99	-40.3	-41.1	22.8	0.00e+00	0	43	0	1850736640	51	4101
2026-01-27 23:50:22.38	80.14	14.98	-40.3	-41.1	22.7	0.00e+00	0	43	0	1855979520	51	4132
2026-01-27 23:50:23.39	80.36	14.97	-40.4	-41.2	22.7	0.00e+00	0	43	0	1862270976	51	4152
2026-01-27 23:50:24.40	80.57	14.96	-40.4	-41.2	22.6	0.00e+00	0	43	0	1867513856	51	4175
2026-01-27 23:50:25.41	80.78	14.95	-40.3	-41.1	22.8	0.00e+00	0	43	0	1873805312	51	4122
2026-01-27 23:50:26.42	80.99	14.94	-40.3	-41.0	22.8	0.00e+00	0	43	0	1879048192	51	4095
2026-01-27 23:50:27.43	81.21	14.92	-40.3	-41.1	22.8	0.00e+00	0	43	0	1885339648	51	4116
2026-01-27 23:50:28.44	81.42	14.91	-40.3	-41.1	22.7	0.00e+00	0	43	0	1890582528	51	4141
2026-01-27 23:50:29.45	81.63	14.90	-40.3	-41.1	22.8	0.00e+00	0	43	0	1895825408	51	4130
2026-01-27 23:50:30.45	81.84	14.88	-40.4	-41.2	22.7	0.00e+00	0	43	0	1902116864	51	4193
2026-01-27 23:50:31.46	82.05	14.87	-40.4	-41.3	22.6	0.00e+00	0	43	0	1907359744	51	4196
2026-01-27 23:50:32.47	82.26	14.85	-40.4	-41.2	22.8	0.00e+00	0	43	0	1912602624	51	4161
2026-01-27 23:50:33.47	82.47	14.84	-40.5	-41.4	22.6	0.00e+00	0	43	0	1918894080	51	4243
2026-01-27 23:50:34.48	82.68	14.82	-40.4	-41.2	22.7	0.00e+00	0	43	0	1924136960	51	4179
2026-01-27 23:50:35.49	82.89	14.81	-40.4	-41.2	22.7	0.00e+00	0	43	0	1929379840	51	4178
2026-01-27 23:50:36.50	83.11	14.79	-40.4	-41.3	22.6	0.00e+00	0	43	0	1935671296	51	4194
2026-01-27 23:50:37.50	83.31	14.77	-40.5	-41.4	22.5	0.00e+00	0	43	0	1940914176	51	4248
2026-01-27 23:50:38.51	83.52	14.76	-40.4	-41.2	22.7	0.00e+00	0	43	0	1947205632	51	4183
2026-01-27 23:50:39.52	83.73	14.74	-40.4	-41.3	22.7	0.00e+00	0	43	0	1952448512	51	4201
2026-01-27 23:50:40.52	83.94	14.72	-40.4	-41.2	22.6	0.00e+00	0	43	0	1958739968	51	4187
2026-01-27 23:50:41.53	84.15	14.71	-40.4	-41.3	22.6	0.00e+00	0	43	0	1963982848	51	4194
2026-01-27 23:50:42.53	84.36	14.69	-40.4	-41.2	22.6	0.00e+00	0	43	0	1970274304	51	4191
2026-01-27 23:50:43.54	84.57	14.67	-40.5	-41.3	22.6	0.00e+00	0	43	0	1975517184	51	4220
2026-01-27 23:50:44.55	84.77	14.65	-40.4	-41.2	22.7	0.00e+00	0	43	0	1980760064	51	4155
2026-01-27 23:50:45.56	84.98	14.63	-40.5	-41.3	22.6	0.00e+00	0	43	0	1987051520	51	4220
2026-01-27 23:50:46.57	85.19	14.61	-40.5	-41.3	22.6	0.00e+00	0	43	0	1992294400	51	4204
2026-01-27 23:50:47.57	85.40	14.59	-40.5	-41.3	22.5	0.00e+00	0	44	0	1997537280	51	4235
2026-01-27 23:50:48.58	85.60	14.57	-40.5	-41.3	22.5	0.00e+00	0	43	0	2003828736	51	4242
2026-01-27 23:50:49.59	85.81	14.55	-40.6	-41.4	22.5	0.00e+00	0	43	0	2009071616	51	4273
2026-01-27 23:50:50.59	86.02	14.53	-40.7	-41.5	22.4	0.00e+00	0	43	0	2014314496	51	4313
2026-01-27 23:50:51.60	86.22	14.51	-40.6	-41.4	22.3	0.00e+00	0	43	0	2020605952	52	4034
2026-01-27 23:50:52.61	86.43	14.49	-40.5	-41.4	22.4	0.00e+00	0	43	0	2025848832	52	4013
2026-01-27 23:50:53.61	86.63	14.47	-40.5	-41.3	22.4	0.00e+00	0	43	0	2032140288	52	4001
2026-01-27 23:50:54.62	86.84	14.44	-40.5	-41.3	22.5	0.00e+00	0	43	0	2037383168	52	3974
2026-01-27 23:50:55.63	87.05	14.42	-40.5	-41.4	22.4	0.00e+00	0	43	0	2043674624	52	4005
2026-01-27 23:50:56.64	87.25	14.40	-40.7	-41.5	22.3	0.00e+00	0	43	0	2048917504	52	4069
2026-01-27 23:50:57.65	87.46	14.38	-40.6	-41.5	22.3	0.00e+00	0	43	0	2055208960	52	4066
2026-01-27 23:50:58.66	87.66	14.35	-40.5	-41.4	22.2	0.00e+00	0	43	0	2060451840	52	4041
2026-01-27 23:50:59.67	87.87	14.33	-40.6	-41.5	22.1	0.00e+00	0	43	0	2065694720	52	4083
2026-01-27 23:51:00.68	88.07	14.31	-40.5	-41.4	22.2	0.00e+00	0	44	0	2071986176	52	4025
2026-01-27 23:51:01.69	88.27	14.28	-40.5	-41.4	22.1	0.00e+00	0	43	0	2077229056	52	4031
2026-01-27 23:51:02.70	88.48	14.26	-40.6	-41.4	22.2	0.00e+00	0	43	0	2082471936	52	4032
2026-01-27 23:51:03.71	88.68	14.23	-40.5	-41.3	22.2	0.00e+00	0	43	0	2088763392	52	3996
2026-01-27 23:51:04.71	88.88	14.21	-40.4	-41.3	22.3	0.00e+00	0	44	0	2095054848	52	3975
2026-01-27 23:51:05.72	89.08	14.18	-40.5	-41.4	22.2	0.00e+00	0	43	0	2100297728	52	4008
2026-01-27 23:51:06.72	89.28	14.16	-40.5	-41.3	22.2	0.00e+00	0	43	0	2105540608	52	3990
2026-01-27 23:51:07.73	89.49	14.13	-40.4	-41.2	22.3	0.00e+00	0	43	0	2111832064	52	3943
2026-01-27 23:51:08.74	89.69	14.10	-40.4	-41.2	22.3	0.00e+00	0	43	0	2117074944	52	3939
2026-01-27 23:51:09.75	89.89	14.08	-40.3	-41.2	22.3	0.00e+00	0	43	0	2122317824	52	3930
2026-01-27 23:51:10.76	90.09	14.05	-40.4	-41.3	22.3	0.00e+00	0	43	0	2128609280	52	3970
2026-01-27 23:51:11.76	90.29	14.02	-40.4	-41.2	22.4	0.00e+00	0	43	0	2133852160	52	3942
2026-01-27 23:51:12.77	90.49	14.00	-40.4	-41.3	22.3	0.00e+00	0	43	0	2140143616	52	3964
2026-01-27 23:51:13.78	90.69	13.97	-40.5	-41.4	22.2	0.00e+00	0	43	0	2145386496	52	4013
2026-01-27 23:51:14.78	90.88	13.94	-40.6	-41.5	22.1	0.00e+00	0	43	0	2150629376	52	4057
2026-01-27 23:51:15.79	91.08	13.91	-40.5	-41.4	22.1	0.00e+00	0	43	0	2156920832	52	4035
2026-01-27 23:51:16.80	91.28	13.88	-40.6	-41.5	22.1	0.00e+00	0	44	0	2162163712	52	4069
2026-01-27 23:51:17.81	91.48	13.85	-40.6	-41.5	22.1	0.00e+00	0	43	0	2167406592	52	4080
2026-01-27 23:51:18.82	91.68	13.82	-40.5	-41.4	22.1	0.00e+00	0	44	0	2173698048	52	4020
2026-01-27 23:51:19.82	91.87	13.79	-40.5	-41.4	22.1	0.00e+00	0	43	0	2179989504	52	4015
2026-01-27 23:51:20.83	92.07	13.76	-40.5	-41.4	22.1	0.00e+00	0	43	0	2185232384	52	4022
2026-01-27 23:51:21.83	92.26	13.74	-40.7	-41.5	22.1	0.00e+00	0	43	0	2190475264	52	4090
2026-01-27 23:51:22.84	92.46	13.70	-40.7	-41.6	22.0	0.00e+00	0	43	0	2196766720	52	4100
2026-01-27 23:51:23.85	92.66	13.67	-40.7	-41.5	22.0	0.00e+00	0	43	0	2202009600	52	4088
2026-01-27 23:51:24.85	92.85	13.64	-40.7	-41.6	22.0	0.00e+00	0	43	0	2207252480	52	4136
2026-01-27 23:51:25.86	93.05	13.61	-40.7	-41.6	22.0	0.00e+00	0	43	0	2213543936	52	4107
2026-01-27 23:51:26.87	93.24	13.58	-40.6	-41.5	22.0	0.00e+00	0	43	0	2218786816	52	4062
2026-01-27 23:51:27.87	93.43	13.55	-40.6	-41.5	22.0	0.00e+00	0	43	0	2225078272	52	4064
2026-01-27 23:51:28.88	93.63	13.52	-40.8	-41.7	21.8	0.00e+00	0	43	0	2230321152	52	4162
2026-01-27 23:51:29.89	93.82	13.49	-40.8	-41.7	21.9	0.00e+00	0	43	0	2235564032	52	4169
2026-01-27 23:51:30.90	94.01	13.45	-40.9	-41.8	21.7	0.00e+00	0	43	0	2241855488	52	4218
2026-01-27 23:51:31.91	94.21	13.42	-40.8	-41.7	21.8	0.00e+00	0	43	0	2247098368	52	4175
2026-01-27 23:51:32.91	94.40	13.39	-40.8	-41.7	21.9	0.00e+00	0	43	0	2253389824	52	4146
2026-01-27 23:51:33.92	94.59	13.35	-40.8	-41.6	21.9	0.00e+00	0	43	0	2258632704	52	4141
2026-01-27 23:51:34.93	94.78	13.32	-40.7	-41.6	21.9	0.00e+00	0	43	0	2264924160	52	4133
2026-01-27 23:51:35.93	94.97	13.29	-40.7	-41.6	21.9	0.00e+00	0	43	0	2270167040	52	4127
2026-01-27 23:51:36.94	95.16	13.25	-40.7	-41.6	22.0	0.00e+00	0	43	0	2275409920	52	4103
2026-01-27 23:51:37.95	95.35	13.22	-40.6	-41.5	22.0	0.00e+00	0	43	0	2281701376	52	4072
2026-01-27 23:51:38.96	95.54	13.19	-40.7	-41.6	21.9	0.00e+00	0	43	0	2286944256	52	4116
2026-01-27 23:51:39.97	95.73	13.15	-40.8	-41.7	21.8	0.00e+00	0	43	0	2292187136	52	4156
2026-01-27 23:51:40.97	95.92	13.12	-40.9	-41.8	21.7	0.00e+00	0	43	0	2298478592	52	4209
2026-01-27 23:51:41.98	96.10	13.08	-40.9	-41.8	21.7	0.00e+00	0	43	0	2303721472	52	4225
2026-01-27 23:51:42.99	96.29	13.05	-40.9	-41.9	21.7	0.00e+00	0	43	0	2310012928	52	4250
2026-01-27 23:51:43.99	96.48	13.01	-40.9	-41.8	21.8	0.00e+00	0	43	0	2315255808	52	4232
2026-01-27 23:51:45.00	96.67	12.97	-41.0	-41.9	21.6	0.00e+00	0	43	0	2320498688	52	4285
2026-01-27 23:51:46.01	96.85	12.94	-41.0	-41.9	21.7	0.00e+00	0	43	0	2326790144	52	4287
2026-01-27 23:51:47.02	97.04	12.90	-41.0	-42.0	21.6	0.00e+00	0	43	0	2333081600	52	4296
2026-01-27 23:51:48.02	97.22	12.87	-41.1	-42.0	21.6	0.00e+00	0	43	0	2338324480	52	4317
2026-01-27 23:51:49.03	97.41	12.83	-41.2	-42.1	21.6	0.00e+00	0	43	0	2343567360	53	4132
2026-01-27 23:51:50.03	97.59	12.79	-41.2	-42.1	21.6	0.00e+00	0	43	0	2349858816	53	4130
2026-01-27 23:51:51.04	97.78	12.76	-41.2	-42.1	21.6	0.00e+00	0	43	0	2355101696	53	4121
2026-01-27 23:51:52.05	97.96	12.72	-41.2	-42.1	21.5	0.00e+00	0	43	0	2360344576	53	4124
2026-01-27 23:51:53.05	98.14	12.68	-41.3	-42.2	21.5	0.00e+00	0	43	0	2366636032	53	4178
2026-01-27 23:51:54.06	98.33	12.64	-41.3	-42.2	21.5	0.00e+00	0	43	0	2371878912	53	4175
2026-01-27 23:51:55.07	98.51	12.61	-41.1	-42.0	21.6	0.00e+00	0	43	0	2377121792	53	4082
2026-01-27 23:51:56.09	98.69	12.57	-40.9	-41.8	21.7	0.00e+00	0	43	0	2383413248	53	3991
2026-01-27 23:51:57.09	98.87	12.53	-41.0	-41.9	21.7	0.00e+00	0	43	0	2388656128	53	4014
2026-01-27 23:51:58.10	99.05	12.49	-41.0	-41.8	21.7	0.00e+00	0	43	0	2394947584	53	4001
2026-01-27 23:51:59.10	99.23	12.45	-41.0	-41.8	21.7	0.00e+00	0	43	0	2400190464	53	4001
2026-01-27 23:52:00.11	99.41	12.41	-41.1	-42.0	21.6	0.00e+00	0	43	0	2406481920	53	4053
2026-01-27 23:52:01.12	99.59	12.37	-41.2	-42.1	21.5	0.00e+00	0	43	0	2411724800	53	4127
2026-01-27 23:52:02.13	99.77	12.34	-41.2	-42.1	21.4	0.00e+00	0	43	0	2418016256	53	4133
2026-01-27 23:52:03.14	99.95	12.30	-41.2	-42.1	21.4	0.00e+00	0	43	0	2423259136	53	4143
2026-01-27 23:52:04.15	100.13	12.26	-41.1	-42.1	21.5	0.00e+00	0	43	0	2428502016	53	4105
2026-01-27 23:52:05.15	100.31	12.22	-41.1	-42.0	21.6	0.00e+00	0	43	0	2434793472	53	4074
2026-01-27 23:52:06.16	100.48	12.18	-41.2	-42.1	21.4	0.00e+00	0	43	0	2440036352	53	4125
2026-01-27 23:52:07.17	100.66	12.14	-41.2	-42.1	21.4	0.00e+00	0	43	0	2445279232	53	4105
2026-01-27 23:52:08.17	100.84	12.10	-41.0	-41.9	21.6	0.00e+00	0	43	0	2451570688	53	4045
2026-01-27 23:52:09.18	101.01	12.06	-41.1	-42.0	21.5	0.00e+00	0	43	0	2456813568	53	4079
2026-01-27 23:52:10.19	101.19	12.01	-41.1	-42.0	21.5	0.00e+00	0	43	0	2462056448	53	4085
2026-01-27 23:52:11.19	101.36	11.97	-41.1	-42.0	21.5	0.00e+00	0	43	0	2468347904	53	4075
2026-01-27 23:52:12.20	101.54	11.93	-41.2	-42.1	21.4	0.00e+00	0	43	0	2473590784	53	4137
2026-01-27 23:52:13.21	101.71	11.89	-41.3	-42.2	21.4	0.00e+00	0	43	0	2479882240	53	4165
2026-01-27 23:52:14.22	101.89	11.85	-41.3	-42.2	21.4	0.00e+00	0	43	0	2485125120	53	4160
2026-01-27 23:52:15.22	102.06	11.81	-41.3	-42.2	21.3	0.00e+00	0	43	0	2491416576	53	4189
2026-01-27 23:52:16.23	102.23	11.77	-41.4	-42.3	21.3	0.00e+00	0	43	0	2496659456	53	4237
2026-01-27 23:52:17.24	102.40	11.73	-41.5	-42.5	21.2	0.00e+00	0	43	0	2502950912	53	4303
2026-01-27 23:52:18.25	102.58	11.68	-41.5	-42.5	21.1	0.00e+00	0	43	0	2508193792	53	4300
2026-01-27 23:52:19.25	102.75	11.64	-41.5	-42.4	21.1	0.00e+00	0	43	0	2513436672	53	4281
2026-01-27 23:52:20.26	102.92	11.60	-41.6	-42.6	21.0	0.00e+00	0	43	0	2519728128	53	4357
2026-01-27 23:52:21.26	103.09	11.56	-41.6	-42.5	21.0	0.00e+00	0	43	0	2524971008	53	4327
2026-01-27 23:52:22.27	103.26	11.51	-41.7	-42.6	21.0	0.00e+00	0	43	0	2530213888	53	4368
2026-01-27 23:52:23.28	103.42	11.47	-41.7	-42.7	20.9	0.00e+00	0	43	0	2536505344	54	4148
2026-01-27 23:52:24.28	103.59	11.43	-41.6	-42.6	21.0	0.00e+00	0	43	0	2541748224	54	4101
2026-01-27 23:52:25.29	103.76	11.39	-41.7	-42.7	20.9	0.00e+00	0	43	0	2546991104	54	4155
2026-01-27 23:52:26.30	103.93	11.34	-41.6	-42.6	21.0	0.00e+00	0	43	0	2553282560	54	4118
2026-01-27 23:52:27.31	104.10	11.30	-41.6	-42.6	21.0	0.00e+00	0	43	0	2559574016	54	4116
2026-01-27 23:52:28.32	104.26	11.26	-41.7	-42.7	20.9	0.00e+00	0	43	0	2564816896	54	4166
2026-01-27 23:52:29.33	104.43	11.21	-41.6	-42.5	21.0	0.00e+00	0	43	0	2570059776	54	4097
2026-01-27 23:52:30.33	104.60	11.17	-41.7	-42.7	21.0	0.00e+00	0	43	0	2576351232	54	4152
2026-01-27 23:52:31.34	104.76	11.13	-41.8	-42.7	20.9	0.00e+00	0	43	0	2581594112	54	4168
2026-01-27 23:52:32.35	104.93	11.08	-41.8	-42.7	20.9	0.00e+00	0	44	0	2587885568	54	4181
2026-01-27 23:52:33.36	105.09	11.04	-41.7	-42.7	20.9	0.00e+00	0	43	0	2593128448	54	4162
2026-01-27 23:52:34.37	105.26	10.99	-41.6	-42.5	21.0	0.00e+00	0	44	0	2598371328	54	4094
2026-01-27 23:52:35.37	105.42	10.95	-41.7	-42.6	21.0	0.00e+00	0	43	0	2604662784	54	4133
2026-01-27 23:52:36.38	105.58	10.90	-41.6	-42.6	21.0	0.00e+00	0	43	0	2609905664	54	4114
2026-01-27 23:52:37.39	105.75	10.86	-41.7	-42.6	21.0	0.00e+00	0	43	0	2615148544	54	4140
2026-01-27 23:52:38.40	105.91	10.81	-41.8	-42.8	20.8	0.00e+00	0	43	0	2621440000	54	4194
2026-01-27 23:52:39.41	106.07	10.77	-41.7	-42.6	21.0	0.00e+00	0	43	0	2626682880	54	4130
2026-01-27 23:52:40.41	106.23	10.72	-41.7	-42.7	20.9	0.00e+00	0	43	0	2631925760	54	4164
2026-01-27 23:52:41.41	106.39	10.68	-41.7	-42.7	20.9	0.00e+00	0	43	0	2638217216	54	4156
2026-01-27 23:52:42.42	106.55	10.63	-41.7	-42.7	20.8	0.00e+00	0	43	0	2644508672	54	4167
2026-01-27 23:52:43.43	106.71	10.59	-41.7	-42.6	20.9	0.00e+00	0	43	0	2649751552	54	4132
2026-01-27 23:52:44.44	106.87	10.54	-41.7	-42.7	20.9	0.00e+00	0	43	0	2654994432	54	4158
2026-01-27 23:52:45.44	107.03	10.50	-41.7	-42.6	20.9	0.00e+00	0	43	0	2661285888	54	4140
2026-01-27 23:52:46.45	107.19	10.45	-41.7	-42.7	20.9	0.00e+00	0	43	0	2666528768	54	4165
2026-01-27 23:52:47.46	107.34	10.41	-41.7	-42.6	20.9	0.00e+00	0	43	0	2672820224	54	4138
2026-01-27 23:52:48.47	107.50	10.36	-41.6	-42.6	21.0	0.00e+00	0	44	0	2678063104	54	4117
2026-01-27 23:52:49.48	107.66	10.31	-41.7	-42.6	21.0	0.00e+00	0	43	0	2683305984	54	4120
2026-01-27 23:52:50.48	107.81	10.27	-41.6	-42.6	21.0	0.00e+00	0	43	0	2689597440	54	4112
2026-01-27 23:52:51.49	107.97	10.22	-41.8	-42.7	20.9	0.00e+00	0	43	0	2694840320	54	4183
2026-01-27 23:52:52.50	108.13	10.18	-41.9	-42.9	20.7	0.00e+00	0	44	0	2700083200	54	4261
2026-01-27 23:52:53.51	108.28	10.13	-41.8	-42.7	20.8	0.00e+00	0	43	0	2706374656	54	4182
2026-01-27 23:52:54.51	108.44	10.08	-41.8	-42.8	20.8	0.00e+00	0	43	0	2711617536	54	4199
2026-01-27 23:52:55.52	108.59	10.04	-41.9	-42.9	20.6	0.00e+00	0	43	0	2717908992	54	4268
2026-01-27 23:52:56.52	108.74	9.99	-41.9	-42.9	20.6	0.00e+00	0	43	0	2723151872	54	4251
2026-01-27 23:52:57.53	108.90	9.94	-42.0	-43.0	20.5	0.00e+00	0	43	0	2729443328	54	4298
2026-01-27 23:52:58.53	109.05	9.90	-41.9	-42.9	20.6	0.00e+00	0	43	0	2734686208	54	4258
2026-01-27 23:52:59.54	109.20	9.85	-42.0	-43.0	20.6	0.00e+00	0	43	0	2739929088	54	4333
2026-01-27 23:53:00.55	109.35	9.80	-42.1	-43.1	20.5	0.00e+00	0	43	0	2746220544	54	4346
2026-01-27 23:53:01.56	109.50	9.76	-42.0	-43.0	20.5	0.00e+00	0	43	0	2751463424	54	4322
2026-01-27 23:53:02.57	109.65	9.71	-42.1	-43.0	20.5	0.00e+00	0	43	0	2757754880	54	4338
2026-01-27 23:53:03.58	109.80	9.66	-42.0	-42.9	20.6	0.00e+00	0	43	0	2762997760	54	4290
2026-01-27 23:53:04.59	109.95	9.61	-42.0	-43.0	20.5	0.00e+00	0	43	0	2768240640	54	4317
2026-01-27 23:53:05.59	110.10	9.57	-42.0	-43.0	20.5	0.00e+00	0	43	0	2774532096	54	4316
2026-01-27 23:53:06.60	110.25	9.52	-42.0	-43.0	20.5	0.00e+00	0	43	0	2779774976	54	4314
2026-01-27 23:53:07.60	110.40	9.47	-42.1	-43.1	20.4	0.00e+00	0	43	0	2785017856	54	4346
2026-01-27 23:53:08.61	110.55	9.42	-42.1	-43.0	20.5	0.00e+00	0	43	0	2791309312	54	4336
2026-01-27 23:53:09.61	110.69	9.38	-42.1	-43.1	20.5	0.00e+00	0	43	0	2797600768	54	4350
2026-01-27 23:53:10.62	110.84	9.33	-42.1	-43.1	20.4	0.00e+00	0	43	0	2802843648	54	4351
2026-01-27 23:53:11.63	110.99	9.28	-42.1	-43.1	20.4	0.00e+00	0	43	0	2808086528	54	4364
2026-01-27 23:53:12.64	111.13	9.23	-42.2	-43.1	20.3	0.00e+00	0	43	0	2814377984	55	4145
2026-01-27 23:53:13.65	111.28	9.19	-42.1	-43.1	20.4	0.00e+00	0	43	0	2819620864	55	4121
2026-01-27 23:53:14.65	111.42	9.14	-42.3	-43.3	20.2	0.00e+00	0	43	0	2824863744	55	4236
2026-01-27 23:53:15.66	111.57	9.09	-42.3	-43.3	20.2	0.00e+00	0	43	0	2831155200	55	4205
2026-01-27 23:53:16.67	111.71	9.04	-42.3	-43.3	20.2	0.00e+00	0	43	0	2836398080	55	4210
2026-01-27 23:53:17.68	111.86	8.99	-42.3	-43.3	20.2	0.00e+00	0	43	0	2842689536	55	4229
2026-01-27 23:53:18.69	112.00	8.94	-42.4	-43.4	20.1	0.00e+00	0	43	0	2847932416	55	4273
2026-01-27 23:53:19.69	112.14	8.90	-42.5	-43.6	20.0	0.00e+00	0	43	0	2853175296	55	4351
2026-01-27 23:53:20.70	112.29	8.85	-42.4	-43.5	20.1	0.00e+00	0	43	0	2859466752	55	4305
2026-01-27 23:53:21.71	112.43	8.80	-42.4	-43.4	20.1	0.00e+00	0	43	0	2864709632	55	4273
2026-01-27 23:53:22.71	112.57	8.75	-42.4	-43.4	20.1	0.00e+00	0	43	0	2871001088	55	4282
2026-01-27 23:53:23.72	112.71	8.70	-42.5	-43.5	20.1	0.00e+00	0	43	0	2876243968	55	4305
2026-01-27 23:53:24.73	112.85	8.65	-42.4	-43.4	20.1	0.00e+00	0	43	0	2882535424	55	4270
2026-01-27 23:53:25.74	112.99	8.61	-42.4	-43.5	20.0	0.00e+00	0	43	0	2887778304	55	4299
2026-01-27 23:53:26.75	113.13	8.56	-42.3	-43.3	20.1	0.00e+00	0	43	0	2893021184	55	4241
2026-01-27 23:53:27.75	113.27	8.51	-42.3	-43.3	20.1	0.00e+00	0	43	0	2899312640	55	4241
2026-01-27 23:53:28.75	113.41	8.46	-42.4	-43.4	20.0	0.00e+00	0	43	0	2904555520	55	4285
2026-01-27 23:53:29.76	113.55	8.41	-42.3	-43.3	20.1	0.00e+00	0	43	0	2909798400	55	4241
2026-01-27 23:53:30.77	113.69	8.36	-42.4	-43.4	20.0	0.00e+00	0	43	0	2916089856	55	4266
2026-01-27 23:53:31.77	113.82	8.31	-42.4	-43.5	20.0	0.00e+00	0	43	0	2921332736	55	4300
2026-01-27 23:53:32.77	113.96	8.26	-42.4	-43.5	19.9	0.00e+00	0	43	0	2927624192	55	4307
2026-01-27 23:53:33.78	114.09	8.22	-42.4	-43.4	20.0	0.00e+00	0	43	0	2932867072	55	4290
2026-01-27 23:53:34.79	114.23	8.17	-42.5	-43.5	19.9	0.00e+00	0	43	0	2938109952	55	4337
2026-01-27 23:53:35.80	114.37	8.12	-42.4	-43.4	20.0	0.00e+00	0	43	0	2944401408	55	4282
2026-01-27 23:53:36.80	114.50	8.07	-42.5	-43.5	19.9	0.00e+00	0	43	0	2949644288	55	4331
2026-01-27 23:53:37.81	114.64	8.02	-42.5	-43.6	19.9	0.00e+00	0	43	0	2955935744	55	4364
2026-01-27 23:53:38.82	114.77	7.97	-42.4	-43.5	20.0	0.00e+00	0	43	0	2961178624	55	4309
2026-01-27 23:53:39.83	114.91	7.92	-42.5	-43.6	19.9	0.00e+00	0	43	0	2967470080	55	4354
2026-01-27 23:53:40.84	115.04	7.87	-42.5	-43.5	19.9	0.00e+00	0	43	0	2972712960	55	4335
2026-01-27 23:53:41.85	115.17	7.82	-42.4	-43.5	19.9	0.00e+00	0	43	0	2977955840	55	4292
2026-01-27 23:53:42.85	115.30	7.77	-42.4	-43.5	19.9	0.00e+00	0	43	0	2984247296	55	4296
2026-01-27 23:53:43.86	115.44	7.72	-42.3	-43.3	20.0	0.00e+00	0	43	0	2989490176	55	4236
2026-01-27 23:53:44.87	115.57	7.67	-42.4	-43.5	19.9	0.00e+00	0	43	0	2994733056	55	4297
2026-01-27 23:53:45.88	115.70	7.62	-42.3	-43.4	20.0	0.00e+00	0	43	0	3001024512	55	4246
2026-01-27 23:53:46.88	115.83	7.57	-42.4	-43.4	19.9	0.00e+00	0	43	0	3006267392	55	4255
2026-01-27 23:53:47.89	115.96	7.52	-42.3	-43.4	19.9	0.00e+00	0	43	0	3012558848	55	4252
2026-01-27 23:53:48.90	116.09	7.47	-42.4	-43.4	19.8	0.00e+00	0	43	0	3017801728	55	4286
2026-01-27 23:53:49.91	116.22	7.42	-42.4	-43.5	19.8	0.00e+00	0	43	0	3023044608	55	4311
2026-01-27 23:53:50.91	116.35	7.38	-42.6	-43.6	19.6	0.00e+00	0	43	0	3029336064	55	4383
2026-01-27 23:53:51.92	116.48	7.33	-42.6	-43.6	19.6	0.00e+00	0	43	0	3035627520	55	4382
2026-01-27 23:53:52.93	116.61	7.28	-42.7	-43.8	19.5	0.00e+00	0	43	0	3040870400	55	4443
2026-01-27 23:53:53.93	116.73	7.23	-42.8	-43.9	19.4	0.00e+00	0	43	0	3046113280	56	4255
2026-01-27 23:53:54.94	116.86	7.18	-42.9	-44.0	19.3	0.00e+00	0	43	0	3052404736	56	4329
2026-01-27 23:53:55.95	116.99	7.13	-42.9	-44.0	19.3	0.00e+00	0	43	0	3057647616	56	4305
2026-01-27 23:53:56.96	117.12	7.08	-43.0	-44.1	19.2	0.00e+00	0	43	0	3062890496	56	4371
2026-01-27 23:53:57.97	117.24	7.03	-42.9	-44.1	19.2	0.00e+00	0	43	0	3069181952	56	4341
2026-01-27 23:53:58.97	117.37	6.98	-43.1	-44.2	19.0	0.00e+00	0	44	0	3074424832	56	4424
2026-01-27 23:53:59.98	117.49	6.93	-43.0	-44.2	19.1	0.00e+00	0	43	0	3079667712	56	4405
2026-01-27 23:54:00.99	117.62	6.88	-43.1	-44.2	19.0	0.00e+00	0	43	0	3085959168	56	4440
2026-01-27 23:54:02.00	117.74	6.83	-43.2	-44.4	18.9	0.00e+00	0	43	0	3091202048	56	4494
2026-01-27 23:54:03.00	117.87	6.78	-43.1	-44.2	19.0	0.00e+00	0	43	0	3097493504	57	4176
2026-01-27 23:54:04.01	117.99	6.73	-43.1	-44.2	19.0	0.00e+00	0	43	0	3102736384	57	4170
2026-01-27 23:54:05.01	118.11	6.68	-43.0	-44.2	19.0	0.00e+00	0	43	0	3107979264	57	4164
2026-01-27 23:54:06.02	118.24	6.63	-43.0	-44.2	19.0	0.00e+00	0	43	0	3114270720	57	4155
2026-01-27 23:54:07.02	118.36	6.58	-43.1	-44.2	19.0	0.00e+00	0	43	0	3120562176	57	4171
2026-01-27 23:54:08.03	118.48	6.53	-43.1	-44.3	18.9	0.00e+00	0	43	0	3125805056	57	4198
2026-01-27 23:54:09.04	118.60	6.48	-43.0	-44.2	19.0	0.00e+00	0	43	0	3131047936	57	4151
2026-01-27 23:54:10.05	118.73	6.43	-43.1	-44.2	18.9	0.00e+00	0	43	0	3137339392	57	4182
2026-01-27 23:54:11.06	118.85	6.38	-43.1	-44.2	18.9	0.00e+00	0	43	0	3142582272	57	4162
2026-01-27 23:54:12.07	118.97	6.33	-43.1	-44.2	18.9	0.00e+00	0	43	0	3147825152	57	4178
2026-01-27 23:54:13.07	119.09	6.28	-43.0	-44.1	19.0	0.00e+00	0	44	0	3154116608	57	4124
2026-01-27 23:54:14.08	119.21	6.23	-43.1	-44.3	18.8	0.00e+00	0	43	0	3159359488	57	4212
2026-01-27 23:54:15.08	119.33	6.18	-42.9	-44.1	19.0	0.00e+00	0	43	0	3164602368	57	4119
2026-01-27 23:54:16.09	119.45	6.13	-43.1	-44.3	18.8	0.00e+00	0	43	0	3170893824	57	4214
2026-01-27 23:54:17.10	119.56	6.08	-43.1	-44.3	18.8	0.00e+00	0	43	0	3176136704	57	4199
2026-01-27 23:54:18.11	119.68	6.03	-43.1	-44.2	18.8	0.00e+00	0	43	0	3182428160	57	4182
2026-01-27 23:54:19.12	119.80	5.98	-43.0	-44.2	18.8	0.00e+00	0	43	0	3187671040	57	4173
2026-01-27 23:54:20.12	119.92	5.93	-43.1	-44.3	18.8	0.00e+00	0	44	0	3193962496	57	4198
2026-01-27 23:54:21.13	120.04	5.88	-43.0	-44.2	18.8	0.00e+00	0	43	0	3199205376	57	4178
2026-01-27 23:54:22.14	120.15	5.83	-43.0	-44.1	18.8	0.00e+00	0	43	0	3205496832	57	4144
2026-01-27 23:54:23.15	120.27	5.78	-43.1	-44.3	18.6	0.00e+00	0	43	0	3210739712	57	4239
2026-01-27 23:54:24.16	120.39	5.73	-43.2	-44.4	18.6	0.00e+00	0	43	0	3215982592	57	4271
2026-01-27 23:54:25.17	120.50	5.68	-43.2	-44.4	18.6	0.00e+00	0	43	0	3222274048	57	4256
2026-01-27 23:54:26.17	120.62	5.63	-43.1	-44.3	18.6	0.00e+00	0	43	0	3227516928	57	4235
2026-01-27 23:54:27.18	120.73	5.58	-43.2	-44.4	18.5	0.00e+00	0	43	0	3232759808	57	4287
2026-01-27 23:54:28.19	120.85	5.53	-43.2	-44.4	18.4	0.00e+00	0	43	0	3239051264	57	4279
2026-01-27 23:54:29.19	120.96	5.48	-43.2	-44.4	18.5	0.00e+00	0	43	0	3244294144	57	4280
2026-01-27 23:54:30.21	121.07	5.43	-43.1	-44.3	18.5	0.00e+00	0	43	0	3249537024	57	4227
2026-01-27 23:54:31.21	121.19	5.38	-43.1	-44.3	18.6	0.00e+00	0	43	0	3255828480	57	4214
2026-01-27 23:54:32.22	121.30	5.33	-43.1	-44.3	18.6	0.00e+00	0	43	0	3262119936	57	4195
2026-01-27 23:54:33.23	121.41	5.28	-43.2	-44.4	18.4	0.00e+00	0	43	0	3267362816	57	4260
2026-01-27 23:54:34.24	121.52	5.23	-43.2	-44.3	18.5	0.00e+00	0	43	0	3272605696	57	4238
2026-01-27 23:54:35.25	121.64	5.18	-43.1	-44.3	18.5	0.00e+00	0	44	0	3278897152	57	4223
2026-01-27 23:54:36.26	121.75	5.13	-43.0	-44.2	18.6	0.00e+00	0	43	0	3284140032	57	4164
2026-01-27 23:54:37.27	121.86	5.08	-42.9	-44.0	18.7	0.00e+00	0	44	0	3290431488	57	4074
2026-01-27 23:54:38.27	121.97	5.03	-43.1	-44.3	18.5	0.00e+00	0	43	0	3295674368	57	4213
2026-01-27 23:54:39.28	122.08	4.98	-51.9	-63.6	3.8	8.33e-01	0	43	104	3298820096	74	14707
2026-01-27 23:54:40.29	122.19	4.93	-52.3	-64.2	3.8	8.45e-01	0	43	104	3298820096	75	14778
2026-01-27 23:54:41.29	122.30	4.88	-52.6	-64.5	3.8	8.46e-01	0	43	104	3298820096	75	15359
2026-01-27 23:54:42.30	122.41	4.83	-52.8	-64.7	3.8	8.46e-01	0	43	104	3298820096	76	14843
2026-01-27 23:54:43.31	122.52	4.78	-53.0	-64.9	3.8	8.45e-01	0	43	104	3298820096	76	15208
2026-01-27 23:54:44.31	122.63	4.73	-53.2	-65.1	3.8	8.45e-01	0	43	104	3298820096	76	15428
2026-01-27 23:54:45.32	122.73	4.68	-53.3	-65.2	3.8	8.47e-01	0	44	104	3298820096	77	14826
2026-01-27 23:54:46.33	122.84	4.63	-53.4	-65.3	3.8	8.46e-01	0	43	104	3298820096	77	14970
2026-01-27 23:54:47.33	122.95	4.58	-53.5	-65.4	3.8	8.46e-01	0	43	104	3298820096	77	15189
2026-01-27 23:54:48.34	123.06	4.53	-53.6	-65.5	3.8	8.46e-01	0	43	104	3298820096	77	15233
2026-01-27 23:54:49.35	123.16	4.48	-53.7	-65.6	3.8	8.45e-01	0	43	104	3298820096	77	15490
2026-01-27 23:54:50.35	123.27	4.43	-53.7	-65.6	3.8	8.47e-01	0	44	104	3298820096	77	15561
2026-01-27 23:54:51.36	123.38	4.38	-53.8	-65.7	3.8	8.46e-01	0	43	104	3298820096	78	14844
2026-01-27 23:54:52.37	123.48	4.33	-53.8	-65.8	3.8	8.46e-01	0	44	104	3298820096	78	14890
2026-01-27 23:54:53.37	123.59	4.28	-53.9	-65.8	3.8	8.46e-01	0	43	104	3298820096	78	15027
2026-01-27 23:54:54.37	123.69	4.23	-53.9	-65.9	3.8	8.47e-01	0	44	104	3298820096	78	15133
2026-01-27 23:54:55.38	123.80	4.18	-54.0	-65.9	3.8	8.46e-01	0	43	104	3298820096	78	15142
2026-01-27 23:54:56.39	123.90	4.13	-54.0	-65.9	3.8	8.46e-01	0	43	104	3298820096	78	15219
2026-01-27 23:54:57.40	124.00	4.08	-54.0	-65.9	3.8	8.46e-01	0	43	104	3298820096	78	15155
2026-01-27 23:54:58.40	124.11	4.03	-54.0	-66.0	3.8	8.46e-01	0	43	104	3298820096	78	15236
2026-01-27 23:54:59.41	124.21	3.98	-54.0	-66.0	3.8	8.46e-01	0	43	104	3298820096	78	15251
2026-01-27 23:55:00.42	124.31	3.93	-54.0	-66.0	3.8	8.45e-01	0	43	104	3298820096	78	15278
2026-01-27 23:55:01.43	124.42	3.88	-54.1	-66.0	3.8	8.45e-01	0	43	104	3298820096	78	15299
2026-01-27 23:55:02.44	124.52	3.83	-54.1	-66.0	3.8	8.46e-01	0	44	104	3298820096	78	15330
2026-01-27 23:55:03.44	124.62	3.78	-54.1	-66.0	3.8	8.47e-01	0	43	104	3298820096	78	15377
2026-01-27 23:55:04.45	124.72	3.73	-54.1	-66.0	3.8	8.47e-01	0	43	104	3298820096	78	15382
2026-01-27 23:55:05.45	124.82	3.68	-54.1	-66.1	3.8	8.46e-01	0	43	104	3298820096	78	15437
2026-01-27 23:55:06.46	124.93	3.63	-54.1	-66.1	3.8	8.47e-01	0	43	104	3298820096	78	15439
2026-01-27 23:55:07.47	125.03	3.58	-54.1	-66.1	3.8	8.44e-01	0	43	104	3298820096	78	15464
2026-01-27 23:55:08.48	125.13	3.53	-54.2	-66.1	3.8	8.44e-01	0	43	104	3298820096	78	15518
2026-01-27 23:55:09.49	125.23	3.49	-54.2	-66.1	3.8	8.46e-01	0	43	104	3298820096	78	15573
2026-01-27 23:55:10.49	125.33	3.44	-54.2	-66.3	3.8	8.46e-01	0	44	104	3298820096	79	15022
2026-01-27 23:55:11.50	125.43	3.39	-54.2	-66.2	3.8	8.46e-01	0	43	104	3298820096	79	14772
2026-01-27 23:55:12.51	125.53	3.34	-54.3	-66.2	3.8	8.47e-01	0	43	104	3298820096	79	14749
2026-01-27 23:55:13.52	125.63	3.29	-54.3	-66.2	3.8	8.46e-01	0	43	104	3298820096	79	14842
2026-01-27 23:55:14.53	125.72	3.24	-54.3	-66.2	3.8	8.46e-01	0	43	104	3298820096	79	14787
2026-01-27 23:55:15.53	125.82	3.19	-54.3	-66.2	3.8	8.46e-01	0	44	104	3298820096	79	14815
2026-01-27 23:55:16.53	125.92	3.14	-54.2	-66.2	3.8	8.46e-01	0	44	104	3298820096	79	14768
2026-01-27 23:55:17.54	126.02	3.09	-54.3	-66.2	3.8	8.47e-01	0	43	104	3298820096	79	14848
2026-01-27 23:55:18.54	126.11	3.04	-54.2	-66.2	3.8	8.46e-01	0	44	104	3298820096	79	14784
2026-01-27 23:55:19.55	126.21	2.99	-54.2	-66.1	3.8	8.47e-01	0	43	104	3298820096	79	14707
2026-01-27 23:55:20.56	126.31	2.94	-54.2	-66.1	3.8	8.45e-01	0	44	104	3298820096	79	14687
2026-01-27 23:55:21.57	126.40	2.89	-54.2	-66.1	3.8	8.47e-01	0	43	104	3298820096	79	14667
2026-01-27 23:55:22.57	126.50	2.84	-54.1	-66.1	3.8	8.46e-01	0	43	104	3298820096	79	14609
2026-01-27 23:55:23.58	126.59	2.79	-54.1	-66.1	3.8	8.46e-01	0	43	104	3298820096	79	14558
2026-01-27 23:55:24.59	126.69	2.75	-54.1	-66.0	3.8	8.47e-01	0	44	104	3298820096	79	14480
2026-01-27 23:55:25.60	126.79	2.70	-54.1	-66.0	3.8	8.46e-01	0	43	104	3298820096	79	14449
2026-01-27 23:55:26.60	126.88	2.65	-54.0	-65.9	3.8	8.46e-01	0	43	104	3298820096	79	14363
2026-01-27 23:55:27.61	126.97	2.60	-53.9	-65.9	3.8	8.45e-01	0	44	104	3298820096	79	14261
2026-01-27 23:55:28.61	127.07	2.55	-53.9	-65.8	3.8	8.46e-01	0	44	104	3298820096	79	14124
2026-01-27 23:55:29.62	127.16	2.50	-53.8	-65.8	3.8	8.46e-01	0	44	104	3298820096	79	14062
2026-01-27 23:55:30.63	127.26	2.45	-53.7	-65.6	3.8	8.47e-01	0	43	104	3298820096	79	13854
2026-01-27 23:55:31.63	127.35	2.40	-53.7	-65.6	3.8	8.46e-01	0	44	104	3298820096	78	14627
2026-01-27 23:55:32.63	127.44	2.35	-53.6	-65.5	3.8	8.47e-01	0	44	104	3298820096	78	14441
2026-01-27 23:55:33.64	127.53	2.30	-53.4	-65.3	3.8	8.46e-01	0	44	104	3298820096	78	14193
2026-01-27 23:55:34.64	127.63	2.26	-53.2	-65.1	3.8	8.46e-01	0	43	104	3298820096	78	13831
2026-01-27 23:55:35.65	127.72	2.21	-53.1	-65.0	3.8	8.46e-01	0	44	104	3298820096	78	13713
2026-01-27 23:55:36.66	127.81	2.16	-53.1	-65.0	3.8	8.47e-01	0	43	104	3298820096	78	13642
2026-01-27 23:55:37.66	127.90	2.11	-53.1	-65.0	3.8	8.47e-01	0	43	104	3298820096	78	13637
