passes_logs/2026/01/27/R3.2S_Murmansk/R3.2S_Murmansk__20260127_221748_KANOPUS-V_5_rec.log

#Pass ID: 20260127_221748_KANOPUS-V 5
#Satellite: KANOPUS-V 5
#Configuration: KANOPUS-V_8320
#almurnet v.1.7.20251203
#Start time: 2026-01-27 22:17:48

#Version: 2.2.20231116
#Station: R3.2S_Murmansk
#Location: 33.079688 lon 68.888172 lat
#TLE: 1 43876U 18111A   26027.32158080  .00005009  00000+0  21245-3 0  9994
#TLE: 2 43876  97.3675 295.6129 0001827  89.1739 270.9707 15.23558826393345

#Time	Az	El	Level	Level2	SNR	BER	BlckErr	Temp	State	Recorded	gain1	gain2
2026-01-27 22:17:48.58	20.73	2.00	-54.9	-63.8	3.8	7.47e-01	0	42	0	0	80	10564
2026-01-27 22:17:49.54	20.74	2.07	-54.9	-63.8	3.8	7.45e-01	0	42	104	0	80	10631
2026-01-27 22:17:50.52	20.74	2.14	-54.9	-63.8	3.8	7.45e-01	0	42	104	0	80	10595
2026-01-27 22:17:51.49	20.74	2.20	-55.0	-63.8	3.8	7.45e-01	0	42	104	0	80	10638
2026-01-27 22:17:52.46	20.74	2.27	-55.1	-63.9	3.8	7.45e-01	0	42	104	0	80	10729
2026-01-27 22:17:53.43	20.75	2.34	-55.1	-63.9	3.8	7.45e-01	0	42	104	0	80	10751
2026-01-27 22:17:54.40	20.75	2.41	-55.1	-63.9	3.8	7.44e-01	0	42	104	0	80	10702
2026-01-27 22:17:55.37	20.75	2.48	-55.1	-63.9	3.8	7.44e-01	0	42	104	0	80	10761
2026-01-27 22:17:56.35	20.76	2.55	-55.1	-63.9	3.8	7.45e-01	0	42	104	0	80	10715
2026-01-27 22:17:57.32	20.76	2.62	-55.1	-63.9	3.8	7.45e-01	0	42	104	0	80	10723
2026-01-27 22:17:58.29	20.76	2.69	-55.1	-63.9	3.8	7.46e-01	0	42	104	0	80	10713
2026-01-27 22:17:59.26	20.76	2.76	-55.0	-63.9	3.8	7.44e-01	0	42	104	0	80	10678
2026-01-27 22:18:00.23	20.77	2.83	-55.0	-63.8	3.8	7.43e-01	0	42	104	0	80	10603
2026-01-27 22:18:01.21	20.77	2.90	-55.0	-63.8	3.8	7.46e-01	0	42	104	0	80	10595
2026-01-27 22:18:02.18	20.77	2.97	-55.0	-63.8	3.8	7.45e-01	0	42	104	0	80	10584
2026-01-27 22:18:03.16	20.78	3.04	-54.9	-63.8	3.8	7.46e-01	0	42	104	0	80	10590
2026-01-27 22:18:04.13	20.78	3.11	-54.9	-63.8	3.8	7.46e-01	0	42	104	0	80	10573
2026-01-27 22:18:05.10	20.78	3.18	-54.9	-63.7	3.8	7.46e-01	0	42	104	0	80	10487
2026-01-27 22:18:06.07	20.78	3.26	-54.8	-63.6	3.8	7.47e-01	0	42	104	0	80	10405
2026-01-27 22:18:07.04	20.79	3.33	-54.8	-63.6	3.8	7.45e-01	0	42	104	0	80	10360
2026-01-27 22:18:08.01	20.79	3.40	-54.6	-63.5	3.8	7.45e-01	0	42	104	0	80	10214
2026-01-27 22:18:08.99	20.79	3.47	-54.5	-63.4	3.8	7.45e-01	0	42	104	0	80	10068
2026-01-27 22:18:09.96	20.79	3.55	-54.3	-63.2	3.8	7.45e-01	0	42	104	0	80	9923
2026-01-27 22:18:10.93	20.80	3.62	-52.1	-62.9	3.8	7.46e-01	0	43	104	0	74	13545
2026-01-27 22:18:11.90	20.80	3.69	-54.1	-63.0	3.8	7.45e-01	0	43	104	0	79	10202
2026-01-27 22:18:12.87	20.80	3.77	-53.8	-62.7	3.8	7.45e-01	0	42	104	0	79	9872
2026-01-27 22:18:13.84	20.81	3.84	-53.4	-62.3	3.8	7.46e-01	0	43	104	0	78	9997
2026-01-27 22:18:14.81	20.81	3.91	-53.2	-62.0	3.8	7.44e-01	0	43	104	0	78	9657
2026-01-27 22:18:15.78	20.81	3.99	-53.1	-62.0	3.8	7.46e-01	0	43	104	0	78	9615
2026-01-27 22:18:16.75	20.81	4.06	-53.1	-62.0	3.8	7.46e-01	0	43	104	0	78	9627
2026-01-27 22:18:17.72	20.82	4.14	-53.1	-62.0	3.8	7.45e-01	0	43	104	0	78	9621
2026-01-27 22:18:18.70	20.82	4.21	-53.1	-62.0	3.8	7.46e-01	0	43	104	0	78	9630
2026-01-27 22:18:19.67	20.82	4.29	-53.1	-62.0	3.8	7.44e-01	0	43	104	0	78	9618
2026-01-27 22:18:20.64	20.82	4.36	-53.1	-62.0	3.8	7.44e-01	0	43	104	0	78	9626
2026-01-27 22:18:21.61	20.83	4.44	-53.1	-62.0	3.8	7.45e-01	0	43	104	0	78	9620
2026-01-27 22:18:22.58	20.83	4.52	-53.1	-61.9	3.8	7.45e-01	0	43	104	0	78	9596
2026-01-27 22:18:23.55	20.83	4.59	-53.1	-61.9	3.8	7.45e-01	0	43	104	0	78	9602
2026-01-27 22:18:24.52	20.83	4.67	-53.1	-62.0	3.8	7.47e-01	0	43	104	0	78	9626
2026-01-27 22:18:25.49	20.84	4.75	-53.1	-61.9	3.8	7.45e-01	0	43	104	0	78	9604
2026-01-27 22:18:26.47	20.84	4.82	-53.1	-61.9	3.8	7.45e-01	0	43	104	0	78	9561
2026-01-27 22:18:27.44	20.84	4.90	-53.1	-61.9	3.8	7.44e-01	0	43	104	0	78	9582
2026-01-27 22:18:28.41	20.84	4.98	-53.1	-61.9	3.8	7.43e-01	0	43	104	0	78	9597
2026-01-27 22:18:29.38	20.85	5.06	-53.2	-62.0	3.8	7.44e-01	0	43	104	0	78	9686
2026-01-27 22:18:30.35	20.85	5.14	-53.3	-62.1	3.8	7.45e-01	0	43	104	0	78	9778
2026-01-27 22:18:31.33	20.85	5.22	-53.2	-62.1	3.8	7.45e-01	0	43	104	0	78	9724
2026-01-27 22:18:32.30	20.85	5.30	-53.0	-61.9	3.8	7.46e-01	0	43	104	0	78	9535
2026-01-27 22:18:33.27	20.86	5.38	-53.2	-62.0	3.8	7.44e-01	0	43	104	0	78	9643
2026-01-27 22:18:34.24	20.86	5.45	-53.2	-62.0	3.8	7.45e-01	0	43	104	0	78	9681
2026-01-27 22:18:35.21	20.86	5.54	-53.3	-62.1	3.8	7.45e-01	0	43	104	0	78	9752
2026-01-27 22:18:36.18	20.86	5.62	-53.1	-61.9	3.8	7.42e-01	0	43	104	0	78	9577
2026-01-27 22:18:37.16	20.87	5.70	-53.2	-62.0	3.8	7.45e-01	0	43	104	0	78	9636
2026-01-27 22:18:38.13	20.87	5.78	-53.2	-62.0	3.8	7.44e-01	0	43	104	0	78	9708
2026-01-27 22:18:39.10	20.87	5.86	-53.3	-62.2	3.8	7.46e-01	0	43	104	0	78	9855
2026-01-27 22:18:40.07	20.87	5.94	-53.1	-62.0	3.8	7.44e-01	0	43	104	0	78	9628
2026-01-27 22:18:41.04	20.88	6.02	-53.2	-62.1	3.8	7.45e-01	0	43	104	0	78	9721
2026-01-27 22:18:42.01	20.88	6.11	-53.2	-62.1	3.8	7.43e-01	0	43	104	0	78	9735
2026-01-27 22:18:42.98	20.88	6.19	-53.4	-62.2	3.8	7.46e-01	0	43	104	0	78	9870
2026-01-27 22:18:43.95	20.88	6.27	-53.2	-62.0	3.8	7.46e-01	0	43	104	0	78	9673
2026-01-27 22:18:44.92	20.89	6.36	-53.3	-62.1	3.8	7.44e-01	0	43	104	0	78	9778
2026-01-27 22:18:45.89	20.89	6.44	-53.3	-62.1	3.8	7.44e-01	0	43	104	0	78	9774
2026-01-27 22:18:46.86	20.89	6.53	-53.4	-62.2	3.8	7.47e-01	0	43	104	0	78	9891
2026-01-27 22:18:47.83	20.89	6.61	-53.2	-62.0	3.8	7.46e-01	0	43	104	0	78	9715
2026-01-27 22:18:48.80	20.89	6.70	-53.3	-62.1	3.8	7.45e-01	0	43	104	0	78	9795
2026-01-27 22:18:49.78	20.90	6.78	-53.3	-62.2	3.8	7.45e-01	0	43	104	0	78	9860
2026-01-27 22:18:50.75	20.90	6.87	-53.4	-62.2	3.8	7.46e-01	0	43	104	0	78	9915
2026-01-27 22:18:51.72	20.90	6.95	-53.3	-62.1	3.8	7.46e-01	0	43	104	0	78	9784
2026-01-27 22:18:52.69	20.90	7.04	-53.3	-62.1	3.8	7.46e-01	0	43	104	0	78	9830
2026-01-27 22:18:53.66	20.91	7.13	-53.4	-62.2	3.8	7.43e-01	0	43	104	0	78	9867
2026-01-27 22:18:54.63	20.91	7.22	-53.4	-62.3	3.8	7.45e-01	0	43	104	0	78	9947
2026-01-27 22:18:55.60	20.91	7.30	-53.4	-62.2	3.8	7.45e-01	0	43	104	0	78	9890
2026-01-27 22:18:56.57	20.91	7.39	-53.4	-62.2	3.8	7.44e-01	0	43	104	0	78	9842
2026-01-27 22:18:57.54	20.91	7.48	-53.4	-62.2	3.8	7.45e-01	0	43	104	0	78	9937
2026-01-27 22:18:58.51	20.92	7.57	-53.4	-62.3	3.8	7.46e-01	0	44	104	0	78	9993
2026-01-27 22:18:59.48	20.92	7.66	-53.4	-62.3	3.8	7.45e-01	0	43	104	0	78	9966
2026-01-27 22:19:00.46	20.92	7.75	-53.4	-62.2	3.8	7.45e-01	0	43	104	0	78	9929
2026-01-27 22:19:01.43	20.92	7.84	-53.4	-62.2	3.8	7.44e-01	0	44	104	0	78	9924
2026-01-27 22:19:02.40	20.92	7.93	-53.5	-62.3	3.8	7.45e-01	0	43	104	0	78	10006
2026-01-27 22:19:03.37	20.93	8.02	-53.5	-62.3	3.8	7.46e-01	0	43	104	0	78	10004
2026-01-27 22:19:04.34	20.93	8.11	-53.4	-62.2	3.8	7.43e-01	0	44	104	0	78	9937
2026-01-27 22:19:05.32	20.93	8.21	-53.4	-62.3	3.8	7.44e-01	0	44	104	0	78	9997
2026-01-27 22:19:06.29	20.93	8.30	-53.5	-62.3	3.8	7.46e-01	0	43	104	0	78	9954
2026-01-27 22:19:07.26	20.93	8.39	-53.5	-62.4	3.8	7.45e-01	0	43	104	0	78	10110
2026-01-27 22:19:08.23	20.94	8.49	-53.4	-62.2	3.8	7.45e-01	0	43	104	0	78	9925
2026-01-27 22:19:09.20	20.94	8.58	-53.5	-62.3	3.8	7.45e-01	0	44	104	0	78	10033
2026-01-27 22:19:10.17	20.94	8.68	-53.5	-62.3	3.8	7.44e-01	0	44	104	0	78	10031
2026-01-27 22:19:11.14	20.94	8.77	-53.6	-62.4	3.8	7.45e-01	0	44	104	0	78	10138
2026-01-27 22:19:12.11	20.94	8.87	-53.5	-62.3	3.8	7.45e-01	0	43	104	0	78	10006
2026-01-27 22:19:13.08	20.95	8.96	-53.5	-62.3	3.8	7.45e-01	0	43	104	0	78	10050
2026-01-27 22:19:14.05	20.95	9.06	-53.5	-62.3	3.8	7.45e-01	0	44	104	0	78	10043
2026-01-27 22:19:15.02	20.95	9.16	-53.6	-62.4	3.8	7.45e-01	0	44	104	0	78	10149
2026-01-27 22:19:16.00	20.95	9.26	-53.5	-62.3	3.8	7.46e-01	0	44	104	0	78	9977
2026-01-27 22:19:16.97	20.95	9.35	-53.5	-62.4	3.8	7.44e-01	0	44	104	0	78	10086
2026-01-27 22:19:17.94	20.95	9.45	-53.5	-62.4	3.8	7.45e-01	0	44	104	0	78	10096
2026-01-27 22:19:18.91	20.96	9.55	-53.6	-62.5	3.8	7.45e-01	0	44	104	0	78	10177
2026-01-27 22:19:19.88	20.96	9.65	-53.5	-62.3	3.8	7.46e-01	0	44	104	0	78	10021
2026-01-27 22:19:20.85	20.96	9.75	-53.6	-62.4	3.8	7.45e-01	0	44	104	0	78	10107
2026-01-27 22:19:21.82	20.96	9.85	-53.6	-62.4	3.8	7.46e-01	0	44	104	0	78	10116
2026-01-27 22:19:22.79	20.96	9.95	-53.7	-62.5	3.8	7.44e-01	0	44	104	0	78	10234
2026-01-27 22:19:23.76	20.96	10.05	-53.6	-62.4	3.8	7.46e-01	0	43	104	0	78	10124
2026-01-27 22:19:24.73	20.97	10.16	-53.6	-62.4	3.8	7.46e-01	0	44	104	0	78	10148
2026-01-27 22:19:25.71	20.97	10.26	-53.6	-62.4	3.8	7.45e-01	0	44	104	0	78	10146
2026-01-27 22:19:26.68	20.97	10.36	-53.7	-62.6	3.8	7.44e-01	0	44	104	0	78	10302
2026-01-27 22:19:27.65	20.97	10.47	-53.6	-62.5	3.8	7.46e-01	0	44	104	0	78	10188
2026-01-27 22:19:28.62	20.97	10.57	-53.6	-62.4	3.8	7.43e-01	0	44	104	0	78	10164
2026-01-27 22:19:29.59	20.97	10.68	-53.6	-62.5	3.8	7.44e-01	0	43	104	0	78	10199
2026-01-27 22:19:30.56	20.98	10.78	-53.7	-62.5	3.8	7.45e-01	0	44	104	0	78	10265
2026-01-27 22:19:31.54	20.98	10.89	-53.7	-62.5	3.8	7.46e-01	0	44	104	0	78	10209
2026-01-27 22:19:32.51	20.98	11.00	-53.6	-62.4	3.8	7.46e-01	0	44	104	0	78	10175
2026-01-27 22:19:33.48	20.98	11.11	-53.7	-62.5	3.8	7.44e-01	0	44	104	0	78	10189
2026-01-27 22:19:34.45	20.98	11.22	-53.7	-62.5	3.8	7.45e-01	0	44	104	0	78	10290
2026-01-27 22:19:35.42	20.98	11.33	-53.7	-62.5	3.8	7.45e-01	0	44	104	0	78	10262
2026-01-27 22:19:36.40	20.98	11.44	-53.7	-62.5	3.8	7.45e-01	0	44	104	0	78	10208
2026-01-27 22:19:37.37	20.98	11.55	-53.7	-62.5	3.8	7.46e-01	0	44	104	0	78	10240
2026-01-27 22:19:38.34	20.99	11.66	-53.7	-62.6	3.8	7.45e-01	0	44	104	0	78	10294
2026-01-27 22:19:39.31	20.99	11.77	-53.8	-62.6	3.8	7.44e-01	0	44	104	0	78	10333
2026-01-27 22:19:40.29	20.99	11.88	-53.7	-62.5	3.8	7.44e-01	0	44	104	0	78	10226
2026-01-27 22:19:41.26	20.99	12.00	-53.7	-62.5	3.8	7.47e-01	0	44	104	0	78	10278
2026-01-27 22:19:42.23	20.99	12.11	-53.7	-62.5	3.8	7.45e-01	0	44	104	0	78	10264
2026-01-27 22:19:43.20	20.99	12.22	-53.8	-62.6	3.8	7.45e-01	0	44	104	0	78	10390
2026-01-27 22:19:44.18	20.99	12.34	-53.7	-62.6	3.8	7.45e-01	0	44	104	0	78	10319
2026-01-27 22:19:45.15	20.99	12.46	-53.7	-62.6	3.8	7.43e-01	0	44	104	0	78	10314
2026-01-27 22:19:46.13	21.00	12.58	-53.7	-62.6	3.8	7.45e-01	0	43	104	0	78	10323
2026-01-27 22:19:47.10	21.00	12.69	-53.8	-62.7	3.8	7.45e-01	0	44	104	0	78	10420
2026-01-27 22:19:48.07	21.00	12.81	-53.7	-62.6	3.8	7.45e-01	0	44	104	0	78	10339
2026-01-27 22:19:49.04	21.00	12.93	-53.8	-62.6	3.8	7.45e-01	0	44	104	0	78	10347
2026-01-27 22:19:50.02	21.00	13.05	-53.8	-62.6	3.8	7.45e-01	0	44	104	0	78	10367
2026-01-27 22:19:50.99	21.00	13.17	-53.9	-62.7	3.8	7.44e-01	0	44	104	0	78	10451
2026-01-27 22:19:51.96	21.00	13.29	-53.8	-62.6	3.8	7.46e-01	0	44	104	0	78	10400
2026-01-27 22:19:52.93	21.00	13.42	-53.8	-62.6	3.8	7.45e-01	0	44	104	0	78	10372
2026-01-27 22:19:53.90	21.00	13.54	-53.8	-62.6	3.8	7.45e-01	0	44	104	0	78	10389
2026-01-27 22:19:54.87	21.00	13.66	-53.9	-62.7	3.8	7.45e-01	0	44	104	0	78	10487
2026-01-27 22:19:55.83	21.00	13.79	-53.8	-62.6	3.8	7.46e-01	0	44	104	0	78	10359
2026-01-27 22:19:56.80	21.00	13.91	-53.8	-62.6	3.8	7.47e-01	0	44	104	0	78	10409
2026-01-27 22:19:57.77	21.01	14.04	-53.8	-62.7	3.8	7.46e-01	0	44	104	0	78	10420
2026-01-27 22:19:58.74	21.01	14.16	-53.9	-62.7	3.8	7.45e-01	0	44	104	0	78	10526
2026-01-27 22:19:59.72	21.01	14.29	-53.8	-62.6	3.8	7.46e-01	0	44	104	0	78	10406
2026-01-27 22:20:00.69	21.01	14.42	-53.8	-62.7	3.8	7.45e-01	0	44	104	0	78	10431
2026-01-27 22:20:01.66	21.01	14.55	-53.9	-62.7	3.8	7.43e-01	0	44	104	0	78	10454
2026-01-27 22:20:02.63	21.01	14.68	-53.9	-62.7	3.8	7.44e-01	0	44	104	0	78	10517
2026-01-27 22:20:03.60	21.01	14.82	-53.9	-62.7	3.8	7.44e-01	0	44	104	0	78	10504
2026-01-27 22:20:04.58	21.01	14.95	-53.8	-62.7	3.8	7.46e-01	0	44	104	0	78	10453
2026-01-27 22:20:05.55	21.01	15.08	-53.9	-62.7	3.8	7.45e-01	0	44	104	0	78	10506
2026-01-27 22:20:06.51	21.01	15.22	-53.9	-62.8	3.8	7.44e-01	0	44	104	0	78	10537
2026-01-27 22:20:07.49	21.01	15.35	-53.9	-62.8	3.8	7.45e-01	0	44	104	0	78	10553
2026-01-27 22:20:08.46	21.01	15.49	-53.9	-62.7	3.8	7.45e-01	0	44	104	0	78	10475
2026-01-27 22:20:09.42	21.01	15.63	-53.9	-62.7	3.8	7.47e-01	0	44	104	0	78	10493
2026-01-27 22:20:10.39	21.01	15.77	-53.9	-62.8	3.8	7.45e-01	0	44	104	0	78	10545
2026-01-27 22:20:11.36	21.01	15.91	-54.0	-62.8	3.8	7.46e-01	0	44	104	0	78	10613
2026-01-27 22:20:12.33	21.01	16.05	-53.9	-62.7	3.8	7.47e-01	0	44	104	0	78	10495
2026-01-27 22:20:13.30	21.01	16.19	-53.9	-62.8	3.8	7.44e-01	0	44	104	0	78	10537
2026-01-27 22:20:14.28	21.01	16.33	-53.9	-62.8	3.8	7.45e-01	0	44	104	0	78	10550
2026-01-27 22:20:15.25	21.01	16.48	-54.0	-62.8	3.8	7.45e-01	0	44	104	0	78	10633
2026-01-27 22:20:16.22	21.01	16.62	-53.9	-62.8	3.8	7.45e-01	0	44	104	0	78	10585
2026-01-27 22:20:17.19	21.01	16.77	-53.9	-62.8	3.8	7.44e-01	0	44	104	0	78	10553
2026-01-27 22:20:18.16	21.01	16.92	-54.0	-62.8	3.8	7.46e-01	0	44	104	0	78	10547
2026-01-27 22:20:19.13	21.01	17.06	-54.0	-62.9	3.8	7.46e-01	0	44	104	0	78	10665
2026-01-27 22:20:20.10	21.01	17.21	-54.0	-62.8	3.8	7.48e-01	0	44	104	0	78	10568
2026-01-27 22:20:21.07	21.01	17.36	-54.0	-62.8	3.8	7.45e-01	0	44	104	0	78	10587
2026-01-27 22:20:22.04	21.01	17.52	-54.0	-62.8	3.8	7.46e-01	0	44	104	0	78	10598
2026-01-27 22:20:23.01	21.01	17.67	-54.0	-62.9	3.8	7.46e-01	0	44	104	0	78	10697
2026-01-27 22:20:23.99	21.01	17.83	-54.0	-62.8	3.8	7.45e-01	0	44	104	0	78	10613
2026-01-27 22:20:24.96	21.01	17.98	-54.0	-62.8	3.8	7.45e-01	0	44	104	0	78	10646
2026-01-27 22:20:25.93	21.01	18.14	-54.0	-62.8	3.8	7.45e-01	0	44	104	0	78	10615
2026-01-27 22:20:26.90	21.01	18.30	-54.1	-62.9	3.8	7.44e-01	0	44	104	0	78	10695
2026-01-27 22:20:27.87	21.01	18.46	-53.9	-62.8	3.8	7.43e-01	0	44	104	0	78	10638
2026-01-27 22:20:28.83	21.00	18.62	-54.0	-62.9	3.8	7.45e-01	0	44	104	0	78	10660
2026-01-27 22:20:29.80	21.00	18.78	-54.0	-62.8	3.8	7.46e-01	0	44	104	0	78	10641
2026-01-27 22:20:30.77	21.00	18.94	-54.1	-62.9	3.8	7.46e-01	0	44	104	0	78	10725
2026-01-27 22:20:31.75	21.00	19.11	-54.0	-62.8	3.8	7.46e-01	0	44	104	0	78	10641
2026-01-27 22:20:32.72	21.00	19.28	-54.0	-62.8	3.8	7.46e-01	0	44	104	0	78	10632
2026-01-27 22:20:33.70	21.00	19.45	-54.0	-62.9	3.8	7.46e-01	0	44	104	0	78	10679
2026-01-27 22:20:34.67	21.00	19.62	-54.1	-62.9	3.8	7.46e-01	0	44	104	0	78	10740
2026-01-27 22:20:35.64	21.00	19.79	-54.1	-62.9	3.8	7.44e-01	0	44	104	0	78	10695
2026-01-27 22:20:36.61	21.00	19.96	-54.1	-62.9	3.8	7.45e-01	0	44	104	0	78	10704
2026-01-27 22:20:37.58	20.99	20.13	-54.1	-62.9	3.8	7.45e-01	0	44	104	0	78	10707
2026-01-27 22:20:38.55	20.99	20.31	-54.1	-62.9	3.8	7.46e-01	0	44	104	0	78	10737
2026-01-27 22:20:39.52	20.99	20.49	-54.1	-62.9	3.8	7.45e-01	0	44	104	0	78	10717
2026-01-27 22:20:40.49	20.99	20.67	-54.1	-62.9	3.8	7.45e-01	0	44	104	0	78	10730
2026-01-27 22:20:41.46	20.99	20.85	-54.1	-62.9	3.8	7.46e-01	0	44	104	0	78	10743
2026-01-27 22:20:42.44	20.99	21.03	-54.1	-63.0	3.8	7.46e-01	0	44	104	0	78	10801
2026-01-27 22:20:43.41	20.99	21.21	-54.1	-62.9	3.8	7.44e-01	0	44	104	0	78	10754
2026-01-27 22:20:44.38	20.98	21.40	-54.1	-62.9	3.8	7.44e-01	0	44	104	0	78	10778
2026-01-27 22:20:45.36	20.98	21.59	-54.1	-62.9	3.8	7.46e-01	0	44	104	0	78	10700
2026-01-27 22:20:46.33	20.98	21.78	-54.1	-62.9	3.8	7.46e-01	0	44	104	0	78	10764
2026-01-27 22:20:47.30	20.98	21.97	-54.2	-63.0	3.8	7.46e-01	0	44	104	0	78	10836
2026-01-27 22:20:48.28	20.97	22.16	-54.1	-63.0	3.8	7.45e-01	0	44	104	0	78	10786
2026-01-27 22:20:49.25	20.97	22.36	-54.1	-63.0	3.8	7.46e-01	0	44	104	0	78	10804
2026-01-27 22:20:50.22	20.97	22.55	-54.1	-63.0	3.8	7.46e-01	0	44	104	0	78	10785
2026-01-27 22:20:51.19	20.97	22.75	-54.2	-63.0	3.8	7.45e-01	0	44	104	0	78	10859
2026-01-27 22:20:52.16	20.97	22.95	-54.1	-63.0	3.8	7.47e-01	0	44	104	0	78	10801
2026-01-27 22:20:53.13	20.96	23.16	-54.1	-63.0	3.8	7.43e-01	0	44	104	0	78	10812
2026-01-27 22:20:54.10	20.96	23.36	-54.2	-63.0	3.8	7.46e-01	0	44	104	0	78	10824
2026-01-27 22:20:55.07	20.96	23.57	-54.2	-63.0	3.8	7.46e-01	0	44	104	0	78	10865
2026-01-27 22:20:56.04	20.95	23.77	-54.2	-63.0	3.8	7.44e-01	0	44	104	0	78	10838
2026-01-27 22:20:57.01	20.95	23.98	-54.2	-63.0	3.8	7.46e-01	0	44	104	0	78	10878
2026-01-27 22:20:57.99	20.95	24.20	-54.2	-63.0	3.8	7.45e-01	0	44	104	0	78	10873
2026-01-27 22:20:58.96	20.94	24.41	-54.3	-63.1	3.8	7.44e-01	0	44	104	0	79	10334
2026-01-27 22:20:59.93	20.94	24.63	-54.2	-63.0	3.8	7.45e-01	0	44	104	0	79	10284
2026-01-27 22:21:00.91	20.94	24.85	-54.2	-63.0	3.8	7.45e-01	0	44	104	0	79	10268
2026-01-27 22:21:01.88	20.93	25.07	-54.2	-63.1	3.8	7.44e-01	0	44	104	0	79	10304
2026-01-27 22:21:02.85	20.93	25.30	-54.3	-63.1	3.8	7.43e-01	0	44	104	0	79	10321
2026-01-27 22:21:03.83	20.93	25.52	-54.2	-63.1	3.8	7.46e-01	0	44	104	0	79	10300
2026-01-27 22:21:04.80	20.92	25.75	-54.2	-63.1	3.8	7.45e-01	0	44	104	0	79	10297
2026-01-27 22:21:05.77	20.92	25.98	-54.2	-63.1	3.8	7.44e-01	0	44	104	0	79	10330
2026-01-27 22:21:06.75	20.91	26.22	-54.3	-63.1	3.8	7.47e-01	0	44	104	0	79	10365
2026-01-27 22:21:07.72	20.91	26.45	-54.3	-63.1	3.8	7.44e-01	0	44	104	0	79	10340
2026-01-27 22:21:08.69	20.90	26.69	-54.2	-63.1	3.8	7.45e-01	0	44	104	0	79	10298
2026-01-27 22:21:09.66	20.90	26.93	-54.3	-63.1	3.8	7.45e-01	0	44	104	0	79	10316
2026-01-27 22:21:10.63	20.89	27.18	-54.3	-63.1	3.8	7.44e-01	0	44	104	0	79	10408
2026-01-27 22:21:11.60	20.89	27.42	-54.3	-63.1	3.8	7.44e-01	0	44	104	0	79	10365
2026-01-27 22:21:12.57	20.88	27.67	-54.3	-63.1	3.8	7.45e-01	0	44	104	0	79	10360
2026-01-27 22:21:13.54	20.88	27.92	-54.3	-63.1	3.8	7.44e-01	0	44	104	0	79	10354
2026-01-27 22:21:14.51	20.87	28.18	-54.3	-63.2	3.8	7.45e-01	0	44	104	0	79	10428
2026-01-27 22:21:15.48	20.87	28.43	-54.3	-63.1	3.8	7.45e-01	0	44	104	0	79	10405
2026-01-27 22:21:16.46	20.86	28.70	-54.3	-63.1	3.8	7.47e-01	0	44	104	0	79	10332
2026-01-27 22:21:17.43	20.86	28.96	-54.3	-63.1	3.8	7.45e-01	0	44	104	0	79	10407
2026-01-27 22:21:18.41	20.85	29.23	-54.4	-63.2	3.8	7.46e-01	0	44	104	0	79	10441
2026-01-27 22:21:19.38	20.84	29.50	-54.4	-63.2	3.8	7.44e-01	0	44	104	0	79	10467
2026-01-27 22:21:20.35	20.84	29.77	-54.3	-63.2	3.8	7.45e-01	0	44	104	0	79	10417
2026-01-27 22:21:21.32	20.83	30.04	-54.3	-63.2	3.8	7.46e-01	0	44	104	0	79	10429
2026-01-27 22:21:22.29	20.82	30.32	-54.4	-63.2	3.8	7.45e-01	0	44	104	0	79	10473
2026-01-27 22:21:23.26	20.82	30.61	-54.4	-63.3	3.8	7.44e-01	0	44	104	0	79	10536
2026-01-27 22:21:24.23	20.81	30.89	-54.4	-63.2	3.8	7.45e-01	0	44	104	0	79	10448
2026-01-27 22:21:25.20	20.80	31.18	-54.4	-63.2	3.8	7.46e-01	0	44	104	0	79	10501
2026-01-27 22:21:26.18	20.79	31.47	-54.4	-63.2	3.8	7.46e-01	0	44	104	0	79	10481
2026-01-27 22:21:27.15	20.79	31.77	-54.4	-63.3	3.8	7.45e-01	0	44	104	0	79	10553
2026-01-27 22:21:28.12	20.78	32.07	-54.4	-63.2	3.8	7.46e-01	0	44	104	0	79	10482
2026-01-27 22:21:29.09	20.77	32.37	-54.4	-63.2	3.8	7.46e-01	0	44	104	0	79	10510
2026-01-27 22:21:30.06	20.76	32.68	-54.4	-63.2	3.8	7.46e-01	0	44	104	0	79	10521
2026-01-27 22:21:31.03	20.75	32.99	-54.5	-63.3	3.8	7.45e-01	0	44	104	0	79	10576
2026-01-27 22:21:32.00	20.74	33.30	-54.4	-63.3	3.8	7.44e-01	0	44	104	0	79	10539
2026-01-27 22:21:32.98	20.73	33.62	-54.4	-63.3	3.8	7.46e-01	0	44	104	0	79	10550
2026-01-27 22:21:33.94	20.72	33.94	-54.4	-63.3	3.8	7.46e-01	0	44	104	0	79	10576
2026-01-27 22:21:34.91	20.71	34.26	-54.5	-63.3	3.8	7.46e-01	0	44	104	0	79	10608
2026-01-27 22:21:35.88	20.70	34.59	-54.4	-63.3	3.8	7.45e-01	0	44	104	0	79	10542
2026-01-27 22:21:36.86	20.69	34.93	-54.5	-63.3	3.8	7.46e-01	0	44	104	0	79	10593
2026-01-27 22:21:37.83	20.68	35.27	-54.5	-63.3	3.8	7.45e-01	0	44	104	0	79	10596
2026-01-27 22:21:38.81	20.67	35.61	-54.5	-63.4	3.8	7.44e-01	0	44	104	0	79	10658
2026-01-27 22:21:39.78	20.66	35.96	-54.5	-63.3	3.8	7.44e-01	0	44	104	0	79	10623
2026-01-27 22:21:40.75	20.64	36.31	-54.5	-63.3	3.8	7.46e-01	0	44	104	0	79	10630
2026-01-27 22:21:41.72	20.63	36.67	-54.5	-63.3	3.8	7.46e-01	0	44	104	0	79	10637
2026-01-27 22:21:42.69	20.62	37.02	-54.5	-63.4	3.8	7.44e-01	0	44	104	0	79	10683
2026-01-27 22:21:43.66	20.61	37.39	-54.5	-63.4	3.8	7.46e-01	0	44	104	0	79	10671
2026-01-27 22:21:44.63	20.59	37.76	-54.5	-63.3	3.8	7.44e-01	0	44	104	0	79	10602
2026-01-27 22:21:45.60	20.58	38.13	-54.5	-63.3	3.8	7.44e-01	0	44	104	0	79	10655
2026-01-27 22:21:46.58	20.56	38.51	-54.6	-63.4	3.8	7.45e-01	0	44	104	0	79	10720
2026-01-27 22:21:47.55	20.55	38.90	-54.5	-63.4	3.8	7.45e-01	0	44	104	0	79	10675
2026-01-27 22:21:48.52	20.53	39.29	-54.5	-63.3	3.8	7.45e-01	0	44	104	0	79	10647
2026-01-27 22:21:49.49	20.52	39.68	-54.5	-63.4	3.8	7.45e-01	0	44	104	0	79	10666
2026-01-27 22:21:50.46	20.50	40.08	-54.6	-63.4	3.8	7.47e-01	0	44	104	0	79	10766
2026-01-27 22:21:51.43	20.48	40.48	-54.6	-63.4	3.8	7.46e-01	0	44	104	0	79	10718
2026-01-27 22:21:52.40	20.47	40.89	-54.6	-63.4	3.8	7.46e-01	0	44	104	0	79	10708
2026-01-27 22:21:53.38	20.45	41.31	-54.6	-63.4	3.8	7.45e-01	0	44	104	0	79	10736
2026-01-27 22:21:54.35	20.43	41.73	-54.6	-63.5	3.8	7.45e-01	0	44	104	0	79	10789
2026-01-27 22:21:55.33	20.41	42.16	-54.6	-63.4	3.8	7.44e-01	0	44	104	0	79	10732
2026-01-27 22:21:56.29	20.39	42.59	-54.6	-63.4	3.8	7.45e-01	0	44	104	0	79	10728
2026-01-27 22:21:57.27	20.37	43.03	-54.6	-63.5	3.8	7.45e-01	0	44	104	0	79	10839
2026-01-27 22:21:58.24	20.35	43.47	-54.7	-63.5	3.8	7.46e-01	0	44	104	0	79	10821
2026-01-27 22:21:59.21	20.32	43.92	-54.7	-63.5	3.8	7.46e-01	0	44	104	0	79	10815
2026-01-27 22:22:00.18	20.30	44.37	-54.6	-63.4	3.8	7.45e-01	0	44	104	0	79	10778
2026-01-27 22:22:01.15	20.28	44.83	-54.6	-63.5	3.8	7.44e-01	0	44	104	0	79	10805
2026-01-27 22:22:02.12	20.25	45.30	-54.7	-63.5	3.8	7.44e-01	0	44	104	0	79	10847
2026-01-27 22:22:03.09	20.23	45.77	-54.7	-63.5	3.8	7.45e-01	0	44	104	0	79	10851
2026-01-27 22:22:04.06	20.20	46.25	-54.7	-63.5	3.8	7.45e-01	0	44	104	0	79	10798
2026-01-27 22:22:05.04	20.17	46.74	-54.7	-63.5	3.8	7.44e-01	0	44	104	0	79	10827
2026-01-27 22:22:06.01	20.15	47.24	-54.7	-63.5	3.8	7.45e-01	0	44	104	0	79	10903
2026-01-27 22:22:06.98	20.12	47.73	-54.7	-63.5	3.8	7.45e-01	0	44	104	0	79	10897
2026-01-27 22:22:07.95	20.08	48.24	-54.7	-63.5	3.8	7.48e-01	0	44	104	0	79	10813
2026-01-27 22:22:08.92	20.05	48.75	-54.7	-63.5	3.8	7.46e-01	0	44	104	0	79	10875
2026-01-27 22:22:09.89	20.02	49.27	-54.7	-63.5	3.8	7.44e-01	0	44	104	0	79	10880
2026-01-27 22:22:10.86	19.99	49.80	-54.7	-63.5	3.8	7.46e-01	0	44	104	0	80	10245
2026-01-27 22:22:11.83	19.95	50.33	-54.7	-63.5	3.8	7.45e-01	0	44	104	0	80	10211
2026-01-27 22:22:12.81	19.91	50.87	-54.7	-63.5	3.8	7.46e-01	0	44	104	0	80	10187
2026-01-27 22:22:13.78	19.87	51.42	-54.7	-63.5	3.8	7.46e-01	0	44	104	0	80	10236
2026-01-27 22:22:14.76	19.83	51.98	-54.7	-63.5	3.8	7.45e-01	0	44	104	0	80	10240
2026-01-27 22:22:15.73	19.79	52.54	-54.7	-63.5	3.8	7.45e-01	0	44	104	0	80	10240
2026-01-27 22:22:16.70	19.75	53.10	-54.7	-63.6	3.8	7.44e-01	0	44	104	0	80	10300
2026-01-27 22:22:17.67	19.70	53.68	-54.7	-63.5	3.8	7.46e-01	0	44	104	0	80	10271
2026-01-27 22:22:18.65	19.65	54.27	-54.7	-63.6	3.8	7.46e-01	0	44	104	0	80	10330
2026-01-27 22:22:19.62	19.60	54.86	-54.7	-63.5	3.8	7.46e-01	0	44	104	0	80	10287
2026-01-27 22:22:20.59	19.55	55.45	-54.7	-63.6	3.8	7.46e-01	0	44	104	0	80	10306
2026-01-27 22:22:21.56	19.49	56.06	-54.7	-63.6	3.8	7.46e-01	0	44	104	0	80	10327
2026-01-27 22:22:22.53	19.43	56.67	-54.8	-63.6	3.8	7.45e-01	0	44	104	0	80	10328
2026-01-27 22:22:23.50	19.37	57.29	-54.7	-63.6	3.8	7.46e-01	0	44	104	0	80	10303
2026-01-27 22:22:24.47	19.31	57.91	-54.7	-63.6	3.8	7.45e-01	0	44	104	0	80	10299
2026-01-27 22:22:25.44	19.24	58.55	-54.7	-63.6	3.8	7.45e-01	0	44	104	0	80	10306
2026-01-27 22:22:26.41	19.17	59.19	-54.8	-63.6	3.8	7.47e-01	0	44	104	0	80	10367
2026-01-27 22:22:27.39	19.10	59.84	-54.7	-63.6	3.8	7.45e-01	0	44	104	0	80	10328
2026-01-27 22:22:28.36	19.02	60.50	-54.7	-63.6	3.8	7.46e-01	0	44	104	0	80	10329
2026-01-27 22:22:29.33	18.94	61.16	-54.8	-63.6	3.8	7.46e-01	0	44	104	0	80	10366
2026-01-27 22:22:30.30	18.85	61.83	-54.8	-63.6	3.8	7.46e-01	0	44	104	0	80	10395
2026-01-27 22:22:31.27	18.75	62.51	-54.8	-63.6	3.8	7.46e-01	0	44	104	0	80	10359
2026-01-27 22:22:32.24	18.66	63.20	-54.7	-63.6	3.8	7.46e-01	0	44	104	0	80	10331
2026-01-27 22:22:33.22	18.55	63.90	-54.8	-63.6	3.8	7.46e-01	0	44	104	0	80	10374
2026-01-27 22:22:34.19	18.44	64.60	-54.8	-63.6	3.8	7.45e-01	0	44	104	0	80	10388
2026-01-27 22:22:35.16	18.32	65.30	-54.8	-63.7	3.8	7.45e-01	0	44	104	0	80	10441
2026-01-27 22:22:36.13	18.19	66.02	-54.8	-63.6	3.8	7.46e-01	0	44	104	0	80	10410
2026-01-27 22:22:37.10	18.05	66.74	-54.8	-63.6	3.8	7.44e-01	0	44	104	0	80	10382
2026-01-27 22:22:38.08	17.91	67.47	-54.9	-63.7	3.8	7.46e-01	0	44	104	0	80	10428
2026-01-27 22:22:39.05	17.75	68.21	-54.9	-63.7	3.8	7.44e-01	0	44	104	0	80	10445
2026-01-27 22:22:40.02	17.58	68.95	-54.8	-63.7	3.8	7.45e-01	0	44	104	0	80	10449
2026-01-27 22:22:41.00	17.39	69.70	-54.8	-63.7	3.8	7.44e-01	0	44	104	0	80	10471
2026-01-27 22:22:41.97	17.19	70.45	-54.9	-63.7	3.8	7.45e-01	0	44	104	0	80	10524
2026-01-27 22:22:42.95	16.97	71.22	-54.9	-63.7	3.8	7.46e-01	0	44	104	0	80	10491
2026-01-27 22:22:43.92	16.73	71.99	-54.9	-63.7	3.8	7.45e-01	0	44	104	0	80	10462
2026-01-27 22:22:44.89	16.47	72.76	-54.9	-63.7	3.8	7.44e-01	0	44	104	0	80	10499
2026-01-27 22:22:45.86	16.19	73.53	-54.9	-63.8	3.8	7.45e-01	0	44	104	0	80	10543
2026-01-27 22:22:46.83	15.87	74.32	-54.9	-63.8	3.8	7.46e-01	0	44	104	0	80	10593
2026-01-27 22:22:47.80	15.52	75.10	-54.9	-63.7	3.8	7.47e-01	0	44	104	0	80	10477
2026-01-27 22:22:48.77	15.12	75.89	-54.9	-63.7	3.8	7.46e-01	0	44	104	0	80	10533
2026-01-27 22:22:49.74	14.68	76.69	-54.9	-63.8	3.8	7.45e-01	0	44	104	0	80	10569
2026-01-27 22:22:50.71	14.18	77.49	-54.9	-63.8	3.8	7.45e-01	0	44	104	0	80	10535
2026-01-27 22:22:51.68	13.60	78.29	-54.9	-63.7	3.8	7.45e-01	0	44	104	0	80	10522
2026-01-27 22:22:52.66	12.93	79.10	-54.9	-63.8	3.8	7.45e-01	0	44	104	0	80	10542
2026-01-27 22:22:53.63	12.16	79.91	-55.0	-63.8	3.8	7.46e-01	0	44	104	0	80	10572
2026-01-27 22:22:54.60	11.25	80.72	-55.0	-63.8	3.8	7.46e-01	0	44	104	0	80	10601
2026-01-27 22:22:55.58	10.15	81.53	-54.9	-63.8	3.8	7.45e-01	0	44	104	0	80	10547
2026-01-27 22:22:56.55	8.83	82.34	-55.0	-63.8	3.8	7.45e-01	0	44	104	0	80	10579
2026-01-27 22:22:57.52	7.19	83.15	-55.0	-63.8	3.8	7.46e-01	0	44	104	0	80	10559
2026-01-27 22:22:58.49	5.11	83.95	-55.0	-63.8	3.8	7.45e-01	0	44	104	0	80	10644
2026-01-27 22:22:59.46	2.40	84.74	-54.9	-63.7	3.8	7.46e-01	0	44	104	0	80	10527
2026-01-27 22:23:00.43	358.72	85.52	-54.9	-63.7	3.8	7.44e-01	0	44	104	0	80	10531
2026-01-27 22:23:01.40	353.51	86.28	-55.0	-63.8	3.8	7.44e-01	0	44	104	0	80	10615
2026-01-27 22:23:02.37	345.75	86.99	-55.0	-63.8	3.8	7.47e-01	0	44	104	0	80	10644
2026-01-27 22:23:03.34	333.60	87.61	-55.0	-63.8	3.8	7.45e-01	0	44	104	0	80	10611
2026-01-27 22:23:04.32	314.28	88.06	-54.9	-63.8	3.8	7.45e-01	0	44	104	0	80	10577
2026-01-27 22:23:05.29	288.54	88.20	-55.0	-63.8	3.8	7.45e-01	0	44	104	0	80	10632
2026-01-27 22:23:06.26	264.17	87.96	-55.0	-63.9	3.8	7.46e-01	0	44	104	0	80	10657
2026-01-27 22:23:07.23	247.22	87.45	-55.0	-63.8	3.8	7.47e-01	0	44	104	0	80	10636
2026-01-27 22:23:08.20	236.52	86.80	-55.0	-63.8	3.8	7.46e-01	0	44	104	0	80	10628
2026-01-27 22:23:09.18	229.55	86.06	-55.0	-63.9	3.8	7.46e-01	0	44	104	0	80	10662
2026-01-27 22:23:10.15	224.86	85.30	-55.0	-63.8	3.8	7.44e-01	0	44	104	0	80	10630
2026-01-27 22:23:11.12	221.50	84.52	-55.0	-63.9	3.8	7.43e-01	0	44	104	0	80	10668
2026-01-27 22:23:12.10	218.97	83.71	-55.0	-63.8	3.8	7.45e-01	0	44	104	0	80	10612
2026-01-27 22:23:13.08	217.02	82.90	-55.0	-63.9	3.8	7.46e-01	0	44	104	0	80	10694
2026-01-27 22:23:14.05	215.49	82.09	-55.0	-63.9	3.8	7.47e-01	0	44	104	0	80	10697
2026-01-27 22:23:15.02	214.24	81.28	-55.0	-63.9	3.8	7.47e-01	0	44	104	0	80	10714
2026-01-27 22:23:15.99	213.21	80.47	-55.0	-63.8	3.8	7.44e-01	0	44	104	0	80	10605
2026-01-27 22:23:16.96	212.35	79.66	-55.0	-63.8	3.8	7.45e-01	0	44	104	0	80	10655
2026-01-27 22:23:17.93	211.61	78.86	-55.1	-63.9	3.8	7.44e-01	0	44	104	0	80	10708
2026-01-27 22:23:18.90	210.98	78.05	-55.1	-63.9	3.8	7.44e-01	0	44	104	0	80	10717
2026-01-27 22:23:19.87	210.43	77.25	-55.0	-63.9	3.8	7.46e-01	0	44	104	0	80	10676
2026-01-27 22:23:20.85	209.94	76.44	-55.0	-63.9	3.8	7.45e-01	0	44	104	0	80	10688
2026-01-27 22:23:21.82	209.51	75.65	-55.1	-63.9	3.8	7.46e-01	0	44	104	0	80	10711
2026-01-27 22:23:22.79	209.13	74.86	-55.1	-63.9	3.8	7.45e-01	0	44	104	0	80	10708
2026-01-27 22:23:23.76	208.78	74.07	-55.0	-63.9	3.8	7.46e-01	0	44	104	0	80	10665
2026-01-27 22:23:24.73	208.48	73.29	-55.0	-63.9	3.8	7.45e-01	0	44	104	0	80	10711
2026-01-27 22:23:25.70	208.20	72.52	-55.1	-63.9	3.8	7.48e-01	0	44	104	0	80	10735
2026-01-27 22:23:26.67	207.94	71.75	-55.1	-63.9	3.8	7.44e-01	0	44	104	0	80	10692
2026-01-27 22:23:27.64	207.71	70.98	-55.0	-63.9	3.8	7.45e-01	0	44	104	0	80	10674
2026-01-27 22:23:28.62	207.50	70.21	-55.0	-63.9	3.8	7.45e-01	0	44	104	0	80	10693
2026-01-27 22:23:29.60	207.30	69.45	-55.0	-63.8	3.8	7.45e-01	0	44	104	0	80	10636
2026-01-27 22:23:30.57	207.12	68.71	-55.0	-63.9	3.8	7.45e-01	0	44	104	0	80	10673
2026-01-27 22:23:31.55	206.95	67.96	-55.0	-63.8	3.8	7.45e-01	0	44	104	0	80	10638
2026-01-27 22:23:32.52	206.80	67.23	-55.0	-63.8	3.8	7.46e-01	0	44	104	0	80	10650
2026-01-27 22:23:33.49	206.66	66.50	-55.0	-63.8	3.8	7.46e-01	0	44	104	0	80	10578
2026-01-27 22:23:34.45	206.52	65.79	-55.0	-63.8	3.8	7.44e-01	0	44	104	0	80	10649
2026-01-27 22:23:35.42	206.40	65.07	-55.0	-63.8	3.8	7.45e-01	0	44	104	0	80	10603
2026-01-27 22:23:36.40	206.28	64.36	-54.9	-63.8	3.8	7.44e-01	0	44	104	0	80	10583
2026-01-27 22:23:37.38	206.17	63.66	-55.0	-63.8	3.8	7.46e-01	0	44	104	0	80	10614
2026-01-27 22:23:38.35	206.07	62.96	-55.0	-63.8	3.8	7.44e-01	0	44	104	0	80	10593
2026-01-27 22:23:39.32	205.97	62.28	-55.0	-63.8	3.8	7.44e-01	0	44	104	0	80	10618
2026-01-27 22:23:40.29	205.88	61.60	-54.9	-63.7	3.8	7.46e-01	0	44	104	0	80	10531
2026-01-27 22:23:41.26	205.79	60.93	-55.0	-63.8	3.8	7.45e-01	0	44	104	0	80	10567
2026-01-27 22:23:42.23	205.71	60.27	-55.0	-63.8	3.8	7.45e-01	0	44	104	0	80	10619
2026-01-27 22:23:43.20	205.63	59.61	-54.9	-63.8	3.8	7.46e-01	0	44	104	0	80	10578
2026-01-27 22:23:44.17	205.56	58.97	-54.9	-63.7	3.8	7.46e-01	0	44	104	0	80	10520
2026-01-27 22:23:45.15	205.49	58.32	-54.9	-63.7	3.8	7.47e-01	0	44	104	0	80	10490
2026-01-27 22:23:46.12	205.42	57.69	-54.9	-63.7	3.8	7.45e-01	0	44	104	0	80	10528
2026-01-27 22:23:47.10	205.36	57.06	-54.9	-63.8	3.8	7.47e-01	0	44	104	0	80	10547
2026-01-27 22:23:48.07	205.30	56.44	-54.9	-63.7	3.8	7.46e-01	0	44	104	0	80	10505
2026-01-27 22:23:49.04	205.24	55.83	-54.9	-63.7	3.8	7.46e-01	0	44	104	0	80	10488
2026-01-27 22:23:50.01	205.19	55.22	-54.9	-63.7	3.8	7.44e-01	0	44	104	0	80	10509
2026-01-27 22:23:50.98	205.13	54.63	-54.9	-63.7	3.8	7.46e-01	0	44	104	0	80	10449
2026-01-27 22:23:51.95	205.08	54.04	-54.8	-63.7	3.8	7.44e-01	0	44	104	0	80	10433
2026-01-27 22:23:52.92	205.04	53.46	-54.8	-63.7	3.8	7.46e-01	0	44	104	0	80	10429
2026-01-27 22:23:53.90	204.99	52.88	-54.9	-63.7	3.8	7.46e-01	0	44	104	0	80	10475
2026-01-27 22:23:54.87	204.95	52.31	-54.9	-63.7	3.8	7.45e-01	0	44	104	0	80	10448
2026-01-27 22:23:55.84	204.90	51.75	-54.8	-63.7	3.8	7.46e-01	0	44	104	0	80	10430
2026-01-27 22:23:56.82	204.86	51.19	-54.8	-63.7	3.8	7.46e-01	0	44	104	0	80	10414
2026-01-27 22:23:57.79	204.83	50.65	-54.8	-63.7	3.8	7.45e-01	0	44	104	0	80	10417
2026-01-27 22:23:58.77	204.79	50.11	-54.8	-63.7	3.8	7.44e-01	0	44	104	0	80	10419
2026-01-27 22:23:59.74	204.75	49.57	-54.8	-63.6	3.8	7.46e-01	0	44	104	0	80	10375
2026-01-27 22:24:00.71	204.72	49.05	-54.8	-63.6	3.8	7.46e-01	0	44	104	0	80	10364
2026-01-27 22:24:01.69	204.69	48.53	-54.8	-63.6	3.8	7.44e-01	0	44	104	0	80	10357
2026-01-27 22:24:02.66	204.65	48.02	-54.8	-63.6	3.8	7.44e-01	0	44	104	0	80	10380
2026-01-27 22:24:03.63	204.62	47.51	-54.8	-63.6	3.8	7.47e-01	0	44	104	0	80	10332
2026-01-27 22:24:04.60	204.59	47.01	-54.7	-63.6	3.8	7.46e-01	0	44	104	0	80	10329
2026-01-27 22:24:05.58	204.57	46.52	-54.8	-63.6	3.8	7.44e-01	0	44	104	0	80	10302
2026-01-27 22:24:06.55	204.54	46.03	-54.8	-63.6	3.8	7.46e-01	0	44	104	0	80	10321
2026-01-27 22:24:07.52	204.51	45.56	-54.7	-63.5	3.8	7.46e-01	0	44	104	0	80	10282
2026-01-27 22:24:08.49	204.49	45.08	-54.7	-63.5	3.8	7.46e-01	0	44	104	0	80	10277
2026-01-27 22:24:09.46	204.46	44.62	-54.7	-63.5	3.8	7.45e-01	0	44	104	0	80	10233
2026-01-27 22:24:10.44	204.44	44.15	-54.7	-63.5	3.8	7.44e-01	0	44	104	0	80	10278
2026-01-27 22:24:11.41	204.41	43.70	-54.7	-63.5	3.8	7.45e-01	0	44	104	0	80	10247
2026-01-27 22:24:12.38	204.39	43.25	-54.6	-63.5	3.8	7.46e-01	0	44	104	0	80	10204
2026-01-27 22:24:13.35	204.37	42.81	-54.7	-63.5	3.8	7.46e-01	0	44	104	0	80	10245
2026-01-27 22:24:14.33	204.35	42.37	-54.7	-63.5	3.8	7.45e-01	0	44	104	0	80	10207
2026-01-27 22:24:15.30	204.33	41.94	-54.6	-63.5	3.8	7.45e-01	0	44	104	0	80	10222
2026-01-27 22:24:16.27	204.31	41.51	-54.6	-63.5	3.8	7.44e-01	0	44	104	0	80	10183
2026-01-27 22:24:17.24	204.29	41.09	-54.6	-63.5	3.8	7.44e-01	0	44	104	0	80	10187
2026-01-27 22:24:18.21	204.27	40.68	-54.6	-63.5	3.8	7.45e-01	0	44	104	0	80	10209
2026-01-27 22:24:19.19	204.26	40.27	-54.6	-63.4	3.8	7.44e-01	0	44	104	0	80	10149
2026-01-27 22:24:20.16	204.24	39.86	-54.6	-63.4	3.8	7.45e-01	0	44	104	0	80	10126
2026-01-27 22:24:21.13	204.22	39.47	-54.6	-63.4	3.8	7.46e-01	0	44	104	0	80	10100
2026-01-27 22:24:22.10	204.21	39.07	-54.6	-63.4	3.8	7.46e-01	0	44	104	0	80	10159
2026-01-27 22:24:23.07	204.19	38.69	-54.6	-63.5	3.8	7.44e-01	0	44	104	0	80	10185
2026-01-27 22:24:24.05	204.18	38.30	-54.6	-63.4	3.8	7.45e-01	0	44	104	0	80	10112
2026-01-27 22:24:25.01	204.16	37.93	-54.5	-63.4	3.8	7.47e-01	0	44	104	0	80	10113
2026-01-27 22:24:25.99	204.15	37.55	-54.6	-63.4	3.8	7.45e-01	0	44	104	0	80	10136
2026-01-27 22:24:26.96	204.13	37.18	-54.5	-63.4	3.8	7.44e-01	0	44	104	0	80	10120
2026-01-27 22:24:27.93	204.12	36.82	-54.5	-63.4	3.8	7.46e-01	0	44	104	0	80	10084
2026-01-27 22:24:28.90	204.11	36.46	-54.5	-63.4	3.8	7.46e-01	0	44	104	0	80	10061
2026-01-27 22:24:29.87	204.10	36.10	-54.5	-63.4	3.8	7.45e-01	0	44	104	0	80	10105
2026-01-27 22:24:30.84	204.08	35.75	-54.5	-63.4	3.8	7.45e-01	0	44	104	0	80	10099
2026-01-27 22:24:31.82	204.07	35.40	-54.5	-63.3	3.8	7.44e-01	0	44	104	0	80	10043
2026-01-27 22:24:32.79	204.06	35.06	-54.5	-63.3	3.8	7.45e-01	0	44	104	0	80	10045
2026-01-27 22:24:33.76	204.05	34.73	-54.5	-63.3	3.8	7.47e-01	0	44	104	0	80	10040
2026-01-27 22:24:34.73	204.04	34.39	-54.5	-63.4	3.8	7.45e-01	0	44	104	0	80	10074
2026-01-27 22:24:35.69	204.03	34.07	-54.5	-63.3	3.8	7.45e-01	0	44	104	0	80	10026
2026-01-27 22:24:36.67	204.02	33.74	-54.5	-63.3	3.8	7.45e-01	0	44	104	0	80	10028
2026-01-27 22:24:37.64	204.01	33.42	-54.5	-63.3	3.8	7.45e-01	0	44	104	0	80	9985
2026-01-27 22:24:38.61	204.00	33.10	-54.5	-63.3	3.8	7.44e-01	0	44	104	0	80	9992
2026-01-27 22:24:39.59	203.99	32.78	-54.5	-63.3	3.8	7.46e-01	0	44	104	0	80	9980
2026-01-27 22:24:40.56	203.98	32.48	-54.4	-63.3	3.8	7.45e-01	0	44	104	0	80	9970
2026-01-27 22:24:41.52	203.97	32.17	-54.4	-63.2	3.8	7.48e-01	0	44	104	0	80	9933
2026-01-27 22:24:42.49	203.96	31.87	-54.4	-63.3	3.8	7.44e-01	0	44	104	0	80	9968
2026-01-27 22:24:43.47	203.95	31.57	-54.4	-63.3	3.8	7.46e-01	0	44	104	0	80	9963
2026-01-27 22:24:44.44	203.94	31.27	-54.4	-63.2	3.8	7.46e-01	0	45	104	0	80	9905
2026-01-27 22:24:45.41	203.94	30.98	-54.4	-63.2	3.8	7.47e-01	0	44	104	0	80	9912
2026-01-27 22:24:46.39	203.93	30.69	-54.4	-63.3	3.8	7.47e-01	0	44	104	0	80	9958
2026-01-27 22:24:47.36	203.92	30.41	-54.4	-63.2	3.8	7.47e-01	0	44	104	0	80	9917
2026-01-27 22:24:48.33	203.91	30.13	-54.4	-63.2	3.8	7.46e-01	0	44	104	0	80	9880
2026-01-27 22:24:49.30	203.91	29.85	-54.4	-63.2	3.8	7.45e-01	0	44	104	0	80	9841
2026-01-27 22:24:50.28	203.90	29.57	-54.4	-63.2	3.8	7.45e-01	0	44	104	0	80	9851
2026-01-27 22:24:51.25	203.89	29.30	-54.4	-63.2	3.8	7.43e-01	0	44	104	0	80	9872
2026-01-27 22:24:52.22	203.89	29.03	-54.3	-63.2	3.8	7.45e-01	0	44	104	0	80	9887
2026-01-27 22:24:53.19	203.88	28.77	-54.3	-63.2	3.8	7.46e-01	0	44	104	0	80	9838
2026-01-27 22:24:54.16	203.87	28.50	-54.3	-63.2	3.8	7.46e-01	0	44	104	0	80	9886
2026-01-27 22:24:55.13	203.87	28.24	-54.3	-63.2	3.8	7.45e-01	0	44	104	0	80	9889
2026-01-27 22:24:56.10	203.86	27.99	-54.3	-63.1	3.8	7.46e-01	0	44	104	0	80	9819
2026-01-27 22:24:57.07	203.86	27.73	-54.3	-63.1	3.8	7.45e-01	0	44	104	0	80	9814
2026-01-27 22:24:58.04	203.85	27.48	-54.3	-63.1	3.8	7.46e-01	0	44	104	0	80	9827
2026-01-27 22:24:59.01	203.85	27.23	-54.3	-63.1	3.8	7.45e-01	0	44	104	0	80	9774
2026-01-27 22:24:59.98	203.84	26.99	-54.3	-63.1	3.8	7.46e-01	0	44	104	0	80	9788
2026-01-27 22:25:00.96	203.84	26.74	-54.3	-63.1	3.8	7.45e-01	0	44	104	0	80	9763
2026-01-27 22:25:01.93	203.83	26.50	-54.3	-63.0	3.8	7.45e-01	0	44	104	0	80	9704
2026-01-27 22:25:02.90	203.83	26.26	-54.2	-63.1	3.8	7.46e-01	0	44	104	0	80	9769
2026-01-27 22:25:03.88	203.82	26.03	-54.2	-63.1	3.8	7.46e-01	0	44	104	0	80	9758
2026-01-27 22:25:04.85	203.82	25.79	-54.2	-63.0	3.8	7.45e-01	0	44	104	0	80	9716
2026-01-27 22:25:05.82	203.81	25.56	-54.2	-63.1	3.8	7.46e-01	0	44	104	0	80	9748
2026-01-27 22:25:06.80	203.81	25.33	-54.2	-63.1	3.8	7.45e-01	0	44	104	0	80	9744
2026-01-27 22:25:07.78	203.81	25.10	-54.2	-63.0	3.8	7.45e-01	0	44	104	0	80	9684
2026-01-27 22:25:08.75	203.80	24.88	-54.2	-63.0	3.8	7.46e-01	0	44	104	0	80	9685
2026-01-27 22:25:09.72	203.80	24.66	-54.2	-63.0	3.8	7.46e-01	0	44	104	0	80	9665
2026-01-27 22:25:10.69	203.79	24.44	-54.2	-63.0	3.8	7.46e-01	0	44	104	0	80	9682
2026-01-27 22:25:11.67	203.79	24.22	-54.2	-63.0	3.8	7.44e-01	0	44	104	0	80	9679
2026-01-27 22:25:12.64	203.79	24.01	-54.2	-63.0	3.8	7.46e-01	0	44	104	0	80	9626
2026-01-27 22:25:13.61	203.78	23.80	-54.2	-63.0	3.8	7.46e-01	0	44	104	0	80	9665
2026-01-27 22:25:14.58	203.78	23.59	-54.1	-63.0	3.8	7.46e-01	0	44	104	0	80	9658
2026-01-27 22:25:15.55	203.78	23.38	-54.1	-63.0	3.8	7.44e-01	0	44	104	0	80	9656
2026-01-27 22:25:16.52	203.77	23.17	-54.1	-63.0	3.8	7.43e-01	0	44	104	0	80	9630
2026-01-27 22:25:17.49	203.77	22.97	-54.1	-63.0	3.8	7.46e-01	0	44	104	0	80	9621
2026-01-27 22:25:18.46	203.77	22.77	-54.1	-63.0	3.8	7.45e-01	0	44	104	0	80	9654
2026-01-27 22:25:19.43	203.76	22.57	-54.1	-63.0	3.8	7.45e-01	0	44	104	0	80	9623
2026-01-27 22:25:20.40	203.76	22.37	-54.1	-63.0	3.8	7.44e-01	0	44	104	0	80	9619
2026-01-27 22:25:21.37	203.76	22.17	-54.1	-62.9	3.8	7.46e-01	0	44	104	0	80	9568
2026-01-27 22:25:22.35	203.76	21.98	-54.1	-62.9	3.8	7.44e-01	0	44	104	0	80	9601
2026-01-27 22:25:23.32	203.75	21.78	-54.1	-62.9	3.8	7.46e-01	0	44	104	0	80	9580
2026-01-27 22:25:24.29	203.75	21.59	-54.1	-62.9	3.8	7.44e-01	0	44	104	0	80	9557
2026-01-27 22:25:25.27	203.75	21.40	-54.1	-62.9	3.8	7.45e-01	0	44	104	0	80	9538
2026-01-27 22:25:26.24	203.75	21.22	-54.1	-62.9	3.8	7.45e-01	0	44	104	0	80	9543
2026-01-27 22:25:27.20	203.75	21.03	-54.1	-62.9	3.8	7.44e-01	0	44	104	0	80	9559
2026-01-27 22:25:28.18	203.74	20.85	-54.1	-62.9	3.8	7.44e-01	0	44	104	0	80	9576
2026-01-27 22:25:29.15	203.74	20.67	-54.0	-62.9	3.8	7.45e-01	0	44	104	0	80	9525
2026-01-27 22:25:30.13	203.74	20.48	-54.0	-62.9	3.8	7.45e-01	0	44	104	0	80	9514
2026-01-27 22:25:31.10	203.74	20.30	-54.0	-62.9	3.8	7.45e-01	0	44	104	0	80	9520
2026-01-27 22:25:32.07	203.74	20.13	-54.0	-62.9	3.8	7.46e-01	0	44	104	0	80	9523
2026-01-27 22:25:33.05	203.73	19.95	-54.0	-62.8	3.8	7.43e-01	0	44	104	0	80	9453
2026-01-27 22:25:34.01	203.73	19.78	-54.0	-62.9	3.8	7.46e-01	0	44	104	0	80	9510
2026-01-27 22:25:34.98	203.73	19.61	-54.0	-62.8	3.8	7.46e-01	0	44	104	0	80	9492
2026-01-27 22:25:35.95	203.73	19.43	-54.0	-62.8	3.8	7.44e-01	0	44	104	0	80	9493
2026-01-27 22:25:36.93	203.73	19.26	-54.0	-62.8	3.8	7.45e-01	0	44	104	0	80	9442
2026-01-27 22:25:37.90	203.73	19.10	-54.0	-62.9	3.8	7.46e-01	0	44	104	0	79	10094
2026-01-27 22:25:38.87	203.72	18.93	-54.0	-62.8	3.8	7.44e-01	0	44	104	0	79	10058
2026-01-27 22:25:39.84	203.72	18.76	-54.0	-62.9	3.8	7.45e-01	0	44	104	0	79	10070
2026-01-27 22:25:40.81	203.72	18.60	-54.0	-62.9	3.8	7.46e-01	0	44	104	0	79	10071
2026-01-27 22:25:41.79	203.72	18.44	-54.0	-62.8	3.8	7.45e-01	0	44	104	0	79	10030
2026-01-27 22:25:42.76	203.72	18.28	-54.0	-62.9	3.8	7.45e-01	0	44	104	0	79	10060
2026-01-27 22:25:43.73	203.72	18.12	-54.0	-62.9	3.8	7.46e-01	0	44	104	0	79	10087
2026-01-27 22:25:44.70	203.72	17.96	-54.0	-62.8	3.8	7.47e-01	0	44	104	0	79	10015
2026-01-27 22:25:45.67	203.72	17.80	-54.0	-62.8	3.8	7.46e-01	0	44	104	0	79	10018
2026-01-27 22:25:46.64	203.72	17.64	-54.0	-62.8	3.8	7.45e-01	0	44	104	0	79	10051
2026-01-27 22:25:47.61	203.72	17.49	-54.0	-62.8	3.8	7.46e-01	0	44	104	0	79	10047
2026-01-27 22:25:48.58	203.71	17.34	-54.0	-62.8	3.8	7.46e-01	0	44	104	0	79	9983
2026-01-27 22:25:49.55	203.71	17.19	-53.9	-62.8	3.8	7.46e-01	0	44	104	0	79	9982
2026-01-27 22:25:50.52	203.71	17.03	-54.0	-62.8	3.8	7.44e-01	0	44	104	0	79	9972
2026-01-27 22:25:51.50	203.71	16.88	-54.0	-62.8	3.8	7.46e-01	0	44	104	0	79	9976
2026-01-27 22:25:52.47	203.71	16.73	-53.9	-62.8	3.8	7.45e-01	0	44	104	0	79	9993
2026-01-27 22:25:53.44	203.71	16.59	-53.9	-62.8	3.8	7.44e-01	0	44	104	0	79	9965
2026-01-27 22:25:54.42	203.71	16.44	-53.9	-62.8	3.8	7.46e-01	0	44	104	0	79	9951
2026-01-27 22:25:55.39	203.71	16.29	-53.9	-62.7	3.8	7.43e-01	0	44	104	0	79	9929
2026-01-27 22:25:56.36	203.71	16.15	-53.9	-62.8	3.8	7.45e-01	0	44	104	0	79	9959
2026-01-27 22:25:57.33	203.71	16.01	-53.9	-62.7	3.8	7.48e-01	0	44	104	0	79	9883
2026-01-27 22:25:58.30	203.71	15.87	-53.9	-62.7	3.8	7.46e-01	0	44	104	0	79	9933
2026-01-27 22:25:59.27	203.71	15.73	-53.9	-62.7	3.8	7.45e-01	0	44	104	0	79	9926
2026-01-27 22:26:00.25	203.71	15.58	-53.9	-62.7	3.8	7.45e-01	0	44	104	0	79	9928
2026-01-27 22:26:01.22	203.71	15.45	-53.9	-62.7	3.8	7.47e-01	0	44	104	0	79	9888
2026-01-27 22:26:02.19	203.71	15.31	-53.9	-62.7	3.8	7.45e-01	0	44	104	0	79	9865
2026-01-27 22:26:03.16	203.71	15.17	-53.9	-62.7	3.8	7.46e-01	0	44	104	0	79	9878
2026-01-27 22:26:04.13	203.71	15.04	-53.9	-62.7	3.8	7.45e-01	0	44	104	0	79	9870
2026-01-27 22:26:05.10	203.71	14.90	-53.9	-62.7	3.8	7.46e-01	0	44	104	0	79	9866
2026-01-27 22:26:06.07	203.71	14.77	-53.8	-62.7	3.8	7.45e-01	0	44	104	0	79	9873
2026-01-27 22:26:07.04	203.71	14.64	-53.8	-62.7	3.8	7.46e-01	0	44	104	0	79	9843
2026-01-27 22:26:08.01	203.71	14.50	-53.9	-62.7	3.8	7.46e-01	0	44	104	0	79	9865
2026-01-27 22:26:08.98	203.71	14.37	-53.8	-62.6	3.8	7.44e-01	0	44	104	0	79	9814
2026-01-27 22:26:09.95	203.71	14.24	-53.8	-62.6	3.8	7.45e-01	0	44	104	0	79	9800
2026-01-27 22:26:10.92	203.71	14.11	-53.8	-62.6	3.8	7.44e-01	0	44	104	0	79	9806
2026-01-27 22:26:11.90	203.71	13.99	-53.8	-62.6	3.8	7.44e-01	0	44	104	0	79	9817
2026-01-27 22:26:12.87	203.71	13.86	-53.8	-62.6	3.8	7.46e-01	0	44	104	0	79	9787
2026-01-27 22:26:13.84	203.71	13.73	-53.8	-62.6	3.8	7.46e-01	0	44	104	0	79	9790
2026-01-27 22:26:14.81	203.71	13.61	-53.8	-62.6	3.8	7.46e-01	0	44	104	0	79	9790
2026-01-27 22:26:15.78	203.71	13.48	-53.8	-62.6	3.8	7.47e-01	0	44	104	0	79	9809
2026-01-27 22:26:16.75	203.71	13.36	-53.8	-62.6	3.8	7.46e-01	0	44	104	0	79	9808
2026-01-27 22:26:17.72	203.71	13.24	-53.8	-62.6	3.8	7.46e-01	0	44	104	0	79	9759
2026-01-27 22:26:18.69	203.71	13.11	-53.8	-62.6	3.8	7.45e-01	0	44	104	0	79	9798
2026-01-27 22:26:19.66	203.71	12.99	-53.8	-62.6	3.8	7.47e-01	0	44	104	0	79	9794
2026-01-27 22:26:20.64	203.71	12.87	-53.7	-62.6	3.8	7.44e-01	0	44	104	0	79	9769
2026-01-27 22:26:21.61	203.71	12.75	-53.7	-62.6	3.8	7.45e-01	0	44	104	0	79	9722
2026-01-27 22:26:22.58	203.71	12.63	-53.7	-62.6	3.8	7.45e-01	0	44	104	0	79	9745
2026-01-27 22:26:23.55	203.72	12.51	-53.7	-62.6	3.8	7.45e-01	0	44	104	0	79	9725
2026-01-27 22:26:24.52	203.72	12.40	-53.7	-62.6	3.8	7.45e-01	0	44	104	0	79	9725
2026-01-27 22:26:25.50	203.72	12.28	-53.7	-62.5	3.8	7.43e-01	0	44	104	0	79	9717
2026-01-27 22:26:26.46	203.72	12.16	-53.7	-62.5	3.8	7.46e-01	0	44	104	0	79	9685
2026-01-27 22:26:27.43	203.72	12.05	-53.7	-62.5	3.8	7.45e-01	0	44	104	0	79	9700
2026-01-27 22:26:28.41	203.72	11.93	-53.7	-62.5	3.8	7.47e-01	0	44	104	0	79	9700
2026-01-27 22:26:29.38	203.72	11.82	-53.7	-62.5	3.8	7.44e-01	0	44	104	0	79	9673
2026-01-27 22:26:30.35	203.72	11.71	-53.7	-62.5	3.8	7.45e-01	0	44	104	0	79	9678
2026-01-27 22:26:31.33	203.72	11.59	-53.7	-62.5	3.8	7.44e-01	0	44	104	0	79	9659
2026-01-27 22:26:32.30	203.72	11.48	-53.7	-62.5	3.8	7.46e-01	0	44	104	0	79	9688
2026-01-27 22:26:33.27	203.72	11.37	-53.7	-62.4	3.8	7.45e-01	0	44	104	0	79	9604
2026-01-27 22:26:34.24	203.72	11.26	-53.6	-62.5	3.8	7.44e-01	0	44	104	0	79	9631
2026-01-27 22:26:35.21	203.72	11.15	-53.6	-62.5	3.8	7.46e-01	0	44	104	0	79	9621
2026-01-27 22:26:36.18	203.73	11.04	-53.7	-62.5	3.8	7.45e-01	0	44	104	0	79	9667
2026-01-27 22:26:37.15	203.73	10.93	-53.6	-62.4	3.8	7.45e-01	0	44	104	0	79	9559
2026-01-27 22:26:38.12	203.73	10.82	-53.6	-62.5	3.8	7.45e-01	0	44	104	0	79	9616
2026-01-27 22:26:39.10	203.73	10.72	-53.6	-62.4	3.8	7.46e-01	0	44	104	0	79	9578
2026-01-27 22:26:40.07	203.73	10.61	-53.6	-62.5	3.8	7.46e-01	0	44	104	0	79	9631
2026-01-27 22:26:41.04	203.73	10.50	-53.6	-62.4	3.8	7.45e-01	0	44	104	0	79	9538
2026-01-27 22:26:42.00	203.73	10.40	-53.6	-62.4	3.8	7.46e-01	0	44	104	0	79	9567
2026-01-27 22:26:42.97	203.73	10.29	-53.6	-62.4	3.8	7.46e-01	0	44	104	0	79	9530
2026-01-27 22:26:43.94	203.73	10.19	-53.6	-62.4	3.8	7.46e-01	0	44	104	0	79	9586
2026-01-27 22:26:44.91	203.73	10.09	-53.6	-62.4	3.8	7.46e-01	0	44	104	0	79	9528
2026-01-27 22:26:45.89	203.74	9.98	-53.6	-62.4	3.8	7.45e-01	0	44	104	0	79	9504
2026-01-27 22:26:46.86	203.74	9.88	-53.5	-62.4	3.8	7.45e-01	0	44	104	0	79	9519
2026-01-27 22:26:47.83	203.74	9.78	-53.6	-62.4	3.8	7.44e-01	0	44	104	0	79	9571
2026-01-27 22:26:48.81	203.74	9.68	-53.5	-62.4	3.8	7.45e-01	0	44	104	0	79	9501
2026-01-27 22:26:49.78	203.74	9.58	-53.5	-62.4	3.8	7.44e-01	0	44	104	0	79	9514
2026-01-27 22:26:50.75	203.74	9.48	-53.5	-62.3	3.8	7.44e-01	0	44	104	0	79	9454
2026-01-27 22:26:51.72	203.74	9.38	-53.5	-62.4	3.8	7.44e-01	0	44	104	0	79	9541
2026-01-27 22:26:52.69	203.74	9.28	-53.5	-62.3	3.8	7.44e-01	0	44	104	0	79	9455
2026-01-27 22:26:53.67	203.75	9.18	-53.5	-62.3	3.8	7.44e-01	0	44	104	0	79	9436
2026-01-27 22:26:54.64	203.75	9.08	-53.4	-62.3	3.8	7.45e-01	0	44	104	0	78	9993
2026-01-27 22:26:55.61	203.75	8.98	-53.5	-62.3	3.8	7.44e-01	0	44	104	0	78	10030
2026-01-27 22:26:56.59	203.75	8.88	-53.4	-62.3	3.8	7.44e-01	0	44	104	0	78	9965
2026-01-27 22:26:57.56	203.75	8.79	-53.4	-62.3	3.8	7.46e-01	0	44	104	0	78	9977
2026-01-27 22:26:58.53	203.75	8.69	-53.4	-62.2	3.8	7.45e-01	0	44	104	0	78	9943
2026-01-27 22:26:59.50	203.75	8.60	-53.4	-62.3	3.8	7.45e-01	0	44	104	0	78	9995
2026-01-27 22:27:00.47	203.76	8.50	-53.4	-62.3	3.8	7.44e-01	0	44	104	0	78	9975
2026-01-27 22:27:01.44	203.76	8.41	-53.4	-62.2	3.8	7.44e-01	0	44	104	0	78	9910
2026-01-27 22:27:02.41	203.76	8.31	-53.4	-62.2	3.8	7.47e-01	0	44	104	0	78	9899
2026-01-27 22:27:03.38	203.76	8.22	-53.4	-62.2	3.8	7.45e-01	0	44	104	0	78	9870
2026-01-27 22:27:04.35	203.76	8.13	-53.4	-62.2	3.8	7.45e-01	0	44	104	0	78	9933
2026-01-27 22:27:05.32	203.76	8.03	-53.4	-62.2	3.8	7.44e-01	0	44	104	0	78	9844
2026-01-27 22:27:06.29	203.76	7.94	-53.3	-62.2	3.8	7.46e-01	0	44	104	0	78	9853
2026-01-27 22:27:07.26	203.77	7.85	-53.3	-62.1	3.8	7.45e-01	0	44	104	0	78	9826
2026-01-27 22:27:08.23	203.77	7.76	-53.4	-62.2	3.8	7.44e-01	0	44	104	0	78	9899
2026-01-27 22:27:09.21	203.77	7.67	-53.3	-62.1	3.8	7.46e-01	0	44	104	0	78	9809
2026-01-27 22:27:10.18	203.77	7.58	-53.3	-62.1	3.8	7.45e-01	0	44	104	0	78	9826
2026-01-27 22:27:11.15	203.77	7.49	-53.3	-62.1	3.8	7.46e-01	0	44	104	0	78	9782
2026-01-27 22:27:12.12	203.77	7.40	-53.4	-62.2	3.8	7.46e-01	0	44	104	0	78	9862
2026-01-27 22:27:13.09	203.77	7.31	-53.3	-62.1	3.8	7.45e-01	0	44	104	0	78	9768
2026-01-27 22:27:14.07	203.78	7.22	-53.3	-62.1	3.8	7.44e-01	0	44	104	0	78	9778
2026-01-27 22:27:15.04	203.78	7.13	-53.2	-62.0	3.8	7.46e-01	0	44	104	0	78	9681
2026-01-27 22:27:16.01	203.78	7.04	-53.3	-62.2	3.8	7.46e-01	0	44	104	0	78	9832
2026-01-27 22:27:16.98	203.78	6.95	-53.2	-62.1	3.8	7.46e-01	0	44	104	0	78	9730
2026-01-27 22:27:17.95	203.78	6.87	-53.2	-62.0	3.8	7.46e-01	0	44	104	0	78	9684
2026-01-27 22:27:18.92	203.78	6.78	-53.1	-62.0	3.8	7.45e-01	0	44	104	0	78	9642
2026-01-27 22:27:19.89	203.79	6.69	-53.3	-62.1	3.8	7.45e-01	0	44	104	0	78	9787
2026-01-27 22:27:20.86	203.79	6.61	-53.2	-62.0	3.8	7.46e-01	0	44	104	0	78	9689
2026-01-27 22:27:21.84	203.79	6.52	-53.2	-62.0	3.8	7.47e-01	0	44	104	0	78	9668
2026-01-27 22:27:22.81	203.79	6.44	-53.1	-61.9	3.8	7.45e-01	0	44	104	0	78	9582
2026-01-27 22:27:23.78	203.79	6.35	-53.2	-62.0	3.8	7.45e-01	0	44	104	0	78	9714
2026-01-27 22:27:24.75	203.80	6.27	-53.1	-62.0	3.8	7.44e-01	0	44	104	0	78	9649
2026-01-27 22:27:25.71	203.80	6.18	-53.1	-62.0	3.8	7.45e-01	0	44	104	0	78	9625
2026-01-27 22:27:26.68	203.80	6.10	-53.0	-61.9	3.8	7.47e-01	0	44	104	0	78	9519
2026-01-27 22:27:27.66	203.80	6.02	-53.1	-62.0	3.8	7.46e-01	0	44	104	0	78	9653
2026-01-27 22:27:28.63	203.80	5.93	-53.1	-61.9	3.8	7.46e-01	0	44	104	0	78	9579
2026-01-27 22:27:29.60	203.80	5.85	-53.1	-61.9	3.8	7.46e-01	0	44	104	0	78	9550
2026-01-27 22:27:30.57	203.81	5.77	-53.0	-61.9	3.8	7.46e-01	0	44	104	0	78	9502
2026-01-27 22:27:31.53	203.81	5.69	-53.1	-61.9	3.8	7.46e-01	0	44	104	0	78	9587
2026-01-27 22:27:32.51	203.81	5.60	-53.1	-61.9	3.8	7.46e-01	0	44	104	0	78	9536
2026-01-27 22:27:33.49	203.81	5.52	-53.0	-61.9	3.8	7.47e-01	0	44	104	0	78	9505
2026-01-27 22:27:34.46	203.81	5.44	-53.0	-61.8	3.8	7.46e-01	0	44	104	0	78	9458
2026-01-27 22:27:35.43	203.82	5.36	-53.0	-61.8	3.8	7.45e-01	0	44	104	0	77	9983
2026-01-27 22:27:36.40	203.82	5.28	-53.0	-61.9	3.8	7.47e-01	0	44	104	0	77	10091
2026-01-27 22:27:37.37	203.82	5.20	-52.9	-61.8	3.8	7.45e-01	0	44	104	0	77	9974
2026-01-27 22:27:38.34	203.82	5.12	-52.9	-61.7	3.8	7.44e-01	0	44	104	0	77	9901
2026-01-27 22:27:39.32	203.82	5.04	-52.8	-61.7	3.8	7.44e-01	0	44	104	0	77	9876
2026-01-27 22:27:40.29	203.82	4.96	-53.3	-62.1	3.8	7.46e-01	0	44	104	0	77	10328
2026-01-27 22:27:41.26	203.83	4.88	-53.7	-62.5	3.8	7.45e-01	0	44	104	0	77	10840
2026-01-27 22:27:42.23	203.83	4.80	-53.9	-62.8	3.8	7.45e-01	0	44	104	0	78	10578
2026-01-27 22:27:43.20	203.83	4.73	-54.1	-62.9	3.8	7.44e-01	0	44	104	0	78	10732
2026-01-27 22:27:44.18	203.83	4.65	-54.3	-63.1	3.8	7.46e-01	0	44	104	0	79	10340
2026-01-27 22:27:45.15	203.83	4.57	-54.4	-63.2	3.8	7.45e-01	0	44	104	0	79	10477
2026-01-27 22:27:46.11	203.84	4.49	-54.5	-63.3	3.8	7.45e-01	0	44	104	0	79	10598
2026-01-27 22:27:47.09	203.84	4.42	-54.6	-63.4	3.8	7.46e-01	0	44	104	0	79	10700
2026-01-27 22:27:48.06	203.84	4.34	-54.6	-63.5	3.8	7.45e-01	0	44	104	0	79	10783
2026-01-27 22:27:49.03	203.84	4.26	-54.7	-63.5	3.8	7.44e-01	0	44	104	0	79	10842
2026-01-27 22:27:50.00	203.84	4.19	-54.7	-63.6	3.8	7.46e-01	0	44	104	0	79	10910
2026-01-27 22:27:50.98	203.85	4.11	-54.7	-63.6	3.8	7.46e-01	0	44	104	0	80	10309
2026-01-27 22:27:51.94	203.85	4.04	-54.8	-63.6	3.8	7.46e-01	0	44	104	0	80	10329
2026-01-27 22:27:52.91	203.85	3.96	-54.8	-63.7	3.8	7.44e-01	0	44	104	0	80	10454
2026-01-27 22:27:53.88	203.85	3.89	-54.9	-63.7	3.8	7.47e-01	0	44	104	0	80	10428
2026-01-27 22:27:54.85	203.85	3.81	-54.9	-63.7	3.8	7.44e-01	0	44	104	0	80	10447
2026-01-27 22:27:55.83	203.86	3.74	-54.9	-63.7	3.8	7.45e-01	0	44	104	0	80	10497
2026-01-27 22:27:56.80	203.86	3.66	-54.9	-63.7	3.8	7.44e-01	0	44	104	0	80	10510
2026-01-27 22:27:57.76	203.86	3.59	-54.9	-63.7	3.8	7.46e-01	0	44	104	0	80	10519
2026-01-27 22:27:58.74	203.86	3.52	-54.9	-63.8	3.8	7.44e-01	0	44	104	0	80	10547
2026-01-27 22:27:59.71	203.87	3.44	-54.9	-63.7	3.8	7.46e-01	0	44	104	0	80	10519
2026-01-27 22:28:00.68	203.87	3.37	-54.9	-63.7	3.8	7.47e-01	0	44	104	0	80	10521
2026-01-27 22:28:01.66	203.87	3.30	-54.9	-63.7	3.8	7.47e-01	0	44	104	0	80	10478
2026-01-27 22:28:02.63	203.87	3.23	-54.8	-63.6	3.8	7.45e-01	0	44	104	0	80	10374
2026-01-27 22:28:03.60	203.87	3.15	-54.7	-63.6	3.8	7.47e-01	0	44	104	0	80	10306
2026-01-27 22:28:04.56	203.88	3.08	-54.7	-63.5	3.8	7.45e-01	0	44	104	0	80	10220
2026-01-27 22:28:05.53	203.88	3.01	-54.6	-63.4	3.8	7.45e-01	0	44	104	0	80	10096
2026-01-27 22:28:06.50	203.88	2.94	-54.4	-63.2	3.8	7.45e-01	0	44	104	0	80	9872
2026-01-27 22:28:07.47	203.88	2.87	-54.3	-63.1	3.8	7.45e-01	0	44	104	0	80	9757
2026-01-27 22:28:08.44	203.88	2.80	-54.2	-63.1	3.8	7.47e-01	0	44	104	0	80	9788
2026-01-27 22:28:09.42	203.89	2.73	-54.2	-63.1	3.8	7.45e-01	0	44	104	0	80	9738
2026-01-27 22:28:10.39	203.89	2.66	-54.2	-63.1	3.8	7.44e-01	0	44	104	0	80	9738
2026-01-27 22:28:11.36	203.89	2.58	-54.2	-63.0	3.8	7.45e-01	0	44	104	0	80	9714
2026-01-27 22:28:12.34	203.89	2.51	-54.2	-63.0	3.8	7.44e-01	0	44	104	0	80	9710
2026-01-27 22:28:13.31	203.90	2.44	-54.2	-63.0	3.8	7.45e-01	0	44	104	0	80	9682
2026-01-27 22:28:14.28	203.90	2.38	-54.2	-63.0	3.8	7.45e-01	0	44	104	0	80	9708
2026-01-27 22:28:15.25	203.90	2.31	-54.2	-63.0	3.8	7.45e-01	0	44	104	0	80	9711
2026-01-27 22:28:16.22	203.90	2.24	-54.2	-63.0	3.8	7.43e-01	0	44	104	0	80	9691
2026-01-27 22:28:17.19	203.90	2.17	-54.2	-63.0	3.8	7.46e-01	0	44	104	0	80	9689
2026-01-27 22:28:18.17	203.91	2.10	-54.2	-63.0	3.8	7.45e-01	0	44	104	0	80	9681
2026-01-27 22:28:19.14	203.91	2.03	-54.2	-63.0	3.8	7.47e-01	0	44	104	0	80	9682
2026-01-27 22:28:20.11	203.91	1.96	-54.2	-63.0	3.8	7.47e-01	0	44	104	0	80	9696

#Closed at: 2026-01-27 22:28:20
#Recorded file [0 MB]: D:/lorett/data/31041_260128_011748.dat