passes_logs/2026/01/27/R3.2S_Murmansk/R3.2S_Murmansk__20260127_022654_SUOMI_NPP_rec.log

#Pass ID: 20260127_022654_SUOMI NPP
#Satellite: SUOMI NPP
#Configuration: NPP
#almurnet v.1.7.20251203
#Start time: 2026-01-27 02:26:54

#Version: 2.2.20231116
#Station: R3.2S_Murmansk
#Location: 33.079688 lon 68.888172 lat
#TLE: 1 37849U 11061A   26026.52266023  .00000173  00000+0  10323-3 0  9994
#TLE: 2 37849  98.7822 328.4727 0002140  43.9411 316.1934 14.19530258738341

#Time	Az	El	Level	Level2	SNR	BER	BlckErr	Temp	State	Recorded	gain1	gain2
2026-01-27 02:26:54.82	33.06	2.03	-52.6	-67.6	3.8	1.49e+00	0	41	0	0	77	19466
2026-01-27 02:26:55.82	33.03	2.09	-52.1	-66.9	3.8	1.49e+00	0	41	104	0	74	21447
2026-01-27 02:26:56.83	32.99	2.16	-52.0	-66.8	3.8	1.49e+00	0	41	104	0	74	21233
2026-01-27 02:26:57.84	32.95	2.22	-52.0	-66.8	3.8	1.49e+00	0	41	104	0	74	21122
2026-01-27 02:26:58.85	32.92	2.28	-52.0	-66.8	3.8	1.49e+00	0	41	104	0	74	21184
2026-01-27 02:26:59.85	32.88	2.34	-52.0	-66.8	3.8	1.49e+00	0	41	104	0	74	21038
2026-01-27 02:27:00.86	32.84	2.41	-52.0	-66.8	3.8	1.49e+00	0	41	104	0	74	21066
2026-01-27 02:27:01.87	32.81	2.47	-52.0	-66.8	3.8	1.49e+00	0	41	104	0	74	21039
2026-01-27 02:27:02.88	32.77	2.53	-52.0	-66.8	3.8	1.49e+00	0	41	104	0	74	21079
2026-01-27 02:27:03.89	32.73	2.60	-52.0	-66.8	3.8	1.49e+00	0	41	104	0	74	21130
2026-01-27 02:27:04.89	32.70	2.66	-52.0	-66.9	3.8	1.49e+00	0	41	104	0	74	21306
2026-01-27 02:27:05.90	32.66	2.72	-52.0	-66.9	3.8	1.49e+00	0	41	104	0	74	21440
2026-01-27 02:27:06.91	32.62	2.79	-52.0	-67.0	3.8	1.49e+00	0	41	104	0	74	21547
2026-01-27 02:27:07.92	32.58	2.85	-52.0	-66.9	3.8	1.49e+00	0	41	104	0	74	21428
2026-01-27 02:27:08.92	32.54	2.91	-52.0	-66.8	3.8	1.49e+00	0	41	104	0	74	21241
2026-01-27 02:27:09.93	32.51	2.98	-52.0	-66.8	3.8	1.49e+00	0	41	104	0	74	21042
2026-01-27 02:27:10.94	32.47	3.04	-52.0	-66.7	3.8	1.49e+00	0	41	104	0	74	20838
2026-01-27 02:27:11.95	32.43	3.11	-52.0	-66.7	3.8	1.49e+00	0	41	104	0	74	20880
2026-01-27 02:27:12.96	32.39	3.17	-52.0	-66.8	3.8	1.49e+00	0	41	104	0	74	21111
2026-01-27 02:27:13.97	32.35	3.24	-52.0	-66.9	3.8	1.49e+00	0	41	104	0	74	21308
2026-01-27 02:27:14.97	32.31	3.30	-52.0	-67.0	3.8	1.49e+00	0	41	104	0	74	21524
2026-01-27 02:27:15.98	32.27	3.37	-52.0	-66.9	3.8	1.49e+00	0	41	104	0	74	21394
2026-01-27 02:27:16.99	32.23	3.43	-52.0	-66.7	3.8	1.49e+00	0	41	104	0	74	20946
2026-01-27 02:27:18.00	32.19	3.50	-52.0	-66.2	3.8	1.49e+00	0	41	104	0	74	19764
2026-01-27 02:27:19.01	32.15	3.56	-52.0	-65.8	3.8	1.49e+00	0	41	104	0	74	18947
2026-01-27 02:27:20.01	32.11	3.63	-51.9	-65.0	3.8	1.49e+00	0	41	104	0	74	17146
2026-01-27 02:27:21.02	32.07	3.69	-51.9	-64.4	3.9	1.49e+00	0	42	104	0	74	16037
2026-01-27 02:27:22.03	32.03	3.76	-51.9	-64.1	4.0	1.45e+00	0	41	0	0	74	15416
2026-01-27 02:27:23.04	31.99	3.82	-51.8	-63.7	4.1	1.43e+00	0	42	0	0	74	14765
2026-01-27 02:27:24.05	31.95	3.89	-51.8	-63.0	4.3	1.36e+00	0	42	0	0	74	13670
2026-01-27 02:27:25.04	31.91	3.95	-51.7	-62.3	4.6	1.25e+00	0	42	0	1048576	74	12595
2026-01-27 02:27:26.05	31.87	4.02	-51.6	-61.2	5.1	7.19e-01	0	41	0	3145728	74	11155
2026-01-27 02:27:27.06	31.82	4.09	-51.4	-59.9	6.0	5.01e-01	0	42	0	5242880	74	9572
2026-01-27 02:27:28.07	31.78	4.15	-51.2	-58.8	6.9	2.13e-01	0	41	0	6291456	74	8423
2026-01-27 02:27:29.07	31.74	4.22	-50.8	-57.1	8.5	1.11e-01	0	42	0	8388608	73	7341
2026-01-27 02:27:30.08	31.70	4.29	-50.6	-56.1	9.5	1.95e-02	0	42	0	10485760	73	6551
2026-01-27 02:27:31.09	31.66	4.36	-50.0	-54.7	11.0	4.50e-03	0	42	0	12582912	72	5880
2026-01-27 02:27:32.09	31.61	4.42	-49.8	-54.0	11.8	1.07e-03	0	42	0	13631488	71	5723
2026-01-27 02:27:33.10	31.57	4.49	-49.5	-53.4	12.4	1.24e-04	0	42	0	15728640	70	5700
2026-01-27 02:27:34.11	31.53	4.56	-49.1	-52.5	13.3	3.81e-05	0	42	0	17825792	70	5136
2026-01-27 02:27:35.12	31.48	4.62	-48.9	-52.1	13.8	2.20e-06	0	42	0	19922944	69	5216
2026-01-27 02:27:36.13	31.44	4.69	-49.0	-52.4	13.4	1.44e-05	0	42	0	22020096	69	5397
2026-01-27 02:27:37.14	31.40	4.76	-48.9	-52.1	13.7	5.30e-06	0	42	0	24117248	69	5213
2026-01-27 02:27:38.14	31.35	4.83	-49.0	-52.3	13.6	4.50e-06	0	42	0	25165824	69	5312
2026-01-27 02:27:39.15	31.31	4.90	-49.1	-52.7	13.2	2.05e-05	0	42	0	27262976	69	5539
2026-01-27 02:27:40.16	31.26	4.97	-49.5	-53.5	12.4	8.39e-05	0	42	0	29360128	69	6063
2026-01-27 02:27:41.16	31.22	5.03	-49.9	-54.3	11.6	3.39e-04	0	42	0	31457280	70	6305
2026-01-27 02:27:42.17	31.17	5.10	-50.0	-54.5	11.2	1.36e-03	0	42	0	33554432	70	6455
2026-01-27 02:27:43.18	31.13	5.17	-47.4	-49.6	16.3	0.00e+00	0	42	0	34603008	66	4650
2026-01-27 02:27:44.19	31.08	5.24	-51.9	-66.0	3.8	8.30e-01	0	42	104	35651584	74	19255
2026-01-27 02:27:45.19	31.04	5.31	-47.8	-50.2	15.5	8.50e-01	0	42	0	35651584	66	4962
2026-01-27 02:27:46.20	30.99	5.38	-50.6	-56.1	9.6	7.70e-03	0	42	0	37748736	72	6894
2026-01-27 02:27:47.21	30.95	5.45	-47.2	-49.4	16.5	0.00e+00	0	42	0	38797312	66	4536
2026-01-27 02:27:48.21	30.90	5.52	-47.0	-49.1	16.9	0.00e+00	0	42	0	40894464	66	4355
2026-01-27 02:27:49.22	30.85	5.59	-47.5	-49.9	16.2	0.00e+00	0	42	0	42991616	66	4763
2026-01-27 02:27:50.23	30.81	5.66	-47.4	-49.6	16.4	0.00e+00	0	42	0	45088768	66	4645
2026-01-27 02:27:51.24	30.76	5.73	-47.7	-50.1	16.0	0.00e+00	0	42	0	47185920	66	4908
2026-01-27 02:27:52.25	30.71	5.80	-47.4	-49.7	16.4	0.00e+00	0	42	0	48234496	66	4660
2026-01-27 02:27:53.25	30.66	5.87	-46.9	-48.9	17.1	0.00e+00	0	42	0	50331648	65	4524
2026-01-27 02:27:54.26	30.62	5.94	-47.2	-49.3	16.8	0.00e+00	0	42	0	52428800	65	4751
2026-01-27 02:27:55.27	30.57	6.01	-47.0	-49.0	17.0	0.00e+00	0	42	0	54525952	65	4595
2026-01-27 02:27:56.28	30.52	6.08	-46.8	-48.8	17.3	0.00e+00	0	42	0	56623104	65	4442
2026-01-27 02:27:57.29	30.47	6.15	-47.0	-49.2	17.0	0.00e+00	0	42	0	57671680	65	4652
2026-01-27 02:27:58.29	30.42	6.22	-46.9	-48.9	17.2	0.00e+00	0	42	0	59768832	65	4515
2026-01-27 02:27:59.29	30.37	6.30	-46.8	-48.8	17.3	0.00e+00	0	42	0	61865984	65	4456
2026-01-27 02:28:00.30	30.32	6.37	-47.0	-49.1	17.0	0.00e+00	0	42	0	63963136	65	4608
2026-01-27 02:28:01.31	30.27	6.44	-46.5	-48.4	17.7	0.00e+00	0	42	0	66060288	64	4499
2026-01-27 02:28:02.32	30.22	6.51	-47.0	-49.1	17.1	0.00e+00	0	42	0	67108864	64	4900
2026-01-27 02:28:03.33	30.17	6.58	-46.7	-48.6	17.5	0.00e+00	0	42	0	69206016	64	4627
2026-01-27 02:28:04.33	30.12	6.66	-46.7	-48.6	17.5	0.00e+00	0	42	0	71303168	64	4619
2026-01-27 02:28:05.34	30.07	6.73	-47.0	-49.1	17.1	0.00e+00	0	42	0	73400320	64	4900
2026-01-27 02:28:06.35	30.02	6.80	-46.9	-49.0	17.2	0.00e+00	0	42	0	75497472	64	4815
2026-01-27 02:28:07.36	29.97	6.88	-46.9	-49.0	17.2	0.00e+00	0	42	0	76546048	64	4820
2026-01-27 02:28:08.37	29.92	6.95	-46.8	-48.7	17.4	0.00e+00	0	42	0	78643200	64	4702
2026-01-27 02:28:09.38	29.87	7.02	-47.1	-49.2	17.0	0.00e+00	0	42	0	80740352	64	4952
2026-01-27 02:28:10.39	29.81	7.10	-47.0	-49.0	17.1	0.00e+00	0	42	0	82837504	64	4857
2026-01-27 02:28:11.39	29.76	7.17	-47.1	-49.1	17.1	0.00e+00	0	42	0	84934656	64	4920
2026-01-27 02:28:12.40	29.71	7.24	-46.9	-48.9	17.3	0.00e+00	0	42	0	85983232	64	4798
2026-01-27 02:28:13.41	29.66	7.32	-46.7	-48.7	17.5	0.00e+00	0	42	0	88080384	64	4654
2026-01-27 02:28:14.42	29.60	7.39	-46.7	-48.6	17.6	0.00e+00	0	42	0	90177536	64	4648
2026-01-27 02:28:15.43	29.55	7.47	-46.7	-48.6	17.6	0.00e+00	0	42	0	92274688	64	4649
2026-01-27 02:28:16.44	29.49	7.54	-46.6	-48.5	17.8	0.00e+00	0	42	0	94371840	64	4548
2026-01-27 02:28:17.44	29.44	7.62	-46.7	-48.6	17.6	0.00e+00	0	42	0	96468992	64	4649
2026-01-27 02:28:18.45	29.39	7.69	-46.7	-48.6	17.7	0.00e+00	0	42	0	97517568	64	4607
2026-01-27 02:28:19.46	29.33	7.77	-46.5	-48.3	17.9	0.00e+00	0	42	0	99614720	64	4474
2026-01-27 02:28:20.47	29.28	7.84	-46.5	-48.4	17.9	0.00e+00	0	42	0	101711872	64	4506
2026-01-27 02:28:21.48	29.22	7.92	-46.4	-48.2	18.0	0.00e+00	0	42	0	103809024	64	4432
2026-01-27 02:28:22.49	29.17	7.99	-46.4	-48.2	18.0	0.00e+00	0	42	0	104857600	64	4433
2026-01-27 02:28:23.49	29.11	8.07	-46.5	-48.4	17.9	0.00e+00	0	42	0	106954752	64	4520
2026-01-27 02:28:24.50	29.05	8.15	-46.5	-48.3	18.0	0.00e+00	0	42	0	109051904	64	4464
2026-01-27 02:28:25.50	29.00	8.22	-46.5	-48.4	17.9	0.00e+00	0	42	0	111149056	64	4529
2026-01-27 02:28:26.51	28.94	8.30	-46.5	-48.4	17.9	0.00e+00	0	42	0	113246208	64	4534
2026-01-27 02:28:27.52	28.88	8.38	-46.5	-48.3	17.9	0.00e+00	0	42	0	114294784	64	4485
2026-01-27 02:28:28.53	28.82	8.45	-46.6	-48.5	17.9	0.00e+00	0	42	0	116391936	64	4557
2026-01-27 02:28:29.53	28.77	8.53	-46.4	-48.2	18.0	0.00e+00	0	42	0	118489088	64	4438
2026-01-27 02:28:30.54	28.71	8.61	-46.3	-48.1	18.2	0.00e+00	0	42	0	120586240	64	4380
2026-01-27 02:28:31.55	28.65	8.69	-46.4	-48.1	18.2	0.00e+00	0	42	0	122683392	64	4391
2026-01-27 02:28:32.56	28.59	8.76	-46.3	-48.1	18.2	0.00e+00	0	42	0	124780544	64	4368
2026-01-27 02:28:33.56	28.53	8.84	-46.3	-48.1	18.2	0.00e+00	0	42	0	125829120	64	4375
2026-01-27 02:28:34.57	28.47	8.92	-46.3	-48.1	18.2	0.00e+00	0	42	0	127926272	64	4359
2026-01-27 02:28:35.57	28.41	9.00	-46.3	-48.0	18.3	0.00e+00	0	42	0	130023424	64	4337
2026-01-27 02:28:36.58	28.35	9.08	-46.1	-47.9	18.5	0.00e+00	0	42	0	132120576	64	4246
2026-01-27 02:28:37.59	28.29	9.16	-46.3	-48.0	18.3	0.00e+00	0	42	0	133169152	64	4326
2026-01-27 02:28:38.60	28.23	9.24	-46.2	-48.0	18.4	0.00e+00	0	42	0	135266304	64	4305
2026-01-27 02:28:39.61	28.17	9.31	-46.4	-48.2	18.2	0.00e+00	0	42	0	137363456	64	4418
2026-01-27 02:28:40.62	28.11	9.39	-46.5	-48.3	18.1	0.00e+00	0	42	0	139460608	64	4473
2026-01-27 02:28:41.63	28.05	9.47	-46.4	-48.2	18.2	0.00e+00	0	42	0	141557760	64	4423
2026-01-27 02:28:42.63	27.98	9.55	-46.4	-48.2	18.2	0.00e+00	0	42	0	143654912	64	4400
2026-01-27 02:28:43.64	27.92	9.63	-46.5	-48.4	18.0	0.00e+00	0	42	0	144703488	64	4494
2026-01-27 02:28:44.64	27.86	9.71	-46.3	-48.0	18.3	0.00e+00	0	42	0	146800640	64	4333
2026-01-27 02:28:45.65	27.79	9.80	-46.3	-48.1	18.3	0.00e+00	0	42	0	148897792	64	4374
2026-01-27 02:28:46.66	27.73	9.88	-46.4	-48.2	18.2	0.00e+00	0	42	0	150994944	64	4435
2026-01-27 02:28:47.67	27.67	9.96	-46.4	-48.2	18.2	0.00e+00	0	42	0	153092096	64	4435
2026-01-27 02:28:48.67	27.60	10.04	-46.1	-47.8	18.6	0.00e+00	0	42	0	154140672	64	4217
2026-01-27 02:28:49.68	27.54	10.12	-46.1	-47.9	18.5	0.00e+00	0	43	0	156237824	64	4245
2026-01-27 02:28:50.69	27.47	10.20	-46.2	-47.9	18.5	0.00e+00	0	42	0	158334976	64	4285
2026-01-27 02:28:51.70	27.40	10.29	-46.2	-47.9	18.5	0.00e+00	0	43	0	160432128	64	4250
2026-01-27 02:28:52.70	27.34	10.37	-46.3	-48.0	18.4	0.00e+00	0	42	0	161480704	64	4334
2026-01-27 02:28:53.71	27.27	10.45	-46.5	-48.3	18.2	0.00e+00	0	42	0	163577856	64	4460
2026-01-27 02:28:54.72	27.21	10.53	-46.2	-47.9	18.5	0.00e+00	0	42	0	165675008	64	4249
2026-01-27 02:28:55.73	27.14	10.62	-46.1	-47.8	18.7	0.00e+00	0	43	0	167772160	64	4199
2026-01-27 02:28:56.73	27.07	10.70	-46.1	-47.8	18.7	0.00e+00	0	42	0	169869312	64	4201
2026-01-27 02:28:57.74	27.00	10.78	-46.1	-47.7	18.7	0.00e+00	0	42	0	171966464	64	4189
2026-01-27 02:28:58.75	26.93	10.87	-46.1	-47.8	18.6	0.00e+00	0	43	0	173015040	64	4240
2026-01-27 02:28:59.76	26.86	10.95	-46.1	-47.7	18.7	0.00e+00	0	42	0	175112192	64	4190
2026-01-27 02:29:00.76	26.80	11.03	-46.3	-48.0	18.4	0.00e+00	0	43	0	177209344	64	4313
2026-01-27 02:29:01.77	26.73	11.12	-46.1	-47.7	18.7	0.00e+00	0	42	0	179306496	64	4179
2026-01-27 02:29:02.78	26.65	11.20	-46.1	-47.8	18.7	0.00e+00	0	42	0	181403648	64	4210
2026-01-27 02:29:03.78	26.58	11.29	-46.1	-47.7	18.8	0.00e+00	0	42	0	182452224	64	4169
2026-01-27 02:29:04.79	26.51	11.37	-46.1	-47.7	18.8	0.00e+00	0	42	0	184549376	64	4168
2026-01-27 02:29:05.79	26.44	11.46	-46.2	-47.9	18.6	0.00e+00	0	43	0	186646528	64	4243
2026-01-27 02:29:06.80	26.37	11.55	-46.4	-48.1	18.4	0.00e+00	0	43	0	188743680	63	4643
2026-01-27 02:29:07.81	26.30	11.63	-46.0	-47.6	18.9	0.00e+00	0	42	0	189792256	63	4372
2026-01-27 02:29:08.82	26.22	11.72	-46.1	-47.7	18.8	0.00e+00	0	42	0	191889408	63	4401
2026-01-27 02:29:09.82	26.15	11.80	-46.2	-47.9	18.6	0.00e+00	0	42	0	193986560	63	4521
2026-01-27 02:29:10.83	26.08	11.89	-46.1	-47.7	18.8	0.00e+00	0	42	0	196083712	63	4422
2026-01-27 02:29:11.83	26.00	11.98	-45.9	-47.4	19.1	0.00e+00	0	42	0	198180864	63	4279
2026-01-27 02:29:12.84	25.93	12.07	-45.9	-47.4	19.1	0.00e+00	0	42	0	200278016	63	4287
2026-01-27 02:29:13.84	25.85	12.15	-46.0	-47.6	19.0	0.00e+00	0	43	0	201326592	63	4346
2026-01-27 02:29:14.85	25.78	12.24	-46.1	-47.7	18.9	0.00e+00	0	42	0	203423744	63	4403
2026-01-27 02:29:15.86	25.70	12.33	-46.0	-47.5	19.0	0.00e+00	0	43	0	205520896	63	4332
2026-01-27 02:29:16.87	25.62	12.42	-45.8	-47.4	19.2	0.00e+00	0	42	0	207618048	63	4249
2026-01-27 02:29:17.87	25.55	12.51	-45.8	-47.3	19.2	0.00e+00	0	43	0	209715200	63	4234
2026-01-27 02:29:18.88	25.47	12.59	-45.9	-47.5	19.1	0.00e+00	0	43	0	210763776	63	4308
2026-01-27 02:29:19.89	25.39	12.68	-46.0	-47.6	19.1	0.00e+00	0	43	0	212860928	63	4351
2026-01-27 02:29:20.90	25.31	12.77	-46.0	-47.6	19.1	0.00e+00	0	42	0	214958080	63	4344
2026-01-27 02:29:21.90	25.23	12.86	-45.9	-47.5	19.1	0.00e+00	0	42	0	217055232	63	4321
2026-01-27 02:29:22.91	25.15	12.95	-46.2	-47.8	18.8	0.00e+00	0	42	0	218103808	63	4476
2026-01-27 02:29:23.92	25.07	13.04	-46.1	-47.7	19.0	0.00e+00	0	43	0	220200960	63	4402
2026-01-27 02:29:24.92	24.99	13.13	-45.9	-47.4	19.2	0.00e+00	0	42	0	222298112	63	4288
2026-01-27 02:29:25.93	24.91	13.22	-45.7	-47.2	19.4	0.00e+00	0	43	0	224395264	63	4190
2026-01-27 02:29:26.94	24.83	13.32	-45.9	-47.4	19.2	0.00e+00	0	43	0	226492416	63	4290
2026-01-27 02:29:27.95	24.75	13.41	-45.9	-47.5	19.1	0.00e+00	0	42	0	228589568	63	4326
2026-01-27 02:29:28.96	24.67	13.50	-45.7	-47.2	19.5	0.00e+00	0	42	0	229638144	63	4157
2026-01-27 02:29:29.96	24.58	13.59	-45.8	-47.3	19.4	0.00e+00	0	42	0	231735296	63	4215
2026-01-27 02:29:30.97	24.50	13.68	-45.9	-47.5	19.1	0.00e+00	0	43	0	233832448	63	4330
2026-01-27 02:29:31.97	24.42	13.78	-45.9	-47.5	19.1	0.00e+00	0	43	0	235929600	63	4323
2026-01-27 02:29:32.98	24.33	13.87	-45.7	-47.3	19.3	0.00e+00	0	42	0	238026752	63	4203
2026-01-27 02:29:33.99	24.24	13.96	-45.9	-47.4	19.2	0.00e+00	0	42	0	239075328	63	4273
2026-01-27 02:29:35.00	24.16	14.06	-46.0	-47.5	19.1	0.00e+00	0	43	0	241172480	63	4339
2026-01-27 02:29:36.01	24.07	14.15	-46.0	-47.6	19.0	0.00e+00	0	42	0	243269632	63	4363
2026-01-27 02:29:37.02	23.98	14.24	-46.0	-47.6	19.1	0.00e+00	0	43	0	245366784	63	4364
2026-01-27 02:29:38.03	23.90	14.34	-46.2	-47.8	18.9	0.00e+00	0	43	0	247463936	63	4480
2026-01-27 02:29:39.03	23.81	14.43	-45.9	-47.5	19.1	0.00e+00	0	43	0	248512512	63	4305
2026-01-27 02:29:40.04	23.72	14.53	-46.1	-47.7	19.0	0.00e+00	0	43	0	250609664	63	4433
2026-01-27 02:29:41.05	23.63	14.62	-46.0	-47.6	19.1	0.00e+00	0	43	0	252706816	63	4377
2026-01-27 02:29:42.06	23.54	14.72	-46.0	-47.7	19.0	0.00e+00	0	43	0	254803968	63	4395
2026-01-27 02:29:43.07	23.45	14.81	-46.1	-47.7	18.9	0.00e+00	0	43	0	256901120	63	4441
2026-01-27 02:29:44.08	23.36	14.91	-46.2	-47.8	18.8	0.00e+00	0	43	0	257949696	63	4474
2026-01-27 02:29:45.08	23.27	15.01	-46.2	-47.9	18.8	0.00e+00	0	43	0	260046848	63	4497
2026-01-27 02:29:46.09	23.17	15.10	-46.1	-47.8	18.9	0.00e+00	0	43	0	262144000	63	4446
2026-01-27 02:29:47.10	23.08	15.20	-46.1	-47.7	19.0	0.00e+00	0	42	0	264241152	63	4419
2026-01-27 02:29:48.10	22.99	15.30	-46.2	-47.8	18.8	0.00e+00	0	43	0	266338304	63	4470
2026-01-27 02:29:49.11	22.89	15.39	-46.1	-47.7	19.0	0.00e+00	0	43	0	267386880	63	4415
2026-01-27 02:29:50.12	22.80	15.49	-46.0	-47.6	19.1	0.00e+00	0	43	0	269484032	63	4361
2026-01-27 02:29:51.12	22.70	15.59	-46.0	-47.6	19.1	0.00e+00	0	42	0	271581184	63	4383
2026-01-27 02:29:52.13	22.60	15.69	-45.9	-47.4	19.3	0.00e+00	0	43	0	273678336	63	4278
2026-01-27 02:29:53.13	22.51	15.79	-45.7	-47.3	19.5	0.00e+00	0	43	0	275775488	63	4203
2026-01-27 02:29:54.14	22.41	15.89	-45.7	-47.2	19.5	0.00e+00	0	43	0	276824064	63	4165
2026-01-27 02:29:55.15	22.31	15.99	-45.8	-47.3	19.4	0.00e+00	0	43	0	278921216	63	4229
2026-01-27 02:29:56.16	22.21	16.09	-45.9	-47.4	19.3	0.00e+00	0	43	0	281018368	63	4263
2026-01-27 02:29:57.16	22.11	16.19	-45.9	-47.4	19.3	0.00e+00	0	43	0	283115520	63	4265
2026-01-27 02:29:58.17	22.01	16.29	-45.9	-47.4	19.3	0.00e+00	0	43	0	285212672	63	4261
2026-01-27 02:29:59.17	21.91	16.39	-45.9	-47.4	19.3	0.00e+00	0	43	0	286261248	63	4268
2026-01-27 02:30:00.18	21.81	16.49	-45.8	-47.4	19.4	0.00e+00	0	43	0	288358400	63	4246
2026-01-27 02:30:01.19	21.71	16.59	-45.9	-47.4	19.4	0.00e+00	0	43	0	290455552	63	4254
2026-01-27 02:30:02.19	21.60	16.69	-46.0	-47.5	19.3	0.00e+00	0	43	0	292552704	63	4331
2026-01-27 02:30:03.20	21.50	16.79	-46.0	-47.5	19.3	0.00e+00	0	43	0	294649856	63	4315
2026-01-27 02:30:04.21	21.39	16.90	-45.8	-47.3	19.5	0.00e+00	0	43	0	295698432	63	4220
2026-01-27 02:30:05.21	21.29	17.00	-45.8	-47.3	19.5	0.00e+00	0	43	0	297795584	63	4219
2026-01-27 02:30:06.22	21.18	17.10	-45.9	-47.4	19.4	0.00e+00	0	43	0	299892736	63	4264
2026-01-27 02:30:07.23	21.08	17.21	-45.7	-47.2	19.6	0.00e+00	0	43	0	301989888	63	4178
2026-01-27 02:30:08.24	20.97	17.31	-45.8	-47.2	19.6	0.00e+00	0	43	0	304087040	63	4191
2026-01-27 02:30:09.25	20.86	17.41	-45.8	-47.3	19.6	0.00e+00	0	43	0	305135616	63	4214
2026-01-27 02:30:10.25	20.75	17.52	-45.6	-47.0	19.7	0.00e+00	0	43	0	307232768	63	4092
2026-01-27 02:30:11.26	20.64	17.62	-45.6	-47.1	19.7	0.00e+00	0	43	0	309329920	63	4113
2026-01-27 02:30:12.27	20.53	17.73	-45.6	-47.0	19.8	0.00e+00	0	43	0	311427072	63	4067
2026-01-27 02:30:13.28	20.42	17.83	-45.7	-47.1	19.7	0.00e+00	0	43	0	313524224	63	4124
2026-01-27 02:30:14.28	20.30	17.94	-45.7	-47.2	19.6	0.00e+00	0	43	0	314572800	63	4157
2026-01-27 02:30:15.29	20.19	18.04	-45.9	-47.4	19.4	0.00e+00	0	43	0	316669952	63	4279
2026-01-27 02:30:16.30	20.08	18.15	-45.7	-47.2	19.6	0.00e+00	0	43	0	318767104	63	4173
2026-01-27 02:30:17.31	19.96	18.26	-45.9	-47.4	19.4	0.00e+00	0	43	0	320864256	63	4279
2026-01-27 02:30:18.32	19.85	18.37	-45.8	-47.3	19.5	0.00e+00	0	43	0	322961408	63	4221
2026-01-27 02:30:19.33	19.73	18.47	-45.9	-47.4	19.4	0.00e+00	0	43	0	324009984	63	4284
2026-01-27 02:30:20.34	19.61	18.58	-45.9	-47.4	19.4	0.00e+00	0	43	0	326107136	63	4277
2026-01-27 02:30:21.35	19.49	18.69	-45.7	-47.2	19.6	0.00e+00	0	43	0	328204288	63	4154
2026-01-27 02:30:22.35	19.37	18.80	-45.8	-47.2	19.7	0.00e+00	0	43	0	330301440	63	4165
2026-01-27 02:30:23.36	19.25	18.91	-45.8	-47.3	19.6	0.00e+00	0	43	0	332398592	63	4202
2026-01-27 02:30:24.38	19.13	19.02	-45.8	-47.3	19.6	0.00e+00	0	42	0	333447168	63	4196
2026-01-27 02:30:25.38	19.01	19.13	-45.7	-47.2	19.7	0.00e+00	0	43	0	335544320	63	4155
2026-01-27 02:30:26.39	18.89	19.24	-45.8	-47.2	19.7	0.00e+00	0	43	0	337641472	63	4172
2026-01-27 02:30:27.40	18.76	19.35	-45.8	-47.3	19.5	0.00e+00	0	42	0	339738624	63	4216
2026-01-27 02:30:28.41	18.64	19.46	-45.7	-47.1	19.8	0.00e+00	0	43	0	341835776	63	4129
2026-01-27 02:30:29.41	18.51	19.57	-45.7	-47.1	19.8	0.00e+00	0	43	0	342884352	63	4130
2026-01-27 02:30:30.42	18.39	19.68	-45.8	-47.3	19.6	0.00e+00	0	43	0	344981504	63	4209
2026-01-27 02:30:31.42	18.26	19.79	-45.9	-47.3	19.6	0.00e+00	0	43	0	347078656	63	4228
2026-01-27 02:30:32.43	18.13	19.90	-45.7	-47.1	19.8	0.00e+00	0	43	0	349175808	63	4118
2026-01-27 02:30:33.44	18.00	20.01	-45.7	-47.1	19.8	0.00e+00	0	43	0	351272960	63	4103
2026-01-27 02:30:34.45	17.87	20.13	-45.7	-47.1	19.7	0.00e+00	0	43	0	352321536	63	4144
2026-01-27 02:30:35.46	17.74	20.24	-45.6	-46.9	19.9	0.00e+00	0	42	0	354418688	62	4289
2026-01-27 02:30:36.46	17.61	20.35	-45.8	-47.2	19.7	0.00e+00	0	43	0	356515840	62	4430
2026-01-27 02:30:37.47	17.47	20.47	-45.8	-47.2	19.7	0.00e+00	0	43	0	358612992	62	4409
2026-01-27 02:30:38.48	17.34	20.58	-45.9	-47.4	19.5	0.00e+00	0	43	0	360710144	62	4510
2026-01-27 02:30:39.49	17.20	20.70	-46.2	-47.8	19.2	0.00e+00	0	43	0	361758720	62	4721
2026-01-27 02:30:40.49	17.07	20.81	-46.3	-47.9	19.0	0.00e+00	0	43	0	363855872	63	4537
2026-01-27 02:30:41.50	16.93	20.92	-46.4	-48.1	18.9	0.00e+00	0	43	0	365953024	63	4602
2026-01-27 02:30:42.50	16.79	21.04	-46.4	-48.0	18.9	0.00e+00	0	43	0	368050176	63	4581
2026-01-27 02:30:43.51	16.65	21.15	-46.4	-48.0	19.0	0.00e+00	0	43	0	370147328	63	4548
2026-01-27 02:30:44.52	16.51	21.27	-46.5	-48.1	18.9	0.00e+00	0	43	0	371195904	63	4614
2026-01-27 02:30:45.53	16.37	21.39	-46.1	-47.7	19.3	0.00e+00	0	43	0	373293056	63	4401
2026-01-27 02:30:46.54	16.23	21.51	-46.2	-47.8	19.2	0.00e+00	0	43	0	375390208	63	4461
2026-01-27 02:30:47.55	16.08	21.62	-46.1	-47.6	19.4	0.00e+00	0	43	0	377487360	63	4350
2026-01-27 02:30:48.55	15.94	21.74	-46.2	-47.8	19.1	0.00e+00	0	43	0	379584512	63	4454
2026-01-27 02:30:49.56	15.79	21.86	-46.1	-47.7	19.2	0.00e+00	0	43	0	380633088	63	4399
2026-01-27 02:30:50.57	15.64	21.98	-46.0	-47.5	19.4	0.00e+00	0	43	0	382730240	63	4325
2026-01-27 02:30:51.58	15.49	22.09	-46.1	-47.7	19.3	0.00e+00	0	43	0	384827392	63	4419
2026-01-27 02:30:52.59	15.34	22.21	-46.2	-47.8	19.2	0.00e+00	0	43	0	386924544	63	4476
2026-01-27 02:30:53.59	15.19	22.33	-45.9	-47.4	19.6	0.00e+00	0	43	0	389021696	63	4274
2026-01-27 02:30:54.60	15.04	22.45	-46.3	-47.9	19.1	0.00e+00	0	43	0	390070272	63	4521
2026-01-27 02:30:55.61	14.89	22.57	-46.3	-48.0	19.0	0.00e+00	0	43	0	392167424	63	4565
2026-01-27 02:30:56.62	14.73	22.69	-46.4	-48.0	19.0	0.00e+00	0	43	0	394264576	63	4576
2026-01-27 02:30:57.63	14.58	22.81	-46.3	-48.0	19.0	0.00e+00	0	43	0	396361728	63	4565
2026-01-27 02:30:58.64	14.42	22.93	-46.1	-47.7	19.2	0.00e+00	0	43	0	398458880	63	4408
2026-01-27 02:30:59.65	14.26	23.06	-46.5	-48.2	18.8	0.00e+00	0	43	0	400556032	63	4656
2026-01-27 02:31:00.65	14.10	23.18	-46.7	-48.5	18.6	0.00e+00	0	43	0	401604608	63	4845
2026-01-27 02:31:01.66	13.94	23.30	-46.5	-48.2	18.8	0.00e+00	0	43	0	403701760	63	4663
2026-01-27 02:31:02.67	13.78	23.42	-46.6	-48.4	18.6	0.00e+00	0	43	0	405798912	63	4778
2026-01-27 02:31:03.67	13.62	23.54	-46.7	-48.5	18.6	0.00e+00	0	43	0	407896064	63	4819
2026-01-27 02:31:04.68	13.45	23.67	-46.5	-48.2	18.6	0.00e+00	0	43	0	408944640	63	4685
2026-01-27 02:31:05.69	13.28	23.79	-46.3	-47.9	19.1	0.00e+00	0	43	0	411041792	63	4520
2026-01-27 02:31:06.70	13.12	23.91	-45.9	-47.4	19.6	0.00e+00	0	43	0	413138944	63	4243
2026-01-27 02:31:07.70	12.95	24.04	-46.2	-47.8	19.1	0.00e+00	0	43	0	415236096	63	4453
2026-01-27 02:31:08.71	12.78	24.16	-46.1	-47.7	19.3	0.00e+00	0	43	0	417333248	63	4421
2026-01-27 02:31:09.71	12.61	24.28	-46.3	-47.9	19.1	0.00e+00	0	43	0	418381824	63	4540
2026-01-27 02:31:10.72	12.44	24.41	-46.4	-48.0	19.0	0.00e+00	0	43	0	420478976	63	4592
2026-01-27 02:31:11.73	12.26	24.53	-46.5	-48.2	18.9	0.00e+00	0	43	0	422576128	63	4655
2026-01-27 02:31:12.74	12.09	24.66	-46.7	-48.4	18.7	0.00e+00	0	43	0	424673280	63	4781
2026-01-27 02:31:13.75	11.91	24.79	-46.7	-48.4	18.6	0.00e+00	0	43	0	426770432	64	4536
2026-01-27 02:31:14.75	11.73	24.91	-46.3	-47.8	19.1	0.00e+00	0	43	0	428867584	64	4232
2026-01-27 02:31:15.76	11.55	25.04	-46.7	-48.5	18.5	0.00e+00	0	43	0	429916160	64	4549
2026-01-27 02:31:16.77	11.37	25.16	-46.4	-48.1	18.9	0.00e+00	0	43	0	432013312	64	4349
2026-01-27 02:31:17.77	11.19	25.29	-46.2	-47.7	19.3	0.00e+00	0	43	0	434110464	63	4437
2026-01-27 02:31:18.78	11.00	25.42	-46.0	-47.5	19.5	0.00e+00	0	43	0	436207616	63	4307
2026-01-27 02:31:19.79	10.82	25.54	-45.7	-47.1	19.7	0.00e+00	0	43	0	437256192	63	4127
2026-01-27 02:31:20.80	10.63	25.67	-45.8	-47.3	19.7	0.00e+00	0	43	0	439353344	62	4443
2026-01-27 02:31:21.81	10.44	25.80	-45.8	-47.2	19.7	0.00e+00	0	43	0	441450496	62	4419
2026-01-27 02:31:22.81	10.25	25.93	-45.5	-46.8	20.1	0.00e+00	0	43	0	443547648	62	4239
2026-01-27 02:31:23.81	10.06	26.06	-46.2	-47.7	19.3	0.00e+00	0	43	0	445644800	62	4678
2026-01-27 02:31:24.82	9.86	26.18	-46.4	-47.9	19.1	0.00e+00	0	43	0	446693376	63	4543
2026-01-27 02:31:25.83	9.67	26.31	-46.8	-48.5	18.5	0.00e+00	0	43	0	448790528	64	4563
2026-01-27 02:31:26.84	9.47	26.44	-46.5	-48.1	18.9	0.00e+00	0	43	0	450887680	64	4374
2026-01-27 02:31:27.84	9.27	26.57	-46.6	-48.2	18.6	0.00e+00	0	43	0	452984832	64	4425
2026-01-27 02:31:28.85	9.07	26.70	-46.6	-48.3	18.7	0.00e+00	0	43	0	455081984	64	4442
2026-01-27 02:31:29.86	8.87	26.83	-46.8	-48.5	18.5	0.00e+00	0	43	0	457179136	64	4569
2026-01-27 02:31:30.87	8.67	26.96	-46.9	-48.6	18.5	0.00e+00	0	43	0	458227712	64	4647
2026-01-27 02:31:31.87	8.46	27.09	-47.1	-48.9	18.2	0.00e+00	0	43	0	460324864	65	4524
2026-01-27 02:31:32.88	8.26	27.22	-47.1	-49.0	18.0	0.00e+00	0	43	0	462422016	65	4565
2026-01-27 02:31:33.88	8.05	27.35	-47.6	-49.6	17.4	0.00e+00	0	43	0	464519168	65	4912
2026-01-27 02:31:34.89	7.84	27.48	-47.6	-49.6	17.5	0.00e+00	0	43	0	465567744	66	4648
2026-01-27 02:31:35.90	7.62	27.61	-47.8	-50.0	17.3	0.00e+00	0	43	0	467664896	66	4815
2026-01-27 02:31:36.91	7.41	27.75	-47.9	-50.0	17.1	0.00e+00	0	43	0	469762048	66	4820
2026-01-27 02:31:37.91	7.20	27.88	-47.5	-49.5	17.5	0.00e+00	0	43	0	471859200	66	4573
2026-01-27 02:31:38.92	6.98	28.01	-47.4	-49.3	17.8	0.00e+00	0	43	0	473956352	66	4488
2026-01-27 02:31:39.93	6.76	28.14	-48.0	-50.2	17.0	0.00e+00	0	43	0	476053504	66	4960
2026-01-27 02:31:40.94	6.54	28.27	-48.1	-50.4	16.7	0.00e+00	0	43	0	477102080	66	5049
2026-01-27 02:31:41.94	6.31	28.40	-48.1	-50.4	16.7	0.00e+00	0	43	0	479199232	67	4795
2026-01-27 02:31:42.95	6.09	28.54	-48.4	-50.9	16.2	0.00e+00	0	43	0	481296384	67	5056
2026-01-27 02:31:43.95	5.86	28.67	-48.4	-50.8	16.5	0.00e+00	0	43	0	483393536	68	4728
2026-01-27 02:31:44.96	5.64	28.80	-48.6	-51.2	16.1	0.00e+00	0	43	0	485490688	68	4935
2026-01-27 02:31:45.97	5.40	28.93	-48.6	-51.0	16.2	0.00e+00	0	43	0	486539264	68	4857
2026-01-27 02:31:46.97	5.17	29.07	-48.2	-50.4	16.6	0.00e+00	0	43	0	488636416	67	4807
2026-01-27 02:31:47.98	4.94	29.20	-48.3	-50.6	16.5	0.00e+00	0	43	0	490733568	67	4919
2026-01-27 02:31:48.99	4.70	29.33	-48.4	-50.7	16.4	0.00e+00	0	43	0	492830720	67	4982
2026-01-27 02:31:50.00	4.46	29.46	-48.7	-51.3	15.9	0.00e+00	0	43	0	493879296	67	5307
2026-01-27 02:31:51.00	4.22	29.60	-48.8	-51.5	15.8	0.00e+00	0	43	0	495976448	68	5120
2026-01-27 02:31:52.01	3.98	29.73	-48.7	-51.3	16.0	0.00e+00	0	43	0	498073600	68	5032
2026-01-27 02:31:53.02	3.73	29.86	-48.9	-51.6	15.6	0.00e+00	0	43	0	500170752	68	5186
2026-01-27 02:31:54.03	3.49	30.00	-48.4	-50.8	16.5	0.00e+00	0	43	0	502267904	68	4708
2026-01-27 02:31:55.03	3.24	30.13	-48.2	-50.4	17.0	0.00e+00	0	43	0	504365056	68	4519
2026-01-27 02:31:56.04	2.99	30.26	-47.7	-49.7	17.5	0.00e+00	0	43	0	505413632	67	4410
2026-01-27 02:31:57.05	2.74	30.40	-47.6	-49.6	17.6	0.00e+00	0	43	0	507510784	67	4343
2026-01-27 02:31:58.06	2.48	30.53	-47.6	-49.6	17.6	0.00e+00	0	43	0	509607936	66	4620
2026-01-27 02:31:59.06	2.23	30.66	-47.5	-49.5	17.7	0.00e+00	0	43	0	511705088	66	4556
2026-01-27 02:32:00.07	1.97	30.79	-47.7	-49.7	17.5	0.00e+00	0	43	0	513802240	66	4696
2026-01-27 02:32:01.08	1.70	30.93	-47.4	-49.3	17.9	0.00e+00	0	43	0	514850816	66	4450
2026-01-27 02:32:02.09	1.44	31.06	-47.3	-49.1	18.0	0.00e+00	0	43	0	516947968	66	4362
2026-01-27 02:32:03.09	1.18	31.19	-47.1	-48.8	18.3	0.00e+00	0	43	0	519045120	66	4206
2026-01-27 02:32:04.10	0.91	31.32	-47.3	-49.1	18.1	0.00e+00	0	43	0	521142272	66	4388
2026-01-27 02:32:05.11	0.64	31.46	-47.6	-49.5	17.6	0.00e+00	0	43	0	522190848	66	4590
2026-01-27 02:32:06.12	0.36	31.59	-47.5	-49.4	17.8	0.00e+00	0	43	0	524288000	66	4512
2026-01-27 02:32:07.12	0.09	31.72	-47.7	-49.7	17.4	0.00e+00	0	43	0	526385152	66	4704
2026-01-27 02:32:08.14	359.81	31.86	-47.7	-49.7	17.4	0.00e+00	0	43	0	528482304	66	4657
2026-01-27 02:32:09.14	359.53	31.99	-47.4	-49.3	17.9	0.00e+00	0	43	0	530579456	66	4446
2026-01-27 02:32:10.15	359.25	32.12	-47.3	-49.1	18.1	0.00e+00	0	43	0	532676608	66	4366
2026-01-27 02:32:11.16	358.97	32.25	-47.0	-48.7	18.4	0.00e+00	0	43	0	533725184	65	4440
2026-01-27 02:32:12.17	358.68	32.38	-47.0	-48.8	18.4	0.00e+00	0	43	0	535822336	65	4448
2026-01-27 02:32:13.18	358.39	32.51	-47.3	-49.2	17.9	0.00e+00	0	43	0	537919488	65	4676
2026-01-27 02:32:14.18	358.10	32.64	-47.6	-49.5	17.6	0.00e+00	0	43	0	540016640	65	4869
2026-01-27 02:32:15.19	357.81	32.77	-47.7	-49.6	17.5	0.00e+00	0	43	0	542113792	66	4639
2026-01-27 02:32:16.20	357.51	32.90	-47.5	-49.3	17.9	0.00e+00	0	43	0	543162368	66	4488
2026-01-27 02:32:17.21	357.21	33.03	-47.2	-49.0	18.1	0.00e+00	0	43	0	545259520	66	4332
2026-01-27 02:32:18.21	356.91	33.16	-46.8	-48.5	18.6	0.00e+00	0	43	0	547356672	65	4312
2026-01-27 02:32:19.22	356.61	33.29	-46.7	-48.3	18.8	0.00e+00	0	43	0	549453824	65	4232
2026-01-27 02:32:20.23	356.30	33.42	-46.8	-48.5	18.7	0.00e+00	0	43	0	551550976	65	4309
2026-01-27 02:32:21.23	356.00	33.55	-47.0	-48.8	18.3	0.00e+00	0	43	0	552599552	65	4460
2026-01-27 02:32:22.24	355.69	33.68	-47.0	-48.8	18.5	0.00e+00	0	43	0	554696704	65	4447
2026-01-27 02:32:23.24	355.38	33.80	-47.4	-49.2	18.0	0.00e+00	0	43	0	556793856	65	4688
2026-01-27 02:32:24.25	355.06	33.93	-47.2	-49.0	18.1	0.00e+00	0	43	0	558891008	65	4585
2026-01-27 02:32:25.25	354.74	34.06	-46.9	-48.6	18.5	0.00e+00	0	43	0	560988160	65	4354
2026-01-27 02:32:26.26	354.42	34.18	-46.7	-48.3	18.7	0.00e+00	0	43	0	562036736	65	4242
2026-01-27 02:32:27.27	354.10	34.31	-46.8	-48.5	18.6	0.00e+00	0	43	0	564133888	65	4310
2026-01-27 02:32:28.27	353.78	34.43	-47.3	-49.3	17.8	0.00e+00	0	43	0	566231040	65	4716
2026-01-27 02:32:29.28	353.45	34.56	-47.9	-50.1	17.0	0.00e+00	0	43	0	568328192	66	4878
2026-01-27 02:32:30.29	353.12	34.68	-48.2	-50.6	16.6	0.00e+00	0	43	0	570425344	66	5179
2026-01-27 02:32:31.30	352.78	34.80	-48.1	-50.4	16.7	0.00e+00	0	43	0	571473920	67	4805
2026-01-27 02:32:32.31	352.45	34.93	-47.8	-49.9	17.2	0.00e+00	0	43	0	573571072	67	4525
2026-01-27 02:32:33.31	352.11	35.05	-47.9	-50.1	17.1	0.00e+00	0	43	0	575668224	67	4645
2026-01-27 02:32:34.31	351.77	35.17	-48.2	-50.6	16.6	0.00e+00	0	43	0	577765376	67	4920
2026-01-27 02:32:35.32	351.43	35.29	-48.6	-51.3	15.9	0.00e+00	0	43	0	578813952	68	5028
2026-01-27 02:32:36.33	351.08	35.41	-48.9	-51.8	15.6	0.00e+00	0	43	0	580911104	68	5289
2026-01-27 02:32:37.34	350.74	35.53	-49.3	-52.3	15.1	0.00e+00	0	43	0	583008256	69	5287
2026-01-27 02:32:38.35	350.38	35.65	-48.7	-51.2	16.2	0.00e+00	0	43	0	585105408	69	4669
2026-01-27 02:32:39.35	350.03	35.76	-48.4	-50.8	16.5	0.00e+00	0	43	0	587202560	68	4744
2026-01-27 02:32:40.36	349.68	35.88	-48.2	-50.5	16.9	0.00e+00	0	43	0	589299712	68	4584
2026-01-27 02:32:41.37	349.32	36.00	-48.5	-51.0	16.4	0.00e+00	0	43	0	590348288	68	4817
2026-01-27 02:32:42.38	348.96	36.11	-48.7	-51.3	16.1	0.00e+00	0	43	0	592445440	68	5015
2026-01-27 02:32:43.39	348.59	36.23	-48.9	-51.5	15.8	0.00e+00	0	43	0	594542592	68	5123
2026-01-27 02:32:44.39	348.23	36.34	-48.9	-51.7	15.7	0.00e+00	0	43	0	596639744	69	4927
2026-01-27 02:32:45.40	347.86	36.45	-48.4	-50.7	16.5	0.00e+00	0	43	0	598736896	68	4705
2026-01-27 02:32:46.41	347.49	36.56	-48.1	-50.4	17.1	0.00e+00	0	43	0	599785472	68	4495
2026-01-27 02:32:47.42	347.11	36.67	-47.6	-49.6	17.5	0.00e+00	0	43	0	601882624	67	4381
2026-01-27 02:32:48.43	346.73	36.78	-47.5	-49.5	17.7	0.00e+00	0	43	0	603979776	67	4298
2026-01-27 02:32:49.43	346.36	36.89	-47.7	-49.8	17.4	0.00e+00	0	43	0	606076928	66	4734
2026-01-27 02:32:50.43	345.98	37.00	-47.6	-49.7	17.3	0.00e+00	0	43	0	608174080	66	4689
2026-01-27 02:32:51.44	345.60	37.10	-47.7	-49.7	17.4	0.00e+00	0	43	0	609222656	67	4441
2026-01-27 02:32:52.44	345.21	37.21	-47.2	-49.1	17.9	0.00e+00	0	43	0	611319808	66	4386
2026-01-27 02:32:53.45	344.82	37.31	-47.1	-49.0	18.2	0.00e+00	0	43	0	613416960	66	4294
2026-01-27 02:32:54.46	344.43	37.41	-46.9	-48.8	18.4	0.00e+00	0	43	0	615514112	65	4444
2026-01-27 02:32:55.47	344.03	37.51	-47.1	-49.0	18.2	0.00e+00	0	43	0	617611264	65	4571
2026-01-27 02:32:56.48	343.64	37.61	-47.4	-49.4	17.8	0.00e+00	0	43	0	618659840	65	4806
2026-01-27 02:32:57.48	343.24	37.71	-47.0	-48.9	18.2	0.00e+00	0	43	0	620756992	65	4523
2026-01-27 02:32:58.49	342.84	37.81	-46.8	-48.6	18.8	0.00e+00	0	43	0	622854144	64	4615
2026-01-27 02:32:59.50	342.44	37.91	-46.1	-47.7	19.5	0.00e+00	0	43	0	624951296	63	4425
2026-01-27 02:33:00.51	342.03	38.00	-45.7	-47.2	19.9	0.00e+00	0	43	0	627048448	63	4178
2026-01-27 02:33:01.51	341.62	38.09	-46.0	-47.5	19.6	0.00e+00	0	43	0	628097024	63	4327
2026-01-27 02:33:02.52	341.21	38.19	-46.2	-47.8	19.4	0.00e+00	0	43	0	630194176	63	4483
2026-01-27 02:33:03.53	340.80	38.28	-45.9	-47.5	19.5	0.00e+00	0	43	0	632291328	63	4322
2026-01-27 02:33:04.53	340.39	38.36	-45.4	-46.9	20.1	0.00e+00	0	43	0	634388480	62	4246
2026-01-27 02:33:05.55	339.96	38.45	-45.2	-46.5	20.4	0.00e+00	0	43	0	636485632	62	4075
2026-01-27 02:33:06.56	339.54	38.54	-44.9	-46.3	20.6	0.00e+00	0	43	0	637534208	61	4205
2026-01-27 02:33:07.56	339.12	38.62	-45.4	-46.8	20.2	0.00e+00	0	43	0	639631360	61	4490
2026-01-27 02:33:08.57	338.70	38.71	-46.0	-47.7	19.5	0.00e+00	0	43	0	641728512	62	4666
2026-01-27 02:33:09.57	338.27	38.79	-46.6	-48.5	18.6	0.00e+00	0	43	0	643825664	64	4579
2026-01-27 02:33:10.58	337.85	38.87	-46.2	-47.9	19.2	0.00e+00	0	43	0	645922816	64	4260
2026-01-27 02:33:11.59	337.41	38.94	-45.7	-47.2	19.9	0.00e+00	0	43	0	646971392	63	4181
2026-01-27 02:33:12.60	336.98	39.02	-44.6	-45.9	21.0	0.00e+00	0	43	0	649068544	61	4027
2026-01-27 02:33:13.61	336.54	39.09	-44.4	-45.7	21.3	0.00e+00	0	43	0	651165696	60	4171
2026-01-27 02:33:14.61	336.11	39.17	-44.8	-46.1	20.9	0.00e+00	0	43	0	653262848	60	4378
2026-01-27 02:33:15.62	335.67	39.24	-45.7	-47.3	19.9	0.00e+00	0	43	0	655360000	61	4717
2026-01-27 02:33:16.63	335.23	39.31	-46.4	-48.2	19.0	0.00e+00	0	43	0	657457152	63	4678
2026-01-27 02:33:17.64	334.79	39.38	-45.6	-47.0	20.1	0.00e+00	0	43	0	658505728	63	4087
2026-01-27 02:33:18.64	334.35	39.44	-44.7	-46.0	21.0	0.00e+00	0	43	0	660602880	61	4061
2026-01-27 02:33:19.65	333.90	39.50	-44.6	-45.8	21.1	0.00e+00	0	43	0	662700032	60	4233
2026-01-27 02:33:20.65	333.45	39.57	-45.3	-46.7	20.1	0.00e+00	0	43	0	664797184	61	4392
2026-01-27 02:33:21.66	333.00	39.63	-46.1	-47.8	19.4	0.00e+00	0	43	0	665845760	62	4706
2026-01-27 02:33:22.67	332.55	39.68	-46.4	-48.2	18.9	0.00e+00	0	43	0	667942912	63	4660
2026-01-27 02:33:23.68	332.10	39.74	-46.1	-47.8	19.4	0.00e+00	0	43	0	670040064	63	4453
2026-01-27 02:33:24.69	331.64	39.79	-45.3	-46.8	20.3	0.00e+00	0	43	0	672137216	62	4207
2026-01-27 02:33:25.70	331.19	39.85	-45.0	-46.4	20.7	0.00e+00	0	43	0	674234368	61	4255
2026-01-27 02:33:26.71	330.73	39.90	-45.0	-46.3	20.7	0.00e+00	0	43	0	675282944	61	4223
2026-01-27 02:33:27.71	330.27	39.94	-45.5	-47.0	20.0	0.00e+00	0	43	0	677380096	61	4575
2026-01-27 02:33:28.72	329.81	39.99	-46.0	-47.5	19.6	0.00e+00	0	43	0	679477248	62	4596
2026-01-27 02:33:29.73	329.35	40.03	-46.0	-47.5	19.8	0.00e+00	0	43	0	681574400	63	4314
2026-01-27 02:33:30.74	328.88	40.08	-45.4	-46.7	20.4	0.00e+00	0	43	0	683671552	62	4191
2026-01-27 02:33:31.75	328.42	40.12	-44.3	-45.4	21.6	0.00e+00	0	43	0	685768704	60	4036
2026-01-27 02:33:32.75	327.96	40.15	-44.4	-45.5	21.8	0.00e+00	0	43	0	686817280	59	4306
2026-01-27 02:33:33.76	327.49	40.19	-44.4	-45.5	21.6	0.00e+00	0	43	0	688914432	60	4088
2026-01-27 02:33:34.77	327.02	40.22	-44.9	-46.2	20.9	0.00e+00	0	43	0	691011584	60	4413
2026-01-27 02:33:35.78	326.56	40.26	-45.5	-46.9	20.4	0.00e+00	0	43	0	693108736	61	4502
2026-01-27 02:33:36.79	326.09	40.28	-45.5	-47.0	20.3	0.00e+00	0	43	0	694157312	61	4551
2026-01-27 02:33:37.80	325.61	40.31	-44.8	-46.0	21.1	0.00e+00	0	43	0	696254464	61	4075
2026-01-27 02:33:38.81	325.14	40.34	-44.4	-45.6	21.5	0.00e+00	0	43	0	698351616	60	4122
2026-01-27 02:33:39.82	324.67	40.36	-44.6	-45.8	21.5	0.00e+00	0	43	0	700448768	59	4489
2026-01-27 02:33:40.82	324.20	40.38	-45.1	-46.5	20.7	0.00e+00	0	43	0	702545920	60	4564
2026-01-27 02:33:41.83	323.73	40.40	-46.5	-48.1	19.3	0.00e+00	0	43	0	704643072	63	4651
2026-01-27 02:33:42.84	323.26	40.41	-46.5	-48.1	19.3	0.00e+00	0	43	0	705691648	63	4632
2026-01-27 02:33:43.85	322.78	40.43	-46.5	-48.1	19.5	0.00e+00	0	43	0	707788800	63	4615
2026-01-27 02:33:44.85	322.31	40.44	-45.8	-47.3	19.9	0.00e+00	0	43	0	709885952	63	4212
2026-01-27 02:33:45.86	321.84	40.45	-45.6	-46.9	20.3	0.00e+00	0	43	0	711983104	62	4284
2026-01-27 02:33:46.87	321.36	40.46	-45.1	-46.3	20.8	0.00e+00	0	43	0	714080256	62	3991
2026-01-27 02:33:47.88	320.89	40.46	-45.7	-47.0	20.2	0.00e+00	0	43	0	715128832	62	4336
2026-01-27 02:33:48.89	320.41	40.47	-46.5	-48.0	19.4	0.00e+00	0	43	0	717225984	63	4588
2026-01-27 02:33:49.90	319.93	40.47	-46.8	-48.5	18.7	0.00e+00	0	43	0	719323136	64	4597
2026-01-27 02:33:50.91	319.46	40.46	-46.0	-47.4	19.7	0.00e+00	0	43	0	721420288	63	4287
2026-01-27 02:33:51.91	318.99	40.46	-45.4	-46.7	20.4	0.00e+00	0	43	0	722468864	62	4182
2026-01-27 02:33:52.92	318.51	40.45	-45.6	-47.0	20.2	0.00e+00	0	43	0	724566016	62	4327
2026-01-27 02:33:53.93	318.04	40.45	-46.3	-47.8	19.6	0.00e+00	0	43	0	726663168	63	4484
2026-01-27 02:33:54.94	317.56	40.44	-46.5	-48.1	19.3	0.00e+00	0	43	0	728760320	63	4603
2026-01-27 02:33:55.95	317.09	40.42	-46.2	-47.7	19.5	0.00e+00	0	43	0	730857472	63	4435
2026-01-27 02:33:56.95	316.62	40.41	-46.4	-48.0	19.3	0.00e+00	0	43	0	732954624	63	4581
2026-01-27 02:33:57.96	316.15	40.39	-46.5	-48.1	19.0	0.00e+00	0	43	0	734003200	64	4388
2026-01-27 02:33:58.97	315.67	40.37	-46.6	-48.2	19.0	0.00e+00	0	43	0	736100352	64	4420
2026-01-27 02:33:59.98	315.20	40.35	-47.1	-49.0	18.3	0.00e+00	0	43	0	738197504	65	4568
2026-01-27 02:34:00.99	314.73	40.33	-47.9	-50.1	17.2	0.00e+00	0	43	0	740294656	66	4877
2026-01-27 02:34:02.00	314.26	40.30	-48.6	-51.1	16.3	0.00e+00	0	43	0	742391808	67	5216
2026-01-27 02:34:03.00	313.79	40.27	-48.7	-51.1	16.3	0.00e+00	0	43	0	743440384	67	5201
2026-01-27 02:34:04.01	313.32	40.24	-47.9	-50.0	17.3	0.00e+00	0	43	0	745537536	67	4584
2026-01-27 02:34:05.02	312.85	40.21	-48.5	-50.9	16.5	0.00e+00	0	43	0	747634688	67	5057
2026-01-27 02:34:06.03	312.39	40.17	-48.9	-51.4	16.0	0.00e+00	0	43	0	749731840	68	5098
2026-01-27 02:34:07.03	311.92	40.14	-49.1	-51.7	15.8	0.00e+00	0	43	0	751828992	68	5253
2026-01-27 02:34:08.04	311.46	40.10	-48.6	-50.9	16.5	0.00e+00	0	43	0	752877568	68	4812
2026-01-27 02:34:09.05	310.99	40.06	-48.8	-51.2	16.2	0.00e+00	0	43	0	754974720	68	4981
2026-01-27 02:34:10.06	310.53	40.01	-48.8	-51.3	16.1	0.00e+00	0	43	0	757071872	68	5007
2026-01-27 02:34:11.07	310.07	39.97	-48.9	-51.4	16.0	0.00e+00	0	43	0	759169024	68	5071
2026-01-27 02:34:12.08	309.61	39.92	-49.2	-52.0	15.5	0.00e+00	0	43	0	761266176	69	5128
2026-01-27 02:34:13.09	309.15	39.87	-49.6	-52.7	14.8	0.00e+00	0	43	0	762314752	69	5547
2026-01-27 02:34:14.10	308.69	39.82	-49.4	-52.3	15.1	1.50e-06	0	43	0	764411904	70	5039
2026-01-27 02:34:15.11	308.23	39.77	-48.8	-51.3	16.0	0.00e+00	0	43	0	766509056	69	4739
2026-01-27 02:34:16.12	307.78	39.71	-48.5	-50.8	16.6	0.00e+00	0	43	0	768606208	69	4486
2026-01-27 02:34:17.13	307.33	39.66	-49.2	-52.0	15.5	0.00e+00	0	43	0	770703360	68	5426
2026-01-27 02:34:18.13	306.88	39.60	-48.3	-50.7	16.7	0.00e+00	0	43	0	771751936	68	4669
2026-01-27 02:34:19.14	306.43	39.54	-48.3	-50.7	16.6	0.00e+00	0	43	0	773849088	67	4941
2026-01-27 02:34:20.15	305.98	39.47	-48.2	-50.6	16.8	0.00e+00	0	43	0	775946240	67	4871
2026-01-27 02:34:21.15	305.54	39.41	-48.3	-50.8	16.7	0.00e+00	0	43	0	778043392	67	5019
2026-01-27 02:34:22.16	305.09	39.34	-48.6	-51.1	16.2	0.00e+00	0	43	0	780140544	68	4915
2026-01-27 02:34:23.17	304.65	39.27	-48.6	-51.3	16.1	0.00e+00	0	43	0	781189120	68	5010
2026-01-27 02:34:24.17	304.21	39.20	-48.4	-51.0	16.4	0.00e+00	0	43	0	783286272	68	4833
2026-01-27 02:34:25.18	303.78	39.13	-48.7	-51.4	15.9	0.00e+00	0	43	0	785383424	68	5087
2026-01-27 02:34:26.19	303.34	39.06	-48.6	-51.3	16.0	0.00e+00	0	43	0	787480576	68	4992
2026-01-27 02:34:27.20	302.90	38.98	-48.2	-50.6	16.7	0.00e+00	0	43	0	789577728	68	4642
2026-01-27 02:34:28.21	302.47	38.91	-47.3	-49.3	17.8	0.00e+00	0	43	0	790626304	66	4476
2026-01-27 02:34:29.21	302.04	38.83	-46.4	-48.2	18.9	0.00e+00	0	43	0	792723456	64	4422
2026-01-27 02:34:30.22	301.61	38.75	-46.2	-47.9	19.1	0.00e+00	0	43	0	794820608	64	4281
2026-01-27 02:34:31.23	301.19	38.66	-46.1	-47.8	19.3	0.00e+00	0	43	0	796917760	63	4487
2026-01-27 02:34:32.24	300.76	38.58	-46.3	-48.1	19.2	0.00e+00	0	43	0	799014912	63	4619
2026-01-27 02:34:33.25	300.34	38.50	-46.7	-48.5	18.7	0.00e+00	0	43	0	800063488	63	4863
2026-01-27 02:34:34.25	299.92	38.41	-46.4	-48.1	19.1	0.00e+00	0	43	0	802160640	63	4615
2026-01-27 02:34:35.26	299.51	38.32	-45.9	-47.4	19.7	0.00e+00	0	43	0	804257792	63	4287
2026-01-27 02:34:36.27	299.09	38.23	-45.2	-46.6	20.6	0.00e+00	0	43	0	806354944	62	4107
2026-01-27 02:34:37.28	298.68	38.14	-44.5	-45.8	21.2	0.00e+00	0	43	0	808452096	60	4202
2026-01-27 02:34:38.29	298.27	38.05	-44.2	-45.4	21.6	0.00e+00	0	43	0	809500672	60	4006
2026-01-27 02:34:39.29	297.86	37.95	-44.4	-45.7	21.4	0.00e+00	0	43	0	811597824	60	4159
2026-01-27 02:34:40.30	297.46	37.86	-44.5	-45.7	21.3	0.00e+00	0	43	0	813694976	60	4163
2026-01-27 02:34:41.31	297.05	37.76	-44.4	-45.6	21.4	0.00e+00	0	43	0	815792128	60	4124
2026-01-27 02:34:42.32	296.65	37.66	-44.4	-45.6	21.4	0.00e+00	0	43	0	817889280	60	4121
2026-01-27 02:34:43.33	296.25	37.56	-44.2	-45.4	21.6	0.00e+00	0	43	0	819986432	60	4043
2026-01-27 02:34:44.34	295.86	37.46	-44.6	-45.8	21.3	0.00e+00	0	43	0	821035008	60	4227
2026-01-27 02:34:45.34	295.47	37.36	-44.5	-45.8	21.3	0.00e+00	0	43	0	823132160	60	4218
2026-01-27 02:34:46.35	295.07	37.26	-44.3	-45.5	21.5	0.00e+00	0	43	0	825229312	60	4095
2026-01-27 02:34:47.36	294.69	37.15	-44.3	-45.5	21.6	0.00e+00	0	43	0	827326464	60	4086
2026-01-27 02:34:48.37	294.30	37.05	-44.7	-45.9	21.2	0.00e+00	0	43	0	828375040	60	4287
2026-01-27 02:34:49.37	293.92	36.94	-45.6	-47.1	20.2	0.00e+00	0	43	0	830472192	61	4635
2026-01-27 02:34:50.38	293.54	36.83	-46.6	-48.4	19.0	0.00e+00	0	43	0	832569344	63	4768
2026-01-27 02:34:51.39	293.16	36.72	-46.7	-48.5	18.8	0.00e+00	0	43	0	834666496	64	4578
2026-01-27 02:34:52.40	292.78	36.61	-46.1	-47.8	19.4	0.00e+00	0	43	0	836763648	64	4195
2026-01-27 02:34:53.41	292.41	36.50	-45.8	-47.2	20.1	0.00e+00	0	43	0	837812224	63	4165
2026-01-27 02:34:54.41	292.04	36.39	-45.6	-47.0	20.3	0.00e+00	0	43	0	839909376	63	4074
2026-01-27 02:34:55.41	291.68	36.28	-45.3	-46.6	20.6	0.00e+00	0	43	0	842006528	62	4143
2026-01-27 02:34:56.42	291.31	36.17	-45.1	-46.4	20.8	0.00e+00	0	43	0	844103680	62	4025
2026-01-27 02:34:57.43	290.95	36.05	-45.2	-46.5	20.8	0.00e+00	0	43	0	846200832	62	4052
2026-01-27 02:34:58.44	290.58	35.94	-45.8	-47.2	20.1	0.00e+00	0	43	0	848297984	62	4410
2026-01-27 02:34:59.44	290.23	35.82	-46.5	-48.1	19.4	0.00e+00	0	43	0	849346560	63	4627
2026-01-27 02:35:00.45	289.87	35.70	-46.4	-47.9	19.4	0.00e+00	0	43	0	851443712	63	4531
2026-01-27 02:35:01.46	289.52	35.58	-46.2	-47.7	19.7	0.00e+00	0	43	0	853540864	63	4411
2026-01-27 02:35:02.47	289.17	35.46	-46.2	-47.8	19.6	0.00e+00	0	43	0	855638016	63	4455
2026-01-27 02:35:03.48	288.82	35.34	-46.2	-47.7	19.7	0.00e+00	0	43	0	856686592	63	4426
2026-01-27 02:35:04.49	288.48	35.22	-45.6	-47.0	20.3	0.00e+00	0	43	0	858783744	63	4061
2026-01-27 02:35:05.50	288.13	35.10	-44.7	-45.9	21.3	0.00e+00	0	43	0	860880896	61	4034
2026-01-27 02:35:06.51	287.79	34.98	-44.7	-45.9	21.3	0.00e+00	0	43	0	862978048	61	4017
2026-01-27 02:35:07.51	287.46	34.86	-45.4	-46.6	20.7	0.00e+00	0	43	0	865075200	61	4391
2026-01-27 02:35:08.52	287.12	34.74	-46.5	-48.1	19.4	0.00e+00	0	43	0	866123776	63	4604
2026-01-27 02:35:09.53	286.79	34.61	-46.7	-48.4	19.0	0.00e+00	0	43	0	868220928	64	4503
2026-01-27 02:35:10.53	286.46	34.49	-46.6	-48.2	19.2	0.00e+00	0	43	0	870318080	64	4436
2026-01-27 02:35:11.54	286.13	34.36	-46.4	-48.0	19.4	0.00e+00	0	43	0	872415232	64	4302
2026-01-27 02:35:12.55	285.81	34.24	-47.0	-48.7	18.7	0.00e+00	0	43	0	874512384	64	4681
2026-01-27 02:35:13.56	285.49	34.11	-46.6	-48.2	19.2	0.00e+00	0	43	0	876609536	64	4412
2026-01-27 02:35:14.57	285.17	33.98	-46.8	-48.5	19.0	0.00e+00	0	43	0	877658112	64	4553
2026-01-27 02:35:15.57	284.85	33.86	-46.7	-48.3	19.1	0.00e+00	0	43	0	879755264	64	4460
2026-01-27 02:35:16.58	284.54	33.73	-47.0	-48.8	18.6	0.00e+00	0	43	0	881852416	64	4725
2026-01-27 02:35:17.59	284.22	33.60	-47.1	-48.8	18.5	0.00e+00	0	43	0	883949568	65	4485
2026-01-27 02:35:18.60	283.91	33.47	-47.2	-48.9	18.4	0.00e+00	0	43	0	884998144	65	4541
2026-01-27 02:35:19.60	283.61	33.34	-46.6	-48.1	19.1	0.00e+00	0	43	0	887095296	65	4131
2026-01-27 02:35:20.61	283.30	33.22	-46.9	-48.5	18.9	0.00e+00	0	43	0	889192448	64	4585
2026-01-27 02:35:21.62	283.00	33.09	-46.9	-48.6	18.8	0.00e+00	0	43	0	891289600	64	4600
2026-01-27 02:35:22.63	282.70	32.96	-47.6	-49.4	18.0	0.00e+00	0	43	0	893386752	65	4799
2026-01-27 02:35:23.63	282.40	32.83	-47.3	-49.1	18.3	0.00e+00	0	43	0	895483904	66	4359
2026-01-27 02:35:24.64	282.11	32.70	-47.2	-49.0	18.5	0.00e+00	0	43	0	896532480	66	4303
2026-01-27 02:35:25.65	281.82	32.56	-46.8	-48.4	18.9	0.00e+00	0	43	0	898629632	65	4278
2026-01-27 02:35:26.66	281.52	32.43	-47.3	-49.1	18.3	0.00e+00	0	43	0	900726784	65	4606
2026-01-27 02:35:27.66	281.24	32.30	-48.0	-50.0	17.4	0.00e+00	0	43	0	902823936	66	4851
2026-01-27 02:35:28.67	280.95	32.17	-48.2	-50.3	17.1	0.00e+00	0	43	0	904921088	67	4706
2026-01-27 02:35:29.68	280.67	32.04	-47.8	-49.7	17.7	0.00e+00	0	43	0	905969664	67	4412
2026-01-27 02:35:30.69	280.39	31.91	-47.5	-49.4	18.1	0.00e+00	0	43	0	908066816	67	4247
2026-01-27 02:35:31.69	280.11	31.77	-47.1	-48.7	18.7	0.00e+00	0	43	0	910163968	66	4179
2026-01-27 02:35:32.70	279.83	31.64	-46.7	-48.2	19.1	0.00e+00	0	43	0	912261120	65	4187
2026-01-27 02:35:33.71	279.56	31.51	-46.4	-47.9	19.4	0.00e+00	0	43	0	913309696	64	4243
2026-01-27 02:35:34.72	279.29	31.38	-46.1	-47.5	19.8	0.00e+00	0	43	0	915406848	64	4068
2026-01-27 02:35:35.73	279.02	31.24	-46.0	-47.3	20.0	0.00e+00	0	43	0	917504000	63	4229
2026-01-27 02:35:36.73	278.75	31.11	-45.9	-47.2	20.2	0.00e+00	0	43	0	919601152	63	4169
2026-01-27 02:35:37.74	278.49	30.98	-45.8	-47.2	20.2	0.00e+00	0	43	0	921698304	63	4152
2026-01-27 02:35:38.75	278.22	30.84	-45.9	-47.3	20.1	0.00e+00	0	43	0	923795456	63	4226
2026-01-27 02:35:39.75	277.96	30.71	-46.4	-47.9	19.6	0.00e+00	0	43	0	924844032	63	4500
2026-01-27 02:35:40.76	277.70	30.58	-46.8	-48.4	19.0	0.00e+00	0	43	0	926941184	64	4502
2026-01-27 02:35:41.76	277.45	30.45	-47.3	-49.0	18.3	0.00e+00	0	43	0	929038336	65	4575
2026-01-27 02:35:42.77	277.19	30.31	-47.8	-49.7	17.7	0.00e+00	0	43	0	931135488	66	4683
2026-01-27 02:35:43.78	276.94	30.18	-48.4	-50.7	16.7	0.00e+00	0	43	0	933232640	67	4954
2026-01-27 02:35:44.79	276.69	30.05	-49.0	-51.5	16.1	0.00e+00	0	43	0	934281216	68	5112
2026-01-27 02:35:45.79	276.44	29.91	-48.9	-51.3	16.2	0.00e+00	0	43	0	936378368	69	4758
2026-01-27 02:35:46.80	276.20	29.78	-48.4	-50.6	16.8	0.00e+00	0	43	0	938475520	68	4645
2026-01-27 02:35:47.81	275.95	29.65	-48.0	-50.1	17.4	0.00e+00	0	43	0	940572672	68	4361
2026-01-27 02:35:48.82	275.71	29.51	-47.8	-49.8	17.6	0.00e+00	0	43	0	941621248	67	4456
2026-01-27 02:35:49.83	275.47	29.38	-47.8	-49.9	17.5	0.00e+00	0	43	0	943718400	66	4761
2026-01-27 02:35:50.83	275.23	29.25	-47.4	-49.3	18.0	0.00e+00	0	43	0	945815552	66	4469
2026-01-27 02:35:51.84	275.00	29.11	-47.5	-49.5	17.9	0.00e+00	0	43	0	947912704	66	4565
2026-01-27 02:35:52.85	274.76	28.98	-47.0	-48.8	18.5	0.00e+00	0	43	0	950009856	66	4215
2026-01-27 02:35:53.85	274.53	28.85	-47.0	-48.7	18.6	0.00e+00	0	43	0	952107008	65	4419
2026-01-27 02:35:54.86	274.30	28.72	-46.8	-48.4	18.9	0.00e+00	0	43	0	953155584	65	4278
2026-01-27 02:35:55.86	274.08	28.58	-46.8	-48.5	18.7	0.00e+00	0	43	0	955252736	65	4328
2026-01-27 02:35:56.87	273.85	28.45	-46.6	-48.2	19.1	0.00e+00	0	43	0	957349888	65	4161
2026-01-27 02:35:57.88	273.62	28.32	-46.3	-47.8	19.4	0.00e+00	0	43	0	959447040	64	4202
2026-01-27 02:35:58.88	273.40	28.19	-46.1	-47.5	19.7	0.00e+00	0	43	0	961544192	63	4324
2026-01-27 02:35:59.89	273.18	28.05	-45.8	-47.2	20.1	0.00e+00	0	43	0	962592768	63	4184
2026-01-27 02:36:00.90	272.96	27.92	-45.6	-46.9	20.3	0.00e+00	0	43	0	964689920	63	4011
2026-01-27 02:36:01.91	272.74	27.79	-45.5	-46.9	20.4	0.00e+00	0	43	0	966787072	62	4252
2026-01-27 02:36:02.91	272.53	27.66	-45.9	-47.4	19.9	0.00e+00	0	43	0	968884224	62	4496
2026-01-27 02:36:03.92	272.32	27.53	-46.0	-47.5	19.7	0.00e+00	0	43	0	970981376	63	4301
2026-01-27 02:36:04.93	272.10	27.40	-46.7	-48.2	19.1	0.00e+00	0	43	0	972029952	63	4694
2026-01-27 02:36:05.94	271.89	27.26	-46.7	-48.3	19.0	0.00e+00	0	43	0	974127104	64	4487
2026-01-27 02:36:06.95	271.68	27.13	-46.7	-48.3	19.0	0.00e+00	0	43	0	976224256	64	4445
2026-01-27 02:36:07.96	271.48	27.00	-46.4	-47.9	19.3	0.00e+00	0	43	0	978321408	64	4261
2026-01-27 02:36:08.97	271.27	26.87	-46.5	-48.1	19.1	0.00e+00	0	43	0	980418560	64	4353
2026-01-27 02:36:09.98	271.07	26.74	-46.3	-47.8	19.4	0.00e+00	0	43	0	981467136	64	4210
2026-01-27 02:36:10.99	270.87	26.61	-46.3	-47.8	19.4	0.00e+00	0	43	0	983564288	64	4218
2026-01-27 02:36:12.00	270.67	26.48	-45.9	-47.3	19.9	0.00e+00	0	43	0	985661440	63	4213
2026-01-27 02:36:13.00	270.47	26.35	-45.6	-47.0	20.2	0.00e+00	0	43	0	987758592	63	4070
2026-01-27 02:36:14.01	270.27	26.22	-45.9	-47.4	19.9	0.00e+00	0	43	0	989855744	63	4245
2026-01-27 02:36:15.02	270.08	26.09	-45.7	-47.1	20.2	0.00e+00	0	43	0	990904320	63	4111
2026-01-27 02:36:16.02	269.89	25.97	-45.9	-47.3	19.9	0.00e+00	0	43	0	993001472	63	4237
2026-01-27 02:36:17.02	269.70	25.84	-45.9	-47.3	19.9	0.00e+00	0	43	0	995098624	63	4242
2026-01-27 02:36:18.03	269.50	25.71	-46.1	-47.6	19.7	0.00e+00	0	43	0	997195776	63	4362
2026-01-27 02:36:19.04	269.32	25.58	-45.8	-47.2	20.0	0.00e+00	0	43	0	999292928	63	4169
2026-01-27 02:36:20.05	269.13	25.45	-46.3	-47.8	19.4	0.00e+00	0	43	0	1000341504	63	4475
2026-01-27 02:36:21.06	268.94	25.32	-46.4	-47.9	19.3	0.00e+00	0	43	0	1002438656	63	4541
2026-01-27 02:36:22.07	268.76	25.20	-46.7	-48.4	18.9	0.00e+00	0	43	0	1004535808	63	4765
2026-01-27 02:36:23.08	268.57	25.07	-46.7	-48.4	18.8	0.00e+00	0	43	0	1006632960	64	4509
2026-01-27 02:36:24.09	268.39	24.94	-46.9	-48.7	18.4	0.00e+00	0	43	0	1008730112	65	4431
2026-01-27 02:36:25.09	268.22	24.82	-47.2	-49.0	18.1	0.00e+00	0	43	0	1009778688	65	4589
2026-01-27 02:36:26.10	268.04	24.69	-47.3	-49.2	18.1	0.00e+00	0	43	0	1011875840	65	4675
2026-01-27 02:36:27.11	267.86	24.57	-47.2	-49.1	18.1	0.00e+00	0	43	0	1013972992	65	4634
2026-01-27 02:36:28.11	267.69	24.44	-47.6	-49.5	17.7	0.00e+00	0	43	0	1016070144	65	4865
2026-01-27 02:36:29.12	267.51	24.32	-47.6	-49.5	17.6	0.00e+00	0	43	0	1018167296	65	4869
2026-01-27 02:36:30.12	267.34	24.19	-47.5	-49.4	17.8	0.00e+00	0	43	0	1019215872	65	4798
2026-01-27 02:36:31.13	267.17	24.07	-47.6	-49.6	17.6	0.00e+00	0	43	0	1021313024	66	4639
2026-01-27 02:36:32.14	267.00	23.94	-47.4	-49.4	17.8	0.00e+00	0	43	0	1023410176	66	4494
2026-01-27 02:36:33.15	266.83	23.82	-47.6	-49.5	17.7	0.00e+00	0	43	0	1025507328	66	4594
2026-01-27 02:36:34.16	266.66	23.69	-47.6	-49.5	17.7	0.00e+00	0	43	0	1027604480	66	4583
2026-01-27 02:36:35.16	266.50	23.57	-47.5	-49.4	17.7	0.00e+00	0	43	0	1028653056	66	4535
2026-01-27 02:36:36.17	266.33	23.45	-47.0	-48.7	18.4	0.00e+00	0	43	0	1030750208	65	4435
2026-01-27 02:36:37.18	266.17	23.33	-46.7	-48.4	18.8	0.00e+00	0	43	0	1032847360	65	4266
2026-01-27 02:36:38.19	266.01	23.20	-46.2	-47.8	19.3	0.00e+00	0	43	0	1034944512	64	4210
2026-01-27 02:36:39.19	265.85	23.08	-46.1	-47.6	19.4	0.00e+00	0	43	0	1037041664	64	4145
2026-01-27 02:36:40.20	265.69	22.96	-46.1	-47.5	19.6	0.00e+00	0	43	0	1038090240	63	4326
2026-01-27 02:36:41.21	265.53	22.84	-46.1	-47.6	19.6	0.00e+00	0	43	0	1040187392	63	4350
2026-01-27 02:36:42.22	265.37	22.72	-46.0	-47.4	19.7	0.00e+00	0	43	0	1042284544	63	4284
2026-01-27 02:36:43.23	265.22	22.60	-46.0	-47.5	19.7	0.00e+00	0	43	0	1044381696	63	4294
2026-01-27 02:36:44.23	265.06	22.48	-46.4	-47.9	19.3	0.00e+00	0	43	0	1046478848	63	4529
2026-01-27 02:36:45.24	264.91	22.36	-46.4	-47.9	19.3	0.00e+00	0	43	0	1048576000	63	4508
2026-01-27 02:36:46.25	264.76	22.24	-46.4	-47.9	19.3	0.00e+00	0	43	0	1049624576	63	4512
2026-01-27 02:36:47.26	264.61	22.12	-46.3	-47.7	19.4	0.00e+00	0	43	0	1051721728	63	4439
2026-01-27 02:36:48.27	264.46	22.00	-46.1	-47.6	19.5	0.00e+00	0	43	0	1053818880	63	4352
2026-01-27 02:36:49.27	264.31	21.88	-46.1	-47.6	19.5	0.00e+00	0	43	0	1055916032	63	4379
2026-01-27 02:36:50.28	264.16	21.76	-45.7	-47.1	20.0	0.00e+00	0	43	0	1056964608	63	4115
2026-01-27 02:36:51.28	264.02	21.65	-45.8	-47.2	19.9	0.00e+00	0	43	0	1059061760	63	4192
2026-01-27 02:36:52.29	263.87	21.53	-46.0	-47.5	19.7	0.00e+00	0	43	0	1061158912	63	4306
2026-01-27 02:36:53.29	263.73	21.41	-46.2	-47.7	19.4	0.00e+00	0	43	0	1063256064	63	4422
2026-01-27 02:36:54.30	263.59	21.29	-46.6	-48.2	19.0	0.00e+00	0	43	0	1065353216	63	4682
2026-01-27 02:36:55.30	263.45	21.18	-47.2	-49.0	18.1	0.00e+00	0	43	0	1066401792	64	4840
2026-01-27 02:36:56.31	263.30	21.06	-47.6	-49.6	17.6	0.00e+00	0	43	0	1068498944	65	4926
2026-01-27 02:36:57.32	263.16	20.95	-48.1	-50.4	16.8	0.00e+00	0	43	0	1070596096	66	5046
2026-01-27 02:36:58.32	263.03	20.83	-48.4	-50.7	16.5	0.00e+00	0	43	0	1072693248	67	4958
2026-01-27 02:36:59.33	262.89	20.72	-48.3	-50.6	16.6	0.00e+00	0	43	0	1074790400	67	4871
2026-01-27 02:37:00.34	262.75	20.60	-48.3	-50.5	16.7	0.00e+00	0	43	0	1076887552	67	4848
2026-01-27 02:37:01.35	262.62	20.49	-48.0	-50.1	17.1	0.00e+00	0	43	0	1077936128	67	4599
2026-01-27 02:37:02.36	262.48	20.37	-47.9	-50.0	17.2	0.00e+00	0	43	0	1080033280	67	4555
2026-01-27 02:37:03.37	262.35	20.26	-47.7	-49.7	17.4	0.00e+00	0	43	0	1082130432	67	4425
2026-01-27 02:37:04.37	262.22	20.15	-47.7	-49.7	17.5	0.00e+00	0	43	0	1084227584	66	4680
2026-01-27 02:37:05.38	262.09	20.03	-47.4	-49.2	18.0	0.00e+00	0	43	0	1085276160	66	4411
2026-01-27 02:37:06.39	261.95	19.92	-47.4	-49.2	18.0	0.00e+00	0	43	0	1087373312	66	4408
2026-01-27 02:37:07.39	261.83	19.81	-47.2	-48.9	18.3	0.00e+00	0	43	0	1089470464	66	4247
2026-01-27 02:37:08.40	261.70	19.70	-47.1	-48.7	18.4	0.00e+00	0	43	0	1091567616	65	4439
2026-01-27 02:37:09.41	261.57	19.58	-46.9	-48.6	18.5	0.00e+00	0	43	0	1093664768	65	4363
2026-01-27 02:37:10.41	261.44	19.47	-46.8	-48.4	18.7	0.00e+00	0	43	0	1094713344	65	4287
2026-01-27 02:37:11.41	261.32	19.36	-47.2	-48.9	18.2	0.00e+00	0	43	0	1096810496	65	4528
2026-01-27 02:37:12.42	261.20	19.25	-47.0	-48.6	18.5	0.00e+00	0	43	0	1098907648	65	4373
2026-01-27 02:37:13.43	261.07	19.14	-47.3	-49.1	18.0	0.00e+00	0	43	0	1101004800	65	4608
2026-01-27 02:37:14.44	260.95	19.03	-47.3	-49.0	18.1	0.00e+00	0	43	0	1103101952	65	4584
2026-01-27 02:37:15.45	260.83	18.92	-47.1	-48.9	18.2	0.00e+00	0	43	0	1105199104	65	4501
2026-01-27 02:37:16.45	260.71	18.81	-46.9	-48.6	18.4	0.00e+00	0	43	0	1106247680	65	4361
2026-01-27 02:37:17.46	260.59	18.70	-46.9	-48.6	18.5	0.00e+00	0	43	0	1108344832	65	4350
2026-01-27 02:37:18.47	260.47	18.60	-46.5	-48.0	19.0	0.00e+00	0	43	0	1110441984	64	4336
2026-01-27 02:37:19.48	260.35	18.49	-46.1	-47.6	19.4	0.00e+00	0	43	0	1112539136	64	4116
2026-01-27 02:37:20.48	260.23	18.38	-46.0	-47.5	19.5	0.00e+00	0	43	0	1113587712	64	4054
2026-01-27 02:37:21.49	260.11	18.27	-46.0	-47.4	19.7	0.00e+00	0	43	0	1115684864	63	4244
2026-01-27 02:37:22.50	260.00	18.17	-45.9	-47.3	19.8	0.00e+00	0	43	0	1117782016	63	4197
2026-01-27 02:37:23.51	259.88	18.06	-45.8	-47.2	19.9	0.00e+00	0	43	0	1119879168	63	4154
2026-01-27 02:37:24.52	259.77	17.95	-46.1	-47.5	19.6	0.00e+00	0	43	0	1121976320	63	4302
2026-01-27 02:37:25.53	259.65	17.85	-46.3	-47.7	19.4	0.00e+00	0	43	0	1124073472	63	4427
2026-01-27 02:37:26.53	259.54	17.74	-46.5	-48.0	19.1	0.00e+00	0	43	0	1125122048	63	4592
2026-01-27 02:37:27.54	259.43	17.63	-46.8	-48.4	18.6	0.00e+00	0	43	0	1127219200	64	4526
2026-01-27 02:37:28.54	259.32	17.53	-46.8	-48.4	18.6	0.00e+00	0	43	0	1129316352	64	4538
2026-01-27 02:37:29.55	259.21	17.43	-47.1	-48.8	18.2	0.00e+00	0	43	0	1131413504	64	4720
2026-01-27 02:37:30.56	259.10	17.32	-47.1	-48.8	18.1	0.00e+00	0	43	0	1133510656	64	4731
2026-01-27 02:37:31.57	258.99	17.22	-46.9	-48.5	18.5	0.00e+00	0	43	0	1134559232	64	4590
2026-01-27 02:37:32.58	258.88	17.11	-46.9	-48.5	18.5	0.00e+00	0	43	0	1136656384	64	4571
2026-01-27 02:37:33.58	258.78	17.01	-46.7	-48.3	18.7	0.00e+00	0	43	0	1138753536	64	4466
2026-01-27 02:37:34.59	258.67	16.91	-46.7	-48.3	18.7	0.00e+00	0	43	0	1140850688	64	4451
2026-01-27 02:37:35.60	258.56	16.80	-46.5	-48.1	18.9	0.00e+00	0	43	0	1141899264	64	4345
2026-01-27 02:37:36.61	258.46	16.70	-46.5	-48.0	18.9	0.00e+00	0	43	0	1143996416	64	4318
2026-01-27 02:37:37.62	258.35	16.60	-46.5	-48.0	19.0	0.00e+00	0	43	0	1146093568	64	4309
2026-01-27 02:37:38.62	258.25	16.50	-46.5	-48.0	18.9	0.00e+00	0	43	0	1148190720	64	4335
2026-01-27 02:37:39.63	258.15	16.40	-46.6	-48.2	18.8	0.00e+00	0	43	0	1150287872	64	4399
2026-01-27 02:37:40.64	258.05	16.29	-46.7	-48.3	18.7	0.00e+00	0	43	0	1152385024	64	4463
2026-01-27 02:37:41.65	257.95	16.19	-46.7	-48.3	18.7	0.00e+00	0	43	0	1153433600	64	4445
2026-01-27 02:37:42.66	257.84	16.09	-46.7	-48.3	18.7	0.00e+00	0	43	0	1155530752	64	4446
2026-01-27 02:37:43.66	257.75	15.99	-46.5	-48.0	18.9	0.00e+00	0	43	0	1157627904	64	4336
2026-01-27 02:37:44.67	257.65	15.89	-46.4	-47.9	19.0	0.00e+00	0	43	0	1159725056	64	4289
2026-01-27 02:37:45.68	257.55	15.79	-46.5	-48.0	18.9	0.00e+00	0	43	0	1161822208	64	4309
2026-01-27 02:37:46.68	257.45	15.70	-46.6	-48.1	18.8	0.00e+00	0	43	0	1162870784	64	4371
2026-01-27 02:37:47.69	257.35	15.60	-46.5	-48.0	18.9	0.00e+00	0	43	0	1164967936	64	4326
2026-01-27 02:37:48.70	257.26	15.50	-46.6	-48.1	18.8	0.00e+00	0	43	0	1167065088	64	4386
2026-01-27 02:37:49.70	257.16	15.40	-46.9	-48.5	18.4	0.00e+00	0	43	0	1169162240	64	4586
2026-01-27 02:37:50.71	257.07	15.30	-46.9	-48.5	18.4	0.00e+00	0	43	0	1170210816	64	4597
2026-01-27 02:37:51.72	256.97	15.20	-47.1	-48.9	18.0	0.00e+00	0	43	0	1172307968	64	4786
2026-01-27 02:37:52.73	256.88	15.11	-47.4	-49.3	17.7	0.00e+00	0	43	0	1174405120	65	4711
2026-01-27 02:37:53.74	256.78	15.01	-47.3	-49.1	17.8	0.00e+00	0	43	0	1176502272	65	4621
2026-01-27 02:37:54.75	256.69	14.91	-47.5	-49.3	17.7	0.00e+00	0	43	0	1178599424	65	4750
2026-01-27 02:37:55.76	256.60	14.82	-47.5	-49.4	17.6	0.00e+00	0	43	0	1180696576	65	4790
2026-01-27 02:37:56.76	256.51	14.72	-47.4	-49.3	17.6	0.00e+00	0	43	0	1181745152	65	4746
2026-01-27 02:37:57.77	256.42	14.62	-47.3	-49.1	17.8	0.00e+00	0	43	0	1183842304	65	4630
2026-01-27 02:37:58.77	256.33	14.53	-47.0	-48.7	18.2	0.00e+00	0	43	0	1185939456	65	4412
2026-01-27 02:37:59.78	256.24	14.43	-46.9	-48.5	18.4	0.00e+00	0	43	0	1188036608	65	4330
2026-01-27 02:38:00.79	256.15	14.34	-46.7	-48.3	18.6	0.00e+00	0	43	0	1190133760	65	4237
2026-01-27 02:38:01.80	256.06	14.24	-46.6	-48.2	18.7	0.00e+00	0	43	0	1191182336	65	4167
2026-01-27 02:38:02.81	255.97	14.15	-46.2	-47.7	19.2	0.00e+00	0	43	0	1193279488	64	4147
2026-01-27 02:38:03.80	255.88	14.06	-46.0	-47.5	19.4	0.00e+00	0	43	0	1195376640	63	4307
2026-01-27 02:38:04.81	255.80	13.96	-46.0	-47.5	19.4	0.00e+00	0	43	0	1197473792	63	4308
2026-01-27 02:38:05.82	255.71	13.87	-45.9	-47.3	19.6	0.00e+00	0	43	0	1198522368	63	4209
2026-01-27 02:38:06.82	255.63	13.78	-46.0	-47.4	19.5	0.00e+00	0	43	0	1200619520	63	4280
2026-01-27 02:38:07.83	255.54	13.68	-45.9	-47.4	19.5	0.00e+00	0	43	0	1202716672	63	4251
2026-01-27 02:38:08.84	255.46	13.59	-46.0	-47.4	19.5	0.00e+00	0	43	0	1204813824	63	4262
2026-01-27 02:38:09.85	255.37	13.50	-46.1	-47.6	19.3	0.00e+00	0	43	0	1206910976	63	4360
2026-01-27 02:38:10.86	255.29	13.41	-46.2	-47.6	19.3	0.00e+00	0	43	0	1209008128	63	4373
2026-01-27 02:38:11.86	255.21	13.31	-46.3	-47.8	19.1	0.00e+00	0	43	0	1210056704	63	4442
2026-01-27 02:38:12.87	255.12	13.22	-46.3	-47.8	19.1	0.00e+00	0	43	0	1212153856	63	4480
2026-01-27 02:38:13.87	255.04	13.13	-46.5	-48.1	18.8	0.00e+00	0	43	0	1214251008	63	4630
2026-01-27 02:38:14.89	254.96	13.04	-46.6	-48.1	18.8	0.00e+00	0	43	0	1216348160	63	4639
2026-01-27 02:38:15.89	254.88	12.95	-46.5	-48.1	18.7	0.00e+00	0	43	0	1218445312	63	4625
2026-01-27 02:38:16.90	254.80	12.86	-46.6	-48.1	18.8	0.00e+00	0	43	0	1219493888	63	4633
2026-01-27 02:38:17.91	254.72	12.77	-46.6	-48.2	18.7	0.00e+00	0	43	0	1221591040	63	4678
2026-01-27 02:38:18.92	254.64	12.68	-46.7	-48.3	18.6	0.00e+00	0	43	0	1223688192	63	4706
2026-01-27 02:38:19.93	254.56	12.59	-46.6	-48.1	18.6	0.00e+00	0	43	0	1225785344	64	4383
2026-01-27 02:38:20.94	254.48	12.50	-46.5	-48.1	18.7	0.00e+00	0	43	0	1227882496	64	4345
2026-01-27 02:38:21.94	254.40	12.41	-46.4	-48.0	18.8	0.00e+00	0	43	0	1228931072	64	4312
2026-01-27 02:38:22.95	254.33	12.32	-46.5	-48.1	18.6	0.00e+00	0	43	0	1231028224	64	4381
2026-01-27 02:38:23.96	254.25	12.24	-46.6	-48.2	18.6	0.00e+00	0	43	0	1233125376	64	4412
2026-01-27 02:38:24.97	254.17	12.15	-46.6	-48.2	18.5	0.00e+00	0	43	0	1235222528	64	4434
2026-01-27 02:38:25.97	254.10	12.06	-46.8	-48.5	18.3	0.00e+00	0	43	0	1237319680	64	4558
2026-01-27 02:38:26.98	254.02	11.97	-46.8	-48.5	18.3	0.00e+00	0	43	0	1238368256	64	4552
2026-01-27 02:38:27.98	253.95	11.89	-46.9	-48.6	18.2	0.00e+00	0	43	0	1240465408	64	4636
2026-01-27 02:38:28.99	253.87	11.80	-46.9	-48.7	18.1	0.00e+00	0	43	0	1242562560	64	4652
2026-01-27 02:38:30.00	253.80	11.71	-47.0	-48.7	18.1	0.00e+00	0	43	0	1244659712	64	4697
