passes_logs/2026/01/07/R4.6S_Anadyr/R4.6S_Anadyr__20260107_024909_FENGYUN_3D_rec.log

#Pass ID: 20260107_024909_FENGYUN 3D
#Satellite: FENGYUN 3D
#Configuration: FENGYUN 3D
#almurnet v.1.7.20251203
#Start time: 2026-01-07 02:49:11

#Version: 2.2.20231116
#Station: R4.6S_Anadyr
#Location: 177.4865 lon 64.73178 lat
#TLE: 1 43010U 17072A   26005.48915933 -.00000051  00000+0 -21983-5 0  9995
#TLE: 2 43010  98.9919 337.1582 0002001 124.6377 235.4988 14.19691925421909

#Time	Az	El	Level	Level2	SNR	BER	BlckErr	Temp	State	Recorded	gain1	gain2
2026-01-07 02:49:11.75	170.60	0.14	-48.8	-63.7	3.5	1.51e+00	0	31	0	0	60	55310
2026-01-07 02:49:12.75	170.62	0.20	-48.7	-60.9	3.6	8.45e-01	0	32	104	0	60	40061
2026-01-07 02:49:13.76	170.64	0.26	-48.8	-61.0	3.6	8.45e-01	0	32	104	0	60	40335
2026-01-07 02:49:14.77	170.66	0.32	-48.9	-61.0	3.6	8.45e-01	0	32	104	0	60	40382
2026-01-07 02:49:15.78	170.68	0.38	-48.9	-61.0	3.6	8.45e-01	0	33	104	0	60	40439
2026-01-07 02:49:16.79	170.71	0.44	-48.9	-61.0	3.6	8.44e-01	0	33	104	0	60	40492
2026-01-07 02:49:17.80	170.73	0.50	-49.0	-61.1	3.6	8.45e-01	0	33	104	0	60	40805
2026-01-07 02:49:18.80	170.75	0.56	-49.0	-61.1	3.6	8.46e-01	0	33	104	0	60	40854
2026-01-07 02:49:19.81	170.77	0.62	-49.0	-61.0	3.6	8.45e-01	0	33	104	0	60	40747
2026-01-07 02:49:20.82	170.79	0.68	-48.9	-61.1	3.6	8.45e-01	0	33	104	0	60	40974
2026-01-07 02:49:21.83	170.81	0.74	-48.9	-61.0	3.6	8.45e-01	0	33	104	0	60	40487
2026-01-07 02:49:22.84	170.84	0.81	-48.8	-60.9	3.6	8.46e-01	0	33	104	0	60	40318
2026-01-07 02:49:23.85	170.86	0.87	-48.8	-60.9	3.6	8.45e-01	0	33	104	0	60	40233
2026-01-07 02:49:24.86	170.88	0.93	-48.7	-60.8	3.6	8.44e-01	0	33	104	0	60	39727
2026-01-07 02:49:25.87	170.90	0.99	-48.6	-60.7	3.6	8.45e-01	0	33	104	0	60	39288
2026-01-07 02:49:26.88	170.93	1.05	-48.5	-60.5	3.6	8.45e-01	0	33	104	0	60	38383
2026-01-07 02:49:27.89	170.95	1.11	-48.3	-60.3	3.6	8.44e-01	0	33	104	0	60	37584
2026-01-07 02:49:28.90	170.97	1.18	-47.9	-60.0	3.6	8.46e-01	0	33	104	0	60	36138
2026-01-07 02:49:29.91	170.99	1.24	-47.5	-59.5	3.6	8.46e-01	0	33	104	0	60	33932
2026-01-07 02:49:30.92	171.02	1.30	-47.5	-59.5	3.6	8.44e-01	0	33	104	0	60	34198
2026-01-07 02:49:31.93	171.04	1.36	-47.5	-59.5	3.6	8.46e-01	0	33	104	0	60	34190
2026-01-07 02:49:32.94	171.06	1.43	-47.5	-59.6	3.6	8.46e-01	0	33	104	0	60	34359
2026-01-07 02:49:33.96	171.08	1.49	-47.5	-59.6	3.6	8.46e-01	0	33	104	0	60	34616
2026-01-07 02:49:34.97	171.11	1.55	-47.5	-59.5	3.6	8.46e-01	0	33	104	0	60	34308
2026-01-07 02:49:35.97	171.13	1.62	-47.5	-59.4	3.6	8.46e-01	0	33	104	0	60	33669
2026-01-07 02:49:36.99	171.15	1.68	-47.5	-59.2	3.6	8.45e-01	0	33	104	0	60	33129
2026-01-07 02:49:38.00	171.18	1.74	-47.5	-59.1	3.6	8.46e-01	0	33	104	0	60	32514
2026-01-07 02:49:39.00	171.20	1.81	-47.5	-59.2	3.6	8.45e-01	0	33	104	0	60	32783
2026-01-07 02:49:40.01	171.22	1.87	-47.5	-59.1	3.6	8.45e-01	0	33	104	0	60	32511
2026-01-07 02:49:41.02	171.25	1.93	-47.5	-59.1	3.6	8.44e-01	0	33	104	0	60	32745
2026-01-07 02:49:42.03	171.27	2.00	-47.5	-59.4	3.6	8.45e-01	0	33	104	0	60	33774
2026-01-07 02:49:43.04	171.30	2.06	-47.5	-59.5	3.6	8.45e-01	0	33	104	0	60	34266
2026-01-07 02:49:44.05	171.32	2.13	-47.5	-59.6	3.6	8.46e-01	0	33	104	0	60	34389
2026-01-07 02:49:45.06	171.34	2.19	-47.5	-59.6	3.6	8.46e-01	0	33	104	0	60	34383
2026-01-07 02:49:46.07	171.37	2.25	-47.5	-59.4	3.6	8.46e-01	0	33	104	0	60	33806
2026-01-07 02:49:47.08	171.39	2.32	-47.5	-59.3	3.6	8.46e-01	0	33	104	0	60	33253
2026-01-07 02:49:48.09	171.42	2.38	-47.5	-59.1	3.6	8.46e-01	0	33	104	0	60	32722
2026-01-07 02:49:49.10	171.44	2.45	-47.4	-58.8	3.6	8.45e-01	0	33	104	0	60	31490
2026-01-07 02:49:50.11	171.46	2.51	-47.4	-58.3	3.6	8.46e-01	0	33	104	0	60	29739
2026-01-07 02:49:51.12	171.49	2.58	-47.3	-57.9	3.6	8.45e-01	0	33	104	0	60	28231
2026-01-07 02:49:52.13	171.51	2.64	-47.3	-57.5	3.6	8.44e-01	0	33	104	0	60	27220
2026-01-07 02:49:53.14	171.54	2.71	-47.3	-57.3	3.6	8.44e-01	0	33	104	0	60	26579
2026-01-07 02:49:54.15	171.56	2.78	-47.4	-57.9	3.6	8.43e-01	0	33	104	0	60	28224
2026-01-07 02:49:55.16	171.59	2.84	-47.4	-58.9	3.6	8.46e-01	0	33	104	0	60	31866
2026-01-07 02:49:56.17	171.61	2.91	-47.5	-59.6	3.6	8.45e-01	0	33	104	0	60	34349
2026-01-07 02:49:57.18	171.64	2.97	-47.3	-57.4	3.6	8.45e-01	0	33	104	0	60	26774
2026-01-07 02:49:58.19	171.66	3.04	-46.6	-53.1	5.7	7.82e-01	0	33	104	0	60	16373
2026-01-07 02:49:59.20	171.69	3.11	-45.3	-48.8	9.3	3.05e-02	0	33	0	5242880	60	9980
2026-01-07 02:50:00.21	171.71	3.17	-43.7	-46.2	12.5	1.18e-03	0	33	0	10485760	60	7350
2026-01-07 02:50:01.22	171.74	3.24	-42.0	-43.7	15.0	2.20e-06	0	33	0	16777216	58	6188
2026-01-07 02:50:02.23	171.76	3.31	-40.4	-41.8	16.9	0.00e+00	0	33	0	22020096	54	6253
2026-01-07 02:50:03.24	171.79	3.37	-39.2	-40.4	18.3	0.00e+00	0	33	0	27262976	52	5968
2026-01-07 02:50:04.25	171.82	3.44	-38.2	-39.2	19.4	0.00e+00	0	33	0	33554432	50	5877
2026-01-07 02:50:05.26	171.84	3.51	-37.6	-38.6	20.0	0.00e+00	0	33	0	38797312	48	6134
2026-01-07 02:50:06.27	171.87	3.58	-37.3	-38.2	20.3	0.00e+00	0	33	0	45088768	48	5851
2026-01-07 02:50:07.28	171.89	3.64	-37.2	-38.2	20.3	0.00e+00	0	33	0	50331648	48	5838
2026-01-07 02:50:08.29	171.92	3.71	-37.6	-38.5	20.0	0.00e+00	0	33	0	56623104	48	6084
2026-01-07 02:50:09.30	171.95	3.78	-38.2	-39.3	19.2	0.00e+00	0	33	0	61865984	48	6652
2026-01-07 02:50:10.31	171.97	3.85	-40.5	-41.8	18.4	0.00e+00	0	33	0	67108864	56	5607
2026-01-07 02:50:11.32	172.00	3.92	-38.1	-39.0	20.0	0.00e+00	0	33	0	73400320	52	5125
2026-01-07 02:50:12.32	172.02	3.98	-46.3	-50.9	9.6	5.92e-01	0	33	0	77594624	60	12727
2026-01-07 02:50:13.34	172.05	4.05	-37.3	-38.1	20.3	0.00e+00	0	33	0	83886080	50	5186
2026-01-07 02:50:14.35	172.08	4.12	-46.5	-52.4	4.6	8.30e-01	0	33	104	85983232	60	15068
2026-01-07 02:50:15.36	172.11	4.19	-36.8	-37.6	21.0	0.00e+00	0	33	0	85983232	46	6169
2026-01-07 02:50:16.37	172.13	4.26	-36.9	-37.8	21.0	0.00e+00	0	33	0	92274688	46	6248
2026-01-07 02:50:17.38	172.16	4.33	-36.3	-37.1	21.4	0.00e+00	0	33	0	97517568	46	5809
2026-01-07 02:50:18.38	172.19	4.40	-36.3	-37.2	21.4	0.00e+00	0	33	0	103809024	46	5846
2026-01-07 02:50:19.40	172.21	4.47	-35.9	-36.7	22.0	0.00e+00	0	33	0	109051904	46	5563
2026-01-07 02:50:20.41	172.24	4.54	-35.5	-36.3	22.4	0.00e+00	0	33	0	114294784	44	5928
2026-01-07 02:50:21.42	172.27	4.61	-35.4	-36.2	22.4	0.00e+00	0	33	0	120586240	44	5842
2026-01-07 02:50:22.43	172.30	4.68	-35.1	-35.9	22.7	0.00e+00	0	33	0	125829120	44	5647
2026-01-07 02:50:23.44	172.32	4.75	-35.1	-35.8	22.8	0.00e+00	0	33	0	132120576	44	5622
2026-01-07 02:50:24.45	172.35	4.82	-35.1	-35.8	22.8	0.00e+00	0	33	0	137363456	44	5614
2026-01-07 02:50:25.46	172.38	4.89	-35.0	-35.8	22.9	0.00e+00	0	33	0	142606336	44	5595
2026-01-07 02:50:26.47	172.41	4.96	-35.0	-35.7	22.9	0.00e+00	0	33	0	148897792	44	5531
2026-01-07 02:50:27.47	172.44	5.03	-34.8	-35.6	23.0	0.00e+00	0	33	0	154140672	44	5460
2026-01-07 02:50:28.48	172.47	5.10	-34.8	-35.5	23.1	0.00e+00	0	33	0	160432128	44	5420
2026-01-07 02:50:29.49	172.49	5.18	-34.8	-35.5	23.2	0.00e+00	0	33	0	165675008	44	5398
2026-01-07 02:50:30.50	172.52	5.25	-34.9	-35.7	23.0	0.00e+00	0	33	0	170917888	42	6201
2026-01-07 02:50:31.51	172.55	5.32	-34.8	-35.6	23.1	0.00e+00	0	33	0	177209344	42	6125
2026-01-07 02:50:32.52	172.58	5.39	-35.1	-35.9	22.9	0.00e+00	0	33	0	182452224	42	6336
2026-01-07 02:50:33.53	172.61	5.46	-34.9	-35.7	23.0	0.00e+00	0	33	0	188743680	42	6177
2026-01-07 02:50:34.54	172.64	5.54	-34.7	-35.4	23.3	0.00e+00	0	33	0	193986560	42	6022
2026-01-07 02:50:35.55	172.67	5.61	-34.6	-35.3	23.4	0.00e+00	0	33	0	200278016	42	5950
2026-01-07 02:50:36.56	172.70	5.68	-34.6	-35.4	23.4	0.00e+00	0	33	0	205520896	42	5970
2026-01-07 02:50:37.57	172.73	5.75	-34.6	-35.3	23.5	0.00e+00	0	33	0	211812352	42	5949
2026-01-07 02:50:38.58	172.76	5.83	-34.4	-35.1	23.5	0.00e+00	0	33	0	217055232	42	5818
2026-01-07 02:50:39.59	172.79	5.90	-34.5	-35.2	23.5	0.00e+00	0	33	0	222298112	42	5871
2026-01-07 02:50:40.59	172.82	5.97	-34.4	-35.1	23.6	0.00e+00	0	33	0	228589568	42	5797
2026-01-07 02:50:41.60	172.85	6.05	-34.5	-35.2	23.5	0.00e+00	0	33	0	233832448	42	5858
2026-01-07 02:50:42.61	172.88	6.12	-34.4	-35.1	23.6	0.00e+00	0	33	0	240123904	42	5805
2026-01-07 02:50:43.62	172.91	6.20	-34.2	-34.9	23.8	0.00e+00	0	33	0	245366784	42	5659
2026-01-07 02:50:44.63	172.94	6.27	-34.3	-35.1	23.7	0.00e+00	0	33	0	250609664	42	5783
2026-01-07 02:50:45.64	172.97	6.35	-34.2	-34.9	23.8	0.00e+00	0	33	0	256901120	42	5670
2026-01-07 02:50:46.65	173.00	6.42	-34.3	-35.0	23.7	0.00e+00	0	33	0	262144000	42	5758
2026-01-07 02:50:47.66	173.03	6.50	-34.3	-35.0	23.7	0.00e+00	0	33	0	268435456	42	5760
2026-01-07 02:50:48.67	173.06	6.57	-34.5	-35.2	23.6	0.00e+00	0	33	0	273678336	42	5878
2026-01-07 02:50:49.68	173.09	6.65	-34.1	-34.8	24.0	0.00e+00	0	33	0	278921216	42	5577
2026-01-07 02:50:50.69	173.12	6.72	-34.1	-34.8	24.1	0.00e+00	0	33	0	285212672	42	5572
2026-01-07 02:50:51.70	173.16	6.80	-34.0	-34.7	24.0	0.00e+00	0	33	0	290455552	42	5545
2026-01-07 02:50:52.71	173.19	6.88	-34.0	-34.6	24.1	0.00e+00	0	33	0	296747008	42	5502
2026-01-07 02:50:53.72	173.22	6.95	-34.0	-34.7	24.2	0.00e+00	0	33	0	301989888	42	5513
2026-01-07 02:50:54.73	173.25	7.03	-33.9	-34.6	24.2	0.00e+00	0	33	0	308281344	42	5458
2026-01-07 02:50:55.74	173.28	7.11	-33.8	-34.5	24.3	0.00e+00	0	33	0	313524224	42	5422
2026-01-07 02:50:56.75	173.32	7.18	-34.0	-34.6	24.2	0.00e+00	0	33	0	318767104	42	5499
2026-01-07 02:50:57.76	173.35	7.26	-33.9	-34.6	24.2	0.00e+00	0	33	0	325058560	42	5470
2026-01-07 02:50:58.76	173.38	7.34	-33.9	-34.6	24.3	0.00e+00	0	33	0	330301440	42	5480
2026-01-07 02:50:59.78	173.41	7.42	-33.7	-34.4	24.4	0.00e+00	0	33	0	336592896	40	6011
2026-01-07 02:51:00.78	173.45	7.49	-33.8	-34.5	24.3	0.00e+00	0	33	0	341835776	40	6083
2026-01-07 02:51:01.79	173.48	7.57	-33.8	-34.5	24.2	0.00e+00	0	33	0	347078656	40	6084
2026-01-07 02:51:02.81	173.51	7.65	-33.9	-34.6	24.2	0.00e+00	0	33	0	353370112	40	6149
2026-01-07 02:51:03.81	173.55	7.73	-33.7	-34.4	24.4	0.00e+00	0	33	0	358612992	40	6010
2026-01-07 02:51:04.82	173.58	7.81	-33.6	-34.2	24.5	0.00e+00	0	33	0	364904448	40	5886
2026-01-07 02:51:05.83	173.61	7.89	-33.7	-34.3	24.5	0.00e+00	0	33	0	370147328	40	5960
2026-01-07 02:51:06.84	173.65	7.97	-33.5	-34.2	24.6	0.00e+00	0	33	0	375390208	40	5848
2026-01-07 02:51:07.85	173.68	8.05	-33.6	-34.2	24.5	0.00e+00	0	33	0	381681664	40	5883
2026-01-07 02:51:08.86	173.72	8.13	-33.5	-34.2	24.7	0.00e+00	0	33	0	386924544	40	5836
2026-01-07 02:51:09.87	173.75	8.21	-33.5	-34.2	24.6	0.00e+00	0	33	0	393216000	40	5851
2026-01-07 02:51:10.88	173.78	8.29	-33.4	-34.1	24.8	0.00e+00	0	33	0	398458880	40	5800
2026-01-07 02:51:11.89	173.82	8.37	-33.6	-34.3	24.5	0.00e+00	0	33	0	404750336	40	5921
2026-01-07 02:51:12.90	173.85	8.45	-33.4	-34.1	24.7	0.00e+00	0	33	0	409993216	40	5796
2026-01-07 02:51:13.91	173.89	8.53	-33.5	-34.2	24.6	0.00e+00	0	33	0	416284672	40	5854
2026-01-07 02:51:14.92	173.92	8.61	-33.5	-34.2	24.6	0.00e+00	0	34	0	421527552	40	5880
2026-01-07 02:51:15.93	173.96	8.69	-33.4	-34.1	24.7	0.00e+00	0	33	0	426770432	40	5789
2026-01-07 02:51:16.94	174.00	8.78	-33.4	-34.1	24.7	0.00e+00	0	33	0	433061888	40	5779
2026-01-07 02:51:17.94	174.03	8.86	-33.4	-34.0	24.8	0.00e+00	0	33	0	438304768	40	5749
2026-01-07 02:51:18.95	174.07	8.94	-33.5	-34.2	24.7	0.00e+00	0	34	0	443547648	40	5832
2026-01-07 02:51:19.96	174.10	9.02	-33.3	-34.1	24.9	0.00e+00	0	33	0	449839104	40	5769
2026-01-07 02:51:20.97	174.14	9.11	-33.4	-34.1	24.7	0.00e+00	0	34	0	455081984	40	5813
2026-01-07 02:51:21.98	174.18	9.19	-33.4	-34.0	24.9	0.00e+00	0	33	0	461373440	40	5756
2026-01-07 02:51:22.99	174.21	9.27	-33.4	-34.1	24.8	0.00e+00	0	34	0	466616320	40	5777
2026-01-07 02:51:24.00	174.25	9.36	-33.4	-34.1	24.8	0.00e+00	0	33	0	471859200	40	5789
2026-01-07 02:51:25.01	174.29	9.44	-33.4	-34.1	24.7	0.00e+00	0	33	0	478150656	40	5811
2026-01-07 02:51:26.02	174.32	9.52	-33.4	-34.1	24.8	0.00e+00	0	34	0	483393536	40	5787
2026-01-07 02:51:27.03	174.36	9.61	-33.4	-34.1	24.9	0.00e+00	0	33	0	489684992	40	5773
2026-01-07 02:51:28.04	174.40	9.69	-33.4	-34.1	24.8	0.00e+00	0	33	0	494927872	40	5765
2026-01-07 02:51:29.05	174.44	9.78	-33.4	-34.1	24.9	0.00e+00	0	33	0	501219328	40	5771
2026-01-07 02:51:30.06	174.48	9.87	-33.4	-34.1	24.8	0.00e+00	0	34	0	506462208	40	5807
2026-01-07 02:51:31.07	174.51	9.95	-33.4	-34.1	24.8	0.00e+00	0	33	0	512753664	40	5801
2026-01-07 02:51:32.08	174.55	10.04	-33.5	-34.2	24.7	0.00e+00	0	33	0	517996544	40	5880
2026-01-07 02:51:33.09	174.59	10.12	-33.6	-34.2	24.7	0.00e+00	0	34	0	523239424	40	5894
2026-01-07 02:51:34.10	174.63	10.21	-33.4	-34.1	24.8	0.00e+00	0	33	0	529530880	40	5792
2026-01-07 02:51:35.11	174.67	10.30	-33.5	-34.2	24.8	0.00e+00	0	33	0	534773760	40	5867
2026-01-07 02:51:36.12	174.71	10.39	-33.4	-34.1	24.8	0.00e+00	0	33	0	541065216	40	5778
2026-01-07 02:51:37.13	174.75	10.47	-33.4	-34.1	24.8	0.00e+00	0	33	0	546308096	40	5781
2026-01-07 02:51:38.13	174.79	10.56	-33.5	-34.1	24.8	0.00e+00	0	34	0	551550976	40	5824
2026-01-07 02:51:39.14	174.83	10.65	-33.4	-34.1	24.8	0.00e+00	0	33	0	557842432	40	5797
2026-01-07 02:51:40.15	174.87	10.74	-33.4	-34.0	25.0	0.00e+00	0	33	0	563085312	40	5757
2026-01-07 02:51:41.16	174.91	10.83	-33.3	-34.0	24.9	0.00e+00	0	33	0	569376768	40	5739
2026-01-07 02:51:42.17	174.95	10.91	-33.4	-34.1	24.9	0.00e+00	0	33	0	574619648	40	5785
2026-01-07 02:51:43.18	174.99	11.00	-33.3	-34.0	25.0	0.00e+00	0	33	0	579862528	40	5701
2026-01-07 02:51:44.19	175.03	11.09	-33.4	-34.0	25.0	0.00e+00	0	33	0	586153984	40	5748
2026-01-07 02:51:45.20	175.07	11.18	-33.3	-34.0	25.0	0.00e+00	0	34	0	591396864	40	5722
2026-01-07 02:51:46.21	175.11	11.27	-33.2	-33.9	25.0	0.00e+00	0	33	0	597688320	40	5670
2026-01-07 02:51:47.22	175.16	11.37	-33.2	-33.9	25.1	0.00e+00	0	34	0	602931200	40	5654
2026-01-07 02:51:48.23	175.20	11.46	-33.2	-33.9	25.2	0.00e+00	0	34	0	609222656	40	5646
2026-01-07 02:51:49.24	175.24	11.55	-33.2	-33.9	25.1	0.00e+00	0	34	0	614465536	40	5631
2026-01-07 02:51:50.25	175.28	11.64	-33.1	-33.8	25.1	0.00e+00	0	34	0	619708416	40	5589
2026-01-07 02:51:51.26	175.33	11.73	-33.3	-33.9	25.1	0.00e+00	0	34	0	625999872	40	5676
2026-01-07 02:51:52.27	175.37	11.82	-33.0	-33.7	25.3	0.00e+00	0	33	0	631242752	40	5516
2026-01-07 02:51:53.28	175.41	11.92	-33.0	-33.6	25.3	0.00e+00	0	33	0	637534208	40	5502
2026-01-07 02:51:54.29	175.46	12.01	-33.1	-33.8	25.2	0.00e+00	0	34	0	642777088	40	5616
2026-01-07 02:51:55.30	175.50	12.10	-32.9	-33.6	25.4	0.00e+00	0	33	0	648019968	40	5451
2026-01-07 02:51:56.31	175.54	12.20	-33.0	-33.7	25.3	0.00e+00	0	34	0	654311424	40	5520
2026-01-07 02:51:57.32	175.59	12.29	-32.9	-33.6	25.4	0.00e+00	0	34	0	659554304	40	5472
2026-01-07 02:51:58.33	175.63	12.39	-33.1	-33.8	25.2	0.00e+00	0	33	0	665845760	40	5573
2026-01-07 02:51:59.34	175.68	12.48	-33.2	-33.9	25.2	0.00e+00	0	33	0	671088640	40	5642
2026-01-07 02:52:00.35	175.72	12.58	-32.9	-33.6	25.5	0.00e+00	0	34	0	676331520	40	5440
2026-01-07 02:52:01.36	175.77	12.67	-32.9	-33.6	25.5	0.00e+00	0	34	0	682622976	40	5469
2026-01-07 02:52:02.37	175.81	12.77	-33.0	-33.7	25.3	0.00e+00	0	33	0	687865856	40	5543
2026-01-07 02:52:03.38	175.86	12.86	-32.8	-33.5	25.5	0.00e+00	0	34	0	694157312	40	5396
2026-01-07 02:52:04.39	175.91	12.96	-32.9	-33.5	25.5	0.00e+00	0	34	0	699400192	40	5429
2026-01-07 02:52:05.40	175.95	13.06	-32.9	-33.6	25.4	0.00e+00	0	34	0	705691648	40	5469
2026-01-07 02:52:06.41	176.00	13.15	-32.9	-33.6	25.4	0.00e+00	0	34	0	710934528	40	5440
2026-01-07 02:52:07.42	176.05	13.25	-32.8	-33.5	25.6	0.00e+00	0	34	0	717225984	40	5394
2026-01-07 02:52:08.43	176.09	13.35	-32.8	-33.5	25.6	0.00e+00	0	34	0	722468864	38	6043
2026-01-07 02:52:09.44	176.14	13.45	-32.8	-33.5	25.6	0.00e+00	0	34	0	727711744	38	6042
2026-01-07 02:52:10.45	176.19	13.55	-32.7	-33.4	25.6	0.00e+00	0	34	0	734003200	38	6010
2026-01-07 02:52:11.46	176.24	13.65	-32.7	-33.4	25.7	0.00e+00	0	34	0	739246080	38	5979
2026-01-07 02:52:12.47	176.29	13.75	-32.7	-33.3	25.7	0.00e+00	0	34	0	745537536	38	5949
2026-01-07 02:52:13.48	176.33	13.85	-32.6	-33.3	25.7	0.00e+00	0	34	0	750780416	38	5920
2026-01-07 02:52:14.49	176.38	13.95	-32.5	-33.2	25.8	0.00e+00	0	34	0	756023296	38	5857
2026-01-07 02:52:15.50	176.43	14.05	-32.4	-33.1	25.9	0.00e+00	0	34	0	762314752	38	5795
2026-01-07 02:52:16.51	176.48	14.15	-32.5	-33.1	25.9	0.00e+00	0	34	0	767557632	38	5826
2026-01-07 02:52:17.52	176.53	14.25	-32.5	-33.1	25.9	0.00e+00	0	34	0	773849088	38	5823
2026-01-07 02:52:18.53	176.58	14.35	-32.5	-33.2	25.8	0.00e+00	0	34	0	779091968	38	5868
2026-01-07 02:52:19.54	176.63	14.46	-32.5	-33.1	25.8	0.00e+00	0	34	0	784334848	38	5803
2026-01-07 02:52:20.55	176.68	14.56	-32.4	-33.0	26.0	0.00e+00	0	34	0	790626304	38	5744
2026-01-07 02:52:21.56	176.74	14.66	-32.2	-32.8	26.1	0.00e+00	0	34	0	795869184	38	5625
2026-01-07 02:52:22.57	176.79	14.77	-32.1	-32.8	26.3	0.00e+00	0	34	0	802160640	38	5596
2026-01-07 02:52:23.58	176.84	14.87	-32.2	-32.9	26.1	0.00e+00	0	34	0	807403520	38	5662
2026-01-07 02:52:24.59	176.89	14.98	-32.0	-32.7	26.3	0.00e+00	0	34	0	813694976	38	5504
2026-01-07 02:52:25.60	176.94	15.08	-31.9	-32.6	26.4	0.00e+00	0	34	0	818937856	38	5468
2026-01-07 02:52:26.61	177.00	15.19	-32.0	-32.7	26.3	0.00e+00	0	34	0	824180736	38	5515
2026-01-07 02:52:27.62	177.05	15.29	-31.9	-32.5	26.5	0.00e+00	0	34	0	830472192	38	5422
2026-01-07 02:52:28.63	177.11	15.40	-31.9	-32.5	26.5	0.00e+00	0	34	0	835715072	38	5427
2026-01-07 02:52:29.64	177.16	15.50	-31.9	-32.5	26.5	0.00e+00	0	34	0	842006528	38	5416
2026-01-07 02:52:30.65	177.21	15.61	-31.7	-32.3	26.6	0.00e+00	0	34	0	847249408	36	5911
2026-01-07 02:52:31.66	177.27	15.72	-31.7	-32.3	26.6	0.00e+00	0	34	0	853540864	36	5951
2026-01-07 02:52:32.67	177.32	15.83	-31.7	-32.3	26.6	0.00e+00	0	34	0	858783744	36	5952
2026-01-07 02:52:33.68	177.38	15.94	-31.9	-32.5	26.7	0.00e+00	0	34	0	864026624	36	6088
2026-01-07 02:52:34.69	177.44	16.05	-31.6	-32.3	26.7	0.00e+00	0	34	0	870318080	36	5921
2026-01-07 02:52:35.69	177.49	16.15	-31.7	-32.4	26.6	0.00e+00	0	34	0	875560960	36	5983
2026-01-07 02:52:36.70	177.55	16.26	-31.6	-32.2	26.8	0.00e+00	0	34	0	880803840	36	5870
2026-01-07 02:52:37.72	177.61	16.38	-31.7	-32.3	26.7	0.00e+00	0	34	0	887095296	36	5915
2026-01-07 02:52:38.72	177.66	16.49	-31.5	-32.1	26.8	0.00e+00	0	34	0	892338176	36	5826
2026-01-07 02:52:39.73	177.72	16.60	-31.5	-32.1	26.8	0.00e+00	0	34	0	898629632	36	5825
2026-01-07 02:52:40.75	177.78	16.71	-31.4	-32.0	26.9	0.00e+00	0	34	0	903872512	36	5714
2026-01-07 02:52:41.76	177.84	16.82	-31.4	-32.0	26.9	0.00e+00	0	34	0	910163968	36	5744
2026-01-07 02:52:42.76	177.90	16.93	-31.4	-32.1	26.9	0.00e+00	0	34	0	915406848	36	5776
2026-01-07 02:52:43.77	177.96	17.05	-31.6	-32.2	26.8	0.00e+00	0	34	0	921698304	36	5870
2026-01-07 02:52:44.79	178.02	17.16	-31.3	-32.0	27.0	0.00e+00	0	34	0	926941184	36	5699
2026-01-07 02:52:45.80	178.08	17.28	-31.3	-31.9	26.9	0.00e+00	0	34	0	932184064	36	5692
2026-01-07 02:52:46.80	178.14	17.39	-31.3	-31.9	27.0	0.00e+00	0	34	0	938475520	36	5682
2026-01-07 02:52:47.81	178.20	17.51	-31.3	-31.9	26.9	0.00e+00	0	34	0	943718400	36	5691
2026-01-07 02:52:48.83	178.26	17.62	-31.4	-32.0	27.0	0.00e+00	0	34	0	950009856	36	5744
2026-01-07 02:52:49.83	178.32	17.74	-31.4	-32.1	26.9	0.00e+00	0	34	0	955252736	36	5763
2026-01-07 02:52:50.84	178.39	17.86	-31.1	-31.7	27.2	0.00e+00	0	34	0	960495616	36	5548
2026-01-07 02:52:51.85	178.45	17.97	-31.1	-31.7	27.0	0.00e+00	0	34	0	966787072	36	5562
2026-01-07 02:52:52.86	178.51	18.09	-31.0	-31.7	27.2	0.00e+00	0	34	0	972029952	36	5523
2026-01-07 02:52:53.87	178.58	18.21	-31.1	-31.8	27.1	0.00e+00	0	34	0	978321408	36	5567
2026-01-07 02:52:54.88	178.64	18.33	-30.9	-31.5	27.3	0.00e+00	0	34	0	983564288	36	5426
2026-01-07 02:52:55.89	178.71	18.45	-31.0	-31.6	27.2	0.00e+00	0	34	0	988807168	36	5492
2026-01-07 02:52:56.90	178.77	18.57	-30.9	-31.5	27.3	0.00e+00	0	34	0	995098624	36	5415
2026-01-07 02:52:57.91	178.84	18.69	-30.9	-31.5	27.4	0.00e+00	0	34	0	1000341504	36	5395
2026-01-07 02:52:58.92	178.90	18.81	-30.9	-31.5	27.3	0.00e+00	0	34	0	1006632960	36	5420
2026-01-07 02:52:59.93	178.97	18.93	-30.8	-31.4	27.4	0.00e+00	0	34	0	1011875840	36	5350
2026-01-07 02:53:00.94	179.04	19.06	-31.0	-31.6	27.3	0.00e+00	0	34	0	1018167296	36	5471
2026-01-07 02:53:01.95	179.11	19.18	-30.8	-31.4	27.5	0.00e+00	0	34	0	1023410176	36	5331
2026-01-07 02:53:02.96	179.18	19.30	-30.8	-31.4	27.4	0.00e+00	0	34	0	1028653056	34	6022
2026-01-07 02:53:03.97	179.24	19.43	-30.8	-31.4	27.4	0.00e+00	0	34	0	1034944512	34	6016
2026-01-07 02:53:04.98	179.31	19.55	-30.8	-31.4	27.3	0.00e+00	0	34	0	1040187392	34	5995
2026-01-07 02:53:05.98	179.38	19.68	-30.6	-31.3	27.6	0.00e+00	0	34	0	1046478848	34	5902
2026-01-07 02:53:06.99	179.45	19.80	-30.6	-31.2	27.6	0.00e+00	0	34	0	1051721728	34	5847
2026-01-07 02:53:08.00	179.53	19.93	-30.5	-31.2	27.6	0.00e+00	0	34	0	1056964608	34	5836
2026-01-07 02:53:09.01	179.60	20.06	-30.5	-31.1	27.7	0.00e+00	0	34	0	1063256064	34	5805
2026-01-07 02:53:10.02	179.67	20.18	-30.5	-31.1	27.7	0.00e+00	0	34	0	1068498944	34	5791
2026-01-07 02:53:11.03	179.74	20.31	-30.5	-31.1	27.6	0.00e+00	0	34	0	1074790400	34	5822
2026-01-07 02:53:12.04	179.82	20.44	-30.6	-31.2	27.6	0.00e+00	0	34	0	1080033280	34	5871
2026-01-07 02:53:13.06	179.89	20.57	-30.5	-31.1	27.7	0.00e+00	0	34	0	1085276160	34	5822
2026-01-07 02:53:14.06	179.96	20.70	-30.5	-31.1	27.7	0.00e+00	0	34	0	1091567616	34	5787
2026-01-07 02:53:15.08	180.04	20.83	-30.5	-31.1	27.6	0.00e+00	0	34	0	1096810496	34	5796
2026-01-07 02:53:16.08	180.12	20.97	-30.5	-31.1	27.7	0.00e+00	0	34	0	1103101952	34	5777
2026-01-07 02:53:17.10	180.19	21.10	-30.6	-31.2	27.6	0.00e+00	0	34	0	1108344832	34	5854
2026-01-07 02:53:18.11	180.27	21.23	-30.6	-31.2	27.6	0.00e+00	0	34	0	1114636288	34	5881
2026-01-07 02:53:19.12	180.35	21.37	-30.5	-31.1	27.7	0.00e+00	0	34	0	1119879168	34	5820
2026-01-07 02:53:20.13	180.43	21.50	-30.3	-31.0	27.8	0.00e+00	0	34	0	1126170624	34	5709
2026-01-07 02:53:21.13	180.50	21.63	-30.3	-31.0	27.8	0.00e+00	0	34	0	1131413504	34	5703
2026-01-07 02:53:22.14	180.58	21.77	-30.3	-30.9	27.7	0.00e+00	0	34	0	1136656384	34	5687
2026-01-07 02:53:23.15	180.66	21.91	-30.3	-30.9	27.8	0.00e+00	0	34	0	1142947840	34	5649
2026-01-07 02:53:24.16	180.75	22.04	-30.1	-30.7	27.9	0.00e+00	0	34	0	1148190720	34	5556
2026-01-07 02:53:25.17	180.83	22.18	-30.1	-30.7	28.0	0.00e+00	0	34	0	1154482176	34	5555
2026-01-07 02:53:26.18	180.91	22.32	-30.0	-30.6	28.0	0.00e+00	0	34	0	1159725056	34	5485
2026-01-07 02:53:27.19	180.99	22.46	-30.1	-30.7	28.0	0.00e+00	0	34	0	1164967936	34	5534
2026-01-07 02:53:28.20	181.08	22.60	-30.0	-30.6	28.1	0.00e+00	0	34	0	1171259392	34	5473
2026-01-07 02:53:29.21	181.16	22.74	-30.1	-30.7	28.0	0.00e+00	0	34	0	1176502272	34	5510
2026-01-07 02:53:30.22	181.25	22.88	-30.0	-30.6	28.1	0.00e+00	0	34	0	1182793728	34	5500
2026-01-07 02:53:31.23	181.33	23.02	-30.0	-30.6	28.0	0.00e+00	0	34	0	1188036608	34	5481
2026-01-07 02:53:32.24	181.42	23.16	-30.1	-30.7	28.0	0.00e+00	0	34	0	1193279488	34	5542
2026-01-07 02:53:33.25	181.51	23.31	-30.2	-30.8	27.9	0.00e+00	0	34	0	1199570944	34	5596
2026-01-07 02:53:34.25	181.59	23.45	-30.0	-30.6	28.1	0.00e+00	0	34	0	1204813824	34	5481
2026-01-07 02:53:35.26	181.68	23.59	-30.1	-30.7	27.9	0.00e+00	0	34	0	1211105280	34	5562
2026-01-07 02:53:36.27	181.77	23.74	-30.1	-30.7	28.0	0.00e+00	0	34	0	1216348160	34	5554
2026-01-07 02:53:37.28	181.86	23.88	-30.1	-30.7	28.0	0.00e+00	0	34	0	1222639616	34	5531
2026-01-07 02:53:38.29	181.96	24.03	-30.2	-30.8	27.8	0.00e+00	0	34	0	1227882496	34	5596
2026-01-07 02:53:39.30	182.05	24.18	-30.1	-30.7	28.0	0.00e+00	0	34	0	1233125376	34	5558
2026-01-07 02:53:40.31	182.14	24.33	-30.1	-30.7	28.0	0.00e+00	0	34	0	1239416832	34	5538
2026-01-07 02:53:41.32	182.24	24.48	-30.0	-30.6	28.1	0.00e+00	0	34	0	1244659712	34	5477
2026-01-07 02:53:42.33	182.33	24.63	-29.9	-30.6	28.1	0.00e+00	0	34	0	1250951168	34	5445
2026-01-07 02:53:43.34	182.43	24.78	-29.9	-30.4	28.1	0.00e+00	0	34	0	1256194048	34	5373
2026-01-07 02:53:44.35	182.52	24.93	-29.9	-30.5	28.2	0.00e+00	0	34	0	1261436928	34	5390
2026-01-07 02:53:45.36	182.62	25.08	-29.8	-30.4	28.2	0.00e+00	0	34	0	1267728384	34	5364
2026-01-07 02:53:46.37	182.72	25.24	-30.0	-30.6	28.0	0.00e+00	0	34	0	1272971264	34	5454
2026-01-07 02:53:47.38	182.82	25.39	-30.0	-30.6	28.1	0.00e+00	0	34	0	1279262720	34	5492
2026-01-07 02:53:48.39	182.92	25.55	-30.0	-30.6	28.1	0.00e+00	0	34	0	1284505600	34	5455
2026-01-07 02:53:49.40	183.02	25.70	-29.9	-30.5	28.2	0.00e+00	0	34	0	1289748480	34	5422
2026-01-07 02:53:50.41	183.12	25.86	-29.6	-30.2	28.3	0.00e+00	0	34	0	1296039936	32	5870
2026-01-07 02:53:51.42	183.22	26.01	-29.7	-30.3	28.3	0.00e+00	0	34	0	1301282816	32	5921
2026-01-07 02:53:52.43	183.33	26.17	-29.6	-30.3	28.3	0.00e+00	0	34	0	1307574272	32	5899
2026-01-07 02:53:53.44	183.43	26.33	-29.4	-30.0	28.5	0.00e+00	0	34	0	1312817152	32	5700
2026-01-07 02:53:54.45	183.54	26.49	-29.5	-30.1	28.5	0.00e+00	0	34	0	1319108608	32	5809
2026-01-07 02:53:55.46	183.65	26.65	-29.5	-30.1	28.4	0.00e+00	0	34	0	1324351488	32	5812
2026-01-07 02:53:56.47	183.76	26.81	-29.4	-30.0	28.5	0.00e+00	0	34	0	1330642944	32	5714
2026-01-07 02:53:57.48	183.87	26.98	-29.4	-30.0	28.4	0.00e+00	0	34	0	1335885824	32	5722
2026-01-07 02:53:58.49	183.98	27.14	-29.5	-30.1	28.4	0.00e+00	0	34	0	1341128704	32	5784
2026-01-07 02:53:59.50	184.09	27.30	-29.6	-30.2	28.5	0.00e+00	0	34	0	1347420160	32	5848
2026-01-07 02:54:00.51	184.20	27.47	-29.6	-30.1	28.4	0.00e+00	0	34	0	1352663040	32	5822
2026-01-07 02:54:01.52	184.31	27.64	-29.6	-30.2	28.4	0.00e+00	0	34	0	1358954496	32	5872
2026-01-07 02:54:02.53	184.43	27.80	-29.6	-30.2	28.4	0.00e+00	0	34	0	1364197376	32	5866
2026-01-07 02:54:03.54	184.54	27.97	-29.7	-30.3	28.3	0.00e+00	0	34	0	1369440256	32	5903
2026-01-07 02:54:04.55	184.66	28.14	-29.8	-30.4	28.2	0.00e+00	0	34	0	1375731712	32	5989
2026-01-07 02:54:05.56	184.78	28.31	-29.7	-30.3	28.3	0.00e+00	0	34	0	1380974592	32	5919
2026-01-07 02:54:06.57	184.90	28.48	-29.7	-30.3	28.4	0.00e+00	0	34	0	1387266048	32	5911
2026-01-07 02:54:07.57	185.02	28.65	-29.5	-30.1	28.4	0.00e+00	0	34	0	1392508928	32	5795
2026-01-07 02:54:08.58	185.14	28.82	-29.7	-30.3	28.3	0.00e+00	0	34	0	1397751808	32	5937
2026-01-07 02:54:09.59	185.27	28.99	-29.7	-30.3	28.3	0.00e+00	0	34	0	1404043264	32	5932
2026-01-07 02:54:10.60	185.39	29.17	-29.7	-30.3	28.3	0.00e+00	0	34	0	1409286144	32	5924
2026-01-07 02:54:11.61	185.52	29.34	-29.7	-30.3	28.4	0.00e+00	0	34	0	1415577600	32	5899
2026-01-07 02:54:12.62	185.64	29.52	-29.6	-30.2	28.4	0.00e+00	0	34	0	1420820480	32	5882
2026-01-07 02:54:13.63	185.77	29.70	-29.5	-30.1	28.5	0.00e+00	0	34	0	1427111936	32	5783
2026-01-07 02:54:14.64	185.90	29.87	-29.3	-29.9	28.6	0.00e+00	0	34	0	1432354816	32	5656
2026-01-07 02:54:15.65	186.03	30.05	-29.3	-29.9	28.7	0.00e+00	0	34	0	1437597696	32	5633
2026-01-07 02:54:16.66	186.17	30.23	-29.4	-30.0	28.6	0.00e+00	0	34	0	1443889152	32	5718
2026-01-07 02:54:17.67	186.30	30.41	-29.3	-29.9	28.5	0.00e+00	0	34	0	1449132032	32	5679
2026-01-07 02:54:18.67	186.44	30.59	-29.5	-30.1	28.6	0.00e+00	0	34	0	1455423488	32	5803
2026-01-07 02:54:19.68	186.57	30.78	-29.7	-30.3	28.3	0.00e+00	0	34	0	1460666368	32	5921
2026-01-07 02:54:20.70	186.71	30.96	-29.8	-30.4	28.4	0.00e+00	0	34	0	1465909248	32	5993
2026-01-07 02:54:21.71	186.85	31.15	-29.6	-30.2	28.4	0.00e+00	0	34	0	1472200704	32	5835
2026-01-07 02:54:22.71	186.99	31.33	-29.7	-30.4	28.2	0.00e+00	0	34	0	1477443584	32	5974
2026-01-07 02:54:23.73	187.14	31.52	-29.5	-30.1	28.5	0.00e+00	0	34	0	1483735040	32	5780
2026-01-07 02:54:24.73	187.28	31.71	-29.5	-30.1	28.5	0.00e+00	0	34	0	1488977920	32	5787
2026-01-07 02:54:25.75	187.43	31.90	-29.6	-30.1	28.5	0.00e+00	0	34	0	1494220800	32	5819
2026-01-07 02:54:26.76	187.58	32.09	-29.7	-30.2	28.4	0.00e+00	0	34	0	1500512256	32	5881
2026-01-07 02:54:27.77	187.73	32.28	-29.6	-30.2	28.4	0.00e+00	0	34	0	1505755136	32	5860
2026-01-07 02:54:28.78	187.88	32.47	-29.6	-30.2	28.5	0.00e+00	0	34	0	1512046592	32	5869
2026-01-07 02:54:29.79	188.03	32.66	-29.5	-30.1	28.5	0.00e+00	0	34	0	1517289472	32	5824
2026-01-07 02:54:30.80	188.19	32.86	-29.4	-29.9	28.6	0.00e+00	0	34	0	1523580928	32	5690
2026-01-07 02:54:31.81	188.35	33.05	-29.3	-29.9	28.6	0.00e+00	0	34	0	1528823808	32	5665
2026-01-07 02:54:32.82	188.51	33.25	-29.2	-29.8	28.7	0.00e+00	0	34	0	1535115264	32	5569
2026-01-07 02:54:33.83	188.67	33.44	-29.3	-29.9	28.7	0.00e+00	0	34	0	1540358144	32	5651
2026-01-07 02:54:34.84	188.83	33.64	-29.2	-29.8	28.6	0.00e+00	0	34	0	1545601024	32	5605
2026-01-07 02:54:35.85	189.00	33.84	-29.2	-29.7	28.7	0.00e+00	0	34	0	1551892480	32	5559
2026-01-07 02:54:36.86	189.16	34.04	-29.3	-29.8	28.7	0.00e+00	0	34	0	1557135360	32	5620
2026-01-07 02:54:37.87	189.33	34.24	-29.3	-29.9	28.7	0.00e+00	0	34	0	1563426816	32	5640
2026-01-07 02:54:38.88	189.50	34.44	-29.1	-29.7	28.8	0.00e+00	0	34	0	1568669696	32	5535
2026-01-07 02:54:39.89	189.67	34.65	-29.1	-29.7	28.8	0.00e+00	0	34	0	1573912576	32	5528
2026-01-07 02:54:40.89	189.85	34.85	-29.1	-29.7	28.8	0.00e+00	0	34	0	1580204032	32	5533
2026-01-07 02:54:41.90	190.03	35.05	-29.2	-29.8	28.7	0.00e+00	0	34	0	1585446912	32	5576
2026-01-07 02:54:42.91	190.20	35.26	-29.2	-29.8	28.7	0.00e+00	0	34	0	1591738368	32	5619
2026-01-07 02:54:43.92	190.39	35.47	-29.2	-29.8	28.7	0.00e+00	0	34	0	1596981248	32	5611
2026-01-07 02:54:44.93	190.57	35.68	-29.2	-29.8	28.7	0.00e+00	0	34	0	1602224128	32	5608
2026-01-07 02:54:45.94	190.76	35.89	-29.1	-29.7	28.8	0.00e+00	0	34	0	1608515584	32	5535
2026-01-07 02:54:46.95	190.95	36.10	-29.0	-29.6	28.8	0.00e+00	0	34	0	1613758464	32	5478
2026-01-07 02:54:47.96	191.14	36.31	-29.0	-29.6	28.9	0.00e+00	0	34	0	1620049920	32	5502
2026-01-07 02:54:48.97	191.33	36.52	-29.0	-29.5	28.8	0.00e+00	0	34	0	1625292800	32	5436
2026-01-07 02:54:49.98	191.53	36.73	-29.0	-29.6	28.8	0.00e+00	0	34	0	1631584256	32	5500
2026-01-07 02:54:50.99	191.72	36.95	-28.9	-29.5	28.9	0.00e+00	0	34	0	1636827136	32	5416
2026-01-07 02:54:52.00	191.92	37.16	-29.0	-29.6	28.8	0.00e+00	0	34	0	1642070016	32	5458
2026-01-07 02:54:53.01	192.13	37.38	-29.1	-29.7	28.8	0.00e+00	0	34	0	1648361472	32	5509
2026-01-07 02:54:54.02	192.33	37.60	-28.8	-29.4	29.0	0.00e+00	0	34	0	1653604352	32	5337
2026-01-07 02:54:55.03	192.54	37.82	-28.9	-29.5	28.9	0.00e+00	0	34	0	1659895808	32	5406
2026-01-07 02:54:56.04	192.76	38.04	-28.9	-29.5	28.9	0.00e+00	0	34	0	1665138688	32	5431
2026-01-07 02:54:57.05	192.97	38.26	-29.0	-29.6	28.9	0.00e+00	0	34	0	1670381568	32	5445
2026-01-07 02:54:58.06	193.19	38.48	-29.1	-29.7	28.8	0.00e+00	0	34	0	1676673024	32	5504
2026-01-07 02:54:59.07	193.41	38.70	-29.1	-29.8	28.8	0.00e+00	0	34	0	1681915904	32	5573
2026-01-07 02:55:00.08	193.63	38.93	-29.1	-29.8	28.8	0.00e+00	0	34	0	1688207360	32	5568
2026-01-07 02:55:01.09	193.86	39.15	-29.2	-29.8	28.7	0.00e+00	0	34	0	1693450240	32	5612
2026-01-07 02:55:02.10	194.09	39.38	-29.2	-29.8	28.7	0.00e+00	0	34	0	1698693120	32	5630
2026-01-07 02:55:03.11	194.32	39.60	-29.3	-29.9	28.7	0.00e+00	0	34	0	1704984576	32	5687
2026-01-07 02:55:04.12	194.56	39.83	-29.0	-29.6	28.8	0.00e+00	0	34	0	1710227456	32	5495
2026-01-07 02:55:05.13	194.79	40.06	-29.0	-29.6	28.9	0.00e+00	0	34	0	1716518912	32	5444
2026-01-07 02:55:06.14	195.04	40.29	-29.1	-29.7	28.8	0.00e+00	0	34	0	1721761792	32	5518
2026-01-07 02:55:07.15	195.28	40.52	-29.1	-29.7	28.8	0.00e+00	0	34	0	1728053248	32	5509
2026-01-07 02:55:08.16	195.53	40.75	-29.3	-29.9	28.6	0.00e+00	0	34	0	1733296128	32	5673
2026-01-07 02:55:09.17	195.79	40.98	-29.3	-29.9	28.7	0.00e+00	0	34	0	1739587584	32	5655
2026-01-07 02:55:10.18	196.04	41.22	-29.4	-30.0	28.6	0.00e+00	0	34	0	1744830464	32	5696
2026-01-07 02:55:11.19	196.30	41.45	-29.3	-29.9	28.7	0.00e+00	0	34	0	1750073344	32	5653
2026-01-07 02:55:12.20	196.57	41.69	-29.3	-29.9	28.6	0.00e+00	0	34	0	1756364800	32	5667
2026-01-07 02:55:13.21	196.83	41.92	-29.4	-30.0	28.5	0.00e+00	0	34	0	1761607680	32	5749
2026-01-07 02:55:14.22	197.10	42.16	-29.4	-30.0	28.6	0.00e+00	0	34	0	1767899136	32	5727
2026-01-07 02:55:15.23	197.38	42.40	-29.5	-30.1	28.5	0.00e+00	0	34	0	1773142016	32	5791
2026-01-07 02:55:16.24	197.66	42.63	-29.4	-30.0	28.6	0.00e+00	0	34	0	1778384896	32	5730
2026-01-07 02:55:17.25	197.94	42.87	-29.3	-29.9	28.6	0.00e+00	0	34	0	1784676352	32	5659
2026-01-07 02:55:18.26	198.23	43.11	-29.2	-29.8	28.7	0.00e+00	0	34	0	1789919232	32	5617
2026-01-07 02:55:19.27	198.52	43.35	-29.3	-29.8	28.7	0.00e+00	0	34	0	1796210688	32	5621
2026-01-07 02:55:20.27	198.82	43.59	-29.5	-30.1	28.6	0.00e+00	0	34	0	1801453568	32	5775
2026-01-07 02:55:21.28	199.12	43.83	-29.7	-30.3	28.3	0.00e+00	0	34	0	1806696448	32	5950
2026-01-07 02:55:22.29	199.42	44.08	-29.7	-30.3	28.3	0.00e+00	0	34	0	1812987904	32	5948
2026-01-07 02:55:23.30	199.73	44.32	-29.6	-30.1	28.4	0.00e+00	0	34	0	1818230784	32	5822
2026-01-07 02:55:24.31	200.05	44.56	-29.5	-30.1	28.5	0.00e+00	0	34	0	1824522240	32	5785
2026-01-07 02:55:25.32	200.37	44.81	-29.6	-30.2	28.5	0.00e+00	0	34	0	1829765120	32	5856
2026-01-07 02:55:26.33	200.69	45.05	-29.4	-30.0	28.5	0.00e+00	0	34	0	1836056576	32	5755
2026-01-07 02:55:27.34	201.02	45.30	-29.6	-30.2	28.4	0.00e+00	0	34	0	1841299456	32	5851
2026-01-07 02:55:28.35	201.35	45.54	-29.4	-30.0	28.5	0.00e+00	0	34	0	1846542336	32	5754
2026-01-07 02:55:29.36	201.69	45.79	-29.4	-30.0	28.6	0.00e+00	0	34	0	1852833792	32	5732
2026-01-07 02:55:30.37	202.04	46.04	-29.6	-30.2	28.4	0.00e+00	0	34	0	1858076672	32	5851
2026-01-07 02:55:31.38	202.39	46.28	-29.5	-30.1	28.5	0.00e+00	0	34	0	1864368128	32	5808
2026-01-07 02:55:32.39	202.74	46.53	-29.4	-30.0	28.6	0.00e+00	0	34	0	1869611008	32	5731
2026-01-07 02:55:33.40	203.11	46.78	-29.3	-29.9	28.6	0.00e+00	0	34	0	1874853888	32	5690
2026-01-07 02:55:34.41	203.47	47.03	-29.4	-30.0	28.6	0.00e+00	0	34	0	1881145344	32	5719
2026-01-07 02:55:35.42	203.85	47.27	-29.4	-30.0	28.5	0.00e+00	0	34	0	1886388224	32	5699
2026-01-07 02:55:36.43	204.22	47.52	-29.5	-30.1	28.5	0.00e+00	0	34	0	1892679680	32	5814
2026-01-07 02:55:37.44	204.61	47.77	-29.5	-30.1	28.5	0.00e+00	0	34	0	1897922560	32	5824
2026-01-07 02:55:38.45	205.00	48.02	-29.7	-30.3	28.4	0.00e+00	0	34	0	1903165440	32	5932
2026-01-07 02:55:39.46	205.40	48.27	-29.9	-30.5	28.2	0.00e+00	0	34	0	1909456896	32	6080
2026-01-07 02:55:40.47	205.80	48.51	-30.0	-30.6	28.1	0.00e+00	0	34	0	1914699776	32	6166
2026-01-07 02:55:41.48	206.21	48.76	-29.9	-30.5	28.2	0.00e+00	0	34	0	1920991232	32	6071
2026-01-07 02:55:42.48	206.62	49.01	-29.9	-30.5	28.1	0.00e+00	0	34	0	1926234112	32	6081
2026-01-07 02:55:43.49	207.04	49.26	-30.0	-30.6	28.2	0.00e+00	0	34	0	1932525568	32	6112
2026-01-07 02:55:44.51	207.48	49.51	-30.2	-30.8	28.1	0.00e+00	0	34	0	1937768448	32	6261
2026-01-07 02:55:45.51	207.91	49.75	-30.1	-30.7	28.0	0.00e+00	0	34	0	1944059904	32	6204
2026-01-07 02:55:46.52	208.35	50.00	-30.0	-30.6	28.2	0.00e+00	0	34	0	1949302784	32	6160
2026-01-07 02:55:47.53	208.80	50.24	-29.9	-30.5	28.2	0.00e+00	0	34	0	1954545664	32	6059
2026-01-07 02:55:48.54	209.26	50.49	-30.0	-30.7	28.0	0.00e+00	0	34	0	1960837120	32	6187
2026-01-07 02:55:49.55	209.73	50.73	-29.9	-30.5	28.2	0.00e+00	0	34	0	1966080000	32	6089
2026-01-07 02:55:50.56	210.20	50.98	-29.9	-30.5	28.2	0.00e+00	0	34	0	1971322880	32	6101
2026-01-07 02:55:51.57	210.68	51.22	-29.7	-30.3	28.3	0.00e+00	0	34	0	1977614336	32	5927
2026-01-07 02:55:52.58	211.17	51.46	-29.7	-30.3	28.3	0.00e+00	0	34	0	1982857216	32	5956
2026-01-07 02:55:53.59	211.67	51.71	-30.0	-30.6	28.2	0.00e+00	0	34	0	1989148672	32	6136
2026-01-07 02:55:54.60	212.17	51.95	-30.2	-30.8	28.0	0.00e+00	0	34	0	1994391552	32	6273
2026-01-07 02:55:55.61	212.68	52.19	-30.3	-30.9	27.9	0.00e+00	0	34	0	1999634432	32	6342
2026-01-07 02:55:56.62	213.20	52.43	-30.1	-30.7	28.0	0.00e+00	0	34	0	2005925888	32	6225
2026-01-07 02:55:57.63	213.73	52.66	-30.2	-30.8	28.0	0.00e+00	0	34	0	2011168768	32	6275
2026-01-07 02:55:58.64	214.27	52.90	-29.8	-30.4	28.3	0.00e+00	0	34	0	2017460224	32	6009
2026-01-07 02:55:59.65	214.82	53.13	-30.3	-30.9	28.0	0.00e+00	0	34	0	2022703104	32	6356
2026-01-07 02:56:00.66	215.37	53.37	-30.4	-31.1	27.8	0.00e+00	0	34	0	2028994560	32	6479
2026-01-07 02:56:01.67	215.94	53.60	-30.2	-30.8	27.9	0.00e+00	0	34	0	2034237440	32	6304
2026-01-07 02:56:02.68	216.51	53.83	-30.3	-30.9	27.9	0.00e+00	0	34	0	2040528896	32	6353
2026-01-07 02:56:03.69	217.09	54.05	-30.6	-31.3	27.7	0.00e+00	0	34	0	2045771776	32	6624
2026-01-07 02:56:04.70	217.68	54.28	-30.5	-31.1	27.7	0.00e+00	0	34	0	2051014656	34	5816
2026-01-07 02:56:05.71	218.28	54.50	-30.4	-31.0	27.8	0.00e+00	0	34	0	2057306112	34	5742
2026-01-07 02:56:06.72	218.89	54.72	-30.5	-31.1	27.8	0.00e+00	0	34	0	2062548992	34	5775
2026-01-07 02:56:07.73	219.51	54.94	-30.4	-31.0	27.9	0.00e+00	0	34	0	2068840448	34	5702
2026-01-07 02:56:08.74	220.14	55.16	-30.3	-30.9	27.9	0.00e+00	0	34	0	2074083328	34	5658
2026-01-07 02:56:09.75	220.78	55.37	-30.2	-30.8	28.0	0.00e+00	0	34	0	2079326208	34	5594
2026-01-07 02:56:10.76	221.43	55.59	-30.3	-30.9	27.9	0.00e+00	0	34	0	2085617664	34	5633
2026-01-07 02:56:11.77	222.08	55.79	-30.7	-31.3	27.5	0.00e+00	0	34	0	2090860544	34	5946
2026-01-07 02:56:12.78	222.75	56.00	-30.9	-31.5	27.4	0.00e+00	0	34	0	2097152000	34	6099
2026-01-07 02:56:13.79	223.43	56.20	-30.4	-31.0	27.8	0.00e+00	0	34	0	2102394880	34	5713
2026-01-07 02:56:14.80	224.11	56.40	-30.3	-30.9	27.9	0.00e+00	0	34	0	2107637760	34	5662
2026-01-07 02:56:15.80	224.80	56.60	-30.0	-30.5	28.2	0.00e+00	0	34	0	2113929216	34	5435
2026-01-07 02:56:16.81	225.51	56.79	-30.2	-30.8	28.0	0.00e+00	0	34	0	2119172096	34	5604
2026-01-07 02:56:17.82	226.23	56.98	-30.3	-30.9	27.9	0.00e+00	0	34	0	2125463552	34	5669
2026-01-07 02:56:18.83	226.95	57.17	-30.3	-30.9	27.9	0.00e+00	0	34	0	2130706432	34	5676
2026-01-07 02:56:19.84	227.69	57.35	-30.4	-31.0	27.8	0.00e+00	0	34	0	2136997888	34	5703
2026-01-07 02:56:20.85	228.43	57.53	-30.1	-30.7	28.0	0.00e+00	0	34	0	2142240768	34	5540
2026-01-07 02:56:21.86	229.19	57.70	-30.1	-30.7	28.1	0.00e+00	0	34	0	2148532224	34	5514
2026-01-07 02:56:22.87	229.95	57.87	-30.2	-30.8	28.0	0.00e+00	0	34	0	2153775104	34	5583
2026-01-07 02:56:23.88	230.73	58.04	-30.5	-31.2	27.8	0.00e+00	0	34	0	2159017984	34	5847
2026-01-07 02:56:24.89	231.51	58.20	-30.5	-31.1	27.8	0.00e+00	0	34	0	2165309440	34	5778
2026-01-07 02:56:25.90	232.30	58.35	-30.3	-31.0	27.9	0.00e+00	0	34	0	2170552320	34	5724
2026-01-07 02:56:26.91	233.10	58.50	-29.7	-30.3	28.2	0.00e+00	0	34	0	2176843776	34	5273
2026-01-07 02:56:27.92	233.91	58.65	-29.9	-30.5	28.3	0.00e+00	0	34	0	2182086656	32	6091
2026-01-07 02:56:28.93	234.73	58.79	-29.8	-30.5	28.3	0.00e+00	0	34	0	2187329536	32	6047
2026-01-07 02:56:29.94	235.56	58.93	-29.6	-30.2	28.3	0.00e+00	0	34	0	2193620992	32	5884
2026-01-07 02:56:30.95	236.40	59.06	-29.8	-30.4	28.2	0.00e+00	0	34	0	2198863872	32	6015
2026-01-07 02:56:31.96	237.24	59.19	-29.8	-30.4	28.2	0.00e+00	0	34	0	2204106752	32	6010
2026-01-07 02:56:32.97	238.10	59.31	-30.0	-30.6	28.1	0.00e+00	0	34	0	2210398208	32	6139
2026-01-07 02:56:33.98	238.96	59.43	-30.2	-30.8	28.0	0.00e+00	0	34	0	2215641088	32	6279
2026-01-07 02:56:34.99	239.82	59.54	-29.8	-30.4	28.2	0.00e+00	0	34	0	2221932544	32	5987
2026-01-07 02:56:36.00	240.70	59.64	-29.5	-30.1	28.5	0.00e+00	0	34	0	2227175424	32	5807
2026-01-07 02:56:37.01	241.58	59.74	-29.6	-30.2	28.5	0.00e+00	0	34	0	2233466880	32	5877
2026-01-07 02:56:38.01	242.46	59.83	-29.6	-30.2	28.5	0.00e+00	0	34	0	2238709760	32	5833
2026-01-07 02:56:39.02	243.36	59.92	-29.7	-30.4	28.3	0.00e+00	0	34	0	2245001216	32	5991
2026-01-07 02:56:40.03	244.26	60.00	-29.5	-30.1	28.5	0.00e+00	0	34	0	2250244096	32	5768
2026-01-07 02:56:41.04	245.16	60.07	-29.3	-29.9	28.7	0.00e+00	0	34	0	2255486976	32	5687
2026-01-07 02:56:42.05	246.07	60.14	-29.7	-30.3	28.2	0.00e+00	0	34	0	2261778432	32	5945
2026-01-07 02:56:43.06	246.99	60.20	-30.0	-30.7	28.0	0.00e+00	0	34	0	2267021312	32	6202
2026-01-07 02:56:44.07	247.91	60.25	-29.9	-30.5	28.2	0.00e+00	0	34	0	2273312768	32	6084
2026-01-07 02:56:45.08	248.83	60.30	-29.9	-30.5	28.1	0.00e+00	0	34	0	2278555648	32	6065
2026-01-07 02:56:46.09	249.75	60.34	-29.7	-30.4	28.3	0.00e+00	0	34	0	2283798528	32	6002
2026-01-07 02:56:47.10	250.68	60.38	-29.5	-30.1	28.5	0.00e+00	0	34	0	2290089984	32	5796
2026-01-07 02:56:48.11	251.61	60.41	-29.6	-30.1	28.4	0.00e+00	0	34	0	2295332864	32	5824
2026-01-07 02:56:49.12	252.55	60.43	-29.8	-30.4	28.3	0.00e+00	0	34	0	2301624320	32	5992
2026-01-07 02:56:50.13	253.48	60.44	-29.8	-30.4	28.3	0.00e+00	0	34	0	2306867200	32	5970
2026-01-07 02:56:51.13	254.41	60.45	-29.7	-30.2	28.4	0.00e+00	0	34	0	2312110080	32	5880
2026-01-07 02:56:52.14	255.34	60.45	-29.5	-30.1	28.4	0.00e+00	0	34	0	2318401536	32	5811
2026-01-07 02:56:53.15	256.28	60.45	-29.7	-30.3	28.3	0.00e+00	0	34	0	2323644416	32	5921
2026-01-07 02:56:54.16	257.21	60.44	-29.8	-30.4	28.3	0.00e+00	0	34	0	2329935872	32	6017
2026-01-07 02:56:55.17	258.15	60.42	-29.7	-30.3	28.2	0.00e+00	0	34	0	2335178752	32	5938
2026-01-07 02:56:56.18	259.08	60.40	-29.5	-30.1	28.4	0.00e+00	0	34	0	2341470208	32	5769
2026-01-07 02:56:57.18	260.00	60.36	-29.3	-29.8	28.4	0.00e+00	0	34	0	2346713088	32	5611
2026-01-07 02:56:58.19	260.93	60.33	-29.7	-30.3	27.7	0.00e+00	0	34	0	2351955968	32	5940
2026-01-07 02:56:59.20	261.85	60.28	-29.9	-30.5	28.0	0.00e+00	0	34	0	2358247424	32	6043
2026-01-07 02:57:00.21	262.77	60.23	-29.9	-30.6	28.2	0.00e+00	0	34	0	2363490304	32	6112
2026-01-07 02:57:01.22	263.69	60.17	-29.9	-30.5	28.1	0.00e+00	0	34	0	2369781760	32	6091
2026-01-07 02:57:02.23	264.60	60.11	-30.0	-30.6	28.0	0.00e+00	0	34	0	2375024640	32	6119
2026-01-07 02:57:03.24	265.51	60.04	-29.7	-30.3	28.3	0.00e+00	0	34	0	2380267520	32	5943
2026-01-07 02:57:04.25	266.41	59.96	-29.7	-30.3	28.3	0.00e+00	0	34	0	2386558976	32	5963
2026-01-07 02:57:05.26	267.31	59.88	-29.6	-30.1	28.4	0.00e+00	0	34	0	2391801856	32	5816
2026-01-07 02:57:06.27	268.20	59.79	-29.6	-30.2	28.4	0.00e+00	0	34	0	2398093312	32	5856
2026-01-07 02:57:07.28	269.08	59.70	-29.7	-30.3	28.3	0.00e+00	0	34	0	2403336192	32	5921
2026-01-07 02:57:08.29	269.96	59.59	-29.5	-30.1	28.5	0.00e+00	0	34	0	2408579072	32	5777
2026-01-07 02:57:09.30	270.83	59.49	-29.6	-30.2	28.3	0.00e+00	0	34	0	2414870528	32	5880
2026-01-07 02:57:10.31	271.70	59.38	-30.0	-30.6	28.0	0.00e+00	0	34	0	2420113408	32	6104
2026-01-07 02:57:11.32	272.55	59.26	-30.4	-31.1	27.8	0.00e+00	0	34	0	2426404864	32	6490
2026-01-07 02:57:12.33	273.40	59.13	-30.0	-30.6	28.1	0.00e+00	0	34	0	2431647744	32	6116
2026-01-07 02:57:13.34	274.24	59.01	-29.8	-30.4	28.2	0.00e+00	0	34	0	2437939200	32	6032
2026-01-07 02:57:14.35	275.08	58.87	-30.1	-30.7	28.1	0.00e+00	0	34	0	2443182080	32	6205
2026-01-07 02:57:15.35	275.89	58.73	-30.2	-30.7	27.9	0.00e+00	0	34	0	2448424960	32	6208
2026-01-07 02:57:16.36	276.71	58.59	-29.8	-30.4	28.3	0.00e+00	0	34	0	2454716416	32	5980
2026-01-07 02:57:17.38	277.52	58.44	-29.9	-30.4	28.1	0.00e+00	0	34	0	2459959296	32	6026
2026-01-07 02:57:18.38	278.31	58.29	-30.3	-31.0	27.9	0.00e+00	0	34	0	2466250752	32	6415
2026-01-07 02:57:19.39	279.10	58.13	-30.4	-31.1	27.8	0.00e+00	0	34	0	2471493632	32	6487
2026-01-07 02:57:20.40	279.88	57.97	-30.1	-30.7	27.9	0.00e+00	0	34	0	2476736512	32	6182
2026-01-07 02:57:21.41	280.64	57.80	-30.1	-30.7	28.2	0.00e+00	0	34	0	2483027968	32	6217
2026-01-07 02:57:22.42	281.40	57.63	-30.0	-30.6	28.1	0.00e+00	0	34	0	2488270848	32	6159
2026-01-07 02:57:23.43	282.15	57.45	-30.3	-31.0	27.8	0.00e+00	0	34	0	2494562304	32	6423
2026-01-07 02:57:24.44	282.89	57.27	-30.5	-31.1	27.8	0.00e+00	0	34	0	2499805184	32	6498
2026-01-07 02:57:25.45	283.62	57.09	-30.1	-30.7	27.9	0.00e+00	0	34	0	2505048064	32	6187
2026-01-07 02:57:26.46	284.35	56.90	-30.2	-30.9	27.8	0.00e+00	0	34	0	2511339520	32	6355
2026-01-07 02:57:27.47	285.06	56.71	-30.7	-31.4	27.5	0.00e+00	0	34	0	2516582400	32	6736
2026-01-07 02:57:28.48	285.76	56.52	-31.1	-31.7	27.3	0.00e+00	0	34	0	2522873856	34	6239
2026-01-07 02:57:29.49	286.45	56.32	-30.8	-31.4	27.5	0.00e+00	0	34	0	2528116736	34	6019
2026-01-07 02:57:30.50	287.13	56.12	-30.3	-30.9	27.9	0.00e+00	0	34	0	2534408192	34	5665
2026-01-07 02:57:31.51	287.80	55.92	-30.3	-31.0	27.9	0.00e+00	0	34	0	2539651072	34	5738
2026-01-07 02:57:32.52	288.46	55.71	-30.4	-30.9	27.8	0.00e+00	0	34	0	2545942528	34	5677
2026-01-07 02:57:33.53	289.12	55.50	-30.3	-30.8	27.9	0.00e+00	0	34	0	2551185408	34	5609
2026-01-07 02:57:34.54	289.76	55.29	-30.2	-30.9	27.9	0.00e+00	0	34	0	2556428288	34	5632
2026-01-07 02:57:35.55	290.39	55.07	-30.2	-30.8	27.9	0.00e+00	0	34	0	2562719744	34	5592
2026-01-07 02:57:36.56	291.01	54.86	-30.4	-31.0	27.8	0.00e+00	0	34	0	2567962624	34	5716
2026-01-07 02:57:37.56	291.62	54.64	-30.5	-31.2	27.6	0.00e+00	0	34	0	2574254080	34	5863
2026-01-07 02:57:38.57	292.23	54.42	-30.5	-31.1	27.8	0.00e+00	0	34	0	2579496960	34	5822
2026-01-07 02:57:39.58	292.82	54.19	-30.3	-30.8	27.9	0.00e+00	0	34	0	2584739840	34	5606
2026-01-07 02:57:40.59	293.41	53.97	-30.4	-31.0	27.8	0.00e+00	0	34	0	2591031296	34	5756
2026-01-07 02:57:41.60	293.99	53.74	-30.5	-31.0	27.7	0.00e+00	0	34	0	2596274176	34	5736
2026-01-07 02:57:42.61	294.55	53.51	-30.6	-31.1	27.6	0.00e+00	0	34	0	2601517056	34	5818
2026-01-07 02:57:43.62	295.11	53.28	-30.6	-31.3	27.6	0.00e+00	0	34	0	2607808512	34	5910
2026-01-07 02:57:44.62	295.66	53.05	-30.5	-31.1	27.6	0.00e+00	0	34	0	2613051392	34	5797
2026-01-07 02:57:45.63	296.20	52.82	-30.4	-31.0	27.8	0.00e+00	0	34	0	2619342848	34	5719
2026-01-07 02:57:46.64	296.73	52.58	-30.3	-31.0	27.9	0.00e+00	0	34	0	2624585728	34	5701
2026-01-07 02:57:47.65	297.26	52.34	-30.4	-31.1	27.8	0.00e+00	0	34	0	2630877184	34	5811
2026-01-07 02:57:48.66	297.78	52.10	-30.4	-31.0	27.9	0.00e+00	0	34	0	2636120064	34	5701
2026-01-07 02:57:49.67	298.28	51.86	-30.1	-30.7	28.0	0.00e+00	0	34	0	2642411520	34	5549
2026-01-07 02:57:50.68	298.78	51.62	-29.9	-30.4	28.2	0.00e+00	0	34	0	2647654400	34	5345
2026-01-07 02:57:51.69	299.28	51.38	-29.8	-30.5	28.2	0.00e+00	0	34	0	2652897280	34	5382
2026-01-07 02:57:52.70	299.76	51.14	-29.9	-30.5	28.1	0.00e+00	0	34	0	2659188736	34	5387
2026-01-07 02:57:53.71	300.24	50.90	-29.9	-30.4	28.1	0.00e+00	0	34	0	2664431616	34	5372
2026-01-07 02:57:54.72	300.71	50.65	-30.0	-30.5	28.1	0.00e+00	0	34	0	2670723072	34	5415
2026-01-07 02:57:55.73	301.17	50.41	-29.9	-30.5	28.2	0.00e+00	0	34	0	2675965952	34	5427
2026-01-07 02:57:56.74	301.62	50.16	-29.9	-30.6	28.2	0.00e+00	0	34	0	2681208832	34	5480
2026-01-07 02:57:57.75	302.07	49.92	-29.7	-30.4	28.2	0.00e+00	0	34	0	2687500288	34	5332
2026-01-07 02:57:58.76	302.51	49.67	-29.7	-30.2	28.2	0.00e+00	0	34	0	2692743168	32	5895
2026-01-07 02:57:59.77	302.94	49.43	-29.9	-30.6	28.2	0.00e+00	0	34	0	2699034624	32	6132
2026-01-07 02:58:00.78	303.37	49.18	-29.7	-30.2	28.4	0.00e+00	0	34	0	2704277504	32	5853
2026-01-07 02:58:01.78	303.79	48.93	-29.8	-30.5	28.1	0.00e+00	0	34	0	2709520384	32	6034
2026-01-07 02:58:02.79	304.20	48.69	-29.8	-30.4	28.1	0.00e+00	0	34	0	2715811840	32	5987
2026-01-07 02:58:03.80	304.61	48.44	-29.8	-30.5	28.2	0.00e+00	0	34	0	2721054720	32	6046
2026-01-07 02:58:04.81	305.01	48.19	-29.7	-30.4	28.3	0.00e+00	0	34	0	2727346176	32	5970
2026-01-07 02:58:05.82	305.40	47.94	-29.6	-30.2	28.4	0.00e+00	0	34	0	2732589056	32	5875
2026-01-07 02:58:06.83	305.79	47.70	-29.3	-29.8	28.6	0.00e+00	0	34	0	2738880512	32	5579
2026-01-07 02:58:07.84	306.17	47.45	-29.3	-30.0	28.5	0.00e+00	0	34	0	2744123392	32	5731
2026-01-07 02:58:08.85	306.54	47.20	-29.4	-29.9	28.5	0.00e+00	0	34	0	2749366272	32	5684
2026-01-07 02:58:09.86	306.91	46.96	-29.4	-30.0	28.5	0.00e+00	0	34	0	2755657728	32	5704
2026-01-07 02:58:10.87	307.28	46.71	-29.3	-29.9	28.4	0.00e+00	0	34	0	2760900608	32	5642
2026-01-07 02:58:11.88	307.64	46.46	-29.5	-30.2	28.3	0.00e+00	0	34	0	2767192064	32	5835
2026-01-07 02:58:12.89	307.99	46.22	-29.6	-30.2	28.2	0.00e+00	0	34	0	2772434944	32	5829
2026-01-07 02:58:13.90	308.34	45.97	-29.8	-30.3	28.2	0.00e+00	0	34	0	2777677824	32	5963
2026-01-07 02:58:14.91	308.68	45.72	-29.8	-30.3	27.9	0.00e+00	0	34	0	2783969280	32	5912
2026-01-07 02:58:15.92	309.02	45.48	-29.6	-30.2	28.1	0.00e+00	0	34	0	2789212160	32	5871
2026-01-07 02:58:16.92	309.34	45.24	-29.6	-30.3	28.2	0.00e+00	0	34	0	2795503616	32	5916
2026-01-07 02:58:17.93	309.67	44.99	-29.8	-30.3	28.0	0.00e+00	0	34	0	2800746496	32	5954
2026-01-07 02:58:18.94	309.99	44.75	-29.7	-30.2	28.3	0.00e+00	0	34	0	2805989376	32	5853
2026-01-07 02:58:19.95	310.31	44.51	-29.7	-30.4	28.3	0.00e+00	0	34	0	2812280832	32	5972
2026-01-07 02:58:20.96	310.62	44.26	-29.7	-30.4	28.2	0.00e+00	0	34	0	2817523712	32	6002
2026-01-07 02:58:21.97	310.93	44.02	-29.5	-30.2	28.4	0.00e+00	0	34	0	2823815168	32	5842
2026-01-07 02:58:22.98	311.23	43.78	-29.8	-30.3	28.3	0.00e+00	0	34	0	2829058048	32	5915
2026-01-07 02:58:23.99	311.53	43.54	-29.7	-30.4	28.2	0.00e+00	0	34	0	2835349504	32	5998
2026-01-07 02:58:25.00	311.83	43.30	-29.4	-30.0	28.5	0.00e+00	0	34	0	2840592384	32	5700
2026-01-07 02:58:26.01	312.12	43.06	-29.5	-30.1	28.5	0.00e+00	0	34	0	2845835264	32	5788
2026-01-07 02:58:27.02	312.40	42.82	-29.6	-30.1	28.3	0.00e+00	0	34	0	2852126720	32	5790
2026-01-07 02:58:28.03	312.68	42.58	-29.7	-30.3	28.3	0.00e+00	0	34	0	2857369600	32	5915
2026-01-07 02:58:29.04	312.96	42.35	-29.4	-30.0	28.5	0.00e+00	0	34	0	2863661056	32	5712
2026-01-07 02:58:30.05	313.24	42.11	-29.5	-30.0	28.5	0.00e+00	0	34	0	2868903936	32	5722
2026-01-07 02:58:31.06	313.51	41.88	-29.3	-30.0	28.6	0.00e+00	0	34	0	2874146816	32	5721
2026-01-07 02:58:32.06	313.77	41.64	-29.4	-30.1	28.5	0.00e+00	0	34	0	2880438272	32	5776
2026-01-07 02:58:33.07	314.03	41.41	-29.5	-30.2	28.4	0.00e+00	0	34	0	2885681152	32	5830
2026-01-07 02:58:34.09	314.29	41.18	-29.4	-30.0	28.5	0.00e+00	0	34	0	2891972608	32	5703
2026-01-07 02:58:35.09	314.54	40.95	-29.5	-30.1	28.4	0.00e+00	0	34	0	2897215488	32	5765
2026-01-07 02:58:36.10	314.80	40.71	-29.4	-30.0	28.4	0.00e+00	0	34	0	2902458368	32	5709
2026-01-07 02:58:37.11	315.04	40.48	-29.3	-30.0	28.6	0.00e+00	0	34	0	2908749824	32	5704
2026-01-07 02:58:38.12	315.29	40.26	-29.1	-29.8	28.8	0.00e+00	0	34	0	2913992704	32	5570
2026-01-07 02:58:39.13	315.53	40.03	-29.1	-29.6	28.7	0.00e+00	0	34	0	2920284160	32	5482
2026-01-07 02:58:40.14	315.77	39.80	-29.1	-29.8	28.7	0.00e+00	0	34	0	2925527040	32	5569
2026-01-07 02:58:41.15	316.00	39.57	-29.0	-29.7	28.7	0.00e+00	0	34	0	2931818496	32	5531
2026-01-07 02:58:42.16	316.23	39.35	-29.2	-29.7	28.6	0.00e+00	0	34	0	2937061376	32	5520
2026-01-07 02:58:43.17	316.46	39.12	-29.3	-29.8	28.5	0.00e+00	0	34	0	2943352832	32	5600
2026-01-07 02:58:44.18	316.69	38.90	-29.4	-29.9	28.5	0.00e+00	0	34	0	2948595712	32	5679
2026-01-07 02:58:45.19	316.91	38.68	-29.3	-29.8	28.6	0.00e+00	0	34	0	2953838592	32	5593
2026-01-07 02:58:46.20	317.13	38.46	-29.2	-29.8	28.7	0.00e+00	0	34	0	2960130048	32	5627
2026-01-07 02:58:47.21	317.34	38.24	-29.0	-29.5	28.8	0.00e+00	0	34	0	2965372928	32	5431
2026-01-07 02:58:48.22	317.56	38.02	-29.0	-29.7	28.8	0.00e+00	0	34	0	2971664384	32	5533
2026-01-07 02:58:49.23	317.77	37.80	-28.9	-29.6	28.8	0.00e+00	0	34	0	2976907264	32	5452
2026-01-07 02:58:50.24	317.98	37.58	-29.0	-29.7	28.8	0.00e+00	0	34	0	2982150144	32	5536
2026-01-07 02:58:51.25	318.18	37.36	-28.9	-29.6	28.8	0.00e+00	0	34	0	2988441600	32	5463
2026-01-07 02:58:52.26	318.38	37.15	-29.0	-29.5	28.8	0.00e+00	0	34	0	2993684480	32	5429
2026-01-07 02:58:53.26	318.58	36.94	-28.9	-29.4	28.9	0.00e+00	0	34	0	2999975936	32	5364
2026-01-07 02:58:54.27	318.78	36.72	-29.0	-29.5	28.7	0.00e+00	0	34	0	3005218816	32	5435
2026-01-07 02:58:55.28	318.97	36.51	-29.0	-29.5	28.8	0.00e+00	0	34	0	3010461696	32	5405
2026-01-07 02:58:56.29	319.17	36.30	-29.1	-29.6	28.7	0.00e+00	0	34	0	3016753152	32	5472
2026-01-07 02:58:57.30	319.36	36.09	-29.1	-29.6	28.8	0.00e+00	0	34	0	3021996032	32	5480
2026-01-07 02:58:58.31	319.54	35.88	-29.2	-29.8	28.7	0.00e+00	0	34	0	3028287488	32	5626
2026-01-07 02:58:59.32	319.73	35.67	-29.3	-29.8	28.5	0.00e+00	0	34	0	3033530368	32	5628
2026-01-07 02:59:00.33	319.91	35.46	-29.3	-29.9	28.6	0.00e+00	0	34	0	3039821824	32	5659
2026-01-07 02:59:01.34	320.09	35.26	-29.2	-29.8	28.6	0.00e+00	0	34	0	3045064704	32	5593
2026-01-07 02:59:02.35	320.27	35.05	-29.3	-30.0	28.6	0.00e+00	0	34	0	3050307584	32	5728
2026-01-07 02:59:03.36	320.45	34.85	-29.4	-29.9	28.5	0.00e+00	0	34	0	3056599040	32	5663
2026-01-07 02:59:04.37	320.62	34.64	-29.4	-29.9	28.6	0.00e+00	0	34	0	3061841920	32	5656
2026-01-07 02:59:05.38	320.79	34.44	-29.4	-29.9	28.5	0.00e+00	0	34	0	3068133376	32	5652
2026-01-07 02:59:06.38	320.96	34.24	-29.3	-29.8	28.6	0.00e+00	0	34	0	3073376256	32	5593
2026-01-07 02:59:07.39	321.13	34.04	-29.3	-29.9	28.5	0.00e+00	0	34	0	3078619136	32	5632
2026-01-07 02:59:08.41	321.30	33.84	-29.2	-29.7	28.6	0.00e+00	0	34	0	3084910592	32	5560
2026-01-07 02:59:09.41	321.46	33.65	-29.3	-29.8	28.6	0.00e+00	0	34	0	3090153472	32	5630
2026-01-07 02:59:10.43	321.63	33.45	-29.2	-29.9	28.7	0.00e+00	0	34	0	3096444928	32	5652
2026-01-07 02:59:11.44	321.79	33.25	-29.1	-29.6	28.6	0.00e+00	0	34	0	3101687808	32	5499
2026-01-07 02:59:12.45	321.94	33.06	-29.1	-29.7	28.6	0.00e+00	0	34	0	3106930688	32	5507
2026-01-07 02:59:13.45	322.10	32.87	-29.0	-29.5	28.8	0.00e+00	0	34	0	3113222144	32	5402
2026-01-07 02:59:14.46	322.25	32.67	-29.1	-29.6	28.7	0.00e+00	0	34	0	3118465024	32	5470
2026-01-07 02:59:15.47	322.41	32.48	-29.1	-29.6	28.7	0.00e+00	0	34	0	3124756480	32	5461
2026-01-07 02:59:16.48	322.56	32.29	-29.1	-29.6	28.6	0.00e+00	0	34	0	3129999360	32	5483
2026-01-07 02:59:17.49	322.71	32.10	-29.2	-29.7	28.6	0.00e+00	0	34	0	3136290816	32	5524
2026-01-07 02:59:18.50	322.86	31.91	-29.3	-29.8	28.6	0.00e+00	0	34	0	3141533696	32	5594
2026-01-07 02:59:19.51	323.00	31.72	-29.2	-29.7	28.7	0.00e+00	0	34	0	3147825152	32	5535
2026-01-07 02:59:20.52	323.15	31.54	-29.3	-29.8	28.6	0.00e+00	0	34	0	3153068032	32	5579
2026-01-07 02:59:21.53	323.29	31.35	-29.4	-29.9	28.4	0.00e+00	0	34	0	3158310912	32	5653
2026-01-07 02:59:22.54	323.43	31.17	-29.5	-30.0	28.4	0.00e+00	0	34	0	3164602368	32	5750
2026-01-07 02:59:23.55	323.57	30.98	-29.5	-30.0	28.3	0.00e+00	0	34	0	3169845248	32	5731
2026-01-07 02:59:24.56	323.71	30.80	-29.6	-30.1	28.3	0.00e+00	0	34	0	3176136704	32	5792
2026-01-07 02:59:25.57	323.85	30.62	-29.6	-30.2	28.2	0.00e+00	0	34	0	3181379584	32	5851
2026-01-07 02:59:26.58	323.98	30.44	-29.6	-30.1	28.3	0.00e+00	0	34	0	3186622464	32	5826
2026-01-07 02:59:27.59	324.12	30.26	-29.6	-30.3	28.3	0.00e+00	0	34	0	3192913920	32	5930
2026-01-07 02:59:28.60	324.25	30.08	-29.6	-30.3	28.3	0.00e+00	0	34	0	3198156800	32	5915
2026-01-07 02:59:29.61	324.38	29.90	-29.6	-30.3	28.3	0.00e+00	0	34	0	3203399680	32	5942
2026-01-07 02:59:30.62	324.51	29.72	-29.6	-30.1	28.3	0.00e+00	0	34	0	3209691136	32	5799
2026-01-07 02:59:31.62	324.64	29.55	-29.6	-30.1	28.3	0.00e+00	0	34	0	3214934016	32	5794
2026-01-07 02:59:32.63	324.76	29.38	-29.5	-30.1	28.4	0.00e+00	0	34	0	3221225472	32	5828
2026-01-07 02:59:33.64	324.89	29.20	-29.5	-30.1	28.4	0.00e+00	0	34	0	3226468352	32	5816
2026-01-07 02:59:34.65	325.01	29.03	-29.5	-30.2	28.4	0.00e+00	0	34	0	3232759808	32	5836
2026-01-07 02:59:35.67	325.14	28.85	-29.4	-30.1	28.4	0.00e+00	0	34	0	3238002688	32	5784
2026-01-07 02:59:36.67	325.26	28.68	-29.4	-30.0	28.4	0.00e+00	0	34	0	3244294144	32	5736
2026-01-07 02:59:37.68	325.38	28.51	-29.4	-30.0	28.4	0.00e+00	0	34	0	3249537024	32	5696
2026-01-07 02:59:38.69	325.50	28.34	-29.3	-29.9	28.5	0.00e+00	0	34	0	3254779904	32	5636
2026-01-07 02:59:39.70	325.62	28.18	-29.3	-29.8	28.5	0.00e+00	0	34	0	3261071360	32	5623
2026-01-07 02:59:40.71	325.73	28.01	-29.3	-29.9	28.4	0.00e+00	0	34	0	3266314240	32	5632
2026-01-07 02:59:41.72	325.85	27.84	-29.4	-29.9	28.4	0.00e+00	0	34	0	3272605696	32	5673
2026-01-07 02:59:42.73	325.97	27.68	-29.5	-30.0	28.4	0.00e+00	0	34	0	3277848576	32	5743
2026-01-07 02:59:43.74	326.08	27.51	-29.4	-29.9	28.5	0.00e+00	0	34	0	3283091456	32	5670
2026-01-07 02:59:44.75	326.19	27.35	-29.5	-30.1	28.3	0.00e+00	0	34	0	3289382912	32	5774
2026-01-07 02:59:45.76	326.30	27.18	-29.6	-30.1	28.3	0.00e+00	0	34	0	3294625792	32	5779
2026-01-07 02:59:46.76	326.41	27.02	-29.8	-30.3	28.2	0.00e+00	0	34	0	3300917248	32	5937
2026-01-07 02:59:47.77	326.52	26.86	-29.7	-30.2	28.2	0.00e+00	0	34	0	3306160128	32	5864
2026-01-07 02:59:48.78	326.63	26.70	-29.7	-30.2	28.2	0.00e+00	0	34	0	3311403008	32	5885
2026-01-07 02:59:49.79	326.74	26.54	-29.8	-30.4	28.1	0.00e+00	0	34	0	3317694464	32	5977
2026-01-07 02:59:50.80	326.84	26.38	-29.7	-30.2	28.2	0.00e+00	0	34	0	3322937344	32	5883
2026-01-07 02:59:51.81	326.95	26.22	-29.8	-30.4	28.2	0.00e+00	0	34	0	3329228800	32	6023
2026-01-07 02:59:52.82	327.05	26.07	-29.7	-30.2	28.3	0.00e+00	0	34	0	3334471680	32	5884
2026-01-07 02:59:53.83	327.16	25.91	-29.7	-30.2	28.2	0.00e+00	0	34	0	3340763136	32	5880
2026-01-07 02:59:54.84	327.26	25.75	-29.6	-30.2	28.2	0.00e+00	0	34	0	3346006016	32	5838
2026-01-07 02:59:55.85	327.36	25.60	-29.6	-30.1	28.3	0.00e+00	0	34	0	3351248896	32	5817
2026-01-07 02:59:56.86	327.46	25.44	-29.6	-30.1	28.3	0.00e+00	0	34	0	3357540352	32	5820
2026-01-07 02:59:57.87	327.56	25.29	-29.7	-30.4	28.1	0.00e+00	0	34	0	3362783232	32	6006
2026-01-07 02:59:58.88	327.66	25.14	-29.7	-30.4	28.2	0.00e+00	0	34	0	3369074688	32	5996
2026-01-07 02:59:59.89	327.75	24.99	-29.8	-30.4	28.1	0.00e+00	0	34	0	3374317568	32	6027
2026-01-07 03:00:00.90	327.85	24.84	-29.8	-30.5	28.1	0.00e+00	0	34	0	3379560448	32	6034
2026-01-07 03:00:01.91	327.95	24.69	-29.9	-30.6	28.0	0.00e+00	0	34	0	3385851904	32	6127
2026-01-07 03:00:02.92	328.04	24.54	-30.0	-30.7	28.0	0.00e+00	0	34	0	3391094784	32	6227
2026-01-07 03:00:03.93	328.14	24.39	-30.0	-30.7	28.0	0.00e+00	0	34	0	3397386240	32	6175
2026-01-07 03:00:04.94	328.23	24.24	-30.1	-30.8	27.9	0.00e+00	0	34	0	3402629120	32	6303
2026-01-07 03:00:05.95	328.32	24.09	-30.1	-30.8	27.9	0.00e+00	0	34	0	3407872000	32	6275
2026-01-07 03:00:06.96	328.41	23.95	-30.2	-30.9	27.8	0.00e+00	0	34	0	3414163456	32	6336
2026-01-07 03:00:07.97	328.50	23.80	-30.2	-30.9	27.8	0.00e+00	0	34	0	3419406336	32	6344
2026-01-07 03:00:08.98	328.59	23.66	-30.2	-30.9	27.8	0.00e+00	0	34	0	3425697792	32	6337
2026-01-07 03:00:09.99	328.68	23.51	-30.3	-30.8	27.8	0.00e+00	0	34	0	3430940672	32	6284
2026-01-07 03:00:11.00	328.77	23.37	-30.3	-30.9	27.7	0.00e+00	0	34	0	3437232128	32	6320
2026-01-07 03:00:12.01	328.86	23.23	-30.3	-30.8	27.8	0.00e+00	0	34	0	3442475008	32	6302
2026-01-07 03:00:13.02	328.95	23.09	-30.3	-30.9	27.7	0.00e+00	0	34	0	3448766464	32	6348
2026-01-07 03:00:14.03	329.03	22.94	-30.2	-30.7	27.8	0.00e+00	0	34	0	3454009344	32	6243
2026-01-07 03:00:15.04	329.12	22.80	-30.3	-30.9	27.7	0.00e+00	0	34	0	3459252224	32	6332
2026-01-07 03:00:16.05	329.20	22.66	-30.4	-30.9	27.7	0.00e+00	0	34	0	3465543680	32	6352
2026-01-07 03:00:17.06	329.29	22.53	-30.3	-31.0	27.8	0.00e+00	0	34	0	3470786560	32	6431
2026-01-07 03:00:18.07	329.37	22.39	-30.4	-31.1	27.6	0.00e+00	0	34	0	3477078016	32	6508
2026-01-07 03:00:19.08	329.45	22.25	-30.4	-31.1	27.6	0.00e+00	0	34	0	3482320896	32	6522
2026-01-07 03:00:20.09	329.53	22.11	-30.4	-31.1	27.7	0.00e+00	0	34	0	3487563776	32	6486
2026-01-07 03:00:21.10	329.62	21.98	-30.4	-31.1	27.6	0.00e+00	0	34	0	3493855232	32	6493
2026-01-07 03:00:22.11	329.70	21.84	-30.4	-31.2	27.6	0.00e+00	0	34	0	3499098112	32	6541
2026-01-07 03:00:23.12	329.78	21.71	-30.5	-31.1	27.5	0.00e+00	0	34	0	3505389568	32	6473
2026-01-07 03:00:24.12	329.85	21.57	-30.5	-31.2	27.5	0.00e+00	0	34	0	3510632448	32	6609
2026-01-07 03:00:25.13	329.93	21.44	-30.7	-31.3	27.4	0.00e+00	0	34	0	3515875328	32	6624
2026-01-07 03:00:26.14	330.01	21.31	-30.6	-31.3	27.5	0.00e+00	0	34	0	3522166784	32	6677
2026-01-07 03:00:27.15	330.09	21.17	-30.7	-31.4	27.3	0.00e+00	0	34	0	3527409664	34	6007
2026-01-07 03:00:28.16	330.16	21.04	-30.6	-31.2	27.4	0.00e+00	0	34	0	3533701120	34	5865
2026-01-07 03:00:29.17	330.24	20.91	-30.7	-31.4	27.3	0.00e+00	0	34	0	3538944000	34	6007
2026-01-07 03:00:30.18	330.32	20.78	-30.8	-31.5	27.3	0.00e+00	0	34	0	3545235456	34	6049
2026-01-07 03:00:31.19	330.39	20.65	-30.8	-31.5	27.3	0.00e+00	0	34	0	3550478336	34	6059
2026-01-07 03:00:32.20	330.47	20.52	-30.9	-31.6	27.2	0.00e+00	0	34	0	3555721216	34	6124
2026-01-07 03:00:33.21	330.54	20.39	-30.8	-31.5	27.2	0.00e+00	0	34	0	3562012672	34	6103
2026-01-07 03:00:34.22	330.61	20.27	-30.9	-31.6	27.3	0.00e+00	0	34	0	3567255552	34	6156
2026-01-07 03:00:35.23	330.68	20.14	-31.1	-31.8	27.1	0.00e+00	0	34	0	3573547008	34	6246
2026-01-07 03:00:36.24	330.76	20.01	-30.9	-31.6	27.2	0.00e+00	0	34	0	3578789888	34	6152
2026-01-07 03:00:37.24	330.83	19.89	-31.0	-31.7	27.1	0.00e+00	0	34	0	3584032768	34	6225
2026-01-07 03:00:38.26	330.90	19.76	-31.0	-31.7	27.2	0.00e+00	0	34	0	3590324224	34	6182
2026-01-07 03:00:39.26	330.97	19.64	-31.2	-31.9	27.0	0.00e+00	0	34	0	3595567104	34	6381
2026-01-07 03:00:40.28	331.04	19.51	-31.0	-31.7	27.1	0.00e+00	0	34	0	3601858560	34	6216
2026-01-07 03:00:41.28	331.11	19.39	-31.0	-31.5	27.1	0.00e+00	0	34	0	3607101440	34	6098
