passes_logs/2026/01/07/R4.6S_Anadyr/R4.6S_Anadyr__20260107_191424_NOAA_20_JPSS-1_rec.log

#Pass ID: 20260107_191424_NOAA 20 (JPSS-1)
#Satellite: NOAA 20 (JPSS-1)
#Configuration: NOAA 20
#almurnet v.1.7.20251203
#Start time: 2026-01-07 19:14:27

#Version: 2.2.20231116
#Station: R4.6S_Anadyr
#Location: 177.4865 lon 64.73178 lat
#TLE: 1 43013U 17073A   26005.46207808  .00000128  00000+0  81791-4 0  9997
#TLE: 2 43013  98.7627 306.5027 0001826  53.0458 307.0885 14.19533487421381

#Time	Az	El	Level	Level2	SNR	BER	BlckErr	Temp	State	Recorded	gain1	gain2
2026-01-07 19:14:27.11	50.35	0.11	-49.0	-64.3	3.5	1.51e+00	0	36	0	0	60	59006
2026-01-07 19:14:28.11	50.27	0.16	-48.9	-64.5	3.6	1.51e+00	0	37	104	0	60	60461
2026-01-07 19:14:29.12	50.19	0.21	-48.9	-64.5	3.6	1.51e+00	0	37	104	0	60	60482
2026-01-07 19:14:30.13	50.12	0.25	-48.9	-64.5	3.6	1.51e+00	0	37	104	0	60	60798
2026-01-07 19:14:31.14	50.04	0.30	-48.9	-64.4	3.6	1.51e+00	0	37	104	0	60	60088
2026-01-07 19:14:32.15	49.96	0.35	-48.9	-64.5	3.6	1.51e+00	0	37	104	0	60	60705
2026-01-07 19:14:33.16	49.89	0.40	-48.9	-64.5	3.6	1.51e+00	0	37	104	0	60	60709
2026-01-07 19:14:34.17	49.81	0.45	-48.9	-64.5	3.6	1.51e+00	0	37	104	0	60	60496
2026-01-07 19:14:35.18	49.73	0.50	-48.9	-64.5	3.6	1.51e+00	0	37	104	0	60	60918
2026-01-07 19:14:36.19	49.65	0.55	-48.9	-64.5	3.6	1.51e+00	0	37	104	0	60	60538
2026-01-07 19:14:37.20	49.57	0.60	-48.9	-64.5	3.6	1.51e+00	0	37	104	0	60	60720
2026-01-07 19:14:38.21	49.49	0.65	-48.9	-64.5	3.6	1.51e+00	0	37	104	0	60	60899
2026-01-07 19:14:39.22	49.41	0.70	-48.9	-64.5	3.6	1.51e+00	0	37	104	0	60	60567
2026-01-07 19:14:40.23	49.33	0.75	-48.9	-64.5	3.6	1.51e+00	0	37	104	0	60	60541
2026-01-07 19:14:41.23	49.26	0.80	-48.9	-64.5	3.6	1.51e+00	0	37	104	0	60	60581
2026-01-07 19:14:42.24	49.18	0.85	-48.9	-64.5	3.6	1.51e+00	0	37	104	0	60	60388
2026-01-07 19:14:43.25	49.10	0.89	-48.9	-64.5	3.6	1.51e+00	0	37	104	0	60	60497
2026-01-07 19:14:44.26	49.02	0.94	-48.9	-64.5	3.6	1.51e+00	0	37	104	0	60	60624
2026-01-07 19:14:45.27	48.93	0.99	-48.9	-64.5	3.6	1.51e+00	0	37	104	0	60	60803
2026-01-07 19:14:46.28	48.85	1.04	-48.9	-64.5	3.6	1.51e+00	0	37	104	0	60	60420
2026-01-07 19:14:47.29	48.77	1.09	-48.9	-64.5	3.6	1.51e+00	0	37	104	0	60	60741
2026-01-07 19:14:48.30	48.69	1.14	-48.9	-64.5	3.6	1.51e+00	0	37	104	0	60	60520
2026-01-07 19:14:49.31	48.61	1.19	-48.9	-64.5	3.6	1.51e+00	0	37	104	0	60	60411
2026-01-07 19:14:50.32	48.53	1.24	-48.9	-64.5	3.6	1.51e+00	0	37	104	0	60	60717
2026-01-07 19:14:51.33	48.44	1.29	-48.9	-64.5	3.6	1.51e+00	0	37	104	0	60	60650
2026-01-07 19:14:52.34	48.36	1.34	-48.9	-64.5	3.6	1.51e+00	0	37	104	0	60	60764
2026-01-07 19:14:53.35	48.28	1.39	-48.9	-64.5	3.6	1.51e+00	0	37	104	0	60	60625
2026-01-07 19:14:54.36	48.19	1.44	-48.9	-64.5	3.6	1.51e+00	0	37	104	0	60	60692
2026-01-07 19:14:55.37	48.11	1.49	-48.9	-64.5	3.6	1.51e+00	0	37	104	0	60	60441
2026-01-07 19:14:56.38	48.03	1.54	-48.9	-64.5	3.6	1.51e+00	0	37	104	0	60	60614
2026-01-07 19:14:57.38	47.94	1.59	-48.9	-64.5	3.6	1.51e+00	0	37	104	0	60	60435
2026-01-07 19:14:58.39	47.86	1.64	-48.9	-64.5	3.6	1.51e+00	0	38	104	0	60	60608
2026-01-07 19:14:59.40	47.77	1.69	-48.9	-64.5	3.6	1.51e+00	0	37	104	0	60	60793
2026-01-07 19:15:00.41	47.69	1.74	-48.9	-64.5	3.6	1.51e+00	0	37	104	0	60	60494
2026-01-07 19:15:01.42	47.60	1.79	-48.9	-64.5	3.6	1.51e+00	0	37	104	0	60	60760
2026-01-07 19:15:02.43	47.52	1.84	-48.9	-64.5	3.6	1.51e+00	0	37	104	0	60	60676
2026-01-07 19:15:03.44	47.43	1.89	-48.9	-64.5	3.6	1.51e+00	0	38	104	0	60	60737
2026-01-07 19:15:04.45	47.34	1.94	-48.9	-64.5	3.6	1.51e+00	0	37	104	0	60	60991
2026-01-07 19:15:05.46	47.26	1.99	-48.9	-64.5	3.6	1.51e+00	0	37	104	0	60	60715
2026-01-07 19:15:06.47	47.17	2.04	-48.9	-64.5	3.6	1.51e+00	0	37	104	0	60	60708
2026-01-07 19:15:07.48	47.08	2.09	-48.9	-64.5	3.6	1.51e+00	0	37	104	0	60	60750
2026-01-07 19:15:08.49	47.00	2.14	-48.9	-64.5	3.6	1.51e+00	0	37	104	0	60	60665
2026-01-07 19:15:09.50	46.91	2.19	-48.9	-64.5	3.6	1.51e+00	0	38	104	0	60	60621
2026-01-07 19:15:10.51	46.82	2.24	-48.9	-64.5	3.6	1.51e+00	0	38	104	0	60	60723
2026-01-07 19:15:11.52	46.73	2.29	-48.9	-64.5	3.6	1.51e+00	0	37	104	0	60	60734
2026-01-07 19:15:12.52	46.64	2.34	-48.9	-64.5	3.6	1.51e+00	0	38	104	0	60	60584
2026-01-07 19:15:13.53	46.55	2.39	-48.9	-64.5	3.6	1.51e+00	0	38	104	0	60	60655
2026-01-07 19:15:14.54	46.46	2.44	-48.9	-64.5	3.6	1.51e+00	0	38	104	0	60	60539
2026-01-07 19:15:15.55	46.37	2.49	-48.9	-64.5	3.6	1.51e+00	0	38	104	0	60	60457
2026-01-07 19:15:16.56	46.28	2.54	-48.9	-64.5	3.5	1.51e+00	0	38	104	0	60	60669
2026-01-07 19:15:17.57	46.19	2.59	-48.9	-64.5	3.6	1.51e+00	0	38	104	0	60	60754
2026-01-07 19:15:18.58	46.10	2.64	-48.9	-64.5	3.6	1.51e+00	0	37	104	0	60	60765
2026-01-07 19:15:19.59	46.01	2.69	-48.9	-64.5	3.6	1.51e+00	0	38	104	0	60	60539
2026-01-07 19:15:20.60	45.92	2.74	-48.9	-64.5	3.6	1.51e+00	0	38	104	0	60	60665
2026-01-07 19:15:21.61	45.83	2.79	-48.9	-64.5	3.6	1.51e+00	0	38	104	0	60	60718
2026-01-07 19:15:22.62	45.74	2.85	-48.9	-64.5	3.6	1.51e+00	0	38	104	0	60	60589
2026-01-07 19:15:23.63	45.64	2.90	-48.9	-64.5	3.6	1.51e+00	0	38	104	0	60	60611
2026-01-07 19:15:24.64	45.55	2.95	-48.9	-64.5	3.6	1.51e+00	0	38	104	0	60	61032
2026-01-07 19:15:25.65	45.46	3.00	-48.9	-64.5	3.6	1.51e+00	0	38	104	0	60	60527
2026-01-07 19:15:26.66	45.37	3.05	-48.9	-64.5	3.6	1.51e+00	0	38	104	0	60	60623
2026-01-07 19:15:27.67	45.27	3.10	-48.9	-64.5	3.6	1.51e+00	0	38	104	0	60	60804
2026-01-07 19:15:28.68	45.18	3.15	-48.9	-64.5	3.6	1.51e+00	0	38	104	0	60	60798
2026-01-07 19:15:29.69	45.08	3.20	-48.9	-64.5	3.6	1.51e+00	0	38	104	0	60	60772
2026-01-07 19:15:30.70	44.99	3.25	-48.9	-64.5	3.6	1.51e+00	0	38	104	0	60	60641
2026-01-07 19:15:31.72	44.89	3.30	-48.9	-64.5	3.6	1.51e+00	0	38	104	0	60	60605
2026-01-07 19:15:32.73	44.80	3.35	-48.9	-64.6	3.6	1.51e+00	0	38	104	0	60	61059
2026-01-07 19:15:33.74	44.70	3.40	-48.9	-64.5	3.6	1.51e+00	0	38	104	0	60	60796
2026-01-07 19:15:34.75	44.60	3.45	-48.9	-64.5	3.6	1.51e+00	0	38	104	0	60	60988
2026-01-07 19:15:35.76	44.51	3.50	-48.9	-64.5	3.6	1.51e+00	0	38	104	0	60	60898
2026-01-07 19:15:36.77	44.41	3.55	-48.9	-64.5	3.6	1.51e+00	0	38	104	0	60	60541
2026-01-07 19:15:37.78	44.31	3.61	-48.9	-64.5	3.6	1.51e+00	0	38	104	0	60	60455
2026-01-07 19:15:38.79	44.22	3.66	-48.9	-64.5	3.6	1.51e+00	0	38	104	0	60	60749
2026-01-07 19:15:39.80	44.12	3.71	-48.9	-64.5	3.6	1.51e+00	0	38	104	0	60	60805
2026-01-07 19:15:40.81	44.02	3.76	-48.9	-64.5	3.6	1.51e+00	0	38	104	0	60	60784
2026-01-07 19:15:41.82	43.92	3.81	-48.9	-64.5	3.6	1.51e+00	0	38	104	0	60	60623
2026-01-07 19:15:42.83	43.82	3.86	-48.9	-64.5	3.6	1.51e+00	0	38	104	0	60	60488
2026-01-07 19:15:43.84	43.72	3.91	-48.9	-64.5	3.5	1.51e+00	0	38	104	0	60	60819
2026-01-07 19:15:44.84	43.63	3.96	-48.9	-64.5	3.5	1.51e+00	0	38	104	0	60	60942
2026-01-07 19:15:45.85	43.53	4.01	-48.9	-64.5	3.6	1.51e+00	0	38	104	0	60	60588
2026-01-07 19:15:46.86	43.43	4.06	-48.9	-64.5	3.5	1.51e+00	0	38	104	0	60	60624
2026-01-07 19:15:47.87	43.32	4.11	-48.9	-64.5	3.6	1.51e+00	0	38	104	0	60	60958
2026-01-07 19:15:48.88	43.22	4.17	-48.9	-64.5	3.6	1.51e+00	0	38	104	0	60	60624
2026-01-07 19:15:49.89	43.12	4.22	-48.9	-64.5	3.6	1.51e+00	0	38	104	0	60	60780
2026-01-07 19:15:50.90	43.02	4.27	-48.9	-64.5	3.6	1.51e+00	0	38	104	0	60	60749
2026-01-07 19:15:51.91	42.92	4.32	-48.9	-64.5	3.6	1.51e+00	0	38	104	0	60	60410
2026-01-07 19:15:52.92	42.82	4.37	-48.9	-64.5	3.6	1.51e+00	0	38	104	0	60	60396
2026-01-07 19:15:53.93	42.71	4.42	-48.9	-64.5	3.6	1.51e+00	0	38	104	0	60	60529
2026-01-07 19:15:54.94	42.61	4.47	-48.9	-64.5	3.6	1.51e+00	0	38	104	0	60	60768
2026-01-07 19:15:55.95	42.51	4.52	-48.9	-64.5	3.6	1.51e+00	0	38	104	0	60	60562
2026-01-07 19:15:56.95	42.40	4.57	-48.9	-64.5	3.6	1.51e+00	0	38	104	0	60	60517
2026-01-07 19:15:57.96	42.30	4.62	-48.9	-64.5	3.6	1.51e+00	0	38	104	0	60	60518
2026-01-07 19:15:58.98	42.19	4.68	-48.9	-64.5	3.6	1.51e+00	0	38	104	0	60	60614
2026-01-07 19:15:59.99	42.09	4.73	-48.9	-64.5	3.6	1.51e+00	0	38	104	0	60	60538
2026-01-07 19:16:00.99	41.98	4.78	-48.9	-64.5	3.6	1.51e+00	0	38	104	0	60	60848
2026-01-07 19:16:02.00	41.88	4.83	-48.9	-64.6	3.6	1.51e+00	0	38	104	0	60	61118
2026-01-07 19:16:03.01	41.77	4.88	-48.9	-64.5	3.6	1.51e+00	0	38	104	0	60	60385
2026-01-07 19:16:04.02	41.66	4.93	-48.9	-64.5	3.6	1.51e+00	0	38	104	0	60	60561
2026-01-07 19:16:05.03	41.56	4.98	-48.9	-64.5	3.6	1.51e+00	0	38	104	0	60	60719
2026-01-07 19:16:06.04	41.45	5.03	-48.9	-64.5	3.6	1.51e+00	0	38	104	0	60	60741
2026-01-07 19:16:07.05	41.34	5.08	-48.9	-64.5	3.6	1.51e+00	0	38	104	0	60	60728
2026-01-07 19:16:08.06	41.23	5.13	-48.9	-64.5	3.6	1.51e+00	0	38	104	0	60	60904
2026-01-07 19:16:09.07	41.13	5.19	-48.9	-64.5	3.6	1.51e+00	0	38	104	0	60	60724
2026-01-07 19:16:10.08	41.02	5.24	-48.9	-64.4	3.6	1.51e+00	0	38	104	0	60	60286
2026-01-07 19:16:11.09	40.91	5.29	-48.9	-64.5	3.6	1.51e+00	0	38	104	0	60	60984
2026-01-07 19:16:12.10	40.80	5.34	-48.9	-64.5	3.6	1.51e+00	0	38	104	0	60	60752
2026-01-07 19:16:13.11	40.69	5.39	-48.9	-64.5	3.6	1.51e+00	0	38	104	0	60	60676
2026-01-07 19:16:14.12	40.58	5.44	-48.9	-64.5	3.6	1.51e+00	0	38	104	0	60	60932
2026-01-07 19:16:15.13	40.47	5.49	-48.9	-64.5	3.6	1.51e+00	0	38	104	0	60	60580
2026-01-07 19:16:16.14	40.35	5.54	-48.9	-64.5	3.6	1.51e+00	0	38	104	0	60	60681
2026-01-07 19:16:17.15	40.24	5.59	-48.9	-64.5	3.6	1.51e+00	0	38	104	0	60	60833
2026-01-07 19:16:18.16	40.13	5.65	-48.9	-64.5	3.6	1.51e+00	0	38	104	0	60	60654
2026-01-07 19:16:19.16	40.02	5.70	-48.9	-64.5	3.6	1.51e+00	0	38	104	0	60	60380
2026-01-07 19:16:20.17	39.91	5.75	-48.9	-64.5	3.6	1.51e+00	0	38	104	0	60	60733
2026-01-07 19:16:21.18	39.79	5.80	-48.9	-64.5	3.6	1.51e+00	0	38	104	0	60	60915
2026-01-07 19:16:22.19	39.68	5.85	-48.9	-64.5	3.6	1.51e+00	0	38	104	0	60	60574
2026-01-07 19:16:23.20	39.56	5.90	-48.9	-64.5	3.6	1.51e+00	0	38	104	0	60	60731
2026-01-07 19:16:24.21	39.45	5.95	-48.9	-64.5	3.6	1.51e+00	0	38	104	0	60	60597
2026-01-07 19:16:25.22	39.34	6.00	-48.9	-64.5	3.6	1.51e+00	0	38	104	0	60	60579
2026-01-07 19:16:26.23	39.22	6.05	-48.9	-64.5	3.6	1.51e+00	0	38	104	0	60	60667
2026-01-07 19:16:27.24	39.10	6.11	-48.9	-64.5	3.6	1.51e+00	0	38	104	0	60	60614
2026-01-07 19:16:28.25	38.99	6.16	-48.9	-64.4	3.6	1.51e+00	0	38	104	0	60	60307
2026-01-07 19:16:29.26	38.87	6.21	-48.9	-64.5	3.6	1.51e+00	0	38	104	0	60	60506
2026-01-07 19:16:30.27	38.75	6.26	-48.9	-64.5	3.6	1.51e+00	0	38	104	0	60	60625
2026-01-07 19:16:31.28	38.64	6.31	-48.9	-64.5	3.6	1.51e+00	0	38	104	0	60	60441
2026-01-07 19:16:32.29	38.52	6.36	-48.9	-64.5	3.6	1.51e+00	0	38	104	0	60	60876
2026-01-07 19:16:33.30	38.40	6.41	-48.9	-64.5	3.6	1.51e+00	0	38	104	0	60	60960
2026-01-07 19:16:34.31	38.28	6.46	-48.9	-64.5	3.6	1.51e+00	0	38	104	0	60	60689
2026-01-07 19:16:35.32	38.16	6.51	-48.9	-64.5	3.6	1.51e+00	0	38	104	0	60	60781
2026-01-07 19:16:36.32	38.04	6.56	-48.9	-64.5	3.6	1.51e+00	0	38	104	0	60	60718
2026-01-07 19:16:37.33	37.92	6.61	-48.9	-64.5	3.6	1.51e+00	0	38	104	0	60	60451
2026-01-07 19:16:38.34	37.80	6.67	-48.9	-64.5	3.6	1.51e+00	0	38	104	0	60	60828
2026-01-07 19:16:39.36	37.68	6.72	-48.9	-64.5	3.5	1.51e+00	0	38	104	0	60	60784
2026-01-07 19:16:40.37	37.56	6.77	-48.9	-64.5	3.6	1.51e+00	0	38	104	0	60	60738
2026-01-07 19:16:41.37	37.44	6.82	-48.9	-64.5	3.6	1.51e+00	0	38	104	0	60	60578
2026-01-07 19:16:42.38	37.32	6.87	-48.9	-64.5	3.6	1.51e+00	0	38	104	0	60	60586
2026-01-07 19:16:43.40	37.19	6.92	-48.9	-64.5	3.6	1.51e+00	0	38	104	0	60	60559
2026-01-07 19:16:44.41	37.07	6.97	-48.9	-64.5	3.6	1.51e+00	0	38	104	0	60	60929
2026-01-07 19:16:45.41	36.95	7.02	-48.9	-64.5	3.6	1.51e+00	0	38	104	0	60	60741
2026-01-07 19:16:46.42	36.82	7.07	-48.9	-64.5	3.6	1.51e+00	0	38	104	0	60	60662
2026-01-07 19:16:47.43	36.70	7.12	-48.9	-64.5	3.6	1.51e+00	0	38	104	0	60	60727
2026-01-07 19:16:48.44	36.57	7.17	-48.9	-64.5	3.6	1.51e+00	0	38	104	0	60	60880
2026-01-07 19:16:49.45	36.45	7.22	-48.9	-64.5	3.6	1.51e+00	0	38	104	0	60	60418
2026-01-07 19:16:50.46	36.32	7.27	-48.9	-64.5	3.6	1.51e+00	0	38	104	0	60	60492
2026-01-07 19:16:51.47	36.20	7.32	-48.9	-64.5	3.6	1.51e+00	0	38	104	0	60	60730
2026-01-07 19:16:52.48	36.07	7.37	-48.9	-64.5	3.6	1.51e+00	0	38	104	0	60	60676
2026-01-07 19:16:53.49	35.94	7.43	-48.9	-64.5	3.6	1.51e+00	0	38	104	0	60	60881
2026-01-07 19:16:54.50	35.81	7.48	-48.9	-64.5	3.6	1.51e+00	0	38	104	0	60	60713
2026-01-07 19:16:55.51	35.69	7.53	-48.9	-64.5	3.6	1.51e+00	0	38	104	0	60	60683
2026-01-07 19:16:56.52	35.56	7.58	-48.9	-64.5	3.6	1.51e+00	0	38	104	0	60	60513
2026-01-07 19:16:57.53	35.43	7.63	-48.9	-64.5	3.6	1.51e+00	0	38	104	0	60	60807
2026-01-07 19:16:58.54	35.30	7.68	-48.9	-64.5	3.6	1.51e+00	0	38	104	0	60	60721
2026-01-07 19:16:59.55	35.17	7.73	-48.9	-64.5	3.6	1.51e+00	0	38	104	0	60	60567
2026-01-07 19:17:00.56	35.04	7.78	-48.9	-64.6	3.6	1.51e+00	0	38	104	0	60	61041
2026-01-07 19:17:01.57	34.91	7.83	-48.9	-64.5	3.6	1.51e+00	0	38	104	0	60	60440
2026-01-07 19:17:02.58	34.78	7.88	-48.9	-64.5	3.6	1.51e+00	0	38	104	0	60	60533
2026-01-07 19:17:03.59	34.65	7.93	-48.9	-64.5	3.6	1.51e+00	0	38	104	0	60	60449
2026-01-07 19:17:04.60	34.51	7.98	-48.9	-64.5	3.6	1.51e+00	0	38	104	0	60	60607
2026-01-07 19:17:05.61	34.38	8.03	-48.9	-64.5	3.6	1.51e+00	0	38	104	0	60	60678
2026-01-07 19:17:06.62	34.25	8.08	-48.9	-64.5	3.6	1.51e+00	0	38	104	0	60	60457
2026-01-07 19:17:07.63	34.11	8.13	-48.9	-64.5	3.6	1.51e+00	0	38	104	0	60	60434
2026-01-07 19:17:08.64	33.98	8.18	-48.9	-64.5	3.6	1.51e+00	0	38	104	0	60	60527
2026-01-07 19:17:09.65	33.85	8.23	-48.9	-64.5	3.6	1.51e+00	0	38	104	0	60	60618
2026-01-07 19:17:10.66	33.71	8.28	-49.0	-64.5	3.6	1.51e+00	0	38	104	0	60	60825
2026-01-07 19:17:11.67	33.58	8.33	-48.9	-64.5	3.6	1.51e+00	0	38	104	0	60	60681
2026-01-07 19:17:12.68	33.44	8.38	-48.9	-64.5	3.6	1.51e+00	0	38	104	0	60	60423
2026-01-07 19:17:13.69	33.30	8.43	-48.9	-64.5	3.6	1.51e+00	0	38	104	0	60	60667
2026-01-07 19:17:14.70	33.17	8.48	-48.9	-64.5	3.6	1.51e+00	0	38	104	0	60	60588
2026-01-07 19:17:15.71	33.03	8.52	-48.9	-64.5	3.6	1.51e+00	0	38	104	0	60	60695
2026-01-07 19:17:16.72	32.89	8.57	-48.9	-64.5	3.6	1.51e+00	0	38	104	0	60	60609
2026-01-07 19:17:17.73	32.75	8.62	-48.9	-64.5	3.6	1.51e+00	0	38	104	0	60	60773
2026-01-07 19:17:18.74	32.61	8.67	-48.9	-64.5	3.6	1.51e+00	0	38	104	0	60	60866
2026-01-07 19:17:19.75	32.47	8.72	-48.9	-64.5	3.6	1.51e+00	0	38	104	0	60	60660
2026-01-07 19:17:20.76	32.33	8.77	-48.9	-64.5	3.6	1.51e+00	0	38	104	0	60	60468
2026-01-07 19:17:21.77	32.19	8.82	-48.9	-64.5	3.6	1.51e+00	0	38	104	0	60	60761
2026-01-07 19:17:22.78	32.05	8.87	-49.0	-64.5	3.6	1.51e+00	0	38	104	0	60	60710
2026-01-07 19:17:23.79	31.91	8.92	-48.9	-64.5	3.6	1.51e+00	0	38	104	0	60	60642
2026-01-07 19:17:24.80	31.77	8.97	-49.0	-64.5	3.6	1.51e+00	0	38	104	0	60	60584
2026-01-07 19:17:25.81	31.63	9.02	-48.9	-64.5	3.6	1.51e+00	0	38	104	0	60	60666
2026-01-07 19:17:26.82	31.49	9.06	-48.9	-64.5	3.6	1.51e+00	0	38	104	0	60	60786
2026-01-07 19:17:27.83	31.34	9.11	-48.9	-64.5	3.6	1.51e+00	0	38	104	0	60	60701
2026-01-07 19:17:28.84	31.20	9.16	-48.9	-64.5	3.6	1.51e+00	0	38	104	0	60	60530
2026-01-07 19:17:29.85	31.06	9.21	-48.9	-64.4	3.6	1.51e+00	0	38	104	0	60	60263
2026-01-07 19:17:30.86	30.91	9.26	-48.9	-64.5	3.6	1.51e+00	0	38	104	0	60	60696
2026-01-07 19:17:31.87	30.77	9.31	-48.9	-64.5	3.6	1.51e+00	0	38	104	0	60	60702
2026-01-07 19:17:32.88	30.62	9.35	-48.9	-64.5	3.6	1.51e+00	0	38	104	0	60	60587
2026-01-07 19:17:33.89	30.47	9.40	-49.0	-64.5	3.6	1.51e+00	0	38	104	0	60	60499
2026-01-07 19:17:34.90	30.33	9.45	-48.9	-64.5	3.6	1.51e+00	0	38	104	0	60	60456
2026-01-07 19:17:35.91	30.18	9.50	-48.9	-64.5	3.6	1.51e+00	0	38	104	0	60	60807
2026-01-07 19:17:36.92	30.03	9.55	-48.9	-64.5	3.6	1.51e+00	0	38	104	0	60	60502
2026-01-07 19:17:37.93	29.88	9.59	-48.9	-64.5	3.6	1.51e+00	0	38	104	0	60	60660
2026-01-07 19:17:38.93	29.74	9.64	-49.0	-64.5	3.6	1.51e+00	0	38	104	0	60	60453
2026-01-07 19:17:39.94	29.59	9.69	-48.9	-64.5	3.6	1.51e+00	0	38	104	0	60	60786
2026-01-07 19:17:40.95	29.44	9.74	-48.9	-64.5	3.6	1.51e+00	0	38	104	0	60	60710
2026-01-07 19:17:41.96	29.29	9.78	-48.9	-64.5	3.6	1.51e+00	0	38	104	0	60	60503
2026-01-07 19:17:42.97	29.14	9.83	-49.0	-64.5	3.6	1.51e+00	0	38	104	0	60	60697
2026-01-07 19:17:43.98	28.99	9.88	-49.0	-64.5	3.6	1.51e+00	0	38	104	0	60	60766
2026-01-07 19:17:44.99	28.84	9.93	-48.9	-64.5	3.6	1.51e+00	0	38	104	0	60	60775
2026-01-07 19:17:46.00	28.68	9.97	-48.9	-64.5	3.6	1.51e+00	0	38	104	0	60	60546
2026-01-07 19:17:47.01	28.53	10.02	-49.0	-64.5	3.6	1.51e+00	0	38	104	0	60	60571
2026-01-07 19:17:48.02	28.38	10.07	-48.9	-64.4	3.6	1.51e+00	0	38	104	0	60	60239
2026-01-07 19:17:49.03	28.23	10.11	-48.9	-64.4	3.6	1.51e+00	0	38	104	0	60	60304
2026-01-07 19:17:50.04	28.07	10.16	-48.9	-64.5	3.6	1.51e+00	0	38	104	0	60	60483
2026-01-07 19:17:51.05	27.92	10.21	-49.0	-64.5	3.6	1.51e+00	0	38	104	0	60	60506
2026-01-07 19:17:52.05	27.76	10.25	-48.9	-64.5	3.5	1.51e+00	0	38	104	0	60	60465
2026-01-07 19:17:53.06	27.61	10.30	-49.0	-64.5	3.6	1.51e+00	0	38	104	0	60	60637
2026-01-07 19:17:54.08	27.45	10.34	-49.0	-64.5	3.6	1.51e+00	0	38	104	0	60	60467
2026-01-07 19:17:55.09	27.29	10.39	-49.0	-64.5	3.6	1.51e+00	0	38	104	0	60	60465
2026-01-07 19:17:56.09	27.14	10.44	-49.0	-64.5	3.6	1.51e+00	0	38	104	0	60	60598
2026-01-07 19:17:57.10	26.98	10.48	-49.0	-64.5	3.6	1.51e+00	0	38	104	0	60	60395
2026-01-07 19:17:58.11	26.82	10.53	-49.0	-64.5	3.6	1.51e+00	0	38	104	0	60	60390
2026-01-07 19:17:59.12	26.66	10.57	-49.0	-64.5	3.6	1.51e+00	0	38	104	0	60	60534
2026-01-07 19:18:00.13	26.51	10.62	-49.0	-64.5	3.6	1.51e+00	0	38	104	0	60	60511
2026-01-07 19:18:01.14	26.35	10.66	-49.0	-64.5	3.6	1.51e+00	0	38	104	0	60	60458
2026-01-07 19:18:02.15	26.19	10.71	-49.0	-64.5	3.6	1.51e+00	0	38	104	0	60	60822
2026-01-07 19:18:03.16	26.03	10.75	-49.0	-64.4	3.6	1.51e+00	0	38	104	0	60	60330
2026-01-07 19:18:04.17	25.86	10.80	-49.0	-64.4	3.6	1.51e+00	0	38	104	0	60	60321
2026-01-07 19:18:05.19	25.70	10.84	-49.0	-64.4	3.6	1.51e+00	0	38	104	0	60	60304
2026-01-07 19:18:06.19	25.54	10.89	-49.0	-64.4	3.6	1.51e+00	0	38	104	0	60	60184
2026-01-07 19:18:07.21	25.38	10.93	-49.0	-64.5	3.5	1.51e+00	0	38	104	0	60	60461
2026-01-07 19:18:08.21	25.22	10.98	-48.9	-64.5	3.6	1.51e+00	0	38	104	0	60	60370
2026-01-07 19:18:09.23	25.05	11.02	-49.0	-64.5	3.6	1.51e+00	0	38	104	0	60	60489
2026-01-07 19:18:10.23	24.89	11.06	-48.9	-64.5	3.6	1.51e+00	0	38	104	0	60	60663
2026-01-07 19:18:11.25	24.72	11.11	-48.9	-64.5	3.6	1.51e+00	0	38	104	0	60	60711
2026-01-07 19:18:12.25	24.56	11.15	-49.0	-64.5	3.6	1.51e+00	0	38	104	0	60	60341
2026-01-07 19:18:13.27	24.39	11.19	-49.0	-64.5	3.6	1.51e+00	0	38	104	0	60	60506
2026-01-07 19:18:14.28	24.23	11.24	-48.9	-64.5	3.6	1.51e+00	0	38	104	0	60	60723
2026-01-07 19:18:15.29	24.06	11.28	-49.0	-64.5	3.6	1.51e+00	0	38	104	0	60	60435
2026-01-07 19:18:16.30	23.89	11.32	-49.0	-64.5	3.6	1.51e+00	0	38	104	0	60	60816
2026-01-07 19:18:17.31	23.72	11.37	-49.0	-64.4	3.6	1.51e+00	0	38	104	0	60	60229
2026-01-07 19:18:18.32	23.56	11.41	-49.0	-64.5	3.6	1.51e+00	0	38	104	0	60	60561
2026-01-07 19:18:19.33	23.39	11.45	-49.0	-64.5	3.6	1.51e+00	0	38	104	0	60	60724
2026-01-07 19:18:20.34	23.22	11.49	-49.0	-64.5	3.6	1.51e+00	0	38	104	0	60	60735
2026-01-07 19:18:21.35	23.05	11.54	-49.0	-64.5	3.6	1.51e+00	0	38	104	0	60	60603
2026-01-07 19:18:22.36	22.88	11.58	-49.0	-64.5	3.6	1.51e+00	0	38	104	0	60	60631
2026-01-07 19:18:23.37	22.71	11.62	-49.0	-64.4	3.6	1.51e+00	0	38	104	0	60	60325
2026-01-07 19:18:24.38	22.54	11.66	-49.0	-64.4	3.6	1.51e+00	0	38	104	0	60	60168
2026-01-07 19:18:25.38	22.37	11.70	-49.0	-64.5	3.6	1.51e+00	0	38	104	0	60	60581
2026-01-07 19:18:26.39	22.20	11.74	-49.0	-64.5	3.6	1.51e+00	0	38	104	0	60	60543
2026-01-07 19:18:27.40	22.02	11.78	-49.0	-64.5	3.6	1.51e+00	0	38	104	0	60	60368
2026-01-07 19:18:28.41	21.85	11.83	-49.0	-64.5	3.6	1.51e+00	0	38	104	0	60	60640
2026-01-07 19:18:29.42	21.68	11.87	-49.0	-64.5	3.6	1.51e+00	0	38	104	0	60	60586
2026-01-07 19:18:30.43	21.50	11.91	-49.0	-64.5	3.6	1.51e+00	0	38	104	0	60	60693
2026-01-07 19:18:31.44	21.33	11.95	-49.0	-64.5	3.6	1.51e+00	0	38	104	0	60	60934
2026-01-07 19:18:32.45	21.16	11.99	-48.9	-64.5	3.6	1.51e+00	0	38	104	0	60	60868
2026-01-07 19:18:33.46	20.98	12.03	-48.9	-64.5	3.6	1.51e+00	0	38	104	0	60	60657
2026-01-07 19:18:34.47	20.80	12.07	-48.9	-64.5	3.6	1.51e+00	0	38	104	0	60	60625
2026-01-07 19:18:35.48	20.63	12.11	-48.9	-64.5	3.6	1.51e+00	0	38	104	0	60	60501
2026-01-07 19:18:36.49	20.45	12.15	-48.9	-64.5	3.6	1.51e+00	0	38	104	0	60	60636
2026-01-07 19:18:37.50	20.27	12.18	-49.0	-64.5	3.6	1.51e+00	0	38	104	0	60	60854
2026-01-07 19:18:38.51	20.10	12.22	-49.0	-64.5	3.6	1.51e+00	0	38	104	0	60	60620
2026-01-07 19:18:39.52	19.92	12.26	-49.0	-64.5	3.6	1.51e+00	0	38	104	0	60	60583
2026-01-07 19:18:40.53	19.74	12.30	-49.0	-64.5	3.6	1.51e+00	0	38	104	0	60	60619
2026-01-07 19:18:41.54	19.56	12.34	-49.0	-64.5	3.6	1.51e+00	0	38	104	0	60	60356
2026-01-07 19:18:42.55	19.38	12.38	-48.9	-64.5	3.6	1.51e+00	0	38	104	0	60	60810
2026-01-07 19:18:43.56	19.20	12.41	-48.9	-64.5	3.6	1.51e+00	0	38	104	0	60	60444
2026-01-07 19:18:44.58	19.02	12.45	-49.0	-64.5	3.6	1.51e+00	0	38	104	0	60	60529
2026-01-07 19:18:45.58	18.84	12.49	-49.0	-64.5	3.6	1.51e+00	0	38	104	0	60	60761
2026-01-07 19:18:46.60	18.66	12.53	-49.0	-64.5	3.6	1.51e+00	0	38	104	0	60	60624
2026-01-07 19:18:47.61	18.47	12.56	-49.0	-64.4	3.6	1.51e+00	0	38	104	0	60	60269
2026-01-07 19:18:48.62	18.29	12.60	-48.9	-64.5	3.6	1.51e+00	0	38	104	0	60	60466
2026-01-07 19:18:49.62	18.11	12.64	-48.9	-64.5	3.6	1.51e+00	0	38	104	0	60	60385
2026-01-07 19:18:50.63	17.93	12.67	-48.9	-64.5	3.6	1.51e+00	0	38	104	0	60	60726
2026-01-07 19:18:51.65	17.74	12.71	-49.0	-64.5	3.6	1.51e+00	0	38	104	0	60	60383
2026-01-07 19:18:52.66	17.56	12.75	-49.0	-64.5	3.6	1.51e+00	0	38	104	0	60	60630
2026-01-07 19:18:53.67	17.37	12.78	-49.0	-64.5	3.6	1.51e+00	0	38	104	0	60	60570
2026-01-07 19:18:54.67	17.19	12.82	-49.0	-64.5	3.6	1.51e+00	0	38	104	0	60	60679
2026-01-07 19:18:55.68	17.00	12.85	-49.0	-64.5	3.6	1.51e+00	0	38	104	0	60	60512
2026-01-07 19:18:56.69	16.82	12.89	-49.0	-64.5	3.6	1.51e+00	0	38	104	0	60	60655
2026-01-07 19:18:57.70	16.63	12.92	-49.0	-64.5	3.6	1.51e+00	0	38	104	0	60	60536
2026-01-07 19:18:58.71	16.44	12.95	-49.0	-64.4	3.6	1.51e+00	0	39	104	0	60	60320
2026-01-07 19:18:59.72	16.26	12.99	-48.9	-64.5	3.6	1.51e+00	0	38	104	0	60	60506
2026-01-07 19:19:00.73	16.07	13.02	-49.0	-64.5	3.6	1.51e+00	0	38	104	0	60	60442
2026-01-07 19:19:01.74	15.88	13.06	-48.9	-64.4	3.6	1.51e+00	0	38	104	0	60	60275
2026-01-07 19:19:02.75	15.69	13.09	-48.9	-64.5	3.6	1.51e+00	0	38	104	0	60	60554
2026-01-07 19:19:03.76	15.50	13.12	-49.0	-64.5	3.6	1.51e+00	0	38	104	0	60	60498
2026-01-07 19:19:04.77	15.31	13.15	-49.0	-64.5	3.6	1.51e+00	0	38	104	0	60	60562
2026-01-07 19:19:05.78	15.12	13.19	-48.9	-64.5	3.6	1.51e+00	0	38	104	0	60	60430
2026-01-07 19:19:06.79	14.93	13.22	-48.9	-64.5	3.6	1.51e+00	0	38	104	0	60	60619
2026-01-07 19:19:07.80	14.74	13.25	-49.0	-64.5	3.6	1.51e+00	0	38	104	0	60	60629
2026-01-07 19:19:08.81	14.55	13.28	-49.0	-64.4	3.6	1.51e+00	0	38	104	0	60	60284
2026-01-07 19:19:09.82	14.36	13.31	-49.0	-64.5	3.6	1.51e+00	0	38	104	0	60	60411
2026-01-07 19:19:10.83	14.17	13.34	-49.0	-64.5	3.6	1.51e+00	0	38	104	0	60	60614
2026-01-07 19:19:11.84	13.97	13.38	-49.0	-64.5	3.6	1.51e+00	0	38	104	0	60	60593
2026-01-07 19:19:12.85	13.78	13.41	-49.0	-64.5	3.6	1.51e+00	0	38	104	0	60	60717
2026-01-07 19:19:13.86	13.59	13.44	-48.9	-64.5	3.6	1.51e+00	0	38	104	0	60	60464
2026-01-07 19:19:14.87	13.40	13.47	-48.9	-64.5	3.6	1.51e+00	0	38	104	0	60	60376
2026-01-07 19:19:15.88	13.20	13.50	-48.9	-64.5	3.6	1.51e+00	0	38	104	0	60	60611
2026-01-07 19:19:16.88	13.01	13.53	-48.9	-64.4	3.6	1.51e+00	0	38	104	0	60	60296
2026-01-07 19:19:17.89	12.81	13.55	-48.9	-64.5	3.6	1.51e+00	0	38	104	0	60	60729
2026-01-07 19:19:18.90	12.62	13.58	-48.9	-64.5	3.6	1.51e+00	0	38	104	0	60	60373
2026-01-07 19:19:19.91	12.42	13.61	-49.0	-64.5	3.6	1.51e+00	0	38	104	0	60	60497
2026-01-07 19:19:20.92	12.23	13.64	-48.9	-64.4	3.6	1.51e+00	0	38	104	0	60	60296
2026-01-07 19:19:21.93	12.03	13.67	-48.9	-64.4	3.6	1.51e+00	0	38	104	0	60	60322
2026-01-07 19:19:22.94	11.83	13.69	-48.9	-64.4	3.6	1.51e+00	0	38	104	0	60	60286
2026-01-07 19:19:23.95	11.64	13.72	-48.9	-64.5	3.6	1.51e+00	0	38	104	0	60	60420
2026-01-07 19:19:24.96	11.44	13.75	-48.9	-64.5	3.6	1.51e+00	0	38	104	0	60	60574
2026-01-07 19:19:25.97	11.24	13.78	-48.9	-64.5	3.6	1.51e+00	0	38	104	0	60	60590
2026-01-07 19:19:26.98	11.04	13.80	-48.9	-64.5	3.6	1.51e+00	0	38	104	0	60	60425
2026-01-07 19:19:27.99	10.85	13.83	-48.9	-64.5	3.6	1.51e+00	0	38	104	0	60	60451
2026-01-07 19:19:29.00	10.65	13.85	-48.9	-64.5	3.6	1.51e+00	0	38	104	0	60	60581
2026-01-07 19:19:30.01	10.45	13.88	-48.9	-64.5	3.6	1.51e+00	0	38	104	0	60	60476
2026-01-07 19:19:31.02	10.25	13.90	-48.9	-64.5	3.6	1.51e+00	0	38	104	0	60	60428
2026-01-07 19:19:32.03	10.05	13.93	-48.9	-64.5	3.6	1.51e+00	0	38	104	0	60	60612
2026-01-07 19:19:33.04	9.85	13.95	-48.9	-64.5	3.6	1.51e+00	0	38	104	0	60	60626
2026-01-07 19:19:34.05	9.65	13.98	-48.9	-64.5	3.6	1.51e+00	0	38	104	0	60	60628
2026-01-07 19:19:35.06	9.45	14.00	-48.9	-64.4	3.5	1.51e+00	0	38	104	0	60	60332
2026-01-07 19:19:36.07	9.24	14.02	-48.9	-64.5	3.6	1.51e+00	0	38	104	0	60	60445
2026-01-07 19:19:37.08	9.04	14.05	-48.9	-64.5	3.6	1.51e+00	0	38	104	0	60	60554
2026-01-07 19:19:38.09	8.84	14.07	-48.9	-64.5	3.6	1.51e+00	0	38	104	0	60	60615
2026-01-07 19:19:39.10	8.64	14.09	-48.9	-64.5	3.6	1.51e+00	0	38	104	0	60	60656
2026-01-07 19:19:40.11	8.44	14.12	-48.9	-64.5	3.6	1.51e+00	0	38	104	0	60	60460
2026-01-07 19:19:41.12	8.23	14.14	-48.9	-64.5	3.6	1.51e+00	0	38	104	0	60	60428
2026-01-07 19:19:42.13	8.03	14.16	-48.9	-64.4	3.6	1.51e+00	0	38	104	0	60	60284
2026-01-07 19:19:43.14	7.83	14.18	-48.9	-64.5	3.6	1.51e+00	0	38	104	0	60	60431
2026-01-07 19:19:44.15	7.62	14.20	-48.9	-64.4	3.6	1.51e+00	0	38	104	0	60	60225
2026-01-07 19:19:45.16	7.42	14.22	-48.9	-64.5	3.6	1.51e+00	0	38	104	0	60	60455
2026-01-07 19:19:46.17	7.22	14.24	-48.9	-64.5	3.6	1.51e+00	0	38	104	0	60	60649
2026-01-07 19:19:47.18	7.01	14.26	-48.9	-64.5	3.6	1.51e+00	0	38	104	0	60	60646
2026-01-07 19:19:48.19	6.81	14.28	-48.9	-64.5	3.6	1.51e+00	0	38	104	0	60	60606
2026-01-07 19:19:49.20	6.60	14.30	-48.9	-64.5	3.6	1.51e+00	0	38	104	0	60	60399
2026-01-07 19:19:50.21	6.40	14.32	-48.9	-64.5	3.6	1.51e+00	0	38	104	0	60	60710
2026-01-07 19:19:51.22	6.19	14.34	-48.9	-64.5	3.6	1.51e+00	0	38	104	0	60	60482
2026-01-07 19:19:52.23	5.99	14.35	-48.9	-64.5	3.6	1.51e+00	0	38	104	0	60	60607
2026-01-07 19:19:53.24	5.78	14.37	-48.9	-64.5	3.6	1.51e+00	0	38	104	0	60	60612
2026-01-07 19:19:54.25	5.57	14.39	-48.9	-64.5	3.6	1.51e+00	0	38	104	0	60	60550
2026-01-07 19:19:55.26	5.37	14.41	-48.9	-64.5	3.6	1.51e+00	0	38	104	0	60	60565
2026-01-07 19:19:56.26	5.16	14.42	-48.9	-64.5	3.6	1.51e+00	0	38	104	0	60	60425
2026-01-07 19:19:57.27	4.95	14.44	-48.9	-64.5	3.6	1.51e+00	0	38	104	0	60	60562
2026-01-07 19:19:58.28	4.75	14.45	-48.9	-64.4	3.6	1.51e+00	0	38	104	0	60	60142
2026-01-07 19:19:59.29	4.54	14.47	-48.9	-64.5	3.6	1.51e+00	0	38	104	0	60	60498
2026-01-07 19:20:00.30	4.33	14.48	-48.9	-64.5	3.6	1.51e+00	0	38	104	0	60	60387
2026-01-07 19:20:01.31	4.12	14.50	-48.9	-64.5	3.6	1.51e+00	0	38	104	0	60	60529
2026-01-07 19:20:02.32	3.92	14.51	-48.9	-64.5	3.6	1.51e+00	0	38	104	0	60	60502
2026-01-07 19:20:03.33	3.71	14.53	-48.9	-64.5	3.6	1.51e+00	0	38	104	0	60	60347
2026-01-07 19:20:04.34	3.50	14.54	-48.9	-64.4	3.6	1.51e+00	0	38	104	0	60	60325
2026-01-07 19:20:05.35	3.29	14.55	-48.9	-64.5	3.6	1.51e+00	0	38	104	0	60	60544
2026-01-07 19:20:06.36	3.08	14.57	-48.9	-64.5	3.6	1.51e+00	0	38	104	0	60	60643
2026-01-07 19:20:07.37	2.87	14.58	-48.9	-64.5	3.6	1.51e+00	0	38	104	0	60	60461
2026-01-07 19:20:08.38	2.66	14.59	-48.9	-64.4	3.6	1.51e+00	0	38	104	0	60	60261
2026-01-07 19:20:09.39	2.45	14.60	-48.9	-64.5	3.6	1.51e+00	0	38	104	0	60	60763
2026-01-07 19:20:10.40	2.24	14.61	-48.9	-64.5	3.5	1.51e+00	0	38	104	0	60	60664
2026-01-07 19:20:11.40	2.04	14.62	-48.9	-64.5	3.6	1.51e+00	0	38	104	0	60	60972
2026-01-07 19:20:12.42	1.83	14.64	-48.9	-64.5	3.6	1.51e+00	0	38	104	0	60	60497
2026-01-07 19:20:13.43	1.62	14.65	-48.9	-64.5	3.6	1.51e+00	0	38	104	0	60	60389
2026-01-07 19:20:14.44	1.41	14.66	-48.9	-64.4	3.6	1.51e+00	0	39	104	0	60	60259
2026-01-07 19:20:15.45	1.20	14.66	-48.9	-64.4	3.6	1.51e+00	0	38	104	0	60	60233
2026-01-07 19:20:16.46	0.98	14.67	-48.9	-64.4	3.5	1.51e+00	0	38	104	0	60	60247
2026-01-07 19:20:17.47	0.77	14.68	-48.9	-64.5	3.6	1.51e+00	0	38	104	0	60	60660
2026-01-07 19:20:18.48	0.56	14.69	-48.9	-64.5	3.6	1.51e+00	0	38	104	0	60	60437
2026-01-07 19:20:19.49	0.35	14.70	-48.9	-64.5	3.5	1.51e+00	0	38	104	0	60	60593
2026-01-07 19:20:20.50	0.14	14.71	-48.9	-64.5	3.6	1.51e+00	0	38	104	0	60	60494
2026-01-07 19:20:21.51	359.93	14.71	-48.9	-64.5	3.6	1.51e+00	0	38	104	0	60	60401
2026-01-07 19:20:22.52	359.72	14.72	-48.9	-64.5	3.6	1.51e+00	0	38	104	0	60	60484
2026-01-07 19:20:23.53	359.51	14.73	-48.9	-64.4	3.6	1.51e+00	0	38	104	0	60	60215
2026-01-07 19:20:24.54	359.30	14.73	-48.9	-64.4	3.6	1.51e+00	0	39	104	0	60	60224
2026-01-07 19:20:25.55	359.09	14.74	-48.9	-64.5	3.6	1.51e+00	0	38	104	0	60	60553
2026-01-07 19:20:26.56	358.87	14.74	-48.9	-64.5	3.6	1.51e+00	0	39	104	0	60	60631
2026-01-07 19:20:27.57	358.66	14.75	-48.9	-64.5	3.6	1.51e+00	0	38	104	0	60	60428
2026-01-07 19:20:28.58	358.45	14.75	-48.9	-64.5	3.6	1.51e+00	0	38	104	0	60	60678
2026-01-07 19:20:29.59	358.24	14.76	-48.9	-64.5	3.6	1.51e+00	0	38	104	0	60	60411
2026-01-07 19:20:30.60	358.03	14.76	-48.9	-64.5	3.6	1.51e+00	0	39	104	0	60	60604
2026-01-07 19:20:31.61	357.82	14.76	-48.9	-64.4	3.6	1.51e+00	0	38	104	0	60	60044
2026-01-07 19:20:32.62	357.60	14.77	-48.9	-64.5	3.6	1.51e+00	0	38	104	0	60	60345
2026-01-07 19:20:33.63	357.39	14.77	-48.9	-64.4	3.6	1.51e+00	0	38	104	0	60	60281
2026-01-07 19:20:34.64	357.18	14.77	-48.9	-64.5	3.6	1.51e+00	0	39	104	0	60	60430
2026-01-07 19:20:35.65	356.97	14.77	-48.9	-64.5	3.6	1.51e+00	0	38	104	0	60	60648
2026-01-07 19:20:36.66	356.76	14.77	-48.9	-64.5	3.6	1.51e+00	0	38	104	0	60	60399
2026-01-07 19:20:37.67	356.55	14.77	-48.9	-64.5	3.6	1.51e+00	0	38	104	0	60	60675
2026-01-07 19:20:38.68	356.33	14.77	-48.9	-64.5	3.6	1.51e+00	0	38	104	0	60	60724
2026-01-07 19:20:39.69	356.12	14.77	-48.9	-64.5	3.6	1.51e+00	0	38	104	0	60	60446
2026-01-07 19:20:40.70	355.91	14.77	-48.9	-64.5	3.6	1.51e+00	0	38	104	0	60	60606
2026-01-07 19:20:41.71	355.70	14.77	-48.9	-64.5	3.6	1.51e+00	0	38	104	0	60	60588
2026-01-07 19:20:42.71	355.49	14.77	-48.9	-64.4	3.6	1.51e+00	0	38	104	0	60	60318
2026-01-07 19:20:43.72	355.28	14.77	-48.9	-64.5	3.6	1.51e+00	0	38	104	0	60	60647
2026-01-07 19:20:44.73	355.06	14.77	-48.9	-64.5	3.6	1.51e+00	0	38	104	0	60	60528
2026-01-07 19:20:45.75	354.85	14.77	-48.9	-64.5	3.6	1.51e+00	0	38	104	0	60	60448
2026-01-07 19:20:46.75	354.64	14.76	-48.9	-64.5	3.6	1.51e+00	0	38	104	0	60	60421
2026-01-07 19:20:47.76	354.43	14.76	-48.9	-64.5	3.6	1.51e+00	0	38	104	0	60	60631
2026-01-07 19:20:48.77	354.22	14.76	-48.9	-64.5	3.6	1.51e+00	0	38	104	0	60	60531
2026-01-07 19:20:49.78	354.01	14.75	-48.9	-64.5	3.6	1.51e+00	0	38	104	0	60	60766
2026-01-07 19:20:50.79	353.79	14.75	-48.9	-64.5	3.6	1.51e+00	0	38	104	0	60	60374
2026-01-07 19:20:51.80	353.58	14.74	-48.9	-64.5	3.6	1.51e+00	0	38	104	0	60	60466
2026-01-07 19:20:52.81	353.37	14.74	-48.9	-64.5	3.6	1.51e+00	0	38	104	0	60	60475
2026-01-07 19:20:53.82	353.16	14.73	-48.9	-64.4	3.6	1.51e+00	0	38	104	0	60	60302
2026-01-07 19:20:54.83	352.95	14.73	-48.9	-64.4	3.6	1.51e+00	0	38	104	0	60	60202
2026-01-07 19:20:55.84	352.74	14.72	-48.9	-64.4	3.6	1.51e+00	0	38	104	0	60	60066
2026-01-07 19:20:56.85	352.53	14.72	-48.9	-64.4	3.6	1.51e+00	0	38	104	0	60	60330
2026-01-07 19:20:57.86	352.32	14.71	-48.9	-64.5	3.6	1.51e+00	0	38	104	0	60	60446
2026-01-07 19:20:58.87	352.10	14.70	-48.9	-64.5	3.6	1.51e+00	0	38	104	0	60	60584
2026-01-07 19:20:59.88	351.89	14.69	-48.9	-64.5	3.6	1.51e+00	0	38	104	0	60	60397
2026-01-07 19:21:00.89	351.68	14.68	-48.9	-64.4	3.6	1.51e+00	0	38	104	0	60	60327
2026-01-07 19:21:01.90	351.47	14.68	-48.9	-64.5	3.6	1.51e+00	0	38	104	0	60	60369
2026-01-07 19:21:02.91	351.26	14.67	-48.9	-64.4	3.6	1.51e+00	0	38	104	0	60	60301
2026-01-07 19:21:03.92	351.05	14.66	-48.9	-64.5	3.6	1.51e+00	0	38	104	0	60	60521
2026-01-07 19:21:04.93	350.84	14.65	-48.9	-64.5	3.6	1.51e+00	0	38	104	0	60	60488
2026-01-07 19:21:05.94	350.63	14.64	-48.9	-64.5	3.6	1.51e+00	0	38	104	0	60	60706
2026-01-07 19:21:06.95	350.42	14.63	-48.9	-64.5	3.6	1.51e+00	0	38	104	0	60	60560
2026-01-07 19:21:07.96	350.21	14.62	-48.9	-64.5	3.6	1.51e+00	0	38	104	0	60	60514
2026-01-07 19:21:08.97	350.00	14.61	-48.9	-64.5	3.6	1.51e+00	0	38	104	0	60	60477
2026-01-07 19:21:09.98	349.79	14.59	-48.9	-64.5	3.6	1.51e+00	0	38	104	0	60	60517
2026-01-07 19:21:10.99	349.58	14.58	-48.9	-64.5	3.6	1.51e+00	0	38	104	0	60	60611
2026-01-07 19:21:12.01	349.37	14.57	-48.9	-64.5	3.6	1.51e+00	0	39	104	0	60	60558
2026-01-07 19:21:13.02	349.16	14.56	-48.9	-64.4	3.6	1.51e+00	0	38	104	0	60	60045
2026-01-07 19:21:14.03	348.96	14.54	-48.9	-64.4	3.6	1.51e+00	0	38	104	0	60	60105
2026-01-07 19:21:15.03	348.75	14.53	-48.9	-64.5	3.6	1.51e+00	0	38	104	0	60	60480
2026-01-07 19:21:16.05	348.54	14.52	-48.9	-64.4	3.6	1.51e+00	0	38	104	0	60	60271
2026-01-07 19:21:17.06	348.33	14.50	-48.9	-64.5	3.6	1.51e+00	0	38	104	0	60	60654
2026-01-07 19:21:18.07	348.12	14.49	-48.9	-64.4	3.6	1.51e+00	0	38	104	0	60	60000
2026-01-07 19:21:19.07	347.92	14.47	-48.9	-64.5	3.6	1.51e+00	0	38	104	0	60	60374
2026-01-07 19:21:20.08	347.71	14.46	-48.9	-64.4	3.6	1.51e+00	0	38	104	0	60	60185
2026-01-07 19:21:21.09	347.50	14.44	-48.9	-64.5	3.6	1.51e+00	0	39	104	0	60	60409
2026-01-07 19:21:22.10	347.29	14.43	-48.9	-64.4	3.5	1.51e+00	0	38	104	0	60	60238
2026-01-07 19:21:23.11	347.09	14.41	-48.9	-64.4	3.6	1.51e+00	0	38	104	0	60	60244
2026-01-07 19:21:24.12	346.88	14.39	-48.9	-64.5	3.6	1.51e+00	0	38	104	0	60	60403
2026-01-07 19:21:25.13	346.67	14.38	-48.9	-64.4	3.6	1.51e+00	0	39	104	0	60	60309
2026-01-07 19:21:26.14	346.47	14.36	-48.9	-64.5	3.6	1.51e+00	0	39	104	0	60	60335
2026-01-07 19:21:27.15	346.26	14.34	-48.9	-64.5	3.5	1.51e+00	0	38	104	0	60	60445
2026-01-07 19:21:28.16	346.06	14.32	-48.9	-64.5	3.6	1.51e+00	0	38	104	0	60	60955
2026-01-07 19:21:29.17	345.85	14.30	-48.9	-64.5	3.6	1.51e+00	0	38	104	0	60	60557
2026-01-07 19:21:30.18	345.65	14.28	-48.9	-64.5	3.5	1.51e+00	0	39	104	0	60	60459
2026-01-07 19:21:31.19	345.44	14.27	-48.9	-64.5	3.6	1.51e+00	0	38	104	0	60	60352
2026-01-07 19:21:32.20	345.24	14.25	-48.9	-64.4	3.6	1.51e+00	0	39	104	0	60	60166
2026-01-07 19:21:33.22	345.03	14.23	-48.9	-64.5	3.6	1.51e+00	0	39	104	0	60	60571
2026-01-07 19:21:34.23	344.83	14.21	-48.9	-64.5	3.6	1.51e+00	0	38	104	0	60	60568
2026-01-07 19:21:35.24	344.62	14.18	-48.9	-64.5	3.6	1.51e+00	0	39	104	0	60	60409
2026-01-07 19:21:36.25	344.42	14.16	-48.9	-64.5	3.6	1.51e+00	0	38	104	0	60	60424
2026-01-07 19:21:37.25	344.22	14.14	-48.9	-64.5	3.6	1.51e+00	0	38	104	0	60	60576
2026-01-07 19:21:38.26	344.02	14.12	-48.9	-64.5	3.6	1.51e+00	0	38	104	0	60	60688
2026-01-07 19:21:39.27	343.81	14.10	-48.9	-64.5	3.6	1.51e+00	0	38	104	0	60	60604
2026-01-07 19:21:40.28	343.61	14.08	-48.9	-64.4	3.6	1.51e+00	0	38	104	0	60	60070
2026-01-07 19:21:41.29	343.41	14.05	-48.9	-64.5	3.6	1.51e+00	0	38	104	0	60	60448
2026-01-07 19:21:42.30	343.21	14.03	-48.9	-64.5	3.6	1.51e+00	0	38	104	0	60	60498
2026-01-07 19:21:43.31	343.01	14.01	-48.9	-64.5	3.6	1.51e+00	0	38	104	0	60	60472
2026-01-07 19:21:44.32	342.81	13.98	-48.9	-64.5	3.6	1.51e+00	0	38	104	0	60	60435
2026-01-07 19:21:45.33	342.60	13.96	-48.9	-64.5	3.6	1.51e+00	0	38	104	0	60	60551
2026-01-07 19:21:46.34	342.40	13.94	-48.9	-64.4	3.6	1.51e+00	0	38	104	0	60	60325
2026-01-07 19:21:47.36	342.20	13.91	-48.9	-64.5	3.6	1.51e+00	0	38	104	0	60	60676
2026-01-07 19:21:48.37	342.00	13.89	-48.9	-64.4	3.6	1.51e+00	0	38	104	0	60	60206
2026-01-07 19:21:49.38	341.80	13.86	-48.9	-64.4	3.6	1.51e+00	0	38	104	0	60	60120
2026-01-07 19:21:50.39	341.60	13.84	-48.9	-64.4	3.6	1.51e+00	0	38	104	0	60	60107
2026-01-07 19:21:51.40	341.41	13.81	-48.9	-64.4	3.6	1.51e+00	0	38	104	0	60	59940
2026-01-07 19:21:52.41	341.21	13.78	-48.9	-64.5	3.6	1.51e+00	0	38	104	0	60	60527
2026-01-07 19:21:53.42	341.01	13.76	-48.9	-64.5	3.6	1.51e+00	0	38	104	0	60	60410
2026-01-07 19:21:54.43	340.81	13.73	-48.9	-64.5	3.6	1.51e+00	0	38	104	0	60	60624
2026-01-07 19:21:55.44	340.62	13.70	-48.9	-64.5	3.6	1.51e+00	0	38	104	0	60	60562
2026-01-07 19:21:56.45	340.42	13.67	-48.9	-64.5	3.6	1.51e+00	0	38	104	0	60	60601
2026-01-07 19:21:57.46	340.22	13.65	-48.9	-64.5	3.6	1.51e+00	0	38	104	0	60	60660
2026-01-07 19:21:58.47	340.03	13.62	-48.9	-64.5	3.6	1.51e+00	0	39	104	0	60	60502
2026-01-07 19:21:59.48	339.83	13.59	-48.9	-64.5	3.6	1.51e+00	0	38	104	0	60	60943
2026-01-07 19:22:00.49	339.64	13.56	-48.9	-64.5	3.6	1.51e+00	0	38	104	0	60	60590
2026-01-07 19:22:01.50	339.44	13.53	-48.9	-64.4	3.6	1.51e+00	0	38	104	0	60	60222
2026-01-07 19:22:02.51	339.25	13.50	-48.9	-64.4	3.6	1.51e+00	0	38	104	0	60	60319
2026-01-07 19:22:03.52	339.05	13.47	-48.9	-64.5	3.6	1.51e+00	0	38	104	0	60	60421
2026-01-07 19:22:04.53	338.86	13.44	-48.9	-64.5	3.6	1.51e+00	0	39	104	0	60	60347
2026-01-07 19:22:05.54	338.66	13.41	-48.9	-64.5	3.6	1.51e+00	0	38	104	0	60	60387
2026-01-07 19:22:06.55	338.47	13.38	-48.9	-64.4	3.6	1.51e+00	0	38	104	0	60	60326
2026-01-07 19:22:07.56	338.28	13.35	-48.9	-64.5	3.6	1.51e+00	0	39	104	0	60	60529
2026-01-07 19:22:08.57	338.09	13.32	-48.9	-64.5	3.6	1.51e+00	0	38	104	0	60	60500
2026-01-07 19:22:09.58	337.90	13.29	-48.9	-64.5	3.6	1.51e+00	0	38	104	0	60	60348
2026-01-07 19:22:10.59	337.70	13.26	-48.9	-64.5	3.6	1.51e+00	0	38	104	0	60	60432
2026-01-07 19:22:11.60	337.51	13.23	-48.9	-64.5	3.6	1.51e+00	0	39	104	0	60	60408
2026-01-07 19:22:12.61	337.32	13.20	-48.9	-64.5	3.6	1.51e+00	0	39	104	0	60	60457
2026-01-07 19:22:13.62	337.13	13.16	-48.9	-64.5	3.6	1.51e+00	0	39	104	0	60	60443
2026-01-07 19:22:14.63	336.94	13.13	-48.9	-64.5	3.6	1.51e+00	0	39	104	0	60	60618
2026-01-07 19:22:15.64	336.75	13.10	-48.9	-64.5	3.6	1.51e+00	0	39	104	0	60	60339
2026-01-07 19:22:16.65	336.57	13.06	-48.9	-64.5	3.6	1.51e+00	0	39	104	0	60	60873
2026-01-07 19:22:17.66	336.38	13.03	-48.9	-64.5	3.6	1.51e+00	0	39	104	0	60	60694
2026-01-07 19:22:18.67	336.19	13.00	-48.9	-64.5	3.6	1.51e+00	0	39	104	0	60	60804
2026-01-07 19:22:19.68	336.00	12.96	-48.9	-64.5	3.6	1.51e+00	0	38	104	0	60	60597
2026-01-07 19:22:20.69	335.81	12.93	-48.9	-64.4	3.6	1.51e+00	0	39	104	0	60	60245
2026-01-07 19:22:21.70	335.63	12.89	-48.9	-64.5	3.6	1.51e+00	0	39	104	0	60	60616
2026-01-07 19:22:22.71	335.44	12.86	-48.9	-64.5	3.6	1.51e+00	0	38	104	0	60	60464
2026-01-07 19:22:23.72	335.26	12.82	-48.9	-64.5	3.6	1.51e+00	0	38	104	0	60	60406
2026-01-07 19:22:24.73	335.07	12.79	-48.9	-64.5	3.6	1.51e+00	0	39	104	0	60	60461
2026-01-07 19:22:25.74	334.89	12.75	-48.9	-64.5	3.6	1.51e+00	0	38	104	0	60	60555
2026-01-07 19:22:26.75	334.70	12.72	-48.9	-64.5	3.6	1.51e+00	0	38	104	0	60	60722
2026-01-07 19:22:27.76	334.52	12.68	-48.9	-64.5	3.6	1.51e+00	0	38	104	0	60	60525
2026-01-07 19:22:28.77	334.33	12.65	-48.9	-64.5	3.6	1.51e+00	0	38	104	0	60	60825
2026-01-07 19:22:29.78	334.15	12.61	-48.9	-64.5	3.5	1.51e+00	0	38	104	0	60	60626
2026-01-07 19:22:30.79	333.97	12.57	-48.9	-64.5	3.6	1.51e+00	0	39	104	0	60	60532
2026-01-07 19:22:31.80	333.79	12.54	-48.9	-64.4	3.6	1.51e+00	0	38	104	0	60	60205
2026-01-07 19:22:32.81	333.61	12.50	-48.9	-64.5	3.6	1.51e+00	0	38	104	0	60	60377
2026-01-07 19:22:33.82	333.42	12.46	-48.9	-64.5	3.6	1.51e+00	0	39	104	0	60	60452
2026-01-07 19:22:34.83	333.24	12.42	-48.9	-64.5	3.6	1.51e+00	0	39	104	0	60	60525
2026-01-07 19:22:35.84	333.06	12.39	-48.9	-64.5	3.6	1.51e+00	0	39	104	0	60	60705
2026-01-07 19:22:36.85	332.88	12.35	-48.9	-64.5	3.6	1.51e+00	0	39	104	0	60	60461
2026-01-07 19:22:37.86	332.70	12.31	-48.9	-64.5	3.6	1.51e+00	0	39	104	0	60	60362
2026-01-07 19:22:38.87	332.53	12.27	-48.9	-64.5	3.6	1.51e+00	0	39	104	0	60	60433
2026-01-07 19:22:39.88	332.35	12.23	-48.9	-64.4	3.6	1.51e+00	0	39	104	0	60	60314
2026-01-07 19:22:40.89	332.17	12.19	-48.9	-64.4	3.6	1.51e+00	0	38	104	0	60	60234
2026-01-07 19:22:41.90	331.99	12.16	-48.9	-64.4	3.6	1.51e+00	0	38	104	0	60	60268
2026-01-07 19:22:42.91	331.82	12.12	-48.9	-64.5	3.6	1.51e+00	0	38	104	0	60	60699
2026-01-07 19:22:43.92	331.64	12.08	-48.9	-64.5	3.6	1.51e+00	0	39	104	0	60	60523
2026-01-07 19:22:44.93	331.46	12.04	-48.9	-64.5	3.6	1.51e+00	0	38	104	0	60	60336
2026-01-07 19:22:45.94	331.29	12.00	-48.9	-64.5	3.6	1.51e+00	0	38	104	0	60	60431
2026-01-07 19:22:46.95	331.11	11.96	-48.9	-64.5	3.6	1.51e+00	0	38	104	0	60	60517
2026-01-07 19:22:47.96	330.94	11.92	-48.9	-64.5	3.6	1.51e+00	0	39	104	0	60	60503
2026-01-07 19:22:48.97	330.76	11.88	-48.9	-64.4	3.6	1.51e+00	0	38	104	0	60	60309
2026-01-07 19:22:49.98	330.59	11.84	-48.9	-64.5	3.6	1.51e+00	0	39	104	0	60	60387
2026-01-07 19:22:50.99	330.42	11.80	-48.9	-64.5	3.5	1.51e+00	0	39	104	0	60	60615
2026-01-07 19:22:52.00	330.24	11.75	-48.9	-64.4	3.6	1.51e+00	0	38	104	0	60	60311
2026-01-07 19:22:53.01	330.07	11.71	-48.9	-64.5	3.6	1.51e+00	0	39	104	0	60	60645
2026-01-07 19:22:54.02	329.90	11.67	-48.9	-64.5	3.6	1.51e+00	0	39	104	0	60	60497
2026-01-07 19:22:55.03	329.73	11.63	-48.9	-64.5	3.6	1.51e+00	0	38	104	0	60	60487
2026-01-07 19:22:56.04	329.56	11.59	-48.9	-64.5	3.6	1.51e+00	0	39	104	0	60	60604
2026-01-07 19:22:57.05	329.39	11.55	-48.9	-64.5	3.6	1.51e+00	0	39	104	0	60	60835
2026-01-07 19:22:58.05	329.22	11.51	-48.9	-64.5	3.6	1.51e+00	0	39	104	0	60	60518
2026-01-07 19:22:59.06	329.05	11.46	-48.9	-64.4	3.6	1.51e+00	0	39	104	0	60	60282
2026-01-07 19:23:00.07	328.88	11.42	-48.9	-64.5	3.6	1.51e+00	0	39	104	0	60	60530
2026-01-07 19:23:01.08	328.72	11.38	-48.9	-64.5	3.6	1.51e+00	0	39	104	0	60	60393
2026-01-07 19:23:02.09	328.55	11.34	-48.9	-64.4	3.6	1.51e+00	0	39	104	0	60	60285
2026-01-07 19:23:03.10	328.38	11.29	-48.9	-64.5	3.6	1.51e+00	0	39	104	0	60	60454
2026-01-07 19:23:04.11	328.21	11.25	-48.9	-64.5	3.6	1.51e+00	0	39	104	0	60	60570
2026-01-07 19:23:05.12	328.05	11.21	-48.9	-64.5	3.6	1.51e+00	0	39	104	0	60	60463
2026-01-07 19:23:06.13	327.88	11.16	-48.9	-64.5	3.6	1.51e+00	0	39	104	0	60	60746
2026-01-07 19:23:07.14	327.72	11.12	-48.9	-64.5	3.6	1.51e+00	0	38	104	0	60	60376
2026-01-07 19:23:08.15	327.55	11.08	-48.9	-64.5	3.6	1.51e+00	0	38	104	0	60	60637
2026-01-07 19:23:09.17	327.39	11.03	-48.9	-64.5	3.6	1.51e+00	0	39	104	0	60	60687
2026-01-07 19:23:10.17	327.23	10.99	-48.9	-64.5	3.6	1.51e+00	0	38	104	0	60	60411
2026-01-07 19:23:11.19	327.06	10.94	-48.9	-64.5	3.6	1.51e+00	0	38	104	0	60	60356
2026-01-07 19:23:12.20	326.90	10.90	-48.9	-64.5	3.6	1.51e+00	0	38	104	0	60	60768
2026-01-07 19:23:13.21	326.74	10.85	-48.9	-64.5	3.6	1.51e+00	0	38	104	0	60	60547
2026-01-07 19:23:14.22	326.57	10.81	-48.9	-64.5	3.6	1.51e+00	0	39	104	0	60	60386
2026-01-07 19:23:15.23	326.41	10.76	-48.9	-64.5	3.6	1.51e+00	0	38	104	0	60	60950
2026-01-07 19:23:16.24	326.25	10.72	-48.9	-64.5	3.6	1.51e+00	0	39	104	0	60	60702
2026-01-07 19:23:17.25	326.09	10.67	-48.9	-64.5	3.6	1.51e+00	0	39	104	0	60	60416
2026-01-07 19:23:18.26	325.93	10.63	-48.9	-64.5	3.6	1.51e+00	0	39	104	0	60	60533
2026-01-07 19:23:19.27	325.77	10.58	-48.9	-64.4	3.6	1.51e+00	0	39	104	0	60	60272
2026-01-07 19:23:20.28	325.62	10.54	-48.9	-64.5	3.6	1.51e+00	0	39	104	0	60	60477
2026-01-07 19:23:21.28	325.46	10.49	-48.9	-64.5	3.6	1.51e+00	0	39	104	0	60	60579
2026-01-07 19:23:22.29	325.30	10.45	-48.9	-64.4	3.6	1.51e+00	0	39	104	0	60	60217
2026-01-07 19:23:23.30	325.14	10.40	-48.9	-64.5	3.6	1.51e+00	0	38	104	0	60	60462
2026-01-07 19:23:24.31	324.99	10.36	-48.9	-64.5	3.6	1.51e+00	0	39	104	0	60	60429
2026-01-07 19:23:25.32	324.83	10.31	-48.9	-64.5	3.6	1.51e+00	0	39	104	0	60	60664
2026-01-07 19:23:26.33	324.68	10.26	-48.9	-64.5	3.6	1.51e+00	0	39	104	0	60	60597
2026-01-07 19:23:27.34	324.52	10.22	-48.9	-64.5	3.6	1.51e+00	0	39	104	0	60	60446
2026-01-07 19:23:28.35	324.37	10.17	-48.9	-64.5	3.6	1.51e+00	0	39	104	0	60	60580
2026-01-07 19:23:29.36	324.21	10.13	-48.9	-64.5	3.6	1.51e+00	0	38	104	0	60	60624
2026-01-07 19:23:30.37	324.06	10.08	-48.9	-64.5	3.6	1.51e+00	0	39	104	0	60	60627
2026-01-07 19:23:31.38	323.91	10.03	-48.9	-64.5	3.6	1.51e+00	0	39	104	0	60	60421
2026-01-07 19:23:32.39	323.75	9.99	-48.9	-64.5	3.6	1.51e+00	0	39	104	0	60	60394
2026-01-07 19:23:33.40	323.60	9.94	-48.9	-64.5	3.6	1.51e+00	0	38	104	0	60	60737
2026-01-07 19:23:34.41	323.45	9.89	-48.9	-64.5	3.6	1.51e+00	0	39	104	0	60	60444
2026-01-07 19:23:35.42	323.30	9.84	-48.9	-64.5	3.6	1.51e+00	0	39	104	0	60	60513
2026-01-07 19:23:36.43	323.15	9.80	-48.9	-64.5	3.6	1.51e+00	0	39	104	0	60	60358
2026-01-07 19:23:37.44	323.00	9.75	-48.9	-64.5	3.6	1.51e+00	0	38	104	0	60	60643
2026-01-07 19:23:38.45	322.85	9.70	-48.9	-64.5	3.6	1.51e+00	0	38	104	0	60	60758
2026-01-07 19:23:39.46	322.70	9.65	-48.9	-64.5	3.6	1.51e+00	0	39	104	0	60	60805
2026-01-07 19:23:40.47	322.55	9.61	-48.9	-64.5	3.6	1.51e+00	0	39	104	0	60	60369
2026-01-07 19:23:41.48	322.40	9.56	-48.9	-64.4	3.6	1.51e+00	0	38	104	0	60	60275
2026-01-07 19:23:42.49	322.25	9.51	-48.9	-64.5	3.6	1.51e+00	0	39	104	0	60	60445
2026-01-07 19:23:43.50	322.11	9.46	-48.9	-64.5	3.6	1.51e+00	0	39	104	0	60	60493
2026-01-07 19:23:44.51	321.96	9.42	-48.9	-64.4	3.6	1.51e+00	0	39	104	0	60	60329
2026-01-07 19:23:45.52	321.81	9.37	-48.9	-64.5	3.6	1.51e+00	0	39	104	0	60	60714
2026-01-07 19:23:46.53	321.67	9.32	-48.9	-64.5	3.6	1.51e+00	0	39	104	0	60	60468
2026-01-07 19:23:47.54	321.52	9.27	-48.9	-64.5	3.6	1.51e+00	0	39	104	0	60	60907
2026-01-07 19:23:48.55	321.38	9.22	-48.9	-64.5	3.6	1.51e+00	0	39	104	0	60	60342
2026-01-07 19:23:49.55	321.24	9.17	-48.9	-64.5	3.6	1.51e+00	0	39	104	0	60	60350
2026-01-07 19:23:50.56	321.09	9.13	-48.9	-64.4	3.6	1.51e+00	0	39	104	0	60	60259
2026-01-07 19:23:51.57	320.95	9.08	-48.9	-64.5	3.6	1.51e+00	0	39	104	0	60	60454
2026-01-07 19:23:52.58	320.81	9.03	-48.9	-64.5	3.6	1.51e+00	0	39	104	0	60	60645
2026-01-07 19:23:53.59	320.66	8.98	-48.9	-64.5	3.6	1.51e+00	0	38	104	0	60	60564
2026-01-07 19:23:54.60	320.52	8.93	-48.9	-64.5	3.6	1.51e+00	0	39	104	0	60	60745
2026-01-07 19:23:55.61	320.38	8.88	-48.9	-64.5	3.6	1.51e+00	0	39	104	0	60	60633
2026-01-07 19:23:56.62	320.24	8.83	-48.9	-64.4	3.6	1.51e+00	0	39	104	0	60	60172
2026-01-07 19:23:57.63	320.10	8.78	-48.9	-64.5	3.6	1.51e+00	0	39	104	0	60	60403
2026-01-07 19:23:58.64	319.96	8.74	-48.9	-64.5	3.6	1.51e+00	0	39	104	0	60	60354
2026-01-07 19:23:59.65	319.82	8.69	-48.9	-64.5	3.6	1.51e+00	0	39	104	0	60	60672
2026-01-07 19:24:00.66	319.68	8.64	-48.9	-64.5	3.6	1.51e+00	0	39	104	0	60	60606
2026-01-07 19:24:01.68	319.54	8.59	-48.9	-64.5	3.6	1.51e+00	0	39	104	0	60	60561
2026-01-07 19:24:02.69	319.40	8.54	-48.9	-64.5	3.6	1.51e+00	0	39	104	0	60	60494
2026-01-07 19:24:03.69	319.27	8.49	-48.9	-64.5	3.6	1.51e+00	0	39	104	0	60	60338
2026-01-07 19:24:04.70	319.13	8.44	-48.9	-64.5	3.6	1.51e+00	0	39	104	0	60	60426
2026-01-07 19:24:05.71	318.99	8.39	-48.9	-64.5	3.6	1.51e+00	0	39	104	0	60	60496
2026-01-07 19:24:06.72	318.86	8.34	-48.9	-64.5	3.6	1.51e+00	0	39	104	0	60	60646
2026-01-07 19:24:07.73	318.72	8.29	-48.9	-64.5	3.6	1.51e+00	0	39	104	0	60	60467
2026-01-07 19:24:08.74	318.59	8.24	-48.9	-64.5	3.6	1.51e+00	0	39	104	0	60	60396
2026-01-07 19:24:09.75	318.45	8.19	-48.9	-64.4	3.6	1.51e+00	0	39	104	0	60	60310
2026-01-07 19:24:10.76	318.32	8.14	-48.9	-64.5	3.6	1.51e+00	0	39	104	0	60	60571
2026-01-07 19:24:11.77	318.18	8.09	-48.9	-64.5	3.6	1.51e+00	0	39	104	0	60	60363
2026-01-07 19:24:12.78	318.05	8.04	-48.9	-64.4	3.6	1.51e+00	0	39	104	0	60	60126
2026-01-07 19:24:13.79	317.92	7.99	-48.9	-64.5	3.6	1.51e+00	0	39	104	0	60	60927
2026-01-07 19:24:14.80	317.79	7.94	-48.9	-64.5	3.6	1.51e+00	0	39	104	0	60	60439
2026-01-07 19:24:15.81	317.65	7.89	-48.9	-64.5	3.6	1.51e+00	0	39	104	0	60	60637
2026-01-07 19:24:16.82	317.52	7.84	-48.9	-64.5	3.6	1.51e+00	0	39	104	0	60	60432
2026-01-07 19:24:17.83	317.39	7.79	-48.9	-64.5	3.6	1.51e+00	0	39	104	0	60	60792
2026-01-07 19:24:18.84	317.26	7.74	-48.9	-64.5	3.6	1.51e+00	0	39	104	0	60	60621
2026-01-07 19:24:19.85	317.13	7.69	-48.9	-64.5	3.6	1.51e+00	0	39	104	0	60	60346
2026-01-07 19:24:20.86	317.00	7.64	-48.9	-64.5	3.6	1.51e+00	0	39	104	0	60	60511
2026-01-07 19:24:21.87	316.87	7.59	-48.9	-64.5	3.6	1.51e+00	0	39	104	0	60	60484
2026-01-07 19:24:22.88	316.74	7.54	-48.9	-64.5	3.6	1.51e+00	0	39	104	0	60	60548
2026-01-07 19:24:23.89	316.62	7.49	-48.9	-64.4	3.6	1.51e+00	0	39	104	0	60	60275
2026-01-07 19:24:24.90	316.49	7.44	-48.9	-64.5	3.6	1.51e+00	0	39	104	0	60	60489
2026-01-07 19:24:25.91	316.36	7.39	-48.9	-64.5	3.6	1.51e+00	0	39	104	0	60	60768
2026-01-07 19:24:26.92	316.23	7.34	-48.9	-64.5	3.6	1.51e+00	0	39	104	0	60	60387
2026-01-07 19:24:27.93	316.11	7.29	-48.9	-64.5	3.6	1.51e+00	0	39	104	0	60	60364
2026-01-07 19:24:28.93	315.98	7.24	-48.9	-64.5	3.6	1.51e+00	0	39	104	0	60	60441
2026-01-07 19:24:29.94	315.86	7.19	-48.9	-64.5	3.6	1.51e+00	0	39	104	0	60	60400
2026-01-07 19:24:30.95	315.73	7.14	-48.9	-64.5	3.6	1.51e+00	0	39	104	0	60	60443
2026-01-07 19:24:31.96	315.61	7.09	-48.9	-64.4	3.6	1.51e+00	0	39	104	0	60	60305
2026-01-07 19:24:32.97	315.48	7.04	-48.9	-64.4	3.6	1.51e+00	0	39	104	0	60	60311
2026-01-07 19:24:33.98	315.36	6.98	-48.9	-64.5	3.6	1.51e+00	0	39	104	0	60	60423
2026-01-07 19:24:34.99	315.24	6.93	-48.9	-64.5	3.6	1.51e+00	0	39	104	0	60	60578
2026-01-07 19:24:36.00	315.11	6.88	-48.9	-64.5	3.6	1.51e+00	0	39	104	0	60	60594
2026-01-07 19:24:37.01	314.99	6.83	-48.9	-64.5	3.6	1.51e+00	0	39	104	0	60	60882
2026-01-07 19:24:38.02	314.87	6.78	-48.9	-64.5	3.6	1.51e+00	0	39	104	0	60	60522
2026-01-07 19:24:39.03	314.75	6.73	-48.9	-64.5	3.6	1.51e+00	0	39	104	0	60	60374
2026-01-07 19:24:40.04	314.63	6.68	-48.9	-64.5	3.6	1.51e+00	0	38	104	0	60	60728
2026-01-07 19:24:41.05	314.51	6.63	-48.9	-64.5	3.6	1.51e+00	0	39	104	0	60	60571
2026-01-07 19:24:42.06	314.39	6.58	-48.9	-64.5	3.6	1.51e+00	0	39	104	0	60	60582
2026-01-07 19:24:43.07	314.27	6.53	-48.9	-64.5	3.6	1.51e+00	0	38	104	0	60	60545
2026-01-07 19:24:44.08	314.15	6.48	-48.9	-64.5	3.6	1.51e+00	0	38	104	0	60	60444
2026-01-07 19:24:45.09	314.03	6.43	-48.9	-64.4	3.6	1.51e+00	0	38	104	0	60	60247
2026-01-07 19:24:46.10	313.91	6.37	-48.9	-64.5	3.6	1.51e+00	0	38	104	0	60	60702
2026-01-07 19:24:47.11	313.79	6.32	-48.9	-64.5	3.6	1.51e+00	0	39	104	0	60	60510
2026-01-07 19:24:48.12	313.67	6.27	-48.9	-64.5	3.6	1.51e+00	0	38	104	0	60	60593
2026-01-07 19:24:49.13	313.56	6.22	-48.9	-64.4	3.6	1.51e+00	0	39	104	0	60	60321
2026-01-07 19:24:50.14	313.44	6.17	-48.9	-64.5	3.6	1.51e+00	0	39	104	0	60	60987
2026-01-07 19:24:51.15	313.32	6.12	-48.9	-64.5	3.6	1.51e+00	0	39	104	0	60	60495
2026-01-07 19:24:52.15	313.21	6.07	-48.9	-64.5	3.6	1.51e+00	0	39	104	0	60	60807
2026-01-07 19:24:53.16	313.09	6.02	-48.9	-64.5	3.6	1.51e+00	0	39	104	0	60	60614
2026-01-07 19:24:54.17	312.98	5.97	-48.9	-64.5	3.6	1.51e+00	0	39	104	0	60	60378
2026-01-07 19:24:55.18	312.86	5.92	-48.9	-64.4	3.6	1.51e+00	0	39	104	0	60	60186
2026-01-07 19:24:56.19	312.75	5.87	-48.9	-64.5	3.5	1.51e+00	0	39	104	0	60	60489
2026-01-07 19:24:57.20	312.63	5.81	-48.9	-64.5	3.6	1.51e+00	0	39	104	0	60	60365
2026-01-07 19:24:58.21	312.52	5.76	-48.9	-64.5	3.6	1.51e+00	0	39	104	0	60	60816
2026-01-07 19:24:59.22	312.41	5.71	-48.9	-64.5	3.6	1.51e+00	0	39	104	0	60	60593
2026-01-07 19:25:00.23	312.30	5.66	-48.9	-64.5	3.6	1.51e+00	0	39	104	0	60	60525
2026-01-07 19:25:01.24	312.18	5.61	-48.9	-64.5	3.6	1.51e+00	0	39	104	0	60	60573
2026-01-07 19:25:02.25	312.07	5.56	-48.9	-64.5	3.6	1.51e+00	0	39	104	0	60	60413
2026-01-07 19:25:03.26	311.96	5.51	-48.9	-64.5	3.6	1.51e+00	0	39	104	0	60	60408
2026-01-07 19:25:04.27	311.85	5.46	-48.9	-64.5	3.6	1.51e+00	0	39	104	0	60	60772
2026-01-07 19:25:05.28	311.74	5.41	-48.9	-64.5	3.6	1.51e+00	0	39	104	0	60	60600
2026-01-07 19:25:06.29	311.63	5.35	-48.9	-64.5	3.6	1.51e+00	0	39	104	0	60	60605
2026-01-07 19:25:07.30	311.52	5.30	-48.9	-64.5	3.6	1.51e+00	0	39	104	0	60	60472
2026-01-07 19:25:08.31	311.41	5.25	-48.9	-64.5	3.6	1.51e+00	0	39	104	0	60	60606
2026-01-07 19:25:09.32	311.30	5.20	-80.8	-89.3	2.4	1.57e+00	0	39	104	0	60	1048574
2026-01-07 19:25:10.33	311.19	5.15	-80.8	-89.3	2.4	1.57e+00	0	39	104	0	60	1048572
2026-01-07 19:25:11.34	311.08	5.10	-80.8	-89.3	2.4	1.57e+00	0	39	104	0	60	1048575
2026-01-07 19:25:12.35	310.97	5.05	-80.7	-89.3	2.5	1.57e+00	0	39	104	0	60	1048575
2026-01-07 19:25:13.36	310.87	5.00	-48.8	-64.4	3.6	1.51e+00	0	39	104	0	60	60270
2026-01-07 19:25:14.37	310.76	4.95	-48.8	-64.5	3.6	1.51e+00	0	39	104	0	60	60747
2026-01-07 19:25:15.38	310.65	4.89	-48.8	-64.4	3.6	1.51e+00	0	39	104	0	60	60247
2026-01-07 19:25:16.39	310.55	4.84	-48.8	-64.4	3.6	1.51e+00	0	39	104	0	60	60030
2026-01-07 19:25:17.40	310.44	4.79	-48.8	-64.5	3.6	1.51e+00	0	39	104	0	60	60508
2026-01-07 19:25:18.41	310.33	4.74	-48.8	-64.5	3.6	1.51e+00	0	39	104	0	60	60475
2026-01-07 19:25:19.42	310.23	4.69	-48.8	-64.4	3.6	1.51e+00	0	39	104	0	60	60289
2026-01-07 19:25:20.43	310.12	4.64	-48.8	-64.5	3.6	1.51e+00	0	39	104	0	60	60533
2026-01-07 19:25:21.44	310.02	4.59	-48.8	-64.4	3.6	1.51e+00	0	39	104	0	60	60082
2026-01-07 19:25:22.45	309.92	4.54	-48.8	-64.5	3.6	1.51e+00	0	39	104	0	60	60639
2026-01-07 19:25:23.46	309.81	4.49	-48.8	-64.5	3.6	1.51e+00	0	39	104	0	60	60388
2026-01-07 19:25:24.47	309.71	4.43	-48.8	-64.4	3.6	1.51e+00	0	39	104	0	60	60305
2026-01-07 19:25:25.48	309.61	4.38	-48.8	-64.4	3.6	1.51e+00	0	39	104	0	60	60310
2026-01-07 19:25:26.49	309.50	4.33	-48.8	-64.5	3.6	1.51e+00	0	39	104	0	60	60486
2026-01-07 19:25:27.50	309.40	4.28	-48.8	-64.5	3.6	1.51e+00	0	39	104	0	60	60462
2026-01-07 19:25:28.51	309.30	4.23	-48.8	-64.4	3.6	1.51e+00	0	39	104	0	60	60331
2026-01-07 19:25:29.52	309.20	4.18	-48.8	-64.5	3.6	1.51e+00	0	39	104	0	60	60543
2026-01-07 19:25:30.53	309.10	4.13	-48.8	-64.5	3.6	1.51e+00	0	39	104	0	60	60520
2026-01-07 19:25:31.54	309.00	4.08	-48.9	-64.5	3.6	1.51e+00	0	39	104	0	60	60550
2026-01-07 19:25:32.55	308.90	4.03	-49.3	-64.5	3.6	1.51e+00	0	39	104	0	60	60857
2026-01-07 19:25:33.56	308.80	3.98	-49.1	-64.5	3.6	1.51e+00	0	39	104	0	60	61025
2026-01-07 19:25:34.57	308.70	3.93	-49.1	-64.6	3.5	1.51e+00	0	39	104	0	60	61217
2026-01-07 19:25:35.58	308.60	3.87	-49.3	-64.6	3.6	1.51e+00	0	39	104	0	60	61038
2026-01-07 19:25:36.59	308.50	3.82	-49.3	-64.6	3.6	1.51e+00	0	39	104	0	60	61242
2026-01-07 19:25:37.60	308.40	3.77	-49.3	-64.5	3.6	1.51e+00	0	39	104	0	60	60847
2026-01-07 19:25:38.61	308.30	3.72	-49.3	-64.5	3.6	1.51e+00	0	39	104	0	60	60579
2026-01-07 19:25:39.62	308.20	3.67	-49.3	-64.5	3.6	1.51e+00	0	39	104	0	60	60405
2026-01-07 19:25:40.63	308.10	3.62	-49.3	-64.5	3.6	1.51e+00	0	39	104	0	60	60677
2026-01-07 19:25:41.64	308.01	3.57	-49.3	-64.5	3.6	1.51e+00	0	39	104	0	60	60979
2026-01-07 19:25:42.65	307.91	3.52	-49.3	-64.5	3.6	1.51e+00	0	39	104	0	60	60696
2026-01-07 19:25:43.66	307.81	3.47	-49.3	-64.5	3.5	1.51e+00	0	39	104	0	60	60783
2026-01-07 19:25:44.67	307.72	3.42	-49.3	-64.5	3.6	1.51e+00	0	39	104	0	60	60887
2026-01-07 19:25:45.68	307.62	3.37	-49.3	-64.5	3.6	1.51e+00	0	39	104	0	60	60738
2026-01-07 19:25:46.69	307.53	3.32	-49.3	-64.5	3.6	1.51e+00	0	39	104	0	60	60628
2026-01-07 19:25:47.70	307.43	3.26	-49.3	-64.4	3.6	1.51e+00	0	39	104	0	60	60304
2026-01-07 19:25:48.71	307.34	3.21	-49.3	-64.5	3.6	1.51e+00	0	39	104	0	60	60537
2026-01-07 19:25:49.72	307.24	3.16	-49.3	-64.4	3.6	1.51e+00	0	39	104	0	60	60316
2026-01-07 19:25:50.73	307.15	3.11	-49.3	-64.5	3.6	1.51e+00	0	39	104	0	60	60536
2026-01-07 19:25:51.74	307.05	3.06	-49.3	-64.5	3.6	1.51e+00	0	39	104	0	60	60747
2026-01-07 19:25:52.75	306.96	3.01	-49.3	-64.5	3.6	1.51e+00	0	39	104	0	60	60465
2026-01-07 19:25:53.76	306.87	2.96	-49.3	-64.5	3.6	1.51e+00	0	39	104	0	60	60666
2026-01-07 19:25:54.77	306.77	2.91	-49.3	-64.5	3.6	1.51e+00	0	39	104	0	60	60631
2026-01-07 19:25:55.78	306.68	2.86	-49.3	-64.6	3.5	1.51e+00	0	39	104	0	60	61040
2026-01-07 19:25:56.79	306.59	2.81	-49.3	-64.5	3.6	1.51e+00	0	39	104	0	60	60528
2026-01-07 19:25:57.80	306.50	2.76	-49.3	-64.5	3.6	1.51e+00	0	39	104	0	60	60433
2026-01-07 19:25:58.81	306.41	2.71	-49.3	-64.5	3.6	1.51e+00	0	39	104	0	60	60590
2026-01-07 19:25:59.82	306.32	2.66	-49.3	-64.5	3.6	1.51e+00	0	39	104	0	60	60633
2026-01-07 19:26:00.83	306.22	2.61	-49.3	-64.5	3.6	1.51e+00	0	39	104	0	60	60751
2026-01-07 19:26:01.84	306.13	2.56	-49.3	-64.5	3.6	1.51e+00	0	39	104	0	60	61015
2026-01-07 19:26:02.84	306.04	2.51	-49.3	-64.5	3.6	1.51e+00	0	39	104	0	60	60376
2026-01-07 19:26:03.86	305.95	2.46	-49.3	-64.5	3.6	1.51e+00	0	39	104	0	60	60766
2026-01-07 19:26:04.87	305.86	2.41	-49.3	-64.5	3.6	1.51e+00	0	39	104	0	60	60473
2026-01-07 19:26:05.88	305.77	2.36	-49.3	-64.5	3.6	1.51e+00	0	39	104	0	60	60581
2026-01-07 19:26:06.89	305.69	2.31	-49.3	-64.5	3.6	1.51e+00	0	39	104	0	60	60716
2026-01-07 19:26:07.90	305.60	2.26	-49.3	-64.5	3.6	1.51e+00	0	39	104	0	60	60494
2026-01-07 19:26:08.90	305.51	2.21	-49.3	-64.5	3.6	1.51e+00	0	39	104	0	60	60817
2026-01-07 19:26:09.91	305.42	2.16	-49.3	-64.5	3.6	1.51e+00	0	39	104	0	60	60594
2026-01-07 19:26:10.92	305.33	2.11	-49.3	-64.4	3.6	1.51e+00	0	39	104	0	60	60309
2026-01-07 19:26:11.93	305.25	2.06	-49.3	-64.5	3.6	1.51e+00	0	39	104	0	60	60792
2026-01-07 19:26:12.94	305.16	2.01	-49.3	-64.5	3.6	1.51e+00	0	39	104	0	60	60851
2026-01-07 19:26:13.95	305.07	1.96	-49.3	-64.5	3.6	1.51e+00	0	39	104	0	60	60494
2026-01-07 19:26:14.96	304.99	1.91	-49.3	-64.5	3.6	1.51e+00	0	39	104	0	60	60667
2026-01-07 19:26:15.97	304.90	1.86	-49.3	-64.5	3.6	1.51e+00	0	39	104	0	60	60522
2026-01-07 19:26:16.98	304.81	1.81	-49.3	-64.5	3.6	1.51e+00	0	39	104	0	60	60410
2026-01-07 19:26:17.99	304.73	1.76	-49.3	-64.5	3.6	1.51e+00	0	39	104	0	60	60555
2026-01-07 19:26:19.00	304.64	1.71	-49.3	-64.5	3.6	1.51e+00	0	39	104	0	60	60660
2026-01-07 19:26:20.01	304.56	1.66	-49.3	-64.5	3.6	1.51e+00	0	39	104	0	60	60477
2026-01-07 19:26:21.02	304.47	1.61	-49.3	-64.5	3.6	1.51e+00	0	39	104	0	60	60456
2026-01-07 19:26:22.03	304.39	1.56	-49.3	-64.5	3.6	1.51e+00	0	39	104	0	60	60598
2026-01-07 19:26:23.04	304.30	1.51	-49.3	-64.5	3.5	1.51e+00	0	39	104	0	60	60808
2026-01-07 19:26:24.05	304.22	1.46	-49.3	-64.5	3.6	1.51e+00	0	39	104	0	60	60876
2026-01-07 19:26:25.06	304.14	1.41	-49.3	-64.5	3.6	1.51e+00	0	39	104	0	60	60843
2026-01-07 19:26:26.07	304.05	1.36	-49.3	-64.4	3.6	1.51e+00	0	39	104	0	60	60240
2026-01-07 19:26:27.08	303.97	1.31	-49.3	-64.5	3.6	1.51e+00	0	39	104	0	60	60575
2026-01-07 19:26:28.09	303.89	1.26	-49.3	-64.5	3.6	1.51e+00	0	39	104	0	60	60489
2026-01-07 19:26:29.10	303.81	1.21	-49.3	-64.5	3.6	1.51e+00	0	39	104	0	60	60623
2026-01-07 19:26:30.11	303.72	1.16	-49.3	-64.5	3.6	1.51e+00	0	39	104	0	60	60621
2026-01-07 19:26:31.12	303.64	1.11	-49.3	-64.5	3.6	1.51e+00	0	39	104	0	60	60555
2026-01-07 19:26:32.13	303.56	1.06	-49.3	-64.5	3.6	1.51e+00	0	39	104	0	60	60630
2026-01-07 19:26:33.14	303.48	1.01	-49.3	-64.5	3.6	1.51e+00	0	39	104	0	60	60530
2026-01-07 19:26:34.15	303.40	0.96	-49.3	-64.5	3.6	1.51e+00	0	39	104	0	60	60782
2026-01-07 19:26:35.16	303.32	0.91	-49.3	-64.5	3.6	1.51e+00	0	39	104	0	60	60689
2026-01-07 19:26:36.17	303.24	0.86	-49.3	-64.5	3.6	1.51e+00	0	39	104	0	60	60623
2026-01-07 19:26:37.18	303.16	0.81	-49.3	-64.5	3.6	1.51e+00	0	39	104	0	60	60506
2026-01-07 19:26:38.19	303.08	0.76	-49.3	-64.5	3.6	1.51e+00	0	39	104	0	60	60511
2026-01-07 19:26:39.19	303.00	0.71	-49.3	-64.5	3.6	1.51e+00	0	39	104	0	60	60676
2026-01-07 19:26:40.21	302.92	0.66	-49.3	-64.5	3.6	1.51e+00	0	39	104	0	60	60480
2026-01-07 19:26:41.21	302.84	0.61	-49.3	-64.5	3.6	1.51e+00	0	39	104	0	60	60371
2026-01-07 19:26:42.22	302.76	0.56	-49.3	-64.5	3.6	1.51e+00	0	39	104	0	60	60835
2026-01-07 19:26:43.23	302.68	0.52	-49.3	-64.5	3.6	1.51e+00	0	39	104	0	60	60515
2026-01-07 19:26:44.24	302.60	0.47	-49.3	-64.5	3.6	1.51e+00	0	39	104	0	60	60485
2026-01-07 19:26:45.25	302.53	0.42	-49.3	-64.5	3.6	1.51e+00	0	39	104	0	60	60773
2026-01-07 19:26:46.26	302.45	0.37	-49.3	-64.5	3.6	1.51e+00	0	39	104	0	60	60662
2026-01-07 19:26:47.27	302.37	0.32	-49.3	-64.5	3.6	1.51e+00	0	39	104	0	60	60918
2026-01-07 19:26:48.28	302.29	0.27	-49.3	-64.5	3.6	1.51e+00	0	39	104	0	60	60735
2026-01-07 19:26:49.29	302.22	0.22	-49.3	-64.5	3.6	1.51e+00	0	39	104	0	60	60635
2026-01-07 19:26:50.30	302.14	0.17	-49.3	-64.5	3.6	1.51e+00	0	39	104	0	60	60550
2026-01-07 19:26:51.31	302.06	0.12	-49.3	-64.4	3.6	1.51e+00	0	39	104	0	60	60285
2026-01-07 19:26:52.32	301.99	0.07	-49.3	-64.5	3.6	1.51e+00	0	39	104	0	60	60607
2026-01-07 19:26:53.33	301.91	0.02	-49.3	-64.5	3.6	1.51e+00	0	39	104	0	60	60549

#Closed at: 2026-01-07 19:26:53
#Recorded file [0 MB]: D:/lorett/data/35029_260108_071427.dat