passes_logs/2026/01/07/R4.6S_Anadyr/R4.6S_Anadyr__20260107_205238_NOAA_20_JPSS-1_rec.log

#Pass ID: 20260107_205238_NOAA 20 (JPSS-1)
#Satellite: NOAA 20 (JPSS-1)
#Configuration: NOAA 20
#almurnet v.1.7.20251203
#Start time: 2026-01-07 20:52:40

#Version: 2.2.20231116
#Station: R4.6S_Anadyr
#Location: 177.4865 lon 64.73178 lat
#TLE: 1 43013U 17073A   26005.46207808  .00000128  00000+0  81791-4 0  9997
#TLE: 2 43013  98.7627 306.5027 0001826  53.0458 307.0885 14.19533487421381

#Time	Az	El	Level	Level2	SNR	BER	BlckErr	Temp	State	Recorded	gain1	gain2
2026-01-07 20:52:40.68	78.65	0.09	-49.4	-64.3	3.5	1.51e+00	0	36	0	0	60	59321
2026-01-07 20:52:41.69	78.58	0.14	-49.4	-64.6	3.6	1.51e+00	0	37	104	0	60	61254
2026-01-07 20:52:42.70	78.51	0.19	-49.4	-64.6	3.6	1.51e+00	0	37	104	0	60	61400
2026-01-07 20:52:43.71	78.45	0.24	-49.4	-64.6	3.6	1.51e+00	0	37	104	0	60	61618
2026-01-07 20:52:44.72	78.38	0.29	-49.4	-64.7	3.6	1.51e+00	0	37	104	0	60	61761
2026-01-07 20:52:45.73	78.31	0.35	-49.4	-64.6	3.6	1.51e+00	0	37	104	0	60	61564
2026-01-07 20:52:46.74	78.24	0.40	-49.5	-64.6	3.6	1.51e+00	0	37	104	0	60	61684
2026-01-07 20:52:47.75	78.17	0.45	-49.5	-64.6	3.6	1.51e+00	0	37	104	0	60	61687
2026-01-07 20:52:48.76	78.09	0.50	-49.4	-64.7	3.6	1.51e+00	0	37	104	0	60	62226
2026-01-07 20:52:49.77	78.02	0.55	-49.5	-64.7	3.6	1.51e+00	0	37	104	0	60	61944
2026-01-07 20:52:50.78	77.95	0.61	-49.5	-64.7	3.6	1.51e+00	0	37	104	0	60	62081
2026-01-07 20:52:51.79	77.88	0.66	-49.5	-64.8	3.6	1.51e+00	0	37	104	0	60	62620
2026-01-07 20:52:52.80	77.81	0.71	-49.1	-64.6	3.6	1.51e+00	0	37	104	0	60	61548
2026-01-07 20:52:53.81	77.74	0.76	-49.2	-64.5	3.6	1.51e+00	0	37	104	0	60	60735
2026-01-07 20:52:54.82	77.67	0.81	-49.0	-64.4	3.6	1.51e+00	0	37	104	0	60	59662
2026-01-07 20:52:55.83	77.59	0.87	-48.6	-64.2	3.6	1.51e+00	0	37	104	0	60	58595
2026-01-07 20:52:56.84	77.52	0.92	-48.6	-63.8	3.5	1.51e+00	0	37	104	0	60	56010
2026-01-07 20:52:57.85	77.45	0.97	-47.9	-63.1	3.6	1.51e+00	0	37	104	0	60	51757
2026-01-07 20:52:58.86	77.37	1.02	-47.8	-63.1	3.6	1.51e+00	0	37	104	0	60	51397
2026-01-07 20:52:59.87	77.30	1.07	-47.8	-63.1	3.6	1.51e+00	0	37	104	0	60	51360
2026-01-07 20:53:00.88	77.23	1.13	-47.8	-63.0	3.6	1.51e+00	0	37	104	0	60	51238
2026-01-07 20:53:01.89	77.15	1.18	-47.8	-63.1	3.5	1.51e+00	0	37	104	0	60	51393
2026-01-07 20:53:02.90	77.08	1.23	-47.8	-63.0	3.6	1.51e+00	0	37	104	0	60	51323
2026-01-07 20:53:03.91	77.00	1.28	-47.8	-63.1	3.6	1.51e+00	0	37	104	0	60	51394
2026-01-07 20:53:04.92	76.93	1.34	-47.8	-63.1	3.6	1.51e+00	0	37	104	0	60	51373
2026-01-07 20:53:05.93	76.85	1.39	-47.8	-63.0	3.6	1.51e+00	0	38	104	0	60	51252
2026-01-07 20:53:06.94	76.78	1.44	-47.8	-63.0	3.6	1.51e+00	0	38	104	0	60	51213
2026-01-07 20:53:07.95	76.70	1.49	-47.8	-63.0	3.6	1.51e+00	0	37	104	0	60	51052
2026-01-07 20:53:08.96	76.63	1.55	-47.8	-63.0	3.6	1.51e+00	0	38	104	0	60	50860
2026-01-07 20:53:09.97	76.55	1.60	-47.8	-63.0	3.6	1.51e+00	0	37	104	0	60	51215
2026-01-07 20:53:10.98	76.47	1.65	-47.8	-63.0	3.5	1.51e+00	0	38	104	0	60	51300
2026-01-07 20:53:11.98	76.40	1.71	-47.8	-63.0	3.6	1.51e+00	0	38	104	0	60	51137
2026-01-07 20:53:12.99	76.32	1.76	-47.8	-63.0	3.6	1.51e+00	0	37	104	0	60	51097
2026-01-07 20:53:14.00	76.24	1.81	-47.8	-63.0	3.6	1.51e+00	0	37	104	0	60	50842
2026-01-07 20:53:15.01	76.16	1.86	-47.8	-63.0	3.6	1.51e+00	0	38	104	0	60	51166
2026-01-07 20:53:16.02	76.09	1.92	-47.8	-63.0	3.6	1.51e+00	0	38	104	0	60	51035
2026-01-07 20:53:17.03	76.01	1.97	-47.8	-62.9	3.6	1.51e+00	0	38	104	0	60	50515
2026-01-07 20:53:18.04	75.93	2.02	-47.8	-62.8	3.6	1.51e+00	0	38	104	0	60	49700
2026-01-07 20:53:19.05	75.85	2.08	-47.8	-62.8	3.6	1.51e+00	0	38	104	0	60	49757
2026-01-07 20:53:20.06	75.77	2.13	-47.8	-62.7	3.6	1.51e+00	0	38	104	0	60	49598
2026-01-07 20:53:21.07	75.69	2.18	-47.8	-62.9	3.6	1.51e+00	0	38	104	0	60	50626
2026-01-07 20:53:22.08	75.61	2.24	-47.8	-63.0	3.6	1.51e+00	0	38	104	0	60	51136
2026-01-07 20:53:23.09	75.53	2.29	-47.8	-63.0	3.6	1.51e+00	0	38	104	0	60	51159
2026-01-07 20:53:24.10	75.45	2.34	-47.8	-63.0	3.5	1.51e+00	0	38	104	0	60	50898
2026-01-07 20:53:25.11	75.37	2.40	-47.8	-63.0	3.6	1.51e+00	0	38	104	0	60	50796
2026-01-07 20:53:26.12	75.29	2.45	-47.8	-63.0	3.6	1.51e+00	0	38	104	0	60	51142
2026-01-07 20:53:27.13	75.21	2.51	-47.8	-63.0	3.6	1.51e+00	0	38	104	0	60	50979
2026-01-07 20:53:28.14	75.13	2.56	-47.8	-62.8	3.6	1.51e+00	0	38	104	0	60	50066
2026-01-07 20:53:29.15	75.05	2.61	-47.8	-62.4	3.6	1.51e+00	0	38	104	0	60	47521
2026-01-07 20:53:30.16	74.96	2.67	-47.8	-62.3	3.6	1.51e+00	0	38	104	0	60	47019
2026-01-07 20:53:31.17	74.88	2.72	-47.8	-62.8	3.6	1.51e+00	0	38	104	0	60	49737
2026-01-07 20:53:32.18	74.80	2.77	-47.8	-62.6	3.6	1.51e+00	0	38	104	0	60	48742
2026-01-07 20:53:33.19	74.71	2.83	-47.6	-59.4	3.8	1.51e+00	0	38	104	0	60	33809
2026-01-07 20:53:34.20	74.63	2.88	-47.1	-54.9	6.8	7.30e-01	92	38	0	0	60	20001
2026-01-07 20:53:35.21	74.55	2.94	-46.3	-51.4	10.4	2.78e-02	92	38	0	2097152	60	13404
2026-01-07 20:53:36.22	74.46	2.99	-45.5	-49.5	12.5	8.46e-04	92	38	0	4194304	60	10786
2026-01-07 20:53:37.23	74.38	3.04	-44.7	-47.9	14.0	2.36e-05	0	38	0	5242880	60	8997
2026-01-07 20:53:38.24	74.29	3.10	-44.4	-47.4	14.6	0.00e+00	92	38	0	7340032	60	8450
2026-01-07 20:53:39.24	74.21	3.15	-45.7	-49.6	13.4	6.40e-04	2	38	0	9437184	60	10964
2026-01-07 20:53:40.26	74.12	3.21	-43.4	-45.5	17.1	0.00e+00	92	38	0	11534336	60	6814
2026-01-07 20:53:41.27	74.04	3.26	-47.8	-62.8	3.6	1.51e+00	0	38	104	12582912	60	50084
2026-01-07 20:53:42.28	73.95	3.32	-46.3	-51.5	11.7	1.15e+00	92	38	104	12582912	60	13555
2026-01-07 20:53:43.29	73.86	3.37	-45.8	-50.0	12.1	5.11e-05	92	38	0	13631488	60	11458
2026-01-07 20:53:44.29	73.78	3.42	-44.2	-46.9	15.1	0.00e+00	0	38	0	14680064	60	7977
2026-01-07 20:53:45.30	73.69	3.48	-43.7	-46.1	16.2	0.00e+00	92	38	0	16777216	60	7274
2026-01-07 20:53:46.31	73.60	3.53	-42.8	-44.8	17.5	0.00e+00	0	38	0	18874368	60	6311
2026-01-07 20:53:47.32	73.52	3.59	-42.4	-44.3	18.0	0.00e+00	92	38	0	20971520	58	6619
2026-01-07 20:53:48.33	73.43	3.64	-42.4	-44.2	17.9	0.00e+00	92	38	0	23068672	58	6600
2026-01-07 20:53:49.34	73.34	3.70	-42.3	-44.1	18.2	0.00e+00	91	38	0	24117248	58	6531
2026-01-07 20:53:50.35	73.25	3.75	-42.3	-44.1	18.1	0.00e+00	92	38	0	26214400	58	6521
2026-01-07 20:53:51.36	73.16	3.81	-42.3	-44.1	18.1	0.00e+00	0	38	0	28311552	58	6465
2026-01-07 20:53:52.37	73.07	3.86	-42.4	-44.3	18.0	0.00e+00	92	38	0	30408704	58	6620
2026-01-07 20:53:53.38	72.98	3.92	-42.4	-44.1	18.0	0.00e+00	79	38	0	32505856	58	6523
2026-01-07 20:53:54.39	72.89	3.97	-42.3	-44.0	18.3	0.00e+00	90	38	0	33554432	58	6460
2026-01-07 20:53:55.40	72.80	4.03	-42.2	-44.0	18.2	0.00e+00	92	38	0	35651584	58	6403
2026-01-07 20:53:56.41	72.71	4.08	-42.2	-44.0	18.3	0.00e+00	92	38	0	37748736	58	6412
2026-01-07 20:53:57.42	72.62	4.14	-42.4	-44.2	18.1	0.00e+00	92	38	0	39845888	58	6547
2026-01-07 20:53:58.43	72.53	4.19	-42.5	-44.3	18.1	0.00e+00	79	38	0	41943040	58	6691
2026-01-07 20:53:59.44	72.44	4.25	-42.4	-44.2	18.1	0.00e+00	92	38	0	44040192	58	6576
2026-01-07 20:54:00.45	72.34	4.30	-42.5	-44.4	17.9	0.00e+00	0	38	0	45088768	58	6704
2026-01-07 20:54:01.46	72.25	4.36	-42.4	-44.2	18.2	0.00e+00	92	38	0	47185920	58	6570
2026-01-07 20:54:02.47	72.16	4.41	-42.4	-44.1	18.2	0.00e+00	0	38	0	49283072	58	6495
2026-01-07 20:54:03.48	72.07	4.47	-42.3	-44.0	18.4	0.00e+00	92	38	0	51380224	58	6426
2026-01-07 20:54:04.49	71.97	4.52	-42.2	-44.0	18.4	0.00e+00	90	38	0	53477376	58	6395
2026-01-07 20:54:05.50	71.88	4.58	-42.4	-44.2	18.1	0.00e+00	88	38	0	54525952	58	6545
2026-01-07 20:54:06.51	71.78	4.63	-42.3	-44.1	18.3	0.00e+00	92	38	0	56623104	58	6491
2026-01-07 20:54:07.52	71.69	4.69	-42.3	-44.0	18.4	0.00e+00	0	38	0	58720256	58	6432
2026-01-07 20:54:08.53	71.59	4.74	-42.3	-44.0	18.3	0.00e+00	90	38	0	60817408	58	6451
2026-01-07 20:54:09.54	71.50	4.80	-42.3	-44.0	18.5	0.00e+00	0	38	0	62914560	58	6437
2026-01-07 20:54:10.55	71.40	4.85	-42.3	-44.1	18.3	0.00e+00	92	38	0	63963136	58	6478
2026-01-07 20:54:11.56	71.31	4.91	-42.3	-44.0	18.4	0.00e+00	92	38	0	66060288	58	6463
2026-01-07 20:54:12.57	71.21	4.97	-42.3	-44.0	18.4	0.00e+00	92	38	0	68157440	58	6423
2026-01-07 20:54:13.58	71.11	5.02	-42.4	-44.1	18.4	0.00e+00	92	38	0	70254592	58	6478
2026-01-07 20:54:14.59	71.01	5.08	-42.5	-44.2	18.3	0.00e+00	6	38	0	72351744	58	6578
2026-01-07 20:54:15.60	70.92	5.13	-42.4	-44.1	18.4	0.00e+00	92	38	0	73400320	58	6509
2026-01-07 20:54:16.61	70.82	5.19	-42.3	-44.0	18.4	0.00e+00	6	38	0	75497472	58	6458
2026-01-07 20:54:17.62	70.72	5.24	-42.3	-44.0	18.5	0.00e+00	92	38	0	77594624	58	6433
2026-01-07 20:54:18.63	70.62	5.30	-42.3	-44.0	18.5	0.00e+00	92	38	0	79691776	58	6451
2026-01-07 20:54:19.64	70.52	5.36	-42.4	-44.2	18.3	0.00e+00	18	38	0	81788928	58	6547
2026-01-07 20:54:20.65	70.42	5.41	-42.5	-44.2	18.3	0.00e+00	92	38	0	83886080	58	6582
2026-01-07 20:54:21.66	70.32	5.47	-42.5	-44.2	18.3	0.00e+00	3	38	0	84934656	58	6572
2026-01-07 20:54:22.67	70.22	5.52	-42.4	-44.1	18.4	0.00e+00	92	38	0	87031808	58	6494
2026-01-07 20:54:23.68	70.12	5.58	-42.3	-44.0	18.5	0.00e+00	0	38	0	89128960	58	6396
2026-01-07 20:54:24.69	70.02	5.64	-42.3	-44.0	18.6	0.00e+00	91	38	0	91226112	58	6428
2026-01-07 20:54:25.69	69.92	5.69	-42.2	-43.8	18.8	0.00e+00	49	38	0	92274688	58	6288
2026-01-07 20:54:26.70	69.81	5.75	-42.2	-43.9	18.7	0.00e+00	92	38	0	94371840	58	6355
2026-01-07 20:54:27.71	69.71	5.80	-42.2	-43.8	18.8	0.00e+00	92	38	0	96468992	58	6270
2026-01-07 20:54:28.72	69.61	5.86	-42.1	-43.8	18.7	0.00e+00	92	38	0	98566144	58	6259
2026-01-07 20:54:29.73	69.51	5.92	-42.2	-43.9	18.6	0.00e+00	92	38	0	100663296	58	6345
2026-01-07 20:54:30.74	69.40	5.97	-42.2	-43.9	18.6	0.00e+00	78	38	0	101711872	58	6354
2026-01-07 20:54:31.75	69.30	6.03	-42.2	-43.8	18.8	0.00e+00	92	38	0	103809024	58	6295
2026-01-07 20:54:32.76	69.19	6.09	-42.1	-43.8	18.8	0.00e+00	4	38	0	105906176	58	6258
2026-01-07 20:54:33.77	69.09	6.14	-42.1	-43.7	18.8	0.00e+00	91	38	0	108003328	58	6208
2026-01-07 20:54:34.78	68.98	6.20	-42.2	-43.8	18.8	0.00e+00	92	38	0	110100480	58	6291
2026-01-07 20:54:35.79	68.88	6.26	-42.2	-43.8	18.9	0.00e+00	0	38	0	112197632	58	6271
2026-01-07 20:54:36.80	68.77	6.31	-42.2	-43.8	18.9	0.00e+00	91	38	0	113246208	58	6299
2026-01-07 20:54:37.81	68.66	6.37	-42.2	-43.8	18.8	0.00e+00	7	38	0	115343360	58	6272
2026-01-07 20:54:38.82	68.56	6.42	-42.2	-43.8	18.8	0.00e+00	91	38	0	117440512	58	6296
2026-01-07 20:54:39.83	68.45	6.48	-42.2	-43.8	18.9	0.00e+00	0	38	0	119537664	58	6276
2026-01-07 20:54:40.84	68.34	6.54	-42.2	-43.8	18.8	0.00e+00	92	38	0	121634816	58	6304
2026-01-07 20:54:41.85	68.23	6.59	-42.1	-43.7	19.0	0.00e+00	90	38	0	122683392	58	6182
2026-01-07 20:54:42.86	68.12	6.65	-41.9	-43.4	19.3	0.00e+00	92	38	0	124780544	58	6025
2026-01-07 20:54:43.87	68.01	6.71	-41.9	-43.4	19.3	0.00e+00	92	38	0	126877696	58	6012
2026-01-07 20:54:44.88	67.90	6.76	-41.7	-43.2	19.6	0.00e+00	0	38	0	128974848	56	6573
2026-01-07 20:54:45.89	67.79	6.82	-41.8	-43.2	19.5	0.00e+00	92	38	0	131072000	56	6594
2026-01-07 20:54:46.90	67.68	6.88	-41.5	-43.0	19.7	0.00e+00	81	38	0	132120576	56	6408
2026-01-07 20:54:47.91	67.57	6.94	-41.7	-43.2	19.6	0.00e+00	90	38	0	134217728	56	6550
2026-01-07 20:54:48.92	67.46	6.99	-41.6	-43.1	19.5	0.00e+00	92	38	0	136314880	56	6501
2026-01-07 20:54:49.93	67.35	7.05	-41.5	-42.9	19.8	0.00e+00	91	38	0	138412032	56	6331
2026-01-07 20:54:50.94	67.24	7.11	-41.6	-43.0	19.8	0.00e+00	92	38	0	140509184	56	6429
2026-01-07 20:54:51.95	67.12	7.16	-41.3	-42.7	20.0	0.00e+00	89	38	0	141557760	56	6215
2026-01-07 20:54:52.97	67.01	7.22	-41.5	-42.9	19.9	0.00e+00	92	38	0	143654912	56	6385
2026-01-07 20:54:53.97	66.90	7.28	-41.4	-42.8	19.9	0.00e+00	0	38	0	145752064	56	6290
2026-01-07 20:54:54.98	66.78	7.33	-41.4	-42.7	20.0	0.00e+00	92	38	0	147849216	56	6238
2026-01-07 20:54:55.99	66.67	7.39	-41.4	-42.7	20.1	0.00e+00	72	38	0	149946368	56	6222
2026-01-07 20:54:57.00	66.55	7.45	-41.2	-42.5	20.2	0.00e+00	92	38	0	152043520	56	6057
2026-01-07 20:54:58.01	66.44	7.50	-41.3	-42.6	20.1	0.00e+00	90	38	0	153092096	56	6152
2026-01-07 20:54:59.02	66.32	7.56	-41.3	-42.7	20.0	0.00e+00	0	38	0	155189248	56	6204
2026-01-07 20:55:00.03	66.20	7.62	-41.3	-42.6	20.1	0.00e+00	92	38	0	157286400	56	6152
2026-01-07 20:55:01.04	66.09	7.67	-41.3	-42.6	19.6	0.00e+00	2	38	0	159383552	56	6142
2026-01-07 20:55:02.05	65.97	7.73	-41.2	-42.5	20.3	0.00e+00	92	38	0	161480704	56	6082
2026-01-07 20:55:03.06	65.85	7.79	-41.3	-42.6	20.1	0.00e+00	0	38	0	162529280	56	6145
2026-01-07 20:55:04.07	65.73	7.85	-41.1	-42.4	20.3	0.00e+00	92	38	0	164626432	56	6019
2026-01-07 20:55:05.08	65.61	7.90	-41.0	-42.3	20.5	0.00e+00	92	38	0	166723584	56	5905
2026-01-07 20:55:06.08	65.50	7.96	-41.0	-42.3	20.4	0.00e+00	2	38	0	168820736	56	5929
2026-01-07 20:55:07.09	65.38	8.02	-41.0	-42.3	20.4	0.00e+00	92	38	0	169869312	56	5950
2026-01-07 20:55:08.10	65.26	8.07	-41.0	-42.3	20.4	0.00e+00	75	38	0	171966464	56	5952
2026-01-07 20:55:09.11	65.13	8.13	-41.0	-42.2	20.6	0.00e+00	92	38	0	174063616	56	5891
2026-01-07 20:55:10.12	65.01	8.19	-40.9	-42.2	20.6	0.00e+00	0	38	0	176160768	56	5843
2026-01-07 20:55:11.13	64.89	8.25	-40.8	-42.0	20.8	0.00e+00	92	38	0	178257920	56	5747
2026-01-07 20:55:12.14	64.77	8.30	-40.6	-41.8	20.9	0.00e+00	7	38	0	180355072	54	6270
2026-01-07 20:55:13.15	64.65	8.36	-40.6	-41.8	20.9	0.00e+00	65	38	0	181403648	54	6315
2026-01-07 20:55:14.16	64.52	8.42	-40.7	-42.0	20.7	0.00e+00	90	38	0	183500800	54	6392
2026-01-07 20:55:15.17	64.40	8.47	-40.7	-41.9	20.8	0.00e+00	0	38	0	185597952	54	6378
2026-01-07 20:55:16.18	64.27	8.53	-40.8	-42.1	20.6	0.00e+00	92	38	0	187695104	54	6480
2026-01-07 20:55:17.19	64.15	8.59	-40.9	-42.1	20.5	0.00e+00	87	38	0	189792256	54	6520
2026-01-07 20:55:18.19	64.03	8.64	-40.8	-42.1	20.6	0.00e+00	92	38	0	190840832	54	6499
2026-01-07 20:55:19.20	63.90	8.70	-40.9	-42.1	20.6	0.00e+00	1	38	0	192937984	54	6539
2026-01-07 20:55:20.21	63.77	8.76	-40.9	-42.2	20.5	0.00e+00	92	38	0	195035136	54	6556
2026-01-07 20:55:21.22	63.65	8.82	-41.0	-42.3	20.4	0.00e+00	92	38	0	197132288	54	6631
2026-01-07 20:55:22.23	63.52	8.87	-41.0	-42.3	20.4	0.00e+00	0	38	0	199229440	54	6648
2026-01-07 20:55:23.24	63.39	8.93	-41.1	-42.4	20.3	0.00e+00	92	38	0	200278016	54	6706
2026-01-07 20:55:24.25	63.26	8.99	-41.3	-42.7	20.2	0.00e+00	0	38	0	202375168	54	6934
2026-01-07 20:55:25.26	63.13	9.04	-41.2	-42.6	20.2	0.00e+00	92	38	0	204472320	54	6856
2026-01-07 20:55:26.27	63.01	9.10	-41.1	-42.5	20.2	0.00e+00	0	38	0	206569472	54	6787
2026-01-07 20:55:27.28	62.88	9.16	-41.2	-42.5	20.2	0.00e+00	92	38	0	208666624	54	6811
2026-01-07 20:55:28.29	62.75	9.22	-41.0	-42.3	20.3	0.00e+00	92	38	0	209715200	54	6682
2026-01-07 20:55:29.30	62.61	9.27	-41.1	-42.4	20.5	0.00e+00	3	38	0	211812352	54	6695
2026-01-07 20:55:30.31	62.48	9.33	-41.0	-42.3	20.5	0.00e+00	90	38	0	213909504	54	6638
2026-01-07 20:55:31.32	62.35	9.39	-40.9	-42.1	20.6	0.00e+00	0	38	0	216006656	54	6512
2026-01-07 20:55:32.33	62.22	9.44	-40.8	-42.0	20.7	0.00e+00	92	38	0	218103808	54	6452
2026-01-07 20:55:33.34	62.09	9.50	-40.8	-42.1	20.7	0.00e+00	5	38	0	219152384	54	6470
2026-01-07 20:55:34.35	61.95	9.56	-40.8	-42.0	20.8	0.00e+00	92	38	0	221249536	54	6440
2026-01-07 20:55:35.36	61.82	9.61	-40.7	-41.9	20.9	0.00e+00	0	38	0	223346688	54	6375
2026-01-07 20:55:36.37	61.68	9.67	-40.5	-41.8	21.0	0.00e+00	55	38	0	225443840	54	6247
2026-01-07 20:55:37.38	61.55	9.73	-40.6	-41.8	21.1	0.00e+00	92	38	0	227540992	54	6258
2026-01-07 20:55:38.39	61.41	9.79	-40.4	-41.6	21.2	0.00e+00	0	38	0	228589568	54	6106
2026-01-07 20:55:39.40	61.28	9.84	-40.4	-41.5	21.2	0.00e+00	90	38	0	230686720	54	6093
2026-01-07 20:55:40.41	61.14	9.90	-40.4	-41.6	21.2	0.00e+00	0	38	0	232783872	54	6124
2026-01-07 20:55:41.42	61.00	9.96	-40.4	-41.6	21.2	0.00e+00	92	38	0	234881024	54	6146
2026-01-07 20:55:42.43	60.86	10.01	-40.4	-41.6	21.2	0.00e+00	0	38	0	236978176	54	6123
2026-01-07 20:55:43.44	60.73	10.07	-40.3	-41.5	21.3	0.00e+00	92	38	0	238026752	54	6064
2026-01-07 20:55:44.45	60.59	10.13	-40.3	-41.5	21.3	0.00e+00	92	38	0	240123904	54	6057
2026-01-07 20:55:45.46	60.45	10.18	-40.3	-41.4	21.4	0.00e+00	1	38	0	242221056	54	6030
2026-01-07 20:55:46.47	60.31	10.24	-40.3	-41.5	21.3	0.00e+00	92	38	0	244318208	54	6061
2026-01-07 20:55:47.48	60.17	10.30	-40.4	-41.6	21.1	0.00e+00	2	38	0	246415360	54	6144
2026-01-07 20:55:48.48	60.03	10.35	-40.4	-41.6	21.2	0.00e+00	91	38	0	248512512	54	6118
2026-01-07 20:55:49.49	59.89	10.41	-40.4	-41.6	21.1	0.00e+00	6	38	0	249561088	54	6155
2026-01-07 20:55:50.50	59.74	10.46	-40.5	-41.7	21.1	0.00e+00	91	38	0	251658240	54	6219
2026-01-07 20:55:51.51	59.60	10.52	-40.5	-41.7	21.1	0.00e+00	91	38	0	253755392	54	6188
2026-01-07 20:55:52.52	59.46	10.58	-40.5	-41.7	21.1	0.00e+00	5	38	0	255852544	54	6219
2026-01-07 20:55:53.53	59.31	10.63	-40.7	-41.9	20.8	0.00e+00	92	38	0	257949696	54	6375
2026-01-07 20:55:54.54	59.17	10.69	-40.6	-41.8	21.1	0.00e+00	6	38	0	258998272	54	6263
2026-01-07 20:55:55.55	59.02	10.75	-40.6	-41.9	20.9	0.00e+00	92	38	0	261095424	54	6319
2026-01-07 20:55:56.56	58.88	10.80	-40.5	-41.7	21.2	0.00e+00	0	38	0	263192576	54	6189
2026-01-07 20:55:57.57	58.73	10.86	-40.5	-41.7	21.1	0.00e+00	90	38	0	265289728	54	6215
2026-01-07 20:55:58.58	58.58	10.91	-40.5	-41.7	21.1	0.00e+00	0	38	0	267386880	54	6218
2026-01-07 20:55:59.59	58.44	10.97	-40.5	-41.7	21.0	0.00e+00	91	38	0	268435456	54	6235
2026-01-07 20:56:00.60	58.29	11.03	-40.4	-41.5	21.3	0.00e+00	92	38	0	270532608	54	6086
2026-01-07 20:56:01.61	58.14	11.08	-40.4	-41.6	21.2	0.00e+00	7	38	0	272629760	54	6146
2026-01-07 20:56:02.62	57.99	11.14	-40.5	-41.6	21.2	0.00e+00	92	38	0	274726912	54	6158
2026-01-07 20:56:03.63	57.84	11.19	-40.4	-41.5	21.3	0.00e+00	0	38	0	276824064	54	6090
2026-01-07 20:56:04.64	57.69	11.25	-40.4	-41.5	21.2	0.00e+00	92	38	0	277872640	54	6097
2026-01-07 20:56:05.65	57.54	11.31	-40.4	-41.6	21.2	0.00e+00	12	38	0	279969792	54	6139
2026-01-07 20:56:06.66	57.39	11.36	-40.5	-41.6	21.2	0.00e+00	26	38	0	282066944	54	6159
2026-01-07 20:56:07.66	57.24	11.42	-40.6	-41.8	21.1	0.00e+00	90	38	0	284164096	54	6263
2026-01-07 20:56:08.67	57.09	11.47	-40.6	-41.8	21.1	0.00e+00	6	38	0	286261248	54	6249
2026-01-07 20:56:09.68	56.93	11.53	-40.7	-41.9	20.9	0.00e+00	92	38	0	287309824	54	6346
2026-01-07 20:56:10.69	56.78	11.58	-40.6	-41.9	21.1	0.00e+00	6	38	0	289406976	54	6320
2026-01-07 20:56:11.70	56.63	11.64	-40.6	-41.8	21.1	0.00e+00	92	38	0	291504128	54	6272
2026-01-07 20:56:12.71	56.47	11.69	-40.7	-41.9	21.0	0.00e+00	80	38	0	293601280	54	6358
2026-01-07 20:56:13.72	56.31	11.75	-40.6	-41.9	21.0	0.00e+00	92	38	0	295698432	54	6320
2026-01-07 20:56:14.73	56.16	11.80	-40.5	-41.7	21.2	0.00e+00	42	38	0	296747008	54	6207
2026-01-07 20:56:15.74	56.00	11.86	-40.5	-41.7	21.2	0.00e+00	75	38	0	298844160	54	6233
2026-01-07 20:56:16.75	55.84	11.91	-40.5	-41.6	21.2	0.00e+00	92	38	0	300941312	54	6162
2026-01-07 20:56:17.76	55.69	11.97	-40.2	-41.4	21.5	0.00e+00	0	38	0	303038464	54	5974
2026-01-07 20:56:18.77	55.53	12.02	-40.2	-41.3	21.5	0.00e+00	92	38	0	305135616	54	5955
2026-01-07 20:56:19.78	55.37	12.08	-40.1	-41.2	21.6	0.00e+00	75	38	0	306184192	54	5876
2026-01-07 20:56:20.79	55.21	12.13	-40.0	-41.2	21.6	0.00e+00	92	38	0	308281344	54	5848
2026-01-07 20:56:21.80	55.05	12.18	-40.1	-41.2	21.5	0.00e+00	75	38	0	310378496	54	5896
2026-01-07 20:56:22.80	54.89	12.24	-40.1	-41.2	21.7	0.00e+00	0	38	0	312475648	54	5844
2026-01-07 20:56:23.82	54.73	12.29	-40.0	-41.1	21.8	0.00e+00	92	38	0	314572800	54	5773
2026-01-07 20:56:24.83	54.56	12.35	-39.8	-40.9	22.0	0.00e+00	0	38	0	316669952	54	5674
2026-01-07 20:56:25.84	54.40	12.40	-39.8	-40.9	22.0	0.00e+00	91	38	0	317718528	54	5637
2026-01-07 20:56:26.84	54.24	12.45	-39.6	-40.7	22.1	0.00e+00	0	38	0	319815680	52	6190
2026-01-07 20:56:27.85	54.08	12.51	-39.5	-40.5	22.3	0.00e+00	90	38	0	321912832	52	6065
2026-01-07 20:56:28.86	53.91	12.56	-39.5	-40.6	22.3	0.00e+00	0	38	0	324009984	52	6104
2026-01-07 20:56:29.87	53.75	12.61	-39.5	-40.5	22.3	0.00e+00	11	38	0	326107136	52	6070
2026-01-07 20:56:30.88	53.58	12.67	-39.3	-40.3	22.6	0.00e+00	92	38	0	327155712	52	5929
2026-01-07 20:56:31.89	53.41	12.72	-39.3	-40.3	22.5	0.00e+00	2	38	0	329252864	52	5956
2026-01-07 20:56:32.90	53.25	12.77	-39.2	-40.2	22.5	0.00e+00	92	38	0	331350016	52	5878
2026-01-07 20:56:33.91	53.08	12.83	-39.3	-40.3	22.7	0.00e+00	4	38	0	333447168	52	5907
2026-01-07 20:56:34.92	52.91	12.88	-39.2	-40.3	22.5	0.00e+00	92	38	0	335544320	52	5906
2026-01-07 20:56:35.93	52.74	12.93	-39.1	-40.1	22.7	0.00e+00	4	38	0	336592896	52	5822
2026-01-07 20:56:36.94	52.57	12.98	-39.1	-40.1	22.8	0.00e+00	92	38	0	338690048	52	5784
2026-01-07 20:56:37.94	52.41	13.04	-39.1	-40.0	22.7	0.00e+00	90	38	0	340787200	52	5753
2026-01-07 20:56:38.95	52.24	13.09	-38.9	-39.9	23.0	0.00e+00	0	38	0	342884352	52	5635
2026-01-07 20:56:39.96	52.06	13.14	-39.0	-40.0	22.8	0.00e+00	92	38	0	344981504	52	5739
2026-01-07 20:56:40.97	51.89	13.19	-38.9	-39.9	22.9	0.00e+00	0	38	0	346030080	52	5646
2026-01-07 20:56:41.98	51.72	13.24	-38.9	-39.9	22.9	0.00e+00	91	38	0	348127232	52	5655
2026-01-07 20:56:42.99	51.55	13.30	-39.0	-40.0	22.8	0.00e+00	0	38	0	350224384	52	5744
2026-01-07 20:56:44.00	51.37	13.35	-39.0	-39.9	22.9	0.00e+00	66	38	0	352321536	52	5683
2026-01-07 20:56:45.01	51.20	13.40	-39.0	-40.0	22.8	0.00e+00	82	38	0	354418688	52	5697
2026-01-07 20:56:46.02	51.02	13.45	-38.9	-39.9	23.0	0.00e+00	0	38	0	355467264	52	5664
2026-01-07 20:56:47.03	50.85	13.50	-38.9	-39.9	22.9	0.00e+00	92	38	0	357564416	52	5662
2026-01-07 20:56:48.04	50.67	13.55	-39.0	-40.0	22.9	0.00e+00	0	38	0	359661568	52	5734
2026-01-07 20:56:49.05	50.50	13.60	-39.0	-40.0	22.9	0.00e+00	92	38	0	361758720	52	5733
2026-01-07 20:56:50.06	50.32	13.65	-38.6	-39.6	23.3	0.00e+00	0	38	0	363855872	50	6118
2026-01-07 20:56:51.07	50.14	13.70	-38.4	-39.4	23.4	0.00e+00	90	38	0	364904448	50	5973
2026-01-07 20:56:52.08	49.96	13.75	-38.3	-39.2	23.6	0.00e+00	0	38	0	367001600	50	5837
2026-01-07 20:56:53.09	49.78	13.80	-38.4	-39.3	23.5	0.00e+00	7	38	0	369098752	50	5918
2026-01-07 20:56:54.10	49.60	13.85	-38.2	-39.1	23.6	0.00e+00	92	38	0	371195904	50	5807
2026-01-07 20:56:55.10	49.42	13.90	-38.1	-39.0	23.8	0.00e+00	74	38	0	373293056	50	5721
2026-01-07 20:56:56.11	49.24	13.95	-38.2	-39.1	23.6	0.00e+00	92	38	0	374341632	50	5810
2026-01-07 20:56:57.12	49.06	14.00	-38.0	-38.9	23.8	0.00e+00	6	38	0	376438784	50	5672
2026-01-07 20:56:58.13	48.88	14.05	-38.0	-38.9	23.8	0.00e+00	91	38	0	378535936	50	5653
2026-01-07 20:56:59.13	48.70	14.10	-38.0	-38.9	23.8	0.00e+00	0	38	0	380633088	50	5676
2026-01-07 20:57:00.14	48.52	14.15	-38.0	-38.9	23.1	0.00e+00	34	38	0	382730240	50	5660
2026-01-07 20:57:01.15	48.33	14.20	-38.1	-39.0	23.8	0.00e+00	92	38	0	384827392	50	5703
2026-01-07 20:57:02.16	48.15	14.25	-37.9	-38.8	23.9	0.00e+00	74	38	0	385875968	50	5607
2026-01-07 20:57:03.17	47.96	14.29	-37.9	-38.8	23.9	0.00e+00	92	38	0	387973120	50	5591
2026-01-07 20:57:04.18	47.78	14.34	-37.9	-38.8	24.0	0.00e+00	73	38	0	390070272	50	5570
2026-01-07 20:57:05.19	47.59	14.39	-37.9	-38.7	24.0	0.00e+00	91	38	0	392167424	50	5552
2026-01-07 20:57:06.20	47.40	14.44	-38.0	-38.9	23.9	0.00e+00	0	38	0	394264576	50	5661
2026-01-07 20:57:07.21	47.21	14.48	-38.0	-38.9	23.9	0.00e+00	91	38	0	395313152	50	5668
2026-01-07 20:57:08.22	47.03	14.53	-38.2	-39.1	23.7	0.00e+00	0	38	0	397410304	50	5765
2026-01-07 20:57:09.22	46.84	14.58	-38.2	-39.1	23.7	0.00e+00	0	38	0	399507456	50	5808
2026-01-07 20:57:10.23	46.65	14.62	-38.2	-39.1	23.7	0.00e+00	91	38	0	401604608	50	5797
2026-01-07 20:57:11.24	46.46	14.67	-38.3	-39.2	23.5	0.00e+00	0	38	0	402653184	50	5870
2026-01-07 20:57:12.25	46.27	14.72	-38.5	-39.5	23.4	0.00e+00	90	38	0	404750336	50	6040
2026-01-07 20:57:13.26	46.08	14.76	-38.5	-39.5	23.3	0.00e+00	0	38	0	406847488	50	6034
2026-01-07 20:57:14.27	45.89	14.81	-38.5	-39.4	23.3	0.00e+00	91	38	0	408944640	50	6032
2026-01-07 20:57:15.28	45.69	14.85	-38.6	-39.5	23.2	0.00e+00	0	38	0	411041792	50	6092
2026-01-07 20:57:16.29	45.50	14.90	-38.4	-39.3	23.5	0.00e+00	6	38	0	413138944	50	5963
2026-01-07 20:57:17.30	45.31	14.94	-38.4	-39.4	23.4	0.00e+00	91	38	0	414187520	50	5965
2026-01-07 20:57:18.31	45.11	14.99	-38.4	-39.3	23.5	0.00e+00	6	38	0	416284672	50	5922
2026-01-07 20:57:19.32	44.92	15.03	-38.4	-39.3	23.4	0.00e+00	92	38	0	418381824	50	5936
2026-01-07 20:57:20.33	44.72	15.08	-38.4	-39.3	23.6	0.00e+00	74	38	0	420478976	50	5931
2026-01-07 20:57:21.34	44.53	15.12	-38.4	-39.3	23.5	0.00e+00	92	38	0	422576128	50	5950
2026-01-07 20:57:22.34	44.33	15.17	-38.3	-39.2	23.6	0.00e+00	0	38	0	423624704	50	5835
2026-01-07 20:57:23.35	44.13	15.21	-38.3	-39.2	23.6	0.00e+00	0	38	0	425721856	50	5869
2026-01-07 20:57:24.36	43.94	15.25	-38.4	-39.3	23.5	0.00e+00	91	38	0	427819008	50	5963
2026-01-07 20:57:25.37	43.74	15.30	-38.4	-39.3	23.5	0.00e+00	75	38	0	429916160	50	5904
2026-01-07 20:57:26.38	43.54	15.34	-38.4	-39.3	23.5	0.00e+00	92	38	0	432013312	50	5928
2026-01-07 20:57:27.40	43.34	15.38	-38.1	-39.0	23.7	0.00e+00	77	38	0	433061888	50	5742
2026-01-07 20:57:28.41	43.14	15.42	-38.1	-39.0	23.8	0.00e+00	90	38	0	435159040	50	5710
2026-01-07 20:57:29.41	42.94	15.46	-38.3	-39.2	23.6	0.00e+00	5	38	0	437256192	50	5829
2026-01-07 20:57:30.42	42.74	15.51	-38.1	-38.9	23.9	0.00e+00	0	38	0	439353344	50	5688
2026-01-07 20:57:31.43	42.54	15.55	-38.1	-38.9	23.9	0.00e+00	0	38	0	441450496	50	5679
2026-01-07 20:57:32.44	42.33	15.59	-38.0	-38.8	24.0	0.00e+00	0	38	0	442499072	50	5615
2026-01-07 20:57:33.45	42.13	15.63	-37.7	-38.5	24.1	0.00e+00	92	38	0	444596224	48	6095
2026-01-07 20:57:34.46	41.93	15.67	-37.8	-38.7	24.1	0.00e+00	6	38	0	446693376	48	6184
2026-01-07 20:57:35.47	41.72	15.71	-37.7	-38.6	24.1	0.00e+00	87	38	0	448790528	48	6126
2026-01-07 20:57:36.48	41.52	15.75	-37.9	-38.8	24.0	0.00e+00	6	38	0	450887680	48	6256
2026-01-07 20:57:37.49	41.31	15.79	-38.0	-38.8	24.0	0.00e+00	2	38	0	451936256	48	6308
2026-01-07 20:57:38.50	41.11	15.83	-37.8	-38.7	24.1	0.00e+00	0	38	0	454033408	48	6212
2026-01-07 20:57:39.51	40.90	15.87	-37.8	-38.6	24.1	0.00e+00	82	38	0	456130560	48	6168
2026-01-07 20:57:40.52	40.70	15.90	-37.8	-38.7	24.1	0.00e+00	90	38	0	458227712	48	6197
2026-01-07 20:57:41.53	40.49	15.94	-38.0	-38.8	22.9	0.00e+00	79	38	0	460324864	48	6307
2026-01-07 20:57:42.54	40.28	15.98	-37.8	-38.7	24.0	0.00e+00	92	38	0	461373440	48	6206
2026-01-07 20:57:43.55	40.07	16.02	-37.8	-38.7	24.0	0.00e+00	0	38	0	463470592	48	6204
2026-01-07 20:57:44.56	39.86	16.06	-37.9	-38.8	24.0	0.00e+00	0	38	0	465567744	48	6261
2026-01-07 20:57:45.57	39.65	16.09	-37.8	-38.7	24.1	0.00e+00	0	38	0	467664896	48	6209
2026-01-07 20:57:46.58	39.45	16.13	-37.6	-38.4	24.3	0.00e+00	79	38	0	469762048	48	6011
2026-01-07 20:57:47.59	39.23	16.17	-37.7	-38.6	24.1	0.00e+00	91	38	0	470810624	48	6138
2026-01-07 20:57:48.60	39.02	16.20	-37.6	-38.5	24.3	0.00e+00	0	38	0	472907776	48	6036
2026-01-07 20:57:49.61	38.81	16.24	-37.6	-38.4	24.2	0.00e+00	91	38	0	475004928	48	6027
2026-01-07 20:57:50.62	38.60	16.27	-37.6	-38.5	24.3	0.00e+00	0	38	0	477102080	48	6037
2026-01-07 20:57:51.63	38.39	16.31	-37.5	-38.4	24.3	0.00e+00	7	38	0	479199232	48	5987
2026-01-07 20:57:52.64	38.18	16.34	-37.6	-38.5	24.2	0.00e+00	6	38	0	481296384	48	6037
2026-01-07 20:57:53.65	37.96	16.38	-37.6	-38.5	24.3	0.00e+00	6	38	0	482344960	48	6037
2026-01-07 20:57:54.66	37.75	16.41	-37.8	-38.6	24.1	0.00e+00	0	38	0	484442112	48	6169
2026-01-07 20:57:55.67	37.53	16.44	-37.8	-38.6	24.1	0.00e+00	6	38	0	486539264	48	6158
2026-01-07 20:57:56.68	37.32	16.48	-38.0	-38.8	23.9	0.00e+00	92	38	0	488636416	48	6316
2026-01-07 20:57:57.69	37.10	16.51	-37.8	-38.7	24.0	0.00e+00	8	38	0	490733568	48	6215
2026-01-07 20:57:58.70	36.89	16.54	-37.9	-38.7	24.1	0.00e+00	92	38	0	491782144	48	6222
2026-01-07 20:57:59.70	36.67	16.57	-37.9	-38.8	24.0	0.00e+00	7	38	0	493879296	48	6284
2026-01-07 20:58:00.71	36.46	16.60	-37.9	-38.8	24.0	0.00e+00	72	38	0	495976448	48	6298
2026-01-07 20:58:01.72	36.24	16.63	-38.0	-38.9	23.8	0.00e+00	6	38	0	498073600	48	6356
2026-01-07 20:58:02.73	36.02	16.67	-38.1	-39.0	23.8	0.00e+00	8	38	0	500170752	48	6408
2026-01-07 20:58:03.74	35.80	16.70	-37.9	-38.8	24.0	0.00e+00	92	38	0	501219328	48	6292
2026-01-07 20:58:04.75	35.59	16.73	-37.8	-38.6	24.1	0.00e+00	0	38	0	503316480	48	6171
2026-01-07 20:58:05.76	35.37	16.76	-37.7	-38.6	24.1	0.00e+00	92	38	0	505413632	48	6111
2026-01-07 20:58:06.77	35.15	16.79	-37.8	-38.7	23.9	0.00e+00	74	38	0	507510784	48	6207
2026-01-07 20:58:07.78	34.93	16.81	-37.8	-38.7	24.0	0.00e+00	75	38	0	509607936	48	6203
2026-01-07 20:58:08.79	34.71	16.84	-37.9	-38.8	24.0	0.00e+00	72	38	0	510656512	48	6263
2026-01-07 20:58:09.79	34.49	16.87	-37.8	-38.6	24.2	0.00e+00	0	38	0	512753664	48	6143
2026-01-07 20:58:10.80	34.27	16.90	-37.8	-38.7	24.1	0.00e+00	92	38	0	514850816	48	6178
2026-01-07 20:58:11.81	34.05	16.93	-38.1	-38.9	23.8	0.00e+00	2	38	0	516947968	48	6379
2026-01-07 20:58:12.82	33.83	16.95	-37.9	-38.7	24.0	0.00e+00	92	38	0	519045120	48	6232
2026-01-07 20:58:13.83	33.60	16.98	-37.9	-38.8	24.0	0.00e+00	0	38	0	520093696	48	6279
2026-01-07 20:58:14.84	33.38	17.00	-38.2	-39.0	23.8	0.00e+00	2	38	0	522190848	48	6456
2026-01-07 20:58:15.85	33.16	17.03	-38.2	-39.1	23.7	0.00e+00	0	38	0	524288000	48	6526
2026-01-07 20:58:16.86	32.93	17.06	-38.4	-39.3	23.5	0.00e+00	0	38	0	526385152	48	6670
2026-01-07 20:58:17.87	32.71	17.08	-38.3	-39.2	23.6	0.00e+00	0	38	0	528482304	48	6603
2026-01-07 20:58:18.88	32.49	17.10	-38.4	-39.3	23.5	0.00e+00	0	38	0	529530880	48	6641
2026-01-07 20:58:19.89	32.26	17.13	-38.6	-39.6	23.3	0.00e+00	90	38	0	531628032	48	6867
2026-01-07 20:58:20.90	32.04	17.15	-38.7	-39.6	23.3	0.00e+00	75	38	0	533725184	48	6890
2026-01-07 20:58:21.91	31.81	17.17	-38.9	-39.9	23.1	0.00e+00	96	38	0	535822336	50	6330
2026-01-07 20:58:22.92	31.59	17.20	-38.8	-39.8	23.2	0.00e+00	8	38	0	537919488	50	6263
2026-01-07 20:58:23.92	31.36	17.22	-38.9	-39.9	23.1	0.00e+00	6	38	0	538968064	50	6340
2026-01-07 20:58:24.93	31.14	17.24	-38.6	-39.6	23.4	0.00e+00	81	38	0	541065216	50	6120
2026-01-07 20:58:25.94	30.91	17.26	-38.3	-39.2	23.7	0.00e+00	77	38	0	543162368	50	5874
2026-01-07 20:58:26.95	30.68	17.28	-38.4	-39.3	23.6	0.00e+00	92	38	0	545259520	50	5927
2026-01-07 20:58:27.96	30.46	17.30	-38.5	-39.4	23.5	0.00e+00	75	38	0	547356672	50	5973
2026-01-07 20:58:28.97	30.23	17.32	-38.5	-39.4	23.5	0.00e+00	92	38	0	549453824	50	5994
2026-01-07 20:58:29.97	30.00	17.34	-38.3	-39.2	23.6	0.00e+00	75	38	0	550502400	50	5856
2026-01-07 20:58:30.98	29.78	17.36	-38.1	-39.0	23.9	0.00e+00	0	38	0	552599552	50	5712
2026-01-07 20:58:31.99	29.55	17.38	-38.2	-39.1	23.7	0.00e+00	0	38	0	554696704	50	5791
2026-01-07 20:58:33.01	29.32	17.40	-38.4	-39.3	23.6	0.00e+00	0	38	0	556793856	50	5914
2026-01-07 20:58:34.02	29.09	17.42	-38.5	-39.5	23.4	0.00e+00	92	38	0	558891008	50	6044
2026-01-07 20:58:35.02	28.86	17.43	-38.8	-39.7	23.2	0.00e+00	0	38	0	559939584	50	6224
2026-01-07 20:58:36.03	28.63	17.45	-38.9	-39.8	23.2	0.00e+00	92	38	0	562036736	50	6286
2026-01-07 20:58:37.04	28.40	17.47	-38.9	-39.9	23.2	0.00e+00	0	38	0	564133888	50	6320
2026-01-07 20:58:38.05	28.17	17.48	-38.8	-39.8	23.1	0.00e+00	92	38	0	566231040	50	6263
2026-01-07 20:58:39.06	27.94	17.50	-38.7	-39.7	23.2	0.00e+00	8	38	0	568328192	50	6196
2026-01-07 20:58:40.07	27.71	17.51	-38.8	-39.8	23.1	0.00e+00	8	39	0	569376768	50	6270
2026-01-07 20:58:41.08	27.48	17.53	-39.0	-39.9	22.8	0.00e+00	2	38	0	571473920	50	6374
2026-01-07 20:58:42.09	27.25	17.54	-39.0	-40.0	22.9	0.00e+00	2	38	0	573571072	50	6419
2026-01-07 20:58:43.10	27.02	17.56	-38.9	-39.9	23.0	0.00e+00	92	38	0	575668224	50	6348
2026-01-07 20:58:44.11	26.79	17.57	-38.8	-39.7	23.2	0.00e+00	74	38	0	577765376	50	6241
2026-01-07 20:58:45.12	26.56	17.58	-38.8	-39.7	23.2	0.00e+00	92	38	0	578813952	50	6239
2026-01-07 20:58:46.13	26.33	17.59	-38.8	-39.7	23.2	0.00e+00	7	38	0	580911104	50	6241
2026-01-07 20:58:47.14	26.09	17.60	-39.0	-39.9	23.0	0.00e+00	76	38	0	583008256	50	6377
2026-01-07 20:58:48.15	25.86	17.62	-39.1	-40.0	22.9	0.00e+00	4	38	0	585105408	50	6449
2026-01-07 20:58:49.16	25.63	17.63	-39.1	-40.1	22.8	0.00e+00	0	38	0	587202560	50	6510
2026-01-07 20:58:50.17	25.40	17.64	-39.2	-40.2	22.8	0.00e+00	92	38	0	588251136	50	6561
2026-01-07 20:58:51.17	25.17	17.65	-39.3	-40.3	22.7	0.00e+00	0	38	0	590348288	50	6617
2026-01-07 20:58:52.18	24.94	17.66	-39.0	-39.9	23.0	0.00e+00	92	38	0	592445440	50	6373
2026-01-07 20:58:53.19	24.70	17.66	-38.8	-39.8	23.2	0.00e+00	0	38	0	594542592	50	6257
2026-01-07 20:58:54.20	24.47	17.67	-39.0	-39.9	23.0	0.00e+00	1	38	0	596639744	50	6387
2026-01-07 20:58:55.21	24.24	17.68	-38.9	-39.9	23.0	0.00e+00	2	38	0	597688320	50	6357
2026-01-07 20:58:56.22	24.00	17.69	-39.0	-40.0	23.0	0.00e+00	0	38	0	599785472	50	6403
2026-01-07 20:58:57.23	23.77	17.69	-38.9	-39.9	23.1	0.00e+00	89	38	0	601882624	50	6346
2026-01-07 20:58:58.24	23.54	17.70	-38.9	-39.8	23.1	0.00e+00	0	38	0	603979776	50	6298
2026-01-07 20:58:59.25	23.30	17.71	-38.9	-39.8	23.1	0.00e+00	92	38	0	606076928	50	6312
2026-01-07 20:59:00.26	23.07	17.71	-38.7	-39.7	23.2	0.00e+00	7	38	0	607125504	50	6177
2026-01-07 20:59:01.27	22.84	17.72	-38.7	-39.6	23.3	0.00e+00	6	38	0	609222656	50	6126
2026-01-07 20:59:02.28	22.60	17.72	-38.7	-39.6	23.4	0.00e+00	6	38	0	611319808	50	6123
2026-01-07 20:59:03.29	22.37	17.73	-38.9	-39.8	23.1	0.00e+00	0	38	0	613416960	50	6281
2026-01-07 20:59:04.30	22.14	17.73	-39.0	-39.9	23.0	0.00e+00	5	38	0	615514112	50	6372
2026-01-07 20:59:05.31	21.90	17.73	-39.0	-40.0	23.0	0.00e+00	5	38	0	617611264	50	6393
2026-01-07 20:59:06.32	21.67	17.73	-39.1	-40.1	22.9	0.00e+00	92	38	0	618659840	50	6482
2026-01-07 20:59:07.33	21.44	17.74	-39.0	-40.0	23.1	0.00e+00	0	38	0	620756992	50	6392
2026-01-07 20:59:08.34	21.20	17.74	-39.1	-40.1	22.8	0.00e+00	92	38	0	622854144	50	6499
2026-01-07 20:59:09.34	20.97	17.74	-39.1	-40.1	23.0	0.00e+00	74	38	0	624951296	50	6472
2026-01-07 20:59:10.35	20.74	17.74	-38.8	-39.7	23.1	0.00e+00	76	38	0	627048448	50	6234
2026-01-07 20:59:11.36	20.50	17.74	-38.8	-39.8	23.2	0.00e+00	0	38	0	628097024	50	6261
2026-01-07 20:59:12.37	20.27	17.74	-38.8	-39.7	23.1	0.00e+00	0	38	0	630194176	50	6232
2026-01-07 20:59:13.38	20.03	17.74	-38.8	-39.8	23.1	0.00e+00	90	38	0	632291328	50	6253
2026-01-07 20:59:14.39	19.80	17.74	-38.8	-39.8	23.0	0.00e+00	0	38	0	634388480	50	6254
2026-01-07 20:59:15.40	19.57	17.73	-38.9	-39.9	23.1	0.00e+00	92	38	0	636485632	50	6322
2026-01-07 20:59:16.41	19.33	17.73	-39.1	-40.0	22.7	0.00e+00	0	38	0	637534208	50	6459
2026-01-07 20:59:17.42	19.10	17.73	-38.8	-39.7	23.2	0.00e+00	19	38	0	639631360	50	6215
2026-01-07 20:59:18.43	18.87	17.73	-38.9	-39.8	23.1	0.00e+00	5	38	0	641728512	50	6305
2026-01-07 20:59:19.44	18.63	17.72	-38.9	-39.9	23.2	0.00e+00	5	38	0	643825664	50	6327
2026-01-07 20:59:20.45	18.40	17.72	-38.6	-39.5	23.4	0.00e+00	92	38	0	645922816	50	6086
2026-01-07 20:59:21.46	18.17	17.71	-38.7	-39.7	23.3	0.00e+00	1	38	0	646971392	50	6187
2026-01-07 20:59:22.47	17.93	17.71	-38.8	-39.7	23.2	0.00e+00	92	38	0	649068544	50	6216
2026-01-07 20:59:23.48	17.70	17.70	-38.7	-39.6	23.2	0.00e+00	5	38	0	651165696	50	6133
2026-01-07 20:59:24.49	17.47	17.69	-38.5	-39.4	23.5	0.00e+00	92	38	0	653262848	50	5999
2026-01-07 20:59:25.50	17.23	17.69	-38.4	-39.3	23.7	0.00e+00	81	38	0	655360000	50	5940
2026-01-07 20:59:26.51	17.00	17.68	-38.3	-39.1	23.7	0.00e+00	5	38	0	656408576	50	5826
2026-01-07 20:59:27.52	16.77	17.67	-38.2	-39.1	23.7	0.00e+00	0	38	0	658505728	50	5791
2026-01-07 20:59:28.53	16.53	17.66	-38.3	-39.2	23.8	0.00e+00	81	38	0	660602880	50	5833
2026-01-07 20:59:29.54	16.30	17.65	-38.2	-39.0	23.7	0.00e+00	92	38	0	662700032	50	5754
2026-01-07 20:59:30.55	16.07	17.65	-38.3	-39.2	23.7	0.00e+00	0	38	0	664797184	50	5842
2026-01-07 20:59:31.56	15.84	17.64	-38.1	-39.0	23.8	0.00e+00	31	38	0	665845760	50	5729
2026-01-07 20:59:32.57	15.60	17.63	-38.3	-39.2	23.8	0.00e+00	0	38	0	667942912	50	5892
2026-01-07 20:59:33.58	15.37	17.61	-38.3	-39.1	23.8	0.00e+00	0	38	0	670040064	50	5827
2026-01-07 20:59:34.59	15.14	17.60	-38.5	-39.4	23.5	0.00e+00	0	38	0	672137216	50	6020
2026-01-07 20:59:35.60	14.91	17.59	-38.1	-39.0	23.6	0.00e+00	6	38	0	674234368	50	5716
2026-01-07 20:59:36.61	14.68	17.58	-38.2	-39.1	23.8	0.00e+00	92	38	0	675282944	50	5787
2026-01-07 20:59:37.62	14.45	17.57	-37.9	-38.8	24.0	0.00e+00	7	38	0	677380096	50	5604
2026-01-07 20:59:38.63	14.22	17.55	-37.8	-38.7	24.1	0.00e+00	92	38	0	679477248	50	5508
2026-01-07 20:59:39.65	13.98	17.54	-38.0	-38.8	24.1	0.00e+00	7	38	0	681574400	50	5612
2026-01-07 20:59:40.66	13.75	17.53	-37.9	-38.7	24.0	0.00e+00	2	38	0	683671552	50	5545
2026-01-07 20:59:41.66	13.52	17.51	-38.0	-38.9	23.9	0.00e+00	0	38	0	685768704	50	5656
2026-01-07 20:59:42.67	13.29	17.50	-37.8	-38.7	24.1	0.00e+00	1	38	0	686817280	50	5507
2026-01-07 20:59:43.68	13.06	17.48	-37.7	-38.5	24.2	0.00e+00	61	38	0	688914432	48	6092
2026-01-07 20:59:44.69	12.83	17.47	-37.7	-38.6	24.2	0.00e+00	6	38	0	691011584	48	6105
2026-01-07 20:59:45.70	12.60	17.45	-37.5	-38.3	24.4	0.00e+00	91	38	0	693108736	48	5954
2026-01-07 20:59:46.71	12.38	17.43	-37.4	-38.2	24.3	0.00e+00	6	38	0	695205888	48	5861
2026-01-07 20:59:47.72	12.15	17.41	-37.4	-38.2	24.6	0.00e+00	6	38	0	696254464	48	5852
2026-01-07 20:59:48.73	11.92	17.40	-37.3	-38.1	24.7	0.00e+00	75	38	0	698351616	48	5782
2026-01-07 20:59:49.74	11.69	17.38	-37.4	-38.3	24.4	0.00e+00	7	38	0	700448768	48	5916
2026-01-07 20:59:50.75	11.46	17.36	-37.4	-38.3	24.5	0.00e+00	79	38	0	702545920	48	5908
2026-01-07 20:59:51.76	11.23	17.34	-37.7	-38.6	24.3	0.00e+00	76	39	0	704643072	48	6119
2026-01-07 20:59:52.77	11.01	17.32	-37.7	-38.6	24.2	0.00e+00	90	38	0	705691648	48	6111
2026-01-07 20:59:53.78	10.78	17.30	-37.9	-38.7	24.1	0.00e+00	0	38	0	707788800	48	6243
2026-01-07 20:59:54.78	10.55	17.28	-37.8	-38.7	24.1	0.00e+00	92	39	0	709885952	48	6185
2026-01-07 20:59:55.79	10.33	17.26	-37.9	-38.8	24.0	0.00e+00	0	38	0	711983104	48	6296
2026-01-07 20:59:56.80	10.10	17.24	-37.7	-38.6	24.2	0.00e+00	0	38	0	714080256	48	6128
2026-01-07 20:59:57.81	9.88	17.22	-37.7	-38.6	24.1	0.00e+00	0	38	0	715128832	48	6129
2026-01-07 20:59:58.82	9.65	17.19	-37.7	-38.6	24.0	0.00e+00	0	38	0	717225984	48	6129
2026-01-07 20:59:59.83	9.42	17.17	-37.8	-38.6	24.1	0.00e+00	92	38	0	719323136	48	6172
2026-01-07 21:00:00.84	9.20	17.15	-37.9	-38.7	24.1	0.00e+00	0	38	0	721420288	48	6242
2026-01-07 21:00:01.85	8.98	17.13	-38.0	-38.8	24.0	0.00e+00	90	38	0	723517440	48	6305
2026-01-07 21:00:02.86	8.75	17.10	-38.0	-38.9	24.0	0.00e+00	2	38	0	724566016	48	6370
2026-01-07 21:00:03.87	8.53	17.08	-38.0	-38.9	23.9	0.00e+00	5	38	0	726663168	48	6356
2026-01-07 21:00:04.88	8.30	17.05	-38.1	-39.0	23.8	0.00e+00	5	38	0	728760320	48	6437
2026-01-07 21:00:05.89	8.08	17.03	-38.1	-39.0	23.8	0.00e+00	0	38	0	730857472	48	6424
2026-01-07 21:00:06.90	7.86	17.00	-38.1	-39.0	23.9	0.00e+00	20	38	0	732954624	48	6404
2026-01-07 21:00:07.91	7.64	16.98	-38.0	-38.9	24.0	0.00e+00	80	38	0	734003200	48	6353
2026-01-07 21:00:08.92	7.41	16.95	-38.1	-39.0	23.7	0.00e+00	92	38	0	736100352	48	6435
2026-01-07 21:00:09.93	7.19	16.92	-38.1	-39.0	23.8	0.00e+00	0	38	0	738197504	48	6391
2026-01-07 21:00:10.94	6.97	16.89	-38.2	-39.0	23.7	0.00e+00	47	38	0	740294656	48	6457
2026-01-07 21:00:11.94	6.75	16.87	-38.3	-39.2	23.6	0.00e+00	81	38	0	742391808	48	6607
2026-01-07 21:00:12.95	6.53	16.84	-38.5	-39.4	23.5	0.00e+00	0	39	0	743440384	48	6719
2026-01-07 21:00:13.96	6.31	16.81	-38.5	-39.4	23.4	0.00e+00	61	38	0	745537536	48	6740
2026-01-07 21:00:14.97	6.09	16.78	-38.6	-39.5	23.4	0.00e+00	81	38	0	747634688	48	6794
2026-01-07 21:00:15.98	5.87	16.75	-38.6	-39.5	23.4	0.00e+00	92	39	0	749731840	48	6822
2026-01-07 21:00:16.99	5.66	16.72	-38.6	-39.5	23.4	0.00e+00	76	38	0	751828992	48	6846
2026-01-07 21:00:18.00	5.44	16.69	-38.6	-39.5	23.4	0.00e+00	88	39	0	753926144	48	6816
2026-01-07 21:00:19.01	5.22	16.66	-38.7	-39.6	23.2	0.00e+00	0	38	0	754974720	48	6886
2026-01-07 21:00:20.02	5.00	16.63	-38.7	-39.6	23.3	0.00e+00	0	38	0	757071872	48	6916
2026-01-07 21:00:21.03	4.79	16.60	-38.8	-39.7	23.2	0.00e+00	0	38	0	759169024	50	6208
2026-01-07 21:00:22.04	4.57	16.57	-38.8	-39.7	23.2	0.00e+00	0	38	0	761266176	50	6230
2026-01-07 21:00:23.05	4.35	16.54	-39.0	-39.9	23.0	0.00e+00	92	39	0	763363328	50	6368
2026-01-07 21:00:24.06	4.14	16.50	-38.7	-39.7	23.2	0.00e+00	6	38	0	764411904	50	6181
2026-01-07 21:00:25.07	3.92	16.47	-38.6	-39.5	23.4	0.00e+00	92	38	0	766509056	50	6085
2026-01-07 21:00:26.07	3.71	16.44	-38.7	-39.6	23.4	0.00e+00	0	39	0	768606208	50	6165
2026-01-07 21:00:27.08	3.50	16.41	-38.6	-39.5	23.5	0.00e+00	0	38	0	770703360	50	6066
2026-01-07 21:00:28.09	3.28	16.37	-38.5	-39.4	23.5	0.00e+00	5	39	0	771751936	50	5968
2026-01-07 21:00:29.11	3.07	16.34	-38.6	-39.5	23.5	0.00e+00	6	38	0	773849088	50	6052
2026-01-07 21:00:30.11	2.86	16.30	-38.3	-39.2	23.7	0.00e+00	6	38	0	775946240	50	5836
2026-01-07 21:00:31.12	2.65	16.27	-38.4	-39.3	23.7	0.00e+00	75	39	0	778043392	50	5928
2026-01-07 21:00:32.13	2.43	16.23	-38.3	-39.2	23.7	0.00e+00	90	38	0	780140544	50	5829
2026-01-07 21:00:33.14	2.22	16.20	-38.2	-39.1	23.7	0.00e+00	6	38	0	782237696	50	5792
2026-01-07 21:00:34.15	2.01	16.16	-38.4	-39.3	23.4	0.00e+00	58	38	0	783286272	50	5898
2026-01-07 21:00:35.16	1.80	16.13	-38.3	-39.2	23.6	0.00e+00	0	38	0	785383424	50	5846
2026-01-07 21:00:36.17	1.59	16.09	-38.3	-39.2	23.6	0.00e+00	0	39	0	787480576	50	5896
2026-01-07 21:00:37.18	1.39	16.05	-38.3	-39.2	23.3	0.00e+00	81	38	0	789577728	50	5883
2026-01-07 21:00:38.19	1.18	16.01	-38.4	-39.3	23.5	0.00e+00	0	39	0	791674880	50	5947
2026-01-07 21:00:39.20	0.97	15.98	-38.4	-39.3	23.5	0.00e+00	92	39	0	792723456	50	5963
2026-01-07 21:00:40.20	0.76	15.94	-38.5	-39.4	23.4	0.00e+00	0	38	0	794820608	50	5978
2026-01-07 21:00:41.21	0.56	15.90	-38.5	-39.4	23.5	0.00e+00	90	39	0	796917760	50	5996
2026-01-07 21:00:42.23	0.35	15.86	-38.7	-39.6	23.4	0.00e+00	2	38	0	799014912	50	6131
2026-01-07 21:00:43.23	0.14	15.82	-38.5	-39.5	23.4	0.00e+00	0	38	0	801112064	50	6039
2026-01-07 21:00:44.24	359.94	15.79	-38.5	-39.4	23.5	0.00e+00	0	38	0	802160640	50	6015
2026-01-07 21:00:45.25	359.73	15.75	-39.1	-40.0	23.4	0.00e+00	1	38	0	804257792	50	6436
2026-01-07 21:00:46.26	359.53	15.71	-39.1	-40.0	23.1	0.00e+00	92	38	0	806354944	50	6428
2026-01-07 21:00:47.27	359.33	15.67	-38.4	-39.3	23.6	0.00e+00	5	38	0	808452096	50	5925
2026-01-07 21:00:48.28	359.12	15.63	-38.6	-39.5	23.5	0.00e+00	90	38	0	810549248	50	6045
2026-01-07 21:00:49.29	358.92	15.58	-38.4	-39.3	23.6	0.00e+00	2	38	0	811597824	50	5917
2026-01-07 21:00:50.30	358.72	15.54	-38.4	-39.2	23.4	0.00e+00	0	39	0	813694976	50	5891
2026-01-07 21:00:51.31	358.52	15.50	-38.5	-39.4	23.5	0.00e+00	0	39	0	815792128	50	6002
2026-01-07 21:00:52.32	358.32	15.46	-38.6	-39.5	23.4	0.00e+00	76	39	0	817889280	50	6085
2026-01-07 21:00:53.33	358.12	15.42	-38.7	-39.7	23.2	0.00e+00	0	38	0	819986432	50	6188
2026-01-07 21:00:54.34	357.92	15.38	-38.9	-39.8	23.1	0.00e+00	4	39	0	821035008	50	6284
2026-01-07 21:00:55.35	357.72	15.34	-38.8	-39.8	23.0	0.00e+00	92	39	0	823132160	50	6284
2026-01-07 21:00:56.35	357.52	15.29	-38.9	-39.8	23.1	0.00e+00	0	39	0	825229312	50	6290
2026-01-07 21:00:57.36	357.32	15.25	-38.8	-39.8	23.2	0.00e+00	92	38	0	827326464	50	6267
2026-01-07 21:00:58.37	357.13	15.21	-39.0	-39.9	23.0	0.00e+00	0	38	0	829423616	50	6377
2026-01-07 21:00:59.38	356.93	15.16	-38.7	-39.7	23.3	0.00e+00	0	38	0	830472192	50	6183
2026-01-07 21:01:00.39	356.73	15.12	-38.8	-39.7	23.2	0.00e+00	0	38	0	832569344	50	6202
2026-01-07 21:01:01.40	356.54	15.08	-38.8	-39.7	23.1	0.00e+00	0	38	0	834666496	50	6229
2026-01-07 21:01:02.41	356.34	15.03	-38.9	-39.9	23.0	0.00e+00	91	38	0	836763648	50	6324
2026-01-07 21:01:03.42	356.15	14.99	-38.9	-39.8	23.1	0.00e+00	5	39	0	838860800	50	6315
2026-01-07 21:01:04.43	355.96	14.94	-39.1	-40.1	22.9	0.00e+00	93	38	0	839909376	50	6472
2026-01-07 21:01:05.44	355.76	14.90	-39.2	-40.2	22.8	0.00e+00	2	38	0	842006528	50	6543
2026-01-07 21:01:06.45	355.57	14.85	-39.2	-40.1	22.8	0.00e+00	4	38	0	844103680	50	6524
2026-01-07 21:01:07.46	355.38	14.81	-39.1	-40.1	22.8	0.00e+00	0	38	0	846200832	50	6495
2026-01-07 21:01:08.47	355.19	14.76	-39.0	-40.0	22.9	0.00e+00	0	38	0	848297984	50	6437
2026-01-07 21:01:09.48	355.00	14.72	-39.1	-40.1	22.8	0.00e+00	79	38	0	850395136	50	6469
2026-01-07 21:01:10.48	354.81	14.67	-39.0	-40.0	22.9	0.00e+00	0	38	0	851443712	50	6412
2026-01-07 21:01:11.49	354.62	14.62	-39.1	-40.1	22.8	0.00e+00	92	38	0	853540864	50	6492
2026-01-07 21:01:12.51	354.43	14.58	-39.1	-40.1	22.9	0.00e+00	85	38	0	855638016	50	6492
2026-01-07 21:01:13.52	354.24	14.53	-39.3	-40.3	22.6	0.00e+00	5	38	0	857735168	50	6661
2026-01-07 21:01:14.52	354.05	14.48	-39.3	-40.2	22.6	0.00e+00	0	39	0	859832320	50	6610
2026-01-07 21:01:15.53	353.87	14.44	-39.2	-40.2	22.7	0.00e+00	0	39	0	860880896	50	6611
2026-01-07 21:01:16.54	353.68	14.39	-39.3	-40.3	22.6	0.00e+00	0	39	0	862978048	50	6619
2026-01-07 21:01:17.55	353.49	14.34	-39.4	-40.4	22.5	0.00e+00	0	39	0	865075200	50	6709
2026-01-07 21:01:18.56	353.31	14.29	-39.4	-40.5	22.5	0.00e+00	92	38	0	867172352	50	6785
2026-01-07 21:01:19.57	353.12	14.24	-39.5	-40.5	22.4	0.00e+00	0	38	0	869269504	50	6831
2026-01-07 21:01:20.58	352.94	14.20	-39.5	-40.5	22.4	0.00e+00	92	39	0	870318080	50	6818
2026-01-07 21:01:21.59	352.76	14.15	-39.7	-40.7	22.3	0.00e+00	2	38	0	872415232	50	6974
2026-01-07 21:01:22.60	352.57	14.10	-39.8	-40.9	22.2	0.00e+00	0	39	0	874512384	52	6339
2026-01-07 21:01:23.61	352.39	14.05	-39.9	-41.0	22.0	0.00e+00	0	38	0	876609536	52	6428
2026-01-07 21:01:24.62	352.21	14.00	-39.9	-41.0	22.1	0.00e+00	6	39	0	878706688	52	6422
2026-01-07 21:01:25.63	352.03	13.95	-40.1	-41.2	21.8	0.00e+00	92	38	0	879755264	52	6587
2026-01-07 21:01:26.63	351.85	13.90	-40.1	-41.2	21.8	0.00e+00	0	38	0	881852416	52	6602
2026-01-07 21:01:27.64	351.67	13.85	-40.3	-41.4	21.6	0.00e+00	92	39	0	883949568	52	6741
2026-01-07 21:01:28.65	351.49	13.80	-40.2	-41.3	21.6	0.00e+00	6	38	0	886046720	52	6687
2026-01-07 21:01:29.66	351.31	13.75	-40.3	-41.4	21.6	0.00e+00	7	39	0	888143872	52	6767
2026-01-07 21:01:30.67	351.13	13.70	-40.3	-41.4	21.7	0.00e+00	0	38	0	889192448	52	6713
2026-01-07 21:01:31.68	350.95	13.65	-39.8	-40.8	22.1	0.00e+00	3	38	0	891289600	52	6289
2026-01-07 21:01:32.69	350.78	13.60	-40.0	-41.1	22.0	0.00e+00	72	39	0	893386752	52	6502
2026-01-07 21:01:33.70	350.60	13.55	-40.0	-41.1	21.7	0.00e+00	5	38	0	895483904	52	6534
2026-01-07 21:01:34.71	350.43	13.50	-40.1	-41.2	21.6	0.00e+00	92	38	0	897581056	52	6608
2026-01-07 21:01:35.72	350.25	13.45	-40.3	-41.5	21.5	0.00e+00	5	38	0	898629632	52	6789
2026-01-07 21:01:36.73	350.08	13.40	-40.5	-41.7	21.4	0.00e+00	4	38	0	900726784	52	6948
2026-01-07 21:01:37.74	349.90	13.35	-40.7	-41.9	21.0	0.00e+00	82	38	0	902823936	52	7111
2026-01-07 21:01:38.75	349.73	13.30	-40.6	-41.8	21.2	0.00e+00	0	38	0	904921088	54	6277
2026-01-07 21:01:39.76	349.56	13.24	-40.8	-42.0	21.1	0.00e+00	0	38	0	907018240	54	6400
2026-01-07 21:01:40.77	349.39	13.19	-40.8	-42.0	21.1	0.00e+00	0	38	0	908066816	54	6412
2026-01-07 21:01:41.78	349.21	13.14	-40.6	-41.8	21.1	0.00e+00	92	38	0	910163968	54	6301
2026-01-07 21:01:42.79	349.04	13.09	-40.5	-41.7	21.2	0.00e+00	81	38	0	912261120	54	6213
2026-01-07 21:01:43.80	348.87	13.04	-40.6	-41.8	21.1	0.00e+00	92	39	0	914358272	54	6279
2026-01-07 21:01:44.81	348.70	12.98	-40.5	-41.7	21.3	0.00e+00	0	38	0	916455424	54	6182
2026-01-07 21:01:45.82	348.54	12.93	-40.5	-41.7	21.2	0.00e+00	0	38	0	918552576	54	6205
2026-01-07 21:01:46.83	348.37	12.88	-40.5	-41.7	21.2	0.00e+00	0	38	0	919601152	54	6208
2026-01-07 21:01:47.84	348.20	12.83	-40.6	-41.7	21.2	0.00e+00	0	38	0	921698304	54	6243
2026-01-07 21:01:48.84	348.03	12.77	-40.6	-41.8	21.2	0.00e+00	92	38	0	923795456	54	6281
2026-01-07 21:01:49.86	347.87	12.72	-40.7	-41.8	21.2	0.00e+00	5	39	0	925892608	54	6308
2026-01-07 21:01:50.87	347.70	12.67	-40.5	-41.7	21.3	0.00e+00	92	38	0	927989760	54	6183
2026-01-07 21:01:51.88	347.53	12.61	-40.6	-41.8	21.1	0.00e+00	0	38	0	929038336	54	6299
2026-01-07 21:01:52.89	347.37	12.56	-40.6	-41.8	21.1	0.00e+00	3	38	0	931135488	54	6301
2026-01-07 21:01:53.90	347.21	12.51	-40.6	-41.7	21.2	0.00e+00	79	38	0	933232640	54	6243
2026-01-07 21:01:54.91	347.04	12.45	-40.6	-41.7	21.2	0.00e+00	4	38	0	935329792	54	6230
2026-01-07 21:01:55.92	346.88	12.40	-40.6	-41.8	21.2	0.00e+00	92	38	0	937426944	54	6249
2026-01-07 21:01:56.93	346.72	12.35	-40.6	-41.8	21.2	0.00e+00	2	38	0	938475520	54	6254
2026-01-07 21:01:57.94	346.56	12.29	-40.7	-41.9	21.1	0.00e+00	92	38	0	940572672	54	6332
2026-01-07 21:01:58.95	346.40	12.24	-40.7	-41.9	21.1	0.00e+00	79	38	0	942669824	54	6337
2026-01-07 21:01:59.96	346.24	12.18	-40.7	-42.0	21.0	0.00e+00	0	38	0	944766976	54	6393
2026-01-07 21:02:00.97	346.08	12.13	-40.7	-41.9	21.0	0.00e+00	0	38	0	946864128	54	6331
2026-01-07 21:02:01.98	345.92	12.08	-40.8	-42.1	21.0	0.00e+00	78	38	0	947912704	54	6482
2026-01-07 21:02:02.99	345.76	12.02	-40.7	-41.9	21.0	0.00e+00	8	39	0	950009856	54	6387
2026-01-07 21:02:04.00	345.60	11.97	-40.7	-41.9	21.1	0.00e+00	0	38	0	952107008	54	6328
2026-01-07 21:02:05.01	345.44	11.91	-40.5	-41.6	21.2	0.00e+00	91	38	0	954204160	54	6152
2026-01-07 21:02:06.02	345.29	11.86	-40.5	-41.6	21.3	0.00e+00	0	39	0	956301312	54	6163
2026-01-07 21:02:07.03	345.13	11.80	-40.2	-41.3	21.5	0.00e+00	92	39	0	957349888	54	5964
2026-01-07 21:02:08.04	344.97	11.75	-40.0	-41.1	21.6	0.00e+00	0	39	0	959447040	54	5817
2026-01-07 21:02:09.04	344.82	11.69	-40.1	-41.2	21.5	0.00e+00	0	38	0	961544192	54	5886
2026-01-07 21:02:10.06	344.66	11.64	-40.1	-41.2	21.7	0.00e+00	0	38	0	963641344	54	5857
2026-01-07 21:02:11.06	344.51	11.58	-39.9	-41.0	21.8	0.00e+00	0	39	0	965738496	54	5711
2026-01-07 21:02:12.07	344.36	11.53	-40.0	-41.1	21.8	0.00e+00	92	38	0	966787072	54	5786
2026-01-07 21:02:13.08	344.21	11.47	-39.9	-41.0	21.8	0.00e+00	0	38	0	968884224	54	5718
2026-01-07 21:02:14.09	344.05	11.42	-39.9	-40.9	21.9	0.00e+00	92	39	0	970981376	54	5680
2026-01-07 21:02:15.10	343.90	11.36	-39.8	-40.9	22.0	0.00e+00	2	39	0	973078528	54	5663
2026-01-07 21:02:16.11	343.75	11.31	-39.9	-41.0	21.9	0.00e+00	82	38	0	975175680	54	5754
2026-01-07 21:02:17.12	343.60	11.25	-39.8	-40.8	22.1	0.00e+00	0	38	0	976224256	52	6311
2026-01-07 21:02:18.13	343.45	11.20	-39.9	-41.0	21.8	0.00e+00	0	38	0	978321408	52	6409
2026-01-07 21:02:19.14	343.30	11.14	-40.0	-41.1	21.7	0.00e+00	92	38	0	980418560	52	6519
2026-01-07 21:02:20.15	343.15	11.08	-40.0	-41.1	21.8	0.00e+00	0	39	0	982515712	52	6497
2026-01-07 21:02:21.16	343.01	11.03	-39.8	-40.8	22.0	0.00e+00	92	39	0	984612864	52	6299
2026-01-07 21:02:22.17	342.86	10.97	-39.7	-40.8	22.0	0.00e+00	78	39	0	986710016	52	6295
2026-01-07 21:02:23.18	342.71	10.92	-39.7	-40.8	22.0	0.00e+00	92	39	0	987758592	52	6272
2026-01-07 21:02:24.19	342.57	10.86	-39.6	-40.7	22.1	0.00e+00	0	39	0	989855744	52	6215
2026-01-07 21:02:25.20	342.42	10.80	-39.5	-40.6	22.2	0.00e+00	2	39	0	991952896	52	6139
2026-01-07 21:02:26.21	342.27	10.75	-39.5	-40.5	22.2	0.00e+00	2	38	0	994050048	52	6062
2026-01-07 21:02:27.22	342.13	10.69	-39.4	-40.4	22.4	0.00e+00	0	38	0	996147200	52	5988
2026-01-07 21:02:28.23	341.99	10.64	-39.3	-40.3	22.3	0.00e+00	90	39	0	997195776	52	5963
2026-01-07 21:02:29.24	341.84	10.58	-39.2	-40.2	22.6	0.00e+00	0	39	0	999292928	52	5869
2026-01-07 21:02:30.25	341.70	10.52	-39.2	-40.2	22.5	0.00e+00	0	38	0	1001390080	52	5887
2026-01-07 21:02:31.26	341.56	10.47	-39.1	-40.1	22.7	0.00e+00	2	39	0	1003487232	52	5771
2026-01-07 21:02:32.27	341.42	10.41	-39.0	-40.0	22.8	0.00e+00	3	38	0	1005584384	52	5746
2026-01-07 21:02:33.28	341.27	10.35	-39.0	-40.0	22.7	0.00e+00	0	39	0	1006632960	52	5737
2026-01-07 21:02:34.28	341.14	10.30	-39.0	-40.0	22.8	0.00e+00	0	38	0	1008730112	52	5719
2026-01-07 21:02:35.29	341.00	10.24	-39.0	-40.0	22.7	0.00e+00	92	38	0	1010827264	52	5747
2026-01-07 21:02:36.30	340.86	10.19	-38.9	-39.8	22.9	0.00e+00	80	38	0	1012924416	52	5623
2026-01-07 21:02:37.31	340.72	10.13	-38.8	-39.7	22.9	0.00e+00	92	38	0	1015021568	50	6243
2026-01-07 21:02:38.32	340.58	10.07	-38.9	-39.9	22.8	0.00e+00	2	38	0	1016070144	50	6337
2026-01-07 21:02:39.33	340.44	10.02	-38.8	-39.8	22.8	0.00e+00	0	38	0	1018167296	50	6294
2026-01-07 21:02:40.34	340.30	9.96	-38.8	-39.8	22.8	0.00e+00	0	38	0	1020264448	50	6268
2026-01-07 21:02:41.35	340.17	9.90	-38.7	-39.7	22.9	0.00e+00	82	38	0	1022361600	50	6212
2026-01-07 21:02:42.36	340.03	9.85	-38.8	-39.8	22.9	0.00e+00	91	38	0	1024458752	50	6285
2026-01-07 21:02:43.37	339.89	9.79	-38.8	-39.8	22.8	0.00e+00	0	38	0	1025507328	50	6278
2026-01-07 21:02:44.38	339.76	9.73	-38.8	-39.8	22.9	0.00e+00	91	38	0	1027604480	50	6251
2026-01-07 21:02:45.38	339.63	9.68	-38.8	-39.8	22.7	0.00e+00	79	38	0	1029701632	50	6260
2026-01-07 21:02:46.39	339.49	9.62	-38.6	-39.5	23.1	0.00e+00	52	38	0	1031798784	50	6085
2026-01-07 21:02:47.40	339.36	9.56	-38.5	-39.4	23.2	0.00e+00	0	38	0	1033895936	50	6001
2026-01-07 21:02:48.41	339.23	9.51	-38.4	-39.4	23.0	0.00e+00	6	38	0	1034944512	50	5985
2026-01-07 21:02:49.42	339.09	9.45	-38.4	-39.4	23.2	0.00e+00	1	38	0	1037041664	50	5978
2026-01-07 21:02:50.42	338.96	9.39	-38.5	-39.5	22.5	0.00e+00	5	39	0	1039138816	50	6049
2026-01-07 21:02:51.43	338.83	9.34	-38.6	-39.6	23.0	0.00e+00	92	39	0	1041235968	50	6123
2026-01-07 21:02:52.44	338.70	9.28	-38.6	-39.5	23.0	0.00e+00	7	38	0	1043333120	50	6095
2026-01-07 21:02:53.46	338.57	9.22	-38.7	-39.6	22.9	0.00e+00	77	38	0	1044381696	50	6161
2026-01-07 21:02:54.46	338.44	9.16	-38.8	-39.7	22.9	0.00e+00	0	38	0	1046478848	50	6244
2026-01-07 21:02:55.47	338.31	9.11	-38.7	-39.6	22.9	0.00e+00	5	39	0	1048576000	50	6172
2026-01-07 21:02:56.48	338.18	9.05	-38.7	-39.7	22.9	0.00e+00	0	38	0	1050673152	50	6194
2026-01-07 21:02:57.50	338.05	8.99	-38.8	-39.8	22.9	0.00e+00	5	39	0	1052770304	50	6265
2026-01-07 21:02:58.50	337.93	8.94	-38.8	-39.8	22.8	0.00e+00	92	39	0	1053818880	50	6276
2026-01-07 21:02:59.51	337.80	8.88	-38.8	-39.8	22.8	0.00e+00	0	38	0	1055916032	50	6284
2026-01-07 21:03:00.52	337.67	8.82	-38.9	-39.9	22.6	0.00e+00	92	38	0	1058013184	50	6368
2026-01-07 21:03:01.54	337.54	8.77	-38.9	-39.9	22.7	0.00e+00	85	38	0	1060110336	50	6347
2026-01-07 21:03:02.55	337.42	8.71	-39.0	-40.0	22.6	0.00e+00	86	38	0	1062207488	50	6405
2026-01-07 21:03:03.56	337.29	8.65	-39.1	-40.1	22.5	0.00e+00	1	38	0	1064304640	50	6491
2026-01-07 21:03:04.56	337.17	8.59	-39.1	-40.1	22.5	0.00e+00	0	38	0	1065353216	50	6513
2026-01-07 21:03:05.58	337.04	8.54	-39.1	-40.2	22.4	0.00e+00	71	38	0	1067450368	50	6555
2026-01-07 21:03:06.58	336.92	8.48	-39.3	-40.3	22.4	0.00e+00	0	38	0	1069547520	50	6656
2026-01-07 21:03:07.59	336.80	8.42	-39.3	-40.3	22.3	0.00e+00	92	38	0	1071644672	50	6650
2026-01-07 21:03:08.60	336.68	8.37	-39.2	-40.3	22.3	0.00e+00	6	38	0	1073741824	50	6634
2026-01-07 21:03:09.61	336.55	8.31	-39.3	-40.3	22.3	0.00e+00	62	38	0	1074790400	50	6662
2026-01-07 21:03:10.62	336.43	8.25	-39.3	-40.4	22.2	0.00e+00	7	38	0	1076887552	50	6696
2026-01-07 21:03:11.63	336.31	8.20	-39.3	-40.4	22.2	0.00e+00	0	38	0	1078984704	50	6701
2026-01-07 21:03:12.64	336.19	8.14	-39.4	-40.4	22.2	0.00e+00	0	38	0	1081081856	50	6757
2026-01-07 21:03:13.65	336.07	8.08	-39.3	-40.4	22.2	0.00e+00	8	38	0	1083179008	50	6693
2026-01-07 21:03:14.66	335.95	8.02	-39.2	-40.2	22.2	0.00e+00	91	38	0	1084227584	50	6615
2026-01-07 21:03:15.66	335.83	7.97	-39.2	-40.2	22.3	0.00e+00	7	38	0	1086324736	50	6591
2026-01-07 21:03:16.68	335.71	7.91	-39.3	-40.4	22.0	0.00e+00	92	38	0	1088421888	50	6716
2026-01-07 21:03:17.68	335.59	7.85	-39.3	-40.4	22.2	0.00e+00	6	38	0	1090519040	50	6733
2026-01-07 21:03:18.69	335.48	7.80	-39.5	-40.5	22.0	0.00e+00	7	38	0	1092616192	50	6825
2026-01-07 21:03:19.70	335.36	7.74	-39.2	-40.2	22.3	0.00e+00	0	38	0	1093664768	50	6569
2026-01-07 21:03:20.71	335.24	7.68	-39.1	-40.2	22.4	0.00e+00	0	38	0	1095761920	50	6547
2026-01-07 21:03:21.72	335.12	7.63	-39.3	-40.3	22.2	0.00e+00	92	38	0	1097859072	50	6641
2026-01-07 21:03:22.73	335.01	7.57	-39.4	-40.4	22.1	0.00e+00	2	38	0	1099956224	50	6727
2026-01-07 21:03:23.74	334.89	7.51	-39.4	-40.4	22.1	0.00e+00	92	38	0	1102053376	50	6759
2026-01-07 21:03:24.75	334.78	7.46	-39.5	-40.5	21.9	0.00e+00	81	38	0	1103101952	50	6841
2026-01-07 21:03:25.76	334.66	7.40	-39.6	-40.6	21.8	0.00e+00	80	38	0	1105199104	50	6907
2026-01-07 21:03:26.77	334.55	7.34	-39.7	-40.8	21.8	0.00e+00	81	38	0	1107296256	50	7062
2026-01-07 21:03:27.78	334.43	7.29	-39.7	-40.8	21.7	0.00e+00	82	38	0	1109393408	52	6300
2026-01-07 21:03:28.79	334.32	7.23	-39.9	-41.0	21.5	0.00e+00	0	38	0	1111490560	52	6414
2026-01-07 21:03:29.80	334.21	7.17	-39.8	-40.9	21.6	0.00e+00	0	38	0	1112539136	52	6359
2026-01-07 21:03:30.81	334.10	7.12	-39.8	-40.9	21.5	0.00e+00	92	38	0	1114636288	52	6388
2026-01-07 21:03:31.82	333.98	7.06	-39.9	-41.1	21.5	0.00e+00	0	38	0	1116733440	52	6487
2026-01-07 21:03:32.82	333.87	7.00	-40.0	-41.1	21.4	0.00e+00	69	38	0	1118830592	52	6524
2026-01-07 21:03:33.83	333.76	6.95	-40.0	-41.1	21.5	0.00e+00	0	38	0	1120927744	52	6527
2026-01-07 21:03:34.84	333.65	6.89	-40.0	-41.1	21.4	0.00e+00	2	38	0	1121976320	52	6532
2026-01-07 21:03:35.85	333.54	6.83	-40.0	-41.1	21.4	0.00e+00	2	38	0	1124073472	52	6523
2026-01-07 21:03:36.86	333.43	6.78	-40.0	-41.2	21.3	0.00e+00	0	38	0	1126170624	52	6542
2026-01-07 21:03:37.86	333.32	6.72	-40.1	-41.2	21.2	0.00e+00	92	38	0	1128267776	52	6594
2026-01-07 21:03:38.87	333.22	6.66	-40.1	-41.3	21.3	0.00e+00	1	39	0	1130364928	52	6666
2026-01-07 21:03:39.88	333.11	6.61	-40.2	-41.4	21.1	0.00e+00	90	38	0	1131413504	52	6717
2026-01-07 21:03:40.89	333.00	6.55	-40.3	-41.5	21.1	0.00e+00	2	38	0	1133510656	52	6775
2026-01-07 21:03:41.90	332.89	6.49	-40.4	-41.6	21.0	0.00e+00	2	38	0	1135607808	52	6927
2026-01-07 21:03:42.90	332.79	6.44	-40.6	-41.9	20.6	0.00e+00	0	38	0	1137704960	52	7127
2026-01-07 21:03:43.91	332.68	6.38	-40.6	-41.8	20.8	0.00e+00	0	38	0	1139802112	52	7048
2026-01-07 21:03:44.92	332.57	6.32	-40.7	-42.0	20.6	0.00e+00	71	39	0	1140850688	52	7202
2026-01-07 21:03:45.93	332.47	6.27	-40.7	-42.0	20.5	0.00e+00	0	38	0	1142947840	54	6452
2026-01-07 21:03:46.94	332.36	6.21	-40.7	-42.0	20.5	0.00e+00	90	38	0	1145044992	54	6423
2026-01-07 21:03:47.95	332.26	6.16	-40.8	-42.1	20.4	0.00e+00	82	38	0	1147142144	54	6476
2026-01-07 21:03:48.96	332.15	6.10	-40.7	-42.0	20.3	0.00e+00	0	38	0	1149239296	54	6459
2026-01-07 21:03:49.97	332.05	6.04	-40.9	-42.2	20.3	0.00e+00	80	39	0	1150287872	54	6557
2026-01-07 21:03:50.98	331.94	5.99	-40.8	-42.1	20.2	0.00e+00	0	38	0	1152385024	54	6512
2026-01-07 21:03:51.99	331.84	5.93	-40.8	-42.1	20.2	0.00e+00	72	38	0	1154482176	54	6519
2026-01-07 21:03:53.00	331.74	5.87	-40.8	-42.1	20.4	0.00e+00	0	38	0	1156579328	54	6484
2026-01-07 21:03:54.01	331.63	5.82	-40.8	-42.1	20.4	0.00e+00	92	39	0	1158676480	54	6493
2026-01-07 21:03:55.02	331.53	5.76	-40.8	-42.1	20.4	0.00e+00	0	39	0	1160773632	54	6506
2026-01-07 21:03:56.03	331.43	5.71	-40.9	-42.3	20.3	0.00e+00	92	39	0	1161822208	54	6635
2026-01-07 21:03:57.04	331.33	5.65	-41.0	-42.3	20.2	0.00e+00	0	39	0	1163919360	54	6657
2026-01-07 21:03:58.05	331.23	5.59	-41.1	-42.5	20.0	0.00e+00	0	38	0	1166016512	54	6777
2026-01-07 21:03:59.06	331.13	5.54	-41.2	-42.6	20.0	0.00e+00	0	39	0	1168113664	54	6870
2026-01-07 21:04:00.07	331.03	5.48	-41.3	-42.7	19.8	0.00e+00	0	38	0	1170210816	54	6970
2026-01-07 21:04:01.07	330.93	5.43	-41.3	-42.8	19.7	0.00e+00	90	38	0	1171259392	54	7029
2026-01-07 21:04:02.08	330.83	5.37	-41.3	-42.7	19.8	0.00e+00	0	39	0	1173356544	54	6959
2026-01-07 21:04:03.09	330.73	5.32	-41.3	-42.8	19.7	0.00e+00	92	39	0	1175453696	54	7015
2026-01-07 21:04:04.11	330.63	5.26	-41.3	-42.7	19.7	0.00e+00	0	38	0	1177550848	54	6950
2026-01-07 21:04:05.12	330.53	5.20	-41.5	-43.0	19.6	0.00e+00	81	38	0	1179648000	54	7185
2026-01-07 21:04:06.12	330.44	5.15	-41.4	-42.8	19.7	0.00e+00	0	38	0	1180696576	54	7072
2026-01-07 21:04:07.14	330.34	5.09	-41.4	-42.8	19.6	0.00e+00	81	38	0	1182793728	54	7038
2026-01-07 21:04:08.14	330.24	5.04	-41.4	-42.9	19.6	0.00e+00	85	38	0	1184890880	54	7106
2026-01-07 21:04:09.16	330.14	4.98	-41.5	-42.9	19.5	0.00e+00	82	38	0	1186988032	54	7158
2026-01-07 21:04:10.17	330.05	4.92	-41.5	-43.0	19.5	0.00e+00	92	38	0	1189085184	54	7211
2026-01-07 21:04:11.18	329.95	4.87	-41.5	-42.9	19.5	0.00e+00	0	38	0	1190133760	54	7147
2026-01-07 21:04:12.18	329.86	4.81	-41.4	-42.9	19.5	0.00e+00	19	38	0	1192230912	54	7100
2026-01-07 21:04:13.19	329.76	4.76	-41.5	-42.9	19.4	0.00e+00	82	38	0	1194328064	54	7140
2026-01-07 21:04:14.20	329.67	4.70	-41.5	-43.0	19.3	0.00e+00	0	38	0	1196425216	54	7219
2026-01-07 21:04:15.21	329.57	4.65	-41.7	-43.2	19.2	0.00e+00	82	38	0	1198522368	54	7353
2026-01-07 21:04:16.22	329.48	4.59	-41.8	-43.4	19.1	0.00e+00	0	38	0	1199570944	56	6734
2026-01-07 21:04:17.23	329.39	4.54	-41.8	-43.4	19.0	0.00e+00	92	38	0	1201668096	56	6744
2026-01-07 21:04:18.24	329.29	4.48	-41.8	-43.4	18.9	0.00e+00	2	38	0	1203765248	56	6707
