passes_logs/2026/01/07/R4.6S_Anadyr/R4.6S_Anadyr__20260107_002902_NOAA_20_JPSS-1_rec.log

#Pass ID: 20260107_002902_NOAA 20 (JPSS-1)
#Satellite: NOAA 20 (JPSS-1)
#Configuration: NOAA 20
#almurnet v.1.7.20251203
#Start time: 2026-01-07 00:29:06

#Version: 2.2.20231116
#Station: R4.6S_Anadyr
#Location: 177.4865 lon 64.73178 lat
#TLE: 1 43013U 17073A   26005.46207808  .00000128  00000+0  81791-4 0  9997
#TLE: 2 43013  98.7627 306.5027 0001826  53.0458 307.0885 14.19533487421381

#Time	Az	El	Level	Level2	SNR	BER	BlckErr	Temp	State	Recorded	gain1	gain2
2026-01-07 00:29:06.18	162.97	0.20	-49.1	-62.8	3.3	1.54e+00	0	33	0	0	60	50011
2026-01-07 00:29:07.19	162.98	0.27	-49.1	-64.3	3.6	1.51e+00	0	33	104	0	60	59518
2026-01-07 00:29:08.20	162.99	0.33	-49.2	-64.4	3.6	1.51e+00	0	33	104	0	60	59879
2026-01-07 00:29:09.21	163.00	0.39	-49.2	-64.4	3.6	1.51e+00	0	33	104	0	60	59908
2026-01-07 00:29:10.22	163.02	0.45	-49.2	-64.4	3.6	1.51e+00	0	33	104	0	60	59713
2026-01-07 00:29:11.23	163.03	0.51	-49.1	-64.3	3.6	1.51e+00	0	33	104	0	60	59533
2026-01-07 00:29:12.24	163.04	0.57	-49.0	-64.2	3.6	1.51e+00	0	33	104	0	60	58429
2026-01-07 00:29:13.25	163.05	0.63	-48.9	-64.1	3.6	1.51e+00	0	33	104	0	60	57699
2026-01-07 00:29:14.26	163.06	0.70	-48.8	-63.9	3.6	1.51e+00	0	33	104	0	60	56670
2026-01-07 00:29:15.27	163.07	0.76	-48.5	-63.7	3.6	1.51e+00	0	33	104	0	60	55173
2026-01-07 00:29:16.28	163.09	0.82	-47.4	-62.6	3.6	1.51e+00	0	33	104	0	60	48676
2026-01-07 00:29:17.29	163.10	0.88	-47.9	-63.1	3.6	1.51e+00	0	33	104	0	60	51593
2026-01-07 00:29:18.30	163.11	0.94	-47.7	-62.9	3.6	1.51e+00	0	33	104	0	60	50201
2026-01-07 00:29:19.31	163.12	1.01	-47.7	-62.9	3.6	1.51e+00	0	33	104	0	60	50482
2026-01-07 00:29:20.32	163.13	1.07	-47.7	-62.9	3.6	1.51e+00	0	33	104	0	60	50263
2026-01-07 00:29:21.33	163.15	1.13	-47.7	-62.8	3.6	1.51e+00	0	33	104	0	60	49907
2026-01-07 00:29:22.33	163.16	1.19	-47.7	-62.9	3.6	1.51e+00	0	33	104	0	60	50380
2026-01-07 00:29:23.35	163.17	1.26	-47.7	-62.8	3.6	1.51e+00	0	33	104	0	60	49948
2026-01-07 00:29:24.36	163.18	1.32	-47.7	-62.8	3.6	1.51e+00	0	33	104	0	60	49893
2026-01-07 00:29:25.37	163.20	1.38	-47.7	-62.8	3.6	1.51e+00	0	34	104	0	60	49811
2026-01-07 00:29:26.38	163.21	1.45	-47.7	-62.8	3.5	1.51e+00	0	34	104	0	60	49643
2026-01-07 00:29:27.39	163.22	1.51	-47.7	-62.7	3.6	1.51e+00	0	33	104	0	60	49270
2026-01-07 00:29:28.40	163.23	1.57	-47.7	-62.6	3.6	1.51e+00	0	34	104	0	60	48981
2026-01-07 00:29:29.41	163.24	1.64	-47.7	-62.7	3.6	1.51e+00	0	34	104	0	60	49058
2026-01-07 00:29:30.41	163.26	1.70	-47.7	-62.7	3.6	1.51e+00	0	34	104	0	60	49361
2026-01-07 00:29:31.42	163.27	1.77	-47.7	-62.7	3.6	1.51e+00	0	34	104	0	60	49389
2026-01-07 00:29:32.43	163.28	1.83	-47.7	-62.8	3.6	1.51e+00	0	33	104	0	60	49870
2026-01-07 00:29:33.44	163.29	1.89	-47.7	-62.8	3.6	1.51e+00	0	34	104	0	60	49966
2026-01-07 00:29:34.45	163.31	1.96	-47.7	-62.9	3.6	1.51e+00	0	34	104	0	60	50341
2026-01-07 00:29:35.46	163.32	2.02	-47.7	-62.8	3.6	1.51e+00	0	34	104	0	60	50168
2026-01-07 00:29:36.47	163.33	2.09	-47.7	-62.8	3.6	1.51e+00	0	34	104	0	60	49670
2026-01-07 00:29:37.48	163.35	2.15	-47.7	-62.7	3.6	1.51e+00	0	34	104	0	60	49591
2026-01-07 00:29:38.49	163.36	2.22	-47.7	-62.7	3.6	1.51e+00	0	34	104	0	60	49044
2026-01-07 00:29:39.50	163.37	2.28	-47.7	-62.5	3.6	1.51e+00	0	34	104	0	60	48344
2026-01-07 00:29:40.51	163.38	2.35	-47.7	-62.4	3.6	1.51e+00	0	34	104	0	60	47709
2026-01-07 00:29:41.52	163.40	2.41	-47.7	-62.2	3.6	1.51e+00	0	34	104	0	60	46488
2026-01-07 00:29:42.53	163.41	2.48	-47.7	-61.9	3.6	1.51e+00	0	34	104	0	60	45142
2026-01-07 00:29:43.54	163.42	2.55	-47.7	-61.7	3.6	1.51e+00	0	34	104	0	60	44038
2026-01-07 00:29:44.55	163.44	2.61	-47.7	-61.9	3.6	1.51e+00	0	34	104	0	60	44858
2026-01-07 00:29:45.56	163.45	2.68	-47.7	-62.0	3.5	1.51e+00	0	34	104	0	60	45496
2026-01-07 00:29:46.57	163.46	2.74	-47.7	-62.3	3.6	1.51e+00	0	34	104	0	60	47194
2026-01-07 00:29:47.58	163.48	2.81	-47.7	-62.3	3.6	1.51e+00	0	34	104	0	60	47359
2026-01-07 00:29:48.58	163.49	2.88	-47.6	-61.6	3.6	1.51e+00	0	34	104	0	60	43532
2026-01-07 00:29:49.59	163.50	2.94	-47.5	-59.7	3.9	1.48e+00	0	34	104	0	60	34912
2026-01-07 00:29:50.60	163.51	3.01	-47.3	-56.0	5.0	9.58e-01	90	34	0	1048576	60	22692
2026-01-07 00:29:51.62	163.53	3.08	-47.0	-53.9	7.0	3.91e-01	92	34	0	3145728	60	17985
2026-01-07 00:29:52.63	163.54	3.15	-46.5	-52.3	9.0	4.70e-02	90	34	0	4194304	60	14930
2026-01-07 00:29:53.64	163.56	3.21	-46.0	-50.8	10.7	7.53e-03	8	34	0	6291456	60	12574
2026-01-07 00:29:54.65	163.57	3.28	-45.5	-49.5	12.2	9.67e-04	92	34	0	8388608	60	10853
2026-01-07 00:29:55.66	163.58	3.35	-45.1	-48.7	13.1	3.43e-05	6	34	0	10485760	60	9791
2026-01-07 00:29:56.67	163.60	3.42	-44.8	-48.0	13.9	1.06e-05	92	34	0	12582912	60	9106
2026-01-07 00:29:57.68	163.61	3.48	-44.5	-47.6	14.2	3.80e-06	92	34	0	13631488	60	8696
2026-01-07 00:29:58.69	163.62	3.55	-44.5	-47.6	14.2	7.00e-07	92	34	0	15728640	60	8699
2026-01-07 00:29:59.70	163.64	3.62	-44.6	-47.8	13.9	2.20e-06	92	34	0	17825792	60	8890
2026-01-07 00:30:00.71	163.65	3.69	-45.0	-48.4	13.3	5.30e-06	90	34	0	19922944	60	9552
2026-01-07 00:30:01.72	163.66	3.76	-47.6	-59.4	3.6	2.72e-04	0	34	0	22020096	60	33653
2026-01-07 00:30:02.72	163.68	3.83	-46.8	-53.5	5.1	1.49e+00	0	34	104	22020096	60	17074
2026-01-07 00:30:03.74	163.69	3.90	-47.6	-59.9	3.5	3.81e-03	92	34	0	22020096	60	35750
2026-01-07 00:30:04.75	163.71	3.97	-44.1	-46.9	6.0	1.51e+00	0	34	104	22020096	60	7999
2026-01-07 00:30:05.76	163.72	4.04	-47.6	-58.4	3.5	1.77e-02	54	34	0	22020096	60	29950
2026-01-07 00:30:06.76	163.73	4.10	-43.9	-46.6	5.9	1.50e+00	0	34	104	22020096	60	7737
2026-01-07 00:30:07.77	163.75	4.17	-42.8	-44.9	17.1	7.81e-02	91	34	0	22020096	60	6349
2026-01-07 00:30:08.78	163.76	4.24	-42.3	-44.2	17.8	0.00e+00	90	34	0	23068672	58	6552
2026-01-07 00:30:09.80	163.78	4.32	-42.0	-43.8	18.2	0.00e+00	20	34	0	25165824	58	6287
2026-01-07 00:30:10.80	163.79	4.38	-41.9	-43.6	18.3	0.00e+00	90	34	0	27262976	58	6140
2026-01-07 00:30:11.81	163.81	4.46	-41.8	-43.5	18.5	0.00e+00	21	34	0	29360128	56	6789
2026-01-07 00:30:12.82	163.82	4.53	-41.7	-43.3	18.8	0.00e+00	91	34	0	31457280	56	6662
2026-01-07 00:30:13.83	163.83	4.60	-41.7	-43.3	18.7	0.00e+00	92	34	0	32505856	56	6636
2026-01-07 00:30:14.84	163.85	4.67	-41.6	-43.2	18.9	0.00e+00	92	34	0	34603008	56	6555
2026-01-07 00:30:15.85	163.86	4.74	-41.4	-43.0	19.1	0.00e+00	92	34	0	36700160	56	6426
2026-01-07 00:30:16.86	163.88	4.81	-41.5	-43.1	19.0	0.00e+00	15	34	0	38797312	56	6508
2026-01-07 00:30:17.87	163.89	4.88	-41.3	-42.8	19.2	0.00e+00	90	34	0	40894464	56	6297
2026-01-07 00:30:18.88	163.91	4.95	-41.4	-42.9	19.2	0.00e+00	0	34	0	41943040	56	6357
2026-01-07 00:30:19.89	163.92	5.03	-41.3	-42.8	19.2	0.00e+00	90	34	0	44040192	56	6303
2026-01-07 00:30:20.90	163.94	5.10	-41.3	-42.8	19.3	0.00e+00	92	34	0	46137344	56	6283
2026-01-07 00:30:21.91	163.95	5.17	-41.3	-42.8	19.4	0.00e+00	92	34	0	48234496	56	6272
2026-01-07 00:30:22.92	163.97	5.24	-41.3	-42.8	19.3	0.00e+00	90	34	0	50331648	56	6277
2026-01-07 00:30:23.93	163.98	5.32	-41.3	-42.8	19.3	0.00e+00	92	34	0	52428800	56	6315
2026-01-07 00:30:24.94	164.00	5.39	-41.4	-42.9	19.3	0.00e+00	92	34	0	53477376	56	6357
2026-01-07 00:30:25.94	164.01	5.46	-41.3	-42.9	19.3	0.00e+00	0	34	0	55574528	56	6321
2026-01-07 00:30:26.95	164.03	5.54	-41.2	-42.6	19.6	0.00e+00	92	34	0	57671680	56	6156
2026-01-07 00:30:27.96	164.04	5.61	-41.2	-42.7	19.4	0.00e+00	0	34	0	59768832	56	6226
2026-01-07 00:30:28.97	164.06	5.68	-41.1	-42.6	19.7	0.00e+00	92	34	0	61865984	56	6122
2026-01-07 00:30:29.98	164.07	5.76	-41.2	-42.7	19.6	0.00e+00	92	34	0	62914560	56	6180
2026-01-07 00:30:30.99	164.09	5.83	-41.1	-42.5	19.7	0.00e+00	92	34	0	65011712	56	6069
2026-01-07 00:30:32.00	164.11	5.91	-41.0	-42.4	19.8	0.00e+00	92	34	0	67108864	56	6028
2026-01-07 00:30:33.01	164.12	5.98	-41.0	-42.5	19.7	0.00e+00	76	34	0	69206016	56	6038
2026-01-07 00:30:34.02	164.14	6.06	-40.9	-42.3	19.9	0.00e+00	92	34	0	71303168	56	5951
2026-01-07 00:30:35.03	164.15	6.13	-41.0	-42.4	19.9	0.00e+00	0	34	0	72351744	56	5988
2026-01-07 00:30:36.03	164.17	6.21	-41.0	-42.4	19.8	0.00e+00	92	34	0	74448896	56	5993
2026-01-07 00:30:37.05	164.18	6.28	-41.0	-42.4	19.8	0.00e+00	90	34	0	76546048	56	6033
2026-01-07 00:30:38.06	164.20	6.36	-41.0	-42.4	19.9	0.00e+00	92	34	0	78643200	56	5980
2026-01-07 00:30:39.06	164.22	6.43	-40.9	-42.3	20.0	0.00e+00	92	34	0	80740352	56	5909
2026-01-07 00:30:40.07	164.23	6.51	-40.6	-42.0	20.3	0.00e+00	92	34	0	81788928	54	6394
2026-01-07 00:30:41.08	164.25	6.59	-40.6	-42.0	20.3	0.00e+00	90	34	0	83886080	54	6411
2026-01-07 00:30:42.10	164.26	6.66	-40.6	-41.9	20.4	0.00e+00	0	34	0	85983232	54	6339
2026-01-07 00:30:43.11	164.28	6.74	-40.7	-42.0	20.2	0.00e+00	91	34	0	88080384	54	6425
2026-01-07 00:30:44.12	164.30	6.82	-40.5	-41.8	20.4	0.00e+00	46	34	0	90177536	54	6307
2026-01-07 00:30:45.12	164.31	6.90	-40.5	-41.8	20.4	0.00e+00	90	34	0	91226112	54	6312
2026-01-07 00:30:46.13	164.33	6.97	-40.6	-41.9	20.3	0.00e+00	92	34	0	93323264	54	6353
2026-01-07 00:30:47.14	164.35	7.05	-40.4	-41.7	20.5	0.00e+00	92	34	0	95420416	54	6203
2026-01-07 00:30:48.15	164.36	7.13	-40.5	-41.8	20.5	0.00e+00	91	34	0	97517568	54	6246
2026-01-07 00:30:49.16	164.38	7.21	-40.4	-41.7	20.6	0.00e+00	67	34	0	99614720	54	6193
2026-01-07 00:30:50.17	164.40	7.29	-40.4	-41.7	20.5	0.00e+00	92	34	0	100663296	54	6207
2026-01-07 00:30:51.18	164.41	7.36	-40.4	-41.6	20.6	0.00e+00	0	34	0	102760448	54	6164
2026-01-07 00:30:52.19	164.43	7.44	-40.3	-41.5	20.8	0.00e+00	92	34	0	104857600	54	6096
2026-01-07 00:30:53.20	164.45	7.52	-40.3	-41.6	20.8	0.00e+00	90	34	0	106954752	54	6116
2026-01-07 00:30:54.21	164.46	7.60	-40.3	-41.5	20.8	0.00e+00	92	34	0	109051904	54	6077
2026-01-07 00:30:55.22	164.48	7.68	-40.3	-41.6	20.7	0.00e+00	92	34	0	110100480	54	6114
2026-01-07 00:30:56.23	164.50	7.76	-40.1	-41.4	20.9	0.00e+00	6	34	0	112197632	54	5971
2026-01-07 00:30:57.24	164.52	7.84	-40.2	-41.4	20.9	0.00e+00	92	34	0	114294784	54	6019
2026-01-07 00:30:58.25	164.53	7.92	-40.2	-41.4	20.8	0.00e+00	0	34	0	116391936	54	6026
2026-01-07 00:30:59.26	164.55	8.00	-40.1	-41.3	21.0	0.00e+00	92	34	0	118489088	54	5954
2026-01-07 00:31:00.27	164.57	8.09	-40.1	-41.3	21.1	0.00e+00	92	34	0	120586240	54	5899
2026-01-07 00:31:01.28	164.59	8.17	-40.1	-41.2	21.1	0.00e+00	27	34	0	121634816	54	5889
2026-01-07 00:31:02.29	164.60	8.25	-40.1	-41.3	21.1	0.00e+00	92	34	0	123731968	54	5902
2026-01-07 00:31:03.30	164.62	8.33	-40.0	-41.2	21.1	0.00e+00	73	34	0	125829120	54	5871
2026-01-07 00:31:04.31	164.64	8.41	-40.1	-41.3	21.0	0.00e+00	92	34	0	127926272	54	5913
2026-01-07 00:31:05.32	164.66	8.50	-40.0	-41.2	21.2	0.00e+00	0	34	0	130023424	54	5882
2026-01-07 00:31:06.32	164.67	8.58	-40.0	-41.2	21.1	0.00e+00	92	34	0	131072000	54	5857
2026-01-07 00:31:07.33	164.69	8.66	-40.0	-41.2	21.3	0.00e+00	67	34	0	133169152	54	5832
2026-01-07 00:31:08.34	164.71	8.74	-39.8	-41.0	21.3	0.00e+00	92	34	0	135266304	54	5730
2026-01-07 00:31:09.35	164.73	8.83	-39.8	-41.0	21.4	0.00e+00	92	34	0	137363456	54	5711
2026-01-07 00:31:10.36	164.75	8.91	-39.8	-40.9	21.4	0.00e+00	8	34	0	139460608	54	5687
2026-01-07 00:31:11.37	164.77	8.99	-39.8	-41.0	21.4	0.00e+00	90	34	0	140509184	52	6403
2026-01-07 00:31:12.38	164.78	9.08	-39.7	-40.9	21.5	0.00e+00	20	34	0	142606336	52	6323
2026-01-07 00:31:13.39	164.80	9.16	-39.8	-40.9	21.5	0.00e+00	92	34	0	144703488	52	6344
2026-01-07 00:31:14.40	164.82	9.25	-39.6	-40.7	21.7	0.00e+00	58	34	0	146800640	52	6225
2026-01-07 00:31:15.41	164.84	9.33	-39.7	-40.9	21.6	0.00e+00	92	34	0	148897792	52	6333
2026-01-07 00:31:16.42	164.86	9.42	-39.6	-40.7	21.6	0.00e+00	91	34	0	149946368	52	6234
2026-01-07 00:31:17.42	164.88	9.50	-39.6	-40.7	21.8	0.00e+00	90	34	0	152043520	52	6215
2026-01-07 00:31:18.43	164.90	9.59	-39.6	-40.7	21.7	0.00e+00	92	34	0	154140672	52	6194
2026-01-07 00:31:19.45	164.92	9.68	-39.4	-40.5	21.9	0.00e+00	0	34	0	156237824	52	6080
2026-01-07 00:31:20.45	164.94	9.76	-39.4	-40.5	21.9	0.00e+00	92	34	0	158334976	52	6068
2026-01-07 00:31:21.46	164.96	9.85	-39.4	-40.4	22.0	0.00e+00	11	34	0	159383552	52	6030
2026-01-07 00:31:22.47	164.97	9.94	-39.4	-40.4	22.0	0.00e+00	92	34	0	161480704	52	6029
2026-01-07 00:31:23.48	164.99	10.03	-39.3	-40.4	22.0	0.00e+00	92	34	0	163577856	52	5994
2026-01-07 00:31:24.49	165.01	10.11	-39.3	-40.4	22.0	0.00e+00	92	34	0	165675008	52	5983
2026-01-07 00:31:25.50	165.03	10.20	-39.1	-40.2	22.2	0.00e+00	92	34	0	167772160	52	5848
2026-01-07 00:31:26.51	165.05	10.29	-39.1	-40.1	22.3	0.00e+00	67	34	0	168820736	52	5800
2026-01-07 00:31:27.52	165.07	10.38	-39.1	-40.1	22.3	0.00e+00	91	34	0	170917888	52	5804
2026-01-07 00:31:28.53	165.09	10.47	-39.1	-40.1	22.3	0.00e+00	0	34	0	173015040	52	5812
2026-01-07 00:31:29.54	165.11	10.56	-39.1	-40.1	22.3	0.00e+00	91	34	0	175112192	52	5786
2026-01-07 00:31:30.55	165.13	10.65	-39.1	-40.2	22.3	0.00e+00	75	34	0	177209344	52	5829
2026-01-07 00:31:31.56	165.15	10.74	-38.9	-39.9	22.5	0.00e+00	92	34	0	178257920	52	5687
2026-01-07 00:31:32.56	165.17	10.83	-39.1	-40.1	22.4	0.00e+00	90	34	0	180355072	52	5782
2026-01-07 00:31:33.57	165.19	10.92	-38.9	-39.9	22.5	0.00e+00	51	34	0	182452224	52	5683
2026-01-07 00:31:34.58	165.22	11.01	-38.9	-39.9	22.5	0.00e+00	92	34	0	184549376	52	5658
2026-01-07 00:31:35.59	165.24	11.10	-39.0	-40.1	22.5	0.00e+00	13	34	0	186646528	52	5763
2026-01-07 00:31:36.60	165.26	11.19	-38.9	-39.9	22.5	0.00e+00	92	34	0	188743680	52	5658
2026-01-07 00:31:37.61	165.28	11.28	-38.7	-39.7	22.7	0.00e+00	0	34	0	189792256	50	6211
2026-01-07 00:31:38.62	165.30	11.38	-38.8	-39.8	22.7	0.00e+00	92	34	0	191889408	50	6268
2026-01-07 00:31:39.63	165.32	11.47	-38.9	-39.8	22.6	0.00e+00	90	34	0	193986560	50	6317
2026-01-07 00:31:40.64	165.34	11.56	-38.8	-39.8	22.8	0.00e+00	92	34	0	196083712	50	6266
2026-01-07 00:31:41.65	165.36	11.66	-38.7	-39.7	22.7	0.00e+00	92	34	0	198180864	50	6207
2026-01-07 00:31:42.66	165.38	11.75	-38.7	-39.7	22.8	0.00e+00	9	34	0	199229440	50	6197
2026-01-07 00:31:43.67	165.41	11.85	-38.5	-39.5	22.9	0.00e+00	90	34	0	201326592	50	6068
2026-01-07 00:31:44.68	165.43	11.94	-38.5	-39.4	23.0	0.00e+00	11	34	0	203423744	50	6015
2026-01-07 00:31:45.69	165.45	12.03	-38.5	-39.4	23.0	0.00e+00	90	34	0	205520896	50	6032
2026-01-07 00:31:46.70	165.47	12.13	-38.5	-39.4	23.0	0.00e+00	92	34	0	207618048	50	6019
2026-01-07 00:31:47.71	165.49	12.23	-38.4	-39.3	23.1	0.00e+00	92	34	0	208666624	50	5952
2026-01-07 00:31:48.72	165.52	12.32	-38.3	-39.3	23.1	0.00e+00	92	34	0	210763776	50	5914
2026-01-07 00:31:49.72	165.54	12.42	-38.5	-39.4	23.0	0.00e+00	92	34	0	212860928	50	6001
2026-01-07 00:31:50.73	165.56	12.51	-38.3	-39.3	23.1	0.00e+00	90	34	0	214958080	50	5920
2026-01-07 00:31:51.74	165.58	12.61	-38.4	-39.3	23.1	0.00e+00	69	34	0	217055232	50	5945
2026-01-07 00:31:52.75	165.61	12.71	-38.2	-39.1	23.3	0.00e+00	92	34	0	218103808	50	5800
2026-01-07 00:31:53.76	165.63	12.81	-38.2	-39.1	23.3	0.00e+00	73	34	0	220200960	50	5811
2026-01-07 00:31:54.77	165.65	12.91	-38.2	-39.1	23.3	0.00e+00	92	34	0	222298112	50	5775
2026-01-07 00:31:55.78	165.68	13.01	-38.3	-39.2	23.2	0.00e+00	91	34	0	224395264	50	5889
2026-01-07 00:31:56.79	165.70	13.10	-38.2	-39.1	23.3	0.00e+00	91	34	0	226492416	50	5825
2026-01-07 00:31:57.80	165.72	13.20	-38.3	-39.2	23.2	0.00e+00	91	34	0	227540992	50	5860
2026-01-07 00:31:58.81	165.75	13.30	-38.3	-39.2	23.2	0.00e+00	10	34	0	229638144	50	5891
2026-01-07 00:31:59.82	165.77	13.40	-38.2	-39.1	23.3	0.00e+00	91	34	0	231735296	50	5780
2026-01-07 00:32:00.83	165.79	13.51	-38.2	-39.1	23.4	0.00e+00	9	34	0	233832448	50	5799
2026-01-07 00:32:01.84	165.82	13.61	-38.2	-39.1	23.4	0.00e+00	90	34	0	235929600	50	5776
2026-01-07 00:32:02.85	165.84	13.71	-38.3	-39.3	23.1	0.00e+00	91	34	0	236978176	50	5904
2026-01-07 00:32:03.86	165.87	13.81	-38.2	-39.1	23.4	0.00e+00	76	34	0	239075328	50	5821
2026-01-07 00:32:04.86	165.89	13.91	-38.1	-39.0	23.4	0.00e+00	90	34	0	241172480	50	5741
2026-01-07 00:32:05.87	165.91	14.02	-38.1	-39.0	23.5	0.00e+00	67	34	0	243269632	50	5746
2026-01-07 00:32:06.88	165.94	14.12	-38.2	-39.1	23.4	0.00e+00	91	34	0	245366784	50	5788
2026-01-07 00:32:07.90	165.96	14.22	-38.2	-39.1	23.4	0.00e+00	0	34	0	246415360	50	5788
2026-01-07 00:32:08.90	165.99	14.33	-38.3	-39.2	23.2	0.00e+00	90	34	0	248512512	50	5872
2026-01-07 00:32:09.91	166.01	14.43	-38.3	-39.2	23.2	0.00e+00	91	34	0	250609664	50	5870
2026-01-07 00:32:10.92	166.04	14.54	-38.2	-39.2	23.3	0.00e+00	92	34	0	252706816	50	5831
2026-01-07 00:32:11.93	166.07	14.64	-38.1	-39.0	23.4	0.00e+00	92	34	0	254803968	50	5748
2026-01-07 00:32:12.94	166.09	14.75	-38.2	-39.2	23.3	0.00e+00	92	34	0	255852544	50	5847
2026-01-07 00:32:13.95	166.12	14.86	-38.2	-39.1	23.3	0.00e+00	92	34	0	257949696	50	5780
2026-01-07 00:32:14.96	166.14	14.96	-38.1	-39.0	23.5	0.00e+00	71	34	0	260046848	50	5759
2026-01-07 00:32:15.97	166.17	15.07	-38.2	-39.2	23.4	0.00e+00	92	34	0	262144000	50	5830
2026-01-07 00:32:16.98	166.20	15.18	-38.1	-39.0	23.4	0.00e+00	0	34	0	264241152	50	5753
2026-01-07 00:32:17.99	166.22	15.29	-38.1	-39.0	23.5	0.00e+00	90	34	0	265289728	50	5741
2026-01-07 00:32:19.00	166.25	15.40	-38.0	-39.0	23.6	0.00e+00	92	34	0	267386880	50	5699
2026-01-07 00:32:20.01	166.27	15.50	-38.1	-39.0	23.5	0.00e+00	8	34	0	269484032	50	5711
2026-01-07 00:32:21.02	166.30	15.61	-38.1	-39.0	23.6	0.00e+00	90	34	0	271581184	50	5715
2026-01-07 00:32:22.03	166.33	15.73	-38.0	-38.9	23.7	0.00e+00	8	34	0	273678336	50	5638
2026-01-07 00:32:23.03	166.36	15.83	-37.9	-38.8	23.7	0.00e+00	92	34	0	274726912	50	5602
2026-01-07 00:32:24.04	166.38	15.95	-38.0	-38.9	23.7	0.00e+00	0	34	0	276824064	50	5650
2026-01-07 00:32:25.06	166.41	16.06	-38.0	-38.9	23.6	0.00e+00	87	34	0	278921216	50	5694
2026-01-07 00:32:26.06	166.44	16.17	-37.8	-38.7	23.8	0.00e+00	92	34	0	281018368	50	5558
2026-01-07 00:32:27.07	166.47	16.28	-37.9	-38.8	23.8	0.00e+00	68	34	0	283115520	50	5592
2026-01-07 00:32:28.08	166.50	16.40	-37.9	-38.8	23.7	0.00e+00	92	34	0	285212672	50	5575
2026-01-07 00:32:29.09	166.52	16.51	-37.9	-38.8	23.7	0.00e+00	72	34	0	286261248	50	5596
2026-01-07 00:32:30.10	166.55	16.63	-37.8	-38.7	23.8	0.00e+00	92	34	0	288358400	50	5548
2026-01-07 00:32:31.11	166.58	16.74	-37.8	-38.7	23.8	0.00e+00	0	34	0	290455552	50	5516
2026-01-07 00:32:32.12	166.61	16.86	-37.8	-38.7	23.7	0.00e+00	92	34	0	292552704	50	5553
2026-01-07 00:32:33.13	166.64	16.97	-37.9	-38.7	23.8	0.00e+00	92	34	0	294649856	50	5559
2026-01-07 00:32:34.14	166.67	17.09	-37.8	-38.7	23.8	0.00e+00	88	34	0	295698432	50	5549
2026-01-07 00:32:35.15	166.70	17.21	-37.9	-38.8	23.7	0.00e+00	92	34	0	297795584	50	5567
2026-01-07 00:32:36.16	166.73	17.32	-37.9	-38.8	23.8	0.00e+00	71	34	0	299892736	50	5568
2026-01-07 00:32:37.17	166.76	17.44	-38.0	-38.9	23.7	0.00e+00	92	34	0	301989888	50	5655
2026-01-07 00:32:38.18	166.79	17.56	-37.9	-38.7	23.9	0.00e+00	3	34	0	304087040	50	5556
2026-01-07 00:32:39.19	166.82	17.68	-37.9	-38.8	23.8	0.00e+00	92	34	0	305135616	50	5588
2026-01-07 00:32:40.20	166.85	17.80	-37.8	-38.7	23.9	0.00e+00	92	34	0	307232768	50	5514
2026-01-07 00:32:41.21	166.88	17.92	-37.9	-38.8	23.7	0.00e+00	90	34	0	309329920	50	5603
2026-01-07 00:32:42.22	166.91	18.04	-37.9	-38.8	23.7	0.00e+00	92	34	0	311427072	50	5621
2026-01-07 00:32:43.23	166.94	18.17	-38.0	-38.8	23.8	0.00e+00	0	34	0	313524224	50	5627
2026-01-07 00:32:44.24	166.97	18.29	-38.0	-38.9	23.7	0.00e+00	92	34	0	314572800	50	5660
2026-01-07 00:32:45.25	167.00	18.41	-38.1	-39.0	23.6	0.00e+00	2	34	0	316669952	50	5712
2026-01-07 00:32:46.26	167.04	18.53	-38.1	-39.0	23.6	0.00e+00	92	34	0	318767104	50	5699
2026-01-07 00:32:47.27	167.07	18.66	-38.0	-38.9	23.7	0.00e+00	0	34	0	320864256	50	5638
2026-01-07 00:32:48.28	167.10	18.78	-38.0	-38.9	23.7	0.00e+00	91	34	0	322961408	50	5678
2026-01-07 00:32:49.29	167.13	18.91	-38.0	-38.9	23.7	0.00e+00	92	34	0	324009984	50	5664
2026-01-07 00:32:50.30	167.17	19.04	-38.1	-39.0	23.6	0.00e+00	2	34	0	326107136	50	5756
2026-01-07 00:32:51.31	167.20	19.16	-38.1	-39.0	23.6	0.00e+00	92	34	0	328204288	50	5746
2026-01-07 00:32:52.32	167.23	19.29	-38.2	-39.1	23.5	0.00e+00	0	34	0	330301440	50	5803
2026-01-07 00:32:53.33	167.27	19.42	-38.3	-39.3	23.3	0.00e+00	92	34	0	332398592	50	5901
2026-01-07 00:32:54.34	167.30	19.55	-38.2	-39.1	23.4	0.00e+00	61	34	0	333447168	50	5800
2026-01-07 00:32:55.35	167.34	19.68	-38.3	-39.2	23.3	0.00e+00	92	34	0	335544320	50	5884
2026-01-07 00:32:56.36	167.37	19.81	-38.3	-39.2	23.4	0.00e+00	90	34	0	337641472	50	5866
2026-01-07 00:32:57.36	167.40	19.94	-38.4	-39.3	23.3	0.00e+00	92	34	0	339738624	50	5950
2026-01-07 00:32:58.37	167.44	20.07	-38.4	-39.3	23.4	0.00e+00	92	34	0	341835776	50	5929
2026-01-07 00:32:59.38	167.47	20.20	-38.4	-39.3	23.4	0.00e+00	0	34	0	342884352	50	5912
2026-01-07 00:33:00.39	167.51	20.33	-38.5	-39.4	23.3	0.00e+00	90	34	0	344981504	50	5983
2026-01-07 00:33:01.40	167.55	20.47	-38.5	-39.5	23.1	0.00e+00	16	34	0	347078656	50	6048
2026-01-07 00:33:02.41	167.58	20.60	-38.4	-39.4	23.3	0.00e+00	91	34	0	349175808	50	5972
2026-01-07 00:33:03.42	167.62	20.74	-38.6	-39.5	23.2	0.00e+00	74	34	0	351272960	50	6065
2026-01-07 00:33:04.42	167.65	20.87	-38.6	-39.6	23.1	0.00e+00	91	34	0	353370112	50	6124
2026-01-07 00:33:05.43	167.69	21.01	-38.6	-39.5	23.2	0.00e+00	90	34	0	354418688	50	6093
2026-01-07 00:33:06.44	167.73	21.14	-38.6	-39.6	23.2	0.00e+00	0	34	0	356515840	50	6111
2026-01-07 00:33:07.45	167.77	21.28	-38.7	-39.6	23.1	0.00e+00	90	34	0	358612992	50	6159
2026-01-07 00:33:08.46	167.80	21.42	-38.8	-39.8	23.0	0.00e+00	0	34	0	360710144	50	6256
2026-01-07 00:33:09.47	167.84	21.56	-38.8	-39.8	22.9	0.00e+00	92	34	0	362807296	50	6294
2026-01-07 00:33:10.48	167.88	21.70	-38.8	-39.8	23.0	0.00e+00	7	34	0	363855872	50	6266
2026-01-07 00:33:11.49	167.92	21.84	-38.8	-39.8	22.9	0.00e+00	90	34	0	365953024	50	6290
2026-01-07 00:33:12.50	167.96	21.98	-38.9	-39.9	22.9	0.00e+00	92	34	0	368050176	50	6327
2026-01-07 00:33:13.51	168.00	22.12	-38.8	-39.8	23.0	0.00e+00	92	34	0	370147328	50	6284
2026-01-07 00:33:14.51	168.04	22.27	-38.8	-39.8	22.9	0.00e+00	92	34	0	372244480	50	6279
2026-01-07 00:33:15.53	168.08	22.41	-38.8	-39.8	22.9	0.00e+00	77	34	0	373293056	50	6248
2026-01-07 00:33:16.53	168.12	22.56	-38.9	-39.9	22.9	0.00e+00	92	34	0	375390208	50	6329
2026-01-07 00:33:17.54	168.16	22.70	-38.9	-39.8	22.9	0.00e+00	78	34	0	377487360	50	6307
2026-01-07 00:33:18.55	168.20	22.85	-39.0	-39.9	22.8	0.00e+00	92	34	0	379584512	50	6376
2026-01-07 00:33:19.56	168.24	22.99	-38.8	-39.8	23.0	0.00e+00	72	34	0	381681664	50	6275
2026-01-07 00:33:20.57	168.28	23.14	-39.0	-39.9	22.8	0.00e+00	90	34	0	382730240	50	6374
2026-01-07 00:33:21.58	168.32	23.29	-38.9	-39.8	23.0	0.00e+00	92	34	0	384827392	50	6291
2026-01-07 00:33:22.59	168.37	23.44	-39.1	-40.1	22.8	0.00e+00	8	34	0	386924544	50	6466
2026-01-07 00:33:23.60	168.41	23.59	-38.8	-39.8	22.9	0.00e+00	92	34	0	389021696	50	6251
2026-01-07 00:33:24.61	168.45	23.74	-39.0	-39.9	22.8	0.00e+00	12	34	0	391118848	50	6379
2026-01-07 00:33:25.62	168.50	23.90	-38.9	-39.9	22.9	0.00e+00	92	34	0	392167424	50	6319
2026-01-07 00:33:26.63	168.54	24.05	-38.8	-39.7	23.0	0.00e+00	55	34	0	394264576	50	6227
2026-01-07 00:33:27.64	168.58	24.20	-38.9	-39.9	22.9	0.00e+00	92	34	0	396361728	50	6359
2026-01-07 00:33:28.64	168.63	24.36	-38.9	-39.8	23.0	0.00e+00	92	34	0	398458880	50	6294
2026-01-07 00:33:29.66	168.67	24.52	-38.8	-39.8	23.0	0.00e+00	92	34	0	400556032	50	6257
2026-01-07 00:33:30.67	168.72	24.67	-38.8	-39.7	23.0	0.00e+00	92	34	0	401604608	50	6221
2026-01-07 00:33:31.68	168.77	24.83	-38.7	-39.7	23.1	0.00e+00	13	34	0	403701760	50	6188
2026-01-07 00:33:32.68	168.81	24.99	-38.6	-39.6	23.2	0.00e+00	92	34	0	405798912	50	6107
2026-01-07 00:33:33.69	168.86	25.15	-38.5	-39.4	23.3	0.00e+00	0	34	0	407896064	50	6033
2026-01-07 00:33:34.70	168.91	25.31	-38.6	-39.5	23.2	0.00e+00	92	34	0	409993216	50	6056
2026-01-07 00:33:35.71	168.95	25.47	-38.6	-39.5	23.3	0.00e+00	92	34	0	411041792	50	6066
2026-01-07 00:33:36.72	169.00	25.63	-38.5	-39.4	23.3	0.00e+00	92	34	0	413138944	50	5980
2026-01-07 00:33:37.73	169.05	25.80	-38.5	-39.4	23.3	0.00e+00	92	34	0	415236096	50	6016
2026-01-07 00:33:38.74	169.10	25.96	-38.5	-39.4	23.4	0.00e+00	73	34	0	417333248	50	5982
2026-01-07 00:33:39.75	169.15	26.13	-38.4	-39.3	23.4	0.00e+00	92	34	0	419430400	50	5951
2026-01-07 00:33:40.76	169.20	26.29	-38.4	-39.3	23.4	0.00e+00	78	34	0	421527552	50	5958
2026-01-07 00:33:41.77	169.25	26.46	-38.4	-39.3	23.4	0.00e+00	91	34	0	422576128	50	5931
2026-01-07 00:33:42.78	169.30	26.63	-38.6	-39.5	23.3	0.00e+00	79	34	0	424673280	50	6095
2026-01-07 00:33:43.79	169.35	26.80	-38.5	-39.4	23.5	0.00e+00	92	34	0	426770432	50	5983
2026-01-07 00:33:44.79	169.40	26.97	-38.5	-39.5	23.3	0.00e+00	90	34	0	428867584	50	6052
2026-01-07 00:33:45.80	169.46	27.14	-38.5	-39.4	23.4	0.00e+00	91	34	0	430964736	50	5995
2026-01-07 00:33:46.81	169.51	27.31	-38.5	-39.4	23.5	0.00e+00	92	34	0	432013312	50	5987
2026-01-07 00:33:47.82	169.56	27.49	-38.4	-39.3	23.4	0.00e+00	0	34	0	434110464	50	5945
2026-01-07 00:33:48.83	169.62	27.66	-38.6	-39.6	23.3	0.00e+00	90	34	0	436207616	50	6122
2026-01-07 00:33:49.84	169.67	27.84	-38.7	-39.6	23.0	0.00e+00	0	34	0	438304768	50	6129
2026-01-07 00:33:50.85	169.73	28.02	-38.7	-39.6	23.2	0.00e+00	92	34	0	440401920	50	6156
2026-01-07 00:33:51.86	169.78	28.19	-38.8	-39.8	23.0	0.00e+00	92	34	0	441450496	50	6263
2026-01-07 00:33:52.86	169.84	28.37	-39.0	-39.9	22.9	0.00e+00	92	34	0	443547648	50	6376
2026-01-07 00:33:53.87	169.90	28.55	-39.1	-40.1	22.8	0.00e+00	92	34	0	445644800	50	6495
2026-01-07 00:33:54.88	169.96	28.73	-39.2	-40.2	22.8	0.00e+00	7	34	0	447741952	50	6548
2026-01-07 00:33:55.89	170.01	28.92	-39.4	-40.4	22.5	0.00e+00	92	34	0	449839104	50	6740
2026-01-07 00:33:56.90	170.07	29.10	-39.6	-40.6	22.3	0.00e+00	0	34	0	450887680	50	6874
2026-01-07 00:33:57.91	170.13	29.29	-39.7	-40.7	22.2	0.00e+00	92	34	0	452984832	50	6996
2026-01-07 00:33:58.92	170.19	29.47	-39.8	-40.9	22.0	0.00e+00	92	34	0	455081984	52	6340
2026-01-07 00:33:59.93	170.25	29.66	-40.0	-41.1	21.9	0.00e+00	92	34	0	457179136	52	6477
2026-01-07 00:34:00.94	170.32	29.85	-40.0	-41.1	21.9	0.00e+00	92	34	0	459276288	52	6469
2026-01-07 00:34:01.95	170.38	30.04	-40.1	-41.2	21.8	0.00e+00	92	34	0	460324864	52	6567
2026-01-07 00:34:02.96	170.44	30.23	-39.9	-41.0	21.9	0.00e+00	92	34	0	462422016	52	6430
2026-01-07 00:34:03.97	170.50	30.42	-40.1	-41.2	21.8	0.00e+00	13	34	0	464519168	52	6585
2026-01-07 00:34:04.98	170.57	30.62	-40.2	-41.3	21.7	0.00e+00	92	34	0	466616320	52	6656
2026-01-07 00:34:05.99	170.63	30.81	-40.4	-41.5	21.5	0.00e+00	65	34	0	468713472	52	6788
2026-01-07 00:34:07.00	170.70	31.01	-40.3	-41.5	21.5	0.00e+00	92	34	0	469762048	52	6773
2026-01-07 00:34:08.01	170.77	31.21	-40.5	-41.6	21.4	0.00e+00	92	34	0	471859200	52	6871
2026-01-07 00:34:09.02	170.83	31.41	-40.6	-41.8	21.3	0.00e+00	92	34	0	473956352	52	7040
2026-01-07 00:34:10.02	170.90	31.60	-40.8	-42.0	21.1	0.00e+00	92	34	0	476053504	54	6424
2026-01-07 00:34:11.03	170.97	31.81	-40.7	-41.9	21.1	0.00e+00	0	34	0	478150656	54	6372
2026-01-07 00:34:12.04	171.04	32.01	-41.0	-42.2	20.9	0.00e+00	92	34	0	479199232	54	6568
2026-01-07 00:34:13.05	171.11	32.21	-40.9	-42.1	21.0	0.00e+00	13	34	0	481296384	54	6517
2026-01-07 00:34:14.06	171.18	32.42	-40.9	-42.1	21.0	0.00e+00	92	34	0	483393536	54	6485
2026-01-07 00:34:15.07	171.26	32.63	-40.7	-41.9	21.2	0.00e+00	92	34	0	485490688	54	6331
2026-01-07 00:34:16.08	171.33	32.83	-40.3	-41.4	21.5	0.00e+00	92	34	0	487587840	54	6028
2026-01-07 00:34:17.09	171.40	33.04	-39.9	-40.9	22.1	0.00e+00	91	34	0	488636416	54	5691
2026-01-07 00:34:18.10	171.48	33.25	-39.9	-40.9	22.1	0.00e+00	2	34	0	490733568	54	5673
2026-01-07 00:34:19.11	171.55	33.47	-39.7	-40.7	22.3	0.00e+00	92	34	0	492830720	52	6245
2026-01-07 00:34:20.12	171.63	33.68	-39.4	-40.4	22.5	0.00e+00	0	34	0	494927872	52	6026
2026-01-07 00:34:21.13	171.71	33.90	-39.5	-40.5	22.5	0.00e+00	92	34	0	497025024	52	6071
2026-01-07 00:34:22.14	171.79	34.11	-39.2	-40.2	22.8	0.00e+00	91	34	0	498073600	52	5858
2026-01-07 00:34:23.14	171.87	34.33	-38.8	-39.8	23.2	0.00e+00	92	34	0	500170752	52	5569
2026-01-07 00:34:24.15	171.95	34.55	-38.9	-39.9	23.0	0.00e+00	90	34	0	502267904	52	5635
2026-01-07 00:34:25.16	172.03	34.77	-38.8	-39.8	23.1	0.00e+00	92	34	0	504365056	52	5593
2026-01-07 00:34:26.17	172.11	35.00	-38.4	-39.3	23.5	0.00e+00	92	34	0	506462208	50	5950
2026-01-07 00:34:27.18	172.20	35.22	-38.4	-39.2	23.6	0.00e+00	0	34	0	507510784	50	5891
2026-01-07 00:34:28.19	172.28	35.45	-38.2	-39.1	23.7	0.00e+00	92	34	0	509607936	50	5784
2026-01-07 00:34:29.20	172.37	35.67	-38.1	-38.9	23.9	0.00e+00	65	34	0	511705088	50	5671
2026-01-07 00:34:30.21	172.46	35.90	-37.6	-38.5	24.2	0.00e+00	92	34	0	513802240	48	6054
2026-01-07 00:34:31.22	172.55	36.13	-37.7	-38.5	24.2	0.00e+00	92	34	0	515899392	48	6083
2026-01-07 00:34:32.23	172.64	36.37	-37.6	-38.4	24.2	0.00e+00	92	34	0	517996544	48	6011
2026-01-07 00:34:33.24	172.73	36.60	-37.7	-38.6	24.1	0.00e+00	92	34	0	519045120	48	6117
2026-01-07 00:34:34.25	172.82	36.84	-37.9	-38.8	24.0	0.00e+00	7	34	0	521142272	48	6253
2026-01-07 00:34:35.26	172.91	37.07	-37.9	-38.8	23.9	0.00e+00	92	34	0	523239424	48	6265
2026-01-07 00:34:36.27	173.01	37.31	-38.1	-38.9	23.9	0.00e+00	0	34	0	525336576	48	6371
2026-01-07 00:34:37.28	173.10	37.55	-38.2	-39.1	23.6	0.00e+00	92	34	0	527433728	48	6474
2026-01-07 00:34:38.29	173.20	37.79	-38.3	-39.2	23.5	0.00e+00	92	34	0	528482304	48	6607
2026-01-07 00:34:39.30	173.30	38.04	-38.3	-39.2	23.5	0.00e+00	92	34	0	530579456	48	6605
2026-01-07 00:34:40.31	173.40	38.28	-38.5	-39.4	23.4	0.00e+00	92	34	0	532676608	48	6715
2026-01-07 00:34:41.32	173.50	38.53	-38.3	-39.2	23.6	0.00e+00	92	34	0	534773760	48	6556
2026-01-07 00:34:42.32	173.61	38.78	-38.4	-39.3	23.5	0.00e+00	90	34	0	536870912	48	6651
2026-01-07 00:34:43.33	173.71	39.03	-38.4	-39.3	23.5	0.00e+00	0	34	0	537919488	48	6683
2026-01-07 00:34:44.34	173.82	39.28	-38.6	-39.5	23.4	0.00e+00	92	34	0	540016640	48	6781
2026-01-07 00:34:45.35	173.93	39.53	-38.9	-39.8	23.0	0.00e+00	92	34	0	542113792	50	6295
2026-01-07 00:34:46.36	174.04	39.79	-39.0	-39.9	23.0	0.00e+00	90	34	0	544210944	50	6359
2026-01-07 00:34:47.37	174.15	40.05	-39.2	-40.1	22.7	0.00e+00	92	34	0	546308096	50	6535
2026-01-07 00:34:48.38	174.26	40.31	-39.3	-40.3	22.6	0.00e+00	90	34	0	547356672	50	6658
2026-01-07 00:34:49.39	174.38	40.57	-39.1	-40.0	22.8	0.00e+00	91	34	0	549453824	50	6458
2026-01-07 00:34:50.40	174.49	40.83	-39.1	-40.1	22.8	0.00e+00	0	34	0	551550976	50	6491
2026-01-07 00:34:51.41	174.61	41.10	-38.9	-39.9	23.1	0.00e+00	92	34	0	553648128	50	6322
2026-01-07 00:34:52.42	174.73	41.36	-39.0	-40.0	22.9	0.00e+00	83	34	0	555745280	50	6427
2026-01-07 00:34:53.43	174.86	41.63	-39.3	-40.3	22.6	0.00e+00	91	34	0	556793856	50	6617
2026-01-07 00:34:54.44	174.98	41.90	-39.2	-40.2	22.7	0.00e+00	92	34	0	558891008	50	6555
2026-01-07 00:34:55.45	175.11	42.17	-39.3	-40.3	22.7	0.00e+00	90	34	0	560988160	50	6617
2026-01-07 00:34:56.46	175.24	42.45	-39.1	-40.1	22.9	0.00e+00	91	34	0	563085312	50	6479
2026-01-07 00:34:57.46	175.37	42.72	-39.1	-40.1	22.9	0.00e+00	61	34	0	565182464	50	6465
2026-01-07 00:34:58.47	175.50	43.00	-39.1	-40.0	22.9	0.00e+00	92	34	0	566231040	50	6462
2026-01-07 00:34:59.48	175.64	43.28	-39.0	-40.0	22.2	0.00e+00	0	34	0	568328192	50	6394
2026-01-07 00:35:00.49	175.77	43.56	-39.0	-40.0	22.9	0.00e+00	92	34	0	570425344	50	6403
2026-01-07 00:35:01.50	175.91	43.84	-39.0	-40.0	22.8	0.00e+00	92	34	0	572522496	50	6424
2026-01-07 00:35:02.51	176.06	44.13	-39.1	-40.0	22.9	0.00e+00	90	34	0	574619648	50	6453
2026-01-07 00:35:03.52	176.20	44.42	-39.4	-40.4	22.5	0.00e+00	92	34	0	575668224	50	6729
2026-01-07 00:35:04.53	176.35	44.71	-39.8	-40.9	22.1	0.00e+00	92	34	0	577765376	52	6359
2026-01-07 00:35:05.54	176.50	45.00	-39.8	-40.9	22.1	0.00e+00	92	34	0	579862528	52	6363
2026-01-07 00:35:06.55	176.65	45.29	-39.8	-40.8	22.2	0.00e+00	17	34	0	581959680	52	6301
2026-01-07 00:35:07.55	176.81	45.58	-39.5	-40.6	22.5	0.00e+00	92	34	0	584056832	52	6123
2026-01-07 00:35:08.56	176.96	45.88	-39.6	-40.6	22.4	0.00e+00	92	34	0	586153984	52	6131
2026-01-07 00:35:09.57	177.13	46.18	-39.8	-40.9	22.2	0.00e+00	90	34	0	587202560	52	6321
2026-01-07 00:35:10.59	177.29	46.48	-39.8	-40.9	22.2	0.00e+00	92	34	0	589299712	52	6327
2026-01-07 00:35:11.59	177.46	46.78	-39.4	-40.4	22.6	0.00e+00	92	34	0	591396864	52	6008
2026-01-07 00:35:12.60	177.63	47.09	-39.5	-40.5	22.5	0.00e+00	92	34	0	593494016	52	6067
2026-01-07 00:35:13.61	177.80	47.39	-39.7	-40.7	22.2	0.00e+00	0	34	0	595591168	52	6231
2026-01-07 00:35:14.63	177.98	47.70	-39.8	-40.9	22.3	0.00e+00	92	34	0	596639744	52	6329
2026-01-07 00:35:15.64	178.16	48.02	-39.9	-41.0	22.1	0.00e+00	86	34	0	598736896	52	6440
2026-01-07 00:35:16.65	178.35	48.33	-39.7	-40.7	22.3	0.00e+00	92	34	0	600834048	52	6233
2026-01-07 00:35:17.66	178.54	48.64	-39.7	-40.8	22.2	0.00e+00	92	34	0	602931200	52	6276
2026-01-07 00:35:18.67	178.73	48.96	-39.7	-40.8	22.2	0.00e+00	92	34	0	605028352	52	6275
2026-01-07 00:35:19.68	178.93	49.28	-39.3	-40.3	22.7	0.00e+00	92	34	0	606076928	52	5922
2026-01-07 00:35:20.69	179.13	49.60	-38.9	-39.8	23.1	0.00e+00	0	34	0	608174080	52	5607
2026-01-07 00:35:21.70	179.33	49.92	-38.6	-39.5	23.4	0.00e+00	92	34	0	610271232	50	6080
2026-01-07 00:35:22.71	179.54	50.24	-38.0	-38.9	23.9	0.00e+00	0	34	0	612368384	50	5677
2026-01-07 00:35:23.72	179.75	50.57	-38.0	-38.9	23.9	0.00e+00	92	34	0	614465536	50	5641
2026-01-07 00:35:24.72	179.97	50.89	-37.4	-38.2	24.5	0.00e+00	90	34	0	615514112	48	5895
2026-01-07 00:35:25.73	180.19	51.22	-36.6	-37.4	25.1	0.00e+00	92	34	0	617611264	46	6024
2026-01-07 00:35:26.73	180.42	51.55	-36.1	-36.8	25.6	0.00e+00	92	34	0	619708416	46	5616
2026-01-07 00:35:27.74	180.65	51.89	-35.9	-36.7	25.6	0.00e+00	67	34	0	621805568	46	5534
2026-01-07 00:35:28.74	180.88	52.22	-35.8	-36.6	25.8	0.00e+00	90	34	0	623902720	46	5448
2026-01-07 00:35:29.75	181.13	52.55	-35.7	-36.4	26.0	0.00e+00	4	34	0	624951296	44	5996
2026-01-07 00:35:30.76	181.37	52.89	-35.7	-36.5	25.8	0.00e+00	92	34	0	627048448	44	6036
2026-01-07 00:35:31.77	181.63	53.23	-35.4	-36.1	26.2	0.00e+00	92	34	0	629145600	44	5792
2026-01-07 00:35:32.78	181.89	53.58	-35.2	-36.0	26.3	0.00e+00	92	34	0	631242752	44	5699
2026-01-07 00:35:33.79	182.15	53.92	-35.0	-35.7	26.4	0.00e+00	92	34	0	633339904	44	5513
2026-01-07 00:35:34.80	182.43	54.27	-34.9	-35.6	26.5	0.00e+00	92	34	0	634388480	44	5463
2026-01-07 00:35:35.81	182.70	54.61	-35.0	-35.7	26.3	0.00e+00	92	34	0	636485632	44	5536
2026-01-07 00:35:36.82	182.99	54.96	-35.1	-35.8	26.4	0.00e+00	7	34	0	638582784	44	5575
2026-01-07 00:35:37.83	183.28	55.31	-35.2	-35.9	26.3	0.00e+00	92	34	0	640679936	44	5658
2026-01-07 00:35:38.84	183.58	55.67	-35.4	-36.1	26.1	0.00e+00	81	34	0	642777088	44	5814
2026-01-07 00:35:39.84	183.89	56.02	-35.7	-36.4	25.9	0.00e+00	90	34	0	643825664	44	6000
2026-01-07 00:35:40.86	184.21	56.38	-35.8	-36.5	25.8	0.00e+00	92	34	0	645922816	44	6100
2026-01-07 00:35:41.86	184.53	56.73	-36.2	-36.9	25.4	0.00e+00	91	34	0	648019968	44	6380
2026-01-07 00:35:42.88	184.86	57.09	-36.5	-37.3	25.2	0.00e+00	92	34	0	650117120	44	6623
2026-01-07 00:35:43.88	185.20	57.45	-36.7	-37.5	25.1	0.00e+00	76	34	0	652214272	44	6835
2026-01-07 00:35:44.89	185.55	57.81	-36.6	-37.4	25.2	0.00e+00	92	34	0	654311424	46	5976
2026-01-07 00:35:45.90	185.91	58.17	-36.4	-37.2	25.4	0.00e+00	0	34	0	655360000	46	5839
2026-01-07 00:35:46.91	186.27	58.53	-36.1	-36.8	25.6	0.00e+00	92	34	0	657457152	46	5621
2026-01-07 00:35:47.92	186.65	58.90	-35.6	-36.3	26.0	0.00e+00	92	34	0	659554304	44	5950
2026-01-07 00:35:48.93	187.04	59.26	-35.6	-36.3	26.0	0.00e+00	91	34	0	661651456	44	5913
2026-01-07 00:35:49.94	187.44	59.63	-35.5	-36.3	26.0	0.00e+00	92	34	0	663748608	44	5911
2026-01-07 00:35:50.95	187.85	60.00	-35.3	-36.0	26.1	0.00e+00	12	34	0	664797184	44	5748
2026-01-07 00:35:51.96	188.28	60.36	-35.3	-36.0	26.2	0.00e+00	91	34	0	666894336	44	5726
2026-01-07 00:35:52.97	188.71	60.73	-35.2	-35.9	26.4	0.00e+00	82	34	0	668991488	44	5660
2026-01-07 00:35:53.98	189.16	61.10	-34.8	-35.5	26.6	0.00e+00	92	34	0	671088640	44	5428
2026-01-07 00:35:54.99	189.62	61.47	-34.5	-35.2	26.9	0.00e+00	90	34	0	673185792	42	5848
2026-01-07 00:35:56.00	190.10	61.84	-34.3	-35.0	27.0	0.00e+00	42	34	0	674234368	42	5725
2026-01-07 00:35:57.00	190.58	62.21	-34.4	-35.1	26.9	0.00e+00	92	34	0	676331520	42	5784
2026-01-07 00:35:58.01	191.09	62.58	-34.3	-35.0	26.9	0.00e+00	0	34	0	678428672	42	5761
2026-01-07 00:35:59.02	191.61	62.95	-34.3	-35.0	26.9	0.00e+00	92	34	0	680525824	42	5728
2026-01-07 00:36:00.03	192.14	63.32	-34.4	-35.0	27.0	0.00e+00	2	34	0	682622976	42	5761
2026-01-07 00:36:01.04	192.70	63.69	-34.8	-35.5	26.6	0.00e+00	92	34	0	683671552	42	6046
2026-01-07 00:36:02.05	193.27	64.06	-35.0	-35.7	26.4	0.00e+00	0	34	0	685768704	42	6227
2026-01-07 00:36:03.06	193.86	64.43	-35.1	-35.8	26.4	0.00e+00	90	34	0	687865856	42	6296
2026-01-07 00:36:04.07	194.47	64.80	-35.4	-36.1	26.0	0.00e+00	92	34	0	689963008	42	6525
2026-01-07 00:36:05.08	195.10	65.17	-35.8	-36.6	25.8	0.00e+00	92	34	0	692060160	44	6122
2026-01-07 00:36:06.09	195.75	65.54	-36.2	-37.0	25.4	0.00e+00	92	34	0	693108736	44	6408
2026-01-07 00:36:07.10	196.42	65.90	-36.6	-37.4	25.0	0.00e+00	0	34	0	695205888	44	6705
2026-01-07 00:36:08.11	197.11	66.27	-37.8	-38.7	24.0	0.00e+00	92	34	0	697303040	46	6930
2026-01-07 00:36:09.12	197.83	66.63	-38.9	-39.9	22.9	0.00e+00	0	34	0	699400192	50	6319
2026-01-07 00:36:10.13	198.57	66.99	-39.6	-40.6	22.4	0.00e+00	92	34	0	701497344	50	6902
2026-01-07 00:36:11.14	199.34	67.35	-39.2	-40.2	22.7	0.00e+00	90	34	0	702545920	50	6541
2026-01-07 00:36:12.15	200.14	67.71	-39.1	-40.1	22.8	0.00e+00	7	34	0	704643072	50	6475
2026-01-07 00:36:13.16	200.96	68.07	-39.1	-40.1	22.8	0.00e+00	92	34	0	706740224	50	6488
2026-01-07 00:36:14.17	201.81	68.42	-39.4	-40.4	22.6	0.00e+00	10	34	0	708837376	50	6746
2026-01-07 00:36:15.18	202.69	68.77	-39.6	-40.6	22.4	0.00e+00	92	34	0	710934528	50	6858
2026-01-07 00:36:16.18	203.60	69.11	-39.4	-40.4	22.6	0.00e+00	7	34	0	711983104	50	6716
2026-01-07 00:36:17.20	204.55	69.45	-38.9	-39.8	23.1	0.00e+00	92	34	0	714080256	50	6272
2026-01-07 00:36:18.20	205.52	69.79	-38.6	-39.5	23.4	0.00e+00	58	34	0	716177408	50	6050
2026-01-07 00:36:19.21	206.54	70.12	-38.7	-39.6	22.9	0.00e+00	70	34	0	718274560	50	6169
2026-01-07 00:36:20.22	207.59	70.45	-38.6	-39.5	23.4	0.00e+00	90	34	0	720371712	50	6049
2026-01-07 00:36:21.23	208.68	70.77	-38.5	-39.4	23.4	0.00e+00	92	34	0	722468864	50	6014
2026-01-07 00:36:22.24	209.81	71.09	-38.5	-39.4	23.4	0.00e+00	92	34	0	723517440	50	6013
2026-01-07 00:36:23.25	210.98	71.40	-39.2	-40.2	22.7	0.00e+00	0	34	0	725614592	50	6592
2026-01-07 00:36:24.26	212.19	71.70	-40.2	-41.3	21.6	0.00e+00	90	34	0	727711744	52	6649
2026-01-07 00:36:25.27	213.45	72.00	-40.4	-41.6	21.5	0.00e+00	12	35	0	729808896	52	6898
2026-01-07 00:36:26.28	214.74	72.29	-40.0	-41.1	21.9	0.00e+00	90	34	0	731906048	52	6529
2026-01-07 00:36:27.29	216.08	72.57	-39.7	-40.8	22.2	0.00e+00	92	34	0	732954624	52	6281
2026-01-07 00:36:28.30	217.47	72.84	-40.1	-41.3	21.8	0.00e+00	74	34	0	735051776	52	6653
2026-01-07 00:36:29.31	218.91	73.10	-40.0	-41.2	21.9	0.00e+00	93	34	0	737148928	52	6569
2026-01-07 00:36:30.32	220.39	73.36	-39.4	-40.5	22.5	0.00e+00	0	34	0	739246080	52	6057
2026-01-07 00:36:31.33	221.91	73.60	-38.9	-39.9	23.0	0.00e+00	92	34	0	741343232	52	5640
2026-01-07 00:36:32.34	223.49	73.83	-38.7	-39.6	23.3	0.00e+00	55	34	0	742391808	50	6166
2026-01-07 00:36:33.35	225.11	74.05	-38.8	-39.7	22.9	0.00e+00	92	34	0	744488960	50	6231
2026-01-07 00:36:34.35	226.76	74.26	-39.3	-40.3	22.7	0.00e+00	90	34	0	746586112	50	6644
2026-01-07 00:36:35.36	228.47	74.46	-39.0	-40.0	22.9	0.00e+00	0	34	0	748683264	50	6428
2026-01-07 00:36:36.37	230.22	74.64	-38.7	-39.7	23.2	0.00e+00	92	34	0	750780416	50	6174
2026-01-07 00:36:37.38	232.02	74.81	-38.9	-39.9	23.0	0.00e+00	5	34	0	751828992	50	6340
2026-01-07 00:36:38.39	233.86	74.96	-38.9	-39.9	22.9	0.00e+00	90	34	0	753926144	50	6360
2026-01-07 00:36:39.40	235.73	75.10	-39.1	-40.1	22.8	0.00e+00	11	34	0	756023296	50	6478
2026-01-07 00:36:40.41	237.64	75.23	-39.1	-40.1	22.7	0.00e+00	90	34	0	758120448	50	6524
2026-01-07 00:36:41.42	239.58	75.33	-39.2	-40.2	22.8	0.00e+00	92	34	0	760217600	50	6610
2026-01-07 00:36:42.43	241.55	75.43	-39.2	-40.2	22.8	0.00e+00	0	34	0	761266176	50	6564
2026-01-07 00:36:43.44	243.54	75.50	-39.3	-40.3	22.6	0.00e+00	92	34	0	763363328	50	6648
2026-01-07 00:36:44.45	245.55	75.56	-39.5	-40.5	22.4	0.00e+00	12	34	0	765460480	50	6801
2026-01-07 00:36:45.46	247.58	75.60	-39.6	-40.6	22.3	0.00e+00	92	34	0	767557632	50	6909
2026-01-07 00:36:46.47	249.61	75.62	-39.2	-40.2	22.7	0.00e+00	12	34	0	769654784	50	6604
2026-01-07 00:36:47.48	251.65	75.63	-38.6	-39.5	23.2	0.00e+00	92	34	0	770703360	50	6097
2026-01-07 00:36:48.49	253.69	75.62	-39.0	-40.0	23.0	0.00e+00	76	34	0	772800512	50	6411
2026-01-07 00:36:49.50	255.72	75.59	-39.2	-40.2	22.7	0.00e+00	90	34	0	774897664	50	6611
2026-01-07 00:36:50.51	257.74	75.54	-39.8	-40.8	22.1	0.00e+00	90	34	0	776994816	50	7069
2026-01-07 00:36:51.52	259.74	75.48	-40.5	-41.6	21.4	0.00e+00	0	34	0	779091968	52	6917
2026-01-07 00:36:52.52	261.71	75.40	-41.4	-42.8	20.3	0.00e+00	92	34	0	780140544	54	7013
2026-01-07 00:36:53.53	263.67	75.30	-40.3	-41.4	21.6	0.00e+00	75	34	0	782237696	54	6005
2026-01-07 00:36:54.54	265.60	75.19	-39.9	-40.9	21.9	0.00e+00	96	34	0	784334848	54	5674
2026-01-07 00:36:55.55	267.50	75.06	-41.2	-42.5	20.4	0.00e+00	20	34	0	786432000	54	6779
2026-01-07 00:36:56.56	269.36	74.92	-43.2	-45.0	18.3	0.00e+00	92	34	0	788529152	58	7175
2026-01-07 00:36:57.57	271.19	74.76	-43.1	-44.8	18.4	0.00e+00	90	34	0	789577728	58	7078
2026-01-07 00:36:58.58	272.97	74.59	-41.9	-43.4	19.7	0.00e+00	16	34	0	791674880	58	5994
2026-01-07 00:36:59.59	274.71	74.40	-41.3	-42.6	20.6	0.00e+00	92	35	0	793772032	56	6107
2026-01-07 00:37:00.60	276.41	74.20	-40.6	-41.8	21.1	0.00e+00	8	34	0	795869184	54	6299
2026-01-07 00:37:01.61	278.06	73.99	-41.6	-43.0	20.3	0.00e+00	90	34	0	797966336	54	7199
2026-01-07 00:37:02.62	279.67	73.77	-41.4	-42.7	20.6	0.00e+00	6	34	0	799014912	54	6992
2026-01-07 00:37:03.63	281.23	73.53	-40.6	-41.7	21.3	0.00e+00	92	34	0	801112064	54	6243
2026-01-07 00:37:04.64	282.74	73.28	-40.1	-41.2	21.9	0.00e+00	91	34	0	803209216	54	5841
2026-01-07 00:37:05.64	284.19	73.03	-41.0	-42.3	20.7	0.00e+00	31	34	0	805306368	54	6640
2026-01-07 00:37:06.65	285.61	72.76	-41.1	-42.4	20.7	0.00e+00	91	35	0	807403520	54	6706
2026-01-07 00:37:07.66	286.98	72.49	-40.2	-41.3	21.6	0.00e+00	6	34	0	808452096	54	5931
2026-01-07 00:37:08.67	288.31	72.21	-39.3	-40.3	22.6	0.00e+00	92	35	0	810549248	52	5905
2026-01-07 00:37:09.67	289.58	71.92	-39.5	-40.6	22.4	0.00e+00	0	34	0	812646400	52	6120
2026-01-07 00:37:10.68	290.82	71.62	-39.9	-40.9	22.2	0.00e+00	92	35	0	814743552	52	6389
2026-01-07 00:37:11.70	292.03	71.31	-39.0	-40.0	23.0	0.00e+00	0	35	0	816840704	52	5713
2026-01-07 00:37:12.71	293.19	71.00	-38.1	-39.0	23.8	0.00e+00	91	35	0	818937856	50	5740
2026-01-07 00:37:13.71	294.29	70.69	-39.1	-40.1	22.6	0.00e+00	92	35	0	819986432	50	6499
2026-01-07 00:37:14.72	295.37	70.36	-39.9	-41.1	22.0	0.00e+00	82	35	0	822083584	52	6476
2026-01-07 00:37:15.73	296.41	70.03	-39.4	-40.5	22.6	0.00e+00	92	34	0	824180736	52	6057
2026-01-07 00:37:16.74	297.42	69.70	-38.6	-39.5	23.4	0.00e+00	76	34	0	826277888	50	6056
2026-01-07 00:37:17.75	298.39	69.36	-38.5	-39.4	23.3	0.00e+00	90	34	0	828375040	50	6022
2026-01-07 00:37:18.76	299.33	69.02	-38.6	-39.5	23.3	0.00e+00	72	35	0	829423616	50	6058
2026-01-07 00:37:19.77	300.23	68.68	-38.5	-39.4	23.3	0.00e+00	92	35	0	831520768	50	6009
2026-01-07 00:37:20.78	301.10	68.33	-38.9	-39.9	22.9	0.00e+00	92	34	0	833617920	50	6331
2026-01-07 00:37:21.79	301.95	67.97	-38.7	-39.6	23.2	0.00e+00	10	34	0	835715072	50	6159
2026-01-07 00:37:22.80	302.76	67.62	-39.2	-40.2	22.5	0.00e+00	92	35	0	837812224	50	6587
2026-01-07 00:37:23.80	303.54	67.27	-40.2	-41.3	21.7	0.00e+00	0	34	0	838860800	52	6665
2026-01-07 00:37:24.81	304.30	66.91	-39.3	-40.3	22.6	0.00e+00	92	34	0	840957952	52	5920
2026-01-07 00:37:25.82	305.03	66.55	-38.0	-38.9	23.6	0.00e+00	0	34	0	843055104	50	5659
2026-01-07 00:37:26.84	305.75	66.18	-37.9	-38.8	23.8	0.00e+00	92	34	0	845152256	50	5571
2026-01-07 00:37:27.84	306.43	65.82	-38.6	-39.6	23.2	0.00e+00	92	34	0	847249408	50	6106
2026-01-07 00:37:28.85	307.10	65.45	-38.1	-39.0	23.8	0.00e+00	46	35	0	848297984	50	5720
2026-01-07 00:37:29.86	307.74	65.09	-36.7	-37.5	25.1	0.00e+00	92	34	0	850395136	46	6047
2026-01-07 00:37:30.87	308.36	64.72	-35.5	-36.2	25.9	0.00e+00	0	34	0	852492288	44	5870
2026-01-07 00:37:31.88	308.97	64.35	-34.8	-35.5	26.6	0.00e+00	92	34	0	854589440	44	5392
2026-01-07 00:37:32.89	309.55	63.98	-34.6	-35.2	26.8	0.00e+00	81	34	0	856686592	42	5896
2026-01-07 00:37:33.90	310.12	63.61	-34.5	-35.2	26.9	0.00e+00	92	34	0	857735168	42	5851
2026-01-07 00:37:34.91	310.66	63.24	-34.1	-34.8	27.1	0.00e+00	0	34	0	859832320	42	5608
2026-01-07 00:37:35.92	311.20	62.87	-33.3	-34.0	27.7	0.00e+00	92	34	0	861929472	40	5712
2026-01-07 00:37:36.92	311.71	62.50	-33.1	-33.7	27.7	0.00e+00	92	34	0	864026624	40	5535
2026-01-07 00:37:37.93	312.21	62.14	-34.2	-34.9	27.1	0.00e+00	0	35	0	866123776	40	6328
2026-01-07 00:37:38.94	312.69	61.77	-35.1	-35.8	26.3	0.00e+00	90	35	0	867172352	42	6290
2026-01-07 00:37:39.95	313.16	61.40	-35.0	-35.7	26.5	0.00e+00	81	34	0	869269504	42	6237
2026-01-07 00:37:40.96	313.62	61.03	-34.8	-35.5	26.6	0.00e+00	90	34	0	871366656	42	6083
2026-01-07 00:37:41.97	314.07	60.66	-34.9	-35.6	26.6	0.00e+00	80	34	0	873463808	42	6123
2026-01-07 00:37:42.98	314.50	60.29	-35.6	-36.4	26.1	0.00e+00	92	34	0	875560960	42	6716
2026-01-07 00:37:43.98	314.91	59.93	-37.3	-38.2	24.2	0.00e+00	92	34	0	876609536	46	6567
2026-01-07 00:37:44.99	315.32	59.56	-39.7	-40.8	22.3	0.00e+00	2	34	0	878706688	50	7054
2026-01-07 00:37:46.00	315.72	59.20	-40.4	-41.7	21.6	0.00e+00	92	34	0	880803840	52	6929
2026-01-07 00:37:47.01	316.10	58.83	-38.8	-39.8	23.2	0.00e+00	0	34	0	882900992	52	5578
2026-01-07 00:37:48.02	316.48	58.47	-38.0	-38.9	24.1	0.00e+00	92	34	0	884998144	50	5632
2026-01-07 00:37:49.03	316.85	58.11	-37.9	-38.7	23.7	0.00e+00	2	34	0	887095296	48	6225
2026-01-07 00:37:50.04	317.20	57.75	-38.9	-39.9	22.8	0.00e+00	92	34	0	888143872	48	7114
2026-01-07 00:37:51.05	317.55	57.39	-39.6	-40.7	22.2	0.00e+00	34	34	0	890241024	50	6977
2026-01-07 00:37:52.06	317.89	57.03	-39.2	-40.2	22.7	0.00e+00	92	34	0	892338176	50	6588
2026-01-07 00:37:53.07	318.22	56.67	-37.9	-38.8	24.0	0.00e+00	92	34	0	894435328	50	5621
2026-01-07 00:37:54.08	318.54	56.32	-36.7	-37.5	25.1	0.00e+00	0	34	0	895483904	48	5432
2026-01-07 00:37:55.09	318.85	55.96	-36.0	-36.8	25.5	0.00e+00	92	34	0	897581056	46	5590
2026-01-07 00:37:56.10	319.16	55.61	-36.2	-37.0	25.3	0.00e+00	81	34	0	899678208	46	5717
2026-01-07 00:37:57.11	319.45	55.26	-36.4	-37.2	25.3	0.00e+00	92	34	0	901775360	46	5842
2026-01-07 00:37:58.12	319.74	54.91	-36.3	-37.1	25.1	0.00e+00	0	34	0	903872512	46	5823
2026-01-07 00:37:59.13	320.03	54.56	-36.1	-36.8	25.6	0.00e+00	92	34	0	905969664	46	5629
2026-01-07 00:38:00.14	320.31	54.22	-34.2	-34.9	27.1	0.00e+00	92	34	0	907018240	42	5660
2026-01-07 00:38:01.14	320.57	53.88	-33.7	-34.3	27.5	0.00e+00	0	35	0	909115392	40	5958
2026-01-07 00:38:02.15	320.84	53.54	-34.1	-34.8	27.1	0.00e+00	92	35	0	911212544	40	6284
2026-01-07 00:38:03.16	321.10	53.19	-35.1	-35.8	26.4	0.00e+00	0	34	0	913309696	42	6268
2026-01-07 00:38:04.17	321.35	52.86	-35.9	-36.7	25.6	0.00e+00	92	34	0	915406848	44	6198
2026-01-07 00:38:05.18	321.59	52.52	-36.1	-36.9	25.5	0.00e+00	2	34	0	916455424	44	6360
2026-01-07 00:38:06.19	321.84	52.18	-35.9	-36.7	25.6	0.00e+00	92	34	0	918552576	44	6207
2026-01-07 00:38:07.20	322.07	51.85	-36.0	-36.8	25.6	0.00e+00	92	34	0	920649728	44	6262
2026-01-07 00:38:08.21	322.30	51.52	-35.9	-36.7	25.7	0.00e+00	0	34	0	922746880	44	6194
2026-01-07 00:38:09.22	322.53	51.19	-36.3	-37.0	25.4	0.00e+00	92	34	0	924844032	44	6451
2026-01-07 00:38:10.23	322.75	50.86	-37.2	-38.0	24.4	0.00e+00	0	34	0	925892608	46	6424
2026-01-07 00:38:11.24	322.97	50.53	-38.9	-39.9	22.7	0.00e+00	91	34	0	927989760	48	7123
2026-01-07 00:38:12.25	323.18	50.21	-41.1	-42.5	20.4	0.00e+00	0	34	0	930086912	54	6831
2026-01-07 00:38:13.26	323.39	49.89	-42.7	-44.5	18.7	0.00e+00	92	34	0	932184064	56	7657
2026-01-07 00:38:14.27	323.59	49.57	-42.0	-43.6	19.8	0.00e+00	0	34	0	934281216	56	6887
2026-01-07 00:38:15.27	323.79	49.25	-40.9	-42.2	21.0	0.00e+00	0	34	0	935329792	56	5844
2026-01-07 00:38:16.28	323.98	48.93	-40.6	-41.8	21.4	0.00e+00	92	35	0	937426944	54	6311
2026-01-07 00:38:17.29	324.17	48.62	-39.7	-40.8	22.2	0.00e+00	0	34	0	939524096	52	6275
2026-01-07 00:38:18.30	324.36	48.31	-39.9	-40.9	22.1	0.00e+00	92	34	0	941621248	52	6347
2026-01-07 00:38:19.31	324.54	48.00	-40.2	-41.3	21.8	0.00e+00	0	34	0	943718400	52	6624
2026-01-07 00:38:20.32	324.72	47.69	-40.7	-41.9	21.2	0.00e+00	92	34	0	944766976	52	7127
2026-01-07 00:38:21.33	324.90	47.38	-41.4	-42.8	20.3	0.00e+00	0	34	0	946864128	54	7040
2026-01-07 00:38:22.34	325.07	47.07	-41.9	-43.3	19.9	0.00e+00	3	34	0	948961280	56	6683
2026-01-07 00:38:23.35	325.24	46.77	-40.9	-42.2	21.1	0.00e+00	91	35	0	951058432	56	5860
2026-01-07 00:38:24.36	325.41	46.47	-40.2	-41.4	21.2	0.00e+00	79	34	0	953155584	54	5973
2026-01-07 00:38:25.37	325.58	46.17	-38.9	-39.8	23.1	0.00e+00	92	34	0	954204160	52	5628
2026-01-07 00:38:26.38	325.74	45.87	-38.4	-39.3	23.6	0.00e+00	0	34	0	956301312	50	5900
2026-01-07 00:38:27.39	325.89	45.58	-38.1	-38.9	23.8	0.00e+00	92	34	0	958398464	50	5695
2026-01-07 00:38:28.40	326.05	45.28	-38.3	-39.1	23.6	0.00e+00	5	34	0	960495616	50	5827
2026-01-07 00:38:29.41	326.20	44.99	-38.8	-39.8	23.1	0.00e+00	91	34	0	962592768	50	6272
2026-01-07 00:38:30.42	326.35	44.70	-39.3	-40.3	22.5	0.00e+00	92	34	0	963641344	50	6659
2026-01-07 00:38:31.43	326.50	44.42	-39.0	-40.0	22.9	0.00e+00	3	34	0	965738496	50	6421
2026-01-07 00:38:32.44	326.64	44.13	-38.9	-39.9	23.1	0.00e+00	92	34	0	967835648	50	6338
2026-01-07 00:38:33.44	326.78	43.85	-38.5	-39.5	23.4	0.00e+00	0	34	0	969932800	50	6047
2026-01-07 00:38:34.45	326.92	43.57	-38.2	-39.1	23.7	0.00e+00	93	34	0	972029952	50	5792
2026-01-07 00:38:35.46	327.06	43.29	-38.2	-39.1	23.7	0.00e+00	5	34	0	973078528	50	5803
2026-01-07 00:38:36.47	327.20	43.01	-37.1	-37.9	24.7	0.00e+00	91	34	0	975175680	48	5675
2026-01-07 00:38:37.48	327.33	42.73	-37.1	-37.9	24.9	0.00e+00	0	34	0	977272832	48	5662
2026-01-07 00:38:38.48	327.46	42.46	-36.3	-37.0	25.5	0.00e+00	0	34	0	979369984	46	5737
2026-01-07 00:38:39.49	327.59	42.19	-36.6	-37.4	25.1	0.00e+00	92	34	0	981467136	46	6015
2026-01-07 00:38:40.50	327.71	41.92	-37.4	-38.3	24.3	0.00e+00	0	34	0	983564288	46	6656
2026-01-07 00:38:41.51	327.84	41.65	-39.1	-40.1	22.7	0.00e+00	92	34	0	984612864	50	6512
2026-01-07 00:38:42.52	327.96	41.38	-40.6	-41.9	21.2	0.00e+00	78	34	0	986710016	52	7134
2026-01-07 00:38:43.53	328.08	41.12	-40.8	-42.1	21.0	0.00e+00	92	34	0	988807168	54	6479
2026-01-07 00:38:44.54	328.20	40.85	-40.3	-41.5	21.6	0.00e+00	73	34	0	990904320	54	6095
2026-01-07 00:38:45.54	328.31	40.59	-39.4	-40.5	22.5	0.00e+00	8	34	0	993001472	52	6044
2026-01-07 00:38:46.55	328.43	40.33	-39.2	-40.2	22.8	0.00e+00	92	34	0	994050048	52	5841
2026-01-07 00:38:47.56	328.54	40.08	-38.4	-39.3	23.7	0.00e+00	9	34	0	996147200	50	5960
2026-01-07 00:38:48.57	328.65	39.82	-37.2	-38.0	24.8	0.00e+00	92	34	0	998244352	48	5722
2026-01-07 00:38:49.58	328.76	39.57	-36.8	-37.5	25.1	0.00e+00	0	34	0	1000341504	46	6088
2026-01-07 00:38:50.59	328.87	39.31	-37.3	-38.1	24.6	0.00e+00	92	34	0	1002438656	46	6476
2026-01-07 00:38:51.60	328.98	39.06	-38.1	-39.0	23.8	0.00e+00	11	34	0	1003487232	48	6391
2026-01-07 00:38:52.61	329.08	38.81	-39.2	-40.2	22.7	0.00e+00	92	34	0	1005584384	50	6559
2026-01-07 00:38:53.61	329.19	38.57	-39.7	-40.7	22.2	0.00e+00	92	34	0	1007681536	52	6220
2026-01-07 00:38:54.62	329.29	38.32	-40.2	-41.4	21.7	0.00e+00	8	34	0	1009778688	52	6718
2026-01-07 00:38:55.63	329.39	38.08	-40.1	-41.3	21.8	0.00e+00	92	34	0	1011875840	52	6671
2026-01-07 00:38:56.64	329.49	37.83	-39.4	-40.5	22.5	0.00e+00	6	34	0	1012924416	52	6092
2026-01-07 00:38:57.65	329.59	37.59	-39.3	-40.3	22.6	0.00e+00	92	34	0	1015021568	52	5939
2026-01-07 00:38:58.66	329.68	37.35	-38.4	-39.3	23.6	0.00e+00	6	34	0	1017118720	50	5921
2026-01-07 00:38:59.66	329.78	37.12	-37.7	-38.5	24.2	0.00e+00	12	34	0	1019215872	48	6083
2026-01-07 00:39:00.67	329.87	36.88	-37.4	-38.2	24.4	0.00e+00	0	34	0	1021313024	48	5878
2026-01-07 00:39:01.68	329.96	36.65	-37.1	-37.9	24.7	0.00e+00	0	34	0	1022361600	48	5686
2026-01-07 00:39:02.69	330.05	36.42	-37.0	-37.8	24.8	0.00e+00	91	34	0	1024458752	48	5607
2026-01-07 00:39:03.70	330.14	36.18	-37.2	-38.0	24.5	0.00e+00	78	34	0	1026555904	48	5722
2026-01-07 00:39:04.71	330.23	35.95	-37.5	-38.3	24.3	0.00e+00	91	34	0	1028653056	48	5952
2026-01-07 00:39:05.72	330.32	35.73	-37.7	-38.6	24.1	0.00e+00	0	34	0	1030750208	48	6131
2026-01-07 00:39:06.73	330.41	35.50	-38.0	-38.8	23.8	0.00e+00	91	35	0	1031798784	48	6315
2026-01-07 00:39:07.74	330.49	35.28	-38.5	-39.4	23.4	0.00e+00	63	34	0	1033895936	48	6730
2026-01-07 00:39:08.75	330.58	35.05	-38.6	-39.6	23.2	0.00e+00	5	34	0	1035993088	48	6884
2026-01-07 00:39:09.76	330.66	34.83	-38.9	-39.9	22.9	0.00e+00	91	34	0	1038090240	50	6368
2026-01-07 00:39:10.77	330.74	34.61	-39.2	-40.2	22.8	0.00e+00	4	34	0	1040187392	50	6578
2026-01-07 00:39:11.78	330.82	34.39	-39.5	-40.6	22.4	0.00e+00	92	34	0	1041235968	50	6871
2026-01-07 00:39:12.79	330.90	34.17	-39.8	-40.9	22.1	0.00e+00	4	34	0	1043333120	50	7101
2026-01-07 00:39:13.80	330.98	33.96	-39.9	-41.0	22.0	0.00e+00	92	34	0	1045430272	52	6427
2026-01-07 00:39:14.81	331.06	33.74	-39.9	-41.0	22.0	0.00e+00	5	34	0	1047527424	52	6451
2026-01-07 00:39:15.82	331.14	33.53	-39.8	-40.8	22.1	0.00e+00	3	34	0	1049624576	52	6304
2026-01-07 00:39:16.83	331.21	33.32	-39.5	-40.5	22.4	0.00e+00	90	34	0	1050673152	52	6082
2026-01-07 00:39:17.83	331.29	33.11	-39.1	-40.1	22.8	0.00e+00	0	34	0	1052770304	52	5778
2026-01-07 00:39:18.84	331.36	32.90	-39.1	-40.1	22.9	0.00e+00	92	34	0	1054867456	52	5788
2026-01-07 00:39:19.85	331.43	32.69	-38.9	-39.9	23.0	0.00e+00	2	34	0	1056964608	52	5635
2026-01-07 00:39:20.86	331.51	32.49	-38.7	-39.7	23.2	0.00e+00	92	34	0	1059061760	50	6184
2026-01-07 00:39:21.87	331.58	32.28	-38.8	-39.8	23.0	0.00e+00	2	34	0	1060110336	50	6247
2026-01-07 00:39:22.88	331.65	32.08	-39.0	-40.0	22.8	0.00e+00	90	34	0	1062207488	50	6403
2026-01-07 00:39:23.90	331.72	31.88	-39.2	-40.2	22.7	0.00e+00	0	34	0	1064304640	50	6594
2026-01-07 00:39:24.90	331.79	31.68	-39.4	-40.4	22.5	0.00e+00	0	34	0	1066401792	50	6740
2026-01-07 00:39:25.91	331.86	31.48	-39.7	-40.7	22.3	0.00e+00	92	34	0	1068498944	50	6975
2026-01-07 00:39:26.92	331.92	31.28	-39.8	-40.8	22.2	0.00e+00	0	34	0	1069547520	52	6317
2026-01-07 00:39:27.93	331.99	31.08	-39.9	-41.0	22.0	0.00e+00	90	34	0	1071644672	52	6432
2026-01-07 00:39:28.94	332.06	30.89	-39.9	-41.0	22.0	0.00e+00	5	34	0	1073741824	52	6454
2026-01-07 00:39:29.95	332.12	30.69	-40.1	-41.2	21.9	0.00e+00	76	34	0	1075838976	52	6545
2026-01-07 00:39:30.96	332.19	30.50	-39.9	-41.0	22.0	0.00e+00	0	35	0	1077936128	52	6405
2026-01-07 00:39:31.97	332.25	30.31	-39.9	-41.0	22.0	0.00e+00	76	35	0	1080033280	52	6399
2026-01-07 00:39:32.98	332.31	30.12	-40.0	-41.1	21.9	0.00e+00	92	34	0	1081081856	52	6472
2026-01-07 00:39:33.99	332.38	29.93	-39.8	-40.9	22.1	0.00e+00	5	35	0	1083179008	52	6374
2026-01-07 00:39:35.00	332.44	29.74	-39.8	-40.9	22.1	0.00e+00	92	35	0	1085276160	52	6321
2026-01-07 00:39:36.01	332.50	29.55	-39.8	-40.8	22.2	0.00e+00	0	35	0	1087373312	52	6312
2026-01-07 00:39:37.02	332.56	29.37	-39.5	-40.6	22.5	0.00e+00	0	34	0	1089470464	52	6118
2026-01-07 00:39:38.03	332.62	29.18	-39.1	-40.1	22.9	0.00e+00	5	35	0	1090519040	52	5771
2026-01-07 00:39:39.04	332.68	29.00	-39.0	-40.0	22.9	0.00e+00	0	35	0	1092616192	52	5742
2026-01-07 00:39:40.05	332.74	28.82	-38.6	-39.6	23.2	0.00e+00	92	35	0	1094713344	50	6115
2026-01-07 00:39:41.06	332.80	28.64	-38.2	-39.1	23.7	0.00e+00	0	34	0	1096810496	50	5819
2026-01-07 00:39:42.06	332.85	28.46	-38.4	-39.3	23.4	0.00e+00	92	34	0	1098907648	50	5942
2026-01-07 00:39:43.07	332.91	28.28	-37.7	-38.6	24.2	0.00e+00	2	34	0	1099956224	48	6109
2026-01-07 00:39:44.08	332.97	28.10	-37.6	-38.4	24.2	0.00e+00	40	34	0	1102053376	48	6013
2026-01-07 00:39:45.09	333.02	27.93	-37.5	-38.3	24.2	0.00e+00	77	34	0	1104150528	48	5962
2026-01-07 00:39:46.10	333.08	27.75	-37.1	-37.9	24.5	0.00e+00	0	34	0	1106247680	48	5679
2026-01-07 00:39:47.10	333.13	27.58	-37.0	-37.8	24.7	0.00e+00	0	34	0	1108344832	48	5576
2026-01-07 00:39:48.11	333.18	27.41	-37.0	-37.8	24.8	0.00e+00	76	34	0	1109393408	48	5575
2026-01-07 00:39:49.12	333.24	27.23	-37.1	-37.9	24.6	0.00e+00	92	34	0	1111490560	48	5641
2026-01-07 00:39:50.13	333.29	27.06	-37.1	-37.9	24.7	0.00e+00	0	34	0	1113587712	48	5648
2026-01-07 00:39:51.14	333.34	26.89	-37.1	-38.0	24.6	0.00e+00	85	34	0	1115684864	48	5698
2026-01-07 00:39:52.15	333.40	26.73	-37.3	-38.1	24.5	0.00e+00	77	34	0	1117782016	48	5816
2026-01-07 00:39:53.15	333.45	26.56	-37.4	-38.3	24.3	0.00e+00	77	34	0	1118830592	48	5898
2026-01-07 00:39:54.16	333.50	26.39	-37.6	-38.5	24.1	0.00e+00	0	34	0	1120927744	48	6077
2026-01-07 00:39:55.17	333.55	26.23	-37.5	-38.4	24.3	0.00e+00	0	34	0	1123024896	48	5992
2026-01-07 00:39:56.18	333.60	26.06	-37.6	-38.5	24.1	0.00e+00	92	34	0	1125122048	48	6057
2026-01-07 00:39:57.19	333.65	25.90	-37.7	-38.6	24.1	0.00e+00	0	34	0	1127219200	48	6106
2026-01-07 00:39:58.20	333.70	25.73	-37.6	-38.5	24.1	0.00e+00	92	34	0	1128267776	48	6044
2026-01-07 00:39:59.21	333.74	25.57	-37.7	-38.6	24.0	0.00e+00	6	34	0	1130364928	48	6131
2026-01-07 00:40:00.22	333.79	25.41	-37.6	-38.4	24.2	0.00e+00	33	34	0	1132462080	48	6028
2026-01-07 00:40:01.23	333.84	25.25	-37.5	-38.3	24.3	0.00e+00	0	34	0	1134559232	48	5960
2026-01-07 00:40:02.24	333.89	25.09	-37.3	-38.2	24.5	0.00e+00	0	34	0	1136656384	48	5830
2026-01-07 00:40:03.25	333.93	24.93	-37.0	-37.9	24.6	0.00e+00	78	34	0	1137704960	48	5633
2026-01-07 00:40:04.26	333.98	24.78	-36.9	-37.7	24.8	0.00e+00	0	34	0	1139802112	48	5552
2026-01-07 00:40:05.27	334.03	24.62	-36.8	-37.7	24.8	0.00e+00	92	34	0	1141899264	48	5521
2026-01-07 00:40:06.28	334.07	24.47	-36.7	-37.6	24.9	0.00e+00	74	34	0	1143996416	46	6114
2026-01-07 00:40:07.29	334.12	24.31	-36.6	-37.4	25.0	0.00e+00	15	34	0	1146093568	46	6006
2026-01-07 00:40:08.30	334.16	24.16	-36.6	-37.4	25.0	0.00e+00	0	34	0	1148190720	46	6020
2026-01-07 00:40:09.31	334.21	24.00	-36.5	-37.3	25.0	0.00e+00	0	34	0	1149239296	46	5942
2026-01-07 00:40:10.32	334.25	23.85	-36.5	-37.3	24.8	0.00e+00	0	34	0	1151336448	46	5950
2026-01-07 00:40:11.33	334.29	23.70	-36.5	-37.3	24.9	0.00e+00	0	34	0	1153433600	46	5955
2026-01-07 00:40:12.34	334.34	23.55	-36.5	-37.3	25.0	0.00e+00	90	34	0	1155530752	46	5964
2026-01-07 00:40:13.35	334.38	23.40	-36.5	-37.4	25.0	0.00e+00	6	34	0	1157627904	46	5972
2026-01-07 00:40:14.35	334.42	23.26	-36.7	-37.5	25.0	0.00e+00	91	34	0	1158676480	46	6059
2026-01-07 00:40:15.36	334.46	23.11	-36.5	-37.3	24.9	0.00e+00	74	35	0	1160773632	46	5953
2026-01-07 00:40:16.37	334.51	22.96	-36.6	-37.4	24.9	0.00e+00	6	34	0	1162870784	46	6019
2026-01-07 00:40:17.38	334.55	22.82	-36.5	-37.3	25.0	0.00e+00	9	34	0	1164967936	46	5921
2026-01-07 00:40:18.39	334.59	22.67	-36.6	-37.4	24.8	0.00e+00	6	34	0	1167065088	46	5991
2026-01-07 00:40:19.40	334.63	22.53	-36.7	-37.5	24.9	0.00e+00	92	34	0	1168113664	46	6061
2026-01-07 00:40:20.41	334.67	22.38	-36.6	-37.4	24.5	0.00e+00	5	34	0	1170210816	46	6033
2026-01-07 00:40:21.42	334.71	22.24	-36.7	-37.5	24.9	0.00e+00	92	34	0	1172307968	46	6059
2026-01-07 00:40:22.43	334.75	22.10	-36.6	-37.5	24.8	0.00e+00	0	34	0	1174405120	46	6040
2026-01-07 00:40:23.44	334.79	21.96	-36.7	-37.5	24.8	0.00e+00	0	34	0	1176502272	46	6077
2026-01-07 00:40:24.45	334.83	21.82	-36.7	-37.6	24.8	0.00e+00	6	35	0	1177550848	46	6112
2026-01-07 00:40:25.46	334.87	21.68	-36.8	-37.7	24.7	0.00e+00	0	35	0	1179648000	46	6196
2026-01-07 00:40:26.47	334.91	21.54	-37.0	-37.8	24.7	0.00e+00	0	34	0	1181745152	46	6280
2026-01-07 00:40:27.48	334.94	21.40	-36.8	-37.7	24.8	0.00e+00	73	35	0	1183842304	46	6200
2026-01-07 00:40:28.49	334.98	21.26	-36.9	-37.8	24.6	0.00e+00	92	35	0	1185939456	46	6261
2026-01-07 00:40:29.50	335.02	21.13	-36.9	-37.7	24.7	0.00e+00	74	35	0	1186988032	46	6207
2026-01-07 00:40:30.51	335.06	20.99	-37.0	-37.8	24.6	0.00e+00	74	34	0	1189085184	46	6286
2026-01-07 00:40:31.52	335.09	20.86	-36.9	-37.7	24.6	0.00e+00	71	34	0	1191182336	46	6211
2026-01-07 00:40:32.52	335.13	20.72	-37.0	-37.8	24.6	0.00e+00	0	35	0	1193279488	46	6287
2026-01-07 00:40:33.53	335.17	20.59	-37.1	-37.9	24.6	0.00e+00	0	35	0	1195376640	46	6351
