passes_logs/2026/01/07/R4.6S_Anadyr/R4.6S_Anadyr__20260107_163453_FENGYUN_3D_rec.log

#Pass ID: 20260107_163453_FENGYUN 3D
#Satellite: FENGYUN 3D
#Configuration: FENGYUN 3D
#almurnet v.1.7.20251203
#Start time: 2026-01-07 16:34:54

#Version: 2.2.20231116
#Station: R4.6S_Anadyr
#Location: 177.4865 lon 64.73178 lat
#TLE: 1 43010U 17072A   26005.48915933 -.00000051  00000+0 -21983-5 0  9995
#TLE: 2 43010  98.9919 337.1582 0002001 124.6377 235.4988 14.19691925421909

#Time	Az	El	Level	Level2	SNR	BER	BlckErr	Temp	State	Recorded	gain1	gain2
2026-01-07 16:34:54.73	20.64	0.07	-49.2	-64.1	3.5	1.51e+00	0	35	0	0	60	57822
2026-01-07 16:34:55.73	20.65	0.13	-49.2	-61.3	3.6	8.45e-01	0	36	104	0	60	42126
2026-01-07 16:34:56.74	20.66	0.19	-49.2	-61.3	3.6	8.45e-01	0	36	104	0	60	42156
2026-01-07 16:34:57.75	20.68	0.25	-49.2	-61.3	3.6	8.45e-01	0	36	104	0	60	42177
2026-01-07 16:34:58.76	20.69	0.31	-49.2	-61.4	3.6	8.46e-01	0	36	104	0	60	42324
2026-01-07 16:34:59.78	20.70	0.37	-49.3	-61.4	3.6	8.46e-01	0	36	104	0	60	42345
2026-01-07 16:35:00.79	20.71	0.43	-49.3	-61.4	3.6	8.46e-01	0	36	104	0	60	42526
2026-01-07 16:35:01.80	20.72	0.49	-49.3	-61.4	3.6	8.45e-01	0	36	104	0	60	42397
2026-01-07 16:35:02.81	20.73	0.55	-49.3	-61.4	3.5	8.45e-01	0	37	104	0	60	42317
2026-01-07 16:35:03.81	20.74	0.61	-49.2	-61.3	3.6	8.46e-01	0	37	104	0	60	42077
2026-01-07 16:35:04.82	20.75	0.67	-49.1	-61.3	3.5	8.45e-01	0	37	104	0	60	41825
2026-01-07 16:35:05.83	20.77	0.73	-49.0	-61.1	3.6	8.44e-01	0	37	104	0	60	40816
2026-01-07 16:35:06.84	20.78	0.79	-48.9	-60.9	3.6	8.44e-01	0	37	104	0	60	40318
2026-01-07 16:35:07.85	20.79	0.86	-48.6	-60.8	3.6	8.45e-01	0	37	104	0	60	39582
2026-01-07 16:35:08.86	20.80	0.92	-48.5	-60.7	3.6	8.46e-01	0	37	104	0	60	39093
2026-01-07 16:35:09.87	20.81	0.98	-48.3	-60.3	3.6	8.45e-01	0	37	104	0	60	37560
2026-01-07 16:35:10.87	20.82	1.04	-47.9	-59.8	3.6	8.45e-01	0	37	104	0	60	35155
2026-01-07 16:35:11.89	20.83	1.10	-47.8	-59.8	3.6	8.46e-01	0	37	104	0	60	35324
2026-01-07 16:35:12.90	20.85	1.17	-47.8	-59.9	3.6	8.45e-01	0	37	104	0	60	35697
2026-01-07 16:35:13.91	20.86	1.23	-47.8	-59.8	3.6	8.45e-01	0	37	104	0	60	35317
2026-01-07 16:35:14.92	20.87	1.29	-47.8	-59.7	3.6	8.43e-01	0	37	104	0	60	34852
2026-01-07 16:35:15.93	20.88	1.35	-47.8	-59.6	3.6	8.45e-01	0	37	104	0	60	34406
2026-01-07 16:35:16.94	20.89	1.42	-47.8	-59.5	3.5	8.46e-01	0	37	104	0	60	34182
2026-01-07 16:35:17.95	20.90	1.48	-47.8	-59.6	3.6	8.44e-01	0	37	104	0	60	34589
2026-01-07 16:35:18.96	20.92	1.54	-47.8	-59.7	3.6	8.46e-01	0	37	104	0	60	34796
2026-01-07 16:35:19.97	20.93	1.61	-47.8	-59.7	3.6	8.46e-01	0	37	104	0	60	34893
2026-01-07 16:35:20.98	20.94	1.67	-47.8	-59.7	3.6	8.45e-01	0	37	104	0	60	34972
2026-01-07 16:35:21.99	20.95	1.73	-47.8	-59.9	3.6	8.45e-01	0	37	104	0	60	35677
2026-01-07 16:35:23.00	20.96	1.80	-47.8	-59.9	3.6	8.47e-01	0	37	104	0	60	35706
2026-01-07 16:35:24.01	20.97	1.86	-47.8	-59.9	3.5	8.45e-01	0	37	104	0	60	35596
2026-01-07 16:35:25.02	20.99	1.92	-47.8	-59.8	3.6	8.46e-01	0	37	104	0	60	35423
2026-01-07 16:35:26.03	21.00	1.99	-47.8	-59.8	3.6	8.45e-01	0	37	104	0	60	35476
2026-01-07 16:35:27.04	21.01	2.05	-47.8	-59.8	3.6	8.46e-01	0	37	104	0	60	35506
2026-01-07 16:35:28.05	21.02	2.12	-47.8	-59.6	3.6	8.45e-01	0	37	104	0	60	34451
2026-01-07 16:35:28.84	21.03	2.17	-47.7	-59.1	3.6	8.46e-01	0	37	104	0	60	32604
2026-01-07 16:35:30.00	21.05	2.24	-47.7	-58.3	3.6	8.45e-01	0	37	104	0	60	29864
2026-01-07 16:35:30.86	21.06	2.30	-47.6	-57.1	3.6	8.43e-01	0	37	0	0	60	25780
2026-01-07 16:35:32.02	21.07	2.37	-47.5	-56.0	3.8	8.40e-01	0	37	0	0	60	22693
2026-01-07 16:35:32.88	21.08	2.43	-47.4	-56.2	4.0	8.38e-01	0	37	104	0	60	23391
2026-01-07 16:35:34.03	21.09	2.50	-47.4	-54.7	3.9	8.30e-01	0	37	0	0	60	19707
2026-01-07 16:35:34.90	21.10	2.56	-47.4	-56.4	3.7	8.34e-01	0	37	104	0	60	23930
2026-01-07 16:35:36.05	21.12	2.63	-47.4	-55.1	3.8	8.35e-01	0	37	0	0	60	20647
2026-01-07 16:35:36.92	21.13	2.69	-47.3	-54.1	4.2	8.24e-01	0	37	0	0	60	18319
2026-01-07 16:35:38.07	21.14	2.76	-46.8	-52.0	5.9	6.39e-01	0	37	0	0	60	14446
2026-01-07 16:35:38.94	21.15	2.82	-45.9	-49.8	8.4	1.05e-01	0	37	0	5242880	60	11158
2026-01-07 16:35:40.09	21.17	2.90	-44.9	-47.9	10.7	6.27e-03	0	37	0	11534336	60	9020
2026-01-07 16:35:40.96	21.18	2.95	-44.0	-46.4	12.4	6.19e-04	0	37	0	16777216	60	7580
2026-01-07 16:35:42.11	21.19	3.03	-42.8	-44.8	14.1	8.00e-06	0	37	0	23068672	60	6254
2026-01-07 16:35:42.98	21.20	3.09	-42.0	-43.6	15.5	0.00e+00	0	37	0	28311552	58	6167
2026-01-07 16:35:44.13	21.22	3.16	-41.1	-42.5	16.4	0.00e+00	0	37	0	34603008	56	6097
2026-01-07 16:35:45.00	21.23	3.22	-40.8	-42.1	16.8	0.00e+00	0	37	0	39845888	56	5816
2026-01-07 16:35:46.15	21.24	3.30	-40.6	-41.9	17.0	0.00e+00	0	37	0	46137344	54	6358
2026-01-07 16:35:47.02	21.25	3.35	-40.8	-42.2	16.8	0.00e+00	0	37	0	50331648	54	6579
2026-01-07 16:35:48.17	21.27	3.43	-40.9	-42.3	16.5	0.00e+00	0	37	0	56623104	54	6672
2026-01-07 16:35:49.04	21.28	3.49	-41.6	-43.2	15.7	0.00e+00	0	37	0	61865984	54	7354
2026-01-07 16:35:50.19	21.29	3.57	-42.6	-44.4	14.3	0.00e+00	0	37	0	68157440	56	7544
2026-01-07 16:35:51.06	21.30	3.63	-43.7	-45.9	12.8	1.14e-05	0	37	0	73400320	58	8034
2026-01-07 16:35:52.21	21.32	3.70	-44.6	-47.4	12.1	1.81e-03	0	37	0	79691776	60	8502
2026-01-07 16:35:53.08	21.33	3.76	-36.2	-37.0	21.9	0.00e+00	0	37	0	84934656	46	5758
2026-01-07 16:35:54.23	21.34	3.84	-42.8	-44.7	14.5	0.00e+00	0	37	0	91226112	56	7840
2026-01-07 16:35:55.10	21.36	3.90	-47.7	-58.0	3.6	6.26e-01	0	37	104	93323264	60	28666
2026-01-07 16:35:56.25	21.37	3.98	-36.3	-37.1	20.3	6.61e-01	0	37	104	93323264	46	5783
2026-01-07 16:35:57.12	21.38	4.04	-47.6	-58.4	3.6	7.73e-01	0	37	104	93323264	60	29935
2026-01-07 16:35:58.27	21.40	4.12	-37.6	-38.5	19.3	4.18e-01	0	37	104	93323264	48	6064
2026-01-07 16:35:59.14	21.41	4.17	-37.3	-38.2	20.7	0.00e+00	0	37	0	95420416	48	5885
2026-01-07 16:36:00.29	21.42	4.25	-36.7	-37.6	21.5	0.00e+00	0	37	0	102760448	46	6105
2026-01-07 16:36:01.16	21.43	4.31	-36.8	-37.6	21.4	0.00e+00	0	37	0	106954752	46	6169
2026-01-07 16:36:02.31	21.45	4.39	-36.7	-37.6	21.5	0.00e+00	0	37	0	113246208	46	6118
2026-01-07 16:36:03.18	21.46	4.45	-36.8	-37.6	21.5	0.00e+00	0	37	0	118489088	46	6142
2026-01-07 16:36:04.33	21.48	4.53	-36.4	-37.3	22.0	0.00e+00	0	37	0	124780544	46	5897
2026-01-07 16:36:05.19	21.49	4.59	-36.2	-37.0	22.0	0.00e+00	0	37	0	130023424	46	5721
2026-01-07 16:36:06.35	21.50	4.68	-36.0	-36.8	22.2	0.00e+00	0	37	0	136314880	46	5617
2026-01-07 16:36:07.21	21.51	4.74	-35.8	-36.6	22.5	0.00e+00	0	37	0	141557760	46	5484
2026-01-07 16:36:08.37	21.53	4.82	-35.7	-36.5	22.5	0.00e+00	0	37	0	147849216	44	6062
2026-01-07 16:36:09.23	21.54	4.88	-35.6	-36.4	22.5	0.00e+00	0	37	0	153092096	44	6021
2026-01-07 16:36:10.39	21.56	4.96	-35.6	-36.3	22.7	0.00e+00	0	37	0	159383552	44	5946
2026-01-07 16:36:11.25	21.57	5.02	-35.7	-36.5	22.5	0.00e+00	0	37	0	163577856	44	6063
2026-01-07 16:36:12.40	21.58	5.10	-35.6	-36.4	22.6	0.00e+00	0	37	0	169869312	44	5987
2026-01-07 16:36:13.27	21.60	5.16	-35.5	-36.3	22.7	0.00e+00	0	37	0	175112192	44	5912
2026-01-07 16:36:14.42	21.61	5.25	-35.5	-36.2	22.9	0.00e+00	0	37	0	181403648	44	5886
2026-01-07 16:36:15.29	21.62	5.31	-35.4	-36.2	22.9	0.00e+00	0	37	0	186646528	44	5839
2026-01-07 16:36:16.44	21.64	5.39	-35.3	-36.1	23.0	0.00e+00	0	37	0	192937984	44	5789
2026-01-07 16:36:17.31	21.65	5.45	-35.3	-36.1	23.0	0.00e+00	0	37	0	198180864	44	5793
2026-01-07 16:36:18.46	21.67	5.54	-35.2	-36.0	23.1	0.00e+00	0	37	0	204472320	44	5718
2026-01-07 16:36:19.33	21.68	5.60	-35.2	-36.0	23.1	0.00e+00	0	37	0	209715200	44	5731
2026-01-07 16:36:20.48	21.69	5.68	-35.2	-35.9	23.2	0.00e+00	0	37	0	216006656	44	5684
2026-01-07 16:36:21.34	21.71	5.75	-35.1	-35.9	23.1	0.00e+00	0	37	0	220200960	44	5662
2026-01-07 16:36:22.50	21.72	5.83	-35.1	-35.8	23.2	0.00e+00	0	37	0	227540992	44	5623
2026-01-07 16:36:23.37	21.73	5.89	-35.1	-35.8	23.3	0.00e+00	0	37	0	231735296	44	5610
2026-01-07 16:36:24.52	21.75	5.98	-35.2	-35.9	23.2	0.00e+00	0	37	0	238026752	44	5670
2026-01-07 16:36:25.39	21.76	6.04	-35.0	-35.7	23.4	0.00e+00	0	37	0	243269632	44	5554
2026-01-07 16:36:26.54	21.78	6.13	-35.2	-36.0	23.3	0.00e+00	0	37	0	249561088	44	5697
2026-01-07 16:36:27.41	21.79	6.19	-35.1	-35.8	23.3	0.00e+00	0	37	0	254803968	44	5599
2026-01-07 16:36:28.56	21.81	6.28	-35.0	-35.7	23.5	0.00e+00	0	37	0	261095424	44	5513
2026-01-07 16:36:29.43	21.82	6.34	-34.9	-35.6	23.4	0.00e+00	0	37	0	266338304	44	5481
2026-01-07 16:36:30.58	21.84	6.43	-34.7	-35.5	23.6	0.00e+00	0	37	0	272629760	44	5395
2026-01-07 16:36:31.45	21.85	6.49	-34.8	-35.5	23.7	0.00e+00	0	37	0	277872640	42	6087
2026-01-07 16:36:32.60	21.87	6.58	-34.8	-35.6	23.6	0.00e+00	0	37	0	284164096	42	6115
2026-01-07 16:36:33.47	21.88	6.65	-34.7	-35.4	23.8	0.00e+00	0	37	0	288358400	42	5983
2026-01-07 16:36:34.62	21.90	6.73	-34.7	-35.4	23.8	0.00e+00	0	37	0	295698432	42	5992
2026-01-07 16:36:35.49	21.91	6.80	-34.6	-35.3	23.9	0.00e+00	0	37	0	299892736	42	5929
2026-01-07 16:36:36.64	21.93	6.89	-34.6	-35.3	23.9	0.00e+00	0	37	0	307232768	42	5920
2026-01-07 16:36:37.50	21.94	6.95	-34.5	-35.2	24.0	0.00e+00	0	37	0	311427072	42	5867
2026-01-07 16:36:38.66	21.96	7.04	-34.7	-35.4	23.8	0.00e+00	0	37	0	317718528	42	5999
2026-01-07 16:36:39.52	21.97	7.11	-34.4	-35.2	24.0	0.00e+00	0	37	0	322961408	42	5832
2026-01-07 16:36:40.67	21.99	7.19	-34.4	-35.2	24.1	0.00e+00	0	37	0	329252864	42	5837
2026-01-07 16:36:41.54	22.00	7.26	-34.6	-35.3	23.9	0.00e+00	0	37	0	334495744	42	5920
2026-01-07 16:36:42.69	22.02	7.35	-34.4	-35.1	24.2	0.00e+00	0	37	0	340787200	42	5795
2026-01-07 16:36:43.56	22.03	7.42	-34.3	-35.1	24.2	0.00e+00	0	37	0	346030080	42	5767
2026-01-07 16:36:44.71	22.05	7.51	-34.3	-35.0	24.2	0.00e+00	0	37	0	352321536	42	5742
2026-01-07 16:36:45.58	22.06	7.58	-34.4	-35.1	24.3	0.00e+00	0	37	0	357564416	42	5810
2026-01-07 16:36:46.73	22.08	7.67	-34.3	-35.0	24.2	0.00e+00	0	37	0	363855872	42	5753
2026-01-07 16:36:47.60	22.09	7.73	-34.2	-34.9	24.3	0.00e+00	0	37	0	368050176	42	5688
2026-01-07 16:36:48.75	22.11	7.82	-34.3	-35.0	24.3	0.00e+00	0	37	0	374341632	42	5747
2026-01-07 16:36:49.62	22.12	7.89	-34.2	-34.9	24.4	0.00e+00	0	37	0	379584512	42	5663
2026-01-07 16:36:50.77	22.14	7.98	-34.2	-35.0	24.3	0.00e+00	0	37	0	385875968	42	5703
2026-01-07 16:36:51.63	22.15	8.05	-34.5	-35.2	24.1	0.00e+00	0	37	0	391118848	42	5837
2026-01-07 16:36:52.79	22.17	8.15	-34.3	-35.0	24.3	0.00e+00	0	37	0	397410304	42	5713
2026-01-07 16:36:53.65	22.18	8.21	-34.3	-35.0	24.3	0.00e+00	0	37	0	402653184	42	5733
2026-01-07 16:36:54.81	22.20	8.31	-34.3	-35.0	24.3	0.00e+00	0	37	0	408944640	42	5703
2026-01-07 16:36:55.67	22.22	8.38	-34.3	-35.0	24.4	0.00e+00	0	37	0	413138944	42	5720
2026-01-07 16:36:56.82	22.23	8.47	-34.3	-35.0	24.3	0.00e+00	0	37	0	420478976	42	5711
2026-01-07 16:36:57.69	22.25	8.54	-34.1	-34.8	24.5	0.00e+00	0	37	0	424673280	42	5593
2026-01-07 16:36:58.85	22.27	8.64	-34.2	-34.9	24.5	0.00e+00	0	37	0	432013312	42	5654
2026-01-07 16:36:59.71	22.28	8.71	-34.3	-35.0	24.4	0.00e+00	0	37	0	436207616	42	5721
2026-01-07 16:37:00.87	22.30	8.80	-34.2	-34.9	24.4	0.00e+00	0	37	0	442499072	42	5668
2026-01-07 16:37:01.73	22.31	8.87	-34.2	-34.9	24.5	0.00e+00	0	37	0	447741952	42	5646
2026-01-07 16:37:02.89	22.33	8.97	-34.2	-34.9	24.5	0.00e+00	0	37	0	454033408	42	5659
2026-01-07 16:37:03.75	22.34	9.04	-34.2	-34.9	24.5	0.00e+00	0	37	0	459276288	42	5648
2026-01-07 16:37:04.90	22.36	9.13	-34.3	-35.0	24.4	0.00e+00	0	37	0	465567744	42	5712
2026-01-07 16:37:05.77	22.38	9.21	-34.2	-34.9	24.4	0.00e+00	0	37	0	470810624	42	5640
2026-01-07 16:37:06.92	22.40	9.30	-34.1	-34.8	24.6	0.00e+00	0	37	0	477102080	42	5574
2026-01-07 16:37:07.79	22.41	9.38	-34.1	-34.8	24.6	0.00e+00	0	37	0	482344960	42	5587
2026-01-07 16:37:08.94	22.43	9.47	-34.2	-34.9	24.5	0.00e+00	0	38	0	488636416	42	5631
2026-01-07 16:37:09.81	22.45	9.55	-34.0	-34.7	24.5	0.00e+00	0	37	0	492830720	42	5545
2026-01-07 16:37:10.96	22.46	9.64	-34.2	-34.9	24.4	0.00e+00	0	37	0	500170752	42	5664
2026-01-07 16:37:11.83	22.48	9.72	-34.3	-35.0	24.3	0.00e+00	0	37	0	504365056	42	5709
2026-01-07 16:37:12.98	22.50	9.82	-34.2	-34.9	24.5	0.00e+00	0	37	0	511705088	42	5650
2026-01-07 16:37:13.85	22.51	9.89	-33.9	-34.6	24.7	0.00e+00	0	38	0	515899392	42	5496
2026-01-07 16:37:15.01	22.53	9.99	-33.8	-34.4	24.8	0.00e+00	0	37	0	522190848	42	5371
2026-01-07 16:37:15.87	22.55	10.06	-33.8	-34.5	24.8	0.00e+00	0	37	0	527433728	42	5398
2026-01-07 16:37:17.02	22.57	10.16	-33.8	-34.5	24.7	0.00e+00	0	37	0	533725184	42	5397
2026-01-07 16:37:17.89	22.58	10.24	-33.8	-34.4	24.7	0.00e+00	0	37	0	538968064	42	5362
2026-01-07 16:37:19.04	22.60	10.34	-34.0	-34.7	24.6	0.00e+00	0	37	0	545259520	42	5537
2026-01-07 16:37:19.91	22.62	10.42	-34.1	-34.7	24.6	0.00e+00	0	38	0	550502400	42	5559
2026-01-07 16:37:21.07	22.64	10.52	-33.9	-34.6	24.9	0.00e+00	0	37	0	556793856	42	5465
2026-01-07 16:37:21.93	22.65	10.59	-34.1	-34.7	24.6	0.00e+00	0	37	0	562036736	42	5565
2026-01-07 16:37:23.09	22.67	10.70	-33.9	-34.6	24.6	0.00e+00	0	37	0	568328192	42	5482
2026-01-07 16:37:23.95	22.69	10.77	-34.0	-34.7	24.8	0.00e+00	0	38	0	572522496	42	5506
2026-01-07 16:37:25.11	22.71	10.88	-34.0	-34.7	24.7	0.00e+00	0	38	0	578813952	42	5547
2026-01-07 16:37:25.97	22.73	10.95	-34.1	-34.8	24.6	0.00e+00	0	37	0	584056832	42	5571
2026-01-07 16:37:27.12	22.75	11.06	-33.6	-34.3	25.1	0.00e+00	0	38	0	590348288	40	5900
2026-01-07 16:37:27.99	22.76	11.13	-33.4	-34.1	25.2	0.00e+00	0	37	0	595591168	40	5813
2026-01-07 16:37:29.14	22.78	11.24	-33.7	-34.3	24.9	0.00e+00	0	37	0	601882624	40	5941
2026-01-07 16:37:30.01	22.80	11.32	-33.5	-34.2	25.1	0.00e+00	0	37	0	607125504	40	5840
2026-01-07 16:37:31.16	22.82	11.42	-33.5	-34.2	25.2	0.00e+00	0	38	0	613416960	40	5838
2026-01-07 16:37:32.03	22.84	11.50	-33.6	-34.3	25.1	0.00e+00	0	37	0	618659840	40	5922
2026-01-07 16:37:33.18	22.86	11.61	-33.4	-34.1	25.2	0.00e+00	0	38	0	624951296	40	5818
2026-01-07 16:37:34.05	22.87	11.69	-33.5	-34.2	25.1	0.00e+00	0	37	0	629145600	40	5864
2026-01-07 16:37:35.20	22.90	11.79	-33.7	-34.4	25.0	0.00e+00	0	38	0	636485632	40	6012
2026-01-07 16:37:36.07	22.91	11.87	-33.5	-34.2	25.2	0.00e+00	0	37	0	640679936	40	5858
2026-01-07 16:37:37.22	22.93	11.98	-33.7	-34.4	24.9	0.00e+00	0	38	0	646971392	40	6004
2026-01-07 16:37:38.08	22.95	12.06	-33.6	-34.3	25.2	0.00e+00	0	37	0	652214272	40	5919
2026-01-07 16:37:39.24	22.97	12.17	-33.6	-34.3	25.1	0.00e+00	0	37	0	658505728	40	5938
2026-01-07 16:37:40.11	22.99	12.25	-33.6	-34.3	25.1	0.00e+00	0	37	0	663748608	40	5903
2026-01-07 16:37:41.26	23.01	12.36	-33.5	-34.1	25.2	0.00e+00	0	37	0	670040064	40	5828
2026-01-07 16:37:42.12	23.03	12.44	-33.5	-34.2	25.3	0.00e+00	0	38	0	675282944	40	5829
2026-01-07 16:37:43.27	23.05	12.55	-33.6	-34.3	25.1	0.00e+00	0	37	0	681574400	40	5932
2026-01-07 16:37:44.14	23.07	12.64	-33.6	-34.3	25.1	0.00e+00	0	38	0	686817280	40	5933
2026-01-07 16:37:45.29	23.09	12.75	-33.5	-34.2	25.2	0.00e+00	0	37	0	693108736	40	5874
2026-01-07 16:37:46.15	23.11	12.83	-33.6	-34.3	25.2	0.00e+00	0	38	0	697303040	40	5913
2026-01-07 16:37:47.31	23.13	12.94	-33.5	-34.2	25.2	0.00e+00	0	38	0	704643072	40	5844
2026-01-07 16:37:48.17	23.15	13.03	-33.4	-34.1	25.2	0.00e+00	0	38	0	708837376	40	5816
2026-01-07 16:37:49.33	23.17	13.14	-33.5	-34.2	25.2	0.00e+00	0	38	0	716177408	40	5859
2026-01-07 16:37:50.20	23.19	13.22	-33.6	-34.2	25.2	0.00e+00	0	38	0	720371712	40	5884
2026-01-07 16:37:51.35	23.21	13.34	-33.4	-34.1	25.3	0.00e+00	0	38	0	726663168	40	5792
2026-01-07 16:37:52.22	23.23	13.42	-33.6	-34.3	25.1	0.00e+00	0	38	0	731906048	40	5960
2026-01-07 16:37:53.37	23.25	13.54	-33.5	-34.1	25.2	0.00e+00	0	38	0	738197504	40	5827
2026-01-07 16:37:54.24	23.27	13.63	-33.5	-34.1	25.2	0.00e+00	0	38	0	743440384	40	5806
2026-01-07 16:37:55.39	23.29	13.74	-33.3	-34.0	25.4	0.00e+00	0	37	0	749731840	40	5722
2026-01-07 16:37:56.25	23.31	13.83	-33.2	-33.8	25.6	0.00e+00	0	38	0	754974720	40	5622
2026-01-07 16:37:57.40	23.34	13.94	-33.1	-33.8	25.6	0.00e+00	0	38	0	761266176	40	5614
2026-01-07 16:37:58.27	23.35	14.03	-33.1	-33.8	25.5	0.00e+00	0	37	0	765460480	40	5607
2026-01-07 16:37:59.42	23.38	14.15	-33.0	-33.7	25.7	0.00e+00	0	38	0	771751936	40	5509
2026-01-07 16:38:00.28	23.40	14.24	-33.0	-33.7	25.6	0.00e+00	0	38	0	776994816	40	5533
2026-01-07 16:38:01.44	23.42	14.36	-33.0	-33.6	25.6	0.00e+00	0	37	0	783286272	40	5495
2026-01-07 16:38:02.30	23.44	14.44	-32.9	-33.6	25.8	0.00e+00	0	38	0	788529152	40	5461
2026-01-07 16:38:03.45	23.47	14.56	-32.8	-33.4	26.0	0.00e+00	0	38	0	794820608	40	5363
2026-01-07 16:38:04.32	23.48	14.65	-32.8	-33.5	25.9	0.00e+00	0	38	0	800063488	38	6038
2026-01-07 16:38:05.48	23.51	14.77	-32.6	-33.3	26.1	0.00e+00	0	38	0	806354944	38	5912
2026-01-07 16:38:06.34	23.53	14.86	-32.6	-33.2	26.2	0.00e+00	0	38	0	811597824	38	5893
2026-01-07 16:38:07.50	23.56	14.99	-32.5	-33.1	26.2	0.00e+00	0	38	0	817889280	38	5815
2026-01-07 16:38:08.36	23.57	15.08	-32.5	-33.1	26.1	0.00e+00	0	38	0	822083584	38	5819
2026-01-07 16:38:09.52	23.60	15.20	-32.4	-33.0	26.3	0.00e+00	0	38	0	829423616	38	5755
2026-01-07 16:38:10.38	23.62	15.29	-32.2	-32.9	26.4	0.00e+00	0	38	0	833617920	38	5671
2026-01-07 16:38:11.53	23.65	15.42	-32.2	-32.9	26.4	0.00e+00	0	38	0	840957952	38	5636
2026-01-07 16:38:12.40	23.67	15.51	-32.1	-32.8	26.5	0.00e+00	0	38	0	845152256	38	5601
2026-01-07 16:38:13.56	23.69	15.64	-32.1	-32.7	26.6	0.00e+00	0	38	0	851443712	38	5543
2026-01-07 16:38:14.42	23.71	15.73	-32.1	-32.8	26.4	0.00e+00	0	38	0	856686592	38	5571
2026-01-07 16:38:15.57	23.74	15.86	-32.1	-32.7	26.5	0.00e+00	0	38	0	862978048	38	5553
2026-01-07 16:38:16.44	23.76	15.95	-32.0	-32.7	26.6	0.00e+00	0	38	0	868220928	38	5513
2026-01-07 16:38:17.60	23.79	16.08	-32.0	-32.7	26.4	0.00e+00	0	38	0	874512384	38	5505
2026-01-07 16:38:18.46	23.81	16.17	-32.1	-32.7	26.6	0.00e+00	0	38	0	879755264	38	5542
2026-01-07 16:38:19.61	23.83	16.30	-31.9	-32.5	26.7	0.00e+00	0	38	0	886046720	38	5435
2026-01-07 16:38:20.48	23.86	16.40	-31.9	-32.6	26.6	0.00e+00	0	38	0	891289600	38	5463
2026-01-07 16:38:21.63	23.88	16.53	-31.6	-32.2	27.0	0.00e+00	0	38	0	897581056	36	5885
2026-01-07 16:38:22.50	23.90	16.63	-31.6	-32.2	26.9	0.00e+00	0	38	0	901775360	36	5876
2026-01-07 16:38:23.65	23.93	16.76	-31.7	-32.3	26.9	0.00e+00	0	38	0	909115392	36	5920
2026-01-07 16:38:24.52	23.95	16.85	-31.6	-32.2	27.1	0.00e+00	0	38	0	913309696	36	5856
2026-01-07 16:38:25.67	23.98	16.99	-31.7	-32.3	27.0	0.00e+00	0	38	0	919601152	36	5932
2026-01-07 16:38:26.54	24.00	17.09	-31.7	-32.3	26.9	0.00e+00	0	38	0	924844032	36	5962
2026-01-07 16:38:27.69	24.03	17.22	-31.6	-32.2	27.0	0.00e+00	0	38	0	931135488	36	5877
2026-01-07 16:38:28.56	24.05	17.32	-31.6	-32.2	27.0	0.00e+00	0	38	0	936378368	36	5858
2026-01-07 16:38:29.71	24.08	17.45	-31.6	-32.2	27.0	0.00e+00	0	38	0	942669824	36	5857
2026-01-07 16:38:30.58	24.11	17.56	-31.7	-32.3	27.0	0.00e+00	0	38	0	947912704	36	5918
2026-01-07 16:38:31.73	24.14	17.69	-31.5	-32.2	27.0	0.00e+00	0	38	0	954204160	36	5848
2026-01-07 16:38:32.59	24.16	17.79	-31.8	-32.4	26.9	0.00e+00	0	38	0	959447040	36	5980
2026-01-07 16:38:33.75	24.19	17.93	-31.5	-32.1	27.1	0.00e+00	0	38	0	965738496	36	5795
2026-01-07 16:38:34.61	24.21	18.03	-31.6	-32.2	27.0	0.00e+00	0	38	0	969932800	36	5894
2026-01-07 16:38:35.77	24.24	18.17	-31.4	-32.1	27.2	0.00e+00	0	38	0	976224256	36	5785
2026-01-07 16:38:36.63	24.26	18.28	-31.4	-32.0	27.2	0.00e+00	0	38	0	981467136	36	5748
2026-01-07 16:38:37.79	24.30	18.42	-31.5	-32.2	27.1	0.00e+00	0	38	0	987758592	36	5832
2026-01-07 16:38:38.65	24.32	18.52	-31.3	-32.0	27.3	0.00e+00	0	38	0	993001472	36	5707
2026-01-07 16:38:39.81	24.35	18.66	-31.4	-32.1	27.2	0.00e+00	0	38	0	999292928	36	5777
2026-01-07 16:38:40.67	24.37	18.77	-31.5	-32.1	27.2	0.00e+00	0	38	0	1004535808	36	5811
2026-01-07 16:38:41.83	24.41	18.91	-31.5	-32.1	27.2	0.00e+00	0	38	0	1010827264	36	5815
2026-01-07 16:38:42.69	24.43	19.02	-31.5	-32.1	27.2	0.00e+00	0	38	0	1016070144	36	5765
2026-01-07 16:38:43.85	24.46	19.16	-31.6	-32.2	27.0	0.00e+00	0	38	0	1022361600	36	5857
2026-01-07 16:38:44.72	24.49	19.27	-31.7	-32.3	27.1	0.00e+00	0	38	0	1026555904	36	5914
2026-01-07 16:38:45.87	24.52	19.42	-31.4	-32.0	27.2	0.00e+00	0	38	0	1033895936	36	5743
2026-01-07 16:38:46.74	24.54	19.53	-31.4	-32.0	27.3	0.00e+00	0	38	0	1038090240	36	5740
2026-01-07 16:38:47.89	24.58	19.68	-31.4	-32.0	27.3	0.00e+00	0	38	0	1045430272	36	5726
2026-01-07 16:38:48.76	24.60	19.79	-31.3	-31.9	27.4	0.00e+00	0	38	0	1049624576	36	5679
2026-01-07 16:38:49.91	24.63	19.93	-31.3	-31.9	27.3	0.00e+00	0	38	0	1055916032	36	5694
2026-01-07 16:38:50.78	24.66	20.05	-31.0	-31.7	27.5	0.00e+00	0	38	0	1061158912	36	5516
2026-01-07 16:38:51.93	24.69	20.20	-31.0	-31.6	27.5	0.00e+00	0	38	0	1067450368	36	5498
2026-01-07 16:38:52.80	24.72	20.31	-31.1	-31.7	27.5	0.00e+00	0	38	0	1072693248	36	5525
2026-01-07 16:38:53.95	24.75	20.46	-30.9	-31.5	27.7	0.00e+00	0	38	0	1078984704	36	5421
2026-01-07 16:38:54.81	24.78	20.58	-30.8	-31.5	27.7	0.00e+00	0	38	0	1084227584	36	5389
2026-01-07 16:38:55.97	24.82	20.73	-30.8	-31.5	27.7	0.00e+00	0	38	0	1090519040	36	5397
2026-01-07 16:38:56.83	24.84	20.84	-30.9	-31.5	27.7	0.00e+00	0	38	0	1095761920	36	5391
2026-01-07 16:38:57.99	24.88	21.00	-30.9	-31.5	27.7	0.00e+00	0	38	0	1102053376	36	5418
2026-01-07 16:38:58.86	24.90	21.12	-30.9	-31.5	27.7	0.00e+00	0	38	0	1106247680	36	5398
2026-01-07 16:39:00.01	24.94	21.27	-30.9	-31.5	27.7	0.00e+00	0	38	0	1113587712	36	5395
2026-01-07 16:39:00.88	24.97	21.39	-31.0	-31.6	27.6	0.00e+00	0	38	0	1117782016	36	5465
2026-01-07 16:39:02.03	25.00	21.55	-30.8	-31.4	27.7	0.00e+00	0	38	0	1125122048	36	5363
2026-01-07 16:39:02.90	25.03	21.67	-30.9	-31.5	27.6	0.00e+00	0	38	0	1129316352	36	5413
2026-01-07 16:39:04.06	25.07	21.83	-30.9	-31.6	27.7	0.00e+00	0	38	0	1135607808	36	5453
2026-01-07 16:39:04.92	25.10	21.95	-30.7	-31.3	27.8	0.00e+00	0	38	0	1140850688	34	5938
2026-01-07 16:39:06.07	25.14	22.11	-30.6	-31.2	27.8	0.00e+00	0	38	0	1147142144	34	5863
2026-01-07 16:39:06.94	25.16	22.24	-30.7	-31.3	27.9	0.00e+00	0	38	0	1152385024	34	5947
2026-01-07 16:39:08.09	25.20	22.40	-30.7	-31.3	27.9	0.00e+00	0	38	0	1158676480	34	5913
2026-01-07 16:39:08.96	25.23	22.52	-30.7	-31.3	27.8	0.00e+00	0	38	0	1163919360	34	5932
2026-01-07 16:39:10.11	25.27	22.69	-30.8	-31.4	27.7	0.00e+00	0	38	0	1170210816	34	5992
2026-01-07 16:39:10.98	25.30	22.81	-30.8	-31.4	27.8	0.00e+00	0	38	0	1175453696	34	6008
2026-01-07 16:39:12.14	25.34	22.98	-30.6	-31.2	28.0	0.00e+00	0	38	0	1181745152	34	5867
2026-01-07 16:39:13.00	25.37	23.11	-30.8	-31.4	27.8	0.00e+00	0	38	0	1185939456	34	5986
2026-01-07 16:39:14.15	25.41	23.28	-30.7	-31.3	27.8	0.00e+00	0	38	0	1192230912	34	5962
2026-01-07 16:39:15.02	25.44	23.41	-30.7	-31.4	27.8	0.00e+00	0	38	0	1197473792	34	5972
2026-01-07 16:39:16.17	25.48	23.58	-30.6	-31.2	27.9	0.00e+00	0	38	0	1203765248	34	5880
2026-01-07 16:39:17.04	25.51	23.71	-30.5	-31.1	28.0	0.00e+00	0	38	0	1209008128	34	5811
2026-01-07 16:39:18.19	25.56	23.88	-30.6	-31.2	27.9	0.00e+00	0	38	0	1215299584	34	5856
2026-01-07 16:39:19.06	25.59	24.01	-30.7	-31.3	27.8	0.00e+00	0	38	0	1220542464	34	5923
2026-01-07 16:39:20.22	25.63	24.19	-30.4	-31.0	28.1	0.00e+00	0	38	0	1226833920	34	5752
2026-01-07 16:39:21.08	25.66	24.32	-30.3	-31.0	28.1	0.00e+00	0	38	0	1232076800	34	5703
2026-01-07 16:39:22.24	25.71	24.50	-30.3	-30.9	28.1	0.00e+00	0	38	0	1238368256	34	5663
2026-01-07 16:39:23.10	25.74	24.63	-30.3	-30.9	28.2	0.00e+00	0	38	0	1242562560	34	5681
2026-01-07 16:39:24.25	25.78	24.81	-30.3	-30.9	28.1	0.00e+00	0	38	0	1249902592	34	5678
2026-01-07 16:39:25.12	25.82	24.94	-30.3	-31.0	28.1	0.00e+00	0	38	0	1254096896	34	5710
2026-01-07 16:39:26.28	25.86	25.13	-30.3	-30.9	28.2	0.00e+00	0	38	0	1261436928	34	5645
2026-01-07 16:39:27.14	25.90	25.26	-30.1	-30.7	28.3	0.00e+00	0	38	0	1265631232	34	5547
2026-01-07 16:39:28.29	25.94	25.45	-30.2	-30.8	28.3	0.00e+00	0	38	0	1271922688	34	5605
2026-01-07 16:39:29.16	25.98	25.59	-30.2	-30.7	28.3	0.00e+00	0	38	0	1277165568	34	5549
2026-01-07 16:39:30.31	26.02	25.77	-30.2	-30.8	28.2	0.00e+00	0	38	0	1283457024	34	5589
2026-01-07 16:39:31.18	26.06	25.91	-30.2	-30.9	28.2	0.00e+00	0	38	0	1288699904	34	5638
2026-01-07 16:39:32.33	26.10	26.10	-30.2	-30.9	28.2	0.00e+00	0	38	0	1294991360	34	5647
2026-01-07 16:39:33.20	26.14	26.24	-30.4	-31.0	27.9	0.00e+00	0	38	0	1300234240	34	5744
2026-01-07 16:39:34.35	26.19	26.43	-30.3	-30.9	28.2	0.00e+00	0	38	0	1306525696	34	5684
2026-01-07 16:39:35.22	26.23	26.58	-30.4	-31.1	28.0	0.00e+00	0	38	0	1310720000	34	5762
2026-01-07 16:39:36.38	26.28	26.77	-30.5	-31.1	28.1	0.00e+00	0	38	0	1318060032	34	5781
2026-01-07 16:39:37.24	26.31	26.92	-30.4	-31.1	28.0	0.00e+00	0	38	0	1322254336	34	5781
2026-01-07 16:39:38.40	26.36	27.11	-30.4	-31.1	28.1	0.00e+00	0	38	0	1329594368	34	5774
2026-01-07 16:39:39.26	26.40	27.26	-30.3	-31.0	28.1	0.00e+00	0	38	0	1333788672	34	5704
2026-01-07 16:39:40.42	26.45	27.46	-30.4	-31.0	28.1	0.00e+00	0	38	0	1340080128	34	5732
2026-01-07 16:39:41.28	26.49	27.61	-30.1	-30.7	28.3	0.00e+00	0	38	0	1345323008	34	5561
2026-01-07 16:39:42.44	26.54	27.81	-30.2	-30.8	28.2	0.00e+00	0	38	0	1351614464	34	5616
2026-01-07 16:39:43.30	26.58	27.96	-30.3	-30.9	28.2	0.00e+00	0	38	0	1356857344	34	5690
2026-01-07 16:39:44.46	26.64	28.16	-30.1	-30.8	28.3	0.00e+00	0	38	0	1363148800	34	5579
2026-01-07 16:39:45.32	26.68	28.31	-30.3	-30.9	28.2	0.00e+00	0	38	0	1368391680	34	5644
2026-01-07 16:39:46.48	26.73	28.52	-30.1	-30.7	28.3	0.00e+00	0	38	0	1374683136	34	5536
2026-01-07 16:39:47.34	26.77	28.68	-30.1	-30.7	28.3	0.00e+00	0	38	0	1379926016	34	5549
2026-01-07 16:39:48.50	26.83	28.89	-30.0	-30.6	28.4	0.00e+00	0	38	0	1386217472	34	5469
2026-01-07 16:39:49.36	26.87	29.04	-30.1	-30.7	28.3	0.00e+00	0	38	0	1390411776	34	5512
2026-01-07 16:39:50.52	26.93	29.25	-30.1	-30.7	28.3	0.00e+00	0	38	0	1396703232	34	5537
2026-01-07 16:39:51.38	26.97	29.41	-30.2	-30.8	28.2	0.00e+00	0	38	0	1401946112	34	5580
2026-01-07 16:39:52.54	27.03	29.63	-30.2	-30.9	28.2	0.00e+00	0	38	0	1408237568	34	5639
2026-01-07 16:39:53.40	27.07	29.79	-30.4	-31.0	28.1	0.00e+00	0	38	0	1413480448	34	5727
2026-01-07 16:39:54.55	27.13	30.00	-30.4	-31.0	28.1	0.00e+00	0	38	0	1419771904	34	5741
2026-01-07 16:39:55.42	27.17	30.17	-30.4	-31.0	28.1	0.00e+00	0	38	0	1425014784	34	5734
2026-01-07 16:39:56.57	27.24	30.39	-30.4	-31.0	28.1	0.00e+00	0	38	0	1431306240	34	5759
2026-01-07 16:39:57.44	27.28	30.55	-30.3	-30.9	28.2	0.00e+00	0	38	0	1436549120	34	5686
2026-01-07 16:39:58.59	27.34	30.77	-30.4	-31.0	28.1	0.00e+00	0	38	0	1442840576	34	5759
2026-01-07 16:39:59.46	27.39	30.94	-30.3	-30.9	28.1	0.00e+00	0	38	0	1447034880	34	5679
2026-01-07 16:40:00.61	27.45	31.17	-30.1	-30.7	28.3	0.00e+00	0	38	0	1454374912	34	5554
2026-01-07 16:40:01.48	27.50	31.34	-30.1	-30.7	28.3	0.00e+00	0	38	0	1458569216	34	5524
2026-01-07 16:40:02.63	27.57	31.57	-30.1	-30.7	28.4	0.00e+00	0	38	0	1465909248	34	5518
2026-01-07 16:40:03.50	27.61	31.74	-30.2	-30.8	28.3	0.00e+00	0	38	0	1470103552	34	5627
2026-01-07 16:40:04.65	27.68	31.97	-30.3	-30.9	28.2	0.00e+00	0	38	0	1476395008	34	5658
2026-01-07 16:40:05.52	27.73	32.14	-30.1	-30.7	28.2	0.00e+00	0	38	0	1481637888	34	5544
2026-01-07 16:40:06.67	27.80	32.38	-30.2	-30.8	28.3	0.00e+00	0	38	0	1487929344	34	5598
2026-01-07 16:40:07.54	27.85	32.56	-30.0	-30.5	28.4	0.00e+00	0	38	0	1493172224	34	5437
2026-01-07 16:40:08.70	27.92	32.80	-30.2	-30.8	28.4	0.00e+00	0	38	0	1499463680	34	5580
2026-01-07 16:40:09.56	27.97	32.97	-30.2	-30.8	28.3	0.00e+00	0	38	0	1504706560	34	5583
2026-01-07 16:40:10.72	28.04	33.22	-30.3	-30.9	28.2	0.00e+00	0	38	0	1510998016	34	5673
2026-01-07 16:40:11.59	28.10	33.40	-30.2	-30.8	28.3	0.00e+00	0	38	0	1516240896	34	5619
2026-01-07 16:40:12.74	28.17	33.64	-30.3	-30.9	28.2	0.00e+00	0	38	0	1522532352	34	5683
2026-01-07 16:40:13.61	28.23	33.83	-30.1	-30.7	28.3	0.00e+00	0	38	0	1526726656	34	5544
2026-01-07 16:40:14.76	28.30	34.08	-30.0	-30.6	28.5	0.00e+00	0	38	0	1534066688	34	5494
2026-01-07 16:40:15.63	28.36	34.26	-30.1	-30.7	28.3	0.00e+00	0	38	0	1538260992	34	5545
2026-01-07 16:40:16.78	28.43	34.51	-29.9	-30.5	28.5	0.00e+00	0	38	0	1545601024	34	5414
2026-01-07 16:40:17.65	28.49	34.70	-29.6	-30.2	28.7	0.00e+00	0	38	0	1549795328	32	5875
2026-01-07 16:40:18.80	28.57	34.96	-29.5	-30.1	28.8	0.00e+00	0	38	0	1556086784	32	5766
2026-01-07 16:40:19.67	28.63	35.15	-29.3	-29.9	29.0	0.00e+00	0	38	0	1561329664	32	5631
2026-01-07 16:40:20.82	28.71	35.41	-29.4	-30.0	28.9	0.00e+00	0	38	0	1567621120	32	5723
2026-01-07 16:40:21.69	28.77	35.60	-29.3	-30.0	28.9	0.00e+00	0	38	0	1572864000	32	5725
2026-01-07 16:40:22.84	28.85	35.87	-29.5	-30.2	28.8	0.00e+00	0	38	0	1579155456	32	5835
2026-01-07 16:40:23.71	28.92	36.06	-29.6	-30.2	28.8	0.00e+00	0	38	0	1584398336	32	5847
2026-01-07 16:40:24.86	29.00	36.33	-29.6	-30.2	28.7	0.00e+00	0	38	0	1590689792	32	5886
2026-01-07 16:40:25.73	29.07	36.53	-29.7	-30.3	28.7	0.00e+00	0	38	0	1595932672	32	5947
2026-01-07 16:40:26.88	29.15	36.80	-29.7	-30.3	28.6	0.00e+00	0	38	0	1602224128	32	5956
2026-01-07 16:40:27.75	29.22	37.00	-29.5	-30.1	28.8	0.00e+00	0	38	0	1606418432	32	5814
2026-01-07 16:40:28.90	29.31	37.28	-29.3	-30.0	29.0	0.00e+00	0	38	0	1612709888	32	5704
2026-01-07 16:40:29.76	29.38	37.48	-29.3	-29.9	28.8	0.00e+00	0	38	0	1617952768	32	5695
2026-01-07 16:40:30.92	29.47	37.76	-29.3	-29.9	28.9	0.00e+00	0	38	0	1624244224	32	5652
2026-01-07 16:40:31.79	29.54	37.97	-29.5	-30.1	28.8	0.00e+00	0	38	0	1629487104	32	5811
2026-01-07 16:40:32.94	29.63	38.25	-29.4	-30.0	28.9	0.00e+00	0	38	0	1635778560	32	5743
2026-01-07 16:40:33.81	29.71	38.46	-29.4	-30.0	28.9	0.00e+00	0	38	0	1641021440	32	5754
2026-01-07 16:40:34.96	29.80	38.75	-29.5	-30.1	28.8	0.00e+00	0	38	0	1647312896	32	5782
2026-01-07 16:40:35.83	29.88	38.96	-29.4	-30.0	28.9	0.00e+00	0	38	0	1652555776	32	5715
2026-01-07 16:40:36.98	29.98	39.25	-29.4	-30.0	28.9	0.00e+00	0	38	0	1658847232	32	5717
2026-01-07 16:40:37.85	30.06	39.47	-29.5	-30.1	28.8	0.00e+00	0	38	0	1663041536	32	5790
2026-01-07 16:40:39.00	30.16	39.76	-29.4	-30.0	28.8	0.00e+00	0	38	0	1670381568	32	5760
2026-01-07 16:40:39.87	30.24	39.99	-29.3	-29.9	28.9	0.00e+00	0	38	0	1674575872	32	5674
2026-01-07 16:40:41.02	30.34	40.28	-29.4	-29.9	28.9	0.00e+00	0	38	0	1680867328	32	5691
2026-01-07 16:40:41.89	30.43	40.51	-29.5	-30.1	28.8	0.00e+00	0	38	0	1686110208	32	5822
2026-01-07 16:40:43.04	30.54	40.81	-29.7	-30.3	28.8	0.00e+00	0	38	0	1692401664	32	5952
2026-01-07 16:40:43.91	30.62	41.04	-29.8	-30.4	28.6	0.00e+00	0	38	0	1697644544	32	6010
2026-01-07 16:40:45.06	30.73	41.34	-29.9	-30.4	28.5	0.00e+00	0	38	0	1703936000	32	6033
2026-01-07 16:40:45.92	30.82	41.57	-29.8	-30.4	28.6	0.00e+00	0	38	0	1709178880	32	5995
2026-01-07 16:40:47.08	30.94	41.88	-29.8	-30.4	28.5	0.00e+00	0	38	0	1715470336	32	5997
2026-01-07 16:40:47.94	31.03	42.12	-29.9	-30.5	28.6	0.00e+00	0	38	0	1720713216	32	6042
2026-01-07 16:40:49.10	31.15	42.43	-29.8	-30.4	28.6	0.00e+00	0	38	0	1727004672	32	6032
2026-01-07 16:40:49.96	31.24	42.67	-29.9	-30.5	28.6	0.00e+00	0	38	0	1731198976	32	6060
2026-01-07 16:40:51.12	31.37	42.99	-29.8	-30.4	28.6	0.00e+00	0	38	0	1738539008	32	5984
2026-01-07 16:40:51.99	31.46	43.23	-29.9	-30.5	28.6	0.00e+00	0	38	0	1742733312	32	6044
2026-01-07 16:40:53.14	31.59	43.56	-30.0	-30.6	28.4	0.00e+00	0	38	0	1750073344	32	6158
2026-01-07 16:40:54.01	31.69	43.80	-30.2	-30.7	28.4	0.00e+00	0	38	0	1754267648	32	6232
2026-01-07 16:40:55.16	31.82	44.13	-30.3	-30.9	28.3	0.00e+00	0	38	0	1760559104	32	6380
2026-01-07 16:40:56.03	31.93	44.38	-30.3	-30.9	28.2	0.00e+00	0	38	0	1765801984	32	6370
2026-01-07 16:40:57.18	32.07	44.71	-30.2	-30.9	28.3	0.00e+00	0	38	0	1772093440	32	6320
2026-01-07 16:40:58.05	32.17	44.96	-30.4	-31.0	28.2	0.00e+00	0	38	0	1777336320	32	6412
2026-01-07 16:40:59.20	32.32	45.30	-30.3	-30.9	28.3	0.00e+00	0	38	0	1783627776	32	6338
2026-01-07 16:41:00.06	32.43	45.55	-30.3	-30.9	28.2	0.00e+00	0	38	0	1788870656	32	6356
2026-01-07 16:41:01.22	32.58	45.90	-30.1	-30.7	28.4	0.00e+00	0	38	0	1795162112	32	6240
2026-01-07 16:41:02.08	32.69	46.16	-30.1	-30.7	28.3	0.00e+00	0	38	0	1800404992	32	6198
2026-01-07 16:41:03.23	32.84	46.50	-30.0	-30.5	28.4	0.00e+00	0	38	0	1806696448	32	6101
2026-01-07 16:41:04.10	32.96	46.76	-30.2	-30.8	28.3	0.00e+00	0	38	0	1810890752	32	6247
2026-01-07 16:41:05.25	33.12	47.12	-30.2	-30.8	28.2	0.00e+00	0	38	0	1817182208	32	6273
2026-01-07 16:41:06.11	33.25	47.38	-30.4	-31.0	28.1	0.00e+00	0	38	0	1822425088	32	6463
2026-01-07 16:41:07.27	33.41	47.74	-30.4	-31.0	28.2	0.00e+00	0	38	0	1828716544	32	6425
2026-01-07 16:41:08.13	33.54	48.01	-30.4	-31.0	28.2	0.00e+00	0	38	0	1833959424	32	6438
2026-01-07 16:41:09.29	33.72	48.37	-30.3	-30.9	28.3	0.00e+00	0	38	0	1840250880	32	6376
2026-01-07 16:41:10.15	33.85	48.64	-30.2	-30.8	28.4	0.00e+00	0	38	0	1845493760	32	6258
2026-01-07 16:41:11.31	34.03	49.01	-30.0	-30.6	28.5	0.00e+00	0	38	0	1851785216	32	6109
2026-01-07 16:41:12.17	34.17	49.28	-30.2	-30.8	28.3	0.00e+00	0	38	0	1855979520	32	6272
2026-01-07 16:41:13.33	34.36	49.66	-30.5	-31.1	28.1	0.00e+00	0	38	0	1863319552	32	6535
2026-01-07 16:41:14.19	34.50	49.94	-30.5	-31.1	28.2	0.00e+00	0	38	0	1867513856	32	6504
2026-01-07 16:41:15.35	34.70	50.31	-30.6	-31.2	28.1	0.00e+00	0	38	0	1874853888	32	6551
2026-01-07 16:41:16.21	34.85	50.60	-30.7	-31.3	27.9	0.00e+00	0	38	0	1879048192	32	6683
2026-01-07 16:41:17.37	35.06	50.98	-30.6	-31.2	28.0	0.00e+00	0	38	0	1885339648	34	5879
2026-01-07 16:41:18.23	35.21	51.26	-30.7	-31.3	28.0	0.00e+00	0	38	0	1890582528	34	5949
2026-01-07 16:41:19.39	35.43	51.65	-30.5	-31.1	28.1	0.00e+00	0	38	0	1896873984	34	5816
2026-01-07 16:41:20.25	35.59	51.94	-30.5	-31.1	28.1	0.00e+00	0	38	0	1902116864	34	5782
2026-01-07 16:41:21.41	35.82	52.33	-30.5	-31.1	28.1	0.00e+00	0	38	0	1908408320	34	5791
2026-01-07 16:41:22.27	35.99	52.63	-30.6	-31.2	28.0	0.00e+00	0	38	0	1913651200	34	5892
2026-01-07 16:41:23.42	36.22	53.02	-31.2	-31.9	27.5	0.00e+00	0	38	0	1919942656	34	6339
2026-01-07 16:41:24.29	36.40	53.32	-31.7	-32.3	27.2	0.00e+00	0	38	0	1925185536	34	6687
2026-01-07 16:41:25.44	36.65	53.72	-31.4	-32.0	27.4	0.00e+00	0	38	0	1931476992	34	6452
2026-01-07 16:41:26.31	36.84	54.02	-31.0	-31.6	27.7	0.00e+00	0	38	0	1935671296	34	6155
2026-01-07 16:41:27.46	37.10	54.43	-31.1	-31.7	27.7	0.00e+00	0	38	0	1943011328	34	6206
2026-01-07 16:41:28.33	37.30	54.73	-31.4	-32.0	27.4	0.00e+00	0	38	0	1947205632	34	6425
2026-01-07 16:41:29.48	37.57	55.14	-31.7	-32.3	27.2	0.00e+00	0	38	0	1954545664	34	6648
2026-01-07 16:41:30.35	37.78	55.45	-31.3	-31.9	27.4	0.00e+00	0	38	0	1958739968	34	6378
2026-01-07 16:41:31.50	38.06	55.86	-31.4	-32.1	27.3	0.00e+00	0	38	0	1965031424	34	6484
2026-01-07 16:41:32.36	38.28	56.17	-31.4	-32.1	27.4	0.00e+00	0	38	0	1970274304	34	6469
2026-01-07 16:41:33.52	38.58	56.59	-31.4	-32.0	27.4	0.00e+00	0	38	0	1976565760	34	6438
2026-01-07 16:41:34.38	38.81	56.91	-31.4	-32.1	27.3	0.00e+00	0	38	0	1981808640	34	6495
2026-01-07 16:41:35.54	39.13	57.33	-30.7	-31.3	28.0	0.00e+00	0	38	0	1988100096	34	5936
2026-01-07 16:41:36.40	39.37	57.65	-30.4	-31.0	28.1	0.00e+00	0	38	0	1993342976	34	5760
2026-01-07 16:41:37.55	39.70	58.07	-30.9	-31.6	27.6	0.00e+00	0	38	0	1999634432	34	6147
2026-01-07 16:41:38.42	39.96	58.39	-30.6	-31.2	28.0	0.00e+00	0	38	0	2003828736	34	5850
2026-01-07 16:41:39.57	40.31	58.82	-30.2	-30.8	28.4	0.00e+00	0	38	0	2011168768	34	5574
2026-01-07 16:41:40.44	40.59	59.15	-30.5	-31.1	28.0	0.00e+00	0	38	0	2015363072	34	5795
2026-01-07 16:41:41.59	40.96	59.58	-30.5	-31.1	28.0	0.00e+00	0	38	0	2021654528	34	5808
2026-01-07 16:41:42.46	41.25	59.91	-30.1	-30.7	28.3	0.00e+00	0	38	0	2026897408	34	5561
2026-01-07 16:41:43.61	41.64	60.34	-29.8	-30.4	28.5	0.00e+00	0	38	0	2033188864	34	5351
2026-01-07 16:41:44.48	41.95	60.67	-29.7	-30.4	28.7	0.00e+00	0	38	0	2038431744	32	5973
2026-01-07 16:41:45.63	42.37	61.11	-29.9	-30.5	28.4	0.00e+00	0	38	0	2044723200	32	6092
2026-01-07 16:41:46.50	42.70	61.45	-30.0	-30.7	28.3	0.00e+00	0	38	0	2049966080	32	6199
2026-01-07 16:41:47.65	43.14	61.89	-29.8	-30.4	28.4	0.00e+00	0	38	0	2056257536	32	6029
2026-01-07 16:41:48.52	43.49	62.22	-29.6	-30.2	28.8	0.00e+00	0	38	0	2060451840	32	5837
2026-01-07 16:41:49.67	43.96	62.66	-29.5	-30.1	28.8	0.00e+00	0	38	0	2067791872	32	5825
2026-01-07 16:41:50.54	44.33	63.00	-29.5	-30.1	28.8	0.00e+00	0	38	0	2071986176	32	5766
2026-01-07 16:41:51.69	44.84	63.45	-29.5	-30.1	28.8	0.00e+00	0	38	0	2079326208	32	5777
2026-01-07 16:41:52.55	45.23	63.78	-29.4	-29.9	29.0	0.00e+00	0	38	0	2083520512	32	5693
2026-01-07 16:41:53.71	45.78	64.23	-29.3	-29.8	29.0	0.00e+00	0	38	0	2089811968	32	5618
2026-01-07 16:41:54.57	46.19	64.57	-29.2	-29.8	28.9	0.00e+00	0	38	0	2095054848	32	5610
2026-01-07 16:41:55.73	46.78	65.02	-29.0	-29.6	29.2	0.00e+00	0	38	0	2101346304	32	5479
2026-01-07 16:41:56.60	47.23	65.36	-29.1	-29.7	29.0	0.00e+00	0	38	0	2106589184	32	5531
2026-01-07 16:41:57.75	47.85	65.81	-29.3	-30.0	28.9	0.00e+00	0	38	0	2112880640	32	5731
2026-01-07 16:41:58.62	48.34	66.15	-29.7	-30.3	28.6	0.00e+00	0	38	0	2118123520	32	5955
2026-01-07 16:41:59.77	49.00	66.59	-29.4	-29.9	28.8	0.00e+00	0	38	0	2124414976	32	5680
2026-01-07 16:42:00.64	49.53	66.93	-29.2	-29.8	29.0	0.00e+00	0	38	0	2129657856	32	5587
2026-01-07 16:42:01.80	50.25	67.38	-29.5	-30.1	28.9	0.00e+00	0	38	0	2135949312	32	5798
2026-01-07 16:42:02.66	50.81	67.72	-29.4	-30.1	28.8	0.00e+00	0	38	0	2140143616	32	5775
2026-01-07 16:42:03.81	51.58	68.16	-29.2	-29.8	29.0	0.00e+00	0	38	0	2147483648	32	5587
2026-01-07 16:42:04.68	52.19	68.50	-29.3	-30.0	28.8	0.00e+00	0	38	0	2151677952	32	5699
2026-01-07 16:42:05.83	53.03	68.94	-29.1	-29.6	29.1	0.00e+00	0	38	0	2159017984	32	5494
2026-01-07 16:42:06.70	53.69	69.27	-29.1	-29.6	29.2	0.00e+00	0	38	0	2163212288	32	5500
2026-01-07 16:42:07.85	54.59	69.71	-29.3	-29.9	28.9	0.00e+00	0	38	0	2169503744	32	5656
2026-01-07 16:42:08.72	55.31	70.04	-29.3	-29.9	29.0	0.00e+00	0	38	0	2174746624	32	5644
2026-01-07 16:42:09.88	56.30	70.48	-28.9	-29.5	29.3	0.00e+00	0	38	0	2181038080	32	5393
2026-01-07 16:42:10.74	57.07	70.80	-28.9	-29.4	29.0	0.00e+00	0	38	0	2186280960	30	6030
2026-01-07 16:42:11.89	58.13	71.23	-29.2	-29.8	29.0	0.00e+00	0	38	0	2192572416	30	6283
2026-01-07 16:42:12.76	58.97	71.55	-28.9	-29.5	29.3	0.00e+00	0	38	0	2197815296	30	6040
2026-01-07 16:42:13.91	60.14	71.96	-28.9	-29.5	29.3	0.00e+00	0	38	0	2204106752	30	6081
2026-01-07 16:42:14.78	61.05	72.28	-28.8	-29.5	29.3	0.00e+00	0	38	0	2209349632	30	6038
2026-01-07 16:42:15.94	62.33	72.69	-28.2	-28.8	29.6	0.00e+00	0	38	0	2215641088	30	5591
2026-01-07 16:42:16.80	63.31	72.99	-28.1	-28.7	29.7	0.00e+00	0	38	0	2219835392	30	5546
2026-01-07 16:42:17.96	64.71	73.38	-28.5	-29.2	29.4	0.00e+00	0	38	0	2226126848	30	5830
2026-01-07 16:42:18.82	65.78	73.67	-28.7	-29.3	29.3	0.00e+00	0	38	0	2231369728	30	5932
2026-01-07 16:42:19.98	67.30	74.06	-28.6	-29.2	29.3	0.00e+00	0	38	0	2237661184	30	5860
2026-01-07 16:42:20.84	68.47	74.33	-28.3	-28.9	29.4	0.00e+00	0	38	0	2242904064	30	5639
2026-01-07 16:42:22.00	70.12	74.70	-28.5	-29.0	29.5	0.00e+00	0	38	0	2249195520	30	5759
2026-01-07 16:42:22.86	71.40	74.96	-28.1	-28.7	29.6	0.00e+00	0	38	0	2254438400	30	5558
2026-01-07 16:42:24.02	73.19	75.31	-27.8	-28.4	30.0	0.00e+00	0	38	0	2260729856	30	5324
2026-01-07 16:42:24.88	74.58	75.55	-27.8	-28.4	29.9	0.00e+00	0	38	0	2265972736	28	5973
2026-01-07 16:42:26.04	76.53	75.87	-28.1	-28.8	29.7	0.00e+00	0	38	0	2272264192	28	6259
2026-01-07 16:42:26.90	78.04	76.10	-28.3	-28.9	29.6	0.00e+00	0	38	0	2276458496	28	6350
2026-01-07 16:42:28.05	80.13	76.38	-28.1	-28.7	29.7	0.00e+00	0	38	0	2283798528	28	6234
2026-01-07 16:42:28.92	81.77	76.59	-28.0	-28.7	29.8	0.00e+00	0	38	0	2287992832	28	6179
2026-01-07 16:42:30.07	84.02	76.85	-28.0	-28.6	29.8	0.00e+00	0	38	0	2295332864	28	6147
2026-01-07 16:42:30.94	85.78	77.03	-27.7	-28.3	29.8	0.00e+00	0	38	0	2299527168	28	5951
2026-01-07 16:42:32.10	88.20	77.25	-27.7	-28.3	30.0	0.00e+00	0	38	0	2305818624	28	5957
2026-01-07 16:42:32.96	90.05	77.40	-28.3	-28.9	29.6	0.00e+00	0	38	0	2311061504	28	6356
2026-01-07 16:42:34.11	92.59	77.58	-27.8	-28.4	29.8	0.00e+00	0	38	0	2317352960	28	6019
2026-01-07 16:42:34.98	94.57	77.70	-28.0	-28.6	29.7	0.00e+00	0	38	0	2322595840	28	6104
2026-01-07 16:42:36.13	97.23	77.84	-28.3	-28.9	29.6	0.00e+00	0	38	0	2328887296	28	6351
2026-01-07 16:42:37.00	99.28	77.93	-28.3	-28.9	29.6	0.00e+00	0	38	0	2334130176	28	6357
2026-01-07 16:42:38.15	102.04	78.02	-28.0	-28.7	29.7	0.00e+00	0	38	0	2340421632	28	6181
2026-01-07 16:42:39.02	104.15	78.07	-28.0	-28.6	29.8	0.00e+00	0	38	0	2344615936	28	6162
2026-01-07 16:42:40.17	106.96	78.11	-28.1	-28.7	29.6	0.00e+00	0	38	0	2351955968	28	6184
2026-01-07 16:42:41.04	109.10	78.13	-28.1	-28.6	29.7	0.00e+00	0	38	0	2356150272	28	6144
2026-01-07 16:42:42.19	111.93	78.12	-28.0	-28.7	29.7	0.00e+00	0	38	0	2363490304	28	6200
2026-01-07 16:42:43.06	114.06	78.10	-27.8	-28.4	29.9	0.00e+00	0	38	0	2367684608	28	6003
2026-01-07 16:42:44.21	116.86	78.04	-28.0	-28.6	29.7	0.00e+00	0	38	0	2373976064	28	6137
2026-01-07 16:42:45.08	118.96	77.98	-28.0	-28.6	29.6	0.00e+00	0	38	0	2379218944	28	6117
2026-01-07 16:42:46.23	121.70	77.88	-27.7	-28.3	29.7	0.00e+00	0	38	0	2385510400	28	5944
2026-01-07 16:42:47.10	123.73	77.78	-27.7	-28.2	29.8	0.00e+00	0	38	0	2390753280	28	5875
2026-01-07 16:42:48.25	126.37	77.63	-28.0	-28.7	29.4	0.00e+00	0	38	0	2397044736	28	6182
2026-01-07 16:42:49.12	128.32	77.50	-28.0	-28.6	29.7	0.00e+00	0	38	0	2402287616	28	6141
2026-01-07 16:42:50.27	130.83	77.31	-27.8	-28.4	29.8	0.00e+00	0	38	0	2408579072	28	5970
2026-01-07 16:42:51.13	132.65	77.15	-27.8	-28.5	29.8	0.00e+00	0	38	0	2413821952	28	6048
2026-01-07 16:42:52.29	135.03	76.92	-27.8	-28.4	29.9	0.00e+00	0	38	0	2420113408	28	6017
2026-01-07 16:42:53.15	136.75	76.74	-27.8	-28.4	29.8	0.00e+00	0	38	0	2424307712	28	5978
2026-01-07 16:42:54.31	138.97	76.47	-27.7	-28.3	30.0	0.00e+00	0	38	0	2430599168	28	5908
2026-01-07 16:42:55.17	140.57	76.26	-27.7	-28.2	30.0	0.00e+00	0	38	0	2435842048	28	5878
2026-01-07 16:42:56.33	142.64	75.96	-28.0	-28.6	29.7	0.00e+00	0	38	0	2442133504	28	6149
2026-01-07 16:42:57.19	144.11	75.73	-28.1	-28.8	29.7	0.00e+00	0	38	0	2447376384	28	6288
2026-01-07 16:42:58.35	146.02	75.40	-27.8	-28.5	29.9	0.00e+00	0	38	0	2453667840	28	6049
2026-01-07 16:42:59.21	147.38	75.15	-27.9	-28.6	29.8	0.00e+00	0	38	0	2458910720	28	6129
2026-01-07 16:43:00.37	149.14	74.80	-28.4	-29.0	29.4	0.00e+00	0	38	0	2465202176	28	6435
2026-01-07 16:43:01.23	150.39	74.53	-28.6	-29.2	29.3	0.00e+00	0	38	0	2470445056	28	6593
2026-01-07 16:43:02.39	152.01	74.16	-28.2	-28.9	29.6	0.00e+00	0	38	0	2476736512	28	6335
2026-01-07 16:43:03.25	153.15	73.88	-28.4	-29.0	29.4	0.00e+00	0	38	0	2480930816	28	6449
2026-01-07 16:43:04.41	154.64	73.49	-28.5	-29.1	29.4	0.00e+00	0	38	0	2488270848	28	6478
2026-01-07 16:43:05.28	155.70	73.20	-28.5	-29.0	29.5	0.00e+00	0	38	0	2492465152	28	6460
2026-01-07 16:43:06.43	157.05	72.80	-28.7	-29.4	29.3	0.00e+00	0	38	0	2499805184	28	6747
2026-01-07 16:43:07.29	158.02	72.50	-28.8	-29.5	29.1	0.00e+00	0	38	0	2503999488	30	6048
2026-01-07 16:43:08.45	159.27	72.08	-28.8	-29.4	29.2	0.00e+00	0	38	0	2510290944	30	6032
2026-01-07 16:43:09.32	160.16	71.77	-29.0	-29.5	29.1	0.00e+00	0	38	0	2515533824	30	6088
2026-01-07 16:43:10.47	161.30	71.35	-28.7	-29.3	29.3	0.00e+00	0	38	0	2521825280	30	5946
2026-01-07 16:43:11.33	162.11	71.03	-28.6	-29.1	29.4	0.00e+00	0	38	0	2527068160	30	5828
2026-01-07 16:43:12.48	163.16	70.60	-28.8	-29.4	29.2	0.00e+00	0	38	0	2533359616	30	5971
2026-01-07 16:43:13.35	163.92	70.27	-28.6	-29.2	29.4	0.00e+00	0	38	0	2538602496	30	5863
2026-01-07 16:43:14.50	164.88	69.84	-28.6	-29.2	29.4	0.00e+00	0	38	0	2544893952	30	5879
2026-01-07 16:43:15.37	165.58	69.51	-28.8	-29.4	29.2	0.00e+00	0	38	0	2549088256	30	6015
2026-01-07 16:43:16.52	166.47	69.07	-29.3	-29.9	28.9	0.00e+00	0	38	0	2556428288	30	6385
2026-01-07 16:43:17.38	167.11	68.74	-29.3	-29.9	28.9	0.00e+00	0	38	0	2560622592	30	6363
2026-01-07 16:43:18.54	167.94	68.29	-29.2	-29.8	29.1	0.00e+00	0	38	0	2567962624	30	6257
2026-01-07 16:43:19.40	168.53	67.95	-29.0	-29.6	29.1	0.00e+00	0	38	0	2572156928	30	6120
2026-01-07 16:43:20.56	169.29	67.50	-29.2	-29.7	29.0	0.00e+00	0	38	0	2578448384	30	6225
2026-01-07 16:43:21.42	169.84	67.17	-29.2	-29.8	29.0	0.00e+00	0	38	0	2583691264	30	6276
2026-01-07 16:43:22.57	170.55	66.72	-29.0	-29.6	29.1	0.00e+00	0	38	0	2589982720	30	6111
2026-01-07 16:43:23.44	171.06	66.38	-29.1	-29.6	29.1	0.00e+00	0	38	0	2595225600	30	6158
2026-01-07 16:43:24.60	171.72	65.93	-29.4	-30.0	29.0	0.00e+00	0	38	0	2601517056	30	6435
2026-01-07 16:43:25.46	172.19	65.59	-29.0	-29.6	29.0	0.00e+00	0	38	0	2606759936	30	6172
2026-01-07 16:43:26.61	172.80	65.14	-28.9	-29.5	29.2	0.00e+00	0	38	0	2613051392	30	6095
2026-01-07 16:43:27.48	173.25	64.80	-29.1	-29.8	29.0	0.00e+00	0	38	0	2618294272	30	6256
2026-01-07 16:43:28.64	173.82	64.35	-29.3	-30.0	29.0	0.00e+00	0	38	0	2624585728	30	6391
2026-01-07 16:43:29.50	174.23	64.01	-29.2	-29.8	29.0	0.00e+00	0	38	0	2628780032	30	6266
2026-01-07 16:43:30.65	174.77	63.57	-29.2	-29.7	29.1	0.00e+00	0	38	0	2635071488	30	6239
2026-01-07 16:43:31.52	175.16	63.23	-29.4	-30.0	28.9	0.00e+00	0	38	0	2640314368	30	6423
2026-01-07 16:43:32.68	175.66	62.78	-29.5	-30.1	28.8	0.00e+00	0	38	0	2646605824	30	6507
2026-01-07 16:43:33.54	176.02	62.44	-29.6	-30.2	28.7	0.00e+00	0	38	0	2651848704	30	6615
2026-01-07 16:43:34.69	176.49	62.00	-29.6	-30.2	28.7	0.00e+00	0	38	0	2658140160	30	6581
2026-01-07 16:43:35.56	176.83	61.66	-29.7	-30.3	28.5	0.00e+00	0	38	0	2663383040	30	6659
2026-01-07 16:43:36.72	177.27	61.22	-30.0	-30.7	28.5	0.00e+00	0	38	0	2669674496	32	6181
2026-01-07 16:43:37.58	177.59	60.89	-29.9	-30.5	28.5	0.00e+00	0	38	0	2674917376	32	6093
2026-01-07 16:43:38.74	178.00	60.45	-30.1	-30.7	28.3	0.00e+00	0	38	0	2681208832	32	6228
2026-01-07 16:43:39.60	178.30	60.12	-30.2	-30.8	28.3	0.00e+00	0	38	0	2685403136	32	6316
2026-01-07 16:43:40.76	178.70	59.68	-30.3	-30.8	28.0	0.00e+00	0	38	0	2692743168	32	6293
2026-01-07 16:43:41.62	178.98	59.35	-30.3	-31.0	28.1	0.00e+00	0	38	0	2696937472	32	6438
2026-01-07 16:43:42.78	179.35	58.92	-30.6	-31.3	27.9	0.00e+00	0	38	0	2704277504	32	6649
2026-01-07 16:43:43.64	179.61	58.60	-30.5	-31.2	28.0	0.00e+00	0	38	0	2708471808	34	5878
2026-01-07 16:43:44.80	179.96	58.16	-30.3	-30.8	28.2	0.00e+00	0	38	0	2714763264	34	5626
2026-01-07 16:43:45.66	180.22	57.85	-30.2	-30.7	28.2	0.00e+00	0	38	0	2720006144	34	5546
2026-01-07 16:43:46.82	180.55	57.42	-30.2	-30.7	28.3	0.00e+00	0	38	0	2726297600	34	5552
2026-01-07 16:43:47.69	180.79	57.10	-30.3	-31.0	28.1	0.00e+00	0	38	0	2731540480	34	5701
2026-01-07 16:43:48.84	181.10	56.68	-30.7	-31.4	27.8	0.00e+00	0	38	0	2737831936	34	6000
2026-01-07 16:43:49.71	181.33	56.36	-30.8	-31.5	27.8	0.00e+00	0	38	0	2743074816	34	6035
2026-01-07 16:43:50.86	181.62	55.94	-30.6	-31.3	27.9	0.00e+00	0	38	0	2749366272	34	5912
2026-01-07 16:43:51.73	181.84	55.63	-30.5	-31.0	28.0	0.00e+00	0	38	0	2754609152	34	5744
2026-01-07 16:43:52.89	182.13	55.21	-30.4	-31.1	28.1	0.00e+00	0	38	0	2760900608	34	5798
2026-01-07 16:43:53.75	182.33	54.91	-30.7	-31.2	27.6	0.00e+00	0	38	0	2765094912	34	5868
2026-01-07 16:43:54.91	182.60	54.49	-30.7	-31.4	27.7	0.00e+00	0	38	0	2771386368	34	6006
2026-01-07 16:43:55.77	182.79	54.19	-30.8	-31.5	27.6	0.00e+00	0	38	0	2776629248	34	6098
2026-01-07 16:43:56.93	183.05	53.78	-30.6	-31.2	26.9	0.00e+00	0	38	0	2782920704	34	5833
2026-01-07 16:43:57.79	183.24	53.48	-30.5	-31.1	27.5	0.00e+00	0	38	0	2788163584	34	5778
2026-01-07 16:43:58.94	183.48	53.09	-30.7	-31.3	27.4	0.00e+00	0	38	0	2794455040	34	5910
2026-01-07 16:43:59.81	183.66	52.79	-30.9	-31.6	27.6	0.00e+00	0	38	0	2799697920	34	6107
2026-01-07 16:44:00.96	183.89	52.39	-30.9	-31.4	27.7	0.00e+00	0	38	0	2805989376	34	6020
2026-01-07 16:44:01.83	184.06	52.10	-30.6	-31.3	28.1	0.00e+00	0	38	0	2811232256	34	5908
2026-01-07 16:44:02.98	184.28	51.71	-30.3	-30.8	28.3	0.00e+00	0	38	0	2817523712	34	5604
2026-01-07 16:44:03.85	184.44	51.41	-30.1	-30.6	28.3	0.00e+00	0	38	0	2822766592	34	5499
2026-01-07 16:44:05.00	184.65	51.03	-30.3	-30.9	28.2	0.00e+00	0	38	0	2829058048	34	5687
2026-01-07 16:44:05.87	184.81	50.74	-30.3	-31.0	28.1	0.00e+00	0	38	0	2833252352	34	5761
2026-01-07 16:44:07.02	185.01	50.36	-30.6	-31.3	28.0	0.00e+00	0	38	0	2839543808	34	5934
2026-01-07 16:44:07.88	185.16	50.08	-30.8	-31.5	27.9	0.00e+00	0	38	0	2844786688	34	6071
2026-01-07 16:44:09.04	185.36	49.70	-30.6	-31.3	27.9	0.00e+00	0	38	0	2851078144	34	5961
2026-01-07 16:44:09.90	185.50	49.42	-30.3	-31.0	28.3	0.00e+00	0	38	0	2856321024	34	5719
2026-01-07 16:44:11.06	185.69	49.05	-30.1	-30.8	28.3	0.00e+00	0	38	0	2862612480	34	5574
2026-01-07 16:44:11.93	185.82	48.77	-29.7	-30.3	28.6	0.00e+00	0	38	0	2867855360	32	5897
2026-01-07 16:44:13.08	186.00	48.41	-29.6	-30.2	28.9	0.00e+00	0	38	0	2874146816	32	5896
2026-01-07 16:44:13.94	186.13	48.14	-29.6	-30.3	28.7	0.00e+00	0	38	0	2879389696	32	5930
2026-01-07 16:44:15.10	186.31	47.77	-29.7	-30.2	28.7	0.00e+00	0	38	0	2885681152	32	5887
2026-01-07 16:44:15.96	186.43	47.50	-29.7	-30.3	28.7	0.00e+00	0	38	0	2889875456	32	5957
2026-01-07 16:44:17.12	186.60	47.15	-29.6	-30.2	28.7	0.00e+00	0	38	0	2897215488	32	5848
2026-01-07 16:44:17.98	186.72	46.88	-29.6	-30.2	28.7	0.00e+00	0	38	0	2901409792	32	5890
2026-01-07 16:44:19.14	186.88	46.53	-29.5	-30.2	28.6	0.00e+00	0	38	0	2908749824	32	5877
2026-01-07 16:44:20.00	187.00	46.27	-29.5	-30.0	28.8	0.00e+00	0	38	0	2912944128	32	5715
2026-01-07 16:44:21.16	187.15	45.92	-29.5	-30.1	28.8	0.00e+00	0	38	0	2919235584	32	5770
2026-01-07 16:44:22.02	187.26	45.66	-29.5	-30.2	28.7	0.00e+00	0	38	0	2924478464	32	5848
2026-01-07 16:44:23.17	187.41	45.32	-29.6	-30.3	28.7	0.00e+00	0	38	0	2930769920	32	5911
2026-01-07 16:44:24.04	187.52	45.06	-29.8	-30.5	28.6	0.00e+00	0	38	0	2936012800	32	6061
2026-01-07 16:44:25.19	187.66	44.73	-29.9	-30.6	28.5	0.00e+00	0	38	0	2942304256	32	6116
2026-01-07 16:44:26.06	187.77	44.48	-29.8	-30.5	28.5	0.00e+00	0	38	0	2947547136	32	6079
2026-01-07 16:44:27.21	187.90	44.14	-29.7	-30.3	28.7	0.00e+00	0	38	0	2953838592	32	5906
2026-01-07 16:44:28.08	188.00	43.89	-29.9	-30.4	28.6	0.00e+00	0	38	0	2959081472	32	6009
2026-01-07 16:44:29.23	188.14	43.57	-29.6	-30.2	28.7	0.00e+00	0	38	0	2965372928	32	5894
2026-01-07 16:44:30.10	188.23	43.32	-29.5	-30.1	28.8	0.00e+00	0	38	0	2969567232	32	5769
2026-01-07 16:44:31.25	188.36	43.00	-29.5	-30.2	28.7	0.00e+00	0	38	0	2975858688	32	5832
2026-01-07 16:44:32.12	188.46	42.76	-29.6	-30.3	28.6	0.00e+00	0	38	0	2981101568	32	5952
2026-01-07 16:44:33.27	188.58	42.44	-29.9	-30.4	28.5	0.00e+00	0	38	0	2987393024	32	6029
2026-01-07 16:44:34.14	188.67	42.20	-29.8	-30.3	28.6	0.00e+00	0	38	0	2992635904	32	5944
2026-01-07 16:44:35.29	188.79	41.89	-29.6	-30.1	28.8	0.00e+00	0	38	0	2998927360	32	5796
2026-01-07 16:44:36.16	188.88	41.65	-29.5	-30.2	28.7	0.00e+00	0	38	0	3004170240	32	5873
2026-01-07 16:44:37.31	189.00	41.34	-29.7	-30.4	28.6	0.00e+00	0	38	0	3010461696	32	5968
2026-01-07 16:44:38.18	189.08	41.11	-29.5	-30.2	28.7	0.00e+00	0	38	0	3015704576	32	5849
2026-01-07 16:44:39.33	189.20	40.80	-29.5	-30.2	28.8	0.00e+00	0	38	0	3021996032	32	5830
2026-01-07 16:44:40.20	189.28	40.58	-29.2	-29.9	28.9	0.00e+00	0	38	0	3027238912	32	5671
2026-01-07 16:44:41.35	189.39	40.27	-29.4	-30.0	28.9	0.00e+00	0	38	0	3033530368	32	5715
2026-01-07 16:44:42.22	189.47	40.05	-29.4	-30.0	28.8	0.00e+00	0	38	0	3037724672	32	5724
2026-01-07 16:44:43.37	189.57	39.75	-29.4	-30.1	28.8	0.00e+00	0	38	0	3044016128	32	5776
2026-01-07 16:44:44.24	189.65	39.53	-29.8	-30.4	28.6	0.00e+00	0	38	0	3049259008	32	5971
2026-01-07 16:44:45.39	189.75	39.24	-29.6	-30.3	28.6	0.00e+00	0	38	0	3055550464	32	5904
2026-01-07 16:44:46.26	189.83	39.02	-29.2	-29.8	28.9	0.00e+00	0	38	0	3060793344	32	5576
2026-01-07 16:44:47.41	189.93	38.73	-29.1	-29.7	29.0	0.00e+00	0	38	0	3067084800	32	5520
2026-01-07 16:44:48.28	190.00	38.51	-29.1	-29.7	29.0	0.00e+00	0	38	0	3072327680	32	5557
2026-01-07 16:44:49.43	190.10	38.23	-29.2	-29.7	29.0	0.00e+00	0	38	0	3078619136	32	5528
2026-01-07 16:44:50.30	190.17	38.02	-29.1	-29.6	29.0	0.00e+00	0	38	0	3083862016	32	5469
2026-01-07 16:44:51.45	190.26	37.74	-29.1	-29.7	29.0	0.00e+00	0	38	0	3090153472	32	5515
2026-01-07 16:44:52.32	190.33	37.53	-29.1	-29.6	29.0	0.00e+00	0	38	0	3094347776	32	5502
2026-01-07 16:44:53.47	190.43	37.25	-29.1	-29.7	29.0	0.00e+00	0	38	0	3101687808	32	5518
2026-01-07 16:44:54.34	190.49	37.04	-29.2	-29.7	29.0	0.00e+00	0	38	0	3105882112	32	5536
2026-01-07 16:44:55.49	190.58	36.77	-29.0	-29.6	29.1	0.00e+00	0	38	0	3113222144	32	5499
2026-01-07 16:44:56.36	190.65	36.57	-29.1	-29.8	29.0	0.00e+00	0	38	0	3117416448	32	5597
2026-01-07 16:44:57.51	190.73	36.30	-29.1	-29.8	28.9	0.00e+00	0	38	0	3123707904	32	5592
2026-01-07 16:44:58.38	190.80	36.10	-29.1	-29.8	29.0	0.00e+00	0	38	0	3128950784	32	5611
2026-01-07 16:44:59.54	190.88	35.83	-29.2	-29.9	28.9	0.00e+00	0	38	0	3135242240	32	5666
2026-01-07 16:45:00.40	190.94	35.63	-29.3	-30.0	28.8	0.00e+00	0	38	0	3140485120	32	5716
2026-01-07 16:45:01.56	191.03	35.37	-29.5	-30.2	28.8	0.00e+00	0	38	0	3146776576	32	5843
2026-01-07 16:45:02.42	191.09	35.18	-29.6	-30.3	28.6	0.00e+00	0	38	0	3152019456	32	5962
2026-01-07 16:45:03.58	191.17	34.92	-29.6	-30.4	28.5	0.00e+00	0	38	0	3158310912	32	5973
2026-01-07 16:45:04.44	191.22	34.73	-29.7	-30.5	28.5	0.00e+00	0	38	0	3163553792	32	6043
2026-01-07 16:45:05.60	191.30	34.47	-29.9	-30.4	28.4	0.00e+00	0	38	0	3169845248	32	6014
2026-01-07 16:45:06.46	191.36	34.28	-29.6	-30.1	28.6	0.00e+00	0	38	0	3174039552	32	5812
2026-01-07 16:45:07.62	191.43	34.03	-29.7	-30.2	28.6	0.00e+00	0	38	0	3180331008	32	5865
2026-01-07 16:45:08.48	191.49	33.84	-29.7	-30.4	28.5	0.00e+00	0	38	0	3185573888	32	5994
2026-01-07 16:45:09.64	191.56	33.60	-29.5	-30.2	28.6	0.00e+00	0	38	0	3191865344	32	5846
2026-01-07 16:45:10.50	191.62	33.41	-29.5	-30.2	28.6	0.00e+00	0	38	0	3197108224	32	5839
2026-01-07 16:45:11.66	191.69	33.17	-29.5	-30.0	28.7	0.00e+00	0	38	0	3203399680	32	5733
2026-01-07 16:45:12.52	191.74	32.99	-29.3	-29.8	28.9	0.00e+00	0	38	0	3208642560	32	5589
2026-01-07 16:45:13.68	191.81	32.74	-29.5	-30.0	28.8	0.00e+00	0	38	0	3214934016	32	5728
2026-01-07 16:45:14.54	191.87	32.57	-29.4	-29.9	28.8	0.00e+00	0	38	0	3220176896	32	5671
2026-01-07 16:45:15.70	191.94	32.33	-29.4	-29.9	28.8	0.00e+00	0	38	0	3226468352	32	5688
2026-01-07 16:45:16.56	191.99	32.15	-29.6	-30.1	28.7	0.00e+00	0	38	0	3230662656	32	5789
2026-01-07 16:45:17.72	192.05	31.92	-29.6	-30.2	28.7	0.00e+00	0	38	0	3238002688	32	5835
2026-01-07 16:45:18.58	192.10	31.74	-29.8	-30.3	28.5	0.00e+00	0	38	0	3242196992	32	5949
2026-01-07 16:45:19.74	192.17	31.51	-29.7	-30.3	28.5	0.00e+00	0	38	0	3249537024	32	5914
2026-01-07 16:45:20.60	192.22	31.34	-29.8	-30.4	28.4	0.00e+00	0	38	0	3253731328	32	5976
2026-01-07 16:45:21.75	192.28	31.11	-29.9	-30.5	28.5	0.00e+00	0	38	0	3260022784	32	6040
2026-01-07 16:45:22.62	192.33	30.94	-29.9	-30.5	28.3	0.00e+00	0	38	0	3265265664	32	6041
2026-01-07 16:45:23.77	192.39	30.72	-29.9	-30.4	28.3	0.00e+00	0	38	0	3271557120	32	6022
2026-01-07 16:45:24.64	192.44	30.55	-29.9	-30.4	28.4	0.00e+00	0	38	0	3276800000	32	6005
2026-01-07 16:45:25.79	192.50	30.33	-29.9	-30.5	28.4	0.00e+00	0	38	0	3283091456	32	6038
2026-01-07 16:45:26.66	192.54	30.16	-29.9	-30.4	28.5	0.00e+00	0	38	0	3288334336	32	6028
2026-01-07 16:45:27.81	192.60	29.94	-30.0	-30.5	28.4	0.00e+00	0	38	0	3294625792	32	6078
2026-01-07 16:45:28.68	192.65	29.78	-29.8	-30.4	28.4	0.00e+00	0	38	0	3299868672	32	5975
2026-01-07 16:45:29.83	192.70	29.56	-29.9	-30.4	28.4	0.00e+00	0	38	0	3306160128	32	6012
2026-01-07 16:45:30.69	192.75	29.40	-29.9	-30.4	28.3	0.00e+00	0	38	0	3310354432	32	6004
2026-01-07 16:45:31.85	192.80	29.19	-29.9	-30.5	28.4	0.00e+00	0	38	0	3317694464	32	6039
2026-01-07 16:45:32.71	192.85	29.03	-29.9	-30.4	28.4	0.00e+00	0	38	0	3321888768	32	6029
2026-01-07 16:45:33.87	192.90	28.82	-29.8	-30.3	28.5	0.00e+00	0	38	0	3328180224	32	5955
2026-01-07 16:45:34.73	192.94	28.66	-29.8	-30.3	28.5	0.00e+00	0	38	0	3333423104	32	5963
2026-01-07 16:45:35.89	193.00	28.45	-29.8	-30.3	28.5	0.00e+00	0	38	0	3339714560	32	5960
2026-01-07 16:45:36.75	193.04	28.30	-29.9	-30.5	28.4	0.00e+00	0	38	0	3344957440	32	6034
2026-01-07 16:45:37.91	193.09	28.09	-29.9	-30.5	28.4	0.00e+00	0	38	0	3351248896	32	6067
2026-01-07 16:45:38.77	193.13	27.94	-29.9	-30.5	28.5	0.00e+00	0	38	0	3356491776	32	6061
2026-01-07 16:45:39.93	193.19	27.73	-30.0	-30.6	28.3	0.00e+00	0	38	0	3362783232	32	6113
2026-01-07 16:45:40.79	193.22	27.58	-29.9	-30.4	28.5	0.00e+00	0	38	0	3368026112	32	6006
2026-01-07 16:45:41.94	193.28	27.38	-30.0	-30.5	28.4	0.00e+00	0	38	0	3374317568	32	6092
2026-01-07 16:45:42.81	193.31	27.23	-29.9	-30.5	28.4	0.00e+00	0	38	0	3378511872	32	6043
2026-01-07 16:45:43.96	193.36	27.04	-29.9	-30.6	28.4	0.00e+00	0	38	0	3384803328	32	6112
2026-01-07 16:45:44.83	193.40	26.89	-29.8	-30.5	28.5	0.00e+00	0	38	0	3390046208	32	6085
2026-01-07 16:45:45.98	193.45	26.69	-29.7	-30.3	28.5	0.00e+00	0	38	0	3396337664	32	5916
2026-01-07 16:45:46.85	193.49	26.55	-29.8	-30.3	28.5	0.00e+00	0	38	0	3401580544	32	5932
2026-01-07 16:45:48.00	193.54	26.35	-29.7	-30.2	28.5	0.00e+00	0	38	0	3407872000	32	5890
2026-01-07 16:45:48.87	193.57	26.21	-29.6	-30.3	28.6	0.00e+00	0	38	0	3413114880	32	5928
2026-01-07 16:45:50.02	193.62	26.02	-29.7	-30.4	28.5	0.00e+00	0	38	0	3419406336	32	6003
2026-01-07 16:45:50.88	193.66	25.88	-29.8	-30.5	28.4	0.00e+00	0	38	0	3424649216	32	6047
2026-01-07 16:45:52.04	193.70	25.69	-29.9	-30.5	28.4	0.00e+00	0	38	0	3430940672	32	6093
2026-01-07 16:45:52.91	193.74	25.55	-29.8	-30.5	28.5	0.00e+00	0	38	0	3435134976	32	6066
2026-01-07 16:45:54.06	193.78	25.36	-29.9	-30.6	28.4	0.00e+00	0	38	0	3442475008	32	6118
2026-01-07 16:45:54.93	193.82	25.22	-30.1	-30.8	28.2	0.00e+00	0	38	0	3446669312	32	6255
2026-01-07 16:45:56.08	193.86	25.04	-30.0	-30.7	28.3	0.00e+00	0	38	0	3454009344	32	6217
2026-01-07 16:45:56.94	193.90	24.90	-30.2	-30.9	28.2	0.00e+00	0	38	0	3458203648	32	6357
2026-01-07 16:45:58.10	193.94	24.72	-30.2	-30.9	28.3	0.00e+00	0	38	0	3464495104	32	6342
2026-01-07 16:45:58.96	193.97	24.59	-30.3	-31.0	28.1	0.00e+00	0	38	0	3469737984	32	6446
2026-01-07 16:46:00.12	194.02	24.41	-30.3	-31.0	28.1	0.00e+00	0	38	0	3476029440	32	6428
2026-01-07 16:46:00.98	194.05	24.27	-30.4	-31.1	28.0	0.00e+00	0	38	0	3481272320	32	6487
2026-01-07 16:46:02.14	194.09	24.09	-30.5	-31.2	28.0	0.00e+00	0	38	0	3487563776	32	6553
2026-01-07 16:46:03.00	194.12	23.96	-30.6	-31.3	27.9	0.00e+00	0	38	0	3492806656	32	6639
2026-01-07 16:46:04.16	194.16	23.79	-30.5	-31.2	27.9	0.00e+00	0	38	0	3499098112	32	6603
2026-01-07 16:46:05.02	194.20	23.66	-30.5	-31.2	27.9	0.00e+00	0	38	0	3503292416	32	6590
2026-01-07 16:46:06.17	194.24	23.48	-30.7	-31.4	27.8	0.00e+00	0	38	0	3510632448	32	6716
2026-01-07 16:46:07.04	194.27	23.35	-30.6	-31.3	27.9	0.00e+00	0	38	0	3514826752	32	6629
2026-01-07 16:46:08.20	194.31	23.18	-30.6	-31.2	27.9	0.00e+00	0	38	0	3522166784	32	6563
2026-01-07 16:46:09.06	194.34	23.06	-30.7	-31.2	27.9	0.00e+00	0	38	0	3526361088	34	5880
2026-01-07 16:46:10.22	194.38	22.89	-30.6	-31.2	27.9	0.00e+00	0	38	0	3532652544	34	5841
2026-01-07 16:46:11.08	194.41	22.76	-30.5	-31.0	28.0	0.00e+00	0	38	0	3537895424	34	5735
2026-01-07 16:46:12.23	194.45	22.59	-30.6	-31.2	27.9	0.00e+00	0	38	0	3544186880	34	5834
2026-01-07 16:46:13.10	194.47	22.47	-30.5	-31.1	28.0	0.00e+00	0	38	0	3549429760	34	5791
2026-01-07 16:46:14.26	194.51	22.30	-30.6	-31.2	27.9	0.00e+00	0	38	0	3555721216	34	5838
2026-01-07 16:46:15.12	194.54	22.18	-30.4	-31.0	28.0	0.00e+00	0	38	0	3560964096	34	5722
2026-01-07 16:46:16.27	194.58	22.02	-30.6	-31.2	27.9	0.00e+00	0	38	0	3567255552	34	5836
2026-01-07 16:46:17.14	194.61	21.89	-30.5	-31.1	27.9	0.00e+00	0	38	0	3572498432	34	5787
2026-01-07 16:46:18.30	194.65	21.73	-30.6	-31.2	27.8	0.00e+00	0	38	0	3578789888	34	5829
2026-01-07 16:46:19.16	194.67	21.61	-30.5	-31.1	27.9	0.00e+00	0	38	0	3582984192	34	5778
2026-01-07 16:46:20.32	194.71	21.45	-30.7	-31.3	27.7	0.00e+00	0	38	0	3589275648	34	5907
2026-01-07 16:46:21.18	194.74	21.33	-30.6	-31.2	27.9	0.00e+00	0	38	0	3594518528	34	5831
2026-01-07 16:46:22.34	194.77	21.17	-30.7	-31.2	27.8	0.00e+00	0	38	0	3600809984	34	5860
2026-01-07 16:46:23.20	194.80	21.05	-30.7	-31.2	27.8	0.00e+00	0	38	0	3606052864	34	5889
2026-01-07 16:46:24.36	194.83	20.90	-30.7	-31.2	27.8	0.00e+00	0	38	0	3612344320	34	5895
2026-01-07 16:46:25.22	194.86	20.78	-30.7	-31.3	27.8	0.00e+00	0	38	0	3617587200	34	5922
2026-01-07 16:46:26.38	194.90	20.62	-30.8	-31.3	27.7	0.00e+00	0	38	0	3623878656	34	5931
2026-01-07 16:46:27.24	194.92	20.51	-30.8	-31.4	27.7	0.00e+00	0	38	0	3629121536	34	5991
2026-01-07 16:46:28.40	194.96	20.35	-30.9	-31.5	27.6	0.00e+00	0	38	0	3635412992	34	6048
2026-01-07 16:46:29.26	194.98	20.24	-30.9	-31.4	27.6	0.00e+00	0	38	0	3639607296	34	6029
