passes_logs/2026/01/07/R4.6S_Anadyr/R4.6S_Anadyr__20260107_221902_TY-39_rec.log

#Pass ID: 20260107_221902_TY-39
#Satellite: TY-39
#Configuration: TY-39
#almurnet v.1.7.20251203
#Start time: 2026-01-07 22:19:06

#Version: 2.2.20231116
#Station: R4.6S_Anadyr
#Location: 177.4865 lon 64.73178 lat
#TLE: 1 51832U 22019J   26005.60812338  .00003126  00000-0  14986-3 0  9990
#TLE: 2 51832  97.3660  72.5273 0010440  80.2600 279.9813 15.19590096213104

#Time	Az	El	Level	Level2	SNR	BER	BlckErr	Temp	State	Recorded	gain1	gain2
2026-01-07 22:19:06.85	18.93	0.31	-49.4	-61.9	3.5	1.52e+00	0	36	0	0	60	43866
2026-01-07 22:19:07.86	18.96	0.37	-49.7	-52.2	3.6	0.00e+00	0	37	104	0	60	50086
2026-01-07 22:19:08.87	19.00	0.43	-49.8	-52.3	3.6	0.00e+00	0	37	104	0	60	50333
2026-01-07 22:19:09.88	19.04	0.50	-49.8	-52.3	3.6	0.00e+00	0	37	104	0	60	50534
2026-01-07 22:19:10.89	19.07	0.56	-49.8	-52.3	3.6	0.00e+00	0	37	104	0	60	50204
2026-01-07 22:19:11.90	19.11	0.63	-49.7	-52.2	3.6	0.00e+00	0	38	104	0	60	49633
2026-01-07 22:19:12.91	19.14	0.69	-49.7	-52.2	3.6	0.00e+00	0	37	104	0	60	49784
2026-01-07 22:19:13.92	19.18	0.76	-49.6	-52.0	3.6	0.00e+00	0	37	104	0	60	48979
2026-01-07 22:19:14.93	19.22	0.82	-49.5	-52.0	3.6	0.00e+00	0	38	104	0	60	48567
2026-01-07 22:19:15.94	19.26	0.89	-49.3	-51.8	3.6	0.00e+00	0	38	104	0	60	47657
2026-01-07 22:19:16.95	19.29	0.95	-49.2	-51.6	3.6	0.00e+00	0	38	104	0	60	46784
2026-01-07 22:19:17.96	19.33	1.02	-49.0	-51.5	3.6	0.00e+00	0	38	104	0	60	45902
2026-01-07 22:19:18.96	19.37	1.08	-48.7	-51.2	3.6	0.00e+00	0	38	104	0	60	44263
2026-01-07 22:19:19.97	19.41	1.15	-48.5	-51.0	3.6	0.00e+00	0	38	104	0	60	43310
2026-01-07 22:19:20.98	19.44	1.22	-48.5	-51.0	3.6	0.00e+00	0	38	104	0	60	43280
2026-01-07 22:19:21.99	19.48	1.28	-48.5	-51.0	3.6	0.00e+00	0	38	104	0	60	43286
2026-01-07 22:19:23.00	19.52	1.35	-48.5	-51.0	3.6	0.00e+00	0	38	104	0	60	43262
2026-01-07 22:19:24.01	19.56	1.42	-48.5	-50.9	3.6	0.00e+00	0	38	104	0	60	43187
2026-01-07 22:19:25.02	19.60	1.48	-48.5	-51.0	3.6	0.00e+00	0	38	104	0	60	43346
2026-01-07 22:19:26.03	19.64	1.55	-48.5	-50.9	3.6	0.00e+00	0	38	104	0	60	43183
2026-01-07 22:19:27.04	19.68	1.62	-48.5	-51.0	3.5	0.00e+00	0	38	104	0	60	43495
2026-01-07 22:19:28.05	19.71	1.69	-48.5	-50.9	3.6	0.00e+00	0	38	104	0	60	43163
2026-01-07 22:19:29.06	19.75	1.75	-48.5	-51.0	3.6	0.00e+00	0	38	104	0	60	43224
2026-01-07 22:19:30.07	19.79	1.82	-48.5	-51.0	3.6	0.00e+00	0	38	104	0	60	43262
2026-01-07 22:19:31.08	19.83	1.89	-48.5	-51.0	3.6	0.00e+00	0	38	104	0	60	43340
2026-01-07 22:19:32.08	19.87	1.96	-48.5	-50.9	3.6	0.00e+00	0	38	104	0	60	43193
2026-01-07 22:19:33.09	19.91	2.03	-48.5	-51.0	3.6	0.00e+00	0	38	104	0	60	43456
2026-01-07 22:19:34.10	19.96	2.09	-48.5	-51.0	3.6	0.00e+00	0	38	104	0	60	43409
2026-01-07 22:19:35.11	20.00	2.16	-48.5	-50.9	3.6	0.00e+00	0	38	104	0	60	43196
2026-01-07 22:19:36.12	20.04	2.23	-48.5	-51.0	3.6	0.00e+00	0	38	104	0	60	43277
2026-01-07 22:19:37.13	20.08	2.30	-48.5	-51.0	3.6	0.00e+00	0	38	104	0	60	43310
2026-01-07 22:19:38.14	20.12	2.37	-48.5	-51.0	3.6	0.00e+00	0	38	104	0	60	43240
2026-01-07 22:19:39.15	20.16	2.44	-48.5	-51.0	3.6	0.00e+00	0	38	104	0	60	43399
2026-01-07 22:19:40.16	20.20	2.51	-48.5	-51.0	3.6	0.00e+00	0	38	104	0	60	43511
2026-01-07 22:19:41.17	20.25	2.58	-48.5	-50.9	3.6	0.00e+00	0	38	104	0	60	43142
2026-01-07 22:19:42.18	20.29	2.65	-48.5	-51.0	3.6	0.00e+00	0	38	104	0	60	43296
2026-01-07 22:19:43.19	20.33	2.72	-48.5	-51.0	3.6	0.00e+00	0	38	104	0	60	43209
2026-01-07 22:19:44.20	20.37	2.79	-48.5	-50.9	3.6	0.00e+00	0	38	104	0	60	43172
2026-01-07 22:19:45.21	20.42	2.87	-48.5	-50.9	3.6	0.00e+00	0	38	104	0	60	43180
2026-01-07 22:19:46.22	20.46	2.94	-48.5	-50.9	3.6	0.00e+00	0	38	104	0	60	43127
2026-01-07 22:19:47.23	20.50	3.01	-48.5	-50.9	3.6	0.00e+00	0	38	104	0	60	43157
2026-01-07 22:19:48.24	20.55	3.08	-48.5	-50.9	3.6	0.00e+00	0	38	104	0	60	42941
2026-01-07 22:19:49.25	20.59	3.15	-48.5	-50.9	3.6	0.00e+00	0	38	104	0	60	43142
2026-01-07 22:19:50.26	20.64	3.23	-48.5	-51.0	3.6	0.00e+00	0	38	104	0	60	43208
2026-01-07 22:19:51.27	20.68	3.30	-48.5	-50.9	3.6	0.00e+00	0	38	104	0	60	43122
2026-01-07 22:19:52.28	20.73	3.37	-48.5	-51.0	3.6	0.00e+00	0	38	104	0	60	43298
2026-01-07 22:19:53.29	20.77	3.44	-48.5	-51.0	3.6	0.00e+00	0	38	104	0	60	43221
2026-01-07 22:19:54.30	20.82	3.52	-48.5	-51.0	3.6	0.00e+00	0	38	104	0	60	43322
2026-01-07 22:19:55.31	20.86	3.59	-48.5	-51.0	3.6	0.00e+00	0	38	104	0	60	43390
2026-01-07 22:19:56.32	20.91	3.67	-48.5	-50.9	3.6	0.00e+00	0	39	104	0	60	43127
2026-01-07 22:19:57.33	20.95	3.74	-48.5	-50.9	3.6	0.00e+00	0	39	104	0	60	43116
2026-01-07 22:19:58.34	21.00	3.81	-48.5	-50.9	3.6	0.00e+00	0	39	104	0	60	42977
2026-01-07 22:19:59.35	21.05	3.89	-48.5	-50.9	3.6	0.00e+00	0	39	104	0	60	43098
2026-01-07 22:20:00.36	21.09	3.96	-48.5	-51.0	3.6	0.00e+00	0	39	104	0	60	43243
2026-01-07 22:20:01.37	21.14	4.04	-48.5	-50.9	3.6	0.00e+00	0	39	104	0	60	43154
2026-01-07 22:20:02.38	21.19	4.11	-48.5	-50.9	3.6	0.00e+00	0	39	104	0	60	43148
2026-01-07 22:20:03.39	21.24	4.19	-48.5	-50.9	3.6	0.00e+00	0	39	104	0	60	43181
2026-01-07 22:20:04.40	21.29	4.27	-48.5	-51.0	3.6	0.00e+00	0	39	104	0	60	43483
2026-01-07 22:20:05.40	21.33	4.34	-48.5	-51.0	3.6	0.00e+00	0	39	104	0	60	43324
2026-01-07 22:20:06.41	21.38	4.42	-48.4	-50.9	3.6	0.00e+00	0	39	104	0	60	43033
2026-01-07 22:20:07.42	21.43	4.50	-48.5	-51.0	3.6	0.00e+00	0	39	104	0	60	43515
2026-01-07 22:20:08.43	21.48	4.57	-34.3	-34.5	5.8	0.00e+00	362	39	104	0	60	6537
2026-01-07 22:20:09.45	21.53	4.65	-31.7	-32.2	13.9	2.77e-05	0	39	0	16777216	36	19835
2026-01-07 22:20:10.45	21.58	4.73	-46.6	-48.3	3.9	2.08e-05	0	39	104	25165824	60	31741
2026-01-07 22:20:11.47	21.63	4.81	-32.8	-33.1	14.1	3.19e-04	0	39	0	25165824	42	15598
2026-01-07 22:20:12.48	21.68	4.88	-31.4	-31.8	14.9	2.77e-05	0	39	0	100663296	38	16918
2026-01-07 22:20:13.49	21.73	4.96	-30.5	-30.9	15.2	0.00e+00	0	39	0	176160768	36	17165
2026-01-07 22:20:14.49	21.78	5.04	-30.2	-30.6	15.4	0.00e+00	0	39	0	251658240	36	16610
2026-01-07 22:20:15.50	21.83	5.12	-30.2	-30.6	15.5	0.00e+00	0	39	0	327155712	36	16592
2026-01-07 22:20:16.51	21.89	5.20	-30.1	-30.6	15.4	0.00e+00	0	39	0	402653184	36	16435
2026-01-07 22:20:17.52	21.94	5.28	-30.1	-30.6	15.5	0.00e+00	0	39	0	478150656	36	16472
2026-01-07 22:20:18.53	21.99	5.36	-30.1	-30.6	15.5	0.00e+00	0	39	0	553648128	36	16482
2026-01-07 22:20:19.54	22.04	5.44	-29.9	-30.4	15.6	0.00e+00	0	39	0	629145600	36	16111
2026-01-07 22:20:20.55	22.10	5.52	-30.0	-30.4	15.5	0.00e+00	0	39	0	704643072	36	16205
2026-01-07 22:20:21.56	22.15	5.60	-30.0	-30.4	15.5	0.00e+00	0	39	0	780140544	36	16211
2026-01-07 22:20:22.57	22.20	5.68	-29.9	-30.3	15.6	0.00e+00	0	39	0	855638016	36	15965
2026-01-07 22:20:23.59	22.26	5.77	-29.9	-30.4	15.5	0.00e+00	0	39	0	931135488	36	16113
2026-01-07 22:20:24.60	22.31	5.85	-30.0	-30.4	15.5	0.00e+00	0	39	0	1006632960	36	16199
2026-01-07 22:20:25.61	22.37	5.93	-29.8	-30.3	15.6	0.00e+00	0	39	0	1082130432	36	15881
2026-01-07 22:20:26.62	22.42	6.01	-29.6	-30.1	15.7	0.00e+00	0	39	0	1166016512	34	17493
2026-01-07 22:20:27.63	22.48	6.10	-29.7	-30.2	15.6	0.00e+00	0	39	0	1241513984	34	17662
2026-01-07 22:20:28.64	22.53	6.18	-29.8	-30.3	15.6	0.00e+00	0	39	0	1317011456	34	17815
2026-01-07 22:20:29.65	22.59	6.26	-29.7	-30.2	15.7	0.00e+00	0	39	0	1384120320	34	17704
2026-01-07 22:20:30.66	22.65	6.35	-29.8	-30.2	15.7	0.00e+00	0	39	0	1459617792	34	17783
2026-01-07 22:20:31.67	22.70	6.43	-29.6	-30.1	15.7	0.00e+00	0	40	0	1535115264	34	17447
2026-01-07 22:20:32.68	22.76	6.52	-29.5	-30.0	15.8	0.00e+00	0	39	0	1619001344	34	17248
2026-01-07 22:20:33.69	22.82	6.60	-29.5	-29.9	15.8	0.00e+00	0	39	0	1694498816	34	17178
2026-01-07 22:20:34.70	22.88	6.69	-29.5	-29.9	15.8	0.00e+00	0	39	0	1769996288	34	17157
2026-01-07 22:20:35.71	22.94	6.77	-29.5	-30.0	15.7	0.00e+00	0	39	0	1845493760	34	17316
2026-01-07 22:20:36.72	23.00	6.86	-29.4	-29.8	15.8	0.00e+00	0	39	0	1920991232	34	17004
2026-01-07 22:20:37.73	23.06	6.94	-29.5	-29.9	15.8	0.00e+00	0	40	0	1996488704	34	17153
2026-01-07 22:20:38.74	23.12	7.03	-29.4	-29.9	15.8	0.00e+00	0	39	0	2071986176	34	17031
2026-01-07 22:20:39.75	23.18	7.12	-29.2	-29.7	15.9	0.00e+00	0	39	0	2147483648	34	16727
2026-01-07 22:20:40.76	23.24	7.21	-29.2	-29.7	15.9	0.00e+00	0	39	0	2222981120	34	16704
2026-01-07 22:20:41.77	23.30	7.29	-29.2	-29.7	15.9	0.00e+00	0	39	0	2298478592	34	16687
2026-01-07 22:20:42.78	23.36	7.38	-29.2	-29.7	15.9	0.00e+00	0	39	0	2373976064	34	16709
2026-01-07 22:20:43.79	23.42	7.47	-29.2	-29.6	15.9	0.00e+00	0	39	0	2449473536	34	16544
2026-01-07 22:20:44.79	23.48	7.56	-29.1	-29.6	15.9	0.00e+00	0	40	0	2524971008	34	16515
2026-01-07 22:20:45.80	23.55	7.65	-29.2	-29.7	15.9	0.00e+00	0	39	0	2600468480	34	16663
2026-01-07 22:20:46.81	23.61	7.74	-29.0	-29.4	16.0	0.00e+00	0	40	0	2675965952	34	16228
2026-01-07 22:20:47.82	23.67	7.83	-29.1	-29.6	15.9	0.00e+00	0	39	0	2751463424	34	16468
2026-01-07 22:20:48.83	23.74	7.92	-28.9	-29.3	16.0	0.00e+00	0	39	0	2826960896	34	16045
2026-01-07 22:20:49.83	23.80	8.01	-29.0	-29.4	16.0	0.00e+00	0	39	0	2902458368	34	16229
2026-01-07 22:20:50.84	23.87	8.10	-28.9	-29.4	16.0	0.00e+00	0	40	0	2977955840	34	16088
2026-01-07 22:20:51.85	23.93	8.19	-28.9	-29.4	16.0	0.00e+00	0	40	0	3053453312	34	16067
2026-01-07 22:20:52.86	24.00	8.29	-28.8	-29.2	16.1	0.00e+00	0	40	0	3128950784	32	17782
2026-01-07 22:20:53.87	24.06	8.38	-28.8	-29.3	16.1	0.00e+00	0	40	0	3204448256	32	17932
2026-01-07 22:20:54.88	24.13	8.47	-28.8	-29.3	16.1	0.00e+00	0	40	0	3279945728	32	17879
2026-01-07 22:20:55.88	24.20	8.57	-28.7	-29.1	16.1	0.00e+00	0	40	0	3355443200	32	17590
2026-01-07 22:20:56.89	24.27	8.66	-28.6	-29.1	16.2	0.00e+00	0	40	0	3430940672	32	17510
2026-01-07 22:20:57.90	24.34	8.75	-28.8	-29.3	16.1	0.00e+00	0	40	0	3506438144	32	17911
2026-01-07 22:20:58.91	24.40	8.85	-28.7	-29.2	16.1	0.00e+00	0	40	0	3581935616	32	17652
2026-01-07 22:20:59.92	24.47	8.95	-28.7	-29.1	16.1	0.00e+00	0	40	0	3657433088	32	17553
2026-01-07 22:21:00.93	24.54	9.04	-28.6	-29.0	16.1	0.00e+00	0	40	0	3732930560	32	17345
2026-01-07 22:21:01.94	24.62	9.14	-28.5	-28.9	16.2	0.00e+00	0	40	0	3808428032	32	17197
2026-01-07 22:21:02.95	24.69	9.23	-28.5	-29.0	16.1	0.00e+00	0	40	0	3883925504	32	17228
2026-01-07 22:21:03.96	24.76	9.33	-28.4	-28.9	16.2	0.00e+00	0	40	0	3959422976	32	17046
2026-01-07 22:21:04.96	24.83	9.43	-28.5	-28.9	16.2	0.00e+00	0	40	0	4034920448	32	17190
2026-01-07 22:21:05.97	24.90	9.53	-28.5	-29.0	16.1	0.00e+00	0	40	0	4110417920	32	17322
2026-01-07 22:21:06.98	24.98	9.63	-28.3	-28.8	16.1	0.00e+00	0	40	0	4185915392	32	16858
2026-01-07 22:21:07.99	25.05	9.73	-28.5	-29.0	16.1	0.00e+00	0	40	0	4261412864	32	17252
2026-01-07 22:21:09.00	25.13	9.83	-28.2	-28.7	16.2	0.00e+00	0	40	0	4336910336	32	16760
2026-01-07 22:21:10.01	25.20	9.93	-28.3	-28.8	16.2	0.00e+00	0	40	0	4412407808	32	16917
2026-01-07 22:21:11.02	25.28	10.03	-28.2	-28.7	16.2	0.00e+00	0	40	0	4496293888	32	16697
2026-01-07 22:21:12.03	25.35	10.13	-28.1	-28.6	16.3	0.00e+00	0	40	0	4571791360	32	16534
2026-01-07 22:21:13.03	25.43	10.23	-28.3	-28.7	16.2	0.00e+00	0	40	0	4647288832	32	16757
2026-01-07 22:21:14.04	25.51	10.33	-28.0	-28.5	16.3	0.00e+00	0	40	0	4714397696	32	16300
2026-01-07 22:21:15.05	25.59	10.43	-28.1	-28.6	16.4	0.00e+00	0	40	0	4789895168	32	16526
2026-01-07 22:21:16.06	25.66	10.54	-28.1	-28.6	16.2	0.00e+00	0	40	0	4865392640	32	16536
2026-01-07 22:21:17.07	25.74	10.64	-27.9	-28.4	16.3	0.00e+00	0	40	0	4949278720	32	16159
2026-01-07 22:21:18.08	25.82	10.75	-28.1	-28.5	16.3	0.00e+00	0	40	0	5024776192	32	16387
2026-01-07 22:21:19.09	25.91	10.85	-27.9	-28.4	16.3	0.00e+00	0	40	0	5100273664	32	16105
2026-01-07 22:21:20.10	25.99	10.96	-28.0	-28.5	16.3	0.00e+00	0	40	0	5175771136	32	16349
2026-01-07 22:21:21.11	26.07	11.06	-28.2	-28.6	16.3	0.00e+00	0	40	0	5242880000	32	16545
2026-01-07 22:21:22.11	26.15	11.17	-27.8	-28.2	16.3	0.00e+00	0	40	0	5318377472	32	15839
2026-01-07 22:21:23.12	26.24	11.28	-27.8	-28.3	16.4	0.00e+00	0	40	0	5402263552	30	17830
2026-01-07 22:21:24.13	26.32	11.39	-27.8	-28.3	16.3	0.00e+00	0	40	0	5477761024	30	17825
2026-01-07 22:21:25.14	26.41	11.49	-27.7	-28.2	16.3	0.00e+00	0	40	0	5553258496	30	17687
2026-01-07 22:21:26.15	26.49	11.60	-27.6	-28.1	16.4	0.00e+00	0	40	0	5628755968	30	17534
2026-01-07 22:21:27.16	26.58	11.71	-27.7	-28.1	16.4	0.00e+00	0	40	0	5704253440	30	17554
2026-01-07 22:21:28.17	26.66	11.82	-27.7	-28.1	16.3	0.00e+00	0	40	0	5779750912	30	17601
2026-01-07 22:21:29.18	26.75	11.93	-27.7	-28.1	16.2	0.00e+00	0	40	0	5855248384	30	17557
2026-01-07 22:21:30.19	26.84	12.05	-27.5	-28.0	16.3	0.00e+00	0	40	0	5930745856	30	17281
2026-01-07 22:21:31.20	26.93	12.16	-27.6	-28.1	16.2	0.00e+00	0	40	0	6006243328	30	17429
2026-01-07 22:21:32.21	27.02	12.27	-27.4	-27.9	16.3	0.00e+00	0	40	0	6081740800	30	17109
2026-01-07 22:21:33.22	27.11	12.38	-27.7	-28.1	16.4	0.00e+00	0	40	0	6157238272	30	17563
2026-01-07 22:21:34.23	27.21	12.50	-27.4	-27.9	16.5	0.00e+00	0	40	0	6232735744	30	17040
2026-01-07 22:21:35.23	27.30	12.61	-27.4	-27.9	16.5	0.00e+00	0	40	0	6308233216	30	17029
2026-01-07 22:21:36.24	27.39	12.73	-27.3	-27.8	16.4	0.00e+00	0	40	0	6383730688	30	16937
2026-01-07 22:21:37.25	27.49	12.84	-27.4	-27.8	16.3	0.00e+00	0	40	0	6459228160	30	16939
2026-01-07 22:21:38.26	27.58	12.96	-27.2	-27.7	16.4	0.00e+00	0	40	0	6534725632	30	16656
2026-01-07 22:21:39.27	27.68	13.08	-27.2	-27.6	16.5	0.00e+00	0	40	0	6610223104	30	16595
2026-01-07 22:21:40.28	27.77	13.20	-27.2	-27.7	16.5	0.00e+00	0	40	0	6685720576	30	16668
2026-01-07 22:21:41.29	27.87	13.32	-27.2	-27.7	16.5	0.00e+00	0	40	0	6761218048	30	16677
2026-01-07 22:21:42.30	27.97	13.44	-27.2	-27.7	16.5	0.00e+00	0	40	0	6836715520	30	16688
2026-01-07 22:21:43.31	28.07	13.56	-27.0	-27.5	16.5	0.00e+00	0	40	0	6912212992	30	16333
2026-01-07 22:21:44.31	28.17	13.68	-27.1	-27.5	16.6	0.00e+00	0	40	0	6987710464	30	16381
2026-01-07 22:21:45.32	28.27	13.80	-26.9	-27.4	16.5	0.00e+00	0	40	0	7063207936	30	16123
2026-01-07 22:21:46.33	28.38	13.92	-27.0	-27.5	16.6	0.00e+00	0	40	0	7138705408	30	16270
2026-01-07 22:21:47.34	28.48	14.04	-26.9	-27.4	16.6	0.00e+00	0	40	0	7214202880	30	16124
2026-01-07 22:21:48.35	28.58	14.17	-26.9	-27.4	16.5	0.00e+00	0	40	0	7289700352	30	16058
2026-01-07 22:21:49.36	28.69	14.29	-26.9	-27.4	16.6	0.00e+00	0	40	0	7365197824	30	16086
2026-01-07 22:21:50.37	28.80	14.42	-26.6	-27.1	16.6	0.00e+00	0	40	0	7440695296	28	17520
2026-01-07 22:21:51.38	28.90	14.54	-26.7	-27.2	16.6	0.00e+00	0	40	0	7516192768	28	17611
2026-01-07 22:21:52.39	29.01	14.67	-26.6	-27.1	16.6	0.00e+00	0	40	0	7591690240	28	17508
2026-01-07 22:21:53.40	29.12	14.80	-26.7	-27.2	16.7	0.00e+00	0	40	0	7667187712	28	17702
2026-01-07 22:21:54.41	29.23	14.93	-26.5	-27.0	16.6	0.00e+00	0	40	0	7742685184	28	17220
2026-01-07 22:21:55.42	29.35	15.06	-26.7	-27.1	16.6	0.00e+00	0	40	0	7818182656	28	17583
2026-01-07 22:21:56.43	29.46	15.19	-26.5	-27.0	16.6	0.00e+00	0	40	0	7902068736	28	17247
2026-01-07 22:21:57.44	29.57	15.32	-26.6	-27.1	16.6	0.00e+00	0	40	0	7969177600	28	17441
2026-01-07 22:21:58.45	29.69	15.45	-26.4	-26.9	16.6	0.00e+00	0	40	0	8044675072	28	17105
2026-01-07 22:21:59.46	29.81	15.58	-26.5	-26.9	16.6	0.00e+00	0	40	0	8120172544	28	17155
2026-01-07 22:22:00.46	29.92	15.72	-26.5	-26.9	16.6	0.00e+00	0	40	0	8195670016	28	17198
2026-01-07 22:22:01.47	30.04	15.85	-26.4	-26.9	16.5	0.00e+00	0	40	0	8279556096	28	17137
2026-01-07 22:22:02.48	30.16	15.98	-26.3	-26.7	16.6	0.00e+00	0	40	0	8355053568	28	16761
2026-01-07 22:22:03.49	30.28	16.12	-26.2	-26.7	16.5	0.00e+00	0	40	0	8430551040	28	16759
2026-01-07 22:22:04.50	30.41	16.26	-26.1	-26.6	16.6	0.00e+00	0	40	0	8506048512	28	16482
2026-01-07 22:22:05.51	30.53	16.40	-26.3	-26.7	16.6	0.00e+00	0	40	0	8573157376	28	16771
2026-01-07 22:22:06.52	30.66	16.53	-26.1	-26.6	16.7	0.00e+00	0	40	0	8648654848	28	16530
2026-01-07 22:22:07.52	30.78	16.67	-26.1	-26.5	16.7	0.00e+00	0	40	0	8732540928	28	16398
2026-01-07 22:22:08.54	30.91	16.82	-26.2	-26.6	16.7	0.00e+00	0	40	0	8808038400	28	16582
2026-01-07 22:22:09.54	31.04	16.96	-26.0	-26.5	16.8	0.00e+00	0	40	0	8883535872	28	16302
2026-01-07 22:22:10.55	31.17	17.10	-26.1	-26.6	16.7	0.00e+00	0	40	0	8959033344	28	16481
2026-01-07 22:22:11.56	31.30	17.24	-26.2	-26.6	16.7	0.00e+00	0	40	0	9034530816	28	16609
2026-01-07 22:22:12.57	31.43	17.39	-25.9	-26.4	16.8	0.00e+00	0	40	0	9110028288	28	16168
2026-01-07 22:22:13.58	31.57	17.53	-26.1	-26.6	16.7	0.00e+00	0	40	0	9185525760	28	16525
2026-01-07 22:22:14.59	31.71	17.68	-26.1	-26.5	16.7	0.00e+00	0	40	0	9261023232	28	16420
2026-01-07 22:22:15.60	31.84	17.83	-25.8	-26.2	16.7	0.00e+00	0	41	0	9336520704	26	17720
2026-01-07 22:22:16.61	31.98	17.97	-25.7	-26.1	16.7	0.00e+00	0	40	0	9412018176	26	17576
2026-01-07 22:22:17.62	32.12	18.12	-25.6	-26.1	16.8	0.00e+00	0	40	0	9487515648	26	17429
2026-01-07 22:22:18.63	32.27	18.27	-25.7	-26.2	16.8	0.00e+00	0	40	0	9563013120	26	17661
2026-01-07 22:22:19.64	32.41	18.43	-25.6	-26.0	16.8	0.00e+00	0	40	0	9638510592	26	17334
2026-01-07 22:22:20.65	32.56	18.58	-25.6	-26.0	16.9	0.00e+00	0	40	0	9714008064	26	17357
2026-01-07 22:22:21.66	32.70	18.73	-25.4	-25.9	16.9	0.00e+00	0	40	0	9789505536	26	17126
2026-01-07 22:22:22.67	32.85	18.89	-25.5	-26.0	16.9	0.00e+00	0	40	0	9865003008	26	17202
2026-01-07 22:22:23.68	33.00	19.04	-25.7	-26.2	16.9	0.00e+00	0	40	0	9940500480	26	17631
2026-01-07 22:22:24.69	33.16	19.20	-25.4	-25.9	16.9	0.00e+00	0	40	0	10015997952	26	17060
2026-01-07 22:22:25.70	33.31	19.36	-25.5	-26.0	16.9	0.00e+00	0	41	0	10091495424	26	17235
2026-01-07 22:22:26.71	33.47	19.52	-25.5	-25.9	16.9	0.00e+00	0	40	0	10166992896	26	17176
2026-01-07 22:22:27.72	33.62	19.68	-25.4	-25.9	16.9	0.00e+00	0	41	0	10242490368	26	17048
2026-01-07 22:22:28.73	33.78	19.84	-25.4	-25.8	16.9	0.00e+00	0	40	0	10317987840	26	16946
2026-01-07 22:22:29.73	33.94	20.00	-25.1	-25.6	16.9	0.00e+00	0	40	0	10393485312	26	16514
2026-01-07 22:22:30.74	34.11	20.16	-25.1	-25.6	16.9	0.00e+00	0	41	0	10468982784	26	16441
2026-01-07 22:22:31.75	34.27	20.33	-25.3	-25.7	16.9	0.00e+00	0	41	0	10544480256	26	16772
2026-01-07 22:22:32.76	34.44	20.49	-25.0	-25.5	17.0	0.00e+00	0	41	0	10619977728	26	16349
2026-01-07 22:22:33.77	34.61	20.66	-24.9	-25.4	17.0	0.00e+00	0	41	0	10695475200	26	16180
2026-01-07 22:22:34.78	34.78	20.83	-25.1	-25.6	17.0	0.00e+00	0	41	0	10770972672	26	16487
2026-01-07 22:22:35.79	34.96	21.00	-24.8	-25.3	17.0	0.00e+00	0	40	0	10846470144	26	15957
2026-01-07 22:22:36.80	35.13	21.17	-24.8	-25.3	17.0	0.00e+00	0	40	0	10921967616	26	15925
2026-01-07 22:22:37.81	35.31	21.34	-24.8	-25.3	17.0	0.00e+00	0	41	0	10997465088	24	17814
2026-01-07 22:22:38.82	35.49	21.51	-24.8	-25.3	17.0	0.00e+00	0	40	0	11081351168	24	17876
2026-01-07 22:22:39.83	35.67	21.69	-24.6	-25.1	17.0	0.00e+00	0	40	0	11156848640	24	17520
2026-01-07 22:22:40.84	35.86	21.86	-24.6	-25.1	16.9	0.00e+00	0	41	0	11232346112	24	17534
2026-01-07 22:22:41.85	36.04	22.04	-24.6	-25.0	17.0	0.00e+00	0	41	0	11299454976	24	17373
2026-01-07 22:22:42.86	36.23	22.22	-24.5	-25.0	16.9	0.00e+00	0	41	0	11374952448	24	17264
2026-01-07 22:22:43.87	36.43	22.39	-24.6	-25.1	16.9	0.00e+00	0	40	0	11450449920	24	17443
2026-01-07 22:22:44.88	36.62	22.58	-24.5	-24.9	17.0	0.00e+00	0	41	0	11534336000	24	17182
2026-01-07 22:22:45.89	36.82	22.76	-24.5	-25.0	17.0	0.00e+00	0	41	0	11609833472	24	17282
2026-01-07 22:22:46.89	37.01	22.94	-24.6	-25.1	17.0	0.00e+00	0	41	0	11685330944	24	17480
2026-01-07 22:22:47.90	37.22	23.12	-24.3	-24.8	17.0	0.00e+00	0	41	0	11760828416	24	16944
2026-01-07 22:22:48.91	37.42	23.31	-24.3	-24.8	16.9	0.00e+00	0	40	0	11827937280	24	16874
2026-01-07 22:22:49.92	37.63	23.50	-24.3	-24.7	17.0	0.00e+00	0	40	0	11911823360	24	16777
2026-01-07 22:22:50.93	37.84	23.68	-24.3	-24.8	17.0	0.00e+00	0	40	0	11987320832	24	16836
2026-01-07 22:22:51.94	38.05	23.87	-24.4	-24.9	16.9	0.00e+00	0	40	0	12062818304	24	17149
2026-01-07 22:22:52.95	38.27	24.06	-24.2	-24.6	17.0	0.00e+00	0	41	0	12138315776	24	16589
2026-01-07 22:22:53.96	38.48	24.26	-24.3	-24.8	17.0	0.00e+00	0	41	0	12213813248	24	16942
2026-01-07 22:22:54.97	38.71	24.45	-24.4	-24.9	17.1	0.00e+00	0	41	0	12289310720	24	17101
2026-01-07 22:22:55.98	38.93	24.65	-24.4	-24.9	16.9	0.00e+00	0	41	0	12364808192	24	17061
2026-01-07 22:22:56.99	39.16	24.84	-24.1	-24.6	17.0	0.00e+00	0	41	0	12440305664	24	16495
2026-01-07 22:22:57.99	39.39	25.04	-24.2	-24.7	17.0	0.00e+00	0	41	0	12515803136	24	16643
2026-01-07 22:22:59.00	39.62	25.24	-23.9	-24.4	17.0	0.00e+00	0	41	0	12591300608	24	16204
2026-01-07 22:23:00.01	39.86	25.44	-24.2	-24.7	16.9	0.00e+00	0	41	0	12666798080	24	16681
2026-01-07 22:23:01.02	40.10	25.64	-24.1	-24.6	17.0	0.00e+00	0	41	0	12742295552	24	16477
2026-01-07 22:23:02.03	40.34	25.84	-24.0	-24.5	17.2	0.00e+00	0	41	0	12817793024	24	16330
2026-01-07 22:23:03.04	40.59	26.05	-23.7	-24.2	17.0	0.00e+00	0	41	0	12893290496	22	17610
2026-01-07 22:23:04.05	40.84	26.25	-23.8	-24.3	17.1	0.00e+00	0	41	0	12968787968	22	17924
2026-01-07 22:23:05.06	41.09	26.46	-23.9	-24.4	17.1	0.00e+00	0	41	0	13044285440	22	18172
2026-01-07 22:23:06.07	41.35	26.67	-23.7	-24.2	17.1	0.00e+00	0	41	0	13119782912	22	17658
2026-01-07 22:23:07.07	41.61	26.88	-23.5	-24.0	17.1	0.00e+00	0	41	0	13195280384	22	17259
2026-01-07 22:23:08.08	41.87	27.09	-23.5	-24.0	17.1	0.00e+00	0	41	0	13270777856	22	17285
2026-01-07 22:23:09.09	42.14	27.30	-23.6	-24.1	17.1	0.00e+00	0	41	0	13346275328	22	17529
2026-01-07 22:23:10.10	42.42	27.52	-23.6	-24.1	17.1	0.00e+00	0	41	0	13421772800	22	17431
2026-01-07 22:23:11.11	42.69	27.73	-23.3	-23.8	17.2	0.00e+00	0	41	0	13497270272	22	16901
2026-01-07 22:23:12.12	42.97	27.95	-23.3	-23.8	17.0	0.00e+00	0	41	0	13572767744	22	16836
2026-01-07 22:23:13.13	43.26	28.17	-23.3	-23.8	16.9	0.00e+00	0	41	0	13648265216	22	16853
2026-01-07 22:23:14.14	43.55	28.39	-23.2	-23.6	17.0	0.00e+00	0	41	0	13723762688	22	16611
2026-01-07 22:23:15.15	43.84	28.61	-23.0	-23.5	17.1	0.00e+00	0	41	0	13799260160	22	16348
2026-01-07 22:23:16.16	44.14	28.83	-23.0	-23.5	17.1	0.00e+00	0	41	0	13874757632	22	16375
2026-01-07 22:23:17.17	44.44	29.06	-23.0	-23.5	17.1	0.00e+00	0	41	0	13950255104	22	16272
2026-01-07 22:23:18.18	44.75	29.28	-22.9	-23.4	17.1	0.00e+00	0	41	0	14025752576	22	16175
2026-01-07 22:23:19.18	45.06	29.51	-22.9	-23.4	17.1	0.00e+00	0	41	0	14101250048	22	16093
2026-01-07 22:23:20.19	45.37	29.74	-22.8	-23.3	17.2	0.00e+00	0	41	0	14176747520	22	15990
2026-01-07 22:23:21.20	45.70	29.96	-22.9	-23.3	17.2	0.00e+00	0	41	0	14252244992	22	16019
2026-01-07 22:23:22.22	46.03	30.20	-22.8	-23.3	17.2	0.00e+00	0	41	0	14327742464	22	15978
2026-01-07 22:23:23.22	46.35	30.43	-22.7	-23.2	17.2	0.00e+00	0	41	0	14411628544	20	17759
2026-01-07 22:23:24.23	46.69	30.66	-22.9	-23.3	17.2	0.00e+00	0	41	0	14487126016	20	17977
2026-01-07 22:23:25.24	47.03	30.89	-22.7	-23.2	17.2	0.00e+00	0	41	0	14554234880	20	17668
2026-01-07 22:23:26.25	47.38	31.13	-22.5	-23.0	17.2	0.00e+00	0	41	0	14629732352	20	17246
2026-01-07 22:23:27.26	47.73	31.37	-22.7	-23.1	17.1	0.00e+00	0	41	0	14705229824	20	17556
2026-01-07 22:23:28.26	48.09	31.60	-22.4	-22.9	17.1	0.00e+00	0	41	0	14780727296	20	17111
2026-01-07 22:23:29.27	48.45	31.84	-22.6	-23.1	17.3	0.00e+00	0	41	0	14864613376	20	17457
2026-01-07 22:23:30.28	48.82	32.08	-22.3	-22.8	17.2	0.00e+00	0	41	0	14940110848	20	16910
2026-01-07 22:23:31.29	49.19	32.32	-22.5	-23.0	17.2	0.00e+00	0	41	0	15015608320	20	17205
2026-01-07 22:23:32.30	49.57	32.56	-22.4	-22.9	17.2	0.00e+00	0	41	0	15091105792	20	17031
2026-01-07 22:23:33.31	49.96	32.81	-22.2	-22.7	17.2	0.00e+00	0	41	0	15158214656	20	16622
2026-01-07 22:23:34.32	50.35	33.05	-22.3	-22.8	17.1	0.00e+00	0	41	0	15242100736	20	16830
2026-01-07 22:23:35.33	50.75	33.30	-22.2	-22.7	17.1	0.00e+00	0	41	0	15317598208	20	16706
2026-01-07 22:23:36.34	51.16	33.54	-22.1	-22.6	17.3	0.00e+00	0	41	0	15393095680	20	16548
2026-01-07 22:23:37.35	51.57	33.79	-22.2	-22.6	17.2	0.00e+00	0	41	0	15468593152	20	16609
2026-01-07 22:23:38.36	51.99	34.04	-22.0	-22.4	17.2	0.00e+00	0	41	0	15544090624	20	16210
2026-01-07 22:23:39.37	52.42	34.29	-22.1	-22.6	17.3	0.00e+00	0	41	0	15619588096	20	16471
2026-01-07 22:23:40.38	52.85	34.53	-22.0	-22.5	17.3	0.00e+00	0	41	0	15695085568	20	16357
2026-01-07 22:23:41.39	53.29	34.78	-22.0	-22.5	17.2	0.00e+00	0	41	0	15770583040	20	16283
2026-01-07 22:23:42.40	53.74	35.03	-21.8	-22.3	17.2	0.00e+00	0	41	0	15846080512	20	15952
2026-01-07 22:23:43.40	54.19	35.28	-21.8	-22.3	17.2	0.00e+00	0	41	0	15921577984	20	15993
2026-01-07 22:23:44.41	54.65	35.53	-21.7	-22.2	17.2	0.00e+00	0	41	0	15997075456	18	17682
2026-01-07 22:23:45.42	55.12	35.78	-21.7	-22.2	17.3	0.00e+00	0	41	0	16072572928	18	17709
2026-01-07 22:23:46.43	55.60	36.03	-21.7	-22.2	17.2	0.00e+00	0	41	0	16148070400	18	17742
2026-01-07 22:23:47.44	56.08	36.29	-21.5	-22.0	17.3	0.00e+00	0	41	0	16223567872	18	17312
2026-01-07 22:23:48.45	56.57	36.54	-21.6	-22.1	17.3	0.00e+00	0	41	0	16299065344	18	17478
2026-01-07 22:23:49.46	57.07	36.79	-21.6	-22.1	17.3	0.00e+00	0	41	0	16374562816	18	17460
2026-01-07 22:23:50.47	57.58	37.04	-21.6	-22.1	17.3	0.00e+00	0	41	0	16450060288	18	17429
2026-01-07 22:23:51.48	58.10	37.29	-21.4	-21.9	17.4	0.00e+00	0	41	0	16525557760	18	17084
2026-01-07 22:23:52.49	58.63	37.54	-21.4	-21.9	17.3	0.00e+00	0	41	0	16601055232	18	17066
2026-01-07 22:23:53.50	59.16	37.79	-21.4	-21.9	17.4	0.00e+00	0	41	0	16676552704	18	17065
2026-01-07 22:23:54.51	59.70	38.04	-21.4	-21.9	17.2	0.00e+00	0	41	0	16752050176	18	17007
2026-01-07 22:23:55.52	60.25	38.29	-21.2	-21.7	17.3	0.00e+00	0	41	0	16827547648	18	16667
2026-01-07 22:23:56.53	60.81	38.54	-21.3	-21.7	17.3	0.00e+00	0	41	0	16903045120	18	16797
2026-01-07 22:23:57.54	61.38	38.79	-21.3	-21.8	17.3	0.00e+00	0	41	0	16978542592	18	16937
2026-01-07 22:23:58.55	61.96	39.03	-21.2	-21.7	17.3	0.00e+00	0	41	0	17054040064	18	16623
2026-01-07 22:23:59.56	62.55	39.28	-21.1	-21.6	17.4	0.00e+00	0	41	0	17129537536	18	16495
2026-01-07 22:24:00.57	63.15	39.52	-21.2	-21.6	17.3	0.00e+00	0	41	0	17205035008	18	16608
2026-01-07 22:24:01.58	63.75	39.77	-21.1	-21.5	17.3	0.00e+00	0	41	0	17280532480	18	16412
2026-01-07 22:24:02.58	64.36	40.01	-21.1	-21.6	17.3	0.00e+00	0	41	0	17356029952	18	16452
2026-01-07 22:24:03.59	64.99	40.25	-20.9	-21.4	17.3	0.00e+00	0	41	0	17431527424	18	16155
2026-01-07 22:24:04.60	65.62	40.48	-21.0	-21.5	17.3	0.00e+00	0	41	0	17507024896	18	16248
2026-01-07 22:24:05.61	66.27	40.72	-20.8	-21.3	17.4	0.00e+00	0	41	0	17582522368	18	15987
2026-01-07 22:24:06.62	66.92	40.95	-20.9	-21.4	17.4	0.00e+00	0	41	0	17666408448	18	16187
2026-01-07 22:24:07.63	67.58	41.18	-20.9	-21.3	17.4	0.00e+00	0	41	0	17741905920	18	16035
2026-01-07 22:24:08.64	68.26	41.41	-20.8	-21.3	17.3	0.00e+00	0	41	0	17817403392	16	17815
2026-01-07 22:24:09.65	68.94	41.64	-20.7	-21.2	17.4	0.00e+00	0	41	0	17884512256	16	17755
2026-01-07 22:24:10.65	69.63	41.86	-20.7	-21.2	17.3	0.00e+00	0	41	0	17960009728	16	17685
2026-01-07 22:24:11.66	70.33	42.08	-20.7	-21.1	17.3	0.00e+00	0	41	0	18035507200	16	17597
2026-01-07 22:24:12.67	71.05	42.30	-20.7	-21.1	17.4	0.00e+00	0	41	0	18119393280	16	17536
2026-01-07 22:24:13.68	71.77	42.51	-20.8	-21.3	17.4	0.00e+00	0	41	0	18194890752	16	17811
2026-01-07 22:24:14.69	72.50	42.72	-20.6	-21.1	17.4	0.00e+00	0	41	0	18270388224	16	17418
2026-01-07 22:24:15.69	73.24	42.92	-20.6	-21.0	17.4	0.00e+00	0	41	0	18345885696	16	17372
2026-01-07 22:24:16.70	73.99	43.13	-20.7	-21.2	17.4	0.00e+00	0	41	0	18412994560	16	17631
2026-01-07 22:24:17.71	74.76	43.33	-20.7	-21.1	17.4	0.00e+00	0	41	0	18488492032	16	17595
2026-01-07 22:24:18.72	75.53	43.52	-20.6	-21.0	17.4	0.00e+00	0	41	0	18572378112	16	17384
2026-01-07 22:24:19.73	76.31	43.71	-20.4	-20.9	17.3	0.00e+00	0	41	0	18647875584	16	17144
2026-01-07 22:24:20.74	77.10	43.89	-20.4	-20.9	17.4	0.00e+00	0	41	0	18723373056	16	17154
2026-01-07 22:24:21.75	77.90	44.07	-20.4	-20.8	17.3	0.00e+00	0	41	0	18798870528	16	16993
2026-01-07 22:24:22.76	78.71	44.25	-20.4	-20.9	17.4	0.00e+00	0	41	0	18874368000	16	17046
2026-01-07 22:24:23.77	79.53	44.42	-20.4	-20.8	17.3	0.00e+00	0	41	0	18949865472	16	16995
2026-01-07 22:24:24.78	80.36	44.58	-20.3	-20.8	17.3	0.00e+00	0	41	0	19025362944	16	16825
2026-01-07 22:24:25.79	81.20	44.74	-20.4	-20.9	17.5	0.00e+00	0	41	0	19100860416	16	17146
2026-01-07 22:24:26.80	82.04	44.89	-20.5	-20.9	17.4	0.00e+00	0	41	0	19176357888	16	17191
2026-01-07 22:24:27.81	82.90	45.04	-20.3	-20.8	17.4	0.00e+00	0	41	0	19251855360	16	16895
2026-01-07 22:24:28.82	83.76	45.18	-20.3	-20.8	17.4	0.00e+00	0	41	0	19327352832	16	16879
2026-01-07 22:24:29.83	84.63	45.31	-20.3	-20.7	17.4	0.00e+00	0	41	0	19402850304	16	16803
2026-01-07 22:24:30.83	85.50	45.44	-20.2	-20.7	17.3	0.00e+00	0	41	0	19478347776	16	16651
2026-01-07 22:24:31.84	86.38	45.56	-20.3	-20.8	17.4	0.00e+00	0	41	0	19553845248	16	16924
2026-01-07 22:24:32.86	87.28	45.68	-20.2	-20.7	17.4	0.00e+00	0	41	0	19629342720	16	16693
2026-01-07 22:24:33.87	88.18	45.78	-20.2	-20.6	17.4	0.00e+00	0	41	0	19704840192	16	16589
2026-01-07 22:24:34.88	89.08	45.88	-20.2	-20.7	17.4	0.00e+00	0	41	0	19780337664	16	16692
2026-01-07 22:24:35.89	89.99	45.97	-20.1	-20.6	17.4	0.00e+00	0	41	0	19855835136	16	16536
2026-01-07 22:24:36.90	90.91	46.06	-20.1	-20.6	17.4	0.00e+00	0	41	0	19931332608	16	16500
2026-01-07 22:24:37.91	91.83	46.14	-20.2	-20.6	17.4	0.00e+00	0	41	0	20006830080	16	16560
2026-01-07 22:24:38.92	92.75	46.21	-20.1	-20.6	17.3	0.00e+00	0	41	0	20082327552	16	16542
2026-01-07 22:24:39.93	93.68	46.27	-20.1	-20.6	17.5	0.00e+00	0	41	0	20157825024	16	16543
2026-01-07 22:24:40.94	94.61	46.32	-20.1	-20.6	17.4	0.00e+00	0	41	0	20233322496	16	16431
2026-01-07 22:24:41.95	95.54	46.37	-20.1	-20.6	17.5	0.00e+00	0	41	0	20308819968	16	16488
2026-01-07 22:24:42.96	96.48	46.41	-20.2	-20.7	17.3	0.00e+00	0	41	0	20384317440	16	16749
2026-01-07 22:24:43.97	97.42	46.44	-20.1	-20.6	17.4	0.00e+00	0	41	0	20459814912	16	16462
2026-01-07 22:24:44.98	98.36	46.46	-20.3	-20.7	17.4	0.00e+00	0	41	0	20543700992	16	16788
2026-01-07 22:24:45.99	99.30	46.47	-20.1	-20.5	17.4	0.00e+00	0	41	0	20610809856	16	16387
2026-01-07 22:24:47.00	100.25	46.48	-20.0	-20.5	17.4	0.00e+00	0	41	0	20686307328	16	16348
2026-01-07 22:24:48.01	101.19	46.48	-20.2	-20.7	17.4	0.00e+00	0	41	0	20761804800	16	16682
2026-01-07 22:24:49.02	102.13	46.47	-20.2	-20.7	17.4	0.00e+00	0	41	0	20837302272	16	16680
2026-01-07 22:24:50.02	103.06	46.45	-20.0	-20.5	17.4	0.00e+00	0	41	0	20921188352	16	16389
2026-01-07 22:24:51.03	104.00	46.42	-20.1	-20.6	17.4	0.00e+00	0	41	0	20996685824	16	16465
2026-01-07 22:24:52.04	104.94	46.39	-20.2	-20.7	17.4	0.00e+00	0	41	0	21072183296	16	16619
2026-01-07 22:24:53.05	105.88	46.35	-20.1	-20.5	17.4	0.00e+00	0	41	0	21139292160	16	16404
2026-01-07 22:24:54.06	106.81	46.29	-20.2	-20.7	17.3	0.00e+00	0	41	0	21214789632	16	16699
2026-01-07 22:24:55.07	107.74	46.24	-20.1	-20.6	17.4	0.00e+00	0	41	0	21298675712	16	16435
2026-01-07 22:24:56.08	108.67	46.17	-20.2	-20.7	17.4	0.00e+00	0	41	0	21374173184	16	16727
2026-01-07 22:24:57.09	109.59	46.10	-20.1	-20.6	17.4	0.00e+00	0	41	0	21449670656	16	16590
2026-01-07 22:24:58.10	110.50	46.01	-20.3	-20.7	17.4	0.00e+00	0	41	0	21525168128	16	16807
2026-01-07 22:24:59.11	111.42	45.93	-20.2	-20.7	17.4	0.00e+00	0	41	0	21600665600	16	16730
2026-01-07 22:25:00.12	112.32	45.83	-20.3	-20.8	17.4	0.00e+00	0	41	0	21676163072	16	16961
2026-01-07 22:25:01.13	113.22	45.73	-20.2	-20.7	17.4	0.00e+00	0	41	0	21751660544	16	16707
2026-01-07 22:25:02.14	114.12	45.61	-20.2	-20.7	17.4	0.00e+00	0	41	0	21827158016	16	16725
2026-01-07 22:25:03.15	115.01	45.50	-20.2	-20.7	17.4	0.00e+00	0	41	0	21902655488	16	16715
2026-01-07 22:25:04.16	115.89	45.37	-20.3	-20.8	17.4	0.00e+00	0	41	0	21978152960	16	16903
2026-01-07 22:25:05.17	116.76	45.24	-20.2	-20.7	17.4	0.00e+00	0	41	0	22053650432	16	16711
2026-01-07 22:25:06.17	117.62	45.10	-20.3	-20.8	17.4	0.00e+00	0	41	0	22129147904	16	16873
2026-01-07 22:25:07.18	118.48	44.96	-20.3	-20.7	17.4	0.00e+00	0	41	0	22204645376	16	16803
2026-01-07 22:25:08.19	119.33	44.81	-20.3	-20.8	17.4	0.00e+00	0	41	0	22280142848	16	16819
2026-01-07 22:25:09.20	120.17	44.66	-20.3	-20.8	17.5	0.00e+00	0	41	0	22355640320	16	16909
2026-01-07 22:25:10.21	121.00	44.49	-20.4	-20.8	17.4	0.00e+00	0	41	0	22431137792	16	16997
2026-01-07 22:25:11.22	121.83	44.33	-20.5	-20.9	17.4	0.00e+00	0	41	0	22506635264	16	17181
2026-01-07 22:25:12.23	122.64	44.15	-20.4	-20.9	17.4	0.00e+00	0	41	0	22582132736	16	17160
2026-01-07 22:25:13.24	123.45	43.98	-20.4	-20.9	17.4	0.00e+00	0	41	0	22657630208	16	17176
2026-01-07 22:25:14.25	124.25	43.79	-20.4	-20.9	17.3	0.00e+00	0	41	0	22733127680	16	17088
2026-01-07 22:25:15.25	125.03	43.61	-20.5	-21.0	17.4	0.00e+00	0	41	0	22808625152	16	17265
2026-01-07 22:25:16.26	125.80	43.41	-20.5	-21.0	17.4	0.00e+00	0	41	0	22884122624	16	17241
2026-01-07 22:25:17.27	126.57	43.22	-20.5	-21.0	17.4	0.00e+00	0	41	0	22959620096	16	17328
2026-01-07 22:25:18.28	127.33	43.02	-20.6	-21.0	17.4	0.00e+00	0	41	0	23035117568	16	17394
2026-01-07 22:25:19.29	128.08	42.81	-20.5	-21.0	17.4	0.00e+00	0	41	0	23110615040	16	17316
2026-01-07 22:25:20.30	128.82	42.60	-20.6	-21.1	17.4	0.00e+00	0	41	0	23186112512	16	17535
2026-01-07 22:25:21.31	129.55	42.39	-20.6	-21.1	17.4	0.00e+00	0	41	0	23261609984	16	17494
2026-01-07 22:25:22.32	130.27	42.17	-20.7	-21.2	17.3	0.00e+00	0	41	0	23337107456	16	17702
2026-01-07 22:25:23.33	130.98	41.96	-20.7	-21.2	17.5	0.00e+00	0	41	0	23412604928	16	17629
2026-01-07 22:25:24.34	131.68	41.73	-20.8	-21.2	17.3	0.00e+00	0	41	0	23488102400	16	17789
2026-01-07 22:25:25.34	132.36	41.51	-20.7	-21.2	17.4	0.00e+00	0	41	0	23563599872	16	17660
2026-01-07 22:25:26.36	133.05	41.28	-20.9	-21.3	17.4	0.00e+00	0	41	0	23639097344	16	17988
2026-01-07 22:25:27.37	133.71	41.05	-20.9	-21.3	17.4	0.00e+00	0	41	0	23714594816	16	18001
2026-01-07 22:25:28.38	134.37	40.82	-20.9	-21.4	17.4	0.00e+00	0	41	0	23798480896	16	18032
2026-01-07 22:25:29.39	135.02	40.58	-20.9	-21.4	17.4	0.00e+00	0	41	0	23865589760	16	18127
2026-01-07 22:25:30.40	135.66	40.34	-20.9	-21.4	17.3	0.00e+00	0	41	0	23941087232	16	18130
2026-01-07 22:25:31.41	136.29	40.10	-20.9	-21.4	17.4	0.00e+00	0	41	0	24016584704	16	18179
2026-01-07 22:25:32.42	136.92	39.86	-20.9	-21.4	17.4	0.00e+00	0	41	0	24092082176	16	18142
2026-01-07 22:25:33.42	137.52	39.62	-21.1	-21.6	17.3	0.00e+00	0	41	0	24175968256	16	18475
2026-01-07 22:25:34.43	138.12	39.38	-21.0	-21.5	17.3	0.00e+00	0	41	0	24251465728	16	18316
2026-01-07 22:25:35.44	138.72	39.13	-21.1	-21.5	17.3	0.00e+00	0	41	0	24326963200	16	18424
2026-01-07 22:25:36.45	139.30	38.89	-21.1	-21.6	17.4	0.00e+00	0	41	0	24402460672	16	18570
2026-01-07 22:25:37.46	139.87	38.64	-21.1	-21.6	17.4	0.00e+00	0	41	0	24469569536	16	18594
2026-01-07 22:25:38.47	140.44	38.39	-21.3	-21.8	17.3	0.00e+00	0	41	0	24553455616	16	18904
2026-01-07 22:25:39.48	140.99	38.14	-21.2	-21.7	17.3	0.00e+00	0	41	0	24628953088	16	18714
2026-01-07 22:25:40.49	141.54	37.89	-21.4	-21.9	17.3	0.00e+00	0	41	0	24704450560	16	19111
2026-01-07 22:25:41.50	142.08	37.64	-21.3	-21.8	17.4	0.00e+00	0	41	0	24779948032	16	19018
2026-01-07 22:25:42.51	142.61	37.39	-21.6	-22.1	17.3	0.00e+00	0	41	0	24855445504	16	19534
2026-01-07 22:25:43.52	143.13	37.14	-21.4	-21.9	17.3	0.00e+00	0	41	0	24930942976	16	19194
2026-01-07 22:25:44.53	143.65	36.88	-21.5	-22.0	17.3	0.00e+00	0	41	0	25006440448	16	19449
2026-01-07 22:25:45.54	144.15	36.63	-21.6	-22.1	17.3	0.00e+00	0	41	0	25081937920	16	19707
2026-01-07 22:25:46.55	144.65	36.38	-21.5	-22.0	17.3	0.00e+00	0	41	0	25157435392	16	19381
2026-01-07 22:25:47.56	145.14	36.13	-21.7	-22.2	17.3	0.00e+00	0	41	0	25232932864	16	19773
2026-01-07 22:25:48.56	145.61	35.88	-21.8	-22.3	17.3	0.00e+00	0	41	0	25308430336	18	17869
2026-01-07 22:25:49.57	146.09	35.63	-21.9	-22.4	17.3	0.00e+00	0	41	0	25383927808	18	18063
2026-01-07 22:25:50.58	146.55	35.37	-21.7	-22.2	17.3	0.00e+00	0	41	0	25459425280	18	17698
2026-01-07 22:25:51.59	147.01	35.12	-21.8	-22.3	17.3	0.00e+00	0	41	0	25534922752	18	17856
2026-01-07 22:25:52.60	147.46	34.87	-21.8	-22.2	17.3	0.00e+00	0	41	0	25610420224	18	17772
2026-01-07 22:25:53.61	147.90	34.62	-21.9	-22.4	17.3	0.00e+00	0	41	0	25685917696	18	18162
2026-01-07 22:25:54.62	148.34	34.37	-21.9	-22.4	17.3	0.00e+00	0	41	0	25761415168	18	18083
2026-01-07 22:25:55.63	148.77	34.12	-21.9	-22.4	17.3	0.00e+00	0	41	0	25836912640	18	18183
2026-01-07 22:25:56.64	149.19	33.87	-21.9	-22.4	17.3	0.00e+00	0	41	0	25912410112	18	18181
2026-01-07 22:25:57.65	149.61	33.63	-22.0	-22.5	17.3	0.00e+00	0	41	0	25987907584	18	18362
2026-01-07 22:25:58.66	150.02	33.38	-22.0	-22.5	17.3	0.00e+00	0	41	0	26063405056	18	18372
2026-01-07 22:25:59.67	150.42	33.13	-22.1	-22.6	17.3	0.00e+00	0	41	0	26138902528	18	18510
2026-01-07 22:26:00.68	150.82	32.89	-22.2	-22.7	17.3	0.00e+00	0	41	0	26214400000	18	18649
2026-01-07 22:26:01.68	151.21	32.65	-22.2	-22.6	17.3	0.00e+00	0	41	0	26289897472	18	18624
2026-01-07 22:26:02.69	151.59	32.40	-22.3	-22.8	17.3	0.00e+00	0	41	0	26365394944	18	19017
2026-01-07 22:26:03.70	151.97	32.16	-22.4	-22.9	17.3	0.00e+00	0	41	0	26440892416	18	19221
2026-01-07 22:26:04.71	152.34	31.92	-22.3	-22.8	17.3	0.00e+00	0	41	0	26516389888	18	19003
2026-01-07 22:26:05.72	152.71	31.68	-22.5	-23.0	17.2	0.00e+00	0	41	0	26591887360	18	19495
2026-01-07 22:26:06.73	153.07	31.44	-22.4	-22.9	17.4	0.00e+00	0	41	0	26667384832	18	19125
2026-01-07 22:26:07.74	153.42	31.20	-22.5	-23.0	17.3	0.00e+00	0	41	0	26742882304	18	19397
2026-01-07 22:26:08.75	153.77	30.96	-22.6	-23.1	17.3	0.00e+00	0	41	0	26818379776	18	19637
2026-01-07 22:26:09.76	154.12	30.73	-22.7	-23.1	17.2	0.00e+00	0	41	0	26893877248	20	17589
2026-01-07 22:26:10.77	154.46	30.49	-22.8	-23.3	17.2	0.00e+00	0	41	0	26977763328	20	17819
2026-01-07 22:26:11.78	154.79	30.26	-22.8	-23.3	17.2	0.00e+00	0	41	0	27053260800	20	17824
2026-01-07 22:26:12.79	155.12	30.03	-22.8	-23.3	17.3	0.00e+00	0	41	0	27128758272	20	17837
2026-01-07 22:26:13.80	155.44	29.80	-22.8	-23.3	17.2	0.00e+00	0	41	0	27195867136	20	17813
2026-01-07 22:26:14.81	155.76	29.57	-22.8	-23.3	17.2	0.00e+00	0	41	0	27271364608	20	17972
2026-01-07 22:26:15.82	156.08	29.34	-22.8	-23.3	17.3	0.00e+00	0	41	0	27355250688	20	17994
2026-01-07 22:26:16.83	156.39	29.11	-22.9	-23.4	17.2	0.00e+00	0	41	0	27430748160	20	18015
2026-01-07 22:26:17.84	156.69	28.89	-23.0	-23.4	17.2	0.00e+00	0	41	0	27506245632	20	18184
2026-01-07 22:26:18.84	156.99	28.67	-23.0	-23.4	17.2	0.00e+00	0	41	0	27581743104	20	18213
2026-01-07 22:26:19.85	157.28	28.44	-23.1	-23.6	17.2	0.00e+00	0	41	0	27657240576	20	18468
2026-01-07 22:26:20.86	157.58	28.22	-23.2	-23.7	17.2	0.00e+00	0	41	0	27724349440	20	18653
2026-01-07 22:26:21.87	157.86	28.00	-23.2	-23.7	17.2	0.00e+00	0	41	0	27808235520	20	18647
2026-01-07 22:26:22.88	158.15	27.78	-23.2	-23.7	17.2	0.00e+00	0	41	0	27883732992	20	18705
2026-01-07 22:26:23.89	158.42	27.57	-23.2	-23.7	17.2	0.00e+00	0	41	0	27959230464	20	18797
2026-01-07 22:26:24.90	158.70	27.35	-23.3	-23.8	17.2	0.00e+00	0	41	0	28034727936	20	18875
2026-01-07 22:26:25.91	158.97	27.14	-23.4	-23.9	17.2	0.00e+00	0	41	0	28110225408	20	19155
2026-01-07 22:26:26.92	159.24	26.92	-23.4	-23.8	17.2	0.00e+00	0	41	0	28185722880	20	19064
2026-01-07 22:26:27.93	159.50	26.71	-23.4	-23.9	17.2	0.00e+00	0	41	0	28261220352	20	19167
2026-01-07 22:26:28.94	159.76	26.50	-23.5	-24.0	17.1	0.00e+00	0	41	0	28336717824	20	19456
2026-01-07 22:26:29.95	160.02	26.29	-23.6	-24.1	17.2	0.00e+00	0	41	0	28412215296	20	19619
2026-01-07 22:26:30.96	160.27	26.09	-23.6	-24.1	17.2	0.00e+00	0	41	0	28487712768	20	19704
2026-01-07 22:26:31.97	160.52	25.88	-23.6	-24.1	17.2	0.00e+00	0	41	0	28563210240	20	19627
2026-01-07 22:26:32.98	160.76	25.68	-23.7	-24.2	17.2	0.00e+00	0	41	0	28638707712	20	19768
2026-01-07 22:26:33.99	161.00	25.47	-23.7	-24.2	17.2	0.00e+00	0	41	0	28714205184	20	19813
2026-01-07 22:26:35.00	161.24	25.27	-23.8	-24.3	17.2	0.00e+00	0	41	0	28789702656	22	17817
2026-01-07 22:26:36.01	161.48	25.07	-23.9	-24.4	17.2	0.00e+00	0	41	0	28865200128	22	18143
2026-01-07 22:26:37.02	161.71	24.87	-24.0	-24.5	17.1	0.00e+00	0	41	0	28940697600	22	18297
2026-01-07 22:26:38.03	161.94	24.67	-23.9	-24.4	17.1	0.00e+00	0	41	0	29016195072	22	18047
2026-01-07 22:26:39.04	162.16	24.48	-24.0	-24.5	17.1	0.00e+00	0	41	0	29091692544	22	18323
2026-01-07 22:26:40.04	162.39	24.28	-24.0	-24.5	17.1	0.00e+00	0	41	0	29167190016	22	18312
2026-01-07 22:26:41.06	162.61	24.09	-24.1	-24.6	17.1	0.00e+00	0	41	0	29242687488	22	18453
2026-01-07 22:26:42.07	162.82	23.90	-24.2	-24.7	17.1	0.00e+00	0	41	0	29318184960	22	18732
2026-01-07 22:26:43.08	163.04	23.71	-24.2	-24.7	17.1	0.00e+00	0	41	0	29393682432	22	18661
2026-01-07 22:26:44.09	163.25	23.52	-24.2	-24.7	17.1	0.00e+00	0	41	0	29469179904	22	18675
2026-01-07 22:26:45.10	163.46	23.33	-24.3	-24.8	17.1	0.00e+00	0	41	0	29544677376	22	18871
2026-01-07 22:26:46.11	163.66	23.14	-24.2	-24.7	17.0	0.00e+00	0	41	0	29620174848	22	18805
2026-01-07 22:26:47.12	163.87	22.96	-24.4	-24.9	17.1	0.00e+00	0	41	0	29704060928	22	19097
2026-01-07 22:26:48.13	164.07	22.77	-24.3	-24.8	17.2	0.00e+00	0	41	0	29779558400	22	18980
2026-01-07 22:26:49.14	164.26	22.59	-24.5	-25.0	17.1	0.00e+00	0	41	0	29846667264	22	19414
2026-01-07 22:26:50.15	164.46	22.41	-24.4	-24.9	17.1	0.00e+00	0	41	0	29922164736	22	19221
2026-01-07 22:26:51.16	164.65	22.23	-24.6	-25.1	17.1	0.00e+00	0	41	0	29997662208	22	19591
2026-01-07 22:26:52.17	164.84	22.05	-24.7	-25.1	17.1	0.00e+00	0	41	0	30081548288	22	19749
2026-01-07 22:26:53.18	165.03	21.87	-24.6	-25.1	17.1	0.00e+00	0	41	0	30157045760	22	19619
2026-01-07 22:26:54.19	165.22	21.69	-24.7	-25.2	17.1	0.00e+00	0	41	0	30232543232	22	19765
2026-01-07 22:26:55.20	165.40	21.52	-24.6	-25.1	17.0	0.00e+00	0	41	0	30308040704	22	19718
2026-01-07 22:26:56.21	165.58	21.35	-24.7	-25.2	17.1	0.00e+00	0	41	0	30383538176	22	19784
2026-01-07 22:26:57.22	165.76	21.17	-24.8	-25.2	17.0	0.00e+00	0	41	0	30459035648	24	17798
2026-01-07 22:26:58.23	165.94	21.00	-24.8	-25.3	17.0	0.00e+00	0	41	0	30534533120	24	17949
2026-01-07 22:26:59.25	166.11	20.83	-24.9	-25.4	17.0	0.00e+00	0	41	0	30610030592	24	18077
2026-01-07 22:27:00.26	166.28	20.66	-24.9	-25.4	17.0	0.00e+00	0	41	0	30685528064	24	18072
2026-01-07 22:27:01.27	166.45	20.49	-24.9	-25.4	17.0	0.00e+00	0	41	0	30761025536	24	18094
2026-01-07 22:27:02.28	166.62	20.33	-25.0	-25.4	17.0	0.00e+00	0	41	0	30836523008	24	18183
2026-01-07 22:27:03.28	166.79	20.16	-25.0	-25.5	17.0	0.00e+00	0	41	0	30912020480	24	18382
2026-01-07 22:27:04.29	166.95	20.00	-25.1	-25.6	17.0	0.00e+00	0	41	0	30987517952	24	18461
2026-01-07 22:27:05.30	167.11	19.83	-25.1	-25.5	17.0	0.00e+00	0	41	0	31063015424	24	18403
2026-01-07 22:27:06.31	167.27	19.67	-25.2	-25.7	17.0	0.00e+00	0	41	0	31138512896	24	18684
2026-01-07 22:27:07.32	167.43	19.51	-25.2	-25.7	17.0	0.00e+00	0	41	0	31214010368	24	18760
2026-01-07 22:27:08.33	167.59	19.35	-25.2	-25.7	17.0	0.00e+00	0	41	0	31289507840	24	18764
2026-01-07 22:27:09.34	167.74	19.19	-25.3	-25.8	16.9	0.00e+00	0	41	0	31365005312	24	18963
2026-01-07 22:27:10.35	167.90	19.03	-25.4	-25.8	17.0	0.00e+00	0	41	0	31440502784	24	19055
2026-01-07 22:27:11.36	168.05	18.88	-25.3	-25.8	16.9	0.00e+00	0	41	0	31516000256	24	18966
2026-01-07 22:27:12.37	168.20	18.72	-25.5	-25.9	16.9	0.00e+00	0	41	0	31591497728	24	19298
2026-01-07 22:27:13.38	168.35	18.57	-25.4	-25.9	17.0	0.00e+00	0	41	0	31666995200	24	19195
2026-01-07 22:27:14.40	168.49	18.41	-25.6	-26.0	16.9	0.00e+00	0	41	0	31742492672	24	19523
2026-01-07 22:27:15.41	168.64	18.26	-25.5	-26.0	16.9	0.00e+00	0	41	0	31817990144	24	19448
2026-01-07 22:27:16.42	168.78	18.11	-25.6	-26.1	16.9	0.00e+00	0	41	0	31893487616	24	19656
2026-01-07 22:27:17.43	168.92	17.96	-25.7	-26.2	16.9	0.00e+00	0	41	0	31977373696	24	19785
2026-01-07 22:27:18.44	169.06	17.81	-25.8	-26.3	16.9	0.00e+00	0	41	0	32044482560	26	17890
2026-01-07 22:27:19.45	169.20	17.66	-25.7	-26.2	16.8	0.00e+00	0	41	0	32119980032	26	17661
2026-01-07 22:27:20.46	169.34	17.52	-25.7	-26.2	16.9	0.00e+00	0	41	0	32195477504	26	17640
2026-01-07 22:27:21.46	169.47	17.37	-25.9	-26.4	16.9	0.00e+00	0	41	0	32270974976	26	18161
2026-01-07 22:27:22.47	169.61	17.23	-25.8	-26.3	16.9	0.00e+00	0	41	0	32354861056	26	17986
2026-01-07 22:27:23.49	169.74	17.08	-25.8	-26.3	16.8	0.00e+00	0	41	0	32430358528	26	17889
2026-01-07 22:27:24.50	169.87	16.94	-26.0	-26.5	16.9	0.00e+00	0	41	0	32505856000	26	18244
2026-01-07 22:27:25.51	170.00	16.79	-26.0	-26.4	16.9	0.00e+00	0	41	0	32572964864	26	18195
2026-01-07 22:27:26.52	170.13	16.65	-25.9	-26.4	16.8	0.00e+00	0	41	0	32656850944	26	18155
2026-01-07 22:27:27.53	170.25	16.51	-26.0	-26.5	16.9	0.00e+00	0	41	0	32732348416	26	18336
2026-01-07 22:27:28.54	170.38	16.37	-26.0	-26.5	16.8	0.00e+00	0	41	0	32807845888	26	18351
2026-01-07 22:27:29.55	170.50	16.23	-26.1	-26.6	16.9	0.00e+00	0	41	0	32883343360	26	18550
2026-01-07 22:27:30.56	170.63	16.10	-26.2	-26.7	16.8	0.00e+00	0	41	0	32958840832	26	18713
2026-01-07 22:27:31.56	170.75	15.96	-26.2	-26.7	16.8	0.00e+00	0	41	0	33034338304	26	18758
2026-01-07 22:27:32.57	170.87	15.82	-26.3	-26.8	16.8	0.00e+00	0	41	0	33109835776	26	18995
2026-01-07 22:27:33.58	170.99	15.69	-26.4	-26.8	16.7	0.00e+00	0	41	0	33185333248	26	19052
2026-01-07 22:27:34.59	171.11	15.55	-26.4	-26.9	16.7	0.00e+00	0	41	0	33260830720	26	19124
2026-01-07 22:27:35.60	171.22	15.42	-26.4	-26.9	16.7	0.00e+00	0	41	0	33336328192	26	19237
2026-01-07 22:27:36.61	171.34	15.29	-26.4	-26.9	16.7	0.00e+00	0	41	0	33411825664	26	19173
2026-01-07 22:27:37.62	171.45	15.16	-26.6	-27.1	16.7	0.00e+00	0	41	0	33487323136	26	19558
2026-01-07 22:27:38.63	171.57	15.03	-26.5	-27.0	16.7	0.00e+00	0	41	0	33562820608	26	19336
2026-01-07 22:27:39.64	171.68	14.90	-26.7	-27.2	16.8	0.00e+00	0	41	0	33638318080	26	19785
2026-01-07 22:27:40.65	171.79	14.77	-26.7	-27.1	16.6	0.00e+00	0	41	0	33713815552	26	19740
2026-01-07 22:27:41.66	171.90	14.64	-26.6	-27.0	16.7	0.00e+00	0	41	0	33789313024	26	19484
2026-01-07 22:27:42.67	172.01	14.51	-26.6	-27.1	16.5	0.00e+00	0	41	0	33864810496	26	19589
2026-01-07 22:27:43.68	172.12	14.38	-26.6	-27.1	16.2	0.00e+00	0	41	0	33940307968	28	17463
2026-01-07 22:27:44.69	172.22	14.26	-26.8	-27.2	15.9	0.00e+00	0	41	0	34015805440	28	17772
2026-01-07 22:27:45.70	172.33	14.13	-26.7	-27.2	16.3	0.00e+00	0	41	0	34091302912	28	17603
2026-01-07 22:27:46.71	172.43	14.01	-49.3	-51.8	3.6	0.00e+00	0	41	104	34133245952	60	47411
2026-01-07 22:27:47.72	172.54	13.88	-49.1	-51.6	3.6	0.00e+00	0	41	104	34133245952	60	46714
2026-01-07 22:27:48.73	172.64	13.76	-49.3	-51.7	3.6	0.00e+00	0	41	104	34133245952	60	47336
2026-01-07 22:27:49.74	172.74	13.64	-49.3	-51.7	3.6	0.00e+00	0	41	104	34133245952	60	47342
2026-01-07 22:27:50.75	172.84	13.52	-49.2	-51.8	3.5	0.00e+00	0	41	104	34133245952	60	47416
2026-01-07 22:27:51.76	172.94	13.40	-49.1	-51.7	3.6	0.00e+00	0	41	104	34133245952	60	46856
2026-01-07 22:27:52.77	173.04	13.28	-49.3	-51.7	3.6	0.00e+00	0	41	104	34133245952	60	47293
2026-01-07 22:27:53.78	173.14	13.16	-49.2	-51.7	3.6	0.00e+00	0	41	104	34133245952	60	47229
2026-01-07 22:27:54.79	173.24	13.04	-49.2	-51.7	3.6	0.00e+00	0	41	104	34133245952	60	47050
2026-01-07 22:27:55.80	173.33	12.92	-49.3	-51.8	3.6	0.00e+00	0	41	104	34133245952	60	47712
2026-01-07 22:27:56.81	173.43	12.80	-49.3	-51.8	3.6	0.00e+00	0	41	104	34133245952	60	47475
2026-01-07 22:27:57.82	173.52	12.69	-49.3	-51.7	3.6	0.00e+00	0	41	104	34133245952	60	47261
2026-01-07 22:27:58.83	173.62	12.57	-49.2	-51.7	3.6	0.00e+00	0	41	104	34133245952	60	47087
2026-01-07 22:27:59.83	173.71	12.46	-49.4	-51.8	3.6	0.00e+00	0	41	104	34133245952	60	47780
2026-01-07 22:28:00.84	173.80	12.34	-49.3	-51.7	3.6	0.00e+00	0	41	104	34133245952	60	47318
2026-01-07 22:28:01.85	173.89	12.23	-49.3	-51.8	3.6	0.00e+00	0	41	104	34133245952	60	47564
2026-01-07 22:28:02.86	173.98	12.11	-49.2	-51.7	3.6	0.00e+00	0	41	104	34133245952	60	46890
2026-01-07 22:28:03.87	174.07	12.00	-49.3	-51.8	3.6	0.00e+00	0	41	104	34133245952	60	47476
2026-01-07 22:28:04.88	174.16	11.89	-49.2	-51.7	3.6	0.00e+00	0	41	104	34133245952	60	47369
2026-01-07 22:28:05.89	174.25	11.78	-49.3	-51.7	3.6	0.00e+00	0	41	104	34133245952	60	47345
2026-01-07 22:28:06.90	174.33	11.67	-49.3	-51.7	3.6	0.00e+00	0	41	104	34133245952	60	47312
2026-01-07 22:28:07.91	174.42	11.56	-49.2	-51.7	3.6	0.00e+00	0	41	104	34133245952	60	47234
2026-01-07 22:28:08.92	174.51	11.45	-49.1	-51.6	3.6	0.00e+00	0	41	104	34133245952	60	46348
2026-01-07 22:28:09.93	174.59	11.34	-49.2	-51.7	3.6	0.00e+00	0	41	104	34133245952	60	47103
2026-01-07 22:28:10.94	174.68	11.23	-49.1	-51.6	3.6	0.00e+00	0	41	104	34133245952	60	46715
2026-01-07 22:28:11.95	174.76	11.12	-49.1	-51.6	3.6	0.00e+00	0	41	104	34133245952	60	46591
2026-01-07 22:28:12.96	174.84	11.01	-49.1	-51.7	3.6	0.00e+00	0	41	104	34133245952	60	46896
2026-01-07 22:28:13.97	174.92	10.91	-49.1	-51.6	3.6	0.00e+00	0	41	104	34133245952	60	46663
2026-01-07 22:28:14.98	175.01	10.80	-49.1	-51.6	3.6	0.00e+00	0	41	104	34133245952	60	46475
2026-01-07 22:28:15.99	175.09	10.70	-49.2	-51.7	3.6	0.00e+00	0	41	104	34133245952	60	47158
2026-01-07 22:28:17.00	175.17	10.59	-49.2	-51.6	3.6	0.00e+00	0	41	104	34133245952	60	46691
2026-01-07 22:28:18.01	175.25	10.49	-49.1	-51.6	3.6	0.00e+00	0	41	104	34133245952	60	46710
2026-01-07 22:28:19.02	175.32	10.38	-49.2	-51.7	3.6	0.00e+00	0	41	104	34133245952	60	47044
2026-01-07 22:28:20.03	175.40	10.28	-49.2	-51.7	3.6	0.00e+00	0	41	104	34133245952	60	47083
2026-01-07 22:28:21.04	175.48	10.18	-49.0	-51.6	3.5	0.00e+00	0	41	104	34133245952	60	46317
2026-01-07 22:28:22.05	175.56	10.07	-49.2	-51.7	3.6	0.00e+00	0	41	104	34133245952	60	47211
2026-01-07 22:28:23.06	175.63	9.97	-49.1	-51.6	3.6	0.00e+00	0	41	104	34133245952	60	46772
2026-01-07 22:28:24.07	175.71	9.87	-49.1	-51.6	3.6	0.00e+00	0	41	104	34133245952	60	46779
2026-01-07 22:28:25.08	175.78	9.77	-49.0	-51.5	3.6	0.00e+00	0	41	104	34133245952	60	46280
2026-01-07 22:28:26.08	175.86	9.67	-49.2	-51.7	3.6	0.00e+00	0	41	104	34133245952	60	47221
2026-01-07 22:28:27.09	175.93	9.57	-49.0	-51.5	3.6	0.00e+00	0	41	104	34133245952	60	46149
2026-01-07 22:28:28.10	176.00	9.47	-49.0	-51.5	3.6	0.00e+00	0	41	104	34133245952	60	45852
2026-01-07 22:28:29.11	176.08	9.37	-49.0	-51.6	3.6	0.00e+00	0	41	104	34133245952	60	46345
2026-01-07 22:28:30.12	176.15	9.27	-49.0	-51.5	3.6	0.00e+00	0	41	104	34133245952	60	46120
2026-01-07 22:28:31.13	176.22	9.18	-48.9	-51.5	3.6	0.00e+00	0	41	104	34133245952	60	45926
2026-01-07 22:28:32.14	176.29	9.08	-48.9	-51.4	3.5	0.00e+00	0	41	104	34133245952	60	45679
2026-01-07 22:28:33.15	176.36	8.98	-49.0	-51.5	3.6	0.00e+00	0	41	104	34133245952	60	46023
2026-01-07 22:28:34.16	176.43	8.89	-48.9	-51.4	3.6	0.00e+00	0	41	104	34133245952	60	45388
2026-01-07 22:28:35.17	176.50	8.79	-49.1	-51.6	3.6	0.00e+00	0	41	104	34133245952	60	46462
2026-01-07 22:28:36.18	176.57	8.69	-49.0	-51.5	3.6	0.00e+00	0	41	104	34133245952	60	46049
2026-01-07 22:28:37.19	176.64	8.60	-49.0	-51.6	3.6	0.00e+00	0	41	104	34133245952	60	46392
2026-01-07 22:28:38.19	176.71	8.51	-49.0	-51.6	3.6	0.00e+00	0	41	104	34133245952	60	46347
2026-01-07 22:28:39.21	176.77	8.41	-49.0	-51.5	3.6	0.00e+00	0	41	104	34133245952	60	46284
2026-01-07 22:28:40.22	176.84	8.32	-49.1	-51.6	3.6	0.00e+00	0	41	104	34133245952	60	46367
2026-01-07 22:28:41.22	176.91	8.22	-49.1	-51.6	3.6	0.00e+00	0	41	104	34133245952	60	46334
2026-01-07 22:28:42.23	176.97	8.13	-49.0	-51.5	3.6	0.00e+00	0	41	104	34133245952	60	46233
2026-01-07 22:28:43.24	177.04	8.04	-49.0	-51.6	3.6	0.00e+00	0	41	104	34133245952	60	46316
2026-01-07 22:28:44.25	177.10	7.95	-49.1	-51.6	3.6	0.00e+00	0	41	104	34133245952	60	46582
2026-01-07 22:28:45.26	177.17	7.86	-48.9	-51.4	3.6	0.00e+00	0	41	104	34133245952	60	45722
2026-01-07 22:28:46.27	177.23	7.76	-49.1	-51.6	3.6	0.00e+00	0	41	104	34133245952	60	46397
2026-01-07 22:28:47.28	177.29	7.67	-49.0	-51.5	3.6	0.00e+00	0	41	104	34133245952	60	45810
2026-01-07 22:28:48.29	177.36	7.58	-49.0	-51.5	3.6	0.00e+00	0	41	104	34133245952	60	46201
2026-01-07 22:28:49.30	177.42	7.49	-48.8	-51.3	3.6	0.00e+00	0	41	104	34133245952	60	44944
2026-01-07 22:28:50.31	177.48	7.40	-49.1	-51.6	3.6	0.00e+00	0	41	104	34133245952	60	46474
2026-01-07 22:28:51.32	177.54	7.31	-48.9	-51.3	3.6	0.00e+00	0	41	104	34133245952	60	45205
2026-01-07 22:28:52.33	177.60	7.23	-48.9	-51.4	3.6	0.00e+00	0	41	104	34133245952	60	45663
2026-01-07 22:28:53.33	177.66	7.14	-48.9	-51.4	3.6	0.00e+00	0	41	104	34133245952	60	45541
2026-01-07 22:28:54.34	177.72	7.05	-48.9	-51.4	3.6	0.00e+00	0	41	104	34133245952	60	45390
2026-01-07 22:28:55.35	177.78	6.96	-48.9	-51.4	3.6	0.00e+00	0	41	104	34133245952	60	45339
2026-01-07 22:28:56.36	177.84	6.88	-48.9	-51.4	3.6	0.00e+00	0	41	104	34133245952	60	45674
2026-01-07 22:28:57.37	177.90	6.79	-48.8	-51.3	3.6	0.00e+00	0	41	104	34133245952	60	45161
2026-01-07 22:28:58.38	177.96	6.70	-49.0	-51.4	3.6	0.00e+00	0	41	104	34133245952	60	45751
2026-01-07 22:28:59.39	178.02	6.62	-48.8	-51.3	3.6	0.00e+00	0	41	104	34133245952	60	45224
2026-01-07 22:29:00.40	178.08	6.53	-48.9	-51.4	3.6	0.00e+00	0	41	104	34133245952	60	45479
2026-01-07 22:29:01.40	178.13	6.45	-48.9	-51.3	3.6	0.00e+00	0	41	104	34133245952	60	45150
2026-01-07 22:29:02.41	178.19	6.36	-48.9	-51.4	3.6	0.00e+00	0	41	104	34133245952	60	45519
2026-01-07 22:29:03.42	178.25	6.28	-48.7	-51.2	3.6	0.00e+00	0	41	104	34133245952	60	44495
2026-01-07 22:29:04.43	178.30	6.19	-48.9	-51.4	3.6	0.00e+00	0	41	104	34133245952	60	45450
2026-01-07 22:29:05.44	178.36	6.11	-48.9	-51.4	3.6	0.00e+00	0	41	104	34133245952	60	45415
2026-01-07 22:29:06.45	178.41	6.02	-48.8	-51.3	3.6	0.00e+00	0	41	104	34133245952	60	45028
2026-01-07 22:29:07.45	178.47	5.94	-48.8	-51.4	3.6	0.00e+00	0	41	104	34133245952	60	45433
2026-01-07 22:29:08.46	178.52	5.86	-48.8	-51.4	3.6	0.00e+00	0	41	104	34133245952	60	45275
2026-01-07 22:29:09.47	178.58	5.78	-48.9	-51.4	3.6	0.00e+00	0	41	104	34133245952	60	45462
2026-01-07 22:29:10.48	178.63	5.69	-48.9	-51.4	3.6	0.00e+00	0	41	104	34133245952	60	45348
2026-01-07 22:29:11.48	178.68	5.61	-48.8	-51.2	3.5	0.00e+00	0	41	104	34133245952	60	44478
2026-01-07 22:29:12.50	178.74	5.53	-48.6	-51.2	3.6	0.00e+00	0	41	104	34133245952	60	44307
2026-01-07 22:29:13.51	178.79	5.45	-48.7	-51.2	3.6	0.00e+00	0	41	104	34133245952	60	44721
2026-01-07 22:29:14.52	178.84	5.37	-48.7	-51.2	3.6	0.00e+00	0	41	104	34133245952	60	44506
2026-01-07 22:29:15.52	178.90	5.29	-48.6	-51.2	3.6	0.00e+00	0	41	104	34133245952	60	44228
2026-01-07 22:29:16.53	178.95	5.21	-48.4	-50.9	3.5	0.00e+00	0	41	104	34133245952	60	43169
2026-01-07 22:29:17.54	179.00	5.13	-48.7	-51.2	3.6	0.00e+00	0	41	104	34133245952	60	44437
2026-01-07 22:29:18.55	179.05	5.05	-48.7	-51.2	3.6	0.00e+00	0	41	104	34133245952	60	44537
2026-01-07 22:29:19.56	179.10	4.97	-48.5	-51.0	3.6	0.00e+00	0	41	104	34133245952	60	43465
2026-01-07 22:29:20.57	179.15	4.89	-48.6	-51.1	3.6	0.00e+00	0	41	104	34133245952	60	43973
2026-01-07 22:29:21.58	179.20	4.81	-48.7	-51.2	3.6	0.00e+00	0	41	104	34133245952	60	44572
2026-01-07 22:29:22.59	179.25	4.73	-48.7	-51.2	3.6	0.00e+00	0	41	104	34133245952	60	44257
2026-01-07 22:29:23.60	179.30	4.65	-48.6	-51.1	3.6	0.00e+00	0	41	104	34133245952	60	43814
2026-01-07 22:29:24.61	179.35	4.58	-48.6	-51.2	3.6	0.00e+00	0	41	104	34133245952	60	44269
2026-01-07 22:29:25.62	179.40	4.50	-48.7	-51.2	3.6	0.00e+00	0	41	104	34133245952	60	44289
2026-01-07 22:29:26.63	179.45	4.42	-48.7	-51.2	3.6	0.00e+00	0	41	104	34133245952	60	44435
2026-01-07 22:29:27.63	179.50	4.35	-48.7	-51.2	3.6	0.00e+00	0	41	104	34133245952	60	44409
2026-01-07 22:29:28.64	179.54	4.27	-48.7	-51.2	3.6	0.00e+00	0	41	104	34133245952	60	44521
2026-01-07 22:29:29.66	179.59	4.19	-48.8	-51.3	3.6	0.00e+00	0	41	104	34133245952	60	44773
2026-01-07 22:29:30.67	179.64	4.11	-48.7	-51.2	3.6	0.00e+00	0	41	104	34133245952	60	44448
2026-01-07 22:29:31.67	179.69	4.04	-48.7	-51.2	3.6	0.00e+00	0	41	104	34133245952	60	44490
2026-01-07 22:29:32.68	179.73	3.96	-48.4	-51.0	3.6	0.00e+00	0	41	104	34133245952	60	43230
2026-01-07 22:29:33.69	179.78	3.89	-48.7	-51.2	3.6	0.00e+00	0	41	104	34133245952	60	44338
2026-01-07 22:29:34.70	179.83	3.81	-48.5	-51.0	3.6	0.00e+00	0	41	104	34133245952	60	43468
2026-01-07 22:29:35.72	179.87	3.74	-48.6	-51.1	3.6	0.00e+00	0	41	104	34133245952	60	44009
2026-01-07 22:29:36.72	179.92	3.66	-48.3	-50.8	3.6	0.00e+00	0	41	104	34133245952	60	42563
2026-01-07 22:29:37.73	179.97	3.59	-48.6	-51.1	3.6	0.00e+00	0	41	104	34133245952	60	44010
2026-01-07 22:29:38.74	180.01	3.52	-48.5	-51.0	3.6	0.00e+00	0	41	104	34133245952	60	43263
2026-01-07 22:29:39.75	180.06	3.44	-48.5	-51.0	3.6	0.00e+00	0	41	104	34133245952	60	43484
2026-01-07 22:29:40.76	180.10	3.37	-48.1	-50.6	3.6	0.00e+00	0	41	104	34133245952	60	41614
2026-01-07 22:29:41.77	180.14	3.29	-48.5	-51.0	3.6	0.00e+00	0	41	104	34133245952	60	43413
2026-01-07 22:29:42.78	180.19	3.22	-48.3	-50.8	3.6	0.00e+00	0	41	104	34133245952	60	42437
2026-01-07 22:29:43.79	180.23	3.15	-48.2	-50.8	3.6	0.00e+00	0	41	104	34133245952	60	42374
2026-01-07 22:29:44.80	180.28	3.08	-48.3	-50.8	3.6	0.00e+00	0	41	104	34133245952	60	42476
2026-01-07 22:29:45.81	180.32	3.00	-48.5	-51.0	3.6	0.00e+00	0	41	104	34133245952	60	43484
2026-01-07 22:29:46.82	180.36	2.93	-48.5	-51.1	3.6	0.00e+00	0	41	104	34133245952	60	43989
2026-01-07 22:29:47.83	180.41	2.86	-49.3	-51.8	3.6	0.00e+00	0	41	104	34133245952	60	47737
2026-01-07 22:29:48.84	180.45	2.79	-49.5	-52.0	3.6	0.00e+00	0	41	104	34133245952	60	48953
2026-01-07 22:29:49.85	180.49	2.72	-49.6	-52.1	3.6	0.00e+00	0	41	104	34133245952	60	49551
2026-01-07 22:29:50.86	180.53	2.64	-49.8	-52.3	3.6	0.00e+00	0	41	104	34133245952	60	50208
2026-01-07 22:29:51.87	180.58	2.57	-49.7	-52.2	3.6	0.00e+00	0	41	104	34133245952	60	49648
2026-01-07 22:29:52.88	180.62	2.50	-49.7	-52.2	3.6	0.00e+00	0	41	104	34133245952	60	50000
2026-01-07 22:29:53.89	180.66	2.43	-49.3	-51.9	3.6	0.00e+00	0	41	104	34133245952	60	48308
2026-01-07 22:29:54.90	180.70	2.36	-49.9	-52.4	3.6	0.00e+00	0	41	104	34133245952	60	50922
2026-01-07 22:29:55.91	180.74	2.29	-49.6	-52.1	3.6	0.00e+00	0	41	104	34133245952	60	49328
2026-01-07 22:29:56.91	180.78	2.22	-49.8	-52.3	3.6	0.00e+00	0	41	104	34133245952	60	50410
2026-01-07 22:29:57.92	180.82	2.15	-49.7	-52.2	3.6	0.00e+00	0	41	104	34133245952	60	49759
2026-01-07 22:29:58.93	180.86	2.08	-49.9	-52.4	3.6	0.00e+00	0	41	104	34133245952	60	50827
2026-01-07 22:29:59.94	180.90	2.01	-49.8	-52.3	3.6	0.00e+00	0	41	104	34133245952	60	50638
2026-01-07 22:30:00.95	180.94	1.95	-49.8	-52.3	3.5	0.00e+00	0	41	104	34133245952	60	50552
2026-01-07 22:30:01.96	180.98	1.88	-49.9	-52.3	3.6	0.00e+00	0	41	104	34133245952	60	50464
2026-01-07 22:30:02.97	181.02	1.81	-49.9	-52.3	3.6	0.00e+00	0	41	104	34133245952	60	50665
2026-01-07 22:30:03.98	181.06	1.74	-49.9	-52.3	3.6	0.00e+00	0	41	104	34133245952	60	50442
2026-01-07 22:30:04.99	181.10	1.67	-49.8	-52.3	3.6	0.00e+00	0	41	104	34133245952	60	50443
2026-01-07 22:30:06.00	181.14	1.60	-49.8	-52.3	3.6	0.00e+00	0	41	104	34133245952	60	50484
2026-01-07 22:30:07.01	181.18	1.54	-49.8	-52.3	3.6	0.00e+00	0	41	104	34133245952	60	50414
2026-01-07 22:30:08.02	181.22	1.47	-49.8	-52.3	3.6	0.00e+00	0	41	104	34133245952	60	50349
2026-01-07 22:30:09.03	181.25	1.40	-49.8	-52.3	3.6	0.00e+00	0	41	104	34133245952	60	50763
2026-01-07 22:30:10.04	181.29	1.33	-49.8	-52.3	3.6	0.00e+00	0	41	104	34133245952	60	50527
2026-01-07 22:30:11.05	181.33	1.27	-49.8	-52.3	3.6	0.00e+00	0	41	104	34133245952	60	50598
2026-01-07 22:30:12.06	181.37	1.20	-49.8	-52.3	3.6	0.00e+00	0	41	104	34133245952	60	50320
2026-01-07 22:30:13.07	181.41	1.13	-49.8	-52.3	3.6	0.00e+00	0	41	104	34133245952	60	50369
2026-01-07 22:30:14.08	181.44	1.07	-49.8	-52.3	3.6	0.00e+00	0	41	104	34133245952	60	50335
2026-01-07 22:30:15.09	181.48	1.00	-49.8	-52.3	3.6	0.00e+00	0	41	104	34133245952	60	50591
2026-01-07 22:30:16.10	181.52	0.93	-49.8	-52.3	3.6	0.00e+00	0	41	104	34133245952	60	50305
2026-01-07 22:30:17.11	181.55	0.87	-49.8	-52.3	3.6	0.00e+00	0	41	104	34133245952	60	50493
2026-01-07 22:30:18.12	181.59	0.80	-49.8	-52.3	3.6	0.00e+00	0	41	104	34133245952	60	50342
2026-01-07 22:30:19.13	181.63	0.74	-49.8	-52.3	3.6	0.00e+00	0	41	104	34133245952	60	50575
2026-01-07 22:30:20.14	181.66	0.67	-49.8	-52.3	3.6	0.00e+00	0	41	104	34133245952	60	50504
2026-01-07 22:30:21.15	181.70	0.61	-49.8	-52.3	3.6	0.00e+00	0	41	104	34133245952	60	50581
2026-01-07 22:30:22.16	181.73	0.54	-49.8	-52.3	3.6	0.00e+00	0	41	104	34133245952	60	50306
2026-01-07 22:30:23.17	181.77	0.48	-49.8	-52.3	3.6	0.00e+00	0	41	104	34133245952	60	50568
2026-01-07 22:30:24.18	181.80	0.41	-49.8	-52.3	3.6	0.00e+00	0	41	104	34133245952	60	50395
2026-01-07 22:30:25.19	181.84	0.35	-49.8	-52.3	3.6	0.00e+00	0	41	104	34133245952	60	50297
2026-01-07 22:30:26.20	181.88	0.28	-49.8	-52.3	3.6	0.00e+00	0	41	104	34133245952	60	50363
