passes_logs/2026/01/07/R4.6S_Anadyr/R4.6S_Anadyr__20260107_153434_SUOMI_NPP_rec.log

#Pass ID: 20260107_153434_SUOMI NPP
#Satellite: SUOMI NPP
#Configuration: NPP
#almurnet v.1.7.20251203
#Start time: 2026-01-07 15:34:34

#Version: 2.2.20231116
#Station: R4.6S_Anadyr
#Location: 177.4865 lon 64.73178 lat
#TLE: 1 37849U 11061A   26004.95404768  .00000136  00000+0  85334-4 0  9991
#TLE: 2 37849  98.7801 307.0898 0002575  80.6707 279.4760 14.19522289735281

#Time	Az	El	Level	Level2	SNR	BER	BlckErr	Temp	State	Recorded	gain1	gain2
2026-01-07 15:34:34.85	22.54	0.04	-49.3	-61.7	3.4	1.52e+00	0	35	0	0	60	42810
2026-01-07 15:34:35.86	22.52	0.10	-49.3	-64.5	3.6	1.51e+00	0	36	104	0	60	60585
2026-01-07 15:34:36.87	22.51	0.16	-49.3	-64.5	3.6	1.51e+00	0	37	104	0	60	60524
2026-01-07 15:34:37.88	22.49	0.22	-49.3	-64.5	3.6	1.51e+00	0	37	104	0	60	60690
2026-01-07 15:34:38.89	22.47	0.28	-49.3	-64.5	3.6	1.51e+00	0	37	104	0	60	60813
2026-01-07 15:34:39.90	22.45	0.34	-49.4	-64.6	3.6	1.51e+00	0	37	104	0	60	61045
2026-01-07 15:34:40.91	22.44	0.40	-49.4	-64.6	3.6	1.51e+00	0	37	104	0	60	61061
2026-01-07 15:34:41.92	22.42	0.46	-49.3	-64.5	3.6	1.51e+00	0	37	104	0	60	60687
2026-01-07 15:34:42.93	22.40	0.52	-49.2	-64.5	3.6	1.51e+00	0	37	104	0	60	60577
2026-01-07 15:34:43.94	22.38	0.58	-49.2	-64.4	3.6	1.51e+00	0	37	104	0	60	60153
2026-01-07 15:34:44.95	22.37	0.64	-49.2	-64.4	3.6	1.51e+00	0	37	104	0	60	59761
2026-01-07 15:34:45.96	22.35	0.70	-49.1	-64.3	3.6	1.51e+00	0	37	104	0	60	59121
2026-01-07 15:34:46.97	22.33	0.77	-48.9	-64.1	3.6	1.51e+00	0	37	104	0	60	57771
2026-01-07 15:34:47.98	22.31	0.83	-48.7	-63.9	3.6	1.51e+00	0	37	104	0	60	56650
2026-01-07 15:34:48.98	22.29	0.89	-48.5	-63.7	3.6	1.51e+00	0	37	104	0	60	55441
2026-01-07 15:34:50.00	22.28	0.95	-48.2	-63.4	3.6	1.51e+00	0	37	104	0	60	53494
2026-01-07 15:34:51.01	22.26	1.01	-47.9	-63.1	3.6	1.51e+00	0	37	104	0	60	51580
2026-01-07 15:34:52.02	22.24	1.07	-47.9	-63.0	3.6	1.51e+00	0	37	104	0	60	51344
2026-01-07 15:34:53.03	22.22	1.13	-47.9	-63.1	3.6	1.51e+00	0	37	104	0	60	51388
2026-01-07 15:34:54.04	22.20	1.20	-47.9	-63.1	3.6	1.51e+00	0	37	104	0	60	51405
2026-01-07 15:34:55.05	22.18	1.26	-47.9	-63.0	3.6	1.51e+00	0	37	104	0	60	51268
2026-01-07 15:34:56.05	22.16	1.32	-47.9	-63.1	3.6	1.51e+00	0	37	104	0	60	51521
2026-01-07 15:34:57.07	22.15	1.38	-47.9	-63.0	3.6	1.51e+00	0	37	104	0	60	51215
2026-01-07 15:34:58.07	22.13	1.45	-47.9	-63.0	3.6	1.51e+00	0	37	104	0	60	51343
2026-01-07 15:34:59.08	22.11	1.51	-47.9	-62.9	3.6	1.51e+00	0	37	104	0	60	50705
2026-01-07 15:35:00.09	22.09	1.57	-47.9	-62.8	3.6	1.51e+00	0	37	104	0	60	49966
2026-01-07 15:35:01.10	22.07	1.63	-47.9	-62.7	3.6	1.51e+00	0	37	104	0	60	49464
2026-01-07 15:35:02.11	22.05	1.70	-47.9	-62.7	3.6	1.51e+00	0	37	104	0	60	49086
2026-01-07 15:35:03.12	22.03	1.76	-47.9	-62.6	3.6	1.51e+00	0	37	104	0	60	48612
2026-01-07 15:35:04.13	22.01	1.82	-47.9	-62.6	3.6	1.51e+00	0	37	104	0	60	48659
2026-01-07 15:35:05.14	21.99	1.89	-47.9	-62.6	3.6	1.51e+00	0	37	104	0	60	48935
2026-01-07 15:35:06.15	21.97	1.95	-47.9	-62.9	3.6	1.51e+00	0	37	104	0	60	50524
2026-01-07 15:35:07.16	21.95	2.01	-47.9	-62.9	3.6	1.51e+00	0	37	104	0	60	50446
2026-01-07 15:35:08.17	21.93	2.08	-47.9	-63.0	3.6	1.51e+00	0	37	104	0	60	51195
2026-01-07 15:35:09.18	21.91	2.14	-47.9	-63.1	3.6	1.51e+00	0	37	104	0	60	51537
2026-01-07 15:35:10.19	21.89	2.21	-47.9	-63.0	3.6	1.51e+00	0	37	104	0	60	51255
2026-01-07 15:35:11.20	21.87	2.27	-47.9	-63.0	3.6	1.51e+00	0	37	104	0	60	50795
2026-01-07 15:35:12.21	21.85	2.33	-47.9	-62.9	3.6	1.51e+00	0	37	104	0	60	50258
2026-01-07 15:35:13.22	21.83	2.40	-47.9	-62.6	3.6	1.51e+00	0	37	104	0	60	48749
2026-01-07 15:35:14.23	21.81	2.46	-47.9	-62.5	3.6	1.51e+00	0	37	104	0	60	48205
2026-01-07 15:35:15.24	21.79	2.53	-47.9	-62.2	3.6	1.51e+00	0	37	104	0	60	46560
2026-01-07 15:35:16.25	21.77	2.59	-47.8	-61.8	3.6	1.51e+00	0	37	104	0	60	44506
2026-01-07 15:35:17.26	21.75	2.66	-47.8	-61.5	3.6	1.51e+00	0	37	104	0	60	42879
2026-01-07 15:35:18.27	21.72	2.72	-47.8	-61.3	3.6	1.51e+00	0	37	104	0	60	42046
2026-01-07 15:35:19.28	21.70	2.79	-47.8	-61.5	3.6	1.51e+00	0	37	104	0	60	43134
2026-01-07 15:35:20.29	21.68	2.86	-47.8	-61.8	3.6	1.51e+00	0	37	104	0	60	44348
2026-01-07 15:35:21.30	21.66	2.92	-47.9	-62.6	3.6	1.51e+00	0	37	104	0	60	48610
2026-01-07 15:35:22.31	21.64	2.99	-47.9	-62.9	3.6	1.51e+00	0	37	104	0	60	50630
2026-01-07 15:35:23.32	21.62	3.05	-47.9	-62.2	3.6	1.51e+00	0	37	104	0	60	46514
2026-01-07 15:35:24.33	21.60	3.12	-47.7	-60.3	3.7	1.51e+00	0	37	104	0	60	37217
2026-01-07 15:35:25.34	21.57	3.19	-47.5	-57.6	5.0	1.06e+00	0	37	104	0	60	27378
2026-01-07 15:35:26.35	21.55	3.25	-47.3	-54.7	6.5	3.58e-01	0	37	0	1048576	60	19709
2026-01-07 15:35:27.36	21.53	3.32	-46.9	-53.2	8.1	1.46e-01	0	37	0	3145728	60	16441
2026-01-07 15:35:28.63	21.50	3.40	-46.5	-51.9	9.6	2.35e-02	30	37	0	4194304	60	14303
2026-01-07 15:35:29.35	21.48	3.45	-46.3	-51.2	10.4	1.24e-02	0	37	0	5242880	60	13160
2026-01-07 15:35:30.65	21.46	3.54	-46.2	-50.9	10.7	2.81e-03	92	37	0	7340032	60	12746
2026-01-07 15:35:31.37	21.44	3.58	-46.0	-50.4	11.4	2.55e-03	0	37	0	8388608	60	11980
2026-01-07 15:35:32.67	21.41	3.67	-46.1	-50.7	11.0	2.67e-03	0	37	0	11534336	60	12434
2026-01-07 15:35:33.39	21.39	3.72	-46.5	-51.9	9.7	3.83e-03	0	37	0	12582912	60	14226
2026-01-07 15:35:34.69	21.36	3.81	-47.3	-54.8	6.2	1.47e-01	0	37	0	14680064	60	19770
2026-01-07 15:35:35.41	21.35	3.86	-47.7	-56.3	6.1	5.29e-01	0	37	0	16777216	60	23560
2026-01-07 15:35:36.71	21.32	3.94	-47.1	-55.0	5.3	1.50e+00	3	37	104	17825792	60	20306
2026-01-07 15:35:37.43	21.30	3.99	-40.9	-42.3	17.7	1.04e+00	80	37	104	17825792	54	6669
2026-01-07 15:35:38.72	21.27	4.08	-47.9	-62.2	3.8	1.51e+00	0	37	104	17825792	60	46489
2026-01-07 15:35:39.44	21.25	4.13	-41.3	-42.8	18.1	1.21e-02	84	37	104	17825792	56	6285
2026-01-07 15:35:40.74	21.22	4.22	-40.1	-41.4	20.5	0.00e+00	0	37	0	19922944	54	5975
2026-01-07 15:35:41.46	21.21	4.27	-40.1	-41.4	20.3	0.00e+00	90	37	0	20971520	54	6029
2026-01-07 15:35:42.76	21.18	4.35	-40.1	-41.3	20.4	0.00e+00	0	37	0	23068672	54	5951
2026-01-07 15:35:43.48	21.16	4.40	-40.0	-41.2	20.6	0.00e+00	0	37	0	24117248	54	5887
2026-01-07 15:35:44.78	21.13	4.49	-40.4	-41.7	20.2	0.00e+00	79	37	0	27262976	54	6202
2026-01-07 15:35:45.50	21.11	4.54	-40.1	-41.4	20.5	0.00e+00	0	37	0	28311552	54	6005
2026-01-07 15:35:46.80	21.08	4.63	-39.9	-41.2	20.7	0.00e+00	65	37	0	30408704	54	5852
2026-01-07 15:35:47.52	21.06	4.68	-39.9	-41.1	20.8	0.00e+00	0	37	0	32505856	54	5828
2026-01-07 15:35:48.82	21.03	4.77	-39.9	-41.1	20.8	0.00e+00	0	37	0	34603008	54	5820
2026-01-07 15:35:49.54	21.01	4.82	-39.9	-41.1	20.7	0.00e+00	0	37	0	35651584	54	5825
2026-01-07 15:35:50.84	20.98	4.91	-40.0	-41.2	20.7	0.00e+00	0	37	0	38797312	52	6607
2026-01-07 15:35:51.56	20.96	4.96	-40.0	-41.3	20.6	0.00e+00	0	37	0	39845888	52	6649
2026-01-07 15:35:52.86	20.93	5.06	-39.8	-41.0	20.9	0.00e+00	0	37	0	41943040	52	6425
2026-01-07 15:35:53.58	20.91	5.11	-39.5	-40.7	21.2	0.00e+00	7	37	0	42991616	52	6182
2026-01-07 15:35:54.88	20.87	5.20	-39.5	-40.7	21.2	0.00e+00	0	37	0	46137344	52	6224
2026-01-07 15:35:55.60	20.86	5.25	-39.6	-40.7	21.2	0.00e+00	92	37	0	47185920	52	6241
2026-01-07 15:35:56.89	20.82	5.34	-39.3	-40.5	21.5	0.00e+00	0	37	0	49283072	52	6040
2026-01-07 15:35:57.62	20.80	5.39	-39.5	-40.6	21.3	0.00e+00	0	37	0	51380224	52	6145
2026-01-07 15:35:58.91	20.77	5.48	-39.3	-40.5	21.5	0.00e+00	2	37	0	53477376	52	6059
2026-01-07 15:35:59.63	20.75	5.54	-39.2	-40.4	21.5	0.00e+00	0	37	0	54525952	52	5974
2026-01-07 15:36:00.93	20.72	5.63	-39.5	-40.7	21.3	0.00e+00	81	37	0	57671680	52	6188
2026-01-07 15:36:01.65	20.70	5.68	-39.3	-40.4	21.5	0.00e+00	0	37	0	58720256	52	5979
2026-01-07 15:36:02.95	20.66	5.77	-39.3	-40.5	21.4	0.00e+00	0	37	0	60817408	52	6046
2026-01-07 15:36:03.67	20.64	5.83	-39.3	-40.4	21.4	0.00e+00	0	37	0	61865984	52	6027
2026-01-07 15:36:04.97	20.61	5.92	-39.4	-40.6	21.5	0.00e+00	0	37	0	65011712	52	6120
2026-01-07 15:36:05.69	20.59	5.97	-39.4	-40.5	21.5	0.00e+00	0	37	0	66060288	52	6059
2026-01-07 15:36:06.99	20.55	6.07	-39.3	-40.5	21.4	0.00e+00	0	37	0	68157440	52	6040
2026-01-07 15:36:07.71	20.53	6.12	-39.4	-40.6	21.5	0.00e+00	0	37	0	70254592	52	6116
2026-01-07 15:36:09.01	20.50	6.22	-39.3	-40.5	21.6	0.00e+00	0	37	0	72351744	52	6054
2026-01-07 15:36:09.73	20.48	6.27	-39.3	-40.4	21.5	0.00e+00	78	37	0	73400320	52	5987
2026-01-07 15:36:11.03	20.44	6.36	-39.3	-40.5	21.5	0.00e+00	0	37	0	76546048	52	6045
2026-01-07 15:36:11.75	20.42	6.42	-39.4	-40.5	21.5	0.00e+00	0	37	0	77594624	52	6094
2026-01-07 15:36:13.05	20.38	6.51	-39.1	-40.2	21.7	0.00e+00	0	37	0	79691776	52	5861
2026-01-07 15:36:13.77	20.36	6.57	-39.1	-40.2	21.8	0.00e+00	0	37	0	81788928	52	5836
2026-01-07 15:36:15.07	20.33	6.66	-39.4	-40.6	21.4	0.00e+00	64	37	0	83886080	52	6121
2026-01-07 15:36:15.79	20.31	6.72	-39.2	-40.3	21.7	0.00e+00	0	37	0	84934656	52	5902
2026-01-07 15:36:17.09	20.27	6.82	-39.1	-40.2	21.8	0.00e+00	0	37	0	88080384	52	5896
2026-01-07 15:36:17.81	20.25	6.87	-39.0	-40.1	21.9	0.00e+00	0	37	0	89128960	52	5783
2026-01-07 15:36:19.11	20.21	6.97	-39.1	-40.2	21.9	0.00e+00	0	37	0	91226112	52	5861
2026-01-07 15:36:19.83	20.19	7.02	-39.2	-40.3	21.7	0.00e+00	0	37	0	92274688	52	5949
2026-01-07 15:36:21.13	20.15	7.12	-39.1	-40.2	21.8	0.00e+00	0	37	0	95420416	52	5854
2026-01-07 15:36:21.85	20.13	7.17	-39.0	-40.0	22.0	0.00e+00	0	37	0	96468992	52	5748
2026-01-07 15:36:23.14	20.09	7.27	-38.9	-40.0	22.0	0.00e+00	0	37	0	98566144	52	5700
2026-01-07 15:36:23.86	20.07	7.33	-39.0	-40.0	21.9	0.00e+00	65	37	0	100663296	52	5754
2026-01-07 15:36:25.16	20.03	7.43	-38.7	-39.7	22.2	0.00e+00	0	37	0	102760448	50	6238
2026-01-07 15:36:25.88	20.01	7.48	-38.8	-39.8	22.1	0.00e+00	65	37	0	103809024	50	6307
2026-01-07 15:36:27.18	19.96	7.58	-38.9	-39.9	22.0	0.00e+00	65	37	0	106954752	50	6375
2026-01-07 15:36:27.90	19.94	7.64	-38.7	-39.8	22.3	0.00e+00	0	37	0	108003328	50	6256
2026-01-07 15:36:29.20	19.90	7.74	-38.6	-39.6	22.4	0.00e+00	83	37	0	110100480	50	6118
2026-01-07 15:36:29.92	19.88	7.80	-38.6	-39.7	22.2	0.00e+00	0	37	0	111149056	50	6201
2026-01-07 15:36:31.22	19.84	7.90	-38.6	-39.7	22.3	0.00e+00	92	37	0	114294784	50	6200
2026-01-07 15:36:31.94	19.82	7.95	-38.4	-39.4	22.6	0.00e+00	0	37	0	115343360	50	6005
2026-01-07 15:36:33.24	19.77	8.06	-36.7	-39.5	18.8	1.23e-02	0	38	0	117440512	46	7670
2026-01-07 15:36:33.96	19.75	8.11	-36.7	-39.6	18.6	1.45e-02	0	37	0	119537664	46	7771
2026-01-07 15:36:35.26	19.71	8.21	-36.6	-39.6	18.8	1.83e-02	0	38	0	121634816	46	7716
2026-01-07 15:36:35.98	19.69	8.27	-36.7	-39.6	18.6	1.52e-02	0	37	0	122683392	46	7728
2026-01-07 15:36:37.28	19.64	8.37	-36.4	-39.3	18.2	1.86e-02	0	38	0	125829120	46	7455
2026-01-07 15:36:38.00	19.62	8.43	-36.5	-39.5	18.1	2.34e-02	84	37	0	126877696	46	7613
2026-01-07 15:36:39.29	19.58	8.53	-36.1	-39.3	18.1	1.86e-02	0	37	0	128974848	46	7490
2026-01-07 15:36:40.01	19.55	8.59	-36.1	-39.1	18.5	2.00e-02	85	37	0	130023424	46	7314
2026-01-07 15:36:41.31	19.51	8.70	-36.3	-39.3	18.3	2.01e-02	0	37	0	133169152	46	7436
2026-01-07 15:36:42.03	19.48	8.76	-36.3	-39.2	18.2	1.98e-02	0	37	0	134217728	46	7394
2026-01-07 15:36:43.33	19.44	8.86	-36.0	-39.3	17.9	2.03e-02	52	37	0	136314880	46	7433
2026-01-07 15:36:44.05	19.42	8.92	-36.1	-39.0	17.4	2.47e-02	0	37	0	138412032	46	7248
2026-01-07 15:36:45.35	19.37	9.02	-35.9	-39.0	18.5	2.58e-02	60	37	0	140509184	44	8093
2026-01-07 15:36:46.07	19.35	9.08	-35.9	-39.0	18.8	1.74e-02	0	37	0	141557760	44	8112
2026-01-07 15:36:47.37	19.30	9.19	-35.9	-39.1	18.9	1.24e-02	0	37	0	144703488	44	8169
2026-01-07 15:36:48.09	19.28	9.25	-37.9	-38.9	23.0	1.29e-02	0	38	0	145752064	48	6324
2026-01-07 15:36:49.39	19.23	9.36	-37.9	-38.8	23.1	0.00e+00	0	38	0	147849216	48	6308
2026-01-07 15:36:50.11	19.20	9.42	-37.9	-38.8	23.1	0.00e+00	0	37	0	149946368	48	6299
2026-01-07 15:36:51.41	19.16	9.52	-37.8	-38.8	23.1	0.00e+00	0	38	0	152043520	48	6256
2026-01-07 15:36:52.13	19.13	9.58	-37.9	-38.9	23.1	0.00e+00	0	38	0	153092096	48	6324
2026-01-07 15:36:53.43	19.08	9.69	-37.6	-38.5	23.3	0.00e+00	0	38	0	155189248	48	6064
2026-01-07 15:36:54.14	19.06	9.75	-37.8	-38.8	23.1	0.00e+00	91	38	0	157286400	48	6271
2026-01-07 15:36:55.44	19.01	9.86	-37.7	-38.6	23.2	0.00e+00	33	38	0	159383552	48	6170
2026-01-07 15:36:56.17	18.98	9.92	-37.5	-38.5	23.3	0.00e+00	82	38	0	160432128	48	6036
2026-01-07 15:36:57.46	18.94	10.03	-37.6	-38.5	23.2	0.00e+00	0	37	0	163577856	48	6075
2026-01-07 15:36:58.19	18.91	10.09	-37.5	-38.4	23.3	0.00e+00	0	37	0	164626432	48	6009
2026-01-07 15:36:59.48	18.86	10.20	-37.6	-38.5	23.4	0.00e+00	78	38	0	166723584	48	6047
2026-01-07 15:37:00.21	18.83	10.27	-37.5	-38.4	23.1	0.00e+00	0	37	0	168820736	48	5985
2026-01-07 15:37:01.50	18.78	10.38	-37.4	-38.3	23.1	0.00e+00	92	38	0	170917888	48	5902
2026-01-07 15:37:02.23	18.75	10.44	-37.5	-38.4	23.0	0.00e+00	0	38	0	171966464	48	5977
2026-01-07 15:37:03.53	18.70	10.55	-37.4	-38.3	23.0	0.00e+00	0	38	0	174063616	48	5900
2026-01-07 15:37:04.25	18.68	10.61	-37.4	-38.3	23.0	0.00e+00	0	38	0	176160768	48	5947
2026-01-07 15:37:05.55	18.63	10.73	-37.4	-38.3	23.3	0.00e+00	0	37	0	178257920	48	5905
2026-01-07 15:37:06.27	18.60	10.79	-37.4	-38.3	23.2	0.00e+00	0	37	0	179306496	48	5955
2026-01-07 15:37:07.57	18.55	10.90	-37.4	-38.3	23.4	0.00e+00	0	38	0	182452224	48	5927
2026-01-07 15:37:08.29	18.52	10.97	-37.4	-38.3	23.6	0.00e+00	0	38	0	183500800	48	5900
2026-01-07 15:37:09.59	18.46	11.08	-37.5	-38.4	23.4	0.00e+00	0	38	0	185597952	48	5966
2026-01-07 15:37:10.31	18.44	11.14	-37.6	-38.5	23.5	0.00e+00	83	37	0	187695104	48	6052
2026-01-07 15:37:11.61	18.38	11.26	-37.4	-38.3	23.4	0.00e+00	0	38	0	189792256	48	5930
2026-01-07 15:37:12.33	18.35	11.32	-37.5	-38.4	23.5	0.00e+00	0	38	0	190840832	48	6022
2026-01-07 15:37:13.63	18.30	11.44	-37.3	-38.2	23.6	0.00e+00	87	38	0	193986560	48	5842
2026-01-07 15:37:14.35	18.27	11.51	-37.1	-38.0	23.7	0.00e+00	0	38	0	195035136	48	5701
2026-01-07 15:37:15.64	18.21	11.62	-37.1	-38.0	23.8	0.00e+00	89	38	0	197132288	48	5729
2026-01-07 15:37:16.37	18.18	11.69	-37.2	-38.0	23.8	0.00e+00	0	37	0	198180864	48	5749
2026-01-07 15:37:17.67	18.13	11.80	-37.2	-38.1	23.7	0.00e+00	0	37	0	201326592	48	5772
2026-01-07 15:37:18.39	18.10	11.87	-37.3	-38.2	23.8	0.00e+00	0	38	0	202375168	48	5830
2026-01-07 15:37:19.69	18.04	11.99	-37.3	-38.2	23.6	0.00e+00	0	37	0	204472320	48	5865
2026-01-07 15:37:20.41	18.01	12.05	-37.3	-38.2	23.7	0.00e+00	0	37	0	206569472	48	5836
2026-01-07 15:37:21.71	17.95	12.17	-37.3	-38.2	23.7	0.00e+00	0	38	0	208666624	48	5844
2026-01-07 15:37:22.43	17.92	12.24	-37.3	-38.2	23.6	0.00e+00	83	38	0	209715200	48	5866
2026-01-07 15:37:23.73	17.86	12.36	-37.2	-38.1	23.7	0.00e+00	0	38	0	212860928	48	5792
2026-01-07 15:37:24.45	17.83	12.43	-37.1	-38.0	23.8	0.00e+00	85	38	0	213909504	48	5731
2026-01-07 15:37:25.75	17.77	12.55	-37.4	-38.3	23.6	0.00e+00	0	38	0	216006656	48	5940
2026-01-07 15:37:26.47	17.74	12.62	-37.2	-38.1	23.8	0.00e+00	87	38	0	218103808	48	5764
2026-01-07 15:37:27.77	17.68	12.74	-37.2	-38.1	23.7	0.00e+00	65	38	0	220200960	48	5813
2026-01-07 15:37:28.49	17.65	12.81	-37.3	-38.2	23.8	0.00e+00	0	38	0	221249536	48	5847
2026-01-07 15:37:29.79	17.59	12.93	-37.1	-37.9	23.8	0.00e+00	87	38	0	224395264	48	5684
2026-01-07 15:37:30.51	17.56	13.00	-37.2	-38.1	23.8	0.00e+00	0	38	0	225443840	48	5816
2026-01-07 15:37:31.80	17.50	13.12	-37.3	-38.2	23.7	0.00e+00	0	38	0	227540992	48	5838
2026-01-07 15:37:32.53	17.46	13.19	-37.4	-38.2	23.7	0.00e+00	0	38	0	228589568	48	5894
2026-01-07 15:37:33.82	17.40	13.31	-37.2	-38.1	23.9	0.00e+00	0	38	0	231735296	48	5775
2026-01-07 15:37:34.55	17.37	13.39	-37.2	-38.1	23.8	0.00e+00	0	38	0	232783872	48	5766
2026-01-07 15:37:35.85	17.30	13.51	-37.4	-38.3	23.7	0.00e+00	0	38	0	234881024	48	5920
2026-01-07 15:37:36.56	17.27	13.58	-37.1	-38.0	23.7	0.00e+00	0	38	0	236978176	48	5742
2026-01-07 15:37:37.87	17.20	13.71	-37.1	-38.0	23.9	0.00e+00	0	38	0	239075328	48	5720
2026-01-07 15:37:38.59	17.17	13.78	-37.4	-38.3	23.6	0.00e+00	26	38	0	240123904	48	5920
2026-01-07 15:37:39.88	17.10	13.91	-37.2	-38.1	23.8	0.00e+00	0	37	0	243269632	48	5783
2026-01-07 15:37:40.61	17.07	13.98	-37.2	-38.1	23.8	0.00e+00	89	38	0	244318208	48	5807
2026-01-07 15:37:41.90	17.00	14.10	-37.3	-38.1	23.8	0.00e+00	41	38	0	246415360	48	5822
2026-01-07 15:37:42.63	16.97	14.18	-37.3	-38.2	23.7	0.00e+00	0	38	0	247463936	48	5875
2026-01-07 15:37:43.93	16.90	14.31	-37.2	-38.1	23.7	0.00e+00	82	38	0	250609664	48	5808
2026-01-07 15:37:44.65	16.86	14.38	-37.4	-38.3	23.7	0.00e+00	0	38	0	251658240	48	5924
2026-01-07 15:37:45.94	16.80	14.51	-37.3	-38.1	23.8	0.00e+00	86	38	0	253755392	48	5819
2026-01-07 15:37:46.67	16.76	14.58	-37.4	-38.3	23.6	0.00e+00	0	38	0	255852544	48	5952
2026-01-07 15:37:47.96	16.69	14.71	-37.4	-38.3	23.7	0.00e+00	0	38	0	257949696	48	5909
2026-01-07 15:37:48.68	16.65	14.79	-37.4	-38.3	23.7	0.00e+00	0	38	0	258998272	48	5900
2026-01-07 15:37:49.98	16.58	14.92	-37.5	-38.3	23.7	0.00e+00	0	38	0	262144000	48	5958
2026-01-07 15:37:50.70	16.54	14.99	-37.5	-38.4	23.8	0.00e+00	0	38	0	263192576	48	6011
2026-01-07 15:37:52.00	16.47	15.13	-37.4	-38.2	23.8	0.00e+00	0	38	0	265289728	48	5889
2026-01-07 15:37:52.72	16.43	15.20	-37.3	-38.2	23.8	0.00e+00	0	38	0	266338304	48	5838
2026-01-07 15:37:54.02	16.36	15.34	-37.3	-38.1	23.8	0.00e+00	0	38	0	269484032	48	5819
2026-01-07 15:37:54.74	16.32	15.41	-37.5	-38.3	23.5	0.00e+00	82	38	0	270532608	48	5964
2026-01-07 15:37:56.04	16.25	15.55	-37.2	-38.1	23.8	0.00e+00	0	38	0	272629760	48	5791
2026-01-07 15:37:56.76	16.21	15.62	-37.3	-38.2	23.8	0.00e+00	0	38	0	274726912	48	5840
2026-01-07 15:37:58.06	16.14	15.76	-37.5	-38.4	23.8	0.00e+00	86	38	0	276824064	48	5985
2026-01-07 15:37:58.78	16.10	15.84	-37.3	-38.2	23.8	0.00e+00	0	38	0	277872640	48	5835
2026-01-07 15:38:00.08	16.02	15.98	-37.5	-38.4	23.6	0.00e+00	91	38	0	281018368	48	5992
2026-01-07 15:38:00.80	15.98	16.05	-37.2	-38.1	24.0	0.00e+00	0	38	0	282066944	48	5778
2026-01-07 15:38:02.10	15.90	16.19	-37.2	-38.1	23.9	0.00e+00	0	38	0	284164096	48	5767
2026-01-07 15:38:02.82	15.86	16.27	-37.1	-38.0	23.9	0.00e+00	0	38	0	286261248	48	5736
2026-01-07 15:38:04.12	15.78	16.41	-37.0	-37.9	24.1	0.00e+00	0	38	0	288358400	48	5643
2026-01-07 15:38:04.84	15.74	16.49	-37.0	-37.8	24.0	0.00e+00	0	37	0	289406976	48	5623
2026-01-07 15:38:06.13	15.66	16.63	-37.1	-37.9	24.0	0.00e+00	0	38	0	292552704	48	5695
2026-01-07 15:38:06.86	15.62	16.71	-37.0	-37.9	24.0	0.00e+00	9	38	0	293601280	48	5632
2026-01-07 15:38:08.15	15.54	16.85	-37.0	-37.9	24.1	0.00e+00	0	38	0	295698432	48	5660
2026-01-07 15:38:08.87	15.49	16.93	-37.1	-37.9	23.9	0.00e+00	81	38	0	296747008	48	5672
2026-01-07 15:38:10.17	15.41	17.08	-36.9	-37.8	24.1	0.00e+00	0	38	0	299892736	48	5580
2026-01-07 15:38:10.89	15.37	17.16	-37.1	-37.9	24.0	0.00e+00	83	38	0	300941312	48	5685
2026-01-07 15:38:12.19	15.29	17.30	-37.0	-37.9	24.2	0.00e+00	65	38	0	303038464	48	5642
2026-01-07 15:38:12.91	15.24	17.38	-37.0	-37.8	24.2	0.00e+00	0	38	0	305135616	48	5630
2026-01-07 15:38:14.21	15.16	17.53	-37.0	-37.9	24.0	0.00e+00	87	38	0	307232768	48	5644
2026-01-07 15:38:14.93	15.11	17.61	-36.8	-37.6	24.3	0.00e+00	0	38	0	308281344	48	5490
2026-01-07 15:38:16.23	15.03	17.76	-36.9	-37.7	24.3	0.00e+00	81	38	0	310378496	48	5539
2026-01-07 15:38:16.95	14.98	17.84	-36.9	-37.7	24.2	0.00e+00	0	38	0	312475648	48	5560
2026-01-07 15:38:18.25	14.89	17.99	-36.8	-37.6	24.3	0.00e+00	0	38	0	314572800	48	5484
2026-01-07 15:38:18.97	14.84	18.07	-36.7	-37.5	24.4	0.00e+00	0	38	0	315621376	46	6099
2026-01-07 15:38:20.27	14.76	18.22	-36.9	-37.7	24.3	0.00e+00	0	38	0	318767104	46	6201
2026-01-07 15:38:20.99	14.71	18.31	-36.8	-37.7	24.4	0.00e+00	0	38	0	319815680	46	6177
2026-01-07 15:38:22.28	14.62	18.46	-36.9	-37.7	24.2	0.00e+00	0	38	0	321912832	46	6212
2026-01-07 15:38:23.00	14.57	18.54	-37.0	-37.8	24.1	0.00e+00	0	38	0	324009984	46	6296
2026-01-07 15:38:24.30	14.48	18.70	-36.8	-37.6	24.3	0.00e+00	0	38	0	326107136	46	6159
2026-01-07 15:38:25.02	14.43	18.78	-36.8	-37.6	24.3	0.00e+00	87	38	0	327155712	46	6155
2026-01-07 15:38:26.32	14.34	18.94	-36.9	-37.7	24.1	0.00e+00	0	38	0	330301440	46	6225
2026-01-07 15:38:27.04	14.29	19.02	-36.9	-37.7	24.3	0.00e+00	0	38	0	331350016	46	6195
2026-01-07 15:38:28.34	14.19	19.18	-36.8	-37.6	24.3	0.00e+00	21	38	0	333447168	46	6144
2026-01-07 15:38:29.06	14.14	19.27	-37.2	-38.0	24.1	0.00e+00	0	38	0	334495744	46	6459
2026-01-07 15:38:30.36	14.04	19.42	-37.1	-37.9	24.1	0.00e+00	92	38	0	337641472	46	6353
2026-01-07 15:38:31.08	13.99	19.51	-37.1	-38.0	24.0	0.00e+00	0	38	0	338690048	46	6415
2026-01-07 15:38:32.38	13.89	19.67	-36.9	-37.7	24.1	0.00e+00	0	38	0	340787200	46	6217
2026-01-07 15:38:33.10	13.84	19.76	-37.4	-38.3	23.8	0.00e+00	0	38	0	342884352	46	6644
2026-01-07 15:38:34.39	13.74	19.92	-37.2	-38.0	24.1	0.00e+00	0	38	0	344981504	46	6464
2026-01-07 15:38:35.12	13.69	20.01	-37.2	-38.0	24.1	0.00e+00	0	38	0	346030080	46	6455
2026-01-07 15:38:36.41	13.59	20.17	-37.1	-37.9	24.2	0.00e+00	0	38	0	349175808	46	6364
2026-01-07 15:38:37.14	13.53	20.26	-37.2	-38.0	24.0	0.00e+00	0	38	0	350224384	46	6448
2026-01-07 15:38:38.43	13.43	20.42	-37.2	-38.0	24.1	0.00e+00	0	38	0	352321536	46	6460
2026-01-07 15:38:39.15	13.37	20.51	-37.3	-38.2	23.9	0.00e+00	88	38	0	354418688	46	6545
2026-01-07 15:38:40.45	13.27	20.68	-37.4	-38.3	23.7	0.00e+00	0	38	0	356515840	46	6682
2026-01-07 15:38:41.18	13.21	20.77	-37.3	-38.2	23.8	0.00e+00	0	38	0	357564416	46	6593
2026-01-07 15:38:42.48	13.11	20.94	-37.6	-38.5	23.7	0.00e+00	41	38	0	359661568	46	6796
2026-01-07 15:38:43.20	13.05	21.03	-37.7	-38.6	23.6	0.00e+00	0	38	0	361758720	46	6914
2026-01-07 15:38:44.49	12.94	21.20	-37.7	-38.6	23.6	0.00e+00	89	38	0	363855872	46	6869
2026-01-07 15:38:45.21	12.88	21.29	-37.9	-38.8	23.6	0.00e+00	0	38	0	364904448	48	6268
2026-01-07 15:38:46.51	12.77	21.46	-37.8	-38.7	23.5	0.00e+00	57	38	0	368050176	48	6186
2026-01-07 15:38:47.23	12.71	21.55	-37.7	-38.6	23.6	0.00e+00	0	38	0	369098752	48	6152
2026-01-07 15:38:48.53	12.60	21.72	-37.6	-38.5	23.7	0.00e+00	0	38	0	371195904	48	6065
2026-01-07 15:38:49.26	12.54	21.82	-37.4	-38.3	23.8	0.00e+00	0	38	0	373293056	48	5914
2026-01-07 15:38:50.56	12.42	21.99	-37.3	-38.2	23.8	0.00e+00	0	38	0	375390208	48	5856
2026-01-07 15:38:51.28	12.36	22.09	-37.5	-38.4	23.8	0.00e+00	0	38	0	376438784	48	5994
2026-01-07 15:38:52.58	12.24	22.26	-37.5	-38.4	23.8	0.00e+00	0	38	0	378535936	48	5979
2026-01-07 15:38:53.30	12.18	22.36	-37.2	-38.1	24.0	0.00e+00	0	38	0	380633088	48	5772
2026-01-07 15:38:54.60	12.06	22.54	-37.3	-38.2	23.9	0.00e+00	0	38	0	382730240	48	5854
2026-01-07 15:38:55.32	12.00	22.63	-37.4	-38.2	23.9	0.00e+00	62	38	0	383778816	48	5889
2026-01-07 15:38:56.61	11.88	22.81	-37.2	-38.1	24.0	0.00e+00	0	38	0	386924544	48	5799
2026-01-07 15:38:57.34	11.81	22.91	-37.4	-38.3	23.9	0.00e+00	0	38	0	387973120	48	5918
2026-01-07 15:38:58.63	11.69	23.09	-37.2	-38.1	24.1	0.00e+00	46	38	0	390070272	48	5782
2026-01-07 15:38:59.36	11.62	23.19	-37.4	-38.3	24.0	0.00e+00	0	38	0	392167424	48	5937
2026-01-07 15:39:00.66	11.50	23.37	-37.7	-38.6	23.6	0.00e+00	91	38	0	394264576	48	6123
2026-01-07 15:39:01.38	11.43	23.47	-37.6	-38.4	23.9	0.00e+00	0	38	0	395313152	48	6014
2026-01-07 15:39:02.67	11.30	23.65	-37.8	-38.6	23.6	0.00e+00	0	38	0	398458880	48	6167
2026-01-07 15:39:03.40	11.23	23.76	-37.9	-38.8	23.5	0.00e+00	0	38	0	399507456	48	6288
2026-01-07 15:39:04.69	11.10	23.94	-38.2	-39.1	23.2	0.00e+00	0	38	0	401604608	48	6523
2026-01-07 15:39:05.41	11.03	24.04	-38.4	-39.3	23.3	0.00e+00	33	38	0	402653184	48	6652
2026-01-07 15:39:06.71	10.90	24.23	-38.0	-38.9	23.4	0.00e+00	0	38	0	405798912	48	6367
2026-01-07 15:39:07.43	10.82	24.33	-38.4	-39.3	23.1	0.00e+00	1	38	0	406847488	48	6691
2026-01-07 15:39:08.73	10.69	24.52	-38.3	-39.2	23.2	0.00e+00	0	38	0	408944640	48	6579
2026-01-07 15:39:09.45	10.62	24.63	-38.1	-39.0	23.4	0.00e+00	92	38	0	411041792	48	6404
2026-01-07 15:39:10.75	10.48	24.82	-38.4	-39.4	23.0	0.00e+00	0	38	0	413138944	48	6711
2026-01-07 15:39:11.47	10.40	24.92	-38.5	-39.4	23.0	0.00e+00	68	38	0	414187520	48	6736
2026-01-07 15:39:12.77	10.26	25.11	-38.5	-39.4	23.1	0.00e+00	73	38	0	417333248	50	6020
2026-01-07 15:39:13.49	10.19	25.22	-38.6	-39.6	22.9	0.00e+00	0	38	0	418381824	50	6133
2026-01-07 15:39:14.79	10.04	25.41	-38.3	-39.2	23.1	0.00e+00	90	38	0	420478976	50	5865
2026-01-07 15:39:15.51	9.96	25.52	-38.7	-39.7	22.8	0.00e+00	0	38	0	422576128	50	6201
2026-01-07 15:39:16.81	9.82	25.72	-38.9	-39.9	22.6	0.00e+00	0	38	0	424673280	50	6388
2026-01-07 15:39:17.53	9.74	25.83	-38.3	-39.3	22.8	0.00e+00	0	38	0	425721856	50	5904
2026-01-07 15:39:18.83	9.59	26.03	-39.0	-40.1	22.7	0.00e+00	0	38	0	428867584	50	6484
2026-01-07 15:39:19.55	9.51	26.14	-38.9	-40.0	22.6	0.00e+00	0	38	0	429916160	50	6407
2026-01-07 15:39:20.85	9.36	26.33	-38.9	-39.9	22.7	0.00e+00	0	38	0	432013312	50	6335
2026-01-07 15:39:21.57	9.27	26.45	-39.3	-40.3	22.5	0.00e+00	0	38	0	433061888	50	6638
2026-01-07 15:39:22.86	9.12	26.65	-39.3	-40.4	22.0	0.00e+00	0	38	0	436207616	50	6716
2026-01-07 15:39:23.58	9.03	26.76	-39.6	-40.6	22.2	0.00e+00	89	38	0	437256192	52	6142
2026-01-07 15:39:24.88	8.88	26.96	-39.5	-40.5	22.2	0.00e+00	0	38	0	439353344	52	6080
2026-01-07 15:39:25.60	8.79	27.08	-39.7	-40.8	22.0	0.00e+00	92	38	0	441450496	52	6284
2026-01-07 15:39:26.90	8.63	27.28	-39.8	-40.8	22.1	0.00e+00	0	38	0	443547648	52	6302
2026-01-07 15:39:27.62	8.54	27.40	-39.7	-40.7	22.2	0.00e+00	0	38	0	444596224	52	6236
2026-01-07 15:39:28.92	8.38	27.60	-39.3	-40.4	22.4	0.00e+00	84	38	0	446693376	52	5968
2026-01-07 15:39:29.64	8.28	27.72	-39.3	-40.3	22.3	0.00e+00	0	38	0	448790528	52	5921
2026-01-07 15:39:30.93	8.12	27.93	-39.0	-39.9	22.7	0.00e+00	23	38	0	450887680	52	5689
2026-01-07 15:39:31.65	8.03	28.04	-39.2	-40.2	22.7	0.00e+00	0	38	0	451936256	52	5860
2026-01-07 15:39:32.95	7.85	28.25	-39.2	-40.1	22.6	0.00e+00	0	38	0	455081984	52	5828
2026-01-07 15:39:33.67	7.76	28.37	-39.0	-40.0	22.6	0.00e+00	0	38	0	456130560	50	6435
2026-01-07 15:39:34.97	7.58	28.59	-39.4	-40.4	22.3	0.00e+00	0	38	0	458227712	50	6748
2026-01-07 15:39:35.69	7.49	28.71	-39.4	-40.4	22.5	0.00e+00	0	38	0	460324864	50	6739
2026-01-07 15:39:36.99	7.31	28.92	-40.1	-41.2	21.7	0.00e+00	0	38	0	462422016	52	6597
2026-01-07 15:39:37.71	7.21	29.04	-40.2	-41.3	21.5	0.00e+00	0	38	0	463470592	52	6668
2026-01-07 15:39:39.01	7.03	29.26	-40.3	-41.5	21.4	0.00e+00	0	38	0	466616320	52	6798
2026-01-07 15:39:39.73	6.93	29.38	-40.4	-41.5	21.4	0.00e+00	92	38	0	467664896	52	6824
2026-01-07 15:39:41.03	6.74	29.60	-40.0	-41.1	21.7	0.00e+00	0	38	0	469762048	54	5793
2026-01-07 15:39:41.75	6.64	29.72	-40.0	-41.2	21.8	0.00e+00	0	38	0	470810624	52	6540
2026-01-07 15:39:43.05	6.45	29.95	-39.8	-40.8	22.0	0.00e+00	81	38	0	473956352	52	6308
2026-01-07 15:39:43.77	6.34	30.07	-39.7	-40.7	22.1	0.00e+00	0	38	0	475004928	52	6218
2026-01-07 15:39:45.06	6.15	30.29	-39.6	-40.6	22.3	0.00e+00	56	38	0	477102080	52	6145
2026-01-07 15:39:45.79	6.04	30.42	-39.2	-40.2	22.5	0.00e+00	0	38	0	479199232	52	5852
2026-01-07 15:39:47.08	5.84	30.64	-39.3	-40.4	22.4	0.00e+00	0	38	0	481296384	50	6693
2026-01-07 15:39:47.81	5.73	30.77	-39.2	-40.2	22.5	0.00e+00	0	38	0	482344960	50	6565
2026-01-07 15:39:49.11	5.52	31.00	-38.8	-39.8	22.9	0.00e+00	0	38	0	485490688	50	6268
2026-01-07 15:39:49.83	5.41	31.13	-39.0	-40.0	22.6	0.00e+00	0	38	0	486539264	50	6425
2026-01-07 15:39:51.13	5.20	31.36	-38.8	-39.8	22.8	0.00e+00	0	38	0	488636416	50	6291
2026-01-07 15:39:51.85	5.09	31.49	-38.8	-39.7	23.2	0.00e+00	2	38	0	490733568	50	6225
2026-01-07 15:39:53.15	4.87	31.72	-38.9	-39.9	22.8	0.00e+00	0	38	0	492830720	50	6348
2026-01-07 15:39:53.87	4.76	31.85	-38.8	-39.8	22.8	0.00e+00	76	38	0	493879296	50	6273
2026-01-07 15:39:55.17	4.54	32.08	-38.9	-39.9	22.6	0.00e+00	0	38	0	495976448	50	6344
2026-01-07 15:39:55.89	4.42	32.22	-39.2	-40.2	22.2	0.00e+00	0	38	0	498073600	50	6572
2026-01-07 15:39:57.19	4.19	32.45	-39.0	-40.0	22.5	0.00e+00	1	38	0	500170752	50	6409
2026-01-07 15:39:57.91	4.07	32.58	-39.6	-40.7	22.1	0.00e+00	0	38	0	501219328	50	6956
2026-01-07 15:39:59.21	3.84	32.82	-40.1	-41.2	21.6	0.00e+00	61	38	0	504365056	52	6573
2026-01-07 15:39:59.93	3.71	32.96	-39.7	-40.8	22.2	0.00e+00	0	38	0	505413632	52	6260
2026-01-07 15:40:01.23	3.48	33.20	-40.2	-41.3	21.5	0.00e+00	49	38	0	507510784	52	6656
2026-01-07 15:40:01.95	3.35	33.33	-40.4	-41.5	21.4	0.00e+00	0	38	0	509607936	52	6842
2026-01-07 15:40:03.25	3.11	33.58	-40.4	-41.5	21.4	0.00e+00	0	38	0	511705088	54	6051
2026-01-07 15:40:03.97	2.98	33.71	-40.1	-41.2	21.7	0.00e+00	0	38	0	512753664	54	5852
2026-01-07 15:40:05.27	2.73	33.96	-39.9	-40.9	22.0	0.00e+00	0	38	0	514850816	54	5663
2026-01-07 15:40:05.99	2.60	34.10	-39.8	-40.8	22.0	0.00e+00	0	38	0	516947968	52	6316
2026-01-07 15:40:07.29	2.35	34.34	-39.7	-40.8	22.0	0.00e+00	0	38	0	519045120	52	6250
2026-01-07 15:40:08.01	2.21	34.48	-39.9	-40.9	22.0	0.00e+00	10	38	0	520093696	52	6358
2026-01-07 15:40:09.31	1.95	34.73	-40.6	-41.8	21.1	0.00e+00	0	38	0	523239424	54	6301
2026-01-07 15:40:10.03	1.81	34.87	-40.8	-42.0	20.9	0.00e+00	92	38	0	524288000	54	6456
2026-01-07 15:40:11.33	1.54	35.12	-40.9	-42.2	20.9	0.00e+00	0	38	0	526385152	54	6546
2026-01-07 15:40:12.05	1.40	35.26	-40.9	-42.1	20.9	0.00e+00	0	38	0	528482304	54	6499
2026-01-07 15:40:13.34	1.13	35.52	-40.9	-42.2	21.1	0.00e+00	66	38	0	530579456	54	6570
2026-01-07 15:40:14.07	0.98	35.66	-41.3	-42.6	20.3	0.00e+00	0	38	0	531628032	54	6882
2026-01-07 15:40:15.37	0.70	35.92	-41.9	-43.4	19.7	0.00e+00	61	38	0	534773760	56	6744
2026-01-07 15:40:16.09	0.55	36.06	-41.8	-43.2	19.8	0.00e+00	0	38	0	535822336	56	6563
2026-01-07 15:40:17.38	0.26	36.31	-42.8	-44.6	18.7	0.00e+00	0	38	0	537919488	58	6883
2026-01-07 15:40:18.11	0.10	36.46	-43.4	-45.3	18.3	0.00e+00	0	38	0	538968064	58	7461
2026-01-07 15:40:19.41	359.81	36.72	-42.9	-44.7	18.5	0.00e+00	33	38	0	542113792	58	6960
2026-01-07 15:40:20.13	359.65	36.86	-42.8	-44.5	18.6	0.00e+00	0	38	0	543162368	58	6834
2026-01-07 15:40:21.43	359.35	37.13	-41.3	-42.6	20.6	0.00e+00	0	38	0	545259520	56	6155
2026-01-07 15:40:22.15	359.19	37.27	-41.6	-43.0	20.2	0.00e+00	2	38	0	547356672	56	6411
2026-01-07 15:40:23.45	358.88	37.54	-40.8	-42.0	20.6	0.00e+00	0	38	0	549453824	56	5717
2026-01-07 15:40:24.17	358.71	37.68	-40.5	-41.6	21.2	0.00e+00	79	38	0	550502400	54	6156
2026-01-07 15:40:25.46	358.40	37.95	-40.2	-41.3	21.7	0.00e+00	0	38	0	553648128	54	5945
2026-01-07 15:40:26.19	358.22	38.10	-40.2	-41.3	21.6	0.00e+00	0	38	0	554696704	54	5933
2026-01-07 15:40:27.49	357.90	38.36	-40.0	-41.1	21.7	0.00e+00	0	38	0	556793856	54	5764
2026-01-07 15:40:28.21	357.72	38.51	-40.1	-41.2	21.7	0.00e+00	0	38	0	558891008	54	5857
2026-01-07 15:40:29.50	357.39	38.78	-40.4	-41.5	21.6	0.00e+00	92	38	0	560988160	54	6102
2026-01-07 15:40:30.22	357.21	38.93	-39.8	-40.9	22.0	0.00e+00	0	38	0	562036736	54	5644
2026-01-07 15:40:31.52	356.87	39.20	-39.8	-40.9	21.8	0.00e+00	63	38	0	564133888	52	6327
2026-01-07 15:40:32.25	356.68	39.35	-40.1	-41.2	21.7	0.00e+00	0	38	0	566231040	52	6557
2026-01-07 15:40:33.54	356.33	39.62	-40.5	-41.7	21.3	0.00e+00	0	38	0	568328192	52	6936
2026-01-07 15:40:34.27	356.13	39.77	-41.1	-42.4	20.6	0.00e+00	0	38	0	569376768	54	6704
2026-01-07 15:40:35.57	355.78	40.05	-41.3	-42.7	20.4	0.00e+00	0	38	0	572522496	56	6174
2026-01-07 15:40:36.29	355.58	40.20	-41.9	-43.3	20.0	0.00e+00	0	38	0	573571072	56	6628
2026-01-07 15:40:37.59	355.21	40.47	-42.5	-44.0	19.5	0.00e+00	0	38	0	575668224	56	7214
2026-01-07 15:40:38.31	355.00	40.63	-42.3	-43.8	19.4	0.00e+00	57	38	0	577765376	56	7027
2026-01-07 15:40:39.61	354.63	40.90	-43.4	-45.2	18.5	0.00e+00	0	38	0	579862528	58	7409
2026-01-07 15:40:40.33	354.42	41.06	-43.7	-45.6	17.7	0.00e+00	59	38	0	580911104	58	7743
2026-01-07 15:40:41.62	354.03	41.33	-44.6	-46.9	16.5	0.00e+00	1	38	0	583008256	60	8022
2026-01-07 15:40:42.34	353.82	41.48	-44.0	-46.0	17.9	0.00e+00	0	38	0	585105408	60	7239
2026-01-07 15:40:43.64	353.42	41.76	-42.2	-43.7	19.5	0.00e+00	92	38	0	587202560	58	6199
2026-01-07 15:40:44.37	353.19	41.92	-42.6	-44.2	19.1	0.00e+00	0	38	0	588251136	58	6595
2026-01-07 15:40:45.66	352.79	42.20	-42.1	-43.6	19.5	0.00e+00	92	38	0	591396864	58	6158
2026-01-07 15:40:46.38	352.56	42.35	-42.0	-43.5	19.6	0.00e+00	0	38	0	592445440	58	6063
2026-01-07 15:40:47.68	352.14	42.63	-41.8	-43.3	19.8	0.00e+00	0	38	0	594542592	56	6662
2026-01-07 15:40:48.40	351.90	42.78	-41.9	-43.3	20.0	0.00e+00	0	38	0	596639744	56	6680
2026-01-07 15:40:49.70	351.47	43.06	-40.8	-42.0	21.0	0.00e+00	0	38	0	598736896	56	5751
2026-01-07 15:40:50.42	351.23	43.22	-40.8	-42.1	20.9	0.00e+00	0	38	0	599785472	54	6465
2026-01-07 15:40:51.72	350.79	43.50	-40.4	-41.5	21.4	0.00e+00	0	38	0	602931200	54	6080
2026-01-07 15:40:52.44	350.54	43.65	-40.2	-41.3	21.7	0.00e+00	91	38	0	603979776	54	5938
2026-01-07 15:40:53.74	350.09	43.93	-39.9	-41.0	21.9	0.00e+00	0	38	0	606076928	54	5728
2026-01-07 15:40:54.48	349.82	44.09	-39.1	-40.0	22.6	0.00e+00	91	38	0	607125504	52	5754
2026-01-07 15:40:55.77	349.36	44.37	-39.5	-40.5	22.2	0.00e+00	0	38	0	610271232	52	6095
2026-01-07 15:40:56.50	349.09	44.53	-39.9	-40.9	22.0	0.00e+00	0	38	0	611319808	52	6356
2026-01-07 15:40:57.79	348.61	44.81	-40.4	-41.5	21.4	0.00e+00	91	38	0	613416960	52	6821
2026-01-07 15:40:58.52	348.34	44.96	-41.0	-42.2	20.8	0.00e+00	0	38	0	615514112	54	6574
2026-01-07 15:40:59.81	347.85	45.24	-41.2	-42.4	20.8	0.00e+00	91	38	0	617611264	54	6740
2026-01-07 15:41:00.53	347.57	45.40	-40.9	-42.1	20.9	0.00e+00	0	38	0	618659840	54	6500
2026-01-07 15:41:01.83	347.06	45.67	-40.6	-41.7	21.3	0.00e+00	0	38	0	621805568	54	6234
2026-01-07 15:41:02.55	346.78	45.83	-40.1	-41.2	21.7	0.00e+00	0	38	0	622854144	54	5863
2026-01-07 15:41:03.85	346.26	46.11	-39.4	-40.4	22.4	0.00e+00	0	38	0	624951296	52	5984
2026-01-07 15:41:04.57	345.96	46.26	-39.3	-40.3	22.6	0.00e+00	0	38	0	627048448	52	5904
2026-01-07 15:41:05.87	345.42	46.53	-39.2	-40.1	22.6	0.00e+00	0	38	0	629145600	52	5806
2026-01-07 15:41:06.59	345.12	46.69	-39.0	-39.9	22.8	0.00e+00	78	38	0	630194176	52	5680
2026-01-07 15:41:07.89	344.57	46.96	-39.8	-40.8	22.0	0.00e+00	0	38	0	633339904	52	6292
2026-01-07 15:41:08.61	344.26	47.11	-40.3	-41.4	21.5	0.00e+00	77	38	0	634388480	52	6734
2026-01-07 15:41:09.90	343.70	47.38	-40.0	-41.0	21.8	0.00e+00	0	38	0	636485632	52	6440
2026-01-07 15:41:10.62	343.38	47.53	-39.9	-40.9	22.0	0.00e+00	92	38	0	637534208	52	6343
2026-01-07 15:41:11.92	342.80	47.80	-39.1	-40.1	22.8	0.00e+00	60	38	0	640679936	52	5765
2026-01-07 15:41:12.64	342.47	47.95	-38.8	-39.7	22.9	0.00e+00	0	38	0	641728512	50	6238
2026-01-07 15:41:13.94	341.87	48.22	-39.5	-40.6	22.4	0.00e+00	90	38	0	643825664	50	6862
2026-01-07 15:41:14.66	341.53	48.37	-39.9	-41.0	22.0	0.00e+00	0	38	0	645922816	52	6454
2026-01-07 15:41:15.96	340.92	48.63	-39.9	-41.0	21.8	0.00e+00	3	38	0	648019968	52	6450
2026-01-07 15:41:16.68	340.57	48.78	-40.1	-41.2	21.9	0.00e+00	0	38	0	649068544	52	6603
2026-01-07 15:41:17.98	339.94	49.04	-39.7	-40.8	22.1	0.00e+00	0	38	0	652214272	52	6263
2026-01-07 15:41:18.70	339.58	49.18	-40.1	-41.2	21.8	0.00e+00	0	38	0	653262848	52	6611
2026-01-07 15:41:20.00	338.94	49.44	-40.3	-41.5	21.6	0.00e+00	0	38	0	655360000	52	6770
2026-01-07 15:41:20.72	338.57	49.58	-40.0	-41.1	21.8	0.00e+00	0	38	0	656408576	52	6507
2026-01-07 15:41:22.02	337.90	49.84	-40.3	-41.5	21.7	0.00e+00	0	38	0	659554304	52	6810
2026-01-07 15:41:22.74	337.53	49.98	-39.4	-40.4	22.3	0.00e+00	20	38	0	660602880	52	6028
2026-01-07 15:41:24.04	336.85	50.23	-37.8	-38.7	23.8	0.00e+00	0	38	0	662700032	48	6197
2026-01-07 15:41:24.76	336.46	50.36	-37.0	-37.8	24.3	0.00e+00	86	38	0	664797184	48	5592
2026-01-07 15:41:26.06	335.76	50.61	-37.0	-37.8	24.5	0.00e+00	0	38	0	666894336	46	6248
2026-01-07 15:41:26.78	335.37	50.74	-37.3	-38.1	24.1	0.00e+00	0	38	0	667942912	46	6539
2026-01-07 15:41:28.08	334.65	50.98	-37.6	-38.4	23.8	0.00e+00	0	38	0	671088640	48	6033
2026-01-07 15:41:28.80	334.24	51.11	-37.3	-38.1	24.2	0.00e+00	0	38	0	672137216	48	5821
2026-01-07 15:41:30.10	333.51	51.35	-36.8	-37.7	24.5	0.00e+00	83	38	0	674234368	46	6175
2026-01-07 15:41:30.82	333.09	51.48	-36.7	-37.5	24.5	0.00e+00	0	38	0	675282944	46	6076
2026-01-07 15:41:32.12	332.34	51.70	-37.1	-38.0	24.3	0.00e+00	0	38	0	678428672	46	6394
2026-01-07 15:41:32.84	331.91	51.83	-37.5	-38.4	24.0	0.00e+00	0	38	0	679477248	46	6721
2026-01-07 15:41:34.13	331.15	52.05	-38.0	-38.9	23.5	0.00e+00	0	38	0	681574400	48	6355
2026-01-07 15:41:34.85	330.71	52.17	-38.1	-39.1	23.5	0.00e+00	0	38	0	683671552	48	6471
2026-01-07 15:41:36.15	329.92	52.38	-38.3	-39.3	22.9	0.00e+00	0	38	0	685768704	48	6624
2026-01-07 15:41:36.88	329.47	52.50	-38.8	-39.8	22.9	0.00e+00	3	38	0	686817280	50	6298
2026-01-07 15:41:38.17	328.67	52.70	-38.3	-39.3	23.2	0.00e+00	0	38	0	689963008	50	5941
2026-01-07 15:41:38.90	328.21	52.82	-38.2	-39.1	23.2	0.00e+00	72	38	0	691011584	50	5823
2026-01-07 15:41:40.19	327.39	53.01	-38.5	-39.6	23.0	0.00e+00	29	38	0	693108736	50	6120
2026-01-07 15:41:40.91	326.93	53.12	-38.3	-39.3	23.2	0.00e+00	19	38	0	695205888	50	5918
2026-01-07 15:41:42.21	326.08	53.31	-37.6	-38.5	23.7	0.00e+00	4	38	0	697303040	48	6059
2026-01-07 15:41:42.93	325.61	53.41	-37.8	-38.7	23.6	0.00e+00	0	38	0	698351616	48	6231
2026-01-07 15:41:44.23	324.75	53.59	-37.3	-38.1	24.2	0.00e+00	67	38	0	701497344	48	5809
2026-01-07 15:41:44.95	324.27	53.69	-37.0	-37.8	24.3	0.00e+00	0	38	0	702545920	48	5603
2026-01-07 15:41:46.25	323.39	53.86	-36.4	-37.1	24.8	0.00e+00	29	38	0	704643072	46	5822
2026-01-07 15:41:46.97	322.90	53.95	-36.8	-37.6	24.4	0.00e+00	0	38	0	705691648	46	6135
2026-01-07 15:41:48.27	322.00	54.11	-37.8	-38.7	23.8	0.00e+00	0	38	0	708837376	46	6987
2026-01-07 15:41:48.99	321.51	54.20	-38.0	-38.9	23.5	0.00e+00	0	38	0	709885952	48	6347
2026-01-07 15:41:50.29	320.60	54.35	-37.7	-38.6	23.8	0.00e+00	0	38	0	711983104	48	6110
2026-01-07 15:41:51.01	320.09	54.43	-38.1	-39.0	23.3	0.00e+00	1	38	0	714080256	48	6460
2026-01-07 15:41:52.31	319.17	54.57	-37.9	-38.9	23.8	0.00e+00	0	38	0	716177408	48	6338
2026-01-07 15:41:53.03	318.65	54.65	-37.1	-37.9	24.3	0.00e+00	79	38	0	717225984	48	5661
2026-01-07 15:41:54.33	317.71	54.77	-36.7	-37.5	24.5	0.00e+00	0	38	0	719323136	46	6060
2026-01-07 15:41:55.05	317.19	54.84	-37.3	-38.2	24.1	0.00e+00	92	38	0	721420288	46	6555
2026-01-07 15:41:56.35	316.24	54.96	-37.6	-38.5	23.9	0.00e+00	3	38	0	723517440	46	6807
2026-01-07 15:41:57.07	315.71	55.02	-37.8	-38.7	23.7	0.00e+00	5	38	0	724566016	48	6204
2026-01-07 15:41:58.37	314.75	55.13	-38.0	-38.9	23.5	0.00e+00	65	38	0	727711744	48	6388
2026-01-07 15:41:59.09	314.21	55.18	-37.8	-38.8	23.6	0.00e+00	0	38	0	728760320	48	6259
2026-01-07 15:42:00.39	313.24	55.27	-36.1	-36.9	24.8	0.00e+00	92	38	0	730857472	46	5684
2026-01-07 15:42:01.11	312.70	55.32	-36.0	-36.8	25.1	0.00e+00	0	38	0	732954624	46	5599
2026-01-07 15:42:02.41	311.72	55.40	-35.6	-36.4	25.2	0.00e+00	0	38	0	735051776	44	5987
2026-01-07 15:42:03.13	311.17	55.44	-35.4	-36.2	25.5	0.00e+00	0	38	0	736100352	44	5876
2026-01-07 15:42:04.43	310.18	55.51	-35.4	-36.2	25.4	0.00e+00	0	38	0	739246080	44	5835
2026-01-07 15:42:05.15	309.63	55.54	-36.1	-37.0	24.8	0.00e+00	0	38	0	740294656	44	6395
2026-01-07 15:42:06.45	308.64	55.60	-36.6	-37.6	24.6	0.00e+00	30	38	0	742391808	46	6113
2026-01-07 15:42:07.17	308.08	55.62	-36.1	-37.0	24.8	0.00e+00	4	38	0	743440384	46	5707
2026-01-07 15:42:08.47	307.08	55.66	-35.6	-36.4	25.2	0.00e+00	0	38	0	746586112	44	5998
2026-01-07 15:42:09.19	306.53	55.68	-35.1	-35.8	25.6	0.00e+00	49	38	0	747634688	44	5622
2026-01-07 15:42:10.49	305.52	55.71	-34.3	-35.0	26.1	0.00e+00	0	38	0	749731840	42	5754
2026-01-07 15:42:11.21	304.96	55.72	-34.7	-35.4	25.9	0.00e+00	0	38	0	751828992	42	5997
2026-01-07 15:42:12.51	303.95	55.74	-35.6	-36.4	25.3	0.00e+00	1	38	0	753926144	42	6748
2026-01-07 15:42:13.23	303.40	55.74	-35.8	-36.6	25.1	0.00e+00	0	38	0	754974720	44	6152
2026-01-07 15:42:14.53	302.39	55.74	-35.6	-36.4	25.2	0.00e+00	73	38	0	758120448	44	5980
2026-01-07 15:42:15.24	301.84	55.74	-35.1	-35.9	25.5	0.00e+00	0	38	0	759169024	44	5659
2026-01-07 15:42:16.54	300.83	55.72	-34.5	-35.2	26.0	0.00e+00	0	38	0	761266176	42	5847
2026-01-07 15:42:17.26	300.27	55.71	-34.5	-35.2	25.8	0.00e+00	0	38	0	763363328	42	5891
2026-01-07 15:42:18.56	299.26	55.69	-35.7	-36.4	25.2	0.00e+00	0	38	0	765460480	42	6755
2026-01-07 15:42:19.28	298.71	55.67	-35.7	-36.5	25.2	0.00e+00	0	38	0	766509056	42	6819
2026-01-07 15:42:20.58	297.71	55.63	-35.5	-36.3	25.3	0.00e+00	0	38	0	768606208	44	5932
2026-01-07 15:42:21.30	297.15	55.60	-35.6	-36.4	24.0	0.00e+00	66	38	0	770703360	44	5967
2026-01-07 15:42:22.60	296.16	55.55	-35.2	-35.9	25.2	0.00e+00	0	38	0	772800512	44	5675
2026-01-07 15:42:23.32	295.61	55.52	-35.3	-36.0	25.5	0.00e+00	64	38	0	773849088	44	5728
2026-01-07 15:42:24.62	294.61	55.45	-36.1	-36.9	25.0	0.00e+00	0	38	0	776994816	44	6363
2026-01-07 15:42:25.34	294.07	55.41	-36.3	-37.2	24.7	0.00e+00	69	38	0	778043392	44	6566
2026-01-07 15:42:26.64	293.09	55.33	-36.1	-36.9	24.9	0.00e+00	0	38	0	780140544	44	6324
2026-01-07 15:42:27.36	292.54	55.28	-35.8	-36.6	25.2	0.00e+00	0	38	0	782237696	44	6114
2026-01-07 15:42:28.66	291.57	55.19	-34.9	-35.7	25.6	0.00e+00	90	38	0	784334848	44	5525
2026-01-07 15:42:29.38	291.03	55.14	-34.6	-35.3	25.9	0.00e+00	33	38	0	785383424	42	5938
2026-01-07 15:42:30.68	290.07	55.03	-34.2	-34.9	26.2	0.00e+00	0	38	0	788529152	42	5672
2026-01-07 15:42:31.40	289.54	54.97	-34.7	-35.5	25.7	0.00e+00	0	38	0	789577728	42	6054
2026-01-07 15:42:32.70	288.59	54.85	-34.8	-35.5	25.7	0.00e+00	0	38	0	791674880	42	6101
2026-01-07 15:42:33.42	288.07	54.79	-34.9	-35.6	25.8	0.00e+00	0	38	0	792723456	42	6139
2026-01-07 15:42:34.72	287.13	54.66	-34.9	-35.6	25.7	0.00e+00	0	38	0	795869184	42	6168
2026-01-07 15:42:35.44	286.61	54.58	-34.5	-35.2	26.0	0.00e+00	0	38	0	796917760	42	5869
2026-01-07 15:42:36.74	285.69	54.44	-34.0	-34.7	26.2	0.00e+00	0	38	0	799014912	42	5563
2026-01-07 15:42:37.46	285.18	54.36	-34.3	-35.0	26.1	0.00e+00	89	38	0	801112064	42	5748
2026-01-07 15:42:38.76	284.27	54.21	-34.8	-35.5	25.9	0.00e+00	0	38	0	803209216	42	6040
2026-01-07 15:42:39.48	283.77	54.13	-34.7	-35.4	25.8	0.00e+00	92	38	0	804257792	42	6023
2026-01-07 15:42:40.77	282.88	53.97	-35.3	-36.0	25.5	0.00e+00	0	38	0	807403520	42	6461
2026-01-07 15:42:41.49	282.39	53.88	-35.6	-36.4	25.3	0.00e+00	0	38	0	808452096	44	6003
2026-01-07 15:42:42.79	281.51	53.71	-35.8	-36.5	25.1	0.00e+00	87	38	0	810549248	44	6089
2026-01-07 15:42:43.51	281.02	53.61	-35.4	-36.2	25.4	0.00e+00	0	38	0	811597824	44	5844
2026-01-07 15:42:44.81	280.16	53.43	-35.5	-36.2	25.2	0.00e+00	44	38	0	814743552	44	5894
2026-01-07 15:42:45.53	279.69	53.33	-35.8	-36.5	25.0	0.00e+00	0	38	0	815792128	44	6101
2026-01-07 15:42:46.83	278.84	53.14	-37.2	-38.1	24.2	0.00e+00	0	38	0	817889280	46	6480
2026-01-07 15:42:47.55	278.38	53.03	-37.5	-38.4	24.0	0.00e+00	0	38	0	819986432	46	6746
2026-01-07 15:42:48.85	277.55	52.83	-37.5	-38.3	24.0	0.00e+00	0	38	0	822083584	46	6660
2026-01-07 15:42:49.57	277.09	52.72	-37.8	-38.7	23.8	0.00e+00	0	38	0	823132160	48	6182
2026-01-07 15:42:50.87	276.28	52.52	-37.9	-38.7	23.7	0.00e+00	0	38	0	826277888	48	6237
2026-01-07 15:42:51.59	275.84	52.40	-37.6	-38.4	23.9	0.00e+00	1	38	0	827326464	48	5987
2026-01-07 15:42:52.89	275.04	52.19	-37.9	-38.8	23.6	0.00e+00	0	38	0	829423616	48	6257
2026-01-07 15:42:53.61	274.61	52.07	-38.5	-39.4	23.3	0.00e+00	92	38	0	831520768	48	6748
2026-01-07 15:42:54.91	273.83	51.84	-38.7	-39.7	23.0	0.00e+00	0	38	0	833617920	48	6932
2026-01-07 15:42:55.63	273.41	51.72	-38.9	-39.9	23.0	0.00e+00	0	38	0	834666496	50	6340
2026-01-07 15:42:56.93	272.65	51.49	-39.1	-40.0	22.8	0.00e+00	89	38	0	836763648	50	6459
2026-01-07 15:42:57.65	272.24	51.36	-38.5	-39.4	23.3	0.00e+00	0	38	0	838860800	50	5999
2026-01-07 15:42:58.95	271.50	51.13	-37.6	-38.4	23.9	0.00e+00	71	38	0	840957952	48	5998
2026-01-07 15:42:59.67	271.09	51.00	-38.0	-38.9	23.5	0.00e+00	0	38	0	842006528	48	6373
2026-01-07 15:43:00.97	270.37	50.76	-38.6	-39.5	23.0	0.00e+00	0	38	0	845152256	48	6808
2026-01-07 15:43:01.69	269.97	50.63	-38.9	-39.9	22.9	0.00e+00	0	38	0	846200832	50	6355
2026-01-07 15:43:02.99	269.27	50.38	-39.4	-40.4	22.3	0.00e+00	0	38	0	848297984	50	6735
2026-01-07 15:43:03.71	268.88	50.24	-38.8	-39.7	23.2	0.00e+00	0	38	0	850395136	50	6241
2026-01-07 15:43:05.01	268.20	49.99	-37.6	-38.5	23.9	0.00e+00	0	38	0	852492288	48	6079
2026-01-07 15:43:05.73	267.82	49.86	-38.0	-38.9	23.5	0.00e+00	0	38	0	853540864	48	6365
2026-01-07 15:43:07.03	267.15	49.60	-38.5	-39.4	23.3	0.00e+00	0	38	0	855638016	50	6023
2026-01-07 15:43:07.75	266.79	49.46	-38.6	-39.5	23.1	0.00e+00	87	38	0	857735168	50	6099
2026-01-07 15:43:09.04	266.14	49.20	-38.1	-39.0	23.7	0.00e+00	0	38	0	859832320	50	5733
2026-01-07 15:43:09.77	265.78	49.06	-38.5	-39.4	23.2	0.00e+00	74	38	0	860880896	48	6747
2026-01-07 15:43:11.06	265.15	48.80	-38.5	-39.4	23.1	0.00e+00	0	38	0	864026624	48	6730
2026-01-07 15:43:11.78	264.81	48.65	-39.0	-39.9	22.7	0.00e+00	0	38	0	865075200	50	6382
2026-01-07 15:43:13.08	264.19	48.38	-39.5	-40.6	22.7	0.00e+00	90	38	0	867172352	50	6853
2026-01-07 15:43:13.80	263.85	48.24	-39.1	-40.1	22.7	0.00e+00	0	38	0	869269504	50	6500
2026-01-07 15:43:15.10	263.25	47.97	-38.6	-39.4	23.4	0.00e+00	92	38	0	871366656	50	6026
2026-01-07 15:43:15.82	262.92	47.82	-39.3	-40.3	22.4	0.00e+00	0	38	0	872415232	50	6638
2026-01-07 15:43:17.12	262.33	47.55	-40.2	-41.3	22.2	0.00e+00	0	38	0	875560960	52	6663
2026-01-07 15:43:17.84	262.01	47.40	-40.9	-42.2	20.9	0.00e+00	0	38	0	876609536	52	7341
2026-01-07 15:43:19.14	261.45	47.12	-43.4	-45.4	18.0	0.00e+00	0	38	0	878706688	58	7522
2026-01-07 15:43:19.86	261.13	46.97	-44.7	-47.2	16.3	0.00e+00	0	38	0	879755264	60	8321
2026-01-07 15:43:21.16	260.58	46.70	-44.1	-46.2	17.4	0.00e+00	0	38	0	882900992	60	7386
2026-01-07 15:43:21.88	260.28	46.54	-43.7	-45.6	17.8	0.00e+00	0	38	0	883949568	60	6868
2026-01-07 15:43:23.18	259.74	46.27	-43.6	-45.4	18.3	0.00e+00	0	38	0	886046720	60	6769
2026-01-07 15:43:23.90	259.44	46.11	-42.8	-44.5	19.1	0.00e+00	92	38	0	888143872	60	6040
2026-01-07 15:43:25.20	258.92	45.84	-41.7	-43.1	20.3	0.00e+00	0	38	0	890241024	56	6477
2026-01-07 15:43:25.92	258.63	45.68	-41.5	-42.8	20.7	0.00e+00	0	38	0	891289600	56	6251
2026-01-07 15:43:27.22	258.12	45.40	-40.6	-41.7	21.3	0.00e+00	0	38	0	894435328	54	6241
2026-01-07 15:43:27.94	257.84	45.25	-40.4	-41.5	21.7	0.00e+00	0	38	0	895483904	54	6046
2026-01-07 15:43:29.24	257.35	44.97	-39.5	-40.5	22.3	0.00e+00	92	38	0	897581056	52	6070
2026-01-07 15:43:29.96	257.08	44.81	-38.8	-39.7	22.8	0.00e+00	0	38	0	899678208	52	5560
2026-01-07 15:43:31.26	256.59	44.53	-37.8	-38.6	23.9	0.00e+00	0	38	0	901775360	48	6130
2026-01-07 15:43:31.97	256.33	44.38	-37.6	-38.4	23.7	0.00e+00	0	38	0	902823936	48	5990
2026-01-07 15:43:33.27	255.86	44.10	-38.3	-39.2	23.3	0.00e+00	0	38	0	904921088	48	6570
2026-01-07 15:43:33.99	255.61	43.94	-39.7	-40.7	22.1	0.00e+00	0	38	0	907018240	50	6941
2026-01-07 15:43:35.29	255.15	43.66	-41.0	-42.2	21.2	0.00e+00	0	38	0	909115392	54	6582
2026-01-07 15:43:36.01	254.90	43.51	-40.4	-41.4	21.6	0.00e+00	0	38	0	910163968	54	6021
2026-01-07 15:43:37.31	254.46	43.23	-40.3	-41.4	21.7	0.00e+00	0	38	0	913309696	54	5965
2026-01-07 15:43:38.03	254.21	43.07	-40.5	-41.6	21.3	0.00e+00	87	38	0	914358272	54	6166
2026-01-07 15:43:39.33	253.78	42.79	-41.4	-42.7	20.3	0.00e+00	0	38	0	916455424	54	6966
2026-01-07 15:43:40.05	253.54	42.63	-42.2	-43.7	19.4	0.00e+00	90	38	0	918552576	56	6952
2026-01-07 15:43:41.35	253.12	42.35	-42.4	-43.9	19.7	0.00e+00	0	38	0	920649728	58	6354
2026-01-07 15:43:42.07	252.89	42.20	-41.8	-43.1	20.1	0.00e+00	0	38	0	921698304	58	5819
2026-01-07 15:43:43.37	252.48	41.92	-41.4	-42.6	20.7	0.00e+00	92	38	0	923795456	56	6143
2026-01-07 15:43:44.09	252.26	41.76	-41.3	-42.5	20.3	0.00e+00	0	38	0	925892608	56	6044
2026-01-07 15:43:45.39	251.86	41.49	-40.6	-41.7	21.4	0.00e+00	58	38	0	927989760	54	6186
2026-01-07 15:43:46.11	251.64	41.33	-40.4	-41.5	21.5	0.00e+00	0	38	0	929038336	54	6084
2026-01-07 15:43:47.41	251.25	41.05	-40.0	-41.1	21.6	0.00e+00	0	38	0	932184064	54	5779
2026-01-07 15:43:48.13	251.04	40.90	-40.9	-42.1	21.0	0.00e+00	0	38	0	933232640	54	6502
2026-01-07 15:43:49.42	250.67	40.63	-41.7	-43.0	20.5	0.00e+00	0	38	0	935329792	54	7230
2026-01-07 15:43:50.14	250.46	40.47	-42.3	-43.8	19.5	0.00e+00	0	38	0	937426944	56	7008
2026-01-07 15:43:51.44	250.09	40.20	-42.1	-43.5	19.8	0.00e+00	0	38	0	939524096	56	6835
2026-01-07 15:43:52.16	249.89	40.04	-41.9	-43.3	20.0	0.00e+00	89	38	0	940572672	56	6666
2026-01-07 15:43:53.46	249.53	39.77	-41.9	-43.4	19.9	0.00e+00	0	38	0	943718400	56	6710
2026-01-07 15:43:54.18	249.34	39.62	-41.7	-43.1	20.3	0.00e+00	79	38	0	944766976	56	6493
2026-01-07 15:43:55.48	248.99	39.35	-40.9	-42.1	21.0	0.00e+00	33	38	0	946864128	56	5799
2026-01-07 15:43:56.20	248.80	39.19	-40.4	-41.5	21.5	0.00e+00	0	38	0	947912704	54	6079
2026-01-07 15:43:57.50	248.46	38.92	-40.2	-41.3	21.7	0.00e+00	91	38	0	951058432	54	5926
2026-01-07 15:43:58.22	248.27	38.77	-40.2	-41.4	21.6	0.00e+00	0	38	0	952107008	54	5995
2026-01-07 15:43:59.52	247.94	38.50	-40.4	-41.6	21.5	0.00e+00	91	38	0	954204160	54	6104
2026-01-07 15:44:00.24	247.76	38.35	-40.0	-41.0	21.8	0.00e+00	0	38	0	956301312	54	5749
2026-01-07 15:44:01.54	247.44	38.09	-39.7	-40.7	22.2	0.00e+00	0	38	0	958398464	52	6211
2026-01-07 15:44:02.26	247.26	37.94	-39.6	-40.6	22.2	0.00e+00	0	38	0	959447040	52	6126
2026-01-07 15:44:03.56	246.95	37.67	-40.6	-41.7	21.4	0.00e+00	0	38	0	962592768	52	6979
2026-01-07 15:44:04.28	246.78	37.52	-40.8	-42.0	21.1	0.00e+00	0	38	0	963641344	52	7231
2026-01-07 15:44:05.58	246.47	37.26	-40.8	-42.0	21.1	0.00e+00	0	38	0	965738496	54	6428
2026-01-07 15:44:06.30	246.30	37.11	-41.4	-42.7	20.5	0.00e+00	58	38	0	967835648	54	6942
2026-01-07 15:44:07.60	246.00	36.85	-41.5	-42.8	20.3	0.00e+00	0	38	0	969932800	54	7024
2026-01-07 15:44:08.32	245.84	36.70	-41.5	-42.8	20.1	0.00e+00	55	38	0	970981376	54	7073
2026-01-07 15:44:09.62	245.55	36.44	-41.8	-43.1	20.2	0.00e+00	0	38	0	973078528	56	6503
2026-01-07 15:44:10.34	245.39	36.30	-41.3	-42.5	20.9	0.00e+00	61	38	0	975175680	56	6060
2026-01-07 15:44:11.64	245.10	36.04	-40.3	-41.4	21.6	0.00e+00	65	38	0	977272832	54	6026
2026-01-07 15:44:12.36	244.95	35.90	-40.2	-41.3	21.4	0.00e+00	0	38	0	978321408	54	5936
2026-01-07 15:44:13.65	244.67	35.64	-40.4	-41.5	21.5	0.00e+00	87	38	0	981467136	54	6068
2026-01-07 15:44:14.37	244.52	35.50	-40.8	-42.0	21.0	0.00e+00	0	38	0	982515712	54	6439
2026-01-07 15:44:15.67	244.25	35.24	-40.8	-41.9	21.0	0.00e+00	46	38	0	984612864	54	6373
2026-01-07 15:44:16.39	244.10	35.10	-40.9	-42.1	20.9	0.00e+00	33	38	0	986710016	54	6509
2026-01-07 15:44:17.69	243.84	34.85	-42.3	-43.7	19.5	0.00e+00	0	38	0	988807168	56	7001
2026-01-07 15:44:18.41	243.70	34.71	-42.4	-43.9	19.3	0.00e+00	0	38	0	989855744	56	7091
2026-01-07 15:44:19.71	243.44	34.46	-41.5	-42.8	20.6	0.00e+00	0	38	0	991952896	56	6269
2026-01-07 15:44:20.43	243.30	34.32	-41.0	-42.2	21.0	0.00e+00	0	38	0	994050048	56	5841
2026-01-07 15:44:21.73	243.05	34.07	-39.7	-40.7	22.2	0.00e+00	0	38	0	996147200	52	6197
2026-01-07 15:44:22.45	242.91	33.94	-39.1	-40.0	22.8	0.00e+00	87	38	0	997195776	52	5759
2026-01-07 15:44:23.75	242.66	33.69	-38.8	-39.7	22.9	0.00e+00	0	38	0	1000341504	50	6221
2026-01-07 15:44:24.47	242.53	33.55	-39.0	-40.0	22.8	0.00e+00	92	38	0	1001390080	50	6398
2026-01-07 15:44:25.77	242.29	33.31	-39.8	-40.9	22.0	0.00e+00	0	38	0	1003487232	50	7108
2026-01-07 15:44:26.49	242.16	33.17	-39.6	-40.6	22.2	0.00e+00	0	38	0	1005584384	52	6150
2026-01-07 15:44:27.78	241.92	32.93	-40.1	-41.1	21.9	0.00e+00	83	38	0	1007681536	52	6537
2026-01-07 15:44:28.51	241.79	32.80	-40.2	-41.3	21.7	0.00e+00	0	38	0	1008730112	52	6634
2026-01-07 15:44:29.80	241.57	32.56	-40.1	-41.2	21.8	0.00e+00	54	38	0	1011875840	52	6556
2026-01-07 15:44:30.52	241.44	32.43	-40.2	-41.3	21.7	0.00e+00	0	38	0	1012924416	52	6666
2026-01-07 15:44:31.82	241.22	32.19	-40.9	-42.1	21.0	0.00e+00	0	38	0	1015021568	52	7329
2026-01-07 15:44:32.54	241.10	32.06	-41.0	-42.2	20.9	0.00e+00	0	38	0	1016070144	54	6588
2026-01-07 15:44:33.84	240.88	31.82	-40.6	-41.8	21.2	0.00e+00	0	38	0	1019215872	54	6303
2026-01-07 15:44:34.56	240.76	31.69	-41.1	-42.4	20.7	0.00e+00	0	38	0	1020264448	54	6769
2026-01-07 15:44:35.86	240.55	31.46	-41.6	-43.1	20.1	0.00e+00	0	38	0	1022361600	54	7275
2026-01-07 15:44:36.58	240.43	31.33	-41.8	-43.2	20.0	0.00e+00	0	38	0	1024458752	56	6576
2026-01-07 15:44:37.88	240.22	31.10	-42.0	-43.5	19.6	0.00e+00	0	38	0	1026555904	56	6798
2026-01-07 15:44:38.60	240.11	30.97	-42.5	-44.2	19.0	0.00e+00	84	38	0	1027604480	56	7387
2026-01-07 15:44:39.90	239.90	30.74	-41.5	-42.8	20.3	0.00e+00	0	38	0	1030750208	56	6314
2026-01-07 15:44:40.62	239.79	30.61	-41.4	-42.8	20.4	0.00e+00	90	38	0	1031798784	56	6273
2026-01-07 15:44:41.92	239.59	30.38	-40.6	-41.8	21.2	0.00e+00	87	38	0	1033895936	54	6279
2026-01-07 15:44:42.64	239.48	30.26	-39.9	-41.0	22.0	0.00e+00	0	38	0	1035993088	54	5726
2026-01-07 15:44:43.93	239.29	30.04	-39.1	-40.1	22.7	0.00e+00	48	38	0	1038090240	52	5772
2026-01-07 15:44:44.65	239.18	29.91	-39.1	-40.0	22.7	0.00e+00	0	38	0	1039138816	52	5761
2026-01-07 15:44:45.95	238.99	29.69	-39.0	-39.9	22.8	0.00e+00	66	38	0	1041235968	52	5685
2026-01-07 15:44:46.67	238.89	29.57	-38.9	-39.9	22.7	0.00e+00	0	38	0	1043333120	52	5675
2026-01-07 15:44:47.97	238.70	29.34	-39.3	-40.3	22.5	0.00e+00	0	38	0	1045430272	52	5926
2026-01-07 15:44:48.69	238.60	29.22	-39.3	-40.3	22.5	0.00e+00	0	38	0	1046478848	52	5915
2026-01-07 15:44:49.99	238.41	29.00	-39.4	-40.4	22.4	0.00e+00	0	38	0	1049624576	52	6014
2026-01-07 15:44:50.71	238.31	28.88	-39.6	-40.6	22.2	0.00e+00	0	38	0	1050673152	52	6140
2026-01-07 15:44:52.01	238.13	28.67	-40.2	-41.3	21.7	0.00e+00	0	38	0	1052770304	52	6670
2026-01-07 15:44:52.73	238.04	28.55	-40.4	-41.6	21.3	0.00e+00	80	38	0	1054867456	52	6879
2026-01-07 15:44:54.03	237.86	28.33	-40.4	-41.6	21.4	0.00e+00	0	38	0	1056964608	52	6857
2026-01-07 15:44:54.75	237.77	28.21	-40.0	-41.0	21.8	0.00e+00	81	38	0	1058013184	52	6429
2026-01-07 15:44:56.05	237.59	28.00	-39.6	-40.6	22.3	0.00e+00	0	38	0	1060110336	52	6111
2026-01-07 15:44:56.77	237.50	27.88	-39.2	-40.2	22.7	0.00e+00	0	38	0	1062207488	52	5831
2026-01-07 15:44:58.06	237.33	27.68	-38.9	-39.8	22.8	0.00e+00	57	38	0	1064304640	52	5594
2026-01-07 15:44:58.79	237.24	27.56	-38.7	-39.6	23.0	0.00e+00	0	38	0	1065353216	52	5483
2026-01-07 15:45:00.09	237.08	27.35	-38.2	-39.1	23.4	0.00e+00	92	38	0	1068498944	50	5766
2026-01-07 15:45:00.81	236.99	27.23	-38.2	-39.1	23.3	0.00e+00	0	38	0	1069547520	50	5809
2026-01-07 15:45:02.10	236.83	27.03	-38.5	-39.4	23.2	0.00e+00	0	38	0	1071644672	50	5989
2026-01-07 15:45:02.83	236.74	26.91	-38.8	-39.7	22.9	0.00e+00	0	38	0	1073741824	50	6244
2026-01-07 15:45:04.13	236.58	26.71	-38.5	-39.4	23.1	0.00e+00	0	38	0	1075838976	50	6029
2026-01-07 15:45:04.85	236.49	26.60	-38.7	-39.6	22.9	0.00e+00	0	38	0	1076887552	50	6125
2026-01-07 15:45:06.15	236.34	26.40	-38.5	-39.5	22.9	0.00e+00	0	38	0	1080033280	50	6039
2026-01-07 15:45:06.87	236.25	26.28	-38.6	-39.5	23.0	0.00e+00	81	38	0	1081081856	50	6082
2026-01-07 15:45:08.16	236.10	26.08	-38.8	-39.8	22.8	0.00e+00	0	38	0	1083179008	50	6272
2026-01-07 15:45:08.88	236.02	25.97	-38.8	-39.8	22.9	0.00e+00	86	38	0	1084227584	50	6255
2026-01-07 15:45:10.18	235.87	25.78	-39.2	-40.2	22.5	0.00e+00	0	38	0	1087373312	50	6559
2026-01-07 15:45:10.90	235.79	25.67	-39.3	-40.3	22.4	0.00e+00	0	38	0	1088421888	50	6635
2026-01-07 15:45:12.20	235.64	25.47	-39.3	-40.3	22.5	0.00e+00	86	38	0	1090519040	50	6663
2026-01-07 15:45:12.92	235.56	25.36	-39.3	-40.3	22.5	0.00e+00	0	38	0	1092616192	50	6655
2026-01-07 15:45:14.22	235.42	25.17	-38.8	-39.7	22.8	0.00e+00	90	38	0	1094713344	50	6232
2026-01-07 15:45:14.94	235.34	25.06	-38.7	-39.7	23.0	0.00e+00	0	38	0	1095761920	50	6174
2026-01-07 15:45:16.24	235.20	24.87	-38.1	-39.0	23.5	0.00e+00	0	38	0	1098907648	50	5716
2026-01-07 15:45:16.96	235.12	24.76	-37.9	-38.7	23.7	0.00e+00	0	38	0	1099956224	50	5544
2026-01-07 15:45:18.26	234.99	24.57	-37.8	-38.7	23.6	0.00e+00	0	38	0	1102053376	48	6199
2026-01-07 15:45:18.98	234.91	24.47	-38.0	-38.9	23.5	0.00e+00	0	38	0	1104150528	48	6356
2026-01-07 15:45:20.28	234.78	24.28	-38.2	-39.1	23.4	0.00e+00	0	38	0	1106247680	48	6495
2026-01-07 15:45:21.00	234.70	24.17	-38.6	-39.5	23.1	0.00e+00	0	38	0	1107296256	48	6791
2026-01-07 15:45:22.29	234.57	23.99	-38.6	-39.6	23.0	0.00e+00	0	38	0	1109393408	48	6859
2026-01-07 15:45:23.02	234.50	23.88	-38.6	-39.5	23.0	0.00e+00	83	38	0	1111490560	50	6078
2026-01-07 15:45:24.31	234.37	23.70	-38.5	-39.4	22.9	0.00e+00	0	38	0	1113587712	50	6025
2026-01-07 15:45:25.04	234.30	23.59	-38.5	-39.4	22.9	0.00e+00	36	38	0	1114636288	50	5979
2026-01-07 15:45:26.33	234.17	23.41	-38.3	-39.2	23.3	0.00e+00	0	38	0	1117782016	50	5829
2026-01-07 15:45:27.06	234.10	23.31	-38.3	-39.2	23.2	0.00e+00	0	38	0	1118830592	50	5854
2026-01-07 15:45:28.35	233.98	23.13	-38.6	-39.5	22.9	0.00e+00	91	38	0	1120927744	50	6073
2026-01-07 15:45:29.08	233.91	23.03	-38.9	-39.9	22.6	0.00e+00	0	38	0	1121976320	50	6345
2026-01-07 15:45:30.38	233.78	22.85	-39.5	-40.6	22.1	0.00e+00	56	38	0	1125122048	50	6868
2026-01-07 15:45:31.10	233.72	22.75	-39.8	-40.9	21.9	0.00e+00	0	38	0	1126170624	52	6323
2026-01-07 15:45:32.39	233.60	22.57	-40.2	-41.4	21.3	0.00e+00	0	38	0	1128267776	52	6696
2026-01-07 15:45:33.11	233.53	22.47	-40.4	-41.5	21.3	0.00e+00	0	38	0	1130364928	52	6845
2026-01-07 15:45:34.41	233.41	22.30	-40.4	-41.6	21.4	0.00e+00	33	38	0	1132462080	52	6854
2026-01-07 15:45:35.13	233.35	22.20	-40.4	-41.6	21.3	0.00e+00	0	38	0	1133510656	52	6891
2026-01-07 15:45:36.43	233.23	22.02	-40.0	-41.0	21.7	0.00e+00	0	38	0	1136656384	52	6463
2026-01-07 15:45:37.15	233.17	21.93	-40.0	-41.1	21.7	0.00e+00	0	38	0	1137704960	52	6524
2026-01-07 15:45:38.45	233.05	21.76	-39.6	-40.7	21.9	0.00e+00	0	38	0	1139802112	52	6194
2026-01-07 15:45:39.17	232.99	21.66	-39.6	-40.6	22.1	0.00e+00	92	38	0	1141899264	52	6141
2026-01-07 15:45:40.47	232.88	21.49	-39.4	-40.5	22.3	0.00e+00	0	38	0	1143996416	52	6040
2026-01-07 15:45:41.19	232.82	21.39	-39.7	-40.7	22.1	0.00e+00	0	38	0	1145044992	52	6223
2026-01-07 15:45:42.49	232.71	21.22	-39.9	-40.9	21.7	0.00e+00	81	38	0	1148190720	52	6386
2026-01-07 15:45:43.21	232.65	21.13	-39.9	-41.0	21.8	0.00e+00	0	38	0	1149239296	52	6431
2026-01-07 15:45:44.51	232.54	20.96	-40.3	-41.4	21.5	0.00e+00	92	38	0	1151336448	52	6726
2026-01-07 15:45:45.23	232.48	20.87	-40.5	-41.6	21.3	0.00e+00	0	38	0	1152385024	52	6894
2026-01-07 15:45:46.53	232.37	20.70	-40.5	-41.7	21.2	0.00e+00	0	38	0	1155530752	54	6175
2026-01-07 15:45:47.25	232.31	20.61	-40.2	-41.3	21.6	0.00e+00	0	38	0	1156579328	54	5930
2026-01-07 15:45:48.55	232.21	20.44	-40.3	-41.4	21.4	0.00e+00	0	38	0	1158676480	54	6028
2026-01-07 15:45:49.27	232.15	20.35	-39.9	-40.9	21.7	0.00e+00	0	38	0	1160773632	54	5693
2026-01-07 15:45:50.57	232.05	20.19	-39.7	-40.7	22.1	0.00e+00	0	38	0	1162870784	52	6223
2026-01-07 15:45:51.29	231.99	20.10	-39.4	-40.4	22.3	0.00e+00	53	38	0	1163919360	52	5983
2026-01-07 15:45:52.59	231.89	19.94	-39.3	-40.3	22.4	0.00e+00	0	38	0	1167065088	52	5907
2026-01-07 15:45:53.31	231.84	19.85	-39.3	-40.3	22.3	0.00e+00	92	38	0	1168113664	52	5932
2026-01-07 15:45:54.61	231.74	19.69	-38.8	-39.8	22.8	0.00e+00	0	38	0	1170210816	52	5575
2026-01-07 15:45:55.33	231.68	19.60	-38.8	-39.8	22.8	0.00e+00	0	38	0	1172307968	52	5584
2026-01-07 15:45:56.63	231.59	19.44	-38.3	-39.2	23.2	0.00e+00	0	38	0	1174405120	50	5869
2026-01-07 15:45:57.35	231.53	19.35	-38.7	-39.6	23.0	0.00e+00	0	38	0	1175453696	50	6136
2026-01-07 15:45:58.65	231.44	19.19	-38.5	-39.4	23.1	0.00e+00	92	38	0	1177550848	50	6013
2026-01-07 15:45:59.37	231.38	19.11	-38.2	-39.1	23.3	0.00e+00	0	38	0	1179648000	50	5768
2026-01-07 15:46:00.67	231.29	18.95	-38.5	-39.4	23.1	0.00e+00	43	38	0	1181745152	50	6017
2026-01-07 15:46:01.39	231.24	18.86	-38.6	-39.6	22.8	0.00e+00	0	38	0	1182793728	50	6132
2026-01-07 15:46:02.69	231.14	18.71	-39.0	-39.9	22.6	0.00e+00	0	38	0	1185939456	50	6384
2026-01-07 15:46:03.41	231.09	18.62	-39.1	-40.1	22.5	0.00e+00	0	38	0	1186988032	50	6494
2026-01-07 15:46:04.71	231.00	18.47	-38.9	-39.9	22.6	0.00e+00	0	38	0	1189085184	50	6371
2026-01-07 15:46:05.43	230.95	18.38	-39.3	-40.3	22.3	0.00e+00	0	38	0	1190133760	50	6623
2026-01-07 15:46:06.72	230.86	18.23	-39.5	-40.6	22.0	0.00e+00	0	38	0	1193279488	50	6855
2026-01-07 15:46:07.44	230.81	18.15	-39.6	-40.7	22.1	0.00e+00	77	38	0	1194328064	52	6184
2026-01-07 15:46:08.74	230.73	18.00	-39.9	-41.0	21.7	0.00e+00	0	38	0	1196425216	52	6445
2026-01-07 15:46:09.46	230.68	17.91	-40.1	-41.2	21.6	0.00e+00	91	38	0	1198522368	52	6576
2026-01-07 15:46:10.76	230.59	17.76	-39.7	-40.8	22.0	0.00e+00	0	38	0	1200619520	52	6246
2026-01-07 15:46:11.48	230.54	17.68	-39.8	-40.9	21.8	0.00e+00	0	38	0	1201668096	52	6341
