passes_logs/2026/01/07/R4.6S_Anadyr/R4.6S_Anadyr__20260107_150458_NOAA_21_JPSS-2_rec.log

#Pass ID: 20260107_150458_NOAA 21 (JPSS-2)
#Satellite: NOAA 21 (JPSS-2)
#Configuration: NOAA-21
#almurnet v.1.7.20251203
#Start time: 2026-01-07 15:04:58

#Version: 2.2.20231116
#Station: R4.6S_Anadyr
#Location: 177.4865 lon 64.73178 lat
#TLE: 1 54234U 22150A   26005.42670836  .00000142  00000+0  88292-4 0  9996
#TLE: 2 54234  98.7490 306.4427 0001045 340.6622  19.4514 14.19532269163451

#Time	Az	El	Level	Level2	SNR	BER	BlckErr	Temp	State	Recorded	gain1	gain2
2026-01-07 15:04:58.67	21.31	0.04	-49.3	-64.2	3.5	1.51e+00	0	35	0	0	60	58754
2026-01-07 15:04:59.67	21.30	0.10	-49.2	-62.0	3.5	1.52e+00	0	36	104	0	60	44423
2026-01-07 15:05:00.68	21.30	0.16	-49.2	-62.1	3.5	1.52e+00	0	37	104	0	60	44688
2026-01-07 15:05:01.69	21.29	0.22	-49.2	-62.1	3.5	1.52e+00	0	37	104	0	60	44627
2026-01-07 15:05:02.70	21.29	0.28	-49.3	-62.1	3.5	1.52e+00	0	37	104	0	60	44749
2026-01-07 15:05:03.71	21.28	0.34	-49.2	-62.1	3.5	1.52e+00	0	37	104	0	60	44774
2026-01-07 15:05:04.72	21.27	0.40	-49.3	-62.2	3.5	1.52e+00	0	37	104	0	60	45184
2026-01-07 15:05:05.73	21.27	0.46	-49.3	-62.1	3.5	1.51e+00	0	37	104	0	60	44774
2026-01-07 15:05:06.74	21.26	0.52	-49.2	-62.1	3.5	1.52e+00	0	36	104	0	60	44760
2026-01-07 15:05:07.75	21.26	0.58	-49.2	-62.0	3.5	1.52e+00	0	37	104	0	60	44312
2026-01-07 15:05:08.76	21.25	0.64	-49.1	-62.0	3.5	1.52e+00	0	37	104	0	60	43967
2026-01-07 15:05:09.77	21.24	0.71	-49.1	-61.9	3.5	1.52e+00	0	37	104	0	60	43713
2026-01-07 15:05:10.78	21.24	0.77	-48.8	-61.6	3.5	1.52e+00	0	37	104	0	60	42423
2026-01-07 15:05:11.79	21.23	0.83	-48.6	-61.5	3.5	1.51e+00	0	37	104	0	60	41697
2026-01-07 15:05:12.80	21.22	0.89	-48.5	-61.3	3.5	1.51e+00	0	37	104	0	60	40778
2026-01-07 15:05:13.81	21.22	0.95	-48.2	-61.0	3.5	1.52e+00	0	37	104	0	60	39547
2026-01-07 15:05:14.83	21.21	1.02	-47.8	-60.7	3.5	1.52e+00	0	37	104	0	60	37836
2026-01-07 15:05:15.83	21.21	1.08	-47.8	-60.6	3.5	1.52e+00	0	37	104	0	60	37769
2026-01-07 15:05:16.84	21.20	1.14	-47.8	-60.6	3.5	1.52e+00	0	37	104	0	60	37695
2026-01-07 15:05:17.85	21.19	1.20	-47.8	-60.6	3.5	1.52e+00	0	37	104	0	60	37427
2026-01-07 15:05:18.86	21.19	1.26	-47.8	-60.4	3.5	1.52e+00	0	37	104	0	60	36578
2026-01-07 15:05:19.87	21.18	1.33	-47.8	-60.3	3.5	1.52e+00	0	37	104	0	60	36284
2026-01-07 15:05:20.88	21.17	1.39	-47.8	-60.2	3.5	1.52e+00	0	37	104	0	60	35820
2026-01-07 15:05:21.89	21.17	1.45	-47.8	-60.1	3.5	1.51e+00	0	37	104	0	60	35494
2026-01-07 15:05:22.90	21.16	1.52	-47.8	-60.1	3.5	1.52e+00	0	37	104	0	60	35652
2026-01-07 15:05:23.91	21.15	1.58	-47.8	-60.1	3.5	1.51e+00	0	37	104	0	60	35510
2026-01-07 15:05:24.92	21.15	1.64	-47.8	-60.2	3.5	1.52e+00	0	37	104	0	60	35920
2026-01-07 15:05:25.93	21.14	1.71	-47.8	-60.4	3.5	1.52e+00	0	37	104	0	60	36696
2026-01-07 15:05:26.94	21.13	1.77	-47.8	-60.5	3.5	1.52e+00	0	37	104	0	60	37083
2026-01-07 15:05:27.95	21.12	1.83	-47.8	-60.6	3.5	1.52e+00	0	37	104	0	60	37582
2026-01-07 15:05:28.96	21.12	1.90	-47.8	-60.7	3.5	1.52e+00	0	37	104	0	60	37941
2026-01-07 15:05:29.97	21.11	1.96	-47.8	-60.6	3.5	1.51e+00	0	37	104	0	60	37799
2026-01-07 15:05:30.98	21.10	2.03	-47.8	-60.6	3.5	1.52e+00	0	37	104	0	60	37639
2026-01-07 15:05:31.99	21.10	2.09	-47.8	-60.5	3.5	1.52e+00	0	37	104	0	60	37114
2026-01-07 15:05:33.00	21.09	2.16	-47.8	-60.4	3.5	1.52e+00	0	37	104	0	60	36647
2026-01-07 15:05:34.01	21.08	2.22	-47.8	-60.2	3.5	1.52e+00	0	37	104	0	60	36021
2026-01-07 15:05:35.02	21.07	2.29	-47.8	-59.9	3.5	1.52e+00	0	37	104	0	60	34895
2026-01-07 15:05:36.03	21.07	2.35	-47.7	-59.5	3.5	1.51e+00	0	37	104	0	60	33057
2026-01-07 15:05:37.04	21.06	2.42	-47.7	-59.3	3.5	1.51e+00	0	37	104	0	60	32315
2026-01-07 15:05:38.05	21.05	2.48	-47.7	-58.8	3.7	1.51e+00	0	37	104	0	60	30402
2026-01-07 15:05:39.06	21.04	2.55	-47.6	-58.7	3.5	1.51e+00	0	37	104	0	60	30113
2026-01-07 15:05:40.07	21.04	2.61	-47.6	-58.7	3.7	1.51e+00	0	37	104	0	60	30367
2026-01-07 15:05:41.08	21.03	2.68	-47.7	-59.2	3.5	1.51e+00	0	37	104	0	60	32170
2026-01-07 15:05:42.09	21.02	2.74	-47.7	-59.5	3.5	1.51e+00	0	37	104	0	60	33153
2026-01-07 15:05:43.10	21.01	2.81	-47.7	-59.5	3.5	1.52e+00	0	37	104	0	60	33200
2026-01-07 15:05:44.11	21.01	2.88	-47.6	-58.5	3.5	1.51e+00	0	37	104	0	60	29634
2026-01-07 15:05:45.12	21.00	2.94	-47.4	-56.6	4.5	1.50e+00	0	37	104	0	60	23732
2026-01-07 15:05:46.13	20.99	3.01	-47.0	-53.3	5.9	5.16e-01	122	37	0	1048576	60	16241
2026-01-07 15:05:47.14	20.98	3.08	-46.4	-51.4	7.8	1.18e-01	123	37	0	4194304	60	13100
2026-01-07 15:05:48.15	20.97	3.14	-45.9	-50.1	9.4	2.30e-02	123	37	0	7340032	60	11220
2026-01-07 15:05:49.16	20.97	3.21	-45.3	-48.9	10.9	3.54e-03	123	37	0	10485760	60	9774
2026-01-07 15:05:50.17	20.96	3.28	-44.8	-48.1	11.8	7.03e-04	123	37	0	13631488	60	8882
2026-01-07 15:05:51.18	20.95	3.34	-44.5	-47.5	12.3	2.19e-04	122	37	0	16777216	60	8338
2026-01-07 15:05:52.19	20.94	3.41	-44.4	-47.3	12.5	1.77e-04	124	38	0	19922944	60	8154
2026-01-07 15:05:53.20	20.93	3.48	-44.4	-47.3	12.4	1.17e-04	123	37	0	23068672	60	8168
2026-01-07 15:05:54.21	20.92	3.55	-44.7	-47.9	11.8	2.63e-04	123	37	0	26214400	60	8758
2026-01-07 15:05:55.22	20.92	3.62	-45.0	-48.5	11.1	1.09e-03	122	37	0	29360128	60	9310
2026-01-07 15:05:56.23	20.91	3.68	-44.3	-47.1	13.9	4.86e-03	120	37	0	32505856	60	7989
2026-01-07 15:05:57.24	20.90	3.75	-39.8	-41.1	19.1	0.00e+00	123	37	0	35651584	54	5644
2026-01-07 15:05:58.25	20.89	3.82	-39.9	-41.4	17.7	0.00e+00	123	37	0	38797312	50	7320
2026-01-07 15:05:59.26	20.88	3.89	-47.8	-59.6	3.5	1.51e+00	0	37	104	39845888	60	33515
2026-01-07 15:06:00.27	20.87	3.96	-40.4	-41.8	19.0	7.00e-07	123	37	0	40894464	58	4868
2026-01-07 15:06:01.27	20.86	4.03	-47.5	-57.6	4.2	1.51e+00	0	38	104	42991616	60	26659
2026-01-07 15:06:02.29	20.86	4.10	-41.0	-42.5	17.1	0.00e+00	120	38	0	44040192	56	5919
2026-01-07 15:06:03.30	20.85	4.17	-41.4	-43.0	16.9	0.00e+00	123	38	0	47185920	56	6274
2026-01-07 15:06:04.31	20.84	4.24	-41.4	-43.1	16.9	0.00e+00	122	38	0	50331648	56	6302
2026-01-07 15:06:05.32	20.83	4.31	-41.6	-43.3	16.8	0.00e+00	122	38	0	53477376	56	6466
2026-01-07 15:06:06.32	20.82	4.37	-41.1	-42.7	16.6	0.00e+00	123	37	0	56623104	56	6038
2026-01-07 15:06:07.33	20.81	4.44	-40.9	-42.4	17.7	0.00e+00	122	38	0	59768832	56	5841
2026-01-07 15:06:08.34	20.80	4.52	-40.7	-42.2	17.7	0.00e+00	122	37	0	62914560	54	6396
2026-01-07 15:06:09.35	20.79	4.59	-40.9	-42.5	17.6	0.00e+00	120	38	0	66060288	54	6594
2026-01-07 15:06:10.36	20.78	4.66	-40.8	-42.4	17.5	0.00e+00	123	37	0	69206016	54	6532
2026-01-07 15:06:11.37	20.77	4.73	-40.5	-42.0	17.7	0.00e+00	120	38	0	72351744	54	6244
2026-01-07 15:06:12.38	20.76	4.80	-40.0	-41.4	18.3	0.00e+00	122	38	0	75497472	54	5830
2026-01-07 15:06:13.39	20.75	4.87	-40.4	-41.8	18.5	0.00e+00	121	37	0	78643200	54	6117
2026-01-07 15:06:14.41	20.74	4.94	-39.5	-40.9	19.0	0.00e+00	123	38	0	81788928	54	5469
2026-01-07 15:06:15.42	20.73	5.01	-39.2	-40.5	19.6	0.00e+00	120	38	0	84934656	52	5905
2026-01-07 15:06:16.43	20.72	5.08	-38.9	-40.1	19.6	0.00e+00	122	37	0	88080384	50	6343
2026-01-07 15:06:17.44	20.71	5.16	-39.2	-40.4	19.8	0.00e+00	123	38	0	91226112	50	6566
2026-01-07 15:06:18.45	20.70	5.23	-38.9	-40.1	20.0	0.00e+00	123	38	0	94371840	50	6346
2026-01-07 15:06:19.46	20.69	5.30	-38.5	-39.7	20.3	0.00e+00	120	38	0	97517568	50	6034
2026-01-07 15:06:20.47	20.68	5.37	-38.6	-39.8	20.0	0.00e+00	123	37	0	100663296	50	6092
2026-01-07 15:06:21.48	20.67	5.45	-38.3	-39.5	20.3	0.00e+00	123	37	0	103809024	50	5888
2026-01-07 15:06:22.49	20.66	5.52	-38.5	-39.7	20.3	0.00e+00	123	38	0	106954752	50	6050
2026-01-07 15:06:23.50	20.65	5.59	-37.8	-38.9	21.0	0.00e+00	123	37	0	110100480	50	5528
2026-01-07 15:06:24.52	20.64	5.67	-37.6	-38.7	21.2	0.00e+00	122	37	0	113246208	48	6009
2026-01-07 15:06:25.52	20.63	5.74	-37.7	-38.8	21.1	0.00e+00	120	38	0	116391936	48	6109
2026-01-07 15:06:26.53	20.62	5.81	-37.3	-38.4	21.4	0.00e+00	123	37	0	119537664	48	5842
2026-01-07 15:06:27.55	20.61	5.89	-37.5	-38.6	21.3	0.00e+00	122	38	0	122683392	48	5943
2026-01-07 15:06:28.56	20.60	5.96	-37.4	-38.5	21.3	0.00e+00	123	38	0	125829120	48	5913
2026-01-07 15:06:29.57	20.59	6.04	-37.5	-38.6	21.4	0.00e+00	120	38	0	128974848	48	5934
2026-01-07 15:06:30.58	20.58	6.11	-37.5	-38.6	21.3	0.00e+00	123	38	0	132120576	48	5953
2026-01-07 15:06:31.59	20.57	6.19	-37.6	-38.7	21.3	0.00e+00	122	38	0	135266304	48	5999
2026-01-07 15:06:32.60	20.56	6.26	-37.6	-38.6	21.2	0.00e+00	122	38	0	138412032	48	5992
2026-01-07 15:06:33.61	20.55	6.34	-37.8	-38.9	21.0	0.00e+00	123	38	0	141557760	48	6201
2026-01-07 15:06:34.62	20.54	6.41	-37.6	-38.8	21.2	0.00e+00	122	38	0	144703488	48	6073
2026-01-07 15:06:35.63	20.52	6.49	-37.5	-38.6	21.3	0.00e+00	123	38	0	147849216	48	5964
2026-01-07 15:06:36.65	20.51	6.56	-37.3	-38.3	21.6	0.00e+00	122	38	0	150994944	48	5778
2026-01-07 15:06:37.66	20.50	6.64	-37.3	-38.4	21.6	0.00e+00	123	38	0	154140672	48	5834
2026-01-07 15:06:38.67	20.49	6.72	-37.4	-38.5	21.4	0.00e+00	123	38	0	157286400	48	5903
2026-01-07 15:06:39.68	20.48	6.79	-37.2	-38.3	21.6	0.00e+00	122	38	0	160432128	48	5756
2026-01-07 15:06:40.69	20.47	6.87	-37.3	-38.3	21.6	0.00e+00	123	38	0	163577856	48	5784
2026-01-07 15:06:41.70	20.45	6.95	-37.3	-38.4	21.6	0.00e+00	122	38	0	166723584	48	5800
2026-01-07 15:06:42.71	20.44	7.02	-37.1	-38.2	21.8	0.00e+00	122	37	0	169869312	48	5674
2026-01-07 15:06:43.72	20.43	7.10	-36.9	-37.9	22.0	0.00e+00	123	38	0	173015040	48	5525
2026-01-07 15:06:44.73	20.42	7.18	-37.0	-38.1	21.9	0.00e+00	123	38	0	176160768	48	5598
2026-01-07 15:06:45.74	20.41	7.26	-36.9	-37.9	22.0	0.00e+00	122	38	0	179306496	48	5522
2026-01-07 15:06:46.75	20.39	7.34	-36.9	-38.0	22.0	0.00e+00	122	38	0	182452224	48	5556
2026-01-07 15:06:47.76	20.38	7.41	-36.8	-37.9	22.0	0.00e+00	122	38	0	185597952	48	5486
2026-01-07 15:06:48.77	20.37	7.49	-36.8	-37.9	22.1	0.00e+00	123	38	0	188743680	48	5473
2026-01-07 15:06:49.78	20.36	7.57	-36.9	-37.9	22.1	0.00e+00	123	38	0	191889408	48	5530
2026-01-07 15:06:50.79	20.34	7.65	-36.9	-38.0	22.0	0.00e+00	123	38	0	195035136	48	5539
2026-01-07 15:06:51.80	20.33	7.73	-36.7	-37.8	22.2	0.00e+00	123	38	0	198180864	48	5414
2026-01-07 15:06:52.81	20.32	7.81	-36.7	-37.7	22.2	0.00e+00	122	38	0	201326592	46	6047
2026-01-07 15:06:53.82	20.31	7.89	-36.7	-37.7	22.3	0.00e+00	123	38	0	204472320	46	6060
2026-01-07 15:06:54.83	20.29	7.97	-36.8	-37.8	22.2	0.00e+00	122	38	0	207618048	46	6089
2026-01-07 15:06:55.84	20.28	8.05	-36.7	-37.8	22.2	0.00e+00	121	38	0	210763776	46	6067
2026-01-07 15:06:56.85	20.27	8.13	-36.5	-37.6	22.4	0.00e+00	122	38	0	213909504	46	5933
2026-01-07 15:06:57.86	20.25	8.21	-36.6	-37.6	22.4	0.00e+00	123	38	0	217055232	46	5950
2026-01-07 15:06:58.87	20.24	8.29	-36.6	-37.6	22.3	0.00e+00	123	38	0	220200960	46	5975
2026-01-07 15:06:59.88	20.23	8.38	-36.5	-37.5	22.5	0.00e+00	120	38	0	223346688	46	5915
2026-01-07 15:07:00.89	20.21	8.46	-36.6	-37.6	22.4	0.00e+00	123	38	0	226492416	46	5979
2026-01-07 15:07:01.90	20.20	8.54	-36.5	-37.5	22.6	0.00e+00	122	38	0	229638144	46	5897
2026-01-07 15:07:02.91	20.19	8.62	-36.5	-37.5	22.5	0.00e+00	122	38	0	232783872	46	5874
2026-01-07 15:07:03.92	20.17	8.70	-36.4	-37.4	22.6	0.00e+00	122	38	0	235929600	46	5838
2026-01-07 15:07:04.93	20.16	8.79	-36.4	-37.4	22.6	0.00e+00	123	38	0	239075328	46	5845
2026-01-07 15:07:05.94	20.15	8.87	-36.5	-37.5	22.5	0.00e+00	122	38	0	242221056	46	5912
2026-01-07 15:07:06.95	20.13	8.95	-36.3	-37.3	22.8	0.00e+00	120	38	0	245366784	46	5751
2026-01-07 15:07:07.96	20.12	9.04	-36.3	-37.2	22.8	0.00e+00	123	38	0	248512512	46	5725
2026-01-07 15:07:08.97	20.10	9.12	-36.1	-37.1	23.0	0.00e+00	123	38	0	251658240	46	5626
2026-01-07 15:07:09.98	20.09	9.20	-36.2	-37.2	22.8	0.00e+00	123	38	0	255852544	46	5698
2026-01-07 15:07:10.99	20.07	9.29	-36.1	-37.0	23.0	0.00e+00	123	38	0	258998272	46	5594
2026-01-07 15:07:12.00	20.06	9.37	-36.1	-37.1	22.9	0.00e+00	122	38	0	262144000	46	5614
2026-01-07 15:07:13.01	20.04	9.46	-36.1	-37.1	22.9	0.00e+00	122	38	0	264241152	46	5643
2026-01-07 15:07:14.02	20.03	9.54	-36.1	-37.1	22.9	0.00e+00	122	38	0	267386880	46	5604
2026-01-07 15:07:15.03	20.01	9.63	-35.9	-36.9	23.1	0.00e+00	120	38	0	271581184	46	5482
2026-01-07 15:07:16.04	20.00	9.72	-36.0	-36.9	23.1	0.00e+00	122	38	0	274726912	46	5507
2026-01-07 15:07:17.05	19.98	9.80	-36.0	-36.9	23.1	0.00e+00	120	38	0	277872640	46	5516
2026-01-07 15:07:18.07	19.97	9.89	-35.8	-36.7	23.2	0.00e+00	123	38	0	281018368	46	5386
2026-01-07 15:07:19.08	19.95	9.98	-35.8	-36.8	23.2	0.00e+00	123	38	0	284164096	46	5414
2026-01-07 15:07:20.09	19.94	10.06	-35.9	-36.8	23.2	0.00e+00	123	38	0	287309824	46	5465
2026-01-07 15:07:21.10	19.92	10.15	-35.8	-36.8	23.2	0.00e+00	120	38	0	290455552	46	5435
2026-01-07 15:07:22.11	19.91	10.24	-35.7	-36.6	23.4	0.00e+00	123	38	0	293601280	44	5969
2026-01-07 15:07:23.12	19.89	10.33	-35.8	-36.8	23.2	0.00e+00	122	38	0	296747008	44	6080
2026-01-07 15:07:24.12	19.87	10.41	-35.6	-36.6	23.4	0.00e+00	122	38	0	299892736	44	5929
2026-01-07 15:07:25.14	19.86	10.50	-35.7	-36.6	23.3	0.00e+00	120	38	0	303038464	44	5964
2026-01-07 15:07:26.15	19.84	10.59	-35.6	-36.5	23.4	0.00e+00	122	38	0	306184192	44	5893
2026-01-07 15:07:27.16	19.83	10.68	-35.6	-36.5	23.4	0.00e+00	123	38	0	309329920	44	5915
2026-01-07 15:07:28.17	19.81	10.77	-35.6	-36.6	23.4	0.00e+00	123	38	0	312475648	44	5935
2026-01-07 15:07:29.17	19.79	10.86	-35.5	-36.5	23.4	0.00e+00	122	38	0	315621376	44	5861
2026-01-07 15:07:30.19	19.78	10.95	-35.5	-36.5	23.5	0.00e+00	123	38	0	318767104	44	5883
2026-01-07 15:07:31.20	19.76	11.04	-35.5	-36.4	23.4	0.00e+00	123	38	0	321912832	44	5854
2026-01-07 15:07:32.20	19.74	11.13	-35.7	-36.6	23.3	0.00e+00	122	38	0	325058560	44	5959
2026-01-07 15:07:33.21	19.72	11.22	-35.5	-36.4	23.5	0.00e+00	122	38	0	328204288	44	5851
2026-01-07 15:07:34.22	19.71	11.31	-35.6	-36.5	23.4	0.00e+00	122	38	0	331350016	44	5899
2026-01-07 15:07:35.24	19.69	11.41	-35.4	-36.3	23.6	0.00e+00	121	38	0	334495744	44	5778
2026-01-07 15:07:36.25	19.67	11.50	-35.4	-36.4	23.5	0.00e+00	120	38	0	337641472	44	5796
2026-01-07 15:07:37.26	19.65	11.59	-35.5	-36.4	23.5	0.00e+00	123	38	0	340787200	44	5833
2026-01-07 15:07:38.27	19.64	11.69	-35.3	-36.2	23.6	0.00e+00	120	38	0	343932928	44	5703
2026-01-07 15:07:39.28	19.62	11.78	-35.5	-36.4	23.6	0.00e+00	123	38	0	347078656	44	5833
2026-01-07 15:07:40.29	19.60	11.87	-35.3	-36.2	23.7	0.00e+00	122	38	0	350224384	44	5712
2026-01-07 15:07:41.29	19.58	11.97	-35.3	-36.2	23.6	0.00e+00	123	38	0	353370112	44	5724
2026-01-07 15:07:42.30	19.56	12.06	-35.3	-36.2	23.7	0.00e+00	122	38	0	356515840	44	5717
2026-01-07 15:07:43.31	19.55	12.15	-35.1	-36.1	23.8	0.00e+00	123	38	0	359661568	44	5599
2026-01-07 15:07:44.32	19.53	12.25	-35.2	-36.1	23.8	0.00e+00	120	38	0	362807296	44	5640
2026-01-07 15:07:45.34	19.51	12.35	-35.1	-36.0	23.9	0.00e+00	123	38	0	365953024	44	5569
2026-01-07 15:07:46.35	19.49	12.44	-35.1	-36.0	23.9	0.00e+00	121	38	0	369098752	44	5580
2026-01-07 15:07:47.36	19.47	12.54	-35.1	-36.0	23.8	0.00e+00	122	38	0	372244480	44	5565
2026-01-07 15:07:48.36	19.45	12.63	-35.1	-36.0	23.8	0.00e+00	120	38	0	375390208	44	5559
2026-01-07 15:07:49.37	19.43	12.73	-35.1	-36.0	23.9	0.00e+00	123	38	0	378535936	44	5570
2026-01-07 15:07:50.38	19.41	12.83	-35.1	-36.0	23.9	0.00e+00	123	38	0	381681664	44	5557
2026-01-07 15:07:51.39	19.39	12.93	-35.0	-35.9	23.9	0.00e+00	122	38	0	384827392	44	5510
2026-01-07 15:07:52.40	19.37	13.02	-34.9	-35.8	24.0	0.00e+00	120	38	0	387973120	44	5450
2026-01-07 15:07:53.41	19.35	13.12	-34.9	-35.8	24.0	0.00e+00	122	38	0	391118848	44	5450
2026-01-07 15:07:54.42	19.33	13.22	-34.9	-35.8	24.0	0.00e+00	120	38	0	394264576	44	5429
2026-01-07 15:07:55.43	19.31	13.32	-35.0	-35.9	24.0	0.00e+00	123	38	0	397410304	44	5495
2026-01-07 15:07:56.44	19.29	13.42	-34.8	-35.7	24.1	0.00e+00	120	38	0	400556032	44	5399
2026-01-07 15:07:57.45	19.27	13.52	-34.8	-35.8	24.0	0.00e+00	123	38	0	403701760	44	5412
2026-01-07 15:07:58.46	19.25	13.62	-34.8	-35.7	24.1	0.00e+00	120	38	0	406847488	42	6013
2026-01-07 15:07:59.47	19.23	13.72	-34.9	-35.8	24.1	0.00e+00	123	38	0	409993216	42	6118
2026-01-07 15:08:00.48	19.21	13.82	-34.9	-35.8	24.1	0.00e+00	123	38	0	413138944	42	6099
2026-01-07 15:08:01.49	19.18	13.92	-34.8	-35.7	24.1	0.00e+00	123	38	0	416284672	42	6038
2026-01-07 15:08:02.50	19.16	14.03	-34.9	-35.8	24.1	0.00e+00	120	38	0	419430400	42	6118
2026-01-07 15:08:03.51	19.14	14.13	-34.9	-35.8	24.1	0.00e+00	122	38	0	422576128	42	6077
2026-01-07 15:08:04.52	19.12	14.23	-34.8	-35.7	24.2	0.00e+00	123	38	0	425721856	42	6061
2026-01-07 15:08:05.53	19.10	14.34	-34.8	-35.7	24.1	0.00e+00	122	38	0	428867584	42	6043
2026-01-07 15:08:06.54	19.07	14.44	-35.0	-35.9	24.1	0.00e+00	122	38	0	432013312	42	6145
2026-01-07 15:08:07.55	19.05	14.54	-34.8	-35.7	24.2	0.00e+00	123	38	0	435159040	42	6061
2026-01-07 15:08:08.56	19.03	14.65	-34.8	-35.7	24.1	0.00e+00	120	38	0	438304768	42	6023
2026-01-07 15:08:09.57	19.01	14.75	-34.7	-35.6	24.2	0.00e+00	123	38	0	441450496	42	5974
2026-01-07 15:08:10.58	18.98	14.86	-34.8	-35.7	24.2	0.00e+00	122	38	0	444596224	42	5997
2026-01-07 15:08:11.59	18.96	14.97	-34.9	-35.8	24.2	0.00e+00	123	38	0	447741952	42	6087
2026-01-07 15:08:12.61	18.94	15.07	-34.8	-35.7	24.2	0.00e+00	123	38	0	450887680	42	5999
2026-01-07 15:08:13.62	18.91	15.18	-34.9	-35.8	24.1	0.00e+00	122	38	0	454033408	42	6101
2026-01-07 15:08:14.63	18.89	15.29	-34.9	-35.8	24.1	0.00e+00	120	38	0	457179136	42	6101
2026-01-07 15:08:15.64	18.86	15.40	-34.9	-35.8	24.2	0.00e+00	123	38	0	460324864	42	6074
2026-01-07 15:08:16.65	18.84	15.51	-34.9	-35.8	24.1	0.00e+00	120	38	0	463470592	42	6100
2026-01-07 15:08:17.66	18.82	15.61	-34.9	-35.8	24.0	0.00e+00	122	38	0	466616320	42	6130
2026-01-07 15:08:18.67	18.79	15.72	-35.0	-36.0	24.0	0.00e+00	123	38	0	469762048	42	6207
2026-01-07 15:08:19.68	18.77	15.83	-35.0	-35.9	24.1	0.00e+00	122	38	0	472907776	42	6168
2026-01-07 15:08:20.69	18.74	15.94	-35.0	-35.9	24.0	0.00e+00	121	38	0	476053504	42	6186
2026-01-07 15:08:21.70	18.71	16.06	-34.9	-35.8	24.2	0.00e+00	123	38	0	479199232	42	6121
2026-01-07 15:08:22.71	18.69	16.17	-35.1	-36.0	24.0	0.00e+00	123	38	0	482344960	42	6243
2026-01-07 15:08:23.72	18.66	16.28	-35.0	-35.9	24.1	0.00e+00	122	38	0	485490688	42	6189
2026-01-07 15:08:24.73	18.64	16.39	-35.2	-36.1	23.9	0.00e+00	120	38	0	488636416	42	6320
2026-01-07 15:08:25.74	18.61	16.50	-35.2	-36.1	23.9	0.00e+00	122	38	0	491782144	42	6346
2026-01-07 15:08:26.75	18.58	16.62	-35.3	-36.3	23.8	0.00e+00	122	38	0	494927872	42	6425
2026-01-07 15:08:27.76	18.56	16.73	-35.2	-36.2	23.9	0.00e+00	123	38	0	498073600	42	6355
2026-01-07 15:08:28.77	18.53	16.85	-35.4	-36.3	23.8	0.00e+00	123	38	0	501219328	42	6448
2026-01-07 15:08:29.78	18.50	16.96	-35.2	-36.1	23.9	0.00e+00	123	38	0	504365056	42	6348
2026-01-07 15:08:30.79	18.48	17.08	-35.2	-36.1	23.9	0.00e+00	121	38	0	507510784	42	6289
2026-01-07 15:08:31.80	18.45	17.19	-35.3	-36.2	23.8	0.00e+00	122	38	0	510656512	42	6403
2026-01-07 15:08:32.81	18.42	17.31	-35.2	-36.2	23.8	0.00e+00	120	38	0	513802240	42	6353
2026-01-07 15:08:33.82	18.39	17.43	-35.2	-36.2	23.9	0.00e+00	122	38	0	516947968	42	6364
2026-01-07 15:08:34.83	18.36	17.54	-35.4	-36.3	23.8	0.00e+00	123	38	0	520093696	42	6456
2026-01-07 15:08:35.84	18.34	17.66	-35.3	-36.2	23.9	0.00e+00	121	38	0	523239424	42	6388
2026-01-07 15:08:36.85	18.31	17.78	-35.2	-36.1	23.9	0.00e+00	122	38	0	526385152	42	6347
2026-01-07 15:08:37.85	18.28	17.90	-35.2	-36.2	23.8	0.00e+00	123	38	0	529530880	42	6354
2026-01-07 15:08:38.86	18.25	18.02	-35.3	-36.2	23.9	0.00e+00	121	38	0	532676608	42	6380
2026-01-07 15:08:39.87	18.22	18.14	-35.3	-36.2	23.8	0.00e+00	123	38	0	535822336	42	6379
2026-01-07 15:08:40.88	18.19	18.26	-35.3	-36.2	23.8	0.00e+00	120	38	0	538968064	42	6376
2026-01-07 15:08:41.89	18.16	18.38	-35.4	-36.3	23.7	0.00e+00	122	38	0	542113792	42	6447
2026-01-07 15:08:42.90	18.13	18.51	-35.3	-36.2	23.8	0.00e+00	123	38	0	545259520	42	6393
2026-01-07 15:08:43.91	18.10	18.63	-35.3	-36.3	23.8	0.00e+00	122	38	0	548405248	42	6431
2026-01-07 15:08:44.92	18.06	18.75	-35.2	-36.1	23.8	0.00e+00	122	38	0	551550976	42	6296
2026-01-07 15:08:45.93	18.03	18.88	-35.2	-36.1	23.9	0.00e+00	120	38	0	555745280	42	6315
2026-01-07 15:08:46.94	18.00	19.00	-35.2	-36.1	23.9	0.00e+00	122	38	0	557842432	42	6320
2026-01-07 15:08:47.95	17.97	19.13	-35.5	-36.4	23.7	0.00e+00	121	38	0	560988160	42	6526
2026-01-07 15:08:48.96	17.94	19.25	-35.1	-36.0	24.0	0.00e+00	122	38	0	564133888	42	6210
2026-01-07 15:08:49.97	17.90	19.38	-35.2	-36.1	23.8	0.00e+00	120	38	0	567279616	42	6344
2026-01-07 15:08:50.98	17.87	19.51	-35.2	-36.1	23.8	0.00e+00	120	38	0	571473920	42	6318
2026-01-07 15:08:51.99	17.84	19.64	-35.1	-36.0	24.0	0.00e+00	122	38	0	574619648	42	6211
2026-01-07 15:08:53.00	17.81	19.76	-35.3	-36.2	23.8	0.00e+00	122	38	0	577765376	42	6404
2026-01-07 15:08:54.01	17.77	19.89	-35.1	-36.0	24.0	0.00e+00	123	38	0	579862528	42	6250
2026-01-07 15:08:55.02	17.74	20.02	-34.9	-35.8	24.1	0.00e+00	123	38	0	583008256	42	6124
2026-01-07 15:08:56.03	17.70	20.15	-34.9	-35.8	24.0	0.00e+00	123	38	0	587202560	42	6095
2026-01-07 15:08:57.04	17.67	20.29	-34.9	-35.8	24.1	0.00e+00	123	38	0	590348288	42	6125
2026-01-07 15:08:58.05	17.63	20.42	-34.8	-35.8	24.1	0.00e+00	122	38	0	593494016	42	6069
2026-01-07 15:08:59.06	17.60	20.55	-34.7	-35.7	24.2	0.00e+00	123	38	0	596639744	42	5998
2026-01-07 15:09:00.07	17.56	20.68	-34.7	-35.6	24.3	0.00e+00	120	38	0	599785472	42	5956
2026-01-07 15:09:01.08	17.53	20.82	-34.8	-35.7	24.2	0.00e+00	122	38	0	602931200	42	6051
2026-01-07 15:09:02.09	17.49	20.95	-34.7	-35.6	24.2	0.00e+00	120	38	0	606076928	42	5970
2026-01-07 15:09:03.10	17.45	21.09	-34.6	-35.5	24.4	0.00e+00	122	38	0	609222656	42	5914
2026-01-07 15:09:04.11	17.41	21.23	-34.5	-35.4	24.4	0.00e+00	120	38	0	612368384	42	5832
2026-01-07 15:09:05.12	17.38	21.36	-34.4	-35.3	24.5	0.00e+00	123	38	0	615514112	42	5746
2026-01-07 15:09:06.13	17.34	21.50	-34.4	-35.3	24.6	0.00e+00	120	38	0	618659840	42	5758
2026-01-07 15:09:07.14	17.30	21.64	-34.4	-35.3	24.5	0.00e+00	123	38	0	621805568	42	5727
2026-01-07 15:09:08.15	17.26	21.78	-34.3	-35.2	24.6	0.00e+00	121	38	0	624951296	42	5675
2026-01-07 15:09:09.16	17.22	21.92	-34.3	-35.1	24.7	0.00e+00	122	38	0	628097024	42	5657
2026-01-07 15:09:10.17	17.18	22.06	-34.1	-35.0	24.7	0.00e+00	120	38	0	631242752	42	5584
2026-01-07 15:09:11.18	17.14	22.20	-34.1	-34.9	24.9	0.00e+00	122	38	0	634388480	42	5516
2026-01-07 15:09:12.19	17.10	22.34	-34.1	-34.9	24.8	0.00e+00	122	38	0	637534208	42	5525
2026-01-07 15:09:13.20	17.06	22.48	-33.9	-34.8	25.0	0.00e+00	122	38	0	640679936	42	5423
2026-01-07 15:09:14.21	17.02	22.63	-33.8	-34.7	25.1	0.00e+00	123	38	0	643825664	42	5382
2026-01-07 15:09:15.22	16.98	22.77	-34.0	-34.8	24.9	0.00e+00	123	38	0	646971392	42	5457
2026-01-07 15:09:16.22	16.94	22.92	-33.8	-34.7	25.1	0.00e+00	122	38	0	650117120	42	5350
2026-01-07 15:09:17.24	16.89	23.06	-33.7	-34.5	25.1	0.00e+00	122	38	0	653262848	40	5913
2026-01-07 15:09:18.25	16.85	23.21	-33.7	-34.6	25.1	0.00e+00	123	38	0	656408576	40	5957
2026-01-07 15:09:19.26	16.81	23.36	-33.6	-34.5	25.2	0.00e+00	123	38	0	659554304	40	5871
2026-01-07 15:09:20.27	16.76	23.51	-33.6	-34.4	25.3	0.00e+00	123	38	0	662700032	40	5832
2026-01-07 15:09:21.28	16.72	23.66	-33.6	-34.4	25.2	0.00e+00	122	38	0	665845760	40	5858
2026-01-07 15:09:22.29	16.68	23.81	-33.7	-34.5	25.2	0.00e+00	123	38	0	668991488	40	5912
2026-01-07 15:09:23.30	16.63	23.96	-33.7	-34.6	25.2	0.00e+00	123	38	0	672137216	40	5939
2026-01-07 15:09:24.31	16.58	24.11	-33.5	-34.4	25.3	0.00e+00	122	38	0	675282944	40	5826
2026-01-07 15:09:25.32	16.54	24.26	-33.6	-34.5	25.2	0.00e+00	120	38	0	678428672	40	5881
2026-01-07 15:09:26.33	16.49	24.42	-33.7	-34.6	25.1	0.00e+00	123	38	0	681574400	40	5945
2026-01-07 15:09:27.34	16.44	24.57	-33.8	-34.7	25.1	0.00e+00	120	38	0	684720128	40	5998
2026-01-07 15:09:28.35	16.40	24.73	-33.8	-34.7	25.1	0.00e+00	123	38	0	687865856	40	6016
2026-01-07 15:09:29.36	16.35	24.89	-33.8	-34.7	25.0	0.00e+00	123	38	0	691011584	40	6000
2026-01-07 15:09:30.37	16.30	25.04	-33.9	-34.8	25.0	0.00e+00	120	38	0	694157312	40	6116
2026-01-07 15:09:31.37	16.25	25.20	-34.1	-35.0	24.8	0.00e+00	122	38	0	697303040	40	6227
2026-01-07 15:09:32.38	16.20	25.36	-34.1	-34.9	24.9	0.00e+00	120	38	0	700448768	40	6191
2026-01-07 15:09:33.40	16.15	25.52	-34.2	-35.1	24.9	0.00e+00	123	38	0	703594496	40	6298
2026-01-07 15:09:34.40	16.10	25.68	-34.4	-35.3	24.8	0.00e+00	120	38	0	706740224	40	6447
2026-01-07 15:09:35.41	16.05	25.84	-34.5	-35.4	24.7	0.00e+00	123	38	0	709885952	40	6533
2026-01-07 15:09:36.42	16.00	26.01	-34.5	-35.4	24.7	0.00e+00	121	38	0	713031680	40	6520
2026-01-07 15:09:37.43	15.95	26.17	-34.7	-35.6	24.6	0.00e+00	123	38	0	716177408	40	6670
2026-01-07 15:09:38.44	15.89	26.33	-34.7	-35.6	24.5	0.00e+00	120	38	0	719323136	40	6689
2026-01-07 15:09:39.45	15.84	26.50	-34.9	-35.8	24.4	0.00e+00	123	38	0	722468864	42	6095
2026-01-07 15:09:40.46	15.78	26.67	-34.9	-35.8	24.4	0.00e+00	120	38	0	725614592	42	6090
2026-01-07 15:09:41.47	15.73	26.84	-35.0	-35.9	24.4	0.00e+00	123	38	0	728760320	42	6155
2026-01-07 15:09:42.48	15.67	27.00	-35.0	-35.9	24.3	0.00e+00	122	38	0	731906048	42	6199
2026-01-07 15:09:43.49	15.62	27.17	-35.0	-35.9	24.3	0.00e+00	122	38	0	735051776	42	6198
2026-01-07 15:09:44.50	15.56	27.35	-35.2	-36.1	24.2	0.00e+00	123	38	0	738197504	42	6303
2026-01-07 15:09:45.51	15.50	27.52	-35.1	-36.0	24.3	0.00e+00	122	38	0	741343232	42	6243
2026-01-07 15:09:46.52	15.44	27.69	-35.2	-36.1	24.2	0.00e+00	122	38	0	744488960	42	6292
2026-01-07 15:09:47.53	15.39	27.87	-35.3	-36.2	24.1	0.00e+00	123	38	0	747634688	42	6382
2026-01-07 15:09:48.54	15.33	28.04	-35.3	-36.2	24.1	0.00e+00	123	38	0	750780416	42	6402
2026-01-07 15:09:49.55	15.27	28.22	-35.4	-36.3	24.1	0.00e+00	123	38	0	753926144	42	6481
2026-01-07 15:09:50.56	15.21	28.39	-35.5	-36.4	23.9	0.00e+00	120	38	0	757071872	42	6547
2026-01-07 15:09:51.57	15.14	28.57	-35.5	-36.4	23.9	0.00e+00	123	38	0	760217600	42	6548
2026-01-07 15:09:52.58	15.08	28.75	-35.6	-36.5	23.9	0.00e+00	120	38	0	763363328	42	6612
2026-01-07 15:09:53.59	15.02	28.93	-35.5	-36.4	23.9	0.00e+00	122	38	0	766509056	42	6538
2026-01-07 15:09:54.60	14.95	29.12	-35.4	-36.3	24.1	0.00e+00	120	38	0	769654784	42	6447
2026-01-07 15:09:55.61	14.89	29.30	-35.3	-36.2	24.0	0.00e+00	122	38	0	772800512	42	6415
2026-01-07 15:09:56.62	14.82	29.48	-35.3	-36.2	24.1	0.00e+00	122	38	0	775946240	42	6394
2026-01-07 15:09:57.63	14.76	29.67	-35.1	-36.0	24.1	0.00e+00	120	38	0	779091968	42	6223
2026-01-07 15:09:58.64	14.69	29.85	-34.9	-35.8	24.2	0.00e+00	123	38	0	782237696	42	6129
2026-01-07 15:09:59.65	14.62	30.04	-34.8	-35.7	24.4	0.00e+00	120	38	0	785383424	42	6031
2026-01-07 15:10:00.66	14.55	30.23	-34.6	-35.5	24.6	0.00e+00	123	38	0	788529152	42	5903
2026-01-07 15:10:01.67	14.48	30.42	-34.5	-35.4	24.6	0.00e+00	121	38	0	791674880	42	5828
2026-01-07 15:10:02.68	14.41	30.61	-34.3	-35.2	24.7	0.00e+00	123	38	0	794820608	42	5695
2026-01-07 15:10:03.69	14.34	30.81	-34.4	-35.3	24.6	0.00e+00	120	38	0	797966336	42	5780
2026-01-07 15:10:04.70	14.27	31.00	-34.3	-35.2	24.8	0.00e+00	122	38	0	801112064	42	5691
2026-01-07 15:10:05.71	14.20	31.19	-34.4	-35.2	24.8	0.00e+00	120	38	0	804257792	42	5724
2026-01-07 15:10:06.72	14.12	31.39	-34.3	-35.2	24.8	0.00e+00	122	38	0	807403520	42	5713
2026-01-07 15:10:07.73	14.05	31.59	-34.4	-35.3	24.8	0.00e+00	123	38	0	810549248	42	5744
2026-01-07 15:10:08.74	13.97	31.79	-34.3	-35.2	24.9	0.00e+00	120	38	0	813694976	42	5699
2026-01-07 15:10:09.75	13.89	31.99	-34.6	-35.5	24.7	0.00e+00	122	38	0	816840704	42	5867
2026-01-07 15:10:10.76	13.82	32.19	-34.8	-35.7	24.5	0.00e+00	122	38	0	819986432	42	6013
2026-01-07 15:10:11.77	13.74	32.39	-34.7	-35.6	24.6	0.00e+00	123	38	0	823132160	42	5976
2026-01-07 15:10:12.78	13.66	32.60	-34.7	-35.5	24.6	0.00e+00	122	38	0	826277888	42	5922
2026-01-07 15:10:13.79	13.58	32.80	-34.8	-35.7	24.5	0.00e+00	123	38	0	829423616	42	5998
2026-01-07 15:10:14.80	13.49	33.01	-34.9	-35.8	24.4	0.00e+00	123	38	0	832569344	42	6107
2026-01-07 15:10:15.81	13.41	33.22	-35.0	-35.9	24.3	0.00e+00	123	38	0	835715072	42	6157
2026-01-07 15:10:16.82	13.33	33.43	-35.2	-36.1	24.2	0.00e+00	122	38	0	838860800	42	6292
2026-01-07 15:10:17.83	13.24	33.64	-35.4	-36.3	24.0	0.00e+00	123	38	0	842006528	42	6443
2026-01-07 15:10:18.84	13.15	33.85	-35.5	-36.4	23.9	0.00e+00	123	38	0	845152256	42	6559
2026-01-07 15:10:19.85	13.07	34.06	-35.7	-36.6	23.9	0.00e+00	122	38	0	848297984	42	6720
2026-01-07 15:10:20.86	12.98	34.28	-35.6	-36.5	23.8	0.00e+00	120	38	0	851443712	44	5890
2026-01-07 15:10:21.87	12.89	34.49	-35.7	-36.6	23.8	0.00e+00	123	38	0	854589440	44	5954
2026-01-07 15:10:22.88	12.79	34.71	-35.6	-36.5	23.8	0.00e+00	122	38	0	857735168	44	5909
2026-01-07 15:10:23.89	12.70	34.93	-35.7	-36.6	23.8	0.00e+00	123	38	0	860880896	44	5940
2026-01-07 15:10:24.90	12.61	35.15	-35.9	-36.8	23.7	0.00e+00	123	38	0	864026624	44	6097
2026-01-07 15:10:25.91	12.51	35.37	-36.0	-37.0	23.6	0.00e+00	122	38	0	867172352	44	6229
2026-01-07 15:10:26.92	12.41	35.60	-36.2	-37.1	23.4	0.00e+00	122	38	0	870318080	44	6337
2026-01-07 15:10:27.93	12.32	35.82	-36.3	-37.2	23.4	0.00e+00	123	38	0	873463808	44	6391
2026-01-07 15:10:28.94	12.22	36.05	-36.4	-37.4	23.3	0.00e+00	120	38	0	876609536	44	6511
2026-01-07 15:10:29.95	12.11	36.28	-36.5	-37.5	23.1	0.00e+00	123	38	0	879755264	44	6606
2026-01-07 15:10:30.96	12.01	36.51	-36.5	-37.5	23.2	0.00e+00	121	38	0	882900992	44	6575
2026-01-07 15:10:31.97	11.91	36.74	-36.5	-37.4	23.2	0.00e+00	123	38	0	886046720	44	6545
2026-01-07 15:10:32.98	11.80	36.97	-36.7	-37.7	23.0	0.00e+00	122	38	0	890241024	44	6734
2026-01-07 15:10:33.99	11.69	37.21	-36.5	-37.4	23.1	0.00e+00	122	38	0	893386752	44	6573
2026-01-07 15:10:35.00	11.59	37.44	-36.5	-37.4	23.1	0.00e+00	120	38	0	896532480	44	6564
2026-01-07 15:10:36.01	11.47	37.68	-36.5	-37.4	23.2	0.00e+00	123	38	0	898629632	44	6536
2026-01-07 15:10:37.02	11.36	37.92	-36.5	-37.5	23.1	0.00e+00	120	38	0	901775360	44	6593
2026-01-07 15:10:38.03	11.25	38.16	-36.6	-37.6	23.1	0.00e+00	123	38	0	905969664	44	6653
2026-01-07 15:10:39.04	11.13	38.40	-36.4	-37.3	23.1	0.00e+00	123	38	0	909115392	44	6497
2026-01-07 15:10:40.05	11.01	38.65	-36.3	-37.3	23.2	0.00e+00	123	38	0	912261120	44	6441
2026-01-07 15:10:41.07	10.89	38.89	-36.4	-37.4	23.2	0.00e+00	123	38	0	915406848	44	6499
2026-01-07 15:10:42.07	10.77	39.14	-36.4	-37.3	23.3	0.00e+00	120	38	0	918552576	44	6496
2026-01-07 15:10:43.09	10.65	39.39	-36.4	-37.3	23.1	0.00e+00	123	38	0	921698304	44	6497
2026-01-07 15:10:44.09	10.53	39.64	-36.6	-37.6	23.1	0.00e+00	120	38	0	924844032	44	6668
2026-01-07 15:10:45.10	10.40	39.89	-36.8	-37.8	23.0	0.00e+00	123	38	0	927989760	46	6074
2026-01-07 15:10:46.11	10.27	40.14	-37.0	-38.0	22.8	0.00e+00	122	38	0	931135488	46	6230
2026-01-07 15:10:47.12	10.14	40.40	-37.1	-38.1	22.7	0.00e+00	122	38	0	934281216	46	6287
2026-01-07 15:10:48.13	10.00	40.65	-37.2	-38.2	22.5	0.00e+00	123	38	0	937426944	46	6421
2026-01-07 15:10:49.14	9.87	40.91	-37.1	-38.1	22.7	0.00e+00	123	38	0	940572672	46	6346
2026-01-07 15:10:50.15	9.73	41.17	-37.1	-38.1	22.6	0.00e+00	123	38	0	943718400	46	6336
2026-01-07 15:10:51.16	9.59	41.44	-37.2	-38.2	22.5	0.00e+00	122	38	0	946864128	46	6368
2026-01-07 15:10:52.17	9.45	41.70	-37.2	-38.2	22.5	0.00e+00	123	38	0	950009856	46	6416
2026-01-07 15:10:53.18	9.30	41.96	-37.4	-38.4	22.5	0.00e+00	120	38	0	953155584	46	6543
2026-01-07 15:10:54.19	9.15	42.23	-37.5	-38.6	22.3	0.00e+00	122	38	0	956301312	46	6651
2026-01-07 15:10:55.20	9.00	42.50	-37.6	-38.6	22.2	0.00e+00	123	38	0	959447040	46	6680
2026-01-07 15:10:56.21	8.85	42.77	-37.7	-38.7	22.1	0.00e+00	122	38	0	962592768	46	6777
2026-01-07 15:10:57.22	8.70	43.04	-37.6	-38.6	22.2	0.00e+00	122	38	0	965738496	46	6657
2026-01-07 15:10:58.23	8.54	43.32	-37.3	-38.3	22.4	0.00e+00	123	38	0	968884224	46	6483
2026-01-07 15:10:59.24	8.38	43.59	-37.3	-38.3	22.4	0.00e+00	120	38	0	972029952	46	6454
2026-01-07 15:11:00.25	8.21	43.87	-37.3	-38.3	22.4	0.00e+00	123	38	0	975175680	46	6434
2026-01-07 15:11:01.26	8.05	44.15	-37.4	-38.5	22.3	0.00e+00	123	38	0	978321408	46	6581
2026-01-07 15:11:02.27	7.88	44.43	-37.7	-38.7	22.2	0.00e+00	123	38	0	981467136	46	6768
2026-01-07 15:11:03.28	7.70	44.71	-37.7	-38.7	22.1	0.00e+00	121	38	0	984612864	46	6766
2026-01-07 15:11:04.29	7.53	45.00	-37.5	-38.5	22.3	0.00e+00	123	38	0	987758592	48	5879
2026-01-07 15:11:05.30	7.35	45.28	-37.4	-38.4	22.4	0.00e+00	120	38	0	990904320	48	5827
2026-01-07 15:11:06.31	7.16	45.57	-37.6	-38.6	22.3	0.00e+00	120	38	0	994050048	48	5975
2026-01-07 15:11:07.32	6.98	45.86	-37.4	-38.4	22.3	0.00e+00	123	38	0	997195776	48	5849
2026-01-07 15:11:08.33	6.79	46.15	-36.9	-37.9	22.8	0.00e+00	122	38	0	1000341504	48	5486
2026-01-07 15:11:09.34	6.60	46.45	-36.7	-37.7	22.9	0.00e+00	123	38	0	1003487232	48	5375
2026-01-07 15:11:10.35	6.40	46.74	-36.6	-37.6	23.1	0.00e+00	120	38	0	1006632960	46	5940
2026-01-07 15:11:11.36	6.20	47.04	-36.4	-37.4	23.3	0.00e+00	120	38	0	1009778688	46	5815
2026-01-07 15:11:12.37	5.99	47.34	-36.1	-37.1	23.5	0.00e+00	122	38	0	1012924416	46	5615
2026-01-07 15:11:13.37	5.79	47.63	-36.3	-37.2	23.4	0.00e+00	123	38	0	1016070144	46	5706
2026-01-07 15:11:14.38	5.57	47.93	-36.3	-37.2	23.3	0.00e+00	123	38	0	1019215872	46	5703
2026-01-07 15:11:15.39	5.36	48.24	-36.5	-37.5	23.2	0.00e+00	123	38	0	1022361600	46	5880
2026-01-07 15:11:16.40	5.13	48.54	-36.2	-37.2	23.5	0.00e+00	122	38	0	1025507328	46	5660
2026-01-07 15:11:17.41	4.91	48.85	-36.3	-37.2	23.3	0.00e+00	122	38	0	1028653056	46	5721
2026-01-07 15:11:18.42	4.68	49.16	-36.1	-37.1	23.6	0.00e+00	122	38	0	1031798784	46	5618
2026-01-07 15:11:19.43	4.44	49.47	-36.0	-36.9	23.6	0.00e+00	122	38	0	1034944512	46	5520
2026-01-07 15:11:20.44	4.20	49.78	-36.1	-37.1	23.5	0.00e+00	122	38	0	1038090240	46	5610
2026-01-07 15:11:21.45	3.96	50.09	-36.3	-37.3	23.3	0.00e+00	120	38	0	1041235968	46	5745
2026-01-07 15:11:22.46	3.71	50.41	-36.2	-37.2	23.4	0.00e+00	122	38	0	1044381696	46	5665
2026-01-07 15:11:23.47	3.45	50.72	-36.4	-37.3	23.2	0.00e+00	122	38	0	1047527424	46	5782
2026-01-07 15:11:24.48	3.19	51.04	-36.2	-37.2	23.2	0.00e+00	123	38	0	1050673152	46	5693
2026-01-07 15:11:25.49	2.92	51.36	-36.4	-37.4	23.1	0.00e+00	123	38	0	1053818880	46	5792
2026-01-07 15:11:26.50	2.65	51.68	-36.3	-37.2	23.3	0.00e+00	122	38	0	1056964608	46	5719
2026-01-07 15:11:27.51	2.37	52.00	-36.3	-37.2	23.3	0.00e+00	123	38	0	1060110336	46	5703
2026-01-07 15:11:28.52	2.08	52.33	-36.0	-37.0	23.5	0.00e+00	123	38	0	1063256064	46	5562
2026-01-07 15:11:29.53	1.79	52.65	-36.0	-36.9	23.4	0.00e+00	122	38	0	1066401792	46	5505
2026-01-07 15:11:30.54	1.49	52.98	-35.9	-36.9	23.4	0.00e+00	123	38	0	1069547520	46	5473
2026-01-07 15:11:31.55	1.19	53.30	-35.3	-36.2	23.7	0.00e+00	122	38	0	1072693248	44	5691
2026-01-07 15:11:32.56	0.88	53.63	-35.0	-35.9	23.9	0.00e+00	123	38	0	1075838976	44	5506
2026-01-07 15:11:33.57	0.56	53.96	-35.0	-35.9	24.0	0.00e+00	123	38	0	1078984704	44	5492
2026-01-07 15:11:34.59	0.23	54.30	-34.7	-35.6	24.4	0.00e+00	122	38	0	1082130432	42	5973
2026-01-07 15:11:35.60	359.89	54.63	-34.7	-35.6	24.5	0.00e+00	122	38	0	1085276160	42	5959
2026-01-07 15:11:36.60	359.55	54.96	-34.7	-35.6	24.5	0.00e+00	123	38	0	1088421888	42	5942
2026-01-07 15:11:37.62	359.20	55.30	-35.0	-35.9	24.2	0.00e+00	122	38	0	1091567616	42	6164
2026-01-07 15:11:38.63	358.84	55.64	-34.7	-35.6	24.4	0.00e+00	123	38	0	1094713344	42	5972
2026-01-07 15:11:39.64	358.47	55.97	-34.8	-35.7	24.4	0.00e+00	122	38	0	1097859072	42	6021
2026-01-07 15:11:40.65	358.09	56.31	-34.6	-35.5	24.5	0.00e+00	123	38	0	1101004800	42	5875
2026-01-07 15:11:41.66	357.70	56.65	-34.5	-35.4	24.7	0.00e+00	123	38	0	1104150528	42	5807
2026-01-07 15:11:42.67	357.31	56.99	-34.3	-35.2	24.9	0.00e+00	123	38	0	1107296256	42	5666
2026-01-07 15:11:43.67	356.90	57.32	-34.1	-35.0	24.9	0.00e+00	122	38	0	1110441984	42	5536
2026-01-07 15:11:44.69	356.48	57.67	-34.2	-35.1	25.0	0.00e+00	123	38	0	1113587712	42	5596
2026-01-07 15:11:45.70	356.06	58.01	-34.2	-35.1	24.9	0.00e+00	123	38	0	1116733440	42	5614
2026-01-07 15:11:46.71	355.62	58.35	-34.4	-35.2	24.8	0.00e+00	122	38	0	1119879168	42	5721
2026-01-07 15:11:47.71	355.17	58.69	-34.4	-35.3	24.6	0.00e+00	123	38	0	1123024896	42	5777
2026-01-07 15:11:48.73	354.70	59.03	-34.1	-35.0	25.0	0.00e+00	123	38	0	1126170624	42	5578
2026-01-07 15:11:49.74	354.23	59.38	-34.2	-35.1	24.8	0.00e+00	122	38	0	1129316352	42	5608
2026-01-07 15:11:50.75	353.74	59.72	-34.3	-35.3	24.9	0.00e+00	123	38	0	1132462080	42	5730
2026-01-07 15:11:51.76	353.24	60.06	-34.4	-35.3	24.9	0.00e+00	123	38	0	1135607808	42	5752
2026-01-07 15:11:52.77	352.73	60.40	-34.4	-35.3	24.8	0.00e+00	122	38	0	1138753536	42	5786
2026-01-07 15:11:53.78	352.20	60.75	-34.2	-35.0	24.7	0.00e+00	123	38	0	1141899264	42	5593
2026-01-07 15:11:54.79	351.66	61.09	-33.8	-34.7	24.9	0.00e+00	120	38	0	1145044992	42	5376
2026-01-07 15:11:55.80	351.10	61.43	-33.9	-34.8	25.0	0.00e+00	123	38	0	1148190720	42	5453
2026-01-07 15:11:56.81	350.52	61.77	-33.8	-34.7	25.2	0.00e+00	122	38	0	1151336448	42	5346
2026-01-07 15:11:57.82	349.93	62.11	-33.6	-34.4	25.4	0.00e+00	123	38	0	1154482176	40	5844
2026-01-07 15:11:58.83	349.33	62.45	-33.5	-34.3	25.4	0.00e+00	120	38	0	1157627904	40	5788
2026-01-07 15:11:59.84	348.70	62.78	-33.5	-34.4	25.4	0.00e+00	123	38	0	1160773632	40	5811
2026-01-07 15:12:00.85	348.06	63.12	-33.4	-34.3	25.2	0.00e+00	120	38	0	1163919360	40	5767
2026-01-07 15:12:01.86	347.40	63.45	-33.5	-34.4	25.3	0.00e+00	123	38	0	1167065088	40	5820
2026-01-07 15:12:02.87	346.72	63.79	-33.2	-34.1	25.5	0.00e+00	123	38	0	1170210816	40	5617
2026-01-07 15:12:03.88	346.03	64.12	-33.1	-33.9	25.6	0.00e+00	122	38	0	1173356544	40	5507
2026-01-07 15:12:04.89	345.31	64.44	-33.1	-33.9	25.6	0.00e+00	121	38	0	1176502272	40	5506
2026-01-07 15:12:05.90	344.57	64.77	-33.1	-33.9	25.5	0.00e+00	123	38	0	1179648000	40	5507
2026-01-07 15:12:06.91	343.80	65.09	-33.1	-34.0	25.2	0.00e+00	118	38	0	1182793728	40	5575
2026-01-07 15:12:07.92	343.02	65.42	-33.2	-34.1	25.5	0.00e+00	122	38	0	1185939456	40	5595
2026-01-07 15:12:08.93	342.21	65.73	-33.2	-34.0	25.6	0.00e+00	122	38	0	1190133760	40	5578
2026-01-07 15:12:09.94	341.38	66.05	-33.0	-33.8	25.8	0.00e+00	122	38	0	1192230912	40	5437
2026-01-07 15:12:10.95	340.53	66.36	-32.9	-33.8	25.6	0.00e+00	123	38	0	1195376640	40	5422
2026-01-07 15:12:11.96	339.65	66.67	-33.3	-34.1	25.5	0.00e+00	122	38	0	1198522368	40	5650
2026-01-07 15:12:12.97	338.74	66.97	-33.5	-34.3	25.4	0.00e+00	123	38	0	1201668096	40	5760
2026-01-07 15:12:13.98	337.81	67.27	-33.7	-34.5	25.4	0.00e+00	123	38	0	1205862400	40	5908
2026-01-07 15:12:15.00	336.84	67.57	-33.4	-34.3	25.6	0.00e+00	120	38	0	1209008128	40	5729
2026-01-07 15:12:16.01	335.85	67.86	-33.4	-34.3	25.5	0.00e+00	123	38	0	1212153856	40	5740
2026-01-07 15:12:17.02	334.84	68.14	-33.2	-34.0	25.6	0.00e+00	120	38	0	1214251008	40	5593
2026-01-07 15:12:18.03	333.79	68.42	-33.3	-34.1	25.4	0.00e+00	122	38	0	1218445312	40	5642
2026-01-07 15:12:19.04	332.72	68.69	-33.2	-34.0	25.7	0.00e+00	123	38	0	1221591040	40	5582
2026-01-07 15:12:20.05	331.61	68.96	-33.1	-33.9	25.8	0.00e+00	120	38	0	1224736768	40	5514
2026-01-07 15:12:21.06	330.48	69.22	-33.2	-34.0	25.5	0.00e+00	123	38	0	1227882496	40	5574
2026-01-07 15:12:22.07	329.31	69.47	-33.2	-34.1	25.4	0.00e+00	121	38	0	1231028224	40	5627
2026-01-07 15:12:23.08	328.12	69.72	-33.2	-34.1	25.4	0.00e+00	122	38	0	1234173952	40	5626
2026-01-07 15:12:24.09	326.89	69.95	-33.6	-34.5	25.3	0.00e+00	120	38	0	1237319680	40	5907
2026-01-07 15:12:25.10	325.63	70.18	-33.5	-34.4	25.4	0.00e+00	120	38	0	1240465408	40	5828
2026-01-07 15:12:26.11	324.34	70.40	-33.7	-34.6	25.0	0.00e+00	122	38	0	1243611136	40	5983
2026-01-07 15:12:27.12	323.02	70.61	-33.6	-34.5	25.2	0.00e+00	123	38	0	1246756864	40	5872
2026-01-07 15:12:28.12	321.69	70.81	-33.9	-34.8	25.2	0.00e+00	120	38	0	1249902592	40	6098
2026-01-07 15:12:29.13	320.31	71.00	-33.7	-34.6	25.3	0.00e+00	122	38	0	1253048320	40	5967
2026-01-07 15:12:30.15	318.88	71.19	-33.6	-34.4	25.3	0.00e+00	120	38	0	1256194048	40	5855
2026-01-07 15:12:31.15	317.46	71.36	-33.6	-34.5	25.4	0.00e+00	123	38	0	1259339776	40	5874
2026-01-07 15:12:32.16	316.00	71.51	-34.0	-34.9	25.0	0.00e+00	122	38	0	1262485504	40	6151
2026-01-07 15:12:33.17	314.51	71.66	-34.3	-35.3	24.5	0.00e+00	122	38	0	1265631232	40	6424
2026-01-07 15:12:34.18	312.99	71.80	-33.9	-34.8	25.1	0.00e+00	122	38	0	1268776960	40	6088
2026-01-07 15:12:35.19	311.45	71.92	-33.9	-34.7	25.2	0.00e+00	123	38	0	1271922688	40	6038
2026-01-07 15:12:36.19	309.91	72.03	-33.3	-34.2	25.1	0.00e+00	123	38	0	1275068416	40	5691
2026-01-07 15:12:37.20	308.33	72.13	-33.3	-34.1	25.1	0.00e+00	123	38	0	1278214144	40	5652
2026-01-07 15:12:38.21	306.73	72.22	-33.3	-34.1	25.5	0.00e+00	120	38	0	1281359872	40	5632
2026-01-07 15:12:39.22	305.12	72.29	-33.3	-34.2	25.1	0.00e+00	122	38	0	1284505600	40	5671
2026-01-07 15:12:40.23	303.50	72.35	-33.4	-34.2	25.1	0.00e+00	122	38	0	1287651328	40	5700
2026-01-07 15:12:41.24	301.86	72.40	-33.0	-33.8	25.5	0.00e+00	123	38	0	1290797056	40	5467
2026-01-07 15:12:42.25	300.22	72.43	-33.3	-34.1	25.5	0.00e+00	123	38	0	1293942784	40	5658
2026-01-07 15:12:43.25	298.58	72.45	-33.5	-34.4	25.3	0.00e+00	120	38	0	1297088512	40	5804
2026-01-07 15:12:44.26	296.93	72.46	-34.1	-35.0	24.7	0.00e+00	123	38	0	1300234240	40	6251
2026-01-07 15:12:45.27	295.28	72.45	-33.9	-34.8	24.9	0.00e+00	121	38	0	1303379968	40	6070
2026-01-07 15:12:46.28	293.64	72.42	-33.4	-34.2	25.3	0.00e+00	123	38	0	1306525696	40	5703
2026-01-07 15:12:47.29	292.00	72.39	-33.2	-34.1	25.3	0.00e+00	123	38	0	1309671424	40	5615
2026-01-07 15:12:48.30	290.36	72.34	-33.3	-34.2	25.3	0.00e+00	122	38	0	1312817152	40	5664
2026-01-07 15:12:49.31	288.74	72.27	-33.5	-34.4	25.2	0.00e+00	123	38	0	1315962880	40	5829
2026-01-07 15:12:50.32	287.13	72.20	-33.7	-34.6	25.2	0.00e+00	123	38	0	1319108608	40	5969
2026-01-07 15:12:51.33	285.54	72.11	-33.6	-34.5	25.2	0.00e+00	123	38	0	1322254336	40	5867
2026-01-07 15:12:52.34	283.97	72.00	-33.2	-34.0	25.4	0.00e+00	122	38	0	1325400064	40	5572
2026-01-07 15:12:53.35	282.41	71.89	-32.9	-33.8	25.4	0.00e+00	122	38	0	1328545792	40	5414
2026-01-07 15:12:54.36	280.88	71.76	-33.4	-34.3	25.2	0.00e+00	120	38	0	1331691520	40	5783
2026-01-07 15:12:55.37	279.37	71.62	-33.8	-34.7	24.6	0.00e+00	122	38	0	1334837248	40	6047
2026-01-07 15:12:56.38	277.89	71.47	-34.0	-34.9	24.4	0.00e+00	122	38	0	1337982976	40	6199
2026-01-07 15:12:57.39	276.43	71.30	-33.7	-34.6	24.7	0.00e+00	123	38	0	1341128704	40	5953
2026-01-07 15:12:58.39	275.02	71.13	-34.0	-34.9	24.5	0.00e+00	120	38	0	1344274432	40	6203
2026-01-07 15:12:59.40	273.62	70.95	-33.7	-34.6	25.0	0.00e+00	122	38	0	1347420160	40	5976
2026-01-07 15:13:00.42	272.23	70.75	-33.3	-34.1	25.5	0.00e+00	123	38	0	1350565888	40	5638
2026-01-07 15:13:01.43	270.89	70.54	-33.2	-34.1	25.7	0.00e+00	122	38	0	1353711616	40	5618
2026-01-07 15:13:02.44	269.58	70.33	-33.5	-34.4	25.3	0.00e+00	120	38	0	1356857344	40	5805
2026-01-07 15:13:03.45	268.30	70.11	-33.3	-34.2	25.4	0.00e+00	123	38	0	1360003072	40	5695
2026-01-07 15:13:04.45	267.06	69.88	-32.7	-33.6	25.6	0.00e+00	122	38	0	1363148800	38	5929
2026-01-07 15:13:05.46	265.84	69.64	-32.7	-33.5	25.7	0.00e+00	123	38	0	1366294528	38	5923
2026-01-07 15:13:06.47	264.66	69.39	-32.8	-33.6	25.5	0.00e+00	120	38	0	1369440256	38	5990
2026-01-07 15:13:07.48	263.50	69.14	-33.0	-33.8	25.5	0.00e+00	122	38	0	1372585984	38	6126
2026-01-07 15:13:08.49	262.37	68.87	-33.4	-34.3	25.3	0.00e+00	123	38	0	1375731712	38	6448
2026-01-07 15:13:09.50	261.28	68.61	-33.9	-34.8	24.6	0.00e+00	120	38	0	1378877440	40	6127
2026-01-07 15:13:10.51	260.21	68.33	-33.8	-34.8	24.1	0.00e+00	123	38	0	1382023168	40	6092
2026-01-07 15:13:11.52	259.18	68.05	-33.2	-34.1	24.8	0.00e+00	121	38	0	1385168896	40	5632
2026-01-07 15:13:12.53	258.17	67.76	-32.9	-33.7	25.6	0.00e+00	123	38	0	1388314624	40	5369
2026-01-07 15:13:13.54	257.19	67.47	-33.3	-34.1	25.5	0.00e+00	121	38	0	1391460352	40	5644
2026-01-07 15:13:14.55	256.24	67.18	-34.0	-34.9	24.6	0.00e+00	123	38	0	1394606080	40	6141
2026-01-07 15:13:15.56	255.31	66.87	-34.3	-35.2	24.5	0.00e+00	123	38	0	1397751808	40	6392
2026-01-07 15:13:16.57	254.41	66.57	-33.9	-34.8	25.0	0.00e+00	123	38	0	1400897536	40	6089
2026-01-07 15:13:17.58	253.54	66.26	-33.7	-34.6	25.1	0.00e+00	120	38	0	1404043264	40	5956
2026-01-07 15:13:18.59	252.69	65.95	-33.6	-34.4	25.2	0.00e+00	123	38	0	1407188992	40	5843
2026-01-07 15:13:19.60	251.86	65.63	-33.4	-34.2	25.5	0.00e+00	122	38	0	1410334720	40	5721
2026-01-07 15:13:20.61	251.06	65.31	-33.9	-34.8	25.1	0.00e+00	122	38	0	1413480448	40	6123
2026-01-07 15:13:21.62	250.29	64.99	-34.5	-35.4	24.8	0.00e+00	123	38	0	1416626176	40	6512
2026-01-07 15:13:22.63	249.53	64.66	-34.4	-35.3	24.8	0.00e+00	122	38	0	1419771904	42	5766
2026-01-07 15:13:23.64	248.80	64.33	-33.9	-34.7	25.0	0.00e+00	123	38	0	1422917632	42	5396
2026-01-07 15:13:24.66	248.07	64.00	-33.3	-34.1	25.5	0.00e+00	123	38	0	1426063360	40	5655
2026-01-07 15:13:25.67	247.38	63.67	-33.2	-34.0	25.7	0.00e+00	122	38	0	1429209088	40	5587
2026-01-07 15:13:26.68	246.71	63.34	-33.7	-34.5	25.2	0.00e+00	122	38	0	1432354816	40	5910
2026-01-07 15:13:27.69	246.05	63.00	-34.8	-35.7	24.3	0.00e+00	120	38	0	1435500544	42	6057
2026-01-07 15:13:28.70	245.42	62.66	-35.4	-36.4	23.9	0.00e+00	120	38	0	1438646272	42	6508
2026-01-07 15:13:29.71	244.80	62.32	-34.6	-35.5	24.5	0.00e+00	123	38	0	1441792000	42	5862
2026-01-07 15:13:30.71	244.20	61.99	-33.2	-34.1	25.4	0.00e+00	120	38	0	1444937728	40	5597
2026-01-07 15:13:31.72	243.62	61.65	-33.1	-33.9	25.6	0.00e+00	123	38	0	1448083456	40	5524
2026-01-07 15:13:32.73	243.05	61.31	-33.3	-34.1	25.6	0.00e+00	123	38	0	1451229184	40	5639
2026-01-07 15:13:33.74	242.49	60.97	-33.9	-34.7	25.2	0.00e+00	123	38	0	1454374912	40	6058
2026-01-07 15:13:34.75	241.95	60.62	-34.5	-35.3	24.8	0.00e+00	121	38	0	1457520640	40	6485
2026-01-07 15:13:35.76	241.43	60.28	-34.7	-35.6	24.6	0.00e+00	123	38	0	1460666368	42	5943
2026-01-07 15:13:36.77	240.92	59.94	-34.5	-35.4	24.7	0.00e+00	123	38	0	1463812096	42	5827
2026-01-07 15:13:37.78	240.42	59.59	-34.2	-35.1	24.8	0.00e+00	123	38	0	1466957824	42	5613
2026-01-07 15:13:38.79	239.94	59.25	-34.0	-34.9	25.0	0.00e+00	123	38	0	1470103552	42	5485
2026-01-07 15:13:39.80	239.47	58.91	-33.8	-34.6	25.2	0.00e+00	120	38	0	1473249280	42	5312
2026-01-07 15:13:40.81	239.01	58.57	-33.5	-34.3	25.5	0.00e+00	123	38	0	1476395008	40	5777
2026-01-07 15:13:41.82	238.56	58.22	-34.0	-34.9	25.0	0.00e+00	122	38	0	1479540736	40	6143
2026-01-07 15:13:42.83	238.12	57.88	-34.7	-35.5	24.6	0.00e+00	123	38	0	1482686464	40	6635
2026-01-07 15:13:43.84	237.70	57.54	-35.2	-36.1	23.8	0.00e+00	122	38	0	1485832192	42	6305
2026-01-07 15:13:44.85	237.29	57.20	-34.7	-35.7	23.4	0.00e+00	122	38	0	1488977920	42	6026
2026-01-07 15:13:45.86	236.88	56.86	-34.4	-35.3	24.0	0.00e+00	123	38	0	1492123648	42	5779
2026-01-07 15:13:46.87	236.49	56.52	-34.0	-34.9	24.9	0.00e+00	123	38	0	1495269376	42	5484
2026-01-07 15:13:47.88	236.10	56.18	-33.7	-34.6	25.1	0.00e+00	120	38	0	1498415104	40	5961
2026-01-07 15:13:48.90	235.72	55.84	-34.0	-34.8	25.1	0.00e+00	122	38	0	1501560832	40	6107
2026-01-07 15:13:49.90	235.36	55.50	-34.2	-35.1	24.8	0.00e+00	120	38	0	1504706560	40	6316
2026-01-07 15:13:50.91	235.00	55.17	-35.2	-36.1	24.1	0.00e+00	122	38	0	1507852288	42	6312
2026-01-07 15:13:51.92	234.65	54.83	-36.0	-37.0	23.5	0.00e+00	123	38	0	1510998016	44	6210
2026-01-07 15:13:52.93	234.31	54.50	-36.8	-37.9	22.9	0.00e+00	122	38	0	1514143744	44	6884
2026-01-07 15:13:53.94	233.98	54.16	-37.0	-38.0	22.6	0.00e+00	120	38	0	1517289472	46	6230
2026-01-07 15:13:54.95	233.66	53.83	-36.5	-37.5	22.6	0.00e+00	122	38	0	1520435200	46	5894
2026-01-07 15:13:55.96	233.34	53.50	-36.3	-37.3	22.7	0.00e+00	122	38	0	1523580928	46	5760
2026-01-07 15:13:56.97	233.03	53.17	-35.5	-36.4	23.8	0.00e+00	122	38	0	1526726656	44	5798
2026-01-07 15:13:57.98	232.72	52.84	-35.3	-36.2	24.2	0.00e+00	120	38	0	1529872384	44	5668
2026-01-07 15:13:58.99	232.43	52.52	-35.2	-36.1	24.0	0.00e+00	123	38	0	1533018112	44	5629
2026-01-07 15:14:00.00	232.14	52.19	-35.3	-36.2	24.0	0.00e+00	123	38	0	1536163840	44	5679
2026-01-07 15:14:01.01	231.85	51.87	-35.4	-36.3	24.1	0.00e+00	121	38	0	1539309568	44	5767
2026-01-07 15:14:02.02	231.58	51.54	-35.9	-36.7	23.7	0.00e+00	123	38	0	1542455296	44	6058
2026-01-07 15:14:03.03	231.30	51.22	-36.2	-37.1	23.2	0.00e+00	120	38	0	1546649600	44	6330
2026-01-07 15:14:04.04	231.04	50.90	-36.8	-37.8	22.5	0.00e+00	123	38	0	1549795328	46	6132
2026-01-07 15:14:05.05	230.78	50.58	-37.1	-38.1	22.3	0.00e+00	120	38	0	1552941056	46	6335
2026-01-07 15:14:06.06	230.52	50.27	-36.8	-37.8	22.6	0.00e+00	123	38	0	1555038208	46	6101
2026-01-07 15:14:07.07	230.27	49.95	-36.4	-37.3	23.1	0.00e+00	123	38	0	1558183936	46	5761
2026-01-07 15:14:08.08	230.03	49.64	-35.8	-36.7	23.8	0.00e+00	122	38	0	1562378240	46	5348
2026-01-07 15:14:09.09	229.79	49.33	-35.5	-36.4	24.0	0.00e+00	123	38	0	1565523968	44	5799
2026-01-07 15:14:10.10	229.56	49.02	-36.0	-36.9	23.5	0.00e+00	122	38	0	1568669696	44	6152
2026-01-07 15:14:11.11	229.33	48.71	-36.7	-37.7	23.0	0.00e+00	122	38	0	1571815424	44	6729
2026-01-07 15:14:12.12	229.10	48.40	-37.2	-38.2	22.5	0.00e+00	123	38	0	1574961152	46	6398
2026-01-07 15:14:13.13	228.88	48.10	-37.6	-38.6	21.7	0.00e+00	120	38	0	1577058304	46	6716
2026-01-07 15:14:14.14	228.66	47.79	-38.0	-39.1	21.5	0.00e+00	123	38	0	1581252608	48	6335
2026-01-07 15:14:15.15	228.45	47.49	-38.3	-39.4	21.5	0.00e+00	123	38	0	1584398336	48	6572
2026-01-07 15:14:16.16	228.24	47.19	-38.4	-39.5	21.5	0.00e+00	122	38	0	1587544064	48	6604
2026-01-07 15:14:17.17	228.04	46.89	-38.2	-39.3	21.7	0.00e+00	123	38	0	1590689792	48	6486
2026-01-07 15:14:18.17	227.84	46.60	-37.9	-39.0	21.9	0.00e+00	120	38	0	1593835520	48	6240
2026-01-07 15:14:19.19	227.64	46.30	-37.4	-38.5	22.0	0.00e+00	122	38	0	1596981248	48	5880
2026-01-07 15:14:20.20	227.45	46.01	-37.0	-38.0	22.4	0.00e+00	122	38	0	1600126976	48	5553
2026-01-07 15:14:21.21	227.26	45.71	-36.2	-37.1	23.4	0.00e+00	122	38	0	1603272704	46	5610
2026-01-07 15:14:22.22	227.08	45.42	-36.1	-37.0	23.6	0.00e+00	123	38	0	1606418432	46	5557
2026-01-07 15:14:23.23	226.89	45.14	-35.7	-36.6	23.8	0.00e+00	122	38	0	1609564160	44	5936
2026-01-07 15:14:24.24	226.72	44.85	-36.9	-37.8	22.8	0.00e+00	120	38	0	1612709888	44	6872
2026-01-07 15:14:25.25	226.54	44.57	-38.0	-39.0	21.8	0.00e+00	122	38	0	1615855616	48	6247
2026-01-07 15:14:26.25	226.37	44.29	-38.6	-39.7	21.3	0.00e+00	122	38	0	1619001344	48	6769
2026-01-07 15:14:27.27	226.20	44.00	-39.3	-40.5	20.6	0.00e+00	123	38	0	1622147072	50	6624
2026-01-07 15:14:28.27	226.03	43.72	-39.3	-40.5	20.6	0.00e+00	121	38	0	1625292800	50	6608
2026-01-07 15:14:29.28	225.87	43.45	-38.3	-39.4	21.6	0.00e+00	123	38	0	1628438528	50	5835
2026-01-07 15:14:30.29	225.71	43.17	-37.7	-38.7	22.2	0.00e+00	122	38	0	1631584256	48	6035
2026-01-07 15:14:31.30	225.55	42.90	-37.2	-38.2	22.7	0.00e+00	123	38	0	1634729984	48	5694
2026-01-07 15:14:32.31	225.40	42.62	-37.1	-38.1	22.7	0.00e+00	122	38	0	1637875712	48	5612
2026-01-07 15:14:33.32	225.25	42.35	-37.2	-38.2	22.4	0.00e+00	121	38	0	1641021440	48	5697
2026-01-07 15:14:34.33	225.10	42.08	-37.4	-38.4	22.2	0.00e+00	123	38	0	1644167168	48	5848
2026-01-07 15:14:35.34	224.95	41.82	-37.3	-38.3	22.3	0.00e+00	122	39	0	1647312896	48	5772
2026-01-07 15:14:36.35	224.80	41.55	-36.9	-37.8	22.0	0.00e+00	123	38	0	1650458624	48	5463
2026-01-07 15:14:37.37	224.66	41.28	-36.4	-37.3	23.1	0.00e+00	120	38	0	1653604352	46	5760
2026-01-07 15:14:38.38	224.52	41.02	-36.1	-37.1	23.2	0.00e+00	122	38	0	1656750080	46	5600
2026-01-07 15:14:39.39	224.38	40.76	-35.9	-36.8	23.7	0.00e+00	120	38	0	1659895808	46	5428
2026-01-07 15:14:40.40	224.25	40.50	-35.7	-36.5	23.9	0.00e+00	122	38	0	1663041536	44	5922
2026-01-07 15:14:41.41	224.11	40.25	-35.8	-36.7	23.8	0.00e+00	123	39	0	1666187264	44	6053
2026-01-07 15:14:42.42	223.98	39.99	-36.6	-37.5	23.1	0.00e+00	123	38	0	1669332992	44	6604
2026-01-07 15:14:43.43	223.85	39.74	-37.3	-38.3	22.5	0.00e+00	123	38	0	1672478720	46	6461
2026-01-07 15:14:44.44	223.73	39.48	-37.8	-38.9	22.0	0.00e+00	120	38	0	1675624448	48	6182
2026-01-07 15:14:45.45	223.60	39.23	-37.8	-38.9	22.1	0.00e+00	122	38	0	1678770176	48	6154
2026-01-07 15:14:46.46	223.48	38.98	-37.5	-38.6	22.3	0.00e+00	122	38	0	1681915904	48	5944
2026-01-07 15:14:47.47	223.36	38.74	-37.3	-38.4	22.4	0.00e+00	123	39	0	1685061632	48	5801
2026-01-07 15:14:48.48	223.24	38.49	-36.8	-37.8	22.9	0.00e+00	120	38	0	1688207360	48	5413
2026-01-07 15:14:49.49	223.12	38.25	-36.4	-37.4	23.2	0.00e+00	123	38	0	1691353088	46	5824
2026-01-07 15:14:50.50	223.01	38.01	-36.4	-37.4	23.3	0.00e+00	120	38	0	1694498816	46	5797
2026-01-07 15:14:51.51	222.89	37.76	-36.1	-37.1	23.5	0.00e+00	123	38	0	1697644544	46	5597
2026-01-07 15:14:52.52	222.78	37.53	-36.2	-37.2	23.5	0.00e+00	120	38	0	1700790272	46	5665
2026-01-07 15:14:53.53	222.67	37.29	-36.1	-37.1	23.5	0.00e+00	122	38	0	1703936000	46	5606
2026-01-07 15:14:54.53	222.56	37.05	-35.8	-36.7	23.9	0.00e+00	120	38	0	1707081728	46	5379
2026-01-07 15:14:55.55	222.45	36.82	-35.6	-36.5	24.0	0.00e+00	127	38	0	1710227456	44	5879
2026-01-07 15:14:56.56	222.35	36.58	-35.2	-36.1	24.2	0.00e+00	122	38	0	1713373184	44	5632
2026-01-07 15:14:57.57	222.24	36.35	-35.2	-36.1	24.1	0.00e+00	123	38	0	1716518912	44	5623
2026-01-07 15:14:58.58	222.14	36.12	-35.2	-36.1	24.0	0.00e+00	122	38	0	1719664640	44	5638
2026-01-07 15:14:59.59	222.04	35.89	-35.3	-36.2	24.1	0.00e+00	120	38	0	1722810368	44	5722
2026-01-07 15:15:00.60	221.94	35.67	-35.4	-36.4	24.1	0.00e+00	120	38	0	1725956096	44	5800
2026-01-07 15:15:01.61	221.84	35.44	-35.4	-36.3	24.0	0.00e+00	123	38	0	1729101824	44	5782
2026-01-07 15:15:02.62	221.74	35.22	-35.3	-36.2	24.1	0.00e+00	120	38	0	1732247552	44	5719
2026-01-07 15:15:03.63	221.65	35.00	-35.3	-36.2	24.2	0.00e+00	123	38	0	1735393280	44	5663
2026-01-07 15:15:04.64	221.55	34.77	-35.2	-36.1	24.3	0.00e+00	123	38	0	1738539008	44	5639
2026-01-07 15:15:05.65	221.46	34.56	-35.0	-35.8	24.4	0.00e+00	122	38	0	1741684736	44	5450
2026-01-07 15:15:06.65	221.37	34.34	-35.0	-35.9	24.3	0.00e+00	122	38	0	1744830464	44	5492
2026-01-07 15:15:07.67	221.28	34.12	-35.0	-35.9	24.2	0.00e+00	123	38	0	1747976192	44	5502
2026-01-07 15:15:08.68	221.19	33.91	-35.2	-36.1	24.0	0.00e+00	123	38	0	1751121920	44	5620
2026-01-07 15:15:09.69	221.10	33.69	-35.2	-36.2	23.9	0.00e+00	122	38	0	1754267648	44	5662
2026-01-07 15:15:10.70	221.01	33.48	-35.4	-36.4	23.8	0.00e+00	120	38	0	1757413376	44	5816
2026-01-07 15:15:11.71	220.93	33.27	-35.7	-36.6	23.8	0.00e+00	122	38	0	1760559104	44	5979
2026-01-07 15:15:12.72	220.84	33.06	-35.6	-36.5	23.9	0.00e+00	127	38	0	1763704832	44	5919
2026-01-07 15:15:13.73	220.76	32.85	-35.5	-36.4	23.9	0.00e+00	121	38	0	1766850560	44	5804
2026-01-07 15:15:14.74	220.68	32.64	-35.1	-36.0	24.3	0.00e+00	123	38	0	1769996288	44	5547
2026-01-07 15:15:15.75	220.60	32.44	-35.1	-36.0	24.3	0.00e+00	120	38	0	1773142016	44	5537
2026-01-07 15:15:16.76	220.52	32.23	-34.7	-35.6	24.6	0.00e+00	122	38	0	1776287744	42	5981
2026-01-07 15:15:17.77	220.44	32.03	-34.7	-35.6	24.7	0.00e+00	123	38	0	1779433472	42	5930
2026-01-07 15:15:18.78	220.36	31.83	-34.6	-35.4	24.8	0.00e+00	122	38	0	1782579200	42	5851
2026-01-07 15:15:19.79	220.28	31.63	-34.7	-35.6	24.7	0.00e+00	120	38	0	1785724928	42	5956
2026-01-07 15:15:20.80	220.21	31.43	-34.6	-35.4	24.7	0.00e+00	123	38	0	1788870656	42	5854
2026-01-07 15:15:21.81	220.13	31.23	-34.8	-35.7	24.5	0.00e+00	123	38	0	1792016384	42	6051
2026-01-07 15:15:22.82	220.06	31.04	-35.0	-35.9	24.3	0.00e+00	123	38	0	1795162112	42	6136
2026-01-07 15:15:23.83	219.98	30.84	-35.1	-36.0	24.2	0.00e+00	123	38	0	1798307840	42	6249
2026-01-07 15:15:24.84	219.91	30.65	-35.2	-36.2	24.1	0.00e+00	123	38	0	1801453568	42	6365
2026-01-07 15:15:25.85	219.84	30.45	-35.4	-36.3	24.0	0.00e+00	122	38	0	1804599296	42	6475
2026-01-07 15:15:26.86	219.77	30.26	-35.5	-36.4	23.9	0.00e+00	122	38	0	1807745024	42	6546
2026-01-07 15:15:27.87	219.70	30.07	-35.4	-36.3	24.0	0.00e+00	121	38	0	1810890752	42	6485
2026-01-07 15:15:28.88	219.63	29.88	-35.4	-36.3	24.0	0.00e+00	123	38	0	1814036480	42	6467
2026-01-07 15:15:29.89	219.56	29.69	-35.4	-36.4	24.0	0.00e+00	122	38	0	1817182208	42	6504
2026-01-07 15:15:30.90	219.50	29.51	-35.3	-36.2	24.1	0.00e+00	123	38	0	1820327936	42	6415
2026-01-07 15:15:31.91	219.43	29.32	-35.1	-36.0	24.2	0.00e+00	123	38	0	1823473664	42	6271
2026-01-07 15:15:32.92	219.36	29.14	-35.0	-35.9	24.3	0.00e+00	122	38	0	1826619392	42	6164
2026-01-07 15:15:33.93	219.30	28.95	-34.7	-35.5	24.6	0.00e+00	123	38	0	1829765120	42	5923
2026-01-07 15:15:34.94	219.23	28.77	-34.7	-35.6	24.5	0.00e+00	123	38	0	1832910848	42	5937
2026-01-07 15:15:35.95	219.17	28.59	-34.5	-35.4	24.6	0.00e+00	123	38	0	1836056576	42	5795
2026-01-07 15:15:36.96	219.11	28.41	-34.1	-34.9	24.7	0.00e+00	122	38	0	1839202304	42	5513
2026-01-07 15:15:37.97	219.05	28.23	-33.9	-34.8	24.9	0.00e+00	122	38	0	1842348032	42	5405
2026-01-07 15:15:38.98	218.99	28.06	-34.0	-34.8	24.9	0.00e+00	122	38	0	1845493760	42	5439
2026-01-07 15:15:39.99	218.93	27.88	-33.9	-34.8	25.0	0.00e+00	123	38	0	1848639488	42	5417
2026-01-07 15:15:41.00	218.87	27.70	-33.6	-34.4	25.3	0.00e+00	122	38	0	1851785216	40	5834
2026-01-07 15:15:42.01	218.81	27.53	-33.6	-34.4	25.3	0.00e+00	123	38	0	1854930944	40	5814
2026-01-07 15:15:43.02	218.75	27.36	-33.4	-34.2	25.5	0.00e+00	123	38	0	1858076672	40	5696
2026-01-07 15:15:44.03	218.69	27.18	-33.3	-34.1	25.5	0.00e+00	123	38	0	1862270976	40	5631
2026-01-07 15:15:45.04	218.63	27.01	-33.2	-34.0	25.5	0.00e+00	122	38	0	1865416704	40	5562
2026-01-07 15:15:46.05	218.58	26.84	-33.1	-33.9	25.6	0.00e+00	123	38	0	1868562432	40	5508
2026-01-07 15:15:47.06	218.52	26.67	-33.2	-34.0	25.5	0.00e+00	122	39	0	1870659584	40	5573
2026-01-07 15:15:48.07	218.47	26.50	-33.4	-34.2	25.4	0.00e+00	122	38	0	1873805312	40	5692
2026-01-07 15:15:49.08	218.41	26.34	-33.4	-34.3	25.2	0.00e+00	123	38	0	1877999616	40	5737
2026-01-07 15:15:50.09	218.36	26.17	-33.7	-34.5	25.1	0.00e+00	123	38	0	1881145344	40	5902
2026-01-07 15:15:51.10	218.30	26.01	-33.8	-34.6	25.1	0.00e+00	123	38	0	1884291072	40	5976
2026-01-07 15:15:52.11	218.25	25.84	-34.0	-34.8	25.0	0.00e+00	123	38	0	1887436800	40	6134
2026-01-07 15:15:53.12	218.20	25.68	-34.1	-35.0	24.9	0.00e+00	123	38	0	1890582528	40	6235
2026-01-07 15:15:54.13	218.15	25.52	-34.2	-35.1	24.8	0.00e+00	123	38	0	1893728256	40	6307
2026-01-07 15:15:55.14	218.10	25.36	-34.2	-35.1	24.9	0.00e+00	122	38	0	1896873984	40	6296
2026-01-07 15:15:56.15	218.05	25.19	-34.4	-35.3	24.7	0.00e+00	123	38	0	1900019712	40	6446
2026-01-07 15:15:57.16	218.00	25.04	-34.4	-35.3	24.7	0.00e+00	123	38	0	1903165440	40	6438
2026-01-07 15:15:58.17	217.95	24.88	-34.5	-35.4	24.6	0.00e+00	122	38	0	1906311168	40	6544
2026-01-07 15:15:59.18	217.90	24.72	-34.6	-35.5	24.5	0.00e+00	120	38	0	1909456896	40	6575
2026-01-07 15:16:00.19	217.85	24.56	-34.6	-35.5	24.5	0.00e+00	122	39	0	1912602624	40	6624
2026-01-07 15:16:01.20	217.80	24.41	-34.8	-35.7	24.3	0.00e+00	123	38	0	1915748352	42	6012
2026-01-07 15:16:02.21	217.75	24.25	-34.8	-35.7	24.3	0.00e+00	123	39	0	1918894080	42	6035
2026-01-07 15:16:03.22	217.71	24.10	-34.9	-35.8	24.4	0.00e+00	123	38	0	1922039808	42	6089
2026-01-07 15:16:04.23	217.66	23.95	-34.9	-35.8	24.3	0.00e+00	122	38	0	1925185536	42	6096
2026-01-07 15:16:05.24	217.61	23.79	-35.0	-35.9	24.3	0.00e+00	123	38	0	1928331264	42	6169
2026-01-07 15:16:06.25	217.57	23.64	-34.9	-35.8	24.4	0.00e+00	122	38	0	1931476992	42	6098
2026-01-07 15:16:07.26	217.52	23.49	-35.0	-35.9	24.3	0.00e+00	120	38	0	1934622720	42	6145
2026-01-07 15:16:08.27	217.48	23.34	-35.0	-35.9	24.3	0.00e+00	122	38	0	1937768448	42	6170
2026-01-07 15:16:09.28	217.44	23.19	-34.7	-35.6	24.5	0.00e+00	120	39	0	1940914176	42	5985
2026-01-07 15:16:10.29	217.39	23.05	-34.9	-35.8	24.5	0.00e+00	123	38	0	1944059904	42	6081
2026-01-07 15:16:11.30	217.35	22.90	-34.7	-35.6	24.6	0.00e+00	120	39	0	1947205632	42	5964
2026-01-07 15:16:12.32	217.31	22.75	-34.7	-35.6	24.5	0.00e+00	122	38	0	1950351360	42	5970
2026-01-07 15:16:13.32	217.26	22.61	-34.6	-35.5	24.6	0.00e+00	123	38	0	1953497088	42	5902
2026-01-07 15:16:14.33	217.22	22.46	-34.6	-35.5	24.6	0.00e+00	123	38	0	1956642816	42	5893
2026-01-07 15:16:15.35	217.18	22.32	-34.6	-35.5	24.6	0.00e+00	122	38	0	1959788544	42	5892
2026-01-07 15:16:16.35	217.14	22.17	-34.5	-35.3	24.7	0.00e+00	123	38	0	1962934272	42	5781
2026-01-07 15:16:17.36	217.10	22.03	-34.4	-35.3	24.7	0.00e+00	120	38	0	1966080000	42	5753
2026-01-07 15:16:18.38	217.06	21.89	-34.4	-35.3	24.7	0.00e+00	122	38	0	1969225728	42	5743
2026-01-07 15:16:19.39	217.02	21.75	-34.3	-35.2	24.7	0.00e+00	122	38	0	1972371456	42	5705
2026-01-07 15:16:20.40	216.98	21.61	-34.3	-35.2	24.7	0.00e+00	122	38	0	1975517184	42	5697
