passes_logs/2026/01/07/R4.6S_Anadyr/R4.6S_Anadyr__20260107_165526_AQUA_rec.log

#Pass ID: 20260107_165526_AQUA
#Satellite: AQUA
#Configuration: AQUA
#almurnet v.1.7.20251203
#Start time: 2026-01-07 16:55:29

#Version: 2.2.20231116
#Station: R4.6S_Anadyr
#Location: 177.4865 lon 64.73178 lat
#TLE: 1 27424U 02022A   26004.96787593  .00001598  00000+0  32997-3 0  9996
#TLE: 2 27424  98.4069 331.2279 0002002  90.2377   0.6092 14.61798176259425

#Time	Az	El	Level	Level2	SNR	BER	BlckErr	Temp	State	Recorded	gain1	gain2
2026-01-07 16:55:29.23	20.46	0.16	-49.2	-60.9	3.5	8.45e-01	0	36	0	0	60	39872
2026-01-07 16:55:30.24	20.45	0.22	-49.7	-67.6	3.5	3.02e+01	0	36	104	0	60	91961
2026-01-07 16:55:31.25	20.43	0.28	-49.7	-67.5	3.5	3.02e+01	0	37	104	0	60	91618
2026-01-07 16:55:32.26	20.42	0.35	-49.7	-67.5	3.5	3.02e+01	0	37	104	0	60	91735
2026-01-07 16:55:33.27	20.40	0.41	-49.7	-67.6	3.5	3.02e+01	0	37	104	0	60	92241
2026-01-07 16:55:34.28	20.39	0.47	-49.7	-67.6	3.5	3.02e+01	0	37	104	0	60	92592
2026-01-07 16:55:35.29	20.37	0.53	-49.7	-67.6	3.5	3.02e+01	0	37	104	0	60	92299
2026-01-07 16:55:36.30	20.36	0.60	-49.6	-67.6	3.5	3.02e+01	0	37	104	0	60	91840
2026-01-07 16:55:37.31	20.34	0.66	-49.5	-67.6	3.5	3.02e+01	0	37	104	0	60	91876
2026-01-07 16:55:38.32	20.33	0.72	-49.5	-67.5	3.5	3.02e+01	0	37	104	0	60	90975
2026-01-07 16:55:39.33	20.31	0.79	-49.5	-67.4	3.5	3.02e+01	0	37	104	0	60	89990
2026-01-07 16:55:40.34	20.30	0.85	-49.3	-67.3	3.5	3.02e+01	0	37	104	0	60	89035
2026-01-07 16:55:41.35	20.28	0.91	-49.1	-67.1	3.5	3.02e+01	0	37	104	0	60	87144
2026-01-07 16:55:42.36	20.27	0.98	-48.9	-66.9	3.5	3.02e+01	0	37	104	0	60	85068
2026-01-07 16:55:43.37	20.25	1.04	-48.8	-66.7	3.5	3.02e+01	0	37	104	0	60	83114
2026-01-07 16:55:44.38	20.23	1.10	-48.4	-66.3	3.5	3.02e+01	0	37	104	0	60	79435
2026-01-07 16:55:45.39	20.22	1.17	-48.4	-66.3	3.5	3.02e+01	0	37	104	0	60	79399
2026-01-07 16:55:46.40	20.20	1.23	-48.4	-66.3	3.5	3.02e+01	0	37	104	0	60	79177
2026-01-07 16:55:47.41	20.19	1.30	-48.4	-66.3	3.5	3.02e+01	0	37	104	0	60	79242
2026-01-07 16:55:48.42	20.17	1.36	-48.4	-66.2	3.5	3.02e+01	0	37	104	0	60	78921
2026-01-07 16:55:49.43	20.15	1.43	-48.4	-66.3	3.5	3.02e+01	0	37	104	0	60	79568
2026-01-07 16:55:50.44	20.14	1.49	-48.4	-66.3	3.5	3.02e+01	0	37	104	0	60	79453
2026-01-07 16:55:51.45	20.12	1.56	-48.4	-66.3	3.5	3.02e+01	0	37	104	0	60	79621
2026-01-07 16:55:52.46	20.10	1.62	-48.4	-66.2	3.5	3.02e+01	0	37	104	0	60	78666
2026-01-07 16:55:53.47	20.09	1.69	-48.4	-66.2	3.5	3.02e+01	0	37	104	0	60	78774
2026-01-07 16:55:54.48	20.07	1.75	-48.4	-66.2	3.5	3.02e+01	0	37	104	0	60	78717
2026-01-07 16:55:55.49	20.05	1.82	-48.4	-66.1	3.5	3.02e+01	0	37	104	0	60	77850
2026-01-07 16:55:56.50	20.04	1.89	-48.3	-66.1	3.5	3.02e+01	0	37	104	0	60	77641
2026-01-07 16:55:57.52	20.02	1.95	-48.3	-66.0	3.5	3.02e+01	0	37	104	0	60	77086
2026-01-07 16:55:58.52	20.00	2.02	-48.3	-66.0	3.5	3.02e+01	0	37	104	0	60	76954
2026-01-07 16:55:59.53	19.99	2.08	-48.3	-66.0	3.5	3.02e+01	0	37	104	0	60	76428
2026-01-07 16:56:00.54	19.97	2.15	-48.3	-66.0	3.5	3.02e+01	0	37	104	0	60	77108
2026-01-07 16:56:01.55	19.95	2.22	-48.3	-66.1	3.5	3.02e+01	0	37	104	0	60	77620
2026-01-07 16:56:02.56	19.93	2.29	-48.3	-66.2	3.5	3.02e+01	0	37	104	0	60	78167
2026-01-07 16:56:03.57	19.92	2.35	-48.4	-66.2	3.5	3.02e+01	0	37	104	0	60	78561
2026-01-07 16:56:04.58	19.90	2.42	-48.4	-66.3	3.5	3.02e+01	0	37	104	0	60	79085
2026-01-07 16:56:05.59	19.88	2.49	-48.4	-66.3	3.5	3.02e+01	0	37	104	0	60	79044
2026-01-07 16:56:06.61	19.86	2.56	-48.4	-66.2	3.5	3.02e+01	0	37	104	0	60	78668
2026-01-07 16:56:07.62	19.84	2.62	-48.3	-66.1	3.5	3.02e+01	0	37	104	0	60	77976
2026-01-07 16:56:08.63	19.83	2.69	-48.3	-66.0	3.5	3.02e+01	0	37	104	0	60	76685
2026-01-07 16:56:09.64	19.81	2.76	-48.3	-65.9	3.5	3.02e+01	0	37	104	0	60	75631
2026-01-07 16:56:10.65	19.79	2.83	-48.3	-65.7	3.5	3.02e+01	0	37	104	0	60	74232
2026-01-07 16:56:11.66	19.77	2.90	-48.2	-65.5	3.5	3.02e+01	0	37	104	0	60	72711
2026-01-07 16:56:12.66	19.75	2.96	-48.2	-65.4	3.5	3.02e+01	0	37	104	0	60	71835
2026-01-07 16:56:13.68	19.73	3.03	-48.2	-65.3	3.5	3.02e+01	0	38	104	0	60	70699
2026-01-07 16:56:14.69	19.71	3.10	-48.2	-65.4	3.5	3.02e+01	0	37	104	0	60	71700
2026-01-07 16:56:15.69	19.70	3.17	-48.3	-65.7	3.5	3.02e+01	0	37	104	0	60	74546
2026-01-07 16:56:16.70	19.68	3.24	-48.3	-66.1	3.5	3.02e+01	0	37	104	0	60	77514
2026-01-07 16:56:17.72	19.66	3.31	-48.3	-66.0	3.5	3.02e+01	0	37	104	0	60	77119
2026-01-07 16:56:18.73	19.64	3.38	-48.2	-65.2	3.5	3.02e+01	0	37	104	0	60	70291
2026-01-07 16:56:19.73	19.62	3.45	-47.9	-63.9	3.5	3.02e+01	0	37	104	0	60	60178
2026-01-07 16:56:20.75	19.60	3.52	-47.3	-61.9	3.5	3.02e+01	0	38	104	0	60	47773
2026-01-07 16:56:21.76	19.58	3.59	-46.8	-60.7	3.5	3.02e+01	0	38	104	0	60	41511
2026-01-07 16:56:22.76	19.56	3.66	-46.3	-59.3	3.5	3.02e+01	0	37	104	0	60	35689
2026-01-07 16:56:23.77	19.54	3.73	-46.0	-58.8	3.5	3.02e+01	0	37	104	0	60	33470
2026-01-07 16:56:24.79	19.52	3.81	-45.9	-58.6	3.5	3.02e+01	0	38	104	0	60	32658
2026-01-07 16:56:25.79	19.50	3.88	-45.9	-58.6	3.5	3.02e+01	0	37	104	0	60	32735
2026-01-07 16:56:26.81	19.48	3.95	-46.2	-59.3	3.5	3.02e+01	0	38	104	0	60	35411
2026-01-07 16:56:27.82	19.46	4.02	-48.4	-66.3	3.5	3.02e+01	0	37	104	0	60	79111
2026-01-07 16:56:28.83	19.44	4.09	-39.4	-49.9	3.5	3.02e+01	0	37	104	0	56	15210
2026-01-07 16:56:29.84	19.42	4.16	-48.2	-65.3	3.5	3.02e+01	0	38	104	0	60	70673
2026-01-07 16:56:30.85	19.40	4.24	-45.1	-57.2	3.5	3.02e+01	0	37	104	0	60	27740
2026-01-07 16:56:31.86	19.37	4.31	-44.2	-55.8	3.5	3.02e+01	0	37	104	0	58	26771
2026-01-07 16:56:32.87	19.35	4.38	-41.2	-51.9	3.5	3.02e+01	0	37	104	0	60	15209
2026-01-07 16:56:33.88	19.33	4.45	-39.7	-50.2	3.5	3.02e+01	0	38	104	0	54	17631
2026-01-07 16:56:34.89	19.31	4.53	-39.6	-50.2	3.5	3.02e+01	0	38	104	0	54	17523
2026-01-07 16:56:35.90	19.29	4.60	-38.8	-49.3	3.5	3.02e+01	0	38	104	0	52	17726
2026-01-07 16:56:36.91	19.27	4.67	-40.9	-51.6	3.5	3.02e+01	0	38	104	0	54	20660
2026-01-07 16:56:37.92	19.24	4.75	-38.1	-48.4	3.5	3.02e+01	0	38	104	0	52	16125
2026-01-07 16:56:38.92	19.22	4.82	-48.2	-65.0	3.5	3.02e+01	0	38	104	0	60	68227
2026-01-07 16:56:39.93	19.20	4.90	-46.2	-59.2	3.5	3.02e+01	0	37	104	0	60	35028
2026-01-07 16:56:40.95	19.18	4.97	-46.1	-59.0	3.5	3.02e+01	0	38	104	0	60	34247
2026-01-07 16:56:41.95	19.16	5.05	-39.2	-49.7	3.5	3.02e+01	0	37	104	0	54	16632
2026-01-07 16:56:42.96	19.13	5.12	-38.6	-49.0	3.5	3.02e+01	0	37	104	0	52	17284
2026-01-07 16:56:43.97	19.11	5.20	-38.5	-48.9	3.5	3.02e+01	0	37	104	0	52	16924
2026-01-07 16:56:44.98	19.09	5.27	-38.5	-48.9	3.5	3.02e+01	0	38	104	0	52	16990
2026-01-07 16:56:45.99	19.06	5.35	-38.9	-49.3	3.5	3.02e+01	0	38	104	0	50	20018
2026-01-07 16:56:47.00	19.04	5.42	-37.8	-48.2	3.5	3.02e+01	0	38	104	0	50	17609
2026-01-07 16:56:48.02	19.02	5.50	-48.3	-64.9	3.5	3.02e+01	0	37	104	0	60	67275
2026-01-07 16:56:49.03	18.99	5.58	-46.3	-59.3	3.5	3.02e+01	0	38	104	0	60	35316
2026-01-07 16:56:50.04	18.97	5.65	-45.9	-58.5	3.5	3.02e+01	0	38	104	0	60	32499
2026-01-07 16:56:51.05	18.95	5.73	-38.7	-49.1	3.5	3.02e+01	0	38	104	0	52	17474
2026-01-07 16:56:52.06	18.92	5.81	-39.1	-49.5	3.5	3.02e+01	0	38	104	0	52	18272
2026-01-07 16:56:53.07	18.90	5.88	-38.5	-48.9	3.5	3.02e+01	0	38	104	0	52	17032
2026-01-07 16:56:54.08	18.87	5.96	-38.6	-49.0	3.5	3.02e+01	0	38	104	0	52	17222
2026-01-07 16:56:55.09	18.85	6.04	-39.3	-49.8	3.5	3.02e+01	0	38	104	0	52	18948
2026-01-07 16:56:56.10	18.82	6.12	-37.6	-47.9	3.5	3.02e+01	0	38	104	0	50	16985
2026-01-07 16:56:57.11	18.80	6.20	-48.3	-65.1	3.5	3.02e+01	0	38	104	0	60	69171
2026-01-07 16:56:58.12	18.77	6.27	-47.0	-60.6	3.5	3.02e+01	0	38	104	0	60	41037
2026-01-07 16:56:59.13	18.75	6.35	-47.3	-61.6	3.5	3.02e+01	0	38	104	0	60	46110
2026-01-07 16:57:00.14	18.72	6.43	-41.3	-52.0	3.5	3.02e+01	0	38	104	0	58	17226
2026-01-07 16:57:01.15	18.70	6.51	-41.1	-51.9	3.5	3.02e+01	0	38	104	0	58	16953
2026-01-07 16:57:02.16	18.67	6.59	-41.2	-51.9	3.5	3.02e+01	0	38	104	0	58	16981
2026-01-07 16:57:03.17	18.65	6.67	-41.3	-52.1	3.5	3.02e+01	0	38	104	0	58	17446
2026-01-07 16:57:04.18	18.62	6.75	-37.3	-47.6	3.5	3.02e+01	0	38	104	0	50	16439
2026-01-07 16:57:05.19	18.59	6.83	-37.3	-47.6	3.5	3.02e+01	0	38	104	0	50	16438
2026-01-07 16:57:06.19	18.57	6.91	-48.3	-64.6	3.5	3.02e+01	0	38	104	0	60	65625
2026-01-07 16:57:07.20	18.54	6.99	-44.9	-56.8	3.5	3.02e+01	0	38	104	0	60	26543
2026-01-07 16:57:08.21	18.51	7.07	-46.3	-59.2	3.5	3.02e+01	0	38	104	0	60	35029
2026-01-07 16:57:09.22	18.49	7.16	-38.4	-48.8	3.5	3.02e+01	0	38	104	0	52	16860
2026-01-07 16:57:10.23	18.46	7.24	-37.8	-48.1	3.5	3.02e+01	0	38	104	0	50	17378
2026-01-07 16:57:11.24	18.43	7.32	-37.6	-47.9	3.5	3.02e+01	0	38	104	0	50	16899
2026-01-07 16:57:12.25	18.40	7.40	-37.4	-47.7	3.5	3.02e+01	0	38	104	0	50	16544
2026-01-07 16:57:13.26	18.38	7.48	-41.1	-51.9	3.5	3.02e+01	0	38	104	0	58	16973
2026-01-07 16:57:14.27	18.35	7.57	-37.5	-47.8	3.5	3.02e+01	0	38	104	0	50	16720
2026-01-07 16:57:15.27	18.32	7.65	-48.4	-64.7	3.5	3.02e+01	0	38	104	0	60	65807
2026-01-07 16:57:16.28	18.29	7.73	-44.1	-55.6	3.6	3.02e+01	0	38	104	0	60	23132
2026-01-07 16:57:17.29	18.26	7.82	-46.0	-58.6	3.5	3.02e+01	0	38	104	0	60	32645
2026-01-07 16:57:18.30	18.23	7.90	-38.0	-48.4	3.5	3.02e+01	0	38	104	0	50	17994
2026-01-07 16:57:19.31	18.20	7.99	-37.4	-47.7	3.5	3.02e+01	0	38	104	0	50	16537
2026-01-07 16:57:20.32	18.18	8.07	-36.8	-47.1	3.5	3.02e+01	0	38	104	0	48	17293
2026-01-07 16:57:21.33	18.15	8.16	-36.8	-47.1	3.5	3.02e+01	0	38	104	0	48	17421
2026-01-07 16:57:22.34	18.12	8.24	-39.9	-50.4	3.6	3.02e+01	0	38	104	0	54	18006
2026-01-07 16:57:23.35	18.09	8.33	-37.3	-47.6	3.4	3.02e+01	0	38	104	0	48	18437
2026-01-07 16:57:24.36	18.06	8.41	-48.4	-64.7	3.5	3.02e+01	0	38	104	0	60	66217
2026-01-07 16:57:25.37	18.03	8.50	-43.5	-54.7	3.6	3.02e+01	0	38	104	0	60	20994
2026-01-07 16:57:26.38	17.99	8.59	-46.4	-59.3	3.5	3.02e+01	0	38	104	0	60	35672
2026-01-07 16:57:27.39	17.96	8.67	-47.8	-62.6	3.5	3.02e+01	0	38	104	0	60	51942
2026-01-07 16:57:28.40	17.93	8.76	-48.4	-64.6	3.5	3.02e+01	0	38	104	0	60	65593
2026-01-07 16:57:29.41	17.90	8.85	-48.5	-64.8	3.5	3.02e+01	0	38	104	0	60	67204
2026-01-07 16:57:30.42	17.87	8.94	-48.6	-65.2	3.5	3.02e+01	0	38	104	0	60	70338
2026-01-07 16:57:31.43	17.84	9.03	-48.7	-66.1	3.5	3.02e+01	0	38	104	0	60	77444
2026-01-07 16:57:32.44	17.81	9.11	-48.8	-66.6	3.5	3.02e+01	0	38	104	0	60	81949
2026-01-07 16:57:33.44	17.77	9.20	-48.8	-66.8	3.5	3.02e+01	0	38	104	0	60	84199
2026-01-07 16:57:34.45	17.74	9.29	-48.8	-66.8	3.5	3.02e+01	0	38	104	0	60	83920
2026-01-07 16:57:35.46	17.71	9.38	-48.8	-66.8	3.5	3.02e+01	0	38	104	0	60	83994
2026-01-07 16:57:36.47	17.68	9.47	-48.8	-66.7	3.5	3.02e+01	0	38	104	0	60	83002
2026-01-07 16:57:37.48	17.64	9.56	-48.8	-66.7	3.5	3.02e+01	0	38	104	0	60	83091
2026-01-07 16:57:38.49	17.61	9.65	-48.8	-66.6	3.5	3.02e+01	0	38	104	0	60	81975
2026-01-07 16:57:39.50	17.58	9.74	-48.8	-66.5	3.5	3.02e+01	0	38	104	0	60	81712
2026-01-07 16:57:40.51	17.54	9.84	-48.8	-66.7	3.5	3.02e+01	0	38	104	0	60	83187
2026-01-07 16:57:41.52	17.51	9.93	-48.8	-66.7	3.5	3.02e+01	0	38	104	0	60	83234
2026-01-07 16:57:42.53	17.47	10.02	-48.8	-66.7	3.5	3.02e+01	0	38	104	0	60	83651
2026-01-07 16:57:43.54	17.44	10.11	-48.8	-66.7	3.5	3.02e+01	0	38	104	0	60	83587
2026-01-07 16:57:44.55	17.40	10.21	-48.8	-66.8	3.5	3.02e+01	0	38	104	0	60	83927
2026-01-07 16:57:45.56	17.37	10.30	-48.8	-66.7	3.5	3.02e+01	0	38	104	0	60	82898
2026-01-07 16:57:46.57	17.33	10.39	-48.8	-66.7	3.5	3.02e+01	0	38	104	0	60	82933
2026-01-07 16:57:47.58	17.30	10.49	-48.8	-66.7	3.5	3.02e+01	0	38	104	0	60	83662
2026-01-07 16:57:48.59	17.26	10.58	-48.8	-66.7	3.5	3.02e+01	0	38	104	0	60	82943
2026-01-07 16:57:49.60	17.22	10.68	-48.8	-66.7	3.5	3.02e+01	0	38	104	0	60	83486
2026-01-07 16:57:50.61	17.19	10.77	-48.8	-66.8	3.5	3.02e+01	0	38	104	0	60	84090
2026-01-07 16:57:51.61	17.15	10.87	-48.8	-66.7	3.5	3.02e+01	0	38	104	0	60	83673
2026-01-07 16:57:52.62	17.11	10.96	-48.8	-66.7	3.5	3.02e+01	0	38	104	0	60	83484
2026-01-07 16:57:53.63	17.08	11.06	-48.8	-66.8	3.5	3.02e+01	0	38	104	0	60	83826
2026-01-07 16:57:54.64	17.04	11.16	-48.8	-66.8	3.5	3.02e+01	0	38	104	0	60	84510
2026-01-07 16:57:55.65	17.00	11.26	-48.8	-66.8	3.5	3.02e+01	0	38	104	0	60	84189
2026-01-07 16:57:56.66	16.96	11.35	-48.8	-66.8	3.5	3.02e+01	0	38	104	0	60	83745
2026-01-07 16:57:57.67	16.92	11.45	-48.8	-66.8	3.5	3.02e+01	0	38	104	0	60	83895
2026-01-07 16:57:58.68	16.88	11.55	-48.8	-66.8	3.5	3.02e+01	0	38	104	0	60	83928
2026-01-07 16:57:59.69	16.84	11.65	-48.8	-66.7	3.5	3.02e+01	0	38	104	0	60	83408
2026-01-07 16:58:00.70	16.80	11.75	-48.8	-66.8	3.5	3.02e+01	0	38	104	0	60	84086
2026-01-07 16:58:01.71	16.76	11.85	-48.8	-66.8	3.5	3.02e+01	0	38	104	0	60	83756
2026-01-07 16:58:02.72	16.72	11.95	-48.8	-66.8	3.5	3.02e+01	0	38	104	0	60	84423
2026-01-07 16:58:03.73	16.68	12.05	-48.8	-66.9	3.5	3.02e+01	0	38	104	0	60	84715
2026-01-07 16:58:04.74	16.64	12.15	-48.8	-66.8	3.5	3.02e+01	0	38	104	0	60	84249
2026-01-07 16:58:05.75	16.60	12.25	-48.8	-66.8	3.5	3.02e+01	0	38	104	0	60	84527
2026-01-07 16:58:06.76	16.56	12.36	-48.8	-66.8	3.5	3.02e+01	0	38	104	0	60	84268
2026-01-07 16:58:07.77	16.52	12.46	-48.8	-66.8	3.5	3.02e+01	0	38	104	0	60	84506
2026-01-07 16:58:08.78	16.47	12.56	-48.8	-66.8	3.5	3.02e+01	0	38	104	0	60	84304
2026-01-07 16:58:09.78	16.43	12.66	-48.8	-66.8	3.5	3.02e+01	0	38	104	0	60	84389
2026-01-07 16:58:10.79	16.39	12.77	-48.8	-66.9	3.5	3.02e+01	0	38	104	0	60	84851
2026-01-07 16:58:11.80	16.35	12.87	-48.8	-66.8	3.5	3.02e+01	0	38	104	0	60	84189
2026-01-07 16:58:12.81	16.30	12.98	-48.8	-66.8	3.5	3.02e+01	0	38	104	0	60	84101
2026-01-07 16:58:13.82	16.26	13.08	-48.8	-66.8	3.5	3.02e+01	0	38	104	0	60	84585
2026-01-07 16:58:14.83	16.21	13.19	-48.8	-66.8	3.5	3.02e+01	0	38	104	0	60	84213
2026-01-07 16:58:15.84	16.17	13.30	-48.8	-66.8	3.5	3.02e+01	0	38	104	0	60	84380
2026-01-07 16:58:16.85	16.12	13.40	-48.8	-66.8	3.5	3.02e+01	0	38	104	0	60	84091
2026-01-07 16:58:17.86	16.08	13.51	-48.8	-66.8	3.5	3.02e+01	0	38	104	0	60	84511
2026-01-07 16:58:18.87	16.03	13.62	-48.8	-66.8	3.5	3.02e+01	0	38	104	0	60	84276
2026-01-07 16:58:19.88	15.98	13.73	-48.8	-66.8	3.5	3.02e+01	0	38	104	0	60	84424
2026-01-07 16:58:20.89	15.94	13.84	-48.8	-66.8	3.5	3.02e+01	0	38	104	0	60	83841
2026-01-07 16:58:21.90	15.89	13.95	-48.8	-66.8	3.5	3.02e+01	0	38	104	0	60	84210
2026-01-07 16:58:22.91	15.84	14.06	-48.8	-66.8	3.5	3.02e+01	0	38	104	0	60	84259
2026-01-07 16:58:23.92	15.79	14.17	-48.8	-66.8	3.5	3.02e+01	0	38	104	0	60	84464
2026-01-07 16:58:24.93	15.75	14.28	-48.8	-66.8	3.5	3.02e+01	0	38	104	0	60	84406
2026-01-07 16:58:25.94	15.70	14.39	-48.8	-66.8	3.5	3.02e+01	0	38	104	0	60	84063
2026-01-07 16:58:26.94	15.65	14.50	-48.8	-66.8	3.5	3.02e+01	0	38	104	0	60	84464
2026-01-07 16:58:27.95	15.60	14.62	-48.8	-66.8	3.6	3.02e+01	0	38	104	0	60	84173
2026-01-07 16:58:28.96	15.55	14.73	-48.8	-66.8	3.5	3.02e+01	0	38	104	0	60	84163
2026-01-07 16:58:29.97	15.50	14.84	-48.8	-66.8	3.5	3.02e+01	0	38	104	0	60	84421
2026-01-07 16:58:30.99	15.45	14.96	-48.8	-66.8	3.5	3.02e+01	0	38	104	0	60	84514
2026-01-07 16:58:31.99	15.39	15.07	-48.8	-66.8	3.5	3.02e+01	0	38	104	0	60	84416
2026-01-07 16:58:33.00	15.34	15.19	-48.8	-66.8	3.5	3.02e+01	0	38	104	0	60	84148
2026-01-07 16:58:34.01	15.29	15.30	-48.8	-66.8	3.5	3.02e+01	0	38	104	0	60	84357
2026-01-07 16:58:35.02	15.24	15.42	-48.8	-66.9	3.5	3.02e+01	0	38	104	0	60	84684
2026-01-07 16:58:36.03	15.18	15.54	-48.8	-66.8	3.5	3.02e+01	0	38	104	0	60	84529
2026-01-07 16:58:37.04	15.13	15.66	-48.8	-66.8	3.5	3.02e+01	0	38	104	0	60	84274
2026-01-07 16:58:38.05	15.07	15.78	-48.8	-66.8	3.5	3.02e+01	0	38	104	0	60	84294
2026-01-07 16:58:39.06	15.02	15.90	-48.8	-66.8	3.5	3.02e+01	0	38	104	0	60	84504
2026-01-07 16:58:40.07	14.96	16.02	-48.8	-66.8	3.5	3.02e+01	0	38	104	0	60	84159
2026-01-07 16:58:41.08	14.91	16.14	-48.8	-66.8	3.5	3.02e+01	0	38	104	0	60	84676
2026-01-07 16:58:42.09	14.85	16.26	-48.8	-66.8	3.5	3.02e+01	0	38	104	0	60	84637
2026-01-07 16:58:43.10	14.79	16.38	-48.8	-66.8	3.5	3.02e+01	0	38	104	0	60	84502
2026-01-07 16:58:44.11	14.74	16.50	-48.8	-66.8	3.5	3.02e+01	0	38	104	0	60	84352
2026-01-07 16:58:45.12	14.68	16.63	-48.8	-66.8	3.5	3.02e+01	0	38	104	0	60	84390
2026-01-07 16:58:46.13	14.62	16.75	-48.8	-66.9	3.5	3.02e+01	0	38	104	0	60	84752
2026-01-07 16:58:47.14	14.56	16.87	-48.8	-66.8	3.5	3.02e+01	0	38	104	0	60	84316
2026-01-07 16:58:48.15	14.50	17.00	-48.8	-66.8	3.5	3.02e+01	0	38	104	0	60	84490
2026-01-07 16:58:49.16	14.44	17.13	-48.8	-66.8	3.5	3.02e+01	0	38	104	0	60	84196
2026-01-07 16:58:50.17	14.38	17.25	-48.8	-66.8	3.5	3.02e+01	0	38	104	0	60	84553
2026-01-07 16:58:51.18	14.32	17.38	-48.8	-66.8	3.5	3.02e+01	0	38	104	0	60	84292
2026-01-07 16:58:52.19	14.26	17.51	-48.8	-66.8	3.5	3.02e+01	0	38	104	0	60	84094
2026-01-07 16:58:53.20	14.19	17.64	-48.8	-66.8	3.5	3.02e+01	0	38	104	0	60	84165
2026-01-07 16:58:54.21	14.13	17.77	-48.8	-66.8	3.5	3.02e+01	0	38	104	0	60	84089
2026-01-07 16:58:55.22	14.07	17.90	-48.8	-66.8	3.5	3.02e+01	0	38	104	0	60	84614
2026-01-07 16:58:56.22	14.00	18.02	-48.8	-66.8	3.5	3.02e+01	0	38	104	0	60	84483
2026-01-07 16:58:57.23	13.94	18.16	-48.8	-66.8	3.5	3.02e+01	0	38	104	0	60	84467
2026-01-07 16:58:58.24	13.87	18.29	-48.8	-66.8	3.5	3.02e+01	0	38	104	0	60	84050
2026-01-07 16:58:59.25	13.81	18.42	-48.8	-66.8	3.5	3.02e+01	0	38	104	0	60	84108
2026-01-07 16:59:00.26	13.74	18.56	-48.8	-66.8	3.5	3.02e+01	0	38	104	0	60	83733
2026-01-07 16:59:01.27	13.67	18.69	-48.8	-66.8	3.5	3.02e+01	0	38	104	0	60	84558
2026-01-07 16:59:02.28	13.60	18.83	-48.8	-66.8	3.5	3.02e+01	0	38	104	0	60	84377
2026-01-07 16:59:03.29	13.53	18.96	-48.8	-66.8	3.5	3.02e+01	0	38	104	0	60	84545
2026-01-07 16:59:04.30	13.46	19.10	-48.8	-66.8	3.5	3.02e+01	0	38	104	0	60	84379
2026-01-07 16:59:05.31	13.39	19.24	-48.8	-66.8	3.5	3.02e+01	0	38	104	0	60	84283
2026-01-07 16:59:06.32	13.32	19.37	-48.8	-66.8	3.5	3.02e+01	0	38	104	0	60	84157
2026-01-07 16:59:07.33	13.25	19.51	-48.8	-66.8	3.5	3.02e+01	0	38	104	0	60	84097
2026-01-07 16:59:08.34	13.18	19.65	-48.8	-66.8	3.5	3.02e+01	0	38	104	0	60	84472
2026-01-07 16:59:09.35	13.10	19.79	-48.8	-66.8	3.5	3.02e+01	0	38	104	0	60	84340
2026-01-07 16:59:10.36	13.03	19.94	-48.8	-66.8	3.5	3.02e+01	0	38	104	0	60	84297
2026-01-07 16:59:11.37	12.96	20.08	-48.8	-66.8	3.5	3.02e+01	0	38	104	0	60	84226
2026-01-07 16:59:12.38	12.88	20.22	-48.8	-66.8	3.5	3.02e+01	0	38	104	0	60	84442
2026-01-07 16:59:13.39	12.80	20.37	-48.8	-66.8	3.5	3.02e+01	0	38	104	0	60	84283
2026-01-07 16:59:14.40	12.73	20.51	-48.8	-66.8	3.5	3.02e+01	0	38	104	0	60	84123
2026-01-07 16:59:15.41	12.65	20.66	-48.8	-66.8	3.5	3.02e+01	0	38	104	0	60	84106
2026-01-07 16:59:16.42	12.57	20.80	-48.8	-66.8	3.5	3.02e+01	0	38	104	0	60	84256
2026-01-07 16:59:17.43	12.49	20.95	-48.8	-66.8	3.5	3.02e+01	0	38	104	0	60	84419
2026-01-07 16:59:18.44	12.41	21.10	-48.8	-66.8	3.5	3.02e+01	0	38	104	0	60	84263
2026-01-07 16:59:19.45	12.33	21.25	-48.8	-66.8	3.5	3.02e+01	0	38	104	0	60	84359
2026-01-07 16:59:20.46	12.24	21.40	-48.8	-66.8	3.5	3.02e+01	0	38	104	0	60	83926
2026-01-07 16:59:21.47	12.16	21.55	-48.8	-66.8	3.5	3.02e+01	0	38	104	0	60	84038
2026-01-07 16:59:22.48	12.08	21.70	-48.8	-66.8	3.5	3.02e+01	0	38	104	0	60	83942
2026-01-07 16:59:23.48	11.99	21.86	-48.8	-66.8	3.5	3.02e+01	0	38	104	0	60	84324
2026-01-07 16:59:24.49	11.91	22.01	-48.8	-66.9	3.5	3.02e+01	0	38	104	0	60	84848
2026-01-07 16:59:25.50	11.82	22.17	-48.8	-66.8	3.5	3.02e+01	0	38	104	0	60	84527
2026-01-07 16:59:26.51	11.73	22.32	-48.8	-66.9	3.5	3.02e+01	0	38	104	0	60	84726
2026-01-07 16:59:27.52	11.64	22.48	-48.8	-66.8	3.5	3.02e+01	0	38	104	0	60	84127
2026-01-07 16:59:28.53	11.55	22.64	-48.8	-66.8	3.5	3.02e+01	0	38	104	0	60	84477
2026-01-07 16:59:29.54	11.46	22.80	-48.8	-66.8	3.5	3.02e+01	0	38	104	0	60	84629
2026-01-07 16:59:30.54	11.37	22.95	-48.8	-66.9	3.5	3.02e+01	0	38	104	0	60	84704
2026-01-07 16:59:31.55	11.28	23.12	-48.8	-66.9	3.5	3.02e+01	0	38	104	0	60	84864
2026-01-07 16:59:32.57	11.18	23.28	-48.8	-66.9	3.5	3.02e+01	0	38	104	0	60	84685
2026-01-07 16:59:33.57	11.09	23.44	-48.8	-66.8	3.5	3.02e+01	0	38	104	0	60	84670
2026-01-07 16:59:34.58	10.99	23.61	-48.8	-66.8	3.5	3.02e+01	0	38	104	0	60	84462
2026-01-07 16:59:35.59	10.90	23.77	-48.8	-66.8	3.5	3.02e+01	0	38	104	0	60	84413
2026-01-07 16:59:36.60	10.80	23.94	-48.8	-66.8	3.4	3.02e+01	0	38	104	0	60	84226
2026-01-07 16:59:37.61	10.70	24.10	-48.8	-66.8	3.5	3.02e+01	0	38	104	0	60	84567
2026-01-07 16:59:38.62	10.60	24.27	-48.8	-66.8	3.5	3.02e+01	0	38	104	0	60	84422
2026-01-07 16:59:39.64	10.50	24.44	-48.8	-66.8	3.5	3.02e+01	0	38	104	0	60	84309
2026-01-07 16:59:40.65	10.39	24.61	-48.8	-66.8	3.5	3.02e+01	0	38	104	0	60	84466
2026-01-07 16:59:41.65	10.29	24.78	-48.8	-66.8	3.5	3.02e+01	0	38	104	0	60	84611
2026-01-07 16:59:42.66	10.18	24.96	-48.8	-66.8	3.5	3.02e+01	0	38	104	0	60	84184
2026-01-07 16:59:43.67	10.08	25.13	-48.8	-66.8	3.5	3.02e+01	0	38	104	0	60	84103
2026-01-07 16:59:44.68	9.97	25.31	-48.8	-66.8	3.5	3.02e+01	0	38	104	0	60	84446
2026-01-07 16:59:45.69	9.86	25.48	-48.8	-66.8	3.5	3.02e+01	0	38	104	0	60	84497
2026-01-07 16:59:46.70	9.75	25.66	-48.8	-66.8	3.5	3.02e+01	0	38	104	0	60	84401
2026-01-07 16:59:47.71	9.64	25.84	-48.8	-66.8	3.5	3.02e+01	0	38	104	0	60	84016
2026-01-07 16:59:48.72	9.52	26.02	-48.8	-66.8	3.5	3.02e+01	0	38	104	0	60	83809
2026-01-07 16:59:49.72	9.41	26.20	-48.8	-66.8	3.5	3.02e+01	0	38	104	0	60	84032
2026-01-07 16:59:50.73	9.30	26.38	-48.8	-66.8	3.5	3.02e+01	0	38	104	0	60	84175
2026-01-07 16:59:51.74	9.18	26.56	-48.8	-66.8	3.5	3.02e+01	0	38	104	0	60	84189
2026-01-07 16:59:52.75	9.06	26.75	-48.8	-66.8	3.5	3.02e+01	0	38	104	0	60	84529
2026-01-07 16:59:53.76	8.94	26.93	-48.8	-66.8	3.5	3.02e+01	0	38	104	0	60	84145
2026-01-07 16:59:54.77	8.82	27.12	-48.8	-66.8	3.5	3.02e+01	0	38	104	0	60	84132
2026-01-07 16:59:55.78	8.69	27.31	-48.8	-66.8	3.5	3.02e+01	0	38	104	0	60	84360
2026-01-07 16:59:56.79	8.57	27.50	-48.8	-66.8	3.5	3.02e+01	0	38	104	0	60	84608
2026-01-07 16:59:57.80	8.44	27.69	-48.8	-66.8	3.5	3.02e+01	0	38	104	0	60	84162
2026-01-07 16:59:58.81	8.31	27.88	-48.8	-66.8	3.5	3.02e+01	0	38	104	0	60	84470
2026-01-07 16:59:59.82	8.18	28.07	-48.8	-66.8	3.5	3.02e+01	0	38	104	0	60	84587
2026-01-07 17:00:00.83	8.05	28.27	-48.8	-66.8	3.5	3.02e+01	0	38	104	0	60	84170
2026-01-07 17:00:01.84	7.92	28.46	-48.8	-66.8	3.5	3.02e+01	0	38	104	0	60	84178
2026-01-07 17:00:02.85	7.78	28.66	-48.8	-66.8	3.5	3.02e+01	0	38	104	0	60	84337
2026-01-07 17:00:03.86	7.65	28.86	-48.8	-66.8	3.5	3.02e+01	0	38	104	0	60	84502
2026-01-07 17:00:04.87	7.51	29.06	-48.8	-66.8	3.5	3.02e+01	0	38	104	0	60	84579
2026-01-07 17:00:05.88	7.37	29.26	-48.8	-66.8	3.5	3.02e+01	0	38	104	0	60	84408
2026-01-07 17:00:06.89	7.22	29.46	-48.8	-66.9	3.5	3.02e+01	0	38	104	0	60	84859
2026-01-07 17:00:07.90	7.08	29.67	-48.8	-66.9	3.5	3.02e+01	0	38	104	0	60	84756
2026-01-07 17:00:08.91	6.93	29.87	-48.8	-66.8	3.4	3.02e+01	0	38	104	0	60	84238
2026-01-07 17:00:09.92	6.78	30.08	-48.8	-66.8	3.5	3.02e+01	0	38	104	0	60	84582
2026-01-07 17:00:10.93	6.63	30.29	-48.8	-66.8	3.5	3.02e+01	0	38	104	0	60	84339
2026-01-07 17:00:11.93	6.48	30.50	-48.8	-66.8	3.5	3.02e+01	0	38	104	0	60	84620
2026-01-07 17:00:12.94	6.33	30.71	-48.8	-66.8	3.5	3.02e+01	0	38	104	0	60	84054
2026-01-07 17:00:13.95	6.17	30.92	-48.8	-66.8	3.5	3.02e+01	0	38	104	0	60	84522
2026-01-07 17:00:14.96	6.01	31.13	-48.8	-66.8	3.5	3.02e+01	0	38	104	0	60	84153
2026-01-07 17:00:15.97	5.85	31.35	-48.8	-66.8	3.5	3.02e+01	0	38	104	0	60	84487
2026-01-07 17:00:16.98	5.69	31.57	-48.8	-66.8	3.5	3.02e+01	0	38	104	0	60	84467
2026-01-07 17:00:17.99	5.52	31.78	-48.8	-66.8	3.5	3.02e+01	0	38	104	0	60	84195
2026-01-07 17:00:19.00	5.35	32.00	-48.8	-66.8	3.5	3.02e+01	0	38	104	0	60	84082
2026-01-07 17:00:20.01	5.18	32.23	-48.8	-66.8	3.5	3.02e+01	0	38	104	0	60	84441
2026-01-07 17:00:21.02	5.01	32.45	-48.8	-66.8	3.5	3.02e+01	0	38	104	0	60	84352
2026-01-07 17:00:22.03	4.83	32.67	-48.8	-66.9	3.5	3.02e+01	0	38	104	0	60	84911
2026-01-07 17:00:23.04	4.66	32.90	-48.8	-66.9	3.5	3.02e+01	0	38	104	0	60	84822
2026-01-07 17:00:24.05	4.48	33.12	-48.8	-66.8	3.5	3.02e+01	0	38	104	0	60	84537
2026-01-07 17:00:25.05	4.29	33.35	-48.8	-66.8	3.5	3.02e+01	0	38	104	0	60	84211
2026-01-07 17:00:26.06	4.11	33.58	-48.8	-66.8	3.5	3.02e+01	0	38	104	0	60	84311
2026-01-07 17:00:27.07	3.92	33.81	-48.8	-66.8	3.5	3.02e+01	0	38	104	0	60	84218
2026-01-07 17:00:28.08	3.73	34.05	-48.8	-66.8	3.5	3.02e+01	0	38	104	0	60	84549
2026-01-07 17:00:29.09	3.53	34.28	-48.8	-66.8	3.5	3.02e+01	0	38	104	0	60	84312
2026-01-07 17:00:30.09	3.34	34.51	-48.8	-66.8	3.5	3.02e+01	0	38	104	0	60	84506
2026-01-07 17:00:31.11	3.13	34.75	-48.8	-66.8	3.5	3.02e+01	0	38	104	0	60	84610
2026-01-07 17:00:32.11	2.93	34.99	-48.8	-66.8	3.5	3.02e+01	0	38	104	0	60	84674
2026-01-07 17:00:33.12	2.73	35.23	-48.8	-66.8	3.5	3.02e+01	0	38	104	0	60	84511
2026-01-07 17:00:34.13	2.52	35.47	-48.8	-66.8	3.5	3.02e+01	0	38	104	0	60	84339
2026-01-07 17:00:35.14	2.30	35.72	-48.8	-66.8	3.5	3.02e+01	0	38	104	0	60	84549
2026-01-07 17:00:36.15	2.09	35.96	-48.8	-66.8	3.5	3.02e+01	0	38	104	0	60	84614
2026-01-07 17:00:37.16	1.87	36.21	-48.8	-66.8	3.5	3.02e+01	0	38	104	0	60	84463
2026-01-07 17:00:38.17	1.64	36.46	-48.8	-66.8	3.5	3.02e+01	0	38	104	0	60	84448
2026-01-07 17:00:39.18	1.42	36.71	-48.8	-66.8	3.5	3.02e+01	0	38	104	0	60	84362
2026-01-07 17:00:40.19	1.18	36.96	-48.8	-66.8	3.5	3.02e+01	0	38	104	0	60	84303
2026-01-07 17:00:41.20	0.95	37.21	-48.8	-66.8	3.5	3.02e+01	0	38	104	0	60	84153
2026-01-07 17:00:42.21	0.71	37.47	-48.8	-66.8	3.5	3.02e+01	0	38	104	0	60	84519
2026-01-07 17:00:43.22	0.47	37.72	-48.8	-66.8	3.5	3.02e+01	0	38	104	0	60	84209
2026-01-07 17:00:44.23	0.22	37.98	-48.8	-66.8	3.5	3.02e+01	0	38	104	0	60	84376
2026-01-07 17:00:45.24	359.97	38.24	-48.8	-66.8	3.5	3.02e+01	0	38	104	0	60	84278
2026-01-07 17:00:46.25	359.72	38.50	-48.8	-66.8	3.5	3.02e+01	0	38	104	0	60	84188
2026-01-07 17:00:47.26	359.46	38.76	-48.8	-66.8	3.5	3.02e+01	0	38	104	0	60	84324
2026-01-07 17:00:48.27	359.20	39.02	-48.8	-66.8	3.5	3.02e+01	0	38	104	0	60	84329
2026-01-07 17:00:49.28	358.93	39.29	-48.8	-66.8	3.5	3.02e+01	0	38	104	0	60	84462
2026-01-07 17:00:50.29	358.66	39.56	-48.8	-66.8	3.5	3.02e+01	0	38	104	0	60	84387
2026-01-07 17:00:51.30	358.38	39.82	-48.8	-66.8	3.5	3.02e+01	0	38	104	0	60	84458
2026-01-07 17:00:52.31	358.10	40.09	-48.8	-66.8	3.5	3.02e+01	0	38	104	0	60	84435
2026-01-07 17:00:53.32	357.81	40.36	-48.8	-66.8	3.5	3.02e+01	0	38	104	0	60	84624
2026-01-07 17:00:54.33	357.52	40.64	-48.8	-66.9	3.5	3.02e+01	0	38	104	0	60	84788
2026-01-07 17:00:55.34	357.22	40.91	-48.8	-66.9	3.5	3.02e+01	0	38	104	0	60	84863
2026-01-07 17:00:56.35	356.92	41.18	-48.8	-66.8	3.5	3.02e+01	0	38	104	0	60	84505
2026-01-07 17:00:57.36	356.61	41.46	-48.8	-66.8	3.5	3.02e+01	0	38	104	0	60	84527
2026-01-07 17:00:58.37	356.30	41.74	-48.8	-66.8	3.5	3.02e+01	0	38	104	0	60	84305
2026-01-07 17:00:59.38	355.98	42.01	-48.8	-66.8	3.5	3.02e+01	0	38	104	0	60	84379
2026-01-07 17:01:00.39	355.66	42.29	-48.8	-66.8	3.5	3.02e+01	0	38	104	0	60	84592
2026-01-07 17:01:01.40	355.33	42.57	-48.8	-66.9	3.5	3.02e+01	0	38	104	0	60	85101
2026-01-07 17:01:02.41	354.99	42.86	-48.8	-66.8	3.5	3.02e+01	0	38	104	0	60	84073
2026-01-07 17:01:03.42	354.65	43.14	-48.8	-66.9	3.5	3.02e+01	0	38	104	0	60	84748
2026-01-07 17:01:04.43	354.30	43.42	-48.8	-66.8	3.5	3.02e+01	0	38	104	0	60	84392
2026-01-07 17:01:05.44	353.95	43.71	-48.8	-66.8	3.5	3.02e+01	0	38	104	0	60	84378
2026-01-07 17:01:06.45	353.59	43.99	-48.8	-66.8	3.5	3.02e+01	0	38	104	0	60	84246
2026-01-07 17:01:07.46	353.22	44.28	-48.8	-66.9	3.5	3.02e+01	0	38	104	0	60	84819
2026-01-07 17:01:08.47	352.85	44.57	-48.8	-66.9	3.5	3.02e+01	0	38	104	0	60	84739
2026-01-07 17:01:09.48	352.46	44.86	-48.8	-66.8	3.5	3.02e+01	0	38	104	0	60	84409
2026-01-07 17:01:10.49	352.08	45.15	-48.8	-66.9	3.5	3.02e+01	0	38	104	0	60	84776
2026-01-07 17:01:11.50	351.68	45.44	-48.8	-66.9	3.5	3.02e+01	0	38	104	0	60	84702
2026-01-07 17:01:12.51	351.28	45.73	-48.8	-66.8	3.5	3.02e+01	0	38	104	0	60	84394
2026-01-07 17:01:13.52	350.86	46.02	-48.8	-66.8	3.5	3.02e+01	0	38	104	0	60	84626
2026-01-07 17:01:14.53	350.45	46.31	-48.8	-66.9	3.5	3.02e+01	0	38	104	0	60	84887
2026-01-07 17:01:15.54	350.02	46.60	-48.8	-66.8	3.5	3.02e+01	0	38	104	0	60	84561
2026-01-07 17:01:16.55	349.58	46.90	-48.8	-66.8	3.5	3.02e+01	0	38	104	0	60	84319
2026-01-07 17:01:17.56	349.14	47.19	-48.8	-66.8	3.5	3.02e+01	0	38	104	0	60	84560
2026-01-07 17:01:18.57	348.69	47.48	-48.8	-66.8	3.5	3.02e+01	0	38	104	0	60	84377
2026-01-07 17:01:19.58	348.23	47.78	-48.8	-66.8	3.5	3.02e+01	0	38	104	0	60	84533
2026-01-07 17:01:20.59	347.75	48.07	-48.8	-66.9	3.5	3.02e+01	0	38	104	0	60	84724
2026-01-07 17:01:21.60	347.28	48.36	-48.8	-66.8	3.5	3.02e+01	0	38	104	0	60	84484
2026-01-07 17:01:22.61	346.79	48.66	-48.8	-66.8	3.5	3.02e+01	0	38	104	0	60	84404
2026-01-07 17:01:23.62	346.29	48.95	-48.8	-66.9	3.5	3.02e+01	0	38	104	0	60	84720
2026-01-07 17:01:24.63	345.78	49.24	-48.8	-66.8	3.5	3.02e+01	0	38	104	0	60	84587
2026-01-07 17:01:25.64	345.26	49.54	-48.8	-66.8	3.5	3.02e+01	0	38	104	0	60	84660
2026-01-07 17:01:26.65	344.73	49.83	-48.8	-66.8	3.5	3.02e+01	0	38	104	0	60	84293
2026-01-07 17:01:27.66	344.19	50.12	-48.8	-66.9	3.5	3.02e+01	0	38	104	0	60	84772
2026-01-07 17:01:28.67	343.65	50.41	-48.8	-66.8	3.5	3.02e+01	0	38	104	0	60	84377
2026-01-07 17:01:29.68	343.09	50.70	-48.8	-66.8	3.5	3.02e+01	0	38	104	0	60	84596
2026-01-07 17:01:30.68	342.52	50.99	-48.8	-66.8	3.5	3.02e+01	0	38	104	0	60	84240
2026-01-07 17:01:31.69	341.94	51.27	-48.8	-66.9	3.5	3.02e+01	0	38	104	0	60	84820
2026-01-07 17:01:32.70	341.34	51.56	-48.8	-66.8	3.5	3.02e+01	0	38	104	0	60	84650
2026-01-07 17:01:33.71	340.74	51.84	-48.8	-66.8	3.5	3.02e+01	0	38	104	0	60	84601
2026-01-07 17:01:34.72	340.12	52.13	-48.8	-66.9	3.5	3.02e+01	0	38	104	0	60	84892
2026-01-07 17:01:35.73	339.49	52.41	-48.8	-66.9	3.5	3.02e+01	0	38	104	0	60	84956
2026-01-07 17:01:36.74	338.85	52.69	-48.8	-66.8	3.5	3.02e+01	0	38	104	0	60	84535
2026-01-07 17:01:37.74	338.20	52.96	-48.8	-66.8	3.5	3.02e+01	0	38	104	0	60	84661
2026-01-07 17:01:38.75	337.54	53.24	-48.9	-66.9	3.5	3.02e+01	0	38	104	0	60	84813
2026-01-07 17:01:39.76	336.86	53.51	-48.8	-66.9	3.5	3.02e+01	0	38	104	0	60	85048
2026-01-07 17:01:40.77	336.16	53.78	-48.8	-66.9	3.5	3.02e+01	0	38	104	0	60	84697
2026-01-07 17:01:41.78	335.46	54.05	-48.8	-66.9	3.5	3.02e+01	0	38	104	0	60	84770
2026-01-07 17:01:42.79	334.74	54.31	-48.8	-66.8	3.5	3.02e+01	0	38	104	0	60	84185
2026-01-07 17:01:43.80	334.01	54.57	-48.8	-66.9	3.5	3.02e+01	0	38	104	0	60	84868
2026-01-07 17:01:44.81	333.26	54.83	-48.8	-66.9	3.5	3.02e+01	0	38	104	0	60	84821
2026-01-07 17:01:45.82	332.50	55.08	-48.8	-66.9	3.5	3.02e+01	0	38	104	0	60	84961
2026-01-07 17:01:46.83	331.73	55.33	-48.8	-66.8	3.5	3.02e+01	0	38	104	0	60	84538
2026-01-07 17:01:47.84	330.94	55.58	-48.8	-66.9	3.5	3.02e+01	0	38	104	0	60	84889
2026-01-07 17:01:48.85	330.14	55.82	-48.8	-66.8	3.5	3.02e+01	0	38	104	0	60	84440
2026-01-07 17:01:49.86	329.32	56.05	-48.8	-66.8	3.5	3.02e+01	0	38	104	0	60	84316
2026-01-07 17:01:50.87	328.50	56.29	-48.8	-66.8	3.5	3.02e+01	0	38	104	0	60	84549
2026-01-07 17:01:51.88	327.65	56.51	-48.8	-66.8	3.5	3.02e+01	0	38	104	0	60	84191
2026-01-07 17:01:52.88	326.80	56.73	-48.8	-66.8	3.5	3.02e+01	0	38	104	0	60	84437
2026-01-07 17:01:53.89	325.93	56.95	-48.8	-66.8	3.5	3.02e+01	0	38	104	0	60	84421
2026-01-07 17:01:54.90	325.05	57.16	-48.8	-66.9	3.5	3.02e+01	0	38	104	0	60	84706
2026-01-07 17:01:55.91	324.15	57.37	-48.8	-66.8	3.5	3.02e+01	0	38	104	0	60	84316
2026-01-07 17:01:56.92	323.24	57.57	-48.8	-66.8	3.5	3.02e+01	0	38	104	0	60	84110
2026-01-07 17:01:57.93	322.31	57.76	-48.8	-66.8	3.5	3.02e+01	0	38	104	0	60	84474
2026-01-07 17:01:58.94	321.37	57.95	-48.8	-66.8	3.5	3.02e+01	0	38	104	0	60	84420
2026-01-07 17:01:59.95	320.42	58.13	-48.8	-66.8	3.5	3.02e+01	0	38	104	0	60	84493
2026-01-07 17:02:00.96	319.45	58.30	-48.8	-66.8	3.5	3.02e+01	0	38	104	0	60	84460
2026-01-07 17:02:01.97	318.48	58.47	-48.8	-66.8	3.5	3.02e+01	0	38	104	0	60	84422
2026-01-07 17:02:02.98	317.49	58.63	-48.8	-66.8	3.5	3.02e+01	0	38	104	0	60	84351
2026-01-07 17:02:03.99	316.49	58.78	-48.8	-66.8	3.5	3.02e+01	0	38	104	0	60	84305
2026-01-07 17:02:05.00	315.47	58.92	-48.8	-66.8	3.5	3.02e+01	0	38	104	0	60	84592
2026-01-07 17:02:06.00	314.46	59.06	-48.8	-66.8	3.5	3.02e+01	0	38	104	0	60	84521
2026-01-07 17:02:07.02	313.42	59.18	-48.8	-66.9	3.5	3.02e+01	0	38	104	0	60	84762
2026-01-07 17:02:08.02	312.38	59.30	-48.8	-66.8	3.5	3.02e+01	0	38	104	0	60	84253
2026-01-07 17:02:09.03	311.33	59.41	-48.8	-66.8	3.5	3.02e+01	0	38	104	0	60	84589
2026-01-07 17:02:10.04	310.27	59.51	-48.8	-66.8	3.5	3.02e+01	0	38	104	0	60	84477
2026-01-07 17:02:11.05	309.20	59.61	-48.8	-66.8	3.5	3.02e+01	0	38	104	0	60	84434
2026-01-07 17:02:12.06	308.12	59.69	-48.8	-66.8	3.5	3.02e+01	0	38	104	0	60	84116
2026-01-07 17:02:13.07	307.04	59.77	-48.8	-66.8	3.5	3.02e+01	0	38	104	0	60	84647
2026-01-07 17:02:14.08	305.95	59.83	-48.8	-66.8	3.5	3.02e+01	0	38	104	0	60	84361
2026-01-07 17:02:15.09	304.85	59.89	-48.8	-66.8	3.5	3.02e+01	0	38	104	0	60	84375
2026-01-07 17:02:16.10	303.75	59.93	-48.8	-66.8	3.5	3.02e+01	0	38	104	0	60	84450
2026-01-07 17:02:17.11	302.65	59.97	-48.8	-66.9	3.5	3.02e+01	0	38	104	0	60	84695
2026-01-07 17:02:18.12	301.54	60.00	-48.8	-66.8	3.5	3.02e+01	0	38	104	0	60	84644
2026-01-07 17:02:19.13	300.43	60.02	-48.8	-66.8	3.5	3.02e+01	0	38	104	0	60	84289
2026-01-07 17:02:20.14	299.33	60.03	-48.8	-66.9	3.5	3.02e+01	0	38	104	0	60	84833
2026-01-07 17:02:21.15	298.22	60.02	-48.8	-66.9	3.5	3.02e+01	0	38	104	0	60	84823
2026-01-07 17:02:22.16	297.11	60.01	-48.8	-66.8	3.5	3.02e+01	0	38	104	0	60	84397
2026-01-07 17:02:23.16	296.01	59.99	-48.8	-66.9	3.5	3.02e+01	0	38	104	0	60	84787
2026-01-07 17:02:24.17	294.90	59.96	-48.8	-66.8	3.5	3.02e+01	0	38	104	0	60	84430
2026-01-07 17:02:25.18	293.80	59.92	-48.8	-66.8	3.5	3.02e+01	0	38	104	0	60	84530
2026-01-07 17:02:26.19	292.70	59.88	-48.8	-66.8	3.5	3.02e+01	0	38	104	0	60	84353
2026-01-07 17:02:27.20	291.61	59.82	-48.8	-66.8	3.5	3.02e+01	0	38	104	0	60	84039
2026-01-07 17:02:28.21	290.52	59.75	-48.8	-66.9	3.5	3.02e+01	0	38	104	0	60	84734
2026-01-07 17:02:29.22	289.44	59.67	-48.8	-66.8	3.5	3.02e+01	0	38	104	0	60	84429
2026-01-07 17:02:30.23	288.36	59.59	-48.8	-66.8	3.5	3.02e+01	0	38	104	0	60	84616
2026-01-07 17:02:31.24	287.29	59.49	-48.8	-66.9	3.6	3.02e+01	0	38	104	0	60	84775
2026-01-07 17:02:32.25	286.23	59.39	-48.8	-66.8	3.5	3.02e+01	0	38	104	0	60	84204
2026-01-07 17:02:33.26	285.18	59.28	-48.8	-66.8	3.4	3.02e+01	0	38	104	0	60	84680
2026-01-07 17:02:34.27	284.14	59.16	-48.8	-66.9	3.5	3.02e+01	0	38	104	0	60	84723
2026-01-07 17:02:35.28	283.10	59.03	-48.8	-66.8	3.5	3.02e+01	0	38	104	0	60	84631
2026-01-07 17:02:36.29	282.08	58.89	-48.8	-66.8	3.5	3.02e+01	0	38	104	0	60	84590
2026-01-07 17:02:37.30	281.07	58.74	-48.8	-66.8	3.5	3.02e+01	0	38	104	0	60	84518
2026-01-07 17:02:38.31	280.07	58.59	-48.8	-66.8	3.5	3.02e+01	0	38	104	0	60	84212
2026-01-07 17:02:39.32	279.08	58.43	-48.8	-66.9	3.5	3.02e+01	0	38	104	0	60	84765
2026-01-07 17:02:40.33	278.11	58.26	-48.8	-66.8	3.5	3.02e+01	0	38	104	0	60	84439
2026-01-07 17:02:41.34	277.14	58.09	-48.8	-66.8	3.5	3.02e+01	0	38	104	0	60	84262
2026-01-07 17:02:42.35	276.19	57.91	-48.8	-66.8	3.5	3.02e+01	0	38	104	0	60	84159
2026-01-07 17:02:43.36	275.26	57.72	-48.8	-66.9	3.5	3.02e+01	0	38	104	0	60	85151
2026-01-07 17:02:44.37	274.33	57.52	-48.8	-66.8	3.5	3.02e+01	0	38	104	0	60	84358
2026-01-07 17:02:45.38	273.42	57.32	-48.8	-66.8	3.5	3.02e+01	0	38	104	0	60	84441
2026-01-07 17:02:46.38	272.53	57.12	-48.8	-66.8	3.5	3.02e+01	0	38	104	0	60	84663
2026-01-07 17:02:47.39	271.65	56.90	-48.8	-66.9	3.5	3.02e+01	0	38	104	0	60	84704
2026-01-07 17:02:48.40	270.78	56.68	-48.8	-66.9	3.5	3.02e+01	0	38	104	0	60	84945
2026-01-07 17:02:49.41	269.93	56.46	-48.8	-66.8	3.5	3.02e+01	0	38	104	0	60	84426
2026-01-07 17:02:50.42	269.09	56.23	-48.8	-66.8	3.5	3.02e+01	0	38	104	0	60	84175
2026-01-07 17:02:51.43	268.26	56.00	-48.8	-66.8	3.5	3.02e+01	0	38	104	0	60	84604
2026-01-07 17:02:52.44	267.45	55.76	-48.8	-66.8	3.5	3.02e+01	0	38	104	0	60	84508
2026-01-07 17:02:53.45	266.65	55.52	-48.8	-66.8	3.5	3.02e+01	0	38	104	0	60	84666
2026-01-07 17:02:54.46	265.86	55.27	-48.8	-66.8	3.5	3.02e+01	0	38	104	0	60	84429
2026-01-07 17:02:55.47	265.09	55.02	-48.8	-66.8	3.5	3.02e+01	0	38	104	0	60	84368
2026-01-07 17:02:56.48	264.33	54.76	-48.8	-66.8	3.5	3.02e+01	0	38	104	0	60	84544
2026-01-07 17:02:57.49	263.59	54.50	-48.8	-66.8	3.5	3.02e+01	0	38	104	0	60	84516
2026-01-07 17:02:58.49	262.87	54.24	-48.8	-66.9	3.5	3.02e+01	0	38	104	0	60	84870
2026-01-07 17:02:59.51	262.14	53.98	-48.8	-66.8	3.5	3.02e+01	0	38	104	0	60	84375
2026-01-07 17:03:00.51	261.44	53.71	-48.8	-66.8	3.5	3.02e+01	0	38	104	0	60	84172
2026-01-07 17:03:01.52	260.75	53.44	-48.8	-66.8	3.5	3.02e+01	0	38	104	0	60	84623
2026-01-07 17:03:02.53	260.08	53.17	-48.8	-66.8	3.5	3.02e+01	0	38	104	0	60	84121
2026-01-07 17:03:03.54	259.41	52.89	-48.8	-66.8	3.5	3.02e+01	0	38	104	0	60	84608
2026-01-07 17:03:04.55	258.76	52.61	-48.8	-66.9	3.5	3.02e+01	0	38	104	0	60	84773
2026-01-07 17:03:05.56	258.12	52.33	-48.8	-66.8	3.5	3.02e+01	0	38	104	0	60	84525
2026-01-07 17:03:06.57	257.49	52.05	-48.8	-66.9	3.5	3.02e+01	0	38	104	0	60	84976
2026-01-07 17:03:07.58	256.88	51.77	-48.8	-66.8	3.5	3.02e+01	0	38	104	0	60	84440
2026-01-07 17:03:08.59	256.27	51.48	-48.8	-66.8	3.5	3.02e+01	0	38	104	0	60	84380
2026-01-07 17:03:09.60	255.68	51.19	-48.8	-66.9	3.5	3.02e+01	0	38	104	0	60	84718
2026-01-07 17:03:10.61	255.10	50.90	-48.8	-66.9	3.5	3.02e+01	0	38	104	0	60	84721
2026-01-07 17:03:11.62	254.53	50.62	-48.8	-66.8	3.5	3.02e+01	0	38	104	0	60	84519
2026-01-07 17:03:12.62	253.98	50.33	-48.8	-66.8	3.5	3.02e+01	0	38	104	0	60	84543
2026-01-07 17:03:13.63	253.43	50.04	-48.8	-66.8	3.5	3.02e+01	0	38	104	0	60	84207
2026-01-07 17:03:14.64	252.89	49.74	-48.8	-66.8	3.5	3.02e+01	0	38	104	0	60	84074
2026-01-07 17:03:15.66	252.36	49.45	-48.8	-66.8	3.5	3.02e+01	0	38	104	0	60	84457
2026-01-07 17:03:16.66	251.85	49.16	-48.8	-66.8	3.5	3.02e+01	0	38	104	0	60	84458
2026-01-07 17:03:17.67	251.34	48.86	-48.8	-66.8	3.5	3.02e+01	0	38	104	0	60	84331
2026-01-07 17:03:18.68	250.84	48.57	-48.8	-66.8	3.5	3.02e+01	0	38	104	0	60	84198
2026-01-07 17:03:19.69	250.36	48.27	-48.8	-66.9	3.5	3.02e+01	0	38	104	0	60	84795
2026-01-07 17:03:20.70	249.88	47.98	-48.8	-66.8	3.5	3.02e+01	0	38	104	0	60	84479
2026-01-07 17:03:21.71	249.41	47.69	-48.8	-66.8	3.5	3.02e+01	0	38	104	0	60	84462
2026-01-07 17:03:22.72	248.95	47.39	-48.8	-66.8	3.5	3.02e+01	0	38	104	0	60	84426
2026-01-07 17:03:23.73	248.50	47.10	-48.8	-66.8	3.5	3.02e+01	0	38	104	0	60	84630
2026-01-07 17:03:24.74	248.05	46.80	-48.8	-66.8	3.5	3.02e+01	0	38	104	0	60	84503
2026-01-07 17:03:25.75	247.62	46.51	-48.8	-66.8	3.5	3.02e+01	0	38	104	0	60	84358
2026-01-07 17:03:26.76	247.19	46.22	-48.8	-66.8	3.5	3.02e+01	0	38	104	0	60	84296
2026-01-07 17:03:27.77	246.78	45.92	-48.8	-66.9	3.6	3.02e+01	0	38	104	0	60	84853
2026-01-07 17:03:28.78	246.37	45.63	-48.8	-66.8	3.5	3.02e+01	0	38	104	0	60	84576
2026-01-07 17:03:29.79	245.96	45.34	-48.8	-66.8	3.5	3.02e+01	0	38	104	0	60	84303
2026-01-07 17:03:30.80	245.57	45.05	-48.8	-66.8	3.5	3.02e+01	0	38	104	0	60	84302
2026-01-07 17:03:31.81	245.18	44.76	-48.8	-66.8	3.5	3.02e+01	0	38	104	0	60	83799
2026-01-07 17:03:32.82	244.80	44.47	-48.8	-66.8	3.5	3.02e+01	0	38	104	0	60	84221
2026-01-07 17:03:33.83	244.42	44.18	-48.8	-66.8	3.5	3.02e+01	0	38	104	0	60	84460
2026-01-07 17:03:34.84	244.06	43.89	-48.8	-66.8	3.5	3.02e+01	0	38	104	0	60	84572
2026-01-07 17:03:35.85	243.70	43.61	-48.8	-66.8	3.5	3.02e+01	0	38	104	0	60	84448
2026-01-07 17:03:36.86	243.34	43.32	-48.8	-66.8	3.5	3.02e+01	0	38	104	0	60	84291
2026-01-07 17:03:37.87	243.00	43.03	-48.8	-66.8	3.5	3.02e+01	0	38	104	0	60	84517
2026-01-07 17:03:38.87	242.66	42.75	-48.8	-66.8	3.5	3.02e+01	0	38	104	0	60	84554
2026-01-07 17:03:39.88	242.32	42.47	-48.8	-66.8	3.5	3.02e+01	0	38	104	0	60	84385
2026-01-07 17:03:40.89	241.99	42.19	-48.8	-66.8	3.6	3.02e+01	0	38	104	0	60	84281
2026-01-07 17:03:41.90	241.67	41.91	-48.8	-66.8	3.5	3.02e+01	0	38	104	0	60	84582
2026-01-07 17:03:42.91	241.35	41.63	-48.8	-66.8	3.5	3.02e+01	0	38	104	0	60	84652
2026-01-07 17:03:43.92	241.04	41.35	-48.8	-66.9	3.5	3.02e+01	0	38	104	0	60	84973
2026-01-07 17:03:44.93	240.74	41.08	-48.8	-66.8	3.5	3.02e+01	0	38	104	0	60	84541
2026-01-07 17:03:45.94	240.43	40.80	-48.8	-66.8	3.5	3.02e+01	0	38	104	0	60	84329
2026-01-07 17:03:46.95	240.14	40.53	-48.8	-66.9	3.5	3.02e+01	0	38	104	0	60	85131
2026-01-07 17:03:47.96	239.85	40.26	-48.8	-66.9	3.5	3.02e+01	0	38	104	0	60	85184
2026-01-07 17:03:48.97	239.56	39.98	-48.8	-66.8	3.5	3.02e+01	0	38	104	0	60	84341
2026-01-07 17:03:49.98	239.28	39.71	-48.8	-66.8	3.5	3.02e+01	0	38	104	0	60	84642
2026-01-07 17:03:50.99	239.00	39.45	-48.8	-66.8	3.5	3.02e+01	0	38	104	0	60	84578
2026-01-07 17:03:52.00	238.73	39.18	-48.8	-66.8	3.5	3.02e+01	0	38	104	0	60	84010
2026-01-07 17:03:53.01	238.46	38.91	-48.8	-66.8	3.5	3.02e+01	0	38	104	0	60	84280
2026-01-07 17:03:54.02	238.20	38.65	-48.8	-66.8	3.5	3.02e+01	0	38	104	0	60	84678
2026-01-07 17:03:55.02	237.95	38.39	-48.8	-66.8	3.5	3.02e+01	0	38	104	0	60	84162
2026-01-07 17:03:56.03	237.69	38.13	-48.8	-66.8	3.5	3.02e+01	0	38	104	0	60	84601
2026-01-07 17:03:57.04	237.44	37.87	-48.8	-66.8	3.5	3.02e+01	0	38	104	0	60	84453
2026-01-07 17:03:58.05	237.20	37.61	-48.8	-66.8	3.5	3.02e+01	0	38	104	0	60	84322
2026-01-07 17:03:59.06	236.95	37.36	-48.8	-66.9	3.5	3.02e+01	0	38	104	0	60	84801
2026-01-07 17:04:00.07	236.72	37.10	-48.8	-66.9	3.5	3.02e+01	0	38	104	0	60	84902
2026-01-07 17:04:01.08	236.48	36.85	-48.8	-66.8	3.5	3.02e+01	0	38	104	0	60	84661
2026-01-07 17:04:02.09	236.25	36.60	-48.8	-66.8	3.5	3.02e+01	0	38	104	0	60	84496
2026-01-07 17:04:03.10	236.02	36.34	-48.8	-66.9	3.5	3.02e+01	0	38	104	0	60	84704
2026-01-07 17:04:04.11	235.80	36.10	-48.8	-66.8	3.5	3.02e+01	0	38	104	0	60	84374
2026-01-07 17:04:05.12	235.58	35.85	-48.8	-66.8	3.5	3.02e+01	0	38	104	0	60	84657
2026-01-07 17:04:06.13	235.36	35.60	-48.8	-66.8	3.6	3.02e+01	0	38	104	0	60	84607
2026-01-07 17:04:07.14	235.15	35.36	-48.8	-66.8	3.5	3.02e+01	0	38	104	0	60	84266
2026-01-07 17:04:08.15	234.94	35.12	-48.8	-66.8	3.5	3.02e+01	0	38	104	0	60	84235
2026-01-07 17:04:09.15	234.74	34.88	-48.8	-66.8	3.5	3.02e+01	0	38	104	0	60	84181
2026-01-07 17:04:10.16	234.53	34.64	-48.8	-66.8	3.5	3.02e+01	0	38	104	0	60	83968
2026-01-07 17:04:11.17	234.33	34.40	-48.8	-66.8	3.5	3.02e+01	0	38	104	0	60	84371
2026-01-07 17:04:12.18	234.13	34.16	-48.8	-66.8	3.5	3.02e+01	0	38	104	0	60	84630
2026-01-07 17:04:13.19	233.94	33.93	-48.8	-66.8	3.5	3.02e+01	0	38	104	0	60	84575
2026-01-07 17:04:14.20	233.75	33.69	-48.8	-66.8	3.5	3.02e+01	0	38	104	0	60	84601
2026-01-07 17:04:15.21	233.56	33.46	-48.8	-66.8	3.5	3.02e+01	0	38	104	0	60	84472
2026-01-07 17:04:16.22	233.37	33.23	-48.8	-66.9	3.5	3.02e+01	0	38	104	0	60	84795
2026-01-07 17:04:17.23	233.19	33.00	-48.8	-66.8	3.5	3.02e+01	0	38	104	0	60	84550
2026-01-07 17:04:18.24	233.01	32.77	-48.8	-66.8	3.5	3.02e+01	0	38	104	0	60	84439
2026-01-07 17:04:19.25	232.83	32.55	-48.8	-66.8	3.5	3.02e+01	0	38	104	0	60	84533
2026-01-07 17:04:20.26	232.66	32.32	-48.8	-66.8	3.5	3.02e+01	0	38	104	0	60	84407
2026-01-07 17:04:21.27	232.48	32.10	-48.8	-66.8	3.5	3.02e+01	0	38	104	0	60	84609
2026-01-07 17:04:22.28	232.31	31.88	-48.8	-66.8	3.5	3.02e+01	0	38	104	0	60	84344
2026-01-07 17:04:23.29	232.14	31.66	-48.8	-66.8	3.5	3.02e+01	0	38	104	0	60	84664
2026-01-07 17:04:24.30	231.98	31.44	-48.8	-66.8	3.5	3.02e+01	0	38	104	0	60	84386
2026-01-07 17:04:25.31	231.82	31.22	-48.8	-66.8	3.5	3.02e+01	0	38	104	0	60	84430
2026-01-07 17:04:26.31	231.66	31.01	-48.8	-66.8	3.5	3.02e+01	0	38	104	0	60	84507
2026-01-07 17:04:27.32	231.50	30.80	-48.8	-66.9	3.5	3.02e+01	0	38	104	0	60	84819
2026-01-07 17:04:28.33	231.34	30.58	-48.8	-66.9	3.5	3.02e+01	0	38	104	0	60	84840
2026-01-07 17:04:29.35	231.18	30.37	-48.8	-66.8	3.5	3.02e+01	0	38	104	0	60	84419
2026-01-07 17:04:30.36	231.03	30.16	-48.8	-66.8	3.5	3.02e+01	0	38	104	0	60	84094
2026-01-07 17:04:31.37	230.88	29.95	-48.8	-66.9	3.5	3.02e+01	0	38	104	0	60	84926
2026-01-07 17:04:32.38	230.73	29.74	-48.8	-66.9	3.5	3.02e+01	0	38	104	0	60	84801
2026-01-07 17:04:33.39	230.59	29.54	-48.8	-66.8	3.5	3.02e+01	0	38	104	0	60	84409
2026-01-07 17:04:34.40	230.44	29.33	-48.8	-66.8	3.5	3.02e+01	0	38	104	0	60	84467
2026-01-07 17:04:35.41	230.30	29.13	-48.8	-66.8	3.5	3.02e+01	0	38	104	0	60	84631
2026-01-07 17:04:36.42	230.16	28.93	-48.8	-66.8	3.5	3.02e+01	0	38	104	0	60	84272
2026-01-07 17:04:37.42	230.02	28.73	-48.8	-66.8	3.5	3.02e+01	0	38	104	0	60	84502
2026-01-07 17:04:38.43	229.88	28.53	-48.8	-66.9	3.5	3.02e+01	0	38	104	0	60	84999
2026-01-07 17:04:39.44	229.75	28.33	-48.8	-66.8	3.5	3.02e+01	0	38	104	0	60	84244
2026-01-07 17:04:40.45	229.62	28.14	-48.8	-66.8	3.5	3.02e+01	0	38	104	0	60	84440
2026-01-07 17:04:41.46	229.48	27.94	-48.8	-66.9	3.5	3.02e+01	0	38	104	0	60	84698
2026-01-07 17:04:42.47	229.35	27.75	-48.8	-66.8	3.5	3.02e+01	0	38	104	0	60	84376
2026-01-07 17:04:43.48	229.23	27.56	-48.8	-66.9	3.5	3.02e+01	0	38	104	0	60	84868
2026-01-07 17:04:44.49	229.10	27.37	-48.8	-66.8	3.5	3.02e+01	0	38	104	0	60	84357
2026-01-07 17:04:45.50	228.97	27.18	-48.8	-66.9	3.5	3.02e+01	0	38	104	0	60	84762
2026-01-07 17:04:46.51	228.85	26.99	-48.8	-66.8	3.5	3.02e+01	0	38	104	0	60	84514
2026-01-07 17:04:47.52	228.73	26.80	-48.8	-66.9	3.5	3.02e+01	0	38	104	0	60	84845
2026-01-07 17:04:48.52	228.61	26.62	-48.8	-66.8	3.5	3.02e+01	0	38	104	0	60	84373
2026-01-07 17:04:49.53	228.49	26.43	-48.8	-66.8	3.5	3.02e+01	0	38	104	0	60	84362
2026-01-07 17:04:50.54	228.37	26.25	-48.8	-66.8	3.5	3.02e+01	0	38	104	0	60	84102
2026-01-07 17:04:51.55	228.26	26.07	-48.8	-66.8	3.5	3.02e+01	0	38	104	0	60	84678
2026-01-07 17:04:52.56	228.14	25.88	-48.8	-66.8	3.5	3.02e+01	0	38	104	0	60	84018
2026-01-07 17:04:53.57	228.03	25.70	-48.8	-66.8	3.5	3.02e+01	0	38	104	0	60	84313
2026-01-07 17:04:54.58	227.91	25.53	-48.8	-66.8	3.5	3.02e+01	0	38	104	0	60	84456
2026-01-07 17:04:55.59	227.80	25.35	-48.8	-66.8	3.5	3.02e+01	0	38	104	0	60	84249
2026-01-07 17:04:56.60	227.69	25.17	-48.8	-66.9	3.5	3.02e+01	0	38	104	0	60	84695
2026-01-07 17:04:57.61	227.59	25.00	-48.8	-66.8	3.5	3.02e+01	0	38	104	0	60	84564
2026-01-07 17:04:58.62	227.48	24.82	-48.8	-66.9	3.5	3.02e+01	0	38	104	0	60	84986
2026-01-07 17:04:59.63	227.37	24.65	-48.8	-66.8	3.5	3.02e+01	0	38	104	0	60	83843
2026-01-07 17:05:00.64	227.27	24.48	-48.8	-66.8	3.5	3.02e+01	0	38	104	0	60	84573
2026-01-07 17:05:01.65	227.17	24.31	-48.8	-66.8	3.5	3.02e+01	0	38	104	0	60	84626
2026-01-07 17:05:02.65	227.07	24.14	-48.8	-66.9	3.5	3.02e+01	0	38	104	0	60	84715
2026-01-07 17:05:03.67	226.96	23.97	-48.8	-66.8	3.5	3.02e+01	0	38	104	0	60	84556
2026-01-07 17:05:04.68	226.86	23.80	-48.8	-66.8	3.5	3.02e+01	0	38	104	0	60	84531
2026-01-07 17:05:05.68	226.77	23.64	-48.8	-66.9	3.5	3.02e+01	0	38	104	0	60	84789
2026-01-07 17:05:06.70	226.67	23.47	-48.8	-66.8	3.5	3.02e+01	0	38	104	0	60	84677
2026-01-07 17:05:07.70	226.57	23.31	-48.8	-66.8	3.5	3.02e+01	0	38	104	0	60	84252
2026-01-07 17:05:08.71	226.48	23.14	-48.8	-66.8	3.5	3.02e+01	0	38	104	0	60	84416
2026-01-07 17:05:09.72	226.38	22.98	-48.8	-66.8	3.5	3.02e+01	0	38	104	0	60	84495
2026-01-07 17:05:10.73	226.29	22.82	-48.8	-66.8	3.5	3.02e+01	0	38	104	0	60	84431
2026-01-07 17:05:11.74	226.20	22.66	-48.8	-66.8	3.5	3.02e+01	0	38	104	0	60	84340
2026-01-07 17:05:12.75	226.11	22.50	-48.8	-66.8	3.5	3.02e+01	0	38	104	0	60	84589
2026-01-07 17:05:13.76	226.02	22.34	-48.8	-66.8	3.5	3.02e+01	0	38	104	0	60	84584
2026-01-07 17:05:14.77	225.93	22.18	-48.8	-66.8	3.5	3.02e+01	0	38	104	0	60	84556
2026-01-07 17:05:15.78	225.84	22.03	-48.8	-66.9	3.5	3.02e+01	0	38	104	0	60	84718
2026-01-07 17:05:16.79	225.75	21.87	-48.8	-66.8	3.5	3.02e+01	0	38	104	0	60	84350
2026-01-07 17:05:17.80	225.67	21.72	-48.8	-66.8	3.5	3.02e+01	0	38	104	0	60	84311
2026-01-07 17:05:18.81	225.58	21.56	-48.8	-66.9	3.5	3.02e+01	0	38	104	0	60	84963
2026-01-07 17:05:19.82	225.50	21.41	-48.8	-66.8	3.5	3.02e+01	0	38	104	0	60	84650
2026-01-07 17:05:20.83	225.41	21.26	-48.8	-66.8	3.5	3.02e+01	0	38	104	0	60	84248
2026-01-07 17:05:21.84	225.33	21.11	-48.8	-66.8	3.5	3.02e+01	0	38	104	0	60	84503
2026-01-07 17:05:22.84	225.25	20.96	-48.8	-66.8	3.5	3.02e+01	0	38	104	0	60	84405
2026-01-07 17:05:23.86	225.17	20.81	-48.8	-66.8	3.5	3.02e+01	0	38	104	0	60	84494
2026-01-07 17:05:24.87	225.09	20.66	-48.8	-66.8	3.5	3.02e+01	0	38	104	0	60	84331
2026-01-07 17:05:25.88	225.01	20.52	-48.8	-66.8	3.5	3.02e+01	0	38	104	0	60	84335
2026-01-07 17:05:26.89	224.93	20.37	-48.8	-66.8	3.5	3.02e+01	0	38	104	0	60	84558
2026-01-07 17:05:27.90	224.85	20.22	-48.8	-66.8	3.5	3.02e+01	0	38	104	0	60	84645
2026-01-07 17:05:28.91	224.78	20.08	-48.8	-66.9	3.5	3.02e+01	0	38	104	0	60	84687
2026-01-07 17:05:29.92	224.70	19.94	-48.8	-66.8	3.5	3.02e+01	0	38	104	0	60	84465
2026-01-07 17:05:30.93	224.63	19.79	-48.8	-66.8	3.5	3.02e+01	0	38	104	0	60	84513
2026-01-07 17:05:31.94	224.55	19.65	-48.8	-66.8	3.5	3.02e+01	0	38	104	0	60	84638
2026-01-07 17:05:32.94	224.48	19.51	-48.8	-66.9	3.5	3.02e+01	0	38	104	0	60	84861
2026-01-07 17:05:33.95	224.40	19.37	-48.8	-66.9	3.5	3.02e+01	0	38	104	0	60	84748
2026-01-07 17:05:34.96	224.33	19.23	-48.8	-66.8	3.5	3.02e+01	0	38	104	0	60	84351
2026-01-07 17:05:35.97	224.26	19.09	-48.8	-66.8	3.5	3.02e+01	0	38	104	0	60	84337
2026-01-07 17:05:36.98	224.19	18.96	-48.8	-66.9	3.5	3.02e+01	0	38	104	0	60	84712
2026-01-07 17:05:37.99	224.12	18.82	-48.8	-66.8	3.5	3.02e+01	0	38	104	0	60	84402
2026-01-07 17:05:39.00	224.05	18.68	-48.8	-66.9	3.5	3.02e+01	0	38	104	0	60	84710
2026-01-07 17:05:40.01	223.98	18.55	-48.8	-66.8	3.5	3.02e+01	0	38	104	0	60	84101
2026-01-07 17:05:41.02	223.91	18.41	-48.8	-66.9	3.5	3.02e+01	0	38	104	0	60	84713
2026-01-07 17:05:42.03	223.85	18.28	-48.8	-66.8	3.5	3.02e+01	0	38	104	0	60	84421
2026-01-07 17:05:43.04	223.78	18.14	-48.8	-66.8	3.5	3.02e+01	0	38	104	0	60	84659
2026-01-07 17:05:44.05	223.71	18.01	-48.8	-66.8	3.5	3.02e+01	0	38	104	0	60	84570
2026-01-07 17:05:45.06	223.65	17.88	-48.8	-66.8	3.5	3.02e+01	0	38	104	0	60	84670
2026-01-07 17:05:46.07	223.58	17.75	-48.8	-66.8	3.5	3.02e+01	0	38	104	0	60	84644
2026-01-07 17:05:47.08	223.52	17.62	-48.8	-66.9	3.5	3.02e+01	0	38	104	0	60	85007
2026-01-07 17:05:48.09	223.46	17.49	-48.8	-66.8	3.5	3.02e+01	0	38	104	0	60	84310
2026-01-07 17:05:49.10	223.39	17.36	-48.8	-66.9	3.5	3.02e+01	0	38	104	0	60	84774
2026-01-07 17:05:50.10	223.33	17.23	-48.8	-66.9	3.5	3.02e+01	0	38	104	0	60	84948
2026-01-07 17:05:51.11	223.27	17.11	-48.8	-66.8	3.5	3.02e+01	0	38	104	0	60	84636
2026-01-07 17:05:52.12	223.21	16.98	-48.8	-66.9	3.5	3.02e+01	0	38	104	0	60	84784
2026-01-07 17:05:53.13	223.15	16.85	-48.8	-66.8	3.5	3.02e+01	0	38	104	0	60	84617
2026-01-07 17:05:54.14	223.09	16.73	-48.8	-66.8	3.5	3.02e+01	0	38	104	0	60	84278
2026-01-07 17:05:55.15	223.03	16.60	-48.8	-66.9	3.5	3.02e+01	0	38	104	0	60	84722
2026-01-07 17:05:56.16	222.97	16.48	-48.8	-66.9	3.5	3.02e+01	0	38	104	0	60	84812
2026-01-07 17:05:57.17	222.91	16.36	-48.8	-66.8	3.5	3.02e+01	0	38	104	0	60	84326
2026-01-07 17:05:58.18	222.85	16.23	-48.8	-66.8	3.5	3.02e+01	0	38	104	0	60	84333
2026-01-07 17:05:59.19	222.79	16.11	-48.8	-66.9	3.5	3.02e+01	0	38	104	0	60	84731
2026-01-07 17:06:00.20	222.74	15.99	-48.8	-66.8	3.5	3.02e+01	0	38	104	0	60	84485
2026-01-07 17:06:01.21	222.68	15.87	-48.8	-66.8	3.5	3.02e+01	0	38	104	0	60	84501
2026-01-07 17:06:02.22	222.62	15.75	-48.8	-66.8	3.5	3.02e+01	0	38	104	0	60	84657
2026-01-07 17:06:03.23	222.57	15.63	-48.8	-66.8	3.5	3.02e+01	0	38	104	0	60	84488
2026-01-07 17:06:04.24	222.51	15.51	-48.8	-66.8	3.5	3.02e+01	0	38	104	0	60	84295
2026-01-07 17:06:05.25	222.46	15.39	-48.8	-66.8	3.5	3.02e+01	0	38	104	0	60	84028
2026-01-07 17:06:06.26	222.41	15.27	-48.8	-66.8	3.5	3.02e+01	0	38	104	0	60	84520
2026-01-07 17:06:07.27	222.35	15.16	-48.8	-66.8	3.5	3.02e+01	0	38	104	0	60	84220
2026-01-07 17:06:08.28	222.30	15.04	-48.8	-66.9	3.5	3.02e+01	0	38	104	0	60	84837
2026-01-07 17:06:09.29	222.25	14.93	-48.8	-66.8	3.5	3.02e+01	0	38	104	0	60	84356
2026-01-07 17:06:10.30	222.19	14.81	-48.8	-66.8	3.5	3.02e+01	0	38	104	0	60	84528
2026-01-07 17:06:11.31	222.14	14.70	-48.8	-66.9	3.5	3.02e+01	0	38	104	0	60	84925
2026-01-07 17:06:12.32	222.09	14.58	-48.8	-66.8	3.5	3.02e+01	0	38	104	0	60	84341
2026-01-07 17:06:13.32	222.04	14.47	-48.8	-66.8	3.5	3.02e+01	0	38	104	0	60	84256
2026-01-07 17:06:14.33	221.99	14.36	-48.8	-66.8	3.5	3.02e+01	0	38	104	0	60	84676
2026-01-07 17:06:15.34	221.94	14.24	-48.8	-66.9	3.5	3.02e+01	0	38	104	0	60	84808
2026-01-07 17:06:16.35	221.89	14.13	-48.8	-66.8	3.5	3.02e+01	0	38	104	0	60	84494
2026-01-07 17:06:17.36	221.84	14.02	-48.8	-66.8	3.5	3.02e+01	0	38	104	0	60	84377
2026-01-07 17:06:18.37	221.79	13.91	-48.8	-66.9	3.5	3.02e+01	0	38	104	0	60	84713
2026-01-07 17:06:19.38	221.75	13.80	-48.8	-66.8	3.5	3.02e+01	0	38	104	0	60	84564
2026-01-07 17:06:20.39	221.70	13.69	-48.8	-66.9	3.5	3.02e+01	0	38	104	0	60	84722
2026-01-07 17:06:21.40	221.65	13.58	-48.8	-66.9	3.5	3.02e+01	0	38	104	0	60	84903
2026-01-07 17:06:22.40	221.60	13.47	-48.8	-66.9	3.5	3.02e+01	0	38	104	0	60	85027
2026-01-07 17:06:23.41	221.56	13.36	-48.8	-66.8	3.5	3.02e+01	0	38	104	0	60	84676
2026-01-07 17:06:24.42	221.51	13.26	-48.8	-66.8	3.5	3.02e+01	0	38	104	0	60	84191
2026-01-07 17:06:25.43	221.47	13.15	-48.8	-66.9	3.5	3.02e+01	0	38	104	0	60	84796
2026-01-07 17:06:26.44	221.42	13.04	-48.8	-66.9	3.5	3.02e+01	0	38	104	0	60	85002
2026-01-07 17:06:27.45	221.38	12.94	-48.8	-66.8	3.5	3.02e+01	0	38	104	0	60	84463
2026-01-07 17:06:28.46	221.33	12.83	-48.8	-66.8	3.5	3.02e+01	0	38	104	0	60	84472
2026-01-07 17:06:29.47	221.29	12.72	-48.8	-66.9	3.5	3.02e+01	0	38	104	0	60	84785
2026-01-07 17:06:30.48	221.24	12.62	-48.8	-66.8	3.5	3.02e+01	0	38	104	0	60	84568
2026-01-07 17:06:31.49	221.20	12.52	-48.8	-66.8	3.5	3.02e+01	0	38	104	0	60	84338
2026-01-07 17:06:32.50	221.16	12.41	-48.8	-66.8	3.5	3.02e+01	0	38	104	0	60	84436
2026-01-07 17:06:33.51	221.11	12.31	-48.8	-66.9	3.5	3.02e+01	0	38	104	0	60	84778
2026-01-07 17:06:34.52	221.07	12.21	-48.8	-66.8	3.5	3.02e+01	0	38	104	0	60	84182
2026-01-07 17:06:35.53	221.03	12.10	-48.8	-66.8	3.5	3.02e+01	0	38	104	0	60	84510
2026-01-07 17:06:36.54	220.99	12.00	-48.8	-66.9	3.5	3.02e+01	0	38	104	0	60	84880
2026-01-07 17:06:37.55	220.94	11.90	-48.8	-66.8	3.5	3.02e+01	0	38	104	0	60	84508
2026-01-07 17:06:38.56	220.90	11.80	-48.8	-66.9	3.5	3.02e+01	0	38	104	0	60	84783
2026-01-07 17:06:39.57	220.86	11.70	-48.8	-66.9	3.5	3.02e+01	0	38	104	0	60	84972
2026-01-07 17:06:40.58	220.82	11.60	-48.8	-66.8	3.5	3.02e+01	0	38	104	0	60	84539
2026-01-07 17:06:41.59	220.78	11.50	-48.8	-66.8	3.5	3.02e+01	0	38	104	0	60	84535
2026-01-07 17:06:42.60	220.74	11.40	-48.8	-66.8	3.5	3.02e+01	0	38	104	0	60	84471
2026-01-07 17:06:43.61	220.70	11.30	-48.8	-66.8	3.5	3.02e+01	0	38	104	0	60	84434
2026-01-07 17:06:44.62	220.66	11.20	-48.8	-66.8	3.5	3.02e+01	0	38	104	0	60	84048
2026-01-07 17:06:45.63	220.62	11.10	-48.8	-66.9	3.5	3.02e+01	0	38	104	0	60	84829
2026-01-07 17:06:46.63	220.59	11.01	-48.8	-66.8	3.5	3.02e+01	0	38	104	0	60	84494
2026-01-07 17:06:47.64	220.55	10.91	-48.8	-66.8	3.5	3.02e+01	0	38	104	0	60	84634
2026-01-07 17:06:48.65	220.51	10.81	-48.8	-66.8	3.5	3.02e+01	0	38	104	0	60	84520
2026-01-07 17:06:49.66	220.47	10.72	-48.8	-66.9	3.5	3.02e+01	0	38	104	0	60	84897
2026-01-07 17:06:50.67	220.43	10.62	-48.8	-66.8	3.5	3.02e+01	0	38	104	0	60	84634
2026-01-07 17:06:51.68	220.40	10.53	-48.8	-66.8	3.5	3.02e+01	0	38	104	0	60	84525
2026-01-07 17:06:52.69	220.36	10.43	-48.8	-66.8	3.5	3.02e+01	0	38	104	0	60	84657
2026-01-07 17:06:53.70	220.32	10.34	-48.8	-66.8	3.5	3.02e+01	0	38	104	0	60	84533
2026-01-07 17:06:54.70	220.29	10.24	-48.8	-66.9	3.5	3.02e+01	0	38	104	0	60	84747
2026-01-07 17:06:55.72	220.25	10.15	-48.8	-66.8	3.5	3.02e+01	0	38	104	0	60	84642
2026-01-07 17:06:56.73	220.21	10.05	-48.8	-66.8	3.5	3.02e+01	0	38	104	0	60	84390
2026-01-07 17:06:57.73	220.18	9.96	-48.8	-66.8	3.5	3.02e+01	0	38	104	0	60	84258
2026-01-07 17:06:58.75	220.14	9.87	-48.8	-66.8	3.5	3.02e+01	0	38	104	0	60	84536
2026-01-07 17:06:59.76	220.11	9.78	-48.8	-66.9	3.5	3.02e+01	0	38	104	0	60	84736
2026-01-07 17:07:00.77	220.07	9.68	-48.8	-66.8	3.5	3.02e+01	0	38	104	0	60	84603
2026-01-07 17:07:01.77	220.04	9.59	-48.8	-66.9	3.5	3.02e+01	0	38	104	0	60	84722
2026-01-07 17:07:02.78	220.00	9.50	-48.8	-66.9	3.5	3.02e+01	0	38	104	0	60	84805
2026-01-07 17:07:03.79	219.97	9.41	-48.8	-66.8	3.5	3.02e+01	0	38	104	0	60	84492
2026-01-07 17:07:04.80	219.94	9.32	-48.8	-66.9	3.5	3.02e+01	0	38	104	0	60	84760
2026-01-07 17:07:05.81	219.90	9.23	-48.8	-66.8	3.5	3.02e+01	0	38	104	0	60	84338
2026-01-07 17:07:06.82	219.87	9.14	-48.8	-66.9	3.5	3.02e+01	0	38	104	0	60	84859
2026-01-07 17:07:07.83	219.84	9.05	-48.8	-66.8	3.5	3.02e+01	0	38	104	0	60	84433
2026-01-07 17:07:08.83	219.80	8.96	-48.8	-66.9	3.5	3.02e+01	0	38	104	0	60	84759
2026-01-07 17:07:09.84	219.77	8.87	-48.8	-66.8	3.5	3.02e+01	0	38	104	0	60	84400
2026-01-07 17:07:10.86	219.74	8.78	-48.8	-66.8	3.5	3.02e+01	0	38	104	0	60	84239
2026-01-07 17:07:11.86	219.71	8.70	-48.8	-66.8	3.5	3.02e+01	0	38	104	0	60	84673
2026-01-07 17:07:12.88	219.67	8.61	-48.8	-66.8	3.5	3.02e+01	0	38	104	0	60	84311
2026-01-07 17:07:13.88	219.64	8.52	-48.8	-66.8	3.5	3.02e+01	0	38	104	0	60	84606
2026-01-07 17:07:14.89	219.61	8.43	-48.8	-66.8	3.5	3.02e+01	0	38	104	0	60	84467
2026-01-07 17:07:15.90	219.58	8.35	-48.8	-66.9	3.5	3.02e+01	0	38	104	0	60	84793
2026-01-07 17:07:16.91	219.55	8.26	-48.8	-66.9	3.5	3.02e+01	0	38	104	0	60	84753
2026-01-07 17:07:17.92	219.52	8.17	-48.8	-66.8	3.5	3.02e+01	0	38	104	0	60	84305
2026-01-07 17:07:18.93	219.49	8.09	-48.8	-66.8	3.5	3.02e+01	0	38	104	0	60	84225
2026-01-07 17:07:19.94	219.46	8.00	-48.8	-66.9	3.5	3.02e+01	0	38	104	0	60	85059
2026-01-07 17:07:20.94	219.43	7.92	-48.8	-66.9	3.5	3.02e+01	0	38	104	0	60	84836
2026-01-07 17:07:21.95	219.40	7.83	-48.8	-66.8	3.5	3.02e+01	0	38	104	0	60	84391
2026-01-07 17:07:22.96	219.37	7.75	-48.8	-66.8	3.5	3.02e+01	0	38	104	0	60	84528
2026-01-07 17:07:23.97	219.34	7.67	-48.8	-66.8	3.5	3.02e+01	0	38	104	0	60	84675
2026-01-07 17:07:24.98	219.31	7.58	-48.8	-66.8	3.5	3.02e+01	0	38	104	0	60	84615
2026-01-07 17:07:25.99	219.28	7.50	-48.8	-66.8	3.5	3.02e+01	0	38	104	0	60	84235
2026-01-07 17:07:27.00	219.25	7.41	-48.8	-66.8	3.5	3.02e+01	0	38	104	0	60	84210
2026-01-07 17:07:28.01	219.22	7.33	-48.9	-66.9	3.5	3.02e+01	0	38	104	0	60	84758
2026-01-07 17:07:29.02	219.19	7.25	-48.8	-66.9	3.5	3.02e+01	0	38	104	0	60	84898
2026-01-07 17:07:30.03	219.16	7.17	-48.8	-66.9	3.5	3.02e+01	0	38	104	0	60	84878
2026-01-07 17:07:31.04	219.14	7.08	-48.8	-66.9	3.5	3.02e+01	0	38	104	0	60	84779
2026-01-07 17:07:32.04	219.11	7.00	-48.8	-66.8	3.5	3.02e+01	0	38	104	0	60	84372
2026-01-07 17:07:33.05	219.08	6.92	-48.8	-66.9	3.5	3.02e+01	0	38	104	0	60	84719
2026-01-07 17:07:34.06	219.05	6.84	-48.8	-66.8	3.5	3.02e+01	0	38	104	0	60	84328
2026-01-07 17:07:35.07	219.03	6.76	-48.8	-66.9	3.5	3.02e+01	0	38	104	0	60	84952
2026-01-07 17:07:36.08	219.00	6.68	-48.8	-66.9	3.5	3.02e+01	0	38	104	0	60	84748
2026-01-07 17:07:37.09	218.97	6.60	-48.8	-66.7	3.5	3.02e+01	0	38	104	0	60	83628
2026-01-07 17:07:38.10	218.95	6.52	-48.8	-66.9	3.5	3.02e+01	0	38	104	0	60	84896
2026-01-07 17:07:39.11	218.92	6.44	-48.8	-66.8	3.5	3.02e+01	0	38	104	0	60	84583
2026-01-07 17:07:40.12	218.89	6.36	-48.8	-66.8	3.5	3.02e+01	0	38	104	0	60	84400
2026-01-07 17:07:41.13	218.87	6.28	-48.9	-66.8	3.5	3.02e+01	0	38	104	0	60	83961
2026-01-07 17:07:42.14	218.84	6.20	-48.8	-66.9	3.5	3.02e+01	0	38	104	0	60	85011
2026-01-07 17:07:43.15	218.81	6.12	-48.8	-66.9	3.5	3.02e+01	0	38	104	0	60	84962
2026-01-07 17:07:44.16	218.79	6.04	-48.8	-66.9	3.5	3.02e+01	0	38	104	0	60	84768
2026-01-07 17:07:45.17	218.76	5.96	-48.8	-66.9	3.5	3.02e+01	0	38	104	0	60	84716
2026-01-07 17:07:46.18	218.74	5.88	-48.8	-66.9	3.5	3.02e+01	0	38	104	0	60	85130
2026-01-07 17:07:47.19	218.71	5.81	-48.8	-66.9	3.5	3.02e+01	0	38	104	0	60	85011
2026-01-07 17:07:48.20	218.69	5.73	-48.8	-66.9	3.5	3.02e+01	0	38	104	0	60	84714
2026-01-07 17:07:49.21	218.66	5.65	-48.8	-66.8	3.5	3.02e+01	0	38	104	0	60	84501
2026-01-07 17:07:50.22	218.64	5.57	-48.8	-66.9	3.5	3.02e+01	0	38	104	0	60	84774
2026-01-07 17:07:51.23	218.61	5.50	-48.8	-66.9	3.5	3.02e+01	0	38	104	0	60	84774
2026-01-07 17:07:52.24	218.59	5.42	-48.8	-66.8	3.5	3.02e+01	0	38	104	0	60	84603
2026-01-07 17:07:53.25	218.56	5.34	-48.8	-66.8	3.5	3.02e+01	0	38	104	0	60	84609
2026-01-07 17:07:54.26	218.54	5.27	-48.8	-66.9	3.5	3.02e+01	0	38	104	0	60	84919
2026-01-07 17:07:55.27	218.51	5.19	-48.8	-66.8	3.5	3.02e+01	0	38	104	0	60	84512
2026-01-07 17:07:56.27	218.49	5.12	-48.8	-66.9	3.5	3.02e+01	0	38	104	0	60	84847
2026-01-07 17:07:57.28	218.47	5.04	-48.8	-66.9	3.5	3.02e+01	0	38	104	0	60	84953
