passes_logs/2026/01/07/R4.6S_Anadyr/R4.6S_Anadyr__20260107_123429_NOAA_20_JPSS-1_rec.log

#Pass ID: 20260107_123429_NOAA 20 (JPSS-1)
#Satellite: NOAA 20 (JPSS-1)
#Configuration: NOAA 20
#almurnet v.1.7.20251203
#Start time: 2026-01-07 12:34:32

#Version: 2.2.20231116
#Station: R4.6S_Anadyr
#Location: 177.4865 lon 64.73178 lat
#TLE: 1 43013U 17073A   26005.46207808  .00000128  00000+0  81791-4 0  9997
#TLE: 2 43013  98.7627 306.5027 0001826  53.0458 307.0885 14.19533487421381

#Time	Az	El	Level	Level2	SNR	BER	BlckErr	Temp	State	Recorded	gain1	gain2
2026-01-07 12:34:32.41	19.07	0.17	-49.3	-63.0	3.3	1.54e+00	0	36	0	0	60	51311
2026-01-07 12:34:33.41	19.14	0.22	-49.3	-64.5	3.6	1.51e+00	0	36	104	0	60	60722
2026-01-07 12:34:34.42	19.21	0.28	-49.3	-64.5	3.6	1.51e+00	0	36	104	0	60	60797
2026-01-07 12:34:35.43	19.28	0.33	-49.3	-64.6	3.6	1.51e+00	0	36	104	0	60	61102
2026-01-07 12:34:36.44	19.35	0.38	-49.4	-64.5	3.6	1.51e+00	0	36	104	0	60	60920
2026-01-07 12:34:37.45	19.42	0.43	-49.3	-64.5	3.6	1.51e+00	0	36	104	0	60	60763
2026-01-07 12:34:38.46	19.49	0.48	-49.3	-64.5	3.6	1.51e+00	0	36	104	0	60	60664
2026-01-07 12:34:39.47	19.56	0.53	-49.2	-64.3	3.6	1.51e+00	0	36	104	0	60	59601
2026-01-07 12:34:40.48	19.63	0.58	-49.1	-64.3	3.6	1.51e+00	0	36	104	0	60	59237
2026-01-07 12:34:41.49	19.70	0.64	-49.0	-64.1	3.6	1.51e+00	0	36	104	0	60	58268
2026-01-07 12:34:42.51	19.78	0.69	-48.8	-64.0	3.6	1.51e+00	0	36	104	0	60	57515
2026-01-07 12:34:43.51	19.85	0.74	-48.7	-63.9	3.6	1.51e+00	0	36	104	0	60	56393
2026-01-07 12:34:44.52	19.92	0.79	-48.4	-63.6	3.6	1.51e+00	0	36	104	0	60	54606
2026-01-07 12:34:45.54	19.99	0.84	-48.0	-63.2	3.6	1.51e+00	0	36	104	0	60	52035
2026-01-07 12:34:46.55	20.06	0.90	-47.7	-62.8	3.6	1.51e+00	0	36	104	0	60	50084
2026-01-07 12:34:47.56	20.13	0.95	-47.7	-62.8	3.6	1.51e+00	0	36	104	0	60	49912
2026-01-07 12:34:48.56	20.21	1.00	-47.7	-62.8	3.6	1.51e+00	0	36	104	0	60	49819
2026-01-07 12:34:49.57	20.28	1.05	-47.7	-62.8	3.6	1.51e+00	0	36	104	0	60	49801
2026-01-07 12:34:50.58	20.35	1.10	-47.7	-62.8	3.6	1.51e+00	0	36	104	0	60	49961
2026-01-07 12:34:51.60	20.43	1.16	-47.7	-62.8	3.6	1.51e+00	0	36	104	0	60	49812
2026-01-07 12:34:52.60	20.50	1.21	-47.7	-62.9	3.6	1.51e+00	0	36	104	0	60	50283
2026-01-07 12:34:53.62	20.57	1.26	-47.7	-62.8	3.6	1.51e+00	0	36	104	0	60	50145
2026-01-07 12:34:54.62	20.65	1.31	-47.7	-62.8	3.6	1.51e+00	0	36	104	0	60	50099
2026-01-07 12:34:55.64	20.72	1.37	-47.7	-62.8	3.6	1.51e+00	0	37	104	0	60	50091
2026-01-07 12:34:56.65	20.80	1.42	-47.7	-62.8	3.6	1.51e+00	0	37	104	0	60	50162
2026-01-07 12:34:57.65	20.87	1.47	-47.7	-62.9	3.6	1.51e+00	0	36	104	0	60	50387
2026-01-07 12:34:58.66	20.95	1.52	-47.7	-62.8	3.6	1.51e+00	0	36	104	0	60	50083
2026-01-07 12:34:59.67	21.02	1.58	-47.7	-62.7	3.6	1.51e+00	0	37	104	0	60	49433
2026-01-07 12:35:00.68	21.10	1.63	-47.7	-62.7	3.6	1.51e+00	0	37	104	0	60	49394
2026-01-07 12:35:01.69	21.17	1.68	-47.7	-62.7	3.6	1.51e+00	0	37	104	0	60	49362
2026-01-07 12:35:02.70	21.25	1.73	-47.7	-62.7	3.6	1.51e+00	0	37	104	0	60	49312
2026-01-07 12:35:03.71	21.32	1.79	-47.7	-62.8	3.6	1.51e+00	0	37	104	0	60	50037
2026-01-07 12:35:04.72	21.40	1.84	-47.7	-62.8	3.6	1.51e+00	0	37	104	0	60	49660
2026-01-07 12:35:05.73	21.48	1.89	-47.7	-62.8	3.6	1.51e+00	0	37	104	0	60	49878
2026-01-07 12:35:06.74	21.55	1.95	-47.7	-62.8	3.6	1.51e+00	0	37	104	0	60	49946
2026-01-07 12:35:07.75	21.63	2.00	-47.7	-62.8	3.6	1.51e+00	0	37	104	0	60	49928
2026-01-07 12:35:08.76	21.71	2.05	-47.7	-62.7	3.6	1.51e+00	0	37	104	0	60	49459
2026-01-07 12:35:09.77	21.79	2.11	-47.7	-62.3	3.6	1.51e+00	0	37	104	0	60	47082
2026-01-07 12:35:10.78	21.87	2.16	-47.6	-61.6	3.6	1.51e+00	0	37	104	0	60	43663
2026-01-07 12:35:11.79	21.94	2.21	-47.6	-61.5	3.6	1.51e+00	0	37	104	0	60	43170
2026-01-07 12:35:12.80	22.02	2.27	-47.6	-61.8	3.6	1.51e+00	0	37	104	0	60	44450
2026-01-07 12:35:13.81	22.10	2.32	-47.6	-61.8	3.6	1.51e+00	0	37	104	0	60	44376
2026-01-07 12:35:14.82	22.18	2.37	-47.5	-58.9	4.2	1.51e+00	68	37	104	0	60	31866
2026-01-07 12:35:15.83	22.26	2.43	-46.9	-53.9	7.2	2.63e-01	0	37	0	1048576	60	17884
2026-01-07 12:35:16.84	22.34	2.48	-45.8	-50.3	11.4	1.47e-02	0	37	0	2097152	60	11785
2026-01-07 12:35:17.85	22.42	2.53	-44.6	-47.8	14.0	7.78e-05	0	37	0	4194304	60	8890
2026-01-07 12:35:18.86	22.50	2.59	-43.5	-45.9	16.1	7.00e-07	68	37	0	6291456	60	7094
2026-01-07 12:35:19.87	22.58	2.64	-42.5	-44.6	17.3	0.00e+00	53	37	0	8388608	58	6849
2026-01-07 12:35:20.88	22.66	2.70	-42.1	-44.0	18.1	0.00e+00	92	37	0	10485760	58	6406
2026-01-07 12:35:21.89	22.74	2.75	-41.9	-43.6	18.1	0.00e+00	0	37	0	11534336	58	6146
2026-01-07 12:35:22.90	22.82	2.80	-42.2	-44.1	17.9	0.00e+00	91	37	0	13631488	58	6511
2026-01-07 12:35:23.91	22.90	2.86	-42.9	-45.0	16.7	0.00e+00	0	37	0	15728640	58	7239
2026-01-07 12:35:24.92	22.99	2.91	-44.1	-47.0	14.7	0.00e+00	0	37	0	17825792	60	8067
2026-01-07 12:35:25.93	23.07	2.97	-45.8	-50.3	11.3	1.56e-04	0	37	0	19922944	60	11779
2026-01-07 12:35:26.94	23.15	3.02	-46.8	-53.5	7.5	1.84e-02	24	37	0	20971520	60	17162
2026-01-07 12:35:27.88	23.23	3.07	-44.6	-47.7	14.2	3.76e-02	91	37	0	23068672	60	8804
2026-01-07 12:35:28.89	23.31	3.13	-42.1	-43.9	18.0	0.00e+00	0	37	0	25165824	58	6383
2026-01-07 12:35:29.90	23.39	3.18	-47.6	-61.4	3.6	6.34e-01	0	37	104	26214400	60	42378
2026-01-07 12:35:30.91	23.48	3.24	-47.4	-58.8	4.1	1.51e+00	71	37	104	26214400	60	31405
2026-01-07 12:35:31.92	23.56	3.29	-46.0	-50.7	10.7	4.11e-05	29	37	0	26214400	60	12326
2026-01-07 12:35:32.93	23.65	3.35	-43.3	-45.6	16.7	1.22e-05	53	37	0	28311552	60	6856
2026-01-07 12:35:33.94	23.73	3.40	-43.1	-45.2	17.0	0.00e+00	25	37	0	30408704	60	6600
2026-01-07 12:35:34.95	23.81	3.45	-43.1	-45.2	16.8	0.00e+00	15	37	0	32505856	60	6602
2026-01-07 12:35:35.96	23.90	3.51	-42.9	-45.0	17.4	0.00e+00	55	37	0	33554432	58	7177
2026-01-07 12:35:36.97	23.99	3.56	-42.8	-44.8	16.7	0.00e+00	92	37	0	35651584	58	7008
2026-01-07 12:35:37.97	24.07	3.62	-43.3	-45.5	17.0	0.00e+00	0	37	0	37748736	58	7634
2026-01-07 12:35:38.98	24.16	3.67	-43.0	-45.1	16.5	0.00e+00	0	37	0	39845888	58	7322
2026-01-07 12:35:39.99	24.24	3.73	-43.5	-45.8	16.7	0.00e+00	0	37	0	41943040	58	7940
2026-01-07 12:35:41.00	24.33	3.78	-43.2	-45.4	16.3	0.00e+00	0	37	0	42991616	58	7523
2026-01-07 12:35:42.01	24.42	3.84	-42.9	-45.0	17.3	0.00e+00	0	37	0	45088768	58	7185
2026-01-07 12:35:43.02	24.50	3.90	-43.5	-45.7	16.5	0.00e+00	0	37	0	47185920	58	7829
2026-01-07 12:35:44.03	24.59	3.95	-43.1	-45.2	16.8	0.00e+00	91	37	0	49283072	58	7340
2026-01-07 12:35:45.04	24.68	4.01	-43.4	-45.5	17.2	0.00e+00	0	37	0	51380224	58	7669
2026-01-07 12:35:46.04	24.77	4.06	-42.5	-44.4	17.5	0.00e+00	92	37	0	52428800	58	6743
2026-01-07 12:35:47.05	24.85	4.12	-42.8	-44.8	17.3	0.00e+00	0	37	0	54525952	58	7021
2026-01-07 12:35:48.07	24.94	4.17	-42.1	-43.8	18.5	0.00e+00	0	37	0	56623104	58	6248
2026-01-07 12:35:49.08	25.03	4.23	-41.6	-43.2	19.0	0.00e+00	0	37	0	58720256	56	6593
2026-01-07 12:35:50.08	25.12	4.28	-41.7	-43.3	18.9	0.00e+00	25	37	0	60817408	56	6616
2026-01-07 12:35:51.09	25.21	4.34	-41.5	-43.1	19.1	0.00e+00	92	37	0	62914560	56	6503
2026-01-07 12:35:52.10	25.30	4.40	-41.7	-43.3	18.9	0.00e+00	0	37	0	63963136	56	6630
2026-01-07 12:35:53.10	25.39	4.45	-41.4	-43.0	19.2	0.00e+00	92	37	0	66060288	56	6395
2026-01-07 12:35:54.11	25.48	4.51	-41.5	-43.1	19.2	0.00e+00	0	37	0	68157440	56	6508
2026-01-07 12:35:55.12	25.57	4.56	-41.5	-43.0	19.3	0.00e+00	0	37	0	70254592	56	6449
2026-01-07 12:35:56.13	25.66	4.62	-41.5	-43.0	19.2	0.00e+00	30	37	0	72351744	56	6441
2026-01-07 12:35:57.14	25.75	4.68	-41.6	-43.1	19.1	0.00e+00	51	37	0	73400320	56	6515
2026-01-07 12:35:58.15	25.85	4.73	-41.3	-42.8	19.4	0.00e+00	0	37	0	75497472	56	6297
2026-01-07 12:35:59.16	25.94	4.79	-41.3	-42.8	19.3	0.00e+00	56	37	0	77594624	56	6279
2026-01-07 12:36:00.17	26.03	4.84	-41.4	-42.9	19.4	0.00e+00	92	37	0	79691776	56	6362
2026-01-07 12:36:01.18	26.12	4.90	-41.4	-42.8	19.4	0.00e+00	51	37	0	81788928	56	6315
2026-01-07 12:36:02.19	26.22	4.96	-41.5	-43.0	19.3	0.00e+00	26	37	0	82837504	56	6447
2026-01-07 12:36:03.20	26.31	5.01	-41.2	-42.7	19.6	0.00e+00	0	37	0	84934656	56	6179
2026-01-07 12:36:04.21	26.41	5.07	-41.3	-42.8	19.5	0.00e+00	0	37	0	87031808	56	6286
2026-01-07 12:36:05.22	26.50	5.13	-41.3	-42.8	19.5	0.00e+00	0	37	0	89128960	56	6264
2026-01-07 12:36:06.23	26.59	5.18	-41.3	-42.8	19.5	0.00e+00	0	37	0	91226112	56	6280
2026-01-07 12:36:07.24	26.69	5.24	-41.2	-42.7	19.7	0.00e+00	92	37	0	92274688	56	6184
2026-01-07 12:36:08.25	26.79	5.30	-41.4	-42.8	19.6	0.00e+00	0	37	0	94371840	56	6285
2026-01-07 12:36:09.26	26.88	5.35	-41.3	-42.7	19.7	0.00e+00	91	37	0	96468992	56	6200
2026-01-07 12:36:10.27	26.98	5.41	-41.3	-42.7	19.6	0.00e+00	0	37	0	98566144	56	6245
2026-01-07 12:36:11.28	27.07	5.47	-41.2	-42.6	19.9	0.00e+00	0	37	0	100663296	56	6113
2026-01-07 12:36:12.29	27.17	5.52	-41.2	-42.6	19.8	0.00e+00	15	37	0	101711872	56	6158
2026-01-07 12:36:13.30	27.27	5.58	-41.4	-42.8	19.6	0.00e+00	0	37	0	103809024	56	6293
2026-01-07 12:36:14.31	27.37	5.64	-41.4	-42.8	19.6	0.00e+00	24	37	0	105906176	56	6296
2026-01-07 12:36:15.32	27.46	5.70	-41.2	-42.6	19.8	0.00e+00	23	37	0	108003328	56	6165
2026-01-07 12:36:16.33	27.56	5.75	-41.0	-42.4	20.0	0.00e+00	92	37	0	110100480	56	6012
2026-01-07 12:36:17.33	27.66	5.81	-41.2	-42.6	19.8	0.00e+00	29	37	0	111149056	56	6154
2026-01-07 12:36:18.34	27.76	5.87	-41.1	-42.5	20.0	0.00e+00	0	37	0	113246208	56	6053
2026-01-07 12:36:19.35	27.86	5.93	-41.0	-42.4	20.0	0.00e+00	0	37	0	115343360	56	5999
2026-01-07 12:36:20.36	27.96	5.98	-41.2	-42.5	19.9	0.00e+00	6	37	0	117440512	56	6100
2026-01-07 12:36:21.37	28.06	6.04	-41.1	-42.5	20.0	0.00e+00	76	37	0	119537664	56	6039
2026-01-07 12:36:22.38	28.16	6.10	-41.0	-42.4	20.1	0.00e+00	8	37	0	120586240	56	5987
2026-01-07 12:36:23.39	28.26	6.16	-41.1	-42.5	20.0	0.00e+00	92	37	0	122683392	56	6042
2026-01-07 12:36:24.40	28.36	6.21	-41.0	-42.4	20.1	0.00e+00	50	37	0	124780544	56	5996
2026-01-07 12:36:25.41	28.46	6.27	-41.0	-42.3	20.2	0.00e+00	44	37	0	126877696	56	5961
2026-01-07 12:36:26.42	28.56	6.33	-40.9	-42.2	20.3	0.00e+00	6	37	0	128974848	56	5894
2026-01-07 12:36:27.43	28.67	6.39	-40.9	-42.2	20.3	0.00e+00	0	37	0	131072000	56	5872
2026-01-07 12:36:28.44	28.77	6.45	-40.8	-42.1	20.4	0.00e+00	0	37	0	132120576	56	5807
2026-01-07 12:36:29.45	28.87	6.50	-40.7	-42.1	20.3	0.00e+00	0	37	0	134217728	54	6471
2026-01-07 12:36:30.46	28.98	6.56	-40.9	-42.2	20.4	0.00e+00	92	37	0	136314880	54	6566
2026-01-07 12:36:31.47	29.08	6.62	-40.5	-41.8	20.6	0.00e+00	25	37	0	138412032	54	6305
2026-01-07 12:36:32.48	29.18	6.68	-40.6	-41.9	20.5	0.00e+00	92	37	0	140509184	54	6379
2026-01-07 12:36:33.49	29.29	6.74	-40.7	-42.0	20.4	0.00e+00	4	37	0	141557760	54	6440
2026-01-07 12:36:34.50	29.39	6.79	-40.3	-41.6	20.9	0.00e+00	30	37	0	143654912	54	6112
2026-01-07 12:36:35.51	29.50	6.85	-40.5	-41.7	20.7	0.00e+00	0	37	0	145752064	54	6233
2026-01-07 12:36:36.52	29.61	6.91	-40.5	-41.8	20.7	0.00e+00	29	37	0	147849216	54	6271
2026-01-07 12:36:37.53	29.71	6.97	-40.6	-41.9	20.6	0.00e+00	92	37	0	149946368	54	6346
2026-01-07 12:36:38.54	29.82	7.03	-40.5	-41.8	20.6	0.00e+00	23	37	0	150994944	54	6275
2026-01-07 12:36:39.55	29.93	7.09	-40.7	-41.9	20.5	0.00e+00	92	37	0	153092096	54	6385
2026-01-07 12:36:40.55	30.03	7.14	-40.6	-41.9	20.4	0.00e+00	56	37	0	155189248	54	6372
2026-01-07 12:36:41.56	30.14	7.20	-40.7	-42.0	20.4	0.00e+00	0	37	0	157286400	54	6403
2026-01-07 12:36:42.57	30.25	7.26	-40.6	-41.9	20.6	0.00e+00	5	37	0	159383552	54	6319
2026-01-07 12:36:43.58	30.36	7.32	-40.5	-41.8	20.6	0.00e+00	58	37	0	160432128	54	6252
2026-01-07 12:36:44.59	30.47	7.38	-40.5	-41.7	20.8	0.00e+00	89	37	0	162529280	54	6220
2026-01-07 12:36:45.60	30.58	7.44	-40.5	-41.7	20.8	0.00e+00	6	37	0	164626432	54	6245
2026-01-07 12:36:46.61	30.69	7.50	-40.4	-41.7	20.8	0.00e+00	92	37	0	166723584	54	6189
2026-01-07 12:36:47.62	30.80	7.56	-40.4	-41.6	20.9	0.00e+00	0	37	0	168820736	54	6120
2026-01-07 12:36:48.63	30.91	7.62	-40.3	-41.5	21.1	0.00e+00	55	37	0	169869312	54	6087
2026-01-07 12:36:49.64	31.02	7.67	-40.2	-41.4	21.0	0.00e+00	0	37	0	171966464	54	6020
2026-01-07 12:36:50.65	31.13	7.73	-40.3	-41.5	21.0	0.00e+00	4	37	0	174063616	54	6068
2026-01-07 12:36:51.66	31.24	7.79	-40.3	-41.5	21.0	0.00e+00	0	37	0	176160768	54	6100
2026-01-07 12:36:52.67	31.36	7.85	-40.1	-41.3	21.1	0.00e+00	0	37	0	178257920	54	5942
2026-01-07 12:36:53.68	31.47	7.91	-40.1	-41.3	21.2	0.00e+00	91	37	0	179306496	54	5944
2026-01-07 12:36:54.69	31.58	7.97	-40.1	-41.3	21.2	0.00e+00	0	37	0	181403648	54	5940
2026-01-07 12:36:55.70	31.70	8.03	-40.2	-41.4	21.2	0.00e+00	92	37	0	183500800	54	5967
2026-01-07 12:36:56.71	31.81	8.09	-40.1	-41.3	21.3	0.00e+00	32	37	0	185597952	54	5904
2026-01-07 12:36:57.71	31.93	8.15	-40.2	-41.3	21.2	0.00e+00	31	37	0	187695104	54	5954
2026-01-07 12:36:58.72	32.04	8.21	-40.2	-41.4	21.1	0.00e+00	51	37	0	188743680	54	6006
2026-01-07 12:36:59.73	32.16	8.27	-40.0	-41.2	21.3	0.00e+00	31	37	0	190840832	54	5867
2026-01-07 12:37:00.74	32.27	8.33	-40.0	-41.1	21.5	0.00e+00	90	37	0	192937984	54	5804
2026-01-07 12:37:01.75	32.39	8.39	-40.0	-41.1	21.4	0.00e+00	26	37	0	195035136	54	5805
2026-01-07 12:37:02.76	32.51	8.45	-39.9	-41.1	21.5	0.00e+00	92	37	0	197132288	54	5769
2026-01-07 12:37:03.78	32.63	8.51	-39.8	-40.9	21.6	0.00e+00	55	37	0	199229440	52	6390
2026-01-07 12:37:04.79	32.74	8.57	-39.6	-40.7	21.9	0.00e+00	49	37	0	200278016	52	6204
2026-01-07 12:37:05.80	32.86	8.63	-39.6	-40.7	21.9	0.00e+00	0	37	0	202375168	52	6179
2026-01-07 12:37:06.80	32.98	8.69	-39.5	-40.5	22.0	0.00e+00	0	37	0	204472320	52	6097
2026-01-07 12:37:07.81	33.10	8.75	-39.5	-40.6	21.9	0.00e+00	8	37	0	206569472	52	6140
2026-01-07 12:37:08.82	33.22	8.81	-39.4	-40.5	22.1	0.00e+00	0	37	0	208666624	52	6049
2026-01-07 12:37:09.83	33.34	8.87	-39.5	-40.6	22.0	0.00e+00	92	37	0	209715200	52	6133
2026-01-07 12:37:10.84	33.46	8.93	-39.4	-40.5	22.0	0.00e+00	0	37	0	211812352	52	6074
2026-01-07 12:37:11.85	33.58	8.99	-39.4	-40.5	22.0	0.00e+00	51	37	0	213909504	52	6053
2026-01-07 12:37:12.86	33.71	9.05	-39.5	-40.5	22.0	0.00e+00	31	37	0	216006656	52	6090
2026-01-07 12:37:13.87	33.83	9.11	-39.4	-40.5	22.1	0.00e+00	0	37	0	218103808	52	6043
2026-01-07 12:37:14.88	33.95	9.17	-39.4	-40.4	21.3	0.00e+00	0	37	0	219152384	52	6004
2026-01-07 12:37:15.89	34.07	9.23	-39.4	-40.5	22.0	0.00e+00	0	37	0	221249536	52	6059
2026-01-07 12:37:16.90	34.20	9.29	-39.4	-40.5	22.1	0.00e+00	92	37	0	223346688	52	6066
2026-01-07 12:37:17.91	34.32	9.35	-39.4	-40.4	22.1	0.00e+00	53	37	0	225443840	52	6019
2026-01-07 12:37:18.92	34.45	9.41	-39.3	-40.4	22.1	0.00e+00	92	37	0	227540992	52	5991
2026-01-07 12:37:19.93	34.57	9.47	-39.4	-40.5	22.1	0.00e+00	48	37	0	228589568	52	6040
2026-01-07 12:37:20.94	34.70	9.53	-39.4	-40.5	22.1	0.00e+00	30	37	0	230686720	52	6061
2026-01-07 12:37:21.95	34.82	9.59	-39.4	-40.5	22.1	0.00e+00	51	37	0	232783872	52	6047
2026-01-07 12:37:22.96	34.95	9.65	-39.5	-40.5	22.0	0.00e+00	3	37	0	234881024	52	6099
2026-01-07 12:37:23.97	35.08	9.71	-39.6	-40.6	22.0	0.00e+00	91	37	0	236978176	52	6156
2026-01-07 12:37:24.98	35.21	9.77	-39.6	-40.7	22.0	0.00e+00	50	37	0	238026752	52	6228
2026-01-07 12:37:25.99	35.33	9.83	-39.7	-40.8	21.9	0.00e+00	92	37	0	240123904	52	6266
2026-01-07 12:37:27.00	35.46	9.89	-39.7	-40.8	21.9	0.00e+00	2	37	0	242221056	52	6258
2026-01-07 12:37:28.01	35.59	9.95	-39.7	-40.8	21.8	0.00e+00	90	37	0	244318208	52	6304
2026-01-07 12:37:29.02	35.72	10.01	-39.6	-40.7	21.9	0.00e+00	0	37	0	246415360	52	6222
2026-01-07 12:37:30.03	35.85	10.07	-39.7	-40.8	21.8	0.00e+00	0	37	0	247463936	52	6306
2026-01-07 12:37:31.03	35.98	10.13	-39.7	-40.8	21.8	0.00e+00	11	37	0	249561088	52	6314
2026-01-07 12:37:32.04	36.11	10.19	-39.6	-40.7	22.0	0.00e+00	0	37	0	251658240	52	6203
2026-01-07 12:37:33.05	36.25	10.25	-39.7	-40.8	21.9	0.00e+00	92	37	0	253755392	52	6247
2026-01-07 12:37:34.06	36.38	10.31	-39.5	-40.5	22.2	0.00e+00	33	37	0	255852544	52	6095
2026-01-07 12:37:35.07	36.51	10.37	-39.5	-40.5	22.1	0.00e+00	73	37	0	256901120	52	6098
2026-01-07 12:37:36.08	36.65	10.43	-39.5	-40.5	22.0	0.00e+00	34	37	0	258998272	52	6103
2026-01-07 12:37:37.09	36.78	10.50	-39.5	-40.5	22.1	0.00e+00	0	37	0	261095424	52	6078
2026-01-07 12:37:38.10	36.91	10.56	-39.5	-40.6	22.1	0.00e+00	0	37	0	263192576	52	6118
2026-01-07 12:37:39.11	37.05	10.62	-39.4	-40.5	22.2	0.00e+00	0	37	0	265289728	52	6047
2026-01-07 12:37:40.12	37.19	10.68	-39.5	-40.5	22.1	0.00e+00	92	37	0	267386880	52	6096
2026-01-07 12:37:41.13	37.32	10.74	-39.5	-40.6	22.1	0.00e+00	48	37	0	268435456	52	6120
2026-01-07 12:37:42.14	37.46	10.80	-39.6	-40.7	22.0	0.00e+00	90	37	0	270532608	52	6200
2026-01-07 12:37:43.15	37.60	10.86	-39.7	-40.8	22.0	0.00e+00	48	37	0	272629760	52	6253
2026-01-07 12:37:44.15	37.73	10.92	-39.5	-40.6	22.1	0.00e+00	47	37	0	274726912	52	6132
2026-01-07 12:37:45.16	37.87	10.98	-39.7	-40.8	21.9	0.00e+00	2	37	0	276824064	52	6300
2026-01-07 12:37:46.17	38.01	11.04	-39.5	-40.6	22.1	0.00e+00	0	37	0	277872640	52	6112
2026-01-07 12:37:47.18	38.15	11.10	-39.4	-40.5	22.2	0.00e+00	89	37	0	279969792	52	6054
2026-01-07 12:37:48.18	38.29	11.16	-39.5	-40.5	22.2	0.00e+00	2	37	0	282066944	52	6067
2026-01-07 12:37:49.19	38.43	11.22	-39.3	-40.3	22.4	0.00e+00	90	37	0	284164096	52	5931
2026-01-07 12:37:50.20	38.57	11.28	-39.2	-40.2	22.5	0.00e+00	0	37	0	285212672	52	5888
2026-01-07 12:37:51.21	38.71	11.34	-39.1	-40.1	22.5	0.00e+00	0	37	0	287309824	52	5819
2026-01-07 12:37:52.22	38.85	11.41	-39.1	-40.1	22.6	0.00e+00	0	37	0	289406976	52	5766
2026-01-07 12:37:53.23	39.00	11.47	-39.2	-40.2	22.5	0.00e+00	0	37	0	291504128	52	5832
2026-01-07 12:37:54.24	39.14	11.53	-39.1	-40.1	22.4	0.00e+00	0	37	0	293601280	52	5828
2026-01-07 12:37:55.25	39.28	11.59	-39.2	-40.2	22.5	0.00e+00	0	37	0	295698432	52	5865
2026-01-07 12:37:56.26	39.43	11.65	-39.2	-40.3	22.4	0.00e+00	92	37	0	296747008	52	5897
2026-01-07 12:37:57.27	39.57	11.71	-39.2	-40.2	22.5	0.00e+00	32	37	0	298844160	52	5864
2026-01-07 12:37:58.28	39.72	11.77	-39.3	-40.3	22.4	0.00e+00	87	37	0	300941312	52	5916
2026-01-07 12:37:59.29	39.87	11.83	-39.2	-40.2	22.4	0.00e+00	0	37	0	303038464	52	5888
2026-01-07 12:38:00.30	40.01	11.89	-39.1	-40.1	22.5	0.00e+00	0	37	0	305135616	52	5795
2026-01-07 12:38:01.31	40.16	11.95	-39.2	-40.2	22.5	0.00e+00	0	37	0	306184192	52	5847
2026-01-07 12:38:02.31	40.31	12.01	-39.2	-40.2	22.5	0.00e+00	0	37	0	308281344	52	5854
2026-01-07 12:38:03.32	40.46	12.07	-39.0	-40.0	22.6	0.00e+00	92	37	0	310378496	52	5748
2026-01-07 12:38:04.33	40.61	12.13	-39.1	-40.0	22.6	0.00e+00	32	37	0	312475648	52	5761
2026-01-07 12:38:05.34	40.76	12.19	-39.0	-40.0	22.7	0.00e+00	92	37	0	314572800	52	5728
2026-01-07 12:38:06.34	40.91	12.25	-39.0	-40.0	22.7	0.00e+00	32	37	0	315621376	52	5722
2026-01-07 12:38:07.35	41.06	12.31	-39.0	-39.9	22.8	0.00e+00	32	37	0	317718528	52	5690
2026-01-07 12:38:08.36	41.21	12.38	-39.0	-40.0	22.7	0.00e+00	55	37	0	319815680	52	5730
2026-01-07 12:38:09.37	41.36	12.44	-39.0	-39.9	22.8	0.00e+00	55	37	0	321912832	52	5684
2026-01-07 12:38:10.38	41.51	12.50	-39.0	-39.9	22.8	0.00e+00	11	37	0	324009984	52	5695
2026-01-07 12:38:11.39	41.67	12.56	-38.9	-39.9	22.8	0.00e+00	0	37	0	325058560	52	5639
2026-01-07 12:38:12.40	41.82	12.62	-38.8	-39.8	22.9	0.00e+00	90	37	0	327155712	52	5570
2026-01-07 12:38:13.41	41.98	12.68	-38.8	-39.8	23.0	0.00e+00	5	37	0	329252864	52	5569
2026-01-07 12:38:14.42	42.13	12.74	-38.7	-39.7	23.0	0.00e+00	92	37	0	331350016	52	5535
2026-01-07 12:38:15.43	42.29	12.80	-38.8	-39.8	22.9	0.00e+00	6	37	0	333447168	50	6261
2026-01-07 12:38:16.44	42.44	12.86	-38.9	-39.9	22.8	0.00e+00	6	37	0	334495744	50	6337
2026-01-07 12:38:17.44	42.60	12.92	-38.8	-39.8	22.9	0.00e+00	6	37	0	336592896	50	6277
2026-01-07 12:38:18.45	42.76	12.98	-38.8	-39.8	23.0	0.00e+00	6	37	0	338690048	50	6256
2026-01-07 12:38:19.46	42.92	13.04	-38.7	-39.6	23.1	0.00e+00	92	37	0	340787200	50	6140
2026-01-07 12:38:20.47	43.08	13.10	-38.8	-39.7	22.9	0.00e+00	0	37	0	342884352	50	6226
2026-01-07 12:38:21.48	43.23	13.16	-38.7	-39.7	23.0	0.00e+00	92	37	0	343932928	50	6199
2026-01-07 12:38:22.49	43.40	13.22	-38.7	-39.7	23.0	0.00e+00	32	37	0	346030080	50	6181
2026-01-07 12:38:23.50	43.56	13.28	-38.6	-39.5	23.1	0.00e+00	0	37	0	348127232	50	6085
2026-01-07 12:38:24.51	43.72	13.34	-38.3	-39.2	23.4	0.00e+00	23	37	0	350224384	50	5877
2026-01-07 12:38:25.52	43.88	13.40	-38.3	-39.2	23.4	0.00e+00	4	37	0	352321536	50	5858
2026-01-07 12:38:26.53	44.04	13.46	-38.2	-39.1	23.5	0.00e+00	92	37	0	353370112	50	5779
2026-01-07 12:38:27.54	44.21	13.52	-38.1	-39.0	23.4	0.00e+00	30	37	0	355467264	50	5724
2026-01-07 12:38:28.55	44.37	13.58	-38.2	-39.1	23.5	0.00e+00	91	37	0	357564416	50	5815
2026-01-07 12:38:29.56	44.54	13.64	-38.1	-39.0	23.5	0.00e+00	32	37	0	359661568	50	5756
2026-01-07 12:38:30.56	44.70	13.70	-38.2	-39.1	23.5	0.00e+00	52	37	0	361758720	50	5813
2026-01-07 12:38:31.57	44.87	13.76	-38.3	-39.2	23.5	0.00e+00	55	37	0	363855872	50	5872
2026-01-07 12:38:32.59	45.03	13.82	-38.1	-39.0	23.6	0.00e+00	53	37	0	364904448	50	5753
2026-01-07 12:38:33.59	45.20	13.87	-38.2	-39.1	23.5	0.00e+00	21	37	0	367001600	50	5779
2026-01-07 12:38:34.60	45.37	13.93	-38.1	-39.0	23.6	0.00e+00	52	37	0	369098752	50	5732
2026-01-07 12:38:35.61	45.54	13.99	-38.1	-39.0	23.7	0.00e+00	90	37	0	371195904	50	5723
2026-01-07 12:38:36.62	45.71	14.05	-38.0	-38.8	23.7	0.00e+00	0	37	0	373293056	50	5630
2026-01-07 12:38:37.63	45.88	14.11	-38.0	-38.9	23.8	0.00e+00	62	37	0	374341632	50	5640
2026-01-07 12:38:38.64	46.05	14.17	-37.7	-38.6	24.0	0.00e+00	7	37	0	376438784	50	5482
2026-01-07 12:38:39.65	46.22	14.23	-37.8	-38.6	23.9	0.00e+00	7	37	0	378535936	48	6161
2026-01-07 12:38:40.66	46.39	14.29	-37.7	-38.5	24.0	0.00e+00	0	37	0	380633088	48	6076
2026-01-07 12:38:41.67	46.56	14.35	-37.7	-38.6	23.9	0.00e+00	28	37	0	382730240	48	6140
2026-01-07 12:38:42.68	46.74	14.40	-37.8	-38.6	24.0	0.00e+00	92	37	0	383778816	48	6159
2026-01-07 12:38:43.69	46.91	14.46	-37.7	-38.5	24.0	0.00e+00	0	37	0	385875968	48	6076
2026-01-07 12:38:44.70	47.09	14.52	-37.9	-38.7	23.9	0.00e+00	92	37	0	387973120	48	6240
2026-01-07 12:38:45.71	47.26	14.58	-37.8	-38.6	23.8	0.00e+00	0	37	0	390070272	48	6165
2026-01-07 12:38:46.72	47.44	14.64	-37.9	-38.8	23.8	0.00e+00	33	37	0	392167424	48	6246
2026-01-07 12:38:47.73	47.61	14.69	-37.9	-38.7	23.9	0.00e+00	33	37	0	393216000	48	6238
2026-01-07 12:38:48.74	47.79	14.75	-38.0	-38.9	23.8	0.00e+00	33	37	0	395313152	48	6320
2026-01-07 12:38:49.75	47.97	14.81	-38.2	-39.1	23.5	0.00e+00	92	37	0	397410304	48	6496
2026-01-07 12:38:50.75	48.15	14.87	-37.9	-38.7	23.8	0.00e+00	34	37	0	399507456	48	6243
2026-01-07 12:38:51.76	48.32	14.92	-37.8	-38.6	24.0	0.00e+00	92	37	0	401604608	48	6165
2026-01-07 12:38:52.77	48.50	14.98	-37.8	-38.7	24.0	0.00e+00	48	37	0	402653184	48	6196
2026-01-07 12:38:53.78	48.69	15.04	-37.7	-38.6	24.0	0.00e+00	61	37	0	404750336	48	6129
2026-01-07 12:38:54.79	48.87	15.10	-37.8	-38.6	24.0	0.00e+00	2	37	0	406847488	48	6168
2026-01-07 12:38:55.80	49.05	15.15	-37.9	-38.8	23.8	0.00e+00	2	37	0	408944640	48	6308
2026-01-07 12:38:56.81	49.23	15.21	-38.1	-39.0	23.6	0.00e+00	72	37	0	411041792	48	6403
2026-01-07 12:38:57.82	49.42	15.27	-37.9	-38.8	23.8	0.00e+00	0	37	0	412090368	48	6299
2026-01-07 12:38:58.83	49.60	15.32	-38.1	-39.0	23.6	0.00e+00	92	37	0	414187520	48	6427
2026-01-07 12:38:59.84	49.78	15.38	-38.2	-39.1	23.6	0.00e+00	0	37	0	416284672	48	6497
2026-01-07 12:39:00.85	49.97	15.44	-38.3	-39.2	23.5	0.00e+00	90	37	0	418381824	48	6588
2026-01-07 12:39:01.86	50.16	15.49	-38.3	-39.2	23.6	0.00e+00	2	37	0	420478976	48	6559
2026-01-07 12:39:02.87	50.34	15.55	-38.2	-39.1	23.6	0.00e+00	0	37	0	421527552	48	6497
2026-01-07 12:39:03.87	50.53	15.60	-38.2	-39.1	23.5	0.00e+00	0	37	0	423624704	48	6528
2026-01-07 12:39:04.88	50.72	15.66	-38.3	-39.2	23.5	0.00e+00	32	37	0	425721856	48	6589
2026-01-07 12:39:05.90	50.91	15.72	-38.3	-39.3	23.4	0.00e+00	92	37	0	427819008	48	6617
2026-01-07 12:39:06.90	51.09	15.77	-38.4	-39.3	23.5	0.00e+00	0	37	0	429916160	48	6647
2026-01-07 12:39:07.91	51.28	15.83	-38.5	-39.4	23.3	0.00e+00	92	37	0	432013312	48	6714
2026-01-07 12:39:08.92	51.48	15.88	-38.5	-39.4	23.3	0.00e+00	55	37	0	433061888	48	6763
2026-01-07 12:39:09.93	51.67	15.94	-38.6	-39.5	23.3	0.00e+00	30	37	0	435159040	48	6826
2026-01-07 12:39:10.94	51.86	15.99	-38.7	-39.6	23.1	0.00e+00	53	37	0	437256192	48	6911
2026-01-07 12:39:11.95	52.05	16.04	-38.6	-39.6	23.2	0.00e+00	54	37	0	439353344	48	6854
2026-01-07 12:39:12.96	52.25	16.10	-38.8	-39.7	23.0	0.00e+00	92	37	0	441450496	48	6978
2026-01-07 12:39:13.97	52.44	16.15	-38.8	-39.8	23.0	0.00e+00	0	37	0	442499072	50	6272
2026-01-07 12:39:14.98	52.64	16.21	-38.8	-39.8	23.0	0.00e+00	92	37	0	444596224	50	6262
2026-01-07 12:39:15.99	52.83	16.26	-38.9	-39.9	22.9	0.00e+00	50	37	0	446693376	50	6353
2026-01-07 12:39:17.00	53.03	16.31	-38.9	-39.9	22.8	0.00e+00	90	37	0	448790528	50	6329
2026-01-07 12:39:18.01	53.22	16.37	-38.9	-39.9	22.5	0.00e+00	0	37	0	450887680	50	6346
2026-01-07 12:39:19.02	53.42	16.42	-38.9	-39.9	22.7	0.00e+00	2	37	0	451936256	50	6350
2026-01-07 12:39:20.03	53.62	16.47	-39.0	-40.0	22.8	0.00e+00	7	37	0	454033408	50	6413
2026-01-07 12:39:21.04	53.82	16.53	-38.9	-39.9	22.9	0.00e+00	0	37	0	456130560	50	6338
2026-01-07 12:39:22.05	54.02	16.58	-39.0	-40.0	22.9	0.00e+00	91	37	0	458227712	50	6430
2026-01-07 12:39:23.06	54.22	16.63	-39.1	-40.1	22.7	0.00e+00	0	37	0	460324864	50	6469
2026-01-07 12:39:24.07	54.42	16.68	-39.2	-40.2	22.6	0.00e+00	61	37	0	461373440	50	6564
2026-01-07 12:39:25.08	54.62	16.74	-39.3	-40.3	22.6	0.00e+00	35	37	0	463470592	50	6634
2026-01-07 12:39:26.09	54.83	16.79	-39.3	-40.3	22.6	0.00e+00	0	37	0	465567744	50	6639
2026-01-07 12:39:27.10	55.03	16.84	-39.2	-40.2	22.6	0.00e+00	0	37	0	467664896	50	6611
2026-01-07 12:39:28.11	55.23	16.89	-39.3	-40.3	22.6	0.00e+00	0	37	0	469762048	50	6623
2026-01-07 12:39:29.11	55.44	16.94	-39.5	-40.6	22.3	0.00e+00	91	37	0	470810624	50	6855
2026-01-07 12:39:30.13	55.64	16.99	-39.4	-40.4	22.5	0.00e+00	2	37	0	472907776	50	6728
2026-01-07 12:39:31.13	55.85	17.04	-39.5	-40.6	22.3	0.00e+00	92	37	0	475004928	50	6875
2026-01-07 12:39:32.15	56.06	17.09	-39.6	-40.6	22.2	0.00e+00	47	37	0	477102080	50	6887
2026-01-07 12:39:33.15	56.26	17.14	-39.7	-40.7	22.0	0.00e+00	34	37	0	479199232	50	6964
2026-01-07 12:39:34.17	56.47	17.19	-39.8	-40.9	22.0	0.00e+00	0	37	0	480247808	52	6357
2026-01-07 12:39:35.17	56.68	17.24	-40.0	-41.1	21.9	0.00e+00	45	37	0	482344960	52	6478
2026-01-07 12:39:36.19	56.89	17.29	-40.1	-41.2	21.8	0.00e+00	91	37	0	484442112	52	6547
2026-01-07 12:39:37.19	57.10	17.34	-40.0	-41.1	21.9	0.00e+00	2	37	0	486539264	52	6475
2026-01-07 12:39:38.20	57.31	17.39	-39.9	-41.0	21.9	0.00e+00	90	37	0	488636416	52	6424
2026-01-07 12:39:39.21	57.52	17.44	-39.8	-40.9	22.2	0.00e+00	0	37	0	489684992	52	6340
2026-01-07 12:39:40.23	57.73	17.48	-39.6	-40.7	22.2	0.00e+00	0	37	0	491782144	52	6197
2026-01-07 12:39:41.24	57.94	17.53	-39.6	-40.6	22.3	0.00e+00	0	37	0	493879296	52	6148
2026-01-07 12:39:42.25	58.16	17.58	-39.7	-40.7	22.3	0.00e+00	0	37	0	495976448	52	6226
2026-01-07 12:39:43.25	58.37	17.63	-39.6	-40.6	22.2	0.00e+00	0	37	0	498073600	52	6126
2026-01-07 12:39:44.26	58.58	17.67	-39.7	-40.7	22.3	0.00e+00	0	37	0	500170752	52	6214
2026-01-07 12:39:45.27	58.80	17.72	-39.6	-40.6	22.1	0.00e+00	90	37	0	501219328	52	6128
2026-01-07 12:39:46.28	59.02	17.77	-39.7	-40.8	22.1	0.00e+00	2	37	0	503316480	52	6268
2026-01-07 12:39:47.29	59.23	17.81	-39.7	-40.8	22.1	0.00e+00	0	37	0	505413632	52	6270
2026-01-07 12:39:48.30	59.45	17.86	-39.5	-40.6	22.3	0.00e+00	0	37	0	507510784	52	6118
2026-01-07 12:39:49.31	59.67	17.90	-39.5	-40.6	22.4	0.00e+00	33	37	0	509607936	52	6124
2026-01-07 12:39:50.32	59.89	17.95	-39.6	-40.6	22.3	0.00e+00	0	37	0	510656512	52	6135
2026-01-07 12:39:51.33	60.10	17.99	-39.5	-40.6	22.4	0.00e+00	32	37	0	512753664	52	6105
2026-01-07 12:39:52.34	60.32	18.04	-39.5	-40.5	22.3	0.00e+00	92	37	0	514850816	52	6063
2026-01-07 12:39:53.35	60.54	18.08	-39.4	-40.4	22.5	0.00e+00	49	37	0	516947968	52	6021
2026-01-07 12:39:54.36	60.77	18.13	-39.3	-40.2	22.6	0.00e+00	92	37	0	517996544	52	5892
2026-01-07 12:39:55.37	60.99	18.17	-39.2	-40.2	22.7	0.00e+00	0	37	0	520093696	52	5840
2026-01-07 12:39:56.38	61.21	18.21	-39.0	-40.0	22.9	0.00e+00	5	37	0	522190848	52	5696
2026-01-07 12:39:57.39	61.43	18.26	-38.8	-39.8	23.0	0.00e+00	47	37	0	524288000	52	5578
2026-01-07 12:39:58.40	61.66	18.30	-38.7	-39.7	23.1	0.00e+00	7	37	0	526385152	50	6192
2026-01-07 12:39:59.41	61.88	18.34	-38.8	-39.8	23.0	0.00e+00	22	37	0	528482304	50	6269
2026-01-07 12:40:00.42	62.10	18.38	-38.8	-39.7	22.7	0.00e+00	0	37	0	529530880	50	6225
2026-01-07 12:40:01.43	62.33	18.42	-38.8	-39.7	23.0	0.00e+00	92	37	0	531628032	50	6220
2026-01-07 12:40:02.44	62.56	18.46	-38.8	-39.8	23.1	0.00e+00	0	37	0	533725184	50	6276
2026-01-07 12:40:03.45	62.78	18.50	-38.9	-39.8	23.0	0.00e+00	0	37	0	535822336	50	6312
2026-01-07 12:40:04.45	63.01	18.54	-38.9	-39.9	23.0	0.00e+00	0	37	0	537919488	50	6363
2026-01-07 12:40:05.46	63.23	18.58	-38.9	-39.9	23.0	0.00e+00	0	37	0	538968064	50	6360
2026-01-07 12:40:06.47	63.46	18.62	-39.0	-40.0	22.8	0.00e+00	37	37	0	541065216	50	6444
2026-01-07 12:40:07.48	63.69	18.66	-38.9	-40.0	22.8	0.00e+00	0	37	0	543162368	50	6405
2026-01-07 12:40:08.49	63.92	18.70	-39.1	-40.1	22.7	0.00e+00	90	37	0	545259520	50	6515
2026-01-07 12:40:09.50	64.15	18.74	-39.1	-40.1	22.7	0.00e+00	5	37	0	547356672	50	6525
2026-01-07 12:40:10.51	64.38	18.78	-39.1	-40.1	22.7	0.00e+00	29	37	0	548405248	50	6527
2026-01-07 12:40:11.52	64.61	18.82	-38.9	-39.9	22.9	0.00e+00	25	37	0	550502400	50	6368
2026-01-07 12:40:12.53	64.84	18.85	-39.0	-40.0	22.8	0.00e+00	58	37	0	552599552	50	6398
2026-01-07 12:40:13.54	65.08	18.89	-38.8	-39.8	23.1	0.00e+00	14	37	0	554696704	50	6267
2026-01-07 12:40:14.55	65.31	18.93	-38.9	-39.9	23.0	0.00e+00	60	37	0	556793856	50	6320
2026-01-07 12:40:15.56	65.54	18.96	-38.7	-39.7	23.1	0.00e+00	91	37	0	557842432	50	6198
2026-01-07 12:40:16.57	65.78	19.00	-38.8	-39.7	23.1	0.00e+00	7	37	0	559939584	50	6224
2026-01-07 12:40:17.58	66.01	19.03	-38.8	-39.8	23.1	0.00e+00	92	37	0	562036736	50	6247
2026-01-07 12:40:18.59	66.24	19.07	-38.7	-39.7	23.1	0.00e+00	51	37	0	564133888	50	6199
2026-01-07 12:40:19.60	66.48	19.10	-38.7	-39.7	23.2	0.00e+00	8	37	0	566231040	50	6193
2026-01-07 12:40:20.61	66.72	19.14	-38.8	-39.8	23.1	0.00e+00	55	37	0	567279616	50	6249
2026-01-07 12:40:21.62	66.95	19.17	-38.8	-39.8	23.0	0.00e+00	0	37	0	569376768	50	6257
2026-01-07 12:40:22.63	67.19	19.20	-38.9	-39.9	22.9	0.00e+00	90	37	0	571473920	50	6358
2026-01-07 12:40:23.64	67.43	19.24	-38.9	-39.8	23.0	0.00e+00	0	37	0	573571072	50	6308
2026-01-07 12:40:24.65	67.67	19.27	-38.9	-39.9	22.9	0.00e+00	92	37	0	575668224	50	6328
2026-01-07 12:40:25.66	67.90	19.30	-38.8	-39.8	23.0	0.00e+00	0	37	0	576716800	50	6290
2026-01-07 12:40:26.66	68.14	19.33	-38.8	-39.8	23.0	0.00e+00	0	37	0	578813952	50	6272
2026-01-07 12:40:27.67	68.38	19.36	-38.8	-39.7	23.1	0.00e+00	34	37	0	580911104	50	6242
2026-01-07 12:40:28.69	68.62	19.39	-38.7	-39.7	23.2	0.00e+00	34	37	0	583008256	50	6180
2026-01-07 12:40:29.69	68.86	19.42	-38.6	-39.5	23.3	0.00e+00	35	37	0	585105408	50	6093
2026-01-07 12:40:30.70	69.10	19.45	-38.5	-39.4	23.4	0.00e+00	33	37	0	586153984	50	6022
2026-01-07 12:40:31.71	69.34	19.48	-38.6	-39.5	23.3	0.00e+00	92	37	0	588251136	50	6061
2026-01-07 12:40:32.72	69.58	19.51	-38.5	-39.5	23.4	0.00e+00	35	37	0	590348288	50	6036
2026-01-07 12:40:33.73	69.83	19.54	-38.5	-39.4	23.4	0.00e+00	90	37	0	592445440	50	6018
2026-01-07 12:40:34.74	70.07	19.57	-38.7	-39.6	23.3	0.00e+00	48	37	0	594542592	50	6170
2026-01-07 12:40:35.75	70.31	19.59	-38.7	-39.6	23.2	0.00e+00	34	37	0	596639744	50	6151
2026-01-07 12:40:36.76	70.55	19.62	-38.7	-39.7	23.1	0.00e+00	0	37	0	597688320	50	6185
2026-01-07 12:40:37.77	70.80	19.65	-38.8	-39.7	23.1	0.00e+00	52	37	0	599785472	50	6222
2026-01-07 12:40:38.78	71.04	19.67	-38.5	-39.4	23.4	0.00e+00	90	37	0	601882624	50	6012
2026-01-07 12:40:39.79	71.29	19.70	-38.5	-39.4	23.4	0.00e+00	0	37	0	603979776	50	6022
2026-01-07 12:40:40.80	71.53	19.72	-38.4	-39.3	23.5	0.00e+00	90	37	0	606076928	50	5903
2026-01-07 12:40:41.81	71.78	19.75	-38.4	-39.3	23.5	0.00e+00	0	37	0	607125504	50	5951
2026-01-07 12:40:42.82	72.02	19.77	-38.6	-39.5	23.3	0.00e+00	0	37	0	609222656	50	6057
2026-01-07 12:40:43.84	72.27	19.79	-38.5	-39.4	23.4	0.00e+00	0	37	0	611319808	50	6027
2026-01-07 12:40:44.85	72.52	19.82	-38.6	-39.6	23.2	0.00e+00	0	37	0	613416960	50	6118
2026-01-07 12:40:45.86	72.77	19.84	-38.8	-39.7	23.1	0.00e+00	92	37	0	615514112	50	6229
2026-01-07 12:40:46.87	73.01	19.86	-39.0	-40.0	22.9	0.00e+00	0	37	0	616562688	50	6412
2026-01-07 12:40:47.88	73.26	19.88	-39.3	-40.3	22.6	0.00e+00	90	37	0	618659840	50	6619
2026-01-07 12:40:48.89	73.51	19.90	-39.5	-40.5	22.4	0.00e+00	0	37	0	620756992	50	6798
2026-01-07 12:40:49.89	73.76	19.92	-39.5	-40.5	22.4	0.00e+00	34	37	0	622854144	50	6827
2026-01-07 12:40:50.90	74.00	19.94	-39.5	-40.5	22.4	0.00e+00	0	37	0	624951296	50	6834
2026-01-07 12:40:51.91	74.25	19.96	-39.3	-40.3	22.6	0.00e+00	33	37	0	625999872	50	6655
2026-01-07 12:40:52.92	74.50	19.98	-39.1	-40.1	22.7	0.00e+00	14	37	0	628097024	50	6504
2026-01-07 12:40:53.93	74.75	20.00	-38.9	-39.9	23.0	0.00e+00	48	37	0	630194176	50	6340
2026-01-07 12:40:54.94	75.00	20.02	-38.8	-39.7	23.1	0.00e+00	92	37	0	632291328	50	6213
2026-01-07 12:40:55.95	75.25	20.03	-38.7	-39.6	23.2	0.00e+00	33	37	0	634388480	50	6173
2026-01-07 12:40:56.96	75.50	20.05	-38.7	-39.7	23.2	0.00e+00	37	37	0	636485632	50	6189
2026-01-07 12:40:57.97	75.75	20.07	-38.8	-39.8	23.1	0.00e+00	2	37	0	637534208	50	6252
2026-01-07 12:40:58.98	76.00	20.08	-38.9	-39.8	22.9	0.00e+00	0	37	0	639631360	50	6312
2026-01-07 12:40:59.99	76.26	20.10	-39.1	-40.0	22.9	0.00e+00	0	37	0	641728512	50	6447
2026-01-07 12:41:01.00	76.51	20.11	-39.1	-40.1	22.8	0.00e+00	46	37	0	643825664	50	6469
2026-01-07 12:41:02.01	76.76	20.13	-39.3	-40.3	22.7	0.00e+00	92	37	0	644874240	50	6660
2026-01-07 12:41:03.02	77.01	20.14	-39.3	-40.3	22.7	0.00e+00	0	37	0	646971392	50	6648
2026-01-07 12:41:04.03	77.26	20.15	-39.2	-40.2	22.7	0.00e+00	92	37	0	649068544	50	6606
2026-01-07 12:41:05.04	77.51	20.16	-39.3	-40.3	22.7	0.00e+00	0	37	0	651165696	50	6642
2026-01-07 12:41:06.04	77.76	20.18	-39.3	-40.2	22.7	0.00e+00	0	37	0	653262848	50	6612
2026-01-07 12:41:07.05	78.02	20.19	-39.2	-40.2	22.8	0.00e+00	0	37	0	654311424	50	6555
2026-01-07 12:41:08.06	78.27	20.20	-39.3	-40.3	22.6	0.00e+00	0	37	0	656408576	50	6648
2026-01-07 12:41:09.07	78.52	20.21	-39.4	-40.4	22.5	0.00e+00	10	37	0	658505728	50	6737
2026-01-07 12:41:10.08	78.78	20.22	-39.6	-40.7	22.3	0.00e+00	0	37	0	660602880	50	6937
2026-01-07 12:41:11.09	79.03	20.23	-39.7	-40.7	22.3	0.00e+00	90	37	0	662700032	50	6983
2026-01-07 12:41:12.10	79.28	20.24	-39.7	-40.8	22.2	0.00e+00	0	37	0	664797184	50	7011
2026-01-07 12:41:13.11	79.54	20.24	-39.8	-40.9	22.2	0.00e+00	53	37	0	665845760	52	6330
2026-01-07 12:41:14.12	79.79	20.25	-39.7	-40.8	22.3	0.00e+00	0	37	0	667942912	52	6255
2026-01-07 12:41:15.13	80.04	20.26	-39.6	-40.6	22.4	0.00e+00	0	37	0	670040064	52	6155
2026-01-07 12:41:16.14	80.30	20.26	-39.6	-40.7	22.3	0.00e+00	5	37	0	672137216	52	6203
2026-01-07 12:41:17.15	80.55	20.27	-39.7	-40.7	22.3	0.00e+00	36	37	0	674234368	52	6232
2026-01-07 12:41:18.16	80.81	20.27	-39.6	-40.7	22.2	0.00e+00	92	37	0	675282944	52	6221
2026-01-07 12:41:19.17	81.06	20.28	-39.5	-40.6	22.4	0.00e+00	48	37	0	677380096	52	6128
2026-01-07 12:41:20.18	81.32	20.28	-39.4	-40.5	22.4	0.00e+00	92	37	0	679477248	52	6036
2026-01-07 12:41:21.18	81.57	20.29	-39.3	-40.3	22.7	0.00e+00	0	37	0	681574400	52	5923
2026-01-07 12:41:22.19	81.82	20.29	-39.1	-40.1	22.9	0.00e+00	0	37	0	683671552	52	5798
2026-01-07 12:41:23.20	82.08	20.29	-39.2	-40.2	22.8	0.00e+00	0	37	0	684720128	52	5857
2026-01-07 12:41:24.21	82.33	20.29	-39.2	-40.1	22.8	0.00e+00	0	37	0	686817280	52	5817
2026-01-07 12:41:25.22	82.59	20.30	-38.9	-39.8	23.1	0.00e+00	92	37	0	688914432	52	5605
2026-01-07 12:41:26.23	82.84	20.30	-38.8	-39.7	23.1	0.00e+00	0	37	0	691011584	52	5542
2026-01-07 12:41:27.24	83.10	20.30	-38.7	-39.6	23.2	0.00e+00	92	37	0	693108736	50	6151
2026-01-07 12:41:28.25	83.35	20.30	-38.8	-39.8	23.2	0.00e+00	0	37	0	694157312	50	6276
2026-01-07 12:41:29.26	83.60	20.30	-38.9	-39.9	22.9	0.00e+00	0	37	0	696254464	50	6322
2026-01-07 12:41:30.27	83.86	20.29	-39.1	-40.1	22.8	0.00e+00	0	37	0	698351616	50	6493
2026-01-07 12:41:31.28	84.11	20.29	-39.2	-40.2	22.1	0.00e+00	0	37	0	700448768	50	6602
2026-01-07 12:41:32.29	84.37	20.29	-39.4	-40.4	22.5	0.00e+00	77	37	0	702545920	50	6758
2026-01-07 12:41:33.30	84.62	20.29	-39.5	-40.5	22.5	0.00e+00	34	37	0	703594496	50	6785
2026-01-07 12:41:34.31	84.88	20.28	-39.3	-40.3	22.7	0.00e+00	92	37	0	705691648	50	6642
2026-01-07 12:41:35.32	85.13	20.28	-39.3	-40.3	22.7	0.00e+00	47	37	0	707788800	50	6636
2026-01-07 12:41:36.33	85.39	20.27	-39.2	-40.2	22.8	0.00e+00	50	37	0	709885952	50	6552
2026-01-07 12:41:37.34	85.64	20.27	-39.3	-40.3	22.6	0.00e+00	55	37	0	711983104	50	6647
2026-01-07 12:41:38.35	85.90	20.26	-39.3	-40.3	22.7	0.00e+00	0	37	0	713031680	50	6662
2026-01-07 12:41:39.36	86.15	20.26	-39.4	-40.4	22.6	0.00e+00	0	37	0	715128832	50	6694
2026-01-07 12:41:40.37	86.40	20.25	-39.3	-40.3	22.6	0.00e+00	7	37	0	717225984	50	6684
2026-01-07 12:41:41.38	86.66	20.24	-39.4	-40.4	22.5	0.00e+00	90	37	0	719323136	50	6740
2026-01-07 12:41:42.39	86.91	20.23	-39.5	-40.5	22.4	0.00e+00	55	37	0	721420288	50	6814
2026-01-07 12:41:43.40	87.16	20.22	-39.4	-40.5	22.5	0.00e+00	92	37	0	722468864	50	6784
2026-01-07 12:41:44.41	87.42	20.21	-39.3	-40.3	22.6	0.00e+00	6	37	0	724566016	50	6663
2026-01-07 12:41:45.42	87.67	20.20	-39.3	-40.3	22.6	0.00e+00	0	37	0	726663168	50	6687
2026-01-07 12:41:46.43	87.92	20.19	-39.4	-40.4	22.6	0.00e+00	5	37	0	728760320	50	6722
2026-01-07 12:41:47.44	88.18	20.18	-39.5	-40.5	22.5	0.00e+00	0	37	0	730857472	50	6808
2026-01-07 12:41:48.45	88.43	20.17	-39.1	-40.1	22.8	0.00e+00	92	37	0	732954624	50	6510
2026-01-07 12:41:49.46	88.68	20.16	-38.8	-39.7	23.2	0.00e+00	5	37	0	734003200	50	6219
2026-01-07 12:41:50.47	88.94	20.15	-38.6	-39.5	23.4	0.00e+00	90	37	0	736100352	50	6044
2026-01-07 12:41:51.47	89.19	20.13	-38.5	-39.4	23.4	0.00e+00	33	37	0	738197504	50	5989
2026-01-07 12:41:52.49	89.44	20.12	-38.6	-39.5	23.3	0.00e+00	13	37	0	740294656	50	6061
2026-01-07 12:41:53.49	89.69	20.11	-38.7	-39.6	23.0	0.00e+00	0	37	0	742391808	50	6149
2026-01-07 12:41:54.50	89.94	20.09	-38.8	-39.8	23.0	0.00e+00	33	37	0	743440384	50	6249
2026-01-07 12:41:55.51	90.19	20.08	-39.0	-40.0	22.9	0.00e+00	91	37	0	745537536	50	6404
2026-01-07 12:41:56.52	90.44	20.06	-39.1	-40.0	22.8	0.00e+00	54	37	0	747634688	50	6459
2026-01-07 12:41:57.53	90.69	20.04	-39.2	-40.2	22.8	0.00e+00	92	37	0	749731840	50	6552
2026-01-07 12:41:58.53	90.94	20.03	-39.0	-40.0	22.9	0.00e+00	53	37	0	751828992	50	6427
2026-01-07 12:41:59.54	91.19	20.01	-38.9	-39.8	22.9	0.00e+00	92	37	0	752877568	50	6315
2026-01-07 12:42:00.55	91.44	19.99	-38.7	-39.6	23.3	0.00e+00	32	37	0	754974720	50	6141
2026-01-07 12:42:01.56	91.69	19.97	-38.6	-39.5	23.3	0.00e+00	7	37	0	757071872	50	6103
2026-01-07 12:42:02.57	91.94	19.96	-38.3	-39.2	23.5	0.00e+00	28	37	0	759169024	50	5873
2026-01-07 12:42:03.58	92.19	19.94	-38.2	-39.1	23.7	0.00e+00	58	37	0	761266176	50	5777
2026-01-07 12:42:04.59	92.44	19.92	-38.1	-39.0	23.7	0.00e+00	92	37	0	762314752	50	5746
2026-01-07 12:42:05.60	92.69	19.90	-38.0	-38.9	23.8	0.00e+00	52	37	0	764411904	50	5652
2026-01-07 12:42:06.61	92.94	19.87	-38.2	-39.1	23.6	0.00e+00	92	37	0	766509056	50	5811
2026-01-07 12:42:07.62	93.19	19.85	-37.9	-38.7	23.9	0.00e+00	0	37	0	768606208	50	5543
2026-01-07 12:42:08.63	93.43	19.83	-37.8	-38.6	23.4	0.00e+00	0	37	0	770703360	50	5488
2026-01-07 12:42:09.64	93.68	19.81	-37.8	-38.7	24.0	0.00e+00	0	37	0	771751936	48	6196
2026-01-07 12:42:10.65	93.93	19.79	-37.8	-38.7	24.0	0.00e+00	0	37	0	773849088	48	6208
2026-01-07 12:42:11.66	94.17	19.76	-38.2	-39.1	23.7	0.00e+00	92	37	0	775946240	48	6467
2026-01-07 12:42:12.67	94.42	19.74	-38.3	-39.2	23.6	0.00e+00	0	37	0	778043392	48	6603
2026-01-07 12:42:13.68	94.67	19.71	-38.3	-39.3	23.5	0.00e+00	92	37	0	780140544	48	6619
2026-01-07 12:42:14.69	94.91	19.69	-38.3	-39.2	23.4	0.00e+00	0	37	0	781189120	48	6609
2026-01-07 12:42:15.70	95.16	19.66	-38.2	-39.1	23.6	0.00e+00	92	37	0	783286272	48	6479
2026-01-07 12:42:16.71	95.40	19.64	-38.0	-38.9	23.8	0.00e+00	33	37	0	785383424	48	6351
2026-01-07 12:42:17.72	95.65	19.61	-38.1	-39.0	23.7	0.00e+00	48	37	0	787480576	48	6430
2026-01-07 12:42:18.73	95.89	19.58	-37.9	-38.9	23.8	0.00e+00	89	37	0	789577728	48	6324
2026-01-07 12:42:19.74	96.13	19.56	-37.9	-38.8	23.9	0.00e+00	49	37	0	790626304	48	6272
2026-01-07 12:42:20.75	96.38	19.53	-37.9	-38.8	23.9	0.00e+00	92	37	0	792723456	48	6255
2026-01-07 12:42:21.75	96.62	19.50	-37.5	-38.4	24.3	0.00e+00	47	37	0	794820608	48	5987
2026-01-07 12:42:22.76	96.86	19.47	-37.3	-38.2	24.4	0.00e+00	92	37	0	796917760	48	5845
2026-01-07 12:42:23.77	97.10	19.44	-37.0	-37.9	24.7	0.00e+00	48	37	0	799014912	48	5637
2026-01-07 12:42:24.78	97.34	19.41	-37.0	-37.8	24.8	0.00e+00	48	37	0	801112064	48	5612
2026-01-07 12:42:25.79	97.58	19.38	-37.0	-37.8	24.8	0.00e+00	63	37	0	802160640	48	5590
2026-01-07 12:42:26.80	97.82	19.35	-37.0	-37.9	24.7	0.00e+00	2	37	0	804257792	48	5640
2026-01-07 12:42:27.81	98.06	19.32	-37.2	-38.0	24.6	0.00e+00	92	37	0	806354944	48	5735
2026-01-07 12:42:28.82	98.30	19.29	-37.3	-38.1	24.5	0.00e+00	2	37	0	808452096	48	5820
2026-01-07 12:42:29.83	98.54	19.26	-37.3	-38.2	24.4	0.00e+00	90	37	0	810549248	48	5844
2026-01-07 12:42:30.84	98.78	19.22	-37.5	-38.3	24.3	0.00e+00	0	37	0	811597824	48	5948
2026-01-07 12:42:31.85	99.02	19.19	-37.6	-38.4	24.2	0.00e+00	0	37	0	813694976	48	6003
2026-01-07 12:42:32.86	99.25	19.16	-37.5	-38.4	24.3	0.00e+00	0	37	0	815792128	48	5967
2026-01-07 12:42:33.87	99.49	19.12	-37.6	-38.5	24.1	0.00e+00	32	37	0	817889280	48	6051
2026-01-07 12:42:34.88	99.73	19.09	-37.6	-38.5	24.1	0.00e+00	91	37	0	819986432	48	6045
2026-01-07 12:42:35.89	99.96	19.05	-37.6	-38.4	24.2	0.00e+00	0	37	0	821035008	48	6027
2026-01-07 12:42:36.90	100.20	19.02	-37.5	-38.4	24.3	0.00e+00	92	37	0	823132160	48	5980
2026-01-07 12:42:37.91	100.43	18.98	-37.3	-38.1	24.5	0.00e+00	52	37	0	825229312	48	5789
2026-01-07 12:42:38.92	100.67	18.95	-37.2	-38.0	24.6	0.00e+00	92	37	0	827326464	48	5718
2026-01-07 12:42:39.93	100.90	18.91	-37.0	-37.8	24.8	0.00e+00	29	37	0	829423616	48	5614
2026-01-07 12:42:40.94	101.13	18.87	-36.8	-37.6	24.9	0.00e+00	54	37	0	830472192	48	5493
2026-01-07 12:42:41.96	101.37	18.84	-36.8	-37.6	24.9	0.00e+00	0	37	0	832569344	46	6109
2026-01-07 12:42:42.97	101.60	18.80	-36.7	-37.4	25.0	0.00e+00	0	37	0	834666496	46	6024
2026-01-07 12:42:43.97	101.83	18.76	-36.7	-37.5	25.0	0.00e+00	90	37	0	836763648	46	6052
2026-01-07 12:42:44.98	102.06	18.72	-36.6	-37.3	25.1	0.00e+00	55	37	0	838860800	46	5961
2026-01-07 12:42:45.99	102.29	18.69	-36.6	-37.3	25.1	0.00e+00	92	37	0	839909376	46	5957
2026-01-07 12:42:47.00	102.52	18.65	-36.5	-37.3	25.2	0.00e+00	2	37	0	842006528	46	5945
2026-01-07 12:42:48.01	102.75	18.61	-36.6	-37.4	25.1	0.00e+00	0	37	0	844103680	46	6002
2026-01-07 12:42:49.02	102.98	18.57	-36.8	-37.6	24.9	0.00e+00	0	37	0	846200832	46	6104
2026-01-07 12:42:50.03	103.21	18.53	-36.9	-37.7	24.8	0.00e+00	0	37	0	848297984	46	6209
2026-01-07 12:42:51.04	103.43	18.49	-37.1	-37.9	24.6	0.00e+00	92	37	0	849346560	46	6336
2026-01-07 12:42:52.05	103.66	18.44	-37.2	-38.0	24.3	0.00e+00	2	37	0	851443712	46	6460
2026-01-07 12:42:53.06	103.89	18.40	-37.3	-38.2	24.4	0.00e+00	92	37	0	853540864	46	6563
2026-01-07 12:42:54.07	104.11	18.36	-37.5	-38.4	24.2	0.00e+00	0	37	0	855638016	46	6712
2026-01-07 12:42:55.08	104.34	18.32	-37.6	-38.4	24.2	0.00e+00	34	37	0	857735168	46	6755
2026-01-07 12:42:56.09	104.56	18.28	-37.5	-38.4	24.3	0.00e+00	0	37	0	858783744	46	6730
2026-01-07 12:42:57.10	104.79	18.23	-37.4	-38.3	24.3	0.00e+00	34	37	0	860880896	46	6648
2026-01-07 12:42:58.11	105.01	18.19	-37.4	-38.3	24.3	0.00e+00	92	37	0	862978048	46	6644
2026-01-07 12:42:59.12	105.23	18.15	-37.5	-38.4	24.2	0.00e+00	0	37	0	865075200	46	6723
2026-01-07 12:43:00.13	105.45	18.10	-37.7	-38.6	24.0	0.00e+00	92	37	0	867172352	46	6864
2026-01-07 12:43:01.14	105.68	18.06	-37.8	-38.7	24.0	0.00e+00	48	37	0	869269504	48	6220
2026-01-07 12:43:02.15	105.90	18.01	-37.8	-38.7	24.0	0.00e+00	92	37	0	870318080	48	6210
2026-01-07 12:43:03.16	106.12	17.97	-37.9	-38.8	23.9	0.00e+00	34	37	0	872415232	48	6266
2026-01-07 12:43:04.17	106.34	17.92	-37.8	-38.8	23.7	0.00e+00	0	37	0	874512384	48	6248
2026-01-07 12:43:05.18	106.56	17.88	-37.7	-38.6	24.0	0.00e+00	2	37	0	876609536	48	6146
2026-01-07 12:43:06.19	106.77	17.83	-37.9	-38.8	23.9	0.00e+00	2	37	0	878706688	48	6297
2026-01-07 12:43:07.20	106.99	17.79	-37.9	-38.8	23.9	0.00e+00	92	37	0	879755264	48	6293
2026-01-07 12:43:08.20	107.21	17.74	-38.2	-39.1	23.4	0.00e+00	0	37	0	881852416	48	6509
2026-01-07 12:43:09.21	107.42	17.69	-38.3	-39.2	23.4	0.00e+00	92	37	0	883949568	48	6610
2026-01-07 12:43:10.22	107.64	17.65	-38.3	-39.3	23.4	0.00e+00	0	37	0	886046720	48	6631
2026-01-07 12:43:11.23	107.85	17.60	-38.4	-39.4	23.3	0.00e+00	0	37	0	888143872	48	6709
2026-01-07 12:43:12.24	108.07	17.55	-38.4	-39.3	23.5	0.00e+00	0	37	0	889192448	48	6679
2026-01-07 12:43:13.25	108.28	17.51	-38.3	-39.3	23.5	0.00e+00	0	37	0	891289600	48	6629
2026-01-07 12:43:14.25	108.49	17.46	-38.3	-39.2	23.5	0.00e+00	91	37	0	893386752	48	6607
2026-01-07 12:43:15.26	108.70	17.41	-38.3	-39.2	23.5	0.00e+00	0	37	0	895483904	48	6596
2026-01-07 12:43:16.27	108.92	17.36	-38.4	-39.3	23.3	0.00e+00	90	37	0	897581056	48	6687
2026-01-07 12:43:17.28	109.13	17.31	-38.5	-39.4	23.3	0.00e+00	0	37	0	898629632	48	6738
2026-01-07 12:43:18.29	109.34	17.26	-38.7	-39.7	23.1	0.00e+00	30	37	0	900726784	48	6954
2026-01-07 12:43:19.30	109.55	17.21	-38.9	-39.8	22.8	0.00e+00	18	37	0	902823936	50	6302
2026-01-07 12:43:20.31	109.76	17.16	-39.0	-40.0	22.8	0.00e+00	50	37	0	904921088	50	6430
2026-01-07 12:43:21.32	109.96	17.11	-39.0	-40.0	22.9	0.00e+00	78	37	0	907018240	50	6394
2026-01-07 12:43:22.33	110.17	17.06	-39.1	-40.1	22.8	0.00e+00	0	37	0	908066816	50	6471
2026-01-07 12:43:23.34	110.38	17.01	-38.7	-39.7	23.1	0.00e+00	92	37	0	910163968	50	6191
2026-01-07 12:43:24.35	110.59	16.96	-38.8	-39.7	23.0	0.00e+00	30	37	0	912261120	50	6243
2026-01-07 12:43:25.36	110.79	16.91	-38.7	-39.7	23.1	0.00e+00	92	37	0	914358272	50	6186
2026-01-07 12:43:26.36	110.99	16.86	-38.6	-39.6	23.2	0.00e+00	6	37	0	916455424	50	6116
2026-01-07 12:43:27.38	111.20	16.81	-38.7	-39.7	23.0	0.00e+00	5	37	0	917504000	50	6212
2026-01-07 12:43:28.38	111.40	16.76	-38.5	-39.5	23.3	0.00e+00	16	37	0	919601152	50	6049
2026-01-07 12:43:29.39	111.61	16.70	-38.6	-39.6	23.1	0.00e+00	6	37	0	921698304	50	6129
2026-01-07 12:43:30.40	111.81	16.65	-38.6	-39.5	23.2	0.00e+00	92	37	0	923795456	50	6099
2026-01-07 12:43:31.41	112.01	16.60	-38.7	-39.7	23.0	0.00e+00	7	37	0	925892608	50	6180
2026-01-07 12:43:32.42	112.21	16.55	-38.8	-39.8	23.0	0.00e+00	90	37	0	926941184	50	6270
2026-01-07 12:43:33.43	112.41	16.49	-38.9	-39.9	22.9	0.00e+00	0	37	0	929038336	50	6335
2026-01-07 12:43:34.44	112.61	16.44	-38.9	-39.9	22.9	0.00e+00	0	37	0	931135488	50	6340
2026-01-07 12:43:35.45	112.81	16.39	-38.9	-39.9	22.8	0.00e+00	6	37	0	933232640	50	6364
2026-01-07 12:43:36.46	113.01	16.33	-38.8	-39.8	22.9	0.00e+00	32	37	0	935329792	50	6262
2026-01-07 12:43:37.47	113.20	16.28	-38.7	-39.7	23.1	0.00e+00	92	37	0	937426944	50	6209
2026-01-07 12:43:38.48	113.40	16.23	-38.5	-39.5	23.3	0.00e+00	0	37	0	938475520	50	6041
2026-01-07 12:43:39.49	113.60	16.17	-38.4	-39.3	23.4	0.00e+00	92	37	0	940572672	50	5937
2026-01-07 12:43:40.50	113.79	16.12	-38.2	-39.1	23.5	0.00e+00	24	37	0	942669824	50	5818
2026-01-07 12:43:41.51	113.99	16.06	-38.0	-38.8	23.8	0.00e+00	0	37	0	944766976	50	5623
2026-01-07 12:43:42.52	114.18	16.01	-37.9	-38.8	23.9	0.00e+00	21	37	0	946864128	50	5581
2026-01-07 12:43:43.53	114.38	15.95	-37.8	-38.7	23.8	0.00e+00	26	37	0	947912704	50	5546
2026-01-07 12:43:44.54	114.57	15.90	-37.9	-38.8	23.8	0.00e+00	66	37	0	950009856	50	5584
2026-01-07 12:43:45.54	114.76	15.84	-37.9	-38.7	23.9	0.00e+00	0	37	0	952107008	50	5564
2026-01-07 12:43:46.55	114.95	15.79	-37.9	-38.8	23.8	0.00e+00	92	37	0	954204160	50	5599
2026-01-07 12:43:47.57	115.14	15.73	-38.0	-38.9	23.5	0.00e+00	8	37	0	956301312	50	5650
2026-01-07 12:43:48.57	115.33	15.68	-38.1	-39.0	23.5	0.00e+00	91	37	0	957349888	50	5710
2026-01-07 12:43:49.58	115.52	15.62	-38.2	-39.1	23.5	0.00e+00	6	37	0	959447040	50	5789
2026-01-07 12:43:50.59	115.71	15.56	-38.4	-39.4	23.2	0.00e+00	56	37	0	961544192	50	5975
2026-01-07 12:43:51.60	115.90	15.51	-38.8	-39.8	22.9	0.00e+00	12	37	0	963641344	50	6246
2026-01-07 12:43:52.61	116.08	15.45	-39.1	-40.1	22.6	0.00e+00	0	37	0	965738496	50	6506
2026-01-07 12:43:53.62	116.27	15.39	-39.3	-40.4	22.4	0.00e+00	92	37	0	966787072	50	6693
2026-01-07 12:43:54.63	116.46	15.34	-39.3	-40.4	22.4	0.00e+00	0	37	0	968884224	50	6696
2026-01-07 12:43:55.64	116.64	15.28	-39.2	-40.3	22.4	0.00e+00	90	37	0	970981376	50	6651
2026-01-07 12:43:56.65	116.83	15.22	-39.3	-40.3	22.4	0.00e+00	7	37	0	973078528	50	6688
2026-01-07 12:43:57.66	117.01	15.17	-38.9	-39.8	22.8	0.00e+00	0	37	0	975175680	50	6316
2026-01-07 12:43:58.67	117.19	15.11	-38.7	-39.6	23.0	0.00e+00	6	37	0	976224256	50	6163
2026-01-07 12:43:59.68	117.37	15.05	-38.4	-39.4	23.3	0.00e+00	32	37	0	978321408	50	5968
2026-01-07 12:44:00.69	117.56	14.99	-38.3	-39.3	23.3	0.00e+00	91	37	0	980418560	50	5919
2026-01-07 12:44:01.70	117.74	14.94	-38.1	-39.0	23.6	0.00e+00	0	37	0	982515712	50	5734
2026-01-07 12:44:02.71	117.92	14.88	-38.3	-39.2	23.4	0.00e+00	80	37	0	984612864	50	5838
2026-01-07 12:44:03.72	118.10	14.82	-38.5	-39.4	23.3	0.00e+00	30	37	0	985661440	50	5995
2026-01-07 12:44:04.73	118.28	14.76	-38.4	-39.3	23.3	0.00e+00	31	37	0	987758592	50	5931
2026-01-07 12:44:05.74	118.46	14.70	-38.3	-39.3	23.3	0.00e+00	49	37	0	989855744	50	5912
2026-01-07 12:44:06.75	118.63	14.65	-38.2	-39.1	23.5	0.00e+00	30	37	0	991952896	50	5817
2026-01-07 12:44:07.76	118.81	14.59	-38.1	-39.0	23.5	0.00e+00	92	37	0	994050048	50	5746
2026-01-07 12:44:08.77	118.99	14.53	-38.0	-38.9	23.4	0.00e+00	0	37	0	995098624	50	5690
2026-01-07 12:44:09.78	119.16	14.47	-38.0	-38.9	23.7	0.00e+00	92	37	0	997195776	50	5671
2026-01-07 12:44:10.79	119.34	14.41	-38.1	-39.0	23.5	0.00e+00	55	37	0	999292928	50	5751
2026-01-07 12:44:11.80	119.51	14.35	-38.3	-39.2	23.4	0.00e+00	58	37	0	1001390080	50	5856
2026-01-07 12:44:12.81	119.69	14.29	-38.4	-39.3	23.3	0.00e+00	56	37	0	1003487232	50	5964
2026-01-07 12:44:13.82	119.86	14.23	-38.4	-39.4	23.2	0.00e+00	0	37	0	1005584384	50	6000
2026-01-07 12:44:14.82	120.03	14.18	-38.5	-39.5	23.2	0.00e+00	2	37	0	1006632960	50	6038
2026-01-07 12:44:15.83	120.20	14.12	-38.3	-39.2	23.4	0.00e+00	2	37	0	1008730112	50	5895
2026-01-07 12:44:16.84	120.37	14.06	-38.2	-39.2	23.4	0.00e+00	92	37	0	1010827264	50	5848
2026-01-07 12:44:17.85	120.54	14.00	-38.3	-39.2	23.4	0.00e+00	2	37	0	1012924416	50	5852
2026-01-07 12:44:18.86	120.71	13.94	-38.0	-38.9	23.8	0.00e+00	91	37	0	1015021568	50	5634
2026-01-07 12:44:19.87	120.88	13.88	-37.9	-38.8	23.8	0.00e+00	0	37	0	1016070144	50	5571
2026-01-07 12:44:20.88	121.05	13.82	-37.9	-38.8	23.7	0.00e+00	30	37	0	1018167296	50	5592
2026-01-07 12:44:21.89	121.22	13.76	-38.1	-39.1	23.4	0.00e+00	0	37	0	1020264448	50	5772
2026-01-07 12:44:22.90	121.38	13.70	-38.4	-39.3	23.2	0.00e+00	0	37	0	1022361600	50	5956
2026-01-07 12:44:23.91	121.55	13.64	-38.4	-39.4	23.2	0.00e+00	92	37	0	1024458752	50	5978
2026-01-07 12:44:24.92	121.72	13.58	-38.6	-39.6	23.1	0.00e+00	29	37	0	1025507328	50	6109
2026-01-07 12:44:25.93	121.88	13.52	-38.5	-39.5	23.1	0.00e+00	92	37	0	1027604480	50	6048
2026-01-07 12:44:26.94	122.05	13.46	-38.3	-39.3	23.2	0.00e+00	6	37	0	1029701632	50	5914
2026-01-07 12:44:27.95	122.21	13.40	-38.3	-39.2	23.4	0.00e+00	30	37	0	1031798784	50	5847
2026-01-07 12:44:28.96	122.37	13.34	-38.2	-39.1	23.4	0.00e+00	29	37	0	1033895936	50	5811
2026-01-07 12:44:29.97	122.54	13.28	-38.0	-38.9	23.6	0.00e+00	50	37	0	1034944512	50	5695
2026-01-07 12:44:30.98	122.70	13.22	-37.8	-38.7	23.8	0.00e+00	91	37	0	1037041664	50	5510
2026-01-07 12:44:31.98	122.86	13.16	-37.8	-38.7	23.9	0.00e+00	52	37	0	1039138816	50	5539
2026-01-07 12:44:32.99	123.02	13.10	-38.0	-38.9	23.6	0.00e+00	92	37	0	1041235968	50	5680
2026-01-07 12:44:34.00	123.18	13.04	-38.2	-39.2	23.4	0.00e+00	52	37	0	1043333120	50	5832
2026-01-07 12:44:35.01	123.34	12.98	-38.5	-39.4	23.2	0.00e+00	0	37	0	1044381696	50	6026
2026-01-07 12:44:36.02	123.50	12.92	-38.7	-39.7	22.9	0.00e+00	0	37	0	1046478848	50	6224
2026-01-07 12:44:37.03	123.65	12.86	-38.8	-39.7	22.9	0.00e+00	0	38	0	1048576000	50	6230
2026-01-07 12:44:38.04	123.81	12.79	-38.8	-39.8	22.9	0.00e+00	0	37	0	1050673152	50	6271
2026-01-07 12:44:39.05	123.97	12.73	-38.6	-39.5	23.1	0.00e+00	0	37	0	1052770304	50	6100
2026-01-07 12:44:40.06	124.12	12.67	-38.5	-39.5	23.1	0.00e+00	92	38	0	1053818880	50	6066
2026-01-07 12:44:41.07	124.28	12.61	-38.5	-39.5	23.1	0.00e+00	0	37	0	1055916032	50	6036
2026-01-07 12:44:42.08	124.43	12.55	-38.4	-39.4	23.2	0.00e+00	92	37	0	1058013184	50	5989
2026-01-07 12:44:43.09	124.59	12.49	-38.4	-39.3	23.3	0.00e+00	0	37	0	1060110336	50	5935
2026-01-07 12:44:44.10	124.74	12.43	-38.4	-39.4	23.1	0.00e+00	25	38	0	1062207488	50	5980
2026-01-07 12:44:45.11	124.90	12.37	-38.6	-39.6	22.9	0.00e+00	0	37	0	1063256064	50	6173
2026-01-07 12:44:46.12	125.05	12.31	-38.8	-39.8	22.8	0.00e+00	51	37	0	1065353216	50	6287
2026-01-07 12:44:47.13	125.20	12.25	-38.9	-39.9	22.7	0.00e+00	92	37	0	1067450368	50	6364
2026-01-07 12:44:48.14	125.35	12.19	-39.0	-40.0	22.6	0.00e+00	32	37	0	1069547520	50	6436
2026-01-07 12:44:49.15	125.50	12.12	-39.0	-40.1	22.6	0.00e+00	92	37	0	1071644672	50	6466
2026-01-07 12:44:50.16	125.65	12.06	-39.0	-40.0	22.7	0.00e+00	0	38	0	1073741824	50	6427
2026-01-07 12:44:51.17	125.80	12.00	-38.8	-39.8	22.9	0.00e+00	0	37	0	1074790400	50	6260
2026-01-07 12:44:52.18	125.95	11.94	-38.5	-39.5	23.1	0.00e+00	51	37	0	1076887552	50	6042
2026-01-07 12:44:53.19	126.10	11.88	-38.4	-39.4	23.2	0.00e+00	0	37	0	1078984704	50	5986
2026-01-07 12:44:54.20	126.25	11.82	-38.5	-39.4	23.1	0.00e+00	15	38	0	1081081856	50	6015
2026-01-07 12:44:55.21	126.39	11.76	-38.5	-39.4	23.1	0.00e+00	51	37	0	1082130432	50	5995
2026-01-07 12:44:56.22	126.54	11.70	-38.7	-39.6	22.9	0.00e+00	90	38	0	1084227584	50	6152
2026-01-07 12:44:57.23	126.69	11.63	-38.8	-39.8	22.8	0.00e+00	0	37	0	1086324736	50	6247
2026-01-07 12:44:58.24	126.83	11.57	-39.0	-40.1	22.5	0.00e+00	0	37	0	1088421888	50	6476
2026-01-07 12:44:59.25	126.98	11.51	-39.3	-40.3	22.3	0.00e+00	0	37	0	1090519040	50	6671
2026-01-07 12:45:00.25	127.12	11.45	-39.4	-40.4	22.2	0.00e+00	0	37	0	1091567616	50	6743
2026-01-07 12:45:01.27	127.26	11.39	-39.5	-40.5	22.1	0.00e+00	0	37	0	1093664768	50	6831
2026-01-07 12:45:02.27	127.41	11.33	-39.5	-40.6	22.0	0.00e+00	29	38	0	1095761920	50	6903
2026-01-07 12:45:03.28	127.55	11.27	-39.4	-40.4	22.2	0.00e+00	91	38	0	1097859072	50	6738
2026-01-07 12:45:04.29	127.69	11.21	-39.2	-40.2	22.4	0.00e+00	28	37	0	1099956224	50	6596
2026-01-07 12:45:05.30	127.83	11.14	-39.1	-40.2	22.4	0.00e+00	92	37	0	1102053376	50	6547
2026-01-07 12:45:06.31	127.97	11.08	-39.0	-40.0	22.5	0.00e+00	0	38	0	1103101952	50	6434
2026-01-07 12:45:07.32	128.11	11.02	-39.0	-40.0	22.4	0.00e+00	0	37	0	1105199104	50	6447
2026-01-07 12:45:08.33	128.25	10.96	-39.1	-40.1	22.5	0.00e+00	0	37	0	1107296256	50	6474
2026-01-07 12:45:09.34	128.39	10.90	-39.1	-40.1	22.3	0.00e+00	23	37	0	1109393408	50	6531
2026-01-07 12:45:10.35	128.53	10.84	-39.2	-40.2	22.3	0.00e+00	90	37	0	1111490560	50	6565
2026-01-07 12:45:11.36	128.67	10.78	-39.2	-40.3	21.8	0.00e+00	22	37	0	1112539136	50	6629
2026-01-07 12:45:12.37	128.81	10.72	-39.3	-40.3	22.2	0.00e+00	91	38	0	1114636288	50	6683
2026-01-07 12:45:13.38	128.94	10.65	-39.2	-40.3	22.2	0.00e+00	5	37	0	1116733440	50	6627
2026-01-07 12:45:14.38	129.08	10.59	-39.4	-40.4	22.2	0.00e+00	0	37	0	1118830592	50	6744
2026-01-07 12:45:15.39	129.21	10.53	-39.2	-40.3	22.3	0.00e+00	0	37	0	1120927744	50	6617
2026-01-07 12:45:16.40	129.35	10.47	-39.1	-40.2	22.4	0.00e+00	53	37	0	1121976320	50	6564
2026-01-07 12:45:17.41	129.48	10.41	-39.2	-40.3	22.2	0.00e+00	77	37	0	1124073472	50	6646
2026-01-07 12:45:18.42	129.62	10.35	-39.2	-40.3	22.3	0.00e+00	6	37	0	1126170624	50	6635
2026-01-07 12:45:19.43	129.75	10.29	-39.2	-40.2	22.3	0.00e+00	90	37	0	1128267776	50	6604
2026-01-07 12:45:20.44	129.88	10.23	-39.4	-40.4	22.1	0.00e+00	6	37	0	1130364928	50	6751
2026-01-07 12:45:21.45	130.02	10.17	-39.5	-40.5	22.0	0.00e+00	92	37	0	1131413504	50	6835
2026-01-07 12:45:22.46	130.15	10.10	-39.6	-40.7	22.0	0.00e+00	29	37	0	1133510656	50	6945
2026-01-07 12:45:23.47	130.28	10.04	-39.8	-40.9	21.7	0.00e+00	25	37	0	1135607808	52	6370
2026-01-07 12:45:24.48	130.41	9.98	-39.9	-41.0	21.5	0.00e+00	0	37	0	1137704960	52	6452
2026-01-07 12:45:25.49	130.54	9.92	-40.0	-41.1	21.5	0.00e+00	29	37	0	1139802112	52	6521
2026-01-07 12:45:26.50	130.67	9.86	-40.1	-41.2	21.3	0.00e+00	92	37	0	1140850688	52	6584
2026-01-07 12:45:27.51	130.80	9.80	-40.0	-41.2	21.4	0.00e+00	28	38	0	1142947840	52	6564
2026-01-07 12:45:28.52	130.93	9.74	-40.0	-41.1	21.4	0.00e+00	92	37	0	1145044992	52	6538
2026-01-07 12:45:29.52	131.06	9.68	-40.1	-41.2	21.5	0.00e+00	6	37	0	1147142144	52	6589
2026-01-07 12:45:30.54	131.19	9.62	-39.6	-40.7	21.8	0.00e+00	58	37	0	1149239296	52	6219
2026-01-07 12:45:31.55	131.31	9.56	-39.6	-40.7	21.8	0.00e+00	74	37	0	1150287872	52	6235
2026-01-07 12:45:32.56	131.44	9.49	-39.4	-40.5	22.0	0.00e+00	59	38	0	1152385024	52	6088
2026-01-07 12:45:33.57	131.57	9.43	-39.4	-40.5	22.0	0.00e+00	92	37	0	1154482176	52	6087
2026-01-07 12:45:34.58	131.69	9.37	-39.4	-40.5	22.1	0.00e+00	61	37	0	1156579328	52	6037
2026-01-07 12:45:35.58	131.82	9.31	-39.2	-40.3	22.2	0.00e+00	90	37	0	1158676480	52	5928
2026-01-07 12:45:36.59	131.94	9.25	-39.4	-40.5	22.1	0.00e+00	59	37	0	1159725056	52	6038
2026-01-07 12:45:37.60	132.06	9.19	-39.3	-40.4	22.1	0.00e+00	1	38	0	1161822208	52	5988
2026-01-07 12:45:38.61	132.19	9.13	-39.5	-40.6	21.9	0.00e+00	0	37	0	1163919360	52	6163
2026-01-07 12:45:39.62	132.31	9.07	-39.5	-40.6	22.0	0.00e+00	0	37	0	1166016512	52	6143
2026-01-07 12:45:40.63	132.43	9.01	-39.6	-40.7	21.8	0.00e+00	91	37	0	1168113664	52	6183
2026-01-07 12:45:41.64	132.56	8.95	-39.6	-40.7	21.8	0.00e+00	0	37	0	1170210816	52	6239
2026-01-07 12:45:42.65	132.68	8.89	-39.8	-41.0	21.5	0.00e+00	92	38	0	1171259392	52	6394
2026-01-07 12:45:43.66	132.80	8.83	-39.8	-40.9	21.6	0.00e+00	26	37	0	1173356544	52	6366
2026-01-07 12:45:44.67	132.92	8.77	-39.8	-40.9	21.6	0.00e+00	90	37	0	1175453696	52	6385
2026-01-07 12:45:45.68	133.04	8.71	-39.9	-41.0	21.5	0.00e+00	0	37	0	1177550848	52	6410
2026-01-07 12:45:46.69	133.16	8.65	-39.9	-41.1	21.4	0.00e+00	0	38	0	1179648000	52	6478
2026-01-07 12:45:47.70	133.28	8.59	-40.0	-41.1	21.4	0.00e+00	0	37	0	1180696576	52	6537
2026-01-07 12:45:48.71	133.40	8.53	-40.1	-41.3	21.2	0.00e+00	28	37	0	1182793728	52	6644
2026-01-07 12:45:49.72	133.52	8.47	-40.2	-41.4	21.2	0.00e+00	92	37	0	1184890880	52	6727
2026-01-07 12:45:50.73	133.64	8.40	-40.3	-41.5	21.1	0.00e+00	55	37	0	1186988032	52	6787
2026-01-07 12:45:51.74	133.75	8.34	-40.2	-41.4	21.0	0.00e+00	92	37	0	1189085184	52	6766
2026-01-07 12:45:52.75	133.87	8.28	-40.4	-41.6	20.9	0.00e+00	54	38	0	1190133760	52	6911
2026-01-07 12:45:53.76	133.99	8.22	-40.5	-41.7	20.7	0.00e+00	53	37	0	1192230912	52	7002
2026-01-07 12:45:54.77	134.10	8.16	-40.4	-41.6	20.9	0.00e+00	55	38	0	1194328064	52	6920
2026-01-07 12:45:55.78	134.22	8.10	-40.5	-41.7	20.8	0.00e+00	55	37	0	1196425216	52	7000
2026-01-07 12:45:56.79	134.33	8.04	-40.5	-41.8	20.7	0.00e+00	92	38	0	1198522368	52	7034
2026-01-07 12:45:57.79	134.45	7.98	-40.4	-41.7	20.9	0.00e+00	55	38	0	1199570944	52	6944
2026-01-07 12:45:58.80	134.56	7.93	-40.3	-41.5	21.0	0.00e+00	92	38	0	1201668096	52	6829
2026-01-07 12:45:59.81	134.67	7.87	-40.3	-41.6	20.9	0.00e+00	0	38	0	1203765248	52	6900
2026-01-07 12:46:00.82	134.79	7.81	-40.2	-41.5	21.0	0.00e+00	23	37	0	1205862400	52	6777
2026-01-07 12:46:01.83	134.90	7.75	-40.2	-41.4	21.0	0.00e+00	0	38	0	1207959552	52	6739
2026-01-07 12:46:02.84	135.01	7.69	-40.0	-41.2	21.1	0.00e+00	0	38	0	1209008128	52	6588
2026-01-07 12:46:03.85	135.13	7.63	-40.2	-41.5	21.0	0.00e+00	66	38	0	1211105280	52	6780
2026-01-07 12:46:04.86	135.24	7.57	-40.1	-41.3	21.1	0.00e+00	27	38	0	1213202432	52	6683
2026-01-07 12:46:05.87	135.35	7.51	-40.3	-41.5	20.9	0.00e+00	92	38	0	1215299584	52	6818
2026-01-07 12:46:06.88	135.46	7.45	-40.4	-41.6	20.9	0.00e+00	0	38	0	1217396736	52	6890
2026-01-07 12:46:07.89	135.57	7.39	-40.5	-41.8	20.6	0.00e+00	90	37	0	1218445312	52	7069
