passes_logs/2026/01/07/R4.6S_Anadyr/R4.6S_Anadyr__20260107_010909_FENGYUN_3D_rec.log

#Pass ID: 20260107_010909_FENGYUN 3D
#Satellite: FENGYUN 3D
#Configuration: FENGYUN 3D
#almurnet v.1.7.20251203
#Start time: 2026-01-07 01:09:13

#Version: 2.2.20231116
#Station: R4.6S_Anadyr
#Location: 177.4865 lon 64.73178 lat
#TLE: 1 43010U 17072A   26005.48915933 -.00000051  00000+0 -21983-5 0  9995
#TLE: 2 43010  98.9919 337.1582 0002001 124.6377 235.4988 14.19691925421909

#Time	Az	El	Level	Level2	SNR	BER	BlckErr	Temp	State	Recorded	gain1	gain2
2026-01-07 01:09:13.05	129.40	0.20	-49.1	-59.7	3.3	8.40e-01	0	33	0	0	60	35099
2026-01-07 01:09:14.05	129.37	0.26	-49.0	-61.2	3.6	8.45e-01	0	33	104	0	60	41577
2026-01-07 01:09:15.06	129.35	0.32	-49.1	-61.3	3.6	8.46e-01	0	33	104	0	60	41792
2026-01-07 01:09:16.07	129.32	0.38	-49.2	-61.3	3.6	8.46e-01	0	33	104	0	60	41928
2026-01-07 01:09:17.08	129.29	0.44	-49.2	-61.3	3.6	8.45e-01	0	33	104	0	60	41843
2026-01-07 01:09:18.09	129.27	0.50	-49.1	-61.2	3.6	8.45e-01	0	33	104	0	60	41537
2026-01-07 01:09:19.10	129.24	0.56	-49.0	-61.1	3.6	8.45e-01	0	33	104	0	60	41141
2026-01-07 01:09:20.11	129.21	0.62	-49.0	-61.2	3.6	8.44e-01	0	33	104	0	60	41297
2026-01-07 01:09:21.12	129.19	0.68	-49.0	-61.1	3.6	8.46e-01	0	33	104	0	60	40973
2026-01-07 01:09:22.13	129.16	0.74	-48.7	-61.0	3.6	8.45e-01	0	33	104	0	60	40515
2026-01-07 01:09:23.14	129.13	0.80	-48.7	-60.8	3.6	8.45e-01	0	33	104	0	60	39822
2026-01-07 01:09:24.15	129.11	0.86	-48.6	-60.7	3.6	8.45e-01	0	33	104	0	60	39183
2026-01-07 01:09:25.16	129.08	0.93	-48.3	-60.4	3.6	8.45e-01	0	33	104	0	60	37778
2026-01-07 01:09:26.17	129.05	0.99	-47.8	-59.7	3.6	8.46e-01	0	34	104	0	60	35109
2026-01-07 01:09:27.18	129.02	1.05	-47.5	-59.7	3.6	8.45e-01	0	33	104	0	60	34936
2026-01-07 01:09:28.19	129.00	1.11	-47.5	-59.7	3.6	8.46e-01	0	33	104	0	60	34938
2026-01-07 01:09:29.20	128.97	1.17	-47.4	-59.7	3.6	8.45e-01	0	33	104	0	60	34954
2026-01-07 01:09:30.21	128.94	1.23	-47.5	-59.7	3.6	8.46e-01	0	34	104	0	60	35042
2026-01-07 01:09:31.22	128.91	1.29	-47.4	-59.7	3.6	8.46e-01	0	34	104	0	60	35070
2026-01-07 01:09:32.23	128.88	1.36	-47.4	-59.7	3.6	8.47e-01	0	33	104	0	60	34806
2026-01-07 01:09:33.24	128.86	1.42	-47.4	-59.7	3.6	8.45e-01	0	34	104	0	60	34743
2026-01-07 01:09:34.25	128.83	1.48	-47.4	-59.6	3.6	8.45e-01	0	34	104	0	60	34363
2026-01-07 01:09:35.26	128.80	1.54	-47.4	-59.6	3.6	8.45e-01	0	33	104	0	60	34640
2026-01-07 01:09:36.27	128.77	1.61	-47.4	-59.6	3.6	8.44e-01	0	34	104	0	60	34358
2026-01-07 01:09:37.28	128.74	1.67	-47.4	-59.7	3.6	8.46e-01	0	33	104	0	60	34724
2026-01-07 01:09:38.29	128.71	1.73	-47.4	-59.7	3.6	8.45e-01	0	33	104	0	60	34854
2026-01-07 01:09:39.30	128.68	1.79	-47.4	-59.7	3.6	8.46e-01	0	34	104	0	60	34924
2026-01-07 01:09:40.31	128.65	1.86	-47.4	-59.7	3.6	8.45e-01	0	34	104	0	60	34881
2026-01-07 01:09:41.32	128.62	1.92	-47.4	-59.6	3.6	8.45e-01	0	34	104	0	60	34561
2026-01-07 01:09:42.33	128.59	1.98	-47.4	-59.5	3.6	8.46e-01	0	34	104	0	60	34101
2026-01-07 01:09:43.34	128.56	2.05	-47.4	-59.4	3.6	8.45e-01	0	34	104	0	60	33897
2026-01-07 01:09:44.35	128.53	2.11	-47.4	-59.4	3.6	8.44e-01	0	34	104	0	60	33905
2026-01-07 01:09:45.36	128.50	2.17	-47.4	-59.4	3.6	8.45e-01	0	34	104	0	60	33788
2026-01-07 01:09:46.37	128.47	2.24	-47.4	-59.5	3.6	8.47e-01	0	34	104	0	60	34146
2026-01-07 01:09:47.38	128.44	2.30	-47.4	-59.6	3.6	8.45e-01	0	34	104	0	60	34645
2026-01-07 01:09:48.39	128.41	2.37	-47.5	-59.7	3.6	8.45e-01	0	34	104	0	60	34933
2026-01-07 01:09:49.40	128.38	2.43	-47.4	-59.7	3.6	8.45e-01	0	34	104	0	60	35056
2026-01-07 01:09:50.41	128.35	2.49	-47.5	-59.7	3.6	8.45e-01	0	34	104	0	60	34943
2026-01-07 01:09:51.42	128.32	2.56	-47.5	-59.7	3.6	8.46e-01	0	34	104	0	60	34845
2026-01-07 01:09:52.43	128.29	2.62	-47.4	-59.6	3.6	8.44e-01	0	34	104	0	60	34581
2026-01-07 01:09:53.44	128.26	2.69	-47.4	-59.5	3.6	8.46e-01	0	34	104	0	60	34135
2026-01-07 01:09:54.45	128.23	2.75	-47.4	-59.3	3.6	8.44e-01	0	34	104	0	60	33389
2026-01-07 01:09:55.46	128.19	2.82	-47.4	-59.0	3.6	8.46e-01	0	34	104	0	60	32176
2026-01-07 01:09:56.47	128.16	2.88	-47.4	-58.8	3.6	8.45e-01	0	34	104	0	60	31339
2026-01-07 01:09:57.48	128.13	2.95	-47.4	-58.7	3.6	8.44e-01	0	34	104	0	60	31289
2026-01-07 01:09:58.49	128.10	3.01	-47.4	-59.2	3.6	8.44e-01	0	34	104	0	60	33022
2026-01-07 01:09:59.50	128.07	3.08	-47.4	-59.7	3.6	8.45e-01	0	34	104	0	60	34798
2026-01-07 01:10:00.51	128.03	3.15	-47.4	-59.1	3.6	8.45e-01	0	34	104	0	60	32605
2026-01-07 01:10:01.52	128.00	3.21	-47.1	-56.4	4.0	8.41e-01	0	34	104	0	60	23805
2026-01-07 01:10:02.53	127.97	3.28	-46.5	-51.9	5.9	7.49e-01	0	34	0	0	60	14248
2026-01-07 01:10:03.54	127.94	3.34	-45.5	-49.4	8.8	6.96e-02	0	34	0	6291456	60	10686
2026-01-07 01:10:04.55	127.90	3.41	-44.5	-47.4	11.1	6.95e-03	0	34	0	11534336	60	8502
2026-01-07 01:10:05.56	127.87	3.48	-43.3	-45.6	13.2	1.06e-04	0	34	0	17825792	60	6854
2026-01-07 01:10:06.57	127.84	3.54	-42.3	-44.2	14.5	2.20e-06	0	34	0	23068672	58	6552
2026-01-07 01:10:07.58	127.80	3.61	-41.8	-43.5	15.2	0.00e+00	0	34	0	28311552	58	6068
2026-01-07 01:10:08.58	127.77	3.68	-46.9	-53.3	4.5	1.48e-05	0	34	0	34603008	60	16676
2026-01-07 01:10:09.59	127.74	3.74	-47.8	-59.9	3.6	8.46e-01	0	34	104	34603008	60	35866
2026-01-07 01:10:10.60	127.70	3.81	-41.9	-43.7	5.9	7.88e-01	0	34	104	34603008	56	6948
2026-01-07 01:10:11.61	127.67	3.88	-36.4	-37.2	21.8	6.20e-02	0	34	0	34603008	48	5236
2026-01-07 01:10:12.62	127.63	3.95	-45.8	-50.7	4.3	0.00e+00	0	34	0	40894464	56	15590
2026-01-07 01:10:13.63	127.60	4.01	-41.9	-43.7	6.0	8.45e-01	0	34	104	40894464	60	5552
2026-01-07 01:10:14.64	127.57	4.08	-37.6	-38.5	20.2	0.00e+00	0	34	0	40894464	48	6064
2026-01-07 01:10:15.65	127.53	4.15	-38.0	-38.9	19.9	0.00e+00	0	34	0	46137344	48	6388
2026-01-07 01:10:16.66	127.50	4.22	-38.3	-39.3	19.7	0.00e+00	0	34	0	52428800	48	6646
2026-01-07 01:10:17.67	127.46	4.29	-38.4	-39.4	19.5	0.00e+00	0	34	0	57671680	48	6719
2026-01-07 01:10:18.68	127.43	4.35	-38.7	-39.8	19.0	0.00e+00	0	34	0	62914560	48	7017
2026-01-07 01:10:19.69	127.39	4.42	-37.7	-38.6	20.2	0.00e+00	0	34	0	69206016	50	5498
2026-01-07 01:10:20.70	127.35	4.49	-37.0	-37.9	21.1	0.00e+00	0	34	0	74448896	48	5672
2026-01-07 01:10:21.71	127.32	4.56	-36.7	-37.6	21.3	0.00e+00	0	34	0	80740352	46	6140
2026-01-07 01:10:22.72	127.28	4.63	-36.9	-37.7	21.2	0.00e+00	0	34	0	85983232	46	6228
2026-01-07 01:10:23.73	127.25	4.70	-35.9	-36.7	22.1	0.00e+00	0	34	0	91226112	46	5542
2026-01-07 01:10:24.74	127.21	4.77	-35.6	-36.4	22.4	0.00e+00	0	34	0	97517568	44	5974
2026-01-07 01:10:25.75	127.17	4.84	-35.6	-36.4	22.5	0.00e+00	0	34	0	102760448	44	5971
2026-01-07 01:10:26.76	127.14	4.91	-35.6	-36.4	22.4	0.00e+00	0	34	0	109051904	44	6006
2026-01-07 01:10:27.77	127.10	4.98	-35.6	-36.4	22.4	0.00e+00	0	34	0	114294784	44	5989
2026-01-07 01:10:28.78	127.06	5.05	-35.6	-36.4	22.5	0.00e+00	0	34	0	120586240	44	6014
2026-01-07 01:10:29.79	127.02	5.12	-35.3	-36.1	22.8	0.00e+00	0	34	0	125829120	44	5763
2026-01-07 01:10:30.80	126.99	5.19	-35.3	-36.0	22.8	0.00e+00	0	34	0	131072000	44	5750
2026-01-07 01:10:31.81	126.95	5.26	-35.3	-36.1	22.8	0.00e+00	0	34	0	137363456	44	5785
2026-01-07 01:10:32.82	126.91	5.33	-35.3	-36.1	22.7	0.00e+00	0	34	0	142606336	44	5792
2026-01-07 01:10:33.83	126.87	5.40	-35.3	-36.0	22.8	0.00e+00	0	34	0	148897792	44	5748
2026-01-07 01:10:34.84	126.83	5.47	-35.3	-36.0	22.8	0.00e+00	0	34	0	154140672	44	5743
2026-01-07 01:10:35.85	126.80	5.55	-35.2	-36.0	22.9	0.00e+00	0	34	0	159383552	44	5720
2026-01-07 01:10:36.86	126.76	5.62	-35.3	-36.1	22.8	0.00e+00	0	34	0	165675008	44	5789
2026-01-07 01:10:37.87	126.72	5.69	-35.1	-35.9	23.1	0.00e+00	0	34	0	170917888	44	5631
2026-01-07 01:10:38.88	126.68	5.76	-35.0	-35.8	23.2	0.00e+00	0	34	0	177209344	44	5569
2026-01-07 01:10:39.88	126.64	5.83	-35.0	-35.8	23.1	0.00e+00	0	34	0	182452224	44	5570
2026-01-07 01:10:40.89	126.60	5.91	-35.1	-35.8	23.1	0.00e+00	0	34	0	187695104	44	5606
2026-01-07 01:10:41.91	126.56	5.98	-34.9	-35.7	23.3	0.00e+00	0	34	0	193986560	44	5507
2026-01-07 01:10:42.91	126.52	6.05	-35.0	-35.8	23.2	0.00e+00	0	34	0	199229440	44	5584
2026-01-07 01:10:43.92	126.48	6.12	-35.2	-35.9	23.0	0.00e+00	0	34	0	205520896	44	5686
2026-01-07 01:10:44.93	126.44	6.20	-34.8	-35.6	23.4	0.00e+00	0	34	0	210763776	44	5450
2026-01-07 01:10:45.94	126.40	6.27	-34.8	-35.6	23.4	0.00e+00	0	34	0	217055232	44	5459
2026-01-07 01:10:46.95	126.36	6.34	-34.8	-35.5	23.4	0.00e+00	0	34	0	222298112	44	5416
2026-01-07 01:10:47.96	126.32	6.42	-34.8	-35.5	23.4	0.00e+00	0	34	0	228589568	42	6090
2026-01-07 01:10:48.97	126.27	6.49	-34.8	-35.6	23.4	0.00e+00	0	34	0	233832448	42	6126
2026-01-07 01:10:49.98	126.23	6.57	-34.7	-35.5	23.5	0.00e+00	0	34	0	239075328	42	6071
2026-01-07 01:10:50.99	126.19	6.64	-34.8	-35.6	23.5	0.00e+00	0	34	0	245366784	42	6113
2026-01-07 01:10:52.00	126.15	6.71	-34.8	-35.5	23.4	0.00e+00	0	34	0	250609664	42	6097
2026-01-07 01:10:53.01	126.11	6.79	-34.7	-35.5	23.6	0.00e+00	0	34	0	255852544	42	6046
2026-01-07 01:10:54.02	126.06	6.86	-34.8	-35.5	23.5	0.00e+00	0	34	0	262144000	42	6090
2026-01-07 01:10:55.03	126.02	6.94	-34.9	-35.7	23.4	0.00e+00	0	34	0	267386880	42	6179
2026-01-07 01:10:56.04	125.98	7.02	-34.9	-35.6	23.4	0.00e+00	0	34	0	273678336	42	6157
2026-01-07 01:10:57.05	125.94	7.09	-34.9	-35.7	23.4	0.00e+00	0	34	0	278921216	42	6180
2026-01-07 01:10:58.05	125.89	7.17	-34.6	-35.4	23.6	0.00e+00	0	34	0	284164096	42	5968
2026-01-07 01:10:59.06	125.85	7.24	-34.7	-35.5	23.6	0.00e+00	0	34	0	290455552	42	6051
2026-01-07 01:11:00.07	125.80	7.32	-34.7	-35.4	23.7	0.00e+00	0	34	0	295698432	42	6019
2026-01-07 01:11:01.08	125.76	7.39	-34.7	-35.5	23.6	0.00e+00	0	34	0	301989888	42	6067
2026-01-07 01:11:02.09	125.72	7.47	-34.7	-35.4	23.7	0.00e+00	0	34	0	307232768	42	5999
2026-01-07 01:11:03.10	125.67	7.55	-34.8	-35.5	23.6	0.00e+00	0	34	0	313524224	42	6061
2026-01-07 01:11:04.11	125.63	7.62	-34.6	-35.4	23.7	0.00e+00	0	34	0	318767104	42	5985
2026-01-07 01:11:05.12	125.58	7.70	-34.6	-35.4	23.7	0.00e+00	0	34	0	325058560	42	5984
2026-01-07 01:11:06.13	125.54	7.78	-34.7	-35.4	23.7	0.00e+00	0	34	0	330301440	42	6028
2026-01-07 01:11:07.14	125.49	7.86	-34.7	-35.4	23.7	0.00e+00	0	34	0	335544320	42	6033
2026-01-07 01:11:08.15	125.44	7.93	-34.7	-35.4	23.7	0.00e+00	0	34	0	341835776	42	6009
2026-01-07 01:11:09.16	125.40	8.01	-34.7	-35.5	23.7	0.00e+00	0	34	0	347078656	42	6036
2026-01-07 01:11:10.17	125.35	8.09	-34.7	-35.4	23.7	0.00e+00	0	34	0	353370112	42	6020
2026-01-07 01:11:11.18	125.30	8.17	-34.7	-35.4	23.7	0.00e+00	0	34	0	358612992	42	6002
2026-01-07 01:11:12.19	125.26	8.25	-34.8	-35.6	23.6	0.00e+00	0	34	0	363855872	42	6119
2026-01-07 01:11:13.20	125.21	8.33	-34.7	-35.4	23.8	0.00e+00	0	34	0	370147328	42	5998
2026-01-07 01:11:14.21	125.16	8.41	-34.6	-35.3	23.8	0.00e+00	0	34	0	375390208	42	5939
2026-01-07 01:11:15.22	125.11	8.49	-34.8	-35.5	23.7	0.00e+00	0	34	0	381681664	42	6069
2026-01-07 01:11:16.23	125.07	8.57	-34.6	-35.3	23.8	0.00e+00	0	34	0	386924544	42	5947
2026-01-07 01:11:17.24	125.02	8.65	-34.7	-35.5	23.7	0.00e+00	0	34	0	392167424	42	6051
2026-01-07 01:11:18.25	124.97	8.73	-34.7	-35.4	23.8	0.00e+00	0	34	0	398458880	42	6023
2026-01-07 01:11:19.26	124.92	8.81	-34.4	-35.2	24.0	0.00e+00	0	34	0	403701760	42	5832
2026-01-07 01:11:20.26	124.87	8.89	-34.6	-35.3	23.9	0.00e+00	0	34	0	409993216	42	5927
2026-01-07 01:11:21.28	124.82	8.97	-34.5	-35.2	24.0	0.00e+00	0	34	0	415236096	42	5876
2026-01-07 01:11:22.28	124.77	9.05	-34.5	-35.2	24.0	0.00e+00	0	34	0	421527552	42	5865
2026-01-07 01:11:23.30	124.72	9.13	-34.4	-35.2	24.1	0.00e+00	0	34	0	426770432	42	5829
2026-01-07 01:11:24.31	124.67	9.21	-34.4	-35.2	24.0	0.00e+00	0	34	0	432013312	42	5836
2026-01-07 01:11:25.31	124.62	9.29	-34.4	-35.1	24.1	0.00e+00	0	34	0	438304768	42	5816
2026-01-07 01:11:26.32	124.57	9.38	-34.4	-35.1	24.1	0.00e+00	0	34	0	443547648	42	5824
2026-01-07 01:11:27.34	124.52	9.46	-34.3	-35.1	24.1	0.00e+00	0	34	0	449839104	42	5780
2026-01-07 01:11:28.35	124.47	9.54	-34.4	-35.1	24.1	0.00e+00	0	34	0	455081984	42	5792
2026-01-07 01:11:29.36	124.41	9.62	-34.4	-35.1	24.1	0.00e+00	0	34	0	460324864	42	5801
2026-01-07 01:11:30.37	124.36	9.71	-34.4	-35.1	24.2	0.00e+00	0	34	0	466616320	42	5763
2026-01-07 01:11:31.38	124.31	9.79	-34.3	-35.1	24.2	0.00e+00	0	34	0	471859200	42	5781
2026-01-07 01:11:32.38	124.26	9.87	-34.4	-35.1	24.2	0.00e+00	0	34	0	478150656	42	5775
2026-01-07 01:11:33.39	124.20	9.96	-34.4	-35.1	24.2	0.00e+00	0	34	0	483393536	42	5789
2026-01-07 01:11:34.41	124.15	10.04	-34.2	-34.9	24.3	0.00e+00	0	34	0	488636416	42	5694
2026-01-07 01:11:35.42	124.10	10.13	-34.3	-35.0	24.3	0.00e+00	0	34	0	494927872	42	5726
2026-01-07 01:11:36.42	124.04	10.21	-34.2	-34.9	24.3	0.00e+00	0	34	0	500170752	42	5656
2026-01-07 01:11:37.43	123.99	10.30	-34.2	-34.9	24.4	0.00e+00	0	34	0	506462208	42	5659
2026-01-07 01:11:38.45	123.93	10.38	-34.0	-34.7	24.5	0.00e+00	0	34	0	511705088	42	5556
2026-01-07 01:11:39.45	123.88	10.47	-34.1	-34.8	24.5	0.00e+00	0	34	0	517996544	42	5591
2026-01-07 01:11:40.46	123.82	10.55	-34.0	-34.7	24.5	0.00e+00	0	34	0	523239424	42	5551
2026-01-07 01:11:41.47	123.77	10.64	-34.0	-34.6	24.6	0.00e+00	0	34	0	529530880	42	5501
2026-01-07 01:11:42.48	123.71	10.72	-33.9	-34.6	24.6	0.00e+00	0	34	0	534773760	42	5489
2026-01-07 01:11:43.49	123.65	10.81	-33.9	-34.6	24.7	0.00e+00	0	34	0	540016640	42	5485
2026-01-07 01:11:44.50	123.60	10.90	-33.8	-34.5	24.8	0.00e+00	0	34	0	546308096	42	5379
2026-01-07 01:11:45.51	123.54	10.98	-33.8	-34.5	24.8	0.00e+00	0	34	0	551550976	42	5379
2026-01-07 01:11:46.52	123.48	11.07	-33.7	-34.4	24.8	0.00e+00	0	34	0	557842432	40	6000
2026-01-07 01:11:47.53	123.42	11.16	-33.8	-34.5	24.7	0.00e+00	0	34	0	563085312	40	6091
2026-01-07 01:11:48.54	123.36	11.25	-33.8	-34.5	24.8	0.00e+00	0	34	0	568328192	40	6060
2026-01-07 01:11:49.55	123.31	11.34	-33.9	-34.6	24.7	0.00e+00	0	34	0	574619648	40	6132
2026-01-07 01:11:50.56	123.25	11.42	-33.7	-34.4	24.9	0.00e+00	0	34	0	579862528	40	5971
2026-01-07 01:11:51.57	123.19	11.51	-33.6	-34.3	24.9	0.00e+00	0	34	0	586153984	40	5934
2026-01-07 01:11:52.58	123.13	11.60	-33.7	-34.4	24.9	0.00e+00	0	34	0	591396864	40	5987
2026-01-07 01:11:53.59	123.07	11.69	-33.7	-34.4	24.9	0.00e+00	0	34	0	596639744	40	5977
2026-01-07 01:11:54.60	123.01	11.78	-33.6	-34.2	25.0	0.00e+00	0	34	0	602931200	40	5882
2026-01-07 01:11:55.61	122.94	11.87	-33.7	-34.4	24.9	0.00e+00	0	34	0	608174080	40	6000
2026-01-07 01:11:56.62	122.88	11.96	-33.6	-34.3	25.0	0.00e+00	0	34	0	614465536	40	5948
2026-01-07 01:11:57.63	122.82	12.05	-33.7	-34.4	24.9	0.00e+00	0	34	0	619708416	40	5965
2026-01-07 01:11:58.64	122.76	12.14	-33.6	-34.3	25.0	0.00e+00	0	34	0	625999872	40	5903
2026-01-07 01:11:59.65	122.70	12.23	-33.6	-34.3	25.0	0.00e+00	0	34	0	631242752	40	5923
2026-01-07 01:12:00.66	122.63	12.33	-33.5	-34.2	25.1	0.00e+00	0	34	0	636485632	40	5877
2026-01-07 01:12:01.67	122.57	12.42	-33.5	-34.2	25.1	0.00e+00	0	34	0	642777088	40	5886
2026-01-07 01:12:02.68	122.51	12.51	-33.6	-34.2	25.1	0.00e+00	0	34	0	648019968	40	5886
2026-01-07 01:12:03.68	122.44	12.60	-33.4	-34.1	25.1	0.00e+00	0	34	0	654311424	40	5823
2026-01-07 01:12:04.69	122.38	12.69	-33.4	-34.1	25.1	0.00e+00	0	34	0	659554304	40	5815
2026-01-07 01:12:05.70	122.31	12.79	-33.5	-34.2	25.2	0.00e+00	0	34	0	664797184	40	5844
2026-01-07 01:12:06.71	122.25	12.88	-33.3	-34.0	25.2	0.00e+00	0	34	0	671088640	40	5727
2026-01-07 01:12:07.73	122.18	12.98	-33.2	-33.9	25.3	0.00e+00	0	34	0	676331520	40	5683
2026-01-07 01:12:08.73	122.11	13.07	-33.3	-34.0	25.2	0.00e+00	0	34	0	682622976	40	5740
2026-01-07 01:12:09.74	122.05	13.16	-33.3	-34.0	25.2	0.00e+00	0	34	0	687865856	40	5701
2026-01-07 01:12:10.75	121.98	13.26	-33.2	-33.9	25.4	0.00e+00	0	34	0	693108736	40	5673
2026-01-07 01:12:11.76	121.91	13.35	-33.3	-34.0	25.3	0.00e+00	0	34	0	699400192	40	5703
2026-01-07 01:12:12.77	121.84	13.45	-33.2	-33.9	25.3	0.00e+00	0	34	0	704643072	40	5695
2026-01-07 01:12:13.78	121.77	13.54	-33.2	-33.8	25.4	0.00e+00	0	34	0	710934528	40	5609
2026-01-07 01:12:14.79	121.71	13.64	-33.2	-33.9	25.4	0.00e+00	0	34	0	716177408	40	5666
2026-01-07 01:12:15.80	121.64	13.74	-33.2	-33.9	25.4	0.00e+00	0	34	0	722468864	40	5640
2026-01-07 01:12:16.81	121.57	13.83	-33.3	-34.0	25.2	0.00e+00	0	34	0	727711744	40	5724
2026-01-07 01:12:17.82	121.49	13.93	-33.0	-33.7	25.6	0.00e+00	0	34	0	734003200	40	5532
2026-01-07 01:12:18.83	121.42	14.03	-33.1	-33.8	25.4	0.00e+00	0	34	0	739246080	40	5583
2026-01-07 01:12:19.84	121.35	14.12	-33.1	-33.8	25.5	0.00e+00	0	34	0	744488960	40	5608
2026-01-07 01:12:20.84	121.28	14.22	-33.0	-33.7	25.6	0.00e+00	0	34	0	750780416	40	5538
2026-01-07 01:12:21.85	121.21	14.32	-33.0	-33.6	25.6	0.00e+00	0	34	0	756023296	40	5502
2026-01-07 01:12:22.86	121.13	14.42	-32.9	-33.5	25.7	0.00e+00	0	34	0	762314752	40	5432
2026-01-07 01:12:23.87	121.06	14.52	-32.8	-33.5	25.7	0.00e+00	0	34	0	767557632	40	5418
2026-01-07 01:12:24.88	120.99	14.62	-33.0	-33.6	25.6	0.00e+00	0	34	0	772800512	40	5494
2026-01-07 01:12:25.89	120.91	14.72	-32.9	-33.5	25.7	0.00e+00	0	34	0	779091968	40	5417
2026-01-07 01:12:26.90	120.84	14.82	-33.0	-33.7	25.6	0.00e+00	0	34	0	784334848	40	5521
2026-01-07 01:12:27.91	120.76	14.92	-32.8	-33.5	25.8	0.00e+00	0	34	0	790626304	40	5415
2026-01-07 01:12:28.92	120.69	15.02	-32.9	-33.5	25.7	0.00e+00	0	34	0	795869184	40	5433
2026-01-07 01:12:29.93	120.61	15.12	-32.8	-33.4	25.8	0.00e+00	0	34	0	801112064	40	5372
2026-01-07 01:12:30.94	120.53	15.22	-32.8	-33.5	25.8	0.00e+00	0	34	0	807403520	38	6093
2026-01-07 01:12:31.95	120.45	15.32	-32.7	-33.4	25.9	0.00e+00	0	34	0	812646400	38	5996
2026-01-07 01:12:32.96	120.37	15.43	-32.7	-33.4	25.9	0.00e+00	0	34	0	818937856	38	5993
2026-01-07 01:12:33.97	120.30	15.53	-32.7	-33.4	25.8	0.00e+00	0	34	0	824180736	38	5970
2026-01-07 01:12:34.98	120.22	15.63	-32.6	-33.3	26.0	0.00e+00	0	34	0	830472192	38	5912
2026-01-07 01:12:35.99	120.14	15.74	-32.5	-33.2	25.9	0.00e+00	0	34	0	835715072	38	5883
2026-01-07 01:12:37.00	120.06	15.84	-32.5	-33.2	26.0	0.00e+00	0	34	0	840957952	38	5876
2026-01-07 01:12:38.01	119.97	15.94	-32.3	-33.0	26.2	0.00e+00	0	34	0	847249408	38	5710
2026-01-07 01:12:39.02	119.89	16.05	-32.4	-33.1	26.1	0.00e+00	0	34	0	852492288	38	5807
2026-01-07 01:12:40.03	119.81	16.15	-32.1	-32.8	26.3	0.00e+00	0	34	0	858783744	38	5598
2026-01-07 01:12:41.04	119.73	16.26	-32.3	-32.9	26.3	0.00e+00	0	34	0	864026624	38	5679
2026-01-07 01:12:42.05	119.64	16.37	-32.1	-32.8	26.4	0.00e+00	0	34	0	869269504	38	5587
2026-01-07 01:12:43.06	119.56	16.47	-32.1	-32.8	26.4	0.00e+00	0	34	0	875560960	38	5575
2026-01-07 01:12:44.07	119.47	16.58	-32.1	-32.8	26.4	0.00e+00	0	34	0	880803840	38	5581
2026-01-07 01:12:45.08	119.39	16.69	-32.1	-32.8	26.4	0.00e+00	0	34	0	887095296	38	5590
2026-01-07 01:12:46.09	119.30	16.79	-32.1	-32.8	26.4	0.00e+00	0	34	0	892338176	38	5598
2026-01-07 01:12:47.09	119.22	16.90	-32.0	-32.7	26.5	0.00e+00	0	34	0	897581056	38	5534
2026-01-07 01:12:48.10	119.13	17.01	-32.2	-32.8	26.4	0.00e+00	0	34	0	903872512	38	5605
2026-01-07 01:12:49.12	119.04	17.12	-32.1	-32.8	26.5	0.00e+00	0	34	0	909115392	38	5601
2026-01-07 01:12:50.12	118.95	17.23	-32.1	-32.8	26.4	0.00e+00	0	34	0	915406848	38	5599
2026-01-07 01:12:51.14	118.86	17.34	-32.3	-32.9	26.4	0.00e+00	0	34	0	920649728	38	5691
2026-01-07 01:12:52.14	118.77	17.44	-32.1	-32.8	26.4	0.00e+00	0	34	0	926941184	38	5575
2026-01-07 01:12:53.15	118.68	17.56	-32.2	-32.8	26.4	0.00e+00	0	34	0	932184064	38	5612
2026-01-07 01:12:54.16	118.59	17.67	-32.2	-32.9	26.4	0.00e+00	0	34	0	937426944	38	5635
2026-01-07 01:12:55.17	118.50	17.78	-32.1	-32.8	26.4	0.00e+00	0	34	0	943718400	38	5574
2026-01-07 01:12:56.18	118.41	17.89	-32.2	-32.9	26.4	0.00e+00	0	34	0	948961280	38	5632
2026-01-07 01:12:57.19	118.31	18.00	-32.2	-32.9	26.4	0.00e+00	0	34	0	955252736	38	5650
2026-01-07 01:12:58.20	118.22	18.11	-31.9	-32.6	26.6	0.00e+00	0	34	0	960495616	38	5479
2026-01-07 01:12:59.21	118.12	18.23	-31.9	-32.6	26.6	0.00e+00	0	34	0	965738496	38	5458
2026-01-07 01:13:00.22	118.03	18.34	-31.9	-32.6	26.6	0.00e+00	0	34	0	972029952	38	5482
2026-01-07 01:13:01.23	117.93	18.45	-31.8	-32.5	26.7	0.00e+00	0	34	0	977272832	38	5384
2026-01-07 01:13:02.24	117.83	18.57	-31.7	-32.3	26.8	0.00e+00	0	34	0	983564288	36	5927
2026-01-07 01:13:03.25	117.74	18.68	-31.8	-32.4	26.7	0.00e+00	0	34	0	988807168	36	6026
2026-01-07 01:13:04.25	117.64	18.80	-31.6	-32.2	26.8	0.00e+00	0	34	0	994050048	36	5889
2026-01-07 01:13:05.27	117.54	18.91	-31.7	-32.3	26.8	0.00e+00	0	34	0	1000341504	36	5964
2026-01-07 01:13:06.28	117.44	19.03	-31.6	-32.2	27.0	0.00e+00	0	34	0	1005584384	36	5864
2026-01-07 01:13:07.28	117.34	19.14	-31.6	-32.3	26.9	0.00e+00	0	34	0	1011875840	36	5919
2026-01-07 01:13:08.29	117.24	19.26	-31.6	-32.2	26.9	0.00e+00	0	34	0	1017118720	36	5866
2026-01-07 01:13:09.30	117.13	19.38	-31.8	-32.4	26.9	0.00e+00	0	34	0	1023410176	36	6014
2026-01-07 01:13:10.31	117.03	19.50	-31.6	-32.2	26.9	0.00e+00	0	34	0	1028653056	36	5860
2026-01-07 01:13:11.32	116.92	19.61	-31.6	-32.3	26.9	0.00e+00	0	34	0	1034944512	36	5910
2026-01-07 01:13:12.33	116.82	19.73	-31.5	-32.1	26.9	0.00e+00	0	34	0	1040187392	36	5815
2026-01-07 01:13:13.34	116.71	19.85	-31.5	-32.2	27.0	0.00e+00	0	34	0	1045430272	36	5832
2026-01-07 01:13:14.35	116.61	19.97	-31.5	-32.2	27.0	0.00e+00	0	34	0	1051721728	36	5847
2026-01-07 01:13:15.36	116.50	20.09	-31.5	-32.1	27.0	0.00e+00	0	34	0	1056964608	36	5796
2026-01-07 01:13:16.37	116.39	20.21	-31.5	-32.1	27.1	0.00e+00	0	34	0	1063256064	36	5811
2026-01-07 01:13:17.38	116.28	20.33	-31.4	-32.0	27.1	0.00e+00	0	34	0	1068498944	36	5758
2026-01-07 01:13:18.38	116.17	20.45	-31.3	-31.9	27.2	0.00e+00	0	34	0	1073741824	36	5677
2026-01-07 01:13:19.39	116.06	20.58	-31.4	-32.0	27.1	0.00e+00	0	34	0	1080033280	36	5731
2026-01-07 01:13:20.40	115.95	20.70	-31.2	-31.8	27.3	0.00e+00	0	34	0	1085276160	36	5620
2026-01-07 01:13:21.41	115.84	20.82	-31.2	-31.8	27.3	0.00e+00	0	34	0	1091567616	36	5605
2026-01-07 01:13:22.42	115.72	20.94	-31.1	-31.7	27.3	0.00e+00	0	34	0	1096810496	36	5545
2026-01-07 01:13:23.43	115.61	21.07	-31.0	-31.6	27.4	0.00e+00	0	34	0	1102053376	36	5476
2026-01-07 01:13:24.44	115.49	21.19	-31.0	-31.7	27.3	0.00e+00	0	34	0	1108344832	36	5512
2026-01-07 01:13:25.45	115.37	21.32	-31.1	-31.7	27.3	0.00e+00	0	34	0	1113587712	36	5540
2026-01-07 01:13:26.47	115.26	21.44	-31.1	-31.7	27.4	0.00e+00	0	34	0	1119879168	36	5560
2026-01-07 01:13:27.47	115.14	21.57	-31.1	-31.7	27.3	0.00e+00	0	34	0	1125122048	36	5565
2026-01-07 01:13:28.48	115.02	21.70	-31.1	-31.7	27.3	0.00e+00	0	34	0	1131413504	36	5563
2026-01-07 01:13:29.49	114.90	21.82	-31.1	-31.8	27.3	0.00e+00	0	34	0	1136656384	36	5575
2026-01-07 01:13:30.50	114.78	21.95	-31.1	-31.8	27.4	0.00e+00	0	34	0	1141899264	36	5578
2026-01-07 01:13:31.51	114.65	22.08	-31.1	-31.8	27.3	0.00e+00	0	34	0	1148190720	36	5580
2026-01-07 01:13:32.52	114.53	22.21	-31.1	-31.8	27.3	0.00e+00	0	34	0	1153433600	36	5589
2026-01-07 01:13:33.53	114.40	22.33	-31.2	-31.8	27.2	0.00e+00	0	34	0	1159725056	36	5630
2026-01-07 01:13:34.54	114.28	22.46	-31.0	-31.7	27.4	0.00e+00	0	34	0	1164967936	36	5529
2026-01-07 01:13:35.55	114.15	22.59	-31.2	-31.8	27.3	0.00e+00	0	34	0	1170210816	36	5619
2026-01-07 01:13:36.56	114.02	22.72	-31.0	-31.7	27.4	0.00e+00	0	34	0	1176502272	36	5533
2026-01-07 01:13:37.57	113.89	22.86	-31.1	-31.7	27.4	0.00e+00	0	34	0	1181745152	36	5513
2026-01-07 01:13:38.58	113.76	22.99	-30.8	-31.4	27.6	0.00e+00	0	34	0	1188036608	36	5362
2026-01-07 01:13:39.59	113.63	23.12	-30.8	-31.5	27.6	0.00e+00	0	34	0	1193279488	34	6059
2026-01-07 01:13:40.60	113.50	23.25	-30.8	-31.4	27.5	0.00e+00	0	34	0	1198522368	34	6000
2026-01-07 01:13:41.61	113.37	23.38	-30.8	-31.4	27.6	0.00e+00	0	34	0	1204813824	34	6002
2026-01-07 01:13:42.62	113.23	23.52	-30.9	-31.6	27.5	0.00e+00	0	34	0	1210056704	34	6105
2026-01-07 01:13:43.63	113.09	23.65	-30.8	-31.4	27.5	0.00e+00	0	34	0	1216348160	34	5976
2026-01-07 01:13:44.64	112.96	23.79	-30.7	-31.4	27.6	0.00e+00	0	34	0	1221591040	34	5973
2026-01-07 01:13:45.65	112.82	23.92	-30.9	-31.5	27.5	0.00e+00	0	34	0	1227882496	34	6097
2026-01-07 01:13:46.66	112.68	24.06	-30.8	-31.5	27.5	0.00e+00	0	34	0	1233125376	34	6045
2026-01-07 01:13:47.67	112.54	24.19	-31.0	-31.7	27.4	0.00e+00	0	34	0	1239416832	34	6187
2026-01-07 01:13:48.68	112.40	24.33	-30.7	-31.4	27.7	0.00e+00	0	34	0	1244659712	34	5984
2026-01-07 01:13:49.69	112.25	24.47	-30.7	-31.4	27.7	0.00e+00	0	34	0	1249902592	34	5973
2026-01-07 01:13:50.70	112.11	24.60	-30.6	-31.2	27.8	0.00e+00	0	34	0	1256194048	34	5872
2026-01-07 01:13:51.71	111.96	24.74	-30.5	-31.2	27.7	0.00e+00	0	34	0	1261436928	34	5831
2026-01-07 01:13:52.72	111.81	24.88	-30.4	-31.0	27.9	0.00e+00	0	34	0	1267728384	34	5733
2026-01-07 01:13:53.73	111.67	25.02	-30.4	-31.0	27.9	0.00e+00	0	34	0	1272971264	34	5731
2026-01-07 01:13:54.74	111.52	25.16	-30.3	-31.0	27.9	0.00e+00	0	34	0	1278214144	34	5697
2026-01-07 01:13:55.75	111.36	25.30	-30.4	-31.0	28.0	0.00e+00	0	34	0	1284505600	34	5715
2026-01-07 01:13:56.76	111.21	25.44	-30.2	-30.9	28.0	0.00e+00	0	34	0	1289748480	34	5644
2026-01-07 01:13:57.77	111.06	25.58	-30.3	-30.9	28.0	0.00e+00	0	34	0	1296039936	34	5641
2026-01-07 01:13:58.78	110.90	25.72	-30.3	-30.9	28.0	0.00e+00	0	34	0	1301282816	34	5664
2026-01-07 01:13:59.78	110.75	25.86	-30.3	-30.9	28.0	0.00e+00	0	34	0	1306525696	34	5655
2026-01-07 01:14:00.79	110.59	26.01	-30.3	-30.9	28.1	0.00e+00	0	34	0	1312817152	34	5645
2026-01-07 01:14:01.80	110.43	26.15	-30.3	-31.0	28.0	0.00e+00	0	34	0	1318060032	34	5697
2026-01-07 01:14:02.81	110.27	26.29	-30.5	-31.2	27.9	0.00e+00	0	34	0	1324351488	34	5848
2026-01-07 01:14:03.82	110.10	26.44	-30.6	-31.2	27.8	0.00e+00	0	34	0	1329594368	34	5874
2026-01-07 01:14:04.83	109.94	26.58	-30.3	-31.0	28.0	0.00e+00	0	34	0	1335885824	34	5699
2026-01-07 01:14:05.84	109.77	26.73	-30.3	-30.9	27.9	0.00e+00	0	34	0	1341128704	34	5686
2026-01-07 01:14:06.85	109.61	26.87	-30.2	-30.9	28.0	0.00e+00	0	34	0	1346371584	34	5646
2026-01-07 01:14:07.86	109.44	27.02	-30.3	-31.0	28.0	0.00e+00	0	34	0	1352663040	34	5697
2026-01-07 01:14:08.87	109.27	27.17	-30.3	-31.0	27.9	0.00e+00	0	34	0	1357905920	34	5715
2026-01-07 01:14:09.88	109.10	27.31	-30.4	-31.1	27.8	0.00e+00	0	34	0	1364197376	34	5769
2026-01-07 01:14:10.89	108.92	27.46	-30.4	-31.0	27.9	0.00e+00	0	34	0	1369440256	34	5747
2026-01-07 01:14:11.90	108.75	27.61	-30.3	-30.9	28.0	0.00e+00	0	34	0	1374683136	34	5677
2026-01-07 01:14:12.91	108.57	27.76	-30.3	-31.0	28.0	0.00e+00	0	35	0	1380974592	34	5701
2026-01-07 01:14:13.92	108.39	27.91	-30.3	-31.0	28.0	0.00e+00	0	34	0	1386217472	34	5696
2026-01-07 01:14:14.92	108.21	28.06	-30.4	-31.1	27.9	0.00e+00	0	34	0	1392508928	34	5802
2026-01-07 01:14:15.93	108.03	28.21	-30.3	-30.9	28.0	0.00e+00	0	34	0	1397751808	34	5687
2026-01-07 01:14:16.94	107.85	28.36	-30.4	-31.0	28.0	0.00e+00	0	34	0	1402994688	34	5719
2026-01-07 01:14:17.95	107.66	28.51	-30.3	-31.0	28.0	0.00e+00	0	34	0	1409286144	34	5708
2026-01-07 01:14:18.96	107.47	28.66	-30.4	-31.0	28.0	0.00e+00	0	34	0	1414529024	34	5746
2026-01-07 01:14:19.97	107.28	28.81	-30.2	-30.8	28.1	0.00e+00	0	35	0	1420820480	34	5607
2026-01-07 01:14:20.98	107.09	28.96	-30.1	-30.7	28.1	0.00e+00	0	34	0	1426063360	34	5537
2026-01-07 01:14:21.99	106.90	29.12	-30.0	-30.7	28.2	0.00e+00	0	34	0	1432354816	34	5518
2026-01-07 01:14:23.00	106.70	29.27	-30.1	-30.7	28.2	0.00e+00	0	34	0	1437597696	34	5559
2026-01-07 01:14:24.01	106.51	29.43	-30.2	-30.8	28.2	0.00e+00	0	34	0	1442840576	34	5587
2026-01-07 01:14:25.02	106.31	29.58	-30.3	-30.9	28.0	0.00e+00	0	34	0	1449132032	34	5673
2026-01-07 01:14:26.03	106.11	29.73	-30.1	-30.7	28.2	0.00e+00	0	35	0	1454374912	34	5539
2026-01-07 01:14:27.04	105.91	29.89	-30.2	-30.8	28.1	0.00e+00	0	34	0	1460666368	34	5599
2026-01-07 01:14:28.04	105.70	30.04	-30.3	-30.9	28.1	0.00e+00	0	34	0	1465909248	34	5663
2026-01-07 01:14:29.05	105.50	30.20	-30.0	-30.6	28.2	0.00e+00	0	34	0	1471152128	34	5494
2026-01-07 01:14:30.06	105.29	30.36	-30.2	-30.8	28.1	0.00e+00	0	34	0	1477443584	34	5586
2026-01-07 01:14:31.07	105.08	30.51	-29.8	-30.4	28.5	0.00e+00	0	35	0	1482686464	34	5326
2026-01-07 01:14:32.09	104.86	30.67	-29.9	-30.5	28.4	0.00e+00	0	35	0	1488977920	32	6075
2026-01-07 01:14:33.10	104.65	30.83	-29.9	-30.5	28.4	0.00e+00	0	34	0	1494220800	32	6092
2026-01-07 01:14:34.11	104.43	30.99	-29.9	-30.5	28.3	0.00e+00	0	35	0	1499463680	32	6078
2026-01-07 01:14:35.12	104.21	31.15	-30.0	-30.7	28.2	0.00e+00	0	34	0	1505755136	32	6203
2026-01-07 01:14:36.12	103.99	31.31	-29.9	-30.5	28.2	0.00e+00	0	34	0	1510998016	32	6090
2026-01-07 01:14:37.13	103.77	31.47	-30.0	-30.6	28.3	0.00e+00	0	34	0	1517289472	32	6141
2026-01-07 01:14:38.14	103.55	31.63	-30.0	-30.6	28.3	0.00e+00	0	34	0	1522532352	32	6117
2026-01-07 01:14:39.15	103.32	31.79	-29.9	-30.6	28.3	0.00e+00	0	34	0	1528823808	32	6137
2026-01-07 01:14:40.16	103.09	31.95	-30.0	-30.6	28.2	0.00e+00	0	34	0	1534066688	32	6116
2026-01-07 01:14:41.17	102.85	32.11	-29.9	-30.5	28.3	0.00e+00	0	34	0	1540358144	32	6064
2026-01-07 01:14:42.17	102.62	32.27	-29.9	-30.5	28.3	0.00e+00	0	34	0	1545601024	32	6101
2026-01-07 01:14:43.18	102.38	32.43	-29.9	-30.5	28.3	0.00e+00	0	34	0	1550843904	32	6062
2026-01-07 01:14:44.19	102.15	32.59	-29.9	-30.5	28.3	0.00e+00	0	35	0	1557135360	32	6060
2026-01-07 01:14:45.20	101.90	32.75	-29.9	-30.5	28.3	0.00e+00	0	34	0	1562378240	32	6082
2026-01-07 01:14:46.21	101.66	32.91	-29.7	-30.3	28.5	0.00e+00	0	34	0	1568669696	32	5928
2026-01-07 01:14:47.22	101.41	33.08	-29.8	-30.3	28.5	0.00e+00	0	34	0	1573912576	32	5963
2026-01-07 01:14:48.23	101.16	33.24	-29.7	-30.3	28.5	0.00e+00	0	34	0	1579155456	32	5933
2026-01-07 01:14:49.24	100.91	33.40	-29.9	-30.5	28.4	0.00e+00	0	34	0	1585446912	32	6047
2026-01-07 01:14:50.25	100.66	33.57	-29.8	-30.4	28.4	0.00e+00	0	35	0	1590689792	32	5984
2026-01-07 01:14:51.26	100.40	33.73	-30.0	-30.6	28.3	0.00e+00	0	35	0	1595932672	32	6136
2026-01-07 01:14:52.27	100.14	33.89	-29.9	-30.5	28.3	0.00e+00	0	34	0	1602224128	32	6071
2026-01-07 01:14:53.28	99.88	34.06	-29.8	-30.5	28.3	0.00e+00	0	34	0	1607467008	32	6057
2026-01-07 01:14:54.29	99.61	34.22	-29.8	-30.4	28.4	0.00e+00	0	34	0	1613758464	32	6023
2026-01-07 01:14:55.30	99.34	34.39	-29.9	-30.5	28.4	0.00e+00	0	34	0	1619001344	32	6067
2026-01-07 01:14:56.31	99.07	34.55	-29.8	-30.4	28.4	0.00e+00	0	34	0	1625292800	32	6005
2026-01-07 01:14:57.32	98.80	34.72	-29.7	-30.2	28.5	0.00e+00	0	34	0	1630535680	32	5895
2026-01-07 01:14:58.33	98.52	34.88	-29.6	-30.2	28.7	0.00e+00	0	34	0	1636827136	32	5847
2026-01-07 01:14:59.34	98.24	35.05	-29.7	-30.3	28.5	0.00e+00	0	34	0	1642070016	32	5943
2026-01-07 01:15:00.34	97.97	35.21	-29.7	-30.3	28.6	0.00e+00	0	34	0	1647312896	32	5949
2026-01-07 01:15:01.36	97.68	35.37	-29.8	-30.5	28.4	0.00e+00	0	34	0	1653604352	32	6046
2026-01-07 01:15:02.36	97.39	35.54	-29.8	-30.4	28.5	0.00e+00	0	34	0	1658847232	32	6028
2026-01-07 01:15:03.38	97.10	35.70	-29.7	-30.3	28.5	0.00e+00	0	34	0	1665138688	32	5943
2026-01-07 01:15:04.38	96.81	35.87	-29.5	-30.2	28.7	0.00e+00	0	34	0	1670381568	32	5840
2026-01-07 01:15:05.39	96.51	36.03	-29.5	-30.2	28.6	0.00e+00	0	34	0	1675624448	32	5834
2026-01-07 01:15:06.40	96.21	36.20	-29.6	-30.2	28.6	0.00e+00	0	34	0	1681915904	32	5892
2026-01-07 01:15:07.41	95.91	36.36	-29.7	-30.3	28.5	0.00e+00	0	34	0	1687158784	32	5953
2026-01-07 01:15:08.42	95.60	36.53	-29.8	-30.5	28.4	0.00e+00	0	35	0	1693450240	32	6034
2026-01-07 01:15:09.43	95.30	36.69	-29.7	-30.3	28.5	0.00e+00	0	34	0	1698693120	32	5902
2026-01-07 01:15:10.44	94.98	36.86	-29.8	-30.4	28.6	0.00e+00	0	34	0	1703936000	32	6025
2026-01-07 01:15:11.45	94.67	37.02	-29.7	-30.3	28.5	0.00e+00	0	34	0	1710227456	32	5904
2026-01-07 01:15:12.46	94.35	37.19	-29.7	-30.4	28.5	0.00e+00	0	34	0	1715470336	32	5965
2026-01-07 01:15:13.47	94.03	37.35	-30.0	-30.6	28.3	0.00e+00	0	34	0	1721761792	32	6114
2026-01-07 01:15:14.48	93.70	37.51	-29.8	-30.4	28.5	0.00e+00	0	34	0	1727004672	32	6032
2026-01-07 01:15:15.49	93.38	37.68	-29.8	-30.4	28.3	0.00e+00	0	34	0	1733296128	32	6024
2026-01-07 01:15:16.50	93.04	37.84	-29.8	-30.4	28.4	0.00e+00	0	34	0	1738539008	32	6019
2026-01-07 01:15:17.51	92.71	38.00	-29.9	-30.5	28.3	0.00e+00	0	34	0	1744830464	32	6096
2026-01-07 01:15:18.52	92.37	38.17	-29.8	-30.4	28.5	0.00e+00	0	34	0	1750073344	32	5992
2026-01-07 01:15:19.53	92.03	38.33	-29.9	-30.5	28.5	0.00e+00	0	34	0	1755316224	32	6088
2026-01-07 01:15:20.54	91.68	38.49	-29.9	-30.5	28.4	0.00e+00	0	34	0	1761607680	32	6049
2026-01-07 01:15:21.55	91.34	38.65	-29.9	-30.5	28.3	0.00e+00	0	34	0	1766850560	32	6052
2026-01-07 01:15:22.56	90.98	38.81	-29.9	-30.5	28.2	0.00e+00	0	34	0	1773142016	32	6071
2026-01-07 01:15:23.57	90.63	38.97	-30.0	-30.5	28.3	0.00e+00	0	34	0	1778384896	32	6095
2026-01-07 01:15:24.58	90.27	39.13	-29.9	-30.6	28.2	0.00e+00	0	34	0	1783627776	32	6115
2026-01-07 01:15:25.59	89.91	39.29	-30.0	-30.6	28.3	0.00e+00	0	34	0	1789919232	32	6163
2026-01-07 01:15:26.60	89.54	39.45	-30.1	-30.7	28.1	0.00e+00	0	34	0	1795162112	32	6225
2026-01-07 01:15:27.60	89.17	39.61	-29.9	-30.5	28.3	0.00e+00	0	34	0	1800404992	32	6095
2026-01-07 01:15:28.61	88.80	39.76	-30.0	-30.6	28.3	0.00e+00	0	34	0	1806696448	32	6119
2026-01-07 01:15:29.62	88.42	39.92	-29.9	-30.5	28.2	0.00e+00	0	34	0	1811939328	32	6043
2026-01-07 01:15:30.63	88.04	40.08	-29.8	-30.5	28.4	0.00e+00	0	34	0	1818230784	32	6036
2026-01-07 01:15:31.64	87.66	40.23	-29.9	-30.5	28.4	0.00e+00	0	34	0	1823473664	32	6075
2026-01-07 01:15:32.65	87.27	40.38	-29.8	-30.5	28.4	0.00e+00	0	34	0	1829765120	32	6040
2026-01-07 01:15:33.66	86.88	40.54	-29.8	-30.4	28.4	0.00e+00	0	34	0	1835008000	32	5998
2026-01-07 01:15:34.67	86.48	40.69	-29.8	-30.5	28.4	0.00e+00	0	34	0	1841299456	32	6038
2026-01-07 01:15:35.68	86.08	40.84	-29.7	-30.3	28.5	0.00e+00	0	34	0	1846542336	32	5948
2026-01-07 01:15:36.68	85.69	40.99	-29.9	-30.5	28.4	0.00e+00	0	34	0	1851785216	32	6076
2026-01-07 01:15:37.69	85.28	41.14	-29.8	-30.4	28.4	0.00e+00	0	34	0	1858076672	32	6026
2026-01-07 01:15:38.70	84.87	41.29	-29.7	-30.4	28.4	0.00e+00	0	34	0	1863319552	32	5996
2026-01-07 01:15:39.71	84.45	41.44	-29.6	-30.2	28.6	0.00e+00	0	34	0	1869611008	32	5847
2026-01-07 01:15:40.72	84.04	41.58	-29.7	-30.3	28.6	0.00e+00	0	34	0	1874853888	32	5907
2026-01-07 01:15:41.73	83.61	41.73	-29.5	-30.1	28.6	0.00e+00	0	34	0	1880096768	32	5789
2026-01-07 01:15:42.74	83.19	41.87	-29.5	-30.1	28.7	0.00e+00	0	34	0	1886388224	32	5804
2026-01-07 01:15:43.75	82.76	42.02	-29.6	-30.2	28.6	0.00e+00	0	34	0	1891631104	32	5896
2026-01-07 01:15:44.76	82.32	42.16	-29.6	-30.3	28.6	0.00e+00	0	34	0	1897922560	32	5904
2026-01-07 01:15:45.77	81.89	42.30	-29.5	-30.1	28.7	0.00e+00	0	34	0	1903165440	32	5788
2026-01-07 01:15:46.78	81.45	42.44	-29.3	-29.9	28.9	0.00e+00	0	34	0	1908408320	32	5676
2026-01-07 01:15:47.79	81.00	42.57	-29.3	-29.9	28.8	0.00e+00	0	34	0	1914699776	32	5679
2026-01-07 01:15:48.80	80.55	42.71	-29.6	-30.2	28.6	0.00e+00	0	34	0	1919942656	32	5866
2026-01-07 01:15:49.80	80.10	42.84	-29.6	-30.2	28.6	0.00e+00	0	34	0	1926234112	32	5895
2026-01-07 01:15:50.81	79.65	42.98	-29.5	-30.2	28.7	0.00e+00	0	34	0	1931476992	32	5835
2026-01-07 01:15:51.82	79.19	43.11	-29.7	-30.3	28.5	0.00e+00	0	34	0	1937768448	32	5959
2026-01-07 01:15:52.83	78.72	43.24	-29.3	-29.9	28.8	0.00e+00	0	34	0	1943011328	32	5678
2026-01-07 01:15:53.85	78.25	43.37	-29.3	-29.9	28.9	0.00e+00	0	34	0	1948254208	32	5680
2026-01-07 01:15:54.85	77.79	43.49	-29.4	-30.0	28.7	0.00e+00	0	34	0	1954545664	32	5756
2026-01-07 01:15:55.86	77.31	43.62	-29.4	-30.0	28.7	0.00e+00	0	34	0	1959788544	32	5740
2026-01-07 01:15:56.87	76.83	43.74	-29.4	-30.0	28.8	0.00e+00	0	34	0	1966080000	32	5711
2026-01-07 01:15:57.88	76.35	43.86	-29.5	-30.1	28.7	0.00e+00	0	34	0	1971322880	32	5792
2026-01-07 01:15:58.89	75.86	43.98	-29.5	-30.1	28.7	0.00e+00	0	34	0	1976565760	32	5813
2026-01-07 01:15:59.90	75.37	44.10	-29.7	-30.4	28.5	0.00e+00	0	34	0	1982857216	32	5988
2026-01-07 01:16:00.91	74.88	44.21	-29.9	-30.6	28.4	0.00e+00	0	34	0	1988100096	32	6114
2026-01-07 01:16:01.92	74.38	44.32	-29.8	-30.4	28.4	0.00e+00	0	34	0	1994391552	32	6022
2026-01-07 01:16:02.93	73.88	44.43	-29.7	-30.4	28.4	0.00e+00	0	34	0	1999634432	32	5997
2026-01-07 01:16:03.94	73.38	44.54	-29.5	-30.1	28.6	0.00e+00	0	34	0	2004877312	32	5826
2026-01-07 01:16:04.95	72.87	44.65	-29.5	-30.1	28.7	0.00e+00	0	34	0	2011168768	32	5812
2026-01-07 01:16:05.96	72.36	44.75	-29.6	-30.2	28.6	0.00e+00	0	34	0	2016411648	32	5838
2026-01-07 01:16:06.97	71.85	44.85	-29.8	-30.4	28.5	0.00e+00	0	34	0	2022703104	32	6025
2026-01-07 01:16:07.98	71.33	44.95	-29.9	-30.5	28.3	0.00e+00	0	34	0	2027945984	32	6103
2026-01-07 01:16:08.99	70.81	45.05	-29.7	-30.3	28.5	0.00e+00	0	34	0	2034237440	32	5908
2026-01-07 01:16:10.00	70.29	45.14	-29.7	-30.3	28.6	0.00e+00	0	34	0	2039480320	32	5913
2026-01-07 01:16:11.01	69.76	45.24	-29.7	-30.3	28.5	0.00e+00	0	34	0	2044723200	32	5964
2026-01-07 01:16:12.01	69.24	45.33	-29.6	-30.2	28.5	0.00e+00	0	34	0	2051014656	32	5843
2026-01-07 01:16:13.03	68.70	45.41	-29.8	-30.4	28.5	0.00e+00	0	34	0	2056257536	32	6003
2026-01-07 01:16:14.04	68.16	45.50	-29.8	-30.5	28.5	0.00e+00	0	34	0	2062548992	32	6036
2026-01-07 01:16:15.04	67.63	45.58	-29.9	-30.5	28.4	0.00e+00	0	34	0	2067791872	32	6047
2026-01-07 01:16:16.05	67.09	45.66	-29.9	-30.5	28.4	0.00e+00	0	34	0	2073034752	32	6084
2026-01-07 01:16:17.06	66.55	45.74	-30.0	-30.6	28.3	0.00e+00	0	34	0	2079326208	32	6151
2026-01-07 01:16:18.07	66.00	45.81	-29.6	-30.2	28.6	0.00e+00	0	34	0	2084569088	32	5857
2026-01-07 01:16:19.08	65.45	45.88	-29.7	-30.3	28.6	0.00e+00	0	34	0	2090860544	32	5924
2026-01-07 01:16:20.09	64.90	45.95	-29.8	-30.5	28.4	0.00e+00	0	34	0	2096103424	32	6050
2026-01-07 01:16:21.10	64.35	46.01	-29.8	-30.4	28.5	0.00e+00	0	34	0	2101346304	32	5996
2026-01-07 01:16:22.11	63.79	46.08	-29.6	-30.2	28.6	0.00e+00	0	34	0	2107637760	32	5850
2026-01-07 01:16:23.12	63.23	46.14	-29.7	-30.2	28.6	0.00e+00	0	34	0	2112880640	32	5893
2026-01-07 01:16:24.13	62.67	46.19	-29.7	-30.3	28.5	0.00e+00	0	34	0	2119172096	32	5948
2026-01-07 01:16:25.14	62.11	46.25	-29.5	-30.2	28.6	0.00e+00	0	34	0	2124414976	32	5835
2026-01-07 01:16:26.15	61.55	46.30	-29.6	-30.2	28.6	0.00e+00	0	34	0	2130706432	32	5834
2026-01-07 01:16:27.16	60.98	46.35	-29.7	-30.4	28.5	0.00e+00	0	34	0	2135949312	32	5974
2026-01-07 01:16:28.17	60.41	46.39	-29.7	-30.4	28.6	0.00e+00	0	34	0	2142240768	32	5997
2026-01-07 01:16:29.18	59.84	46.43	-29.8	-30.4	28.5	0.00e+00	0	34	0	2147483648	32	6024
2026-01-07 01:16:30.19	59.27	46.47	-29.8	-30.4	28.5	0.00e+00	0	34	0	2152726528	32	6010
2026-01-07 01:16:31.20	58.70	46.51	-29.6	-30.3	28.6	0.00e+00	0	34	0	2159017984	32	5917
2026-01-07 01:16:32.21	58.13	46.54	-29.5	-30.2	28.6	0.00e+00	0	34	0	2164260864	32	5833
2026-01-07 01:16:33.22	57.56	46.57	-29.6	-30.3	28.5	0.00e+00	0	34	0	2170552320	32	5919
2026-01-07 01:16:34.23	56.98	46.59	-29.7	-30.3	28.5	0.00e+00	0	34	0	2175795200	32	5952
2026-01-07 01:16:35.24	56.41	46.62	-29.5	-30.2	28.6	0.00e+00	0	34	0	2181038080	32	5847
2026-01-07 01:16:36.25	55.83	46.64	-29.6	-30.2	28.5	0.00e+00	0	34	0	2187329536	32	5879
2026-01-07 01:16:37.26	55.25	46.65	-29.6	-30.2	28.5	0.00e+00	0	35	0	2192572416	32	5848
2026-01-07 01:16:38.26	54.68	46.67	-29.7	-30.2	28.6	0.00e+00	0	34	0	2198863872	32	5896
2026-01-07 01:16:39.27	54.10	46.68	-29.5	-30.2	28.7	0.00e+00	0	34	0	2204106752	32	5831
2026-01-07 01:16:40.28	53.52	46.68	-29.5	-30.2	28.6	0.00e+00	0	34	0	2209349632	32	5850
2026-01-07 01:16:41.29	52.94	46.69	-29.5	-30.1	28.7	0.00e+00	0	34	0	2215641088	32	5769
2026-01-07 01:16:42.30	52.36	46.69	-29.6	-30.2	28.5	0.00e+00	0	34	0	2220883968	32	5849
2026-01-07 01:16:43.31	51.79	46.68	-29.7	-30.3	28.5	0.00e+00	0	34	0	2227175424	32	5919
2026-01-07 01:16:44.32	51.21	46.68	-29.7	-30.3	28.5	0.00e+00	0	34	0	2232418304	32	5942
2026-01-07 01:16:45.33	50.63	46.67	-29.6	-30.2	28.5	0.00e+00	0	34	0	2238709760	32	5891
2026-01-07 01:16:46.34	50.05	46.66	-29.5	-30.1	28.6	0.00e+00	0	35	0	2243952640	32	5815
2026-01-07 01:16:47.35	49.47	46.64	-29.7	-30.4	28.3	0.00e+00	0	35	0	2249195520	32	6008
2026-01-07 01:16:48.36	48.90	46.62	-29.8	-30.3	28.5	0.00e+00	0	34	0	2255486976	32	5953
2026-01-07 01:16:49.37	48.32	46.60	-29.7	-30.4	28.2	0.00e+00	0	35	0	2260729856	32	5969
2026-01-07 01:16:50.38	47.74	46.58	-29.9	-30.6	28.1	0.00e+00	0	34	0	2267021312	32	6112
2026-01-07 01:16:51.39	47.17	46.55	-29.9	-30.5	28.3	0.00e+00	0	34	0	2272264192	32	6097
2026-01-07 01:16:52.40	46.60	46.52	-29.7	-30.2	28.5	0.00e+00	0	35	0	2277507072	32	5886
2026-01-07 01:16:53.41	46.03	46.48	-29.7	-30.3	28.6	0.00e+00	0	34	0	2283798528	32	5906
2026-01-07 01:16:54.42	45.46	46.44	-29.8	-30.5	28.4	0.00e+00	0	34	0	2289041408	32	6083
2026-01-07 01:16:55.43	44.89	46.40	-29.6	-30.3	28.7	0.00e+00	0	34	0	2295332864	32	5907
2026-01-07 01:16:56.45	44.31	46.36	-29.6	-30.2	28.6	0.00e+00	0	34	0	2300575744	32	5839
2026-01-07 01:16:57.45	43.75	46.31	-29.7	-30.3	28.5	0.00e+00	0	34	0	2305818624	32	5946
2026-01-07 01:16:58.47	43.18	46.26	-29.7	-30.3	28.6	0.00e+00	0	35	0	2312110080	32	5908
2026-01-07 01:16:59.48	42.62	46.21	-29.6	-30.2	28.7	0.00e+00	0	34	0	2317352960	32	5890
2026-01-07 01:17:00.49	42.06	46.15	-29.7	-30.3	28.4	0.00e+00	0	34	0	2323644416	32	5956
2026-01-07 01:17:01.50	41.50	46.10	-29.8	-30.4	28.4	0.00e+00	0	34	0	2328887296	32	6022
2026-01-07 01:17:02.51	40.95	46.03	-29.7	-30.4	28.4	0.00e+00	0	34	0	2335178752	32	5965
2026-01-07 01:17:03.52	40.39	45.97	-29.5	-30.0	28.7	0.00e+00	0	34	0	2340421632	32	5751
2026-01-07 01:17:04.52	39.85	45.90	-29.2	-29.8	28.9	0.00e+00	0	34	0	2346713088	32	5620
2026-01-07 01:17:05.53	39.30	45.83	-29.3	-29.9	28.8	0.00e+00	0	34	0	2351955968	32	5672
2026-01-07 01:17:06.54	38.75	45.76	-29.4	-29.9	28.8	0.00e+00	0	34	0	2357198848	32	5684
2026-01-07 01:17:07.55	38.21	45.68	-29.4	-30.0	28.8	0.00e+00	0	34	0	2363490304	32	5731
2026-01-07 01:17:08.56	37.66	45.61	-29.5	-30.1	28.7	0.00e+00	0	34	0	2368733184	32	5824
2026-01-07 01:17:09.57	37.13	45.53	-29.4	-30.0	28.8	0.00e+00	0	34	0	2375024640	32	5736
2026-01-07 01:17:10.58	36.59	45.44	-29.4	-29.9	28.7	0.00e+00	0	34	0	2380267520	32	5656
2026-01-07 01:17:11.59	36.06	45.36	-29.6	-30.3	28.6	0.00e+00	0	34	0	2385510400	32	5918
2026-01-07 01:17:12.60	35.53	45.27	-29.7	-30.3	28.5	0.00e+00	0	34	0	2391801856	32	5959
2026-01-07 01:17:13.61	35.00	45.18	-29.5	-30.1	28.7	0.00e+00	0	34	0	2397044736	32	5816
2026-01-07 01:17:14.62	34.48	45.08	-29.5	-30.2	28.8	0.00e+00	0	34	0	2403336192	32	5834
2026-01-07 01:17:15.63	33.96	44.99	-29.5	-30.1	28.7	0.00e+00	0	35	0	2408579072	32	5803
2026-01-07 01:17:16.64	33.44	44.89	-29.6	-30.2	28.5	0.00e+00	0	34	0	2413821952	32	5890
2026-01-07 01:17:17.65	32.92	44.79	-29.3	-29.9	28.7	0.00e+00	0	34	0	2420113408	32	5656
2026-01-07 01:17:18.66	32.41	44.68	-29.3	-29.9	28.8	0.00e+00	0	34	0	2425356288	32	5663
2026-01-07 01:17:19.66	31.91	44.58	-29.4	-29.9	28.7	0.00e+00	0	34	0	2431647744	32	5688
2026-01-07 01:17:20.67	31.41	44.47	-29.2	-29.8	28.8	0.00e+00	0	34	0	2436890624	32	5582
2026-01-07 01:17:21.69	30.90	44.36	-29.3	-29.8	28.8	0.00e+00	0	34	0	2443182080	32	5595
2026-01-07 01:17:22.70	30.40	44.25	-29.2	-29.9	28.8	0.00e+00	0	34	0	2448424960	32	5633
2026-01-07 01:17:23.70	29.92	44.14	-29.1	-29.7	28.9	0.00e+00	0	34	0	2453667840	32	5517
2026-01-07 01:17:24.71	29.43	44.02	-29.1	-29.7	29.0	0.00e+00	0	34	0	2459959296	32	5563
2026-01-07 01:17:25.72	28.94	43.90	-29.1	-29.7	28.9	0.00e+00	0	34	0	2465202176	32	5505
2026-01-07 01:17:26.73	28.46	43.78	-29.1	-29.8	28.9	0.00e+00	0	34	0	2471493632	32	5584
2026-01-07 01:17:27.74	27.98	43.66	-29.3	-30.0	28.7	0.00e+00	0	35	0	2476736512	32	5715
2026-01-07 01:17:28.75	27.50	43.54	-29.6	-30.3	28.6	0.00e+00	0	34	0	2481979392	32	5951
2026-01-07 01:17:29.76	27.03	43.41	-29.2	-29.8	28.7	0.00e+00	0	34	0	2488270848	32	5580
2026-01-07 01:17:30.77	26.56	43.28	-29.3	-29.8	28.8	0.00e+00	0	34	0	2493513728	32	5615
2026-01-07 01:17:31.78	26.10	43.16	-29.3	-29.9	28.8	0.00e+00	0	34	0	2499805184	32	5643
2026-01-07 01:17:32.79	25.64	43.03	-29.3	-30.0	28.8	0.00e+00	0	34	0	2505048064	32	5706
2026-01-07 01:17:33.80	25.18	42.89	-29.3	-29.9	28.7	0.00e+00	0	35	0	2510290944	32	5652
2026-01-07 01:17:34.81	24.73	42.76	-29.0	-29.6	29.0	0.00e+00	0	34	0	2516582400	32	5463
2026-01-07 01:17:35.82	24.28	42.62	-28.9	-29.4	29.1	0.00e+00	0	34	0	2521825280	32	5350
2026-01-07 01:17:36.83	23.83	42.49	-28.9	-29.6	29.0	0.00e+00	0	34	0	2528116736	32	5468
2026-01-07 01:17:37.84	23.39	42.35	-29.0	-29.6	29.0	0.00e+00	0	35	0	2533359616	32	5493
2026-01-07 01:17:38.85	22.95	42.21	-29.0	-29.5	29.1	0.00e+00	0	34	0	2539651072	32	5439
2026-01-07 01:17:39.86	22.52	42.07	-29.0	-29.6	29.0	0.00e+00	0	34	0	2544893952	32	5471
2026-01-07 01:17:40.87	22.09	41.93	-29.0	-29.5	28.9	0.00e+00	0	34	0	2551185408	32	5420
2026-01-07 01:17:41.88	21.66	41.78	-29.2	-29.8	28.9	0.00e+00	0	34	0	2556428288	32	5593
2026-01-07 01:17:42.89	21.24	41.64	-29.3	-30.0	28.8	0.00e+00	0	34	0	2561671168	32	5702
2026-01-07 01:17:43.90	20.82	41.49	-29.2	-29.8	28.9	0.00e+00	0	34	0	2567962624	32	5606
2026-01-07 01:17:44.91	20.41	41.35	-29.1	-29.6	28.9	0.00e+00	0	34	0	2573205504	32	5500
2026-01-07 01:17:45.91	20.00	41.20	-29.1	-29.8	28.8	0.00e+00	0	34	0	2579496960	32	5574
2026-01-07 01:17:46.93	19.59	41.05	-29.2	-29.9	28.9	0.00e+00	0	34	0	2584739840	32	5637
2026-01-07 01:17:47.94	19.18	40.90	-29.1	-29.8	28.9	0.00e+00	0	34	0	2589982720	32	5624
2026-01-07 01:17:48.94	18.79	40.75	-29.1	-29.7	28.9	0.00e+00	0	34	0	2596274176	32	5551
2026-01-07 01:17:49.95	18.39	40.60	-29.2	-29.8	28.7	0.00e+00	0	34	0	2601517056	32	5572
2026-01-07 01:17:50.96	18.00	40.45	-29.4	-30.0	28.7	0.00e+00	0	35	0	2607808512	32	5712
2026-01-07 01:17:51.97	17.61	40.29	-29.5	-30.2	28.7	0.00e+00	0	34	0	2613051392	32	5844
2026-01-07 01:17:52.98	17.23	40.14	-29.5	-30.2	28.6	0.00e+00	0	34	0	2618294272	32	5863
2026-01-07 01:17:53.99	16.85	39.98	-29.6	-30.2	28.6	0.00e+00	0	34	0	2624585728	32	5849
2026-01-07 01:17:55.00	16.47	39.83	-29.6	-30.1	28.6	0.00e+00	0	34	0	2629828608	32	5813
2026-01-07 01:17:56.01	16.10	39.67	-29.5	-30.1	28.7	0.00e+00	0	34	0	2636120064	32	5773
2026-01-07 01:17:57.02	15.73	39.51	-29.3	-30.0	28.8	0.00e+00	0	34	0	2641362944	32	5704
2026-01-07 01:17:58.03	15.36	39.35	-29.4	-29.9	28.8	0.00e+00	0	34	0	2647654400	32	5655
2026-01-07 01:17:59.04	15.00	39.20	-29.3	-29.9	28.8	0.00e+00	0	34	0	2652897280	32	5646
2026-01-07 01:18:00.05	14.64	39.04	-29.3	-29.8	28.8	0.00e+00	0	34	0	2658140160	32	5592
2026-01-07 01:18:01.07	14.28	38.87	-29.3	-29.9	28.8	0.00e+00	0	34	0	2664431616	32	5634
2026-01-07 01:18:02.08	13.92	38.71	-29.3	-29.8	28.8	0.00e+00	0	34	0	2669674496	32	5607
2026-01-07 01:18:03.09	13.58	38.55	-29.2	-29.9	28.8	0.00e+00	0	34	0	2675965952	32	5680
2026-01-07 01:18:04.10	13.23	38.39	-29.3	-29.9	28.8	0.00e+00	0	34	0	2681208832	32	5688
2026-01-07 01:18:05.11	12.89	38.23	-29.3	-29.9	28.8	0.00e+00	0	34	0	2686451712	32	5639
2026-01-07 01:18:06.12	12.55	38.07	-29.2	-29.8	28.8	0.00e+00	0	35	0	2692743168	32	5628
2026-01-07 01:18:07.13	12.21	37.91	-29.2	-29.7	28.8	0.00e+00	0	34	0	2697986048	32	5538
2026-01-07 01:18:08.14	11.88	37.74	-29.3	-29.8	28.8	0.00e+00	0	34	0	2704277504	32	5617
2026-01-07 01:18:09.15	11.55	37.58	-29.1	-29.8	28.9	0.00e+00	0	34	0	2709520384	32	5577
2026-01-07 01:18:10.16	11.23	37.42	-29.0	-29.7	28.9	0.00e+00	0	35	0	2715811840	32	5522
2026-01-07 01:18:11.17	10.91	37.25	-29.0	-29.7	29.1	0.00e+00	0	35	0	2721054720	32	5533
2026-01-07 01:18:12.18	10.59	37.09	-29.0	-29.5	28.8	0.00e+00	0	35	0	2726297600	32	5423
2026-01-07 01:18:13.19	10.27	36.93	-29.2	-29.7	28.6	0.00e+00	0	34	0	2732589056	32	5543
2026-01-07 01:18:14.20	9.96	36.76	-29.0	-29.6	28.8	0.00e+00	0	35	0	2737831936	32	5461
2026-01-07 01:18:15.21	9.65	36.60	-29.1	-29.7	28.6	0.00e+00	0	35	0	2744123392	32	5553
2026-01-07 01:18:16.22	9.35	36.43	-28.9	-29.6	28.7	0.00e+00	0	34	0	2749366272	32	5466
2026-01-07 01:18:17.23	9.04	36.27	-28.9	-29.6	28.6	0.00e+00	0	34	0	2755657728	32	5480
2026-01-07 01:18:18.24	8.74	36.11	-29.1	-29.8	28.1	0.00e+00	0	34	0	2760900608	32	5570
2026-01-07 01:18:19.25	8.45	35.94	-28.9	-29.4	28.5	0.00e+00	0	34	0	2766143488	32	5363
2026-01-07 01:18:20.26	8.15	35.78	-29.0	-29.5	28.6	0.00e+00	0	35	0	2772434944	32	5426
2026-01-07 01:18:21.27	7.86	35.61	-29.2	-29.7	28.9	0.00e+00	0	35	0	2777677824	32	5528
2026-01-07 01:18:22.28	7.58	35.45	-29.2	-29.9	28.7	0.00e+00	0	35	0	2783969280	32	5645
2026-01-07 01:18:23.29	7.29	35.28	-29.2	-29.8	28.8	0.00e+00	0	34	0	2789212160	32	5574
2026-01-07 01:18:24.30	7.01	35.12	-29.1	-29.8	28.8	0.00e+00	0	35	0	2794455040	32	5612
2026-01-07 01:18:25.31	6.73	34.95	-29.2	-29.8	28.7	0.00e+00	0	34	0	2800746496	32	5570
2026-01-07 01:18:26.32	6.45	34.79	-29.2	-29.7	28.8	0.00e+00	0	35	0	2805989376	32	5529
2026-01-07 01:18:27.33	6.18	34.63	-29.3	-29.8	28.8	0.00e+00	0	35	0	2812280832	32	5606
2026-01-07 01:18:28.34	5.91	34.46	-29.3	-30.0	28.7	0.00e+00	0	34	0	2817523712	32	5711
2026-01-07 01:18:29.35	5.64	34.30	-29.3	-29.8	28.7	0.00e+00	0	35	0	2822766592	32	5624
2026-01-07 01:18:30.36	5.38	34.13	-29.4	-29.9	28.8	0.00e+00	0	34	0	2829058048	32	5666
2026-01-07 01:18:31.37	5.11	33.97	-29.4	-30.0	28.7	0.00e+00	0	34	0	2834300928	32	5756
2026-01-07 01:18:32.38	4.85	33.81	-29.1	-29.8	28.7	0.00e+00	0	35	0	2840592384	32	5584
2026-01-07 01:18:33.40	4.59	33.64	-29.2	-29.9	28.7	0.00e+00	0	35	0	2845835264	32	5669
2026-01-07 01:18:34.41	4.34	33.48	-29.2	-29.7	28.8	0.00e+00	0	34	0	2852126720	32	5528
2026-01-07 01:18:35.41	4.09	33.32	-29.2	-29.7	28.8	0.00e+00	0	34	0	2857369600	32	5561
2026-01-07 01:18:36.42	3.84	33.16	-29.0	-29.7	28.9	0.00e+00	0	34	0	2863661056	32	5542
2026-01-07 01:18:37.43	3.59	32.99	-29.2	-29.8	28.8	0.00e+00	0	35	0	2868903936	32	5630
2026-01-07 01:18:38.44	3.35	32.83	-29.6	-30.1	28.6	0.00e+00	0	35	0	2874146816	32	5790
2026-01-07 01:18:39.45	3.11	32.67	-29.2	-29.7	28.9	0.00e+00	0	34	0	2880438272	32	5524
2026-01-07 01:18:40.46	2.87	32.51	-29.3	-29.8	28.7	0.00e+00	0	34	0	2885681152	32	5615
2026-01-07 01:18:41.47	2.63	32.35	-29.2	-29.8	28.8	0.00e+00	0	35	0	2891972608	32	5583
2026-01-07 01:18:42.48	2.39	32.19	-29.3	-30.0	28.8	0.00e+00	0	35	0	2897215488	32	5722
2026-01-07 01:18:43.49	2.16	32.03	-29.3	-29.8	28.8	0.00e+00	0	35	0	2902458368	32	5609
2026-01-07 01:18:44.50	1.93	31.87	-29.2	-29.7	28.8	0.00e+00	0	35	0	2908749824	32	5560
2026-01-07 01:18:45.51	1.70	31.71	-29.1	-29.6	28.8	0.00e+00	0	34	0	2913992704	32	5483
2026-01-07 01:18:46.52	1.48	31.55	-29.2	-29.7	28.8	0.00e+00	0	34	0	2920284160	32	5528
2026-01-07 01:18:47.52	1.26	31.39	-29.3	-29.8	28.7	0.00e+00	0	34	0	2925527040	32	5604
2026-01-07 01:18:48.54	1.03	31.23	-29.3	-29.8	28.8	0.00e+00	0	35	0	2930769920	32	5625
2026-01-07 01:18:49.55	0.81	31.07	-29.3	-29.8	28.7	0.00e+00	0	35	0	2937061376	32	5613
2026-01-07 01:18:50.56	0.60	30.91	-29.2	-29.9	28.8	0.00e+00	0	34	0	2942304256	32	5666
2026-01-07 01:18:51.57	0.38	30.76	-29.2	-29.8	28.8	0.00e+00	0	34	0	2948595712	32	5580
2026-01-07 01:18:52.58	0.17	30.60	-29.2	-29.8	28.8	0.00e+00	0	35	0	2953838592	32	5568
2026-01-07 01:18:53.59	359.96	30.44	-29.4	-29.9	28.7	0.00e+00	0	34	0	2959081472	32	5649
2026-01-07 01:18:54.60	359.75	30.29	-29.5	-30.0	28.6	0.00e+00	0	35	0	2965372928	32	5729
2026-01-07 01:18:55.61	359.54	30.13	-29.6	-30.2	28.5	0.00e+00	0	34	0	2970615808	32	5852
2026-01-07 01:18:56.62	359.34	29.97	-29.8	-30.5	28.4	0.00e+00	0	34	0	2976907264	32	6049
2026-01-07 01:18:57.63	359.14	29.82	-29.9	-30.5	28.2	0.00e+00	0	34	0	2982150144	32	6052
2026-01-07 01:18:58.64	358.94	29.66	-29.9	-30.4	28.3	0.00e+00	0	34	0	2988441600	32	6016
2026-01-07 01:18:59.65	358.74	29.51	-29.8	-30.3	28.4	0.00e+00	0	34	0	2993684480	32	5954
2026-01-07 01:19:00.66	358.54	29.36	-29.7	-30.3	28.4	0.00e+00	0	34	0	2999975936	32	5918
2026-01-07 01:19:01.67	358.35	29.20	-29.7	-30.2	28.4	0.00e+00	0	34	0	3005218816	32	5884
2026-01-07 01:19:02.68	358.15	29.05	-29.7	-30.4	28.4	0.00e+00	0	34	0	3010461696	32	5995
2026-01-07 01:19:03.70	357.96	28.90	-29.8	-30.5	28.2	0.00e+00	0	34	0	3016753152	32	6093
2026-01-07 01:19:04.70	357.77	28.75	-29.8	-30.5	28.3	0.00e+00	0	34	0	3021996032	32	6072
2026-01-07 01:19:05.72	357.59	28.59	-29.8	-30.4	28.4	0.00e+00	0	34	0	3028287488	32	5971
2026-01-07 01:19:06.73	357.40	28.44	-29.7	-30.2	28.4	0.00e+00	0	34	0	3033530368	32	5882
2026-01-07 01:19:07.73	357.22	28.29	-29.6	-30.3	28.4	0.00e+00	0	34	0	3038773248	32	5914
2026-01-07 01:19:08.74	357.04	28.14	-29.8	-30.4	28.3	0.00e+00	0	34	0	3045064704	32	6032
2026-01-07 01:19:09.75	356.86	27.99	-29.5	-30.2	28.5	0.00e+00	0	34	0	3050307584	32	5857
2026-01-07 01:19:10.76	356.68	27.85	-29.6	-30.1	28.5	0.00e+00	0	34	0	3056599040	32	5822
2026-01-07 01:19:11.77	356.50	27.70	-29.7	-30.3	28.3	0.00e+00	0	34	0	3061841920	32	5905
2026-01-07 01:19:12.78	356.33	27.55	-29.8	-30.5	28.3	0.00e+00	0	34	0	3068133376	32	6036
2026-01-07 01:19:13.79	356.15	27.40	-29.9	-30.6	28.2	0.00e+00	0	34	0	3073376256	32	6135
2026-01-07 01:19:14.80	355.98	27.25	-29.9	-30.5	28.2	0.00e+00	0	34	0	3078619136	32	6050
2026-01-07 01:19:15.81	355.81	27.11	-30.1	-30.8	28.1	0.00e+00	0	34	0	3084910592	32	6290
2026-01-07 01:19:16.82	355.64	26.96	-29.9	-30.6	28.2	0.00e+00	0	34	0	3090153472	32	6162
2026-01-07 01:19:17.83	355.47	26.82	-30.0	-30.7	28.2	0.00e+00	0	34	0	3096444928	32	6192
2026-01-07 01:19:18.84	355.31	26.67	-29.8	-30.5	28.2	0.00e+00	0	34	0	3101687808	32	6090
2026-01-07 01:19:19.85	355.14	26.53	-29.8	-30.5	28.2	0.00e+00	0	35	0	3106930688	32	6076
2026-01-07 01:19:20.86	354.98	26.38	-29.9	-30.6	28.2	0.00e+00	0	34	0	3113222144	32	6128
2026-01-07 01:19:21.87	354.82	26.24	-30.0	-30.6	28.1	0.00e+00	0	35	0	3118465024	32	6116
2026-01-07 01:19:22.88	354.66	26.10	-29.8	-30.3	28.3	0.00e+00	0	34	0	3124756480	32	5957
2026-01-07 01:19:23.88	354.50	25.96	-29.7	-30.2	28.2	0.00e+00	0	35	0	3129999360	32	5876
2026-01-07 01:19:24.89	354.35	25.81	-29.7	-30.3	28.4	0.00e+00	0	34	0	3135242240	32	5920
2026-01-07 01:19:25.90	354.19	25.67	-29.7	-30.3	28.4	0.00e+00	0	34	0	3141533696	32	5916
2026-01-07 01:19:26.91	354.04	25.53	-29.8	-30.5	28.3	0.00e+00	0	34	0	3146776576	32	6051
2026-01-07 01:19:27.92	353.88	25.39	-29.8	-30.4	28.3	0.00e+00	0	34	0	3153068032	32	5982
2026-01-07 01:19:28.93	353.73	25.25	-30.1	-30.7	28.1	0.00e+00	0	35	0	3158310912	32	6185
2026-01-07 01:19:29.94	353.58	25.11	-29.9	-30.6	28.2	0.00e+00	0	35	0	3164602368	32	6127
2026-01-07 01:19:30.95	353.44	24.97	-29.8	-30.5	28.3	0.00e+00	0	34	0	3169845248	32	6071
2026-01-07 01:19:31.96	353.29	24.83	-29.6	-30.2	28.4	0.00e+00	0	34	0	3176136704	32	5845
2026-01-07 01:19:32.97	353.14	24.70	-29.8	-30.4	28.3	0.00e+00	0	34	0	3181379584	32	5966
2026-01-07 01:19:33.98	353.00	24.56	-29.7	-30.3	28.4	0.00e+00	0	35	0	3186622464	32	5919
2026-01-07 01:19:34.99	352.85	24.42	-29.9	-30.4	28.2	0.00e+00	0	35	0	3192913920	32	6009
2026-01-07 01:19:36.00	352.71	24.29	-29.8	-30.4	28.2	0.00e+00	0	34	0	3198156800	32	5983
2026-01-07 01:19:37.01	352.57	24.15	-29.9	-30.5	28.2	0.00e+00	0	35	0	3203399680	32	6041
2026-01-07 01:19:38.02	352.43	24.02	-30.0	-30.7	28.2	0.00e+00	0	35	0	3209691136	32	6187
2026-01-07 01:19:39.03	352.29	23.88	-30.0	-30.7	28.1	0.00e+00	0	35	0	3214934016	32	6195
2026-01-07 01:19:40.04	352.16	23.75	-30.0	-30.7	28.2	0.00e+00	0	34	0	3221225472	32	6203
2026-01-07 01:19:41.05	352.02	23.61	-30.0	-30.6	28.2	0.00e+00	0	35	0	3226468352	32	6120
2026-01-07 01:19:42.06	351.89	23.48	-30.0	-30.7	28.1	0.00e+00	0	35	0	3231711232	32	6235
2026-01-07 01:19:43.06	351.75	23.35	-30.1	-30.8	28.1	0.00e+00	0	35	0	3238002688	32	6264
2026-01-07 01:19:44.07	351.62	23.22	-30.1	-30.6	28.1	0.00e+00	0	35	0	3243245568	32	6145
2026-01-07 01:19:45.08	351.49	23.08	-30.0	-30.5	28.2	0.00e+00	0	35	0	3249537024	32	6093
2026-01-07 01:19:46.09	351.36	22.95	-30.2	-30.7	28.0	0.00e+00	0	34	0	3254779904	32	6217
2026-01-07 01:19:47.10	351.23	22.82	-30.2	-30.7	28.1	0.00e+00	0	34	0	3261071360	32	6243
2026-01-07 01:19:48.11	351.10	22.69	-30.3	-30.8	27.9	0.00e+00	0	35	0	3266314240	32	6287
2026-01-07 01:19:49.12	350.98	22.56	-30.2	-30.9	27.9	0.00e+00	0	34	0	3272605696	32	6363
2026-01-07 01:19:50.13	350.85	22.43	-30.4	-31.1	27.8	0.00e+00	0	35	0	3277848576	32	6494
2026-01-07 01:19:51.14	350.73	22.31	-30.5	-31.2	27.8	0.00e+00	0	34	0	3283091456	32	6563
2026-01-07 01:19:52.15	350.60	22.18	-30.4	-31.1	27.8	0.00e+00	0	35	0	3289382912	32	6466
2026-01-07 01:19:53.16	350.48	22.05	-30.5	-31.2	27.8	0.00e+00	0	35	0	3294625792	32	6580
2026-01-07 01:19:54.17	350.36	21.92	-30.5	-31.1	27.7	0.00e+00	0	34	0	3300917248	32	6466
2026-01-07 01:19:55.18	350.24	21.80	-30.5	-31.0	27.7	0.00e+00	0	34	0	3306160128	32	6454
2026-01-07 01:19:56.19	350.12	21.67	-30.6	-31.1	27.8	0.00e+00	0	35	0	3311403008	32	6529
2026-01-07 01:19:57.20	350.00	21.54	-30.6	-31.2	27.7	0.00e+00	0	35	0	3317694464	32	6584
2026-01-07 01:19:58.21	349.88	21.42	-30.5	-31.0	27.9	0.00e+00	0	34	0	3322937344	34	5761
2026-01-07 01:19:59.22	349.77	21.29	-30.4	-31.1	27.8	0.00e+00	0	34	0	3329228800	34	5783
2026-01-07 01:20:00.23	349.65	21.17	-30.4	-31.0	27.9	0.00e+00	0	34	0	3334471680	34	5698
2026-01-07 01:20:01.24	349.54	21.05	-30.3	-30.8	28.0	0.00e+00	0	34	0	3339714560	34	5614
2026-01-07 01:20:02.26	349.42	20.92	-30.4	-30.9	27.9	0.00e+00	0	34	0	3346006016	34	5672
2026-01-07 01:20:03.27	349.31	20.80	-30.5	-31.0	27.8	0.00e+00	0	34	0	3351248896	34	5746
2026-01-07 01:20:04.28	349.20	20.68	-30.4	-30.9	27.7	0.00e+00	0	34	0	3357540352	34	5688
2026-01-07 01:20:05.28	349.09	20.56	-30.4	-31.0	27.8	0.00e+00	0	34	0	3362783232	34	5707
2026-01-07 01:20:06.30	348.98	20.43	-30.6	-31.1	27.7	0.00e+00	0	34	0	3369074688	34	5827
2026-01-07 01:20:07.30	348.87	20.31	-30.6	-31.1	27.7	0.00e+00	0	34	0	3374317568	34	5807
2026-01-07 01:20:08.31	348.76	20.19	-30.6	-31.1	27.7	0.00e+00	0	34	0	3380609024	34	5819
2026-01-07 01:20:09.32	348.65	20.07	-30.7	-31.3	27.5	0.00e+00	0	34	0	3385851904	34	5907
2026-01-07 01:20:10.33	348.55	19.95	-30.8	-31.5	27.4	0.00e+00	0	34	0	3391094784	34	6088
2026-01-07 01:20:11.34	348.44	19.84	-30.9	-31.6	27.4	0.00e+00	0	34	0	3397386240	34	6118
2026-01-07 01:20:12.35	348.34	19.72	-30.8	-31.5	27.5	0.00e+00	0	35	0	3402629120	34	6063
2026-01-07 01:20:13.36	348.23	19.60	-30.9	-31.7	27.4	0.00e+00	0	34	0	3408920576	34	6180
2026-01-07 01:20:14.37	348.13	19.48	-31.1	-31.8	27.2	0.00e+00	0	34	0	3414163456	34	6278
2026-01-07 01:20:15.38	348.03	19.36	-31.1	-31.8	27.2	0.00e+00	0	34	0	3419406336	34	6288
2026-01-07 01:20:16.39	347.93	19.25	-31.2	-31.9	27.1	0.00e+00	0	34	0	3425697792	34	6338
2026-01-07 01:20:17.40	347.83	19.13	-31.3	-32.0	27.1	0.00e+00	0	35	0	3430940672	34	6423
2026-01-07 01:20:18.41	347.73	19.02	-31.3	-32.1	27.1	0.00e+00	0	34	0	3437232128	34	6478
2026-01-07 01:20:19.42	347.63	18.90	-31.3	-32.0	27.1	0.00e+00	0	34	0	3442475008	34	6463
2026-01-07 01:20:20.44	347.53	18.78	-31.4	-32.0	27.0	0.00e+00	0	34	0	3447717888	34	6458
2026-01-07 01:20:21.44	347.43	18.67	-31.4	-32.0	27.0	0.00e+00	0	34	0	3454009344	34	6396
2026-01-07 01:20:22.45	347.33	18.56	-31.5	-32.2	27.0	0.00e+00	0	34	0	3459252224	34	6576
2026-01-07 01:20:23.46	347.24	18.44	-31.4	-31.9	27.0	0.00e+00	0	34	0	3465543680	34	6387
2026-01-07 01:20:24.47	347.14	18.33	-31.4	-32.2	26.9	0.00e+00	0	35	0	3470786560	34	6546
2026-01-07 01:20:25.48	347.05	18.22	-31.5	-32.1	27.0	0.00e+00	0	34	0	3477078016	34	6480
2026-01-07 01:20:26.49	346.95	18.10	-31.4	-32.0	27.0	0.00e+00	0	34	0	3482320896	34	6438
2026-01-07 01:20:27.50	346.86	17.99	-31.3	-32.0	27.0	0.00e+00	0	34	0	3487563776	34	6428
2026-01-07 01:20:28.51	346.77	17.88	-31.5	-32.0	26.9	0.00e+00	0	34	0	3493855232	34	6459
2026-01-07 01:20:29.52	346.68	17.77	-31.6	-32.3	26.8	0.00e+00	0	35	0	3499098112	34	6682
2026-01-07 01:20:30.53	346.59	17.66	-31.6	-32.1	26.9	0.00e+00	0	34	0	3505389568	36	5819
2026-01-07 01:20:31.54	346.49	17.55	-31.6	-32.2	26.9	0.00e+00	0	35	0	3510632448	36	5831
2026-01-07 01:20:32.55	346.41	17.44	-31.7	-32.2	26.8	0.00e+00	0	34	0	3515875328	36	5877
2026-01-07 01:20:33.56	346.32	17.33	-31.6	-32.2	26.8	0.00e+00	0	34	0	3522166784	36	5847
2026-01-07 01:20:34.57	346.23	17.22	-31.7	-32.2	26.8	0.00e+00	0	35	0	3527409664	36	5892
2026-01-07 01:20:35.58	346.14	17.11	-31.7	-32.4	26.8	0.00e+00	0	34	0	3533701120	36	5996
2026-01-07 01:20:36.59	346.05	17.01	-31.8	-32.5	26.6	0.00e+00	0	34	0	3538944000	36	6045
2026-01-07 01:20:37.60	345.97	16.90	-31.9	-32.4	26.5	0.00e+00	0	34	0	3544186880	36	6013
2026-01-07 01:20:38.60	345.88	16.79	-31.8	-32.3	26.7	0.00e+00	0	34	0	3550478336	36	5951
2026-01-07 01:20:39.61	345.80	16.68	-31.7	-32.2	26.8	0.00e+00	0	34	0	3555721216	36	5871
2026-01-07 01:20:40.62	345.71	16.58	-31.8	-32.3	26.6	0.00e+00	0	34	0	3562012672	36	5949
2026-01-07 01:20:41.63	345.63	16.47	-31.8	-32.4	26.6	0.00e+00	0	34	0	3567255552	36	5966
2026-01-07 01:20:42.64	345.55	16.37	-31.9	-32.4	26.5	0.00e+00	0	35	0	3573547008	36	6004
2026-01-07 01:20:43.65	345.46	16.26	-31.9	-32.4	26.5	0.00e+00	0	34	0	3578789888	36	6026
2026-01-07 01:20:44.66	345.38	16.16	-31.9	-32.5	26.5	0.00e+00	0	34	0	3585081344	36	6052
2026-01-07 01:20:45.67	345.30	16.05	-32.0	-32.5	26.5	0.00e+00	0	34	0	3590324224	36	6090
