passes_logs/2026/01/07/R4.6S_Anadyr/R4.6S_Anadyr__20260107_182105_FENGYUN_3E_rec.log

#Pass ID: 20260107_182105_FENGYUN 3E
#Satellite: FENGYUN 3E
#Configuration: FENGYUN 3E
#almurnet v.1.7.20251203
#Start time: 2026-01-07 18:21:07

#Version: 2.2.20231116
#Station: R4.6S_Anadyr
#Location: 177.4865 lon 64.73178 lat
#TLE: 1 49008U 21062A   26005.56299987  .00000339  00000+0  18069-3 0  9991
#TLE: 2 49008  98.7472  10.8019 0001562 158.0357 202.0886 14.19884907233502

#Time	Az	El	Level	Level2	SNR	BER	BlckErr	Temp	State	Recorded	gain1	gain2
2026-01-07 18:21:07.36	19.43	0.12	-49.3	-64.2	3.5	1.51e+00	0	35	0	0	60	58780
2026-01-07 18:21:08.37	19.45	0.18	-49.1	-60.4	3.6	8.45e-01	0	37	104	0	60	37659
2026-01-07 18:21:09.38	19.47	0.24	-49.1	-60.3	3.6	8.45e-01	0	37	104	0	60	37594
2026-01-07 18:21:10.39	19.50	0.29	-49.1	-60.4	3.6	8.45e-01	0	37	104	0	60	37646
2026-01-07 18:21:11.40	19.52	0.35	-49.1	-60.4	3.6	8.46e-01	0	37	104	0	60	37704
2026-01-07 18:21:12.40	19.55	0.41	-49.1	-60.3	3.6	8.44e-01	0	37	104	0	60	37594
2026-01-07 18:21:13.41	19.57	0.47	-49.1	-60.3	3.6	8.45e-01	0	37	104	0	60	37541
2026-01-07 18:21:14.42	19.59	0.53	-49.1	-60.3	3.6	8.44e-01	0	37	104	0	60	37472
2026-01-07 18:21:15.43	19.62	0.59	-49.1	-60.4	3.6	8.45e-01	0	37	104	0	60	37641
2026-01-07 18:21:16.44	19.64	0.65	-49.1	-60.3	3.6	8.45e-01	0	37	104	0	60	37586
2026-01-07 18:21:17.45	19.67	0.72	-49.1	-60.3	3.6	8.44e-01	0	37	104	0	60	37542
2026-01-07 18:21:18.46	19.69	0.78	-49.1	-60.3	3.6	8.45e-01	0	37	104	0	60	37455
2026-01-07 18:21:19.47	19.72	0.84	-49.1	-60.4	3.6	8.45e-01	0	37	104	0	60	37695
2026-01-07 18:21:20.48	19.74	0.90	-49.1	-60.4	3.6	8.46e-01	0	37	104	0	60	37640
2026-01-07 18:21:21.49	19.77	0.96	-49.1	-60.4	3.6	8.45e-01	0	37	104	0	60	37808
2026-01-07 18:21:22.50	19.79	1.02	-49.1	-60.4	3.6	8.45e-01	0	37	104	0	60	37666
2026-01-07 18:21:23.51	19.82	1.08	-49.1	-60.4	3.6	8.45e-01	0	37	104	0	60	37792
2026-01-07 18:21:24.52	19.84	1.14	-49.1	-60.3	3.6	8.45e-01	0	37	104	0	60	37600
2026-01-07 18:21:25.53	19.87	1.20	-49.1	-60.4	3.6	8.45e-01	0	37	104	0	60	37834
2026-01-07 18:21:26.54	19.89	1.26	-49.1	-60.4	3.6	8.45e-01	0	37	104	0	60	37678
2026-01-07 18:21:27.55	19.92	1.33	-49.1	-60.4	3.6	8.45e-01	0	37	104	0	60	37779
2026-01-07 18:21:28.55	19.94	1.39	-49.2	-60.4	3.6	8.44e-01	0	37	104	0	60	37810
2026-01-07 18:21:29.56	19.97	1.45	-49.1	-60.4	3.6	8.46e-01	0	37	104	0	60	37769
2026-01-07 18:21:30.57	19.99	1.51	-49.1	-60.3	3.6	8.44e-01	0	37	104	0	60	37551
2026-01-07 18:21:31.58	20.02	1.57	-49.1	-60.4	3.6	8.45e-01	0	37	104	0	60	37727
2026-01-07 18:21:32.59	20.05	1.64	-49.1	-60.4	3.6	8.45e-01	0	37	104	0	60	37812
2026-01-07 18:21:33.60	20.07	1.70	-49.1	-60.3	3.6	8.46e-01	0	37	104	0	60	37543
2026-01-07 18:21:34.61	20.10	1.76	-49.1	-60.3	3.6	8.46e-01	0	37	104	0	60	37518
2026-01-07 18:21:35.62	20.12	1.82	-49.1	-60.4	3.6	8.46e-01	0	37	104	0	60	37634
2026-01-07 18:21:36.63	20.15	1.89	-49.1	-60.4	3.6	8.45e-01	0	37	104	0	60	37691
2026-01-07 18:21:37.64	20.18	1.95	-49.1	-60.4	3.6	8.45e-01	0	37	104	0	60	37752
2026-01-07 18:21:38.65	20.20	2.01	-49.1	-60.3	3.6	8.45e-01	0	37	104	0	60	37490
2026-01-07 18:21:39.66	20.23	2.08	-49.2	-60.3	3.6	8.44e-01	0	37	104	0	60	37503
2026-01-07 18:21:40.67	20.26	2.14	-49.1	-60.3	3.6	8.45e-01	0	37	104	0	60	37629
2026-01-07 18:21:41.69	20.28	2.20	-49.1	-60.4	3.6	8.45e-01	0	37	104	0	60	37999
2026-01-07 18:21:42.70	20.31	2.27	-49.1	-60.4	3.6	8.44e-01	0	37	104	0	60	37686
2026-01-07 18:21:43.70	20.34	2.33	-49.2	-60.3	3.6	8.45e-01	0	37	104	0	60	37631
2026-01-07 18:21:44.71	20.36	2.40	-49.2	-60.4	3.6	8.45e-01	0	38	104	0	60	37739
2026-01-07 18:21:45.72	20.39	2.46	-49.1	-60.4	3.6	8.45e-01	0	38	104	0	60	37638
2026-01-07 18:21:46.73	20.42	2.52	-49.1	-60.3	3.6	8.46e-01	0	38	104	0	60	37560
2026-01-07 18:21:47.74	20.44	2.59	-49.2	-60.4	3.6	8.46e-01	0	38	104	0	60	37679
2026-01-07 18:21:48.75	20.47	2.65	-49.2	-60.4	3.6	8.46e-01	0	38	104	0	60	37916
2026-01-07 18:21:49.76	20.50	2.72	-49.2	-60.4	3.6	8.45e-01	0	38	104	0	60	37687
2026-01-07 18:21:50.77	20.53	2.78	-49.2	-60.4	3.6	8.45e-01	0	38	104	0	60	37657
2026-01-07 18:21:51.78	20.55	2.85	-49.2	-60.4	3.6	8.45e-01	0	38	104	0	60	37678
2026-01-07 18:21:52.79	20.58	2.91	-49.2	-60.4	3.6	8.45e-01	0	38	104	0	60	37765
2026-01-07 18:21:53.80	20.61	2.98	-49.2	-60.4	3.6	8.45e-01	0	38	104	0	60	37820
2026-01-07 18:21:54.81	20.64	3.04	-49.2	-60.4	3.6	8.45e-01	0	38	104	0	60	37637
2026-01-07 18:21:55.82	20.67	3.11	-49.2	-60.4	3.6	8.45e-01	0	38	104	0	60	37808
2026-01-07 18:21:56.83	20.69	3.17	-49.1	-60.4	3.6	8.45e-01	0	38	104	0	60	37877
2026-01-07 18:21:57.84	20.72	3.24	-49.1	-60.4	3.6	8.45e-01	0	38	104	0	60	37677
2026-01-07 18:21:58.85	20.75	3.31	-49.1	-60.4	3.6	8.46e-01	0	38	104	0	60	37793
2026-01-07 18:21:59.86	20.78	3.37	-49.2	-60.4	3.6	8.46e-01	0	38	104	0	60	37716
2026-01-07 18:22:00.87	20.81	3.44	-49.2	-60.4	3.6	8.44e-01	0	38	104	0	60	37802
2026-01-07 18:22:01.88	20.84	3.51	-49.2	-60.4	3.6	8.46e-01	0	38	104	0	60	37852
2026-01-07 18:22:02.89	20.86	3.57	-49.1	-60.4	3.6	8.44e-01	0	38	104	0	60	37887
2026-01-07 18:22:03.90	20.89	3.64	-49.1	-60.4	3.6	8.47e-01	0	38	104	0	60	37780
2026-01-07 18:22:04.91	20.92	3.71	-49.1	-60.4	3.6	8.45e-01	0	38	104	0	60	37787
2026-01-07 18:22:05.92	20.95	3.77	-49.2	-60.4	3.6	8.44e-01	0	38	104	0	60	37802
2026-01-07 18:22:06.93	20.98	3.84	-49.2	-60.4	3.5	8.46e-01	0	38	104	0	60	37803
2026-01-07 18:22:07.94	21.01	3.91	-49.2	-60.4	3.6	8.45e-01	0	38	104	0	60	37827
2026-01-07 18:22:08.95	21.04	3.98	-49.1	-60.4	3.6	8.45e-01	0	38	104	0	60	37717
2026-01-07 18:22:09.96	21.07	4.04	-49.1	-60.4	3.6	8.46e-01	0	38	104	0	60	37680
2026-01-07 18:22:10.97	21.10	4.11	-49.1	-60.3	3.6	8.45e-01	0	38	104	0	60	37508
2026-01-07 18:22:11.98	21.13	4.18	-49.2	-60.4	3.6	8.45e-01	0	38	104	0	60	37737
2026-01-07 18:22:12.99	21.16	4.25	-49.1	-60.4	3.6	8.46e-01	0	38	104	0	60	37750
2026-01-07 18:22:14.00	21.19	4.32	-49.2	-60.3	3.6	8.45e-01	0	38	104	0	60	37617
2026-01-07 18:22:15.01	21.22	4.38	-49.2	-60.4	3.6	8.45e-01	0	38	104	0	60	37836
2026-01-07 18:22:16.02	21.25	4.45	-49.2	-60.4	3.6	8.44e-01	0	38	104	0	60	37782
2026-01-07 18:22:17.03	21.28	4.52	-49.2	-60.4	3.6	8.45e-01	0	38	104	0	60	37765
2026-01-07 18:22:18.04	21.31	4.59	-49.1	-60.4	3.6	8.46e-01	0	38	104	0	60	37887
2026-01-07 18:22:19.05	21.34	4.66	-49.1	-60.3	3.6	8.46e-01	0	38	104	0	60	37619
2026-01-07 18:22:20.06	21.37	4.73	-49.1	-60.3	3.6	8.46e-01	0	38	104	0	60	37607
2026-01-07 18:22:21.07	21.40	4.80	-49.1	-60.3	3.6	8.44e-01	0	38	104	0	60	37561
2026-01-07 18:22:22.08	21.43	4.87	-49.2	-60.4	3.6	8.45e-01	0	38	104	0	60	37819
2026-01-07 18:22:23.09	21.46	4.94	-49.2	-60.4	3.6	8.45e-01	0	38	104	0	60	37737
2026-01-07 18:22:24.10	21.50	5.01	-49.2	-60.4	3.5	8.46e-01	0	38	104	0	60	37821
2026-01-07 18:22:25.11	21.53	5.08	-49.2	-60.4	3.6	8.45e-01	0	38	104	0	60	37956
2026-01-07 18:22:26.12	21.56	5.15	-49.2	-60.4	3.6	8.45e-01	0	38	104	0	60	37895
2026-01-07 18:22:27.13	21.59	5.22	-49.1	-60.4	3.6	8.45e-01	0	38	104	0	60	37912
2026-01-07 18:22:28.14	21.62	5.29	-49.2	-60.4	3.6	8.46e-01	0	38	104	0	60	37722
2026-01-07 18:22:29.15	21.65	5.36	-49.2	-60.4	3.6	8.45e-01	0	38	104	0	60	37737
2026-01-07 18:22:30.16	21.69	5.44	-49.2	-60.3	3.6	8.45e-01	0	38	104	0	60	37604
2026-01-07 18:22:31.17	21.72	5.51	-49.2	-60.4	3.6	8.45e-01	0	38	104	0	60	37798
2026-01-07 18:22:32.18	21.75	5.58	-49.2	-60.4	3.6	8.45e-01	0	38	104	0	60	37894
2026-01-07 18:22:33.19	21.78	5.65	-49.2	-60.4	3.6	8.46e-01	0	38	104	0	60	37829
2026-01-07 18:22:34.20	21.82	5.72	-49.2	-60.3	3.6	8.45e-01	0	38	104	0	60	37594
2026-01-07 18:22:35.21	21.85	5.79	-49.2	-60.4	3.6	8.45e-01	0	38	104	0	60	37763
2026-01-07 18:22:36.22	21.88	5.87	-49.2	-60.4	3.6	8.45e-01	0	38	104	0	60	37866
2026-01-07 18:22:37.23	21.91	5.94	-49.1	-60.4	3.6	8.45e-01	0	38	104	0	60	37675
2026-01-07 18:22:38.24	21.95	6.01	-49.2	-60.3	3.6	8.46e-01	0	38	104	0	60	37527
2026-01-07 18:22:39.25	21.98	6.09	-49.2	-60.4	3.6	8.45e-01	0	38	104	0	60	37775
2026-01-07 18:22:40.26	22.01	6.16	-49.2	-60.4	3.6	8.44e-01	0	38	104	0	60	37819
2026-01-07 18:22:41.27	22.05	6.23	-49.2	-60.4	3.6	8.46e-01	0	38	104	0	60	37643
2026-01-07 18:22:42.28	22.08	6.31	-49.2	-60.4	3.6	8.46e-01	0	38	104	0	60	37798
2026-01-07 18:22:43.29	22.11	6.38	-49.2	-60.4	3.6	8.47e-01	0	38	104	0	60	37771
2026-01-07 18:22:44.30	22.15	6.45	-49.2	-60.4	3.6	8.46e-01	0	38	104	0	60	37703
2026-01-07 18:22:45.31	22.18	6.53	-49.2	-60.4	3.6	8.45e-01	0	38	104	0	60	37740
2026-01-07 18:22:46.32	22.22	6.60	-49.2	-60.4	3.6	8.44e-01	0	38	104	0	60	37652
2026-01-07 18:22:47.33	22.25	6.68	-49.2	-60.4	3.6	8.46e-01	0	38	104	0	60	37802
2026-01-07 18:22:48.34	22.29	6.75	-49.2	-60.4	3.6	8.46e-01	0	38	104	0	60	37821
2026-01-07 18:22:49.35	22.32	6.83	-49.2	-60.4	3.6	8.45e-01	0	38	104	0	60	37719
2026-01-07 18:22:50.36	22.36	6.90	-49.1	-60.4	3.5	8.45e-01	0	38	104	0	60	37893
2026-01-07 18:22:51.37	22.39	6.98	-49.2	-60.4	3.6	8.44e-01	0	38	104	0	60	37854
2026-01-07 18:22:52.38	22.43	7.05	-49.2	-60.4	3.6	8.46e-01	0	38	104	0	60	37852
2026-01-07 18:22:53.39	22.46	7.13	-49.2	-60.4	3.6	8.46e-01	0	38	104	0	60	37667
2026-01-07 18:22:54.40	22.50	7.21	-49.2	-60.4	3.6	8.46e-01	0	38	104	0	60	37773
2026-01-07 18:22:55.41	22.53	7.28	-49.2	-60.4	3.6	8.44e-01	0	38	104	0	60	37900
2026-01-07 18:22:56.42	22.57	7.36	-49.2	-60.4	3.6	8.46e-01	0	38	104	0	60	37639
2026-01-07 18:22:57.43	22.60	7.44	-49.2	-60.4	3.6	8.46e-01	0	38	104	0	60	37651
2026-01-07 18:22:58.44	22.64	7.51	-49.2	-60.3	3.6	8.45e-01	0	38	104	0	60	37528
2026-01-07 18:22:59.45	22.68	7.59	-49.2	-60.4	3.6	8.45e-01	0	38	104	0	60	37833
2026-01-07 18:23:00.46	22.71	7.67	-49.2	-60.3	3.6	8.45e-01	0	38	104	0	60	37587
2026-01-07 18:23:01.47	22.75	7.75	-49.2	-60.4	3.6	8.44e-01	0	38	104	0	60	37654
2026-01-07 18:23:02.48	22.79	7.82	-49.2	-60.4	3.6	8.46e-01	0	38	104	0	60	37873
2026-01-07 18:23:03.49	22.82	7.90	-49.2	-60.4	3.5	8.46e-01	0	38	104	0	60	37819
2026-01-07 18:23:04.50	22.86	7.98	-49.2	-60.4	3.6	8.45e-01	0	38	104	0	60	37713
2026-01-07 18:23:05.51	22.90	8.06	-49.2	-60.3	3.6	8.44e-01	0	38	104	0	60	37569
2026-01-07 18:23:06.52	22.94	8.14	-49.2	-60.4	3.6	8.45e-01	0	38	104	0	60	37875
2026-01-07 18:23:07.53	22.97	8.22	-49.2	-60.4	3.6	8.46e-01	0	38	104	0	60	37821
2026-01-07 18:23:08.54	23.01	8.30	-49.2	-60.4	3.6	8.44e-01	0	38	104	0	60	37723
2026-01-07 18:23:09.55	23.05	8.38	-49.1	-60.4	3.6	8.45e-01	0	38	104	0	60	37699
2026-01-07 18:23:10.56	23.09	8.46	-49.2	-60.4	3.6	8.46e-01	0	38	104	0	60	37833
2026-01-07 18:23:11.57	23.13	8.54	-49.2	-60.4	3.6	8.45e-01	0	38	104	0	60	37750
2026-01-07 18:23:12.58	23.17	8.62	-49.2	-60.4	3.6	8.45e-01	0	38	104	0	60	37641
2026-01-07 18:23:13.59	23.21	8.70	-49.2	-60.4	3.6	8.46e-01	0	38	104	0	60	37715
2026-01-07 18:23:14.60	23.24	8.78	-49.2	-60.4	3.6	8.46e-01	0	38	104	0	60	37685
2026-01-07 18:23:15.61	23.28	8.86	-49.2	-60.4	3.6	8.45e-01	0	38	104	0	60	37721
2026-01-07 18:23:16.62	23.32	8.94	-49.2	-60.4	3.6	8.46e-01	0	38	104	0	60	37768
2026-01-07 18:23:17.62	23.36	9.02	-49.2	-60.4	3.6	8.45e-01	0	38	104	0	60	37909
2026-01-07 18:23:18.64	23.40	9.10	-49.2	-60.4	3.6	8.45e-01	0	38	104	0	60	37739
2026-01-07 18:23:19.64	23.44	9.19	-49.2	-60.4	3.6	8.44e-01	0	38	104	0	60	37897
2026-01-07 18:23:20.66	23.48	9.27	-49.2	-60.4	3.6	8.45e-01	0	38	104	0	60	37894
2026-01-07 18:23:21.66	23.52	9.35	-49.2	-60.4	3.6	8.45e-01	0	38	104	0	60	37818
2026-01-07 18:23:22.68	23.56	9.44	-49.2	-60.4	3.6	8.44e-01	0	38	104	0	60	37679
2026-01-07 18:23:23.68	23.60	9.52	-49.2	-60.3	3.6	8.45e-01	0	38	104	0	60	37526
2026-01-07 18:23:24.70	23.65	9.60	-49.2	-60.4	3.6	8.46e-01	0	38	104	0	60	37917
2026-01-07 18:23:25.71	23.69	9.69	-49.2	-60.4	3.6	8.46e-01	0	38	104	0	60	37736
2026-01-07 18:23:26.72	23.73	9.77	-49.2	-60.4	3.6	8.45e-01	0	38	104	0	60	37868
2026-01-07 18:23:27.73	23.77	9.85	-49.2	-60.3	3.6	8.44e-01	0	38	104	0	60	37549
2026-01-07 18:23:28.73	23.81	9.94	-49.2	-60.4	3.6	8.45e-01	0	38	104	0	60	37837
2026-01-07 18:23:29.74	23.85	10.02	-49.2	-60.4	3.6	8.45e-01	0	38	104	0	60	37879
2026-01-07 18:23:30.75	23.90	10.11	-49.2	-60.4	3.6	8.45e-01	0	38	104	0	60	37943
2026-01-07 18:23:31.76	23.94	10.19	-49.1	-60.4	3.6	8.45e-01	0	38	104	0	60	38009
2026-01-07 18:23:32.77	23.98	10.28	-49.2	-60.4	3.6	8.44e-01	0	38	104	0	60	37733
2026-01-07 18:23:33.78	24.02	10.37	-49.2	-60.4	3.6	8.44e-01	0	38	104	0	60	37876
2026-01-07 18:23:34.79	24.07	10.45	-49.2	-60.4	3.6	8.45e-01	0	38	104	0	60	37753
2026-01-07 18:23:35.80	24.11	10.54	-49.2	-60.4	3.6	8.46e-01	0	38	104	0	60	37870
2026-01-07 18:23:36.81	24.16	10.63	-49.2	-60.4	3.6	8.45e-01	0	38	104	0	60	38008
2026-01-07 18:23:37.82	24.20	10.71	-49.2	-60.3	3.6	8.45e-01	0	38	104	0	60	37604
2026-01-07 18:23:38.83	24.24	10.80	-49.2	-60.4	3.6	8.44e-01	0	38	104	0	60	37759
2026-01-07 18:23:39.84	24.29	10.89	-49.2	-60.4	3.6	8.46e-01	0	38	104	0	60	37676
2026-01-07 18:23:40.84	24.33	10.98	-49.2	-60.4	3.6	8.44e-01	0	38	104	0	60	37853
2026-01-07 18:23:41.85	24.38	11.06	-49.2	-60.4	3.6	8.46e-01	0	38	104	0	60	37914
2026-01-07 18:23:42.86	24.42	11.15	-49.2	-60.4	3.6	8.46e-01	0	38	104	0	60	37769
2026-01-07 18:23:43.87	24.47	11.24	-49.2	-60.4	3.6	8.46e-01	0	38	104	0	60	37725
2026-01-07 18:23:44.88	24.51	11.33	-49.2	-60.4	3.6	8.45e-01	0	38	104	0	60	37814
2026-01-07 18:23:45.89	24.56	11.42	-49.2	-60.4	3.6	8.46e-01	0	38	104	0	60	37763
2026-01-07 18:23:46.90	24.61	11.51	-49.2	-60.4	3.6	8.44e-01	0	38	104	0	60	37747
2026-01-07 18:23:47.91	24.65	11.60	-49.2	-60.4	3.6	8.46e-01	0	38	104	0	60	37644
2026-01-07 18:23:48.92	24.70	11.69	-49.2	-60.4	3.5	8.46e-01	0	38	104	0	60	37821
2026-01-07 18:23:49.93	24.75	11.78	-49.2	-60.4	3.6	8.45e-01	0	38	104	0	60	37850
2026-01-07 18:23:50.94	24.79	11.87	-49.2	-60.4	3.6	8.46e-01	0	38	104	0	60	37872
2026-01-07 18:23:51.95	24.84	11.97	-49.2	-60.4	3.6	8.45e-01	0	38	104	0	60	37657
2026-01-07 18:23:52.96	24.89	12.06	-49.2	-60.4	3.6	8.46e-01	0	38	104	0	60	37749
2026-01-07 18:23:53.97	24.94	12.15	-49.2	-60.4	3.6	8.45e-01	0	38	104	0	60	37702
2026-01-07 18:23:54.98	24.98	12.24	-49.2	-60.4	3.6	8.46e-01	0	38	104	0	60	37763
2026-01-07 18:23:55.99	25.03	12.33	-49.2	-60.4	3.6	8.45e-01	0	38	104	0	60	37839
2026-01-07 18:23:57.00	25.08	12.43	-49.1	-60.3	3.6	8.45e-01	0	38	104	0	60	37621
2026-01-07 18:23:58.01	25.13	12.52	-49.2	-60.3	3.6	8.44e-01	0	38	104	0	60	37452
2026-01-07 18:23:59.02	25.18	12.62	-49.2	-60.3	3.6	8.45e-01	0	38	104	0	60	37584
2026-01-07 18:24:00.03	25.23	12.71	-49.1	-60.3	3.6	8.45e-01	0	38	104	0	60	37571
2026-01-07 18:24:01.04	25.28	12.80	-49.2	-60.3	3.6	8.46e-01	0	38	104	0	60	37551
2026-01-07 18:24:02.05	25.33	12.90	-49.1	-60.4	3.6	8.46e-01	0	38	104	0	60	37846
2026-01-07 18:24:03.06	25.38	13.00	-49.2	-60.4	3.6	8.45e-01	0	38	104	0	60	37842
2026-01-07 18:24:04.06	25.43	13.09	-49.2	-60.4	3.6	8.45e-01	0	38	104	0	60	37676
2026-01-07 18:24:05.07	25.48	13.19	-49.2	-60.3	3.6	8.46e-01	0	38	104	0	60	37489
2026-01-07 18:24:06.08	25.53	13.28	-49.2	-60.4	3.6	8.46e-01	0	38	104	0	60	37879
2026-01-07 18:24:07.09	25.58	13.38	-49.2	-60.4	3.6	8.45e-01	0	38	104	0	60	37774
2026-01-07 18:24:08.10	25.64	13.48	-49.2	-60.4	3.6	8.46e-01	0	38	104	0	60	37685
2026-01-07 18:24:09.11	25.69	13.57	-49.1	-60.4	3.5	8.45e-01	0	38	104	0	60	37766
2026-01-07 18:24:10.12	25.74	13.67	-49.1	-60.4	3.6	8.45e-01	0	38	104	0	60	37664
2026-01-07 18:24:11.13	25.79	13.77	-49.1	-60.4	3.6	8.46e-01	0	38	104	0	60	37863
2026-01-07 18:24:12.14	25.85	13.87	-49.1	-60.3	3.6	8.44e-01	0	38	104	0	60	37448
2026-01-07 18:24:13.15	25.90	13.97	-49.1	-60.4	3.6	8.44e-01	0	38	104	0	60	37797
2026-01-07 18:24:14.16	25.96	14.07	-49.1	-60.4	3.6	8.44e-01	0	38	104	0	60	37752
2026-01-07 18:24:15.17	26.01	14.17	-49.1	-60.3	3.6	8.45e-01	0	38	104	0	60	37613
2026-01-07 18:24:16.18	26.06	14.27	-49.1	-60.3	3.6	8.45e-01	0	38	104	0	60	37420
2026-01-07 18:24:17.19	26.12	14.37	-49.1	-60.4	3.6	8.45e-01	0	38	104	0	60	37713
2026-01-07 18:24:18.20	26.18	14.47	-49.1	-60.4	3.6	8.46e-01	0	38	104	0	60	37697
2026-01-07 18:24:19.21	26.23	14.57	-49.1	-60.3	3.6	8.44e-01	0	38	104	0	60	37587
2026-01-07 18:24:20.22	26.29	14.67	-49.1	-60.3	3.6	8.46e-01	0	38	104	0	60	37505
2026-01-07 18:24:21.23	26.34	14.77	-49.1	-60.4	3.6	8.45e-01	0	38	104	0	60	37810
2026-01-07 18:24:22.24	26.40	14.88	-49.1	-60.3	3.6	8.46e-01	0	38	104	0	60	37562
2026-01-07 18:24:23.25	26.46	14.98	-49.1	-60.4	3.6	8.45e-01	0	38	104	0	60	37764
2026-01-07 18:24:24.26	26.51	15.08	-49.1	-60.4	3.6	8.46e-01	0	38	104	0	60	37773
2026-01-07 18:24:25.26	26.57	15.19	-49.1	-60.4	3.6	8.46e-01	0	38	104	0	60	37748
2026-01-07 18:24:26.27	26.63	15.29	-49.1	-60.4	3.6	8.45e-01	0	38	104	0	60	37709
2026-01-07 18:24:27.28	26.69	15.40	-49.2	-60.4	3.6	8.46e-01	0	38	104	0	60	37693
2026-01-07 18:24:28.29	26.75	15.50	-49.1	-60.4	3.6	8.45e-01	0	38	104	0	60	37725
2026-01-07 18:24:29.30	26.81	15.61	-49.1	-60.4	3.6	8.45e-01	0	38	104	0	60	37759
2026-01-07 18:24:30.31	26.87	15.71	-49.2	-60.4	3.6	8.46e-01	0	38	104	0	60	37699
2026-01-07 18:24:31.32	26.93	15.82	-49.1	-60.4	3.6	8.45e-01	0	38	104	0	60	37709
2026-01-07 18:24:32.34	26.99	15.93	-49.1	-60.4	3.6	8.45e-01	0	39	104	0	60	37710
2026-01-07 18:24:33.34	27.05	16.03	-49.1	-60.4	3.6	8.45e-01	0	38	104	0	60	37793
2026-01-07 18:24:34.35	27.11	16.14	-49.1	-60.4	3.6	8.45e-01	0	39	104	0	60	37806
2026-01-07 18:24:35.36	27.17	16.25	-49.1	-60.4	3.6	8.45e-01	0	39	104	0	60	37863
2026-01-07 18:24:36.37	27.23	16.36	-49.1	-60.4	3.6	8.44e-01	0	38	104	0	60	37772
2026-01-07 18:24:37.38	27.30	16.47	-49.1	-60.3	3.6	8.46e-01	0	38	104	0	60	37604
2026-01-07 18:24:38.39	27.36	16.58	-49.2	-60.4	3.6	8.46e-01	0	38	104	0	60	37712
2026-01-07 18:24:39.40	27.42	16.69	-49.1	-60.4	3.6	8.45e-01	0	38	104	0	60	37776
2026-01-07 18:24:40.41	27.49	16.80	-49.1	-60.4	3.6	8.46e-01	0	38	104	0	60	37789
2026-01-07 18:24:41.42	27.55	16.91	-49.1	-60.4	3.6	8.46e-01	0	38	104	0	60	37693
2026-01-07 18:24:42.43	27.62	17.02	-49.1	-60.4	3.6	8.44e-01	0	38	104	0	60	37722
2026-01-07 18:24:43.44	27.68	17.13	-49.1	-60.4	3.6	8.44e-01	0	38	104	0	60	37696
2026-01-07 18:24:44.46	27.75	17.25	-49.1	-60.4	3.6	8.45e-01	0	38	104	0	60	37808
2026-01-07 18:24:45.46	27.81	17.36	-49.1	-60.4	3.6	8.45e-01	0	38	104	0	60	37855
2026-01-07 18:24:46.48	27.88	17.47	-49.1	-60.4	3.6	8.45e-01	0	38	104	0	60	37683
2026-01-07 18:24:47.48	27.95	17.59	-49.1	-60.4	3.6	8.45e-01	0	38	104	0	60	37732
2026-01-07 18:24:48.50	28.01	17.70	-49.1	-60.4	3.6	8.45e-01	0	38	104	0	60	37856
2026-01-07 18:24:49.50	28.08	17.82	-49.1	-60.4	3.6	8.46e-01	0	38	104	0	60	37833
2026-01-07 18:24:50.51	28.15	17.93	-49.1	-60.4	3.6	8.45e-01	0	38	104	0	60	37642
2026-01-07 18:24:51.52	28.22	18.05	-49.1	-60.4	3.6	8.46e-01	0	38	104	0	60	37653
2026-01-07 18:24:52.53	28.29	18.16	-49.1	-60.4	3.6	8.45e-01	0	38	104	0	60	37716
2026-01-07 18:24:53.54	28.36	18.28	-49.1	-60.4	3.6	8.44e-01	0	39	104	0	60	37747
2026-01-07 18:24:54.55	28.43	18.40	-49.1	-60.4	3.6	8.46e-01	0	38	104	0	60	37723
2026-01-07 18:24:55.56	28.50	18.52	-49.1	-60.4	3.6	8.45e-01	0	38	104	0	60	37662
2026-01-07 18:24:56.57	28.57	18.63	-49.1	-60.4	3.6	8.45e-01	0	38	104	0	60	37804
2026-01-07 18:24:57.58	28.64	18.75	-49.1	-60.4	3.6	8.46e-01	0	38	104	0	60	37687
2026-01-07 18:24:58.59	28.72	18.87	-49.2	-60.4	3.6	8.46e-01	0	38	104	0	60	37711
2026-01-07 18:24:59.60	28.79	18.99	-49.1	-60.4	3.6	8.46e-01	0	39	104	0	60	37651
2026-01-07 18:25:00.61	28.86	19.11	-49.1	-60.3	3.6	8.46e-01	0	38	104	0	60	37575
2026-01-07 18:25:01.62	28.94	19.24	-49.1	-60.4	3.6	8.45e-01	0	38	104	0	60	37702
2026-01-07 18:25:02.63	29.01	19.36	-49.1	-60.3	3.6	8.45e-01	0	38	104	0	60	37496
2026-01-07 18:25:03.64	29.09	19.48	-49.1	-60.4	3.6	8.45e-01	0	39	104	0	60	37844
2026-01-07 18:25:04.65	29.16	19.60	-49.1	-60.4	3.6	8.45e-01	0	38	104	0	60	37689
2026-01-07 18:25:05.66	29.24	19.73	-49.1	-60.4	3.5	8.46e-01	0	39	104	0	60	37669
2026-01-07 18:25:06.67	29.32	19.85	-49.1	-60.3	3.6	8.46e-01	0	38	104	0	60	37543
2026-01-07 18:25:07.68	29.40	19.98	-49.1	-60.4	3.6	8.45e-01	0	38	104	0	60	37718
2026-01-07 18:25:08.69	29.47	20.10	-49.1	-60.4	3.6	8.44e-01	0	39	104	0	60	37817
2026-01-07 18:25:09.70	29.55	20.23	-49.1	-60.4	3.6	8.46e-01	0	38	104	0	60	37732
2026-01-07 18:25:10.71	29.63	20.35	-49.1	-60.4	3.6	8.45e-01	0	39	104	0	60	37790
2026-01-07 18:25:11.72	29.71	20.48	-49.1	-60.4	3.6	8.44e-01	0	38	104	0	60	37649
2026-01-07 18:25:12.73	29.79	20.61	-49.1	-60.4	3.6	8.45e-01	0	38	104	0	60	37730
2026-01-07 18:25:13.74	29.87	20.74	-49.1	-60.4	3.6	8.44e-01	0	38	104	0	60	37675
2026-01-07 18:25:14.75	29.96	20.87	-49.1	-60.3	3.6	8.46e-01	0	38	104	0	60	37599
2026-01-07 18:25:15.76	30.04	21.00	-49.2	-60.4	3.6	8.44e-01	0	38	104	0	60	37781
2026-01-07 18:25:16.77	30.12	21.13	-49.1	-60.4	3.6	8.45e-01	0	38	104	0	60	37669
2026-01-07 18:25:17.78	30.21	21.26	-49.2	-60.4	3.6	8.44e-01	0	38	104	0	60	37654
2026-01-07 18:25:18.79	30.29	21.39	-49.1	-60.4	3.6	8.45e-01	0	39	104	0	60	37723
2026-01-07 18:25:19.80	30.38	21.52	-49.1	-60.3	3.6	8.45e-01	0	38	104	0	60	37614
2026-01-07 18:25:20.81	30.46	21.65	-49.1	-60.4	3.6	8.45e-01	0	38	104	0	60	37912
2026-01-07 18:25:21.82	30.55	21.79	-49.1	-60.3	3.6	8.45e-01	0	38	104	0	60	37597
2026-01-07 18:25:22.83	30.64	21.92	-49.1	-60.4	3.5	8.45e-01	0	38	104	0	60	37759
2026-01-07 18:25:23.84	30.72	22.05	-49.1	-60.4	3.6	8.47e-01	0	39	104	0	60	37700
2026-01-07 18:25:24.85	30.81	22.19	-49.2	-60.3	3.6	8.45e-01	0	39	104	0	60	37632
2026-01-07 18:25:25.86	30.90	22.32	-49.1	-60.4	3.6	8.45e-01	0	39	104	0	60	37710
2026-01-07 18:25:26.87	30.99	22.46	-49.1	-60.3	3.6	8.46e-01	0	39	104	0	60	37621
2026-01-07 18:25:27.88	31.09	22.60	-49.2	-60.3	3.6	8.45e-01	0	39	104	0	60	37578
2026-01-07 18:25:28.89	31.18	22.74	-49.1	-60.4	3.6	8.45e-01	0	39	104	0	60	37725
2026-01-07 18:25:29.90	31.27	22.88	-49.1	-60.4	3.6	8.44e-01	0	39	104	0	60	37713
2026-01-07 18:25:30.91	31.36	23.01	-49.1	-60.4	3.6	8.45e-01	0	39	104	0	60	37663
2026-01-07 18:25:31.92	31.46	23.15	-49.1	-60.4	3.6	8.45e-01	0	39	104	0	60	37779
2026-01-07 18:25:32.93	31.55	23.30	-49.1	-60.4	3.6	8.46e-01	0	39	104	0	60	37752
2026-01-07 18:25:33.94	31.65	23.44	-49.1	-60.3	3.6	8.45e-01	0	39	104	0	60	37548
2026-01-07 18:25:34.95	31.75	23.58	-49.1	-60.4	3.6	8.45e-01	0	39	104	0	60	37799
2026-01-07 18:25:35.95	31.84	23.72	-49.1	-60.4	3.6	8.44e-01	0	39	104	0	60	37655
2026-01-07 18:25:36.96	31.94	23.86	-49.1	-60.4	3.5	8.46e-01	0	39	104	0	60	37643
2026-01-07 18:25:37.97	32.04	24.01	-49.1	-60.4	3.6	8.46e-01	0	39	104	0	60	37633
2026-01-07 18:25:38.98	32.14	24.15	-49.1	-60.4	3.6	8.46e-01	0	39	104	0	60	37663
2026-01-07 18:25:39.99	32.24	24.30	-49.1	-60.4	3.6	8.45e-01	0	39	104	0	60	37739
2026-01-07 18:25:41.00	32.34	24.44	-49.1	-60.4	3.6	8.44e-01	0	39	104	0	60	37738
2026-01-07 18:25:42.01	32.45	24.59	-49.1	-60.4	3.6	8.45e-01	0	38	104	0	60	37653
2026-01-07 18:25:43.02	32.55	24.74	-49.1	-60.4	3.6	8.47e-01	0	39	104	0	60	37757
2026-01-07 18:25:44.03	32.66	24.89	-49.1	-60.3	3.6	8.44e-01	0	39	104	0	60	37623
2026-01-07 18:25:45.04	32.76	25.04	-49.1	-60.4	3.6	8.44e-01	0	39	104	0	60	37684
2026-01-07 18:25:46.05	32.87	25.19	-49.1	-60.4	3.6	8.44e-01	0	39	104	0	60	37770
2026-01-07 18:25:47.06	32.98	25.34	-49.1	-60.3	3.6	8.45e-01	0	39	104	0	60	37473
2026-01-07 18:25:48.07	33.08	25.49	-49.1	-60.3	3.6	8.44e-01	0	39	104	0	60	37445
2026-01-07 18:25:49.08	33.19	25.64	-49.1	-60.3	3.6	8.45e-01	0	39	104	0	60	37432
2026-01-07 18:25:50.09	33.30	25.79	-49.1	-60.3	3.6	8.46e-01	0	39	104	0	60	37584
2026-01-07 18:25:51.10	33.42	25.95	-49.1	-60.4	3.6	8.45e-01	0	39	104	0	60	37658
2026-01-07 18:25:52.11	33.53	26.10	-49.1	-60.4	3.6	8.45e-01	0	39	104	0	60	37703
2026-01-07 18:25:53.12	33.64	26.26	-49.1	-60.4	3.6	8.46e-01	0	39	104	0	60	37777
2026-01-07 18:25:54.13	33.76	26.42	-49.1	-60.4	3.6	8.46e-01	0	39	104	0	60	37729
2026-01-07 18:25:55.14	33.87	26.57	-49.1	-60.3	3.6	8.46e-01	0	39	104	0	60	37523
2026-01-07 18:25:56.15	33.99	26.73	-49.1	-60.4	3.6	8.46e-01	0	39	104	0	60	37727
2026-01-07 18:25:57.16	34.11	26.89	-49.1	-60.4	3.6	8.45e-01	0	39	104	0	60	37737
2026-01-07 18:25:58.17	34.23	27.05	-49.1	-60.4	3.6	8.46e-01	0	39	104	0	60	37713
2026-01-07 18:25:59.18	34.35	27.21	-49.1	-60.3	3.6	8.46e-01	0	39	104	0	60	37571
2026-01-07 18:26:00.19	34.47	27.37	-49.1	-60.3	3.6	8.46e-01	0	39	104	0	60	37594
2026-01-07 18:26:01.20	34.59	27.53	-49.1	-60.4	3.6	8.44e-01	0	39	104	0	60	37731
2026-01-07 18:26:02.21	34.72	27.69	-49.1	-60.4	3.6	8.46e-01	0	39	104	0	60	37707
2026-01-07 18:26:03.22	34.84	27.86	-49.1	-60.4	3.6	8.44e-01	0	39	104	0	60	37675
2026-01-07 18:26:04.23	34.97	28.02	-49.1	-60.3	3.6	8.44e-01	0	39	104	0	60	37585
2026-01-07 18:26:05.24	35.10	28.19	-49.1	-60.4	3.6	8.45e-01	0	39	104	0	60	37735
2026-01-07 18:26:06.25	35.23	28.35	-49.1	-60.3	3.6	8.46e-01	0	39	104	0	60	37589
2026-01-07 18:26:07.26	35.36	28.52	-49.1	-60.3	3.6	8.45e-01	0	39	104	0	60	37579
2026-01-07 18:26:08.27	35.49	28.69	-49.1	-60.3	3.6	8.46e-01	0	39	104	0	60	37291
2026-01-07 18:26:09.28	35.62	28.86	-49.1	-60.3	3.6	8.45e-01	0	39	104	0	60	37617
2026-01-07 18:26:10.29	35.76	29.03	-49.1	-60.3	3.6	8.45e-01	0	39	104	0	60	37416
2026-01-07 18:26:11.30	35.89	29.20	-49.2	-60.4	3.6	8.45e-01	0	39	104	0	60	37640
2026-01-07 18:26:12.31	36.03	29.37	-49.1	-60.3	3.6	8.45e-01	0	39	104	0	60	37538
2026-01-07 18:26:13.32	36.17	29.54	-49.1	-60.3	3.6	8.44e-01	0	38	104	0	60	37540
2026-01-07 18:26:14.33	36.31	29.71	-49.1	-60.4	3.6	8.45e-01	0	39	104	0	60	37842
2026-01-07 18:26:15.34	36.45	29.89	-49.1	-60.4	3.6	8.45e-01	0	38	104	0	60	37672
2026-01-07 18:26:16.35	36.59	30.06	-49.1	-60.3	3.6	8.44e-01	0	39	104	0	60	37584
2026-01-07 18:26:17.36	36.74	30.24	-49.1	-60.4	3.6	8.45e-01	0	39	104	0	60	37745
2026-01-07 18:26:18.37	36.88	30.42	-49.2	-60.4	3.6	8.45e-01	0	39	104	0	60	37867
2026-01-07 18:26:19.38	37.03	30.59	-49.1	-60.3	3.6	8.45e-01	0	39	104	0	60	37522
2026-01-07 18:26:20.39	37.18	30.77	-49.1	-60.3	3.6	8.46e-01	0	39	104	0	60	37551
2026-01-07 18:26:21.40	37.33	30.95	-49.1	-60.4	3.6	8.46e-01	0	39	104	0	60	37714
2026-01-07 18:26:22.41	37.48	31.13	-49.1	-60.4	3.6	8.45e-01	0	39	104	0	60	37665
2026-01-07 18:26:23.42	37.64	31.31	-49.1	-60.4	3.6	8.45e-01	0	39	104	0	60	37642
2026-01-07 18:26:24.43	37.79	31.50	-49.2	-60.4	3.6	8.46e-01	0	39	104	0	60	37699
2026-01-07 18:26:25.44	37.95	31.68	-49.1	-60.4	3.6	8.46e-01	0	39	104	0	60	37679
2026-01-07 18:26:26.45	38.11	31.86	-49.1	-60.4	3.6	8.45e-01	0	38	104	0	60	37804
2026-01-07 18:26:27.46	38.27	32.05	-49.1	-60.4	3.6	8.46e-01	0	39	104	0	60	37869
2026-01-07 18:26:28.47	38.44	32.23	-49.1	-60.3	3.6	8.45e-01	0	39	104	0	60	37566
2026-01-07 18:26:29.48	38.60	32.42	-49.1	-60.4	3.6	8.45e-01	0	39	104	0	60	37884
2026-01-07 18:26:30.48	38.77	32.61	-49.1	-60.4	3.6	8.45e-01	0	39	104	0	60	37739
2026-01-07 18:26:31.49	38.93	32.79	-49.1	-60.4	3.6	8.46e-01	0	39	104	0	60	37810
2026-01-07 18:26:32.50	39.10	32.98	-49.2	-60.4	3.6	8.45e-01	0	39	104	0	60	37834
2026-01-07 18:26:33.51	39.28	33.17	-49.1	-60.3	3.6	8.46e-01	0	39	104	0	60	37539
2026-01-07 18:26:34.52	39.45	33.37	-49.1	-60.4	3.6	8.46e-01	0	39	104	0	60	37726
2026-01-07 18:26:35.53	39.63	33.56	-49.2	-60.4	3.6	8.45e-01	0	39	104	0	60	37647
2026-01-07 18:26:36.54	39.81	33.75	-49.1	-60.4	3.6	8.44e-01	0	39	104	0	60	37706
2026-01-07 18:26:37.55	39.99	33.94	-49.1	-60.4	3.6	8.46e-01	0	39	104	0	60	37847
2026-01-07 18:26:38.56	40.17	34.14	-49.1	-60.4	3.6	8.45e-01	0	39	104	0	60	37771
2026-01-07 18:26:39.57	40.35	34.34	-49.1	-60.3	3.6	8.45e-01	0	39	104	0	60	37527
2026-01-07 18:26:40.58	40.54	34.53	-49.1	-60.4	3.6	8.46e-01	0	39	104	0	60	37666
2026-01-07 18:26:41.59	40.73	34.73	-49.1	-60.4	3.6	8.46e-01	0	39	104	0	60	37758
2026-01-07 18:26:42.60	40.92	34.93	-49.1	-60.4	3.6	8.46e-01	0	39	104	0	60	37857
2026-01-07 18:26:43.61	41.12	35.13	-49.2	-60.4	3.6	8.45e-01	0	39	104	0	60	37740
2026-01-07 18:26:44.62	41.31	35.33	-49.1	-60.4	3.6	8.44e-01	0	39	104	0	60	37765
2026-01-07 18:26:45.63	41.51	35.53	-49.2	-60.4	3.6	8.45e-01	0	39	104	0	60	37825
2026-01-07 18:26:46.64	41.71	35.73	-49.1	-60.3	3.6	8.46e-01	0	39	104	0	60	37632
2026-01-07 18:26:47.65	41.91	35.94	-49.1	-60.4	3.6	8.46e-01	0	39	104	0	60	37658
2026-01-07 18:26:48.66	42.12	36.14	-49.1	-60.4	3.6	8.45e-01	0	39	104	0	60	37833
2026-01-07 18:26:49.67	42.33	36.35	-49.1	-60.4	3.6	8.45e-01	0	39	104	0	60	37671
2026-01-07 18:26:50.68	42.54	36.55	-49.1	-60.4	3.6	8.45e-01	0	39	104	0	60	37771
2026-01-07 18:26:51.69	42.75	36.76	-49.1	-60.3	3.6	8.45e-01	0	39	104	0	60	37593
2026-01-07 18:26:52.70	42.97	36.97	-49.1	-60.4	3.6	8.46e-01	0	39	104	0	60	37891
2026-01-07 18:26:53.71	43.19	37.18	-49.2	-60.4	3.6	8.45e-01	0	39	104	0	60	37685
2026-01-07 18:26:54.72	43.41	37.38	-49.1	-60.4	3.6	8.46e-01	0	39	104	0	60	37645
2026-01-07 18:26:55.73	43.63	37.60	-49.1	-60.4	3.6	8.44e-01	0	38	104	0	60	37651
2026-01-07 18:26:56.73	43.86	37.80	-49.1	-60.3	3.6	8.45e-01	0	39	104	0	60	37572
2026-01-07 18:26:57.74	44.09	38.02	-49.1	-60.3	3.6	8.45e-01	0	39	104	0	60	37623
2026-01-07 18:26:58.75	44.32	38.23	-49.2	-60.4	3.6	8.45e-01	0	39	104	0	60	37816
2026-01-07 18:26:59.76	44.56	38.44	-49.1	-60.4	3.6	8.46e-01	0	39	104	0	60	37674
2026-01-07 18:27:00.77	44.80	38.66	-49.1	-60.3	3.6	8.45e-01	0	39	104	0	60	37523
2026-01-07 18:27:01.78	45.04	38.87	-49.2	-60.4	3.6	8.46e-01	0	39	104	0	60	37725
2026-01-07 18:27:02.79	45.29	39.09	-49.1	-60.4	3.6	8.45e-01	0	39	104	0	60	37787
2026-01-07 18:27:03.80	45.54	39.31	-49.2	-60.3	3.6	8.45e-01	0	38	104	0	60	37555
2026-01-07 18:27:04.80	45.79	39.52	-49.1	-60.4	3.6	8.46e-01	0	39	104	0	60	37680
2026-01-07 18:27:05.81	46.04	39.74	-49.1	-60.4	3.6	8.45e-01	0	39	104	0	60	37723
2026-01-07 18:27:06.82	46.30	39.96	-49.2	-60.4	3.6	8.47e-01	0	39	104	0	60	37703
2026-01-07 18:27:07.83	46.56	40.18	-49.1	-60.4	3.6	8.44e-01	0	39	104	0	60	37885
2026-01-07 18:27:08.84	46.83	40.40	-49.2	-60.3	3.6	8.45e-01	0	39	104	0	60	37478
2026-01-07 18:27:09.85	47.10	40.62	-49.2	-60.4	3.6	8.45e-01	0	39	104	0	60	37698
2026-01-07 18:27:10.86	47.37	40.84	-49.2	-60.4	3.6	8.46e-01	0	39	104	0	60	37742
2026-01-07 18:27:11.88	47.65	41.07	-49.1	-60.4	3.6	8.45e-01	0	39	104	0	60	37755
2026-01-07 18:27:12.89	47.93	41.29	-49.1	-60.4	3.6	8.44e-01	0	39	104	0	60	37704
2026-01-07 18:27:13.89	48.21	41.52	-49.1	-60.3	3.6	8.44e-01	0	39	104	0	60	37558
2026-01-07 18:27:14.90	48.50	41.74	-49.2	-60.4	3.6	8.46e-01	0	39	104	0	60	37653
2026-01-07 18:27:15.92	48.80	41.97	-49.2	-60.4	3.6	8.45e-01	0	39	104	0	60	37819
2026-01-07 18:27:16.93	49.09	42.19	-49.1	-60.4	3.6	8.45e-01	0	39	104	0	60	37838
2026-01-07 18:27:17.93	49.39	42.42	-49.1	-60.4	3.6	8.45e-01	0	39	104	0	60	37650
2026-01-07 18:27:18.94	49.70	42.64	-49.1	-60.4	3.6	8.46e-01	0	39	104	0	60	37919
2026-01-07 18:27:19.95	50.01	42.87	-49.2	-60.4	3.6	8.46e-01	0	39	104	0	60	37690
2026-01-07 18:27:20.96	50.32	43.10	-49.1	-60.3	3.6	8.46e-01	0	39	104	0	60	37630
2026-01-07 18:27:21.97	50.64	43.33	-49.1	-60.4	3.6	8.45e-01	0	39	104	0	60	37756
2026-01-07 18:27:22.98	50.96	43.56	-49.1	-60.4	3.6	8.45e-01	0	39	104	0	60	37657
2026-01-07 18:27:23.99	51.29	43.79	-49.1	-60.4	3.6	8.45e-01	0	39	104	0	60	37707
2026-01-07 18:27:25.00	51.62	44.02	-49.1	-60.4	3.6	8.45e-01	0	39	104	0	60	37880
2026-01-07 18:27:26.01	51.96	44.25	-49.1	-60.4	3.6	8.45e-01	0	39	104	0	60	37747
2026-01-07 18:27:27.02	52.30	44.48	-49.1	-60.4	3.6	8.46e-01	0	39	104	0	60	37756
2026-01-07 18:27:28.03	52.64	44.71	-49.1	-60.3	3.6	8.45e-01	0	39	104	0	60	37631
2026-01-07 18:27:29.04	52.99	44.94	-49.1	-60.4	3.6	8.45e-01	0	39	104	0	60	37685
2026-01-07 18:27:30.04	53.35	45.17	-49.1	-60.4	3.6	8.45e-01	0	39	104	0	60	37711
2026-01-07 18:27:31.05	53.71	45.40	-49.2	-60.4	3.6	8.46e-01	0	39	104	0	60	37869
2026-01-07 18:27:32.06	54.08	45.63	-49.1	-60.4	3.6	8.47e-01	0	39	104	0	60	37881
2026-01-07 18:27:33.07	54.45	45.86	-49.1	-60.3	3.6	8.45e-01	0	39	104	0	60	37574
2026-01-07 18:27:34.08	54.83	46.09	-49.1	-60.4	3.6	8.45e-01	0	39	104	0	60	37961
2026-01-07 18:27:35.09	55.21	46.32	-49.1	-60.4	3.6	8.46e-01	0	39	104	0	60	37791
2026-01-07 18:27:36.10	55.60	46.55	-49.2	-60.4	3.6	8.46e-01	0	39	104	0	60	37649
2026-01-07 18:27:37.11	55.99	46.78	-49.1	-60.4	3.6	8.46e-01	0	39	104	0	60	37686
2026-01-07 18:27:38.12	56.39	47.01	-49.1	-60.4	3.6	8.45e-01	0	39	104	0	60	37861
2026-01-07 18:27:39.13	56.80	47.24	-49.2	-60.3	3.6	8.46e-01	0	39	104	0	60	37591
2026-01-07 18:27:40.14	57.21	47.47	-49.1	-60.3	3.6	8.45e-01	0	39	104	0	60	37611
2026-01-07 18:27:41.15	57.63	47.70	-49.1	-60.4	3.6	8.45e-01	0	39	104	0	60	37787
2026-01-07 18:27:42.16	58.05	47.93	-49.1	-60.4	3.6	8.46e-01	0	39	104	0	60	37729
2026-01-07 18:27:43.17	58.48	48.16	-49.1	-60.4	3.6	8.44e-01	0	39	104	0	60	37736
2026-01-07 18:27:44.18	58.92	48.39	-49.1	-60.4	3.6	8.45e-01	0	39	104	0	60	37786
2026-01-07 18:27:45.19	59.36	48.62	-49.1	-60.4	3.6	8.46e-01	0	39	104	0	60	37735
2026-01-07 18:27:46.20	59.81	48.84	-49.1	-60.3	3.6	8.44e-01	0	39	104	0	60	37553
2026-01-07 18:27:47.21	60.27	49.07	-49.1	-60.3	3.6	8.45e-01	0	39	104	0	60	37599
2026-01-07 18:27:48.22	60.73	49.30	-49.1	-60.4	3.6	8.45e-01	0	39	104	0	60	37775
2026-01-07 18:27:49.23	61.20	49.52	-49.1	-60.4	3.6	8.45e-01	0	39	104	0	60	37834
2026-01-07 18:27:50.24	61.68	49.75	-49.1	-60.4	3.6	8.45e-01	0	39	104	0	60	37926
2026-01-07 18:27:51.25	62.16	49.97	-49.1	-60.4	3.6	8.46e-01	0	39	104	0	60	37775
2026-01-07 18:27:52.26	62.65	50.19	-49.1	-60.4	3.6	8.45e-01	0	39	104	0	60	37738
2026-01-07 18:27:53.27	63.15	50.41	-49.1	-60.4	3.6	8.45e-01	0	39	104	0	60	37825
2026-01-07 18:27:54.28	63.65	50.63	-49.1	-60.3	3.6	8.46e-01	0	39	104	0	60	37602
2026-01-07 18:27:55.29	64.17	50.85	-49.2	-60.4	3.6	8.46e-01	0	39	104	0	60	37706
2026-01-07 18:27:56.30	64.69	51.07	-49.1	-60.4	3.6	8.45e-01	0	39	104	0	60	37688
2026-01-07 18:27:57.31	65.21	51.28	-49.1	-60.4	3.6	8.44e-01	0	39	104	0	60	37814
2026-01-07 18:27:58.32	65.75	51.50	-49.1	-60.3	3.6	8.46e-01	0	39	104	0	60	37554
2026-01-07 18:27:59.33	66.29	51.71	-49.1	-60.4	3.6	8.45e-01	0	39	104	0	60	37668
2026-01-07 18:28:00.34	66.84	51.92	-49.1	-60.4	3.6	8.45e-01	0	39	104	0	60	37844
2026-01-07 18:28:01.35	67.40	52.13	-49.1	-60.4	3.6	8.46e-01	0	39	104	0	60	37819
2026-01-07 18:28:02.36	67.97	52.33	-49.1	-60.4	3.6	8.43e-01	0	39	104	0	60	37683
2026-01-07 18:28:03.37	68.54	52.54	-49.1	-60.3	3.6	8.45e-01	0	39	104	0	60	37607
2026-01-07 18:28:04.38	69.12	52.74	-49.1	-60.4	3.6	8.46e-01	0	39	104	0	60	37698
2026-01-07 18:28:05.39	69.71	52.94	-49.1	-60.3	3.6	8.45e-01	0	39	104	0	60	37611
2026-01-07 18:28:06.40	70.31	53.14	-49.1	-60.4	3.6	8.45e-01	0	39	104	0	60	37661
2026-01-07 18:28:07.41	70.92	53.34	-49.1	-60.4	3.6	8.46e-01	0	39	104	0	60	37901
2026-01-07 18:28:08.41	71.52	53.53	-49.1	-60.4	3.6	8.46e-01	0	39	104	0	60	37639
2026-01-07 18:28:09.42	72.15	53.72	-49.1	-60.4	3.6	8.45e-01	0	39	104	0	60	37717
2026-01-07 18:28:10.43	72.78	53.91	-49.1	-60.4	3.6	8.46e-01	0	39	104	0	60	37749
2026-01-07 18:28:11.44	73.42	54.09	-49.1	-60.4	3.6	8.46e-01	0	39	104	0	60	37736
2026-01-07 18:28:12.45	74.06	54.28	-49.1	-60.4	3.6	8.46e-01	0	39	104	0	60	37684
2026-01-07 18:28:13.46	74.72	54.46	-49.1	-60.4	3.6	8.45e-01	0	39	104	0	60	37839
2026-01-07 18:28:14.47	75.38	54.63	-49.1	-60.4	3.6	8.45e-01	0	39	104	0	60	37814
2026-01-07 18:28:15.48	76.05	54.81	-49.1	-60.4	3.6	8.44e-01	0	39	104	0	60	37751
2026-01-07 18:28:16.49	76.73	54.98	-49.1	-60.4	3.6	8.45e-01	0	39	104	0	60	37771
2026-01-07 18:28:17.50	77.42	55.14	-49.2	-60.4	3.6	8.45e-01	0	39	104	0	60	37811
2026-01-07 18:28:18.51	78.11	55.30	-49.1	-60.3	3.6	8.45e-01	0	39	104	0	60	37583
2026-01-07 18:28:19.52	78.82	55.46	-49.1	-60.3	3.6	8.44e-01	0	39	104	0	60	37627
2026-01-07 18:28:20.53	79.53	55.62	-49.1	-60.4	3.6	8.45e-01	0	39	104	0	60	37932
2026-01-07 18:28:21.54	80.25	55.77	-49.1	-60.4	3.6	8.46e-01	0	39	104	0	60	37739
2026-01-07 18:28:22.54	80.97	55.92	-49.1	-60.4	3.6	8.45e-01	0	39	104	0	60	37786
2026-01-07 18:28:23.55	81.70	56.06	-49.1	-60.4	3.6	8.46e-01	0	39	104	0	60	37799
2026-01-07 18:28:24.56	82.44	56.20	-49.1	-60.4	3.6	8.45e-01	0	39	104	0	60	37808
2026-01-07 18:28:25.57	83.19	56.34	-49.1	-60.4	3.6	8.45e-01	0	39	104	0	60	37749
2026-01-07 18:28:26.58	83.95	56.47	-49.1	-60.4	3.6	8.46e-01	0	39	104	0	60	37938
2026-01-07 18:28:27.59	84.71	56.59	-49.2	-60.4	3.6	8.45e-01	0	39	104	0	60	37748
2026-01-07 18:28:28.60	85.48	56.72	-49.1	-60.4	3.5	8.46e-01	0	39	104	0	60	38031
2026-01-07 18:28:29.61	86.26	56.83	-49.1	-60.4	3.6	8.46e-01	0	39	104	0	60	37687
2026-01-07 18:28:30.62	87.04	56.94	-49.1	-60.4	3.6	8.45e-01	0	39	104	0	60	37871
2026-01-07 18:28:31.63	87.83	57.05	-49.1	-60.4	3.6	8.45e-01	0	39	104	0	60	37765
2026-01-07 18:28:32.64	88.62	57.15	-49.1	-60.4	3.6	8.44e-01	0	39	104	0	60	37782
2026-01-07 18:28:33.65	89.43	57.25	-49.1	-60.4	3.6	8.44e-01	0	39	104	0	60	37812
2026-01-07 18:28:34.66	90.23	57.34	-49.1	-60.4	3.6	8.44e-01	0	39	104	0	60	37889
2026-01-07 18:28:35.67	91.05	57.43	-49.1	-60.4	3.6	8.46e-01	0	39	104	0	60	37819
2026-01-07 18:28:36.68	91.86	57.51	-49.1	-60.3	3.6	8.45e-01	0	39	104	0	60	37587
2026-01-07 18:28:37.69	92.68	57.59	-49.1	-60.4	3.6	8.45e-01	0	39	104	0	60	37823
2026-01-07 18:28:38.70	93.51	57.66	-49.1	-60.4	3.6	8.44e-01	0	39	104	0	60	37675
2026-01-07 18:28:39.71	94.34	57.73	-49.1	-60.4	3.6	8.47e-01	0	39	104	0	60	37892
2026-01-07 18:28:40.72	95.18	57.79	-49.1	-60.4	3.6	8.45e-01	0	39	104	0	60	37710
2026-01-07 18:28:41.73	96.01	57.84	-49.1	-60.4	3.6	8.45e-01	0	39	104	0	60	37733
2026-01-07 18:28:42.74	96.86	57.89	-49.2	-60.4	3.6	8.45e-01	0	39	104	0	60	37647
2026-01-07 18:28:43.75	97.70	57.93	-49.1	-60.4	3.6	8.46e-01	0	39	104	0	60	37773
2026-01-07 18:28:44.76	98.55	57.97	-49.1	-60.4	3.6	8.45e-01	0	39	104	0	60	37870
2026-01-07 18:28:45.77	99.40	58.00	-49.1	-60.4	3.6	8.45e-01	0	39	104	0	60	37634
2026-01-07 18:28:46.78	100.25	58.02	-49.1	-60.3	3.6	8.46e-01	0	39	104	0	60	37585
2026-01-07 18:28:47.79	101.10	58.04	-49.2	-60.4	3.6	8.45e-01	0	39	104	0	60	37716
2026-01-07 18:28:48.80	101.95	58.06	-49.1	-60.4	3.6	8.45e-01	0	39	104	0	60	37789
2026-01-07 18:28:49.81	102.81	58.07	-49.1	-60.4	3.6	8.46e-01	0	39	104	0	60	37837
2026-01-07 18:28:50.82	103.66	58.07	-49.1	-60.4	3.6	8.45e-01	0	39	104	0	60	37799
2026-01-07 18:28:51.83	104.52	58.06	-49.1	-60.4	3.6	8.45e-01	0	39	104	0	60	37656
2026-01-07 18:28:52.84	105.37	58.05	-49.1	-60.4	3.6	8.45e-01	0	39	104	0	60	37889
2026-01-07 18:28:53.85	106.22	58.04	-49.1	-60.3	3.6	8.45e-01	0	39	104	0	60	37517
2026-01-07 18:28:54.86	107.07	58.02	-49.1	-60.4	3.6	8.46e-01	0	39	104	0	60	37852
2026-01-07 18:28:55.87	107.93	57.99	-49.1	-60.4	3.6	8.45e-01	0	39	104	0	60	37828
2026-01-07 18:28:56.88	108.77	57.96	-49.1	-60.4	3.6	8.46e-01	0	39	104	0	60	37960
2026-01-07 18:28:57.89	109.62	57.92	-49.1	-60.4	3.6	8.44e-01	0	39	104	0	60	37724
2026-01-07 18:28:58.89	110.46	57.87	-49.1	-60.4	3.6	8.43e-01	0	39	104	0	60	37691
2026-01-07 18:28:59.90	111.30	57.82	-49.1	-60.4	3.6	8.45e-01	0	39	104	0	60	37812
2026-01-07 18:29:00.92	112.14	57.77	-49.1	-60.4	3.6	8.45e-01	0	39	104	0	60	37729
2026-01-07 18:29:01.93	112.98	57.71	-49.1	-60.4	3.6	8.45e-01	0	39	104	0	60	37957
2026-01-07 18:29:02.94	113.81	57.64	-49.1	-60.4	3.6	8.45e-01	0	39	104	0	60	37720
2026-01-07 18:29:03.95	114.63	57.57	-49.1	-60.4	3.5	8.45e-01	0	39	104	0	60	37707
2026-01-07 18:29:04.96	115.45	57.49	-49.1	-60.4	3.6	8.45e-01	0	39	104	0	60	37819
2026-01-07 18:29:05.97	116.27	57.40	-49.1	-60.4	3.6	8.45e-01	0	39	104	0	60	37872
2026-01-07 18:29:06.98	117.08	57.31	-49.1	-60.4	3.6	8.45e-01	0	39	104	0	60	37925
2026-01-07 18:29:07.98	117.88	57.22	-49.1	-60.3	3.6	8.46e-01	0	39	104	0	60	37592
2026-01-07 18:29:08.99	118.68	57.12	-49.1	-60.4	3.6	8.44e-01	0	39	104	0	60	37796
2026-01-07 18:29:10.00	119.47	57.02	-49.1	-60.4	3.6	8.45e-01	0	39	104	0	60	37736
2026-01-07 18:29:11.01	120.26	56.91	-49.1	-60.4	3.6	8.45e-01	0	39	104	0	60	37725
2026-01-07 18:29:12.02	121.04	56.80	-49.1	-60.4	3.6	8.45e-01	0	39	104	0	60	37764
2026-01-07 18:29:13.03	121.82	56.68	-49.1	-60.4	3.6	8.45e-01	0	39	104	0	60	37852
2026-01-07 18:29:14.04	122.59	56.55	-49.1	-60.4	3.6	8.44e-01	0	39	104	0	60	37665
2026-01-07 18:29:15.05	123.35	56.43	-49.1	-60.4	3.6	8.46e-01	0	39	104	0	60	37709
2026-01-07 18:29:16.06	124.11	56.29	-49.1	-60.4	3.6	8.44e-01	0	39	104	0	60	37854
2026-01-07 18:29:17.07	124.85	56.16	-49.1	-60.3	3.6	8.45e-01	0	39	104	0	60	37568
2026-01-07 18:29:18.08	125.59	56.02	-49.1	-60.4	3.6	8.46e-01	0	39	104	0	60	37845
2026-01-07 18:29:19.09	126.33	55.87	-49.1	-60.4	3.6	8.45e-01	0	39	104	0	60	37795
2026-01-07 18:29:20.10	127.05	55.72	-49.1	-60.4	3.6	8.45e-01	0	39	104	0	60	37634
2026-01-07 18:29:21.11	127.77	55.57	-49.1	-60.4	3.6	8.45e-01	0	39	104	0	60	37770
2026-01-07 18:29:22.11	128.47	55.41	-49.1	-60.4	3.6	8.45e-01	0	39	104	0	60	37699
2026-01-07 18:29:23.12	129.17	55.25	-49.1	-60.4	3.6	8.46e-01	0	39	104	0	60	37900
2026-01-07 18:29:24.13	129.87	55.09	-49.1	-60.4	3.6	8.46e-01	0	39	104	0	60	37732
2026-01-07 18:29:25.14	130.55	54.92	-49.1	-60.4	3.6	8.45e-01	0	39	104	0	60	37709
2026-01-07 18:29:26.15	131.23	54.75	-49.1	-60.4	3.6	8.45e-01	0	39	104	0	60	37735
2026-01-07 18:29:27.16	131.90	54.57	-49.1	-60.4	3.6	8.45e-01	0	39	104	0	60	37866
2026-01-07 18:29:28.17	132.56	54.39	-49.1	-60.4	3.6	8.45e-01	0	39	104	0	60	37675
2026-01-07 18:29:29.18	133.22	54.21	-49.1	-60.4	3.6	8.43e-01	0	39	104	0	60	37841
2026-01-07 18:29:30.19	133.86	54.03	-49.1	-60.4	3.6	8.45e-01	0	39	104	0	60	37655
2026-01-07 18:29:31.20	134.50	53.84	-49.1	-60.4	3.6	8.45e-01	0	39	104	0	60	37732
2026-01-07 18:29:32.21	135.13	53.65	-49.1	-60.4	3.6	8.46e-01	0	39	104	0	60	37947
2026-01-07 18:29:33.22	135.75	53.46	-49.1	-60.4	3.6	8.45e-01	0	39	104	0	60	37918
2026-01-07 18:29:34.23	136.36	53.27	-49.1	-60.4	3.6	8.44e-01	0	39	104	0	60	37808
2026-01-07 18:29:35.24	136.97	53.07	-49.1	-60.4	3.6	8.45e-01	0	39	104	0	60	37691
2026-01-07 18:29:36.25	137.56	52.87	-49.1	-60.3	3.6	8.46e-01	0	39	104	0	60	37616
2026-01-07 18:29:37.26	138.15	52.67	-49.1	-60.4	3.6	8.46e-01	0	39	104	0	60	37778
2026-01-07 18:29:38.27	138.73	52.46	-49.1	-60.4	3.6	8.46e-01	0	39	104	0	60	37761
2026-01-07 18:29:39.28	139.30	52.26	-49.1	-60.4	3.6	8.47e-01	0	39	104	0	60	37666
2026-01-07 18:29:40.29	139.87	52.05	-49.1	-60.4	3.6	8.46e-01	0	39	104	0	60	37711
2026-01-07 18:29:41.30	140.42	51.84	-49.1	-60.4	3.6	8.45e-01	0	39	104	0	60	37850
2026-01-07 18:29:42.31	140.97	51.63	-49.1	-60.4	3.6	8.45e-01	0	39	104	0	60	37716
2026-01-07 18:29:43.32	141.51	51.41	-49.1	-60.4	3.6	8.45e-01	0	39	104	0	60	37800
2026-01-07 18:29:44.33	142.05	51.20	-49.1	-60.4	3.6	8.45e-01	0	39	104	0	60	37655
2026-01-07 18:29:45.34	142.57	50.98	-49.1	-60.4	3.6	8.45e-01	0	39	104	0	60	37872
2026-01-07 18:29:46.35	143.09	50.76	-49.1	-60.4	3.6	8.45e-01	0	39	104	0	60	37725
2026-01-07 18:29:47.36	143.60	50.54	-49.1	-60.3	3.6	8.46e-01	0	39	104	0	60	37548
2026-01-07 18:29:48.37	144.11	50.32	-49.1	-60.4	3.6	8.45e-01	0	39	104	0	60	37767
2026-01-07 18:29:49.38	144.60	50.10	-49.1	-60.4	3.6	8.45e-01	0	39	104	0	60	37763
2026-01-07 18:29:50.39	145.09	49.88	-49.1	-60.4	3.6	8.45e-01	0	39	104	0	60	37705
2026-01-07 18:29:51.40	145.58	49.65	-49.1	-60.3	3.6	8.46e-01	0	39	104	0	60	37632
2026-01-07 18:29:52.41	146.05	49.43	-49.1	-60.4	3.6	8.45e-01	0	39	104	0	60	37635
2026-01-07 18:29:53.42	146.52	49.20	-49.1	-60.4	3.6	8.45e-01	0	39	104	0	60	37791
2026-01-07 18:29:54.43	146.98	48.97	-49.1	-60.4	3.6	8.46e-01	0	39	104	0	60	37855
2026-01-07 18:29:55.44	147.44	48.75	-49.1	-60.4	3.6	8.45e-01	0	39	104	0	60	37688
2026-01-07 18:29:56.45	147.88	48.52	-49.1	-60.4	3.6	8.45e-01	0	39	104	0	60	37677
2026-01-07 18:29:57.46	148.33	48.29	-49.1	-60.4	3.6	8.43e-01	0	39	104	0	60	37939
2026-01-07 18:29:58.47	148.76	48.06	-49.1	-60.4	3.6	8.46e-01	0	39	104	0	60	37729
2026-01-07 18:29:59.48	149.19	47.83	-49.1	-60.4	3.6	8.44e-01	0	39	104	0	60	37794
2026-01-07 18:30:00.49	149.61	47.60	-49.1	-60.4	3.6	8.45e-01	0	39	104	0	60	37902
2026-01-07 18:30:01.50	150.03	47.37	-49.1	-60.4	3.6	8.45e-01	0	39	104	0	60	37952
2026-01-07 18:30:02.51	150.44	47.14	-49.1	-60.4	3.6	8.46e-01	0	39	104	0	60	37875
2026-01-07 18:30:03.52	150.85	46.91	-49.1	-60.2	3.6	8.45e-01	0	39	104	0	60	37159
2026-01-07 18:30:04.53	151.24	46.67	-49.1	-60.4	3.6	8.45e-01	0	39	104	0	60	37662
2026-01-07 18:30:05.54	151.64	46.44	-49.1	-60.4	3.6	8.44e-01	0	39	104	0	60	37728
2026-01-07 18:30:06.55	152.02	46.21	-49.1	-60.4	3.6	8.45e-01	0	39	104	0	60	37838
2026-01-07 18:30:07.56	152.41	45.98	-49.1	-60.4	3.6	8.46e-01	0	39	104	0	60	37934
2026-01-07 18:30:08.57	152.78	45.75	-49.1	-60.4	3.6	8.45e-01	0	39	104	0	60	37708
2026-01-07 18:30:09.58	153.15	45.51	-49.1	-60.4	3.6	8.45e-01	0	39	104	0	60	37768
2026-01-07 18:30:10.59	153.52	45.28	-49.1	-60.4	3.5	8.45e-01	0	39	104	0	60	37847
2026-01-07 18:30:11.60	153.88	45.05	-49.1	-60.4	3.6	8.46e-01	0	39	104	0	60	37930
2026-01-07 18:30:12.61	154.23	44.82	-49.1	-60.4	3.6	8.45e-01	0	39	104	0	60	37810
2026-01-07 18:30:13.62	154.58	44.59	-49.1	-60.4	3.6	8.45e-01	0	39	104	0	60	37811
2026-01-07 18:30:14.63	154.93	44.36	-49.1	-60.4	3.6	8.45e-01	0	39	104	0	60	37762
2026-01-07 18:30:15.64	155.27	44.12	-49.1	-60.4	3.6	8.45e-01	0	39	104	0	60	37831
2026-01-07 18:30:16.65	155.61	43.89	-49.1	-60.4	3.6	8.45e-01	0	39	104	0	60	37706
2026-01-07 18:30:17.65	155.93	43.67	-49.1	-60.4	3.6	8.46e-01	0	39	104	0	60	37826
2026-01-07 18:30:18.66	156.26	43.44	-49.1	-60.4	3.6	8.45e-01	0	39	104	0	60	37686
2026-01-07 18:30:19.67	156.58	43.21	-49.1	-60.4	3.6	8.45e-01	0	39	104	0	60	37891
2026-01-07 18:30:20.68	156.90	42.98	-49.1	-60.4	3.6	8.45e-01	0	39	104	0	60	37847
2026-01-07 18:30:21.69	157.21	42.75	-49.1	-60.4	3.6	8.46e-01	0	39	104	0	60	37880
2026-01-07 18:30:22.70	157.52	42.52	-49.1	-60.4	3.6	8.46e-01	0	39	104	0	60	37834
2026-01-07 18:30:23.71	157.82	42.29	-49.1	-60.4	3.6	8.45e-01	0	39	104	0	60	37687
2026-01-07 18:30:24.72	158.12	42.06	-49.1	-60.4	3.6	8.45e-01	0	39	104	0	60	37666
2026-01-07 18:30:25.73	158.42	41.84	-49.1	-60.4	3.6	8.46e-01	0	39	104	0	60	37678
2026-01-07 18:30:26.74	158.71	41.61	-49.1	-60.4	3.6	8.46e-01	0	39	104	0	60	37663
2026-01-07 18:30:27.75	159.00	41.39	-49.1	-60.4	3.6	8.45e-01	0	39	104	0	60	37655
2026-01-07 18:30:28.76	159.28	41.16	-49.1	-60.4	3.6	8.46e-01	0	39	104	0	60	37639
2026-01-07 18:30:29.77	159.56	40.94	-49.1	-60.4	3.6	8.45e-01	0	39	104	0	60	37756
2026-01-07 18:30:30.78	159.84	40.71	-49.1	-60.4	3.6	8.46e-01	0	39	104	0	60	37728
2026-01-07 18:30:31.79	160.11	40.49	-49.1	-60.4	3.6	8.44e-01	0	39	104	0	60	37882
2026-01-07 18:30:32.80	160.38	40.27	-49.1	-60.4	3.6	8.45e-01	0	39	104	0	60	37726
2026-01-07 18:30:33.81	160.64	40.05	-49.1	-60.4	3.6	8.45e-01	0	39	104	0	60	37715
2026-01-07 18:30:34.82	160.90	39.82	-49.1	-60.4	3.6	8.46e-01	0	39	104	0	60	37746
2026-01-07 18:30:35.83	161.16	39.60	-49.1	-60.4	3.6	8.45e-01	0	39	104	0	60	37814
2026-01-07 18:30:36.84	161.42	39.39	-49.1	-60.4	3.6	8.46e-01	0	39	104	0	60	37714
2026-01-07 18:30:37.85	161.67	39.17	-49.1	-60.3	3.6	8.45e-01	0	39	104	0	60	37617
2026-01-07 18:30:38.85	161.91	38.95	-49.1	-60.4	3.6	8.45e-01	0	39	104	0	60	37793
2026-01-07 18:30:39.86	162.16	38.73	-49.1	-60.4	3.6	8.45e-01	0	39	104	0	60	37749
2026-01-07 18:30:40.87	162.40	38.52	-49.1	-60.3	3.6	8.46e-01	0	39	104	0	60	37562
2026-01-07 18:30:41.88	162.64	38.30	-49.1	-60.4	3.6	8.45e-01	0	39	104	0	60	37727
2026-01-07 18:30:42.89	162.87	38.09	-49.1	-60.4	3.6	8.46e-01	0	39	104	0	60	37737
2026-01-07 18:30:43.90	163.11	37.87	-49.1	-60.4	3.6	8.45e-01	0	39	104	0	60	37778
2026-01-07 18:30:44.91	163.34	37.66	-49.1	-60.4	3.6	8.45e-01	0	39	104	0	60	37858
2026-01-07 18:30:45.92	163.56	37.45	-49.1	-60.4	3.6	8.45e-01	0	39	104	0	60	37718
2026-01-07 18:30:46.93	163.79	37.24	-49.1	-60.4	3.6	8.44e-01	0	39	104	0	60	37675
2026-01-07 18:30:47.94	164.01	37.03	-49.1	-60.4	3.6	8.46e-01	0	39	104	0	60	37894
2026-01-07 18:30:48.95	164.23	36.82	-49.1	-60.4	3.6	8.44e-01	0	39	104	0	60	37735
2026-01-07 18:30:49.96	164.44	36.61	-49.1	-60.4	3.6	8.45e-01	0	39	104	0	60	37719
2026-01-07 18:30:50.97	164.65	36.40	-49.1	-60.4	3.6	8.46e-01	0	39	104	0	60	37726
2026-01-07 18:30:51.98	164.86	36.20	-49.1	-60.4	3.5	8.46e-01	0	39	104	0	60	37915
2026-01-07 18:30:52.99	165.07	35.99	-49.1	-60.4	3.6	8.46e-01	0	39	104	0	60	37774
2026-01-07 18:30:54.00	165.28	35.79	-49.1	-60.4	3.6	8.45e-01	0	39	104	0	60	37721
2026-01-07 18:30:55.01	165.48	35.58	-49.1	-60.4	3.6	8.46e-01	0	39	104	0	60	37858
2026-01-07 18:30:56.01	165.68	35.38	-49.1	-60.4	3.6	8.45e-01	0	39	104	0	60	37828
2026-01-07 18:30:57.03	165.88	35.18	-49.1	-60.4	3.6	8.45e-01	0	39	104	0	60	37673
2026-01-07 18:30:58.04	166.07	34.97	-49.1	-60.4	3.6	8.46e-01	0	39	104	0	60	37690
2026-01-07 18:30:59.04	166.26	34.78	-49.1	-60.4	3.6	8.45e-01	0	39	104	0	60	37878
2026-01-07 18:31:00.05	166.46	34.58	-49.1	-60.4	3.6	8.44e-01	0	39	104	0	60	37794
2026-01-07 18:31:01.06	166.64	34.38	-49.1	-60.4	3.6	8.46e-01	0	39	104	0	60	37945
2026-01-07 18:31:02.08	166.83	34.18	-49.1	-60.4	3.6	8.45e-01	0	39	104	0	60	37812
2026-01-07 18:31:03.09	167.02	33.98	-49.1	-60.4	3.6	8.46e-01	0	39	104	0	60	37717
2026-01-07 18:31:04.09	167.20	33.79	-49.1	-60.4	3.6	8.46e-01	0	39	104	0	60	37839
2026-01-07 18:31:05.10	167.38	33.59	-49.1	-60.4	3.6	8.45e-01	0	39	104	0	60	38030
2026-01-07 18:31:06.11	167.55	33.40	-49.1	-60.4	3.6	8.45e-01	0	39	104	0	60	37811
2026-01-07 18:31:07.12	167.73	33.21	-49.1	-60.4	3.6	8.46e-01	0	39	104	0	60	37746
2026-01-07 18:31:08.13	167.90	33.02	-49.1	-60.4	3.6	8.45e-01	0	39	104	0	60	37890
2026-01-07 18:31:09.14	168.07	32.82	-49.1	-60.4	3.6	8.46e-01	0	39	104	0	60	37661
2026-01-07 18:31:10.15	168.24	32.63	-49.1	-60.3	3.6	8.45e-01	0	39	104	0	60	37577
2026-01-07 18:31:11.16	168.41	32.45	-49.1	-60.4	3.6	8.45e-01	0	39	104	0	60	37916
2026-01-07 18:31:12.17	168.58	32.26	-49.1	-60.4	3.6	8.44e-01	0	39	104	0	60	37816
2026-01-07 18:31:13.18	168.74	32.07	-49.1	-60.4	3.6	8.46e-01	0	39	104	0	60	37772
2026-01-07 18:31:14.18	168.90	31.89	-49.1	-60.4	3.6	8.45e-01	0	39	104	0	60	37789
2026-01-07 18:31:15.19	169.06	31.70	-49.1	-60.4	3.6	8.46e-01	0	39	104	0	60	37890
2026-01-07 18:31:16.20	169.22	31.52	-49.1	-60.3	3.6	8.45e-01	0	39	104	0	60	37599
2026-01-07 18:31:17.22	169.38	31.33	-49.1	-60.4	3.6	8.46e-01	0	39	104	0	60	37818
2026-01-07 18:31:18.22	169.53	31.15	-49.1	-60.4	3.6	8.45e-01	0	39	104	0	60	37825
2026-01-07 18:31:19.23	169.69	30.97	-49.1	-60.4	3.6	8.45e-01	0	39	104	0	60	37837
2026-01-07 18:31:20.25	169.84	30.79	-49.1	-60.4	3.5	8.47e-01	0	39	104	0	60	37765
2026-01-07 18:31:21.26	169.99	30.61	-49.1	-60.4	3.6	8.45e-01	0	39	104	0	60	37791
2026-01-07 18:31:22.26	170.14	30.43	-49.1	-60.4	3.6	8.47e-01	0	39	104	0	60	37659
2026-01-07 18:31:23.27	170.29	30.25	-49.1	-60.4	3.6	8.44e-01	0	39	104	0	60	37815
2026-01-07 18:31:24.28	170.43	30.07	-49.1	-60.4	3.6	8.46e-01	0	39	104	0	60	37785
2026-01-07 18:31:25.29	170.58	29.90	-49.1	-60.4	3.6	8.45e-01	0	39	104	0	60	37761
2026-01-07 18:31:26.30	170.72	29.72	-49.1	-60.4	3.6	8.45e-01	0	39	104	0	60	37659
2026-01-07 18:31:27.31	170.86	29.55	-49.1	-60.4	3.6	8.46e-01	0	39	104	0	60	37818
2026-01-07 18:31:28.32	171.00	29.37	-49.1	-60.4	3.6	8.46e-01	0	39	104	0	60	37838
2026-01-07 18:31:29.33	171.14	29.20	-49.1	-60.4	3.6	8.45e-01	0	39	104	0	60	37691
2026-01-07 18:31:30.34	171.27	29.03	-49.1	-60.4	3.6	8.44e-01	0	39	104	0	60	37868
2026-01-07 18:31:31.35	171.41	28.86	-49.1	-60.4	3.6	8.46e-01	0	39	104	0	60	37762
2026-01-07 18:31:32.36	171.54	28.69	-49.1	-60.4	3.6	8.44e-01	0	39	104	0	60	37813
2026-01-07 18:31:33.37	171.67	28.52	-49.1	-60.4	3.6	8.46e-01	0	39	104	0	60	37727
2026-01-07 18:31:34.38	171.81	28.35	-49.1	-60.4	3.6	8.44e-01	0	39	104	0	60	37682
2026-01-07 18:31:35.39	171.94	28.18	-49.1	-60.4	3.6	8.44e-01	0	39	104	0	60	37934
2026-01-07 18:31:36.40	172.06	28.02	-49.1	-60.4	3.6	8.44e-01	0	39	104	0	60	37771
2026-01-07 18:31:37.41	172.19	27.85	-49.1	-60.4	3.6	8.44e-01	0	39	104	0	60	37790
2026-01-07 18:31:38.42	172.32	27.68	-49.1	-60.4	3.6	8.45e-01	0	39	104	0	60	37722
2026-01-07 18:31:39.43	172.44	27.52	-49.1	-60.3	3.6	8.46e-01	0	39	104	0	60	37598
2026-01-07 18:31:40.44	172.57	27.36	-49.1	-60.4	3.6	8.46e-01	0	39	104	0	60	37838
2026-01-07 18:31:41.45	172.69	27.19	-49.1	-60.4	3.6	8.45e-01	0	39	104	0	60	37660
2026-01-07 18:31:42.46	172.81	27.03	-49.1	-60.4	3.6	8.44e-01	0	39	104	0	60	37635
2026-01-07 18:31:43.47	172.93	26.87	-49.1	-60.4	3.6	8.45e-01	0	39	104	0	60	37639
2026-01-07 18:31:44.47	173.05	26.71	-49.1	-60.3	3.6	8.44e-01	0	39	104	0	60	37497
2026-01-07 18:31:45.48	173.16	26.56	-49.1	-60.4	3.6	8.46e-01	0	39	104	0	60	37706
2026-01-07 18:31:46.49	173.28	26.40	-49.1	-60.3	3.6	8.45e-01	0	39	104	0	60	37535
2026-01-07 18:31:47.50	173.40	26.24	-49.1	-60.4	3.6	8.45e-01	0	39	104	0	60	37748
2026-01-07 18:31:48.51	173.51	26.08	-49.1	-60.4	3.6	8.45e-01	0	39	104	0	60	37826
2026-01-07 18:31:49.52	173.62	25.93	-49.1	-60.4	3.6	8.45e-01	0	39	104	0	60	37803
2026-01-07 18:31:50.53	173.74	25.77	-49.1	-60.4	3.6	8.45e-01	0	39	104	0	60	37800
2026-01-07 18:31:51.54	173.85	25.62	-49.1	-60.4	3.6	8.46e-01	0	39	104	0	60	37725
2026-01-07 18:31:52.55	173.96	25.46	-49.1	-60.4	3.6	8.45e-01	0	39	104	0	60	37756
2026-01-07 18:31:53.56	174.07	25.31	-49.1	-60.4	3.6	8.46e-01	0	39	104	0	60	37713
2026-01-07 18:31:54.57	174.17	25.16	-49.1	-60.4	3.6	8.45e-01	0	39	104	0	60	37752
2026-01-07 18:31:55.58	174.28	25.01	-49.1	-60.4	3.6	8.45e-01	0	39	104	0	60	37765
2026-01-07 18:31:56.59	174.39	24.86	-49.1	-60.3	3.6	8.45e-01	0	39	104	0	60	37521
2026-01-07 18:31:57.60	174.49	24.71	-49.1	-60.4	3.6	8.45e-01	0	39	104	0	60	37791
2026-01-07 18:31:58.61	174.60	24.56	-49.1	-60.4	3.6	8.45e-01	0	39	104	0	60	37880
2026-01-07 18:31:59.62	174.70	24.41	-49.1	-60.4	3.6	8.45e-01	0	39	104	0	60	37681
2026-01-07 18:32:00.63	174.80	24.26	-49.1	-60.4	3.6	8.44e-01	0	39	104	0	60	37804
2026-01-07 18:32:01.64	174.90	24.12	-49.1	-60.4	3.6	8.46e-01	0	39	104	0	60	37794
2026-01-07 18:32:02.65	175.00	23.97	-49.1	-60.4	3.6	8.46e-01	0	39	104	0	60	37831
2026-01-07 18:32:03.66	175.10	23.82	-49.1	-60.4	3.6	8.45e-01	0	39	104	0	60	37772
2026-01-07 18:32:04.67	175.20	23.68	-49.1	-60.4	3.6	8.45e-01	0	39	104	0	60	37641
2026-01-07 18:32:05.68	175.30	23.54	-49.1	-60.4	3.6	8.46e-01	0	39	104	0	60	37817
2026-01-07 18:32:06.69	175.40	23.39	-49.1	-60.3	3.6	8.45e-01	0	39	104	0	60	37632
2026-01-07 18:32:07.70	175.49	23.25	-49.1	-60.4	3.6	8.45e-01	0	39	104	0	60	37939
2026-01-07 18:32:08.71	175.59	23.11	-49.1	-60.4	3.6	8.46e-01	0	39	104	0	60	37633
2026-01-07 18:32:09.72	175.68	22.97	-49.1	-60.4	3.6	8.45e-01	0	39	104	0	60	37667
2026-01-07 18:32:10.73	175.78	22.83	-49.1	-60.4	3.6	8.45e-01	0	39	104	0	60	37655
2026-01-07 18:32:11.74	175.87	22.69	-49.1	-60.4	3.6	8.45e-01	0	39	104	0	60	37918
2026-01-07 18:32:12.74	175.96	22.55	-49.1	-60.4	3.6	8.45e-01	0	39	104	0	60	37642
2026-01-07 18:32:13.75	176.05	22.41	-49.1	-60.4	3.6	8.45e-01	0	39	104	0	60	37834
2026-01-07 18:32:14.76	176.14	22.27	-49.1	-60.4	3.6	8.46e-01	0	39	104	0	60	37922
2026-01-07 18:32:15.77	176.23	22.14	-49.1	-60.4	3.5	8.46e-01	0	39	104	0	60	37704
2026-01-07 18:32:16.78	176.32	22.00	-49.1	-60.4	3.6	8.45e-01	0	39	104	0	60	37853
2026-01-07 18:32:17.79	176.41	21.87	-49.1	-60.4	3.6	8.46e-01	0	39	104	0	60	37961
2026-01-07 18:32:18.80	176.50	21.73	-49.1	-60.4	3.6	8.46e-01	0	39	104	0	60	37918
2026-01-07 18:32:19.81	176.58	21.60	-49.1	-60.4	3.6	8.45e-01	0	39	104	0	60	37758
2026-01-07 18:32:20.82	176.67	21.46	-49.1	-60.4	3.6	8.45e-01	0	39	104	0	60	37788
2026-01-07 18:32:21.83	176.76	21.33	-49.1	-60.3	3.6	8.45e-01	0	39	104	0	60	37628
2026-01-07 18:32:22.84	176.84	21.20	-49.1	-60.4	3.6	8.45e-01	0	39	104	0	60	37713
2026-01-07 18:32:23.85	176.93	21.07	-49.1	-60.4	3.6	8.46e-01	0	39	104	0	60	37659
2026-01-07 18:32:24.86	177.01	20.94	-49.1	-60.4	3.6	8.45e-01	0	39	104	0	60	37873
2026-01-07 18:32:25.87	177.09	20.80	-49.1	-60.4	3.6	8.45e-01	0	39	104	0	60	37658
2026-01-07 18:32:26.88	177.17	20.67	-49.1	-60.4	3.6	8.44e-01	0	39	104	0	60	37730
2026-01-07 18:32:27.89	177.25	20.55	-49.1	-60.4	3.6	8.46e-01	0	39	104	0	60	37715
2026-01-07 18:32:28.90	177.34	20.42	-49.1	-60.4	3.6	8.45e-01	0	39	104	0	60	37646
2026-01-07 18:32:29.91	177.42	20.29	-49.1	-60.4	3.6	8.45e-01	0	39	104	0	60	37735
2026-01-07 18:32:30.92	177.50	20.16	-49.1	-60.4	3.6	8.46e-01	0	39	104	0	60	37806
2026-01-07 18:32:31.93	177.57	20.03	-49.1	-60.4	3.6	8.45e-01	0	39	104	0	60	37757
2026-01-07 18:32:32.94	177.65	19.91	-49.1	-60.4	3.6	8.46e-01	0	39	104	0	60	37977
2026-01-07 18:32:33.95	177.73	19.78	-49.1	-60.3	3.6	8.46e-01	0	39	104	0	60	37584
2026-01-07 18:32:34.96	177.81	19.66	-49.1	-60.4	3.6	8.45e-01	0	39	104	0	60	37888
2026-01-07 18:32:35.97	177.88	19.53	-49.1	-60.4	3.6	8.45e-01	0	39	104	0	60	37700
2026-01-07 18:32:36.98	177.96	19.41	-49.1	-60.4	3.6	8.45e-01	0	39	104	0	60	37751
2026-01-07 18:32:37.99	178.03	19.29	-49.1	-60.3	3.6	8.44e-01	0	39	104	0	60	37620
2026-01-07 18:32:39.00	178.11	19.16	-49.1	-60.4	3.6	8.46e-01	0	39	104	0	60	37810
2026-01-07 18:32:40.01	178.18	19.04	-49.1	-60.3	3.6	8.46e-01	0	39	104	0	60	37614
2026-01-07 18:32:41.02	178.26	18.92	-49.1	-60.4	3.6	8.44e-01	0	39	104	0	60	37703
2026-01-07 18:32:42.03	178.33	18.80	-49.1	-60.4	3.6	8.46e-01	0	39	104	0	60	37716
2026-01-07 18:32:43.04	178.40	18.68	-49.1	-60.4	3.6	8.44e-01	0	39	104	0	60	37667
2026-01-07 18:32:44.05	178.47	18.56	-49.1	-60.4	3.6	8.45e-01	0	39	104	0	60	37835
2026-01-07 18:32:45.06	178.55	18.44	-49.1	-60.4	3.6	8.44e-01	0	39	104	0	60	37815
2026-01-07 18:32:46.07	178.62	18.32	-49.1	-60.4	3.6	8.45e-01	0	39	104	0	60	37765
2026-01-07 18:32:47.07	178.69	18.20	-49.1	-60.4	3.6	8.46e-01	0	39	104	0	60	37878
2026-01-07 18:32:48.08	178.76	18.08	-49.1	-60.4	3.6	8.45e-01	0	39	104	0	60	37661
2026-01-07 18:32:49.09	178.83	17.97	-49.1	-60.4	3.6	8.45e-01	0	39	104	0	60	37809
2026-01-07 18:32:50.10	178.89	17.85	-49.1	-60.4	3.6	8.45e-01	0	39	104	0	60	37998
2026-01-07 18:32:51.11	178.96	17.73	-49.1	-60.4	3.6	8.44e-01	0	39	104	0	60	37813
2026-01-07 18:32:52.12	179.03	17.62	-49.1	-60.4	3.6	8.44e-01	0	39	104	0	60	37909
2026-01-07 18:32:53.13	179.10	17.50	-49.1	-60.4	3.6	8.45e-01	0	39	104	0	60	37836
2026-01-07 18:32:54.14	179.16	17.39	-49.1	-60.3	3.6	8.45e-01	0	39	104	0	60	37567
2026-01-07 18:32:55.15	179.23	17.27	-49.1	-60.3	3.6	8.46e-01	0	39	104	0	60	37598
2026-01-07 18:32:56.16	179.30	17.16	-49.1	-60.4	3.6	8.46e-01	0	39	104	0	60	37727
2026-01-07 18:32:57.17	179.36	17.05	-49.1	-60.4	3.6	8.45e-01	0	39	104	0	60	37638
2026-01-07 18:32:58.18	179.43	16.93	-49.1	-60.4	3.6	8.46e-01	0	39	104	0	60	37660
2026-01-07 18:32:59.19	179.49	16.82	-49.1	-60.3	3.6	8.45e-01	0	39	104	0	60	37535
2026-01-07 18:33:00.20	179.56	16.71	-49.1	-60.4	3.6	8.45e-01	0	39	104	0	60	37798
2026-01-07 18:33:01.21	179.62	16.60	-49.1	-60.4	3.6	8.45e-01	0	39	104	0	60	37670
2026-01-07 18:33:02.22	179.68	16.49	-49.1	-60.4	3.6	8.44e-01	0	39	104	0	60	37829
2026-01-07 18:33:03.23	179.75	16.38	-49.1	-60.4	3.6	8.45e-01	0	39	104	0	60	37721
2026-01-07 18:33:04.24	179.81	16.27	-49.1	-60.4	3.6	8.44e-01	0	39	104	0	60	37675
2026-01-07 18:33:05.25	179.87	16.16	-49.1	-60.4	3.6	8.46e-01	0	39	104	0	60	37834
2026-01-07 18:33:06.26	179.93	16.05	-49.1	-60.4	3.6	8.45e-01	0	39	104	0	60	37650
2026-01-07 18:33:07.27	179.99	15.94	-49.1	-60.4	3.6	8.45e-01	0	39	104	0	60	37705
2026-01-07 18:33:08.28	180.05	15.83	-49.1	-60.4	3.6	8.45e-01	0	39	104	0	60	37689
2026-01-07 18:33:09.29	180.11	15.72	-49.1	-60.4	3.6	8.45e-01	0	39	104	0	60	37774
2026-01-07 18:33:10.30	180.17	15.62	-49.1	-60.4	3.6	8.45e-01	0	39	104	0	60	37921
2026-01-07 18:33:11.31	180.23	15.51	-49.1	-60.4	3.6	8.44e-01	0	39	104	0	60	37663
2026-01-07 18:33:12.32	180.29	15.40	-49.1	-60.3	3.6	8.45e-01	0	39	104	0	60	37553
2026-01-07 18:33:13.33	180.35	15.30	-49.1	-60.4	3.6	8.45e-01	0	39	104	0	60	37829
2026-01-07 18:33:14.34	180.41	15.19	-49.1	-60.4	3.6	8.45e-01	0	39	104	0	60	37830
2026-01-07 18:33:15.35	180.47	15.09	-49.1	-60.4	3.6	8.46e-01	0	39	104	0	60	37739
2026-01-07 18:33:16.36	180.52	14.98	-49.1	-60.4	3.6	8.45e-01	0	39	104	0	60	37843
2026-01-07 18:33:17.37	180.58	14.88	-49.1	-60.3	3.6	8.45e-01	0	39	104	0	60	37565
2026-01-07 18:33:18.37	180.64	14.78	-49.1	-60.3	3.6	8.44e-01	0	39	104	0	60	37625
2026-01-07 18:33:19.38	180.69	14.67	-49.1	-60.4	3.6	8.45e-01	0	39	104	0	60	37871
2026-01-07 18:33:20.40	180.75	14.57	-49.1	-60.4	3.6	8.46e-01	0	39	104	0	60	37690
2026-01-07 18:33:21.40	180.81	14.47	-49.1	-60.3	3.6	8.46e-01	0	39	104	0	60	37626
2026-01-07 18:33:22.41	180.86	14.37	-49.1	-60.3	3.6	8.44e-01	0	39	104	0	60	37621
2026-01-07 18:33:23.42	180.92	14.26	-49.1	-60.4	3.5	8.46e-01	0	39	104	0	60	37715
2026-01-07 18:33:24.43	180.97	14.16	-49.1	-60.4	3.6	8.45e-01	0	39	104	0	60	37787
2026-01-07 18:33:25.44	181.03	14.06	-49.1	-60.4	3.6	8.46e-01	0	39	104	0	60	37662
2026-01-07 18:33:26.45	181.08	13.96	-49.1	-60.4	3.6	8.45e-01	0	39	104	0	60	37663
2026-01-07 18:33:27.46	181.13	13.86	-49.1	-60.3	3.6	8.45e-01	0	39	104	0	60	37540
2026-01-07 18:33:28.47	181.19	13.76	-49.1	-60.4	3.6	8.47e-01	0	39	104	0	60	37973
2026-01-07 18:33:29.48	181.24	13.66	-49.1	-60.4	3.6	8.45e-01	0	39	104	0	60	37640
2026-01-07 18:33:30.49	181.29	13.56	-49.1	-60.3	3.6	8.46e-01	0	39	104	0	60	37584
2026-01-07 18:33:31.50	181.34	13.47	-49.1	-60.4	3.6	8.46e-01	0	39	104	0	60	37636
2026-01-07 18:33:32.50	181.40	13.37	-49.1	-60.3	3.6	8.44e-01	0	39	104	0	60	37460
2026-01-07 18:33:33.52	181.45	13.27	-49.1	-60.4	3.6	8.46e-01	0	39	104	0	60	37805
2026-01-07 18:33:34.53	181.50	13.17	-49.1	-60.4	3.6	8.45e-01	0	39	104	0	60	37647
2026-01-07 18:33:35.54	181.55	13.07	-49.1	-60.4	3.6	8.46e-01	0	39	104	0	60	37689
