passes_logs/2026/01/07/R4.6S_Anadyr/R4.6S_Anadyr__20260107_121344_SUOMI_NPP_rec.log

#Pass ID: 20260107_121344_SUOMI NPP
#Satellite: SUOMI NPP
#Configuration: NPP
#almurnet v.1.7.20251203
#Start time: 2026-01-07 12:13:48

#Version: 2.2.20231116
#Station: R4.6S_Anadyr
#Location: 177.4865 lon 64.73178 lat
#TLE: 1 37849U 11061A   26004.95404768  .00000136  00000+0  85334-4 0  9991
#TLE: 2 37849  98.7801 307.0898 0002575  80.6707 279.4760 14.19522289735281

#Time	Az	El	Level	Level2	SNR	BER	BlckErr	Temp	State	Recorded	gain1	gain2
2026-01-07 12:13:48.46	19.64	0.17	-49.2	-63.0	3.3	1.54e+00	0	35	0	0	60	51067
2026-01-07 12:13:49.47	19.72	0.21	-49.2	-64.4	3.6	1.51e+00	0	36	104	0	60	60220
2026-01-07 12:13:50.48	19.80	0.26	-49.3	-64.5	3.6	1.51e+00	0	36	104	0	60	60787
2026-01-07 12:13:51.49	19.88	0.31	-49.3	-64.5	3.6	1.51e+00	0	36	104	0	60	60974
2026-01-07 12:13:52.50	19.96	0.35	-49.3	-64.5	3.6	1.51e+00	0	36	104	0	60	60832
2026-01-07 12:13:53.51	20.05	0.40	-49.3	-64.5	3.6	1.51e+00	0	36	104	0	60	60401
2026-01-07 12:13:54.52	20.13	0.45	-49.2	-64.4	3.6	1.51e+00	0	36	104	0	60	59904
2026-01-07 12:13:55.53	20.21	0.50	-49.1	-64.4	3.6	1.51e+00	0	36	104	0	60	59706
2026-01-07 12:13:56.54	20.30	0.54	-49.0	-64.2	3.6	1.51e+00	0	36	104	0	60	58689
2026-01-07 12:13:57.55	20.38	0.59	-48.9	-64.1	3.6	1.51e+00	0	36	104	0	60	57786
2026-01-07 12:13:58.56	20.46	0.64	-48.8	-64.0	3.6	1.51e+00	0	36	104	0	60	57007
2026-01-07 12:13:59.56	20.54	0.68	-48.6	-63.8	3.6	1.51e+00	0	36	104	0	60	56046
2026-01-07 12:14:00.57	20.63	0.73	-48.4	-63.6	3.6	1.51e+00	0	36	104	0	60	54565
2026-01-07 12:14:01.58	20.71	0.78	-48.0	-63.2	3.6	1.51e+00	0	36	104	0	60	51999
2026-01-07 12:14:02.59	20.80	0.83	-47.6	-62.8	3.6	1.51e+00	0	36	104	0	60	50072
2026-01-07 12:14:03.61	20.88	0.88	-47.6	-62.8	3.6	1.51e+00	0	36	104	0	60	50046
2026-01-07 12:14:04.61	20.97	0.92	-47.6	-62.8	3.6	1.51e+00	0	36	104	0	60	49822
2026-01-07 12:14:05.62	21.05	0.97	-47.6	-62.8	3.6	1.51e+00	0	36	104	0	60	49916
2026-01-07 12:14:06.63	21.14	1.02	-47.6	-62.8	3.6	1.51e+00	0	36	104	0	60	49684
2026-01-07 12:14:07.64	21.22	1.07	-47.6	-62.8	3.6	1.51e+00	0	36	104	0	60	50054
2026-01-07 12:14:08.65	21.31	1.11	-47.6	-62.8	3.6	1.51e+00	0	36	104	0	60	50068
2026-01-07 12:14:09.66	21.40	1.16	-47.6	-62.8	3.6	1.51e+00	0	36	104	0	60	50055
2026-01-07 12:14:10.67	21.48	1.21	-47.6	-62.8	3.6	1.51e+00	0	36	104	0	60	49863
2026-01-07 12:14:11.68	21.57	1.26	-47.6	-62.8	3.6	1.51e+00	0	36	104	0	60	49831
2026-01-07 12:14:12.69	21.66	1.30	-47.6	-62.8	3.6	1.51e+00	0	36	104	0	60	49769
2026-01-07 12:14:13.70	21.75	1.35	-47.6	-62.8	3.6	1.51e+00	0	36	104	0	60	50075
2026-01-07 12:14:14.71	21.83	1.40	-47.6	-62.8	3.6	1.51e+00	0	36	104	0	60	49848
2026-01-07 12:14:15.72	21.92	1.45	-47.6	-62.8	3.6	1.51e+00	0	36	104	0	60	49741
2026-01-07 12:14:16.73	22.01	1.50	-47.6	-62.8	3.6	1.51e+00	0	36	104	0	60	49792
2026-01-07 12:14:17.74	22.10	1.54	-47.6	-62.8	3.6	1.51e+00	0	36	104	0	60	49813
2026-01-07 12:14:18.75	22.19	1.59	-47.6	-62.8	3.6	1.51e+00	0	36	104	0	60	49815
2026-01-07 12:14:19.76	22.28	1.64	-47.6	-62.8	3.6	1.51e+00	0	36	104	0	60	49862
2026-01-07 12:14:20.77	22.36	1.69	-47.6	-62.9	3.6	1.51e+00	0	36	104	0	60	50270
2026-01-07 12:14:21.78	22.45	1.74	-47.6	-62.8	3.5	1.51e+00	0	36	104	0	60	50006
2026-01-07 12:14:22.79	22.54	1.78	-47.6	-62.8	3.6	1.51e+00	0	36	104	0	60	49879
2026-01-07 12:14:23.80	22.63	1.83	-47.6	-62.7	3.5	1.51e+00	0	36	104	0	60	49496
2026-01-07 12:14:24.81	22.72	1.88	-47.6	-62.7	3.6	1.51e+00	0	36	104	0	60	49531
2026-01-07 12:14:25.81	22.81	1.93	-47.6	-62.7	3.6	1.51e+00	0	36	104	0	60	49069
2026-01-07 12:14:26.83	22.91	1.98	-47.6	-62.7	3.6	1.51e+00	0	36	104	0	60	49089
2026-01-07 12:14:27.84	23.00	2.02	-47.6	-62.7	3.6	1.51e+00	0	36	104	0	60	49463
2026-01-07 12:14:28.85	23.09	2.07	-47.6	-62.7	3.6	1.51e+00	0	36	104	0	60	49516
2026-01-07 12:14:29.86	23.18	2.12	-47.6	-62.7	3.6	1.51e+00	0	36	104	0	60	49437
2026-01-07 12:14:30.87	23.27	2.17	-47.6	-62.7	3.6	1.51e+00	0	36	104	0	60	49540
2026-01-07 12:14:31.88	23.36	2.22	-47.6	-62.8	3.6	1.51e+00	0	36	104	0	60	50047
2026-01-07 12:14:32.88	23.46	2.26	-47.6	-62.8	3.6	1.51e+00	0	36	104	0	60	49687
2026-01-07 12:14:33.89	23.55	2.31	-47.6	-62.4	3.6	1.51e+00	0	36	104	0	60	47424
2026-01-07 12:14:34.90	23.64	2.36	-47.6	-61.7	3.6	1.51e+00	0	36	104	0	60	44113
2026-01-07 12:14:35.91	23.74	2.41	-47.5	-61.6	3.6	1.51e+00	0	36	104	0	60	43564
2026-01-07 12:14:36.92	23.83	2.46	-47.6	-62.0	3.6	1.51e+00	0	36	104	0	60	45728
2026-01-07 12:14:37.93	23.92	2.51	-47.5	-60.6	3.6	1.51e+00	0	36	104	0	60	38723
2026-01-07 12:14:38.94	24.02	2.56	-47.0	-55.6	6.5	5.10e-01	0	36	0	0	60	21701
2026-01-07 12:14:39.95	24.11	2.60	-45.9	-50.7	10.9	2.15e-02	0	36	0	1048576	60	12443
2026-01-07 12:14:40.96	24.21	2.65	-44.3	-47.4	14.5	5.87e-05	60	36	0	3145728	60	8453
2026-01-07 12:14:41.97	24.30	2.70	-43.0	-45.2	16.8	0.00e+00	0	36	0	5242880	60	6571
2026-01-07 12:14:42.98	24.40	2.75	-41.7	-43.5	18.1	0.00e+00	37	36	0	7340032	58	6048
2026-01-07 12:14:43.99	24.49	2.80	-41.0	-42.5	19.1	0.00e+00	0	36	0	9437184	56	6075
2026-01-07 12:14:45.00	24.59	2.85	-41.3	-42.9	18.7	0.00e+00	0	36	0	10485760	56	6365
2026-01-07 12:14:46.01	24.69	2.90	-42.2	-44.1	17.6	0.00e+00	0	36	0	12582912	56	7257
2026-01-07 12:14:47.02	24.78	2.94	-43.2	-45.5	15.8	0.00e+00	0	36	0	14680064	58	7637
2026-01-07 12:14:48.03	24.88	2.99	-44.8	-48.4	13.1	0.00e+00	0	36	0	16777216	60	9460
2026-01-07 12:14:49.04	24.98	3.04	-46.5	-52.6	8.3	1.21e-02	0	36	0	18874368	60	15450
2026-01-07 12:14:50.05	25.08	3.09	-43.8	-46.4	15.4	1.18e-04	29	36	0	19922944	60	7569
2026-01-07 12:14:51.06	25.17	3.14	-41.3	-42.9	18.8	0.00e+00	0	36	0	22020096	56	6348
2026-01-07 12:14:52.07	25.27	3.19	-47.5	-60.7	3.7	1.46e+00	0	36	104	23068672	60	38997
2026-01-07 12:14:53.08	25.37	3.24	-47.4	-60.1	3.7	1.46e+00	0	36	104	23068672	60	36379
2026-01-07 12:14:54.09	25.47	3.29	-45.2	-48.9	13.0	2.51e-05	0	36	0	23068672	60	10094
2026-01-07 12:14:55.09	25.57	3.33	-41.7	-43.4	18.3	0.00e+00	0	36	0	25165824	58	6032
2026-01-07 12:14:56.10	25.67	3.38	-41.9	-43.7	18.2	0.00e+00	0	36	0	26214400	56	6978
2026-01-07 12:14:57.11	25.77	3.43	-41.6	-43.3	18.5	0.00e+00	0	36	0	28311552	56	6651
2026-01-07 12:14:58.12	25.87	3.48	-41.4	-43.0	18.7	0.00e+00	0	36	0	30408704	56	6447
2026-01-07 12:14:59.13	25.97	3.53	-41.2	-42.8	19.1	0.00e+00	0	36	0	32505856	56	6249
2026-01-07 12:15:00.14	26.07	3.58	-41.4	-43.0	18.8	0.00e+00	0	36	0	34603008	56	6447
2026-01-07 12:15:01.15	26.17	3.63	-41.3	-42.8	19.1	0.00e+00	26	36	0	35651584	56	6286
2026-01-07 12:15:02.16	26.27	3.68	-41.2	-42.8	19.1	0.00e+00	0	36	0	37748736	56	6260
2026-01-07 12:15:03.17	26.37	3.73	-41.2	-42.7	19.1	0.00e+00	0	36	0	39845888	56	6216
2026-01-07 12:15:04.18	26.48	3.77	-41.2	-42.7	19.1	0.00e+00	92	36	0	41943040	56	6215
2026-01-07 12:15:05.19	26.58	3.82	-41.3	-42.8	19.1	0.00e+00	0	36	0	44040192	56	6300
2026-01-07 12:15:06.20	26.68	3.87	-41.1	-42.7	19.3	0.00e+00	92	36	0	45088768	56	6179
2026-01-07 12:15:07.21	26.78	3.92	-41.0	-42.5	19.4	0.00e+00	0	36	0	47185920	56	6069
2026-01-07 12:15:08.22	26.89	3.97	-41.1	-42.6	19.3	0.00e+00	0	36	0	49283072	56	6134
2026-01-07 12:15:09.23	26.99	4.02	-40.9	-42.3	19.5	0.00e+00	27	36	0	51380224	56	5961
2026-01-07 12:15:10.24	27.09	4.07	-40.8	-42.2	19.6	0.00e+00	0	36	0	53477376	56	5854
2026-01-07 12:15:11.25	27.20	4.12	-40.8	-42.3	19.6	0.00e+00	37	36	0	54525952	56	5907
2026-01-07 12:15:12.25	27.30	4.17	-40.8	-42.3	19.5	0.00e+00	0	36	0	56623104	56	5913
2026-01-07 12:15:13.26	27.41	4.22	-40.7	-42.1	19.7	0.00e+00	91	37	0	58720256	56	5807
2026-01-07 12:15:14.27	27.51	4.26	-40.7	-42.1	19.8	0.00e+00	3	36	0	60817408	54	6491
2026-01-07 12:15:15.28	27.62	4.31	-40.7	-42.1	19.8	0.00e+00	0	36	0	62914560	54	6509
2026-01-07 12:15:16.28	27.72	4.36	-40.4	-41.8	20.0	0.00e+00	0	37	0	63963136	54	6255
2026-01-07 12:15:17.30	27.83	4.41	-40.4	-41.7	20.1	0.00e+00	0	37	0	66060288	54	6196
2026-01-07 12:15:18.30	27.94	4.46	-40.5	-41.9	20.0	0.00e+00	60	36	0	68157440	54	6320
2026-01-07 12:15:19.31	28.04	4.51	-40.2	-41.5	20.2	0.00e+00	0	37	0	70254592	54	6087
2026-01-07 12:15:20.32	28.15	4.56	-40.3	-41.6	20.2	0.00e+00	92	36	0	72351744	54	6163
2026-01-07 12:15:21.33	28.26	4.61	-40.2	-41.5	20.3	0.00e+00	0	36	0	73400320	54	6064
2026-01-07 12:15:22.34	28.37	4.66	-40.2	-41.5	20.3	0.00e+00	0	36	0	75497472	54	6062
2026-01-07 12:15:23.35	28.48	4.71	-40.2	-41.5	20.4	0.00e+00	0	36	0	77594624	54	6035
2026-01-07 12:15:24.36	28.58	4.76	-39.9	-41.2	20.7	0.00e+00	0	37	0	79691776	54	5860
2026-01-07 12:15:25.37	28.69	4.81	-39.9	-41.2	20.6	0.00e+00	29	37	0	81788928	54	5858
2026-01-07 12:15:26.38	28.80	4.85	-40.0	-41.2	20.6	0.00e+00	0	37	0	82837504	54	5885
2026-01-07 12:15:27.39	28.91	4.90	-39.9	-41.2	20.7	0.00e+00	92	37	0	84934656	54	5832
2026-01-07 12:15:28.40	29.02	4.95	-39.8	-41.0	20.9	0.00e+00	0	37	0	87031808	52	6417
2026-01-07 12:15:29.41	29.13	5.00	-39.7	-40.9	20.9	0.00e+00	40	37	0	89128960	52	6376
2026-01-07 12:15:30.41	29.24	5.05	-39.7	-40.8	21.0	0.00e+00	0	37	0	91226112	52	6317
2026-01-07 12:15:31.42	29.36	5.10	-39.6	-40.7	21.1	0.00e+00	0	37	0	93323264	52	6237
2026-01-07 12:15:32.44	29.47	5.15	-39.6	-40.7	21.0	0.00e+00	22	37	0	94371840	52	6239
2026-01-07 12:15:33.44	29.58	5.20	-39.5	-40.6	21.2	0.00e+00	0	37	0	96468992	52	6159
2026-01-07 12:15:34.45	29.69	5.25	-39.5	-40.7	21.1	0.00e+00	92	37	0	98566144	52	6199
2026-01-07 12:15:35.46	29.80	5.30	-39.6	-40.7	21.1	0.00e+00	0	37	0	100663296	52	6245
2026-01-07 12:15:36.47	29.92	5.35	-39.7	-40.9	20.9	0.00e+00	92	37	0	101711872	52	6356
2026-01-07 12:15:37.48	30.03	5.40	-39.6	-40.7	21.2	0.00e+00	0	37	0	103809024	52	6221
2026-01-07 12:15:38.49	30.14	5.45	-39.5	-40.7	21.2	0.00e+00	0	37	0	105906176	52	6205
2026-01-07 12:15:39.50	30.26	5.50	-39.7	-40.9	21.0	0.00e+00	0	36	0	108003328	52	6344
2026-01-07 12:15:40.51	30.37	5.54	-39.7	-40.9	21.0	0.00e+00	0	37	0	110100480	52	6335
2026-01-07 12:15:41.52	30.49	5.59	-39.8	-41.0	21.0	0.00e+00	92	36	0	111149056	52	6400
2026-01-07 12:15:42.52	30.60	5.64	-39.9	-41.1	20.9	0.00e+00	0	37	0	113246208	52	6503
2026-01-07 12:15:43.53	30.72	5.69	-39.8	-41.0	20.9	0.00e+00	72	37	0	115343360	52	6407
2026-01-07 12:15:44.55	30.84	5.74	-39.9	-41.2	20.5	0.00e+00	0	37	0	117440512	52	6550
2026-01-07 12:15:45.55	30.95	5.79	-39.8	-41.0	20.3	0.00e+00	0	37	0	119537664	52	6458
2026-01-07 12:15:46.57	31.07	5.84	-39.9	-41.2	20.6	0.00e+00	0	37	0	121634816	52	6548
2026-01-07 12:15:47.58	31.19	5.89	-40.0	-41.3	20.6	0.00e+00	0	37	0	122683392	52	6621
2026-01-07 12:15:48.58	31.30	5.94	-40.0	-41.2	20.8	0.00e+00	92	37	0	124780544	52	6583
2026-01-07 12:15:49.59	31.42	5.99	-40.0	-41.2	20.8	0.00e+00	0	37	0	126877696	52	6588
2026-01-07 12:15:50.60	31.54	6.04	-40.0	-41.3	20.7	0.00e+00	92	37	0	128974848	52	6623
2026-01-07 12:15:51.61	31.66	6.09	-40.2	-41.4	20.6	0.00e+00	0	37	0	131072000	52	6757
2026-01-07 12:15:52.62	31.78	6.14	-39.9	-41.1	20.8	0.00e+00	0	37	0	132120576	52	6528
2026-01-07 12:15:53.63	31.90	6.19	-40.0	-41.2	20.8	0.00e+00	0	37	0	134217728	52	6590
2026-01-07 12:15:54.64	32.02	6.23	-40.1	-41.4	20.7	0.00e+00	0	37	0	136314880	52	6714
2026-01-07 12:15:55.65	32.14	6.28	-39.9	-41.1	20.8	0.00e+00	27	37	0	138412032	52	6512
2026-01-07 12:15:56.66	32.26	6.33	-39.9	-41.1	20.9	0.00e+00	0	37	0	140509184	52	6536
2026-01-07 12:15:57.66	32.38	6.38	-39.9	-41.1	20.8	0.00e+00	92	37	0	141557760	52	6516
2026-01-07 12:15:58.67	32.50	6.43	-39.9	-41.2	21.0	0.00e+00	0	37	0	143654912	52	6547
2026-01-07 12:15:59.68	32.62	6.48	-40.0	-41.2	20.8	0.00e+00	0	37	0	145752064	52	6581
2026-01-07 12:16:00.69	32.74	6.53	-39.9	-41.0	20.9	0.00e+00	0	37	0	147849216	52	6458
2026-01-07 12:16:01.70	32.86	6.58	-39.9	-41.0	20.9	0.00e+00	0	37	0	149946368	52	6463
2026-01-07 12:16:02.71	32.99	6.63	-39.8	-41.0	21.1	0.00e+00	43	37	0	150994944	52	6443
2026-01-07 12:16:03.72	33.11	6.68	-39.9	-41.1	21.0	0.00e+00	0	37	0	153092096	52	6504
2026-01-07 12:16:04.73	33.23	6.73	-39.8	-41.0	21.0	0.00e+00	73	37	0	155189248	52	6394
2026-01-07 12:16:05.74	33.36	6.78	-40.0	-41.2	20.9	0.00e+00	0	37	0	157286400	52	6579
2026-01-07 12:16:06.75	33.48	6.82	-39.9	-41.2	20.9	0.00e+00	0	37	0	159383552	52	6551
2026-01-07 12:16:07.76	33.61	6.87	-39.9	-41.1	21.0	0.00e+00	0	37	0	160432128	52	6512
2026-01-07 12:16:08.77	33.73	6.92	-39.7	-40.9	21.1	0.00e+00	0	37	0	162529280	52	6349
2026-01-07 12:16:09.78	33.86	6.97	-39.8	-41.0	21.1	0.00e+00	37	37	0	164626432	52	6457
2026-01-07 12:16:10.79	33.99	7.02	-39.6	-40.8	21.3	0.00e+00	0	37	0	166723584	52	6278
2026-01-07 12:16:11.80	34.11	7.07	-39.7	-40.8	21.2	0.00e+00	92	37	0	168820736	52	6303
2026-01-07 12:16:12.81	34.24	7.12	-39.6	-40.7	21.4	0.00e+00	0	37	0	169869312	52	6212
2026-01-07 12:16:13.82	34.37	7.17	-39.4	-40.5	21.4	0.00e+00	92	37	0	171966464	52	6094
2026-01-07 12:16:14.83	34.49	7.22	-39.4	-40.5	21.4	0.00e+00	0	37	0	174063616	52	6065
2026-01-07 12:16:15.84	34.62	7.27	-39.3	-40.4	21.6	0.00e+00	26	37	0	176160768	52	6008
2026-01-07 12:16:16.84	34.75	7.31	-39.1	-40.2	21.8	0.00e+00	0	37	0	178257920	52	5854
2026-01-07 12:16:17.85	34.88	7.36	-39.2	-40.3	21.7	0.00e+00	0	37	0	179306496	52	5921
2026-01-07 12:16:18.86	35.01	7.41	-39.0	-40.0	21.9	0.00e+00	53	37	0	181403648	52	5756
2026-01-07 12:16:19.87	35.14	7.46	-39.1	-40.2	21.8	0.00e+00	0	37	0	183500800	52	5845
2026-01-07 12:16:20.88	35.27	7.51	-39.1	-40.1	21.9	0.00e+00	92	37	0	185597952	52	5818
2026-01-07 12:16:21.89	35.40	7.56	-39.2	-40.3	21.7	0.00e+00	0	37	0	187695104	52	5936
2026-01-07 12:16:22.90	35.53	7.61	-38.9	-40.0	21.9	0.00e+00	0	37	0	189792256	52	5696
2026-01-07 12:16:23.91	35.66	7.66	-39.1	-40.2	21.9	0.00e+00	0	37	0	190840832	52	5836
2026-01-07 12:16:24.92	35.80	7.70	-39.0	-40.0	22.0	0.00e+00	0	37	0	192937984	52	5746
2026-01-07 12:16:25.93	35.93	7.75	-38.8	-39.9	22.0	0.00e+00	42	37	0	195035136	52	5669
2026-01-07 12:16:26.93	36.06	7.80	-38.8	-39.9	22.2	0.00e+00	0	37	0	197132288	52	5642
2026-01-07 12:16:27.95	36.19	7.85	-38.8	-39.9	22.1	0.00e+00	92	37	0	199229440	50	6322
2026-01-07 12:16:28.95	36.33	7.90	-38.5	-39.6	22.4	0.00e+00	0	37	0	200278016	50	6106
2026-01-07 12:16:29.96	36.46	7.95	-38.5	-39.5	22.4	0.00e+00	0	37	0	202375168	50	6058
2026-01-07 12:16:30.97	36.60	8.00	-38.6	-39.7	22.3	0.00e+00	0	37	0	204472320	50	6178
2026-01-07 12:16:31.98	36.73	8.04	-38.3	-39.3	22.6	0.00e+00	0	37	0	206569472	50	5913
2026-01-07 12:16:32.99	36.87	8.09	-38.3	-39.3	22.6	0.00e+00	28	37	0	208666624	50	5906
2026-01-07 12:16:34.00	37.00	8.14	-38.4	-39.4	22.5	0.00e+00	0	37	0	209715200	50	5970
2026-01-07 12:16:35.01	37.14	8.19	-38.5	-39.5	22.4	0.00e+00	84	37	0	211812352	50	6091
2026-01-07 12:16:36.02	37.27	8.24	-38.6	-39.6	22.4	0.00e+00	0	37	0	213909504	50	6130
2026-01-07 12:16:37.03	37.41	8.29	-38.6	-39.6	22.3	0.00e+00	0	37	0	216006656	50	6141
2026-01-07 12:16:38.04	37.55	8.33	-38.8	-39.9	22.2	0.00e+00	0	37	0	218103808	50	6345
2026-01-07 12:16:39.05	37.69	8.38	-38.9	-39.9	22.1	0.00e+00	0	37	0	219152384	50	6380
2026-01-07 12:16:40.06	37.83	8.43	-38.8	-39.9	22.1	0.00e+00	0	37	0	221249536	50	6339
2026-01-07 12:16:41.07	37.97	8.48	-38.8	-39.8	22.2	0.00e+00	0	37	0	223346688	50	6308
2026-01-07 12:16:42.08	38.10	8.53	-38.8	-39.9	22.2	0.00e+00	88	37	0	225443840	50	6328
2026-01-07 12:16:43.09	38.24	8.57	-38.7	-39.8	22.2	0.00e+00	0	37	0	227540992	50	6255
2026-01-07 12:16:44.10	38.38	8.62	-38.7	-39.7	22.3	0.00e+00	41	37	0	228589568	50	6200
2026-01-07 12:16:45.11	38.53	8.67	-38.7	-39.7	22.3	0.00e+00	0	37	0	230686720	50	6222
2026-01-07 12:16:46.12	38.67	8.72	-38.6	-39.7	22.4	0.00e+00	0	37	0	232783872	50	6182
2026-01-07 12:16:47.13	38.81	8.76	-38.6	-39.6	22.4	0.00e+00	0	37	0	234881024	50	6138
2026-01-07 12:16:48.14	38.95	8.81	-38.6	-39.6	22.4	0.00e+00	0	37	0	236978176	50	6170
2026-01-07 12:16:49.15	39.09	8.86	-38.6	-39.7	22.3	0.00e+00	69	37	0	238026752	50	6182
2026-01-07 12:16:50.16	39.24	8.91	-38.7	-39.7	22.3	0.00e+00	0	37	0	240123904	50	6212
2026-01-07 12:16:51.17	39.38	8.95	-38.8	-39.8	22.2	0.00e+00	89	37	0	242221056	50	6289
2026-01-07 12:16:52.18	39.52	9.00	-38.8	-39.8	22.3	0.00e+00	0	37	0	244318208	50	6316
2026-01-07 12:16:53.19	39.67	9.05	-38.9	-39.9	22.1	0.00e+00	0	37	0	246415360	50	6354
2026-01-07 12:16:54.20	39.81	9.10	-38.9	-40.0	22.1	0.00e+00	0	37	0	247463936	50	6404
2026-01-07 12:16:55.21	39.96	9.14	-38.9	-40.0	22.1	0.00e+00	0	37	0	249561088	50	6413
2026-01-07 12:16:56.22	40.10	9.19	-39.1	-40.1	22.0	0.00e+00	77	37	0	251658240	50	6525
2026-01-07 12:16:57.23	40.25	9.24	-39.3	-40.4	21.8	0.00e+00	0	37	0	253755392	50	6734
2026-01-07 12:16:58.24	40.40	9.28	-38.8	-39.9	22.3	0.00e+00	89	37	0	255852544	50	6322
2026-01-07 12:16:59.25	40.54	9.33	-39.1	-40.1	22.1	0.00e+00	0	37	0	257949696	50	6512
2026-01-07 12:17:00.26	40.69	9.38	-38.9	-40.0	22.1	0.00e+00	0	37	0	258998272	50	6403
2026-01-07 12:17:01.27	40.84	9.43	-38.8	-39.9	22.2	0.00e+00	0	37	0	261095424	50	6341
2026-01-07 12:17:02.28	40.99	9.47	-38.8	-39.9	22.1	0.00e+00	0	37	0	263192576	50	6335
2026-01-07 12:17:03.29	41.14	9.52	-38.8	-39.8	22.0	0.00e+00	31	37	0	265289728	50	6276
2026-01-07 12:17:04.29	41.28	9.56	-38.8	-39.9	22.1	0.00e+00	0	37	0	267386880	50	6326
2026-01-07 12:17:05.30	41.43	9.61	-38.9	-39.9	22.2	0.00e+00	76	37	0	268435456	50	6385
2026-01-07 12:17:06.31	41.58	9.66	-38.9	-39.9	22.2	0.00e+00	0	37	0	270532608	50	6355
2026-01-07 12:17:07.32	41.74	9.70	-38.8	-39.9	22.3	0.00e+00	0	37	0	272629760	50	6328
2026-01-07 12:17:08.33	41.89	9.75	-38.9	-39.9	22.2	0.00e+00	0	37	0	274726912	50	6373
2026-01-07 12:17:09.34	42.04	9.80	-38.9	-40.0	22.2	0.00e+00	0	37	0	276824064	50	6399
2026-01-07 12:17:10.35	42.19	9.84	-38.7	-39.7	22.4	0.00e+00	26	37	0	277872640	50	6234
2026-01-07 12:17:11.36	42.34	9.89	-38.9	-39.9	22.2	0.00e+00	0	37	0	279969792	50	6380
2026-01-07 12:17:12.37	42.50	9.93	-39.0	-40.0	22.0	0.00e+00	83	37	0	282066944	50	6451
2026-01-07 12:17:13.38	42.65	9.98	-38.8	-39.8	22.3	0.00e+00	0	37	0	284164096	50	6273
2026-01-07 12:17:14.39	42.80	10.03	-39.0	-40.0	22.1	0.00e+00	0	37	0	286261248	50	6444
2026-01-07 12:17:15.40	42.96	10.07	-39.1	-40.2	21.9	0.00e+00	0	37	0	287309824	50	6566
2026-01-07 12:17:16.41	43.11	10.12	-38.9	-40.0	22.1	0.00e+00	0	37	0	289406976	50	6435
2026-01-07 12:17:17.42	43.27	10.16	-39.0	-40.1	22.0	0.00e+00	31	37	0	291504128	50	6525
2026-01-07 12:17:18.43	43.42	10.21	-39.1	-40.2	22.0	0.00e+00	0	37	0	293601280	50	6596
2026-01-07 12:17:19.44	43.58	10.25	-39.1	-40.2	22.0	0.00e+00	51	37	0	295698432	50	6595
2026-01-07 12:17:20.44	43.74	10.30	-39.1	-40.2	22.0	0.00e+00	0	37	0	296747008	50	6550
2026-01-07 12:17:21.45	43.89	10.34	-39.0	-40.0	22.1	0.00e+00	81	37	0	298844160	50	6406
2026-01-07 12:17:22.46	44.05	10.39	-38.8	-39.8	22.2	0.00e+00	0	37	0	300941312	50	6293
2026-01-07 12:17:23.47	44.21	10.43	-38.8	-39.8	22.2	0.00e+00	0	37	0	303038464	50	6307
2026-01-07 12:17:24.48	44.37	10.48	-38.9	-40.0	22.1	0.00e+00	25	37	0	305135616	50	6392
2026-01-07 12:17:25.48	44.53	10.52	-39.0	-40.1	22.1	0.00e+00	0	37	0	306184192	50	6471
2026-01-07 12:17:26.49	44.69	10.56	-39.2	-40.2	21.9	0.00e+00	92	37	0	308281344	50	6607
2026-01-07 12:17:27.50	44.85	10.61	-39.1	-40.2	22.0	0.00e+00	0	37	0	310378496	50	6587
2026-01-07 12:17:28.51	45.01	10.65	-39.4	-40.5	21.8	0.00e+00	92	37	0	312475648	50	6808
2026-01-07 12:17:29.52	45.17	10.70	-39.3	-40.4	21.8	0.00e+00	0	37	0	314572800	50	6738
2026-01-07 12:17:30.53	45.33	10.74	-39.3	-40.4	22.0	0.00e+00	0	37	0	315621376	50	6711
2026-01-07 12:17:31.54	45.49	10.78	-39.5	-40.6	21.7	0.00e+00	0	37	0	317718528	50	6919
2026-01-07 12:17:32.55	45.65	10.83	-39.5	-40.6	21.7	0.00e+00	0	37	0	319815680	50	6859
2026-01-07 12:17:33.56	45.82	10.87	-39.3	-40.4	21.9	0.00e+00	73	37	0	321912832	50	6697
2026-01-07 12:17:34.57	45.98	10.92	-39.4	-40.5	21.8	0.00e+00	0	37	0	324009984	50	6787
2026-01-07 12:17:35.58	46.14	10.96	-39.4	-40.4	21.8	0.00e+00	48	37	0	326107136	50	6768
2026-01-07 12:17:36.58	46.31	11.00	-39.2	-40.3	22.0	0.00e+00	0	37	0	327155712	50	6627
2026-01-07 12:17:37.59	46.47	11.04	-39.3	-40.4	21.8	0.00e+00	0	37	0	329252864	50	6703
2026-01-07 12:17:38.60	46.64	11.09	-39.5	-40.5	21.8	0.00e+00	0	37	0	331350016	50	6831
2026-01-07 12:17:39.61	46.80	11.13	-39.1	-40.2	22.0	0.00e+00	0	37	0	333447168	50	6540
2026-01-07 12:17:40.62	46.97	11.17	-39.3	-40.3	21.8	0.00e+00	25	37	0	334495744	50	6675
2026-01-07 12:17:41.63	47.13	11.22	-39.3	-40.3	21.9	0.00e+00	0	37	0	336592896	50	6680
2026-01-07 12:17:42.64	47.30	11.26	-39.4	-40.5	21.8	0.00e+00	92	37	0	338690048	50	6820
2026-01-07 12:17:43.65	47.47	11.30	-39.5	-40.6	21.7	0.00e+00	0	37	0	340787200	50	6877
2026-01-07 12:17:44.66	47.64	11.34	-39.6	-40.7	21.6	0.00e+00	0	37	0	342884352	50	6983
2026-01-07 12:17:45.67	47.81	11.38	-39.7	-40.8	21.5	0.00e+00	0	37	0	343932928	50	7072
2026-01-07 12:17:46.68	47.97	11.43	-39.8	-41.0	21.4	0.00e+00	0	37	0	346030080	52	6420
2026-01-07 12:17:47.69	48.14	11.47	-40.0	-41.1	21.3	0.00e+00	45	37	0	348127232	52	6498
2026-01-07 12:17:48.70	48.31	11.51	-39.9	-41.0	21.3	0.00e+00	0	37	0	350224384	52	6455
2026-01-07 12:17:49.71	48.48	11.55	-40.1	-41.3	21.1	0.00e+00	46	37	0	352321536	52	6652
2026-01-07 12:17:50.72	48.66	11.59	-40.0	-41.2	21.2	0.00e+00	0	37	0	354418688	52	6577
2026-01-07 12:17:51.72	48.82	11.63	-40.3	-41.5	21.0	0.00e+00	35	37	0	355467264	52	6784
2026-01-07 12:17:52.73	49.00	11.67	-39.9	-41.1	21.4	0.00e+00	0	37	0	357564416	52	6483
2026-01-07 12:17:53.74	49.17	11.71	-40.0	-41.1	21.3	0.00e+00	0	37	0	359661568	52	6496
2026-01-07 12:17:54.75	49.34	11.75	-40.2	-41.4	21.1	0.00e+00	0	37	0	361758720	52	6708
2026-01-07 12:17:55.76	49.51	11.80	-40.0	-41.2	21.1	0.00e+00	0	37	0	363855872	52	6543
2026-01-07 12:17:56.77	49.69	11.84	-40.2	-41.4	20.9	0.00e+00	90	37	0	364904448	52	6755
2026-01-07 12:17:57.78	49.86	11.88	-40.6	-41.9	20.7	0.00e+00	0	37	0	367001600	52	7100
2026-01-07 12:17:58.79	50.04	11.92	-40.4	-41.6	20.8	0.00e+00	51	37	0	369098752	52	6910
2026-01-07 12:17:59.80	50.21	11.96	-40.4	-41.6	20.6	0.00e+00	0	37	0	371195904	52	6910
2026-01-07 12:18:00.81	50.39	11.99	-40.5	-41.7	20.8	0.00e+00	0	37	0	373293056	52	6951
2026-01-07 12:18:01.82	50.56	12.03	-40.3	-41.5	21.0	0.00e+00	0	37	0	374341632	52	6840
2026-01-07 12:18:02.83	50.74	12.07	-40.2	-41.4	21.1	0.00e+00	0	37	0	376438784	52	6701
2026-01-07 12:18:03.83	50.92	12.11	-40.1	-41.3	21.2	0.00e+00	76	37	0	378535936	52	6646
2026-01-07 12:18:04.84	51.09	12.15	-40.1	-41.3	21.2	0.00e+00	0	37	0	380633088	52	6638
2026-01-07 12:18:05.85	51.27	12.19	-40.2	-41.5	21.1	0.00e+00	78	37	0	382730240	52	6770
2026-01-07 12:18:06.86	51.45	12.23	-40.3	-41.5	21.1	0.00e+00	0	37	0	383778816	52	6773
2026-01-07 12:18:07.87	51.63	12.27	-40.3	-41.4	21.0	0.00e+00	0	37	0	385875968	52	6760
2026-01-07 12:18:08.88	51.81	12.30	-40.5	-41.8	20.8	0.00e+00	0	37	0	387973120	52	7014
2026-01-07 12:18:09.89	51.99	12.34	-40.6	-41.8	20.8	0.00e+00	0	37	0	390070272	52	7048
2026-01-07 12:18:10.90	52.17	12.38	-40.2	-41.4	21.0	0.00e+00	32	37	0	392167424	52	6729
2026-01-07 12:18:11.91	52.35	12.42	-40.2	-41.4	21.1	0.00e+00	0	37	0	393216000	52	6735
2026-01-07 12:18:12.92	52.53	12.45	-40.3	-41.5	21.0	0.00e+00	92	37	0	395313152	52	6783
2026-01-07 12:18:13.93	52.71	12.49	-40.2	-41.4	21.0	0.00e+00	0	37	0	397410304	52	6729
2026-01-07 12:18:14.94	52.89	12.53	-40.2	-41.4	21.1	0.00e+00	0	37	0	399507456	52	6716
2026-01-07 12:18:15.95	53.07	12.57	-40.3	-41.4	21.1	0.00e+00	0	37	0	401604608	52	6764
2026-01-07 12:18:16.96	53.26	12.60	-40.1	-41.3	21.1	0.00e+00	0	37	0	402653184	52	6632
2026-01-07 12:18:17.97	53.44	12.64	-40.3	-41.4	21.1	0.00e+00	25	37	0	404750336	52	6759
2026-01-07 12:18:18.98	53.62	12.67	-40.4	-41.6	20.9	0.00e+00	0	37	0	406847488	52	6907
2026-01-07 12:18:19.98	53.81	12.71	-40.3	-41.4	21.1	0.00e+00	74	37	0	408944640	52	6763
2026-01-07 12:18:20.99	53.99	12.75	-40.2	-41.4	21.0	0.00e+00	0	37	0	411041792	52	6722
2026-01-07 12:18:22.00	54.17	12.78	-40.4	-41.6	21.0	0.00e+00	21	37	0	412090368	52	6871
2026-01-07 12:18:23.01	54.36	12.82	-40.3	-41.5	21.0	0.00e+00	0	37	0	414187520	52	6798
2026-01-07 12:18:24.03	54.55	12.85	-40.3	-41.5	20.9	0.00e+00	0	37	0	416284672	52	6828
2026-01-07 12:18:25.03	54.73	12.89	-40.6	-41.8	20.7	0.00e+00	0	37	0	418381824	52	7043
2026-01-07 12:18:26.04	54.92	12.92	-40.7	-41.9	20.6	0.00e+00	0	37	0	420478976	52	7167
2026-01-07 12:18:27.05	55.11	12.95	-40.3	-41.5	21.1	0.00e+00	42	37	0	422576128	54	6081
2026-01-07 12:18:28.06	55.29	12.99	-40.3	-41.4	21.0	0.00e+00	0	37	0	423624704	54	6026
2026-01-07 12:18:29.07	55.48	13.02	-40.2	-41.4	21.1	0.00e+00	92	37	0	425721856	54	6016
2026-01-07 12:18:30.08	55.67	13.06	-40.0	-41.1	21.4	0.00e+00	0	37	0	427819008	54	5828
2026-01-07 12:18:31.08	55.86	13.09	-39.7	-40.8	21.5	0.00e+00	0	37	0	429916160	52	6300
2026-01-07 12:18:32.10	56.05	13.12	-39.5	-40.6	21.5	0.00e+00	0	37	0	432013312	52	6161
2026-01-07 12:18:33.11	56.24	13.16	-39.3	-40.4	21.9	0.00e+00	0	37	0	433061888	52	5993
2026-01-07 12:18:34.12	56.43	13.19	-39.4	-40.4	21.9	0.00e+00	91	37	0	435159040	52	6024
2026-01-07 12:18:35.13	56.62	13.22	-38.9	-39.9	22.5	0.00e+00	29	37	0	437256192	52	5664
2026-01-07 12:18:36.14	56.81	13.25	-38.8	-39.8	22.4	0.00e+00	87	37	0	439353344	52	5594
2026-01-07 12:18:37.15	57.00	13.29	-38.7	-39.7	22.5	0.00e+00	0	37	0	441450496	50	6228
2026-01-07 12:18:38.15	57.19	13.32	-38.7	-39.6	22.6	0.00e+00	29	37	0	442499072	50	6163
2026-01-07 12:18:39.16	57.38	13.35	-38.5	-39.4	22.8	0.00e+00	0	37	0	444596224	50	6019
2026-01-07 12:18:40.17	57.57	13.38	-38.5	-39.5	22.7	0.00e+00	0	37	0	446693376	50	6054
2026-01-07 12:18:41.18	57.77	13.41	-38.6	-39.6	22.6	0.00e+00	30	37	0	448790528	50	6116
2026-01-07 12:18:42.19	57.96	13.44	-38.6	-39.6	22.7	0.00e+00	28	37	0	450887680	50	6161
2026-01-07 12:18:43.20	58.15	13.47	-38.9	-39.9	22.3	0.00e+00	68	37	0	451936256	50	6365
2026-01-07 12:18:44.21	58.35	13.50	-38.9	-39.9	22.3	0.00e+00	0	37	0	454033408	50	6329
2026-01-07 12:18:45.22	58.54	13.53	-38.9	-40.0	22.3	0.00e+00	3	37	0	456130560	50	6399
2026-01-07 12:18:46.22	58.73	13.56	-39.0	-40.0	22.1	0.00e+00	0	37	0	458227712	50	6412
2026-01-07 12:18:47.23	58.93	13.59	-38.8	-39.8	22.0	0.00e+00	0	37	0	460324864	50	6299
2026-01-07 12:18:48.25	59.13	13.62	-38.8	-39.7	22.4	0.00e+00	76	37	0	461373440	50	6244
2026-01-07 12:18:49.25	59.32	13.65	-38.4	-39.4	22.7	0.00e+00	0	37	0	463470592	50	5978
2026-01-07 12:18:50.26	59.52	13.68	-38.3	-39.2	23.0	0.00e+00	92	37	0	465567744	50	5851
2026-01-07 12:18:51.27	59.71	13.71	-38.0	-38.9	23.2	0.00e+00	36	37	0	467664896	50	5649
2026-01-07 12:18:52.28	59.91	13.73	-38.1	-39.0	23.1	0.00e+00	0	37	0	469762048	50	5723
2026-01-07 12:18:53.29	60.11	13.76	-38.4	-39.3	22.9	0.00e+00	0	37	0	470810624	50	5943
2026-01-07 12:18:54.30	60.31	13.79	-38.6	-39.6	22.6	0.00e+00	0	37	0	472907776	50	6134
2026-01-07 12:18:55.31	60.50	13.82	-38.9	-39.9	22.4	0.00e+00	34	37	0	475004928	50	6362
2026-01-07 12:18:56.32	60.70	13.84	-39.0	-40.0	22.4	0.00e+00	0	37	0	477102080	50	6436
2026-01-07 12:18:57.32	60.90	13.87	-39.1	-40.1	22.3	0.00e+00	92	37	0	479199232	50	6490
2026-01-07 12:18:58.33	61.10	13.90	-38.5	-39.5	22.7	0.00e+00	0	37	0	480247808	50	6043
2026-01-07 12:18:59.34	61.30	13.92	-38.5	-39.5	22.7	0.00e+00	57	37	0	482344960	50	6066
2026-01-07 12:19:00.35	61.50	13.95	-38.2	-39.2	22.9	0.00e+00	0	37	0	484442112	50	5834
2026-01-07 12:19:01.36	61.70	13.97	-38.2	-39.1	22.7	0.00e+00	0	37	0	486539264	50	5797
2026-01-07 12:19:02.37	61.90	14.00	-38.6	-39.6	22.6	0.00e+00	32	37	0	488636416	50	6147
2026-01-07 12:19:03.38	62.10	14.02	-38.9	-39.9	22.3	0.00e+00	0	37	0	490733568	50	6338
2026-01-07 12:19:04.39	62.30	14.05	-39.3	-40.3	22.1	0.00e+00	29	37	0	491782144	50	6656
2026-01-07 12:19:05.40	62.50	14.07	-39.5	-40.6	21.7	0.00e+00	0	37	0	493879296	50	6902
2026-01-07 12:19:06.41	62.70	14.10	-39.4	-40.4	22.0	0.00e+00	92	37	0	495976448	50	6740
2026-01-07 12:19:07.42	62.91	14.12	-39.2	-40.2	22.1	0.00e+00	0	37	0	498073600	50	6567
2026-01-07 12:19:08.42	63.11	14.14	-39.1	-40.1	22.3	0.00e+00	0	37	0	500170752	50	6519
2026-01-07 12:19:09.43	63.31	14.17	-38.9	-39.9	22.4	0.00e+00	17	37	0	501219328	50	6365
2026-01-07 12:19:10.44	63.51	14.19	-39.1	-40.1	22.2	0.00e+00	0	37	0	503316480	50	6499
2026-01-07 12:19:11.45	63.72	14.21	-39.5	-40.5	21.7	0.00e+00	65	37	0	505413632	50	6833
2026-01-07 12:19:12.46	63.92	14.23	-40.1	-41.3	21.2	0.00e+00	0	37	0	507510784	52	6668
2026-01-07 12:19:13.47	64.12	14.25	-40.6	-41.8	20.8	0.00e+00	92	37	0	508559360	52	7088
2026-01-07 12:19:14.48	64.33	14.28	-40.8	-42.1	20.4	0.00e+00	0	37	0	510656512	54	6519
2026-01-07 12:19:15.49	64.53	14.30	-40.6	-41.9	20.6	0.00e+00	0	37	0	512753664	54	6324
2026-01-07 12:19:16.50	64.74	14.32	-40.2	-41.4	21.1	0.00e+00	0	37	0	514850816	54	6004
2026-01-07 12:19:17.51	64.94	14.34	-39.9	-41.0	21.5	0.00e+00	0	37	0	516947968	54	5705
2026-01-07 12:19:18.52	65.15	14.36	-39.3	-40.3	22.1	0.00e+00	47	37	0	519045120	52	5910
2026-01-07 12:19:19.53	65.35	14.38	-38.7	-39.7	22.5	0.00e+00	0	37	0	520093696	52	5554
2026-01-07 12:19:20.53	65.56	14.40	-38.9	-39.9	22.3	0.00e+00	69	37	0	522190848	50	6371
2026-01-07 12:19:21.54	65.76	14.42	-39.1	-40.1	22.3	0.00e+00	0	37	0	524288000	50	6512
2026-01-07 12:19:22.55	65.97	14.44	-39.3	-40.4	22.0	0.00e+00	0	37	0	526385152	50	6728
2026-01-07 12:19:23.56	66.18	14.46	-39.7	-40.8	21.6	0.00e+00	0	37	0	528482304	50	7078
2026-01-07 12:19:24.57	66.38	14.47	-39.5	-40.6	21.8	0.00e+00	6	37	0	529530880	52	6150
2026-01-07 12:19:25.58	66.59	14.49	-39.3	-40.4	22.0	0.00e+00	26	37	0	531628032	52	5984
2026-01-07 12:19:26.59	66.80	14.51	-39.0	-40.1	22.2	0.00e+00	0	37	0	533725184	52	5766
2026-01-07 12:19:27.60	67.01	14.53	-38.6	-39.6	22.6	0.00e+00	92	37	0	535822336	50	6133
2026-01-07 12:19:28.61	67.21	14.54	-38.5	-39.4	22.6	0.00e+00	0	37	0	537919488	50	6017
2026-01-07 12:19:29.62	67.42	14.56	-38.4	-39.4	22.7	0.00e+00	36	37	0	538968064	50	5967
2026-01-07 12:19:30.63	67.63	14.58	-38.4	-39.4	22.8	0.00e+00	0	37	0	541065216	50	5989
2026-01-07 12:19:31.64	67.84	14.59	-38.6	-39.6	22.7	0.00e+00	0	37	0	543162368	50	6108
2026-01-07 12:19:32.65	68.05	14.61	-38.7	-39.6	22.6	0.00e+00	30	37	0	545259520	50	6173
2026-01-07 12:19:33.66	68.26	14.62	-38.7	-39.7	22.6	0.00e+00	0	37	0	547356672	50	6199
2026-01-07 12:19:34.67	68.47	14.64	-38.3	-39.3	22.9	0.00e+00	92	37	0	548405248	50	5936
2026-01-07 12:19:35.68	68.68	14.65	-38.1	-39.1	23.0	0.00e+00	0	37	0	550502400	50	5774
2026-01-07 12:19:36.69	68.89	14.67	-38.2	-39.2	23.0	0.00e+00	0	37	0	552599552	50	5832
2026-01-07 12:19:37.69	69.09	14.68	-38.0	-39.0	23.0	0.00e+00	0	37	0	554696704	50	5727
2026-01-07 12:19:38.70	69.30	14.69	-38.4	-39.4	22.8	0.00e+00	0	37	0	556793856	50	5984
2026-01-07 12:19:39.71	69.51	14.71	-38.6	-39.6	22.7	0.00e+00	0	37	0	557842432	50	6138
2026-01-07 12:19:40.72	69.72	14.72	-38.9	-39.9	22.4	0.00e+00	0	37	0	559939584	50	6378
2026-01-07 12:19:41.73	69.94	14.73	-39.0	-40.0	22.3	0.00e+00	92	37	0	562036736	50	6430
2026-01-07 12:19:42.74	70.15	14.74	-39.0	-40.0	22.4	0.00e+00	0	37	0	564133888	50	6434
2026-01-07 12:19:43.75	70.36	14.76	-38.6	-39.6	22.7	0.00e+00	88	37	0	566231040	50	6146
2026-01-07 12:19:44.76	70.57	14.77	-38.4	-39.4	22.8	0.00e+00	0	37	0	567279616	50	5976
2026-01-07 12:19:45.77	70.78	14.78	-38.2	-39.1	23.1	0.00e+00	0	37	0	569376768	50	5796
2026-01-07 12:19:46.78	70.99	14.79	-38.0	-38.9	23.3	0.00e+00	0	37	0	571473920	50	5658
2026-01-07 12:19:47.79	71.20	14.80	-38.2	-39.1	23.0	0.00e+00	0	37	0	573571072	50	5803
2026-01-07 12:19:48.80	71.41	14.81	-38.5	-39.5	22.7	0.00e+00	84	37	0	575668224	50	6049
2026-01-07 12:19:49.81	71.63	14.82	-38.9	-39.9	22.5	0.00e+00	0	37	0	576716800	50	6332
2026-01-07 12:19:50.82	71.84	14.83	-39.1	-40.1	22.1	0.00e+00	92	37	0	578813952	50	6506
2026-01-07 12:19:51.83	72.05	14.84	-39.2	-40.2	22.2	0.00e+00	0	37	0	580911104	50	6602
2026-01-07 12:19:52.84	72.26	14.85	-39.1	-40.2	22.1	0.00e+00	0	37	0	583008256	50	6555
2026-01-07 12:19:53.84	72.47	14.85	-39.2	-40.2	22.1	0.00e+00	0	37	0	585105408	50	6595
2026-01-07 12:19:54.85	72.69	14.86	-39.1	-40.1	22.2	0.00e+00	0	37	0	587202560	50	6504
2026-01-07 12:19:55.86	72.90	14.87	-39.2	-40.3	22.1	0.00e+00	31	37	0	588251136	50	6629
2026-01-07 12:19:56.87	73.11	14.88	-39.1	-40.1	22.2	0.00e+00	0	37	0	590348288	50	6490
2026-01-07 12:19:57.88	73.32	14.88	-39.0	-40.0	22.4	0.00e+00	82	37	0	592445440	50	6402
2026-01-07 12:19:58.89	73.54	14.89	-38.9	-39.9	22.4	0.00e+00	0	37	0	594542592	50	6328
2026-01-07 12:19:59.90	73.75	14.90	-38.8	-39.8	22.5	0.00e+00	0	37	0	596639744	50	6297
2026-01-07 12:20:00.91	73.96	14.90	-38.7	-39.6	22.6	0.00e+00	0	37	0	597688320	50	6164
2026-01-07 12:20:01.92	74.18	14.91	-38.7	-39.6	22.6	0.00e+00	0	37	0	599785472	50	6156
2026-01-07 12:20:02.93	74.39	14.91	-38.6	-39.6	22.6	0.00e+00	33	37	0	601882624	50	6114
2026-01-07 12:20:03.94	74.60	14.92	-38.8	-39.7	22.5	0.00e+00	0	37	0	603979776	50	6243
2026-01-07 12:20:04.95	74.82	14.92	-38.9	-39.9	22.3	0.00e+00	92	37	0	606076928	50	6388
2026-01-07 12:20:05.96	75.03	14.92	-39.1	-40.1	22.2	0.00e+00	0	37	0	607125504	50	6506
2026-01-07 12:20:06.96	75.24	14.93	-39.1	-40.2	22.2	0.00e+00	89	37	0	609222656	50	6548
2026-01-07 12:20:07.97	75.45	14.93	-39.1	-40.1	22.2	0.00e+00	0	37	0	611319808	50	6537
2026-01-07 12:20:08.98	75.67	14.93	-38.9	-39.9	22.4	0.00e+00	0	37	0	613416960	50	6354
2026-01-07 12:20:09.99	75.88	14.94	-38.5	-39.4	22.8	0.00e+00	31	37	0	615514112	50	6013
2026-01-07 12:20:11.00	76.09	14.94	-38.2	-39.2	23.0	0.00e+00	0	37	0	616562688	50	5845
2026-01-07 12:20:12.01	76.31	14.94	-38.3	-39.3	22.9	0.00e+00	28	37	0	618659840	50	5902
2026-01-07 12:20:13.02	76.52	14.94	-38.2	-39.1	23.1	0.00e+00	0	37	0	620756992	50	5794
2026-01-07 12:20:14.03	76.74	14.94	-38.5	-39.5	22.7	0.00e+00	0	37	0	622854144	50	6042
2026-01-07 12:20:15.04	76.95	14.94	-38.5	-39.4	22.8	0.00e+00	0	37	0	624951296	50	6015
2026-01-07 12:20:16.05	77.16	14.94	-38.6	-39.5	22.7	0.00e+00	0	37	0	625999872	50	6087
2026-01-07 12:20:17.06	77.38	14.94	-38.4	-39.4	22.8	0.00e+00	0	37	0	628097024	50	5971
2026-01-07 12:20:18.07	77.59	14.94	-38.5	-39.5	22.8	0.00e+00	0	37	0	630194176	50	6060
2026-01-07 12:20:19.08	77.80	14.94	-38.1	-39.0	23.1	0.00e+00	90	37	0	632291328	50	5748
2026-01-07 12:20:20.09	78.02	14.94	-38.0	-38.9	23.1	0.00e+00	0	37	0	634388480	50	5668
2026-01-07 12:20:21.10	78.23	14.94	-38.1	-39.0	23.1	0.00e+00	7	37	0	635437056	50	5733
2026-01-07 12:20:22.10	78.44	14.93	-38.3	-39.2	22.9	0.00e+00	0	37	0	637534208	50	5877
2026-01-07 12:20:23.11	78.66	14.93	-38.3	-39.3	22.9	0.00e+00	0	37	0	639631360	50	5944
2026-01-07 12:20:24.12	78.87	14.93	-38.3	-39.2	22.9	0.00e+00	0	37	0	641728512	50	5880
2026-01-07 12:20:25.13	79.08	14.93	-38.1	-39.1	23.0	0.00e+00	0	37	0	643825664	50	5781
2026-01-07 12:20:26.14	79.30	14.92	-38.0	-38.9	23.2	0.00e+00	89	37	0	644874240	50	5651
2026-01-07 12:20:27.15	79.51	14.92	-37.7	-38.6	23.4	0.00e+00	0	37	0	646971392	50	5490
2026-01-07 12:20:28.16	79.73	14.91	-37.6	-38.4	23.5	0.00e+00	69	37	0	649068544	48	6023
2026-01-07 12:20:29.17	79.94	14.91	-37.4	-38.3	23.6	0.00e+00	0	37	0	651165696	48	5908
2026-01-07 12:20:30.18	80.15	14.90	-37.3	-38.2	23.7	0.00e+00	0	37	0	653262848	48	5835
2026-01-07 12:20:31.19	80.37	14.90	-37.5	-38.4	23.5	0.00e+00	0	37	0	655360000	48	5984
2026-01-07 12:20:32.20	80.58	14.89	-37.7	-38.6	23.2	0.00e+00	3	37	0	656408576	48	6138
2026-01-07 12:20:33.21	80.79	14.89	-38.0	-38.9	22.3	0.00e+00	60	37	0	658505728	48	6361
2026-01-07 12:20:34.22	81.00	14.88	-38.1	-39.1	22.9	0.00e+00	0	37	0	660602880	48	6497
2026-01-07 12:20:35.23	81.22	14.87	-38.3	-39.3	22.9	0.00e+00	92	37	0	662700032	48	6654
2026-01-07 12:20:36.24	81.43	14.87	-38.7	-39.7	22.3	0.00e+00	0	37	0	664797184	48	6929
2026-01-07 12:20:37.25	81.64	14.86	-38.6	-39.6	22.7	0.00e+00	26	37	0	665845760	50	6108
2026-01-07 12:20:38.26	81.86	14.85	-38.5	-39.4	22.9	0.00e+00	2	37	0	667942912	50	6013
2026-01-07 12:20:39.26	82.07	14.84	-38.5	-39.4	22.8	0.00e+00	0	37	0	670040064	50	6016
2026-01-07 12:20:40.28	82.28	14.83	-38.5	-39.5	22.8	0.00e+00	31	37	0	672137216	50	6048
2026-01-07 12:20:41.29	82.49	14.82	-38.3	-39.2	23.0	0.00e+00	0	37	0	674234368	50	5896
2026-01-07 12:20:42.30	82.70	14.81	-38.3	-39.2	22.9	0.00e+00	77	37	0	675282944	50	5882
2026-01-07 12:20:43.30	82.91	14.81	-38.2	-39.2	22.9	0.00e+00	0	37	0	677380096	50	5840
2026-01-07 12:20:44.31	83.13	14.79	-38.5	-39.4	22.8	0.00e+00	91	37	0	679477248	50	6018
2026-01-07 12:20:45.32	83.34	14.78	-38.5	-39.4	22.7	0.00e+00	0	37	0	681574400	50	6033
2026-01-07 12:20:46.33	83.55	14.77	-38.7	-39.7	22.5	0.00e+00	0	37	0	683671552	50	6235
2026-01-07 12:20:47.34	83.76	14.76	-38.6	-39.6	22.6	0.00e+00	0	37	0	684720128	50	6148
2026-01-07 12:20:48.35	83.97	14.75	-38.6	-39.6	22.6	0.00e+00	0	37	0	686817280	50	6121
2026-01-07 12:20:49.36	84.18	14.74	-38.7	-39.7	22.7	0.00e+00	29	37	0	688914432	50	6198
2026-01-07 12:20:50.37	84.39	14.73	-38.4	-39.4	22.7	0.00e+00	0	37	0	691011584	50	6028
2026-01-07 12:20:51.38	84.61	14.71	-38.5	-39.5	22.7	0.00e+00	92	37	0	693108736	50	6089
2026-01-07 12:20:52.39	84.82	14.70	-38.5	-39.5	22.8	0.00e+00	0	37	0	694157312	50	6081
2026-01-07 12:20:53.40	85.03	14.69	-38.4	-39.4	22.8	0.00e+00	0	37	0	696254464	50	6012
2026-01-07 12:20:54.41	85.24	14.67	-38.2	-39.1	23.0	0.00e+00	0	37	0	698351616	50	5827
2026-01-07 12:20:55.42	85.45	14.66	-38.1	-39.1	23.0	0.00e+00	0	37	0	700448768	50	5790
2026-01-07 12:20:56.43	85.66	14.65	-38.0	-38.9	23.1	0.00e+00	92	37	0	702545920	50	5685
2026-01-07 12:20:57.44	85.87	14.63	-38.0	-38.9	23.2	0.00e+00	0	37	0	703594496	50	5673
2026-01-07 12:20:58.45	86.08	14.62	-37.8	-38.7	22.9	0.00e+00	92	37	0	705691648	50	5527
2026-01-07 12:20:59.46	86.29	14.60	-37.6	-38.5	23.4	0.00e+00	0	37	0	707788800	48	6037
2026-01-07 12:21:00.47	86.49	14.58	-37.4	-38.3	23.6	0.00e+00	0	37	0	709885952	48	5959
2026-01-07 12:21:01.47	86.70	14.57	-37.1	-38.0	23.9	0.00e+00	0	37	0	711983104	48	5719
2026-01-07 12:21:02.49	86.91	14.55	-37.2	-38.1	23.6	0.00e+00	0	37	0	713031680	48	5785
2026-01-07 12:21:03.50	87.12	14.53	-37.2	-38.1	23.8	0.00e+00	25	37	0	715128832	48	5798
2026-01-07 12:21:04.51	87.33	14.52	-37.2	-38.1	23.8	0.00e+00	0	37	0	717225984	48	5762
2026-01-07 12:21:05.52	87.54	14.50	-37.2	-38.1	23.9	0.00e+00	92	37	0	719323136	48	5792
2026-01-07 12:21:06.53	87.74	14.48	-37.3	-38.2	23.7	0.00e+00	0	37	0	721420288	48	5860
2026-01-07 12:21:07.54	87.95	14.46	-37.3	-38.1	23.8	0.00e+00	0	37	0	723517440	48	5824
2026-01-07 12:21:08.54	88.16	14.45	-37.2	-38.1	23.7	0.00e+00	0	37	0	724566016	48	5792
2026-01-07 12:21:09.55	88.36	14.43	-37.1	-37.9	23.8	0.00e+00	0	37	0	726663168	48	5684
2026-01-07 12:21:10.56	88.57	14.41	-37.1	-37.9	23.9	0.00e+00	26	37	0	728760320	48	5673
2026-01-07 12:21:11.57	88.78	14.39	-37.1	-38.0	23.8	0.00e+00	0	37	0	730857472	48	5727
2026-01-07 12:21:12.58	88.98	14.37	-37.3	-38.1	23.6	0.00e+00	92	37	0	732954624	48	5827
2026-01-07 12:21:13.59	89.19	14.35	-37.5	-38.4	23.6	0.00e+00	0	37	0	734003200	48	6003
2026-01-07 12:21:14.60	89.40	14.33	-37.6	-38.5	23.4	0.00e+00	0	37	0	736100352	48	6073
2026-01-07 12:21:15.61	89.60	14.31	-37.9	-38.8	23.1	0.00e+00	0	37	0	738197504	48	6299
2026-01-07 12:21:16.62	89.81	14.29	-38.0	-38.9	23.2	0.00e+00	0	37	0	740294656	48	6356
2026-01-07 12:21:17.63	90.01	14.26	-38.0	-38.9	23.1	0.00e+00	24	37	0	742391808	48	6346
2026-01-07 12:21:18.64	90.22	14.24	-38.0	-38.9	23.1	0.00e+00	0	37	0	743440384	48	6390
2026-01-07 12:21:19.65	90.42	14.22	-37.9	-38.8	23.2	0.00e+00	92	37	0	745537536	48	6290
2026-01-07 12:21:20.65	90.62	14.20	-38.0	-38.9	23.1	0.00e+00	0	37	0	747634688	48	6359
2026-01-07 12:21:21.66	90.83	14.18	-38.0	-38.9	23.2	0.00e+00	91	37	0	749731840	48	6327
2026-01-07 12:21:22.67	91.03	14.15	-37.9	-38.9	23.2	0.00e+00	0	37	0	751828992	48	6330
2026-01-07 12:21:23.68	91.23	14.13	-37.7	-38.7	23.3	0.00e+00	0	37	0	752877568	48	6191
2026-01-07 12:21:24.69	91.43	14.11	-37.9	-38.8	23.2	0.00e+00	9	37	0	754974720	48	6280
2026-01-07 12:21:25.70	91.64	14.08	-37.8	-38.7	23.2	0.00e+00	0	37	0	757071872	48	6208
2026-01-07 12:21:26.71	91.84	14.06	-37.5	-38.5	23.4	0.00e+00	25	37	0	759169024	48	6034
2026-01-07 12:21:27.72	92.04	14.03	-37.3	-38.2	23.7	0.00e+00	0	37	0	761266176	48	5834
2026-01-07 12:21:28.73	92.24	14.01	-37.0	-37.9	24.0	0.00e+00	92	37	0	762314752	48	5636
2026-01-07 12:21:29.74	92.44	13.98	-36.8	-37.7	24.0	0.00e+00	0	37	0	764411904	48	5525
2026-01-07 12:21:30.75	92.64	13.96	-36.8	-37.6	24.1	0.00e+00	0	37	0	766509056	48	5467
2026-01-07 12:21:31.76	92.85	13.93	-36.6	-37.5	24.3	0.00e+00	0	37	0	768606208	46	6046
2026-01-07 12:21:32.77	93.05	13.91	-36.5	-37.4	24.4	0.00e+00	0	37	0	770703360	46	5969
2026-01-07 12:21:33.78	93.25	13.88	-36.4	-37.3	24.3	0.00e+00	24	37	0	771751936	46	5904
2026-01-07 12:21:34.79	93.44	13.85	-36.6	-37.5	24.2	0.00e+00	0	37	0	773849088	46	6040
2026-01-07 12:21:35.80	93.64	13.83	-36.9	-37.7	24.0	0.00e+00	37	37	0	775946240	46	6229
2026-01-07 12:21:36.81	93.84	13.80	-36.9	-37.8	24.0	0.00e+00	0	37	0	778043392	46	6256
2026-01-07 12:21:37.82	94.04	13.77	-37.0	-37.9	23.8	0.00e+00	0	37	0	780140544	46	6347
2026-01-07 12:21:38.83	94.24	13.74	-37.0	-37.9	23.9	0.00e+00	0	37	0	781189120	46	6339
2026-01-07 12:21:39.84	94.44	13.72	-37.1	-37.9	23.7	0.00e+00	0	37	0	783286272	46	6368
2026-01-07 12:21:40.85	94.63	13.69	-37.1	-37.9	23.9	0.00e+00	31	37	0	785383424	46	6373
2026-01-07 12:21:41.86	94.83	13.66	-37.1	-37.9	23.9	0.00e+00	0	37	0	787480576	46	6381
2026-01-07 12:21:42.87	95.03	13.63	-37.2	-38.1	23.7	0.00e+00	90	37	0	789577728	46	6504
2026-01-07 12:21:43.88	95.22	13.60	-37.5	-38.4	23.5	0.00e+00	0	37	0	791674880	46	6747
2026-01-07 12:21:44.89	95.42	13.57	-37.8	-38.7	23.4	0.00e+00	0	37	0	792723456	46	6937
2026-01-07 12:21:45.90	95.62	13.54	-37.8	-38.7	23.4	0.00e+00	0	37	0	794820608	48	6222
2026-01-07 12:21:46.91	95.81	13.51	-37.6	-38.5	23.5	0.00e+00	0	37	0	796917760	48	6075
2026-01-07 12:21:47.92	96.01	13.48	-37.5	-38.4	23.6	0.00e+00	35	37	0	799014912	48	5988
2026-01-07 12:21:48.92	96.20	13.45	-37.2	-38.1	23.6	0.00e+00	0	37	0	800063488	48	5799
2026-01-07 12:21:49.93	96.39	13.42	-37.3	-38.2	23.7	0.00e+00	90	37	0	802160640	48	5853
2026-01-07 12:21:50.94	96.59	13.39	-37.2	-38.1	23.8	0.00e+00	0	37	0	804257792	48	5790
2026-01-07 12:21:51.95	96.78	13.36	-37.3	-38.2	23.7	0.00e+00	90	37	0	806354944	48	5844
2026-01-07 12:21:52.96	96.97	13.33	-37.4	-38.3	23.7	0.00e+00	0	37	0	808452096	48	5933
2026-01-07 12:21:53.97	97.16	13.30	-37.4	-38.3	23.6	0.00e+00	0	37	0	809500672	48	5926
2026-01-07 12:21:54.98	97.36	13.26	-37.4	-38.3	23.6	0.00e+00	30	37	0	811597824	48	5955
2026-01-07 12:21:55.99	97.55	13.23	-37.3	-38.2	23.6	0.00e+00	0	37	0	813694976	48	5840
2026-01-07 12:21:57.00	97.74	13.20	-37.3	-38.2	23.7	0.00e+00	91	37	0	815792128	48	5845
2026-01-07 12:21:58.01	97.93	13.17	-37.1	-38.0	23.9	0.00e+00	0	37	0	817889280	48	5734
2026-01-07 12:21:59.02	98.12	13.13	-37.2	-38.1	23.7	0.00e+00	92	37	0	819986432	48	5789
2026-01-07 12:22:00.03	98.31	13.10	-37.2	-38.1	23.8	0.00e+00	0	37	0	821035008	48	5779
2026-01-07 12:22:01.04	98.50	13.07	-37.5	-38.4	23.5	0.00e+00	0	37	0	823132160	48	5965
2026-01-07 12:22:02.05	98.69	13.03	-37.7	-38.6	23.2	0.00e+00	0	37	0	825229312	48	6151
2026-01-07 12:22:03.06	98.88	13.00	-37.8	-38.7	23.3	0.00e+00	0	37	0	827326464	48	6240
2026-01-07 12:22:04.07	99.07	12.96	-37.8	-38.8	23.3	0.00e+00	83	37	0	829423616	48	6254
2026-01-07 12:22:05.08	99.25	12.93	-38.1	-39.0	23.0	0.00e+00	0	37	0	830472192	48	6442
2026-01-07 12:22:06.08	99.44	12.90	-38.1	-39.1	23.1	0.00e+00	50	37	0	832569344	48	6478
2026-01-07 12:22:07.09	99.63	12.86	-38.3	-39.3	22.8	0.00e+00	0	37	0	834666496	48	6664
2026-01-07 12:22:08.10	99.81	12.83	-38.3	-39.3	22.8	0.00e+00	0	37	0	836763648	48	6630
2026-01-07 12:22:09.11	100.00	12.79	-38.5	-39.4	22.6	0.00e+00	0	37	0	838860800	48	6761
2026-01-07 12:22:10.12	100.18	12.75	-38.5	-39.5	22.4	0.00e+00	0	37	0	839909376	48	6787
2026-01-07 12:22:11.13	100.37	12.72	-38.5	-39.4	22.7	0.00e+00	24	37	0	842006528	48	6756
2026-01-07 12:22:12.14	100.55	12.68	-38.4	-39.3	22.7	0.00e+00	0	37	0	844103680	48	6665
2026-01-07 12:22:13.15	100.74	12.65	-38.6	-39.6	22.6	0.00e+00	84	37	0	846200832	48	6870
2026-01-07 12:22:14.16	100.92	12.61	-38.8	-39.8	22.3	0.00e+00	0	37	0	848297984	50	6284
2026-01-07 12:22:15.17	101.11	12.57	-38.9	-39.9	22.3	0.00e+00	0	37	0	849346560	50	6341
2026-01-07 12:22:16.18	101.29	12.54	-39.1	-40.2	22.0	0.00e+00	5	37	0	851443712	50	6543
2026-01-07 12:22:17.19	101.47	12.50	-39.1	-40.1	22.1	0.00e+00	0	37	0	853540864	50	6528
2026-01-07 12:22:18.20	101.65	12.46	-39.1	-40.2	22.1	0.00e+00	53	37	0	855638016	50	6541
2026-01-07 12:22:19.21	101.84	12.42	-39.3	-40.3	22.0	0.00e+00	1	37	0	857735168	50	6672
2026-01-07 12:22:20.22	102.02	12.39	-39.2	-40.2	22.0	0.00e+00	92	37	0	858783744	50	6574
2026-01-07 12:22:21.23	102.20	12.35	-39.3	-40.4	21.8	0.00e+00	0	37	0	860880896	50	6728
2026-01-07 12:22:22.24	102.38	12.31	-39.5	-40.5	21.9	0.00e+00	0	37	0	862978048	50	6826
2026-01-07 12:22:23.25	102.56	12.27	-39.6	-40.7	21.5	0.00e+00	0	37	0	865075200	50	6982
2026-01-07 12:22:24.26	102.74	12.23	-39.9	-41.0	21.4	0.00e+00	0	37	0	867172352	52	6425
2026-01-07 12:22:25.27	102.92	12.20	-40.1	-41.3	21.1	0.00e+00	0	37	0	868220928	52	6682
2026-01-07 12:22:26.28	103.10	12.16	-40.2	-41.4	21.0	0.00e+00	0	37	0	870318080	52	6695
2026-01-07 12:22:27.29	103.27	12.12	-39.6	-40.6	21.7	0.00e+00	92	37	0	872415232	52	6171
2026-01-07 12:22:28.30	103.45	12.08	-39.4	-40.5	21.8	0.00e+00	0	37	0	874512384	52	6061
2026-01-07 12:22:29.31	103.63	12.04	-38.9	-39.9	22.3	0.00e+00	92	37	0	876609536	52	5678
2026-01-07 12:22:30.32	103.81	12.00	-38.8	-39.8	22.2	0.00e+00	0	37	0	877658112	50	6289
2026-01-07 12:22:31.33	103.98	11.96	-38.7	-39.7	22.5	0.00e+00	0	37	0	879755264	50	6197
2026-01-07 12:22:32.33	104.16	11.92	-38.7	-39.7	22.5	0.00e+00	0	37	0	881852416	50	6227
2026-01-07 12:22:33.34	104.33	11.88	-39.1	-40.1	22.1	0.00e+00	0	37	0	883949568	50	6473
2026-01-07 12:22:34.35	104.51	11.84	-39.2	-40.3	21.9	0.00e+00	92	37	0	886046720	50	6645
2026-01-07 12:22:35.36	104.68	11.80	-39.6	-40.7	21.6	0.00e+00	0	37	0	888143872	50	6987
2026-01-07 12:22:36.37	104.86	11.76	-39.8	-40.9	21.4	0.00e+00	90	37	0	889192448	52	6375
2026-01-07 12:22:37.38	105.03	11.72	-40.1	-41.3	21.2	0.00e+00	0	37	0	891289600	52	6648
2026-01-07 12:22:38.39	105.20	11.68	-40.2	-41.4	21.1	0.00e+00	0	37	0	893386752	52	6730
2026-01-07 12:22:39.40	105.37	11.64	-40.2	-41.4	21.1	0.00e+00	0	37	0	895483904	52	6743
2026-01-07 12:22:40.41	105.55	11.60	-40.4	-41.6	20.9	0.00e+00	0	37	0	897581056	52	6861
2026-01-07 12:22:41.42	105.72	11.55	-40.4	-41.6	20.8	0.00e+00	92	37	0	898629632	52	6908
2026-01-07 12:22:42.43	105.89	11.51	-40.6	-41.9	20.6	0.00e+00	0	37	0	900726784	52	7100
2026-01-07 12:22:43.44	106.06	11.47	-40.4	-41.6	20.8	0.00e+00	91	37	0	902823936	52	6883
2026-01-07 12:22:44.45	106.23	11.43	-40.2	-41.3	21.1	0.00e+00	0	37	0	904921088	52	6686
2026-01-07 12:22:45.46	106.40	11.39	-40.0	-41.2	21.3	0.00e+00	0	37	0	907018240	52	6540
2026-01-07 12:22:46.47	106.57	11.34	-39.7	-40.8	21.6	0.00e+00	0	37	0	908066816	52	6257
2026-01-07 12:22:47.48	106.74	11.30	-39.7	-40.8	21.5	0.00e+00	9	37	0	910163968	52	6261
2026-01-07 12:22:48.49	106.91	11.26	-39.2	-40.2	22.1	0.00e+00	91	37	0	912261120	52	5886
2026-01-07 12:22:49.50	107.08	11.22	-39.2	-40.2	22.0	0.00e+00	0	37	0	914358272	52	5865
2026-01-07 12:22:50.50	107.24	11.17	-39.1	-40.1	22.1	0.00e+00	92	37	0	916455424	52	5816
2026-01-07 12:22:51.51	107.41	11.13	-39.2	-40.2	22.1	0.00e+00	0	37	0	917504000	52	5858
2026-01-07 12:22:52.52	107.57	11.09	-39.5	-40.5	21.7	0.00e+00	0	37	0	919601152	52	6101
2026-01-07 12:22:53.53	107.74	11.05	-39.6	-40.6	21.7	0.00e+00	0	37	0	921698304	52	6173
2026-01-07 12:22:54.54	107.91	11.00	-39.7	-40.8	21.6	0.00e+00	0	37	0	923795456	52	6268
2026-01-07 12:22:55.55	108.07	10.96	-39.7	-40.8	21.4	0.00e+00	28	37	0	925892608	52	6315
2026-01-07 12:22:56.56	108.24	10.91	-39.4	-40.4	21.9	0.00e+00	0	37	0	926941184	52	6025
2026-01-07 12:22:57.57	108.40	10.87	-39.4	-40.5	21.6	0.00e+00	76	37	0	929038336	52	6074
2026-01-07 12:22:58.58	108.56	10.83	-39.3	-40.4	21.9	0.00e+00	0	37	0	931135488	52	5981
2026-01-07 12:22:59.59	108.73	10.78	-39.4	-40.5	21.8	0.00e+00	0	37	0	933232640	52	6054
2026-01-07 12:23:00.60	108.89	10.74	-39.4	-40.5	21.7	0.00e+00	0	37	0	935329792	52	6086
2026-01-07 12:23:01.61	109.05	10.69	-39.3	-40.4	21.8	0.00e+00	0	37	0	936378368	52	5996
2026-01-07 12:23:02.62	109.21	10.65	-39.3	-40.4	21.8	0.00e+00	49	37	0	938475520	52	5994
2026-01-07 12:23:03.63	109.38	10.61	-39.6	-40.7	21.6	0.00e+00	0	37	0	940572672	52	6231
2026-01-07 12:23:04.64	109.54	10.56	-40.0	-41.1	21.2	0.00e+00	92	37	0	942669824	52	6524
2026-01-07 12:23:05.65	109.70	10.52	-40.1	-41.4	21.0	0.00e+00	0	37	0	944766976	52	6715
2026-01-07 12:23:06.66	109.86	10.47	-40.2	-41.4	20.8	0.00e+00	92	37	0	945815552	52	6756
2026-01-07 12:23:07.67	110.02	10.43	-40.3	-41.5	20.9	0.00e+00	0	37	0	947912704	52	6803
2026-01-07 12:23:08.68	110.18	10.38	-40.1	-41.3	21.1	0.00e+00	0	37	0	950009856	52	6654
2026-01-07 12:23:09.69	110.33	10.34	-40.1	-41.3	21.1	0.00e+00	28	37	0	952107008	52	6676
2026-01-07 12:23:10.70	110.49	10.29	-40.0	-41.2	21.2	0.00e+00	0	37	0	954204160	52	6564
2026-01-07 12:23:11.71	110.65	10.25	-39.5	-40.7	21.5	0.00e+00	27	37	0	956301312	52	6210
2026-01-07 12:23:12.72	110.81	10.20	-39.8	-41.0	21.4	0.00e+00	0	37	0	957349888	52	6393
2026-01-07 12:23:13.73	110.96	10.15	-39.4	-40.5	21.8	0.00e+00	91	37	0	959447040	52	6043
2026-01-07 12:23:14.74	111.12	10.11	-39.4	-40.5	21.7	0.00e+00	0	37	0	961544192	52	6078
2026-01-07 12:23:15.75	111.27	10.06	-39.6	-40.7	21.6	0.00e+00	0	37	0	963641344	52	6188
2026-01-07 12:23:16.76	111.43	10.02	-39.3	-40.4	21.9	0.00e+00	25	37	0	965738496	52	6010
2026-01-07 12:23:17.77	111.58	9.97	-39.2	-40.3	21.9	0.00e+00	0	37	0	966787072	52	5916
2026-01-07 12:23:18.78	111.74	9.93	-39.1	-40.1	22.0	0.00e+00	24	37	0	968884224	52	5814
2026-01-07 12:23:19.79	111.89	9.88	-39.1	-40.1	22.0	0.00e+00	0	37	0	970981376	52	5823
2026-01-07 12:23:20.80	112.05	9.83	-39.1	-40.1	22.1	0.00e+00	92	37	0	973078528	52	5809
2026-01-07 12:23:21.82	112.20	9.79	-38.9	-40.0	22.2	0.00e+00	0	37	0	975175680	52	5702
2026-01-07 12:23:22.82	112.35	9.74	-39.0	-40.1	22.1	0.00e+00	0	37	0	976224256	52	5781
2026-01-07 12:23:23.83	112.50	9.69	-39.1	-40.2	22.0	0.00e+00	17	37	0	978321408	52	5843
2026-01-07 12:23:24.84	112.65	9.65	-39.1	-40.2	22.0	0.00e+00	0	37	0	980418560	52	5840
2026-01-07 12:23:25.85	112.81	9.60	-39.0	-40.1	22.1	0.00e+00	54	37	0	982515712	52	5777
2026-01-07 12:23:26.86	112.96	9.55	-39.0	-40.1	22.0	0.00e+00	0	37	0	984612864	52	5786
2026-01-07 12:23:27.88	113.11	9.51	-39.1	-40.1	21.9	0.00e+00	63	37	0	985661440	52	5820
2026-01-07 12:23:28.88	113.26	9.46	-38.9	-40.0	22.2	0.00e+00	0	37	0	987758592	52	5710
2026-01-07 12:23:29.89	113.40	9.41	-39.0	-40.1	22.1	0.00e+00	0	37	0	989855744	52	5776
2026-01-07 12:23:30.90	113.55	9.37	-38.9	-40.0	22.2	0.00e+00	0	37	0	991952896	52	5696
2026-01-07 12:23:31.91	113.70	9.32	-38.9	-39.9	22.2	0.00e+00	0	37	0	994050048	52	5653
2026-01-07 12:23:32.92	113.85	9.27	-38.8	-39.8	22.3	0.00e+00	28	37	0	995098624	52	5579
2026-01-07 12:23:33.93	114.00	9.22	-38.7	-39.7	22.4	0.00e+00	0	37	0	997195776	50	6215
2026-01-07 12:23:34.94	114.14	9.18	-38.8	-39.8	22.1	0.00e+00	79	37	0	999292928	50	6309
2026-01-07 12:23:35.95	114.29	9.13	-38.7	-39.7	22.4	0.00e+00	0	37	0	1001390080	50	6191
2026-01-07 12:23:36.96	114.44	9.08	-38.8	-39.8	22.3	0.00e+00	0	37	0	1003487232	50	6268
2026-01-07 12:23:37.97	114.58	9.03	-38.9	-39.9	22.1	0.00e+00	0	37	0	1004535808	50	6387
2026-01-07 12:23:38.98	114.73	8.99	-39.1	-40.1	21.9	0.00e+00	0	37	0	1006632960	50	6517
2026-01-07 12:23:39.99	114.87	8.94	-39.2	-40.3	21.8	0.00e+00	38	37	0	1008730112	50	6628
2026-01-07 12:23:41.00	115.01	8.89	-39.1	-40.2	21.9	0.00e+00	0	37	0	1010827264	50	6557
2026-01-07 12:23:42.01	115.16	8.84	-39.0	-40.1	21.9	0.00e+00	92	37	0	1012924416	50	6489
2026-01-07 12:23:43.02	115.30	8.79	-39.0	-40.1	22.0	0.00e+00	0	37	0	1013972992	50	6482
2026-01-07 12:23:44.03	115.44	8.75	-38.8	-39.9	22.1	0.00e+00	18	37	0	1016070144	50	6370
2026-01-07 12:23:45.04	115.59	8.70	-38.6	-39.7	22.3	0.00e+00	0	37	0	1018167296	50	6200
2026-01-07 12:23:46.05	115.73	8.65	-38.6	-39.7	22.4	0.00e+00	0	37	0	1020264448	50	6184
2026-01-07 12:23:47.06	115.87	8.60	-38.5	-39.5	22.4	0.00e+00	0	37	0	1022361600	50	6081
2026-01-07 12:23:48.06	116.01	8.55	-38.4	-39.3	22.5	0.00e+00	0	37	0	1024458752	50	5964
2026-01-07 12:23:49.08	116.15	8.51	-38.4	-39.4	22.5	0.00e+00	82	37	0	1025507328	50	5984
2026-01-07 12:23:50.09	116.29	8.46	-38.5	-39.6	22.4	0.00e+00	0	37	0	1027604480	50	6107
2026-01-07 12:23:51.10	116.43	8.41	-38.5	-39.5	22.4	0.00e+00	85	37	0	1029701632	50	6071
2026-01-07 12:23:52.10	116.57	8.36	-38.7	-39.8	22.2	0.00e+00	0	37	0	1031798784	50	6280
2026-01-07 12:23:53.11	116.71	8.31	-38.8	-39.8	22.2	0.00e+00	0	37	0	1033895936	50	6304
2026-01-07 12:23:54.12	116.85	8.26	-38.9	-39.9	22.0	0.00e+00	29	37	0	1034944512	50	6379
2026-01-07 12:23:55.13	116.98	8.21	-38.9	-40.0	22.0	0.00e+00	25	37	0	1037041664	50	6391
2026-01-07 12:23:56.14	117.12	8.17	-39.1	-40.2	21.9	0.00e+00	84	37	0	1039138816	50	6578
2026-01-07 12:23:57.16	117.26	8.12	-39.0	-40.1	22.0	0.00e+00	0	37	0	1041235968	50	6496
2026-01-07 12:23:58.16	117.39	8.07	-39.1	-40.1	21.9	0.00e+00	85	37	0	1043333120	50	6530
2026-01-07 12:23:59.17	117.53	8.02	-39.2	-40.3	21.8	0.00e+00	0	37	0	1044381696	50	6631
2026-01-07 12:24:00.18	117.67	7.97	-39.4	-40.5	21.5	0.00e+00	0	37	0	1046478848	50	6822
2026-01-07 12:24:01.19	117.80	7.92	-39.2	-40.3	21.8	0.00e+00	0	37	0	1048576000	50	6619
2026-01-07 12:24:02.20	117.94	7.87	-39.2	-40.3	21.7	0.00e+00	0	37	0	1050673152	50	6672
2026-01-07 12:24:03.21	118.07	7.82	-39.2	-40.3	21.7	0.00e+00	22	37	0	1052770304	50	6651
2026-01-07 12:24:04.22	118.20	7.78	-39.1	-40.2	21.8	0.00e+00	0	37	0	1053818880	50	6564
2026-01-07 12:24:05.23	118.34	7.73	-39.3	-40.4	21.7	0.00e+00	95	37	0	1055916032	50	6695
2026-01-07 12:24:06.24	118.47	7.68	-39.1	-40.2	21.7	0.00e+00	9	37	0	1058013184	50	6595
2026-01-07 12:24:07.24	118.60	7.63	-39.3	-40.3	21.6	0.00e+00	0	37	0	1060110336	50	6684
2026-01-07 12:24:08.25	118.73	7.58	-39.4	-40.5	21.5	0.00e+00	0	37	0	1062207488	50	6791
2026-01-07 12:24:09.26	118.87	7.53	-39.2	-40.3	21.7	0.00e+00	0	37	0	1063256064	50	6691
2026-01-07 12:24:10.27	119.00	7.48	-39.1	-40.2	21.9	0.00e+00	27	37	0	1065353216	50	6580
2026-01-07 12:24:11.28	119.13	7.43	-39.0	-40.1	21.9	0.00e+00	0	37	0	1067450368	50	6484
2026-01-07 12:24:12.29	119.26	7.38	-38.9	-39.9	21.9	0.00e+00	80	37	0	1069547520	50	6380
2026-01-07 12:24:13.30	119.39	7.33	-38.9	-39.9	22.0	0.00e+00	0	37	0	1071644672	50	6360
2026-01-07 12:24:14.31	119.52	7.28	-38.9	-40.0	22.0	0.00e+00	61	37	0	1072693248	50	6417
2026-01-07 12:24:15.32	119.65	7.23	-39.1	-40.2	21.8	0.00e+00	0	37	0	1074790400	50	6568
2026-01-07 12:24:16.33	119.78	7.19	-39.1	-40.2	21.8	0.00e+00	0	37	0	1076887552	50	6592
2026-01-07 12:24:17.34	119.90	7.14	-39.1	-40.2	21.8	0.00e+00	27	37	0	1078984704	50	6547
2026-01-07 12:24:18.35	120.03	7.09	-39.2	-40.3	21.6	0.00e+00	0	37	0	1081081856	50	6687
2026-01-07 12:24:19.36	120.16	7.04	-39.5	-40.6	21.3	0.00e+00	89	37	0	1082130432	50	6927
2026-01-07 12:24:20.37	120.29	6.99	-39.5	-40.6	21.4	0.00e+00	0	37	0	1084227584	52	6144
2026-01-07 12:24:21.38	120.41	6.94	-39.6	-40.7	21.4	0.00e+00	92	37	0	1086324736	52	6210
2026-01-07 12:24:22.39	120.54	6.89	-39.6	-40.8	21.3	0.00e+00	0	37	0	1088421888	52	6283
2026-01-07 12:24:23.40	120.66	6.84	-39.4	-40.6	21.5	0.00e+00	0	37	0	1090519040	52	6115
2026-01-07 12:24:24.41	120.79	6.79	-39.5	-40.7	21.4	0.00e+00	0	38	0	1092616192	52	6187
2026-01-07 12:24:25.41	120.91	6.74	-39.4	-40.5	21.5	0.00e+00	0	37	0	1093664768	52	6086
2026-01-07 12:24:26.42	121.04	6.69	-39.4	-40.6	21.4	0.00e+00	78	37	0	1095761920	52	6113
2026-01-07 12:24:27.43	121.16	6.64	-39.5	-40.6	21.3	0.00e+00	0	37	0	1097859072	52	6168
2026-01-07 12:24:28.44	121.29	6.59	-39.5	-40.7	21.3	0.00e+00	92	37	0	1099956224	52	6177
2026-01-07 12:24:29.45	121.41	6.54	-39.6	-40.8	21.1	0.00e+00	0	37	0	1102053376	52	6275
2026-01-07 12:24:30.46	121.53	6.49	-39.7	-40.9	21.1	0.00e+00	0	37	0	1103101952	52	6341
2026-01-07 12:24:31.47	121.66	6.44	-39.9	-41.1	20.9	0.00e+00	0	37	0	1105199104	52	6480
2026-01-07 12:24:32.48	121.78	6.39	-39.9	-41.1	20.8	0.00e+00	0	37	0	1107296256	52	6519
2026-01-07 12:24:33.49	121.90	6.34	-40.1	-41.4	20.6	0.00e+00	20	37	0	1109393408	52	6719
2026-01-07 12:24:34.50	122.02	6.29	-40.3	-41.6	20.5	0.00e+00	0	37	0	1111490560	52	6854
2026-01-07 12:24:35.51	122.14	6.24	-40.2	-41.4	20.6	0.00e+00	91	37	0	1112539136	52	6755
2026-01-07 12:24:36.52	122.26	6.19	-40.1	-41.4	20.6	0.00e+00	0	37	0	1114636288	52	6760
2026-01-07 12:24:37.53	122.38	6.14	-40.3	-41.6	20.4	0.00e+00	0	37	0	1116733440	52	6856
2026-01-07 12:24:38.54	122.50	6.09	-40.3	-41.6	20.5	0.00e+00	0	37	0	1118830592	52	6868
2026-01-07 12:24:39.55	122.62	6.04	-40.2	-41.4	20.5	0.00e+00	0	37	0	1120927744	52	6758
2026-01-07 12:24:40.56	122.74	6.00	-40.3	-41.6	20.5	0.00e+00	21	37	0	1121976320	52	6856
2026-01-07 12:24:41.57	122.86	5.95	-40.5	-41.8	20.2	0.00e+00	0	37	0	1124073472	52	7037
2026-01-07 12:24:42.58	122.98	5.90	-40.5	-41.8	20.2	0.00e+00	74	37	0	1126170624	52	7070
2026-01-07 12:24:43.58	123.09	5.85	-40.6	-42.1	19.9	0.00e+00	0	37	0	1128267776	52	7268
2026-01-07 12:24:44.59	123.21	5.80	-40.7	-42.1	20.0	0.00e+00	0	37	0	1130364928	52	7303
2026-01-07 12:24:45.60	123.33	5.75	-40.6	-42.0	20.1	0.00e+00	0	37	0	1131413504	52	7222
2026-01-07 12:24:46.61	123.45	5.70	-40.7	-42.1	20.0	0.00e+00	0	37	0	1133510656	54	6490
2026-01-07 12:24:47.62	123.56	5.65	-40.7	-42.0	20.0	0.00e+00	52	37	0	1135607808	54	6459
2026-01-07 12:24:48.63	123.68	5.60	-40.8	-42.2	19.7	0.00e+00	0	37	0	1137704960	54	6602
2026-01-07 12:24:49.64	123.79	5.55	-41.0	-42.4	19.6	0.00e+00	92	37	0	1139802112	54	6728
2026-01-07 12:24:50.65	123.91	5.50	-40.9	-42.3	19.8	0.00e+00	0	37	0	1140850688	54	6634
2026-01-07 12:24:51.66	124.02	5.45	-41.0	-42.4	19.7	0.00e+00	28	37	0	1142947840	54	6732
2026-01-07 12:24:52.67	124.14	5.40	-40.7	-42.1	19.9	0.00e+00	0	37	0	1145044992	54	6473
2026-01-07 12:24:53.68	124.25	5.35	-40.7	-42.1	20.0	0.00e+00	0	37	0	1147142144	54	6489
2026-01-07 12:24:54.69	124.37	5.30	-40.4	-41.7	20.2	0.00e+00	23	37	0	1149239296	54	6204
2026-01-07 12:24:55.70	124.48	5.25	-40.2	-41.4	20.4	0.00e+00	0	37	0	1150287872	54	6029
2026-01-07 12:24:56.71	124.59	5.20	-40.1	-41.3	20.5	0.00e+00	92	37	0	1152385024	54	5946
2026-01-07 12:24:57.72	124.70	5.15	-40.2	-41.5	20.4	0.00e+00	0	37	0	1154482176	54	6051
2026-01-07 12:24:58.73	124.82	5.10	-40.3	-41.6	20.3	0.00e+00	92	37	0	1156579328	54	6118
2026-01-07 12:24:59.74	124.93	5.05	-40.4	-41.7	20.2	0.00e+00	0	37	0	1158676480	54	6200
2026-01-07 12:25:00.75	125.04	5.00	-40.6	-42.0	19.9	0.00e+00	0	37	0	1160773632	54	6400
2026-01-07 12:25:01.76	125.15	4.95	-40.9	-42.3	19.6	0.00e+00	0	37	0	1161822208	54	6655
2026-01-07 12:25:02.77	125.26	4.90	-41.0	-42.5	19.4	0.00e+00	0	37	0	1163919360	54	6773
2026-01-07 12:25:03.78	125.37	4.85	-41.5	-43.1	18.8	0.00e+00	22	37	0	1166016512	54	7254
2026-01-07 12:25:04.79	125.48	4.80	-42.0	-43.8	18.1	0.00e+00	0	37	0	1168113664	56	7016
2026-01-07 12:25:05.80	125.59	4.75	-42.3	-44.1	17.9	0.00e+00	76	37	0	1170210816	56	7326
2026-01-07 12:25:06.80	125.70	4.70	-42.5	-44.3	17.8	0.00e+00	0	37	0	1171259392	56	7488
2026-01-07 12:25:07.81	125.81	4.65	-42.5	-44.4	17.7	0.00e+00	0	37	0	1173356544	56	7515
2026-01-07 12:25:08.82	125.92	4.60	-42.5	-44.3	17.8	0.00e+00	0	37	0	1175453696	56	7498
2026-01-07 12:25:09.83	126.03	4.55	-42.5	-44.4	17.8	0.00e+00	0	37	0	1177550848	56	7512
2026-01-07 12:25:10.84	126.13	4.50	-41.9	-43.6	18.5	0.00e+00	58	37	0	1179648000	56	6905
2026-01-07 12:25:11.85	126.24	4.45	-41.9	-43.6	18.2	0.00e+00	0	37	0	1180696576	56	6916
2026-01-07 12:25:12.86	126.35	4.40	-41.7	-43.4	18.7	0.00e+00	48	37	0	1182793728	56	6701
2026-01-07 12:25:13.87	126.46	4.35	-41.4	-43.0	18.7	0.00e+00	0	37	0	1184890880	56	6416
2026-01-07 12:25:14.88	126.56	4.30	-41.5	-43.1	18.7	0.00e+00	0	37	0	1186988032	56	6534
2026-01-07 12:25:15.89	126.67	4.25	-41.4	-43.0	18.8	0.00e+00	0	37	0	1189085184	56	6460
2026-01-07 12:25:16.90	126.77	4.20	-41.0	-42.5	19.4	0.00e+00	0	37	0	1190133760	56	6037
2026-01-07 12:25:17.91	126.88	4.16	-41.2	-42.7	19.2	0.00e+00	72	37	0	1192230912	56	6238
2026-01-07 12:25:18.92	126.98	4.11	-41.3	-42.9	19.0	0.00e+00	0	37	0	1194328064	56	6365
2026-01-07 12:25:19.93	127.09	4.06	-41.4	-43.0	19.0	0.00e+00	46	37	0	1196425216	56	6398
2026-01-07 12:25:20.94	127.19	4.01	-41.5	-43.1	18.7	0.00e+00	0	37	0	1198522368	56	6529
2026-01-07 12:25:21.95	127.30	3.96	-41.5	-43.1	18.8	0.00e+00	0	37	0	1199570944	56	6478
2026-01-07 12:25:22.96	127.40	3.91	-41.6	-43.2	18.6	0.00e+00	0	37	0	1201668096	56	6611
2026-01-07 12:25:23.97	127.50	3.86	-41.5	-43.1	18.7	0.00e+00	0	37	0	1203765248	56	6518
2026-01-07 12:25:24.98	127.61	3.81	-41.4	-43.0	18.8	0.00e+00	25	37	0	1205862400	56	6402
2026-01-07 12:25:25.99	127.71	3.76	-41.2	-42.8	19.0	0.00e+00	0	37	0	1207959552	56	6258
2026-01-07 12:25:27.00	127.81	3.71	-41.3	-42.9	19.0	0.00e+00	80	37	0	1209008128	56	6334
2026-01-07 12:25:28.01	127.92	3.66	-41.1	-42.6	19.1	0.00e+00	0	37	0	1211105280	56	6173
