passes_logs/2026/01/07/R4.6S_Anadyr/R4.6S_Anadyr__20260107_171440_SUOMI_NPP_rec.log

#Pass ID: 20260107_171440_SUOMI NPP
#Satellite: SUOMI NPP
#Configuration: NPP
#almurnet v.1.7.20251203
#Start time: 2026-01-07 17:14:41

#Version: 2.2.20231116
#Station: R4.6S_Anadyr
#Location: 177.4865 lon 64.73178 lat
#TLE: 1 37849U 11061A   26004.95404768  .00000136  00000+0  85334-4 0  9991
#TLE: 2 37849  98.7801 307.0898 0002575  80.6707 279.4760 14.19522289735281

#Time	Az	El	Level	Level2	SNR	BER	BlckErr	Temp	State	Recorded	gain1	gain2
2026-01-07 17:14:41.56	30.17	0.04	-49.7	-67.4	3.5	3.02e+01	0	36	0	0	60	90642
2026-01-07 17:14:42.57	30.11	0.10	-49.3	-64.5	3.6	1.51e+00	0	37	104	0	60	60904
2026-01-07 17:14:43.58	30.06	0.15	-49.4	-64.6	3.5	1.51e+00	0	37	104	0	60	61324
2026-01-07 17:14:44.59	30.00	0.21	-49.3	-64.5	3.6	1.51e+00	0	37	104	0	60	60931
2026-01-07 17:14:45.60	29.95	0.26	-49.3	-64.6	3.6	1.51e+00	0	37	104	0	60	61055
2026-01-07 17:14:46.61	29.89	0.32	-49.4	-64.6	3.6	1.51e+00	0	37	104	0	60	61319
2026-01-07 17:14:47.61	29.84	0.37	-49.4	-64.6	3.6	1.51e+00	0	37	104	0	60	61527
2026-01-07 17:14:48.63	29.78	0.43	-49.4	-64.6	3.6	1.51e+00	0	37	104	0	60	61719
2026-01-07 17:14:49.64	29.73	0.48	-49.3	-64.6	3.6	1.51e+00	0	37	104	0	60	61091
2026-01-07 17:14:50.64	29.67	0.54	-49.2	-64.4	3.6	1.51e+00	0	37	104	0	60	60323
2026-01-07 17:14:51.66	29.61	0.59	-49.2	-64.4	3.6	1.51e+00	0	37	104	0	60	59934
2026-01-07 17:14:52.67	29.56	0.65	-49.1	-64.3	3.6	1.51e+00	0	37	104	0	60	59130
2026-01-07 17:14:53.68	29.50	0.71	-49.0	-64.2	3.6	1.51e+00	0	37	104	0	60	58673
2026-01-07 17:14:54.69	29.44	0.76	-48.9	-64.1	3.6	1.51e+00	0	37	104	0	60	58077
2026-01-07 17:14:55.70	29.39	0.82	-48.7	-63.9	3.6	1.51e+00	0	37	104	0	60	56776
2026-01-07 17:14:56.71	29.33	0.87	-48.5	-63.7	3.6	1.51e+00	0	37	104	0	60	55228
2026-01-07 17:14:57.72	29.27	0.93	-48.1	-63.3	3.6	1.51e+00	0	37	104	0	60	52658
2026-01-07 17:14:58.73	29.21	0.98	-47.8	-63.0	3.6	1.51e+00	0	37	104	0	60	50896
2026-01-07 17:14:59.74	29.15	1.04	-47.8	-63.0	3.6	1.51e+00	0	37	104	0	60	50922
2026-01-07 17:15:00.75	29.09	1.10	-47.8	-62.9	3.6	1.51e+00	0	37	104	0	60	50743
2026-01-07 17:15:01.76	29.04	1.15	-47.8	-62.9	3.6	1.51e+00	0	37	104	0	60	50491
2026-01-07 17:15:02.76	28.98	1.21	-47.8	-63.0	3.6	1.51e+00	0	37	104	0	60	50836
2026-01-07 17:15:03.78	28.92	1.26	-47.8	-62.9	3.6	1.51e+00	0	37	104	0	60	50610
2026-01-07 17:15:04.78	28.86	1.32	-47.8	-62.9	3.6	1.51e+00	0	37	104	0	60	50329
2026-01-07 17:15:05.79	28.80	1.38	-47.8	-62.9	3.6	1.51e+00	0	37	104	0	60	50463
2026-01-07 17:15:06.80	28.74	1.43	-47.8	-62.9	3.6	1.51e+00	0	37	104	0	60	50524
2026-01-07 17:15:07.81	28.68	1.49	-47.8	-62.9	3.6	1.51e+00	0	37	104	0	60	50256
2026-01-07 17:15:08.82	28.62	1.55	-47.8	-62.9	3.6	1.51e+00	0	37	104	0	60	50653
2026-01-07 17:15:09.83	28.56	1.60	-47.8	-62.9	3.6	1.51e+00	0	37	104	0	60	50736
2026-01-07 17:15:10.84	28.50	1.66	-47.8	-63.0	3.6	1.51e+00	0	37	104	0	60	51005
2026-01-07 17:15:11.85	28.43	1.72	-47.8	-63.0	3.6	1.51e+00	0	37	104	0	60	50947
2026-01-07 17:15:12.86	28.37	1.78	-47.8	-63.0	3.6	1.51e+00	0	37	104	0	60	51057
2026-01-07 17:15:13.87	28.31	1.83	-47.8	-63.0	3.6	1.51e+00	0	37	104	0	60	51006
2026-01-07 17:15:14.88	28.25	1.89	-47.8	-63.0	3.6	1.51e+00	0	37	104	0	60	50920
2026-01-07 17:15:15.89	28.19	1.95	-47.8	-63.0	3.6	1.51e+00	0	37	104	0	60	50834
2026-01-07 17:15:16.90	28.12	2.00	-47.8	-63.0	3.6	1.51e+00	0	37	104	0	60	50934
2026-01-07 17:15:17.91	28.06	2.06	-47.8	-62.9	3.6	1.51e+00	0	37	104	0	60	50335
2026-01-07 17:15:18.92	28.00	2.12	-47.8	-62.7	3.6	1.51e+00	0	37	104	0	60	49542
2026-01-07 17:15:19.93	27.94	2.18	-47.8	-62.7	3.6	1.51e+00	0	37	104	0	60	49388
2026-01-07 17:15:20.94	27.87	2.23	-47.8	-62.8	3.6	1.51e+00	0	37	104	0	60	49688
2026-01-07 17:15:21.95	27.81	2.29	-47.8	-62.9	3.6	1.51e+00	0	37	104	0	60	50304
2026-01-07 17:15:22.96	27.74	2.35	-47.8	-63.0	3.6	1.51e+00	0	37	104	0	60	50853
2026-01-07 17:15:23.97	27.68	2.41	-47.8	-63.0	3.6	1.51e+00	0	37	104	0	60	50930
2026-01-07 17:15:24.98	27.61	2.47	-47.8	-62.9	3.6	1.51e+00	0	37	104	0	60	50730
2026-01-07 17:15:25.99	27.55	2.52	-47.8	-62.9	3.6	1.51e+00	0	37	104	0	60	50232
2026-01-07 17:15:27.00	27.48	2.58	-47.8	-62.9	3.6	1.51e+00	0	37	104	0	60	50629
2026-01-07 17:15:28.01	27.42	2.64	-47.8	-63.0	3.6	1.51e+00	0	37	104	0	60	50992
2026-01-07 17:15:29.02	27.35	2.70	-47.8	-62.9	3.6	1.51e+00	0	37	104	0	60	50657
2026-01-07 17:15:30.03	27.29	2.76	-47.8	-62.7	3.6	1.51e+00	0	37	104	0	60	49318
2026-01-07 17:15:31.04	27.22	2.82	-47.8	-62.3	3.6	1.51e+00	0	37	104	0	60	47321
2026-01-07 17:15:32.05	27.15	2.88	-47.8	-62.2	3.6	1.51e+00	0	37	104	0	60	46379
2026-01-07 17:15:33.06	27.09	2.93	-47.8	-62.5	3.6	1.51e+00	0	37	104	0	60	48037
2026-01-07 17:15:34.07	27.02	2.99	-47.8	-62.8	3.6	1.51e+00	0	38	104	0	60	49629
2026-01-07 17:15:35.08	26.95	3.05	-47.8	-62.3	3.6	1.51e+00	0	37	104	0	60	46862
2026-01-07 17:15:36.09	26.89	3.11	-47.7	-60.4	3.6	1.51e+00	0	37	104	0	60	37690
2026-01-07 17:15:37.10	26.82	3.17	-47.5	-57.7	4.7	9.21e-01	0	37	104	0	60	27634
2026-01-07 17:15:38.10	26.75	3.23	-47.1	-54.4	6.5	3.41e-01	0	38	0	1048576	60	18995
2026-01-07 17:15:39.12	26.68	3.29	-46.9	-53.4	7.7	1.49e-01	0	37	0	3145728	60	16915
2026-01-07 17:15:40.13	26.61	3.35	-47.9	-63.0	3.6	1.51e+00	0	38	104	3145728	60	51237
2026-01-07 17:15:41.14	26.54	3.41	-47.8	-63.0	3.6	1.51e+00	0	38	104	3145728	60	50810
2026-01-07 17:15:42.15	26.47	3.47	-47.8	-62.9	3.6	1.51e+00	0	38	104	3145728	60	50645
2026-01-07 17:15:43.16	26.40	3.53	-47.7	-62.9	3.6	1.51e+00	0	38	104	3145728	60	50388
2026-01-07 17:15:44.17	26.33	3.59	-47.7	-62.8	3.6	1.51e+00	0	38	104	3145728	60	50179
2026-01-07 17:15:45.17	26.26	3.64	-47.7	-62.8	3.6	1.51e+00	0	37	104	3145728	60	50173
2026-01-07 17:15:46.18	26.19	3.70	-47.7	-62.8	3.6	1.51e+00	0	38	104	3145728	60	49998
2026-01-07 17:15:47.19	26.12	3.76	-47.7	-62.8	3.6	1.51e+00	0	38	104	3145728	60	49911
2026-01-07 17:15:48.20	26.05	3.82	-47.7	-62.8	3.6	1.51e+00	0	38	104	3145728	60	49908
2026-01-07 17:15:49.21	25.98	3.88	-47.7	-62.8	3.6	1.51e+00	0	38	104	3145728	60	49749
2026-01-07 17:15:50.22	25.91	3.95	-47.7	-62.9	3.6	1.51e+00	0	38	104	3145728	60	50311
2026-01-07 17:15:51.23	25.83	4.01	-47.7	-62.8	3.6	1.51e+00	0	38	104	3145728	60	50175
2026-01-07 17:15:52.24	25.76	4.07	-47.7	-62.9	3.6	1.51e+00	0	38	104	3145728	60	50372
2026-01-07 17:15:53.25	25.69	4.13	-47.7	-62.8	3.6	1.51e+00	0	38	104	3145728	60	50183
2026-01-07 17:15:54.26	25.62	4.19	-47.7	-62.8	3.6	1.51e+00	0	38	104	3145728	60	49909
2026-01-07 17:15:55.27	25.54	4.25	-47.7	-62.8	3.6	1.51e+00	0	38	104	3145728	60	50016
2026-01-07 17:15:56.28	25.47	4.31	-47.7	-62.8	3.6	1.51e+00	0	38	104	3145728	60	49740
2026-01-07 17:15:57.29	25.39	4.37	-47.7	-62.8	3.6	1.51e+00	0	38	104	3145728	60	49944
2026-01-07 17:15:58.30	25.32	4.43	-47.7	-62.8	3.6	1.51e+00	0	38	104	3145728	60	49960
2026-01-07 17:15:59.31	25.25	4.49	-47.7	-62.8	3.6	1.51e+00	0	38	104	3145728	60	49948
2026-01-07 17:16:00.32	25.17	4.55	-47.7	-62.8	3.6	1.51e+00	0	38	104	3145728	60	49762
2026-01-07 17:16:01.33	25.10	4.61	-47.7	-62.8	3.6	1.51e+00	0	38	104	3145728	60	49879
2026-01-07 17:16:02.34	25.02	4.67	-47.7	-62.8	3.6	1.51e+00	0	38	104	3145728	60	49665
2026-01-07 17:16:03.35	24.94	4.74	-47.7	-62.7	3.6	1.51e+00	0	38	104	3145728	60	49506
2026-01-07 17:16:04.36	24.87	4.80	-47.7	-62.7	3.6	1.51e+00	0	38	104	3145728	60	49363
2026-01-07 17:16:05.37	24.79	4.86	-47.7	-62.7	3.6	1.51e+00	0	38	104	3145728	60	49416
2026-01-07 17:16:06.38	24.71	4.92	-47.7	-62.7	3.6	1.51e+00	0	38	104	3145728	60	49272
2026-01-07 17:16:07.39	24.64	4.98	-47.7	-62.7	3.6	1.51e+00	0	38	104	3145728	60	49453
2026-01-07 17:16:08.40	24.56	5.04	-47.7	-62.7	3.6	1.51e+00	0	38	104	3145728	60	49549
2026-01-07 17:16:09.41	24.48	5.11	-47.7	-62.8	3.6	1.51e+00	0	38	104	3145728	60	49627
2026-01-07 17:16:10.42	24.40	5.17	-47.7	-62.8	3.6	1.51e+00	0	38	104	3145728	60	50160
2026-01-07 17:16:11.43	24.32	5.23	-47.7	-62.8	3.6	1.51e+00	0	38	104	3145728	60	50146
2026-01-07 17:16:12.44	24.24	5.29	-47.7	-62.9	3.6	1.51e+00	0	38	104	3145728	60	50329
2026-01-07 17:16:13.45	24.16	5.36	-47.7	-62.9	3.6	1.51e+00	0	38	104	3145728	60	50196
2026-01-07 17:16:14.46	24.08	5.42	-47.7	-62.9	3.6	1.51e+00	0	38	104	3145728	60	50286
2026-01-07 17:16:15.47	24.00	5.48	-47.7	-62.8	3.6	1.51e+00	0	38	104	3145728	60	50021
2026-01-07 17:16:16.48	23.92	5.54	-47.7	-62.8	3.6	1.51e+00	0	38	104	3145728	60	49919
2026-01-07 17:16:17.49	23.84	5.61	-47.7	-62.7	3.6	1.51e+00	0	38	104	3145728	60	49225
2026-01-07 17:16:18.50	23.76	5.67	-47.7	-62.8	3.6	1.51e+00	0	38	104	3145728	60	49735
2026-01-07 17:16:19.51	23.68	5.73	-47.7	-62.8	3.6	1.51e+00	0	38	104	3145728	60	49963
2026-01-07 17:16:20.52	23.60	5.79	-47.7	-62.9	3.6	1.51e+00	0	38	104	3145728	60	50280
2026-01-07 17:16:21.53	23.51	5.86	-47.7	-62.9	3.6	1.51e+00	0	38	104	3145728	60	50279
2026-01-07 17:16:22.54	23.43	5.92	-47.7	-62.8	3.6	1.51e+00	0	38	104	3145728	60	49979
2026-01-07 17:16:23.55	23.35	5.98	-47.7	-62.7	3.6	1.51e+00	0	38	104	3145728	60	49336
2026-01-07 17:16:24.56	23.26	6.05	-47.7	-62.7	3.6	1.51e+00	0	38	104	3145728	60	49090
2026-01-07 17:16:25.57	23.18	6.11	-47.7	-62.7	3.6	1.51e+00	0	38	104	3145728	60	49428
2026-01-07 17:16:26.58	23.10	6.17	-47.7	-62.9	3.6	1.51e+00	0	38	104	3145728	60	50295
2026-01-07 17:16:27.59	23.01	6.24	-47.7	-62.9	3.6	1.51e+00	0	38	104	3145728	60	50471
2026-01-07 17:16:28.60	22.93	6.30	-47.7	-62.9	3.6	1.51e+00	0	38	104	3145728	60	50231
2026-01-07 17:16:29.61	22.84	6.37	-47.7	-62.8	3.6	1.51e+00	0	38	104	3145728	60	49944
2026-01-07 17:16:30.62	22.75	6.43	-47.7	-62.8	3.6	1.51e+00	0	38	104	3145728	60	49728
2026-01-07 17:16:31.63	22.67	6.49	-47.7	-62.8	3.6	1.51e+00	0	38	104	3145728	60	50044
2026-01-07 17:16:32.64	22.58	6.56	-47.7	-62.9	3.6	1.51e+00	0	38	104	3145728	60	50305
2026-01-07 17:16:33.65	22.49	6.62	-47.7	-62.9	3.6	1.51e+00	0	38	104	3145728	60	50401
2026-01-07 17:16:34.66	22.41	6.69	-47.7	-62.9	3.6	1.51e+00	0	38	104	3145728	60	50211
2026-01-07 17:16:35.67	22.32	6.75	-47.7	-62.8	3.6	1.51e+00	0	38	104	3145728	60	49914
2026-01-07 17:16:36.68	22.23	6.82	-47.7	-62.8	3.6	1.51e+00	0	38	104	3145728	60	49754
2026-01-07 17:16:37.69	22.14	6.88	-47.7	-62.9	3.6	1.51e+00	0	38	104	3145728	60	50402
2026-01-07 17:16:38.70	22.05	6.94	-47.7	-62.9	3.6	1.51e+00	0	38	104	3145728	60	50254
2026-01-07 17:16:39.71	21.96	7.01	-47.7	-62.9	3.6	1.51e+00	0	38	104	3145728	60	50362
2026-01-07 17:16:40.72	21.87	7.07	-47.7	-62.9	3.6	1.51e+00	0	38	104	3145728	60	50284
2026-01-07 17:16:41.73	21.78	7.14	-47.7	-62.8	3.6	1.51e+00	0	38	104	3145728	60	49976
2026-01-07 17:16:42.74	21.69	7.20	-47.7	-62.8	3.6	1.51e+00	0	38	104	3145728	60	50166
2026-01-07 17:16:43.75	21.60	7.27	-47.7	-62.8	3.6	1.51e+00	0	38	104	3145728	60	49909
2026-01-07 17:16:44.76	21.51	7.33	-47.7	-62.9	3.6	1.51e+00	0	38	104	3145728	60	50343
2026-01-07 17:16:45.77	21.42	7.40	-47.7	-62.9	3.6	1.51e+00	0	38	104	3145728	60	50334
2026-01-07 17:16:46.78	21.32	7.47	-47.7	-62.9	3.6	1.51e+00	0	38	104	3145728	60	50335
2026-01-07 17:16:47.79	21.23	7.53	-47.7	-62.9	3.6	1.51e+00	0	38	104	3145728	60	50389
2026-01-07 17:16:48.80	21.14	7.60	-47.7	-62.9	3.6	1.51e+00	0	38	104	3145728	60	50275
2026-01-07 17:16:49.81	21.04	7.66	-47.7	-62.9	3.6	1.51e+00	0	38	104	3145728	60	50499
2026-01-07 17:16:50.82	20.95	7.73	-47.7	-62.9	3.6	1.51e+00	0	38	104	3145728	60	50214
2026-01-07 17:16:51.83	20.85	7.79	-47.7	-62.9	3.6	1.51e+00	0	38	104	3145728	60	50323
2026-01-07 17:16:52.84	20.76	7.86	-47.7	-62.9	3.6	1.51e+00	0	38	104	3145728	60	50230
2026-01-07 17:16:53.85	20.66	7.93	-47.7	-62.9	3.6	1.51e+00	0	38	104	3145728	60	50449
2026-01-07 17:16:54.86	20.57	7.99	-47.7	-62.9	3.6	1.51e+00	0	38	104	3145728	60	50476
2026-01-07 17:16:55.87	20.47	8.06	-47.7	-62.9	3.6	1.51e+00	0	38	104	3145728	60	50242
2026-01-07 17:16:56.88	20.37	8.13	-47.7	-62.9	3.6	1.51e+00	0	38	104	3145728	60	50482
2026-01-07 17:16:57.89	20.28	8.19	-47.7	-62.8	3.6	1.51e+00	0	38	104	3145728	60	50095
2026-01-07 17:16:58.90	20.18	8.26	-47.7	-62.8	3.6	1.51e+00	0	38	104	3145728	60	50183
2026-01-07 17:16:59.91	20.08	8.33	-47.7	-62.9	3.6	1.51e+00	0	38	104	3145728	60	50256
2026-01-07 17:17:00.92	19.98	8.39	-47.7	-62.8	3.6	1.51e+00	0	38	104	3145728	60	49939
2026-01-07 17:17:01.93	19.88	8.46	-47.7	-62.9	3.6	1.51e+00	0	38	104	3145728	60	50331
2026-01-07 17:17:02.94	19.78	8.53	-47.7	-62.9	3.6	1.51e+00	0	38	104	3145728	60	50250
2026-01-07 17:17:03.95	19.68	8.59	-47.7	-62.9	3.6	1.51e+00	0	38	104	3145728	60	50470
2026-01-07 17:17:04.96	19.58	8.66	-47.7	-62.9	3.6	1.51e+00	0	38	104	3145728	60	50438
2026-01-07 17:17:05.98	19.48	8.73	-47.7	-62.9	3.6	1.51e+00	0	38	104	3145728	60	50449
2026-01-07 17:17:06.99	19.38	8.80	-47.7	-62.9	3.6	1.51e+00	0	38	104	3145728	60	50395
2026-01-07 17:17:08.00	19.28	8.86	-47.7	-62.8	3.6	1.51e+00	0	38	104	3145728	60	50115
2026-01-07 17:17:09.01	19.17	8.93	-47.7	-62.9	3.6	1.51e+00	0	38	104	3145728	60	50278
2026-01-07 17:17:10.02	19.07	9.00	-47.7	-62.8	3.6	1.51e+00	0	38	104	3145728	60	49852
2026-01-07 17:17:11.02	18.97	9.07	-47.7	-62.8	3.6	1.51e+00	0	38	104	3145728	60	50119
2026-01-07 17:17:12.03	18.86	9.13	-47.7	-62.9	3.6	1.51e+00	0	38	104	3145728	60	50307
2026-01-07 17:17:13.04	18.76	9.20	-47.7	-62.9	3.6	1.51e+00	0	38	104	3145728	60	50614
2026-01-07 17:17:14.05	18.65	9.27	-47.7	-62.9	3.6	1.51e+00	0	38	104	3145728	60	50353
2026-01-07 17:17:15.06	18.55	9.34	-47.7	-62.8	3.6	1.51e+00	0	38	104	3145728	60	50075
2026-01-07 17:17:16.07	18.44	9.41	-47.7	-62.8	3.6	1.51e+00	0	38	104	3145728	60	50001
2026-01-07 17:17:17.08	18.33	9.47	-47.7	-62.8	3.6	1.51e+00	0	38	104	3145728	60	50086
2026-01-07 17:17:18.09	18.23	9.54	-47.7	-62.9	3.6	1.51e+00	0	38	104	3145728	60	50630
2026-01-07 17:17:19.10	18.12	9.61	-47.7	-62.9	3.6	1.51e+00	0	38	104	3145728	60	50764
2026-01-07 17:17:20.11	18.01	9.68	-47.7	-62.9	3.6	1.51e+00	0	38	104	3145728	60	50540
2026-01-07 17:17:21.12	17.90	9.75	-47.7	-62.9	3.6	1.51e+00	0	38	104	3145728	60	50510
2026-01-07 17:17:22.13	17.79	9.82	-47.7	-62.9	3.6	1.51e+00	0	38	104	3145728	60	50343
2026-01-07 17:17:23.14	17.68	9.88	-47.7	-62.9	3.6	1.51e+00	0	38	104	3145728	60	50434
2026-01-07 17:17:24.15	17.57	9.95	-47.7	-62.9	3.6	1.51e+00	0	38	104	3145728	60	50523
2026-01-07 17:17:25.16	17.46	10.02	-47.7	-62.9	3.6	1.51e+00	0	38	104	3145728	60	50468
2026-01-07 17:17:26.18	17.35	10.09	-47.7	-62.9	3.6	1.51e+00	0	38	104	3145728	60	50578
2026-01-07 17:17:27.19	17.24	10.16	-47.7	-62.9	3.6	1.51e+00	0	38	104	3145728	60	50537
2026-01-07 17:17:28.20	17.12	10.23	-47.7	-62.9	3.6	1.51e+00	0	38	104	3145728	60	50660
2026-01-07 17:17:29.21	17.01	10.30	-47.7	-62.9	3.6	1.51e+00	0	38	104	3145728	60	50598
2026-01-07 17:17:30.21	16.90	10.37	-47.7	-62.9	3.6	1.51e+00	0	38	104	3145728	60	50438
2026-01-07 17:17:31.23	16.78	10.44	-47.7	-62.9	3.6	1.51e+00	0	38	104	3145728	60	50401
2026-01-07 17:17:32.24	16.67	10.51	-47.7	-62.9	3.6	1.51e+00	0	38	104	3145728	60	50496
2026-01-07 17:17:33.24	16.55	10.58	-47.7	-62.9	3.6	1.51e+00	0	38	104	3145728	60	50381
2026-01-07 17:17:34.25	16.44	10.65	-47.7	-62.9	3.6	1.51e+00	0	38	104	3145728	60	50520
2026-01-07 17:17:35.26	16.32	10.72	-47.7	-62.9	3.6	1.51e+00	0	38	104	3145728	60	50443
2026-01-07 17:17:36.27	16.20	10.79	-47.7	-62.9	3.6	1.51e+00	0	38	104	3145728	60	50709
2026-01-07 17:17:37.28	16.09	10.86	-47.7	-62.9	3.6	1.51e+00	0	38	104	3145728	60	50538
2026-01-07 17:17:38.29	15.97	10.93	-47.7	-62.9	3.6	1.51e+00	0	38	104	3145728	60	50436
2026-01-07 17:17:39.30	15.85	11.00	-47.7	-62.9	3.6	1.51e+00	0	38	104	3145728	60	50657
2026-01-07 17:17:40.31	15.73	11.07	-47.7	-62.9	3.6	1.51e+00	0	38	104	3145728	60	50471
2026-01-07 17:17:41.32	15.61	11.14	-47.7	-63.0	3.6	1.51e+00	0	38	104	3145728	60	50863
2026-01-07 17:17:42.33	15.49	11.21	-47.7	-62.9	3.6	1.51e+00	0	38	104	3145728	60	50477
2026-01-07 17:17:43.34	15.37	11.28	-47.7	-62.9	3.6	1.51e+00	0	38	104	3145728	60	50495
2026-01-07 17:17:44.35	15.25	11.35	-47.7	-62.9	3.6	1.51e+00	0	38	104	3145728	60	50588
2026-01-07 17:17:45.36	15.12	11.42	-47.7	-62.9	3.6	1.51e+00	0	38	104	3145728	60	50345
2026-01-07 17:17:46.37	15.00	11.49	-47.7	-62.9	3.6	1.51e+00	0	38	104	3145728	60	50677
2026-01-07 17:17:47.38	14.88	11.56	-47.7	-62.9	3.6	1.51e+00	0	38	104	3145728	60	50710
2026-01-07 17:17:48.39	14.75	11.63	-47.7	-62.9	3.6	1.51e+00	0	38	104	3145728	60	50444
2026-01-07 17:17:49.40	14.63	11.70	-47.7	-62.9	3.6	1.51e+00	0	38	104	3145728	60	50744
2026-01-07 17:17:50.41	14.50	11.77	-47.7	-62.9	3.6	1.51e+00	0	38	104	3145728	60	50488
2026-01-07 17:17:51.42	14.38	11.84	-47.7	-62.9	3.6	1.51e+00	0	38	104	3145728	60	50574
2026-01-07 17:17:52.43	14.25	11.92	-47.7	-62.9	3.6	1.51e+00	0	38	104	3145728	60	50413
2026-01-07 17:17:53.44	14.12	11.99	-47.7	-63.0	3.6	1.51e+00	0	38	104	3145728	60	50833
2026-01-07 17:17:54.44	14.00	12.06	-47.7	-62.9	3.5	1.51e+00	0	38	104	3145728	60	50550
2026-01-07 17:17:55.46	13.87	12.13	-47.7	-62.9	3.6	1.51e+00	0	38	104	3145728	60	50723
2026-01-07 17:17:56.47	13.74	12.20	-47.7	-62.9	3.6	1.51e+00	0	38	104	3145728	60	50420
2026-01-07 17:17:57.47	13.61	12.27	-47.7	-62.9	3.6	1.51e+00	0	38	104	3145728	60	50215
2026-01-07 17:17:58.48	13.48	12.34	-47.7	-62.9	3.6	1.51e+00	0	38	104	3145728	60	50337
2026-01-07 17:17:59.49	13.35	12.41	-47.7	-62.9	3.6	1.51e+00	0	38	104	3145728	60	50521
2026-01-07 17:18:00.50	13.21	12.49	-47.7	-62.9	3.6	1.51e+00	0	38	104	3145728	60	50727
2026-01-07 17:18:01.51	13.08	12.56	-47.7	-62.9	3.6	1.51e+00	0	38	104	3145728	60	50644
2026-01-07 17:18:02.52	12.95	12.63	-47.7	-62.9	3.6	1.51e+00	0	38	104	3145728	60	50445
2026-01-07 17:18:03.53	12.81	12.70	-47.7	-62.9	3.6	1.51e+00	0	38	104	3145728	60	50527
2026-01-07 17:18:04.54	12.68	12.77	-47.7	-62.9	3.6	1.51e+00	0	38	104	3145728	60	50551
2026-01-07 17:18:05.55	12.54	12.84	-47.7	-62.9	3.6	1.51e+00	0	38	104	3145728	60	50523
2026-01-07 17:18:06.56	12.41	12.92	-47.7	-62.9	3.6	1.51e+00	0	38	104	3145728	60	50236
2026-01-07 17:18:07.57	12.27	12.99	-47.7	-62.9	3.6	1.51e+00	0	38	104	3145728	60	50724
2026-01-07 17:18:08.58	12.13	13.06	-47.7	-62.9	3.6	1.51e+00	0	38	104	3145728	60	50545
2026-01-07 17:18:09.59	12.00	13.13	-47.7	-62.9	3.6	1.51e+00	0	38	104	3145728	60	50535
2026-01-07 17:18:10.60	11.86	13.20	-47.7	-62.9	3.6	1.51e+00	0	38	104	3145728	60	50688
2026-01-07 17:18:11.61	11.72	13.28	-47.7	-62.9	3.6	1.51e+00	0	38	104	3145728	60	50518
2026-01-07 17:18:12.62	11.58	13.35	-47.7	-62.9	3.6	1.51e+00	0	38	104	3145728	60	50428
2026-01-07 17:18:13.63	11.44	13.42	-47.7	-62.9	3.6	1.51e+00	0	38	104	3145728	60	50208
2026-01-07 17:18:14.64	11.30	13.49	-47.7	-62.9	3.6	1.51e+00	0	38	104	3145728	60	50603
2026-01-07 17:18:15.65	11.15	13.57	-47.7	-62.9	3.6	1.51e+00	0	38	104	3145728	60	50592
2026-01-07 17:18:16.66	11.01	13.64	-47.7	-62.9	3.6	1.51e+00	0	38	104	3145728	60	50391
2026-01-07 17:18:17.67	10.87	13.71	-47.7	-62.9	3.6	1.51e+00	0	38	104	3145728	60	50515
2026-01-07 17:18:18.68	10.72	13.78	-47.7	-62.9	3.6	1.51e+00	0	38	104	3145728	60	50419
2026-01-07 17:18:19.69	10.58	13.86	-47.7	-62.9	3.6	1.51e+00	0	38	104	3145728	60	50355
2026-01-07 17:18:20.70	10.43	13.93	-47.7	-62.8	3.6	1.51e+00	0	38	104	3145728	60	50183
2026-01-07 17:18:21.71	10.29	14.00	-47.7	-62.9	3.6	1.51e+00	0	38	104	3145728	60	50248
2026-01-07 17:18:22.73	10.14	14.07	-47.7	-62.8	3.6	1.51e+00	0	38	104	3145728	60	50151
2026-01-07 17:18:23.74	9.99	14.15	-47.7	-62.9	3.6	1.51e+00	0	38	104	3145728	60	50543
2026-01-07 17:18:24.75	9.84	14.22	-47.7	-62.9	3.6	1.51e+00	0	38	104	3145728	60	50495
2026-01-07 17:18:25.76	9.69	14.29	-47.7	-62.9	3.6	1.51e+00	0	38	104	3145728	60	50442
2026-01-07 17:18:26.77	9.54	14.36	-47.7	-62.9	3.6	1.51e+00	0	38	104	3145728	60	50360
2026-01-07 17:18:27.78	9.39	14.44	-47.7	-62.9	3.6	1.51e+00	0	38	104	3145728	60	50729
2026-01-07 17:18:28.79	9.24	14.51	-47.7	-62.9	3.6	1.51e+00	0	38	104	3145728	60	50549
2026-01-07 17:18:29.80	9.09	14.58	-47.7	-62.9	3.6	1.51e+00	0	38	104	3145728	60	50449
2026-01-07 17:18:30.80	8.94	14.65	-47.7	-62.9	3.6	1.51e+00	0	38	104	3145728	60	50206
2026-01-07 17:18:31.81	8.78	14.73	-47.7	-62.9	3.6	1.51e+00	0	38	104	3145728	60	50248
2026-01-07 17:18:32.82	8.63	14.80	-47.7	-62.9	3.6	1.51e+00	0	38	104	3145728	60	50576
2026-01-07 17:18:33.83	8.47	14.87	-47.7	-62.9	3.6	1.51e+00	0	38	104	3145728	60	50413
2026-01-07 17:18:34.84	8.31	14.94	-47.7	-62.9	3.6	1.51e+00	0	38	104	3145728	60	50335
2026-01-07 17:18:35.85	8.16	15.02	-47.7	-62.9	3.6	1.51e+00	0	38	104	3145728	60	50324
2026-01-07 17:18:36.86	8.00	15.09	-47.7	-62.9	3.6	1.51e+00	0	38	104	3145728	60	50624
2026-01-07 17:18:37.87	7.84	15.16	-47.7	-62.9	3.6	1.51e+00	0	38	104	3145728	60	50264
2026-01-07 17:18:38.88	7.68	15.24	-47.7	-62.9	3.6	1.51e+00	0	38	104	3145728	60	50728
2026-01-07 17:18:39.89	7.52	15.31	-47.7	-62.9	3.6	1.51e+00	0	38	104	3145728	60	50527
2026-01-07 17:18:40.90	7.36	15.38	-47.7	-62.9	3.6	1.51e+00	0	38	104	3145728	60	50409
2026-01-07 17:18:41.91	7.20	15.45	-47.7	-62.9	3.6	1.51e+00	0	38	104	3145728	60	50457
2026-01-07 17:18:42.92	7.04	15.53	-47.7	-62.9	3.6	1.51e+00	0	38	104	3145728	60	50339
2026-01-07 17:18:43.93	6.87	15.60	-47.7	-62.9	3.6	1.51e+00	0	38	104	3145728	60	50495
2026-01-07 17:18:44.94	6.71	15.67	-47.7	-62.9	3.6	1.51e+00	0	38	104	3145728	60	50447
2026-01-07 17:18:45.95	6.54	15.74	-47.7	-62.9	3.6	1.51e+00	0	38	104	3145728	60	50571
2026-01-07 17:18:46.96	6.38	15.82	-47.7	-62.9	3.6	1.51e+00	0	38	104	3145728	60	50550
2026-01-07 17:18:47.97	6.21	15.89	-47.7	-62.9	3.6	1.51e+00	0	38	104	3145728	60	50627
2026-01-07 17:18:48.98	6.04	15.96	-47.7	-62.9	3.6	1.51e+00	0	38	104	3145728	60	50564
2026-01-07 17:18:49.99	5.87	16.03	-47.7	-62.9	3.6	1.51e+00	0	38	104	3145728	60	50667
2026-01-07 17:18:51.00	5.71	16.11	-47.7	-62.9	3.5	1.51e+00	0	38	104	3145728	60	50691
2026-01-07 17:18:52.01	5.54	16.18	-47.7	-62.9	3.6	1.51e+00	0	38	104	3145728	60	50566
2026-01-07 17:18:53.02	5.36	16.25	-47.7	-62.9	3.6	1.51e+00	0	38	104	3145728	60	50703
2026-01-07 17:18:54.03	5.19	16.32	-47.7	-62.9	3.6	1.51e+00	0	38	104	3145728	60	50488
2026-01-07 17:18:55.03	5.02	16.39	-47.7	-62.9	3.6	1.51e+00	0	38	104	3145728	60	50297
2026-01-07 17:18:56.04	4.85	16.47	-47.7	-62.9	3.6	1.51e+00	0	38	104	3145728	60	50295
2026-01-07 17:18:57.05	4.67	16.54	-47.8	-62.9	3.6	1.51e+00	0	38	104	3145728	60	50474
2026-01-07 17:18:58.06	4.50	16.61	-47.7	-62.9	3.6	1.51e+00	0	38	104	3145728	60	50497
2026-01-07 17:18:59.07	4.32	16.68	-47.7	-62.9	3.6	1.51e+00	0	38	104	3145728	60	50706
2026-01-07 17:19:00.08	4.15	16.75	-47.8	-62.9	3.6	1.51e+00	0	38	104	3145728	60	50602
2026-01-07 17:19:01.09	3.97	16.83	-47.8	-62.9	3.6	1.51e+00	0	38	104	3145728	60	50602
2026-01-07 17:19:02.10	3.79	16.90	-47.7	-62.9	3.6	1.51e+00	0	38	104	3145728	60	50564
2026-01-07 17:19:03.11	3.61	16.97	-47.7	-62.9	3.6	1.51e+00	0	38	104	3145728	60	50674
2026-01-07 17:19:04.12	3.43	17.04	-47.7	-62.9	3.6	1.51e+00	0	38	104	3145728	60	50714
2026-01-07 17:19:05.13	3.25	17.11	-47.7	-62.9	3.6	1.51e+00	0	38	104	3145728	60	50586
2026-01-07 17:19:06.14	3.07	17.18	-47.7	-62.9	3.6	1.51e+00	0	38	104	3145728	60	50557
2026-01-07 17:19:07.15	2.88	17.25	-47.7	-62.9	3.6	1.51e+00	0	38	104	3145728	60	50707
2026-01-07 17:19:08.16	2.70	17.33	-47.7	-62.9	3.5	1.51e+00	0	38	104	3145728	60	50645
2026-01-07 17:19:09.17	2.52	17.40	-47.7	-62.9	3.6	1.51e+00	0	38	104	3145728	60	50507
2026-01-07 17:19:10.18	2.33	17.47	-47.7	-63.0	3.6	1.51e+00	0	38	104	3145728	60	50783
2026-01-07 17:19:11.19	2.14	17.54	-47.8	-63.0	3.6	1.51e+00	0	38	104	3145728	60	50959
2026-01-07 17:19:12.20	1.96	17.61	-47.7	-62.9	3.6	1.51e+00	0	38	104	3145728	60	50739
2026-01-07 17:19:13.21	1.77	17.68	-47.7	-62.9	3.6	1.51e+00	0	38	104	3145728	60	50453
2026-01-07 17:19:14.22	1.58	17.75	-47.7	-62.9	3.6	1.51e+00	0	38	104	3145728	60	50698
2026-01-07 17:19:15.23	1.39	17.82	-47.7	-62.9	3.6	1.51e+00	0	38	104	3145728	60	50641
2026-01-07 17:19:16.24	1.20	17.89	-47.7	-62.9	3.6	1.51e+00	0	38	104	3145728	60	50628
2026-01-07 17:19:17.25	1.01	17.96	-47.7	-62.9	3.6	1.51e+00	0	38	104	3145728	60	50549
2026-01-07 17:19:18.26	0.81	18.03	-47.7	-62.9	3.5	1.51e+00	0	38	104	3145728	60	50475
2026-01-07 17:19:19.27	0.62	18.10	-47.7	-62.9	3.6	1.51e+00	0	38	104	3145728	60	50629
2026-01-07 17:19:20.28	0.43	18.17	-47.7	-62.9	3.6	1.51e+00	0	38	104	3145728	60	50422
2026-01-07 17:19:21.29	0.23	18.24	-47.7	-62.9	3.6	1.51e+00	0	38	104	3145728	60	50510
2026-01-07 17:19:22.30	0.03	18.31	-47.7	-62.9	3.6	1.51e+00	0	38	104	3145728	60	50451
2026-01-07 17:19:23.31	359.84	18.38	-47.7	-62.9	3.6	1.51e+00	0	38	104	3145728	60	50500
2026-01-07 17:19:24.32	359.64	18.45	-47.7	-62.9	3.6	1.51e+00	0	38	104	3145728	60	50558
2026-01-07 17:19:25.33	359.44	18.52	-47.7	-62.9	3.6	1.51e+00	0	38	104	3145728	60	50473
2026-01-07 17:19:26.34	359.24	18.59	-47.7	-62.9	3.6	1.51e+00	0	38	104	3145728	60	50680
2026-01-07 17:19:27.35	359.04	18.66	-47.7	-62.9	3.6	1.51e+00	0	38	104	3145728	60	50407
2026-01-07 17:19:28.36	358.84	18.72	-47.7	-62.9	3.6	1.51e+00	0	38	104	3145728	60	50647
2026-01-07 17:19:29.37	358.63	18.79	-47.7	-62.9	3.6	1.51e+00	0	38	104	3145728	60	50610
2026-01-07 17:19:30.38	358.43	18.86	-47.7	-62.9	3.6	1.51e+00	0	38	104	3145728	60	50408
2026-01-07 17:19:31.39	358.23	18.93	-47.7	-62.9	3.5	1.51e+00	0	38	104	3145728	60	50666
2026-01-07 17:19:32.40	358.02	19.00	-47.7	-62.9	3.6	1.51e+00	0	38	104	3145728	60	50606
2026-01-07 17:19:33.41	357.81	19.06	-47.7	-62.9	3.6	1.51e+00	0	38	104	3145728	60	50734
2026-01-07 17:19:34.42	357.61	19.13	-47.7	-62.9	3.6	1.51e+00	0	38	104	3145728	60	50431
2026-01-07 17:19:35.43	357.40	19.20	-47.7	-62.9	3.6	1.51e+00	0	38	104	3145728	60	50477
2026-01-07 17:19:36.44	357.19	19.26	-47.7	-62.9	3.6	1.51e+00	0	38	104	3145728	60	50395
2026-01-07 17:19:37.45	356.98	19.33	-47.7	-63.0	3.6	1.51e+00	0	38	104	3145728	60	50806
2026-01-07 17:19:38.46	356.77	19.40	-47.7	-63.0	3.6	1.51e+00	0	38	104	3145728	60	50765
2026-01-07 17:19:39.47	356.56	19.46	-47.7	-62.9	3.6	1.51e+00	0	38	104	3145728	60	50525
2026-01-07 17:19:40.48	356.34	19.53	-47.7	-62.9	3.6	1.51e+00	0	38	104	3145728	60	50610
2026-01-07 17:19:41.49	356.13	19.60	-47.7	-62.9	3.6	1.51e+00	0	38	104	3145728	60	50505
2026-01-07 17:19:42.50	355.91	19.66	-47.7	-62.9	3.6	1.51e+00	0	38	104	3145728	60	50596
2026-01-07 17:19:43.51	355.70	19.73	-47.7	-62.9	3.6	1.51e+00	0	38	104	3145728	60	50634
2026-01-07 17:19:44.52	355.48	19.79	-47.7	-62.9	3.6	1.51e+00	0	38	104	3145728	60	50742
2026-01-07 17:19:45.53	355.26	19.86	-47.7	-62.9	3.6	1.51e+00	0	38	104	3145728	60	50622
2026-01-07 17:19:46.53	355.05	19.92	-47.7	-62.9	3.6	1.51e+00	0	38	104	3145728	60	50555
2026-01-07 17:19:47.55	354.82	19.98	-47.7	-62.9	3.6	1.51e+00	0	38	104	3145728	60	50312
2026-01-07 17:19:48.56	354.60	20.05	-47.7	-62.9	3.6	1.51e+00	0	38	104	3145728	60	50374
2026-01-07 17:19:49.57	354.38	20.11	-47.7	-62.9	3.6	1.51e+00	0	38	104	3145728	60	50526
2026-01-07 17:19:50.57	354.16	20.17	-47.7	-63.0	3.6	1.51e+00	0	38	104	3145728	60	50794
2026-01-07 17:19:51.58	353.94	20.24	-47.7	-62.9	3.6	1.51e+00	0	38	104	3145728	60	50404
2026-01-07 17:19:52.59	353.72	20.30	-47.7	-62.9	3.6	1.51e+00	0	38	104	3145728	60	50692
2026-01-07 17:19:53.60	353.49	20.36	-47.7	-62.9	3.6	1.51e+00	0	38	104	3145728	60	50698
2026-01-07 17:19:54.61	353.26	20.42	-47.7	-62.9	3.6	1.51e+00	0	38	104	3145728	60	50495
2026-01-07 17:19:55.62	353.04	20.49	-47.7	-63.0	3.6	1.51e+00	0	38	104	3145728	60	50765
2026-01-07 17:19:56.64	352.81	20.55	-47.7	-62.9	3.6	1.51e+00	0	38	104	3145728	60	50629
2026-01-07 17:19:57.65	352.58	20.61	-47.7	-62.9	3.6	1.51e+00	0	38	104	3145728	60	50687
2026-01-07 17:19:58.65	352.35	20.67	-47.7	-62.9	3.6	1.51e+00	0	38	104	3145728	60	50369
2026-01-07 17:19:59.67	352.12	20.73	-47.7	-62.9	3.6	1.51e+00	0	38	104	3145728	60	50622
2026-01-07 17:20:00.68	351.89	20.79	-47.7	-62.9	3.6	1.51e+00	0	38	104	3145728	60	50361
2026-01-07 17:20:01.68	351.66	20.85	-47.7	-62.9	3.6	1.51e+00	0	38	104	3145728	60	50585
2026-01-07 17:20:02.70	351.42	20.91	-47.7	-62.9	3.6	1.51e+00	0	38	104	3145728	60	50564
2026-01-07 17:20:03.70	351.19	20.97	-47.7	-62.9	3.5	1.51e+00	0	38	104	3145728	60	50692
2026-01-07 17:20:04.71	350.95	21.03	-47.7	-62.9	3.6	1.51e+00	0	38	104	3145728	60	50497
2026-01-07 17:20:05.72	350.72	21.08	-47.7	-62.9	3.6	1.51e+00	0	38	104	3145728	60	50686
2026-01-07 17:20:06.73	350.48	21.14	-47.7	-62.9	3.6	1.51e+00	0	38	104	3145728	60	50758
2026-01-07 17:20:07.74	350.24	21.20	-47.7	-62.9	3.6	1.51e+00	0	38	104	3145728	60	50558
2026-01-07 17:20:08.75	350.00	21.26	-47.7	-62.9	3.6	1.51e+00	0	38	104	3145728	60	50532
2026-01-07 17:20:09.76	349.76	21.31	-47.7	-62.9	3.6	1.51e+00	0	38	104	3145728	60	50517
2026-01-07 17:20:10.77	349.52	21.37	-47.7	-63.0	3.6	1.51e+00	0	38	104	3145728	60	50776
2026-01-07 17:20:11.78	349.28	21.42	-47.7	-63.0	3.6	1.51e+00	0	38	104	3145728	60	50942
2026-01-07 17:20:12.79	349.04	21.48	-47.7	-62.9	3.6	1.51e+00	0	38	104	3145728	60	50601
2026-01-07 17:20:13.80	348.80	21.53	-47.7	-62.9	3.6	1.51e+00	0	38	104	3145728	60	50594
2026-01-07 17:20:14.81	348.55	21.59	-47.7	-62.9	3.6	1.51e+00	0	38	104	3145728	60	50442
2026-01-07 17:20:15.82	348.31	21.64	-47.7	-62.9	3.6	1.51e+00	0	38	104	3145728	60	50599
2026-01-07 17:20:16.83	348.06	21.70	-47.7	-62.9	3.6	1.51e+00	0	38	104	3145728	60	50567
2026-01-07 17:20:17.84	347.82	21.75	-47.7	-62.9	3.6	1.51e+00	0	38	104	3145728	60	50543
2026-01-07 17:20:18.85	347.57	21.80	-47.7	-62.9	3.6	1.51e+00	0	38	104	3145728	60	50662
2026-01-07 17:20:19.86	347.32	21.85	-47.7	-62.9	3.6	1.51e+00	0	38	104	3145728	60	50578
2026-01-07 17:20:20.87	347.07	21.91	-47.7	-62.9	3.6	1.51e+00	0	38	104	3145728	60	50589
2026-01-07 17:20:21.88	346.82	21.96	-47.7	-62.9	3.6	1.51e+00	0	38	104	3145728	60	50623
2026-01-07 17:20:22.89	346.57	22.01	-47.7	-62.9	3.6	1.51e+00	0	38	104	3145728	60	50698
2026-01-07 17:20:23.89	346.32	22.06	-47.7	-62.9	3.6	1.51e+00	0	38	104	3145728	60	50469
2026-01-07 17:20:24.90	346.07	22.11	-47.7	-62.9	3.6	1.51e+00	0	38	104	3145728	60	50636
2026-01-07 17:20:25.91	345.81	22.16	-47.7	-63.0	3.6	1.51e+00	0	38	104	3145728	60	50784
2026-01-07 17:20:26.92	345.56	22.21	-47.7	-62.9	3.6	1.51e+00	0	38	104	3145728	60	50557
2026-01-07 17:20:27.93	345.31	22.25	-47.7	-63.0	3.6	1.51e+00	0	38	104	3145728	60	50854
2026-01-07 17:20:28.94	345.05	22.30	-47.7	-62.9	3.6	1.51e+00	0	38	104	3145728	60	50531
2026-01-07 17:20:29.95	344.79	22.35	-47.7	-62.9	3.6	1.51e+00	0	38	104	3145728	60	50749
2026-01-07 17:20:30.96	344.54	22.40	-47.7	-62.9	3.6	1.51e+00	0	38	104	3145728	60	50623
2026-01-07 17:20:31.97	344.28	22.44	-47.7	-62.9	3.6	1.51e+00	0	38	104	3145728	60	50322
2026-01-07 17:20:32.98	344.02	22.49	-47.7	-62.9	3.6	1.51e+00	0	38	104	3145728	60	50657
2026-01-07 17:20:33.99	343.76	22.53	-47.7	-62.9	3.6	1.51e+00	0	38	104	3145728	60	50507
2026-01-07 17:20:35.00	343.50	22.58	-47.7	-62.9	3.6	1.51e+00	0	38	104	3145728	60	50416
2026-01-07 17:20:36.01	343.24	22.62	-47.8	-63.0	3.6	1.51e+00	0	38	104	3145728	60	51006
2026-01-07 17:20:37.02	342.98	22.67	-47.7	-62.9	3.6	1.51e+00	0	38	104	3145728	60	50467
2026-01-07 17:20:38.03	342.71	22.71	-47.7	-62.9	3.6	1.51e+00	0	38	104	3145728	60	50590
2026-01-07 17:20:39.04	342.45	22.75	-47.7	-63.0	3.6	1.51e+00	0	38	104	3145728	60	50789
2026-01-07 17:20:40.05	342.19	22.79	-47.7	-62.9	3.6	1.51e+00	0	38	104	3145728	60	50690
2026-01-07 17:20:41.06	341.92	22.83	-47.7	-62.9	3.6	1.51e+00	0	38	104	3145728	60	50420
2026-01-07 17:20:42.07	341.66	22.87	-47.8	-63.0	3.6	1.51e+00	0	38	104	3145728	60	50885
2026-01-07 17:20:43.09	341.39	22.91	-47.7	-62.9	3.6	1.51e+00	0	38	104	3145728	60	50526
2026-01-07 17:20:44.10	341.12	22.95	-47.7	-62.9	3.6	1.51e+00	0	38	104	3145728	60	50349
2026-01-07 17:20:45.10	340.85	22.99	-47.7	-63.0	3.6	1.51e+00	0	38	104	3145728	60	50891
2026-01-07 17:20:46.11	340.59	23.03	-47.7	-62.9	3.6	1.51e+00	0	38	104	3145728	60	50570
2026-01-07 17:20:47.13	340.31	23.07	-47.8	-62.9	3.5	1.51e+00	0	38	104	3145728	60	50507
2026-01-07 17:20:48.14	340.05	23.10	-47.7	-63.0	3.6	1.51e+00	0	38	104	3145728	60	51110
2026-01-07 17:20:49.14	339.78	23.14	-47.7	-62.9	3.6	1.51e+00	0	38	104	3145728	60	50694
2026-01-07 17:20:50.16	339.50	23.18	-47.8	-62.9	3.6	1.51e+00	0	38	104	3145728	60	50433
2026-01-07 17:20:51.17	339.23	23.21	-47.8	-62.9	3.6	1.51e+00	0	38	104	3145728	60	50620
2026-01-07 17:20:52.18	338.96	23.24	-47.7	-62.9	3.6	1.51e+00	0	38	104	3145728	60	50526
2026-01-07 17:20:53.19	338.69	23.28	-47.8	-63.0	3.6	1.51e+00	0	38	104	3145728	60	50873
2026-01-07 17:20:54.20	338.41	23.31	-47.8	-62.9	3.6	1.51e+00	0	38	104	3145728	60	50661
2026-01-07 17:20:55.21	338.14	23.34	-47.7	-63.0	3.6	1.51e+00	0	38	104	3145728	60	50793
2026-01-07 17:20:56.22	337.87	23.37	-47.7	-62.9	3.6	1.51e+00	0	38	104	3145728	60	50428
2026-01-07 17:20:57.23	337.59	23.41	-47.8	-62.9	3.6	1.51e+00	0	38	104	3145728	60	50664
2026-01-07 17:20:58.24	337.32	23.44	-47.7	-62.9	3.6	1.51e+00	0	38	104	3145728	60	50492
2026-01-07 17:20:59.25	337.04	23.47	-47.7	-62.9	3.6	1.51e+00	0	38	104	3145728	60	50627
2026-01-07 17:21:00.26	336.76	23.49	-47.8	-63.0	3.6	1.51e+00	0	38	104	3145728	60	50931
2026-01-07 17:21:01.27	336.49	23.52	-47.8	-62.9	3.6	1.51e+00	0	38	104	3145728	60	50522
2026-01-07 17:21:02.28	336.21	23.55	-47.7	-62.9	3.6	1.51e+00	0	38	104	3145728	60	50490
2026-01-07 17:21:03.29	335.93	23.58	-47.7	-62.9	3.6	1.51e+00	0	38	104	3145728	60	50495
2026-01-07 17:21:04.30	335.65	23.60	-47.7	-62.9	3.6	1.51e+00	0	38	104	3145728	60	50674
2026-01-07 17:21:05.31	335.37	23.63	-47.7	-62.9	3.6	1.51e+00	0	38	104	3145728	60	50754
2026-01-07 17:21:06.32	335.09	23.65	-47.7	-62.9	3.6	1.51e+00	0	38	104	3145728	60	50655
2026-01-07 17:21:07.33	334.81	23.68	-47.8	-63.0	3.6	1.51e+00	0	38	104	3145728	60	50902
2026-01-07 17:21:08.34	334.53	23.70	-47.7	-62.9	3.6	1.51e+00	0	38	104	3145728	60	50423
2026-01-07 17:21:09.35	334.25	23.72	-47.7	-62.9	3.6	1.51e+00	0	38	104	3145728	60	50636
2026-01-07 17:21:10.36	333.97	23.74	-47.7	-62.9	3.6	1.51e+00	0	38	104	3145728	60	50611
2026-01-07 17:21:11.37	333.69	23.77	-47.8	-63.0	3.6	1.51e+00	0	38	104	3145728	60	50796
2026-01-07 17:21:12.38	333.41	23.79	-47.8	-62.9	3.6	1.51e+00	0	38	104	3145728	60	50708
2026-01-07 17:21:13.39	333.13	23.81	-47.7	-62.9	3.6	1.51e+00	0	38	104	3145728	60	50579
2026-01-07 17:21:14.40	332.84	23.82	-47.8	-63.0	3.6	1.51e+00	0	38	104	3145728	60	50861
2026-01-07 17:21:15.41	332.56	23.84	-47.8	-62.9	3.6	1.51e+00	0	38	104	3145728	60	50695
2026-01-07 17:21:16.42	332.28	23.86	-47.7	-63.0	3.6	1.51e+00	0	38	104	3145728	60	50846
2026-01-07 17:21:17.43	331.99	23.88	-47.8	-62.9	3.6	1.51e+00	0	38	104	3145728	60	50596
2026-01-07 17:21:18.44	331.71	23.89	-47.8	-63.0	3.6	1.51e+00	0	38	104	3145728	60	50797
2026-01-07 17:21:19.45	331.43	23.91	-47.7	-62.9	3.6	1.51e+00	0	38	104	3145728	60	50664
2026-01-07 17:21:20.46	331.14	23.92	-47.8	-62.9	3.6	1.51e+00	0	38	104	3145728	60	50657
2026-01-07 17:21:21.47	330.86	23.93	-47.8	-62.9	3.6	1.51e+00	0	38	104	3145728	60	50722
2026-01-07 17:21:22.48	330.57	23.95	-47.8	-63.0	3.6	1.51e+00	0	38	104	3145728	60	50853
2026-01-07 17:21:23.49	330.29	23.96	-47.7	-62.9	3.6	1.51e+00	0	38	104	3145728	60	50589
2026-01-07 17:21:24.50	330.00	23.97	-47.7	-62.9	3.6	1.51e+00	0	38	104	3145728	60	50599
2026-01-07 17:21:25.51	329.72	23.98	-47.8	-62.9	3.6	1.51e+00	0	38	104	3145728	60	50650
2026-01-07 17:21:26.52	329.43	23.99	-47.7	-63.0	3.6	1.51e+00	0	38	104	3145728	60	50781
2026-01-07 17:21:27.53	329.14	24.00	-47.7	-62.9	3.6	1.51e+00	0	38	104	3145728	60	50581
2026-01-07 17:21:28.54	328.86	24.01	-47.8	-62.9	3.6	1.51e+00	0	38	104	3145728	60	50683
2026-01-07 17:21:29.55	328.57	24.02	-47.8	-62.9	3.6	1.51e+00	0	38	104	3145728	60	50567
2026-01-07 17:21:30.56	328.29	24.02	-47.8	-62.9	3.6	1.51e+00	0	38	104	3145728	60	50590
2026-01-07 17:21:31.57	328.00	24.03	-47.8	-63.0	3.6	1.51e+00	0	38	104	3145728	60	50841
2026-01-07 17:21:32.58	327.71	24.03	-47.8	-62.9	3.6	1.51e+00	0	38	104	3145728	60	50688
2026-01-07 17:21:33.59	327.43	24.04	-47.8	-62.9	3.6	1.51e+00	0	38	104	3145728	60	50726
2026-01-07 17:21:34.60	327.14	24.04	-47.8	-62.9	3.6	1.51e+00	0	38	104	3145728	60	50667
2026-01-07 17:21:35.61	326.85	24.04	-47.8	-63.0	3.6	1.51e+00	0	38	104	3145728	60	50854
2026-01-07 17:21:36.62	326.57	24.05	-47.7	-63.0	3.5	1.51e+00	0	38	104	3145728	60	50783
2026-01-07 17:21:37.63	326.28	24.05	-47.8	-62.9	3.5	1.51e+00	0	38	104	3145728	60	50629
2026-01-07 17:21:38.64	325.99	24.05	-47.8	-62.9	3.6	1.51e+00	0	38	104	3145728	60	50602
2026-01-07 17:21:39.65	325.71	24.05	-47.8	-63.0	3.6	1.51e+00	0	38	104	3145728	60	50769
2026-01-07 17:21:40.66	325.42	24.05	-47.8	-63.0	3.6	1.51e+00	0	38	104	3145728	60	50823
2026-01-07 17:21:41.67	325.13	24.04	-47.8	-63.0	3.6	1.51e+00	0	38	104	3145728	60	50812
2026-01-07 17:21:42.68	324.84	24.04	-47.8	-62.9	3.6	1.51e+00	0	38	104	3145728	60	50583
2026-01-07 17:21:43.69	324.56	24.04	-47.8	-62.9	3.6	1.51e+00	0	38	104	3145728	60	50677
2026-01-07 17:21:44.70	324.27	24.03	-47.7	-62.9	3.6	1.51e+00	0	38	104	3145728	60	50599
2026-01-07 17:21:45.71	323.98	24.03	-47.7	-62.9	3.6	1.51e+00	0	38	104	3145728	60	50564
2026-01-07 17:21:46.72	323.70	24.02	-47.8	-62.9	3.6	1.51e+00	0	38	104	3145728	60	50639
2026-01-07 17:21:47.73	323.41	24.02	-47.7	-62.9	3.6	1.51e+00	0	38	104	3145728	60	50583
2026-01-07 17:21:48.74	323.13	24.01	-47.8	-62.9	3.6	1.51e+00	0	38	104	3145728	60	50721
2026-01-07 17:21:49.75	322.84	24.00	-47.7	-62.9	3.6	1.51e+00	0	38	104	3145728	60	50609
2026-01-07 17:21:50.76	322.55	23.99	-47.8	-63.0	3.6	1.51e+00	0	38	104	3145728	60	50781
2026-01-07 17:21:51.77	322.27	23.98	-47.8	-62.9	3.6	1.51e+00	0	38	104	3145728	60	50615
2026-01-07 17:21:52.77	321.98	23.97	-47.7	-63.0	3.6	1.51e+00	0	38	104	3145728	60	50816
2026-01-07 17:21:53.78	321.70	23.96	-47.8	-62.9	3.6	1.51e+00	0	38	104	3145728	60	50561
2026-01-07 17:21:54.79	321.41	23.95	-47.8	-62.9	3.6	1.51e+00	0	38	104	3145728	60	50688
2026-01-07 17:21:55.80	321.13	23.94	-47.8	-63.0	3.6	1.51e+00	0	38	104	3145728	60	51023
2026-01-07 17:21:56.82	320.84	23.92	-47.7	-63.0	3.6	1.51e+00	0	38	104	3145728	60	50780
2026-01-07 17:21:57.82	320.56	23.91	-47.8	-62.9	3.6	1.51e+00	0	38	104	3145728	60	50617
2026-01-07 17:21:58.83	320.27	23.89	-47.8	-63.0	3.6	1.51e+00	0	38	104	3145728	60	50816
2026-01-07 17:21:59.84	319.99	23.88	-47.8	-63.0	3.6	1.51e+00	0	38	104	3145728	60	50787
2026-01-07 17:22:00.85	319.71	23.86	-47.8	-62.9	3.6	1.51e+00	0	38	104	3145728	60	50707
2026-01-07 17:22:01.86	319.42	23.84	-47.8	-62.9	3.6	1.51e+00	0	38	104	3145728	60	50591
2026-01-07 17:22:02.87	319.14	23.83	-47.8	-62.9	3.6	1.51e+00	0	38	104	3145728	60	50743
2026-01-07 17:22:03.88	318.86	23.81	-47.7	-63.0	3.5	1.51e+00	0	38	104	3145728	60	50770
2026-01-07 17:22:04.89	318.58	23.79	-47.8	-62.9	3.6	1.51e+00	0	38	104	3145728	60	50600
2026-01-07 17:22:05.90	318.29	23.77	-47.7	-62.9	3.6	1.51e+00	0	38	104	3145728	60	50532
2026-01-07 17:22:06.91	318.01	23.75	-47.8	-62.9	3.6	1.51e+00	0	38	104	3145728	60	50328
2026-01-07 17:22:07.92	317.73	23.72	-47.8	-62.9	3.6	1.51e+00	0	38	104	3145728	60	50720
2026-01-07 17:22:08.93	317.45	23.70	-47.8	-62.9	3.6	1.51e+00	0	38	104	3145728	60	50525
2026-01-07 17:22:09.94	317.17	23.68	-47.8	-62.9	3.6	1.51e+00	0	38	104	3145728	60	50470
2026-01-07 17:22:10.95	316.89	23.66	-47.7	-63.0	3.6	1.51e+00	0	38	104	3145728	60	50807
2026-01-07 17:22:11.96	316.61	23.63	-47.8	-62.9	3.6	1.51e+00	0	38	104	3145728	60	50700
2026-01-07 17:22:12.97	316.33	23.61	-47.8	-62.9	3.6	1.51e+00	0	38	104	3145728	60	50634
2026-01-07 17:22:13.98	316.05	23.58	-47.8	-62.9	3.6	1.51e+00	0	38	104	3145728	60	50527
2026-01-07 17:22:14.99	315.77	23.55	-47.8	-63.0	3.6	1.51e+00	0	38	104	3145728	60	50874
2026-01-07 17:22:16.00	315.49	23.53	-47.8	-62.9	3.6	1.51e+00	0	38	104	3145728	60	50714
2026-01-07 17:22:17.01	315.22	23.50	-47.8	-62.9	3.6	1.51e+00	0	38	104	3145728	60	50662
2026-01-07 17:22:18.02	314.94	23.47	-47.8	-62.9	3.6	1.51e+00	0	38	104	3145728	60	50689
2026-01-07 17:22:19.03	314.66	23.44	-47.8	-63.0	3.6	1.51e+00	0	38	104	3145728	60	50871
2026-01-07 17:22:20.04	314.39	23.41	-47.8	-62.9	3.6	1.51e+00	0	38	104	3145728	60	50731
2026-01-07 17:22:21.05	314.11	23.38	-47.7	-62.9	3.6	1.51e+00	0	38	104	3145728	60	50741
2026-01-07 17:22:22.06	313.84	23.35	-47.8	-63.0	3.6	1.51e+00	0	38	104	3145728	60	50822
2026-01-07 17:22:23.07	313.56	23.31	-47.8	-63.0	3.6	1.51e+00	0	38	104	3145728	60	50876
2026-01-07 17:22:24.08	313.29	23.28	-47.8	-62.9	3.6	1.51e+00	0	38	104	3145728	60	50652
2026-01-07 17:22:25.09	313.02	23.25	-47.8	-62.9	3.6	1.51e+00	0	38	104	3145728	60	50757
2026-01-07 17:22:26.10	312.75	23.21	-47.8	-62.9	3.6	1.51e+00	0	38	104	3145728	60	50748
2026-01-07 17:22:27.11	312.47	23.18	-47.8	-62.9	3.6	1.51e+00	0	38	104	3145728	60	50551
2026-01-07 17:22:28.12	312.20	23.14	-47.7	-62.9	3.6	1.51e+00	0	38	104	3145728	60	50584
2026-01-07 17:22:29.13	311.93	23.11	-47.8	-62.9	3.6	1.51e+00	0	38	104	3145728	60	50615
2026-01-07 17:22:30.14	311.66	23.07	-47.8	-63.0	3.6	1.51e+00	0	38	104	3145728	60	50809
2026-01-07 17:22:31.15	311.39	23.03	-47.8	-62.9	3.6	1.51e+00	0	38	104	3145728	60	50542
2026-01-07 17:22:32.16	311.12	22.99	-47.8	-63.0	3.6	1.51e+00	0	38	104	3145728	60	51071
2026-01-07 17:22:33.17	310.86	22.96	-47.8	-62.9	3.6	1.51e+00	0	38	104	3145728	60	50500
2026-01-07 17:22:34.18	310.59	22.92	-47.8	-62.9	3.6	1.51e+00	0	38	104	3145728	60	50603
2026-01-07 17:22:35.19	310.32	22.88	-47.8	-63.0	3.6	1.51e+00	0	38	104	3145728	60	50798
2026-01-07 17:22:36.20	310.06	22.84	-47.8	-62.9	3.6	1.51e+00	0	38	104	3145728	60	50577
2026-01-07 17:22:37.21	309.79	22.80	-47.8	-62.9	3.6	1.51e+00	0	38	104	3145728	60	50452
2026-01-07 17:22:38.21	309.53	22.75	-47.8	-62.9	3.6	1.51e+00	0	38	104	3145728	60	50664
2026-01-07 17:22:39.22	309.27	22.71	-47.8	-62.9	3.6	1.51e+00	0	38	104	3145728	60	50411
2026-01-07 17:22:40.23	309.00	22.67	-47.8	-63.0	3.6	1.51e+00	0	38	104	3145728	60	50892
2026-01-07 17:22:41.24	308.74	22.63	-47.8	-62.9	3.6	1.51e+00	0	38	104	3145728	60	50563
2026-01-07 17:22:42.25	308.48	22.58	-47.8	-62.9	3.6	1.51e+00	0	38	104	3145728	60	50600
2026-01-07 17:22:43.26	308.22	22.54	-47.8	-62.9	3.6	1.51e+00	0	38	104	3145728	60	50760
2026-01-07 17:22:44.27	307.96	22.49	-47.8	-62.9	3.5	1.51e+00	0	38	104	3145728	60	50579
2026-01-07 17:22:45.28	307.70	22.45	-47.8	-62.9	3.6	1.51e+00	0	38	104	3145728	60	50601
2026-01-07 17:22:46.29	307.44	22.40	-47.8	-62.9	3.6	1.51e+00	0	38	104	3145728	60	50731
2026-01-07 17:22:47.30	307.18	22.35	-47.7	-62.9	3.6	1.51e+00	0	38	104	3145728	60	50288
2026-01-07 17:22:48.31	306.92	22.31	-47.8	-63.0	3.6	1.51e+00	0	38	104	3145728	60	50769
2026-01-07 17:22:49.32	306.67	22.26	-47.8	-62.9	3.6	1.51e+00	0	38	104	3145728	60	50759
2026-01-07 17:22:50.33	306.41	22.21	-47.8	-62.9	3.6	1.51e+00	0	38	104	3145728	60	50655
2026-01-07 17:22:51.34	306.16	22.16	-47.8	-63.0	3.6	1.51e+00	0	38	104	3145728	60	50790
2026-01-07 17:22:52.35	305.90	22.11	-47.8	-62.9	3.6	1.51e+00	0	38	104	3145728	60	50690
2026-01-07 17:22:53.36	305.65	22.06	-47.8	-62.9	3.6	1.51e+00	0	38	104	3145728	60	50683
2026-01-07 17:22:54.37	305.40	22.01	-47.8	-62.9	3.6	1.51e+00	0	38	104	3145728	60	50302
2026-01-07 17:22:55.38	305.15	21.96	-47.8	-62.9	3.6	1.51e+00	0	38	104	3145728	60	50668
2026-01-07 17:22:56.39	304.90	21.91	-47.8	-62.9	3.6	1.51e+00	0	38	104	3145728	60	50651
2026-01-07 17:22:57.40	304.65	21.86	-47.8	-62.9	3.6	1.51e+00	0	38	104	3145728	60	50554
2026-01-07 17:22:58.41	304.40	21.81	-47.8	-62.9	3.6	1.51e+00	0	38	104	3145728	60	50441
2026-01-07 17:22:59.42	304.15	21.75	-47.8	-62.9	3.6	1.51e+00	0	38	104	3145728	60	50539
2026-01-07 17:23:00.43	303.90	21.70	-47.8	-62.9	3.6	1.51e+00	0	38	104	3145728	60	50668
2026-01-07 17:23:01.44	303.66	21.65	-47.8	-62.9	3.6	1.51e+00	0	38	104	3145728	60	50660
2026-01-07 17:23:02.45	303.41	21.59	-47.8	-63.0	3.5	1.51e+00	0	38	104	3145728	60	50787
2026-01-07 17:23:03.46	303.17	21.54	-47.8	-63.0	3.6	1.51e+00	0	38	104	3145728	60	50962
2026-01-07 17:23:04.46	302.93	21.48	-47.8	-63.0	3.6	1.51e+00	0	38	104	3145728	60	50919
2026-01-07 17:23:05.48	302.68	21.43	-47.8	-62.9	3.6	1.51e+00	0	38	104	3145728	60	50666
2026-01-07 17:23:06.49	302.44	21.37	-47.8	-63.0	3.6	1.51e+00	0	38	104	3145728	60	50917
2026-01-07 17:23:07.49	302.20	21.32	-47.8	-63.0	3.6	1.51e+00	0	38	104	3145728	60	50909
2026-01-07 17:23:08.50	301.96	21.26	-47.8	-62.9	3.6	1.51e+00	0	38	104	3145728	60	50631
2026-01-07 17:23:09.51	301.72	21.20	-47.8	-62.9	3.5	1.51e+00	0	38	104	3145728	60	50515
2026-01-07 17:23:10.53	301.48	21.14	-47.8	-63.0	3.6	1.51e+00	0	38	104	3145728	60	50868
2026-01-07 17:23:11.53	301.24	21.09	-47.8	-63.0	3.6	1.51e+00	0	38	104	3145728	60	50877
2026-01-07 17:23:12.54	301.01	21.03	-47.8	-63.0	3.6	1.51e+00	0	38	104	3145728	60	50839
2026-01-07 17:23:13.56	300.77	20.97	-47.8	-62.9	3.6	1.51e+00	0	38	104	3145728	60	50659
2026-01-07 17:23:14.57	300.53	20.91	-47.8	-62.9	3.6	1.51e+00	0	38	104	3145728	60	50710
2026-01-07 17:23:15.58	300.30	20.85	-47.8	-63.0	3.6	1.51e+00	0	38	104	3145728	60	50767
2026-01-07 17:23:16.59	300.07	20.79	-47.8	-63.0	3.6	1.51e+00	0	38	104	3145728	60	50868
2026-01-07 17:23:17.60	299.84	20.73	-47.8	-62.9	3.6	1.51e+00	0	38	104	3145728	60	50696
2026-01-07 17:23:18.60	299.61	20.67	-47.8	-62.9	3.6	1.51e+00	0	38	104	3145728	60	50746
2026-01-07 17:23:19.61	299.38	20.61	-47.8	-62.9	3.6	1.51e+00	0	38	104	3145728	60	50754
2026-01-07 17:23:20.62	299.15	20.55	-47.8	-62.9	3.6	1.51e+00	0	38	104	3145728	60	50542
2026-01-07 17:23:21.63	298.92	20.49	-47.8	-62.9	3.6	1.51e+00	0	38	104	3145728	60	50527
2026-01-07 17:23:22.64	298.69	20.43	-47.8	-63.0	3.6	1.51e+00	0	38	104	3145728	60	51059
2026-01-07 17:23:23.65	298.46	20.37	-47.8	-62.9	3.6	1.51e+00	0	38	104	3145728	60	50516
2026-01-07 17:23:24.66	298.24	20.30	-47.8	-62.9	3.6	1.51e+00	0	38	104	3145728	60	50645
2026-01-07 17:23:25.67	298.01	20.24	-47.8	-62.9	3.6	1.51e+00	0	38	104	3145728	60	50724
2026-01-07 17:23:26.68	297.79	20.18	-47.8	-62.9	3.6	1.51e+00	0	38	104	3145728	60	50624
2026-01-07 17:23:27.69	297.57	20.11	-47.8	-63.0	3.6	1.51e+00	0	38	104	3145728	60	51032
2026-01-07 17:23:28.70	297.35	20.05	-47.8	-62.9	3.6	1.51e+00	0	38	104	3145728	60	50716
2026-01-07 17:23:29.71	297.12	19.99	-47.8	-62.9	3.6	1.51e+00	0	38	104	3145728	60	50717
2026-01-07 17:23:30.72	296.90	19.92	-47.8	-63.0	3.6	1.51e+00	0	39	104	3145728	60	50822
2026-01-07 17:23:31.73	296.68	19.86	-47.8	-63.0	3.6	1.51e+00	0	38	104	3145728	60	50928
2026-01-07 17:23:32.74	296.47	19.79	-47.8	-63.0	3.6	1.51e+00	0	38	104	3145728	60	50853
2026-01-07 17:23:33.75	296.25	19.73	-47.8	-63.0	3.6	1.51e+00	0	38	104	3145728	60	50928
2026-01-07 17:23:34.76	296.03	19.66	-47.8	-62.9	3.6	1.51e+00	0	38	104	3145728	60	50714
2026-01-07 17:23:35.77	295.82	19.60	-47.8	-62.9	3.6	1.51e+00	0	38	104	3145728	60	50670
2026-01-07 17:23:36.78	295.60	19.53	-47.8	-62.9	3.6	1.51e+00	0	38	104	3145728	60	50607
2026-01-07 17:23:37.79	295.39	19.47	-47.8	-63.0	3.6	1.51e+00	0	38	104	3145728	60	50845
2026-01-07 17:23:38.80	295.18	19.40	-47.8	-62.9	3.6	1.51e+00	0	38	104	3145728	60	50752
2026-01-07 17:23:39.81	294.96	19.33	-47.8	-63.0	3.6	1.51e+00	0	38	104	3145728	60	50800
2026-01-07 17:23:40.81	294.76	19.27	-47.8	-63.0	3.6	1.51e+00	0	38	104	3145728	60	50786
2026-01-07 17:23:41.83	294.54	19.20	-47.8	-63.0	3.6	1.51e+00	0	38	104	3145728	60	50947
2026-01-07 17:23:42.84	294.34	19.13	-47.8	-63.0	3.6	1.51e+00	0	38	104	3145728	60	51037
2026-01-07 17:23:43.85	294.13	19.06	-47.8	-63.0	3.6	1.51e+00	0	38	104	3145728	60	50787
2026-01-07 17:23:44.86	293.92	19.00	-47.8	-63.0	3.6	1.51e+00	0	38	104	3145728	60	50824
2026-01-07 17:23:45.87	293.71	18.93	-47.8	-62.9	3.6	1.51e+00	0	38	104	3145728	60	50721
2026-01-07 17:23:46.88	293.51	18.86	-47.8	-62.9	3.6	1.51e+00	0	38	104	3145728	60	50600
2026-01-07 17:23:47.89	293.30	18.79	-47.8	-62.9	3.6	1.51e+00	0	38	104	3145728	60	50596
2026-01-07 17:23:48.90	293.10	18.72	-47.8	-62.9	3.5	1.51e+00	0	38	104	3145728	60	50745
2026-01-07 17:23:49.91	292.90	18.66	-47.8	-62.9	3.6	1.51e+00	0	38	104	3145728	60	50641
2026-01-07 17:23:50.92	292.70	18.59	-47.8	-62.9	3.6	1.51e+00	0	38	104	3145728	60	50686
2026-01-07 17:23:51.93	292.50	18.52	-47.8	-63.0	3.6	1.51e+00	0	38	104	3145728	60	51006
2026-01-07 17:23:52.93	292.30	18.45	-47.8	-62.9	3.6	1.51e+00	0	38	104	3145728	60	50753
2026-01-07 17:23:53.94	292.10	18.38	-47.8	-63.0	3.6	1.51e+00	0	38	104	3145728	60	50800
2026-01-07 17:23:54.96	291.90	18.31	-47.8	-63.0	3.6	1.51e+00	0	38	104	3145728	60	50810
2026-01-07 17:23:55.97	291.70	18.24	-47.8	-63.0	3.6	1.51e+00	0	38	104	3145728	60	50883
2026-01-07 17:23:56.98	291.51	18.17	-47.8	-63.0	3.6	1.51e+00	0	38	104	3145728	60	50950
2026-01-07 17:23:57.98	291.31	18.10	-47.8	-62.9	3.6	1.51e+00	0	38	104	3145728	60	50589
2026-01-07 17:23:58.99	291.12	18.03	-47.8	-63.0	3.6	1.51e+00	0	38	104	3145728	60	50825
2026-01-07 17:24:00.01	290.92	17.96	-47.8	-63.0	3.6	1.51e+00	0	38	104	3145728	60	50875
2026-01-07 17:24:01.01	290.73	17.89	-47.8	-63.0	3.6	1.51e+00	0	38	104	3145728	60	50776
2026-01-07 17:24:02.02	290.54	17.82	-47.8	-62.9	3.6	1.51e+00	0	38	104	3145728	60	50647
2026-01-07 17:24:03.03	290.35	17.75	-47.8	-63.0	3.6	1.51e+00	0	38	104	3145728	60	50825
2026-01-07 17:24:04.04	290.16	17.68	-47.8	-63.0	3.6	1.51e+00	0	38	104	3145728	60	50781
2026-01-07 17:24:05.06	289.97	17.61	-47.8	-62.9	3.6	1.51e+00	0	38	104	3145728	60	50648
2026-01-07 17:24:06.06	289.78	17.54	-47.8	-62.9	3.6	1.51e+00	0	38	104	3145728	60	50682
2026-01-07 17:24:07.07	289.60	17.47	-47.8	-62.9	3.6	1.51e+00	0	38	104	3145728	60	50757
2026-01-07 17:24:08.08	289.41	17.40	-47.8	-62.9	3.6	1.51e+00	0	38	104	3145728	60	50617
2026-01-07 17:24:09.09	289.23	17.32	-47.8	-63.0	3.6	1.51e+00	0	38	104	3145728	60	50873
2026-01-07 17:24:10.10	289.04	17.25	-47.8	-63.0	3.6	1.51e+00	0	38	104	3145728	60	50859
2026-01-07 17:24:11.11	288.86	17.18	-47.8	-62.9	3.6	1.51e+00	0	38	104	3145728	60	50720
2026-01-07 17:24:12.12	288.68	17.11	-47.8	-63.0	3.6	1.51e+00	0	38	104	3145728	60	50934
2026-01-07 17:24:13.13	288.49	17.04	-47.8	-63.0	3.6	1.51e+00	0	38	104	3145728	60	50857
2026-01-07 17:24:14.14	288.31	16.97	-47.8	-62.9	3.6	1.51e+00	0	38	104	3145728	60	50710
2026-01-07 17:24:15.15	288.13	16.89	-47.8	-62.9	3.6	1.51e+00	0	38	104	3145728	60	50650
2026-01-07 17:24:16.16	287.95	16.82	-47.8	-62.9	3.6	1.51e+00	0	38	104	3145728	60	50667
2026-01-07 17:24:17.17	287.78	16.75	-47.8	-63.0	3.6	1.51e+00	0	38	104	3145728	60	50862
2026-01-07 17:24:18.18	287.60	16.68	-47.8	-62.9	3.6	1.51e+00	0	38	104	3145728	60	50689
2026-01-07 17:24:19.19	287.42	16.61	-47.8	-63.0	3.6	1.51e+00	0	38	104	3145728	60	50938
2026-01-07 17:24:20.20	287.25	16.53	-47.8	-63.0	3.6	1.51e+00	0	38	104	3145728	60	50904
2026-01-07 17:24:21.21	287.07	16.46	-47.8	-63.0	3.6	1.51e+00	0	38	104	3145728	60	50919
2026-01-07 17:24:22.22	286.90	16.39	-47.8	-63.0	3.6	1.51e+00	0	38	104	3145728	60	50922
2026-01-07 17:24:23.23	286.72	16.32	-47.8	-63.0	3.6	1.51e+00	0	38	104	3145728	60	50808
2026-01-07 17:24:24.24	286.55	16.25	-47.8	-62.9	3.6	1.51e+00	0	38	104	3145728	60	50760
2026-01-07 17:24:25.25	286.38	16.17	-47.8	-62.9	3.6	1.51e+00	0	38	104	3145728	60	50733
2026-01-07 17:24:26.26	286.21	16.10	-47.8	-62.9	3.6	1.51e+00	0	38	104	3145728	60	50731
2026-01-07 17:24:27.27	286.04	16.03	-47.8	-63.0	3.6	1.51e+00	0	38	104	3145728	60	50874
2026-01-07 17:24:28.28	285.87	15.96	-47.8	-62.9	3.6	1.51e+00	0	38	104	3145728	60	50641
2026-01-07 17:24:29.29	285.70	15.88	-47.8	-63.0	3.6	1.51e+00	0	38	104	3145728	60	50844
2026-01-07 17:24:30.30	285.53	15.81	-47.8	-62.9	3.6	1.51e+00	0	38	104	3145728	60	50536
2026-01-07 17:24:31.31	285.37	15.74	-47.8	-62.9	3.6	1.51e+00	0	38	104	3145728	60	50696
2026-01-07 17:24:32.32	285.20	15.66	-47.8	-62.9	3.6	1.51e+00	0	38	104	3145728	60	50364
2026-01-07 17:24:33.33	285.04	15.59	-47.8	-62.9	3.6	1.51e+00	0	38	104	3145728	60	50433
2026-01-07 17:24:34.34	284.87	15.52	-47.8	-63.0	3.6	1.51e+00	0	38	104	3145728	60	50866
2026-01-07 17:24:35.35	284.71	15.45	-47.8	-62.9	3.6	1.51e+00	0	38	104	3145728	60	50679
2026-01-07 17:24:36.36	284.55	15.37	-47.8	-62.9	3.6	1.51e+00	0	38	104	3145728	60	50578
2026-01-07 17:24:37.37	284.39	15.30	-47.8	-63.0	3.6	1.51e+00	0	38	104	3145728	60	50993
2026-01-07 17:24:38.38	284.22	15.23	-47.8	-63.0	3.6	1.51e+00	0	38	104	3145728	60	50768
2026-01-07 17:24:39.39	284.06	15.16	-47.8	-62.9	3.6	1.51e+00	0	38	104	3145728	60	50578
2026-01-07 17:24:40.40	283.91	15.08	-47.8	-62.9	3.6	1.51e+00	0	38	104	3145728	60	50614
2026-01-07 17:24:41.41	283.75	15.01	-47.8	-63.0	3.6	1.51e+00	0	38	104	3145728	60	50813
2026-01-07 17:24:42.42	283.59	14.94	-47.8	-62.9	3.6	1.51e+00	0	38	104	3145728	60	50673
2026-01-07 17:24:43.43	283.43	14.86	-47.8	-63.0	3.6	1.51e+00	0	38	104	3145728	60	50819
2026-01-07 17:24:44.44	283.28	14.79	-47.8	-63.0	3.6	1.51e+00	0	38	104	3145728	60	50830
2026-01-07 17:24:45.44	283.12	14.72	-47.8	-62.9	3.6	1.51e+00	0	38	104	3145728	60	50656
2026-01-07 17:24:46.45	282.97	14.65	-47.8	-63.0	3.6	1.51e+00	0	38	104	3145728	60	50906
2026-01-07 17:24:47.46	282.81	14.57	-47.8	-63.0	3.6	1.51e+00	0	38	104	3145728	60	50786
2026-01-07 17:24:48.47	282.66	14.50	-47.8	-63.0	3.6	1.51e+00	0	38	104	3145728	60	50885
2026-01-07 17:24:49.48	282.51	14.43	-47.8	-62.9	3.6	1.51e+00	0	38	104	3145728	60	50709
2026-01-07 17:24:50.49	282.36	14.35	-47.8	-63.0	3.6	1.51e+00	0	38	104	3145728	60	50890
2026-01-07 17:24:51.50	282.21	14.28	-47.8	-62.9	3.6	1.51e+00	0	38	104	3145728	60	50638
2026-01-07 17:24:52.51	282.06	14.21	-47.8	-62.9	3.6	1.51e+00	0	38	104	3145728	60	50628
2026-01-07 17:24:53.52	281.91	14.14	-47.8	-63.0	3.6	1.51e+00	0	38	104	3145728	60	50820
2026-01-07 17:24:54.53	281.76	14.06	-47.8	-63.0	3.6	1.51e+00	0	38	104	3145728	60	50822
2026-01-07 17:24:55.54	281.61	13.99	-47.8	-62.9	3.6	1.51e+00	0	38	104	3145728	60	50682
2026-01-07 17:24:56.55	281.46	13.92	-47.8	-63.0	3.6	1.51e+00	0	38	104	3145728	60	50850
2026-01-07 17:24:57.56	281.32	13.85	-47.8	-62.9	3.6	1.51e+00	0	38	104	3145728	60	50701
2026-01-07 17:24:58.57	281.17	13.77	-47.8	-62.9	3.6	1.51e+00	0	38	104	3145728	60	50570
2026-01-07 17:24:59.58	281.03	13.70	-47.8	-62.9	3.6	1.51e+00	0	38	104	3145728	60	50742
2026-01-07 17:25:00.59	280.88	13.63	-47.8	-62.9	3.6	1.51e+00	0	38	104	3145728	60	50650
2026-01-07 17:25:01.60	280.74	13.56	-47.8	-62.9	3.6	1.51e+00	0	38	104	3145728	60	50723
2026-01-07 17:25:02.61	280.60	13.48	-47.8	-63.0	3.6	1.51e+00	0	38	104	3145728	60	50841
2026-01-07 17:25:03.62	280.45	13.41	-47.8	-63.0	3.6	1.51e+00	0	38	104	3145728	60	50883
2026-01-07 17:25:04.63	280.31	13.34	-47.8	-63.0	3.6	1.51e+00	0	38	104	3145728	60	51002
2026-01-07 17:25:05.64	280.17	13.27	-47.8	-62.9	3.6	1.51e+00	0	38	104	3145728	60	50400
2026-01-07 17:25:06.65	280.03	13.19	-47.8	-62.9	3.6	1.51e+00	0	38	104	3145728	60	50664
2026-01-07 17:25:07.66	279.89	13.12	-47.8	-63.0	3.6	1.51e+00	0	38	104	3145728	60	50877
2026-01-07 17:25:08.67	279.75	13.05	-47.8	-62.9	3.6	1.51e+00	0	38	104	3145728	60	50728
2026-01-07 17:25:09.68	279.62	12.98	-47.8	-62.9	3.6	1.51e+00	0	38	104	3145728	60	50737
2026-01-07 17:25:10.69	279.48	12.91	-47.8	-62.9	3.6	1.51e+00	0	38	104	3145728	60	50586
2026-01-07 17:25:11.70	279.34	12.83	-47.8	-63.0	3.6	1.51e+00	0	38	104	3145728	60	50805
2026-01-07 17:25:12.71	279.21	12.76	-47.8	-62.9	3.6	1.51e+00	0	38	104	3145728	60	50450
2026-01-07 17:25:13.71	279.07	12.69	-47.8	-63.0	3.6	1.51e+00	0	38	104	3145728	60	50873
2026-01-07 17:25:14.72	278.94	12.62	-47.8	-63.0	3.6	1.51e+00	0	38	104	3145728	60	50783
2026-01-07 17:25:15.73	278.80	12.55	-47.8	-63.0	3.6	1.51e+00	0	38	104	3145728	60	50959
2026-01-07 17:25:16.74	278.67	12.47	-47.8	-63.0	3.6	1.51e+00	0	38	104	3145728	60	50837
2026-01-07 17:25:17.75	278.54	12.40	-47.8	-62.9	3.6	1.51e+00	0	38	104	3145728	60	50705
2026-01-07 17:25:18.76	278.41	12.33	-47.8	-62.9	3.6	1.51e+00	0	38	104	3145728	60	50653
2026-01-07 17:25:19.77	278.28	12.26	-47.8	-62.9	3.6	1.51e+00	0	38	104	3145728	60	50744
2026-01-07 17:25:20.78	278.15	12.19	-47.8	-63.0	3.6	1.51e+00	0	38	104	3145728	60	50818
2026-01-07 17:25:21.79	278.02	12.12	-47.8	-62.9	3.6	1.51e+00	0	38	104	3145728	60	50757
2026-01-07 17:25:22.80	277.89	12.04	-47.8	-62.9	3.6	1.51e+00	0	38	104	3145728	60	50739
2026-01-07 17:25:23.81	277.76	11.97	-47.8	-63.0	3.6	1.51e+00	0	38	104	3145728	60	50790
2026-01-07 17:25:24.82	277.63	11.90	-47.8	-63.0	3.6	1.51e+00	0	38	104	3145728	60	50914
2026-01-07 17:25:25.83	277.50	11.83	-47.8	-62.9	3.6	1.51e+00	0	38	104	3145728	60	50692
2026-01-07 17:25:26.84	277.38	11.76	-47.8	-62.9	3.6	1.51e+00	0	38	104	3145728	60	50731
2026-01-07 17:25:27.85	277.25	11.69	-47.8	-62.9	3.6	1.51e+00	0	38	104	3145728	60	50695
2026-01-07 17:25:28.86	277.12	11.62	-47.8	-63.0	3.6	1.51e+00	0	38	104	3145728	60	50771
2026-01-07 17:25:29.87	277.00	11.55	-47.8	-63.0	3.6	1.51e+00	0	38	104	3145728	60	50868
2026-01-07 17:25:30.88	276.87	11.48	-47.8	-62.9	3.6	1.51e+00	0	38	104	3145728	60	50686
2026-01-07 17:25:31.89	276.75	11.41	-47.8	-62.9	3.6	1.51e+00	0	38	104	3145728	60	50548
2026-01-07 17:25:32.90	276.63	11.33	-47.8	-63.0	3.6	1.51e+00	0	38	104	3145728	60	50827
2026-01-07 17:25:33.90	276.51	11.26	-47.8	-62.9	3.6	1.51e+00	0	38	104	3145728	60	50690
2026-01-07 17:25:34.91	276.38	11.19	-47.8	-62.9	3.6	1.51e+00	0	38	104	3145728	60	50616
2026-01-07 17:25:35.92	276.26	11.12	-47.8	-62.9	3.6	1.51e+00	0	38	104	3145728	60	50553
2026-01-07 17:25:36.93	276.14	11.05	-47.8	-62.9	3.6	1.51e+00	0	38	104	3145728	60	50655
2026-01-07 17:25:37.94	276.02	10.98	-47.8	-63.0	3.6	1.51e+00	0	38	104	3145728	60	50908
2026-01-07 17:25:38.95	275.90	10.91	-47.8	-63.0	3.6	1.51e+00	0	38	104	3145728	60	50787
2026-01-07 17:25:39.96	275.78	10.84	-47.8	-63.0	3.6	1.51e+00	0	38	104	3145728	60	50789
2026-01-07 17:25:40.97	275.67	10.77	-47.8	-63.0	3.6	1.51e+00	0	38	104	3145728	60	50895
2026-01-07 17:25:41.98	275.55	10.70	-47.8	-63.0	3.6	1.51e+00	0	38	104	3145728	60	50793
2026-01-07 17:25:42.99	275.43	10.63	-47.8	-63.0	3.6	1.51e+00	0	38	104	3145728	60	50779
2026-01-07 17:25:44.00	275.31	10.56	-47.8	-62.9	3.6	1.51e+00	0	38	104	3145728	60	50697
2026-01-07 17:25:45.01	275.20	10.49	-47.8	-62.9	3.6	1.51e+00	0	38	104	3145728	60	50487
2026-01-07 17:25:46.02	275.08	10.42	-47.8	-63.0	3.6	1.51e+00	0	38	104	3145728	60	50774
2026-01-07 17:25:47.03	274.97	10.35	-47.8	-63.0	3.6	1.51e+00	0	38	104	3145728	60	50976
2026-01-07 17:25:48.04	274.85	10.28	-47.8	-62.9	3.6	1.51e+00	0	38	104	3145728	60	50680
2026-01-07 17:25:49.05	274.74	10.21	-47.8	-63.0	3.6	1.51e+00	0	38	104	3145728	60	50842
2026-01-07 17:25:50.06	274.63	10.14	-47.8	-62.9	3.6	1.51e+00	0	38	104	3145728	60	50559
2026-01-07 17:25:51.07	274.51	10.08	-47.8	-62.9	3.6	1.51e+00	0	38	104	3145728	60	50696
2026-01-07 17:25:52.08	274.40	10.01	-47.8	-62.9	3.6	1.51e+00	0	38	104	3145728	60	50751
2026-01-07 17:25:53.09	274.29	9.94	-47.8	-63.0	3.6	1.51e+00	0	38	104	3145728	60	50832
2026-01-07 17:25:54.10	274.18	9.87	-47.8	-62.9	3.6	1.51e+00	0	38	104	3145728	60	50733
2026-01-07 17:25:55.11	274.07	9.80	-47.8	-62.9	3.6	1.51e+00	0	38	104	3145728	60	50611
2026-01-07 17:25:56.12	273.96	9.73	-47.8	-63.0	3.6	1.51e+00	0	38	104	3145728	60	50777
2026-01-07 17:25:57.13	273.85	9.66	-47.8	-63.0	3.6	1.51e+00	0	38	104	3145728	60	50892
2026-01-07 17:25:58.14	273.74	9.59	-47.8	-63.0	3.6	1.51e+00	0	38	104	3145728	60	50846
2026-01-07 17:25:59.15	273.63	9.52	-47.8	-62.9	3.6	1.51e+00	0	38	104	3145728	60	50595
2026-01-07 17:26:00.16	273.52	9.46	-47.8	-63.0	3.6	1.51e+00	0	38	104	3145728	60	50913
2026-01-07 17:26:01.17	273.42	9.39	-47.8	-62.9	3.6	1.51e+00	0	38	104	3145728	60	50729
2026-01-07 17:26:02.18	273.31	9.32	-47.8	-63.0	3.6	1.51e+00	0	38	104	3145728	60	51016
2026-01-07 17:26:03.19	273.20	9.25	-47.8	-63.0	3.6	1.51e+00	0	38	104	3145728	60	50914
2026-01-07 17:26:04.20	273.10	9.18	-47.8	-63.0	3.6	1.51e+00	0	38	104	3145728	60	50923
2026-01-07 17:26:05.21	272.99	9.11	-47.8	-63.0	3.6	1.51e+00	0	38	104	3145728	60	50865
2026-01-07 17:26:06.22	272.89	9.05	-47.8	-62.9	3.6	1.51e+00	0	38	104	3145728	60	50662
2026-01-07 17:26:07.23	272.78	8.98	-47.8	-62.9	3.6	1.51e+00	0	38	104	3145728	60	50603
2026-01-07 17:26:08.24	272.68	8.91	-47.8	-63.0	3.6	1.51e+00	0	38	104	3145728	60	51046
2026-01-07 17:26:09.25	272.58	8.84	-47.8	-63.0	3.6	1.51e+00	0	38	104	3145728	60	50987
2026-01-07 17:26:10.26	272.47	8.78	-47.8	-62.9	3.6	1.51e+00	0	38	104	3145728	60	50690
2026-01-07 17:26:11.27	272.37	8.71	-47.8	-62.9	3.6	1.51e+00	0	38	104	3145728	60	50651
2026-01-07 17:26:12.28	272.27	8.64	-47.8	-63.0	3.6	1.51e+00	0	38	104	3145728	60	50969
2026-01-07 17:26:13.29	272.17	8.57	-47.8	-62.9	3.6	1.51e+00	0	38	104	3145728	60	50543
2026-01-07 17:26:14.30	272.07	8.51	-47.8	-62.9	3.6	1.51e+00	0	38	104	3145728	60	50623
2026-01-07 17:26:15.31	271.97	8.44	-47.8	-62.9	3.6	1.51e+00	0	38	104	3145728	60	50622
2026-01-07 17:26:16.32	271.87	8.37	-47.8	-63.0	3.6	1.51e+00	0	38	104	3145728	60	50822
2026-01-07 17:26:17.33	271.77	8.31	-47.8	-62.9	3.6	1.51e+00	0	38	104	3145728	60	50723
2026-01-07 17:26:18.34	271.67	8.24	-47.8	-62.9	3.6	1.51e+00	0	38	104	3145728	60	50424
2026-01-07 17:26:19.35	271.57	8.17	-47.8	-63.0	3.6	1.51e+00	0	38	104	3145728	60	50902
2026-01-07 17:26:20.36	271.47	8.11	-47.8	-62.9	3.6	1.51e+00	0	38	104	3145728	60	50652
2026-01-07 17:26:21.37	271.37	8.04	-47.8	-63.0	3.6	1.51e+00	0	38	104	3145728	60	50974
