passes_logs/2026/01/07/R4.6S_Anadyr/R4.6S_Anadyr__20260107_185403_SUOMI_NPP_rec.log

#Pass ID: 20260107_185403_SUOMI NPP
#Satellite: SUOMI NPP
#Configuration: NPP
#almurnet v.1.7.20251203
#Start time: 2026-01-07 18:54:05

#Version: 2.2.20231116
#Station: R4.6S_Anadyr
#Location: 177.4865 lon 64.73178 lat
#TLE: 1 37849U 11061A   26004.95404768  .00000136  00000+0  85334-4 0  9991
#TLE: 2 37849  98.7801 307.0898 0002575  80.6707 279.4760 14.19522289735281

#Time	Az	El	Level	Level2	SNR	BER	BlckErr	Temp	State	Recorded	gain1	gain2
2026-01-07 18:54:05.40	45.05	0.09	-49.1	-59.8	3.5	8.45e-01	0	36	0	0	60	35400
2026-01-07 18:54:06.41	44.98	0.14	-49.1	-64.4	3.6	1.51e+00	0	36	104	0	60	60199
2026-01-07 18:54:07.42	44.90	0.19	-49.1	-64.5	3.6	1.51e+00	0	37	104	0	60	60377
2026-01-07 18:54:08.42	44.83	0.23	-49.1	-64.5	3.6	1.51e+00	0	37	104	0	60	60456
2026-01-07 18:54:09.43	44.76	0.28	-49.1	-64.4	3.6	1.51e+00	0	37	104	0	60	59987
2026-01-07 18:54:10.44	44.68	0.33	-49.1	-64.5	3.6	1.51e+00	0	37	104	0	60	60599
2026-01-07 18:54:11.45	44.60	0.38	-49.1	-64.5	3.6	1.51e+00	0	37	104	0	60	60646
2026-01-07 18:54:12.46	44.53	0.43	-49.1	-64.5	3.6	1.51e+00	0	37	104	0	60	60915
2026-01-07 18:54:13.47	44.45	0.48	-49.1	-64.5	3.6	1.51e+00	0	37	104	0	60	60735
2026-01-07 18:54:14.48	44.38	0.53	-49.1	-64.5	3.6	1.51e+00	0	37	104	0	60	60658
2026-01-07 18:54:15.49	44.30	0.58	-49.1	-64.5	3.6	1.51e+00	0	37	104	0	60	60883
2026-01-07 18:54:16.50	44.22	0.63	-49.1	-64.5	3.6	1.51e+00	0	37	104	0	60	60752
2026-01-07 18:54:17.51	44.14	0.68	-49.1	-64.5	3.6	1.51e+00	0	37	104	0	60	60627
2026-01-07 18:54:18.52	44.07	0.73	-49.1	-64.5	3.6	1.51e+00	0	37	104	0	60	60722
2026-01-07 18:54:19.53	43.99	0.78	-49.1	-64.5	3.6	1.51e+00	0	37	104	0	60	60916
2026-01-07 18:54:20.54	43.91	0.83	-49.1	-64.5	3.6	1.51e+00	0	37	104	0	60	60495
2026-01-07 18:54:21.55	43.83	0.88	-49.1	-64.5	3.6	1.51e+00	0	37	104	0	60	60581
2026-01-07 18:54:22.56	43.75	0.93	-49.1	-64.5	3.6	1.51e+00	0	37	104	0	60	60826
2026-01-07 18:54:23.57	43.67	0.98	-49.1	-64.5	3.6	1.51e+00	0	37	104	0	60	60351
2026-01-07 18:54:24.57	43.60	1.03	-49.1	-64.5	3.6	1.51e+00	0	37	104	0	60	60611
2026-01-07 18:54:25.58	43.52	1.08	-49.1	-64.5	3.5	1.51e+00	0	37	104	0	60	60587
2026-01-07 18:54:26.59	43.44	1.13	-49.1	-64.5	3.6	1.51e+00	0	37	104	0	60	60480
2026-01-07 18:54:27.60	43.36	1.18	-49.1	-64.5	3.6	1.51e+00	0	37	104	0	60	60351
2026-01-07 18:54:28.62	43.27	1.23	-49.1	-64.5	3.6	1.51e+00	0	37	104	0	60	60791
2026-01-07 18:54:29.62	43.19	1.28	-49.1	-64.5	3.6	1.51e+00	0	37	104	0	60	60693
2026-01-07 18:54:30.64	43.11	1.33	-49.1	-64.5	3.6	1.51e+00	0	37	104	0	60	60563
2026-01-07 18:54:31.65	43.03	1.38	-49.1	-64.5	3.6	1.51e+00	0	37	104	0	60	60870
2026-01-07 18:54:32.66	42.95	1.44	-49.1	-64.5	3.6	1.51e+00	0	37	104	0	60	60476
2026-01-07 18:54:33.67	42.87	1.49	-49.1	-64.5	3.6	1.51e+00	0	37	104	0	60	60358
2026-01-07 18:54:34.68	42.79	1.54	-49.1	-64.5	3.6	1.51e+00	0	37	104	0	60	60566
2026-01-07 18:54:35.69	42.70	1.59	-49.1	-64.5	3.6	1.51e+00	0	37	104	0	60	60881
2026-01-07 18:54:36.69	42.62	1.64	-49.1	-64.5	3.6	1.51e+00	0	37	104	0	60	60503
2026-01-07 18:54:37.70	42.54	1.69	-49.1	-64.5	3.6	1.51e+00	0	37	104	0	60	60433
2026-01-07 18:54:38.71	42.45	1.74	-49.1	-64.5	3.6	1.51e+00	0	37	104	0	60	60498
2026-01-07 18:54:39.72	42.37	1.79	-49.1	-64.5	3.6	1.51e+00	0	37	104	0	60	60525
2026-01-07 18:54:40.74	42.29	1.84	-49.1	-64.5	3.6	1.51e+00	0	37	104	0	60	60493
2026-01-07 18:54:41.75	42.20	1.89	-49.1	-64.5	3.6	1.51e+00	0	37	104	0	60	60416
2026-01-07 18:54:42.76	42.12	1.94	-49.1	-64.5	3.6	1.51e+00	0	37	104	0	60	60659
2026-01-07 18:54:43.77	42.03	1.99	-49.1	-64.5	3.6	1.51e+00	0	37	104	0	60	60623
2026-01-07 18:54:44.78	41.95	2.04	-49.1	-64.5	3.6	1.51e+00	0	37	104	0	60	60634
2026-01-07 18:54:45.79	41.86	2.09	-49.1	-64.5	3.6	1.51e+00	0	37	104	0	60	60655
2026-01-07 18:54:46.80	41.78	2.14	-49.1	-64.5	3.6	1.51e+00	0	37	104	0	60	60682
2026-01-07 18:54:47.81	41.69	2.20	-49.1	-64.5	3.6	1.51e+00	0	37	104	0	60	60738
2026-01-07 18:54:48.82	41.60	2.25	-49.1	-64.5	3.5	1.51e+00	0	37	104	0	60	60446
2026-01-07 18:54:49.83	41.52	2.30	-49.1	-64.5	3.6	1.51e+00	0	37	104	0	60	60741
2026-01-07 18:54:50.84	41.43	2.35	-49.1	-64.5	3.6	1.51e+00	0	37	104	0	60	60513
2026-01-07 18:54:51.85	41.34	2.40	-49.1	-64.5	3.5	1.51e+00	0	37	104	0	60	60767
2026-01-07 18:54:52.86	41.25	2.45	-49.1	-64.4	3.6	1.51e+00	0	37	104	0	60	60308
2026-01-07 18:54:53.87	41.17	2.50	-49.1	-64.5	3.6	1.51e+00	0	37	104	0	60	60848
2026-01-07 18:54:54.88	41.08	2.55	-49.1	-64.5	3.6	1.51e+00	0	37	104	0	60	60518
2026-01-07 18:54:55.89	40.99	2.60	-49.1	-64.5	3.6	1.51e+00	0	37	104	0	60	60693
2026-01-07 18:54:56.90	40.90	2.65	-49.1	-64.5	3.6	1.51e+00	0	37	104	0	60	60922
2026-01-07 18:54:57.91	40.81	2.71	-49.1	-64.5	3.6	1.51e+00	0	37	104	0	60	60572
2026-01-07 18:54:58.92	40.72	2.76	-49.1	-64.5	3.6	1.51e+00	0	37	104	0	60	60775
2026-01-07 18:54:59.93	40.63	2.81	-49.1	-64.5	3.6	1.51e+00	0	37	104	0	60	60552
2026-01-07 18:55:00.94	40.54	2.86	-49.1	-64.5	3.6	1.51e+00	0	37	104	0	60	60910
2026-01-07 18:55:01.94	40.45	2.91	-49.1	-64.5	3.6	1.51e+00	0	38	104	0	60	60684
2026-01-07 18:55:02.95	40.36	2.96	-49.1	-64.5	3.6	1.51e+00	0	37	104	0	60	60392
2026-01-07 18:55:03.96	40.27	3.01	-49.1	-64.5	3.6	1.51e+00	0	38	104	0	60	60483
2026-01-07 18:55:04.97	40.18	3.06	-49.1	-64.5	3.6	1.51e+00	0	38	104	0	60	60658
2026-01-07 18:55:05.98	40.09	3.12	-49.1	-64.5	3.6	1.51e+00	0	38	104	0	60	60774
2026-01-07 18:55:06.99	40.00	3.17	-49.1	-64.5	3.6	1.51e+00	0	38	104	0	60	60494
2026-01-07 18:55:08.00	39.90	3.22	-49.1	-64.5	3.6	1.51e+00	0	38	104	0	60	60405
2026-01-07 18:55:09.01	39.81	3.27	-49.1	-64.5	3.6	1.51e+00	0	38	104	0	60	60370
2026-01-07 18:55:10.02	39.72	3.32	-49.1	-64.5	3.6	1.51e+00	0	38	104	0	60	60591
2026-01-07 18:55:11.03	39.62	3.37	-49.1	-64.5	3.6	1.51e+00	0	38	104	0	60	60590
2026-01-07 18:55:12.04	39.53	3.43	-49.1	-64.5	3.6	1.51e+00	0	38	104	0	60	60554
2026-01-07 18:55:13.05	39.43	3.48	-49.1	-64.5	3.6	1.51e+00	0	38	104	0	60	60855
2026-01-07 18:55:14.06	39.34	3.53	-49.1	-64.5	3.6	1.51e+00	0	38	104	0	60	60666
2026-01-07 18:55:15.07	39.25	3.58	-49.1	-64.5	3.6	1.51e+00	0	37	104	0	60	60594
2026-01-07 18:55:16.08	39.15	3.63	-49.1	-64.5	3.6	1.51e+00	0	38	104	0	60	60414
2026-01-07 18:55:17.09	39.05	3.68	-49.1	-64.5	3.6	1.51e+00	0	38	104	0	60	60769
2026-01-07 18:55:18.10	38.96	3.74	-49.1	-64.6	3.6	1.51e+00	0	38	104	0	60	61052
2026-01-07 18:55:19.11	38.86	3.79	-49.1	-64.5	3.6	1.51e+00	0	38	104	0	60	60635
2026-01-07 18:55:20.12	38.77	3.84	-49.1	-64.5	3.6	1.51e+00	0	38	104	0	60	60883
2026-01-07 18:55:21.13	38.67	3.89	-49.1	-64.5	3.6	1.51e+00	0	38	104	0	60	60480
2026-01-07 18:55:22.14	38.57	3.94	-49.1	-64.5	3.6	1.51e+00	0	38	104	0	60	60811
2026-01-07 18:55:23.15	38.47	3.99	-49.1	-64.5	3.6	1.51e+00	0	38	104	0	60	60808
2026-01-07 18:55:24.16	38.38	4.05	-49.1	-64.5	3.6	1.51e+00	0	38	104	0	60	60653
2026-01-07 18:55:25.17	38.28	4.10	-49.1	-64.5	3.6	1.51e+00	0	37	104	0	60	60805
2026-01-07 18:55:26.18	38.18	4.15	-49.1	-64.5	3.6	1.51e+00	0	38	104	0	60	60401
2026-01-07 18:55:27.19	38.08	4.20	-49.1	-64.6	3.6	1.51e+00	0	38	104	0	60	61210
2026-01-07 18:55:28.20	37.98	4.25	-49.1	-64.5	3.6	1.51e+00	0	38	104	0	60	60827
2026-01-07 18:55:29.21	37.88	4.31	-49.1	-64.6	3.6	1.51e+00	0	38	104	0	60	61153
2026-01-07 18:55:30.22	37.78	4.36	-49.1	-64.5	3.6	1.51e+00	0	38	104	0	60	60734
2026-01-07 18:55:31.23	37.68	4.41	-49.1	-64.5	3.6	1.51e+00	0	38	104	0	60	60508
2026-01-07 18:55:32.24	37.58	4.46	-49.1	-64.5	3.6	1.51e+00	0	38	104	0	60	60720
2026-01-07 18:55:33.25	37.48	4.51	-49.1	-64.5	3.6	1.51e+00	0	38	104	0	60	60378
2026-01-07 18:55:34.26	37.37	4.57	-49.1	-64.5	3.6	1.51e+00	0	38	104	0	60	60616
2026-01-07 18:55:35.27	37.27	4.62	-49.1	-64.5	3.6	1.51e+00	0	38	104	0	60	60663
2026-01-07 18:55:36.28	37.17	4.67	-49.1	-64.5	3.6	1.51e+00	0	38	104	0	60	60887
2026-01-07 18:55:37.29	37.07	4.72	-49.1	-64.5	3.6	1.51e+00	0	38	104	0	60	60741
2026-01-07 18:55:38.30	36.96	4.77	-49.1	-64.5	3.6	1.51e+00	0	38	104	0	60	60653
2026-01-07 18:55:39.31	36.86	4.83	-49.1	-64.5	3.6	1.51e+00	0	38	104	0	60	60936
2026-01-07 18:55:40.32	36.76	4.88	-49.1	-64.5	3.6	1.51e+00	0	38	104	0	60	60554
2026-01-07 18:55:41.33	36.65	4.93	-49.1	-64.5	3.6	1.51e+00	0	38	104	0	60	60390
2026-01-07 18:55:42.34	36.55	4.98	-49.1	-64.5	3.6	1.51e+00	0	38	104	0	60	60789
2026-01-07 18:55:43.34	36.44	5.03	-49.1	-64.5	3.6	1.51e+00	0	38	104	0	60	60772
2026-01-07 18:55:44.35	36.34	5.09	-49.1	-64.5	3.6	1.51e+00	0	38	104	0	60	60474
2026-01-07 18:55:45.36	36.23	5.14	-49.1	-64.5	3.6	1.51e+00	0	38	104	0	60	60972
2026-01-07 18:55:46.37	36.12	5.19	-49.1	-64.5	3.6	1.51e+00	0	38	104	0	60	60719
2026-01-07 18:55:47.38	36.02	5.24	-49.1	-64.5	3.6	1.51e+00	0	38	104	0	60	60537
2026-01-07 18:55:48.39	35.91	5.29	-49.1	-64.5	3.6	1.51e+00	0	38	104	0	60	60848
2026-01-07 18:55:49.40	35.80	5.35	-49.1	-64.5	3.6	1.51e+00	0	38	104	0	60	60356
2026-01-07 18:55:50.41	35.70	5.40	-49.1	-64.5	3.5	1.51e+00	0	38	104	0	60	60470
2026-01-07 18:55:51.42	35.59	5.45	-49.1	-64.5	3.6	1.51e+00	0	38	104	0	60	60579
2026-01-07 18:55:52.43	35.48	5.50	-49.1	-64.5	3.6	1.51e+00	0	38	104	0	60	60583
2026-01-07 18:55:53.45	35.37	5.56	-49.1	-64.5	3.6	1.51e+00	0	38	104	0	60	60744
2026-01-07 18:55:54.45	35.26	5.61	-49.1	-64.5	3.6	1.51e+00	0	38	104	0	60	60553
2026-01-07 18:55:55.46	35.15	5.66	-49.1	-64.5	3.6	1.51e+00	0	38	104	0	60	60730
2026-01-07 18:55:56.47	35.04	5.71	-49.1	-64.5	3.6	1.51e+00	0	38	104	0	60	60629
2026-01-07 18:55:57.48	34.93	5.76	-49.1	-64.5	3.6	1.51e+00	0	38	104	0	60	60753
2026-01-07 18:55:58.49	34.82	5.82	-49.1	-64.5	3.6	1.51e+00	0	38	104	0	60	60657
2026-01-07 18:55:59.50	34.71	5.87	-49.1	-64.5	3.6	1.51e+00	0	38	104	0	60	60568
2026-01-07 18:56:00.51	34.59	5.92	-49.1	-64.5	3.6	1.51e+00	0	38	104	0	60	60711
2026-01-07 18:56:01.52	34.48	5.97	-49.1	-64.6	3.6	1.51e+00	0	38	104	0	60	61096
2026-01-07 18:56:02.53	34.37	6.03	-49.1	-64.5	3.6	1.51e+00	0	38	104	0	60	60570
2026-01-07 18:56:03.54	34.26	6.08	-49.1	-64.5	3.6	1.51e+00	0	38	104	0	60	60870
2026-01-07 18:56:04.55	34.14	6.13	-49.1	-64.5	3.6	1.51e+00	0	38	104	0	60	60839
2026-01-07 18:56:05.57	34.03	6.18	-49.1	-64.5	3.6	1.51e+00	0	38	104	0	60	61026
2026-01-07 18:56:06.58	33.91	6.24	-49.1	-64.5	3.6	1.51e+00	0	38	104	0	60	60713
2026-01-07 18:56:07.59	33.80	6.29	-49.1	-64.5	3.6	1.51e+00	0	38	104	0	60	60837
2026-01-07 18:56:08.60	33.68	6.34	-49.1	-64.5	3.6	1.51e+00	0	38	104	0	60	60970
2026-01-07 18:56:09.61	33.57	6.39	-49.1	-64.5	3.6	1.51e+00	0	38	104	0	60	60432
2026-01-07 18:56:10.61	33.45	6.44	-49.1	-64.5	3.6	1.51e+00	0	38	104	0	60	60943
2026-01-07 18:56:11.62	33.33	6.50	-49.1	-64.5	3.6	1.51e+00	0	38	104	0	60	60780
2026-01-07 18:56:12.63	33.22	6.55	-49.1	-64.5	3.6	1.51e+00	0	38	104	0	60	60752
2026-01-07 18:56:13.64	33.10	6.60	-49.1	-64.5	3.6	1.51e+00	0	38	104	0	60	60732
2026-01-07 18:56:14.65	32.98	6.65	-49.1	-64.5	3.6	1.51e+00	0	38	104	0	60	60574
2026-01-07 18:56:15.66	32.86	6.70	-49.1	-64.5	3.6	1.51e+00	0	38	104	0	60	60590
2026-01-07 18:56:16.67	32.74	6.76	-49.1	-64.5	3.6	1.51e+00	0	38	104	0	60	60740
2026-01-07 18:56:17.68	32.63	6.81	-49.1	-64.5	3.6	1.51e+00	0	38	104	0	60	60794
2026-01-07 18:56:18.69	32.51	6.86	-49.1	-64.5	3.5	1.51e+00	0	38	104	0	60	60726
2026-01-07 18:56:19.70	32.39	6.91	-49.1	-64.5	3.6	1.51e+00	0	38	104	0	60	60979
2026-01-07 18:56:20.71	32.27	6.97	-49.1	-64.5	3.6	1.51e+00	0	38	104	0	60	60534
2026-01-07 18:56:21.72	32.14	7.02	-49.1	-64.5	3.6	1.51e+00	0	38	104	0	60	60721
2026-01-07 18:56:22.73	32.02	7.07	-49.1	-64.5	3.6	1.51e+00	0	38	104	0	60	60897
2026-01-07 18:56:23.74	31.90	7.12	-49.1	-64.5	3.6	1.51e+00	0	38	104	0	60	60832
2026-01-07 18:56:24.75	31.78	7.17	-49.1	-64.5	3.6	1.51e+00	0	38	104	0	60	60807
2026-01-07 18:56:25.76	31.66	7.23	-49.1	-64.5	3.6	1.51e+00	0	38	104	0	60	60686
2026-01-07 18:56:26.77	31.53	7.28	-49.1	-64.5	3.6	1.51e+00	0	38	104	0	60	60879
2026-01-07 18:56:27.78	31.41	7.33	-49.1	-64.5	3.6	1.51e+00	0	38	104	0	60	60608
2026-01-07 18:56:28.79	31.28	7.38	-49.1	-64.5	3.6	1.51e+00	0	38	104	0	60	60733
2026-01-07 18:56:29.80	31.16	7.43	-49.1	-64.5	3.6	1.51e+00	0	38	104	0	60	60547
2026-01-07 18:56:30.81	31.04	7.49	-49.1	-64.5	3.6	1.51e+00	0	38	104	0	60	60881
2026-01-07 18:56:31.82	30.91	7.54	-49.1	-64.5	3.6	1.51e+00	0	38	104	0	60	60580
2026-01-07 18:56:32.83	30.78	7.59	-49.1	-64.5	3.6	1.51e+00	0	38	104	0	60	60631
2026-01-07 18:56:33.84	30.66	7.64	-49.1	-64.4	3.6	1.51e+00	0	38	104	0	60	60297
2026-01-07 18:56:34.85	30.53	7.69	-49.1	-64.5	3.6	1.51e+00	0	38	104	0	60	60841
2026-01-07 18:56:35.86	30.40	7.74	-49.1	-64.5	3.6	1.51e+00	0	38	104	0	60	60726
2026-01-07 18:56:36.87	30.28	7.80	-49.1	-64.5	3.6	1.51e+00	0	38	104	0	60	60526
2026-01-07 18:56:37.88	30.15	7.85	-49.1	-64.4	3.6	1.51e+00	0	38	104	0	60	60182
2026-01-07 18:56:38.89	30.02	7.90	-49.1	-64.5	3.6	1.51e+00	0	38	104	0	60	60704
2026-01-07 18:56:39.90	29.89	7.95	-49.1	-64.5	3.6	1.51e+00	0	38	104	0	60	60621
2026-01-07 18:56:40.91	29.76	8.00	-49.1	-64.5	3.6	1.51e+00	0	38	104	0	60	60552
2026-01-07 18:56:41.92	29.63	8.05	-49.1	-64.5	3.6	1.51e+00	0	38	104	0	60	60708
2026-01-07 18:56:42.93	29.50	8.11	-49.1	-64.5	3.6	1.51e+00	0	38	104	0	60	60665
2026-01-07 18:56:43.94	29.37	8.16	-49.1	-64.5	3.6	1.51e+00	0	38	104	0	60	60903
2026-01-07 18:56:44.95	29.24	8.21	-49.1	-64.5	3.6	1.51e+00	0	38	104	0	60	60903
2026-01-07 18:56:45.96	29.10	8.26	-49.1	-64.5	3.6	1.51e+00	0	38	104	0	60	60472
2026-01-07 18:56:46.97	28.97	8.31	-49.1	-64.5	3.6	1.51e+00	0	38	104	0	60	60721
2026-01-07 18:56:47.98	28.84	8.36	-49.1	-64.5	3.6	1.51e+00	0	38	104	0	60	60768
2026-01-07 18:56:48.99	28.70	8.41	-49.1	-64.5	3.6	1.51e+00	0	38	104	0	60	61002
2026-01-07 18:56:50.00	28.57	8.47	-49.1	-64.5	3.6	1.51e+00	0	38	104	0	60	60563
2026-01-07 18:56:51.01	28.44	8.52	-49.1	-64.5	3.6	1.51e+00	0	38	104	0	60	60755
2026-01-07 18:56:52.02	28.30	8.57	-49.1	-64.5	3.6	1.51e+00	0	38	104	0	60	60925
2026-01-07 18:56:53.02	28.17	8.62	-49.1	-64.5	3.6	1.51e+00	0	38	104	0	60	60612
2026-01-07 18:56:54.03	28.03	8.67	-49.1	-64.5	3.6	1.51e+00	0	38	104	0	60	60661
2026-01-07 18:56:55.04	27.89	8.72	-49.1	-64.5	3.6	1.51e+00	0	38	104	0	60	60698
2026-01-07 18:56:56.05	27.76	8.77	-49.1	-64.5	3.6	1.51e+00	0	38	104	0	60	60602
2026-01-07 18:56:57.06	27.62	8.82	-49.1	-64.5	3.6	1.51e+00	0	38	104	0	60	60589
2026-01-07 18:56:58.07	27.48	8.87	-49.1	-64.5	3.6	1.51e+00	0	38	104	0	60	60683
2026-01-07 18:56:59.08	27.34	8.92	-49.1	-64.5	3.5	1.51e+00	0	38	104	0	60	60464
2026-01-07 18:57:00.09	27.21	8.98	-49.1	-64.5	3.6	1.51e+00	0	38	104	0	60	60750
2026-01-07 18:57:01.10	27.07	9.03	-49.1	-64.5	3.6	1.51e+00	0	38	104	0	60	60455
2026-01-07 18:57:02.11	26.93	9.08	-49.1	-64.5	3.6	1.51e+00	0	38	104	0	60	60699
2026-01-07 18:57:03.12	26.79	9.13	-49.1	-64.5	3.6	1.51e+00	0	38	104	0	60	60787
2026-01-07 18:57:04.13	26.64	9.18	-49.1	-64.5	3.6	1.51e+00	0	38	104	0	60	60718
2026-01-07 18:57:05.14	26.50	9.23	-49.1	-64.5	3.6	1.51e+00	0	38	104	0	60	60874
2026-01-07 18:57:06.15	26.36	9.28	-49.1	-64.5	3.6	1.51e+00	0	38	104	0	60	60912
2026-01-07 18:57:07.16	26.22	9.33	-49.1	-64.5	3.6	1.51e+00	0	38	104	0	60	60749
2026-01-07 18:57:08.17	26.08	9.38	-49.1	-64.5	3.6	1.51e+00	0	38	104	0	60	60550
2026-01-07 18:57:09.18	25.93	9.43	-49.1	-64.5	3.6	1.51e+00	0	38	104	0	60	60506
2026-01-07 18:57:10.19	25.79	9.48	-49.1	-64.5	3.6	1.51e+00	0	38	104	0	60	60826
2026-01-07 18:57:11.20	25.64	9.53	-49.1	-64.5	3.6	1.51e+00	0	38	104	0	60	60843
2026-01-07 18:57:12.21	25.50	9.58	-49.1	-64.5	3.6	1.51e+00	0	38	104	0	60	60868
2026-01-07 18:57:13.22	25.35	9.63	-49.1	-64.4	3.6	1.51e+00	0	38	104	0	60	60300
2026-01-07 18:57:14.23	25.21	9.68	-49.1	-64.5	3.6	1.51e+00	0	38	104	0	60	60539
2026-01-07 18:57:15.24	25.06	9.73	-49.1	-64.5	3.6	1.51e+00	0	38	104	0	60	61001
2026-01-07 18:57:16.25	24.92	9.78	-49.1	-64.6	3.6	1.51e+00	0	38	104	0	60	61084
2026-01-07 18:57:17.26	24.77	9.83	-49.1	-64.5	3.6	1.51e+00	0	38	104	0	60	60969
2026-01-07 18:57:18.27	24.62	9.88	-49.1	-64.5	3.6	1.51e+00	0	38	104	0	60	60522
2026-01-07 18:57:19.28	24.47	9.93	-49.1	-64.5	3.6	1.51e+00	0	38	104	0	60	60726
2026-01-07 18:57:20.29	24.32	9.98	-49.1	-64.5	3.6	1.51e+00	0	38	104	0	60	60763
2026-01-07 18:57:21.30	24.17	10.02	-49.1	-64.5	3.6	1.51e+00	0	38	104	0	60	60717
2026-01-07 18:57:22.30	24.02	10.07	-49.1	-64.5	3.6	1.51e+00	0	38	104	0	60	60561
2026-01-07 18:57:23.31	23.87	10.12	-49.1	-64.6	3.6	1.51e+00	0	38	104	0	60	61060
2026-01-07 18:57:24.32	23.72	10.17	-49.1	-64.5	3.6	1.51e+00	0	38	104	0	60	60642
2026-01-07 18:57:25.33	23.57	10.22	-49.1	-64.5	3.6	1.51e+00	0	38	104	0	60	60812
2026-01-07 18:57:26.34	23.42	10.27	-49.1	-64.5	3.6	1.51e+00	0	38	104	0	60	60608
2026-01-07 18:57:27.35	23.27	10.32	-49.1	-64.5	3.6	1.51e+00	0	38	104	0	60	60697
2026-01-07 18:57:28.36	23.11	10.37	-49.1	-64.5	3.6	1.51e+00	0	38	104	0	60	60847
2026-01-07 18:57:29.37	22.96	10.41	-49.1	-64.5	3.6	1.51e+00	0	38	104	0	60	60666
2026-01-07 18:57:30.38	22.81	10.46	-49.1	-64.5	3.6	1.51e+00	0	38	104	0	60	60870
2026-01-07 18:57:31.39	22.65	10.51	-49.1	-64.5	3.6	1.51e+00	0	38	104	0	60	60844
2026-01-07 18:57:32.40	22.50	10.56	-49.1	-64.5	3.6	1.51e+00	0	38	104	0	60	60527
2026-01-07 18:57:33.41	22.34	10.61	-49.1	-64.5	3.6	1.51e+00	0	38	104	0	60	60514
2026-01-07 18:57:34.42	22.19	10.65	-49.1	-64.5	3.6	1.51e+00	0	38	104	0	60	60532
2026-01-07 18:57:35.43	22.03	10.70	-49.1	-64.5	3.6	1.51e+00	0	38	104	0	60	60812
2026-01-07 18:57:36.44	21.87	10.75	-49.1	-64.5	3.6	1.51e+00	0	38	104	0	60	60727
2026-01-07 18:57:37.45	21.71	10.80	-49.1	-64.5	3.6	1.51e+00	0	38	104	0	60	60621
2026-01-07 18:57:38.46	21.56	10.84	-49.1	-64.4	3.6	1.51e+00	0	38	104	0	60	60309
2026-01-07 18:57:39.47	21.40	10.89	-49.1	-64.5	3.5	1.51e+00	0	38	104	0	60	60667
2026-01-07 18:57:40.48	21.24	10.94	-49.1	-64.5	3.6	1.51e+00	0	38	104	0	60	60709
2026-01-07 18:57:41.49	21.08	10.99	-49.1	-64.5	3.6	1.51e+00	0	38	104	0	60	60566
2026-01-07 18:57:42.49	20.92	11.03	-49.1	-64.5	3.6	1.51e+00	0	38	104	0	60	60747
2026-01-07 18:57:43.50	20.76	11.08	-49.1	-64.4	3.6	1.51e+00	0	38	104	0	60	60304
2026-01-07 18:57:44.51	20.60	11.13	-49.1	-64.5	3.5	1.51e+00	0	38	104	0	60	60585
2026-01-07 18:57:45.52	20.43	11.17	-49.1	-64.5	3.6	1.51e+00	0	38	104	0	60	60939
2026-01-07 18:57:46.53	20.27	11.22	-49.1	-64.4	3.6	1.51e+00	0	38	104	0	60	60288
2026-01-07 18:57:47.54	20.11	11.27	-49.1	-64.5	3.6	1.51e+00	0	38	104	0	60	60516
2026-01-07 18:57:48.55	19.95	11.31	-49.1	-64.5	3.6	1.51e+00	0	38	104	0	60	60566
2026-01-07 18:57:49.56	19.78	11.36	-49.1	-64.5	3.6	1.51e+00	0	38	104	0	60	60586
2026-01-07 18:57:50.57	19.62	11.40	-49.1	-64.5	3.6	1.51e+00	0	38	104	0	60	60356
2026-01-07 18:57:51.58	19.45	11.45	-49.1	-64.5	3.6	1.51e+00	0	38	104	0	60	60514
2026-01-07 18:57:52.59	19.29	11.49	-49.1	-64.5	3.6	1.51e+00	0	38	104	0	60	60633
2026-01-07 18:57:53.60	19.12	11.54	-49.1	-64.5	3.6	1.51e+00	0	38	104	0	60	60459
2026-01-07 18:57:54.61	18.95	11.58	-49.1	-64.5	3.6	1.51e+00	0	38	104	0	60	60616
2026-01-07 18:57:55.62	18.79	11.63	-49.1	-64.5	3.6	1.51e+00	0	38	104	0	60	60582
2026-01-07 18:57:56.63	18.62	11.67	-49.1	-64.5	3.6	1.51e+00	0	38	104	0	60	60825
2026-01-07 18:57:57.64	18.45	11.72	-49.1	-64.5	3.6	1.51e+00	0	38	104	0	60	60804
2026-01-07 18:57:58.65	18.28	11.76	-49.1	-64.5	3.6	1.51e+00	0	38	104	0	60	60592
2026-01-07 18:57:59.66	18.11	11.81	-49.1	-64.5	3.6	1.51e+00	0	38	104	0	60	60820
2026-01-07 18:58:00.67	17.94	11.85	-49.1	-64.5	3.6	1.51e+00	0	38	104	0	60	60503
2026-01-07 18:58:01.68	17.77	11.90	-49.1	-64.5	3.6	1.51e+00	0	38	104	0	60	60631
2026-01-07 18:58:02.69	17.60	11.94	-49.1	-64.5	3.6	1.51e+00	0	38	104	0	60	61001
2026-01-07 18:58:03.70	17.43	11.98	-49.1	-64.5	3.6	1.51e+00	0	38	104	0	60	60402
2026-01-07 18:58:04.71	17.26	12.03	-49.1	-64.5	3.6	1.51e+00	0	38	104	0	60	60473
2026-01-07 18:58:05.72	17.09	12.07	-49.1	-64.5	3.6	1.51e+00	0	38	104	0	60	60704
2026-01-07 18:58:06.73	16.91	12.11	-49.1	-64.5	3.6	1.51e+00	0	38	104	0	60	60689
2026-01-07 18:58:07.74	16.74	12.16	-49.1	-64.5	3.6	1.51e+00	0	38	104	0	60	60881
2026-01-07 18:58:08.75	16.57	12.20	-49.1	-64.5	3.6	1.51e+00	0	38	104	0	60	60792
2026-01-07 18:58:09.76	16.39	12.24	-49.1	-64.5	3.6	1.51e+00	0	38	104	0	60	60552
2026-01-07 18:58:10.77	16.22	12.28	-49.1	-64.5	3.5	1.51e+00	0	38	104	0	60	60902
2026-01-07 18:58:11.78	16.04	12.33	-49.1	-64.5	3.6	1.51e+00	0	38	104	0	60	60551
2026-01-07 18:58:12.79	15.87	12.37	-49.1	-64.4	3.6	1.51e+00	0	38	104	0	60	60325
2026-01-07 18:58:13.80	15.69	12.41	-49.1	-64.5	3.6	1.51e+00	0	38	104	0	60	60564
2026-01-07 18:58:14.81	15.51	12.45	-49.1	-64.5	3.6	1.51e+00	0	38	104	0	60	60558
2026-01-07 18:58:15.82	15.34	12.49	-49.1	-64.5	3.6	1.51e+00	0	38	104	0	60	60608
2026-01-07 18:58:16.83	15.16	12.54	-49.1	-64.5	3.6	1.51e+00	0	38	104	0	60	60596
2026-01-07 18:58:17.84	14.98	12.58	-49.1	-64.5	3.6	1.51e+00	0	38	104	0	60	60568
2026-01-07 18:58:18.85	14.80	12.62	-49.1	-64.5	3.6	1.51e+00	0	38	104	0	60	60696
2026-01-07 18:58:19.86	14.62	12.66	-49.1	-64.5	3.6	1.51e+00	0	38	104	0	60	60621
2026-01-07 18:58:20.87	14.44	12.70	-49.1	-64.5	3.6	1.51e+00	0	38	104	0	60	60666
2026-01-07 18:58:21.88	14.26	12.74	-49.1	-64.5	3.6	1.51e+00	0	38	104	0	60	60500
2026-01-07 18:58:22.89	14.08	12.78	-49.1	-64.5	3.6	1.51e+00	0	38	104	0	60	60486
2026-01-07 18:58:23.90	13.90	12.82	-49.1	-64.5	3.6	1.51e+00	0	38	104	0	60	60684
2026-01-07 18:58:24.91	13.72	12.86	-49.1	-64.5	3.6	1.51e+00	0	38	104	0	60	60961
2026-01-07 18:58:25.92	13.53	12.90	-49.1	-64.5	3.6	1.51e+00	0	38	104	0	60	60818
2026-01-07 18:58:26.93	13.35	12.94	-49.1	-64.5	3.6	1.51e+00	0	38	104	0	60	60619
2026-01-07 18:58:27.94	13.17	12.98	-49.1	-64.4	3.6	1.51e+00	0	38	104	0	60	60280
2026-01-07 18:58:28.95	12.98	13.01	-49.1	-64.5	3.6	1.51e+00	0	38	104	0	60	60680
2026-01-07 18:58:29.96	12.80	13.05	-49.1	-64.5	3.6	1.51e+00	0	38	104	0	60	60736
2026-01-07 18:58:30.97	12.61	13.09	-49.1	-64.5	3.6	1.51e+00	0	38	104	0	60	60866
2026-01-07 18:58:31.98	12.43	13.13	-49.1	-64.5	3.6	1.51e+00	0	38	104	0	60	60627
2026-01-07 18:58:32.99	12.24	13.17	-49.1	-64.5	3.5	1.51e+00	0	38	104	0	60	60742
2026-01-07 18:58:34.00	12.06	13.20	-49.1	-64.4	3.6	1.51e+00	0	38	104	0	60	60261
2026-01-07 18:58:35.01	11.87	13.24	-49.1	-64.5	3.6	1.51e+00	0	38	104	0	60	60486
2026-01-07 18:58:36.02	11.68	13.28	-49.1	-64.5	3.6	1.51e+00	0	38	104	0	60	60386
2026-01-07 18:58:37.03	11.49	13.31	-49.1	-64.5	3.6	1.51e+00	0	38	104	0	60	60496
2026-01-07 18:58:38.04	11.31	13.35	-49.1	-64.5	3.6	1.51e+00	0	38	104	0	60	60716
2026-01-07 18:58:39.05	11.12	13.39	-49.1	-64.5	3.6	1.51e+00	0	38	104	0	60	60665
2026-01-07 18:58:40.06	10.93	13.42	-49.1	-64.4	3.6	1.51e+00	0	38	104	0	60	60248
2026-01-07 18:58:41.07	10.74	13.46	-49.1	-64.5	3.6	1.51e+00	0	38	104	0	60	60450
2026-01-07 18:58:42.08	10.55	13.49	-49.1	-64.5	3.6	1.51e+00	0	38	104	0	60	60658
2026-01-07 18:58:43.09	10.36	13.53	-49.1	-64.5	3.6	1.51e+00	0	38	104	0	60	61016
2026-01-07 18:58:44.10	10.17	13.56	-49.1	-64.5	3.6	1.51e+00	0	38	104	0	60	60644
2026-01-07 18:58:45.11	9.97	13.60	-49.1	-64.5	3.6	1.51e+00	0	38	104	0	60	60674
2026-01-07 18:58:46.12	9.78	13.63	-49.1	-64.5	3.6	1.51e+00	0	38	104	0	60	60418
2026-01-07 18:58:47.13	9.59	13.67	-49.1	-64.5	3.6	1.51e+00	0	38	104	0	60	60599
2026-01-07 18:58:48.14	9.40	13.70	-49.1	-64.5	3.6	1.51e+00	0	38	104	0	60	60608
2026-01-07 18:58:49.15	9.20	13.74	-49.1	-64.5	3.6	1.51e+00	0	38	104	0	60	60775
2026-01-07 18:58:50.16	9.01	13.77	-49.1	-64.5	3.6	1.51e+00	0	38	104	0	60	60886
2026-01-07 18:58:51.17	8.82	13.80	-49.1	-64.4	3.6	1.51e+00	0	38	104	0	60	60192
2026-01-07 18:58:52.18	8.62	13.83	-49.1	-64.5	3.6	1.51e+00	0	38	104	0	60	60545
2026-01-07 18:58:53.19	8.43	13.87	-49.1	-64.5	3.6	1.51e+00	0	38	104	0	60	60367
2026-01-07 18:58:54.20	8.23	13.90	-49.1	-64.5	3.6	1.51e+00	0	38	104	0	60	60750
2026-01-07 18:58:55.21	8.03	13.93	-49.1	-64.5	3.6	1.51e+00	0	38	104	0	60	60711
2026-01-07 18:58:56.22	7.84	13.96	-49.1	-64.5	3.6	1.51e+00	0	38	104	0	60	60625
2026-01-07 18:58:57.23	7.64	13.99	-49.1	-64.5	3.6	1.51e+00	0	38	104	0	60	60556
2026-01-07 18:58:58.24	7.44	14.02	-49.1	-64.5	3.6	1.51e+00	0	38	104	0	60	60860
2026-01-07 18:58:59.25	7.25	14.06	-49.1	-64.5	3.6	1.51e+00	0	38	104	0	60	60569
2026-01-07 18:59:00.26	7.05	14.09	-49.1	-64.5	3.6	1.51e+00	0	38	104	0	60	60367
2026-01-07 18:59:01.27	6.85	14.12	-49.1	-64.5	3.6	1.51e+00	0	38	104	0	60	60706
2026-01-07 18:59:02.28	6.65	14.15	-49.1	-64.5	3.6	1.51e+00	0	38	104	0	60	60644
2026-01-07 18:59:03.29	6.45	14.17	-49.1	-64.5	3.6	1.51e+00	0	38	104	0	60	60425
2026-01-07 18:59:04.30	6.25	14.20	-49.1	-64.5	3.6	1.51e+00	0	38	104	0	60	60573
2026-01-07 18:59:05.31	6.05	14.23	-49.1	-64.5	3.6	1.51e+00	0	38	104	0	60	60783
2026-01-07 18:59:06.32	5.85	14.26	-49.1	-64.5	3.6	1.51e+00	0	38	104	0	60	60932
2026-01-07 18:59:07.33	5.65	14.29	-49.0	-64.5	3.6	1.51e+00	0	38	104	0	60	60468
2026-01-07 18:59:08.34	5.45	14.32	-49.1	-64.5	3.6	1.51e+00	0	38	104	0	60	60573
2026-01-07 18:59:09.35	5.25	14.34	-49.1	-64.5	3.6	1.51e+00	0	38	104	0	60	60851
2026-01-07 18:59:10.36	5.05	14.37	-49.0	-64.5	3.6	1.51e+00	0	38	104	0	60	60804
2026-01-07 18:59:11.37	4.84	14.40	-49.1	-64.5	3.6	1.51e+00	0	38	104	0	60	60704
2026-01-07 18:59:12.38	4.64	14.43	-49.1	-64.5	3.6	1.51e+00	0	38	104	0	60	60543
2026-01-07 18:59:13.39	4.44	14.45	-49.1	-64.5	3.6	1.51e+00	0	38	104	0	60	60840
2026-01-07 18:59:14.40	4.24	14.48	-49.1	-64.5	3.6	1.51e+00	0	39	104	0	60	60823
2026-01-07 18:59:15.41	4.03	14.50	-49.1	-64.5	3.6	1.51e+00	0	38	104	0	60	60555
2026-01-07 18:59:16.42	3.83	14.53	-49.1	-64.5	3.6	1.51e+00	0	38	104	0	60	60609
2026-01-07 18:59:17.43	3.62	14.55	-49.1	-64.5	3.6	1.51e+00	0	38	104	0	60	60678
2026-01-07 18:59:18.44	3.42	14.58	-49.0	-64.5	3.6	1.51e+00	0	38	104	0	60	60739
2026-01-07 18:59:19.45	3.21	14.60	-49.1	-64.5	3.6	1.51e+00	0	38	104	0	60	60733
2026-01-07 18:59:20.46	3.01	14.63	-49.0	-64.5	3.6	1.51e+00	0	38	104	0	60	60636
2026-01-07 18:59:21.47	2.80	14.65	-49.0	-64.5	3.6	1.51e+00	0	38	104	0	60	60556
2026-01-07 18:59:22.48	2.60	14.67	-49.0	-64.5	3.6	1.51e+00	0	38	104	0	60	60410
2026-01-07 18:59:23.49	2.39	14.70	-49.1	-64.5	3.6	1.51e+00	0	38	104	0	60	60648
2026-01-07 18:59:24.50	2.18	14.72	-49.0	-64.5	3.6	1.51e+00	0	38	104	0	60	60758
2026-01-07 18:59:25.51	1.97	14.74	-49.0	-64.5	3.6	1.51e+00	0	38	104	0	60	60665
2026-01-07 18:59:26.52	1.77	14.76	-49.0	-64.5	3.6	1.51e+00	0	38	104	0	60	60437
2026-01-07 18:59:27.52	1.56	14.78	-49.0	-64.5	3.6	1.51e+00	0	38	104	0	60	60632
2026-01-07 18:59:28.54	1.35	14.80	-49.0	-64.5	3.6	1.51e+00	0	38	104	0	60	60812
2026-01-07 18:59:29.55	1.14	14.82	-49.0	-64.4	3.6	1.51e+00	0	38	104	0	60	60305
2026-01-07 18:59:30.56	0.93	14.85	-49.0	-64.5	3.6	1.51e+00	0	38	104	0	60	60428
2026-01-07 18:59:31.57	0.73	14.87	-49.0	-64.5	3.6	1.51e+00	0	38	104	0	60	60673
2026-01-07 18:59:32.57	0.52	14.88	-49.0	-64.5	3.6	1.51e+00	0	38	104	0	60	60606
2026-01-07 18:59:33.58	0.31	14.90	-49.0	-64.5	3.6	1.51e+00	0	38	104	0	60	60756
2026-01-07 18:59:34.60	0.10	14.92	-49.0	-64.5	3.6	1.51e+00	0	38	104	0	60	60439
2026-01-07 18:59:35.60	359.89	14.94	-49.0	-64.4	3.6	1.51e+00	0	38	104	0	60	60298
2026-01-07 18:59:36.61	359.68	14.96	-49.0	-64.5	3.6	1.51e+00	0	39	104	0	60	60544
2026-01-07 18:59:37.63	359.47	14.98	-49.0	-64.4	3.6	1.51e+00	0	38	104	0	60	60193
2026-01-07 18:59:38.64	359.26	14.99	-49.0	-64.4	3.6	1.51e+00	0	38	104	0	60	60314
2026-01-07 18:59:39.65	359.04	15.01	-49.0	-64.4	3.6	1.51e+00	0	38	104	0	60	60127
2026-01-07 18:59:40.66	358.83	15.03	-49.0	-64.5	3.6	1.51e+00	0	38	104	0	60	60402
2026-01-07 18:59:41.67	358.62	15.04	-49.0	-64.4	3.6	1.51e+00	0	38	104	0	60	60327
2026-01-07 18:59:42.67	358.41	15.06	-49.0	-64.5	3.6	1.51e+00	0	39	104	0	60	60360
2026-01-07 18:59:43.68	358.20	15.08	-49.0	-64.4	3.6	1.51e+00	0	38	104	0	60	60296
2026-01-07 18:59:44.69	357.99	15.09	-49.0	-64.5	3.6	1.51e+00	0	38	104	0	60	60456
2026-01-07 18:59:45.70	357.78	15.11	-49.0	-64.5	3.6	1.51e+00	0	38	104	0	60	60472
2026-01-07 18:59:46.71	357.56	15.12	-49.0	-64.5	3.6	1.51e+00	0	38	104	0	60	60344
2026-01-07 18:59:47.72	357.35	15.13	-49.0	-64.4	3.6	1.51e+00	0	38	104	0	60	60177
2026-01-07 18:59:48.73	357.14	15.15	-49.0	-64.5	3.6	1.51e+00	0	38	104	0	60	60465
2026-01-07 18:59:49.74	356.92	15.16	-49.0	-64.5	3.6	1.51e+00	0	39	104	0	60	60563
2026-01-07 18:59:50.75	356.71	15.17	-49.0	-64.5	3.6	1.51e+00	0	39	104	0	60	60523
2026-01-07 18:59:51.76	356.50	15.18	-49.0	-64.5	3.6	1.51e+00	0	38	104	0	60	60834
2026-01-07 18:59:52.77	356.28	15.20	-49.0	-64.4	3.6	1.51e+00	0	38	104	0	60	60320
2026-01-07 18:59:53.78	356.07	15.21	-49.0	-64.5	3.6	1.51e+00	0	38	104	0	60	60759
2026-01-07 18:59:54.79	355.86	15.22	-49.0	-64.5	3.6	1.51e+00	0	38	104	0	60	60987
2026-01-07 18:59:55.80	355.64	15.23	-49.0	-64.5	3.6	1.51e+00	0	38	104	0	60	60785
2026-01-07 18:59:56.81	355.43	15.24	-49.0	-64.5	3.6	1.51e+00	0	38	104	0	60	60643
2026-01-07 18:59:57.82	355.21	15.25	-49.0	-64.5	3.6	1.51e+00	0	38	104	0	60	60440
2026-01-07 18:59:58.83	355.00	15.26	-49.0	-64.5	3.6	1.51e+00	0	38	104	0	60	60782
2026-01-07 18:59:59.83	354.78	15.27	-49.0	-64.5	3.6	1.51e+00	0	38	104	0	60	60697
2026-01-07 19:00:00.84	354.57	15.28	-49.0	-64.5	3.6	1.51e+00	0	38	104	0	60	60463
2026-01-07 19:00:01.85	354.35	15.29	-49.0	-64.5	3.6	1.51e+00	0	38	104	0	60	60910
2026-01-07 19:00:02.86	354.14	15.29	-49.0	-64.5	3.6	1.51e+00	0	38	104	0	60	60614
2026-01-07 19:00:03.87	353.92	15.30	-49.0	-64.5	3.6	1.51e+00	0	38	104	0	60	60870
2026-01-07 19:00:04.88	353.71	15.31	-49.0	-64.5	3.6	1.51e+00	0	39	104	0	60	60708
2026-01-07 19:00:05.89	353.49	15.32	-49.0	-64.5	3.6	1.51e+00	0	38	104	0	60	60852
2026-01-07 19:00:06.90	353.28	15.32	-49.0	-64.5	3.6	1.51e+00	0	39	104	0	60	60813
2026-01-07 19:00:07.91	353.06	15.33	-49.0	-64.5	3.6	1.51e+00	0	39	104	0	60	60773
2026-01-07 19:00:08.92	352.85	15.33	-49.0	-64.5	3.6	1.51e+00	0	39	104	0	60	60525
2026-01-07 19:00:09.93	352.63	15.34	-49.0	-64.5	3.6	1.51e+00	0	38	104	0	60	60773
2026-01-07 19:00:10.94	352.41	15.34	-49.0	-64.4	3.6	1.51e+00	0	39	104	0	60	60292
2026-01-07 19:00:11.95	352.20	15.35	-49.0	-64.5	3.6	1.51e+00	0	38	104	0	60	60447
2026-01-07 19:00:12.96	351.98	15.35	-49.0	-64.4	3.6	1.51e+00	0	38	104	0	60	60263
2026-01-07 19:00:13.97	351.77	15.35	-49.0	-64.5	3.6	1.51e+00	0	38	104	0	60	60548
2026-01-07 19:00:14.98	351.55	15.36	-49.0	-64.5	3.6	1.51e+00	0	38	104	0	60	60692
2026-01-07 19:00:15.99	351.33	15.36	-49.0	-64.5	3.6	1.51e+00	0	38	104	0	60	60669
2026-01-07 19:00:16.99	351.12	15.36	-49.0	-64.5	3.6	1.51e+00	0	38	104	0	60	60656
2026-01-07 19:00:18.00	350.90	15.36	-49.0	-64.5	3.6	1.51e+00	0	38	104	0	60	60402
2026-01-07 19:00:19.01	350.69	15.37	-49.0	-64.5	3.6	1.51e+00	0	39	104	0	60	60668
2026-01-07 19:00:20.02	350.47	15.37	-49.0	-64.4	3.6	1.51e+00	0	38	104	0	60	60314
2026-01-07 19:00:21.03	350.25	15.37	-49.0	-64.5	3.6	1.51e+00	0	38	104	0	60	60796
2026-01-07 19:00:22.04	350.04	15.37	-49.0	-64.5	3.6	1.51e+00	0	38	104	0	60	60816
2026-01-07 19:00:23.05	349.82	15.37	-49.0	-64.5	3.6	1.51e+00	0	38	104	0	60	60759
2026-01-07 19:00:24.06	349.61	15.37	-49.0	-64.5	3.6	1.51e+00	0	38	104	0	60	60677
2026-01-07 19:00:25.07	349.39	15.36	-49.0	-64.5	3.6	1.51e+00	0	38	104	0	60	60590
2026-01-07 19:00:26.08	349.17	15.36	-49.0	-64.5	3.6	1.51e+00	0	38	104	0	60	60422
2026-01-07 19:00:27.09	348.96	15.36	-49.0	-64.4	3.6	1.51e+00	0	39	104	0	60	60046
2026-01-07 19:00:28.10	348.74	15.36	-49.0	-64.5	3.6	1.51e+00	0	39	104	0	60	60731
2026-01-07 19:00:29.11	348.52	15.36	-49.0	-64.5	3.6	1.51e+00	0	38	104	0	60	60660
2026-01-07 19:00:30.12	348.31	15.35	-49.0	-64.5	3.6	1.51e+00	0	38	104	0	60	60513
2026-01-07 19:00:31.13	348.09	15.35	-49.0	-64.5	3.6	1.51e+00	0	39	104	0	60	60519
2026-01-07 19:00:32.14	347.88	15.35	-49.0	-64.5	3.6	1.51e+00	0	38	104	0	60	60483
2026-01-07 19:00:33.15	347.66	15.34	-49.0	-64.5	3.6	1.51e+00	0	39	104	0	60	60590
2026-01-07 19:00:34.16	347.44	15.34	-49.0	-64.5	3.6	1.51e+00	0	38	104	0	60	60602
2026-01-07 19:00:35.17	347.23	15.33	-49.0	-64.5	3.6	1.51e+00	0	38	104	0	60	60518
2026-01-07 19:00:36.18	347.01	15.33	-49.0	-64.5	3.6	1.51e+00	0	38	104	0	60	60648
2026-01-07 19:00:37.19	346.80	15.32	-49.0	-64.5	3.6	1.51e+00	0	38	104	0	60	60462
2026-01-07 19:00:38.20	346.58	15.31	-49.0	-64.5	3.6	1.51e+00	0	38	104	0	60	60657
2026-01-07 19:00:39.21	346.37	15.31	-49.0	-64.5	3.6	1.51e+00	0	38	104	0	60	60583
2026-01-07 19:00:40.22	346.15	15.30	-49.0	-64.5	3.6	1.51e+00	0	38	104	0	60	60587
2026-01-07 19:00:41.23	345.94	15.29	-49.0	-64.5	3.6	1.51e+00	0	38	104	0	60	60633
2026-01-07 19:00:42.24	345.72	15.28	-49.0	-64.5	3.6	1.51e+00	0	38	104	0	60	60698
2026-01-07 19:00:43.26	345.50	15.28	-49.0	-64.5	3.6	1.51e+00	0	38	104	0	60	60654
2026-01-07 19:00:44.26	345.29	15.27	-49.0	-64.5	3.6	1.51e+00	0	38	104	0	60	60965
2026-01-07 19:00:45.27	345.08	15.26	-49.0	-64.5	3.6	1.51e+00	0	38	104	0	60	60462
2026-01-07 19:00:46.28	344.86	15.25	-49.0	-64.5	3.6	1.51e+00	0	38	104	0	60	60811
2026-01-07 19:00:47.29	344.65	15.24	-49.0	-64.5	3.6	1.51e+00	0	38	104	0	60	60736
2026-01-07 19:00:48.30	344.43	15.23	-49.0	-64.5	3.6	1.51e+00	0	38	104	0	60	60655
2026-01-07 19:00:49.31	344.22	15.22	-49.0	-64.5	3.6	1.51e+00	0	38	104	0	60	60797
2026-01-07 19:00:50.32	344.00	15.20	-49.0	-64.5	3.6	1.51e+00	0	38	104	0	60	61004
2026-01-07 19:00:51.33	343.79	15.19	-49.0	-64.5	3.6	1.51e+00	0	39	104	0	60	60407
2026-01-07 19:00:52.34	343.58	15.18	-49.0	-64.5	3.6	1.51e+00	0	39	104	0	60	60401
2026-01-07 19:00:53.35	343.36	15.17	-49.0	-64.5	3.6	1.51e+00	0	38	104	0	60	60493
2026-01-07 19:00:54.36	343.15	15.16	-49.0	-64.5	3.6	1.51e+00	0	38	104	0	60	60682
2026-01-07 19:00:55.38	342.93	15.14	-49.0	-64.4	3.6	1.51e+00	0	39	104	0	60	60121
2026-01-07 19:00:56.39	342.72	15.13	-49.0	-64.5	3.6	1.51e+00	0	39	104	0	60	60502
2026-01-07 19:00:57.40	342.51	15.11	-49.0	-64.5	3.6	1.51e+00	0	39	104	0	60	60541
2026-01-07 19:00:58.41	342.30	15.10	-49.0	-64.5	3.6	1.51e+00	0	39	104	0	60	60683
2026-01-07 19:00:59.41	342.09	15.09	-49.0	-64.5	3.6	1.51e+00	0	39	104	0	60	60447
2026-01-07 19:01:00.42	341.87	15.07	-49.0	-64.5	3.6	1.51e+00	0	38	104	0	60	60755
2026-01-07 19:01:01.43	341.66	15.06	-49.0	-64.5	3.6	1.51e+00	0	39	104	0	60	60693
2026-01-07 19:01:02.44	341.45	15.04	-49.0	-64.5	3.6	1.51e+00	0	39	104	0	60	60525
2026-01-07 19:01:03.45	341.24	15.02	-49.0	-64.5	3.6	1.51e+00	0	38	104	0	60	60676
2026-01-07 19:01:04.46	341.03	15.01	-49.0	-64.5	3.6	1.51e+00	0	39	104	0	60	60798
2026-01-07 19:01:05.47	340.82	14.99	-49.0	-64.5	3.6	1.51e+00	0	38	104	0	60	60587
2026-01-07 19:01:06.48	340.61	14.97	-49.0	-64.5	3.6	1.51e+00	0	38	104	0	60	60452
2026-01-07 19:01:07.49	340.39	14.95	-49.0	-64.5	3.6	1.51e+00	0	38	104	0	60	60474
2026-01-07 19:01:08.50	340.18	14.94	-49.0	-64.5	3.6	1.51e+00	0	38	104	0	60	60634
2026-01-07 19:01:09.52	339.97	14.92	-49.0	-64.5	3.6	1.51e+00	0	38	104	0	60	60372
2026-01-07 19:01:10.52	339.76	14.90	-49.0	-64.4	3.6	1.51e+00	0	38	104	0	60	60162
2026-01-07 19:01:11.53	339.56	14.88	-49.0	-64.5	3.6	1.51e+00	0	38	104	0	60	60396
2026-01-07 19:01:12.55	339.34	14.86	-49.0	-64.5	3.6	1.51e+00	0	39	104	0	60	60560
2026-01-07 19:01:13.56	339.14	14.84	-49.0	-64.5	3.6	1.51e+00	0	39	104	0	60	60407
2026-01-07 19:01:14.57	338.93	14.82	-49.0	-64.5	3.6	1.51e+00	0	39	104	0	60	60945
2026-01-07 19:01:15.57	338.72	14.80	-49.0	-64.5	3.6	1.51e+00	0	39	104	0	60	60596
2026-01-07 19:01:16.59	338.51	14.78	-49.0	-64.5	3.6	1.51e+00	0	38	104	0	60	60382
2026-01-07 19:01:17.60	338.30	14.76	-49.0	-64.5	3.6	1.51e+00	0	39	104	0	60	60813
2026-01-07 19:01:18.60	338.10	14.73	-49.0	-64.5	3.6	1.51e+00	0	39	104	0	60	60622
2026-01-07 19:01:19.61	337.89	14.71	-49.0	-64.5	3.6	1.51e+00	0	39	104	0	60	60622
2026-01-07 19:01:20.62	337.68	14.69	-49.0	-64.5	3.6	1.51e+00	0	39	104	0	60	60822
2026-01-07 19:01:21.63	337.48	14.67	-49.0	-64.5	3.6	1.51e+00	0	38	104	0	60	60757
2026-01-07 19:01:22.65	337.27	14.64	-49.0	-64.5	3.6	1.51e+00	0	39	104	0	60	60798
2026-01-07 19:01:23.65	337.07	14.62	-49.0	-64.5	3.6	1.51e+00	0	39	104	0	60	60644
2026-01-07 19:01:24.66	336.86	14.59	-49.0	-64.5	3.6	1.51e+00	0	39	104	0	60	60773
2026-01-07 19:01:25.68	336.65	14.57	-49.0	-64.5	3.6	1.51e+00	0	39	104	0	60	60587
2026-01-07 19:01:26.69	336.45	14.55	-49.0	-64.5	3.6	1.51e+00	0	39	104	0	60	60578
2026-01-07 19:01:27.70	336.24	14.52	-49.0	-64.5	3.6	1.51e+00	0	39	104	0	60	60552
2026-01-07 19:01:28.71	336.04	14.50	-49.0	-64.5	3.6	1.51e+00	0	39	104	0	60	60813
2026-01-07 19:01:29.71	335.84	14.47	-49.0	-64.5	3.6	1.51e+00	0	38	104	0	60	60509
2026-01-07 19:01:30.72	335.63	14.44	-49.0	-64.5	3.6	1.51e+00	0	38	104	0	60	60629
2026-01-07 19:01:31.74	335.43	14.42	-49.0	-64.5	3.6	1.51e+00	0	38	104	0	60	60507
2026-01-07 19:01:32.75	335.23	14.39	-49.0	-64.5	3.6	1.51e+00	0	39	104	0	60	60527
2026-01-07 19:01:33.76	335.02	14.36	-49.0	-64.5	3.6	1.51e+00	0	38	104	0	60	60435
2026-01-07 19:01:34.76	334.82	14.34	-49.0	-64.5	3.6	1.51e+00	0	39	104	0	60	60488
2026-01-07 19:01:35.77	334.62	14.31	-49.0	-64.5	3.6	1.51e+00	0	39	104	0	60	60697
2026-01-07 19:01:36.78	334.42	14.28	-49.0	-64.5	3.6	1.51e+00	0	39	104	0	60	60641
2026-01-07 19:01:37.79	334.22	14.25	-49.0	-64.5	3.6	1.51e+00	0	39	104	0	60	60545
2026-01-07 19:01:38.80	334.02	14.22	-49.0	-64.5	3.6	1.51e+00	0	39	104	0	60	60571
2026-01-07 19:01:39.81	333.82	14.19	-49.0	-64.5	3.6	1.51e+00	0	39	104	0	60	60853
2026-01-07 19:01:40.82	333.62	14.17	-49.0	-64.5	3.6	1.51e+00	0	39	104	0	60	60358
2026-01-07 19:01:41.83	333.42	14.14	-49.0	-64.5	3.6	1.51e+00	0	39	104	0	60	60743
2026-01-07 19:01:42.84	333.22	14.11	-49.0	-64.5	3.6	1.51e+00	0	39	104	0	60	60597
2026-01-07 19:01:43.85	333.02	14.08	-49.0	-64.5	3.6	1.51e+00	0	39	104	0	60	60362
2026-01-07 19:01:44.86	332.83	14.05	-49.0	-64.5	3.6	1.51e+00	0	39	104	0	60	60983
2026-01-07 19:01:45.87	332.63	14.01	-49.0	-64.5	3.6	1.51e+00	0	39	104	0	60	60852
2026-01-07 19:01:46.88	332.43	13.98	-49.0	-64.5	3.6	1.51e+00	0	39	104	0	60	60872
2026-01-07 19:01:47.89	332.23	13.95	-49.0	-64.5	3.6	1.51e+00	0	39	104	0	60	60768
2026-01-07 19:01:48.90	332.04	13.92	-49.0	-64.5	3.6	1.51e+00	0	39	104	0	60	60712
2026-01-07 19:01:49.91	331.84	13.89	-49.0	-64.5	3.6	1.51e+00	0	39	104	0	60	60737
2026-01-07 19:01:50.92	331.65	13.86	-49.0	-64.5	3.6	1.51e+00	0	38	104	0	60	60669
2026-01-07 19:01:51.93	331.45	13.82	-49.0	-64.5	3.6	1.51e+00	0	38	104	0	60	60795
2026-01-07 19:01:52.94	331.26	13.79	-49.0	-64.5	3.6	1.51e+00	0	38	104	0	60	60718
2026-01-07 19:01:53.94	331.07	13.76	-49.0	-64.5	3.6	1.51e+00	0	38	104	0	60	60764
2026-01-07 19:01:54.95	330.87	13.73	-49.0	-64.5	3.6	1.51e+00	0	38	104	0	60	60779
2026-01-07 19:01:55.96	330.68	13.69	-49.0	-64.5	3.6	1.51e+00	0	38	104	0	60	60649
2026-01-07 19:01:56.97	330.49	13.66	-49.0	-64.5	3.6	1.51e+00	0	39	104	0	60	60664
2026-01-07 19:01:57.98	330.29	13.62	-49.0	-64.5	3.6	1.51e+00	0	38	104	0	60	60866
2026-01-07 19:01:58.99	330.10	13.59	-49.0	-64.5	3.6	1.51e+00	0	39	104	0	60	60741
2026-01-07 19:02:00.00	329.91	13.55	-49.0	-64.5	3.6	1.51e+00	0	39	104	0	60	60742
2026-01-07 19:02:01.01	329.72	13.52	-49.0	-64.5	3.6	1.51e+00	0	39	104	0	60	60467
2026-01-07 19:02:02.02	329.53	13.48	-49.0	-64.5	3.6	1.51e+00	0	38	104	0	60	60526
2026-01-07 19:02:03.03	329.34	13.45	-49.0	-64.5	3.6	1.51e+00	0	39	104	0	60	60442
2026-01-07 19:02:04.04	329.15	13.41	-49.0	-64.5	3.6	1.51e+00	0	39	104	0	60	60490
2026-01-07 19:02:05.05	328.96	13.38	-49.0	-64.5	3.6	1.51e+00	0	39	104	0	60	60653
2026-01-07 19:02:06.06	328.77	13.34	-49.0	-64.5	3.6	1.51e+00	0	39	104	0	60	60409
2026-01-07 19:02:07.07	328.58	13.30	-49.0	-64.5	3.6	1.51e+00	0	39	104	0	60	60617
2026-01-07 19:02:08.08	328.39	13.27	-49.0	-64.5	3.6	1.51e+00	0	39	104	0	60	60640
2026-01-07 19:02:09.09	328.21	13.23	-49.0	-64.5	3.6	1.51e+00	0	39	104	0	60	60674
2026-01-07 19:02:10.10	328.02	13.19	-49.0	-64.5	3.6	1.51e+00	0	38	104	0	60	60468
2026-01-07 19:02:11.11	327.83	13.15	-49.0	-64.5	3.6	1.51e+00	0	39	104	0	60	60842
2026-01-07 19:02:12.12	327.65	13.12	-49.0	-64.5	3.6	1.51e+00	0	38	104	0	60	60635
2026-01-07 19:02:13.13	327.46	13.08	-49.0	-64.5	3.5	1.51e+00	0	38	104	0	60	60676
2026-01-07 19:02:14.14	327.28	13.04	-49.0	-64.5	3.6	1.51e+00	0	39	104	0	60	60682
2026-01-07 19:02:15.15	327.09	13.00	-49.0	-64.5	3.6	1.51e+00	0	39	104	0	60	60613
2026-01-07 19:02:16.16	326.91	12.96	-49.0	-64.5	3.6	1.51e+00	0	38	104	0	60	60806
2026-01-07 19:02:17.17	326.73	12.92	-49.0	-64.5	3.6	1.51e+00	0	39	104	0	60	60801
2026-01-07 19:02:18.18	326.54	12.89	-49.0	-64.4	3.6	1.51e+00	0	38	104	0	60	60302
2026-01-07 19:02:19.19	326.36	12.85	-49.0	-64.4	3.6	1.51e+00	0	39	104	0	60	60268
2026-01-07 19:02:20.20	326.18	12.81	-49.0	-64.4	3.6	1.51e+00	0	39	104	0	60	60325
2026-01-07 19:02:21.21	326.00	12.77	-49.0	-64.5	3.6	1.51e+00	0	38	104	0	60	60626
2026-01-07 19:02:22.22	325.82	12.73	-49.0	-64.5	3.6	1.51e+00	0	38	104	0	60	60621
2026-01-07 19:02:23.23	325.64	12.69	-49.0	-64.5	3.6	1.51e+00	0	39	104	0	60	60459
2026-01-07 19:02:24.24	325.46	12.65	-49.0	-64.5	3.6	1.51e+00	0	38	104	0	60	60558
2026-01-07 19:02:25.25	325.28	12.60	-49.0	-64.5	3.6	1.51e+00	0	38	104	0	60	60540
2026-01-07 19:02:26.26	325.10	12.56	-49.0	-64.5	3.6	1.51e+00	0	38	104	0	60	60753
2026-01-07 19:02:27.27	324.92	12.52	-49.0	-64.5	3.6	1.51e+00	0	39	104	0	60	60689
2026-01-07 19:02:28.28	324.74	12.48	-49.0	-64.5	3.6	1.51e+00	0	39	104	0	60	60831
2026-01-07 19:02:29.29	324.56	12.44	-49.0	-64.5	3.6	1.51e+00	0	39	104	0	60	60760
2026-01-07 19:02:30.30	324.39	12.40	-49.0	-64.5	3.6	1.51e+00	0	39	104	0	60	60556
2026-01-07 19:02:31.31	324.21	12.36	-49.0	-64.5	3.6	1.51e+00	0	39	104	0	60	60702
2026-01-07 19:02:32.32	324.04	12.31	-49.0	-64.5	3.6	1.51e+00	0	38	104	0	60	60888
2026-01-07 19:02:33.33	323.86	12.27	-49.0	-64.5	3.6	1.51e+00	0	38	104	0	60	60731
2026-01-07 19:02:34.34	323.69	12.23	-49.0	-64.5	3.6	1.51e+00	0	38	104	0	60	60751
2026-01-07 19:02:35.35	323.51	12.19	-49.0	-64.6	3.6	1.51e+00	0	39	104	0	60	61224
2026-01-07 19:02:36.36	323.34	12.14	-49.0	-64.5	3.6	1.51e+00	0	39	104	0	60	60697
2026-01-07 19:02:37.37	323.16	12.10	-49.0	-64.5	3.6	1.51e+00	0	38	104	0	60	60988
2026-01-07 19:02:38.38	322.99	12.06	-49.0	-64.5	3.6	1.51e+00	0	38	104	0	60	60845
2026-01-07 19:02:39.39	322.82	12.01	-49.0	-64.5	3.6	1.51e+00	0	38	104	0	60	60571
2026-01-07 19:02:40.40	322.65	11.97	-49.0	-64.5	3.6	1.51e+00	0	39	104	0	60	60786
2026-01-07 19:02:41.41	322.48	11.93	-49.0	-64.5	3.6	1.51e+00	0	39	104	0	60	60708
2026-01-07 19:02:42.42	322.30	11.88	-49.0	-64.5	3.6	1.51e+00	0	39	104	0	60	60569
2026-01-07 19:02:43.43	322.13	11.84	-49.0	-64.5	3.6	1.51e+00	0	38	104	0	60	60360
2026-01-07 19:02:44.44	321.96	11.79	-49.0	-64.5	3.6	1.51e+00	0	38	104	0	60	60518
2026-01-07 19:02:45.45	321.80	11.75	-49.0	-64.5	3.6	1.51e+00	0	39	104	0	60	60894
2026-01-07 19:02:46.46	321.63	11.71	-49.0	-64.5	3.6	1.51e+00	0	38	104	0	60	60456
2026-01-07 19:02:47.47	321.46	11.66	-49.0	-64.5	3.6	1.51e+00	0	38	104	0	60	60507
2026-01-07 19:02:48.48	321.29	11.62	-49.0	-64.5	3.6	1.51e+00	0	38	104	0	60	60853
2026-01-07 19:02:49.49	321.12	11.57	-49.0	-64.5	3.6	1.51e+00	0	39	104	0	60	60799
2026-01-07 19:02:50.50	320.96	11.53	-49.0	-64.5	3.6	1.51e+00	0	39	104	0	60	60456
2026-01-07 19:02:51.51	320.79	11.48	-49.0	-64.5	3.6	1.51e+00	0	39	104	0	60	60579
2026-01-07 19:02:52.52	320.63	11.43	-49.0	-64.5	3.6	1.51e+00	0	39	104	0	60	60784
2026-01-07 19:02:53.53	320.46	11.39	-49.0	-64.5	3.6	1.51e+00	0	39	104	0	60	60797
2026-01-07 19:02:54.54	320.30	11.34	-49.0	-64.5	3.6	1.51e+00	0	39	104	0	60	60573
2026-01-07 19:02:55.55	320.13	11.30	-49.0	-64.5	3.6	1.51e+00	0	38	104	0	60	60540
2026-01-07 19:02:56.56	319.97	11.25	-49.0	-64.6	3.6	1.51e+00	0	39	104	0	60	61126
2026-01-07 19:02:57.57	319.81	11.20	-49.0	-64.5	3.6	1.51e+00	0	39	104	0	60	60552
2026-01-07 19:02:58.58	319.64	11.16	-49.0	-64.5	3.6	1.51e+00	0	38	104	0	60	60409
2026-01-07 19:02:59.59	319.48	11.11	-49.0	-64.5	3.5	1.51e+00	0	39	104	0	60	60614
2026-01-07 19:03:00.60	319.32	11.06	-48.9	-64.5	3.6	1.51e+00	0	39	104	0	60	60524
2026-01-07 19:03:01.61	319.16	11.02	-48.9	-64.5	3.6	1.51e+00	0	39	104	0	60	60634
2026-01-07 19:03:02.62	319.00	10.97	-48.9	-64.5	3.6	1.51e+00	0	39	104	0	60	60692
2026-01-07 19:03:03.63	318.84	10.92	-49.0	-64.5	3.6	1.51e+00	0	39	104	0	60	60424
2026-01-07 19:03:04.64	318.68	10.88	-49.0	-64.5	3.6	1.51e+00	0	38	104	0	60	60366
2026-01-07 19:03:05.65	318.52	10.83	-49.0	-64.5	3.6	1.51e+00	0	39	104	0	60	60765
2026-01-07 19:03:06.66	318.36	10.78	-49.0	-64.5	3.6	1.51e+00	0	39	104	0	60	60864
2026-01-07 19:03:07.67	318.21	10.73	-49.0	-64.5	3.6	1.51e+00	0	39	104	0	60	60643
2026-01-07 19:03:08.68	318.05	10.69	-49.0	-64.5	3.6	1.51e+00	0	39	104	0	60	61017
2026-01-07 19:03:09.69	317.89	10.64	-49.0	-64.5	3.6	1.51e+00	0	39	104	0	60	60856
2026-01-07 19:03:10.70	317.74	10.59	-49.0	-64.5	3.6	1.51e+00	0	39	104	0	60	60371
2026-01-07 19:03:11.71	317.58	10.54	-49.0	-64.5	3.6	1.51e+00	0	39	104	0	60	60675
2026-01-07 19:03:12.72	317.43	10.49	-49.0	-64.5	3.6	1.51e+00	0	39	104	0	60	60669
2026-01-07 19:03:13.73	317.27	10.45	-49.0	-64.5	3.6	1.51e+00	0	39	104	0	60	60819
2026-01-07 19:03:14.74	317.12	10.40	-49.0	-64.5	3.6	1.51e+00	0	39	104	0	60	60771
2026-01-07 19:03:15.75	316.96	10.35	-49.0	-64.6	3.5	1.51e+00	0	39	104	0	60	61062
2026-01-07 19:03:16.76	316.81	10.30	-49.0	-64.5	3.6	1.51e+00	0	39	104	0	60	60703
2026-01-07 19:03:17.77	316.66	10.25	-49.0	-64.5	3.6	1.51e+00	0	39	104	0	60	60913
2026-01-07 19:03:18.78	316.51	10.20	-49.0	-64.5	3.6	1.51e+00	0	39	104	0	60	60775
2026-01-07 19:03:19.79	316.35	10.16	-49.0	-64.5	3.5	1.51e+00	0	39	104	0	60	60655
2026-01-07 19:03:20.80	316.20	10.11	-49.0	-64.5	3.6	1.51e+00	0	39	104	0	60	60648
2026-01-07 19:03:21.81	316.05	10.06	-49.0	-64.5	3.6	1.51e+00	0	39	104	0	60	60534
2026-01-07 19:03:22.82	315.90	10.01	-49.0	-64.5	3.6	1.51e+00	0	39	104	0	60	60763
2026-01-07 19:03:23.83	315.75	9.96	-49.0	-64.5	3.6	1.51e+00	0	38	104	0	60	60812
2026-01-07 19:03:24.84	315.60	9.91	-49.0	-64.5	3.6	1.51e+00	0	39	104	0	60	60516
2026-01-07 19:03:25.85	315.46	9.86	-49.0	-64.5	3.6	1.51e+00	0	39	104	0	60	60775
2026-01-07 19:03:26.86	315.31	9.81	-49.0	-64.5	3.6	1.51e+00	0	39	104	0	60	60659
2026-01-07 19:03:27.87	315.16	9.76	-49.0	-64.5	3.6	1.51e+00	0	39	104	0	60	60684
2026-01-07 19:03:28.88	315.01	9.71	-49.0	-64.5	3.6	1.51e+00	0	39	104	0	60	60701
2026-01-07 19:03:29.89	314.87	9.66	-49.0	-64.5	3.6	1.51e+00	0	39	104	0	60	60682
2026-01-07 19:03:30.90	314.72	9.61	-49.0	-64.5	3.6	1.51e+00	0	39	104	0	60	60674
2026-01-07 19:03:31.91	314.58	9.56	-49.0	-64.5	3.6	1.51e+00	0	39	104	0	60	60593
2026-01-07 19:03:32.92	314.43	9.51	-49.0	-64.5	3.6	1.51e+00	0	39	104	0	60	60850
2026-01-07 19:03:33.93	314.29	9.46	-49.0	-64.5	3.6	1.51e+00	0	39	104	0	60	60975
2026-01-07 19:03:34.94	314.14	9.41	-49.0	-64.5	3.6	1.51e+00	0	39	104	0	60	60483
2026-01-07 19:03:35.95	314.00	9.36	-49.0	-64.5	3.6	1.51e+00	0	39	104	0	60	60812
2026-01-07 19:03:36.96	313.86	9.31	-49.0	-64.5	3.6	1.51e+00	0	39	104	0	60	60539
2026-01-07 19:03:37.97	313.71	9.26	-49.0	-64.5	3.6	1.51e+00	0	39	104	0	60	60737
2026-01-07 19:03:38.98	313.57	9.21	-49.0	-64.5	3.6	1.51e+00	0	39	104	0	60	60471
2026-01-07 19:03:39.99	313.43	9.16	-48.9	-64.5	3.6	1.51e+00	0	39	104	0	60	60699
2026-01-07 19:03:41.00	313.29	9.11	-49.0	-64.5	3.6	1.51e+00	0	39	104	0	60	60685
2026-01-07 19:03:42.01	313.15	9.06	-49.0	-64.5	3.6	1.51e+00	0	39	104	0	60	60817
2026-01-07 19:03:43.02	313.01	9.01	-49.0	-64.5	3.6	1.51e+00	0	39	104	0	60	60592
2026-01-07 19:03:44.03	312.87	8.96	-49.0	-64.5	3.6	1.51e+00	0	39	104	0	60	60821
2026-01-07 19:03:45.04	312.73	8.91	-49.0	-64.5	3.6	1.51e+00	0	39	104	0	60	60945
2026-01-07 19:03:46.05	312.59	8.86	-49.0	-64.5	3.6	1.51e+00	0	39	104	0	60	60750
2026-01-07 19:03:47.06	312.46	8.81	-49.0	-64.5	3.6	1.51e+00	0	39	104	0	60	60663
2026-01-07 19:03:48.07	312.32	8.75	-49.0	-64.5	3.6	1.51e+00	0	39	104	0	60	60624
2026-01-07 19:03:49.08	312.18	8.70	-49.0	-64.5	3.6	1.51e+00	0	39	104	0	60	60674
2026-01-07 19:03:50.09	312.05	8.65	-49.0	-64.5	3.6	1.51e+00	0	39	104	0	60	60715
2026-01-07 19:03:51.10	311.91	8.60	-49.0	-64.4	3.6	1.51e+00	0	39	104	0	60	60326
2026-01-07 19:03:52.11	311.77	8.55	-49.0	-64.5	3.6	1.51e+00	0	39	104	0	60	60634
2026-01-07 19:03:53.12	311.64	8.50	-49.0	-64.5	3.6	1.51e+00	0	39	104	0	60	60988
2026-01-07 19:03:54.13	311.50	8.45	-49.0	-64.5	3.6	1.51e+00	0	39	104	0	60	60925
2026-01-07 19:03:55.14	311.37	8.40	-49.0	-64.5	3.6	1.51e+00	0	39	104	0	60	60878
2026-01-07 19:03:56.15	311.24	8.34	-49.0	-64.5	3.6	1.51e+00	0	39	104	0	60	60792
2026-01-07 19:03:57.16	311.10	8.29	-49.0	-64.5	3.6	1.51e+00	0	39	104	0	60	60800
2026-01-07 19:03:58.17	310.97	8.24	-49.0	-64.5	3.6	1.51e+00	0	39	104	0	60	60485
2026-01-07 19:03:59.18	310.84	8.19	-49.0	-64.5	3.6	1.51e+00	0	39	104	0	60	60566
2026-01-07 19:04:00.19	310.71	8.14	-49.0	-64.5	3.6	1.51e+00	0	39	104	0	60	60776
2026-01-07 19:04:01.20	310.58	8.09	-49.0	-64.5	3.6	1.51e+00	0	39	104	0	60	60710
2026-01-07 19:04:02.21	310.45	8.04	-49.0	-64.5	3.6	1.51e+00	0	38	104	0	60	60909
2026-01-07 19:04:03.22	310.32	7.98	-49.0	-64.5	3.6	1.51e+00	0	39	104	0	60	60735
2026-01-07 19:04:04.23	310.19	7.93	-49.0	-64.5	3.6	1.51e+00	0	39	104	0	60	60578
2026-01-07 19:04:05.24	310.06	7.88	-49.0	-64.5	3.6	1.51e+00	0	39	104	0	60	60677
2026-01-07 19:04:06.25	309.93	7.83	-49.0	-64.5	3.6	1.51e+00	0	39	104	0	60	60528
2026-01-07 19:04:07.26	309.80	7.78	-49.0	-64.5	3.6	1.51e+00	0	39	104	0	60	60623
2026-01-07 19:04:08.27	309.67	7.73	-49.0	-64.5	3.6	1.51e+00	0	39	104	0	60	60859
2026-01-07 19:04:09.28	309.54	7.67	-49.0	-64.5	3.6	1.51e+00	0	39	104	0	60	60916
2026-01-07 19:04:10.29	309.42	7.62	-49.0	-64.5	3.6	1.51e+00	0	39	104	0	60	60703
2026-01-07 19:04:11.30	309.29	7.57	-49.0	-64.5	3.6	1.51e+00	0	39	104	0	60	60698
2026-01-07 19:04:12.32	309.16	7.52	-49.0	-64.5	3.6	1.51e+00	0	39	104	0	60	60829
2026-01-07 19:04:13.33	309.04	7.47	-49.0	-64.5	3.6	1.51e+00	0	39	104	0	60	60457
2026-01-07 19:04:14.33	308.92	7.41	-49.0	-64.5	3.6	1.51e+00	0	39	104	0	60	60579
2026-01-07 19:04:15.34	308.79	7.36	-49.0	-64.5	3.6	1.51e+00	0	39	104	0	60	60666
2026-01-07 19:04:16.35	308.67	7.31	-49.0	-64.5	3.6	1.51e+00	0	39	104	0	60	60648
2026-01-07 19:04:17.36	308.54	7.26	-49.0	-64.5	3.6	1.51e+00	0	39	104	0	60	60498
2026-01-07 19:04:18.37	308.42	7.21	-49.0	-64.5	3.6	1.51e+00	0	39	104	0	60	60496
2026-01-07 19:04:19.38	308.30	7.15	-49.0	-64.5	3.6	1.51e+00	0	39	104	0	60	60749
2026-01-07 19:04:20.39	308.17	7.10	-49.0	-64.5	3.6	1.51e+00	0	39	104	0	60	60614
2026-01-07 19:04:21.40	308.05	7.05	-49.0	-64.5	3.6	1.51e+00	0	39	104	0	60	60753
2026-01-07 19:04:22.41	307.93	7.00	-49.0	-64.5	3.6	1.51e+00	0	39	104	0	60	60735
2026-01-07 19:04:23.42	307.81	6.95	-49.0	-64.5	3.6	1.51e+00	0	39	104	0	60	60737
2026-01-07 19:04:24.43	307.69	6.89	-49.0	-64.5	3.6	1.51e+00	0	39	104	0	60	60613
2026-01-07 19:04:25.44	307.57	6.84	-49.0	-64.5	3.6	1.51e+00	0	39	104	0	60	60934
2026-01-07 19:04:26.45	307.45	6.79	-49.0	-64.5	3.6	1.51e+00	0	39	104	0	60	60912
2026-01-07 19:04:27.46	307.33	6.74	-49.0	-64.5	3.6	1.51e+00	0	39	104	0	60	60497
2026-01-07 19:04:28.47	307.21	6.69	-49.0	-64.5	3.6	1.51e+00	0	39	104	0	60	60947
2026-01-07 19:04:29.48	307.09	6.63	-49.0	-64.5	3.6	1.51e+00	0	39	104	0	60	60404
2026-01-07 19:04:30.48	306.98	6.58	-49.0	-64.5	3.6	1.51e+00	0	39	104	0	60	60744
2026-01-07 19:04:31.49	306.86	6.53	-49.0	-64.5	3.6	1.51e+00	0	39	104	0	60	60619
2026-01-07 19:04:32.50	306.74	6.48	-49.0	-64.5	3.6	1.51e+00	0	39	104	0	60	60432
2026-01-07 19:04:33.51	306.63	6.42	-49.0	-64.5	3.6	1.51e+00	0	39	104	0	60	60653
2026-01-07 19:04:34.52	306.51	6.37	-49.0	-64.5	3.6	1.51e+00	0	39	104	0	60	60489
2026-01-07 19:04:35.53	306.39	6.32	-49.0	-64.5	3.6	1.51e+00	0	39	104	0	60	60671
2026-01-07 19:04:36.54	306.28	6.27	-49.0	-64.5	3.6	1.51e+00	0	39	104	0	60	60436
2026-01-07 19:04:37.55	306.16	6.22	-49.0	-64.5	3.6	1.51e+00	0	39	104	0	60	60568
2026-01-07 19:04:38.56	306.05	6.16	-49.0	-64.5	3.6	1.51e+00	0	39	104	0	60	60843
2026-01-07 19:04:39.57	305.93	6.11	-49.0	-64.5	3.6	1.51e+00	0	39	104	0	60	60792
2026-01-07 19:04:40.58	305.82	6.06	-49.0	-64.5	3.6	1.51e+00	0	39	104	0	60	60526
2026-01-07 19:04:41.59	305.71	6.01	-49.0	-64.5	3.6	1.51e+00	0	39	104	0	60	60721
2026-01-07 19:04:42.60	305.59	5.95	-49.0	-64.5	3.6	1.51e+00	0	39	104	0	60	60813
2026-01-07 19:04:43.61	305.48	5.90	-49.0	-64.5	3.6	1.51e+00	0	39	104	0	60	60718
2026-01-07 19:04:44.62	305.37	5.85	-49.0	-64.5	3.5	1.51e+00	0	39	104	0	60	60508
2026-01-07 19:04:45.63	305.26	5.80	-49.0	-64.5	3.6	1.51e+00	0	39	104	0	60	60548
2026-01-07 19:04:46.64	305.15	5.75	-49.0	-64.5	3.6	1.51e+00	0	39	104	0	60	60648
2026-01-07 19:04:47.65	305.04	5.69	-49.0	-64.5	3.6	1.51e+00	0	39	104	0	60	60694
2026-01-07 19:04:48.66	304.93	5.64	-49.0	-64.5	3.6	1.51e+00	0	39	104	0	60	60680
2026-01-07 19:04:49.67	304.82	5.59	-49.0	-64.5	3.6	1.51e+00	0	39	104	0	60	60859
2026-01-07 19:04:50.68	304.71	5.54	-49.0	-64.5	3.6	1.51e+00	0	39	104	0	60	60520
2026-01-07 19:04:51.69	304.60	5.48	-49.0	-64.5	3.6	1.51e+00	0	39	104	0	60	60937
2026-01-07 19:04:52.70	304.49	5.43	-49.0	-64.5	3.6	1.51e+00	0	39	104	0	60	60701
2026-01-07 19:04:53.71	304.38	5.38	-49.0	-64.5	3.6	1.51e+00	0	39	104	0	60	60604
2026-01-07 19:04:54.71	304.27	5.33	-49.0	-64.5	3.6	1.51e+00	0	39	104	0	60	60536
2026-01-07 19:04:55.72	304.17	5.28	-49.0	-64.5	3.6	1.51e+00	0	39	104	0	60	60597
2026-01-07 19:04:56.73	304.06	5.22	-49.0	-64.5	3.6	1.51e+00	0	38	104	0	60	60738
2026-01-07 19:04:57.74	303.95	5.17	-49.0	-64.5	3.6	1.51e+00	0	38	104	0	60	60876
2026-01-07 19:04:58.75	303.85	5.12	-49.0	-64.5	3.6	1.51e+00	0	39	104	0	60	60423
2026-01-07 19:04:59.76	303.74	5.07	-49.0	-64.5	3.6	1.51e+00	0	39	104	0	60	60561
2026-01-07 19:05:00.77	303.63	5.01	-49.0	-64.5	3.6	1.51e+00	0	39	104	0	60	60890
2026-01-07 19:05:01.78	303.53	4.96	-49.0	-64.5	3.6	1.51e+00	0	39	104	0	60	60350
2026-01-07 19:05:02.79	303.42	4.91	-49.0	-64.5	3.6	1.51e+00	0	38	104	0	60	60584
2026-01-07 19:05:03.80	303.32	4.86	-49.0	-64.5	3.6	1.51e+00	0	39	104	0	60	60857
2026-01-07 19:05:04.81	303.22	4.81	-49.0	-64.5	3.6	1.51e+00	0	39	104	0	60	60390
2026-01-07 19:05:05.82	303.11	4.75	-49.0	-64.5	3.6	1.51e+00	0	39	104	0	60	60439
2026-01-07 19:05:06.83	303.01	4.70	-49.0	-64.5	3.6	1.51e+00	0	38	104	0	60	60663
2026-01-07 19:05:07.84	302.91	4.65	-49.0	-64.5	3.6	1.51e+00	0	39	104	0	60	60729
2026-01-07 19:05:08.85	302.80	4.60	-49.0	-64.5	3.6	1.51e+00	0	38	104	0	60	60517
2026-01-07 19:05:09.86	302.70	4.55	-49.0	-64.5	3.6	1.51e+00	0	39	104	0	60	60655
2026-01-07 19:05:10.87	302.60	4.49	-49.0	-64.4	3.6	1.51e+00	0	39	104	0	60	60294
2026-01-07 19:05:11.88	302.50	4.44	-49.0	-64.5	3.6	1.51e+00	0	39	104	0	60	60663
2026-01-07 19:05:12.89	302.40	4.39	-49.0	-64.5	3.6	1.51e+00	0	39	104	0	60	60771
2026-01-07 19:05:13.90	302.30	4.34	-49.0	-64.5	3.6	1.51e+00	0	39	104	0	60	60779
2026-01-07 19:05:14.91	302.20	4.29	-49.0	-64.5	3.6	1.51e+00	0	39	104	0	60	60718
2026-01-07 19:05:15.92	302.10	4.23	-49.0	-64.5	3.6	1.51e+00	0	39	104	0	60	60715
2026-01-07 19:05:16.93	302.00	4.18	-49.0	-64.5	3.6	1.51e+00	0	39	104	0	60	60815
2026-01-07 19:05:17.94	301.90	4.13	-49.0	-64.5	3.6	1.51e+00	0	38	104	0	60	60714
2026-01-07 19:05:18.95	301.80	4.08	-49.0	-64.5	3.6	1.51e+00	0	38	104	0	60	60626
2026-01-07 19:05:19.96	301.70	4.03	-49.0	-64.5	3.6	1.51e+00	0	38	104	0	60	60702
2026-01-07 19:05:20.97	301.60	3.97	-49.0	-64.5	3.6	1.51e+00	0	39	104	0	60	60797
2026-01-07 19:05:21.98	301.50	3.92	-49.0	-64.5	3.6	1.51e+00	0	38	104	0	60	60739
2026-01-07 19:05:22.99	301.41	3.87	-49.0	-64.5	3.6	1.51e+00	0	39	104	0	60	60499
2026-01-07 19:05:24.00	301.31	3.82	-49.0	-64.5	3.6	1.51e+00	0	38	104	0	60	60550
2026-01-07 19:05:25.01	301.21	3.77	-49.0	-64.5	3.6	1.51e+00	0	38	104	0	60	60791
2026-01-07 19:05:26.02	301.12	3.72	-49.0	-64.5	3.5	1.51e+00	0	39	104	0	60	60721
2026-01-07 19:05:27.03	301.02	3.66	-49.0	-64.5	3.6	1.51e+00	0	39	104	0	60	60749
2026-01-07 19:05:28.04	300.92	3.61	-49.0	-64.5	3.6	1.51e+00	0	39	104	0	60	60830
2026-01-07 19:05:29.05	300.83	3.56	-49.0	-64.5	3.6	1.51e+00	0	39	104	0	60	60768
2026-01-07 19:05:30.06	300.73	3.51	-49.0	-64.5	3.6	1.51e+00	0	39	104	0	60	60819
2026-01-07 19:05:31.07	300.64	3.46	-49.0	-64.5	3.6	1.51e+00	0	39	104	0	60	60783
2026-01-07 19:05:32.08	300.54	3.41	-49.0	-64.5	3.6	1.51e+00	0	39	104	0	60	60751
2026-01-07 19:05:33.09	300.45	3.35	-49.0	-64.5	3.6	1.51e+00	0	39	104	0	60	60746
2026-01-07 19:05:34.10	300.36	3.30	-49.0	-64.4	3.6	1.51e+00	0	39	104	0	60	60278
2026-01-07 19:05:35.11	300.26	3.25	-49.0	-64.5	3.6	1.51e+00	0	39	104	0	60	60725
2026-01-07 19:05:36.12	300.17	3.20	-49.0	-64.5	3.6	1.51e+00	0	39	104	0	60	60640
2026-01-07 19:05:37.13	300.08	3.15	-49.0	-64.6	3.6	1.51e+00	0	39	104	0	60	61040
2026-01-07 19:05:38.14	299.99	3.10	-49.0	-64.5	3.6	1.51e+00	0	39	104	0	60	60794
2026-01-07 19:05:39.15	299.89	3.05	-49.0	-64.5	3.6	1.51e+00	0	39	104	0	60	60667
2026-01-07 19:05:40.16	299.80	2.99	-49.0	-64.5	3.6	1.51e+00	0	39	104	0	60	60843
2026-01-07 19:05:41.17	299.71	2.94	-49.0	-64.5	3.6	1.51e+00	0	39	104	0	60	60405
2026-01-07 19:05:42.18	299.62	2.89	-49.0	-64.5	3.6	1.51e+00	0	39	104	0	60	60757
2026-01-07 19:05:43.19	299.53	2.84	-49.0	-64.5	3.6	1.51e+00	0	39	104	0	60	60748
2026-01-07 19:05:44.20	299.44	2.79	-49.0	-64.5	3.6	1.51e+00	0	39	104	0	60	60717
2026-01-07 19:05:45.21	299.35	2.74	-49.0	-64.5	3.6	1.51e+00	0	39	104	0	60	60831
2026-01-07 19:05:46.22	299.26	2.69	-49.0	-64.5	3.6	1.51e+00	0	39	104	0	60	60705
2026-01-07 19:05:47.23	299.17	2.64	-49.0	-64.5	3.6	1.51e+00	0	39	104	0	60	60846
2026-01-07 19:05:48.24	299.08	2.58	-49.0	-64.5	3.6	1.51e+00	0	39	104	0	60	60473
2026-01-07 19:05:49.25	298.99	2.53	-49.0	-64.5	3.6	1.51e+00	0	39	104	0	60	60772
2026-01-07 19:05:50.26	298.90	2.48	-49.0	-64.5	3.6	1.51e+00	0	39	104	0	60	60727
2026-01-07 19:05:51.27	298.82	2.43	-49.0	-64.5	3.6	1.51e+00	0	39	104	0	60	60430
2026-01-07 19:05:52.28	298.73	2.38	-49.0	-64.5	3.6	1.51e+00	0	39	104	0	60	60612
2026-01-07 19:05:53.29	298.64	2.33	-49.0	-64.5	3.6	1.51e+00	0	39	104	0	60	60818
2026-01-07 19:05:54.30	298.55	2.28	-49.0	-64.5	3.6	1.51e+00	0	39	104	0	60	60492
2026-01-07 19:05:55.31	298.47	2.23	-49.0	-64.5	3.5	1.51e+00	0	39	104	0	60	60946
2026-01-07 19:05:56.32	298.38	2.18	-49.0	-64.5	3.6	1.51e+00	0	39	104	0	60	60657
2026-01-07 19:05:57.33	298.30	2.12	-49.0	-64.5	3.6	1.51e+00	0	39	104	0	60	60998
2026-01-07 19:05:58.34	298.21	2.07	-49.0	-64.5	3.6	1.51e+00	0	39	104	0	60	60757
2026-01-07 19:05:59.35	298.12	2.02	-49.0	-64.5	3.6	1.51e+00	0	39	104	0	60	60916
2026-01-07 19:06:00.36	298.04	1.97	-49.0	-64.5	3.6	1.51e+00	0	39	104	0	60	60714
2026-01-07 19:06:01.37	297.95	1.92	-49.0	-64.5	3.6	1.51e+00	0	39	104	0	60	60722
2026-01-07 19:06:02.38	297.87	1.87	-49.0	-64.5	3.6	1.51e+00	0	39	104	0	60	60789
2026-01-07 19:06:03.39	297.78	1.82	-49.0	-64.5	3.6	1.51e+00	0	39	104	0	60	60849
2026-01-07 19:06:04.40	297.70	1.77	-49.0	-64.5	3.6	1.51e+00	0	39	104	0	60	60437
2026-01-07 19:06:05.41	297.62	1.72	-49.0	-64.5	3.6	1.51e+00	0	39	104	0	60	60791
2026-01-07 19:06:06.42	297.53	1.67	-49.0	-64.5	3.6	1.51e+00	0	39	104	0	60	60919
2026-01-07 19:06:07.43	297.45	1.62	-49.0	-64.6	3.6	1.51e+00	0	39	104	0	60	61117
2026-01-07 19:06:08.44	297.37	1.57	-49.0	-64.5	3.6	1.51e+00	0	39	104	0	60	60648
2026-01-07 19:06:09.45	297.28	1.52	-49.0	-64.6	3.6	1.51e+00	0	39	104	0	60	61053
2026-01-07 19:06:10.46	297.20	1.47	-49.0	-64.5	3.6	1.51e+00	0	39	104	0	60	60464
2026-01-07 19:06:11.47	297.12	1.42	-49.0	-64.5	3.6	1.51e+00	0	39	104	0	60	60837
2026-01-07 19:06:12.48	297.04	1.37	-49.0	-64.5	3.6	1.51e+00	0	39	104	0	60	60698
2026-01-07 19:06:13.49	296.96	1.31	-49.0	-64.5	3.6	1.51e+00	0	39	104	0	60	60672
2026-01-07 19:06:14.50	296.88	1.26	-49.0	-64.5	3.6	1.51e+00	0	39	104	0	60	60905
2026-01-07 19:06:15.51	296.80	1.21	-49.0	-64.5	3.6	1.51e+00	0	39	104	0	60	60882
2026-01-07 19:06:16.52	296.72	1.16	-49.0	-64.5	3.6	1.51e+00	0	39	104	0	60	60856
2026-01-07 19:06:17.53	296.63	1.11	-49.0	-64.5	3.6	1.51e+00	0	39	104	0	60	60670
2026-01-07 19:06:18.54	296.55	1.06	-49.0	-64.5	3.6	1.51e+00	0	39	104	0	60	60591
2026-01-07 19:06:19.55	296.48	1.01	-49.0	-64.5	3.6	1.51e+00	0	39	104	0	60	60807
2026-01-07 19:06:20.56	296.40	0.96	-49.0	-64.5	3.6	1.51e+00	0	39	104	0	60	60707
2026-01-07 19:06:21.57	296.32	0.91	-49.0	-64.5	3.5	1.51e+00	0	39	104	0	60	60461
2026-01-07 19:06:22.58	296.24	0.86	-49.0	-64.5	3.6	1.51e+00	0	39	104	0	60	60673
2026-01-07 19:06:23.59	296.16	0.81	-49.0	-64.5	3.6	1.51e+00	0	39	104	0	60	60716
2026-01-07 19:06:24.60	296.08	0.76	-49.0	-64.5	3.6	1.51e+00	0	39	104	0	60	60715
2026-01-07 19:06:25.61	296.00	0.71	-49.0	-64.5	3.6	1.51e+00	0	39	104	0	60	60721
2026-01-07 19:06:26.62	295.92	0.66	-49.0	-64.5	3.6	1.51e+00	0	39	104	0	60	60754
2026-01-07 19:06:27.63	295.85	0.61	-49.0	-64.5	3.6	1.51e+00	0	39	104	0	60	60956
2026-01-07 19:06:28.64	295.77	0.56	-49.0	-64.5	3.6	1.51e+00	0	39	104	0	60	60771
2026-01-07 19:06:29.65	295.69	0.51	-49.0	-64.5	3.6	1.51e+00	0	39	104	0	60	60961
2026-01-07 19:06:30.66	295.62	0.46	-49.0	-64.6	3.6	1.51e+00	0	39	104	0	60	61112
2026-01-07 19:06:31.67	295.54	0.41	-49.0	-64.5	3.6	1.51e+00	0	39	104	0	60	61001
2026-01-07 19:06:32.68	295.46	0.36	-49.0	-64.5	3.6	1.51e+00	0	39	104	0	60	60848
2026-01-07 19:06:33.69	295.39	0.31	-49.0	-64.5	3.6	1.51e+00	0	39	104	0	60	60835
2026-01-07 19:06:34.70	295.31	0.26	-49.0	-64.5	3.6	1.51e+00	0	39	104	0	60	60970
2026-01-07 19:06:35.71	295.24	0.22	-49.0	-64.5	3.6	1.51e+00	0	39	104	0	60	60798
