passes_logs/2026/01/07/R4.6S_Anadyr/R4.6S_Anadyr__20260107_155518_NOAA_20_JPSS-1_rec.log

#Pass ID: 20260107_155518_NOAA 20 (JPSS-1)
#Satellite: NOAA 20 (JPSS-1)
#Configuration: NOAA 20
#almurnet v.1.7.20251203
#Start time: 2026-01-07 15:55:20

#Version: 2.2.20231116
#Station: R4.6S_Anadyr
#Location: 177.4865 lon 64.73178 lat
#TLE: 1 43013U 17073A   26005.46207808  .00000128  00000+0  81791-4 0  9997
#TLE: 2 43013  98.7627 306.5027 0001826  53.0458 307.0885 14.19533487421381

#Time	Az	El	Level	Level2	SNR	BER	BlckErr	Temp	State	Recorded	gain1	gain2
2026-01-07 15:55:20.32	23.90	0.11	-49.3	-64.2	3.5	1.51e+00	0	35	0	0	60	58840
2026-01-07 15:55:21.33	23.88	0.17	-49.3	-64.5	3.6	1.51e+00	0	36	104	0	60	60554
2026-01-07 15:55:22.34	23.85	0.23	-49.3	-64.5	3.6	1.51e+00	0	36	104	0	60	60804
2026-01-07 15:55:23.35	23.82	0.29	-49.3	-64.5	3.6	1.51e+00	0	37	104	0	60	60625
2026-01-07 15:55:24.36	23.79	0.34	-49.2	-64.5	3.6	1.51e+00	0	37	104	0	60	60588
2026-01-07 15:55:25.37	23.76	0.40	-49.3	-64.5	3.6	1.51e+00	0	37	104	0	60	60905
2026-01-07 15:55:26.38	23.73	0.46	-49.3	-64.5	3.6	1.51e+00	0	37	104	0	60	61032
2026-01-07 15:55:27.39	23.70	0.52	-49.3	-64.5	3.6	1.51e+00	0	37	104	0	60	60429
2026-01-07 15:55:28.40	23.68	0.58	-49.3	-64.5	3.6	1.51e+00	0	37	104	0	60	60650
2026-01-07 15:55:29.40	23.65	0.64	-49.2	-64.4	3.6	1.51e+00	0	37	104	0	60	60272
2026-01-07 15:55:30.42	23.62	0.70	-49.1	-64.3	3.6	1.51e+00	0	37	104	0	60	59310
2026-01-07 15:55:31.43	23.59	0.76	-49.0	-64.2	3.6	1.51e+00	0	37	104	0	60	58767
2026-01-07 15:55:32.44	23.56	0.82	-48.8	-64.0	3.6	1.51e+00	0	37	104	0	60	57413
2026-01-07 15:55:33.44	23.53	0.88	-48.7	-63.9	3.6	1.51e+00	0	37	104	0	60	56438
2026-01-07 15:55:34.46	23.50	0.94	-48.5	-63.7	3.6	1.51e+00	0	37	104	0	60	55034
2026-01-07 15:55:35.46	23.47	1.00	-48.1	-63.3	3.6	1.51e+00	0	37	104	0	60	52733
2026-01-07 15:55:36.47	23.44	1.07	-47.9	-63.0	3.6	1.51e+00	0	37	104	0	60	50908
2026-01-07 15:55:37.48	23.41	1.13	-47.9	-63.1	3.6	1.51e+00	0	37	104	0	60	51484
2026-01-07 15:55:38.49	23.38	1.19	-47.9	-63.0	3.6	1.51e+00	0	37	104	0	60	51098
2026-01-07 15:55:39.50	23.35	1.25	-47.9	-63.1	3.6	1.51e+00	0	37	104	0	60	51379
2026-01-07 15:55:40.51	23.32	1.31	-47.9	-63.1	3.6	1.51e+00	0	37	104	0	60	51477
2026-01-07 15:55:41.52	23.29	1.37	-47.9	-63.0	3.6	1.51e+00	0	37	104	0	60	51313
2026-01-07 15:55:42.53	23.26	1.43	-47.9	-63.0	3.6	1.51e+00	0	37	104	0	60	51152
2026-01-07 15:55:43.54	23.23	1.49	-47.9	-63.0	3.6	1.51e+00	0	37	104	0	60	51191
2026-01-07 15:55:44.55	23.20	1.56	-47.9	-63.0	3.6	1.51e+00	0	37	104	0	60	51138
2026-01-07 15:55:45.56	23.17	1.62	-47.9	-63.1	3.6	1.51e+00	0	37	104	0	60	51497
2026-01-07 15:55:46.57	23.13	1.68	-47.9	-63.1	3.6	1.51e+00	0	37	104	0	60	51358
2026-01-07 15:55:47.58	23.10	1.74	-47.9	-63.1	3.6	1.51e+00	0	37	104	0	60	51555
2026-01-07 15:55:48.59	23.07	1.80	-47.9	-62.9	3.6	1.51e+00	0	37	104	0	60	50716
2026-01-07 15:55:49.60	23.04	1.87	-47.9	-62.9	3.6	1.51e+00	0	37	104	0	60	50290
2026-01-07 15:55:50.61	23.01	1.93	-47.8	-62.7	3.6	1.51e+00	0	37	104	0	60	49460
2026-01-07 15:55:51.62	22.97	1.99	-47.8	-62.6	3.6	1.51e+00	0	37	104	0	60	48818
2026-01-07 15:55:52.63	22.94	2.05	-47.8	-62.7	3.6	1.51e+00	0	37	104	0	60	49212
2026-01-07 15:55:53.64	22.91	2.12	-47.8	-62.7	3.6	1.51e+00	0	37	104	0	60	49340
2026-01-07 15:55:54.65	22.88	2.18	-47.9	-62.8	3.6	1.51e+00	0	37	104	0	60	49829
2026-01-07 15:55:55.66	22.84	2.24	-47.9	-63.0	3.6	1.51e+00	0	37	104	0	60	50839
2026-01-07 15:55:56.66	22.81	2.31	-47.9	-63.0	3.6	1.51e+00	0	37	104	0	60	51344
2026-01-07 15:55:57.67	22.78	2.37	-47.9	-63.1	3.6	1.51e+00	0	37	104	0	60	51504
2026-01-07 15:55:58.68	22.75	2.43	-47.9	-63.0	3.6	1.51e+00	0	37	104	0	60	51257
2026-01-07 15:55:59.69	22.71	2.50	-47.9	-63.0	3.6	1.51e+00	0	37	104	0	60	50823
2026-01-07 15:56:00.70	22.68	2.56	-47.8	-62.9	3.6	1.51e+00	0	37	104	0	60	50192
2026-01-07 15:56:01.71	22.64	2.62	-47.8	-62.7	3.6	1.51e+00	0	37	104	0	60	49598
2026-01-07 15:56:02.72	22.61	2.69	-47.8	-62.5	3.6	1.51e+00	0	37	104	0	60	48251
2026-01-07 15:56:03.73	22.58	2.75	-47.8	-62.3	3.6	1.51e+00	0	37	104	0	60	47036
2026-01-07 15:56:04.74	22.54	2.82	-47.8	-62.0	3.6	1.51e+00	0	37	104	0	60	45561
2026-01-07 15:56:05.75	22.51	2.88	-47.8	-61.9	3.6	1.51e+00	0	37	104	0	60	44844
2026-01-07 15:56:06.76	22.47	2.94	-47.8	-61.9	3.6	1.51e+00	0	37	104	0	60	45137
2026-01-07 15:56:07.77	22.44	3.01	-47.8	-62.1	3.6	1.51e+00	0	37	104	0	60	46266
2026-01-07 15:56:08.78	22.40	3.07	-47.8	-62.6	3.6	1.51e+00	0	37	104	0	60	48833
2026-01-07 15:56:09.79	22.37	3.14	-47.9	-63.0	3.6	1.51e+00	0	37	104	0	60	51208
2026-01-07 15:56:10.80	22.33	3.20	-47.8	-62.4	3.6	1.51e+00	0	37	104	0	60	47756
2026-01-07 15:56:11.81	22.30	3.27	-47.7	-60.6	3.8	1.51e+00	0	37	104	0	60	38668
2026-01-07 15:56:12.82	22.26	3.33	-47.5	-57.2	4.6	1.03e+00	79	37	0	0	60	26222
2026-01-07 15:56:13.83	22.23	3.40	-47.3	-54.7	6.3	3.97e-01	80	37	0	2097152	60	19673
2026-01-07 15:56:14.84	22.19	3.47	-46.9	-53.3	7.9	1.40e-01	80	37	0	4194304	60	16718
2026-01-07 15:56:15.85	22.16	3.53	-46.7	-52.4	9.0	3.26e-02	86	37	0	6291456	60	15122
2026-01-07 15:56:16.86	22.12	3.60	-46.5	-51.8	9.8	1.23e-02	2	37	0	7340032	60	13993
2026-01-07 15:56:17.87	22.08	3.66	-46.3	-51.4	10.2	7.43e-03	0	37	0	9437184	60	13472
2026-01-07 15:56:18.88	22.05	3.73	-47.9	-62.4	3.6	8.58e-01	0	37	104	11534336	60	47747
2026-01-07 15:56:19.89	22.01	3.80	-48.0	-62.8	3.6	1.51e+00	0	37	104	11534336	60	49784
2026-01-07 15:56:20.90	21.97	3.86	-46.9	-54.1	6.4	1.50e+00	54	37	104	11534336	60	18281
2026-01-07 15:56:21.91	21.93	3.93	-43.0	-44.9	17.7	2.93e-01	6	37	0	11534336	60	6361
2026-01-07 15:56:22.92	21.90	4.00	-47.8	-62.9	3.6	4.46e-02	0	37	104	13631488	60	50640
2026-01-07 15:56:23.93	21.86	4.06	-45.4	-49.3	5.9	1.51e+00	26	37	104	13631488	60	10518
2026-01-07 15:56:24.94	21.82	4.13	-40.7	-42.1	20.1	0.00e+00	13	37	0	13631488	56	5776
2026-01-07 15:56:25.95	21.78	4.20	-40.6	-41.9	20.3	0.00e+00	92	37	0	15728640	54	6361
2026-01-07 15:56:26.96	21.75	4.27	-40.6	-41.9	20.1	0.00e+00	12	37	0	16777216	54	6367
2026-01-07 15:56:27.97	21.71	4.33	-40.7	-42.0	20.1	0.00e+00	92	37	0	18874368	54	6458
2026-01-07 15:56:28.97	21.67	4.40	-40.2	-41.5	20.6	0.00e+00	6	37	0	20971520	54	6068
2026-01-07 15:56:29.98	21.63	4.47	-40.2	-41.5	20.7	0.00e+00	13	37	0	23068672	54	6040
2026-01-07 15:56:30.99	21.59	4.54	-40.1	-41.3	20.8	0.00e+00	0	37	0	25165824	54	5937
2026-01-07 15:56:32.00	21.55	4.60	-40.0	-41.2	21.0	0.00e+00	69	37	0	27262976	54	5839
2026-01-07 15:56:33.01	21.51	4.67	-40.0	-41.2	21.0	0.00e+00	92	37	0	28311552	54	5850
2026-01-07 15:56:34.02	21.47	4.74	-40.0	-41.2	20.9	0.00e+00	12	37	0	30408704	54	5856
2026-01-07 15:56:35.03	21.43	4.81	-39.9	-41.1	21.1	0.00e+00	92	37	0	32505856	54	5790
2026-01-07 15:56:36.04	21.39	4.88	-39.9	-41.1	21.0	0.00e+00	69	37	0	34603008	54	5786
2026-01-07 15:56:37.05	21.35	4.95	-39.8	-41.0	21.1	0.00e+00	0	37	0	36700160	54	5741
2026-01-07 15:56:38.06	21.31	5.02	-40.0	-41.2	21.0	0.00e+00	0	37	0	37748736	54	5876
2026-01-07 15:56:39.07	21.27	5.09	-40.0	-41.2	21.0	0.00e+00	73	37	0	39845888	54	5886
2026-01-07 15:56:40.08	21.23	5.16	-40.1	-41.4	20.9	0.00e+00	80	37	0	41943040	54	5970
2026-01-07 15:56:41.09	21.19	5.23	-39.9	-41.1	21.1	0.00e+00	0	37	0	44040192	54	5813
2026-01-07 15:56:42.10	21.15	5.30	-40.0	-41.2	21.0	0.00e+00	92	37	0	46137344	54	5874
2026-01-07 15:56:43.11	21.11	5.37	-39.8	-40.9	21.3	0.00e+00	0	37	0	47185920	54	5683
2026-01-07 15:56:44.11	21.07	5.44	-39.9	-41.0	21.1	0.00e+00	10	37	0	49283072	52	6441
2026-01-07 15:56:45.13	21.02	5.51	-39.9	-41.0	21.2	0.00e+00	0	37	0	51380224	52	6443
2026-01-07 15:56:46.13	20.98	5.58	-40.0	-41.2	21.1	0.00e+00	0	37	0	53477376	52	6585
2026-01-07 15:56:47.14	20.94	5.65	-39.8	-40.9	21.4	0.00e+00	12	37	0	55574528	52	6365
2026-01-07 15:56:48.15	20.90	5.72	-39.7	-40.8	21.4	0.00e+00	13	37	0	56623104	52	6308
2026-01-07 15:56:49.17	20.85	5.79	-39.8	-41.0	21.3	0.00e+00	92	37	0	58720256	52	6405
2026-01-07 15:56:50.17	20.81	5.86	-39.8	-41.0	21.3	0.00e+00	0	37	0	60817408	52	6432
2026-01-07 15:56:51.18	20.77	5.93	-39.8	-40.9	21.4	0.00e+00	92	37	0	62914560	52	6378
2026-01-07 15:56:52.20	20.72	6.00	-39.8	-40.9	21.4	0.00e+00	13	37	0	65011712	52	6349
2026-01-07 15:56:53.21	20.68	6.08	-39.7	-40.8	21.5	0.00e+00	69	37	0	66060288	52	6315
2026-01-07 15:56:54.21	20.64	6.15	-39.8	-41.0	21.4	0.00e+00	80	37	0	68157440	52	6422
2026-01-07 15:56:55.22	20.59	6.22	-39.8	-41.0	21.4	0.00e+00	69	37	0	70254592	52	6409
2026-01-07 15:56:56.23	20.55	6.29	-39.9	-41.1	21.3	0.00e+00	92	37	0	72351744	52	6471
2026-01-07 15:56:57.24	20.50	6.37	-39.9	-41.0	21.4	0.00e+00	0	37	0	74448896	52	6451
2026-01-07 15:56:58.25	20.46	6.44	-39.9	-41.1	21.3	0.00e+00	92	37	0	75497472	52	6499
2026-01-07 15:56:59.26	20.41	6.51	-39.8	-40.9	21.4	0.00e+00	0	37	0	77594624	52	6348
2026-01-07 15:57:00.27	20.37	6.58	-39.7	-40.8	21.6	0.00e+00	68	37	0	79691776	52	6293
2026-01-07 15:57:01.27	20.32	6.66	-39.8	-41.0	21.6	0.00e+00	68	37	0	81788928	52	6403
2026-01-07 15:57:02.28	20.28	6.73	-39.8	-40.9	21.5	0.00e+00	67	37	0	83886080	52	6367
2026-01-07 15:57:03.29	20.23	6.80	-39.7	-40.8	21.5	0.00e+00	92	37	0	84934656	52	6290
2026-01-07 15:57:04.30	20.18	6.88	-39.8	-40.9	21.6	0.00e+00	0	37	0	87031808	52	6345
2026-01-07 15:57:05.31	20.14	6.95	-39.7	-40.8	21.5	0.00e+00	92	37	0	89128960	52	6310
2026-01-07 15:57:06.32	20.09	7.03	-39.7	-40.8	21.7	0.00e+00	0	37	0	91226112	52	6278
2026-01-07 15:57:07.33	20.04	7.10	-39.6	-40.8	21.6	0.00e+00	81	37	0	93323264	52	6257
2026-01-07 15:57:08.34	19.99	7.18	-39.9	-41.0	21.4	0.00e+00	8	37	0	95420416	52	6463
2026-01-07 15:57:09.35	19.95	7.25	-39.7	-40.8	21.6	0.00e+00	9	37	0	96468992	52	6308
2026-01-07 15:57:10.36	19.90	7.32	-39.8	-40.9	21.6	0.00e+00	0	37	0	98566144	52	6371
2026-01-07 15:57:11.37	19.85	7.40	-39.7	-40.8	21.6	0.00e+00	9	37	0	100663296	52	6315
2026-01-07 15:57:12.38	19.80	7.48	-39.7	-40.8	21.7	0.00e+00	92	37	0	102760448	52	6286
2026-01-07 15:57:13.39	19.75	7.55	-39.7	-40.8	21.8	0.00e+00	9	37	0	104857600	52	6290
2026-01-07 15:57:14.40	19.70	7.63	-39.7	-40.8	21.7	0.00e+00	92	37	0	105906176	52	6266
2026-01-07 15:57:15.41	19.65	7.70	-39.6	-40.7	21.7	0.00e+00	0	37	0	108003328	52	6244
2026-01-07 15:57:16.41	19.60	7.78	-39.6	-40.8	21.7	0.00e+00	13	37	0	110100480	52	6247
2026-01-07 15:57:17.42	19.55	7.86	-39.7	-40.8	21.8	0.00e+00	11	37	0	112197632	52	6273
2026-01-07 15:57:18.43	19.50	7.93	-39.7	-40.8	21.8	0.00e+00	15	37	0	113246208	52	6248
2026-01-07 15:57:19.44	19.45	8.01	-39.7	-40.8	21.6	0.00e+00	92	38	0	115343360	52	6268
2026-01-07 15:57:20.45	19.40	8.09	-39.6	-40.7	21.9	0.00e+00	0	38	0	117440512	52	6182
2026-01-07 15:57:21.46	19.35	8.16	-39.6	-40.7	21.8	0.00e+00	91	38	0	119537664	52	6190
2026-01-07 15:57:22.47	19.30	8.24	-39.7	-40.8	21.8	0.00e+00	0	37	0	121634816	52	6283
2026-01-07 15:57:23.48	19.25	8.32	-39.7	-40.8	21.8	0.00e+00	2	37	0	123731968	52	6250
2026-01-07 15:57:24.49	19.20	8.40	-39.6	-40.7	21.9	0.00e+00	0	38	0	124780544	52	6194
2026-01-07 15:57:25.50	19.14	8.47	-39.5	-40.5	22.0	0.00e+00	0	38	0	126877696	52	6094
2026-01-07 15:57:26.51	19.09	8.55	-39.4	-40.4	22.1	0.00e+00	79	38	0	128974848	52	6030
2026-01-07 15:57:27.52	19.04	8.63	-39.4	-40.5	22.1	0.00e+00	0	38	0	131072000	52	6067
2026-01-07 15:57:28.53	18.99	8.71	-39.4	-40.5	22.0	0.00e+00	92	37	0	133169152	52	6068
2026-01-07 15:57:29.54	18.93	8.79	-39.5	-40.6	22.0	0.00e+00	14	38	0	134217728	52	6106
2026-01-07 15:57:30.55	18.88	8.87	-39.4	-40.4	22.2	0.00e+00	2	38	0	136314880	52	6001
2026-01-07 15:57:31.56	18.82	8.95	-39.4	-40.4	22.2	0.00e+00	0	38	0	138412032	52	6006
2026-01-07 15:57:32.57	18.77	9.03	-39.5	-40.6	22.0	0.00e+00	13	38	0	140509184	52	6122
2026-01-07 15:57:33.58	18.71	9.11	-39.3	-40.3	22.3	0.00e+00	0	38	0	142606336	52	5964
2026-01-07 15:57:34.59	18.66	9.19	-39.2	-40.2	22.3	0.00e+00	69	38	0	143654912	52	5879
2026-01-07 15:57:35.60	18.60	9.27	-39.2	-40.2	22.3	0.00e+00	92	37	0	145752064	52	5890
2026-01-07 15:57:36.61	18.55	9.35	-39.2	-40.2	22.4	0.00e+00	66	38	0	147849216	52	5871
2026-01-07 15:57:37.61	18.49	9.43	-39.2	-40.2	22.4	0.00e+00	92	38	0	149946368	52	5846
2026-01-07 15:57:38.62	18.44	9.51	-39.3	-40.4	22.2	0.00e+00	0	38	0	152043520	52	5984
2026-01-07 15:57:39.63	18.38	9.59	-39.1	-40.2	22.5	0.00e+00	0	38	0	153092096	52	5835
2026-01-07 15:57:40.64	18.32	9.67	-39.1	-40.1	22.6	0.00e+00	0	38	0	155189248	52	5767
2026-01-07 15:57:41.65	18.27	9.76	-39.0	-40.0	22.6	0.00e+00	0	38	0	157286400	52	5737
2026-01-07 15:57:42.66	18.21	9.84	-39.0	-40.0	22.5	0.00e+00	92	37	0	159383552	52	5733
2026-01-07 15:57:43.67	18.15	9.92	-39.1	-40.1	22.5	0.00e+00	0	38	0	161480704	52	5800
2026-01-07 15:57:44.68	18.09	10.00	-39.1	-40.1	22.5	0.00e+00	92	38	0	163577856	52	5793
2026-01-07 15:57:45.69	18.03	10.08	-39.1	-40.1	22.5	0.00e+00	6	38	0	164626432	52	5808
2026-01-07 15:57:46.70	17.97	10.17	-39.0	-40.0	22.6	0.00e+00	0	38	0	166723584	52	5715
2026-01-07 15:57:47.71	17.91	10.25	-39.0	-40.0	22.6	0.00e+00	0	38	0	168820736	52	5756
2026-01-07 15:57:48.72	17.85	10.33	-39.0	-40.0	22.6	0.00e+00	0	38	0	170917888	52	5747
2026-01-07 15:57:49.73	17.79	10.42	-38.9	-39.9	22.7	0.00e+00	0	38	0	171966464	52	5691
2026-01-07 15:57:50.74	17.73	10.50	-39.0	-40.0	22.6	0.00e+00	15	38	0	174063616	52	5724
2026-01-07 15:57:51.75	17.67	10.59	-39.1	-40.1	22.5	0.00e+00	92	38	0	176160768	52	5765
2026-01-07 15:57:52.76	17.61	10.67	-39.0	-40.0	22.6	0.00e+00	5	38	0	178257920	52	5741
2026-01-07 15:57:53.77	17.55	10.76	-39.0	-39.9	22.7	0.00e+00	59	38	0	180355072	52	5690
2026-01-07 15:57:54.77	17.49	10.84	-38.9	-39.9	22.7	0.00e+00	3	38	0	181403648	52	5651
2026-01-07 15:57:55.78	17.42	10.93	-38.9	-39.9	22.7	0.00e+00	8	38	0	183500800	52	5655
2026-01-07 15:57:56.79	17.36	11.01	-38.8	-39.8	22.8	0.00e+00	0	37	0	185597952	52	5615
2026-01-07 15:57:57.80	17.30	11.10	-38.9	-39.9	22.8	0.00e+00	15	38	0	187695104	52	5633
2026-01-07 15:57:58.81	17.23	11.18	-38.8	-39.8	22.9	0.00e+00	92	38	0	189792256	52	5593
2026-01-07 15:57:59.82	17.17	11.27	-38.9	-39.9	22.8	0.00e+00	14	38	0	191889408	52	5667
2026-01-07 15:58:00.83	17.10	11.36	-38.8	-39.8	22.8	0.00e+00	91	38	0	192937984	52	5600
2026-01-07 15:58:01.84	17.04	11.44	-38.8	-39.8	22.9	0.00e+00	0	38	0	195035136	50	6249
2026-01-07 15:58:02.85	16.97	11.53	-38.7	-39.7	23.0	0.00e+00	76	37	0	197132288	50	6195
2026-01-07 15:58:03.86	16.91	11.62	-38.7	-39.7	22.9	0.00e+00	0	37	0	199229440	50	6221
2026-01-07 15:58:04.87	16.84	11.71	-38.8	-39.8	22.9	0.00e+00	74	38	0	201326592	50	6254
2026-01-07 15:58:05.88	16.78	11.79	-38.7	-39.6	23.0	0.00e+00	92	38	0	202375168	50	6148
2026-01-07 15:58:06.89	16.71	11.88	-38.7	-39.7	22.9	0.00e+00	5	38	0	204472320	50	6185
2026-01-07 15:58:07.90	16.64	11.97	-38.7	-39.7	22.9	0.00e+00	92	38	0	206569472	50	6188
2026-01-07 15:58:08.90	16.57	12.06	-38.5	-39.4	23.0	0.00e+00	6	38	0	208666624	50	6021
2026-01-07 15:58:09.91	16.51	12.15	-38.5	-39.5	23.1	0.00e+00	8	37	0	210763776	50	6054
2026-01-07 15:58:10.93	16.44	12.24	-38.7	-39.6	22.9	0.00e+00	0	38	0	211812352	50	6159
2026-01-07 15:58:11.93	16.37	12.33	-38.7	-39.7	23.0	0.00e+00	9	38	0	213909504	50	6180
2026-01-07 15:58:12.94	16.30	12.42	-38.7	-39.6	23.0	0.00e+00	0	38	0	216006656	50	6146
2026-01-07 15:58:13.95	16.23	12.51	-38.6	-39.5	23.0	0.00e+00	16	38	0	218103808	50	6098
2026-01-07 15:58:14.96	16.16	12.60	-38.8	-39.8	23.0	0.00e+00	92	38	0	220200960	50	6252
2026-01-07 15:58:15.97	16.09	12.69	-38.6	-39.6	23.1	0.00e+00	15	38	0	221249536	50	6109
2026-01-07 15:58:16.98	16.01	12.78	-38.6	-39.5	23.1	0.00e+00	92	38	0	223346688	50	6087
2026-01-07 15:58:17.99	15.94	12.87	-38.5	-39.5	23.2	0.00e+00	10	38	0	225443840	50	6050
2026-01-07 15:58:19.00	15.87	12.96	-38.8	-39.8	22.9	0.00e+00	71	38	0	227540992	50	6269
2026-01-07 15:58:20.01	15.80	13.05	-38.7	-39.7	23.0	0.00e+00	0	38	0	229638144	50	6193
2026-01-07 15:58:21.02	15.72	13.15	-38.6	-39.6	23.2	0.00e+00	16	37	0	230686720	50	6109
2026-01-07 15:58:22.03	15.65	13.24	-38.2	-39.1	23.5	0.00e+00	92	38	0	232783872	50	5777
2026-01-07 15:58:23.04	15.57	13.33	-38.3	-39.2	23.4	0.00e+00	0	38	0	234881024	50	5879
2026-01-07 15:58:24.05	15.50	13.43	-38.2	-39.1	23.5	0.00e+00	92	38	0	236978176	50	5814
2026-01-07 15:58:25.06	15.42	13.52	-38.4	-39.3	23.4	0.00e+00	0	38	0	239075328	50	5936
2026-01-07 15:58:26.07	15.35	13.61	-38.2	-39.1	23.5	0.00e+00	71	37	0	240123904	50	5816
2026-01-07 15:58:27.08	15.27	13.71	-38.2	-39.1	23.6	0.00e+00	70	38	0	242221056	50	5784
2026-01-07 15:58:28.09	15.20	13.80	-38.3	-39.2	23.5	0.00e+00	0	38	0	244318208	50	5855
2026-01-07 15:58:29.09	15.12	13.90	-38.2	-39.1	23.4	0.00e+00	90	38	0	246415360	50	5820
2026-01-07 15:58:30.10	15.04	13.99	-38.2	-39.1	23.6	0.00e+00	0	38	0	248512512	50	5781
2026-01-07 15:58:31.11	14.96	14.09	-38.4	-39.3	23.4	0.00e+00	91	38	0	249561088	50	5922
2026-01-07 15:58:32.12	14.88	14.18	-38.3	-39.2	23.5	0.00e+00	0	38	0	251658240	50	5835
2026-01-07 15:58:33.13	14.80	14.28	-38.2	-39.1	23.5	0.00e+00	15	38	0	253755392	50	5811
2026-01-07 15:58:34.14	14.72	14.37	-38.3	-39.2	23.5	0.00e+00	2	38	0	255852544	50	5844
2026-01-07 15:58:35.15	14.64	14.47	-38.3	-39.2	23.5	0.00e+00	4	38	0	257949696	50	5850
2026-01-07 15:58:36.16	14.56	14.57	-38.2	-39.1	23.5	0.00e+00	0	38	0	260046848	50	5826
2026-01-07 15:58:37.17	14.48	14.67	-38.2	-39.1	23.6	0.00e+00	2	38	0	261095424	50	5807
2026-01-07 15:58:38.18	14.40	14.76	-38.2	-39.1	23.5	0.00e+00	92	38	0	263192576	50	5801
2026-01-07 15:58:39.19	14.32	14.86	-38.2	-39.1	23.6	0.00e+00	64	38	0	265289728	50	5821
2026-01-07 15:58:40.20	14.23	14.96	-38.3	-39.2	23.5	0.00e+00	78	38	0	267386880	50	5855
2026-01-07 15:58:41.21	14.15	15.06	-38.3	-39.2	23.7	0.00e+00	71	38	0	269484032	50	5839
2026-01-07 15:58:42.22	14.06	15.16	-38.2	-39.1	23.7	0.00e+00	10	38	0	270532608	50	5785
2026-01-07 15:58:43.23	13.98	15.26	-38.3	-39.2	23.5	0.00e+00	0	38	0	272629760	50	5844
2026-01-07 15:58:44.24	13.89	15.36	-38.2	-39.1	23.6	0.00e+00	65	38	0	274726912	50	5793
2026-01-07 15:58:45.25	13.81	15.46	-38.2	-39.1	23.6	0.00e+00	92	38	0	276824064	50	5787
2026-01-07 15:58:46.26	13.72	15.56	-38.3	-39.2	23.5	0.00e+00	0	38	0	278921216	50	5837
2026-01-07 15:58:47.27	13.63	15.66	-38.2	-39.1	23.6	0.00e+00	92	38	0	279969792	50	5800
2026-01-07 15:58:48.28	13.54	15.76	-38.3	-39.2	23.5	0.00e+00	0	38	0	282066944	50	5883
2026-01-07 15:58:49.29	13.45	15.86	-38.3	-39.2	23.6	0.00e+00	0	38	0	284164096	50	5855
2026-01-07 15:58:50.30	13.36	15.96	-38.4	-39.3	23.5	0.00e+00	0	38	0	286261248	50	5948
2026-01-07 15:58:51.31	13.27	16.06	-38.3	-39.2	23.5	0.00e+00	0	38	0	288358400	50	5866
2026-01-07 15:58:52.32	13.18	16.17	-38.3	-39.2	23.5	0.00e+00	92	38	0	289406976	50	5884
2026-01-07 15:58:53.33	13.09	16.27	-38.4	-39.3	23.4	0.00e+00	2	38	0	291504128	50	5948
2026-01-07 15:58:54.34	13.00	16.37	-38.5	-39.4	23.3	0.00e+00	90	38	0	293601280	50	5998
2026-01-07 15:58:55.35	12.91	16.48	-38.3	-39.2	23.5	0.00e+00	16	38	0	295698432	50	5868
2026-01-07 15:58:56.36	12.81	16.58	-38.3	-39.2	23.6	0.00e+00	18	38	0	297795584	50	5883
2026-01-07 15:58:57.36	12.72	16.68	-38.3	-39.2	23.5	0.00e+00	15	38	0	298844160	50	5863
2026-01-07 15:58:58.37	12.63	16.79	-38.3	-39.2	23.5	0.00e+00	0	38	0	300941312	50	5885
2026-01-07 15:58:59.38	12.53	16.89	-38.4	-39.3	23.5	0.00e+00	0	38	0	303038464	50	5911
2026-01-07 15:59:00.39	12.44	17.00	-38.4	-39.3	23.4	0.00e+00	63	38	0	305135616	50	5944
2026-01-07 15:59:01.40	12.34	17.10	-38.4	-39.3	23.5	0.00e+00	92	38	0	307232768	50	5938
2026-01-07 15:59:02.41	12.24	17.21	-38.5	-39.4	23.5	0.00e+00	64	38	0	308281344	50	5979
2026-01-07 15:59:03.42	12.14	17.32	-38.5	-39.4	23.3	0.00e+00	92	38	0	310378496	50	6023
2026-01-07 15:59:04.43	12.04	17.42	-38.5	-39.4	23.4	0.00e+00	0	38	0	312475648	50	6015
2026-01-07 15:59:05.44	11.94	17.53	-38.5	-39.4	23.4	0.00e+00	0	38	0	314572800	50	6025
2026-01-07 15:59:06.45	11.84	17.64	-38.6	-39.6	23.2	0.00e+00	0	38	0	316669952	50	6113
2026-01-07 15:59:07.46	11.74	17.75	-38.8	-39.7	23.2	0.00e+00	0	38	0	317718528	50	6210
2026-01-07 15:59:08.47	11.64	17.86	-38.7	-39.6	23.2	0.00e+00	91	38	0	319815680	50	6165
2026-01-07 15:59:09.48	11.54	17.96	-38.8	-39.7	23.1	0.00e+00	0	38	0	321912832	50	6214
2026-01-07 15:59:10.49	11.43	18.07	-38.7	-39.7	23.2	0.00e+00	91	38	0	324009984	50	6175
2026-01-07 15:59:11.50	11.33	18.18	-38.9	-39.9	23.0	0.00e+00	0	38	0	326107136	50	6335
2026-01-07 15:59:12.51	11.22	18.29	-38.9	-39.8	23.0	0.00e+00	0	38	0	328204288	50	6307
2026-01-07 15:59:13.52	11.12	18.40	-38.8	-39.7	23.2	0.00e+00	2	38	0	329252864	50	6208
2026-01-07 15:59:14.53	11.01	18.51	-38.8	-39.7	23.2	0.00e+00	2	38	0	331350016	50	6214
2026-01-07 15:59:15.54	10.91	18.62	-38.8	-39.7	23.1	0.00e+00	92	38	0	333447168	50	6229
2026-01-07 15:59:16.55	10.80	18.74	-38.8	-39.7	23.1	0.00e+00	0	38	0	335544320	50	6217
2026-01-07 15:59:17.56	10.69	18.85	-38.7	-39.7	23.2	0.00e+00	92	38	0	337641472	50	6179
2026-01-07 15:59:18.57	10.58	18.96	-38.6	-39.5	23.3	0.00e+00	17	38	0	338690048	50	6051
2026-01-07 15:59:19.58	10.47	19.07	-38.7	-39.6	23.2	0.00e+00	16	38	0	340787200	50	6151
2026-01-07 15:59:20.59	10.36	19.19	-38.9	-39.8	23.0	0.00e+00	70	38	0	342884352	50	6305
2026-01-07 15:59:21.60	10.24	19.30	-38.7	-39.6	23.3	0.00e+00	13	38	0	344981504	50	6119
2026-01-07 15:59:22.61	10.13	19.41	-38.9	-39.8	23.1	0.00e+00	16	38	0	347078656	50	6293
2026-01-07 15:59:23.62	10.02	19.53	-38.7	-39.6	23.3	0.00e+00	0	38	0	348127232	50	6157
2026-01-07 15:59:24.63	9.90	19.64	-38.8	-39.8	23.2	0.00e+00	92	38	0	350224384	50	6258
2026-01-07 15:59:25.64	9.78	19.76	-38.6	-39.5	23.2	0.00e+00	65	38	0	352321536	50	6096
2026-01-07 15:59:26.64	9.67	19.87	-38.7	-39.7	23.0	0.00e+00	92	38	0	354418688	50	6183
2026-01-07 15:59:27.66	9.55	19.99	-38.6	-39.5	23.2	0.00e+00	0	38	0	356515840	50	6080
2026-01-07 15:59:28.66	9.43	20.10	-38.8	-39.7	23.1	0.00e+00	3	38	0	357564416	50	6227
2026-01-07 15:59:29.67	9.31	20.22	-38.7	-39.6	23.3	0.00e+00	0	38	0	359661568	50	6131
2026-01-07 15:59:30.68	9.19	20.34	-38.6	-39.6	23.3	0.00e+00	0	38	0	361758720	50	6108
2026-01-07 15:59:31.69	9.07	20.46	-38.7	-39.6	23.3	0.00e+00	92	38	0	363855872	50	6145
2026-01-07 15:59:32.70	8.95	20.57	-38.8	-39.8	23.2	0.00e+00	0	38	0	365953024	50	6269
2026-01-07 15:59:33.71	8.83	20.69	-38.8	-39.7	23.2	0.00e+00	91	38	0	367001600	50	6234
2026-01-07 15:59:34.72	8.70	20.81	-38.8	-39.7	23.2	0.00e+00	5	38	0	369098752	50	6233
2026-01-07 15:59:35.73	8.58	20.93	-38.8	-39.7	23.2	0.00e+00	0	38	0	371195904	50	6213
2026-01-07 15:59:36.74	8.45	21.05	-38.8	-39.7	23.2	0.00e+00	0	38	0	373293056	50	6237
2026-01-07 15:59:37.75	8.32	21.17	-38.7	-39.7	23.3	0.00e+00	5	38	0	375390208	50	6179
2026-01-07 15:59:38.76	8.19	21.29	-38.8	-39.8	23.2	0.00e+00	91	38	0	376438784	50	6263
2026-01-07 15:59:39.77	8.06	21.41	-38.8	-39.8	23.1	0.00e+00	6	38	0	378535936	50	6268
2026-01-07 15:59:40.78	7.93	21.53	-39.0	-39.9	23.1	0.00e+00	92	38	0	380633088	50	6377
2026-01-07 15:59:41.79	7.80	21.65	-38.7	-39.7	23.2	0.00e+00	17	38	0	382730240	50	6186
2026-01-07 15:59:42.80	7.67	21.78	-38.8	-39.7	23.2	0.00e+00	17	38	0	384827392	50	6231
2026-01-07 15:59:43.81	7.54	21.90	-38.8	-39.7	23.2	0.00e+00	69	38	0	385875968	50	6230
2026-01-07 15:59:44.82	7.40	22.02	-38.8	-39.7	23.2	0.00e+00	68	38	0	387973120	50	6244
2026-01-07 15:59:45.83	7.26	22.14	-38.6	-39.5	23.4	0.00e+00	0	38	0	390070272	50	6095
2026-01-07 15:59:46.84	7.13	22.27	-38.6	-39.5	23.4	0.00e+00	1	38	0	392167424	50	6070
2026-01-07 15:59:47.85	6.99	22.39	-38.6	-39.5	23.4	0.00e+00	92	38	0	394264576	50	6103
2026-01-07 15:59:48.86	6.85	22.52	-38.6	-39.5	23.4	0.00e+00	68	38	0	396361728	50	6100
2026-01-07 15:59:49.86	6.71	22.64	-38.7	-39.7	23.3	0.00e+00	92	38	0	397410304	50	6192
2026-01-07 15:59:50.87	6.57	22.77	-38.7	-39.6	23.1	0.00e+00	3	38	0	399507456	50	6171
2026-01-07 15:59:51.88	6.43	22.89	-38.7	-39.7	22.9	0.00e+00	2	38	0	401604608	50	6176
2026-01-07 15:59:52.89	6.28	23.02	-38.9	-39.9	23.2	0.00e+00	0	38	0	403701760	50	6333
2026-01-07 15:59:53.90	6.14	23.15	-38.9	-39.9	23.1	0.00e+00	7	38	0	405798912	50	6338
2026-01-07 15:59:54.91	5.99	23.27	-38.9	-39.8	23.2	0.00e+00	92	38	0	406847488	50	6272
2026-01-07 15:59:55.92	5.84	23.40	-38.9	-39.8	23.2	0.00e+00	6	38	0	408944640	50	6271
2026-01-07 15:59:56.93	5.69	23.53	-38.9	-39.8	23.3	0.00e+00	92	38	0	411041792	50	6295
2026-01-07 15:59:57.94	5.54	23.66	-38.8	-39.7	23.3	0.00e+00	2	38	0	413138944	50	6206
2026-01-07 15:59:58.95	5.39	23.79	-38.8	-39.7	23.3	0.00e+00	19	38	0	415236096	50	6196
2026-01-07 15:59:59.96	5.24	23.91	-38.9	-39.8	23.2	0.00e+00	7	38	0	416284672	50	6274
2026-01-07 16:00:00.96	5.09	24.04	-38.8	-39.8	23.2	0.00e+00	2	38	0	418381824	50	6265
2026-01-07 16:00:01.97	4.93	24.17	-39.0	-39.9	23.2	0.00e+00	1	38	0	420478976	50	6358
2026-01-07 16:00:02.98	4.78	24.30	-38.8	-39.8	23.2	0.00e+00	6	38	0	422576128	50	6247
2026-01-07 16:00:03.99	4.62	24.43	-39.0	-39.9	23.1	0.00e+00	92	38	0	424673280	50	6354
2026-01-07 16:00:05.00	4.46	24.57	-39.1	-40.1	23.0	0.00e+00	62	38	0	425721856	50	6491
2026-01-07 16:00:06.01	4.30	24.70	-39.0	-39.9	23.1	0.00e+00	63	38	0	427819008	50	6363
2026-01-07 16:00:07.02	4.14	24.83	-38.9	-39.9	23.2	0.00e+00	17	38	0	429916160	50	6321
2026-01-07 16:00:08.03	3.97	24.96	-38.9	-39.8	23.2	0.00e+00	18	38	0	432013312	50	6308
2026-01-07 16:00:09.04	3.81	25.10	-39.0	-39.9	23.1	0.00e+00	74	38	0	434110464	50	6364
2026-01-07 16:00:10.05	3.64	25.23	-39.0	-39.9	23.0	0.00e+00	67	38	0	435159040	50	6365
2026-01-07 16:00:11.06	3.48	25.36	-39.0	-40.0	23.0	0.00e+00	92	38	0	437256192	50	6408
2026-01-07 16:00:12.07	3.31	25.50	-39.0	-39.9	23.0	0.00e+00	67	38	0	439353344	50	6368
2026-01-07 16:00:13.08	3.14	25.63	-39.0	-40.0	23.0	0.00e+00	92	38	0	441450496	50	6434
2026-01-07 16:00:14.09	2.96	25.77	-39.0	-40.0	23.1	0.00e+00	0	38	0	443547648	50	6436
2026-01-07 16:00:15.10	2.79	25.90	-38.9	-39.9	23.1	0.00e+00	0	38	0	444596224	50	6331
2026-01-07 16:00:16.11	2.62	26.04	-39.0	-39.9	23.2	0.00e+00	0	38	0	446693376	50	6375
2026-01-07 16:00:17.12	2.44	26.17	-38.9	-39.9	23.2	0.00e+00	0	38	0	448790528	50	6342
2026-01-07 16:00:18.13	2.26	26.31	-38.9	-39.9	23.2	0.00e+00	92	38	0	450887680	50	6319
2026-01-07 16:00:19.14	2.08	26.45	-38.9	-39.8	23.3	0.00e+00	0	38	0	452984832	50	6270
2026-01-07 16:00:20.15	1.90	26.59	-38.9	-39.8	23.2	0.00e+00	92	38	0	454033408	50	6286
2026-01-07 16:00:21.16	1.72	26.72	-38.9	-39.8	23.2	0.00e+00	0	38	0	456130560	50	6288
2026-01-07 16:00:22.17	1.53	26.86	-38.9	-39.9	23.2	0.00e+00	0	38	0	458227712	50	6318
2026-01-07 16:00:23.18	1.35	27.00	-38.9	-39.9	23.1	0.00e+00	0	38	0	460324864	50	6323
2026-01-07 16:00:24.19	1.16	27.14	-39.0	-39.9	23.1	0.00e+00	19	38	0	462422016	50	6380
2026-01-07 16:00:25.20	0.97	27.28	-38.8	-39.7	23.2	0.00e+00	91	38	0	464519168	50	6227
2026-01-07 16:00:26.21	0.78	27.42	-38.8	-39.8	23.2	0.00e+00	63	38	0	465567744	50	6265
2026-01-07 16:00:27.22	0.58	27.56	-39.0	-39.9	23.0	0.00e+00	91	38	0	467664896	50	6358
2026-01-07 16:00:28.23	0.39	27.70	-39.0	-40.0	22.0	0.00e+00	64	38	0	469762048	50	6405
2026-01-07 16:00:29.24	0.19	27.84	-39.1	-40.1	22.7	0.00e+00	73	38	0	471859200	50	6497
2026-01-07 16:00:30.25	360.00	27.98	-39.2	-40.2	22.7	0.00e+00	62	38	0	473956352	50	6583
2026-01-07 16:00:31.26	359.80	28.12	-39.1	-40.1	22.9	0.00e+00	62	38	0	475004928	50	6468
2026-01-07 16:00:32.27	359.59	28.26	-39.3	-40.3	22.8	0.00e+00	8	38	0	477102080	50	6645
2026-01-07 16:00:33.28	359.39	28.40	-39.3	-40.2	22.7	0.00e+00	2	38	0	479199232	50	6606
2026-01-07 16:00:34.29	359.18	28.55	-39.6	-40.6	22.5	0.00e+00	92	38	0	481296384	50	6877
2026-01-07 16:00:35.30	358.98	28.69	-39.6	-40.6	22.5	0.00e+00	0	38	0	483393536	50	6871
2026-01-07 16:00:36.31	358.77	28.83	-39.7	-40.8	22.4	0.00e+00	82	38	0	484442112	50	7019
2026-01-07 16:00:37.32	358.56	28.97	-39.9	-40.9	22.3	0.00e+00	0	38	0	486539264	52	6375
2026-01-07 16:00:38.33	358.34	29.12	-40.1	-41.1	22.0	0.00e+00	0	38	0	488636416	52	6531
2026-01-07 16:00:39.34	358.13	29.26	-40.5	-41.6	21.6	0.00e+00	0	38	0	490733568	52	6878
2026-01-07 16:00:40.35	357.91	29.41	-40.4	-41.5	21.7	0.00e+00	0	38	0	492830720	52	6842
2026-01-07 16:00:41.36	357.69	29.55	-40.6	-41.8	21.4	0.00e+00	92	38	0	493879296	52	7008
2026-01-07 16:00:42.37	357.47	29.69	-40.7	-41.9	21.3	0.00e+00	0	38	0	495976448	52	7153
2026-01-07 16:00:43.38	357.25	29.84	-41.0	-42.2	20.9	0.00e+00	92	38	0	498073600	54	6583
2026-01-07 16:00:44.39	357.03	29.98	-41.1	-42.4	21.0	0.00e+00	19	38	0	500170752	54	6700
2026-01-07 16:00:45.40	356.80	30.13	-41.3	-42.6	20.6	0.00e+00	21	38	0	502267904	54	6863
2026-01-07 16:00:46.41	356.57	30.27	-41.6	-43.0	20.1	0.00e+00	68	38	0	503316480	54	7212
2026-01-07 16:00:47.42	356.34	30.42	-41.9	-43.3	20.1	0.00e+00	63	38	0	505413632	56	6688
2026-01-07 16:00:48.43	356.10	30.57	-42.1	-43.5	19.9	0.00e+00	20	38	0	507510784	56	6817
2026-01-07 16:00:49.44	355.87	30.71	-42.2	-43.7	19.6	0.00e+00	2	38	0	509607936	56	6972
2026-01-07 16:00:50.45	355.63	30.86	-42.4	-43.9	19.5	0.00e+00	92	38	0	511705088	56	7154
2026-01-07 16:00:51.46	355.39	31.00	-42.7	-44.2	19.2	0.00e+00	0	38	0	512753664	56	7403
2026-01-07 16:00:52.47	355.15	31.15	-42.7	-44.2	19.2	0.00e+00	18	38	0	514850816	56	7397
2026-01-07 16:00:53.48	354.91	31.30	-42.7	-44.2	19.2	0.00e+00	0	38	0	516947968	58	6610
2026-01-07 16:00:54.49	354.66	31.44	-42.3	-43.8	19.5	0.00e+00	2	38	0	519045120	58	6279
2026-01-07 16:00:55.50	354.41	31.59	-42.3	-43.8	19.6	0.00e+00	0	38	0	521142272	58	6264
2026-01-07 16:00:56.51	354.16	31.74	-42.2	-43.7	19.6	0.00e+00	0	38	0	522190848	58	6181
2026-01-07 16:00:57.52	353.91	31.89	-41.8	-43.2	20.1	0.00e+00	92	38	0	524288000	58	5886
2026-01-07 16:00:58.53	353.65	32.03	-41.9	-43.3	20.1	0.00e+00	0	38	0	526385152	58	5909
2026-01-07 16:00:59.54	353.39	32.18	-41.8	-43.2	20.1	0.00e+00	0	38	0	528482304	56	6593
2026-01-07 16:01:00.55	353.13	32.33	-42.0	-43.5	19.8	0.00e+00	19	38	0	530579456	56	6771
2026-01-07 16:01:01.56	352.87	32.47	-42.2	-43.7	19.7	0.00e+00	0	38	0	532676608	56	6936
2026-01-07 16:01:02.57	352.60	32.62	-42.3	-43.8	19.6	0.00e+00	0	38	0	533725184	56	7086
2026-01-07 16:01:03.58	352.34	32.77	-42.3	-43.8	19.6	0.00e+00	64	38	0	535822336	56	7056
2026-01-07 16:01:04.59	352.07	32.92	-42.2	-43.6	19.8	0.00e+00	92	38	0	537919488	56	6892
2026-01-07 16:01:05.60	351.79	33.06	-42.0	-43.4	20.0	0.00e+00	63	38	0	540016640	56	6704
2026-01-07 16:01:06.61	351.52	33.21	-42.0	-43.4	20.0	0.00e+00	92	38	0	542113792	56	6737
2026-01-07 16:01:07.62	351.24	33.36	-42.3	-43.7	19.8	0.00e+00	0	38	0	543162368	56	6971
2026-01-07 16:01:08.63	350.96	33.51	-42.2	-43.6	19.8	0.00e+00	0	38	0	545259520	56	6915
2026-01-07 16:01:09.64	350.68	33.65	-42.1	-43.5	19.8	0.00e+00	0	38	0	547356672	56	6832
2026-01-07 16:01:10.65	350.39	33.80	-42.0	-43.4	20.0	0.00e+00	67	38	0	549453824	56	6740
2026-01-07 16:01:11.66	350.10	33.95	-41.8	-43.2	20.2	0.00e+00	92	38	0	551550976	56	6581
2026-01-07 16:01:12.67	349.81	34.10	-41.6	-42.9	20.5	0.00e+00	67	38	0	552599552	56	6370
2026-01-07 16:01:13.69	349.52	34.24	-41.6	-42.9	20.4	0.00e+00	92	38	0	554696704	56	6358
2026-01-07 16:01:14.69	349.22	34.39	-41.6	-42.9	20.6	0.00e+00	0	38	0	556793856	56	6371
2026-01-07 16:01:15.70	348.93	34.54	-41.1	-42.4	20.9	0.00e+00	0	38	0	558891008	56	5995
2026-01-07 16:01:16.71	348.62	34.68	-40.9	-42.1	21.2	0.00e+00	1	38	0	560988160	56	5806
2026-01-07 16:01:17.72	348.32	34.83	-40.9	-42.1	21.2	0.00e+00	6	38	0	562036736	56	5788
2026-01-07 16:01:18.74	348.01	34.97	-40.7	-41.8	21.4	0.00e+00	54	38	0	564133888	54	6293
2026-01-07 16:01:19.74	347.70	35.12	-40.6	-41.7	21.5	0.00e+00	18	38	0	566231040	54	6238
2026-01-07 16:01:20.76	347.39	35.27	-40.4	-41.5	21.8	0.00e+00	92	38	0	568328192	54	6041
2026-01-07 16:01:21.77	347.07	35.41	-40.2	-41.3	21.9	0.00e+00	6	38	0	570425344	54	5944
2026-01-07 16:01:22.78	346.75	35.55	-40.4	-41.5	21.8	0.00e+00	17	38	0	571473920	54	6050
2026-01-07 16:01:23.78	346.44	35.70	-40.2	-41.3	21.9	0.00e+00	20	38	0	573571072	54	5932
2026-01-07 16:01:24.80	346.11	35.84	-40.2	-41.3	22.2	0.00e+00	19	38	0	575668224	54	5924
2026-01-07 16:01:25.80	345.78	35.98	-39.9	-41.0	22.2	0.00e+00	0	38	0	577765376	54	5702
2026-01-07 16:01:26.81	345.45	36.13	-39.9	-41.0	22.2	0.00e+00	69	38	0	579862528	54	5714
2026-01-07 16:01:27.82	345.12	36.27	-40.0	-41.1	22.1	0.00e+00	92	38	0	580911104	54	5780
2026-01-07 16:01:28.84	344.78	36.41	-40.3	-41.4	21.8	0.00e+00	66	38	0	583008256	54	6019
2026-01-07 16:01:29.84	344.45	36.55	-40.4	-41.5	21.6	0.00e+00	90	38	0	585105408	54	6086
2026-01-07 16:01:30.85	344.11	36.69	-40.7	-41.8	21.4	0.00e+00	66	38	0	587202560	54	6310
2026-01-07 16:01:31.86	343.76	36.83	-40.9	-42.1	21.4	0.00e+00	6	38	0	589299712	54	6492
2026-01-07 16:01:32.87	343.41	36.97	-40.2	-41.3	22.0	0.00e+00	1	38	0	590348288	54	5901
2026-01-07 16:01:33.88	343.06	37.11	-39.9	-40.9	22.3	0.00e+00	0	38	0	592445440	54	5651
2026-01-07 16:01:34.89	342.71	37.25	-40.0	-41.0	22.2	0.00e+00	83	38	0	594542592	54	5739
2026-01-07 16:01:35.90	342.35	37.39	-40.4	-41.5	21.6	0.00e+00	6	38	0	596639744	54	6048
2026-01-07 16:01:36.91	341.99	37.53	-40.6	-41.8	21.5	0.00e+00	92	38	0	598736896	54	6252
2026-01-07 16:01:37.92	341.63	37.66	-40.7	-41.9	21.4	0.00e+00	8	38	0	600834048	54	6367
2026-01-07 16:01:38.93	341.27	37.80	-40.4	-41.5	21.8	0.00e+00	4	38	0	601882624	54	6059
2026-01-07 16:01:39.94	340.90	37.93	-40.2	-41.3	22.0	0.00e+00	14	38	0	603979776	54	5913
2026-01-07 16:01:40.95	340.52	38.07	-40.0	-41.0	22.2	0.00e+00	13	38	0	606076928	54	5756
2026-01-07 16:01:41.96	340.15	38.20	-40.0	-41.0	22.2	0.00e+00	21	38	0	608174080	54	5734
2026-01-07 16:01:42.97	339.77	38.33	-40.4	-41.5	21.7	0.00e+00	15	38	0	610271232	54	6044
2026-01-07 16:01:43.98	339.39	38.46	-40.5	-41.6	21.6	0.00e+00	92	38	0	611319808	54	6134
2026-01-07 16:01:44.99	339.01	38.59	-40.7	-41.9	21.4	0.00e+00	16	38	0	613416960	54	6323
2026-01-07 16:01:46.00	338.62	38.72	-40.8	-42.0	21.4	0.00e+00	92	38	0	615514112	54	6403
2026-01-07 16:01:47.01	338.23	38.85	-40.6	-41.7	21.6	0.00e+00	21	38	0	617611264	54	6236
2026-01-07 16:01:48.02	337.83	38.98	-40.3	-41.4	21.8	0.00e+00	19	38	0	619708416	54	6016
2026-01-07 16:01:49.03	337.44	39.10	-40.3	-41.5	21.8	0.00e+00	82	38	0	620756992	54	6036
2026-01-07 16:01:50.04	337.04	39.23	-40.2	-41.2	22.0	0.00e+00	0	38	0	622854144	54	5888
2026-01-07 16:01:51.05	336.63	39.35	-39.9	-41.0	22.2	0.00e+00	92	38	0	624951296	54	5707
2026-01-07 16:01:52.06	336.23	39.47	-39.7	-40.8	22.3	0.00e+00	0	38	0	627048448	52	6260
2026-01-07 16:01:53.07	335.82	39.60	-39.8	-40.9	22.3	0.00e+00	92	38	0	629145600	52	6339
2026-01-07 16:01:54.08	335.41	39.72	-39.4	-40.4	22.8	0.00e+00	2	38	0	630194176	52	6032
2026-01-07 16:01:55.09	334.99	39.83	-39.3	-40.3	22.9	0.00e+00	2	38	0	632291328	52	5914
2026-01-07 16:01:56.10	334.57	39.95	-39.3	-40.3	22.9	0.00e+00	0	38	0	634388480	52	5944
2026-01-07 16:01:57.11	334.15	40.07	-39.1	-40.1	23.1	0.00e+00	2	38	0	636485632	52	5765
2026-01-07 16:01:58.12	333.73	40.18	-38.9	-39.9	23.3	0.00e+00	92	38	0	638582784	52	5644
2026-01-07 16:01:59.13	333.30	40.30	-38.8	-39.8	22.9	0.00e+00	0	38	0	639631360	52	5586
2026-01-07 16:02:00.14	332.87	40.41	-38.3	-39.2	23.8	0.00e+00	90	38	0	641728512	50	5879
2026-01-07 16:02:01.15	332.44	40.52	-38.2	-39.0	23.9	0.00e+00	20	38	0	643825664	50	5739
2026-01-07 16:02:02.15	332.00	40.63	-38.5	-39.4	23.7	0.00e+00	18	38	0	645922816	50	6009
2026-01-07 16:02:03.17	331.56	40.73	-38.6	-39.5	23.5	0.00e+00	5	38	0	648019968	50	6086
2026-01-07 16:02:04.17	331.12	40.84	-38.5	-39.4	23.6	0.00e+00	0	38	0	649068544	50	6022
2026-01-07 16:02:05.19	330.67	40.94	-38.3	-39.1	23.8	0.00e+00	0	38	0	651165696	50	5815
2026-01-07 16:02:06.19	330.23	41.05	-38.2	-39.1	23.9	0.00e+00	60	38	0	653262848	50	5792
2026-01-07 16:02:07.20	329.78	41.15	-38.3	-39.1	23.8	0.00e+00	92	38	0	655360000	50	5807
2026-01-07 16:02:08.21	329.33	41.24	-38.7	-39.6	23.4	0.00e+00	65	38	0	657457152	50	6156
2026-01-07 16:02:09.22	328.87	41.34	-39.2	-40.1	23.0	0.00e+00	92	38	0	658505728	50	6516
2026-01-07 16:02:10.23	328.41	41.44	-39.5	-40.5	22.6	0.00e+00	67	38	0	660602880	50	6815
2026-01-07 16:02:11.24	327.95	41.53	-39.5	-40.5	22.7	0.00e+00	0	38	0	662700032	50	6821
2026-01-07 16:02:12.25	327.48	41.62	-39.6	-40.6	22.6	0.00e+00	76	38	0	664797184	50	6900
2026-01-07 16:02:13.26	327.02	41.71	-39.3	-40.3	22.8	0.00e+00	0	38	0	666894336	50	6683
2026-01-07 16:02:14.27	326.55	41.80	-39.2	-40.2	23.0	0.00e+00	92	38	0	668991488	50	6553
2026-01-07 16:02:15.28	326.07	41.88	-38.6	-39.5	23.6	0.00e+00	67	38	0	670040064	50	6055
2026-01-07 16:02:16.29	325.60	41.97	-38.0	-38.9	24.1	0.00e+00	92	38	0	672137216	50	5652
2026-01-07 16:02:17.30	325.12	42.05	-38.0	-38.9	24.1	0.00e+00	0	38	0	674234368	50	5631
2026-01-07 16:02:18.31	324.64	42.13	-37.8	-38.7	24.4	0.00e+00	0	38	0	676331520	50	5505
2026-01-07 16:02:19.32	324.16	42.21	-38.0	-38.8	24.2	0.00e+00	0	38	0	678428672	50	5604
2026-01-07 16:02:20.33	323.68	42.28	-38.2	-39.1	23.9	0.00e+00	0	38	0	679477248	50	5780
2026-01-07 16:02:21.34	323.19	42.35	-38.3	-39.2	23.8	0.00e+00	90	38	0	681574400	50	5891
2026-01-07 16:02:22.35	322.70	42.43	-38.3	-39.2	23.8	0.00e+00	0	38	0	683671552	50	5867
2026-01-07 16:02:23.36	322.21	42.49	-38.3	-39.2	23.9	0.00e+00	90	38	0	685768704	50	5858
2026-01-07 16:02:24.37	321.72	42.56	-38.4	-39.2	23.8	0.00e+00	21	38	0	687865856	50	5886
2026-01-07 16:02:25.38	321.22	42.62	-38.5	-39.4	23.7	0.00e+00	34	38	0	688914432	50	6029
2026-01-07 16:02:26.40	320.72	42.69	-38.4	-39.3	23.9	0.00e+00	0	38	0	691011584	50	5925
2026-01-07 16:02:27.41	320.22	42.75	-38.1	-39.0	23.9	0.00e+00	2	38	0	693108736	50	5716
2026-01-07 16:02:28.42	319.72	42.80	-38.0	-38.9	24.1	0.00e+00	0	38	0	695205888	50	5655
2026-01-07 16:02:29.43	319.22	42.86	-37.7	-38.6	24.4	0.00e+00	22	38	0	697303040	48	6111
2026-01-07 16:02:30.44	318.71	42.91	-37.9	-38.7	24.2	0.00e+00	92	38	0	698351616	48	6220
2026-01-07 16:02:31.45	318.21	42.96	-38.1	-39.0	24.0	0.00e+00	59	38	0	700448768	48	6416
2026-01-07 16:02:32.46	317.70	43.01	-38.5	-39.4	23.8	0.00e+00	75	38	0	702545920	48	6756
2026-01-07 16:02:33.47	317.19	43.05	-38.7	-39.6	23.5	0.00e+00	0	38	0	704643072	48	6859
2026-01-07 16:02:34.48	316.68	43.09	-38.7	-39.6	23.5	0.00e+00	0	38	0	706740224	50	6127
2026-01-07 16:02:35.49	316.17	43.13	-38.3	-39.2	24.0	0.00e+00	0	38	0	708837376	50	5842
2026-01-07 16:02:36.50	315.66	43.17	-38.0	-38.9	24.2	0.00e+00	0	38	0	709885952	50	5635
2026-01-07 16:02:37.51	315.14	43.21	-38.0	-38.9	24.1	0.00e+00	90	38	0	711983104	50	5645
2026-01-07 16:02:38.52	314.63	43.24	-38.2	-39.1	24.1	0.00e+00	0	38	0	714080256	50	5768
2026-01-07 16:02:39.53	314.11	43.27	-38.2	-39.1	23.9	0.00e+00	92	38	0	716177408	50	5788
2026-01-07 16:02:40.54	313.60	43.30	-38.6	-39.4	23.6	0.00e+00	0	38	0	718274560	50	6032
2026-01-07 16:02:41.55	313.08	43.32	-38.8	-39.7	23.3	0.00e+00	0	38	0	719323136	50	6229
2026-01-07 16:02:42.56	312.56	43.34	-39.1	-40.1	23.1	0.00e+00	0	38	0	721420288	50	6487
2026-01-07 16:02:43.57	312.04	43.36	-39.3	-40.2	22.9	0.00e+00	0	38	0	723517440	50	6598
2026-01-07 16:02:44.58	311.52	43.38	-39.1	-40.1	23.1	0.00e+00	90	38	0	725614592	50	6500
2026-01-07 16:02:45.59	311.00	43.39	-39.3	-40.2	23.0	0.00e+00	66	38	0	727711744	50	6604
2026-01-07 16:02:46.60	310.48	43.40	-39.1	-40.1	23.1	0.00e+00	92	38	0	728760320	50	6480
2026-01-07 16:02:47.60	309.96	43.41	-39.1	-40.1	23.1	0.00e+00	62	38	0	730857472	50	6473
2026-01-07 16:02:48.61	309.44	43.42	-39.3	-40.3	22.9	0.00e+00	60	38	0	732954624	50	6664
2026-01-07 16:02:49.62	308.92	43.42	-39.5	-40.5	22.7	0.00e+00	62	38	0	735051776	50	6797
2026-01-07 16:02:50.63	308.40	43.42	-39.6	-40.6	22.6	0.00e+00	2	38	0	737148928	50	6878
2026-01-07 16:02:51.64	307.88	43.42	-39.5	-40.5	22.9	0.00e+00	18	38	0	738197504	50	6809
2026-01-07 16:02:52.65	307.36	43.41	-39.1	-40.1	22.8	0.00e+00	4	38	0	740294656	50	6482
2026-01-07 16:02:53.66	306.83	43.41	-39.4	-40.4	22.8	0.00e+00	92	38	0	742391808	50	6694
2026-01-07 16:02:54.67	306.31	43.40	-39.9	-41.0	22.0	0.00e+00	4	38	0	744488960	52	6407
2026-01-07 16:02:55.68	305.79	43.38	-40.2	-41.3	22.0	0.00e+00	92	38	0	746586112	52	6687
2026-01-07 16:02:56.69	305.27	43.37	-40.4	-41.5	21.9	0.00e+00	0	38	0	747634688	52	6809
2026-01-07 16:02:57.70	304.75	43.35	-40.4	-41.4	21.8	0.00e+00	0	38	0	749731840	52	6768
2026-01-07 16:02:58.71	304.23	43.33	-40.5	-41.5	21.8	0.00e+00	6	38	0	751828992	52	6848
2026-01-07 16:02:59.72	303.72	43.31	-40.6	-41.8	21.6	0.00e+00	2	38	0	753926144	52	7019
2026-01-07 16:03:00.73	303.20	43.28	-40.9	-42.1	21.1	0.00e+00	92	38	0	756023296	54	6519
2026-01-07 16:03:01.74	302.68	43.25	-41.1	-42.2	21.1	0.00e+00	19	38	0	757071872	54	6612
2026-01-07 16:03:02.75	302.17	43.22	-40.9	-42.1	21.1	0.00e+00	92	38	0	759169024	54	6514
2026-01-07 16:03:03.76	301.65	43.19	-40.9	-42.1	21.3	0.00e+00	2	38	0	761266176	54	6485
2026-01-07 16:03:04.77	301.14	43.15	-41.0	-42.2	21.1	0.00e+00	20	38	0	763363328	54	6598
2026-01-07 16:03:05.78	300.62	43.11	-41.2	-42.4	20.9	0.00e+00	4	38	0	765460480	54	6725
2026-01-07 16:03:06.79	300.11	43.07	-41.1	-42.3	20.9	0.00e+00	20	38	0	766509056	54	6673
2026-01-07 16:03:07.80	299.60	43.03	-41.4	-42.6	20.7	0.00e+00	90	38	0	768606208	54	6895
2026-01-07 16:03:08.81	299.10	42.98	-41.7	-43.0	20.4	0.00e+00	72	38	0	770703360	54	7202
2026-01-07 16:03:09.81	298.59	42.93	-41.8	-43.2	20.1	0.00e+00	90	38	0	772800512	56	6542
2026-01-07 16:03:10.83	298.08	42.88	-42.0	-43.3	20.1	0.00e+00	13	38	0	774897664	56	6676
2026-01-07 16:03:11.83	297.59	42.83	-42.2	-43.6	19.9	0.00e+00	73	38	0	776994816	56	6870
2026-01-07 16:03:12.84	297.08	42.77	-42.0	-43.3	20.2	0.00e+00	4	38	0	778043392	56	6643
2026-01-07 16:03:13.86	296.58	42.71	-41.6	-42.9	20.6	0.00e+00	1	38	0	780140544	56	6324
2026-01-07 16:03:14.87	296.08	42.65	-41.6	-42.8	20.7	0.00e+00	83	38	0	782237696	56	6297
2026-01-07 16:03:15.88	295.58	42.59	-41.7	-42.9	20.4	0.00e+00	72	38	0	784334848	56	6377
2026-01-07 16:03:16.89	295.09	42.52	-42.3	-43.8	19.8	0.00e+00	88	38	0	786432000	56	7035
2026-01-07 16:03:17.90	294.60	42.45	-42.5	-44.0	19.7	0.00e+00	6	38	0	787480576	56	7226
2026-01-07 16:03:18.91	294.11	42.38	-42.3	-43.7	19.7	0.00e+00	91	38	0	789577728	56	7007
2026-01-07 16:03:19.92	293.62	42.31	-41.8	-43.2	20.3	0.00e+00	5	38	0	791674880	56	6556
2026-01-07 16:03:20.93	293.13	42.24	-41.5	-42.8	20.7	0.00e+00	6	38	0	793772032	56	6254
2026-01-07 16:03:21.94	292.65	42.16	-41.3	-42.5	21.1	0.00e+00	5	38	0	795869184	56	6053
2026-01-07 16:03:22.95	292.17	42.08	-40.8	-41.9	21.4	0.00e+00	0	38	0	796917760	56	5644
2026-01-07 16:03:23.96	291.69	42.00	-40.6	-41.8	21.6	0.00e+00	91	38	0	799014912	54	6263
2026-01-07 16:03:24.97	291.21	41.92	-40.8	-42.0	21.3	0.00e+00	4	38	0	801112064	54	6415
2026-01-07 16:03:25.98	290.74	41.83	-40.8	-42.0	21.1	0.00e+00	91	38	0	803209216	54	6436
2026-01-07 16:03:26.99	290.27	41.75	-40.8	-41.9	21.4	0.00e+00	63	38	0	805306368	54	6378
2026-01-07 16:03:28.00	289.80	41.66	-40.3	-41.4	21.8	0.00e+00	20	38	0	806354944	54	6019
2026-01-07 16:03:29.01	289.33	41.57	-40.3	-41.4	21.9	0.00e+00	61	38	0	808452096	54	5999
2026-01-07 16:03:30.02	288.87	41.47	-39.4	-40.4	22.9	0.00e+00	62	38	0	810549248	52	5984
2026-01-07 16:03:31.03	288.41	41.38	-39.3	-40.2	22.9	0.00e+00	36	38	0	812646400	52	5891
2026-01-07 16:03:32.04	287.95	41.28	-39.6	-40.6	22.7	0.00e+00	61	38	0	814743552	52	6149
2026-01-07 16:03:33.04	287.50	41.19	-39.6	-40.6	22.7	0.00e+00	92	38	0	815792128	52	6110
2026-01-07 16:03:34.05	287.05	41.09	-39.7	-40.7	22.4	0.00e+00	62	38	0	817889280	52	6241
2026-01-07 16:03:35.06	286.60	40.98	-40.1	-41.2	22.3	0.00e+00	92	38	0	819986432	52	6570
2026-01-07 16:03:36.07	286.15	40.88	-39.7	-40.7	22.6	0.00e+00	60	38	0	822083584	52	6190
2026-01-07 16:03:37.08	285.71	40.78	-39.2	-40.2	22.9	0.00e+00	0	38	0	824180736	52	5854
2026-01-07 16:03:38.09	285.26	40.67	-39.1	-40.0	23.3	0.00e+00	5	38	0	825229312	52	5753
2026-01-07 16:03:39.09	284.83	40.56	-39.0	-39.9	22.8	0.00e+00	0	38	0	827326464	52	5673
2026-01-07 16:03:40.10	284.40	40.45	-39.6	-40.6	23.1	0.00e+00	92	38	0	829423616	52	6111
2026-01-07 16:03:41.11	283.96	40.34	-38.5	-39.4	23.5	0.00e+00	2	38	0	831520768	52	5340
2026-01-07 16:03:42.12	283.53	40.23	-38.6	-39.5	23.1	0.00e+00	92	38	0	833617920	50	6076
2026-01-07 16:03:43.13	283.11	40.11	-38.7	-39.6	23.9	0.00e+00	0	38	0	834666496	50	6115
2026-01-07 16:03:44.14	282.68	40.00	-38.5	-39.5	23.7	0.00e+00	16	38	0	836763648	50	6035
2026-01-07 16:03:45.15	282.26	39.88	-38.4	-39.3	24.0	0.00e+00	0	38	0	838860800	50	5924
2026-01-07 16:03:46.16	281.85	39.76	-38.7	-39.6	23.6	0.00e+00	0	38	0	840957952	50	6125
2026-01-07 16:03:47.17	281.43	39.64	-37.5	-38.3	24.7	0.00e+00	90	38	0	843055104	48	5943
2026-01-07 16:03:48.18	281.02	39.52	-36.7	-37.5	25.2	0.00e+00	20	38	0	844103680	46	6063
2026-01-07 16:03:49.19	280.61	39.40	-36.5	-37.3	25.5	0.00e+00	90	38	0	846200832	46	5903
2026-01-07 16:03:50.20	280.21	39.28	-36.5	-37.3	25.4	0.00e+00	20	38	0	848297984	46	5927
2026-01-07 16:03:51.21	279.81	39.15	-36.6	-37.4	25.4	0.00e+00	67	38	0	850395136	46	5989
2026-01-07 16:03:52.22	279.41	39.02	-36.7	-37.5	25.4	0.00e+00	19	38	0	852492288	46	6055
2026-01-07 16:03:53.23	279.01	38.90	-36.7	-37.5	25.4	0.00e+00	61	38	0	853540864	46	6050
2026-01-07 16:03:54.24	278.62	38.77	-36.8	-37.5	25.2	0.00e+00	92	38	0	855638016	46	6099
2026-01-07 16:03:55.25	278.23	38.64	-36.7	-37.5	25.3	0.00e+00	0	38	0	857735168	46	6073
2026-01-07 16:03:56.26	277.84	38.51	-36.8	-37.6	25.2	0.00e+00	92	38	0	859832320	46	6118
2026-01-07 16:03:57.27	277.46	38.38	-36.8	-37.6	25.3	0.00e+00	2	38	0	861929472	46	6106
2026-01-07 16:03:58.28	277.08	38.25	-36.8	-37.6	25.3	0.00e+00	92	38	0	862978048	46	6112
2026-01-07 16:03:59.29	276.70	38.11	-36.9	-37.7	25.1	0.00e+00	0	38	0	865075200	46	6221
2026-01-07 16:04:00.29	276.33	37.98	-37.2	-38.0	25.0	0.00e+00	0	38	0	867172352	46	6450
2026-01-07 16:04:01.31	275.96	37.85	-37.1	-37.9	25.0	0.00e+00	0	38	0	869269504	46	6351
2026-01-07 16:04:02.31	275.59	37.71	-37.2	-38.0	24.9	0.00e+00	0	38	0	871366656	46	6456
2026-01-07 16:04:03.32	275.23	37.58	-37.4	-38.2	24.8	0.00e+00	90	38	0	873463808	46	6565
2026-01-07 16:04:04.33	274.87	37.44	-37.4	-38.3	24.7	0.00e+00	0	38	0	874512384	46	6619
2026-01-07 16:04:05.34	274.51	37.30	-37.5	-38.4	24.6	0.00e+00	79	38	0	876609536	46	6698
2026-01-07 16:04:06.35	274.15	37.16	-37.6	-38.4	24.5	0.00e+00	0	38	0	878706688	46	6748
2026-01-07 16:04:07.36	273.80	37.02	-37.5	-38.3	24.6	0.00e+00	0	38	0	880803840	46	6645
2026-01-07 16:04:08.37	273.45	36.88	-37.6	-38.4	24.5	0.00e+00	0	38	0	882900992	46	6725
2026-01-07 16:04:09.38	273.10	36.74	-37.7	-38.5	24.4	0.00e+00	13	38	0	883949568	46	6808
2026-01-07 16:04:10.39	272.76	36.60	-37.9	-38.7	24.3	0.00e+00	92	38	0	886046720	48	6210
2026-01-07 16:04:11.40	272.42	36.46	-37.9	-38.7	24.2	0.00e+00	0	38	0	888143872	48	6243
2026-01-07 16:04:12.41	272.08	36.32	-38.0	-38.9	24.1	0.00e+00	92	38	0	890241024	48	6336
2026-01-07 16:04:13.42	271.75	36.18	-38.1	-38.9	24.0	0.00e+00	14	38	0	892338176	48	6389
2026-01-07 16:04:14.43	271.41	36.03	-38.2	-39.0	23.9	0.00e+00	18	38	0	893386752	48	6460
2026-01-07 16:04:15.44	271.09	35.89	-38.2	-39.0	23.9	0.00e+00	69	38	0	895483904	48	6452
2026-01-07 16:04:16.45	270.76	35.75	-38.5	-39.4	23.8	0.00e+00	60	38	0	897581056	48	6715
2026-01-07 16:04:17.46	270.44	35.60	-38.8	-39.7	23.4	0.00e+00	8	38	0	899678208	50	6245
2026-01-07 16:04:18.47	270.12	35.46	-39.2	-40.1	23.0	0.00e+00	0	38	0	901775360	50	6515
2026-01-07 16:04:19.48	269.80	35.31	-39.3	-40.2	22.9	0.00e+00	90	38	0	902823936	50	6604
2026-01-07 16:04:20.49	269.48	35.17	-39.3	-40.3	22.9	0.00e+00	0	38	0	904921088	50	6654
2026-01-07 16:04:21.50	269.17	35.02	-39.2	-40.2	23.0	0.00e+00	54	38	0	907018240	50	6559
2026-01-07 16:04:22.51	268.86	34.87	-39.3	-40.3	22.9	0.00e+00	0	38	0	909115392	50	6627
2026-01-07 16:04:23.52	268.56	34.73	-39.3	-40.2	23.0	0.00e+00	0	38	0	911212544	50	6598
2026-01-07 16:04:24.53	268.25	34.58	-39.4	-40.3	22.8	0.00e+00	0	38	0	912261120	50	6683
2026-01-07 16:04:25.54	267.95	34.43	-39.5	-40.5	22.6	0.00e+00	17	38	0	914358272	50	6828
2026-01-07 16:04:26.55	267.66	34.29	-39.8	-40.8	22.3	0.00e+00	92	38	0	916455424	50	7065
2026-01-07 16:04:27.56	267.36	34.14	-40.1	-41.2	22.2	0.00e+00	0	38	0	918552576	52	6569
2026-01-07 16:04:28.57	267.07	33.99	-39.9	-41.0	22.3	0.00e+00	92	38	0	920649728	52	6414
2026-01-07 16:04:29.58	266.78	33.85	-40.2	-41.3	21.9	0.00e+00	0	38	0	921698304	52	6657
2026-01-07 16:04:30.59	266.49	33.70	-40.4	-41.5	21.8	0.00e+00	16	38	0	923795456	52	6814
2026-01-07 16:04:31.60	266.21	33.55	-40.7	-41.8	21.5	0.00e+00	0	38	0	925892608	52	7063
2026-01-07 16:04:32.61	265.92	33.40	-40.8	-41.9	21.3	0.00e+00	18	38	0	927989760	54	6371
2026-01-07 16:04:33.62	265.64	33.25	-41.0	-42.2	21.2	0.00e+00	92	38	0	930086912	54	6567
2026-01-07 16:04:34.63	265.37	33.11	-41.0	-42.2	21.0	0.00e+00	2	38	0	931135488	54	6608
2026-01-07 16:04:35.64	265.09	32.96	-41.1	-42.3	21.0	0.00e+00	92	38	0	933232640	54	6655
2026-01-07 16:04:36.65	264.82	32.81	-41.1	-42.3	21.0	0.00e+00	64	38	0	935329792	54	6659
2026-01-07 16:04:37.65	264.55	32.66	-41.1	-42.3	21.1	0.00e+00	0	38	0	937426944	54	6640
2026-01-07 16:04:38.66	264.29	32.52	-41.1	-42.3	21.0	0.00e+00	0	38	0	939524096	54	6686
2026-01-07 16:04:39.67	264.02	32.37	-41.3	-42.5	20.9	0.00e+00	70	38	0	941621248	54	6828
2026-01-07 16:04:40.68	263.76	32.22	-41.3	-42.5	20.8	0.00e+00	0	38	0	942669824	54	6843
2026-01-07 16:04:41.69	263.50	32.07	-41.3	-42.6	20.7	0.00e+00	0	38	0	944766976	54	6877
2026-01-07 16:04:42.70	263.24	31.93	-41.1	-42.3	21.0	0.00e+00	92	38	0	946864128	54	6682
2026-01-07 16:04:43.71	262.99	31.78	-41.2	-42.4	20.9	0.00e+00	5	38	0	948961280	54	6759
2026-01-07 16:04:44.72	262.73	31.63	-40.9	-42.1	21.2	0.00e+00	81	38	0	951058432	54	6483
2026-01-07 16:04:45.73	262.48	31.48	-41.0	-42.2	21.0	0.00e+00	0	38	0	952107008	54	6555
2026-01-07 16:04:46.74	262.24	31.34	-41.3	-42.6	20.8	0.00e+00	17	38	0	954204160	54	6860
2026-01-07 16:04:47.75	261.99	31.19	-41.2	-42.5	20.8	0.00e+00	24	38	0	956301312	54	6780
2026-01-07 16:04:48.76	261.75	31.04	-41.2	-42.4	20.9	0.00e+00	5	38	0	958398464	54	6709
2026-01-07 16:04:49.76	261.51	30.90	-41.1	-42.2	21.0	0.00e+00	92	38	0	960495616	54	6614
2026-01-07 16:04:50.77	261.27	30.75	-40.9	-42.1	21.2	0.00e+00	16	38	0	961544192	54	6514
2026-01-07 16:04:51.78	261.03	30.60	-40.9	-42.0	21.2	0.00e+00	25	38	0	963641344	54	6448
2026-01-07 16:04:52.79	260.80	30.46	-40.8	-41.9	21.4	0.00e+00	17	38	0	965738496	54	6387
2026-01-07 16:04:53.80	260.56	30.31	-40.5	-41.6	21.6	0.00e+00	71	38	0	967835648	54	6155
2026-01-07 16:04:54.81	260.33	30.16	-40.4	-41.5	21.5	0.00e+00	86	38	0	969932800	54	6069
2026-01-07 16:04:55.82	260.10	30.02	-40.2	-41.3	21.8	0.00e+00	18	38	0	970981376	54	5932
2026-01-07 16:04:56.83	259.88	29.87	-40.2	-41.2	22.0	0.00e+00	92	38	0	973078528	54	5888
2026-01-07 16:04:57.84	259.65	29.73	-40.1	-41.2	21.9	0.00e+00	2	38	0	975175680	54	5840
2026-01-07 16:04:58.85	259.43	29.58	-40.1	-41.1	22.1	0.00e+00	90	38	0	977272832	54	5828
2026-01-07 16:04:59.86	259.21	29.44	-39.9	-41.0	22.1	0.00e+00	2	38	0	979369984	54	5728
2026-01-07 16:05:00.86	258.99	29.29	-40.0	-41.0	22.2	0.00e+00	2	38	0	980418560	54	5759
2026-01-07 16:05:01.87	258.78	29.15	-39.8	-40.8	22.4	0.00e+00	68	38	0	982515712	54	5587
2026-01-07 16:05:02.88	258.56	29.01	-39.5	-40.5	22.8	0.00e+00	7	38	0	984612864	52	6045
2026-01-07 16:05:03.89	258.35	28.86	-39.4	-40.4	22.8	0.00e+00	92	38	0	986710016	52	5999
2026-01-07 16:05:04.90	258.14	28.72	-39.4	-40.3	22.8	0.00e+00	3	38	0	988807168	52	5956
2026-01-07 16:05:05.91	257.93	28.58	-39.4	-40.4	22.7	0.00e+00	92	38	0	989855744	52	6002
2026-01-07 16:05:06.92	257.72	28.43	-39.6	-40.6	22.6	0.00e+00	2	38	0	991952896	52	6118
2026-01-07 16:05:07.93	257.52	28.29	-39.3	-40.3	22.8	0.00e+00	7	38	0	994050048	52	5930
2026-01-07 16:05:08.94	257.32	28.15	-39.5	-40.5	22.7	0.00e+00	7	38	0	996147200	52	6066
2026-01-07 16:05:09.95	257.11	28.01	-39.3	-40.3	22.7	0.00e+00	7	38	0	998244352	52	5917
2026-01-07 16:05:10.96	256.92	27.86	-39.5	-40.5	22.7	0.00e+00	5	38	0	999292928	52	6040
2026-01-07 16:05:11.97	256.72	27.72	-39.5	-40.5	22.6	0.00e+00	12	38	0	1001390080	52	6069
2026-01-07 16:05:12.98	256.52	27.58	-39.5	-40.5	22.6	0.00e+00	91	38	0	1003487232	52	6095
2026-01-07 16:05:13.98	256.33	27.44	-39.4	-40.4	22.8	0.00e+00	12	38	0	1005584384	52	5988
2026-01-07 16:05:15.00	256.13	27.30	-39.4	-40.3	22.8	0.00e+00	92	38	0	1007681536	52	5954
2026-01-07 16:05:16.01	255.94	27.16	-39.1	-40.1	23.1	0.00e+00	65	38	0	1009778688	52	5765
2026-01-07 16:05:17.01	255.76	27.02	-38.9	-39.8	23.3	0.00e+00	9	38	0	1010827264	52	5599
2026-01-07 16:05:18.02	255.57	26.89	-39.0	-39.9	23.2	0.00e+00	15	38	0	1012924416	52	5676
2026-01-07 16:05:19.03	255.38	26.75	-39.1	-40.0	23.1	0.00e+00	66	38	0	1015021568	52	5721
2026-01-07 16:05:20.04	255.20	26.61	-39.2	-40.2	22.9	0.00e+00	92	38	0	1017118720	52	5845
2026-01-07 16:05:21.05	255.02	26.47	-39.4	-40.4	22.7	0.00e+00	65	38	0	1019215872	52	5986
2026-01-07 16:05:22.06	254.83	26.33	-39.6	-40.6	22.6	0.00e+00	92	38	0	1020264448	52	6104
2026-01-07 16:05:23.07	254.66	26.20	-39.6	-40.6	22.5	0.00e+00	2	38	0	1022361600	52	6143
2026-01-07 16:05:24.08	254.48	26.06	-39.5	-40.5	22.6	0.00e+00	65	38	0	1024458752	52	6099
2026-01-07 16:05:25.09	254.30	25.92	-39.6	-40.6	22.5	0.00e+00	0	38	0	1026555904	52	6169
2026-01-07 16:05:26.10	254.13	25.79	-39.6	-40.6	22.5	0.00e+00	0	38	0	1028653056	52	6162
2026-01-07 16:05:27.11	253.95	25.65	-39.7	-40.6	22.5	0.00e+00	92	38	0	1029701632	52	6172
2026-01-07 16:05:28.12	253.78	25.52	-39.3	-40.3	22.9	0.00e+00	2	38	0	1031798784	52	5910
2026-01-07 16:05:29.13	253.61	25.38	-39.2	-40.2	22.9	0.00e+00	92	38	0	1033895936	52	5859
2026-01-07 16:05:30.14	253.44	25.25	-39.2	-40.2	22.9	0.00e+00	11	38	0	1035993088	52	5837
2026-01-07 16:05:31.15	253.27	25.11	-39.3	-40.3	22.8	0.00e+00	92	38	0	1038090240	52	5947
2026-01-07 16:05:32.16	253.11	24.98	-39.4	-40.4	22.7	0.00e+00	2	38	0	1039138816	52	5975
2026-01-07 16:05:33.17	252.94	24.85	-39.6	-40.6	22.5	0.00e+00	16	38	0	1041235968	52	6125
2026-01-07 16:05:34.18	252.78	24.71	-39.7	-40.7	22.5	0.00e+00	0	38	0	1043333120	52	6199
2026-01-07 16:05:35.19	252.62	24.58	-39.9	-40.9	22.3	0.00e+00	16	38	0	1045430272	52	6341
2026-01-07 16:05:36.20	252.46	24.45	-40.0	-41.1	22.1	0.00e+00	92	38	0	1047527424	52	6466
2026-01-07 16:05:37.21	252.30	24.32	-40.2	-41.2	22.0	0.00e+00	15	38	0	1048576000	52	6604
2026-01-07 16:05:38.22	252.14	24.19	-40.2	-41.3	21.8	0.00e+00	90	38	0	1050673152	52	6647
2026-01-07 16:05:39.23	251.98	24.06	-40.2	-41.3	21.9	0.00e+00	3	38	0	1052770304	52	6638
2026-01-07 16:05:40.24	251.83	23.93	-39.9	-41.0	22.2	0.00e+00	0	38	0	1054867456	52	6403
2026-01-07 16:05:41.25	251.68	23.80	-39.8	-40.8	22.4	0.00e+00	0	38	0	1056964608	52	6314
2026-01-07 16:05:42.26	251.52	23.67	-39.8	-40.9	22.3	0.00e+00	0	38	0	1058013184	52	6330
2026-01-07 16:05:43.27	251.37	23.54	-39.6	-40.6	22.5	0.00e+00	92	38	0	1060110336	52	6165
2026-01-07 16:05:44.28	251.22	23.41	-39.6	-40.6	22.5	0.00e+00	70	38	0	1062207488	52	6120
2026-01-07 16:05:45.28	251.07	23.28	-39.5	-40.5	22.6	0.00e+00	92	38	0	1064304640	52	6059
2026-01-07 16:05:46.29	250.93	23.15	-39.5	-40.5	22.6	0.00e+00	0	38	0	1066401792	52	6057
2026-01-07 16:05:47.30	250.78	23.03	-39.5	-40.5	22.6	0.00e+00	0	38	0	1067450368	52	6062
2026-01-07 16:05:48.31	250.64	22.90	-39.6	-40.6	22.5	0.00e+00	0	38	0	1069547520	52	6126
2026-01-07 16:05:49.32	250.49	22.77	-39.4	-40.4	22.5	0.00e+00	2	38	0	1071644672	52	6024
2026-01-07 16:05:50.33	250.35	22.65	-39.5	-40.5	22.6	0.00e+00	77	38	0	1073741824	52	6040
2026-01-07 16:05:51.34	250.21	22.52	-39.4	-40.4	22.7	0.00e+00	1	38	0	1075838976	52	5985
2026-01-07 16:05:52.35	250.07	22.40	-39.5	-40.5	22.5	0.00e+00	92	38	0	1077936128	52	6080
2026-01-07 16:05:53.36	249.93	22.27	-39.7	-40.7	22.4	0.00e+00	0	38	0	1078984704	52	6224
2026-01-07 16:05:54.37	249.79	22.15	-39.7	-40.8	22.3	0.00e+00	59	38	0	1081081856	52	6255
2026-01-07 16:05:55.38	249.65	22.02	-39.8	-40.8	22.3	0.00e+00	0	38	0	1083179008	52	6315
2026-01-07 16:05:56.39	249.52	21.90	-39.9	-40.9	22.2	0.00e+00	65	38	0	1085276160	52	6385
2026-01-07 16:05:57.40	249.38	21.78	-40.0	-41.1	22.1	0.00e+00	0	38	0	1087373312	52	6486
2026-01-07 16:05:58.41	249.25	21.65	-39.9	-40.9	22.2	0.00e+00	66	38	0	1088421888	52	6366
2026-01-07 16:05:59.42	249.12	21.53	-39.9	-41.0	22.1	0.00e+00	92	38	0	1090519040	52	6398
2026-01-07 16:06:00.42	248.98	21.41	-39.9	-41.0	22.1	0.00e+00	65	38	0	1092616192	52	6391
2026-01-07 16:06:01.43	248.85	21.29	-39.7	-40.8	22.3	0.00e+00	92	38	0	1094713344	52	6259
2026-01-07 16:06:02.44	248.72	21.17	-39.9	-40.9	22.2	0.00e+00	0	38	0	1096810496	52	6354
2026-01-07 16:06:03.46	248.60	21.05	-39.7	-40.7	22.4	0.00e+00	0	38	0	1097859072	52	6229
2026-01-07 16:06:04.46	248.47	20.93	-39.7	-40.7	22.4	0.00e+00	0	38	0	1099956224	52	6199
2026-01-07 16:06:05.48	248.34	20.81	-39.6	-40.6	22.5	0.00e+00	0	38	0	1102053376	52	6122
2026-01-07 16:06:06.48	248.22	20.69	-39.5	-40.6	22.6	0.00e+00	92	38	0	1104150528	52	6113
2026-01-07 16:06:07.49	248.09	20.57	-39.6	-40.7	22.3	0.00e+00	0	38	0	1106247680	52	6175
2026-01-07 16:06:08.50	247.97	20.45	-39.8	-40.9	22.2	0.00e+00	92	38	0	1107296256	52	6319
2026-01-07 16:06:09.51	247.85	20.33	-39.5	-40.5	22.5	0.00e+00	0	38	0	1109393408	52	6089
2026-01-07 16:06:10.52	247.72	20.22	-39.6	-40.6	22.4	0.00e+00	0	38	0	1111490560	52	6157
2026-01-07 16:06:11.53	247.60	20.10	-39.6	-40.6	22.4	0.00e+00	0	38	0	1113587712	52	6162
2026-01-07 16:06:12.54	247.48	19.98	-39.5	-40.5	22.5	0.00e+00	9	38	0	1115684864	52	6070
2026-01-07 16:06:13.55	247.37	19.87	-39.7	-40.7	22.3	0.00e+00	46	38	0	1116733440	52	6203
2026-01-07 16:06:14.56	247.25	19.75	-39.6	-40.6	22.4	0.00e+00	2	38	0	1118830592	52	6152
2026-01-07 16:06:15.57	247.13	19.63	-39.7	-40.7	22.4	0.00e+00	90	38	0	1120927744	52	6197
2026-01-07 16:06:16.58	247.01	19.52	-39.7	-40.8	22.3	0.00e+00	13	38	0	1123024896	52	6257
2026-01-07 16:06:17.59	246.90	19.40	-39.8	-40.9	22.2	0.00e+00	91	38	0	1125122048	52	6340
2026-01-07 16:06:18.60	246.79	19.29	-39.8	-40.8	22.3	0.00e+00	2	38	0	1126170624	52	6278
2026-01-07 16:06:19.61	246.67	19.18	-39.8	-40.9	22.3	0.00e+00	2	38	0	1128267776	52	6347
2026-01-07 16:06:20.62	246.56	19.06	-39.9	-41.0	22.1	0.00e+00	11	38	0	1130364928	52	6405
2026-01-07 16:06:21.63	246.45	18.95	-39.8	-40.8	22.3	0.00e+00	14	38	0	1132462080	52	6276
2026-01-07 16:06:22.63	246.34	18.84	-39.7	-40.7	22.3	0.00e+00	92	38	0	1134559232	52	6216
2026-01-07 16:06:23.64	246.23	18.72	-39.7	-40.7	22.3	0.00e+00	69	38	0	1135607808	52	6213
2026-01-07 16:06:24.65	246.12	18.61	-39.5	-40.5	22.5	0.00e+00	92	38	0	1137704960	52	6044
2026-01-07 16:06:25.66	246.01	18.50	-39.5	-40.5	22.5	0.00e+00	6	38	0	1139802112	52	6073
2026-01-07 16:06:26.67	245.90	18.39	-39.4	-40.5	22.6	0.00e+00	0	38	0	1141899264	52	6035
2026-01-07 16:06:27.68	245.80	18.28	-39.4	-40.4	22.7	0.00e+00	0	38	0	1143996416	52	5998
2026-01-07 16:06:28.69	245.69	18.17	-39.5	-40.5	22.5	0.00e+00	5	38	0	1146093568	52	6082
2026-01-07 16:06:29.70	245.59	18.06	-39.5	-40.5	22.5	0.00e+00	65	38	0	1147142144	52	6063
2026-01-07 16:06:30.71	245.48	17.95	-39.4	-40.4	22.6	0.00e+00	8	38	0	1149239296	52	6005
2026-01-07 16:06:31.72	245.38	17.84	-39.3	-40.3	22.7	0.00e+00	92	38	0	1151336448	52	5959
2026-01-07 16:06:32.73	245.27	17.73	-39.4	-40.4	22.6	0.00e+00	0	38	0	1153433600	52	6015
2026-01-07 16:06:33.74	245.17	17.62	-39.4	-40.4	22.6	0.00e+00	39	38	0	1155530752	52	6023
2026-01-07 16:06:34.75	245.07	17.51	-39.3	-40.3	22.7	0.00e+00	14	38	0	1156579328	52	5930
2026-01-07 16:06:35.76	244.97	17.41	-39.4	-40.4	22.6	0.00e+00	11	38	0	1158676480	52	5974
2026-01-07 16:06:36.77	244.87	17.30	-39.4	-40.4	22.5	0.00e+00	20	38	0	1160773632	52	6030
2026-01-07 16:06:37.78	244.77	17.19	-39.5	-40.5	22.5	0.00e+00	8	38	0	1162870784	52	6088
2026-01-07 16:06:38.79	244.67	17.09	-39.6	-40.6	22.4	0.00e+00	91	38	0	1164967936	52	6141
2026-01-07 16:06:39.80	244.57	16.98	-39.7	-40.8	22.3	0.00e+00	7	38	0	1166016512	52	6257
2026-01-07 16:06:40.81	244.48	16.87	-39.7	-40.7	22.3	0.00e+00	92	38	0	1168113664	52	6223
2026-01-07 16:06:41.82	244.38	16.77	-39.7	-40.8	22.2	0.00e+00	0	38	0	1170210816	52	6263
2026-01-07 16:06:42.83	244.29	16.66	-39.8	-40.9	22.2	0.00e+00	92	38	0	1172307968	52	6335
2026-01-07 16:06:43.83	244.19	16.56	-39.8	-40.9	22.1	0.00e+00	0	38	0	1174405120	52	6339
2026-01-07 16:06:44.84	244.10	16.46	-39.9	-41.0	22.0	0.00e+00	0	38	0	1175453696	52	6444
2026-01-07 16:06:45.85	244.00	16.35	-39.9	-41.0	22.0	0.00e+00	92	38	0	1177550848	52	6429
2026-01-07 16:06:46.86	243.91	16.25	-40.0	-41.1	21.9	0.00e+00	0	38	0	1179648000	52	6482
2026-01-07 16:06:47.87	243.82	16.14	-40.0	-41.1	21.9	0.00e+00	92	38	0	1181745152	52	6521
2026-01-07 16:06:48.88	243.73	16.04	-39.9	-40.9	22.1	0.00e+00	0	38	0	1183842304	52	6376
2026-01-07 16:06:49.89	243.64	15.94	-39.9	-40.9	22.1	0.00e+00	0	38	0	1184890880	52	6378
2026-01-07 16:06:50.90	243.55	15.84	-39.9	-40.9	22.1	0.00e+00	0	38	0	1186988032	52	6362
2026-01-07 16:06:51.91	243.46	15.73	-39.8	-40.9	22.1	0.00e+00	7	38	0	1189085184	52	6359
2026-01-07 16:06:52.92	243.37	15.63	-40.0	-41.1	21.9	0.00e+00	67	38	0	1191182336	52	6483
2026-01-07 16:06:53.93	243.28	15.53	-39.9	-40.9	22.1	0.00e+00	6	38	0	1193279488	52	6387
2026-01-07 16:06:54.94	243.19	15.43	-39.8	-40.9	22.1	0.00e+00	92	38	0	1194328064	52	6352
