passes_logs/2026/01/07/R4.6S_Anadyr/R4.6S_Anadyr__20260107_214130_NOAA_21_JPSS-2_rec.log

#Pass ID: 20260107_214130_NOAA 21 (JPSS-2)
#Satellite: NOAA 21 (JPSS-2)
#Configuration: NOAA-21
#almurnet v.1.7.20251203
#Start time: 2026-01-07 21:41:31

#Version: 2.2.20231116
#Station: R4.6S_Anadyr
#Location: 177.4865 lon 64.73178 lat
#TLE: 1 54234U 22150A   26005.42670836  .00000142  00000+0  88292-4 0  9996
#TLE: 2 54234  98.7490 306.4427 0001045 340.6622  19.4514 14.19532269163451

#Time	Az	El	Level	Level2	SNR	BER	BlckErr	Temp	State	Recorded	gain1	gain2
2026-01-07 21:41:31.34	96.11	0.07	-49.4	-64.3	3.5	1.51e+00	0	36	0	0	60	59590
2026-01-07 21:41:32.35	96.06	0.12	-49.4	-62.3	3.5	1.52e+00	0	37	104	0	60	45546
2026-01-07 21:41:33.36	96.00	0.18	-49.4	-62.3	3.5	1.52e+00	0	37	104	0	60	45565
2026-01-07 21:41:34.37	95.94	0.23	-49.3	-62.2	3.5	1.52e+00	0	37	104	0	60	45432
2026-01-07 21:41:35.38	95.88	0.28	-49.4	-62.3	3.5	1.52e+00	0	37	104	0	60	45495
2026-01-07 21:41:36.39	95.83	0.34	-49.3	-62.3	3.5	1.52e+00	0	37	104	0	60	45547
2026-01-07 21:41:37.40	95.77	0.39	-49.5	-62.3	3.5	1.52e+00	0	37	104	0	60	45934
2026-01-07 21:41:38.41	95.71	0.45	-49.5	-62.3	3.5	1.52e+00	0	37	104	0	60	45894
2026-01-07 21:41:39.42	95.65	0.50	-49.5	-62.3	3.5	1.52e+00	0	37	104	0	60	45861
2026-01-07 21:41:40.43	95.59	0.56	-49.5	-62.4	3.5	1.52e+00	0	37	104	0	60	46106
2026-01-07 21:41:41.44	95.53	0.61	-49.4	-62.3	3.5	1.52e+00	0	37	104	0	60	45964
2026-01-07 21:41:42.45	95.47	0.67	-49.4	-62.3	3.5	1.52e+00	0	37	104	0	60	45925
2026-01-07 21:41:43.45	95.41	0.72	-49.0	-62.2	3.5	1.51e+00	0	37	104	0	60	45334
2026-01-07 21:41:44.47	95.35	0.78	-49.3	-62.2	3.5	1.52e+00	0	37	104	0	60	45062
2026-01-07 21:41:45.48	95.29	0.84	-49.2	-62.1	3.5	1.52e+00	0	37	104	0	60	44657
2026-01-07 21:41:46.49	95.23	0.89	-48.5	-61.9	3.5	1.52e+00	0	37	104	0	60	43576
2026-01-07 21:41:47.50	95.17	0.95	-48.7	-61.6	3.5	1.52e+00	0	37	104	0	60	42286
2026-01-07 21:41:48.50	95.11	1.00	-47.9	-60.9	3.5	1.52e+00	0	37	104	0	60	39116
2026-01-07 21:41:49.51	95.05	1.06	-46.8	-60.6	3.5	1.51e+00	0	37	104	0	60	37546
2026-01-07 21:41:50.52	94.99	1.11	-46.8	-60.6	3.5	1.52e+00	0	37	104	0	60	37638
2026-01-07 21:41:51.53	94.93	1.17	-46.8	-60.6	3.5	1.52e+00	0	37	104	0	60	37604
2026-01-07 21:41:52.54	94.86	1.22	-46.8	-60.6	3.5	1.52e+00	0	38	104	0	60	37670
2026-01-07 21:41:53.55	94.80	1.28	-46.8	-60.6	3.5	1.52e+00	0	38	104	0	60	37395
2026-01-07 21:41:54.56	94.74	1.34	-46.8	-60.6	3.5	1.52e+00	0	37	104	0	60	37526
2026-01-07 21:41:55.57	94.68	1.39	-46.8	-60.5	3.5	1.52e+00	0	38	104	0	60	37284
2026-01-07 21:41:56.58	94.61	1.45	-46.8	-60.5	3.5	1.52e+00	0	38	104	0	60	37332
2026-01-07 21:41:57.59	94.55	1.51	-46.8	-60.5	3.5	1.52e+00	0	38	104	0	60	37201
2026-01-07 21:41:58.60	94.49	1.56	-46.8	-60.6	3.5	1.52e+00	0	38	104	0	60	37525
2026-01-07 21:41:59.61	94.42	1.62	-46.8	-60.7	3.5	1.52e+00	0	38	104	0	60	37928
2026-01-07 21:42:00.62	94.36	1.68	-46.8	-60.7	3.5	1.52e+00	0	38	104	0	60	37860
2026-01-07 21:42:01.63	94.30	1.73	-46.8	-60.6	3.5	1.52e+00	0	38	104	0	60	37783
2026-01-07 21:42:02.64	94.23	1.79	-46.8	-60.6	3.5	1.52e+00	0	38	104	0	60	37811
2026-01-07 21:42:03.65	94.17	1.85	-46.8	-60.6	3.5	1.52e+00	0	38	104	0	60	37752
2026-01-07 21:42:04.66	94.10	1.90	-46.8	-60.6	3.5	1.52e+00	0	38	104	0	60	37790
2026-01-07 21:42:05.67	94.04	1.96	-46.8	-60.6	3.5	1.52e+00	0	38	104	0	60	37539
2026-01-07 21:42:06.68	93.97	2.02	-46.8	-60.4	3.5	1.52e+00	0	38	104	0	60	36894
2026-01-07 21:42:07.69	93.91	2.07	-46.8	-60.4	3.5	1.52e+00	0	38	104	0	60	36576
2026-01-07 21:42:08.70	93.84	2.13	-46.8	-60.3	3.5	1.51e+00	0	38	104	0	60	36263
2026-01-07 21:42:09.71	93.77	2.19	-46.8	-60.4	3.5	1.52e+00	0	38	104	0	60	36576
2026-01-07 21:42:10.72	93.71	2.24	-46.8	-60.5	3.5	1.51e+00	0	38	104	0	60	37018
2026-01-07 21:42:11.73	93.64	2.30	-46.8	-60.6	3.5	1.51e+00	0	38	104	0	60	37635
2026-01-07 21:42:12.74	93.57	2.36	-46.8	-60.6	3.5	1.52e+00	0	38	104	0	60	37799
2026-01-07 21:42:13.75	93.51	2.42	-46.8	-60.6	3.5	1.52e+00	0	38	104	0	60	37676
2026-01-07 21:42:14.76	93.44	2.48	-46.8	-60.6	3.5	1.52e+00	0	38	104	0	60	37688
2026-01-07 21:42:15.77	93.37	2.53	-46.8	-60.7	3.5	1.51e+00	0	38	104	0	60	37935
2026-01-07 21:42:16.78	93.30	2.59	-46.8	-60.6	3.5	1.52e+00	0	38	104	0	60	37775
2026-01-07 21:42:17.79	93.23	2.65	-46.8	-60.4	3.5	1.52e+00	0	38	104	0	60	36798
2026-01-07 21:42:18.80	93.17	2.71	-46.8	-60.0	3.5	1.52e+00	0	38	104	0	60	35015
2026-01-07 21:42:19.81	93.10	2.76	-46.8	-59.8	3.5	1.52e+00	0	38	104	0	60	34252
2026-01-07 21:42:20.82	93.03	2.82	-46.8	-60.1	3.5	1.52e+00	0	38	104	0	60	35596
2026-01-07 21:42:21.83	92.96	2.88	-46.8	-60.6	3.5	1.52e+00	0	38	104	0	60	37414
2026-01-07 21:42:22.84	92.89	2.94	-46.7	-58.8	3.8	1.51e+00	0	38	104	0	60	30471
2026-01-07 21:42:23.85	92.82	3.00	-46.2	-54.5	4.0	1.47e+00	0	38	104	0	60	18620
2026-01-07 21:42:24.86	92.75	3.06	-45.0	-49.5	10.1	1.42e-02	0	38	0	0	60	10487
2026-01-07 21:42:25.87	92.68	3.11	-43.7	-46.9	12.9	3.29e-04	0	38	0	3145728	60	7785
2026-01-07 21:42:26.88	92.61	3.17	-42.3	-44.7	15.1	0.00e+00	0	38	0	6291456	58	6778
2026-01-07 21:42:27.88	92.54	3.23	-41.3	-43.3	16.6	0.00e+00	0	38	0	9437184	56	6494
2026-01-07 21:42:28.89	92.46	3.29	-40.8	-42.6	17.2	0.00e+00	0	38	0	12582912	56	5984
2026-01-07 21:42:29.90	92.39	3.35	-43.6	-46.6	13.1	3.00e-06	0	38	0	16777216	58	8397
2026-01-07 21:42:30.91	92.32	3.41	-42.7	-44.8	15.3	0.00e+00	0	38	0	19922944	56	7678
2026-01-07 21:42:31.92	92.25	3.47	-47.0	-60.0	3.5	1.72e-02	0	38	104	22020096	60	35053
2026-01-07 21:42:32.93	92.17	3.53	-47.1	-56.2	3.7	1.48e+00	0	38	104	22020096	60	22575
2026-01-07 21:42:33.94	92.10	3.59	-45.4	-51.0	7.7	1.52e-03	0	38	0	22020096	60	12410
2026-01-07 21:42:34.95	92.03	3.64	-44.0	-47.3	12.8	4.44e-04	0	38	0	25165824	60	8163
2026-01-07 21:42:35.96	91.95	3.70	-43.7	-46.8	12.1	9.99e-05	0	38	0	28311552	60	7646
2026-01-07 21:42:36.97	91.88	3.76	-44.2	-47.6	12.4	2.05e-04	0	38	0	31457280	60	8451
2026-01-07 21:42:37.98	91.81	3.82	-44.1	-47.3	12.1	1.30e-04	0	38	0	34603008	60	8163
2026-01-07 21:42:38.99	91.73	3.88	-44.4	-47.7	11.9	1.14e-04	0	38	0	37748736	60	8566
2026-01-07 21:42:40.00	91.66	3.94	-44.5	-47.7	11.5	2.59e-04	0	38	0	40894464	60	8524
2026-01-07 21:42:41.01	91.58	4.00	-44.4	-47.4	12.4	4.53e-04	0	38	0	44040192	60	8270
2026-01-07 21:42:42.02	91.51	4.06	-44.6	-47.8	12.0	7.06e-04	0	38	0	47185920	60	8616
2026-01-07 21:42:43.03	91.43	4.12	-44.7	-47.9	13.0	4.10e-04	0	38	0	50331648	60	8682
2026-01-07 21:42:44.04	91.35	4.18	-44.4	-47.3	12.5	5.87e-05	0	38	0	53477376	60	8126
2026-01-07 21:42:45.04	91.28	4.24	-43.7	-46.2	13.6	5.79e-05	0	38	0	56623104	60	7154
2026-01-07 21:42:46.05	91.20	4.30	-43.8	-46.4	13.8	2.20e-06	0	38	0	59768832	60	7374
2026-01-07 21:42:47.06	91.12	4.36	-42.6	-44.8	15.5	0.00e+00	0	38	0	63963136	60	6079
2026-01-07 21:42:48.07	91.05	4.42	-42.9	-45.1	15.0	0.00e+00	0	38	0	67108864	58	7114
2026-01-07 21:42:49.08	90.97	4.48	-41.5	-43.3	16.9	0.00e+00	0	38	0	69206016	56	6433
2026-01-07 21:42:50.09	90.89	4.54	-40.3	-41.7	18.5	0.00e+00	0	38	0	72351744	54	6055
2026-01-07 21:42:51.10	90.81	4.60	-39.5	-40.8	19.3	0.00e+00	0	38	0	75497472	52	6101
2026-01-07 21:42:52.11	90.73	4.67	-39.4	-40.7	19.4	0.00e+00	0	38	0	79691776	52	6063
2026-01-07 21:42:53.12	90.65	4.73	-38.7	-39.9	20.2	0.00e+00	0	38	0	82837504	52	5504
2026-01-07 21:42:54.13	90.57	4.79	-38.3	-39.4	20.6	0.00e+00	0	38	0	85983232	50	5846
2026-01-07 21:42:55.14	90.49	4.85	-38.3	-39.4	20.6	0.00e+00	0	38	0	89128960	50	5850
2026-01-07 21:42:56.15	90.41	4.91	-38.3	-39.4	20.6	0.00e+00	0	38	0	91226112	50	5835
2026-01-07 21:42:57.16	90.33	4.97	-38.1	-39.2	20.7	0.00e+00	0	38	0	95420416	50	5721
2026-01-07 21:42:58.17	90.25	5.03	-38.2	-39.4	20.6	0.00e+00	0	38	0	98566144	50	5814
2026-01-07 21:42:59.18	90.17	5.09	-38.1	-39.3	20.7	0.00e+00	0	38	0	101711872	50	5730
2026-01-07 21:43:00.19	90.09	5.15	-38.1	-39.3	20.7	0.00e+00	0	38	0	104857600	50	5727
2026-01-07 21:43:01.20	90.01	5.22	-38.0	-39.2	20.8	0.00e+00	0	38	0	108003328	50	5671
2026-01-07 21:43:02.21	89.92	5.28	-38.0	-39.1	20.9	0.00e+00	0	38	0	111149056	50	5653
2026-01-07 21:43:03.22	89.84	5.34	-38.0	-39.1	20.9	0.00e+00	0	38	0	114294784	50	5624
2026-01-07 21:43:04.23	89.76	5.40	-38.1	-39.2	20.8	0.00e+00	0	38	0	117440512	50	5721
2026-01-07 21:43:05.25	89.67	5.46	-38.0	-39.2	20.9	0.00e+00	0	38	0	120586240	50	5672
2026-01-07 21:43:06.26	89.59	5.53	-37.9	-39.0	21.0	0.00e+00	0	38	0	123731968	50	5586
2026-01-07 21:43:07.26	89.51	5.59	-37.8	-38.9	21.2	0.00e+00	0	38	0	126877696	50	5499
2026-01-07 21:43:08.27	89.42	5.65	-37.8	-38.9	21.1	0.00e+00	0	38	0	130023424	48	6161
2026-01-07 21:43:09.28	89.34	5.71	-37.7	-38.8	21.2	0.00e+00	0	38	0	133169152	48	6067
2026-01-07 21:43:10.30	89.25	5.77	-37.7	-38.8	21.2	0.00e+00	0	38	0	136314880	48	6092
2026-01-07 21:43:11.30	89.17	5.84	-37.7	-38.8	21.3	0.00e+00	0	38	0	139460608	48	6069
2026-01-07 21:43:12.31	89.08	5.90	-37.6	-38.7	21.3	0.00e+00	0	38	0	142606336	48	6037
2026-01-07 21:43:13.33	88.99	5.96	-37.5	-38.6	21.4	0.00e+00	0	38	0	145752064	48	5942
2026-01-07 21:43:14.34	88.91	6.02	-37.6	-38.7	21.3	0.00e+00	0	38	0	148897792	48	6027
2026-01-07 21:43:15.34	88.82	6.09	-37.6	-38.7	21.3	0.00e+00	0	38	0	152043520	48	6010
2026-01-07 21:43:16.36	88.73	6.15	-37.6	-38.6	21.3	0.00e+00	0	38	0	155189248	48	5991
2026-01-07 21:43:17.37	88.64	6.21	-37.4	-38.5	21.5	0.00e+00	0	38	0	158334976	48	5892
2026-01-07 21:43:18.38	88.55	6.28	-37.4	-38.5	21.5	0.00e+00	0	38	0	161480704	48	5868
2026-01-07 21:43:19.38	88.47	6.34	-37.3	-38.4	21.5	0.00e+00	0	38	0	164626432	48	5841
2026-01-07 21:43:20.39	88.38	6.40	-37.3	-38.4	21.6	0.00e+00	0	38	0	167772160	48	5830
2026-01-07 21:43:21.41	88.29	6.46	-37.2	-38.3	21.7	0.00e+00	0	38	0	170917888	48	5765
2026-01-07 21:43:22.41	88.20	6.53	-37.3	-38.3	21.7	0.00e+00	0	38	0	174063616	48	5784
2026-01-07 21:43:23.42	88.11	6.59	-37.4	-38.5	21.6	0.00e+00	0	38	0	177209344	48	5886
2026-01-07 21:43:24.43	88.02	6.65	-37.5	-38.6	21.5	0.00e+00	0	38	0	180355072	48	5945
2026-01-07 21:43:25.44	87.92	6.72	-37.1	-38.2	21.9	0.00e+00	0	38	0	183500800	48	5672
2026-01-07 21:43:26.45	87.83	6.78	-37.0	-38.0	21.9	0.00e+00	0	38	0	186646528	48	5574
2026-01-07 21:43:27.46	87.74	6.85	-37.0	-38.0	21.9	0.00e+00	0	38	0	189792256	48	5594
2026-01-07 21:43:28.47	87.65	6.91	-37.1	-38.1	21.9	0.00e+00	0	38	0	192937984	48	5631
2026-01-07 21:43:29.48	87.56	6.97	-36.9	-38.0	22.0	0.00e+00	0	38	0	196083712	48	5553
2026-01-07 21:43:30.49	87.46	7.04	-36.8	-37.8	22.2	0.00e+00	0	38	0	199229440	48	5445
2026-01-07 21:43:31.50	87.37	7.10	-36.9	-37.9	22.1	0.00e+00	0	38	0	202375168	48	5529
2026-01-07 21:43:32.51	87.27	7.17	-36.9	-37.9	22.2	0.00e+00	0	38	0	205520896	48	5512
2026-01-07 21:43:33.52	87.18	7.23	-36.9	-37.9	22.1	0.00e+00	0	38	0	208666624	48	5525
2026-01-07 21:43:34.53	87.08	7.29	-36.7	-37.7	22.3	0.00e+00	0	38	0	211812352	46	6059
2026-01-07 21:43:35.54	86.99	7.36	-36.7	-37.7	22.4	0.00e+00	0	38	0	214958080	46	6031
2026-01-07 21:43:36.56	86.89	7.42	-36.8	-37.8	22.3	0.00e+00	0	38	0	218103808	46	6104
2026-01-07 21:43:37.57	86.80	7.49	-36.8	-37.8	22.2	0.00e+00	0	38	0	221249536	46	6110
2026-01-07 21:43:38.58	86.70	7.55	-36.9	-37.9	22.1	0.00e+00	0	38	0	224395264	46	6151
2026-01-07 21:43:39.59	86.60	7.62	-36.8	-37.8	22.2	0.00e+00	0	38	0	227540992	46	6103
2026-01-07 21:43:40.60	86.50	7.68	-36.5	-37.5	22.5	0.00e+00	0	38	0	230686720	46	5918
2026-01-07 21:43:41.61	86.41	7.75	-36.7	-37.7	22.3	0.00e+00	0	38	0	233832448	46	6025
2026-01-07 21:43:42.62	86.31	7.81	-36.5	-37.5	22.5	0.00e+00	0	38	0	236978176	46	5895
2026-01-07 21:43:43.63	86.21	7.88	-36.6	-37.6	22.4	0.00e+00	0	38	0	240123904	46	5942
2026-01-07 21:43:44.64	86.11	7.94	-36.6	-37.6	22.4	0.00e+00	0	38	0	243269632	46	5973
2026-01-07 21:43:45.65	86.01	8.01	-36.5	-37.5	22.4	0.00e+00	0	38	0	246415360	46	5888
2026-01-07 21:43:46.65	85.91	8.07	-36.5	-37.5	22.4	0.00e+00	0	38	0	249561088	46	5924
2026-01-07 21:43:47.66	85.81	8.14	-36.4	-37.5	22.5	0.00e+00	0	38	0	252706816	46	5865
2026-01-07 21:43:48.67	85.71	8.21	-36.5	-37.5	22.5	0.00e+00	0	39	0	255852544	46	5894
2026-01-07 21:43:49.68	85.61	8.27	-36.5	-37.5	22.5	0.00e+00	0	39	0	258998272	46	5914
2026-01-07 21:43:50.69	85.50	8.34	-36.4	-37.4	22.6	0.00e+00	0	38	0	262144000	46	5823
2026-01-07 21:43:51.70	85.40	8.40	-36.5	-37.5	22.6	0.00e+00	0	38	0	265289728	46	5923
2026-01-07 21:43:52.71	85.30	8.47	-36.5	-37.5	22.6	0.00e+00	0	38	0	268435456	46	5877
2026-01-07 21:43:53.72	85.19	8.53	-36.6	-37.6	22.4	0.00e+00	0	38	0	271581184	46	5941
2026-01-07 21:43:54.73	85.09	8.60	-36.4	-37.4	22.7	0.00e+00	0	38	0	274726912	46	5795
2026-01-07 21:43:55.74	84.98	8.67	-36.4	-37.4	22.6	0.00e+00	0	38	0	277872640	46	5848
2026-01-07 21:43:56.75	84.88	8.73	-36.3	-37.2	22.8	0.00e+00	0	39	0	281018368	46	5724
2026-01-07 21:43:57.76	84.77	8.80	-36.2	-37.2	22.9	0.00e+00	0	38	0	284164096	46	5669
2026-01-07 21:43:58.77	84.67	8.87	-36.3	-37.3	22.8	0.00e+00	0	38	0	287309824	46	5761
2026-01-07 21:43:59.78	84.56	8.93	-36.3	-37.3	22.7	0.00e+00	0	39	0	290455552	46	5782
2026-01-07 21:44:00.79	84.45	9.00	-36.4	-37.4	22.8	0.00e+00	0	38	0	293601280	46	5840
2026-01-07 21:44:01.79	84.35	9.06	-36.5	-37.5	22.7	0.00e+00	0	38	0	296747008	46	5898
2026-01-07 21:44:02.80	84.24	9.13	-36.2	-37.2	22.5	0.00e+00	0	39	0	299892736	46	5661
2026-01-07 21:44:03.81	84.13	9.20	-36.3	-37.3	22.9	0.00e+00	0	39	0	303038464	46	5749
2026-01-07 21:44:04.82	84.02	9.26	-36.1	-37.1	23.0	0.00e+00	0	39	0	306184192	46	5629
2026-01-07 21:44:05.83	83.91	9.33	-36.1	-37.1	23.1	0.00e+00	0	39	0	309329920	46	5599
2026-01-07 21:44:06.84	83.80	9.40	-36.1	-37.0	23.1	0.00e+00	0	39	0	312475648	46	5583
2026-01-07 21:44:07.85	83.69	9.47	-36.0	-36.9	23.1	0.00e+00	0	38	0	315621376	46	5507
2026-01-07 21:44:08.86	83.58	9.53	-36.0	-37.0	23.0	0.00e+00	0	38	0	318767104	46	5562
2026-01-07 21:44:09.87	83.47	9.60	-36.1	-37.1	23.1	0.00e+00	0	38	0	321912832	46	5611
2026-01-07 21:44:10.88	83.36	9.67	-35.9	-36.9	23.2	0.00e+00	0	38	0	325058560	46	5501
2026-01-07 21:44:11.89	83.24	9.74	-36.1	-37.1	23.1	0.00e+00	0	39	0	328204288	46	5614
2026-01-07 21:44:12.90	83.13	9.80	-36.0	-36.9	23.2	0.00e+00	0	38	0	331350016	46	5508
2026-01-07 21:44:13.91	83.02	9.87	-36.0	-36.9	23.1	0.00e+00	0	39	0	334495744	46	5516
2026-01-07 21:44:14.92	82.90	9.94	-35.9	-36.9	23.1	0.00e+00	0	39	0	337641472	46	5487
2026-01-07 21:44:15.93	82.79	10.01	-35.9	-36.8	23.2	0.00e+00	0	39	0	340787200	46	5447
2026-01-07 21:44:16.95	82.67	10.07	-35.8	-36.8	23.1	0.00e+00	0	39	0	343932928	46	5406
2026-01-07 21:44:17.96	82.55	10.14	-35.8	-36.8	23.3	0.00e+00	0	38	0	347078656	46	5418
2026-01-07 21:44:18.97	82.44	10.21	-35.8	-36.7	23.2	0.00e+00	0	39	0	350224384	44	6031
2026-01-07 21:44:19.98	82.32	10.28	-35.8	-36.8	23.1	0.00e+00	0	38	0	353370112	44	6079
2026-01-07 21:44:20.99	82.20	10.35	-35.9	-36.9	23.0	0.00e+00	0	38	0	356515840	44	6150
2026-01-07 21:44:22.00	82.08	10.41	-35.9	-36.9	23.1	0.00e+00	0	38	0	359661568	44	6144
2026-01-07 21:44:23.01	81.96	10.48	-35.8	-36.8	23.2	0.00e+00	0	39	0	362807296	44	6082
2026-01-07 21:44:24.01	81.85	10.55	-35.8	-36.8	23.2	0.00e+00	0	39	0	365953024	44	6095
2026-01-07 21:44:25.02	81.73	10.62	-35.7	-36.7	23.3	0.00e+00	0	39	0	369098752	44	6012
2026-01-07 21:44:26.03	81.61	10.69	-35.8	-36.7	23.3	0.00e+00	0	39	0	372244480	44	6046
2026-01-07 21:44:27.04	81.48	10.76	-35.5	-36.4	23.4	0.00e+00	0	38	0	375390208	44	5842
2026-01-07 21:44:28.05	81.36	10.82	-35.6	-36.5	23.5	0.00e+00	0	39	0	378535936	44	5882
2026-01-07 21:44:29.06	81.24	10.89	-35.4	-36.4	23.6	0.00e+00	0	39	0	382730240	44	5797
2026-01-07 21:44:30.07	81.12	10.96	-35.5	-36.5	23.5	0.00e+00	0	38	0	384827392	44	5870
2026-01-07 21:44:31.08	80.99	11.03	-35.5	-36.4	23.5	0.00e+00	0	39	0	387973120	44	5842
2026-01-07 21:44:32.09	80.87	11.10	-35.6	-36.6	23.4	0.00e+00	0	39	0	391118848	44	5964
2026-01-07 21:44:33.10	80.74	11.17	-35.5	-36.4	23.5	0.00e+00	0	38	0	395313152	44	5839
2026-01-07 21:44:34.11	80.62	11.24	-35.6	-36.5	23.4	0.00e+00	0	39	0	398458880	44	5894
2026-01-07 21:44:35.12	80.49	11.31	-35.7	-36.6	23.3	0.00e+00	0	38	0	401604608	44	5992
2026-01-07 21:44:36.13	80.37	11.37	-35.6	-36.5	23.5	0.00e+00	0	38	0	404750336	44	5921
2026-01-07 21:44:37.14	80.24	11.44	-35.5	-36.4	23.5	0.00e+00	0	39	0	407896064	44	5849
2026-01-07 21:44:38.15	80.11	11.51	-35.5	-36.4	23.4	0.00e+00	0	39	0	409993216	44	5848
2026-01-07 21:44:39.16	79.98	11.58	-35.7	-36.7	23.4	0.00e+00	0	39	0	414187520	44	6003
2026-01-07 21:44:40.17	79.86	11.65	-35.4	-36.3	23.6	0.00e+00	0	38	0	417333248	44	5783
2026-01-07 21:44:41.18	79.73	11.72	-35.4	-36.3	23.7	0.00e+00	0	39	0	420478976	44	5765
2026-01-07 21:44:42.19	79.60	11.79	-35.5	-36.5	23.4	0.00e+00	0	39	0	423624704	44	5886
2026-01-07 21:44:43.20	79.46	11.86	-35.3	-36.2	23.7	0.00e+00	0	39	0	426770432	44	5693
2026-01-07 21:44:44.21	79.33	11.93	-35.4	-36.3	23.8	0.00e+00	0	39	0	429916160	44	5774
2026-01-07 21:44:45.22	79.20	12.00	-35.2	-36.2	23.8	0.00e+00	0	39	0	433061888	44	5665
2026-01-07 21:44:46.23	79.07	12.07	-35.2	-36.1	23.8	0.00e+00	0	39	0	436207616	44	5633
2026-01-07 21:44:47.24	78.94	12.14	-35.2	-36.1	23.7	0.00e+00	0	39	0	439353344	44	5623
2026-01-07 21:44:48.25	78.80	12.21	-35.2	-36.2	23.6	0.00e+00	0	39	0	442499072	44	5678
2026-01-07 21:44:49.26	78.67	12.28	-35.3	-36.3	23.6	0.00e+00	0	39	0	445644800	44	5748
2026-01-07 21:44:50.27	78.53	12.35	-35.3	-36.3	23.5	0.00e+00	0	39	0	448790528	44	5756
2026-01-07 21:44:51.28	78.40	12.42	-35.5	-36.5	23.5	0.00e+00	0	39	0	451936256	44	5874
2026-01-07 21:44:52.29	78.26	12.49	-35.7	-36.7	23.4	0.00e+00	0	39	0	455081984	44	5998
2026-01-07 21:44:53.30	78.12	12.56	-35.7	-36.6	23.4	0.00e+00	0	39	0	458227712	44	5988
2026-01-07 21:44:54.31	77.98	12.62	-35.4	-36.3	23.7	0.00e+00	0	39	0	461373440	44	5791
2026-01-07 21:44:55.32	77.84	12.69	-35.6	-36.5	23.7	0.00e+00	0	39	0	464519168	44	5884
2026-01-07 21:44:56.33	77.71	12.76	-35.2	-36.1	23.9	0.00e+00	0	39	0	467664896	44	5640
2026-01-07 21:44:57.34	77.57	12.83	-35.3	-36.2	23.9	0.00e+00	0	39	0	470810624	44	5707
2026-01-07 21:44:58.35	77.42	12.90	-35.1	-36.0	24.0	0.00e+00	0	39	0	473956352	44	5563
2026-01-07 21:44:59.36	77.28	12.97	-35.1	-36.0	23.9	0.00e+00	0	39	0	477102080	44	5582
2026-01-07 21:45:00.37	77.14	13.04	-35.1	-36.0	23.9	0.00e+00	0	39	0	480247808	44	5549
2026-01-07 21:45:01.38	77.00	13.11	-35.2	-36.1	23.7	0.00e+00	0	39	0	483393536	44	5653
2026-01-07 21:45:02.39	76.86	13.18	-35.2	-36.1	23.7	0.00e+00	0	39	0	486539264	44	5651
2026-01-07 21:45:03.40	76.71	13.25	-35.3	-36.3	23.6	0.00e+00	0	39	0	489684992	44	5731
2026-01-07 21:45:04.41	76.57	13.32	-35.3	-36.2	23.7	0.00e+00	0	39	0	492830720	44	5697
2026-01-07 21:45:05.42	76.42	13.40	-35.2	-36.2	23.7	0.00e+00	0	39	0	495976448	44	5680
2026-01-07 21:45:06.43	76.28	13.47	-35.4	-36.3	23.7	0.00e+00	0	39	0	499122176	44	5765
2026-01-07 21:45:07.44	76.13	13.54	-35.5	-36.4	23.7	0.00e+00	0	39	0	502267904	44	5831
2026-01-07 21:45:08.45	75.98	13.61	-35.3	-36.3	23.7	0.00e+00	0	39	0	505413632	44	5736
2026-01-07 21:45:09.45	75.83	13.68	-35.2	-36.1	23.9	0.00e+00	0	39	0	508559360	44	5621
2026-01-07 21:45:10.47	75.68	13.75	-35.2	-36.1	23.8	0.00e+00	0	38	0	511705088	44	5653
2026-01-07 21:45:11.48	75.53	13.82	-35.2	-36.1	23.9	0.00e+00	0	39	0	514850816	44	5608
2026-01-07 21:45:12.49	75.38	13.89	-35.2	-36.1	23.9	0.00e+00	0	39	0	517996544	44	5600
2026-01-07 21:45:13.50	75.23	13.96	-35.2	-36.1	23.8	0.00e+00	0	39	0	521142272	44	5635
2026-01-07 21:45:14.51	75.08	14.03	-35.4	-36.3	23.8	0.00e+00	0	39	0	524288000	44	5783
2026-01-07 21:45:15.52	74.93	14.10	-35.3	-36.2	23.8	0.00e+00	0	39	0	527433728	44	5689
2026-01-07 21:45:16.53	74.77	14.17	-35.4	-36.3	23.6	0.00e+00	0	39	0	530579456	44	5775
2026-01-07 21:45:17.54	74.62	14.24	-35.4	-36.3	23.6	0.00e+00	0	39	0	533725184	44	5791
2026-01-07 21:45:18.55	74.47	14.31	-35.5	-36.5	23.6	0.00e+00	0	39	0	536870912	44	5871
2026-01-07 21:45:19.56	74.31	14.38	-35.5	-36.5	23.7	0.00e+00	0	39	0	540016640	44	5877
2026-01-07 21:45:20.57	74.15	14.45	-35.4	-36.3	23.8	0.00e+00	0	39	0	543162368	44	5764
2026-01-07 21:45:21.58	74.00	14.52	-35.4	-36.3	23.7	0.00e+00	0	39	0	546308096	44	5740
2026-01-07 21:45:22.59	73.84	14.59	-35.2	-36.1	23.9	0.00e+00	0	39	0	549453824	44	5657
2026-01-07 21:45:23.60	73.68	14.66	-35.2	-36.1	23.7	0.00e+00	0	39	0	552599552	44	5655
2026-01-07 21:45:24.61	73.52	14.73	-35.3	-36.3	23.8	0.00e+00	0	39	0	555745280	44	5740
2026-01-07 21:45:25.62	73.36	14.80	-35.3	-36.3	23.7	0.00e+00	0	39	0	558891008	44	5728
2026-01-07 21:45:26.63	73.20	14.87	-35.5	-36.4	23.6	0.00e+00	0	39	0	562036736	44	5843
2026-01-07 21:45:27.64	73.04	14.94	-35.6	-36.5	23.6	0.00e+00	0	39	0	565182464	44	5910
2026-01-07 21:45:28.65	72.88	15.01	-35.6	-36.5	23.6	0.00e+00	0	39	0	568328192	44	5908
2026-01-07 21:45:29.66	72.71	15.08	-35.6	-36.6	23.6	0.00e+00	0	39	0	571473920	44	5954
2026-01-07 21:45:30.67	72.55	15.15	-35.5	-36.5	23.7	0.00e+00	0	39	0	574619648	44	5878
2026-01-07 21:45:31.68	72.38	15.22	-35.4	-36.3	23.8	0.00e+00	0	39	0	577765376	44	5769
2026-01-07 21:45:32.69	72.22	15.29	-35.5	-36.4	23.6	0.00e+00	0	39	0	580911104	44	5840
2026-01-07 21:45:33.70	72.05	15.36	-35.4	-36.3	23.8	0.00e+00	0	39	0	584056832	44	5756
2026-01-07 21:45:34.71	71.89	15.43	-35.2	-36.2	23.8	0.00e+00	0	39	0	587202560	44	5661
2026-01-07 21:45:35.72	71.72	15.50	-35.3	-36.3	23.7	0.00e+00	0	39	0	590348288	44	5731
2026-01-07 21:45:36.73	71.55	15.57	-35.4	-36.3	23.7	0.00e+00	0	39	0	593494016	44	5779
2026-01-07 21:45:37.75	71.38	15.64	-35.3	-36.2	23.7	0.00e+00	0	39	0	596639744	44	5691
2026-01-07 21:45:38.76	71.21	15.71	-35.4	-36.4	23.7	0.00e+00	0	39	0	599785472	44	5800
2026-01-07 21:45:39.76	71.04	15.78	-35.4	-36.4	23.7	0.00e+00	0	39	0	602931200	44	5795
2026-01-07 21:45:40.78	70.86	15.85	-35.3	-36.2	23.8	0.00e+00	0	39	0	606076928	44	5722
2026-01-07 21:45:41.79	70.69	15.92	-35.3	-36.2	23.9	0.00e+00	0	39	0	609222656	44	5687
2026-01-07 21:45:42.80	70.52	15.98	-35.3	-36.2	23.9	0.00e+00	0	39	0	612368384	44	5691
2026-01-07 21:45:43.80	70.35	16.05	-35.2	-36.1	23.9	0.00e+00	0	39	0	615514112	44	5651
2026-01-07 21:45:44.81	70.17	16.12	-35.0	-35.9	24.1	0.00e+00	0	39	0	618659840	44	5515
2026-01-07 21:45:45.82	69.99	16.19	-34.9	-35.8	24.1	0.00e+00	0	39	0	621805568	44	5438
2026-01-07 21:45:46.84	69.82	16.26	-35.0	-35.9	23.9	0.00e+00	0	39	0	624951296	44	5515
2026-01-07 21:45:47.84	69.64	16.33	-35.0	-35.9	24.0	0.00e+00	0	39	0	628097024	44	5484
2026-01-07 21:45:48.85	69.46	16.40	-35.1	-36.0	23.8	0.00e+00	0	39	0	631242752	44	5577
2026-01-07 21:45:49.86	69.28	16.47	-35.2	-36.1	23.9	0.00e+00	0	39	0	634388480	44	5621
2026-01-07 21:45:50.87	69.10	16.54	-35.0	-35.9	24.1	0.00e+00	0	39	0	637534208	44	5507
2026-01-07 21:45:51.88	68.92	16.60	-35.1	-36.0	24.0	0.00e+00	0	39	0	640679936	44	5578
2026-01-07 21:45:52.89	68.74	16.67	-35.0	-35.9	24.0	0.00e+00	0	39	0	643825664	44	5497
2026-01-07 21:45:53.90	68.56	16.74	-35.1	-36.0	23.9	0.00e+00	0	39	0	646971392	44	5563
2026-01-07 21:45:54.91	68.37	16.81	-35.2	-36.2	23.9	0.00e+00	0	39	0	650117120	44	5670
2026-01-07 21:45:55.92	68.19	16.88	-35.0	-35.9	24.0	0.00e+00	0	39	0	653262848	44	5526
2026-01-07 21:45:56.93	68.00	16.94	-35.1	-36.1	24.0	0.00e+00	0	39	0	656408576	44	5608
2026-01-07 21:45:57.94	67.82	17.01	-35.1	-36.0	24.0	0.00e+00	0	39	0	659554304	44	5584
2026-01-07 21:45:58.95	67.63	17.08	-35.2	-36.1	24.0	0.00e+00	0	39	0	662700032	44	5629
2026-01-07 21:45:59.96	67.44	17.15	-35.2	-36.2	23.8	0.00e+00	0	39	0	665845760	44	5664
2026-01-07 21:46:00.97	67.26	17.22	-35.4	-36.3	23.7	0.00e+00	0	39	0	668991488	44	5775
2026-01-07 21:46:01.98	67.07	17.28	-35.5	-36.4	23.6	0.00e+00	0	39	0	672137216	44	5821
2026-01-07 21:46:02.99	66.88	17.35	-35.4	-36.3	23.8	0.00e+00	0	39	0	675282944	44	5757
2026-01-07 21:46:04.00	66.69	17.42	-35.1	-36.1	24.0	0.00e+00	0	39	0	678428672	44	5596
2026-01-07 21:46:05.01	66.49	17.48	-35.2	-36.1	23.9	0.00e+00	0	39	0	681574400	44	5600
2026-01-07 21:46:06.02	66.30	17.55	-35.0	-35.9	24.1	0.00e+00	0	39	0	684720128	44	5508
2026-01-07 21:46:07.03	66.11	17.62	-35.1	-36.0	24.0	0.00e+00	0	39	0	687865856	44	5555
2026-01-07 21:46:08.04	65.91	17.68	-35.1	-36.0	24.0	0.00e+00	0	39	0	691011584	44	5589
2026-01-07 21:46:09.05	65.72	17.75	-35.1	-36.0	24.0	0.00e+00	0	39	0	694157312	44	5565
2026-01-07 21:46:10.06	65.52	17.82	-35.1	-36.0	24.1	0.00e+00	0	39	0	698351616	44	5585
2026-01-07 21:46:11.07	65.32	17.88	-35.1	-36.0	24.1	0.00e+00	0	39	0	701497344	44	5584
2026-01-07 21:46:12.09	65.12	17.95	-35.1	-36.0	24.1	0.00e+00	0	39	0	703594496	44	5559
2026-01-07 21:46:13.10	64.93	18.01	-35.0	-36.0	24.1	0.00e+00	0	39	0	706740224	44	5541
2026-01-07 21:46:14.10	64.73	18.08	-35.0	-35.9	24.1	0.00e+00	0	39	0	710934528	44	5479
2026-01-07 21:46:15.12	64.53	18.14	-35.1	-36.0	24.0	0.00e+00	0	39	0	714080256	44	5576
2026-01-07 21:46:16.12	64.33	18.21	-35.0	-35.9	24.1	0.00e+00	0	39	0	717225984	44	5490
2026-01-07 21:46:17.13	64.12	18.27	-35.0	-35.9	24.1	0.00e+00	0	39	0	720371712	44	5510
2026-01-07 21:46:18.14	63.92	18.34	-34.8	-35.7	24.3	0.00e+00	0	39	0	723517440	44	5358
2026-01-07 21:46:19.15	63.72	18.40	-34.9	-35.8	24.2	0.00e+00	0	39	0	725614592	44	5421
2026-01-07 21:46:20.16	63.51	18.47	-34.9	-35.8	24.1	0.00e+00	0	39	0	729808896	44	5421
2026-01-07 21:46:21.17	63.31	18.53	-34.9	-35.9	24.1	0.00e+00	0	39	0	732954624	44	5486
2026-01-07 21:46:22.18	63.10	18.59	-34.9	-35.8	24.2	0.00e+00	0	39	0	736100352	44	5426
2026-01-07 21:46:23.19	62.89	18.66	-34.8	-35.8	24.2	0.00e+00	0	39	0	739246080	44	5406
2026-01-07 21:46:24.20	62.68	18.72	-34.9	-35.8	24.2	0.00e+00	0	39	0	742391808	44	5452
2026-01-07 21:46:25.21	62.47	18.78	-34.9	-35.8	24.3	0.00e+00	0	39	0	745537536	44	5430
2026-01-07 21:46:26.22	62.26	18.85	-34.8	-35.7	24.2	0.00e+00	0	39	0	748683264	44	5363
2026-01-07 21:46:27.23	62.05	18.91	-34.8	-35.8	24.1	0.00e+00	0	39	0	751828992	44	5422
2026-01-07 21:46:28.24	61.84	18.97	-34.9	-35.9	24.1	0.00e+00	0	39	0	754974720	44	5471
2026-01-07 21:46:29.25	61.63	19.03	-35.0	-35.9	24.1	0.00e+00	0	39	0	758120448	44	5529
2026-01-07 21:46:30.26	61.41	19.09	-35.0	-35.9	24.1	0.00e+00	0	39	0	761266176	44	5528
2026-01-07 21:46:31.27	61.20	19.16	-34.9	-35.9	24.2	0.00e+00	0	39	0	764411904	44	5470
2026-01-07 21:46:32.28	60.98	19.22	-34.9	-35.8	24.2	0.00e+00	0	39	0	767557632	44	5429
2026-01-07 21:46:33.29	60.77	19.28	-34.9	-35.8	24.2	0.00e+00	0	39	0	770703360	44	5441
2026-01-07 21:46:34.30	60.55	19.34	-34.9	-35.9	24.1	0.00e+00	0	39	0	773849088	44	5485
2026-01-07 21:46:35.31	60.33	19.40	-35.0	-35.9	24.2	0.00e+00	0	39	0	776994816	44	5503
2026-01-07 21:46:36.32	60.11	19.46	-34.8	-35.7	24.3	0.00e+00	0	39	0	780140544	42	6060
2026-01-07 21:46:37.33	59.89	19.52	-34.6	-35.5	24.5	0.00e+00	0	39	0	783286272	42	5904
2026-01-07 21:46:38.34	59.67	19.58	-34.6	-35.6	24.4	0.00e+00	0	39	0	786432000	42	5943
2026-01-07 21:46:39.35	59.45	19.64	-34.7	-35.7	24.4	0.00e+00	0	39	0	789577728	42	6000
2026-01-07 21:46:40.37	59.23	19.70	-34.6	-35.5	24.5	0.00e+00	0	39	0	792723456	42	5884
2026-01-07 21:46:41.37	59.01	19.76	-34.7	-35.6	24.5	0.00e+00	0	39	0	795869184	42	5945
2026-01-07 21:46:42.39	58.78	19.81	-34.6	-35.5	24.5	0.00e+00	0	39	0	799014912	42	5907
2026-01-07 21:46:43.39	58.56	19.87	-34.6	-35.5	24.5	0.00e+00	0	39	0	802160640	42	5896
2026-01-07 21:46:44.41	58.33	19.93	-34.6	-35.5	24.5	0.00e+00	0	39	0	805306368	42	5876
2026-01-07 21:46:45.42	58.10	19.99	-34.5	-35.4	24.5	0.00e+00	0	39	0	808452096	42	5830
2026-01-07 21:46:46.43	57.88	20.04	-34.6	-35.5	24.4	0.00e+00	0	39	0	811597824	42	5879
2026-01-07 21:46:47.44	57.65	20.10	-34.5	-35.4	24.4	0.00e+00	0	39	0	814743552	42	5838
2026-01-07 21:46:48.45	57.42	20.16	-34.8	-35.7	24.4	0.00e+00	0	39	0	817889280	42	6033
2026-01-07 21:46:49.45	57.19	20.21	-34.4	-35.3	24.6	0.00e+00	0	39	0	821035008	42	5728
2026-01-07 21:46:50.46	56.96	20.27	-34.6	-35.5	24.5	0.00e+00	0	39	0	824180736	42	5891
2026-01-07 21:46:51.47	56.73	20.32	-34.6	-35.5	24.5	0.00e+00	0	39	0	827326464	42	5868
2026-01-07 21:46:52.49	56.49	20.38	-34.6	-35.5	24.5	0.00e+00	0	39	0	830472192	42	5885
2026-01-07 21:46:53.50	56.26	20.43	-34.7	-35.6	24.5	0.00e+00	0	39	0	833617920	42	5929
2026-01-07 21:46:54.51	56.03	20.49	-34.7	-35.6	24.5	0.00e+00	0	39	0	836763648	42	5939
2026-01-07 21:46:55.52	55.79	20.54	-34.5	-35.4	24.6	0.00e+00	0	39	0	839909376	42	5855
2026-01-07 21:46:56.52	55.56	20.59	-34.8	-35.6	24.6	0.00e+00	0	39	0	843055104	42	5994
2026-01-07 21:46:57.53	55.32	20.65	-34.4	-35.2	24.7	0.00e+00	0	39	0	846200832	42	5725
2026-01-07 21:46:58.54	55.08	20.70	-34.6	-35.5	24.5	0.00e+00	0	39	0	849346560	42	5915
2026-01-07 21:46:59.56	54.84	20.75	-34.6	-35.5	24.5	0.00e+00	0	39	0	852492288	42	5909
2026-01-07 21:47:00.56	54.61	20.80	-34.5	-35.4	24.6	0.00e+00	0	39	0	855638016	42	5844
2026-01-07 21:47:01.57	54.37	20.85	-34.5	-35.4	24.7	0.00e+00	0	39	0	858783744	42	5827
2026-01-07 21:47:02.59	54.12	20.90	-34.3	-35.2	24.7	0.00e+00	0	39	0	861929472	42	5687
2026-01-07 21:47:03.60	53.88	20.95	-34.4	-35.3	24.6	0.00e+00	0	39	0	865075200	42	5755
2026-01-07 21:47:04.61	53.64	21.00	-34.3	-35.2	24.7	0.00e+00	0	39	0	868220928	42	5695
2026-01-07 21:47:05.62	53.40	21.05	-34.4	-35.3	24.6	0.00e+00	0	39	0	871366656	42	5773
2026-01-07 21:47:06.63	53.15	21.10	-34.3	-35.1	24.8	0.00e+00	0	39	0	874512384	42	5650
2026-01-07 21:47:07.64	52.91	21.15	-34.1	-35.0	24.9	0.00e+00	0	39	0	877658112	42	5562
2026-01-07 21:47:08.65	52.66	21.20	-34.1	-35.0	24.9	0.00e+00	0	39	0	880803840	42	5532
2026-01-07 21:47:09.66	52.42	21.25	-34.0	-34.9	24.9	0.00e+00	0	39	0	883949568	42	5497
2026-01-07 21:47:10.67	52.17	21.29	-34.1	-35.0	24.9	0.00e+00	0	39	0	887095296	42	5575
2026-01-07 21:47:11.68	51.92	21.34	-34.1	-34.9	25.0	0.00e+00	0	39	0	890241024	42	5526
2026-01-07 21:47:12.69	51.68	21.38	-34.0	-34.8	24.9	0.00e+00	0	39	0	893386752	42	5455
2026-01-07 21:47:13.70	51.43	21.43	-34.1	-35.0	24.9	0.00e+00	0	39	0	896532480	42	5539
2026-01-07 21:47:14.71	51.18	21.48	-34.1	-35.0	24.8	0.00e+00	0	39	0	899678208	42	5548
2026-01-07 21:47:15.72	50.93	21.52	-34.3	-35.1	24.7	0.00e+00	0	39	0	902823936	42	5647
2026-01-07 21:47:16.73	50.68	21.56	-34.3	-35.1	24.8	0.00e+00	0	39	0	905969664	42	5645
2026-01-07 21:47:17.74	50.42	21.61	-34.4	-35.3	24.7	0.00e+00	0	39	0	909115392	42	5738
2026-01-07 21:47:18.75	50.17	21.65	-34.3	-35.2	24.8	0.00e+00	0	39	0	912261120	42	5714
2026-01-07 21:47:19.76	49.92	21.69	-34.4	-35.3	24.7	0.00e+00	0	39	0	915406848	42	5782
2026-01-07 21:47:20.77	49.66	21.74	-34.3	-35.2	24.7	0.00e+00	0	39	0	918552576	42	5720
2026-01-07 21:47:21.78	49.41	21.78	-34.3	-35.2	24.8	0.00e+00	0	39	0	921698304	42	5713
2026-01-07 21:47:22.79	49.15	21.82	-34.4	-35.2	24.9	0.00e+00	0	39	0	924844032	42	5721
2026-01-07 21:47:23.80	48.90	21.86	-34.3	-35.2	24.8	0.00e+00	0	39	0	927989760	42	5672
2026-01-07 21:47:24.81	48.64	21.90	-34.4	-35.3	24.8	0.00e+00	0	39	0	931135488	42	5737
2026-01-07 21:47:25.82	48.38	21.94	-34.2	-35.1	24.9	0.00e+00	0	39	0	934281216	42	5639
2026-01-07 21:47:26.83	48.12	21.98	-34.4	-35.3	24.8	0.00e+00	0	39	0	937426944	42	5752
2026-01-07 21:47:27.84	47.87	22.01	-34.3	-35.2	24.8	0.00e+00	0	39	0	940572672	42	5684
2026-01-07 21:47:28.85	47.61	22.05	-34.1	-35.0	24.9	0.00e+00	0	39	0	943718400	42	5570
2026-01-07 21:47:29.86	47.35	22.09	-34.2	-35.0	24.9	0.00e+00	0	39	0	946864128	42	5592
2026-01-07 21:47:30.87	47.09	22.12	-34.1	-35.0	25.0	0.00e+00	0	39	0	950009856	42	5543
2026-01-07 21:47:31.88	46.82	22.16	-34.1	-34.9	25.0	0.00e+00	0	39	0	953155584	42	5527
2026-01-07 21:47:32.89	46.56	22.20	-34.1	-35.0	24.9	0.00e+00	0	39	0	956301312	42	5538
2026-01-07 21:47:33.90	46.30	22.23	-34.2	-35.1	24.8	0.00e+00	0	39	0	959447040	42	5616
2026-01-07 21:47:34.91	46.04	22.26	-34.2	-35.0	24.9	0.00e+00	0	39	0	962592768	42	5589
2026-01-07 21:47:35.92	45.77	22.30	-34.3	-35.2	24.9	0.00e+00	0	39	0	965738496	42	5681
2026-01-07 21:47:36.93	45.51	22.33	-34.1	-35.0	25.0	0.00e+00	0	39	0	968884224	42	5546
2026-01-07 21:47:37.94	45.25	22.36	-34.3	-35.1	24.8	0.00e+00	0	39	0	972029952	42	5653
2026-01-07 21:47:38.95	44.98	22.39	-34.3	-35.2	24.7	0.00e+00	0	39	0	975175680	42	5689
2026-01-07 21:47:39.96	44.71	22.43	-34.4	-35.3	24.7	0.00e+00	0	39	0	978321408	42	5773
2026-01-07 21:47:40.97	44.45	22.46	-34.5	-35.4	24.6	0.00e+00	0	39	0	981467136	42	5853
2026-01-07 21:47:41.98	44.18	22.49	-34.5	-35.4	24.5	0.00e+00	0	39	0	984612864	42	5851
2026-01-07 21:47:42.99	43.91	22.51	-34.6	-35.5	24.6	0.00e+00	0	39	0	987758592	42	5902
2026-01-07 21:47:44.00	43.65	22.54	-34.7	-35.6	24.6	0.00e+00	0	39	0	991952896	42	5940
2026-01-07 21:47:45.01	43.38	22.57	-34.5	-35.4	24.7	0.00e+00	0	39	0	994050048	42	5801
2026-01-07 21:47:46.02	43.11	22.60	-34.6	-35.5	24.5	0.00e+00	0	39	0	997195776	42	5890
2026-01-07 21:47:47.03	42.84	22.62	-34.7	-35.6	24.3	0.00e+00	0	39	0	1000341504	42	5984
2026-01-07 21:47:48.04	42.57	22.65	-34.7	-35.6	24.4	0.00e+00	0	39	0	1003487232	42	5946
2026-01-07 21:47:49.05	42.30	22.68	-34.8	-35.7	24.3	0.00e+00	0	39	0	1006632960	42	6042
2026-01-07 21:47:50.06	42.03	22.70	-34.4	-35.3	24.7	0.00e+00	0	39	0	1010827264	42	5730
2026-01-07 21:47:51.07	41.76	22.72	-34.4	-35.2	24.7	0.00e+00	0	39	0	1013972992	42	5725
2026-01-07 21:47:52.08	41.49	22.75	-34.3	-35.2	24.7	0.00e+00	0	39	0	1017118720	42	5695
2026-01-07 21:47:53.09	41.22	22.77	-34.2	-35.0	24.8	0.00e+00	0	39	0	1019215872	42	5580
2026-01-07 21:47:54.10	40.94	22.79	-34.3	-35.2	24.8	0.00e+00	0	39	0	1022361600	42	5682
2026-01-07 21:47:55.11	40.67	22.81	-34.4	-35.3	24.8	0.00e+00	0	39	0	1026555904	42	5737
2026-01-07 21:47:56.12	40.40	22.83	-34.6	-35.5	24.6	0.00e+00	0	39	0	1029701632	42	5869
2026-01-07 21:47:57.13	40.13	22.85	-34.5	-35.4	24.8	0.00e+00	0	39	0	1032847360	42	5812
2026-01-07 21:47:58.14	39.85	22.87	-34.4	-35.3	24.7	0.00e+00	0	39	0	1035993088	42	5774
2026-01-07 21:47:59.15	39.58	22.89	-34.4	-35.3	24.7	0.00e+00	0	39	0	1039138816	42	5759
2026-01-07 21:48:00.16	39.30	22.91	-34.5	-35.4	24.7	0.00e+00	0	39	0	1042284544	42	5819
2026-01-07 21:48:01.17	39.03	22.92	-34.6	-35.5	24.6	0.00e+00	0	39	0	1045430272	42	5871
2026-01-07 21:48:02.18	38.75	22.94	-34.5	-35.4	24.6	0.00e+00	0	39	0	1048576000	42	5803
2026-01-07 21:48:03.19	38.48	22.96	-34.4	-35.3	24.8	0.00e+00	0	39	0	1051721728	42	5774
2026-01-07 21:48:04.20	38.20	22.97	-34.5	-35.4	24.8	0.00e+00	0	39	0	1054867456	42	5830
2026-01-07 21:48:05.21	37.93	22.99	-34.4	-35.3	24.8	0.00e+00	0	39	0	1058013184	42	5749
2026-01-07 21:48:06.22	37.65	23.00	-34.3	-35.2	24.8	0.00e+00	0	39	0	1061158912	42	5667
2026-01-07 21:48:07.23	37.38	23.01	-34.2	-35.0	24.9	0.00e+00	0	39	0	1064304640	42	5582
2026-01-07 21:48:08.24	37.10	23.02	-34.1	-35.0	25.0	0.00e+00	0	39	0	1067450368	42	5534
2026-01-07 21:48:09.25	36.82	23.04	-34.1	-35.0	24.9	0.00e+00	0	39	0	1070596096	42	5539
2026-01-07 21:48:10.26	36.55	23.05	-34.0	-34.9	25.0	0.00e+00	0	39	0	1073741824	42	5470
2026-01-07 21:48:11.28	36.27	23.06	-34.0	-34.8	25.1	0.00e+00	0	39	0	1076887552	42	5454
2026-01-07 21:48:12.28	35.99	23.07	-34.1	-34.9	25.0	0.00e+00	0	39	0	1080033280	42	5519
2026-01-07 21:48:13.29	35.72	23.07	-34.3	-35.1	24.8	0.00e+00	0	39	0	1083179008	42	5654
2026-01-07 21:48:14.30	35.44	23.08	-34.2	-35.1	24.9	0.00e+00	0	39	0	1086324736	42	5638
2026-01-07 21:48:15.32	35.16	23.09	-34.3	-35.1	24.9	0.00e+00	0	39	0	1089470464	42	5646
2026-01-07 21:48:16.32	34.88	23.10	-34.3	-35.2	24.8	0.00e+00	0	39	0	1092616192	42	5686
2026-01-07 21:48:17.33	34.61	23.10	-34.5	-35.4	24.7	0.00e+00	0	39	0	1095761920	42	5831
2026-01-07 21:48:18.34	34.33	23.11	-34.6	-35.5	24.6	0.00e+00	0	39	0	1098907648	42	5873
2026-01-07 21:48:19.35	34.05	23.11	-34.4	-35.3	24.8	0.00e+00	0	39	0	1102053376	42	5767
2026-01-07 21:48:20.36	33.77	23.11	-34.5	-35.4	24.7	0.00e+00	0	39	0	1105199104	42	5844
2026-01-07 21:48:21.37	33.50	23.12	-34.4	-35.3	24.8	0.00e+00	0	39	0	1108344832	42	5735
2026-01-07 21:48:22.38	33.22	23.12	-34.6	-35.4	24.7	0.00e+00	0	39	0	1111490560	42	5847
2026-01-07 21:48:23.39	32.94	23.12	-34.4	-35.3	24.8	0.00e+00	0	39	0	1114636288	42	5738
2026-01-07 21:48:24.40	32.66	23.12	-34.3	-35.2	24.9	0.00e+00	0	39	0	1117782016	42	5697
2026-01-07 21:48:25.41	32.38	23.12	-34.1	-35.0	24.9	0.00e+00	0	39	0	1120927744	42	5566
2026-01-07 21:48:26.42	32.11	23.12	-34.1	-34.9	25.0	0.00e+00	0	39	0	1124073472	42	5525
2026-01-07 21:48:27.43	31.83	23.12	-34.1	-34.9	25.1	0.00e+00	0	39	0	1127219200	42	5514
2026-01-07 21:48:28.44	31.55	23.11	-34.0	-34.9	25.0	0.00e+00	0	39	0	1130364928	42	5476
2026-01-07 21:48:29.45	31.27	23.11	-34.0	-34.8	25.0	0.00e+00	0	39	0	1133510656	42	5460
2026-01-07 21:48:30.46	30.99	23.11	-34.0	-34.9	25.0	0.00e+00	0	39	0	1136656384	42	5474
2026-01-07 21:48:31.47	30.72	23.10	-34.0	-34.8	25.1	0.00e+00	0	39	0	1139802112	42	5457
2026-01-07 21:48:32.48	30.44	23.10	-34.0	-34.9	25.0	0.00e+00	0	39	0	1142947840	42	5490
2026-01-07 21:48:33.49	30.16	23.09	-34.0	-34.9	25.0	0.00e+00	0	39	0	1146093568	42	5468
2026-01-07 21:48:34.50	29.88	23.09	-34.1	-34.9	24.9	0.00e+00	0	39	0	1149239296	42	5526
2026-01-07 21:48:35.52	29.60	23.08	-34.3	-35.2	24.6	0.00e+00	0	39	0	1152385024	42	5669
2026-01-07 21:48:36.53	29.33	23.07	-34.3	-35.2	24.7	0.00e+00	0	39	0	1155530752	42	5674
2026-01-07 21:48:37.54	29.05	23.06	-34.4	-35.3	24.7	0.00e+00	0	39	0	1158676480	42	5738
2026-01-07 21:48:38.54	28.78	23.05	-34.3	-35.1	24.7	0.00e+00	0	39	0	1161822208	42	5647
2026-01-07 21:48:39.55	28.50	23.04	-34.2	-35.1	24.8	0.00e+00	0	39	0	1164967936	42	5623
2026-01-07 21:48:40.57	28.22	23.03	-34.3	-35.2	24.8	0.00e+00	0	39	0	1168113664	42	5663
2026-01-07 21:48:41.58	27.94	23.02	-34.0	-34.9	25.0	0.00e+00	0	39	0	1171259392	42	5487
2026-01-07 21:48:42.58	27.67	23.01	-34.2	-35.1	24.8	0.00e+00	0	39	0	1174405120	42	5599
2026-01-07 21:48:43.60	27.39	22.99	-34.0	-34.9	24.8	0.00e+00	0	39	0	1177550848	42	5494
2026-01-07 21:48:44.61	27.12	22.98	-34.1	-35.0	25.0	0.00e+00	0	39	0	1180696576	42	5545
2026-01-07 21:48:45.62	26.84	22.96	-33.9	-34.8	25.0	0.00e+00	0	39	0	1183842304	42	5424
2026-01-07 21:48:46.63	26.57	22.95	-34.1	-34.9	25.0	0.00e+00	0	39	0	1186988032	42	5517
2026-01-07 21:48:47.64	26.29	22.93	-33.8	-34.7	25.2	0.00e+00	0	39	0	1190133760	42	5366
2026-01-07 21:48:48.65	26.02	22.92	-34.0	-34.8	25.1	0.00e+00	0	39	0	1193279488	42	5448
2026-01-07 21:48:49.66	25.74	22.90	-34.1	-34.9	25.0	0.00e+00	0	39	0	1196425216	42	5520
2026-01-07 21:48:50.67	25.47	22.88	-34.1	-34.9	25.0	0.00e+00	0	39	0	1199570944	42	5524
2026-01-07 21:48:51.68	25.19	22.86	-34.0	-34.9	25.0	0.00e+00	0	39	0	1202716672	42	5509
2026-01-07 21:48:52.69	24.92	22.84	-34.1	-35.0	24.8	0.00e+00	0	39	0	1205862400	42	5545
2026-01-07 21:48:53.70	24.65	22.82	-34.2	-35.1	24.8	0.00e+00	0	39	0	1209008128	42	5619
2026-01-07 21:48:54.71	24.38	22.80	-34.3	-35.2	24.7	0.00e+00	0	39	0	1212153856	42	5709
2026-01-07 21:48:55.71	24.11	22.78	-34.3	-35.2	24.8	0.00e+00	0	39	0	1215299584	42	5663
2026-01-07 21:48:56.72	23.84	22.76	-34.1	-35.0	24.9	0.00e+00	0	39	0	1218445312	42	5573
2026-01-07 21:48:57.73	23.56	22.74	-34.3	-35.2	24.7	0.00e+00	0	39	0	1221591040	42	5665
2026-01-07 21:48:58.74	23.29	22.71	-34.2	-35.0	24.9	0.00e+00	0	39	0	1224736768	42	5593
2026-01-07 21:48:59.75	23.02	22.69	-34.3	-35.2	24.8	0.00e+00	0	39	0	1227882496	42	5661
2026-01-07 21:49:00.76	22.75	22.66	-34.4	-35.3	24.7	0.00e+00	0	39	0	1231028224	42	5766
2026-01-07 21:49:01.77	22.48	22.64	-34.5	-35.4	24.6	0.00e+00	0	39	0	1234173952	42	5849
2026-01-07 21:49:02.79	22.21	22.61	-34.5	-35.4	24.7	0.00e+00	0	39	0	1237319680	42	5829
2026-01-07 21:49:03.80	21.94	22.58	-34.7	-35.6	24.5	0.00e+00	0	39	0	1240465408	42	5959
2026-01-07 21:49:04.81	21.67	22.56	-34.5	-35.4	24.7	0.00e+00	0	39	0	1243611136	42	5807
2026-01-07 21:49:05.82	21.41	22.53	-34.3	-35.1	24.8	0.00e+00	0	39	0	1246756864	42	5658
2026-01-07 21:49:06.83	21.14	22.50	-34.2	-35.1	24.8	0.00e+00	0	39	0	1249902592	42	5626
2026-01-07 21:49:07.84	20.87	22.47	-34.1	-35.0	24.9	0.00e+00	0	39	0	1253048320	42	5552
2026-01-07 21:49:08.85	20.61	22.44	-34.1	-35.0	24.8	0.00e+00	0	39	0	1256194048	42	5573
2026-01-07 21:49:09.86	20.34	22.41	-34.3	-35.2	24.7	0.00e+00	0	39	0	1259339776	42	5667
2026-01-07 21:49:10.87	20.08	22.38	-34.2	-35.1	24.7	0.00e+00	0	39	0	1262485504	42	5598
2026-01-07 21:49:11.88	19.81	22.35	-34.4	-35.3	24.6	0.00e+00	0	39	0	1265631232	42	5743
2026-01-07 21:49:12.89	19.55	22.31	-34.5	-35.4	24.5	0.00e+00	0	39	0	1268776960	42	5804
2026-01-07 21:49:13.90	19.28	22.28	-34.6	-35.5	24.6	0.00e+00	0	39	0	1271922688	42	5864
2026-01-07 21:49:14.91	19.02	22.25	-34.6	-35.5	24.6	0.00e+00	0	39	0	1275068416	42	5898
2026-01-07 21:49:15.92	18.76	22.21	-34.4	-35.3	24.7	0.00e+00	0	39	0	1278214144	42	5728
2026-01-07 21:49:16.93	18.50	22.18	-34.4	-35.3	24.6	0.00e+00	0	39	0	1281359872	42	5728
2026-01-07 21:49:17.94	18.24	22.14	-34.4	-35.3	24.5	0.00e+00	0	39	0	1284505600	42	5760
2026-01-07 21:49:18.95	17.98	22.11	-34.5	-35.4	24.5	0.00e+00	0	39	0	1287651328	42	5819
2026-01-07 21:49:19.96	17.72	22.07	-34.6	-35.5	24.5	0.00e+00	0	39	0	1290797056	42	5907
2026-01-07 21:49:20.97	17.46	22.03	-34.4	-35.3	24.7	0.00e+00	0	39	0	1293942784	42	5781
2026-01-07 21:49:21.98	17.20	22.00	-34.5	-35.5	24.6	0.00e+00	0	39	0	1297088512	42	5859
2026-01-07 21:49:22.99	16.94	21.96	-34.4	-35.3	24.5	0.00e+00	0	39	0	1300234240	42	5782
2026-01-07 21:49:24.00	16.68	21.92	-34.3	-35.2	24.6	0.00e+00	0	39	0	1303379968	42	5705
2026-01-07 21:49:25.01	16.43	21.88	-34.4	-35.3	24.6	0.00e+00	0	39	0	1307574272	42	5741
2026-01-07 21:49:26.02	16.17	21.84	-34.3	-35.2	24.7	0.00e+00	0	39	0	1309671424	42	5681
2026-01-07 21:49:27.03	15.91	21.80	-34.3	-35.1	24.8	0.00e+00	0	39	0	1312817152	42	5648
2026-01-07 21:49:28.04	15.66	21.76	-34.2	-35.1	24.7	0.00e+00	0	39	0	1315962880	42	5618
2026-01-07 21:49:29.05	15.41	21.72	-34.4	-35.3	24.6	0.00e+00	0	39	0	1319108608	42	5732
2026-01-07 21:49:30.06	15.15	21.67	-34.5	-35.4	24.5	0.00e+00	0	39	0	1323302912	42	5837
2026-01-07 21:49:31.07	14.90	21.63	-34.6	-35.5	24.5	0.00e+00	0	39	0	1326448640	42	5906
2026-01-07 21:49:32.08	14.65	21.59	-34.8	-35.7	24.4	0.00e+00	0	39	0	1329594368	42	6035
2026-01-07 21:49:33.09	14.40	21.54	-34.8	-35.7	24.5	0.00e+00	0	39	0	1332740096	42	5995
2026-01-07 21:49:34.10	14.15	21.50	-34.7	-35.6	24.5	0.00e+00	0	39	0	1334837248	42	5970
2026-01-07 21:49:35.11	13.90	21.45	-34.7	-35.5	24.6	0.00e+00	0	39	0	1339031552	42	5919
2026-01-07 21:49:36.12	13.65	21.41	-34.7	-35.6	24.5	0.00e+00	0	39	0	1342177280	42	5974
2026-01-07 21:49:37.13	13.40	21.36	-34.7	-35.6	24.5	0.00e+00	0	39	0	1345323008	42	5969
2026-01-07 21:49:38.14	13.15	21.32	-34.7	-35.6	24.5	0.00e+00	0	39	0	1348468736	42	5992
2026-01-07 21:49:39.15	12.91	21.27	-34.8	-35.8	24.4	0.00e+00	0	39	0	1351614464	42	6074
2026-01-07 21:49:40.16	12.66	21.22	-35.0	-36.0	24.3	0.00e+00	0	39	0	1354760192	42	6214
2026-01-07 21:49:41.17	12.41	21.18	-35.0	-35.9	24.3	0.00e+00	0	39	0	1357905920	42	6147
2026-01-07 21:49:42.17	12.17	21.13	-34.9	-35.8	24.5	0.00e+00	0	39	0	1361051648	42	6066
2026-01-07 21:49:43.19	11.93	21.08	-34.7	-35.6	24.5	0.00e+00	0	39	0	1364197376	42	5950
2026-01-07 21:49:44.20	11.68	21.03	-34.6	-35.5	24.6	0.00e+00	0	39	0	1367343104	42	5866
2026-01-07 21:49:45.21	11.44	20.98	-34.4	-35.3	24.8	0.00e+00	0	39	0	1370488832	42	5745
2026-01-07 21:49:46.22	11.20	20.93	-34.4	-35.3	24.8	0.00e+00	0	39	0	1373634560	42	5759
2026-01-07 21:49:47.23	10.96	20.88	-34.4	-35.3	24.8	0.00e+00	0	39	0	1376780288	42	5729
2026-01-07 21:49:48.24	10.72	20.83	-34.6	-35.4	24.8	0.00e+00	0	39	0	1379926016	42	5851
2026-01-07 21:49:49.25	10.48	20.78	-34.7	-35.6	24.6	0.00e+00	0	39	0	1383071744	42	5971
2026-01-07 21:49:50.26	10.24	20.73	-34.9	-35.8	24.4	0.00e+00	0	39	0	1386217472	42	6106
2026-01-07 21:49:51.27	10.01	20.68	-35.1	-36.0	24.3	0.00e+00	0	39	0	1389363200	42	6242
2026-01-07 21:49:52.28	9.77	20.62	-35.1	-36.0	24.3	0.00e+00	0	39	0	1392508928	42	6218
2026-01-07 21:49:53.29	9.53	20.57	-35.2	-36.1	23.9	0.00e+00	0	39	0	1395654656	42	6329
2026-01-07 21:49:54.30	9.30	20.52	-35.3	-36.3	23.9	0.00e+00	0	39	0	1398800384	42	6436
2026-01-07 21:49:55.31	9.07	20.46	-35.1	-36.0	24.1	0.00e+00	0	39	0	1401946112	42	6255
2026-01-07 21:49:56.32	8.83	20.41	-35.0	-35.9	24.3	0.00e+00	0	39	0	1405091840	42	6173
2026-01-07 21:49:57.33	8.60	20.35	-34.7	-35.6	24.5	0.00e+00	0	39	0	1408237568	42	5935
2026-01-07 21:49:58.34	8.37	20.30	-34.5	-35.4	24.6	0.00e+00	0	39	0	1411383296	42	5812
2026-01-07 21:49:59.35	8.14	20.24	-34.5	-35.4	24.6	0.00e+00	0	39	0	1414529024	42	5841
2026-01-07 21:50:00.36	7.91	20.19	-34.6	-35.5	24.7	0.00e+00	0	39	0	1417674752	42	5888
2026-01-07 21:50:01.37	7.68	20.13	-34.7	-35.6	24.5	0.00e+00	0	39	0	1420820480	42	5962
2026-01-07 21:50:02.38	7.45	20.08	-34.7	-35.6	24.5	0.00e+00	0	39	0	1423966208	42	5945
2026-01-07 21:50:03.39	7.22	20.02	-34.8	-35.7	24.4	0.00e+00	0	39	0	1427111936	42	6029
2026-01-07 21:50:04.40	7.00	19.96	-34.9	-35.8	24.2	0.00e+00	0	39	0	1430257664	42	6097
2026-01-07 21:50:05.41	6.77	19.91	-34.7	-35.6	24.5	0.00e+00	0	39	0	1433403392	42	5950
2026-01-07 21:50:06.42	6.55	19.85	-34.7	-35.6	24.4	0.00e+00	0	39	0	1436549120	42	5956
2026-01-07 21:50:07.43	6.32	19.79	-34.4	-35.3	24.7	0.00e+00	0	39	0	1439694848	42	5760
2026-01-07 21:50:08.44	6.10	19.73	-34.6	-35.5	24.6	0.00e+00	0	39	0	1442840576	42	5906
2026-01-07 21:50:09.45	5.88	19.67	-34.5	-35.4	24.5	0.00e+00	0	39	0	1445986304	42	5834
2026-01-07 21:50:10.46	5.66	19.62	-34.8	-35.6	24.4	0.00e+00	0	39	0	1449132032	42	5993
2026-01-07 21:50:11.47	5.44	19.56	-34.8	-35.7	24.4	0.00e+00	0	39	0	1452277760	42	6016
2026-01-07 21:50:12.47	5.22	19.50	-34.8	-35.7	24.4	0.00e+00	0	39	0	1455423488	42	6044
2026-01-07 21:50:13.48	5.00	19.44	-34.7	-35.6	24.6	0.00e+00	0	39	0	1458569216	42	5948
2026-01-07 21:50:14.49	4.78	19.38	-34.5	-35.4	24.5	0.00e+00	0	39	0	1461714944	42	5819
2026-01-07 21:50:15.50	4.57	19.32	-34.7	-35.6	24.4	0.00e+00	0	39	0	1464860672	42	5932
2026-01-07 21:50:16.51	4.35	19.26	-34.6	-35.5	24.5	0.00e+00	0	39	0	1468006400	42	5891
2026-01-07 21:50:17.52	4.13	19.20	-34.4	-35.2	24.9	0.00e+00	0	39	0	1471152128	42	5719
2026-01-07 21:50:18.53	3.92	19.13	-34.4	-35.3	24.8	0.00e+00	0	39	0	1474297856	42	5779
2026-01-07 21:50:19.54	3.71	19.07	-34.5	-35.3	24.7	0.00e+00	0	39	0	1477443584	42	5785
2026-01-07 21:50:20.55	3.49	19.01	-34.4	-35.3	24.8	0.00e+00	0	39	0	1480589312	42	5776
2026-01-07 21:50:21.56	3.28	18.95	-34.6	-35.5	24.6	0.00e+00	0	39	0	1483735040	42	5901
2026-01-07 21:50:22.57	3.07	18.89	-34.8	-35.7	24.4	0.00e+00	0	39	0	1486880768	42	6013
2026-01-07 21:50:23.58	2.86	18.82	-34.9	-35.8	24.3	0.00e+00	0	39	0	1490026496	42	6125
2026-01-07 21:50:24.59	2.65	18.76	-34.9	-35.8	24.4	0.00e+00	0	39	0	1493172224	42	6132
2026-01-07 21:50:25.60	2.44	18.70	-34.8	-35.7	24.4	0.00e+00	0	39	0	1496317952	42	6058
2026-01-07 21:50:26.61	2.24	18.64	-34.7	-35.6	24.5	0.00e+00	0	39	0	1499463680	42	5939
2026-01-07 21:50:27.62	2.03	18.57	-34.7	-35.6	24.5	0.00e+00	0	39	0	1502609408	42	5951
2026-01-07 21:50:28.63	1.82	18.51	-34.6	-35.5	24.5	0.00e+00	0	39	0	1505755136	42	5922
2026-01-07 21:50:29.64	1.62	18.44	-34.6	-35.5	24.6	0.00e+00	0	39	0	1508900864	42	5880
2026-01-07 21:50:30.65	1.42	18.38	-34.8	-35.7	24.4	0.00e+00	0	39	0	1512046592	42	6002
2026-01-07 21:50:31.66	1.21	18.32	-34.6	-35.5	24.5	0.00e+00	0	39	0	1515192320	42	5923
2026-01-07 21:50:32.67	1.01	18.25	-34.7	-35.6	24.5	0.00e+00	0	39	0	1518338048	42	5956
2026-01-07 21:50:33.68	0.81	18.19	-34.7	-35.6	24.4	0.00e+00	0	39	0	1521483776	42	5955
2026-01-07 21:50:34.69	0.61	18.12	-34.6	-35.5	24.4	0.00e+00	0	39	0	1524629504	42	5890
2026-01-07 21:50:35.70	0.41	18.06	-34.8	-35.7	24.5	0.00e+00	0	39	0	1527775232	42	6041
2026-01-07 21:50:36.71	0.21	17.99	-34.5	-35.4	24.7	0.00e+00	0	39	0	1530920960	42	5817
2026-01-07 21:50:37.73	0.01	17.93	-34.5	-35.4	24.7	0.00e+00	0	39	0	1534066688	42	5795
2026-01-07 21:50:38.73	359.82	17.86	-34.6	-35.5	24.6	0.00e+00	0	39	0	1537212416	42	5883
2026-01-07 21:50:39.74	359.62	17.79	-34.7	-35.6	24.6	0.00e+00	0	39	0	1540358144	42	5957
2026-01-07 21:50:40.75	359.43	17.73	-34.9	-35.8	24.3	0.00e+00	0	39	0	1543503872	42	6091
2026-01-07 21:50:41.75	359.23	17.66	-35.1	-36.0	24.2	0.00e+00	0	39	0	1546649600	42	6271
2026-01-07 21:50:42.77	359.04	17.60	-35.3	-36.2	24.1	0.00e+00	0	39	0	1549795328	42	6415
2026-01-07 21:50:43.77	358.85	17.53	-35.4	-36.3	24.0	0.00e+00	0	39	0	1552941056	42	6456
2026-01-07 21:50:44.79	358.65	17.46	-35.4	-36.4	23.9	0.00e+00	0	39	0	1556086784	42	6504
2026-01-07 21:50:45.80	358.46	17.40	-35.4	-36.3	23.9	0.00e+00	0	39	0	1559232512	42	6466
2026-01-07 21:50:46.81	358.27	17.33	-35.4	-36.3	23.9	0.00e+00	0	39	0	1562378240	42	6461
2026-01-07 21:50:47.81	358.09	17.26	-35.5	-36.4	23.8	0.00e+00	0	39	0	1565523968	42	6551
2026-01-07 21:50:48.83	357.90	17.20	-35.3	-36.2	23.9	0.00e+00	0	39	0	1568669696	42	6393
2026-01-07 21:50:49.84	357.71	17.13	-34.9	-35.8	24.2	0.00e+00	0	39	0	1571815424	42	6115
2026-01-07 21:50:50.85	357.52	17.06	-34.8	-35.7	24.3	0.00e+00	0	39	0	1574961152	42	6035
2026-01-07 21:50:51.86	357.34	16.99	-34.9	-35.8	24.2	0.00e+00	0	39	0	1578106880	42	6091
2026-01-07 21:50:52.87	357.15	16.92	-34.7	-35.6	24.4	0.00e+00	0	39	0	1581252608	42	5977
2026-01-07 21:50:53.88	356.97	16.86	-34.8	-35.7	24.3	0.00e+00	0	39	0	1584398336	42	6055
2026-01-07 21:50:54.89	356.78	16.79	-34.8	-35.7	24.3	0.00e+00	0	39	0	1587544064	42	6015
2026-01-07 21:50:55.90	356.60	16.72	-34.9	-35.8	24.3	0.00e+00	0	39	0	1590689792	42	6090
2026-01-07 21:50:56.91	356.42	16.65	-34.8	-35.7	24.4	0.00e+00	0	39	0	1593835520	42	5996
2026-01-07 21:50:57.92	356.24	16.58	-34.8	-35.7	24.3	0.00e+00	0	39	0	1596981248	42	6029
2026-01-07 21:50:58.93	356.06	16.52	-34.6	-35.5	24.4	0.00e+00	0	39	0	1600126976	42	5922
2026-01-07 21:50:59.94	355.88	16.45	-34.6	-35.5	24.4	0.00e+00	0	39	0	1603272704	42	5884
2026-01-07 21:51:00.93	355.71	16.38	-34.8	-35.7	24.3	0.00e+00	0	39	0	1606418432	42	6062
2026-01-07 21:51:01.94	355.53	16.31	-34.7	-35.6	24.3	0.00e+00	0	39	0	1609564160	42	5986
2026-01-07 21:51:02.95	355.35	16.24	-34.9	-35.8	24.2	0.00e+00	0	39	0	1612709888	42	6079
2026-01-07 21:51:03.96	355.18	16.17	-34.9	-35.8	24.2	0.00e+00	0	39	0	1615855616	42	6113
2026-01-07 21:51:04.97	355.00	16.11	-35.1	-36.0	24.1	0.00e+00	0	39	0	1619001344	42	6222
2026-01-07 21:51:05.98	354.83	16.04	-35.2	-36.2	24.0	0.00e+00	0	39	0	1622147072	42	6357
2026-01-07 21:51:06.99	354.65	15.97	-35.4	-36.3	23.9	0.00e+00	0	39	0	1625292800	42	6447
2026-01-07 21:51:08.00	354.48	15.90	-35.2	-36.1	24.1	0.00e+00	0	39	0	1628438528	42	6319
2026-01-07 21:51:09.01	354.31	15.83	-35.1	-36.0	24.1	0.00e+00	0	39	0	1631584256	42	6259
2026-01-07 21:51:10.03	354.14	15.76	-35.1	-36.0	24.1	0.00e+00	0	39	0	1634729984	42	6264
2026-01-07 21:51:11.04	353.97	15.69	-35.2	-36.1	23.9	0.00e+00	0	39	0	1637875712	42	6303
2026-01-07 21:51:12.05	353.80	15.62	-35.2	-36.1	23.9	0.00e+00	0	39	0	1641021440	42	6336
2026-01-07 21:51:13.06	353.63	15.55	-35.2	-36.1	23.9	0.00e+00	0	39	0	1645215744	42	6318
2026-01-07 21:51:14.07	353.46	15.48	-35.2	-36.2	23.9	0.00e+00	0	39	0	1648361472	42	6370
2026-01-07 21:51:15.08	353.29	15.41	-35.3	-36.2	23.8	0.00e+00	0	39	0	1650458624	42	6415
2026-01-07 21:51:16.09	353.13	15.34	-35.4	-36.3	23.8	0.00e+00	0	39	0	1653604352	42	6454
2026-01-07 21:51:17.10	352.96	15.27	-35.4	-36.3	23.8	0.00e+00	0	39	0	1656750080	42	6486
2026-01-07 21:51:18.11	352.80	15.20	-35.3	-36.2	23.9	0.00e+00	0	39	0	1660944384	42	6418
2026-01-07 21:51:19.12	352.64	15.13	-35.3	-36.3	23.8	0.00e+00	0	39	0	1664090112	42	6432
2026-01-07 21:51:20.13	352.47	15.06	-35.4	-36.3	23.7	0.00e+00	0	39	0	1667235840	42	6492
2026-01-07 21:51:21.14	352.31	14.99	-35.5	-36.5	23.7	0.00e+00	0	39	0	1670381568	42	6589
2026-01-07 21:51:22.15	352.15	14.92	-35.4	-36.4	23.8	0.00e+00	0	39	0	1673527296	42	6504
2026-01-07 21:51:23.16	351.99	14.85	-35.4	-36.3	23.8	0.00e+00	0	39	0	1676673024	42	6481
2026-01-07 21:51:24.17	351.83	14.78	-35.4	-36.3	23.9	0.00e+00	0	39	0	1679818752	42	6487
2026-01-07 21:51:25.18	351.67	14.72	-35.3	-36.3	23.9	0.00e+00	0	39	0	1682964480	42	6426
2026-01-07 21:51:26.19	351.51	14.65	-35.4	-36.3	23.9	0.00e+00	0	39	0	1686110208	42	6435
2026-01-07 21:51:27.20	351.35	14.58	-35.2	-36.1	24.0	0.00e+00	0	39	0	1689255936	42	6304
2026-01-07 21:51:28.21	351.20	14.51	-35.1	-36.1	24.1	0.00e+00	0	39	0	1692401664	42	6280
2026-01-07 21:51:29.22	351.04	14.44	-35.4	-36.3	23.9	0.00e+00	0	39	0	1695547392	42	6436
2026-01-07 21:51:30.22	350.89	14.37	-35.3	-36.2	23.9	0.00e+00	0	39	0	1698693120	42	6380
2026-01-07 21:51:31.23	350.73	14.30	-35.3	-36.3	23.9	0.00e+00	0	39	0	1701838848	42	6437
2026-01-07 21:51:32.25	350.58	14.23	-35.3	-36.2	24.0	0.00e+00	0	39	0	1704984576	42	6364
2026-01-07 21:51:33.25	350.42	14.16	-35.4	-36.3	23.7	0.00e+00	0	39	0	1708130304	42	6440
2026-01-07 21:51:34.26	350.27	14.09	-35.3	-36.3	23.8	0.00e+00	0	39	0	1711276032	42	6429
2026-01-07 21:51:35.27	350.12	14.02	-35.2	-36.1	23.9	0.00e+00	0	39	0	1714421760	42	6302
2026-01-07 21:51:36.28	349.97	13.95	-35.3	-36.2	23.7	0.00e+00	0	39	0	1717567488	42	6423
2026-01-07 21:51:37.29	349.82	13.88	-35.2	-36.1	23.9	0.00e+00	0	39	0	1720713216	42	6327
2026-01-07 21:51:38.30	349.67	13.81	-35.2	-36.2	23.9	0.00e+00	0	39	0	1723858944	42	6363
2026-01-07 21:51:39.31	349.52	13.74	-35.3	-36.2	23.9	0.00e+00	0	39	0	1727004672	42	6374
2026-01-07 21:51:40.32	349.37	13.67	-35.4	-36.3	23.8	0.00e+00	0	39	0	1730150400	42	6451
2026-01-07 21:51:41.33	349.23	13.60	-35.7	-36.6	23.6	0.00e+00	0	39	0	1733296128	42	6705
2026-01-07 21:51:42.35	349.08	13.53	-35.7	-36.6	23.5	0.00e+00	0	39	0	1736441856	44	5989
2026-01-07 21:51:43.35	348.93	13.46	-35.8	-36.7	23.5	0.00e+00	0	39	0	1739587584	44	6057
2026-01-07 21:51:44.36	348.79	13.39	-36.0	-37.0	23.3	0.00e+00	0	39	0	1742733312	44	6213
2026-01-07 21:51:45.37	348.64	13.32	-36.1	-37.1	23.2	0.00e+00	0	39	0	1745879040	44	6316
2026-01-07 21:51:46.39	348.50	13.25	-36.1	-37.1	23.0	0.00e+00	0	39	0	1749024768	44	6333
2026-01-07 21:51:47.39	348.36	13.18	-36.1	-37.1	23.0	0.00e+00	0	39	0	1752170496	44	6338
2026-01-07 21:51:48.40	348.22	13.11	-36.1	-37.1	23.0	0.00e+00	0	39	0	1755316224	44	6285
2026-01-07 21:51:49.41	348.07	13.04	-36.1	-37.1	23.0	0.00e+00	0	39	0	1758461952	44	6281
2026-01-07 21:51:50.42	347.93	12.97	-36.0	-37.0	23.1	0.00e+00	0	39	0	1761607680	44	6230
2026-01-07 21:51:51.43	347.79	12.90	-35.9	-36.9	23.1	0.00e+00	0	39	0	1764753408	44	6135
2026-01-07 21:51:52.44	347.65	12.83	-36.0	-37.0	23.1	0.00e+00	0	39	0	1767899136	44	6255
2026-01-07 21:51:53.45	347.51	12.76	-35.7	-36.6	23.4	0.00e+00	0	39	0	1771044864	44	5990
2026-01-07 21:51:54.46	347.37	12.69	-35.7	-36.7	23.4	0.00e+00	0	39	0	1774190592	44	6031
2026-01-07 21:51:55.47	347.24	12.62	-35.9	-36.9	23.2	0.00e+00	0	39	0	1777336320	44	6183
2026-01-07 21:51:56.48	347.10	12.55	-36.1	-37.1	23.2	0.00e+00	0	39	0	1780482048	44	6305
2026-01-07 21:51:57.49	346.96	12.48	-36.1	-37.1	23.1	0.00e+00	0	39	0	1783627776	44	6313
2026-01-07 21:51:58.50	346.83	12.41	-36.4	-37.4	22.9	0.00e+00	0	39	0	1786773504	44	6540
2026-01-07 21:51:59.51	346.69	12.34	-36.3	-37.3	23.0	0.00e+00	0	39	0	1789919232	44	6497
2026-01-07 21:52:00.52	346.56	12.27	-36.4	-37.4	22.9	0.00e+00	0	39	0	1793064960	44	6561
2026-01-07 21:52:01.53	346.43	12.20	-36.4	-37.4	22.8	0.00e+00	0	39	0	1796210688	44	6514
2026-01-07 21:52:02.54	346.29	12.13	-36.4	-37.4	22.9	0.00e+00	0	39	0	1799356416	44	6565
2026-01-07 21:52:03.55	346.16	12.06	-36.4	-37.4	22.7	0.00e+00	0	39	0	1802502144	44	6560
2026-01-07 21:52:04.56	346.03	11.99	-36.3	-37.2	23.0	0.00e+00	0	39	0	1805647872	44	6418
2026-01-07 21:52:05.57	345.90	11.92	-36.1	-37.1	22.9	0.00e+00	0	39	0	1808793600	44	6311
2026-01-07 21:52:06.57	345.77	11.86	-36.0	-36.9	23.1	0.00e+00	0	39	0	1811939328	44	6198
2026-01-07 21:52:07.58	345.64	11.79	-36.1	-37.0	23.0	0.00e+00	0	39	0	1815085056	44	6270
2026-01-07 21:52:08.59	345.51	11.72	-35.9	-36.8	23.2	0.00e+00	0	39	0	1818230784	44	6119
2026-01-07 21:52:09.60	345.38	11.65	-35.9	-36.9	23.2	0.00e+00	0	39	0	1821376512	44	6163
2026-01-07 21:52:10.61	345.25	11.58	-35.8	-36.8	23.3	0.00e+00	0	39	0	1824522240	44	6068
2026-01-07 21:52:11.62	345.12	11.51	-35.9	-36.8	23.3	0.00e+00	0	39	0	1827667968	44	6132
2026-01-07 21:52:12.63	345.00	11.44	-35.7	-36.7	23.4	0.00e+00	0	39	0	1830813696	44	6017
2026-01-07 21:52:13.64	344.87	11.37	-36.0	-37.0	23.2	0.00e+00	0	39	0	1833959424	44	6220
2026-01-07 21:52:14.65	344.75	11.30	-36.0	-36.9	23.2	0.00e+00	0	39	0	1837105152	44	6196
2026-01-07 21:52:15.66	344.62	11.23	-36.0	-37.0	23.2	0.00e+00	0	39	0	1840250880	44	6233
2026-01-07 21:52:16.67	344.50	11.17	-36.3	-37.2	23.0	0.00e+00	0	39	0	1843396608	44	6417
2026-01-07 21:52:17.68	344.37	11.10	-36.2	-37.2	23.0	0.00e+00	0	39	0	1846542336	44	6387
2026-01-07 21:52:18.69	344.25	11.03	-36.3	-37.3	22.9	0.00e+00	0	39	0	1849688064	44	6460
2026-01-07 21:52:19.70	344.13	10.96	-36.5	-37.5	22.8	0.00e+00	0	39	0	1852833792	44	6611
2026-01-07 21:52:20.72	344.00	10.89	-36.4	-37.4	22.9	0.00e+00	0	39	0	1855979520	44	6508
2026-01-07 21:52:21.73	343.88	10.82	-36.4	-37.4	22.8	0.00e+00	0	39	0	1859125248	44	6500
2026-01-07 21:52:22.74	343.76	10.75	-36.3	-37.3	22.7	0.00e+00	0	39	0	1862270976	44	6481
2026-01-07 21:52:23.75	343.64	10.69	-36.2	-37.2	22.9	0.00e+00	0	39	0	1865416704	44	6363
2026-01-07 21:52:24.75	343.52	10.62	-36.1	-37.1	22.9	0.00e+00	0	39	0	1868562432	44	6298
2026-01-07 21:52:25.76	343.40	10.55	-36.1	-37.1	22.9	0.00e+00	0	39	0	1871708160	44	6339
2026-01-07 21:52:26.78	343.28	10.48	-36.1	-37.1	22.9	0.00e+00	0	39	0	1874853888	44	6298
2026-01-07 21:52:27.78	343.17	10.41	-36.2	-37.2	22.9	0.00e+00	0	39	0	1877999616	44	6374
2026-01-07 21:52:28.80	343.05	10.35	-36.3	-37.2	22.8	0.00e+00	0	39	0	1881145344	44	6422
2026-01-07 21:52:29.81	342.93	10.28	-36.3	-37.3	22.8	0.00e+00	0	39	0	1884291072	44	6485
2026-01-07 21:52:30.82	342.82	10.21	-36.4	-37.4	22.7	0.00e+00	0	39	0	1887436800	44	6505
2026-01-07 21:52:31.83	342.70	10.14	-36.6	-37.6	22.6	0.00e+00	0	39	0	1890582528	44	6719
2026-01-07 21:52:32.84	342.58	10.08	-36.8	-37.8	22.4	0.00e+00	0	39	0	1893728256	46	6113
2026-01-07 21:52:33.85	342.47	10.01	-37.0	-38.0	22.3	0.00e+00	0	39	0	1896873984	46	6222
2026-01-07 21:52:34.86	342.36	9.94	-37.2	-38.2	22.2	0.00e+00	0	39	0	1900019712	46	6411
2026-01-07 21:52:35.87	342.24	9.87	-37.3	-38.4	22.0	0.00e+00	0	39	0	1903165440	46	6529
2026-01-07 21:52:36.88	342.13	9.81	-37.4	-38.5	21.7	0.00e+00	0	39	0	1906311168	46	6630
2026-01-07 21:52:37.89	342.02	9.74	-37.3	-38.3	22.0	0.00e+00	0	39	0	1909456896	46	6490
2026-01-07 21:52:38.90	341.90	9.67	-37.1	-38.2	22.0	0.00e+00	0	39	0	1912602624	46	6376
2026-01-07 21:52:39.91	341.79	9.60	-37.1	-38.1	22.0	0.00e+00	0	39	0	1915748352	46	6341
2026-01-07 21:52:40.92	341.68	9.54	-36.9	-38.0	22.0	0.00e+00	0	39	0	1918894080	46	6246
2026-01-07 21:52:41.93	341.57	9.47	-37.1	-38.1	21.8	0.00e+00	0	39	0	1922039808	46	6346
2026-01-07 21:52:42.94	341.46	9.40	-36.7	-37.8	22.2	0.00e+00	0	39	0	1925185536	46	6091
2026-01-07 21:52:43.95	341.35	9.34	-36.7	-37.7	22.2	0.00e+00	0	39	0	1928331264	46	6059
2026-01-07 21:52:44.96	341.24	9.27	-36.5	-37.5	22.4	0.00e+00	0	39	0	1931476992	46	5897
2026-01-07 21:52:45.97	341.14	9.20	-36.2	-37.2	22.6	0.00e+00	0	39	0	1934622720	46	5717
2026-01-07 21:52:46.97	341.03	9.14	-36.3	-37.3	22.6	0.00e+00	0	39	0	1937768448	46	5734
2026-01-07 21:52:47.98	340.92	9.07	-36.3	-37.3	22.7	0.00e+00	0	39	0	1940914176	46	5786
2026-01-07 21:52:48.99	340.81	9.00	-36.6	-37.6	22.6	0.00e+00	0	39	0	1944059904	46	5947
2026-01-07 21:52:50.00	340.71	8.94	-36.5	-37.6	22.6	0.00e+00	0	39	0	1947205632	46	5931
2026-01-07 21:52:51.01	340.60	8.87	-36.6	-37.6	22.6	0.00e+00	0	39	0	1950351360	46	5959
2026-01-07 21:52:52.02	340.50	8.80	-36.7	-37.7	22.5	0.00e+00	0	39	0	1953497088	46	6039
2026-01-07 21:52:53.03	340.39	8.74	-37.0	-38.1	22.3	0.00e+00	0	39	0	1956642816	46	6307
2026-01-07 21:52:54.04	340.29	8.67	-37.1	-38.2	22.1	0.00e+00	0	39	0	1959788544	46	6374
2026-01-07 21:52:55.05	340.18	8.61	-37.3	-38.4	22.0	0.00e+00	0	39	0	1962934272	46	6500
2026-01-07 21:52:56.06	340.08	8.54	-37.3	-38.3	21.9	0.00e+00	0	39	0	1966080000	46	6496
2026-01-07 21:52:57.07	339.98	8.47	-37.5	-38.6	21.8	0.00e+00	0	39	0	1969225728	46	6673
2026-01-07 21:52:58.08	339.88	8.41	-37.5	-38.6	21.6	0.00e+00	0	39	0	1972371456	46	6712
2026-01-07 21:52:59.09	339.77	8.34	-37.6	-38.7	21.6	0.00e+00	0	39	0	1975517184	46	6794
2026-01-07 21:53:00.10	339.67	8.28	-37.5	-38.7	21.6	0.00e+00	0	39	0	1978662912	46	6730
2026-01-07 21:53:01.11	339.57	8.21	-37.5	-38.6	21.6	0.00e+00	0	39	0	1982857216	46	6717
2026-01-07 21:53:02.12	339.47	8.15	-37.5	-38.6	21.6	0.00e+00	0	39	0	1986002944	46	6676
2026-01-07 21:53:03.13	339.37	8.08	-37.2	-38.3	21.8	0.00e+00	0	39	0	1988100096	46	6449
2026-01-07 21:53:04.14	339.27	8.02	-37.1	-38.2	21.9	0.00e+00	0	39	0	1991245824	46	6388
2026-01-07 21:53:05.15	339.17	7.95	-36.9	-37.9	22.0	0.00e+00	0	39	0	1994391552	46	6190
2026-01-07 21:53:06.16	339.07	7.89	-36.9	-38.0	22.1	0.00e+00	0	39	0	1998585856	46	6211
2026-01-07 21:53:07.17	338.97	7.82	-36.7	-37.8	22.4	0.00e+00	0	39	0	2001731584	46	6067
2026-01-07 21:53:08.18	338.88	7.76	-36.6	-37.6	22.2	0.00e+00	0	39	0	2004877312	46	5939
2026-01-07 21:53:09.19	338.78	7.69	-36.7	-37.7	22.3	0.00e+00	0	39	0	2008023040	46	6061
2026-01-07 21:53:10.20	338.68	7.63	-36.7	-37.7	22.4	0.00e+00	0	39	0	2011168768	46	6064
