passes_logs/2026/01/07/R4.6S_Anadyr/R4.6S_Anadyr__20260107_015536_AQUA_rec.log

#Pass ID: 20260107_015536_AQUA
#Satellite: AQUA
#Configuration: AQUA
#almurnet v.1.7.20251203
#Start time: 2026-01-07 01:55:36

#Version: 2.2.20231116
#Station: R4.6S_Anadyr
#Location: 177.4865 lon 64.73178 lat
#TLE: 1 27424U 02022A   26004.96787593  .00001598  00000+0  32997-3 0  9996
#TLE: 2 27424  98.4069 331.2279 0002002  90.2377   0.6092 14.61798176259425

#Time	Az	El	Level	Level2	SNR	BER	BlckErr	Temp	State	Recorded	gain1	gain2
2026-01-07 01:55:36.85	156.24	0.04	-49.1	-60.6	3.5	8.45e-01	0	32	0	0	60	38858
2026-01-07 01:55:37.85	156.24	0.10	-49.4	-67.3	3.5	3.03e+01	0	33	104	0	60	89060
2026-01-07 01:55:38.86	156.24	0.17	-49.4	-67.3	3.5	3.03e+01	0	33	104	0	60	89408
2026-01-07 01:55:39.87	156.25	0.23	-49.4	-67.3	3.5	3.03e+01	0	33	104	0	60	89487
2026-01-07 01:55:40.88	156.25	0.29	-49.4	-67.3	3.5	3.03e+01	0	33	104	0	60	89559
2026-01-07 01:55:41.89	156.25	0.35	-49.5	-67.4	3.5	3.03e+01	0	33	104	0	60	90219
2026-01-07 01:55:42.90	156.25	0.42	-49.5	-67.4	3.5	3.03e+01	0	33	104	0	60	90358
2026-01-07 01:55:43.91	156.25	0.48	-49.5	-67.4	3.5	3.03e+01	0	33	104	0	60	90294
2026-01-07 01:55:44.92	156.26	0.54	-49.4	-67.4	3.5	3.03e+01	0	33	104	0	60	90254
2026-01-07 01:55:45.93	156.26	0.61	-49.4	-67.3	3.5	3.03e+01	0	33	104	0	60	89063
2026-01-07 01:55:46.94	156.26	0.67	-49.3	-67.2	3.5	3.03e+01	0	33	104	0	60	88583
2026-01-07 01:55:47.95	156.26	0.74	-49.2	-67.1	3.5	3.03e+01	0	33	104	0	60	87051
2026-01-07 01:55:48.96	156.27	0.80	-49.0	-66.9	3.5	3.03e+01	0	33	104	0	60	85283
2026-01-07 01:55:49.97	156.27	0.86	-48.5	-66.4	3.5	3.03e+01	0	33	104	0	60	80770
2026-01-07 01:55:50.98	156.27	0.93	-48.0	-65.8	3.5	3.03e+01	0	33	104	0	60	75329
2026-01-07 01:55:51.99	156.27	0.99	-47.5	-64.7	3.5	3.03e+01	0	33	104	0	60	65998
2026-01-07 01:55:53.00	156.27	1.06	-47.5	-65.1	3.5	3.03e+01	0	33	104	0	60	69211
2026-01-07 01:55:54.01	156.28	1.12	-47.5	-65.3	3.5	3.03e+01	0	33	104	0	60	70490
2026-01-07 01:55:55.02	156.28	1.19	-47.5	-65.4	3.5	3.03e+01	0	33	104	0	60	71565
2026-01-07 01:55:56.02	156.28	1.25	-47.5	-64.9	3.5	3.03e+01	0	33	104	0	60	67942
2026-01-07 01:55:57.03	156.28	1.32	-47.5	-65.3	3.5	3.03e+01	0	33	104	0	60	71213
2026-01-07 01:55:58.04	156.28	1.38	-47.5	-65.4	3.5	3.03e+01	0	33	104	0	60	71433
2026-01-07 01:55:59.05	156.29	1.45	-47.5	-65.4	3.5	3.03e+01	0	33	104	0	60	71311
2026-01-07 01:56:00.06	156.29	1.52	-47.5	-65.4	3.5	3.03e+01	0	33	104	0	60	71540
2026-01-07 01:56:01.07	156.29	1.58	-47.5	-65.1	3.5	3.03e+01	0	33	104	0	60	69239
2026-01-07 01:56:02.08	156.29	1.65	-47.4	-64.4	3.5	3.03e+01	0	33	104	0	60	63981
2026-01-07 01:56:03.09	156.30	1.72	-47.4	-64.2	3.5	3.03e+01	0	34	104	0	60	62718
2026-01-07 01:56:04.10	156.30	1.78	-47.4	-64.2	3.5	3.03e+01	0	34	104	0	60	62376
2026-01-07 01:56:05.11	156.30	1.85	-47.4	-64.6	3.5	3.03e+01	0	34	104	0	60	65559
2026-01-07 01:56:06.12	156.30	1.92	-47.5	-65.0	3.5	3.03e+01	0	34	104	0	60	68674
2026-01-07 01:56:07.13	156.30	1.98	-47.5	-65.4	3.5	3.03e+01	0	34	104	0	60	71706
2026-01-07 01:56:08.14	156.31	2.05	-47.5	-65.3	3.5	3.03e+01	0	34	104	0	60	70810
2026-01-07 01:56:09.15	156.31	2.12	-47.5	-65.0	3.5	3.03e+01	0	34	104	0	60	68334
2026-01-07 01:56:10.16	156.31	2.19	-47.5	-65.2	3.5	3.03e+01	0	33	104	0	60	69838
2026-01-07 01:56:11.16	156.31	2.25	-47.5	-65.0	3.5	3.03e+01	0	34	104	0	60	68466
2026-01-07 01:56:12.17	156.31	2.32	-47.5	-65.3	3.5	3.03e+01	0	34	104	0	60	70705
2026-01-07 01:56:13.19	156.32	2.39	-47.4	-64.7	3.5	3.03e+01	0	34	104	0	60	65931
2026-01-07 01:56:14.20	156.32	2.46	-47.4	-64.0	3.5	3.03e+01	0	34	104	0	60	60723
2026-01-07 01:56:15.21	156.32	2.53	-47.4	-63.6	3.7	3.03e+01	0	34	104	0	60	58360
2026-01-07 01:56:16.22	156.32	2.60	-47.4	-63.8	3.5	3.03e+01	0	34	104	0	60	59910
2026-01-07 01:56:17.23	156.32	2.66	-47.4	-64.4	3.5	3.03e+01	0	34	104	0	60	64003
2026-01-07 01:56:18.24	156.33	2.73	-47.4	-65.0	3.5	3.03e+01	0	34	104	0	60	68074
2026-01-07 01:56:19.25	156.33	2.80	-47.4	-64.8	3.5	3.03e+01	0	34	104	0	60	66905
2026-01-07 01:56:20.26	156.33	2.87	-47.4	-64.2	3.5	3.03e+01	0	34	104	0	60	62357
2026-01-07 01:56:21.27	156.33	2.94	-47.4	-64.4	3.5	3.03e+01	0	34	104	0	60	63567
2026-01-07 01:56:22.28	156.33	3.01	-47.4	-64.9	3.5	3.03e+01	0	34	104	0	60	67766
2026-01-07 01:56:23.29	156.34	3.08	-47.4	-64.6	3.6	3.03e+01	0	34	104	0	60	65658
2026-01-07 01:56:24.30	156.34	3.15	-47.3	-61.3	4.1	3.03e+01	0	34	104	0	60	44551
2026-01-07 01:56:25.31	156.34	3.22	-47.1	-57.6	6.3	3.03e+01	92	34	0	524288	60	29209
2026-01-07 01:56:26.32	156.34	3.29	-46.7	-54.9	9.4	3.03e+01	92	34	0	2097152	60	21388
2026-01-07 01:56:27.33	156.34	3.36	-46.2	-52.7	11.9	3.03e+01	92	34	0	4194304	60	16672
2026-01-07 01:56:28.34	156.35	3.44	-45.5	-50.7	14.1	3.03e+01	91	34	0	5767168	60	13207
2026-01-07 01:56:29.35	156.35	3.51	-44.8	-49.1	15.6	3.03e+01	91	34	0	7864320	60	10928
2026-01-07 01:56:30.36	156.35	3.58	-44.2	-47.8	17.1	3.03e+01	92	34	0	9961472	60	9451
2026-01-07 01:56:31.37	156.35	3.65	-43.8	-47.1	17.8	3.03e+01	92	34	0	11534336	60	8751
2026-01-07 01:56:32.38	156.35	3.72	-43.3	-46.4	18.4	3.03e+01	92	34	0	13631488	60	7999
2026-01-07 01:56:33.39	156.36	3.79	-43.4	-46.4	18.5	3.03e+01	92	34	0	15204352	60	8057
2026-01-07 01:56:34.40	156.36	3.87	-43.4	-46.5	18.4	3.03e+01	90	34	0	17301504	60	8122
2026-01-07 01:56:35.40	156.36	3.94	-43.8	-47.1	17.2	3.03e+01	92	34	0	18874368	60	8739
2026-01-07 01:56:36.41	156.36	4.01	-47.3	-64.8	3.5	3.03e+01	0	34	104	19922944	60	66850
2026-01-07 01:56:37.42	156.36	4.08	-39.9	-42.0	21.4	3.03e+01	89	34	104	19922944	54	6877
2026-01-07 01:56:38.43	156.37	4.16	-47.3	-64.4	3.5	3.03e+01	0	34	104	19922944	60	63920
2026-01-07 01:56:39.44	156.37	4.23	-44.2	-47.9	17.9	3.03e+01	91	34	104	19922944	60	9567
2026-01-07 01:56:40.45	156.37	4.31	-47.4	-62.2	3.6	3.03e+01	0	34	104	19922944	60	49602
2026-01-07 01:56:41.46	156.37	4.38	-41.7	-44.0	21.1	3.03e+01	91	34	0	19922944	58	6812
2026-01-07 01:56:42.47	156.37	4.45	-40.4	-42.3	22.9	3.03e+01	92	34	0	22020096	56	6327
2026-01-07 01:56:43.48	156.38	4.53	-39.4	-41.1	23.9	3.03e+01	92	34	0	23592960	54	6197
2026-01-07 01:56:44.49	156.38	4.60	-39.3	-41.0	24.0	3.03e+01	92	34	0	25690112	54	6091
2026-01-07 01:56:45.50	156.38	4.68	-39.2	-40.8	24.1	3.03e+01	91	34	0	27787264	54	5964
2026-01-07 01:56:46.51	156.38	4.75	-39.2	-40.8	24.2	3.03e+01	91	34	0	29360128	54	5980
2026-01-07 01:56:47.52	156.38	4.83	-39.2	-40.9	24.1	3.03e+01	92	34	0	31457280	54	6050
2026-01-07 01:56:48.53	156.39	4.90	-39.1	-40.8	24.2	3.03e+01	91	34	0	33554432	54	5970
2026-01-07 01:56:49.54	156.39	4.98	-39.2	-40.8	24.3	3.03e+01	92	34	0	35127296	54	5967
2026-01-07 01:56:50.55	156.39	5.05	-39.1	-40.7	24.3	3.03e+01	90	34	0	37224448	54	5920
2026-01-07 01:56:51.55	156.39	5.13	-38.9	-40.5	24.4	3.03e+01	92	34	0	38797312	54	5778
2026-01-07 01:56:52.56	156.39	5.21	-38.9	-40.5	24.6	3.03e+01	91	34	0	40894464	52	6485
2026-01-07 01:56:53.57	156.39	5.28	-39.1	-40.8	24.3	3.03e+01	91	34	0	42991616	52	6668
2026-01-07 01:56:54.58	156.40	5.36	-38.9	-40.5	24.7	3.03e+01	92	34	0	44564480	52	6442
2026-01-07 01:56:55.59	156.40	5.44	-39.0	-40.6	24.6	3.03e+01	92	34	0	46661632	52	6527
2026-01-07 01:56:56.60	156.40	5.52	-38.8	-40.3	24.9	3.03e+01	92	34	0	48234496	52	6333
2026-01-07 01:56:57.61	156.40	5.59	-38.7	-40.2	25.0	3.03e+01	92	34	0	50331648	52	6263
2026-01-07 01:56:58.62	156.40	5.67	-38.8	-40.3	24.9	3.03e+01	92	34	0	52428800	52	6327
2026-01-07 01:56:59.63	156.41	5.75	-38.6	-40.2	25.1	3.03e+01	90	34	0	54001664	52	6237
2026-01-07 01:57:00.64	156.41	5.83	-38.6	-40.1	25.1	3.03e+01	92	34	0	56098816	52	6169
2026-01-07 01:57:01.65	156.41	5.91	-38.5	-40.0	25.3	3.03e+01	89	34	0	57671680	52	6082
2026-01-07 01:57:02.66	156.41	5.99	-38.5	-40.0	25.2	3.03e+01	91	34	0	59768832	52	6118
2026-01-07 01:57:03.67	156.41	6.07	-38.3	-39.8	25.5	3.03e+01	89	34	0	61865984	52	5981
2026-01-07 01:57:04.68	156.41	6.15	-38.3	-39.8	25.5	3.03e+01	92	34	0	63438848	52	5972
2026-01-07 01:57:05.69	156.42	6.23	-38.3	-39.8	25.6	3.03e+01	91	34	0	65536000	52	5961
2026-01-07 01:57:06.70	156.42	6.31	-38.2	-39.7	25.6	3.03e+01	92	34	0	67108864	52	5905
2026-01-07 01:57:07.71	156.42	6.39	-38.3	-39.8	25.6	3.03e+01	92	34	0	69206016	52	5991
2026-01-07 01:57:08.72	156.42	6.47	-38.1	-39.5	25.9	3.03e+01	92	34	0	71303168	52	5783
2026-01-07 01:57:09.73	156.42	6.55	-38.0	-39.4	25.9	3.03e+01	92	34	0	72876032	50	6380
2026-01-07 01:57:10.74	156.42	6.63	-38.3	-39.7	25.6	3.03e+01	92	34	0	74973184	50	6648
2026-01-07 01:57:11.75	156.43	6.71	-37.8	-39.3	26.1	3.03e+01	92	34	0	76546048	50	6284
2026-01-07 01:57:12.75	156.43	6.79	-37.9	-39.4	26.0	3.03e+01	92	34	0	78643200	50	6353
2026-01-07 01:57:13.76	156.43	6.87	-38.0	-39.4	25.9	3.03e+01	92	34	0	80740352	50	6377
2026-01-07 01:57:14.77	156.43	6.96	-38.0	-39.5	25.8	3.03e+01	92	34	0	82313216	50	6463
2026-01-07 01:57:15.78	156.43	7.04	-38.0	-39.5	25.9	3.03e+01	87	34	0	84410368	50	6469
2026-01-07 01:57:16.79	156.43	7.12	-37.5	-39.0	26.4	3.03e+01	91	34	0	86507520	50	6074
2026-01-07 01:57:17.80	156.44	7.21	-37.5	-38.9	26.5	3.03e+01	92	34	0	88080384	50	6014
2026-01-07 01:57:18.81	156.44	7.29	-37.5	-38.9	26.5	3.03e+01	87	34	0	90177536	50	6005
2026-01-07 01:57:19.82	156.44	7.37	-37.4	-38.8	26.6	3.03e+01	92	34	0	91750400	50	5961
2026-01-07 01:57:20.83	156.44	7.46	-37.5	-38.9	26.5	3.03e+01	92	34	0	93847552	50	6030
2026-01-07 01:57:21.84	156.44	7.54	-37.5	-38.9	26.5	3.03e+01	92	34	0	95944704	50	6039
2026-01-07 01:57:22.84	156.44	7.63	-37.5	-38.8	26.6	3.03e+01	92	34	0	97517568	50	5994
2026-01-07 01:57:23.85	156.45	7.71	-37.4	-38.8	26.6	3.03e+01	92	34	0	99614720	50	5978
2026-01-07 01:57:24.86	156.45	7.80	-37.2	-38.6	26.8	3.03e+01	92	34	0	101711872	50	5817
2026-01-07 01:57:25.87	156.45	7.88	-37.2	-38.6	26.8	3.03e+01	89	34	0	103284736	50	5812
2026-01-07 01:57:26.88	156.45	7.97	-37.2	-38.6	26.8	3.03e+01	92	34	0	105381888	50	5818
2026-01-07 01:57:27.89	156.45	8.06	-37.1	-38.5	27.0	3.03e+01	92	34	0	106954752	50	5762
2026-01-07 01:57:28.90	156.45	8.14	-37.1	-38.5	27.0	3.03e+01	92	34	0	109051904	50	5733
2026-01-07 01:57:29.91	156.45	8.23	-37.1	-38.5	26.9	3.03e+01	92	34	0	111149056	50	5739
2026-01-07 01:57:30.92	156.46	8.32	-37.0	-38.3	27.1	3.03e+01	92	34	0	112721920	50	5630
2026-01-07 01:57:31.93	156.46	8.41	-37.0	-38.4	27.1	3.03e+01	92	34	0	114819072	48	6369
2026-01-07 01:57:32.93	156.46	8.49	-37.1	-38.5	27.0	3.03e+01	92	34	0	116391936	48	6448
2026-01-07 01:57:33.94	156.46	8.58	-37.1	-38.4	27.1	3.03e+01	92	34	0	118489088	48	6389
2026-01-07 01:57:34.95	156.46	8.67	-37.0	-38.3	27.2	3.03e+01	92	34	0	120061952	48	6328
2026-01-07 01:57:35.96	156.46	8.76	-37.1	-38.5	27.1	3.03e+01	92	34	0	122159104	48	6460
2026-01-07 01:57:36.97	156.46	8.85	-36.9	-38.3	27.2	3.03e+01	91	34	0	124256256	48	6286
2026-01-07 01:57:37.98	156.47	8.94	-36.9	-38.2	27.1	3.03e+01	87	34	0	125829120	48	6276
2026-01-07 01:57:38.99	156.47	9.03	-36.9	-38.2	27.2	3.03e+01	91	34	0	127926272	48	6238
2026-01-07 01:57:40.00	156.47	9.12	-36.9	-38.2	27.3	3.03e+01	91	34	0	130023424	48	6268
2026-01-07 01:57:41.01	156.47	9.21	-36.8	-38.1	27.3	3.03e+01	91	34	0	131596288	48	6197
2026-01-07 01:57:42.02	156.47	9.30	-37.0	-38.3	27.1	3.03e+01	92	34	0	133693440	48	6337
2026-01-07 01:57:43.02	156.47	9.39	-37.1	-38.4	27.1	3.03e+01	92	34	0	135266304	48	6391
2026-01-07 01:57:44.03	156.47	9.49	-36.8	-38.2	27.3	3.03e+01	92	34	0	137363456	48	6233
2026-01-07 01:57:45.04	156.48	9.58	-36.8	-38.1	27.4	3.03e+01	92	34	0	139460608	48	6179
2026-01-07 01:57:46.05	156.48	9.67	-36.7	-38.0	27.5	3.03e+01	92	34	0	141033472	48	6076
2026-01-07 01:57:47.06	156.48	9.77	-36.6	-38.0	27.6	3.03e+01	92	34	0	143130624	48	6065
2026-01-07 01:57:48.07	156.48	9.86	-36.6	-37.9	27.6	3.03e+01	92	34	0	145227776	48	6013
2026-01-07 01:57:49.08	156.48	9.95	-36.6	-37.9	27.6	3.03e+01	90	34	0	146800640	48	6063
2026-01-07 01:57:50.09	156.48	10.05	-36.5	-37.8	27.7	3.03e+01	92	34	0	148897792	48	5986
2026-01-07 01:57:51.09	156.48	10.14	-36.5	-37.8	27.7	3.03e+01	90	34	0	150470656	48	5967
2026-01-07 01:57:52.10	156.48	10.24	-36.5	-37.8	27.7	3.03e+01	92	34	0	152567808	48	5961
2026-01-07 01:57:53.11	156.49	10.33	-36.4	-37.7	27.8	3.03e+01	91	34	0	154664960	48	5911
2026-01-07 01:57:54.12	156.49	10.43	-36.4	-37.6	28.0	3.03e+01	91	34	0	156237824	48	5849
2026-01-07 01:57:55.13	156.49	10.53	-36.4	-37.7	27.9	3.03e+01	90	34	0	158334976	48	5910
2026-01-07 01:57:56.14	156.49	10.62	-36.3	-37.6	28.0	3.03e+01	92	34	0	159907840	48	5827
2026-01-07 01:57:57.15	156.49	10.72	-36.2	-37.5	28.1	3.03e+01	88	34	0	162004992	48	5768
2026-01-07 01:57:58.16	156.49	10.82	-36.2	-37.5	28.0	3.03e+01	91	34	0	163577856	48	5777
2026-01-07 01:57:59.16	156.49	10.92	-36.2	-37.4	28.2	3.03e+01	92	34	0	165675008	48	5719
2026-01-07 01:58:00.17	156.49	11.01	-36.3	-37.5	28.0	3.03e+01	84	34	0	167772160	48	5779
2026-01-07 01:58:01.18	156.49	11.11	-36.0	-37.3	28.3	3.03e+01	92	34	0	169345024	48	5634
2026-01-07 01:58:02.19	156.50	11.21	-36.2	-37.5	28.2	3.03e+01	90	34	0	171442176	48	5739
2026-01-07 01:58:03.19	156.50	11.31	-36.2	-37.5	28.2	3.03e+01	92	34	0	173539328	48	5730
2026-01-07 01:58:04.20	156.50	11.41	-36.0	-37.3	28.3	3.03e+01	90	34	0	175112192	48	5607
2026-01-07 01:58:05.21	156.50	11.51	-35.9	-37.2	28.4	3.03e+01	92	34	0	177209344	46	6239
2026-01-07 01:58:06.22	156.50	11.62	-36.0	-37.2	28.4	3.03e+01	91	34	0	178782208	46	6275
2026-01-07 01:58:07.23	156.50	11.72	-35.9	-37.2	28.4	3.03e+01	91	34	0	180879360	46	6234
2026-01-07 01:58:08.24	156.50	11.82	-35.8	-37.1	28.5	3.03e+01	90	34	0	182976512	46	6168
2026-01-07 01:58:09.25	156.50	11.92	-35.8	-37.1	28.5	3.03e+01	92	34	0	184549376	46	6171
2026-01-07 01:58:10.26	156.50	12.03	-35.7	-37.0	28.6	3.03e+01	90	34	0	186646528	46	6070
2026-01-07 01:58:11.27	156.50	12.13	-35.8	-37.1	28.6	3.03e+01	92	34	0	188219392	46	6149
2026-01-07 01:58:12.28	156.50	12.24	-35.7	-36.9	28.6	3.03e+01	90	34	0	190316544	46	6057
2026-01-07 01:58:13.29	156.51	12.34	-35.7	-36.9	28.7	3.03e+01	91	34	0	192413696	46	6025
2026-01-07 01:58:14.30	156.51	12.45	-35.7	-37.0	28.6	3.03e+01	90	34	0	193986560	46	6082
2026-01-07 01:58:15.31	156.51	12.55	-35.7	-37.0	28.6	3.03e+01	92	34	0	196083712	46	6074
2026-01-07 01:58:16.32	156.51	12.66	-35.6	-36.8	28.8	3.03e+01	88	34	0	198180864	46	5981
2026-01-07 01:58:17.33	156.51	12.77	-35.5	-36.8	28.9	3.03e+01	90	34	0	199753728	46	5933
2026-01-07 01:58:18.34	156.51	12.87	-35.5	-36.7	28.8	3.03e+01	91	34	0	201850880	46	5906
2026-01-07 01:58:19.34	156.51	12.98	-35.6	-36.9	28.8	3.03e+01	88	34	0	203423744	46	6009
2026-01-07 01:58:20.35	156.51	13.09	-35.6	-36.9	28.8	3.03e+01	90	34	0	205520896	46	5995
2026-01-07 01:58:21.37	156.51	13.20	-35.5	-36.7	28.9	3.03e+01	91	34	0	207618048	46	5923
2026-01-07 01:58:22.37	156.51	13.31	-35.5	-36.7	28.9	3.03e+01	91	34	0	209190912	46	5887
2026-01-07 01:58:23.38	156.51	13.42	-35.5	-36.7	28.9	3.03e+01	90	34	0	211288064	46	5884
2026-01-07 01:58:24.39	156.51	13.53	-35.4	-36.6	29.0	3.03e+01	91	34	0	212860928	46	5852
2026-01-07 01:58:25.40	156.51	13.64	-35.3	-36.6	29.0	3.03e+01	90	34	0	214958080	46	5800
2026-01-07 01:58:26.41	156.51	13.75	-35.4	-36.6	29.0	3.03e+01	91	34	0	217055232	46	5812
2026-01-07 01:58:27.42	156.52	13.86	-35.3	-36.5	29.1	3.03e+01	90	34	0	218628096	46	5765
2026-01-07 01:58:28.43	156.52	13.98	-35.4	-36.6	29.0	3.03e+01	92	34	0	220725248	46	5849
2026-01-07 01:58:29.44	156.52	14.09	-35.3	-36.5	29.1	3.03e+01	92	34	0	222298112	46	5775
2026-01-07 01:58:30.45	156.52	14.20	-35.4	-36.6	29.1	3.03e+01	92	34	0	224395264	46	5848
2026-01-07 01:58:31.46	156.52	14.32	-35.4	-36.6	29.0	3.03e+01	91	34	0	226492416	46	5837
2026-01-07 01:58:32.47	156.52	14.43	-35.4	-36.6	29.0	3.03e+01	92	34	0	228065280	46	5856
2026-01-07 01:58:33.48	156.52	14.55	-35.5	-36.7	29.0	3.03e+01	92	34	0	230162432	46	5891
2026-01-07 01:58:34.49	156.52	14.67	-35.4	-36.6	29.1	3.03e+01	92	34	0	231735296	46	5817
2026-01-07 01:58:35.49	156.52	14.78	-35.5	-36.7	29.0	3.03e+01	90	34	0	233832448	46	5888
2026-01-07 01:58:36.50	156.52	14.90	-35.4	-36.6	29.0	3.03e+01	92	34	0	235929600	46	5840
2026-01-07 01:58:37.51	156.52	15.02	-35.5	-36.7	29.0	3.03e+01	90	34	0	237502464	46	5879
2026-01-07 01:58:38.52	156.52	15.14	-35.6	-36.8	28.9	3.03e+01	92	34	0	239599616	46	5966
2026-01-07 01:58:39.53	156.52	15.26	-35.5	-36.7	28.9	3.03e+01	90	34	0	241696768	46	5888
2026-01-07 01:58:40.54	156.52	15.38	-35.5	-36.7	29.0	3.03e+01	92	34	0	243269632	46	5890
2026-01-07 01:58:41.55	156.52	15.50	-35.5	-36.8	28.7	3.03e+01	86	34	0	245366784	46	5937
2026-01-07 01:58:42.56	156.52	15.62	-35.4	-36.6	28.9	3.03e+01	91	34	0	246939648	46	5850
2026-01-07 01:58:43.57	156.52	15.74	-35.5	-36.7	29.0	3.03e+01	92	34	0	249036800	46	5890
2026-01-07 01:58:44.58	156.52	15.87	-35.4	-36.6	29.0	3.03e+01	91	34	0	251133952	46	5849
2026-01-07 01:58:45.59	156.52	15.99	-35.4	-36.6	29.1	3.03e+01	90	34	0	252706816	46	5818
2026-01-07 01:58:46.59	156.52	16.12	-35.2	-36.4	29.1	3.03e+01	92	34	0	254803968	46	5716
2026-01-07 01:58:47.60	156.52	16.24	-35.3	-36.5	29.2	3.03e+01	90	34	0	256376832	46	5762
2026-01-07 01:58:48.61	156.52	16.37	-35.3	-36.5	29.1	3.03e+01	92	34	0	258473984	46	5749
2026-01-07 01:58:49.62	156.52	16.49	-35.2	-36.4	29.2	3.03e+01	90	34	0	260571136	46	5703
2026-01-07 01:58:50.63	156.52	16.62	-35.1	-36.3	29.3	3.03e+01	92	34	0	262144000	46	5651
2026-01-07 01:58:51.64	156.52	16.75	-35.1	-36.3	29.4	3.03e+01	92	34	0	264241152	46	5626
2026-01-07 01:58:52.65	156.52	16.88	-35.1	-36.3	29.3	3.03e+01	92	34	0	265814016	46	5612
2026-01-07 01:58:53.66	156.52	17.01	-35.2	-36.4	29.3	3.03e+01	92	34	0	267911168	46	5671
2026-01-07 01:58:54.67	156.52	17.14	-35.6	-45.8	3.4	3.03e+01	0	34	104	269484032	46	16743
2026-01-07 01:58:55.68	156.52	17.27	-35.6	-45.6	3.4	3.03e+01	0	34	104	269484032	46	16498
2026-01-07 01:58:56.69	156.52	17.40	-35.6	-45.8	3.6	3.03e+01	0	34	104	269484032	46	16795
2026-01-07 01:58:57.70	156.52	17.53	-35.7	-45.8	3.6	3.03e+01	0	34	104	269484032	46	16746
2026-01-07 01:58:58.71	156.52	17.67	-35.7	-45.8	3.6	3.03e+01	0	34	104	269484032	46	16806
2026-01-07 01:58:59.72	156.52	17.80	-36.4	-46.5	3.6	3.03e+01	0	34	104	269484032	46	18252
2026-01-07 01:59:00.73	156.52	17.94	-48.2	-64.3	3.5	3.03e+01	0	34	104	269484032	60	63062
2026-01-07 01:59:01.74	156.52	18.07	-39.2	-49.6	3.5	3.03e+01	0	34	104	269484032	60	11681
2026-01-07 01:59:02.75	156.52	18.21	-41.9	-52.8	3.4	3.03e+01	0	34	104	269484032	60	16785
2026-01-07 01:59:03.76	156.52	18.35	-38.8	-49.1	3.6	3.03e+01	0	34	104	269484032	52	17455
2026-01-07 01:59:04.77	156.52	18.49	-37.5	-47.7	3.5	3.03e+01	0	34	104	269484032	50	16572
2026-01-07 01:59:05.78	156.52	18.63	-36.8	-47.0	3.6	3.03e+01	0	34	104	269484032	48	17143
2026-01-07 01:59:06.79	156.52	18.77	-35.6	-45.8	3.4	3.03e+01	0	34	104	269484032	48	14989
2026-01-07 01:59:07.80	156.51	18.91	-37.8	-48.0	3.6	3.03e+01	0	34	104	269484032	46	21695
2026-01-07 01:59:08.81	156.51	19.05	-37.5	-47.7	3.6	3.03e+01	0	34	104	269484032	50	16516
2026-01-07 01:59:09.82	156.51	19.19	-45.0	-56.7	3.4	3.03e+01	0	34	104	269484032	60	26438
2026-01-07 01:59:10.82	156.51	19.33	-39.4	-49.7	3.4	3.03e+01	0	34	104	269484032	50	20931
2026-01-07 01:59:11.83	156.51	19.48	-44.8	-56.5	3.4	3.03e+01	0	34	104	269484032	60	25667
2026-01-07 01:59:12.84	156.51	19.63	-38.0	-48.2	4.1	3.03e+01	0	34	104	269484032	52	15612
2026-01-07 01:59:13.85	156.51	19.77	-36.4	-46.5	4.1	3.03e+01	0	34	104	269484032	48	16275
2026-01-07 01:59:14.86	156.51	19.92	-35.4	-45.4	4.1	3.03e+01	0	34	104	269484032	46	16134
2026-01-07 01:59:15.87	156.51	20.07	-37.7	-47.8	3.9	3.03e+01	0	34	104	269484032	46	21258
2026-01-07 01:59:16.88	156.51	20.22	-37.9	-48.1	3.4	3.03e+01	0	34	104	269484032	52	15522
2026-01-07 01:59:17.89	156.51	20.37	-41.7	-52.4	3.9	3.03e+01	0	34	104	269484032	50	28394
2026-01-07 01:59:18.90	156.51	20.52	-47.8	-62.1	3.5	3.03e+01	0	34	104	269484032	60	49133
2026-01-07 01:59:19.91	156.50	20.67	-35.6	-45.8	3.5	3.03e+01	0	34	104	269484032	46	16837
2026-01-07 01:59:20.91	156.50	20.82	-38.5	-48.9	3.5	3.03e+01	0	34	104	269484032	54	15186
2026-01-07 01:59:21.92	156.50	20.98	-36.7	-47.0	3.5	3.03e+01	0	34	104	269484032	48	17219
2026-01-07 01:59:22.93	156.50	21.13	-37.1	-47.3	3.5	3.03e+01	0	34	104	269484032	48	17871
2026-01-07 01:59:23.94	156.50	21.29	-37.2	-47.5	3.5	3.03e+01	0	34	104	269484032	48	18265
2026-01-07 01:59:24.95	156.50	21.45	-35.6	-45.8	3.5	3.03e+01	0	34	104	269484032	46	16775
2026-01-07 01:59:25.96	156.50	21.61	-39.1	-49.5	3.5	3.03e+01	0	34	104	269484032	48	22964
2026-01-07 01:59:26.97	156.49	21.77	-43.0	-54.1	3.5	3.03e+01	0	34	104	269484032	50	34822
2026-01-07 01:59:27.98	156.49	21.93	-42.6	-53.6	3.5	3.03e+01	0	34	104	269484032	60	18434
2026-01-07 01:59:28.99	156.49	22.09	-45.9	-58.1	3.5	3.03e+01	0	34	104	269484032	58	34582
2026-01-07 01:59:30.00	156.49	22.25	-43.6	-54.7	3.5	3.03e+01	0	34	104	269484032	60	20902
2026-01-07 01:59:31.01	156.49	22.42	-40.5	-51.1	3.5	3.03e+01	0	34	104	269484032	56	17478
2026-01-07 01:59:32.02	156.49	22.58	-39.8	-50.3	3.4	3.03e+01	0	34	104	269484032	56	15872
2026-01-07 01:59:33.03	156.48	22.75	-37.8	-48.1	3.5	3.03e+01	0	34	104	269484032	52	15542
2026-01-07 01:59:34.04	156.48	22.92	-40.5	-51.1	3.5	3.03e+01	0	34	104	269484032	54	19469
2026-01-07 01:59:35.05	156.48	23.09	-38.1	-48.3	3.5	3.03e+01	0	34	104	269484032	52	15895
2026-01-07 01:59:36.06	156.48	23.26	-44.0	-55.3	3.5	3.03e+01	0	34	104	269484032	54	31504
2026-01-07 01:59:37.06	156.48	23.43	-49.1	-67.0	3.5	3.03e+01	0	34	104	269484032	60	86029
2026-01-07 01:59:38.07	156.47	23.60	-39.7	-50.1	3.5	3.03e+01	0	34	104	269484032	48	24465
2026-01-07 01:59:39.08	156.47	23.77	-38.2	-48.5	3.5	3.03e+01	0	34	104	269484032	52	16225
2026-01-07 01:59:40.09	156.47	23.95	-37.8	-48.1	3.5	3.03e+01	0	34	104	269484032	50	17406
2026-01-07 01:59:41.10	156.47	24.13	-37.1	-47.4	3.5	3.03e+01	0	34	104	269484032	50	16053
2026-01-07 01:59:42.11	156.46	24.30	-36.7	-47.0	3.5	3.03e+01	0	34	104	269484032	48	17110
2026-01-07 01:59:43.12	156.46	24.48	-36.5	-46.8	3.5	3.03e+01	0	34	104	269484032	46	18768
2026-01-07 01:59:44.13	156.46	24.66	-41.6	-52.4	3.5	3.03e+01	0	34	104	269484032	54	22602
2026-01-07 01:59:45.14	156.46	24.85	-48.9	-65.9	3.5	3.03e+01	0	34	104	269484032	60	75929
2026-01-07 01:59:46.15	156.45	25.03	-38.2	-48.5	3.5	3.03e+01	0	34	104	269484032	52	16178
2026-01-07 01:59:47.16	156.45	25.21	-48.9	-65.6	3.5	3.03e+01	0	34	104	269484032	60	73748
2026-01-07 01:59:48.17	156.45	25.40	-37.5	-47.8	3.5	3.03e+01	0	34	104	269484032	52	14893
2026-01-07 01:59:49.18	156.45	25.59	-36.6	-46.7	3.5	3.03e+01	0	34	104	269484032	48	16685
2026-01-07 01:59:50.19	156.44	25.78	-36.3	-46.5	3.5	3.03e+01	0	34	104	269484032	48	16180
2026-01-07 01:59:51.20	156.44	25.97	-36.4	-46.6	3.5	3.03e+01	0	34	104	269484032	48	16353
2026-01-07 01:59:52.21	156.44	26.16	-41.1	-51.8	3.5	3.03e+01	0	34	104	269484032	54	21058
2026-01-07 01:59:53.22	156.43	26.35	-43.1	-54.1	3.5	3.03e+01	0	34	104	269484032	56	24675
2026-01-07 01:59:54.23	156.43	26.55	-49.2	-66.8	3.5	3.03e+01	0	34	104	269484032	60	83978
2026-01-07 01:59:55.24	156.43	26.74	-41.5	-52.2	3.5	3.03e+01	0	34	104	269484032	58	17669
2026-01-07 01:59:56.25	156.42	26.94	-49.1	-66.4	3.5	3.03e+01	0	34	104	269484032	60	80761
2026-01-07 01:59:57.26	156.42	27.14	-40.0	-50.5	3.6	3.03e+01	0	34	104	269484032	56	16271
2026-01-07 01:59:58.26	156.41	27.34	-39.4	-49.8	3.5	3.03e+01	0	34	104	269484032	54	16860
2026-01-07 01:59:59.27	156.41	27.54	-38.2	-48.5	3.5	3.03e+01	0	34	104	269484032	52	16303
2026-01-07 02:00:00.28	156.41	27.75	-36.5	-46.8	3.5	3.03e+01	0	34	104	269484032	48	16779
2026-01-07 02:00:01.29	156.40	27.95	-39.2	-49.5	3.5	3.03e+01	0	34	104	269484032	52	18294
2026-01-07 02:00:02.30	156.40	28.16	-38.6	-48.9	3.5	3.03e+01	0	34	104	269484032	52	16962
2026-01-07 02:00:03.31	156.39	28.37	-49.1	-66.5	3.5	3.03e+01	0	34	104	269484032	60	81077
2026-01-07 02:00:04.32	156.39	28.58	-49.1	-66.3	3.5	3.03e+01	0	34	104	269484032	60	79499
2026-01-07 02:00:05.33	156.39	28.79	-42.4	-53.3	3.5	3.03e+01	0	34	104	269484032	56	22389
2026-01-07 02:00:06.34	156.38	29.01	-36.8	-47.0	3.5	3.03e+01	0	34	104	269484032	48	17226
2026-01-07 02:00:07.35	156.38	29.22	-36.4	-46.6	3.5	3.03e+01	0	34	104	269484032	48	16432
2026-01-07 02:00:08.36	156.37	29.44	-36.0	-46.2	3.5	3.03e+01	0	34	104	269484032	48	15727
2026-01-07 02:00:09.37	156.37	29.66	-35.1	-45.3	3.5	3.03e+01	0	34	104	269484032	46	15898
2026-01-07 02:00:10.37	156.36	29.88	-37.6	-47.9	3.5	3.03e+01	0	34	104	269484032	50	17010
2026-01-07 02:00:11.38	156.36	30.11	-42.8	-53.8	3.5	3.03e+01	0	34	104	269484032	60	18954
2026-01-07 02:00:12.39	156.35	30.33	-49.2	-66.8	3.5	3.03e+01	0	34	104	269484032	60	83849
2026-01-07 02:00:13.40	156.35	30.56	-38.0	-48.2	3.5	3.03e+01	0	34	104	269484032	52	15625
2026-01-07 02:00:14.41	156.34	30.79	-49.1	-65.8	3.5	3.03e+01	0	34	104	269484032	60	75140
2026-01-07 02:00:15.41	156.33	31.02	-36.0	-46.2	3.5	3.03e+01	0	34	104	269484032	48	15679
2026-01-07 02:00:16.42	156.33	31.25	-35.6	-45.8	3.5	3.03e+01	0	34	104	269484032	46	16824
2026-01-07 02:00:17.43	156.32	31.49	-35.1	-45.3	3.5	3.03e+01	0	34	104	269484032	46	15836
2026-01-07 02:00:18.44	156.32	31.72	-35.2	-45.4	3.5	3.03e+01	0	34	104	269484032	46	16106
2026-01-07 02:00:19.45	156.31	31.96	-36.3	-46.6	3.5	3.03e+01	0	34	104	269484032	48	16351
2026-01-07 02:00:20.46	156.30	32.20	-42.1	-53.0	3.5	3.03e+01	0	34	104	269484032	60	17140
2026-01-07 02:00:21.47	156.30	32.45	-49.3	-67.0	3.5	3.03e+01	0	34	104	269484032	60	86608
2026-01-07 02:00:22.48	156.29	32.69	-41.0	-51.6	3.5	3.03e+01	0	34	104	269484032	60	14578
2026-01-07 02:00:23.49	156.28	32.94	-49.3	-67.0	3.5	3.03e+01	0	34	104	269484032	60	85921
2026-01-07 02:00:24.50	156.28	33.19	-39.5	-50.0	3.5	3.03e+01	0	34	104	269484032	54	17286
2026-01-07 02:00:25.51	156.27	33.44	-40.1	-50.7	3.5	3.03e+01	0	34	104	269484032	54	18547
2026-01-07 02:00:26.52	156.26	33.70	-40.3	-50.8	3.5	3.03e+01	0	34	104	269484032	54	18821
2026-01-07 02:00:27.53	156.25	33.95	-40.7	-51.3	3.5	3.03e+01	0	34	104	269484032	54	19954
2026-01-07 02:00:28.54	156.25	34.21	-46.7	-59.5	3.5	3.03e+01	0	34	104	269484032	60	36293
2026-01-07 02:00:29.55	156.24	34.47	-47.0	-60.1	3.6	3.03e+01	0	34	104	269484032	60	39135
2026-01-07 02:00:30.56	156.23	34.74	-42.6	-53.5	3.5	3.03e+01	0	34	104	269484032	60	18297
2026-01-07 02:00:31.57	156.22	35.00	-38.8	-49.2	3.5	3.03e+01	0	34	104	269484032	56	13919
2026-01-07 02:00:32.58	156.21	35.27	-48.5	-63.5	3.5	3.03e+01	0	34	104	269484032	60	57792
2026-01-07 02:00:33.59	156.21	35.54	-40.8	-51.4	3.5	3.03e+01	0	34	104	269484032	56	18004
2026-01-07 02:00:34.60	156.20	35.82	-39.3	-49.8	3.5	3.03e+01	0	34	104	269484032	54	16730
2026-01-07 02:00:35.61	156.19	36.09	-38.3	-48.7	3.5	3.03e+01	0	34	104	269484032	52	16514
2026-01-07 02:00:36.61	156.18	36.37	-37.3	-47.6	3.5	3.03e+01	0	34	104	269484032	50	16406
2026-01-07 02:00:37.63	156.17	36.65	-38.2	-48.5	3.5	3.03e+01	0	34	104	269484032	50	18176
2026-01-07 02:00:38.64	156.16	36.93	-40.0	-50.5	3.5	3.03e+01	0	34	104	269484032	60	12841
2026-01-07 02:00:39.65	156.15	37.22	-48.4	-63.5	3.5	3.03e+01	0	34	104	269484032	60	57749
2026-01-07 02:00:40.66	156.14	37.51	-38.5	-48.8	3.5	3.03e+01	0	35	104	269484032	54	14981
2026-01-07 02:00:41.66	156.13	37.80	-45.6	-57.5	3.5	3.03e+01	0	34	104	269484032	60	28806
2026-01-07 02:00:42.68	156.12	38.09	-37.9	-48.2	3.6	3.03e+01	0	34	104	269484032	52	15719
2026-01-07 02:00:43.68	156.11	38.39	-37.5	-47.8	3.5	3.03e+01	0	34	104	269484032	50	16708
2026-01-07 02:00:44.69	156.09	38.69	-37.0	-47.2	3.5	3.03e+01	0	34	104	269484032	50	15641
2026-01-07 02:00:45.70	156.08	38.99	-37.1	-47.4	3.5	3.03e+01	0	34	104	269484032	48	18062
2026-01-07 02:00:46.71	156.07	39.29	-37.7	-48.0	3.5	3.03e+01	0	34	104	269484032	52	15389
2026-01-07 02:00:47.72	156.06	39.60	-37.6	-47.9	3.5	3.03e+01	0	34	104	269484032	52	15185
2026-01-07 02:00:48.73	156.05	39.91	-47.9	-62.0	3.5	3.03e+01	0	34	104	269484032	60	48465
2026-01-07 02:00:49.74	156.03	40.23	-40.1	-50.6	3.5	3.03e+01	0	34	104	269484032	56	16376
2026-01-07 02:00:50.75	156.02	40.54	-48.4	-63.5	3.5	3.03e+01	0	34	104	269484032	60	57355
2026-01-07 02:00:51.75	156.01	40.86	-43.6	-54.6	3.5	3.03e+01	0	34	104	269484032	60	20760
2026-01-07 02:00:52.77	155.99	41.19	-42.0	-52.9	3.5	3.03e+01	0	34	104	269484032	60	17010
2026-01-07 02:00:53.78	155.98	41.51	-40.4	-50.9	3.5	3.03e+01	0	34	104	269484032	56	17089
2026-01-07 02:00:54.79	155.96	41.84	-37.8	-48.1	3.5	3.03e+01	0	34	104	269484032	52	15452
2026-01-07 02:00:55.80	155.95	42.17	-39.7	-50.1	3.5	3.03e+01	0	34	104	269484032	50	21785
2026-01-07 02:00:56.81	155.93	42.51	-38.3	-48.6	3.5	3.03e+01	0	34	104	269484032	58	11677
2026-01-07 02:00:57.81	155.92	42.84	-45.1	-56.7	3.5	3.03e+01	0	34	104	269484032	60	26291
2026-01-07 02:00:58.82	155.90	43.18	-38.7	-49.1	3.6	3.03e+01	0	35	104	269484032	60	10980
2026-01-07 02:00:59.83	155.88	43.53	-40.9	-51.5	3.6	3.03e+01	0	34	104	269484032	60	14492
2026-01-07 02:01:00.84	155.87	43.88	-37.7	-48.0	3.5	3.03e+01	0	34	104	269484032	50	17199
2026-01-07 02:01:01.85	155.85	44.23	-36.5	-46.7	3.5	3.03e+01	0	34	104	269484032	48	16693
2026-01-07 02:01:02.86	155.83	44.58	-36.5	-46.7	3.5	3.03e+01	0	34	104	269484032	48	16551
2026-01-07 02:01:03.87	155.81	44.94	-38.8	-49.3	3.5	3.03e+01	0	34	104	269484032	48	22365
2026-01-07 02:01:04.88	155.79	45.30	-41.4	-52.0	3.5	3.03e+01	0	34	104	269484032	56	19344
2026-01-07 02:01:05.89	155.77	45.67	-39.2	-49.5	3.6	3.03e+01	0	34	104	269484032	46	25728
2026-01-07 02:01:06.90	155.75	46.04	-48.8	-64.8	3.5	3.03e+01	0	34	104	269484032	60	66948
2026-01-07 02:01:07.90	155.73	46.40	-35.3	-45.6	3.5	3.03e+01	0	34	104	269484032	46	16336
2026-01-07 02:01:08.92	155.71	46.78	-37.5	-47.8	3.5	3.03e+01	0	34	104	269484032	52	14938
2026-01-07 02:01:09.92	155.69	47.16	-36.7	-47.1	3.5	3.03e+01	0	34	104	269484032	48	17312
2026-01-07 02:01:10.93	155.67	47.54	-36.0	-46.2	3.5	3.03e+01	0	34	104	269484032	48	15702
2026-01-07 02:01:11.94	155.64	47.93	-35.2	-45.4	3.5	3.03e+01	0	34	104	269484032	46	16011
2026-01-07 02:01:12.95	155.62	48.32	-41.1	-51.7	3.5	3.03e+01	0	34	104	269484032	52	23339
2026-01-07 02:01:13.96	155.60	48.71	-35.8	-46.0	3.5	3.03e+01	0	34	104	269484032	44	19301
2026-01-07 02:01:14.97	155.57	49.11	-42.6	-53.6	3.5	3.03e+01	0	34	104	269484032	50	32810
2026-01-07 02:01:15.98	155.54	49.51	-46.4	-59.1	3.5	3.03e+01	0	34	104	269484032	60	34556
2026-01-07 02:01:16.98	155.52	49.91	-44.2	-55.5	3.5	3.03e+01	0	34	104	269484032	54	32503
2026-01-07 02:01:18.00	155.49	50.32	-44.8	-56.4	3.5	3.03e+01	0	34	104	269484032	60	25412
2026-01-07 02:01:19.01	155.46	50.73	-40.8	-51.5	3.5	3.03e+01	0	34	104	269484032	56	18216
2026-01-07 02:01:20.02	155.43	51.15	-40.7	-51.2	3.5	3.03e+01	0	34	104	269484032	56	17657
2026-01-07 02:01:21.03	155.40	51.57	-39.9	-50.5	3.4	3.03e+01	0	34	104	269484032	56	16199
2026-01-07 02:01:22.04	155.37	51.99	-45.7	-57.7	3.5	3.03e+01	0	34	104	269484032	60	29509
2026-01-07 02:01:23.05	155.34	52.42	-49.2	-66.3	3.5	3.03e+01	0	34	104	269484032	60	79903
2026-01-07 02:01:24.06	155.30	52.85	-36.4	-46.7	3.5	3.03e+01	0	34	104	269484032	44	20830
2026-01-07 02:01:25.07	155.27	53.29	-41.2	-51.8	3.5	3.03e+01	0	34	104	269484032	54	21117
2026-01-07 02:01:26.08	155.23	53.73	-43.8	-54.8	3.5	3.03e+01	0	34	104	269484032	54	29981
2026-01-07 02:01:27.08	155.20	54.17	-38.5	-48.8	3.5	3.03e+01	0	34	104	269484032	52	16763
2026-01-07 02:01:28.10	155.16	54.62	-37.4	-47.7	3.5	3.03e+01	0	34	104	269484032	50	16636
2026-01-07 02:01:29.11	155.12	55.07	-36.9	-47.1	3.6	3.03e+01	0	34	104	269484032	48	17372
2026-01-07 02:01:30.12	155.08	55.53	-37.0	-47.2	3.5	3.03e+01	0	34	104	269484032	48	17549
2026-01-07 02:01:31.13	155.03	55.98	-36.5	-46.8	3.5	3.03e+01	0	34	104	269484032	46	18927
2026-01-07 02:01:32.14	154.99	56.45	-38.7	-49.0	3.5	3.03e+01	0	34	104	269484032	48	21551
2026-01-07 02:01:33.15	154.94	56.92	-49.2	-66.7	3.5	3.03e+01	0	34	104	269484032	60	83300
2026-01-07 02:01:34.16	154.90	57.39	-44.0	-55.1	3.5	3.03e+01	0	34	104	269484032	60	21801
2026-01-07 02:01:35.17	154.85	57.86	-48.4	-63.2	3.5	3.03e+01	0	34	104	269484032	60	55685
2026-01-07 02:01:36.17	154.79	58.34	-38.9	-49.3	3.4	3.03e+01	0	34	104	269484032	54	15844
2026-01-07 02:01:37.18	154.74	58.82	-38.2	-48.6	3.5	3.03e+01	0	34	104	269484032	50	18321
2026-01-07 02:01:38.19	154.69	59.31	-37.2	-47.4	3.5	3.03e+01	0	34	104	269484032	50	15953
2026-01-07 02:01:39.20	154.63	59.80	-38.1	-48.6	3.5	3.03e+01	0	34	104	269484032	50	18319
2026-01-07 02:01:40.21	154.57	60.29	-43.2	-54.3	3.5	3.03e+01	0	34	104	269484032	58	22282
2026-01-07 02:01:41.22	154.50	60.79	-48.8	-65.1	3.5	3.03e+01	0	34	104	269484032	60	69278
2026-01-07 02:01:42.23	154.44	61.30	-45.6	-57.5	3.5	3.03e+01	0	34	104	269484032	60	28947
2026-01-07 02:01:43.24	154.37	61.81	-49.1	-66.4	3.5	3.03e+01	0	34	104	269484032	60	80145
2026-01-07 02:01:44.25	154.30	62.32	-44.8	-56.5	3.6	3.03e+01	0	34	104	269484032	60	25607
2026-01-07 02:01:45.26	154.22	62.83	-42.7	-53.6	3.5	3.03e+01	0	34	104	269484032	60	18467
2026-01-07 02:01:46.26	154.15	63.35	-43.1	-54.2	3.5	3.03e+01	0	34	104	269484032	60	19735
2026-01-07 02:01:47.27	154.06	63.87	-42.7	-53.5	3.5	3.03e+01	0	34	104	269484032	60	18186
2026-01-07 02:01:48.28	153.98	64.40	-43.6	-54.8	3.5	3.03e+01	0	34	104	269484032	60	21047
2026-01-07 02:01:49.29	153.89	64.93	-43.5	-54.7	3.5	3.03e+01	0	34	104	269484032	60	20850
2026-01-07 02:01:50.30	153.79	65.46	-44.4	-55.9	3.5	3.03e+01	0	34	104	269484032	60	24134
2026-01-07 02:01:51.31	153.69	66.00	-49.3	-67.1	3.5	3.03e+01	0	35	104	269484032	60	86759
2026-01-07 02:01:52.32	153.59	66.54	-48.5	-63.8	3.5	3.03e+01	0	34	104	269484032	60	59642
2026-01-07 02:01:53.33	153.48	67.09	-49.3	-67.1	3.5	3.03e+01	0	34	104	269484032	60	87419
2026-01-07 02:01:54.34	153.36	67.64	-44.8	-56.2	3.6	3.03e+01	0	34	104	269484032	60	24877
2026-01-07 02:01:55.35	153.24	68.19	-44.5	-55.9	3.5	3.03e+01	0	34	104	269484032	60	23985
2026-01-07 02:01:56.36	153.11	68.75	-44.4	-55.8	3.5	3.03e+01	0	34	104	269484032	60	23605
2026-01-07 02:01:57.37	152.97	69.30	-43.7	-55.0	3.5	3.03e+01	0	34	104	269484032	60	21671
2026-01-07 02:01:58.37	152.83	69.86	-48.9	-65.2	3.5	3.03e+01	0	34	104	269484032	60	70240
2026-01-07 02:01:59.38	152.67	70.43	-48.9	-65.4	3.5	3.03e+01	0	34	104	269484032	60	71839
2026-01-07 02:02:00.39	152.50	71.00	-48.1	-62.7	3.5	3.03e+01	0	35	104	269484032	60	52444
2026-01-07 02:02:01.40	152.32	71.57	-49.3	-67.1	3.5	3.03e+01	0	35	104	269484032	60	87552
2026-01-07 02:02:02.41	152.13	72.15	-46.6	-59.2	3.5	3.03e+01	0	35	104	269484032	60	35142
2026-01-07 02:02:03.42	151.93	72.72	-40.8	-51.3	3.5	3.03e+01	0	34	104	269484032	56	17747
2026-01-07 02:02:04.43	151.71	73.31	-41.0	-51.7	3.5	3.03e+01	0	34	104	269484032	56	18648
2026-01-07 02:02:05.44	151.48	73.89	-39.7	-50.1	3.5	3.03e+01	0	34	104	269484032	54	17453
2026-01-07 02:02:06.45	151.22	74.48	-40.1	-50.4	3.5	3.03e+01	0	35	104	269484032	54	18091
2026-01-07 02:02:07.46	150.95	75.07	-46.5	-59.0	3.5	3.03e+01	0	35	104	269484032	60	34175
2026-01-07 02:02:08.47	150.65	75.66	-44.7	-56.3	3.6	3.03e+01	0	34	104	269484032	60	25089
2026-01-07 02:02:09.48	150.32	76.25	-49.2	-67.1	3.5	3.03e+01	0	34	104	269484032	60	87200
2026-01-07 02:02:10.49	149.96	76.85	-48.0	-62.5	3.5	3.03e+01	0	34	104	269484032	60	51201
2026-01-07 02:02:11.50	149.57	77.44	-49.1	-66.5	3.5	3.03e+01	0	35	104	269484032	60	81100
2026-01-07 02:02:12.51	149.13	78.04	-43.1	-54.2	3.5	3.03e+01	0	35	104	269484032	60	19710
2026-01-07 02:02:13.52	148.65	78.65	-42.6	-53.3	3.5	3.03e+01	0	35	104	269484032	60	17858
2026-01-07 02:02:14.53	148.11	79.25	-42.7	-53.8	3.5	3.03e+01	0	34	104	269484032	60	18839
2026-01-07 02:02:15.54	147.51	79.85	-42.6	-53.5	3.5	3.03e+01	0	34	104	269484032	58	20355
2026-01-07 02:02:16.55	146.83	80.45	-48.6	-64.2	3.6	3.03e+01	0	34	104	269484032	60	62277
2026-01-07 02:02:17.56	146.05	81.06	-43.8	-55.2	3.6	3.03e+01	0	35	104	269484032	60	22022
2026-01-07 02:02:18.57	145.16	81.66	-46.4	-58.8	3.5	3.03e+01	0	34	104	269484032	60	33330
2026-01-07 02:02:19.58	144.13	82.27	-46.4	-59.0	3.6	3.03e+01	0	35	104	269484032	60	34154
2026-01-07 02:02:20.59	142.92	82.87	-44.8	-56.5	3.5	3.03e+01	0	34	104	269484032	60	25803
2026-01-07 02:02:21.60	141.49	83.47	-39.8	-50.1	3.6	3.03e+01	0	34	104	269484032	54	17466
2026-01-07 02:02:22.61	139.76	84.06	-40.0	-50.6	3.5	3.03e+01	0	34	104	269484032	54	18316
2026-01-07 02:02:23.61	137.67	84.65	-39.3	-49.6	3.5	3.03e+01	0	34	104	269484032	54	16434
2026-01-07 02:02:24.62	135.04	85.23	-38.1	-48.5	3.5	3.03e+01	0	35	104	269484032	52	16150
2026-01-07 02:02:25.63	131.69	85.80	-43.9	-55.1	3.5	3.03e+01	0	35	104	269484032	60	21971
2026-01-07 02:02:26.64	127.30	86.35	-38.3	-48.5	3.6	3.03e+01	0	34	104	269484032	56	12901
2026-01-07 02:02:27.65	121.38	86.87	-48.1	-62.8	3.5	3.03e+01	0	34	104	269484032	60	52848
2026-01-07 02:02:28.66	113.22	87.35	-37.3	-47.3	3.5	3.03e+01	0	34	104	269484032	56	11185
2026-01-07 02:02:29.67	101.81	87.75	-43.2	-54.1	3.5	3.03e+01	0	34	104	269484032	60	19509
2026-01-07 02:02:30.68	86.38	88.03	-36.5	-46.8	3.5	3.03e+01	0	34	104	269484032	48	16764
2026-01-07 02:02:31.69	67.71	88.13	-35.6	-45.7	3.5	3.03e+01	0	34	104	269484032	46	16680
2026-01-07 02:02:32.70	49.12	88.02	-35.1	-45.2	3.5	3.03e+01	0	34	104	269484032	46	15751
2026-01-07 02:02:33.71	33.84	87.74	-35.3	-45.5	3.5	3.03e+01	0	34	104	269484032	44	18199
2026-01-07 02:02:34.72	22.58	87.33	-38.7	-48.8	3.5	3.03e+01	0	34	104	269484032	56	13369
2026-01-07 02:02:35.73	14.52	86.85	-35.4	-45.6	3.5	3.03e+01	0	35	104	269484032	48	14653
2026-01-07 02:02:36.74	8.68	86.33	-48.2	-63.1	3.5	3.03e+01	0	35	104	269484032	60	55114
2026-01-07 02:02:37.75	4.34	85.78	-40.5	-50.9	3.5	3.03e+01	0	34	104	269484032	60	13474
2026-01-07 02:02:38.76	1.02	85.21	-46.4	-59.0	3.5	3.03e+01	0	35	104	269484032	60	34152
2026-01-07 02:02:39.77	358.41	84.62	-41.6	-52.2	3.5	3.03e+01	0	34	104	269484032	58	17647
2026-01-07 02:02:40.77	356.34	84.04	-40.4	-50.8	3.5	3.03e+01	0	34	104	269484032	56	16767
2026-01-07 02:02:41.78	354.63	83.44	-38.5	-49.0	3.5	3.03e+01	0	34	104	269484032	52	17239
2026-01-07 02:02:42.79	353.21	82.85	-39.1	-49.5	3.5	3.03e+01	0	34	104	269484032	50	20410
2026-01-07 02:02:43.80	352.00	82.24	-40.2	-50.5	3.5	3.03e+01	0	34	104	269484032	54	18171
2026-01-07 02:02:44.81	350.98	81.64	-37.9	-48.5	3.5	3.03e+01	0	34	104	269484032	48	20538
2026-01-07 02:02:45.82	350.09	81.04	-48.7	-64.8	3.5	3.03e+01	0	34	104	269484032	60	66871
2026-01-07 02:02:46.83	349.32	80.43	-37.5	-47.4	3.4	3.03e+01	0	34	104	269484032	54	12674
2026-01-07 02:02:47.84	348.64	79.83	-42.5	-53.4	3.7	3.03e+01	0	34	104	269484032	60	18081
2026-01-07 02:02:48.85	348.04	79.23	-40.3	-51.2	3.6	3.03e+01	0	34	104	269484032	54	19803
2026-01-07 02:02:49.86	347.51	78.63	-40.0	-50.0	3.5	3.03e+01	0	34	104	269484032	54	17216
2026-01-07 02:02:50.87	347.03	78.03	-40.1	-50.8	3.5	3.03e+01	0	34	104	269484032	54	18874
2026-01-07 02:02:51.88	346.59	77.43	-41.0	-51.6	3.5	3.03e+01	0	34	104	269484032	54	20770
2026-01-07 02:02:52.89	346.20	76.83	-38.7	-48.8	3.5	3.03e+01	0	34	104	269484032	52	16760
2026-01-07 02:02:53.90	345.84	76.24	-43.8	-55.1	3.5	3.03e+01	0	35	104	269484032	52	34841
2026-01-07 02:02:54.91	345.52	75.64	-48.2	-63.2	3.5	3.03e+01	0	35	104	269484032	60	55609
2026-01-07 02:02:55.92	345.22	75.05	-40.9	-51.2	3.5	3.03e+01	0	34	104	269484032	54	19742
2026-01-07 02:02:56.92	344.95	74.47	-43.0	-53.8	3.5	3.03e+01	0	34	104	269484032	60	18917
2026-01-07 02:02:57.93	344.69	73.88	-40.4	-51.2	3.5	3.03e+01	0	35	104	269484032	56	17622
2026-01-07 02:02:58.94	344.46	73.30	-39.9	-50.4	3.5	3.03e+01	0	34	104	269484032	56	16128
2026-01-07 02:02:59.95	344.24	72.72	-39.1	-49.3	3.5	3.03e+01	0	34	104	269484032	54	15936
2026-01-07 02:03:00.96	344.04	72.14	-44.2	-55.5	3.5	3.03e+01	0	35	104	269484032	60	22882
2026-01-07 02:03:01.97	343.85	71.57	-39.7	-50.0	3.5	3.03e+01	0	34	104	269484032	54	17183
2026-01-07 02:03:02.98	343.67	71.00	-46.3	-58.8	3.5	3.03e+01	0	34	104	269484032	56	42231
2026-01-07 02:03:03.99	343.50	70.43	-49.0	-66.2	3.5	3.03e+01	0	35	104	269484032	60	78393
2026-01-07 02:03:05.00	343.35	69.86	-46.5	-58.9	3.5	3.03e+01	0	34	104	269484032	60	34071
2026-01-07 02:03:06.01	343.20	69.30	-48.3	-63.5	3.5	3.03e+01	0	34	104	269484032	60	57420
2026-01-07 02:03:07.02	343.06	68.74	-47.6	-61.4	3.5	3.03e+01	0	35	104	269484032	60	44998
2026-01-07 02:03:08.03	342.93	68.19	-47.0	-59.9	3.5	3.03e+01	0	34	104	269484032	60	38158
2026-01-07 02:03:09.04	342.81	67.64	-46.6	-59.2	3.5	3.03e+01	0	34	104	269484032	60	35061
2026-01-07 02:03:10.05	342.69	67.09	-49.2	-67.1	3.5	3.03e+01	0	35	104	269484032	60	87546
2026-01-07 02:03:11.06	342.58	66.55	-48.6	-64.2	3.5	3.03e+01	0	34	104	269484032	60	62458
2026-01-07 02:03:12.07	342.48	66.00	-46.8	-59.6	3.5	3.03e+01	0	34	104	269484032	60	36741
2026-01-07 02:03:13.08	342.38	65.47	-49.1	-66.6	3.5	3.03e+01	0	35	104	269484032	60	82015
2026-01-07 02:03:14.09	342.29	64.93	-40.1	-50.6	3.5	3.03e+01	0	35	104	269484032	54	18368
2026-01-07 02:03:15.10	342.20	64.41	-40.6	-51.4	3.5	3.03e+01	0	34	104	269484032	56	18071
2026-01-07 02:03:16.11	342.11	63.88	-40.8	-51.5	3.5	3.03e+01	0	34	104	269484032	56	18169
2026-01-07 02:03:17.12	342.03	63.36	-39.2	-49.4	3.5	3.03e+01	0	35	104	269484032	54	16018
2026-01-07 02:03:18.13	341.95	62.84	-38.1	-48.4	3.5	3.03e+01	0	35	104	269484032	52	16030
2026-01-07 02:03:19.14	341.88	62.33	-40.7	-51.1	3.5	3.03e+01	0	34	104	269484032	54	19402
2026-01-07 02:03:20.15	341.80	61.82	-38.4	-49.1	3.5	3.03e+01	0	34	104	269484032	48	21789
2026-01-07 02:03:21.16	341.74	61.31	-49.1	-66.6	3.5	3.03e+01	0	35	104	269484032	60	82443
2026-01-07 02:03:22.17	341.67	60.81	-48.1	-62.3	3.5	3.03e+01	0	35	104	269484032	60	50077
2026-01-07 02:03:23.18	341.61	60.31	-46.9	-59.8	3.5	3.03e+01	0	35	104	269484032	60	37686
2026-01-07 02:03:24.19	341.55	59.82	-39.2	-49.8	3.5	3.03e+01	0	34	104	269484032	56	15030
2026-01-07 02:03:25.20	341.49	59.33	-38.0	-48.5	3.5	3.03e+01	0	34	104	269484032	52	16145
2026-01-07 02:03:26.21	341.44	58.84	-37.6	-47.7	3.5	3.03e+01	0	34	104	269484032	50	16576
2026-01-07 02:03:27.22	341.38	58.36	-37.4	-47.4	3.5	3.03e+01	0	34	104	269484032	50	16081
2026-01-07 02:03:28.22	341.33	57.88	-47.1	-60.3	3.5	3.03e+01	0	34	104	269484032	60	40061
2026-01-07 02:03:29.24	341.28	57.41	-38.8	-49.6	3.5	3.03e+01	0	35	104	269484032	48	23084
2026-01-07 02:03:30.25	341.23	56.94	-49.1	-66.3	3.5	3.03e+01	0	35	104	269484032	60	79482
2026-01-07 02:03:31.25	341.19	56.47	-48.5	-63.6	3.5	3.03e+01	0	35	104	269484032	60	58094
2026-01-07 02:03:32.26	341.14	56.01	-49.1	-66.0	3.5	3.03e+01	0	34	104	269484032	60	76918
2026-01-07 02:03:33.27	341.10	55.55	-45.5	-57.7	3.5	3.03e+01	0	35	104	269484032	60	29388
2026-01-07 02:03:34.28	341.06	55.10	-45.1	-56.8	3.5	3.03e+01	0	34	104	269484032	60	26515
2026-01-07 02:03:35.29	341.02	54.65	-44.3	-55.5	3.5	3.03e+01	0	34	104	269484032	60	23040
2026-01-07 02:03:36.30	340.98	54.20	-43.2	-54.4	3.5	3.03e+01	0	34	104	269484032	60	20120
2026-01-07 02:03:37.31	340.95	53.76	-47.4	-61.2	3.5	3.03e+01	0	35	104	269484032	60	44085
2026-01-07 02:03:38.32	340.91	53.32	-47.2	-60.4	3.5	3.03e+01	0	34	104	269484032	60	40455
2026-01-07 02:03:39.33	340.88	52.89	-47.7	-61.3	3.5	3.03e+01	0	34	104	269484032	60	44650
2026-01-07 02:03:40.34	340.84	52.46	-49.1	-66.0	3.5	3.03e+01	0	34	104	269484032	60	76476
2026-01-07 02:03:41.35	340.81	52.03	-40.7	-51.3	3.4	3.03e+01	0	35	104	269484032	52	22412
2026-01-07 02:03:42.36	340.78	51.61	-37.6	-48.1	3.5	3.03e+01	0	34	104	269484032	50	17481
2026-01-07 02:03:43.37	340.75	51.19	-36.7	-46.9	3.5	3.03e+01	0	34	104	269484032	48	16942
2026-01-07 02:03:44.38	340.72	50.78	-36.1	-46.1	3.5	3.03e+01	0	34	104	269484032	48	15495
2026-01-07 02:03:45.39	340.69	50.37	-36.3	-46.8	3.5	3.03e+01	0	34	104	269484032	48	16743
2026-01-07 02:03:46.39	340.66	49.96	-42.8	-54.2	3.5	3.03e+01	0	34	104	269484032	60	19827
2026-01-07 02:03:47.40	340.64	49.56	-39.3	-50.0	3.5	3.03e+01	0	34	104	269484032	52	19258
2026-01-07 02:03:48.41	340.61	49.16	-49.1	-66.4	3.5	3.03e+01	0	35	104	269484032	60	80083
2026-01-07 02:03:49.42	340.59	48.76	-47.1	-60.2	3.6	3.03e+01	0	35	104	269484032	60	39524
2026-01-07 02:03:50.43	340.56	48.37	-47.0	-60.0	3.5	3.03e+01	0	34	104	269484032	60	38532
2026-01-07 02:03:51.44	340.54	47.98	-38.2	-48.5	3.5	3.03e+01	0	35	104	269484032	52	16208
2026-01-07 02:03:52.45	340.51	47.60	-37.9	-48.2	3.5	3.03e+01	0	34	104	269484032	50	17658
2026-01-07 02:03:53.46	340.49	47.22	-36.5	-46.8	3.5	3.03e+01	0	35	104	269484032	48	16812
2026-01-07 02:03:54.47	340.47	46.84	-35.7	-46.0	3.5	3.03e+01	0	34	104	269484032	46	17166
2026-01-07 02:03:55.48	340.45	46.47	-37.4	-47.5	3.5	3.03e+01	0	34	104	269484032	52	14444
2026-01-07 02:03:56.49	340.43	46.09	-38.6	-48.7	3.7	3.03e+01	0	35	104	269484032	52	16608
2026-01-07 02:03:57.50	340.41	45.73	-49.2	-66.3	3.5	3.03e+01	0	34	104	269484032	60	79845
2026-01-07 02:03:58.51	340.39	45.36	-48.1	-62.7	3.6	3.03e+01	0	35	104	269484032	60	52371
2026-01-07 02:03:59.51	340.37	45.01	-48.7	-64.7	3.5	3.03e+01	0	35	104	269484032	60	65907
2026-01-07 02:04:00.52	340.35	44.65	-45.3	-57.3	3.5	3.03e+01	0	35	104	269484032	60	28263
2026-01-07 02:04:01.53	340.33	44.30	-42.9	-53.8	3.5	3.03e+01	0	35	104	269484032	60	18798
2026-01-07 02:04:02.54	340.32	43.95	-40.6	-50.9	3.5	3.03e+01	0	34	104	269484032	56	17011
2026-01-07 02:04:03.55	340.30	43.60	-39.0	-49.2	3.6	3.03e+01	0	34	104	269484032	54	15764
2026-01-07 02:04:04.56	340.28	43.26	-39.3	-49.7	3.5	3.03e+01	0	35	104	269484032	52	18535
2026-01-07 02:04:05.57	340.27	42.92	-43.1	-53.9	3.6	3.03e+01	0	34	104	269484032	60	19098
2026-01-07 02:04:06.58	340.25	42.58	-47.2	-60.4	3.5	3.03e+01	0	35	104	269484032	60	40156
2026-01-07 02:04:07.59	340.24	42.24	-49.0	-66.0	3.6	3.03e+01	0	35	104	269484032	60	76832
2026-01-07 02:04:08.60	340.22	41.91	-41.2	-52.1	3.5	3.03e+01	0	34	104	269484032	56	19565
2026-01-07 02:04:09.61	340.21	41.59	-38.5	-49.0	3.5	3.03e+01	0	35	104	269484032	52	17201
2026-01-07 02:04:10.61	340.19	41.26	-37.6	-48.1	3.5	3.03e+01	0	35	104	269484032	50	17475
2026-01-07 02:04:11.63	340.18	40.94	-37.5	-48.0	3.5	3.03e+01	0	35	104	269484032	50	17092
2026-01-07 02:04:12.63	340.17	40.62	-37.5	-48.0	3.5	3.03e+01	0	35	104	269484032	50	17100
2026-01-07 02:04:13.64	340.15	40.31	-38.9	-49.4	3.5	3.03e+01	0	35	104	269484032	54	16112
2026-01-07 02:04:14.65	340.14	40.00	-37.3	-47.6	3.5	3.03e+01	0	34	104	269484032	52	14672
2026-01-07 02:04:15.66	340.13	39.69	-49.0	-65.9	3.6	3.03e+01	0	35	104	269484032	60	75494
2026-01-07 02:04:16.67	340.12	39.38	-40.0	-50.3	3.5	3.03e+01	0	35	104	269484032	60	12605
2026-01-07 02:04:17.68	340.11	39.07	-44.2	-55.2	3.5	3.03e+01	0	35	104	269484032	60	22167
2026-01-07 02:04:18.69	340.09	38.77	-39.9	-50.1	3.5	3.03e+01	0	34	104	269484032	54	17441
2026-01-07 02:04:19.70	340.08	38.47	-39.0	-49.4	3.5	3.03e+01	0	34	104	269484032	54	16019
2026-01-07 02:04:20.71	340.07	38.18	-37.5	-47.9	3.5	3.03e+01	0	35	104	269484032	50	16917
2026-01-07 02:04:21.72	340.06	37.89	-36.9	-47.4	3.5	3.03e+01	0	35	104	269484032	48	17982
2026-01-07 02:04:22.73	340.05	37.59	-37.0	-47.5	3.5	3.03e+01	0	34	104	269484032	50	16313
2026-01-07 02:04:23.74	340.04	37.31	-36.7	-47.2	3.5	3.03e+01	0	34	104	269484032	48	17496
2026-01-07 02:04:24.75	340.03	37.02	-48.8	-65.2	3.5	3.03e+01	0	34	104	269484032	60	69931
2026-01-07 02:04:25.76	340.02	36.74	-39.0	-49.4	3.5	3.03e+01	0	35	104	269484032	56	14264
2026-01-07 02:04:26.76	340.01	36.46	-44.9	-56.4	3.5	3.03e+01	0	35	104	269484032	60	25321
2026-01-07 02:04:27.77	340.00	36.19	-41.2	-51.8	3.5	3.03e+01	0	35	104	269484032	58	16705
2026-01-07 02:04:28.79	340.00	35.91	-41.1	-51.5	3.5	3.03e+01	0	35	104	269484032	58	16270
2026-01-07 02:04:29.79	339.99	35.64	-39.5	-49.9	3.5	3.03e+01	0	35	104	269484032	54	16988
2026-01-07 02:04:30.80	339.98	35.37	-39.9	-50.3	3.5	3.03e+01	0	35	104	269484032	52	20039
2026-01-07 02:04:31.81	339.97	35.10	-42.8	-54.0	3.5	3.03e+01	0	34	104	269484032	58	21634
2026-01-07 02:04:32.82	339.96	34.84	-38.7	-49.4	3.5	3.03e+01	0	35	104	269484032	52	17975
2026-01-07 02:04:33.83	339.95	34.57	-48.7	-64.8	3.5	3.03e+01	0	35	104	269484032	60	66524
2026-01-07 02:04:34.84	339.95	34.31	-37.3	-47.7	3.1	3.03e+01	0	35	104	269484032	56	11795
2026-01-07 02:04:35.85	339.94	34.05	-37.3	-47.7	3.5	3.03e+01	0	35	104	269484032	52	14736
2026-01-07 02:04:36.86	339.93	33.80	-36.9	-47.0	3.5	3.03e+01	0	34	104	269484032	48	17155
2026-01-07 02:04:37.87	339.92	33.54	-36.0	-46.0	3.5	3.03e+01	0	35	104	269484032	48	15338
2026-01-07 02:04:38.88	339.92	33.29	-35.2	-45.1	3.5	3.03e+01	0	35	104	269484032	46	15414
2026-01-07 02:04:39.89	339.91	33.04	-35.2	-45.1	3.5	3.03e+01	0	35	104	269484032	44	17354
2026-01-07 02:04:40.90	339.90	32.80	-34.5	-44.4	3.5	3.03e+01	0	35	104	269484032	44	16078
2026-01-07 02:04:41.90	339.90	32.55	-42.2	-52.7	3.5	3.03e+01	0	35	104	269484032	46	37388
2026-01-07 02:04:42.92	339.89	32.31	-46.3	-58.6	3.5	3.03e+01	0	35	104	269484032	60	32865
2026-01-07 02:04:43.92	339.89	32.07	-37.9	-48.2	3.5	3.03e+01	0	35	104	269484032	48	19802
2026-01-07 02:04:44.94	339.88	31.83	-40.0	-50.6	3.5	3.03e+01	0	35	104	269484032	58	14571
2026-01-07 02:04:45.94	339.87	31.60	-37.7	-48.2	3.5	3.03e+01	0	35	104	269484032	50	17663
2026-01-07 02:04:46.95	339.87	31.36	-36.0	-46.5	3.5	3.03e+01	0	35	104	269484032	48	16146
2026-01-07 02:04:47.96	339.86	31.13	-35.1	-45.5	3.5	3.03e+01	0	35	104	269484032	46	16318
2026-01-07 02:04:48.97	339.86	30.90	-34.6	-45.0	3.5	3.03e+01	0	35	104	269484032	44	17268
2026-01-07 02:04:49.98	339.85	30.67	-35.8	-46.1	3.5	3.03e+01	0	35	104	269484032	44	19491
2026-01-07 02:04:50.99	339.85	30.44	-48.8	-65.4	3.4	3.03e+01	0	35	104	269484032	60	71269
2026-01-07 02:04:52.00	339.84	30.22	-45.8	-58.0	3.5	3.03e+01	0	35	104	269484032	60	30620
2026-01-07 02:04:53.01	339.84	30.00	-41.7	-52.3	3.5	3.03e+01	0	35	104	269484032	52	25164
2026-01-07 02:04:54.02	339.83	29.77	-41.9	-52.6	3.5	3.03e+01	0	34	104	269484032	60	16511
2026-01-07 02:04:55.03	339.83	29.55	-39.2	-49.6	3.5	3.03e+01	0	35	104	269484032	54	16472
2026-01-07 02:04:56.04	339.82	29.34	-37.9	-48.1	3.5	3.03e+01	0	34	104	269484032	52	15582
2026-01-07 02:04:57.05	339.82	29.12	-37.3	-47.5	3.5	3.03e+01	0	35	104	269484032	50	16265
2026-01-07 02:04:58.05	339.82	28.91	-35.4	-45.4	3.5	3.03e+01	0	35	104	269484032	46	16101
2026-01-07 02:04:59.06	339.81	28.70	-45.5	-57.2	3.5	3.03e+01	0	35	104	269484032	60	27741
2026-01-07 02:05:00.07	339.81	28.49	-41.7	-52.1	3.5	3.03e+01	0	35	104	269484032	54	21952
2026-01-07 02:05:01.08	339.80	28.28	-48.8	-64.7	3.5	3.03e+01	0	35	104	269484032	60	65780
2026-01-07 02:05:02.09	339.80	28.07	-37.4	-47.4	3.6	3.03e+01	0	35	104	269484032	48	18042
2026-01-07 02:05:03.10	339.80	27.87	-38.0	-48.2	3.5	3.03e+01	0	35	104	269484032	52	15675
2026-01-07 02:05:04.11	339.79	27.66	-37.5	-47.7	3.5	3.03e+01	0	35	104	269484032	50	16576
2026-01-07 02:05:05.12	339.79	27.46	-37.5	-47.7	3.6	3.03e+01	0	35	104	269484032	50	16523
2026-01-07 02:05:06.13	339.79	27.26	-36.2	-46.5	3.5	3.03e+01	0	35	104	269484032	48	16145
2026-01-07 02:05:07.14	339.78	27.06	-35.3	-45.5	3.5	3.03e+01	0	35	104	269484032	46	16297
2026-01-07 02:05:08.15	339.78	26.86	-36.7	-47.0	3.5	3.03e+01	0	35	104	269484032	46	19312
2026-01-07 02:05:09.16	339.78	26.67	-49.0	-65.9	3.5	3.03e+01	0	35	104	269484032	60	75690
2026-01-07 02:05:10.17	339.77	26.47	-44.8	-56.3	3.5	3.03e+01	0	35	104	269484032	60	25124
2026-01-07 02:05:11.18	339.77	26.28	-46.2	-58.6	3.5	3.03e+01	0	35	104	269484032	60	32602
2026-01-07 02:05:12.18	339.77	26.09	-39.1	-49.5	3.5	3.03e+01	0	35	104	269484032	54	16313
2026-01-07 02:05:13.19	339.76	25.90	-38.5	-49.0	3.5	3.03e+01	0	35	104	269484032	52	17108
2026-01-07 02:05:14.20	339.76	25.71	-38.0	-48.4	3.5	3.03e+01	0	35	104	269484032	50	18023
2026-01-07 02:05:15.22	339.76	25.52	-36.9	-47.3	3.5	3.03e+01	0	35	104	269484032	50	15911
2026-01-07 02:05:16.22	339.76	25.34	-37.7	-48.1	3.5	3.03e+01	0	35	104	269484032	48	19521
2026-01-07 02:05:17.23	339.75	25.16	-37.9	-48.4	3.5	3.03e+01	0	35	104	269484032	48	20120
2026-01-07 02:05:18.24	339.75	24.97	-48.9	-65.9	3.5	3.03e+01	0	35	104	269484032	60	75782
2026-01-07 02:05:19.25	339.75	24.79	-42.6	-53.6	3.5	3.03e+01	0	35	104	269484032	60	18336
2026-01-07 02:05:20.26	339.75	24.61	-44.5	-56.0	3.5	3.03e+01	0	35	104	269484032	60	24267
2026-01-07 02:05:21.27	339.75	24.43	-39.2	-49.6	3.5	3.03e+01	0	35	104	269484032	52	18398
2026-01-07 02:05:22.28	339.74	24.26	-39.4	-49.8	3.5	3.03e+01	0	35	104	269484032	52	18927
2026-01-07 02:05:23.29	339.74	24.08	-39.5	-49.9	3.5	3.03e+01	0	35	104	269484032	52	18981
2026-01-07 02:05:24.30	339.74	23.90	-38.0	-48.3	3.5	3.03e+01	0	35	104	269484032	52	15773
2026-01-07 02:05:25.31	339.74	23.73	-37.2	-47.4	3.5	3.03e+01	0	35	104	269484032	48	18098
2026-01-07 02:05:26.32	339.74	23.56	-47.8	-61.7	3.5	3.03e+01	0	35	104	269484032	60	46883
2026-01-07 02:05:27.33	339.73	23.39	-45.1	-56.9	3.5	3.03e+01	0	35	104	269484032	60	26794
2026-01-07 02:05:28.34	339.73	23.22	-48.8	-65.0	3.5	3.03e+01	0	35	104	269484032	60	68787
2026-01-07 02:05:29.35	339.73	23.05	-40.8	-51.4	3.5	3.03e+01	0	35	104	269484032	54	20089
2026-01-07 02:05:30.36	339.73	22.88	-38.3	-48.6	3.5	3.03e+01	0	34	104	269484032	52	16387
2026-01-07 02:05:31.37	339.73	22.71	-38.4	-48.6	3.4	3.03e+01	0	35	104	269484032	52	16491
2026-01-07 02:05:32.38	339.73	22.55	-38.2	-48.3	3.6	3.03e+01	0	34	104	269484032	52	15904
2026-01-07 02:05:33.39	339.73	22.39	-37.9	-48.0	3.6	3.03e+01	0	35	104	269484032	52	15296
2026-01-07 02:05:34.40	339.72	22.22	-37.7	-39.3	5.2	3.03e+01	0	35	104	269484032	50	6345
2026-01-07 02:05:35.41	339.72	22.06	-38.1	-39.5	28.0	3.03e+01	59	35	0	270008320	50	6445
2026-01-07 02:05:36.41	339.72	21.90	-48.7	-61.3	5.0	3.03e+01	0	35	104	271056896	60	44835
2026-01-07 02:05:37.42	339.72	21.74	-43.2	-45.4	23.0	3.03e+01	53	35	0	271581184	60	7183
2026-01-07 02:05:38.43	339.72	21.58	-46.8	-51.7	16.4	3.03e+01	57	35	0	273154048	60	14725
2026-01-07 02:05:39.44	339.72	21.43	-38.4	-39.8	26.4	3.03e+01	60	35	0	275251200	52	5964
2026-01-07 02:05:40.45	339.72	21.27	-37.6	-38.9	27.4	3.03e+01	55	34	0	276824064	50	6055
2026-01-07 02:05:41.46	339.72	21.12	-37.1	-38.4	27.7	3.03e+01	60	35	0	278921216	50	5725
2026-01-07 02:05:42.47	339.72	20.96	-36.6	-37.9	28.2	3.03e+01	37	34	0	281018368	48	6004
2026-01-07 02:05:43.48	339.72	20.81	-35.3	-36.5	29.3	3.03e+01	59	34	0	282591232	46	5784
2026-01-07 02:05:44.49	339.71	20.66	-34.8	-36.0	29.7	3.03e+01	59	34	0	284688384	44	6071
2026-01-07 02:05:45.50	339.71	20.50	-34.9	-36.1	29.7	3.03e+01	47	35	0	286261248	44	6156
2026-01-07 02:05:46.51	339.71	20.35	-35.0	-36.1	29.6	3.03e+01	59	35	0	288358400	44	6205
2026-01-07 02:05:47.52	339.71	20.21	-35.0	-36.2	29.4	3.03e+01	59	35	0	290455552	44	6254
2026-01-07 02:05:48.53	339.71	20.06	-34.9	-36.1	29.6	3.03e+01	60	35	0	292028416	44	6153
2026-01-07 02:05:49.54	339.71	19.91	-35.0	-36.2	29.5	3.03e+01	59	34	0	294125568	44	6267
2026-01-07 02:05:50.55	339.71	19.76	-34.7	-35.9	29.7	3.03e+01	60	35	0	296222720	44	6043
2026-01-07 02:05:51.56	339.71	19.62	-34.8	-36.0	29.7	3.03e+01	58	34	0	297795584	44	6097
2026-01-07 02:05:52.57	339.71	19.47	-34.8	-36.0	29.7	3.03e+01	61	35	0	299892736	44	6100
2026-01-07 02:05:53.58	339.71	19.33	-34.9	-36.1	29.6	3.03e+01	52	34	0	301465600	44	6163
2026-01-07 02:05:54.59	339.71	19.19	-34.9	-36.1	29.7	3.03e+01	60	35	0	303562752	44	6192
2026-01-07 02:05:55.60	339.71	19.05	-34.9	-36.1	29.7	3.03e+01	60	35	0	305659904	44	6138
2026-01-07 02:05:56.61	339.71	18.91	-34.9	-36.1	29.6	3.03e+01	60	35	0	307232768	44	6166
2026-01-07 02:05:57.61	339.71	18.77	-34.8	-36.0	29.8	3.03e+01	62	35	0	309329920	44	6103
2026-01-07 02:05:58.62	339.71	18.63	-34.8	-36.0	29.7	3.03e+01	49	34	0	310902784	44	6130
2026-01-07 02:05:59.63	339.71	18.49	-34.8	-36.0	29.7	3.03e+01	59	34	0	312999936	44	6097
2026-01-07 02:06:00.64	339.71	18.35	-34.9	-36.1	29.6	3.03e+01	61	35	0	315097088	44	6160
2026-01-07 02:06:01.65	339.71	18.22	-34.9	-36.1	29.5	3.03e+01	54	34	0	316669952	44	6168
2026-01-07 02:06:02.66	339.71	18.08	-34.9	-36.1	29.6	3.03e+01	57	34	0	318767104	44	6181
2026-01-07 02:06:03.67	339.71	17.94	-34.9	-36.1	29.6	3.03e+01	59	34	0	320864256	44	6141
2026-01-07 02:06:04.68	339.71	17.81	-34.8	-36.0	29.6	3.03e+01	56	34	0	322437120	44	6131
2026-01-07 02:06:05.69	339.71	17.68	-34.8	-36.0	29.6	3.03e+01	59	34	0	324534272	44	6131
2026-01-07 02:06:06.69	339.71	17.55	-34.8	-36.1	29.5	3.03e+01	56	34	0	326107136	44	6143
2026-01-07 02:06:07.70	339.71	17.41	-34.8	-36.0	29.6	3.03e+01	60	34	0	328204288	44	6117
2026-01-07 02:06:08.71	339.71	17.28	-34.9	-36.1	29.5	3.03e+01	60	34	0	330301440	44	6165
2026-01-07 02:06:09.72	339.71	17.15	-34.9	-36.1	29.4	3.03e+01	46	34	0	331874304	44	6201
2026-01-07 02:06:10.73	339.71	17.02	-34.9	-36.1	29.5	3.03e+01	59	34	0	333971456	44	6160
2026-01-07 02:06:11.73	339.71	16.90	-34.8	-36.0	29.6	3.03e+01	58	34	0	335544320	44	6129
2026-01-07 02:06:12.74	339.71	16.77	-34.7	-35.9	29.7	3.03e+01	58	34	0	337641472	44	6050
2026-01-07 02:06:13.76	339.71	16.64	-34.8	-36.0	29.7	3.03e+01	60	34	0	339214336	44	6103
2026-01-07 02:06:14.76	339.71	16.52	-34.8	-36.0	29.6	3.03e+01	52	34	0	341311488	44	6116
2026-01-07 02:06:15.77	339.71	16.39	-34.8	-36.0	29.6	3.03e+01	60	34	0	343408640	44	6098
2026-01-07 02:06:16.78	339.71	16.26	-34.9	-36.2	29.5	3.03e+01	61	34	0	344981504	44	6210
2026-01-07 02:06:17.79	339.72	16.14	-34.7	-35.9	29.6	3.03e+01	60	34	0	347078656	44	6047
2026-01-07 02:06:18.80	339.72	16.02	-34.9	-36.1	29.6	3.03e+01	59	34	0	349175808	44	6161
2026-01-07 02:06:19.81	339.72	15.89	-34.9	-36.1	29.5	3.03e+01	52	34	0	350748672	44	6197
2026-01-07 02:06:20.82	339.72	15.77	-34.8	-36.1	29.6	3.03e+01	58	34	0	352845824	44	6141
2026-01-07 02:06:21.83	339.72	15.65	-34.8	-36.0	29.6	3.03e+01	56	34	0	354418688	44	6104
2026-01-07 02:06:22.84	339.72	15.53	-34.8	-36.0	29.6	3.03e+01	47	34	0	356515840	44	6104
2026-01-07 02:06:23.85	339.72	15.41	-34.9	-36.1	29.6	3.03e+01	52	34	0	358612992	44	6143
2026-01-07 02:06:24.85	339.72	15.29	-34.8	-36.0	29.6	3.03e+01	62	34	0	360185856	44	6108
2026-01-07 02:06:25.86	339.72	15.17	-34.9	-36.1	29.5	3.03e+01	59	34	0	362283008	44	6179
2026-01-07 02:06:26.87	339.72	15.05	-34.9	-36.1	29.5	3.03e+01	58	34	0	364380160	44	6168
2026-01-07 02:06:27.88	339.72	14.94	-34.9	-36.1	29.4	3.03e+01	58	34	0	365953024	44	6186
2026-01-07 02:06:28.89	339.72	14.82	-35.0	-36.2	29.3	3.03e+01	61	34	0	368050176	44	6222
2026-01-07 02:06:29.90	339.72	14.70	-34.7	-35.9	29.5	3.03e+01	58	34	0	369623040	44	6058
2026-01-07 02:06:30.91	339.73	14.59	-34.8	-36.0	29.5	3.03e+01	50	34	0	371720192	44	6127
2026-01-07 02:06:31.92	339.73	14.47	-34.7	-35.9	29.6	3.03e+01	61	34	0	373817344	44	6044
2026-01-07 02:06:32.93	339.73	14.36	-34.8	-36.0	29.6	3.03e+01	59	34	0	375390208	44	6078
2026-01-07 02:06:33.94	339.73	14.24	-34.8	-36.0	29.5	3.03e+01	59	35	0	377487360	44	6112
2026-01-07 02:06:34.95	339.73	14.13	-34.7	-35.9	29.6	3.03e+01	59	35	0	379060224	44	6048
2026-01-07 02:06:35.96	339.73	14.02	-34.7	-35.9	29.6	3.03e+01	48	34	0	381157376	44	6016
2026-01-07 02:06:36.97	339.73	13.90	-34.6	-35.8	29.6	3.03e+01	59	34	0	383254528	44	5974
2026-01-07 02:06:37.98	339.73	13.79	-34.6	-35.8	29.7	3.03e+01	60	35	0	384827392	44	5978
2026-01-07 02:06:38.98	339.73	13.68	-34.7	-36.0	29.6	3.03e+01	45	35	0	386924544	44	6065
2026-01-07 02:06:39.99	339.74	13.57	-34.6	-35.8	29.6	3.03e+01	61	35	0	388497408	44	5987
2026-01-07 02:06:41.00	339.74	13.46	-34.7	-35.8	29.6	3.03e+01	58	34	0	390594560	44	5990
2026-01-07 02:06:42.01	339.74	13.35	-34.7	-35.9	29.6	3.03e+01	59	34	0	392691712	44	6033
2026-01-07 02:06:43.02	339.74	13.24	-34.6	-35.8	29.6	3.03e+01	52	34	0	394264576	44	5977
2026-01-07 02:06:44.03	339.74	13.13	-34.8	-36.0	29.5	3.03e+01	57	34	0	396361728	44	6090
2026-01-07 02:06:45.04	339.74	13.03	-34.7	-35.9	29.5	3.03e+01	57	34	0	397934592	44	6031
2026-01-07 02:06:46.04	339.74	12.92	-34.8	-36.0	29.4	3.03e+01	52	34	0	400031744	44	6116
2026-01-07 02:06:47.05	339.75	12.81	-34.8	-35.9	29.5	3.03e+01	49	34	0	402128896	44	6060
2026-01-07 02:06:48.07	339.75	12.71	-34.9	-36.1	29.4	3.03e+01	58	34	0	403701760	44	6144
2026-01-07 02:06:49.08	339.75	12.60	-34.9	-36.1	29.5	3.03e+01	49	34	0	405798912	44	6143
2026-01-07 02:06:50.09	339.75	12.50	-34.7	-35.9	29.6	3.03e+01	59	34	0	407371776	44	6026
2026-01-07 02:06:51.09	339.75	12.39	-34.7	-35.9	29.6	3.03e+01	59	34	0	409468928	44	6018
2026-01-07 02:06:52.10	339.75	12.29	-34.8	-36.0	29.5	3.03e+01	54	34	0	411566080	44	6095
2026-01-07 02:06:53.11	339.75	12.18	-34.7	-35.9	29.6	3.03e+01	61	34	0	413138944	44	6056
2026-01-07 02:06:54.12	339.76	12.08	-34.8	-36.0	29.5	3.03e+01	64	34	0	415236096	44	6073
2026-01-07 02:06:55.13	339.76	11.98	-34.8	-36.0	29.4	3.03e+01	62	34	0	417333248	44	6094
2026-01-07 02:06:56.14	339.76	11.88	-35.0	-36.2	29.4	3.03e+01	60	34	0	418906112	44	6213
2026-01-07 02:06:57.15	339.76	11.77	-34.8	-36.0	29.5	3.03e+01	47	34	0	421003264	44	6123
2026-01-07 02:06:58.16	339.76	11.67	-34.9	-36.1	29.5	3.03e+01	58	34	0	422576128	44	6135
2026-01-07 02:06:59.17	339.76	11.57	-34.8	-36.0	29.5	3.03e+01	60	34	0	424673280	44	6115
2026-01-07 02:07:00.18	339.77	11.47	-35.0	-36.2	29.4	3.03e+01	45	34	0	426770432	44	6215
