passes_logs/2026/01/07/R4.6S_Anadyr/R4.6S_Anadyr__20260107_033405_AQUA_rec.log

#Pass ID: 20260107_033405_AQUA
#Satellite: AQUA
#Configuration: AQUA
#almurnet v.1.7.20251203
#Start time: 2026-01-07 03:34:07

#Version: 2.2.20231116
#Station: R4.6S_Anadyr
#Location: 177.4865 lon 64.73178 lat
#TLE: 1 27424U 02022A   26004.96787593  .00001598  00000+0  32997-3 0  9996
#TLE: 2 27424  98.4069 331.2279 0002002  90.2377   0.6092 14.61798176259425

#Time	Az	El	Level	Level2	SNR	BER	BlckErr	Temp	State	Recorded	gain1	gain2
2026-01-07 03:34:07.40	200.64	0.12	-48.8	-60.4	3.5	8.46e-01	0	31	0	0	60	37963
2026-01-07 03:34:08.41	200.71	0.18	-49.2	-67.2	3.5	3.02e+01	0	32	104	0	60	88110
2026-01-07 03:34:09.42	200.77	0.23	-49.2	-67.3	3.5	3.02e+01	0	32	104	0	60	88780
2026-01-07 03:34:10.43	200.83	0.29	-49.1	-67.2	3.5	3.02e+01	0	32	104	0	60	88176
2026-01-07 03:34:11.44	200.89	0.35	-49.2	-67.2	3.5	3.02e+01	0	32	104	0	60	88637
2026-01-07 03:34:12.45	200.96	0.40	-49.2	-67.2	3.5	3.02e+01	0	32	104	0	60	88574
2026-01-07 03:34:13.46	201.02	0.46	-49.2	-67.3	3.5	3.02e+01	0	32	104	0	60	88906
2026-01-07 03:34:14.47	201.08	0.52	-49.3	-67.2	3.5	3.02e+01	0	32	104	0	60	88572
2026-01-07 03:34:15.48	201.15	0.58	-49.3	-67.2	3.5	3.02e+01	0	32	104	0	60	88472
2026-01-07 03:34:16.49	201.21	0.63	-49.3	-67.2	3.5	3.02e+01	0	32	104	0	60	88319
2026-01-07 03:34:17.50	201.27	0.69	-49.3	-67.2	3.5	3.02e+01	0	32	104	0	60	87995
2026-01-07 03:34:18.51	201.34	0.75	-49.2	-67.1	3.5	3.02e+01	0	32	104	0	60	86846
2026-01-07 03:34:19.52	201.40	0.81	-49.1	-67.0	3.5	3.02e+01	0	32	104	0	60	85938
2026-01-07 03:34:20.53	201.47	0.86	-49.0	-66.9	3.5	3.02e+01	0	32	104	0	60	85022
2026-01-07 03:34:21.54	201.53	0.92	-48.9	-66.8	3.5	3.02e+01	0	33	104	0	60	83975
2026-01-07 03:34:22.55	201.60	0.98	-48.6	-66.5	3.5	3.02e+01	0	32	104	0	60	81688
2026-01-07 03:34:23.56	201.66	1.04	-48.3	-66.2	3.5	3.02e+01	0	32	104	0	60	78442
2026-01-07 03:34:24.57	201.73	1.10	-48.0	-65.8	3.5	3.02e+01	0	32	104	0	60	74860
2026-01-07 03:34:25.58	201.80	1.16	-48.0	-65.9	3.5	3.02e+01	0	33	104	0	60	75755
2026-01-07 03:34:26.59	201.86	1.21	-48.0	-65.9	3.5	3.02e+01	0	33	104	0	60	75605
2026-01-07 03:34:27.59	201.93	1.27	-48.0	-65.7	3.5	3.02e+01	0	33	104	0	60	74325
2026-01-07 03:34:28.61	202.00	1.33	-48.0	-65.6	3.5	3.02e+01	0	33	104	0	60	72947
2026-01-07 03:34:29.61	202.06	1.39	-48.0	-65.8	3.5	3.02e+01	0	32	104	0	60	74782
2026-01-07 03:34:30.62	202.13	1.45	-48.0	-65.7	3.5	3.02e+01	0	32	104	0	60	74503
2026-01-07 03:34:31.63	202.20	1.51	-48.0	-65.6	3.5	3.02e+01	0	33	104	0	60	73434
2026-01-07 03:34:32.64	202.27	1.57	-48.0	-65.6	3.5	3.02e+01	0	33	104	0	60	72956
2026-01-07 03:34:33.65	202.34	1.63	-48.0	-65.6	3.5	3.02e+01	0	33	104	0	60	73416
2026-01-07 03:34:34.66	202.41	1.69	-48.0	-65.6	3.5	3.02e+01	0	33	104	0	60	73051
2026-01-07 03:34:35.67	202.48	1.74	-48.0	-65.7	3.5	3.02e+01	0	33	104	0	60	74196
2026-01-07 03:34:36.68	202.54	1.80	-48.0	-65.8	3.5	3.02e+01	0	33	104	0	60	75003
2026-01-07 03:34:37.69	202.61	1.86	-48.0	-66.0	3.5	3.02e+01	0	33	104	0	60	76653
2026-01-07 03:34:38.70	202.68	1.92	-48.0	-65.9	3.5	3.02e+01	0	33	104	0	60	75920
2026-01-07 03:34:39.71	202.75	1.98	-48.0	-65.9	3.5	3.02e+01	0	33	104	0	60	75638
2026-01-07 03:34:40.72	202.82	2.04	-48.0	-65.9	3.5	3.02e+01	0	33	104	0	60	76232
2026-01-07 03:34:41.73	202.90	2.10	-48.0	-66.0	3.5	3.02e+01	0	33	104	0	60	76488
2026-01-07 03:34:42.74	202.97	2.16	-48.0	-65.9	3.5	3.02e+01	0	33	104	0	60	76034
2026-01-07 03:34:43.75	203.04	2.22	-48.0	-65.8	3.5	3.02e+01	0	33	104	0	60	75188
2026-01-07 03:34:44.76	203.11	2.28	-48.0	-65.6	3.5	3.02e+01	0	33	104	0	60	73249
2026-01-07 03:34:45.77	203.18	2.35	-48.0	-65.5	3.5	3.02e+01	0	33	104	0	60	72496
2026-01-07 03:34:46.78	203.25	2.41	-48.0	-65.7	3.5	3.02e+01	0	33	104	0	60	73872
2026-01-07 03:34:47.78	203.33	2.47	-48.0	-65.7	3.5	3.02e+01	0	33	104	0	60	74017
2026-01-07 03:34:48.79	203.40	2.53	-48.0	-65.4	3.5	3.02e+01	0	33	104	0	60	71965
2026-01-07 03:34:49.80	203.47	2.59	-48.0	-65.2	3.5	3.02e+01	0	33	104	0	60	70403
2026-01-07 03:34:50.81	203.55	2.65	-48.0	-65.6	3.5	3.02e+01	0	33	104	0	60	73157
2026-01-07 03:34:51.82	203.62	2.71	-48.0	-65.9	3.5	3.02e+01	0	33	104	0	60	76288
2026-01-07 03:34:52.83	203.69	2.77	-48.0	-65.0	3.5	3.02e+01	0	33	104	0	60	68114
2026-01-07 03:34:53.84	203.77	2.83	-47.9	-62.4	4.2	3.02e+01	0	33	104	0	60	50593
2026-01-07 03:34:54.85	203.84	2.89	-47.8	-60.5	3.9	3.02e+01	0	33	104	0	60	40746
2026-01-07 03:34:55.86	203.92	2.96	-47.8	-59.3	5.9	3.02e+01	92	33	0	0	60	35388
2026-01-07 03:34:56.87	204.00	3.02	-47.9	-61.7	4.4	3.02e+01	0	33	104	524288	60	46997
2026-01-07 03:34:57.88	204.07	3.08	-48.0	-64.6	3.6	3.02e+01	0	33	104	524288	60	65679
2026-01-07 03:34:58.89	204.15	3.14	-47.6	-58.4	7.4	3.02e+01	92	33	104	524288	60	32097
2026-01-07 03:34:59.90	204.22	3.20	-46.3	-51.6	14.0	3.02e+01	92	33	0	2097152	60	14709
2026-01-07 03:35:00.91	204.30	3.27	-44.4	-47.8	17.9	3.02e+01	89	33	0	4194304	60	9434
2026-01-07 03:35:01.92	204.38	3.33	-42.5	-44.9	20.7	3.02e+01	89	33	0	5767168	60	6756
2026-01-07 03:35:02.93	204.46	3.39	-41.4	-43.4	22.0	3.02e+01	91	33	0	7864320	58	6412
2026-01-07 03:35:03.94	204.53	3.45	-40.7	-42.5	22.9	3.02e+01	91	33	0	9437184	56	6493
2026-01-07 03:35:04.95	204.61	3.52	-40.9	-42.8	22.5	3.02e+01	91	33	0	11534336	56	6704
2026-01-07 03:35:05.96	204.69	3.58	-42.2	-44.4	20.7	3.02e+01	90	33	0	13631488	56	8022
2026-01-07 03:35:06.97	204.77	3.64	-47.8	-63.5	3.8	3.02e+01	0	33	104	15204352	60	57408
2026-01-07 03:35:07.97	204.85	3.71	-40.5	-42.3	23.1	3.02e+01	92	33	0	15204352	52	7973
2026-01-07 03:35:08.98	204.93	3.77	-46.4	-51.6	13.7	3.02e+01	92	33	0	17301504	60	14580
2026-01-07 03:35:09.99	205.01	3.83	-43.5	-46.3	18.7	3.02e+01	92	33	0	18874368	58	8904
2026-01-07 03:35:11.00	205.09	3.90	-40.5	-42.3	23.3	3.02e+01	92	33	0	20971520	56	6291
2026-01-07 03:35:12.01	205.17	3.96	-40.9	-42.8	22.9	3.02e+01	92	33	0	22544384	56	6691
2026-01-07 03:35:13.02	205.25	4.02	-40.6	-42.4	23.1	3.02e+01	89	33	0	24641536	56	6362
2026-01-07 03:35:14.03	205.33	4.09	-40.2	-42.0	23.6	3.02e+01	91	33	0	26738688	56	6102
2026-01-07 03:35:15.04	205.41	4.15	-39.4	-41.0	24.6	3.02e+01	90	33	0	28311552	54	6122
2026-01-07 03:35:16.05	205.50	4.21	-39.4	-41.0	24.6	3.02e+01	88	33	0	30408704	54	6102
2026-01-07 03:35:17.06	205.58	4.28	-39.4	-41.0	24.5	3.02e+01	91	33	0	31981568	54	6089
2026-01-07 03:35:18.07	205.66	4.34	-39.7	-41.4	24.3	3.02e+01	90	33	0	34078720	54	6358
2026-01-07 03:35:19.08	205.75	4.41	-39.4	-41.0	24.4	3.02e+01	92	33	0	36175872	54	6107
2026-01-07 03:35:20.09	205.83	4.47	-39.1	-40.6	23.3	3.02e+01	90	33	0	37748736	54	5832
2026-01-07 03:35:21.10	205.91	4.54	-38.7	-40.2	25.3	3.02e+01	92	33	0	39845888	52	6235
2026-01-07 03:35:22.11	206.00	4.60	-38.7	-40.2	25.4	3.02e+01	92	33	0	41418752	52	6231
2026-01-07 03:35:23.12	206.08	4.67	-38.1	-39.5	26.1	3.02e+01	92	33	0	43515904	52	5754
2026-01-07 03:35:24.13	206.17	4.73	-38.2	-39.6	25.9	3.02e+01	90	33	0	45613056	52	5828
2026-01-07 03:35:25.14	206.25	4.80	-38.2	-39.7	25.9	3.02e+01	92	33	0	47185920	52	5861
2026-01-07 03:35:26.15	206.34	4.86	-38.2	-39.7	25.9	3.02e+01	92	33	0	49283072	52	5891
2026-01-07 03:35:27.16	206.43	4.93	-38.1	-39.6	26.0	3.02e+01	92	33	0	50855936	52	5811
2026-01-07 03:35:28.17	206.51	4.99	-38.1	-39.6	26.0	3.02e+01	92	33	0	52953088	52	5803
2026-01-07 03:35:29.18	206.60	5.06	-38.1	-39.5	26.1	3.02e+01	92	33	0	55050240	52	5785
2026-01-07 03:35:30.19	206.69	5.13	-38.2	-39.6	26.0	3.02e+01	92	33	0	56623104	52	5824
2026-01-07 03:35:31.20	206.78	5.19	-38.0	-39.5	26.2	3.02e+01	92	33	0	58720256	52	5733
2026-01-07 03:35:32.21	206.87	5.26	-38.1	-39.5	26.1	3.02e+01	92	33	0	60817408	52	5752
2026-01-07 03:35:33.22	206.96	5.32	-38.1	-39.5	26.1	3.02e+01	92	33	0	62390272	52	5787
2026-01-07 03:35:34.23	207.04	5.39	-37.9	-39.3	26.3	3.02e+01	92	33	0	64487424	50	6339
2026-01-07 03:35:35.24	207.13	5.46	-37.8	-39.3	26.4	3.02e+01	92	33	0	66060288	50	6278
2026-01-07 03:35:36.25	207.23	5.52	-37.8	-39.2	26.4	3.02e+01	92	33	0	68157440	50	6269
2026-01-07 03:35:37.26	207.32	5.59	-38.0	-39.4	26.2	3.02e+01	92	33	0	70254592	50	6405
2026-01-07 03:35:38.27	207.41	5.66	-37.9	-39.3	26.3	3.02e+01	92	33	0	71827456	50	6315
2026-01-07 03:35:39.28	207.50	5.72	-37.6	-39.0	26.7	3.02e+01	92	33	0	73924608	50	6074
2026-01-07 03:35:40.29	207.59	5.79	-37.5	-38.9	26.7	3.02e+01	90	33	0	75497472	50	6022
2026-01-07 03:35:41.30	207.68	5.86	-37.6	-38.9	26.7	3.02e+01	92	33	0	77594624	50	6049
2026-01-07 03:35:42.31	207.78	5.93	-37.6	-38.9	26.7	3.02e+01	92	33	0	79691776	50	6060
2026-01-07 03:35:43.32	207.87	5.99	-37.6	-39.0	26.7	3.02e+01	92	33	0	81264640	50	6098
2026-01-07 03:35:44.32	207.96	6.06	-37.7	-39.1	26.6	3.02e+01	92	33	0	83361792	50	6188
2026-01-07 03:35:45.33	208.06	6.13	-37.5	-38.9	26.7	3.02e+01	92	33	0	85458944	50	6031
2026-01-07 03:35:46.34	208.15	6.20	-37.6	-39.0	26.7	3.02e+01	90	33	0	87031808	50	6109
2026-01-07 03:35:47.35	208.25	6.27	-37.6	-38.9	26.8	3.02e+01	92	33	0	89128960	50	6048
2026-01-07 03:35:48.36	208.34	6.33	-37.5	-38.9	26.8	3.02e+01	90	33	0	90701824	50	6003
2026-01-07 03:35:49.37	208.44	6.40	-37.5	-38.9	26.8	3.02e+01	91	33	0	92798976	50	6014
2026-01-07 03:35:50.38	208.54	6.47	-37.3	-38.7	27.1	3.02e+01	92	33	0	94896128	50	5871
2026-01-07 03:35:51.39	208.63	6.54	-37.3	-38.7	27.0	3.02e+01	90	33	0	96468992	50	5883
2026-01-07 03:35:52.40	208.73	6.61	-37.3	-38.7	27.0	3.02e+01	92	33	0	98566144	50	5885
2026-01-07 03:35:53.41	208.83	6.68	-37.3	-38.6	27.1	3.02e+01	90	33	0	100139008	50	5839
2026-01-07 03:35:54.42	208.93	6.75	-37.2	-38.5	27.1	3.02e+01	91	33	0	102236160	50	5789
2026-01-07 03:35:55.43	209.03	6.82	-37.3	-38.7	27.1	3.02e+01	92	33	0	104333312	50	5868
2026-01-07 03:35:56.44	209.13	6.89	-37.3	-38.6	27.1	3.02e+01	92	33	0	105906176	50	5827
2026-01-07 03:35:57.44	209.23	6.95	-37.3	-38.6	27.1	3.02e+01	92	33	0	108003328	50	5842
2026-01-07 03:35:58.46	209.33	7.02	-37.2	-38.6	27.2	3.02e+01	90	33	0	109576192	50	5803
2026-01-07 03:35:59.46	209.43	7.09	-37.2	-38.5	27.2	3.02e+01	91	33	0	111673344	50	5778
2026-01-07 03:36:00.47	209.53	7.16	-37.2	-38.6	27.1	3.02e+01	92	33	0	113770496	50	5814
2026-01-07 03:36:01.48	209.63	7.23	-37.2	-38.6	27.2	3.02e+01	92	33	0	115343360	50	5795
2026-01-07 03:36:02.49	209.73	7.30	-37.1	-38.4	27.3	3.02e+01	90	33	0	117440512	50	5724
2026-01-07 03:36:03.50	209.84	7.37	-37.2	-38.6	27.2	3.02e+01	92	33	0	119013376	50	5813
2026-01-07 03:36:04.51	209.94	7.45	-37.2	-38.6	27.2	3.02e+01	92	33	0	121110528	50	5812
2026-01-07 03:36:05.52	210.04	7.52	-37.1	-38.5	27.3	3.02e+01	91	33	0	123207680	50	5729
2026-01-07 03:36:06.53	210.15	7.59	-37.0	-38.4	27.4	3.02e+01	92	33	0	124780544	50	5670
2026-01-07 03:36:07.54	210.25	7.66	-37.1	-38.5	27.3	3.02e+01	90	33	0	126877696	50	5731
2026-01-07 03:36:08.55	210.36	7.73	-37.0	-38.3	27.4	3.02e+01	92	33	0	128974848	50	5652
2026-01-07 03:36:09.56	210.47	7.80	-37.0	-38.4	27.4	3.02e+01	92	33	0	130547712	50	5666
2026-01-07 03:36:10.57	210.57	7.87	-37.1	-38.4	27.4	3.02e+01	92	33	0	132644864	50	5687
2026-01-07 03:36:11.58	210.68	7.94	-37.1	-38.4	27.4	3.02e+01	92	33	0	134217728	50	5689
2026-01-07 03:36:12.59	210.79	8.02	-37.0	-38.3	27.4	3.02e+01	90	33	0	136314880	48	6339
2026-01-07 03:36:13.60	210.90	8.09	-37.1	-38.4	27.3	3.02e+01	92	33	0	138412032	48	6409
2026-01-07 03:36:14.61	211.01	8.16	-36.8	-38.1	27.7	3.02e+01	91	33	0	139984896	48	6150
2026-01-07 03:36:15.62	211.12	8.23	-36.9	-38.2	27.7	3.02e+01	90	33	0	142082048	48	6223
2026-01-07 03:36:16.63	211.23	8.30	-36.7	-38.0	27.8	3.02e+01	92	33	0	143654912	48	6126
2026-01-07 03:36:17.64	211.34	8.38	-36.7	-38.0	27.8	3.02e+01	90	33	0	145752064	48	6078
2026-01-07 03:36:18.65	211.45	8.45	-36.7	-38.0	27.7	3.02e+01	91	33	0	147849216	48	6119
2026-01-07 03:36:19.66	211.56	8.52	-36.7	-38.1	27.8	3.02e+01	91	33	0	149422080	48	6146
2026-01-07 03:36:20.66	211.67	8.59	-36.8	-38.1	27.6	3.02e+01	91	33	0	151519232	48	6168
2026-01-07 03:36:21.68	211.79	8.67	-36.8	-38.1	27.7	3.02e+01	92	33	0	153616384	48	6182
2026-01-07 03:36:22.69	211.90	8.74	-36.8	-38.1	27.7	3.02e+01	91	33	0	155189248	48	6149
2026-01-07 03:36:23.69	212.01	8.81	-36.7	-38.0	27.8	3.02e+01	92	33	0	157286400	48	6105
2026-01-07 03:36:24.70	212.13	8.89	-36.7	-38.0	27.8	3.02e+01	92	33	0	158859264	48	6086
2026-01-07 03:36:25.71	212.24	8.96	-36.7	-38.0	27.8	3.02e+01	91	33	0	160956416	48	6077
2026-01-07 03:36:26.72	212.36	9.03	-36.6	-37.9	27.8	3.02e+01	90	33	0	162529280	48	6050
2026-01-07 03:36:27.73	212.48	9.11	-36.6	-37.9	27.9	3.02e+01	92	33	0	164626432	48	6026
2026-01-07 03:36:28.74	212.59	9.18	-36.7	-37.9	27.8	3.02e+01	92	33	0	166723584	48	6060
2026-01-07 03:36:29.75	212.71	9.26	-36.6	-37.9	27.9	3.02e+01	91	33	0	168296448	48	6013
2026-01-07 03:36:30.75	212.83	9.33	-36.7	-38.0	27.8	3.02e+01	90	33	0	170393600	48	6083
2026-01-07 03:36:31.76	212.95	9.41	-36.5	-37.8	28.0	3.02e+01	92	33	0	171966464	48	5978
2026-01-07 03:36:32.77	213.07	9.48	-36.5	-37.8	27.9	3.02e+01	92	33	0	174063616	48	5983
2026-01-07 03:36:33.78	213.19	9.55	-36.5	-37.8	28.0	3.02e+01	91	33	0	176160768	48	5990
2026-01-07 03:36:34.79	213.31	9.63	-36.4	-37.7	28.1	3.02e+01	92	33	0	177733632	48	5901
2026-01-07 03:36:35.80	213.43	9.70	-36.3	-37.6	28.2	3.02e+01	92	33	0	179830784	48	5819
2026-01-07 03:36:36.81	213.55	9.78	-36.4	-37.6	28.2	3.02e+01	91	33	0	181927936	48	5854
2026-01-07 03:36:37.82	213.68	9.86	-36.4	-37.7	28.1	3.02e+01	92	33	0	183500800	48	5896
2026-01-07 03:36:38.83	213.80	9.93	-36.3	-37.6	28.2	3.02e+01	91	33	0	185597952	48	5833
2026-01-07 03:36:39.84	213.93	10.01	-36.4	-37.6	28.2	3.02e+01	91	33	0	187170816	48	5848
2026-01-07 03:36:40.84	214.05	10.08	-36.3	-37.6	28.2	3.02e+01	92	33	0	189267968	48	5810
2026-01-07 03:36:41.86	214.18	10.16	-36.4	-37.6	28.2	3.02e+01	92	33	0	191365120	48	5856
2026-01-07 03:36:42.87	214.30	10.24	-36.4	-37.7	28.2	3.02e+01	92	33	0	192937984	48	5863
2026-01-07 03:36:43.88	214.43	10.31	-36.4	-37.6	28.2	3.02e+01	92	33	0	195035136	48	5839
2026-01-07 03:36:44.89	214.56	10.39	-36.4	-37.6	28.1	3.02e+01	90	33	0	197132288	48	5858
2026-01-07 03:36:45.90	214.69	10.46	-36.2	-37.5	28.3	3.02e+01	89	33	0	198705152	48	5752
2026-01-07 03:36:46.90	214.81	10.54	-36.3	-37.6	28.2	3.02e+01	94	33	0	200802304	48	5821
2026-01-07 03:36:47.91	214.94	10.62	-36.1	-37.4	28.4	3.02e+01	90	33	0	202375168	48	5697
2026-01-07 03:36:48.92	215.08	10.69	-36.2	-37.4	28.3	3.02e+01	92	33	0	204472320	48	5711
2026-01-07 03:36:49.93	215.21	10.77	-36.3	-37.6	28.3	3.02e+01	91	33	0	206569472	48	5800
2026-01-07 03:36:50.94	215.34	10.85	-36.1	-37.3	28.5	3.02e+01	91	33	0	208142336	48	5658
2026-01-07 03:36:51.95	215.47	10.93	-36.1	-37.4	28.4	3.02e+01	90	33	0	210239488	48	5673
2026-01-07 03:36:52.96	215.61	11.00	-36.1	-37.4	28.5	3.02e+01	91	33	0	211812352	48	5676
2026-01-07 03:36:53.97	215.74	11.08	-36.2	-37.5	28.4	3.02e+01	90	33	0	213909504	48	5733
2026-01-07 03:36:54.98	215.88	11.16	-36.1	-37.4	28.4	3.02e+01	92	33	0	216006656	48	5685
2026-01-07 03:36:55.99	216.01	11.24	-36.2	-37.4	28.4	3.02e+01	92	33	0	217579520	48	5725
2026-01-07 03:36:57.00	216.15	11.32	-36.2	-37.5	28.4	3.02e+01	92	33	0	219676672	48	5728
2026-01-07 03:36:58.01	216.28	11.39	-36.1	-37.3	28.5	3.02e+01	92	33	0	221249536	48	5659
2026-01-07 03:36:59.02	216.42	11.47	-36.3	-37.6	28.3	3.02e+01	92	33	0	223346688	48	5818
2026-01-07 03:37:00.03	216.56	11.55	-36.0	-37.3	28.6	3.02e+01	92	33	0	225443840	48	5611
2026-01-07 03:37:01.04	216.70	11.63	-36.1	-37.4	28.5	3.02e+01	92	33	0	227016704	48	5680
2026-01-07 03:37:02.05	216.84	11.71	-35.9	-37.2	28.7	3.02e+01	92	33	0	229113856	46	6224
2026-01-07 03:37:03.06	216.98	11.79	-36.0	-37.3	28.6	3.02e+01	92	33	0	230686720	46	6298
2026-01-07 03:37:04.06	217.12	11.87	-36.0	-37.3	28.6	3.02e+01	92	33	0	232783872	46	6290
2026-01-07 03:37:05.07	217.27	11.95	-36.0	-37.3	28.6	3.02e+01	91	33	0	234881024	46	6295
2026-01-07 03:37:06.08	217.41	12.03	-35.9	-37.1	28.7	3.02e+01	91	33	0	236453888	46	6194
2026-01-07 03:37:07.09	217.56	12.11	-36.0	-37.2	28.7	3.02e+01	92	33	0	238551040	46	6242
2026-01-07 03:37:08.10	217.70	12.19	-36.0	-37.3	28.6	3.02e+01	91	33	0	240123904	46	6302
2026-01-07 03:37:09.11	217.85	12.27	-36.0	-37.3	28.6	3.02e+01	91	33	0	242221056	46	6294
2026-01-07 03:37:10.12	217.99	12.35	-36.1	-37.4	28.5	3.02e+01	91	33	0	244318208	46	6371
2026-01-07 03:37:11.13	218.14	12.43	-36.1	-37.4	28.5	3.02e+01	92	33	0	245891072	46	6362
2026-01-07 03:37:12.14	218.29	12.51	-35.9	-37.2	28.7	3.02e+01	92	33	0	247988224	46	6231
2026-01-07 03:37:13.15	218.44	12.59	-36.0	-37.2	28.7	3.02e+01	90	33	0	250085376	46	6253
2026-01-07 03:37:14.16	218.59	12.67	-35.9	-37.2	28.7	3.02e+01	92	33	0	251658240	46	6232
2026-01-07 03:37:15.16	218.74	12.75	-35.9	-37.2	28.7	3.02e+01	92	33	0	253755392	46	6207
2026-01-07 03:37:16.17	218.89	12.83	-36.0	-37.2	28.7	3.02e+01	92	33	0	255328256	46	6249
2026-01-07 03:37:17.18	219.04	12.91	-35.9	-37.1	28.7	3.02e+01	90	33	0	257425408	46	6197
2026-01-07 03:37:18.19	219.20	12.99	-35.9	-37.1	28.8	3.02e+01	92	33	0	259522560	46	6174
2026-01-07 03:37:19.20	219.35	13.07	-35.9	-37.2	28.7	3.02e+01	92	33	0	261095424	46	6224
2026-01-07 03:37:20.21	219.51	13.15	-36.0	-37.3	28.6	3.02e+01	92	33	0	263192576	46	6280
2026-01-07 03:37:21.22	219.66	13.23	-35.9	-37.1	28.7	3.02e+01	92	33	0	264765440	46	6180
2026-01-07 03:37:22.23	219.82	13.31	-35.9	-37.1	28.7	3.02e+01	92	33	0	266862592	46	6194
2026-01-07 03:37:23.24	219.98	13.40	-35.8	-37.0	28.8	3.02e+01	92	33	0	268959744	46	6105
2026-01-07 03:37:24.25	220.14	13.48	-35.7	-37.0	28.9	3.02e+01	92	33	0	270532608	46	6070
2026-01-07 03:37:25.26	220.30	13.56	-35.7	-36.9	28.9	3.02e+01	92	33	0	272629760	46	6064
2026-01-07 03:37:26.27	220.46	13.64	-35.7	-37.0	28.9	3.02e+01	92	33	0	274202624	46	6068
2026-01-07 03:37:27.28	220.62	13.72	-35.8	-37.1	28.8	3.02e+01	92	33	0	276299776	46	6137
2026-01-07 03:37:28.29	220.78	13.81	-35.6	-36.8	29.0	3.02e+01	91	33	0	278396928	46	5989
2026-01-07 03:37:29.30	220.95	13.89	-35.6	-36.8	29.1	3.02e+01	91	33	0	279969792	46	5951
2026-01-07 03:37:30.31	221.11	13.97	-35.6	-36.8	29.0	3.02e+01	92	33	0	282066944	46	5993
2026-01-07 03:37:31.32	221.28	14.05	-35.7	-36.9	29.0	3.02e+01	91	33	0	283639808	46	6026
2026-01-07 03:37:32.33	221.45	14.14	-35.6	-36.8	29.0	3.02e+01	91	33	0	285736960	46	5983
2026-01-07 03:37:33.34	221.61	14.22	-35.7	-36.9	29.0	3.02e+01	88	33	0	287834112	46	6041
2026-01-07 03:37:34.35	221.78	14.30	-35.8	-37.1	28.9	3.02e+01	92	33	0	289406976	46	6135
2026-01-07 03:37:35.36	221.95	14.38	-35.6	-36.8	29.0	3.02e+01	91	33	0	291504128	46	5975
2026-01-07 03:37:36.37	222.12	14.47	-35.6	-36.8	29.1	3.02e+01	88	33	0	293601280	46	5951
2026-01-07 03:37:37.38	222.29	14.55	-35.7	-36.9	29.0	3.02e+01	91	33	0	295174144	46	6020
2026-01-07 03:37:38.39	222.47	14.63	-35.5	-36.7	29.2	3.02e+01	91	33	0	297271296	46	5880
2026-01-07 03:37:39.40	222.64	14.72	-35.6	-36.8	29.1	3.02e+01	90	33	0	298844160	46	5954
2026-01-07 03:37:40.40	222.81	14.80	-35.5	-36.7	29.1	3.02e+01	91	33	0	300941312	46	5915
2026-01-07 03:37:41.41	222.99	14.88	-35.6	-36.8	29.1	3.02e+01	91	33	0	303038464	46	5959
2026-01-07 03:37:42.42	223.16	14.97	-35.4	-36.6	29.2	3.02e+01	91	33	0	304611328	46	5852
2026-01-07 03:37:43.43	223.34	15.05	-35.3	-36.5	29.3	3.02e+01	90	33	0	306708480	46	5782
2026-01-07 03:37:44.44	223.52	15.13	-35.3	-36.5	29.3	3.02e+01	92	33	0	308281344	46	5788
2026-01-07 03:37:45.45	223.70	15.22	-35.4	-36.6	29.3	3.02e+01	91	33	0	310378496	46	5815
2026-01-07 03:37:46.46	223.88	15.30	-35.3	-36.5	29.3	3.02e+01	92	33	0	312475648	46	5773
2026-01-07 03:37:47.47	224.06	15.38	-35.5	-36.7	29.3	3.02e+01	91	33	0	314048512	46	5881
2026-01-07 03:37:48.48	224.25	15.47	-35.4	-36.6	29.3	3.02e+01	92	33	0	316145664	46	5826
2026-01-07 03:37:49.48	224.43	15.55	-35.5	-36.7	29.2	3.02e+01	91	33	0	318242816	46	5875
2026-01-07 03:37:50.49	224.61	15.63	-35.4	-36.6	29.2	3.02e+01	91	33	0	319815680	46	5852
2026-01-07 03:37:51.50	224.80	15.72	-35.4	-36.7	29.2	3.02e+01	92	33	0	321912832	46	5863
2026-01-07 03:37:52.51	224.99	15.80	-35.5	-36.7	29.1	3.02e+01	92	33	0	323485696	46	5916
2026-01-07 03:37:53.52	225.17	15.89	-35.3	-36.5	29.4	3.02e+01	91	33	0	325582848	46	5731
2026-01-07 03:37:54.53	225.36	15.97	-35.4	-36.6	29.3	3.02e+01	92	33	0	327680000	46	5818
2026-01-07 03:37:55.54	225.55	16.06	-35.4	-36.6	29.3	3.02e+01	91	33	0	329252864	46	5793
2026-01-07 03:37:56.55	225.74	16.14	-35.3	-36.5	29.3	3.02e+01	91	33	0	331350016	46	5733
2026-01-07 03:37:57.56	225.94	16.22	-35.3	-36.5	29.4	3.02e+01	91	33	0	332922880	46	5728
2026-01-07 03:37:58.57	226.13	16.31	-35.2	-36.4	29.4	3.02e+01	92	33	0	335020032	46	5722
2026-01-07 03:37:59.58	226.33	16.39	-35.2	-36.4	29.4	3.02e+01	90	33	0	337117184	46	5715
2026-01-07 03:38:00.59	226.52	16.48	-35.4	-36.6	29.3	3.02e+01	92	33	0	338690048	46	5824
2026-01-07 03:38:01.59	226.72	16.56	-35.4	-36.6	29.3	3.02e+01	91	33	0	340787200	46	5839
2026-01-07 03:38:02.60	226.92	16.64	-35.5	-36.8	29.2	3.02e+01	92	33	0	342360064	46	5932
2026-01-07 03:38:03.61	227.11	16.73	-35.3	-36.5	29.3	3.02e+01	92	33	0	344457216	46	5760
2026-01-07 03:38:04.62	227.32	16.81	-35.4	-36.6	29.3	3.02e+01	91	33	0	346554368	46	5829
2026-01-07 03:38:05.63	227.52	16.90	-35.5	-36.7	29.2	3.02e+01	92	33	0	348127232	46	5894
2026-01-07 03:38:06.64	227.72	16.98	-35.2	-36.4	29.5	3.02e+01	92	33	0	350224384	46	5695
2026-01-07 03:38:07.65	227.92	17.07	-35.2	-36.4	29.4	3.02e+01	92	33	0	351797248	46	5719
2026-01-07 03:38:08.66	228.13	17.15	-35.2	-36.4	29.4	3.02e+01	91	33	0	353894400	46	5707
2026-01-07 03:38:09.67	228.34	17.24	-35.3	-36.5	29.4	3.02e+01	92	33	0	355991552	46	5754
2026-01-07 03:38:10.68	228.54	17.32	-35.4	-36.6	29.3	3.02e+01	92	33	0	357564416	46	5831
2026-01-07 03:38:11.69	228.75	17.40	-35.3	-36.5	29.5	3.02e+01	92	33	0	359661568	46	5742
2026-01-07 03:38:12.70	228.96	17.49	-35.3	-36.5	29.4	3.02e+01	92	33	0	361758720	46	5747
2026-01-07 03:38:13.71	229.17	17.57	-35.4	-36.6	29.4	3.02e+01	92	33	0	363331584	46	5808
2026-01-07 03:38:14.72	229.39	17.66	-35.3	-36.5	29.4	3.02e+01	87	33	0	365428736	46	5763
2026-01-07 03:38:15.73	229.60	17.74	-35.4	-36.6	29.4	3.02e+01	92	33	0	367001600	46	5824
2026-01-07 03:38:16.74	229.82	17.83	-35.3	-36.5	29.5	3.02e+01	92	33	0	369098752	46	5762
2026-01-07 03:38:17.75	230.03	17.91	-35.3	-36.6	29.4	3.02e+01	92	33	0	371195904	46	5793
2026-01-07 03:38:18.76	230.25	17.99	-35.2	-36.4	29.5	3.02e+01	92	33	0	372768768	46	5692
2026-01-07 03:38:19.77	230.47	18.08	-35.2	-36.4	29.5	3.02e+01	92	33	0	374865920	46	5682
2026-01-07 03:38:20.78	230.69	18.16	-35.3	-36.5	29.4	3.02e+01	92	33	0	376438784	46	5740
2026-01-07 03:38:21.78	230.91	18.24	-35.5	-36.7	29.3	3.02e+01	92	33	0	378535936	46	5868
2026-01-07 03:38:22.79	231.13	18.33	-35.3	-36.5	29.3	3.02e+01	92	33	0	380633088	46	5791
2026-01-07 03:38:23.80	231.35	18.41	-35.3	-36.5	29.4	3.02e+01	92	33	0	382205952	46	5786
2026-01-07 03:38:24.81	231.58	18.49	-35.3	-36.5	29.4	3.02e+01	92	33	0	384303104	46	5770
2026-01-07 03:38:25.82	231.80	18.58	-35.3	-36.5	29.5	3.02e+01	92	33	0	385875968	46	5739
2026-01-07 03:38:26.83	232.03	18.66	-35.2	-36.4	29.4	3.02e+01	90	33	0	387973120	46	5710
2026-01-07 03:38:27.84	232.26	18.74	-35.1	-36.3	29.6	3.02e+01	92	33	0	390070272	46	5630
2026-01-07 03:38:28.84	232.49	18.83	-35.2	-36.4	29.5	3.02e+01	92	33	0	391643136	46	5712
2026-01-07 03:38:29.85	232.72	18.91	-35.3	-36.5	29.4	3.02e+01	92	33	0	393740288	46	5779
2026-01-07 03:38:30.86	232.95	18.99	-35.3	-36.5	29.4	3.02e+01	92	33	0	395313152	46	5775
2026-01-07 03:38:31.87	233.19	19.07	-35.3	-36.4	29.4	3.02e+01	92	33	0	397410304	46	5724
2026-01-07 03:38:32.88	233.42	19.16	-35.3	-36.5	29.4	3.02e+01	91	33	0	399507456	46	5745
2026-01-07 03:38:33.89	233.66	19.24	-35.2	-36.4	29.5	3.02e+01	90	33	0	401080320	46	5705
2026-01-07 03:38:34.90	233.90	19.32	-35.4	-36.6	29.4	3.02e+01	91	33	0	403177472	46	5798
2026-01-07 03:38:35.91	234.14	19.40	-35.4	-36.6	29.4	3.02e+01	92	33	0	404750336	46	5823
2026-01-07 03:38:36.92	234.38	19.49	-35.3	-36.5	29.4	3.02e+01	92	33	0	406847488	46	5780
2026-01-07 03:38:37.93	234.62	19.57	-35.4	-36.6	29.4	3.02e+01	92	33	0	408944640	46	5825
2026-01-07 03:38:38.94	234.86	19.65	-35.3	-36.5	29.4	3.02e+01	92	33	0	410517504	46	5772
2026-01-07 03:38:39.95	235.11	19.73	-35.4	-36.6	29.4	3.02e+01	91	33	0	412614656	46	5815
2026-01-07 03:38:40.96	235.35	19.81	-35.4	-36.6	29.4	3.02e+01	92	33	0	414711808	46	5800
2026-01-07 03:38:41.97	235.60	19.89	-35.4	-36.6	29.3	3.02e+01	90	33	0	416284672	46	5849
2026-01-07 03:38:42.98	235.85	19.97	-35.4	-36.6	29.4	3.02e+01	92	33	0	418381824	46	5832
2026-01-07 03:38:43.99	236.10	20.05	-35.5	-36.7	29.3	3.02e+01	92	33	0	419954688	46	5871
2026-01-07 03:38:45.00	236.35	20.13	-35.4	-36.6	29.4	3.02e+01	92	33	0	422051840	46	5810
2026-01-07 03:38:46.01	236.60	20.21	-35.3	-36.5	29.4	3.02e+01	92	33	0	424148992	46	5777
2026-01-07 03:38:47.02	236.86	20.29	-35.4	-36.6	29.3	3.02e+01	92	33	0	425721856	46	5846
2026-01-07 03:38:48.02	237.11	20.37	-35.4	-36.6	29.4	3.02e+01	89	33	0	427819008	46	5823
2026-01-07 03:38:49.04	237.37	20.45	-35.3	-36.5	29.5	3.02e+01	92	33	0	429916160	46	5758
2026-01-07 03:38:50.04	237.62	20.53	-35.5	-36.7	29.4	3.02e+01	92	33	0	431489024	46	5895
2026-01-07 03:38:51.05	237.88	20.61	-35.4	-36.6	29.4	3.02e+01	92	33	0	433586176	46	5854
2026-01-07 03:38:52.06	238.14	20.69	-35.4	-36.6	29.4	3.02e+01	92	33	0	435159040	46	5832
2026-01-07 03:38:53.07	238.41	20.76	-35.4	-36.6	29.3	3.02e+01	92	33	0	437256192	46	5831
2026-01-07 03:38:54.08	238.67	20.84	-35.5	-36.7	29.3	3.02e+01	90	33	0	439353344	46	5916
2026-01-07 03:38:55.09	238.93	20.92	-35.5	-36.7	29.2	3.02e+01	91	33	0	440926208	46	5925
2026-01-07 03:38:56.10	239.20	20.99	-35.5	-36.7	29.3	3.02e+01	87	33	0	443023360	46	5890
2026-01-07 03:38:57.11	239.47	21.07	-35.5	-36.7	29.3	3.02e+01	91	33	0	444596224	46	5875
2026-01-07 03:38:58.12	239.74	21.15	-35.5	-36.8	29.3	3.02e+01	92	33	0	446693376	46	5929
2026-01-07 03:38:59.13	240.01	21.22	-35.6	-36.8	29.2	3.02e+01	92	33	0	448790528	46	5972
2026-01-07 03:39:00.14	240.28	21.30	-35.5	-36.7	29.3	3.02e+01	92	33	0	450363392	46	5900
2026-01-07 03:39:01.15	240.55	21.37	-35.6	-36.8	29.3	3.02e+01	92	33	0	452460544	46	5942
2026-01-07 03:39:02.16	240.83	21.45	-35.7	-36.9	29.1	3.02e+01	92	33	0	454033408	46	6042
2026-01-07 03:39:03.17	241.10	21.52	-35.8	-37.0	29.1	3.02e+01	92	33	0	456130560	46	6095
2026-01-07 03:39:04.17	241.38	21.60	-35.5	-36.7	29.3	3.02e+01	92	33	0	458227712	46	5900
2026-01-07 03:39:05.18	241.65	21.67	-35.6	-36.8	29.2	3.02e+01	92	33	0	459800576	46	5939
2026-01-07 03:39:06.19	241.93	21.74	-35.7	-36.9	29.2	3.02e+01	92	33	0	461897728	46	6025
2026-01-07 03:39:07.20	242.22	21.82	-35.6	-36.8	29.3	3.02e+01	92	33	0	463470592	46	5951
2026-01-07 03:39:08.21	242.50	21.89	-35.6	-36.8	29.2	3.02e+01	92	33	0	465567744	46	5976
2026-01-07 03:39:09.22	242.78	21.96	-35.5	-36.7	29.3	3.02e+01	92	33	0	467664896	46	5898
2026-01-07 03:39:10.23	243.07	22.03	-35.6	-36.8	29.2	3.02e+01	90	33	0	469237760	46	5974
2026-01-07 03:39:11.24	243.35	22.10	-35.7	-36.9	29.2	3.02e+01	92	33	0	471334912	46	6030
2026-01-07 03:39:12.25	243.64	22.17	-35.5	-36.7	29.3	3.02e+01	92	33	0	472907776	46	5909
2026-01-07 03:39:13.26	243.93	22.24	-35.5	-36.7	29.3	3.02e+01	92	33	0	475004928	46	5905
2026-01-07 03:39:14.26	244.22	22.31	-35.7	-36.9	29.3	3.02e+01	92	33	0	477102080	46	6013
2026-01-07 03:39:15.27	244.51	22.38	-35.8	-37.0	29.1	3.02e+01	92	33	0	478674944	46	6074
2026-01-07 03:39:16.28	244.80	22.45	-35.7	-36.9	29.2	3.02e+01	92	33	0	480772096	46	6015
2026-01-07 03:39:17.29	245.10	22.52	-35.6	-36.8	29.4	3.02e+01	92	33	0	482869248	46	5934
2026-01-07 03:39:18.30	245.39	22.58	-35.6	-36.8	29.3	3.02e+01	92	33	0	484442112	46	5974
2026-01-07 03:39:19.31	245.69	22.65	-35.7	-36.9	29.2	3.02e+01	92	33	0	486539264	46	6043
2026-01-07 03:39:20.32	245.99	22.71	-35.8	-37.0	29.1	3.02e+01	90	33	0	488112128	46	6077
2026-01-07 03:39:21.33	246.29	22.78	-35.7	-36.9	29.2	3.02e+01	92	33	0	490209280	46	6047
2026-01-07 03:39:22.34	246.59	22.85	-35.8	-37.0	29.1	3.02e+01	92	33	0	492306432	46	6129
2026-01-07 03:39:23.34	246.89	22.91	-35.6	-36.8	29.3	3.02e+01	90	33	0	493879296	46	5982
2026-01-07 03:39:24.35	247.19	22.97	-35.8	-37.0	29.1	3.02e+01	92	33	0	495976448	46	6069
2026-01-07 03:39:25.36	247.50	23.04	-35.9	-37.1	29.0	3.02e+01	90	33	0	497549312	46	6190
2026-01-07 03:39:26.37	247.80	23.10	-35.7	-36.9	29.2	3.02e+01	92	33	0	499646464	46	6040
2026-01-07 03:39:27.38	248.11	23.16	-35.9	-37.1	29.0	3.02e+01	91	33	0	501743616	46	6190
2026-01-07 03:39:28.39	248.42	23.22	-36.2	-37.5	28.7	3.02e+01	92	33	0	503316480	46	6436
2026-01-07 03:39:29.40	248.73	23.28	-36.0	-37.2	28.9	3.02e+01	92	33	0	505413632	46	6241
2026-01-07 03:39:30.41	249.04	23.34	-36.1	-37.4	28.8	3.02e+01	92	33	0	506986496	46	6359
2026-01-07 03:39:31.42	249.35	23.40	-36.0	-37.2	28.9	3.02e+01	92	33	0	509083648	46	6235
2026-01-07 03:39:32.43	249.66	23.46	-35.8	-37.0	29.0	3.02e+01	92	33	0	511180800	46	6112
2026-01-07 03:39:33.44	249.98	23.52	-35.7	-36.9	29.1	3.02e+01	91	33	0	512753664	46	6052
2026-01-07 03:39:34.45	250.30	23.57	-35.8	-37.1	29.0	3.02e+01	91	33	0	514850816	46	6150
2026-01-07 03:39:35.46	250.61	23.63	-35.8	-37.0	29.0	3.02e+01	90	33	0	516423680	46	6124
2026-01-07 03:39:36.47	250.93	23.68	-35.6	-36.8	29.2	3.02e+01	91	33	0	518520832	46	5970
2026-01-07 03:39:37.48	251.25	23.74	-35.7	-37.0	29.1	3.02e+01	92	33	0	520617984	46	6078
2026-01-07 03:39:38.48	251.57	23.79	-35.9	-37.1	29.0	3.02e+01	92	33	0	522190848	46	6199
2026-01-07 03:39:39.50	251.89	23.85	-35.7	-36.9	29.2	3.02e+01	92	33	0	524288000	46	6019
2026-01-07 03:39:40.50	252.21	23.90	-35.8	-37.0	29.1	3.02e+01	92	33	0	526385152	46	6109
2026-01-07 03:39:41.52	252.54	23.95	-35.8	-37.0	29.1	3.02e+01	92	33	0	527958016	46	6121
2026-01-07 03:39:42.53	252.86	24.00	-35.9	-37.1	29.0	3.02e+01	89	33	0	530055168	46	6148
2026-01-07 03:39:43.54	253.19	24.05	-35.8	-37.0	29.1	3.02e+01	91	33	0	531628032	46	6125
2026-01-07 03:39:44.55	253.51	24.10	-35.8	-37.1	29.1	3.02e+01	89	33	0	533725184	46	6143
2026-01-07 03:39:45.55	253.84	24.15	-35.7	-37.0	29.1	3.02e+01	92	33	0	535822336	46	6071
2026-01-07 03:39:46.56	254.17	24.19	-35.7	-36.9	29.2	3.02e+01	92	33	0	537395200	46	6026
2026-01-07 03:39:47.58	254.50	24.24	-35.9	-37.1	29.1	3.02e+01	92	33	0	539492352	46	6156
2026-01-07 03:39:48.58	254.83	24.29	-35.8	-37.1	29.1	3.02e+01	90	33	0	541065216	46	6140
2026-01-07 03:39:49.59	255.16	24.33	-35.7	-36.9	29.3	3.02e+01	91	33	0	543162368	46	5996
2026-01-07 03:39:50.60	255.49	24.38	-35.7	-36.9	29.2	3.02e+01	90	33	0	545259520	46	6033
2026-01-07 03:39:51.61	255.83	24.42	-35.7	-36.9	29.1	3.02e+01	91	33	0	546832384	46	6038
2026-01-07 03:39:52.62	256.16	24.46	-35.7	-36.9	29.2	3.02e+01	92	33	0	548929536	46	6031
2026-01-07 03:39:53.63	256.50	24.50	-35.7	-36.9	29.3	3.02e+01	90	33	0	551026688	46	6034
2026-01-07 03:39:54.64	256.83	24.54	-35.7	-36.9	29.1	3.02e+01	92	33	0	552599552	46	6057
2026-01-07 03:39:55.65	257.17	24.58	-35.7	-36.9	29.2	3.02e+01	92	33	0	554696704	46	6058
2026-01-07 03:39:56.66	257.51	24.62	-35.7	-36.9	29.1	3.02e+01	90	33	0	556269568	46	6063
2026-01-07 03:39:57.67	257.85	24.66	-35.8	-37.0	29.1	3.02e+01	92	33	0	558366720	46	6097
2026-01-07 03:39:58.68	258.19	24.69	-35.7	-36.9	29.2	3.02e+01	90	33	0	560463872	46	6061
2026-01-07 03:39:59.69	258.53	24.73	-35.7	-36.9	29.2	3.02e+01	92	33	0	562036736	46	6049
2026-01-07 03:40:00.70	258.87	24.76	-35.8	-37.1	29.0	3.02e+01	92	33	0	564133888	46	6136
2026-01-07 03:40:01.71	259.21	24.80	-35.7	-37.0	29.2	3.02e+01	92	33	0	565706752	46	6071
2026-01-07 03:40:02.71	259.55	24.83	-35.8	-37.1	29.0	3.02e+01	92	33	0	567803904	46	6147
2026-01-07 03:40:03.72	259.89	24.86	-35.8	-37.1	29.1	3.02e+01	92	33	0	569376768	46	6135
2026-01-07 03:40:04.73	260.24	24.89	-35.6	-36.8	29.3	3.02e+01	92	33	0	571473920	46	5987
2026-01-07 03:40:05.74	260.58	24.92	-35.7	-36.9	29.3	3.02e+01	92	33	0	573571072	46	6024
2026-01-07 03:40:06.75	260.93	24.95	-35.6	-36.8	29.3	3.02e+01	92	33	0	575143936	46	5945
2026-01-07 03:40:07.76	261.27	24.98	-35.6	-36.8	29.3	3.02e+01	92	33	0	577241088	46	5964
2026-01-07 03:40:08.77	261.62	25.01	-35.7	-36.9	29.2	3.02e+01	92	33	0	579338240	46	6011
2026-01-07 03:40:09.78	261.97	25.03	-35.8	-37.0	29.1	3.02e+01	91	33	0	580911104	46	6085
2026-01-07 03:40:10.79	262.32	25.06	-35.7	-36.9	29.2	3.02e+01	90	33	0	583008256	46	6042
2026-01-07 03:40:11.80	262.66	25.08	-35.6	-36.8	29.3	3.02e+01	92	33	0	584581120	46	5959
2026-01-07 03:40:12.81	263.01	25.10	-35.6	-36.8	29.3	3.02e+01	92	33	0	586678272	46	5953
2026-01-07 03:40:13.82	263.36	25.12	-35.7	-36.9	29.3	3.02e+01	91	33	0	588775424	46	6022
2026-01-07 03:40:14.83	263.71	25.14	-35.8	-37.0	29.0	3.02e+01	90	33	0	590348288	46	6118
2026-01-07 03:40:15.84	264.06	25.16	-35.7	-36.9	29.2	3.02e+01	89	33	0	592445440	46	6045
2026-01-07 03:40:16.84	264.41	25.18	-35.5	-36.7	29.4	3.02e+01	91	33	0	594542592	46	5908
2026-01-07 03:40:17.85	264.76	25.20	-35.6	-36.8	29.3	3.02e+01	90	33	0	596115456	46	5941
2026-01-07 03:40:18.87	265.12	25.21	-35.6	-36.8	29.3	3.02e+01	92	33	0	598212608	46	5964
2026-01-07 03:40:19.88	265.47	25.23	-35.7	-36.9	29.2	3.02e+01	89	33	0	599785472	46	6039
2026-01-07 03:40:20.88	265.82	25.24	-35.6	-36.8	29.3	3.02e+01	91	34	0	601882624	46	5989
2026-01-07 03:40:21.89	266.17	25.26	-35.5	-36.8	29.3	3.02e+01	88	33	0	603979776	46	5928
2026-01-07 03:40:22.89	266.52	25.27	-35.5	-36.7	29.4	3.02e+01	92	33	0	605552640	46	5878
2026-01-07 03:40:23.90	266.87	25.28	-35.4	-36.7	29.4	3.02e+01	92	33	0	607649792	46	5862
2026-01-07 03:40:24.91	267.22	25.29	-35.7	-36.9	29.2	3.02e+01	90	33	0	609222656	46	6027
2026-01-07 03:40:25.92	267.58	25.30	-35.5	-36.7	29.3	3.02e+01	90	33	0	611319808	46	5893
2026-01-07 03:40:26.93	267.93	25.30	-35.6	-36.8	29.3	3.02e+01	92	33	0	613416960	46	5981
2026-01-07 03:40:27.94	268.28	25.31	-35.6	-36.8	29.2	3.02e+01	90	33	0	614989824	46	5971
2026-01-07 03:40:28.95	268.64	25.32	-35.5	-36.7	29.3	3.02e+01	91	33	0	617086976	46	5917
2026-01-07 03:40:29.96	268.99	25.32	-35.5	-36.7	29.4	3.02e+01	92	34	0	618659840	46	5865
2026-01-07 03:40:30.97	269.35	25.32	-35.5	-36.7	29.4	3.02e+01	92	33	0	620756992	46	5881
2026-01-07 03:40:31.98	269.70	25.33	-35.5	-36.7	29.4	3.02e+01	92	33	0	622854144	46	5900
2026-01-07 03:40:32.99	270.05	25.33	-35.5	-36.7	29.4	3.02e+01	92	33	0	624427008	46	5879
2026-01-07 03:40:33.99	270.40	25.33	-35.4	-36.6	29.4	3.02e+01	90	33	0	626524160	46	5845
2026-01-07 03:40:35.00	270.76	25.32	-35.2	-36.4	29.6	3.02e+01	91	33	0	628097024	46	5716
2026-01-07 03:40:36.01	271.11	25.32	-35.2	-36.4	29.6	3.02e+01	92	33	0	630194176	46	5712
2026-01-07 03:40:37.02	271.47	25.32	-35.4	-36.6	29.5	3.02e+01	92	33	0	632291328	46	5811
2026-01-07 03:40:38.03	271.82	25.31	-35.4	-36.6	29.4	3.02e+01	88	33	0	633864192	46	5831
2026-01-07 03:40:39.04	272.17	25.31	-35.4	-36.6	29.5	3.02e+01	92	33	0	635961344	46	5819
2026-01-07 03:40:40.05	272.53	25.30	-35.3	-36.5	29.5	3.02e+01	92	33	0	637534208	46	5786
2026-01-07 03:40:41.06	272.88	25.29	-35.3	-36.5	29.5	3.02e+01	92	33	0	639631360	46	5778
2026-01-07 03:40:42.07	273.23	25.28	-35.4	-36.6	29.4	3.02e+01	92	33	0	641728512	46	5849
2026-01-07 03:40:43.08	273.59	25.27	-35.3	-36.5	29.5	3.02e+01	92	33	0	643301376	46	5773
2026-01-07 03:40:44.09	273.94	25.26	-35.3	-36.5	29.5	3.02e+01	91	33	0	645398528	46	5767
2026-01-07 03:40:45.10	274.29	25.25	-35.2	-36.4	29.6	3.02e+01	91	33	0	647495680	46	5671
2026-01-07 03:40:46.11	274.64	25.24	-35.4	-36.6	29.5	3.02e+01	90	33	0	649068544	46	5804
2026-01-07 03:40:47.12	274.99	25.22	-35.2	-36.4	29.5	3.02e+01	92	33	0	651165696	46	5703
2026-01-07 03:40:48.13	275.35	25.21	-35.3	-36.5	29.5	3.02e+01	91	33	0	652738560	46	5785
2026-01-07 03:40:49.14	275.70	25.19	-35.5	-36.7	29.4	3.02e+01	90	33	0	654835712	46	5924
2026-01-07 03:40:50.15	276.05	25.17	-35.3	-36.5	29.6	3.02e+01	92	33	0	656932864	46	5736
2026-01-07 03:40:51.16	276.40	25.15	-35.1	-36.3	29.7	3.02e+01	92	33	0	658505728	46	5650
2026-01-07 03:40:52.17	276.75	25.13	-35.3	-36.5	29.5	3.02e+01	92	33	0	660602880	46	5745
2026-01-07 03:40:53.18	277.10	25.11	-35.3	-36.5	29.5	3.02e+01	92	33	0	662700032	46	5784
2026-01-07 03:40:54.19	277.45	25.09	-35.2	-36.4	29.6	3.02e+01	92	33	0	664272896	46	5675
2026-01-07 03:40:55.19	277.79	25.07	-35.2	-36.4	29.6	3.02e+01	90	33	0	666370048	46	5699
2026-01-07 03:40:56.20	278.14	25.04	-35.3	-36.5	29.6	3.02e+01	92	33	0	667942912	46	5727
2026-01-07 03:40:57.21	278.48	25.02	-35.1	-36.3	29.7	3.02e+01	92	33	0	670040064	46	5638
2026-01-07 03:40:58.22	278.83	24.99	-35.2	-36.4	29.6	3.02e+01	92	33	0	671612928	46	5710
2026-01-07 03:40:59.23	279.18	24.97	-35.2	-36.4	29.6	3.02e+01	92	33	0	673710080	46	5696
2026-01-07 03:41:00.24	279.52	24.94	-35.2	-36.4	29.5	3.02e+01	90	33	0	675807232	46	5725
2026-01-07 03:41:01.25	279.87	24.91	-35.1	-36.3	29.7	3.02e+01	92	33	0	677380096	46	5625
2026-01-07 03:41:02.26	280.21	24.88	-35.2	-36.4	29.6	3.02e+01	90	33	0	679477248	46	5697
2026-01-07 03:41:03.27	280.55	24.85	-35.2	-36.4	29.5	3.02e+01	92	33	0	681050112	46	5705
2026-01-07 03:41:04.28	280.90	24.81	-35.0	-36.2	29.7	3.02e+01	90	33	0	683147264	46	5577
2026-01-07 03:41:05.29	281.24	24.78	-35.1	-36.2	29.8	3.02e+01	92	33	0	685244416	46	5574
2026-01-07 03:41:06.30	281.58	24.75	-35.3	-36.5	29.5	3.02e+01	92	33	0	686817280	46	5747
2026-01-07 03:41:07.31	281.92	24.71	-35.2	-36.4	29.5	3.02e+01	92	33	0	688914432	46	5672
2026-01-07 03:41:08.32	282.26	24.68	-35.2	-36.4	29.6	3.02e+01	92	33	0	691011584	46	5693
2026-01-07 03:41:09.33	282.60	24.64	-35.2	-36.4	29.5	3.02e+01	92	33	0	692584448	46	5699
2026-01-07 03:41:10.34	282.94	24.60	-35.3	-36.5	29.6	3.02e+01	92	33	0	694681600	46	5764
2026-01-07 03:41:11.34	283.27	24.56	-35.4	-36.6	29.5	3.02e+01	90	33	0	696254464	46	5803
2026-01-07 03:41:12.35	283.61	24.52	-35.6	-36.8	29.2	3.02e+01	92	33	0	698351616	46	5961
2026-01-07 03:41:13.36	283.94	24.48	-35.2	-36.4	29.6	3.02e+01	90	33	0	700448768	46	5689
2026-01-07 03:41:14.37	284.27	24.44	-35.2	-36.4	29.6	3.02e+01	92	33	0	702021632	46	5664
2026-01-07 03:41:15.38	284.61	24.40	-35.0	-36.2	29.7	3.02e+01	90	33	0	704118784	46	5556
2026-01-07 03:41:16.39	284.94	24.35	-35.0	-36.2	29.9	3.02e+01	90	34	0	705691648	46	5531
2026-01-07 03:41:17.40	285.27	24.31	-35.0	-36.2	29.8	3.02e+01	90	33	0	707788800	44	6228
2026-01-07 03:41:18.41	285.60	24.27	-35.1	-36.2	29.7	3.02e+01	91	33	0	709885952	44	6275
2026-01-07 03:41:19.42	285.93	24.22	-35.1	-36.3	29.6	3.02e+01	59	33	0	711458816	44	6311
2026-01-07 03:41:20.43	286.26	24.17	-35.1	-36.2	29.6	3.02e+01	56	33	0	713555968	44	6271
2026-01-07 03:41:21.44	286.59	24.12	-35.0	-36.2	29.8	3.02e+01	45	33	0	715653120	44	6219
2026-01-07 03:41:22.45	286.91	24.08	-35.0	-36.2	29.7	3.02e+01	59	33	0	717225984	44	6264
2026-01-07 03:41:23.46	287.24	24.03	-34.9	-36.1	29.9	3.02e+01	57	33	0	719323136	44	6137
2026-01-07 03:41:24.47	287.56	23.98	-35.0	-36.2	29.8	3.02e+01	60	33	0	720896000	44	6222
2026-01-07 03:41:25.47	287.88	23.93	-35.0	-36.2	29.8	3.02e+01	60	33	0	722993152	44	6210
2026-01-07 03:41:26.48	288.21	23.87	-34.9	-36.1	29.7	3.02e+01	61	33	0	725090304	44	6192
2026-01-07 03:41:27.49	288.53	23.82	-35.0	-36.2	29.8	3.02e+01	58	33	0	726663168	44	6223
2026-01-07 03:41:28.50	288.85	23.77	-35.2	-36.4	29.6	3.02e+01	57	33	0	728760320	44	6358
2026-01-07 03:41:29.51	289.17	23.71	-35.3	-36.5	29.5	3.02e+01	54	33	0	730333184	44	6433
2026-01-07 03:41:30.52	289.48	23.66	-35.0	-36.2	29.6	3.02e+01	59	33	0	732430336	44	6218
2026-01-07 03:41:31.52	289.80	23.60	-35.1	-36.2	29.7	3.02e+01	51	33	0	734003200	44	6275
2026-01-07 03:41:32.53	290.11	23.55	-35.2	-36.4	29.6	3.02e+01	56	33	0	736100352	44	6392
2026-01-07 03:41:33.54	290.43	23.49	-35.5	-36.8	29.4	3.02e+01	60	33	0	738197504	44	6652
2026-01-07 03:41:34.55	290.74	23.43	-35.4	-36.6	29.4	3.02e+01	48	33	0	739770368	44	6513
2026-01-07 03:41:35.56	291.05	23.38	-35.5	-36.7	29.1	3.02e+01	55	33	0	741867520	44	6597
2026-01-07 03:41:36.56	291.36	23.32	-35.5	-36.7	29.2	3.02e+01	61	33	0	743964672	44	6630
2026-01-07 03:41:37.57	291.67	23.26	-35.3	-36.5	29.5	3.02e+01	59	33	0	745537536	44	6469
2026-01-07 03:41:38.58	291.98	23.20	-35.0	-36.2	29.7	3.02e+01	54	33	0	747634688	44	6230
2026-01-07 03:41:39.59	292.28	23.14	-34.9	-36.1	29.8	3.02e+01	51	33	0	749207552	44	6143
2026-01-07 03:41:40.60	292.59	23.07	-35.1	-36.3	29.7	3.02e+01	58	33	0	751304704	44	6334
2026-01-07 03:41:41.61	292.89	23.01	-35.0	-36.2	29.8	3.02e+01	59	33	0	753401856	44	6216
2026-01-07 03:41:42.62	293.20	22.95	-34.8	-36.0	29.8	3.02e+01	48	33	0	754974720	44	6107
2026-01-07 03:41:43.63	293.50	22.89	-34.9	-36.1	29.8	3.02e+01	59	33	0	757071872	44	6141
2026-01-07 03:41:44.64	293.80	22.82	-34.8	-36.0	29.9	3.02e+01	58	33	0	758644736	44	6111
2026-01-07 03:41:45.65	294.10	22.76	-34.8	-36.0	29.9	3.02e+01	59	33	0	760741888	44	6100
2026-01-07 03:41:46.66	294.40	22.69	-34.9	-36.1	29.7	3.02e+01	58	33	0	762839040	44	6172
2026-01-07 03:41:47.67	294.69	22.62	-34.8	-36.0	30.0	3.02e+01	56	33	0	764411904	44	6071
2026-01-07 03:41:48.68	294.99	22.56	-34.7	-35.9	30.0	3.02e+01	57	33	0	766509056	44	6024
2026-01-07 03:41:49.68	295.28	22.49	-34.8	-36.0	29.9	3.02e+01	59	34	0	768606208	44	6118
2026-01-07 03:41:50.69	295.57	22.42	-34.9	-36.1	29.9	3.02e+01	53	33	0	770179072	44	6187
2026-01-07 03:41:51.70	295.86	22.36	-35.0	-36.1	29.7	3.02e+01	59	33	0	772276224	44	6192
2026-01-07 03:41:52.71	296.15	22.29	-35.0	-36.2	29.7	3.02e+01	59	33	0	773849088	44	6221
2026-01-07 03:41:53.72	296.44	22.22	-34.9	-36.0	29.9	3.02e+01	60	33	0	775946240	44	6133
2026-01-07 03:41:54.73	296.73	22.15	-34.8	-36.0	29.8	3.02e+01	60	33	0	778043392	44	6121
2026-01-07 03:41:55.74	297.02	22.08	-34.7	-35.8	30.0	3.02e+01	51	33	0	779616256	44	5977
2026-01-07 03:41:56.75	297.30	22.01	-34.8	-36.0	29.9	3.02e+01	60	33	0	781713408	44	6105
2026-01-07 03:41:57.75	297.58	21.94	-34.7	-35.9	30.0	3.02e+01	53	33	0	783286272	44	6009
2026-01-07 03:41:58.76	297.86	21.87	-34.9	-36.0	29.9	3.02e+01	45	33	0	785383424	44	6130
2026-01-07 03:41:59.77	298.14	21.79	-34.9	-36.1	29.9	3.02e+01	57	33	0	787480576	44	6147
2026-01-07 03:42:00.78	298.42	21.72	-35.0	-36.1	29.7	3.02e+01	60	33	0	789053440	44	6199
2026-01-07 03:42:01.79	298.70	21.65	-34.8	-36.0	29.8	3.02e+01	58	33	0	791150592	44	6120
2026-01-07 03:42:02.80	298.98	21.58	-34.8	-36.0	29.9	3.02e+01	59	33	0	792723456	44	6070
2026-01-07 03:42:03.81	299.25	21.50	-34.8	-36.0	29.9	3.02e+01	55	33	0	794820608	44	6082
2026-01-07 03:42:04.82	299.53	21.43	-34.8	-35.9	29.9	3.02e+01	61	33	0	796917760	44	6054
2026-01-07 03:42:05.83	299.80	21.35	-34.8	-36.0	29.8	3.02e+01	58	33	0	798490624	44	6118
2026-01-07 03:42:06.84	300.07	21.28	-34.8	-36.0	30.0	3.02e+01	49	33	0	800587776	44	6095
2026-01-07 03:42:07.84	300.34	21.20	-34.6	-35.8	30.0	3.02e+01	58	33	0	802160640	44	5958
2026-01-07 03:42:08.85	300.61	21.13	-34.6	-35.8	30.0	3.02e+01	47	33	0	804257792	44	5966
2026-01-07 03:42:09.86	300.88	21.05	-34.7	-35.8	30.0	3.02e+01	60	33	0	806354944	44	5988
2026-01-07 03:42:10.87	301.14	20.98	-34.8	-36.0	30.0	3.02e+01	57	33	0	807927808	44	6072
2026-01-07 03:42:11.88	301.41	20.90	-34.9	-36.1	29.8	3.02e+01	45	33	0	810024960	44	6194
2026-01-07 03:42:12.89	301.67	20.82	-34.8	-36.0	29.8	3.02e+01	62	33	0	812122112	44	6091
2026-01-07 03:42:13.90	301.93	20.75	-34.7	-35.8	30.0	3.02e+01	59	33	0	813694976	44	5985
2026-01-07 03:42:14.91	302.19	20.67	-34.6	-35.8	30.1	3.02e+01	59	33	0	815792128	44	5965
2026-01-07 03:42:15.92	302.45	20.59	-34.6	-35.8	30.1	3.02e+01	60	33	0	817364992	44	5944
2026-01-07 03:42:16.93	302.71	20.51	-34.6	-35.7	30.1	3.02e+01	47	33	0	819462144	44	5921
2026-01-07 03:42:17.94	302.96	20.43	-34.6	-35.8	30.0	3.02e+01	60	33	0	821559296	44	5980
2026-01-07 03:42:18.95	303.22	20.35	-34.7	-35.9	30.0	3.02e+01	58	33	0	823132160	44	6001
2026-01-07 03:42:19.96	303.47	20.28	-34.5	-35.7	30.1	3.02e+01	39	33	0	825229312	44	5890
2026-01-07 03:42:20.97	303.73	20.20	-34.6	-35.8	30.0	3.02e+01	60	33	0	826802176	44	5944
2026-01-07 03:42:21.97	303.97	20.12	-34.5	-35.6	30.2	3.02e+01	57	33	0	828899328	44	5849
2026-01-07 03:42:22.98	304.22	20.04	-34.6	-35.8	30.0	3.02e+01	59	33	0	830996480	44	5958
2026-01-07 03:42:24.00	304.47	19.96	-34.5	-35.7	30.0	3.02e+01	57	33	0	832569344	44	5899
2026-01-07 03:42:25.00	304.72	19.88	-34.6	-35.8	30.0	3.02e+01	55	33	0	834666496	44	5968
2026-01-07 03:42:26.02	304.97	19.80	-34.5	-35.7	30.2	3.02e+01	57	33	0	836239360	44	5865
2026-01-07 03:42:27.03	305.21	19.72	-34.5	-35.7	30.1	3.02e+01	62	33	0	838336512	44	5901
2026-01-07 03:42:28.04	305.45	19.64	-34.7	-35.9	30.0	3.02e+01	47	33	0	840433664	44	6009
2026-01-07 03:42:29.04	305.69	19.56	-34.6	-35.8	30.0	3.02e+01	63	33	0	842006528	44	5976
2026-01-07 03:42:30.05	305.93	19.47	-34.7	-35.9	29.9	3.02e+01	58	33	0	844103680	44	6003
2026-01-07 03:42:31.06	306.17	19.39	-34.5	-35.6	30.2	3.02e+01	59	33	0	845676544	44	5852
2026-01-07 03:42:32.07	306.41	19.31	-34.4	-35.6	30.1	3.02e+01	61	33	0	847773696	44	5811
2026-01-07 03:42:33.08	306.65	19.23	-34.6	-35.7	30.1	3.02e+01	47	33	0	849870848	44	5926
2026-01-07 03:42:34.09	306.88	19.15	-34.4	-35.5	30.3	3.02e+01	61	33	0	851443712	44	5783
2026-01-07 03:42:35.10	307.12	19.07	-34.4	-35.6	30.2	3.02e+01	57	33	0	853540864	44	5834
2026-01-07 03:42:36.11	307.35	18.98	-34.5	-35.6	30.1	3.02e+01	48	33	0	855113728	44	5856
2026-01-07 03:42:37.12	307.58	18.90	-34.5	-35.7	30.1	3.02e+01	61	33	0	857210880	44	5890
2026-01-07 03:42:38.13	307.81	18.82	-34.5	-35.7	30.0	3.02e+01	61	33	0	859308032	44	5886
2026-01-07 03:42:39.13	308.04	18.74	-34.5	-35.7	30.1	3.02e+01	57	33	0	860880896	44	5895
2026-01-07 03:42:40.14	308.26	18.66	-34.4	-35.6	30.2	3.02e+01	58	33	0	862978048	44	5814
2026-01-07 03:42:41.15	308.49	18.57	-34.4	-35.5	30.2	3.02e+01	52	33	0	865075200	44	5776
2026-01-07 03:42:42.16	308.71	18.49	-34.4	-35.6	30.2	3.02e+01	59	33	0	866648064	44	5812
2026-01-07 03:42:43.17	308.94	18.41	-34.6	-35.7	30.1	3.02e+01	59	33	0	868745216	44	5918
2026-01-07 03:42:44.18	309.16	18.32	-34.5	-35.7	30.0	3.02e+01	60	33	0	870318080	44	5877
2026-01-07 03:42:45.19	309.38	18.24	-34.6	-35.7	30.0	3.02e+01	62	33	0	872415232	44	5923
2026-01-07 03:42:46.20	309.60	18.16	-34.4	-35.6	30.1	3.02e+01	46	33	0	874512384	44	5825
2026-01-07 03:42:47.21	309.82	18.07	-34.6	-35.8	30.0	3.02e+01	61	33	0	876085248	44	5967
2026-01-07 03:42:48.21	310.03	17.99	-34.5	-35.6	30.1	3.02e+01	63	33	0	878182400	44	5852
2026-01-07 03:42:49.22	310.25	17.91	-34.3	-35.5	30.2	3.02e+01	53	33	0	879755264	44	5769
2026-01-07 03:42:50.23	310.47	17.83	-34.5	-35.7	30.1	3.02e+01	60	33	0	881852416	44	5866
2026-01-07 03:42:51.24	310.68	17.74	-34.5	-35.7	30.1	3.02e+01	60	33	0	883949568	44	5874
2026-01-07 03:42:52.25	310.89	17.66	-34.4	-35.6	30.1	3.02e+01	60	33	0	885522432	44	5817
2026-01-07 03:42:53.26	311.10	17.57	-34.6	-35.8	29.9	3.02e+01	59	33	0	887619584	44	5953
2026-01-07 03:42:54.27	311.31	17.49	-34.6	-35.7	30.0	3.02e+01	47	33	0	889192448	44	5924
2026-01-07 03:42:55.28	311.52	17.41	-34.6	-35.7	30.0	3.02e+01	58	33	0	891289600	44	5919
2026-01-07 03:42:56.29	311.73	17.32	-34.3	-35.5	30.2	3.02e+01	58	33	0	893386752	44	5773
2026-01-07 03:42:57.30	311.94	17.24	-34.3	-35.5	30.1	3.02e+01	45	33	0	894959616	44	5755
2026-01-07 03:42:58.31	312.14	17.16	-34.3	-35.5	30.1	3.02e+01	59	33	0	897056768	44	5757
2026-01-07 03:42:59.32	312.34	17.07	-34.4	-35.5	30.2	3.02e+01	59	33	0	898629632	44	5788
2026-01-07 03:43:00.32	312.55	16.99	-34.3	-35.5	30.2	3.02e+01	58	33	0	900726784	44	5749
2026-01-07 03:43:01.33	312.75	16.91	-34.4	-35.6	30.1	3.02e+01	60	33	0	902823936	44	5826
2026-01-07 03:43:02.34	312.95	16.82	-34.5	-35.6	30.2	3.02e+01	61	33	0	904396800	44	5836
2026-01-07 03:43:03.35	313.15	16.74	-34.5	-35.7	30.0	3.02e+01	58	33	0	906493952	44	5896
2026-01-07 03:43:04.36	313.34	16.65	-34.5	-35.7	30.0	3.02e+01	61	33	0	908591104	44	5904
2026-01-07 03:43:05.37	313.54	16.57	-34.5	-35.7	30.0	3.02e+01	45	33	0	910163968	44	5867
2026-01-07 03:43:06.38	313.74	16.49	-34.7	-35.8	29.8	3.02e+01	60	33	0	912261120	44	5990
2026-01-07 03:43:07.38	313.93	16.40	-34.5	-35.7	30.0	3.02e+01	59	33	0	913833984	44	5880
2026-01-07 03:43:08.39	314.12	16.32	-34.7	-35.8	29.9	3.02e+01	59	33	0	915931136	44	5985
2026-01-07 03:43:09.40	314.32	16.24	-34.6	-35.8	29.9	3.02e+01	62	33	0	918028288	44	5951
2026-01-07 03:43:10.41	314.51	16.15	-34.8	-35.9	29.9	3.02e+01	59	33	0	919601152	44	6060
2026-01-07 03:43:11.42	314.70	16.07	-34.6	-35.8	29.9	3.02e+01	60	33	0	921698304	44	5971
2026-01-07 03:43:12.43	314.89	15.99	-34.5	-35.7	29.9	3.02e+01	55	33	0	923271168	44	5904
2026-01-07 03:43:13.44	315.08	15.90	-34.6	-35.8	29.9	3.02e+01	45	33	0	925368320	44	5979
2026-01-07 03:43:14.45	315.26	15.82	-34.6	-35.8	29.9	3.02e+01	57	33	0	927465472	44	5960
2026-01-07 03:43:15.46	315.45	15.74	-34.5	-35.6	30.0	3.02e+01	57	33	0	929038336	44	5851
2026-01-07 03:43:16.47	315.63	15.65	-34.5	-35.7	30.0	3.02e+01	60	33	0	931135488	44	5883
2026-01-07 03:43:17.48	315.82	15.57	-34.5	-35.7	29.9	3.02e+01	54	33	0	933232640	44	5875
2026-01-07 03:43:18.49	316.00	15.49	-34.4	-35.6	30.1	3.02e+01	50	33	0	934805504	44	5815
2026-01-07 03:43:19.50	316.18	15.40	-34.4	-35.5	30.2	3.02e+01	59	33	0	936902656	44	5775
2026-01-07 03:43:20.51	316.36	15.32	-34.5	-35.6	30.1	3.02e+01	49	33	0	938475520	44	5855
2026-01-07 03:43:21.51	316.54	15.24	-34.5	-35.7	30.0	3.02e+01	54	33	0	940572672	44	5859
2026-01-07 03:43:22.53	316.72	15.15	-34.5	-35.7	30.0	3.02e+01	59	33	0	942669824	44	5867
2026-01-07 03:43:23.53	316.90	15.07	-34.4	-35.6	30.0	3.02e+01	53	33	0	944242688	44	5827
2026-01-07 03:43:24.54	317.07	14.99	-34.5	-35.6	30.0	3.02e+01	58	33	0	946339840	44	5849
2026-01-07 03:43:25.55	317.25	14.91	-34.5	-35.7	30.1	3.02e+01	61	33	0	947912704	44	5908
2026-01-07 03:43:26.56	317.42	14.82	-34.6	-35.8	29.9	3.02e+01	51	33	0	950009856	44	5943
2026-01-07 03:43:27.57	317.60	14.74	-34.6	-35.8	29.9	3.02e+01	60	33	0	951582720	44	5950
2026-01-07 03:43:28.58	317.77	14.66	-34.6	-35.8	29.9	3.02e+01	61	33	0	953679872	44	5992
2026-01-07 03:43:29.59	317.94	14.58	-34.7	-35.9	29.8	3.02e+01	57	33	0	955777024	44	6003
2026-01-07 03:43:30.60	318.11	14.49	-34.8	-36.0	29.7	3.02e+01	58	33	0	957349888	44	6092
2026-01-07 03:43:31.61	318.28	14.41	-34.8	-35.9	29.7	3.02e+01	46	33	0	959447040	44	6064
2026-01-07 03:43:32.61	318.45	14.33	-34.6	-35.8	29.8	3.02e+01	59	33	0	961544192	44	5968
2026-01-07 03:43:33.62	318.62	14.25	-34.7	-35.9	29.7	3.02e+01	60	33	0	963117056	44	6038
2026-01-07 03:43:34.63	318.78	14.16	-34.7	-35.9	29.7	3.02e+01	49	33	0	965214208	44	6021
2026-01-07 03:43:35.64	318.95	14.08	-34.7	-35.9	29.7	3.02e+01	60	33	0	966787072	44	6005
2026-01-07 03:43:36.64	319.11	14.00	-34.7	-35.9	29.8	3.02e+01	57	33	0	968884224	44	6020
2026-01-07 03:43:37.66	319.28	13.92	-34.6	-35.8	29.8	3.02e+01	59	33	0	970981376	44	5970
2026-01-07 03:43:38.66	319.44	13.84	-34.6	-35.8	29.9	3.02e+01	59	33	0	972554240	44	5948
2026-01-07 03:43:39.67	319.60	13.76	-34.7	-35.9	29.8	3.02e+01	54	33	0	974651392	44	6006
2026-01-07 03:43:40.68	319.76	13.68	-34.7	-35.9	29.8	3.02e+01	58	33	0	976748544	44	6015
2026-01-07 03:43:41.69	319.92	13.59	-34.7	-35.9	29.8	3.02e+01	59	33	0	978321408	44	5997
2026-01-07 03:43:42.70	320.08	13.51	-34.6	-35.8	29.8	3.02e+01	49	33	0	980418560	44	5986
2026-01-07 03:43:43.71	320.24	13.43	-34.6	-35.8	29.8	3.02e+01	58	33	0	981991424	44	5952
2026-01-07 03:43:44.72	320.40	13.35	-34.6	-35.8	29.8	3.02e+01	59	33	0	984088576	44	5972
2026-01-07 03:43:45.73	320.55	13.27	-34.6	-35.8	29.9	3.02e+01	57	33	0	986185728	44	5953
2026-01-07 03:43:46.74	320.71	13.19	-34.8	-36.0	29.7	3.02e+01	58	33	0	987758592	44	6077
2026-01-07 03:43:47.75	320.86	13.11	-34.8	-36.0	29.7	3.02e+01	52	33	0	989855744	44	6099
2026-01-07 03:43:48.76	321.02	13.03	-34.9	-36.1	29.7	3.02e+01	62	33	0	991428608	44	6149
2026-01-07 03:43:49.76	321.17	12.95	-34.8	-35.9	29.7	3.02e+01	57	33	0	993525760	44	6056
2026-01-07 03:43:50.77	321.32	12.87	-34.9	-36.1	29.5	3.02e+01	44	33	0	995098624	44	6165
2026-01-07 03:43:51.78	321.47	12.79	-34.9	-36.1	29.6	3.02e+01	59	33	0	997195776	44	6163
2026-01-07 03:43:52.80	321.62	12.71	-34.8	-36.0	29.6	3.02e+01	59	33	0	999292928	44	6118
2026-01-07 03:43:53.80	321.77	12.63	-34.9	-36.1	29.6	3.02e+01	60	33	0	1000865792	44	6141
2026-01-07 03:43:54.81	321.92	12.55	-34.9	-36.1	29.6	3.02e+01	61	33	0	1002962944	44	6160
2026-01-07 03:43:55.82	322.07	12.47	-35.0	-36.2	29.5	3.02e+01	56	33	0	1005060096	44	6234
2026-01-07 03:43:56.83	322.22	12.39	-35.0	-36.2	29.5	3.02e+01	61	33	0	1006632960	44	6253
2026-01-07 03:43:57.84	322.36	12.31	-35.1	-36.4	29.3	3.02e+01	59	34	0	1008730112	44	6358
2026-01-07 03:43:58.85	322.51	12.23	-35.2	-36.4	29.3	3.02e+01	54	33	0	1010302976	44	6359
2026-01-07 03:43:59.86	322.65	12.15	-35.2	-36.4	29.3	3.02e+01	58	33	0	1012400128	44	6395
2026-01-07 03:44:00.87	322.80	12.07	-35.0	-36.2	29.4	3.02e+01	61	33	0	1014497280	44	6274
2026-01-07 03:44:01.88	322.94	12.00	-35.2	-36.4	29.2	3.02e+01	57	33	0	1016070144	44	6418
2026-01-07 03:44:02.88	323.08	11.92	-35.0	-36.2	29.5	3.02e+01	59	33	0	1018167296	44	6222
2026-01-07 03:44:03.89	323.22	11.84	-35.1	-36.3	29.3	3.02e+01	45	33	0	1019740160	44	6325
2026-01-07 03:44:04.90	323.36	11.76	-35.1	-36.3	29.3	3.02e+01	60	33	0	1021837312	44	6341
2026-01-07 03:44:05.91	323.50	11.68	-35.1	-36.3	29.4	3.02e+01	60	33	0	1023934464	44	6322
2026-01-07 03:44:06.92	323.64	11.60	-35.2	-36.4	29.3	3.02e+01	59	33	0	1025507328	44	6390
2026-01-07 03:44:07.93	323.78	11.53	-35.1	-36.3	29.3	3.02e+01	58	33	0	1027604480	44	6319
2026-01-07 03:44:08.95	323.92	11.45	-35.2	-36.4	29.2	3.02e+01	53	33	0	1029701632	44	6372
2026-01-07 03:44:09.96	324.06	11.37	-35.2	-36.4	29.1	3.02e+01	59	33	0	1031274496	44	6420
2026-01-07 03:44:10.97	324.19	11.29	-35.1	-36.3	29.3	3.02e+01	59	33	0	1033371648	44	6289
2026-01-07 03:44:11.98	324.33	11.21	-35.1	-36.4	29.2	3.02e+01	50	33	0	1034944512	44	6352
2026-01-07 03:44:12.99	324.46	11.14	-35.2	-36.4	29.3	3.02e+01	56	33	0	1037041664	44	6379
2026-01-07 03:44:14.00	324.60	11.06	-35.3	-36.5	29.1	3.02e+01	61	33	0	1039138816	44	6470
2026-01-07 03:44:15.01	324.73	10.98	-35.3	-36.5	29.1	3.02e+01	61	33	0	1040711680	44	6453
2026-01-07 03:44:16.02	324.86	10.91	-35.3	-36.5	29.1	3.02e+01	60	33	0	1042808832	44	6443
2026-01-07 03:44:17.02	324.99	10.83	-35.3	-36.5	29.2	3.02e+01	58	33	0	1044381696	44	6456
2026-01-07 03:44:18.03	325.12	10.75	-35.5	-36.7	28.9	3.02e+01	55	33	0	1046478848	44	6647
2026-01-07 03:44:19.04	325.25	10.68	-35.3	-36.5	29.1	3.02e+01	59	33	0	1048576000	44	6482
2026-01-07 03:44:20.05	325.38	10.60	-35.2	-36.5	29.2	3.02e+01	50	33	0	1050148864	44	6428
2026-01-07 03:44:21.06	325.51	10.52	-35.3	-36.6	29.1	3.02e+01	62	34	0	1052246016	44	6505
2026-01-07 03:44:22.07	325.64	10.45	-35.4	-36.7	29.0	3.02e+01	59	33	0	1053818880	44	6588
2026-01-07 03:44:23.08	325.77	10.37	-35.6	-36.8	28.9	3.02e+01	63	33	0	1055916032	44	6713
2026-01-07 03:44:24.08	325.89	10.30	-35.6	-36.8	28.8	3.02e+01	61	33	0	1058013184	44	6714
2026-01-07 03:44:25.09	326.02	10.22	-35.7	-36.9	28.8	3.02e+01	51	33	0	1059586048	44	6764
2026-01-07 03:44:26.10	326.15	10.15	-35.6	-36.8	28.8	3.02e+01	61	33	0	1061683200	44	6719
2026-01-07 03:44:27.11	326.27	10.07	-35.6	-36.8	28.8	3.02e+01	56	33	0	1063256064	44	6697
2026-01-07 03:44:28.12	326.39	10.00	-35.6	-36.9	28.8	3.02e+01	46	33	0	1065353216	44	6730
2026-01-07 03:44:29.13	326.52	9.92	-35.6	-36.9	28.7	3.02e+01	59	33	0	1067450368	44	6749
2026-01-07 03:44:30.14	326.64	9.85	-35.6	-36.9	28.8	3.02e+01	58	33	0	1069023232	44	6729
2026-01-07 03:44:31.15	326.76	9.77	-35.6	-36.9	28.8	3.02e+01	60	33	0	1071120384	44	6731
2026-01-07 03:44:32.16	326.88	9.70	-35.6	-36.9	28.8	3.02e+01	58	33	0	1073217536	44	6735
2026-01-07 03:44:33.17	327.01	9.62	-35.6	-36.8	28.8	3.02e+01	52	33	0	1074790400	44	6726
2026-01-07 03:44:34.18	327.13	9.55	-35.7	-36.9	28.7	3.02e+01	57	33	0	1076887552	44	6799
2026-01-07 03:44:35.19	327.25	9.47	-35.6	-36.9	28.7	3.02e+01	58	33	0	1078460416	44	6757
2026-01-07 03:44:36.20	327.36	9.40	-35.7	-36.9	28.6	3.02e+01	60	33	0	1080557568	44	6795
2026-01-07 03:44:37.21	327.48	9.33	-35.7	-37.0	28.6	3.02e+01	60	33	0	1082654720	44	6814
2026-01-07 03:44:38.22	327.60	9.25	-35.7	-37.0	28.5	3.02e+01	47	33	0	1084227584	44	6814
2026-01-07 03:44:39.23	327.72	9.18	-35.7	-37.0	28.5	3.02e+01	59	33	0	1086324736	44	6836
2026-01-07 03:44:40.24	327.83	9.11	-35.8	-37.1	28.5	3.02e+01	55	33	0	1087897600	44	6904
2026-01-07 03:44:41.24	327.95	9.03	-35.9	-37.1	28.5	3.02e+01	52	33	0	1089994752	46	6194
2026-01-07 03:44:42.25	328.06	8.96	-36.0	-37.2	28.4	3.02e+01	57	33	0	1092091904	46	6256
2026-01-07 03:44:43.26	328.18	8.89	-36.0	-37.2	28.4	3.02e+01	59	33	0	1093664768	46	6255
2026-01-07 03:44:44.27	328.29	8.82	-36.1	-37.3	28.3	3.02e+01	59	33	0	1095761920	46	6318
2026-01-07 03:44:45.28	328.41	8.74	-35.9	-37.2	28.5	3.02e+01	59	33	0	1097859072	46	6216
2026-01-07 03:44:46.29	328.52	8.67	-36.2	-37.5	28.2	3.02e+01	58	33	0	1099431936	46	6431
2026-01-07 03:44:47.30	328.63	8.60	-35.9	-37.1	28.5	3.02e+01	59	33	0	1101529088	46	6170
2026-01-07 03:44:48.31	328.74	8.53	-36.0	-37.2	28.5	3.02e+01	58	33	0	1103101952	46	6257
2026-01-07 03:44:49.32	328.86	8.45	-35.9	-37.2	28.4	3.02e+01	46	33	0	1105199104	46	6208
2026-01-07 03:44:50.33	328.97	8.38	-36.3	-37.6	28.2	3.02e+01	62	33	0	1107296256	46	6519
2026-01-07 03:44:51.34	329.08	8.31	-36.4	-37.7	27.8	3.02e+01	61	33	0	1108869120	46	6581
2026-01-07 03:44:52.35	329.19	8.24	-36.6	-37.8	27.7	3.02e+01	57	33	0	1110966272	46	6722
2026-01-07 03:44:53.36	329.29	8.17	-36.8	-38.2	27.7	3.02e+01	58	33	0	1112539136	46	6966
2026-01-07 03:44:54.37	329.40	8.10	-36.6	-37.9	27.9	3.02e+01	55	33	0	1114636288	46	6770
2026-01-07 03:44:55.37	329.51	8.02	-36.7	-38.0	27.7	3.02e+01	59	33	0	1116209152	46	6853
2026-01-07 03:44:56.39	329.62	7.95	-36.9	-47.1	3.4	3.02e+01	0	34	104	1118306304	46	19518
2026-01-07 03:44:57.39	329.72	7.88	-37.0	-47.2	3.4	3.02e+01	0	33	104	1118306304	48	17651
2026-01-07 03:44:58.40	329.83	7.81	-36.7	-46.9	3.6	3.02e+01	0	33	104	1118306304	48	17061
2026-01-07 03:44:59.41	329.94	7.74	-36.7	-46.8	3.6	3.02e+01	0	33	104	1118306304	48	16838
2026-01-07 03:45:00.42	330.04	7.67	-37.4	-47.6	3.6	3.02e+01	0	33	104	1118306304	48	18449
2026-01-07 03:45:01.43	330.15	7.60	-37.9	-48.1	3.6	3.02e+01	0	33	104	1118306304	54	13833
2026-01-07 03:45:02.44	330.25	7.53	-48.1	-64.0	3.5	3.02e+01	0	34	104	1118306304	60	61115
2026-01-07 03:45:03.45	330.35	7.46	-45.4	-57.7	3.5	3.02e+01	0	34	104	1118306304	60	29611
2026-01-07 03:45:04.46	330.46	7.39	-40.5	-51.0	3.6	3.02e+01	0	33	104	1118306304	54	19276
2026-01-07 03:45:05.47	330.56	7.32	-39.2	-49.6	3.6	3.02e+01	0	33	104	1118306304	54	16430
2026-01-07 03:45:06.48	330.66	7.25	-38.2	-48.5	3.6	3.02e+01	0	34	104	1118306304	52	16311
2026-01-07 03:45:07.49	330.76	7.18	-37.8	-48.1	3.6	3.02e+01	0	34	104	1118306304	50	17407
2026-01-07 03:45:08.50	330.86	7.11	-37.9	-48.2	3.4	3.02e+01	0	33	104	1118306304	50	17608
2026-01-07 03:45:09.51	330.96	7.04	-38.3	-48.7	3.6	3.02e+01	0	33	104	1118306304	50	18672
2026-01-07 03:45:10.52	331.06	6.97	-37.3	-47.6	3.4	3.02e+01	0	34	104	1118306304	50	16397
2026-01-07 03:45:11.53	331.16	6.91	-47.5	-62.5	3.5	3.02e+01	0	34	104	1118306304	60	51182
2026-01-07 03:45:12.54	331.26	6.84	-38.7	-49.1	3.4	3.02e+01	0	34	104	1118306304	58	12262
2026-01-07 03:45:13.55	331.36	6.77	-40.7	-51.3	3.4	3.02e+01	0	33	104	1118306304	56	17880
2026-01-07 03:45:14.56	331.46	6.70	-38.1	-48.5	4.1	3.02e+01	0	34	104	1118306304	52	16180
2026-01-07 03:45:15.56	331.56	6.63	-37.7	-48.0	4.1	3.02e+01	0	34	104	1118306304	50	17121
2026-01-07 03:45:16.58	331.66	6.56	-37.5	-47.7	4.1	3.02e+01	0	34	104	1118306304	50	16700
2026-01-07 03:45:17.59	331.75	6.49	-37.5	-47.7	3.5	3.02e+01	0	33	104	1118306304	50	16702
2026-01-07 03:45:18.60	331.85	6.43	-38.1	-48.5	3.5	3.02e+01	0	33	104	1118306304	50	18252
2026-01-07 03:45:19.61	331.94	6.36	-39.2	-49.7	3.5	3.02e+01	0	33	104	1118306304	50	20911
2026-01-07 03:45:20.62	332.04	6.29	-47.8	-64.2	3.5	3.02e+01	0	34	104	1118306304	60	62337
2026-01-07 03:45:21.63	332.13	6.22	-41.3	-52.1	3.5	3.02e+01	0	34	104	1118306304	60	15547
2026-01-07 03:45:22.64	332.23	6.16	-40.4	-51.0	3.5	3.02e+01	0	33	104	1118306304	54	19207
2026-01-07 03:45:23.65	332.32	6.09	-40.7	-51.3	3.5	3.02e+01	0	34	104	1118306304	54	19960
2026-01-07 03:45:24.66	332.42	6.02	-39.8	-50.3	3.5	3.02e+01	0	34	104	1118306304	54	17714
2026-01-07 03:45:25.67	332.51	5.96	-39.9	-50.4	3.5	3.02e+01	0	34	104	1118306304	54	17901
2026-01-07 03:45:26.68	332.60	5.89	-39.6	-50.0	3.5	3.02e+01	0	33	104	1118306304	54	17111
2026-01-07 03:45:27.68	332.69	5.82	-39.7	-50.1	3.5	3.02e+01	0	34	104	1118306304	54	17407
2026-01-07 03:45:28.69	332.79	5.76	-41.9	-53.1	3.8	3.02e+01	0	34	104	1118306304	54	24527
2026-01-07 03:45:29.70	332.88	5.69	-45.3	-59.6	3.5	3.02e+01	0	34	104	1118306304	60	36614
2026-01-07 03:45:30.71	332.97	5.62	-39.1	-49.6	3.5	3.02e+01	0	34	104	1118306304	50	20549
2026-01-07 03:45:31.71	333.06	5.56	-41.2	-52.0	3.5	3.02e+01	0	34	104	1118306304	60	15243
2026-01-07 03:45:32.72	333.15	5.49	-40.3	-50.9	3.5	3.02e+01	0	34	104	1118306304	56	17044
2026-01-07 03:45:33.73	333.24	5.43	-40.4	-51.1	3.5	3.02e+01	0	34	104	1118306304	56	17380
2026-01-07 03:45:34.74	333.33	5.36	-40.8	-51.8	3.5	3.02e+01	0	34	104	1118306304	56	18773
