passes_logs/2026/01/07/R4.6S_Anadyr/R4.6S_Anadyr__20260107_173516_NOAA_20_JPSS-1_rec.log

#Pass ID: 20260107_173516_NOAA 20 (JPSS-1)
#Satellite: NOAA 20 (JPSS-1)
#Configuration: NOAA 20
#almurnet v.1.7.20251203
#Start time: 2026-01-07 17:35:17

#Version: 2.2.20231116
#Station: R4.6S_Anadyr
#Location: 177.4865 lon 64.73178 lat
#TLE: 1 43013U 17073A   26005.46207808  .00000128  00000+0  81791-4 0  9997
#TLE: 2 43013  98.7627 306.5027 0001826  53.0458 307.0885 14.19533487421381

#Time	Az	El	Level	Level2	SNR	BER	BlckErr	Temp	State	Recorded	gain1	gain2
2026-01-07 17:35:17.40	33.04	0.04	-47.8	-62.7	3.5	1.51e+00	0	35	0	0	60	49141
2026-01-07 17:35:18.40	32.98	0.09	-48.7	-63.8	3.6	1.51e+00	0	37	104	0	60	56269
2026-01-07 17:35:19.41	32.92	0.15	-48.9	-64.1	3.6	1.51e+00	0	37	104	0	60	57693
2026-01-07 17:35:20.42	32.86	0.20	-49.0	-64.1	3.6	1.51e+00	0	37	104	0	60	58257
2026-01-07 17:35:21.43	32.79	0.25	-49.1	-64.2	3.6	1.51e+00	0	37	104	0	60	58807
2026-01-07 17:35:22.44	32.73	0.31	-49.1	-64.3	3.6	1.51e+00	0	37	104	0	60	59638
2026-01-07 17:35:23.45	32.67	0.36	-49.2	-64.4	3.6	1.51e+00	0	37	104	0	60	60001
2026-01-07 17:35:24.46	32.61	0.41	-49.2	-64.5	3.6	1.51e+00	0	37	104	0	60	60409
2026-01-07 17:35:25.47	32.54	0.47	-49.3	-64.5	3.6	1.51e+00	0	37	104	0	60	60553
2026-01-07 17:35:26.48	32.48	0.52	-49.3	-64.4	3.6	1.51e+00	0	37	104	0	60	60296
2026-01-07 17:35:27.49	32.42	0.57	-49.3	-64.5	3.6	1.51e+00	0	37	104	0	60	60426
2026-01-07 17:35:28.48	32.35	0.63	-49.3	-64.5	3.6	1.51e+00	0	37	104	0	60	60476
2026-01-07 17:35:29.49	32.29	0.68	-49.3	-64.6	3.6	1.51e+00	0	37	104	0	60	61122
2026-01-07 17:35:30.51	32.23	0.73	-49.3	-64.5	3.6	1.51e+00	0	37	104	0	60	60974
2026-01-07 17:35:31.52	32.16	0.79	-49.4	-64.6	3.6	1.51e+00	0	37	104	0	60	61287
2026-01-07 17:35:32.53	32.10	0.84	-49.4	-64.6	3.6	1.51e+00	0	37	104	0	60	61302
2026-01-07 17:35:33.54	32.03	0.90	-49.3	-64.6	3.6	1.51e+00	0	37	104	0	60	61446
2026-01-07 17:35:34.55	31.97	0.95	-49.3	-64.6	3.6	1.51e+00	0	37	104	0	60	61478
2026-01-07 17:35:35.56	31.90	1.01	-49.3	-64.6	3.6	1.51e+00	0	37	104	0	60	61055
2026-01-07 17:35:36.57	31.83	1.06	-49.4	-64.6	3.6	1.51e+00	0	37	104	0	60	61263
2026-01-07 17:35:37.58	31.77	1.11	-49.4	-64.5	3.6	1.51e+00	0	37	104	0	60	60974
2026-01-07 17:35:38.59	31.70	1.17	-49.4	-64.6	3.6	1.51e+00	0	37	104	0	60	61178
2026-01-07 17:35:39.60	31.64	1.22	-49.4	-64.6	3.6	1.51e+00	0	37	104	0	60	61388
2026-01-07 17:35:40.61	31.57	1.28	-49.4	-64.6	3.6	1.51e+00	0	37	104	0	60	61116
2026-01-07 17:35:41.62	31.50	1.33	-49.4	-64.5	3.6	1.51e+00	0	37	104	0	60	60932
2026-01-07 17:35:42.63	31.43	1.39	-49.4	-64.6	3.6	1.51e+00	0	37	104	0	60	61217
2026-01-07 17:35:43.64	31.37	1.44	-49.4	-64.5	3.6	1.51e+00	0	37	104	0	60	60887
2026-01-07 17:35:44.65	31.30	1.50	-49.4	-64.6	3.6	1.51e+00	0	37	104	0	60	61192
2026-01-07 17:35:45.66	31.23	1.55	-49.4	-64.6	3.6	1.51e+00	0	37	104	0	60	61263
2026-01-07 17:35:46.67	31.16	1.61	-49.4	-64.6	3.6	1.51e+00	0	37	104	0	60	61216
2026-01-07 17:35:47.68	31.09	1.66	-49.4	-64.6	3.6	1.51e+00	0	37	104	0	60	61200
2026-01-07 17:35:48.69	31.03	1.72	-49.4	-64.6	3.6	1.51e+00	0	37	104	0	60	61069
2026-01-07 17:35:49.70	30.96	1.77	-49.4	-64.6	3.6	1.51e+00	0	37	104	0	60	61404
2026-01-07 17:35:50.70	30.89	1.83	-49.4	-64.6	3.6	1.51e+00	0	37	104	0	60	61041
2026-01-07 17:35:51.71	30.82	1.88	-49.4	-64.5	3.6	1.51e+00	0	37	104	0	60	61012
2026-01-07 17:35:52.72	30.75	1.94	-49.4	-64.6	3.6	1.51e+00	0	37	104	0	60	61208
2026-01-07 17:35:53.73	30.68	1.99	-49.4	-64.5	3.6	1.51e+00	0	37	104	0	60	60758
2026-01-07 17:35:54.74	30.61	2.05	-49.4	-64.6	3.6	1.51e+00	0	37	104	0	60	61046
2026-01-07 17:35:55.75	30.54	2.10	-49.4	-64.5	3.6	1.51e+00	0	37	104	0	60	60969
2026-01-07 17:35:56.76	30.47	2.16	-49.4	-64.5	3.6	1.51e+00	0	37	104	0	60	60964
2026-01-07 17:35:57.77	30.39	2.21	-49.4	-64.6	3.6	1.51e+00	0	37	104	0	60	61144
2026-01-07 17:35:58.78	30.32	2.27	-49.3	-64.6	3.6	1.51e+00	0	37	104	0	60	61251
2026-01-07 17:35:59.79	30.25	2.32	-49.3	-64.6	3.6	1.51e+00	0	37	104	0	60	61136
2026-01-07 17:36:00.81	30.18	2.38	-49.4	-64.5	3.6	1.51e+00	0	37	104	0	60	60854
2026-01-07 17:36:01.82	30.10	2.44	-49.4	-64.6	3.6	1.51e+00	0	37	104	0	60	61078
2026-01-07 17:36:02.83	30.03	2.49	-49.4	-64.6	3.6	1.51e+00	0	37	104	0	60	61265
2026-01-07 17:36:03.84	29.96	2.55	-49.3	-64.5	3.6	1.51e+00	0	37	104	0	60	60938
2026-01-07 17:36:04.85	29.89	2.61	-49.3	-64.5	3.6	1.51e+00	0	37	104	0	60	60823
2026-01-07 17:36:05.86	29.81	2.66	-49.4	-64.5	3.6	1.51e+00	0	37	104	0	60	60958
2026-01-07 17:36:06.87	29.74	2.72	-49.3	-64.6	3.6	1.51e+00	0	38	104	0	60	61232
2026-01-07 17:36:07.88	29.66	2.77	-49.3	-64.5	3.6	1.51e+00	0	38	104	0	60	60968
2026-01-07 17:36:08.89	29.59	2.83	-49.4	-64.6	3.6	1.51e+00	0	37	104	0	60	61200
2026-01-07 17:36:09.90	29.51	2.89	-49.3	-64.5	3.6	1.51e+00	0	37	104	0	60	60939
2026-01-07 17:36:10.91	29.44	2.94	-49.4	-64.5	3.6	1.51e+00	0	37	104	0	60	60680
2026-01-07 17:36:11.92	29.36	3.00	-49.3	-64.6	3.6	1.51e+00	0	37	104	0	60	61420
2026-01-07 17:36:12.93	29.29	3.06	-49.4	-64.5	3.6	1.51e+00	0	37	104	0	60	60999
2026-01-07 17:36:13.94	29.21	3.11	-49.3	-64.6	3.6	1.51e+00	0	37	104	0	60	61080
2026-01-07 17:36:14.94	29.14	3.17	-49.3	-64.6	3.6	1.51e+00	0	37	104	0	60	61176
2026-01-07 17:36:15.95	29.06	3.23	-49.3	-64.6	3.6	1.51e+00	0	37	104	0	60	61107
2026-01-07 17:36:16.96	28.98	3.28	-49.4	-64.5	3.6	1.51e+00	0	37	104	0	60	61009
2026-01-07 17:36:17.97	28.90	3.34	-49.3	-64.6	3.6	1.51e+00	0	37	104	0	60	61287
2026-01-07 17:36:18.98	28.83	3.40	-49.3	-64.5	3.5	1.51e+00	0	38	104	0	60	61022
2026-01-07 17:36:19.99	28.75	3.45	-49.3	-64.6	3.6	1.51e+00	0	38	104	0	60	61181
2026-01-07 17:36:21.00	28.67	3.51	-49.4	-64.6	3.6	1.51e+00	0	37	104	0	60	61254
2026-01-07 17:36:22.01	28.59	3.57	-49.4	-64.5	3.6	1.51e+00	0	37	104	0	60	60999
2026-01-07 17:36:23.02	28.51	3.63	-49.3	-64.6	3.6	1.51e+00	0	37	104	0	60	61111
2026-01-07 17:36:24.03	28.43	3.68	-49.3	-64.6	3.6	1.51e+00	0	37	104	0	60	61148
2026-01-07 17:36:25.04	28.35	3.74	-49.4	-64.6	3.6	1.51e+00	0	38	104	0	60	61072
2026-01-07 17:36:26.05	28.27	3.80	-49.4	-64.5	3.5	1.51e+00	0	37	104	0	60	60945
2026-01-07 17:36:27.06	28.19	3.86	-49.3	-64.5	3.6	1.51e+00	0	37	104	0	60	60684
2026-01-07 17:36:28.07	28.11	3.91	-49.3	-64.6	3.6	1.51e+00	0	38	104	0	60	61061
2026-01-07 17:36:29.08	28.03	3.97	-49.3	-64.5	3.6	1.51e+00	0	38	104	0	60	61001
2026-01-07 17:36:30.09	27.95	4.03	-49.4	-64.6	3.6	1.51e+00	0	37	104	0	60	61288
2026-01-07 17:36:31.09	27.87	4.09	-49.4	-64.6	3.6	1.51e+00	0	37	104	0	60	61230
2026-01-07 17:36:32.11	27.79	4.14	-49.3	-64.5	3.6	1.51e+00	0	38	104	0	60	60806
2026-01-07 17:36:33.11	27.71	4.20	-49.4	-64.6	3.6	1.51e+00	0	38	104	0	60	61049
2026-01-07 17:36:34.12	27.62	4.26	-49.3	-64.6	3.6	1.51e+00	0	38	104	0	60	61056
2026-01-07 17:36:35.13	27.54	4.32	-49.3	-64.6	3.6	1.51e+00	0	38	104	0	60	61103
2026-01-07 17:36:36.14	27.46	4.38	-49.3	-64.5	3.6	1.51e+00	0	38	104	0	60	61015
2026-01-07 17:36:37.15	27.37	4.43	-49.4	-64.5	3.6	1.51e+00	0	38	104	0	60	60869
2026-01-07 17:36:38.16	27.29	4.49	-49.4	-64.6	3.6	1.51e+00	0	38	104	0	60	61168
2026-01-07 17:36:39.17	27.21	4.55	-49.3	-64.6	3.6	1.51e+00	0	38	104	0	60	61388
2026-01-07 17:36:40.18	27.12	4.61	-49.3	-64.5	3.6	1.51e+00	0	38	104	0	60	60849
2026-01-07 17:36:41.19	27.04	4.67	-49.4	-64.6	3.6	1.51e+00	0	38	104	0	60	61134
2026-01-07 17:36:42.20	26.95	4.73	-49.3	-64.5	3.6	1.51e+00	0	38	104	0	60	60982
2026-01-07 17:36:43.21	26.87	4.79	-49.3	-64.6	3.6	1.51e+00	0	38	104	0	60	61201
2026-01-07 17:36:44.22	26.78	4.84	-49.4	-64.6	3.6	1.51e+00	0	38	104	0	60	61277
2026-01-07 17:36:45.23	26.69	4.90	-49.4	-64.6	3.6	1.51e+00	0	38	104	0	60	61187
2026-01-07 17:36:46.24	26.61	4.96	-49.3	-64.6	3.6	1.51e+00	0	38	104	0	60	61046
2026-01-07 17:36:47.25	26.52	5.02	-49.3	-64.6	3.6	1.51e+00	0	38	104	0	60	61185
2026-01-07 17:36:48.26	26.43	5.08	-49.3	-64.6	3.6	1.51e+00	0	38	104	0	60	61334
2026-01-07 17:36:49.27	26.34	5.14	-49.4	-64.6	3.6	1.51e+00	0	38	104	0	60	61263
2026-01-07 17:36:50.28	26.25	5.20	-49.3	-64.5	3.6	1.51e+00	0	38	104	0	60	61002
2026-01-07 17:36:51.29	26.17	5.26	-49.3	-64.6	3.6	1.51e+00	0	38	104	0	60	61159
2026-01-07 17:36:52.30	26.08	5.32	-49.3	-64.6	3.6	1.51e+00	0	38	104	0	60	61417
2026-01-07 17:36:53.31	25.99	5.38	-49.3	-64.5	3.6	1.51e+00	0	38	104	0	60	61029
2026-01-07 17:36:54.32	25.90	5.44	-49.3	-64.6	3.6	1.51e+00	0	38	104	0	60	61073
2026-01-07 17:36:55.32	25.81	5.49	-49.3	-64.5	3.6	1.51e+00	0	38	104	0	60	60825
2026-01-07 17:36:56.33	25.72	5.55	-49.3	-64.6	3.6	1.51e+00	0	38	104	0	60	61100
2026-01-07 17:36:57.34	25.63	5.61	-49.3	-64.5	3.6	1.51e+00	0	38	104	0	60	60956
2026-01-07 17:36:58.35	25.54	5.67	-49.3	-64.6	3.6	1.51e+00	0	38	104	0	60	61060
2026-01-07 17:36:59.36	25.44	5.73	-49.3	-64.5	3.6	1.51e+00	0	38	104	0	60	60969
2026-01-07 17:37:00.37	25.35	5.79	-49.3	-64.6	3.6	1.51e+00	0	38	104	0	60	61260
2026-01-07 17:37:01.38	25.26	5.85	-49.3	-64.5	3.6	1.51e+00	0	38	104	0	60	60991
2026-01-07 17:37:02.39	25.17	5.91	-49.3	-64.6	3.6	1.51e+00	0	38	104	0	60	61278
2026-01-07 17:37:03.40	25.07	5.97	-49.3	-64.6	3.6	1.51e+00	0	38	104	0	60	61218
2026-01-07 17:37:04.41	24.98	6.03	-49.3	-64.6	3.6	1.51e+00	0	38	104	0	60	61166
2026-01-07 17:37:05.42	24.89	6.09	-49.3	-64.5	3.6	1.51e+00	0	38	104	0	60	60806
2026-01-07 17:37:06.43	24.79	6.15	-49.3	-64.6	3.6	1.51e+00	0	38	104	0	60	61396
2026-01-07 17:37:07.44	24.70	6.21	-49.3	-64.5	3.6	1.51e+00	0	38	104	0	60	60969
2026-01-07 17:37:08.45	24.60	6.27	-49.3	-64.5	3.6	1.51e+00	0	38	104	0	60	61028
2026-01-07 17:37:09.46	24.50	6.33	-49.3	-64.6	3.6	1.51e+00	0	38	104	0	60	61158
2026-01-07 17:37:10.47	24.41	6.39	-49.3	-64.5	3.6	1.51e+00	0	38	104	0	60	60992
2026-01-07 17:37:11.48	24.31	6.45	-49.3	-64.5	3.6	1.51e+00	0	38	104	0	60	60845
2026-01-07 17:37:12.49	24.22	6.52	-49.3	-64.6	3.6	1.51e+00	0	38	104	0	60	61053
2026-01-07 17:37:13.50	24.12	6.58	-49.3	-64.5	3.6	1.51e+00	0	38	104	0	60	60553
2026-01-07 17:37:14.51	24.02	6.64	-49.3	-64.5	3.6	1.51e+00	0	38	104	0	60	60932
2026-01-07 17:37:15.52	23.92	6.70	-49.3	-64.6	3.6	1.51e+00	0	38	104	0	60	61157
2026-01-07 17:37:16.53	23.82	6.76	-49.3	-64.6	3.6	1.51e+00	0	38	104	0	60	61064
2026-01-07 17:37:17.54	23.72	6.82	-49.4	-64.6	3.6	1.51e+00	0	38	104	0	60	61093
2026-01-07 17:37:18.55	23.62	6.88	-49.3	-64.6	3.6	1.51e+00	0	38	104	0	60	61114
2026-01-07 17:37:19.56	23.52	6.94	-49.3	-64.5	3.6	1.51e+00	0	38	104	0	60	60817
2026-01-07 17:37:20.57	23.42	7.00	-49.3	-64.5	3.6	1.51e+00	0	38	104	0	60	60838
2026-01-07 17:37:21.58	23.32	7.06	-49.3	-64.6	3.6	1.51e+00	0	38	104	0	60	61202
2026-01-07 17:37:22.60	23.22	7.12	-49.3	-64.6	3.6	1.51e+00	0	38	104	0	60	61196
2026-01-07 17:37:23.61	23.12	7.19	-49.3	-64.5	3.6	1.51e+00	0	38	104	0	60	60954
2026-01-07 17:37:24.61	23.02	7.25	-49.3	-64.6	3.6	1.51e+00	0	38	104	0	60	61187
2026-01-07 17:37:25.63	22.91	7.31	-49.3	-64.6	3.6	1.51e+00	0	38	104	0	60	61202
2026-01-07 17:37:26.64	22.81	7.37	-49.3	-64.6	3.6	1.51e+00	0	38	104	0	60	61068
2026-01-07 17:37:27.64	22.71	7.43	-49.3	-64.5	3.6	1.51e+00	0	38	104	0	60	60951
2026-01-07 17:37:28.65	22.60	7.49	-49.3	-64.5	3.6	1.51e+00	0	38	104	0	60	60720
2026-01-07 17:37:29.66	22.50	7.55	-49.3	-64.5	3.6	1.51e+00	0	38	104	0	60	61011
2026-01-07 17:37:30.67	22.40	7.62	-49.3	-64.5	3.6	1.51e+00	0	38	104	0	60	61022
2026-01-07 17:37:31.68	22.29	7.68	-49.3	-64.5	3.6	1.51e+00	0	38	104	0	60	60765
2026-01-07 17:37:32.69	22.18	7.74	-49.3	-64.5	3.6	1.51e+00	0	38	104	0	60	60901
2026-01-07 17:37:33.70	22.08	7.80	-49.3	-64.5	3.6	1.51e+00	0	38	104	0	60	60975
2026-01-07 17:37:34.71	21.97	7.86	-49.3	-64.6	3.6	1.51e+00	0	38	104	0	60	61107
2026-01-07 17:37:35.72	21.86	7.92	-49.3	-64.5	3.6	1.51e+00	0	38	104	0	60	60983
2026-01-07 17:37:36.73	21.76	7.99	-49.3	-64.6	3.6	1.51e+00	0	38	104	0	60	61050
2026-01-07 17:37:37.74	21.65	8.05	-49.3	-64.6	3.6	1.51e+00	0	38	104	0	60	61047
2026-01-07 17:37:38.75	21.54	8.11	-49.3	-64.5	3.6	1.51e+00	0	38	104	0	60	60993
2026-01-07 17:37:39.76	21.43	8.17	-49.3	-64.5	3.6	1.51e+00	0	38	104	0	60	60881
2026-01-07 17:37:40.77	21.32	8.24	-49.3	-64.6	3.6	1.51e+00	0	38	104	0	60	61182
2026-01-07 17:37:41.78	21.21	8.30	-49.3	-64.6	3.6	1.51e+00	0	38	104	0	60	61185
2026-01-07 17:37:42.79	21.10	8.36	-49.3	-64.5	3.6	1.51e+00	0	38	104	0	60	60954
2026-01-07 17:37:43.80	20.99	8.42	-49.3	-64.5	3.6	1.51e+00	0	38	104	0	60	60902
2026-01-07 17:37:44.81	20.88	8.48	-49.3	-64.6	3.6	1.51e+00	0	38	104	0	60	61213
2026-01-07 17:37:45.82	20.77	8.55	-49.3	-64.6	3.6	1.51e+00	0	38	104	0	60	61193
2026-01-07 17:37:46.83	20.65	8.61	-49.3	-64.5	3.6	1.51e+00	0	38	104	0	60	60900
2026-01-07 17:37:47.84	20.54	8.67	-49.3	-64.5	3.6	1.51e+00	0	38	104	0	60	60970
2026-01-07 17:37:48.85	20.43	8.73	-49.3	-64.6	3.6	1.51e+00	0	38	104	0	60	61086
2026-01-07 17:37:49.86	20.31	8.80	-49.3	-64.5	3.6	1.51e+00	0	38	104	0	60	60720
2026-01-07 17:37:50.87	20.20	8.86	-49.3	-64.5	3.6	1.51e+00	0	38	104	0	60	60916
2026-01-07 17:37:51.88	20.08	8.92	-49.3	-64.6	3.6	1.51e+00	0	38	104	0	60	61402
2026-01-07 17:37:52.89	19.97	8.99	-49.3	-64.5	3.6	1.51e+00	0	38	104	0	60	60981
2026-01-07 17:37:53.90	19.85	9.05	-49.3	-64.6	3.6	1.51e+00	0	38	104	0	60	61059
2026-01-07 17:37:54.90	19.74	9.11	-49.3	-64.5	3.6	1.51e+00	0	38	104	0	60	60956
2026-01-07 17:37:55.91	19.62	9.17	-49.3	-64.6	3.6	1.51e+00	0	38	104	0	60	61291
2026-01-07 17:37:56.92	19.50	9.24	-49.3	-64.5	3.6	1.51e+00	0	38	104	0	60	60777
2026-01-07 17:37:57.93	19.38	9.30	-49.3	-64.5	3.6	1.51e+00	0	38	104	0	60	60932
2026-01-07 17:37:58.94	19.27	9.36	-49.3	-64.5	3.6	1.51e+00	0	38	104	0	60	60925
2026-01-07 17:37:59.95	19.15	9.43	-49.3	-64.5	3.6	1.51e+00	0	38	104	0	60	60799
2026-01-07 17:38:00.96	19.03	9.49	-49.3	-64.6	3.6	1.51e+00	0	38	104	0	60	61135
2026-01-07 17:38:01.97	18.91	9.55	-49.3	-64.5	3.6	1.51e+00	0	38	104	0	60	60973
2026-01-07 17:38:02.98	18.79	9.61	-49.3	-64.6	3.6	1.51e+00	0	38	104	0	60	61040
2026-01-07 17:38:03.99	18.66	9.68	-49.3	-64.5	3.6	1.51e+00	0	38	104	0	60	60641
2026-01-07 17:38:05.01	18.54	9.74	-49.3	-64.5	3.6	1.51e+00	0	38	104	0	60	60852
2026-01-07 17:38:06.02	18.42	9.80	-49.3	-64.5	3.6	1.51e+00	0	38	104	0	60	61001
2026-01-07 17:38:07.02	18.30	9.87	-49.3	-64.5	3.6	1.51e+00	0	38	104	0	60	60808
2026-01-07 17:38:08.03	18.17	9.93	-49.4	-64.5	3.6	1.51e+00	0	38	104	0	60	61028
2026-01-07 17:38:09.05	18.05	9.99	-49.3	-64.6	3.6	1.51e+00	0	38	104	0	60	61199
2026-01-07 17:38:10.06	17.92	10.06	-49.3	-64.5	3.6	1.51e+00	0	38	104	0	60	61025
2026-01-07 17:38:11.06	17.80	10.12	-49.3	-64.5	3.6	1.51e+00	0	38	104	0	60	61018
2026-01-07 17:38:12.07	17.67	10.18	-49.3	-64.6	3.6	1.51e+00	0	38	104	0	60	61295
2026-01-07 17:38:13.08	17.55	10.25	-49.3	-64.5	3.6	1.51e+00	0	38	104	0	60	60855
2026-01-07 17:38:14.09	17.42	10.31	-49.3	-64.5	3.6	1.51e+00	0	38	104	0	60	60882
2026-01-07 17:38:15.10	17.29	10.37	-49.3	-64.5	3.6	1.51e+00	0	38	104	0	60	60974
2026-01-07 17:38:16.12	17.16	10.44	-49.3	-64.5	3.5	1.51e+00	0	38	104	0	60	60769
2026-01-07 17:38:17.12	17.04	10.50	-49.3	-64.5	3.6	1.51e+00	0	38	104	0	60	60867
2026-01-07 17:38:18.13	16.91	10.57	-49.3	-64.6	3.6	1.51e+00	0	38	104	0	60	61216
2026-01-07 17:38:19.14	16.78	10.63	-49.3	-64.5	3.6	1.51e+00	0	38	104	0	60	60818
2026-01-07 17:38:20.15	16.65	10.69	-49.3	-64.5	3.6	1.51e+00	0	38	104	0	60	60850
2026-01-07 17:38:21.16	16.52	10.76	-49.3	-64.6	3.6	1.51e+00	0	38	104	0	60	61114
2026-01-07 17:38:22.17	16.39	10.82	-49.3	-64.6	3.6	1.51e+00	0	38	104	0	60	61096
2026-01-07 17:38:23.18	16.25	10.88	-49.3	-64.5	3.6	1.51e+00	0	38	104	0	60	60843
2026-01-07 17:38:24.18	16.12	10.95	-49.3	-64.6	3.6	1.51e+00	0	38	104	0	60	61089
2026-01-07 17:38:25.20	15.99	11.01	-49.3	-64.5	3.6	1.51e+00	0	38	104	0	60	60717
2026-01-07 17:38:26.21	15.85	11.07	-49.3	-64.5	3.6	1.51e+00	0	38	104	0	60	60834
2026-01-07 17:38:27.22	15.72	11.14	-49.3	-64.5	3.6	1.51e+00	0	38	104	0	60	60953
2026-01-07 17:38:28.23	15.58	11.20	-49.3	-64.5	3.6	1.51e+00	0	38	104	0	60	60963
2026-01-07 17:38:29.23	15.45	11.27	-49.3	-64.5	3.6	1.51e+00	0	38	104	0	60	60890
2026-01-07 17:38:30.25	15.31	11.33	-49.3	-64.5	3.6	1.51e+00	0	38	104	0	60	60782
2026-01-07 17:38:31.25	15.18	11.39	-49.3	-64.5	3.6	1.51e+00	0	38	104	0	60	60815
2026-01-07 17:38:32.26	15.04	11.46	-49.3	-64.5	3.6	1.51e+00	0	38	104	0	60	60826
2026-01-07 17:38:33.27	14.90	11.52	-49.3	-64.5	3.6	1.51e+00	0	38	104	0	60	60886
2026-01-07 17:38:34.28	14.76	11.58	-49.3	-64.5	3.6	1.51e+00	0	38	104	0	60	60949
2026-01-07 17:38:35.29	14.62	11.65	-49.3	-64.5	3.6	1.51e+00	0	38	104	0	60	60653
2026-01-07 17:38:36.30	14.48	11.71	-49.3	-64.5	3.6	1.51e+00	0	38	104	0	60	60671
2026-01-07 17:38:37.31	14.34	11.78	-49.3	-64.5	3.6	1.51e+00	0	38	104	0	60	60861
2026-01-07 17:38:38.32	14.20	11.84	-49.3	-64.5	3.6	1.51e+00	0	38	104	0	60	60725
2026-01-07 17:38:39.33	14.06	11.90	-49.3	-64.5	3.6	1.51e+00	0	38	104	0	60	60881
2026-01-07 17:38:40.34	13.92	11.97	-49.3	-64.5	3.6	1.51e+00	0	38	104	0	60	60839
2026-01-07 17:38:41.35	13.77	12.03	-49.3	-64.6	3.6	1.51e+00	0	38	104	0	60	61148
2026-01-07 17:38:42.36	13.63	12.09	-49.3	-64.5	3.6	1.51e+00	0	38	104	0	60	60937
2026-01-07 17:38:43.37	13.49	12.16	-49.3	-64.5	3.6	1.51e+00	0	38	104	0	60	60995
2026-01-07 17:38:44.37	13.34	12.22	-49.3	-64.5	3.6	1.51e+00	0	38	104	0	60	60905
2026-01-07 17:38:45.39	13.20	12.29	-49.3	-64.5	3.6	1.51e+00	0	38	104	0	60	60671
2026-01-07 17:38:46.40	13.05	12.35	-49.3	-64.5	3.6	1.51e+00	0	38	104	0	60	60965
2026-01-07 17:38:47.41	12.90	12.41	-49.3	-64.5	3.6	1.51e+00	0	38	104	0	60	60848
2026-01-07 17:38:48.42	12.76	12.48	-49.3	-64.5	3.6	1.51e+00	0	38	104	0	60	60669
2026-01-07 17:38:49.43	12.61	12.54	-49.3	-64.5	3.6	1.51e+00	0	38	104	0	60	60739
2026-01-07 17:38:50.44	12.46	12.60	-49.3	-64.6	3.6	1.51e+00	0	38	104	0	60	61066
2026-01-07 17:38:51.45	12.31	12.67	-49.3	-64.5	3.6	1.51e+00	0	38	104	0	60	60866
2026-01-07 17:38:52.46	12.16	12.73	-49.3	-64.5	3.6	1.51e+00	0	38	104	0	60	60827
2026-01-07 17:38:53.47	12.01	12.79	-49.3	-64.5	3.6	1.51e+00	0	38	104	0	60	60710
2026-01-07 17:38:54.47	11.86	12.86	-49.3	-64.6	3.6	1.51e+00	0	38	104	0	60	61071
2026-01-07 17:38:55.48	11.71	12.92	-49.3	-64.5	3.6	1.51e+00	0	38	104	0	60	60951
2026-01-07 17:38:56.49	11.55	12.98	-49.3	-64.5	3.6	1.51e+00	0	38	104	0	60	60794
2026-01-07 17:38:57.50	11.40	13.05	-49.3	-64.5	3.5	1.51e+00	0	38	104	0	60	60553
2026-01-07 17:38:58.51	11.25	13.11	-49.3	-64.5	3.6	1.51e+00	0	38	104	0	60	60845
2026-01-07 17:38:59.52	11.09	13.17	-49.3	-64.5	3.6	1.51e+00	0	38	104	0	60	60684
2026-01-07 17:39:00.53	10.94	13.24	-49.3	-64.5	3.6	1.51e+00	0	38	104	0	60	60682
2026-01-07 17:39:01.54	10.78	13.30	-49.3	-64.5	3.6	1.51e+00	0	38	104	0	60	60615
2026-01-07 17:39:02.55	10.62	13.36	-49.3	-64.5	3.6	1.51e+00	0	38	104	0	60	60849
2026-01-07 17:39:03.56	10.46	13.43	-49.3	-64.5	3.6	1.51e+00	0	38	104	0	60	60758
2026-01-07 17:39:04.57	10.31	13.49	-49.3	-64.5	3.6	1.51e+00	0	38	104	0	60	60928
2026-01-07 17:39:05.58	10.15	13.55	-49.3	-64.5	3.6	1.51e+00	0	38	104	0	60	60743
2026-01-07 17:39:06.59	9.99	13.61	-49.3	-64.5	3.6	1.51e+00	0	38	104	0	60	60990
2026-01-07 17:39:07.60	9.83	13.68	-49.3	-64.5	3.6	1.51e+00	0	38	104	0	60	60898
2026-01-07 17:39:08.61	9.67	13.74	-49.3	-64.5	3.6	1.51e+00	0	38	104	0	60	61010
2026-01-07 17:39:09.62	9.50	13.80	-49.3	-64.5	3.6	1.51e+00	0	38	104	0	60	60796
2026-01-07 17:39:10.63	9.34	13.87	-49.3	-64.6	3.6	1.51e+00	0	38	104	0	60	61054
2026-01-07 17:39:11.64	9.18	13.93	-49.3	-64.5	3.6	1.51e+00	0	38	104	0	60	60936
2026-01-07 17:39:12.65	9.02	13.99	-49.3	-64.5	3.6	1.51e+00	0	38	104	0	60	60958
2026-01-07 17:39:13.66	8.85	14.05	-49.3	-64.6	3.6	1.51e+00	0	38	104	0	60	61107
2026-01-07 17:39:14.67	8.69	14.12	-49.3	-64.5	3.6	1.51e+00	0	38	104	0	60	60529
2026-01-07 17:39:15.68	8.52	14.18	-49.3	-64.5	3.6	1.51e+00	0	38	104	0	60	60705
2026-01-07 17:39:16.69	8.35	14.24	-49.3	-64.5	3.6	1.51e+00	0	38	104	0	60	60819
2026-01-07 17:39:17.70	8.19	14.30	-49.3	-64.5	3.6	1.51e+00	0	38	104	0	60	60859
2026-01-07 17:39:18.71	8.02	14.36	-49.3	-64.5	3.6	1.51e+00	0	38	104	0	60	60850
2026-01-07 17:39:19.72	7.85	14.43	-49.3	-64.5	3.6	1.51e+00	0	38	104	0	60	60773
2026-01-07 17:39:20.73	7.68	14.49	-49.3	-64.5	3.6	1.51e+00	0	38	104	0	60	60557
2026-01-07 17:39:21.74	7.51	14.55	-49.3	-64.5	3.6	1.51e+00	0	38	104	0	60	60757
2026-01-07 17:39:22.75	7.34	14.61	-49.3	-64.6	3.6	1.51e+00	0	38	104	0	60	61197
2026-01-07 17:39:23.76	7.17	14.67	-49.3	-64.5	3.6	1.51e+00	0	38	104	0	60	60911
2026-01-07 17:39:24.77	6.99	14.73	-49.3	-64.5	3.6	1.51e+00	0	38	104	0	60	60669
2026-01-07 17:39:25.78	6.82	14.79	-49.3	-64.5	3.6	1.51e+00	0	38	104	0	60	60843
2026-01-07 17:39:26.79	6.65	14.86	-49.3	-64.5	3.6	1.51e+00	0	38	104	0	60	60801
2026-01-07 17:39:27.80	6.47	14.92	-49.3	-64.5	3.6	1.51e+00	0	38	104	0	60	60748
2026-01-07 17:39:28.81	6.30	14.98	-49.3	-64.5	3.5	1.51e+00	0	38	104	0	60	60903
2026-01-07 17:39:29.82	6.12	15.04	-49.3	-64.5	3.6	1.51e+00	0	38	104	0	60	60512
2026-01-07 17:39:30.83	5.95	15.10	-49.3	-64.6	3.5	1.51e+00	0	38	104	0	60	61081
2026-01-07 17:39:31.84	5.77	15.16	-49.3	-64.5	3.6	1.51e+00	0	38	104	0	60	60927
2026-01-07 17:39:32.85	5.59	15.22	-49.3	-64.5	3.6	1.51e+00	0	38	104	0	60	60694
2026-01-07 17:39:33.86	5.41	15.28	-49.3	-64.5	3.6	1.51e+00	0	38	104	0	60	60778
2026-01-07 17:39:34.86	5.23	15.34	-49.3	-64.6	3.6	1.51e+00	0	38	104	0	60	61125
2026-01-07 17:39:35.87	5.05	15.40	-49.3	-64.5	3.6	1.51e+00	0	38	104	0	60	60749
2026-01-07 17:39:36.89	4.87	15.46	-49.3	-64.5	3.6	1.51e+00	0	38	104	0	60	60827
2026-01-07 17:39:37.90	4.69	15.52	-49.3	-64.5	3.6	1.51e+00	0	38	104	0	60	60912
2026-01-07 17:39:38.91	4.50	15.58	-49.3	-64.5	3.6	1.51e+00	0	38	104	0	60	60853
2026-01-07 17:39:39.92	4.32	15.64	-49.3	-64.5	3.6	1.51e+00	0	38	104	0	60	60885
2026-01-07 17:39:40.93	4.14	15.70	-49.3	-64.5	3.6	1.51e+00	0	38	104	0	60	60759
2026-01-07 17:39:41.94	3.95	15.76	-49.3	-64.5	3.6	1.51e+00	0	38	104	0	60	60378
2026-01-07 17:39:42.95	3.77	15.82	-49.3	-64.5	3.6	1.51e+00	0	38	104	0	60	60945
2026-01-07 17:39:43.96	3.58	15.88	-49.3	-64.5	3.6	1.51e+00	0	38	104	0	60	60345
2026-01-07 17:39:44.97	3.39	15.93	-49.3	-64.5	3.6	1.51e+00	0	38	104	0	60	60747
2026-01-07 17:39:45.97	3.21	15.99	-49.3	-64.5	3.6	1.51e+00	0	38	104	0	60	60833
2026-01-07 17:39:46.98	3.02	16.05	-49.3	-64.5	3.6	1.51e+00	0	38	104	0	60	60868
2026-01-07 17:39:47.99	2.83	16.11	-49.3	-64.5	3.6	1.51e+00	0	38	104	0	60	60678
2026-01-07 17:39:49.00	2.64	16.17	-49.3	-64.5	3.6	1.51e+00	0	38	104	0	60	60663
2026-01-07 17:39:50.01	2.45	16.22	-49.3	-64.5	3.6	1.51e+00	0	38	104	0	60	60475
2026-01-07 17:39:51.02	2.26	16.28	-49.3	-64.5	3.5	1.51e+00	0	38	104	0	60	60783
2026-01-07 17:39:52.03	2.07	16.34	-49.3	-64.5	3.6	1.51e+00	0	38	104	0	60	60748
2026-01-07 17:39:53.04	1.87	16.40	-49.3	-64.5	3.6	1.51e+00	0	38	104	0	60	60781
2026-01-07 17:39:54.05	1.68	16.45	-49.3	-64.5	3.6	1.51e+00	0	38	104	0	60	60720
2026-01-07 17:39:55.06	1.48	16.51	-49.3	-64.5	3.6	1.51e+00	0	38	104	0	60	60752
2026-01-07 17:39:56.07	1.29	16.57	-49.3	-64.5	3.6	1.51e+00	0	38	104	0	60	60946
2026-01-07 17:39:57.08	1.09	16.62	-49.3	-64.5	3.6	1.51e+00	0	38	104	0	60	60593
2026-01-07 17:39:58.09	0.90	16.68	-49.3	-64.5	3.6	1.51e+00	0	38	104	0	60	60706
2026-01-07 17:39:59.10	0.70	16.74	-49.3	-64.5	3.6	1.51e+00	0	38	104	0	60	60629
2026-01-07 17:40:00.11	0.50	16.79	-49.3	-64.5	3.6	1.51e+00	0	38	104	0	60	60791
2026-01-07 17:40:01.11	0.30	16.85	-49.3	-64.5	3.6	1.51e+00	0	38	104	0	60	60721
2026-01-07 17:40:02.12	0.10	16.90	-49.3	-64.5	3.6	1.51e+00	0	38	104	0	60	60912
2026-01-07 17:40:03.13	359.90	16.96	-49.3	-64.5	3.6	1.51e+00	0	38	104	0	60	60848
2026-01-07 17:40:04.14	359.70	17.01	-49.3	-64.5	3.6	1.51e+00	0	38	104	0	60	60699
2026-01-07 17:40:05.15	359.50	17.07	-49.3	-64.6	3.6	1.51e+00	0	38	104	0	60	61071
2026-01-07 17:40:06.16	359.30	17.12	-49.3	-64.5	3.6	1.51e+00	0	38	104	0	60	60741
2026-01-07 17:40:07.17	359.09	17.17	-49.3	-64.5	3.6	1.51e+00	0	38	104	0	60	60997
2026-01-07 17:40:08.18	358.89	17.23	-49.3	-64.5	3.6	1.51e+00	0	38	104	0	60	60658
2026-01-07 17:40:09.19	358.68	17.28	-49.3	-64.5	3.6	1.51e+00	0	38	104	0	60	60503
2026-01-07 17:40:10.20	358.48	17.33	-49.3	-64.4	3.6	1.51e+00	0	38	104	0	60	60208
2026-01-07 17:40:11.20	358.27	17.39	-49.3	-64.5	3.6	1.51e+00	0	38	104	0	60	60711
2026-01-07 17:40:12.21	358.07	17.44	-49.3	-64.5	3.5	1.51e+00	0	38	104	0	60	60875
2026-01-07 17:40:13.23	357.86	17.49	-49.3	-64.5	3.6	1.51e+00	0	38	104	0	60	60892
2026-01-07 17:40:14.24	357.65	17.54	-49.3	-64.5	3.6	1.51e+00	0	38	104	0	60	60427
2026-01-07 17:40:15.24	357.44	17.60	-49.3	-64.5	3.6	1.51e+00	0	38	104	0	60	60435
2026-01-07 17:40:16.25	357.23	17.65	-49.3	-64.5	3.6	1.51e+00	0	38	104	0	60	60462
2026-01-07 17:40:17.26	357.02	17.70	-49.3	-64.5	3.5	1.51e+00	0	38	104	0	60	60648
2026-01-07 17:40:18.27	356.81	17.75	-49.3	-64.4	3.6	1.51e+00	0	38	104	0	60	60320
2026-01-07 17:40:19.28	356.60	17.80	-49.3	-64.5	3.6	1.51e+00	0	38	104	0	60	60616
2026-01-07 17:40:20.29	356.38	17.85	-49.3	-64.5	3.6	1.51e+00	0	38	104	0	60	60853
2026-01-07 17:40:21.31	356.17	17.90	-49.3	-64.5	3.6	1.51e+00	0	38	104	0	60	60776
2026-01-07 17:40:22.32	355.95	17.95	-49.3	-64.6	3.6	1.51e+00	0	38	104	0	60	61115
2026-01-07 17:40:23.33	355.74	18.00	-49.3	-64.5	3.6	1.51e+00	0	38	104	0	60	60540
2026-01-07 17:40:24.33	355.53	18.05	-49.3	-64.5	3.6	1.51e+00	0	38	104	0	60	60462
2026-01-07 17:40:25.34	355.31	18.10	-49.3	-64.5	3.6	1.51e+00	0	38	104	0	60	60350
2026-01-07 17:40:26.35	355.09	18.15	-49.3	-64.4	3.6	1.51e+00	0	38	104	0	60	60253
2026-01-07 17:40:27.36	354.87	18.19	-49.3	-64.5	3.6	1.51e+00	0	38	104	0	60	60784
2026-01-07 17:40:28.37	354.65	18.24	-49.3	-64.5	3.6	1.51e+00	0	38	104	0	60	60552
2026-01-07 17:40:29.38	354.44	18.29	-49.3	-64.5	3.6	1.51e+00	0	38	104	0	60	60642
2026-01-07 17:40:30.39	354.22	18.34	-49.3	-64.5	3.6	1.51e+00	0	38	104	0	60	60667
2026-01-07 17:40:31.40	353.99	18.38	-49.3	-64.5	3.6	1.51e+00	0	38	104	0	60	60833
2026-01-07 17:40:32.41	353.77	18.43	-49.3	-64.5	3.6	1.51e+00	0	38	104	0	60	60908
2026-01-07 17:40:33.42	353.55	18.48	-49.3	-64.6	3.6	1.51e+00	0	38	104	0	60	61154
2026-01-07 17:40:34.43	353.33	18.52	-49.3	-64.5	3.6	1.51e+00	0	38	104	0	60	60726
2026-01-07 17:40:35.44	353.11	18.57	-49.3	-64.4	3.6	1.51e+00	0	38	104	0	60	60260
2026-01-07 17:40:36.45	352.88	18.61	-49.3	-64.5	3.6	1.51e+00	0	38	104	0	60	60682
2026-01-07 17:40:37.46	352.66	18.66	-49.3	-64.5	3.6	1.51e+00	0	38	104	0	60	60645
2026-01-07 17:40:38.47	352.43	18.70	-49.3	-64.5	3.6	1.51e+00	0	38	104	0	60	60700
2026-01-07 17:40:39.48	352.20	18.74	-49.3	-64.4	3.6	1.51e+00	0	38	104	0	60	60245
2026-01-07 17:40:40.49	351.98	18.79	-49.3	-64.5	3.6	1.51e+00	0	38	104	0	60	60592
2026-01-07 17:40:41.50	351.75	18.83	-49.3	-64.5	3.6	1.51e+00	0	38	104	0	60	60806
2026-01-07 17:40:42.51	351.52	18.87	-49.3	-64.5	3.6	1.51e+00	0	38	104	0	60	60558
2026-01-07 17:40:43.52	351.29	18.92	-49.3	-64.5	3.6	1.51e+00	0	38	104	0	60	60965
2026-01-07 17:40:44.53	351.06	18.96	-49.3	-64.5	3.6	1.51e+00	0	38	104	0	60	60422
2026-01-07 17:40:45.54	350.83	19.00	-49.3	-64.5	3.6	1.51e+00	0	38	104	0	60	60425
2026-01-07 17:40:46.55	350.60	19.04	-49.3	-64.4	3.6	1.51e+00	0	38	104	0	60	60254
2026-01-07 17:40:47.56	350.37	19.08	-49.3	-64.5	3.6	1.51e+00	0	38	104	0	60	60435
2026-01-07 17:40:48.57	350.14	19.12	-49.3	-64.5	3.6	1.51e+00	0	38	104	0	60	60743
2026-01-07 17:40:49.57	349.91	19.16	-49.3	-64.5	3.6	1.51e+00	0	38	104	0	60	60675
2026-01-07 17:40:50.58	349.68	19.20	-49.3	-64.5	3.6	1.51e+00	0	38	104	0	60	60600
2026-01-07 17:40:51.59	349.44	19.24	-49.3	-64.5	3.6	1.51e+00	0	38	104	0	60	60717
2026-01-07 17:40:52.60	349.21	19.28	-49.3	-64.5	3.6	1.51e+00	0	38	104	0	60	60380
2026-01-07 17:40:53.61	348.98	19.31	-49.3	-64.5	3.6	1.51e+00	0	38	104	0	60	60473
2026-01-07 17:40:54.62	348.74	19.35	-49.3	-64.5	3.6	1.51e+00	0	38	104	0	60	60646
2026-01-07 17:40:55.63	348.50	19.39	-49.3	-64.5	3.6	1.51e+00	0	38	104	0	60	60806
2026-01-07 17:40:56.64	348.27	19.43	-49.3	-64.5	3.6	1.51e+00	0	38	104	0	60	60475
2026-01-07 17:40:57.65	348.03	19.46	-49.3	-64.5	3.6	1.51e+00	0	38	104	0	60	60410
2026-01-07 17:40:58.66	347.79	19.50	-49.3	-64.5	3.6	1.51e+00	0	38	104	0	60	60718
2026-01-07 17:40:59.67	347.55	19.53	-49.3	-64.5	3.6	1.51e+00	0	38	104	0	60	60672
2026-01-07 17:41:00.68	347.31	19.57	-49.3	-64.5	3.6	1.51e+00	0	38	104	0	60	60429
2026-01-07 17:41:01.69	347.08	19.60	-49.3	-64.5	3.6	1.51e+00	0	38	104	0	60	60917
2026-01-07 17:41:02.70	346.84	19.64	-49.3	-64.5	3.6	1.51e+00	0	38	104	0	60	60498
2026-01-07 17:41:03.71	346.60	19.67	-49.3	-64.5	3.6	1.51e+00	0	38	104	0	60	60561
2026-01-07 17:41:04.72	346.35	19.70	-49.3	-64.6	3.6	1.51e+00	0	38	104	0	60	61091
2026-01-07 17:41:05.73	346.11	19.73	-49.3	-64.4	3.6	1.51e+00	0	38	104	0	60	60210
2026-01-07 17:41:06.74	345.87	19.77	-49.3	-64.5	3.6	1.51e+00	0	38	104	0	60	60629
2026-01-07 17:41:07.75	345.63	19.80	-49.3	-64.4	3.6	1.51e+00	0	38	104	0	60	60127
2026-01-07 17:41:08.76	345.38	19.83	-49.3	-64.5	3.6	1.51e+00	0	38	104	0	60	60366
2026-01-07 17:41:09.77	345.14	19.86	-49.3	-64.5	3.6	1.51e+00	0	38	104	0	60	60740
2026-01-07 17:41:10.78	344.90	19.89	-49.3	-64.5	3.6	1.51e+00	0	38	104	0	60	60859
2026-01-07 17:41:11.79	344.65	19.92	-49.3	-64.5	3.6	1.51e+00	0	38	104	0	60	60539
2026-01-07 17:41:12.79	344.41	19.95	-49.3	-64.4	3.6	1.51e+00	0	38	104	0	60	60031
2026-01-07 17:41:13.80	344.16	19.97	-49.3	-64.4	3.6	1.51e+00	0	38	104	0	60	60285
2026-01-07 17:41:14.81	343.92	20.00	-49.3	-64.5	3.6	1.51e+00	0	38	104	0	60	60459
2026-01-07 17:41:15.82	343.67	20.03	-49.3	-64.5	3.6	1.51e+00	0	38	104	0	60	60475
2026-01-07 17:41:16.83	343.43	20.06	-49.3	-64.5	3.6	1.51e+00	0	38	104	0	60	60615
2026-01-07 17:41:17.84	343.18	20.08	-49.3	-64.5	3.6	1.51e+00	0	38	104	0	60	60841
2026-01-07 17:41:18.85	342.93	20.11	-49.3	-64.5	3.6	1.51e+00	0	38	104	0	60	60823
2026-01-07 17:41:19.86	342.68	20.13	-49.3	-64.5	3.6	1.51e+00	0	38	104	0	60	60731
2026-01-07 17:41:20.87	342.43	20.16	-49.3	-64.5	3.6	1.51e+00	0	38	104	0	60	60438
2026-01-07 17:41:21.88	342.19	20.18	-49.3	-64.5	3.6	1.51e+00	0	38	104	0	60	60800
2026-01-07 17:41:22.89	341.94	20.20	-49.3	-64.5	3.6	1.51e+00	0	38	104	0	60	60613
2026-01-07 17:41:23.90	341.69	20.23	-49.3	-64.5	3.6	1.51e+00	0	38	104	0	60	60890
2026-01-07 17:41:24.91	341.44	20.25	-49.3	-64.5	3.6	1.51e+00	0	38	104	0	60	60760
2026-01-07 17:41:25.92	341.19	20.27	-49.3	-64.5	3.6	1.51e+00	0	38	104	0	60	60603
2026-01-07 17:41:26.93	340.94	20.29	-49.3	-64.5	3.6	1.51e+00	0	38	104	0	60	60639
2026-01-07 17:41:27.93	340.69	20.31	-49.3	-64.5	3.6	1.51e+00	0	38	104	0	60	60487
2026-01-07 17:41:28.94	340.44	20.33	-49.3	-64.5	3.6	1.51e+00	0	38	104	0	60	60580
2026-01-07 17:41:29.95	340.18	20.35	-49.3	-64.5	3.6	1.51e+00	0	38	104	0	60	60861
2026-01-07 17:41:30.96	339.93	20.37	-49.3	-64.5	3.6	1.51e+00	0	38	104	0	60	60476
2026-01-07 17:41:31.97	339.68	20.39	-49.3	-64.5	3.6	1.51e+00	0	38	104	0	60	60628
2026-01-07 17:41:32.98	339.43	20.41	-49.3	-64.5	3.6	1.51e+00	0	38	104	0	60	60536
2026-01-07 17:41:33.99	339.17	20.43	-49.3	-64.5	3.6	1.51e+00	0	38	104	0	60	60524
2026-01-07 17:41:35.00	338.92	20.44	-49.3	-64.6	3.6	1.51e+00	0	38	104	0	60	61104
2026-01-07 17:41:36.01	338.67	20.46	-49.3	-64.4	3.6	1.51e+00	0	38	104	0	60	60168
2026-01-07 17:41:37.03	338.41	20.47	-49.3	-64.5	3.5	1.51e+00	0	38	104	0	60	60778
2026-01-07 17:41:38.03	338.16	20.49	-49.3	-64.5	3.6	1.51e+00	0	38	104	0	60	60662
2026-01-07 17:41:39.04	337.91	20.50	-49.3	-64.5	3.6	1.51e+00	0	38	104	0	60	60523
2026-01-07 17:41:40.05	337.65	20.52	-49.3	-64.5	3.6	1.51e+00	0	38	104	0	60	60633
2026-01-07 17:41:41.06	337.40	20.53	-49.3	-64.5	3.6	1.51e+00	0	38	104	0	60	60762
2026-01-07 17:41:42.07	337.14	20.54	-49.3	-64.5	3.5	1.51e+00	0	38	104	0	60	60808
2026-01-07 17:41:43.08	336.89	20.56	-49.3	-64.5	3.6	1.51e+00	0	38	104	0	60	60640
2026-01-07 17:41:44.09	336.63	20.57	-49.3	-64.5	3.5	1.51e+00	0	38	104	0	60	60509
2026-01-07 17:41:45.10	336.37	20.58	-49.3	-64.5	3.6	1.51e+00	0	38	104	0	60	60358
2026-01-07 17:41:46.11	336.12	20.59	-49.3	-64.5	3.6	1.51e+00	0	38	104	0	60	60727
2026-01-07 17:41:47.12	335.86	20.60	-49.3	-64.5	3.6	1.51e+00	0	38	104	0	60	60665
2026-01-07 17:41:48.13	335.61	20.61	-49.3	-64.5	3.6	1.51e+00	0	38	104	0	60	60641
2026-01-07 17:41:49.14	335.35	20.61	-49.3	-64.5	3.6	1.51e+00	0	38	104	0	60	60952
2026-01-07 17:41:50.15	335.09	20.62	-49.3	-64.5	3.6	1.51e+00	0	38	104	0	60	60663
2026-01-07 17:41:51.16	334.84	20.63	-49.3	-64.5	3.6	1.51e+00	0	38	104	0	60	60538
2026-01-07 17:41:52.17	334.58	20.64	-49.3	-64.5	3.6	1.51e+00	0	38	104	0	60	60827
2026-01-07 17:41:53.18	334.32	20.64	-49.3	-64.5	3.6	1.51e+00	0	38	104	0	60	60859
2026-01-07 17:41:54.19	334.07	20.65	-49.3	-64.5	3.6	1.51e+00	0	38	104	0	60	60751
2026-01-07 17:41:55.20	333.81	20.65	-49.3	-64.5	3.6	1.51e+00	0	38	104	0	60	60602
2026-01-07 17:41:56.21	333.55	20.66	-49.3	-64.5	3.6	1.51e+00	0	38	104	0	60	60765
2026-01-07 17:41:57.22	333.30	20.66	-49.3	-64.5	3.6	1.51e+00	0	38	104	0	60	60562
2026-01-07 17:41:58.23	333.04	20.66	-49.3	-64.5	3.6	1.51e+00	0	38	104	0	60	60786
2026-01-07 17:41:59.24	332.78	20.67	-49.3	-64.5	3.6	1.51e+00	0	38	104	0	60	60862
2026-01-07 17:42:00.25	332.53	20.67	-49.3	-64.5	3.6	1.51e+00	0	38	104	0	60	60803
2026-01-07 17:42:01.26	332.27	20.67	-49.3	-64.5	3.6	1.51e+00	0	38	104	0	60	60750
2026-01-07 17:42:02.27	332.01	20.67	-49.3	-64.5	3.6	1.51e+00	0	38	104	0	60	60659
2026-01-07 17:42:03.28	331.75	20.67	-49.3	-64.5	3.6	1.51e+00	0	38	104	0	60	60862
2026-01-07 17:42:04.29	331.50	20.67	-49.3	-64.5	3.6	1.51e+00	0	38	104	0	60	60624
2026-01-07 17:42:05.30	331.24	20.67	-49.3	-64.5	3.6	1.51e+00	0	38	104	0	60	60845
2026-01-07 17:42:06.31	330.98	20.66	-49.3	-64.5	3.6	1.51e+00	0	38	104	0	60	60610
2026-01-07 17:42:07.32	330.72	20.66	-49.3	-64.5	3.6	1.51e+00	0	38	104	0	60	60719
2026-01-07 17:42:08.33	330.47	20.66	-49.3	-64.5	3.6	1.51e+00	0	38	104	0	60	60880
2026-01-07 17:42:09.34	330.21	20.66	-49.3	-64.5	3.6	1.51e+00	0	38	104	0	60	60720
2026-01-07 17:42:10.35	329.95	20.65	-49.3	-64.5	3.6	1.51e+00	0	38	104	0	60	60693
2026-01-07 17:42:11.36	329.70	20.65	-49.3	-64.5	3.6	1.51e+00	0	38	104	0	60	60884
2026-01-07 17:42:12.37	329.44	20.64	-49.3	-64.5	3.6	1.51e+00	0	38	104	0	60	60621
2026-01-07 17:42:13.38	329.18	20.63	-49.3	-64.5	3.6	1.51e+00	0	38	104	0	60	60929
2026-01-07 17:42:14.39	328.93	20.63	-49.3	-64.5	3.6	1.51e+00	0	38	104	0	60	60921
2026-01-07 17:42:15.40	328.67	20.62	-49.3	-64.5	3.6	1.51e+00	0	38	104	0	60	60773
2026-01-07 17:42:16.41	328.41	20.61	-49.3	-64.5	3.6	1.51e+00	0	38	104	0	60	60591
2026-01-07 17:42:17.42	328.16	20.60	-49.3	-64.5	3.6	1.51e+00	0	38	104	0	60	60499
2026-01-07 17:42:18.43	327.90	20.59	-49.3	-64.5	3.6	1.51e+00	0	38	104	0	60	60727
2026-01-07 17:42:19.44	327.65	20.58	-49.3	-64.5	3.6	1.51e+00	0	38	104	0	60	60658
2026-01-07 17:42:20.45	327.39	20.57	-49.3	-64.5	3.6	1.51e+00	0	38	104	0	60	60591
2026-01-07 17:42:21.46	327.13	20.56	-49.3	-64.6	3.6	1.51e+00	0	38	104	0	60	61038
2026-01-07 17:42:22.47	326.88	20.55	-49.3	-64.5	3.6	1.51e+00	0	38	104	0	60	60584
2026-01-07 17:42:23.48	326.62	20.54	-49.3	-64.5	3.6	1.51e+00	0	38	104	0	60	60697
2026-01-07 17:42:24.49	326.37	20.53	-49.3	-64.5	3.6	1.51e+00	0	38	104	0	60	60789
2026-01-07 17:42:25.50	326.11	20.51	-49.3	-64.5	3.6	1.51e+00	0	38	104	0	60	60850
2026-01-07 17:42:26.51	325.86	20.50	-49.3	-64.5	3.6	1.51e+00	0	38	104	0	60	60795
2026-01-07 17:42:27.52	325.60	20.48	-49.3	-64.5	3.6	1.51e+00	0	38	104	0	60	60595
2026-01-07 17:42:28.53	325.35	20.47	-49.3	-64.5	3.6	1.51e+00	0	38	104	0	60	60559
2026-01-07 17:42:29.54	325.10	20.45	-49.3	-64.5	3.6	1.51e+00	0	38	104	0	60	60448
2026-01-07 17:42:30.55	324.84	20.44	-49.3	-64.5	3.6	1.51e+00	0	38	104	0	60	60641
2026-01-07 17:42:31.56	324.59	20.42	-49.3	-64.5	3.6	1.51e+00	0	38	104	0	60	60673
2026-01-07 17:42:32.57	324.34	20.40	-49.3	-64.5	3.6	1.51e+00	0	38	104	0	60	60739
2026-01-07 17:42:33.58	324.08	20.38	-49.3	-64.5	3.6	1.51e+00	0	38	104	0	60	60976
2026-01-07 17:42:34.59	323.83	20.37	-49.3	-64.5	3.6	1.51e+00	0	38	104	0	60	60667
2026-01-07 17:42:35.59	323.58	20.35	-49.3	-64.5	3.6	1.51e+00	0	38	104	0	60	60446
2026-01-07 17:42:36.60	323.33	20.33	-49.3	-64.5	3.6	1.51e+00	0	38	104	0	60	60402
2026-01-07 17:42:37.61	323.08	20.31	-49.3	-64.6	3.6	1.51e+00	0	38	104	0	60	61034
2026-01-07 17:42:38.62	322.83	20.29	-49.3	-64.5	3.6	1.51e+00	0	38	104	0	60	60797
2026-01-07 17:42:39.63	322.58	20.26	-49.3	-64.5	3.6	1.51e+00	0	38	104	0	60	60976
2026-01-07 17:42:40.64	322.33	20.24	-49.3	-64.5	3.6	1.51e+00	0	38	104	0	60	60684
2026-01-07 17:42:41.65	322.08	20.22	-49.3	-64.5	3.6	1.51e+00	0	38	104	0	60	60642
2026-01-07 17:42:42.66	321.83	20.20	-49.3	-64.5	3.6	1.51e+00	0	38	104	0	60	60471
2026-01-07 17:42:43.67	321.58	20.17	-49.3	-64.5	3.6	1.51e+00	0	38	104	0	60	60854
2026-01-07 17:42:44.68	321.33	20.15	-49.3	-64.5	3.6	1.51e+00	0	38	104	0	60	60350
2026-01-07 17:42:45.69	321.08	20.12	-49.3	-64.5	3.5	1.51e+00	0	38	104	0	60	60899
2026-01-07 17:42:46.70	320.83	20.10	-49.3	-64.5	3.6	1.51e+00	0	38	104	0	60	60677
2026-01-07 17:42:47.71	320.58	20.07	-49.3	-64.5	3.6	1.51e+00	0	38	104	0	60	60974
2026-01-07 17:42:48.72	320.34	20.05	-49.3	-64.5	3.6	1.51e+00	0	38	104	0	60	60905
2026-01-07 17:42:49.73	320.09	20.02	-49.3	-64.5	3.6	1.51e+00	0	38	104	0	60	60992
2026-01-07 17:42:50.74	319.84	19.99	-49.3	-64.5	3.6	1.51e+00	0	38	104	0	60	60664
2026-01-07 17:42:51.75	319.60	19.96	-49.3	-64.5	3.6	1.51e+00	0	38	104	0	60	60686
2026-01-07 17:42:52.76	319.35	19.94	-49.3	-64.5	3.6	1.51e+00	0	38	104	0	60	60368
2026-01-07 17:42:53.77	319.11	19.91	-49.3	-64.5	3.6	1.51e+00	0	38	104	0	60	60472
2026-01-07 17:42:54.78	318.86	19.88	-49.3	-64.5	3.6	1.51e+00	0	38	104	0	60	60667
2026-01-07 17:42:55.79	318.62	19.85	-49.3	-64.5	3.6	1.51e+00	0	38	104	0	60	60827
2026-01-07 17:42:56.80	318.38	19.82	-49.3	-64.5	3.6	1.51e+00	0	38	104	0	60	60497
2026-01-07 17:42:57.81	318.13	19.79	-49.3	-64.5	3.6	1.51e+00	0	38	104	0	60	60793
2026-01-07 17:42:58.82	317.89	19.75	-49.3	-64.5	3.6	1.51e+00	0	38	104	0	60	60596
2026-01-07 17:42:59.83	317.65	19.72	-49.3	-64.5	3.6	1.51e+00	0	38	104	0	60	60494
2026-01-07 17:43:00.84	317.41	19.69	-49.3	-64.5	3.6	1.51e+00	0	38	104	0	60	60760
2026-01-07 17:43:01.85	317.16	19.66	-49.3	-64.5	3.6	1.51e+00	0	38	104	0	60	60715
2026-01-07 17:43:02.86	316.92	19.62	-49.3	-64.5	3.6	1.51e+00	0	38	104	0	60	60637
2026-01-07 17:43:03.87	316.68	19.59	-49.3	-64.5	3.6	1.51e+00	0	38	104	0	60	60681
2026-01-07 17:43:04.88	316.44	19.55	-49.3	-64.5	3.6	1.51e+00	0	38	104	0	60	60780
2026-01-07 17:43:05.89	316.21	19.52	-49.3	-64.4	3.6	1.51e+00	0	38	104	0	60	60326
2026-01-07 17:43:06.90	315.97	19.48	-49.3	-64.5	3.6	1.51e+00	0	38	104	0	60	60959
2026-01-07 17:43:07.91	315.73	19.45	-49.3	-64.5	3.6	1.51e+00	0	38	104	0	60	60988
2026-01-07 17:43:08.91	315.49	19.41	-49.3	-64.5	3.6	1.51e+00	0	38	104	0	60	60549
2026-01-07 17:43:09.92	315.26	19.38	-49.3	-64.5	3.6	1.51e+00	0	38	104	0	60	60704
2026-01-07 17:43:10.93	315.02	19.34	-49.3	-64.5	3.6	1.51e+00	0	38	104	0	60	60706
2026-01-07 17:43:11.94	314.79	19.30	-49.3	-64.5	3.6	1.51e+00	0	38	104	0	60	60408
2026-01-07 17:43:12.95	314.55	19.26	-49.3	-64.5	3.6	1.51e+00	0	38	104	0	60	60716
2026-01-07 17:43:13.97	314.31	19.22	-49.3	-64.5	3.6	1.51e+00	0	38	104	0	60	60725
2026-01-07 17:43:14.98	314.08	19.18	-49.3	-64.5	3.6	1.51e+00	0	38	104	0	60	60617
2026-01-07 17:43:15.99	313.85	19.15	-49.3	-64.5	3.6	1.51e+00	0	38	104	0	60	60529
2026-01-07 17:43:17.00	313.62	19.11	-49.3	-64.5	3.6	1.51e+00	0	38	104	0	60	60667
2026-01-07 17:43:18.01	313.38	19.07	-49.3	-64.5	3.6	1.51e+00	0	38	104	0	60	60804
2026-01-07 17:43:19.02	313.15	19.02	-49.3	-64.5	3.6	1.51e+00	0	38	104	0	60	60589
2026-01-07 17:43:20.03	312.92	18.98	-49.3	-64.5	3.6	1.51e+00	0	38	104	0	60	60498
2026-01-07 17:43:21.04	312.69	18.94	-49.3	-64.5	3.6	1.51e+00	0	38	104	0	60	60880
2026-01-07 17:43:22.05	312.46	18.90	-49.3	-64.5	3.6	1.51e+00	0	38	104	0	60	60614
2026-01-07 17:43:23.06	312.23	18.86	-49.3	-64.5	3.6	1.51e+00	0	38	104	0	60	60759
2026-01-07 17:43:24.07	312.01	18.81	-49.3	-64.6	3.6	1.51e+00	0	38	104	0	60	61093
2026-01-07 17:43:25.08	311.78	18.77	-49.3	-64.5	3.6	1.51e+00	0	38	104	0	60	60420
2026-01-07 17:43:26.08	311.55	18.73	-49.3	-64.5	3.6	1.51e+00	0	38	104	0	60	60792
2026-01-07 17:43:27.09	311.33	18.68	-49.3	-64.5	3.6	1.51e+00	0	38	104	0	60	60364
2026-01-07 17:43:28.10	311.10	18.64	-49.3	-64.5	3.6	1.51e+00	0	38	104	0	60	60510
2026-01-07 17:43:29.11	310.88	18.59	-49.3	-64.5	3.6	1.51e+00	0	38	104	0	60	60803
2026-01-07 17:43:30.12	310.65	18.55	-49.3	-64.5	3.6	1.51e+00	0	38	104	0	60	60796
2026-01-07 17:43:31.13	310.43	18.50	-49.3	-64.5	3.6	1.51e+00	0	38	104	0	60	60733
2026-01-07 17:43:32.14	310.21	18.46	-49.3	-64.5	3.6	1.51e+00	0	38	104	0	60	60869
2026-01-07 17:43:33.15	309.98	18.41	-49.3	-64.5	3.6	1.51e+00	0	38	104	0	60	60621
2026-01-07 17:43:34.16	309.76	18.37	-49.3	-64.5	3.6	1.51e+00	0	38	104	0	60	60384
2026-01-07 17:43:35.17	309.54	18.32	-49.3	-64.5	3.6	1.51e+00	0	38	104	0	60	60712
2026-01-07 17:43:36.18	309.32	18.27	-49.3	-64.4	3.6	1.51e+00	0	39	104	0	60	60257
2026-01-07 17:43:37.19	309.10	18.22	-49.3	-64.5	3.6	1.51e+00	0	38	104	0	60	60612
2026-01-07 17:43:38.20	308.88	18.18	-49.3	-64.5	3.6	1.51e+00	0	38	104	0	60	60602
2026-01-07 17:43:39.21	308.67	18.13	-49.3	-64.5	3.6	1.51e+00	0	38	104	0	60	60806
2026-01-07 17:43:40.22	308.45	18.08	-49.3	-64.5	3.6	1.51e+00	0	38	104	0	60	60509
2026-01-07 17:43:41.23	308.23	18.03	-49.3	-64.5	3.6	1.51e+00	0	38	104	0	60	60512
2026-01-07 17:43:42.24	308.02	17.98	-49.3	-64.5	3.6	1.51e+00	0	38	104	0	60	60588
2026-01-07 17:43:43.25	307.80	17.93	-49.3	-64.5	3.6	1.51e+00	0	38	104	0	60	60673
2026-01-07 17:43:44.26	307.59	17.88	-49.3	-64.5	3.6	1.51e+00	0	38	104	0	60	60793
2026-01-07 17:43:45.27	307.37	17.83	-49.3	-64.5	3.6	1.51e+00	0	38	104	0	60	60628
2026-01-07 17:43:46.28	307.16	17.78	-49.3	-64.5	3.6	1.51e+00	0	38	104	0	60	60482
2026-01-07 17:43:47.29	306.95	17.73	-49.3	-64.5	3.6	1.51e+00	0	38	104	0	60	60674
2026-01-07 17:43:48.30	306.74	17.68	-49.3	-64.5	3.6	1.51e+00	0	38	104	0	60	60663
2026-01-07 17:43:49.31	306.52	17.63	-49.3	-64.5	3.6	1.51e+00	0	38	104	0	60	60590
2026-01-07 17:43:50.32	306.31	17.58	-49.3	-64.5	3.6	1.51e+00	0	38	104	0	60	60420
2026-01-07 17:43:51.33	306.10	17.52	-49.3	-64.5	3.6	1.51e+00	0	39	104	0	60	60716
2026-01-07 17:43:52.34	305.90	17.47	-49.3	-64.5	3.6	1.51e+00	0	38	104	0	60	60530
2026-01-07 17:43:53.35	305.69	17.42	-49.3	-64.5	3.6	1.51e+00	0	38	104	0	60	60668
2026-01-07 17:43:54.36	305.48	17.37	-49.3	-64.5	3.6	1.51e+00	0	38	104	0	60	60545
2026-01-07 17:43:55.37	305.27	17.31	-49.3	-64.5	3.6	1.51e+00	0	38	104	0	60	60396
2026-01-07 17:43:56.38	305.07	17.26	-49.3	-64.5	3.6	1.51e+00	0	38	104	0	60	60789
2026-01-07 17:43:57.39	304.86	17.21	-49.3	-64.5	3.6	1.51e+00	0	38	104	0	60	60663
2026-01-07 17:43:58.40	304.66	17.15	-49.3	-64.5	3.6	1.51e+00	0	38	104	0	60	60660
2026-01-07 17:43:59.41	304.46	17.10	-49.3	-64.5	3.6	1.51e+00	0	38	104	0	60	60518
2026-01-07 17:44:00.42	304.25	17.04	-49.3	-64.5	3.6	1.51e+00	0	38	104	0	60	60651
2026-01-07 17:44:01.43	304.05	16.99	-49.3	-64.5	3.6	1.51e+00	0	38	104	0	60	60758
2026-01-07 17:44:02.44	303.85	16.93	-49.3	-64.5	3.6	1.51e+00	0	38	104	0	60	60820
2026-01-07 17:44:03.45	303.65	16.88	-49.3	-64.5	3.6	1.51e+00	0	38	104	0	60	60896
2026-01-07 17:44:04.46	303.45	16.82	-49.3	-64.5	3.5	1.51e+00	0	38	104	0	60	60503
2026-01-07 17:44:05.47	303.25	16.77	-49.3	-64.5	3.6	1.51e+00	0	38	104	0	60	60858
2026-01-07 17:44:06.48	303.05	16.71	-49.3	-64.5	3.6	1.51e+00	0	38	104	0	60	60764
2026-01-07 17:44:07.49	302.85	16.66	-49.3	-64.5	3.6	1.51e+00	0	38	104	0	60	60636
2026-01-07 17:44:08.50	302.66	16.60	-49.3	-64.5	3.6	1.51e+00	0	38	104	0	60	60851
2026-01-07 17:44:09.51	302.46	16.54	-49.3	-64.6	3.6	1.51e+00	0	38	104	0	60	61178
2026-01-07 17:44:10.52	302.27	16.49	-49.3	-64.5	3.6	1.51e+00	0	38	104	0	60	60613
2026-01-07 17:44:11.52	302.07	16.43	-49.3	-64.6	3.6	1.51e+00	0	38	104	0	60	61118
2026-01-07 17:44:12.53	301.88	16.37	-49.3	-64.5	3.6	1.51e+00	0	38	104	0	60	60781
2026-01-07 17:44:13.54	301.69	16.31	-49.3	-64.5	3.6	1.51e+00	0	38	104	0	60	61008
2026-01-07 17:44:14.55	301.49	16.26	-49.3	-64.5	3.6	1.51e+00	0	38	104	0	60	60978
2026-01-07 17:44:15.56	301.30	16.20	-49.3	-64.5	3.6	1.51e+00	0	38	104	0	60	60662
2026-01-07 17:44:16.57	301.11	16.14	-49.3	-64.5	3.6	1.51e+00	0	38	104	0	60	60394
2026-01-07 17:44:17.58	300.92	16.08	-49.3	-64.5	3.6	1.51e+00	0	38	104	0	60	60987
2026-01-07 17:44:18.59	300.73	16.03	-49.3	-64.5	3.6	1.51e+00	0	38	104	0	60	60903
2026-01-07 17:44:19.60	300.54	15.97	-49.3	-64.5	3.6	1.51e+00	0	38	104	0	60	60431
2026-01-07 17:44:20.61	300.35	15.91	-49.3	-64.5	3.6	1.51e+00	0	38	104	0	60	60740
2026-01-07 17:44:21.62	300.17	15.85	-49.3	-64.5	3.6	1.51e+00	0	38	104	0	60	60716
2026-01-07 17:44:22.63	299.98	15.79	-49.3	-64.5	3.6	1.51e+00	0	38	104	0	60	60460
2026-01-07 17:44:23.64	299.79	15.73	-49.3	-64.5	3.6	1.51e+00	0	38	104	0	60	60943
2026-01-07 17:44:24.65	299.61	15.67	-49.3	-64.5	3.6	1.51e+00	0	38	104	0	60	60916
2026-01-07 17:44:25.66	299.43	15.61	-49.3	-64.5	3.6	1.51e+00	0	38	104	0	60	60711
2026-01-07 17:44:26.67	299.24	15.55	-49.3	-64.5	3.6	1.51e+00	0	38	104	0	60	60680
2026-01-07 17:44:27.68	299.06	15.49	-49.3	-64.5	3.6	1.51e+00	0	38	104	0	60	60767
2026-01-07 17:44:28.69	298.88	15.43	-49.3	-64.5	3.6	1.51e+00	0	39	104	0	60	60582
2026-01-07 17:44:29.70	298.70	15.37	-49.3	-64.5	3.6	1.51e+00	0	38	104	0	60	60848
2026-01-07 17:44:30.71	298.52	15.31	-49.3	-64.5	3.6	1.51e+00	0	39	104	0	60	60976
2026-01-07 17:44:31.72	298.34	15.25	-49.3	-64.5	3.6	1.51e+00	0	39	104	0	60	60572
2026-01-07 17:44:32.73	298.16	15.19	-49.3	-64.5	3.6	1.51e+00	0	38	104	0	60	60551
2026-01-07 17:44:33.74	297.98	15.13	-49.3	-64.6	3.6	1.51e+00	0	38	104	0	60	61091
2026-01-07 17:44:34.75	297.80	15.07	-49.3	-64.5	3.6	1.51e+00	0	39	104	0	60	60864
2026-01-07 17:44:35.76	297.62	15.01	-49.3	-64.5	3.6	1.51e+00	0	38	104	0	60	60529
2026-01-07 17:44:36.77	297.45	14.95	-49.3	-64.5	3.6	1.51e+00	0	38	104	0	60	60782
2026-01-07 17:44:37.78	297.27	14.89	-49.3	-64.5	3.6	1.51e+00	0	38	104	0	60	60521
2026-01-07 17:44:38.79	297.10	14.83	-49.3	-64.5	3.6	1.51e+00	0	38	104	0	60	60735
2026-01-07 17:44:39.80	296.92	14.77	-49.3	-64.5	3.6	1.51e+00	0	38	104	0	60	60787
2026-01-07 17:44:40.81	296.75	14.70	-49.3	-64.5	3.6	1.51e+00	0	38	104	0	60	60694
2026-01-07 17:44:41.82	296.58	14.64	-49.3	-64.5	3.6	1.51e+00	0	38	104	0	60	60576
2026-01-07 17:44:42.83	296.41	14.58	-49.3	-64.5	3.6	1.51e+00	0	39	104	0	60	60650
2026-01-07 17:44:43.84	296.23	14.52	-49.3	-64.5	3.6	1.51e+00	0	39	104	0	60	60739
2026-01-07 17:44:44.85	296.06	14.46	-49.3	-64.5	3.6	1.51e+00	0	38	104	0	60	60495
2026-01-07 17:44:45.86	295.89	14.40	-49.3	-64.5	3.6	1.51e+00	0	38	104	0	60	60598
2026-01-07 17:44:46.87	295.73	14.33	-49.3	-64.4	3.6	1.51e+00	0	39	104	0	60	60286
2026-01-07 17:44:47.88	295.56	14.27	-49.3	-64.5	3.6	1.51e+00	0	39	104	0	60	60954
2026-01-07 17:44:48.89	295.39	14.21	-49.3	-64.5	3.6	1.51e+00	0	39	104	0	60	60930
2026-01-07 17:44:49.90	295.22	14.15	-49.3	-64.5	3.6	1.51e+00	0	38	104	0	60	60429
2026-01-07 17:44:50.91	295.06	14.09	-49.3	-64.5	3.6	1.51e+00	0	38	104	0	60	60791
2026-01-07 17:44:51.92	294.89	14.02	-49.3	-64.5	3.6	1.51e+00	0	38	104	0	60	60819
2026-01-07 17:44:52.93	294.73	13.96	-49.3	-64.5	3.6	1.51e+00	0	38	104	0	60	60752
2026-01-07 17:44:53.94	294.56	13.90	-49.3	-64.5	3.6	1.51e+00	0	39	104	0	60	60666
2026-01-07 17:44:54.95	294.40	13.84	-49.3	-64.5	3.6	1.51e+00	0	39	104	0	60	60572
2026-01-07 17:44:55.96	294.24	13.77	-49.3	-64.5	3.6	1.51e+00	0	38	104	0	60	60809
2026-01-07 17:44:56.97	294.08	13.71	-49.3	-64.5	3.6	1.51e+00	0	38	104	0	60	60398
2026-01-07 17:44:57.98	293.91	13.65	-49.3	-64.5	3.6	1.51e+00	0	38	104	0	60	60523
2026-01-07 17:44:58.99	293.75	13.58	-49.3	-64.5	3.6	1.51e+00	0	38	104	0	60	60847
2026-01-07 17:45:00.00	293.59	13.52	-49.3	-64.5	3.6	1.51e+00	0	38	104	0	60	60424
2026-01-07 17:45:01.01	293.43	13.46	-49.3	-64.5	3.6	1.51e+00	0	38	104	0	60	60531
2026-01-07 17:45:02.02	293.28	13.39	-49.3	-64.5	3.6	1.51e+00	0	38	104	0	60	60845
2026-01-07 17:45:03.03	293.12	13.33	-49.3	-64.5	3.6	1.51e+00	0	38	104	0	60	60737
2026-01-07 17:45:04.04	292.96	13.27	-49.3	-64.5	3.6	1.51e+00	0	39	104	0	60	60708
2026-01-07 17:45:05.05	292.80	13.20	-49.3	-64.5	3.6	1.51e+00	0	39	104	0	60	60777
2026-01-07 17:45:06.05	292.65	13.14	-49.3	-64.5	3.6	1.51e+00	0	39	104	0	60	60967
2026-01-07 17:45:07.06	292.50	13.08	-49.3	-64.5	3.6	1.51e+00	0	38	104	0	60	60561
2026-01-07 17:45:08.07	292.34	13.02	-49.3	-64.5	3.6	1.51e+00	0	38	104	0	60	60831
2026-01-07 17:45:09.08	292.19	12.95	-49.3	-64.5	3.6	1.51e+00	0	38	104	0	60	60543
2026-01-07 17:45:10.09	292.03	12.89	-49.3	-64.5	3.6	1.51e+00	0	38	104	0	60	60509
2026-01-07 17:45:11.10	291.88	12.82	-49.3	-64.5	3.6	1.51e+00	0	38	104	0	60	60667
2026-01-07 17:45:12.11	291.73	12.76	-49.3	-64.5	3.6	1.51e+00	0	38	104	0	60	60400
2026-01-07 17:45:13.12	291.58	12.70	-49.3	-64.5	3.6	1.51e+00	0	38	104	0	60	60578
2026-01-07 17:45:14.13	291.43	12.63	-49.3	-64.5	3.6	1.51e+00	0	38	104	0	60	60853
2026-01-07 17:45:15.14	291.28	12.57	-49.3	-64.5	3.6	1.51e+00	0	38	104	0	60	60688
2026-01-07 17:45:16.15	291.13	12.51	-49.3	-64.5	3.6	1.51e+00	0	38	104	0	60	60462
2026-01-07 17:45:17.16	290.98	12.44	-49.3	-64.5	3.6	1.51e+00	0	38	104	0	60	60844
2026-01-07 17:45:18.17	290.83	12.38	-49.3	-64.5	3.6	1.51e+00	0	38	104	0	60	60697
2026-01-07 17:45:19.18	290.69	12.32	-49.3	-64.5	3.6	1.51e+00	0	38	104	0	60	60907
2026-01-07 17:45:20.19	290.54	12.25	-49.3	-64.5	3.6	1.51e+00	0	38	104	0	60	60468
2026-01-07 17:45:21.20	290.40	12.19	-49.3	-64.5	3.6	1.51e+00	0	38	104	0	60	60921
2026-01-07 17:45:22.21	290.25	12.12	-49.3	-64.5	3.6	1.51e+00	0	39	104	0	60	60595
2026-01-07 17:45:23.22	290.11	12.06	-49.3	-64.5	3.6	1.51e+00	0	38	104	0	60	60797
2026-01-07 17:45:24.23	289.96	12.00	-49.3	-64.5	3.6	1.51e+00	0	38	104	0	60	60773
2026-01-07 17:45:25.24	289.82	11.93	-49.3	-64.5	3.6	1.51e+00	0	38	104	0	60	60528
2026-01-07 17:45:26.25	289.68	11.87	-49.3	-64.5	3.6	1.51e+00	0	38	104	0	60	60567
2026-01-07 17:45:27.26	289.53	11.81	-49.2	-64.5	3.6	1.51e+00	0	38	104	0	60	60932
2026-01-07 17:45:28.27	289.39	11.74	-49.3	-64.5	3.6	1.51e+00	0	38	104	0	60	60829
2026-01-07 17:45:29.28	289.25	11.68	-49.3	-64.5	3.6	1.51e+00	0	38	104	0	60	60771
2026-01-07 17:45:30.29	289.11	11.61	-49.3	-64.5	3.6	1.51e+00	0	38	104	0	60	60943
2026-01-07 17:45:31.30	288.97	11.55	-49.3	-64.5	3.5	1.51e+00	0	38	104	0	60	60449
2026-01-07 17:45:32.31	288.83	11.49	-49.2	-64.5	3.6	1.51e+00	0	38	104	0	60	60884
2026-01-07 17:45:33.32	288.69	11.42	-49.3	-64.5	3.6	1.51e+00	0	39	104	0	60	60989
2026-01-07 17:45:34.33	288.56	11.36	-49.3	-64.5	3.6	1.51e+00	0	38	104	0	60	60525
2026-01-07 17:45:35.34	288.42	11.29	-49.3	-64.5	3.6	1.51e+00	0	38	104	0	60	60563
2026-01-07 17:45:36.35	288.28	11.23	-49.2	-64.5	3.6	1.51e+00	0	38	104	0	60	60664
2026-01-07 17:45:37.36	288.15	11.17	-49.3	-64.5	3.6	1.51e+00	0	38	104	0	60	60699
2026-01-07 17:45:38.37	288.01	11.10	-49.3	-64.5	3.6	1.51e+00	0	38	104	0	60	60818
2026-01-07 17:45:39.38	287.88	11.04	-49.3	-64.5	3.6	1.51e+00	0	38	104	0	60	60728
2026-01-07 17:45:40.39	287.74	10.98	-49.3	-64.5	3.6	1.51e+00	0	38	104	0	60	60674
2026-01-07 17:45:41.40	287.61	10.91	-49.3	-64.5	3.6	1.51e+00	0	38	104	0	60	60393
2026-01-07 17:45:42.41	287.48	10.85	-49.3	-64.5	3.6	1.51e+00	0	38	104	0	60	60472
2026-01-07 17:45:43.42	287.35	10.78	-49.3	-64.5	3.6	1.51e+00	0	38	104	0	60	60414
2026-01-07 17:45:44.43	287.21	10.72	-49.2	-64.5	3.6	1.51e+00	0	38	104	0	60	60665
2026-01-07 17:45:45.44	287.08	10.66	-49.3	-64.5	3.6	1.51e+00	0	38	104	0	60	60765
2026-01-07 17:45:46.45	286.95	10.59	-49.3	-64.5	3.6	1.51e+00	0	38	104	0	60	60689
2026-01-07 17:45:47.46	286.82	10.53	-49.3	-64.5	3.6	1.51e+00	0	38	104	0	60	60560
2026-01-07 17:45:48.47	286.69	10.47	-49.3	-64.5	3.6	1.51e+00	0	39	104	0	60	60419
2026-01-07 17:45:49.48	286.56	10.40	-49.3	-64.5	3.6	1.51e+00	0	38	104	0	60	60499
2026-01-07 17:45:50.49	286.44	10.34	-49.3	-64.5	3.6	1.51e+00	0	38	104	0	60	60709
2026-01-07 17:45:51.50	286.31	10.27	-49.3	-64.5	3.6	1.51e+00	0	38	104	0	60	60573
2026-01-07 17:45:52.51	286.18	10.21	-49.3	-64.5	3.6	1.51e+00	0	39	104	0	60	60606
2026-01-07 17:45:53.52	286.05	10.15	-49.3	-64.5	3.6	1.51e+00	0	38	104	0	60	60806
2026-01-07 17:45:54.53	285.93	10.08	-49.2	-64.5	3.6	1.51e+00	0	39	104	0	60	60931
2026-01-07 17:45:55.53	285.80	10.02	-49.3	-64.5	3.6	1.51e+00	0	39	104	0	60	60606
2026-01-07 17:45:56.54	285.68	9.96	-49.3	-64.5	3.6	1.51e+00	0	38	104	0	60	60382
2026-01-07 17:45:57.56	285.55	9.89	-49.3	-64.5	3.6	1.51e+00	0	38	104	0	60	60797
2026-01-07 17:45:58.57	285.43	9.83	-49.3	-64.5	3.6	1.51e+00	0	38	104	0	60	60740
2026-01-07 17:45:59.58	285.31	9.77	-49.3	-64.5	3.6	1.51e+00	0	38	104	0	60	60554
2026-01-07 17:46:00.59	285.18	9.70	-49.3	-64.5	3.6	1.51e+00	0	39	104	0	60	60896
2026-01-07 17:46:01.60	285.06	9.64	-49.3	-64.5	3.6	1.51e+00	0	38	104	0	60	60479
2026-01-07 17:46:02.61	284.94	9.58	-49.3	-64.5	3.6	1.51e+00	0	38	104	0	60	60616
2026-01-07 17:46:03.62	284.82	9.51	-49.2	-64.5	3.6	1.51e+00	0	38	104	0	60	60739
2026-01-07 17:46:04.62	284.70	9.45	-49.3	-64.5	3.5	1.51e+00	0	38	104	0	60	60513
2026-01-07 17:46:05.64	284.58	9.39	-49.3	-64.5	3.6	1.51e+00	0	38	104	0	60	60631
2026-01-07 17:46:06.64	284.46	9.32	-49.2	-64.5	3.6	1.51e+00	0	38	104	0	60	60436
2026-01-07 17:46:07.65	284.34	9.26	-49.3	-64.5	3.6	1.51e+00	0	38	104	0	60	60466
2026-01-07 17:46:08.66	284.22	9.20	-49.3	-64.5	3.6	1.51e+00	0	38	104	0	60	60761
2026-01-07 17:46:09.67	284.11	9.14	-49.3	-64.6	3.6	1.51e+00	0	39	104	0	60	61079
2026-01-07 17:46:10.68	283.99	9.07	-49.2	-64.5	3.6	1.51e+00	0	38	104	0	60	60860
2026-01-07 17:46:11.69	283.87	9.01	-49.2	-64.5	3.6	1.51e+00	0	38	104	0	60	60918
2026-01-07 17:46:12.70	283.76	8.95	-49.3	-64.5	3.6	1.51e+00	0	38	104	0	60	60880
2026-01-07 17:46:13.72	283.64	8.88	-49.3	-64.5	3.6	1.51e+00	0	38	104	0	60	60760
2026-01-07 17:46:14.72	283.52	8.82	-49.3	-64.4	3.6	1.51e+00	0	38	104	0	60	60215
2026-01-07 17:46:15.73	283.41	8.76	-49.2	-64.5	3.6	1.51e+00	0	38	104	0	60	60936
2026-01-07 17:46:16.74	283.29	8.70	-49.2	-64.5	3.6	1.51e+00	0	38	104	0	60	60951
2026-01-07 17:46:17.75	283.18	8.63	-49.2	-64.5	3.6	1.51e+00	0	38	104	0	60	60560
2026-01-07 17:46:18.76	283.07	8.57	-49.2	-64.5	3.6	1.51e+00	0	38	104	0	60	60546
2026-01-07 17:46:19.77	282.96	8.51	-49.2	-64.5	3.6	1.51e+00	0	38	104	0	60	60627
2026-01-07 17:46:20.78	282.84	8.45	-49.2	-64.6	3.6	1.51e+00	0	39	104	0	60	61102
2026-01-07 17:46:21.79	282.73	8.38	-49.2	-64.5	3.6	1.51e+00	0	39	104	0	60	60800
2026-01-07 17:46:22.80	282.62	8.32	-49.2	-64.5	3.6	1.51e+00	0	38	104	0	60	60574
2026-01-07 17:46:23.81	282.51	8.26	-49.3	-64.5	3.6	1.51e+00	0	38	104	0	60	60905
2026-01-07 17:46:24.82	282.40	8.20	-49.2	-64.5	3.6	1.51e+00	0	38	104	0	60	60538
2026-01-07 17:46:25.83	282.29	8.13	-49.2	-64.5	3.6	1.51e+00	0	38	104	0	60	60523
2026-01-07 17:46:26.84	282.18	8.07	-49.3	-64.5	3.6	1.51e+00	0	38	104	0	60	60536
2026-01-07 17:46:27.85	282.07	8.01	-49.2	-64.5	3.6	1.51e+00	0	39	104	0	60	60599
2026-01-07 17:46:28.86	281.96	7.95	-49.3	-64.5	3.6	1.51e+00	0	38	104	0	60	60821
2026-01-07 17:46:29.87	281.85	7.89	-49.3	-64.5	3.6	1.51e+00	0	38	104	0	60	60762
2026-01-07 17:46:30.88	281.75	7.82	-49.2	-64.5	3.6	1.51e+00	0	38	104	0	60	60545
2026-01-07 17:46:31.89	281.64	7.76	-49.3	-64.5	3.6	1.51e+00	0	38	104	0	60	60712
2026-01-07 17:46:32.90	281.53	7.70	-49.2	-64.5	3.6	1.51e+00	0	38	104	0	60	60667
2026-01-07 17:46:33.91	281.43	7.64	-49.3	-64.5	3.6	1.51e+00	0	38	104	0	60	60497
2026-01-07 17:46:34.92	281.32	7.58	-49.2	-64.5	3.6	1.51e+00	0	38	104	0	60	60513
2026-01-07 17:46:35.93	281.22	7.51	-49.3	-64.5	3.6	1.51e+00	0	38	104	0	60	60827
2026-01-07 17:46:36.94	281.11	7.45	-49.3	-64.5	3.6	1.51e+00	0	38	104	0	60	60647
2026-01-07 17:46:37.95	281.01	7.39	-49.3	-64.5	3.6	1.51e+00	0	39	104	0	60	60882
2026-01-07 17:46:38.96	280.90	7.33	-49.3	-64.5	3.6	1.51e+00	0	38	104	0	60	60844
2026-01-07 17:46:39.97	280.80	7.27	-49.2	-64.5	3.6	1.51e+00	0	38	104	0	60	60447
2026-01-07 17:46:40.98	280.70	7.21	-49.2	-64.5	3.6	1.51e+00	0	38	104	0	60	60551
2026-01-07 17:46:41.99	280.59	7.15	-49.3	-64.5	3.6	1.51e+00	0	38	104	0	60	60581
2026-01-07 17:46:43.00	280.49	7.08	-49.2	-64.5	3.6	1.51e+00	0	38	104	0	60	60689
2026-01-07 17:46:44.01	280.39	7.02	-49.2	-64.5	3.6	1.51e+00	0	39	104	0	60	60777
2026-01-07 17:46:45.02	280.29	6.96	-49.2	-64.5	3.6	1.51e+00	0	38	104	0	60	60913
2026-01-07 17:46:46.03	280.19	6.90	-49.3	-64.5	3.6	1.51e+00	0	38	104	0	60	60582
2026-01-07 17:46:47.04	280.09	6.84	-49.2	-64.5	3.6	1.51e+00	0	38	104	0	60	60351
2026-01-07 17:46:48.04	279.99	6.78	-49.3	-64.5	3.6	1.51e+00	0	38	104	0	60	60823
2026-01-07 17:46:49.05	279.89	6.72	-49.3	-64.5	3.6	1.51e+00	0	38	104	0	60	60719
2026-01-07 17:46:50.07	279.79	6.66	-49.2	-64.5	3.6	1.51e+00	0	38	104	0	60	60454
2026-01-07 17:46:51.07	279.69	6.60	-49.3	-64.5	3.6	1.51e+00	0	38	104	0	60	60503
2026-01-07 17:46:52.09	279.59	6.53	-49.3	-64.5	3.6	1.51e+00	0	38	104	0	60	60734
2026-01-07 17:46:53.09	279.50	6.47	-49.3	-64.5	3.6	1.51e+00	0	38	104	0	60	60568
2026-01-07 17:46:54.10	279.40	6.41	-49.2	-64.5	3.6	1.51e+00	0	38	104	0	60	60701
2026-01-07 17:46:55.11	279.30	6.35	-49.3	-64.5	3.6	1.51e+00	0	38	104	0	60	60625
2026-01-07 17:46:56.12	279.21	6.29	-49.3	-64.6	3.6	1.51e+00	0	38	104	0	60	61096
2026-01-07 17:46:57.13	279.11	6.23	-49.2	-64.5	3.6	1.51e+00	0	38	104	0	60	60711
2026-01-07 17:46:58.14	279.01	6.17	-49.3	-64.5	3.6	1.51e+00	0	38	104	0	60	60612
2026-01-07 17:46:59.15	278.92	6.11	-49.3	-64.5	3.6	1.51e+00	0	38	104	0	60	60442
2026-01-07 17:47:00.17	278.82	6.05	-49.3	-64.5	3.6	1.51e+00	0	38	104	0	60	60676
2026-01-07 17:47:01.17	278.73	5.99	-49.3	-64.5	3.6	1.51e+00	0	38	104	0	60	60894
2026-01-07 17:47:02.19	278.63	5.93	-49.3	-64.5	3.6	1.51e+00	0	38	104	0	60	60363
2026-01-07 17:47:03.19	278.54	5.87	-49.2	-64.5	3.6	1.51e+00	0	38	104	0	60	60487
2026-01-07 17:47:04.20	278.45	5.81	-49.3	-64.5	3.6	1.51e+00	0	38	104	0	60	60565
2026-01-07 17:47:05.21	278.36	5.75	-49.2	-64.5	3.6	1.51e+00	0	39	104	0	60	60609
2026-01-07 17:47:06.22	278.26	5.69	-49.3	-64.5	3.6	1.51e+00	0	39	104	0	60	60682
2026-01-07 17:47:07.23	278.17	5.63	-49.3	-64.5	3.6	1.51e+00	0	38	104	0	60	60690
2026-01-07 17:47:08.24	278.08	5.57	-49.3	-64.5	3.6	1.51e+00	0	38	104	0	60	60750
2026-01-07 17:47:09.25	277.99	5.51	-49.3	-64.5	3.6	1.51e+00	0	38	104	0	60	60554
2026-01-07 17:47:10.26	277.90	5.45	-49.3	-64.5	3.6	1.51e+00	0	38	104	0	60	60786
2026-01-07 17:47:11.27	277.81	5.39	-49.3	-64.5	3.6	1.51e+00	0	38	104	0	60	60665
2026-01-07 17:47:12.28	277.72	5.33	-49.3	-64.5	3.6	1.51e+00	0	38	104	0	60	60673
2026-01-07 17:47:13.29	277.63	5.27	-49.2	-64.5	3.6	1.51e+00	0	38	104	0	60	60800
2026-01-07 17:47:14.30	277.54	5.22	-49.2	-64.5	3.6	1.51e+00	0	38	104	0	60	60581
2026-01-07 17:47:15.31	277.45	5.16	-49.3	-64.5	3.6	1.51e+00	0	38	104	0	60	60563
2026-01-07 17:47:16.32	277.36	5.10	-49.2	-64.5	3.6	1.51e+00	0	38	104	0	60	60545
2026-01-07 17:47:17.33	277.27	5.04	-49.3	-64.5	3.6	1.51e+00	0	38	104	0	60	60553
2026-01-07 17:47:18.34	277.18	4.98	-49.3	-64.5	3.6	1.51e+00	0	38	104	0	60	60518
2026-01-07 17:47:19.35	277.10	4.92	-49.3	-64.5	3.6	1.51e+00	0	39	104	0	60	60699
2026-01-07 17:47:20.36	277.01	4.86	-49.3	-64.5	3.6	1.51e+00	0	39	104	0	60	60480
2026-01-07 17:47:21.37	276.92	4.80	-49.2	-64.6	3.6	1.51e+00	0	39	104	0	60	61115
2026-01-07 17:47:22.38	276.84	4.74	-49.3	-64.5	3.6	1.51e+00	0	38	104	0	60	60977
2026-01-07 17:47:23.39	276.75	4.68	-49.3	-64.5	3.6	1.51e+00	0	39	104	0	60	60543
2026-01-07 17:47:24.40	276.66	4.63	-49.3	-64.5	3.6	1.51e+00	0	39	104	0	60	60728
2026-01-07 17:47:25.41	276.58	4.57	-49.3	-64.5	3.6	1.51e+00	0	38	104	0	60	60626
2026-01-07 17:47:26.41	276.49	4.51	-49.3	-64.5	3.6	1.51e+00	0	38	104	0	60	60467
2026-01-07 17:47:27.43	276.41	4.45	-49.3	-64.5	3.6	1.51e+00	0	39	104	0	60	60399
2026-01-07 17:47:28.43	276.33	4.39	-49.3	-64.5	3.6	1.51e+00	0	39	104	0	60	60825
2026-01-07 17:47:29.44	276.24	4.33	-49.3	-64.5	3.6	1.51e+00	0	38	104	0	60	60547
2026-01-07 17:47:30.45	276.16	4.28	-49.3	-64.5	3.6	1.51e+00	0	39	104	0	60	60752
2026-01-07 17:47:31.46	276.07	4.22	-49.3	-64.5	3.6	1.51e+00	0	39	104	0	60	60772
2026-01-07 17:47:32.47	275.99	4.16	-49.3	-64.5	3.6	1.51e+00	0	38	104	0	60	60872
2026-01-07 17:47:33.48	275.91	4.10	-49.3	-64.5	3.6	1.51e+00	0	39	104	0	60	60630
2026-01-07 17:47:34.49	275.83	4.04	-49.3	-64.5	3.6	1.51e+00	0	39	104	0	60	60820
2026-01-07 17:47:35.50	275.74	3.99	-49.3	-64.5	3.6	1.51e+00	0	39	104	0	60	60568
2026-01-07 17:47:36.51	275.66	3.93	-49.2	-64.5	3.6	1.51e+00	0	39	104	0	60	60541
2026-01-07 17:47:37.52	275.58	3.87	-49.3	-64.5	3.6	1.51e+00	0	39	104	0	60	60578
2026-01-07 17:47:38.53	275.50	3.81	-49.3	-64.5	3.6	1.51e+00	0	38	104	0	60	60653
2026-01-07 17:47:39.54	275.42	3.76	-49.3	-64.5	3.6	1.51e+00	0	38	104	0	60	60710
2026-01-07 17:47:40.55	275.34	3.70	-49.3	-64.5	3.6	1.51e+00	0	39	104	0	60	60618
2026-01-07 17:47:41.56	275.26	3.64	-49.3	-64.5	3.6	1.51e+00	0	39	104	0	60	60532
2026-01-07 17:47:42.57	275.18	3.58	-49.3	-64.5	3.6	1.51e+00	0	38	104	0	60	60497
2026-01-07 17:47:43.58	275.10	3.53	-49.3	-64.5	3.6	1.51e+00	0	39	104	0	60	60823
2026-01-07 17:47:44.59	275.02	3.47	-49.3	-64.5	3.6	1.51e+00	0	38	104	0	60	60664
2026-01-07 17:47:45.60	274.94	3.41	-49.3	-64.5	3.6	1.51e+00	0	39	104	0	60	60627
