passes_logs/2026/01/07/R4.6S_Anadyr/R4.6S_Anadyr__20260107_134029_AQUA_rec.log

#Pass ID: 20260107_134029_AQUA
#Satellite: AQUA
#Configuration: AQUA
#almurnet v.1.7.20251203
#Start time: 2026-01-07 13:40:32

#Version: 2.2.20231116
#Station: R4.6S_Anadyr
#Location: 177.4865 lon 64.73178 lat
#TLE: 1 27424U 02022A   26004.96787593  .00001598  00000+0  32997-3 0  9996
#TLE: 2 27424  98.4069 331.2279 0002002  90.2377   0.6092 14.61798176259425

#Time	Az	El	Level	Level2	SNR	BER	BlckErr	Temp	State	Recorded	gain1	gain2
2026-01-07 13:40:32.77	23.41	0.14	-49.7	-66.1	3.3	3.04e+01	0	37	0	0	60	77310
2026-01-07 13:40:33.78	23.51	0.18	-49.7	-67.6	3.5	3.04e+01	0	37	104	0	60	92334
2026-01-07 13:40:34.78	23.61	0.22	-49.7	-67.6	3.5	3.04e+01	0	37	104	0	60	92835
2026-01-07 13:40:35.79	23.71	0.27	-49.8	-67.6	3.5	3.04e+01	0	37	104	0	60	92410
2026-01-07 13:40:36.80	23.81	0.31	-49.5	-67.6	3.5	3.04e+01	0	37	104	0	60	92342
2026-01-07 13:40:37.81	23.91	0.36	-49.5	-67.5	3.5	3.04e+01	0	37	104	0	60	91749
2026-01-07 13:40:38.82	24.01	0.40	-49.6	-67.4	3.5	3.04e+01	0	37	104	0	60	90578
2026-01-07 13:40:39.83	24.12	0.45	-49.5	-67.4	3.5	3.04e+01	0	37	104	0	60	90515
2026-01-07 13:40:40.84	24.22	0.49	-49.1	-67.3	3.5	3.04e+01	0	37	104	0	60	89544
2026-01-07 13:40:41.85	24.32	0.53	-49.3	-67.2	3.5	3.04e+01	0	38	104	0	60	88544
2026-01-07 13:40:42.86	24.43	0.58	-49.1	-67.1	3.5	3.04e+01	0	37	104	0	60	87434
2026-01-07 13:40:43.87	24.53	0.62	-49.0	-67.0	3.5	3.04e+01	0	37	104	0	60	85848
2026-01-07 13:40:44.88	24.64	0.67	-48.8	-66.7	3.5	3.04e+01	0	37	104	0	60	83189
2026-01-07 13:40:45.89	24.74	0.71	-48.2	-66.3	3.5	3.04e+01	0	38	104	0	60	79210
2026-01-07 13:40:46.90	24.85	0.76	-48.1	-66.0	3.5	3.04e+01	0	38	104	0	60	76734
2026-01-07 13:40:47.91	24.95	0.80	-48.1	-66.0	3.5	3.04e+01	0	38	104	0	60	76363
2026-01-07 13:40:48.92	25.06	0.84	-48.0	-65.9	3.5	3.04e+01	0	37	104	0	60	76284
2026-01-07 13:40:49.93	25.16	0.89	-48.0	-66.0	3.5	3.04e+01	0	38	104	0	60	76937
2026-01-07 13:40:50.94	25.27	0.93	-48.1	-66.0	3.5	3.04e+01	0	37	104	0	60	76822
2026-01-07 13:40:51.95	25.38	0.98	-48.1	-66.0	3.5	3.04e+01	0	37	104	0	60	76678
2026-01-07 13:40:52.96	25.48	1.02	-48.0	-65.8	3.5	3.04e+01	0	38	104	0	60	75323
2026-01-07 13:40:53.97	25.59	1.07	-48.0	-65.8	3.5	3.04e+01	0	38	104	0	60	75155
2026-01-07 13:40:54.98	25.70	1.11	-48.0	-65.8	3.5	3.04e+01	0	38	104	0	60	74945
2026-01-07 13:40:55.99	25.81	1.16	-48.0	-65.9	3.5	3.04e+01	0	38	104	0	60	75568
2026-01-07 13:40:57.00	25.92	1.20	-48.0	-66.0	3.5	3.04e+01	0	38	104	0	60	76367
2026-01-07 13:40:58.01	26.02	1.24	-48.0	-66.0	3.5	3.04e+01	0	38	104	0	60	76807
2026-01-07 13:40:59.03	26.13	1.29	-48.0	-66.0	3.5	3.04e+01	0	37	104	0	60	76684
2026-01-07 13:41:00.03	26.24	1.33	-48.0	-66.0	3.5	3.04e+01	0	38	104	0	60	76752
2026-01-07 13:41:01.04	26.35	1.38	-48.0	-66.0	3.5	3.04e+01	0	38	104	0	60	76565
2026-01-07 13:41:02.05	26.46	1.42	-48.0	-66.0	3.5	3.04e+01	0	38	104	0	60	76478
2026-01-07 13:41:03.06	26.57	1.47	-48.0	-66.0	3.5	3.04e+01	0	38	104	0	60	76514
2026-01-07 13:41:04.07	26.68	1.51	-48.0	-65.9	3.5	3.04e+01	0	38	104	0	60	75876
2026-01-07 13:41:05.08	26.80	1.55	-48.0	-65.9	3.5	3.04e+01	0	38	104	0	60	76328
2026-01-07 13:41:06.09	26.91	1.60	-48.0	-66.0	3.5	3.04e+01	0	38	104	0	60	76431
2026-01-07 13:41:07.10	27.02	1.64	-48.0	-66.0	3.5	3.04e+01	0	38	104	0	60	76834
2026-01-07 13:41:08.11	27.13	1.69	-48.0	-65.9	3.5	3.04e+01	0	38	104	0	60	76042
2026-01-07 13:41:09.12	27.24	1.73	-48.0	-65.9	3.5	3.04e+01	0	38	104	0	60	75734
2026-01-07 13:41:10.13	27.36	1.78	-48.0	-65.8	3.5	3.04e+01	0	38	104	0	60	75113
2026-01-07 13:41:11.14	27.47	1.82	-48.0	-66.0	3.5	3.04e+01	0	38	104	0	60	76586
2026-01-07 13:41:12.15	27.58	1.87	-48.0	-66.0	3.5	3.04e+01	0	38	104	0	60	76485
2026-01-07 13:41:13.16	27.70	1.91	-48.0	-66.0	3.5	3.04e+01	0	38	104	0	60	76972
2026-01-07 13:41:14.17	27.81	1.95	-48.0	-66.0	3.5	3.04e+01	0	38	104	0	60	76847
2026-01-07 13:41:15.18	27.93	2.00	-48.0	-66.0	3.5	3.04e+01	0	38	104	0	60	76655
2026-01-07 13:41:16.19	28.04	2.04	-48.0	-66.0	3.5	3.04e+01	0	38	104	0	60	77079
2026-01-07 13:41:17.20	28.16	2.09	-48.0	-66.0	3.5	3.04e+01	0	38	104	0	60	76757
2026-01-07 13:41:18.21	28.27	2.13	-48.0	-66.0	3.5	3.04e+01	0	38	104	0	60	77034
2026-01-07 13:41:19.22	28.39	2.18	-48.0	-66.0	3.5	3.04e+01	0	38	104	0	60	76806
2026-01-07 13:41:20.23	28.51	2.22	-48.0	-66.0	3.5	3.04e+01	0	38	104	0	60	76566
2026-01-07 13:41:21.24	28.62	2.26	-48.0	-66.0	3.5	3.04e+01	0	38	104	0	60	76735
2026-01-07 13:41:22.25	28.74	2.31	-48.0	-66.0	3.5	3.04e+01	0	38	104	0	60	76811
2026-01-07 13:41:23.26	28.86	2.35	-48.0	-66.0	3.5	3.04e+01	0	38	104	0	60	76810
2026-01-07 13:41:24.27	28.98	2.40	-48.0	-65.9	3.5	3.04e+01	0	38	104	0	60	76341
2026-01-07 13:41:25.28	29.09	2.44	-48.0	-66.0	3.5	3.04e+01	0	38	104	0	60	76373
2026-01-07 13:41:26.29	29.21	2.49	-48.0	-66.0	3.5	3.04e+01	0	38	104	0	60	76503
2026-01-07 13:41:27.30	29.33	2.53	-48.0	-65.7	3.5	3.04e+01	0	38	104	0	60	73934
2026-01-07 13:41:28.31	29.45	2.57	-47.9	-65.4	3.5	3.04e+01	0	38	104	0	60	71295
2026-01-07 13:41:29.32	29.57	2.62	-48.0	-65.6	3.5	3.04e+01	0	38	104	0	60	73277
2026-01-07 13:41:30.33	29.69	2.66	-47.8	-64.6	3.5	3.04e+01	0	38	104	0	60	65731
2026-01-07 13:41:31.34	29.81	2.71	-46.5	-60.3	3.7	3.04e+01	0	38	104	0	60	39977
2026-01-07 13:41:32.35	29.93	2.75	-44.2	-56.0	3.6	3.04e+01	0	38	104	0	60	24236
2026-01-07 13:41:33.35	30.05	2.79	-42.2	-53.2	3.5	3.04e+01	0	38	104	0	60	17603
2026-01-07 13:41:34.36	30.17	2.84	-40.9	-51.7	3.5	3.04e+01	0	38	104	0	58	16513
2026-01-07 13:41:35.37	30.30	2.88	-40.9	-51.6	3.5	3.04e+01	0	38	104	0	56	18434
2026-01-07 13:41:36.38	30.42	2.93	-41.7	-52.6	3.5	3.04e+01	0	38	104	0	56	20786
2026-01-07 13:41:37.39	30.54	2.97	-43.2	-54.6	3.5	3.04e+01	0	38	104	0	58	23211
2026-01-07 13:41:38.40	30.67	3.01	-45.7	-58.8	3.5	3.04e+01	0	38	104	0	60	33352
2026-01-07 13:41:39.41	30.79	3.06	-43.7	-55.3	3.5	3.04e+01	0	38	104	0	60	22449
2026-01-07 13:41:40.42	30.91	3.10	-39.8	-50.4	3.5	3.04e+01	0	38	104	0	54	17991
2026-01-07 13:41:41.43	31.04	3.15	-47.6	-65.8	3.5	3.04e+01	0	38	104	0	60	75004
2026-01-07 13:41:42.44	31.16	3.19	-44.7	-56.9	3.5	3.04e+01	0	38	104	0	60	26800
2026-01-07 13:41:43.45	31.29	3.23	-45.9	-58.9	3.5	3.04e+01	0	38	104	0	60	33849
2026-01-07 13:41:44.46	31.41	3.28	-46.7	-61.0	3.6	3.04e+01	0	38	104	0	60	43263
2026-01-07 13:41:45.47	31.54	3.32	-41.8	-52.6	3.5	3.04e+01	0	38	104	0	58	18510
2026-01-07 13:41:46.48	31.67	3.37	-41.7	-52.6	3.5	3.04e+01	0	38	104	0	58	18523
2026-01-07 13:41:47.49	31.79	3.41	-40.9	-51.7	3.5	3.04e+01	0	38	104	0	56	18543
2026-01-07 13:41:48.50	31.92	3.45	-43.8	-55.3	3.5	3.04e+01	0	38	104	0	58	25095
2026-01-07 13:41:49.50	32.05	3.50	-42.2	-53.2	3.5	3.04e+01	0	38	104	0	60	17637
2026-01-07 13:41:50.51	32.18	3.54	-46.9	-61.2	3.5	3.04e+01	0	38	104	0	60	44105
2026-01-07 13:41:51.52	32.30	3.58	-48.1	-66.0	3.5	3.04e+01	0	38	104	0	60	76634
2026-01-07 13:41:52.53	32.43	3.63	-40.5	-51.2	3.5	3.04e+01	0	38	104	0	60	14050
2026-01-07 13:41:53.54	32.56	3.67	-42.1	-53.1	3.5	3.04e+01	0	38	104	0	60	17451
2026-01-07 13:41:54.55	32.69	3.71	-40.0	-50.6	3.5	3.04e+01	0	38	104	0	56	16359
2026-01-07 13:41:55.56	32.82	3.76	-39.4	-49.9	3.5	3.04e+01	0	38	104	0	54	17082
2026-01-07 13:41:56.57	32.95	3.80	-39.3	-49.8	3.5	3.04e+01	0	38	104	0	54	16713
2026-01-07 13:41:57.58	33.08	3.85	-39.5	-50.0	3.5	3.04e+01	0	38	104	0	54	17127
2026-01-07 13:41:58.59	33.21	3.89	-39.1	-49.6	3.5	3.04e+01	0	38	104	0	54	16346
2026-01-07 13:41:59.60	33.35	3.93	-47.2	-62.3	3.5	3.04e+01	0	38	104	0	60	50006
2026-01-07 13:42:00.61	33.48	3.98	-48.2	-65.9	3.5	3.04e+01	0	38	104	0	60	76193
2026-01-07 13:42:01.62	33.61	4.02	-39.6	-50.2	3.5	3.04e+01	0	38	104	0	60	12473
2026-01-07 13:42:02.63	33.74	4.06	-41.8	-52.8	3.5	3.04e+01	0	38	104	0	60	16725
2026-01-07 13:42:03.64	33.88	4.11	-40.2	-50.8	3.5	3.04e+01	0	38	104	0	56	16747
2026-01-07 13:42:04.65	34.01	4.15	-40.6	-51.2	3.5	3.04e+01	0	38	104	0	56	17636
2026-01-07 13:42:05.66	34.14	4.19	-40.2	-50.8	3.5	3.04e+01	0	38	104	0	56	16849
2026-01-07 13:42:06.67	34.28	4.23	-42.3	-53.3	3.5	3.04e+01	0	38	104	0	56	22424
2026-01-07 13:42:07.68	34.41	4.28	-39.1	-49.5	3.5	3.04e+01	0	38	104	0	54	16254
2026-01-07 13:42:08.69	34.55	4.32	-48.2	-66.0	3.5	3.04e+01	0	38	104	0	60	77076
2026-01-07 13:42:09.70	34.69	4.36	-48.1	-65.3	3.5	3.04e+01	0	38	104	0	60	70442
2026-01-07 13:42:10.70	34.82	4.41	-40.1	-50.7	3.5	3.04e+01	0	38	104	0	52	20927
2026-01-07 13:42:11.71	34.96	4.45	-40.9	-51.7	3.5	3.04e+01	0	38	104	0	58	16518
2026-01-07 13:42:12.72	35.09	4.49	-39.5	-50.0	3.5	3.04e+01	0	38	104	0	54	17234
2026-01-07 13:42:13.73	35.23	4.53	-39.4	-49.8	3.5	3.04e+01	0	38	104	0	54	16811
2026-01-07 13:42:14.74	35.37	4.58	-39.8	-50.3	3.5	3.04e+01	0	38	104	0	54	17894
2026-01-07 13:42:15.75	35.51	4.62	-39.1	-49.5	3.5	3.04e+01	0	38	104	0	52	18149
2026-01-07 13:42:16.76	35.65	4.66	-39.5	-49.9	3.5	3.04e+01	0	38	104	0	52	19165
2026-01-07 13:42:17.77	35.79	4.71	-48.3	-66.0	3.5	3.04e+01	0	38	104	0	60	76957
2026-01-07 13:42:18.78	35.93	4.75	-48.2	-65.5	3.5	3.04e+01	0	38	104	0	60	72382
2026-01-07 13:42:19.79	36.07	4.79	-42.7	-53.9	3.5	3.04e+01	0	38	104	0	54	26779
2026-01-07 13:42:20.80	36.21	4.83	-40.5	-51.2	3.5	3.04e+01	0	38	104	0	58	15615
2026-01-07 13:42:21.81	36.35	4.88	-39.7	-50.3	3.5	3.04e+01	0	38	104	0	54	17705
2026-01-07 13:42:22.82	36.49	4.92	-39.3	-49.7	3.5	3.04e+01	0	38	104	0	54	16591
2026-01-07 13:42:23.83	36.63	4.96	-39.0	-49.4	3.5	3.04e+01	0	38	104	0	54	16122
2026-01-07 13:42:24.84	36.77	5.00	-39.7	-50.1	3.5	3.04e+01	0	38	104	0	52	19562
2026-01-07 13:42:25.85	36.92	5.04	-39.2	-49.6	3.6	3.04e+01	0	38	104	0	52	18513
2026-01-07 13:42:26.86	37.06	5.09	-48.3	-65.3	3.5	3.04e+01	0	38	104	0	60	71116
2026-01-07 13:42:27.87	37.20	5.13	-48.2	-65.0	3.5	3.04e+01	0	38	104	0	60	68599
2026-01-07 13:42:28.88	37.35	5.17	-43.4	-54.7	3.5	3.04e+01	0	38	104	0	56	26230
2026-01-07 13:42:29.89	37.49	5.21	-40.2	-50.9	3.5	3.04e+01	0	38	104	0	56	17002
2026-01-07 13:42:30.90	37.64	5.25	-39.2	-49.7	3.5	3.04e+01	0	38	104	0	54	16676
2026-01-07 13:42:31.91	37.78	5.30	-38.8	-49.2	3.5	3.04e+01	0	38	104	0	52	17671
2026-01-07 13:42:32.92	37.93	5.34	-38.6	-48.9	3.5	3.04e+01	0	38	104	0	52	16922
2026-01-07 13:42:33.93	38.07	5.38	-40.4	-51.0	3.5	3.04e+01	0	38	104	0	54	19256
2026-01-07 13:42:34.94	38.22	5.42	-39.2	-49.6	3.5	3.04e+01	0	38	104	0	52	18339
2026-01-07 13:42:35.94	38.37	5.46	-48.3	-65.1	3.5	3.04e+01	0	38	104	0	60	69084
2026-01-07 13:42:36.95	38.51	5.50	-48.2	-65.1	3.5	3.04e+01	0	38	104	0	60	69553
2026-01-07 13:42:37.96	38.66	5.54	-44.9	-56.9	3.5	3.04e+01	0	38	104	0	60	26909
2026-01-07 13:42:38.97	38.81	5.58	-40.0	-50.6	3.5	3.04e+01	0	38	104	0	56	16354
2026-01-07 13:42:39.98	38.96	5.63	-39.8	-50.2	3.5	3.04e+01	0	38	104	0	54	17626
2026-01-07 13:42:40.99	39.11	5.67	-40.1	-50.6	3.5	3.04e+01	0	38	104	0	54	18375
2026-01-07 13:42:42.00	39.26	5.71	-39.6	-50.0	3.5	3.04e+01	0	38	104	0	54	17201
2026-01-07 13:42:43.01	39.41	5.75	-44.8	-56.5	3.5	3.04e+01	0	38	104	0	60	25785
2026-01-07 13:42:44.01	39.56	5.79	-39.2	-49.6	3.5	3.04e+01	0	37	104	0	52	18504
2026-01-07 13:42:45.02	39.71	5.83	-48.4	-65.2	3.5	3.04e+01	0	38	104	0	60	69732
2026-01-07 13:42:46.03	39.86	5.87	-48.2	-65.1	3.5	3.04e+01	0	38	104	0	60	69098
2026-01-07 13:42:47.04	40.01	5.91	-45.3	-57.4	3.5	3.04e+01	0	38	104	0	60	28478
2026-01-07 13:42:48.05	40.16	5.95	-39.8	-50.3	3.5	3.04e+01	0	38	104	0	56	15896
2026-01-07 13:42:49.06	40.32	5.99	-38.9	-49.3	3.5	3.04e+01	0	38	104	0	52	17704
2026-01-07 13:42:50.07	40.47	6.03	-38.5	-48.9	3.5	3.04e+01	0	38	104	0	52	16917
2026-01-07 13:42:51.08	40.62	6.07	-38.4	-48.8	3.5	3.04e+01	0	38	104	0	52	16778
2026-01-07 13:42:52.09	40.78	6.11	-41.0	-51.8	3.5	3.04e+01	0	38	104	0	56	18816
2026-01-07 13:42:53.10	40.93	6.15	-39.2	-49.6	3.5	3.04e+01	0	38	104	0	52	18455
2026-01-07 13:42:54.11	41.09	6.19	-48.4	-65.2	3.5	3.04e+01	0	38	104	0	60	69785
2026-01-07 13:42:55.12	41.24	6.23	-48.3	-65.1	3.5	3.04e+01	0	38	104	0	60	69046
2026-01-07 13:42:56.13	41.40	6.27	-45.5	-57.7	3.5	3.04e+01	0	38	104	0	60	29446
2026-01-07 13:42:57.14	41.56	6.31	-39.8	-50.2	3.5	3.04e+01	0	38	104	0	54	17606
2026-01-07 13:42:58.15	41.71	6.35	-39.9	-50.4	3.5	3.04e+01	0	38	104	0	54	18018
2026-01-07 13:42:59.16	41.87	6.39	-39.6	-50.1	3.5	3.04e+01	0	38	104	0	54	17364
2026-01-07 13:43:00.17	42.03	6.43	-40.0	-50.6	3.5	3.04e+01	0	38	104	0	54	18461
2026-01-07 13:43:01.18	42.19	6.47	-43.7	-55.5	3.5	3.04e+01	0	38	104	0	60	22871
2026-01-07 13:43:02.19	42.34	6.51	-39.0	-49.5	3.5	3.04e+01	0	38	104	0	52	18147
2026-01-07 13:43:03.20	42.50	6.55	-48.4	-65.1	3.5	3.04e+01	0	38	104	0	60	69124
2026-01-07 13:43:04.21	42.66	6.59	-48.0	-63.4	3.5	3.04e+01	0	38	104	0	60	56719
2026-01-07 13:43:05.22	42.82	6.62	-44.4	-56.3	3.5	3.04e+01	0	38	104	0	60	25059
2026-01-07 13:43:06.23	42.98	6.66	-39.5	-50.0	3.5	3.04e+01	0	38	104	0	54	17192
2026-01-07 13:43:07.24	43.15	6.70	-40.0	-50.6	3.5	3.04e+01	0	38	104	0	54	18370
2026-01-07 13:43:08.25	43.31	6.74	-39.7	-50.3	3.5	3.04e+01	0	38	104	0	54	17825
2026-01-07 13:43:09.26	43.47	6.78	-39.0	-49.4	3.5	3.04e+01	0	38	104	0	52	17972
2026-01-07 13:43:10.27	43.63	6.82	-41.5	-52.3	3.5	3.04e+01	0	38	104	0	60	15859
2026-01-07 13:43:11.28	43.79	6.85	-40.1	-50.7	3.5	3.04e+01	0	38	104	0	52	20927
2026-01-07 13:43:12.29	43.96	6.89	-48.1	-65.7	3.5	3.04e+01	0	38	104	0	60	74366
2026-01-07 13:43:13.30	44.12	6.93	-45.4	-57.7	3.6	3.04e+01	0	38	104	0	60	29608
2026-01-07 13:43:14.31	44.28	6.97	-44.1	-55.6	3.5	3.04e+01	0	38	104	0	60	23127
2026-01-07 13:43:15.32	44.45	7.01	-39.6	-50.1	3.5	3.04e+01	0	38	104	0	54	17291
2026-01-07 13:43:16.33	44.61	7.04	-39.5	-50.0	3.5	3.04e+01	0	38	104	0	54	17121
2026-01-07 13:43:17.34	44.78	7.08	-39.0	-49.4	3.5	3.04e+01	0	37	104	0	52	18020
2026-01-07 13:43:18.35	44.95	7.12	-38.3	-48.7	3.5	3.04e+01	0	38	104	0	52	16535
2026-01-07 13:43:19.36	45.11	7.15	-38.3	-48.8	3.5	3.04e+01	0	38	104	0	52	16710
2026-01-07 13:43:20.37	45.28	7.19	-40.5	-51.2	3.6	3.04e+01	0	38	104	0	52	22028
2026-01-07 13:43:21.37	45.44	7.23	-48.1	-65.9	3.5	3.04e+01	0	38	104	0	60	76040
2026-01-07 13:43:22.38	45.61	7.26	-44.0	-55.6	3.6	3.04e+01	0	38	104	0	60	23287
2026-01-07 13:43:23.39	45.78	7.30	-43.8	-55.1	3.5	3.04e+01	0	38	104	0	60	21914
2026-01-07 13:43:24.40	45.95	7.34	-39.3	-49.8	3.5	3.04e+01	0	38	104	0	54	16724
2026-01-07 13:43:25.41	46.12	7.37	-39.4	-49.8	3.5	3.04e+01	0	38	104	0	54	16747
2026-01-07 13:43:26.42	46.29	7.41	-39.3	-49.7	3.5	3.04e+01	0	38	104	0	54	16586
2026-01-07 13:43:27.43	46.46	7.45	-39.9	-50.3	3.5	3.04e+01	0	38	104	0	54	17803
2026-01-07 13:43:28.44	46.63	7.48	-39.0	-49.3	3.6	3.04e+01	0	38	104	0	56	14170
2026-01-07 13:43:29.45	46.80	7.52	-43.7	-55.0	3.5	3.04e+01	0	38	104	0	56	27240
2026-01-07 13:43:30.46	46.97	7.55	-48.7	-66.2	3.5	3.04e+01	0	38	104	0	60	78627
2026-01-07 13:43:31.47	47.14	7.59	-39.5	-50.0	3.4	3.04e+01	0	38	104	0	60	12195
2026-01-07 13:43:32.48	47.31	7.62	-42.7	-53.8	3.5	3.04e+01	0	38	104	0	60	18785
2026-01-07 13:43:33.49	47.49	7.66	-39.4	-49.8	3.5	3.04e+01	0	38	104	0	54	16823
2026-01-07 13:43:34.50	47.66	7.69	-39.9	-50.4	3.5	3.04e+01	0	38	104	0	54	17945
2026-01-07 13:43:35.51	47.83	7.73	-39.9	-50.3	3.5	3.04e+01	0	38	104	0	54	17878
2026-01-07 13:43:36.52	48.01	7.76	-37.9	-48.2	3.5	3.04e+01	0	38	104	0	52	15658
2026-01-07 13:43:37.53	48.18	7.80	-38.0	-48.3	3.5	3.04e+01	0	38	104	0	50	17768
2026-01-07 13:43:38.54	48.35	7.83	-44.7	-56.4	3.5	3.04e+01	0	38	104	0	56	32143
2026-01-07 13:43:39.55	48.53	7.87	-48.6	-65.8	3.5	3.04e+01	0	38	104	0	60	75301
2026-01-07 13:43:40.56	48.71	7.90	-38.5	-48.8	3.6	3.04e+01	0	38	104	0	56	13304
2026-01-07 13:43:41.57	48.88	7.93	-42.2	-53.2	3.5	3.04e+01	0	38	104	0	60	17671
2026-01-07 13:43:42.58	49.06	7.97	-39.5	-50.1	3.5	3.04e+01	0	38	104	0	54	17294
2026-01-07 13:43:43.59	49.24	8.00	-38.5	-48.9	3.5	3.04e+01	0	38	104	0	52	16960
2026-01-07 13:43:44.60	49.41	8.03	-38.3	-48.6	3.5	3.04e+01	0	37	104	0	52	16406
2026-01-07 13:43:45.60	49.59	8.07	-38.0	-48.3	3.5	3.04e+01	0	38	104	0	50	17770
2026-01-07 13:43:46.61	49.77	8.10	-38.1	-48.4	3.5	3.04e+01	0	38	104	0	50	18057
2026-01-07 13:43:47.62	49.95	8.13	-48.2	-64.3	3.5	3.04e+01	0	38	104	0	60	62940
2026-01-07 13:43:48.63	50.12	8.16	-48.0	-63.4	3.5	3.04e+01	0	38	104	0	60	56621
2026-01-07 13:43:49.64	50.30	8.20	-38.3	-48.6	3.5	3.04e+01	0	38	104	0	50	18507
2026-01-07 13:43:50.65	50.48	8.23	-40.7	-51.2	3.6	3.04e+01	0	38	104	0	58	15765
2026-01-07 13:43:51.66	50.66	8.26	-39.1	-49.3	3.6	3.04e+01	0	38	104	0	52	17859
2026-01-07 13:43:52.67	50.84	8.29	-39.5	-49.9	3.5	3.04e+01	0	38	104	0	52	19053
2026-01-07 13:43:53.68	51.03	8.32	-39.1	-49.5	3.5	3.04e+01	0	38	104	0	52	18299
2026-01-07 13:43:54.69	51.21	8.36	-37.6	-48.0	3.5	3.04e+01	0	38	104	0	50	17142
2026-01-07 13:43:55.70	51.39	8.39	-37.7	-48.0	3.5	3.04e+01	0	38	104	0	50	17251
2026-01-07 13:43:56.71	51.57	8.42	-48.6	-65.5	3.5	3.04e+01	0	38	104	0	60	72664
2026-01-07 13:43:57.72	51.75	8.45	-47.8	-63.1	3.5	3.04e+01	0	38	104	0	60	55054
2026-01-07 13:43:58.73	51.94	8.48	-38.6	-49.1	3.5	3.04e+01	0	38	104	0	48	21961
2026-01-07 13:43:59.74	52.12	8.51	-39.6	-50.2	3.5	3.04e+01	0	38	104	0	56	15620
2026-01-07 13:44:00.74	52.30	8.54	-39.4	-50.0	3.5	3.04e+01	0	38	104	0	52	19205
2026-01-07 13:44:01.75	52.49	8.57	-39.1	-49.7	3.5	3.04e+01	0	38	104	0	52	18550
2026-01-07 13:44:02.76	52.67	8.60	-39.1	-49.8	3.5	3.04e+01	0	38	104	0	52	18752
2026-01-07 13:44:03.77	52.86	8.63	-37.5	-47.9	3.5	3.04e+01	0	38	104	0	50	16950
2026-01-07 13:44:04.78	53.04	8.66	-37.6	-47.9	3.5	3.04e+01	0	38	104	0	50	16907
2026-01-07 13:44:05.79	53.23	8.69	-47.6	-65.7	3.5	3.04e+01	0	38	104	0	60	74378
2026-01-07 13:44:06.80	53.42	8.72	-47.3	-64.0	3.5	3.04e+01	0	38	104	0	60	60829
2026-01-07 13:44:07.81	53.60	8.75	-41.8	-53.1	3.5	3.04e+01	0	38	104	0	52	27474
2026-01-07 13:44:08.82	53.79	8.78	-39.2	-49.9	3.5	3.04e+01	0	38	104	0	54	16918
2026-01-07 13:44:09.83	53.98	8.80	-38.9	-49.7	3.5	3.04e+01	0	38	104	0	52	18599
2026-01-07 13:44:10.84	54.17	8.83	-38.8	-49.5	3.5	3.04e+01	0	38	104	0	52	18183
2026-01-07 13:44:11.85	54.35	8.86	-38.1	-48.6	3.5	3.04e+01	0	38	104	0	52	16466
2026-01-07 13:44:12.86	54.54	8.89	-37.8	-48.1	3.5	3.04e+01	0	38	104	0	50	17391
2026-01-07 13:44:13.87	54.73	8.92	-37.5	-48.0	3.5	3.04e+01	0	38	104	0	50	17141
2026-01-07 13:44:14.88	54.92	8.94	-47.9	-65.0	3.5	3.04e+01	0	38	104	0	60	68808
2026-01-07 13:44:15.89	55.11	8.97	-47.4	-64.7	3.5	3.04e+01	0	38	104	0	60	65846
2026-01-07 13:44:16.90	55.30	9.00	-43.0	-54.1	3.5	3.04e+01	0	38	104	0	54	27490
2026-01-07 13:44:17.91	55.49	9.02	-39.5	-49.9	3.6	3.04e+01	0	38	104	0	56	15191
2026-01-07 13:44:18.92	55.68	9.05	-39.3	-49.7	3.5	3.04e+01	0	38	104	0	52	18549
2026-01-07 13:44:19.93	55.88	9.08	-39.3	-49.7	3.5	3.04e+01	0	38	104	0	52	18688
2026-01-07 13:44:20.94	56.07	9.10	-39.6	-50.0	3.5	3.04e+01	0	38	104	0	52	19352
2026-01-07 13:44:21.95	56.26	9.13	-38.5	-48.8	3.6	3.04e+01	0	38	104	0	50	18887
2026-01-07 13:44:22.95	56.45	9.15	-37.6	-47.9	3.5	3.04e+01	0	38	104	0	50	16937
2026-01-07 13:44:23.96	56.64	9.18	-48.7	-65.0	3.5	3.04e+01	0	38	104	0	60	68305
2026-01-07 13:44:24.97	56.84	9.20	-48.4	-65.0	3.5	3.04e+01	0	38	104	0	60	68085
2026-01-07 13:44:25.98	57.03	9.23	-44.9	-56.9	3.5	3.04e+01	0	38	104	0	60	26959
2026-01-07 13:44:26.99	57.22	9.25	-39.2	-49.7	3.5	3.04e+01	0	38	104	0	54	16646
2026-01-07 13:44:28.00	57.42	9.28	-38.0	-48.4	3.5	3.04e+01	0	38	104	0	52	15981
2026-01-07 13:44:29.01	57.61	9.30	-37.4	-47.6	3.5	3.04e+01	0	38	104	0	50	16468
2026-01-07 13:44:30.02	57.81	9.33	-37.4	-47.7	3.5	3.04e+01	0	38	104	0	50	16670
2026-01-07 13:44:31.03	58.00	9.35	-38.9	-49.4	3.5	3.04e+01	0	38	104	0	50	20245
2026-01-07 13:44:32.04	58.20	9.37	-37.3	-47.7	3.5	3.04e+01	0	38	104	0	50	16611
2026-01-07 13:44:33.05	58.39	9.40	-48.5	-64.9	3.5	3.04e+01	0	38	104	0	60	67414
2026-01-07 13:44:34.06	58.59	9.42	-47.9	-64.6	3.5	3.04e+01	0	38	104	0	60	65624
2026-01-07 13:44:35.07	58.79	9.44	-45.3	-57.2	3.5	3.04e+01	0	38	104	0	60	27981
2026-01-07 13:44:36.08	58.98	9.46	-38.9	-49.3	3.5	3.04e+01	0	38	104	0	52	17725
2026-01-07 13:44:37.09	59.18	9.49	-38.5	-48.9	3.5	3.04e+01	0	38	104	0	52	16927
2026-01-07 13:44:38.10	59.38	9.51	-38.3	-48.6	3.5	3.04e+01	0	38	104	0	52	16353
2026-01-07 13:44:39.11	59.58	9.53	-37.2	-47.5	3.5	3.04e+01	0	38	104	0	50	16222
2026-01-07 13:44:40.12	59.77	9.55	-38.2	-48.5	3.5	3.04e+01	0	38	104	0	50	18249
2026-01-07 13:44:41.13	59.97	9.57	-37.4	-47.7	3.5	3.04e+01	0	38	104	0	50	16571
2026-01-07 13:44:42.14	60.17	9.59	-48.0	-64.9	3.5	3.04e+01	0	38	104	0	60	67381
2026-01-07 13:44:43.15	60.37	9.61	-47.7	-63.3	3.5	3.04e+01	0	38	104	0	60	56475
2026-01-07 13:44:44.16	60.57	9.63	-44.7	-56.3	3.5	3.04e+01	0	38	104	0	60	25109
2026-01-07 13:44:45.17	60.77	9.65	-37.2	-47.4	3.5	3.04e+01	0	38	104	0	50	16012
2026-01-07 13:44:46.17	60.97	9.67	-37.0	-47.2	3.5	3.04e+01	0	38	104	0	50	15673
2026-01-07 13:44:47.18	61.17	9.69	-37.0	-47.2	3.5	3.04e+01	0	38	104	0	48	17644
2026-01-07 13:44:48.19	61.37	9.71	-36.9	-47.2	3.5	3.04e+01	0	38	104	0	48	17575
2026-01-07 13:44:49.20	61.57	9.73	-39.6	-50.2	3.5	3.04e+01	0	38	104	0	54	17681
2026-01-07 13:44:50.21	61.77	9.75	-37.5	-47.9	3.6	3.04e+01	0	38	104	0	50	17003
2026-01-07 13:44:51.22	61.97	9.77	-48.6	-64.9	3.5	3.04e+01	0	38	104	0	60	67641
2026-01-07 13:44:52.23	62.17	9.78	-45.8	-58.1	3.5	3.04e+01	0	38	104	0	60	30909
2026-01-07 13:44:53.24	62.37	9.80	-43.5	-56.0	3.5	3.04e+01	0	38	104	0	60	24204
2026-01-07 13:44:54.25	62.58	9.82	-38.5	-49.1	3.5	3.04e+01	0	38	104	0	52	17476
2026-01-07 13:44:55.26	62.78	9.84	-38.4	-49.2	3.5	3.04e+01	0	38	104	0	52	17509
2026-01-07 13:44:56.27	62.98	9.85	-38.4	-49.5	3.5	3.04e+01	0	38	104	0	52	18279
2026-01-07 13:44:57.28	63.18	9.87	-37.6	-48.4	3.5	3.04e+01	0	38	104	0	50	18085
2026-01-07 13:44:58.29	63.39	9.89	-37.2	-47.4	3.5	3.04e+01	0	38	104	0	50	16115
2026-01-07 13:44:59.30	63.59	9.90	-38.4	-48.7	3.5	3.04e+01	0	38	104	0	50	18655
2026-01-07 13:45:00.31	63.79	9.92	-48.3	-65.8	3.5	3.04e+01	0	38	104	0	60	74748
2026-01-07 13:45:01.32	64.00	9.93	-44.1	-56.0	3.6	3.04e+01	0	38	104	0	60	24304
2026-01-07 13:45:02.33	64.20	9.95	-43.8	-55.5	3.5	3.04e+01	0	38	104	0	60	23028
2026-01-07 13:45:03.34	64.41	9.96	-38.8	-49.1	3.5	3.04e+01	0	38	104	0	52	17309
2026-01-07 13:45:04.35	64.61	9.98	-39.0	-49.4	3.5	3.04e+01	0	38	104	0	52	17898
2026-01-07 13:45:05.36	64.82	9.99	-37.6	-47.8	3.5	3.04e+01	0	38	104	0	50	16872
2026-01-07 13:45:06.37	65.02	10.01	-36.8	-47.0	3.6	3.04e+01	0	38	104	0	48	17278
2026-01-07 13:45:07.38	65.23	10.02	-38.2	-48.5	3.5	3.04e+01	0	38	104	0	50	18312
2026-01-07 13:45:08.39	65.43	10.03	-41.0	-51.7	3.6	3.04e+01	0	38	104	0	50	26262
2026-01-07 13:45:09.40	65.64	10.05	-48.7	-65.4	3.5	3.04e+01	0	38	104	0	60	71842
2026-01-07 13:45:10.41	65.84	10.06	-38.8	-49.1	3.0	3.04e+01	0	38	104	0	60	10913
2026-01-07 13:45:11.42	66.05	10.07	-42.6	-53.6	3.7	3.04e+01	0	38	104	0	60	18331
2026-01-07 13:45:12.43	66.25	10.08	-36.9	-47.2	3.5	3.04e+01	0	38	104	0	48	17595
2026-01-07 13:45:13.44	66.46	10.10	-36.8	-47.1	3.6	3.04e+01	0	37	104	0	48	17476
2026-01-07 13:45:14.45	66.67	10.11	-36.7	-47.0	3.5	3.04e+01	0	38	104	0	48	17274
2026-01-07 13:45:15.46	66.87	10.12	-37.1	-47.5	3.5	3.04e+01	0	38	104	0	48	18312
2026-01-07 13:45:16.47	67.08	10.13	-38.8	-49.4	3.5	3.04e+01	0	38	104	0	54	15981
2026-01-07 13:45:17.48	67.29	10.14	-41.6	-52.8	3.5	3.04e+01	0	38	104	0	52	26759
2026-01-07 13:45:18.49	67.49	10.15	-47.0	-65.2	3.5	3.04e+01	0	38	104	0	60	70406
2026-01-07 13:45:19.50	67.70	10.16	-38.1	-48.8	3.5	3.04e+01	0	38	104	0	56	13356
2026-01-07 13:45:20.51	67.91	10.17	-41.6	-53.6	3.5	3.04e+01	0	38	104	0	60	18419
2026-01-07 13:45:21.51	68.12	10.18	-38.5	-49.1	3.6	3.04e+01	0	38	104	0	52	17409
2026-01-07 13:45:22.52	68.32	10.19	-39.2	-49.7	3.5	3.04e+01	0	38	104	0	52	18613
2026-01-07 13:45:23.53	68.53	10.20	-38.2	-48.8	3.5	3.04e+01	0	38	104	0	52	16874
2026-01-07 13:45:24.54	68.74	10.21	-36.6	-47.1	3.5	3.04e+01	0	38	104	0	48	17318
2026-01-07 13:45:25.55	68.95	10.21	-37.0	-47.5	3.5	3.04e+01	0	38	104	0	48	18189
2026-01-07 13:45:26.56	69.16	10.22	-42.3	-54.3	3.4	3.04e+01	0	38	104	0	54	28121
2026-01-07 13:45:27.57	69.36	10.23	-46.3	-63.2	3.5	3.04e+01	0	38	104	0	60	55514
2026-01-07 13:45:28.58	69.57	10.24	-37.2	-47.5	3.6	3.04e+01	0	38	104	0	54	12927
2026-01-07 13:45:29.59	69.78	10.24	-40.4	-51.0	3.5	3.04e+01	0	38	104	0	58	15281
2026-01-07 13:45:30.60	69.99	10.25	-38.9	-49.3	3.5	3.04e+01	0	38	104	0	52	17800
2026-01-07 13:45:31.61	70.20	10.26	-38.9	-49.2	3.6	3.04e+01	0	38	104	0	52	17533
2026-01-07 13:45:32.62	70.41	10.26	-37.4	-47.7	3.5	3.04e+01	0	38	104	0	50	16548
2026-01-07 13:45:33.63	70.62	10.27	-37.1	-47.3	3.5	3.04e+01	0	38	104	0	48	17832
2026-01-07 13:45:34.64	70.83	10.27	-37.3	-47.5	3.5	3.04e+01	0	38	104	0	50	16180
2026-01-07 13:45:35.65	71.03	10.28	-47.5	-62.0	3.5	3.04e+01	0	38	104	0	60	48386
2026-01-07 13:45:36.66	71.24	10.28	-47.4	-61.3	3.5	3.04e+01	0	38	104	0	60	44848
2026-01-07 13:45:37.66	71.45	10.29	-37.6	-47.9	3.5	3.04e+01	0	38	104	0	48	19114
2026-01-07 13:45:38.67	71.66	10.29	-38.0	-48.3	3.5	3.04e+01	0	38	104	0	52	15933
2026-01-07 13:45:39.69	71.87	10.30	-36.7	-46.9	3.5	3.04e+01	0	38	104	0	48	16942
2026-01-07 13:45:40.69	72.08	10.30	-36.9	-47.1	3.5	3.04e+01	0	38	104	0	48	17412
2026-01-07 13:45:41.70	72.29	10.30	-36.7	-47.0	3.5	3.04e+01	0	38	104	0	48	17102
2026-01-07 13:45:42.71	72.50	10.31	-39.7	-50.2	3.5	3.04e+01	0	38	104	0	52	19725
2026-01-07 13:45:43.72	72.71	10.31	-37.9	-48.2	3.5	3.04e+01	0	38	104	0	52	15661
2026-01-07 13:45:44.73	72.92	10.31	-48.4	-64.1	3.5	3.04e+01	0	38	104	0	60	61630
2026-01-07 13:45:45.74	73.13	10.31	-46.7	-63.0	3.5	3.04e+01	0	38	104	0	60	54648
2026-01-07 13:45:46.75	73.34	10.31	-40.7	-51.3	3.5	3.04e+01	0	38	104	0	50	25052
2026-01-07 13:45:47.76	73.55	10.31	-39.4	-50.0	3.5	3.04e+01	0	38	104	0	56	15284
2026-01-07 13:45:48.77	73.76	10.32	-39.1	-49.5	3.5	3.04e+01	0	38	104	0	52	18170
2026-01-07 13:45:49.78	73.97	10.32	-37.7	-48.0	3.5	3.04e+01	0	38	104	0	50	17282
2026-01-07 13:45:50.79	74.18	10.32	-36.9	-47.3	3.5	3.04e+01	0	38	104	0	50	15794
2026-01-07 13:45:51.80	74.39	10.32	-38.1	-48.4	3.5	3.04e+01	0	38	104	0	48	20275
2026-01-07 13:45:52.81	74.60	10.32	-37.0	-47.3	3.5	3.04e+01	0	38	104	0	50	15840
2026-01-07 13:45:53.82	74.81	10.32	-47.9	-66.2	3.5	3.04e+01	0	38	104	0	60	78632
2026-01-07 13:45:54.83	75.02	10.31	-46.6	-63.8	3.5	3.04e+01	0	38	104	0	60	59343
2026-01-07 13:45:55.84	75.23	10.31	-41.5	-52.4	3.5	3.04e+01	0	38	104	0	52	25553
2026-01-07 13:45:56.84	75.43	10.31	-39.0	-49.6	3.5	3.04e+01	0	38	104	0	54	16466
2026-01-07 13:45:57.85	75.64	10.31	-38.6	-49.1	3.5	3.04e+01	0	38	104	0	52	17318
2026-01-07 13:45:58.86	75.85	10.31	-38.7	-49.1	3.5	3.04e+01	0	38	104	0	52	17376
2026-01-07 13:45:59.87	76.06	10.30	-37.6	-47.9	3.5	3.04e+01	0	38	104	0	50	16980
2026-01-07 13:46:00.88	76.27	10.30	-38.0	-48.4	3.5	3.04e+01	0	38	104	0	48	20160
2026-01-07 13:46:01.89	76.48	10.30	-37.0	-47.3	3.5	3.04e+01	0	38	104	0	50	15936
2026-01-07 13:46:02.90	76.69	10.29	-48.5	-65.2	3.5	3.04e+01	0	38	104	0	60	69840
2026-01-07 13:46:03.92	76.90	10.29	-48.1	-64.3	3.5	3.04e+01	0	38	104	0	60	63224
2026-01-07 13:46:04.93	77.11	10.29	-44.2	-55.7	3.6	3.04e+01	0	38	104	0	58	26428
2026-01-07 13:46:05.94	77.32	10.28	-36.9	-47.2	3.5	3.04e+01	0	38	104	0	50	15646
2026-01-07 13:46:06.95	77.53	10.28	-36.7	-46.9	3.5	3.04e+01	0	38	104	0	48	16931
2026-01-07 13:46:07.96	77.74	10.27	-36.6	-46.9	3.5	3.04e+01	0	38	104	0	48	16902
2026-01-07 13:46:08.96	77.95	10.27	-36.6	-46.9	3.5	3.04e+01	0	38	104	0	48	16900
2026-01-07 13:46:09.97	78.16	10.26	-40.9	-51.4	3.5	3.04e+01	0	38	104	0	56	18029
2026-01-07 13:46:10.98	78.37	10.25	-37.0	-47.2	3.5	3.04e+01	0	38	104	0	50	15711
2026-01-07 13:46:11.99	78.58	10.25	-48.5	-65.1	3.5	3.04e+01	0	38	104	0	60	69064
2026-01-07 13:46:13.00	78.78	10.24	-48.5	-64.8	3.5	3.04e+01	0	38	104	0	60	67115
2026-01-07 13:46:14.01	78.99	10.23	-44.6	-56.3	3.5	3.04e+01	0	38	104	0	60	25216
2026-01-07 13:46:15.02	79.20	10.23	-38.7	-49.1	3.5	3.04e+01	0	38	104	0	52	17339
2026-01-07 13:46:16.03	79.41	10.22	-38.5	-48.7	3.5	3.04e+01	0	38	104	0	52	16586
2026-01-07 13:46:17.04	79.62	10.21	-37.9	-48.2	3.5	3.04e+01	0	38	104	0	52	15672
2026-01-07 13:46:18.05	79.83	10.20	-37.0	-47.3	3.5	3.04e+01	0	38	104	0	50	15812
2026-01-07 13:46:19.06	80.04	10.19	-38.1	-48.4	3.5	3.04e+01	0	38	104	0	50	17985
2026-01-07 13:46:20.07	80.24	10.18	-37.0	-47.2	3.5	3.04e+01	0	38	104	0	50	15686
2026-01-07 13:46:21.08	80.45	10.18	-48.1	-64.9	3.5	3.04e+01	0	38	104	0	60	67838
2026-01-07 13:46:22.09	80.66	10.17	-47.6	-64.7	3.5	3.04e+01	0	38	104	0	60	66299
2026-01-07 13:46:23.10	80.87	10.16	-45.3	-57.3	3.5	3.04e+01	0	38	104	0	60	28360
2026-01-07 13:46:24.11	81.07	10.15	-38.8	-49.2	3.5	3.04e+01	0	38	104	0	52	17539
2026-01-07 13:46:25.12	81.28	10.13	-38.3	-48.7	3.5	3.04e+01	0	38	104	0	52	16518
2026-01-07 13:46:26.13	81.49	10.12	-38.1	-48.4	3.5	3.04e+01	0	38	104	0	50	17999
2026-01-07 13:46:27.14	81.70	10.11	-37.6	-47.9	3.6	3.04e+01	0	38	104	0	50	17080
2026-01-07 13:46:28.15	81.90	10.10	-37.1	-47.4	3.5	3.04e+01	0	38	104	0	48	17910
2026-01-07 13:46:29.16	82.11	10.09	-37.1	-47.4	3.5	3.04e+01	0	38	104	0	48	17958
2026-01-07 13:46:30.17	82.32	10.08	-48.5	-65.1	3.5	3.04e+01	0	38	104	0	60	68984
2026-01-07 13:46:31.18	82.52	10.07	-48.0	-63.7	3.5	3.04e+01	0	38	104	0	60	58702
2026-01-07 13:46:32.19	82.73	10.05	-43.8	-55.0	3.5	3.04e+01	0	38	104	0	60	21720
2026-01-07 13:46:33.20	82.93	10.04	-36.8	-47.0	3.6	3.04e+01	0	38	104	0	48	17280
2026-01-07 13:46:34.21	83.14	10.03	-36.8	-47.0	3.6	3.04e+01	0	38	104	0	48	17249
2026-01-07 13:46:35.22	83.35	10.01	-36.8	-47.0	3.5	3.04e+01	0	38	104	0	48	17264
2026-01-07 13:46:36.23	83.55	10.00	-37.0	-47.2	3.5	3.04e+01	0	38	104	0	48	17611
2026-01-07 13:46:37.24	83.76	9.98	-40.3	-50.7	3.5	3.04e+01	0	38	104	0	56	16607
2026-01-07 13:46:38.25	83.96	9.97	-37.6	-47.9	3.6	3.04e+01	0	38	104	0	50	16923
2026-01-07 13:46:39.26	84.17	9.96	-48.6	-65.5	3.5	3.04e+01	0	38	104	0	60	72516
2026-01-07 13:46:40.27	84.37	9.94	-46.2	-58.8	3.6	3.04e+01	0	38	104	0	60	33641
2026-01-07 13:46:41.28	84.58	9.92	-44.3	-56.0	3.5	3.04e+01	0	38	104	0	60	24162
2026-01-07 13:46:42.29	84.78	9.91	-38.4	-48.8	3.5	3.04e+01	0	38	104	0	52	16775
2026-01-07 13:46:43.30	84.98	9.89	-37.4	-47.7	3.5	3.04e+01	0	38	104	0	50	16569
2026-01-07 13:46:44.31	85.19	9.88	-36.9	-47.1	3.6	3.04e+01	0	38	104	0	48	17413
2026-01-07 13:46:45.32	85.39	9.86	-36.9	-47.1	3.5	3.04e+01	0	38	104	0	48	17332
2026-01-07 13:46:46.33	85.59	9.84	-38.5	-48.8	3.5	3.04e+01	0	38	104	0	52	16780
2026-01-07 13:46:47.34	85.80	9.83	-39.5	-49.9	3.7	3.04e+01	0	38	104	0	50	21442
2026-01-07 13:46:48.35	86.00	9.81	-48.8	-66.1	3.5	3.04e+01	0	38	104	0	60	78030
2026-01-07 13:46:49.36	86.20	9.79	-45.1	-57.1	3.7	3.04e+01	0	38	104	0	60	27430
2026-01-07 13:46:50.37	86.40	9.77	-44.1	-55.5	3.5	3.04e+01	0	38	104	0	60	22867
2026-01-07 13:46:51.38	86.61	9.76	-38.5	-48.9	3.5	3.04e+01	0	38	104	0	52	17007
2026-01-07 13:46:52.39	86.81	9.74	-38.7	-49.1	3.5	3.04e+01	0	38	104	0	52	17463
2026-01-07 13:46:53.39	87.01	9.72	-37.7	-47.9	3.5	3.04e+01	0	38	104	0	50	17051
2026-01-07 13:46:54.40	87.21	9.70	-36.7	-46.9	3.5	3.04e+01	0	38	104	0	48	17076
2026-01-07 13:46:55.41	87.41	9.68	-37.7	-48.0	3.5	3.04e+01	0	38	104	0	50	17198
2026-01-07 13:46:56.42	87.61	9.66	-40.2	-50.7	3.5	3.04e+01	0	38	104	0	50	23415
2026-01-07 13:46:57.43	87.81	9.64	-48.7	-65.6	3.6	3.04e+01	0	38	104	0	60	73635
2026-01-07 13:46:58.44	88.01	9.62	-39.5	-50.0	3.5	3.04e+01	0	38	104	0	60	12213
2026-01-07 13:46:59.45	88.21	9.60	-40.8	-51.4	3.5	3.04e+01	0	38	104	0	60	14295
2026-01-07 13:47:00.45	88.41	9.58	-36.9	-47.1	3.5	3.04e+01	0	38	104	0	48	17384
2026-01-07 13:47:01.46	88.61	9.56	-36.8	-47.0	3.5	3.04e+01	0	38	104	0	48	17216
2026-01-07 13:47:02.47	88.81	9.54	-36.8	-47.1	3.5	3.04e+01	0	38	104	0	48	17393
2026-01-07 13:47:03.48	89.00	9.52	-37.2	-47.6	3.5	3.04e+01	0	38	104	0	48	18321
2026-01-07 13:47:04.49	89.20	9.49	-38.5	-49.0	3.5	3.04e+01	0	38	104	0	54	15325
2026-01-07 13:47:05.50	89.40	9.47	-41.1	-51.8	3.5	3.04e+01	0	38	104	0	50	26695
2026-01-07 13:47:06.51	89.60	9.45	-48.2	-64.2	3.5	3.04e+01	0	38	104	0	60	62367
2026-01-07 13:47:07.52	89.79	9.43	-38.6	-48.8	3.6	3.04e+01	0	38	104	0	60	10629
2026-01-07 13:47:08.53	89.99	9.40	-42.1	-53.0	3.6	3.04e+01	0	38	104	0	60	17113
2026-01-07 13:47:09.54	90.19	9.38	-38.5	-48.8	3.5	3.04e+01	0	38	104	0	52	16849
2026-01-07 13:47:10.55	90.38	9.36	-38.7	-49.1	3.5	3.04e+01	0	38	104	0	52	17368
2026-01-07 13:47:11.56	90.58	9.33	-38.7	-49.0	3.5	3.04e+01	0	38	104	0	52	17269
2026-01-07 13:47:12.57	90.78	9.31	-42.8	-53.7	3.6	3.04e+01	0	38	104	0	56	23574
2026-01-07 13:47:13.57	90.97	9.29	-37.6	-48.0	3.4	3.04e+01	0	38	104	0	52	15288
2026-01-07 13:47:14.59	91.17	9.26	-45.6	-57.9	3.5	3.04e+01	0	38	104	0	58	33850
2026-01-07 13:47:15.60	91.36	9.24	-47.1	-60.6	3.5	3.04e+01	0	38	104	0	60	41036
2026-01-07 13:47:16.61	91.56	9.21	-36.9	-47.2	3.5	3.04e+01	0	38	104	0	50	15605
2026-01-07 13:47:17.61	91.75	9.19	-40.3	-50.8	3.5	3.04e+01	0	38	104	0	58	14986
2026-01-07 13:47:18.62	91.94	9.16	-37.8	-48.2	3.5	3.04e+01	0	38	104	0	50	17510
2026-01-07 13:47:19.63	92.13	9.14	-36.9	-47.2	3.5	3.04e+01	0	38	104	0	50	15644
2026-01-07 13:47:20.64	92.33	9.11	-36.8	-46.9	3.5	3.04e+01	0	38	104	0	48	17075
2026-01-07 13:47:21.65	92.52	9.09	-38.4	-48.7	3.5	3.04e+01	0	38	104	0	48	20854
2026-01-07 13:47:22.66	92.71	9.06	-38.0	-48.3	3.5	3.04e+01	0	38	104	0	52	15805
2026-01-07 13:47:23.67	92.90	9.03	-47.0	-60.4	3.5	3.04e+01	0	38	104	0	60	40109
2026-01-07 13:47:24.68	93.10	9.01	-47.4	-63.1	3.5	3.04e+01	0	38	104	0	60	54687
2026-01-07 13:47:25.69	93.29	8.98	-39.1	-49.6	3.5	3.04e+01	0	38	104	0	48	23130
2026-01-07 13:47:26.70	93.48	8.95	-37.6	-47.9	3.5	3.04e+01	0	38	104	0	52	15166
2026-01-07 13:47:27.71	93.67	8.92	-37.0	-47.3	3.5	3.04e+01	0	38	104	0	50	15885
2026-01-07 13:47:28.72	93.86	8.90	-37.0	-47.3	3.5	3.04e+01	0	38	104	0	48	17773
2026-01-07 13:47:29.73	94.05	8.87	-36.9	-47.2	3.5	3.04e+01	0	38	104	0	48	17498
2026-01-07 13:47:30.74	94.24	8.84	-40.0	-50.5	3.5	3.04e+01	0	38	104	0	52	20541
2026-01-07 13:47:31.75	94.43	8.81	-37.7	-48.0	3.5	3.04e+01	0	38	104	0	52	15299
2026-01-07 13:47:32.76	94.61	8.78	-48.5	-66.3	3.5	3.04e+01	0	38	104	0	60	79136
2026-01-07 13:47:33.77	94.80	8.76	-48.0	-63.6	3.5	3.04e+01	0	38	104	0	60	58584
2026-01-07 13:47:34.78	94.99	8.73	-39.9	-50.4	3.5	3.04e+01	0	38	104	0	48	25412
2026-01-07 13:47:35.78	95.18	8.70	-39.2	-49.6	3.5	3.04e+01	0	38	104	0	54	16372
2026-01-07 13:47:36.80	95.36	8.67	-38.6	-49.1	3.5	3.04e+01	0	38	104	0	52	17316
2026-01-07 13:47:37.81	95.55	8.64	-37.7	-48.0	3.5	3.04e+01	0	38	104	0	50	17274
2026-01-07 13:47:38.82	95.74	8.61	-37.1	-47.4	3.5	3.04e+01	0	38	104	0	50	16039
2026-01-07 13:47:39.83	95.92	8.58	-38.8	-49.2	3.5	3.04e+01	0	38	104	0	50	19691
2026-01-07 13:47:40.84	96.11	8.55	-37.6	-47.8	3.6	3.04e+01	0	38	104	0	50	16789
2026-01-07 13:47:41.85	96.29	8.52	-48.6	-65.7	3.5	3.04e+01	0	38	104	0	60	74454
2026-01-07 13:47:42.86	96.48	8.49	-48.2	-59.8	4.1	3.04e+01	0	38	104	0	60	37700
2026-01-07 13:47:43.87	96.66	8.46	-42.6	-45.1	19.0	3.04e+01	0	38	104	0	54	9832
2026-01-07 13:47:44.88	96.85	8.43	-38.5	-39.9	26.3	3.04e+01	0	38	0	1048576	54	5400
2026-01-07 13:47:45.89	97.03	8.39	-37.2	-38.5	27.5	3.04e+01	0	38	0	3145728	50	5755
2026-01-07 13:47:46.90	97.21	8.36	-36.6	-37.9	27.9	3.04e+01	0	38	0	5242880	48	6045
2026-01-07 13:47:47.91	97.39	8.33	-36.6	-37.9	27.9	3.04e+01	0	38	0	6815744	48	6044
2026-01-07 13:47:48.92	97.58	8.30	-36.6	-38.0	27.9	3.04e+01	0	38	0	8912896	48	6065
2026-01-07 13:47:49.93	97.76	8.27	-36.7	-38.0	27.8	3.04e+01	0	38	0	11010048	48	6094
2026-01-07 13:47:50.94	97.94	8.24	-36.6	-37.9	27.9	3.04e+01	0	38	0	12582912	48	6003
2026-01-07 13:47:51.95	98.12	8.20	-36.7	-38.0	27.7	3.04e+01	0	38	0	14680064	48	6133
2026-01-07 13:47:52.96	98.30	8.17	-36.7	-38.0	27.8	3.04e+01	0	38	0	16252928	48	6079
2026-01-07 13:47:53.97	98.48	8.14	-36.6	-38.0	27.8	3.04e+01	0	38	0	18350080	48	6067
2026-01-07 13:47:54.98	98.66	8.11	-36.7	-38.0	27.8	3.04e+01	0	38	0	20447232	48	6103
2026-01-07 13:47:55.98	98.84	8.07	-36.7	-38.1	27.8	3.04e+01	0	38	0	22020096	48	6145
2026-01-07 13:47:56.99	99.02	8.04	-36.6	-37.9	27.9	3.04e+01	0	38	0	24117248	48	6051
2026-01-07 13:47:58.00	99.19	8.01	-36.6	-37.9	27.9	3.04e+01	0	38	0	25690112	48	6047
2026-01-07 13:47:59.01	99.37	7.97	-36.6	-37.9	27.8	3.04e+01	0	38	0	27787264	48	6058
2026-01-07 13:48:00.02	99.55	7.94	-36.6	-37.9	28.0	3.04e+01	0	38	0	29884416	48	6006
2026-01-07 13:48:01.03	99.73	7.90	-36.7	-38.0	27.8	3.04e+01	0	38	0	31457280	48	6120
2026-01-07 13:48:02.04	99.90	7.87	-36.7	-38.0	27.9	3.04e+01	0	38	0	33554432	48	6078
2026-01-07 13:48:03.05	100.08	7.84	-36.7	-38.0	27.9	3.04e+01	0	38	0	35651584	48	6093
2026-01-07 13:48:04.06	100.26	7.80	-36.8	-38.1	27.7	3.04e+01	0	38	0	37224448	48	6201
2026-01-07 13:48:05.07	100.43	7.77	-36.9	-38.2	27.6	3.04e+01	0	38	0	39321600	48	6233
2026-01-07 13:48:06.07	100.60	7.73	-36.9	-38.2	27.6	3.04e+01	0	38	0	40894464	48	6236
2026-01-07 13:48:07.09	100.78	7.70	-37.0	-38.3	27.5	3.04e+01	0	38	0	42991616	48	6339
2026-01-07 13:48:08.10	100.95	7.66	-36.7	-38.0	27.8	3.04e+01	0	38	0	45088768	48	6080
2026-01-07 13:48:09.11	101.13	7.63	-36.8	-38.1	27.7	3.04e+01	0	38	0	46661632	48	6187
2026-01-07 13:48:10.12	101.30	7.59	-36.6	-37.9	27.8	3.04e+01	0	38	0	48758784	48	6040
2026-01-07 13:48:11.12	101.47	7.56	-36.7	-37.9	27.9	3.04e+01	0	38	0	50331648	48	6057
2026-01-07 13:48:12.13	101.64	7.52	-36.7	-37.9	27.9	3.04e+01	0	38	0	52428800	48	6060
2026-01-07 13:48:13.14	101.81	7.48	-36.7	-38.0	27.8	3.04e+01	0	38	0	54525952	48	6120
2026-01-07 13:48:14.15	101.99	7.45	-36.7	-38.1	27.7	3.04e+01	0	38	0	56098816	48	6135
2026-01-07 13:48:15.16	102.16	7.41	-36.7	-38.0	27.8	3.04e+01	0	38	0	58195968	48	6088
2026-01-07 13:48:16.17	102.33	7.38	-36.7	-38.1	27.7	3.04e+01	0	38	0	59768832	48	6144
2026-01-07 13:48:17.18	102.50	7.34	-36.7	-38.0	27.8	3.04e+01	0	38	0	61865984	48	6099
2026-01-07 13:48:18.19	102.67	7.30	-36.8	-38.2	27.6	3.04e+01	0	38	0	63963136	48	6215
2026-01-07 13:48:19.20	102.84	7.27	-36.9	-38.3	27.6	3.04e+01	0	38	0	65536000	48	6282
2026-01-07 13:48:20.21	103.00	7.23	-36.9	-38.3	27.6	3.04e+01	0	38	0	67633152	48	6284
2026-01-07 13:48:21.22	103.17	7.19	-37.0	-38.3	27.5	3.04e+01	0	38	0	69206016	48	6306
2026-01-07 13:48:22.23	103.34	7.16	-36.9	-38.2	27.6	3.04e+01	0	38	0	71303168	48	6258
2026-01-07 13:48:23.24	103.51	7.12	-36.9	-38.2	27.6	3.04e+01	0	38	0	73400320	48	6227
2026-01-07 13:48:24.25	103.67	7.08	-36.9	-38.2	27.7	3.04e+01	0	38	0	74973184	48	6227
2026-01-07 13:48:25.26	103.84	7.04	-36.8	-38.1	27.7	3.04e+01	0	38	0	77070336	48	6182
2026-01-07 13:48:26.27	104.01	7.01	-36.9	-38.2	27.6	3.04e+01	0	37	0	79167488	48	6230
2026-01-07 13:48:27.28	104.17	6.97	-36.8	-38.1	27.7	3.04e+01	0	38	0	80740352	48	6140
2026-01-07 13:48:28.29	104.34	6.93	-36.8	-38.1	27.6	3.04e+01	0	38	0	82837504	48	6205
2026-01-07 13:48:29.30	104.50	6.89	-36.8	-38.1	27.6	3.04e+01	0	38	0	84410368	48	6201
2026-01-07 13:48:30.30	104.66	6.85	-37.0	-38.3	27.5	3.04e+01	0	37	0	86507520	48	6311
2026-01-07 13:48:31.31	104.83	6.82	-37.0	-38.3	27.5	3.04e+01	0	38	0	88604672	48	6312
2026-01-07 13:48:32.32	104.99	6.78	-37.0	-38.3	27.4	3.04e+01	0	38	0	90177536	48	6337
2026-01-07 13:48:33.34	105.16	6.74	-37.1	-38.4	27.4	3.04e+01	0	38	0	92274688	48	6402
2026-01-07 13:48:34.34	105.32	6.70	-37.1	-38.5	27.3	3.04e+01	0	38	0	93847552	48	6437
2026-01-07 13:48:35.36	105.48	6.66	-37.2	-38.6	27.2	3.04e+01	0	38	0	95944704	48	6524
2026-01-07 13:48:36.37	105.64	6.62	-37.2	-38.6	27.2	3.04e+01	0	38	0	98041856	48	6519
2026-01-07 13:48:37.38	105.80	6.58	-37.1	-38.4	27.4	3.04e+01	0	38	0	99614720	48	6406
2026-01-07 13:48:38.39	105.96	6.54	-37.0	-38.3	27.5	3.04e+01	0	38	0	101711872	48	6299
2026-01-07 13:48:39.40	106.12	6.50	-37.0	-38.3	27.4	3.04e+01	0	37	0	103809024	48	6332
2026-01-07 13:48:40.41	106.28	6.46	-37.0	-38.3	27.4	3.04e+01	0	38	0	105381888	48	6322
2026-01-07 13:48:41.42	106.44	6.43	-37.2	-38.5	27.3	3.04e+01	0	38	0	107479040	48	6446
2026-01-07 13:48:42.42	106.60	6.39	-37.1	-38.4	27.3	3.04e+01	0	38	0	109051904	48	6390
2026-01-07 13:48:43.43	106.76	6.35	-37.2	-38.5	27.3	3.04e+01	0	38	0	111149056	48	6455
2026-01-07 13:48:44.44	106.91	6.31	-37.2	-38.6	27.2	3.04e+01	0	38	0	113246208	48	6506
2026-01-07 13:48:45.45	107.07	6.27	-37.1	-38.4	27.3	3.04e+01	0	38	0	114819072	48	6389
2026-01-07 13:48:46.46	107.23	6.23	-37.2	-38.5	27.2	3.04e+01	0	38	0	116916224	48	6471
2026-01-07 13:48:47.47	107.39	6.19	-37.2	-38.6	27.2	3.04e+01	0	38	0	118489088	48	6504
2026-01-07 13:48:48.48	107.54	6.15	-37.2	-38.5	27.2	3.04e+01	0	38	0	120586240	48	6475
2026-01-07 13:48:49.49	107.70	6.11	-37.2	-38.6	27.2	3.04e+01	0	38	0	122683392	48	6509
2026-01-07 13:48:50.50	107.85	6.07	-37.2	-38.5	27.2	3.04e+01	0	38	0	124256256	48	6496
2026-01-07 13:48:51.51	108.01	6.03	-37.3	-38.6	27.1	3.04e+01	0	38	0	126353408	48	6554
2026-01-07 13:48:52.52	108.16	5.98	-37.4	-38.7	27.0	3.04e+01	0	38	0	127926272	48	6623
2026-01-07 13:48:53.53	108.31	5.94	-37.2	-38.6	27.2	3.04e+01	0	38	0	130023424	48	6520
2026-01-07 13:48:54.54	108.47	5.90	-37.2	-38.6	27.2	3.04e+01	0	38	0	132120576	48	6500
2026-01-07 13:48:55.55	108.62	5.86	-37.3	-38.6	27.1	3.04e+01	0	38	0	133693440	48	6551
2026-01-07 13:48:56.56	108.77	5.82	-37.2	-38.6	27.2	3.04e+01	0	38	0	135790592	48	6520
2026-01-07 13:48:57.57	108.92	5.78	-37.3	-38.7	27.0	3.04e+01	0	38	0	137363456	48	6602
2026-01-07 13:48:58.58	109.08	5.74	-37.3	-38.6	27.1	3.04e+01	0	38	0	139460608	48	6564
2026-01-07 13:48:59.59	109.23	5.70	-37.2	-38.5	27.2	3.04e+01	0	38	0	141557760	48	6465
2026-01-07 13:49:00.59	109.38	5.66	-37.2	-38.5	27.1	3.04e+01	0	38	0	143130624	48	6461
2026-01-07 13:49:01.60	109.53	5.62	-37.2	-38.6	27.1	3.04e+01	0	38	0	145227776	48	6534
2026-01-07 13:49:02.61	109.68	5.57	-37.3	-38.6	27.0	3.04e+01	0	38	0	147324928	48	6557
2026-01-07 13:49:03.62	109.83	5.53	-37.3	-38.7	27.0	3.04e+01	0	38	0	148897792	48	6608
2026-01-07 13:49:04.63	109.97	5.49	-37.3	-38.6	27.0	3.04e+01	0	38	0	150994944	48	6571
2026-01-07 13:49:05.64	110.12	5.45	-37.3	-38.7	27.0	3.04e+01	0	38	0	152567808	48	6595
2026-01-07 13:49:06.65	110.27	5.41	-37.5	-38.9	26.8	3.04e+01	0	38	0	154664960	48	6736
2026-01-07 13:49:07.66	110.42	5.37	-37.4	-38.8	26.9	3.04e+01	0	38	0	156762112	48	6711
2026-01-07 13:49:08.67	110.56	5.32	-37.4	-38.8	26.8	3.04e+01	0	38	0	158334976	48	6672
2026-01-07 13:49:09.68	110.71	5.28	-37.5	-38.8	26.8	3.04e+01	0	38	0	160432128	48	6722
2026-01-07 13:49:10.69	110.86	5.24	-37.5	-38.9	26.7	3.04e+01	0	38	0	162004992	48	6781
2026-01-07 13:49:11.70	111.00	5.20	-37.5	-38.8	26.8	3.04e+01	0	38	0	164102144	48	6720
2026-01-07 13:49:12.71	111.15	5.16	-37.5	-38.9	26.7	3.04e+01	0	38	0	166199296	48	6730
2026-01-07 13:49:13.72	111.29	5.11	-37.3	-38.7	26.9	3.04e+01	0	38	0	167772160	48	6581
2026-01-07 13:49:14.73	111.44	5.07	-37.4	-38.7	26.9	3.04e+01	0	38	0	169869312	48	6643
2026-01-07 13:49:15.74	111.58	5.03	-37.4	-38.8	26.8	3.04e+01	0	38	0	171966464	48	6677
2026-01-07 13:49:16.75	111.72	4.99	-37.4	-38.8	26.8	3.04e+01	0	38	0	173539328	48	6664
2026-01-07 13:49:17.76	111.87	4.94	-37.5	-38.9	26.7	3.04e+01	0	38	0	175636480	48	6784
2026-01-07 13:49:18.77	112.01	4.90	-37.5	-38.9	26.7	3.04e+01	0	38	0	177209344	48	6762
2026-01-07 13:49:19.78	112.15	4.86	-37.5	-38.9	26.7	3.04e+01	0	38	0	179306496	48	6733
2026-01-07 13:49:20.78	112.29	4.82	-37.6	-39.0	26.6	3.04e+01	0	38	0	181403648	48	6846
2026-01-07 13:49:21.79	112.43	4.77	-37.6	-39.1	26.5	3.04e+01	0	38	0	182976512	48	6885
2026-01-07 13:49:22.80	112.58	4.73	-37.7	-39.2	26.4	3.04e+01	0	38	0	185073664	48	6964
2026-01-07 13:49:23.81	112.72	4.69	-37.8	-39.2	26.4	3.04e+01	0	38	0	186646528	48	6994
2026-01-07 13:49:24.82	112.86	4.64	-37.8	-39.2	26.3	3.04e+01	0	38	0	188743680	48	7031
2026-01-07 13:49:25.83	113.00	4.60	-37.9	-39.3	26.2	3.04e+01	0	38	0	190316544	48	7108
2026-01-07 13:49:26.84	113.13	4.56	-37.9	-39.3	26.2	3.04e+01	0	38	0	192413696	48	7107
2026-01-07 13:49:27.85	113.27	4.52	-37.9	-39.3	26.2	3.04e+01	0	38	0	194510848	48	7116
2026-01-07 13:49:28.86	113.41	4.47	-37.8	-39.2	26.3	3.04e+01	0	38	0	196083712	48	6987
2026-01-07 13:49:29.87	113.55	4.43	-37.8	-39.3	26.2	3.04e+01	0	38	0	198180864	48	7075
2026-01-07 13:49:30.88	113.69	4.39	-37.9	-39.4	26.1	3.04e+01	0	37	0	200278016	48	7143
2026-01-07 13:49:31.89	113.82	4.34	-37.9	-39.3	26.1	3.04e+01	0	38	0	201850880	48	7107
2026-01-07 13:49:32.90	113.96	4.30	-37.7	-39.2	26.2	3.04e+01	0	38	0	203948032	48	7004
2026-01-07 13:49:33.91	114.10	4.26	-37.8	-39.3	26.2	3.04e+01	0	38	0	205520896	48	7089
2026-01-07 13:49:34.92	114.23	4.21	-37.9	-39.3	26.1	3.04e+01	0	38	0	207618048	50	6350
2026-01-07 13:49:35.93	114.37	4.17	-37.9	-39.4	26.1	3.04e+01	0	38	0	209715200	50	6365
2026-01-07 13:49:36.94	114.50	4.12	-38.0	-39.5	25.9	3.04e+01	0	38	0	211288064	50	6452
2026-01-07 13:49:37.95	114.64	4.08	-38.1	-39.6	25.8	3.04e+01	0	38	0	213385216	50	6534
2026-01-07 13:49:38.96	114.77	4.04	-37.9	-39.4	26.0	3.04e+01	0	38	0	215482368	50	6396
2026-01-07 13:49:39.97	114.90	3.99	-38.0	-39.4	26.0	3.04e+01	0	38	0	217055232	50	6395
2026-01-07 13:49:40.98	115.04	3.95	-38.1	-39.6	25.9	3.04e+01	0	38	0	219152384	50	6519
2026-01-07 13:49:41.99	115.17	3.91	-38.1	-39.6	25.9	3.04e+01	0	38	0	220725248	50	6510
2026-01-07 13:49:43.00	115.30	3.86	-38.0	-39.5	25.9	3.04e+01	0	38	0	222822400	50	6456
2026-01-07 13:49:44.01	115.43	3.82	-38.2	-39.7	25.8	3.04e+01	0	38	0	224919552	50	6576
2026-01-07 13:49:45.02	115.57	3.78	-38.2	-39.7	25.6	3.04e+01	0	38	0	226492416	50	6619
2026-01-07 13:49:46.03	115.70	3.73	-38.3	-39.8	25.6	3.04e+01	0	38	0	228589568	50	6686
2026-01-07 13:49:47.04	115.83	3.69	-38.2	-39.7	25.6	3.04e+01	0	38	0	230162432	50	6645
2026-01-07 13:49:48.05	115.96	3.64	-38.2	-39.6	25.7	3.04e+01	0	38	0	232259584	50	6567
2026-01-07 13:49:49.06	116.09	3.60	-38.2	-39.7	25.6	3.04e+01	0	38	0	234356736	50	6621
2026-01-07 13:49:50.07	116.22	3.56	-38.3	-39.8	25.5	3.04e+01	0	38	0	235929600	50	6681
2026-01-07 13:49:51.08	116.35	3.51	-38.5	-40.0	25.3	3.04e+01	0	38	0	238026752	50	6819
2026-01-07 13:49:52.08	116.47	3.47	-38.2	-39.7	25.6	3.04e+01	0	38	0	240123904	50	6578
2026-01-07 13:49:53.09	116.60	3.42	-38.5	-40.0	25.2	3.04e+01	0	38	0	241696768	50	6865
2026-01-07 13:49:54.10	116.73	3.38	-38.5	-40.0	25.3	3.04e+01	0	38	0	243793920	50	6874
2026-01-07 13:49:55.11	116.86	3.33	-38.3	-39.8	25.5	3.04e+01	0	38	0	245366784	50	6696
2026-01-07 13:49:56.12	116.98	3.29	-38.4	-39.9	25.5	3.04e+01	0	38	0	247463936	50	6788
2026-01-07 13:49:57.13	117.11	3.25	-38.4	-39.9	25.3	3.04e+01	0	38	0	249036800	50	6780
2026-01-07 13:49:58.14	117.24	3.20	-38.4	-39.9	25.3	3.04e+01	0	38	0	251133952	50	6804
2026-01-07 13:49:59.15	117.36	3.16	-38.5	-40.1	25.1	3.04e+01	0	38	0	253231104	50	6928
2026-01-07 13:50:00.16	117.49	3.11	-38.5	-40.1	25.1	3.04e+01	0	38	0	254803968	50	6914
2026-01-07 13:50:01.17	117.61	3.07	-38.5	-40.0	25.2	3.04e+01	0	38	0	256901120	50	6867
2026-01-07 13:50:02.18	117.74	3.02	-38.5	-40.1	25.1	3.04e+01	0	38	0	258473984	50	6935
2026-01-07 13:50:03.19	117.86	2.98	-48.8	-66.6	3.5	3.04e+01	0	38	104	258998272	60	82253
2026-01-07 13:50:04.20	117.99	2.94	-49.0	-67.1	3.5	3.04e+01	0	38	104	258998272	60	86711
2026-01-07 13:50:05.21	118.11	2.89	-49.3	-67.2	3.5	3.04e+01	0	38	104	258998272	60	88343
2026-01-07 13:50:06.21	118.23	2.85	-49.4	-67.4	3.5	3.04e+01	0	38	104	258998272	60	90065
2026-01-07 13:50:07.22	118.35	2.80	-49.3	-67.5	3.5	3.04e+01	0	38	104	258998272	60	91097
2026-01-07 13:50:08.24	118.48	2.76	-49.6	-67.5	3.5	3.04e+01	0	38	104	258998272	60	91315
2026-01-07 13:50:09.25	118.60	2.71	-49.4	-67.5	3.5	3.04e+01	0	38	104	258998272	60	91591
2026-01-07 13:50:10.26	118.72	2.67	-49.7	-67.6	3.5	3.04e+01	0	38	104	258998272	60	91824
2026-01-07 13:50:11.26	118.84	2.62	-49.7	-67.6	3.5	3.04e+01	0	38	104	258998272	60	91836
2026-01-07 13:50:12.27	118.96	2.58	-49.7	-67.6	3.5	3.04e+01	0	38	104	258998272	60	92317
2026-01-07 13:50:13.28	119.08	2.54	-49.7	-67.6	3.5	3.04e+01	0	38	104	258998272	60	91866
2026-01-07 13:50:14.29	119.20	2.49	-49.6	-67.5	3.5	3.04e+01	0	38	104	258998272	60	91368
2026-01-07 13:50:15.30	119.32	2.45	-49.7	-67.5	3.5	3.04e+01	0	38	104	258998272	60	91571
2026-01-07 13:50:16.31	119.44	2.40	-49.7	-67.5	3.5	3.04e+01	0	38	104	258998272	60	91716
2026-01-07 13:50:17.32	119.56	2.36	-49.7	-67.6	3.5	3.04e+01	0	38	104	258998272	60	91936
2026-01-07 13:50:18.33	119.68	2.31	-49.6	-67.6	3.5	3.04e+01	0	38	104	258998272	60	91850
2026-01-07 13:50:19.34	119.80	2.27	-49.7	-67.5	3.5	3.04e+01	0	38	104	258998272	60	91768
2026-01-07 13:50:20.35	119.91	2.22	-49.7	-67.6	3.5	3.04e+01	0	38	104	258998272	60	92011
2026-01-07 13:50:21.36	120.03	2.18	-49.6	-67.5	3.5	3.04e+01	0	38	104	258998272	60	91322
2026-01-07 13:50:22.37	120.15	2.13	-49.6	-67.5	3.5	3.04e+01	0	38	104	258998272	60	91420
2026-01-07 13:50:23.38	120.26	2.09	-49.6	-67.5	3.5	3.04e+01	0	38	104	258998272	60	90875
2026-01-07 13:50:24.39	120.38	2.04	-49.6	-67.5	3.5	3.04e+01	0	38	104	258998272	60	91268
2026-01-07 13:50:25.40	120.50	2.00	-49.6	-67.5	3.5	3.04e+01	0	38	104	258998272	60	90979
2026-01-07 13:50:26.41	120.61	1.95	-49.6	-67.5	3.5	3.04e+01	0	38	104	258998272	60	90829
2026-01-07 13:50:27.42	120.73	1.91	-49.6	-67.5	3.5	3.04e+01	0	38	104	258998272	60	90852
2026-01-07 13:50:28.43	120.84	1.86	-49.6	-67.5	3.5	3.04e+01	0	38	104	258998272	60	90856
2026-01-07 13:50:29.44	120.96	1.82	-49.6	-67.5	3.5	3.04e+01	0	38	104	258998272	60	90809
2026-01-07 13:50:30.45	121.07	1.78	-49.6	-67.5	3.5	3.04e+01	0	38	104	258998272	60	90888
2026-01-07 13:50:31.46	121.18	1.73	-49.6	-67.4	3.5	3.04e+01	0	38	104	258998272	60	90555
2026-01-07 13:50:32.47	121.30	1.69	-49.6	-67.5	3.5	3.04e+01	0	38	104	258998272	60	91379
2026-01-07 13:50:33.48	121.41	1.64	-49.6	-67.5	3.5	3.04e+01	0	38	104	258998272	60	90763
2026-01-07 13:50:34.49	121.52	1.60	-49.6	-67.5	3.5	3.04e+01	0	38	104	258998272	60	91116
2026-01-07 13:50:35.50	121.63	1.55	-49.6	-67.5	3.5	3.04e+01	0	38	104	258998272	60	90973
2026-01-07 13:50:36.51	121.75	1.51	-49.6	-67.4	3.5	3.04e+01	0	38	104	258998272	60	90694
2026-01-07 13:50:37.52	121.86	1.46	-49.6	-67.4	3.5	3.04e+01	0	38	104	258998272	60	90590
2026-01-07 13:50:38.53	121.97	1.42	-49.6	-67.5	3.5	3.04e+01	0	38	104	258998272	60	90811
2026-01-07 13:50:39.54	122.08	1.37	-49.6	-67.4	3.5	3.04e+01	0	38	104	258998272	60	90512
2026-01-07 13:50:40.55	122.19	1.33	-49.6	-67.5	3.5	3.04e+01	0	38	104	258998272	60	90770
2026-01-07 13:50:41.56	122.30	1.28	-49.6	-67.5	3.5	3.04e+01	0	38	104	258998272	60	91045
2026-01-07 13:50:42.57	122.41	1.24	-49.6	-67.4	3.5	3.04e+01	0	38	104	258998272	60	90717
2026-01-07 13:50:43.58	122.52	1.19	-49.6	-67.5	3.5	3.04e+01	0	38	104	258998272	60	90864
2026-01-07 13:50:44.59	122.63	1.15	-49.6	-67.5	3.5	3.04e+01	0	38	104	258998272	60	90843
2026-01-07 13:50:45.60	122.74	1.10	-49.6	-67.4	3.5	3.04e+01	0	38	104	258998272	60	90706
2026-01-07 13:50:46.61	122.84	1.06	-49.6	-67.5	3.5	3.04e+01	0	38	104	258998272	60	90748
2026-01-07 13:50:47.62	122.95	1.01	-49.6	-67.4	3.5	3.04e+01	0	38	104	258998272	60	90627
2026-01-07 13:50:48.63	123.06	0.97	-49.6	-67.5	3.5	3.04e+01	0	38	104	258998272	60	90738
2026-01-07 13:50:49.64	123.17	0.92	-49.6	-67.5	3.5	3.04e+01	0	38	104	258998272	60	90772
2026-01-07 13:50:50.65	123.27	0.88	-49.6	-67.4	3.5	3.04e+01	0	38	104	258998272	60	90631
2026-01-07 13:50:51.66	123.38	0.83	-49.6	-67.5	3.5	3.04e+01	0	38	104	258998272	60	90963
2026-01-07 13:50:52.66	123.49	0.79	-49.6	-67.5	3.5	3.04e+01	0	38	104	258998272	60	91031
2026-01-07 13:50:53.67	123.59	0.74	-49.6	-67.4	3.5	3.04e+01	0	38	104	258998272	60	90564
2026-01-07 13:50:54.69	123.70	0.70	-49.6	-67.5	3.5	3.04e+01	0	38	104	258998272	60	90794
2026-01-07 13:50:55.69	123.80	0.65	-49.6	-67.4	3.5	3.04e+01	0	38	104	258998272	60	90483
2026-01-07 13:50:56.70	123.91	0.61	-49.6	-67.4	3.5	3.04e+01	0	38	104	258998272	60	90306
2026-01-07 13:50:57.71	124.01	0.56	-49.6	-67.4	3.5	3.04e+01	0	38	104	258998272	60	90225
2026-01-07 13:50:58.72	124.12	0.52	-49.6	-67.4	3.5	3.04e+01	0	38	104	258998272	60	90338
2026-01-07 13:50:59.74	124.22	0.47	-49.6	-67.4	3.5	3.04e+01	0	38	104	258998272	60	90706
2026-01-07 13:51:00.74	124.32	0.43	-49.6	-67.4	3.5	3.04e+01	0	38	104	258998272	60	90708
2026-01-07 13:51:01.75	124.43	0.39	-49.6	-67.5	3.5	3.04e+01	0	38	104	258998272	60	90996
2026-01-07 13:51:02.76	124.53	0.34	-49.6	-67.5	3.5	3.04e+01	0	38	104	258998272	60	90838
2026-01-07 13:51:03.77	124.63	0.30	-49.6	-67.5	3.5	3.04e+01	0	38	104	258998272	60	91184
2026-01-07 13:51:04.78	124.74	0.25	-49.6	-67.5	3.5	3.04e+01	0	38	104	258998272	60	90941
2026-01-07 13:51:05.79	124.84	0.21	-49.6	-67.5	3.5	3.04e+01	0	38	104	258998272	60	91142
2026-01-07 13:51:06.80	124.94	0.16	-49.6	-67.4	3.5	3.04e+01	0	38	104	258998272	60	90538
2026-01-07 13:51:07.81	125.04	0.12	-49.6	-67.5	3.5	3.04e+01	0	38	104	258998272	60	90808
2026-01-07 13:51:08.82	125.14	0.07	-49.6	-67.5	3.5	3.04e+01	0	38	104	258998272	60	90871
2026-01-07 13:51:09.83	125.24	0.03	-49.6	-67.5	3.5	3.04e+01	0	38	104	258998272	60	90744
2026-01-07 13:51:10.84	125.34	-0.02	-49.6	-67.4	3.5	3.04e+01	0	38	104	258998272	60	90313

#Closed at: 2026-01-07 13:51:11
#Recorded file [258 MB]: D:/lorett/data/35029_260108_014032.dat