passes_logs/2026/01/07/R4.6S_Anadyr/R4.6S_Anadyr__20260107_141455_NOAA_20_JPSS-1_rec.log

#Pass ID: 20260107_141455_NOAA 20 (JPSS-1)
#Satellite: NOAA 20 (JPSS-1)
#Configuration: NOAA 20
#almurnet v.1.7.20251203
#Start time: 2026-01-07 14:14:58

#Version: 2.2.20231116
#Station: R4.6S_Anadyr
#Location: 177.4865 lon 64.73178 lat
#TLE: 1 43013U 17073A   26005.46207808  .00000128  00000+0  81791-4 0  9997
#TLE: 2 43013  98.7627 306.5027 0001826  53.0458 307.0885 14.19533487421381

#Time	Az	El	Level	Level2	SNR	BER	BlckErr	Temp	State	Recorded	gain1	gain2
2026-01-07 14:14:58.91	19.72	0.20	-49.3	-63.0	3.3	1.54e+00	0	36	0	0	60	51268
2026-01-07 14:14:59.91	19.74	0.26	-49.3	-64.5	3.6	1.51e+00	0	37	104	0	60	60768
2026-01-07 14:15:00.92	19.76	0.32	-49.3	-64.5	3.6	1.51e+00	0	36	104	0	60	60872
2026-01-07 14:15:01.93	19.78	0.38	-49.4	-64.5	3.6	1.51e+00	0	37	104	0	60	60989
2026-01-07 14:15:02.94	19.79	0.44	-49.4	-64.5	3.6	1.51e+00	0	37	104	0	60	61029
2026-01-07 14:15:03.95	19.81	0.50	-49.3	-64.5	3.6	1.51e+00	0	37	104	0	60	60950
2026-01-07 14:15:04.96	19.83	0.56	-49.3	-64.5	3.6	1.51e+00	0	37	104	0	60	60745
2026-01-07 14:15:05.97	19.85	0.62	-49.2	-64.4	3.6	1.51e+00	0	37	104	0	60	60165
2026-01-07 14:15:06.98	19.87	0.68	-49.1	-64.4	3.6	1.51e+00	0	37	104	0	60	59992
2026-01-07 14:15:07.99	19.89	0.74	-49.0	-64.3	3.6	1.51e+00	0	37	104	0	60	58997
2026-01-07 14:15:09.00	19.91	0.80	-48.8	-64.0	3.6	1.51e+00	0	37	104	0	60	57154
2026-01-07 14:15:10.01	19.93	0.86	-48.7	-63.8	3.6	1.51e+00	0	37	104	0	60	56224
2026-01-07 14:15:11.02	19.95	0.93	-48.5	-63.6	3.6	1.51e+00	0	37	104	0	60	54402
2026-01-07 14:15:12.03	19.97	0.99	-48.1	-63.3	3.6	1.51e+00	0	37	104	0	60	52801
2026-01-07 14:15:13.04	19.99	1.05	-47.9	-63.0	3.6	1.51e+00	0	37	104	0	60	51089
2026-01-07 14:15:14.05	20.01	1.11	-47.9	-63.0	3.6	1.51e+00	0	37	104	0	60	51084
2026-01-07 14:15:15.06	20.03	1.17	-47.9	-63.0	3.6	1.51e+00	0	37	104	0	60	51025
2026-01-07 14:15:16.07	20.04	1.23	-47.9	-63.0	3.6	1.51e+00	0	37	104	0	60	50794
2026-01-07 14:15:17.08	20.06	1.30	-47.9	-63.0	3.6	1.51e+00	0	37	104	0	60	50776
2026-01-07 14:15:18.09	20.08	1.36	-47.9	-62.9	3.5	1.51e+00	0	37	104	0	60	50357
2026-01-07 14:15:19.10	20.10	1.42	-47.9	-62.9	3.5	1.51e+00	0	37	104	0	60	50320
2026-01-07 14:15:20.11	20.12	1.48	-47.9	-62.9	3.6	1.51e+00	0	37	104	0	60	50548
2026-01-07 14:15:21.12	20.14	1.55	-47.9	-62.9	3.6	1.51e+00	0	37	104	0	60	50753
2026-01-07 14:15:22.13	20.16	1.61	-47.9	-63.0	3.6	1.51e+00	0	37	104	0	60	51265
2026-01-07 14:15:23.14	20.18	1.67	-47.9	-62.9	3.6	1.51e+00	0	37	104	0	60	50719
2026-01-07 14:15:24.15	20.20	1.74	-47.9	-63.0	3.5	1.51e+00	0	37	104	0	60	50922
2026-01-07 14:15:25.16	20.22	1.80	-47.9	-63.0	3.6	1.51e+00	0	37	104	0	60	51140
2026-01-07 14:15:26.17	20.24	1.86	-47.9	-63.0	3.6	1.51e+00	0	37	104	0	60	51233
2026-01-07 14:15:27.18	20.26	1.93	-47.9	-63.1	3.6	1.51e+00	0	37	104	0	60	51610
2026-01-07 14:15:28.19	20.29	1.99	-47.9	-63.1	3.6	1.51e+00	0	37	104	0	60	51353
2026-01-07 14:15:29.20	20.31	2.05	-47.9	-63.0	3.6	1.51e+00	0	37	104	0	60	50996
2026-01-07 14:15:30.21	20.33	2.12	-47.8	-62.7	3.6	1.51e+00	0	37	104	0	60	49602
2026-01-07 14:15:31.22	20.35	2.18	-47.8	-62.4	3.6	1.51e+00	0	37	104	0	60	47540
2026-01-07 14:15:32.23	20.37	2.24	-47.8	-61.6	3.6	1.51e+00	0	37	104	0	60	43475
2026-01-07 14:15:33.24	20.39	2.31	-47.8	-61.0	3.6	1.51e+00	0	37	104	0	60	40694
2026-01-07 14:15:34.25	20.41	2.37	-47.7	-60.6	3.8	1.51e+00	0	37	104	0	60	38536
2026-01-07 14:15:35.26	20.43	2.44	-47.7	-60.5	3.6	1.49e+00	0	37	104	0	60	38103
2026-01-07 14:15:36.27	20.45	2.50	-47.7	-60.5	3.6	1.48e+00	0	37	104	0	60	38243
2026-01-07 14:15:37.28	20.47	2.57	-47.7	-60.7	3.6	1.50e+00	0	37	104	0	60	39155
2026-01-07 14:15:38.29	20.49	2.63	-47.7	-58.8	3.8	1.48e+00	0	37	0	0	60	31303
2026-01-07 14:15:39.30	20.51	2.70	-47.5	-56.4	4.7	9.23e-01	0	37	0	1048576	60	23996
2026-01-07 14:15:40.31	20.54	2.76	-47.1	-54.1	6.9	3.11e-01	0	37	0	3145728	60	18393
2026-01-07 14:15:41.32	20.56	2.83	-46.5	-52.0	9.5	6.43e-02	0	37	0	4194304	60	14343
2026-01-07 14:15:42.33	20.58	2.89	-45.9	-50.2	11.7	1.60e-03	0	37	0	6291456	60	11714
2026-01-07 14:15:43.34	20.60	2.96	-45.1	-48.6	13.4	1.33e-04	0	37	0	8388608	60	9725
2026-01-07 14:15:44.35	20.62	3.03	-44.4	-47.2	14.9	3.80e-06	0	37	0	10485760	60	8311
2026-01-07 14:15:45.36	20.64	3.09	-43.9	-46.4	15.6	0.00e+00	0	37	0	12582912	60	7591
2026-01-07 14:15:46.37	20.66	3.16	-43.6	-46.0	16.1	0.00e+00	0	37	0	13631488	60	7208
2026-01-07 14:15:47.38	20.69	3.22	-43.2	-45.3	16.7	0.00e+00	0	37	0	15728640	60	6682
2026-01-07 14:15:48.39	20.71	3.29	-43.2	-45.4	16.7	0.00e+00	0	37	0	17825792	60	6736
2026-01-07 14:15:49.39	20.73	3.36	-43.4	-45.7	16.3	0.00e+00	0	37	0	19922944	60	6952
2026-01-07 14:15:50.40	20.75	3.42	-43.8	-46.3	15.7	0.00e+00	0	37	0	22020096	60	7436
2026-01-07 14:15:51.41	20.77	3.49	-44.5	-47.4	14.5	0.00e+00	0	37	0	23068672	60	8498
2026-01-07 14:15:52.42	20.80	3.56	-45.3	-49.0	12.9	2.28e-05	0	37	0	25165824	60	10166
2026-01-07 14:15:53.43	20.82	3.63	-46.0	-50.7	11.0	2.98e-04	0	37	0	27262976	60	12372
2026-01-07 14:15:54.44	20.84	3.69	-43.0	-44.9	17.4	5.76e-03	0	37	0	29360128	60	6387
2026-01-07 14:15:55.45	20.86	3.76	-41.3	-42.8	19.2	0.00e+00	0	37	0	31457280	56	6273
2026-01-07 14:15:56.46	20.88	3.83	-45.9	-50.3	10.6	1.96e-02	0	37	0	32505856	60	11796
2026-01-07 14:15:57.47	20.91	3.90	-47.6	-57.7	5.2	1.51e+00	0	37	104	33554432	60	27814
2026-01-07 14:15:58.48	20.93	3.97	-45.4	-49.5	9.3	7.00e-07	0	37	104	33554432	58	12053
2026-01-07 14:15:59.49	20.95	4.03	-47.8	-61.4	3.9	1.51e+00	0	37	104	33554432	60	42447
2026-01-07 14:16:00.50	20.98	4.10	-43.4	-45.7	16.7	0.00e+00	0	37	0	33554432	60	6959
2026-01-07 14:16:01.51	21.00	4.17	-43.5	-45.8	16.4	0.00e+00	0	37	0	35651584	60	7012
2026-01-07 14:16:02.52	21.02	4.24	-43.2	-45.3	17.0	0.00e+00	0	37	0	36700160	60	6665
2026-01-07 14:16:03.53	21.04	4.31	-43.1	-45.2	16.9	0.00e+00	0	37	0	38797312	60	6569
2026-01-07 14:16:04.54	21.07	4.38	-43.4	-45.5	17.3	0.00e+00	0	37	0	40894464	60	6827
2026-01-07 14:16:05.55	21.09	4.45	-43.1	-45.2	16.7	0.00e+00	0	37	0	42991616	60	6541
2026-01-07 14:16:06.56	21.11	4.52	-43.2	-45.3	16.8	0.00e+00	0	37	0	45088768	60	6690
2026-01-07 14:16:07.57	21.14	4.59	-43.1	-45.2	17.2	0.00e+00	0	37	0	46137344	60	6563
2026-01-07 14:16:08.58	21.16	4.66	-42.7	-44.6	17.8	0.00e+00	0	37	0	48234496	60	6117
2026-01-07 14:16:09.59	21.18	4.73	-42.7	-44.6	17.7	0.00e+00	0	37	0	50331648	58	6880
2026-01-07 14:16:10.60	21.21	4.80	-42.5	-44.4	18.0	0.00e+00	0	37	0	52428800	58	6701
2026-01-07 14:16:11.61	21.23	4.87	-42.5	-44.4	18.1	0.00e+00	0	37	0	54525952	58	6702
2026-01-07 14:16:12.62	21.26	4.94	-42.5	-44.2	18.2	0.00e+00	0	37	0	55574528	58	6612
2026-01-07 14:16:13.63	21.28	5.01	-42.8	-44.7	17.8	0.00e+00	0	37	0	57671680	58	6964
2026-01-07 14:16:14.64	21.30	5.08	-42.6	-44.5	17.8	0.00e+00	0	37	0	59768832	58	6800
2026-01-07 14:16:15.65	21.33	5.15	-42.3	-44.0	18.3	0.00e+00	0	37	0	61865984	58	6414
2026-01-07 14:16:16.66	21.35	5.22	-42.2	-43.8	18.7	0.00e+00	0	37	0	63963136	58	6291
2026-01-07 14:16:17.67	21.38	5.29	-42.1	-43.7	18.5	0.00e+00	0	37	0	65011712	58	6236
2026-01-07 14:16:18.68	21.40	5.37	-42.0	-43.6	19.1	0.00e+00	0	37	0	67108864	58	6110
2026-01-07 14:16:19.69	21.43	5.44	-41.5	-43.0	19.6	0.00e+00	0	37	0	69206016	56	6444
2026-01-07 14:16:20.70	21.45	5.51	-40.7	-42.1	20.4	0.00e+00	0	37	0	71303168	56	5768
2026-01-07 14:16:21.70	21.47	5.58	-40.0	-41.2	21.1	0.00e+00	0	37	0	73400320	54	5876
2026-01-07 14:16:22.71	21.50	5.66	-39.8	-41.0	21.2	0.00e+00	0	37	0	74448896	54	5739
2026-01-07 14:16:23.72	21.52	5.73	-39.9	-41.1	21.2	0.00e+00	0	37	0	76546048	54	5800
2026-01-07 14:16:24.73	21.55	5.80	-39.9	-41.0	21.2	0.00e+00	0	37	0	78643200	54	5739
2026-01-07 14:16:25.74	21.57	5.87	-39.9	-41.0	21.3	0.00e+00	0	37	0	80740352	54	5743
2026-01-07 14:16:26.75	21.60	5.95	-39.7	-40.9	21.4	0.00e+00	0	37	0	82837504	54	5659
2026-01-07 14:16:27.76	21.63	6.02	-39.8	-41.0	21.3	0.00e+00	0	37	0	83886080	52	6417
2026-01-07 14:16:28.77	21.65	6.09	-39.8	-40.9	21.4	0.00e+00	0	37	0	85983232	52	6376
2026-01-07 14:16:29.78	21.68	6.17	-39.7	-40.9	21.4	0.00e+00	0	37	0	88080384	52	6336
2026-01-07 14:16:30.79	21.70	6.24	-39.9	-41.0	21.3	0.00e+00	0	37	0	90177536	52	6431
2026-01-07 14:16:31.80	21.73	6.32	-39.8	-40.9	21.4	0.00e+00	0	37	0	92274688	52	6364
2026-01-07 14:16:32.81	21.75	6.39	-39.9	-41.1	21.3	0.00e+00	0	37	0	93323264	52	6495
2026-01-07 14:16:33.82	21.78	6.47	-39.8	-41.0	21.5	0.00e+00	0	37	0	95420416	52	6396
2026-01-07 14:16:34.83	21.81	6.54	-39.8	-41.0	21.5	0.00e+00	0	37	0	97517568	52	6410
2026-01-07 14:16:35.84	21.83	6.62	-39.8	-41.0	21.4	0.00e+00	0	37	0	99614720	52	6394
2026-01-07 14:16:36.85	21.86	6.69	-39.8	-40.9	21.5	0.00e+00	0	37	0	101711872	52	6354
2026-01-07 14:16:37.86	21.88	6.77	-39.6	-40.6	21.7	0.00e+00	0	37	0	103809024	52	6171
2026-01-07 14:16:38.87	21.91	6.84	-39.7	-40.8	21.7	0.00e+00	0	37	0	104857600	52	6269
2026-01-07 14:16:39.88	21.94	6.92	-39.6	-40.7	21.7	0.00e+00	0	37	0	106954752	52	6185
2026-01-07 14:16:40.89	21.96	7.00	-39.5	-40.6	21.7	0.00e+00	0	37	0	109051904	52	6159
2026-01-07 14:16:41.90	21.99	7.07	-39.6	-40.7	21.7	0.00e+00	0	37	0	111149056	52	6190
2026-01-07 14:16:42.90	22.02	7.15	-39.6	-40.7	21.8	0.00e+00	0	37	0	113246208	52	6176
2026-01-07 14:16:43.91	22.05	7.23	-39.5	-40.6	21.8	0.00e+00	0	38	0	114294784	52	6139
2026-01-07 14:16:44.92	22.07	7.30	-39.6	-40.7	21.8	0.00e+00	0	37	0	116391936	52	6216
2026-01-07 14:16:45.93	22.10	7.38	-39.5	-40.6	21.9	0.00e+00	0	37	0	118489088	52	6116
2026-01-07 14:16:46.94	22.13	7.46	-39.5	-40.5	21.9	0.00e+00	0	37	0	120586240	52	6091
2026-01-07 14:16:47.95	22.15	7.54	-39.4	-40.5	22.0	0.00e+00	0	37	0	122683392	52	6074
2026-01-07 14:16:48.96	22.18	7.62	-39.5	-40.5	21.9	0.00e+00	0	37	0	123731968	52	6103
2026-01-07 14:16:49.97	22.21	7.69	-39.5	-40.6	21.9	0.00e+00	0	37	0	125829120	52	6109
2026-01-07 14:16:50.98	22.24	7.77	-39.4	-40.5	22.0	0.00e+00	0	37	0	127926272	52	6064
2026-01-07 14:16:51.99	22.27	7.85	-39.4	-40.5	22.0	0.00e+00	0	37	0	130023424	52	6071
2026-01-07 14:16:53.00	22.29	7.93	-39.5	-40.5	21.9	0.00e+00	0	37	0	132120576	52	6092
2026-01-07 14:16:54.01	22.32	8.01	-39.4	-40.4	22.1	0.00e+00	0	37	0	133169152	52	6004
2026-01-07 14:16:55.02	22.35	8.09	-39.4	-40.5	21.9	0.00e+00	0	37	0	135266304	52	6079
2026-01-07 14:16:56.03	22.38	8.17	-39.3	-40.3	22.2	0.00e+00	0	37	0	137363456	52	5945
2026-01-07 14:16:57.04	22.41	8.25	-39.3	-40.4	22.2	0.00e+00	0	37	0	139460608	52	5984
2026-01-07 14:16:58.05	22.44	8.33	-39.4	-40.4	22.1	0.00e+00	0	37	0	141557760	52	6024
2026-01-07 14:16:59.06	22.47	8.41	-39.2	-40.3	22.3	0.00e+00	0	37	0	142606336	52	5898
2026-01-07 14:17:00.07	22.50	8.49	-39.2	-40.3	22.3	0.00e+00	0	37	0	144703488	52	5913
2026-01-07 14:17:01.08	22.53	8.57	-39.3	-40.3	22.2	0.00e+00	0	37	0	146800640	52	5964
2026-01-07 14:17:02.09	22.55	8.65	-39.2	-40.2	22.3	0.00e+00	0	37	0	148897792	52	5868
2026-01-07 14:17:03.10	22.58	8.74	-39.3	-40.3	22.2	0.00e+00	0	37	0	150994944	52	5925
2026-01-07 14:17:04.11	22.61	8.82	-39.1	-40.2	22.4	0.00e+00	0	37	0	152043520	52	5832
2026-01-07 14:17:05.12	22.64	8.90	-39.2	-40.3	22.3	0.00e+00	0	37	0	154140672	52	5900
2026-01-07 14:17:06.13	22.67	8.98	-39.2	-40.2	22.3	0.00e+00	0	37	0	156237824	52	5849
2026-01-07 14:17:07.14	22.70	9.07	-39.2	-40.3	22.3	0.00e+00	0	37	0	158334976	52	5912
2026-01-07 14:17:08.15	22.73	9.15	-39.1	-40.1	22.5	0.00e+00	0	37	0	160432128	52	5821
2026-01-07 14:17:09.16	22.76	9.23	-39.1	-40.1	22.4	0.00e+00	0	38	0	161480704	52	5797
2026-01-07 14:17:10.16	22.79	9.32	-39.1	-40.1	22.5	0.00e+00	0	38	0	163577856	52	5780
2026-01-07 14:17:11.17	22.83	9.40	-39.1	-40.1	22.5	0.00e+00	0	37	0	165675008	52	5770
2026-01-07 14:17:12.18	22.86	9.48	-39.1	-40.1	22.6	0.00e+00	0	37	0	167772160	52	5785
2026-01-07 14:17:13.20	22.89	9.57	-39.0	-40.0	22.6	0.00e+00	0	37	0	169869312	52	5720
2026-01-07 14:17:14.20	22.92	9.65	-39.0	-40.0	22.6	0.00e+00	0	37	0	171966464	52	5742
2026-01-07 14:17:15.21	22.95	9.74	-38.9	-39.9	22.7	0.00e+00	0	37	0	173015040	52	5635
2026-01-07 14:17:16.22	22.98	9.82	-39.0	-40.0	22.6	0.00e+00	0	37	0	175112192	52	5730
2026-01-07 14:17:17.23	23.01	9.91	-38.9	-39.9	22.7	0.00e+00	0	37	0	177209344	52	5664
2026-01-07 14:17:18.24	23.05	9.99	-38.9	-39.8	22.8	0.00e+00	0	38	0	179306496	52	5626
2026-01-07 14:17:19.25	23.08	10.08	-38.8	-39.8	22.8	0.00e+00	0	38	0	181403648	52	5589
2026-01-07 14:17:20.26	23.11	10.17	-38.9	-39.9	22.7	0.00e+00	0	37	0	182452224	52	5664
2026-01-07 14:17:21.27	23.14	10.25	-38.8	-39.8	22.8	0.00e+00	0	37	0	184549376	52	5574
2026-01-07 14:17:22.28	23.17	10.34	-38.7	-39.7	22.9	0.00e+00	0	37	0	186646528	50	6212
2026-01-07 14:17:23.29	23.21	10.43	-38.7	-39.6	22.9	0.00e+00	0	38	0	188743680	50	6164
2026-01-07 14:17:24.30	23.24	10.52	-38.7	-39.7	22.9	0.00e+00	0	38	0	190840832	50	6200
2026-01-07 14:17:25.30	23.27	10.60	-38.7	-39.7	22.9	0.00e+00	0	37	0	191889408	50	6202
2026-01-07 14:17:26.31	23.31	10.69	-38.6	-39.5	23.0	0.00e+00	0	38	0	193986560	50	6094
2026-01-07 14:17:27.32	23.34	10.78	-38.6	-39.5	23.1	0.00e+00	0	38	0	196083712	50	6084
2026-01-07 14:17:28.33	23.37	10.87	-38.7	-39.7	22.9	0.00e+00	0	37	0	198180864	50	6213
2026-01-07 14:17:29.34	23.41	10.96	-38.7	-39.7	22.9	0.00e+00	0	37	0	200278016	50	6197
2026-01-07 14:17:30.35	23.44	11.05	-38.5	-39.5	23.1	0.00e+00	0	37	0	201326592	50	6052
2026-01-07 14:17:31.36	23.47	11.14	-38.6	-39.6	23.1	0.00e+00	0	37	0	203423744	50	6126
2026-01-07 14:17:32.37	23.51	11.23	-38.6	-39.6	23.0	0.00e+00	0	37	0	205520896	50	6127
2026-01-07 14:17:33.38	23.54	11.32	-38.5	-39.5	23.1	0.00e+00	0	37	0	207618048	50	6066
2026-01-07 14:17:34.39	23.58	11.41	-38.6	-39.5	23.1	0.00e+00	0	38	0	209715200	50	6090
2026-01-07 14:17:35.40	23.61	11.50	-38.6	-39.5	23.1	0.00e+00	0	38	0	210763776	50	6088
2026-01-07 14:17:36.41	23.65	11.59	-38.6	-39.6	23.1	0.00e+00	0	37	0	212860928	50	6108
2026-01-07 14:17:37.42	23.68	11.68	-38.7	-39.6	23.0	0.00e+00	0	37	0	214958080	50	6148
2026-01-07 14:17:38.43	23.72	11.77	-38.6	-39.6	23.1	0.00e+00	0	38	0	217055232	50	6117
2026-01-07 14:17:39.44	23.75	11.87	-38.5	-39.5	23.1	0.00e+00	0	38	0	219152384	50	6059
2026-01-07 14:17:40.45	23.79	11.96	-38.6	-39.6	23.1	0.00e+00	0	38	0	220200960	50	6131
2026-01-07 14:17:41.46	23.82	12.05	-38.6	-39.5	23.1	0.00e+00	0	38	0	222298112	50	6081
2026-01-07 14:17:42.46	23.86	12.15	-38.6	-39.6	23.1	0.00e+00	0	38	0	224395264	50	6115
2026-01-07 14:17:43.47	23.90	12.24	-38.5	-39.5	23.1	0.00e+00	0	38	0	226492416	50	6048
2026-01-07 14:17:44.48	23.93	12.33	-38.5	-39.4	23.2	0.00e+00	0	38	0	228589568	50	6020
2026-01-07 14:17:45.49	23.97	12.43	-38.6	-39.6	23.1	0.00e+00	0	38	0	229638144	50	6130
2026-01-07 14:17:46.50	24.01	12.52	-38.6	-39.5	23.1	0.00e+00	0	38	0	231735296	50	6079
2026-01-07 14:17:47.51	24.04	12.62	-38.5	-39.5	23.2	0.00e+00	0	38	0	233832448	50	6065
2026-01-07 14:17:48.52	24.08	12.71	-38.5	-39.4	23.2	0.00e+00	0	38	0	235929600	50	6023
2026-01-07 14:17:49.53	24.12	12.81	-38.5	-39.4	23.2	0.00e+00	0	38	0	238026752	50	6028
2026-01-07 14:17:50.54	24.16	12.91	-38.5	-39.4	23.3	0.00e+00	0	38	0	240123904	50	5992
2026-01-07 14:17:51.55	24.19	13.00	-38.6	-39.5	23.2	0.00e+00	0	38	0	241172480	50	6067
2026-01-07 14:17:52.56	24.23	13.10	-38.7	-39.7	23.0	0.00e+00	0	38	0	243269632	50	6187
2026-01-07 14:17:53.57	24.27	13.20	-38.5	-39.4	23.3	0.00e+00	0	38	0	245366784	50	5997
2026-01-07 14:17:54.58	24.31	13.30	-38.5	-39.5	23.2	0.00e+00	0	38	0	247463936	50	6047
2026-01-07 14:17:55.59	24.35	13.39	-38.6	-39.5	23.2	0.00e+00	0	38	0	249561088	50	6067
2026-01-07 14:17:56.60	24.39	13.49	-38.4	-39.3	23.4	0.00e+00	0	38	0	250609664	50	5946
2026-01-07 14:17:57.61	24.43	13.59	-38.4	-39.3	23.3	0.00e+00	0	38	0	252706816	50	5953
2026-01-07 14:17:58.62	24.47	13.69	-38.4	-39.3	23.4	0.00e+00	0	38	0	254803968	50	5938
2026-01-07 14:17:59.63	24.51	13.79	-38.4	-39.3	23.4	0.00e+00	0	38	0	256901120	50	5959
2026-01-07 14:18:00.64	24.55	13.89	-38.3	-39.2	23.5	0.00e+00	0	38	0	258998272	50	5875
2026-01-07 14:18:01.65	24.59	13.99	-38.4	-39.3	23.3	0.00e+00	0	38	0	260046848	50	5963
2026-01-07 14:18:02.66	24.63	14.09	-38.3	-39.3	23.4	0.00e+00	0	37	0	262144000	50	5899
2026-01-07 14:18:03.67	24.67	14.20	-38.4	-39.3	23.4	0.00e+00	0	38	0	264241152	50	5955
2026-01-07 14:18:04.68	24.71	14.30	-38.5	-39.4	23.3	0.00e+00	0	38	0	266338304	50	6007
2026-01-07 14:18:05.68	24.75	14.40	-38.3	-39.3	23.5	0.00e+00	0	38	0	268435456	50	5904
2026-01-07 14:18:06.69	24.79	14.50	-38.4	-39.3	23.3	0.00e+00	0	38	0	269484032	50	5944
2026-01-07 14:18:07.70	24.83	14.61	-38.5	-39.4	23.3	0.00e+00	0	38	0	271581184	50	6000
2026-01-07 14:18:08.71	24.88	14.71	-38.4	-39.3	23.3	0.00e+00	0	38	0	273678336	50	5944
2026-01-07 14:18:09.72	24.92	14.81	-38.6	-39.5	23.3	0.00e+00	0	38	0	275775488	50	6072
2026-01-07 14:18:10.73	24.96	14.92	-38.6	-39.5	23.2	0.00e+00	0	38	0	277872640	50	6092
2026-01-07 14:18:11.74	25.00	15.02	-38.5	-39.4	23.3	0.00e+00	0	38	0	278921216	50	6026
2026-01-07 14:18:12.75	25.05	15.13	-38.7	-39.6	23.2	0.00e+00	0	38	0	281018368	50	6161
2026-01-07 14:18:13.76	25.09	15.23	-38.5	-39.4	23.3	0.00e+00	0	38	0	283115520	50	6008
2026-01-07 14:18:14.77	25.13	15.34	-38.6	-39.5	23.3	0.00e+00	0	38	0	285212672	50	6088
2026-01-07 14:18:15.78	25.18	15.45	-38.5	-39.4	23.4	0.00e+00	0	38	0	287309824	50	6006
2026-01-07 14:18:16.79	25.22	15.55	-38.6	-39.5	23.3	0.00e+00	0	38	0	288358400	50	6069
2026-01-07 14:18:17.80	25.27	15.66	-38.6	-39.5	23.3	0.00e+00	0	38	0	290455552	50	6067
2026-01-07 14:18:18.81	25.31	15.77	-38.5	-39.4	23.3	0.00e+00	0	38	0	292552704	50	6016
2026-01-07 14:18:19.82	25.36	15.88	-38.6	-39.5	23.2	0.00e+00	0	38	0	294649856	50	6072
2026-01-07 14:18:20.83	25.40	15.99	-38.7	-39.6	23.2	0.00e+00	0	38	0	296747008	50	6127
2026-01-07 14:18:21.84	25.45	16.10	-38.7	-39.6	23.2	0.00e+00	0	38	0	297795584	50	6156
2026-01-07 14:18:22.85	25.49	16.21	-38.6	-39.6	23.2	0.00e+00	0	38	0	299892736	50	6121
2026-01-07 14:18:23.86	25.54	16.32	-38.6	-39.5	23.3	0.00e+00	0	38	0	301989888	50	6082
2026-01-07 14:18:24.87	25.59	16.43	-38.6	-39.5	23.3	0.00e+00	0	38	0	304087040	50	6086
2026-01-07 14:18:25.88	25.63	16.54	-38.6	-39.5	23.2	0.00e+00	0	38	0	306184192	50	6096
2026-01-07 14:18:26.88	25.68	16.65	-38.6	-39.5	23.3	0.00e+00	0	38	0	308281344	50	6057
2026-01-07 14:18:27.90	25.73	16.76	-38.5	-39.4	23.4	0.00e+00	0	38	0	309329920	50	6026
2026-01-07 14:18:28.91	25.78	16.88	-38.5	-39.4	23.4	0.00e+00	0	38	0	311427072	50	6026
2026-01-07 14:18:29.91	25.82	16.99	-38.5	-39.4	23.4	0.00e+00	0	38	0	313524224	50	6009
2026-01-07 14:18:30.93	25.87	17.11	-38.5	-39.4	23.5	0.00e+00	0	38	0	315621376	50	5980
2026-01-07 14:18:31.93	25.92	17.22	-38.5	-39.4	23.4	0.00e+00	0	38	0	317718528	50	5990
2026-01-07 14:18:32.95	25.97	17.33	-38.5	-39.4	23.4	0.00e+00	0	38	0	318767104	50	6000
2026-01-07 14:18:33.95	26.02	17.45	-38.5	-39.4	23.4	0.00e+00	0	37	0	320864256	50	6030
2026-01-07 14:18:34.96	26.07	17.57	-38.5	-39.4	23.4	0.00e+00	0	38	0	322961408	50	6020
2026-01-07 14:18:35.97	26.12	17.68	-38.6	-39.6	23.4	0.00e+00	0	38	0	325058560	50	6108
2026-01-07 14:18:36.99	26.17	17.80	-38.4	-39.3	23.5	0.00e+00	0	38	0	327155712	50	5938
2026-01-07 14:18:38.00	26.22	17.92	-38.4	-39.3	23.5	0.00e+00	0	38	0	328204288	50	5946
2026-01-07 14:18:39.00	26.27	18.04	-38.4	-39.4	23.5	0.00e+00	0	38	0	330301440	50	5968
2026-01-07 14:18:40.01	26.33	18.15	-38.4	-39.3	23.5	0.00e+00	0	38	0	332398592	50	5940
2026-01-07 14:18:41.02	26.38	18.27	-38.5	-39.4	23.4	0.00e+00	0	38	0	334495744	50	6027
2026-01-07 14:18:42.03	26.43	18.39	-38.4	-39.3	23.5	0.00e+00	0	38	0	336592896	50	5911
2026-01-07 14:18:43.04	26.48	18.51	-38.6	-39.5	23.3	0.00e+00	0	38	0	337641472	50	6091
2026-01-07 14:18:44.05	26.54	18.64	-38.5	-39.4	23.4	0.00e+00	0	38	0	339738624	50	5982
2026-01-07 14:18:45.06	26.59	18.76	-38.5	-39.4	23.4	0.00e+00	0	38	0	341835776	50	5993
2026-01-07 14:18:46.07	26.64	18.88	-38.5	-39.4	23.4	0.00e+00	0	38	0	343932928	50	5996
2026-01-07 14:18:47.08	26.70	19.00	-38.5	-39.4	23.4	0.00e+00	0	38	0	346030080	50	6017
2026-01-07 14:18:48.09	26.75	19.13	-38.4	-39.3	23.5	0.00e+00	0	38	0	347078656	50	5962
2026-01-07 14:18:49.10	26.81	19.25	-38.5	-39.4	23.4	0.00e+00	0	38	0	349175808	50	6007
2026-01-07 14:18:50.11	26.86	19.37	-38.6	-39.5	23.4	0.00e+00	0	38	0	351272960	50	6064
2026-01-07 14:18:51.12	26.92	19.50	-38.6	-39.5	23.3	0.00e+00	0	38	0	353370112	50	6069
2026-01-07 14:18:52.13	26.98	19.63	-38.6	-39.5	23.3	0.00e+00	0	38	0	355467264	50	6092
2026-01-07 14:18:53.14	27.03	19.75	-38.6	-39.5	23.3	0.00e+00	0	38	0	356515840	50	6080
2026-01-07 14:18:54.15	27.09	19.88	-38.6	-39.6	23.2	0.00e+00	0	38	0	358612992	50	6107
2026-01-07 14:18:55.16	27.15	20.01	-38.7	-39.6	23.3	0.00e+00	0	38	0	360710144	50	6151
2026-01-07 14:18:56.17	27.21	20.14	-38.5	-39.5	23.4	0.00e+00	0	38	0	362807296	50	6051
2026-01-07 14:18:57.18	27.27	20.26	-38.6	-39.6	23.3	0.00e+00	0	38	0	364904448	50	6110
2026-01-07 14:18:58.19	27.32	20.39	-38.7	-39.6	23.3	0.00e+00	0	38	0	365953024	50	6139
2026-01-07 14:18:59.20	27.38	20.52	-38.6	-39.5	23.4	0.00e+00	0	38	0	368050176	50	6076
2026-01-07 14:19:00.21	27.44	20.66	-38.6	-39.5	23.4	0.00e+00	0	38	0	370147328	50	6073
2026-01-07 14:19:01.22	27.51	20.79	-38.7	-39.6	23.4	0.00e+00	0	38	0	372244480	50	6157
2026-01-07 14:19:02.23	27.57	20.92	-38.5	-39.4	23.5	0.00e+00	0	38	0	374341632	50	6004
2026-01-07 14:19:03.23	27.63	21.05	-38.7	-39.7	23.3	0.00e+00	0	38	0	376438784	50	6174
2026-01-07 14:19:04.24	27.69	21.18	-38.4	-39.3	23.6	0.00e+00	0	38	0	377487360	50	5946
2026-01-07 14:19:05.25	27.75	21.32	-38.5	-39.4	23.5	0.00e+00	0	38	0	379584512	50	6014
2026-01-07 14:19:06.26	27.81	21.45	-38.5	-39.4	23.5	0.00e+00	0	38	0	381681664	50	6032
2026-01-07 14:19:07.27	27.88	21.59	-38.2	-39.1	23.7	0.00e+00	0	38	0	383778816	50	5806
2026-01-07 14:19:08.28	27.94	21.73	-38.3	-39.2	23.6	0.00e+00	0	38	0	385875968	50	5857
2026-01-07 14:19:09.29	28.01	21.86	-38.3	-39.2	23.7	0.00e+00	0	38	0	386924544	50	5830
2026-01-07 14:19:10.30	28.07	22.00	-38.4	-39.3	23.5	0.00e+00	0	38	0	389021696	50	5921
2026-01-07 14:19:11.30	28.14	22.14	-38.1	-39.0	23.9	0.00e+00	0	38	0	391118848	50	5721
2026-01-07 14:19:12.31	28.20	22.28	-38.1	-39.0	23.9	0.00e+00	0	38	0	393216000	50	5727
2026-01-07 14:19:13.32	28.27	22.42	-38.0	-38.9	24.0	0.00e+00	0	38	0	395313152	50	5652
2026-01-07 14:19:14.33	28.34	22.56	-38.1	-39.0	23.9	0.00e+00	0	38	0	396361728	50	5737
2026-01-07 14:19:15.34	28.41	22.70	-37.8	-38.7	24.2	0.00e+00	0	38	0	398458880	50	5503
2026-01-07 14:19:16.35	28.47	22.84	-37.8	-38.7	24.2	0.00e+00	0	38	0	400556032	50	5507
2026-01-07 14:19:17.36	28.54	22.98	-37.9	-38.7	24.1	0.00e+00	0	38	0	402653184	50	5552
2026-01-07 14:19:18.37	28.61	23.13	-37.7	-38.5	24.3	0.00e+00	0	38	0	404750336	48	6087
2026-01-07 14:19:19.38	28.68	23.27	-37.7	-38.5	24.2	0.00e+00	0	38	0	405798912	48	6103
2026-01-07 14:19:20.39	28.75	23.42	-37.7	-38.6	24.2	0.00e+00	0	38	0	407896064	48	6121
2026-01-07 14:19:21.40	28.83	23.56	-37.7	-38.5	24.3	0.00e+00	0	38	0	409993216	48	6083
2026-01-07 14:19:22.41	28.90	23.71	-37.6	-38.4	24.4	0.00e+00	0	38	0	412090368	48	6007
2026-01-07 14:19:23.42	28.97	23.86	-37.6	-38.5	24.3	0.00e+00	0	38	0	414187520	48	6038
2026-01-07 14:19:24.43	29.04	24.01	-37.5	-38.3	24.4	0.00e+00	0	38	0	415236096	48	5928
2026-01-07 14:19:25.44	29.12	24.16	-37.4	-38.3	24.5	0.00e+00	0	38	0	417333248	48	5902
2026-01-07 14:19:26.45	29.19	24.31	-37.4	-38.2	24.5	0.00e+00	0	38	0	419430400	48	5880
2026-01-07 14:19:27.45	29.27	24.46	-37.3	-38.1	24.6	0.00e+00	0	38	0	421527552	48	5810
2026-01-07 14:19:28.47	29.35	24.61	-37.4	-38.2	24.5	0.00e+00	0	38	0	423624704	48	5878
2026-01-07 14:19:29.48	29.42	24.76	-37.3	-38.1	24.6	0.00e+00	0	38	0	424673280	48	5774
2026-01-07 14:19:30.49	29.50	24.92	-37.2	-38.0	24.7	0.00e+00	0	38	0	426770432	48	5733
2026-01-07 14:19:31.49	29.58	25.07	-37.4	-38.2	24.6	0.00e+00	0	38	0	428867584	48	5874
2026-01-07 14:19:32.50	29.66	25.22	-37.2	-38.0	24.7	0.00e+00	0	38	0	430964736	48	5733
2026-01-07 14:19:33.51	29.74	25.38	-37.4	-38.2	24.6	0.00e+00	0	38	0	433061888	48	5854
2026-01-07 14:19:34.52	29.82	25.54	-37.2	-38.0	24.7	0.00e+00	0	38	0	434110464	48	5740
2026-01-07 14:19:35.53	29.90	25.69	-37.2	-38.0	24.8	0.00e+00	0	38	0	436207616	48	5728
2026-01-07 14:19:36.54	29.98	25.85	-37.1	-37.9	24.8	0.00e+00	0	38	0	438304768	48	5661
2026-01-07 14:19:37.55	30.06	26.01	-37.1	-37.9	24.8	0.00e+00	0	38	0	440401920	48	5675
2026-01-07 14:19:38.56	30.15	26.17	-36.9	-37.7	25.0	0.00e+00	0	38	0	442499072	48	5560
2026-01-07 14:19:39.57	30.23	26.33	-36.9	-37.7	25.0	0.00e+00	0	38	0	443547648	48	5521
2026-01-07 14:19:40.58	30.32	26.50	-36.8	-37.6	25.1	0.00e+00	0	38	0	445644800	48	5489
2026-01-07 14:19:41.59	30.40	26.66	-36.9	-37.7	25.0	0.00e+00	0	38	0	447741952	48	5532
2026-01-07 14:19:42.60	30.49	26.82	-37.0	-37.8	25.0	0.00e+00	0	38	0	449839104	48	5573
2026-01-07 14:19:43.61	30.58	26.99	-37.0	-37.8	24.9	0.00e+00	0	38	0	451936256	48	5607
2026-01-07 14:19:44.62	30.66	27.15	-37.1	-37.9	24.8	0.00e+00	0	38	0	454033408	48	5656
2026-01-07 14:19:45.63	30.75	27.32	-37.3	-38.1	24.7	0.00e+00	0	38	0	455081984	48	5779
2026-01-07 14:19:46.64	30.84	27.49	-37.4	-38.2	24.6	0.00e+00	0	38	0	457179136	48	5868
2026-01-07 14:19:47.65	30.94	27.66	-37.4	-38.2	24.6	0.00e+00	0	38	0	459276288	48	5882
2026-01-07 14:19:48.66	31.03	27.83	-37.6	-38.4	24.4	0.00e+00	0	38	0	461373440	48	6012
2026-01-07 14:19:49.67	31.12	28.00	-37.8	-38.6	24.2	0.00e+00	0	38	0	463470592	48	6154
2026-01-07 14:19:50.68	31.22	28.17	-38.0	-38.9	24.1	0.00e+00	0	38	0	464519168	48	6319
2026-01-07 14:19:51.69	31.31	28.34	-38.2	-39.1	23.8	0.00e+00	0	38	0	466616320	48	6486
2026-01-07 14:19:52.70	31.41	28.52	-38.3	-39.2	23.7	0.00e+00	0	38	0	468713472	48	6602
2026-01-07 14:19:53.71	31.50	28.69	-38.3	-39.2	23.8	0.00e+00	0	38	0	470810624	48	6589
2026-01-07 14:19:54.72	31.60	28.87	-38.4	-39.3	23.7	0.00e+00	0	38	0	472907776	48	6624
2026-01-07 14:19:55.73	31.70	29.04	-38.6	-39.5	23.5	0.00e+00	0	38	0	473956352	48	6833
2026-01-07 14:19:56.74	31.80	29.22	-38.7	-39.6	23.4	0.00e+00	0	38	0	476053504	48	6872
2026-01-07 14:19:57.75	31.90	29.40	-38.5	-39.4	23.3	0.00e+00	0	38	0	478150656	48	6697
2026-01-07 14:19:58.76	32.00	29.58	-38.6	-39.5	23.4	0.00e+00	0	38	0	480247808	48	6845
2026-01-07 14:19:59.77	32.11	29.76	-38.7	-39.7	23.3	0.00e+00	0	38	0	482344960	50	6175
2026-01-07 14:20:00.78	32.21	29.94	-38.9	-39.9	23.1	0.00e+00	0	38	0	483393536	50	6340
2026-01-07 14:20:01.79	32.32	30.13	-39.0	-39.9	23.1	0.00e+00	0	38	0	485490688	50	6376
2026-01-07 14:20:02.80	32.43	30.31	-39.3	-40.3	23.0	0.00e+00	0	38	0	487587840	50	6619
2026-01-07 14:20:03.81	32.53	30.50	-39.3	-40.3	22.8	0.00e+00	0	38	0	489684992	50	6640
2026-01-07 14:20:04.82	32.64	30.68	-39.5	-40.5	22.7	0.00e+00	0	38	0	491782144	50	6776
2026-01-07 14:20:05.84	32.75	30.87	-39.4	-40.4	22.7	0.00e+00	0	38	0	492830720	50	6757
2026-01-07 14:20:06.84	32.86	31.06	-39.6	-40.6	22.5	0.00e+00	0	38	0	494927872	50	6917
2026-01-07 14:20:07.85	32.98	31.25	-39.8	-40.8	22.4	0.00e+00	0	38	0	497025024	52	6290
2026-01-07 14:20:08.87	33.09	31.44	-39.9	-41.0	22.2	0.00e+00	0	38	0	499122176	52	6396
2026-01-07 14:20:09.88	33.21	31.63	-40.1	-41.1	22.2	0.00e+00	0	38	0	501219328	52	6512
2026-01-07 14:20:10.89	33.33	31.83	-39.9	-40.9	22.3	0.00e+00	0	38	0	502267904	52	6377
2026-01-07 14:20:11.89	33.44	32.02	-40.0	-41.0	22.1	0.00e+00	0	38	0	504365056	52	6445
2026-01-07 14:20:12.90	33.56	32.22	-40.1	-41.1	22.1	0.00e+00	0	38	0	506462208	52	6520
2026-01-07 14:20:13.91	33.68	32.41	-40.1	-41.1	22.1	0.00e+00	0	38	0	508559360	52	6512
2026-01-07 14:20:14.92	33.81	32.61	-40.3	-41.4	21.8	0.00e+00	0	38	0	510656512	52	6756
2026-01-07 14:20:15.93	33.93	32.81	-40.3	-41.4	21.8	0.00e+00	0	38	0	512753664	52	6746
2026-01-07 14:20:16.94	34.06	33.01	-40.4	-41.5	21.7	0.00e+00	0	38	0	513802240	52	6808
2026-01-07 14:20:17.95	34.18	33.21	-40.5	-41.6	21.3	0.00e+00	0	38	0	515899392	52	6882
2026-01-07 14:20:18.96	34.31	33.41	-40.5	-41.6	21.5	0.00e+00	0	38	0	517996544	52	6888
2026-01-07 14:20:19.97	34.44	33.62	-40.7	-41.8	21.5	0.00e+00	0	38	0	520093696	52	7082
2026-01-07 14:20:20.98	34.57	33.82	-40.6	-41.8	21.5	0.00e+00	0	38	0	522190848	54	6266
2026-01-07 14:20:21.99	34.70	34.03	-40.7	-41.8	21.5	0.00e+00	0	38	0	523239424	54	6298
2026-01-07 14:20:23.00	34.84	34.24	-40.6	-41.8	21.5	0.00e+00	0	38	0	525336576	54	6249
2026-01-07 14:20:24.01	34.98	34.44	-40.7	-41.9	21.4	0.00e+00	0	38	0	527433728	54	6320
2026-01-07 14:20:25.02	35.11	34.65	-41.0	-42.1	21.2	0.00e+00	0	38	0	529530880	54	6536
2026-01-07 14:20:26.03	35.25	34.86	-40.8	-42.0	21.3	0.00e+00	0	38	0	531628032	54	6418
2026-01-07 14:20:27.04	35.40	35.08	-40.9	-42.0	21.2	0.00e+00	0	38	0	532676608	54	6460
2026-01-07 14:20:28.05	35.54	35.29	-40.9	-42.1	21.2	0.00e+00	0	38	0	534773760	54	6483
2026-01-07 14:20:29.06	35.68	35.51	-40.9	-42.1	21.2	0.00e+00	0	38	0	536870912	54	6509
2026-01-07 14:20:30.07	35.83	35.72	-40.8	-41.9	21.4	0.00e+00	0	38	0	538968064	54	6383
2026-01-07 14:20:31.07	35.98	35.94	-40.7	-41.9	21.4	0.00e+00	0	38	0	541065216	54	6326
2026-01-07 14:20:32.08	36.13	36.16	-40.7	-41.8	21.4	0.00e+00	0	38	0	542113792	54	6306
2026-01-07 14:20:33.09	36.28	36.38	-40.6	-41.7	21.4	0.00e+00	0	38	0	544210944	54	6222
2026-01-07 14:20:34.10	36.44	36.60	-40.6	-41.7	21.4	0.00e+00	0	38	0	546308096	54	6241
2026-01-07 14:20:35.11	36.60	36.82	-40.6	-41.7	21.6	0.00e+00	0	38	0	548405248	54	6212
2026-01-07 14:20:36.13	36.76	37.05	-40.6	-41.8	21.4	0.00e+00	0	38	0	550502400	54	6259
2026-01-07 14:20:37.13	36.92	37.27	-40.7	-41.8	21.4	0.00e+00	0	38	0	551550976	54	6315
2026-01-07 14:20:38.14	37.08	37.50	-40.9	-42.1	21.2	0.00e+00	0	38	0	553648128	54	6478
2026-01-07 14:20:39.15	37.25	37.72	-40.7	-41.8	21.5	0.00e+00	0	38	0	555745280	54	6317
2026-01-07 14:20:40.16	37.41	37.95	-40.9	-42.1	21.2	0.00e+00	0	38	0	557842432	54	6475
2026-01-07 14:20:41.17	37.58	38.18	-41.1	-42.3	21.0	0.00e+00	0	38	0	559939584	54	6651
2026-01-07 14:20:42.18	37.76	38.41	-41.2	-42.4	20.9	0.00e+00	0	38	0	560988160	54	6737
2026-01-07 14:20:43.19	37.93	38.65	-41.2	-42.4	20.9	0.00e+00	0	38	0	563085312	54	6763
2026-01-07 14:20:44.20	38.11	38.88	-41.2	-42.5	20.9	0.00e+00	0	38	0	565182464	54	6782
2026-01-07 14:20:45.21	38.29	39.12	-41.2	-42.4	20.9	0.00e+00	0	38	0	567279616	54	6696
2026-01-07 14:20:46.22	38.47	39.35	-40.7	-41.9	21.4	0.00e+00	0	38	0	569376768	54	6321
2026-01-07 14:20:47.23	38.66	39.59	-40.6	-41.7	21.5	0.00e+00	0	38	0	570425344	54	6227
2026-01-07 14:20:48.24	38.85	39.83	-40.5	-41.6	21.3	0.00e+00	0	38	0	572522496	54	6162
2026-01-07 14:20:49.25	39.04	40.07	-40.5	-41.6	21.5	0.00e+00	0	38	0	574619648	54	6170
2026-01-07 14:20:50.26	39.23	40.32	-40.3	-41.4	21.8	0.00e+00	0	38	0	576716800	54	6024
2026-01-07 14:20:51.26	39.43	40.56	-40.1	-41.2	22.1	0.00e+00	0	38	0	578813952	54	5863
2026-01-07 14:20:52.27	39.62	40.80	-40.2	-41.3	22.0	0.00e+00	0	38	0	580911104	54	5946
2026-01-07 14:20:53.28	39.83	41.05	-39.9	-41.0	22.2	0.00e+00	0	38	0	581959680	54	5705
2026-01-07 14:20:54.29	40.03	41.30	-39.9	-40.9	22.4	0.00e+00	0	38	0	584056832	54	5662
2026-01-07 14:20:55.30	40.24	41.54	-39.6	-40.6	22.7	0.00e+00	0	38	0	586153984	52	6116
2026-01-07 14:20:56.31	40.45	41.79	-39.3	-40.3	22.9	0.00e+00	0	38	0	588251136	52	5915
2026-01-07 14:20:57.32	40.67	42.05	-39.2	-40.2	23.1	0.00e+00	0	38	0	590348288	52	5856
2026-01-07 14:20:58.33	40.89	42.30	-38.9	-39.8	23.3	0.00e+00	0	38	0	591396864	52	5628
2026-01-07 14:20:59.34	41.11	42.55	-38.9	-39.9	23.3	0.00e+00	0	38	0	593494016	52	5648
2026-01-07 14:21:00.35	41.33	42.81	-38.8	-39.7	23.4	0.00e+00	0	38	0	595591168	52	5564
2026-01-07 14:21:01.36	41.56	43.06	-38.8	-39.7	23.4	0.00e+00	0	38	0	597688320	50	6206
2026-01-07 14:21:02.37	41.79	43.32	-39.0	-39.9	23.1	0.00e+00	0	38	0	598736896	50	6384
2026-01-07 14:21:03.38	42.03	43.58	-39.4	-40.3	22.8	0.00e+00	0	38	0	600834048	50	6691
2026-01-07 14:21:04.39	42.27	43.84	-39.7	-40.7	22.4	0.00e+00	0	38	0	602931200	50	6997
2026-01-07 14:21:05.40	42.51	44.10	-39.9	-40.9	22.2	0.00e+00	0	38	0	605028352	52	6376
2026-01-07 14:21:06.40	42.76	44.36	-39.8	-40.8	22.5	0.00e+00	0	38	0	607125504	52	6306
2026-01-07 14:21:07.41	43.01	44.63	-39.5	-40.5	22.6	0.00e+00	0	38	0	609222656	52	6068
2026-01-07 14:21:08.43	43.27	44.89	-39.5	-40.4	22.7	0.00e+00	0	38	0	610271232	52	6025
2026-01-07 14:21:09.44	43.53	45.16	-39.4	-40.3	22.9	0.00e+00	0	38	0	612368384	52	5951
2026-01-07 14:21:10.45	43.79	45.43	-39.4	-40.4	22.7	0.00e+00	0	38	0	614465536	52	5966
2026-01-07 14:21:11.46	44.06	45.70	-39.6	-40.6	22.6	0.00e+00	0	38	0	616562688	52	6152
2026-01-07 14:21:12.47	44.33	45.97	-40.2	-41.2	22.0	0.00e+00	0	38	0	618659840	52	6603
2026-01-07 14:21:13.48	44.61	46.24	-40.7	-41.9	21.4	0.00e+00	0	38	0	619708416	52	7128
2026-01-07 14:21:14.49	44.89	46.51	-40.9	-42.1	21.3	0.00e+00	0	38	0	621805568	54	6477
2026-01-07 14:21:15.50	45.18	46.78	-40.7	-41.9	21.4	0.00e+00	0	38	0	623902720	54	6321
2026-01-07 14:21:16.51	45.47	47.05	-41.1	-42.3	21.0	0.00e+00	0	38	0	625999872	54	6639
2026-01-07 14:21:17.51	45.77	47.33	-41.0	-42.2	21.1	0.00e+00	0	38	0	628097024	54	6597
2026-01-07 14:21:18.52	46.07	47.60	-40.7	-41.9	21.4	0.00e+00	0	38	0	629145600	54	6367
2026-01-07 14:21:19.53	46.38	47.88	-40.1	-41.2	22.0	0.00e+00	0	38	0	631242752	54	5874
2026-01-07 14:21:20.54	46.69	48.16	-39.8	-40.8	22.4	0.00e+00	0	38	0	633339904	52	6315
2026-01-07 14:21:21.55	47.01	48.44	-39.6	-40.6	22.5	0.00e+00	0	38	0	635437056	52	6130
2026-01-07 14:21:22.56	47.34	48.71	-39.8	-40.9	22.4	0.00e+00	0	38	0	637534208	52	6321
2026-01-07 14:21:23.57	47.67	48.99	-39.4	-40.3	22.8	0.00e+00	0	38	0	638582784	52	5947
2026-01-07 14:21:24.58	48.01	49.28	-39.7	-40.7	22.5	0.00e+00	0	38	0	640679936	52	6223
2026-01-07 14:21:25.58	48.35	49.55	-39.5	-40.5	22.7	0.00e+00	0	38	0	642777088	52	6085
2026-01-07 14:21:26.59	48.70	49.84	-38.7	-39.7	23.4	0.00e+00	0	38	0	644874240	52	5515
2026-01-07 14:21:27.60	49.05	50.12	-38.2	-39.1	23.8	0.00e+00	0	38	0	646971392	50	5807
2026-01-07 14:21:28.61	49.41	50.40	-38.0	-38.8	24.3	0.00e+00	0	38	0	648019968	50	5623
2026-01-07 14:21:29.62	49.78	50.69	-37.0	-37.8	24.9	0.00e+00	0	38	0	650117120	48	5623
2026-01-07 14:21:30.63	50.16	50.97	-37.1	-37.9	24.9	0.00e+00	0	38	0	652214272	48	5632
2026-01-07 14:21:31.64	50.54	51.26	-36.6	-37.3	25.4	0.00e+00	0	38	0	654311424	46	5960
2026-01-07 14:21:32.65	50.93	51.54	-36.2	-37.0	25.7	0.00e+00	0	38	0	656408576	46	5721
2026-01-07 14:21:33.66	51.33	51.83	-35.8	-36.5	26.0	0.00e+00	0	38	0	657457152	46	5419
2026-01-07 14:21:34.67	51.74	52.12	-35.3	-36.0	26.3	0.00e+00	0	38	0	659554304	44	5751
2026-01-07 14:21:35.68	52.15	52.40	-35.0	-35.7	26.6	0.00e+00	0	38	0	661651456	44	5535
2026-01-07 14:21:36.69	52.57	52.69	-34.8	-35.5	26.8	0.00e+00	0	38	0	663748608	44	5415
2026-01-07 14:21:37.70	53.00	52.98	-35.0	-35.7	26.6	0.00e+00	0	38	0	665845760	42	6195
2026-01-07 14:21:38.71	53.44	53.26	-35.3	-36.0	26.4	0.00e+00	0	38	0	666894336	42	6462
2026-01-07 14:21:39.72	53.89	53.55	-35.9	-36.6	25.9	0.00e+00	0	38	0	668991488	44	6160
2026-01-07 14:21:40.73	54.34	53.83	-35.9	-36.6	25.8	0.00e+00	0	38	0	671088640	44	6148
2026-01-07 14:21:41.74	54.81	54.12	-35.6	-36.3	26.0	0.00e+00	0	38	0	673185792	44	5940
2026-01-07 14:21:42.75	55.28	54.41	-35.5	-36.3	26.1	0.00e+00	0	38	0	675282944	44	5909
2026-01-07 14:21:43.76	55.77	54.69	-35.7	-36.4	26.1	0.00e+00	0	38	0	677380096	44	6011
2026-01-07 14:21:44.77	56.26	54.98	-36.2	-37.0	25.6	0.00e+00	0	38	0	678428672	44	6429
2026-01-07 14:21:45.78	56.76	55.26	-36.7	-37.5	24.3	0.00e+00	0	38	0	680525824	44	6830
2026-01-07 14:21:46.79	57.28	55.55	-37.5	-38.3	24.3	0.00e+00	0	38	0	682622976	46	6666
2026-01-07 14:21:47.80	57.80	55.83	-37.9	-38.8	24.1	0.00e+00	0	38	0	684720128	48	6291
2026-01-07 14:21:48.81	58.33	56.11	-38.1	-38.9	23.8	0.00e+00	0	38	0	686817280	48	6373
2026-01-07 14:21:49.82	58.88	56.39	-38.2	-39.1	23.9	0.00e+00	0	38	0	687865856	48	6481
2026-01-07 14:21:50.83	59.44	56.67	-38.0	-38.9	24.0	0.00e+00	0	38	0	689963008	48	6350
2026-01-07 14:21:51.84	60.00	56.95	-38.3	-39.2	23.8	0.00e+00	0	38	0	692060160	48	6550
2026-01-07 14:21:52.84	60.58	57.23	-38.7	-39.6	23.3	0.00e+00	0	38	0	694157312	48	6911
2026-01-07 14:21:53.86	61.17	57.51	-39.2	-40.2	23.0	0.00e+00	0	38	0	696254464	50	6540
2026-01-07 14:21:54.86	61.77	57.78	-39.1	-40.0	23.0	0.00e+00	0	38	0	697303040	50	6427
2026-01-07 14:21:55.87	62.39	58.05	-39.1	-40.0	23.1	0.00e+00	0	38	0	699400192	50	6442
2026-01-07 14:21:56.88	63.01	58.32	-39.2	-40.2	22.8	0.00e+00	0	38	0	701497344	50	6540
2026-01-07 14:21:57.89	63.65	58.59	-39.5	-40.5	22.6	0.00e+00	0	38	0	703594496	50	6776
2026-01-07 14:21:58.90	64.31	58.86	-39.7	-40.7	22.5	0.00e+00	0	38	0	705691648	50	6957
2026-01-07 14:21:59.91	64.97	59.12	-39.2	-40.1	23.0	0.00e+00	0	38	0	706740224	50	6531
2026-01-07 14:22:00.92	65.65	59.39	-38.6	-39.5	23.3	0.00e+00	0	38	0	708837376	50	6073
2026-01-07 14:22:01.93	66.35	59.65	-37.9	-38.8	24.3	0.00e+00	0	38	0	710934528	50	5580
2026-01-07 14:22:02.94	67.06	59.90	-37.2	-38.0	24.7	0.00e+00	0	38	0	713031680	48	5748
2026-01-07 14:22:03.95	67.78	60.16	-37.4	-38.2	24.5	0.00e+00	0	38	0	715128832	48	5892
2026-01-07 14:22:04.96	68.51	60.41	-37.3	-38.1	24.7	0.00e+00	0	38	0	716177408	48	5797
2026-01-07 14:22:05.97	69.26	60.66	-37.0	-37.8	24.9	0.00e+00	0	38	0	718274560	48	5623
2026-01-07 14:22:06.98	70.03	60.90	-36.7	-37.4	25.3	0.00e+00	0	38	0	720371712	46	6021
2026-01-07 14:22:07.99	70.81	61.14	-36.4	-37.2	25.6	0.00e+00	0	38	0	722468864	46	5852
2026-01-07 14:22:09.00	71.60	61.38	-36.4	-37.2	25.4	0.00e+00	0	38	0	724566016	46	5861
2026-01-07 14:22:10.01	72.41	61.61	-36.6	-37.4	25.4	0.00e+00	0	38	0	725614592	46	6000
2026-01-07 14:22:11.02	73.24	61.84	-36.7	-37.5	25.2	0.00e+00	0	38	0	727711744	46	6051
2026-01-07 14:22:12.03	74.08	62.06	-36.7	-37.5	25.3	0.00e+00	0	38	0	729808896	46	6052
2026-01-07 14:22:13.04	74.94	62.28	-37.1	-37.9	24.8	0.00e+00	0	38	0	731906048	46	6388
2026-01-07 14:22:14.05	75.81	62.50	-38.0	-38.8	24.2	0.00e+00	0	38	0	734003200	48	6304
2026-01-07 14:22:15.06	76.69	62.71	-37.3	-38.2	24.8	0.00e+00	0	38	0	735051776	48	5831
2026-01-07 14:22:16.07	77.60	62.91	-36.8	-37.6	25.1	0.00e+00	0	38	0	737148928	48	5479
2026-01-07 14:22:17.08	78.51	63.11	-36.6	-37.4	25.3	0.00e+00	0	38	0	739246080	46	5983
2026-01-07 14:22:18.09	79.45	63.31	-36.6	-37.3	25.3	0.00e+00	0	38	0	741343232	46	5963
2026-01-07 14:22:19.10	80.39	63.50	-36.9	-37.7	25.1	0.00e+00	0	38	0	743440384	46	6174
2026-01-07 14:22:20.11	81.36	63.68	-37.5	-38.3	24.6	0.00e+00	0	38	0	745537536	46	6626
2026-01-07 14:22:21.12	82.33	63.86	-37.8	-38.6	24.3	0.00e+00	0	38	0	746586112	48	6163
2026-01-07 14:22:22.13	83.33	64.02	-37.5	-38.3	24.6	0.00e+00	0	38	0	748683264	48	5944
2026-01-07 14:22:23.14	84.33	64.19	-37.5	-38.3	24.6	0.00e+00	0	38	0	750780416	48	5960
2026-01-07 14:22:24.15	85.35	64.34	-37.4	-38.3	24.5	0.00e+00	0	38	0	752877568	48	5907
2026-01-07 14:22:25.16	86.39	64.49	-37.5	-38.3	24.6	0.00e+00	0	38	0	754974720	48	5918
2026-01-07 14:22:26.17	87.44	64.64	-38.2	-39.1	24.0	0.00e+00	0	38	0	756023296	48	6534
2026-01-07 14:22:27.18	88.50	64.77	-38.9	-39.8	23.2	0.00e+00	0	38	0	758120448	50	6295
2026-01-07 14:22:28.19	89.57	64.90	-39.3	-40.3	22.8	0.00e+00	0	38	0	760217600	50	6631
2026-01-07 14:22:29.20	90.65	65.02	-39.5	-40.5	22.9	0.00e+00	0	38	0	762314752	50	6788
2026-01-07 14:22:30.21	91.75	65.13	-38.7	-39.6	23.5	0.00e+00	0	38	0	764411904	50	6129
2026-01-07 14:22:31.22	92.85	65.23	-38.3	-39.2	23.9	0.00e+00	0	38	0	765460480	50	5831
2026-01-07 14:22:32.23	93.97	65.33	-38.7	-39.6	23.4	0.00e+00	0	38	0	767557632	50	6115
2026-01-07 14:22:33.24	95.10	65.42	-39.4	-40.4	22.8	0.00e+00	0	38	0	769654784	50	6716
2026-01-07 14:22:34.25	96.23	65.49	-39.9	-41.0	22.1	0.00e+00	0	38	0	771751936	52	6413
2026-01-07 14:22:35.26	97.37	65.56	-40.1	-41.1	22.2	0.00e+00	0	38	0	773849088	52	6532
2026-01-07 14:22:36.27	98.52	65.63	-39.7	-40.7	22.6	0.00e+00	0	38	0	774897664	52	6229
2026-01-07 14:22:37.27	99.66	65.68	-38.9	-39.9	23.3	0.00e+00	0	38	0	776994816	52	5641
2026-01-07 14:22:38.28	100.82	65.72	-38.4	-39.3	23.6	0.00e+00	0	38	0	779091968	50	5927
2026-01-07 14:22:39.29	101.98	65.76	-38.5	-39.4	23.7	0.00e+00	0	38	0	781189120	50	5995
2026-01-07 14:22:40.30	103.15	65.78	-38.4	-39.3	23.7	0.00e+00	0	38	0	783286272	50	5919
2026-01-07 14:22:41.31	104.32	65.80	-38.0	-38.9	23.9	0.00e+00	0	38	0	784334848	50	5656
2026-01-07 14:22:42.32	105.49	65.81	-38.2	-39.1	23.9	0.00e+00	0	38	0	786432000	50	5786
2026-01-07 14:22:43.33	106.66	65.81	-38.2	-39.1	23.9	0.00e+00	0	38	0	788529152	50	5795
2026-01-07 14:22:44.34	107.83	65.80	-38.4	-39.3	23.5	0.00e+00	0	38	0	790626304	50	5912
2026-01-07 14:22:45.35	109.00	65.78	-38.6	-39.5	23.6	0.00e+00	0	38	0	792723456	50	6057
2026-01-07 14:22:46.36	110.17	65.75	-38.3	-39.1	23.8	0.00e+00	0	38	0	793772032	50	5828
2026-01-07 14:22:47.37	111.33	65.71	-38.3	-39.2	23.8	0.00e+00	0	38	0	795869184	50	5835
2026-01-07 14:22:48.38	112.49	65.67	-39.3	-40.3	22.8	0.00e+00	0	38	0	797966336	50	6686
2026-01-07 14:22:49.39	113.64	65.61	-39.5	-40.5	22.8	0.00e+00	0	38	0	800063488	50	6819
2026-01-07 14:22:50.40	114.79	65.55	-38.2	-39.1	24.0	0.00e+00	0	38	0	802160640	50	5781
2026-01-07 14:22:51.40	115.92	65.47	-37.0	-37.8	25.0	0.00e+00	0	38	0	803209216	48	5628
2026-01-07 14:22:52.41	117.05	65.39	-37.2	-38.0	24.8	0.00e+00	0	38	0	805306368	48	5702
2026-01-07 14:22:53.42	118.17	65.30	-37.8	-38.7	24.2	0.00e+00	0	38	0	807403520	48	6184
2026-01-07 14:22:54.43	119.29	65.21	-38.3	-39.2	23.7	0.00e+00	0	38	0	809500672	48	6552
2026-01-07 14:22:55.44	120.39	65.10	-38.3	-39.1	24.0	0.00e+00	0	38	0	811597824	48	6522
2026-01-07 14:22:56.45	121.48	64.99	-37.6	-38.4	24.3	0.00e+00	0	38	0	813694976	48	5996
2026-01-07 14:22:57.46	122.57	64.87	-37.7	-38.5	24.3	0.00e+00	0	38	0	814743552	48	6097
2026-01-07 14:22:58.47	123.64	64.74	-37.9	-38.8	24.1	0.00e+00	0	38	0	816840704	48	6256
2026-01-07 14:22:59.48	124.69	64.60	-37.3	-38.1	24.7	0.00e+00	0	38	0	818937856	48	5814
2026-01-07 14:23:00.49	125.74	64.46	-36.9	-37.7	25.0	0.00e+00	0	38	0	821035008	48	5511
2026-01-07 14:23:01.50	126.77	64.30	-37.2	-38.0	24.8	0.00e+00	0	38	0	823132160	48	5756
2026-01-07 14:23:02.51	127.79	64.15	-37.4	-38.2	24.6	0.00e+00	0	38	0	824180736	48	5856
2026-01-07 14:23:03.52	128.79	63.98	-36.9	-37.7	25.1	0.00e+00	0	38	0	826277888	48	5526
2026-01-07 14:23:04.53	129.78	63.81	-36.2	-36.9	25.8	0.00e+00	0	38	0	828375040	46	5680
2026-01-07 14:23:05.54	130.76	63.63	-35.7	-36.4	25.7	0.00e+00	0	38	0	830472192	46	5362
2026-01-07 14:23:06.54	131.71	63.45	-35.9	-36.7	25.7	0.00e+00	0	38	0	832569344	44	6175
2026-01-07 14:23:07.55	132.65	63.26	-36.1	-36.9	25.7	0.00e+00	0	38	0	833617920	44	6369
2026-01-07 14:23:08.56	133.58	63.06	-35.1	-35.8	26.7	0.00e+00	0	38	0	835715072	44	5606
2026-01-07 14:23:09.57	134.50	62.86	-33.4	-34.0	27.9	0.00e+00	0	38	0	837812224	40	5728
2026-01-07 14:23:10.58	135.39	62.65	-33.6	-34.3	27.6	0.00e+00	0	38	0	839909376	40	5900
2026-01-07 14:23:11.59	136.28	62.44	-34.4	-35.1	27.0	0.00e+00	0	38	0	842006528	40	6522
2026-01-07 14:23:12.60	137.15	62.23	-34.6	-35.2	27.1	0.00e+00	0	38	0	843055104	40	6615
2026-01-07 14:23:13.61	138.00	62.00	-34.3	-35.0	27.2	0.00e+00	0	38	0	845152256	40	6393
2026-01-07 14:23:14.62	138.84	61.78	-34.6	-35.3	26.9	0.00e+00	0	38	0	847249408	40	6685
2026-01-07 14:23:15.64	139.67	61.55	-34.5	-35.2	27.0	0.00e+00	0	38	0	849346560	40	6602
2026-01-07 14:23:16.65	140.47	61.31	-35.1	-35.8	26.6	0.00e+00	0	38	0	851443712	42	6254
2026-01-07 14:23:17.66	141.27	61.07	-35.9	-36.6	26.0	0.00e+00	0	38	0	852492288	44	6152
2026-01-07 14:23:18.66	142.04	60.83	-36.1	-36.9	25.8	0.00e+00	0	38	0	854589440	44	6326
2026-01-07 14:23:19.68	142.81	60.58	-36.1	-36.9	25.6	0.00e+00	0	38	0	856686592	44	6336
2026-01-07 14:23:20.69	143.55	60.34	-37.0	-37.8	25.0	0.00e+00	0	38	0	858783744	46	6272
2026-01-07 14:23:21.70	144.29	60.08	-37.9	-38.8	24.1	0.00e+00	0	38	0	860880896	48	6294
2026-01-07 14:23:22.71	145.01	59.83	-38.1	-39.0	24.0	0.00e+00	0	38	0	861929472	48	6441
2026-01-07 14:23:23.72	145.71	59.57	-37.6	-38.4	24.5	0.00e+00	0	38	0	864026624	48	6000
2026-01-07 14:23:24.73	146.40	59.31	-37.1	-37.8	25.0	0.00e+00	0	38	0	866123776	48	5626
2026-01-07 14:23:25.74	147.08	59.04	-37.4	-38.2	24.7	0.00e+00	0	38	0	868220928	48	5891
2026-01-07 14:23:26.75	147.74	58.78	-37.7	-38.6	24.4	0.00e+00	0	38	0	870318080	48	6128
2026-01-07 14:23:27.75	148.39	58.51	-37.4	-38.2	24.7	0.00e+00	0	38	0	871366656	48	5847
2026-01-07 14:23:28.77	149.03	58.24	-36.7	-37.4	25.2	0.00e+00	0	38	0	873463808	48	5369
2026-01-07 14:23:29.77	149.65	57.97	-36.2	-36.9	25.7	0.00e+00	0	38	0	875560960	46	5691
2026-01-07 14:23:30.78	150.26	57.70	-36.3	-37.0	25.7	0.00e+00	0	38	0	877658112	46	5741
2026-01-07 14:23:31.79	150.86	57.42	-35.8	-36.5	26.1	0.00e+00	0	38	0	879755264	46	5419
2026-01-07 14:23:32.80	151.45	57.14	-35.2	-35.9	26.5	0.00e+00	0	38	0	881852416	44	5675
2026-01-07 14:23:33.81	152.03	56.86	-35.3	-36.0	26.5	0.00e+00	0	38	0	882900992	44	5700
2026-01-07 14:23:34.82	152.59	56.58	-35.2	-35.9	26.5	0.00e+00	0	38	0	884998144	44	5687
2026-01-07 14:23:35.83	153.15	56.30	-35.1	-35.8	26.5	0.00e+00	0	38	0	887095296	44	5626
2026-01-07 14:23:36.84	153.69	56.02	-35.2	-36.0	26.5	0.00e+00	0	38	0	889192448	44	5699
2026-01-07 14:23:37.85	154.22	55.74	-35.5	-36.2	26.2	0.00e+00	0	38	0	891289600	44	5871
2026-01-07 14:23:38.86	154.74	55.45	-35.7	-36.4	26.2	0.00e+00	0	38	0	892338176	44	6001
2026-01-07 14:23:39.87	155.26	55.17	-35.4	-36.1	26.3	0.00e+00	0	38	0	894435328	44	5825
2026-01-07 14:23:40.88	155.76	54.88	-35.2	-35.9	26.5	0.00e+00	0	38	0	896532480	44	5652
2026-01-07 14:23:41.89	156.25	54.60	-35.4	-36.1	26.2	0.00e+00	0	38	0	898629632	44	5828
2026-01-07 14:23:42.90	156.73	54.31	-35.4	-36.1	26.3	0.00e+00	0	38	0	900726784	44	5800
2026-01-07 14:23:43.91	157.20	54.02	-35.1	-35.8	26.5	0.00e+00	0	38	0	901775360	44	5592
2026-01-07 14:23:44.92	157.66	53.74	-35.2	-35.9	26.3	0.00e+00	0	38	0	903872512	44	5680
2026-01-07 14:23:45.92	158.11	53.45	-36.2	-37.0	25.6	0.00e+00	0	38	0	905969664	44	6427
2026-01-07 14:23:46.94	158.56	53.16	-36.9	-37.7	25.1	0.00e+00	0	38	0	908066816	46	6184
2026-01-07 14:23:47.95	159.00	52.87	-36.7	-37.5	25.3	0.00e+00	0	38	0	910163968	46	6041
2026-01-07 14:23:48.96	159.43	52.59	-36.2	-37.0	25.6	0.00e+00	0	38	0	911212544	46	5700
2026-01-07 14:23:49.97	159.85	52.30	-35.7	-36.5	25.9	0.00e+00	0	38	0	913309696	46	5388
2026-01-07 14:23:50.98	160.26	52.01	-35.6	-36.3	26.0	0.00e+00	0	38	0	915406848	44	5948
2026-01-07 14:23:51.98	160.66	51.73	-36.2	-36.9	25.6	0.00e+00	0	38	0	917504000	44	6372
2026-01-07 14:23:52.99	161.06	51.44	-36.8	-37.6	25.1	0.00e+00	0	38	0	919601152	44	6903
2026-01-07 14:23:54.00	161.45	51.15	-37.9	-38.7	24.2	0.00e+00	0	38	0	920649728	48	6236
2026-01-07 14:23:55.01	161.83	50.87	-38.4	-39.3	23.7	0.00e+00	0	38	0	922746880	48	6646
2026-01-07 14:23:56.02	162.20	50.58	-38.0	-38.9	24.1	0.00e+00	0	38	0	924844032	48	6370
2026-01-07 14:23:57.03	162.57	50.30	-38.0	-38.9	24.2	0.00e+00	0	38	0	926941184	48	6318
2026-01-07 14:23:58.04	162.93	50.01	-37.5	-38.3	24.4	0.00e+00	0	38	0	929038336	48	5898
2026-01-07 14:23:59.05	163.29	49.73	-38.3	-39.2	23.7	0.00e+00	0	38	0	930086912	48	6576
2026-01-07 14:24:00.06	163.63	49.45	-39.7	-40.7	22.4	0.00e+00	0	38	0	932184064	50	6981
2026-01-07 14:24:01.07	163.98	49.16	-40.7	-41.8	21.4	0.00e+00	0	38	0	934281216	52	7060
2026-01-07 14:24:02.08	164.31	48.88	-41.8	-43.1	20.3	0.00e+00	0	38	0	936378368	54	7291
2026-01-07 14:24:03.09	164.64	48.60	-42.0	-43.5	20.0	0.00e+00	0	38	0	938475520	56	6780
2026-01-07 14:24:04.10	164.97	48.32	-41.7	-43.0	20.6	0.00e+00	0	38	0	939524096	56	6455
2026-01-07 14:24:05.11	165.28	48.04	-40.8	-41.9	21.2	0.00e+00	0	38	0	941621248	56	5656
2026-01-07 14:24:06.11	165.59	47.77	-40.3	-41.3	21.9	0.00e+00	0	38	0	943718400	54	5924
2026-01-07 14:24:07.12	165.90	47.49	-40.6	-41.8	21.3	0.00e+00	0	38	0	945815552	54	6263
2026-01-07 14:24:08.14	166.20	47.21	-42.9	-44.6	18.6	0.00e+00	0	38	0	947912704	56	7751
2026-01-07 14:24:09.15	166.50	46.93	-44.5	-47.0	16.5	0.00e+00	0	38	0	950009856	60	8115
2026-01-07 14:24:10.15	166.79	46.66	-42.0	-43.6	19.9	0.00e+00	0	38	0	951058432	58	6167
2026-01-07 14:24:11.16	167.08	46.39	-40.1	-41.2	22.1	0.00e+00	0	38	0	953155584	54	5873
2026-01-07 14:24:12.17	167.36	46.12	-39.9	-41.0	22.5	0.00e+00	0	38	0	955252736	54	5720
2026-01-07 14:24:13.18	167.63	45.84	-38.5	-39.4	23.8	0.00e+00	0	38	0	957349888	50	5967
2026-01-07 14:24:14.19	167.91	45.57	-38.3	-39.2	23.7	0.00e+00	0	38	0	959447040	50	5861
2026-01-07 14:24:15.20	168.17	45.31	-39.0	-39.9	23.2	0.00e+00	0	38	0	960495616	50	6390
2026-01-07 14:24:16.21	168.44	45.04	-39.5	-40.5	22.6	0.00e+00	0	38	0	962592768	50	6799
2026-01-07 14:24:17.22	168.70	44.77	-40.2	-41.4	22.0	0.00e+00	0	38	0	964689920	52	6704
2026-01-07 14:24:18.23	168.95	44.50	-40.4	-41.5	21.9	0.00e+00	0	38	0	966787072	52	6833
2026-01-07 14:24:19.24	169.20	44.24	-39.5	-40.6	22.8	0.00e+00	0	38	0	968884224	52	6104
2026-01-07 14:24:20.25	169.45	43.98	-37.8	-38.6	24.1	0.00e+00	0	38	0	969932800	50	5483
2026-01-07 14:24:21.26	169.69	43.71	-36.7	-37.5	25.2	0.00e+00	0	38	0	972029952	48	5420
2026-01-07 14:24:22.27	169.93	43.45	-36.6	-37.3	25.4	0.00e+00	0	38	0	974127104	46	5944
2026-01-07 14:24:23.28	170.16	43.19	-36.3	-37.1	25.6	0.00e+00	0	38	0	976224256	46	5764
2026-01-07 14:24:24.29	170.40	42.94	-37.3	-38.1	24.7	0.00e+00	0	38	0	978321408	46	6516
2026-01-07 14:24:25.30	170.62	42.68	-38.6	-39.5	23.5	0.00e+00	0	38	0	979369984	48	6814
2026-01-07 14:24:26.31	170.85	42.42	-39.0	-39.9	23.1	0.00e+00	0	38	0	981467136	50	6379
2026-01-07 14:24:27.32	171.07	42.17	-38.0	-38.9	24.1	0.00e+00	0	38	0	983564288	50	5682
2026-01-07 14:24:28.33	171.29	41.92	-37.5	-38.4	24.5	0.00e+00	0	38	0	985661440	48	5971
2026-01-07 14:24:29.34	171.50	41.66	-37.4	-38.2	24.7	0.00e+00	0	38	0	987758592	48	5831
2026-01-07 14:24:30.35	171.71	41.41	-36.8	-37.5	25.2	0.00e+00	0	38	0	988807168	48	5429
2026-01-07 14:24:31.36	171.92	41.16	-36.6	-37.4	25.4	0.00e+00	0	38	0	990904320	46	5973
2026-01-07 14:24:32.37	172.12	40.92	-36.9	-37.7	25.1	0.00e+00	0	38	0	993001472	46	6205
2026-01-07 14:24:33.38	172.32	40.67	-37.4	-38.2	24.6	0.00e+00	0	38	0	995098624	46	6612
2026-01-07 14:24:34.39	172.52	40.42	-38.2	-39.1	23.8	0.00e+00	0	38	0	997195776	48	6486
2026-01-07 14:24:35.40	172.72	40.18	-38.9	-39.8	23.1	0.00e+00	0	38	0	998244352	50	6315
2026-01-07 14:24:36.41	172.91	39.94	-39.0	-40.0	23.1	0.00e+00	0	38	0	1000341504	50	6450
2026-01-07 14:24:37.42	173.10	39.70	-38.7	-39.7	23.5	0.00e+00	0	38	0	1002438656	50	6178
2026-01-07 14:24:38.43	173.29	39.46	-38.1	-39.0	24.0	0.00e+00	0	38	0	1004535808	50	5716
2026-01-07 14:24:39.44	173.47	39.22	-37.9	-38.7	24.2	0.00e+00	0	38	0	1006632960	50	5563
2026-01-07 14:24:40.45	173.65	38.98	-36.9	-37.7	25.1	0.00e+00	0	38	0	1007681536	48	5548
2026-01-07 14:24:41.46	173.83	38.74	-36.3	-37.0	25.6	0.00e+00	0	38	0	1009778688	46	5727
2026-01-07 14:24:42.47	174.01	38.51	-35.8	-36.5	26.1	0.00e+00	0	38	0	1011875840	46	5402
2026-01-07 14:24:43.48	174.19	38.27	-36.2	-36.9	25.6	0.00e+00	0	38	0	1013972992	46	5650
2026-01-07 14:24:44.49	174.36	38.04	-37.1	-37.9	24.9	0.00e+00	0	38	0	1016070144	46	6342
2026-01-07 14:24:45.50	174.53	37.81	-38.1	-39.0	24.0	0.00e+00	0	38	0	1018167296	48	6428
2026-01-07 14:24:46.51	174.69	37.58	-38.6	-39.5	23.4	0.00e+00	0	38	0	1019215872	48	6834
2026-01-07 14:24:47.52	174.86	37.35	-38.6	-39.6	23.5	0.00e+00	0	38	0	1021313024	50	6115
2026-01-07 14:24:48.53	175.02	37.13	-38.2	-39.1	23.9	0.00e+00	0	38	0	1023410176	50	5809
2026-01-07 14:24:49.54	175.18	36.90	-38.1	-39.0	24.1	0.00e+00	0	38	0	1025507328	50	5738
2026-01-07 14:24:50.55	175.34	36.68	-37.8	-38.7	24.2	0.00e+00	0	38	0	1027604480	50	5531
2026-01-07 14:24:51.56	175.50	36.45	-37.3	-38.1	24.8	0.00e+00	0	38	0	1028653056	48	5779
2026-01-07 14:24:52.57	175.65	36.23	-37.0	-37.8	25.1	0.00e+00	0	38	0	1030750208	48	5567
2026-01-07 14:24:53.58	175.80	36.01	-36.8	-37.6	25.2	0.00e+00	0	38	0	1032847360	46	6116
2026-01-07 14:24:54.59	175.95	35.79	-36.8	-37.5	25.2	0.00e+00	0	38	0	1034944512	46	6089
2026-01-07 14:24:55.60	176.10	35.58	-36.6	-37.4	25.3	0.00e+00	0	38	0	1037041664	46	5976
2026-01-07 14:24:56.61	176.25	35.36	-37.2	-38.0	24.9	0.00e+00	0	38	0	1038090240	46	6403
2026-01-07 14:24:57.62	176.39	35.14	-37.6	-38.4	24.5	0.00e+00	0	38	0	1040187392	46	6765
2026-01-07 14:24:58.63	176.54	34.93	-38.0	-38.9	24.1	0.00e+00	0	38	0	1042284544	48	6375
2026-01-07 14:24:59.63	176.68	34.72	-38.4	-39.3	23.7	0.00e+00	0	38	0	1044381696	48	6663
2026-01-07 14:25:00.64	176.82	34.51	-38.4	-39.3	23.7	0.00e+00	0	38	0	1046478848	48	6653
2026-01-07 14:25:01.65	176.95	34.30	-38.3	-39.2	23.8	0.00e+00	0	38	0	1047527424	48	6556
2026-01-07 14:25:02.66	177.09	34.09	-38.3	-39.2	23.8	0.00e+00	0	38	0	1049624576	48	6545
2026-01-07 14:25:03.67	177.22	33.88	-38.4	-39.3	23.7	0.00e+00	0	38	0	1051721728	48	6626
2026-01-07 14:25:04.68	177.36	33.67	-38.3	-39.1	23.8	0.00e+00	0	38	0	1053818880	48	6539
2026-01-07 14:25:05.69	177.49	33.47	-38.5	-39.4	23.5	0.00e+00	0	38	0	1055916032	48	6746
2026-01-07 14:25:06.70	177.62	33.26	-38.6	-39.5	23.5	0.00e+00	0	38	0	1056964608	48	6781
2026-01-07 14:25:07.71	177.74	33.06	-38.6	-39.5	23.5	0.00e+00	0	38	0	1059061760	48	6807
2026-01-07 14:25:08.72	177.87	32.86	-38.8	-39.7	23.3	0.00e+00	0	38	0	1061158912	50	6204
2026-01-07 14:25:09.73	177.99	32.66	-38.5	-39.4	23.6	0.00e+00	0	38	0	1063256064	50	6007
2026-01-07 14:25:10.74	178.12	32.46	-38.5	-39.4	23.6	0.00e+00	0	38	0	1065353216	50	6004
2026-01-07 14:25:11.75	178.24	32.26	-38.4	-39.3	23.7	0.00e+00	0	38	0	1066401792	50	5926
2026-01-07 14:25:12.76	178.36	32.06	-38.4	-39.2	23.8	0.00e+00	0	38	0	1068498944	50	5876
2026-01-07 14:25:13.77	178.48	31.87	-38.4	-39.3	23.8	0.00e+00	0	38	0	1070596096	50	5937
2026-01-07 14:25:14.78	178.60	31.67	-38.6	-39.5	23.6	0.00e+00	0	38	0	1072693248	50	6044
2026-01-07 14:25:15.78	178.71	31.48	-38.7	-39.6	23.4	0.00e+00	0	38	0	1074790400	50	6130
2026-01-07 14:25:16.79	178.83	31.29	-38.9	-39.9	23.2	0.00e+00	0	38	0	1075838976	50	6337
2026-01-07 14:25:17.80	178.94	31.10	-39.3	-40.2	22.9	0.00e+00	0	38	0	1077936128	50	6610
2026-01-07 14:25:18.81	179.05	30.91	-39.3	-40.3	22.9	0.00e+00	0	38	0	1080033280	50	6641
2026-01-07 14:25:19.82	179.16	30.72	-39.4	-40.4	22.7	0.00e+00	0	38	0	1082130432	50	6740
2026-01-07 14:25:20.83	179.27	30.53	-39.5	-40.5	22.5	0.00e+00	0	38	0	1084227584	50	6775
2026-01-07 14:25:21.84	179.38	30.34	-39.5	-40.5	22.6	0.00e+00	0	38	0	1086324736	50	6811
2026-01-07 14:25:22.85	179.49	30.16	-39.3	-40.3	22.9	0.00e+00	0	38	0	1087373312	50	6674
2026-01-07 14:25:23.86	179.60	29.97	-38.9	-39.8	23.3	0.00e+00	0	38	0	1089470464	50	6312
2026-01-07 14:25:24.87	179.70	29.79	-38.6	-39.5	23.5	0.00e+00	0	38	0	1091567616	50	6088
2026-01-07 14:25:25.88	179.80	29.61	-38.7	-39.6	23.4	0.00e+00	0	38	0	1093664768	50	6120
2026-01-07 14:25:26.89	179.91	29.43	-38.1	-38.9	24.1	0.00e+00	0	38	0	1095761920	50	5679
2026-01-07 14:25:27.90	180.01	29.25	-38.1	-38.9	23.9	0.00e+00	0	38	0	1096810496	50	5675
2026-01-07 14:25:28.91	180.11	29.07	-38.1	-39.0	24.0	0.00e+00	0	38	0	1098907648	50	5708
2026-01-07 14:25:29.92	180.21	28.89	-37.9	-38.7	24.3	0.00e+00	0	38	0	1101004800	48	6240
2026-01-07 14:25:30.93	180.31	28.71	-37.7	-38.5	24.4	0.00e+00	0	38	0	1103101952	48	6088
2026-01-07 14:25:31.93	180.40	28.54	-37.9	-38.7	24.2	0.00e+00	0	38	0	1105199104	48	6236
2026-01-07 14:25:32.94	180.50	28.36	-37.8	-38.6	24.3	0.00e+00	0	38	0	1106247680	48	6144
2026-01-07 14:25:33.95	180.60	28.19	-37.9	-38.8	24.2	0.00e+00	0	38	0	1108344832	48	6277
2026-01-07 14:25:34.96	180.69	28.02	-38.1	-38.9	24.0	0.00e+00	0	38	0	1110441984	48	6383
2026-01-07 14:25:35.97	180.78	27.84	-38.2	-39.1	23.9	0.00e+00	0	38	0	1112539136	48	6487
2026-01-07 14:25:36.98	180.88	27.67	-38.3	-39.2	23.7	0.00e+00	0	38	0	1114636288	48	6609
2026-01-07 14:25:37.99	180.97	27.50	-38.6	-39.5	23.5	0.00e+00	0	38	0	1115684864	48	6832
2026-01-07 14:25:39.00	181.06	27.33	-38.5	-39.5	23.6	0.00e+00	0	38	0	1117782016	48	6784
2026-01-07 14:25:40.01	181.15	27.17	-38.5	-39.4	23.6	0.00e+00	0	38	0	1119879168	48	6705
2026-01-07 14:25:41.02	181.24	27.00	-38.3	-39.2	23.8	0.00e+00	0	38	0	1121976320	48	6607
2026-01-07 14:25:42.03	181.33	26.83	-38.3	-39.2	23.8	0.00e+00	0	38	0	1124073472	48	6545
2026-01-07 14:25:43.04	181.41	26.67	-37.9	-38.7	24.3	0.00e+00	0	38	0	1125122048	48	6244
2026-01-07 14:25:44.05	181.50	26.50	-37.6	-38.5	24.4	0.00e+00	0	38	0	1127219200	48	6037
2026-01-07 14:25:45.06	181.58	26.34	-37.5	-38.3	24.6	0.00e+00	0	38	0	1129316352	48	5927
2026-01-07 14:25:46.06	181.67	26.18	-37.0	-37.8	24.9	0.00e+00	0	38	0	1131413504	48	5624
2026-01-07 14:25:47.07	181.75	26.02	-37.0	-37.8	24.8	0.00e+00	0	38	0	1133510656	48	5596
2026-01-07 14:25:48.08	181.84	25.86	-37.0	-37.7	25.0	0.00e+00	0	38	0	1134559232	48	5563
2026-01-07 14:25:49.09	181.92	25.70	-36.6	-37.4	25.3	0.00e+00	0	38	0	1136656384	46	5965
2026-01-07 14:25:50.10	182.00	25.54	-36.4	-37.2	25.4	0.00e+00	0	38	0	1138753536	46	5861
2026-01-07 14:25:51.11	182.08	25.38	-36.5	-37.3	25.4	0.00e+00	0	38	0	1140850688	46	5912
2026-01-07 14:25:52.12	182.16	25.22	-36.5	-37.3	25.2	0.00e+00	0	38	0	1142947840	46	5920
2026-01-07 14:25:53.13	182.24	25.07	-36.6	-37.4	25.3	0.00e+00	0	38	0	1143996416	46	5991
2026-01-07 14:25:54.14	182.32	24.91	-36.5	-37.3	25.3	0.00e+00	0	38	0	1146093568	46	5920
2026-01-07 14:25:55.15	182.39	24.76	-36.7	-37.5	25.2	0.00e+00	0	38	0	1148190720	46	6062
2026-01-07 14:25:56.16	182.47	24.60	-36.7	-37.6	25.1	0.00e+00	0	38	0	1150287872	46	6104
2026-01-07 14:25:57.17	182.55	24.45	-36.8	-37.6	25.1	0.00e+00	0	38	0	1152385024	46	6172
2026-01-07 14:25:58.17	182.62	24.30	-36.9	-37.7	25.0	0.00e+00	0	38	0	1154482176	46	6176
2026-01-07 14:25:59.19	182.70	24.15	-37.0	-37.8	24.9	0.00e+00	0	38	0	1155530752	46	6271
2026-01-07 14:26:00.19	182.77	24.00	-37.0	-37.8	25.0	0.00e+00	0	38	0	1157627904	46	6279
2026-01-07 14:26:01.20	182.85	23.85	-36.9	-37.8	25.0	0.00e+00	0	38	0	1159725056	46	6254
2026-01-07 14:26:02.21	182.92	23.70	-36.9	-37.7	25.0	0.00e+00	0	38	0	1161822208	46	6241
2026-01-07 14:26:03.22	182.99	23.55	-36.8	-37.6	25.0	0.00e+00	0	38	0	1163919360	46	6161
2026-01-07 14:26:04.23	183.06	23.40	-36.8	-37.6	25.1	0.00e+00	0	38	0	1164967936	46	6134
2026-01-07 14:26:05.24	183.13	23.26	-36.8	-37.7	25.0	0.00e+00	0	38	0	1167065088	46	6175
2026-01-07 14:26:06.25	183.20	23.11	-36.7	-37.5	25.2	0.00e+00	0	38	0	1169162240	46	6067
2026-01-07 14:26:07.26	183.27	22.97	-36.7	-37.5	25.2	0.00e+00	0	38	0	1171259392	46	6070
2026-01-07 14:26:08.27	183.34	22.82	-36.6	-37.4	25.2	0.00e+00	0	38	0	1172307968	46	6011
2026-01-07 14:26:09.28	183.41	22.68	-36.5	-37.2	25.3	0.00e+00	0	38	0	1174405120	46	5889
2026-01-07 14:26:10.29	183.48	22.54	-36.7	-37.5	25.1	0.00e+00	0	38	0	1176502272	46	6049
2026-01-07 14:26:11.30	183.55	22.40	-36.6	-37.4	25.3	0.00e+00	0	38	0	1178599424	46	5965
2026-01-07 14:26:12.31	183.61	22.25	-36.6	-37.4	25.2	0.00e+00	0	38	0	1180696576	46	5978
2026-01-07 14:26:13.32	183.68	22.11	-36.6	-37.4	25.3	0.00e+00	0	38	0	1182793728	46	5977
2026-01-07 14:26:14.33	183.74	21.97	-36.6	-37.4	25.3	0.00e+00	0	38	0	1183842304	46	5986
2026-01-07 14:26:15.34	183.81	21.84	-36.6	-37.3	25.2	0.00e+00	0	38	0	1185939456	46	5962
2026-01-07 14:26:16.35	183.87	21.70	-36.6	-37.4	25.0	0.00e+00	0	38	0	1188036608	46	6013
2026-01-07 14:26:17.36	183.94	21.56	-36.5	-37.2	25.1	0.00e+00	0	38	0	1190133760	46	5883
2026-01-07 14:26:18.37	184.00	21.42	-36.6	-37.4	25.1	0.00e+00	0	38	0	1192230912	46	6015
2026-01-07 14:26:19.38	184.07	21.29	-36.6	-37.3	25.2	0.00e+00	0	38	0	1193279488	46	5959
2026-01-07 14:26:20.39	184.13	21.15	-36.6	-37.3	25.2	0.00e+00	0	38	0	1195376640	46	5960
2026-01-07 14:26:21.40	184.19	21.02	-36.7	-37.5	25.1	0.00e+00	0	38	0	1197473792	46	6053
2026-01-07 14:26:22.41	184.25	20.88	-36.8	-37.6	25.0	0.00e+00	0	38	0	1199570944	46	6147
2026-01-07 14:26:23.42	184.31	20.75	-36.8	-37.6	25.0	0.00e+00	0	38	0	1201668096	46	6107
2026-01-07 14:26:24.43	184.37	20.62	-36.8	-37.6	25.0	0.00e+00	0	38	0	1202716672	46	6106
2026-01-07 14:26:25.44	184.43	20.49	-36.8	-37.6	24.9	0.00e+00	0	38	0	1204813824	46	6129
2026-01-07 14:26:26.45	184.49	20.36	-36.8	-37.6	25.0	0.00e+00	0	38	0	1206910976	46	6149
2026-01-07 14:26:27.46	184.55	20.23	-36.9	-37.6	24.6	0.00e+00	0	38	0	1209008128	46	6170
2026-01-07 14:26:28.47	184.61	20.10	-36.9	-37.7	24.9	0.00e+00	0	38	0	1211105280	46	6212
2026-01-07 14:26:29.48	184.67	19.97	-36.8	-37.6	25.0	0.00e+00	0	38	0	1212153856	46	6121
2026-01-07 14:26:30.49	184.73	19.84	-36.7	-37.5	25.1	0.00e+00	0	38	0	1214251008	46	6084
2026-01-07 14:26:31.49	184.78	19.71	-36.9	-37.7	24.9	0.00e+00	0	38	0	1216348160	46	6204
2026-01-07 14:26:32.50	184.84	19.58	-37.0	-37.8	24.9	0.00e+00	0	38	0	1218445312	46	6260
2026-01-07 14:26:33.51	184.89	19.46	-36.8	-37.7	25.0	0.00e+00	0	38	0	1220542464	46	6175
2026-01-07 14:26:34.52	184.95	19.33	-36.7	-37.5	25.1	0.00e+00	0	38	0	1222639616	46	6040
2026-01-07 14:26:35.54	185.01	19.20	-36.6	-37.4	25.1	0.00e+00	0	38	0	1223688192	46	6023
2026-01-07 14:26:36.54	185.06	19.08	-36.7	-37.5	25.1	0.00e+00	0	38	0	1225785344	46	6103
2026-01-07 14:26:37.55	185.12	18.96	-36.8	-37.6	24.9	0.00e+00	0	38	0	1227882496	46	6135
