passes_logs/2026/01/07/R4.6S_Anadyr/R4.6S_Anadyr__20260107_000817_SUOMI_NPP_rec.log

#Pass ID: 20260107_000817_SUOMI NPP
#Satellite: SUOMI NPP
#Configuration: NPP
#almurnet v.1.7.20251203
#Start time: 2026-01-07 00:08:20

#Version: 2.2.20231116
#Station: R4.6S_Anadyr
#Location: 177.4865 lon 64.73178 lat
#TLE: 1 37849U 11061A   26004.95404768  .00000136  00000+0  85334-4 0  9991
#TLE: 2 37849  98.7801 307.0898 0002575  80.6707 279.4760 14.19522289735281

#Time	Az	El	Level	Level2	SNR	BER	BlckErr	Temp	State	Recorded	gain1	gain2
2026-01-07 00:08:20.51	152.52	0.21	-49.0	-62.8	3.3	1.54e+00	0	33	0	0	60	49872
2026-01-07 00:08:21.52	152.51	0.27	-49.1	-64.3	3.6	1.51e+00	0	33	104	0	60	59283
2026-01-07 00:08:22.53	152.51	0.33	-49.0	-64.3	3.6	1.51e+00	0	33	104	0	60	59438
2026-01-07 00:08:23.54	152.51	0.40	-49.1	-64.4	3.6	1.51e+00	0	33	104	0	60	59842
2026-01-07 00:08:24.55	152.51	0.46	-49.2	-64.4	3.6	1.51e+00	0	33	104	0	60	59707
2026-01-07 00:08:25.56	152.51	0.52	-49.1	-64.3	3.6	1.51e+00	0	33	104	0	60	59155
2026-01-07 00:08:26.57	152.51	0.58	-49.0	-64.2	3.6	1.51e+00	0	33	104	0	60	58772
2026-01-07 00:08:27.58	152.51	0.64	-48.9	-64.1	3.6	1.51e+00	0	33	104	0	60	58167
2026-01-07 00:08:28.59	152.51	0.71	-48.8	-64.0	3.6	1.51e+00	0	33	104	0	60	57344
2026-01-07 00:08:29.60	152.51	0.77	-48.7	-63.9	3.6	1.51e+00	0	33	104	0	60	56371
2026-01-07 00:08:30.61	152.51	0.83	-48.2	-63.4	3.6	1.51e+00	0	33	104	0	60	53767
2026-01-07 00:08:31.62	152.51	0.89	-47.9	-63.1	3.6	1.51e+00	0	33	104	0	60	51507
2026-01-07 00:08:32.63	152.51	0.95	-47.8	-63.0	3.6	1.51e+00	0	33	104	0	60	50931
2026-01-07 00:08:33.64	152.50	1.02	-47.6	-62.8	3.6	1.51e+00	0	33	104	0	60	49740
2026-01-07 00:08:34.65	152.50	1.08	-47.6	-62.8	3.6	1.51e+00	0	33	104	0	60	49635
2026-01-07 00:08:35.66	152.50	1.14	-47.6	-62.8	3.6	1.51e+00	0	33	104	0	60	49666
2026-01-07 00:08:36.67	152.50	1.21	-47.6	-62.7	3.6	1.51e+00	0	33	104	0	60	49566
2026-01-07 00:08:37.68	152.50	1.27	-47.6	-62.7	3.6	1.51e+00	0	33	104	0	60	49595
2026-01-07 00:08:38.69	152.50	1.33	-47.6	-62.7	3.6	1.51e+00	0	33	104	0	60	49489
2026-01-07 00:08:39.70	152.50	1.40	-47.6	-62.7	3.6	1.51e+00	0	33	104	0	60	49383
2026-01-07 00:08:40.71	152.50	1.46	-47.6	-62.7	3.6	1.51e+00	0	33	104	0	60	49318
2026-01-07 00:08:41.72	152.50	1.52	-47.6	-62.6	3.6	1.51e+00	0	33	104	0	60	48996
2026-01-07 00:08:42.73	152.49	1.59	-47.6	-62.6	3.6	1.51e+00	0	33	104	0	60	48736
2026-01-07 00:08:43.74	152.49	1.65	-47.6	-62.6	3.6	1.51e+00	0	33	104	0	60	48624
2026-01-07 00:08:44.75	152.49	1.72	-47.6	-62.6	3.6	1.51e+00	0	33	104	0	60	48865
2026-01-07 00:08:45.76	152.49	1.78	-47.6	-62.6	3.6	1.51e+00	0	33	104	0	60	48959
2026-01-07 00:08:46.77	152.49	1.84	-47.6	-62.6	3.6	1.51e+00	0	34	104	0	60	48810
2026-01-07 00:08:47.78	152.49	1.91	-47.6	-62.6	3.5	1.51e+00	0	33	104	0	60	48827
2026-01-07 00:08:48.79	152.49	1.97	-47.6	-62.7	3.6	1.51e+00	0	34	104	0	60	49354
2026-01-07 00:08:49.80	152.49	2.04	-47.6	-62.7	3.6	1.51e+00	0	33	104	0	60	49323
2026-01-07 00:08:50.80	152.49	2.10	-47.6	-62.7	3.6	1.51e+00	0	33	104	0	60	49492
2026-01-07 00:08:51.81	152.48	2.17	-47.6	-62.7	3.6	1.51e+00	0	34	104	0	60	49209
2026-01-07 00:08:52.82	152.48	2.23	-47.6	-62.7	3.6	1.51e+00	0	33	104	0	60	49455
2026-01-07 00:08:53.83	152.48	2.30	-47.6	-62.7	3.6	1.51e+00	0	33	104	0	60	49221
2026-01-07 00:08:54.84	152.48	2.37	-47.6	-62.7	3.6	1.51e+00	0	33	104	0	60	49308
2026-01-07 00:08:55.85	152.48	2.43	-47.6	-62.6	3.6	1.51e+00	0	34	104	0	60	48859
2026-01-07 00:08:56.86	152.48	2.50	-47.6	-62.6	3.6	1.51e+00	0	34	104	0	60	48508
2026-01-07 00:08:57.87	152.48	2.56	-47.6	-62.4	3.6	1.51e+00	0	34	104	0	60	47880
2026-01-07 00:08:58.88	152.47	2.63	-47.6	-62.3	3.6	1.51e+00	0	34	104	0	60	47067
2026-01-07 00:08:59.89	152.47	2.70	-47.6	-62.4	3.6	1.51e+00	0	34	104	0	60	47425
2026-01-07 00:09:00.90	152.47	2.76	-47.6	-62.5	3.6	1.51e+00	0	34	104	0	60	48094
2026-01-07 00:09:01.91	152.47	2.83	-47.6	-62.7	3.6	1.51e+00	0	34	104	0	60	49176
2026-01-07 00:09:02.92	152.47	2.90	-47.6	-62.8	3.6	1.51e+00	0	34	104	0	60	49616
2026-01-07 00:09:03.93	152.47	2.96	-47.6	-62.2	3.6	1.51e+00	0	34	104	0	60	46531
2026-01-07 00:09:04.94	152.47	3.03	-47.5	-60.9	3.6	1.51e+00	0	34	104	0	60	39916
2026-01-07 00:09:05.95	152.46	3.10	-47.4	-58.8	4.2	1.42e+00	76	34	104	0	60	31377
2026-01-07 00:09:06.96	152.46	3.17	-47.2	-55.5	5.3	6.87e-01	0	34	0	1048576	60	21455
2026-01-07 00:09:07.97	152.46	3.23	-46.9	-53.9	6.9	2.89e-01	61	34	0	3145728	60	17894
2026-01-07 00:09:08.98	152.46	3.30	-46.4	-52.3	8.9	4.99e-02	0	34	0	5242880	60	14824
2026-01-07 00:09:09.99	152.46	3.37	-46.1	-51.2	10.2	1.25e-02	92	34	0	6291456	60	13173
2026-01-07 00:09:11.00	152.46	3.44	-45.7	-50.2	11.3	3.25e-03	0	34	0	8388608	60	11658
2026-01-07 00:09:12.00	152.45	3.51	-45.3	-49.4	12.2	3.33e-04	92	34	0	9437184	60	10631
2026-01-07 00:09:13.01	152.45	3.57	-45.2	-49.2	12.4	2.31e-04	90	34	0	11534336	60	10387
2026-01-07 00:09:14.02	152.45	3.64	-45.2	-49.1	12.4	1.57e-04	0	34	0	13631488	60	10359
2026-01-07 00:09:15.03	152.45	3.71	-45.5	-49.7	11.7	2.74e-04	83	34	0	15728640	60	11063
2026-01-07 00:09:16.04	152.45	3.78	-47.7	-62.8	3.6	1.35e+00	0	34	104	16777216	60	49978
2026-01-07 00:09:17.05	152.45	3.85	-47.5	-58.3	4.6	1.51e+00	49	34	104	16777216	60	29686
2026-01-07 00:09:18.06	152.44	3.92	-47.4	-62.2	3.6	5.24e-02	0	34	104	16777216	60	46506
2026-01-07 00:09:19.07	152.44	3.99	-43.9	-46.7	14.6	1.37e+00	92	34	104	16777216	60	7846
2026-01-07 00:09:20.08	152.44	4.06	-47.6	-62.0	3.6	8.87e-01	0	34	104	16777216	60	45507
2026-01-07 00:09:21.09	152.44	4.13	-43.9	-46.7	15.1	3.69e-01	0	34	0	16777216	60	7841
2026-01-07 00:09:22.10	152.44	4.20	-43.4	-45.8	16.0	0.00e+00	90	34	0	18874368	60	7085
2026-01-07 00:09:23.10	152.44	4.27	-42.6	-44.7	17.0	0.00e+00	0	34	0	20971520	58	6940
2026-01-07 00:09:24.11	152.43	4.34	-42.5	-44.5	17.2	0.00e+00	83	34	0	22020096	58	6807
2026-01-07 00:09:25.12	152.43	4.41	-42.3	-44.2	17.4	0.00e+00	22	34	0	24117248	58	6569
2026-01-07 00:09:26.13	152.43	4.48	-42.3	-44.3	17.4	0.00e+00	92	34	0	26214400	58	6654
2026-01-07 00:09:27.14	152.43	4.55	-42.4	-44.4	17.4	0.00e+00	92	34	0	28311552	58	6769
2026-01-07 00:09:28.15	152.43	4.62	-42.3	-44.2	17.4	0.00e+00	23	34	0	30408704	58	6591
2026-01-07 00:09:29.16	152.42	4.70	-42.3	-44.3	17.4	0.00e+00	92	34	0	31457280	58	6638
2026-01-07 00:09:30.17	152.42	4.77	-42.1	-43.9	17.7	0.00e+00	0	34	0	33554432	58	6385
2026-01-07 00:09:31.18	152.42	4.84	-42.1	-43.9	17.8	0.00e+00	92	34	0	35651584	58	6385
2026-01-07 00:09:32.19	152.42	4.91	-42.0	-43.9	17.8	0.00e+00	0	34	0	37748736	58	6333
2026-01-07 00:09:33.20	152.41	4.98	-41.8	-43.6	18.2	0.00e+00	92	34	0	39845888	58	6130
2026-01-07 00:09:34.21	152.41	5.06	-42.0	-43.8	18.0	0.00e+00	25	34	0	41943040	58	6283
2026-01-07 00:09:35.22	152.41	5.13	-41.9	-43.7	18.1	0.00e+00	0	34	0	42991616	58	6201
2026-01-07 00:09:36.23	152.41	5.20	-41.9	-43.7	18.0	0.00e+00	92	34	0	45088768	58	6183
2026-01-07 00:09:37.24	152.41	5.27	-42.1	-43.9	18.0	0.00e+00	0	34	0	47185920	58	6331
2026-01-07 00:09:38.24	152.40	5.35	-42.0	-43.7	18.0	0.00e+00	92	34	0	49283072	58	6240
2026-01-07 00:09:39.25	152.40	5.42	-41.9	-43.7	18.1	0.00e+00	0	34	0	51380224	58	6191
2026-01-07 00:09:40.26	152.40	5.49	-42.0	-43.8	18.0	0.00e+00	92	34	0	52428800	58	6277
2026-01-07 00:09:41.27	152.40	5.57	-41.8	-43.6	18.2	0.00e+00	26	34	0	54525952	56	6868
2026-01-07 00:09:42.28	152.39	5.64	-41.9	-43.6	18.2	0.00e+00	0	34	0	56623104	56	6915
2026-01-07 00:09:43.29	152.39	5.72	-41.9	-43.6	18.2	0.00e+00	92	34	0	58720256	56	6878
2026-01-07 00:09:44.30	152.39	5.79	-41.9	-43.6	18.2	0.00e+00	0	34	0	60817408	56	6883
2026-01-07 00:09:45.31	152.39	5.87	-41.8	-43.5	18.3	0.00e+00	90	34	0	61865984	56	6827
2026-01-07 00:09:46.32	152.38	5.94	-41.8	-43.5	18.5	0.00e+00	0	34	0	63963136	56	6848
2026-01-07 00:09:47.33	152.38	6.02	-41.8	-43.5	18.3	0.00e+00	92	34	0	66060288	56	6842
2026-01-07 00:09:48.34	152.38	6.09	-41.9	-43.7	18.3	0.00e+00	0	34	0	68157440	56	6931
2026-01-07 00:09:49.35	152.38	6.17	-41.7	-43.4	18.6	0.00e+00	90	34	0	70254592	56	6709
2026-01-07 00:09:50.36	152.37	6.24	-41.9	-43.6	18.3	0.00e+00	92	34	0	71303168	56	6897
2026-01-07 00:09:51.37	152.37	6.32	-41.7	-43.4	18.6	0.00e+00	26	34	0	73400320	56	6696
2026-01-07 00:09:52.38	152.37	6.40	-41.6	-43.2	18.8	0.00e+00	92	34	0	75497472	56	6578
2026-01-07 00:09:53.39	152.37	6.47	-41.6	-43.2	18.8	0.00e+00	0	34	0	77594624	56	6596
2026-01-07 00:09:54.40	152.36	6.55	-41.5	-43.1	18.8	0.00e+00	92	34	0	79691776	56	6489
2026-01-07 00:09:55.41	152.36	6.63	-41.5	-43.1	18.9	0.00e+00	9	34	0	80740352	56	6478
2026-01-07 00:09:56.41	152.36	6.70	-41.5	-43.1	18.9	0.00e+00	92	34	0	82837504	56	6465
2026-01-07 00:09:57.42	152.35	6.78	-41.6	-43.2	18.8	0.00e+00	90	34	0	84934656	56	6547
2026-01-07 00:09:58.43	152.35	6.86	-41.6	-43.3	18.7	0.00e+00	0	34	0	87031808	56	6631
2026-01-07 00:09:59.44	152.35	6.94	-41.5	-43.1	18.9	0.00e+00	92	34	0	89128960	56	6497
2026-01-07 00:10:00.45	152.35	7.01	-41.4	-42.9	19.0	0.00e+00	0	34	0	90177536	56	6386
2026-01-07 00:10:01.46	152.34	7.09	-41.3	-42.9	19.1	0.00e+00	92	34	0	92274688	56	6335
2026-01-07 00:10:02.47	152.34	7.17	-41.3	-42.8	19.3	0.00e+00	0	34	0	94371840	56	6275
2026-01-07 00:10:03.48	152.34	7.25	-41.4	-43.0	19.1	0.00e+00	92	34	0	96468992	56	6404
2026-01-07 00:10:04.49	152.33	7.33	-41.4	-43.0	19.1	0.00e+00	92	34	0	98566144	56	6395
2026-01-07 00:10:05.50	152.33	7.41	-41.2	-42.6	19.3	0.00e+00	0	34	0	99614720	56	6171
2026-01-07 00:10:06.51	152.33	7.49	-41.3	-42.8	19.2	0.00e+00	59	34	0	101711872	56	6260
2026-01-07 00:10:07.52	152.32	7.57	-41.3	-42.8	19.2	0.00e+00	0	34	0	103809024	56	6250
2026-01-07 00:10:08.53	152.32	7.65	-41.1	-42.5	19.4	0.00e+00	92	34	0	105906176	56	6097
2026-01-07 00:10:09.54	152.32	7.73	-41.0	-42.4	19.6	0.00e+00	0	34	0	108003328	56	6007
2026-01-07 00:10:10.55	152.31	7.81	-40.8	-42.2	19.8	0.00e+00	92	34	0	110100480	56	5841
2026-01-07 00:10:11.56	152.31	7.89	-40.8	-42.2	19.8	0.00e+00	92	34	0	111149056	56	5873
2026-01-07 00:10:12.57	152.31	7.97	-41.0	-42.4	19.6	0.00e+00	0	34	0	113246208	56	5994
2026-01-07 00:10:13.57	152.30	8.05	-40.7	-42.1	19.7	0.00e+00	92	34	0	115343360	54	6524
2026-01-07 00:10:14.58	152.30	8.13	-40.8	-42.2	19.8	0.00e+00	0	34	0	117440512	54	6564
2026-01-07 00:10:15.59	152.30	8.21	-40.7	-42.1	20.0	0.00e+00	92	34	0	119537664	54	6509
2026-01-07 00:10:16.60	152.29	8.30	-40.7	-42.1	19.9	0.00e+00	0	34	0	120586240	54	6517
2026-01-07 00:10:17.61	152.29	8.38	-40.7	-42.1	20.0	0.00e+00	92	34	0	122683392	54	6475
2026-01-07 00:10:18.62	152.29	8.46	-40.5	-41.9	20.1	0.00e+00	0	34	0	124780544	54	6318
2026-01-07 00:10:19.63	152.28	8.54	-40.6	-42.0	20.0	0.00e+00	0	34	0	126877696	54	6414
2026-01-07 00:10:20.64	152.28	8.63	-40.6	-42.0	20.1	0.00e+00	92	34	0	128974848	54	6412
2026-01-07 00:10:21.65	152.28	8.71	-40.6	-41.9	20.1	0.00e+00	0	34	0	130023424	54	6376
2026-01-07 00:10:22.66	152.27	8.80	-40.6	-41.9	20.2	0.00e+00	63	34	0	132120576	54	6380
2026-01-07 00:10:23.67	152.27	8.88	-40.5	-41.8	20.3	0.00e+00	0	34	0	134217728	54	6282
2026-01-07 00:10:24.68	152.26	8.96	-40.4	-41.7	20.3	0.00e+00	92	34	0	136314880	54	6239
2026-01-07 00:10:25.69	152.26	9.05	-40.5	-41.8	20.2	0.00e+00	24	34	0	138412032	54	6280
2026-01-07 00:10:26.70	152.26	9.13	-40.2	-41.4	20.6	0.00e+00	91	34	0	139460608	54	6020
2026-01-07 00:10:27.71	152.25	9.22	-40.3	-41.6	20.4	0.00e+00	91	34	0	141557760	54	6167
2026-01-07 00:10:28.72	152.25	9.30	-40.6	-41.9	20.1	0.00e+00	0	34	0	143654912	54	6346
2026-01-07 00:10:29.73	152.24	9.39	-40.5	-41.8	20.3	0.00e+00	92	34	0	145752064	54	6284
2026-01-07 00:10:30.73	152.24	9.48	-40.2	-41.5	20.6	0.00e+00	0	34	0	147849216	54	6043
2026-01-07 00:10:31.74	152.24	9.56	-40.0	-41.3	20.7	0.00e+00	69	34	0	148897792	54	5912
2026-01-07 00:10:32.75	152.23	9.65	-40.1	-41.4	20.6	0.00e+00	0	34	0	150994944	54	5983
2026-01-07 00:10:33.76	152.23	9.74	-40.3	-41.5	20.5	0.00e+00	91	34	0	153092096	54	6093
2026-01-07 00:10:34.77	152.22	9.82	-40.3	-41.5	20.5	0.00e+00	92	34	0	155189248	54	6094
2026-01-07 00:10:35.78	152.22	9.91	-40.1	-41.4	20.7	0.00e+00	0	34	0	157286400	54	5982
2026-01-07 00:10:36.79	152.22	10.00	-40.1	-41.3	20.8	0.00e+00	65	34	0	158334976	54	5939
2026-01-07 00:10:37.80	152.21	10.09	-40.0	-41.2	20.9	0.00e+00	0	34	0	160432128	54	5863
2026-01-07 00:10:38.81	152.21	10.18	-39.9	-41.1	20.9	0.00e+00	92	34	0	162529280	54	5791
2026-01-07 00:10:39.82	152.20	10.26	-39.8	-41.0	21.1	0.00e+00	0	34	0	164626432	54	5704
2026-01-07 00:10:40.83	152.20	10.35	-40.0	-41.2	20.9	0.00e+00	91	34	0	166723584	52	6606
2026-01-07 00:10:41.84	152.19	10.44	-40.0	-41.2	20.8	0.00e+00	26	34	0	167772160	52	6577
2026-01-07 00:10:42.85	152.19	10.53	-39.9	-41.1	20.9	0.00e+00	0	34	0	169869312	52	6511
2026-01-07 00:10:43.86	152.18	10.62	-40.1	-41.3	20.9	0.00e+00	91	34	0	171966464	52	6639
2026-01-07 00:10:44.87	152.18	10.71	-40.4	-41.7	20.5	0.00e+00	0	34	0	174063616	52	6928
2026-01-07 00:10:45.88	152.17	10.81	-40.4	-41.6	20.6	0.00e+00	69	34	0	176160768	52	6915
2026-01-07 00:10:46.89	152.17	10.90	-40.3	-41.6	20.5	0.00e+00	0	34	0	178257920	52	6863
2026-01-07 00:10:47.90	152.16	10.99	-40.0	-41.2	20.9	0.00e+00	92	34	0	179306496	52	6541
2026-01-07 00:10:48.90	152.16	11.08	-39.9	-41.1	21.0	0.00e+00	29	34	0	181403648	52	6522
2026-01-07 00:10:49.91	152.15	11.17	-40.1	-41.3	20.9	0.00e+00	0	34	0	183500800	52	6648
2026-01-07 00:10:50.92	152.15	11.26	-39.6	-40.7	21.3	0.00e+00	92	34	0	185597952	52	6231
2026-01-07 00:10:51.93	152.14	11.36	-39.3	-40.4	21.6	0.00e+00	0	34	0	187695104	52	6021
2026-01-07 00:10:52.94	152.14	11.45	-39.3	-40.4	21.7	0.00e+00	90	34	0	188743680	52	5992
2026-01-07 00:10:53.95	152.13	11.54	-39.2	-40.3	21.7	0.00e+00	0	34	0	190840832	52	5936
2026-01-07 00:10:54.96	152.13	11.64	-39.3	-40.4	21.6	0.00e+00	71	34	0	192937984	52	5982
2026-01-07 00:10:55.97	152.12	11.73	-39.1	-40.1	21.8	0.00e+00	0	34	0	195035136	52	5822
2026-01-07 00:10:56.98	152.12	11.83	-39.3	-40.3	21.6	0.00e+00	90	34	0	197132288	52	5964
2026-01-07 00:10:57.99	152.11	11.92	-39.3	-40.4	21.7	0.00e+00	92	34	0	198180864	52	5973
2026-01-07 00:10:59.00	152.11	12.02	-39.4	-40.5	21.7	0.00e+00	0	34	0	200278016	52	6097
2026-01-07 00:11:00.01	152.10	12.11	-39.5	-40.7	21.5	0.00e+00	41	34	0	202375168	52	6179
2026-01-07 00:11:01.01	152.10	12.21	-39.3	-40.4	21.7	0.00e+00	0	34	0	204472320	52	6016
2026-01-07 00:11:02.02	152.09	12.31	-39.4	-40.5	21.5	0.00e+00	82	34	0	206569472	52	6094
2026-01-07 00:11:03.03	152.09	12.40	-39.3	-40.4	21.6	0.00e+00	0	34	0	207618048	52	6024
2026-01-07 00:11:04.04	152.08	12.50	-39.0	-40.1	21.9	0.00e+00	90	34	0	209715200	52	5800
2026-01-07 00:11:05.05	152.07	12.60	-39.1	-40.1	21.9	0.00e+00	83	34	0	211812352	52	5805
2026-01-07 00:11:06.06	152.07	12.70	-39.1	-40.2	21.9	0.00e+00	0	34	0	213909504	52	5840
2026-01-07 00:11:07.07	152.06	12.79	-39.1	-40.1	22.0	0.00e+00	92	34	0	216006656	52	5814
2026-01-07 00:11:08.08	152.06	12.89	-38.9	-39.9	22.2	0.00e+00	0	34	0	217055232	52	5670
2026-01-07 00:11:09.09	152.05	12.99	-38.7	-39.8	22.3	0.00e+00	89	34	0	219152384	50	6263
2026-01-07 00:11:10.10	152.04	13.09	-38.7	-39.7	22.3	0.00e+00	0	34	0	221249536	50	6217
2026-01-07 00:11:11.11	152.04	13.19	-38.7	-39.7	22.3	0.00e+00	86	34	0	223346688	50	6224
2026-01-07 00:11:12.12	152.03	13.29	-38.5	-39.5	22.4	0.00e+00	80	34	0	225443840	50	6079
2026-01-07 00:11:13.13	152.02	13.39	-38.6	-39.6	22.4	0.00e+00	0	34	0	226492416	50	6162
2026-01-07 00:11:14.14	152.02	13.50	-38.6	-39.7	22.3	0.00e+00	92	34	0	228589568	50	6183
2026-01-07 00:11:15.15	152.01	13.60	-38.6	-39.6	22.5	0.00e+00	7	34	0	230686720	50	6116
2026-01-07 00:11:16.16	152.01	13.70	-38.5	-39.5	22.4	0.00e+00	92	34	0	232783872	50	6093
2026-01-07 00:11:17.17	152.00	13.80	-38.4	-39.4	22.6	0.00e+00	0	34	0	234881024	50	6002
2026-01-07 00:11:18.17	151.99	13.91	-38.5	-39.5	22.4	0.00e+00	91	34	0	235929600	50	6100
2026-01-07 00:11:19.18	151.99	14.01	-38.4	-39.4	22.6	0.00e+00	91	34	0	238026752	50	5976
2026-01-07 00:11:20.19	151.98	14.11	-38.4	-39.4	22.5	0.00e+00	0	34	0	240123904	50	5980
2026-01-07 00:11:21.20	151.97	14.22	-38.4	-39.3	22.6	0.00e+00	91	34	0	242221056	50	5958
2026-01-07 00:11:22.21	151.97	14.32	-38.6	-39.6	22.5	0.00e+00	6	34	0	244318208	50	6110
2026-01-07 00:11:23.22	151.96	14.43	-38.3	-39.3	22.7	0.00e+00	90	34	0	245366784	50	5917
2026-01-07 00:11:24.23	151.95	14.53	-38.3	-39.3	22.7	0.00e+00	0	34	0	247463936	50	5940
2026-01-07 00:11:25.24	151.94	14.64	-38.2	-39.1	22.8	0.00e+00	91	34	0	249561088	50	5819
2026-01-07 00:11:26.25	151.94	14.75	-38.1	-39.1	22.9	0.00e+00	69	34	0	251658240	50	5771
2026-01-07 00:11:27.26	151.93	14.85	-38.0	-39.0	22.9	0.00e+00	90	34	0	253755392	50	5708
2026-01-07 00:11:28.27	151.92	14.96	-37.9	-38.8	23.0	0.00e+00	92	34	0	254803968	50	5627
2026-01-07 00:11:29.28	151.91	15.07	-37.9	-38.9	23.1	0.00e+00	0	34	0	256901120	50	5634
2026-01-07 00:11:30.28	151.91	15.18	-37.8	-38.7	23.1	0.00e+00	91	34	0	258998272	50	5560
2026-01-07 00:11:31.29	151.90	15.29	-37.9	-38.8	23.1	0.00e+00	0	34	0	261095424	50	5606
2026-01-07 00:11:32.30	151.89	15.40	-37.7	-38.6	23.2	0.00e+00	92	34	0	263192576	48	6150
2026-01-07 00:11:33.32	151.88	15.51	-37.6	-38.5	23.3	0.00e+00	0	34	0	264241152	48	6083
2026-01-07 00:11:34.33	151.88	15.62	-37.6	-38.4	23.3	0.00e+00	92	34	0	266338304	48	6024
2026-01-07 00:11:35.34	151.87	15.73	-37.7	-38.6	23.1	0.00e+00	92	34	0	268435456	48	6157
2026-01-07 00:11:36.34	151.86	15.84	-37.7	-38.6	23.1	0.00e+00	0	34	0	270532608	48	6170
2026-01-07 00:11:37.35	151.85	15.95	-37.7	-38.6	23.3	0.00e+00	80	34	0	272629760	48	6123
2026-01-07 00:11:38.36	151.84	16.07	-37.6	-38.5	23.1	0.00e+00	0	34	0	274726912	48	6059
2026-01-07 00:11:39.37	151.84	16.18	-37.6	-38.5	23.3	0.00e+00	92	34	0	275775488	48	6036
2026-01-07 00:11:40.38	151.83	16.29	-37.6	-38.5	23.2	0.00e+00	22	34	0	277872640	48	6088
2026-01-07 00:11:41.39	151.82	16.41	-37.8	-38.7	23.1	0.00e+00	92	34	0	279969792	48	6226
2026-01-07 00:11:42.40	151.81	16.52	-37.5	-38.4	23.4	0.00e+00	91	34	0	282066944	48	6014
2026-01-07 00:11:43.41	151.80	16.64	-37.5	-38.4	23.2	0.00e+00	0	34	0	284164096	48	5974
2026-01-07 00:11:44.42	151.79	16.75	-37.5	-38.3	23.4	0.00e+00	92	34	0	285212672	48	5961
2026-01-07 00:11:45.43	151.78	16.87	-37.4	-38.3	23.3	0.00e+00	0	34	0	287309824	48	5937
2026-01-07 00:11:46.44	151.78	16.99	-37.3	-38.2	23.6	0.00e+00	91	34	0	289406976	48	5842
2026-01-07 00:11:47.45	151.77	17.10	-37.3	-38.1	23.6	0.00e+00	0	34	0	291504128	48	5805
2026-01-07 00:11:48.45	151.76	17.22	-37.2	-38.1	23.6	0.00e+00	92	34	0	293601280	48	5780
2026-01-07 00:11:49.46	151.75	17.34	-37.3	-38.2	23.5	0.00e+00	93	34	0	294649856	48	5855
2026-01-07 00:11:50.47	151.74	17.46	-37.4	-38.3	23.4	0.00e+00	0	34	0	296747008	48	5933
2026-01-07 00:11:51.48	151.73	17.58	-37.6	-38.5	23.5	0.00e+00	92	34	0	298844160	48	6103
2026-01-07 00:11:52.49	151.72	17.70	-37.6	-38.5	23.3	0.00e+00	0	34	0	300941312	48	6088
2026-01-07 00:11:53.50	151.71	17.82	-37.6	-38.5	23.3	0.00e+00	91	34	0	303038464	48	6039
2026-01-07 00:11:54.51	151.70	17.94	-37.7	-38.7	23.3	0.00e+00	0	34	0	304087040	48	6176
2026-01-07 00:11:55.52	151.69	18.07	-37.5	-38.4	23.4	0.00e+00	91	34	0	306184192	48	5972
2026-01-07 00:11:56.53	151.68	18.19	-37.4	-38.3	23.5	0.00e+00	25	34	0	308281344	48	5937
2026-01-07 00:11:57.54	151.67	18.31	-37.3	-38.2	23.6	0.00e+00	52	34	0	310378496	48	5841
2026-01-07 00:11:58.55	151.66	18.44	-37.3	-38.1	23.7	0.00e+00	92	34	0	312475648	48	5821
2026-01-07 00:11:59.56	151.65	18.56	-37.2	-38.1	23.7	0.00e+00	7	34	0	313524224	48	5778
2026-01-07 00:12:00.57	151.64	18.69	-37.1	-38.0	23.8	0.00e+00	91	34	0	315621376	48	5719
2026-01-07 00:12:01.57	151.63	18.81	-37.0	-37.9	23.9	0.00e+00	0	34	0	317718528	48	5660
2026-01-07 00:12:02.59	151.62	18.94	-37.1	-38.0	23.9	0.00e+00	91	34	0	319815680	48	5697
2026-01-07 00:12:03.59	151.61	19.06	-37.1	-37.9	23.8	0.00e+00	0	34	0	321912832	48	5689
2026-01-07 00:12:04.60	151.60	19.19	-37.1	-38.0	23.9	0.00e+00	87	34	0	322961408	48	5701
2026-01-07 00:12:05.61	151.59	19.32	-37.0	-37.9	23.9	0.00e+00	91	34	0	325058560	48	5649
2026-01-07 00:12:06.62	151.58	19.45	-37.1	-38.0	23.8	0.00e+00	0	34	0	327155712	48	5702
2026-01-07 00:12:07.63	151.57	19.58	-37.2	-38.1	23.7	0.00e+00	48	34	0	329252864	48	5768
2026-01-07 00:12:08.64	151.55	19.71	-37.3	-38.1	23.8	0.00e+00	0	34	0	331350016	48	5827
2026-01-07 00:12:09.65	151.54	19.84	-37.3	-38.2	23.6	0.00e+00	90	34	0	332398592	48	5864
2026-01-07 00:12:10.66	151.53	19.98	-37.3	-38.2	23.6	0.00e+00	0	34	0	334495744	48	5863
2026-01-07 00:12:11.67	151.52	20.11	-37.4	-38.3	23.6	0.00e+00	92	34	0	336592896	48	5935
2026-01-07 00:12:12.67	151.51	20.24	-37.4	-38.3	23.6	0.00e+00	92	34	0	338690048	48	5918
2026-01-07 00:12:13.68	151.50	20.37	-37.4	-38.3	23.6	0.00e+00	0	34	0	340787200	48	5922
2026-01-07 00:12:14.70	151.48	20.51	-37.5	-38.5	23.5	0.00e+00	47	34	0	342884352	48	6036
2026-01-07 00:12:15.71	151.47	20.65	-37.6	-38.6	23.4	0.00e+00	0	34	0	343932928	48	6112
2026-01-07 00:12:16.72	151.46	20.78	-37.6	-38.5	23.5	0.00e+00	92	34	0	346030080	48	6084
2026-01-07 00:12:17.73	151.45	20.92	-37.7	-38.6	23.4	0.00e+00	0	34	0	348127232	48	6120
2026-01-07 00:12:18.73	151.43	21.06	-37.7	-38.6	23.4	0.00e+00	92	34	0	350224384	48	6144
2026-01-07 00:12:19.74	151.42	21.20	-37.6	-38.5	23.4	0.00e+00	53	34	0	352321536	48	6067
2026-01-07 00:12:20.75	151.41	21.33	-37.7	-38.6	23.4	0.00e+00	0	34	0	353370112	48	6117
2026-01-07 00:12:21.76	151.40	21.47	-37.6	-38.5	23.4	0.00e+00	90	34	0	355467264	48	6073
2026-01-07 00:12:22.77	151.38	21.62	-37.7	-38.7	23.3	0.00e+00	0	34	0	357564416	48	6185
2026-01-07 00:12:23.78	151.37	21.76	-37.7	-38.6	23.4	0.00e+00	92	34	0	359661568	48	6163
2026-01-07 00:12:24.79	151.36	21.90	-37.9	-38.8	23.3	0.00e+00	0	34	0	361758720	48	6286
2026-01-07 00:12:25.80	151.34	22.04	-37.7	-38.7	23.3	0.00e+00	92	34	0	362807296	48	6177
2026-01-07 00:12:26.81	151.33	22.19	-37.8	-38.7	23.3	0.00e+00	92	34	0	364904448	48	6240
2026-01-07 00:12:27.82	151.31	22.33	-37.8	-38.7	23.3	0.00e+00	61	34	0	367001600	48	6244
2026-01-07 00:12:28.83	151.30	22.48	-37.8	-38.7	23.2	0.00e+00	90	34	0	369098752	48	6235
2026-01-07 00:12:29.84	151.29	22.63	-38.1	-39.1	23.1	0.00e+00	0	34	0	371195904	48	6471
2026-01-07 00:12:30.85	151.27	22.77	-37.8	-38.7	23.2	0.00e+00	76	34	0	372244480	48	6225
2026-01-07 00:12:31.86	151.26	22.92	-38.0	-38.9	23.2	0.00e+00	0	34	0	374341632	48	6382
2026-01-07 00:12:32.87	151.24	23.07	-37.8	-38.8	23.2	0.00e+00	90	34	0	376438784	48	6248
2026-01-07 00:12:33.88	151.23	23.22	-37.6	-38.5	23.4	0.00e+00	30	34	0	378535936	48	6080
2026-01-07 00:12:34.88	151.21	23.37	-37.4	-38.3	23.6	0.00e+00	71	34	0	380633088	48	5941
2026-01-07 00:12:35.89	151.20	23.52	-37.4	-38.3	23.6	0.00e+00	92	34	0	381681664	48	5936
2026-01-07 00:12:36.90	151.18	23.67	-37.4	-38.3	23.7	0.00e+00	0	34	0	383778816	48	5919
2026-01-07 00:12:37.91	151.17	23.83	-37.3	-38.2	23.7	0.00e+00	85	34	0	385875968	48	5844
2026-01-07 00:12:38.92	151.15	23.98	-37.3	-38.2	23.8	0.00e+00	0	34	0	387973120	48	5849
2026-01-07 00:12:39.93	151.13	24.14	-37.4	-38.3	23.6	0.00e+00	92	34	0	390070272	48	5954
2026-01-07 00:12:40.94	151.12	24.29	-37.2	-38.1	23.7	0.00e+00	0	34	0	391118848	48	5809
2026-01-07 00:12:41.95	151.10	24.45	-37.4	-38.2	23.6	0.00e+00	92	34	0	393216000	48	5883
2026-01-07 00:12:42.96	151.08	24.61	-37.4	-38.3	23.6	0.00e+00	92	34	0	395313152	48	5899
2026-01-07 00:12:43.97	151.07	24.77	-37.4	-38.3	23.7	0.00e+00	0	34	0	397410304	48	5921
2026-01-07 00:12:44.98	151.05	24.93	-37.6	-38.5	23.4	0.00e+00	47	34	0	399507456	48	6072
2026-01-07 00:12:45.99	151.03	25.09	-37.7	-38.5	23.4	0.00e+00	0	34	0	400556032	48	6098
2026-01-07 00:12:46.99	151.02	25.25	-37.5	-38.4	23.6	0.00e+00	92	34	0	402653184	48	5971
2026-01-07 00:12:48.00	151.00	25.41	-37.9	-38.8	23.4	0.00e+00	0	34	0	404750336	48	6310
2026-01-07 00:12:49.01	150.98	25.58	-37.6	-38.5	23.6	0.00e+00	92	34	0	406847488	48	6038
2026-01-07 00:12:50.02	150.96	25.74	-37.6	-38.4	23.4	0.00e+00	87	34	0	408944640	48	6022
2026-01-07 00:12:51.03	150.94	25.91	-37.8	-38.7	23.4	0.00e+00	0	34	0	411041792	48	6223
2026-01-07 00:12:52.04	150.92	26.08	-37.7	-38.6	23.4	0.00e+00	81	34	0	412090368	48	6120
2026-01-07 00:12:53.05	150.91	26.24	-37.5	-38.4	23.5	0.00e+00	1	34	0	414187520	48	5976
2026-01-07 00:12:54.06	150.89	26.41	-37.2	-38.1	23.8	0.00e+00	63	34	0	416284672	48	5775
2026-01-07 00:12:55.07	150.87	26.58	-37.3	-38.2	23.8	0.00e+00	0	34	0	418381824	48	5840
2026-01-07 00:12:56.08	150.85	26.76	-37.9	-38.8	23.3	0.00e+00	91	34	0	420478976	48	6263
2026-01-07 00:12:57.09	150.83	26.93	-37.7	-38.6	23.5	0.00e+00	90	34	0	421527552	48	6108
2026-01-07 00:12:58.10	150.81	27.10	-37.7	-38.6	23.5	0.00e+00	9	34	0	423624704	48	6131
2026-01-07 00:12:59.11	150.79	27.28	-38.2	-39.2	23.1	0.00e+00	90	34	0	425721856	48	6548
2026-01-07 00:13:00.12	150.77	27.45	-38.5	-39.4	22.8	0.00e+00	0	34	0	427819008	48	6738
2026-01-07 00:13:01.13	150.75	27.63	-38.6	-39.6	22.6	0.00e+00	90	34	0	429916160	48	6854
2026-01-07 00:13:02.14	150.72	27.81	-38.4	-39.3	22.9	0.00e+00	35	34	0	430964736	48	6674
2026-01-07 00:13:03.15	150.70	27.99	-38.3	-39.2	22.9	0.00e+00	91	34	0	433061888	48	6584
2026-01-07 00:13:04.16	150.68	28.17	-38.5	-39.4	22.9	0.00e+00	28	34	0	435159040	48	6732
2026-01-07 00:13:05.17	150.66	28.35	-38.2	-39.2	23.1	0.00e+00	90	34	0	437256192	48	6545
2026-01-07 00:13:06.18	150.64	28.53	-38.0	-38.9	23.1	0.00e+00	92	34	0	439353344	48	6377
2026-01-07 00:13:07.19	150.61	28.72	-38.0	-39.0	23.1	0.00e+00	0	34	0	440401920	48	6393
2026-01-07 00:13:08.20	150.59	28.90	-38.1	-39.0	23.1	0.00e+00	90	34	0	442499072	48	6440
2026-01-07 00:13:09.21	150.57	29.09	-38.2	-39.1	23.0	0.00e+00	3	34	0	444596224	48	6529
2026-01-07 00:13:10.21	150.55	29.27	-38.5	-39.4	22.8	0.00e+00	92	34	0	446693376	48	6753
2026-01-07 00:13:11.23	150.52	29.46	-38.7	-39.6	22.7	0.00e+00	91	34	0	448790528	50	6171
2026-01-07 00:13:12.24	150.50	29.65	-39.0	-40.0	22.4	0.00e+00	90	34	0	449839104	50	6418
2026-01-07 00:13:13.24	150.47	29.84	-39.3	-40.3	22.1	0.00e+00	92	34	0	451936256	50	6665
2026-01-07 00:13:14.25	150.45	30.04	-39.3	-40.4	22.0	0.00e+00	0	34	0	454033408	50	6709
2026-01-07 00:13:15.26	150.42	30.23	-39.1	-40.1	22.2	0.00e+00	91	34	0	456130560	50	6514
2026-01-07 00:13:16.27	150.40	30.43	-39.3	-40.3	22.1	0.00e+00	0	34	0	458227712	50	6665
2026-01-07 00:13:17.28	150.37	30.62	-39.3	-40.3	22.1	0.00e+00	92	34	0	459276288	50	6622
2026-01-07 00:13:18.29	150.35	30.82	-39.4	-40.4	22.2	0.00e+00	30	34	0	461373440	50	6755
2026-01-07 00:13:19.31	150.32	31.02	-39.4	-40.4	22.1	0.00e+00	92	34	0	463470592	50	6743
2026-01-07 00:13:20.32	150.29	31.22	-39.7	-40.8	21.8	0.00e+00	91	34	0	465567744	52	6268
2026-01-07 00:13:21.33	150.27	31.42	-40.0	-41.1	21.4	0.00e+00	0	34	0	467664896	52	6511
2026-01-07 00:13:22.34	150.24	31.63	-40.3	-41.5	21.2	0.00e+00	91	34	0	468713472	52	6820
2026-01-07 00:13:23.35	150.21	31.83	-41.0	-42.3	20.4	0.00e+00	0	34	0	470810624	54	6665
2026-01-07 00:13:24.36	150.18	32.04	-41.0	-42.3	20.3	0.00e+00	91	34	0	472907776	54	6653
2026-01-07 00:13:25.37	150.15	32.25	-40.8	-42.1	20.6	0.00e+00	0	34	0	475004928	54	6486
2026-01-07 00:13:26.38	150.12	32.46	-41.0	-42.3	20.4	0.00e+00	90	34	0	477102080	54	6655
2026-01-07 00:13:27.39	150.09	32.67	-41.1	-42.4	20.3	0.00e+00	91	34	0	479199232	54	6741
2026-01-07 00:13:28.40	150.06	32.88	-41.0	-42.3	20.7	0.00e+00	35	34	0	480247808	54	6640
2026-01-07 00:13:29.41	150.03	33.09	-40.5	-41.7	21.0	0.00e+00	90	34	0	482344960	54	6245
2026-01-07 00:13:30.42	150.00	33.31	-40.6	-41.8	20.9	0.00e+00	0	34	0	484442112	54	6250
2026-01-07 00:13:31.43	149.97	33.52	-40.9	-42.2	20.6	0.00e+00	91	34	0	486539264	54	6557
2026-01-07 00:13:32.44	149.94	33.74	-41.1	-42.4	20.4	0.00e+00	0	34	0	488636416	54	6741
2026-01-07 00:13:33.45	149.91	33.96	-40.9	-42.2	20.4	0.00e+00	91	34	0	489684992	54	6582
2026-01-07 00:13:34.46	149.87	34.18	-40.6	-41.8	20.9	0.00e+00	91	34	0	491782144	54	6292
2026-01-07 00:13:35.47	149.84	34.41	-40.1	-41.3	21.4	0.00e+00	91	34	0	493879296	54	5901
2026-01-07 00:13:36.48	149.81	34.63	-39.7	-40.8	21.8	0.00e+00	90	34	0	495976448	52	6282
2026-01-07 00:13:37.49	149.77	34.86	-39.1	-40.2	22.3	0.00e+00	0	34	0	498073600	52	5832
2026-01-07 00:13:38.50	149.74	35.09	-38.7	-39.6	22.8	0.00e+00	90	34	0	499122176	52	5481
2026-01-07 00:13:39.51	149.70	35.31	-38.4	-39.3	22.9	0.00e+00	0	34	0	501219328	50	5940
2026-01-07 00:13:40.52	149.66	35.55	-38.2	-39.1	23.0	0.00e+00	90	34	0	503316480	50	5814
2026-01-07 00:13:41.52	149.63	35.78	-37.4	-38.3	23.7	0.00e+00	40	34	0	505413632	48	5920
2026-01-07 00:13:42.53	149.59	36.01	-37.5	-38.4	23.7	0.00e+00	92	34	0	507510784	48	5987
2026-01-07 00:13:43.54	149.55	36.25	-37.0	-37.8	24.1	0.00e+00	92	34	0	508559360	48	5618
2026-01-07 00:13:44.55	149.51	36.48	-36.9	-37.8	24.1	0.00e+00	0	34	0	510656512	46	6248
2026-01-07 00:13:45.56	149.48	36.72	-36.8	-37.7	24.3	0.00e+00	54	34	0	512753664	46	6187
2026-01-07 00:13:46.57	149.44	36.97	-36.2	-37.0	24.7	0.00e+00	0	34	0	514850816	46	5744
2026-01-07 00:13:47.57	149.40	37.21	-36.3	-37.1	24.6	0.00e+00	92	34	0	516947968	46	5804
2026-01-07 00:13:48.58	149.36	37.45	-36.2	-37.0	24.7	0.00e+00	27	34	0	517996544	46	5730
2026-01-07 00:13:49.59	149.31	37.70	-35.9	-36.6	24.8	0.00e+00	92	34	0	520093696	46	5481
2026-01-07 00:13:50.60	149.27	37.95	-36.2	-37.0	24.8	0.00e+00	90	34	0	522190848	46	5703
2026-01-07 00:13:51.61	149.23	38.20	-36.7	-37.5	24.5	0.00e+00	31	34	0	524288000	46	6075
2026-01-07 00:13:52.62	149.18	38.45	-37.1	-37.9	24.0	0.00e+00	69	34	0	526385152	46	6363
2026-01-07 00:13:53.63	149.14	38.70	-37.4	-38.3	23.8	0.00e+00	0	34	0	527433728	46	6621
2026-01-07 00:13:54.64	149.09	38.96	-37.9	-38.8	23.4	0.00e+00	92	34	0	529530880	48	6315
2026-01-07 00:13:55.65	149.05	39.22	-37.9	-38.8	23.3	0.00e+00	0	34	0	531628032	48	6296
2026-01-07 00:13:56.66	149.00	39.48	-37.8	-38.8	23.3	0.00e+00	90	34	0	533725184	48	6261
2026-01-07 00:13:57.66	148.95	39.73	-37.7	-38.6	23.6	0.00e+00	92	34	0	535822336	48	6173
2026-01-07 00:13:58.67	148.91	40.00	-37.6	-38.5	23.7	0.00e+00	0	34	0	536870912	48	6090
2026-01-07 00:13:59.68	148.86	40.26	-37.7	-38.6	23.4	0.00e+00	92	34	0	538968064	48	6156
2026-01-07 00:14:00.69	148.81	40.53	-38.0	-38.9	23.3	0.00e+00	0	34	0	541065216	48	6343
2026-01-07 00:14:01.70	148.76	40.80	-38.1	-39.0	23.3	0.00e+00	92	34	0	543162368	48	6447
2026-01-07 00:14:02.71	148.70	41.07	-38.4	-39.4	22.6	0.00e+00	0	34	0	545259520	48	6702
2026-01-07 00:14:03.72	148.65	41.34	-38.5	-39.5	22.9	0.00e+00	92	34	0	546308096	48	6815
2026-01-07 00:14:04.73	148.60	41.62	-38.5	-39.4	23.1	0.00e+00	92	34	0	548405248	48	6726
2026-01-07 00:14:05.74	148.54	41.90	-38.3	-39.2	23.2	0.00e+00	3	34	0	550502400	48	6607
2026-01-07 00:14:06.75	148.49	42.18	-38.4	-39.3	23.1	0.00e+00	92	34	0	552599552	48	6619
2026-01-07 00:14:07.76	148.43	42.46	-38.1	-38.9	23.2	0.00e+00	0	34	0	554696704	48	6382
2026-01-07 00:14:08.77	148.37	42.74	-38.4	-39.3	23.0	0.00e+00	92	34	0	555745280	48	6651
2026-01-07 00:14:09.78	148.31	43.03	-38.7	-39.6	23.0	0.00e+00	0	34	0	557842432	48	6900
2026-01-07 00:14:10.79	148.25	43.32	-38.3	-39.3	22.9	0.00e+00	92	34	0	559939584	48	6626
2026-01-07 00:14:11.80	148.19	43.61	-39.3	-40.3	22.5	0.00e+00	90	34	0	562036736	50	6670
2026-01-07 00:14:12.81	148.13	43.90	-39.4	-40.5	22.3	0.00e+00	90	34	0	564133888	50	6795
2026-01-07 00:14:13.81	148.07	44.19	-39.5	-40.6	21.9	0.00e+00	92	34	0	565182464	50	6884
2026-01-07 00:14:14.82	148.00	44.49	-38.9	-39.9	22.5	0.00e+00	0	34	0	567279616	50	6368
2026-01-07 00:14:15.83	147.93	44.79	-38.5	-39.4	22.9	0.00e+00	92	34	0	569376768	50	6015
2026-01-07 00:14:16.84	147.87	45.09	-38.1	-38.9	23.3	0.00e+00	0	34	0	571473920	50	5689
2026-01-07 00:14:17.85	147.80	45.39	-37.9	-38.7	23.4	0.00e+00	92	34	0	573571072	50	5559
2026-01-07 00:14:18.86	147.73	45.70	-37.8	-38.7	23.5	0.00e+00	73	34	0	575668224	48	6198
2026-01-07 00:14:19.87	147.66	46.00	-38.3	-39.3	22.9	0.00e+00	92	34	0	576716800	48	6622
2026-01-07 00:14:20.88	147.58	46.32	-39.1	-40.2	22.4	0.00e+00	90	34	0	578813952	50	6549
2026-01-07 00:14:21.89	147.51	46.63	-39.6	-40.7	21.8	0.00e+00	0	34	0	580911104	50	6939
2026-01-07 00:14:22.90	147.43	46.94	-40.3	-41.5	21.3	0.00e+00	75	34	0	583008256	52	6809
2026-01-07 00:14:23.91	147.35	47.26	-40.5	-41.6	21.0	0.00e+00	0	34	0	585105408	52	6920
2026-01-07 00:14:24.92	147.27	47.58	-39.6	-40.7	22.2	0.00e+00	92	34	0	586153984	52	6194
2026-01-07 00:14:25.93	147.19	47.90	-39.3	-40.3	21.6	0.00e+00	33	34	0	588251136	52	5931
2026-01-07 00:14:26.94	147.11	48.22	-39.4	-40.4	22.3	0.00e+00	90	34	0	590348288	52	6023
2026-01-07 00:14:27.95	147.02	48.55	-39.7	-40.8	21.7	0.00e+00	92	34	0	592445440	52	6254
2026-01-07 00:14:28.96	146.94	48.88	-40.2	-41.3	21.1	0.00e+00	0	34	0	594542592	52	6685
2026-01-07 00:14:29.96	146.85	49.21	-40.3	-41.5	21.4	0.00e+00	92	34	0	595591168	52	6827
2026-01-07 00:14:30.97	146.76	49.54	-40.5	-41.8	21.0	0.00e+00	0	34	0	597688320	52	7012
2026-01-07 00:14:31.98	146.66	49.88	-39.1	-40.1	22.4	0.00e+00	92	34	0	599785472	52	5776
2026-01-07 00:14:32.99	146.57	50.22	-38.4	-39.3	23.0	0.00e+00	0	34	0	601882624	50	5935
2026-01-07 00:14:34.00	146.47	50.56	-38.6	-39.6	22.8	0.00e+00	92	34	0	603979776	50	6122
2026-01-07 00:14:35.01	146.37	50.90	-37.7	-38.6	23.5	0.00e+00	92	34	0	605028352	50	5447
2026-01-07 00:14:36.02	146.27	51.25	-37.9	-38.9	23.3	0.00e+00	0	34	0	607125504	48	6328
2026-01-07 00:14:37.03	146.16	51.59	-37.3	-38.1	23.9	0.00e+00	92	34	0	609222656	48	5808
2026-01-07 00:14:38.04	146.06	51.95	-37.1	-37.9	24.1	0.00e+00	2	34	0	611319808	48	5661
2026-01-07 00:14:39.05	145.95	52.30	-36.4	-37.2	24.5	0.00e+00	46	34	0	613416960	46	5884
2026-01-07 00:14:40.06	145.83	52.65	-37.0	-37.9	24.0	0.00e+00	0	34	0	614465536	46	6327
2026-01-07 00:14:41.07	145.72	53.01	-37.8	-38.7	23.4	0.00e+00	92	34	0	616562688	48	6223
2026-01-07 00:14:42.08	145.60	53.37	-38.5	-39.5	23.0	0.00e+00	92	34	0	618659840	48	6801
2026-01-07 00:14:43.09	145.48	53.74	-38.9	-39.9	22.7	0.00e+00	31	34	0	620756992	50	6374
2026-01-07 00:14:44.10	145.35	54.10	-38.3	-39.3	23.0	0.00e+00	80	34	0	622854144	50	5919
2026-01-07 00:14:45.11	145.23	54.47	-38.6	-39.5	22.7	0.00e+00	0	34	0	623902720	50	6101
2026-01-07 00:14:46.12	145.10	54.84	-37.4	-38.3	23.8	0.00e+00	91	34	0	625999872	48	5942
2026-01-07 00:14:47.13	144.96	55.21	-37.4	-38.3	23.8	0.00e+00	0	34	0	628097024	48	5927
2026-01-07 00:14:48.13	144.82	55.58	-37.6	-38.5	23.6	0.00e+00	90	34	0	630194176	48	6044
2026-01-07 00:14:49.15	144.68	55.96	-37.7	-38.5	23.6	0.00e+00	92	34	0	632291328	48	6093
2026-01-07 00:14:50.15	144.53	56.34	-37.8	-38.7	23.4	0.00e+00	0	34	0	633339904	48	6216
2026-01-07 00:14:51.16	144.38	56.72	-37.8	-38.7	23.4	0.00e+00	92	34	0	635437056	48	6175
2026-01-07 00:14:52.17	144.23	57.11	-38.2	-39.1	23.1	0.00e+00	0	34	0	637534208	48	6469
2026-01-07 00:14:53.18	144.07	57.50	-38.4	-39.4	22.8	0.00e+00	92	34	0	639631360	48	6700
2026-01-07 00:14:54.19	143.90	57.88	-38.8	-39.8	22.7	0.00e+00	0	34	0	641728512	48	7048
2026-01-07 00:14:55.20	143.74	58.28	-39.5	-40.5	22.0	0.00e+00	92	34	0	643825664	50	6824
2026-01-07 00:14:56.20	143.56	58.67	-40.3	-41.4	21.3	0.00e+00	2	34	0	644874240	52	6733
2026-01-07 00:14:57.22	143.38	59.07	-40.6	-41.9	20.8	0.00e+00	66	34	0	646971392	54	6335
2026-01-07 00:14:58.23	143.20	59.47	-39.9	-41.0	21.5	0.00e+00	92	34	0	649068544	54	5743
2026-01-07 00:14:59.24	143.00	59.87	-38.9	-39.9	22.6	0.00e+00	0	34	0	651165696	52	5655
2026-01-07 00:15:00.25	142.81	60.27	-38.1	-39.0	23.4	0.00e+00	90	34	0	653262848	50	5707
2026-01-07 00:15:01.26	142.60	60.68	-37.5	-38.4	23.7	0.00e+00	0	34	0	654311424	48	5988
2026-01-07 00:15:02.26	142.39	61.08	-38.2	-39.2	23.0	0.00e+00	92	34	0	656408576	48	6556
2026-01-07 00:15:03.27	142.18	61.49	-37.7	-38.5	23.5	0.00e+00	35	34	0	658505728	48	6101
2026-01-07 00:15:04.28	141.95	61.90	-37.1	-37.9	24.0	0.00e+00	92	34	0	660602880	48	5685
2026-01-07 00:15:05.29	141.72	62.32	-37.4	-38.3	23.7	0.00e+00	90	34	0	662700032	48	5913
2026-01-07 00:15:06.30	141.48	62.74	-37.3	-38.2	23.9	0.00e+00	0	34	0	663748608	48	5843
2026-01-07 00:15:07.31	141.23	63.15	-37.6	-38.6	23.3	0.00e+00	38	34	0	665845760	48	6114
2026-01-07 00:15:08.32	140.97	63.58	-37.9	-38.9	23.4	0.00e+00	0	34	0	667942912	48	6353
2026-01-07 00:15:09.33	140.70	64.00	-36.2	-36.9	24.7	0.00e+00	92	34	0	670040064	46	5680
2026-01-07 00:15:10.34	140.42	64.42	-38.0	-38.9	23.2	0.00e+00	0	34	0	672137216	48	6364
2026-01-07 00:15:11.35	140.13	64.85	-38.1	-39.1	23.0	0.00e+00	92	34	0	673185792	48	6496
2026-01-07 00:15:12.36	139.83	65.28	-38.5	-39.5	22.8	0.00e+00	92	34	0	675282944	48	6793
2026-01-07 00:15:13.37	139.52	65.71	-37.2	-38.1	23.9	0.00e+00	0	34	0	677380096	48	5780
2026-01-07 00:15:14.37	139.20	66.13	-37.5	-38.3	23.5	0.00e+00	41	34	0	679477248	48	5938
2026-01-07 00:15:15.38	138.86	66.57	-38.9	-40.0	22.4	0.00e+00	0	34	0	681574400	50	6400
2026-01-07 00:15:16.39	138.50	67.00	-38.5	-39.5	23.0	0.00e+00	90	34	0	682622976	52	5395
2026-01-07 00:15:17.40	138.14	67.44	-37.7	-38.5	23.6	0.00e+00	0	34	0	684720128	48	6085
2026-01-07 00:15:18.41	137.75	67.88	-37.9	-38.8	23.3	0.00e+00	92	34	0	686817280	48	6260
2026-01-07 00:15:19.42	137.35	68.31	-39.1	-40.2	22.0	0.00e+00	62	34	0	688914432	50	6574
2026-01-07 00:15:20.43	136.93	68.75	-39.8	-40.9	21.8	0.00e+00	0	34	0	691011584	52	6373
2026-01-07 00:15:21.44	136.49	69.19	-38.8	-39.8	22.3	0.00e+00	86	34	0	692060160	52	5621
2026-01-07 00:15:22.45	136.04	69.64	-38.6	-39.6	22.5	0.00e+00	0	34	0	694157312	50	6140
2026-01-07 00:15:23.46	135.55	70.08	-39.2	-40.2	22.2	0.00e+00	92	34	0	696254464	50	6543
2026-01-07 00:15:24.47	135.05	70.52	-40.8	-42.1	20.5	0.00e+00	0	34	0	698351616	52	7267
2026-01-07 00:15:25.48	134.52	70.97	-40.3	-41.6	21.0	0.00e+00	91	34	0	700448768	54	6124
2026-01-07 00:15:26.49	133.96	71.41	-38.9	-39.9	22.4	0.00e+00	38	34	0	701497344	52	5684
2026-01-07 00:15:27.49	133.38	71.85	-36.7	-37.4	24.2	0.00e+00	0	34	0	703594496	46	6032
2026-01-07 00:15:28.51	132.76	72.30	-35.9	-36.7	25.0	0.00e+00	83	34	0	705691648	46	5512
2026-01-07 00:15:29.51	132.11	72.74	-35.8	-36.5	24.9	0.00e+00	0	34	0	707788800	44	6083
2026-01-07 00:15:30.52	131.43	73.18	-36.4	-37.2	24.4	0.00e+00	92	34	0	709885952	44	6615
2026-01-07 00:15:31.53	130.70	73.62	-35.6	-36.3	25.1	0.00e+00	0	34	0	711983104	44	5928
2026-01-07 00:15:32.54	129.93	74.06	-36.0	-36.7	24.6	0.00e+00	91	34	0	713031680	44	6236
2026-01-07 00:15:33.55	129.12	74.50	-37.1	-38.0	23.8	0.00e+00	27	34	0	715128832	46	6405
2026-01-07 00:15:34.56	128.25	74.94	-37.8	-38.7	23.4	0.00e+00	78	34	0	717225984	48	6189
2026-01-07 00:15:35.57	127.34	75.38	-38.3	-39.2	23.2	0.00e+00	92	34	0	719323136	48	6553
2026-01-07 00:15:36.58	126.36	75.81	-38.9	-39.9	22.5	0.00e+00	0	34	0	721420288	48	7110
2026-01-07 00:15:37.59	125.32	76.24	-40.4	-41.6	21.0	0.00e+00	90	34	0	722468864	52	6926
2026-01-07 00:15:38.60	124.21	76.67	-43.0	-45.1	17.9	0.00e+00	0	34	0	724566016	58	7258
2026-01-07 00:15:39.61	123.02	77.09	-41.1	-42.5	20.3	0.00e+00	92	34	0	726663168	56	6035
2026-01-07 00:15:40.62	121.76	77.51	-40.5	-41.7	21.1	0.00e+00	34	34	0	728760320	54	6184
2026-01-07 00:15:41.63	120.40	77.92	-40.3	-41.5	21.1	0.00e+00	0	34	0	730857472	54	6064
2026-01-07 00:15:42.64	118.94	78.33	-40.6	-41.8	20.8	0.00e+00	90	34	0	731906048	54	6270
2026-01-07 00:15:43.65	117.38	78.73	-39.2	-40.2	22.2	0.00e+00	0	34	0	734003200	52	5857
2026-01-07 00:15:44.65	115.72	79.12	-38.7	-39.6	22.7	0.00e+00	30	34	0	736100352	50	6129
2026-01-07 00:15:45.66	113.91	79.50	-39.7	-40.8	21.8	0.00e+00	0	34	0	738197504	52	6257
2026-01-07 00:15:46.67	111.97	79.87	-39.8	-40.9	21.5	0.00e+00	92	34	0	740294656	52	6390
2026-01-07 00:15:47.68	109.87	80.24	-38.2	-39.1	23.0	0.00e+00	29	34	0	741343232	50	5826
2026-01-07 00:15:48.69	107.62	80.58	-37.7	-38.6	23.6	0.00e+00	90	34	0	743440384	48	6153
2026-01-07 00:15:49.70	105.20	80.92	-37.8	-38.7	23.4	0.00e+00	92	34	0	745537536	48	6223
2026-01-07 00:15:50.71	102.59	81.23	-37.4	-38.3	23.7	0.00e+00	0	34	0	747634688	48	5948
2026-01-07 00:15:51.72	99.79	81.53	-37.8	-38.7	23.3	0.00e+00	56	34	0	749731840	48	6201
2026-01-07 00:15:52.73	96.79	81.81	-37.5	-38.4	23.7	0.00e+00	0	34	0	750780416	48	5980
2026-01-07 00:15:53.74	93.59	82.06	-37.9	-38.8	23.4	0.00e+00	91	34	0	752877568	48	6279
2026-01-07 00:15:54.75	90.19	82.29	-39.5	-40.6	21.8	0.00e+00	0	34	0	754974720	50	6868
2026-01-07 00:15:55.76	86.59	82.48	-39.0	-40.0	22.4	0.00e+00	76	34	0	757071872	52	5760
2026-01-07 00:15:56.77	82.82	82.65	-39.4	-40.5	21.8	0.00e+00	92	34	0	759169024	52	6039
2026-01-07 00:15:57.78	78.88	82.79	-39.0	-40.0	22.5	0.00e+00	0	34	0	760217600	52	5755
2026-01-07 00:15:58.79	74.81	82.89	-38.5	-39.5	22.7	0.00e+00	64	34	0	762314752	50	6073
2026-01-07 00:15:59.79	70.69	82.95	-38.5	-39.5	22.8	0.00e+00	0	34	0	764411904	50	6075
2026-01-07 00:16:00.80	66.47	82.98	-37.7	-38.6	23.8	0.00e+00	90	34	0	766509056	50	5475
2026-01-07 00:16:01.81	62.24	82.96	-36.8	-37.5	24.2	0.00e+00	0	34	0	768606208	48	5428
2026-01-07 00:16:02.82	58.06	82.91	-37.5	-38.5	23.4	0.00e+00	90	34	0	769654784	46	6776
2026-01-07 00:16:03.82	53.99	82.83	-37.2	-38.0	23.9	0.00e+00	92	34	0	771751936	48	5728
2026-01-07 00:16:04.83	50.00	82.71	-36.3	-37.0	24.8	0.00e+00	0	34	0	773849088	46	5745
2026-01-07 00:16:05.84	46.16	82.55	-37.3	-38.1	23.8	0.00e+00	92	34	0	775946240	46	6531
2026-01-07 00:16:06.85	42.50	82.36	-38.6	-39.5	22.4	0.00e+00	0	34	0	778043392	50	6088
2026-01-07 00:16:07.86	39.02	82.15	-38.5	-39.4	22.7	0.00e+00	40	34	0	779091968	50	5995
2026-01-07 00:16:08.87	35.75	81.90	-38.3	-39.2	23.0	0.00e+00	0	34	0	781189120	50	5871
2026-01-07 00:16:09.88	32.68	81.63	-38.4	-39.3	22.9	0.00e+00	92	34	0	783286272	50	5948
2026-01-07 00:16:10.89	29.81	81.35	-38.7	-39.6	22.5	0.00e+00	0	34	0	785383424	50	6171
2026-01-07 00:16:11.91	27.11	81.03	-39.9	-41.0	21.5	0.00e+00	0	34	0	787480576	52	6446
2026-01-07 00:16:12.91	24.64	80.71	-41.3	-42.7	19.9	0.00e+00	92	34	0	788529152	54	6935
2026-01-07 00:16:13.92	22.33	80.37	-41.1	-42.5	20.4	0.00e+00	0	34	0	790626304	54	6844
2026-01-07 00:16:14.93	20.18	80.01	-41.7	-43.2	19.8	0.00e+00	92	34	0	792723456	56	6577
2026-01-07 00:16:15.94	18.18	79.64	-41.1	-42.4	20.4	0.00e+00	0	34	0	794820608	56	6017
2026-01-07 00:16:16.95	16.33	79.26	-41.8	-43.2	19.2	0.00e+00	92	34	0	796917760	56	6594
2026-01-07 00:16:17.96	14.61	78.87	-43.5	-45.5	17.5	0.00e+00	0	34	0	797966336	58	7640
2026-01-07 00:16:18.97	13.00	78.48	-41.2	-42.4	20.6	0.00e+00	72	34	0	800063488	56	6028
2026-01-07 00:16:19.98	11.51	78.07	-39.1	-40.0	22.4	0.00e+00	92	34	0	802160640	52	5761
2026-01-07 00:16:20.99	10.12	77.66	-38.4	-39.4	22.9	0.00e+00	1	34	0	804257792	50	5973
2026-01-07 00:16:22.00	8.82	77.25	-39.0	-40.1	22.3	0.00e+00	92	34	0	806354944	50	6472
2026-01-07 00:16:23.01	7.61	76.82	-39.5	-40.7	21.7	0.00e+00	0	34	0	808452096	50	6989
2026-01-07 00:16:24.02	6.47	76.40	-38.4	-39.4	22.9	0.00e+00	92	34	0	809500672	50	5976
2026-01-07 00:16:25.03	5.41	75.97	-39.3	-40.4	22.0	0.00e+00	0	34	0	811597824	50	6705
2026-01-07 00:16:26.04	4.41	75.54	-39.3	-40.4	21.9	0.00e+00	56	34	0	813694976	50	6741
2026-01-07 00:16:27.05	3.47	75.10	-38.4	-39.3	23.0	0.00e+00	90	34	0	815792128	50	5952
2026-01-07 00:16:28.06	2.59	74.67	-36.9	-37.8	24.1	0.00e+00	0	34	0	817889280	48	5589
2026-01-07 00:16:29.07	1.76	74.23	-37.4	-38.2	23.9	0.00e+00	92	34	0	818937856	48	5873
2026-01-07 00:16:30.07	0.98	73.79	-37.3	-38.1	23.9	0.00e+00	30	34	0	821035008	48	5796
2026-01-07 00:16:31.08	0.24	73.35	-38.9	-39.9	22.1	0.00e+00	92	34	0	823132160	48	7124
2026-01-07 00:16:32.09	359.54	72.91	-39.5	-40.6	21.8	0.00e+00	0	34	0	825229312	52	6108
2026-01-07 00:16:33.10	358.87	72.47	-40.9	-42.3	20.3	0.00e+00	92	34	0	827326464	52	7454
2026-01-07 00:16:34.11	358.24	72.02	-40.8	-42.3	20.8	0.00e+00	59	34	0	828375040	56	5939
2026-01-07 00:16:35.12	357.65	71.58	-39.1	-40.2	22.3	0.00e+00	0	34	0	830472192	52	5849
2026-01-07 00:16:36.13	357.08	71.14	-39.7	-40.8	21.6	0.00e+00	90	34	0	832569344	52	6314
2026-01-07 00:16:37.14	356.54	70.69	-38.6	-39.6	22.7	0.00e+00	0	34	0	834666496	50	6119
2026-01-07 00:16:38.15	356.03	70.25	-40.1	-41.2	21.5	0.00e+00	92	34	0	836763648	52	6591
2026-01-07 00:16:39.16	355.54	69.81	-40.1	-41.3	21.2	0.00e+00	0	34	0	837812224	52	6630
2026-01-07 00:16:40.17	355.07	69.37	-42.2	-43.8	19.1	0.00e+00	92	34	0	839909376	56	7031
2026-01-07 00:16:41.18	354.63	68.93	-39.5	-40.6	22.1	0.00e+00	46	34	0	842006528	54	5451
2026-01-07 00:16:42.19	354.20	68.49	-36.5	-37.2	24.4	0.00e+00	0	34	0	844103680	46	5881
2026-01-07 00:16:43.19	353.80	68.06	-37.6	-38.5	23.4	0.00e+00	73	34	0	846200832	46	6798
2026-01-07 00:16:44.20	353.41	67.62	-37.7	-38.5	23.5	0.00e+00	0	34	0	847249408	46	6836
2026-01-07 00:16:45.21	353.04	67.18	-37.0	-37.8	24.0	0.00e+00	90	34	0	849346560	46	6315
2026-01-07 00:16:46.22	352.68	66.75	-37.1	-37.9	23.9	0.00e+00	2	34	0	851443712	46	6375
2026-01-07 00:16:47.23	352.33	66.32	-36.9	-37.7	24.1	0.00e+00	92	34	0	853540864	46	6245
2026-01-07 00:16:48.24	352.00	65.88	-35.8	-36.6	24.6	0.00e+00	33	34	0	855638016	46	5452
2026-01-07 00:16:49.25	351.69	65.45	-35.0	-35.8	25.2	0.00e+00	0	34	0	856686592	44	5571
2026-01-07 00:16:50.26	351.38	65.03	-37.9	-38.9	23.0	0.00e+00	92	34	0	858783744	46	7102
2026-01-07 00:16:51.27	351.09	64.60	-37.4	-38.3	23.5	0.00e+00	0	34	0	860880896	48	5954
2026-01-07 00:16:52.28	350.81	64.18	-37.5	-38.4	23.5	0.00e+00	91	34	0	862978048	48	6003
2026-01-07 00:16:53.29	350.53	63.75	-37.1	-38.0	24.0	0.00e+00	0	34	0	865075200	48	5743
2026-01-07 00:16:54.30	350.27	63.33	-37.5	-38.4	23.5	0.00e+00	92	34	0	866123776	48	6021
2026-01-07 00:16:55.31	350.02	62.91	-38.4	-39.4	22.9	0.00e+00	0	34	0	868220928	48	6724
2026-01-07 00:16:56.31	349.78	62.50	-38.4	-39.4	22.8	0.00e+00	16	34	0	870318080	50	6021
2026-01-07 00:16:57.33	349.54	62.08	-38.0	-39.0	23.1	0.00e+00	82	34	0	872415232	50	5703
2026-01-07 00:16:58.33	349.31	61.68	-37.7	-38.6	23.5	0.00e+00	0	34	0	874512384	50	5480
2026-01-07 00:16:59.34	349.09	61.27	-38.3	-39.3	22.9	0.00e+00	42	34	0	876609536	48	6656
2026-01-07 00:17:00.35	348.88	60.86	-38.0	-39.0	23.2	0.00e+00	0	34	0	877658112	48	6403
2026-01-07 00:17:01.36	348.67	60.45	-37.5	-38.4	23.7	0.00e+00	83	34	0	879755264	48	5996
2026-01-07 00:17:02.36	348.48	60.05	-36.7	-37.5	24.2	0.00e+00	0	34	0	881852416	46	6089
2026-01-07 00:17:03.37	348.28	59.65	-36.9	-37.8	24.0	0.00e+00	0	34	0	883949568	46	6264
2026-01-07 00:17:04.38	348.10	59.25	-37.4	-38.2	23.7	0.00e+00	92	34	0	886046720	46	6589
2026-01-07 00:17:05.39	347.91	58.86	-37.6	-38.5	23.7	0.00e+00	0	34	0	887095296	48	6044
2026-01-07 00:17:06.40	347.74	58.46	-36.2	-36.9	24.6	0.00e+00	28	34	0	889192448	46	5688
2026-01-07 00:17:07.41	347.57	58.07	-35.7	-36.4	25.0	0.00e+00	0	34	0	891289600	46	5352
2026-01-07 00:17:08.42	347.40	57.68	-35.5	-36.3	24.9	0.00e+00	92	34	0	893386752	44	5935
2026-01-07 00:17:09.43	347.24	57.29	-36.4	-37.3	24.2	0.00e+00	0	34	0	895483904	44	6655
2026-01-07 00:17:10.44	347.08	56.91	-37.2	-38.1	23.9	0.00e+00	46	34	0	896532480	46	6508
2026-01-07 00:17:11.45	346.93	56.53	-36.7	-37.5	24.5	0.00e+00	91	34	0	898629632	46	6098
2026-01-07 00:17:12.46	346.78	56.15	-36.4	-37.2	24.4	0.00e+00	0	34	0	900726784	46	5887
2026-01-07 00:17:13.47	346.64	55.77	-36.4	-37.2	24.5	0.00e+00	55	34	0	902823936	46	5891
2026-01-07 00:17:14.48	346.50	55.39	-36.6	-37.4	24.3	0.00e+00	0	34	0	904921088	46	6024
2026-01-07 00:17:15.49	346.36	55.02	-38.4	-39.3	22.9	0.00e+00	71	34	0	905969664	48	6675
2026-01-07 00:17:16.49	346.23	54.65	-38.9	-39.9	22.5	0.00e+00	0	34	0	908066816	50	6331
2026-01-07 00:17:17.50	346.10	54.29	-38.6	-39.6	22.8	0.00e+00	92	34	0	910163968	50	6160
2026-01-07 00:17:18.51	345.98	53.92	-38.1	-39.0	23.2	0.00e+00	30	34	0	912261120	50	5757
2026-01-07 00:17:19.52	345.86	53.56	-38.6	-39.6	22.7	0.00e+00	0	34	0	914358272	50	6115
2026-01-07 00:17:20.53	345.74	53.20	-38.9	-40.0	22.3	0.00e+00	72	34	0	915406848	50	6397
2026-01-07 00:17:21.54	345.62	52.84	-36.6	-37.5	24.5	0.00e+00	0	34	0	917504000	48	5380
2026-01-07 00:17:22.55	345.51	52.48	-35.8	-36.6	24.8	0.00e+00	92	34	0	919601152	46	5461
2026-01-07 00:17:23.56	345.40	52.13	-36.4	-37.2	24.4	0.00e+00	0	34	0	921698304	46	5876
2026-01-07 00:17:24.57	345.29	51.78	-38.1	-39.0	23.1	0.00e+00	86	34	0	923795456	48	6455
2026-01-07 00:17:25.57	345.18	51.44	-38.9	-39.9	22.6	0.00e+00	0	34	0	924844032	50	6331
2026-01-07 00:17:26.58	345.08	51.09	-37.9	-38.8	23.5	0.00e+00	0	34	0	926941184	50	5615
2026-01-07 00:17:27.59	344.98	50.75	-38.9	-40.0	22.4	0.00e+00	92	34	0	929038336	50	6391
2026-01-07 00:17:28.60	344.88	50.41	-39.7	-40.9	21.7	0.00e+00	0	34	0	931135488	52	6345
2026-01-07 00:17:29.61	344.79	50.07	-39.7	-40.9	21.8	0.00e+00	92	34	0	933232640	52	6327
2026-01-07 00:17:30.62	344.69	49.73	-38.0	-38.9	23.4	0.00e+00	0	34	0	934281216	50	5677
2026-01-07 00:17:31.63	344.60	49.40	-37.7	-38.6	23.5	0.00e+00	92	34	0	936378368	48	6166
2026-01-07 00:17:32.64	344.51	49.07	-38.7	-39.8	22.6	0.00e+00	0	34	0	938475520	48	7017
2026-01-07 00:17:33.65	344.42	48.74	-39.6	-40.7	21.8	0.00e+00	0	34	0	940572672	50	6948
2026-01-07 00:17:34.66	344.34	48.41	-41.0	-42.3	20.5	0.00e+00	51	34	0	942669824	54	6685
2026-01-07 00:17:35.67	344.25	48.09	-40.6	-41.9	20.8	0.00e+00	0	34	0	943718400	54	6321
2026-01-07 00:17:36.67	344.17	47.77	-40.1	-41.3	21.4	0.00e+00	81	34	0	945815552	54	5940
2026-01-07 00:17:37.68	344.09	47.45	-39.2	-40.3	22.1	0.00e+00	0	34	0	947912704	52	5936
2026-01-07 00:17:38.69	344.01	47.13	-39.6	-40.7	21.7	0.00e+00	90	34	0	950009856	52	6233
2026-01-07 00:17:39.70	343.94	46.82	-39.3	-40.3	22.2	0.00e+00	0	34	0	952107008	52	5938
2026-01-07 00:17:40.71	343.86	46.51	-40.2	-41.4	21.3	0.00e+00	90	34	0	953155584	52	6739
2026-01-07 00:17:41.72	343.79	46.19	-39.6	-40.7	21.9	0.00e+00	92	34	0	955252736	52	6223
2026-01-07 00:17:42.73	343.72	45.89	-39.7	-40.8	21.8	0.00e+00	0	34	0	957349888	52	6286
2026-01-07 00:17:43.74	343.65	45.58	-39.5	-40.5	21.9	0.00e+00	30	34	0	959447040	52	6100
2026-01-07 00:17:44.75	343.58	45.28	-40.0	-41.1	21.3	0.00e+00	0	34	0	961544192	52	6481
2026-01-07 00:17:45.76	343.51	44.98	-40.7	-42.0	20.9	0.00e+00	77	34	0	962592768	54	6404
2026-01-07 00:17:46.76	343.44	44.68	-41.0	-42.4	20.5	0.00e+00	0	34	0	964689920	54	6707
2026-01-07 00:17:47.77	343.38	44.38	-40.2	-41.4	21.3	0.00e+00	73	34	0	966787072	54	6004
2026-01-07 00:17:48.78	343.31	44.09	-39.8	-40.9	21.0	0.00e+00	32	34	0	968884224	54	5678
2026-01-07 00:17:49.79	343.25	43.80	-41.3	-42.7	20.2	0.00e+00	0	34	0	970981376	54	6943
2026-01-07 00:17:50.80	343.19	43.51	-40.9	-42.2	20.6	0.00e+00	69	34	0	973078528	54	6542
2026-01-07 00:17:51.81	343.13	43.22	-40.0	-41.1	21.8	0.00e+00	0	34	0	974127104	54	5764
2026-01-07 00:17:52.82	343.07	42.93	-39.5	-40.5	22.1	0.00e+00	80	34	0	976224256	52	6081
2026-01-07 00:17:53.83	343.01	42.65	-39.5	-40.5	22.1	0.00e+00	0	34	0	978321408	52	6048
2026-01-07 00:17:54.84	342.95	42.37	-40.5	-41.7	21.0	0.00e+00	92	34	0	980418560	52	7004
2026-01-07 00:17:55.85	342.90	42.09	-40.5	-41.7	20.9	0.00e+00	17	34	0	982515712	54	6208
2026-01-07 00:17:56.86	342.84	41.81	-41.7	-43.2	19.5	0.00e+00	0	34	0	983564288	54	7358
2026-01-07 00:17:57.87	342.79	41.53	-41.7	-43.2	19.9	0.00e+00	67	34	0	985661440	56	6612
2026-01-07 00:17:58.88	342.74	41.26	-41.3	-42.7	20.3	0.00e+00	0	34	0	987758592	56	6205
2026-01-07 00:17:59.88	342.69	40.99	-41.1	-42.4	20.5	0.00e+00	92	34	0	989855744	56	5974
2026-01-07 00:18:00.89	342.63	40.72	-39.2	-40.3	22.2	0.00e+00	0	34	0	991952896	52	5913
2026-01-07 00:18:01.90	342.58	40.46	-38.7	-39.8	22.6	0.00e+00	60	34	0	993001472	50	6266
2026-01-07 00:18:02.91	342.53	40.19	-38.8	-39.8	22.6	0.00e+00	0	34	0	995098624	50	6290
2026-01-07 00:18:03.91	342.49	39.93	-40.3	-41.5	21.2	0.00e+00	0	34	0	997195776	52	6804
2026-01-07 00:18:04.92	342.44	39.67	-40.0	-41.2	21.5	0.00e+00	92	34	0	999292928	54	5840
2026-01-07 00:18:05.93	342.39	39.41	-40.8	-42.1	20.6	0.00e+00	0	34	0	1001390080	54	6467
2026-01-07 00:18:06.94	342.35	39.15	-40.6	-41.9	20.7	0.00e+00	92	34	0	1002438656	54	6352
2026-01-07 00:18:07.95	342.30	38.89	-40.3	-41.4	21.3	0.00e+00	0	34	0	1004535808	54	6021
2026-01-07 00:18:08.96	342.26	38.64	-39.8	-40.9	21.7	0.00e+00	84	34	0	1006632960	54	5644
2026-01-07 00:18:09.97	342.21	38.39	-39.9	-41.0	21.7	0.00e+00	0	34	0	1008730112	54	5748
2026-01-07 00:18:10.98	342.17	38.14	-40.4	-41.6	21.1	0.00e+00	0	34	0	1010827264	54	6147
2026-01-07 00:18:11.98	342.13	37.89	-39.9	-41.0	21.6	0.00e+00	48	34	0	1011875840	54	5726
2026-01-07 00:18:13.00	342.09	37.64	-40.8	-42.0	20.8	0.00e+00	0	34	0	1013972992	54	6438
2026-01-07 00:18:14.01	342.05	37.40	-40.7	-42.0	20.7	0.00e+00	4	34	0	1016070144	54	6422
2026-01-07 00:18:15.01	342.01	37.16	-40.8	-42.2	20.7	0.00e+00	0	34	0	1018167296	54	6561
2026-01-07 00:18:16.02	341.97	36.92	-40.9	-42.2	20.5	0.00e+00	92	34	0	1020264448	54	6584
2026-01-07 00:18:17.03	341.93	36.68	-41.5	-43.0	19.7	0.00e+00	0	34	0	1021313024	54	7200
2026-01-07 00:18:18.04	341.89	36.44	-42.0	-43.6	19.5	0.00e+00	0	34	0	1023410176	56	6856
2026-01-07 00:18:19.05	341.85	36.20	-41.4	-42.7	20.1	0.00e+00	0	34	0	1025507328	56	6208
2026-01-07 00:18:20.06	341.81	35.97	-40.5	-41.7	21.1	0.00e+00	0	34	0	1027604480	54	6209
2026-01-07 00:18:21.07	341.78	35.74	-39.8	-40.9	21.7	0.00e+00	65	34	0	1029701632	52	6357
2026-01-07 00:18:22.08	341.74	35.51	-38.4	-39.3	23.1	0.00e+00	0	34	0	1030750208	50	5943
2026-01-07 00:18:23.09	341.71	35.28	-38.5	-39.4	22.9	0.00e+00	92	34	0	1032847360	50	6007
2026-01-07 00:18:24.09	341.67	35.05	-39.1	-40.1	22.3	0.00e+00	0	34	0	1034944512	50	6494
2026-01-07 00:18:25.10	341.64	34.82	-39.4	-40.4	22.0	0.00e+00	89	34	0	1037041664	50	6749
2026-01-07 00:18:26.11	341.60	34.60	-40.7	-41.9	20.8	0.00e+00	31	34	0	1039138816	52	7160
2026-01-07 00:18:27.12	341.57	34.38	-41.8	-43.3	19.7	0.00e+00	0	34	0	1040187392	56	6640
2026-01-07 00:18:28.13	341.54	34.16	-42.9	-44.7	18.2	0.00e+00	54	34	0	1042284544	58	6960
2026-01-07 00:18:29.14	341.50	33.94	-43.1	-44.9	18.1	0.00e+00	0	34	0	1044381696	58	7089
2026-01-07 00:18:30.15	341.47	33.72	-43.8	-45.9	17.2	0.00e+00	92	34	0	1046478848	58	7995
2026-01-07 00:18:31.16	341.44	33.50	-43.0	-44.9	18.2	0.00e+00	0	34	0	1048576000	60	6321
2026-01-07 00:18:32.17	341.41	33.29	-42.5	-44.1	18.9	0.00e+00	0	34	0	1049624576	58	6526
2026-01-07 00:18:33.18	341.38	33.07	-41.5	-43.0	19.7	0.00e+00	17	34	0	1051721728	56	6415
2026-01-07 00:18:34.19	341.35	32.86	-40.1	-41.3	21.3	0.00e+00	0	34	0	1053818880	54	5936
2026-01-07 00:18:35.20	341.32	32.65	-40.0	-41.2	21.2	0.00e+00	92	34	0	1055916032	54	5831
2026-01-07 00:18:36.21	341.29	32.44	-40.0	-41.2	21.4	0.00e+00	0	34	0	1058013184	54	5851
2026-01-07 00:18:37.22	341.26	32.23	-40.1	-41.2	21.1	0.00e+00	91	34	0	1059061760	54	5894
2026-01-07 00:18:38.23	341.23	32.03	-40.3	-41.5	20.9	0.00e+00	0	34	0	1061158912	54	6078
2026-01-07 00:18:39.23	341.21	31.82	-40.5	-41.7	20.7	0.00e+00	0	34	0	1063256064	54	6228
2026-01-07 00:18:40.24	341.18	31.62	-40.8	-42.0	20.6	0.00e+00	2	34	0	1065353216	54	6439
2026-01-07 00:18:41.25	341.15	31.42	-40.7	-42.0	20.8	0.00e+00	0	34	0	1067450368	54	6412
2026-01-07 00:18:42.26	341.13	31.22	-40.3	-41.5	21.0	0.00e+00	30	34	0	1069547520	54	6069
2026-01-07 00:18:43.27	341.10	31.02	-39.4	-40.5	21.9	0.00e+00	0	34	0	1070596096	52	6074
2026-01-07 00:18:44.28	341.07	30.82	-38.8	-39.8	22.4	0.00e+00	90	34	0	1072693248	52	5597
2026-01-07 00:18:45.29	341.05	30.62	-39.3	-40.4	21.8	0.00e+00	0	34	0	1074790400	52	6018
2026-01-07 00:18:46.30	341.02	30.43	-39.5	-40.7	21.7	0.00e+00	0	34	0	1076887552	52	6184
2026-01-07 00:18:47.31	341.00	30.23	-39.1	-40.1	22.1	0.00e+00	0	34	0	1078984704	52	5810
2026-01-07 00:18:48.32	340.97	30.04	-39.6	-40.8	21.7	0.00e+00	0	34	0	1080033280	52	6256
2026-01-07 00:18:49.33	340.95	29.85	-39.9	-41.1	21.3	0.00e+00	92	34	0	1082130432	52	6473
2026-01-07 00:18:50.34	340.93	29.66	-40.9	-42.3	20.3	0.00e+00	0	34	0	1084227584	54	6624
2026-01-07 00:18:51.35	340.90	29.47	-41.3	-42.7	19.8	0.00e+00	92	34	0	1086324736	54	7007
2026-01-07 00:18:52.36	340.88	29.28	-41.7	-43.2	19.5	0.00e+00	0	34	0	1088421888	54	7402
2026-01-07 00:18:53.37	340.86	29.10	-41.8	-43.4	19.4	0.00e+00	0	34	0	1089470464	56	6731
2026-01-07 00:18:54.38	340.83	28.91	-42.0	-43.6	19.2	0.00e+00	0	34	0	1091567616	56	6887
2026-01-07 00:18:55.39	340.81	28.73	-41.2	-42.5	20.0	0.00e+00	0	34	0	1093664768	56	6095
2026-01-07 00:18:56.40	340.79	28.54	-40.3	-41.5	21.1	0.00e+00	23	34	0	1095761920	54	6100
2026-01-07 00:18:57.41	340.77	28.36	-39.7	-40.9	21.7	0.00e+00	0	34	0	1097859072	54	5640
2026-01-07 00:18:58.42	340.75	28.18	-39.6	-40.8	21.6	0.00e+00	65	34	0	1098907648	52	6262
2026-01-07 00:18:59.42	340.73	28.00	-39.3	-40.3	22.0	0.00e+00	0	34	0	1101004800	52	5961
2026-01-07 00:19:00.43	340.70	27.83	-38.0	-39.0	23.1	0.00e+00	0	34	0	1103101952	50	5719
2026-01-07 00:19:01.44	340.68	27.65	-38.1	-39.0	23.1	0.00e+00	0	34	0	1105199104	50	5740
2026-01-07 00:19:02.45	340.66	27.47	-38.2	-39.1	23.1	0.00e+00	0	34	0	1107296256	50	5819
2026-01-07 00:19:03.46	340.64	27.30	-38.3	-39.2	22.8	0.00e+00	22	34	0	1108344832	50	5889
2026-01-07 00:19:04.47	340.62	27.12	-38.0	-38.9	23.1	0.00e+00	0	34	0	1110441984	50	5661
2026-01-07 00:19:05.48	340.60	26.95	-38.6	-39.6	22.6	0.00e+00	91	34	0	1112539136	50	6109
2026-01-07 00:19:06.49	340.59	26.78	-38.7	-39.7	22.6	0.00e+00	0	34	0	1114636288	50	6208
2026-01-07 00:19:07.50	340.57	26.61	-38.9	-40.0	22.3	0.00e+00	66	34	0	1116733440	50	6415
2026-01-07 00:19:08.51	340.55	26.44	-39.1	-40.2	22.1	0.00e+00	0	34	0	1117782016	50	6540
2026-01-07 00:19:09.52	340.53	26.27	-39.1	-40.1	22.2	7.00e-07	0	34	0	1119879168	50	6532
2026-01-07 00:19:10.53	340.51	26.11	-39.0	-40.0	22.2	0.00e+00	41	34	0	1121976320	50	6446
2026-01-07 00:19:11.53	340.49	25.94	-39.0	-40.0	22.2	0.00e+00	0	34	0	1124073472	50	6464
2026-01-07 00:19:12.54	340.47	25.78	-38.8	-39.8	22.4	0.00e+00	92	34	0	1126170624	50	6283
2026-01-07 00:19:13.55	340.46	25.61	-38.4	-39.4	22.8	0.00e+00	0	34	0	1127219200	50	5975
2026-01-07 00:19:14.56	340.44	25.45	-37.8	-38.8	23.1	0.00e+00	76	34	0	1129316352	50	5570
2026-01-07 00:19:15.56	340.42	25.29	-37.9	-38.9	23.0	0.00e+00	0	34	0	1131413504	50	5675
2026-01-07 00:19:16.57	340.41	25.13	-37.8	-38.8	23.2	0.00e+00	0	34	0	1133510656	48	6254
2026-01-07 00:19:17.58	340.39	24.97	-37.5	-38.5	23.4	0.00e+00	17	34	0	1135607808	48	6039
2026-01-07 00:19:18.59	340.37	24.81	-37.6	-38.6	23.4	0.00e+00	0	34	0	1137704960	48	6106
2026-01-07 00:19:19.60	340.36	24.65	-37.2	-38.1	23.8	0.00e+00	58	34	0	1138753536	48	5800
2026-01-07 00:19:20.61	340.34	24.49	-36.9	-37.8	24.0	0.00e+00	0	34	0	1140850688	48	5599
2026-01-07 00:19:21.62	340.32	24.34	-36.9	-37.8	23.8	0.00e+00	92	34	0	1142947840	46	6259
2026-01-07 00:19:22.63	340.31	24.18	-37.1	-38.0	23.7	0.00e+00	0	34	0	1145044992	46	6406
2026-01-07 00:19:23.64	340.29	24.03	-36.8	-37.7	23.9	0.00e+00	0	34	0	1147142144	46	6236
2026-01-07 00:19:24.64	340.28	23.87	-37.0	-37.9	23.7	0.00e+00	0	34	0	1148190720	46	6347
2026-01-07 00:19:25.65	340.26	23.72	-37.0	-37.9	23.9	0.00e+00	0	34	0	1150287872	46	6321
2026-01-07 00:19:26.66	340.25	23.57	-37.0	-37.9	23.8	0.00e+00	24	34	0	1152385024	46	6388
2026-01-07 00:19:27.67	340.23	23.42	-37.2	-38.1	23.7	0.00e+00	0	34	0	1154482176	46	6513
2026-01-07 00:19:28.68	340.22	23.27	-37.5	-38.4	23.3	0.00e+00	80	34	0	1156579328	46	6743
2026-01-07 00:19:29.69	340.20	23.12	-37.8	-38.8	23.1	0.00e+00	0	34	0	1157627904	48	6294
2026-01-07 00:19:30.70	340.19	22.97	-37.9	-38.9	23.0	0.00e+00	0	34	0	1159725056	48	6322
2026-01-07 00:19:31.71	340.18	22.82	-38.2	-39.2	22.8	0.00e+00	0	34	0	1161822208	48	6604
2026-01-07 00:19:32.72	340.16	22.68	-38.5	-39.5	22.6	0.00e+00	0	34	0	1163919360	48	6823
2026-01-07 00:19:33.73	340.15	22.53	-38.7	-39.7	22.4	0.00e+00	72	34	0	1166016512	48	6958
2026-01-07 00:19:34.74	340.13	22.38	-38.7	-39.7	22.4	0.00e+00	0	34	0	1167065088	50	6231
2026-01-07 00:19:35.75	340.12	22.24	-38.8	-39.9	22.3	0.00e+00	81	34	0	1169162240	50	6331
2026-01-07 00:19:36.76	340.11	22.10	-38.5	-39.5	22.6	0.00e+00	0	34	0	1171259392	50	6089
2026-01-07 00:19:37.77	340.10	21.95	-38.4	-39.4	22.7	0.00e+00	0	34	0	1173356544	50	6029
2026-01-07 00:19:38.78	340.08	21.81	-38.6	-39.6	22.5	0.00e+00	0	34	0	1175453696	50	6148
2026-01-07 00:19:39.79	340.07	21.67	-38.2	-39.2	22.9	0.00e+00	0	34	0	1176502272	50	5857
2026-01-07 00:19:40.80	340.06	21.53	-38.4	-39.4	22.6	0.00e+00	12	34	0	1178599424	50	6029
2026-01-07 00:19:41.80	340.04	21.39	-38.7	-39.7	22.4	0.00e+00	0	34	0	1180696576	50	6233
2026-01-07 00:19:42.81	340.03	21.26	-38.3	-39.2	22.9	0.00e+00	92	34	0	1182793728	50	5890
2026-01-07 00:19:43.82	340.02	21.12	-37.9	-38.8	23.1	0.00e+00	0	34	0	1184890880	50	5615
2026-01-07 00:19:44.83	340.01	20.98	-38.2	-39.2	22.8	0.00e+00	78	34	0	1185939456	50	5886
2026-01-07 00:19:45.84	340.00	20.84	-38.6	-39.7	22.5	0.00e+00	0	34	0	1188036608	50	6176
2026-01-07 00:19:46.85	339.98	20.71	-38.6	-39.6	22.6	0.00e+00	0	34	0	1190133760	50	6150
2026-01-07 00:19:47.86	339.97	20.57	-39.0	-40.0	22.1	0.00e+00	0	34	0	1192230912	50	6461
2026-01-07 00:19:48.87	339.96	20.44	-38.5	-39.6	22.5	0.00e+00	0	34	0	1194328064	50	6141
2026-01-07 00:19:49.88	339.95	20.31	-38.5	-39.6	22.4	0.00e+00	90	34	0	1195376640	50	6120
2026-01-07 00:19:50.89	339.94	20.17	-38.6	-39.6	22.5	0.00e+00	0	34	0	1197473792	50	6149
