passes_logs/2026/01/07/R4.6S_Anadyr/R4.6S_Anadyr__20260107_135408_SUOMI_NPP_rec.log

#Pass ID: 20260107_135408_SUOMI NPP
#Satellite: SUOMI NPP
#Configuration: NPP
#almurnet v.1.7.20251203
#Start time: 2026-01-07 13:54:11

#Version: 2.2.20231116
#Station: R4.6S_Anadyr
#Location: 177.4865 lon 64.73178 lat
#TLE: 1 37849U 11061A   26004.95404768  .00000136  00000+0  85334-4 0  9991
#TLE: 2 37849  98.7801 307.0898 0002575  80.6707 279.4760 14.19522289735281

#Time	Az	El	Level	Level2	SNR	BER	BlckErr	Temp	State	Recorded	gain1	gain2
2026-01-07 13:54:11.79	19.27	0.19	-49.2	-63.0	3.3	1.54e+00	0	37	0	0	60	50793
2026-01-07 13:54:12.79	19.30	0.25	-49.3	-64.5	3.6	1.51e+00	0	37	104	0	60	60928
2026-01-07 13:54:13.80	19.34	0.31	-49.3	-64.5	3.6	1.51e+00	0	37	104	0	60	60981
2026-01-07 13:54:14.81	19.37	0.37	-49.3	-64.5	3.6	1.51e+00	0	37	104	0	60	60982
2026-01-07 13:54:15.82	19.40	0.43	-49.3	-64.5	3.6	1.51e+00	0	37	104	0	60	60672
2026-01-07 13:54:16.83	19.43	0.48	-49.4	-64.6	3.6	1.51e+00	0	37	104	0	60	61182
2026-01-07 13:54:17.84	19.46	0.54	-49.4	-64.6	3.6	1.51e+00	0	37	104	0	60	61096
2026-01-07 13:54:18.85	19.50	0.60	-49.4	-64.5	3.6	1.51e+00	0	37	104	0	60	60858
2026-01-07 13:54:19.86	19.53	0.66	-49.3	-64.5	3.6	1.51e+00	0	37	104	0	60	60469
2026-01-07 13:54:20.87	19.56	0.72	-49.3	-64.4	3.6	1.51e+00	0	37	104	0	60	60215
2026-01-07 13:54:21.88	19.59	0.78	-49.2	-64.3	3.6	1.51e+00	0	37	104	0	60	59606
2026-01-07 13:54:22.89	19.62	0.84	-49.1	-64.3	3.6	1.51e+00	0	37	104	0	60	59102
2026-01-07 13:54:23.90	19.66	0.90	-48.8	-64.0	3.6	1.51e+00	0	37	104	0	60	57321
2026-01-07 13:54:24.91	19.69	0.96	-48.7	-63.9	3.6	1.51e+00	0	37	104	0	60	56402
2026-01-07 13:54:25.92	19.72	1.02	-48.5	-63.7	3.6	1.51e+00	0	37	104	0	60	55128
2026-01-07 13:54:26.93	19.76	1.08	-48.2	-63.4	3.6	1.51e+00	0	37	104	0	60	53498
2026-01-07 13:54:27.94	19.79	1.14	-47.9	-63.0	3.6	1.51e+00	0	37	104	0	60	51126
2026-01-07 13:54:28.95	19.82	1.20	-47.8	-63.0	3.6	1.51e+00	0	37	104	0	60	50791
2026-01-07 13:54:29.96	19.86	1.27	-47.8	-63.0	3.6	1.51e+00	0	37	104	0	60	50940
2026-01-07 13:54:30.97	19.89	1.33	-47.8	-63.0	3.6	1.51e+00	0	37	104	0	60	50844
2026-01-07 13:54:31.98	19.92	1.39	-47.8	-62.9	3.6	1.51e+00	0	37	104	0	60	50760
2026-01-07 13:54:32.99	19.96	1.45	-47.8	-62.9	3.6	1.51e+00	0	37	104	0	60	50624
2026-01-07 13:54:34.00	19.99	1.51	-47.8	-63.0	3.6	1.51e+00	0	37	104	0	60	51060
2026-01-07 13:54:35.01	20.02	1.57	-47.8	-63.0	3.6	1.51e+00	0	37	104	0	60	50938
2026-01-07 13:54:36.02	20.06	1.63	-47.8	-63.0	3.6	1.51e+00	0	37	104	0	60	51129
2026-01-07 13:54:37.03	20.09	1.69	-47.8	-63.0	3.6	1.51e+00	0	37	104	0	60	50846
2026-01-07 13:54:38.04	20.13	1.76	-47.8	-63.0	3.6	1.51e+00	0	37	104	0	60	51176
2026-01-07 13:54:39.05	20.16	1.82	-47.8	-63.0	3.6	1.51e+00	0	37	104	0	60	50931
2026-01-07 13:54:40.06	20.20	1.88	-47.8	-63.0	3.6	1.51e+00	0	37	104	0	60	51256
2026-01-07 13:54:41.07	20.23	1.94	-47.8	-63.0	3.6	1.51e+00	0	37	104	0	60	51308
2026-01-07 13:54:42.08	20.26	2.00	-47.8	-62.9	3.6	1.51e+00	0	37	104	0	60	50708
2026-01-07 13:54:43.09	20.30	2.07	-47.8	-62.8	3.6	1.51e+00	0	37	104	0	60	49615
2026-01-07 13:54:44.10	20.33	2.13	-47.8	-62.4	3.6	1.51e+00	0	37	104	0	60	47626
2026-01-07 13:54:45.11	20.37	2.19	-47.8	-62.0	3.6	1.51e+00	0	37	104	0	60	45249
2026-01-07 13:54:46.12	20.41	2.25	-47.8	-61.7	3.6	1.51e+00	0	37	104	0	60	43711
2026-01-07 13:54:47.13	20.44	2.32	-47.8	-61.6	3.6	1.51e+00	0	37	104	0	60	43394
2026-01-07 13:54:48.14	20.48	2.38	-47.8	-62.0	3.6	1.51e+00	0	37	104	0	60	45492
2026-01-07 13:54:49.15	20.51	2.44	-47.8	-62.2	3.6	1.51e+00	0	37	104	0	60	46433
2026-01-07 13:54:50.16	20.55	2.51	-47.7	-61.2	3.6	1.51e+00	0	37	104	0	60	41420
2026-01-07 13:54:51.17	20.58	2.57	-47.6	-58.6	4.3	1.48e+00	25	37	104	0	60	30725
2026-01-07 13:54:52.18	20.62	2.63	-47.2	-54.8	6.1	4.02e-01	0	37	0	1048576	60	19939
2026-01-07 13:54:53.19	20.66	2.70	-46.6	-52.4	9.0	8.52e-02	0	37	0	3145728	60	14990
2026-01-07 13:54:54.20	20.69	2.76	-45.7	-50.0	11.9	6.64e-03	0	37	0	5242880	60	11365
2026-01-07 13:54:55.21	20.73	2.83	-45.1	-48.6	13.3	3.35e-05	0	37	0	7340032	60	9770
2026-01-07 13:54:56.22	20.77	2.89	-44.4	-47.4	14.6	1.50e-06	0	37	0	8388608	60	8494
2026-01-07 13:54:57.23	20.80	2.95	-43.6	-46.1	15.9	0.00e+00	0	37	0	10485760	60	7280
2026-01-07 13:54:58.24	20.84	3.02	-43.1	-45.3	16.5	0.00e+00	0	37	0	12582912	60	6660
2026-01-07 13:54:59.25	20.88	3.08	-43.2	-45.5	16.4	0.00e+00	0	37	0	14680064	60	6817
2026-01-07 13:55:00.26	20.91	3.15	-43.0	-45.2	16.6	0.00e+00	0	37	0	16777216	60	6548
2026-01-07 13:55:01.27	20.95	3.21	-43.4	-45.7	16.2	0.00e+00	0	37	0	18874368	60	6952
2026-01-07 13:55:02.28	20.99	3.28	-44.1	-46.9	15.0	0.00e+00	0	37	0	19922944	60	8028
2026-01-07 13:55:03.29	21.03	3.34	-44.6	-47.7	14.1	7.00e-07	0	37	0	22020096	60	8789
2026-01-07 13:55:04.30	21.06	3.41	-45.4	-49.2	12.4	9.10e-06	0	37	0	24117248	60	10419
2026-01-07 13:55:05.31	21.10	3.47	-46.4	-51.7	9.8	3.00e-03	0	37	0	26214400	60	13925
2026-01-07 13:55:06.31	21.14	3.54	-46.3	-51.2	10.4	5.35e-02	0	37	0	28311552	60	13084
2026-01-07 13:55:07.32	21.18	3.60	-44.9	-48.3	13.4	8.30e-06	0	37	0	29360128	60	9418
2026-01-07 13:55:08.33	21.22	3.67	-47.2	-55.3	6.7	1.48e+00	1	37	104	30408704	60	21042
2026-01-07 13:55:09.35	21.25	3.74	-47.9	-61.3	4.0	1.46e+00	0	37	104	30408704	60	42035
2026-01-07 13:55:10.35	21.29	3.80	-45.1	-48.6	12.1	1.37e+00	0	37	104	30408704	60	9769
2026-01-07 13:55:11.36	21.33	3.87	-47.8	-62.0	3.6	1.51e+00	0	37	104	30408704	60	45316
2026-01-07 13:55:12.37	21.37	3.94	-45.2	-48.8	13.1	2.97e-04	0	37	104	30408704	60	9959
2026-01-07 13:55:13.38	21.41	4.00	-44.8	-48.0	14.1	4.50e-06	0	37	0	31457280	60	9084
2026-01-07 13:55:14.39	21.45	4.07	-44.7	-47.7	14.3	0.00e+00	0	37	0	33554432	60	8747
2026-01-07 13:55:15.40	21.49	4.14	-44.2	-46.8	15.1	7.00e-07	0	37	0	35651584	60	7927
2026-01-07 13:55:16.41	21.53	4.20	-44.1	-46.7	15.6	0.00e+00	0	37	0	37748736	60	7831
2026-01-07 13:55:17.42	21.57	4.27	-43.6	-45.9	16.0	0.00e+00	0	37	0	38797312	60	7153
2026-01-07 13:55:18.43	21.61	4.34	-43.6	-45.9	16.2	0.00e+00	0	37	0	40894464	60	7113
2026-01-07 13:55:19.44	21.65	4.41	-43.4	-45.6	16.6	0.00e+00	0	37	0	42991616	60	6887
2026-01-07 13:55:20.45	21.69	4.47	-43.2	-45.3	16.8	0.00e+00	0	37	0	45088768	60	6652
2026-01-07 13:55:21.46	21.73	4.54	-43.0	-45.0	17.1	0.00e+00	0	37	0	47185920	60	6442
2026-01-07 13:55:22.47	21.77	4.61	-42.8	-44.8	17.3	0.00e+00	0	37	0	49283072	58	7033
2026-01-07 13:55:23.48	21.81	4.68	-42.8	-44.7	17.3	0.00e+00	0	37	0	50331648	58	6999
2026-01-07 13:55:24.49	21.85	4.75	-42.6	-44.4	17.7	0.00e+00	0	37	0	52428800	58	6767
2026-01-07 13:55:25.49	21.89	4.81	-42.2	-44.0	17.8	0.00e+00	0	37	0	54525952	58	6428
2026-01-07 13:55:26.50	21.93	4.88	-41.9	-43.6	18.5	0.00e+00	0	37	0	56623104	58	6127
2026-01-07 13:55:27.51	21.97	4.95	-41.8	-43.5	18.6	0.00e+00	0	37	0	58720256	58	6054
2026-01-07 13:55:28.52	22.02	5.02	-42.4	-44.2	18.0	0.00e+00	0	37	0	59768832	58	6552
2026-01-07 13:55:29.53	22.06	5.09	-42.4	-44.3	17.9	0.00e+00	0	37	0	61865984	58	6632
2026-01-07 13:55:30.54	22.10	5.16	-42.4	-44.3	17.8	0.00e+00	0	37	0	63963136	58	6644
2026-01-07 13:55:31.55	22.14	5.23	-41.9	-43.5	18.5	0.00e+00	0	37	0	66060288	58	6090
2026-01-07 13:55:32.56	22.18	5.30	-41.8	-43.4	18.7	0.00e+00	0	38	0	68157440	56	6693
2026-01-07 13:55:33.57	22.23	5.37	-41.6	-43.2	19.1	0.00e+00	0	37	0	69206016	56	6554
2026-01-07 13:55:34.58	22.27	5.44	-41.3	-42.8	19.4	0.00e+00	0	37	0	71303168	56	6284
2026-01-07 13:55:35.59	22.31	5.51	-41.2	-42.7	19.5	0.00e+00	0	37	0	73400320	56	6214
2026-01-07 13:55:36.60	22.36	5.58	-41.2	-42.7	19.4	0.00e+00	0	37	0	75497472	56	6224
2026-01-07 13:55:37.61	22.40	5.65	-41.1	-42.5	19.6	0.00e+00	0	37	0	77594624	56	6058
2026-01-07 13:55:38.62	22.44	5.72	-41.0	-42.4	19.6	0.00e+00	0	37	0	78643200	56	6009
2026-01-07 13:55:39.63	22.49	5.79	-41.1	-42.6	19.6	0.00e+00	0	37	0	80740352	56	6114
2026-01-07 13:55:40.64	22.53	5.86	-40.9	-42.3	19.9	0.00e+00	0	37	0	82837504	56	5934
2026-01-07 13:55:41.65	22.57	5.93	-41.1	-42.5	19.7	0.00e+00	0	37	0	84934656	56	6086
2026-01-07 13:55:42.66	22.62	6.01	-40.9	-42.3	19.9	0.00e+00	0	37	0	87031808	56	5901
2026-01-07 13:55:43.67	22.66	6.08	-41.1	-42.5	19.8	0.00e+00	0	37	0	88080384	56	6063
2026-01-07 13:55:44.68	22.71	6.15	-40.9	-42.3	19.9	0.00e+00	0	37	0	90177536	56	5932
2026-01-07 13:55:45.69	22.75	6.22	-41.0	-42.4	19.8	0.00e+00	0	37	0	92274688	56	5971
2026-01-07 13:55:46.70	22.80	6.29	-41.1	-42.5	19.7	0.00e+00	0	37	0	94371840	56	6090
2026-01-07 13:55:47.71	22.84	6.37	-41.2	-42.7	19.7	0.00e+00	0	37	0	96468992	56	6207
2026-01-07 13:55:48.72	22.89	6.44	-41.1	-42.5	19.8	0.00e+00	0	38	0	97517568	56	6066
2026-01-07 13:55:49.73	22.93	6.51	-41.2	-42.7	19.6	0.00e+00	0	37	0	99614720	56	6175
2026-01-07 13:55:50.74	22.98	6.58	-41.1	-42.5	19.9	0.00e+00	0	37	0	101711872	56	6061
2026-01-07 13:55:51.74	23.02	6.66	-41.0	-42.5	19.8	0.00e+00	0	37	0	103809024	56	6049
2026-01-07 13:55:52.75	23.07	6.73	-41.1	-42.5	19.8	0.00e+00	0	37	0	105906176	56	6059
2026-01-07 13:55:53.76	23.12	6.80	-41.0	-42.5	19.8	0.00e+00	0	38	0	106954752	56	6041
2026-01-07 13:55:54.77	23.16	6.88	-41.2	-42.7	19.6	0.00e+00	0	37	0	109051904	56	6188
2026-01-07 13:55:55.78	23.21	6.95	-41.1	-42.6	19.8	0.00e+00	0	37	0	111149056	56	6121
2026-01-07 13:55:56.79	23.26	7.03	-41.1	-42.5	19.6	0.00e+00	0	37	0	113246208	56	6087
2026-01-07 13:55:57.80	23.30	7.10	-41.1	-42.6	19.7	0.00e+00	0	38	0	115343360	56	6120
2026-01-07 13:55:58.81	23.35	7.18	-41.1	-42.5	19.8	0.00e+00	0	38	0	117440512	56	6068
2026-01-07 13:55:59.82	23.40	7.25	-41.2	-42.6	19.8	0.00e+00	0	38	0	118489088	56	6141
2026-01-07 13:56:00.83	23.45	7.33	-41.1	-42.5	19.9	0.00e+00	0	37	0	120586240	56	6057
2026-01-07 13:56:01.84	23.50	7.40	-40.9	-42.3	20.1	0.00e+00	0	37	0	122683392	56	5899
2026-01-07 13:56:02.85	23.54	7.48	-40.9	-42.2	20.1	0.00e+00	0	38	0	124780544	56	5888
2026-01-07 13:56:03.86	23.59	7.55	-41.0	-42.5	20.0	0.00e+00	0	38	0	126877696	56	6037
2026-01-07 13:56:04.87	23.64	7.63	-40.8	-42.2	20.1	0.00e+00	0	37	0	127926272	56	5837
2026-01-07 13:56:05.88	23.69	7.70	-40.9	-42.3	20.1	0.00e+00	0	37	0	130023424	56	5915
2026-01-07 13:56:06.89	23.74	7.78	-40.8	-42.2	20.2	0.00e+00	0	37	0	132120576	56	5842
2026-01-07 13:56:07.90	23.79	7.86	-40.6	-41.9	20.4	0.00e+00	0	37	0	134217728	54	6362
2026-01-07 13:56:08.91	23.84	7.93	-40.6	-41.9	20.3	0.00e+00	0	37	0	136314880	54	6376
2026-01-07 13:56:09.92	23.89	8.01	-40.5	-41.8	20.4	0.00e+00	0	38	0	137363456	54	6293
2026-01-07 13:56:10.93	23.94	8.09	-40.5	-41.8	20.6	0.00e+00	0	38	0	139460608	54	6254
2026-01-07 13:56:11.94	23.99	8.17	-40.4	-41.6	20.6	0.00e+00	0	38	0	141557760	54	6165
2026-01-07 13:56:12.94	24.04	8.24	-40.4	-41.7	20.5	0.00e+00	0	37	0	143654912	54	6198
2026-01-07 13:56:13.95	24.09	8.32	-40.4	-41.6	20.7	0.00e+00	0	37	0	145752064	54	6165
2026-01-07 13:56:14.96	24.14	8.40	-40.5	-41.7	20.6	0.00e+00	0	37	0	146800640	54	6239
2026-01-07 13:56:15.97	24.19	8.48	-40.1	-41.3	21.0	0.00e+00	0	37	0	148897792	54	5935
2026-01-07 13:56:16.98	24.24	8.55	-40.1	-41.3	20.9	0.00e+00	0	38	0	150994944	54	5964
2026-01-07 13:56:17.99	24.30	8.63	-40.0	-41.2	21.1	0.00e+00	0	37	0	153092096	54	5846
2026-01-07 13:56:19.00	24.35	8.71	-40.1	-41.3	21.0	0.00e+00	0	38	0	155189248	54	5954
2026-01-07 13:56:20.01	24.40	8.79	-40.2	-41.5	20.7	0.00e+00	0	38	0	156237824	54	6045
2026-01-07 13:56:21.02	24.45	8.87	-40.2	-41.4	20.9	0.00e+00	0	38	0	158334976	54	5968
2026-01-07 13:56:22.03	24.51	8.95	-39.9	-41.1	21.0	0.00e+00	0	38	0	160432128	54	5808
2026-01-07 13:56:23.04	24.56	9.03	-39.8	-40.9	21.3	0.00e+00	0	37	0	162529280	54	5669
2026-01-07 13:56:24.04	24.61	9.11	-39.8	-41.0	21.3	0.00e+00	0	38	0	164626432	52	6396
2026-01-07 13:56:25.05	24.67	9.19	-39.6	-40.7	21.5	0.00e+00	0	37	0	165675008	52	6238
2026-01-07 13:56:26.06	24.72	9.27	-39.8	-40.9	21.4	0.00e+00	0	38	0	167772160	52	6356
2026-01-07 13:56:27.08	24.78	9.35	-39.6	-40.7	21.6	0.00e+00	0	38	0	169869312	52	6218
2026-01-07 13:56:28.08	24.83	9.43	-39.5	-40.6	21.5	0.00e+00	0	38	0	171966464	52	6138
2026-01-07 13:56:29.09	24.89	9.51	-39.8	-41.0	21.4	0.00e+00	0	38	0	174063616	52	6392
2026-01-07 13:56:30.10	24.94	9.60	-39.7	-40.8	21.5	0.00e+00	0	38	0	175112192	52	6303
2026-01-07 13:56:31.11	25.00	9.68	-39.6	-40.7	21.6	0.00e+00	0	38	0	177209344	52	6214
2026-01-07 13:56:32.12	25.05	9.76	-39.6	-40.7	21.6	0.00e+00	0	38	0	179306496	52	6186
2026-01-07 13:56:33.13	25.11	9.84	-39.7	-40.9	21.4	0.00e+00	0	38	0	181403648	52	6329
2026-01-07 13:56:34.14	25.16	9.93	-39.6	-40.8	21.5	0.00e+00	0	38	0	183500800	52	6255
2026-01-07 13:56:35.15	25.22	10.01	-39.6	-40.7	21.6	0.00e+00	0	38	0	185597952	52	6190
2026-01-07 13:56:36.16	25.28	10.09	-39.9	-41.1	21.2	0.00e+00	0	38	0	186646528	52	6473
2026-01-07 13:56:37.17	25.33	10.18	-39.7	-40.9	21.4	0.00e+00	0	38	0	188743680	52	6343
2026-01-07 13:56:38.18	25.39	10.26	-39.3	-40.3	21.9	0.00e+00	0	38	0	190840832	52	5951
2026-01-07 13:56:39.19	25.45	10.34	-39.4	-40.5	21.8	0.00e+00	0	38	0	192937984	52	6075
2026-01-07 13:56:40.20	25.51	10.43	-39.6	-40.7	21.7	0.00e+00	0	38	0	193986560	52	6189
2026-01-07 13:56:41.21	25.57	10.51	-39.4	-40.5	21.9	0.00e+00	0	38	0	196083712	52	6095
2026-01-07 13:56:42.22	25.63	10.60	-39.5	-40.6	21.7	0.00e+00	0	38	0	198180864	52	6108
2026-01-07 13:56:43.23	25.68	10.68	-39.3	-40.4	21.9	0.00e+00	0	38	0	200278016	52	5985
2026-01-07 13:56:44.24	25.74	10.77	-39.4	-40.5	21.8	0.00e+00	0	38	0	202375168	52	6084
2026-01-07 13:56:45.24	25.80	10.85	-39.4	-40.5	21.8	0.00e+00	0	38	0	203423744	52	6078
2026-01-07 13:56:46.26	25.86	10.94	-39.3	-40.3	21.9	0.00e+00	0	38	0	205520896	52	5959
2026-01-07 13:56:47.26	25.92	11.02	-39.3	-40.3	21.9	0.00e+00	0	38	0	207618048	52	5960
2026-01-07 13:56:48.27	25.98	11.11	-39.5	-40.6	21.8	0.00e+00	0	38	0	209715200	52	6143
2026-01-07 13:56:49.28	26.04	11.20	-39.3	-40.4	21.9	0.00e+00	0	38	0	211812352	52	5989
2026-01-07 13:56:50.29	26.11	11.28	-39.2	-40.3	22.0	0.00e+00	0	38	0	213909504	52	5913
2026-01-07 13:56:51.30	26.17	11.37	-38.9	-40.0	22.4	0.00e+00	0	38	0	214958080	52	5712
2026-01-07 13:56:52.31	26.23	11.46	-39.0	-40.1	22.2	0.00e+00	0	38	0	217055232	52	5778
2026-01-07 13:56:53.32	26.29	11.55	-39.0	-40.0	22.3	0.00e+00	0	38	0	219152384	52	5717
2026-01-07 13:56:54.33	26.35	11.63	-39.1	-40.2	22.1	0.00e+00	0	38	0	221249536	52	5863
2026-01-07 13:56:55.34	26.42	11.72	-39.0	-40.1	22.3	0.00e+00	0	38	0	223346688	52	5769
2026-01-07 13:56:56.35	26.48	11.81	-39.0	-40.1	22.2	0.00e+00	0	38	0	224395264	52	5776
2026-01-07 13:56:57.36	26.55	11.90	-38.7	-39.7	22.4	0.00e+00	0	38	0	226492416	50	6244
2026-01-07 13:56:58.37	26.61	11.99	-38.7	-39.7	22.4	0.00e+00	0	38	0	228589568	50	6224
2026-01-07 13:56:59.38	26.67	12.08	-38.6	-39.6	22.5	0.00e+00	0	38	0	230686720	50	6159
2026-01-07 13:57:00.39	26.74	12.17	-38.6	-39.6	22.5	0.00e+00	0	38	0	232783872	50	6132
2026-01-07 13:57:01.40	26.80	12.26	-38.5	-39.5	22.7	0.00e+00	0	38	0	233832448	50	6075
2026-01-07 13:57:02.41	26.87	12.35	-38.7	-39.7	22.6	0.00e+00	0	38	0	235929600	50	6197
2026-01-07 13:57:03.42	26.94	12.44	-38.5	-39.5	22.7	0.00e+00	0	38	0	238026752	50	6098
2026-01-07 13:57:04.43	27.00	12.53	-38.5	-39.5	22.7	0.00e+00	0	38	0	240123904	50	6046
2026-01-07 13:57:05.43	27.07	12.62	-38.5	-39.5	22.6	0.00e+00	0	38	0	242221056	50	6077
2026-01-07 13:57:06.44	27.13	12.71	-38.3	-39.2	22.9	0.00e+00	0	38	0	243269632	50	5887
2026-01-07 13:57:07.45	27.20	12.80	-38.4	-39.4	22.8	0.00e+00	0	38	0	245366784	50	6004
2026-01-07 13:57:08.46	27.27	12.90	-38.3	-39.2	23.0	0.00e+00	0	38	0	247463936	50	5871
2026-01-07 13:57:09.47	27.34	12.99	-38.2	-39.2	23.0	0.00e+00	0	38	0	249561088	50	5869
2026-01-07 13:57:10.48	27.41	13.08	-38.2	-39.1	23.0	0.00e+00	0	38	0	251658240	50	5794
2026-01-07 13:57:11.49	27.48	13.18	-38.1	-39.1	23.0	0.00e+00	0	38	0	252706816	50	5774
2026-01-07 13:57:12.50	27.55	13.27	-38.2	-39.2	22.8	0.00e+00	0	38	0	254803968	50	5864
2026-01-07 13:57:13.51	27.62	13.36	-38.0	-39.0	23.2	0.00e+00	0	38	0	256901120	50	5712
2026-01-07 13:57:14.52	27.69	13.46	-38.0	-38.9	23.2	0.00e+00	0	38	0	258998272	50	5676
2026-01-07 13:57:15.53	27.76	13.55	-38.0	-38.9	23.2	0.00e+00	0	38	0	261095424	50	5653
2026-01-07 13:57:16.54	27.83	13.65	-37.9	-38.9	23.2	0.00e+00	0	38	0	262144000	50	5649
2026-01-07 13:57:17.55	27.90	13.74	-37.8	-38.7	23.3	0.00e+00	0	38	0	264241152	48	6241
2026-01-07 13:57:18.56	27.97	13.84	-37.9	-38.8	23.4	0.00e+00	0	38	0	266338304	48	6276
2026-01-07 13:57:19.57	28.04	13.93	-37.7	-38.6	23.4	0.00e+00	0	38	0	268435456	48	6122
2026-01-07 13:57:20.58	28.12	14.03	-37.6	-38.5	23.5	0.00e+00	0	38	0	270532608	48	6075
2026-01-07 13:57:21.59	28.19	14.13	-37.6	-38.5	23.6	0.00e+00	0	38	0	271581184	48	6072
2026-01-07 13:57:22.60	28.26	14.22	-37.7	-38.6	23.4	0.00e+00	0	38	0	273678336	48	6133
2026-01-07 13:57:23.61	28.34	14.32	-37.6	-38.5	23.5	0.00e+00	0	38	0	275775488	48	6076
2026-01-07 13:57:24.62	28.41	14.42	-37.7	-38.6	23.5	0.00e+00	0	38	0	277872640	48	6117
2026-01-07 13:57:25.63	28.49	14.52	-37.8	-38.7	23.4	0.00e+00	0	38	0	279969792	48	6200
2026-01-07 13:57:26.64	28.56	14.62	-37.9	-38.8	23.3	0.00e+00	0	38	0	282066944	48	6291
2026-01-07 13:57:27.65	28.64	14.71	-38.2	-39.2	23.1	0.00e+00	0	38	0	283115520	48	6547
2026-01-07 13:57:28.66	28.72	14.81	-37.7	-38.6	23.5	0.00e+00	0	38	0	285212672	48	6128
2026-01-07 13:57:29.67	28.79	14.91	-37.5	-38.4	23.6	0.00e+00	0	38	0	287309824	48	6021
2026-01-07 13:57:30.68	28.87	15.01	-37.4	-38.3	23.7	0.00e+00	0	38	0	289406976	48	5908
2026-01-07 13:57:31.69	28.95	15.11	-37.4	-38.3	23.6	0.00e+00	0	38	0	291504128	48	5935
2026-01-07 13:57:32.70	29.03	15.21	-37.4	-38.3	23.7	0.00e+00	0	38	0	292552704	48	5916
2026-01-07 13:57:33.71	29.11	15.31	-37.4	-38.3	23.6	0.00e+00	0	38	0	294649856	48	5938
2026-01-07 13:57:34.72	29.19	15.42	-37.4	-38.2	23.6	0.00e+00	0	38	0	296747008	48	5895
2026-01-07 13:57:35.73	29.27	15.52	-37.3	-38.2	23.8	0.00e+00	0	38	0	298844160	48	5871
2026-01-07 13:57:36.74	29.35	15.62	-37.4	-38.3	23.7	0.00e+00	0	38	0	300941312	48	5911
2026-01-07 13:57:37.75	29.43	15.72	-37.1	-38.0	24.0	0.00e+00	0	38	0	301989888	48	5716
2026-01-07 13:57:38.76	29.51	15.82	-37.3	-38.1	23.9	0.00e+00	0	38	0	304087040	48	5825
2026-01-07 13:57:39.77	29.59	15.93	-37.4	-38.2	23.8	0.00e+00	0	38	0	306184192	48	5887
2026-01-07 13:57:40.78	29.68	16.03	-37.2	-38.0	23.9	0.00e+00	0	38	0	308281344	48	5741
2026-01-07 13:57:41.79	29.76	16.14	-37.4	-38.2	23.8	0.00e+00	0	38	0	310378496	48	5895
2026-01-07 13:57:42.80	29.84	16.24	-37.3	-38.1	23.9	0.00e+00	0	38	0	311427072	48	5815
2026-01-07 13:57:43.81	29.93	16.34	-37.2	-38.0	23.8	0.00e+00	0	38	0	313524224	48	5748
2026-01-07 13:57:44.82	30.01	16.45	-37.3	-38.2	23.8	0.00e+00	0	38	0	315621376	48	5880
2026-01-07 13:57:45.83	30.10	16.56	-37.4	-38.3	23.7	0.00e+00	0	38	0	317718528	48	5916
2026-01-07 13:57:46.84	30.18	16.66	-37.6	-38.5	23.6	0.00e+00	0	38	0	319815680	48	6066
2026-01-07 13:57:47.85	30.27	16.77	-37.5	-38.4	23.7	0.00e+00	0	38	0	320864256	48	6020
2026-01-07 13:57:48.86	30.36	16.87	-37.8	-38.8	23.5	0.00e+00	0	38	0	322961408	48	6257
2026-01-07 13:57:49.87	30.44	16.98	-37.9	-38.8	23.3	0.00e+00	0	38	0	325058560	48	6276
2026-01-07 13:57:50.88	30.53	17.09	-37.9	-38.8	23.4	0.00e+00	0	38	0	327155712	48	6277
2026-01-07 13:57:51.89	30.62	17.20	-38.1	-39.0	23.3	0.00e+00	0	38	0	329252864	48	6425
2026-01-07 13:57:52.90	30.71	17.31	-38.2	-39.1	23.0	0.00e+00	0	38	0	331350016	48	6534
2026-01-07 13:57:53.91	30.80	17.42	-38.0	-38.9	23.2	0.00e+00	0	38	0	332398592	48	6348
2026-01-07 13:57:54.92	30.89	17.52	-38.2	-39.1	23.0	0.00e+00	0	38	0	334495744	48	6536
2026-01-07 13:57:55.93	30.98	17.63	-38.2	-39.1	23.1	0.00e+00	0	38	0	336592896	48	6520
2026-01-07 13:57:56.94	31.08	17.74	-38.2	-39.2	23.0	0.00e+00	0	37	0	338690048	48	6540
2026-01-07 13:57:57.94	31.17	17.85	-38.3	-39.2	23.0	0.00e+00	0	38	0	339738624	48	6596
2026-01-07 13:57:58.95	31.26	17.96	-38.3	-39.3	22.9	0.00e+00	0	38	0	341835776	48	6652
2026-01-07 13:57:59.96	31.36	18.08	-38.3	-39.2	23.1	0.00e+00	0	38	0	343932928	48	6609
2026-01-07 13:58:00.97	31.45	18.19	-38.2	-39.2	23.1	0.00e+00	0	38	0	346030080	48	6566
2026-01-07 13:58:01.98	31.55	18.30	-38.4	-39.4	22.9	0.00e+00	0	38	0	348127232	48	6693
2026-01-07 13:58:02.99	31.64	18.41	-38.5	-39.5	22.8	0.00e+00	0	38	0	350224384	48	6776
2026-01-07 13:58:04.00	31.74	18.53	-38.6	-39.6	22.8	0.00e+00	0	38	0	351272960	50	6116
2026-01-07 13:58:05.01	31.84	18.64	-38.5	-39.5	22.8	0.00e+00	0	38	0	353370112	50	6082
2026-01-07 13:58:06.02	31.93	18.75	-38.5	-39.5	22.8	0.00e+00	0	38	0	355467264	50	6082
2026-01-07 13:58:07.03	32.03	18.87	-38.9	-39.9	22.5	0.00e+00	0	38	0	357564416	50	6379
2026-01-07 13:58:08.04	32.13	18.98	-38.8	-39.7	22.8	0.00e+00	0	38	0	359661568	50	6245
2026-01-07 13:58:09.05	32.23	19.10	-38.7	-39.7	22.6	0.00e+00	0	38	0	360710144	50	6228
2026-01-07 13:58:10.06	32.33	19.22	-38.9	-39.9	22.8	0.00e+00	0	38	0	362807296	50	6323
2026-01-07 13:58:11.07	32.43	19.33	-38.3	-39.2	22.9	0.00e+00	0	38	0	364904448	50	5877
2026-01-07 13:58:12.08	32.54	19.45	-38.5	-39.4	23.0	0.00e+00	0	37	0	367001600	50	6000
2026-01-07 13:58:13.09	32.64	19.57	-38.0	-39.0	23.4	0.00e+00	0	38	0	369098752	50	5697
2026-01-07 13:58:14.10	32.74	19.68	-38.1	-39.0	23.2	0.00e+00	0	38	0	370147328	50	5739
2026-01-07 13:58:15.11	32.85	19.80	-38.0	-38.9	23.3	0.00e+00	0	38	0	372244480	50	5683
2026-01-07 13:58:16.12	32.95	19.92	-38.2	-39.1	23.1	0.00e+00	0	38	0	374341632	50	5823
2026-01-07 13:58:17.13	33.06	20.04	-38.4	-39.4	23.0	0.00e+00	0	38	0	376438784	50	5975
2026-01-07 13:58:18.14	33.17	20.16	-38.4	-39.3	23.1	0.00e+00	0	38	0	378535936	50	5941
2026-01-07 13:58:19.15	33.28	20.28	-38.5	-39.5	22.8	0.00e+00	0	38	0	379584512	50	6063
2026-01-07 13:58:20.16	33.38	20.40	-38.3	-39.2	23.1	0.00e+00	0	38	0	381681664	50	5880
2026-01-07 13:58:21.17	33.49	20.52	-38.3	-39.3	23.1	0.00e+00	0	38	0	383778816	50	5921
2026-01-07 13:58:22.18	33.60	20.64	-38.5	-39.5	22.9	0.00e+00	0	38	0	385875968	50	6036
2026-01-07 13:58:23.19	33.72	20.77	-38.4	-39.3	23.0	0.00e+00	0	38	0	387973120	50	5934
2026-01-07 13:58:24.20	33.83	20.89	-38.4	-39.4	22.9	0.00e+00	0	38	0	390070272	50	6007
2026-01-07 13:58:25.21	33.94	21.01	-38.3	-39.3	23.1	0.00e+00	0	38	0	391118848	50	5899
2026-01-07 13:58:26.22	34.05	21.14	-38.4	-39.4	23.0	0.00e+00	0	37	0	393216000	50	5980
2026-01-07 13:58:27.23	34.17	21.26	-38.3	-39.2	23.1	0.00e+00	0	38	0	395313152	50	5881
2026-01-07 13:58:28.24	34.28	21.38	-38.4	-39.3	23.0	0.00e+00	0	38	0	397410304	50	5942
2026-01-07 13:58:29.25	34.40	21.51	-38.4	-39.3	22.9	0.00e+00	0	38	0	399507456	50	5932
2026-01-07 13:58:30.26	34.52	21.64	-38.1	-39.0	23.0	0.00e+00	0	38	0	400556032	50	5757
2026-01-07 13:58:31.27	34.64	21.76	-38.2	-39.1	23.1	0.00e+00	0	38	0	402653184	50	5807
2026-01-07 13:58:32.28	34.76	21.89	-38.3	-39.2	23.1	0.00e+00	0	38	0	404750336	50	5841
2026-01-07 13:58:33.29	34.88	22.02	-37.9	-38.8	23.5	0.00e+00	0	38	0	406847488	50	5606
2026-01-07 13:58:34.30	35.00	22.14	-38.0	-38.9	23.4	0.00e+00	0	38	0	408944640	48	6383
2026-01-07 13:58:35.31	35.12	22.27	-37.8	-38.7	23.5	0.00e+00	0	38	0	409993216	48	6224
2026-01-07 13:58:36.32	35.24	22.40	-38.0	-38.9	23.6	0.00e+00	0	38	0	412090368	48	6328
2026-01-07 13:58:37.33	35.37	22.53	-37.7	-38.6	23.6	0.00e+00	0	38	0	414187520	48	6120
2026-01-07 13:58:38.34	35.49	22.66	-37.9	-38.8	23.5	0.00e+00	0	38	0	416284672	48	6309
2026-01-07 13:58:39.35	35.62	22.79	-37.9	-38.8	23.5	0.00e+00	0	38	0	418381824	48	6287
2026-01-07 13:58:40.36	35.74	22.92	-38.2	-39.2	23.1	0.00e+00	0	38	0	419430400	48	6555
2026-01-07 13:58:41.37	35.87	23.05	-38.1	-39.0	23.3	0.00e+00	0	38	0	421527552	48	6415
2026-01-07 13:58:42.38	36.00	23.18	-38.2	-39.1	23.2	0.00e+00	0	38	0	423624704	48	6493
2026-01-07 13:58:43.39	36.13	23.32	-38.4	-39.3	23.2	0.00e+00	0	38	0	425721856	48	6639
2026-01-07 13:58:44.40	36.26	23.45	-38.0	-38.9	23.3	0.00e+00	0	38	0	427819008	48	6365
2026-01-07 13:58:45.41	36.40	23.58	-38.1	-39.0	23.3	0.00e+00	0	38	0	428867584	48	6446
2026-01-07 13:58:46.42	36.53	23.72	-38.3	-39.2	23.0	0.00e+00	0	38	0	430964736	48	6598
2026-01-07 13:58:47.43	36.66	23.85	-38.2	-39.1	23.3	0.00e+00	0	38	0	433061888	48	6503
2026-01-07 13:58:48.44	36.80	23.99	-38.3	-39.2	23.2	0.00e+00	0	38	0	435159040	48	6588
2026-01-07 13:58:49.45	36.94	24.12	-38.3	-39.2	23.1	0.00e+00	0	38	0	437256192	48	6576
2026-01-07 13:58:50.46	37.07	24.26	-38.5	-39.4	23.1	0.00e+00	0	38	0	438304768	48	6729
2026-01-07 13:58:51.47	37.21	24.40	-38.2	-39.1	23.3	0.00e+00	0	38	0	440401920	48	6488
2026-01-07 13:58:52.48	37.35	24.53	-38.4	-39.3	22.9	0.00e+00	0	38	0	442499072	48	6685
2026-01-07 13:58:53.49	37.49	24.67	-38.3	-39.2	23.2	0.00e+00	0	38	0	444596224	48	6592
2026-01-07 13:58:54.50	37.64	24.81	-38.3	-39.3	23.1	0.00e+00	0	38	0	446693376	48	6628
2026-01-07 13:58:55.50	37.78	24.95	-38.6	-39.6	23.0	0.00e+00	0	38	0	447741952	48	6853
2026-01-07 13:58:56.51	37.92	25.09	-38.4	-39.4	22.9	0.00e+00	0	38	0	449839104	48	6708
2026-01-07 13:58:57.52	38.07	25.23	-38.6	-39.5	22.8	0.00e+00	0	38	0	451936256	48	6841
2026-01-07 13:58:58.53	38.22	25.37	-38.2	-39.1	23.0	0.00e+00	0	38	0	454033408	50	5797
2026-01-07 13:58:59.54	38.37	25.51	-38.8	-39.7	22.8	0.00e+00	0	38	0	456130560	50	6238
2026-01-07 13:59:00.55	38.52	25.65	-38.9	-39.9	22.6	0.00e+00	0	38	0	458227712	50	6324
2026-01-07 13:59:01.56	38.67	25.79	-39.2	-40.2	22.3	0.00e+00	0	38	0	459276288	50	6588
2026-01-07 13:59:02.57	38.82	25.94	-39.2	-40.3	22.4	0.00e+00	0	38	0	461373440	50	6625
2026-01-07 13:59:03.58	38.98	26.08	-39.1	-40.1	22.5	0.00e+00	0	38	0	463470592	50	6514
2026-01-07 13:59:04.59	39.13	26.23	-39.3	-40.3	22.3	0.00e+00	0	38	0	465567744	50	6675
2026-01-07 13:59:05.60	39.29	26.37	-39.2	-40.3	22.4	0.00e+00	0	38	0	466616320	50	6625
2026-01-07 13:59:06.61	39.45	26.52	-39.0	-40.0	22.5	0.00e+00	0	38	0	468713472	50	6410
2026-01-07 13:59:07.62	39.61	26.66	-39.0	-40.0	22.6	0.00e+00	0	38	0	470810624	50	6440
2026-01-07 13:59:08.63	39.77	26.81	-39.0	-40.0	22.6	0.00e+00	0	38	0	472907776	50	6421
2026-01-07 13:59:09.64	39.93	26.95	-38.8	-39.8	22.7	0.00e+00	0	38	0	475004928	50	6292
2026-01-07 13:59:10.65	40.10	27.10	-38.8	-39.7	22.9	0.00e+00	0	38	0	477102080	50	6230
2026-01-07 13:59:11.66	40.26	27.25	-39.0	-40.0	22.7	0.00e+00	0	38	0	478150656	50	6405
2026-01-07 13:59:12.67	40.43	27.40	-38.9	-39.9	22.7	0.00e+00	0	38	0	480247808	50	6364
2026-01-07 13:59:13.68	40.60	27.55	-39.1	-40.1	22.5	0.00e+00	0	38	0	482344960	50	6490
2026-01-07 13:59:14.69	40.77	27.70	-39.4	-40.4	22.0	0.00e+00	0	38	0	484442112	50	6736
2026-01-07 13:59:15.69	40.94	27.85	-39.5	-40.5	21.7	0.00e+00	0	38	0	486539264	50	6832
2026-01-07 13:59:16.71	41.11	28.00	-39.7	-40.8	22.0	0.00e+00	0	38	0	487587840	52	6259
2026-01-07 13:59:17.72	41.29	28.15	-39.4	-40.4	22.3	0.00e+00	0	38	0	489684992	52	6002
2026-01-07 13:59:18.73	41.46	28.30	-39.2	-40.2	22.5	0.00e+00	0	38	0	491782144	52	5890
2026-01-07 13:59:19.74	41.64	28.45	-39.2	-40.2	22.5	0.00e+00	0	38	0	493879296	52	5863
2026-01-07 13:59:20.74	41.82	28.61	-39.0	-40.0	22.6	0.00e+00	0	38	0	495976448	52	5700
2026-01-07 13:59:21.75	42.00	28.76	-38.9	-39.9	22.7	0.00e+00	0	38	0	497025024	52	5649
2026-01-07 13:59:22.76	42.18	28.91	-39.0	-40.0	22.7	0.00e+00	0	38	0	499122176	52	5700
2026-01-07 13:59:23.77	42.37	29.07	-38.8	-39.7	22.8	0.00e+00	0	38	0	501219328	52	5542
2026-01-07 13:59:24.78	42.56	29.22	-38.9	-39.8	22.8	0.00e+00	0	38	0	503316480	52	5608
2026-01-07 13:59:25.79	42.74	29.38	-38.6	-39.5	22.9	0.00e+00	0	38	0	505413632	50	6089
2026-01-07 13:59:26.80	42.93	29.54	-38.7	-39.7	22.8	0.00e+00	0	38	0	506462208	50	6174
2026-01-07 13:59:27.81	43.13	29.69	-38.8	-39.8	22.7	0.00e+00	0	38	0	508559360	50	6246
2026-01-07 13:59:28.82	43.32	29.85	-39.0	-40.0	22.5	0.00e+00	0	38	0	510656512	50	6444
2026-01-07 13:59:29.83	43.52	30.01	-38.9	-39.9	22.6	0.00e+00	0	38	0	512753664	50	6347
2026-01-07 13:59:30.84	43.71	30.17	-39.5	-40.5	22.3	0.00e+00	0	38	0	514850816	50	6783
2026-01-07 13:59:31.85	43.91	30.33	-39.3	-40.3	22.2	0.00e+00	0	38	0	515899392	50	6679
2026-01-07 13:59:32.86	44.11	30.49	-39.0	-40.0	22.6	0.00e+00	0	38	0	517996544	50	6419
2026-01-07 13:59:33.87	44.32	30.65	-39.7	-40.8	22.2	0.00e+00	0	38	0	520093696	52	6270
2026-01-07 13:59:34.88	44.52	30.81	-39.6	-40.6	22.2	0.00e+00	0	38	0	522190848	52	6144
2026-01-07 13:59:35.89	44.73	30.97	-39.6	-40.6	22.1	0.00e+00	0	38	0	524288000	52	6134
2026-01-07 13:59:36.90	44.94	31.13	-39.9	-41.0	21.7	0.00e+00	0	38	0	525336576	52	6443
2026-01-07 13:59:37.90	45.15	31.29	-40.0	-41.1	21.7	0.00e+00	0	38	0	527433728	52	6489
2026-01-07 13:59:38.91	45.36	31.45	-40.0	-41.1	21.8	0.00e+00	0	38	0	529530880	52	6476
2026-01-07 13:59:39.92	45.58	31.61	-39.8	-40.9	21.9	0.00e+00	0	38	0	531628032	52	6355
2026-01-07 13:59:40.93	45.80	31.78	-39.8	-40.9	21.9	0.00e+00	0	38	0	533725184	52	6371
2026-01-07 13:59:41.94	46.02	31.94	-39.5	-40.5	22.3	0.00e+00	0	38	0	534773760	52	6066
2026-01-07 13:59:42.95	46.24	32.11	-39.5	-40.6	22.0	0.00e+00	0	38	0	536870912	52	6141
2026-01-07 13:59:43.96	46.46	32.27	-39.0	-40.0	22.7	0.00e+00	0	38	0	538968064	52	5710
2026-01-07 13:59:44.97	46.69	32.44	-38.5	-39.5	22.9	0.00e+00	0	38	0	541065216	50	6044
2026-01-07 13:59:45.98	46.92	32.60	-38.5	-39.5	22.2	0.00e+00	0	38	0	543162368	50	6039
2026-01-07 13:59:46.99	47.15	32.77	-38.7	-39.7	22.7	0.00e+00	0	38	0	544210944	50	6179
2026-01-07 13:59:48.00	47.38	32.93	-38.6	-39.5	22.8	0.00e+00	0	38	0	546308096	50	6080
2026-01-07 13:59:49.01	47.62	33.10	-38.9	-39.8	22.7	0.00e+00	0	38	0	548405248	50	6299
2026-01-07 13:59:50.02	47.86	33.27	-39.3	-40.3	22.7	0.00e+00	0	38	0	550502400	50	6650
2026-01-07 13:59:51.03	48.10	33.44	-39.0	-40.0	22.6	0.00e+00	0	38	0	552599552	50	6428
2026-01-07 13:59:52.04	48.34	33.60	-39.0	-39.9	22.6	0.00e+00	0	38	0	554696704	50	6368
2026-01-07 13:59:53.05	48.59	33.77	-39.2	-40.1	22.4	0.00e+00	0	38	0	555745280	50	6529
2026-01-07 13:59:54.06	48.84	33.94	-39.5	-40.5	22.2	0.00e+00	0	38	0	557842432	50	6808
2026-01-07 13:59:55.07	49.09	34.11	-39.4	-40.4	22.2	0.00e+00	0	38	0	559939584	50	6718
2026-01-07 13:59:56.08	49.34	34.28	-39.4	-40.5	22.2	0.00e+00	0	38	0	562036736	50	6788
2026-01-07 13:59:57.09	49.60	34.45	-39.4	-40.5	22.2	0.00e+00	0	38	0	564133888	50	6806
2026-01-07 13:59:58.10	49.85	34.62	-39.2	-40.2	22.5	0.00e+00	0	38	0	565182464	50	6600
2026-01-07 13:59:59.11	50.12	34.79	-39.2	-40.3	22.4	0.00e+00	0	38	0	567279616	50	6624
2026-01-07 14:00:00.12	50.38	34.96	-38.8	-39.8	22.7	0.00e+00	0	38	0	569376768	50	6289
2026-01-07 14:00:01.13	50.65	35.13	-38.7	-39.6	23.0	0.00e+00	0	38	0	571473920	50	6140
2026-01-07 14:00:02.14	50.91	35.30	-38.6	-39.5	22.8	0.00e+00	0	38	0	573571072	50	6098
2026-01-07 14:00:03.15	51.19	35.48	-38.5	-39.4	23.2	0.00e+00	0	38	0	574619648	50	5998
2026-01-07 14:00:04.16	51.46	35.65	-38.5	-39.5	23.1	0.00e+00	0	38	0	576716800	50	6036
2026-01-07 14:00:05.16	51.74	35.82	-38.7	-39.7	23.1	0.00e+00	0	38	0	578813952	50	6176
2026-01-07 14:00:06.17	52.02	35.99	-38.7	-39.7	22.8	0.00e+00	0	38	0	580911104	50	6197
2026-01-07 14:00:07.18	52.30	36.16	-38.6	-39.6	23.0	0.00e+00	0	38	0	583008256	50	6121
2026-01-07 14:00:08.19	52.59	36.33	-38.6	-39.5	23.0	0.00e+00	0	38	0	584056832	50	6053
2026-01-07 14:00:09.20	52.88	36.51	-38.7	-39.7	22.9	0.00e+00	0	38	0	586153984	50	6177
2026-01-07 14:00:10.21	53.17	36.68	-37.7	-38.5	23.6	0.00e+00	0	38	0	588251136	50	5437
2026-01-07 14:00:11.22	53.47	36.85	-37.3	-38.2	24.1	0.00e+00	0	38	0	590348288	48	5832
2026-01-07 14:00:12.23	53.76	37.02	-37.2	-38.0	24.2	0.00e+00	0	38	0	592445440	48	5710
2026-01-07 14:00:13.24	54.07	37.20	-37.3	-38.1	24.1	0.00e+00	0	38	0	593494016	48	5791
2026-01-07 14:00:14.25	54.37	37.37	-37.6	-38.4	23.9	0.00e+00	0	38	0	595591168	48	6005
2026-01-07 14:00:15.25	54.68	37.54	-37.7	-38.6	23.8	0.00e+00	0	38	0	597688320	48	6122
2026-01-07 14:00:16.27	54.99	37.72	-37.6	-38.5	23.9	0.00e+00	0	38	0	599785472	48	6054
2026-01-07 14:00:17.27	55.30	37.89	-38.0	-38.9	23.4	0.00e+00	0	38	0	601882624	48	6381
2026-01-07 14:00:18.28	55.62	38.06	-38.4	-39.4	23.1	0.00e+00	0	38	0	602931200	48	6699
2026-01-07 14:00:19.29	55.94	38.23	-38.4	-39.3	23.1	0.00e+00	0	38	0	605028352	48	6639
2026-01-07 14:00:20.30	56.27	38.41	-38.7	-39.7	22.8	0.00e+00	0	38	0	607125504	48	6960
2026-01-07 14:00:21.31	56.60	38.58	-38.8	-39.8	22.8	0.00e+00	0	38	0	609222656	50	6267
2026-01-07 14:00:22.32	56.93	38.75	-38.9	-39.9	22.8	0.00e+00	0	38	0	611319808	50	6323
2026-01-07 14:00:23.33	57.26	38.92	-38.5	-39.4	23.1	0.00e+00	0	38	0	612368384	50	6011
2026-01-07 14:00:24.34	57.60	39.09	-38.7	-39.6	23.0	0.00e+00	0	38	0	614465536	50	6145
2026-01-07 14:00:25.35	57.94	39.27	-38.6	-39.6	23.0	0.00e+00	0	38	0	616562688	50	6121
2026-01-07 14:00:26.36	58.29	39.44	-38.5	-39.5	23.0	0.00e+00	0	38	0	618659840	50	6076
2026-01-07 14:00:27.37	58.64	39.61	-37.9	-38.8	23.6	0.00e+00	0	38	0	620756992	50	5618
2026-01-07 14:00:28.38	58.99	39.78	-37.3	-38.1	24.1	0.00e+00	0	38	0	622854144	48	5806
2026-01-07 14:00:29.39	59.35	39.95	-37.4	-38.3	23.7	0.00e+00	0	38	0	623902720	48	5901
2026-01-07 14:00:30.40	59.71	40.12	-38.5	-39.5	22.6	0.00e+00	0	38	0	625999872	48	6828
2026-01-07 14:00:31.41	60.07	40.29	-39.5	-40.5	22.3	0.00e+00	0	38	0	628097024	50	6844
2026-01-07 14:00:32.42	60.44	40.46	-39.8	-40.9	22.0	0.00e+00	0	38	0	630194176	52	6339
2026-01-07 14:00:33.42	60.81	40.62	-39.5	-40.5	22.2	0.00e+00	0	38	0	632291328	52	6103
2026-01-07 14:00:34.43	61.19	40.79	-38.6	-39.5	23.1	0.00e+00	0	38	0	633339904	52	5419
2026-01-07 14:00:35.45	61.57	40.96	-37.8	-38.7	23.7	0.00e+00	0	38	0	635437056	50	5508
2026-01-07 14:00:36.45	61.95	41.13	-37.5	-38.4	23.8	0.00e+00	0	38	0	637534208	48	6005
2026-01-07 14:00:37.46	62.34	41.29	-38.0	-39.0	23.5	0.00e+00	0	38	0	639631360	48	6411
2026-01-07 14:00:38.48	62.73	41.46	-38.3	-39.2	23.3	0.00e+00	0	38	0	641728512	48	6591
2026-01-07 14:00:39.48	63.12	41.62	-37.8	-38.7	23.7	0.00e+00	0	38	0	642777088	48	6191
2026-01-07 14:00:40.49	63.52	41.79	-37.7	-38.6	23.7	0.00e+00	0	38	0	644874240	48	6121
2026-01-07 14:00:41.50	63.93	41.95	-37.6	-38.4	23.8	0.00e+00	0	38	0	646971392	48	5990
2026-01-07 14:00:42.51	64.33	42.11	-38.1	-39.0	23.4	0.00e+00	0	38	0	649068544	48	6441
2026-01-07 14:00:43.52	64.74	42.27	-38.7	-39.7	22.9	0.00e+00	0	38	0	651165696	50	6202
2026-01-07 14:00:44.53	65.16	42.44	-38.6	-39.5	23.1	0.00e+00	0	38	0	652214272	50	6060
2026-01-07 14:00:45.54	65.58	42.60	-38.5	-39.4	23.3	0.00e+00	0	38	0	654311424	50	6000
2026-01-07 14:00:46.55	66.00	42.75	-38.6	-39.5	22.8	0.00e+00	0	38	0	656408576	50	6083
2026-01-07 14:00:47.56	66.43	42.91	-38.7	-39.7	22.9	0.00e+00	0	38	0	658505728	50	6180
2026-01-07 14:00:48.57	66.86	43.07	-39.0	-39.9	22.8	0.00e+00	0	38	0	660602880	50	6359
2026-01-07 14:00:49.58	67.30	43.22	-39.1	-40.0	22.7	0.00e+00	0	38	0	661651456	50	6457
2026-01-07 14:00:50.59	67.74	43.38	-39.7	-40.7	22.1	0.00e+00	0	38	0	663748608	50	7006
2026-01-07 14:00:51.60	68.18	43.53	-40.2	-41.3	21.6	0.00e+00	0	38	0	665845760	52	6676
2026-01-07 14:00:52.61	68.63	43.68	-40.0	-41.1	21.8	0.00e+00	0	38	0	667942912	52	6465
2026-01-07 14:00:53.62	69.09	43.83	-39.2	-40.2	22.4	0.00e+00	0	38	0	670040064	52	5840
2026-01-07 14:00:54.63	69.54	43.98	-38.8	-39.8	22.9	0.00e+00	0	38	0	671088640	52	5571
2026-01-07 14:00:55.64	70.00	44.13	-38.9	-39.9	22.8	0.00e+00	0	38	0	673185792	50	6336
2026-01-07 14:00:56.65	70.47	44.27	-39.3	-40.3	22.4	0.00e+00	0	38	0	675282944	50	6636
2026-01-07 14:00:57.66	70.94	44.42	-39.1	-40.0	22.6	0.00e+00	0	38	0	677380096	50	6450
2026-01-07 14:00:58.67	71.41	44.56	-39.3	-40.3	22.3	0.00e+00	0	38	0	679477248	50	6676
2026-01-07 14:00:59.68	71.89	44.70	-38.5	-39.4	23.0	0.00e+00	0	38	0	680525824	50	5979
2026-01-07 14:01:00.69	72.38	44.84	-38.6	-39.6	22.8	0.00e+00	0	38	0	682622976	50	6121
2026-01-07 14:01:01.70	72.86	44.98	-39.6	-40.7	22.0	0.00e+00	0	38	0	684720128	50	6945
2026-01-07 14:01:02.70	73.35	45.12	-39.9	-41.0	21.9	0.00e+00	0	38	0	686817280	52	6437
2026-01-07 14:01:03.71	73.84	45.25	-39.6	-40.6	22.1	0.00e+00	0	38	0	688914432	52	6141
2026-01-07 14:01:04.72	74.34	45.38	-38.9	-39.8	22.8	0.00e+00	0	38	0	691011584	52	5615
2026-01-07 14:01:05.73	74.85	45.51	-39.5	-40.5	22.3	0.00e+00	0	38	0	692060160	50	6806
2026-01-07 14:01:06.74	75.35	45.64	-41.0	-42.2	20.8	0.00e+00	0	38	0	694157312	52	7363
2026-01-07 14:01:07.76	75.87	45.77	-41.4	-42.8	20.0	0.00e+00	0	38	0	696254464	54	7015
2026-01-07 14:01:08.76	76.38	45.89	-41.3	-42.6	20.4	0.00e+00	0	38	0	698351616	54	6925
2026-01-07 14:01:09.78	76.91	46.02	-40.4	-41.5	21.5	0.00e+00	0	38	0	700448768	54	6044
2026-01-07 14:01:10.79	77.43	46.14	-40.7	-41.9	21.0	0.00e+00	0	38	0	701497344	54	6325
2026-01-07 14:01:11.80	77.96	46.25	-41.9	-43.3	19.9	0.00e+00	0	38	0	703594496	54	7506
2026-01-07 14:01:12.81	78.49	46.37	-42.3	-43.8	19.0	0.00e+00	0	38	0	705691648	56	7013
2026-01-07 14:01:13.81	79.02	46.48	-42.2	-43.6	19.8	0.00e+00	0	38	0	707788800	58	6146
2026-01-07 14:01:14.82	79.56	46.59	-40.7	-41.8	21.2	0.00e+00	0	38	0	709885952	56	5622
2026-01-07 14:01:15.83	80.10	46.70	-39.8	-40.8	22.0	0.00e+00	0	38	0	710934528	52	6305
2026-01-07 14:01:16.84	80.65	46.81	-40.6	-41.7	20.9	0.00e+00	0	38	0	713031680	52	6959
2026-01-07 14:01:17.85	81.20	46.91	-41.2	-42.5	20.4	0.00e+00	0	38	0	715128832	54	6782
2026-01-07 14:01:18.86	81.75	47.01	-41.5	-42.7	20.4	0.00e+00	0	38	0	717225984	54	6991
2026-01-07 14:01:19.87	82.31	47.11	-40.2	-41.3	21.6	0.00e+00	0	38	0	719323136	54	5927
2026-01-07 14:01:20.88	82.87	47.20	-40.4	-41.5	21.4	0.00e+00	0	38	0	720371712	54	6042
2026-01-07 14:01:21.89	83.43	47.30	-40.9	-42.1	20.8	0.00e+00	0	38	0	722468864	54	6526
2026-01-07 14:01:22.90	84.00	47.39	-42.4	-43.9	19.1	0.00e+00	0	38	0	724566016	56	7148
2026-01-07 14:01:23.91	84.57	47.47	-42.5	-44.0	19.4	0.00e+00	0	38	0	726663168	56	7194
2026-01-07 14:01:24.92	85.15	47.56	-41.8	-43.1	19.9	0.00e+00	0	38	0	728760320	56	6531
2026-01-07 14:01:25.93	85.72	47.64	-42.1	-43.6	19.4	0.00e+00	0	38	0	729808896	56	6878
2026-01-07 14:01:26.94	86.30	47.72	-41.8	-43.2	20.1	0.00e+00	0	38	0	731906048	56	6567
2026-01-07 14:01:27.95	86.89	47.79	-41.4	-42.7	20.5	0.00e+00	0	38	0	734003200	56	6179
2026-01-07 14:01:28.96	87.47	47.86	-40.5	-41.6	21.3	0.00e+00	0	38	0	736100352	54	6161
2026-01-07 14:01:29.97	88.06	47.93	-40.2	-41.2	21.8	0.00e+00	0	38	0	738197504	54	5883
2026-01-07 14:01:30.98	88.65	48.00	-40.6	-41.7	21.3	0.00e+00	0	38	0	739246080	54	6222
2026-01-07 14:01:31.99	89.24	48.06	-40.9	-42.1	20.8	0.00e+00	0	38	0	741343232	54	6480
2026-01-07 14:01:33.00	89.84	48.12	-42.0	-43.3	19.8	0.00e+00	0	38	0	743440384	56	6690
2026-01-07 14:01:34.01	90.44	48.18	-42.1	-43.6	19.5	0.00e+00	0	38	0	745537536	56	6849
2026-01-07 14:01:35.01	91.03	48.23	-41.5	-42.8	20.4	0.00e+00	0	38	0	747634688	56	6298
2026-01-07 14:01:36.02	91.63	48.28	-40.2	-41.3	21.7	0.00e+00	0	38	0	748683264	54	5903
2026-01-07 14:01:37.03	92.24	48.33	-41.1	-42.4	20.6	0.00e+00	0	38	0	750780416	54	6764
2026-01-07 14:01:38.04	92.84	48.37	-41.9	-43.4	19.8	0.00e+00	0	38	0	752877568	56	6698
2026-01-07 14:01:39.05	93.45	48.41	-41.0	-42.2	21.0	0.00e+00	0	38	0	754974720	56	5856
2026-01-07 14:01:40.06	94.06	48.45	-40.1	-41.2	21.5	0.00e+00	0	38	0	757071872	54	5847
2026-01-07 14:01:41.07	94.67	48.48	-39.4	-40.5	22.2	0.00e+00	0	38	0	759169024	52	6076
2026-01-07 14:01:42.08	95.28	48.51	-40.0	-41.1	21.7	0.00e+00	0	38	0	760217600	52	6539
2026-01-07 14:01:43.09	95.89	48.54	-40.0	-41.1	21.7	0.00e+00	0	38	0	762314752	52	6496
2026-01-07 14:01:44.10	96.51	48.56	-39.8	-40.9	21.9	0.00e+00	0	38	0	764411904	52	6319
2026-01-07 14:01:45.11	97.12	48.58	-39.3	-40.4	22.5	0.00e+00	0	38	0	766509056	52	5984
2026-01-07 14:01:46.12	97.73	48.60	-39.6	-40.7	22.1	0.00e+00	0	38	0	768606208	52	6240
2026-01-07 14:01:47.13	98.35	48.61	-39.6	-40.7	22.0	0.00e+00	0	38	0	769654784	52	6220
2026-01-07 14:01:48.14	98.97	48.62	-39.5	-40.5	22.3	0.00e+00	0	38	0	771751936	52	6100
2026-01-07 14:01:49.15	99.58	48.63	-38.6	-39.6	22.8	0.00e+00	0	38	0	773849088	52	5452
2026-01-07 14:01:50.16	100.20	48.63	-38.0	-38.9	23.5	0.00e+00	0	38	0	775946240	50	5666
2026-01-07 14:01:51.17	100.82	48.63	-37.9	-38.7	23.7	0.00e+00	0	38	0	778043392	50	5563
2026-01-07 14:01:52.18	101.43	48.62	-38.7	-39.6	22.9	0.00e+00	0	38	0	779091968	50	6138
2026-01-07 14:01:53.18	102.04	48.61	-38.9	-39.9	22.6	0.00e+00	0	38	0	781189120	50	6324
2026-01-07 14:01:54.19	102.66	48.60	-39.5	-40.5	22.0	0.00e+00	0	38	0	783286272	50	6842
2026-01-07 14:01:55.20	103.27	48.59	-41.1	-42.4	20.4	0.00e+00	0	38	0	785383424	54	6718
2026-01-07 14:01:56.21	103.89	48.57	-41.3	-42.6	20.4	0.00e+00	0	38	0	787480576	54	6927
2026-01-07 14:01:57.22	104.50	48.55	-40.4	-41.6	21.5	0.00e+00	0	38	0	788529152	54	6111
2026-01-07 14:01:58.24	105.12	48.52	-40.1	-41.2	21.4	0.00e+00	0	38	0	790626304	54	5846
2026-01-07 14:01:59.24	105.73	48.49	-40.4	-41.6	21.3	0.00e+00	0	38	0	792723456	54	6141
2026-01-07 14:02:00.25	106.34	48.46	-42.1	-43.5	19.7	0.00e+00	0	38	0	794820608	54	7663
2026-01-07 14:02:01.26	106.95	48.42	-42.7	-44.3	18.9	0.00e+00	0	38	0	796917760	58	6643
2026-01-07 14:02:02.27	107.55	48.38	-42.2	-43.7	19.8	0.00e+00	0	38	0	797966336	58	6187
2026-01-07 14:02:03.28	108.16	48.34	-39.6	-40.7	22.3	0.00e+00	0	38	0	800063488	52	6183
2026-01-07 14:02:04.29	108.77	48.30	-39.3	-40.3	22.5	0.00e+00	0	38	0	802160640	52	5945
2026-01-07 14:02:05.30	109.37	48.25	-39.2	-40.2	22.5	0.00e+00	0	38	0	804257792	52	5883
2026-01-07 14:02:06.31	109.97	48.19	-39.0	-40.0	22.7	0.00e+00	0	38	0	806354944	52	5715
2026-01-07 14:02:07.32	110.57	48.14	-38.5	-39.4	23.1	0.00e+00	0	38	0	807403520	50	5979
2026-01-07 14:02:08.33	111.16	48.08	-38.5	-39.5	23.1	0.00e+00	0	38	0	809500672	50	6048
2026-01-07 14:02:09.34	111.76	48.02	-39.6	-40.6	21.2	0.00e+00	0	38	0	811597824	50	6899
2026-01-07 14:02:10.35	112.35	47.95	-41.4	-42.7	20.1	0.00e+00	0	38	0	813694976	54	6989
2026-01-07 14:02:11.36	112.94	47.88	-41.8	-43.2	20.1	0.00e+00	0	38	0	815792128	56	6549
2026-01-07 14:02:12.37	113.53	47.81	-41.7	-43.0	19.9	0.00e+00	0	38	0	816840704	56	6399
2026-01-07 14:02:13.38	114.11	47.74	-42.1	-43.5	19.7	0.00e+00	0	38	0	818937856	56	6809
2026-01-07 14:02:14.39	114.69	47.66	-41.1	-42.3	20.8	0.00e+00	0	38	0	821035008	56	5916
2026-01-07 14:02:15.40	115.27	47.58	-40.8	-42.0	20.9	0.00e+00	0	38	0	823132160	54	6449
2026-01-07 14:02:16.41	115.85	47.49	-42.9	-44.5	18.7	0.00e+00	0	38	0	825229312	56	7640
2026-01-07 14:02:17.42	116.42	47.41	-43.9	-45.9	17.3	0.00e+00	0	38	0	827326464	60	7122
2026-01-07 14:02:18.43	116.99	47.32	-44.9	-47.4	16.4	0.00e+00	0	38	0	828375040	60	8425
2026-01-07 14:02:19.44	117.55	47.23	-43.8	-45.8	17.7	0.00e+00	0	38	0	830472192	60	7026
2026-01-07 14:02:20.45	118.12	47.13	-42.9	-44.6	18.9	0.00e+00	0	38	0	832569344	60	6126
2026-01-07 14:02:21.46	118.67	47.03	-42.9	-44.6	19.4	0.00e+00	0	38	0	834666496	58	6858
2026-01-07 14:02:22.46	119.22	46.94	-41.6	-43.0	20.4	0.00e+00	0	38	0	836763648	58	5712
2026-01-07 14:02:23.47	119.78	46.83	-40.5	-41.6	21.3	0.00e+00	0	38	0	837812224	54	6141
2026-01-07 14:02:24.48	120.33	46.73	-39.9	-40.9	22.2	0.00e+00	0	38	0	839909376	52	6372
2026-01-07 14:02:25.49	120.87	46.62	-39.3	-40.3	22.1	0.00e+00	0	38	0	842006528	52	5929
2026-01-07 14:02:26.50	121.41	46.51	-40.7	-41.9	21.0	0.00e+00	0	38	0	844103680	52	7151
2026-01-07 14:02:27.51	121.95	46.40	-42.2	-43.7	19.5	0.00e+00	0	38	0	846200832	56	7006
2026-01-07 14:02:28.52	122.48	46.28	-41.6	-43.0	20.2	0.00e+00	0	38	0	847249408	56	6403
2026-01-07 14:02:29.53	123.01	46.16	-40.1	-41.2	21.7	0.00e+00	0	38	0	849346560	54	5838
2026-01-07 14:02:30.54	123.54	46.04	-39.8	-40.9	22.0	0.00e+00	0	38	0	851443712	52	6321
2026-01-07 14:02:31.55	124.06	45.92	-40.0	-41.1	22.0	0.00e+00	0	38	0	853540864	52	6531
2026-01-07 14:02:32.56	124.58	45.80	-39.3	-40.3	22.6	0.00e+00	0	38	0	855638016	52	5953
2026-01-07 14:02:33.57	125.09	45.67	-39.0	-39.9	22.7	0.00e+00	0	38	0	856686592	52	5690
2026-01-07 14:02:34.58	125.60	45.54	-39.4	-40.4	22.5	0.00e+00	0	38	0	858783744	52	5985
2026-01-07 14:02:35.59	126.10	45.41	-39.3	-40.3	22.5	0.00e+00	0	38	0	860880896	52	5964
2026-01-07 14:02:36.60	126.61	45.28	-39.2	-40.2	22.5	0.00e+00	0	38	0	862978048	52	5888
2026-01-07 14:02:37.61	127.10	45.15	-39.7	-40.8	22.1	0.00e+00	0	38	0	865075200	52	6272
2026-01-07 14:02:38.62	127.60	45.01	-40.0	-41.1	21.8	0.00e+00	0	38	0	866123776	52	6534
2026-01-07 14:02:39.63	128.08	44.87	-40.1	-41.2	21.8	0.00e+00	0	38	0	868220928	52	6559
2026-01-07 14:02:40.64	128.57	44.73	-39.4	-40.4	22.5	0.00e+00	0	38	0	870318080	52	6018
2026-01-07 14:02:41.65	129.05	44.59	-39.1	-40.1	22.7	0.00e+00	0	38	0	872415232	52	5776
2026-01-07 14:02:42.66	129.53	44.45	-38.4	-39.3	23.2	0.00e+00	0	38	0	874512384	50	5912
2026-01-07 14:02:43.67	130.00	44.30	-37.2	-38.1	24.1	0.00e+00	0	38	0	875560960	48	5772
2026-01-07 14:02:44.68	130.47	44.16	-36.7	-37.5	24.5	0.00e+00	0	38	0	877658112	46	6060
2026-01-07 14:02:45.69	130.93	44.01	-36.5	-37.3	24.6	0.00e+00	0	38	0	879755264	46	5951
2026-01-07 14:02:46.69	131.38	43.86	-36.6	-37.4	24.6	0.00e+00	0	38	0	881852416	46	6007
2026-01-07 14:02:47.70	131.84	43.71	-36.4	-37.2	24.9	0.00e+00	0	38	0	883949568	46	5859
2026-01-07 14:02:48.71	132.29	43.56	-36.3	-37.1	24.8	0.00e+00	0	38	0	884998144	46	5773
2026-01-07 14:02:49.72	132.74	43.41	-37.1	-38.0	24.2	0.00e+00	0	38	0	887095296	46	6392
2026-01-07 14:02:50.73	133.18	43.25	-37.1	-38.0	24.2	0.00e+00	0	38	0	889192448	46	6395
2026-01-07 14:02:51.74	133.62	43.10	-37.1	-37.9	24.1	0.00e+00	0	38	0	891289600	46	6358
2026-01-07 14:02:52.75	134.05	42.94	-37.3	-38.1	24.0	0.00e+00	0	38	0	893386752	46	6509
2026-01-07 14:02:53.76	134.48	42.78	-37.1	-37.9	24.4	0.00e+00	0	38	0	895483904	46	6376
2026-01-07 14:02:54.77	134.91	42.62	-36.5	-37.3	24.7	0.00e+00	0	38	0	896532480	46	5947
2026-01-07 14:02:55.78	135.33	42.46	-36.3	-37.1	24.7	0.00e+00	0	38	0	898629632	46	5808
2026-01-07 14:02:56.79	135.75	42.30	-36.8	-37.6	24.5	0.00e+00	0	38	0	900726784	46	6111
2026-01-07 14:02:57.80	136.16	42.14	-36.9	-37.7	24.6	0.00e+00	0	38	0	902823936	46	6180
2026-01-07 14:02:58.81	136.57	41.98	-36.1	-36.8	25.0	0.00e+00	0	38	0	904921088	46	5615
2026-01-07 14:02:59.82	136.97	41.81	-35.3	-36.0	25.6	0.00e+00	0	38	0	905969664	44	5759
2026-01-07 14:03:00.83	137.37	41.65	-34.7	-35.4	25.9	0.00e+00	0	38	0	908066816	44	5332
2026-01-07 14:03:01.84	137.77	41.48	-34.3	-35.0	26.0	0.00e+00	0	38	0	910163968	42	5735
2026-01-07 14:03:02.85	138.16	41.32	-35.3	-36.1	25.5	0.00e+00	0	38	0	912261120	42	6472
2026-01-07 14:03:03.86	138.55	41.15	-35.5	-36.2	25.5	0.00e+00	0	38	0	914358272	42	6576
2026-01-07 14:03:04.87	138.94	40.98	-35.6	-36.4	25.3	0.00e+00	0	38	0	915406848	42	6733
2026-01-07 14:03:05.87	139.32	40.82	-36.1	-36.9	25.0	0.00e+00	0	38	0	917504000	44	6375
2026-01-07 14:03:06.88	139.69	40.65	-36.0	-36.7	25.1	0.00e+00	0	38	0	919601152	44	6241
2026-01-07 14:03:07.89	140.07	40.48	-36.0	-36.7	25.0	0.00e+00	0	38	0	921698304	44	6210
2026-01-07 14:03:08.90	140.44	40.31	-36.2	-37.0	24.9	0.00e+00	0	38	0	923795456	44	6420
2026-01-07 14:03:09.91	140.80	40.14	-37.2	-38.0	24.1	0.00e+00	0	38	0	924844032	46	6451
2026-01-07 14:03:10.92	141.17	39.97	-37.3	-38.2	24.0	0.00e+00	0	38	0	926941184	46	6591
2026-01-07 14:03:11.93	141.52	39.80	-38.0	-38.9	23.6	0.00e+00	0	38	0	929038336	48	6361
2026-01-07 14:03:12.94	141.88	39.63	-38.2	-39.0	23.4	0.00e+00	0	38	0	931135488	48	6456
2026-01-07 14:03:13.95	142.23	39.46	-38.6	-39.5	23.1	0.00e+00	0	38	0	933232640	48	6822
2026-01-07 14:03:14.96	142.58	39.28	-39.0	-40.0	22.6	0.00e+00	0	38	0	934281216	50	6442
2026-01-07 14:03:15.97	142.92	39.11	-39.2	-40.1	22.7	0.00e+00	0	38	0	936378368	50	6535
2026-01-07 14:03:16.98	143.26	38.94	-38.3	-39.2	23.1	0.00e+00	0	38	0	938475520	50	5896
2026-01-07 14:03:17.99	143.60	38.77	-38.5	-39.4	23.1	0.00e+00	0	38	0	940572672	50	6033
2026-01-07 14:03:19.00	143.93	38.59	-40.1	-41.2	21.7	0.00e+00	0	38	0	942669824	52	6541
2026-01-07 14:03:20.01	144.26	38.42	-40.8	-42.0	21.1	0.00e+00	0	38	0	943718400	52	7191
2026-01-07 14:03:21.02	144.59	38.25	-41.4	-42.7	20.4	0.00e+00	0	38	0	945815552	54	6963
2026-01-07 14:03:22.03	144.91	38.07	-41.0	-42.2	20.8	0.00e+00	0	38	0	947912704	54	6609
2026-01-07 14:03:23.04	145.23	37.90	-41.3	-42.7	20.4	0.00e+00	0	38	0	950009856	54	6929
2026-01-07 14:03:24.06	145.55	37.72	-41.1	-42.4	20.8	0.00e+00	0	38	0	952107008	54	6751
2026-01-07 14:03:25.06	145.86	37.55	-40.8	-42.0	21.3	0.00e+00	0	38	0	953155584	54	6408
2026-01-07 14:03:26.07	146.17	37.38	-40.4	-41.5	21.4	0.00e+00	0	38	0	955252736	54	6048
2026-01-07 14:03:27.08	146.48	37.21	-40.3	-41.4	21.4	0.00e+00	0	38	0	957349888	54	5972
2026-01-07 14:03:28.09	146.78	37.03	-40.8	-42.0	21.1	0.00e+00	0	38	0	959447040	54	6401
2026-01-07 14:03:29.10	147.08	36.86	-41.3	-42.6	20.3	0.00e+00	0	38	0	961544192	54	6919
2026-01-07 14:03:30.11	147.38	36.68	-40.9	-42.2	20.9	0.00e+00	0	38	0	963641344	56	5834
2026-01-07 14:03:31.12	147.67	36.51	-40.7	-41.8	21.1	0.00e+00	0	38	0	964689920	54	6312
2026-01-07 14:03:32.13	147.96	36.34	-40.3	-41.4	21.6	0.00e+00	0	38	0	966787072	54	5988
2026-01-07 14:03:33.14	148.25	36.16	-40.1	-41.1	21.8	0.00e+00	0	38	0	968884224	54	5827
2026-01-07 14:03:34.14	148.53	35.99	-40.8	-41.9	20.9	0.00e+00	0	38	0	970981376	54	6357
2026-01-07 14:03:35.15	148.81	35.82	-41.9	-43.3	19.8	0.00e+00	0	38	0	973078528	56	6641
2026-01-07 14:03:36.16	149.09	35.65	-43.0	-44.7	18.4	0.00e+00	0	38	0	974127104	58	6962
2026-01-07 14:03:37.17	149.37	35.47	-43.9	-46.0	17.1	0.00e+00	0	38	0	976224256	58	8049
2026-01-07 14:03:38.18	149.64	35.30	-44.4	-46.6	16.6	0.00e+00	0	38	0	978321408	60	7770
2026-01-07 14:03:39.19	149.91	35.13	-43.5	-45.5	18.0	0.00e+00	0	38	0	980418560	60	6771
2026-01-07 14:03:40.20	150.18	34.96	-41.3	-42.7	20.5	0.00e+00	0	38	0	981467136	56	6195
2026-01-07 14:03:41.21	150.44	34.79	-39.8	-40.9	22.0	0.00e+00	0	38	0	983564288	54	5678
2026-01-07 14:03:42.22	150.71	34.62	-38.5	-39.4	23.1	0.00e+00	0	38	0	985661440	50	6023
2026-01-07 14:03:43.23	150.97	34.44	-38.1	-39.0	23.5	0.00e+00	0	38	0	987758592	50	5696
2026-01-07 14:03:44.24	151.22	34.27	-38.3	-39.2	23.3	0.00e+00	0	38	0	989855744	50	5849
2026-01-07 14:03:45.25	151.48	34.10	-39.7	-40.7	22.0	0.00e+00	0	38	0	991952896	50	6961
2026-01-07 14:03:46.26	151.73	33.93	-40.9	-42.2	20.7	0.00e+00	0	38	0	993001472	54	6548
2026-01-07 14:03:47.27	151.98	33.76	-41.9	-43.4	19.8	0.00e+00	0	38	0	995098624	54	7541
2026-01-07 14:03:48.28	152.22	33.59	-41.6	-43.1	20.3	0.00e+00	0	38	0	997195776	56	6476
2026-01-07 14:03:49.29	152.47	33.43	-40.3	-41.5	21.5	0.00e+00	0	38	0	999292928	54	6078
2026-01-07 14:03:50.30	152.71	33.26	-40.1	-41.2	21.3	0.00e+00	0	38	0	1001390080	54	5872
2026-01-07 14:03:51.31	152.95	33.09	-40.1	-41.2	21.7	0.00e+00	0	38	0	1002438656	54	5846
2026-01-07 14:03:52.32	153.19	32.92	-40.0	-41.1	21.7	0.00e+00	0	38	0	1004535808	54	5793
2026-01-07 14:03:53.33	153.42	32.75	-40.1	-41.1	21.7	0.00e+00	0	38	0	1006632960	54	5812
2026-01-07 14:03:54.34	153.65	32.59	-40.5	-41.6	21.3	0.00e+00	0	38	0	1008730112	54	6138
2026-01-07 14:03:55.35	153.88	32.42	-40.4	-41.5	21.4	0.00e+00	0	38	0	1010827264	54	6100
2026-01-07 14:03:56.36	154.11	32.25	-40.0	-41.1	21.5	0.00e+00	0	38	0	1011875840	54	5806
2026-01-07 14:03:57.37	154.34	32.09	-39.7	-40.8	22.1	0.00e+00	0	38	0	1013972992	52	6252
2026-01-07 14:03:58.38	154.56	31.92	-39.1	-40.1	22.6	0.00e+00	0	38	0	1016070144	52	5804
2026-01-07 14:03:59.39	154.78	31.76	-39.1	-40.0	22.9	0.00e+00	0	38	0	1018167296	52	5728
2026-01-07 14:04:00.40	155.00	31.59	-38.6	-39.5	22.9	0.00e+00	0	38	0	1020264448	50	6083
2026-01-07 14:04:01.41	155.21	31.43	-38.9	-39.9	22.6	0.00e+00	0	38	0	1021313024	50	6326
2026-01-07 14:04:02.41	155.43	31.27	-38.9	-39.8	22.3	0.00e+00	0	38	0	1023410176	50	6295
2026-01-07 14:04:03.42	155.64	31.11	-39.5	-40.5	22.0	0.00e+00	0	38	0	1025507328	50	6827
2026-01-07 14:04:04.43	155.85	30.94	-40.1	-41.2	21.6	0.00e+00	0	38	0	1027604480	52	6589
2026-01-07 14:04:05.44	156.06	30.78	-41.1	-42.4	20.4	0.00e+00	0	38	0	1029701632	54	6752
2026-01-07 14:04:06.45	156.26	30.62	-41.1	-42.4	20.4	0.00e+00	0	38	0	1031798784	54	6724
2026-01-07 14:04:07.46	156.47	30.46	-40.1	-41.2	21.5	0.00e+00	0	38	0	1032847360	54	5868
2026-01-07 14:04:08.47	156.67	30.30	-39.7	-40.8	22.0	0.00e+00	0	38	0	1034944512	52	6275
2026-01-07 14:04:09.48	156.87	30.14	-38.9	-39.9	22.6	0.00e+00	0	38	0	1037041664	52	5672
2026-01-07 14:04:10.49	157.07	29.98	-38.6	-39.6	23.0	0.00e+00	0	38	0	1039138816	50	6118
2026-01-07 14:04:11.50	157.26	29.82	-38.8	-39.7	22.8	0.00e+00	0	38	0	1040187392	50	6239
2026-01-07 14:04:12.51	157.46	29.66	-39.2	-40.1	22.4	0.00e+00	0	38	0	1042284544	50	6524
2026-01-07 14:04:13.52	157.65	29.50	-39.2	-40.1	22.6	0.00e+00	0	38	0	1044381696	50	6524
2026-01-07 14:04:14.53	157.84	29.35	-39.3	-40.3	22.4	0.00e+00	0	38	0	1046478848	50	6623
2026-01-07 14:04:15.53	158.03	29.19	-39.4	-40.4	22.2	0.00e+00	0	38	0	1048576000	50	6756
2026-01-07 14:04:16.54	158.22	29.04	-39.0	-40.0	22.6	0.00e+00	0	38	0	1049624576	50	6415
2026-01-07 14:04:17.55	158.40	28.88	-39.0	-40.0	22.8	0.00e+00	0	38	0	1051721728	50	6422
2026-01-07 14:04:18.56	158.58	28.72	-38.7	-39.6	22.9	0.00e+00	0	38	0	1053818880	50	6171
2026-01-07 14:04:19.57	158.77	28.57	-39.0	-39.9	22.7	0.00e+00	0	38	0	1055916032	50	6373
2026-01-07 14:04:20.58	158.95	28.42	-39.1	-40.0	22.6	0.00e+00	0	38	0	1058013184	50	6463
2026-01-07 14:04:21.59	159.13	28.26	-38.8	-39.7	22.8	0.00e+00	0	38	0	1060110336	50	6238
2026-01-07 14:04:22.60	159.30	28.11	-38.7	-39.6	22.8	0.00e+00	0	38	0	1061158912	50	6126
2026-01-07 14:04:23.61	159.48	27.96	-38.6	-39.6	23.0	0.00e+00	0	38	0	1063256064	50	6119
2026-01-07 14:04:24.62	159.65	27.81	-38.4	-39.4	23.1	0.00e+00	0	38	0	1065353216	50	5970
2026-01-07 14:04:25.63	159.82	27.65	-38.0	-38.9	23.5	0.00e+00	0	38	0	1067450368	50	5667
2026-01-07 14:04:26.64	159.99	27.50	-37.7	-38.6	23.7	0.00e+00	0	38	0	1069547520	48	6149
2026-01-07 14:04:27.65	160.16	27.35	-37.6	-38.5	23.9	0.00e+00	0	38	0	1070596096	48	6046
2026-01-07 14:04:28.66	160.33	27.20	-37.3	-38.2	24.0	0.00e+00	0	38	0	1072693248	48	5852
2026-01-07 14:04:29.67	160.50	27.06	-37.6	-38.5	23.8	0.00e+00	0	38	0	1074790400	48	6050
2026-01-07 14:04:30.68	160.66	26.91	-37.3	-38.2	24.1	0.00e+00	0	38	0	1076887552	48	5836
2026-01-07 14:04:31.68	160.82	26.76	-37.8	-38.6	23.6	0.00e+00	0	38	0	1078984704	48	6173
2026-01-07 14:04:32.69	160.98	26.61	-37.8	-38.7	23.6	0.00e+00	0	38	0	1080033280	48	6202
2026-01-07 14:04:33.70	161.14	26.47	-37.8	-38.7	23.5	0.00e+00	0	38	0	1082130432	48	6239
2026-01-07 14:04:34.71	161.30	26.32	-37.9	-38.9	23.5	0.00e+00	0	38	0	1084227584	48	6319
2026-01-07 14:04:35.72	161.46	26.18	-38.1	-39.0	23.3	0.00e+00	0	38	0	1086324736	48	6454
2026-01-07 14:04:36.73	161.62	26.03	-38.0	-38.9	23.4	0.00e+00	0	38	0	1088421888	48	6381
2026-01-07 14:04:37.74	161.77	25.89	-38.0	-38.9	23.5	0.00e+00	0	38	0	1089470464	48	6359
2026-01-07 14:04:38.75	161.92	25.74	-37.6	-38.4	23.8	0.00e+00	0	38	0	1091567616	48	6016
2026-01-07 14:04:39.76	162.08	25.60	-37.7	-38.6	23.7	0.00e+00	0	38	0	1093664768	48	6123
2026-01-07 14:04:40.77	162.23	25.46	-37.7	-38.5	23.7	0.00e+00	0	38	0	1095761920	48	6083
2026-01-07 14:04:41.78	162.38	25.31	-37.5	-38.3	23.8	0.00e+00	0	38	0	1097859072	48	5959
2026-01-07 14:04:42.79	162.52	25.17	-37.8	-38.7	23.6	0.00e+00	0	38	0	1098907648	48	6213
2026-01-07 14:04:43.80	162.67	25.03	-38.1	-38.9	23.4	0.00e+00	0	38	0	1101004800	48	6386
2026-01-07 14:04:44.81	162.82	24.89	-38.1	-39.0	23.2	0.00e+00	0	38	0	1103101952	48	6433
2026-01-07 14:04:45.82	162.96	24.75	-38.7	-39.7	22.8	0.00e+00	0	38	0	1105199104	48	6931
2026-01-07 14:04:46.83	163.10	24.61	-38.2	-39.1	23.2	0.00e+00	0	38	0	1107296256	48	6539
2026-01-07 14:04:47.84	163.24	24.47	-38.5	-39.4	23.0	0.00e+00	0	38	0	1108344832	48	6754
2026-01-07 14:04:48.85	163.38	24.34	-38.2	-39.1	23.2	0.00e+00	0	38	0	1110441984	48	6528
2026-01-07 14:04:49.86	163.52	24.20	-38.0	-38.9	23.4	0.00e+00	0	38	0	1112539136	48	6373
2026-01-07 14:04:50.87	163.66	24.06	-38.0	-38.9	23.5	0.00e+00	0	38	0	1114636288	48	6380
2026-01-07 14:04:51.87	163.80	23.93	-37.5	-38.4	23.8	0.00e+00	0	38	0	1116733440	48	5999
2026-01-07 14:04:52.88	163.93	23.79	-37.7	-38.5	23.9	0.00e+00	0	38	0	1117782016	48	6074
2026-01-07 14:04:53.89	164.07	23.65	-37.6	-38.4	23.9	0.00e+00	0	38	0	1119879168	48	5994
2026-01-07 14:04:54.90	164.20	23.52	-37.7	-38.6	23.6	0.00e+00	0	38	0	1121976320	48	6109
2026-01-07 14:04:55.91	164.33	23.38	-37.9	-38.8	23.4	0.00e+00	0	38	0	1124073472	48	6248
2026-01-07 14:04:56.92	164.47	23.25	-38.2	-39.1	23.3	0.00e+00	0	38	0	1126170624	48	6475
2026-01-07 14:04:57.93	164.60	23.12	-38.6	-39.5	22.8	0.00e+00	0	38	0	1128267776	48	6818
2026-01-07 14:04:58.94	164.72	22.98	-38.6	-39.6	22.9	0.00e+00	0	38	0	1129316352	48	6875
2026-01-07 14:04:59.95	164.85	22.85	-38.8	-39.8	22.6	0.00e+00	0	38	0	1131413504	50	6279
2026-01-07 14:05:00.96	164.98	22.72	-38.6	-39.5	22.9	0.00e+00	0	38	0	1133510656	50	6088
2026-01-07 14:05:01.97	165.11	22.59	-38.8	-39.8	22.6	0.00e+00	0	38	0	1135607808	50	6257
2026-01-07 14:05:02.98	165.23	22.46	-39.1	-40.1	22.4	0.00e+00	0	38	0	1137704960	50	6483
2026-01-07 14:05:03.99	165.35	22.33	-38.7	-39.7	22.7	0.00e+00	0	38	0	1138753536	50	6187
2026-01-07 14:05:05.00	165.48	22.20	-38.8	-39.8	22.6	0.00e+00	0	38	0	1140850688	50	6265
2026-01-07 14:05:06.01	165.60	22.07	-38.7	-39.7	22.8	0.00e+00	0	38	0	1142947840	50	6174
2026-01-07 14:05:07.02	165.72	21.94	-38.2	-39.1	23.3	0.00e+00	0	38	0	1145044992	50	5797
2026-01-07 14:05:08.03	165.84	21.81	-38.1	-39.0	23.2	0.00e+00	0	38	0	1147142144	50	5741
2026-01-07 14:05:09.04	165.96	21.69	-38.0	-38.8	23.4	0.00e+00	0	38	0	1148190720	50	5628
2026-01-07 14:05:10.05	166.08	21.56	-37.7	-38.6	23.6	0.00e+00	0	38	0	1150287872	50	5467
2026-01-07 14:05:11.06	166.20	21.43	-37.5	-38.4	23.9	0.00e+00	0	38	0	1152385024	48	5986
2026-01-07 14:05:12.07	166.31	21.31	-37.3	-38.1	23.9	0.00e+00	0	38	0	1154482176	48	5818
2026-01-07 14:05:13.08	166.43	21.18	-37.4	-38.2	23.7	0.00e+00	0	38	0	1156579328	48	5878
2026-01-07 14:05:14.09	166.54	21.06	-37.5	-38.4	23.8	0.00e+00	0	38	0	1157627904	48	6008
2026-01-07 14:05:15.10	166.66	20.93	-37.7	-38.6	23.6	0.00e+00	0	38	0	1159725056	48	6147
2026-01-07 14:05:16.11	166.77	20.81	-38.1	-39.1	23.2	0.00e+00	0	38	0	1161822208	48	6472
2026-01-07 14:05:17.12	166.88	20.69	-38.5	-39.5	23.0	0.00e+00	0	38	0	1163919360	48	6789
2026-01-07 14:05:18.13	166.99	20.56	-38.9	-39.9	22.6	0.00e+00	0	38	0	1166016512	50	6346
2026-01-07 14:05:19.14	167.10	20.44	-39.3	-40.3	22.2	0.00e+00	0	38	0	1167065088	50	6653
2026-01-07 14:05:20.15	167.21	20.32	-39.3	-40.4	22.1	0.00e+00	0	38	0	1169162240	50	6721
2026-01-07 14:05:21.16	167.32	20.20	-39.7	-40.8	21.8	0.00e+00	0	38	0	1171259392	52	6292
2026-01-07 14:05:22.17	167.43	20.08	-39.8	-40.9	21.8	0.00e+00	0	38	0	1173356544	52	6325
2026-01-07 14:05:23.18	167.54	19.96	-39.6	-40.7	21.8	0.00e+00	0	38	0	1175453696	52	6217
2026-01-07 14:05:24.19	167.64	19.84	-39.7	-40.8	21.9	0.00e+00	0	38	0	1176502272	52	6266
2026-01-07 14:05:25.20	167.75	19.72	-39.4	-40.5	22.2	0.00e+00	0	38	0	1178599424	52	6072
2026-01-07 14:05:26.21	167.85	19.60	-39.2	-40.2	22.2	0.00e+00	0	38	0	1180696576	52	5869
2026-01-07 14:05:27.22	167.96	19.48	-39.0	-40.1	22.3	0.00e+00	0	38	0	1182793728	52	5774
2026-01-07 14:05:28.23	168.06	19.36	-38.5	-39.4	22.9	0.00e+00	0	38	0	1184890880	50	6003
2026-01-07 14:05:29.24	168.16	19.24	-38.3	-39.3	23.1	0.00e+00	0	38	0	1185939456	50	5901
2026-01-07 14:05:30.25	168.26	19.13	-37.8	-38.7	23.4	0.00e+00	0	38	0	1188036608	50	5538
2026-01-07 14:05:31.26	168.36	19.01	-37.7	-38.6	23.5	0.00e+00	0	38	0	1190133760	48	6148
2026-01-07 14:05:32.27	168.46	18.89	-37.7	-38.6	23.5	0.00e+00	0	38	0	1192230912	48	6111
2026-01-07 14:05:33.28	168.56	18.78	-37.6	-38.4	23.7	0.00e+00	0	38	0	1194328064	48	6013
2026-01-07 14:05:34.29	168.66	18.66	-37.6	-38.5	23.6	0.00e+00	0	38	0	1196425216	48	6057
2026-01-07 14:05:35.30	168.76	18.55	-37.7	-38.5	23.6	0.00e+00	0	38	0	1197473792	48	6083
2026-01-07 14:05:36.31	168.86	18.43	-37.7	-38.6	23.4	0.00e+00	0	38	0	1199570944	48	6141
2026-01-07 14:05:37.32	168.95	18.32	-38.0	-38.8	23.4	0.00e+00	0	38	0	1201668096	48	6311
2026-01-07 14:05:38.33	169.05	18.21	-38.0	-38.9	23.3	0.00e+00	0	38	0	1203765248	48	6324
2026-01-07 14:05:39.33	169.14	18.10	-38.2	-39.1	23.1	0.00e+00	0	38	0	1205862400	48	6508
2026-01-07 14:05:40.34	169.24	17.98	-38.2	-39.1	23.2	0.00e+00	0	38	0	1206910976	48	6475
2026-01-07 14:05:41.35	169.33	17.87	-38.2	-39.1	23.2	0.00e+00	0	38	0	1209008128	48	6530
2026-01-07 14:05:42.36	169.42	17.76	-38.3	-39.2	23.0	0.00e+00	0	38	0	1211105280	48	6579
2026-01-07 14:05:43.37	169.52	17.65	-38.5	-39.4	22.9	0.00e+00	0	38	0	1213202432	48	6740
2026-01-07 14:05:44.38	169.61	17.54	-38.2	-39.1	23.1	0.00e+00	0	38	0	1215299584	48	6537
2026-01-07 14:05:45.39	169.70	17.43	-38.1	-39.1	23.1	0.00e+00	0	38	0	1216348160	48	6483
2026-01-07 14:05:46.40	169.79	17.32	-38.1	-39.0	23.1	0.00e+00	0	38	0	1218445312	48	6464
2026-01-07 14:05:47.41	169.88	17.21	-38.1	-39.0	23.3	0.00e+00	0	38	0	1220542464	48	6428
2026-01-07 14:05:48.42	169.97	17.10	-37.8	-38.7	23.3	0.00e+00	0	38	0	1222639616	48	6237
2026-01-07 14:05:49.43	170.06	16.99	-37.6	-38.5	23.6	0.00e+00	0	38	0	1224736768	48	6051
2026-01-07 14:05:50.44	170.15	16.88	-37.6	-38.4	23.7	0.00e+00	0	38	0	1225785344	48	6019
