passes_logs/2026/01/07/R4.6S_Anadyr/R4.6S_Anadyr__20260107_232010_NOAA_21_JPSS-2_rec.log

#Pass ID: 20260107_232010_NOAA 21 (JPSS-2)
#Satellite: NOAA 21 (JPSS-2)
#Configuration: NOAA-21
#almurnet v.1.7.20251203
#Start time: 2026-01-07 23:20:15

#Version: 2.2.20231116
#Station: R4.6S_Anadyr
#Location: 177.4865 lon 64.73178 lat
#TLE: 1 54234U 22150A   26005.42670836  .00000142  00000+0  88292-4 0  9996
#TLE: 2 54234  98.7490 306.4427 0001045 340.6622  19.4514 14.19532269163451

#Time	Az	El	Level	Level2	SNR	BER	BlckErr	Temp	State	Recorded	gain1	gain2
2026-01-07 23:20:15.54	134.56	0.33	-49.8	-51.2	3.4	0.00e+00	0	35	0	0	60	44689
2026-01-07 23:20:16.55	134.54	0.39	-49.5	-62.4	3.5	1.52e+00	0	37	104	0	60	46156
2026-01-07 23:20:17.55	134.51	0.45	-49.5	-62.4	3.5	1.52e+00	0	37	104	0	60	46288
2026-01-07 23:20:18.56	134.49	0.51	-49.6	-62.5	3.5	1.52e+00	0	37	104	0	60	46673
2026-01-07 23:20:19.57	134.47	0.57	-49.6	-62.5	3.5	1.52e+00	0	37	104	0	60	46541
2026-01-07 23:20:20.58	134.45	0.63	-49.5	-62.5	3.5	1.52e+00	0	37	104	0	60	46583
2026-01-07 23:20:21.59	134.43	0.69	-49.5	-62.4	3.5	1.52e+00	0	37	104	0	60	46047
2026-01-07 23:20:22.60	134.41	0.75	-49.3	-62.3	3.5	1.52e+00	0	37	104	0	60	45537
2026-01-07 23:20:23.61	134.38	0.81	-49.2	-62.2	3.5	1.52e+00	0	37	104	0	60	45055
2026-01-07 23:20:24.62	134.36	0.88	-49.2	-62.2	3.5	1.52e+00	0	37	104	0	60	45024
2026-01-07 23:20:25.63	134.34	0.94	-49.2	-62.0	3.5	1.52e+00	0	37	104	0	60	44251
2026-01-07 23:20:26.64	134.32	1.00	-48.9	-61.8	3.5	1.51e+00	0	37	104	0	60	43322
2026-01-07 23:20:27.65	134.29	1.06	-48.9	-61.7	3.5	1.52e+00	0	37	104	0	60	42701
2026-01-07 23:20:28.66	134.27	1.12	-48.5	-61.3	3.5	1.52e+00	0	37	104	0	60	40904
2026-01-07 23:20:29.67	134.25	1.19	-47.8	-60.9	3.5	1.52e+00	0	37	104	0	60	38967
2026-01-07 23:20:30.67	134.23	1.25	-47.8	-60.9	3.5	1.52e+00	0	37	104	0	60	39050
2026-01-07 23:20:31.69	134.20	1.31	-47.8	-60.9	3.5	1.52e+00	0	38	104	0	60	38894
2026-01-07 23:20:32.70	134.18	1.37	-47.8	-60.9	3.5	1.51e+00	0	38	104	0	60	38848
2026-01-07 23:20:33.70	134.16	1.43	-47.8	-60.9	3.5	1.52e+00	0	37	104	0	60	38975
2026-01-07 23:20:34.71	134.13	1.50	-47.8	-60.9	3.5	1.52e+00	0	37	104	0	60	39080
2026-01-07 23:20:35.73	134.11	1.56	-47.8	-61.0	3.5	1.52e+00	0	37	104	0	60	39222
2026-01-07 23:20:36.74	134.09	1.62	-47.8	-60.9	3.5	1.51e+00	0	38	104	0	60	39115
2026-01-07 23:20:37.75	134.06	1.69	-47.8	-61.0	3.5	1.52e+00	0	38	104	0	60	39235
2026-01-07 23:20:38.75	134.04	1.75	-47.8	-60.9	3.5	1.52e+00	0	38	104	0	60	38773
2026-01-07 23:20:39.77	134.01	1.81	-47.8	-60.8	3.5	1.52e+00	0	38	104	0	60	38622
2026-01-07 23:20:40.78	133.99	1.88	-47.8	-60.7	3.5	1.52e+00	0	38	104	0	60	38077
2026-01-07 23:20:41.79	133.97	1.94	-47.8	-60.6	3.5	1.52e+00	0	38	104	0	60	37795
2026-01-07 23:20:42.79	133.94	2.00	-47.8	-60.6	3.5	1.52e+00	0	38	104	0	60	37576
2026-01-07 23:20:43.81	133.92	2.07	-47.8	-60.6	3.5	1.52e+00	0	38	104	0	60	37621
2026-01-07 23:20:44.82	133.89	2.13	-47.8	-60.6	3.5	1.52e+00	0	38	104	0	60	37822
2026-01-07 23:20:45.82	133.87	2.20	-47.8	-60.8	3.5	1.51e+00	0	38	104	0	60	38457
2026-01-07 23:20:46.83	133.84	2.26	-47.8	-60.9	3.5	1.52e+00	0	38	104	0	60	38877
2026-01-07 23:20:47.84	133.82	2.33	-47.8	-60.9	3.5	1.52e+00	0	38	104	0	60	39053
2026-01-07 23:20:48.85	133.80	2.39	-47.8	-60.9	3.5	1.52e+00	0	38	104	0	60	38881
2026-01-07 23:20:49.86	133.77	2.46	-47.8	-60.8	3.5	1.52e+00	0	38	104	0	60	38499
2026-01-07 23:20:50.87	133.75	2.52	-47.8	-60.7	3.5	1.52e+00	0	38	104	0	60	38060
2026-01-07 23:20:51.88	133.72	2.59	-47.8	-60.5	3.5	1.52e+00	0	38	104	0	60	37376
2026-01-07 23:20:52.89	133.69	2.65	-47.8	-60.3	3.5	1.51e+00	0	38	104	0	60	36449
2026-01-07 23:20:53.90	133.67	2.72	-47.7	-60.0	3.5	1.52e+00	0	38	104	0	60	34916
2026-01-07 23:20:54.91	133.64	2.78	-47.7	-59.7	3.5	1.51e+00	0	38	104	0	60	33760
2026-01-07 23:20:55.92	133.62	2.85	-47.7	-59.5	3.5	1.51e+00	0	38	104	0	60	33305
2026-01-07 23:20:56.93	133.59	2.91	-47.7	-59.6	3.5	1.51e+00	0	38	104	0	60	33575
2026-01-07 23:20:57.94	133.57	2.98	-47.7	-60.1	3.5	1.51e+00	0	38	104	0	60	35337
2026-01-07 23:20:58.95	133.54	3.05	-47.8	-60.6	3.5	1.52e+00	0	38	104	0	60	37556
2026-01-07 23:20:59.96	133.51	3.11	-47.8	-60.2	3.5	1.52e+00	0	38	104	0	60	35858
2026-01-07 23:21:00.97	133.49	3.18	-47.5	-57.8	3.7	1.51e+00	0	38	104	0	60	27177
2026-01-07 23:21:01.98	133.46	3.24	-46.9	-53.3	6.2	4.66e-01	0	38	0	0	60	16306
2026-01-07 23:21:02.99	133.43	3.31	-45.9	-50.3	9.5	3.01e-02	0	38	0	3145728	60	11468
2026-01-07 23:21:04.00	133.41	3.38	-44.7	-47.9	12.2	4.74e-04	0	38	0	6291456	60	8742
2026-01-07 23:21:05.00	133.38	3.44	-43.4	-45.9	14.4	9.10e-06	0	38	0	9437184	60	6892
2026-01-07 23:21:06.01	133.35	3.51	-42.2	-44.1	16.1	0.00e+00	0	38	0	12582912	58	6320
2026-01-07 23:21:07.02	133.33	3.58	-41.3	-43.0	17.3	0.00e+00	0	38	0	15728640	56	6236
2026-01-07 23:21:08.03	133.30	3.65	-40.5	-42.1	18.0	0.00e+00	0	38	0	18874368	54	6289
2026-01-07 23:21:09.04	133.27	3.71	-40.0	-41.5	18.6	0.00e+00	0	38	0	22020096	54	5874
2026-01-07 23:21:10.05	133.24	3.78	-39.7	-41.1	18.9	0.00e+00	0	38	0	25165824	54	5643
2026-01-07 23:21:11.06	133.22	3.85	-48.5	-61.4	3.5	1.52e+00	0	38	104	27262976	60	41367
2026-01-07 23:21:12.06	133.19	3.92	-48.2	-60.1	3.5	1.51e+00	0	38	104	27262976	60	35526
2026-01-07 23:21:13.07	133.16	3.99	-43.4	-46.2	10.7	6.70e-01	0	38	104	27262976	54	10163
2026-01-07 23:21:14.08	133.13	4.05	-39.1	-40.4	19.5	0.00e+00	0	38	0	29360128	52	5808
2026-01-07 23:21:15.09	133.10	4.12	-46.2	-51.5	4.1	3.18e-04	0	38	0	32505856	60	13262
2026-01-07 23:21:16.10	133.07	4.19	-41.3	-43.3	17.4	1.30e-04	0	38	104	32505856	58	5731
2026-01-07 23:21:17.11	133.05	4.26	-39.2	-40.4	19.6	0.00e+00	0	38	0	34603008	52	5856
2026-01-07 23:21:18.12	133.02	4.33	-38.5	-39.7	20.3	0.00e+00	0	38	0	37748736	50	6027
2026-01-07 23:21:19.13	132.99	4.40	-38.1	-39.3	20.6	0.00e+00	0	38	0	40894464	50	5752
2026-01-07 23:21:20.14	132.96	4.47	-38.3	-39.4	20.6	0.00e+00	0	38	0	44040192	50	5851
2026-01-07 23:21:21.15	132.93	4.54	-38.1	-39.3	20.7	0.00e+00	0	38	0	47185920	50	5729
2026-01-07 23:21:22.16	132.90	4.61	-37.9	-39.1	20.9	0.00e+00	0	38	0	50331648	50	5605
2026-01-07 23:21:23.17	132.87	4.68	-38.0	-39.2	20.8	0.00e+00	0	38	0	53477376	50	5666
2026-01-07 23:21:24.17	132.84	4.75	-38.0	-39.1	20.8	0.00e+00	0	38	0	56623104	50	5654
2026-01-07 23:21:25.18	132.81	4.82	-37.9	-39.0	20.9	0.00e+00	0	38	0	59768832	50	5550
2026-01-07 23:21:26.19	132.78	4.89	-37.9	-39.0	20.9	0.00e+00	0	38	0	62914560	50	5558
2026-01-07 23:21:27.21	132.75	4.96	-37.8	-38.9	21.0	0.00e+00	0	38	0	67108864	50	5473
2026-01-07 23:21:28.21	132.72	5.03	-37.8	-38.9	21.0	0.00e+00	0	38	0	69206016	48	6177
2026-01-07 23:21:29.22	132.69	5.10	-37.8	-38.9	21.0	0.00e+00	0	38	0	72351744	48	6177
2026-01-07 23:21:30.23	132.66	5.17	-37.7	-38.8	21.1	0.00e+00	0	38	0	75497472	48	6113
2026-01-07 23:21:31.24	132.63	5.24	-37.8	-38.9	21.1	0.00e+00	0	38	0	78643200	48	6184
2026-01-07 23:21:32.25	132.60	5.32	-37.6	-38.7	21.2	0.00e+00	0	38	0	82837504	48	6032
2026-01-07 23:21:33.27	132.57	5.39	-37.7	-38.8	21.2	0.00e+00	0	38	0	85983232	48	6087
2026-01-07 23:21:34.28	132.53	5.46	-37.8	-38.9	21.1	0.00e+00	0	38	0	89128960	48	6170
2026-01-07 23:21:35.28	132.50	5.53	-37.7	-38.8	21.1	0.00e+00	0	38	0	92274688	48	6130
2026-01-07 23:21:36.30	132.47	5.61	-37.7	-38.8	21.2	0.00e+00	0	38	0	94371840	48	6078
2026-01-07 23:21:37.31	132.44	5.68	-37.6	-38.6	21.3	0.00e+00	0	38	0	98566144	48	5981
2026-01-07 23:21:38.32	132.41	5.75	-37.6	-38.7	21.3	0.00e+00	0	38	0	101711872	48	6005
2026-01-07 23:21:39.32	132.38	5.82	-37.5	-38.6	21.4	0.00e+00	0	38	0	104857600	48	5960
2026-01-07 23:21:40.34	132.34	5.90	-37.5	-38.6	21.3	0.00e+00	0	38	0	108003328	48	5987
2026-01-07 23:21:41.35	132.31	5.97	-37.6	-38.7	21.3	0.00e+00	0	38	0	111149056	48	6052
2026-01-07 23:21:42.36	132.28	6.04	-37.5	-38.6	21.5	0.00e+00	0	38	0	114294784	48	5931
2026-01-07 23:21:43.36	132.24	6.12	-37.5	-38.5	21.4	0.00e+00	0	38	0	117440512	48	5925
2026-01-07 23:21:44.37	132.21	6.19	-37.4	-38.5	21.5	0.00e+00	0	38	0	120586240	48	5885
2026-01-07 23:21:45.38	132.18	6.27	-37.5	-38.5	21.5	0.00e+00	0	38	0	123731968	48	5925
2026-01-07 23:21:46.39	132.14	6.34	-37.4	-38.5	21.4	0.00e+00	0	38	0	126877696	48	5912
2026-01-07 23:21:47.40	132.11	6.41	-37.3	-38.4	21.5	0.00e+00	0	38	0	130023424	48	5853
2026-01-07 23:21:48.41	132.08	6.49	-37.4	-38.5	21.5	0.00e+00	0	38	0	133169152	48	5919
2026-01-07 23:21:49.42	132.04	6.56	-37.4	-38.5	21.5	0.00e+00	0	38	0	136314880	48	5895
2026-01-07 23:21:50.43	132.01	6.64	-37.4	-38.5	21.5	0.00e+00	0	38	0	139460608	48	5890
2026-01-07 23:21:51.44	131.97	6.72	-37.3	-38.3	21.6	0.00e+00	0	38	0	142606336	48	5791
2026-01-07 23:21:52.44	131.94	6.79	-37.3	-38.4	21.6	0.00e+00	0	38	0	145752064	48	5798
2026-01-07 23:21:53.46	131.90	6.87	-37.2	-38.3	21.7	0.00e+00	0	38	0	148897792	48	5749
2026-01-07 23:21:54.46	131.87	6.94	-37.4	-38.4	21.6	0.00e+00	0	38	0	152043520	48	5853
2026-01-07 23:21:55.47	131.83	7.02	-37.4	-38.5	21.6	0.00e+00	0	38	0	155189248	48	5897
2026-01-07 23:21:56.48	131.80	7.09	-37.4	-38.5	21.6	0.00e+00	0	38	0	158334976	48	5883
2026-01-07 23:21:57.49	131.76	7.17	-37.2	-38.3	21.8	0.00e+00	0	38	0	161480704	48	5752
2026-01-07 23:21:58.50	131.73	7.25	-37.3	-38.4	21.8	0.00e+00	0	38	0	164626432	48	5803
2026-01-07 23:21:59.51	131.69	7.33	-37.1	-38.2	21.9	0.00e+00	0	38	0	167772160	48	5684
2026-01-07 23:22:00.52	131.66	7.40	-37.4	-38.4	21.7	0.00e+00	0	38	0	170917888	48	5857
2026-01-07 23:22:01.53	131.62	7.48	-37.2	-38.2	21.9	0.00e+00	0	38	0	174063616	48	5709
2026-01-07 23:22:02.54	131.58	7.56	-37.2	-38.2	21.9	0.00e+00	0	38	0	177209344	48	5697
2026-01-07 23:22:03.55	131.55	7.64	-37.1	-38.1	22.0	0.00e+00	0	38	0	180355072	48	5629
2026-01-07 23:22:04.56	131.51	7.71	-37.1	-38.2	22.0	0.00e+00	0	38	0	183500800	48	5672
2026-01-07 23:22:05.57	131.47	7.79	-37.0	-38.0	22.1	0.00e+00	0	38	0	186646528	48	5584
2026-01-07 23:22:06.58	131.43	7.87	-36.9	-37.9	22.2	0.00e+00	0	38	0	189792256	48	5523
2026-01-07 23:22:07.59	131.40	7.95	-36.8	-37.9	22.2	0.00e+00	0	38	0	192937984	48	5478
2026-01-07 23:22:08.61	131.36	8.03	-36.8	-37.9	22.3	0.00e+00	0	38	0	196083712	48	5475
2026-01-07 23:22:09.61	131.32	8.11	-36.9	-37.9	22.3	0.00e+00	0	38	0	199229440	48	5483
2026-01-07 23:22:10.63	131.28	8.19	-36.9	-38.0	22.3	0.00e+00	0	38	0	202375168	48	5537
2026-01-07 23:22:11.64	131.24	8.27	-37.0	-38.0	22.2	0.00e+00	0	38	0	205520896	48	5556
2026-01-07 23:22:12.65	131.20	8.35	-36.7	-37.7	22.5	0.00e+00	0	38	0	208666624	46	6029
2026-01-07 23:22:13.65	131.16	8.43	-36.8	-37.8	22.4	0.00e+00	0	38	0	211812352	46	6088
2026-01-07 23:22:14.66	131.13	8.51	-36.8	-37.9	22.4	0.00e+00	0	38	0	214958080	46	6150
2026-01-07 23:22:15.67	131.09	8.59	-36.7	-37.7	22.5	0.00e+00	0	38	0	218103808	46	6007
2026-01-07 23:22:16.68	131.05	8.67	-36.9	-37.9	22.4	0.00e+00	0	38	0	221249536	46	6151
2026-01-07 23:22:17.70	131.01	8.75	-36.7	-37.7	22.5	0.00e+00	0	38	0	224395264	46	6064
2026-01-07 23:22:18.70	130.97	8.84	-36.5	-37.4	22.7	0.00e+00	0	38	0	227540992	46	5850
2026-01-07 23:22:19.71	130.92	8.92	-36.5	-37.5	22.7	0.00e+00	0	38	0	230686720	46	5874
2026-01-07 23:22:20.72	130.88	9.00	-36.6	-37.6	22.6	0.00e+00	0	38	0	233832448	46	5966
2026-01-07 23:22:21.73	130.84	9.08	-36.4	-37.4	22.8	0.00e+00	0	38	0	236978176	46	5812
2026-01-07 23:22:22.74	130.80	9.16	-36.3	-37.3	22.9	0.00e+00	0	38	0	240123904	46	5751
2026-01-07 23:22:23.75	130.76	9.25	-36.3	-37.3	22.9	0.00e+00	0	38	0	243269632	46	5775
2026-01-07 23:22:24.76	130.72	9.33	-36.3	-37.3	22.9	0.00e+00	0	38	0	246415360	46	5735
2026-01-07 23:22:25.77	130.68	9.41	-36.2	-37.2	23.0	0.00e+00	0	38	0	249561088	46	5694
2026-01-07 23:22:26.78	130.63	9.50	-36.3	-37.3	22.9	0.00e+00	0	38	0	252706816	46	5738
2026-01-07 23:22:27.78	130.59	9.58	-36.2	-37.2	23.0	0.00e+00	0	38	0	255852544	46	5684
2026-01-07 23:22:28.79	130.55	9.66	-36.1	-37.1	23.1	0.00e+00	0	38	0	258998272	46	5614
2026-01-07 23:22:29.80	130.51	9.75	-36.2	-37.2	23.1	0.00e+00	0	38	0	262144000	46	5685
2026-01-07 23:22:30.81	130.46	9.83	-36.0	-37.0	23.3	0.00e+00	0	38	0	265289728	46	5539
2026-01-07 23:22:31.82	130.42	9.92	-36.1	-37.0	23.2	0.00e+00	0	38	0	268435456	46	5585
2026-01-07 23:22:32.83	130.38	10.00	-35.9	-36.8	23.3	0.00e+00	0	38	0	271581184	46	5461
2026-01-07 23:22:33.84	130.33	10.09	-36.1	-37.0	23.2	0.00e+00	0	38	0	274726912	46	5589
2026-01-07 23:22:34.85	130.29	10.18	-35.9	-36.9	23.3	0.00e+00	0	38	0	277872640	46	5483
2026-01-07 23:22:35.86	130.24	10.26	-35.9	-36.8	23.3	0.00e+00	0	38	0	281018368	46	5455
2026-01-07 23:22:36.87	130.20	10.35	-35.8	-36.8	23.4	0.00e+00	0	38	0	284164096	46	5411
2026-01-07 23:22:37.88	130.15	10.44	-35.9	-36.9	23.4	0.00e+00	0	38	0	287309824	46	5479
2026-01-07 23:22:38.89	130.11	10.52	-35.9	-36.9	23.3	0.00e+00	0	38	0	290455552	46	5505
2026-01-07 23:22:39.90	130.06	10.61	-35.6	-36.6	23.6	0.00e+00	0	38	0	293601280	44	5934
2026-01-07 23:22:40.91	130.01	10.70	-35.5	-36.5	23.7	0.00e+00	0	38	0	296747008	44	5861
2026-01-07 23:22:41.92	129.97	10.78	-35.5	-36.4	23.6	0.00e+00	0	38	0	299892736	44	5857
2026-01-07 23:22:42.93	129.92	10.87	-35.6	-36.5	23.6	0.00e+00	0	38	0	303038464	44	5915
2026-01-07 23:22:43.93	129.87	10.96	-35.5	-36.4	23.6	0.00e+00	0	38	0	306184192	44	5841
2026-01-07 23:22:44.94	129.83	11.05	-35.6	-36.5	23.6	0.00e+00	0	38	0	309329920	44	5916
2026-01-07 23:22:45.95	129.78	11.14	-35.5	-36.5	23.7	0.00e+00	0	38	0	312475648	44	5869
2026-01-07 23:22:46.96	129.73	11.23	-35.5	-36.5	23.6	0.00e+00	0	38	0	315621376	44	5874
2026-01-07 23:22:47.97	129.68	11.32	-35.3	-36.2	23.9	0.00e+00	0	38	0	318767104	44	5707
2026-01-07 23:22:48.98	129.63	11.41	-35.3	-36.2	23.8	0.00e+00	0	38	0	321912832	44	5691
2026-01-07 23:22:49.98	129.59	11.50	-35.3	-36.2	23.8	0.00e+00	0	38	0	325058560	44	5689
2026-01-07 23:22:50.99	129.54	11.59	-35.4	-36.3	23.8	0.00e+00	0	38	0	328204288	44	5738
2026-01-07 23:22:52.01	129.49	11.68	-35.3	-36.3	23.8	0.00e+00	0	38	0	331350016	44	5727
2026-01-07 23:22:53.02	129.44	11.77	-35.2	-36.1	23.9	0.00e+00	0	38	0	334495744	44	5649
2026-01-07 23:22:54.02	129.39	11.86	-35.3	-36.2	23.8	0.00e+00	0	38	0	337641472	44	5688
2026-01-07 23:22:55.03	129.34	11.95	-35.0	-35.9	23.9	0.00e+00	0	38	0	340787200	44	5523
2026-01-07 23:22:56.04	129.29	12.05	-35.1	-36.0	24.0	0.00e+00	0	38	0	343932928	44	5585
2026-01-07 23:22:57.05	129.23	12.14	-35.1	-36.0	24.0	0.00e+00	0	38	0	347078656	44	5564
2026-01-07 23:22:58.06	129.18	12.23	-35.0	-35.9	24.0	0.00e+00	0	38	0	350224384	44	5530
2026-01-07 23:22:59.06	129.13	12.32	-35.1	-36.0	24.0	0.00e+00	0	38	0	353370112	44	5540
2026-01-07 23:23:00.07	129.08	12.42	-35.2	-36.1	23.9	0.00e+00	0	38	0	356515840	44	5607
2026-01-07 23:23:01.08	129.03	12.51	-35.0	-35.9	24.1	0.00e+00	0	39	0	359661568	44	5482
2026-01-07 23:23:02.09	128.97	12.60	-35.1	-36.0	24.0	0.00e+00	0	38	0	362807296	44	5580
2026-01-07 23:23:03.10	128.92	12.70	-34.9	-35.8	24.1	0.00e+00	0	38	0	365953024	44	5439
2026-01-07 23:23:04.11	128.87	12.79	-35.0	-35.9	24.1	0.00e+00	0	38	0	369098752	44	5513
2026-01-07 23:23:05.12	128.81	12.89	-35.0	-35.9	24.0	0.00e+00	0	38	0	372244480	44	5503
2026-01-07 23:23:06.13	128.76	12.98	-35.0	-35.9	24.1	0.00e+00	0	38	0	375390208	44	5515
2026-01-07 23:23:07.14	128.70	13.08	-35.1	-36.0	24.0	0.00e+00	0	38	0	378535936	44	5557
2026-01-07 23:23:08.15	128.65	13.18	-35.2	-36.1	23.8	0.00e+00	0	38	0	381681664	44	5626
2026-01-07 23:23:09.16	128.59	13.27	-35.2	-36.1	23.9	0.00e+00	0	38	0	384827392	44	5636
2026-01-07 23:23:10.17	128.54	13.37	-35.2	-36.1	23.9	0.00e+00	0	38	0	387973120	44	5600
2026-01-07 23:23:11.18	128.48	13.47	-35.3	-36.2	23.8	0.00e+00	0	38	0	391118848	44	5713
2026-01-07 23:23:12.19	128.42	13.57	-35.4	-36.3	23.6	0.00e+00	0	38	0	394264576	44	5760
2026-01-07 23:23:13.20	128.37	13.66	-35.5	-36.4	23.7	0.00e+00	0	38	0	397410304	44	5829
2026-01-07 23:23:14.21	128.31	13.76	-35.1	-36.0	24.0	0.00e+00	0	38	0	400556032	44	5584
2026-01-07 23:23:15.22	128.25	13.86	-35.3	-36.2	23.9	0.00e+00	0	38	0	403701760	44	5708
2026-01-07 23:23:16.23	128.19	13.96	-35.1	-36.0	24.0	0.00e+00	0	39	0	406847488	44	5557
2026-01-07 23:23:17.24	128.13	14.06	-35.2	-36.2	23.9	0.00e+00	0	38	0	409993216	44	5664
2026-01-07 23:23:18.25	128.07	14.16	-35.0	-35.9	24.0	0.00e+00	0	39	0	413138944	44	5528
2026-01-07 23:23:19.26	128.02	14.26	-35.1	-36.0	24.0	0.00e+00	0	39	0	416284672	44	5543
2026-01-07 23:23:20.27	127.96	14.36	-35.1	-36.1	24.0	0.00e+00	0	38	0	419430400	44	5611
2026-01-07 23:23:21.28	127.89	14.46	-35.2	-36.1	24.0	0.00e+00	0	39	0	422576128	44	5637
2026-01-07 23:23:22.28	127.83	14.56	-35.2	-36.1	24.0	0.00e+00	0	38	0	425721856	44	5642
2026-01-07 23:23:23.29	127.77	14.66	-35.2	-36.1	24.0	0.00e+00	0	39	0	428867584	44	5636
2026-01-07 23:23:24.30	127.71	14.77	-35.1	-36.0	24.1	0.00e+00	0	39	0	433061888	44	5586
2026-01-07 23:23:25.31	127.65	14.87	-35.1	-36.0	24.1	0.00e+00	0	39	0	435159040	44	5587
2026-01-07 23:23:26.32	127.59	14.97	-35.0	-35.9	24.1	0.00e+00	0	39	0	438304768	44	5514
2026-01-07 23:23:27.34	127.52	15.08	-35.2	-36.1	24.0	0.00e+00	0	38	0	441450496	44	5625
2026-01-07 23:23:28.34	127.46	15.18	-35.2	-36.1	24.1	0.00e+00	0	38	0	444596224	44	5618
2026-01-07 23:23:29.35	127.40	15.28	-35.1	-36.0	24.1	0.00e+00	0	39	0	448790528	44	5583
2026-01-07 23:23:30.36	127.33	15.39	-35.1	-36.0	24.1	0.00e+00	0	38	0	451936256	44	5545
2026-01-07 23:23:31.37	127.27	15.49	-35.1	-36.0	24.1	0.00e+00	0	38	0	455081984	44	5585
2026-01-07 23:23:32.38	127.20	15.60	-35.1	-36.0	24.0	0.00e+00	0	38	0	458227712	44	5566
2026-01-07 23:23:33.39	127.14	15.70	-35.1	-36.0	24.1	0.00e+00	0	38	0	460324864	44	5554
2026-01-07 23:23:34.40	127.07	15.81	-35.2	-36.1	23.9	0.00e+00	0	39	0	464519168	44	5607
2026-01-07 23:23:35.41	127.00	15.92	-35.2	-36.1	24.0	0.00e+00	0	38	0	467664896	44	5619
2026-01-07 23:23:36.42	126.93	16.02	-35.3	-36.2	23.8	0.00e+00	0	38	0	470810624	44	5725
2026-01-07 23:23:37.43	126.87	16.13	-35.2	-36.1	24.0	0.00e+00	0	38	0	473956352	44	5617
2026-01-07 23:23:38.44	126.80	16.24	-35.3	-36.2	23.8	0.00e+00	0	39	0	477102080	44	5721
2026-01-07 23:23:39.45	126.73	16.35	-35.1	-36.1	24.0	0.00e+00	0	38	0	480247808	44	5600
2026-01-07 23:23:40.46	126.66	16.46	-35.3	-36.2	23.9	0.00e+00	0	38	0	483393536	44	5688
2026-01-07 23:23:41.47	126.59	16.57	-35.1	-36.0	24.1	0.00e+00	0	38	0	486539264	44	5584
2026-01-07 23:23:42.48	126.52	16.68	-35.2	-36.1	23.9	0.00e+00	0	39	0	489684992	44	5639
2026-01-07 23:23:43.49	126.45	16.79	-35.3	-36.2	23.9	0.00e+00	0	38	0	492830720	44	5687
2026-01-07 23:23:44.50	126.38	16.90	-35.3	-36.2	23.9	0.00e+00	0	39	0	495976448	44	5699
2026-01-07 23:23:45.51	126.31	17.01	-35.4	-36.4	23.8	0.00e+00	0	38	0	499122176	44	5804
2026-01-07 23:23:46.52	126.23	17.12	-35.4	-36.3	23.8	0.00e+00	0	39	0	502267904	44	5780
2026-01-07 23:23:47.53	126.16	17.23	-35.3	-36.2	24.0	0.00e+00	0	38	0	505413632	44	5711
2026-01-07 23:23:48.54	126.09	17.34	-35.3	-36.2	24.0	0.00e+00	0	39	0	508559360	44	5704
2026-01-07 23:23:49.55	126.01	17.46	-35.5	-36.4	23.8	0.00e+00	0	39	0	511705088	44	5821
2026-01-07 23:23:50.56	125.94	17.57	-35.4	-36.4	23.8	0.00e+00	0	38	0	514850816	44	5809
2026-01-07 23:23:51.57	125.86	17.68	-35.5	-36.5	23.8	0.00e+00	0	38	0	517996544	44	5860
2026-01-07 23:23:52.58	125.78	17.80	-35.5	-36.4	23.8	0.00e+00	0	38	0	521142272	44	5827
2026-01-07 23:23:53.59	125.71	17.91	-35.6	-36.5	23.8	0.00e+00	0	38	0	524288000	44	5921
2026-01-07 23:23:54.59	125.63	18.03	-35.6	-36.6	23.7	0.00e+00	0	38	0	527433728	44	5952
2026-01-07 23:23:55.60	125.55	18.14	-35.7	-36.7	23.6	0.00e+00	0	39	0	530579456	44	6007
2026-01-07 23:23:56.61	125.47	18.26	-35.7	-36.6	23.6	0.00e+00	0	38	0	533725184	44	5946
2026-01-07 23:23:57.62	125.40	18.38	-35.7	-36.7	23.7	0.00e+00	0	38	0	536870912	44	6005
2026-01-07 23:23:58.63	125.32	18.49	-35.6	-36.6	23.7	0.00e+00	0	39	0	540016640	44	5942
2026-01-07 23:23:59.64	125.23	18.61	-35.5	-36.4	23.9	0.00e+00	0	39	0	543162368	44	5817
2026-01-07 23:24:00.65	125.15	18.73	-35.6	-36.5	23.8	0.00e+00	0	38	0	546308096	44	5895
2026-01-07 23:24:01.66	125.07	18.85	-35.5	-36.4	23.9	0.00e+00	0	39	0	549453824	44	5830
2026-01-07 23:24:02.67	124.99	18.97	-35.6	-36.5	23.8	0.00e+00	0	39	0	552599552	44	5907
2026-01-07 23:24:03.67	124.91	19.09	-35.6	-36.6	23.7	0.00e+00	0	39	0	555745280	44	5929
2026-01-07 23:24:04.68	124.82	19.21	-35.2	-36.1	24.0	0.00e+00	0	39	0	558891008	44	5658
2026-01-07 23:24:05.69	124.74	19.33	-35.1	-36.0	24.1	0.00e+00	0	38	0	562036736	44	5591
2026-01-07 23:24:06.70	124.65	19.45	-35.2	-36.1	24.1	0.00e+00	0	39	0	565182464	44	5604
2026-01-07 23:24:07.71	124.57	19.57	-35.3	-36.2	24.0	0.00e+00	0	39	0	568328192	44	5705
2026-01-07 23:24:08.72	124.48	19.69	-35.1	-36.0	24.1	0.00e+00	0	39	0	571473920	44	5563
2026-01-07 23:24:09.73	124.39	19.82	-35.1	-36.0	24.2	0.00e+00	0	39	0	574619648	44	5542
2026-01-07 23:24:10.74	124.31	19.94	-35.0	-35.9	24.2	0.00e+00	0	39	0	577765376	44	5527
2026-01-07 23:24:11.74	124.22	20.06	-35.0	-35.9	24.3	0.00e+00	0	39	0	580911104	44	5469
2026-01-07 23:24:12.75	124.13	20.19	-35.2	-36.1	24.1	0.00e+00	0	38	0	584056832	44	5610
2026-01-07 23:24:13.76	124.04	20.31	-34.9	-35.8	24.3	0.00e+00	0	39	0	587202560	44	5421
2026-01-07 23:24:14.77	123.95	20.44	-35.0	-35.9	24.2	0.00e+00	0	39	0	590348288	44	5479
2026-01-07 23:24:15.78	123.86	20.56	-34.9	-35.9	24.3	0.00e+00	0	39	0	593494016	44	5473
2026-01-07 23:24:16.79	123.76	20.69	-34.7	-35.6	24.5	0.00e+00	0	39	0	596639744	42	5954
2026-01-07 23:24:17.80	123.67	20.82	-34.6	-35.5	24.6	0.00e+00	0	39	0	599785472	42	5898
2026-01-07 23:24:18.81	123.58	20.95	-34.6	-35.5	24.5	0.00e+00	0	38	0	602931200	42	5879
2026-01-07 23:24:19.82	123.48	21.08	-34.6	-35.5	24.7	0.00e+00	0	38	0	606076928	42	5901
2026-01-07 23:24:20.83	123.38	21.20	-34.6	-35.5	24.7	0.00e+00	0	38	0	609222656	42	5872
2026-01-07 23:24:21.84	123.29	21.33	-34.3	-35.2	24.8	0.00e+00	0	39	0	612368384	42	5683
2026-01-07 23:24:22.84	123.19	21.46	-34.4	-35.2	24.8	0.00e+00	0	39	0	615514112	42	5713
2026-01-07 23:24:23.86	123.09	21.59	-34.1	-35.0	25.0	0.00e+00	0	39	0	618659840	42	5545
2026-01-07 23:24:24.87	122.99	21.73	-34.1	-34.9	25.0	0.00e+00	0	39	0	621805568	42	5528
2026-01-07 23:24:25.87	122.89	21.86	-33.9	-34.7	25.2	0.00e+00	0	39	0	624951296	42	5396
2026-01-07 23:24:26.88	122.79	21.99	-33.9	-34.7	25.2	0.00e+00	0	39	0	628097024	42	5394
2026-01-07 23:24:27.89	122.69	22.12	-33.9	-34.8	25.1	0.00e+00	0	39	0	631242752	42	5409
2026-01-07 23:24:28.90	122.59	22.26	-33.8	-34.7	25.1	0.00e+00	0	39	0	634388480	42	5350
2026-01-07 23:24:29.91	122.49	22.39	-33.8	-34.7	25.1	0.00e+00	0	39	0	637534208	40	6008
2026-01-07 23:24:30.92	122.38	22.53	-33.7	-34.6	25.1	0.00e+00	0	39	0	640679936	40	5928
2026-01-07 23:24:31.93	122.28	22.66	-33.7	-34.6	25.1	0.00e+00	0	39	0	643825664	40	5950
2026-01-07 23:24:32.94	122.17	22.80	-33.8	-34.7	25.1	0.00e+00	0	39	0	646971392	40	6042
2026-01-07 23:24:33.95	122.06	22.93	-33.8	-34.6	25.1	0.00e+00	0	39	0	650117120	40	5985
2026-01-07 23:24:34.96	121.95	23.07	-33.9	-34.8	25.1	0.00e+00	0	39	0	653262848	40	6091
2026-01-07 23:24:35.97	121.84	23.21	-33.9	-34.8	25.1	0.00e+00	0	39	0	656408576	40	6076
2026-01-07 23:24:36.98	121.73	23.35	-34.0	-34.8	25.1	0.00e+00	0	39	0	659554304	40	6134
2026-01-07 23:24:37.99	121.62	23.49	-34.1	-35.0	24.9	0.00e+00	0	39	0	662700032	40	6212
2026-01-07 23:24:39.00	121.51	23.63	-34.1	-35.0	25.1	0.00e+00	0	39	0	665845760	40	6208
2026-01-07 23:24:40.01	121.40	23.77	-34.2	-35.1	24.9	0.00e+00	0	39	0	668991488	40	6290
2026-01-07 23:24:41.02	121.28	23.91	-33.9	-34.8	25.1	0.00e+00	0	39	0	672137216	40	6112
2026-01-07 23:24:42.03	121.17	24.05	-34.0	-34.8	25.1	0.00e+00	0	39	0	675282944	40	6127
2026-01-07 23:24:43.04	121.05	24.19	-34.0	-34.9	25.1	0.00e+00	0	38	0	678428672	40	6175
2026-01-07 23:24:44.05	120.93	24.34	-33.9	-34.8	25.2	0.00e+00	0	38	0	681574400	40	6093
2026-01-07 23:24:45.06	120.81	24.48	-34.0	-34.9	25.1	0.00e+00	0	39	0	684720128	40	6136
2026-01-07 23:24:46.07	120.69	24.62	-34.0	-34.9	25.1	0.00e+00	0	39	0	687865856	40	6177
2026-01-07 23:24:47.08	120.57	24.77	-34.1	-35.0	24.9	0.00e+00	0	38	0	691011584	40	6251
2026-01-07 23:24:48.09	120.45	24.91	-34.2	-35.1	24.9	0.00e+00	0	39	0	694157312	40	6288
2026-01-07 23:24:49.10	120.33	25.06	-34.3	-35.2	24.7	0.00e+00	0	38	0	697303040	40	6407
2026-01-07 23:24:50.11	120.20	25.21	-34.3	-35.2	24.7	0.00e+00	0	39	0	700448768	40	6386
2026-01-07 23:24:51.12	120.08	25.36	-34.5	-35.4	24.6	0.00e+00	0	39	0	703594496	40	6531
2026-01-07 23:24:52.12	119.95	25.50	-34.5	-35.4	24.6	0.00e+00	0	38	0	706740224	40	6555
2026-01-07 23:24:53.13	119.82	25.65	-34.6	-35.5	24.5	0.00e+00	0	39	0	709885952	40	6579
2026-01-07 23:24:54.14	119.69	25.80	-34.7	-35.6	24.4	0.00e+00	0	39	0	713031680	40	6708
2026-01-07 23:24:55.15	119.56	25.95	-34.7	-35.6	24.4	0.00e+00	0	38	0	716177408	42	5950
2026-01-07 23:24:56.16	119.43	26.10	-34.8	-35.7	24.5	0.00e+00	0	39	0	719323136	42	6017
2026-01-07 23:24:57.17	119.30	26.25	-34.9	-35.8	24.3	0.00e+00	0	39	0	722468864	42	6118
2026-01-07 23:24:58.18	119.16	26.41	-34.9	-35.8	24.3	0.00e+00	0	39	0	725614592	42	6122
2026-01-07 23:24:59.19	119.03	26.56	-35.0	-35.9	24.3	0.00e+00	0	39	0	728760320	42	6198
2026-01-07 23:25:00.20	118.89	26.71	-35.0	-35.9	24.3	0.00e+00	0	39	0	731906048	42	6199
2026-01-07 23:25:01.21	118.75	26.87	-35.2	-36.1	24.3	0.00e+00	0	39	0	735051776	42	6288
2026-01-07 23:25:02.22	118.61	27.02	-35.1	-36.0	24.2	0.00e+00	0	39	0	738197504	42	6268
2026-01-07 23:25:03.23	118.47	27.18	-35.3	-36.2	24.0	0.00e+00	0	39	0	741343232	42	6414
2026-01-07 23:25:04.24	118.33	27.34	-35.1	-36.0	24.1	0.00e+00	0	39	0	744488960	42	6223
2026-01-07 23:25:05.25	118.19	27.49	-35.1	-36.0	24.0	0.00e+00	0	39	0	747634688	42	6273
2026-01-07 23:25:06.26	118.04	27.65	-35.2	-36.1	23.8	0.00e+00	0	39	0	750780416	42	6310
2026-01-07 23:25:07.26	117.89	27.81	-35.3	-36.2	23.8	0.00e+00	0	39	0	753926144	42	6379
2026-01-07 23:25:08.27	117.75	27.97	-35.3	-36.2	23.7	0.00e+00	0	39	0	757071872	42	6395
2026-01-07 23:25:09.28	117.60	28.13	-35.5	-36.4	23.6	0.00e+00	0	39	0	760217600	42	6572
2026-01-07 23:25:10.29	117.44	28.29	-35.3	-36.3	23.9	0.00e+00	0	38	0	763363328	42	6453
2026-01-07 23:25:11.30	117.29	28.45	-35.4	-36.4	24.0	0.00e+00	0	39	0	766509056	42	6507
2026-01-07 23:25:12.31	117.14	28.61	-35.3	-36.2	24.2	0.00e+00	0	38	0	769654784	42	6416
2026-01-07 23:25:13.32	116.98	28.77	-35.3	-36.2	24.1	0.00e+00	0	39	0	772800512	42	6405
2026-01-07 23:25:14.33	116.82	28.94	-35.2	-36.2	24.3	0.00e+00	0	39	0	775946240	42	6351
2026-01-07 23:25:15.34	116.66	29.10	-35.1	-36.0	24.3	0.00e+00	0	39	0	779091968	42	6275
2026-01-07 23:25:16.35	116.50	29.27	-35.0	-35.9	24.4	0.00e+00	0	39	0	782237696	42	6162
2026-01-07 23:25:17.36	116.34	29.43	-35.0	-36.0	24.3	0.00e+00	0	39	0	785383424	42	6213
2026-01-07 23:25:18.37	116.17	29.60	-34.8	-35.7	24.3	0.00e+00	0	39	0	788529152	42	6053
2026-01-07 23:25:19.38	116.01	29.77	-34.8	-35.7	24.2	0.00e+00	0	39	0	791674880	42	6050
2026-01-07 23:25:20.39	115.84	29.93	-34.8	-35.8	24.0	0.00e+00	0	39	0	794820608	42	6070
2026-01-07 23:25:21.40	115.67	30.10	-35.0	-35.9	23.8	0.00e+00	0	38	0	797966336	42	6193
2026-01-07 23:25:22.41	115.50	30.27	-35.1	-36.0	23.7	0.00e+00	0	38	0	801112064	42	6270
2026-01-07 23:25:23.41	115.33	30.44	-35.2	-36.1	23.7	0.00e+00	0	39	0	804257792	42	6338
2026-01-07 23:25:24.42	115.15	30.61	-35.4	-36.3	23.7	0.00e+00	0	39	0	807403520	42	6479
2026-01-07 23:25:25.43	114.97	30.78	-35.4	-36.4	23.8	0.00e+00	0	39	0	810549248	42	6512
2026-01-07 23:25:26.44	114.79	30.95	-35.4	-36.4	24.0	0.00e+00	0	39	0	813694976	42	6504
2026-01-07 23:25:27.45	114.61	31.13	-35.6	-36.5	23.9	0.00e+00	0	39	0	816840704	42	6612
2026-01-07 23:25:28.46	114.43	31.30	-35.2	-36.1	24.3	0.00e+00	0	39	0	821035008	42	6325
2026-01-07 23:25:29.47	114.25	31.47	-35.2	-36.1	24.3	0.00e+00	0	39	0	823132160	42	6289
2026-01-07 23:25:30.48	114.06	31.65	-34.9	-35.7	24.6	0.00e+00	0	39	0	826277888	42	6058
2026-01-07 23:25:31.49	113.87	31.82	-34.8	-35.7	24.4	0.00e+00	0	39	0	829423616	42	6042
2026-01-07 23:25:32.50	113.68	32.00	-34.8	-35.7	24.3	0.00e+00	0	39	0	832569344	42	6040
2026-01-07 23:25:33.51	113.48	32.18	-34.7	-35.6	24.3	0.00e+00	0	39	0	836763648	42	5983
2026-01-07 23:25:34.52	113.29	32.35	-34.8	-35.7	24.1	0.00e+00	0	39	0	839909376	42	6053
2026-01-07 23:25:35.53	113.09	32.53	-34.9	-35.8	24.1	0.00e+00	0	39	0	843055104	42	6129
2026-01-07 23:25:36.54	112.89	32.71	-35.0	-35.9	24.0	0.00e+00	0	39	0	846200832	42	6192
2026-01-07 23:25:37.55	112.69	32.89	-35.2	-36.1	24.0	0.00e+00	0	39	0	848297984	42	6315
2026-01-07 23:25:38.56	112.48	33.07	-35.4	-36.3	24.0	0.00e+00	0	39	0	852492288	42	6489
2026-01-07 23:25:39.57	112.28	33.25	-35.4	-36.4	24.1	0.00e+00	0	39	0	855638016	42	6524
2026-01-07 23:25:40.58	112.07	33.43	-35.5	-36.5	24.1	0.00e+00	0	39	0	858783744	42	6585
2026-01-07 23:25:41.59	111.86	33.61	-35.7	-36.6	24.0	0.00e+00	0	39	0	861929472	42	6667
2026-01-07 23:25:42.60	111.64	33.80	-35.5	-36.4	24.1	0.00e+00	0	39	0	865075200	42	6569
2026-01-07 23:25:43.61	111.43	33.98	-35.5	-36.4	24.1	0.00e+00	0	39	0	868220928	42	6573
2026-01-07 23:25:44.62	111.21	34.16	-35.5	-36.5	24.1	0.00e+00	0	39	0	871366656	42	6576
2026-01-07 23:25:45.63	110.99	34.35	-35.7	-36.6	23.9	0.00e+00	0	39	0	874512384	44	5982
2026-01-07 23:25:46.64	110.76	34.53	-35.9	-36.8	23.8	0.00e+00	0	39	0	877658112	44	6126
2026-01-07 23:25:47.65	110.54	34.72	-36.1	-37.1	23.5	0.00e+00	0	39	0	880803840	44	6308
2026-01-07 23:25:48.66	110.31	34.90	-36.2	-37.2	23.5	0.00e+00	0	39	0	883949568	44	6364
2026-01-07 23:25:49.67	110.08	35.09	-36.3	-37.2	23.4	0.00e+00	0	39	0	887095296	44	6421
2026-01-07 23:25:50.68	109.84	35.28	-36.4	-37.3	23.3	0.00e+00	0	39	0	890241024	44	6485
2026-01-07 23:25:51.69	109.60	35.47	-36.4	-37.4	23.3	0.00e+00	0	39	0	893386752	44	6502
2026-01-07 23:25:52.70	109.36	35.65	-36.5	-37.4	23.3	0.00e+00	0	39	0	896532480	44	6559
2026-01-07 23:25:53.71	109.12	35.84	-36.6	-37.5	23.1	0.00e+00	0	39	0	899678208	44	6640
2026-01-07 23:25:54.72	108.88	36.03	-36.5	-37.4	23.3	0.00e+00	0	39	0	902823936	44	6569
2026-01-07 23:25:55.73	108.63	36.22	-36.5	-37.5	23.3	0.00e+00	0	39	0	905969664	44	6590
2026-01-07 23:25:56.74	108.38	36.41	-36.5	-37.5	23.2	0.00e+00	0	39	0	909115392	44	6618
2026-01-07 23:25:57.74	108.12	36.60	-36.8	-37.7	23.0	0.00e+00	0	39	0	912261120	46	6048
2026-01-07 23:25:58.76	107.86	36.80	-37.0	-38.0	22.8	0.00e+00	0	39	0	915406848	46	6230
2026-01-07 23:25:59.76	107.61	36.99	-37.1	-38.1	22.8	0.00e+00	0	38	0	918552576	46	6284
2026-01-07 23:26:00.77	107.34	37.18	-37.2	-38.1	22.7	0.00e+00	0	39	0	921698304	46	6331
2026-01-07 23:26:01.78	107.08	37.37	-37.3	-38.2	22.6	0.00e+00	0	38	0	924844032	46	6411
2026-01-07 23:26:02.79	106.81	37.56	-37.3	-38.3	22.5	0.00e+00	0	39	0	927989760	46	6440
2026-01-07 23:26:03.80	106.53	37.76	-37.2	-38.2	22.7	0.00e+00	0	38	0	931135488	46	6359
2026-01-07 23:26:04.81	106.26	37.95	-37.0	-37.9	22.9	0.00e+00	0	39	0	934281216	46	6195
2026-01-07 23:26:05.82	105.98	38.14	-37.0	-37.9	22.8	0.00e+00	0	39	0	937426944	46	6205
2026-01-07 23:26:06.83	105.69	38.34	-37.0	-37.9	22.7	0.00e+00	0	39	0	940572672	46	6201
2026-01-07 23:26:07.84	105.41	38.53	-36.7	-37.7	22.9	0.00e+00	0	39	0	943718400	46	6040
2026-01-07 23:26:08.85	105.12	38.73	-36.7	-37.7	22.9	0.00e+00	0	38	0	946864128	46	6031
2026-01-07 23:26:09.86	104.82	38.92	-36.7	-37.7	23.0	0.00e+00	0	39	0	950009856	46	6010
2026-01-07 23:26:10.86	104.53	39.12	-36.8	-37.8	23.0	0.00e+00	0	39	0	953155584	46	6078
2026-01-07 23:26:11.87	104.23	39.31	-36.7	-37.6	22.9	0.00e+00	0	39	0	956301312	46	5983
2026-01-07 23:26:12.88	103.92	39.51	-36.9	-37.9	22.6	0.00e+00	0	39	0	959447040	46	6194
2026-01-07 23:26:13.89	103.62	39.71	-37.2	-38.2	22.5	0.00e+00	0	39	0	962592768	46	6387
2026-01-07 23:26:14.90	103.30	39.90	-37.1	-38.2	22.6	0.00e+00	0	39	0	965738496	46	6364
2026-01-07 23:26:15.91	102.99	40.10	-36.9	-37.9	22.7	0.00e+00	0	38	0	968884224	46	6183
2026-01-07 23:26:16.92	102.67	40.29	-36.9	-37.9	22.8	0.00e+00	0	39	0	972029952	46	6154
2026-01-07 23:26:17.93	102.35	40.49	-37.1	-38.1	22.5	0.00e+00	0	39	0	975175680	46	6302
2026-01-07 23:26:18.94	102.02	40.69	-37.0	-38.0	22.6	0.00e+00	0	39	0	978321408	46	6253
2026-01-07 23:26:19.95	101.69	40.88	-37.2	-38.3	22.5	0.00e+00	0	38	0	981467136	46	6427
2026-01-07 23:26:20.96	101.35	41.08	-37.7	-38.7	22.0	0.00e+00	0	39	0	984612864	46	6784
2026-01-07 23:26:21.97	101.01	41.28	-37.9	-39.0	21.8	0.00e+00	0	39	0	987758592	48	6229
2026-01-07 23:26:22.98	100.67	41.47	-38.2	-39.3	21.8	0.00e+00	0	39	0	990904320	48	6494
2026-01-07 23:26:23.99	100.32	41.67	-37.9	-39.0	22.0	0.00e+00	0	39	0	994050048	48	6235
2026-01-07 23:26:25.00	99.97	41.86	-37.9	-38.9	22.0	0.00e+00	0	39	0	997195776	48	6167
2026-01-07 23:26:26.01	99.61	42.06	-37.8	-38.8	22.2	0.00e+00	0	39	0	1000341504	48	6111
2026-01-07 23:26:27.02	99.25	42.26	-37.8	-38.9	21.8	0.00e+00	0	39	0	1003487232	48	6145
2026-01-07 23:26:28.02	98.89	42.45	-38.1	-39.2	21.7	0.00e+00	0	39	0	1006632960	48	6359
2026-01-07 23:26:29.04	98.51	42.65	-37.8	-38.9	22.0	0.00e+00	0	39	0	1009778688	48	6164
2026-01-07 23:26:30.04	98.14	42.84	-37.8	-38.8	22.0	0.00e+00	0	39	0	1012924416	48	6114
2026-01-07 23:26:31.05	97.76	43.03	-37.8	-38.8	22.1	0.00e+00	0	39	0	1016070144	48	6113
2026-01-07 23:26:32.06	97.38	43.23	-37.8	-38.8	22.2	0.00e+00	0	38	0	1019215872	48	6113
2026-01-07 23:26:33.07	96.99	43.42	-37.7	-38.7	22.3	0.00e+00	0	39	0	1022361600	48	6022
2026-01-07 23:26:34.08	96.60	43.61	-37.3	-38.3	22.5	0.00e+00	0	39	0	1025507328	48	5768
2026-01-07 23:26:35.09	96.20	43.80	-37.4	-38.4	22.5	0.00e+00	0	39	0	1028653056	48	5807
2026-01-07 23:26:36.10	95.80	44.00	-37.5	-38.5	22.3	0.00e+00	0	39	0	1031798784	48	5871
2026-01-07 23:26:37.11	95.39	44.19	-37.7	-38.7	22.2	0.00e+00	0	38	0	1034944512	48	6040
2026-01-07 23:26:38.12	94.98	44.38	-37.8	-38.8	22.0	0.00e+00	0	39	0	1038090240	48	6097
2026-01-07 23:26:39.13	94.56	44.57	-37.8	-38.8	22.1	0.00e+00	0	39	0	1041235968	48	6128
2026-01-07 23:26:40.14	94.14	44.75	-37.8	-38.8	22.0	0.00e+00	0	39	0	1044381696	48	6098
2026-01-07 23:26:41.15	93.71	44.94	-37.7	-38.7	22.1	0.00e+00	0	39	0	1047527424	48	6056
2026-01-07 23:26:42.16	93.28	45.13	-37.7	-38.8	21.9	0.00e+00	0	39	0	1050673152	48	6069
2026-01-07 23:26:43.17	92.84	45.31	-37.8	-38.9	22.0	0.00e+00	0	39	0	1053818880	48	6149
2026-01-07 23:26:44.18	92.40	45.50	-37.9	-39.0	21.9	0.00e+00	0	39	0	1056964608	48	6230
2026-01-07 23:26:45.19	91.95	45.68	-37.8	-38.8	22.1	0.00e+00	0	39	0	1060110336	48	6128
2026-01-07 23:26:46.20	91.49	45.87	-38.0	-39.1	21.8	0.00e+00	0	39	0	1063256064	48	6301
2026-01-07 23:26:47.21	91.04	46.05	-38.1	-39.2	21.8	0.00e+00	0	39	0	1066401792	48	6373
2026-01-07 23:26:48.22	90.57	46.23	-38.0	-39.1	21.9	0.00e+00	0	39	0	1069547520	48	6290
2026-01-07 23:26:49.22	90.11	46.40	-37.8	-38.9	22.2	0.00e+00	0	39	0	1072693248	48	6137
2026-01-07 23:26:50.23	89.63	46.58	-37.4	-38.4	22.5	0.00e+00	0	39	0	1075838976	48	5829
2026-01-07 23:26:51.24	89.15	46.76	-37.3	-38.3	22.7	0.00e+00	0	39	0	1078984704	48	5737
2026-01-07 23:26:52.25	88.67	46.93	-37.2	-38.2	22.6	0.00e+00	0	39	0	1082130432	48	5724
2026-01-07 23:26:53.26	88.18	47.10	-37.5	-38.5	22.6	0.00e+00	0	39	0	1085276160	48	5900
2026-01-07 23:26:54.27	87.68	47.27	-37.3	-38.2	22.6	0.00e+00	0	39	0	1088421888	48	5719
2026-01-07 23:26:55.28	87.18	47.44	-36.7	-37.7	23.2	0.00e+00	0	39	0	1091567616	48	5349
2026-01-07 23:26:56.29	86.67	47.61	-36.8	-37.7	23.1	0.00e+00	0	39	0	1094713344	46	6030
2026-01-07 23:26:57.30	86.16	47.78	-36.8	-37.7	23.1	0.00e+00	0	39	0	1097859072	46	6033
2026-01-07 23:26:58.31	85.64	47.94	-37.4	-38.4	22.5	0.00e+00	0	39	0	1101004800	46	6502
2026-01-07 23:26:59.32	85.12	48.10	-37.5	-38.5	22.2	0.00e+00	0	39	0	1104150528	46	6648
2026-01-07 23:27:00.32	84.59	48.26	-37.7	-38.8	22.2	0.00e+00	0	39	0	1107296256	46	6824
2026-01-07 23:27:01.34	84.05	48.42	-37.7	-38.7	22.4	0.00e+00	0	39	0	1110441984	46	6792
2026-01-07 23:27:02.34	83.52	48.58	-37.1	-38.1	22.8	0.00e+00	0	39	0	1113587712	46	6315
2026-01-07 23:27:03.35	82.97	48.73	-37.1	-38.1	22.4	0.00e+00	0	39	0	1116733440	46	6305
2026-01-07 23:27:04.36	82.42	48.88	-37.2	-38.2	22.4	0.00e+00	0	39	0	1119879168	46	6413
2026-01-07 23:27:05.37	81.87	49.03	-37.2	-38.2	22.5	0.00e+00	0	39	0	1123024896	46	6391
2026-01-07 23:27:06.38	81.30	49.17	-37.1	-38.1	22.6	0.00e+00	0	39	0	1126170624	46	6279
2026-01-07 23:27:07.39	80.74	49.32	-37.3	-38.3	22.4	0.00e+00	0	39	0	1129316352	46	6487
2026-01-07 23:27:08.40	80.16	49.46	-37.3	-38.3	22.4	0.00e+00	0	39	0	1132462080	46	6494
2026-01-07 23:27:09.41	79.59	49.60	-37.4	-38.5	22.3	0.00e+00	0	39	0	1135607808	46	6590
2026-01-07 23:27:10.42	79.00	49.73	-37.3	-38.3	22.6	0.00e+00	0	39	0	1138753536	46	6457
2026-01-07 23:27:11.43	78.42	49.87	-36.9	-37.9	22.9	0.00e+00	0	39	0	1141899264	46	6181
2026-01-07 23:27:12.44	77.82	50.00	-37.0	-38.0	22.8	0.00e+00	0	39	0	1145044992	46	6211
2026-01-07 23:27:13.45	77.22	50.12	-37.2	-38.2	22.7	0.00e+00	0	39	0	1148190720	46	6404
2026-01-07 23:27:14.46	76.62	50.25	-37.3	-38.3	22.5	0.00e+00	0	39	0	1151336448	46	6492
2026-01-07 23:27:15.47	76.01	50.37	-37.3	-38.4	22.4	0.00e+00	0	39	0	1154482176	46	6504
2026-01-07 23:27:16.48	75.40	50.49	-37.2	-38.3	22.4	0.00e+00	0	39	0	1157627904	46	6425
2026-01-07 23:27:17.49	74.78	50.60	-37.2	-38.3	22.3	0.00e+00	0	39	0	1160773632	46	6426
2026-01-07 23:27:18.50	74.16	50.71	-37.3	-38.3	22.4	0.00e+00	0	39	0	1163919360	46	6492
2026-01-07 23:27:19.50	73.54	50.82	-37.2	-38.2	22.6	0.00e+00	0	39	0	1167065088	46	6404
2026-01-07 23:27:20.52	72.90	50.93	-37.3	-38.3	22.5	0.00e+00	0	39	0	1170210816	46	6471
2026-01-07 23:27:21.52	72.27	51.03	-37.3	-38.3	22.6	0.00e+00	0	39	0	1173356544	46	6458
2026-01-07 23:27:22.53	71.63	51.12	-37.3	-38.4	22.5	0.00e+00	0	39	0	1176502272	46	6508
2026-01-07 23:27:23.54	70.99	51.22	-37.6	-38.6	22.3	0.00e+00	0	39	0	1179648000	46	6705
2026-01-07 23:27:24.55	70.34	51.31	-37.2	-38.2	22.6	0.00e+00	0	39	0	1182793728	46	6395
2026-01-07 23:27:25.56	69.69	51.39	-37.2	-38.2	22.5	0.00e+00	0	39	0	1186988032	46	6404
2026-01-07 23:27:26.57	69.03	51.48	-37.1	-38.1	22.4	0.00e+00	0	39	0	1189085184	46	6321
2026-01-07 23:27:27.58	68.37	51.56	-37.3	-38.3	22.5	0.00e+00	0	39	0	1192230912	46	6455
2026-01-07 23:27:28.59	67.71	51.63	-37.1	-38.1	22.6	0.00e+00	0	39	0	1195376640	46	6328
2026-01-07 23:27:29.60	67.05	51.70	-37.0	-38.0	22.7	0.00e+00	0	39	0	1198522368	46	6259
2026-01-07 23:27:30.61	66.38	51.77	-37.1	-38.1	22.5	0.00e+00	0	39	0	1202716672	46	6291
2026-01-07 23:27:31.62	65.70	51.83	-37.4	-38.5	22.0	0.00e+00	0	39	0	1205862400	46	6600
2026-01-07 23:27:32.63	65.03	51.89	-37.3	-38.3	22.1	0.00e+00	0	39	0	1209008128	46	6496
2026-01-07 23:27:33.64	64.35	51.95	-37.2	-38.3	22.3	0.00e+00	0	39	0	1211105280	46	6456
2026-01-07 23:27:34.65	63.67	52.00	-36.9	-37.9	22.8	0.00e+00	0	39	0	1214251008	46	6201
2026-01-07 23:27:35.66	62.99	52.05	-36.3	-37.3	23.2	0.00e+00	0	39	0	1218445312	46	5748
2026-01-07 23:27:36.67	62.31	52.09	-36.7	-37.7	22.8	0.00e+00	0	39	0	1221591040	46	6023
2026-01-07 23:27:37.67	61.63	52.13	-36.8	-37.8	22.9	0.00e+00	0	39	0	1224736768	46	6093
2026-01-07 23:27:38.68	60.94	52.16	-36.7	-37.7	23.0	0.00e+00	0	39	0	1227882496	46	6051
2026-01-07 23:27:39.69	60.25	52.19	-36.5	-37.5	23.3	0.00e+00	0	39	0	1231028224	46	5871
2026-01-07 23:27:40.70	59.56	52.22	-36.0	-37.0	23.5	0.00e+00	0	39	0	1234173952	46	5535
2026-01-07 23:27:41.71	58.87	52.24	-36.0	-36.9	23.5	0.00e+00	0	39	0	1237319680	46	5505
2026-01-07 23:27:42.72	58.18	52.26	-36.0	-37.0	23.5	0.00e+00	0	39	0	1240465408	46	5531
2026-01-07 23:27:43.73	57.49	52.27	-36.0	-36.9	23.5	0.00e+00	0	39	0	1243611136	46	5494
2026-01-07 23:27:44.74	56.79	52.28	-36.0	-36.9	23.5	0.00e+00	0	39	0	1246756864	46	5515
2026-01-07 23:27:45.75	56.10	52.28	-35.8	-36.7	23.4	0.00e+00	0	39	0	1249902592	44	6056
2026-01-07 23:27:46.76	55.40	52.28	-35.8	-36.7	23.5	0.00e+00	0	39	0	1253048320	44	6053
2026-01-07 23:27:47.77	54.71	52.28	-35.5	-36.4	23.9	0.00e+00	0	39	0	1256194048	44	5818
2026-01-07 23:27:48.78	54.02	52.27	-35.7	-36.6	23.6	0.00e+00	0	39	0	1259339776	44	5956
2026-01-07 23:27:49.79	53.33	52.25	-36.1	-37.1	23.3	0.00e+00	0	39	0	1262485504	44	6292
2026-01-07 23:27:50.80	52.63	52.24	-36.3	-37.2	23.1	0.00e+00	0	39	0	1265631232	44	6398
2026-01-07 23:27:51.81	51.94	52.22	-36.3	-37.2	22.8	0.00e+00	0	39	0	1268776960	44	6392
2026-01-07 23:27:52.82	51.25	52.19	-36.3	-37.3	23.2	0.00e+00	0	39	0	1271922688	44	6425
2026-01-07 23:27:53.83	50.56	52.16	-35.9	-36.8	23.4	0.00e+00	0	39	0	1275068416	44	6132
2026-01-07 23:27:54.84	49.88	52.12	-35.9	-36.8	23.6	0.00e+00	0	39	0	1278214144	44	6130
2026-01-07 23:27:55.85	49.19	52.08	-36.0	-36.9	23.5	0.00e+00	0	39	0	1281359872	44	6160
2026-01-07 23:27:56.86	48.51	52.04	-36.1	-37.0	23.2	0.00e+00	0	39	0	1284505600	44	6243
2026-01-07 23:27:57.86	47.83	51.99	-36.4	-37.4	22.9	0.00e+00	0	39	0	1287651328	44	6534
2026-01-07 23:27:58.87	47.16	51.94	-36.5	-37.4	23.0	0.00e+00	0	39	0	1290797056	44	6572
2026-01-07 23:27:59.88	46.48	51.89	-36.6	-37.5	23.2	0.00e+00	0	39	0	1293942784	44	6649
2026-01-07 23:28:00.89	45.80	51.83	-36.4	-37.3	23.4	0.00e+00	0	39	0	1297088512	44	6463
2026-01-07 23:28:01.90	45.13	51.76	-36.4	-37.3	23.3	0.00e+00	0	39	0	1300234240	44	6498
2026-01-07 23:28:02.91	44.47	51.70	-36.5	-37.4	23.4	0.00e+00	0	39	0	1303379968	44	6525
2026-01-07 23:28:03.92	43.80	51.62	-36.4	-37.4	23.2	0.00e+00	0	39	0	1306525696	44	6503
2026-01-07 23:28:04.93	43.14	51.55	-36.5	-37.5	23.1	0.00e+00	0	39	0	1309671424	44	6594
2026-01-07 23:28:05.94	42.48	51.47	-36.6	-37.6	23.0	0.00e+00	0	39	0	1312817152	44	6704
2026-01-07 23:28:06.95	41.83	51.39	-36.7	-37.7	22.8	0.00e+00	0	39	0	1315962880	44	6752
2026-01-07 23:28:07.95	41.18	51.30	-36.4	-37.4	23.1	0.00e+00	0	39	0	1319108608	44	6528
2026-01-07 23:28:08.97	40.53	51.21	-36.4	-37.4	23.5	0.00e+00	0	39	0	1322254336	44	6515
2026-01-07 23:28:09.97	39.89	51.11	-36.7	-37.7	23.1	0.00e+00	0	39	0	1325400064	44	6727
2026-01-07 23:28:10.98	39.25	51.02	-37.4	-38.4	22.4	0.00e+00	0	39	0	1328545792	46	6533
2026-01-07 23:28:11.99	38.62	50.91	-37.7	-38.8	21.8	0.00e+00	0	39	0	1331691520	46	6813
2026-01-07 23:28:13.00	37.99	50.81	-37.6	-38.7	21.8	0.00e+00	0	39	0	1334837248	46	6787
2026-01-07 23:28:14.01	37.36	50.70	-37.1	-38.1	22.5	0.00e+00	0	39	0	1337982976	46	6344
2026-01-07 23:28:15.02	36.74	50.59	-36.3	-37.3	23.2	0.00e+00	0	39	0	1341128704	46	5729
2026-01-07 23:28:16.03	36.13	50.48	-36.3	-37.2	23.4	0.00e+00	0	39	0	1344274432	46	5715
2026-01-07 23:28:17.04	35.52	50.36	-37.0	-38.0	22.8	0.00e+00	0	39	0	1347420160	46	6237
2026-01-07 23:28:18.05	34.91	50.24	-37.8	-38.9	22.0	0.00e+00	0	39	0	1350565888	48	6176
2026-01-07 23:28:19.06	34.31	50.11	-38.0	-39.1	21.6	0.00e+00	0	39	0	1353711616	48	6333
2026-01-07 23:28:20.07	33.71	49.98	-37.8	-38.9	21.7	0.00e+00	0	39	0	1356857344	48	6163
2026-01-07 23:28:21.08	33.12	49.85	-37.0	-38.0	22.6	0.00e+00	0	39	0	1360003072	48	5556
2026-01-07 23:28:22.09	32.53	49.72	-36.7	-37.7	23.1	0.00e+00	0	39	0	1363148800	48	5385
2026-01-07 23:28:23.10	31.95	49.59	-36.8	-37.8	23.0	0.00e+00	0	39	0	1366294528	46	6108
2026-01-07 23:28:24.10	31.38	49.45	-37.6	-38.6	22.3	0.00e+00	0	39	0	1369440256	46	6681
2026-01-07 23:28:25.11	30.81	49.31	-37.8	-38.8	22.3	0.00e+00	0	39	0	1372585984	48	6129
2026-01-07 23:28:26.12	30.24	49.16	-37.5	-38.5	22.5	0.00e+00	0	39	0	1375731712	48	5924
2026-01-07 23:28:27.14	29.68	49.02	-37.1	-38.1	22.7	0.00e+00	0	39	0	1378877440	48	5619
2026-01-07 23:28:28.14	29.13	48.87	-36.9	-37.9	23.1	0.00e+00	0	39	0	1382023168	48	5477
2026-01-07 23:28:29.15	28.58	48.72	-35.9	-36.7	23.9	0.00e+00	0	39	0	1385168896	46	5404
2026-01-07 23:28:30.16	28.03	48.56	-36.6	-37.5	23.3	0.00e+00	0	39	0	1388314624	46	5909
2026-01-07 23:28:31.17	27.50	48.41	-37.8	-38.8	22.1	0.00e+00	0	39	0	1391460352	46	6855
2026-01-07 23:28:32.18	26.96	48.25	-37.7	-38.8	21.7	0.00e+00	0	39	0	1394606080	48	6086
2026-01-07 23:28:33.19	26.44	48.09	-36.9	-37.9	22.1	0.00e+00	0	39	0	1397751808	48	5485
2026-01-07 23:28:34.20	25.91	47.93	-36.3	-37.2	23.1	0.00e+00	0	39	0	1400897536	46	5716
2026-01-07 23:28:35.21	25.40	47.77	-36.2	-37.1	23.7	0.00e+00	0	39	0	1404043264	46	5654
2026-01-07 23:28:36.22	24.89	47.60	-36.1	-37.0	23.7	0.00e+00	0	39	0	1407188992	46	5585
2026-01-07 23:28:37.23	24.38	47.43	-37.3	-38.3	22.5	0.00e+00	0	39	0	1410334720	46	6490
2026-01-07 23:28:38.24	23.88	47.26	-38.6	-39.7	21.5	0.00e+00	0	39	0	1413480448	48	6727
2026-01-07 23:28:39.25	23.39	47.09	-38.3	-39.4	21.7	0.00e+00	0	39	0	1416626176	48	6499
2026-01-07 23:28:40.26	22.90	46.92	-37.7	-38.8	21.8	0.00e+00	0	39	0	1419771904	48	6074
2026-01-07 23:28:41.27	22.41	46.75	-36.9	-37.9	22.1	0.00e+00	0	39	0	1422917632	48	5504
2026-01-07 23:28:42.27	21.94	46.57	-36.0	-36.9	23.3	0.00e+00	0	39	0	1426063360	46	5515
2026-01-07 23:28:43.28	21.47	46.40	-35.7	-36.6	23.9	0.00e+00	0	39	0	1429209088	44	5947
2026-01-07 23:28:44.29	21.00	46.22	-36.1	-37.0	23.6	0.00e+00	0	39	0	1432354816	44	6264
2026-01-07 23:28:45.30	20.54	46.04	-37.4	-38.4	22.6	0.00e+00	0	39	0	1435500544	46	6507
2026-01-07 23:28:46.31	20.08	45.86	-38.9	-40.0	21.3	0.00e+00	0	39	0	1438646272	50	6251
2026-01-07 23:28:47.32	19.63	45.68	-38.8	-40.0	20.7	0.00e+00	0	39	0	1441792000	50	6230
2026-01-07 23:28:48.33	19.18	45.49	-38.5	-39.6	20.9	0.00e+00	0	39	0	1444937728	50	5984
2026-01-07 23:28:49.34	18.74	45.31	-38.2	-39.3	21.3	0.00e+00	0	39	0	1448083456	50	5762
2026-01-07 23:28:50.35	18.30	45.12	-38.4	-39.5	21.4	0.00e+00	0	39	0	1451229184	50	5902
2026-01-07 23:28:51.36	17.87	44.94	-38.5	-39.6	21.5	0.00e+00	0	39	0	1454374912	50	5935
2026-01-07 23:28:52.36	17.45	44.75	-38.7	-39.8	21.4	0.00e+00	0	39	0	1457520640	50	6127
2026-01-07 23:28:53.37	17.03	44.56	-39.6	-40.9	20.4	0.00e+00	0	39	0	1460666368	50	6893
2026-01-07 23:28:54.38	16.61	44.37	-40.1	-41.5	19.9	0.00e+00	0	39	0	1463812096	52	6577
2026-01-07 23:28:55.39	16.20	44.19	-40.3	-41.6	19.7	0.00e+00	0	39	0	1466957824	52	6663
2026-01-07 23:28:56.40	15.80	43.99	-39.0	-40.1	21.1	0.00e+00	0	39	0	1470103552	52	5650
2026-01-07 23:28:57.41	15.39	43.80	-37.5	-38.5	22.5	0.00e+00	0	39	0	1473249280	48	5899
2026-01-07 23:28:58.42	15.00	43.61	-36.9	-37.9	23.0	0.00e+00	0	39	0	1476395008	48	5487
2026-01-07 23:28:59.43	14.61	43.42	-36.8	-37.8	23.1	0.00e+00	0	39	0	1479540736	48	5406
2026-01-07 23:29:00.44	14.22	43.23	-37.1	-38.1	22.7	0.00e+00	0	39	0	1482686464	48	5628
2026-01-07 23:29:01.45	13.84	43.03	-38.0	-39.0	22.0	0.00e+00	0	39	0	1485832192	48	6271
2026-01-07 23:29:02.46	13.46	42.84	-39.1	-40.2	21.0	0.00e+00	0	39	0	1488977920	50	6414
2026-01-07 23:29:03.47	13.09	42.65	-39.7	-41.0	20.2	0.00e+00	0	39	0	1492123648	50	6967
2026-01-07 23:29:04.48	12.72	42.45	-39.4	-40.7	20.3	0.00e+00	0	39	0	1495269376	50	6771
2026-01-07 23:29:05.49	12.35	42.26	-38.9	-40.1	20.5	0.00e+00	0	39	0	1498415104	50	6326
2026-01-07 23:29:06.50	11.99	42.06	-38.3	-39.4	21.3	0.00e+00	0	39	0	1501560832	50	5830
2026-01-07 23:29:07.51	11.64	41.87	-37.9	-39.0	21.7	0.00e+00	0	39	0	1504706560	50	5561
2026-01-07 23:29:08.52	11.29	41.67	-36.8	-37.7	23.0	0.00e+00	0	39	0	1507852288	48	5398
2026-01-07 23:29:09.52	10.94	41.48	-36.6	-37.6	23.2	0.00e+00	0	39	0	1510998016	46	5947
2026-01-07 23:29:10.53	10.60	41.28	-37.1	-38.1	22.7	0.00e+00	0	39	0	1514143744	46	6333
2026-01-07 23:29:11.54	10.26	41.09	-37.9	-39.0	21.9	0.00e+00	0	39	0	1517289472	48	6270
2026-01-07 23:29:12.55	9.93	40.89	-38.5	-39.6	21.5	0.00e+00	0	39	0	1520435200	48	6696
2026-01-07 23:29:13.56	9.60	40.70	-38.3	-39.4	21.7	0.00e+00	0	39	0	1523580928	48	6528
2026-01-07 23:29:14.57	9.27	40.50	-38.1	-39.1	21.9	0.00e+00	0	39	0	1526726656	48	6334
2026-01-07 23:29:15.58	8.95	40.31	-37.7	-38.8	22.2	0.00e+00	0	39	0	1529872384	48	6065
2026-01-07 23:29:16.59	8.63	40.11	-37.2	-38.2	22.8	0.00e+00	0	39	0	1533018112	48	5703
2026-01-07 23:29:17.60	8.32	39.91	-36.6	-37.5	23.3	0.00e+00	0	39	0	1536163840	46	5900
2026-01-07 23:29:18.61	8.01	39.72	-36.3	-37.2	23.4	0.00e+00	0	39	0	1539309568	46	5716
2026-01-07 23:29:19.62	7.70	39.52	-36.5	-37.4	23.4	0.00e+00	0	39	0	1542455296	46	5831
2026-01-07 23:29:20.63	7.40	39.33	-36.3	-37.3	23.5	0.00e+00	0	39	0	1545601024	46	5746
2026-01-07 23:29:21.64	7.10	39.13	-36.5	-37.4	23.3	0.00e+00	0	39	0	1548746752	46	5835
2026-01-07 23:29:22.65	6.80	38.94	-37.1	-38.1	22.9	0.00e+00	0	39	0	1551892480	46	6329
2026-01-07 23:29:23.66	6.51	38.74	-37.8	-38.9	22.0	0.00e+00	0	39	0	1555038208	48	6188
2026-01-07 23:29:24.67	6.22	38.55	-37.8	-39.0	21.6	0.00e+00	0	39	0	1558183936	48	6210
2026-01-07 23:29:25.68	5.93	38.36	-37.2	-38.3	22.0	0.00e+00	0	39	0	1561329664	48	5742
2026-01-07 23:29:26.69	5.65	38.16	-36.5	-37.5	22.7	0.00e+00	0	39	0	1564475392	46	5904
2026-01-07 23:29:27.70	5.37	37.97	-36.4	-37.3	23.1	0.00e+00	0	39	0	1567621120	46	5788
2026-01-07 23:29:28.71	5.10	37.78	-35.9	-36.8	23.7	0.00e+00	0	39	0	1571815424	46	5463
2026-01-07 23:29:29.72	4.82	37.58	-36.3	-37.2	23.5	0.00e+00	0	39	0	1573912576	46	5719
2026-01-07 23:29:30.73	4.56	37.39	-36.8	-37.8	23.1	0.00e+00	0	39	0	1577058304	46	6074
2026-01-07 23:29:31.74	4.29	37.20	-36.9	-37.9	23.0	0.00e+00	0	39	0	1580204032	46	6136
2026-01-07 23:29:32.75	4.03	37.01	-36.9	-37.9	22.9	0.00e+00	0	39	0	1583349760	46	6138
2026-01-07 23:29:33.76	3.77	36.82	-36.6	-37.6	23.1	0.00e+00	0	39	0	1587544064	46	5964
2026-01-07 23:29:34.77	3.51	36.63	-36.3	-37.2	23.5	0.00e+00	0	39	0	1590689792	46	5710
2026-01-07 23:29:35.78	3.26	36.44	-36.3	-37.2	23.4	0.00e+00	0	39	0	1593835520	46	5693
2026-01-07 23:29:36.79	3.01	36.25	-36.3	-37.3	23.4	0.00e+00	0	39	0	1596981248	46	5747
2026-01-07 23:29:37.80	2.76	36.06	-36.5	-37.4	23.2	0.00e+00	0	39	0	1599078400	46	5856
2026-01-07 23:29:38.80	2.52	35.87	-35.9	-36.8	23.4	0.00e+00	0	39	0	1603272704	46	5463
2026-01-07 23:29:39.81	2.28	35.68	-35.7	-36.6	23.3	0.00e+00	0	39	0	1606418432	44	5973
2026-01-07 23:29:40.82	2.04	35.49	-35.6	-36.6	23.5	0.00e+00	0	39	0	1609564160	44	5943
2026-01-07 23:29:41.83	1.80	35.31	-35.9	-36.9	23.6	0.00e+00	0	39	0	1612709888	44	6143
2026-01-07 23:29:42.84	1.57	35.12	-36.3	-37.2	23.4	0.00e+00	0	39	0	1615855616	44	6400
2026-01-07 23:29:43.85	1.34	34.94	-36.4	-37.4	23.3	0.00e+00	0	39	0	1619001344	44	6544
2026-01-07 23:29:44.86	1.11	34.75	-36.9	-38.0	23.0	0.00e+00	0	39	0	1622147072	46	6213
2026-01-07 23:29:45.87	0.88	34.56	-37.0	-38.1	22.9	0.00e+00	0	39	0	1625292800	46	6284
2026-01-07 23:29:46.88	0.66	34.38	-36.7	-37.7	23.1	0.00e+00	0	39	0	1628438528	46	6034
2026-01-07 23:29:47.89	0.44	34.20	-36.5	-37.5	23.2	0.00e+00	0	39	0	1631584256	46	5892
2026-01-07 23:29:48.90	0.22	34.01	-36.0	-37.0	23.4	0.00e+00	0	39	0	1634729984	46	5557
2026-01-07 23:29:49.91	0.01	33.83	-35.2	-36.1	24.1	0.00e+00	0	39	0	1637875712	44	5644
2026-01-07 23:29:50.92	359.80	33.65	-35.3	-36.2	24.2	0.00e+00	0	39	0	1641021440	44	5682
2026-01-07 23:29:51.92	359.59	33.47	-35.3	-36.2	24.2	0.00e+00	0	39	0	1644167168	44	5681
2026-01-07 23:29:52.94	359.38	33.29	-35.5	-36.4	24.0	0.00e+00	0	39	0	1647312896	44	5831
2026-01-07 23:29:53.95	359.17	33.11	-35.6	-36.5	24.0	0.00e+00	0	39	0	1650458624	44	5884
2026-01-07 23:29:54.95	358.97	32.93	-35.7	-36.6	23.9	0.00e+00	0	39	0	1653604352	44	5980
2026-01-07 23:29:55.96	358.77	32.75	-35.8	-36.8	23.8	0.00e+00	0	39	0	1656750080	44	6068
2026-01-07 23:29:56.97	358.57	32.57	-35.7	-36.7	23.8	0.00e+00	0	39	0	1659895808	44	6016
2026-01-07 23:29:57.98	358.37	32.40	-35.5	-36.4	24.0	0.00e+00	0	39	0	1663041536	44	5823
2026-01-07 23:29:58.99	358.18	32.22	-35.5	-36.4	24.0	0.00e+00	0	39	0	1666187264	44	5806
2026-01-07 23:30:00.00	357.99	32.04	-35.1	-36.0	24.2	0.00e+00	0	39	0	1669332992	44	5586
2026-01-07 23:30:01.01	357.79	31.87	-35.1	-36.0	24.1	0.00e+00	0	39	0	1672478720	44	5594
2026-01-07 23:30:02.02	357.61	31.69	-35.2	-36.1	24.0	0.00e+00	0	39	0	1675624448	44	5630
2026-01-07 23:30:03.03	357.42	31.52	-35.2	-36.2	23.9	0.00e+00	0	39	0	1678770176	44	5665
2026-01-07 23:30:04.04	357.24	31.35	-35.4	-36.4	23.8	0.00e+00	0	39	0	1681915904	44	5807
2026-01-07 23:30:05.05	357.05	31.17	-35.4	-36.3	24.0	0.00e+00	0	39	0	1685061632	44	5761
2026-01-07 23:30:06.06	356.87	31.00	-35.4	-36.3	24.0	0.00e+00	0	39	0	1688207360	44	5758
2026-01-07 23:30:07.06	356.70	30.83	-35.5	-36.4	24.0	0.00e+00	0	39	0	1691353088	44	5804
2026-01-07 23:30:08.07	356.52	30.66	-35.4	-36.3	24.2	0.00e+00	0	39	0	1694498816	44	5753
2026-01-07 23:30:09.08	356.35	30.49	-35.5	-36.4	24.0	0.00e+00	0	39	0	1697644544	44	5857
2026-01-07 23:30:10.09	356.17	30.32	-35.5	-36.4	24.0	0.00e+00	0	39	0	1700790272	44	5844
2026-01-07 23:30:11.10	356.00	30.15	-35.6	-36.5	23.9	0.00e+00	0	39	0	1703936000	44	5916
2026-01-07 23:30:12.11	355.83	29.99	-35.6	-36.5	23.9	0.00e+00	0	39	0	1707081728	44	5926
2026-01-07 23:30:13.12	355.67	29.82	-35.3	-36.2	24.1	0.00e+00	0	39	0	1710227456	44	5711
2026-01-07 23:30:14.13	355.50	29.65	-35.4	-36.3	23.9	0.00e+00	0	39	0	1713373184	44	5782
2026-01-07 23:30:15.14	355.34	29.49	-35.2	-36.1	24.0	0.00e+00	0	39	0	1716518912	44	5632
2026-01-07 23:30:16.15	355.17	29.32	-35.3	-36.2	23.8	0.00e+00	0	39	0	1719664640	44	5709
2026-01-07 23:30:17.16	355.01	29.16	-34.9	-35.9	24.1	0.00e+00	0	39	0	1722810368	44	5481
2026-01-07 23:30:18.17	354.85	29.00	-34.7	-35.6	24.2	0.00e+00	0	39	0	1725956096	42	5984
2026-01-07 23:30:19.18	354.70	28.83	-34.9	-35.8	24.2	0.00e+00	0	39	0	1729101824	42	6077
2026-01-07 23:30:20.19	354.54	28.67	-34.7	-35.6	24.2	0.00e+00	0	39	0	1732247552	42	5951
2026-01-07 23:30:21.20	354.39	28.51	-34.5	-35.3	24.5	0.00e+00	0	39	0	1735393280	42	5784
2026-01-07 23:30:22.20	354.24	28.35	-34.4	-35.3	24.6	0.00e+00	0	39	0	1738539008	42	5766
2026-01-07 23:30:23.21	354.09	28.19	-34.4	-35.3	24.7	0.00e+00	0	39	0	1741684736	42	5762
2026-01-07 23:30:24.22	353.94	28.03	-34.5	-35.4	24.7	0.00e+00	0	39	0	1744830464	42	5829
2026-01-07 23:30:25.23	353.79	27.87	-34.5	-35.3	24.7	0.00e+00	0	39	0	1747976192	42	5778
2026-01-07 23:30:26.24	353.64	27.71	-34.6	-35.5	24.6	0.00e+00	0	39	0	1751121920	42	5911
2026-01-07 23:30:27.25	353.50	27.56	-34.6	-35.5	24.7	0.00e+00	0	39	0	1754267648	42	5878
2026-01-07 23:30:28.26	353.36	27.40	-34.6	-35.5	24.8	0.00e+00	0	39	0	1757413376	42	5876
2026-01-07 23:30:29.27	353.21	27.24	-34.5	-35.4	24.7	0.00e+00	0	39	0	1760559104	42	5831
2026-01-07 23:30:30.28	353.07	27.09	-34.6	-35.5	24.5	0.00e+00	0	39	0	1763704832	42	5871
2026-01-07 23:30:31.29	352.93	26.93	-34.6	-35.5	24.5	0.00e+00	0	39	0	1766850560	42	5904
2026-01-07 23:30:32.30	352.80	26.78	-34.4	-35.3	24.5	0.00e+00	0	39	0	1769996288	42	5777
2026-01-07 23:30:33.31	352.66	26.63	-34.6	-35.5	24.3	0.00e+00	0	39	0	1773142016	42	5892
2026-01-07 23:30:34.32	352.52	26.47	-34.6	-35.5	24.2	0.00e+00	0	39	0	1776287744	42	5885
2026-01-07 23:30:35.33	352.39	26.32	-34.5	-35.4	24.4	0.00e+00	0	39	0	1779433472	42	5836
2026-01-07 23:30:36.34	352.26	26.17	-34.5	-35.4	24.5	0.00e+00	0	39	0	1782579200	42	5804
2026-01-07 23:30:37.35	352.13	26.02	-34.5	-35.4	24.5	0.00e+00	0	39	0	1785724928	42	5809
2026-01-07 23:30:38.36	352.00	25.87	-34.3	-35.2	24.7	0.00e+00	0	39	0	1788870656	42	5703
2026-01-07 23:30:39.37	351.87	25.72	-34.3	-35.2	24.8	0.00e+00	0	39	0	1792016384	42	5695
2026-01-07 23:30:40.38	351.74	25.57	-34.2	-35.1	24.9	0.00e+00	0	39	0	1795162112	42	5635
2026-01-07 23:30:41.39	351.61	25.43	-34.3	-35.2	24.8	0.00e+00	0	39	0	1798307840	42	5696
2026-01-07 23:30:42.40	351.49	25.28	-34.4	-35.2	24.8	0.00e+00	0	39	0	1801453568	42	5723
2026-01-07 23:30:43.41	351.37	25.13	-34.3	-35.2	24.9	0.00e+00	0	39	0	1804599296	42	5678
2026-01-07 23:30:44.41	351.24	24.99	-34.5	-35.3	24.8	0.00e+00	0	39	0	1807745024	42	5778
2026-01-07 23:30:45.42	351.12	24.84	-34.4	-35.2	24.9	0.00e+00	0	39	0	1810890752	42	5711
2026-01-07 23:30:46.43	351.00	24.70	-34.3	-35.2	25.0	0.00e+00	0	39	0	1814036480	42	5665
2026-01-07 23:30:47.44	350.88	24.56	-34.3	-35.2	24.9	0.00e+00	0	39	0	1817182208	42	5677
2026-01-07 23:30:48.46	350.76	24.41	-34.3	-35.2	25.0	0.00e+00	0	39	0	1820327936	42	5695
2026-01-07 23:30:49.46	350.65	24.27	-34.4	-35.3	24.9	0.00e+00	0	39	0	1823473664	42	5750
2026-01-07 23:30:50.47	350.53	24.13	-34.2	-35.1	25.0	0.00e+00	0	39	0	1826619392	42	5629
2026-01-07 23:30:51.48	350.42	23.99	-34.3	-35.2	24.9	0.00e+00	0	39	0	1829765120	42	5669
2026-01-07 23:30:52.49	350.30	23.85	-34.3	-35.2	25.0	0.00e+00	0	39	0	1832910848	42	5676
2026-01-07 23:30:53.50	350.19	23.71	-34.2	-35.1	25.0	0.00e+00	0	39	0	1836056576	42	5624
2026-01-07 23:30:54.51	350.08	23.57	-34.5	-35.3	24.8	0.00e+00	0	39	0	1839202304	42	5779
2026-01-07 23:30:55.52	349.97	23.43	-34.4	-35.3	24.8	0.00e+00	0	39	0	1842348032	42	5762
2026-01-07 23:30:56.53	349.86	23.29	-34.6	-35.5	24.7	0.00e+00	0	39	0	1845493760	42	5886
2026-01-07 23:30:57.54	349.75	23.15	-34.6	-35.5	24.7	0.00e+00	0	39	0	1848639488	42	5907
2026-01-07 23:30:58.55	349.64	23.02	-34.9	-35.8	24.5	0.00e+00	0	39	0	1851785216	42	6117
2026-01-07 23:30:59.56	349.54	22.88	-34.9	-35.8	24.5	0.00e+00	0	39	0	1854930944	42	6113
2026-01-07 23:31:00.57	349.43	22.74	-35.1	-36.0	24.4	0.00e+00	0	39	0	1858076672	42	6240
2026-01-07 23:31:01.58	349.33	22.61	-35.0	-35.9	24.3	0.00e+00	0	39	0	1861222400	42	6181
2026-01-07 23:31:02.59	349.22	22.47	-35.2	-36.1	24.2	0.00e+00	0	39	0	1864368128	42	6317
2026-01-07 23:31:03.60	349.12	22.34	-35.0	-35.9	24.2	0.00e+00	0	39	0	1867513856	42	6172
2026-01-07 23:31:04.61	349.02	22.21	-35.1	-36.0	24.1	0.00e+00	0	39	0	1870659584	42	6235
2026-01-07 23:31:05.62	348.92	22.07	-35.1	-36.0	24.0	0.00e+00	0	39	0	1873805312	42	6237
2026-01-07 23:31:06.62	348.82	21.94	-35.0	-35.9	24.1	0.00e+00	0	39	0	1876951040	42	6171
2026-01-07 23:31:07.63	348.72	21.81	-34.8	-35.7	24.1	0.00e+00	0	39	0	1880096768	42	6020
2026-01-07 23:31:08.64	348.62	21.68	-34.8	-35.7	24.1	0.00e+00	0	39	0	1883242496	42	5997
2026-01-07 23:31:09.65	348.52	21.55	-34.6	-35.5	24.2	0.00e+00	0	39	0	1886388224	42	5896
2026-01-07 23:31:10.66	348.42	21.42	-34.4	-35.3	24.4	0.00e+00	0	39	0	1889533952	42	5764
2026-01-07 23:31:11.67	348.33	21.29	-34.4	-35.2	24.5	0.00e+00	0	39	0	1892679680	42	5712
2026-01-07 23:31:12.68	348.23	21.16	-34.3	-35.1	24.6	0.00e+00	0	39	0	1895825408	42	5655
2026-01-07 23:31:13.69	348.14	21.04	-34.3	-35.2	24.6	0.00e+00	0	39	0	1898971136	42	5664
2026-01-07 23:31:14.70	348.05	20.91	-33.9	-34.8	24.9	0.00e+00	0	39	0	1902116864	42	5412
2026-01-07 23:31:15.71	347.95	20.78	-33.9	-34.8	25.0	0.00e+00	0	39	0	1905262592	42	5411
2026-01-07 23:31:16.71	347.86	20.66	-33.7	-34.6	25.1	0.00e+00	0	39	0	1908408320	40	5958
2026-01-07 23:31:17.72	347.77	20.53	-33.8	-34.6	25.0	0.00e+00	0	39	0	1911554048	40	5987
2026-01-07 23:31:18.74	347.68	20.40	-33.8	-34.7	25.1	0.00e+00	0	39	0	1914699776	40	6014
2026-01-07 23:31:19.75	347.59	20.28	-33.8	-34.6	25.1	0.00e+00	0	39	0	1917845504	40	5968
2026-01-07 23:31:20.75	347.50	20.16	-33.6	-34.4	25.2	0.00e+00	0	39	0	1920991232	40	5825
2026-01-07 23:31:21.76	347.41	20.03	-33.6	-34.4	25.1	0.00e+00	0	39	0	1924136960	40	5820
2026-01-07 23:31:22.78	347.33	19.91	-33.6	-34.5	25.2	0.00e+00	0	39	0	1927282688	40	5895
2026-01-07 23:31:23.78	347.24	19.79	-33.7	-34.5	25.1	0.00e+00	0	39	0	1930428416	40	5893
2026-01-07 23:31:24.80	347.15	19.66	-33.7	-34.6	25.0	0.00e+00	0	39	0	1933574144	40	5947
2026-01-07 23:31:25.80	347.07	19.54	-33.9	-34.7	25.0	0.00e+00	0	39	0	1936719872	40	6047
2026-01-07 23:31:26.81	346.98	19.42	-33.8	-34.7	25.1	0.00e+00	0	39	0	1939865600	40	6007
2026-01-07 23:31:27.82	346.90	19.30	-33.9	-34.8	25.0	0.00e+00	0	39	0	1943011328	40	6086
2026-01-07 23:31:28.83	346.82	19.18	-34.0	-34.8	24.9	0.00e+00	0	39	0	1946157056	40	6133
2026-01-07 23:31:29.84	346.73	19.06	-34.1	-35.0	24.8	0.00e+00	0	39	0	1949302784	40	6237
2026-01-07 23:31:30.85	346.65	18.94	-34.2	-35.0	24.8	0.00e+00	0	39	0	1952448512	40	6263
2026-01-07 23:31:31.86	346.57	18.83	-34.2	-35.1	24.8	0.00e+00	0	39	0	1956642816	40	6303
2026-01-07 23:31:32.87	346.49	18.71	-34.4	-35.3	24.6	0.00e+00	0	39	0	1959788544	40	6429
2026-01-07 23:31:33.88	346.41	18.59	-34.6	-35.5	24.5	0.00e+00	0	39	0	1961885696	40	6583
2026-01-07 23:31:34.89	346.33	18.47	-34.5	-35.4	24.5	0.00e+00	0	39	0	1965031424	40	6552
2026-01-07 23:31:35.90	346.25	18.36	-34.7	-35.6	24.3	0.00e+00	0	39	0	1968177152	40	6685
2026-01-07 23:31:36.91	346.18	18.24	-34.8	-35.7	24.3	0.00e+00	0	39	0	1972371456	42	6052
2026-01-07 23:31:37.92	346.10	18.13	-34.8	-35.7	24.2	0.00e+00	0	39	0	1975517184	42	6051
2026-01-07 23:31:38.93	346.02	18.01	-34.9	-35.8	24.1	0.00e+00	0	39	0	1978662912	42	6127
2026-01-07 23:31:39.94	345.95	17.90	-34.9	-35.8	24.1	0.00e+00	0	39	0	1981808640	42	6102
2026-01-07 23:31:40.94	345.87	17.78	-35.0	-35.9	24.0	0.00e+00	0	39	0	1983905792	42	6163
2026-01-07 23:31:41.95	345.80	17.67	-35.0	-36.0	24.0	0.00e+00	0	39	0	1988100096	42	6217
2026-01-07 23:31:42.96	345.72	17.56	-35.1	-36.0	23.8	0.00e+00	0	39	0	1991245824	42	6268
2026-01-07 23:31:43.97	345.65	17.44	-35.2	-36.2	23.7	0.00e+00	0	39	0	1994391552	42	6354
2026-01-07 23:31:44.98	345.57	17.33	-35.2	-36.1	23.8	0.00e+00	0	39	0	1997537280	42	6326
2026-01-07 23:31:45.99	345.50	17.22	-35.3	-36.3	23.6	0.00e+00	0	39	0	2000683008	42	6434
2026-01-07 23:31:47.00	345.43	17.11	-35.3	-36.2	23.7	0.00e+00	0	39	0	2003828736	42	6396
2026-01-07 23:31:48.01	345.36	17.00	-35.3	-36.2	23.7	0.00e+00	0	39	0	2006974464	42	6386
2026-01-07 23:31:49.02	345.29	16.89	-35.1	-36.0	23.8	0.00e+00	0	39	0	2010120192	42	6263
