passes_logs/2026/01/07/R4.6S_Anadyr/R4.6S_Anadyr__20260107_021049_NOAA_20_JPSS-1_rec.log

#Pass ID: 20260107_021049_NOAA 20 (JPSS-1)
#Satellite: NOAA 20 (JPSS-1)
#Configuration: NOAA 20
#almurnet v.1.7.20251203
#Start time: 2026-01-07 02:10:51

#Version: 2.2.20231116
#Station: R4.6S_Anadyr
#Location: 177.4865 lon 64.73178 lat
#TLE: 1 43013U 17073A   26005.46207808  .00000128  00000+0  81791-4 0  9997
#TLE: 2 43013  98.7627 306.5027 0001826  53.0458 307.0885 14.19533487421381

#Time	Az	El	Level	Level2	SNR	BER	BlckErr	Temp	State	Recorded	gain1	gain2
2026-01-07 02:10:51.64	207.29	0.13	-49.2	-67.0	3.5	3.03e+01	0	32	0	0	60	86519
2026-01-07 02:10:52.64	207.36	0.19	-49.1	-64.4	3.6	1.51e+00	0	33	104	0	60	60109
2026-01-07 02:10:53.65	207.42	0.24	-49.0	-64.2	3.6	1.51e+00	0	34	104	0	60	58417
2026-01-07 02:10:54.66	207.48	0.29	-48.9	-64.1	3.6	1.51e+00	0	34	104	0	60	58160
2026-01-07 02:10:55.67	207.55	0.35	-49.0	-64.1	3.6	1.51e+00	0	34	104	0	60	58259
2026-01-07 02:10:56.68	207.61	0.40	-48.9	-64.2	3.6	1.51e+00	0	34	104	0	60	58482
2026-01-07 02:10:57.69	207.67	0.46	-49.0	-64.2	3.6	1.51e+00	0	34	104	0	60	58386
2026-01-07 02:10:58.70	207.74	0.51	-49.0	-64.1	3.6	1.51e+00	0	34	104	0	60	58219
2026-01-07 02:10:59.71	207.80	0.56	-48.9	-64.1	3.6	1.51e+00	0	34	104	0	60	58177
2026-01-07 02:11:00.72	207.87	0.62	-48.8	-64.0	3.6	1.51e+00	0	34	104	0	60	57405
2026-01-07 02:11:01.73	207.93	0.67	-48.8	-64.0	3.6	1.51e+00	0	34	104	0	60	57371
2026-01-07 02:11:02.74	208.00	0.73	-48.8	-64.0	3.6	1.51e+00	0	34	104	0	60	57032
2026-01-07 02:11:03.75	208.06	0.78	-48.7	-63.9	3.6	1.51e+00	0	34	104	0	60	56383
2026-01-07 02:11:04.76	208.13	0.83	-48.6	-63.7	3.6	1.51e+00	0	34	104	0	60	55563
2026-01-07 02:11:05.77	208.19	0.89	-48.3	-63.6	3.6	1.51e+00	0	34	104	0	60	54407
2026-01-07 02:11:06.78	208.26	0.94	-48.0	-63.1	3.6	1.51e+00	0	34	104	0	60	51918
2026-01-07 02:11:07.79	208.33	1.00	-47.5	-62.6	3.6	1.51e+00	0	34	104	0	60	48872
2026-01-07 02:11:08.80	208.39	1.05	-47.5	-62.7	3.6	1.51e+00	0	34	104	0	60	49052
2026-01-07 02:11:09.80	208.46	1.11	-47.5	-62.6	3.6	1.51e+00	0	34	104	0	60	48971
2026-01-07 02:11:10.82	208.53	1.16	-47.5	-62.6	3.6	1.51e+00	0	34	104	0	60	49040
2026-01-07 02:11:11.82	208.59	1.22	-47.5	-62.6	3.5	1.51e+00	0	34	104	0	60	48711
2026-01-07 02:11:12.83	208.66	1.27	-47.5	-62.6	3.6	1.51e+00	0	34	104	0	60	48771
2026-01-07 02:11:13.84	208.73	1.33	-47.5	-62.7	3.6	1.51e+00	0	34	104	0	60	49120
2026-01-07 02:11:14.85	208.80	1.38	-47.5	-62.6	3.6	1.51e+00	0	34	104	0	60	48774
2026-01-07 02:11:15.86	208.86	1.44	-47.5	-62.6	3.6	1.51e+00	0	34	104	0	60	48935
2026-01-07 02:11:16.87	208.93	1.49	-47.5	-62.6	3.6	1.51e+00	0	34	104	0	60	48913
2026-01-07 02:11:17.88	209.00	1.55	-47.5	-62.6	3.6	1.51e+00	0	34	104	0	60	48716
2026-01-07 02:11:18.89	209.07	1.60	-47.5	-62.6	3.6	1.51e+00	0	34	104	0	60	48692
2026-01-07 02:11:19.89	209.14	1.66	-47.5	-62.7	3.6	1.51e+00	0	34	104	0	60	49202
2026-01-07 02:11:20.90	209.21	1.71	-47.5	-62.7	3.6	1.51e+00	0	34	104	0	60	49113
2026-01-07 02:11:21.91	209.28	1.77	-47.5	-62.6	3.6	1.51e+00	0	34	104	0	60	48911
2026-01-07 02:11:22.92	209.35	1.82	-47.5	-62.7	3.6	1.51e+00	0	34	104	0	60	49211
2026-01-07 02:11:23.93	209.42	1.88	-47.5	-62.7	3.6	1.51e+00	0	34	104	0	60	49117
2026-01-07 02:11:24.95	209.49	1.93	-47.5	-62.6	3.6	1.51e+00	0	34	104	0	60	48768
2026-01-07 02:11:25.96	209.56	1.99	-47.5	-62.6	3.6	1.51e+00	0	34	104	0	60	48774
2026-01-07 02:11:26.96	209.63	2.05	-47.5	-62.6	3.6	1.51e+00	0	34	104	0	60	48520
2026-01-07 02:11:27.97	209.70	2.10	-47.5	-62.5	3.6	1.51e+00	0	34	104	0	60	48222
2026-01-07 02:11:28.98	209.77	2.16	-47.5	-62.5	3.6	1.51e+00	0	34	104	0	60	48112
2026-01-07 02:11:29.99	209.84	2.21	-47.5	-62.5	3.6	1.51e+00	0	34	104	0	60	48188
2026-01-07 02:11:31.00	209.91	2.27	-47.5	-62.5	3.6	1.51e+00	0	34	104	0	60	48338
2026-01-07 02:11:32.01	209.99	2.33	-47.5	-62.5	3.6	1.51e+00	0	34	104	0	60	48302
2026-01-07 02:11:33.03	210.06	2.38	-47.5	-62.5	3.6	1.51e+00	0	34	104	0	60	47927
2026-01-07 02:11:34.03	210.13	2.44	-47.5	-62.5	3.6	1.51e+00	0	34	104	0	60	48129
2026-01-07 02:11:35.04	210.20	2.50	-47.5	-62.5	3.6	1.51e+00	0	34	104	0	60	48445
2026-01-07 02:11:36.06	210.28	2.55	-47.5	-62.6	3.6	1.51e+00	0	34	104	0	60	48614
2026-01-07 02:11:37.07	210.35	2.61	-47.5	-62.1	3.6	1.51e+00	0	34	104	0	60	46160
2026-01-07 02:11:38.07	210.42	2.67	-47.4	-61.7	3.6	1.51e+00	0	34	104	0	60	44157
2026-01-07 02:11:39.08	210.50	2.72	-47.4	-61.4	3.6	1.51e+00	0	34	104	0	60	42327
2026-01-07 02:11:40.09	210.57	2.78	-47.4	-61.4	3.6	1.51e+00	0	34	104	0	60	42361
2026-01-07 02:11:41.10	210.65	2.84	-47.4	-61.6	3.6	1.51e+00	0	34	104	0	60	43267
2026-01-07 02:11:42.11	210.72	2.89	-47.4	-60.2	3.7	1.51e+00	0	34	104	0	60	36854
2026-01-07 02:11:43.12	210.80	2.95	-47.0	-55.8	5.7	7.57e-01	92	34	0	0	60	22162
2026-01-07 02:11:44.13	210.87	3.01	-46.4	-52.1	9.1	1.36e-01	92	34	0	2097152	60	14606
2026-01-07 02:11:45.14	210.95	3.07	-45.4	-49.6	12.0	6.27e-03	92	34	0	3145728	60	10907
2026-01-07 02:11:46.15	211.02	3.12	-44.4	-47.6	14.1	1.14e-05	0	34	0	5242880	60	8645
2026-01-07 02:11:47.16	211.10	3.18	-43.5	-46.1	15.6	0.00e+00	90	34	0	7340032	60	7287
2026-01-07 02:11:48.17	211.18	3.24	-43.2	-45.6	16.1	0.00e+00	92	34	0	9437184	60	6866
2026-01-07 02:11:49.18	211.25	3.30	-43.1	-45.4	16.3	0.00e+00	92	34	0	11534336	60	6701
2026-01-07 02:11:50.19	211.33	3.35	-42.3	-44.3	17.4	0.00e+00	92	34	0	12582912	58	6665
2026-01-07 02:11:51.20	211.41	3.41	-45.5	-49.7	11.3	0.00e+00	92	34	0	14680064	60	11064
2026-01-07 02:11:52.21	211.48	3.47	-46.6	-53.8	6.4	3.70e-03	90	34	0	16777216	60	17771
2026-01-07 02:11:53.22	211.56	3.53	-47.3	-60.6	3.6	1.50e+00	0	34	104	17825792	60	38641
2026-01-07 02:11:54.23	211.64	3.59	-42.6	-44.6	16.6	1.22e+00	92	34	104	17825792	56	7737
2026-01-07 02:11:55.24	211.72	3.64	-42.2	-44.1	17.7	0.00e+00	19	34	0	18874368	58	6516
2026-01-07 02:11:56.25	211.80	3.70	-41.9	-43.7	18.2	0.00e+00	92	34	0	20971520	58	6182
2026-01-07 02:11:57.26	211.88	3.76	-41.6	-43.2	18.6	0.00e+00	90	34	0	22020096	56	6588
2026-01-07 02:11:58.27	211.96	3.82	-41.8	-43.6	18.2	0.00e+00	90	34	0	24117248	56	6877
2026-01-07 02:11:59.28	212.04	3.88	-42.0	-43.7	18.2	0.00e+00	92	34	0	26214400	56	6994
2026-01-07 02:12:00.29	212.12	3.94	-41.9	-43.7	18.2	0.00e+00	92	34	0	28311552	56	6951
2026-01-07 02:12:01.29	212.19	3.99	-42.0	-43.8	17.9	0.00e+00	91	34	0	30408704	56	7073
2026-01-07 02:12:02.30	212.28	4.05	-41.1	-42.7	19.2	0.00e+00	6	34	0	31457280	56	6181
2026-01-07 02:12:03.31	212.36	4.11	-40.5	-41.9	19.9	0.00e+00	92	34	0	33554432	54	6351
2026-01-07 02:12:04.32	212.44	4.17	-40.2	-41.5	20.2	0.00e+00	91	34	0	35651584	54	6062
2026-01-07 02:12:05.33	212.52	4.23	-40.1	-41.4	20.2	0.00e+00	92	34	0	37748736	54	6029
2026-01-07 02:12:06.34	212.60	4.29	-40.3	-41.7	20.1	0.00e+00	92	34	0	39845888	54	6184
2026-01-07 02:12:07.35	212.68	4.35	-40.4	-41.8	19.9	0.00e+00	92	34	0	40894464	54	6280
2026-01-07 02:12:08.36	212.77	4.41	-40.3	-41.6	20.2	0.00e+00	92	34	0	42991616	54	6162
2026-01-07 02:12:09.37	212.85	4.47	-40.3	-41.7	20.2	0.00e+00	8	34	0	45088768	54	6180
2026-01-07 02:12:10.38	212.93	4.52	-40.2	-41.4	20.4	0.00e+00	92	34	0	47185920	54	6032
2026-01-07 02:12:11.39	213.01	4.58	-40.3	-41.6	20.3	0.00e+00	90	34	0	49283072	54	6107
2026-01-07 02:12:12.40	213.10	4.64	-40.2	-41.5	20.4	0.00e+00	92	34	0	50331648	54	6048
2026-01-07 02:12:13.41	213.18	4.70	-40.2	-41.5	20.4	0.00e+00	91	34	0	52428800	54	6078
2026-01-07 02:12:14.42	213.27	4.76	-40.3	-41.6	20.3	0.00e+00	92	34	0	54525952	54	6145
2026-01-07 02:12:15.43	213.35	4.82	-40.2	-41.5	20.4	0.00e+00	92	34	0	56623104	54	6058
2026-01-07 02:12:16.44	213.44	4.88	-40.3	-41.6	20.1	0.00e+00	71	34	0	58720256	54	6164
2026-01-07 02:12:17.45	213.52	4.94	-40.4	-41.7	20.2	0.00e+00	92	34	0	59768832	54	6201
2026-01-07 02:12:18.45	213.61	5.00	-40.5	-41.8	20.1	0.00e+00	90	34	0	61865984	54	6288
2026-01-07 02:12:19.46	213.69	5.06	-40.7	-42.0	20.0	0.00e+00	92	34	0	63963136	54	6456
2026-01-07 02:12:20.47	213.78	5.12	-40.5	-41.8	20.1	0.00e+00	90	34	0	66060288	54	6282
2026-01-07 02:12:21.48	213.87	5.18	-40.6	-42.0	19.8	0.00e+00	90	34	0	68157440	54	6448
2026-01-07 02:12:22.49	213.95	5.24	-40.3	-41.6	20.4	0.00e+00	92	34	0	69206016	54	6112
2026-01-07 02:12:23.50	214.04	5.30	-40.2	-41.5	20.5	0.00e+00	92	34	0	71303168	54	6041
2026-01-07 02:12:24.51	214.13	5.36	-40.1	-41.4	20.6	0.00e+00	92	34	0	73400320	54	5999
2026-01-07 02:12:25.52	214.22	5.42	-40.2	-41.4	20.6	0.00e+00	0	34	0	75497472	54	6026
2026-01-07 02:12:26.53	214.30	5.49	-40.1	-41.4	20.7	0.00e+00	92	34	0	77594624	54	5971
2026-01-07 02:12:27.54	214.39	5.55	-40.1	-41.4	20.7	0.00e+00	92	34	0	78643200	54	5965
2026-01-07 02:12:28.55	214.48	5.61	-40.0	-41.3	20.7	0.00e+00	92	34	0	80740352	54	5916
2026-01-07 02:12:29.56	214.57	5.67	-40.1	-41.3	20.6	0.00e+00	92	34	0	82837504	54	5955
2026-01-07 02:12:30.57	214.66	5.73	-39.9	-41.1	20.9	0.00e+00	90	34	0	84934656	54	5776
2026-01-07 02:12:31.58	214.75	5.79	-39.9	-41.1	20.9	0.00e+00	92	34	0	87031808	54	5803
2026-01-07 02:12:32.58	214.84	5.85	-39.9	-41.2	20.9	0.00e+00	6	34	0	89128960	54	5842
2026-01-07 02:12:33.59	214.93	5.91	-39.8	-41.0	21.0	0.00e+00	92	34	0	90177536	52	6419
2026-01-07 02:12:34.60	215.02	5.97	-39.8	-41.0	21.1	0.00e+00	90	34	0	92274688	52	6394
2026-01-07 02:12:35.61	215.12	6.03	-39.7	-40.9	21.1	0.00e+00	92	34	0	94371840	52	6361
2026-01-07 02:12:36.62	215.21	6.10	-39.8	-41.0	21.0	0.00e+00	90	34	0	96468992	52	6408
2026-01-07 02:12:37.63	215.30	6.16	-39.7	-40.9	21.1	0.00e+00	92	34	0	98566144	52	6335
2026-01-07 02:12:38.64	215.39	6.22	-39.8	-40.9	21.1	0.00e+00	92	34	0	99614720	52	6385
2026-01-07 02:12:39.65	215.49	6.28	-39.6	-40.8	21.3	0.00e+00	2	34	0	101711872	52	6287
2026-01-07 02:12:40.66	215.58	6.34	-39.5	-40.7	21.4	0.00e+00	92	34	0	103809024	52	6186
2026-01-07 02:12:41.67	215.67	6.41	-39.6	-40.7	21.3	0.00e+00	6	34	0	105906176	52	6237
2026-01-07 02:12:42.68	215.77	6.47	-39.4	-40.6	21.5	0.00e+00	92	34	0	108003328	52	6107
2026-01-07 02:12:43.69	215.86	6.53	-39.4	-40.5	21.5	0.00e+00	90	34	0	109051904	52	6101
2026-01-07 02:12:44.70	215.96	6.59	-39.6	-40.7	21.4	0.00e+00	92	34	0	111149056	52	6216
2026-01-07 02:12:45.71	216.05	6.65	-39.5	-40.7	21.4	0.00e+00	91	34	0	113246208	52	6188
2026-01-07 02:12:46.72	216.15	6.72	-39.6	-40.8	21.4	0.00e+00	0	34	0	115343360	52	6269
2026-01-07 02:12:47.73	216.25	6.78	-39.5	-40.6	21.5	0.00e+00	91	34	0	117440512	52	6158
2026-01-07 02:12:48.74	216.34	6.84	-39.5	-40.6	21.5	0.00e+00	0	34	0	118489088	52	6159
2026-01-07 02:12:49.75	216.44	6.90	-39.4	-40.6	21.6	0.00e+00	90	34	0	120586240	52	6113
2026-01-07 02:12:50.76	216.54	6.97	-39.4	-40.5	21.6	0.00e+00	91	34	0	122683392	52	6088
2026-01-07 02:12:51.77	216.63	7.03	-39.4	-40.5	21.7	0.00e+00	92	34	0	124780544	52	6047
2026-01-07 02:12:52.78	216.73	7.09	-39.4	-40.5	21.6	0.00e+00	92	34	0	126877696	52	6056
2026-01-07 02:12:53.79	216.83	7.16	-39.4	-40.5	21.7	0.00e+00	92	34	0	127926272	52	6052
2026-01-07 02:12:54.80	216.93	7.22	-39.4	-40.6	21.6	0.00e+00	92	34	0	130023424	52	6117
2026-01-07 02:12:55.81	217.03	7.28	-39.3	-40.4	21.7	0.00e+00	6	34	0	132120576	52	6000
2026-01-07 02:12:56.82	217.13	7.35	-39.4	-40.5	21.7	0.00e+00	92	34	0	134217728	52	6038
2026-01-07 02:12:57.83	217.23	7.41	-39.5	-40.6	21.6	0.00e+00	92	34	0	136314880	52	6153
2026-01-07 02:12:58.84	217.33	7.47	-39.4	-40.5	21.6	0.00e+00	92	34	0	137363456	52	6091
2026-01-07 02:12:59.85	217.43	7.54	-39.4	-40.6	21.6	0.00e+00	92	34	0	139460608	52	6105
2026-01-07 02:13:00.86	217.53	7.60	-39.4	-40.5	21.6	0.00e+00	92	34	0	141557760	52	6088
2026-01-07 02:13:01.86	217.63	7.66	-39.5	-40.6	21.6	0.00e+00	92	34	0	143654912	52	6152
2026-01-07 02:13:02.87	217.74	7.73	-39.6	-40.7	21.4	0.00e+00	90	34	0	145752064	52	6194
2026-01-07 02:13:03.88	217.84	7.79	-39.4	-40.5	21.6	0.00e+00	90	34	0	146800640	52	6100
2026-01-07 02:13:04.89	217.94	7.85	-39.5	-40.6	21.6	0.00e+00	83	34	0	148897792	52	6124
2026-01-07 02:13:05.90	218.05	7.92	-39.4	-40.5	21.7	0.00e+00	92	34	0	150994944	52	6076
2026-01-07 02:13:06.91	218.15	7.98	-39.4	-40.5	21.7	0.00e+00	92	34	0	153092096	52	6042
2026-01-07 02:13:07.92	218.26	8.05	-39.4	-40.5	21.8	0.00e+00	92	34	0	155189248	52	6043
2026-01-07 02:13:08.93	218.36	8.11	-39.5	-40.6	21.6	0.00e+00	92	34	0	157286400	52	6140
2026-01-07 02:13:09.94	218.47	8.18	-39.3	-40.4	21.8	0.00e+00	90	34	0	158334976	52	5979
2026-01-07 02:13:10.95	218.57	8.24	-39.2	-40.2	22.0	0.00e+00	92	34	0	160432128	52	5883
2026-01-07 02:13:11.96	218.68	8.30	-39.1	-40.2	22.0	0.00e+00	15	34	0	162529280	52	5845
2026-01-07 02:13:12.97	218.79	8.37	-39.1	-40.2	22.0	0.00e+00	92	34	0	164626432	52	5855
2026-01-07 02:13:13.98	218.89	8.43	-39.1	-40.2	22.1	0.00e+00	90	34	0	166723584	52	5830
2026-01-07 02:13:14.99	219.00	8.50	-38.9	-39.9	22.3	0.00e+00	92	34	0	167772160	52	5684
2026-01-07 02:13:15.99	219.11	8.56	-38.8	-39.8	22.3	0.00e+00	90	34	0	169869312	52	5609
2026-01-07 02:13:17.00	219.22	8.63	-38.9	-39.9	22.3	0.00e+00	92	34	0	171966464	52	5652
2026-01-07 02:13:18.01	219.33	8.69	-38.9	-40.0	22.2	0.00e+00	90	34	0	174063616	52	5700
2026-01-07 02:13:19.02	219.44	8.76	-39.0	-40.1	22.2	0.00e+00	82	34	0	176160768	52	5787
2026-01-07 02:13:20.03	219.55	8.82	-39.0	-40.0	22.2	0.00e+00	92	34	0	177209344	52	5740
2026-01-07 02:13:21.04	219.66	8.89	-39.0	-40.0	22.3	0.00e+00	90	34	0	179306496	52	5741
2026-01-07 02:13:22.05	219.77	8.95	-38.8	-39.9	22.3	0.00e+00	92	34	0	181403648	52	5646
2026-01-07 02:13:23.06	219.88	9.02	-39.1	-40.2	22.1	0.00e+00	92	34	0	183500800	52	5830
2026-01-07 02:13:24.07	219.99	9.08	-39.0	-40.0	22.2	0.00e+00	92	34	0	185597952	52	5753
2026-01-07 02:13:25.08	220.10	9.15	-39.2	-40.2	22.1	0.00e+00	92	34	0	186646528	52	5872
2026-01-07 02:13:26.09	220.22	9.22	-39.0	-40.0	22.3	0.00e+00	0	34	0	188743680	52	5734
2026-01-07 02:13:27.10	220.33	9.28	-39.0	-40.0	22.2	0.00e+00	90	34	0	190840832	52	5736
2026-01-07 02:13:28.11	220.44	9.35	-39.1	-40.2	22.1	0.00e+00	92	34	0	192937984	52	5840
2026-01-07 02:13:29.12	220.56	9.41	-39.1	-40.1	22.2	0.00e+00	92	34	0	195035136	52	5813
2026-01-07 02:13:30.13	220.67	9.48	-39.0	-40.0	22.3	0.00e+00	92	34	0	196083712	52	5732
2026-01-07 02:13:31.14	220.79	9.54	-39.0	-40.0	22.2	0.00e+00	92	34	0	198180864	52	5735
2026-01-07 02:13:32.15	220.90	9.61	-39.0	-40.1	22.2	0.00e+00	92	34	0	200278016	52	5774
2026-01-07 02:13:33.16	221.02	9.68	-39.1	-40.2	22.1	0.00e+00	40	34	0	202375168	52	5836
2026-01-07 02:13:34.17	221.14	9.74	-38.9	-39.9	22.3	0.00e+00	92	34	0	204472320	52	5685
2026-01-07 02:13:35.18	221.26	9.81	-39.0	-40.0	22.3	0.00e+00	8	34	0	205520896	52	5721
2026-01-07 02:13:36.18	221.37	9.88	-39.0	-40.0	22.2	0.00e+00	92	34	0	207618048	52	5728
2026-01-07 02:13:37.19	221.49	9.94	-39.0	-40.1	22.2	0.00e+00	92	34	0	209715200	52	5763
2026-01-07 02:13:38.20	221.61	10.01	-39.1	-40.1	22.2	0.00e+00	91	34	0	211812352	52	5815
2026-01-07 02:13:39.21	221.73	10.07	-39.1	-40.1	22.1	0.00e+00	91	34	0	213909504	52	5822
2026-01-07 02:13:40.22	221.85	10.14	-39.1	-40.1	22.2	0.00e+00	4	34	0	214958080	52	5823
2026-01-07 02:13:41.23	221.97	10.21	-39.1	-40.2	22.1	0.00e+00	92	34	0	217055232	52	5829
2026-01-07 02:13:42.24	222.09	10.28	-39.2	-40.2	22.1	0.00e+00	1	34	0	219152384	52	5892
2026-01-07 02:13:43.25	222.21	10.34	-39.0	-40.0	22.3	0.00e+00	92	34	0	221249536	52	5734
2026-01-07 02:13:44.26	222.34	10.41	-39.1	-40.1	22.3	0.00e+00	92	34	0	223346688	52	5803
2026-01-07 02:13:45.27	222.46	10.48	-39.0	-40.0	22.2	0.00e+00	90	34	0	225443840	52	5739
2026-01-07 02:13:46.28	222.58	10.54	-39.0	-40.0	22.2	0.00e+00	92	34	0	226492416	52	5734
2026-01-07 02:13:47.29	222.71	10.61	-39.0	-40.0	22.3	0.00e+00	90	34	0	228589568	52	5759
2026-01-07 02:13:48.30	222.83	10.68	-38.7	-39.7	22.6	0.00e+00	90	34	0	230686720	52	5553
2026-01-07 02:13:49.31	222.95	10.74	-38.8	-39.8	22.5	0.00e+00	92	34	0	232783872	50	6280
2026-01-07 02:13:50.31	223.08	10.81	-38.8	-39.8	22.5	0.00e+00	92	34	0	234881024	50	6300
2026-01-07 02:13:51.32	223.20	10.88	-38.7	-39.7	22.6	0.00e+00	79	34	0	235929600	50	6199
2026-01-07 02:13:52.33	223.33	10.95	-38.8	-39.8	22.5	0.00e+00	92	35	0	238026752	50	6291
2026-01-07 02:13:53.34	223.46	11.01	-38.8	-39.8	22.4	0.00e+00	92	34	0	240123904	50	6309
2026-01-07 02:13:54.35	223.59	11.08	-38.8	-39.8	22.4	0.00e+00	90	34	0	242221056	50	6314
2026-01-07 02:13:55.36	223.71	11.15	-38.8	-39.8	22.5	0.00e+00	92	34	0	244318208	50	6316
2026-01-07 02:13:56.37	223.84	11.22	-38.7	-39.7	22.6	0.00e+00	0	34	0	245366784	50	6207
2026-01-07 02:13:57.38	223.97	11.28	-38.7	-39.7	22.6	0.00e+00	92	34	0	247463936	50	6214
2026-01-07 02:13:58.39	224.10	11.35	-38.8	-39.8	22.6	0.00e+00	0	34	0	249561088	50	6294
2026-01-07 02:13:59.40	224.23	11.42	-38.6	-39.6	22.7	0.00e+00	92	34	0	251658240	50	6132
2026-01-07 02:14:00.41	224.36	11.49	-38.6	-39.6	22.8	0.00e+00	92	34	0	253755392	50	6131
2026-01-07 02:14:01.42	224.50	11.56	-38.5	-39.4	22.8	0.00e+00	92	34	0	254803968	50	6013
2026-01-07 02:14:02.43	224.63	11.62	-38.6	-39.5	22.8	0.00e+00	92	34	0	256901120	50	6088
2026-01-07 02:14:03.44	224.76	11.69	-38.5	-39.5	22.7	0.00e+00	11	34	0	258998272	50	6056
2026-01-07 02:14:04.45	224.90	11.76	-38.4	-39.4	22.9	0.00e+00	92	34	0	261095424	50	6011
2026-01-07 02:14:05.46	225.03	11.83	-38.3	-39.3	22.7	0.00e+00	77	34	0	263192576	50	5934
2026-01-07 02:14:06.47	225.16	11.90	-38.4	-39.4	23.0	0.00e+00	92	34	0	264241152	50	5973
2026-01-07 02:14:07.47	225.30	11.97	-38.5	-39.5	22.8	0.00e+00	92	34	0	266338304	50	6067
2026-01-07 02:14:08.48	225.43	12.03	-38.5	-39.5	22.8	0.00e+00	92	34	0	268435456	50	6080
2026-01-07 02:14:09.49	225.57	12.10	-38.6	-39.6	22.6	0.00e+00	92	34	0	270532608	50	6134
2026-01-07 02:14:10.50	225.71	12.17	-38.6	-39.5	22.8	0.00e+00	92	34	0	272629760	50	6103
2026-01-07 02:14:11.51	225.85	12.24	-38.7	-39.7	22.6	0.00e+00	92	34	0	273678336	50	6206
2026-01-07 02:14:12.52	225.98	12.31	-38.5	-39.5	22.8	0.00e+00	8	34	0	275775488	50	6080
2026-01-07 02:14:13.53	226.12	12.38	-38.5	-39.4	22.9	0.00e+00	92	34	0	277872640	50	6018
2026-01-07 02:14:14.54	226.26	12.45	-38.5	-39.5	22.8	0.00e+00	0	34	0	279969792	50	6043
2026-01-07 02:14:15.55	226.40	12.51	-38.4	-39.3	23.0	0.00e+00	92	34	0	282066944	50	5952
2026-01-07 02:14:16.56	226.54	12.58	-38.5	-39.5	22.8	0.00e+00	92	34	0	283115520	50	6057
2026-01-07 02:14:17.57	226.69	12.65	-38.4	-39.4	23.0	0.00e+00	92	34	0	285212672	50	5972
2026-01-07 02:14:18.58	226.83	12.72	-38.4	-39.4	22.9	0.00e+00	90	34	0	287309824	50	5996
2026-01-07 02:14:19.59	226.97	12.79	-38.4	-39.4	22.9	0.00e+00	4	34	0	289406976	50	6000
2026-01-07 02:14:20.59	227.11	12.86	-38.3	-39.2	23.1	0.00e+00	90	34	0	291504128	50	5857
2026-01-07 02:14:21.60	227.26	12.93	-38.3	-39.2	23.1	0.00e+00	7	34	0	292552704	50	5896
2026-01-07 02:14:22.61	227.40	13.00	-38.3	-39.2	23.1	0.00e+00	90	34	0	294649856	50	5872
2026-01-07 02:14:23.62	227.55	13.06	-38.3	-39.2	23.1	0.00e+00	92	34	0	296747008	50	5866
2026-01-07 02:14:24.63	227.69	13.13	-38.3	-39.3	23.0	0.00e+00	92	34	0	298844160	50	5898
2026-01-07 02:14:25.64	227.84	13.20	-38.4	-39.4	23.0	0.00e+00	92	34	0	300941312	50	5994
2026-01-07 02:14:26.65	227.99	13.27	-38.2	-39.2	23.2	0.00e+00	90	34	0	301989888	50	5838
2026-01-07 02:14:27.66	228.14	13.34	-38.2	-39.1	23.2	0.00e+00	92	34	0	304087040	50	5819
2026-01-07 02:14:28.67	228.29	13.41	-38.2	-39.2	23.2	0.00e+00	0	34	0	306184192	50	5836
2026-01-07 02:14:29.68	228.43	13.48	-38.2	-39.1	23.1	0.00e+00	92	34	0	308281344	50	5823
2026-01-07 02:14:30.69	228.58	13.55	-38.2	-39.1	23.2	0.00e+00	92	34	0	310378496	50	5813
2026-01-07 02:14:31.70	228.74	13.62	-38.3	-39.2	23.1	0.00e+00	92	34	0	311427072	50	5871
2026-01-07 02:14:32.71	228.89	13.69	-38.1	-39.1	23.3	0.00e+00	90	34	0	313524224	50	5768
2026-01-07 02:14:33.72	229.04	13.76	-38.1	-39.1	23.2	0.00e+00	92	34	0	315621376	50	5763
2026-01-07 02:14:34.72	229.19	13.82	-38.3	-39.2	23.1	0.00e+00	92	34	0	317718528	50	5865
2026-01-07 02:14:35.73	229.34	13.89	-38.3	-39.2	23.0	0.00e+00	6	34	0	319815680	50	5884
2026-01-07 02:14:36.74	229.50	13.96	-38.2	-39.2	23.1	0.00e+00	91	34	0	321912832	50	5849
2026-01-07 02:14:37.75	229.65	14.03	-38.2	-39.2	23.2	0.00e+00	0	34	0	322961408	50	5844
2026-01-07 02:14:38.76	229.81	14.10	-38.4	-39.3	23.0	0.00e+00	92	34	0	325058560	50	5961
2026-01-07 02:14:39.77	229.97	14.17	-38.2	-39.2	23.2	0.00e+00	91	34	0	327155712	50	5844
2026-01-07 02:14:40.79	230.12	14.24	-38.1	-39.1	23.3	0.00e+00	91	34	0	329252864	50	5768
2026-01-07 02:14:41.79	230.28	14.31	-38.2	-39.1	23.3	0.00e+00	91	34	0	331350016	50	5791
2026-01-07 02:14:42.80	230.44	14.38	-38.1	-39.1	23.1	0.00e+00	31	34	0	332398592	50	5778
2026-01-07 02:14:43.81	230.60	14.45	-38.3	-39.3	23.1	0.00e+00	90	34	0	334495744	50	5903
2026-01-07 02:14:44.82	230.76	14.52	-38.1	-39.0	23.3	0.00e+00	0	34	0	336592896	50	5743
2026-01-07 02:14:45.83	230.92	14.59	-38.1	-39.1	23.2	0.00e+00	90	34	0	338690048	50	5767
2026-01-07 02:14:46.84	231.08	14.65	-38.1	-39.1	23.2	0.00e+00	91	34	0	340787200	50	5773
2026-01-07 02:14:47.85	231.24	14.72	-38.0	-38.9	23.4	0.00e+00	90	34	0	341835776	50	5658
2026-01-07 02:14:48.86	231.40	14.79	-37.9	-38.8	23.5	0.00e+00	92	34	0	343932928	50	5592
2026-01-07 02:14:49.87	231.57	14.86	-38.0	-39.0	23.3	0.00e+00	92	34	0	346030080	50	5706
2026-01-07 02:14:50.87	231.73	14.93	-38.1	-39.1	23.3	0.00e+00	92	34	0	348127232	50	5762
2026-01-07 02:14:51.88	231.90	15.00	-38.0	-38.9	23.4	0.00e+00	90	34	0	350224384	50	5650
2026-01-07 02:14:52.89	232.06	15.07	-38.0	-39.0	23.4	0.00e+00	92	34	0	351272960	50	5700
2026-01-07 02:14:53.90	232.23	15.14	-38.1	-39.0	23.4	0.00e+00	82	34	0	353370112	50	5720
2026-01-07 02:14:54.91	232.40	15.21	-38.2	-39.1	23.3	0.00e+00	91	34	0	355467264	50	5796
2026-01-07 02:14:55.92	232.56	15.28	-38.2	-39.1	23.2	0.00e+00	91	34	0	357564416	50	5803
2026-01-07 02:14:56.93	232.73	15.35	-38.2	-39.2	23.2	0.00e+00	91	34	0	359661568	50	5851
2026-01-07 02:14:57.94	232.90	15.41	-38.0	-38.9	23.4	0.00e+00	92	34	0	360710144	50	5666
2026-01-07 02:14:58.95	233.07	15.48	-38.1	-39.0	23.4	0.00e+00	0	34	0	362807296	50	5710
2026-01-07 02:14:59.96	233.24	15.55	-38.1	-39.0	23.3	0.00e+00	91	35	0	364904448	50	5719
2026-01-07 02:15:00.97	233.42	15.62	-38.0	-38.9	23.5	0.00e+00	0	34	0	367001600	50	5660
2026-01-07 02:15:01.98	233.59	15.69	-38.1	-39.0	23.3	0.00e+00	91	34	0	369098752	50	5756
2026-01-07 02:15:02.98	233.76	15.76	-38.1	-39.0	23.4	0.00e+00	92	34	0	370147328	50	5735
2026-01-07 02:15:03.99	233.93	15.83	-38.1	-39.0	23.4	0.00e+00	92	35	0	372244480	50	5711
2026-01-07 02:15:05.00	234.11	15.89	-38.1	-39.1	23.3	0.00e+00	92	34	0	374341632	50	5768
2026-01-07 02:15:06.01	234.28	15.96	-38.2	-39.2	23.2	0.00e+00	69	35	0	376438784	50	5844
2026-01-07 02:15:07.02	234.46	16.03	-38.1	-39.0	23.3	0.00e+00	92	34	0	378535936	50	5761
2026-01-07 02:15:08.03	234.64	16.10	-38.2	-39.2	23.3	0.00e+00	75	35	0	379584512	50	5837
2026-01-07 02:15:09.04	234.82	16.17	-38.1	-39.0	23.4	0.00e+00	92	34	0	381681664	50	5744
2026-01-07 02:15:10.05	234.99	16.24	-37.9	-38.8	23.6	0.00e+00	93	34	0	383778816	50	5572
2026-01-07 02:15:11.06	235.17	16.31	-37.8	-38.7	23.6	0.00e+00	91	34	0	385875968	50	5526
2026-01-07 02:15:12.07	235.35	16.37	-37.7	-38.6	23.7	0.00e+00	92	34	0	387973120	48	6146
2026-01-07 02:15:13.08	235.54	16.44	-37.9	-38.8	23.6	0.00e+00	92	34	0	390070272	48	6254
2026-01-07 02:15:14.09	235.72	16.51	-37.7	-38.6	23.8	0.00e+00	92	34	0	391118848	48	6129
2026-01-07 02:15:15.09	235.90	16.58	-37.7	-38.6	23.7	0.00e+00	5	34	0	393216000	48	6149
2026-01-07 02:15:16.10	236.08	16.64	-37.7	-38.6	23.7	0.00e+00	92	34	0	395313152	48	6152
2026-01-07 02:15:17.11	236.27	16.71	-37.7	-38.6	23.7	0.00e+00	84	34	0	397410304	48	6157
2026-01-07 02:15:18.12	236.45	16.78	-37.8	-38.7	23.7	0.00e+00	90	34	0	399507456	48	6193
2026-01-07 02:15:19.13	236.64	16.85	-37.7	-38.5	23.8	0.00e+00	90	34	0	400556032	48	6103
2026-01-07 02:15:20.14	236.82	16.91	-37.6	-38.5	23.9	0.00e+00	90	34	0	402653184	48	6061
2026-01-07 02:15:21.15	237.01	16.98	-37.6	-38.4	23.9	0.00e+00	92	35	0	404750336	48	6032
2026-01-07 02:15:22.16	237.20	17.05	-37.4	-38.3	24.1	0.00e+00	6	34	0	406847488	48	5902
2026-01-07 02:15:23.17	237.39	17.12	-37.4	-38.2	24.1	0.00e+00	92	34	0	408944640	48	5892
2026-01-07 02:15:24.18	237.58	17.18	-37.4	-38.2	24.1	0.00e+00	13	35	0	409993216	48	5876
2026-01-07 02:15:25.19	237.77	17.25	-37.4	-38.3	24.1	0.00e+00	92	34	0	412090368	48	5916
2026-01-07 02:15:26.20	237.96	17.32	-37.6	-38.4	23.9	0.00e+00	92	34	0	414187520	48	6023
2026-01-07 02:15:27.21	238.16	17.38	-37.4	-38.3	24.0	0.00e+00	92	34	0	416284672	48	5921
2026-01-07 02:15:28.22	238.35	17.45	-37.5	-38.4	23.9	0.00e+00	90	34	0	418381824	48	6002
2026-01-07 02:15:29.23	238.54	17.52	-37.6	-38.5	23.8	0.00e+00	92	35	0	419430400	48	6050
2026-01-07 02:15:30.23	238.74	17.58	-37.4	-38.3	24.1	0.00e+00	92	35	0	421527552	48	5904
2026-01-07 02:15:31.24	238.93	17.65	-37.4	-38.3	24.0	0.00e+00	3	34	0	423624704	48	5935
2026-01-07 02:15:32.25	239.13	17.71	-37.2	-38.1	24.2	0.00e+00	92	34	0	425721856	48	5794
2026-01-07 02:15:33.26	239.33	17.78	-37.2	-38.1	24.2	0.00e+00	92	34	0	427819008	48	5775
2026-01-07 02:15:34.27	239.52	17.85	-37.1	-37.9	24.3	0.00e+00	92	34	0	428867584	48	5671
2026-01-07 02:15:35.27	239.72	17.91	-37.2	-38.1	24.2	0.00e+00	92	34	0	430964736	48	5763
2026-01-07 02:15:36.28	239.92	17.98	-37.0	-37.8	24.5	0.00e+00	90	35	0	433061888	48	5599
2026-01-07 02:15:37.29	240.12	18.04	-37.1	-38.0	24.4	0.00e+00	92	34	0	435159040	48	5708
2026-01-07 02:15:38.30	240.32	18.11	-37.0	-37.8	24.5	0.00e+00	71	35	0	437256192	48	5591
2026-01-07 02:15:39.31	240.53	18.17	-37.0	-37.9	24.4	0.00e+00	92	34	0	438304768	48	5638
2026-01-07 02:15:40.32	240.73	18.24	-37.1	-37.9	24.4	0.00e+00	92	34	0	440401920	48	5660
2026-01-07 02:15:41.33	240.93	18.30	-37.2	-38.1	24.3	0.00e+00	92	35	0	442499072	48	5765
2026-01-07 02:15:42.34	241.14	18.36	-36.9	-37.7	24.5	0.00e+00	92	35	0	444596224	48	5546
2026-01-07 02:15:43.35	241.34	18.43	-37.0	-37.8	24.4	0.00e+00	92	35	0	446693376	48	5617
2026-01-07 02:15:44.36	241.55	18.49	-36.9	-37.7	24.5	0.00e+00	92	35	0	447741952	48	5541
2026-01-07 02:15:45.37	241.76	18.56	-36.8	-37.6	24.6	0.00e+00	2	34	0	449839104	48	5495
2026-01-07 02:15:46.38	241.97	18.62	-36.9	-37.7	24.6	0.00e+00	92	34	0	451936256	48	5535
2026-01-07 02:15:47.39	242.18	18.68	-37.0	-37.8	24.5	0.00e+00	0	35	0	454033408	48	5603
2026-01-07 02:15:48.39	242.38	18.75	-37.0	-37.8	24.5	0.00e+00	92	35	0	456130560	48	5598
2026-01-07 02:15:49.40	242.60	18.81	-37.1	-37.9	24.3	0.00e+00	92	35	0	457179136	48	5690
2026-01-07 02:15:50.41	242.81	18.87	-37.2	-38.0	24.3	0.00e+00	92	35	0	459276288	48	5736
2026-01-07 02:15:51.42	243.02	18.93	-37.2	-38.0	24.3	0.00e+00	92	35	0	461373440	48	5756
2026-01-07 02:15:52.43	243.23	19.00	-37.3	-38.2	24.2	0.00e+00	42	35	0	463470592	48	5851
2026-01-07 02:15:53.44	243.45	19.06	-37.1	-37.9	24.4	0.00e+00	92	34	0	465567744	48	5679
2026-01-07 02:15:54.45	243.66	19.12	-37.2	-38.0	24.3	0.00e+00	0	34	0	466616320	48	5729
2026-01-07 02:15:55.46	243.88	19.18	-37.1	-38.0	24.4	0.00e+00	92	35	0	468713472	48	5700
2026-01-07 02:15:56.47	244.10	19.24	-37.2	-38.0	24.4	0.00e+00	90	35	0	470810624	48	5725
2026-01-07 02:15:57.48	244.31	19.30	-37.2	-38.1	24.3	0.00e+00	92	35	0	472907776	48	5762
2026-01-07 02:15:58.49	244.53	19.36	-37.4	-38.3	24.1	0.00e+00	92	35	0	475004928	48	5919
2026-01-07 02:15:59.50	244.75	19.42	-37.6	-38.4	23.9	0.00e+00	92	35	0	476053504	48	6021
2026-01-07 02:16:00.51	244.97	19.48	-37.8	-38.7	23.7	0.00e+00	90	35	0	478150656	48	6223
2026-01-07 02:16:01.52	245.19	19.54	-38.0	-39.0	23.6	0.00e+00	0	35	0	480247808	48	6393
2026-01-07 02:16:02.53	245.41	19.60	-38.2	-39.1	23.4	0.00e+00	92	35	0	482344960	48	6520
2026-01-07 02:16:03.54	245.64	19.66	-38.1	-39.1	23.5	0.00e+00	14	35	0	484442112	48	6470
2026-01-07 02:16:04.55	245.86	19.72	-38.2	-39.1	23.4	0.00e+00	92	35	0	486539264	48	6477
2026-01-07 02:16:05.56	246.09	19.78	-38.2	-39.2	23.3	0.00e+00	92	34	0	487587840	48	6542
2026-01-07 02:16:06.56	246.31	19.84	-38.2	-39.1	23.4	0.00e+00	92	35	0	489684992	48	6536
2026-01-07 02:16:07.57	246.53	19.90	-38.3	-39.2	23.4	0.00e+00	90	35	0	491782144	48	6564
2026-01-07 02:16:08.58	246.76	19.96	-38.3	-39.2	23.3	0.00e+00	0	34	0	493879296	48	6611
2026-01-07 02:16:09.59	246.99	20.01	-38.4	-39.3	23.2	0.00e+00	92	35	0	495976448	48	6656
2026-01-07 02:16:10.60	247.22	20.07	-38.6	-39.6	22.9	0.00e+00	0	35	0	497025024	48	6862
2026-01-07 02:16:11.61	247.45	20.13	-38.9	-39.8	22.8	0.00e+00	90	34	0	499122176	50	6317
2026-01-07 02:16:12.62	247.68	20.18	-39.1	-40.1	22.6	0.00e+00	92	35	0	501219328	50	6486
2026-01-07 02:16:13.63	247.91	20.24	-39.3	-40.3	22.3	0.00e+00	90	34	0	503316480	50	6653
2026-01-07 02:16:14.64	248.14	20.30	-39.4	-40.4	22.2	0.00e+00	92	35	0	505413632	50	6743
2026-01-07 02:16:15.64	248.37	20.35	-39.5	-40.6	22.0	0.00e+00	92	35	0	506462208	50	6901
2026-01-07 02:16:16.65	248.60	20.41	-39.7	-40.8	21.9	0.00e+00	92	35	0	508559360	50	7022
2026-01-07 02:16:17.66	248.84	20.46	-39.6	-40.7	22.1	0.00e+00	0	34	0	510656512	50	6937
2026-01-07 02:16:18.67	249.07	20.52	-39.5	-40.6	22.0	0.00e+00	92	35	0	512753664	50	6871
2026-01-07 02:16:19.68	249.31	20.57	-39.4	-40.4	22.2	0.00e+00	92	34	0	514850816	50	6751
2026-01-07 02:16:20.69	249.55	20.62	-39.0	-40.0	22.7	0.00e+00	92	34	0	515899392	50	6435
2026-01-07 02:16:21.70	249.78	20.68	-38.9	-39.9	22.7	0.00e+00	92	35	0	517996544	50	6363
2026-01-07 02:16:22.71	250.02	20.73	-38.7	-39.7	22.7	0.00e+00	75	35	0	520093696	50	6208
2026-01-07 02:16:23.72	250.26	20.78	-38.9	-39.8	22.8	0.00e+00	90	35	0	522190848	50	6305
2026-01-07 02:16:24.73	250.50	20.84	-38.8	-39.8	22.8	0.00e+00	11	35	0	524288000	50	6295
2026-01-07 02:16:25.74	250.74	20.89	-38.9	-39.9	22.6	0.00e+00	92	34	0	525336576	50	6352
2026-01-07 02:16:26.75	250.98	20.94	-38.8	-39.8	22.8	0.00e+00	0	34	0	527433728	50	6297
2026-01-07 02:16:27.75	251.22	20.99	-38.8	-39.7	22.9	0.00e+00	92	34	0	529530880	50	6230
2026-01-07 02:16:28.77	251.47	21.04	-38.6	-39.6	23.0	0.00e+00	92	35	0	531628032	50	6133
2026-01-07 02:16:29.78	251.71	21.09	-38.7	-39.6	22.9	0.00e+00	92	35	0	533725184	50	6144
2026-01-07 02:16:30.79	251.96	21.14	-38.6	-39.6	23.0	0.00e+00	92	35	0	534773760	50	6109
2026-01-07 02:16:31.80	252.20	21.19	-38.5	-39.4	23.2	0.00e+00	12	34	0	536870912	50	6019
2026-01-07 02:16:32.81	252.45	21.24	-38.4	-39.3	23.2	0.00e+00	92	35	0	538968064	50	5964
2026-01-07 02:16:33.81	252.69	21.29	-38.2	-39.1	23.3	0.00e+00	0	35	0	541065216	50	5827
2026-01-07 02:16:34.82	252.94	21.34	-38.0	-38.9	23.6	0.00e+00	92	35	0	543162368	50	5652
2026-01-07 02:16:35.83	253.19	21.38	-38.0	-38.9	23.6	0.00e+00	92	35	0	544210944	50	5645
2026-01-07 02:16:36.84	253.44	21.43	-37.9	-38.7	23.8	0.00e+00	92	35	0	546308096	50	5559
2026-01-07 02:16:37.85	253.69	21.48	-37.7	-38.6	23.9	0.00e+00	92	35	0	548405248	50	5482
2026-01-07 02:16:38.86	253.94	21.52	-38.0	-38.9	23.6	0.00e+00	0	35	0	550502400	48	6343
2026-01-07 02:16:39.87	254.19	21.57	-38.1	-39.1	23.4	0.00e+00	92	35	0	552599552	48	6471
2026-01-07 02:16:40.88	254.44	21.62	-38.3	-39.2	23.3	0.00e+00	0	35	0	554696704	48	6609
2026-01-07 02:16:41.89	254.70	21.66	-38.7	-39.6	23.0	0.00e+00	92	35	0	555745280	48	6912
2026-01-07 02:16:42.90	254.95	21.70	-38.6	-39.6	22.9	0.00e+00	92	35	0	557842432	48	6878
2026-01-07 02:16:43.91	255.20	21.75	-38.8	-39.8	22.9	0.00e+00	76	35	0	559939584	50	6247
2026-01-07 02:16:44.92	255.46	21.79	-38.8	-39.7	22.9	0.00e+00	90	35	0	562036736	50	6232
2026-01-07 02:16:45.93	255.71	21.84	-38.8	-39.7	22.8	0.00e+00	7	35	0	564133888	50	6238
2026-01-07 02:16:46.94	255.97	21.88	-38.8	-39.8	22.8	0.00e+00	92	35	0	565182464	50	6276
2026-01-07 02:16:47.95	256.23	21.92	-38.7	-39.7	23.0	0.00e+00	0	34	0	567279616	50	6179
2026-01-07 02:16:48.96	256.49	21.96	-38.7	-39.7	23.0	0.00e+00	92	34	0	569376768	50	6223
2026-01-07 02:16:49.97	256.74	22.00	-38.5	-39.4	23.2	0.00e+00	0	35	0	571473920	50	6016
2026-01-07 02:16:50.98	257.00	22.04	-38.5	-39.5	23.1	0.00e+00	92	34	0	573571072	50	6052
2026-01-07 02:16:51.98	257.26	22.08	-38.5	-39.4	23.2	0.00e+00	90	35	0	574619648	50	5997
2026-01-07 02:16:52.99	257.52	22.12	-38.4	-39.4	23.2	0.00e+00	91	34	0	576716800	50	5976
2026-01-07 02:16:54.00	257.78	22.16	-38.5	-39.4	23.1	0.00e+00	90	35	0	578813952	50	6033
2026-01-07 02:16:55.01	258.04	22.20	-38.6	-39.6	23.0	0.00e+00	76	35	0	580911104	50	6147
2026-01-07 02:16:56.02	258.30	22.24	-38.8	-39.7	22.8	0.00e+00	90	35	0	583008256	50	6233
2026-01-07 02:16:57.03	258.57	22.27	-38.7	-39.7	23.0	0.00e+00	0	35	0	584056832	50	6186
2026-01-07 02:16:58.04	258.83	22.31	-38.7	-39.6	23.0	0.00e+00	92	35	0	586153984	50	6164
2026-01-07 02:16:59.05	259.09	22.35	-38.5	-39.4	23.2	0.00e+00	92	35	0	588251136	50	6008
2026-01-07 02:17:00.06	259.36	22.38	-38.5	-39.5	23.2	0.00e+00	0	35	0	590348288	50	6039
2026-01-07 02:17:01.07	259.62	22.42	-38.3	-39.2	23.4	0.00e+00	91	35	0	592445440	50	5842
2026-01-07 02:17:02.08	259.89	22.45	-38.0	-38.9	23.6	0.00e+00	79	35	0	593494016	50	5695
2026-01-07 02:17:03.09	260.16	22.48	-38.0	-38.9	23.6	0.00e+00	90	35	0	595591168	50	5678
2026-01-07 02:17:04.10	260.42	22.52	-38.1	-39.0	23.5	0.00e+00	0	35	0	597688320	50	5744
2026-01-07 02:17:05.10	260.69	22.55	-38.0	-38.9	23.6	0.00e+00	92	35	0	599785472	50	5694
2026-01-07 02:17:06.11	260.96	22.58	-38.2	-39.1	23.5	0.00e+00	92	35	0	601882624	50	5773
2026-01-07 02:17:07.12	261.22	22.61	-37.9	-38.8	23.7	0.00e+00	90	35	0	602931200	50	5619
2026-01-07 02:17:08.13	261.49	22.64	-37.9	-38.8	23.7	0.00e+00	92	35	0	605028352	50	5599
2026-01-07 02:17:09.14	261.76	22.67	-38.0	-38.9	23.7	0.00e+00	7	35	0	607125504	50	5652
2026-01-07 02:17:10.15	262.03	22.70	-38.0	-38.9	23.6	0.00e+00	92	35	0	609222656	50	5669
2026-01-07 02:17:11.16	262.30	22.73	-38.1	-39.0	23.5	0.00e+00	7	35	0	611319808	50	5749
2026-01-07 02:17:12.17	262.57	22.76	-38.0	-38.9	23.6	0.00e+00	92	35	0	612368384	50	5691
2026-01-07 02:17:13.18	262.85	22.79	-38.1	-39.0	23.5	0.00e+00	24	35	0	614465536	50	5741
2026-01-07 02:17:14.19	263.12	22.82	-38.3	-39.2	23.3	0.00e+00	92	35	0	616562688	50	5888
2026-01-07 02:17:15.20	263.39	22.84	-38.3	-39.2	23.4	0.00e+00	92	35	0	618659840	50	5870
2026-01-07 02:17:16.21	263.66	22.87	-38.5	-39.4	23.3	0.00e+00	75	35	0	620756992	50	5995
2026-01-07 02:17:17.22	263.94	22.89	-38.6	-39.6	23.0	0.00e+00	92	35	0	622854144	50	6136
2026-01-07 02:17:18.23	264.21	22.92	-38.7	-39.6	23.0	0.00e+00	67	35	0	623902720	50	6167
2026-01-07 02:17:19.24	264.48	22.94	-38.8	-39.8	22.8	0.00e+00	90	35	0	625999872	50	6269
2026-01-07 02:17:20.25	264.76	22.97	-39.0	-40.0	22.8	0.00e+00	71	35	0	628097024	50	6415
2026-01-07 02:17:21.25	265.03	22.99	-38.9	-39.9	22.7	0.00e+00	92	35	0	630194176	50	6350
2026-01-07 02:17:22.26	265.30	23.01	-38.9	-39.9	22.8	0.00e+00	92	35	0	632291328	50	6347
2026-01-07 02:17:23.27	265.58	23.03	-38.9	-39.8	22.9	0.00e+00	0	35	0	633339904	50	6310
2026-01-07 02:17:24.28	265.86	23.05	-38.7	-39.6	23.0	0.00e+00	92	35	0	635437056	50	6163
2026-01-07 02:17:25.29	266.13	23.07	-38.7	-39.6	22.9	0.00e+00	75	35	0	637534208	50	6168
2026-01-07 02:17:26.30	266.41	23.09	-38.5	-39.5	23.1	0.00e+00	92	35	0	639631360	50	6060
2026-01-07 02:17:27.31	266.69	23.11	-38.6	-39.5	23.0	0.00e+00	0	35	0	641728512	50	6091
2026-01-07 02:17:28.32	266.96	23.13	-38.3	-39.2	23.4	0.00e+00	92	35	0	642777088	50	5875
2026-01-07 02:17:29.33	267.24	23.15	-38.5	-39.4	23.2	0.00e+00	89	35	0	644874240	50	6007
2026-01-07 02:17:30.34	267.52	23.16	-38.1	-39.0	23.5	0.00e+00	92	35	0	646971392	50	5759
2026-01-07 02:17:31.35	267.80	23.18	-38.3	-39.2	23.4	0.00e+00	92	35	0	649068544	50	5840
2026-01-07 02:17:32.36	268.07	23.19	-38.4	-39.3	23.3	0.00e+00	9	35	0	651165696	50	5944
2026-01-07 02:17:33.37	268.35	23.21	-38.2	-39.1	23.4	0.00e+00	92	35	0	652214272	50	5810
2026-01-07 02:17:34.38	268.63	23.22	-38.1	-39.1	23.5	0.00e+00	7	35	0	654311424	50	5767
2026-01-07 02:17:35.39	268.91	23.24	-38.2	-39.1	23.4	0.00e+00	92	35	0	656408576	50	5818
2026-01-07 02:17:36.40	269.19	23.25	-38.1	-39.0	23.5	0.00e+00	13	35	0	658505728	50	5750
2026-01-07 02:17:37.41	269.47	23.26	-37.9	-38.8	23.8	0.00e+00	92	35	0	660602880	50	5567
2026-01-07 02:17:38.42	269.75	23.27	-37.9	-38.8	23.8	0.00e+00	92	35	0	661651456	50	5619
2026-01-07 02:17:39.43	270.03	23.28	-37.8	-38.7	23.8	0.00e+00	0	35	0	663748608	48	6206
2026-01-07 02:17:40.43	270.31	23.29	-37.8	-38.7	23.8	0.00e+00	90	35	0	665845760	48	6205
2026-01-07 02:17:41.44	270.59	23.30	-37.9	-38.8	23.7	0.00e+00	80	35	0	667942912	48	6298
2026-01-07 02:17:42.45	270.87	23.31	-38.1	-39.1	23.5	0.00e+00	92	35	0	670040064	48	6471
2026-01-07 02:17:43.46	271.15	23.32	-38.3	-39.3	23.3	0.00e+00	80	35	0	671088640	48	6627
2026-01-07 02:17:44.47	271.43	23.33	-38.3	-39.2	23.4	0.00e+00	90	35	0	673185792	48	6558
2026-01-07 02:17:45.47	271.71	23.33	-38.2	-39.2	23.4	0.00e+00	92	35	0	675282944	48	6543
2026-01-07 02:17:46.48	271.99	23.34	-38.2	-39.1	23.4	0.00e+00	92	35	0	677380096	48	6511
2026-01-07 02:17:47.49	272.27	23.34	-38.0	-38.9	23.6	0.00e+00	92	35	0	679477248	48	6358
2026-01-07 02:17:48.50	272.55	23.35	-37.9	-38.8	23.7	0.00e+00	67	34	0	680525824	48	6273
2026-01-07 02:17:49.51	272.83	23.35	-37.7	-38.6	23.8	0.00e+00	92	35	0	682622976	48	6161
2026-01-07 02:17:50.52	273.11	23.35	-37.8	-38.6	23.8	0.00e+00	0	35	0	684720128	48	6173
2026-01-07 02:17:51.53	273.39	23.36	-37.7	-38.6	23.8	0.00e+00	90	34	0	686817280	48	6160
2026-01-07 02:17:52.54	273.67	23.36	-37.9	-38.8	23.7	0.00e+00	92	35	0	688914432	48	6271
2026-01-07 02:17:53.56	273.96	23.36	-38.0	-38.9	23.6	0.00e+00	92	35	0	689963008	48	6378
2026-01-07 02:17:54.56	274.24	23.36	-38.1	-39.0	23.5	0.00e+00	90	35	0	692060160	48	6454
2026-01-07 02:17:55.57	274.52	23.36	-38.2	-39.2	23.4	0.00e+00	0	35	0	694157312	48	6552
2026-01-07 02:17:56.58	274.80	23.36	-38.2	-39.1	23.4	0.00e+00	90	35	0	696254464	48	6475
2026-01-07 02:17:57.59	275.08	23.35	-38.2	-39.1	23.5	0.00e+00	13	35	0	698351616	48	6479
2026-01-07 02:17:58.60	275.36	23.35	-38.1	-39.0	23.6	0.00e+00	90	35	0	699400192	48	6395
2026-01-07 02:17:59.61	275.64	23.35	-38.0	-38.9	23.6	0.00e+00	0	35	0	701497344	48	6355
2026-01-07 02:18:00.62	275.92	23.34	-37.7	-38.6	23.9	0.00e+00	90	34	0	703594496	48	6109
2026-01-07 02:18:01.63	276.20	23.34	-37.7	-38.6	23.8	0.00e+00	92	35	0	705691648	48	6146
2026-01-07 02:18:02.64	276.49	23.33	-37.8	-38.7	23.7	0.00e+00	0	35	0	707788800	48	6193
2026-01-07 02:18:03.65	276.77	23.33	-38.0	-38.9	23.5	0.00e+00	92	34	0	708837376	48	6370
2026-01-07 02:18:04.66	277.05	23.32	-38.2	-39.2	23.3	0.00e+00	81	35	0	710934528	48	6554
2026-01-07 02:18:05.67	277.33	23.31	-38.5	-39.5	23.0	0.00e+00	92	35	0	713031680	48	6797
2026-01-07 02:18:06.68	277.61	23.30	-38.6	-39.6	23.0	0.00e+00	82	35	0	715128832	48	6887
2026-01-07 02:18:07.69	277.89	23.29	-38.7	-39.6	22.9	0.00e+00	92	35	0	717225984	48	6917
2026-01-07 02:18:08.69	278.16	23.28	-38.6	-39.5	23.0	0.00e+00	92	35	0	719323136	48	6808
2026-01-07 02:18:09.70	278.44	23.27	-38.6	-39.5	23.1	0.00e+00	92	35	0	720371712	48	6822
2026-01-07 02:18:10.71	278.72	23.26	-38.6	-39.6	23.0	0.00e+00	92	35	0	722468864	48	6878
2026-01-07 02:18:11.72	279.00	23.25	-38.4	-39.3	23.2	0.00e+00	11	35	0	724566016	48	6685
2026-01-07 02:18:12.73	279.28	23.24	-38.3	-39.3	23.3	0.00e+00	92	35	0	726663168	48	6621
2026-01-07 02:18:13.74	279.56	23.23	-38.3	-39.2	23.4	0.00e+00	12	35	0	728760320	48	6557
2026-01-07 02:18:14.75	279.84	23.21	-38.2	-39.2	23.4	0.00e+00	92	35	0	729808896	48	6547
2026-01-07 02:18:15.76	280.12	23.20	-38.2	-39.1	23.4	0.00e+00	90	35	0	731906048	48	6529
2026-01-07 02:18:16.77	280.40	23.18	-37.8	-38.7	23.7	0.00e+00	92	35	0	734003200	48	6187
2026-01-07 02:18:17.77	280.67	23.17	-37.8	-38.7	23.8	0.00e+00	91	35	0	736100352	48	6186
2026-01-07 02:18:18.79	280.95	23.15	-37.8	-38.7	23.8	0.00e+00	10	35	0	738197504	48	6200
2026-01-07 02:18:19.80	281.23	23.13	-37.8	-38.7	23.7	0.00e+00	91	35	0	739246080	48	6230
2026-01-07 02:18:20.81	281.51	23.11	-38.1	-39.0	23.5	0.00e+00	75	35	0	741343232	48	6404
2026-01-07 02:18:21.82	281.78	23.10	-38.2	-39.2	23.3	0.00e+00	92	34	0	743440384	48	6546
2026-01-07 02:18:22.82	282.06	23.08	-38.5	-39.4	23.1	0.00e+00	0	35	0	745537536	48	6767
2026-01-07 02:18:23.83	282.33	23.06	-38.7	-39.6	23.0	0.00e+00	90	34	0	747634688	48	6926
2026-01-07 02:18:24.84	282.61	23.04	-38.6	-39.6	22.9	0.00e+00	91	35	0	748683264	50	6108
2026-01-07 02:18:25.85	282.88	23.02	-38.6	-39.5	23.1	0.00e+00	46	35	0	750780416	50	6078
2026-01-07 02:18:26.86	283.16	22.99	-38.5	-39.5	23.0	0.00e+00	91	35	0	752877568	50	6061
2026-01-07 02:18:27.87	283.43	22.97	-38.4	-39.4	23.1	0.00e+00	75	35	0	754974720	50	5976
2026-01-07 02:18:28.88	283.71	22.95	-38.7	-39.7	23.0	0.00e+00	91	35	0	757071872	50	6198
2026-01-07 02:18:29.89	283.98	22.92	-38.6	-39.5	23.1	0.00e+00	77	35	0	758120448	50	6083
2026-01-07 02:18:30.89	284.25	22.90	-38.6	-39.6	23.1	0.00e+00	92	35	0	760217600	50	6106
2026-01-07 02:18:31.90	284.52	22.87	-38.2	-39.1	23.5	0.00e+00	91	35	0	762314752	50	5784
2026-01-07 02:18:32.91	284.80	22.85	-37.7	-38.6	23.5	0.00e+00	91	35	0	764411904	50	5485
2026-01-07 02:18:33.92	285.07	22.82	-37.7	-38.6	23.8	0.00e+00	91	35	0	766509056	48	6137
2026-01-07 02:18:34.93	285.34	22.80	-37.8	-38.7	23.7	0.00e+00	7	35	0	767557632	48	6174
2026-01-07 02:18:35.94	285.61	22.77	-38.1	-39.0	23.5	0.00e+00	91	35	0	769654784	48	6427
2026-01-07 02:18:36.95	285.88	22.74	-38.2	-39.2	23.4	0.00e+00	12	35	0	771751936	48	6554
2026-01-07 02:18:37.96	286.15	22.71	-38.4	-39.3	23.2	0.00e+00	90	34	0	773849088	48	6666
2026-01-07 02:18:38.97	286.42	22.68	-38.3	-39.3	23.2	0.00e+00	0	35	0	775946240	48	6625
2026-01-07 02:18:39.98	286.69	22.65	-38.0	-38.9	23.5	0.00e+00	89	35	0	776994816	48	6345
2026-01-07 02:18:40.99	286.96	22.62	-37.7	-38.5	23.9	0.00e+00	92	35	0	779091968	48	6100
2026-01-07 02:18:42.00	287.22	22.59	-37.6	-38.5	23.9	0.00e+00	6	35	0	781189120	48	6072
2026-01-07 02:18:43.01	287.49	22.56	-37.8	-38.7	23.8	0.00e+00	92	35	0	783286272	48	6183
2026-01-07 02:18:44.02	287.76	22.53	-37.7	-38.6	23.9	0.00e+00	81	34	0	785383424	48	6123
2026-01-07 02:18:45.03	288.03	22.49	-37.8	-38.7	23.8	0.00e+00	92	35	0	787480576	48	6219
2026-01-07 02:18:46.04	288.29	22.46	-37.9	-38.8	23.7	0.00e+00	0	35	0	788529152	48	6277
2026-01-07 02:18:47.04	288.55	22.43	-37.8	-38.7	23.7	0.00e+00	92	34	0	790626304	48	6202
2026-01-07 02:18:48.05	288.82	22.39	-37.7	-38.6	23.8	0.00e+00	90	35	0	792723456	48	6157
2026-01-07 02:18:49.06	289.08	22.36	-37.9	-38.8	23.6	0.00e+00	81	35	0	794820608	48	6290
2026-01-07 02:18:50.07	289.35	22.32	-37.4	-38.3	24.1	0.00e+00	92	35	0	796917760	48	5910
2026-01-07 02:18:51.08	289.61	22.28	-37.4	-38.2	24.1	0.00e+00	4	35	0	797966336	48	5872
2026-01-07 02:18:52.09	289.87	22.25	-37.2	-38.0	24.4	0.00e+00	92	35	0	800063488	48	5738
2026-01-07 02:18:53.09	290.13	22.21	-37.2	-38.1	24.3	0.00e+00	0	34	0	802160640	48	5790
2026-01-07 02:18:54.10	290.39	22.17	-37.0	-37.8	24.5	0.00e+00	92	35	0	804257792	48	5623
2026-01-07 02:18:55.11	290.65	22.13	-36.9	-37.7	24.6	0.00e+00	90	34	0	806354944	48	5556
2026-01-07 02:18:56.12	290.91	22.09	-36.8	-37.6	24.7	0.00e+00	0	35	0	807403520	48	5496
2026-01-07 02:18:57.13	291.17	22.05	-36.8	-37.6	24.7	0.00e+00	92	35	0	809500672	46	6134
2026-01-07 02:18:58.14	291.43	22.01	-36.7	-37.5	24.9	0.00e+00	0	35	0	811597824	46	6071
2026-01-07 02:18:59.15	291.69	21.97	-37.0	-37.8	24.5	0.00e+00	92	35	0	813694976	46	6261
2026-01-07 02:19:00.16	291.94	21.93	-37.0	-37.8	24.5	0.00e+00	7	35	0	815792128	46	6290
2026-01-07 02:19:01.17	292.20	21.89	-37.2	-38.1	24.2	0.00e+00	92	35	0	816840704	46	6475
2026-01-07 02:19:02.18	292.46	21.85	-37.3	-38.1	24.2	0.00e+00	56	34	0	818937856	46	6536
2026-01-07 02:19:03.19	292.71	21.81	-37.4	-38.2	24.1	0.00e+00	92	35	0	821035008	46	6583
2026-01-07 02:19:04.20	292.96	21.76	-37.0	-37.9	24.4	0.00e+00	90	35	0	823132160	46	6333
2026-01-07 02:19:05.21	293.22	21.72	-37.1	-38.0	24.4	0.00e+00	69	34	0	825229312	46	6411
2026-01-07 02:19:06.22	293.47	21.67	-36.9	-37.8	24.6	0.00e+00	90	34	0	826277888	46	6251
2026-01-07 02:19:07.23	293.72	21.63	-36.5	-37.3	25.0	0.00e+00	4	35	0	828375040	46	5930
2026-01-07 02:19:08.24	293.97	21.59	-36.5	-37.3	24.8	0.00e+00	90	34	0	830472192	46	5960
2026-01-07 02:19:09.25	294.23	21.54	-36.4	-37.3	25.0	0.00e+00	0	34	0	832569344	46	5899
2026-01-07 02:19:10.25	294.47	21.49	-36.2	-37.0	25.2	0.00e+00	92	34	0	834666496	46	5702
2026-01-07 02:19:11.26	294.72	21.45	-36.1	-36.9	25.2	0.00e+00	90	34	0	835715072	46	5642
2026-01-07 02:19:12.27	294.97	21.40	-35.7	-36.5	25.5	0.00e+00	70	35	0	837812224	46	5407
2026-01-07 02:19:13.28	295.22	21.35	-35.7	-36.5	25.5	0.00e+00	91	35	0	839909376	44	6061
2026-01-07 02:19:14.29	295.47	21.31	-35.7	-36.4	25.1	0.00e+00	70	35	0	842006528	44	6015
2026-01-07 02:19:15.30	295.71	21.26	-35.7	-36.5	25.6	0.00e+00	91	35	0	844103680	44	6036
2026-01-07 02:19:16.31	295.96	21.21	-35.9	-36.6	25.5	0.00e+00	0	34	0	845152256	44	6172
2026-01-07 02:19:17.32	296.20	21.16	-35.7	-36.5	25.6	0.00e+00	92	35	0	847249408	44	6047
2026-01-07 02:19:18.33	296.45	21.11	-35.9	-36.6	25.3	0.00e+00	92	34	0	849346560	44	6168
2026-01-07 02:19:19.34	296.69	21.06	-35.9	-36.7	25.4	0.00e+00	0	34	0	851443712	44	6205
2026-01-07 02:19:20.35	296.93	21.01	-36.0	-36.7	25.3	0.00e+00	90	34	0	853540864	44	6235
2026-01-07 02:19:21.36	297.17	20.96	-36.2	-37.0	25.1	0.00e+00	12	34	0	855638016	44	6391
2026-01-07 02:19:22.37	297.41	20.91	-36.4	-37.2	25.0	0.00e+00	92	34	0	856686592	44	6599
2026-01-07 02:19:23.38	297.65	20.86	-36.6	-37.4	24.3	0.00e+00	0	35	0	858783744	44	6697
2026-01-07 02:19:24.38	297.89	20.80	-36.6	-37.4	24.8	0.00e+00	92	35	0	860880896	44	6707
2026-01-07 02:19:25.39	298.13	20.75	-36.9	-37.7	24.5	0.00e+00	0	35	0	862978048	46	6220
2026-01-07 02:19:26.41	298.37	20.70	-37.1	-37.9	24.1	0.00e+00	68	34	0	865075200	46	6357
2026-01-07 02:19:27.42	298.61	20.65	-36.8	-37.7	24.6	0.00e+00	92	34	0	866123776	46	6190
2026-01-07 02:19:28.43	298.84	20.59	-37.0	-37.8	24.5	0.00e+00	13	35	0	868220928	46	6279
2026-01-07 02:19:29.44	299.08	20.54	-36.9	-37.7	24.5	0.00e+00	92	34	0	870318080	46	6192
2026-01-07 02:19:30.45	299.31	20.48	-36.8	-37.6	24.6	0.00e+00	2	34	0	872415232	46	6158
2026-01-07 02:19:31.46	299.55	20.43	-36.5	-37.3	24.8	0.00e+00	92	34	0	874512384	46	5952
2026-01-07 02:19:32.46	299.78	20.38	-36.4	-37.2	25.0	0.00e+00	4	35	0	875560960	46	5888
2026-01-07 02:19:33.47	300.01	20.32	-36.5	-37.2	24.9	0.00e+00	92	34	0	877658112	46	5896
2026-01-07 02:19:34.48	300.24	20.26	-36.2	-37.0	25.1	0.00e+00	92	34	0	879755264	46	5741
2026-01-07 02:19:35.49	300.47	20.21	-36.3	-37.1	25.1	0.00e+00	69	35	0	881852416	46	5774
2026-01-07 02:19:36.50	300.70	20.15	-36.3	-37.1	25.0	0.00e+00	92	34	0	883949568	46	5777
2026-01-07 02:19:37.51	300.93	20.10	-36.4	-37.2	24.9	0.00e+00	0	34	0	884998144	46	5878
2026-01-07 02:19:38.52	301.16	20.04	-36.7	-37.5	24.7	0.00e+00	92	35	0	887095296	46	6078
2026-01-07 02:19:39.53	301.38	19.98	-37.1	-38.0	24.4	0.00e+00	0	34	0	889192448	46	6395
2026-01-07 02:19:40.54	301.61	19.92	-37.5	-38.4	24.0	0.00e+00	92	34	0	891289600	46	6703
2026-01-07 02:19:41.55	301.84	19.87	-37.7	-38.6	23.7	0.00e+00	69	34	0	893386752	48	6155
2026-01-07 02:19:42.56	302.06	19.81	-38.0	-38.9	23.5	0.00e+00	10	34	0	894435328	48	6337
2026-01-07 02:19:43.57	302.28	19.75	-38.0	-38.9	23.4	0.00e+00	90	34	0	896532480	48	6383
2026-01-07 02:19:44.58	302.51	19.69	-38.1	-39.1	23.3	0.00e+00	12	34	0	898629632	48	6466
2026-01-07 02:19:45.59	302.73	19.63	-38.1	-39.0	23.4	0.00e+00	90	34	0	900726784	48	6453
2026-01-07 02:19:46.60	302.95	19.57	-38.2	-39.1	23.4	0.00e+00	0	34	0	902823936	48	6496
2026-01-07 02:19:47.61	303.17	19.51	-38.3	-39.2	23.2	0.00e+00	52	34	0	903872512	48	6575
2026-01-07 02:19:48.62	303.39	19.45	-38.0	-39.0	23.4	0.00e+00	92	34	0	905969664	48	6404
2026-01-07 02:19:49.63	303.61	19.39	-38.1	-39.0	23.4	0.00e+00	69	34	0	908066816	48	6424
2026-01-07 02:19:50.64	303.83	19.33	-37.7	-38.6	23.7	0.00e+00	92	34	0	910163968	48	6142
2026-01-07 02:19:51.65	304.04	19.27	-37.5	-38.4	24.0	0.00e+00	71	34	0	912261120	48	5966
2026-01-07 02:19:52.66	304.26	19.21	-37.3	-38.2	24.0	0.00e+00	91	34	0	913309696	48	5860
2026-01-07 02:19:53.67	304.48	19.15	-37.3	-38.1	24.2	0.00e+00	72	34	0	915406848	48	5806
2026-01-07 02:19:54.68	304.69	19.09	-37.1	-38.0	24.3	0.00e+00	90	34	0	917504000	48	5710
2026-01-07 02:19:55.69	304.90	19.03	-37.1	-37.9	24.2	0.00e+00	0	34	0	919601152	48	5693
2026-01-07 02:19:56.70	305.12	18.97	-37.3	-38.1	24.1	0.00e+00	57	34	0	921698304	48	5809
2026-01-07 02:19:57.71	305.33	18.91	-37.3	-38.2	24.0	0.00e+00	92	34	0	923795456	48	5864
2026-01-07 02:19:58.71	305.54	18.84	-37.5	-38.4	23.9	0.00e+00	0	35	0	924844032	48	6004
2026-01-07 02:19:59.72	305.75	18.78	-37.7	-38.6	23.8	0.00e+00	92	34	0	926941184	48	6127
2026-01-07 02:20:00.73	305.96	18.72	-37.9	-38.8	23.6	0.00e+00	5	35	0	929038336	48	6275
2026-01-07 02:20:01.74	306.17	18.66	-37.9	-38.8	23.6	0.00e+00	92	35	0	931135488	48	6300
2026-01-07 02:20:02.75	306.37	18.59	-38.0	-38.9	23.4	0.00e+00	0	34	0	932184064	48	6384
2026-01-07 02:20:03.76	306.58	18.53	-38.0	-38.9	23.5	0.00e+00	5	35	0	934281216	48	6355
2026-01-07 02:20:04.77	306.79	18.47	-38.1	-39.0	23.4	0.00e+00	92	34	0	936378368	48	6447
2026-01-07 02:20:05.77	306.99	18.40	-38.1	-39.0	23.3	0.00e+00	5	34	0	938475520	48	6444
2026-01-07 02:20:06.79	307.20	18.34	-38.1	-39.0	23.3	0.00e+00	92	35	0	940572672	48	6464
2026-01-07 02:20:07.80	307.40	18.28	-38.1	-39.0	23.4	0.00e+00	9	35	0	941621248	48	6448
2026-01-07 02:20:08.81	307.60	18.21	-37.7	-38.6	23.8	0.00e+00	92	35	0	943718400	48	6110
2026-01-07 02:20:09.82	307.80	18.15	-37.4	-38.2	24.0	0.00e+00	0	35	0	945815552	48	5869
2026-01-07 02:20:10.82	308.00	18.08	-37.4	-38.2	24.1	0.00e+00	92	35	0	947912704	48	5874
2026-01-07 02:20:11.83	308.20	18.02	-37.2	-38.0	24.2	0.00e+00	8	35	0	950009856	48	5731
2026-01-07 02:20:12.84	308.40	17.95	-37.4	-38.3	24.0	0.00e+00	75	35	0	952107008	48	5907
2026-01-07 02:20:13.85	308.60	17.89	-37.4	-38.2	24.0	0.00e+00	90	34	0	953155584	48	5880
2026-01-07 02:20:14.86	308.80	17.82	-37.5	-38.4	23.9	0.00e+00	0	34	0	955252736	48	5971
2026-01-07 02:20:15.87	309.00	17.76	-37.5	-38.4	23.8	0.00e+00	90	35	0	957349888	48	5971
2026-01-07 02:20:16.88	309.19	17.69	-37.6	-38.5	23.8	0.00e+00	0	35	0	959447040	48	6073
2026-01-07 02:20:17.89	309.39	17.63	-37.6	-38.4	23.9	0.00e+00	91	35	0	961544192	48	6013
2026-01-07 02:20:18.90	309.58	17.56	-37.6	-38.5	23.9	0.00e+00	0	35	0	962592768	48	6058
2026-01-07 02:20:19.91	309.78	17.50	-37.4	-38.3	23.9	0.00e+00	0	34	0	964689920	48	5938
2026-01-07 02:20:20.92	309.97	17.43	-37.6	-38.5	23.8	0.00e+00	90	35	0	966787072	48	6036
2026-01-07 02:20:21.93	310.16	17.36	-37.4	-38.3	23.9	0.00e+00	0	34	0	968884224	48	5932
2026-01-07 02:20:22.93	310.35	17.30	-37.8	-38.7	23.6	0.00e+00	90	35	0	970981376	48	6175
2026-01-07 02:20:23.94	310.54	17.23	-37.9	-38.8	23.5	0.00e+00	7	35	0	972029952	48	6262
2026-01-07 02:20:24.95	310.73	17.17	-38.0	-38.9	23.4	0.00e+00	91	34	0	974127104	48	6345
2026-01-07 02:20:25.96	310.92	17.10	-38.1	-39.1	23.3	0.00e+00	0	35	0	976224256	48	6467
2026-01-07 02:20:26.97	311.11	17.03	-38.1	-39.1	23.2	0.00e+00	10	35	0	978321408	48	6476
2026-01-07 02:20:27.98	311.29	16.97	-38.4	-39.3	23.1	0.00e+00	92	35	0	980418560	48	6683
2026-01-07 02:20:28.99	311.48	16.90	-38.0	-38.9	23.4	0.00e+00	8	35	0	981467136	48	6375
2026-01-07 02:20:30.00	311.66	16.83	-38.2	-39.1	23.3	0.00e+00	92	35	0	983564288	48	6503
2026-01-07 02:20:31.01	311.85	16.76	-38.3	-39.3	23.2	0.00e+00	9	35	0	985661440	48	6653
2026-01-07 02:20:32.02	312.03	16.70	-38.3	-39.3	23.0	0.00e+00	92	34	0	987758592	48	6654
2026-01-07 02:20:33.03	312.22	16.63	-38.3	-39.3	23.1	0.00e+00	72	34	0	989855744	48	6659
2026-01-07 02:20:34.04	312.40	16.56	-38.4	-39.3	23.0	0.00e+00	92	34	0	990904320	48	6692
2026-01-07 02:20:35.05	312.58	16.50	-38.2	-39.1	23.1	0.00e+00	0	35	0	993001472	48	6535
2026-01-07 02:20:36.05	312.76	16.43	-38.0	-38.9	23.4	0.00e+00	72	35	0	995098624	48	6359
2026-01-07 02:20:37.06	312.94	16.36	-37.8	-38.7	23.5	0.00e+00	92	35	0	997195776	48	6243
2026-01-07 02:20:38.07	313.12	16.29	-37.7	-38.6	23.7	0.00e+00	70	34	0	999292928	48	6128
2026-01-07 02:20:39.08	313.30	16.23	-37.9	-38.8	23.5	0.00e+00	92	34	0	1000341504	48	6264
2026-01-07 02:20:40.09	313.47	16.16	-37.7	-38.6	23.7	0.00e+00	0	34	0	1002438656	48	6116
2026-01-07 02:20:41.10	313.65	16.09	-38.0	-38.9	23.5	0.00e+00	92	34	0	1004535808	48	6377
2026-01-07 02:20:42.10	313.82	16.02	-38.3	-39.2	23.1	0.00e+00	69	34	0	1006632960	48	6580
2026-01-07 02:20:43.11	314.00	15.95	-38.7	-39.7	22.7	0.00e+00	0	34	0	1008730112	50	6176
2026-01-07 02:20:44.12	314.17	15.89	-38.9	-39.9	22.6	0.00e+00	90	35	0	1009778688	50	6339
2026-01-07 02:20:45.13	314.35	15.82	-38.7	-39.7	22.7	0.00e+00	0	34	0	1011875840	50	6238
2026-01-07 02:20:46.14	314.52	15.75	-38.4	-39.4	23.0	0.00e+00	90	34	0	1013972992	50	5965
2026-01-07 02:20:47.15	314.69	15.68	-38.4	-39.4	23.0	0.00e+00	0	35	0	1016070144	50	5995
2026-01-07 02:20:48.16	314.86	15.61	-38.3	-39.2	23.2	0.00e+00	90	35	0	1018167296	50	5866
2026-01-07 02:20:49.17	315.04	15.55	-37.9	-38.8	23.4	0.00e+00	0	35	0	1020264448	50	5620
2026-01-07 02:20:50.18	315.21	15.48	-37.8	-38.8	23.6	0.00e+00	71	35	0	1021313024	50	5567
2026-01-07 02:20:51.19	315.37	15.41	-37.8	-38.7	23.6	0.00e+00	92	35	0	1023410176	50	5548
2026-01-07 02:20:52.20	315.54	15.34	-37.8	-38.7	23.5	0.00e+00	0	34	0	1025507328	48	6238
2026-01-07 02:20:53.21	315.71	15.27	-38.1	-39.0	23.3	0.00e+00	91	34	0	1027604480	48	6433
2026-01-07 02:20:54.22	315.88	15.20	-38.3	-39.3	23.0	0.00e+00	72	35	0	1029701632	48	6646
2026-01-07 02:20:55.23	316.04	15.14	-38.4	-39.4	22.9	0.00e+00	91	34	0	1030750208	48	6715
2026-01-07 02:20:56.23	316.21	15.07	-38.3	-39.3	23.0	0.00e+00	73	35	0	1032847360	48	6666
2026-01-07 02:20:57.24	316.37	15.00	-38.1	-39.1	23.2	0.00e+00	91	35	0	1034944512	48	6499
2026-01-07 02:20:58.25	316.54	14.93	-38.1	-39.0	23.2	0.00e+00	2	35	0	1037041664	48	6449
2026-01-07 02:20:59.26	316.70	14.86	-37.8	-38.7	23.6	0.00e+00	0	35	0	1039138816	48	6203
2026-01-07 02:21:00.27	316.86	14.79	-37.5	-38.4	23.8	0.00e+00	92	35	0	1040187392	48	6018
2026-01-07 02:21:01.28	317.02	14.72	-37.6	-38.4	23.8	0.00e+00	74	35	0	1042284544	48	6028
2026-01-07 02:21:02.29	317.18	14.66	-37.6	-38.5	23.7	0.00e+00	92	35	0	1044381696	48	6057
2026-01-07 02:21:03.30	317.34	14.59	-37.8	-38.7	23.5	0.00e+00	0	35	0	1046478848	48	6244
2026-01-07 02:21:04.31	317.50	14.52	-38.0	-39.0	23.3	0.00e+00	2	34	0	1048576000	48	6399
2026-01-07 02:21:05.32	317.66	14.45	-38.3	-39.3	23.1	0.00e+00	0	35	0	1049624576	48	6621
2026-01-07 02:21:06.33	317.82	14.38	-38.5	-39.5	22.9	0.00e+00	0	35	0	1051721728	48	6804
2026-01-07 02:21:07.34	317.98	14.31	-38.5	-39.5	22.7	0.00e+00	92	35	0	1053818880	48	6808
2026-01-07 02:21:08.35	318.13	14.24	-38.5	-39.5	22.8	0.00e+00	0	34	0	1055916032	48	6830
2026-01-07 02:21:09.36	318.29	14.18	-38.4	-39.4	22.9	0.00e+00	92	34	0	1058013184	48	6741
2026-01-07 02:21:10.37	318.45	14.11	-38.3	-39.3	23.0	0.00e+00	11	34	0	1059061760	48	6663
2026-01-07 02:21:11.38	318.60	14.04	-38.1	-39.1	23.1	0.00e+00	0	34	0	1061158912	48	6484
2026-01-07 02:21:12.39	318.75	13.97	-38.2	-39.2	23.2	0.00e+00	4	35	0	1063256064	48	6558
2026-01-07 02:21:13.40	318.91	13.90	-38.1	-39.0	23.2	0.00e+00	0	35	0	1065353216	48	6432
2026-01-07 02:21:14.41	319.06	13.83	-38.1	-39.1	23.1	0.00e+00	79	34	0	1067450368	48	6481
2026-01-07 02:21:15.42	319.21	13.76	-38.4	-39.3	22.7	0.00e+00	0	35	0	1068498944	48	6667
2026-01-07 02:21:16.43	319.36	13.70	-38.6	-39.6	22.7	0.00e+00	92	35	0	1070596096	48	6869
2026-01-07 02:21:17.44	319.51	13.63	-38.6	-39.6	22.6	0.00e+00	9	34	0	1072693248	48	6891
2026-01-07 02:21:18.45	319.66	13.56	-38.7	-39.7	22.5	0.00e+00	71	34	0	1074790400	48	7000
2026-01-07 02:21:19.46	319.81	13.49	-38.6	-39.6	22.4	0.00e+00	71	34	0	1076887552	50	6131
2026-01-07 02:21:20.47	319.96	13.42	-38.7	-39.7	22.1	0.00e+00	0	35	0	1077936128	50	6176
2026-01-07 02:21:21.48	320.11	13.35	-38.5	-39.5	22.8	0.00e+00	79	34	0	1080033280	50	6078
2026-01-07 02:21:22.49	320.26	13.28	-38.3	-39.2	23.0	0.00e+00	0	34	0	1082130432	50	5872
2026-01-07 02:21:23.49	320.40	13.22	-38.3	-39.3	23.0	0.00e+00	91	35	0	1084227584	50	5913
2026-01-07 02:21:24.50	320.55	13.15	-38.2	-39.1	23.2	0.00e+00	0	34	0	1086324736	50	5794
2026-01-07 02:21:25.51	320.69	13.08	-38.0	-38.9	23.3	0.00e+00	90	34	0	1088421888	50	5654
2026-01-07 02:21:26.52	320.84	13.01	-38.1	-39.0	23.1	0.00e+00	0	34	0	1089470464	50	5743
2026-01-07 02:21:27.53	320.98	12.94	-38.3	-39.2	23.0	0.00e+00	0	34	0	1091567616	50	5887
2026-01-07 02:21:28.53	321.12	12.88	-38.4	-39.4	22.8	0.00e+00	0	34	0	1093664768	50	6014
2026-01-07 02:21:29.54	321.27	12.81	-38.6	-39.6	22.6	0.00e+00	0	34	0	1095761920	50	6168
2026-01-07 02:21:30.55	321.41	12.74	-38.8	-39.8	22.4	0.00e+00	92	35	0	1096810496	50	6305
2026-01-07 02:21:31.56	321.55	12.67	-38.8	-39.9	22.5	0.00e+00	0	35	0	1098907648	50	6319
2026-01-07 02:21:32.57	321.69	12.60	-38.8	-39.8	22.4	0.00e+00	92	35	0	1101004800	50	6295
2026-01-07 02:21:33.58	321.83	12.53	-38.8	-39.9	22.4	0.00e+00	0	34	0	1103101952	50	6331
2026-01-07 02:21:34.59	321.97	12.47	-38.6	-39.6	22.6	0.00e+00	6	35	0	1105199104	50	6162
2026-01-07 02:21:35.60	322.11	12.40	-38.5	-39.4	22.9	0.00e+00	7	35	0	1106247680	50	6011
2026-01-07 02:21:36.61	322.25	12.33	-38.4	-39.4	22.8	0.00e+00	73	35	0	1108344832	50	6003
2026-01-07 02:21:37.62	322.39	12.26	-38.3	-39.2	22.9	0.00e+00	23	34	0	1110441984	50	5890
2026-01-07 02:21:38.63	322.52	12.19	-38.3	-39.3	22.9	0.00e+00	0	34	0	1112539136	50	5928
2026-01-07 02:21:39.63	322.66	12.13	-38.3	-39.3	22.9	0.00e+00	92	34	0	1114636288	50	5917
2026-01-07 02:21:40.64	322.79	12.06	-38.4	-39.4	22.8	0.00e+00	7	34	0	1116733440	50	6011
2026-01-07 02:21:41.65	322.93	11.99	-38.6	-39.6	22.6	0.00e+00	92	34	0	1117782016	50	6155
2026-01-07 02:21:42.66	323.06	11.92	-38.7	-39.8	22.5	0.00e+00	82	34	0	1119879168	50	6253
2026-01-07 02:21:43.67	323.20	11.86	-38.9	-39.9	22.3	0.00e+00	0	34	0	1121976320	50	6359
2026-01-07 02:21:44.68	323.33	11.79	-38.8	-39.8	22.4	0.00e+00	6	35	0	1124073472	50	6256
2026-01-07 02:21:45.69	323.46	11.72	-38.7	-39.7	22.5	0.00e+00	75	34	0	1126170624	50	6176
2026-01-07 02:21:46.69	323.59	11.65	-38.8	-39.8	22.4	0.00e+00	92	34	0	1127219200	50	6291
2026-01-07 02:21:47.70	323.73	11.59	-38.5	-39.5	22.7	0.00e+00	0	34	0	1129316352	50	6083
2026-01-07 02:21:48.71	323.86	11.52	-38.7	-39.7	22.5	0.00e+00	92	34	0	1131413504	50	6180
2026-01-07 02:21:49.72	323.99	11.45	-38.7	-39.7	22.5	0.00e+00	0	35	0	1133510656	50	6245
2026-01-07 02:21:50.73	324.12	11.38	-38.7	-39.7	22.4	0.00e+00	6	34	0	1135607808	50	6214
2026-01-07 02:21:51.74	324.25	11.32	-38.7	-39.7	22.6	0.00e+00	0	34	0	1136656384	50	6203
2026-01-07 02:21:52.75	324.38	11.25	-38.8	-39.9	22.3	0.00e+00	5	35	0	1138753536	50	6325
2026-01-07 02:21:53.76	324.50	11.18	-39.0	-40.0	22.2	0.00e+00	92	35	0	1140850688	50	6442
2026-01-07 02:21:54.77	324.63	11.12	-39.2	-40.3	21.9	0.00e+00	5	35	0	1142947840	50	6671
2026-01-07 02:21:55.78	324.76	11.05	-39.3	-40.4	21.8	0.00e+00	92	34	0	1145044992	50	6760
2026-01-07 02:21:56.79	324.89	10.98	-39.4	-40.5	21.8	0.00e+00	4	35	0	1146093568	50	6799
2026-01-07 02:21:57.80	325.01	10.92	-39.4	-40.6	21.7	0.00e+00	80	34	0	1148190720	50	6857
2026-01-07 02:21:58.81	325.14	10.85	-39.4	-40.5	21.7	0.00e+00	5	34	0	1150287872	50	6834
2026-01-07 02:21:59.82	325.26	10.78	-39.4	-40.5	21.8	0.00e+00	80	34	0	1152385024	50	6784
2026-01-07 02:22:00.82	325.39	10.72	-39.3	-40.4	21.9	0.00e+00	11	34	0	1154482176	50	6711
2026-01-07 02:22:01.83	325.51	10.65	-39.0	-40.1	22.1	0.00e+00	5	34	0	1155530752	50	6487
2026-01-07 02:22:02.84	325.63	10.58	-38.8	-39.9	22.4	0.00e+00	90	34	0	1157627904	50	6319
2026-01-07 02:22:03.85	325.76	10.52	-38.6	-39.6	22.5	0.00e+00	84	34	0	1159725056	50	6172
2026-01-07 02:22:04.86	325.88	10.45	-38.7	-39.7	22.5	0.00e+00	92	34	0	1161822208	50	6196
2026-01-07 02:22:05.87	326.00	10.38	-38.7	-39.7	22.5	0.00e+00	81	34	0	1163919360	50	6189
2026-01-07 02:22:06.88	326.12	10.32	-38.8	-39.8	22.3	0.00e+00	0	34	0	1164967936	50	6287
2026-01-07 02:22:07.89	326.24	10.25	-38.6	-39.6	22.5	0.00e+00	80	34	0	1167065088	50	6136
2026-01-07 02:22:08.90	326.36	10.18	-38.7	-39.7	22.5	0.00e+00	0	34	0	1169162240	50	6192
2026-01-07 02:22:09.91	326.48	10.12	-38.8	-39.8	22.4	0.00e+00	92	34	0	1171259392	50	6274
2026-01-07 02:22:10.92	326.60	10.05	-38.8	-39.9	22.3	0.00e+00	6	35	0	1173356544	50	6323
2026-01-07 02:22:11.93	326.72	9.99	-39.0	-40.0	22.2	0.00e+00	11	35	0	1174405120	50	6434
2026-01-07 02:22:12.94	326.84	9.92	-39.0	-40.1	22.1	0.00e+00	6	34	0	1176502272	50	6481
2026-01-07 02:22:13.94	326.95	9.86	-39.1	-40.2	22.0	0.00e+00	6	34	0	1178599424	50	6551
2026-01-07 02:22:14.95	327.07	9.79	-39.2	-40.3	21.9	0.00e+00	0	34	0	1180696576	50	6664
2026-01-07 02:22:15.96	327.19	9.72	-39.2	-40.3	21.8	0.00e+00	6	34	0	1182793728	50	6686
2026-01-07 02:22:16.97	327.30	9.66	-39.3	-40.5	21.7	0.00e+00	91	34	0	1184890880	50	6773
2026-01-07 02:22:17.98	327.42	9.59	-39.4	-40.5	21.6	0.00e+00	9	34	0	1185939456	50	6820
2026-01-07 02:22:18.99	327.53	9.53	-39.5	-40.6	21.5	0.00e+00	92	34	0	1188036608	50	6910
2026-01-07 02:22:20.00	327.65	9.46	-39.6	-40.7	21.5	0.00e+00	7	34	0	1190133760	50	6970
