passes_logs/2026/01/07/R4.6S_Anadyr/R4.6S_Anadyr__20260107_203228_SUOMI_NPP_rec.log

#Pass ID: 20260107_203228_SUOMI NPP
#Satellite: SUOMI NPP
#Configuration: NPP
#almurnet v.1.7.20251203
#Start time: 2026-01-07 20:32:30

#Version: 2.2.20231116
#Station: R4.6S_Anadyr
#Location: 177.4865 lon 64.73178 lat
#TLE: 1 37849U 11061A   26004.95404768  .00000136  00000+0  85334-4 0  9991
#TLE: 2 37849  98.7801 307.0898 0002575  80.6707 279.4760 14.19522289735281

#Time	Az	El	Level	Level2	SNR	BER	BlckErr	Temp	State	Recorded	gain1	gain2
2026-01-07 20:32:30.70	70.62	0.11	-49.3	-60.0	3.5	8.46e-01	0	36	0	0	60	36242
2026-01-07 20:32:31.70	70.55	0.16	-49.4	-64.6	3.6	1.51e+00	0	37	104	0	60	61542
2026-01-07 20:32:32.71	70.48	0.21	-49.4	-64.6	3.6	1.51e+00	0	37	104	0	60	61499
2026-01-07 20:32:33.72	70.40	0.26	-49.4	-64.6	3.6	1.51e+00	0	37	104	0	60	61514
2026-01-07 20:32:34.73	70.33	0.31	-49.4	-64.6	3.6	1.51e+00	0	37	104	0	60	61442
2026-01-07 20:32:35.74	70.26	0.36	-49.4	-64.6	3.6	1.51e+00	0	37	104	0	60	61507
2026-01-07 20:32:36.75	70.18	0.41	-49.5	-64.7	3.6	1.51e+00	0	37	104	0	60	61973
2026-01-07 20:32:37.76	70.11	0.46	-49.5	-64.7	3.6	1.51e+00	0	37	104	0	60	61939
2026-01-07 20:32:38.77	70.03	0.51	-49.5	-64.7	3.6	1.51e+00	0	37	104	0	60	62274
2026-01-07 20:32:39.77	69.96	0.56	-49.5	-64.7	3.6	1.51e+00	0	37	104	0	60	62353
2026-01-07 20:32:40.78	69.88	0.61	-49.5	-64.7	3.6	1.51e+00	0	37	104	0	60	61828
2026-01-07 20:32:41.79	69.81	0.66	-49.4	-64.7	3.6	1.51e+00	0	37	104	0	60	62349
2026-01-07 20:32:42.80	69.73	0.71	-49.4	-64.6	3.6	1.51e+00	0	37	104	0	60	61689
2026-01-07 20:32:43.81	69.66	0.76	-49.0	-64.5	3.6	1.51e+00	0	37	104	0	60	60758
2026-01-07 20:32:44.82	69.58	0.81	-48.8	-64.4	3.6	1.51e+00	0	37	104	0	60	59942
2026-01-07 20:32:45.83	69.50	0.86	-48.9	-64.1	3.6	1.51e+00	0	37	104	0	60	58149
2026-01-07 20:32:46.84	69.43	0.91	-48.6	-63.7	3.6	1.51e+00	0	37	104	0	60	55636
2026-01-07 20:32:47.85	69.35	0.97	-47.9	-63.0	3.6	1.51e+00	0	37	104	0	60	51208
2026-01-07 20:32:48.86	69.27	1.02	-47.9	-63.0	3.6	1.51e+00	0	37	104	0	60	51310
2026-01-07 20:32:49.87	69.20	1.07	-47.9	-63.0	3.6	1.51e+00	0	37	104	0	60	50938
2026-01-07 20:32:50.88	69.12	1.12	-47.9	-63.0	3.6	1.51e+00	0	37	104	0	60	51194
2026-01-07 20:32:51.89	69.04	1.17	-47.9	-63.1	3.5	1.51e+00	0	37	104	0	60	51467
2026-01-07 20:32:52.90	68.96	1.22	-47.8	-63.0	3.6	1.51e+00	0	37	104	0	60	51151
2026-01-07 20:32:53.91	68.88	1.27	-47.8	-63.0	3.6	1.51e+00	0	37	104	0	60	50964
2026-01-07 20:32:54.92	68.80	1.32	-47.8	-63.0	3.6	1.51e+00	0	37	104	0	60	51292
2026-01-07 20:32:55.93	68.72	1.37	-47.8	-63.0	3.6	1.51e+00	0	37	104	0	60	50904
2026-01-07 20:32:56.94	68.64	1.43	-47.8	-63.0	3.6	1.51e+00	0	37	104	0	60	51218
2026-01-07 20:32:57.95	68.56	1.48	-47.8	-63.0	3.6	1.51e+00	0	38	104	0	60	51152
2026-01-07 20:32:58.96	68.48	1.53	-47.8	-63.0	3.6	1.51e+00	0	37	104	0	60	50958
2026-01-07 20:32:59.96	68.40	1.58	-47.8	-63.0	3.6	1.51e+00	0	38	104	0	60	50837
2026-01-07 20:33:00.97	68.32	1.63	-47.8	-63.0	3.6	1.51e+00	0	38	104	0	60	51014
2026-01-07 20:33:01.98	68.24	1.68	-47.8	-63.0	3.6	1.51e+00	0	38	104	0	60	51052
2026-01-07 20:33:02.99	68.16	1.73	-47.8	-63.0	3.6	1.51e+00	0	38	104	0	60	50952
2026-01-07 20:33:04.00	68.08	1.78	-47.8	-63.0	3.6	1.51e+00	0	38	104	0	60	51254
2026-01-07 20:33:05.01	68.00	1.84	-47.8	-63.0	3.6	1.51e+00	0	38	104	0	60	50811
2026-01-07 20:33:06.03	67.92	1.89	-47.8	-63.0	3.6	1.51e+00	0	38	104	0	60	50770
2026-01-07 20:33:07.04	67.83	1.94	-47.8	-62.9	3.6	1.51e+00	0	38	104	0	60	50512
2026-01-07 20:33:08.04	67.75	1.99	-47.8	-62.8	3.6	1.51e+00	0	38	104	0	60	49682
2026-01-07 20:33:09.06	67.67	2.04	-47.8	-62.7	3.6	1.51e+00	0	38	104	0	60	49290
2026-01-07 20:33:10.07	67.58	2.09	-47.8	-62.7	3.6	1.51e+00	0	38	104	0	60	49061
2026-01-07 20:33:11.08	67.50	2.15	-47.8	-62.8	3.5	1.51e+00	0	38	104	0	60	49921
2026-01-07 20:33:12.08	67.42	2.20	-47.8	-63.0	3.6	1.51e+00	0	38	104	0	60	50831
2026-01-07 20:33:13.10	67.33	2.25	-47.8	-63.0	3.6	1.51e+00	0	38	104	0	60	51339
2026-01-07 20:33:14.10	67.25	2.30	-47.8	-62.9	3.6	1.51e+00	0	38	104	0	60	50748
2026-01-07 20:33:15.12	67.16	2.35	-47.8	-62.9	3.6	1.51e+00	0	38	104	0	60	50577
2026-01-07 20:33:16.12	67.08	2.41	-47.8	-62.9	3.6	1.51e+00	0	38	104	0	60	50589
2026-01-07 20:33:17.14	66.99	2.46	-47.8	-63.0	3.6	1.51e+00	0	38	104	0	60	51285
2026-01-07 20:33:18.15	66.91	2.51	-47.8	-62.9	3.6	1.51e+00	0	38	104	0	60	50277
2026-01-07 20:33:19.16	66.82	2.56	-47.8	-62.4	3.6	1.51e+00	0	38	104	0	60	47891
2026-01-07 20:33:20.16	66.73	2.61	-47.8	-62.1	3.6	1.51e+00	0	38	104	0	60	46211
2026-01-07 20:33:21.17	66.65	2.67	-47.8	-62.5	3.6	1.51e+00	0	38	104	0	60	48198
2026-01-07 20:33:22.18	66.56	2.72	-47.8	-62.8	3.6	1.51e+00	0	38	104	0	60	50139
2026-01-07 20:33:23.19	66.47	2.77	-47.7	-60.8	3.6	1.51e+00	0	38	104	0	60	39633
2026-01-07 20:33:24.20	66.38	2.82	-47.4	-56.5	5.8	8.99e-01	0	38	104	0	60	24100
2026-01-07 20:33:25.21	66.30	2.87	-46.6	-52.1	9.3	8.59e-02	80	38	0	1048576	60	14521
2026-01-07 20:33:26.22	66.21	2.93	-45.8	-50.0	11.6	4.21e-03	0	38	0	3145728	60	11491
2026-01-07 20:33:27.23	66.12	2.98	-45.0	-48.5	13.4	1.80e-04	92	38	0	4194304	60	9603
2026-01-07 20:33:28.24	66.03	3.03	-44.5	-47.5	14.4	4.50e-06	7	38	0	6291456	60	8571
2026-01-07 20:33:29.25	65.94	3.08	-48.0	-62.4	3.6	1.48e+00	0	38	104	7340032	60	47393
2026-01-07 20:33:30.26	65.85	3.14	-43.3	-45.5	16.0	1.09e-02	77	38	104	7340032	60	6847
2026-01-07 20:33:31.27	65.76	3.19	-47.7	-62.8	3.6	1.51e+00	0	38	104	7340032	60	49618
2026-01-07 20:33:32.28	65.67	3.24	-46.4	-51.7	11.4	1.25e+00	92	38	104	7340032	60	13824
2026-01-07 20:33:33.29	65.58	3.29	-45.7	-49.8	12.2	2.74e-05	0	38	0	8388608	60	11143
2026-01-07 20:33:34.30	65.49	3.35	-44.5	-47.4	14.5	0.00e+00	92	38	0	9437184	60	8457
2026-01-07 20:33:35.31	65.40	3.40	-43.5	-45.8	16.2	0.00e+00	9	38	0	11534336	60	7064
2026-01-07 20:33:36.32	65.31	3.45	-43.4	-45.6	16.7	0.00e+00	0	38	0	13631488	60	6880
2026-01-07 20:33:37.32	65.21	3.50	-43.1	-45.2	17.0	0.00e+00	92	38	0	15728640	60	6580
2026-01-07 20:33:38.34	65.12	3.56	-42.6	-44.5	17.5	0.00e+00	0	38	0	17825792	58	6786
2026-01-07 20:33:39.34	65.03	3.61	-42.5	-44.3	17.7	0.00e+00	69	38	0	18874368	58	6637
2026-01-07 20:33:40.35	64.94	3.66	-42.4	-44.2	17.9	0.00e+00	0	38	0	20971520	58	6584
2026-01-07 20:33:41.36	64.84	3.72	-42.1	-43.8	18.2	0.00e+00	92	38	0	23068672	58	6262
2026-01-07 20:33:42.37	64.75	3.77	-42.1	-43.7	18.2	0.00e+00	0	38	0	25165824	58	6244
2026-01-07 20:33:43.38	64.65	3.82	-42.1	-43.7	18.2	0.00e+00	71	38	0	27262976	58	6242
2026-01-07 20:33:44.39	64.56	3.87	-42.2	-43.9	18.1	0.00e+00	75	38	0	28311552	58	6356
2026-01-07 20:33:45.40	64.47	3.93	-42.2	-44.0	18.1	0.00e+00	0	38	0	30408704	58	6421
2026-01-07 20:33:46.41	64.37	3.98	-42.5	-44.3	17.9	0.00e+00	69	38	0	32505856	58	6664
2026-01-07 20:33:47.41	64.28	4.03	-42.5	-44.3	17.8	0.00e+00	0	38	0	34603008	58	6654
2026-01-07 20:33:48.43	64.18	4.09	-42.3	-44.1	18.0	0.00e+00	92	38	0	36700160	58	6532
2026-01-07 20:33:49.43	64.08	4.14	-42.3	-44.1	17.9	0.00e+00	0	38	0	38797312	58	6523
2026-01-07 20:33:50.44	63.99	4.19	-42.5	-44.4	17.7	0.00e+00	92	38	0	39845888	58	6720
2026-01-07 20:33:51.45	63.89	4.24	-42.6	-44.5	17.7	0.00e+00	92	38	0	41943040	58	6811
2026-01-07 20:33:52.46	63.79	4.30	-42.7	-44.6	17.4	0.00e+00	0	38	0	44040192	58	6887
2026-01-07 20:33:53.47	63.69	4.35	-42.7	-44.6	17.4	0.00e+00	66	38	0	46137344	58	6889
2026-01-07 20:33:54.48	63.60	4.40	-42.6	-44.5	17.5	0.00e+00	0	38	0	48234496	58	6798
2026-01-07 20:33:55.49	63.50	4.46	-42.6	-44.5	17.5	0.00e+00	90	38	0	49283072	58	6784
2026-01-07 20:33:56.50	63.40	4.51	-42.5	-44.4	17.8	0.00e+00	0	38	0	51380224	58	6736
2026-01-07 20:33:57.51	63.30	4.56	-42.6	-44.5	17.7	0.00e+00	92	38	0	53477376	58	6809
2026-01-07 20:33:58.52	63.20	4.62	-42.6	-44.5	17.8	0.00e+00	65	38	0	55574528	58	6834
2026-01-07 20:33:59.53	63.10	4.67	-42.7	-44.6	17.4	0.00e+00	0	38	0	57671680	58	6880
2026-01-07 20:34:00.54	63.00	4.72	-42.6	-44.6	17.9	0.00e+00	65	38	0	58720256	58	6855
2026-01-07 20:34:01.55	62.90	4.78	-42.5	-44.3	18.0	0.00e+00	0	38	0	60817408	58	6667
2026-01-07 20:34:02.56	62.80	4.83	-42.5	-44.3	18.0	0.00e+00	92	38	0	62914560	58	6677
2026-01-07 20:34:03.57	62.70	4.88	-42.3	-44.0	18.3	0.00e+00	0	38	0	65011712	58	6425
2026-01-07 20:34:04.58	62.59	4.94	-42.3	-44.1	18.2	0.00e+00	92	38	0	67108864	58	6490
2026-01-07 20:34:05.58	62.49	4.99	-42.3	-44.0	18.3	0.00e+00	63	38	0	68157440	58	6421
2026-01-07 20:34:06.60	62.39	5.04	-42.1	-43.8	18.5	0.00e+00	0	38	0	70254592	58	6302
2026-01-07 20:34:07.61	62.29	5.10	-42.3	-44.2	18.2	0.00e+00	61	38	0	72351744	58	6542
2026-01-07 20:34:08.62	62.18	5.15	-42.2	-43.9	18.4	0.00e+00	0	38	0	74448896	58	6348
2026-01-07 20:34:09.63	62.08	5.20	-42.2	-43.9	18.4	0.00e+00	91	38	0	76546048	58	6390
2026-01-07 20:34:10.64	61.98	5.26	-42.0	-43.6	18.6	0.00e+00	0	38	0	77594624	58	6166
2026-01-07 20:34:11.65	61.87	5.31	-42.1	-43.8	18.5	0.00e+00	92	38	0	79691776	58	6249
2026-01-07 20:34:12.65	61.77	5.37	-42.1	-43.8	18.5	0.00e+00	0	38	0	81788928	58	6310
2026-01-07 20:34:13.66	61.66	5.42	-42.5	-44.2	18.1	0.00e+00	0	38	0	83886080	58	6612
2026-01-07 20:34:14.68	61.55	5.47	-42.2	-43.8	18.3	0.00e+00	89	38	0	85983232	58	6316
2026-01-07 20:34:15.68	61.45	5.53	-42.2	-43.9	18.5	0.00e+00	0	38	0	87031808	58	6340
2026-01-07 20:34:16.69	61.34	5.58	-42.2	-43.9	18.3	0.00e+00	65	38	0	89128960	58	6331
2026-01-07 20:34:17.70	61.24	5.63	-42.3	-44.0	18.4	0.00e+00	0	38	0	91226112	58	6464
2026-01-07 20:34:18.71	61.13	5.69	-42.2	-43.9	18.4	0.00e+00	85	38	0	93323264	58	6377
2026-01-07 20:34:19.72	61.02	5.74	-42.3	-44.1	18.3	0.00e+00	33	38	0	95420416	58	6487
2026-01-07 20:34:20.73	60.91	5.79	-42.3	-44.1	18.3	0.00e+00	0	38	0	96468992	58	6508
2026-01-07 20:34:21.74	60.80	5.85	-42.5	-44.3	18.1	0.00e+00	92	38	0	98566144	58	6637
2026-01-07 20:34:22.75	60.69	5.90	-42.3	-44.1	18.3	0.00e+00	0	38	0	100663296	58	6478
2026-01-07 20:34:23.76	60.59	5.96	-42.3	-44.0	18.4	0.00e+00	91	38	0	102760448	58	6456
2026-01-07 20:34:24.77	60.48	6.01	-41.9	-43.5	18.9	0.00e+00	0	38	0	104857600	58	6088
2026-01-07 20:34:25.78	60.37	6.06	-42.0	-43.6	18.8	0.00e+00	91	38	0	106954752	58	6163
2026-01-07 20:34:26.79	60.25	6.12	-42.1	-43.7	18.7	0.00e+00	0	38	0	108003328	58	6215
2026-01-07 20:34:27.80	60.14	6.17	-42.0	-43.7	18.7	0.00e+00	19	38	0	110100480	58	6194
2026-01-07 20:34:28.81	60.03	6.22	-41.9	-43.6	18.8	0.00e+00	90	38	0	112197632	58	6122
2026-01-07 20:34:29.82	59.92	6.28	-42.1	-43.8	18.7	0.00e+00	0	38	0	114294784	58	6300
2026-01-07 20:34:30.83	59.81	6.33	-42.0	-43.6	18.8	0.00e+00	70	38	0	116391936	58	6148
2026-01-07 20:34:31.84	59.69	6.39	-42.3	-44.0	18.5	0.00e+00	0	38	0	117440512	58	6429
2026-01-07 20:34:32.85	59.58	6.44	-42.2	-43.9	18.4	0.00e+00	71	38	0	119537664	58	6352
2026-01-07 20:34:33.86	59.47	6.49	-42.4	-44.1	18.4	0.00e+00	0	38	0	121634816	58	6497
2026-01-07 20:34:34.87	59.35	6.55	-42.1	-43.8	18.7	0.00e+00	88	38	0	123731968	58	6247
2026-01-07 20:34:35.88	59.24	6.60	-41.8	-43.3	19.1	0.00e+00	70	38	0	125829120	56	6676
2026-01-07 20:34:36.89	59.12	6.66	-41.8	-43.3	19.2	0.00e+00	0	38	0	126877696	56	6675
2026-01-07 20:34:37.90	59.01	6.71	-41.6	-43.1	19.4	0.00e+00	83	38	0	128974848	56	6534
2026-01-07 20:34:38.91	58.89	6.76	-41.5	-43.0	19.5	0.00e+00	0	38	0	131072000	56	6437
2026-01-07 20:34:39.92	58.78	6.82	-41.5	-43.0	19.5	0.00e+00	89	38	0	133169152	56	6417
2026-01-07 20:34:40.93	58.66	6.87	-41.3	-42.8	19.7	0.00e+00	0	38	0	135266304	56	6250
2026-01-07 20:34:41.94	58.54	6.92	-41.2	-42.6	19.8	0.00e+00	92	38	0	136314880	56	6130
2026-01-07 20:34:42.95	58.42	6.98	-41.3	-42.7	19.8	0.00e+00	0	38	0	138412032	56	6187
2026-01-07 20:34:43.96	58.31	7.03	-41.1	-42.4	20.1	0.00e+00	0	38	0	140509184	56	6008
2026-01-07 20:34:44.97	58.19	7.09	-41.0	-42.4	20.1	0.00e+00	0	38	0	142606336	56	5990
2026-01-07 20:34:45.98	58.07	7.14	-40.8	-42.1	20.3	0.00e+00	0	38	0	144703488	56	5808
2026-01-07 20:34:46.99	57.95	7.19	-40.9	-42.2	20.2	0.00e+00	78	38	0	145752064	56	5866
2026-01-07 20:34:48.00	57.83	7.25	-41.0	-42.3	20.1	0.00e+00	0	38	0	147849216	56	5946
2026-01-07 20:34:49.01	57.71	7.30	-40.6	-41.9	20.4	0.00e+00	92	38	0	149946368	54	6337
2026-01-07 20:34:50.02	57.59	7.36	-40.5	-41.8	20.5	0.00e+00	38	38	0	152043520	54	6263
2026-01-07 20:34:51.03	57.47	7.41	-40.6	-41.8	20.5	0.00e+00	0	38	0	154140672	54	6298
2026-01-07 20:34:52.04	57.35	7.46	-40.7	-41.9	20.4	0.00e+00	46	38	0	155189248	54	6386
2026-01-07 20:34:53.05	57.22	7.52	-40.7	-42.0	20.2	0.00e+00	0	38	0	157286400	54	6432
2026-01-07 20:34:54.06	57.10	7.57	-40.7	-42.0	20.2	0.00e+00	38	38	0	159383552	54	6453
2026-01-07 20:34:55.07	56.98	7.62	-40.8	-42.1	19.9	0.00e+00	0	38	0	161480704	54	6474
2026-01-07 20:34:56.08	56.85	7.68	-40.8	-42.1	20.4	0.00e+00	91	38	0	163577856	54	6473
2026-01-07 20:34:57.08	56.73	7.73	-40.9	-42.2	20.1	0.00e+00	0	38	0	164626432	54	6570
2026-01-07 20:34:58.09	56.61	7.79	-40.7	-42.0	20.4	0.00e+00	0	38	0	166723584	54	6437
2026-01-07 20:34:59.10	56.48	7.84	-40.6	-41.8	20.5	0.00e+00	44	38	0	168820736	54	6304
2026-01-07 20:35:00.11	56.36	7.89	-40.6	-41.9	20.5	0.00e+00	0	38	0	170917888	54	6329
2026-01-07 20:35:01.12	56.23	7.95	-40.8	-42.1	20.4	0.00e+00	73	38	0	173015040	54	6506
2026-01-07 20:35:02.13	56.10	8.00	-40.8	-42.1	20.2	0.00e+00	0	38	0	175112192	54	6537
2026-01-07 20:35:03.14	55.98	8.05	-40.8	-42.1	20.3	0.00e+00	92	38	0	176160768	54	6528
2026-01-07 20:35:04.15	55.85	8.11	-40.9	-42.2	20.1	0.00e+00	0	38	0	178257920	54	6609
2026-01-07 20:35:05.16	55.72	8.16	-41.1	-42.4	20.0	0.00e+00	33	38	0	180355072	54	6732
2026-01-07 20:35:06.17	55.59	8.21	-41.0	-42.4	20.1	0.00e+00	92	38	0	182452224	54	6694
2026-01-07 20:35:07.18	55.47	8.27	-41.1	-42.5	20.0	0.00e+00	0	38	0	184549376	54	6782
2026-01-07 20:35:08.19	55.34	8.32	-41.1	-42.4	20.0	0.00e+00	71	38	0	185597952	54	6738
2026-01-07 20:35:09.20	55.21	8.37	-40.9	-42.1	20.3	0.00e+00	0	38	0	187695104	54	6519
2026-01-07 20:35:10.21	55.08	8.43	-41.1	-42.4	19.9	0.00e+00	92	38	0	189792256	54	6757
2026-01-07 20:35:11.21	54.95	8.48	-41.2	-42.5	19.9	0.00e+00	0	38	0	191889408	54	6811
2026-01-07 20:35:12.23	54.81	8.54	-41.2	-42.6	20.0	0.00e+00	0	38	0	193986560	54	6865
2026-01-07 20:35:13.24	54.68	8.59	-41.3	-42.6	19.9	0.00e+00	30	38	0	195035136	54	6906
2026-01-07 20:35:14.25	54.55	8.64	-41.1	-42.4	20.0	0.00e+00	0	38	0	197132288	54	6748
2026-01-07 20:35:15.25	54.42	8.69	-41.2	-42.5	19.9	0.00e+00	90	38	0	199229440	54	6820
2026-01-07 20:35:16.26	54.29	8.75	-41.1	-42.4	20.1	0.00e+00	0	38	0	201326592	54	6745
2026-01-07 20:35:17.27	54.15	8.80	-41.1	-42.4	20.0	0.00e+00	89	38	0	203423744	54	6722
2026-01-07 20:35:18.28	54.02	8.85	-40.8	-42.1	20.3	0.00e+00	0	38	0	204472320	54	6471
2026-01-07 20:35:19.29	53.88	8.91	-40.8	-42.1	20.2	0.00e+00	90	38	0	206569472	54	6523
2026-01-07 20:35:20.30	53.75	8.96	-40.8	-42.1	20.4	0.00e+00	0	38	0	208666624	54	6494
2026-01-07 20:35:21.31	53.61	9.01	-40.8	-42.0	20.6	0.00e+00	0	38	0	210763776	54	6447
2026-01-07 20:35:22.32	53.48	9.07	-40.9	-42.2	20.4	0.00e+00	53	38	0	212860928	54	6556
2026-01-07 20:35:23.33	53.34	9.12	-40.7	-42.0	20.5	0.00e+00	0	38	0	213909504	54	6425
2026-01-07 20:35:24.34	53.20	9.17	-40.7	-41.9	20.5	0.00e+00	71	38	0	216006656	54	6386
2026-01-07 20:35:25.35	53.06	9.23	-40.6	-41.9	20.4	0.00e+00	0	38	0	218103808	54	6336
2026-01-07 20:35:26.36	52.93	9.28	-40.8	-42.0	20.5	0.00e+00	72	38	0	220200960	54	6460
2026-01-07 20:35:27.37	52.79	9.33	-40.6	-41.9	20.6	0.00e+00	49	38	0	222298112	54	6320
2026-01-07 20:35:28.38	52.65	9.38	-40.5	-41.7	20.7	0.00e+00	0	38	0	223346688	54	6219
2026-01-07 20:35:29.37	52.51	9.44	-40.6	-41.9	20.5	0.00e+00	92	38	0	225443840	54	6335
2026-01-07 20:35:30.38	52.37	9.49	-40.6	-41.8	20.7	0.00e+00	0	38	0	227540992	54	6264
2026-01-07 20:35:31.39	52.23	9.54	-40.6	-41.9	20.6	0.00e+00	71	38	0	229638144	54	6343
2026-01-07 20:35:32.40	52.09	9.59	-40.8	-42.1	20.5	0.00e+00	0	38	0	231735296	54	6512
2026-01-07 20:35:33.41	51.95	9.65	-41.0	-42.3	20.2	0.00e+00	73	38	0	232783872	54	6679
2026-01-07 20:35:34.42	51.80	9.70	-41.2	-42.6	20.0	0.00e+00	0	38	0	234881024	54	6857
2026-01-07 20:35:35.43	51.66	9.75	-41.3	-42.7	19.9	0.00e+00	0	38	0	236978176	54	6933
2026-01-07 20:35:36.44	51.52	9.80	-41.3	-42.7	19.8	0.00e+00	92	38	0	239075328	54	6939
2026-01-07 20:35:37.45	51.37	9.86	-41.1	-42.5	20.1	0.00e+00	0	38	0	241172480	54	6800
2026-01-07 20:35:38.46	51.23	9.91	-41.1	-42.5	20.2	0.00e+00	68	38	0	243269632	54	6804
2026-01-07 20:35:39.47	51.09	9.96	-41.1	-42.5	20.1	0.00e+00	0	38	0	244318208	54	6812
2026-01-07 20:35:40.48	50.94	10.01	-41.1	-42.5	20.0	0.00e+00	79	38	0	246415360	54	6818
2026-01-07 20:35:41.49	50.79	10.06	-41.2	-42.5	20.1	0.00e+00	0	38	0	248512512	54	6831
2026-01-07 20:35:42.49	50.65	10.12	-41.1	-42.4	20.2	0.00e+00	0	38	0	250609664	54	6762
2026-01-07 20:35:43.50	50.50	10.17	-40.9	-42.1	20.4	0.00e+00	68	38	0	252706816	54	6533
2026-01-07 20:35:44.51	50.35	10.22	-40.8	-42.1	20.5	0.00e+00	0	38	0	253755392	54	6466
2026-01-07 20:35:45.52	50.21	10.27	-40.7	-41.9	20.6	0.00e+00	0	38	0	255852544	54	6386
2026-01-07 20:35:46.53	50.06	10.32	-40.6	-41.8	20.8	0.00e+00	0	38	0	257949696	54	6260
2026-01-07 20:35:47.54	49.91	10.37	-40.9	-42.2	20.4	0.00e+00	91	38	0	260046848	54	6552
2026-01-07 20:35:48.55	49.76	10.43	-40.5	-41.8	20.8	0.00e+00	0	38	0	262144000	54	6264
2026-01-07 20:35:49.56	49.61	10.48	-40.3	-41.5	21.0	0.00e+00	0	38	0	263192576	54	6088
2026-01-07 20:35:50.57	49.46	10.53	-40.2	-41.3	21.2	0.00e+00	79	38	0	265289728	54	5957
2026-01-07 20:35:51.58	49.31	10.58	-39.9	-41.0	21.4	0.00e+00	0	38	0	267386880	54	5712
2026-01-07 20:35:52.59	49.15	10.63	-39.8	-41.0	21.6	0.00e+00	56	38	0	269484032	52	6392
2026-01-07 20:35:53.60	49.00	10.68	-39.8	-41.0	21.6	0.00e+00	0	38	0	271581184	52	6404
2026-01-07 20:35:54.61	48.85	10.73	-39.6	-40.7	21.7	0.00e+00	90	38	0	272629760	52	6188
2026-01-07 20:35:55.62	48.70	10.78	-39.7	-40.8	21.6	0.00e+00	0	38	0	274726912	52	6289
2026-01-07 20:35:56.63	48.54	10.83	-39.7	-40.9	21.6	0.00e+00	90	38	0	276824064	52	6318
2026-01-07 20:35:57.64	48.39	10.88	-39.6	-40.7	21.8	0.00e+00	0	38	0	278921216	52	6180
2026-01-07 20:35:58.65	48.23	10.94	-39.5	-40.5	21.8	0.00e+00	0	38	0	281018368	52	6088
2026-01-07 20:35:59.66	48.08	10.99	-39.2	-40.3	21.8	0.00e+00	0	38	0	282066944	52	5897
2026-01-07 20:36:00.67	47.92	11.04	-39.1	-40.1	22.0	0.00e+00	0	38	0	284164096	52	5798
2026-01-07 20:36:01.68	47.76	11.09	-39.0	-39.9	22.5	0.00e+00	69	38	0	286261248	52	5690
2026-01-07 20:36:02.69	47.61	11.14	-38.8	-39.8	22.5	0.00e+00	0	38	0	288358400	50	6288
2026-01-07 20:36:03.70	47.45	11.19	-38.8	-39.8	22.5	0.00e+00	90	38	0	290455552	50	6247
2026-01-07 20:36:04.71	47.29	11.24	-38.8	-39.8	22.5	0.00e+00	0	38	0	291504128	50	6268
2026-01-07 20:36:05.72	47.13	11.29	-38.7	-39.7	22.6	0.00e+00	0	38	0	293601280	50	6191
2026-01-07 20:36:06.73	46.97	11.34	-38.7	-39.7	22.5	0.00e+00	92	38	0	295698432	50	6174
2026-01-07 20:36:07.74	46.81	11.39	-38.8	-39.8	22.5	0.00e+00	0	38	0	297795584	50	6259
2026-01-07 20:36:08.74	46.65	11.43	-38.8	-39.8	22.5	0.00e+00	70	38	0	299892736	50	6303
2026-01-07 20:36:09.75	46.49	11.48	-38.9	-39.9	22.4	0.00e+00	0	38	0	300941312	50	6367
2026-01-07 20:36:10.76	46.33	11.53	-39.2	-40.3	22.1	0.00e+00	91	38	0	303038464	50	6631
2026-01-07 20:36:11.77	46.17	11.58	-39.2	-40.3	22.1	0.00e+00	0	38	0	305135616	50	6627
2026-01-07 20:36:12.78	46.00	11.63	-39.2	-40.2	22.1	0.00e+00	0	38	0	307232768	50	6580
2026-01-07 20:36:13.79	45.84	11.68	-39.0	-40.0	22.2	0.00e+00	77	38	0	309329920	50	6462
2026-01-07 20:36:14.80	45.68	11.73	-38.9	-40.0	22.4	0.00e+00	0	38	0	310378496	50	6396
2026-01-07 20:36:15.81	45.51	11.78	-38.9	-39.9	22.5	0.00e+00	75	38	0	312475648	50	6359
2026-01-07 20:36:16.82	45.35	11.83	-38.9	-39.9	22.4	0.00e+00	0	38	0	314572800	50	6337
2026-01-07 20:36:17.83	45.18	11.87	-39.0	-40.0	22.3	0.00e+00	92	38	0	316669952	50	6408
2026-01-07 20:36:18.84	45.02	11.92	-38.8	-39.8	22.4	0.00e+00	0	38	0	318767104	50	6277
2026-01-07 20:36:19.85	44.85	11.97	-38.9	-39.9	22.4	0.00e+00	0	38	0	320864256	50	6374
2026-01-07 20:36:20.86	44.68	12.02	-38.6	-39.5	22.6	0.00e+00	67	38	0	321912832	50	6073
2026-01-07 20:36:21.87	44.51	12.06	-38.6	-39.5	22.7	0.00e+00	0	38	0	324009984	50	6100
2026-01-07 20:36:22.88	44.35	12.11	-38.3	-39.2	22.9	0.00e+00	41	38	0	326107136	50	5849
2026-01-07 20:36:23.89	44.18	12.16	-38.4	-39.3	22.9	0.00e+00	0	38	0	328204288	50	5916
2026-01-07 20:36:24.90	44.01	12.21	-38.5	-39.4	22.8	0.00e+00	91	38	0	330301440	50	6000
2026-01-07 20:36:25.91	43.84	12.25	-38.4	-39.3	22.8	0.00e+00	0	38	0	331350016	50	5960
2026-01-07 20:36:26.92	43.67	12.30	-38.5	-39.5	22.7	0.00e+00	24	38	0	333447168	50	6068
2026-01-07 20:36:27.93	43.50	12.35	-38.7	-39.6	22.6	0.00e+00	72	38	0	335544320	50	6173
2026-01-07 20:36:28.93	43.33	12.39	-38.7	-39.7	22.5	0.00e+00	0	38	0	337641472	50	6219
2026-01-07 20:36:29.94	43.15	12.44	-38.5	-39.5	22.7	0.00e+00	71	38	0	339738624	50	6079
2026-01-07 20:36:30.95	42.98	12.49	-38.6	-39.6	22.6	0.00e+00	0	38	0	340787200	50	6161
2026-01-07 20:36:31.96	42.81	12.53	-38.8	-39.8	22.4	0.00e+00	89	38	0	342884352	50	6300
2026-01-07 20:36:32.97	42.63	12.58	-38.6	-39.7	22.7	0.00e+00	0	38	0	344981504	50	6175
2026-01-07 20:36:33.98	42.46	12.62	-38.4	-39.3	22.7	0.00e+00	0	38	0	347078656	50	5954
2026-01-07 20:36:34.99	42.28	12.67	-38.0	-38.9	23.1	0.00e+00	45	38	0	349175808	50	5691
2026-01-07 20:36:36.00	42.11	12.72	-37.8	-38.7	23.2	0.00e+00	0	38	0	350224384	50	5560
2026-01-07 20:36:37.01	41.93	12.76	-37.7	-38.6	23.4	0.00e+00	54	38	0	352321536	50	5441
2026-01-07 20:36:38.02	41.76	12.81	-37.5	-38.4	23.6	0.00e+00	0	38	0	354418688	48	5974
2026-01-07 20:36:39.03	41.58	12.85	-37.5	-38.4	23.6	0.00e+00	0	38	0	356515840	48	6014
2026-01-07 20:36:40.04	41.40	12.90	-37.6	-38.5	23.5	0.00e+00	0	38	0	358612992	48	6043
2026-01-07 20:36:41.05	41.22	12.94	-37.7	-38.6	23.5	0.00e+00	0	38	0	359661568	48	6138
2026-01-07 20:36:42.06	41.04	12.98	-37.8	-38.7	23.4	0.00e+00	49	38	0	361758720	48	6201
2026-01-07 20:36:43.07	40.87	13.03	-37.8	-38.7	23.4	0.00e+00	0	38	0	363855872	48	6193
2026-01-07 20:36:44.08	40.69	13.07	-37.9	-38.9	23.1	0.00e+00	53	38	0	365953024	48	6326
2026-01-07 20:36:45.09	40.50	13.12	-38.0	-39.0	23.2	0.00e+00	0	38	0	368050176	48	6412
2026-01-07 20:36:46.09	40.33	13.16	-38.2	-39.2	22.9	0.00e+00	92	38	0	369098752	48	6589
2026-01-07 20:36:47.11	40.14	13.20	-38.4	-39.4	22.8	0.00e+00	0	38	0	371195904	48	6720
2026-01-07 20:36:48.12	39.96	13.25	-38.5	-39.6	22.5	0.00e+00	0	38	0	373293056	48	6850
2026-01-07 20:36:49.13	39.78	13.29	-38.8	-39.8	22.0	0.00e+00	41	38	0	375390208	48	7062
2026-01-07 20:36:50.14	39.59	13.33	-38.8	-39.8	22.3	0.00e+00	0	38	0	377487360	50	6293
2026-01-07 20:36:51.15	39.41	13.37	-38.8	-39.9	22.4	0.00e+00	66	38	0	378535936	50	6323
2026-01-07 20:36:52.16	39.23	13.42	-38.9	-39.9	22.4	0.00e+00	33	38	0	380633088	50	6355
2026-01-07 20:36:53.17	39.04	13.46	-39.0	-40.0	22.4	0.00e+00	74	38	0	382730240	50	6439
2026-01-07 20:36:54.18	38.86	13.50	-38.6	-39.6	22.7	0.00e+00	0	38	0	384827392	50	6145
2026-01-07 20:36:55.19	38.67	13.54	-38.6	-39.6	22.7	0.00e+00	33	38	0	386924544	50	6111
2026-01-07 20:36:56.20	38.49	13.58	-38.7	-39.7	22.6	0.00e+00	0	38	0	389021696	50	6218
2026-01-07 20:36:57.21	38.30	13.62	-38.7	-39.7	22.5	0.00e+00	0	38	0	390070272	50	6221
2026-01-07 20:36:58.22	38.11	13.66	-38.9	-40.0	22.3	0.00e+00	71	38	0	392167424	50	6392
2026-01-07 20:36:59.23	37.92	13.70	-39.0	-40.1	22.3	0.00e+00	0	38	0	394264576	50	6482
2026-01-07 20:37:00.24	37.74	13.74	-39.2	-40.3	22.1	0.00e+00	69	38	0	396361728	50	6642
2026-01-07 20:37:01.25	37.55	13.78	-39.0	-40.0	22.5	0.00e+00	0	38	0	398458880	50	6440
2026-01-07 20:37:02.26	37.36	13.82	-38.7	-39.7	22.6	0.00e+00	0	38	0	399507456	50	6218
2026-01-07 20:37:03.27	37.17	13.86	-38.5	-39.5	22.7	0.00e+00	0	38	0	401604608	50	6056
2026-01-07 20:37:04.28	36.98	13.90	-38.3	-39.2	22.9	0.00e+00	0	38	0	403701760	50	5877
2026-01-07 20:37:05.29	36.79	13.94	-38.4	-39.3	22.9	0.00e+00	72	38	0	405798912	50	5947
2026-01-07 20:37:06.30	36.59	13.98	-38.3	-39.2	23.0	0.00e+00	0	38	0	407896064	50	5861
2026-01-07 20:37:07.31	36.40	14.02	-38.1	-39.0	23.2	0.00e+00	56	38	0	408944640	50	5717
2026-01-07 20:37:08.32	36.21	14.06	-38.0	-39.0	23.2	0.00e+00	0	38	0	411041792	50	5704
2026-01-07 20:37:09.33	36.02	14.10	-37.9	-38.8	23.3	0.00e+00	0	38	0	413138944	50	5592
2026-01-07 20:37:10.34	35.82	14.13	-37.9	-38.8	23.2	0.00e+00	0	38	0	415236096	50	5628
2026-01-07 20:37:11.35	35.63	14.17	-38.3	-39.2	23.0	0.00e+00	0	38	0	417333248	50	5862
2026-01-07 20:37:12.36	35.44	14.21	-38.4	-39.4	22.8	0.00e+00	15	38	0	418381824	50	5977
2026-01-07 20:37:13.36	35.24	14.25	-38.3	-39.2	23.0	0.00e+00	0	38	0	420478976	50	5875
2026-01-07 20:37:14.37	35.05	14.28	-38.1	-39.1	23.0	0.00e+00	75	38	0	422576128	50	5787
2026-01-07 20:37:15.38	34.85	14.32	-38.2	-39.1	23.1	0.00e+00	0	38	0	424673280	50	5795
2026-01-07 20:37:16.39	34.66	14.35	-38.1	-39.0	23.1	0.00e+00	1	38	0	426770432	50	5761
2026-01-07 20:37:17.40	34.46	14.39	-38.2	-39.1	22.8	0.00e+00	0	38	0	427819008	50	5805
2026-01-07 20:37:18.41	34.26	14.43	-38.4	-39.4	22.9	0.00e+00	0	38	0	429916160	50	5975
2026-01-07 20:37:19.42	34.06	14.46	-38.5	-39.5	22.7	0.00e+00	0	38	0	432013312	50	6088
2026-01-07 20:37:20.43	33.86	14.50	-38.5	-39.5	22.8	0.00e+00	0	38	0	434110464	50	6086
2026-01-07 20:37:21.44	33.67	14.53	-38.4	-39.4	22.9	0.00e+00	65	38	0	436207616	50	5984
2026-01-07 20:37:22.44	33.47	14.56	-38.4	-39.4	22.9	0.00e+00	0	38	0	437256192	50	5985
2026-01-07 20:37:23.45	33.27	14.60	-38.6	-39.6	22.7	0.00e+00	6	38	0	439353344	50	6151
2026-01-07 20:37:24.46	33.07	14.63	-38.6	-39.6	22.7	0.00e+00	0	38	0	441450496	50	6144
2026-01-07 20:37:25.48	32.87	14.67	-38.5	-39.5	22.9	0.00e+00	0	38	0	443547648	50	6058
2026-01-07 20:37:26.48	32.67	14.70	-38.3	-39.3	22.9	0.00e+00	0	38	0	445644800	50	5923
2026-01-07 20:37:27.49	32.47	14.73	-38.3	-39.3	23.0	0.00e+00	0	38	0	446693376	50	5906
2026-01-07 20:37:28.50	32.26	14.76	-37.7	-38.6	23.5	0.00e+00	66	38	0	448790528	48	6118
2026-01-07 20:37:29.51	32.06	14.80	-37.2	-38.1	23.8	0.00e+00	0	38	0	450887680	48	5790
2026-01-07 20:37:30.52	31.86	14.83	-37.3	-38.2	23.7	0.00e+00	92	38	0	452984832	48	5864
2026-01-07 20:37:31.53	31.66	14.86	-37.3	-38.2	23.7	0.00e+00	0	38	0	455081984	48	5843
2026-01-07 20:37:32.54	31.45	14.89	-37.4	-38.3	23.7	0.00e+00	0	38	0	456130560	48	5927
2026-01-07 20:37:33.55	31.25	14.92	-37.5	-38.4	23.6	0.00e+00	0	38	0	458227712	48	5965
2026-01-07 20:37:34.56	31.04	14.95	-37.5	-38.4	23.7	0.00e+00	0	38	0	460324864	48	5999
2026-01-07 20:37:35.57	30.84	14.98	-37.5	-38.3	23.7	0.00e+00	21	38	0	462422016	48	5938
2026-01-07 20:37:36.58	30.63	15.01	-37.8	-38.7	23.4	0.00e+00	0	38	0	464519168	48	6182
2026-01-07 20:37:37.59	30.43	15.04	-37.8	-38.7	23.4	0.00e+00	74	38	0	465567744	48	6216
2026-01-07 20:37:38.60	30.22	15.07	-37.8	-38.7	23.4	0.00e+00	0	38	0	467664896	48	6237
2026-01-07 20:37:39.61	30.01	15.10	-37.9	-38.8	23.3	0.00e+00	0	38	0	469762048	48	6284
2026-01-07 20:37:40.62	29.81	15.13	-37.9	-38.8	23.4	0.00e+00	0	38	0	471859200	48	6315
2026-01-07 20:37:41.62	29.60	15.16	-37.8	-38.6	23.6	0.00e+00	0	38	0	473956352	48	6170
2026-01-07 20:37:42.63	29.39	15.19	-37.8	-38.6	23.4	0.00e+00	69	38	0	475004928	48	6167
2026-01-07 20:37:43.64	29.19	15.21	-37.8	-38.7	23.2	0.00e+00	0	38	0	477102080	48	6231
2026-01-07 20:37:44.66	28.98	15.24	-38.1	-39.0	23.2	0.00e+00	69	38	0	479199232	48	6419
2026-01-07 20:37:45.66	28.77	15.27	-38.6	-39.5	22.7	0.00e+00	0	38	0	481296384	48	6848
2026-01-07 20:37:46.67	28.56	15.29	-38.9	-39.9	22.4	0.00e+00	0	38	0	483393536	50	6344
2026-01-07 20:37:47.68	28.35	15.32	-38.9	-39.9	22.5	0.00e+00	0	38	0	485490688	50	6334
2026-01-07 20:37:48.69	28.14	15.35	-38.7	-39.7	22.6	0.00e+00	0	38	0	486539264	50	6231
2026-01-07 20:37:49.70	27.93	15.37	-38.8	-39.8	22.5	0.00e+00	65	38	0	488636416	50	6256
2026-01-07 20:37:50.71	27.72	15.40	-38.6	-39.6	22.7	0.00e+00	0	38	0	490733568	50	6154
2026-01-07 20:37:51.72	27.51	15.42	-38.8	-39.8	22.5	0.00e+00	92	38	0	492830720	50	6287
2026-01-07 20:37:52.73	27.30	15.45	-38.8	-39.8	22.6	0.00e+00	0	38	0	494927872	50	6298
2026-01-07 20:37:53.74	27.08	15.47	-38.9	-39.9	22.5	0.00e+00	18	38	0	495976448	50	6343
2026-01-07 20:37:54.75	26.87	15.49	-38.8	-39.8	22.4	0.00e+00	0	38	0	498073600	50	6310
2026-01-07 20:37:55.76	26.66	15.52	-38.7	-39.7	22.3	0.00e+00	0	38	0	500170752	50	6179
2026-01-07 20:37:56.77	26.45	15.54	-38.6	-39.6	22.7	0.00e+00	9	38	0	502267904	50	6129
2026-01-07 20:37:57.78	26.23	15.56	-38.3	-39.3	23.0	0.00e+00	0	38	0	504365056	50	5898
2026-01-07 20:37:58.79	26.02	15.58	-38.4	-39.3	23.0	0.00e+00	69	38	0	505413632	50	5960
2026-01-07 20:37:59.80	25.81	15.61	-38.4	-39.4	22.9	0.00e+00	0	38	0	507510784	50	5996
2026-01-07 20:38:00.81	25.59	15.63	-38.2	-39.1	23.1	0.00e+00	49	38	0	509607936	50	5816
2026-01-07 20:38:01.82	25.38	15.65	-38.4	-39.4	22.9	0.00e+00	0	38	0	511705088	50	5999
2026-01-07 20:38:02.83	25.16	15.67	-38.2	-39.1	23.1	0.00e+00	0	38	0	513802240	50	5824
2026-01-07 20:38:03.84	24.95	15.69	-38.1	-39.0	23.2	0.00e+00	0	38	0	514850816	50	5738
2026-01-07 20:38:04.85	24.73	15.71	-37.8	-38.7	23.4	0.00e+00	0	38	0	516947968	50	5555
2026-01-07 20:38:05.86	24.52	15.73	-37.8	-38.7	23.5	0.00e+00	80	38	0	519045120	48	6182
2026-01-07 20:38:06.87	24.30	15.75	-37.7	-38.6	23.5	0.00e+00	0	38	0	521142272	48	6122
2026-01-07 20:38:07.88	24.08	15.77	-37.6	-38.5	23.6	0.00e+00	75	38	0	523239424	48	6043
2026-01-07 20:38:08.89	23.87	15.78	-37.8	-38.6	23.5	0.00e+00	0	38	0	524288000	48	6163
2026-01-07 20:38:09.90	23.65	15.80	-37.8	-38.7	23.4	0.00e+00	0	38	0	526385152	48	6174
2026-01-07 20:38:10.91	23.43	15.82	-37.7	-38.6	23.4	0.00e+00	0	38	0	528482304	48	6156
2026-01-07 20:38:11.92	23.22	15.84	-38.1	-39.0	23.2	0.00e+00	0	38	0	530579456	48	6424
2026-01-07 20:38:12.93	23.00	15.85	-38.3	-39.2	23.1	0.00e+00	72	38	0	532676608	48	6573
2026-01-07 20:38:13.94	22.78	15.87	-38.3	-39.2	23.0	0.00e+00	0	38	0	533725184	48	6600
2026-01-07 20:38:14.95	22.56	15.88	-38.5	-39.4	22.9	0.00e+00	74	38	0	535822336	48	6756
2026-01-07 20:38:15.96	22.35	15.90	-38.7	-39.7	22.7	0.00e+00	0	38	0	537919488	48	6941
2026-01-07 20:38:16.97	22.13	15.91	-38.6	-39.6	22.7	0.00e+00	0	38	0	540016640	48	6856
2026-01-07 20:38:17.98	21.91	15.93	-38.7	-39.7	22.6	0.00e+00	0	38	0	542113792	48	6962
2026-01-07 20:38:18.99	21.69	15.94	-38.8	-39.8	22.5	0.00e+00	0	38	0	543162368	50	6256
2026-01-07 20:38:20.00	21.47	15.96	-38.8	-39.8	22.5	0.00e+00	1	38	0	545259520	50	6276
2026-01-07 20:38:21.01	21.25	15.97	-38.9	-40.0	22.4	0.00e+00	0	38	0	547356672	50	6418
2026-01-07 20:38:22.02	21.03	15.98	-39.1	-40.1	22.3	0.00e+00	40	38	0	549453824	50	6511
2026-01-07 20:38:23.03	20.81	16.00	-39.3	-40.4	22.2	0.00e+00	0	38	0	551550976	50	6719
2026-01-07 20:38:24.04	20.59	16.01	-39.3	-40.4	22.0	0.00e+00	0	38	0	553648128	50	6722
2026-01-07 20:38:25.05	20.37	16.02	-39.3	-40.4	22.1	0.00e+00	0	38	0	554696704	50	6704
2026-01-07 20:38:26.06	20.15	16.03	-39.0	-40.1	22.3	0.00e+00	0	38	0	556793856	50	6501
2026-01-07 20:38:27.07	19.93	16.04	-38.9	-40.0	22.4	0.00e+00	13	38	0	558891008	50	6414
2026-01-07 20:38:28.08	19.71	16.05	-38.8	-39.8	22.5	0.00e+00	0	38	0	560988160	50	6317
2026-01-07 20:38:29.09	19.49	16.06	-38.6	-39.6	22.7	0.00e+00	38	38	0	563085312	50	6111
2026-01-07 20:38:30.10	19.27	16.07	-38.6	-39.5	22.7	0.00e+00	0	38	0	564133888	50	6093
2026-01-07 20:38:31.11	19.05	16.08	-38.6	-39.6	22.7	0.00e+00	0	38	0	566231040	50	6140
2026-01-07 20:38:32.12	18.83	16.09	-38.6	-39.6	22.7	0.00e+00	0	38	0	568328192	50	6119
2026-01-07 20:38:33.12	18.61	16.10	-38.3	-39.3	23.0	0.00e+00	0	38	0	570425344	50	5900
2026-01-07 20:38:34.13	18.39	16.10	-38.4	-39.3	22.9	0.00e+00	0	38	0	572522496	50	5948
2026-01-07 20:38:35.14	18.17	16.11	-38.4	-39.4	22.8	0.00e+00	0	38	0	573571072	50	5978
2026-01-07 20:38:36.15	17.95	16.12	-38.5	-39.4	22.8	0.00e+00	66	38	0	575668224	50	6020
2026-01-07 20:38:37.16	17.73	16.12	-38.4	-39.4	22.9	0.00e+00	0	38	0	577765376	50	5987
2026-01-07 20:38:38.17	17.50	16.13	-38.3	-39.3	22.9	0.00e+00	90	38	0	579862528	50	5935
2026-01-07 20:38:39.18	17.28	16.14	-38.3	-39.3	22.9	0.00e+00	0	39	0	581959680	50	5928
2026-01-07 20:38:40.19	17.06	16.14	-38.1	-39.1	23.1	0.00e+00	33	39	0	583008256	50	5780
2026-01-07 20:38:41.20	16.84	16.15	-38.4	-39.4	23.0	0.00e+00	0	38	0	585105408	50	5968
2026-01-07 20:38:42.21	16.62	16.15	-38.0	-38.9	23.1	0.00e+00	0	38	0	587202560	50	5687
2026-01-07 20:38:43.22	16.39	16.15	-38.4	-39.3	22.8	0.00e+00	71	38	0	589299712	50	5943
2026-01-07 20:38:44.23	16.17	16.16	-38.7	-39.7	22.7	0.00e+00	0	38	0	591396864	50	6201
2026-01-07 20:38:45.24	15.95	16.16	-38.7	-39.7	22.6	0.00e+00	78	38	0	592445440	50	6225
2026-01-07 20:38:46.25	15.73	16.16	-38.8	-39.8	22.5	0.00e+00	0	39	0	594542592	50	6282
2026-01-07 20:38:47.26	15.51	16.17	-38.9	-40.0	22.4	0.00e+00	0	38	0	596639744	50	6391
2026-01-07 20:38:48.27	15.28	16.17	-38.8	-39.8	22.6	0.00e+00	0	39	0	598736896	50	6288
2026-01-07 20:38:49.28	15.06	16.17	-38.8	-39.7	22.7	0.00e+00	0	38	0	600834048	50	6243
2026-01-07 20:38:50.29	14.84	16.17	-38.5	-39.4	22.8	0.00e+00	8	38	0	602931200	50	6026
2026-01-07 20:38:51.30	14.62	16.17	-38.3	-39.3	23.0	0.00e+00	0	38	0	603979776	50	5904
2026-01-07 20:38:52.31	14.40	16.17	-38.0	-38.9	23.2	0.00e+00	76	38	0	606076928	50	5685
2026-01-07 20:38:53.32	14.17	16.17	-38.0	-38.8	23.4	0.00e+00	0	38	0	608174080	50	5622
2026-01-07 20:38:54.33	13.95	16.17	-37.9	-38.7	23.4	0.00e+00	0	38	0	610271232	50	5563
2026-01-07 20:38:55.34	13.73	16.17	-37.8	-38.7	23.5	0.00e+00	0	38	0	612368384	48	6177
2026-01-07 20:38:56.35	13.51	16.16	-38.1	-39.0	23.1	0.00e+00	0	38	0	613416960	48	6405
2026-01-07 20:38:57.36	13.28	16.16	-38.1	-39.0	23.1	0.00e+00	71	38	0	615514112	48	6457
2026-01-07 20:38:58.37	13.06	16.16	-38.4	-39.4	23.0	0.00e+00	0	38	0	617611264	48	6734
2026-01-07 20:38:59.38	12.84	16.16	-38.5	-39.4	22.9	0.00e+00	75	38	0	619708416	48	6767
2026-01-07 20:39:00.39	12.62	16.15	-38.5	-39.5	22.8	0.00e+00	0	38	0	621805568	48	6827
2026-01-07 20:39:01.40	12.40	16.15	-38.5	-39.5	22.7	0.00e+00	0	38	0	622854144	48	6815
2026-01-07 20:39:02.41	12.17	16.14	-38.7	-39.7	22.7	0.00e+00	0	38	0	624951296	48	6928
2026-01-07 20:39:03.42	11.95	16.14	-38.8	-39.8	22.5	0.00e+00	0	38	0	627048448	50	6283
2026-01-07 20:39:04.43	11.73	16.13	-39.0	-40.0	22.3	0.00e+00	65	38	0	629145600	50	6447
2026-01-07 20:39:05.43	11.51	16.13	-39.2	-40.3	21.5	0.00e+00	0	38	0	631242752	50	6653
2026-01-07 20:39:06.44	11.29	16.12	-39.3	-40.4	21.9	0.00e+00	79	39	0	632291328	50	6731
2026-01-07 20:39:07.45	11.07	16.12	-39.5	-40.6	21.9	0.00e+00	0	38	0	634388480	50	6877
2026-01-07 20:39:08.46	10.85	16.11	-39.4	-40.5	21.8	0.00e+00	77	38	0	636485632	50	6800
2026-01-07 20:39:09.47	10.63	16.10	-39.4	-40.5	22.0	0.00e+00	0	39	0	638582784	50	6795
2026-01-07 20:39:10.48	10.41	16.09	-39.2	-40.3	22.1	0.00e+00	0	39	0	640679936	50	6643
2026-01-07 20:39:11.49	10.18	16.08	-38.7	-39.8	22.6	0.00e+00	65	38	0	641728512	50	6255
2026-01-07 20:39:12.50	9.96	16.08	-38.5	-39.5	22.8	0.00e+00	0	38	0	643825664	50	6094
2026-01-07 20:39:13.51	9.74	16.07	-38.5	-39.5	22.7	0.00e+00	64	38	0	645922816	50	6077
2026-01-07 20:39:14.52	9.52	16.06	-38.4	-39.4	22.9	0.00e+00	0	38	0	648019968	50	6009
2026-01-07 20:39:15.53	9.30	16.05	-38.4	-39.4	22.9	0.00e+00	92	39	0	650117120	50	6004
2026-01-07 20:39:16.54	9.08	16.04	-38.6	-39.5	22.8	0.00e+00	0	38	0	651165696	50	6085
2026-01-07 20:39:17.55	8.86	16.03	-38.3	-39.3	23.0	0.00e+00	0	38	0	653262848	50	5917
2026-01-07 20:39:18.56	8.64	16.01	-38.5	-39.5	22.9	0.00e+00	0	39	0	655360000	50	6036
2026-01-07 20:39:19.57	8.42	16.00	-38.5	-39.5	22.8	0.00e+00	0	39	0	657457152	50	6083
2026-01-07 20:39:20.58	8.20	15.99	-38.6	-39.6	22.7	0.00e+00	61	39	0	659554304	50	6106
2026-01-07 20:39:21.59	7.98	15.98	-38.7	-39.7	22.6	0.00e+00	0	38	0	661651456	50	6243
2026-01-07 20:39:22.60	7.76	15.96	-38.7	-39.7	22.7	0.00e+00	88	38	0	662700032	50	6184
2026-01-07 20:39:23.61	7.54	15.95	-38.6	-39.6	22.8	0.00e+00	0	38	0	664797184	50	6114
2026-01-07 20:39:24.62	7.33	15.94	-38.3	-39.2	23.1	0.00e+00	0	38	0	666894336	50	5893
2026-01-07 20:39:25.63	7.11	15.92	-38.0	-38.9	23.3	0.00e+00	0	38	0	668991488	50	5675
2026-01-07 20:39:26.64	6.89	15.91	-37.9	-38.8	23.4	0.00e+00	0	38	0	671088640	48	6253
2026-01-07 20:39:27.65	6.67	15.89	-37.8	-38.7	23.5	0.00e+00	69	39	0	672137216	48	6176
2026-01-07 20:39:28.66	6.45	15.88	-37.6	-38.5	23.4	0.00e+00	0	38	0	674234368	48	6054
2026-01-07 20:39:29.67	6.24	15.86	-37.7	-38.6	23.5	0.00e+00	92	39	0	676331520	48	6114
2026-01-07 20:39:30.68	6.02	15.85	-37.8	-38.7	23.4	0.00e+00	0	38	0	678428672	48	6242
2026-01-07 20:39:31.69	5.80	15.83	-37.9	-38.8	23.1	0.00e+00	0	39	0	679477248	48	6270
2026-01-07 20:39:32.70	5.58	15.81	-38.0	-38.9	23.3	0.00e+00	0	39	0	681574400	48	6367
2026-01-07 20:39:33.70	5.37	15.79	-37.9	-38.8	23.4	0.00e+00	0	38	0	683671552	48	6313
2026-01-07 20:39:34.71	5.15	15.78	-38.1	-39.0	23.2	0.00e+00	71	38	0	685768704	48	6436
2026-01-07 20:39:35.72	4.94	15.76	-38.0	-38.9	23.2	0.00e+00	0	38	0	687865856	48	6369
2026-01-07 20:39:36.73	4.72	15.74	-38.2	-39.1	23.1	0.00e+00	76	38	0	689963008	48	6515
2026-01-07 20:39:37.74	4.50	15.72	-38.2	-39.2	22.9	0.00e+00	0	38	0	691011584	48	6572
2026-01-07 20:39:38.75	4.29	15.70	-38.2	-39.2	23.1	0.00e+00	0	38	0	693108736	48	6552
2026-01-07 20:39:39.76	4.07	15.68	-38.1	-39.1	23.1	0.00e+00	0	38	0	695205888	48	6519
2026-01-07 20:39:40.77	3.86	15.66	-38.2	-39.2	22.6	0.00e+00	0	38	0	697303040	48	6547
2026-01-07 20:39:41.78	3.65	15.64	-38.4	-39.4	22.8	0.00e+00	41	38	0	699400192	48	6721
2026-01-07 20:39:42.79	3.43	15.62	-38.6	-39.6	22.7	0.00e+00	0	38	0	700448768	48	6885
2026-01-07 20:39:43.80	3.22	15.60	-38.9	-40.0	22.4	0.00e+00	75	38	0	702545920	50	6391
2026-01-07 20:39:44.81	3.00	15.57	-38.7	-39.8	22.7	0.00e+00	0	38	0	704643072	50	6248
2026-01-07 20:39:45.82	2.79	15.55	-38.7	-39.8	22.6	0.00e+00	0	39	0	706740224	50	6249
2026-01-07 20:39:46.83	2.58	15.53	-38.4	-39.3	22.9	0.00e+00	0	38	0	708837376	50	5964
2026-01-07 20:39:47.84	2.36	15.51	-38.3	-39.3	23.1	0.00e+00	0	38	0	709885952	50	5936
2026-01-07 20:39:48.85	2.15	15.48	-38.0	-39.0	23.3	0.00e+00	0	39	0	711983104	50	5706
2026-01-07 20:39:49.86	1.94	15.46	-38.0	-38.9	23.5	0.00e+00	0	38	0	714080256	50	5657
2026-01-07 20:39:50.87	1.73	15.44	-37.6	-38.5	23.6	0.00e+00	92	39	0	716177408	48	6066
2026-01-07 20:39:51.88	1.52	15.41	-37.6	-38.4	23.7	0.00e+00	0	38	0	718274560	48	6023
2026-01-07 20:39:52.89	1.31	15.39	-37.6	-38.5	23.5	0.00e+00	92	38	0	719323136	48	6059
2026-01-07 20:39:53.89	1.10	15.36	-37.8	-38.6	23.4	0.00e+00	0	38	0	721420288	48	6158
2026-01-07 20:39:54.90	0.89	15.34	-37.8	-38.7	23.4	0.00e+00	0	38	0	723517440	48	6199
2026-01-07 20:39:55.91	0.68	15.31	-37.5	-38.3	23.7	0.00e+00	0	38	0	725614592	48	5935
2026-01-07 20:39:56.92	0.47	15.28	-37.5	-38.3	23.7	0.00e+00	0	38	0	727711744	48	5957
2026-01-07 20:39:57.93	0.26	15.26	-37.8	-38.7	23.4	0.00e+00	72	38	0	728760320	48	6185
2026-01-07 20:39:58.94	0.05	15.23	-38.0	-38.9	23.3	0.00e+00	0	38	0	730857472	48	6356
2026-01-07 20:39:59.95	359.84	15.20	-37.9	-38.8	23.2	0.00e+00	74	38	0	732954624	48	6296
2026-01-07 20:40:00.96	359.64	15.17	-38.1	-39.1	23.0	0.00e+00	0	38	0	735051776	48	6478
2026-01-07 20:40:01.97	359.43	15.15	-38.8	-39.7	22.9	0.00e+00	0	38	0	737148928	48	6972
2026-01-07 20:40:02.98	359.22	15.12	-38.5	-39.4	22.9	0.00e+00	0	39	0	738197504	50	6031
2026-01-07 20:40:03.99	359.01	15.09	-38.8	-39.7	22.6	0.00e+00	0	38	0	740294656	50	6240
2026-01-07 20:40:05.00	358.81	15.06	-38.8	-39.8	22.6	0.00e+00	0	38	0	742391808	50	6316
2026-01-07 20:40:06.01	358.60	15.03	-38.7	-39.7	22.6	0.00e+00	0	38	0	744488960	50	6216
2026-01-07 20:40:07.02	358.40	15.00	-38.8	-39.8	22.4	0.00e+00	52	38	0	746586112	50	6281
2026-01-07 20:40:08.03	358.19	14.97	-39.1	-40.1	22.4	0.00e+00	0	38	0	747634688	50	6530
2026-01-07 20:40:09.04	357.99	14.94	-39.3	-40.4	22.2	0.00e+00	0	38	0	749731840	50	6712
2026-01-07 20:40:10.05	357.78	14.91	-39.6	-40.8	21.9	0.00e+00	0	39	0	751828992	50	7008
2026-01-07 20:40:11.06	357.58	14.88	-39.7	-40.8	21.8	0.00e+00	0	38	0	753926144	52	6252
2026-01-07 20:40:12.07	357.38	14.85	-39.5	-40.6	21.9	0.00e+00	39	38	0	756023296	52	6121
2026-01-07 20:40:13.08	357.17	14.82	-39.4	-40.4	22.2	0.00e+00	0	39	0	758120448	52	6006
2026-01-07 20:40:14.09	356.97	14.78	-39.3	-40.4	22.2	0.00e+00	35	38	0	759169024	52	5976
2026-01-07 20:40:15.09	356.77	14.75	-38.9	-40.0	22.5	0.00e+00	0	39	0	761266176	52	5708
2026-01-07 20:40:16.10	356.57	14.72	-39.1	-40.1	22.4	0.00e+00	32	38	0	763363328	52	5823
2026-01-07 20:40:17.11	356.37	14.69	-38.8	-39.7	22.6	0.00e+00	0	38	0	765460480	50	6239
2026-01-07 20:40:18.12	356.17	14.65	-39.0	-40.0	22.4	0.00e+00	0	38	0	767557632	50	6429
2026-01-07 20:40:19.13	355.97	14.62	-38.7	-39.7	22.6	0.00e+00	59	38	0	768606208	50	6215
2026-01-07 20:40:20.14	355.77	14.59	-38.8	-39.8	22.7	0.00e+00	33	38	0	770703360	50	6283
2026-01-07 20:40:21.15	355.57	14.55	-38.6	-39.6	22.7	0.00e+00	90	38	0	772800512	50	6111
2026-01-07 20:40:22.16	355.37	14.52	-38.6	-39.5	22.8	0.00e+00	0	38	0	774897664	50	6097
2026-01-07 20:40:23.17	355.17	14.48	-38.6	-39.5	22.7	0.00e+00	90	38	0	776994816	50	6097
2026-01-07 20:40:24.18	354.97	14.45	-38.4	-39.4	22.9	0.00e+00	0	38	0	778043392	50	5992
2026-01-07 20:40:25.19	354.78	14.41	-38.5	-39.5	22.8	0.00e+00	0	38	0	780140544	50	6074
2026-01-07 20:40:26.20	354.58	14.38	-38.2	-39.1	23.0	0.00e+00	65	38	0	782237696	50	5820
2026-01-07 20:40:27.21	354.38	14.34	-38.2	-39.1	23.1	0.00e+00	0	39	0	784334848	50	5803
2026-01-07 20:40:28.22	354.19	14.30	-37.9	-38.8	22.5	0.00e+00	70	38	0	786432000	50	5606
2026-01-07 20:40:29.23	353.99	14.27	-37.9	-38.7	23.4	0.00e+00	0	38	0	787480576	48	6244
2026-01-07 20:40:30.24	353.80	14.23	-37.6	-38.5	23.5	0.00e+00	52	38	0	789577728	48	6038
2026-01-07 20:40:31.25	353.60	14.19	-37.8	-38.6	23.1	0.00e+00	0	38	0	791674880	48	6170
2026-01-07 20:40:32.26	353.41	14.16	-37.7	-38.6	23.3	0.00e+00	0	38	0	793772032	48	6167
2026-01-07 20:40:33.27	353.21	14.12	-37.9	-38.8	23.3	0.00e+00	0	39	0	795869184	48	6249
2026-01-07 20:40:34.28	353.02	14.08	-37.7	-38.6	23.4	0.00e+00	0	38	0	796917760	48	6156
2026-01-07 20:40:35.29	352.83	14.04	-38.0	-39.0	23.0	0.00e+00	72	38	0	799014912	48	6398
2026-01-07 20:40:36.30	352.64	14.00	-38.2	-39.1	23.0	0.00e+00	0	38	0	801112064	48	6509
2026-01-07 20:40:37.31	352.45	13.96	-38.6	-39.5	22.8	0.00e+00	68	39	0	803209216	48	6848
2026-01-07 20:40:38.32	352.26	13.93	-38.6	-39.6	22.6	0.00e+00	0	38	0	805306368	48	6908
2026-01-07 20:40:39.33	352.06	13.89	-39.0	-40.0	22.4	0.00e+00	0	38	0	806354944	50	6459
2026-01-07 20:40:40.34	351.87	13.85	-39.4	-40.5	21.9	0.00e+00	0	39	0	808452096	50	6847
2026-01-07 20:40:41.35	351.69	13.81	-39.8	-40.9	21.6	0.00e+00	0	38	0	810549248	52	6379
2026-01-07 20:40:42.36	351.50	13.77	-40.0	-41.1	21.4	0.00e+00	26	38	0	812646400	52	6528
2026-01-07 20:40:43.37	351.31	13.73	-40.1	-41.3	21.4	0.00e+00	0	38	0	814743552	52	6643
2026-01-07 20:40:44.38	351.12	13.69	-39.5	-40.6	22.0	0.00e+00	72	39	0	815792128	52	6127
2026-01-07 20:40:45.39	350.93	13.65	-39.1	-40.1	22.1	0.00e+00	0	38	0	817889280	52	5826
2026-01-07 20:40:46.40	350.75	13.61	-39.2	-40.2	22.1	0.00e+00	0	38	0	819986432	52	5874
2026-01-07 20:40:47.40	350.56	13.57	-39.2	-40.2	22.1	0.00e+00	0	39	0	822083584	52	5884
2026-01-07 20:40:48.42	350.37	13.52	-39.0	-40.1	22.2	0.00e+00	0	38	0	824180736	52	5766
2026-01-07 20:40:49.43	350.19	13.48	-39.1	-40.1	22.2	0.00e+00	65	38	0	826277888	52	5821
2026-01-07 20:40:50.43	350.01	13.44	-39.2	-40.3	22.1	0.00e+00	0	38	0	827326464	52	5914
2026-01-07 20:40:51.45	349.82	13.40	-39.3	-40.3	22.1	0.00e+00	64	38	0	829423616	52	5948
2026-01-07 20:40:52.46	349.64	13.36	-39.2	-40.3	22.1	0.00e+00	0	38	0	831520768	52	5924
2026-01-07 20:40:53.47	349.45	13.31	-39.4	-40.5	21.9	0.00e+00	3	38	0	833617920	52	6087
2026-01-07 20:40:54.48	349.27	13.27	-39.6	-40.7	21.9	0.00e+00	0	38	0	835715072	52	6218
2026-01-07 20:40:55.48	349.09	13.23	-39.6	-40.7	21.9	0.00e+00	0	38	0	836763648	52	6212
2026-01-07 20:40:56.49	348.91	13.19	-39.4	-40.5	21.9	0.00e+00	68	38	0	838860800	52	6066
2026-01-07 20:40:57.50	348.73	13.14	-39.5	-40.6	21.9	0.00e+00	0	38	0	840957952	52	6115
2026-01-07 20:40:58.51	348.55	13.10	-39.3	-40.4	21.9	0.00e+00	87	38	0	843055104	52	5973
2026-01-07 20:40:59.52	348.37	13.05	-39.2	-40.3	22.2	0.00e+00	0	38	0	845152256	52	5908
2026-01-07 20:41:00.53	348.19	13.01	-39.3	-40.3	22.1	0.00e+00	92	38	0	846200832	52	5948
2026-01-07 20:41:01.54	348.01	12.97	-39.2	-40.2	22.2	0.00e+00	0	38	0	848297984	52	5894
2026-01-07 20:41:02.55	347.83	12.92	-39.2	-40.3	22.1	0.00e+00	0	39	0	850395136	52	5900
2026-01-07 20:41:03.56	347.65	12.88	-39.0	-40.0	22.5	0.00e+00	0	38	0	852492288	52	5734
2026-01-07 20:41:04.57	347.48	12.83	-38.6	-39.6	22.7	0.00e+00	0	39	0	854589440	50	6131
2026-01-07 20:41:05.58	347.30	12.79	-38.4	-39.3	23.0	0.00e+00	72	38	0	855638016	50	5939
2026-01-07 20:41:06.59	347.12	12.74	-38.3	-39.2	22.9	0.00e+00	0	39	0	857735168	50	5888
2026-01-07 20:41:07.60	346.95	12.70	-38.1	-39.0	23.1	0.00e+00	92	39	0	859832320	50	5752
2026-01-07 20:41:08.61	346.77	12.65	-38.2	-39.1	23.0	0.00e+00	0	39	0	861929472	50	5772
2026-01-07 20:41:09.62	346.60	12.61	-38.3	-39.2	22.9	0.00e+00	0	39	0	864026624	50	5865
2026-01-07 20:41:10.63	346.43	12.56	-38.5	-39.5	22.7	0.00e+00	0	39	0	865075200	50	6067
2026-01-07 20:41:11.64	346.25	12.52	-38.7	-39.7	22.6	0.00e+00	0	39	0	867172352	50	6178
2026-01-07 20:41:12.65	346.08	12.47	-39.1	-40.1	22.2	0.00e+00	63	39	0	869269504	50	6520
2026-01-07 20:41:13.66	345.91	12.42	-39.2	-40.2	22.2	0.00e+00	0	39	0	871366656	50	6604
2026-01-07 20:41:14.67	345.74	12.38	-39.4	-40.4	22.0	0.00e+00	92	39	0	873463808	50	6768
2026-01-07 20:41:15.68	345.56	12.33	-39.3	-40.4	21.9	0.00e+00	0	38	0	874512384	50	6736
2026-01-07 20:41:16.69	345.39	12.28	-39.5	-40.6	21.9	0.00e+00	0	38	0	876609536	50	6868
2026-01-07 20:41:17.70	345.22	12.24	-39.4	-40.4	22.0	0.00e+00	0	39	0	878706688	50	6765
2026-01-07 20:41:18.70	345.06	12.19	-39.3	-40.3	22.0	0.00e+00	0	39	0	880803840	50	6665
2026-01-07 20:41:19.72	344.89	12.14	-39.3	-40.4	22.0	0.00e+00	68	39	0	882900992	50	6714
2026-01-07 20:41:20.72	344.72	12.09	-39.2	-40.2	22.1	0.00e+00	0	38	0	883949568	50	6596
2026-01-07 20:41:21.73	344.55	12.05	-39.3	-40.3	21.8	0.00e+00	92	39	0	886046720	50	6688
2026-01-07 20:41:22.74	344.38	12.00	-39.6	-40.6	21.7	0.00e+00	0	39	0	888143872	50	6918
2026-01-07 20:41:23.75	344.22	11.95	-40.0	-41.2	21.4	0.00e+00	0	38	0	890241024	52	6564
2026-01-07 20:41:24.76	344.05	11.90	-40.5	-41.8	20.8	0.00e+00	0	38	0	892338176	52	7030
2026-01-07 20:41:25.77	343.89	11.86	-41.1	-42.5	20.1	0.00e+00	0	39	0	894435328	54	6805
2026-01-07 20:41:26.78	343.72	11.81	-42.0	-43.6	19.2	0.00e+00	65	39	0	895483904	56	6880
2026-01-07 20:41:27.79	343.56	11.76	-42.2	-43.8	18.8	0.00e+00	0	38	0	897581056	56	7043
2026-01-07 20:41:28.80	343.39	11.71	-42.8	-44.8	18.0	0.00e+00	81	38	0	899678208	58	7012
2026-01-07 20:41:29.81	343.23	11.66	-42.8	-44.6	18.2	0.00e+00	0	38	0	901775360	58	6918
2026-01-07 20:41:30.82	343.07	11.61	-42.6	-44.4	18.4	0.00e+00	34	39	0	903872512	58	6725
2026-01-07 20:41:31.83	342.90	11.56	-42.5	-44.3	18.5	0.00e+00	0	38	0	904921088	58	6689
2026-01-07 20:41:32.84	342.74	11.51	-42.4	-44.2	18.6	0.00e+00	0	39	0	907018240	58	6545
2026-01-07 20:41:33.85	342.58	11.47	-41.8	-43.4	19.3	0.00e+00	0	39	0	909115392	58	5971
2026-01-07 20:41:34.86	342.42	11.42	-41.6	-43.1	19.6	0.00e+00	0	39	0	911212544	56	6503
2026-01-07 20:41:35.87	342.26	11.37	-41.8	-43.3	19.4	0.00e+00	69	38	0	913309696	56	6654
2026-01-07 20:41:36.88	342.10	11.32	-41.6	-43.1	19.8	0.00e+00	0	38	0	914358272	56	6485
2026-01-07 20:41:37.88	341.94	11.27	-41.5	-42.9	19.8	0.00e+00	92	39	0	916455424	56	6382
2026-01-07 20:41:38.89	341.78	11.22	-41.4	-42.8	19.9	0.00e+00	0	39	0	918552576	56	6274
2026-01-07 20:41:39.90	341.63	11.17	-41.0	-42.3	20.4	0.00e+00	0	38	0	920649728	56	5938
2026-01-07 20:41:40.91	341.47	11.12	-40.6	-41.8	20.6	0.00e+00	0	39	0	922746880	54	6303
2026-01-07 20:41:41.92	341.31	11.07	-40.5	-41.7	20.8	0.00e+00	0	39	0	923795456	54	6220
2026-01-07 20:41:42.93	341.16	11.02	-40.3	-41.5	20.9	0.00e+00	66	39	0	925892608	54	6062
2026-01-07 20:41:43.94	341.00	10.97	-40.1	-41.3	21.1	0.00e+00	0	39	0	927989760	54	5936
2026-01-07 20:41:44.95	340.85	10.92	-40.2	-41.4	21.0	0.00e+00	92	39	0	930086912	54	5990
2026-01-07 20:41:45.96	340.69	10.87	-40.1	-41.3	21.2	0.00e+00	0	39	0	932184064	54	5931
2026-01-07 20:41:46.97	340.54	10.82	-40.2	-41.4	21.0	0.00e+00	0	39	0	933232640	54	6007
2026-01-07 20:41:47.98	340.38	10.77	-40.4	-41.6	20.9	0.00e+00	0	38	0	935329792	54	6131
2026-01-07 20:41:48.99	340.23	10.71	-40.4	-41.7	20.8	0.00e+00	0	39	0	937426944	54	6199
2026-01-07 20:41:50.00	340.08	10.66	-40.4	-41.6	20.9	0.00e+00	3	38	0	939524096	54	6134
2026-01-07 20:41:51.01	339.93	10.61	-40.2	-41.4	20.9	0.00e+00	0	38	0	941621248	54	6005
2026-01-07 20:41:52.02	339.77	10.56	-40.3	-41.5	21.0	0.00e+00	38	39	0	942669824	54	6096
2026-01-07 20:41:53.03	339.62	10.51	-40.0	-41.1	21.2	0.00e+00	0	38	0	944766976	54	5796
2026-01-07 20:41:54.04	339.47	10.46	-39.9	-41.1	21.3	0.00e+00	0	39	0	946864128	54	5781
2026-01-07 20:41:55.04	339.32	10.41	-39.9	-41.0	21.3	0.00e+00	0	38	0	948961280	54	5749
2026-01-07 20:41:56.05	339.18	10.36	-39.8	-41.0	21.4	0.00e+00	0	38	0	951058432	52	6413
2026-01-07 20:41:57.06	339.03	10.31	-39.7	-40.8	21.6	0.00e+00	60	38	0	952107008	52	6269
2026-01-07 20:41:58.07	338.88	10.25	-39.6	-40.7	21.6	0.00e+00	0	38	0	954204160	52	6209
2026-01-07 20:41:59.08	338.73	10.20	-39.8	-40.9	21.5	0.00e+00	86	39	0	956301312	52	6373
2026-01-07 20:42:00.09	338.58	10.15	-39.8	-40.9	21.5	0.00e+00	0	38	0	958398464	52	6354
2026-01-07 20:42:01.10	338.44	10.10	-39.8	-41.0	21.4	0.00e+00	0	38	0	960495616	52	6406
2026-01-07 20:42:02.11	338.29	10.05	-39.8	-41.0	21.6	0.00e+00	0	39	0	962592768	52	6430
2026-01-07 20:42:03.12	338.15	10.00	-39.9	-41.0	21.4	0.00e+00	0	39	0	963641344	52	6425
2026-01-07 20:42:04.13	338.00	9.94	-40.0	-41.2	21.2	0.00e+00	65	38	0	965738496	52	6542
2026-01-07 20:42:05.14	337.86	9.89	-40.0	-41.2	21.1	0.00e+00	0	38	0	967835648	52	6585
2026-01-07 20:42:06.15	337.71	9.84	-40.2	-41.4	21.0	0.00e+00	73	39	0	969932800	52	6708
2026-01-07 20:42:07.16	337.57	9.79	-40.2	-41.4	21.0	0.00e+00	33	38	0	972029952	52	6760
2026-01-07 20:42:08.17	337.43	9.73	-40.2	-41.5	20.9	0.00e+00	91	38	0	973078528	52	6770
2026-01-07 20:42:09.18	337.28	9.68	-40.3	-41.6	20.8	0.00e+00	0	38	0	975175680	52	6854
2026-01-07 20:42:10.19	337.14	9.63	-40.2	-41.4	21.0	0.00e+00	0	38	0	977272832	52	6706
2026-01-07 20:42:11.19	337.00	9.58	-40.2	-41.4	21.0	0.00e+00	65	38	0	979369984	52	6708
2026-01-07 20:42:12.20	336.86	9.53	-39.9	-41.1	21.2	0.00e+00	0	39	0	981467136	52	6494
2026-01-07 20:42:13.21	336.72	9.47	-39.9	-41.1	21.4	0.00e+00	91	38	0	982515712	52	6469
2026-01-07 20:42:14.22	336.58	9.42	-39.8	-41.0	21.4	0.00e+00	0	39	0	984612864	52	6420
2026-01-07 20:42:15.23	336.44	9.37	-39.7	-40.9	21.4	0.00e+00	84	38	0	986710016	52	6355
2026-01-07 20:42:16.24	336.30	9.31	-39.7	-40.8	21.4	0.00e+00	0	38	0	988807168	52	6312
2026-01-07 20:42:17.25	336.17	9.26	-39.9	-41.1	21.2	0.00e+00	0	38	0	990904320	52	6465
2026-01-07 20:42:18.26	336.03	9.21	-39.7	-40.8	21.4	0.00e+00	0	38	0	991952896	52	6276
2026-01-07 20:42:19.27	335.89	9.16	-39.7	-40.9	21.5	0.00e+00	0	38	0	994050048	52	6328
2026-01-07 20:42:20.28	335.75	9.10	-39.5	-40.7	21.5	0.00e+00	64	39	0	996147200	52	6197
2026-01-07 20:42:21.29	335.62	9.05	-39.1	-40.2	22.0	0.00e+00	0	38	0	998244352	52	5837
2026-01-07 20:42:22.30	335.48	9.00	-38.9	-39.9	22.2	0.00e+00	92	39	0	1000341504	52	5675
2026-01-07 20:42:23.31	335.35	8.94	-38.8	-39.8	22.3	0.00e+00	0	38	0	1001390080	52	5604
2026-01-07 20:42:24.31	335.21	8.89	-38.4	-39.3	22.7	0.00e+00	0	38	0	1003487232	50	5954
2026-01-07 20:42:25.33	335.08	8.84	-38.3	-39.3	22.7	0.00e+00	0	38	0	1005584384	50	5941
2026-01-07 20:42:26.34	334.94	8.78	-38.3	-39.3	22.7	0.00e+00	0	38	0	1007681536	50	5928
2026-01-07 20:42:27.34	334.81	8.73	-38.4	-39.3	22.6	0.00e+00	67	38	0	1009778688	50	5958
2026-01-07 20:42:28.36	334.68	8.68	-38.4	-39.4	22.6	0.00e+00	0	39	0	1010827264	50	5986
2026-01-07 20:42:29.36	334.55	8.63	-38.7	-39.7	22.5	0.00e+00	68	39	0	1012924416	50	6195
2026-01-07 20:42:30.38	334.41	8.57	-38.6	-39.6	22.5	0.00e+00	0	38	0	1015021568	50	6117
2026-01-07 20:42:31.39	334.28	8.52	-38.8	-39.8	22.3	0.00e+00	0	39	0	1017118720	50	6297
2026-01-07 20:42:32.39	334.15	8.47	-38.7	-39.8	22.3	0.00e+00	0	39	0	1019215872	50	6249
2026-01-07 20:42:33.40	334.02	8.41	-38.7	-39.8	22.2	0.00e+00	0	38	0	1020264448	50	6248
2026-01-07 20:42:34.41	333.89	8.36	-38.8	-39.8	22.2	0.00e+00	62	39	0	1022361600	50	6289
2026-01-07 20:42:35.43	333.76	8.30	-38.6	-39.7	22.4	0.00e+00	0	39	0	1024458752	50	6179
2026-01-07 20:42:36.43	333.64	8.25	-38.7	-39.7	22.4	0.00e+00	92	38	0	1026555904	50	6191
2026-01-07 20:42:37.44	333.51	8.20	-38.8	-39.8	22.3	0.00e+00	0	38	0	1028653056	50	6282
2026-01-07 20:42:38.46	333.38	8.14	-38.5	-39.5	22.6	0.00e+00	0	38	0	1030750208	50	6073
2026-01-07 20:42:39.46	333.25	8.09	-38.5	-39.5	22.6	0.00e+00	0	38	0	1031798784	50	6048
2026-01-07 20:42:40.47	333.13	8.04	-38.3	-39.3	22.6	0.00e+00	0	38	0	1033895936	50	5921
2026-01-07 20:42:41.48	333.00	7.98	-38.5	-39.4	22.5	0.00e+00	0	38	0	1035993088	50	6031
2026-01-07 20:42:42.49	332.87	7.93	-38.6	-39.6	22.4	0.00e+00	0	39	0	1038090240	50	6165
2026-01-07 20:42:43.50	332.75	7.88	-38.8	-39.8	22.2	0.00e+00	83	39	0	1040187392	50	6279
2026-01-07 20:42:44.51	332.62	7.82	-38.8	-39.9	22.2	0.00e+00	0	39	0	1041235968	50	6331
2026-01-07 20:42:45.52	332.50	7.77	-39.0	-40.0	22.1	0.00e+00	92	39	0	1043333120	50	6441
2026-01-07 20:42:46.53	332.38	7.72	-38.9	-40.0	22.2	0.00e+00	0	39	0	1045430272	50	6396
2026-01-07 20:42:47.54	332.25	7.66	-39.1	-40.1	21.9	0.00e+00	0	39	0	1047527424	50	6515
2026-01-07 20:42:48.55	332.13	7.61	-39.1	-40.2	21.9	0.00e+00	0	39	0	1049624576	50	6584
2026-01-07 20:42:49.56	332.01	7.55	-39.2	-40.3	21.9	0.00e+00	0	39	0	1050673152	50	6660
2026-01-07 20:42:50.57	331.88	7.50	-39.4	-40.5	21.7	0.00e+00	64	39	0	1052770304	50	6805
2026-01-07 20:42:51.57	331.76	7.45	-39.3	-40.4	21.7	0.00e+00	0	38	0	1054867456	50	6742
2026-01-07 20:42:52.59	331.64	7.39	-39.4	-40.5	21.7	0.00e+00	91	39	0	1056964608	50	6836
2026-01-07 20:42:53.60	331.52	7.34	-39.3	-40.4	21.6	0.00e+00	0	38	0	1059061760	50	6733
2026-01-07 20:42:54.61	331.40	7.29	-39.5	-40.7	21.6	0.00e+00	0	39	0	1060110336	50	6937
2026-01-07 20:42:55.62	331.28	7.23	-39.5	-40.6	21.6	0.00e+00	0	38	0	1062207488	50	6890
2026-01-07 20:42:56.63	331.16	7.18	-39.5	-40.6	21.4	0.00e+00	0	38	0	1064304640	50	6908
2026-01-07 20:42:57.64	331.04	7.12	-39.6	-40.7	21.4	0.00e+00	63	39	0	1066401792	50	6986
2026-01-07 20:42:58.65	330.92	7.07	-39.4	-40.5	21.5	0.00e+00	0	38	0	1068498944	50	6840
2026-01-07 20:42:59.66	330.81	7.02	-39.6	-40.7	21.4	0.00e+00	92	38	0	1069547520	50	6960
2026-01-07 20:43:00.66	330.69	6.96	-39.4	-40.5	21.5	0.00e+00	0	38	0	1071644672	50	6837
2026-01-07 20:43:01.67	330.57	6.91	-39.4	-40.5	21.5	0.00e+00	0	38	0	1073741824	50	6845
2026-01-07 20:43:02.69	330.45	6.86	-39.2	-40.3	21.8	0.00e+00	0	38	0	1075838976	50	6627
2026-01-07 20:43:03.70	330.34	6.80	-39.0	-40.1	22.0	0.00e+00	0	38	0	1077936128	50	6472
2026-01-07 20:43:04.70	330.22	6.75	-39.0	-40.0	22.0	0.00e+00	67	38	0	1078984704	50	6445
2026-01-07 20:43:05.71	330.11	6.69	-39.0	-40.0	21.8	0.00e+00	0	38	0	1081081856	50	6423
2026-01-07 20:43:06.72	329.99	6.64	-39.0	-40.0	21.9	0.00e+00	92	39	0	1083179008	50	6459
2026-01-07 20:43:07.73	329.88	6.59	-38.7	-39.7	21.9	0.00e+00	0	38	0	1085276160	50	6239
2026-01-07 20:43:08.74	329.77	6.53	-38.5	-39.5	22.1	0.00e+00	0	38	0	1087373312	50	6090
2026-01-07 20:43:09.75	329.65	6.48	-38.7	-39.7	22.2	0.00e+00	0	38	0	1088421888	50	6236
2026-01-07 20:43:10.76	329.54	6.43	-38.7	-39.7	22.2	0.00e+00	0	39	0	1090519040	50	6185
2026-01-07 20:43:11.77	329.43	6.37	-38.8	-39.9	22.1	0.00e+00	7	39	0	1092616192	50	6334
2026-01-07 20:43:12.78	329.31	6.32	-39.0	-40.1	22.0	0.00e+00	0	39	0	1094713344	50	6503
2026-01-07 20:43:13.79	329.20	6.26	-39.1	-40.1	21.8	0.00e+00	73	38	0	1096810496	50	6521
2026-01-07 20:43:14.80	329.09	6.21	-39.1	-40.2	21.7	0.00e+00	0	38	0	1098907648	50	6560
2026-01-07 20:43:15.81	328.98	6.16	-39.5	-40.6	21.4	0.00e+00	11	38	0	1099956224	50	6855
2026-01-07 20:43:16.82	328.87	6.10	-39.8	-40.9	21.4	0.00e+00	0	38	0	1102053376	50	7149
2026-01-07 20:43:17.83	328.76	6.05	-39.9	-41.0	21.2	0.00e+00	0	38	0	1104150528	52	6460
2026-01-07 20:43:18.84	328.65	6.00	-40.1	-41.3	20.9	0.00e+00	66	38	0	1106247680	52	6671
2026-01-07 20:43:19.85	328.54	5.94	-40.0	-41.2	20.9	0.00e+00	0	39	0	1108344832	52	6604
2026-01-07 20:43:20.86	328.43	5.89	-40.2	-41.5	20.7	0.00e+00	64	38	0	1109393408	52	6773
2026-01-07 20:43:21.87	328.32	5.83	-40.3	-41.5	20.7	0.00e+00	0	39	0	1111490560	52	6801
2026-01-07 20:43:22.88	328.21	5.78	-40.2	-41.5	20.8	0.00e+00	92	39	0	1113587712	52	6772
2026-01-07 20:43:23.89	328.11	5.73	-40.0	-41.2	21.0	0.00e+00	0	38	0	1115684864	52	6570
2026-01-07 20:43:24.90	328.00	5.67	-39.9	-41.1	21.0	0.00e+00	0	38	0	1117782016	52	6508
2026-01-07 20:43:25.91	327.89	5.62	-39.6	-40.8	21.4	0.00e+00	57	38	0	1118830592	52	6267
2026-01-07 20:43:26.92	327.78	5.57	-39.7	-40.9	21.1	0.00e+00	0	38	0	1120927744	52	6356
2026-01-07 20:43:27.93	327.68	5.51	-39.7	-40.8	21.2	0.00e+00	20	38	0	1123024896	52	6314
2026-01-07 20:43:28.94	327.57	5.46	-39.4	-40.5	21.5	0.00e+00	0	39	0	1125122048	52	6071
2026-01-07 20:43:29.95	327.47	5.41	-39.2	-40.3	21.7	0.00e+00	88	39	0	1127219200	52	5927
2026-01-07 20:43:30.95	327.36	5.35	-39.2	-40.3	21.7	0.00e+00	0	38	0	1128267776	52	5913
2026-01-07 20:43:31.96	327.26	5.30	-39.2	-40.3	21.6	0.00e+00	0	38	0	1130364928	52	5931
2026-01-07 20:43:32.97	327.16	5.25	-39.3	-40.3	21.6	0.00e+00	0	38	0	1132462080	52	5959
2026-01-07 20:43:33.98	327.05	5.19	-39.4	-40.5	21.6	0.00e+00	0	38	0	1134559232	52	6066
2026-01-07 20:43:34.99	326.95	5.14	-39.6	-40.7	21.4	0.00e+00	29	39	0	1136656384	52	6197
2026-01-07 20:43:36.00	326.85	5.09	-39.4	-40.5	21.5	0.00e+00	0	39	0	1137704960	52	6099
2026-01-07 20:43:37.01	326.74	5.03	-39.6	-40.8	21.3	0.00e+00	33	39	0	1139802112	52	6247
2026-01-07 20:43:38.02	326.64	4.98	-39.7	-40.9	21.1	0.00e+00	0	39	0	1141899264	52	6329
2026-01-07 20:43:39.03	326.54	4.93	-39.9	-41.1	20.9	0.00e+00	0	38	0	1143996416	52	6482
2026-01-07 20:43:40.04	326.44	4.87	-40.2	-41.4	20.7	0.00e+00	0	39	0	1146093568	52	6724
2026-01-07 20:43:41.05	326.34	4.82	-40.3	-41.6	20.5	0.00e+00	0	39	0	1147142144	52	6862
2026-01-07 20:43:42.06	326.24	4.77	-40.6	-41.9	20.3	0.00e+00	40	39	0	1149239296	52	7115
2026-01-07 20:43:43.07	326.14	4.71	-40.6	-41.9	20.2	0.00e+00	0	39	0	1151336448	52	7160
2026-01-07 20:43:44.08	326.04	4.66	-40.8	-42.1	19.9	0.00e+00	34	39	0	1153433600	54	6517
2026-01-07 20:43:45.09	325.94	4.61	-40.8	-42.2	19.8	0.00e+00	0	38	0	1155530752	54	6573
2026-01-07 20:43:46.10	325.84	4.55	-41.0	-42.4	19.6	0.00e+00	0	39	0	1156579328	54	6718
2026-01-07 20:43:47.11	325.74	4.50	-41.2	-42.7	19.5	0.00e+00	0	39	0	1158676480	54	6947
2026-01-07 20:43:48.12	325.64	4.45	-41.3	-42.7	19.5	0.00e+00	0	38	0	1160773632	54	6978
2026-01-07 20:43:49.13	325.54	4.39	-41.4	-42.9	19.3	0.00e+00	63	39	0	1162870784	54	7094
2026-01-07 20:43:50.14	325.44	4.34	-41.0	-42.5	19.6	0.00e+00	0	38	0	1164967936	54	6772
2026-01-07 20:43:51.15	325.35	4.29	-41.1	-42.6	19.5	0.00e+00	92	39	0	1167065088	54	6856
2026-01-07 20:43:52.16	325.25	4.23	-41.1	-42.6	19.4	0.00e+00	0	38	0	1168113664	54	6883
2026-01-07 20:43:53.17	325.15	4.18	-41.2	-42.6	19.4	0.00e+00	59	39	0	1170210816	54	6919
2026-01-07 20:43:54.18	325.06	4.13	-41.1	-42.6	19.4	0.00e+00	33	39	0	1172307968	54	6881
2026-01-07 20:43:55.19	324.96	4.07	-41.1	-42.5	19.6	0.00e+00	0	39	0	1174405120	54	6811
2026-01-07 20:43:56.19	324.87	4.02	-40.9	-42.3	19.7	0.00e+00	0	39	0	1176502272	54	6662
2026-01-07 20:43:57.20	324.77	3.97	-41.0	-42.4	19.6	0.00e+00	0	39	0	1177550848	54	6738
2026-01-07 20:43:58.21	324.68	3.92	-41.1	-42.6	19.4	0.00e+00	63	38	0	1179648000	54	6897
2026-01-07 20:43:59.22	324.58	3.86	-41.1	-42.6	19.3	0.00e+00	0	38	0	1181745152	54	6889
2026-01-07 20:44:00.23	324.49	3.81	-41.2	-42.7	19.3	0.00e+00	92	38	0	1183842304	54	6952
2026-01-07 20:44:01.24	324.40	3.76	-41.5	-43.1	19.0	0.00e+00	0	38	0	1185939456	54	7300
2026-01-07 20:44:02.25	324.30	3.70	-41.5	-43.1	18.9	0.00e+00	0	38	0	1186988032	54	7324
2026-01-07 20:44:03.26	324.21	3.65	-41.9	-43.6	18.5	0.00e+00	0	39	0	1189085184	56	6924
2026-01-07 20:44:04.27	324.12	3.60	-42.0	-43.7	18.3	0.00e+00	0	39	0	1191182336	56	7003
2026-01-07 20:44:05.28	324.02	3.55	-42.1	-43.8	18.2	0.00e+00	66	39	0	1193279488	56	7059
2026-01-07 20:44:06.29	323.93	3.49	-42.3	-44.2	17.9	0.00e+00	0	38	0	1195376640	56	7352
2026-01-07 20:44:07.30	323.84	3.44	-42.4	-44.3	17.8	0.00e+00	84	38	0	1196425216	56	7432
2026-01-07 20:44:08.31	323.75	3.39	-42.5	-44.4	17.7	0.00e+00	0	38	0	1198522368	56	7571
2026-01-07 20:44:09.32	323.66	3.34	-42.5	-44.4	17.5	0.00e+00	0	38	0	1200619520	56	7591
2026-01-07 20:44:10.33	323.57	3.28	-42.3	-44.2	17.8	0.00e+00	0	38	0	1202716672	56	7352
