passes_logs/2026/01/07/R4.6S_Anadyr/R4.6S_Anadyr__20260107_114411_NOAA_21_JPSS-2_rec.log

#Pass ID: 20260107_114411_NOAA 21 (JPSS-2)
#Satellite: NOAA 21 (JPSS-2)
#Configuration: NOAA-21
#almurnet v.1.7.20251203
#Start time: 2026-01-07 11:44:13

#Version: 2.2.20231116
#Station: R4.6S_Anadyr
#Location: 177.4865 lon 64.73178 lat
#TLE: 1 54234U 22150A   26005.42670836  .00000142  00000+0  88292-4 0  9996
#TLE: 2 54234  98.7490 306.4427 0001045 340.6622  19.4514 14.19532269163451

#Time	Az	El	Level	Level2	SNR	BER	BlckErr	Temp	State	Recorded	gain1	gain2
2026-01-07 11:44:13.20	20.17	0.06	-49.0	-59.7	3.5	8.45e-01	0	34	0	0	60	35016
2026-01-07 11:44:14.21	20.26	0.10	-49.2	-62.0	3.5	1.52e+00	0	35	104	0	60	44375
2026-01-07 11:44:15.22	20.36	0.14	-49.2	-62.0	3.5	1.52e+00	0	35	104	0	60	44354
2026-01-07 11:44:16.23	20.45	0.18	-49.2	-62.1	3.5	1.52e+00	0	36	104	0	60	44785
2026-01-07 11:44:17.24	20.54	0.23	-49.2	-62.1	3.5	1.52e+00	0	36	104	0	60	44619
2026-01-07 11:44:18.24	20.63	0.27	-49.2	-62.1	3.5	1.52e+00	0	36	104	0	60	44595
2026-01-07 11:44:19.25	20.73	0.31	-49.2	-62.1	3.5	1.52e+00	0	36	104	0	60	44498
2026-01-07 11:44:20.26	20.82	0.35	-49.2	-62.1	3.5	1.52e+00	0	36	104	0	60	44863
2026-01-07 11:44:21.27	20.91	0.40	-49.2	-62.1	3.5	1.52e+00	0	36	104	0	60	44760
2026-01-07 11:44:22.28	21.01	0.44	-49.2	-62.0	3.5	1.52e+00	0	36	104	0	60	44262
2026-01-07 11:44:23.29	21.10	0.48	-49.1	-62.0	3.5	1.52e+00	0	36	104	0	60	44013
2026-01-07 11:44:24.30	21.20	0.52	-49.0	-61.9	3.5	1.52e+00	0	36	104	0	60	43780
2026-01-07 11:44:25.31	21.29	0.56	-49.0	-61.8	3.5	1.52e+00	0	36	104	0	60	43198
2026-01-07 11:44:26.32	21.39	0.61	-48.8	-61.6	3.5	1.51e+00	0	36	104	0	60	42217
2026-01-07 11:44:27.33	21.48	0.65	-48.7	-61.6	3.5	1.52e+00	0	36	104	0	60	41977
2026-01-07 11:44:28.34	21.58	0.69	-48.5	-61.4	3.5	1.51e+00	0	36	104	0	60	41044
2026-01-07 11:44:29.35	21.67	0.73	-48.2	-61.0	3.5	1.52e+00	0	36	104	0	60	39194
2026-01-07 11:44:30.36	21.77	0.78	-47.6	-60.5	3.5	1.52e+00	0	36	104	0	60	37010
2026-01-07 11:44:31.37	21.86	0.82	-47.6	-60.4	3.5	1.51e+00	0	36	104	0	60	36751
2026-01-07 11:44:32.38	21.96	0.86	-47.6	-60.4	3.5	1.51e+00	0	36	104	0	60	36736
2026-01-07 11:44:33.39	22.06	0.90	-47.6	-60.4	3.5	1.52e+00	0	36	104	0	60	36811
2026-01-07 11:44:34.40	22.16	0.94	-47.6	-60.4	3.5	1.52e+00	0	36	104	0	60	36691
2026-01-07 11:44:35.41	22.25	0.99	-47.6	-60.4	3.5	1.52e+00	0	36	104	0	60	36740
2026-01-07 11:44:36.42	22.35	1.03	-47.6	-60.5	3.5	1.52e+00	0	36	104	0	60	37098
2026-01-07 11:44:37.43	22.45	1.07	-47.6	-60.5	3.5	1.52e+00	0	36	104	0	60	37193
2026-01-07 11:44:38.43	22.54	1.11	-47.6	-60.4	3.5	1.52e+00	0	36	104	0	60	36954
2026-01-07 11:44:39.44	22.64	1.16	-47.6	-60.4	3.5	1.52e+00	0	36	104	0	60	36770
2026-01-07 11:44:40.45	22.74	1.20	-47.6	-60.4	3.5	1.52e+00	0	36	104	0	60	36846
2026-01-07 11:44:41.46	22.84	1.24	-47.6	-60.4	3.5	1.51e+00	0	36	104	0	60	36922
2026-01-07 11:44:42.48	22.94	1.28	-47.6	-60.4	3.5	1.52e+00	0	36	104	0	60	36808
2026-01-07 11:44:43.48	23.04	1.32	-47.6	-60.4	3.5	1.52e+00	0	36	104	0	60	36887
2026-01-07 11:44:44.49	23.14	1.37	-47.6	-60.4	3.5	1.52e+00	0	36	104	0	60	36792
2026-01-07 11:44:45.50	23.24	1.41	-47.6	-60.4	3.5	1.52e+00	0	36	104	0	60	36838
2026-01-07 11:44:46.51	23.34	1.45	-47.6	-60.4	3.5	1.51e+00	0	36	104	0	60	36939
2026-01-07 11:44:47.52	23.44	1.49	-47.6	-60.4	3.5	1.52e+00	0	36	104	0	60	36961
2026-01-07 11:44:48.53	23.54	1.54	-47.6	-60.4	3.5	1.52e+00	0	36	104	0	60	36881
2026-01-07 11:44:49.54	23.64	1.58	-47.6	-60.4	3.5	1.52e+00	0	36	104	0	60	36796
2026-01-07 11:44:50.55	23.74	1.62	-47.6	-60.4	3.5	1.51e+00	0	36	104	0	60	36650
2026-01-07 11:44:51.56	23.84	1.66	-47.6	-60.4	3.5	1.52e+00	0	36	104	0	60	36875
2026-01-07 11:44:52.57	23.94	1.70	-47.6	-60.4	3.5	1.52e+00	0	36	104	0	60	36871
2026-01-07 11:44:53.58	24.05	1.75	-47.6	-60.4	3.5	1.51e+00	0	36	104	0	60	36888
2026-01-07 11:44:54.59	24.15	1.79	-47.6	-60.4	3.5	1.51e+00	0	36	104	0	60	36759
2026-01-07 11:44:55.60	24.25	1.83	-47.6	-60.4	3.5	1.52e+00	0	36	104	0	60	36693
2026-01-07 11:44:56.61	24.35	1.87	-47.6	-60.4	3.5	1.52e+00	0	36	104	0	60	36954
2026-01-07 11:44:57.62	24.46	1.91	-47.6	-60.4	3.5	1.51e+00	0	36	104	0	60	36860
2026-01-07 11:44:58.63	24.56	1.96	-47.6	-60.4	3.5	1.52e+00	0	36	104	0	60	36838
2026-01-07 11:44:59.64	24.66	2.00	-47.6	-60.4	3.5	1.52e+00	0	36	104	0	60	36954
2026-01-07 11:45:00.65	24.77	2.04	-47.6	-60.4	3.5	1.52e+00	0	36	104	0	60	36949
2026-01-07 11:45:01.66	24.87	2.08	-47.6	-60.4	3.5	1.52e+00	0	36	104	0	60	36712
2026-01-07 11:45:02.67	24.98	2.13	-47.6	-60.3	3.5	1.51e+00	0	36	104	0	60	36349
2026-01-07 11:45:03.68	25.08	2.17	-47.6	-60.3	3.5	1.52e+00	0	36	104	0	60	36252
2026-01-07 11:45:04.69	25.19	2.21	-47.6	-60.3	3.5	1.52e+00	0	37	104	0	60	36393
2026-01-07 11:45:05.69	25.29	2.25	-47.6	-60.4	3.5	1.52e+00	0	36	104	0	60	36796
2026-01-07 11:45:06.71	25.40	2.29	-47.6	-60.4	3.5	1.51e+00	0	36	104	0	60	36659
2026-01-07 11:45:07.72	25.50	2.34	-47.6	-60.4	3.5	1.52e+00	0	36	104	0	60	36699
2026-01-07 11:45:08.73	25.61	2.38	-47.6	-60.4	3.5	1.52e+00	0	36	104	0	60	36956
2026-01-07 11:45:09.73	25.72	2.42	-47.6	-60.3	3.5	1.51e+00	0	36	104	0	60	36493
2026-01-07 11:45:10.74	25.82	2.46	-47.6	-59.8	3.5	1.52e+00	0	37	104	0	60	34201
2026-01-07 11:45:11.75	25.93	2.50	-47.5	-59.2	3.5	1.51e+00	0	36	104	0	60	31910
2026-01-07 11:45:12.76	26.04	2.54	-47.5	-59.4	3.5	1.51e+00	0	37	104	0	60	32758
2026-01-07 11:45:13.77	26.15	2.59	-47.5	-59.5	3.5	1.52e+00	0	36	104	0	60	33251
2026-01-07 11:45:14.78	26.25	2.63	-47.0	-55.5	3.8	1.50e+00	0	37	104	0	60	20990
2026-01-07 11:45:15.79	26.36	2.67	-45.4	-49.5	10.1	3.05e-02	0	37	0	0	60	10447
2026-01-07 11:45:16.80	26.47	2.71	-43.4	-45.8	13.9	1.90e-05	0	36	0	3145728	60	6871
2026-01-07 11:45:17.81	26.58	2.75	-41.7	-43.6	16.2	0.00e+00	0	36	0	6291456	58	5928
2026-01-07 11:45:18.82	26.69	2.80	-40.2	-41.7	18.0	0.00e+00	0	37	0	9437184	54	6025
2026-01-07 11:45:19.83	26.80	2.84	-39.6	-41.0	18.5	0.00e+00	0	37	0	12582912	52	6250
2026-01-07 11:45:20.84	26.91	2.88	-40.0	-41.5	17.9	0.00e+00	0	37	0	15728640	52	6627
2026-01-07 11:45:21.85	27.02	2.92	-41.0	-42.7	16.8	0.00e+00	0	36	0	18874368	54	6727
2026-01-07 11:45:22.86	27.13	2.96	-43.0	-45.4	13.9	7.00e-07	0	37	0	22020096	58	7345
2026-01-07 11:45:23.87	27.24	3.01	-45.5	-49.7	9.5	3.46e-03	0	37	0	25165824	60	10753
2026-01-07 11:45:24.88	27.35	3.05	-39.3	-40.6	19.1	0.00e+00	0	37	0	28311552	52	5984
2026-01-07 11:45:25.88	27.46	3.09	-39.4	-40.7	18.7	0.00e+00	0	37	0	31457280	52	6063
2026-01-07 11:45:26.89	27.57	3.13	-47.5	-59.6	3.5	5.94e-01	0	37	104	33554432	60	33339
2026-01-07 11:45:27.90	27.68	3.17	-47.3	-58.0	3.8	1.51e+00	0	37	104	33554432	60	27898
2026-01-07 11:45:28.91	27.80	3.21	-41.1	-42.7	15.5	0.00e+00	0	37	0	34603008	50	8566
2026-01-07 11:45:29.92	27.91	3.25	-39.7	-41.1	18.7	0.00e+00	0	37	0	37748736	54	5634
2026-01-07 11:45:30.93	28.02	3.30	-38.8	-40.1	19.6	0.00e+00	0	37	0	40894464	52	5629
2026-01-07 11:45:31.94	28.13	3.34	-39.1	-40.4	19.3	0.00e+00	0	37	0	44040192	52	5817
2026-01-07 11:45:32.95	28.25	3.38	-39.0	-40.3	19.5	0.00e+00	0	37	0	47185920	52	5746
2026-01-07 11:45:33.96	28.36	3.42	-39.0	-40.3	19.5	0.00e+00	0	37	0	50331648	52	5765
2026-01-07 11:45:34.97	28.47	3.46	-38.8	-40.1	19.4	0.00e+00	0	36	0	53477376	52	5596
2026-01-07 11:45:35.98	28.59	3.50	-39.2	-40.5	19.5	0.00e+00	0	37	0	56623104	52	5879
2026-01-07 11:45:36.99	28.70	3.55	-38.8	-40.0	19.6	0.00e+00	0	37	0	59768832	50	6248
2026-01-07 11:45:38.00	28.82	3.59	-38.7	-39.9	19.8	0.00e+00	0	37	0	62914560	50	6181
2026-01-07 11:45:39.00	28.93	3.63	-38.6	-39.9	19.9	0.00e+00	0	37	0	66060288	50	6146
2026-01-07 11:45:40.01	29.05	3.67	-38.6	-39.9	19.8	0.00e+00	0	37	0	69206016	50	6138
2026-01-07 11:45:41.02	29.16	3.71	-38.4	-39.6	20.0	0.00e+00	0	37	0	72351744	50	5984
2026-01-07 11:45:42.03	29.28	3.75	-38.5	-39.7	20.0	0.00e+00	0	37	0	75497472	50	6019
2026-01-07 11:45:43.04	29.40	3.79	-38.6	-39.8	20.0	0.00e+00	0	37	0	78643200	50	6096
2026-01-07 11:45:44.05	29.51	3.83	-38.5	-39.7	20.1	0.00e+00	0	37	0	81788928	50	6007
2026-01-07 11:45:45.06	29.63	3.88	-38.4	-39.7	20.1	0.00e+00	0	37	0	84934656	50	6002
2026-01-07 11:45:46.07	29.75	3.92	-38.5	-39.7	20.1	0.00e+00	0	37	0	88080384	50	6053
2026-01-07 11:45:47.08	29.87	3.96	-38.5	-39.7	20.0	0.00e+00	0	37	0	91226112	50	6044
2026-01-07 11:45:48.09	29.98	4.00	-38.3	-39.5	20.2	0.00e+00	0	37	0	94371840	50	5888
2026-01-07 11:45:49.10	30.10	4.04	-38.5	-39.6	20.1	0.00e+00	0	37	0	97517568	50	5991
2026-01-07 11:45:50.11	30.22	4.08	-38.4	-39.6	20.2	0.00e+00	0	37	0	100663296	50	5929
2026-01-07 11:45:51.12	30.34	4.12	-38.3	-39.4	20.2	0.00e+00	0	37	0	103809024	50	5855
2026-01-07 11:45:52.13	30.46	4.16	-38.2	-39.4	20.3	0.00e+00	0	37	0	106954752	50	5842
2026-01-07 11:45:53.14	30.58	4.20	-38.2	-39.4	20.3	0.00e+00	0	37	0	110100480	50	5823
2026-01-07 11:45:54.15	30.70	4.24	-38.2	-39.3	20.4	0.00e+00	0	37	0	113246208	50	5785
2026-01-07 11:45:55.16	30.82	4.29	-38.1	-39.3	20.4	0.00e+00	0	37	0	116391936	50	5758
2026-01-07 11:45:56.17	30.94	4.33	-38.2	-39.4	20.3	0.00e+00	0	37	0	119537664	50	5831
2026-01-07 11:45:57.18	31.06	4.37	-38.1	-39.3	20.5	0.00e+00	0	37	0	122683392	50	5739
2026-01-07 11:45:58.19	31.18	4.41	-38.2	-39.3	20.5	0.00e+00	0	37	0	125829120	50	5778
2026-01-07 11:45:59.19	31.30	4.45	-38.1	-39.2	20.6	0.00e+00	0	37	0	128974848	50	5698
2026-01-07 11:46:00.20	31.42	4.49	-38.1	-39.3	20.5	0.00e+00	0	37	0	132120576	50	5769
2026-01-07 11:46:01.20	31.54	4.53	-38.4	-39.5	20.4	0.00e+00	0	37	0	135266304	50	5913
2026-01-07 11:46:02.21	31.67	4.57	-38.1	-39.2	20.6	0.00e+00	0	37	0	138412032	50	5722
2026-01-07 11:46:03.22	31.79	4.61	-38.1	-39.2	20.6	0.00e+00	0	37	0	141557760	50	5699
2026-01-07 11:46:04.23	31.91	4.65	-38.2	-39.4	20.5	0.00e+00	0	37	0	144703488	50	5813
2026-01-07 11:46:05.24	32.04	4.69	-38.0	-39.2	20.7	0.00e+00	0	37	0	147849216	50	5664
2026-01-07 11:46:06.24	32.16	4.73	-38.1	-39.2	20.6	0.00e+00	0	37	0	150994944	50	5700
2026-01-07 11:46:07.26	32.28	4.77	-37.9	-39.1	20.8	0.00e+00	0	37	0	154140672	50	5612
2026-01-07 11:46:08.26	32.41	4.81	-37.8	-38.9	20.9	0.00e+00	0	37	0	157286400	50	5509
2026-01-07 11:46:09.27	32.53	4.85	-37.9	-39.1	20.8	0.00e+00	0	37	0	160432128	50	5596
2026-01-07 11:46:10.28	32.66	4.89	-37.9	-39.1	20.7	0.00e+00	0	37	0	163577856	50	5615
2026-01-07 11:46:11.30	32.78	4.93	-38.1	-39.2	20.7	0.00e+00	0	37	0	166723584	50	5707
2026-01-07 11:46:12.31	32.91	4.97	-37.7	-38.9	20.9	0.00e+00	0	37	0	169869312	50	5479
2026-01-07 11:46:13.31	33.04	5.01	-37.9	-39.0	20.8	0.00e+00	0	37	0	173015040	48	6242
2026-01-07 11:46:14.32	33.16	5.05	-37.9	-39.0	20.8	0.00e+00	0	37	0	176160768	48	6263
2026-01-07 11:46:15.33	33.29	5.09	-37.7	-38.9	20.9	0.00e+00	0	37	0	179306496	48	6140
2026-01-07 11:46:16.34	33.42	5.13	-37.7	-38.8	21.0	0.00e+00	0	37	0	182452224	48	6112
2026-01-07 11:46:17.35	33.54	5.17	-37.7	-38.8	21.1	0.00e+00	0	37	0	185597952	48	6091
2026-01-07 11:46:18.36	33.67	5.21	-37.8	-38.9	21.0	0.00e+00	0	37	0	188743680	48	6178
2026-01-07 11:46:19.37	33.80	5.25	-37.8	-38.9	21.0	0.00e+00	0	37	0	191889408	48	6152
2026-01-07 11:46:20.38	33.93	5.29	-37.6	-38.7	21.1	0.00e+00	0	37	0	195035136	48	6039
2026-01-07 11:46:21.39	34.06	5.33	-37.7	-38.8	21.1	0.00e+00	0	37	0	198180864	48	6094
2026-01-07 11:46:22.40	34.19	5.37	-37.6	-38.7	21.1	0.00e+00	0	37	0	201326592	48	6019
2026-01-07 11:46:23.41	34.31	5.41	-37.6	-38.7	21.1	0.00e+00	0	37	0	204472320	48	6063
2026-01-07 11:46:24.42	34.44	5.45	-37.7	-38.9	21.0	0.00e+00	0	37	0	207618048	48	6151
2026-01-07 11:46:25.43	34.57	5.49	-37.8	-39.0	21.0	0.00e+00	0	37	0	210763776	48	6208
2026-01-07 11:46:26.44	34.71	5.53	-37.7	-38.8	21.0	0.00e+00	0	37	0	213909504	48	6134
2026-01-07 11:46:27.45	34.84	5.57	-37.7	-38.8	21.1	0.00e+00	0	37	0	217055232	48	6078
2026-01-07 11:46:28.46	34.97	5.60	-37.6	-38.7	21.1	0.00e+00	0	37	0	220200960	48	6063
2026-01-07 11:46:29.47	35.10	5.64	-37.7	-38.8	21.0	0.00e+00	0	37	0	223346688	48	6098
2026-01-07 11:46:30.48	35.23	5.68	-37.7	-38.8	21.1	0.00e+00	0	37	0	226492416	48	6127
2026-01-07 11:46:31.49	35.36	5.72	-37.8	-39.0	20.9	0.00e+00	0	37	0	229638144	48	6210
2026-01-07 11:46:32.50	35.50	5.76	-37.7	-38.8	21.1	0.00e+00	0	37	0	232783872	48	6092
2026-01-07 11:46:33.51	35.63	5.80	-37.7	-38.8	21.0	0.00e+00	0	37	0	235929600	48	6121
2026-01-07 11:46:34.52	35.76	5.84	-37.6	-38.8	21.2	0.00e+00	0	37	0	239075328	48	6072
2026-01-07 11:46:35.53	35.89	5.88	-37.6	-38.7	21.2	0.00e+00	0	37	0	242221056	48	6020
2026-01-07 11:46:36.54	36.03	5.92	-37.6	-38.7	21.2	0.00e+00	0	37	0	245366784	48	6022
2026-01-07 11:46:37.55	36.16	5.95	-37.5	-38.6	21.3	0.00e+00	0	37	0	248512512	48	5951
2026-01-07 11:46:38.56	36.30	5.99	-37.5	-38.6	21.3	0.00e+00	0	37	0	251658240	48	5957
2026-01-07 11:46:39.57	36.43	6.03	-37.6	-38.7	21.3	0.00e+00	0	37	0	254803968	48	5995
2026-01-07 11:46:40.58	36.57	6.07	-37.5	-38.6	21.3	0.00e+00	0	37	0	257949696	48	5939
2026-01-07 11:46:41.58	36.70	6.11	-37.6	-38.7	21.2	0.00e+00	0	37	0	261095424	48	6019
2026-01-07 11:46:42.60	36.84	6.15	-37.6	-38.7	21.3	0.00e+00	0	37	0	264241152	48	6007
2026-01-07 11:46:43.61	36.97	6.18	-37.7	-38.8	21.1	0.00e+00	0	37	0	267386880	48	6106
2026-01-07 11:46:44.62	37.11	6.22	-37.6	-38.6	21.3	0.00e+00	0	37	0	270532608	48	5988
2026-01-07 11:46:45.63	37.25	6.26	-37.5	-38.6	21.4	0.00e+00	0	37	0	273678336	48	5984
2026-01-07 11:46:46.64	37.39	6.30	-37.6	-38.7	21.3	0.00e+00	0	37	0	276824064	48	6016
2026-01-07 11:46:47.65	37.52	6.33	-37.4	-38.5	21.5	0.00e+00	0	37	0	279969792	48	5872
2026-01-07 11:46:48.66	37.66	6.37	-37.3	-38.4	21.6	0.00e+00	0	37	0	283115520	48	5844
2026-01-07 11:46:49.66	37.80	6.41	-37.4	-38.4	21.5	0.00e+00	0	37	0	286261248	48	5852
2026-01-07 11:46:50.68	37.94	6.45	-37.4	-38.4	21.5	0.00e+00	0	37	0	289406976	48	5843
2026-01-07 11:46:51.69	38.08	6.49	-37.2	-38.3	21.7	0.00e+00	0	37	0	292552704	48	5730
2026-01-07 11:46:52.70	38.22	6.52	-37.2	-38.3	21.7	0.00e+00	0	37	0	295698432	48	5741
2026-01-07 11:46:53.71	38.36	6.56	-37.3	-38.3	21.6	0.00e+00	0	37	0	298844160	48	5779
2026-01-07 11:46:54.72	38.50	6.60	-37.3	-38.4	21.6	0.00e+00	0	37	0	301989888	48	5831
2026-01-07 11:46:55.73	38.64	6.63	-37.1	-38.2	21.8	0.00e+00	0	37	0	305135616	48	5681
2026-01-07 11:46:56.74	38.78	6.67	-37.1	-38.1	21.8	0.00e+00	0	37	0	308281344	48	5645
2026-01-07 11:46:57.75	38.92	6.71	-37.2	-38.2	21.7	0.00e+00	0	37	0	311427072	48	5703
2026-01-07 11:46:58.76	39.06	6.74	-37.2	-38.3	21.7	0.00e+00	0	37	0	314572800	48	5755
2026-01-07 11:46:59.77	39.20	6.78	-37.0	-38.0	21.9	0.00e+00	0	37	0	318767104	48	5591
2026-01-07 11:47:00.78	39.34	6.82	-37.1	-38.2	21.8	0.00e+00	0	37	0	321912832	48	5666
2026-01-07 11:47:01.79	39.49	6.85	-37.0	-38.0	21.9	0.00e+00	0	37	0	324009984	48	5594
2026-01-07 11:47:02.80	39.63	6.89	-37.0	-38.0	21.9	0.00e+00	0	37	0	327155712	48	5573
2026-01-07 11:47:03.81	39.77	6.93	-37.0	-38.1	21.9	0.00e+00	0	37	0	330301440	48	5596
2026-01-07 11:47:04.82	39.92	6.96	-37.0	-38.1	21.9	0.00e+00	0	37	0	334495744	48	5612
2026-01-07 11:47:05.83	40.06	7.00	-37.0	-38.1	21.9	0.00e+00	0	37	0	337641472	48	5618
2026-01-07 11:47:06.84	40.20	7.04	-37.1	-38.1	21.8	0.00e+00	0	37	0	340787200	48	5639
2026-01-07 11:47:07.85	40.35	7.07	-37.0	-38.0	22.0	0.00e+00	0	37	0	343932928	48	5558
2026-01-07 11:47:08.86	40.49	7.11	-36.9	-37.9	22.0	0.00e+00	0	37	0	347078656	48	5518
2026-01-07 11:47:09.87	40.64	7.14	-36.8	-37.8	22.1	0.00e+00	0	37	0	350224384	48	5461
2026-01-07 11:47:10.88	40.78	7.18	-36.9	-37.9	22.1	0.00e+00	0	37	0	353370112	48	5510
2026-01-07 11:47:11.89	40.93	7.21	-36.8	-37.8	22.1	0.00e+00	0	37	0	356515840	48	5457
2026-01-07 11:47:12.90	41.08	7.25	-36.8	-37.8	22.2	0.00e+00	0	37	0	359661568	46	6094
2026-01-07 11:47:13.91	41.22	7.28	-36.8	-37.8	22.2	0.00e+00	0	37	0	362807296	46	6085
2026-01-07 11:47:14.92	41.37	7.32	-36.9	-38.0	22.0	0.00e+00	0	37	0	365953024	46	6208
2026-01-07 11:47:15.92	41.52	7.35	-37.0	-38.0	21.9	0.00e+00	0	37	0	369098752	46	6250
2026-01-07 11:47:16.93	41.66	7.39	-37.0	-38.1	21.9	0.00e+00	0	37	0	372244480	46	6292
2026-01-07 11:47:17.94	41.81	7.42	-37.0	-38.1	21.9	0.00e+00	0	37	0	375390208	46	6319
2026-01-07 11:47:18.95	41.96	7.46	-37.1	-38.2	21.8	0.00e+00	0	37	0	378535936	46	6358
2026-01-07 11:47:19.96	42.11	7.49	-36.9	-37.9	22.1	0.00e+00	0	37	0	381681664	46	6194
2026-01-07 11:47:20.97	42.26	7.53	-37.0	-38.0	22.0	0.00e+00	0	37	0	384827392	46	6264
2026-01-07 11:47:21.98	42.41	7.56	-37.1	-38.1	22.0	0.00e+00	0	37	0	387973120	46	6326
2026-01-07 11:47:22.99	42.56	7.60	-37.0	-38.0	22.0	0.00e+00	0	37	0	391118848	46	6264
2026-01-07 11:47:24.00	42.71	7.63	-37.0	-38.0	22.0	0.00e+00	0	37	0	394264576	46	6248
2026-01-07 11:47:25.01	42.86	7.67	-36.9	-38.0	22.1	0.00e+00	0	37	0	397410304	46	6241
2026-01-07 11:47:26.02	43.01	7.70	-37.0	-38.0	22.1	0.00e+00	0	37	0	400556032	46	6252
2026-01-07 11:47:27.03	43.16	7.73	-36.9	-38.0	22.1	0.00e+00	0	37	0	403701760	46	6226
2026-01-07 11:47:28.04	43.31	7.77	-36.9	-38.0	22.1	0.00e+00	0	37	0	406847488	46	6220
2026-01-07 11:47:29.05	43.46	7.80	-36.8	-37.9	22.2	0.00e+00	0	37	0	409993216	46	6145
2026-01-07 11:47:30.06	43.61	7.83	-36.7	-37.8	22.2	0.00e+00	0	37	0	413138944	46	6086
2026-01-07 11:47:31.07	43.77	7.87	-36.8	-37.8	22.2	0.00e+00	0	37	0	416284672	46	6125
2026-01-07 11:47:32.08	43.92	7.90	-36.9	-37.9	22.1	0.00e+00	0	37	0	419430400	46	6164
2026-01-07 11:47:33.09	44.07	7.93	-36.7	-37.7	22.3	0.00e+00	0	37	0	422576128	46	6058
2026-01-07 11:47:34.10	44.22	7.97	-36.8	-37.8	22.2	0.00e+00	0	37	0	425721856	46	6094
2026-01-07 11:47:35.11	44.38	8.00	-36.7	-37.7	22.3	0.00e+00	0	37	0	428867584	46	6034
2026-01-07 11:47:36.12	44.53	8.03	-36.7	-37.7	22.3	0.00e+00	0	37	0	432013312	46	6060
2026-01-07 11:47:37.13	44.69	8.06	-36.8	-37.8	22.2	0.00e+00	0	37	0	435159040	46	6078
2026-01-07 11:47:38.14	44.84	8.10	-36.9	-37.9	22.2	0.00e+00	0	37	0	438304768	46	6163
2026-01-07 11:47:39.15	45.00	8.13	-36.8	-37.8	22.2	0.00e+00	0	37	0	441450496	46	6122
2026-01-07 11:47:40.16	45.15	8.16	-36.9	-38.0	22.1	0.00e+00	0	37	0	444596224	46	6212
2026-01-07 11:47:41.17	45.31	8.19	-36.8	-37.9	22.2	0.00e+00	0	37	0	447741952	46	6142
2026-01-07 11:47:42.18	45.46	8.22	-36.8	-37.8	22.2	0.00e+00	0	37	0	450887680	46	6107
2026-01-07 11:47:43.19	45.62	8.26	-36.8	-37.8	22.2	0.00e+00	0	37	0	454033408	46	6089
2026-01-07 11:47:44.20	45.78	8.29	-36.6	-37.7	22.3	0.00e+00	0	37	0	457179136	46	6001
2026-01-07 11:47:45.21	45.93	8.32	-36.8	-37.8	22.3	0.00e+00	0	37	0	460324864	46	6075
2026-01-07 11:47:46.22	46.09	8.35	-36.8	-37.9	22.3	0.00e+00	0	37	0	463470592	46	6142
2026-01-07 11:47:47.23	46.25	8.38	-36.9	-37.9	22.2	0.00e+00	0	37	0	466616320	46	6160
2026-01-07 11:47:48.24	46.41	8.41	-36.9	-38.0	22.1	0.00e+00	0	37	0	469762048	46	6220
2026-01-07 11:47:49.24	46.56	8.44	-36.7	-37.8	22.3	0.00e+00	0	37	0	472907776	46	6071
2026-01-07 11:47:50.25	46.72	8.47	-36.9	-37.9	22.2	0.00e+00	0	37	0	476053504	46	6142
2026-01-07 11:47:51.26	46.88	8.50	-36.9	-37.9	22.1	0.00e+00	0	37	0	479199232	46	6194
2026-01-07 11:47:52.27	47.04	8.54	-36.9	-38.0	22.1	0.00e+00	0	37	0	482344960	46	6227
2026-01-07 11:47:53.28	47.20	8.57	-36.9	-37.9	22.1	0.00e+00	0	37	0	485490688	46	6200
2026-01-07 11:47:54.29	47.36	8.60	-37.0	-38.0	22.1	0.00e+00	0	37	0	488636416	46	6241
2026-01-07 11:47:55.30	47.52	8.63	-37.0	-38.0	22.1	0.00e+00	0	37	0	491782144	46	6241
2026-01-07 11:47:56.31	47.68	8.66	-37.0	-38.0	22.1	0.00e+00	0	37	0	494927872	46	6261
2026-01-07 11:47:57.32	47.84	8.68	-36.8	-37.8	22.3	0.00e+00	0	37	0	498073600	46	6094
2026-01-07 11:47:58.32	48.00	8.71	-36.8	-37.8	22.3	0.00e+00	0	37	0	501219328	46	6128
2026-01-07 11:47:59.33	48.16	8.74	-36.6	-37.6	22.4	0.00e+00	0	37	0	504365056	46	5986
2026-01-07 11:48:00.34	48.32	8.77	-36.6	-37.6	22.4	0.00e+00	0	37	0	507510784	46	5981
2026-01-07 11:48:01.35	48.49	8.80	-36.6	-37.6	22.5	0.00e+00	0	37	0	510656512	46	5994
2026-01-07 11:48:02.36	48.65	8.83	-36.5	-37.5	22.5	0.00e+00	0	37	0	513802240	46	5894
2026-01-07 11:48:03.37	48.81	8.86	-36.6	-37.6	22.5	0.00e+00	0	37	0	516947968	46	5955
2026-01-07 11:48:04.38	48.97	8.89	-36.7	-37.7	22.4	0.00e+00	0	37	0	520093696	46	6003
2026-01-07 11:48:05.39	49.14	8.92	-36.6	-37.6	22.5	0.00e+00	0	37	0	523239424	46	5955
2026-01-07 11:48:06.40	49.30	8.94	-36.5	-37.5	22.6	0.00e+00	0	37	0	526385152	46	5891
2026-01-07 11:48:07.40	49.46	8.97	-36.6	-37.6	22.5	0.00e+00	0	37	0	529530880	46	5938
2026-01-07 11:48:08.41	49.63	9.00	-36.4	-37.4	22.7	0.00e+00	0	37	0	532676608	46	5837
2026-01-07 11:48:09.42	49.79	9.03	-36.6	-37.5	22.5	0.00e+00	0	37	0	535822336	46	5925
2026-01-07 11:48:10.43	49.96	9.05	-36.7	-37.7	22.4	0.00e+00	0	37	0	538968064	46	6002
2026-01-07 11:48:11.44	50.12	9.08	-36.5	-37.5	22.5	0.00e+00	0	37	0	542113792	46	5907
2026-01-07 11:48:12.45	50.29	9.11	-36.5	-37.5	22.6	0.00e+00	0	37	0	545259520	46	5902
2026-01-07 11:48:13.46	50.45	9.14	-36.6	-37.6	22.4	0.00e+00	0	37	0	548405248	46	5986
2026-01-07 11:48:14.47	50.62	9.16	-36.5	-37.5	22.5	0.00e+00	0	37	0	551550976	46	5906
2026-01-07 11:48:15.47	50.79	9.19	-36.5	-37.5	22.5	0.00e+00	0	37	0	554696704	46	5913
2026-01-07 11:48:16.49	50.95	9.22	-36.6	-37.6	22.5	0.00e+00	0	37	0	557842432	46	5947
2026-01-07 11:48:17.50	51.12	9.24	-36.5	-37.5	22.6	0.00e+00	0	37	0	560988160	46	5906
2026-01-07 11:48:18.51	51.29	9.27	-36.5	-37.5	22.5	0.00e+00	0	37	0	564133888	46	5882
2026-01-07 11:48:19.51	51.45	9.29	-36.5	-37.5	22.5	0.00e+00	0	37	0	567279616	46	5923
2026-01-07 11:48:20.53	51.62	9.32	-36.5	-37.5	22.5	0.00e+00	0	37	0	570425344	46	5910
2026-01-07 11:48:21.54	51.79	9.34	-36.5	-37.5	22.5	0.00e+00	0	37	0	573571072	46	5901
2026-01-07 11:48:22.55	51.96	9.37	-36.5	-37.5	22.6	0.00e+00	0	37	0	576716800	46	5885
2026-01-07 11:48:23.56	52.13	9.39	-36.5	-37.5	22.6	0.00e+00	0	37	0	579862528	46	5916
2026-01-07 11:48:24.56	52.30	9.42	-36.5	-37.5	22.6	0.00e+00	0	37	0	583008256	46	5872
2026-01-07 11:48:25.57	52.47	9.44	-36.6	-37.5	22.7	0.00e+00	0	37	0	586153984	46	5926
2026-01-07 11:48:26.58	52.64	9.47	-36.4	-37.4	22.6	0.00e+00	0	37	0	589299712	46	5830
2026-01-07 11:48:27.60	52.81	9.49	-36.4	-37.4	22.7	0.00e+00	0	37	0	592445440	46	5822
2026-01-07 11:48:28.60	52.98	9.52	-36.5	-37.5	22.6	0.00e+00	0	37	0	595591168	46	5892
2026-01-07 11:48:29.61	53.15	9.54	-36.5	-37.5	22.6	0.00e+00	0	37	0	598736896	46	5912
2026-01-07 11:48:30.62	53.32	9.56	-36.5	-37.5	22.5	0.00e+00	0	37	0	601882624	46	5920
2026-01-07 11:48:31.63	53.49	9.59	-36.6	-37.6	22.5	0.00e+00	0	37	0	605028352	46	5945
2026-01-07 11:48:32.64	53.66	9.61	-36.7	-37.7	22.4	0.00e+00	0	37	0	608174080	46	6055
2026-01-07 11:48:33.65	53.83	9.63	-36.7	-37.7	22.4	0.00e+00	0	37	0	611319808	46	6038
2026-01-07 11:48:34.66	54.00	9.66	-36.8	-37.9	22.3	0.00e+00	0	37	0	614465536	46	6148
2026-01-07 11:48:35.67	54.17	9.68	-36.8	-37.9	22.3	0.00e+00	0	37	0	617611264	46	6144
2026-01-07 11:48:36.67	54.34	9.70	-36.6	-37.7	22.4	0.00e+00	0	37	0	620756992	46	5995
2026-01-07 11:48:37.69	54.52	9.73	-36.6	-37.6	22.5	0.00e+00	0	37	0	623902720	46	5985
2026-01-07 11:48:38.70	54.69	9.75	-36.4	-37.4	22.7	0.00e+00	0	37	0	627048448	46	5835
2026-01-07 11:48:39.70	54.86	9.77	-36.5	-37.4	22.6	0.00e+00	0	37	0	630194176	46	5853
2026-01-07 11:48:40.71	55.04	9.79	-36.6	-37.6	22.6	0.00e+00	0	37	0	633339904	46	5940
2026-01-07 11:48:41.72	55.21	9.81	-36.4	-37.4	22.6	0.00e+00	0	37	0	636485632	46	5835
2026-01-07 11:48:42.73	55.38	9.83	-36.3	-37.3	22.8	0.00e+00	0	37	0	639631360	46	5742
2026-01-07 11:48:43.74	55.56	9.85	-36.4	-37.4	22.7	0.00e+00	0	37	0	642777088	46	5830
2026-01-07 11:48:44.75	55.73	9.88	-36.5	-37.5	22.6	0.00e+00	0	37	0	645922816	46	5877
2026-01-07 11:48:45.76	55.91	9.90	-36.5	-37.5	22.6	0.00e+00	0	37	0	649068544	46	5887
2026-01-07 11:48:46.77	56.08	9.92	-36.6	-37.6	22.5	0.00e+00	0	37	0	652214272	46	5985
2026-01-07 11:48:47.78	56.26	9.94	-36.6	-37.6	22.5	0.00e+00	0	37	0	655360000	46	5976
2026-01-07 11:48:48.79	56.43	9.96	-36.6	-37.6	22.5	0.00e+00	0	37	0	658505728	46	5974
2026-01-07 11:48:49.80	56.61	9.98	-36.6	-37.6	22.5	0.00e+00	0	37	0	661651456	46	5977
2026-01-07 11:48:50.81	56.78	10.00	-36.7	-37.7	22.5	0.00e+00	0	37	0	664797184	46	6016
2026-01-07 11:48:51.82	56.96	10.02	-36.6	-37.6	22.5	0.00e+00	0	37	0	667942912	46	5968
2026-01-07 11:48:52.83	57.13	10.03	-36.6	-37.6	22.5	0.00e+00	0	37	0	671088640	46	5962
2026-01-07 11:48:53.84	57.31	10.05	-36.5	-37.6	22.6	0.00e+00	0	37	0	674234368	46	5930
2026-01-07 11:48:54.85	57.49	10.07	-36.4	-37.4	22.6	0.00e+00	0	37	0	677380096	46	5837
2026-01-07 11:48:55.86	57.66	10.09	-36.5	-37.5	22.5	0.00e+00	0	37	0	680525824	46	5880
2026-01-07 11:48:56.86	57.84	10.11	-36.5	-37.5	22.5	0.00e+00	0	37	0	683671552	46	5907
2026-01-07 11:48:57.87	58.02	10.13	-36.5	-37.6	22.5	0.00e+00	0	37	0	687865856	46	5939
2026-01-07 11:48:58.88	58.19	10.14	-36.6	-37.6	22.5	0.00e+00	0	37	0	689963008	46	5959
2026-01-07 11:48:59.89	58.37	10.16	-36.5	-37.5	22.5	0.00e+00	0	37	0	693108736	46	5919
2026-01-07 11:49:00.90	58.55	10.18	-36.4	-37.4	22.6	0.00e+00	0	37	0	696254464	46	5854
2026-01-07 11:49:01.91	58.73	10.20	-36.4	-37.4	22.6	0.00e+00	0	37	0	699400192	46	5801
2026-01-07 11:49:02.92	58.91	10.21	-36.3	-37.3	22.8	0.00e+00	0	37	0	703594496	46	5769
2026-01-07 11:49:03.93	59.08	10.23	-36.4	-37.4	22.7	0.00e+00	0	37	0	706740224	46	5793
2026-01-07 11:49:04.94	59.26	10.25	-36.3	-37.2	22.8	0.00e+00	0	37	0	709885952	46	5702
2026-01-07 11:49:05.95	59.44	10.26	-36.3	-37.3	22.8	0.00e+00	0	37	0	711983104	46	5749
2026-01-07 11:49:06.96	59.62	10.28	-36.2	-37.2	22.9	0.00e+00	0	37	0	716177408	46	5681
2026-01-07 11:49:07.97	59.80	10.29	-36.3	-37.3	22.8	0.00e+00	0	37	0	719323136	46	5761
2026-01-07 11:49:08.98	59.98	10.31	-36.2	-37.2	22.9	0.00e+00	0	37	0	722468864	46	5711
2026-01-07 11:49:09.99	60.16	10.32	-36.3	-37.3	22.7	0.00e+00	0	37	0	725614592	46	5741
2026-01-07 11:49:11.00	60.34	10.34	-36.4	-37.4	22.8	0.00e+00	0	37	0	728760320	46	5802
2026-01-07 11:49:12.01	60.52	10.35	-36.4	-37.5	22.6	0.00e+00	0	37	0	731906048	46	5865
2026-01-07 11:49:13.02	60.70	10.37	-36.4	-37.4	22.7	0.00e+00	0	37	0	735051776	46	5795
2026-01-07 11:49:14.03	60.88	10.38	-36.4	-37.4	22.7	0.00e+00	0	37	0	738197504	46	5839
2026-01-07 11:49:15.04	61.06	10.40	-36.4	-37.4	22.7	0.00e+00	0	37	0	741343232	46	5844
2026-01-07 11:49:16.05	61.24	10.41	-36.4	-37.4	22.7	0.00e+00	0	37	0	744488960	46	5796
2026-01-07 11:49:17.06	61.42	10.42	-36.4	-37.4	22.7	0.00e+00	0	37	0	747634688	46	5801
2026-01-07 11:49:18.07	61.60	10.44	-36.2	-37.2	22.9	0.00e+00	0	37	0	750780416	46	5668
2026-01-07 11:49:19.08	61.78	10.45	-36.2	-37.2	22.8	0.00e+00	0	37	0	753926144	46	5710
2026-01-07 11:49:20.09	61.97	10.46	-36.3	-37.2	22.8	0.00e+00	0	37	0	757071872	46	5722
2026-01-07 11:49:21.10	62.15	10.48	-36.4	-37.4	22.6	0.00e+00	0	37	0	760217600	46	5850
2026-01-07 11:49:22.11	62.33	10.49	-36.4	-37.4	22.7	0.00e+00	0	37	0	763363328	46	5800
2026-01-07 11:49:23.12	62.51	10.50	-36.5	-37.5	22.5	0.00e+00	0	37	0	766509056	46	5916
2026-01-07 11:49:24.13	62.69	10.51	-36.6	-37.5	22.5	0.00e+00	0	37	0	769654784	46	5921
2026-01-07 11:49:25.14	62.87	10.52	-36.6	-37.6	22.6	0.00e+00	0	37	0	772800512	46	5971
2026-01-07 11:49:26.14	63.06	10.54	-36.6	-37.6	22.6	0.00e+00	0	37	0	775946240	46	5936
2026-01-07 11:49:27.15	63.24	10.55	-36.5	-37.5	22.6	0.00e+00	0	37	0	779091968	46	5865
2026-01-07 11:49:28.16	63.42	10.56	-36.4	-37.4	22.7	0.00e+00	0	37	0	782237696	46	5824
2026-01-07 11:49:29.17	63.60	10.57	-36.1	-37.1	23.0	0.00e+00	0	37	0	785383424	46	5635
2026-01-07 11:49:30.18	63.79	10.58	-36.1	-37.1	23.0	0.00e+00	0	37	0	788529152	46	5607
2026-01-07 11:49:31.19	63.97	10.59	-36.0	-37.0	23.0	0.00e+00	0	37	0	791674880	46	5565
2026-01-07 11:49:32.20	64.15	10.60	-35.9	-36.9	23.1	0.00e+00	0	37	0	794820608	46	5504
2026-01-07 11:49:33.21	64.33	10.61	-36.0	-37.0	23.0	0.00e+00	0	37	0	797966336	46	5552
2026-01-07 11:49:34.22	64.52	10.62	-36.1	-37.1	22.9	0.00e+00	0	37	0	801112064	46	5608
2026-01-07 11:49:35.23	64.70	10.63	-36.0	-37.0	23.0	0.00e+00	0	37	0	804257792	46	5553
2026-01-07 11:49:36.24	64.88	10.63	-36.0	-37.0	23.1	0.00e+00	0	37	0	807403520	46	5542
2026-01-07 11:49:37.25	65.07	10.64	-36.1	-37.0	22.9	0.00e+00	0	37	0	810549248	46	5592
2026-01-07 11:49:38.26	65.25	10.65	-36.1	-37.0	23.0	0.00e+00	0	37	0	813694976	46	5593
2026-01-07 11:49:39.27	65.44	10.66	-36.0	-37.0	23.0	0.00e+00	0	37	0	816840704	46	5562
2026-01-07 11:49:40.28	65.62	10.67	-36.1	-37.1	23.0	0.00e+00	0	37	0	819986432	46	5598
2026-01-07 11:49:41.29	65.80	10.67	-35.9	-36.9	23.1	0.00e+00	0	37	0	823132160	46	5468
2026-01-07 11:49:42.30	65.99	10.68	-36.0	-37.0	22.9	0.00e+00	0	37	0	826277888	46	5564
2026-01-07 11:49:43.31	66.17	10.69	-36.0	-37.0	22.9	0.00e+00	0	37	0	829423616	46	5534
2026-01-07 11:49:44.32	66.36	10.70	-36.1	-37.1	22.9	0.00e+00	0	37	0	832569344	46	5595
2026-01-07 11:49:45.33	66.54	10.70	-36.0	-37.0	23.0	0.00e+00	0	37	0	835715072	46	5577
2026-01-07 11:49:46.34	66.72	10.71	-36.1	-37.0	22.9	0.00e+00	0	37	0	838860800	46	5593
2026-01-07 11:49:47.35	66.91	10.71	-36.1	-37.1	22.9	0.00e+00	0	37	0	842006528	46	5597
2026-01-07 11:49:48.36	67.09	10.72	-36.0	-37.0	22.9	0.00e+00	0	37	0	845152256	46	5540
2026-01-07 11:49:49.37	67.28	10.73	-36.1	-37.1	22.9	0.00e+00	0	37	0	848297984	46	5599
2026-01-07 11:49:50.38	67.46	10.73	-36.2	-37.1	22.8	0.00e+00	0	37	0	851443712	46	5649
2026-01-07 11:49:51.39	67.65	10.74	-36.2	-37.2	22.8	0.00e+00	0	37	0	854589440	46	5702
2026-01-07 11:49:52.40	67.83	10.74	-36.2	-37.2	22.7	0.00e+00	0	37	0	857735168	46	5698
2026-01-07 11:49:53.41	68.02	10.74	-36.1	-37.1	22.9	0.00e+00	0	37	0	860880896	46	5626
2026-01-07 11:49:54.42	68.20	10.75	-36.1	-37.0	22.9	0.00e+00	0	37	0	864026624	46	5586
2026-01-07 11:49:55.43	68.39	10.75	-36.0	-37.0	22.9	0.00e+00	0	37	0	867172352	46	5559
2026-01-07 11:49:56.44	68.57	10.76	-36.0	-37.0	23.0	0.00e+00	0	37	0	870318080	46	5536
2026-01-07 11:49:57.45	68.76	10.76	-36.0	-37.0	23.0	0.00e+00	0	37	0	873463808	46	5563
2026-01-07 11:49:58.46	68.94	10.76	-36.1	-37.0	23.0	0.00e+00	0	37	0	876609536	46	5588
2026-01-07 11:49:59.47	69.13	10.77	-36.1	-37.1	23.0	0.00e+00	0	37	0	879755264	46	5598
2026-01-07 11:50:00.48	69.31	10.77	-36.0	-37.0	23.0	0.00e+00	0	37	0	882900992	46	5575
2026-01-07 11:50:01.49	69.50	10.77	-36.2	-37.2	22.9	0.00e+00	0	37	0	886046720	46	5660
2026-01-07 11:50:02.50	69.68	10.77	-36.1	-37.0	22.9	0.00e+00	0	37	0	889192448	46	5581
2026-01-07 11:50:03.51	69.87	10.77	-36.1	-37.0	22.9	0.00e+00	0	37	0	892338176	46	5585
2026-01-07 11:50:04.52	70.05	10.78	-36.1	-37.1	22.8	0.00e+00	0	37	0	895483904	46	5602
2026-01-07 11:50:05.53	70.24	10.78	-36.1	-37.1	22.9	0.00e+00	0	37	0	898629632	46	5625
2026-01-07 11:50:06.54	70.43	10.78	-36.2	-37.2	22.9	0.00e+00	0	37	0	901775360	46	5667
2026-01-07 11:50:07.55	70.61	10.78	-36.0	-37.0	23.0	0.00e+00	0	37	0	904921088	46	5552
2026-01-07 11:50:08.56	70.80	10.78	-36.1	-37.1	23.0	0.00e+00	0	37	0	908066816	46	5610
2026-01-07 11:50:09.57	70.98	10.78	-36.1	-37.1	22.9	0.00e+00	0	37	0	911212544	46	5612
2026-01-07 11:50:10.58	71.17	10.78	-36.1	-37.1	22.9	0.00e+00	0	37	0	914358272	46	5641
2026-01-07 11:50:11.59	71.35	10.78	-36.1	-37.1	23.0	0.00e+00	0	37	0	917504000	46	5624
2026-01-07 11:50:12.60	71.54	10.78	-36.1	-37.1	22.9	0.00e+00	0	37	0	920649728	46	5632
2026-01-07 11:50:13.61	71.72	10.78	-36.2	-37.2	23.0	0.00e+00	0	37	0	923795456	46	5669
2026-01-07 11:50:14.62	71.91	10.78	-36.2	-37.1	22.9	0.00e+00	0	37	0	926941184	46	5658
2026-01-07 11:50:15.63	72.09	10.77	-36.1	-37.1	22.9	0.00e+00	0	37	0	930086912	46	5635
2026-01-07 11:50:16.64	72.28	10.77	-36.1	-37.1	23.0	0.00e+00	0	37	0	933232640	46	5619
2026-01-07 11:50:17.65	72.46	10.77	-36.0	-37.0	23.1	0.00e+00	0	37	0	936378368	46	5574
2026-01-07 11:50:18.66	72.65	10.77	-36.1	-37.0	23.0	0.00e+00	0	37	0	939524096	46	5591
2026-01-07 11:50:19.67	72.84	10.77	-36.0	-37.0	23.0	0.00e+00	0	37	0	942669824	46	5567
2026-01-07 11:50:20.68	73.02	10.76	-36.0	-37.0	23.1	0.00e+00	0	37	0	945815552	46	5535
2026-01-07 11:50:21.69	73.21	10.76	-36.2	-37.1	22.9	0.00e+00	0	37	0	948961280	46	5656
2026-01-07 11:50:22.70	73.39	10.76	-36.1	-37.1	22.9	0.00e+00	0	37	0	952107008	46	5615
2026-01-07 11:50:23.71	73.58	10.75	-36.1	-37.1	22.9	0.00e+00	0	37	0	955252736	46	5624
2026-01-07 11:50:24.72	73.76	10.75	-36.4	-37.3	22.8	0.00e+00	0	37	0	958398464	46	5782
2026-01-07 11:50:25.73	73.95	10.75	-36.2	-37.2	22.9	0.00e+00	0	37	0	961544192	46	5673
2026-01-07 11:50:26.74	74.13	10.74	-36.1	-37.0	23.1	0.00e+00	0	37	0	964689920	46	5592
2026-01-07 11:50:27.75	74.32	10.74	-36.1	-37.1	23.1	0.00e+00	0	37	0	967835648	46	5625
2026-01-07 11:50:28.75	74.50	10.73	-36.0	-36.9	23.1	0.00e+00	0	37	0	970981376	46	5527
2026-01-07 11:50:29.76	74.68	10.73	-36.0	-37.0	23.0	0.00e+00	0	37	0	974127104	46	5568
2026-01-07 11:50:30.77	74.87	10.72	-36.0	-36.9	23.2	0.00e+00	0	37	0	977272832	46	5524
2026-01-07 11:50:31.78	75.05	10.72	-35.9	-36.9	23.1	0.00e+00	0	37	0	980418560	46	5485
2026-01-07 11:50:32.79	75.24	10.71	-36.0	-37.0	23.1	0.00e+00	0	37	0	983564288	46	5536
2026-01-07 11:50:33.80	75.42	10.70	-35.9	-36.9	23.2	0.00e+00	0	37	0	986710016	46	5503
2026-01-07 11:50:34.81	75.61	10.70	-36.1	-37.1	23.0	0.00e+00	0	37	0	989855744	46	5640
2026-01-07 11:50:35.82	75.79	10.69	-36.0	-37.0	23.0	0.00e+00	0	37	0	993001472	46	5570
2026-01-07 11:50:36.83	75.98	10.68	-36.2	-37.2	22.9	0.00e+00	0	37	0	996147200	46	5693
2026-01-07 11:50:37.84	76.16	10.68	-36.3	-37.3	22.8	0.00e+00	0	37	0	999292928	46	5727
2026-01-07 11:50:38.85	76.35	10.67	-36.3	-37.3	22.8	0.00e+00	0	37	0	1002438656	46	5736
2026-01-07 11:50:39.86	76.53	10.66	-36.3	-37.3	22.9	0.00e+00	0	37	0	1005584384	46	5747
2026-01-07 11:50:40.87	76.71	10.65	-36.0	-37.0	23.1	0.00e+00	0	37	0	1008730112	46	5574
2026-01-07 11:50:41.88	76.90	10.65	-36.1	-37.1	23.0	0.00e+00	0	37	0	1011875840	46	5643
2026-01-07 11:50:42.89	77.08	10.64	-36.1	-37.1	23.0	0.00e+00	0	37	0	1015021568	46	5639
2026-01-07 11:50:43.90	77.26	10.63	-36.0	-37.0	23.0	0.00e+00	0	37	0	1018167296	46	5576
2026-01-07 11:50:44.91	77.45	10.62	-36.0	-37.0	23.0	0.00e+00	0	37	0	1021313024	46	5557
2026-01-07 11:50:45.92	77.63	10.61	-36.0	-37.0	23.1	0.00e+00	0	37	0	1025507328	46	5542
2026-01-07 11:50:46.93	77.82	10.60	-35.9	-36.9	23.2	0.00e+00	0	37	0	1027604480	46	5495
2026-01-07 11:50:47.94	78.00	10.59	-35.9	-36.9	23.1	0.00e+00	0	37	0	1030750208	46	5498
2026-01-07 11:50:48.95	78.18	10.58	-36.0	-37.0	23.1	0.00e+00	0	37	0	1033895936	46	5568
2026-01-07 11:50:49.96	78.36	10.57	-36.1	-37.1	23.0	0.00e+00	0	37	0	1037041664	46	5596
2026-01-07 11:50:50.97	78.55	10.56	-36.1	-37.0	23.1	0.00e+00	0	37	0	1041235968	46	5591
2026-01-07 11:50:51.98	78.73	10.55	-36.1	-37.0	23.0	0.00e+00	0	37	0	1044381696	46	5589
2026-01-07 11:50:52.98	78.91	10.54	-36.2	-37.1	23.0	0.00e+00	0	37	0	1047527424	46	5653
2026-01-07 11:50:53.99	79.09	10.53	-36.2	-37.2	23.0	0.00e+00	0	37	0	1050673152	46	5712
2026-01-07 11:50:55.00	79.28	10.51	-36.3	-37.3	22.8	0.00e+00	0	37	0	1052770304	46	5766
2026-01-07 11:50:56.01	79.46	10.50	-36.3	-37.3	22.9	0.00e+00	0	37	0	1055916032	46	5752
2026-01-07 11:50:57.02	79.64	10.49	-36.2	-37.2	22.9	0.00e+00	0	37	0	1060110336	46	5679
2026-01-07 11:50:58.03	79.82	10.48	-36.2	-37.2	22.9	0.00e+00	0	37	0	1063256064	46	5679
2026-01-07 11:50:59.04	80.00	10.47	-36.3	-37.3	22.8	0.00e+00	0	37	0	1066401792	46	5751
2026-01-07 11:51:00.05	80.19	10.45	-36.3	-37.3	22.8	0.00e+00	0	37	0	1069547520	46	5766
2026-01-07 11:51:01.06	80.37	10.44	-36.3	-37.3	22.8	0.00e+00	0	37	0	1072693248	46	5727
2026-01-07 11:51:02.07	80.55	10.43	-36.4	-37.4	22.7	0.00e+00	0	37	0	1075838976	46	5840
2026-01-07 11:51:03.08	80.73	10.41	-36.4	-37.4	22.7	0.00e+00	0	37	0	1078984704	46	5825
2026-01-07 11:51:04.09	80.91	10.40	-36.4	-37.4	22.7	0.00e+00	0	37	0	1082130432	46	5799
2026-01-07 11:51:05.10	81.09	10.39	-36.4	-37.4	22.6	0.00e+00	0	37	0	1085276160	46	5827
2026-01-07 11:51:06.11	81.27	10.37	-36.4	-37.4	22.7	0.00e+00	0	37	0	1088421888	46	5815
2026-01-07 11:51:07.12	81.45	10.36	-36.4	-37.4	22.7	0.00e+00	0	37	0	1091567616	46	5798
2026-01-07 11:51:08.13	81.63	10.34	-36.3	-37.3	22.7	0.00e+00	0	37	0	1094713344	46	5785
2026-01-07 11:51:09.14	81.81	10.33	-36.4	-37.4	22.7	0.00e+00	0	37	0	1097859072	46	5803
2026-01-07 11:51:10.15	81.99	10.31	-36.3	-37.3	22.8	0.00e+00	0	37	0	1101004800	46	5743
2026-01-07 11:51:11.16	82.17	10.30	-36.3	-37.3	22.7	0.00e+00	0	37	0	1104150528	46	5771
2026-01-07 11:51:12.17	82.35	10.28	-36.2	-37.2	22.8	0.00e+00	0	37	0	1107296256	46	5725
2026-01-07 11:51:13.18	82.53	10.27	-36.3	-37.3	22.8	0.00e+00	0	37	0	1110441984	46	5764
2026-01-07 11:51:14.20	82.71	10.25	-36.3	-37.3	22.7	0.00e+00	0	37	0	1113587712	46	5762
2026-01-07 11:51:15.20	82.89	10.23	-36.3	-37.3	22.7	0.00e+00	0	37	0	1116733440	46	5747
2026-01-07 11:51:16.21	83.07	10.22	-36.3	-37.3	22.7	0.00e+00	0	37	0	1119879168	46	5727
2026-01-07 11:51:17.23	83.25	10.20	-36.3	-37.2	22.8	0.00e+00	0	37	0	1123024896	46	5720
2026-01-07 11:51:18.23	83.43	10.18	-36.2	-37.2	22.8	0.00e+00	0	37	0	1126170624	46	5707
2026-01-07 11:51:19.24	83.61	10.16	-36.2	-37.2	22.8	0.00e+00	0	37	0	1129316352	46	5701
2026-01-07 11:51:20.25	83.78	10.15	-36.4	-37.4	22.7	0.00e+00	0	37	0	1132462080	46	5804
2026-01-07 11:51:21.26	83.96	10.13	-36.4	-37.4	22.7	0.00e+00	0	37	0	1135607808	46	5804
2026-01-07 11:51:22.26	84.14	10.11	-36.7	-37.8	21.6	0.00e+00	0	37	0	1138753536	46	6091
2026-01-07 11:51:23.27	84.32	10.09	-37.3	-38.3	22.3	0.00e+00	0	37	0	1141899264	46	6468
2026-01-07 11:51:24.28	84.49	10.07	-36.3	-37.3	22.8	0.00e+00	0	37	0	1145044992	46	5758
2026-01-07 11:51:25.29	84.67	10.06	-36.4	-37.4	22.8	0.00e+00	0	37	0	1148190720	46	5798
2026-01-07 11:51:26.30	84.85	10.04	-36.1	-37.1	22.9	0.00e+00	0	37	0	1151336448	46	5640
2026-01-07 11:51:27.31	85.02	10.02	-36.3	-37.3	22.8	0.00e+00	0	37	0	1154482176	46	5761
2026-01-07 11:51:28.32	85.20	10.00	-36.3	-37.3	22.7	0.00e+00	0	37	0	1157627904	46	5748
2026-01-07 11:51:29.34	85.38	9.98	-36.2	-37.2	22.8	0.00e+00	0	37	0	1160773632	46	5707
2026-01-07 11:51:30.34	85.55	9.96	-36.1	-37.0	23.0	0.00e+00	0	37	0	1163919360	46	5590
2026-01-07 11:51:31.35	85.73	9.94	-36.1	-37.1	23.0	0.00e+00	0	37	0	1167065088	46	5647
2026-01-07 11:51:32.36	85.90	9.92	-36.2	-37.1	22.9	0.00e+00	0	37	0	1170210816	46	5638
2026-01-07 11:51:33.37	86.08	9.90	-36.1	-37.1	23.0	0.00e+00	0	37	0	1173356544	46	5601
2026-01-07 11:51:34.38	86.25	9.88	-36.2	-37.1	22.9	0.00e+00	0	37	0	1176502272	46	5652
2026-01-07 11:51:35.39	86.43	9.86	-36.2	-37.2	22.9	0.00e+00	0	37	0	1179648000	46	5672
2026-01-07 11:51:36.40	86.60	9.84	-36.2	-37.2	22.9	0.00e+00	0	37	0	1182793728	46	5667
2026-01-07 11:51:37.41	86.78	9.81	-36.2	-37.2	23.0	0.00e+00	0	37	0	1185939456	46	5705
2026-01-07 11:51:38.42	86.95	9.79	-36.1	-37.1	23.0	0.00e+00	0	37	0	1189085184	46	5619
2026-01-07 11:51:39.43	87.13	9.77	-36.2	-37.2	22.8	0.00e+00	0	37	0	1192230912	46	5707
2026-01-07 11:51:40.44	87.30	9.75	-36.2	-37.1	22.9	0.00e+00	0	37	0	1195376640	46	5652
2026-01-07 11:51:41.45	87.47	9.73	-36.2	-37.1	22.9	0.00e+00	0	37	0	1198522368	46	5653
2026-01-07 11:51:42.46	87.65	9.70	-36.3	-37.2	22.8	0.00e+00	0	37	0	1201668096	46	5720
2026-01-07 11:51:43.47	87.82	9.68	-36.3	-37.2	22.9	0.00e+00	0	37	0	1204813824	46	5719
2026-01-07 11:51:44.48	87.99	9.66	-36.1	-37.1	22.9	0.00e+00	0	37	0	1207959552	46	5616
2026-01-07 11:51:45.49	88.16	9.64	-36.2	-37.2	22.9	0.00e+00	0	37	0	1211105280	46	5673
2026-01-07 11:51:46.50	88.34	9.61	-36.1	-37.1	23.0	0.00e+00	0	37	0	1214251008	46	5636
2026-01-07 11:51:47.51	88.51	9.59	-36.2	-37.2	22.9	0.00e+00	0	38	0	1217396736	46	5677
2026-01-07 11:51:48.52	88.68	9.57	-36.2	-37.2	22.9	0.00e+00	0	37	0	1220542464	46	5670
2026-01-07 11:51:49.53	88.85	9.54	-36.2	-37.2	22.9	0.00e+00	0	37	0	1223688192	46	5673
2026-01-07 11:51:50.54	89.02	9.52	-36.2	-37.1	22.9	0.00e+00	0	37	0	1226833920	46	5659
2026-01-07 11:51:51.55	89.19	9.49	-36.3	-37.2	22.8	0.00e+00	0	37	0	1229979648	46	5725
2026-01-07 11:51:52.56	89.36	9.47	-36.2	-37.2	22.9	0.00e+00	0	37	0	1233125376	46	5687
2026-01-07 11:51:53.57	89.53	9.44	-36.2	-37.2	22.9	0.00e+00	0	37	0	1236271104	46	5699
2026-01-07 11:51:54.58	89.70	9.42	-36.4	-37.3	22.7	0.00e+00	0	37	0	1239416832	46	5778
2026-01-07 11:51:55.59	89.87	9.39	-36.4	-37.3	22.7	0.00e+00	0	37	0	1242562560	46	5784
2026-01-07 11:51:56.60	90.04	9.37	-36.3	-37.3	22.7	0.00e+00	0	37	0	1245708288	46	5739
2026-01-07 11:51:57.60	90.21	9.34	-36.3	-37.3	22.8	0.00e+00	0	37	0	1248854016	46	5789
2026-01-07 11:51:58.61	90.38	9.32	-36.2	-37.3	22.8	0.00e+00	0	37	0	1251999744	46	5736
2026-01-07 11:51:59.62	90.55	9.29	-36.1	-37.2	22.8	0.00e+00	0	37	0	1255145472	46	5665
2026-01-07 11:52:00.63	90.71	9.27	-36.2	-37.2	22.8	0.00e+00	0	37	0	1258291200	46	5705
2026-01-07 11:52:01.64	90.88	9.24	-36.3	-37.4	22.7	0.00e+00	0	37	0	1261436928	46	5799
2026-01-07 11:52:02.65	91.05	9.21	-36.2	-37.2	22.8	0.00e+00	0	37	0	1264582656	46	5720
2026-01-07 11:52:03.66	91.22	9.19	-36.3	-37.3	22.7	0.00e+00	0	37	0	1267728384	46	5782
2026-01-07 11:52:04.67	91.38	9.16	-36.3	-37.3	22.7	0.00e+00	0	37	0	1270874112	46	5789
2026-01-07 11:52:05.68	91.55	9.13	-36.4	-37.4	22.6	0.00e+00	0	37	0	1274019840	46	5849
2026-01-07 11:52:06.69	91.72	9.11	-36.4	-37.4	22.6	0.00e+00	0	37	0	1277165568	46	5841
2026-01-07 11:52:07.70	91.88	9.08	-36.3	-37.3	22.8	0.00e+00	0	37	0	1280311296	46	5760
2026-01-07 11:52:08.71	92.05	9.05	-36.5	-37.5	22.6	0.00e+00	0	37	0	1283457024	46	5883
2026-01-07 11:52:09.72	92.21	9.03	-36.4	-37.4	22.7	0.00e+00	0	37	0	1286602752	46	5810
2026-01-07 11:52:10.72	92.38	9.00	-36.5	-37.5	22.5	0.00e+00	0	37	0	1289748480	46	5882
2026-01-07 11:52:11.73	92.54	8.97	-36.4	-37.4	22.6	0.00e+00	0	37	0	1292894208	46	5814
2026-01-07 11:52:12.74	92.71	8.94	-36.5	-37.6	22.4	0.00e+00	0	37	0	1296039936	46	5928
2026-01-07 11:52:13.75	92.87	8.91	-36.5	-37.5	22.5	0.00e+00	0	37	0	1299185664	46	5884
2026-01-07 11:52:14.76	93.04	8.88	-36.5	-37.5	22.5	0.00e+00	0	37	0	1302331392	46	5872
2026-01-07 11:52:15.77	93.20	8.86	-36.4	-37.4	22.5	0.00e+00	0	37	0	1305477120	46	5824
2026-01-07 11:52:16.78	93.36	8.83	-36.4	-37.4	22.5	0.00e+00	0	37	0	1308622848	46	5858
2026-01-07 11:52:17.79	93.53	8.80	-36.3	-37.3	22.6	0.00e+00	0	37	0	1311768576	46	5787
2026-01-07 11:52:18.80	93.69	8.77	-36.4	-37.4	22.6	0.00e+00	0	37	0	1314914304	46	5848
2026-01-07 11:52:19.81	93.85	8.74	-36.3	-37.3	22.6	0.00e+00	0	37	0	1318060032	46	5779
2026-01-07 11:52:20.82	94.01	8.71	-36.4	-37.3	22.6	0.00e+00	0	37	0	1321205760	46	5788
2026-01-07 11:52:21.83	94.18	8.68	-36.2	-37.1	22.8	0.00e+00	0	37	0	1324351488	46	5653
2026-01-07 11:52:22.84	94.34	8.65	-36.1	-37.1	22.8	0.00e+00	0	37	0	1327497216	46	5635
2026-01-07 11:52:23.85	94.50	8.62	-36.2	-37.2	22.7	0.00e+00	0	37	0	1330642944	46	5701
2026-01-07 11:52:24.86	94.66	8.59	-36.3	-37.3	22.7	0.00e+00	0	37	0	1333788672	46	5736
2026-01-07 11:52:25.87	94.82	8.56	-36.3	-37.3	22.7	0.00e+00	0	37	0	1336934400	46	5741
2026-01-07 11:52:26.88	94.98	8.53	-36.5	-37.5	22.6	0.00e+00	0	37	0	1340080128	46	5881
2026-01-07 11:52:27.89	95.14	8.50	-36.6	-37.6	22.5	0.00e+00	0	37	0	1343225856	46	5949
2026-01-07 11:52:28.90	95.30	8.47	-36.6	-37.6	22.5	0.00e+00	0	37	0	1346371584	46	5939
2026-01-07 11:52:29.91	95.46	8.44	-36.5	-37.5	22.5	0.00e+00	0	37	0	1349517312	46	5923
2026-01-07 11:52:30.92	95.62	8.41	-36.6	-37.6	22.5	0.00e+00	0	37	0	1352663040	46	5946
2026-01-07 11:52:31.93	95.78	8.38	-36.7	-37.7	22.3	0.00e+00	0	38	0	1355808768	46	6055
2026-01-07 11:52:32.94	95.93	8.34	-36.7	-37.7	22.4	0.00e+00	0	37	0	1358954496	46	6015
2026-01-07 11:52:33.95	96.09	8.31	-36.7	-37.8	22.3	0.00e+00	0	37	0	1362100224	46	6071
2026-01-07 11:52:34.96	96.25	8.28	-36.7	-37.7	22.3	0.00e+00	0	37	0	1365245952	46	6052
2026-01-07 11:52:35.97	96.41	8.25	-36.7	-37.8	22.3	0.00e+00	0	37	0	1368391680	46	6077
2026-01-07 11:52:36.98	96.56	8.22	-36.8	-37.8	22.3	0.00e+00	0	37	0	1371537408	46	6090
2026-01-07 11:52:37.99	96.72	8.19	-36.6	-37.6	22.4	0.00e+00	0	37	0	1374683136	46	5991
2026-01-07 11:52:39.00	96.88	8.15	-36.7	-37.7	22.4	0.00e+00	0	37	0	1377828864	46	6040
2026-01-07 11:52:40.01	97.03	8.12	-36.7	-37.7	22.3	0.00e+00	0	37	0	1380974592	46	6063
2026-01-07 11:52:41.02	97.19	8.09	-36.7	-37.7	22.3	0.00e+00	0	37	0	1385168896	46	6028
2026-01-07 11:52:42.03	97.34	8.06	-36.9	-37.9	22.1	0.00e+00	0	37	0	1388314624	46	6161
2026-01-07 11:52:43.04	97.50	8.02	-36.7	-37.8	22.3	0.00e+00	0	37	0	1391460352	46	6066
2026-01-07 11:52:44.04	97.65	7.99	-36.7	-37.7	22.3	0.00e+00	0	37	0	1393557504	46	6045
2026-01-07 11:52:45.05	97.81	7.96	-36.7	-37.7	22.3	0.00e+00	0	37	0	1396703232	46	6037
2026-01-07 11:52:46.06	97.96	7.92	-36.8	-37.9	22.1	0.00e+00	0	37	0	1399848960	46	6148
2026-01-07 11:52:47.07	98.12	7.89	-36.9	-37.9	22.1	0.00e+00	0	37	0	1404043264	46	6176
2026-01-07 11:52:48.08	98.27	7.86	-37.0	-38.0	22.1	0.00e+00	0	37	0	1407188992	46	6231
2026-01-07 11:52:49.09	98.42	7.82	-37.0	-38.1	22.0	0.00e+00	0	37	0	1410334720	46	6300
2026-01-07 11:52:50.10	98.57	7.79	-37.1	-38.2	21.9	0.00e+00	0	37	0	1413480448	46	6361
2026-01-07 11:52:51.11	98.73	7.76	-37.1	-38.2	21.9	0.00e+00	0	37	0	1415577600	46	6404
2026-01-07 11:52:52.12	98.88	7.72	-37.2	-38.3	21.9	0.00e+00	0	37	0	1419771904	46	6438
2026-01-07 11:52:53.13	99.03	7.69	-37.0	-38.1	21.9	0.00e+00	0	37	0	1422917632	46	6324
2026-01-07 11:52:54.14	99.18	7.66	-37.1	-38.2	21.9	0.00e+00	0	37	0	1426063360	46	6363
2026-01-07 11:52:55.15	99.33	7.62	-36.9	-37.9	22.1	0.00e+00	0	37	0	1429209088	46	6174
2026-01-07 11:52:56.16	99.48	7.59	-36.9	-38.0	22.1	0.00e+00	0	38	0	1432354816	46	6218
2026-01-07 11:52:57.17	99.63	7.55	-37.0	-38.0	22.0	0.00e+00	0	37	0	1435500544	46	6270
2026-01-07 11:52:58.18	99.78	7.52	-37.1	-38.2	22.0	0.00e+00	0	37	0	1438646272	46	6351
2026-01-07 11:52:59.18	99.93	7.48	-37.1	-38.2	21.9	0.00e+00	0	37	0	1441792000	46	6351
2026-01-07 11:53:00.19	100.08	7.45	-37.1	-38.1	22.0	0.00e+00	0	37	0	1444937728	46	6323
2026-01-07 11:53:01.20	100.23	7.41	-37.0	-38.0	22.0	0.00e+00	0	37	0	1448083456	46	6249
2026-01-07 11:53:02.21	100.38	7.38	-37.0	-38.0	22.0	0.00e+00	0	37	0	1451229184	46	6273
2026-01-07 11:53:03.22	100.53	7.34	-37.0	-38.0	22.0	0.00e+00	0	37	0	1454374912	46	6258
2026-01-07 11:53:04.23	100.67	7.31	-37.0	-38.0	22.1	0.00e+00	0	37	0	1457520640	46	6250
2026-01-07 11:53:05.24	100.82	7.27	-37.1	-38.1	21.9	0.00e+00	0	37	0	1460666368	46	6311
2026-01-07 11:53:06.25	100.97	7.24	-37.1	-38.1	21.8	0.00e+00	0	37	0	1463812096	46	6343
2026-01-07 11:53:07.26	101.12	7.20	-37.1	-38.2	21.8	0.00e+00	0	37	0	1466957824	46	6387
2026-01-07 11:53:08.27	101.26	7.16	-37.4	-38.5	21.6	0.00e+00	0	37	0	1470103552	46	6584
2026-01-07 11:53:09.28	101.41	7.13	-37.3	-38.3	21.7	0.00e+00	0	37	0	1473249280	46	6496
2026-01-07 11:53:10.29	101.55	7.09	-37.4	-38.5	21.6	0.00e+00	0	37	0	1476395008	46	6588
2026-01-07 11:53:11.30	101.70	7.06	-37.2	-38.3	21.7	0.00e+00	0	37	0	1479540736	46	6462
2026-01-07 11:53:12.31	101.84	7.02	-37.4	-38.4	21.6	0.00e+00	0	37	0	1482686464	46	6556
2026-01-07 11:53:13.32	101.99	6.98	-37.3	-38.4	21.6	0.00e+00	0	37	0	1485832192	46	6552
2026-01-07 11:53:14.33	102.13	6.95	-37.2	-38.3	21.7	0.00e+00	0	37	0	1488977920	46	6441
2026-01-07 11:53:15.34	102.28	6.91	-37.1	-38.1	21.8	0.00e+00	0	37	0	1492123648	46	6350
2026-01-07 11:53:16.35	102.42	6.87	-37.2	-38.2	21.7	0.00e+00	0	37	0	1495269376	46	6399
2026-01-07 11:53:17.36	102.56	6.84	-37.3	-38.3	21.6	0.00e+00	0	37	0	1498415104	46	6491
2026-01-07 11:53:18.37	102.71	6.80	-37.3	-38.4	21.6	0.00e+00	0	37	0	1501560832	46	6521
2026-01-07 11:53:19.38	102.85	6.76	-37.2	-38.2	21.7	0.00e+00	0	37	0	1504706560	46	6419
2026-01-07 11:53:20.39	102.99	6.73	-37.1	-38.1	21.8	0.00e+00	0	37	0	1507852288	46	6343
2026-01-07 11:53:21.40	103.14	6.69	-37.1	-38.2	21.8	0.00e+00	0	37	0	1510998016	46	6367
2026-01-07 11:53:22.41	103.28	6.65	-37.1	-38.1	21.8	0.00e+00	0	37	0	1514143744	46	6331
2026-01-07 11:53:23.42	103.42	6.62	-37.2	-38.3	21.7	0.00e+00	0	37	0	1517289472	46	6443
2026-01-07 11:53:24.43	103.56	6.58	-37.2	-38.2	21.7	0.00e+00	0	37	0	1520435200	46	6390
2026-01-07 11:53:25.44	103.70	6.54	-37.2	-38.2	21.7	0.00e+00	0	37	0	1523580928	46	6422
2026-01-07 11:53:26.45	103.84	6.50	-37.2	-38.3	21.7	0.00e+00	0	37	0	1526726656	46	6437
2026-01-07 11:53:27.46	103.98	6.46	-37.2	-38.3	21.6	0.00e+00	0	37	0	1529872384	46	6452
2026-01-07 11:53:28.47	104.12	6.43	-37.2	-38.3	21.7	0.00e+00	0	37	0	1533018112	46	6427
2026-01-07 11:53:29.47	104.26	6.39	-37.3	-38.4	21.6	0.00e+00	0	37	0	1536163840	46	6532
2026-01-07 11:53:30.49	104.40	6.35	-37.3	-38.4	21.6	0.00e+00	0	37	0	1539309568	46	6512
2026-01-07 11:53:31.49	104.53	6.31	-37.3	-38.4	21.5	0.00e+00	0	37	0	1542455296	46	6525
2026-01-07 11:53:32.50	104.67	6.28	-37.4	-38.5	21.5	0.00e+00	0	37	0	1545601024	46	6589
2026-01-07 11:53:33.51	104.81	6.24	-37.5	-38.6	21.3	0.00e+00	0	37	0	1548746752	46	6693
2026-01-07 11:53:34.52	104.95	6.20	-37.5	-38.6	21.4	0.00e+00	0	37	0	1551892480	46	6704
2026-01-07 11:53:35.53	105.09	6.16	-37.3	-38.4	21.6	0.00e+00	0	37	0	1555038208	46	6515
2026-01-07 11:53:36.54	105.22	6.12	-37.3	-38.4	21.5	0.00e+00	0	37	0	1558183936	46	6542
2026-01-07 11:53:37.55	105.36	6.08	-37.2	-38.2	21.6	0.00e+00	0	37	0	1561329664	46	6415
2026-01-07 11:53:38.56	105.49	6.05	-37.3	-38.4	21.6	0.00e+00	0	37	0	1564475392	46	6513
2026-01-07 11:53:39.57	105.63	6.01	-37.3	-38.4	21.6	0.00e+00	0	37	0	1567621120	46	6515
2026-01-07 11:53:40.58	105.77	5.97	-37.4	-38.5	21.4	0.00e+00	0	37	0	1570766848	46	6633
2026-01-07 11:53:41.59	105.90	5.93	-37.3	-38.4	21.6	0.00e+00	0	37	0	1573912576	46	6499
2026-01-07 11:53:42.60	106.04	5.89	-37.3	-38.4	21.6	0.00e+00	0	38	0	1577058304	46	6507
2026-01-07 11:53:43.61	106.17	5.85	-37.4	-38.5	21.4	0.00e+00	0	37	0	1580204032	46	6593
2026-01-07 11:53:44.62	106.30	5.81	-37.4	-38.6	21.3	0.00e+00	0	38	0	1583349760	46	6672
2026-01-07 11:53:45.63	106.44	5.77	-37.5	-38.7	21.3	0.00e+00	0	38	0	1586495488	46	6733
2026-01-07 11:53:46.64	106.57	5.73	-37.5	-38.7	21.3	0.00e+00	0	37	0	1589641216	46	6738
2026-01-07 11:53:47.65	106.70	5.69	-37.4	-38.6	21.3	0.00e+00	0	37	0	1592786944	46	6689
2026-01-07 11:53:48.66	106.84	5.66	-37.4	-38.6	21.3	0.00e+00	0	38	0	1595932672	46	6660
2026-01-07 11:53:49.67	106.97	5.62	-37.6	-38.7	21.2	0.00e+00	0	37	0	1599078400	46	6754
2026-01-07 11:53:50.68	107.10	5.58	-37.7	-38.8	21.2	0.00e+00	0	37	0	1602224128	46	6832
2026-01-07 11:53:51.69	107.23	5.54	-37.7	-38.8	21.1	0.00e+00	0	37	0	1605369856	46	6816
2026-01-07 11:53:52.70	107.36	5.50	-37.7	-38.8	21.0	0.00e+00	0	37	0	1608515584	48	6114
2026-01-07 11:53:53.71	107.49	5.46	-37.5	-38.6	21.1	0.00e+00	0	37	0	1611661312	48	5990
2026-01-07 11:53:54.72	107.63	5.42	-37.5	-38.7	21.1	0.00e+00	0	37	0	1614807040	48	6050
2026-01-07 11:53:55.73	107.76	5.38	-37.5	-38.7	21.1	0.00e+00	0	37	0	1617952768	48	6047
2026-01-07 11:53:56.74	107.89	5.34	-37.6	-38.8	21.1	0.00e+00	0	37	0	1621098496	48	6083
2026-01-07 11:53:57.75	108.02	5.30	-37.6	-38.8	21.1	0.00e+00	0	37	0	1624244224	48	6066
2026-01-07 11:53:58.76	108.14	5.26	-37.7	-38.8	21.0	0.00e+00	0	37	0	1627389952	48	6124
2026-01-07 11:53:59.77	108.27	5.22	-37.8	-38.9	20.9	0.00e+00	0	37	0	1630535680	48	6180
2026-01-07 11:54:00.78	108.40	5.18	-37.9	-39.1	20.7	0.00e+00	0	37	0	1633681408	48	6314
2026-01-07 11:54:01.79	108.53	5.14	-37.9	-39.0	20.9	0.00e+00	0	37	0	1636827136	48	6250
2026-01-07 11:54:02.80	108.66	5.10	-37.8	-39.0	20.9	0.00e+00	0	37	0	1639972864	48	6249
2026-01-07 11:54:03.81	108.79	5.06	-37.8	-39.0	20.9	0.00e+00	0	37	0	1643118592	48	6225
2026-01-07 11:54:04.81	108.91	5.02	-37.8	-39.0	20.8	0.00e+00	0	38	0	1646264320	48	6261
2026-01-07 11:54:05.82	109.04	4.98	-37.8	-39.0	20.8	0.00e+00	0	37	0	1649410048	48	6243
2026-01-07 11:54:06.83	109.17	4.94	-37.9	-39.1	20.7	0.00e+00	0	37	0	1652555776	48	6290
2026-01-07 11:54:07.84	109.29	4.90	-37.9	-39.1	20.7	0.00e+00	0	37	0	1655701504	48	6325
2026-01-07 11:54:08.85	109.42	4.86	-38.0	-39.2	20.7	0.00e+00	0	37	0	1658847232	48	6353
2026-01-07 11:54:09.86	109.54	4.82	-38.0	-39.2	20.6	0.00e+00	0	37	0	1661992960	48	6361
2026-01-07 11:54:10.87	109.67	4.78	-38.0	-39.2	20.6	0.00e+00	0	37	0	1665138688	48	6353
2026-01-07 11:54:11.88	109.79	4.74	-37.9	-39.1	20.7	0.00e+00	0	37	0	1668284416	48	6297
2026-01-07 11:54:12.89	109.92	4.69	-37.9	-39.1	20.6	0.00e+00	0	37	0	1671430144	48	6294
2026-01-07 11:54:13.90	110.04	4.65	-37.8	-39.0	20.7	0.00e+00	0	37	0	1674575872	48	6219
2026-01-07 11:54:14.91	110.17	4.61	-37.8	-39.0	20.8	0.00e+00	0	37	0	1677721600	48	6223
2026-01-07 11:54:15.92	110.29	4.57	-37.9	-39.1	20.7	0.00e+00	0	37	0	1680867328	48	6284
2026-01-07 11:54:16.93	110.41	4.53	-38.0	-39.2	20.5	0.00e+00	0	37	0	1684013056	48	6398
2026-01-07 11:54:17.94	110.54	4.49	-38.0	-39.1	20.6	0.00e+00	0	37	0	1687158784	48	6341
2026-01-07 11:54:18.95	110.66	4.45	-38.0	-39.1	20.6	0.00e+00	0	37	0	1690304512	48	6321
2026-01-07 11:54:19.96	110.78	4.41	-37.9	-39.0	20.6	0.00e+00	0	37	0	1693450240	48	6269
2026-01-07 11:54:20.97	110.90	4.37	-37.9	-39.0	20.6	0.00e+00	0	37	0	1696595968	48	6260
2026-01-07 11:54:21.98	111.02	4.33	-37.9	-39.0	20.6	0.00e+00	0	38	0	1699741696	48	6246
2026-01-07 11:54:22.99	111.14	4.28	-37.9	-39.1	20.5	0.00e+00	0	37	0	1702887424	48	6304
2026-01-07 11:54:24.00	111.27	4.24	-37.9	-39.0	20.7	0.00e+00	0	37	0	1706033152	48	6257
2026-01-07 11:54:25.01	111.39	4.20	-37.9	-39.0	20.6	0.00e+00	0	37	0	1709178880	48	6262
2026-01-07 11:54:26.02	111.51	4.16	-38.1	-39.3	20.4	0.00e+00	0	37	0	1712324608	48	6440
2026-01-07 11:54:27.03	111.63	4.12	-38.0	-39.2	20.3	0.00e+00	0	37	0	1715470336	48	6390
2026-01-07 11:54:28.04	111.75	4.08	-38.0	-39.2	20.4	0.00e+00	0	37	0	1718616064	48	6374
2026-01-07 11:54:29.05	111.87	4.04	-38.2	-39.4	20.2	0.00e+00	0	38	0	1721761792	48	6512
2026-01-07 11:54:30.06	111.98	4.00	-38.0	-39.2	20.2	0.00e+00	0	37	0	1724907520	48	6408
2026-01-07 11:54:31.07	112.10	3.95	-38.0	-39.2	20.3	0.00e+00	0	37	0	1729101824	48	6419
2026-01-07 11:54:32.08	112.22	3.91	-38.2	-39.4	20.0	0.00e+00	0	37	0	1731198976	48	6554
2026-01-07 11:54:33.09	112.34	3.87	-38.5	-39.8	19.8	0.00e+00	0	37	0	1734344704	48	6813
2026-01-07 11:54:34.10	112.46	3.83	-38.4	-39.7	19.9	0.00e+00	0	37	0	1737490432	48	6744
2026-01-07 11:54:35.11	112.57	3.79	-38.3	-39.5	19.9	0.00e+00	0	37	0	1740636160	48	6627
2026-01-07 11:54:36.12	112.69	3.75	-38.3	-39.5	19.9	0.00e+00	0	37	0	1744830464	48	6614
2026-01-07 11:54:37.13	112.81	3.70	-38.3	-39.6	19.9	0.00e+00	0	37	0	1747976192	48	6672
2026-01-07 11:54:38.14	112.93	3.66	-38.3	-39.6	19.9	0.00e+00	0	37	0	1751121920	48	6668
2026-01-07 11:54:39.14	113.04	3.62	-38.2	-39.4	19.9	0.00e+00	0	38	0	1754267648	48	6566
2026-01-07 11:54:40.15	113.16	3.58	-38.4	-39.6	19.8	0.00e+00	0	37	0	1756364800	48	6704
2026-01-07 11:54:41.16	113.27	3.54	-38.4	-39.7	19.7	0.00e+00	0	37	0	1759510528	48	6740
2026-01-07 11:54:42.17	113.39	3.50	-38.4	-39.7	19.7	0.00e+00	0	38	0	1763704832	48	6753
2026-01-07 11:54:43.18	113.50	3.45	-38.5	-39.9	19.5	0.00e+00	0	38	0	1766850560	48	6884
2026-01-07 11:54:44.18	113.61	3.41	-38.6	-40.0	19.4	0.00e+00	0	37	0	1769996288	48	6995
2026-01-07 11:54:45.19	113.73	3.37	-38.6	-40.0	19.3	0.00e+00	0	38	0	1773142016	48	6983
2026-01-07 11:54:46.20	113.84	3.33	-38.6	-39.9	19.4	0.00e+00	0	37	0	1776287744	48	6947
2026-01-07 11:54:47.21	113.96	3.29	-38.5	-39.9	19.4	0.00e+00	0	37	0	1778384896	48	6915
2026-01-07 11:54:48.22	114.07	3.25	-38.7	-40.0	19.2	0.00e+00	0	37	0	1782579200	48	7030
2026-01-07 11:54:49.23	114.18	3.20	-38.8	-40.1	19.2	0.00e+00	0	37	0	1785724928	48	7090
2026-01-07 11:54:50.24	114.30	3.16	-38.8	-40.2	19.1	0.00e+00	0	38	0	1788870656	50	6394
2026-01-07 11:54:51.25	114.41	3.12	-39.0	-40.4	18.9	0.00e+00	0	37	0	1792016384	50	6531
2026-01-07 11:54:52.26	114.52	3.08	-38.8	-40.2	19.0	0.00e+00	0	37	0	1795162112	50	6379
2026-01-07 11:54:53.27	114.63	3.03	-39.0	-40.3	18.8	0.00e+00	0	37	0	1798307840	50	6487
2026-01-07 11:54:54.28	114.74	2.99	-39.0	-40.4	18.4	0.00e+00	0	37	0	1801453568	50	6526
2026-01-07 11:54:55.29	114.85	2.95	-48.4	-61.3	3.5	1.52e+00	0	37	104	1801453568	60	40605
2026-01-07 11:54:56.30	114.97	2.91	-48.8	-61.6	3.5	1.52e+00	0	38	104	1801453568	60	42441
2026-01-07 11:54:57.30	115.07	2.87	-48.9	-61.8	3.5	1.51e+00	0	38	104	1801453568	60	43355
2026-01-07 11:54:58.31	115.19	2.82	-49.1	-62.0	3.5	1.52e+00	0	37	104	1801453568	60	44417
2026-01-07 11:54:59.32	115.30	2.78	-49.0	-62.1	3.5	1.52e+00	0	37	104	1801453568	60	44698
2026-01-07 11:55:00.33	115.40	2.74	-49.3	-62.2	3.5	1.51e+00	0	38	104	1801453568	60	45002
2026-01-07 11:55:01.34	115.51	2.70	-49.3	-62.2	3.5	1.52e+00	0	38	104	1801453568	60	45036
2026-01-07 11:55:02.35	115.62	2.66	-49.4	-62.2	3.5	1.52e+00	0	37	104	1801453568	60	45340
2026-01-07 11:55:03.36	115.73	2.61	-49.4	-62.2	3.5	1.52e+00	0	38	104	1801453568	60	45073
2026-01-07 11:55:04.38	115.84	2.57	-49.3	-62.2	3.5	1.52e+00	0	38	104	1801453568	60	45238
2026-01-07 11:55:05.38	115.95	2.53	-49.3	-62.2	3.5	1.52e+00	0	38	104	1801453568	60	45174
2026-01-07 11:55:06.39	116.06	2.49	-49.2	-62.2	3.5	1.52e+00	0	38	104	1801453568	60	45063
2026-01-07 11:55:07.40	116.16	2.44	-49.2	-62.1	3.5	1.52e+00	0	38	104	1801453568	60	44890
2026-01-07 11:55:08.41	116.27	2.40	-49.2	-62.2	3.5	1.52e+00	0	38	104	1801453568	60	44978
2026-01-07 11:55:09.43	116.38	2.36	-49.3	-62.2	3.5	1.52e+00	0	37	104	1801453568	60	45114
2026-01-07 11:55:10.43	116.49	2.32	-49.3	-62.2	3.5	1.52e+00	0	38	104	1801453568	60	45099
2026-01-07 11:55:11.44	116.59	2.27	-49.3	-62.2	3.5	1.52e+00	0	38	104	1801453568	60	45109
2026-01-07 11:55:12.45	116.70	2.23	-49.3	-62.2	3.5	1.52e+00	0	38	104	1801453568	60	45030
2026-01-07 11:55:13.46	116.80	2.19	-49.3	-62.1	3.5	1.52e+00	0	38	104	1801453568	60	44730
2026-01-07 11:55:14.47	116.91	2.15	-49.3	-62.2	3.5	1.52e+00	0	38	104	1801453568	60	44962
2026-01-07 11:55:15.48	117.01	2.10	-49.3	-62.1	3.5	1.52e+00	0	38	104	1801453568	60	44919
2026-01-07 11:55:16.49	117.12	2.06	-49.3	-62.1	3.5	1.52e+00	0	38	104	1801453568	60	44869
2026-01-07 11:55:17.50	117.22	2.02	-49.3	-62.1	3.5	1.52e+00	0	38	104	1801453568	60	44720
2026-01-07 11:55:18.51	117.33	1.98	-49.3	-62.1	3.5	1.52e+00	0	38	104	1801453568	60	44696
2026-01-07 11:55:19.52	117.43	1.93	-49.3	-62.1	3.5	1.52e+00	0	38	104	1801453568	60	44894
2026-01-07 11:55:20.53	117.54	1.89	-49.3	-62.1	3.5	1.52e+00	0	38	104	1801453568	60	44606
2026-01-07 11:55:21.54	117.64	1.85	-49.3	-62.2	3.5	1.52e+00	0	38	104	1801453568	60	44964
2026-01-07 11:55:22.55	117.74	1.81	-49.3	-62.1	3.5	1.52e+00	0	38	104	1801453568	60	44796
2026-01-07 11:55:23.56	117.85	1.76	-49.3	-62.1	3.5	1.52e+00	0	38	104	1801453568	60	44750
2026-01-07 11:55:24.57	117.95	1.72	-49.3	-62.1	3.5	1.52e+00	0	38	104	1801453568	60	44926
2026-01-07 11:55:25.58	118.05	1.68	-49.3	-62.1	3.5	1.52e+00	0	38	104	1801453568	60	44792
2026-01-07 11:55:26.59	118.15	1.64	-49.3	-62.1	3.5	1.52e+00	0	38	104	1801453568	60	44670
2026-01-07 11:55:27.60	118.25	1.59	-49.3	-62.1	3.5	1.52e+00	0	38	104	1801453568	60	44807
2026-01-07 11:55:28.60	118.36	1.55	-49.3	-62.1	3.5	1.52e+00	0	38	104	1801453568	60	44862
2026-01-07 11:55:29.61	118.46	1.51	-49.3	-62.1	3.5	1.52e+00	0	38	104	1801453568	60	44606
2026-01-07 11:55:30.62	118.56	1.47	-49.3	-62.1	3.5	1.52e+00	0	38	104	1801453568	60	44771
2026-01-07 11:55:31.63	118.66	1.42	-49.3	-62.2	3.5	1.51e+00	0	38	104	1801453568	60	44983
2026-01-07 11:55:32.64	118.76	1.38	-49.3	-62.1	3.5	1.52e+00	0	38	104	1801453568	60	44786
2026-01-07 11:55:33.65	118.86	1.34	-49.3	-62.1	3.5	1.52e+00	0	38	104	1801453568	60	44742
2026-01-07 11:55:34.66	118.96	1.29	-49.3	-62.1	3.5	1.52e+00	0	38	104	1801453568	60	44783
2026-01-07 11:55:35.67	119.06	1.25	-49.3	-62.1	3.5	1.51e+00	0	38	104	1801453568	60	44619
2026-01-07 11:55:36.68	119.16	1.21	-49.3	-62.1	3.5	1.52e+00	0	38	104	1801453568	60	44686
2026-01-07 11:55:37.69	119.26	1.17	-49.3	-62.1	3.5	1.52e+00	0	38	104	1801453568	60	44651
2026-01-07 11:55:38.70	119.36	1.12	-49.3	-62.1	3.5	1.52e+00	0	38	104	1801453568	60	44582
2026-01-07 11:55:39.71	119.45	1.08	-49.2	-62.1	3.5	1.52e+00	0	37	104	1801453568	60	44847
2026-01-07 11:55:40.72	119.55	1.04	-49.3	-62.1	3.5	1.52e+00	0	37	104	1801453568	60	44803
2026-01-07 11:55:41.73	119.65	1.00	-49.3	-62.1	3.5	1.52e+00	0	38	104	1801453568	60	44835
2026-01-07 11:55:42.74	119.75	0.95	-49.3	-62.2	3.5	1.51e+00	0	38	104	1801453568	60	45007
2026-01-07 11:55:43.74	119.84	0.91	-49.3	-62.1	3.5	1.51e+00	0	38	104	1801453568	60	44843
2026-01-07 11:55:44.76	119.94	0.87	-49.3	-62.1	3.5	1.52e+00	0	38	104	1801453568	60	44727
2026-01-07 11:55:45.77	120.04	0.82	-49.3	-62.1	3.5	1.51e+00	0	38	104	1801453568	60	44803
2026-01-07 11:55:46.78	120.14	0.78	-49.3	-62.1	3.5	1.52e+00	0	38	104	1801453568	60	44805
2026-01-07 11:55:47.78	120.23	0.74	-49.2	-62.1	3.5	1.52e+00	0	38	104	1801453568	60	44626
2026-01-07 11:55:48.79	120.33	0.70	-49.3	-62.1	3.5	1.52e+00	0	38	104	1801453568	60	44848
2026-01-07 11:55:49.80	120.42	0.65	-49.2	-62.1	3.5	1.52e+00	0	38	104	1801453568	60	44686
2026-01-07 11:55:50.81	120.52	0.61	-49.3	-62.1	3.5	1.52e+00	0	38	104	1801453568	60	44761
2026-01-07 11:55:51.82	120.62	0.57	-49.3	-62.1	3.5	1.52e+00	0	38	104	1801453568	60	44789
2026-01-07 11:55:52.83	120.71	0.53	-49.2	-62.1	3.5	1.52e+00	0	38	104	1801453568	60	44580
2026-01-07 11:55:53.84	120.81	0.48	-49.3	-62.1	3.5	1.52e+00	0	38	104	1801453568	60	44754
2026-01-07 11:55:54.85	120.90	0.44	-49.2	-62.1	3.5	1.52e+00	0	38	104	1801453568	60	44637
