passes_logs/2026/01/07/R4.6S_Anadyr/R4.6S_Anadyr__20260107_200128_FENGYUN_3E_rec.log

#Pass ID: 20260107_200128_FENGYUN 3E
#Satellite: FENGYUN 3E
#Configuration: FENGYUN 3E
#almurnet v.1.7.20251203
#Start time: 2026-01-07 20:01:29

#Version: 2.2.20231116
#Station: R4.6S_Anadyr
#Location: 177.4865 lon 64.73178 lat
#TLE: 1 49008U 21062A   26005.56299987  .00000339  00000+0  18069-3 0  9991
#TLE: 2 49008  98.7472  10.8019 0001562 158.0357 202.0886 14.19884907233502

#Time	Az	El	Level	Level2	SNR	BER	BlckErr	Temp	State	Recorded	gain1	gain2
2026-01-07 20:01:29.77	23.24	0.09	-49.3	-64.2	3.5	1.51e+00	0	36	0	0	60	58926
2026-01-07 20:01:30.77	23.22	0.15	-49.1	-60.5	3.6	8.45e-01	0	37	104	0	60	38207
2026-01-07 20:01:31.78	23.19	0.21	-49.3	-60.4	3.6	8.45e-01	0	37	104	0	60	38057
2026-01-07 20:01:32.79	23.17	0.27	-49.3	-60.5	3.6	8.45e-01	0	37	104	0	60	38499
2026-01-07 20:01:33.80	23.15	0.33	-49.2	-60.5	3.6	8.45e-01	0	37	104	0	60	38357
2026-01-07 20:01:34.81	23.12	0.39	-49.3	-60.6	3.6	8.45e-01	0	37	104	0	60	38593
2026-01-07 20:01:35.82	23.10	0.45	-49.3	-60.6	3.6	8.45e-01	0	37	104	0	60	38896
2026-01-07 20:01:36.83	23.07	0.51	-49.4	-60.6	3.6	8.45e-01	0	37	104	0	60	38597
2026-01-07 20:01:37.84	23.05	0.57	-49.3	-60.5	3.6	8.44e-01	0	37	104	0	60	38380
2026-01-07 20:01:38.85	23.02	0.63	-49.2	-60.5	3.6	8.48e-01	0	37	104	0	60	38360
2026-01-07 20:01:39.86	23.00	0.69	-49.2	-60.4	3.6	8.46e-01	0	37	104	0	60	38032
2026-01-07 20:01:40.87	22.97	0.75	-49.1	-60.4	3.6	8.45e-01	0	37	104	0	60	37673
2026-01-07 20:01:41.88	22.95	0.81	-49.1	-60.3	3.6	8.46e-01	0	37	104	0	60	37376
2026-01-07 20:01:42.89	22.93	0.87	-48.9	-60.1	3.6	8.46e-01	0	37	104	0	60	36439
2026-01-07 20:01:43.89	22.90	0.93	-48.6	-59.9	3.6	8.46e-01	0	37	104	0	60	35771
2026-01-07 20:01:44.90	22.88	0.99	-48.5	-59.7	3.5	8.46e-01	0	37	104	0	60	34891
2026-01-07 20:01:45.91	22.85	1.05	-48.2	-59.4	3.6	8.45e-01	0	37	104	0	60	33787
2026-01-07 20:01:46.92	22.82	1.12	-47.9	-59.0	3.6	8.44e-01	0	37	104	0	60	32296
2026-01-07 20:01:47.93	22.80	1.18	-47.9	-59.0	3.6	8.45e-01	0	37	104	0	60	32308
2026-01-07 20:01:48.94	22.77	1.24	-47.9	-59.0	3.6	8.44e-01	0	37	104	0	60	32071
2026-01-07 20:01:49.95	22.75	1.30	-47.9	-59.0	3.6	8.44e-01	0	37	104	0	60	32066
2026-01-07 20:01:50.96	22.72	1.36	-47.9	-59.0	3.6	8.45e-01	0	37	104	0	60	32248
2026-01-07 20:01:51.97	22.70	1.42	-47.9	-59.0	3.6	8.46e-01	0	37	104	0	60	32278
2026-01-07 20:01:52.98	22.67	1.49	-47.9	-59.0	3.6	8.45e-01	0	37	104	0	60	32160
2026-01-07 20:01:53.99	22.64	1.55	-47.9	-58.8	3.6	8.46e-01	0	37	104	0	60	31520
2026-01-07 20:01:55.00	22.62	1.61	-47.8	-58.7	3.6	8.44e-01	0	37	104	0	60	31226
2026-01-07 20:01:56.01	22.59	1.67	-47.8	-58.5	3.6	8.45e-01	0	38	104	0	60	30440
2026-01-07 20:01:57.02	22.56	1.74	-47.8	-58.4	3.6	8.46e-01	0	37	104	0	60	29893
2026-01-07 20:01:58.03	22.54	1.80	-47.8	-58.3	3.6	8.46e-01	0	38	104	0	60	29796
2026-01-07 20:01:59.04	22.51	1.86	-47.8	-58.4	3.6	8.45e-01	0	38	104	0	60	30069
2026-01-07 20:02:00.05	22.48	1.92	-47.8	-58.6	3.6	8.44e-01	0	38	104	0	60	30602
2026-01-07 20:02:01.06	22.46	1.99	-47.8	-58.8	3.6	8.44e-01	0	38	104	0	60	31389
2026-01-07 20:02:02.07	22.43	2.05	-47.9	-59.0	3.6	8.46e-01	0	38	104	0	60	32122
2026-01-07 20:02:03.08	22.40	2.11	-47.9	-59.1	3.6	8.45e-01	0	38	104	0	60	32557
2026-01-07 20:02:04.09	22.37	2.18	-47.9	-59.0	3.6	8.44e-01	0	38	104	0	60	32134
2026-01-07 20:02:05.10	22.35	2.24	-47.9	-58.9	3.6	8.46e-01	0	38	104	0	60	31796
2026-01-07 20:02:06.11	22.32	2.30	-47.8	-58.7	3.6	8.44e-01	0	38	104	0	60	30971
2026-01-07 20:02:07.12	22.29	2.37	-47.8	-58.3	3.6	8.46e-01	0	38	104	0	60	29768
2026-01-07 20:02:08.12	22.26	2.43	-47.8	-58.1	3.6	8.45e-01	0	38	104	0	60	29201
2026-01-07 20:02:09.13	22.23	2.50	-47.7	-57.7	3.6	8.46e-01	0	38	104	0	60	27629
2026-01-07 20:02:10.14	22.21	2.56	-47.7	-57.3	3.6	8.45e-01	0	38	104	0	60	26583
2026-01-07 20:02:11.15	22.18	2.62	-47.6	-56.8	3.6	8.45e-01	0	38	104	0	60	25122
2026-01-07 20:02:12.16	22.15	2.69	-47.6	-56.9	3.6	8.44e-01	0	38	104	0	60	25393
2026-01-07 20:02:13.17	22.12	2.75	-47.7	-57.6	3.6	8.45e-01	0	38	104	0	60	27289
2026-01-07 20:02:14.18	22.09	2.82	-47.8	-58.0	3.6	8.45e-01	0	38	104	0	60	28818
2026-01-07 20:02:15.19	22.06	2.88	-47.7	-57.8	3.6	8.44e-01	0	38	104	0	60	27994
2026-01-07 20:02:16.20	22.03	2.95	-47.4	-55.6	4.1	8.42e-01	0	38	104	0	60	21695
2026-01-07 20:02:17.21	22.00	3.01	-46.6	-50.8	6.2	6.98e-01	0	38	0	1048576	60	12592
2026-01-07 20:02:18.22	21.97	3.08	-45.3	-48.3	9.3	3.48e-02	0	38	0	8388608	60	9401
2026-01-07 20:02:19.23	21.94	3.14	-43.8	-45.9	12.0	1.15e-03	0	38	0	15728640	60	7166
2026-01-07 20:02:20.24	21.91	3.21	-42.2	-43.8	14.3	6.80e-06	0	38	0	20971520	58	6251
2026-01-07 20:02:21.25	21.88	3.28	-41.0	-42.3	15.9	0.00e+00	0	38	0	28311552	56	5935
2026-01-07 20:02:22.26	21.85	3.34	-39.8	-40.8	17.2	0.00e+00	0	38	0	35651584	54	5630
2026-01-07 20:02:23.27	21.82	3.41	-39.4	-40.4	17.6	0.00e+00	0	38	0	42991616	52	6027
2026-01-07 20:02:24.28	21.79	3.47	-39.0	-40.0	18.0	0.00e+00	0	38	0	50331648	52	5749
2026-01-07 20:02:25.29	21.76	3.54	-39.0	-40.0	18.1	0.00e+00	0	38	0	57671680	52	5705
2026-01-07 20:02:26.30	21.73	3.61	-39.1	-40.1	17.9	0.00e+00	0	38	0	65011712	52	5821
2026-01-07 20:02:27.31	21.70	3.67	-40.0	-41.1	16.6	0.00e+00	0	38	0	72351744	52	6501
2026-01-07 20:02:28.31	21.67	3.74	-41.1	-42.4	16.3	0.00e+00	0	38	0	79691776	56	6013
2026-01-07 20:02:29.33	21.64	3.81	-40.6	-41.8	17.0	6.40e-05	0	38	0	87031808	58	4976
2026-01-07 20:02:30.33	21.61	3.87	-45.6	-49.5	11.0	8.41e-01	0	38	104	90177536	60	10731
2026-01-07 20:02:31.34	21.57	3.94	-36.9	-37.7	19.4	0.00e+00	0	38	0	92274688	46	6192
2026-01-07 20:02:32.35	21.54	4.01	-47.5	-56.4	4.2	8.44e-01	0	38	104	94371840	60	23788
2026-01-07 20:02:33.36	21.51	4.08	-35.7	-36.4	19.8	1.10e-01	0	38	104	94371840	44	5971
2026-01-07 20:02:34.37	21.48	4.14	-35.3	-36.1	22.0	0.00e+00	0	38	0	99614720	44	5769
2026-01-07 20:02:35.38	21.45	4.21	-35.0	-35.7	22.4	0.00e+00	0	38	0	106954752	44	5505
2026-01-07 20:02:36.39	21.41	4.28	-35.0	-35.7	22.4	0.00e+00	0	38	0	114294784	44	5562
2026-01-07 20:02:37.41	21.38	4.35	-35.0	-35.7	22.4	0.00e+00	0	38	0	121634816	44	5514
2026-01-07 20:02:38.41	21.35	4.42	-35.0	-35.7	22.3	0.00e+00	0	38	0	127926272	44	5537
2026-01-07 20:02:39.43	21.32	4.49	-35.2	-35.9	22.2	0.00e+00	0	38	0	135266304	44	5665
2026-01-07 20:02:40.44	21.28	4.56	-34.9	-35.6	22.5	0.00e+00	0	38	0	143654912	44	5477
2026-01-07 20:02:41.45	21.25	4.62	-34.9	-35.7	22.5	0.00e+00	0	38	0	149946368	44	5506
2026-01-07 20:02:42.45	21.22	4.69	-34.8	-35.5	22.6	0.00e+00	0	38	0	157286400	44	5433
2026-01-07 20:02:43.46	21.18	4.76	-34.9	-35.6	22.5	0.00e+00	0	38	0	164626432	42	6136
2026-01-07 20:02:44.47	21.15	4.83	-35.0	-35.7	22.5	0.00e+00	0	38	0	171966464	42	6198
2026-01-07 20:02:45.48	21.11	4.90	-34.9	-35.6	22.6	0.00e+00	0	38	0	179306496	42	6118
2026-01-07 20:02:46.49	21.08	4.97	-34.8	-35.5	22.7	0.00e+00	0	38	0	186646528	42	6092
2026-01-07 20:02:47.50	21.04	5.04	-34.8	-35.5	22.8	0.00e+00	0	38	0	193986560	42	6041
2026-01-07 20:02:48.51	21.01	5.11	-34.7	-35.4	22.8	0.00e+00	0	38	0	201326592	42	5982
2026-01-07 20:02:49.52	20.98	5.18	-34.7	-35.4	22.8	0.00e+00	0	38	0	208666624	42	6027
2026-01-07 20:02:50.53	20.94	5.25	-34.6	-35.3	22.9	0.00e+00	0	38	0	216006656	42	5915
2026-01-07 20:02:51.55	20.90	5.32	-34.6	-35.3	23.0	0.00e+00	0	38	0	223346688	42	5909
2026-01-07 20:02:52.56	20.87	5.39	-34.6	-35.3	22.9	0.00e+00	0	38	0	230686720	42	5941
2026-01-07 20:02:53.57	20.83	5.47	-34.5	-35.2	23.0	0.00e+00	0	38	0	238026752	42	5875
2026-01-07 20:02:54.58	20.80	5.54	-34.6	-35.2	23.0	0.00e+00	0	38	0	245366784	42	5896
2026-01-07 20:02:55.59	20.76	5.61	-34.7	-35.4	23.1	0.00e+00	0	38	0	252706816	42	5966
2026-01-07 20:02:56.60	20.73	5.68	-34.5	-35.1	23.0	0.00e+00	0	38	0	260046848	42	5819
2026-01-07 20:02:57.61	20.69	5.75	-34.5	-35.2	23.0	0.00e+00	0	38	0	267386880	42	5876
2026-01-07 20:02:58.62	20.65	5.82	-34.4	-35.1	23.1	0.00e+00	0	38	0	273678336	42	5793
2026-01-07 20:02:59.63	20.62	5.90	-34.6	-35.2	23.0	0.00e+00	0	38	0	282066944	42	5891
2026-01-07 20:03:00.64	20.58	5.97	-34.4	-35.1	23.2	0.00e+00	0	38	0	289406976	42	5773
2026-01-07 20:03:01.65	20.54	6.04	-34.5	-35.1	23.3	0.00e+00	0	38	0	295698432	42	5824
2026-01-07 20:03:02.66	20.50	6.11	-34.4	-35.0	23.3	0.00e+00	0	38	0	303038464	42	5757
2026-01-07 20:03:03.67	20.47	6.19	-34.3	-35.0	23.3	0.00e+00	0	38	0	310378496	42	5741
2026-01-07 20:03:04.68	20.43	6.26	-34.4	-35.1	23.3	0.00e+00	0	38	0	317718528	42	5765
2026-01-07 20:03:05.69	20.39	6.33	-34.2	-34.9	23.4	0.00e+00	0	38	0	325058560	42	5632
2026-01-07 20:03:06.70	20.35	6.41	-34.2	-34.9	23.4	0.00e+00	0	38	0	332398592	42	5642
2026-01-07 20:03:07.71	20.31	6.48	-34.2	-34.9	23.5	0.00e+00	0	38	0	339738624	42	5640
2026-01-07 20:03:08.72	20.28	6.55	-34.1	-34.8	23.6	0.00e+00	0	38	0	347078656	42	5588
2026-01-07 20:03:09.73	20.24	6.63	-34.1	-34.8	23.6	0.00e+00	0	38	0	354418688	42	5602
2026-01-07 20:03:10.74	20.20	6.70	-34.2	-34.8	23.5	0.00e+00	0	38	0	361758720	42	5619
2026-01-07 20:03:11.75	20.16	6.78	-34.0	-34.7	23.7	0.00e+00	0	38	0	369098752	42	5535
2026-01-07 20:03:12.76	20.12	6.85	-34.2	-34.9	23.6	0.00e+00	0	38	0	376438784	42	5667
2026-01-07 20:03:13.77	20.08	6.93	-34.1	-34.8	23.7	0.00e+00	0	38	0	383778816	42	5590
2026-01-07 20:03:14.78	20.04	7.00	-34.2	-34.9	23.5	0.00e+00	0	38	0	391118848	42	5651
2026-01-07 20:03:15.79	20.00	7.08	-34.1	-34.8	23.6	0.00e+00	0	38	0	398458880	42	5597
2026-01-07 20:03:16.80	19.96	7.15	-34.0	-34.7	23.7	0.00e+00	0	38	0	405798912	42	5520
2026-01-07 20:03:17.81	19.92	7.23	-34.3	-35.0	23.4	0.00e+00	0	38	0	413138944	42	5714
2026-01-07 20:03:18.82	19.88	7.30	-34.1	-34.8	23.7	0.00e+00	0	38	0	420478976	42	5598
2026-01-07 20:03:19.83	19.84	7.38	-34.1	-34.8	23.7	0.00e+00	0	38	0	426770432	42	5583
2026-01-07 20:03:20.84	19.79	7.46	-33.9	-34.5	23.9	0.00e+00	0	38	0	435159040	42	5422
2026-01-07 20:03:21.85	19.75	7.53	-33.9	-34.5	23.8	0.00e+00	0	38	0	442499072	40	6103
2026-01-07 20:03:22.86	19.71	7.61	-33.8	-34.5	24.0	0.00e+00	0	38	0	448790528	40	6065
2026-01-07 20:03:23.87	19.67	7.69	-33.9	-34.5	23.8	0.00e+00	0	38	0	456130560	40	6099
2026-01-07 20:03:24.88	19.63	7.76	-33.8	-34.4	24.0	0.00e+00	0	38	0	463470592	40	5999
2026-01-07 20:03:25.89	19.58	7.84	-33.7	-34.3	24.0	0.00e+00	0	38	0	470810624	40	5958
2026-01-07 20:03:26.90	19.54	7.92	-33.8	-34.4	24.1	0.00e+00	0	38	0	478150656	40	6010
2026-01-07 20:03:27.91	19.50	8.00	-33.6	-34.2	24.1	0.00e+00	0	38	0	485490688	40	5894
2026-01-07 20:03:28.92	19.45	8.07	-33.7	-34.3	24.2	0.00e+00	0	38	0	492830720	40	5922
2026-01-07 20:03:29.93	19.41	8.15	-33.7	-34.4	24.1	0.00e+00	0	38	0	500170752	40	5979
2026-01-07 20:03:30.94	19.37	8.23	-33.6	-34.3	24.3	0.00e+00	0	38	0	507510784	40	5899
2026-01-07 20:03:31.95	19.32	8.31	-33.5	-34.1	24.4	0.00e+00	0	38	0	514850816	40	5793
2026-01-07 20:03:32.96	19.28	8.39	-33.5	-34.1	24.3	0.00e+00	0	38	0	522190848	40	5791
2026-01-07 20:03:33.97	19.23	8.47	-33.5	-34.1	24.3	0.00e+00	0	38	0	529530880	40	5814
2026-01-07 20:03:34.98	19.19	8.55	-33.5	-34.1	24.3	0.00e+00	0	38	0	536870912	40	5807
2026-01-07 20:03:35.99	19.14	8.63	-33.6	-34.3	24.2	0.00e+00	0	38	0	544210944	40	5906
2026-01-07 20:03:37.00	19.10	8.71	-33.6	-34.2	24.2	0.00e+00	0	38	0	551550976	40	5896
2026-01-07 20:03:38.01	19.05	8.79	-33.5	-34.1	24.4	0.00e+00	0	38	0	558891008	40	5804
2026-01-07 20:03:39.02	19.01	8.87	-33.4	-34.0	24.4	0.00e+00	0	38	0	566231040	40	5726
2026-01-07 20:03:40.02	18.96	8.95	-33.5	-34.2	24.3	0.00e+00	0	38	0	572522496	40	5843
2026-01-07 20:03:41.03	18.91	9.03	-33.2	-33.9	24.5	0.00e+00	0	38	0	580911104	40	5646
2026-01-07 20:03:42.05	18.87	9.11	-33.5	-34.2	24.4	0.00e+00	0	38	0	588251136	40	5830
2026-01-07 20:03:43.06	18.82	9.19	-33.5	-34.1	24.5	0.00e+00	0	38	0	594542592	40	5801
2026-01-07 20:03:44.06	18.77	9.27	-33.3	-34.0	24.5	0.00e+00	0	38	0	601882624	40	5716
2026-01-07 20:03:45.07	18.73	9.35	-33.4	-34.0	24.5	0.00e+00	0	38	0	609222656	40	5724
2026-01-07 20:03:46.08	18.68	9.44	-33.2	-33.8	24.6	0.00e+00	0	38	0	616562688	40	5627
2026-01-07 20:03:47.09	18.63	9.52	-33.4	-34.1	24.5	0.00e+00	0	38	0	623902720	40	5769
2026-01-07 20:03:48.10	18.58	9.60	-33.2	-33.8	24.7	0.00e+00	0	38	0	631242752	40	5604
2026-01-07 20:03:49.11	18.53	9.68	-33.3	-33.9	24.6	0.00e+00	0	38	0	638582784	40	5675
2026-01-07 20:03:50.12	18.48	9.77	-33.2	-33.9	24.7	0.00e+00	0	38	0	645922816	40	5635
2026-01-07 20:03:51.13	18.43	9.85	-33.3	-33.9	24.5	0.00e+00	0	38	0	653262848	40	5660
2026-01-07 20:03:52.14	18.38	9.94	-33.3	-34.0	24.6	0.00e+00	0	38	0	660602880	40	5704
2026-01-07 20:03:53.15	18.33	10.02	-33.3	-34.0	24.5	0.00e+00	0	38	0	667942912	40	5729
2026-01-07 20:03:54.16	18.28	10.10	-33.1	-33.7	24.8	0.00e+00	0	38	0	675282944	40	5533
2026-01-07 20:03:55.17	18.23	10.19	-33.2	-33.9	24.7	0.00e+00	0	38	0	682622976	40	5645
2026-01-07 20:03:56.18	18.18	10.27	-33.0	-33.6	24.9	0.00e+00	0	38	0	689963008	40	5491
2026-01-07 20:03:57.19	18.13	10.36	-33.0	-33.7	24.9	0.00e+00	0	38	0	697303040	40	5504
2026-01-07 20:03:58.20	18.08	10.44	-32.9	-33.5	25.0	0.00e+00	0	38	0	704643072	40	5411
2026-01-07 20:03:59.22	18.02	10.53	-32.9	-33.5	25.0	0.00e+00	0	38	0	711983104	40	5399
2026-01-07 20:04:00.23	17.97	10.61	-32.9	-33.5	25.1	0.00e+00	0	38	0	719323136	40	5426
2026-01-07 20:04:01.24	17.92	10.70	-32.8	-33.4	25.1	0.00e+00	0	38	0	726663168	40	5347
2026-01-07 20:04:02.25	17.87	10.79	-32.9	-33.5	25.0	0.00e+00	0	38	0	734003200	38	6070
2026-01-07 20:04:03.26	17.81	10.87	-32.9	-33.5	25.1	0.00e+00	0	38	0	741343232	38	6059
2026-01-07 20:04:04.27	17.76	10.96	-32.8	-33.4	25.1	0.00e+00	0	38	0	747634688	38	6010
2026-01-07 20:04:05.27	17.71	11.05	-32.7	-33.3	25.2	0.00e+00	0	38	0	754974720	38	5932
2026-01-07 20:04:06.28	17.65	11.13	-32.7	-33.4	25.2	0.00e+00	0	38	0	763363328	38	5977
2026-01-07 20:04:07.29	17.60	11.22	-32.8	-33.4	25.2	0.00e+00	0	38	0	769654784	38	5990
2026-01-07 20:04:08.30	17.54	11.31	-32.9	-33.5	25.0	0.00e+00	0	38	0	776994816	38	6088
2026-01-07 20:04:09.31	17.49	11.40	-32.7	-33.3	25.2	0.00e+00	0	38	0	784334848	38	5940
2026-01-07 20:04:10.32	17.43	11.49	-32.7	-33.3	25.2	0.00e+00	0	38	0	791674880	38	5917
2026-01-07 20:04:11.33	17.37	11.58	-32.6	-33.2	25.3	0.00e+00	0	38	0	799014912	38	5854
2026-01-07 20:04:12.34	17.32	11.66	-32.5	-33.1	25.4	0.00e+00	0	38	0	806354944	38	5826
2026-01-07 20:04:13.35	17.26	11.75	-32.5	-33.1	25.4	0.00e+00	0	38	0	813694976	38	5809
2026-01-07 20:04:14.36	17.20	11.84	-32.4	-33.0	25.4	0.00e+00	0	38	0	821035008	38	5748
2026-01-07 20:04:15.37	17.15	11.93	-32.5	-33.1	25.3	0.00e+00	0	38	0	828375040	38	5801
2026-01-07 20:04:16.38	17.09	12.02	-32.5	-33.1	25.4	0.00e+00	0	38	0	835715072	38	5782
2026-01-07 20:04:17.39	17.03	12.12	-32.6	-33.3	25.3	0.00e+00	0	38	0	843055104	38	5908
2026-01-07 20:04:18.40	16.97	12.21	-32.7	-33.3	25.3	0.00e+00	0	38	0	850395136	38	5915
2026-01-07 20:04:19.41	16.91	12.30	-32.7	-33.3	25.3	0.00e+00	0	38	0	857735168	38	5959
2026-01-07 20:04:20.42	16.85	12.39	-32.9	-33.6	25.2	0.00e+00	0	38	0	865075200	38	6115
2026-01-07 20:04:21.43	16.79	12.48	-32.7	-33.3	25.2	0.00e+00	0	38	0	872415232	38	5926
2026-01-07 20:04:22.44	16.73	12.57	-32.8	-33.5	25.2	0.00e+00	0	38	0	879755264	38	6034
2026-01-07 20:04:23.45	16.67	12.67	-32.8	-33.4	25.3	0.00e+00	0	38	0	887095296	38	6023
2026-01-07 20:04:24.46	16.61	12.76	-32.9	-33.6	25.2	0.00e+00	0	38	0	893386752	38	6112
2026-01-07 20:04:25.46	16.55	12.85	-32.7	-33.3	25.3	0.00e+00	0	39	0	900726784	38	5919
2026-01-07 20:04:26.48	16.49	12.95	-32.9	-33.6	25.1	0.00e+00	0	39	0	908066816	38	6115
2026-01-07 20:04:27.49	16.42	13.04	-32.3	-32.9	25.7	0.00e+00	0	38	0	915406848	38	5659
2026-01-07 20:04:28.50	16.36	13.13	-32.2	-32.8	25.8	0.00e+00	0	38	0	922746880	38	5622
2026-01-07 20:04:29.51	16.30	13.23	-32.2	-32.8	25.7	0.00e+00	0	38	0	930086912	38	5621
2026-01-07 20:04:30.51	16.23	13.32	-32.1	-32.7	25.9	0.00e+00	0	38	0	937426944	38	5553
2026-01-07 20:04:31.53	16.17	13.42	-32.1	-32.7	25.8	0.00e+00	0	39	0	944766976	38	5549
2026-01-07 20:04:32.54	16.10	13.51	-32.1	-32.7	25.8	0.00e+00	0	39	0	952107008	38	5531
2026-01-07 20:04:33.55	16.04	13.61	-32.2	-32.8	25.9	0.00e+00	0	38	0	959447040	38	5582
2026-01-07 20:04:34.56	15.97	13.71	-32.2	-32.8	25.6	0.00e+00	0	39	0	966787072	38	5578
2026-01-07 20:04:35.57	15.91	13.80	-32.3	-32.9	25.8	0.00e+00	0	38	0	974127104	38	5639
2026-01-07 20:04:36.58	15.84	13.90	-32.1	-32.7	25.8	0.00e+00	0	39	0	981467136	38	5515
2026-01-07 20:04:37.59	15.77	14.00	-32.0	-32.6	25.9	0.00e+00	0	38	0	988807168	38	5456
2026-01-07 20:04:38.60	15.71	14.09	-32.2	-32.8	25.8	0.00e+00	0	39	0	996147200	38	5587
2026-01-07 20:04:39.61	15.64	14.19	-32.1	-32.7	25.8	0.00e+00	0	38	0	1003487232	38	5537
2026-01-07 20:04:40.62	15.57	14.29	-32.0	-32.6	26.0	0.00e+00	0	39	0	1010827264	38	5469
2026-01-07 20:04:41.63	15.50	14.39	-31.9	-32.5	26.0	0.00e+00	0	38	0	1018167296	38	5380
2026-01-07 20:04:42.64	15.43	14.49	-31.8	-32.4	26.2	0.00e+00	0	38	0	1025507328	38	5336
2026-01-07 20:04:43.65	15.36	14.59	-31.9	-32.5	26.1	0.00e+00	0	38	0	1032847360	38	5427
2026-01-07 20:04:44.66	15.29	14.69	-31.7	-32.3	26.1	0.00e+00	0	38	0	1040187392	36	5960
2026-01-07 20:04:45.67	15.22	14.79	-31.8	-32.4	26.0	0.00e+00	0	38	0	1046478848	36	6015
2026-01-07 20:04:46.68	15.15	14.89	-31.7	-32.3	26.2	0.00e+00	0	39	0	1053818880	36	5939
2026-01-07 20:04:47.69	15.08	14.99	-31.7	-32.3	26.2	0.00e+00	0	39	0	1062207488	36	5908
2026-01-07 20:04:48.70	15.01	15.09	-31.6	-32.3	26.2	0.00e+00	0	38	0	1068498944	36	5899
2026-01-07 20:04:49.71	14.93	15.19	-31.6	-32.2	26.4	0.00e+00	0	38	0	1075838976	36	5845
2026-01-07 20:04:50.72	14.86	15.29	-31.5	-32.1	26.4	0.00e+00	0	38	0	1083179008	36	5801
2026-01-07 20:04:51.73	14.79	15.39	-31.6	-32.2	26.3	0.00e+00	0	38	0	1090519040	36	5873
2026-01-07 20:04:52.74	14.71	15.50	-31.5	-32.1	26.4	0.00e+00	0	38	0	1097859072	36	5804
2026-01-07 20:04:53.75	14.64	15.60	-31.5	-32.1	26.3	0.00e+00	0	38	0	1105199104	36	5814
2026-01-07 20:04:54.76	14.56	15.70	-31.3	-31.9	26.5	0.00e+00	0	38	0	1112539136	36	5687
2026-01-07 20:04:55.77	14.49	15.81	-31.5	-32.1	26.4	0.00e+00	0	38	0	1119879168	36	5824
2026-01-07 20:04:56.78	14.41	15.91	-31.3	-31.9	26.5	0.00e+00	0	39	0	1127219200	36	5689
2026-01-07 20:04:57.79	14.33	16.02	-31.4	-32.0	26.5	0.00e+00	0	38	0	1134559232	36	5732
2026-01-07 20:04:58.80	14.25	16.12	-31.4	-32.0	26.4	0.00e+00	0	38	0	1141899264	36	5755
2026-01-07 20:04:59.81	14.18	16.23	-31.3	-31.9	26.6	0.00e+00	0	38	0	1149239296	36	5695
2026-01-07 20:05:00.82	14.10	16.33	-31.3	-31.9	26.6	0.00e+00	0	38	0	1156579328	36	5679
2026-01-07 20:05:01.83	14.02	16.44	-31.4	-32.0	26.5	0.00e+00	0	38	0	1163919360	36	5724
2026-01-07 20:05:02.84	13.94	16.55	-31.2	-31.8	26.6	0.00e+00	0	39	0	1171259392	36	5602
2026-01-07 20:05:03.85	13.86	16.65	-31.3	-31.9	26.6	0.00e+00	0	38	0	1178599424	36	5651
2026-01-07 20:05:04.86	13.78	16.76	-31.1	-31.7	26.8	0.00e+00	0	38	0	1185939456	36	5542
2026-01-07 20:05:05.87	13.69	16.87	-31.2	-31.8	26.7	0.00e+00	0	38	0	1193279488	36	5596
2026-01-07 20:05:06.88	13.61	16.98	-31.3	-31.9	26.6	0.00e+00	0	38	0	1199570944	36	5640
2026-01-07 20:05:07.89	13.53	17.08	-31.3	-31.9	26.6	0.00e+00	0	38	0	1207959552	36	5642
2026-01-07 20:05:08.90	13.44	17.19	-31.3	-31.8	26.6	0.00e+00	0	38	0	1214251008	36	5628
2026-01-07 20:05:09.91	13.36	17.30	-31.2	-31.8	26.7	0.00e+00	0	39	0	1221591040	36	5615
2026-01-07 20:05:10.92	13.28	17.41	-31.3	-31.9	26.6	0.00e+00	0	39	0	1228931072	36	5644
2026-01-07 20:05:11.93	13.19	17.52	-31.1	-31.7	26.8	0.00e+00	0	38	0	1236271104	36	5548
2026-01-07 20:05:12.94	13.10	17.63	-31.2	-31.8	26.6	0.00e+00	0	38	0	1243611136	36	5567
2026-01-07 20:05:13.95	13.02	17.75	-31.1	-31.7	26.8	0.00e+00	0	39	0	1250951168	36	5517
2026-01-07 20:05:14.96	12.93	17.86	-31.2	-31.8	26.7	0.00e+00	0	38	0	1258291200	36	5576
2026-01-07 20:05:15.97	12.84	17.97	-31.1	-31.7	26.8	0.00e+00	0	38	0	1265631232	36	5532
2026-01-07 20:05:16.98	12.75	18.08	-30.7	-31.3	27.0	0.00e+00	0	38	0	1272971264	36	5264
2026-01-07 20:05:17.99	12.66	18.19	-30.9	-31.5	27.0	0.00e+00	0	39	0	1280311296	34	6037
2026-01-07 20:05:18.99	12.57	18.31	-30.7	-31.3	27.1	0.00e+00	0	38	0	1287651328	34	5921
2026-01-07 20:05:20.00	12.48	18.42	-30.8	-31.3	27.1	0.00e+00	0	38	0	1294991360	34	5951
2026-01-07 20:05:21.01	12.39	18.54	-30.7	-31.3	27.1	0.00e+00	0	38	0	1302331392	34	5928
2026-01-07 20:05:22.02	12.30	18.65	-30.8	-31.4	27.1	0.00e+00	0	39	0	1309671424	34	5965
2026-01-07 20:05:23.03	12.20	18.77	-30.9	-31.4	26.9	0.00e+00	0	39	0	1317011456	34	6031
2026-01-07 20:05:24.04	12.11	18.88	-30.5	-31.0	27.3	0.00e+00	0	39	0	1324351488	34	5748
2026-01-07 20:05:25.05	12.01	19.00	-30.5	-31.0	27.3	0.00e+00	0	38	0	1331691520	34	5751
2026-01-07 20:05:26.06	11.92	19.11	-30.4	-31.0	27.3	0.00e+00	0	39	0	1339031552	34	5712
2026-01-07 20:05:27.07	11.82	19.23	-30.3	-30.8	27.5	0.00e+00	0	38	0	1345323008	34	5628
2026-01-07 20:05:28.08	11.73	19.35	-30.3	-30.9	27.4	0.00e+00	0	38	0	1353711616	34	5681
2026-01-07 20:05:29.09	11.63	19.47	-30.4	-30.9	27.4	0.00e+00	0	38	0	1361051648	34	5691
2026-01-07 20:05:30.10	11.53	19.58	-30.4	-31.0	27.4	0.00e+00	0	38	0	1367343104	34	5715
2026-01-07 20:05:31.11	11.43	19.70	-30.0	-30.6	27.7	0.00e+00	0	39	0	1374683136	34	5482
2026-01-07 20:05:32.12	11.33	19.82	-30.0	-30.5	27.7	0.00e+00	0	39	0	1382023168	34	5432
2026-01-07 20:05:33.13	11.23	19.94	-30.0	-30.6	27.7	0.00e+00	0	38	0	1389363200	34	5473
2026-01-07 20:05:34.14	11.13	20.06	-30.2	-30.8	27.5	0.00e+00	0	38	0	1396703232	34	5619
2026-01-07 20:05:35.15	11.02	20.18	-30.1	-30.7	27.6	0.00e+00	0	38	0	1404043264	34	5541
2026-01-07 20:05:36.16	10.92	20.31	-30.1	-30.7	27.6	0.00e+00	0	38	0	1411383296	34	5543
2026-01-07 20:05:37.17	10.82	20.43	-30.2	-30.8	27.5	0.00e+00	0	38	0	1418723328	34	5597
2026-01-07 20:05:38.18	10.71	20.55	-30.2	-30.8	27.5	0.00e+00	0	38	0	1426063360	34	5603
2026-01-07 20:05:39.19	10.60	20.67	-30.1	-30.7	27.6	0.00e+00	0	39	0	1433403392	34	5544
2026-01-07 20:05:40.20	10.50	20.80	-30.2	-30.8	27.5	0.00e+00	0	39	0	1440743424	34	5567
2026-01-07 20:05:41.22	10.39	20.92	-30.1	-30.7	27.6	0.00e+00	0	39	0	1448083456	34	5521
2026-01-07 20:05:42.22	10.28	21.04	-30.1	-30.7	27.6	0.00e+00	0	38	0	1455423488	34	5543
2026-01-07 20:05:43.23	10.17	21.17	-30.0	-30.6	27.6	0.00e+00	0	39	0	1462763520	34	5463
2026-01-07 20:05:44.25	10.06	21.30	-30.1	-30.7	27.6	0.00e+00	0	39	0	1470103552	34	5518
2026-01-07 20:05:45.26	9.95	21.42	-29.9	-30.5	27.8	0.00e+00	0	39	0	1477443584	34	5420
2026-01-07 20:05:46.27	9.84	21.55	-30.0	-30.5	27.8	0.00e+00	0	39	0	1484783616	34	5428
2026-01-07 20:05:47.28	9.72	21.68	-30.1	-30.7	27.8	0.00e+00	0	39	0	1492123648	34	5525
2026-01-07 20:05:48.29	9.61	21.80	-29.9	-30.4	27.5	0.00e+00	0	39	0	1499463680	34	5374
2026-01-07 20:05:49.30	9.49	21.93	-30.1	-30.7	27.6	0.00e+00	0	39	0	1506803712	34	5545
2026-01-07 20:05:50.31	9.38	22.06	-30.1	-30.7	27.7	0.00e+00	0	39	0	1514143744	34	5514
2026-01-07 20:05:51.32	9.26	22.19	-30.1	-30.6	27.6	0.00e+00	0	39	0	1520435200	34	5493
2026-01-07 20:05:52.33	9.14	22.32	-30.3	-30.9	27.5	0.00e+00	0	38	0	1528823808	34	5640
2026-01-07 20:05:53.34	9.02	22.45	-30.1	-30.6	27.7	0.00e+00	0	39	0	1536163840	34	5496
2026-01-07 20:05:54.35	8.90	22.58	-30.1	-30.7	27.7	0.00e+00	0	38	0	1542455296	34	5527
2026-01-07 20:05:55.36	8.78	22.71	-30.1	-30.7	27.6	0.00e+00	0	38	0	1549795328	34	5532
2026-01-07 20:05:56.37	8.66	22.84	-30.1	-30.7	27.6	0.00e+00	0	39	0	1557135360	34	5532
2026-01-07 20:05:57.38	8.53	22.97	-30.3	-30.9	27.6	0.00e+00	0	39	0	1564475392	34	5652
2026-01-07 20:05:58.39	8.41	23.11	-30.4	-31.0	27.5	0.00e+00	0	38	0	1571815424	34	5707
2026-01-07 20:05:59.40	8.28	23.24	-30.4	-31.0	27.5	0.00e+00	0	39	0	1579155456	34	5712
2026-01-07 20:06:00.41	8.15	23.37	-30.3	-30.9	27.5	0.00e+00	0	39	0	1586495488	34	5670
2026-01-07 20:06:01.42	8.03	23.51	-30.4	-31.0	27.3	0.00e+00	0	39	0	1593835520	34	5749
2026-01-07 20:06:02.43	7.90	23.64	-30.3	-30.9	27.5	0.00e+00	0	38	0	1601175552	34	5683
2026-01-07 20:06:03.44	7.77	23.78	-30.3	-30.9	27.6	0.00e+00	0	39	0	1608515584	34	5643
2026-01-07 20:06:04.45	7.64	23.91	-30.4	-30.9	27.5	0.00e+00	0	38	0	1615855616	34	5691
2026-01-07 20:06:05.46	7.50	24.05	-30.4	-30.9	27.4	0.00e+00	0	39	0	1623195648	34	5685
2026-01-07 20:06:06.48	7.37	24.19	-30.4	-31.0	27.5	0.00e+00	0	39	0	1630535680	34	5746
2026-01-07 20:06:07.49	7.23	24.32	-30.5	-31.1	27.5	0.00e+00	0	39	0	1637875712	34	5797
2026-01-07 20:06:08.50	7.10	24.46	-30.5	-31.1	27.5	0.00e+00	0	39	0	1645215744	34	5784
2026-01-07 20:06:09.51	6.96	24.60	-30.6	-31.2	27.4	0.00e+00	0	39	0	1652555776	34	5850
2026-01-07 20:06:10.52	6.82	24.74	-30.5	-31.1	27.4	0.00e+00	0	39	0	1659895808	34	5769
2026-01-07 20:06:11.53	6.68	24.88	-30.4	-30.9	27.6	0.00e+00	0	39	0	1666187264	34	5692
2026-01-07 20:06:12.54	6.54	25.02	-30.5	-31.1	27.4	0.00e+00	0	39	0	1674575872	34	5798
2026-01-07 20:06:13.55	6.40	25.16	-30.5	-31.1	27.4	0.00e+00	0	39	0	1681915904	34	5779
2026-01-07 20:06:14.56	6.25	25.30	-30.7	-31.3	27.1	0.00e+00	0	39	0	1688207360	34	5910
2026-01-07 20:06:15.57	6.11	25.45	-30.6	-31.2	27.4	0.00e+00	0	39	0	1695547392	34	5833
2026-01-07 20:06:16.58	5.96	25.59	-30.5	-31.1	27.4	0.00e+00	0	39	0	1702887424	34	5801
2026-01-07 20:06:17.59	5.81	25.73	-30.4	-31.0	27.4	0.00e+00	0	39	0	1710227456	34	5717
2026-01-07 20:06:18.60	5.66	25.87	-30.5	-31.1	27.4	0.00e+00	0	39	0	1717567488	34	5777
2026-01-07 20:06:19.61	5.51	26.02	-30.2	-30.7	27.5	0.00e+00	0	38	0	1724907520	34	5556
2026-01-07 20:06:20.62	5.36	26.16	-30.3	-30.9	27.4	0.00e+00	0	38	0	1732247552	34	5673
2026-01-07 20:06:21.63	5.21	26.31	-30.4	-31.0	27.5	0.00e+00	0	39	0	1739587584	34	5703
2026-01-07 20:06:22.64	5.05	26.45	-30.2	-30.8	27.7	0.00e+00	0	39	0	1746927616	34	5599
2026-01-07 20:06:23.65	4.89	26.60	-30.1	-30.7	27.7	0.00e+00	0	39	0	1754267648	34	5559
2026-01-07 20:06:24.66	4.74	26.75	-30.2	-30.8	27.6	0.00e+00	0	39	0	1761607680	34	5592
2026-01-07 20:06:25.67	4.58	26.90	-30.1	-30.7	27.8	0.00e+00	0	38	0	1768947712	34	5510
2026-01-07 20:06:26.68	4.42	27.04	-30.1	-30.7	27.7	0.00e+00	0	39	0	1776287744	34	5516
2026-01-07 20:06:27.69	4.25	27.19	-29.8	-30.4	28.0	0.00e+00	0	39	0	1783627776	34	5348
2026-01-07 20:06:28.70	4.09	27.34	-29.8	-30.3	28.1	0.00e+00	0	39	0	1790967808	34	5299
2026-01-07 20:06:29.71	3.92	27.49	-29.4	-29.9	28.3	0.00e+00	0	38	0	1798307840	32	5695
2026-01-07 20:06:30.72	3.76	27.64	-29.3	-29.9	28.4	0.00e+00	0	39	0	1805647872	32	5637
2026-01-07 20:06:31.73	3.59	27.79	-29.0	-29.6	28.5	0.00e+00	0	39	0	1812987904	32	5462
2026-01-07 20:06:32.74	3.42	27.94	-29.0	-29.6	28.5	0.00e+00	0	39	0	1820327936	32	5461
2026-01-07 20:06:33.75	3.24	28.10	-29.0	-29.5	28.5	0.00e+00	0	39	0	1827667968	32	5412
2026-01-07 20:06:34.76	3.07	28.25	-29.0	-29.6	28.5	0.00e+00	0	39	0	1835008000	32	5452
2026-01-07 20:06:35.77	2.89	28.40	-29.0	-29.6	28.5	0.00e+00	0	38	0	1841299456	30	6125
2026-01-07 20:06:36.78	2.72	28.55	-28.9	-29.5	28.6	0.00e+00	0	38	0	1849688064	30	6068
2026-01-07 20:06:37.80	2.54	28.71	-29.2	-29.7	28.4	0.00e+00	0	38	0	1857028096	30	6235
2026-01-07 20:06:38.81	2.35	28.86	-29.0	-29.6	28.5	0.00e+00	0	39	0	1863319552	30	6123
2026-01-07 20:06:39.82	2.17	29.02	-29.2	-29.8	28.3	0.00e+00	0	38	0	1870659584	30	6271
2026-01-07 20:06:40.83	1.99	29.17	-29.4	-30.0	28.5	0.00e+00	0	39	0	1877999616	30	6433
2026-01-07 20:06:41.84	1.80	29.33	-29.4	-29.9	28.3	0.00e+00	0	39	0	1885339648	30	6383
2026-01-07 20:06:42.85	1.61	29.49	-29.3	-29.8	28.4	0.00e+00	0	39	0	1892679680	30	6312
2026-01-07 20:06:43.86	1.42	29.65	-29.4	-29.9	28.3	0.00e+00	0	39	0	1900019712	30	6377
2026-01-07 20:06:44.87	1.23	29.80	-29.4	-29.9	28.2	0.00e+00	0	39	0	1907359744	30	6372
2026-01-07 20:06:45.88	1.04	29.96	-29.1	-29.6	28.3	0.00e+00	0	39	0	1914699776	30	6154
2026-01-07 20:06:46.89	0.84	30.12	-29.5	-30.0	28.3	0.00e+00	0	39	0	1922039808	30	6451
2026-01-07 20:06:47.90	0.64	30.28	-29.4	-29.9	28.3	0.00e+00	0	39	0	1929379840	30	6375
2026-01-07 20:06:48.91	0.44	30.44	-29.6	-30.1	28.1	0.00e+00	0	39	0	1936719872	30	6532
2026-01-07 20:06:49.92	0.24	30.60	-29.6	-30.1	28.2	0.00e+00	0	38	0	1944059904	30	6537
2026-01-07 20:06:50.93	0.04	30.76	-29.7	-30.3	28.0	0.00e+00	0	39	0	1951399936	32	5899
2026-01-07 20:06:51.94	359.83	30.92	-29.8	-30.3	28.1	0.00e+00	0	39	0	1958739968	32	5939
2026-01-07 20:06:52.95	359.62	31.08	-29.7	-30.3	28.0	0.00e+00	0	39	0	1966080000	32	5905
2026-01-07 20:06:53.96	359.41	31.24	-29.9	-30.5	28.0	0.00e+00	0	39	0	1973420032	32	6056
2026-01-07 20:06:54.96	359.20	31.41	-29.8	-30.3	27.9	0.00e+00	0	39	0	1980760064	32	5961
2026-01-07 20:06:55.97	358.99	31.57	-29.7	-30.2	28.0	0.00e+00	0	39	0	1987051520	32	5877
2026-01-07 20:06:56.98	358.77	31.73	-29.8	-30.4	28.0	0.00e+00	0	39	0	1995440128	32	5987
2026-01-07 20:06:57.99	358.55	31.90	-29.9	-30.4	28.0	0.00e+00	0	39	0	2002780160	32	6013
2026-01-07 20:06:59.00	358.33	32.06	-29.7	-30.2	28.1	0.00e+00	0	39	0	2009071616	32	5879
2026-01-07 20:07:00.01	358.11	32.23	-29.7	-30.3	28.1	0.00e+00	0	39	0	2016411648	32	5926
2026-01-07 20:07:01.02	357.88	32.39	-29.6	-30.2	28.2	0.00e+00	0	39	0	2023751680	32	5854
2026-01-07 20:07:02.03	357.66	32.56	-29.4	-29.9	28.4	0.00e+00	0	39	0	2031091712	32	5693
2026-01-07 20:07:03.04	357.43	32.72	-29.2	-29.7	28.5	0.00e+00	0	39	0	2038431744	32	5551
2026-01-07 20:07:04.05	357.19	32.89	-29.1	-29.7	28.5	0.00e+00	0	39	0	2045771776	32	5529
2026-01-07 20:07:05.06	356.96	33.05	-29.1	-29.7	28.5	0.00e+00	0	39	0	2053111808	32	5533
2026-01-07 20:07:06.07	356.72	33.22	-29.1	-29.6	28.5	0.00e+00	0	39	0	2060451840	32	5501
2026-01-07 20:07:07.08	356.48	33.39	-29.2	-29.8	28.5	0.00e+00	0	39	0	2067791872	32	5595
2026-01-07 20:07:08.10	356.23	33.56	-29.0	-29.6	28.5	0.00e+00	0	39	0	2075131904	32	5441
2026-01-07 20:07:09.10	355.99	33.73	-28.8	-29.4	28.7	0.00e+00	0	39	0	2082471936	32	5330
2026-01-07 20:07:10.11	355.74	33.89	-28.8	-29.4	28.7	0.00e+00	0	39	0	2089811968	32	5350
2026-01-07 20:07:11.13	355.49	34.06	-28.9	-29.5	28.5	0.00e+00	0	39	0	2097152000	32	5401
2026-01-07 20:07:12.14	355.24	34.23	-29.0	-29.6	28.6	0.00e+00	0	39	0	2104492032	30	6104
2026-01-07 20:07:13.15	354.98	34.40	-29.1	-29.7	28.4	0.00e+00	0	39	0	2111832064	30	6185
2026-01-07 20:07:14.16	354.72	34.57	-29.3	-29.8	28.4	0.00e+00	0	38	0	2119172096	30	6305
2026-01-07 20:07:15.17	354.46	34.74	-29.3	-29.9	28.5	0.00e+00	0	39	0	2126512128	30	6320
2026-01-07 20:07:16.18	354.20	34.91	-29.3	-29.9	28.4	0.00e+00	0	39	0	2133852160	30	6321
2026-01-07 20:07:17.19	353.93	35.08	-29.0	-29.6	28.4	0.00e+00	0	39	0	2141192192	30	6148
2026-01-07 20:07:18.20	353.66	35.25	-29.1	-29.7	28.4	0.00e+00	0	39	0	2148532224	30	6210
2026-01-07 20:07:19.21	353.39	35.42	-29.3	-29.9	28.3	0.00e+00	0	38	0	2155872256	30	6339
2026-01-07 20:07:20.22	353.11	35.59	-29.4	-29.9	28.3	0.00e+00	0	39	0	2162163712	30	6388
2026-01-07 20:07:21.23	352.83	35.76	-29.4	-30.0	28.1	0.00e+00	0	39	0	2170552320	30	6407
2026-01-07 20:07:22.24	352.55	35.94	-29.3	-29.9	28.3	0.00e+00	0	39	0	2177892352	32	5672
2026-01-07 20:07:23.25	352.27	36.11	-29.5	-30.1	28.1	0.00e+00	0	39	0	2184183808	32	5795
2026-01-07 20:07:24.26	351.98	36.28	-29.7	-30.2	28.1	0.00e+00	0	39	0	2191523840	32	5879
2026-01-07 20:07:25.27	351.69	36.45	-29.7	-30.3	27.9	0.00e+00	0	39	0	2198863872	32	5926
2026-01-07 20:07:26.28	351.40	36.62	-29.8	-30.4	27.9	0.00e+00	0	39	0	2206203904	32	5977
2026-01-07 20:07:27.28	351.10	36.79	-29.6	-30.2	28.1	0.00e+00	0	39	0	2213543936	32	5863
2026-01-07 20:07:28.29	350.80	36.96	-29.8	-30.3	27.9	0.00e+00	0	39	0	2220883968	32	5949
2026-01-07 20:07:29.30	350.50	37.13	-29.8	-30.3	28.0	0.00e+00	0	39	0	2228224000	32	5953
2026-01-07 20:07:30.31	350.19	37.30	-29.6	-30.1	28.2	0.00e+00	0	39	0	2235564032	32	5801
2026-01-07 20:07:31.32	349.88	37.48	-29.6	-30.2	28.1	0.00e+00	0	39	0	2242904064	32	5841
2026-01-07 20:07:32.33	349.57	37.65	-29.4	-30.0	28.4	0.00e+00	0	39	0	2250244096	32	5736
2026-01-07 20:07:33.34	349.25	37.82	-29.4	-29.9	28.3	0.00e+00	0	39	0	2257584128	32	5680
2026-01-07 20:07:34.35	348.93	37.99	-29.3	-29.9	28.4	0.00e+00	0	39	0	2264924160	32	5655
2026-01-07 20:07:35.36	348.61	38.16	-29.5	-30.0	28.3	0.00e+00	0	39	0	2272264192	32	5748
2026-01-07 20:07:36.37	348.28	38.33	-29.3	-29.9	28.4	0.00e+00	0	39	0	2279604224	32	5644
2026-01-07 20:07:37.38	347.95	38.50	-29.4	-30.0	28.4	0.00e+00	0	39	0	2286944256	32	5731
2026-01-07 20:07:38.39	347.62	38.67	-29.4	-30.0	28.3	0.00e+00	0	39	0	2294284288	32	5738
2026-01-07 20:07:39.40	347.28	38.84	-29.4	-30.0	28.2	0.00e+00	0	39	0	2301624320	32	5700
2026-01-07 20:07:40.41	346.94	39.01	-29.5	-30.1	28.3	0.00e+00	0	39	0	2307915776	32	5784
2026-01-07 20:07:41.42	346.60	39.18	-29.5	-30.1	28.3	0.00e+00	0	39	0	2315255808	32	5778
2026-01-07 20:07:42.43	346.25	39.35	-29.5	-30.1	28.2	0.00e+00	0	39	0	2323644416	32	5797
2026-01-07 20:07:43.44	345.90	39.52	-29.5	-30.1	28.2	0.00e+00	0	39	0	2329935872	32	5770
2026-01-07 20:07:44.45	345.54	39.69	-29.3	-29.9	28.4	0.00e+00	0	39	0	2337275904	32	5660
2026-01-07 20:07:45.46	345.18	39.85	-29.3	-29.9	28.3	0.00e+00	0	39	0	2344615936	32	5667
2026-01-07 20:07:46.47	344.82	40.02	-29.3	-29.9	28.4	0.00e+00	0	39	0	2351955968	32	5640
2026-01-07 20:07:47.48	344.45	40.19	-29.5	-30.0	28.4	0.00e+00	0	39	0	2359296000	32	5759
2026-01-07 20:07:48.49	344.08	40.35	-29.3	-29.9	28.3	0.00e+00	0	39	0	2366636032	32	5640
2026-01-07 20:07:49.50	343.71	40.52	-29.6	-30.2	28.1	0.00e+00	0	39	0	2373976064	32	5855
2026-01-07 20:07:50.51	343.33	40.68	-29.8	-30.4	28.0	0.00e+00	0	39	0	2381316096	32	5983
2026-01-07 20:07:51.52	342.95	40.85	-30.0	-30.5	28.0	0.00e+00	0	39	0	2388656128	32	6075
2026-01-07 20:07:52.53	342.56	41.01	-30.2	-30.8	27.7	0.00e+00	0	39	0	2395996160	32	6285
2026-01-07 20:07:53.54	342.17	41.17	-30.4	-31.0	27.8	0.00e+00	0	39	0	2403336192	32	6414
2026-01-07 20:07:54.55	341.78	41.34	-30.3	-30.8	27.7	0.00e+00	0	39	0	2410676224	32	6306
2026-01-07 20:07:55.56	341.38	41.50	-30.2	-30.8	27.6	0.00e+00	0	39	0	2418016256	32	6259
2026-01-07 20:07:56.57	340.98	41.66	-30.0	-30.6	27.8	0.00e+00	0	39	0	2425356288	32	6116
2026-01-07 20:07:57.58	340.58	41.82	-29.8	-30.4	28.0	0.00e+00	0	39	0	2432696320	32	5996
2026-01-07 20:07:58.59	340.17	41.97	-29.5	-30.1	28.1	0.00e+00	0	39	0	2440036352	32	5785
2026-01-07 20:07:59.60	339.75	42.13	-29.6	-30.2	28.1	0.00e+00	0	39	0	2447376384	32	5839
2026-01-07 20:08:00.61	339.33	42.29	-29.5	-30.1	28.3	0.00e+00	0	39	0	2454716416	32	5766
2026-01-07 20:08:01.62	338.91	42.44	-29.7	-30.2	28.2	0.00e+00	0	39	0	2461007872	32	5874
2026-01-07 20:08:02.63	338.49	42.60	-29.7	-30.2	28.1	0.00e+00	0	39	0	2468347904	32	5887
2026-01-07 20:08:03.64	338.05	42.75	-29.9	-30.5	28.0	0.00e+00	0	39	0	2476736512	32	6042
2026-01-07 20:08:04.65	337.62	42.90	-30.0	-30.6	27.9	0.00e+00	0	39	0	2483027968	32	6146
2026-01-07 20:08:05.66	337.18	43.05	-30.1	-30.7	27.8	0.00e+00	0	39	0	2490368000	32	6224
2026-01-07 20:08:06.67	336.74	43.20	-30.2	-30.7	27.7	0.00e+00	0	39	0	2497708032	32	6243
2026-01-07 20:08:07.68	336.29	43.35	-30.3	-30.9	27.7	0.00e+00	0	39	0	2505048064	32	6323
2026-01-07 20:08:08.69	335.84	43.49	-30.3	-30.8	27.5	0.00e+00	0	39	0	2512388096	32	6306
2026-01-07 20:08:09.70	335.39	43.64	-30.4	-31.0	27.7	0.00e+00	0	39	0	2519728128	32	6391
2026-01-07 20:08:10.71	334.93	43.78	-30.3	-30.9	27.7	0.00e+00	0	39	0	2527068160	32	6346
2026-01-07 20:08:11.72	334.46	43.92	-29.9	-30.5	28.0	0.00e+00	0	39	0	2534408192	32	6066
2026-01-07 20:08:12.73	333.99	44.06	-29.7	-30.3	28.1	0.00e+00	0	39	0	2541748224	32	5930
2026-01-07 20:08:13.74	333.52	44.20	-29.5	-30.1	28.3	0.00e+00	0	39	0	2549088256	32	5788
2026-01-07 20:08:14.75	333.05	44.34	-29.5	-30.1	28.2	0.00e+00	0	39	0	2556428288	32	5799
2026-01-07 20:08:15.76	332.57	44.47	-29.5	-30.1	28.2	0.00e+00	0	39	0	2563768320	32	5795
2026-01-07 20:08:16.77	332.08	44.61	-29.7	-30.2	28.2	0.00e+00	0	39	0	2571108352	32	5888
2026-01-07 20:08:17.78	331.59	44.74	-29.5	-30.1	28.3	0.00e+00	0	39	0	2578448384	32	5798
2026-01-07 20:08:18.79	331.10	44.87	-29.8	-30.3	28.0	0.00e+00	0	39	0	2585788416	32	5962
2026-01-07 20:08:19.80	330.61	44.99	-30.3	-30.9	27.7	0.00e+00	0	39	0	2593128448	32	6365
2026-01-07 20:08:20.81	330.11	45.12	-30.3	-30.9	27.6	0.00e+00	0	39	0	2600468480	32	6369
2026-01-07 20:08:21.82	329.60	45.24	-30.5	-31.1	27.5	0.00e+00	0	39	0	2606759936	32	6485
2026-01-07 20:08:22.83	329.09	45.36	-30.5	-31.1	27.5	0.00e+00	0	39	0	2615148544	32	6470
2026-01-07 20:08:23.84	328.58	45.48	-30.5	-31.1	27.6	0.00e+00	0	39	0	2622488576	32	6524
2026-01-07 20:08:24.85	328.07	45.60	-30.5	-31.1	27.5	0.00e+00	0	39	0	2628780032	32	6473
2026-01-07 20:08:25.86	327.55	45.72	-30.3	-30.9	27.7	0.00e+00	0	39	0	2636120064	32	6329
2026-01-07 20:08:26.87	327.02	45.83	-30.0	-30.6	27.8	0.00e+00	0	39	0	2643460096	32	6115
2026-01-07 20:08:27.88	326.49	45.94	-30.0	-30.5	27.9	0.00e+00	0	39	0	2650800128	32	6095
2026-01-07 20:08:28.89	325.96	46.05	-29.8	-30.4	28.0	0.00e+00	0	39	0	2658140160	32	5986
2026-01-07 20:08:29.90	325.43	46.15	-29.8	-30.4	28.1	0.00e+00	0	39	0	2665480192	32	6007
2026-01-07 20:08:30.91	324.89	46.25	-29.8	-30.4	28.0	0.00e+00	0	39	0	2672820224	32	5979
2026-01-07 20:08:31.92	324.35	46.35	-30.0	-30.5	28.0	0.00e+00	0	39	0	2680160256	32	6095
2026-01-07 20:08:32.93	323.80	46.45	-30.2	-30.7	27.8	0.00e+00	0	39	0	2687500288	32	6238
2026-01-07 20:08:33.94	323.26	46.54	-30.1	-30.6	27.6	0.00e+00	0	39	0	2694840320	32	6138
2026-01-07 20:08:34.95	322.70	46.64	-30.3	-30.9	27.6	0.00e+00	0	39	0	2702180352	32	6376
2026-01-07 20:08:35.96	322.15	46.73	-30.5	-31.0	27.5	0.00e+00	0	38	0	2709520384	32	6449
2026-01-07 20:08:36.97	321.59	46.81	-30.6	-31.2	27.5	0.00e+00	0	39	0	2716860416	32	6554
2026-01-07 20:08:37.98	321.03	46.90	-30.4	-31.0	27.7	0.00e+00	0	39	0	2724200448	32	6429
2026-01-07 20:08:38.99	320.46	46.98	-30.1	-30.7	27.8	0.00e+00	0	38	0	2731540480	32	6182
2026-01-07 20:08:40.00	319.90	47.05	-30.2	-30.8	27.8	0.00e+00	0	39	0	2738880512	32	6263
2026-01-07 20:08:41.01	319.33	47.13	-30.5	-31.1	27.6	0.00e+00	0	39	0	2746220544	32	6503
2026-01-07 20:08:42.02	318.76	47.20	-30.8	-31.4	27.3	0.00e+00	0	39	0	2753560576	32	6718
2026-01-07 20:08:43.03	318.18	47.27	-30.9	-31.5	27.2	0.00e+00	0	39	0	2760900608	34	6043
2026-01-07 20:08:44.04	317.60	47.34	-30.7	-31.3	27.4	0.00e+00	0	39	0	2768240640	34	5906
2026-01-07 20:08:45.05	317.02	47.40	-30.3	-30.9	27.6	0.00e+00	0	39	0	2775580672	34	5670
2026-01-07 20:08:46.06	316.44	47.46	-30.1	-30.7	27.9	0.00e+00	0	39	0	2781872128	34	5524
2026-01-07 20:08:47.07	315.85	47.52	-30.0	-30.6	27.9	0.00e+00	0	39	0	2789212160	34	5469
2026-01-07 20:08:48.08	315.27	47.57	-29.8	-30.3	28.1	0.00e+00	0	39	0	2797600768	32	5954
2026-01-07 20:08:49.09	314.68	47.62	-29.9	-30.5	28.0	0.00e+00	0	39	0	2803892224	32	6046
2026-01-07 20:08:50.10	314.09	47.67	-30.1	-30.7	27.9	0.00e+00	0	39	0	2811232256	32	6206
2026-01-07 20:08:51.11	313.50	47.71	-30.4	-31.0	27.6	0.00e+00	0	39	0	2818572288	32	6448
2026-01-07 20:08:52.12	312.90	47.75	-30.5	-31.1	27.5	0.00e+00	0	39	0	2825912320	32	6495
2026-01-07 20:08:53.13	312.31	47.79	-30.5	-31.1	27.3	0.00e+00	0	39	0	2833252352	32	6506
2026-01-07 20:08:54.14	311.71	47.82	-30.7	-31.3	27.4	0.00e+00	0	39	0	2840592384	34	5904
2026-01-07 20:08:55.15	311.11	47.85	-30.5	-31.1	27.5	0.00e+00	0	39	0	2847932416	34	5786
2026-01-07 20:08:56.16	310.51	47.88	-30.4	-31.0	27.5	0.00e+00	0	39	0	2855272448	34	5706
2026-01-07 20:08:57.17	309.91	47.90	-30.4	-31.0	27.7	0.00e+00	0	39	0	2862612480	34	5696
2026-01-07 20:08:58.18	309.31	47.92	-30.5	-31.0	27.4	0.00e+00	0	39	0	2869952512	34	5759
2026-01-07 20:08:59.19	308.71	47.94	-30.8	-31.4	27.2	0.00e+00	0	39	0	2877292544	34	6008
2026-01-07 20:09:00.20	308.11	47.95	-30.8	-31.4	27.3	0.00e+00	0	39	0	2884632576	34	6012
2026-01-07 20:09:01.21	307.50	47.96	-30.4	-31.0	27.5	0.00e+00	0	39	0	2891972608	34	5738
2026-01-07 20:09:02.22	306.90	47.96	-30.3	-30.9	27.7	0.00e+00	0	39	0	2899312640	34	5671
2026-01-07 20:09:03.23	306.30	47.97	-30.4	-31.0	27.5	0.00e+00	0	39	0	2906652672	34	5734
2026-01-07 20:09:04.24	305.69	47.97	-30.6	-31.2	27.5	0.00e+00	0	39	0	2913992704	34	5831
2026-01-07 20:09:05.25	305.09	47.96	-30.6	-31.1	27.3	0.00e+00	0	39	0	2921332736	34	5821
2026-01-07 20:09:06.26	304.49	47.95	-30.4	-31.0	27.5	0.00e+00	0	39	0	2927624192	34	5711
2026-01-07 20:09:07.27	303.89	47.94	-30.5	-31.0	27.5	0.00e+00	0	39	0	2934964224	34	5752
2026-01-07 20:09:08.28	303.28	47.93	-30.6	-31.2	27.4	0.00e+00	0	39	0	2942304256	34	5829
2026-01-07 20:09:09.28	302.69	47.91	-30.5	-31.1	27.5	0.00e+00	0	39	0	2949644288	34	5786
2026-01-07 20:09:10.30	302.08	47.89	-30.4	-31.0	27.7	0.00e+00	0	39	0	2956984320	34	5722
2026-01-07 20:09:11.31	301.48	47.86	-30.3	-30.9	27.6	0.00e+00	0	39	0	2964324352	34	5640
2026-01-07 20:09:12.32	300.88	47.84	-30.3	-30.9	27.7	0.00e+00	0	39	0	2971664384	34	5631
2026-01-07 20:09:13.32	300.29	47.80	-30.3	-30.9	27.6	0.00e+00	0	39	0	2979004416	34	5648
2026-01-07 20:09:14.33	299.69	47.77	-30.5	-31.1	27.4	0.00e+00	0	39	0	2986344448	34	5813
2026-01-07 20:09:15.34	299.10	47.73	-30.5	-31.1	27.4	0.00e+00	0	39	0	2993684480	34	5771
2026-01-07 20:09:16.35	298.50	47.69	-30.6	-31.2	27.4	0.00e+00	0	39	0	3001024512	34	5840
2026-01-07 20:09:17.36	297.91	47.65	-30.5	-31.0	27.5	0.00e+00	0	39	0	3008364544	34	5742
2026-01-07 20:09:18.37	297.32	47.60	-30.4	-31.0	27.3	0.00e+00	0	39	0	3015704576	34	5724
2026-01-07 20:09:19.38	296.73	47.55	-30.4	-31.0	27.6	0.00e+00	0	39	0	3023044608	34	5708
2026-01-07 20:09:20.39	296.15	47.49	-30.6	-31.2	27.4	0.00e+00	0	39	0	3030384640	34	5873
2026-01-07 20:09:21.40	295.56	47.43	-30.6	-31.2	27.5	0.00e+00	0	39	0	3037724672	34	5830
2026-01-07 20:09:22.41	294.98	47.37	-30.5	-31.0	27.6	0.00e+00	0	39	0	3045064704	34	5754
2026-01-07 20:09:23.42	294.40	47.31	-30.6	-31.1	27.5	0.00e+00	0	39	0	3052404736	34	5823
2026-01-07 20:09:24.43	293.82	47.24	-30.3	-30.8	27.7	0.00e+00	0	39	0	3059744768	34	5623
2026-01-07 20:09:25.44	293.25	47.17	-30.4	-31.0	27.6	0.00e+00	0	39	0	3067084800	34	5716
2026-01-07 20:09:26.45	292.68	47.10	-30.3	-30.9	27.6	0.00e+00	0	39	0	3074424832	34	5663
2026-01-07 20:09:27.46	292.11	47.02	-30.2	-30.8	27.7	0.00e+00	0	39	0	3080716288	34	5600
2026-01-07 20:09:28.47	291.54	46.94	-30.2	-30.8	27.7	0.00e+00	0	39	0	3088056320	34	5574
2026-01-07 20:09:29.48	290.98	46.86	-30.2	-30.8	27.7	0.00e+00	0	39	0	3095396352	34	5594
2026-01-07 20:09:30.49	290.42	46.77	-30.3	-30.9	27.6	0.00e+00	0	39	0	3102736384	34	5674
2026-01-07 20:09:31.50	289.86	46.69	-30.3	-30.9	27.6	0.00e+00	0	39	0	3110076416	34	5667
2026-01-07 20:09:32.51	289.31	46.60	-30.4	-31.0	27.7	0.00e+00	0	39	0	3117416448	34	5711
2026-01-07 20:09:33.52	288.76	46.50	-30.4	-31.0	27.6	0.00e+00	0	39	0	3124756480	34	5724
2026-01-07 20:09:34.53	288.21	46.41	-30.3	-30.9	27.7	0.00e+00	0	39	0	3132096512	34	5634
2026-01-07 20:09:35.54	287.66	46.31	-30.3	-30.9	27.7	0.00e+00	0	39	0	3139436544	34	5643
2026-01-07 20:09:36.55	287.12	46.21	-30.2	-30.8	27.7	0.00e+00	0	39	0	3146776576	34	5586
2026-01-07 20:09:37.56	286.58	46.10	-30.0	-30.6	27.9	0.00e+00	0	39	0	3154116608	34	5482
2026-01-07 20:09:38.57	286.05	46.00	-29.9	-30.5	28.1	0.00e+00	0	39	0	3161456640	34	5379
2026-01-07 20:09:39.58	285.52	45.89	-29.8	-30.4	28.1	0.00e+00	0	39	0	3168796672	34	5341
2026-01-07 20:09:40.59	284.99	45.78	-30.0	-30.5	27.9	0.00e+00	0	39	0	3176136704	32	6084
2026-01-07 20:09:41.60	284.47	45.66	-30.2	-30.8	27.6	0.00e+00	0	39	0	3183476736	32	6260
2026-01-07 20:09:42.61	283.95	45.55	-30.3	-30.9	27.6	0.00e+00	0	39	0	3190816768	32	6324
2026-01-07 20:09:43.62	283.44	45.43	-30.2	-30.8	27.8	0.00e+00	0	39	0	3198156800	32	6278
2026-01-07 20:09:44.63	282.93	45.31	-30.2	-30.7	27.8	0.00e+00	0	39	0	3205496832	32	6241
2026-01-07 20:09:45.64	282.42	45.19	-30.0	-30.6	28.0	0.00e+00	0	39	0	3212836864	32	6131
2026-01-07 20:09:46.65	281.92	45.06	-30.0	-30.6	27.8	0.00e+00	0	39	0	3220176896	32	6111
2026-01-07 20:09:47.66	281.42	44.93	-30.2	-30.8	27.8	0.00e+00	0	39	0	3227516928	32	6247
2026-01-07 20:09:48.67	280.92	44.81	-30.1	-30.6	27.8	0.00e+00	0	39	0	3233808384	32	6169
2026-01-07 20:09:49.68	280.43	44.68	-30.0	-30.6	27.9	0.00e+00	0	39	0	3242196992	32	6140
2026-01-07 20:09:50.69	279.94	44.54	-30.0	-30.6	27.9	0.00e+00	0	39	0	3248488448	32	6106
2026-01-07 20:09:51.70	279.46	44.41	-29.7	-30.3	28.2	0.00e+00	0	39	0	3255828480	32	5903
2026-01-07 20:09:52.71	278.98	44.27	-29.4	-30.0	28.3	0.00e+00	0	39	0	3263168512	32	5724
2026-01-07 20:09:53.72	278.50	44.13	-29.6	-30.2	28.2	0.00e+00	0	39	0	3270508544	32	5846
2026-01-07 20:09:54.73	278.03	43.99	-29.3	-29.9	28.4	0.00e+00	0	39	0	3277848576	32	5642
2026-01-07 20:09:55.74	277.57	43.85	-29.4	-30.0	28.2	0.00e+00	0	39	0	3285188608	32	5709
2026-01-07 20:09:56.75	277.10	43.71	-29.5	-30.1	28.3	0.00e+00	0	39	0	3292528640	32	5794
2026-01-07 20:09:57.76	276.65	43.57	-29.5	-30.0	28.4	0.00e+00	0	39	0	3299868672	32	5749
2026-01-07 20:09:58.77	276.19	43.42	-29.5	-30.1	28.4	0.00e+00	0	39	0	3307208704	32	5764
2026-01-07 20:09:59.78	275.74	43.27	-29.3	-29.8	28.5	0.00e+00	0	39	0	3314548736	32	5599
2026-01-07 20:10:00.79	275.29	43.12	-29.5	-30.0	28.3	0.00e+00	0	39	0	3321888768	32	5744
2026-01-07 20:10:01.80	274.85	42.97	-29.5	-30.0	28.3	0.00e+00	0	39	0	3329228800	32	5729
2026-01-07 20:10:02.81	274.41	42.82	-29.5	-30.1	28.3	0.00e+00	0	39	0	3336568832	32	5780
2026-01-07 20:10:03.82	273.98	42.67	-29.4	-30.0	28.2	0.00e+00	0	39	0	3343908864	32	5710
2026-01-07 20:10:04.83	273.55	42.52	-29.3	-29.9	28.5	0.00e+00	0	39	0	3351248896	32	5665
2026-01-07 20:10:05.84	273.13	42.36	-29.3	-29.8	28.5	0.00e+00	0	39	0	3358588928	32	5602
2026-01-07 20:10:06.85	272.71	42.21	-29.4	-30.0	28.3	0.00e+00	0	39	0	3365928960	32	5728
2026-01-07 20:10:07.86	272.29	42.05	-29.2	-29.7	28.6	0.00e+00	0	39	0	3373268992	32	5564
2026-01-07 20:10:08.87	271.87	41.89	-29.3	-29.8	28.5	0.00e+00	0	39	0	3379560448	32	5598
2026-01-07 20:10:09.88	271.47	41.73	-29.4	-30.0	28.4	0.00e+00	0	39	0	3387949056	32	5703
2026-01-07 20:10:10.89	271.06	41.57	-29.6	-30.1	28.3	0.00e+00	0	39	0	3395289088	32	5828
2026-01-07 20:10:11.90	270.66	41.41	-29.8	-30.3	28.1	0.00e+00	0	39	0	3401580544	32	5951
2026-01-07 20:10:12.91	270.26	41.25	-29.7	-30.3	28.2	0.00e+00	0	39	0	3408920576	32	5917
2026-01-07 20:10:13.92	269.87	41.09	-29.6	-30.2	28.3	0.00e+00	0	39	0	3416260608	32	5869
2026-01-07 20:10:14.93	269.48	40.92	-29.6	-30.1	28.2	0.00e+00	0	39	0	3423600640	32	5816
2026-01-07 20:10:15.94	269.10	40.76	-29.5	-30.0	28.4	0.00e+00	0	39	0	3430940672	32	5744
2026-01-07 20:10:16.95	268.71	40.59	-29.4	-30.0	28.4	0.00e+00	0	39	0	3438280704	32	5728
2026-01-07 20:10:17.96	268.34	40.43	-29.6	-30.1	28.2	0.00e+00	0	39	0	3445620736	32	5803
2026-01-07 20:10:18.97	267.96	40.26	-29.7	-30.3	28.1	0.00e+00	0	39	0	3452960768	32	5929
2026-01-07 20:10:19.98	267.59	40.09	-29.8	-30.4	27.0	0.00e+00	0	39	0	3460300800	32	6013
2026-01-07 20:10:20.99	267.23	39.93	-29.9	-30.5	28.0	0.00e+00	0	39	0	3467640832	32	6036
2026-01-07 20:10:22.00	266.87	39.76	-29.9	-30.5	27.8	0.00e+00	0	39	0	3474980864	32	6059
2026-01-07 20:10:23.01	266.51	39.59	-29.6	-30.2	28.3	0.00e+00	0	39	0	3482320896	32	5860
2026-01-07 20:10:24.02	266.15	39.42	-29.6	-30.2	28.3	0.00e+00	0	39	0	3489660928	32	5839
2026-01-07 20:10:25.03	265.80	39.25	-29.8	-30.3	28.2	0.00e+00	0	39	0	3497000960	32	5959
2026-01-07 20:10:26.04	265.46	39.08	-29.7	-30.3	28.0	0.00e+00	0	39	0	3504340992	32	5923
2026-01-07 20:10:27.04	265.12	38.91	-29.8	-30.4	28.1	0.00e+00	0	39	0	3511681024	32	5976
2026-01-07 20:10:28.05	264.78	38.74	-29.9	-30.5	28.0	0.00e+00	0	39	0	3519021056	32	6063
2026-01-07 20:10:29.06	264.44	38.57	-29.8	-30.4	28.2	0.00e+00	0	39	0	3526361088	32	6003
2026-01-07 20:10:30.07	264.11	38.40	-29.8	-30.4	27.9	0.00e+00	0	39	0	3532652544	32	6016
2026-01-07 20:10:31.08	263.78	38.23	-29.9	-30.4	28.1	0.00e+00	0	39	0	3541041152	32	6019
2026-01-07 20:10:32.09	263.45	38.06	-29.8	-30.4	28.0	0.00e+00	0	39	0	3548381184	32	5979
2026-01-07 20:10:33.10	263.13	37.89	-29.9	-30.5	28.0	0.00e+00	0	39	0	3554672640	32	6056
2026-01-07 20:10:34.11	262.81	37.72	-29.8	-30.4	28.0	0.00e+00	0	39	0	3562012672	32	6011
2026-01-07 20:10:35.12	262.49	37.55	-29.7	-30.3	28.0	0.00e+00	0	39	0	3569352704	32	5907
2026-01-07 20:10:36.13	262.18	37.37	-29.7	-30.3	28.1	0.00e+00	0	39	0	3576692736	32	5925
2026-01-07 20:10:37.14	261.87	37.20	-29.7	-30.2	28.3	0.00e+00	0	39	0	3584032768	32	5887
2026-01-07 20:10:38.15	261.57	37.03	-29.6	-30.1	28.3	0.00e+00	0	39	0	3591372800	32	5823
2026-01-07 20:10:39.16	261.26	36.86	-29.4	-29.9	28.5	0.00e+00	0	39	0	3598712832	32	5661
2026-01-07 20:10:40.17	260.96	36.69	-29.4	-30.0	28.3	0.00e+00	0	39	0	3606052864	32	5733
2026-01-07 20:10:41.18	260.67	36.51	-29.4	-30.0	28.5	0.00e+00	0	39	0	3613392896	32	5719
2026-01-07 20:10:42.18	260.38	36.34	-29.5	-30.0	28.3	0.00e+00	0	39	0	3620732928	32	5748
2026-01-07 20:10:43.19	260.09	36.17	-29.5	-30.1	28.2	0.00e+00	0	39	0	3628072960	32	5797
2026-01-07 20:10:44.20	259.80	36.00	-29.5	-30.0	28.3	0.00e+00	0	39	0	3635412992	32	5739
2026-01-07 20:10:45.21	259.52	35.83	-29.2	-29.7	28.5	0.00e+00	0	39	0	3642753024	32	5556
2026-01-07 20:10:46.22	259.23	35.66	-29.2	-29.8	28.5	0.00e+00	0	39	0	3650093056	32	5577
2026-01-07 20:10:47.23	258.96	35.48	-29.2	-29.8	28.5	0.00e+00	0	39	0	3657433088	32	5597
2026-01-07 20:10:48.24	258.68	35.31	-29.4	-29.9	28.3	0.00e+00	0	39	0	3664773120	32	5684
2026-01-07 20:10:49.25	258.41	35.14	-29.5	-30.1	28.2	0.00e+00	0	39	0	3672113152	32	5779
2026-01-07 20:10:50.26	258.14	34.97	-29.6	-30.2	28.1	0.00e+00	0	39	0	3678404608	32	5869
2026-01-07 20:10:51.27	257.87	34.80	-29.7	-30.3	28.0	0.00e+00	0	39	0	3685744640	32	5924
2026-01-07 20:10:52.29	257.61	34.63	-29.8	-30.4	28.2	0.00e+00	0	39	0	3694133248	32	6005
2026-01-07 20:10:53.30	257.35	34.46	-29.8	-30.3	28.1	0.00e+00	0	39	0	3700424704	32	5940
2026-01-07 20:10:54.31	257.09	34.29	-29.8	-30.3	28.1	0.00e+00	0	39	0	3707764736	32	5954
2026-01-07 20:10:55.32	256.83	34.12	-29.7	-30.3	28.1	0.00e+00	0	39	0	3715104768	32	5922
2026-01-07 20:10:56.33	256.58	33.95	-30.0	-30.6	27.9	0.00e+00	0	39	0	3722444800	32	6122
2026-01-07 20:10:57.34	256.33	33.78	-29.7	-30.3	28.1	0.00e+00	0	39	0	3729784832	32	5939
2026-01-07 20:10:58.35	256.08	33.61	-29.6	-30.2	28.2	0.00e+00	0	39	0	3737124864	32	5835
2026-01-07 20:10:59.36	255.84	33.44	-29.6	-30.2	28.2	0.00e+00	0	39	0	3744464896	32	5840
2026-01-07 20:11:00.37	255.59	33.27	-29.5	-30.0	28.4	0.00e+00	0	39	0	3751804928	32	5760
2026-01-07 20:11:01.38	255.35	33.10	-29.3	-29.8	28.3	0.00e+00	0	39	0	3759144960	32	5623
2026-01-07 20:11:02.38	255.12	32.94	-29.4	-30.0	28.3	0.00e+00	0	39	0	3766484992	32	5722
2026-01-07 20:11:03.39	254.88	32.77	-29.4	-30.0	28.3	0.00e+00	0	39	0	3773825024	32	5725
2026-01-07 20:11:04.40	254.65	32.60	-29.5	-30.0	28.3	0.00e+00	0	39	0	3781165056	32	5750
2026-01-07 20:11:05.41	254.42	32.44	-29.5	-30.1	28.3	0.00e+00	0	39	0	3788505088	32	5768
2026-01-07 20:11:06.42	254.19	32.27	-29.7	-30.3	28.2	0.00e+00	0	39	0	3795845120	32	5917
2026-01-07 20:11:07.43	253.97	32.11	-29.9	-30.4	28.0	0.00e+00	0	39	0	3803185152	32	6027
2026-01-07 20:11:08.44	253.75	31.94	-30.0	-30.6	27.9	0.00e+00	0	39	0	3810525184	32	6130
2026-01-07 20:11:09.45	253.52	31.78	-30.1	-30.6	27.8	0.00e+00	0	39	0	3817865216	32	6168
2026-01-07 20:11:10.46	253.31	31.61	-29.9	-30.7	23.8	0.00e+00	0	39	0	3825205248	32	6207
2026-01-07 20:11:11.47	253.09	31.45	-29.7	-30.5	23.8	0.00e+00	0	39	0	3831496704	32	6067
2026-01-07 20:11:12.48	252.87	31.28	-29.5	-30.3	23.9	0.00e+00	0	39	0	3839885312	32	5906
2026-01-07 20:11:13.49	252.66	31.12	-29.5	-30.3	24.0	0.00e+00	0	39	0	3847225344	32	5898
2026-01-07 20:11:14.50	252.45	30.96	-29.5	-30.3	24.1	0.00e+00	0	39	0	3853516800	32	5927
2026-01-07 20:11:15.50	252.25	30.80	-29.3	-30.1	24.2	0.00e+00	0	39	0	3860856832	32	5772
2026-01-07 20:11:16.51	252.04	30.64	-29.5	-30.2	24.1	0.00e+00	0	39	0	3868196864	32	5893
2026-01-07 20:11:17.53	251.84	30.47	-29.7	-30.5	24.1	0.00e+00	0	39	0	3875536896	32	6044
2026-01-07 20:11:18.54	251.63	30.31	-29.5	-30.3	23.9	0.00e+00	0	39	0	3882876928	32	5925
2026-01-07 20:11:19.55	251.43	30.15	-29.5	-30.3	23.8	0.00e+00	0	39	0	3890216960	32	5922
2026-01-07 20:11:20.56	251.24	29.99	-29.5	-30.3	24.1	0.00e+00	0	39	0	3897556992	32	5897
2026-01-07 20:11:21.57	251.04	29.83	-29.4	-30.2	24.2	0.00e+00	0	39	0	3904897024	32	5848
2026-01-07 20:11:22.58	250.85	29.68	-29.2	-30.0	24.3	0.00e+00	0	39	0	3912237056	32	5696
2026-01-07 20:11:23.59	250.66	29.52	-29.3	-30.1	24.4	0.00e+00	0	39	0	3919577088	32	5779
2026-01-07 20:11:24.60	250.47	29.36	-29.3	-30.0	24.3	0.00e+00	0	39	0	3926917120	32	5722
2026-01-07 20:11:25.61	250.28	29.20	-29.3	-30.1	24.2	0.00e+00	0	39	0	3934257152	32	5775
2026-01-07 20:11:26.62	250.09	29.05	-29.4	-30.1	24.1	0.00e+00	0	39	0	3941597184	32	5801
2026-01-07 20:11:27.63	249.91	28.89	-29.5	-30.3	23.9	0.00e+00	0	39	0	3948937216	32	5912
2026-01-07 20:11:28.64	249.72	28.74	-29.4	-30.2	24.2	0.00e+00	0	39	0	3956277248	32	5858
2026-01-07 20:11:29.65	249.54	28.58	-29.4	-30.2	24.1	0.00e+00	0	39	0	3963617280	32	5844
2026-01-07 20:11:30.66	249.37	28.43	-29.4	-30.2	24.3	0.00e+00	0	39	0	3970957312	32	5867
2026-01-07 20:11:31.67	249.19	28.27	-29.6	-30.3	24.2	0.00e+00	0	39	0	3977248768	32	5955
2026-01-07 20:11:32.68	249.01	28.12	-29.6	-30.4	24.3	0.00e+00	0	39	0	3985637376	32	5975
2026-01-07 20:11:33.69	248.84	27.97	-29.8	-30.5	24.2	0.00e+00	0	39	0	3992977408	32	6070
2026-01-07 20:11:34.70	248.67	27.81	-29.8	-30.6	24.1	0.00e+00	0	39	0	3999268864	32	6106
2026-01-07 20:11:35.71	248.50	27.66	-29.9	-30.7	24.0	0.00e+00	0	39	0	4006608896	32	6195
2026-01-07 20:11:36.72	248.33	27.51	-30.0	-30.8	24.0	0.00e+00	0	39	0	4013948928	32	6289
2026-01-07 20:11:37.73	248.16	27.36	-29.9	-30.6	24.1	0.00e+00	0	39	0	4021288960	32	6170
2026-01-07 20:11:38.74	247.99	27.21	-29.8	-30.5	24.1	0.00e+00	0	39	0	4028628992	32	6086
2026-01-07 20:11:39.75	247.83	27.06	-29.7	-30.4	24.2	0.00e+00	0	39	0	4035969024	32	6024
2026-01-07 20:11:40.76	247.67	26.91	-29.7	-30.5	24.1	0.00e+00	0	39	0	4043309056	32	6044
2026-01-07 20:11:41.77	247.51	26.76	-29.7	-30.5	24.1	0.00e+00	0	39	0	4050649088	32	6055
2026-01-07 20:11:42.78	247.35	26.62	-29.8	-30.6	24.1	0.00e+00	0	39	0	4057989120	32	6114
2026-01-07 20:11:43.79	247.19	26.47	-29.9	-30.7	23.9	0.00e+00	0	39	0	4065329152	32	6211
2026-01-07 20:11:44.80	247.03	26.32	-30.1	-30.8	23.8	0.00e+00	0	39	0	4072669184	32	6315
2026-01-07 20:11:45.81	246.88	26.18	-30.0	-30.8	23.7	0.00e+00	0	39	0	4080009216	32	6307
2026-01-07 20:11:46.82	246.72	26.03	-30.0	-30.8	23.7	0.00e+00	0	39	0	4087349248	32	6278
2026-01-07 20:11:47.83	246.57	25.88	-30.1	-30.9	23.7	0.00e+00	0	39	0	4094689280	32	6341
2026-01-07 20:11:48.84	246.42	25.74	-30.1	-30.9	23.7	0.00e+00	0	39	0	4102029312	32	6363
2026-01-07 20:11:49.85	246.27	25.60	-30.0	-30.8	23.8	0.00e+00	0	39	0	4109369344	32	6311
2026-01-07 20:11:50.86	246.12	25.45	-30.0	-30.8	23.8	0.00e+00	0	39	0	4116709376	32	6300
2026-01-07 20:11:51.87	245.98	25.31	-30.1	-30.9	23.8	0.00e+00	0	39	0	4124049408	32	6328
2026-01-07 20:11:52.88	245.83	25.17	-30.2	-31.0	23.7	0.00e+00	0	39	0	4130340864	32	6437
2026-01-07 20:11:53.89	245.69	25.03	-29.9	-30.6	23.9	0.00e+00	0	39	0	4138729472	32	6154
2026-01-07 20:11:54.90	245.54	24.89	-29.8	-30.5	23.9	0.00e+00	0	39	0	4146069504	32	6094
2026-01-07 20:11:55.91	245.40	24.74	-29.8	-30.5	24.0	0.00e+00	0	39	0	4152360960	32	6098
2026-01-07 20:11:56.92	245.26	24.60	-29.7	-30.5	24.0	0.00e+00	0	39	0	4159700992	32	6056
2026-01-07 20:11:57.93	245.12	24.47	-29.6	-30.3	24.1	0.00e+00	0	39	0	4168089600	32	5961
2026-01-07 20:11:58.94	244.99	24.33	-29.5	-30.3	24.3	0.00e+00	0	39	0	4174381056	32	5930
2026-01-07 20:11:59.95	244.85	24.19	-29.5	-30.2	24.3	0.00e+00	0	39	0	4181721088	32	5884
2026-01-07 20:12:00.96	244.71	24.05	-29.5	-30.2	24.4	0.00e+00	0	39	0	4189061120	32	5879
2026-01-07 20:12:01.97	244.58	23.91	-29.3	-30.1	24.3	0.00e+00	0	39	0	4196401152	32	5778
2026-01-07 20:12:02.98	244.45	23.78	-29.5	-30.3	24.4	0.00e+00	0	39	0	4203741184	32	5923
2026-01-07 20:12:03.99	244.32	23.64	-29.5	-30.2	24.3	0.00e+00	0	39	0	4211081216	32	5870
2026-01-07 20:12:05.00	244.19	23.50	-29.6	-30.3	24.3	0.00e+00	0	39	0	4218421248	32	5943
2026-01-07 20:12:06.01	244.06	23.37	-29.5	-30.2	24.3	0.00e+00	0	39	0	4225761280	32	5887
2026-01-07 20:12:07.02	243.93	23.23	-29.6	-30.4	24.3	0.00e+00	0	39	0	4233101312	32	5965
2026-01-07 20:12:08.03	243.80	23.10	-29.7	-30.4	24.3	0.00e+00	0	39	0	4240441344	32	6009
2026-01-07 20:12:09.04	243.67	22.97	-29.7	-30.5	24.3	0.00e+00	0	39	0	4247781376	32	6035
2026-01-07 20:12:10.05	243.55	22.83	-29.9	-30.6	24.2	0.00e+00	0	39	0	4255121408	32	6169
2026-01-07 20:12:11.06	243.43	22.70	-29.8	-30.6	24.3	0.00e+00	0	39	0	4262461440	32	6128
2026-01-07 20:12:12.07	243.30	22.57	-30.0	-30.8	24.2	0.00e+00	0	39	0	4269801472	32	6259
2026-01-07 20:12:13.08	243.18	22.44	-30.1	-30.9	24.2	0.00e+00	0	39	0	4277141504	32	6348
2026-01-07 20:12:14.09	243.06	22.31	-30.1	-30.9	24.1	0.00e+00	0	39	0	4284481536	32	6336
2026-01-07 20:12:15.10	242.94	22.18	-30.2	-31.0	24.1	0.00e+00	0	39	0	4291821568	32	6404
2026-01-07 20:12:16.11	242.82	22.05	-30.4	-31.2	24.0	0.00e+00	0	39	0	4298113024	32	6542
2026-01-07 20:12:17.12	242.70	21.92	-30.2	-31.0	24.0	0.00e+00	0	39	0	4305453056	32	6440
2026-01-07 20:12:18.13	242.59	21.79	-30.3	-31.1	24.0	0.00e+00	0	39	0	4313841664	32	6470
2026-01-07 20:12:19.14	242.47	21.66	-30.3	-31.1	24.0	0.00e+00	0	39	0	4320133120	32	6500
2026-01-07 20:12:20.15	242.36	21.53	-30.4	-31.1	23.9	0.00e+00	0	39	0	4327473152	32	6525
2026-01-07 20:12:21.16	242.24	21.41	-30.2	-31.0	24.1	0.00e+00	0	39	0	4334813184	32	6406
2026-01-07 20:12:22.17	242.13	21.28	-30.3	-31.1	24.0	0.00e+00	0	39	0	4342153216	32	6492
2026-01-07 20:12:23.18	242.02	21.15	-30.4	-31.1	24.0	0.00e+00	0	39	0	4349493248	32	6519
2026-01-07 20:12:24.19	241.91	21.03	-30.3	-31.1	24.0	0.00e+00	0	39	0	4356833280	32	6472
2026-01-07 20:12:25.20	241.80	20.90	-30.1	-30.9	24.2	0.00e+00	0	39	0	4364173312	32	6347
2026-01-07 20:12:26.21	241.69	20.78	-30.2	-30.9	24.2	0.00e+00	0	39	0	4371513344	32	6383
2026-01-07 20:12:27.22	241.58	20.66	-30.1	-30.9	24.2	0.00e+00	0	39	0	4378853376	32	6322
2026-01-07 20:12:28.24	241.47	20.53	-30.2	-30.9	24.1	0.00e+00	0	39	0	4386193408	32	6375
2026-01-07 20:12:29.25	241.37	20.41	-30.3	-31.0	24.3	0.00e+00	0	39	0	4393533440	32	6461
2026-01-07 20:12:30.26	241.26	20.28	-30.3	-31.0	24.2	0.00e+00	0	39	0	4400873472	32	6433
2026-01-07 20:12:31.27	241.16	20.16	-30.2	-31.0	24.2	0.00e+00	0	39	0	4408213504	32	6397
2026-01-07 20:12:32.27	241.05	20.04	-30.4	-31.1	24.2	0.00e+00	0	39	0	4415553536	32	6516
2026-01-07 20:12:33.29	240.95	19.92	-30.4	-31.2	24.2	0.00e+00	0	39	0	4422893568	32	6555
2026-01-07 20:12:34.30	240.85	19.80	-30.5	-31.2	24.2	0.00e+00	0	39	0	4430233600	32	6586
2026-01-07 20:12:35.30	240.75	19.68	-30.6	-31.4	24.1	0.00e+00	0	39	0	4437573632	32	6718
2026-01-07 20:12:36.31	240.65	19.56	-30.7	-31.4	24.0	0.00e+00	0	39	0	4444913664	32	6765
2026-01-07 20:12:37.32	240.55	19.44	-30.8	-31.5	24.0	0.00e+00	0	39	0	4451205120	34	6100
2026-01-07 20:12:38.33	240.45	19.32	-30.9	-31.6	23.9	0.00e+00	0	39	0	4459593728	34	6155
2026-01-07 20:12:39.34	240.35	19.20	-30.9	-31.6	23.9	0.00e+00	0	39	0	4466933760	34	6159
2026-01-07 20:12:40.35	240.25	19.09	-31.0	-31.8	23.8	0.00e+00	0	39	0	4473225216	34	6260
2026-01-07 20:12:41.36	240.16	18.97	-30.9	-31.7	23.7	0.00e+00	0	39	0	4480565248	34	6222
2026-01-07 20:12:42.37	240.06	18.85	-31.0	-31.8	23.8	0.00e+00	0	39	0	4487905280	34	6251
2026-01-07 20:12:43.38	239.97	18.74	-30.9	-31.7	23.7	0.00e+00	0	39	0	4495245312	34	6210
2026-01-07 20:12:44.39	239.87	18.62	-30.9	-31.7	23.7	0.00e+00	0	39	0	4502585344	34	6187
2026-01-07 20:12:45.40	239.78	18.51	-31.1	-31.9	23.7	0.00e+00	0	39	0	4509925376	34	6350
2026-01-07 20:12:46.41	239.69	18.39	-30.8	-31.6	23.7	0.00e+00	0	39	0	4517265408	34	6127
2026-01-07 20:12:47.42	239.59	18.28	-30.9	-31.7	23.7	0.00e+00	0	39	0	4524605440	34	6181
2026-01-07 20:12:48.43	239.50	18.16	-30.8	-31.5	23.8	0.00e+00	0	39	0	4531945472	34	6092
2026-01-07 20:12:49.44	239.41	18.05	-30.8	-31.5	23.8	0.00e+00	0	39	0	4539285504	34	6068
2026-01-07 20:12:50.45	239.32	17.94	-30.8	-31.6	23.8	0.00e+00	0	39	0	4546625536	34	6122
2026-01-07 20:12:51.46	239.23	17.82	-30.9	-31.7	23.8	0.00e+00	0	39	0	4553965568	34	6184
2026-01-07 20:12:52.47	239.14	17.71	-30.7	-31.5	23.7	0.00e+00	0	39	0	4561305600	34	6066
2026-01-07 20:12:53.48	239.05	17.60	-30.8	-31.5	23.8	0.00e+00	0	39	0	4568645632	34	6084
2026-01-07 20:12:54.49	238.97	17.49	-30.8	-31.5	23.5	0.00e+00	0	39	0	4575985664	34	6095
2026-01-07 20:12:55.50	238.88	17.38	-30.9	-31.6	23.8	0.00e+00	0	39	0	4583325696	34	6150
2026-01-07 20:12:56.51	238.79	17.27	-31.0	-31.7	23.7	0.00e+00	0	39	0	4590665728	34	6214
2026-01-07 20:12:57.52	238.71	17.16	-31.1	-31.9	23.6	0.00e+00	0	39	0	4596957184	34	6341
2026-01-07 20:12:58.53	238.62	17.05	-31.1	-31.9	23.6	0.00e+00	0	39	0	4605345792	34	6318
2026-01-07 20:12:59.54	238.54	16.94	-31.2	-32.0	23.6	0.00e+00	0	39	0	4612685824	34	6428
2026-01-07 20:13:00.55	238.46	16.83	-31.3	-32.1	23.5	0.00e+00	0	39	0	4618977280	34	6483
2026-01-07 20:13:01.56	238.37	16.72	-31.3	-32.1	23.5	0.00e+00	0	39	0	4626317312	34	6519
2026-01-07 20:13:02.57	238.29	16.61	-31.4	-32.2	23.5	0.00e+00	0	39	0	4633657344	34	6572
2026-01-07 20:13:03.58	238.21	16.50	-31.5	-32.3	23.4	0.00e+00	0	39	0	4640997376	34	6634
