passes_logs/2026/01/07/R4.6S_Anadyr/R4.6S_Anadyr__20260107_061653_FENGYUN_3E_rec.log

#Pass ID: 20260107_061653_FENGYUN 3E
#Satellite: FENGYUN 3E
#Configuration: FENGYUN 3E
#almurnet v.1.7.20251203
#Start time: 2026-01-07 06:16:56

#Version: 2.2.20231116
#Station: R4.6S_Anadyr
#Location: 177.4865 lon 64.73178 lat
#TLE: 1 49008U 21062A   26005.56299987  .00000339  00000+0  18069-3 0  9991
#TLE: 2 49008  98.7472  10.8019 0001562 158.0357 202.0886 14.19884907233502

#Time	Az	El	Level	Level2	SNR	BER	BlckErr	Temp	State	Recorded	gain1	gain2
2026-01-07 06:16:56.28	202.39	0.14	-48.9	-59.6	3.4	8.45e-01	0	33	0	0	60	34483
2026-01-07 06:16:57.29	202.45	0.19	-48.8	-60.2	3.6	8.45e-01	0	34	104	0	60	36862
2026-01-07 06:16:58.30	202.51	0.25	-48.9	-60.3	3.6	8.45e-01	0	34	104	0	60	37482
2026-01-07 06:16:59.31	202.57	0.30	-48.6	-60.3	3.6	8.46e-01	0	34	104	0	60	37241
2026-01-07 06:17:00.32	202.62	0.36	-48.9	-60.3	3.5	8.46e-01	0	34	104	0	60	37317
2026-01-07 06:17:01.33	202.68	0.41	-48.7	-60.3	3.6	8.45e-01	0	34	104	0	60	37423
2026-01-07 06:17:02.33	202.74	0.47	-48.8	-60.3	3.6	8.45e-01	0	34	104	0	60	37295
2026-01-07 06:17:03.34	202.80	0.52	-49.1	-60.3	3.6	8.45e-01	0	34	104	0	60	37629
2026-01-07 06:17:04.35	202.86	0.58	-49.0	-60.3	3.6	8.45e-01	0	34	104	0	60	37445
2026-01-07 06:17:05.36	202.92	0.64	-49.0	-60.3	3.6	8.45e-01	0	34	104	0	60	37304
2026-01-07 06:17:06.37	202.98	0.69	-48.7	-60.2	3.6	8.45e-01	0	34	104	0	60	36858
2026-01-07 06:17:07.38	203.04	0.75	-48.9	-60.1	3.6	8.45e-01	0	34	104	0	60	36669
2026-01-07 06:17:08.39	203.10	0.80	-48.7	-60.0	3.6	8.44e-01	0	35	104	0	60	36161
2026-01-07 06:17:09.40	203.16	0.86	-48.7	-59.9	3.6	8.44e-01	0	34	104	0	60	35794
2026-01-07 06:17:10.41	203.22	0.91	-48.6	-59.8	3.6	8.45e-01	0	35	104	0	60	35448
2026-01-07 06:17:11.42	203.28	0.97	-48.4	-59.6	3.6	8.46e-01	0	35	104	0	60	34572
2026-01-07 06:17:12.43	203.34	1.03	-48.1	-59.2	3.6	8.44e-01	0	35	104	0	60	33140
2026-01-07 06:17:13.44	203.40	1.08	-47.7	-58.9	3.6	8.44e-01	0	34	104	0	60	31671
2026-01-07 06:17:14.45	203.46	1.14	-47.7	-58.8	3.6	8.46e-01	0	35	104	0	60	31523
2026-01-07 06:17:15.46	203.52	1.19	-47.7	-58.8	3.6	8.45e-01	0	35	104	0	60	31340
2026-01-07 06:17:16.47	203.58	1.25	-47.7	-58.8	3.6	8.47e-01	0	35	104	0	60	31547
2026-01-07 06:17:17.48	203.64	1.31	-47.7	-58.7	3.6	8.45e-01	0	35	104	0	60	31040
2026-01-07 06:17:18.48	203.70	1.36	-47.7	-58.7	3.6	8.45e-01	0	35	104	0	60	31054
2026-01-07 06:17:19.49	203.77	1.42	-47.7	-58.6	3.6	8.45e-01	0	35	104	0	60	30915
2026-01-07 06:17:20.50	203.83	1.48	-47.7	-58.7	3.6	8.45e-01	0	35	104	0	60	31148
2026-01-07 06:17:21.51	203.89	1.53	-47.7	-58.8	3.6	8.44e-01	0	35	104	0	60	31423
2026-01-07 06:17:22.52	203.95	1.59	-47.7	-58.9	3.6	8.46e-01	0	35	104	0	60	31691
2026-01-07 06:17:23.53	204.02	1.65	-47.7	-58.8	3.6	8.45e-01	0	35	104	0	60	31485
2026-01-07 06:17:24.54	204.08	1.70	-47.7	-58.9	3.6	8.46e-01	0	35	104	0	60	31890
2026-01-07 06:17:25.55	204.14	1.76	-47.7	-58.9	3.6	8.44e-01	0	35	104	0	60	31668
2026-01-07 06:17:26.56	204.21	1.82	-47.7	-58.8	3.6	8.46e-01	0	35	104	0	60	31660
2026-01-07 06:17:27.57	204.27	1.87	-47.7	-58.8	3.6	8.47e-01	0	35	104	0	60	31552
2026-01-07 06:17:28.58	204.34	1.93	-47.7	-58.8	3.6	8.46e-01	0	35	104	0	60	31451
2026-01-07 06:17:29.59	204.40	1.99	-47.7	-58.7	3.6	8.45e-01	0	35	104	0	60	31086
2026-01-07 06:17:30.60	204.46	2.05	-47.7	-58.5	3.6	8.45e-01	0	35	104	0	60	30370
2026-01-07 06:17:31.61	204.53	2.10	-47.7	-58.4	3.6	8.46e-01	0	35	104	0	60	29927
2026-01-07 06:17:32.63	204.60	2.16	-47.7	-58.4	3.6	8.45e-01	0	35	104	0	60	30117
2026-01-07 06:17:33.63	204.66	2.22	-47.7	-58.4	3.6	8.45e-01	0	35	104	0	60	30118
2026-01-07 06:17:34.64	204.73	2.28	-47.7	-58.5	3.6	8.45e-01	0	35	104	0	60	30575
2026-01-07 06:17:35.66	204.79	2.34	-47.7	-58.6	3.6	8.45e-01	0	35	104	0	60	30617
2026-01-07 06:17:36.66	204.86	2.39	-47.7	-58.5	3.6	8.44e-01	0	35	104	0	60	30475
2026-01-07 06:17:37.67	204.92	2.45	-47.7	-58.6	3.6	8.45e-01	0	35	104	0	60	30893
2026-01-07 06:17:38.68	204.99	2.51	-47.7	-58.8	3.6	8.45e-01	0	35	104	0	60	31540
2026-01-07 06:17:39.69	205.06	2.57	-47.7	-58.9	3.6	8.45e-01	0	35	104	0	60	31942
2026-01-07 06:17:40.71	205.13	2.63	-47.7	-58.4	3.6	8.45e-01	0	35	104	0	60	29991
2026-01-07 06:17:41.71	205.19	2.68	-47.5	-57.2	3.6	8.44e-01	0	35	104	0	60	26087
2026-01-07 06:17:42.72	205.26	2.74	-47.3	-55.7	3.9	8.43e-01	0	35	104	0	60	22138
2026-01-07 06:17:43.73	205.33	2.80	-47.2	-53.7	3.9	8.31e-01	0	35	0	0	60	17568
2026-01-07 06:17:44.74	205.40	2.86	-47.3	-54.4	3.7	8.36e-01	0	35	104	0	60	18900
2026-01-07 06:17:45.75	205.46	2.92	-47.6	-57.4	3.6	8.44e-01	0	35	104	0	60	26680
2026-01-07 06:17:46.76	205.53	2.98	-47.5	-56.8	3.6	8.45e-01	0	35	104	0	60	25011
2026-01-07 06:17:47.77	205.60	3.04	-46.3	-50.7	6.6	6.59e-01	0	35	0	1048576	60	12323
2026-01-07 06:17:48.78	205.67	3.10	-44.2	-46.7	11.1	4.54e-03	0	35	0	8388608	60	7775
2026-01-07 06:17:49.79	205.74	3.16	-42.1	-43.6	14.3	1.25e-05	0	35	0	15728640	58	6168
2026-01-07 06:17:50.80	205.81	3.21	-40.1	-41.2	16.7	0.00e+00	0	35	0	23068672	54	5895
2026-01-07 06:17:51.81	205.88	3.27	-38.8	-39.7	18.2	0.00e+00	0	35	0	30408704	52	5561
2026-01-07 06:17:52.82	205.95	3.33	-38.1	-39.1	18.8	0.00e+00	0	35	0	37748736	50	5775
2026-01-07 06:17:53.83	206.02	3.39	-37.8	-38.7	19.2	0.00e+00	0	35	0	45088768	48	6208
2026-01-07 06:17:54.84	206.09	3.45	-39.6	-40.7	16.4	0.00e+00	0	35	0	51380224	50	6968
2026-01-07 06:17:55.85	206.16	3.51	-47.6	-58.5	3.6	4.61e-01	0	35	104	57671680	60	30283
2026-01-07 06:17:56.86	206.23	3.57	-36.8	-37.6	6.1	8.17e-01	0	35	104	57671680	44	6897
2026-01-07 06:17:57.86	206.30	3.63	-44.8	-47.5	10.0	6.05e-04	0	35	0	58720256	60	8603
2026-01-07 06:17:58.88	206.38	3.69	-39.1	-40.1	17.4	0.00e+00	0	35	0	66060288	46	8221
2026-01-07 06:17:59.88	206.45	3.75	-37.1	-38.0	20.1	0.00e+00	0	35	0	73400320	48	5699
2026-01-07 06:18:00.89	206.52	3.81	-36.5	-37.3	20.7	0.00e+00	0	35	0	80740352	46	5959
2026-01-07 06:18:01.90	206.59	3.87	-36.0	-36.8	21.2	0.00e+00	0	35	0	88080384	46	5607
2026-01-07 06:18:02.90	206.67	3.93	-35.9	-36.6	21.5	0.00e+00	0	35	0	95420416	46	5488
2026-01-07 06:18:03.91	206.74	3.99	-35.7	-36.5	21.3	0.00e+00	0	35	0	102760448	44	6038
2026-01-07 06:18:04.92	206.81	4.05	-35.5	-36.3	21.7	0.00e+00	0	35	0	110100480	44	5927
2026-01-07 06:18:05.93	206.89	4.11	-35.4	-36.2	21.8	0.00e+00	0	35	0	116391936	44	5867
2026-01-07 06:18:06.94	206.96	4.18	-35.5	-36.2	21.8	0.00e+00	0	35	0	123731968	44	5887
2026-01-07 06:18:07.95	207.03	4.24	-35.4	-36.2	22.0	0.00e+00	0	35	0	132120576	44	5858
2026-01-07 06:18:08.96	207.11	4.30	-35.5	-36.2	21.8	0.00e+00	0	35	0	138412032	44	5878
2026-01-07 06:18:09.97	207.18	4.36	-35.4	-36.1	21.9	0.00e+00	0	35	0	145752064	44	5819
2026-01-07 06:18:10.98	207.26	4.42	-35.4	-36.2	21.9	0.00e+00	0	35	0	153092096	44	5833
2026-01-07 06:18:11.99	207.34	4.48	-35.1	-35.9	22.2	0.00e+00	0	35	0	160432128	44	5636
2026-01-07 06:18:13.00	207.41	4.54	-35.2	-35.9	22.1	0.00e+00	0	35	0	167772160	44	5680
2026-01-07 06:18:14.01	207.49	4.60	-35.1	-35.9	22.2	0.00e+00	0	35	0	175112192	44	5643
2026-01-07 06:18:15.02	207.56	4.67	-35.2	-35.9	22.1	0.00e+00	0	35	0	182452224	44	5657
2026-01-07 06:18:16.03	207.64	4.73	-35.0	-35.7	22.4	0.00e+00	0	35	0	189792256	44	5540
2026-01-07 06:18:17.04	207.72	4.79	-35.0	-35.7	22.4	0.00e+00	0	35	0	197132288	44	5542
2026-01-07 06:18:18.05	207.80	4.85	-34.9	-35.6	22.5	0.00e+00	0	35	0	204472320	44	5459
2026-01-07 06:18:19.06	207.87	4.91	-34.8	-35.5	22.6	0.00e+00	0	35	0	211812352	44	5409
2026-01-07 06:18:20.07	207.95	4.98	-34.8	-35.5	22.6	0.00e+00	0	35	0	219152384	42	6058
2026-01-07 06:18:21.08	208.03	5.04	-34.8	-35.5	22.6	0.00e+00	0	35	0	226492416	42	6069
2026-01-07 06:18:22.09	208.11	5.10	-34.8	-35.5	22.7	0.00e+00	0	35	0	233832448	42	6048
2026-01-07 06:18:23.10	208.19	5.16	-34.6	-35.3	22.8	0.00e+00	0	35	0	241172480	42	5960
2026-01-07 06:18:24.11	208.27	5.23	-34.8	-35.5	22.8	0.00e+00	0	35	0	248512512	42	6051
2026-01-07 06:18:25.12	208.35	5.29	-34.5	-35.2	22.9	0.00e+00	0	35	0	255852544	42	5867
2026-01-07 06:18:26.13	208.43	5.35	-34.6	-35.3	22.9	0.00e+00	0	35	0	263192576	42	5934
2026-01-07 06:18:27.14	208.51	5.41	-34.8	-35.5	22.8	0.00e+00	0	35	0	269484032	42	6034
2026-01-07 06:18:28.15	208.59	5.48	-34.5	-35.2	22.9	0.00e+00	0	35	0	277872640	42	5882
2026-01-07 06:18:29.16	208.67	5.54	-34.6	-35.3	22.9	0.00e+00	0	35	0	285212672	42	5897
2026-01-07 06:18:30.17	208.75	5.60	-34.6	-35.3	22.9	0.00e+00	0	35	0	291504128	42	5900
2026-01-07 06:18:31.18	208.83	5.67	-34.6	-35.3	23.0	0.00e+00	0	35	0	298844160	42	5899
2026-01-07 06:18:32.18	208.91	5.73	-34.4	-35.1	23.2	0.00e+00	0	35	0	306184192	42	5768
2026-01-07 06:18:33.19	209.00	5.79	-34.4	-35.1	23.1	0.00e+00	0	35	0	313524224	42	5804
2026-01-07 06:18:34.20	209.08	5.86	-34.2	-34.9	23.2	0.00e+00	0	35	0	320864256	42	5682
2026-01-07 06:18:35.21	209.16	5.92	-34.2	-34.9	23.1	0.00e+00	0	35	0	328204288	42	5692
2026-01-07 06:18:36.22	209.25	5.98	-34.3	-35.0	23.2	0.00e+00	0	35	0	335544320	42	5746
2026-01-07 06:18:37.23	209.33	6.05	-34.2	-34.9	23.3	0.00e+00	0	35	0	342884352	42	5665
2026-01-07 06:18:38.24	209.41	6.11	-34.1	-34.8	23.4	0.00e+00	0	35	0	350224384	42	5619
2026-01-07 06:18:39.25	209.50	6.18	-34.2	-34.9	23.6	0.00e+00	0	35	0	357564416	42	5634
2026-01-07 06:18:40.26	209.58	6.24	-33.9	-34.5	23.6	0.00e+00	0	35	0	364904448	42	5437
2026-01-07 06:18:41.27	209.67	6.31	-33.9	-34.6	23.6	0.00e+00	0	35	0	372244480	42	5475
2026-01-07 06:18:42.28	209.75	6.37	-33.8	-34.5	23.8	0.00e+00	0	35	0	379584512	42	5426
2026-01-07 06:18:43.29	209.84	6.43	-33.8	-34.5	23.8	0.00e+00	0	35	0	386924544	42	5390
2026-01-07 06:18:44.30	209.93	6.50	-33.9	-34.6	23.7	0.00e+00	0	35	0	394264576	42	5464
2026-01-07 06:18:45.31	210.01	6.56	-33.8	-34.4	23.8	0.00e+00	0	35	0	401604608	42	5370
2026-01-07 06:18:46.32	210.10	6.63	-33.9	-34.5	23.7	0.00e+00	0	35	0	408944640	40	6084
2026-01-07 06:18:47.33	210.19	6.69	-33.7	-34.4	23.9	0.00e+00	0	35	0	416284672	40	5991
2026-01-07 06:18:48.34	210.27	6.76	-33.8	-34.4	23.8	0.00e+00	0	35	0	422576128	40	6023
2026-01-07 06:18:49.35	210.36	6.82	-33.8	-34.5	23.9	0.00e+00	0	35	0	430964736	40	6051
2026-01-07 06:18:50.36	210.45	6.89	-33.9	-34.5	23.9	0.00e+00	0	35	0	438304768	40	6090
2026-01-07 06:18:51.37	210.54	6.96	-33.8	-34.5	23.8	0.00e+00	0	35	0	444596224	40	6068
2026-01-07 06:18:52.38	210.63	7.02	-33.9	-34.6	23.7	0.00e+00	0	35	0	451936256	40	6123
2026-01-07 06:18:53.39	210.72	7.09	-34.0	-34.6	23.8	0.00e+00	0	35	0	459276288	40	6158
2026-01-07 06:18:54.40	210.81	7.15	-33.9	-34.6	23.8	0.00e+00	0	35	0	466616320	40	6128
2026-01-07 06:18:55.40	210.90	7.22	-34.0	-34.7	23.6	0.00e+00	0	35	0	473956352	40	6222
2026-01-07 06:18:56.41	210.99	7.28	-34.1	-34.8	23.6	0.00e+00	0	35	0	481296384	40	6280
2026-01-07 06:18:57.42	211.08	7.35	-33.9	-34.6	23.8	0.00e+00	0	35	0	488636416	40	6156
2026-01-07 06:18:58.43	211.17	7.42	-34.0	-34.6	23.7	0.00e+00	0	35	0	495976448	40	6172
2026-01-07 06:18:59.44	211.26	7.48	-33.9	-34.6	23.6	0.00e+00	0	35	0	503316480	40	6154
2026-01-07 06:19:00.45	211.36	7.55	-33.9	-34.6	23.8	0.00e+00	0	35	0	510656512	40	6151
2026-01-07 06:19:01.46	211.45	7.62	-33.9	-34.6	23.8	0.00e+00	0	36	0	517996544	40	6105
2026-01-07 06:19:02.47	211.54	7.68	-33.9	-34.6	23.8	0.00e+00	0	35	0	525336576	40	6104
2026-01-07 06:19:03.48	211.64	7.75	-34.1	-34.8	23.7	0.00e+00	0	35	0	532676608	40	6261
2026-01-07 06:19:04.49	211.73	7.82	-33.9	-34.6	23.8	0.00e+00	0	35	0	540016640	40	6117
2026-01-07 06:19:05.49	211.82	7.88	-33.9	-34.6	23.7	0.00e+00	0	35	0	547356672	40	6117
2026-01-07 06:19:06.51	211.92	7.95	-33.6	-34.3	24.0	0.00e+00	0	35	0	554696704	40	5935
2026-01-07 06:19:07.52	212.01	8.02	-33.9	-34.6	23.9	0.00e+00	0	35	0	562036736	40	6132
2026-01-07 06:19:08.53	212.11	8.09	-33.7	-34.4	24.0	0.00e+00	0	35	0	568328192	40	6010
2026-01-07 06:19:09.54	212.21	8.15	-33.8	-34.4	24.0	0.00e+00	0	36	0	575668224	40	6018
2026-01-07 06:19:10.55	212.30	8.22	-33.5	-34.4	21.8	0.00e+00	0	35	0	584056832	40	6004
2026-01-07 06:19:11.56	212.40	8.29	-33.7	-34.5	21.9	0.00e+00	0	36	0	590348288	40	6100
2026-01-07 06:19:12.57	212.50	8.36	-33.6	-34.4	22.0	0.00e+00	0	35	0	597688320	40	6007
2026-01-07 06:19:13.58	212.59	8.42	-33.3	-34.2	22.2	0.00e+00	0	35	0	605028352	40	5853
2026-01-07 06:19:14.59	212.69	8.49	-33.3	-34.2	22.2	0.00e+00	0	35	0	612368384	40	5840
2026-01-07 06:19:15.60	212.79	8.56	-33.2	-34.0	22.3	0.00e+00	0	35	0	619708416	40	5756
2026-01-07 06:19:16.61	212.89	8.63	-33.2	-34.0	22.3	0.00e+00	0	35	0	627048448	40	5756
2026-01-07 06:19:17.62	212.99	8.70	-33.2	-34.0	22.4	0.00e+00	0	35	0	634388480	40	5748
2026-01-07 06:19:18.63	213.09	8.77	-33.2	-34.0	22.3	0.00e+00	0	35	0	641728512	40	5749
2026-01-07 06:19:19.63	213.19	8.83	-33.1	-33.9	22.5	0.00e+00	0	35	0	649068544	40	5691
2026-01-07 06:19:20.65	213.29	8.90	-33.1	-33.9	22.5	0.00e+00	0	35	0	656408576	40	5666
2026-01-07 06:19:21.65	213.39	8.97	-33.1	-33.9	22.4	0.00e+00	0	35	0	663748608	40	5695
2026-01-07 06:19:22.66	213.49	9.04	-33.2	-34.0	22.4	0.00e+00	0	35	0	671088640	40	5744
2026-01-07 06:19:23.67	213.60	9.11	-33.1	-33.9	22.5	0.00e+00	0	35	0	678428672	40	5656
2026-01-07 06:19:24.68	213.70	9.18	-33.2	-34.0	22.4	0.00e+00	0	35	0	685768704	40	5746
2026-01-07 06:19:25.69	213.80	9.25	-33.1	-33.9	22.5	0.00e+00	0	35	0	693108736	40	5667
2026-01-07 06:19:26.70	213.91	9.32	-33.0	-33.9	22.5	0.00e+00	0	35	0	700448768	40	5634
2026-01-07 06:19:27.71	214.01	9.39	-33.1	-33.9	22.5	0.00e+00	0	36	0	707788800	40	5639
2026-01-07 06:19:28.72	214.12	9.46	-33.1	-33.9	22.6	0.00e+00	0	35	0	715128832	40	5670
2026-01-07 06:19:29.73	214.22	9.53	-33.1	-34.0	22.6	0.00e+00	0	36	0	721420288	40	5712
2026-01-07 06:19:30.74	214.33	9.60	-33.1	-33.9	22.6	0.00e+00	0	36	0	728760320	40	5691
2026-01-07 06:19:31.75	214.43	9.67	-33.1	-33.9	22.5	0.00e+00	0	36	0	737148928	40	5670
2026-01-07 06:19:32.76	214.54	9.74	-33.1	-34.0	22.5	0.00e+00	0	35	0	743440384	40	5697
2026-01-07 06:19:33.77	214.65	9.81	-33.3	-34.1	22.5	0.00e+00	0	36	0	750780416	40	5794
2026-01-07 06:19:34.78	214.75	9.88	-33.2	-34.0	22.6	0.00e+00	0	36	0	758120448	40	5730
2026-01-07 06:19:35.79	214.86	9.95	-33.3	-34.1	22.5	0.00e+00	0	36	0	765460480	40	5811
2026-01-07 06:19:36.80	214.97	10.02	-33.3	-34.1	22.5	0.00e+00	0	36	0	772800512	40	5815
2026-01-07 06:19:37.81	215.08	10.09	-33.3	-34.1	22.4	0.00e+00	0	35	0	780140544	40	5803
2026-01-07 06:19:38.82	215.19	10.16	-33.2	-34.0	22.6	0.00e+00	0	36	0	787480576	40	5736
2026-01-07 06:19:39.83	215.30	10.23	-33.2	-34.0	22.6	0.00e+00	0	35	0	794820608	40	5733
2026-01-07 06:19:40.84	215.41	10.30	-32.9	-33.7	22.8	0.00e+00	0	36	0	802160640	40	5558
2026-01-07 06:19:41.85	215.52	10.37	-33.0	-33.8	22.9	0.00e+00	0	36	0	809500672	40	5596
2026-01-07 06:19:42.86	215.63	10.44	-33.0	-33.9	22.9	0.00e+00	0	35	0	816840704	40	5640
2026-01-07 06:19:43.87	215.75	10.52	-32.9	-33.7	22.8	0.00e+00	0	36	0	824180736	40	5562
2026-01-07 06:19:44.88	215.86	10.59	-32.8	-33.6	22.9	0.00e+00	0	36	0	831520768	38	6156
2026-01-07 06:19:45.89	215.97	10.66	-32.8	-33.6	23.0	0.00e+00	0	36	0	838860800	38	6118
2026-01-07 06:19:46.90	216.09	10.73	-32.7	-33.6	22.9	0.00e+00	0	36	0	846200832	38	6105
2026-01-07 06:19:47.91	216.20	10.80	-32.7	-33.5	23.0	0.00e+00	0	36	0	853540864	38	6056
2026-01-07 06:19:48.92	216.32	10.87	-32.8	-33.6	22.9	0.00e+00	0	36	0	860880896	38	6157
2026-01-07 06:19:49.93	216.43	10.95	-32.7	-33.6	22.9	0.00e+00	0	36	0	867172352	38	6104
2026-01-07 06:19:50.94	216.55	11.02	-32.8	-33.6	22.8	0.00e+00	0	36	0	874512384	38	6147
2026-01-07 06:19:51.95	216.66	11.09	-32.7	-33.5	22.8	0.00e+00	0	36	0	882900992	38	6075
2026-01-07 06:19:52.96	216.78	11.16	-32.8	-33.7	22.8	0.00e+00	0	36	0	889192448	38	6181
2026-01-07 06:19:53.97	216.90	11.24	-32.8	-33.7	22.7	0.00e+00	0	36	0	896532480	38	6181
2026-01-07 06:19:54.98	217.02	11.31	-32.7	-33.6	22.7	0.00e+00	0	35	0	903872512	38	6119
2026-01-07 06:19:55.99	217.14	11.38	-32.8	-33.6	22.8	0.00e+00	0	36	0	911212544	38	6144
2026-01-07 06:19:57.00	217.25	11.45	-32.6	-33.5	22.8	0.00e+00	0	36	0	918552576	38	6062
2026-01-07 06:19:58.01	217.37	11.53	-32.6	-33.5	22.8	0.00e+00	0	36	0	925892608	38	6055
2026-01-07 06:19:59.02	217.49	11.60	-32.7	-33.6	22.9	0.00e+00	0	36	0	933232640	38	6118
2026-01-07 06:20:00.03	217.62	11.67	-32.6	-33.4	22.9	0.00e+00	0	36	0	940572672	38	5981
2026-01-07 06:20:01.04	217.74	11.75	-32.6	-33.4	22.9	0.00e+00	0	36	0	947912704	38	5984
2026-01-07 06:20:02.05	217.86	11.82	-32.5	-33.3	22.9	0.00e+00	0	36	0	955252736	38	5926
2026-01-07 06:20:03.06	217.98	11.89	-32.6	-33.4	22.8	0.00e+00	0	36	0	962592768	38	5991
2026-01-07 06:20:04.07	218.11	11.97	-32.5	-33.3	22.9	0.00e+00	0	36	0	969932800	38	5955
2026-01-07 06:20:05.07	218.23	12.04	-32.6	-33.4	22.8	0.00e+00	0	36	0	977272832	38	6024
2026-01-07 06:20:06.08	218.35	12.11	-32.5	-33.3	22.8	0.00e+00	0	36	0	984612864	38	5922
2026-01-07 06:20:07.09	218.48	12.19	-32.5	-33.3	22.7	0.00e+00	0	36	0	991952896	38	5947
2026-01-07 06:20:08.10	218.60	12.26	-32.5	-33.3	22.7	0.00e+00	0	36	0	999292928	38	5942
2026-01-07 06:20:09.11	218.73	12.33	-32.4	-33.3	22.8	0.00e+00	0	36	0	1006632960	38	5905
2026-01-07 06:20:10.12	218.86	12.41	-32.5	-33.4	22.6	0.00e+00	0	36	0	1013972992	38	5967
2026-01-07 06:20:11.13	218.99	12.48	-32.4	-33.2	22.7	0.00e+00	0	36	0	1020264448	38	5865
2026-01-07 06:20:12.14	219.11	12.56	-32.5	-33.3	22.7	0.00e+00	0	36	0	1027604480	38	5948
2026-01-07 06:20:13.15	219.24	12.63	-32.4	-33.2	22.8	0.00e+00	0	36	0	1035993088	38	5861
2026-01-07 06:20:14.16	219.37	12.71	-32.2	-33.0	22.8	0.00e+00	0	36	0	1042284544	38	5754
2026-01-07 06:20:15.17	219.50	12.78	-32.2	-33.0	22.9	0.00e+00	0	36	0	1049624576	38	5738
2026-01-07 06:20:16.18	219.63	12.86	-32.2	-33.0	22.9	0.00e+00	0	36	0	1056964608	38	5745
2026-01-07 06:20:17.19	219.77	12.93	-32.3	-33.1	22.9	0.00e+00	0	36	0	1064304640	38	5789
2026-01-07 06:20:18.20	219.90	13.01	-32.3	-33.2	22.7	0.00e+00	0	36	0	1071644672	38	5844
2026-01-07 06:20:19.21	220.03	13.08	-32.4	-33.3	22.7	0.00e+00	0	35	0	1078984704	38	5925
2026-01-07 06:20:20.22	220.16	13.16	-32.4	-33.3	22.7	0.00e+00	0	35	0	1086324736	38	5916
2026-01-07 06:20:21.22	220.30	13.23	-32.5	-33.3	22.6	0.00e+00	0	36	0	1093664768	38	5956
2026-01-07 06:20:22.23	220.43	13.31	-32.5	-33.4	22.6	0.00e+00	0	36	0	1101004800	38	5967
2026-01-07 06:20:23.24	220.57	13.38	-32.4	-33.3	22.7	0.00e+00	0	36	0	1108344832	38	5906
2026-01-07 06:20:24.25	220.70	13.46	-32.4	-33.2	22.7	0.00e+00	0	36	0	1115684864	38	5874
2026-01-07 06:20:25.26	220.84	13.53	-32.3	-33.1	22.6	0.00e+00	0	36	0	1123024896	38	5827
2026-01-07 06:20:26.27	220.98	13.61	-32.4	-33.2	22.7	0.00e+00	0	36	0	1130364928	38	5869
2026-01-07 06:20:27.28	221.12	13.68	-32.3	-33.1	22.7	0.00e+00	0	36	0	1137704960	38	5825
2026-01-07 06:20:28.29	221.25	13.76	-32.1	-32.9	22.8	0.00e+00	0	35	0	1145044992	38	5672
2026-01-07 06:20:29.30	221.39	13.84	-32.1	-32.9	22.9	0.00e+00	0	35	0	1152385024	38	5672
2026-01-07 06:20:30.31	221.53	13.91	-32.2	-33.0	22.9	0.00e+00	0	36	0	1159725056	38	5759
2026-01-07 06:20:31.32	221.67	13.99	-32.0	-32.9	23.0	0.00e+00	0	36	0	1166016512	38	5635
2026-01-07 06:20:32.33	221.82	14.06	-32.1	-32.9	23.0	0.00e+00	0	36	0	1173356544	38	5691
2026-01-07 06:20:33.34	221.96	14.14	-31.9	-32.8	23.2	0.00e+00	0	36	0	1180696576	38	5567
2026-01-07 06:20:34.35	222.10	14.22	-32.0	-32.8	23.2	0.00e+00	0	36	0	1188036608	38	5571
2026-01-07 06:20:35.36	222.24	14.29	-32.1	-32.9	23.3	0.00e+00	0	36	0	1195376640	38	5664
2026-01-07 06:20:36.37	222.39	14.37	-31.9	-32.7	23.3	0.00e+00	0	36	0	1202716672	38	5538
2026-01-07 06:20:37.38	222.53	14.45	-32.0	-32.8	23.3	0.00e+00	0	36	0	1210056704	38	5582
2026-01-07 06:20:38.39	222.68	14.52	-31.9	-32.7	23.4	0.00e+00	0	36	0	1217396736	38	5554
2026-01-07 06:20:39.40	222.83	14.60	-31.7	-32.5	23.4	0.00e+00	0	36	0	1224736768	36	6094
2026-01-07 06:20:40.41	222.97	14.68	-31.8	-32.6	23.3	0.00e+00	0	36	0	1232076800	36	6122
2026-01-07 06:20:41.42	223.12	14.75	-31.6	-32.4	23.5	0.00e+00	0	36	0	1239416832	36	5994
2026-01-07 06:20:42.43	223.27	14.83	-31.6	-32.4	23.5	0.00e+00	0	36	0	1246756864	36	6022
2026-01-07 06:20:43.44	223.42	14.91	-31.5	-32.3	23.5	0.00e+00	0	36	0	1254096896	36	5954
2026-01-07 06:20:44.45	223.57	14.98	-31.7	-32.5	23.4	0.00e+00	0	36	0	1261436928	36	6086
2026-01-07 06:20:45.45	223.72	15.06	-31.6	-32.4	23.5	0.00e+00	0	36	0	1268776960	36	6006
2026-01-07 06:20:46.46	223.87	15.14	-31.5	-32.3	23.6	0.00e+00	0	36	0	1276116992	36	5931
2026-01-07 06:20:47.48	224.03	15.21	-31.6	-32.4	23.6	0.00e+00	0	36	0	1283457024	36	5966
2026-01-07 06:20:48.48	224.18	15.29	-31.4	-32.2	23.7	0.00e+00	0	36	0	1290797056	36	5887
2026-01-07 06:20:49.49	224.33	15.37	-31.4	-32.2	23.8	0.00e+00	0	36	0	1297088512	36	5830
2026-01-07 06:20:50.50	224.49	15.45	-31.3	-32.1	23.8	0.00e+00	0	36	0	1305477120	36	5775
2026-01-07 06:20:51.51	224.64	15.52	-31.3	-32.1	23.9	0.00e+00	0	36	0	1312817152	36	5789
2026-01-07 06:20:52.52	224.80	15.60	-31.2	-31.9	23.9	0.00e+00	0	36	0	1319108608	36	5685
2026-01-07 06:20:53.53	224.96	15.68	-31.2	-32.0	23.9	0.00e+00	0	36	0	1326448640	36	5703
2026-01-07 06:20:54.54	225.11	15.76	-31.1	-31.9	24.0	0.00e+00	0	36	0	1333788672	36	5632
2026-01-07 06:20:55.55	225.27	15.83	-31.1	-31.9	23.9	0.00e+00	0	36	0	1341128704	36	5687
2026-01-07 06:20:56.55	225.43	15.91	-31.1	-31.9	23.9	0.00e+00	0	36	0	1348468736	36	5667
2026-01-07 06:20:57.56	225.59	15.99	-31.2	-32.0	23.8	0.00e+00	0	36	0	1355808768	36	5705
2026-01-07 06:20:58.57	225.75	16.07	-31.2	-32.0	23.8	0.00e+00	0	36	0	1363148800	36	5696
2026-01-07 06:20:59.58	225.91	16.14	-31.3	-32.1	23.7	0.00e+00	0	36	0	1370488832	36	5796
2026-01-07 06:21:00.59	226.08	16.22	-31.3	-32.1	23.6	0.00e+00	0	36	0	1377828864	36	5818
2026-01-07 06:21:01.60	226.24	16.30	-31.3	-32.1	23.6	0.00e+00	0	36	0	1385168896	36	5816
2026-01-07 06:21:02.61	226.41	16.38	-31.2	-32.0	23.5	0.00e+00	0	36	0	1392508928	36	5746
2026-01-07 06:21:03.63	226.57	16.46	-31.2	-32.0	23.6	0.00e+00	0	36	0	1399848960	36	5733
2026-01-07 06:21:04.63	226.74	16.53	-31.0	-31.8	23.7	0.00e+00	0	36	0	1407188992	36	5580
2026-01-07 06:21:05.64	226.90	16.61	-30.9	-31.7	23.7	0.00e+00	0	36	0	1414529024	36	5544
2026-01-07 06:21:06.66	227.07	16.69	-30.9	-31.7	23.8	0.00e+00	0	36	0	1421869056	36	5506
2026-01-07 06:21:07.67	227.24	16.77	-30.9	-31.7	23.8	0.00e+00	0	36	0	1429209088	36	5516
2026-01-07 06:21:08.68	227.41	16.85	-30.7	-31.5	23.8	0.00e+00	0	36	0	1436549120	34	6087
2026-01-07 06:21:09.69	227.58	16.92	-30.7	-31.4	23.8	0.00e+00	0	36	0	1442840576	34	6028
2026-01-07 06:21:10.70	227.75	17.00	-30.7	-31.5	23.8	0.00e+00	0	36	0	1451229184	34	6042
2026-01-07 06:21:11.70	227.92	17.08	-30.6	-31.4	23.7	0.00e+00	0	36	0	1458569216	34	5988
2026-01-07 06:21:12.71	228.10	17.16	-30.5	-31.3	23.7	0.00e+00	0	36	0	1464860672	34	5942
2026-01-07 06:21:13.72	228.27	17.23	-30.6	-31.4	23.7	0.00e+00	0	36	0	1472200704	34	5988
2026-01-07 06:21:14.73	228.45	17.31	-30.6	-31.3	23.7	0.00e+00	0	36	0	1479540736	34	5957
2026-01-07 06:21:15.75	228.62	17.39	-30.4	-31.2	23.9	0.00e+00	0	36	0	1486880768	34	5843
2026-01-07 06:21:16.76	228.80	17.47	-30.5	-31.3	23.8	0.00e+00	0	36	0	1494220800	34	5922
2026-01-07 06:21:17.77	228.98	17.55	-30.4	-31.2	23.9	0.00e+00	0	36	0	1501560832	34	5858
2026-01-07 06:21:18.78	229.15	17.62	-30.5	-31.2	23.9	0.00e+00	0	36	0	1508900864	34	5874
2026-01-07 06:21:19.79	229.33	17.70	-30.6	-31.4	23.9	0.00e+00	0	36	0	1516240896	34	5966
2026-01-07 06:21:20.79	229.51	17.78	-30.6	-31.4	24.0	0.00e+00	0	36	0	1523580928	34	5984
2026-01-07 06:21:21.81	229.69	17.86	-30.6	-31.4	23.9	0.00e+00	0	36	0	1530920960	34	6000
2026-01-07 06:21:22.82	229.88	17.94	-30.7	-31.5	23.8	0.00e+00	0	36	0	1538260992	34	6067
2026-01-07 06:21:23.83	230.06	18.01	-30.7	-31.4	23.9	0.00e+00	0	36	0	1545601024	34	6025
2026-01-07 06:21:24.84	230.24	18.09	-30.8	-31.6	23.8	0.00e+00	0	36	0	1552941056	34	6137
2026-01-07 06:21:25.85	230.43	18.17	-30.7	-31.4	23.9	0.00e+00	0	36	0	1560281088	34	6023
2026-01-07 06:21:26.85	230.61	18.25	-30.7	-31.5	24.0	0.00e+00	0	36	0	1567621120	34	6058
2026-01-07 06:21:27.86	230.80	18.32	-30.7	-31.5	24.0	0.00e+00	0	36	0	1574961152	34	6045
2026-01-07 06:21:28.87	230.98	18.40	-30.7	-31.4	24.0	0.00e+00	0	36	0	1582301184	34	6026
2026-01-07 06:21:29.88	231.17	18.48	-30.6	-31.4	24.1	0.00e+00	0	36	0	1589641216	34	6008
2026-01-07 06:21:30.89	231.36	18.56	-30.6	-31.4	24.0	0.00e+00	0	36	0	1595932672	34	6000
2026-01-07 06:21:31.90	231.55	18.63	-30.6	-31.3	24.2	0.00e+00	0	36	0	1604321280	34	5944
2026-01-07 06:21:32.91	231.74	18.71	-30.6	-31.4	24.2	0.00e+00	0	36	0	1611661312	34	5993
2026-01-07 06:21:33.92	231.94	18.79	-30.5	-31.2	24.4	0.00e+00	0	36	0	1617952768	34	5879
2026-01-07 06:21:34.93	232.13	18.87	-30.4	-31.2	24.3	0.00e+00	0	36	0	1625292800	34	5870
2026-01-07 06:21:35.94	232.32	18.94	-30.5	-31.3	24.3	0.00e+00	0	36	0	1632632832	34	5914
2026-01-07 06:21:36.95	232.52	19.02	-30.4	-31.2	24.2	0.00e+00	0	36	0	1639972864	34	5859
2026-01-07 06:21:37.96	232.71	19.10	-30.4	-31.1	24.2	0.00e+00	0	36	0	1647312896	34	5802
2026-01-07 06:21:38.96	232.91	19.17	-30.3	-31.0	24.3	0.00e+00	0	36	0	1654652928	34	5746
2026-01-07 06:21:39.98	233.11	19.25	-30.2	-31.0	24.3	0.00e+00	0	36	0	1661992960	34	5737
2026-01-07 06:21:40.99	233.31	19.33	-30.3	-31.1	24.1	0.00e+00	0	36	0	1669332992	34	5765
2026-01-07 06:21:41.99	233.50	19.40	-30.4	-31.2	24.0	0.00e+00	0	36	0	1676673024	34	5856
2026-01-07 06:21:43.00	233.70	19.48	-30.3	-31.1	23.9	0.00e+00	0	36	0	1684013056	34	5821
2026-01-07 06:21:44.01	233.91	19.56	-30.4	-31.2	23.8	0.00e+00	0	36	0	1691353088	34	5837
2026-01-07 06:21:45.02	234.11	19.63	-30.4	-31.2	23.8	0.00e+00	0	36	0	1698693120	34	5871
2026-01-07 06:21:46.03	234.31	19.71	-30.3	-31.1	23.8	0.00e+00	0	36	0	1706033152	34	5816
2026-01-07 06:21:47.04	234.52	19.79	-30.3	-31.1	23.7	0.00e+00	0	36	0	1713373184	34	5820
2026-01-07 06:21:48.05	234.72	19.86	-30.3	-31.1	23.8	0.00e+00	0	36	0	1720713216	34	5790
2026-01-07 06:21:49.06	234.93	19.94	-30.4	-31.2	23.7	0.00e+00	0	36	0	1728053248	34	5850
2026-01-07 06:21:50.07	235.14	20.01	-30.4	-31.2	23.7	0.00e+00	0	36	0	1735393280	34	5835
2026-01-07 06:21:51.08	235.35	20.09	-30.2	-31.0	23.7	0.00e+00	0	36	0	1742733312	34	5703
2026-01-07 06:21:52.09	235.56	20.16	-30.4	-31.2	23.6	0.00e+00	0	36	0	1749024768	34	5856
2026-01-07 06:21:53.10	235.77	20.24	-30.2	-31.0	23.6	0.00e+00	0	36	0	1757413376	34	5708
2026-01-07 06:21:54.11	235.98	20.31	-30.2	-31.0	23.7	0.00e+00	0	36	0	1764753408	34	5738
2026-01-07 06:21:55.12	236.19	20.39	-30.2	-30.9	23.7	0.00e+00	0	36	0	1771044864	34	5694
2026-01-07 06:21:56.13	236.40	20.46	-30.1	-30.9	23.8	0.00e+00	0	36	0	1778384896	34	5672
2026-01-07 06:21:57.14	236.62	20.54	-30.2	-31.0	23.9	0.00e+00	0	36	0	1785724928	34	5701
2026-01-07 06:21:58.15	236.83	20.61	-30.1	-30.9	24.0	0.00e+00	0	36	0	1793064960	34	5684
2026-01-07 06:21:59.16	237.05	20.69	-30.2	-31.0	24.0	0.00e+00	0	36	0	1800404992	34	5731
2026-01-07 06:22:00.17	237.27	20.76	-30.1	-30.9	24.1	0.00e+00	0	36	0	1807745024	34	5652
2026-01-07 06:22:01.18	237.49	20.83	-30.0	-30.8	24.2	0.00e+00	0	36	0	1815085056	34	5607
2026-01-07 06:22:02.19	237.71	20.91	-30.0	-30.8	24.3	0.00e+00	0	36	0	1822425088	34	5605
2026-01-07 06:22:03.20	237.93	20.98	-29.8	-30.5	24.5	0.00e+00	0	36	0	1829765120	34	5437
2026-01-07 06:22:04.20	238.15	21.05	-29.9	-30.7	24.5	0.00e+00	0	36	0	1837105152	34	5532
2026-01-07 06:22:05.21	238.37	21.13	-29.7	-30.5	24.6	0.00e+00	0	36	0	1844445184	34	5395
2026-01-07 06:22:06.22	238.59	21.20	-29.9	-30.7	24.4	0.00e+00	0	36	0	1851785216	32	6203
2026-01-07 06:22:07.23	238.82	21.27	-30.0	-30.8	24.5	0.00e+00	0	36	0	1859125248	32	6247
2026-01-07 06:22:08.24	239.04	21.34	-30.0	-30.7	24.4	0.00e+00	0	36	0	1866465280	32	6244
2026-01-07 06:22:09.25	239.27	21.42	-30.0	-30.7	24.3	0.00e+00	0	36	0	1873805312	32	6226
2026-01-07 06:22:10.26	239.50	21.49	-30.0	-30.8	24.2	0.00e+00	0	36	0	1881145344	32	6296
2026-01-07 06:22:11.27	239.73	21.56	-30.0	-30.8	24.1	0.00e+00	0	36	0	1888485376	32	6289
2026-01-07 06:22:12.28	239.96	21.63	-30.1	-30.9	24.1	0.00e+00	0	36	0	1894776832	32	6367
2026-01-07 06:22:13.29	240.19	21.70	-30.0	-30.8	24.1	0.00e+00	0	36	0	1902116864	32	6272
2026-01-07 06:22:14.30	240.42	21.77	-30.1	-30.9	24.0	0.00e+00	0	36	0	1910505472	32	6324
2026-01-07 06:22:15.31	240.65	21.84	-30.0	-30.8	23.8	0.00e+00	0	36	0	1916796928	32	6303
2026-01-07 06:22:16.32	240.89	21.91	-30.0	-30.8	23.9	0.00e+00	0	36	0	1924136960	32	6287
2026-01-07 06:22:17.33	241.12	21.98	-30.1	-30.9	23.9	0.00e+00	0	36	0	1931476992	32	6349
2026-01-07 06:22:18.34	241.36	22.05	-30.0	-30.8	23.9	0.00e+00	0	36	0	1938817024	32	6304
2026-01-07 06:22:19.35	241.60	22.12	-30.1	-30.9	24.0	0.00e+00	0	36	0	1946157056	32	6326
2026-01-07 06:22:20.36	241.83	22.19	-30.1	-30.9	23.9	0.00e+00	0	36	0	1953497088	32	6331
2026-01-07 06:22:21.37	242.07	22.26	-30.0	-30.8	23.9	0.00e+00	0	36	0	1960837120	32	6311
2026-01-07 06:22:22.38	242.31	22.33	-30.1	-30.9	23.9	0.00e+00	0	36	0	1968177152	32	6360
2026-01-07 06:22:23.39	242.55	22.40	-30.0	-30.8	24.0	0.00e+00	0	36	0	1975517184	32	6257
2026-01-07 06:22:24.40	242.80	22.46	-30.0	-30.8	24.0	0.00e+00	0	36	0	1982857216	32	6258
2026-01-07 06:22:25.41	243.04	22.53	-29.8	-30.6	24.0	0.00e+00	0	36	0	1990197248	32	6139
2026-01-07 06:22:26.42	243.28	22.60	-29.8	-30.6	24.2	0.00e+00	0	36	0	1997537280	32	6139
2026-01-07 06:22:27.43	243.53	22.67	-29.5	-30.3	24.2	0.00e+00	0	36	0	2004877312	32	5903
2026-01-07 06:22:28.44	243.78	22.73	-29.6	-30.3	24.3	0.00e+00	0	36	0	2012217344	32	5943
2026-01-07 06:22:29.45	244.02	22.80	-29.6	-30.3	24.4	0.00e+00	0	36	0	2019557376	32	5956
2026-01-07 06:22:30.46	244.27	22.86	-29.5	-30.3	24.4	0.00e+00	0	36	0	2026897408	32	5913
2026-01-07 06:22:31.47	244.52	22.93	-29.5	-30.3	24.5	0.00e+00	0	36	0	2034237440	32	5931
2026-01-07 06:22:32.48	244.77	22.99	-29.6	-30.4	24.5	0.00e+00	0	36	0	2041577472	32	5998
2026-01-07 06:22:33.49	245.02	23.06	-29.6	-30.4	24.5	0.00e+00	0	36	0	2047868928	32	5970
2026-01-07 06:22:34.50	245.28	23.12	-29.7	-30.5	24.4	0.00e+00	0	36	0	2056257536	32	6048
2026-01-07 06:22:35.51	245.53	23.18	-29.7	-30.5	24.3	0.00e+00	0	36	0	2063597568	32	6086
2026-01-07 06:22:36.52	245.78	23.25	-29.8	-30.6	24.3	0.00e+00	0	36	0	2069889024	32	6123
2026-01-07 06:22:37.53	246.04	23.31	-29.7	-30.5	24.3	0.00e+00	0	36	0	2077229056	32	6070
2026-01-07 06:22:38.53	246.29	23.37	-29.8	-30.6	24.2	0.00e+00	0	36	0	2084569088	32	6144
2026-01-07 06:22:39.54	246.55	23.43	-29.7	-30.5	24.3	0.00e+00	0	36	0	2091909120	32	6042
2026-01-07 06:22:40.55	246.81	23.50	-29.7	-30.5	24.1	0.00e+00	0	36	0	2099249152	32	6044
2026-01-07 06:22:41.56	247.07	23.56	-29.8	-30.6	24.1	0.00e+00	0	36	0	2106589184	32	6108
2026-01-07 06:22:42.57	247.33	23.62	-29.7	-30.5	24.1	0.00e+00	0	36	0	2113929216	32	6095
2026-01-07 06:22:43.58	247.59	23.68	-29.8	-30.6	24.0	0.00e+00	0	36	0	2121269248	32	6128
2026-01-07 06:22:44.59	247.85	23.74	-29.8	-30.6	24.0	0.00e+00	0	36	0	2128609280	32	6135
2026-01-07 06:22:45.60	248.12	23.80	-29.8	-30.6	24.1	0.00e+00	0	36	0	2135949312	32	6117
2026-01-07 06:22:46.61	248.38	23.85	-29.7	-30.5	23.9	0.00e+00	0	36	0	2143289344	32	6083
2026-01-07 06:22:47.62	248.65	23.91	-29.6	-30.4	24.1	0.00e+00	0	36	0	2150629376	32	5995
2026-01-07 06:22:48.63	248.91	23.97	-29.6	-30.4	24.2	0.00e+00	0	36	0	2157969408	32	5987
2026-01-07 06:22:49.64	249.18	24.03	-29.6	-30.4	24.2	0.00e+00	0	36	0	2165309440	32	6003
2026-01-07 06:22:50.65	249.45	24.08	-29.6	-30.4	24.1	0.00e+00	0	36	0	2172649472	32	5973
2026-01-07 06:22:51.66	249.72	24.14	-29.7	-30.4	24.2	0.00e+00	0	36	0	2179989504	32	6033
2026-01-07 06:22:52.67	249.99	24.20	-29.7	-30.5	24.2	0.00e+00	0	36	0	2187329536	32	6057
2026-01-07 06:22:53.68	250.26	24.25	-29.7	-30.5	24.3	0.00e+00	0	36	0	2193620992	32	6071
2026-01-07 06:22:54.69	250.53	24.30	-29.5	-30.3	24.4	0.00e+00	0	36	0	2200961024	32	5904
2026-01-07 06:22:55.70	250.80	24.36	-29.3	-30.1	24.6	0.00e+00	0	36	0	2209349632	32	5778
2026-01-07 06:22:56.71	251.08	24.41	-29.3	-30.1	24.6	0.00e+00	0	36	0	2215641088	32	5772
2026-01-07 06:22:57.72	251.35	24.46	-29.3	-30.0	24.7	0.00e+00	0	36	0	2222981120	32	5735
2026-01-07 06:22:58.73	251.63	24.52	-29.3	-30.1	24.8	0.00e+00	0	36	0	2230321152	32	5770
2026-01-07 06:22:59.74	251.90	24.57	-29.2	-29.9	24.8	0.00e+00	0	36	0	2237661184	32	5682
2026-01-07 06:23:00.75	252.18	24.62	-29.3	-30.0	24.8	0.00e+00	0	36	0	2245001216	32	5728
2026-01-07 06:23:01.75	252.46	24.67	-29.2	-30.0	24.8	0.00e+00	0	36	0	2252341248	32	5704
2026-01-07 06:23:02.76	252.73	24.72	-29.2	-30.0	24.8	0.00e+00	0	36	0	2259681280	32	5717
2026-01-07 06:23:03.77	253.01	24.77	-29.2	-29.9	24.7	0.00e+00	0	36	0	2267021312	32	5676
2026-01-07 06:23:04.78	253.30	24.82	-29.2	-29.9	24.7	0.00e+00	0	36	0	2274361344	32	5672
2026-01-07 06:23:05.79	253.58	24.87	-29.0	-29.7	24.7	0.00e+00	0	36	0	2281701376	32	5563
2026-01-07 06:23:06.80	253.86	24.91	-29.0	-29.8	24.7	0.00e+00	0	36	0	2289041408	32	5576
2026-01-07 06:23:07.81	254.14	24.96	-29.1	-29.9	24.6	0.00e+00	0	36	0	2296381440	32	5642
2026-01-07 06:23:08.82	254.43	25.01	-29.1	-29.9	24.5	0.00e+00	0	36	0	2303721472	32	5647
2026-01-07 06:23:09.83	254.71	25.05	-29.2	-30.0	24.4	0.00e+00	0	36	0	2311061504	32	5708
2026-01-07 06:23:10.84	255.00	25.10	-29.4	-30.1	24.3	0.00e+00	0	36	0	2318401536	32	5818
2026-01-07 06:23:11.85	255.28	25.14	-29.4	-30.2	24.1	0.00e+00	0	36	0	2325741568	32	5856
2026-01-07 06:23:12.86	255.57	25.18	-29.4	-30.2	24.1	0.00e+00	0	36	0	2333081600	32	5892
2026-01-07 06:23:13.87	255.86	25.23	-29.4	-30.2	24.1	0.00e+00	0	36	0	2340421632	32	5890
2026-01-07 06:23:14.88	256.15	25.27	-29.4	-30.2	24.3	0.00e+00	0	36	0	2346713088	32	5858
2026-01-07 06:23:15.89	256.44	25.31	-29.5	-30.3	24.4	0.00e+00	0	36	0	2354053120	32	5919
2026-01-07 06:23:16.90	256.73	25.35	-29.2	-30.0	24.5	0.00e+00	0	36	0	2362441728	32	5708
2026-01-07 06:23:17.91	257.02	25.39	-29.4	-30.1	24.5	0.00e+00	0	36	0	2368733184	32	5822
2026-01-07 06:23:18.92	257.31	25.43	-29.3	-30.1	24.5	0.00e+00	0	36	0	2376073216	32	5799
2026-01-07 06:23:19.93	257.60	25.47	-29.3	-30.1	24.4	0.00e+00	0	36	0	2383413248	32	5802
2026-01-07 06:23:20.94	257.89	25.50	-29.4	-30.2	24.4	0.00e+00	0	36	0	2390753280	32	5885
2026-01-07 06:23:21.94	258.18	25.54	-29.4	-30.2	24.4	0.00e+00	0	36	0	2398093312	32	5875
2026-01-07 06:23:22.95	258.48	25.58	-29.5	-30.2	24.4	0.00e+00	0	36	0	2405433344	32	5882
2026-01-07 06:23:23.96	258.77	25.61	-29.3	-30.1	24.5	0.00e+00	0	36	0	2412773376	32	5781
2026-01-07 06:23:24.97	259.07	25.65	-29.3	-30.1	24.6	0.00e+00	0	36	0	2420113408	32	5779
2026-01-07 06:23:25.98	259.37	25.68	-29.6	-30.4	24.7	0.00e+00	0	36	0	2427453440	32	5976
2026-01-07 06:23:26.99	259.66	25.72	-29.4	-30.1	24.7	0.00e+00	0	36	0	2434793472	32	5811
2026-01-07 06:23:28.00	259.96	25.75	-29.2	-30.0	24.8	0.00e+00	0	36	0	2442133504	32	5717
2026-01-07 06:23:29.01	260.26	25.78	-29.2	-30.0	24.8	0.00e+00	0	36	0	2449473536	32	5730
2026-01-07 06:23:30.02	260.56	25.81	-29.3	-30.1	24.7	0.00e+00	0	36	0	2456813568	32	5780
2026-01-07 06:23:31.03	260.86	25.84	-29.3	-30.1	24.5	0.00e+00	0	36	0	2464153600	32	5771
2026-01-07 06:23:32.04	261.16	25.87	-29.5	-30.2	24.3	0.00e+00	0	36	0	2470445056	32	5874
2026-01-07 06:23:33.05	261.46	25.90	-29.6	-30.3	24.1	0.00e+00	0	36	0	2478833664	32	5962
2026-01-07 06:23:34.06	261.76	25.93	-29.4	-30.2	24.0	0.00e+00	0	36	0	2486173696	32	5876
2026-01-07 06:23:35.07	262.06	25.95	-29.6	-30.4	23.9	0.00e+00	0	36	0	2492465152	32	5979
2026-01-07 06:23:36.08	262.36	25.98	-29.6	-30.4	24.0	0.00e+00	0	36	0	2499805184	32	5993
2026-01-07 06:23:37.09	262.66	26.01	-29.3	-30.1	24.1	0.00e+00	0	36	0	2507145216	32	5806
2026-01-07 06:23:38.10	262.96	26.03	-29.4	-30.2	24.0	0.00e+00	0	36	0	2514485248	32	5864
2026-01-07 06:23:39.11	263.27	26.05	-29.4	-30.1	24.0	0.00e+00	0	36	0	2521825280	32	5826
2026-01-07 06:23:40.12	263.57	26.08	-29.4	-30.2	24.1	0.00e+00	0	36	0	2529165312	32	5871
2026-01-07 06:23:41.13	263.87	26.10	-29.3	-30.1	24.1	0.00e+00	0	36	0	2536505344	32	5800
2026-01-07 06:23:42.14	264.18	26.12	-29.4	-30.2	24.2	0.00e+00	0	36	0	2543845376	32	5858
2026-01-07 06:23:43.15	264.48	26.14	-29.3	-30.1	24.2	0.00e+00	0	36	0	2551185408	32	5768
2026-01-07 06:23:44.16	264.79	26.16	-29.9	-30.7	24.2	0.00e+00	0	36	0	2558525440	32	6191
2026-01-07 06:23:45.17	265.09	26.18	-29.4	-30.2	24.4	0.00e+00	0	36	0	2565865472	32	5864
2026-01-07 06:23:46.18	265.40	26.20	-29.1	-29.9	24.6	0.00e+00	0	36	0	2573205504	32	5663
2026-01-07 06:23:47.19	265.71	26.22	-29.1	-29.9	24.6	0.00e+00	0	36	0	2580545536	32	5662
2026-01-07 06:23:48.20	266.01	26.23	-28.9	-29.7	24.7	0.00e+00	0	36	0	2587885568	32	5526
2026-01-07 06:23:49.21	266.32	26.25	-28.9	-29.6	24.7	0.00e+00	0	36	0	2595225600	32	5498
2026-01-07 06:23:50.22	266.63	26.26	-29.0	-29.7	24.6	0.00e+00	0	36	0	2602565632	32	5551
2026-01-07 06:23:51.23	266.93	26.28	-29.0	-29.8	24.6	0.00e+00	0	36	0	2609905664	32	5569
2026-01-07 06:23:52.24	267.24	26.29	-29.0	-29.8	24.5	0.00e+00	0	36	0	2617245696	32	5593
2026-01-07 06:23:53.25	267.55	26.30	-29.2	-29.9	24.5	0.00e+00	0	36	0	2624585728	32	5675
2026-01-07 06:23:54.26	267.86	26.31	-29.1	-29.9	24.6	0.00e+00	0	36	0	2631925760	32	5653
2026-01-07 06:23:55.27	268.17	26.32	-29.2	-29.9	24.6	0.00e+00	0	36	0	2639265792	32	5694
2026-01-07 06:23:56.27	268.47	26.33	-29.2	-30.0	24.6	0.00e+00	0	36	0	2645557248	32	5696
2026-01-07 06:23:57.28	268.78	26.34	-29.2	-30.0	24.5	0.00e+00	0	36	0	2652897280	32	5701
2026-01-07 06:23:58.29	269.09	26.35	-29.3	-30.0	24.5	0.00e+00	0	36	0	2661285888	32	5731
2026-01-07 06:23:59.30	269.40	26.36	-29.1	-29.9	24.4	0.00e+00	0	36	0	2667577344	32	5632
2026-01-07 06:24:00.31	269.71	26.36	-29.0	-29.8	24.4	0.00e+00	0	36	0	2674917376	32	5615
2026-01-07 06:24:01.32	270.01	26.37	-29.0	-29.8	24.4	0.00e+00	0	36	0	2682257408	32	5579
2026-01-07 06:24:02.33	270.32	26.37	-29.0	-29.8	24.4	0.00e+00	0	36	0	2689597440	32	5575
2026-01-07 06:24:03.34	270.63	26.38	-29.1	-29.9	24.3	0.00e+00	0	36	0	2696937472	32	5656
2026-01-07 06:24:04.35	270.94	26.38	-29.2	-30.0	24.3	0.00e+00	0	36	0	2704277504	32	5728
2026-01-07 06:24:05.36	271.25	26.38	-29.1	-29.9	24.2	0.00e+00	0	36	0	2711617536	32	5671
2026-01-07 06:24:06.37	271.56	26.38	-29.2	-29.9	24.3	0.00e+00	0	36	0	2718957568	32	5690
2026-01-07 06:24:07.38	271.87	26.38	-29.3	-30.0	24.2	0.00e+00	0	36	0	2726297600	32	5748
2026-01-07 06:24:08.39	272.18	26.38	-29.2	-30.0	24.2	0.00e+00	0	36	0	2733637632	32	5746
2026-01-07 06:24:09.40	272.49	26.38	-29.3	-30.0	24.2	0.00e+00	0	36	0	2740977664	32	5755
2026-01-07 06:24:10.41	272.80	26.37	-29.3	-30.0	24.1	0.00e+00	0	36	0	2748317696	32	5757
2026-01-07 06:24:11.42	273.11	26.37	-29.3	-30.1	24.3	0.00e+00	0	36	0	2755657728	32	5790
2026-01-07 06:24:12.43	273.42	26.37	-29.2	-30.0	24.3	0.00e+00	0	36	0	2762997760	32	5744
2026-01-07 06:24:13.44	273.73	26.36	-29.3	-30.1	24.3	0.00e+00	0	36	0	2769289216	32	5768
2026-01-07 06:24:14.45	274.03	26.36	-29.2	-30.0	24.4	0.00e+00	0	36	0	2777677824	32	5729
2026-01-07 06:24:15.46	274.34	26.35	-29.2	-30.0	24.4	0.00e+00	0	36	0	2785017856	32	5709
2026-01-07 06:24:16.47	274.65	26.34	-29.2	-30.0	24.4	0.00e+00	0	36	0	2791309312	32	5729
2026-01-07 06:24:17.48	274.96	26.33	-29.2	-29.9	24.6	0.00e+00	0	36	0	2798649344	32	5677
2026-01-07 06:24:18.49	275.27	26.32	-29.0	-29.7	24.6	0.00e+00	0	36	0	2805989376	32	5534
2026-01-07 06:24:19.50	275.58	26.31	-28.9	-29.7	24.7	0.00e+00	0	36	0	2813329408	32	5508
2026-01-07 06:24:20.51	275.88	26.30	-29.0	-29.7	24.8	0.00e+00	0	36	0	2820669440	32	5544
2026-01-07 06:24:21.52	276.19	26.29	-28.9	-29.6	24.7	0.00e+00	0	36	0	2828009472	32	5484
2026-01-07 06:24:22.53	276.50	26.27	-29.0	-29.7	24.7	0.00e+00	0	36	0	2835349504	32	5553
2026-01-07 06:24:23.54	276.81	26.26	-29.1	-29.9	24.5	0.00e+00	0	36	0	2842689536	32	5636
2026-01-07 06:24:24.55	277.11	26.25	-29.2	-30.0	24.4	0.00e+00	0	36	0	2850029568	32	5708
2026-01-07 06:24:25.56	277.42	26.23	-29.1	-29.9	24.4	0.00e+00	0	36	0	2857369600	32	5670
2026-01-07 06:24:26.57	277.73	26.21	-29.2	-30.0	24.4	0.00e+00	0	36	0	2864709632	32	5708
2026-01-07 06:24:27.58	278.03	26.20	-29.4	-30.2	24.4	0.00e+00	0	36	0	2872049664	32	5850
2026-01-07 06:24:28.59	278.34	26.18	-29.3	-30.0	24.4	0.00e+00	0	36	0	2879389696	32	5738
2026-01-07 06:24:29.60	278.64	26.16	-29.1	-29.9	24.4	0.00e+00	0	36	0	2886729728	32	5644
2026-01-07 06:24:30.61	278.95	26.14	-29.2	-30.0	24.3	0.00e+00	0	36	0	2894069760	32	5719
2026-01-07 06:24:31.62	279.25	26.12	-29.3	-30.0	24.2	0.00e+00	0	36	0	2901409792	32	5754
2026-01-07 06:24:32.63	279.56	26.10	-29.3	-30.1	24.1	0.00e+00	0	36	0	2908749824	32	5779
2026-01-07 06:24:33.64	279.86	26.08	-29.4	-30.2	24.1	0.00e+00	0	36	0	2916089856	32	5835
2026-01-07 06:24:34.65	280.16	26.05	-29.4	-30.2	23.9	0.00e+00	0	36	0	2923429888	32	5866
2026-01-07 06:24:35.66	280.46	26.03	-29.3	-30.1	24.1	0.00e+00	0	36	0	2930769920	32	5809
2026-01-07 06:24:36.67	280.77	26.00	-29.4	-30.2	24.0	0.00e+00	0	36	0	2938109952	32	5864
2026-01-07 06:24:37.68	281.07	25.98	-29.3	-30.1	24.2	0.00e+00	0	36	0	2944401408	32	5764
2026-01-07 06:24:38.69	281.37	25.95	-29.3	-30.1	24.2	0.00e+00	0	36	0	2952790016	32	5793
2026-01-07 06:24:39.70	281.67	25.92	-29.1	-29.8	24.3	0.00e+00	0	36	0	2960130048	32	5623
2026-01-07 06:24:40.72	281.97	25.90	-29.2	-30.0	24.3	0.00e+00	0	36	0	2966421504	32	5714
2026-01-07 06:24:41.73	282.27	25.87	-29.2	-30.0	24.3	0.00e+00	0	36	0	2973761536	32	5711
2026-01-07 06:24:42.74	282.57	25.84	-29.1	-29.9	24.3	0.00e+00	0	36	0	2981101568	32	5637
2026-01-07 06:24:43.75	282.87	25.81	-29.2	-30.0	24.3	0.00e+00	0	36	0	2988441600	32	5722
2026-01-07 06:24:44.76	283.17	25.78	-29.1	-29.9	24.3	0.00e+00	0	36	0	2995781632	32	5663
2026-01-07 06:24:45.77	283.47	25.74	-29.1	-29.9	24.3	0.00e+00	0	36	0	3003121664	32	5670
2026-01-07 06:24:46.77	283.76	25.71	-29.0	-29.8	24.5	0.00e+00	0	36	0	3010461696	32	5593
2026-01-07 06:24:47.78	284.06	25.68	-29.1	-29.8	24.3	0.00e+00	0	36	0	3017801728	32	5617
2026-01-07 06:24:48.79	284.35	25.65	-29.0	-29.8	24.5	0.00e+00	0	36	0	3025141760	32	5590
2026-01-07 06:24:49.80	284.65	25.61	-29.1	-29.9	24.4	0.00e+00	0	36	0	3032481792	32	5639
2026-01-07 06:24:50.81	284.94	25.57	-29.2	-29.9	24.2	0.00e+00	0	36	0	3039821824	32	5681
2026-01-07 06:24:51.82	285.24	25.54	-29.3	-30.1	24.1	0.00e+00	0	36	0	3047161856	32	5812
2026-01-07 06:24:52.83	285.53	25.50	-29.4	-30.2	24.2	0.00e+00	0	36	0	3054501888	32	5831
2026-01-07 06:24:53.84	285.82	25.46	-29.4	-30.2	24.2	0.00e+00	0	36	0	3061841920	32	5861
2026-01-07 06:24:54.85	286.11	25.43	-29.4	-30.1	24.2	0.00e+00	0	36	0	3069181952	32	5816
2026-01-07 06:24:55.86	286.40	25.39	-29.5	-30.2	24.2	0.00e+00	0	36	0	3076521984	32	5889
2026-01-07 06:24:56.87	286.69	25.35	-29.4	-30.2	24.3	0.00e+00	0	36	0	3083862016	32	5864
2026-01-07 06:24:57.88	286.98	25.31	-29.4	-30.2	24.3	0.00e+00	0	36	0	3090153472	32	5866
2026-01-07 06:24:58.89	287.27	25.26	-29.4	-30.2	24.3	0.00e+00	0	36	0	3097493504	32	5834
2026-01-07 06:24:59.90	287.56	25.22	-29.6	-30.3	24.3	0.00e+00	0	36	0	3105882112	32	5956
2026-01-07 06:25:00.91	287.85	25.18	-29.6	-30.3	24.1	0.00e+00	0	36	0	3112173568	32	5962
2026-01-07 06:25:01.91	288.13	25.14	-29.7	-30.5	24.1	0.00e+00	0	36	0	3119513600	32	6090
2026-01-07 06:25:02.92	288.42	25.09	-29.7	-30.5	24.1	0.00e+00	0	36	0	3126853632	32	6073
2026-01-07 06:25:03.93	288.70	25.05	-29.7	-30.5	24.1	0.00e+00	0	36	0	3134193664	32	6047
2026-01-07 06:25:04.94	288.98	25.00	-29.7	-30.5	24.1	0.00e+00	0	36	0	3141533696	32	6085
2026-01-07 06:25:05.95	289.27	24.96	-29.5	-30.3	24.2	0.00e+00	0	36	0	3148873728	32	5924
2026-01-07 06:25:06.96	289.55	24.91	-29.5	-30.3	24.4	0.00e+00	0	36	0	3156213760	32	5906
2026-01-07 06:25:07.97	289.83	24.86	-29.7	-30.3	27.8	0.00e+00	0	36	0	3163553792	32	5947
2026-01-07 06:25:08.98	290.11	24.82	-29.6	-30.2	27.9	0.00e+00	0	36	0	3170893824	32	5852
2026-01-07 06:25:09.99	290.39	24.77	-29.5	-30.1	28.0	0.00e+00	0	36	0	3178233856	32	5795
2026-01-07 06:25:11.00	290.67	24.72	-29.5	-30.1	28.0	0.00e+00	0	36	0	3185573888	32	5811
2026-01-07 06:25:12.01	290.95	24.67	-29.6	-30.2	27.9	0.00e+00	0	36	0	3192913920	32	5850
2026-01-07 06:25:13.02	291.23	24.62	-29.7	-30.2	27.8	0.00e+00	0	36	0	3200253952	32	5895
2026-01-07 06:25:14.03	291.50	24.57	-29.6	-30.2	27.7	0.00e+00	0	36	0	3207593984	32	5887
2026-01-07 06:25:15.04	291.78	24.52	-29.7	-30.3	27.8	0.00e+00	0	36	0	3214934016	32	5943
2026-01-07 06:25:16.05	292.05	24.46	-29.8	-30.4	27.7	0.00e+00	0	36	0	3222274048	32	5986
2026-01-07 06:25:17.06	292.33	24.41	-29.8	-30.4	27.8	0.00e+00	0	36	0	3229614080	32	6011
2026-01-07 06:25:18.07	292.60	24.36	-29.8	-30.4	27.8	0.00e+00	0	36	0	3236954112	32	6028
2026-01-07 06:25:19.08	292.87	24.30	-29.8	-30.4	27.3	0.00e+00	0	36	0	3243245568	32	6017
2026-01-07 06:25:20.09	293.14	24.25	-30.0	-30.6	27.6	0.00e+00	0	36	0	3250585600	32	6136
2026-01-07 06:25:21.10	293.41	24.19	-30.0	-30.6	27.5	0.00e+00	0	36	0	3258974208	32	6167
2026-01-07 06:25:22.11	293.68	24.14	-30.1	-30.7	27.5	0.00e+00	0	36	0	3265265664	32	6240
2026-01-07 06:25:23.12	293.95	24.08	-30.0	-30.6	27.5	0.00e+00	0	36	0	3272605696	32	6109
2026-01-07 06:25:24.13	294.22	24.03	-30.0	-30.5	27.4	0.00e+00	0	36	0	3279945728	32	6094
2026-01-07 06:25:25.14	294.48	23.97	-29.9	-30.5	27.7	0.00e+00	0	36	0	3287285760	32	6047
2026-01-07 06:25:26.15	294.75	23.91	-29.8	-30.4	27.8	0.00e+00	0	36	0	3294625792	32	6020
2026-01-07 06:25:27.15	295.01	23.86	-29.6	-30.2	27.8	0.00e+00	0	36	0	3301965824	32	5865
2026-01-07 06:25:28.16	295.28	23.80	-29.6	-30.2	27.9	0.00e+00	0	36	0	3309305856	32	5864
2026-01-07 06:25:29.17	295.54	23.74	-29.6	-30.2	27.8	0.00e+00	0	36	0	3316645888	32	5868
2026-01-07 06:25:30.18	295.80	23.68	-29.7	-30.2	27.8	0.00e+00	0	36	0	3323985920	32	5894
2026-01-07 06:25:31.19	296.06	23.62	-29.8	-30.3	27.8	0.00e+00	0	36	0	3331325952	32	5962
2026-01-07 06:25:32.20	296.32	23.56	-29.8	-30.4	27.7	0.00e+00	0	36	0	3338665984	32	6011
2026-01-07 06:25:33.21	296.58	23.50	-30.0	-30.6	27.5	0.00e+00	0	36	0	3346006016	32	6129
2026-01-07 06:25:34.22	296.84	23.44	-30.0	-30.6	27.6	0.00e+00	0	36	0	3353346048	32	6156
2026-01-07 06:25:35.23	297.09	23.38	-29.9	-30.5	27.7	0.00e+00	0	36	0	3360686080	32	6044
2026-01-07 06:25:36.24	297.35	23.31	-30.1	-30.7	27.5	0.00e+00	0	36	0	3368026112	32	6208
2026-01-07 06:25:37.25	297.60	23.25	-30.1	-30.7	27.4	0.00e+00	0	36	0	3375366144	32	6239
2026-01-07 06:25:38.26	297.86	23.19	-30.3	-30.9	27.3	0.00e+00	0	36	0	3382706176	32	6353
2026-01-07 06:25:39.27	298.11	23.13	-30.5	-31.1	27.4	0.00e+00	0	36	0	3390046208	32	6517
2026-01-07 06:25:40.28	298.36	23.06	-30.2	-30.8	27.2	0.00e+00	0	36	0	3396337664	32	6299
2026-01-07 06:25:41.29	298.61	23.00	-30.4	-31.0	27.3	0.00e+00	0	36	0	3404726272	32	6415
2026-01-07 06:25:42.30	298.86	22.93	-30.5	-31.1	27.3	0.00e+00	0	36	0	3411017728	32	6484
2026-01-07 06:25:43.31	299.11	22.87	-30.5	-31.1	27.3	0.00e+00	0	36	0	3418357760	32	6501
2026-01-07 06:25:44.32	299.36	22.80	-30.4	-31.0	27.3	0.00e+00	0	36	0	3425697792	32	6417
2026-01-07 06:25:45.33	299.60	22.74	-30.5	-31.1	27.1	0.00e+00	0	36	0	3433037824	32	6520
2026-01-07 06:25:46.34	299.85	22.67	-30.2	-30.8	27.4	0.00e+00	0	36	0	3440377856	32	6291
2026-01-07 06:25:47.35	300.09	22.60	-30.2	-30.8	27.5	0.00e+00	0	36	0	3447717888	32	6303
2026-01-07 06:25:48.37	300.34	22.54	-30.1	-30.7	27.6	0.00e+00	0	36	0	3455057920	32	6229
2026-01-07 06:25:49.38	300.58	22.47	-30.0	-30.6	27.6	0.00e+00	0	36	0	3462397952	32	6139
2026-01-07 06:25:50.39	300.82	22.40	-30.0	-30.6	27.5	0.00e+00	0	36	0	3469737984	32	6116
2026-01-07 06:25:51.39	301.06	22.34	-30.1	-30.7	27.4	0.00e+00	0	36	0	3477078016	32	6233
2026-01-07 06:25:52.40	301.30	22.27	-30.1	-30.7	27.5	0.00e+00	0	36	0	3484418048	32	6227
2026-01-07 06:25:53.41	301.54	22.20	-30.3	-30.9	27.3	0.00e+00	0	36	0	3491758080	32	6337
2026-01-07 06:25:54.42	301.78	22.13	-30.3	-30.9	27.4	0.00e+00	0	36	0	3499098112	32	6320
2026-01-07 06:25:55.44	302.02	22.06	-30.4	-31.0	27.2	0.00e+00	0	36	0	3506438144	32	6438
2026-01-07 06:25:56.45	302.25	21.99	-30.3	-30.9	27.4	0.00e+00	0	36	0	3513778176	32	6358
2026-01-07 06:25:57.45	302.48	21.92	-30.4	-31.0	27.3	0.00e+00	0	36	0	3521118208	32	6401
2026-01-07 06:25:58.46	302.72	21.85	-30.4	-31.0	27.3	0.00e+00	0	36	0	3528458240	32	6410
2026-01-07 06:25:59.48	302.95	21.78	-30.5	-31.1	27.2	0.00e+00	0	36	0	3535798272	32	6523
2026-01-07 06:26:00.49	303.18	21.71	-30.4	-31.0	27.0	0.00e+00	0	36	0	3542089728	32	6429
2026-01-07 06:26:01.50	303.41	21.64	-30.5	-31.1	27.2	0.00e+00	0	36	0	3550478336	32	6498
2026-01-07 06:26:02.50	303.64	21.57	-30.6	-31.3	27.1	0.00e+00	0	36	0	3557818368	32	6620
2026-01-07 06:26:03.51	303.87	21.50	-30.5	-31.1	27.2	0.00e+00	0	36	0	3564109824	32	6525
2026-01-07 06:26:04.52	304.09	21.43	-30.7	-31.3	27.0	0.00e+00	0	36	0	3571449856	32	6638
2026-01-07 06:26:05.54	304.32	21.36	-30.7	-31.3	27.0	0.00e+00	0	36	0	3578789888	34	5947
2026-01-07 06:26:06.55	304.55	21.29	-30.7	-31.3	26.9	0.00e+00	0	36	0	3586129920	34	5929
2026-01-07 06:26:07.56	304.77	21.21	-31.0	-31.6	27.0	0.00e+00	0	36	0	3593469952	34	6168
2026-01-07 06:26:08.57	304.99	21.14	-30.9	-31.5	26.8	0.00e+00	0	36	0	3600809984	34	6047
2026-01-07 06:26:09.58	305.22	21.07	-31.1	-31.7	26.9	0.00e+00	0	36	0	3608150016	34	6222
2026-01-07 06:26:10.59	305.44	21.00	-30.8	-31.4	26.7	0.00e+00	0	36	0	3615490048	34	5997
2026-01-07 06:26:11.60	305.66	20.92	-30.7	-31.3	26.8	0.00e+00	0	36	0	3622830080	34	5953
2026-01-07 06:26:12.61	305.87	20.85	-31.1	-31.7	26.7	0.00e+00	0	36	0	3630170112	34	6193
2026-01-07 06:26:13.62	306.09	20.78	-31.1	-31.7	26.9	0.00e+00	0	36	0	3637510144	34	6210
2026-01-07 06:26:14.63	306.31	20.70	-30.7	-31.3	26.9	0.00e+00	0	36	0	3644850176	34	5932
2026-01-07 06:26:15.64	306.53	20.63	-30.6	-31.2	27.1	0.00e+00	0	36	0	3652190208	34	5877
2026-01-07 06:26:16.65	306.74	20.55	-30.8	-31.4	26.8	0.00e+00	0	36	0	3659530240	34	5977
2026-01-07 06:26:17.66	306.95	20.48	-30.7	-31.3	27.1	0.00e+00	0	36	0	3666870272	34	5902
2026-01-07 06:26:18.67	307.17	20.41	-30.9	-31.5	26.7	0.00e+00	0	36	0	3674210304	34	6095
2026-01-07 06:26:19.68	307.38	20.33	-31.0	-31.6	26.9	0.00e+00	0	36	0	3681550336	34	6149
2026-01-07 06:26:20.69	307.59	20.26	-31.2	-31.8	26.6	0.00e+00	0	36	0	3688890368	34	6260
2026-01-07 06:26:21.70	307.80	20.18	-31.4	-32.0	26.6	0.00e+00	0	36	0	3696230400	34	6461
2026-01-07 06:26:22.71	308.01	20.11	-31.4	-32.0	26.2	0.00e+00	0	36	0	3703570432	34	6453
2026-01-07 06:26:23.72	308.22	20.03	-31.3	-31.9	26.6	0.00e+00	0	36	0	3710910464	34	6338
2026-01-07 06:26:24.73	308.42	19.96	-30.9	-31.5	26.8	0.00e+00	0	36	0	3717201920	34	6101
2026-01-07 06:26:25.73	308.63	19.88	-31.1	-31.7	26.7	0.00e+00	0	36	0	3724541952	34	6216
2026-01-07 06:26:26.74	308.83	19.81	-31.1	-31.7	26.7	0.00e+00	0	36	0	3731881984	34	6208
2026-01-07 06:26:27.75	309.03	19.73	-30.9	-31.5	26.7	0.00e+00	0	36	0	3739222016	34	6056
2026-01-07 06:26:28.76	309.24	19.66	-31.0	-31.6	26.7	0.00e+00	0	36	0	3746562048	34	6124
2026-01-07 06:26:29.77	309.44	19.58	-31.0	-31.6	26.7	0.00e+00	0	36	0	3753902080	34	6171
2026-01-07 06:26:30.78	309.64	19.50	-30.9	-31.5	26.7	0.00e+00	0	36	0	3761242112	34	6093
2026-01-07 06:26:31.79	309.84	19.43	-30.9	-31.5	26.8	0.00e+00	0	36	0	3768582144	34	6084
2026-01-07 06:26:32.80	310.04	19.35	-30.8	-31.5	26.9	0.00e+00	0	36	0	3775922176	34	6042
2026-01-07 06:26:33.81	310.24	19.28	-30.8	-31.4	26.9	0.00e+00	0	36	0	3783262208	34	6014
2026-01-07 06:26:34.82	310.43	19.20	-30.8	-31.4	26.7	0.00e+00	0	36	0	3790602240	34	6004
2026-01-07 06:26:35.83	310.63	19.12	-30.8	-31.4	27.0	0.00e+00	0	36	0	3797942272	34	5986
2026-01-07 06:26:36.84	310.83	19.05	-30.8	-31.4	26.8	0.00e+00	0	36	0	3805282304	34	6003
2026-01-07 06:26:37.85	311.02	18.97	-30.8	-31.5	26.9	0.00e+00	0	36	0	3812622336	34	6041
2026-01-07 06:26:38.86	311.21	18.89	-30.8	-31.4	26.8	0.00e+00	0	36	0	3819962368	34	6017
2026-01-07 06:26:39.86	311.40	18.82	-30.8	-31.4	26.8	0.00e+00	0	36	0	3827302400	34	6011
2026-01-07 06:26:40.87	311.59	18.74	-30.9	-31.5	26.7	0.00e+00	0	36	0	3834642432	34	6094
2026-01-07 06:26:41.89	311.79	18.66	-31.0	-31.6	26.7	0.00e+00	0	36	0	3840933888	34	6154
2026-01-07 06:26:42.89	311.97	18.59	-31.2	-31.8	26.6	0.00e+00	0	36	0	3848273920	34	6275
2026-01-07 06:26:43.90	312.16	18.51	-31.3	-31.9	26.5	0.00e+00	0	36	0	3856662528	34	6368
2026-01-07 06:26:44.91	312.35	18.43	-31.4	-32.0	26.4	0.00e+00	0	36	0	3862953984	34	6424
2026-01-07 06:26:45.92	312.54	18.36	-31.5	-32.1	26.4	0.00e+00	0	36	0	3870294016	34	6511
2026-01-07 06:26:46.93	312.72	18.28	-31.5	-32.1	26.3	0.00e+00	0	36	0	3877634048	34	6511
2026-01-07 06:26:47.94	312.91	18.20	-31.4	-32.1	26.4	0.00e+00	0	36	0	3884974080	34	6473
2026-01-07 06:26:48.95	313.09	18.13	-31.4	-32.0	26.4	0.00e+00	0	36	0	3892314112	34	6445
2026-01-07 06:26:49.96	313.28	18.05	-31.3	-31.9	26.4	0.00e+00	0	36	0	3899654144	34	6361
2026-01-07 06:26:50.97	313.46	17.97	-31.2	-31.8	26.5	0.00e+00	0	36	0	3906994176	34	6288
2026-01-07 06:26:51.98	313.64	17.89	-31.0	-31.6	26.7	0.00e+00	0	36	0	3914334208	34	6167
2026-01-07 06:26:52.99	313.82	17.82	-30.9	-31.5	26.6	0.00e+00	0	36	0	3921674240	34	6090
2026-01-07 06:26:54.00	314.00	17.74	-31.0	-31.6	26.7	0.00e+00	0	36	0	3929014272	34	6123
2026-01-07 06:26:55.01	314.18	17.66	-30.9	-31.5	26.8	0.00e+00	0	36	0	3936354304	34	6042
2026-01-07 06:26:56.02	314.35	17.58	-30.9	-31.5	26.9	0.00e+00	0	36	0	3943694336	34	6038
2026-01-07 06:26:57.03	314.53	17.51	-30.9	-31.5	26.8	0.00e+00	0	36	0	3951034368	34	6067
2026-01-07 06:26:58.04	314.71	17.43	-31.0	-31.6	26.7	0.00e+00	0	36	0	3958374400	34	6161
2026-01-07 06:26:59.05	314.88	17.35	-30.9	-31.5	26.8	0.00e+00	0	36	0	3965714432	34	6100
2026-01-07 06:27:00.06	315.06	17.27	-31.1	-31.7	26.6	0.00e+00	0	36	0	3973054464	34	6218
2026-01-07 06:27:01.07	315.23	17.20	-31.3	-31.9	26.4	0.00e+00	0	36	0	3980394496	34	6339
2026-01-07 06:27:02.08	315.40	17.12	-31.5	-32.1	26.3	0.00e+00	0	36	0	3987734528	34	6498
2026-01-07 06:27:03.09	315.57	17.04	-31.7	-32.3	26.2	0.00e+00	0	36	0	3994025984	34	6650
2026-01-07 06:27:04.10	315.74	16.96	-31.9	-32.5	26.0	0.00e+00	0	36	0	4002414592	36	6054
2026-01-07 06:27:05.11	315.91	16.89	-31.9	-32.6	25.7	0.00e+00	0	36	0	4009754624	36	6111
2026-01-07 06:27:06.12	316.08	16.81	-32.0	-32.7	25.8	0.00e+00	0	36	0	4016046080	36	6191
2026-01-07 06:27:07.13	316.25	16.73	-32.1	-32.7	25.8	0.00e+00	0	36	0	4023386112	36	6198
2026-01-07 06:27:08.14	316.42	16.66	-32.1	-32.7	25.8	0.00e+00	0	36	0	4030726144	36	6236
2026-01-07 06:27:09.15	316.59	16.58	-32.0	-32.6	25.9	0.00e+00	0	36	0	4038066176	36	6137
2026-01-07 06:27:10.16	316.75	16.50	-31.8	-32.4	26.1	0.00e+00	0	36	0	4045406208	36	6025
2026-01-07 06:27:11.17	316.92	16.42	-31.8	-32.4	26.1	0.00e+00	0	36	0	4052746240	36	5998
2026-01-07 06:27:12.18	317.08	16.35	-31.6	-32.2	26.2	0.00e+00	0	36	0	4060086272	36	5865
2026-01-07 06:27:13.19	317.24	16.27	-31.7	-32.3	26.2	0.00e+00	0	36	0	4067426304	36	5943
2026-01-07 06:27:14.20	317.41	16.19	-31.6	-32.2	26.2	0.00e+00	0	36	0	4074766336	36	5892
2026-01-07 06:27:15.21	317.57	16.11	-31.4	-32.0	26.3	0.00e+00	0	36	0	4082106368	36	5729
2026-01-07 06:27:16.21	317.73	16.04	-31.4	-32.0	26.4	0.00e+00	0	36	0	4089446400	36	5747
2026-01-07 06:27:17.22	317.89	15.96	-31.3	-31.9	26.5	0.00e+00	0	36	0	4096786432	36	5673
2026-01-07 06:27:18.23	318.05	15.88	-31.2	-31.8	26.4	0.00e+00	0	36	0	4104126464	36	5623
2026-01-07 06:27:19.24	318.20	15.81	-31.4	-32.0	26.3	0.00e+00	0	36	0	4111466496	36	5710
2026-01-07 06:27:20.25	318.36	15.73	-31.4	-32.0	26.3	0.00e+00	0	36	0	4118806528	36	5751
2026-01-07 06:27:21.26	318.52	15.65	-31.3	-32.0	26.4	0.00e+00	0	36	0	4126146560	36	5713
2026-01-07 06:27:22.27	318.67	15.58	-31.5	-32.1	26.1	0.00e+00	0	36	0	4133486592	36	5787
2026-01-07 06:27:23.28	318.83	15.50	-31.8	-32.4	26.1	0.00e+00	0	36	0	4139778048	36	6004
2026-01-07 06:27:24.28	318.98	15.42	-31.9	-32.5	25.9	0.00e+00	0	36	0	4147118080	36	6077
2026-01-07 06:27:25.30	319.14	15.35	-32.0	-32.7	25.7	0.00e+00	0	36	0	4155506688	36	6180
2026-01-07 06:27:26.30	319.29	15.27	-32.4	-33.1	25.6	0.00e+00	0	36	0	4161798144	36	6470
2026-01-07 06:27:27.31	319.44	15.19	-32.3	-32.9	25.5	0.00e+00	0	36	0	4169138176	36	6389
2026-01-07 06:27:28.32	319.59	15.12	-32.4	-33.1	25.3	0.00e+00	0	36	0	4176478208	36	6498
2026-01-07 06:27:29.33	319.74	15.04	-32.5	-33.2	25.3	0.00e+00	0	36	0	4183818240	36	6561
2026-01-07 06:27:30.34	319.89	14.96	-32.6	-33.2	25.3	0.00e+00	0	36	0	4191158272	38	5854
2026-01-07 06:27:31.35	320.04	14.89	-32.7	-33.3	25.1	0.00e+00	0	36	0	4198498304	38	5942
2026-01-07 06:27:32.36	320.19	14.81	-32.7	-33.3	25.3	0.00e+00	0	36	0	4205838336	38	5927
2026-01-07 06:27:33.37	320.34	14.73	-32.6	-33.2	25.2	0.00e+00	0	36	0	4213178368	38	5873
2026-01-07 06:27:34.38	320.49	14.66	-32.5	-33.2	25.4	0.00e+00	0	36	0	4220518400	38	5833
2026-01-07 06:27:35.39	320.63	14.58	-32.3	-33.0	25.5	0.00e+00	0	36	0	4227858432	38	5710
2026-01-07 06:27:36.40	320.78	14.51	-32.3	-33.0	25.4	0.00e+00	0	36	0	4235198464	38	5702
2026-01-07 06:27:37.41	320.92	14.43	-32.3	-32.9	25.7	0.00e+00	0	36	0	4242538496	38	5652
2026-01-07 06:27:38.42	321.07	14.35	-32.1	-32.7	25.5	0.00e+00	0	36	0	4249878528	38	5536
2026-01-07 06:27:39.43	321.21	14.28	-32.1	-32.7	25.7	0.00e+00	0	36	0	4257218560	38	5533
2026-01-07 06:27:40.44	321.35	14.20	-32.0	-32.6	25.8	0.00e+00	0	36	0	4264558592	38	5472
2026-01-07 06:27:41.45	321.49	14.13	-32.0	-32.6	25.6	0.00e+00	0	36	0	4271898624	38	5484
2026-01-07 06:27:42.45	321.63	14.05	-31.8	-32.5	25.8	0.00e+00	0	36	0	4279238656	38	5385
2026-01-07 06:27:43.46	321.78	13.98	-31.8	-32.5	25.8	0.00e+00	0	36	0	4286578688	38	5395
2026-01-07 06:27:44.47	321.92	13.90	-31.8	-32.5	25.7	0.00e+00	0	36	0	4292870144	38	5384
2026-01-07 06:27:45.48	322.05	13.83	-32.0	-32.6	25.6	0.00e+00	0	36	0	4300210176	38	5458
2026-01-07 06:27:46.49	322.19	13.75	-32.0	-32.6	25.6	0.00e+00	0	36	0	4308598784	38	5483
2026-01-07 06:27:47.50	322.33	13.68	-32.2	-32.9	25.4	0.00e+00	0	36	0	4314890240	38	5655
2026-01-07 06:27:48.51	322.47	13.60	-32.2	-32.9	25.5	0.00e+00	0	36	0	4322230272	38	5641
2026-01-07 06:27:49.52	322.61	13.53	-32.3	-32.9	25.2	0.00e+00	0	36	0	4329570304	38	5684
2026-01-07 06:27:50.53	322.74	13.45	-32.3	-33.0	25.3	0.00e+00	0	36	0	4336910336	38	5726
2026-01-07 06:27:51.54	322.88	13.38	-32.4	-33.0	25.2	0.00e+00	0	36	0	4344250368	38	5740
2026-01-07 06:27:52.55	323.01	13.30	-32.4	-33.1	25.2	0.00e+00	0	36	0	4351590400	38	5780
2026-01-07 06:27:53.56	323.14	13.23	-32.5	-33.2	25.2	0.00e+00	0	36	0	4358930432	38	5830
2026-01-07 06:27:54.57	323.28	13.15	-32.6	-33.2	25.0	0.00e+00	0	36	0	4366270464	38	5878
2026-01-07 06:27:55.58	323.41	13.08	-32.7	-33.4	25.0	0.00e+00	0	36	0	4373610496	38	5989
2026-01-07 06:27:56.59	323.54	13.00	-32.6	-33.2	25.0	0.00e+00	0	36	0	4380950528	38	5893
2026-01-07 06:27:57.60	323.67	12.93	-32.6	-33.3	24.9	0.00e+00	0	36	0	4388290560	38	5905
2026-01-07 06:27:58.61	323.80	12.85	-32.6	-33.3	25.1	0.00e+00	0	36	0	4395630592	38	5919
2026-01-07 06:27:59.61	323.93	12.78	-32.7	-33.3	24.5	0.00e+00	0	36	0	4402970624	38	5964
2026-01-07 06:28:00.62	324.06	12.71	-32.6	-33.2	24.8	0.00e+00	0	36	0	4410310656	38	5895
2026-01-07 06:28:01.63	324.19	12.63	-32.6	-33.3	25.1	0.00e+00	0	36	0	4416602112	38	5897
2026-01-07 06:28:02.64	324.32	12.56	-32.6	-33.2	25.2	0.00e+00	0	36	0	4423942144	38	5896
2026-01-07 06:28:03.65	324.45	12.49	-32.6	-33.2	25.1	0.00e+00	0	36	0	4432330752	38	5875
2026-01-07 06:28:04.66	324.57	12.41	-32.6	-33.3	25.1	0.00e+00	0	36	0	4438622208	38	5907
2026-01-07 06:28:05.67	324.70	12.34	-32.7	-33.3	25.1	0.00e+00	0	36	0	4445962240	38	5953
2026-01-07 06:28:06.68	324.83	12.27	-32.8	-33.4	24.9	0.00e+00	0	36	0	4453302272	38	6006
2026-01-07 06:28:07.69	324.95	12.19	-32.7	-33.3	24.7	0.00e+00	0	36	0	4460642304	38	5956
2026-01-07 06:28:08.70	325.08	12.12	-32.6	-33.2	25.0	0.00e+00	0	36	0	4467982336	38	5873
2026-01-07 06:28:09.71	325.20	12.05	-32.6	-33.2	25.1	0.00e+00	0	36	0	4475322368	38	5891
2026-01-07 06:28:10.72	325.32	11.97	-32.6	-33.2	25.1	0.00e+00	0	36	0	4482662400	38	5878
2026-01-07 06:28:11.73	325.45	11.90	-32.7	-33.3	25.2	0.00e+00	0	36	0	4490002432	38	5928
2026-01-07 06:28:12.73	325.57	11.83	-32.6	-33.3	25.1	0.00e+00	0	36	0	4497342464	38	5917
2026-01-07 06:28:13.74	325.69	11.75	-32.7	-33.3	25.0	0.00e+00	0	36	0	4504682496	38	5925
2026-01-07 06:28:14.75	325.81	11.68	-32.7	-33.3	25.1	0.00e+00	0	36	0	4512022528	38	5930
2026-01-07 06:28:15.76	325.93	11.61	-32.6	-33.3	25.1	0.00e+00	0	36	0	4519362560	38	5919
2026-01-07 06:28:16.77	326.05	11.54	-32.6	-33.3	25.1	0.00e+00	0	36	0	4526702592	38	5902
2026-01-07 06:28:17.78	326.17	11.47	-32.7	-33.4	25.0	0.00e+00	0	36	0	4534042624	38	5993
2026-01-07 06:28:18.79	326.29	11.39	-32.7	-33.3	24.9	2.20e-06	0	36	0	4541382656	38	5958
2026-01-07 06:28:19.80	326.41	11.32	-32.7	-33.3	25.0	0.00e+00	0	36	0	4548722688	38	5937
2026-01-07 06:28:20.81	326.53	11.25	-32.7	-33.3	25.0	0.00e+00	0	36	0	4556062720	38	5951
2026-01-07 06:28:21.82	326.64	11.18	-32.7	-33.4	25.0	0.00e+00	0	36	0	4563402752	38	5979
2026-01-07 06:28:22.83	326.76	11.11	-32.9	-33.5	24.9	0.00e+00	0	36	0	4569694208	38	6088
2026-01-07 06:28:23.84	326.88	11.03	-32.8	-33.4	24.9	0.00e+00	0	36	0	4577034240	38	6007
2026-01-07 06:28:24.85	326.99	10.96	-32.9	-33.5	24.9	0.00e+00	0	36	0	4585422848	38	6087
2026-01-07 06:28:25.86	327.11	10.89	-32.9	-33.6	24.7	0.00e+00	0	36	0	4591714304	38	6115
