passes_logs/2026/01/07/R4.6S_Anadyr/R4.6S_Anadyr__20260107_132430_NOAA_21_JPSS-2_rec.log

#Pass ID: 20260107_132430_NOAA 21 (JPSS-2)
#Satellite: NOAA 21 (JPSS-2)
#Configuration: NOAA-21
#almurnet v.1.7.20251203
#Start time: 2026-01-07 13:24:34

#Version: 2.2.20231116
#Station: R4.6S_Anadyr
#Location: 177.4865 lon 64.73178 lat
#TLE: 1 54234U 22150A   26005.42670836  .00000142  00000+0  88292-4 0  9996
#TLE: 2 54234  98.7490 306.4427 0001045 340.6622  19.4514 14.19532269163451

#Time	Az	El	Level	Level2	SNR	BER	BlckErr	Temp	State	Recorded	gain1	gain2
2026-01-07 13:24:34.16	18.91	0.20	-49.2	-60.6	3.3	1.54e+00	0	36	0	0	60	37482
2026-01-07 13:24:35.17	18.95	0.26	-49.2	-62.1	3.5	1.52e+00	0	36	104	0	60	44680
2026-01-07 13:24:36.18	19.00	0.31	-49.3	-62.1	3.5	1.52e+00	0	36	104	0	60	44782
2026-01-07 13:24:37.19	19.04	0.37	-49.3	-62.2	3.5	1.52e+00	0	36	104	0	60	45310
2026-01-07 13:24:38.20	19.09	0.43	-49.3	-62.2	3.5	1.52e+00	0	36	104	0	60	44995
2026-01-07 13:24:39.21	19.13	0.49	-49.3	-62.1	3.5	1.52e+00	0	36	104	0	60	44857
2026-01-07 13:24:40.22	19.18	0.54	-49.2	-62.1	3.5	1.52e+00	0	37	104	0	60	44549
2026-01-07 13:24:41.23	19.22	0.60	-49.1	-62.0	3.5	1.52e+00	0	36	104	0	60	44206
2026-01-07 13:24:42.24	19.27	0.66	-49.0	-61.9	3.5	1.52e+00	0	37	104	0	60	43590
2026-01-07 13:24:43.25	19.31	0.72	-48.9	-61.8	3.5	1.52e+00	0	36	104	0	60	43275
2026-01-07 13:24:44.26	19.36	0.77	-48.7	-61.6	3.4	1.52e+00	0	36	104	0	60	42392
2026-01-07 13:24:45.27	19.40	0.83	-48.6	-61.5	3.5	1.52e+00	0	37	104	0	60	41484
2026-01-07 13:24:46.27	19.45	0.89	-48.4	-61.2	3.5	1.52e+00	0	37	104	0	60	40415
2026-01-07 13:24:47.28	19.49	0.95	-48.0	-60.8	3.5	1.52e+00	0	37	104	0	60	38687
2026-01-07 13:24:48.29	19.54	1.01	-47.8	-60.6	3.5	1.52e+00	0	37	104	0	60	37625
2026-01-07 13:24:49.30	19.59	1.06	-47.7	-60.6	3.5	1.52e+00	0	37	104	0	60	37515
2026-01-07 13:24:50.31	19.63	1.12	-47.7	-60.6	3.5	1.51e+00	0	37	104	0	60	37451
2026-01-07 13:24:51.32	19.68	1.18	-47.7	-60.6	3.5	1.51e+00	0	37	104	0	60	37580
2026-01-07 13:24:52.33	19.73	1.24	-47.7	-60.5	3.5	1.52e+00	0	37	104	0	60	37293
2026-01-07 13:24:53.34	19.77	1.30	-47.7	-60.5	3.5	1.52e+00	0	37	104	0	60	37173
2026-01-07 13:24:54.35	19.82	1.36	-47.7	-60.5	3.5	1.52e+00	0	37	104	0	60	37250
2026-01-07 13:24:55.36	19.87	1.42	-47.7	-60.5	3.5	1.52e+00	0	37	104	0	60	37013
2026-01-07 13:24:56.37	19.91	1.48	-47.7	-60.4	3.5	1.52e+00	0	37	104	0	60	36788
2026-01-07 13:24:57.38	19.96	1.53	-47.7	-60.4	3.5	1.52e+00	0	37	104	0	60	36635
2026-01-07 13:24:58.39	20.01	1.59	-47.7	-60.4	3.5	1.52e+00	0	37	104	0	60	36865
2026-01-07 13:24:59.40	20.06	1.65	-47.7	-60.4	3.5	1.52e+00	0	37	104	0	60	36850
2026-01-07 13:25:00.41	20.11	1.71	-47.7	-60.5	3.5	1.51e+00	0	37	104	0	60	37024
2026-01-07 13:25:01.42	20.15	1.77	-47.7	-60.5	3.5	1.52e+00	0	37	104	0	60	37340
2026-01-07 13:25:02.43	20.20	1.83	-47.7	-60.6	3.5	1.52e+00	0	37	104	0	60	37398
2026-01-07 13:25:03.43	20.25	1.89	-47.7	-60.5	3.5	1.52e+00	0	37	104	0	60	37288
2026-01-07 13:25:04.44	20.30	1.95	-47.7	-60.5	3.5	1.52e+00	0	37	104	0	60	37315
2026-01-07 13:25:05.45	20.35	2.01	-47.7	-60.6	3.5	1.52e+00	0	37	104	0	60	37568
2026-01-07 13:25:06.46	20.40	2.07	-47.7	-60.5	3.5	1.51e+00	0	37	104	0	60	37120
2026-01-07 13:25:07.47	20.45	2.13	-47.7	-60.2	3.5	1.52e+00	0	37	104	0	60	36010
2026-01-07 13:25:08.48	20.50	2.19	-47.7	-59.8	3.5	1.51e+00	0	37	104	0	60	34331
2026-01-07 13:25:09.49	20.54	2.25	-47.6	-59.3	3.5	1.51e+00	0	37	104	0	60	32399
2026-01-07 13:25:10.50	20.59	2.31	-47.6	-59.4	3.5	1.51e+00	0	37	104	0	60	32748
2026-01-07 13:25:11.51	20.64	2.37	-47.7	-59.7	3.5	1.51e+00	0	37	104	0	60	34022
2026-01-07 13:25:12.52	20.69	2.44	-47.7	-60.5	3.5	1.52e+00	0	37	104	0	60	37169
2026-01-07 13:25:13.53	20.75	2.50	-47.6	-59.3	3.5	1.52e+00	0	37	104	0	60	32524
2026-01-07 13:25:14.54	20.80	2.56	-47.2	-55.6	3.8	1.50e+00	0	37	104	0	60	21260
2026-01-07 13:25:15.55	20.85	2.62	-46.2	-51.1	8.2	9.68e-02	123	37	0	0	60	12600
2026-01-07 13:25:16.56	20.90	2.68	-44.5	-47.6	12.1	3.95e-03	122	37	0	3145728	60	8385
2026-01-07 13:25:17.57	20.95	2.74	-42.8	-45.0	14.9	3.00e-06	123	37	0	6291456	60	6214
2026-01-07 13:25:18.58	21.00	2.80	-41.6	-43.4	16.5	0.00e+00	122	37	0	9437184	56	6531
2026-01-07 13:25:19.59	21.05	2.87	-40.3	-41.8	18.0	0.00e+00	122	37	0	12582912	54	6118
2026-01-07 13:25:20.60	21.10	2.93	-39.4	-40.7	19.0	0.00e+00	123	37	0	15728640	52	6063
2026-01-07 13:25:21.61	21.15	2.99	-39.1	-40.4	19.3	0.00e+00	120	37	0	18874368	52	5821
2026-01-07 13:25:22.62	21.21	3.05	-38.7	-40.0	19.6	0.00e+00	122	37	0	22020096	50	6234
2026-01-07 13:25:23.63	21.26	3.11	-39.0	-40.3	19.2	0.00e+00	123	37	0	25165824	50	6432
2026-01-07 13:25:24.64	21.31	3.18	-39.7	-41.1	18.5	0.00e+00	123	37	0	28311552	50	7084
2026-01-07 13:25:25.65	21.36	3.24	-40.6	-42.1	17.5	0.00e+00	123	37	0	31457280	52	7100
2026-01-07 13:25:26.66	21.42	3.30	-41.8	-43.7	15.9	0.00e+00	123	37	0	34603008	54	7559
2026-01-07 13:25:27.66	21.47	3.36	-43.5	-46.0	13.6	3.80e-06	122	37	0	37748736	58	7840
2026-01-07 13:25:28.67	21.52	3.43	-45.4	-49.3	10.2	2.16e-03	123	37	0	41943040	60	10191
2026-01-07 13:25:29.68	21.58	3.49	-42.6	-44.7	15.4	6.63e-05	123	37	0	45088768	60	5996
2026-01-07 13:25:30.69	21.63	3.55	-47.4	-58.1	3.5	5.50e-01	57	37	104	47185920	60	28269
2026-01-07 13:25:31.70	21.68	3.62	-46.4	-52.3	4.3	1.49e+00	0	37	104	47185920	60	14511
2026-01-07 13:25:32.71	21.74	3.68	-42.0	-43.9	17.5	2.94e-02	123	37	0	47185920	60	5486
2026-01-07 13:25:33.72	21.79	3.74	-47.7	-59.2	3.5	1.52e-01	0	37	104	50331648	60	32035
2026-01-07 13:25:34.73	21.85	3.81	-41.2	-42.9	17.8	4.16e-01	123	37	0	50331648	60	4893
2026-01-07 13:25:35.74	21.90	3.87	-39.5	-40.8	19.2	0.00e+00	123	37	0	53477376	52	6101
2026-01-07 13:25:36.75	21.96	3.93	-38.7	-40.0	19.9	0.00e+00	123	37	0	56623104	52	5543
2026-01-07 13:25:37.76	22.01	4.00	-38.7	-39.9	19.9	0.00e+00	122	37	0	59768832	50	6177
2026-01-07 13:25:38.77	22.07	4.06	-38.6	-39.8	19.9	0.00e+00	122	37	0	62914560	50	6092
2026-01-07 13:25:39.78	22.12	4.13	-38.5	-39.7	20.0	0.00e+00	123	37	0	66060288	50	6059
2026-01-07 13:25:40.79	22.18	4.19	-38.2	-39.4	20.4	0.00e+00	122	37	0	69206016	50	5822
2026-01-07 13:25:41.80	22.24	4.25	-38.2	-39.4	20.3	0.00e+00	122	37	0	72351744	50	5815
2026-01-07 13:25:42.81	22.29	4.32	-38.2	-39.4	20.4	0.00e+00	123	37	0	75497472	50	5796
2026-01-07 13:25:43.81	22.35	4.38	-38.3	-39.5	20.4	0.00e+00	123	37	0	78643200	50	5905
2026-01-07 13:25:44.83	22.41	4.45	-38.1	-39.2	20.5	0.00e+00	122	37	0	81788928	50	5705
2026-01-07 13:25:45.83	22.46	4.51	-38.0	-39.1	20.7	0.00e+00	120	37	0	84934656	50	5633
2026-01-07 13:25:46.85	22.52	4.58	-37.9	-39.0	20.7	0.00e+00	122	37	0	88080384	50	5590
2026-01-07 13:25:47.86	22.58	4.64	-37.8	-38.9	20.8	0.00e+00	120	37	0	91226112	50	5526
2026-01-07 13:25:48.87	22.64	4.71	-38.0	-39.1	20.6	0.00e+00	123	37	0	94371840	50	5635
2026-01-07 13:25:49.88	22.69	4.78	-37.7	-38.9	20.9	0.00e+00	123	37	0	97517568	48	6155
2026-01-07 13:25:50.89	22.75	4.84	-37.8	-38.9	20.8	0.00e+00	123	37	0	100663296	48	6156
2026-01-07 13:25:51.90	22.81	4.91	-37.7	-38.8	21.0	0.00e+00	121	37	0	103809024	48	6114
2026-01-07 13:25:52.91	22.87	4.97	-37.7	-38.8	21.0	0.00e+00	122	37	0	106954752	48	6125
2026-01-07 13:25:53.92	22.93	5.04	-37.6	-38.7	21.0	0.00e+00	123	37	0	110100480	48	6055
2026-01-07 13:25:54.92	22.99	5.11	-37.8	-38.9	21.0	0.00e+00	120	37	0	113246208	48	6151
2026-01-07 13:25:55.93	23.05	5.17	-37.9	-39.0	20.8	0.00e+00	123	37	0	116391936	48	6256
2026-01-07 13:25:56.95	23.11	5.24	-37.6	-38.7	21.2	0.00e+00	122	37	0	119537664	48	6019
2026-01-07 13:25:57.96	23.17	5.31	-37.6	-38.7	21.1	0.00e+00	120	37	0	122683392	48	6000
2026-01-07 13:25:58.96	23.23	5.37	-37.4	-38.5	21.3	0.00e+00	122	37	0	125829120	48	5908
2026-01-07 13:25:59.97	23.29	5.44	-37.6	-38.7	21.1	0.00e+00	122	37	0	128974848	48	6058
2026-01-07 13:26:00.98	23.35	5.51	-37.6	-38.8	21.1	0.00e+00	123	37	0	132120576	48	6065
2026-01-07 13:26:01.99	23.41	5.57	-37.7	-38.7	21.2	0.00e+00	122	37	0	135266304	48	6060
2026-01-07 13:26:03.00	23.47	5.64	-37.4	-38.5	21.3	0.00e+00	120	37	0	138412032	48	5914
2026-01-07 13:26:04.01	23.53	5.71	-37.5	-38.6	21.2	0.00e+00	123	37	0	141557760	48	5959
2026-01-07 13:26:05.02	23.59	5.78	-37.3	-38.4	21.5	0.00e+00	123	37	0	144703488	48	5818
2026-01-07 13:26:06.03	23.65	5.84	-37.3	-38.4	21.5	0.00e+00	122	37	0	147849216	48	5804
2026-01-07 13:26:07.04	23.72	5.91	-37.2	-38.3	21.6	0.00e+00	122	37	0	150994944	48	5748
2026-01-07 13:26:08.05	23.78	5.98	-37.3	-38.4	21.5	0.00e+00	123	37	0	154140672	48	5817
2026-01-07 13:26:09.06	23.84	6.05	-37.2	-38.3	21.6	0.00e+00	123	37	0	157286400	48	5756
2026-01-07 13:26:10.07	23.90	6.12	-37.2	-38.3	21.6	0.00e+00	123	37	0	160432128	48	5776
2026-01-07 13:26:11.08	23.97	6.19	-37.3	-38.4	21.5	0.00e+00	123	37	0	163577856	48	5836
2026-01-07 13:26:12.09	24.03	6.26	-37.4	-38.5	21.5	0.00e+00	123	37	0	166723584	48	5873
2026-01-07 13:26:13.10	24.10	6.32	-37.4	-38.5	21.4	0.00e+00	120	37	0	169869312	48	5900
2026-01-07 13:26:14.11	24.16	6.39	-37.5	-38.6	21.4	0.00e+00	122	37	0	173015040	48	5942
2026-01-07 13:26:15.12	24.22	6.46	-37.3	-38.4	21.5	0.00e+00	122	37	0	176160768	48	5810
2026-01-07 13:26:16.13	24.29	6.53	-37.2	-38.3	21.7	0.00e+00	123	37	0	179306496	48	5759
2026-01-07 13:26:17.14	24.35	6.60	-37.1	-38.2	21.8	0.00e+00	120	37	0	182452224	48	5666
2026-01-07 13:26:18.15	24.42	6.67	-37.2	-38.3	21.7	0.00e+00	122	37	0	185597952	48	5732
2026-01-07 13:26:19.16	24.48	6.74	-37.1	-38.2	21.8	0.00e+00	120	37	0	188743680	48	5670
2026-01-07 13:26:20.17	24.55	6.81	-37.2	-38.3	21.6	0.00e+00	122	37	0	191889408	48	5754
2026-01-07 13:26:21.18	24.62	6.88	-37.2	-38.3	21.7	0.00e+00	120	37	0	195035136	48	5738
2026-01-07 13:26:22.19	24.68	6.95	-37.1	-38.2	21.7	0.00e+00	123	37	0	198180864	48	5662
2026-01-07 13:26:23.20	24.75	7.02	-37.3	-38.4	21.6	0.00e+00	123	37	0	201326592	48	5801
2026-01-07 13:26:24.21	24.82	7.09	-37.1	-38.2	21.8	0.00e+00	123	37	0	204472320	48	5696
2026-01-07 13:26:25.22	24.88	7.16	-37.0	-38.1	21.8	0.00e+00	122	37	0	207618048	48	5607
2026-01-07 13:26:26.23	24.95	7.24	-37.1	-38.2	21.8	0.00e+00	123	37	0	210763776	48	5692
2026-01-07 13:26:27.24	25.02	7.31	-37.0	-38.1	21.8	0.00e+00	122	38	0	213909504	48	5615
2026-01-07 13:26:28.25	25.09	7.38	-37.1	-38.1	21.9	0.00e+00	123	38	0	217055232	48	5637
2026-01-07 13:26:29.26	25.16	7.45	-37.1	-38.2	21.8	0.00e+00	120	37	0	220200960	48	5672
2026-01-07 13:26:30.27	25.23	7.52	-37.0	-38.1	21.8	0.00e+00	123	37	0	223346688	48	5601
2026-01-07 13:26:31.28	25.30	7.59	-36.8	-37.9	22.1	0.00e+00	123	38	0	226492416	48	5473
2026-01-07 13:26:32.29	25.36	7.67	-36.9	-37.9	22.1	0.00e+00	123	38	0	229638144	48	5529
2026-01-07 13:26:33.30	25.43	7.74	-36.8	-37.9	22.1	0.00e+00	120	38	0	232783872	48	5470
2026-01-07 13:26:34.31	25.51	7.81	-36.8	-37.8	22.1	0.00e+00	122	37	0	235929600	48	5448
2026-01-07 13:26:35.31	25.57	7.88	-36.9	-38.0	22.1	0.00e+00	116	37	0	239075328	48	5556
2026-01-07 13:26:36.32	25.65	7.96	-36.9	-37.9	22.1	0.00e+00	122	38	0	242221056	48	5506
2026-01-07 13:26:37.33	25.72	8.03	-36.9	-37.9	22.2	0.00e+00	122	37	0	245366784	46	6147
2026-01-07 13:26:38.34	25.79	8.10	-36.8	-37.8	22.1	0.00e+00	123	38	0	248512512	46	6131
2026-01-07 13:26:39.35	25.86	8.18	-36.7	-37.7	22.3	0.00e+00	120	37	0	251658240	46	6042
2026-01-07 13:26:40.36	25.93	8.25	-36.7	-37.7	22.3	0.00e+00	123	38	0	254803968	46	6016
2026-01-07 13:26:41.37	26.01	8.32	-36.9	-37.9	22.2	0.00e+00	123	37	0	257949696	46	6170
2026-01-07 13:26:42.38	26.08	8.40	-36.9	-37.9	22.2	0.00e+00	120	38	0	262144000	46	6158
2026-01-07 13:26:43.39	26.15	8.47	-36.8	-37.8	22.2	0.00e+00	122	38	0	264241152	46	6085
2026-01-07 13:26:44.40	26.23	8.54	-36.6	-37.6	22.3	0.00e+00	123	38	0	267386880	46	5987
2026-01-07 13:26:45.41	26.30	8.62	-36.6	-37.6	22.4	0.00e+00	123	38	0	270532608	46	5983
2026-01-07 13:26:46.42	26.37	8.69	-36.7	-37.7	22.3	0.00e+00	122	38	0	273678336	46	6001
2026-01-07 13:26:47.43	26.45	8.77	-36.7	-37.7	22.3	0.00e+00	123	37	0	277872640	46	6063
2026-01-07 13:26:48.44	26.52	8.84	-36.7	-37.7	22.3	0.00e+00	120	37	0	281018368	46	6036
2026-01-07 13:26:49.45	26.60	8.92	-36.7	-37.7	22.3	0.00e+00	123	38	0	284164096	46	6028
2026-01-07 13:26:50.46	26.67	8.99	-36.6	-37.6	22.4	0.00e+00	122	38	0	286261248	46	5968
2026-01-07 13:26:51.47	26.75	9.07	-36.6	-37.6	22.4	0.00e+00	122	37	0	289406976	46	5941
2026-01-07 13:26:52.48	26.83	9.15	-36.5	-37.5	22.5	0.00e+00	123	38	0	293601280	46	5918
2026-01-07 13:26:53.49	26.90	9.22	-36.4	-37.4	22.6	0.00e+00	123	37	0	296747008	46	5811
2026-01-07 13:26:54.50	26.98	9.30	-36.4	-37.4	22.6	0.00e+00	122	38	0	299892736	46	5849
2026-01-07 13:26:55.51	27.06	9.37	-36.4	-37.4	22.6	0.00e+00	122	38	0	303038464	46	5819
2026-01-07 13:26:56.52	27.14	9.45	-36.4	-37.4	22.5	0.00e+00	123	38	0	306184192	46	5858
2026-01-07 13:26:57.53	27.21	9.53	-36.4	-37.4	22.5	0.00e+00	122	38	0	309329920	46	5835
2026-01-07 13:26:58.54	27.29	9.60	-36.3	-37.3	22.7	0.00e+00	122	37	0	312475648	46	5784
2026-01-07 13:26:59.55	27.37	9.68	-36.4	-37.4	22.6	0.00e+00	123	38	0	315621376	46	5839
2026-01-07 13:27:00.56	27.45	9.76	-36.3	-37.3	22.7	0.00e+00	120	38	0	318767104	46	5762
2026-01-07 13:27:01.57	27.53	9.84	-36.3	-37.3	22.7	0.00e+00	123	38	0	321912832	46	5752
2026-01-07 13:27:02.58	27.61	9.91	-36.4	-37.4	22.7	0.00e+00	123	38	0	325058560	46	5835
2026-01-07 13:27:03.59	27.69	9.99	-36.4	-37.4	22.6	0.00e+00	122	37	0	328204288	46	5814
2026-01-07 13:27:04.60	27.77	10.07	-36.4	-37.4	22.6	0.00e+00	123	38	0	331350016	46	5833
2026-01-07 13:27:05.61	27.86	10.15	-36.1	-37.1	23.0	0.00e+00	123	37	0	334495744	46	5642
2026-01-07 13:27:06.62	27.94	10.23	-36.0	-37.0	23.0	0.00e+00	120	38	0	337641472	46	5558
2026-01-07 13:27:07.63	28.02	10.30	-36.0	-37.0	23.0	0.00e+00	123	38	0	340787200	46	5546
2026-01-07 13:27:08.64	28.10	10.38	-36.0	-37.0	23.0	0.00e+00	122	38	0	343932928	46	5551
2026-01-07 13:27:09.66	28.19	10.46	-36.1	-37.0	23.0	0.00e+00	123	38	0	347078656	46	5580
2026-01-07 13:27:10.66	28.27	10.54	-36.0	-37.0	23.1	0.00e+00	122	38	0	350224384	46	5545
2026-01-07 13:27:11.68	28.36	10.62	-36.0	-37.0	23.0	0.00e+00	123	38	0	353370112	46	5572
2026-01-07 13:27:12.69	28.44	10.70	-36.0	-37.0	23.0	0.00e+00	123	38	0	356515840	46	5562
2026-01-07 13:27:13.69	28.52	10.78	-36.0	-37.0	23.0	0.00e+00	123	38	0	359661568	46	5575
2026-01-07 13:27:14.70	28.61	10.86	-35.9	-36.9	23.1	0.00e+00	123	38	0	362807296	46	5497
2026-01-07 13:27:15.71	28.69	10.94	-36.0	-37.0	23.1	0.00e+00	123	38	0	365953024	46	5554
2026-01-07 13:27:16.72	28.78	11.02	-36.0	-37.0	23.1	0.00e+00	120	38	0	369098752	46	5540
2026-01-07 13:27:17.73	28.87	11.10	-35.9	-36.8	23.2	0.00e+00	122	38	0	372244480	46	5442
2026-01-07 13:27:18.74	28.96	11.18	-35.9	-36.8	23.2	0.00e+00	123	38	0	375390208	46	5441
2026-01-07 13:27:19.75	29.04	11.26	-35.9	-36.8	23.2	0.00e+00	123	38	0	378535936	46	5456
2026-01-07 13:27:20.76	29.13	11.35	-35.6	-36.6	23.3	0.00e+00	122	38	0	381681664	44	5955
2026-01-07 13:27:21.77	29.22	11.43	-35.7	-36.7	23.3	0.00e+00	123	38	0	384827392	44	6032
2026-01-07 13:27:22.78	29.31	11.51	-35.6	-36.6	23.4	0.00e+00	123	38	0	387973120	44	5939
2026-01-07 13:27:23.79	29.40	11.59	-35.6	-36.6	23.4	0.00e+00	123	38	0	391118848	44	5941
2026-01-07 13:27:24.80	29.49	11.67	-35.6	-36.6	23.4	0.00e+00	123	38	0	394264576	44	5934
2026-01-07 13:27:25.80	29.58	11.76	-35.6	-36.5	23.5	0.00e+00	122	38	0	397410304	44	5925
2026-01-07 13:27:26.81	29.67	11.84	-35.6	-36.5	23.5	0.00e+00	123	38	0	400556032	44	5890
2026-01-07 13:27:27.82	29.76	11.92	-35.7	-36.6	23.4	0.00e+00	120	38	0	403701760	44	5974
2026-01-07 13:27:28.83	29.85	12.00	-35.6	-36.6	23.4	0.00e+00	122	38	0	406847488	44	5947
2026-01-07 13:27:29.83	29.94	12.09	-35.7	-36.6	23.4	0.00e+00	122	38	0	409993216	44	5969
2026-01-07 13:27:30.84	30.04	12.17	-35.6	-36.5	23.4	0.00e+00	123	38	0	413138944	44	5922
2026-01-07 13:27:31.85	30.13	12.25	-35.5	-36.5	23.5	0.00e+00	123	38	0	416284672	44	5894
2026-01-07 13:27:32.86	30.22	12.34	-35.6	-36.5	23.4	0.00e+00	122	38	0	419430400	44	5907
2026-01-07 13:27:33.87	30.32	12.42	-35.5	-36.5	23.4	0.00e+00	120	38	0	422576128	44	5860
2026-01-07 13:27:34.88	30.41	12.51	-35.5	-36.4	23.6	0.00e+00	122	38	0	425721856	44	5830
2026-01-07 13:27:35.89	30.51	12.59	-35.4	-36.4	23.6	0.00e+00	123	38	0	428867584	44	5810
2026-01-07 13:27:36.90	30.60	12.68	-35.3	-36.3	23.7	0.00e+00	122	38	0	432013312	44	5731
2026-01-07 13:27:37.91	30.70	12.76	-35.5	-36.5	23.5	0.00e+00	123	38	0	435159040	44	5880
2026-01-07 13:27:38.92	30.80	12.85	-35.4	-36.3	23.7	0.00e+00	123	38	0	438304768	44	5747
2026-01-07 13:27:39.93	30.90	12.93	-35.5	-36.4	23.6	0.00e+00	122	38	0	441450496	44	5843
2026-01-07 13:27:40.94	30.99	13.02	-35.5	-36.5	23.5	0.00e+00	123	38	0	444596224	44	5864
2026-01-07 13:27:41.95	31.09	13.10	-35.3	-36.3	23.6	0.00e+00	123	38	0	447741952	44	5737
2026-01-07 13:27:42.96	31.19	13.19	-35.3	-36.2	23.5	0.00e+00	122	38	0	450887680	44	5717
2026-01-07 13:27:43.97	31.29	13.28	-35.3	-36.2	23.6	0.00e+00	122	38	0	454033408	44	5684
2026-01-07 13:27:44.98	31.39	13.36	-35.4	-36.3	23.5	0.00e+00	122	38	0	457179136	44	5779
2026-01-07 13:27:45.99	31.49	13.45	-35.2	-36.1	23.7	0.00e+00	123	38	0	460324864	44	5635
2026-01-07 13:27:47.00	31.59	13.54	-35.4	-36.3	23.6	0.00e+00	123	38	0	463470592	44	5746
2026-01-07 13:27:48.01	31.70	13.63	-35.3	-36.2	23.7	0.00e+00	123	38	0	466616320	44	5724
2026-01-07 13:27:49.02	31.80	13.71	-35.2	-36.1	23.8	0.00e+00	123	38	0	469762048	44	5658
2026-01-07 13:27:50.03	31.90	13.80	-35.2	-36.1	23.7	0.00e+00	122	38	0	472907776	44	5656
2026-01-07 13:27:51.04	32.00	13.89	-35.2	-36.2	23.8	0.00e+00	123	38	0	476053504	44	5673
2026-01-07 13:27:52.05	32.11	13.98	-35.3	-36.3	23.7	0.00e+00	120	38	0	479199232	44	5736
2026-01-07 13:27:53.06	32.21	14.07	-35.2	-36.1	23.8	0.00e+00	122	38	0	482344960	44	5642
2026-01-07 13:27:54.07	32.32	14.16	-35.3	-36.2	23.7	0.00e+00	122	38	0	485490688	44	5711
2026-01-07 13:27:55.08	32.43	14.24	-35.2	-36.2	23.8	0.00e+00	122	38	0	488636416	44	5670
2026-01-07 13:27:56.09	32.53	14.33	-35.3	-36.2	23.7	0.00e+00	122	38	0	491782144	44	5720
2026-01-07 13:27:57.10	32.64	14.42	-35.2	-36.2	23.8	0.00e+00	122	38	0	494927872	44	5677
2026-01-07 13:27:58.11	32.75	14.51	-35.3	-36.2	23.7	0.00e+00	120	38	0	498073600	44	5708
2026-01-07 13:27:59.12	32.86	14.60	-35.4	-36.3	23.7	0.00e+00	123	38	0	501219328	44	5767
2026-01-07 13:28:00.13	32.97	14.69	-35.4	-36.3	23.6	0.00e+00	122	38	0	504365056	44	5754
2026-01-07 13:28:01.14	33.08	14.78	-35.1	-36.1	23.9	0.00e+00	123	38	0	507510784	44	5607
2026-01-07 13:28:02.15	33.19	14.87	-35.2	-36.1	23.7	0.00e+00	120	38	0	510656512	44	5638
2026-01-07 13:28:03.16	33.30	14.97	-35.1	-36.0	23.8	0.00e+00	123	38	0	513802240	44	5562
2026-01-07 13:28:04.17	33.41	15.06	-35.2	-36.1	23.9	0.00e+00	122	38	0	516947968	44	5611
2026-01-07 13:28:05.18	33.52	15.15	-35.2	-36.1	23.9	0.00e+00	123	38	0	520093696	44	5622
2026-01-07 13:28:06.19	33.63	15.24	-35.2	-36.2	23.8	0.00e+00	123	38	0	523239424	44	5677
2026-01-07 13:28:07.19	33.75	15.33	-35.4	-36.3	23.7	0.00e+00	120	38	0	526385152	44	5762
2026-01-07 13:28:08.20	33.86	15.42	-35.4	-36.3	23.7	0.00e+00	123	38	0	529530880	44	5786
2026-01-07 13:28:09.21	33.98	15.52	-35.3	-36.2	23.8	0.00e+00	121	38	0	532676608	44	5701
2026-01-07 13:28:10.23	34.09	15.61	-35.4	-36.3	23.7	0.00e+00	122	38	0	535822336	44	5771
2026-01-07 13:28:11.24	34.21	15.70	-35.3	-36.3	23.8	0.00e+00	122	38	0	538968064	44	5742
2026-01-07 13:28:12.24	34.33	15.80	-35.4	-36.4	23.7	0.00e+00	122	38	0	542113792	44	5800
2026-01-07 13:28:13.26	34.45	15.89	-35.5	-36.4	23.7	0.00e+00	120	38	0	545259520	44	5821
2026-01-07 13:28:14.26	34.56	15.98	-35.5	-36.4	23.7	0.00e+00	121	38	0	548405248	44	5842
2026-01-07 13:28:15.28	34.68	16.08	-35.5	-36.4	23.7	0.00e+00	122	38	0	551550976	44	5844
2026-01-07 13:28:16.28	34.80	16.17	-35.4	-36.3	23.7	0.00e+00	123	38	0	554696704	44	5761
2026-01-07 13:28:17.29	34.92	16.27	-35.3	-36.3	23.8	0.00e+00	122	38	0	557842432	44	5741
2026-01-07 13:28:18.30	35.04	16.36	-35.3	-36.2	23.8	0.00e+00	120	38	0	560988160	44	5694
2026-01-07 13:28:19.31	35.17	16.46	-35.5	-36.4	23.8	0.00e+00	123	38	0	564133888	44	5815
2026-01-07 13:28:20.32	35.29	16.55	-35.3	-36.2	23.8	0.00e+00	122	38	0	567279616	44	5694
2026-01-07 13:28:21.34	35.42	16.65	-35.5	-36.4	23.8	0.00e+00	123	38	0	570425344	44	5838
2026-01-07 13:28:22.34	35.54	16.74	-35.4	-36.4	23.7	0.00e+00	120	38	0	573571072	44	5792
2026-01-07 13:28:23.36	35.66	16.84	-35.4	-36.4	23.7	0.00e+00	122	38	0	576716800	44	5801
2026-01-07 13:28:24.36	35.79	16.93	-35.4	-36.3	23.8	0.00e+00	122	38	0	579862528	44	5758
2026-01-07 13:28:25.37	35.92	17.03	-35.3	-36.3	23.8	0.00e+00	123	38	0	583008256	44	5743
2026-01-07 13:28:26.38	36.04	17.13	-35.4	-36.3	23.9	0.00e+00	122	38	0	586153984	44	5744
2026-01-07 13:28:27.39	36.17	17.23	-35.3	-36.2	23.8	0.00e+00	122	38	0	589299712	44	5723
2026-01-07 13:28:28.40	36.30	17.32	-35.2	-36.1	23.9	0.00e+00	120	38	0	592445440	44	5626
2026-01-07 13:28:29.41	36.43	17.42	-35.2	-36.1	24.0	0.00e+00	122	38	0	595591168	44	5651
2026-01-07 13:28:30.42	36.56	17.52	-35.2	-36.1	23.9	0.00e+00	122	38	0	598736896	44	5636
2026-01-07 13:28:31.43	36.69	17.62	-35.3	-36.2	23.9	0.00e+00	122	38	0	602931200	44	5668
2026-01-07 13:28:32.44	36.83	17.71	-35.2	-36.2	23.9	0.00e+00	123	38	0	605028352	44	5676
2026-01-07 13:28:33.45	36.96	17.81	-35.2	-36.1	23.9	0.00e+00	122	38	0	608174080	44	5628
2026-01-07 13:28:34.46	37.09	17.91	-35.1	-36.0	23.9	0.00e+00	122	38	0	611319808	44	5589
2026-01-07 13:28:35.47	37.23	18.01	-35.0	-36.0	24.1	0.00e+00	123	38	0	614465536	44	5532
2026-01-07 13:28:36.48	37.37	18.11	-35.0	-35.9	24.0	0.00e+00	123	38	0	618659840	44	5520
2026-01-07 13:28:37.48	37.50	18.21	-34.9	-35.8	24.2	0.00e+00	123	38	0	621805568	44	5423
2026-01-07 13:28:38.49	37.64	18.31	-34.9	-35.9	24.1	0.00e+00	123	38	0	624951296	44	5469
2026-01-07 13:28:39.51	37.78	18.41	-35.1	-36.0	24.0	0.00e+00	122	38	0	627048448	44	5571
2026-01-07 13:28:40.52	37.92	18.51	-35.1	-36.0	24.1	0.00e+00	122	38	0	630194176	44	5552
2026-01-07 13:28:41.53	38.06	18.61	-35.0	-35.9	24.1	0.00e+00	122	38	0	634388480	44	5519
2026-01-07 13:28:42.54	38.20	18.71	-35.0	-35.9	24.1	0.00e+00	122	38	0	637534208	44	5490
2026-01-07 13:28:43.54	38.34	18.81	-35.0	-35.9	24.1	0.00e+00	123	38	0	640679936	44	5482
2026-01-07 13:28:44.55	38.48	18.91	-35.0	-35.9	24.1	0.00e+00	123	38	0	643825664	44	5524
2026-01-07 13:28:45.57	38.63	19.02	-35.0	-35.9	24.1	0.00e+00	122	38	0	646971392	44	5485
2026-01-07 13:28:46.58	38.77	19.12	-35.0	-35.9	24.1	0.00e+00	123	38	0	650117120	44	5496
2026-01-07 13:28:47.59	38.92	19.22	-34.9	-35.8	24.2	0.00e+00	123	38	0	653262848	44	5423
2026-01-07 13:28:48.60	39.06	19.32	-34.8	-35.7	24.2	0.00e+00	123	38	0	656408576	44	5399
2026-01-07 13:28:49.61	39.21	19.42	-34.9	-35.8	24.2	0.00e+00	122	38	0	659554304	44	5467
2026-01-07 13:28:50.62	39.36	19.53	-34.9	-35.8	24.1	0.00e+00	123	38	0	662700032	44	5432
2026-01-07 13:28:51.63	39.51	19.63	-34.9	-35.9	24.1	0.00e+00	120	38	0	665845760	44	5472
2026-01-07 13:28:52.64	39.66	19.73	-34.8	-35.7	24.4	0.00e+00	123	38	0	668991488	42	6013
2026-01-07 13:28:53.65	39.81	19.84	-34.8	-35.7	24.3	0.00e+00	123	38	0	672137216	42	6050
2026-01-07 13:28:54.66	39.97	19.94	-34.8	-35.7	24.3	0.00e+00	122	38	0	675282944	42	6008
2026-01-07 13:28:55.67	40.12	20.04	-34.8	-35.7	24.3	0.00e+00	123	38	0	678428672	42	6020
2026-01-07 13:28:56.68	40.27	20.15	-34.9	-35.8	24.2	0.00e+00	123	38	0	681574400	42	6099
2026-01-07 13:28:57.68	40.43	20.25	-34.8	-35.7	24.3	0.00e+00	122	38	0	684720128	42	6034
2026-01-07 13:28:58.70	40.59	20.36	-34.6	-35.5	24.4	0.00e+00	123	38	0	687865856	42	5873
2026-01-07 13:28:59.71	40.74	20.46	-34.6	-35.5	24.4	0.00e+00	123	38	0	691011584	42	5893
2026-01-07 13:29:00.71	40.90	20.57	-34.5	-35.4	24.4	0.00e+00	123	38	0	694157312	42	5842
2026-01-07 13:29:01.72	41.06	20.67	-34.3	-35.2	24.5	0.00e+00	123	38	0	697303040	42	5703
2026-01-07 13:29:02.73	41.22	20.78	-34.4	-35.3	24.5	0.00e+00	123	38	0	700448768	42	5751
2026-01-07 13:29:03.74	41.38	20.88	-34.3	-35.2	24.4	0.00e+00	123	38	0	703594496	42	5689
2026-01-07 13:29:04.75	41.55	20.99	-34.3	-35.2	24.6	0.00e+00	123	38	0	706740224	42	5683
2026-01-07 13:29:05.76	41.71	21.10	-34.2	-35.1	24.6	0.00e+00	123	38	0	709885952	42	5618
2026-01-07 13:29:06.77	41.88	21.20	-34.2	-35.1	24.7	0.00e+00	122	38	0	713031680	42	5635
2026-01-07 13:29:07.78	42.04	21.31	-34.2	-35.1	24.7	0.00e+00	123	38	0	716177408	42	5599
2026-01-07 13:29:08.79	42.21	21.42	-34.2	-35.1	24.6	0.00e+00	123	38	0	719323136	42	5654
2026-01-07 13:29:09.79	42.38	21.52	-34.1	-35.0	24.7	0.00e+00	123	38	0	722468864	42	5557
2026-01-07 13:29:10.80	42.55	21.63	-34.1	-35.0	24.9	0.00e+00	120	38	0	725614592	42	5532
2026-01-07 13:29:11.81	42.72	21.74	-33.9	-34.8	25.0	0.00e+00	123	38	0	728760320	42	5439
2026-01-07 13:29:12.82	42.89	21.85	-34.0	-34.8	24.9	0.00e+00	120	38	0	731906048	42	5465
2026-01-07 13:29:13.83	43.06	21.95	-34.0	-34.9	24.9	0.00e+00	123	38	0	735051776	42	5491
2026-01-07 13:29:14.84	43.24	22.06	-34.1	-34.9	24.9	0.00e+00	120	38	0	738197504	42	5515
2026-01-07 13:29:15.85	43.41	22.17	-33.9	-34.7	25.0	0.00e+00	123	38	0	741343232	42	5397
2026-01-07 13:29:16.86	43.59	22.28	-33.9	-34.7	25.0	0.00e+00	123	38	0	744488960	42	5402
2026-01-07 13:29:17.87	43.77	22.39	-33.9	-34.8	25.0	0.00e+00	123	38	0	747634688	42	5412
2026-01-07 13:29:18.88	43.94	22.50	-33.8	-34.7	25.1	0.00e+00	120	38	0	750780416	42	5382
2026-01-07 13:29:19.89	44.12	22.61	-33.8	-34.7	25.2	0.00e+00	123	38	0	753926144	42	5369
2026-01-07 13:29:20.90	44.31	22.71	-33.8	-34.7	25.1	0.00e+00	122	38	0	757071872	40	6025
2026-01-07 13:29:21.91	44.49	22.82	-33.9	-34.8	25.0	0.00e+00	123	38	0	760217600	40	6076
2026-01-07 13:29:22.92	44.67	22.93	-33.7	-34.6	25.2	0.00e+00	123	38	0	763363328	40	5937
2026-01-07 13:29:23.93	44.86	23.04	-33.5	-34.4	25.1	0.00e+00	123	38	0	766509056	40	5824
2026-01-07 13:29:24.94	45.05	23.15	-33.6	-34.4	25.3	0.00e+00	122	38	0	769654784	40	5834
2026-01-07 13:29:25.95	45.23	23.26	-33.6	-34.4	25.3	0.00e+00	122	38	0	772800512	40	5824
2026-01-07 13:29:26.96	45.42	23.37	-33.6	-34.5	25.2	0.00e+00	123	38	0	775946240	40	5862
2026-01-07 13:29:27.96	45.61	23.48	-33.7	-34.6	25.1	0.00e+00	120	38	0	779091968	40	5936
2026-01-07 13:29:28.97	45.80	23.59	-33.6	-34.5	25.3	0.00e+00	123	38	0	782237696	40	5866
2026-01-07 13:29:29.98	46.00	23.71	-33.7	-34.5	25.1	0.00e+00	120	38	0	785383424	40	5914
2026-01-07 13:29:30.99	46.19	23.82	-33.7	-34.5	25.0	0.00e+00	122	38	0	788529152	40	5906
2026-01-07 13:29:32.00	46.39	23.93	-33.6	-34.5	25.1	0.00e+00	120	38	0	791674880	40	5859
2026-01-07 13:29:33.01	46.58	24.04	-33.6	-34.5	25.1	0.00e+00	123	38	0	794820608	40	5861
2026-01-07 13:29:34.02	46.78	24.15	-33.4	-34.3	25.2	0.00e+00	120	38	0	797966336	40	5756
2026-01-07 13:29:35.03	46.98	24.26	-33.5	-34.4	25.3	0.00e+00	123	38	0	801112064	40	5817
2026-01-07 13:29:36.04	47.18	24.37	-33.5	-34.3	25.3	0.00e+00	122	38	0	804257792	40	5787
2026-01-07 13:29:37.05	47.39	24.48	-33.6	-34.4	25.2	0.00e+00	123	38	0	807403520	40	5840
2026-01-07 13:29:38.06	47.59	24.60	-33.6	-34.4	25.2	0.00e+00	123	38	0	810549248	40	5857
2026-01-07 13:29:39.07	47.80	24.71	-33.6	-34.5	25.1	0.00e+00	120	38	0	813694976	40	5889
2026-01-07 13:29:40.08	48.00	24.82	-33.7	-34.6	25.0	0.00e+00	123	38	0	816840704	40	5937
2026-01-07 13:29:41.09	48.21	24.93	-33.8	-34.7	25.0	0.00e+00	122	38	0	819986432	40	6003
2026-01-07 13:29:42.10	48.42	25.05	-33.8	-34.7	24.8	0.00e+00	123	38	0	823132160	40	6049
2026-01-07 13:29:43.11	48.63	25.16	-34.0	-34.8	24.8	0.00e+00	123	38	0	826277888	40	6129
2026-01-07 13:29:44.12	48.84	25.27	-34.0	-34.9	24.8	0.00e+00	123	38	0	829423616	40	6166
2026-01-07 13:29:45.13	49.06	25.38	-34.2	-35.1	24.7	0.00e+00	121	38	0	832569344	40	6320
2026-01-07 13:29:46.14	49.27	25.49	-34.3	-35.2	24.7	0.00e+00	122	38	0	835715072	40	6391
2026-01-07 13:29:47.15	49.49	25.61	-34.3	-35.2	24.8	0.00e+00	123	38	0	838860800	40	6404
2026-01-07 13:29:48.16	49.71	25.72	-34.4	-35.2	24.7	0.00e+00	120	38	0	842006528	40	6416
2026-01-07 13:29:49.17	49.93	25.83	-34.3	-35.2	24.8	0.00e+00	122	38	0	845152256	40	6400
2026-01-07 13:29:50.18	50.15	25.95	-34.4	-35.3	24.6	0.00e+00	123	38	0	848297984	40	6476
2026-01-07 13:29:51.19	50.38	26.06	-34.4	-35.3	24.6	0.00e+00	122	38	0	851443712	40	6449
2026-01-07 13:29:52.20	50.60	26.17	-34.4	-35.3	24.5	0.00e+00	123	38	0	854589440	40	6468
2026-01-07 13:29:53.21	50.83	26.28	-34.5	-35.4	24.5	0.00e+00	120	38	0	857735168	40	6550
2026-01-07 13:29:54.22	51.06	26.40	-34.6	-35.5	24.4	0.00e+00	123	38	0	860880896	40	6634
2026-01-07 13:29:55.23	51.29	26.51	-34.6	-35.5	24.4	0.00e+00	123	38	0	864026624	40	6638
2026-01-07 13:29:56.24	51.52	26.62	-34.6	-35.5	24.4	0.00e+00	122	38	0	867172352	40	6645
2026-01-07 13:29:57.25	51.75	26.74	-34.5	-35.4	24.5	0.00e+00	122	38	0	870318080	40	6549
2026-01-07 13:29:58.26	51.98	26.85	-34.6	-35.5	24.4	0.00e+00	123	38	0	873463808	40	6620
2026-01-07 13:29:59.27	52.22	26.96	-34.5	-35.4	24.6	0.00e+00	122	38	0	876609536	40	6556
2026-01-07 13:30:00.28	52.46	27.07	-34.6	-35.5	24.5	0.00e+00	122	38	0	879755264	40	6608
2026-01-07 13:30:01.29	52.70	27.19	-34.7	-35.6	24.4	0.00e+00	123	38	0	882900992	40	6680
2026-01-07 13:30:02.30	52.94	27.30	-34.6	-35.5	24.5	0.00e+00	123	38	0	886046720	42	5894
2026-01-07 13:30:03.31	53.18	27.41	-34.7	-35.6	24.4	0.00e+00	122	38	0	889192448	42	5936
2026-01-07 13:30:04.32	53.43	27.52	-34.7	-35.6	24.5	0.00e+00	122	38	0	892338176	42	5945
2026-01-07 13:30:05.32	53.67	27.63	-34.6	-35.5	24.6	0.00e+00	123	38	0	895483904	42	5886
2026-01-07 13:30:06.34	53.92	27.75	-34.8	-35.7	24.4	0.00e+00	122	38	0	898629632	42	6041
2026-01-07 13:30:07.35	54.17	27.86	-35.1	-36.0	24.2	0.00e+00	122	38	0	901775360	42	6227
2026-01-07 13:30:08.36	54.42	27.97	-35.2	-36.1	24.1	0.00e+00	123	38	0	904921088	42	6310
2026-01-07 13:30:09.37	54.68	28.08	-35.1	-36.0	24.2	0.00e+00	122	38	0	908066816	42	6235
2026-01-07 13:30:10.38	54.93	28.20	-35.1	-36.0	24.0	0.00e+00	123	38	0	911212544	42	6251
2026-01-07 13:30:11.39	55.19	28.31	-35.0	-36.0	24.1	0.00e+00	123	38	0	914358272	42	6210
2026-01-07 13:30:12.40	55.44	28.42	-34.8	-35.7	24.3	0.00e+00	122	38	0	917504000	42	6044
2026-01-07 13:30:13.41	55.70	28.53	-34.8	-35.7	24.3	0.00e+00	123	38	0	920649728	42	6045
2026-01-07 13:30:14.42	55.97	28.64	-34.9	-35.8	24.4	0.00e+00	123	38	0	923795456	42	6071
2026-01-07 13:30:15.43	56.23	28.75	-34.9	-35.8	24.4	0.00e+00	122	38	0	926941184	42	6081
2026-01-07 13:30:16.44	56.50	28.86	-34.9	-35.7	24.4	0.00e+00	123	38	0	930086912	42	6064
2026-01-07 13:30:17.45	56.76	28.97	-34.8	-35.7	24.4	0.00e+00	122	38	0	933232640	42	6052
2026-01-07 13:30:18.46	57.03	29.08	-34.9	-35.8	24.4	0.00e+00	123	38	0	936378368	42	6067
2026-01-07 13:30:19.46	57.30	29.19	-34.8	-35.7	24.4	0.00e+00	122	38	0	939524096	42	6062
2026-01-07 13:30:20.47	57.57	29.30	-34.8	-35.7	24.3	0.00e+00	120	38	0	942669824	42	6019
2026-01-07 13:30:21.48	57.85	29.41	-34.7	-35.6	24.4	0.00e+00	123	38	0	945815552	42	5970
2026-01-07 13:30:22.49	58.12	29.52	-34.8	-35.7	24.4	0.00e+00	123	38	0	948961280	42	6050
2026-01-07 13:30:23.50	58.40	29.63	-34.7	-35.6	24.5	0.00e+00	122	38	0	952107008	42	5988
2026-01-07 13:30:24.51	58.68	29.74	-34.9	-35.8	24.4	0.00e+00	122	38	0	955252736	42	6121
2026-01-07 13:30:25.52	58.96	29.85	-34.8	-35.7	24.4	0.00e+00	123	38	0	958398464	42	6043
2026-01-07 13:30:26.53	59.25	29.96	-34.7	-35.5	24.6	0.00e+00	122	38	0	962592768	42	5923
2026-01-07 13:30:27.54	59.53	30.06	-34.5	-35.3	24.7	0.00e+00	123	38	0	965738496	42	5788
2026-01-07 13:30:28.55	59.82	30.17	-34.5	-35.4	24.6	0.00e+00	122	38	0	967835648	42	5829
2026-01-07 13:30:29.56	60.11	30.28	-34.3	-35.2	24.7	0.00e+00	123	38	0	970981376	42	5679
2026-01-07 13:30:30.57	60.40	30.38	-34.2	-35.1	24.8	0.00e+00	120	38	0	974127104	42	5622
2026-01-07 13:30:31.58	60.70	30.49	-34.1	-35.0	24.9	0.00e+00	122	38	0	978321408	42	5552
2026-01-07 13:30:32.58	60.99	30.59	-34.3	-35.1	24.7	0.00e+00	122	38	0	981467136	42	5640
2026-01-07 13:30:33.59	61.28	30.70	-34.3	-35.2	24.7	0.00e+00	122	38	0	984612864	42	5668
2026-01-07 13:30:34.60	61.58	30.80	-34.5	-35.3	24.6	0.00e+00	123	38	0	987758592	42	5786
2026-01-07 13:30:35.61	61.88	30.91	-34.6	-35.5	24.6	0.00e+00	123	38	0	990904320	42	5884
2026-01-07 13:30:36.62	62.19	31.01	-34.7	-35.6	24.5	0.00e+00	122	38	0	993001472	42	5969
2026-01-07 13:30:37.63	62.49	31.12	-34.8	-35.6	24.5	0.00e+00	123	38	0	997195776	42	5985
2026-01-07 13:30:38.64	62.80	31.22	-34.7	-35.6	24.6	0.00e+00	123	38	0	1000341504	42	5956
2026-01-07 13:30:39.65	63.11	31.32	-34.7	-35.6	24.6	0.00e+00	123	38	0	1003487232	42	5944
2026-01-07 13:30:40.66	63.42	31.42	-34.7	-35.6	24.5	0.00e+00	122	38	0	1006632960	42	5977
2026-01-07 13:30:41.67	63.73	31.52	-34.6	-35.5	24.7	0.00e+00	123	38	0	1009778688	42	5861
2026-01-07 13:30:42.68	64.04	31.62	-34.7	-35.6	24.7	0.00e+00	122	38	0	1012924416	42	5973
2026-01-07 13:30:43.69	64.36	31.72	-34.5	-35.4	24.6	0.00e+00	122	38	0	1016070144	42	5827
2026-01-07 13:30:44.70	64.68	31.82	-34.8	-35.6	24.5	0.00e+00	123	38	0	1019215872	42	5979
2026-01-07 13:30:45.71	65.00	31.92	-34.9	-35.8	24.4	0.00e+00	122	38	0	1022361600	42	6127
2026-01-07 13:30:46.72	65.32	32.02	-34.8	-35.7	24.5	0.00e+00	122	38	0	1025507328	42	6021
2026-01-07 13:30:47.73	65.64	32.12	-34.8	-35.6	24.5	0.00e+00	122	38	0	1028653056	42	5980
2026-01-07 13:30:48.74	65.97	32.22	-34.9	-35.8	24.5	0.00e+00	123	38	0	1031798784	42	6077
2026-01-07 13:30:49.75	66.30	32.31	-35.1	-36.0	24.3	0.00e+00	123	38	0	1034944512	42	6228
2026-01-07 13:30:50.76	66.63	32.41	-35.1	-36.0	24.2	0.00e+00	120	38	0	1038090240	42	6258
2026-01-07 13:30:51.77	66.96	32.50	-35.2	-36.1	24.2	0.00e+00	122	38	0	1041235968	42	6344
2026-01-07 13:30:52.78	67.29	32.60	-35.1	-36.0	24.2	0.00e+00	122	38	0	1044381696	42	6267
2026-01-07 13:30:53.79	67.63	32.69	-35.3	-36.2	24.2	0.00e+00	122	38	0	1047527424	42	6413
2026-01-07 13:30:54.80	67.96	32.78	-35.4	-36.3	24.1	0.00e+00	122	38	0	1050673152	42	6434
2026-01-07 13:30:55.82	68.31	32.87	-35.4	-36.3	24.1	0.00e+00	123	38	0	1053818880	42	6485
2026-01-07 13:30:56.83	68.65	32.96	-35.4	-36.3	24.0	0.00e+00	123	38	0	1056964608	42	6468
2026-01-07 13:30:57.83	68.99	33.05	-35.5	-36.5	23.8	0.00e+00	122	38	0	1060110336	42	6585
2026-01-07 13:30:58.84	69.33	33.14	-35.8	-36.7	23.5	0.00e+00	123	38	0	1063256064	44	6055
2026-01-07 13:30:59.86	69.68	33.23	-35.9	-36.9	23.5	0.00e+00	123	38	0	1066401792	44	6151
2026-01-07 13:31:00.87	70.03	33.32	-35.6	-36.6	23.8	0.00e+00	120	38	0	1069547520	44	5927
2026-01-07 13:31:01.88	70.38	33.41	-35.5	-36.4	23.8	0.00e+00	123	38	0	1072693248	44	5851
2026-01-07 13:31:02.89	70.73	33.49	-35.2	-36.1	24.1	0.00e+00	123	38	0	1075838976	44	5651
2026-01-07 13:31:03.90	71.09	33.58	-35.2	-36.1	24.1	0.00e+00	123	38	0	1078984704	44	5605
2026-01-07 13:31:04.91	71.44	33.66	-35.2	-36.1	24.0	0.00e+00	122	38	0	1082130432	44	5652
2026-01-07 13:31:05.91	71.80	33.74	-35.4	-36.3	23.9	0.00e+00	123	38	0	1085276160	44	5761
2026-01-07 13:31:06.92	72.16	33.82	-35.5	-36.4	23.7	0.00e+00	123	38	0	1088421888	44	5816
2026-01-07 13:31:07.94	72.52	33.90	-35.6	-36.5	23.7	0.00e+00	123	38	0	1091567616	44	5915
2026-01-07 13:31:08.95	72.88	33.98	-35.5	-36.4	23.7	0.00e+00	123	38	0	1094713344	44	5826
2026-01-07 13:31:09.95	73.24	34.06	-35.4	-36.3	23.9	0.00e+00	122	38	0	1097859072	44	5774
2026-01-07 13:31:10.96	73.61	34.14	-35.4	-36.3	23.9	0.00e+00	122	38	0	1101004800	44	5777
2026-01-07 13:31:11.97	73.98	34.22	-35.6	-36.5	23.6	0.00e+00	123	38	0	1104150528	44	5886
2026-01-07 13:31:12.98	74.35	34.29	-35.7	-36.6	23.6	0.00e+00	123	38	0	1107296256	44	5948
2026-01-07 13:31:14.00	74.72	34.37	-35.3	-36.2	23.8	0.00e+00	123	38	0	1110441984	44	5717
2026-01-07 13:31:15.01	75.10	34.44	-35.4	-36.3	23.8	0.00e+00	123	38	0	1113587712	44	5771
2026-01-07 13:31:16.02	75.47	34.51	-35.4	-36.3	23.9	0.00e+00	120	38	0	1116733440	44	5757
2026-01-07 13:31:17.02	75.84	34.58	-35.5	-36.4	23.9	0.00e+00	123	38	0	1119879168	44	5804
2026-01-07 13:31:18.03	76.22	34.65	-35.4	-36.3	23.8	0.00e+00	122	38	0	1123024896	44	5767
2026-01-07 13:31:19.05	76.61	34.72	-35.4	-36.4	23.7	0.00e+00	123	38	0	1126170624	44	5816
2026-01-07 13:31:20.06	76.99	34.79	-35.6	-36.5	23.5	0.00e+00	123	38	0	1129316352	44	5908
2026-01-07 13:31:21.07	77.37	34.85	-35.4	-36.4	23.6	0.00e+00	122	38	0	1132462080	44	5816
2026-01-07 13:31:22.07	77.75	34.92	-35.4	-36.4	23.7	0.00e+00	122	38	0	1135607808	44	5813
2026-01-07 13:31:23.08	78.14	34.98	-35.4	-36.3	23.9	0.00e+00	123	38	0	1138753536	44	5783
2026-01-07 13:31:24.10	78.53	35.04	-35.5	-36.4	23.8	0.00e+00	122	38	0	1141899264	44	5850
2026-01-07 13:31:25.11	78.92	35.10	-35.6	-36.6	23.6	0.00e+00	123	38	0	1145044992	44	5929
2026-01-07 13:31:26.12	79.31	35.16	-35.9	-36.8	23.5	0.00e+00	123	38	0	1148190720	44	6123
2026-01-07 13:31:27.13	79.70	35.22	-35.8	-36.7	23.7	0.00e+00	120	38	0	1151336448	44	6050
2026-01-07 13:31:28.14	80.09	35.27	-35.6	-36.5	23.9	0.00e+00	122	38	0	1154482176	44	5903
2026-01-07 13:31:29.15	80.48	35.33	-35.3	-36.2	24.2	0.00e+00	123	38	0	1157627904	44	5667
2026-01-07 13:31:30.16	80.88	35.38	-35.4	-36.3	24.1	0.00e+00	122	38	0	1160773632	44	5772
2026-01-07 13:31:31.17	81.28	35.44	-35.4	-36.3	23.8	0.00e+00	122	38	0	1163919360	44	5789
2026-01-07 13:31:32.18	81.67	35.49	-35.5	-36.4	23.8	0.00e+00	123	38	0	1167065088	44	5818
2026-01-07 13:31:33.19	82.07	35.54	-35.6	-36.6	23.8	0.00e+00	122	38	0	1170210816	44	5935
2026-01-07 13:31:34.20	82.47	35.58	-35.7	-36.6	23.7	0.00e+00	122	38	0	1173356544	44	5964
2026-01-07 13:31:35.21	82.88	35.63	-35.7	-36.6	23.8	0.00e+00	122	38	0	1176502272	44	5941
2026-01-07 13:31:36.22	83.28	35.68	-35.4	-36.4	23.9	0.00e+00	122	38	0	1179648000	44	5796
2026-01-07 13:31:37.23	83.68	35.72	-35.7	-36.6	23.6	0.00e+00	120	38	0	1182793728	44	5980
2026-01-07 13:31:38.24	84.09	35.76	-35.9	-36.9	23.5	0.00e+00	123	38	0	1185939456	44	6135
2026-01-07 13:31:39.25	84.49	35.80	-36.1	-37.0	23.3	0.00e+00	122	38	0	1189085184	44	6258
2026-01-07 13:31:40.26	84.90	35.84	-36.2	-37.2	23.3	0.00e+00	123	38	0	1192230912	44	6400
2026-01-07 13:31:41.27	85.31	35.88	-36.3	-37.2	23.2	0.00e+00	123	38	0	1195376640	44	6420
2026-01-07 13:31:42.28	85.72	35.91	-36.5	-37.5	23.0	0.00e+00	123	38	0	1198522368	44	6636
2026-01-07 13:31:43.29	86.13	35.95	-36.6	-37.6	22.8	0.00e+00	123	38	0	1201668096	44	6677
2026-01-07 13:31:44.30	86.54	35.98	-36.2	-37.2	23.3	0.00e+00	122	38	0	1204813824	44	6355
2026-01-07 13:31:45.31	86.95	36.01	-36.1	-37.1	23.5	0.00e+00	123	38	0	1207959552	44	6280
2026-01-07 13:31:46.32	87.36	36.04	-35.5	-36.4	23.8	0.00e+00	123	38	0	1211105280	44	5840
2026-01-07 13:31:47.33	87.77	36.07	-35.6	-36.5	23.8	0.00e+00	122	38	0	1214251008	44	5904
2026-01-07 13:31:48.34	88.19	36.10	-35.7	-36.6	23.7	0.00e+00	122	38	0	1217396736	44	5983
2026-01-07 13:31:49.35	88.60	36.12	-35.9	-36.8	23.6	0.00e+00	123	38	0	1220542464	44	6128
2026-01-07 13:31:50.36	89.01	36.14	-35.9	-36.8	23.5	0.00e+00	123	38	0	1223688192	44	6125
2026-01-07 13:31:51.37	89.43	36.17	-35.8	-36.8	23.5	0.00e+00	123	38	0	1226833920	44	6069
2026-01-07 13:31:52.38	89.85	36.18	-35.9	-36.8	23.5	0.00e+00	122	38	0	1229979648	44	6110
2026-01-07 13:31:53.39	90.26	36.20	-35.8	-36.8	23.4	0.00e+00	122	38	0	1233125376	44	6090
2026-01-07 13:31:54.40	90.68	36.22	-35.8	-36.7	23.6	0.00e+00	122	38	0	1236271104	44	6051
2026-01-07 13:31:55.41	91.10	36.23	-35.7	-36.7	23.6	0.00e+00	122	38	0	1239416832	44	6002
2026-01-07 13:31:56.41	91.51	36.25	-35.7	-36.6	23.7	0.00e+00	123	38	0	1242562560	44	5990
2026-01-07 13:31:57.43	91.93	36.26	-35.7	-36.6	23.7	0.00e+00	123	38	0	1245708288	44	5970
2026-01-07 13:31:58.44	92.35	36.27	-35.7	-36.7	23.7	0.00e+00	123	38	0	1248854016	44	6002
2026-01-07 13:31:59.44	92.76	36.28	-35.4	-36.3	23.9	0.00e+00	122	38	0	1251999744	44	5770
2026-01-07 13:32:00.45	93.18	36.28	-35.4	-36.3	24.0	0.00e+00	122	38	0	1255145472	44	5789
2026-01-07 13:32:01.46	93.60	36.29	-35.2	-36.1	24.2	0.00e+00	122	38	0	1258291200	44	5636
2026-01-07 13:32:02.47	94.02	36.29	-35.3	-36.2	24.1	0.00e+00	123	38	0	1261436928	44	5707
2026-01-07 13:32:03.48	94.44	36.29	-35.3	-36.2	24.1	0.00e+00	123	38	0	1264582656	44	5701
2026-01-07 13:32:04.49	94.86	36.29	-35.4	-36.3	24.1	0.00e+00	122	38	0	1267728384	44	5732
2026-01-07 13:32:05.50	95.28	36.29	-35.4	-36.3	24.0	0.00e+00	122	38	0	1270874112	44	5779
2026-01-07 13:32:06.51	95.69	36.29	-35.6	-36.5	23.9	0.00e+00	122	38	0	1274019840	44	5877
2026-01-07 13:32:07.52	96.11	36.28	-35.8	-36.7	23.6	0.00e+00	122	38	0	1277165568	44	6029
2026-01-07 13:32:08.53	96.53	36.27	-36.0	-36.9	23.4	0.00e+00	120	38	0	1281359872	44	6149
2026-01-07 13:32:09.54	96.95	36.27	-36.3	-37.2	23.2	0.00e+00	123	38	0	1283457024	44	6403
2026-01-07 13:32:10.55	97.37	36.26	-36.2	-37.1	23.3	0.00e+00	122	38	0	1286602752	44	6318
2026-01-07 13:32:11.57	97.79	36.24	-36.0	-36.9	23.4	0.00e+00	122	38	0	1289748480	44	6179
2026-01-07 13:32:12.58	98.21	36.23	-36.1	-37.0	23.3	0.00e+00	122	38	0	1293942784	44	6257
2026-01-07 13:32:13.58	98.62	36.21	-36.0	-37.0	23.4	0.00e+00	122	38	0	1297088512	44	6228
2026-01-07 13:32:14.59	99.04	36.20	-36.1	-37.0	23.4	0.00e+00	123	38	0	1300234240	44	6243
2026-01-07 13:32:15.60	99.45	36.18	-36.0	-37.0	23.5	0.00e+00	122	38	0	1303379968	44	6212
2026-01-07 13:32:16.61	99.87	36.16	-35.8	-36.7	23.7	0.00e+00	123	38	0	1306525696	44	6058
2026-01-07 13:32:17.63	100.29	36.14	-35.7	-36.7	23.8	0.00e+00	122	38	0	1309671424	44	6004
2026-01-07 13:32:18.64	100.70	36.11	-35.9	-36.8	23.5	0.00e+00	120	38	0	1312817152	44	6119
2026-01-07 13:32:19.65	101.12	36.09	-36.1	-37.0	23.4	0.00e+00	123	38	0	1315962880	44	6262
2026-01-07 13:32:20.66	101.53	36.06	-35.9	-36.8	23.5	0.00e+00	123	38	0	1319108608	44	6116
2026-01-07 13:32:21.67	101.94	36.03	-35.9	-36.8	23.6	0.00e+00	123	38	0	1322254336	44	6128
2026-01-07 13:32:22.68	102.36	36.00	-35.8	-36.8	23.6	0.00e+00	123	38	0	1325400064	44	6104
2026-01-07 13:32:23.69	102.77	35.97	-36.1	-37.1	23.4	0.00e+00	123	38	0	1328545792	44	6282
2026-01-07 13:32:24.70	103.18	35.94	-36.3	-37.3	23.2	0.00e+00	123	38	0	1331691520	44	6476
2026-01-07 13:32:25.71	103.59	35.90	-36.6	-37.6	23.0	0.00e+00	122	38	0	1334837248	44	6661
2026-01-07 13:32:26.72	104.00	35.87	-36.4	-37.3	23.2	0.00e+00	123	38	0	1337982976	44	6484
2026-01-07 13:32:27.73	104.41	35.83	-36.2	-37.2	23.2	0.00e+00	123	38	0	1341128704	44	6391
2026-01-07 13:32:28.74	104.81	35.79	-36.1	-37.1	23.3	0.00e+00	123	38	0	1344274432	44	6296
2026-01-07 13:32:29.74	105.21	35.75	-36.0	-36.9	23.5	0.00e+00	123	38	0	1347420160	44	6190
2026-01-07 13:32:30.76	105.62	35.71	-35.9	-36.9	23.5	0.00e+00	123	38	0	1350565888	44	6151
2026-01-07 13:32:31.77	106.03	35.66	-35.9	-36.8	23.6	0.00e+00	123	38	0	1353711616	44	6097
2026-01-07 13:32:32.78	106.43	35.62	-35.9	-36.8	23.5	0.00e+00	123	38	0	1356857344	44	6118
2026-01-07 13:32:33.79	106.83	35.57	-36.0	-37.0	23.4	0.00e+00	120	38	0	1360003072	44	6232
2026-01-07 13:32:34.80	107.23	35.52	-36.1	-37.0	23.3	0.00e+00	122	38	0	1363148800	44	6258
2026-01-07 13:32:35.81	107.63	35.47	-36.2	-37.2	23.2	0.00e+00	122	38	0	1366294528	44	6402
2026-01-07 13:32:36.82	108.03	35.42	-36.3	-37.3	23.1	0.00e+00	122	38	0	1369440256	44	6433
2026-01-07 13:32:37.83	108.43	35.37	-36.2	-37.2	23.2	0.00e+00	120	38	0	1372585984	44	6375
2026-01-07 13:32:38.83	108.82	35.31	-36.2	-37.2	23.0	0.00e+00	122	38	0	1375731712	44	6396
2026-01-07 13:32:39.85	109.22	35.26	-36.1	-37.1	23.3	0.00e+00	120	38	0	1378877440	44	6294
2026-01-07 13:32:40.86	109.61	35.20	-36.1	-37.1	23.4	0.00e+00	123	38	0	1382023168	44	6293
2026-01-07 13:32:41.87	110.00	35.14	-36.0	-36.9	23.5	0.00e+00	123	38	0	1385168896	44	6180
2026-01-07 13:32:42.88	110.39	35.08	-35.8	-36.8	23.6	0.00e+00	123	38	0	1388314624	44	6078
2026-01-07 13:32:43.89	110.78	35.02	-35.9	-36.9	23.4	0.00e+00	120	38	0	1391460352	44	6148
2026-01-07 13:32:44.90	111.17	34.96	-35.9	-36.8	23.5	0.00e+00	123	38	0	1394606080	44	6122
2026-01-07 13:32:45.91	111.56	34.89	-35.8	-36.8	23.7	0.00e+00	123	38	0	1397751808	44	6074
2026-01-07 13:32:46.92	111.94	34.83	-35.8	-36.7	23.7	0.00e+00	123	38	0	1400897536	44	6026
2026-01-07 13:32:47.93	112.32	34.76	-35.6	-36.5	23.8	0.00e+00	123	38	0	1404043264	44	5897
2026-01-07 13:32:48.94	112.70	34.69	-35.4	-36.3	23.9	0.00e+00	122	38	0	1407188992	44	5752
2026-01-07 13:32:49.95	113.08	34.63	-35.3	-36.3	24.1	0.00e+00	123	38	0	1410334720	44	5731
2026-01-07 13:32:50.96	113.46	34.56	-35.4	-36.3	24.0	0.00e+00	123	38	0	1413480448	44	5728
2026-01-07 13:32:51.96	113.84	34.49	-35.3	-36.2	24.3	0.00e+00	122	38	0	1416626176	44	5669
2026-01-07 13:32:52.98	114.21	34.41	-35.2	-36.1	24.1	0.00e+00	123	38	0	1419771904	44	5627
2026-01-07 13:32:53.98	114.58	34.34	-35.4	-36.3	23.8	0.00e+00	121	38	0	1422917632	44	5748
2026-01-07 13:32:54.99	114.96	34.26	-35.6	-36.6	23.7	0.00e+00	122	38	0	1426063360	44	5934
2026-01-07 13:32:56.00	115.33	34.19	-35.4	-36.4	24.0	0.00e+00	123	38	0	1429209088	44	5797
2026-01-07 13:32:57.01	115.69	34.11	-35.3	-36.2	23.9	0.00e+00	122	38	0	1432354816	44	5686
2026-01-07 13:32:58.02	116.06	34.03	-35.1	-36.0	23.9	0.00e+00	123	38	0	1435500544	44	5591
2026-01-07 13:32:59.03	116.43	33.95	-35.2	-36.2	23.8	0.00e+00	122	38	0	1438646272	44	5667
2026-01-07 13:33:00.04	116.79	33.87	-35.4	-36.3	24.1	0.00e+00	122	38	0	1441792000	44	5740
2026-01-07 13:33:01.05	117.15	33.79	-35.3	-36.2	24.1	0.00e+00	120	38	0	1444937728	44	5693
2026-01-07 13:33:02.06	117.51	33.71	-35.4	-36.3	24.1	0.00e+00	122	38	0	1448083456	44	5767
2026-01-07 13:33:03.07	117.87	33.63	-35.2	-36.1	24.1	0.00e+00	120	38	0	1451229184	44	5650
2026-01-07 13:33:04.08	118.22	33.54	-35.3	-36.3	23.9	0.00e+00	123	38	0	1454374912	44	5743
2026-01-07 13:33:05.09	118.58	33.46	-35.4	-36.4	23.8	0.00e+00	123	38	0	1457520640	44	5808
2026-01-07 13:33:06.10	118.93	33.37	-35.2	-36.1	24.2	0.00e+00	122	38	0	1460666368	44	5634
2026-01-07 13:33:07.11	119.28	33.28	-35.3	-36.2	24.2	0.00e+00	123	38	0	1463812096	44	5674
2026-01-07 13:33:08.12	119.63	33.20	-35.2	-36.1	24.1	0.00e+00	123	38	0	1466957824	44	5613
2026-01-07 13:33:09.13	119.98	33.11	-35.1	-36.0	24.3	0.00e+00	123	38	0	1470103552	44	5564
2026-01-07 13:33:10.14	120.32	33.02	-34.9	-35.8	24.3	0.00e+00	123	38	0	1473249280	44	5447
2026-01-07 13:33:11.15	120.67	32.93	-35.0	-35.9	24.2	0.00e+00	120	38	0	1476395008	44	5477
2026-01-07 13:33:12.16	121.01	32.84	-35.1	-36.0	24.0	0.00e+00	122	38	0	1479540736	44	5562
2026-01-07 13:33:13.17	121.35	32.74	-35.1	-36.0	24.0	0.00e+00	120	38	0	1482686464	44	5574
2026-01-07 13:33:14.18	121.68	32.65	-35.1	-36.0	24.1	0.00e+00	123	38	0	1485832192	44	5555
2026-01-07 13:33:15.19	122.02	32.56	-35.0	-35.9	23.9	0.00e+00	123	38	0	1488977920	44	5488
2026-01-07 13:33:16.20	122.35	32.46	-34.8	-35.7	24.2	0.00e+00	121	38	0	1492123648	44	5391
2026-01-07 13:33:17.21	122.69	32.37	-34.7	-35.7	24.3	0.00e+00	123	38	0	1495269376	42	6002
2026-01-07 13:33:18.22	123.02	32.27	-34.8	-35.7	24.3	0.00e+00	121	38	0	1498415104	42	6013
2026-01-07 13:33:19.23	123.34	32.17	-34.9	-35.8	24.2	0.00e+00	123	38	0	1501560832	42	6124
2026-01-07 13:33:20.24	123.67	32.08	-34.9	-35.8	24.2	0.00e+00	123	38	0	1504706560	42	6117
2026-01-07 13:33:21.25	123.99	31.98	-34.8	-35.7	24.2	0.00e+00	123	38	0	1507852288	42	6029
2026-01-07 13:33:22.26	124.32	31.88	-34.7	-35.7	24.1	0.00e+00	120	38	0	1510998016	42	5999
2026-01-07 13:33:23.27	124.64	31.78	-34.9	-35.8	24.1	0.00e+00	123	38	0	1514143744	42	6110
2026-01-07 13:33:24.28	124.95	31.68	-34.9	-35.8	24.1	0.00e+00	120	38	0	1517289472	42	6110
2026-01-07 13:33:25.29	125.27	31.58	-35.0	-35.9	24.0	0.00e+00	120	38	0	1520435200	42	6192
2026-01-07 13:33:26.30	125.59	31.48	-34.9	-35.8	24.3	0.00e+00	122	38	0	1523580928	42	6091
2026-01-07 13:33:27.31	125.90	31.38	-34.6	-35.5	24.6	0.00e+00	120	38	0	1526726656	42	5902
2026-01-07 13:33:28.32	126.21	31.27	-34.6	-35.5	24.7	0.00e+00	122	38	0	1529872384	42	5906
2026-01-07 13:33:29.33	126.52	31.17	-34.5	-35.3	24.8	0.00e+00	120	38	0	1533018112	42	5782
2026-01-07 13:33:30.34	126.82	31.07	-34.5	-35.4	24.7	0.00e+00	122	38	0	1536163840	42	5794
2026-01-07 13:33:31.35	127.13	30.96	-34.7	-35.6	24.5	0.00e+00	121	38	0	1539309568	42	5931
2026-01-07 13:33:32.36	127.43	30.86	-34.9	-35.8	24.4	0.00e+00	123	38	0	1542455296	42	6085
2026-01-07 13:33:33.37	127.73	30.75	-34.8	-35.7	24.5	0.00e+00	123	38	0	1545601024	42	6029
2026-01-07 13:33:34.38	128.03	30.65	-34.9	-35.8	24.5	0.00e+00	123	38	0	1548746752	42	6087
2026-01-07 13:33:35.39	128.33	30.54	-34.8	-35.7	24.5	0.00e+00	123	38	0	1551892480	42	6018
2026-01-07 13:33:36.40	128.62	30.43	-34.7	-35.6	24.7	0.00e+00	123	38	0	1555038208	42	5949
2026-01-07 13:33:37.41	128.92	30.33	-34.5	-35.3	24.8	0.00e+00	123	38	0	1558183936	42	5773
2026-01-07 13:33:38.42	129.21	30.22	-34.2	-35.1	24.8	0.00e+00	123	38	0	1561329664	42	5635
2026-01-07 13:33:39.43	129.50	30.11	-34.3	-35.2	24.6	0.00e+00	123	38	0	1564475392	42	5681
2026-01-07 13:33:40.44	129.79	30.01	-34.1	-35.0	24.7	0.00e+00	123	38	0	1567621120	42	5545
2026-01-07 13:33:41.45	130.07	29.90	-34.1	-35.0	24.7	0.00e+00	120	38	0	1570766848	42	5549
2026-01-07 13:33:42.46	130.36	29.79	-34.0	-34.9	24.5	0.00e+00	123	38	0	1573912576	42	5491
2026-01-07 13:33:43.47	130.64	29.68	-34.2	-35.1	24.7	0.00e+00	123	38	0	1577058304	42	5633
2026-01-07 13:33:44.48	130.92	29.57	-34.1	-35.0	24.8	0.00e+00	122	38	0	1580204032	42	5564
2026-01-07 13:33:45.49	131.20	29.46	-34.0	-34.9	24.9	0.00e+00	120	38	0	1583349760	42	5474
2026-01-07 13:33:46.50	131.47	29.35	-34.2	-35.1	24.8	0.00e+00	123	38	0	1586495488	42	5603
2026-01-07 13:33:47.51	131.75	29.24	-34.2	-35.1	24.8	0.00e+00	122	38	0	1589641216	42	5640
2026-01-07 13:33:48.52	132.02	29.13	-34.3	-35.2	24.8	0.00e+00	123	38	0	1592786944	42	5674
2026-01-07 13:33:49.53	132.29	29.02	-34.4	-35.3	24.6	0.00e+00	123	38	0	1596981248	42	5738
2026-01-07 13:33:50.54	132.56	28.91	-34.6	-35.4	24.4	0.00e+00	123	38	0	1600126976	42	5850
2026-01-07 13:33:51.55	132.83	28.80	-34.8	-35.7	24.3	0.00e+00	123	38	0	1602224128	42	6010
2026-01-07 13:33:52.56	133.10	28.69	-35.0	-35.9	24.3	0.00e+00	122	38	0	1605369856	42	6152
2026-01-07 13:33:53.57	133.36	28.57	-35.0	-35.9	24.4	0.00e+00	120	38	0	1608515584	42	6173
2026-01-07 13:33:54.58	133.62	28.46	-34.8	-35.7	24.5	0.00e+00	123	38	0	1612709888	42	6020
2026-01-07 13:33:55.59	133.88	28.35	-34.7	-35.5	24.6	0.00e+00	120	38	0	1615855616	42	5921
2026-01-07 13:33:56.60	134.14	28.24	-34.3	-35.2	24.7	0.00e+00	122	38	0	1619001344	42	5708
2026-01-07 13:33:57.61	134.40	28.13	-34.3	-35.2	24.8	0.00e+00	120	38	0	1622147072	42	5679
2026-01-07 13:33:58.62	134.65	28.01	-34.3	-35.2	24.9	0.00e+00	123	38	0	1624244224	42	5667
2026-01-07 13:33:59.63	134.90	27.90	-34.3	-35.2	24.8	0.00e+00	122	38	0	1628438528	42	5677
2026-01-07 13:34:00.65	135.16	27.79	-34.1	-35.0	25.0	0.00e+00	122	38	0	1631584256	42	5568
2026-01-07 13:34:01.66	135.41	27.67	-34.2	-35.1	24.8	0.00e+00	120	38	0	1634729984	42	5608
2026-01-07 13:34:02.67	135.66	27.56	-34.4	-35.2	24.8	0.00e+00	122	38	0	1637875712	42	5710
2026-01-07 13:34:03.68	135.90	27.45	-34.2	-35.0	25.0	0.00e+00	122	38	0	1641021440	42	5568
2026-01-07 13:34:04.69	136.15	27.33	-34.2	-35.1	24.9	0.00e+00	123	38	0	1644167168	42	5601
2026-01-07 13:34:05.70	136.39	27.22	-34.3	-35.1	24.9	0.00e+00	120	38	0	1647312896	42	5654
2026-01-07 13:34:06.71	136.63	27.11	-34.2	-35.0	25.0	0.00e+00	123	38	0	1650458624	42	5587
2026-01-07 13:34:07.72	136.87	26.99	-34.1	-35.0	25.0	0.00e+00	123	38	0	1653604352	42	5541
2026-01-07 13:34:08.73	137.11	26.88	-34.2	-35.0	25.0	0.00e+00	122	38	0	1656750080	42	5583
2026-01-07 13:34:09.74	137.35	26.77	-34.0	-34.9	25.0	0.00e+00	123	38	0	1659895808	42	5491
2026-01-07 13:34:10.75	137.58	26.65	-34.1	-35.0	24.9	0.00e+00	122	38	0	1663041536	42	5564
2026-01-07 13:34:11.76	137.81	26.54	-34.3	-35.2	24.8	0.00e+00	121	38	0	1666187264	42	5682
2026-01-07 13:34:12.77	138.04	26.43	-34.3	-35.2	24.8	0.00e+00	123	38	0	1669332992	42	5685
2026-01-07 13:34:13.78	138.27	26.31	-34.3	-35.2	24.9	0.00e+00	123	38	0	1672478720	42	5691
2026-01-07 13:34:14.79	138.50	26.20	-34.4	-35.2	24.8	0.00e+00	123	38	0	1675624448	42	5724
2026-01-07 13:34:15.80	138.73	26.09	-34.2	-35.0	24.9	0.00e+00	122	38	0	1678770176	42	5579
2026-01-07 13:34:16.80	138.95	25.97	-33.9	-34.7	25.1	0.00e+00	122	38	0	1681915904	42	5402
2026-01-07 13:34:17.81	139.18	25.86	-33.8	-34.7	25.1	0.00e+00	120	38	0	1685061632	42	5373
2026-01-07 13:34:18.82	139.40	25.75	-33.8	-34.6	25.2	0.00e+00	123	38	0	1688207360	42	5321
2026-01-07 13:34:19.83	139.62	25.63	-33.7	-34.6	25.3	0.00e+00	122	38	0	1691353088	42	5301
2026-01-07 13:34:20.84	139.84	25.52	-33.7	-34.5	25.3	0.00e+00	122	38	0	1694498816	40	5905
2026-01-07 13:34:21.85	140.05	25.41	-33.7	-34.5	25.3	0.00e+00	122	38	0	1697644544	40	5899
2026-01-07 13:34:22.86	140.27	25.29	-33.8	-34.6	25.1	0.00e+00	123	38	0	1700790272	40	5994
2026-01-07 13:34:23.87	140.48	25.18	-34.1	-35.0	24.9	0.00e+00	120	38	0	1703936000	40	6236
2026-01-07 13:34:24.88	140.70	25.07	-34.3	-35.1	24.9	0.00e+00	122	38	0	1707081728	40	6344
2026-01-07 13:34:25.89	140.91	24.95	-33.9	-34.7	25.1	0.00e+00	123	38	0	1710227456	40	6064
2026-01-07 13:34:26.90	141.12	24.84	-33.9	-34.8	24.9	0.00e+00	123	38	0	1713373184	40	6067
2026-01-07 13:34:27.91	141.33	24.73	-33.8	-34.7	25.0	0.00e+00	120	38	0	1716518912	40	6040
2026-01-07 13:34:28.92	141.53	24.62	-34.0	-34.9	24.9	0.00e+00	122	38	0	1719664640	40	6140
2026-01-07 13:34:29.93	141.74	24.50	-33.7	-34.6	25.0	0.00e+00	122	38	0	1722810368	40	5952
2026-01-07 13:34:30.94	141.94	24.39	-33.8	-34.7	24.9	0.00e+00	122	38	0	1725956096	40	6034
2026-01-07 13:34:31.95	142.15	24.28	-33.8	-34.7	25.0	0.00e+00	122	38	0	1729101824	40	6046
2026-01-07 13:34:32.96	142.35	24.17	-33.9	-34.7	25.0	0.00e+00	123	38	0	1732247552	40	6048
2026-01-07 13:34:33.97	142.55	24.05	-33.8	-34.6	25.0	0.00e+00	122	38	0	1735393280	40	5980
2026-01-07 13:34:34.98	142.74	23.94	-33.8	-34.7	25.0	0.00e+00	120	38	0	1738539008	40	6023
2026-01-07 13:34:36.00	142.94	23.83	-33.8	-34.7	25.1	0.00e+00	123	38	0	1741684736	40	6025
2026-01-07 13:34:37.01	143.14	23.72	-33.9	-34.8	25.0	0.00e+00	123	38	0	1744830464	40	6102
2026-01-07 13:34:38.02	143.33	23.61	-33.8	-34.7	25.1	0.00e+00	123	38	0	1747976192	40	5995
2026-01-07 13:34:39.03	143.53	23.49	-33.9	-34.7	25.0	0.00e+00	120	38	0	1751121920	40	6043
2026-01-07 13:34:40.04	143.72	23.38	-34.0	-34.9	24.9	0.00e+00	123	38	0	1754267648	40	6164
2026-01-07 13:34:41.05	143.91	23.27	-34.0	-34.9	24.9	0.00e+00	122	38	0	1757413376	40	6167
2026-01-07 13:34:42.06	144.10	23.16	-34.0	-34.9	24.8	0.00e+00	123	38	0	1760559104	40	6189
2026-01-07 13:34:43.06	144.28	23.05	-34.2	-35.1	24.6	0.00e+00	122	38	0	1763704832	40	6307
2026-01-07 13:34:44.07	144.47	22.94	-34.3	-35.2	24.6	0.00e+00	123	38	0	1766850560	40	6376
2026-01-07 13:34:45.08	144.66	22.83	-34.3	-35.2	24.6	0.00e+00	123	38	0	1769996288	40	6376
2026-01-07 13:34:46.09	144.84	22.72	-34.4	-35.3	24.6	0.00e+00	123	38	0	1773142016	40	6426
2026-01-07 13:34:47.10	145.02	22.61	-34.3	-35.1	24.6	0.00e+00	123	38	0	1776287744	40	6346
2026-01-07 13:34:48.11	145.20	22.50	-34.2	-35.1	24.6	0.00e+00	123	38	0	1779433472	40	6346
2026-01-07 13:34:49.12	145.38	22.39	-34.2	-35.1	24.6	0.00e+00	123	38	0	1782579200	40	6336
2026-01-07 13:34:50.13	145.56	22.28	-34.3	-35.1	24.7	0.00e+00	122	38	0	1785724928	40	6339
2026-01-07 13:34:51.14	145.74	22.17	-34.4	-35.3	24.5	0.00e+00	122	38	0	1788870656	40	6462
2026-01-07 13:34:52.15	145.92	22.06	-34.4	-35.3	24.5	0.00e+00	120	38	0	1792016384	40	6474
2026-01-07 13:34:53.16	146.09	21.95	-34.4	-35.3	24.5	0.00e+00	123	38	0	1795162112	40	6469
2026-01-07 13:34:54.18	146.27	21.84	-34.5	-35.4	24.4	0.00e+00	120	38	0	1798307840	40	6560
2026-01-07 13:34:55.18	146.44	21.73	-34.5	-35.3	24.5	0.00e+00	123	38	0	1801453568	40	6497
2026-01-07 13:34:56.19	146.61	21.63	-34.5	-35.4	24.4	0.00e+00	122	38	0	1804599296	40	6549
2026-01-07 13:34:57.20	146.78	21.52	-34.7	-35.6	24.3	0.00e+00	123	38	0	1807745024	40	6655
2026-01-07 13:34:58.22	146.95	21.41	-34.8	-35.7	24.3	0.00e+00	122	38	0	1810890752	42	6016
2026-01-07 13:34:59.23	147.12	21.30	-34.8	-35.7	24.4	0.00e+00	122	38	0	1814036480	42	6024
2026-01-07 13:35:00.23	147.29	21.19	-34.8	-35.7	24.4	0.00e+00	122	38	0	1817182208	42	6004
2026-01-07 13:35:01.25	147.46	21.09	-34.9	-35.8	24.3	0.00e+00	122	38	0	1820327936	42	6079
2026-01-07 13:35:02.26	147.62	20.98	-34.9	-35.8	24.3	0.00e+00	122	38	0	1823473664	42	6094
2026-01-07 13:35:03.27	147.78	20.87	-34.6	-35.4	24.5	0.00e+00	123	38	0	1826619392	42	5855
2026-01-07 13:35:04.28	147.95	20.77	-34.6	-35.5	24.5	0.00e+00	123	38	0	1829765120	42	5872
2026-01-07 13:35:05.29	148.11	20.66	-34.6	-35.5	24.3	0.00e+00	123	38	0	1832910848	42	5913
2026-01-07 13:35:06.30	148.27	20.55	-34.7	-35.6	24.4	0.00e+00	122	38	0	1836056576	42	5938
2026-01-07 13:35:07.30	148.43	20.45	-34.8	-35.7	24.3	0.00e+00	123	38	0	1839202304	42	6016
2026-01-07 13:35:08.32	148.59	20.34	-34.8	-35.8	24.3	0.00e+00	122	38	0	1842348032	42	6067
2026-01-07 13:35:09.32	148.74	20.24	-34.6	-35.5	24.5	0.00e+00	123	38	0	1845493760	42	5924
2026-01-07 13:35:10.34	148.90	20.13	-34.6	-35.5	24.5	0.00e+00	122	38	0	1848639488	42	5888
2026-01-07 13:35:11.35	149.06	20.03	-34.5	-35.4	24.7	0.00e+00	123	38	0	1851785216	42	5801
2026-01-07 13:35:12.35	149.21	19.92	-34.5	-35.4	24.6	0.00e+00	123	38	0	1854930944	42	5793
2026-01-07 13:35:13.36	149.36	19.82	-34.5	-35.4	24.6	0.00e+00	123	38	0	1858076672	42	5797
2026-01-07 13:35:14.37	149.51	19.71	-34.1	-35.0	24.9	0.00e+00	123	38	0	1861222400	42	5555
2026-01-07 13:35:15.38	149.67	19.61	-34.2	-35.1	24.8	0.00e+00	122	38	0	1864368128	42	5614
2026-01-07 13:35:16.39	149.82	19.50	-34.1	-35.0	24.8	0.00e+00	123	38	0	1867513856	42	5539
2026-01-07 13:35:17.40	149.97	19.40	-34.1	-35.0	24.8	0.00e+00	123	38	0	1870659584	42	5554
2026-01-07 13:35:18.41	150.11	19.30	-34.0	-34.9	24.9	0.00e+00	123	38	0	1873805312	42	5492
2026-01-07 13:35:19.42	150.26	19.19	-34.2	-35.0	24.8	0.00e+00	123	38	0	1876951040	42	5585
2026-01-07 13:35:20.43	150.41	19.09	-34.0	-34.9	24.9	0.00e+00	120	38	0	1880096768	42	5503
2026-01-07 13:35:21.44	150.55	18.99	-34.0	-34.9	24.9	0.00e+00	123	38	0	1883242496	42	5514
2026-01-07 13:35:22.44	150.70	18.89	-34.1	-35.0	24.8	0.00e+00	123	38	0	1886388224	42	5547
2026-01-07 13:35:23.46	150.84	18.78	-34.1	-35.0	24.9	0.00e+00	123	38	0	1889533952	42	5564
2026-01-07 13:35:24.47	150.98	18.68	-34.1	-34.9	24.9	0.00e+00	122	38	0	1892679680	42	5519
2026-01-07 13:35:25.48	151.13	18.58	-34.2	-35.0	24.8	0.00e+00	123	38	0	1895825408	42	5577
2026-01-07 13:35:26.48	151.26	18.48	-34.2	-35.1	24.7	0.00e+00	123	38	0	1898971136	42	5626
2026-01-07 13:35:27.50	151.41	18.38	-34.4	-35.2	24.6	0.00e+00	123	38	0	1902116864	42	5715
2026-01-07 13:35:28.50	151.54	18.28	-34.4	-35.2	24.7	0.00e+00	123	38	0	1905262592	42	5715
2026-01-07 13:35:29.51	151.68	18.18	-34.3	-35.2	24.6	0.00e+00	123	38	0	1908408320	42	5713
2026-01-07 13:35:30.52	151.82	18.08	-34.4	-35.3	24.6	0.00e+00	120	38	0	1912602624	42	5771
2026-01-07 13:35:31.53	151.96	17.98	-34.5	-35.4	24.5	0.00e+00	123	38	0	1914699776	42	5839
2026-01-07 13:35:32.54	152.09	17.88	-34.4	-35.3	24.5	0.00e+00	120	38	0	1917845504	42	5749
2026-01-07 13:35:33.55	152.23	17.78	-34.6	-35.5	24.5	0.00e+00	122	38	0	1920991232	42	5873
2026-01-07 13:35:34.56	152.36	17.68	-34.6	-35.5	24.3	0.00e+00	122	38	0	1924136960	42	5859
2026-01-07 13:35:35.57	152.49	17.58	-34.4	-35.3	24.5	0.00e+00	123	38	0	1928331264	42	5763
2026-01-07 13:35:36.57	152.62	17.48	-34.5	-35.4	24.5	0.00e+00	120	38	0	1931476992	42	5809
2026-01-07 13:35:37.58	152.75	17.38	-34.6	-35.5	24.3	0.00e+00	123	38	0	1934622720	42	5899
2026-01-07 13:35:38.59	152.89	17.29	-34.7	-35.6	24.2	0.00e+00	122	38	0	1937768448	42	5980
2026-01-07 13:35:39.60	153.01	17.19	-34.8	-35.8	24.1	0.00e+00	120	38	0	1939865600	42	6065
2026-01-07 13:35:40.61	153.14	17.09	-35.0	-35.9	24.0	0.00e+00	122	38	0	1943011328	42	6193
2026-01-07 13:35:41.62	153.27	16.99	-35.3	-36.2	23.7	0.00e+00	122	38	0	1947205632	42	6410
2026-01-07 13:35:42.63	153.40	16.89	-35.6	-36.6	23.3	0.00e+00	123	38	0	1950351360	42	6696
2026-01-07 13:35:43.64	153.53	16.80	-35.9	-36.9	23.0	0.00e+00	123	38	0	1953497088	44	6189
2026-01-07 13:35:44.65	153.65	16.70	-36.3	-37.3	22.6	0.00e+00	123	38	0	1956642816	44	6462
2026-01-07 13:35:45.66	153.78	16.60	-36.6	-37.7	22.2	0.00e+00	123	38	0	1959788544	44	6786
2026-01-07 13:35:46.67	153.90	16.51	-37.0	-38.1	21.7	0.00e+00	123	38	0	1962934272	46	6317
2026-01-07 13:35:47.68	154.02	16.41	-37.4	-38.6	21.3	0.00e+00	120	38	0	1966080000	46	6653
2026-01-07 13:35:48.69	154.15	16.32	-37.8	-39.0	20.9	0.00e+00	123	38	0	1969225728	46	6963
2026-01-07 13:35:49.70	154.27	16.22	-38.2	-39.4	20.5	0.00e+00	122	38	0	1972371456	48	6505
2026-01-07 13:35:50.71	154.39	16.12	-38.5	-39.7	20.1	0.00e+00	124	38	0	1975517184	48	6748
2026-01-07 13:35:51.73	154.51	16.03	-38.9	-40.1	19.7	0.00e+00	123	38	0	1978662912	50	6328
2026-01-07 13:35:52.73	154.63	15.94	-39.1	-40.5	19.3	0.00e+00	123	38	0	1981808640	50	6579
2026-01-07 13:35:53.74	154.75	15.84	-39.4	-40.7	19.0	0.00e+00	123	38	0	1984954368	50	6794
2026-01-07 13:35:54.75	154.87	15.75	-39.6	-41.0	18.8	0.00e+00	120	38	0	1988100096	50	7008
2026-01-07 13:35:55.76	154.98	15.65	-39.5	-40.9	18.9	0.00e+00	123	38	0	1991245824	50	6913
