passes_logs/2026/01/07/R4.6S_Anadyr/R4.6S_Anadyr__20260107_043523_FENGYUN_3E_rec.log

#Pass ID: 20260107_043523_FENGYUN 3E
#Satellite: FENGYUN 3E
#Configuration: FENGYUN 3E
#almurnet v.1.7.20251203
#Start time: 2026-01-07 04:35:26

#Version: 2.2.20231116
#Station: R4.6S_Anadyr
#Location: 177.4865 lon 64.73178 lat
#TLE: 1 49008U 21062A   26005.56299987  .00000339  00000+0  18069-3 0  9991
#TLE: 2 49008  98.7472  10.8019 0001562 158.0357 202.0886 14.19884907233502

#Time	Az	El	Level	Level2	SNR	BER	BlckErr	Temp	State	Recorded	gain1	gain2
2026-01-07 04:35:26.02	158.57	0.12	-49.3	-67.1	3.5	3.02e+01	0	31	0	0	60	87317
2026-01-07 04:35:26.96	158.58	0.18	-48.9	-60.2	3.6	8.44e-01	0	32	104	0	60	36977
2026-01-07 04:35:27.97	158.58	0.24	-48.8	-60.2	3.6	8.46e-01	0	33	104	0	60	36848
2026-01-07 04:35:28.98	158.59	0.30	-48.9	-60.2	3.6	8.45e-01	0	33	104	0	60	36878
2026-01-07 04:35:29.99	158.60	0.36	-49.0	-60.2	3.6	8.45e-01	0	33	104	0	60	36836
2026-01-07 04:35:31.00	158.60	0.42	-48.9	-60.3	3.6	8.46e-01	0	33	104	0	60	37253
2026-01-07 04:35:32.01	158.61	0.49	-49.0	-60.2	3.6	8.44e-01	0	33	104	0	60	37161
2026-01-07 04:35:33.02	158.62	0.55	-49.0	-60.3	3.6	8.45e-01	0	33	104	0	60	37235
2026-01-07 04:35:34.03	158.62	0.61	-48.9	-60.1	3.6	8.44e-01	0	33	104	0	60	36644
2026-01-07 04:35:35.04	158.63	0.67	-48.8	-60.0	3.6	8.45e-01	0	33	104	0	60	36341
2026-01-07 04:35:36.05	158.64	0.73	-48.6	-59.9	3.6	8.47e-01	0	33	104	0	60	35931
2026-01-07 04:35:37.06	158.64	0.80	-48.6	-59.8	3.6	8.45e-01	0	33	104	0	60	35465
2026-01-07 04:35:38.07	158.65	0.86	-48.4	-59.6	3.6	8.45e-01	0	33	104	0	60	34412
2026-01-07 04:35:39.08	158.65	0.92	-46.8	-58.1	3.6	8.45e-01	0	33	104	0	60	28887
2026-01-07 04:35:40.08	158.66	0.98	-47.7	-58.8	3.6	8.44e-01	0	33	104	0	60	31610
2026-01-07 04:35:41.10	158.67	1.05	-47.6	-58.7	3.6	8.45e-01	0	33	104	0	60	31102
2026-01-07 04:35:42.11	158.67	1.11	-47.6	-58.8	3.6	8.44e-01	0	33	104	0	60	31302
2026-01-07 04:35:43.12	158.68	1.17	-47.6	-58.7	3.6	8.45e-01	0	33	104	0	60	31136
2026-01-07 04:35:44.13	158.69	1.23	-47.6	-58.7	3.6	8.45e-01	0	33	104	0	60	31176
2026-01-07 04:35:45.14	158.69	1.30	-47.5	-58.7	3.6	8.45e-01	0	33	104	0	60	31260
2026-01-07 04:35:46.15	158.70	1.36	-47.5	-58.7	3.6	8.45e-01	0	33	104	0	60	31125
2026-01-07 04:35:47.16	158.71	1.42	-47.5	-58.7	3.6	8.46e-01	0	33	104	0	60	31113
2026-01-07 04:35:48.17	158.71	1.49	-47.5	-58.6	3.6	8.44e-01	0	33	104	0	60	30843
2026-01-07 04:35:49.17	158.72	1.55	-47.5	-58.6	3.6	8.45e-01	0	33	104	0	60	30615
2026-01-07 04:35:50.18	158.73	1.61	-47.5	-58.5	3.6	8.44e-01	0	33	104	0	60	30437
2026-01-07 04:35:51.19	158.73	1.68	-47.5	-58.4	3.6	8.45e-01	0	33	104	0	60	30125
2026-01-07 04:35:52.20	158.74	1.74	-47.5	-58.3	3.6	8.46e-01	0	33	104	0	60	29597
2026-01-07 04:35:53.21	158.75	1.81	-47.5	-58.2	3.6	8.45e-01	0	33	104	0	60	29310
2026-01-07 04:35:54.22	158.75	1.87	-47.5	-58.1	3.6	8.44e-01	0	33	104	0	60	28958
2026-01-07 04:35:55.23	158.76	1.94	-47.5	-58.1	3.6	8.47e-01	0	33	104	0	60	28878
2026-01-07 04:35:56.24	158.77	2.00	-47.5	-58.2	3.6	8.45e-01	0	33	104	0	60	29303
2026-01-07 04:35:57.25	158.77	2.07	-47.5	-58.3	3.6	8.44e-01	0	33	104	0	60	29763
2026-01-07 04:35:58.26	158.78	2.13	-47.5	-58.5	3.6	8.45e-01	0	33	104	0	60	30364
2026-01-07 04:35:59.27	158.79	2.20	-47.5	-58.5	3.6	8.46e-01	0	33	104	0	60	30484
2026-01-07 04:36:00.28	158.79	2.26	-47.5	-58.6	3.6	8.46e-01	0	33	104	0	60	30749
2026-01-07 04:36:01.29	158.80	2.33	-47.5	-58.6	3.6	8.45e-01	0	33	104	0	60	30602
2026-01-07 04:36:02.30	158.81	2.39	-47.5	-58.5	3.5	8.44e-01	0	34	104	0	60	30527
2026-01-07 04:36:03.31	158.81	2.46	-47.5	-58.3	3.6	8.44e-01	0	33	104	0	60	29648
2026-01-07 04:36:04.32	158.82	2.52	-47.5	-58.1	3.6	8.46e-01	0	34	104	0	60	29052
2026-01-07 04:36:05.33	158.83	2.59	-47.4	-57.6	3.5	8.45e-01	0	33	104	0	60	27284
2026-01-07 04:36:06.34	158.83	2.66	-47.4	-57.1	3.6	8.46e-01	0	33	104	0	60	25738
2026-01-07 04:36:07.35	158.84	2.72	-47.3	-56.7	3.7	8.44e-01	0	33	104	0	60	24800
2026-01-07 04:36:08.36	158.85	2.79	-47.3	-56.7	3.7	8.44e-01	0	33	104	0	60	24667
2026-01-07 04:36:09.37	158.86	2.86	-47.4	-56.9	3.6	8.44e-01	0	34	104	0	60	25352
2026-01-07 04:36:10.38	158.86	2.92	-47.4	-57.7	3.6	8.46e-01	0	34	104	0	60	27770
2026-01-07 04:36:11.39	158.87	2.99	-47.5	-58.3	3.6	8.45e-01	0	33	104	0	60	29586
2026-01-07 04:36:12.40	158.88	3.06	-47.3	-56.9	3.6	8.46e-01	0	34	104	0	60	25440
2026-01-07 04:36:13.40	158.88	3.12	-46.8	-53.7	4.7	8.42e-01	0	33	104	0	60	17464
2026-01-07 04:36:14.42	158.89	3.19	-45.8	-49.5	7.4	1.95e-01	0	33	0	3145728	60	10841
2026-01-07 04:36:15.43	158.90	3.26	-44.5	-47.2	10.4	1.88e-02	0	34	0	10485760	60	8287
2026-01-07 04:36:16.44	158.90	3.33	-43.1	-45.1	12.8	2.07e-04	0	34	0	17825792	60	6483
2026-01-07 04:36:17.44	158.91	3.40	-41.7	-43.2	14.7	2.20e-06	0	34	0	25165824	58	5887
2026-01-07 04:36:18.45	158.92	3.46	-40.5	-41.8	15.9	0.00e+00	0	34	0	32505856	54	6256
2026-01-07 04:36:19.46	158.93	3.53	-39.7	-40.9	16.9	0.00e+00	0	33	0	39845888	54	5642
2026-01-07 04:36:20.47	158.93	3.60	-39.2	-40.2	17.6	0.00e+00	0	34	0	47185920	52	5878
2026-01-07 04:36:21.48	158.94	3.67	-38.8	-39.9	17.9	0.00e+00	0	34	0	54525952	52	5634
2026-01-07 04:36:22.49	158.95	3.74	-39.0	-40.1	17.7	0.00e+00	0	34	0	61865984	52	5773
2026-01-07 04:36:23.50	158.95	3.81	-39.4	-40.4	17.2	0.00e+00	0	34	0	68157440	52	6023
2026-01-07 04:36:24.51	158.96	3.88	-40.9	-42.2	13.2	0.00e+00	0	34	0	75497472	52	7416
2026-01-07 04:36:25.52	158.97	3.95	-37.3	-38.0	19.4	6.52e-02	0	33	104	77594624	54	4066
2026-01-07 04:36:26.53	158.98	4.02	-40.0	-41.3	14.5	0.00e+00	0	34	0	81788928	48	8412
2026-01-07 04:36:27.54	158.98	4.09	-39.6	-40.8	6.1	8.21e-01	0	34	104	82837504	58	4429
2026-01-07 04:36:28.55	158.99	4.16	-36.1	-36.9	18.3	0.00e+00	0	34	104	82837504	42	7163
2026-01-07 04:36:29.56	159.00	4.23	-44.0	-45.9	12.2	2.28e-01	0	33	0	84934656	60	7138
2026-01-07 04:36:30.57	159.01	4.30	-37.4	-38.2	19.5	0.00e+00	0	34	0	92274688	48	5848
2026-01-07 04:36:31.58	159.01	4.37	-35.7	-36.3	21.5	0.00e+00	0	34	0	99614720	46	5289
2026-01-07 04:36:32.59	159.02	4.44	-34.7	-35.3	22.4	0.00e+00	0	33	0	106954752	42	5918
2026-01-07 04:36:33.60	159.03	4.51	-34.2	-34.8	22.7	0.00e+00	0	34	0	114294784	42	5611
2026-01-07 04:36:34.61	159.04	4.58	-34.3	-34.9	22.8	0.00e+00	0	34	0	121634816	42	5662
2026-01-07 04:36:35.61	159.04	4.65	-34.3	-34.9	22.7	0.00e+00	0	34	0	127926272	42	5669
2026-01-07 04:36:36.62	159.05	4.72	-34.3	-34.8	22.8	0.00e+00	0	34	0	136314880	42	5624
2026-01-07 04:36:37.63	159.06	4.79	-34.2	-34.8	22.9	0.00e+00	0	34	0	143654912	42	5611
2026-01-07 04:36:38.64	159.06	4.87	-34.1	-34.7	23.0	0.00e+00	0	34	0	149946368	42	5542
2026-01-07 04:36:39.65	159.07	4.94	-34.3	-34.9	22.8	0.00e+00	0	34	0	157286400	42	5654
2026-01-07 04:36:40.66	159.08	5.01	-34.2	-34.8	22.9	0.00e+00	0	34	0	164626432	42	5612
2026-01-07 04:36:41.67	159.09	5.08	-34.2	-34.8	23.0	0.00e+00	0	34	0	171966464	42	5581
2026-01-07 04:36:42.68	159.10	5.16	-34.1	-34.7	23.0	0.00e+00	0	34	0	179306496	42	5534
2026-01-07 04:36:43.69	159.10	5.23	-34.1	-34.7	23.0	0.00e+00	0	34	0	186646528	42	5540
2026-01-07 04:36:44.70	159.11	5.30	-34.2	-34.8	23.0	0.00e+00	0	34	0	193986560	42	5574
2026-01-07 04:36:45.71	159.12	5.37	-34.2	-34.8	23.0	0.00e+00	0	34	0	201326592	42	5572
2026-01-07 04:36:46.72	159.13	5.45	-34.2	-34.8	23.0	0.00e+00	0	34	0	208666624	42	5588
2026-01-07 04:36:47.73	159.13	5.52	-34.0	-34.6	23.3	0.00e+00	0	34	0	216006656	42	5478
2026-01-07 04:36:48.74	159.14	5.60	-33.9	-34.4	23.4	0.00e+00	0	34	0	223346688	40	6031
2026-01-07 04:36:49.75	159.15	5.67	-33.9	-34.4	23.3	0.00e+00	0	34	0	230686720	40	6021
2026-01-07 04:36:50.76	159.16	5.74	-34.0	-34.6	23.2	0.00e+00	0	34	0	238026752	40	6147
2026-01-07 04:36:51.77	159.16	5.82	-34.1	-34.7	23.1	0.00e+00	0	34	0	245366784	40	6180
2026-01-07 04:36:52.77	159.17	5.89	-34.3	-34.9	23.1	0.00e+00	0	34	0	252706816	40	6333
2026-01-07 04:36:53.78	159.18	5.97	-34.1	-34.7	23.2	0.00e+00	0	34	0	260046848	40	6183
2026-01-07 04:36:54.79	159.19	6.04	-34.0	-34.6	23.2	0.00e+00	0	34	0	267386880	40	6137
2026-01-07 04:36:55.80	159.20	6.12	-34.2	-34.7	23.2	0.00e+00	0	34	0	274726912	40	6241
2026-01-07 04:36:56.81	159.20	6.19	-34.1	-34.7	23.0	0.00e+00	0	34	0	281018368	40	6205
2026-01-07 04:36:57.82	159.21	6.27	-33.8	-34.4	23.4	0.00e+00	0	34	0	289406976	40	6002
2026-01-07 04:36:58.83	159.22	6.35	-33.8	-34.4	23.5	0.00e+00	0	34	0	296747008	40	5978
2026-01-07 04:36:59.84	159.23	6.42	-33.7	-34.2	23.6	0.00e+00	0	34	0	303038464	40	5876
2026-01-07 04:37:00.85	159.24	6.50	-33.7	-34.2	23.6	0.00e+00	0	34	0	310378496	40	5879
2026-01-07 04:37:01.86	159.24	6.57	-33.5	-34.1	23.7	0.00e+00	0	34	0	317718528	40	5783
2026-01-07 04:37:02.87	159.25	6.65	-33.5	-34.1	23.8	0.00e+00	0	34	0	325058560	40	5764
2026-01-07 04:37:03.88	159.26	6.73	-33.6	-34.1	23.8	0.00e+00	0	34	0	332398592	40	5813
2026-01-07 04:37:04.89	159.27	6.81	-33.3	-33.9	24.0	0.00e+00	0	34	0	339738624	40	5649
2026-01-07 04:37:05.89	159.28	6.88	-33.5	-34.0	23.8	0.00e+00	0	34	0	347078656	40	5748
2026-01-07 04:37:06.90	159.28	6.96	-33.4	-34.0	23.9	0.00e+00	0	34	0	354418688	40	5724
2026-01-07 04:37:07.91	159.29	7.04	-33.3	-33.9	24.0	0.00e+00	0	34	0	361758720	40	5631
2026-01-07 04:37:08.92	159.30	7.12	-33.3	-33.9	23.9	0.00e+00	0	34	0	369098752	40	5653
2026-01-07 04:37:09.93	159.31	7.20	-33.4	-34.0	23.9	0.00e+00	0	34	0	376438784	40	5697
2026-01-07 04:37:10.94	159.32	7.27	-33.2	-33.7	24.2	0.00e+00	0	34	0	383778816	40	5558
2026-01-07 04:37:11.95	159.33	7.35	-33.3	-33.9	24.0	0.00e+00	0	34	0	391118848	40	5639
2026-01-07 04:37:12.96	159.33	7.43	-33.2	-33.7	24.2	0.00e+00	0	34	0	398458880	40	5551
2026-01-07 04:37:13.97	159.34	7.51	-33.2	-33.8	24.1	0.00e+00	0	34	0	405798912	40	5588
2026-01-07 04:37:14.98	159.35	7.59	-33.3	-33.9	24.1	0.00e+00	0	34	0	413138944	40	5635
2026-01-07 04:37:15.99	159.36	7.67	-33.3	-33.9	24.1	0.00e+00	0	34	0	420478976	40	5637
2026-01-07 04:37:17.00	159.37	7.75	-33.4	-34.0	24.0	0.00e+00	0	34	0	427819008	40	5721
2026-01-07 04:37:18.01	159.38	7.83	-33.2	-33.7	24.2	0.00e+00	0	34	0	434110464	40	5535
2026-01-07 04:37:19.02	159.38	7.91	-33.1	-33.6	24.2	0.00e+00	0	34	0	441450496	40	5502
2026-01-07 04:37:20.03	159.39	8.00	-33.0	-33.5	24.4	0.00e+00	0	34	0	449839104	40	5413
2026-01-07 04:37:21.04	159.40	8.08	-33.2	-33.7	24.1	0.00e+00	0	34	0	456130560	40	5550
2026-01-07 04:37:22.05	159.41	8.16	-32.9	-33.5	24.5	0.00e+00	0	34	0	463470592	40	5383
2026-01-07 04:37:23.06	159.42	8.24	-33.1	-33.6	24.3	0.00e+00	0	34	0	470810624	40	5467
2026-01-07 04:37:24.07	159.43	8.32	-33.2	-33.7	24.2	0.00e+00	0	34	0	478150656	40	5551
2026-01-07 04:37:25.08	159.44	8.40	-33.4	-33.9	24.0	0.00e+00	0	34	0	485490688	40	5688
2026-01-07 04:37:26.09	159.45	8.49	-33.0	-33.5	24.5	0.00e+00	0	34	0	492830720	40	5419
2026-01-07 04:37:27.10	159.45	8.57	-32.9	-33.4	24.5	0.00e+00	0	34	0	500170752	40	5359
2026-01-07 04:37:28.11	159.46	8.65	-33.0	-33.5	24.5	0.00e+00	0	34	0	507510784	40	5416
2026-01-07 04:37:29.12	159.47	8.74	-32.9	-33.4	24.5	0.00e+00	0	34	0	514850816	40	5334
2026-01-07 04:37:30.12	159.48	8.82	-32.9	-33.4	24.5	0.00e+00	0	34	0	522190848	40	5336
2026-01-07 04:37:31.14	159.49	8.91	-32.7	-33.3	24.7	0.00e+00	0	34	0	529530880	40	5266
2026-01-07 04:37:32.14	159.50	8.99	-32.8	-33.3	24.7	0.00e+00	0	34	0	536870912	38	5945
2026-01-07 04:37:33.15	159.51	9.07	-32.8	-33.4	24.6	0.00e+00	0	34	0	544210944	38	5967
2026-01-07 04:37:34.16	159.52	9.16	-32.8	-33.3	24.8	0.00e+00	0	34	0	551550976	38	5913
2026-01-07 04:37:35.17	159.53	9.24	-32.8	-33.3	24.7	0.00e+00	0	34	0	558891008	38	5934
2026-01-07 04:37:36.18	159.53	9.33	-32.8	-33.3	24.7	0.00e+00	0	34	0	566231040	38	5922
2026-01-07 04:37:37.19	159.54	9.41	-32.7	-33.3	24.8	0.00e+00	0	34	0	573571072	38	5897
2026-01-07 04:37:38.20	159.55	9.50	-32.5	-33.0	24.9	0.00e+00	0	34	0	579862528	38	5759
2026-01-07 04:37:39.21	159.56	9.59	-32.9	-33.4	24.6	0.00e+00	0	34	0	587202560	38	6004
2026-01-07 04:37:40.22	159.57	9.67	-32.8	-33.3	24.7	0.00e+00	0	34	0	595591168	38	5911
2026-01-07 04:37:41.23	159.58	9.76	-32.7	-33.2	24.9	0.00e+00	0	34	0	601882624	38	5882
2026-01-07 04:37:42.24	159.59	9.85	-32.6	-33.1	24.9	0.00e+00	0	34	0	609222656	38	5805
2026-01-07 04:37:43.25	159.60	9.94	-32.5	-33.1	25.0	0.00e+00	0	34	0	616562688	38	5771
2026-01-07 04:37:44.26	159.61	10.02	-32.5	-33.0	25.0	0.00e+00	0	34	0	623902720	38	5730
2026-01-07 04:37:45.27	159.62	10.11	-32.5	-33.0	25.0	0.00e+00	0	34	0	631242752	38	5760
2026-01-07 04:37:46.28	159.63	10.20	-32.6	-33.2	25.0	0.00e+00	0	34	0	638582784	38	5834
2026-01-07 04:37:47.29	159.64	10.29	-32.6	-33.2	24.8	0.00e+00	0	34	0	645922816	38	5843
2026-01-07 04:37:48.30	159.65	10.38	-32.8	-33.3	24.6	0.00e+00	0	34	0	653262848	38	5961
2026-01-07 04:37:49.31	159.66	10.47	-33.0	-33.5	24.6	0.00e+00	0	34	0	660602880	38	6072
2026-01-07 04:37:50.32	159.66	10.56	-32.4	-32.9	25.1	0.00e+00	0	34	0	667942912	38	5675
2026-01-07 04:37:51.33	159.67	10.65	-32.4	-32.9	25.1	0.00e+00	0	34	0	675282944	38	5646
2026-01-07 04:37:52.33	159.68	10.74	-32.4	-32.9	25.2	0.00e+00	0	34	0	682622976	38	5644
2026-01-07 04:37:53.34	159.69	10.83	-32.4	-32.9	25.1	0.00e+00	0	34	0	689963008	38	5674
2026-01-07 04:37:54.35	159.70	10.92	-32.4	-32.9	25.1	0.00e+00	0	34	0	697303040	38	5687
2026-01-07 04:37:55.36	159.71	11.01	-32.4	-32.9	25.1	0.00e+00	0	34	0	704643072	38	5676
2026-01-07 04:37:56.37	159.72	11.10	-32.2	-32.7	25.3	0.00e+00	0	34	0	711983104	38	5539
2026-01-07 04:37:57.39	159.73	11.20	-32.3	-32.8	25.2	0.00e+00	0	34	0	719323136	38	5591
2026-01-07 04:37:58.39	159.74	11.29	-32.5	-33.0	25.1	0.00e+00	0	34	0	726663168	38	5724
2026-01-07 04:37:59.40	159.75	11.38	-32.1	-32.6	25.4	0.00e+00	0	34	0	732954624	38	5475
2026-01-07 04:38:00.41	159.76	11.47	-32.3	-32.8	25.2	0.00e+00	0	34	0	740294656	38	5607
2026-01-07 04:38:01.42	159.77	11.57	-32.2	-32.8	25.3	0.00e+00	0	34	0	748683264	38	5567
2026-01-07 04:38:02.43	159.78	11.66	-32.4	-32.9	25.2	0.00e+00	0	34	0	754974720	38	5655
2026-01-07 04:38:03.44	159.79	11.76	-32.3	-32.8	25.2	0.00e+00	0	34	0	762314752	38	5626
2026-01-07 04:38:04.45	159.80	11.85	-32.1	-32.6	25.5	0.00e+00	0	34	0	769654784	38	5487
2026-01-07 04:38:05.46	159.81	11.95	-32.1	-32.6	25.4	0.00e+00	0	34	0	776994816	38	5495
2026-01-07 04:38:06.47	159.82	12.04	-32.0	-32.5	25.4	0.00e+00	0	34	0	784334848	38	5439
2026-01-07 04:38:07.48	159.83	12.14	-32.1	-32.6	25.5	0.00e+00	0	34	0	791674880	38	5450
2026-01-07 04:38:08.49	159.84	12.23	-32.1	-32.6	25.5	0.00e+00	0	34	0	799014912	38	5481
2026-01-07 04:38:09.49	159.85	12.33	-31.9	-32.4	25.6	0.00e+00	0	34	0	806354944	38	5362
2026-01-07 04:38:10.50	159.86	12.43	-32.1	-32.6	25.5	0.00e+00	0	34	0	813694976	38	5461
2026-01-07 04:38:11.51	159.87	12.52	-31.9	-32.4	25.7	0.00e+00	0	34	0	821035008	38	5318
2026-01-07 04:38:12.52	159.89	12.62	-31.9	-32.4	25.6	0.00e+00	0	34	0	828375040	38	5343
2026-01-07 04:38:13.53	159.90	12.72	-31.9	-32.4	25.7	0.00e+00	0	34	0	835715072	36	5984
2026-01-07 04:38:14.53	159.91	12.82	-31.8	-32.3	25.8	0.00e+00	0	34	0	843055104	36	5911
2026-01-07 04:38:15.54	159.92	12.92	-32.0	-32.5	25.6	0.00e+00	0	34	0	850395136	36	6092
2026-01-07 04:38:16.55	159.93	13.02	-31.7	-32.2	25.8	0.00e+00	0	34	0	856686592	36	5873
2026-01-07 04:38:17.57	159.94	13.12	-31.8	-32.3	25.8	0.00e+00	0	34	0	864026624	36	5931
2026-01-07 04:38:18.57	159.95	13.22	-31.6	-32.1	25.9	0.00e+00	0	34	0	872415232	36	5800
2026-01-07 04:38:19.58	159.96	13.32	-31.6	-32.1	25.9	0.00e+00	0	34	0	878706688	36	5823
2026-01-07 04:38:20.59	159.97	13.42	-31.8	-32.3	25.8	0.00e+00	0	34	0	886046720	36	5944
2026-01-07 04:38:21.60	159.98	13.52	-31.7	-32.2	25.9	0.00e+00	0	34	0	893386752	36	5847
2026-01-07 04:38:22.61	159.99	13.62	-31.6	-32.1	26.0	0.00e+00	0	34	0	900726784	36	5791
2026-01-07 04:38:23.62	160.00	13.72	-31.4	-31.9	26.1	0.00e+00	0	34	0	908066816	36	5673
2026-01-07 04:38:24.63	160.01	13.83	-31.6	-32.1	26.0	0.00e+00	0	34	0	915406848	36	5804
2026-01-07 04:38:25.64	160.03	13.93	-31.6	-32.0	26.0	0.00e+00	0	34	0	922746880	36	5758
2026-01-07 04:38:26.65	160.04	14.03	-31.5	-32.0	26.2	0.00e+00	0	34	0	930086912	36	5697
2026-01-07 04:38:27.66	160.05	14.14	-31.4	-31.9	26.2	0.00e+00	0	34	0	937426944	36	5654
2026-01-07 04:38:28.67	160.06	14.24	-31.3	-31.8	26.2	0.00e+00	0	34	0	944766976	36	5601
2026-01-07 04:38:29.68	160.07	14.35	-31.5	-32.0	26.1	0.00e+00	0	34	0	952107008	36	5704
2026-01-07 04:38:30.69	160.08	14.45	-31.3	-31.8	26.3	0.00e+00	0	34	0	959447040	36	5577
2026-01-07 04:38:31.70	160.09	14.56	-31.4	-31.9	26.2	0.00e+00	0	34	0	966787072	36	5655
2026-01-07 04:38:32.71	160.11	14.66	-31.4	-31.9	26.2	0.00e+00	0	34	0	974127104	36	5632
2026-01-07 04:38:33.72	160.12	14.77	-31.5	-32.0	26.0	0.00e+00	0	34	0	981467136	36	5751
2026-01-07 04:38:34.73	160.13	14.88	-31.4	-31.9	26.2	0.00e+00	0	34	0	988807168	36	5631
2026-01-07 04:38:35.74	160.14	14.99	-31.4	-31.9	26.2	0.00e+00	0	34	0	996147200	36	5648
2026-01-07 04:38:36.75	160.15	15.09	-31.2	-31.7	26.4	0.00e+00	0	34	0	1003487232	36	5529
2026-01-07 04:38:37.76	160.16	15.20	-31.2	-31.7	26.3	0.00e+00	0	34	0	1009778688	36	5563
2026-01-07 04:38:38.77	160.18	15.31	-31.1	-31.6	26.4	0.00e+00	0	34	0	1017118720	36	5487
2026-01-07 04:38:39.77	160.19	15.42	-31.4	-31.9	26.2	0.00e+00	0	34	0	1025507328	36	5643
2026-01-07 04:38:40.78	160.20	15.53	-31.2	-31.6	26.5	0.00e+00	0	34	0	1031798784	36	5489
2026-01-07 04:38:41.79	160.21	15.64	-31.1	-31.6	26.3	0.00e+00	0	34	0	1039138816	36	5482
2026-01-07 04:38:42.80	160.22	15.75	-31.1	-31.6	26.5	0.00e+00	0	34	0	1046478848	36	5473
2026-01-07 04:38:43.81	160.24	15.86	-31.1	-31.6	26.5	0.00e+00	0	34	0	1053818880	36	5475
2026-01-07 04:38:44.82	160.25	15.98	-31.1	-31.6	26.5	0.00e+00	0	34	0	1061158912	36	5453
2026-01-07 04:38:45.83	160.26	16.09	-31.1	-31.6	26.4	0.00e+00	0	34	0	1068498944	36	5451
2026-01-07 04:38:46.84	160.27	16.20	-31.3	-31.8	26.3	0.00e+00	0	34	0	1075838976	36	5593
2026-01-07 04:38:47.85	160.29	16.32	-31.1	-31.6	26.4	0.00e+00	0	34	0	1083179008	36	5482
2026-01-07 04:38:48.85	160.30	16.43	-31.0	-31.5	26.6	0.00e+00	0	34	0	1090519040	36	5402
2026-01-07 04:38:49.87	160.31	16.54	-30.9	-31.4	26.7	0.00e+00	0	34	0	1097859072	36	5316
2026-01-07 04:38:50.87	160.32	16.66	-30.9	-31.4	26.7	0.00e+00	0	34	0	1105199104	36	5318
2026-01-07 04:38:51.89	160.34	16.78	-31.0	-31.5	26.6	0.00e+00	0	34	0	1112539136	36	5406
2026-01-07 04:38:52.89	160.35	16.89	-31.0	-31.4	26.7	0.00e+00	0	34	0	1119879168	36	5367
2026-01-07 04:38:53.90	160.36	17.01	-31.0	-31.5	26.6	0.00e+00	0	34	0	1127219200	36	5417
2026-01-07 04:38:54.91	160.38	17.13	-30.9	-31.4	26.7	0.00e+00	0	34	0	1133510656	34	5984
2026-01-07 04:38:55.92	160.39	17.24	-30.8	-31.3	26.6	0.00e+00	0	34	0	1141899264	34	5948
2026-01-07 04:38:56.93	160.40	17.36	-30.8	-31.3	26.7	0.00e+00	0	34	0	1149239296	34	5900
2026-01-07 04:38:57.94	160.42	17.48	-30.8	-31.3	26.7	0.00e+00	0	34	0	1155530752	34	5909
2026-01-07 04:38:58.95	160.43	17.60	-30.9	-31.4	26.6	0.00e+00	0	34	0	1162870784	34	5985
2026-01-07 04:38:59.96	160.44	17.72	-30.8	-31.3	26.7	0.00e+00	0	34	0	1170210816	34	5934
2026-01-07 04:39:00.97	160.46	17.84	-30.6	-31.1	26.9	0.00e+00	0	34	0	1177550848	34	5809
2026-01-07 04:39:01.98	160.47	17.96	-30.8	-31.3	26.7	0.00e+00	0	34	0	1184890880	34	5924
2026-01-07 04:39:02.99	160.48	18.09	-30.7	-31.2	26.8	0.00e+00	0	34	0	1192230912	34	5854
2026-01-07 04:39:04.00	160.50	18.21	-30.7	-31.2	26.8	0.00e+00	0	34	0	1199570944	34	5852
2026-01-07 04:39:05.01	160.51	18.33	-30.8	-31.3	26.7	0.00e+00	0	34	0	1206910976	34	5908
2026-01-07 04:39:06.02	160.52	18.46	-30.7	-31.2	26.8	0.00e+00	0	34	0	1214251008	34	5849
2026-01-07 04:39:07.03	160.54	18.58	-30.7	-31.2	26.8	0.00e+00	0	34	0	1221591040	34	5861
2026-01-07 04:39:08.04	160.55	18.71	-30.6	-31.1	26.9	0.00e+00	0	34	0	1228931072	34	5807
2026-01-07 04:39:09.05	160.57	18.83	-30.7	-31.2	26.8	0.00e+00	0	34	0	1236271104	34	5857
2026-01-07 04:39:10.06	160.58	18.96	-30.6	-31.1	26.9	0.00e+00	0	34	0	1243611136	34	5803
2026-01-07 04:39:11.07	160.59	19.09	-30.4	-30.9	27.1	0.00e+00	0	34	0	1250951168	34	5669
2026-01-07 04:39:12.08	160.61	19.22	-30.4	-30.9	27.0	0.00e+00	0	34	0	1258291200	34	5684
2026-01-07 04:39:13.09	160.62	19.34	-30.4	-30.8	27.1	0.00e+00	0	34	0	1265631232	34	5625
2026-01-07 04:39:14.09	160.64	19.47	-30.5	-31.0	27.1	0.00e+00	0	34	0	1272971264	34	5716
2026-01-07 04:39:15.10	160.65	19.60	-30.3	-30.8	27.2	0.00e+00	0	34	0	1280311296	34	5583
2026-01-07 04:39:16.12	160.67	19.73	-30.3	-30.8	27.2	0.00e+00	0	34	0	1286602752	34	5583
2026-01-07 04:39:17.13	160.68	19.87	-30.3	-30.8	27.1	0.00e+00	0	34	0	1294991360	34	5603
2026-01-07 04:39:18.13	160.70	20.00	-30.3	-30.8	27.2	0.00e+00	0	34	0	1302331392	34	5571
2026-01-07 04:39:19.14	160.71	20.13	-30.0	-30.5	27.5	0.00e+00	0	34	0	1308622848	34	5393
2026-01-07 04:39:20.15	160.73	20.26	-29.9	-30.4	27.5	0.00e+00	0	34	0	1315962880	34	5334
2026-01-07 04:39:21.16	160.74	20.40	-29.9	-30.4	27.6	0.00e+00	0	34	0	1323302912	34	5355
2026-01-07 04:39:22.17	160.76	20.53	-29.8	-30.3	27.6	0.00e+00	0	34	0	1330642944	34	5269
2026-01-07 04:39:23.18	160.77	20.67	-29.9	-30.4	27.5	0.00e+00	0	34	0	1337982976	32	5980
2026-01-07 04:39:24.19	160.79	20.80	-29.8	-30.3	27.6	0.00e+00	0	34	0	1345323008	32	5939
2026-01-07 04:39:25.20	160.81	20.94	-29.8	-30.3	27.5	0.00e+00	0	34	0	1352663040	32	5923
2026-01-07 04:39:26.21	160.82	21.08	-29.5	-30.0	27.8	0.00e+00	0	34	0	1360003072	32	5727
2026-01-07 04:39:27.21	160.84	21.22	-29.6	-30.0	27.8	0.00e+00	0	34	0	1367343104	32	5756
2026-01-07 04:39:28.22	160.85	21.35	-29.5	-30.0	27.8	0.00e+00	0	34	0	1374683136	32	5715
2026-01-07 04:39:29.23	160.87	21.49	-29.6	-30.1	27.7	0.00e+00	0	34	0	1382023168	32	5790
2026-01-07 04:39:30.24	160.89	21.64	-29.5	-30.0	27.8	0.00e+00	0	34	0	1389363200	32	5706
2026-01-07 04:39:31.24	160.90	21.78	-29.5	-29.9	27.9	0.00e+00	0	34	0	1396703232	32	5678
2026-01-07 04:39:32.25	160.92	21.92	-29.6	-30.1	27.8	0.00e+00	0	34	0	1404043264	32	5766
2026-01-07 04:39:33.26	160.93	22.06	-29.5	-29.9	27.8	0.00e+00	0	34	0	1411383296	32	5686
2026-01-07 04:39:34.27	160.95	22.21	-29.7	-30.2	27.7	0.00e+00	0	34	0	1418723328	32	5831
2026-01-07 04:39:35.28	160.97	22.35	-29.5	-30.0	27.8	0.00e+00	0	34	0	1426063360	32	5720
2026-01-07 04:39:36.29	160.99	22.50	-29.7	-30.1	27.7	0.00e+00	0	34	0	1433403392	32	5827
2026-01-07 04:39:37.30	161.00	22.64	-29.6	-30.1	27.7	0.00e+00	0	34	0	1439694848	32	5797
2026-01-07 04:39:38.31	161.02	22.79	-29.8	-30.2	27.8	0.00e+00	0	34	0	1447034880	32	5879
2026-01-07 04:39:39.32	161.04	22.94	-29.9	-30.3	27.7	0.00e+00	0	34	0	1454374912	32	5949
2026-01-07 04:39:40.33	161.05	23.09	-29.6	-30.1	27.8	0.00e+00	0	34	0	1461714944	32	5762
2026-01-07 04:39:41.34	161.07	23.24	-29.7	-30.1	27.7	0.00e+00	0	34	0	1469054976	32	5803
2026-01-07 04:39:42.35	161.09	23.39	-29.6	-30.0	27.9	0.00e+00	0	34	0	1476395008	32	5746
2026-01-07 04:39:43.35	161.11	23.54	-29.4	-29.9	27.9	0.00e+00	0	34	0	1483735040	32	5652
2026-01-07 04:39:44.36	161.13	23.69	-29.4	-29.9	28.0	0.00e+00	0	34	0	1491075072	32	5647
2026-01-07 04:39:45.37	161.14	23.85	-29.5	-29.9	28.0	0.00e+00	0	34	0	1498415104	32	5676
2026-01-07 04:39:46.38	161.16	24.00	-29.4	-29.9	27.9	0.00e+00	0	34	0	1505755136	32	5658
2026-01-07 04:39:47.39	161.18	24.15	-29.5	-29.9	27.9	0.00e+00	0	34	0	1513095168	32	5691
2026-01-07 04:39:48.40	161.20	24.31	-29.6	-30.1	27.9	0.00e+00	0	34	0	1520435200	32	5767
2026-01-07 04:39:49.41	161.22	24.47	-29.6	-30.0	27.8	0.00e+00	0	34	0	1527775232	32	5737
2026-01-07 04:39:50.42	161.24	24.63	-29.6	-30.0	27.9	0.00e+00	0	34	0	1535115264	32	5759
2026-01-07 04:39:51.43	161.26	24.79	-29.7	-30.1	27.8	0.00e+00	0	34	0	1542455296	32	5809
2026-01-07 04:39:52.44	161.28	24.95	-29.5	-29.9	27.8	0.00e+00	0	34	0	1549795328	32	5692
2026-01-07 04:39:53.45	161.30	25.11	-29.5	-30.0	27.8	0.00e+00	0	34	0	1557135360	32	5707
2026-01-07 04:39:54.46	161.31	25.27	-29.6	-30.0	27.9	0.00e+00	0	34	0	1563426816	32	5728
2026-01-07 04:39:55.47	161.33	25.43	-29.7	-30.2	27.7	0.00e+00	0	34	0	1571815424	32	5844
2026-01-07 04:39:56.48	161.35	25.60	-29.5	-29.9	27.9	0.00e+00	0	34	0	1579155456	32	5691
2026-01-07 04:39:57.49	161.37	25.76	-29.5	-30.0	27.8	0.00e+00	0	34	0	1585446912	32	5711
2026-01-07 04:39:58.50	161.39	25.93	-29.3	-29.8	28.0	0.00e+00	0	34	0	1592786944	32	5587
2026-01-07 04:39:59.51	161.42	26.09	-29.4	-29.9	27.9	0.00e+00	0	34	0	1600126976	32	5670
2026-01-07 04:40:00.52	161.44	26.26	-29.3	-29.8	28.1	0.00e+00	0	34	0	1607467008	32	5570
2026-01-07 04:40:01.53	161.46	26.43	-29.3	-29.8	28.1	0.00e+00	0	34	0	1614807040	32	5569
2026-01-07 04:40:02.54	161.48	26.60	-29.2	-29.6	28.2	0.00e+00	0	34	0	1622147072	32	5489
2026-01-07 04:40:03.55	161.50	26.77	-29.2	-29.7	28.2	0.00e+00	0	34	0	1629487104	32	5509
2026-01-07 04:40:04.56	161.52	26.95	-29.0	-29.5	28.2	0.00e+00	0	34	0	1636827136	32	5403
2026-01-07 04:40:05.57	161.54	27.12	-29.0	-29.4	28.3	0.00e+00	0	34	0	1644167168	32	5356
2026-01-07 04:40:06.58	161.56	27.29	-29.1	-29.6	28.2	0.00e+00	0	34	0	1651507200	32	5440
2026-01-07 04:40:07.59	161.59	27.47	-28.9	-29.4	28.3	0.00e+00	0	34	0	1658847232	32	5343
2026-01-07 04:40:08.60	161.61	27.65	-28.9	-29.4	28.3	0.00e+00	0	34	0	1666187264	32	5346
2026-01-07 04:40:09.61	161.63	27.83	-29.0	-29.5	28.4	0.00e+00	0	34	0	1673527296	32	5389
2026-01-07 04:40:10.62	161.65	28.00	-29.0	-29.4	28.3	0.00e+00	0	34	0	1680867328	32	5368
2026-01-07 04:40:11.63	161.68	28.18	-28.9	-29.3	28.4	0.00e+00	0	34	0	1688207360	32	5290
2026-01-07 04:40:12.64	161.70	28.37	-28.9	-29.3	28.4	0.00e+00	0	34	0	1695547392	32	5296
2026-01-07 04:40:13.65	161.72	28.55	-28.8	-29.3	28.5	0.00e+00	0	34	0	1702887424	30	5908
2026-01-07 04:40:14.66	161.75	28.73	-28.8	-29.3	28.4	0.00e+00	0	34	0	1710227456	30	5902
2026-01-07 04:40:15.67	161.77	28.92	-28.9	-29.3	28.4	0.00e+00	0	34	0	1717567488	30	5943
2026-01-07 04:40:16.68	161.79	29.10	-28.8	-29.3	28.5	0.00e+00	0	34	0	1724907520	30	5915
2026-01-07 04:40:17.69	161.82	29.29	-28.9	-29.3	28.4	0.00e+00	0	34	0	1732247552	30	5964
2026-01-07 04:40:18.70	161.84	29.48	-28.9	-29.3	28.4	0.00e+00	0	34	0	1738539008	30	5952
2026-01-07 04:40:19.71	161.87	29.67	-29.0	-29.5	28.3	0.00e+00	0	34	0	1745879040	30	6075
2026-01-07 04:40:20.72	161.89	29.86	-29.3	-29.8	28.1	0.00e+00	0	34	0	1754267648	30	6259
2026-01-07 04:40:21.73	161.92	30.06	-29.3	-29.8	28.2	0.00e+00	0	34	0	1760559104	30	6270
2026-01-07 04:40:22.74	161.94	30.25	-29.3	-29.7	28.1	0.00e+00	0	34	0	1767899136	30	6240
2026-01-07 04:40:23.75	161.97	30.44	-29.4	-29.9	28.1	0.00e+00	0	34	0	1775239168	30	6334
2026-01-07 04:40:24.76	161.99	30.64	-29.2	-29.6	28.1	0.00e+00	0	34	0	1782579200	30	6159
2026-01-07 04:40:25.77	162.02	30.84	-29.1	-29.5	28.3	0.00e+00	0	34	0	1789919232	30	6096
2026-01-07 04:40:26.78	162.05	31.04	-29.3	-29.8	28.1	0.00e+00	0	34	0	1797259264	30	6283
2026-01-07 04:40:27.79	162.07	31.24	-28.9	-29.3	28.4	0.00e+00	0	34	0	1804599296	30	5950
2026-01-07 04:40:28.80	162.10	31.44	-29.0	-29.5	28.3	0.00e+00	0	34	0	1811939328	30	6036
2026-01-07 04:40:29.81	162.13	31.65	-29.0	-29.5	28.2	0.00e+00	0	34	0	1819279360	30	6060
2026-01-07 04:40:30.82	162.15	31.85	-29.0	-29.4	28.4	0.00e+00	0	34	0	1826619392	30	6013
2026-01-07 04:40:31.83	162.18	32.06	-29.0	-29.4	28.4	0.00e+00	0	34	0	1833959424	30	6018
2026-01-07 04:40:32.84	162.21	32.26	-28.8	-29.3	28.5	0.00e+00	0	34	0	1841299456	30	5932
2026-01-07 04:40:33.85	162.24	32.47	-28.8	-29.2	28.5	0.00e+00	0	34	0	1848639488	30	5884
2026-01-07 04:40:34.86	162.27	32.68	-28.8	-29.2	28.4	0.00e+00	0	34	0	1855979520	30	5889
2026-01-07 04:40:35.87	162.30	32.90	-28.7	-29.1	28.6	0.00e+00	0	34	0	1862270976	30	5802
2026-01-07 04:40:36.87	162.33	33.11	-28.9	-29.4	28.5	0.00e+00	0	34	0	1870659584	30	5984
2026-01-07 04:40:37.88	162.36	33.32	-28.7	-29.1	28.6	0.00e+00	0	34	0	1877999616	30	5823
2026-01-07 04:40:38.90	162.39	33.54	-28.8	-29.2	28.5	0.00e+00	0	34	0	1884291072	30	5871
2026-01-07 04:40:39.90	162.42	33.76	-28.8	-29.3	28.5	0.00e+00	0	34	0	1891631104	30	5899
2026-01-07 04:40:40.91	162.45	33.98	-28.8	-29.2	28.5	0.00e+00	0	34	0	1898971136	30	5873
2026-01-07 04:40:41.92	162.48	34.20	-28.8	-29.2	28.5	0.00e+00	0	34	0	1906311168	30	5895
2026-01-07 04:40:42.93	162.51	34.42	-28.9	-29.3	28.4	0.00e+00	0	34	0	1913651200	30	5954
2026-01-07 04:40:43.94	162.54	34.65	-28.9	-29.3	28.4	0.00e+00	0	34	0	1920991232	30	5950
2026-01-07 04:40:44.95	162.58	34.87	-29.0	-29.4	28.4	0.00e+00	0	34	0	1928331264	30	6019
2026-01-07 04:40:45.95	162.61	35.10	-29.0	-29.5	28.4	0.00e+00	0	34	0	1935671296	30	6054
2026-01-07 04:40:46.97	162.64	35.33	-29.0	-29.5	28.4	0.00e+00	0	34	0	1943011328	30	6059
2026-01-07 04:40:47.97	162.68	35.56	-29.0	-29.5	28.3	0.00e+00	0	34	0	1950351360	30	6045
2026-01-07 04:40:48.98	162.71	35.79	-28.9	-29.3	28.4	0.00e+00	0	34	0	1957691392	30	5956
2026-01-07 04:40:49.99	162.75	36.03	-28.7	-29.2	28.5	0.00e+00	0	34	0	1965031424	30	5835
2026-01-07 04:40:51.00	162.78	36.26	-28.9	-29.3	28.4	0.00e+00	0	34	0	1972371456	30	5937
2026-01-07 04:40:52.01	162.82	36.50	-28.8	-29.3	28.5	0.00e+00	0	34	0	1979711488	30	5911
2026-01-07 04:40:53.02	162.85	36.74	-28.7	-29.1	28.5	0.00e+00	0	34	0	1987051520	30	5824
2026-01-07 04:40:54.03	162.89	36.98	-28.7	-29.1	28.5	0.00e+00	0	34	0	1994391552	30	5811
2026-01-07 04:40:55.04	162.93	37.22	-28.7	-29.1	28.6	0.00e+00	0	34	0	2001731584	30	5803
2026-01-07 04:40:56.05	162.96	37.47	-28.7	-29.2	28.6	0.00e+00	0	34	0	2009071616	30	5864
2026-01-07 04:40:57.05	163.00	37.71	-28.9	-29.4	28.4	0.00e+00	0	34	0	2015363072	30	5998
2026-01-07 04:40:58.06	163.04	37.96	-29.0	-29.5	28.2	0.00e+00	0	34	0	2022703104	30	6079
2026-01-07 04:40:59.07	163.08	38.21	-29.0	-29.5	28.3	0.00e+00	0	34	0	2031091712	30	6063
2026-01-07 04:41:00.08	163.12	38.46	-29.1	-29.6	28.2	0.00e+00	0	34	0	2037383168	30	6145
2026-01-07 04:41:01.09	163.16	38.72	-29.2	-29.7	28.2	0.00e+00	0	34	0	2044723200	30	6178
2026-01-07 04:41:02.10	163.20	38.97	-29.3	-29.7	28.0	0.00e+00	0	34	0	2052063232	30	6235
2026-01-07 04:41:03.11	163.24	39.23	-29.4	-29.8	28.1	0.00e+00	0	34	0	2059403264	30	6291
2026-01-07 04:41:04.12	163.28	39.49	-29.2	-29.7	28.2	0.00e+00	0	34	0	2066743296	30	6209
2026-01-07 04:41:05.13	163.32	39.75	-29.4	-29.8	28.1	0.00e+00	0	34	0	2074083328	30	6291
2026-01-07 04:41:06.14	163.37	40.02	-29.5	-30.0	27.9	0.00e+00	0	34	0	2081423360	30	6402
2026-01-07 04:41:07.15	163.41	40.28	-29.6	-30.1	28.0	0.00e+00	0	34	0	2088763392	30	6473
2026-01-07 04:41:08.16	163.46	40.55	-29.3	-29.8	28.1	0.00e+00	0	35	0	2096103424	30	6291
2026-01-07 04:41:09.17	163.50	40.82	-29.4	-29.8	28.0	0.00e+00	0	34	0	2103443456	30	6291
2026-01-07 04:41:10.18	163.55	41.09	-29.3	-29.7	28.2	0.00e+00	0	34	0	2110783488	30	6225
2026-01-07 04:41:11.19	163.59	41.37	-29.1	-29.6	28.2	0.00e+00	0	34	0	2118123520	30	6139
2026-01-07 04:41:12.20	163.64	41.64	-29.2	-29.7	28.2	0.00e+00	0	35	0	2125463552	30	6210
2026-01-07 04:41:13.21	163.69	41.92	-29.3	-29.8	28.2	0.00e+00	0	34	0	2132803584	30	6263
2026-01-07 04:41:14.22	163.74	42.20	-29.3	-29.7	28.2	0.00e+00	0	35	0	2140143616	30	6232
2026-01-07 04:41:15.23	163.79	42.48	-29.3	-29.7	28.1	0.00e+00	0	35	0	2147483648	30	6243
2026-01-07 04:41:16.24	163.84	42.77	-29.4	-29.9	28.0	0.00e+00	0	35	0	2154823680	30	6346
2026-01-07 04:41:17.25	163.89	43.05	-29.4	-29.8	28.1	0.00e+00	0	34	0	2161115136	30	6306
2026-01-07 04:41:18.25	163.94	43.34	-29.4	-29.8	28.1	0.00e+00	0	34	0	2168455168	30	6291
2026-01-07 04:41:19.26	163.99	43.63	-29.4	-29.9	28.1	0.00e+00	0	34	0	2175795200	30	6319
2026-01-07 04:41:20.27	164.05	43.92	-29.4	-29.9	28.1	0.00e+00	0	35	0	2183135232	30	6319
2026-01-07 04:41:21.28	164.10	44.22	-29.2	-29.6	28.3	0.00e+00	0	34	0	2190475264	30	6166
2026-01-07 04:41:22.30	164.16	44.52	-29.1	-29.6	28.3	0.00e+00	0	34	0	2197815296	30	6114
2026-01-07 04:41:23.30	164.22	44.81	-29.3	-29.7	28.1	0.00e+00	0	35	0	2205155328	30	6237
2026-01-07 04:41:24.31	164.27	45.11	-29.6	-30.0	28.0	0.00e+00	0	34	0	2212495360	30	6433
2026-01-07 04:41:25.32	164.33	45.42	-29.6	-30.1	27.8	0.00e+00	0	35	0	2219835392	30	6482
2026-01-07 04:41:26.33	164.39	45.73	-29.8	-30.2	27.8	0.00e+00	0	34	0	2227175424	32	5882
2026-01-07 04:41:27.34	164.45	46.03	-29.8	-30.3	27.7	0.00e+00	0	34	0	2234515456	32	5942
2026-01-07 04:41:28.35	164.52	46.34	-30.0	-30.5	27.7	0.00e+00	0	34	0	2241855488	32	6088
2026-01-07 04:41:29.36	164.58	46.66	-29.9	-30.4	27.7	0.00e+00	0	35	0	2249195520	32	5986
2026-01-07 04:41:30.37	164.64	46.97	-29.9	-30.4	27.6	0.00e+00	0	34	0	2256535552	32	5973
2026-01-07 04:41:31.38	164.71	47.29	-29.9	-30.4	27.7	0.00e+00	0	34	0	2263875584	32	5974
2026-01-07 04:41:32.39	164.78	47.61	-30.2	-30.7	27.7	0.00e+00	0	34	0	2271215616	32	6175
2026-01-07 04:41:33.40	164.85	47.93	-29.9	-30.3	27.6	0.00e+00	0	34	0	2278555648	32	5944
2026-01-07 04:41:34.41	164.92	48.26	-30.1	-30.5	27.6	0.00e+00	0	35	0	2285895680	32	6088
2026-01-07 04:41:35.42	164.99	48.59	-30.2	-30.6	27.5	0.00e+00	0	34	0	2293235712	32	6171
2026-01-07 04:41:36.43	165.06	48.92	-30.3	-30.8	27.4	0.00e+00	0	35	0	2300575744	32	6274
2026-01-07 04:41:37.44	165.13	49.25	-30.6	-31.0	27.3	0.00e+00	0	35	0	2307915776	32	6457
2026-01-07 04:41:38.45	165.21	49.58	-30.6	-31.1	27.1	0.00e+00	0	34	0	2314207232	34	5781
2026-01-07 04:41:39.46	165.29	49.92	-30.9	-31.4	26.9	0.00e+00	0	34	0	2321547264	34	5983
2026-01-07 04:41:40.47	165.37	50.26	-30.9	-31.4	26.9	0.00e+00	0	34	0	2328887296	34	6000
2026-01-07 04:41:41.48	165.45	50.60	-30.6	-31.1	27.1	0.00e+00	0	34	0	2336227328	34	5793
2026-01-07 04:41:42.48	165.53	50.94	-30.4	-30.8	27.4	0.00e+00	0	34	0	2343567360	34	5620
2026-01-07 04:41:43.49	165.61	51.29	-30.4	-30.9	27.3	0.00e+00	0	34	0	2350907392	34	5641
2026-01-07 04:41:44.50	165.70	51.64	-30.4	-30.9	27.3	0.00e+00	0	34	0	2358247424	34	5660
2026-01-07 04:41:45.51	165.79	51.99	-30.5	-31.0	27.1	0.00e+00	0	34	0	2365587456	34	5714
2026-01-07 04:41:46.52	165.88	52.35	-30.3	-30.8	27.2	0.00e+00	0	34	0	2372927488	34	5591
2026-01-07 04:41:47.53	165.97	52.71	-30.6	-31.1	27.1	0.00e+00	0	34	0	2380267520	34	5792
2026-01-07 04:41:48.54	166.06	53.07	-30.6	-31.1	27.0	0.00e+00	0	34	0	2387607552	34	5768
2026-01-07 04:41:49.55	166.16	53.43	-30.9	-31.4	26.9	0.00e+00	0	35	0	2394947584	34	6000
2026-01-07 04:41:50.56	166.26	53.79	-30.8	-31.3	26.9	0.00e+00	0	34	0	2402287616	34	5958
2026-01-07 04:41:51.57	166.36	54.16	-30.8	-31.2	26.9	0.00e+00	0	34	0	2409627648	34	5894
2026-01-07 04:41:52.58	166.46	54.53	-30.6	-31.1	27.1	0.00e+00	0	34	0	2416967680	34	5786
2026-01-07 04:41:53.59	166.57	54.90	-30.4	-30.8	27.1	0.00e+00	0	35	0	2424307712	34	5626
2026-01-07 04:41:54.60	166.68	55.28	-30.8	-31.3	26.9	0.00e+00	0	34	0	2431647744	34	5898
2026-01-07 04:41:55.61	166.79	55.65	-31.0	-31.5	26.9	0.00e+00	0	35	0	2438987776	34	6070
2026-01-07 04:41:56.62	166.91	56.03	-30.8	-31.3	26.9	0.00e+00	0	35	0	2445279232	34	5948
2026-01-07 04:41:57.63	167.03	56.42	-30.9	-31.4	26.9	0.00e+00	0	34	0	2453667840	34	5983
2026-01-07 04:41:58.63	167.15	56.80	-30.9	-31.4	26.9	0.00e+00	0	34	0	2459959296	34	5982
2026-01-07 04:41:59.65	167.27	57.19	-30.8	-31.3	26.7	0.00e+00	0	34	0	2467299328	34	5907
2026-01-07 04:42:00.66	167.40	57.58	-30.6	-31.1	27.1	0.00e+00	0	34	0	2474639360	34	5771
2026-01-07 04:42:01.66	167.53	57.97	-30.4	-30.9	27.2	0.00e+00	0	34	0	2481979392	34	5667
2026-01-07 04:42:02.67	167.67	58.36	-30.4	-30.8	27.3	0.00e+00	0	34	0	2489319424	34	5627
2026-01-07 04:42:03.68	167.81	58.76	-30.3	-30.7	27.3	0.00e+00	0	34	0	2496659456	34	5552
2026-01-07 04:42:04.69	167.95	59.16	-29.8	-30.2	27.2	0.00e+00	0	34	0	2503999488	34	5244
2026-01-07 04:42:05.70	168.10	59.56	-30.7	-31.1	27.0	0.00e+00	0	34	0	2511339520	34	5806
2026-01-07 04:42:06.71	168.25	59.97	-30.8	-31.3	26.8	0.00e+00	0	34	0	2518679552	34	5948
2026-01-07 04:42:07.72	168.41	60.38	-30.6	-31.0	27.0	0.00e+00	0	34	0	2526019584	34	5760
2026-01-07 04:42:08.73	168.57	60.79	-30.4	-30.9	27.2	0.00e+00	0	35	0	2533359616	34	5636
2026-01-07 04:42:09.73	168.74	61.20	-29.5	-29.9	27.8	0.00e+00	0	34	0	2540699648	32	5678
2026-01-07 04:42:10.74	168.91	61.61	-29.7	-30.1	27.9	0.00e+00	0	34	0	2548039680	32	5799
2026-01-07 04:42:11.75	169.09	62.03	-29.9	-30.4	27.7	0.00e+00	0	35	0	2555379712	32	5981
2026-01-07 04:42:12.77	169.28	62.45	-30.1	-30.5	27.2	0.00e+00	0	35	0	2562719744	32	6097
2026-01-07 04:42:13.77	169.47	62.87	-29.9	-30.4	27.6	0.00e+00	0	34	0	2570059776	32	5977
2026-01-07 04:42:14.78	169.66	63.29	-29.1	-29.5	28.3	0.00e+00	0	35	0	2577399808	32	5412
2026-01-07 04:42:15.79	169.87	63.72	-29.3	-29.8	28.1	0.00e+00	0	34	0	2584739840	32	5575
2026-01-07 04:42:16.80	170.08	64.15	-29.3	-29.7	28.1	0.00e+00	0	34	0	2591031296	32	5561
2026-01-07 04:42:17.81	170.30	64.58	-29.2	-29.7	28.2	0.00e+00	0	35	0	2598371328	32	5525
2026-01-07 04:42:18.82	170.53	65.01	-29.1	-29.5	28.2	0.00e+00	0	35	0	2606759936	32	5435
2026-01-07 04:42:19.83	170.77	65.45	-29.3	-29.7	28.4	0.00e+00	0	34	0	2613051392	32	5549
2026-01-07 04:42:20.84	171.02	65.88	-29.7	-30.2	27.9	0.00e+00	0	34	0	2620391424	30	6550
2026-01-07 04:42:21.85	171.28	66.32	-29.6	-30.1	27.9	0.00e+00	0	34	0	2627731456	30	6516
2026-01-07 04:42:22.86	171.54	66.76	-29.6	-30.1	27.8	0.00e+00	0	34	0	2635071488	30	6510
2026-01-07 04:42:23.87	171.82	67.21	-29.5	-29.9	28.1	0.00e+00	0	35	0	2642411520	30	6378
2026-01-07 04:42:24.88	172.11	67.65	-29.1	-29.5	28.2	0.00e+00	0	34	0	2649751552	30	6069
2026-01-07 04:42:25.89	172.42	68.10	-28.4	-28.8	28.4	0.00e+00	0	34	0	2657091584	30	5599
2026-01-07 04:42:26.90	172.74	68.54	-28.9	-29.4	28.3	0.00e+00	0	35	0	2664431616	30	5987
2026-01-07 04:42:27.91	173.07	68.99	-29.0	-29.5	28.3	0.00e+00	0	34	0	2671771648	30	6068
2026-01-07 04:42:28.92	173.42	69.45	-29.0	-29.5	28.4	0.00e+00	0	35	0	2679111680	30	6060
2026-01-07 04:42:29.93	173.78	69.90	-29.1	-29.6	28.3	0.00e+00	0	34	0	2686451712	30	6116
2026-01-07 04:42:30.94	174.16	70.35	-29.1	-29.6	27.8	0.00e+00	0	34	0	2693791744	30	6125
2026-01-07 04:42:31.95	174.56	70.81	-28.8	-29.2	28.6	0.00e+00	0	35	0	2701131776	30	5895
2026-01-07 04:42:32.96	174.98	71.26	-29.3	-29.7	28.2	0.00e+00	0	35	0	2708471808	30	6231
2026-01-07 04:42:33.97	175.43	71.72	-29.7	-30.1	27.9	0.00e+00	0	34	0	2715811840	30	6523
2026-01-07 04:42:34.98	175.90	72.18	-29.4	-29.9	28.1	0.00e+00	0	35	0	2723151872	30	6350
2026-01-07 04:42:35.99	176.39	72.64	-29.7	-30.2	27.4	0.00e+00	0	35	0	2730491904	32	5879
2026-01-07 04:42:37.00	176.91	73.10	-29.3	-29.8	28.1	0.00e+00	0	34	0	2737831936	32	5570
2026-01-07 04:42:38.01	177.46	73.56	-29.2	-29.7	28.1	0.00e+00	0	35	0	2744123392	32	5533
2026-01-07 04:42:39.02	178.05	74.02	-29.2	-29.7	28.2	0.00e+00	0	35	0	2752512000	32	5517
2026-01-07 04:42:40.03	178.67	74.48	-29.1	-29.6	28.3	0.00e+00	0	34	0	2759852032	32	5447
2026-01-07 04:42:41.04	179.33	74.94	-29.0	-29.5	28.2	0.00e+00	0	34	0	2766143488	30	6043
2026-01-07 04:42:42.05	180.04	75.40	-28.8	-29.2	28.4	0.00e+00	0	35	0	2773483520	30	5891
2026-01-07 04:42:43.06	180.79	75.86	-28.5	-29.0	28.7	0.00e+00	0	35	0	2780823552	30	5716
2026-01-07 04:42:44.07	181.59	76.32	-28.4	-28.9	28.7	0.00e+00	0	35	0	2788163584	30	5662
2026-01-07 04:42:45.08	182.45	76.77	-28.1	-28.5	29.0	0.00e+00	0	35	0	2795503616	30	5413
2026-01-07 04:42:46.09	183.37	77.23	-27.5	-27.9	29.2	0.00e+00	0	35	0	2802843648	28	5679
2026-01-07 04:42:47.10	184.37	77.68	-27.5	-27.9	29.2	0.00e+00	0	34	0	2810183680	28	5672
2026-01-07 04:42:48.11	185.44	78.13	-27.5	-27.9	29.3	0.00e+00	0	34	0	2817523712	28	5693
2026-01-07 04:42:49.11	186.58	78.58	-27.6	-28.1	29.0	0.00e+00	0	34	0	2824863744	28	5774
2026-01-07 04:42:50.12	187.83	79.02	-27.5	-27.9	29.3	0.00e+00	0	34	0	2832203776	28	5677
2026-01-07 04:42:51.13	189.19	79.46	-27.6	-28.1	29.2	0.00e+00	0	35	0	2839543808	28	5781
2026-01-07 04:42:52.14	190.67	79.89	-27.7	-28.2	29.1	0.00e+00	0	35	0	2846883840	28	5830
2026-01-07 04:42:53.15	192.28	80.32	-27.6	-28.0	29.2	0.00e+00	0	34	0	2854223872	28	5732
2026-01-07 04:42:54.16	194.04	80.74	-27.6	-28.1	29.2	0.00e+00	0	34	0	2861563904	28	5785
2026-01-07 04:42:55.17	195.96	81.15	-27.8	-28.2	29.1	0.00e+00	0	34	0	2868903936	28	5872
2026-01-07 04:42:56.18	198.08	81.55	-28.0	-28.4	28.8	0.00e+00	0	34	0	2876243968	28	5987
2026-01-07 04:42:57.19	200.41	81.94	-28.1	-28.6	28.8	0.00e+00	0	34	0	2883584000	28	6108
2026-01-07 04:42:58.20	202.97	82.32	-27.9	-28.3	29.1	0.00e+00	0	34	0	2889875456	28	5931
2026-01-07 04:42:59.21	205.79	82.68	-27.7	-28.2	29.2	0.00e+00	0	34	0	2897215488	28	5842
2026-01-07 04:43:00.21	208.86	83.02	-28.0	-28.4	29.1	0.00e+00	0	34	0	2904555520	28	6016
2026-01-07 04:43:01.22	212.27	83.34	-27.8	-28.2	29.3	0.00e+00	0	34	0	2911895552	28	5853
2026-01-07 04:43:02.23	216.02	83.63	-27.8	-28.2	29.2	0.00e+00	0	34	0	2919235584	28	5896
2026-01-07 04:43:03.24	220.11	83.90	-28.2	-28.6	29.0	0.00e+00	0	34	0	2926575616	28	6148
2026-01-07 04:43:04.25	224.55	84.13	-28.1	-28.5	28.9	0.00e+00	0	34	0	2933915648	28	6103
2026-01-07 04:43:05.26	229.32	84.32	-28.1	-28.6	28.7	0.00e+00	0	35	0	2941255680	28	6113
2026-01-07 04:43:06.27	234.40	84.47	-28.2	-28.7	28.8	0.00e+00	0	34	0	2948595712	28	6175
2026-01-07 04:43:07.28	239.72	84.58	-28.1	-28.6	28.9	0.00e+00	0	34	0	2955935744	28	6136
2026-01-07 04:43:08.29	245.20	84.64	-28.1	-28.6	28.8	0.00e+00	0	35	0	2963275776	28	6139
2026-01-07 04:43:09.30	250.76	84.65	-28.1	-28.5	28.9	0.00e+00	0	34	0	2970615808	28	6100
2026-01-07 04:43:10.31	256.28	84.61	-27.9	-28.3	29.0	0.00e+00	0	34	0	2977955840	28	5961
2026-01-07 04:43:11.32	261.67	84.52	-27.6	-28.1	29.1	0.00e+00	0	35	0	2985295872	28	5774
2026-01-07 04:43:12.33	266.84	84.38	-27.7	-28.2	29.2	0.00e+00	0	34	0	2992635904	28	5837
2026-01-07 04:43:13.34	271.73	84.21	-28.2	-28.7	28.9	0.00e+00	0	35	0	2999975936	28	6179
2026-01-07 04:43:14.35	276.30	83.99	-28.3	-28.8	28.8	0.00e+00	0	35	0	3007315968	28	6302
2026-01-07 04:43:15.35	280.48	83.74	-28.2	-28.7	28.7	0.00e+00	0	35	0	3014656000	28	6191
2026-01-07 04:43:16.37	284.39	83.45	-28.2	-28.7	28.7	0.00e+00	0	35	0	3020947456	28	6216
2026-01-07 04:43:17.38	287.92	83.14	-28.0	-28.5	28.9	0.00e+00	0	35	0	3029336064	28	6061
2026-01-07 04:43:18.39	291.14	82.81	-27.8	-28.3	28.8	0.00e+00	0	35	0	3036676096	28	5912
2026-01-07 04:43:19.40	294.06	82.45	-27.7	-28.2	29.0	0.00e+00	0	34	0	3042967552	28	5842
2026-01-07 04:43:20.41	296.71	82.08	-28.1	-28.5	28.8	0.00e+00	0	35	0	3050307584	28	6090
2026-01-07 04:43:21.42	299.12	81.70	-28.1	-28.6	28.8	0.00e+00	0	35	0	3057647616	28	6143
2026-01-07 04:43:22.43	301.30	81.30	-27.9	-28.3	29.0	0.00e+00	0	35	0	3064987648	28	5951
2026-01-07 04:43:23.44	303.30	80.89	-27.8	-28.2	29.3	0.00e+00	0	34	0	3072327680	28	5873
2026-01-07 04:43:24.45	305.12	80.48	-27.6	-28.1	29.1	0.00e+00	0	35	0	3079667712	28	5762
2026-01-07 04:43:25.46	306.78	80.05	-27.5	-27.9	29.3	0.00e+00	0	35	0	3087007744	28	5686
2026-01-07 04:43:26.47	308.30	79.62	-27.6	-28.1	29.2	0.00e+00	0	35	0	3094347776	28	5787
2026-01-07 04:43:27.48	309.70	79.18	-27.7	-28.1	29.1	0.00e+00	0	35	0	3101687808	28	5827
2026-01-07 04:43:28.49	310.99	78.74	-27.5	-28.0	28.9	0.00e+00	0	35	0	3109027840	28	5709
2026-01-07 04:43:29.49	312.16	78.30	-27.4	-27.8	29.3	0.00e+00	0	35	0	3116367872	28	5601
2026-01-07 04:43:30.50	313.26	77.85	-27.4	-27.8	29.4	0.00e+00	0	35	0	3123707904	28	5601
2026-01-07 04:43:31.51	314.28	77.40	-27.8	-28.2	29.2	0.00e+00	0	34	0	3131047936	28	5860
2026-01-07 04:43:32.52	315.23	76.94	-28.1	-28.5	28.9	0.00e+00	0	35	0	3138387968	28	6093
2026-01-07 04:43:33.53	316.11	76.49	-28.0	-28.5	28.6	0.00e+00	0	35	0	3145728000	28	6071
2026-01-07 04:43:34.54	316.94	76.03	-28.2	-28.6	28.9	0.00e+00	0	35	0	3153068032	28	6143
2026-01-07 04:43:35.55	317.71	75.57	-28.5	-29.0	28.0	0.00e+00	0	35	0	3160408064	28	6410
2026-01-07 04:43:36.56	318.43	75.11	-28.5	-29.0	28.6	0.00e+00	0	35	0	3166699520	28	6418
2026-01-07 04:43:37.57	319.10	74.65	-28.6	-29.1	28.1	0.00e+00	0	35	0	3175088128	28	6499
2026-01-07 04:43:38.58	319.74	74.19	-28.7	-29.1	28.5	0.00e+00	0	35	0	3182428160	30	5826
2026-01-07 04:43:39.59	320.34	73.74	-29.3	-29.7	28.1	0.00e+00	0	35	0	3188719616	30	6232
2026-01-07 04:43:40.60	320.90	73.28	-29.7	-30.1	27.8	0.00e+00	0	34	0	3196059648	30	6529
2026-01-07 04:43:41.61	321.43	72.82	-29.8	-30.3	27.7	0.00e+00	0	34	0	3203399680	32	5921
2026-01-07 04:43:42.61	321.93	72.36	-29.4	-29.8	26.8	0.00e+00	0	35	0	3210739712	32	5619
2026-01-07 04:43:43.63	322.41	71.90	-29.6	-30.0	27.8	0.00e+00	0	35	0	3218079744	32	5745
2026-01-07 04:43:44.64	322.87	71.44	-29.7	-30.1	27.7	0.00e+00	0	35	0	3225419776	32	5825
2026-01-07 04:43:45.64	323.29	70.99	-30.0	-30.5	27.5	0.00e+00	0	35	0	3232759808	32	6087
2026-01-07 04:43:46.65	323.70	70.54	-30.0	-30.4	27.6	0.00e+00	0	35	0	3240099840	32	6018
2026-01-07 04:43:47.66	324.09	70.08	-29.8	-30.3	27.7	0.00e+00	0	35	0	3247439872	32	5925
2026-01-07 04:43:48.67	324.46	69.63	-29.5	-30.0	27.9	0.00e+00	0	34	0	3254779904	32	5739
2026-01-07 04:43:49.68	324.81	69.18	-29.4	-29.9	28.1	0.00e+00	0	34	0	3262119936	32	5666
2026-01-07 04:43:50.69	325.15	68.73	-29.2	-29.7	28.2	0.00e+00	0	35	0	3269459968	32	5515
2026-01-07 04:43:51.70	325.47	68.28	-29.3	-29.7	28.1	0.00e+00	0	35	0	3276800000	32	5555
2026-01-07 04:43:52.71	325.78	67.84	-29.1	-29.5	28.1	0.00e+00	0	35	0	3284140032	32	5418
2026-01-07 04:43:53.72	326.08	67.39	-29.0	-29.5	28.3	0.00e+00	0	35	0	3291480064	32	5413
2026-01-07 04:43:54.73	326.36	66.95	-29.0	-29.5	28.2	0.00e+00	0	35	0	3298820096	32	5395
2026-01-07 04:43:55.74	326.63	66.51	-29.2	-29.6	27.9	0.00e+00	0	35	0	3306160128	32	5456
2026-01-07 04:43:56.75	326.90	66.07	-29.1	-29.6	28.2	0.00e+00	0	35	0	3313500160	32	5441
2026-01-07 04:43:57.76	327.15	65.63	-29.2	-29.7	28.1	0.00e+00	0	34	0	3319791616	32	5519
2026-01-07 04:43:58.77	327.39	65.20	-29.3	-29.8	28.0	0.00e+00	0	34	0	3328180224	32	5598
2026-01-07 04:43:59.78	327.62	64.76	-29.6	-30.0	27.6	0.00e+00	0	34	0	3335520256	32	5757
2026-01-07 04:44:00.79	327.85	64.33	-29.7	-30.2	27.7	0.00e+00	0	35	0	3341811712	32	5866
2026-01-07 04:44:01.80	328.06	63.91	-29.7	-30.1	27.8	0.00e+00	0	35	0	3349151744	32	5819
2026-01-07 04:44:02.81	328.27	63.48	-29.7	-30.2	27.6	0.00e+00	0	35	0	3356491776	32	5839
2026-01-07 04:44:03.82	328.47	63.06	-29.6	-30.1	27.7	0.00e+00	0	35	0	3363831808	32	5776
2026-01-07 04:44:04.83	328.66	62.63	-29.8	-30.3	27.5	0.00e+00	0	35	0	3371171840	32	5907
2026-01-07 04:44:05.84	328.85	62.21	-30.0	-30.4	27.5	0.00e+00	0	34	0	3378511872	32	6017
2026-01-07 04:44:06.85	329.03	61.80	-30.3	-30.8	27.3	0.00e+00	0	35	0	3385851904	32	6272
2026-01-07 04:44:07.86	329.21	61.38	-30.6	-31.1	27.1	0.00e+00	0	35	0	3393191936	32	6480
2026-01-07 04:44:08.87	329.38	60.97	-30.8	-31.3	26.9	0.00e+00	0	35	0	3400531968	34	5908
2026-01-07 04:44:09.88	329.54	60.56	-31.0	-31.5	26.6	0.00e+00	0	35	0	3407872000	34	6086
2026-01-07 04:44:10.89	329.70	60.15	-31.3	-31.8	26.4	0.00e+00	0	35	0	3415212032	34	6265
2026-01-07 04:44:11.90	329.86	59.75	-31.1	-31.7	26.6	0.00e+00	0	35	0	3422552064	34	6175
2026-01-07 04:44:12.91	330.01	59.34	-31.1	-31.6	26.6	0.00e+00	0	35	0	3429892096	34	6127
2026-01-07 04:44:13.92	330.15	58.94	-30.8	-31.3	26.9	0.00e+00	0	35	0	3437232128	34	5898
2026-01-07 04:44:14.93	330.29	58.55	-30.7	-31.2	26.9	0.00e+00	0	35	0	3444572160	34	5845
2026-01-07 04:44:15.93	330.43	58.16	-30.6	-31.1	26.7	0.00e+00	0	34	0	3451912192	34	5783
2026-01-07 04:44:16.95	330.57	57.76	-30.7	-31.2	27.0	0.00e+00	0	35	0	3459252224	34	5854
2026-01-07 04:44:17.96	330.69	57.37	-30.8	-31.3	26.9	0.00e+00	0	35	0	3465543680	34	5917
2026-01-07 04:44:18.97	330.82	56.98	-30.8	-31.3	26.9	0.00e+00	0	35	0	3472883712	34	5910
2026-01-07 04:44:19.97	330.94	56.60	-30.6	-31.1	27.1	0.00e+00	0	35	0	3481272320	34	5810
2026-01-07 04:44:20.98	331.06	56.22	-30.8	-31.3	26.1	0.00e+00	0	35	0	3487563776	34	5914
2026-01-07 04:44:21.99	331.18	55.84	-30.7	-31.2	27.1	0.00e+00	0	34	0	3494903808	34	5844
2026-01-07 04:44:23.00	331.29	55.46	-30.6	-31.2	26.4	0.00e+00	0	34	0	3502243840	34	5838
2026-01-07 04:44:24.01	331.40	55.09	-30.4	-30.9	27.2	0.00e+00	0	34	0	3509583872	34	5634
2026-01-07 04:44:25.02	331.51	54.71	-30.3	-30.8	27.2	0.00e+00	0	34	0	3516923904	34	5579
2026-01-07 04:44:26.03	331.62	54.34	-30.6	-31.1	26.4	0.00e+00	0	34	0	3524263936	34	5775
2026-01-07 04:44:27.04	331.72	53.98	-30.6	-31.0	27.1	0.00e+00	0	35	0	3531603968	34	5755
2026-01-07 04:44:28.05	331.82	53.61	-30.4	-30.9	27.2	0.00e+00	0	34	0	3538944000	34	5639
2026-01-07 04:44:29.06	331.92	53.25	-30.5	-31.0	27.2	0.00e+00	0	34	0	3546284032	34	5699
2026-01-07 04:44:30.07	332.01	52.89	-30.6	-31.1	27.1	0.00e+00	0	34	0	3553624064	34	5784
2026-01-07 04:44:31.08	332.10	52.53	-30.7	-31.2	26.9	0.00e+00	0	34	0	3560964096	34	5833
2026-01-07 04:44:32.08	332.19	52.18	-30.6	-31.0	27.2	0.00e+00	0	34	0	3568304128	34	5744
2026-01-07 04:44:33.09	332.28	51.83	-30.4	-30.9	27.3	0.00e+00	0	35	0	3575644160	34	5646
2026-01-07 04:44:34.11	332.37	51.48	-30.5	-31.0	27.1	0.00e+00	0	35	0	3582984192	34	5713
2026-01-07 04:44:35.12	332.46	51.13	-30.6	-31.1	27.1	0.00e+00	0	35	0	3590324224	34	5767
2026-01-07 04:44:36.13	332.54	50.78	-30.7	-31.2	26.8	0.00e+00	0	35	0	3597664256	34	5829
2026-01-07 04:44:37.13	332.62	50.44	-30.6	-31.1	26.7	0.00e+00	0	35	0	3605004288	34	5769
2026-01-07 04:44:38.15	332.70	50.10	-30.7	-31.2	27.0	0.00e+00	0	35	0	3612344320	34	5837
2026-01-07 04:44:39.16	332.78	49.76	-30.5	-31.0	27.2	0.00e+00	0	34	0	3618635776	34	5696
2026-01-07 04:44:40.17	332.86	49.43	-30.3	-30.8	27.3	0.00e+00	0	34	0	3625975808	34	5607
2026-01-07 04:44:41.18	332.93	49.10	-30.4	-30.9	27.3	0.00e+00	0	35	0	3634364416	34	5648
2026-01-07 04:44:42.19	333.00	48.77	-30.4	-30.9	27.3	0.00e+00	0	35	0	3640655872	34	5656
2026-01-07 04:44:43.19	333.07	48.44	-30.1	-30.6	27.3	0.00e+00	0	35	0	3647995904	34	5459
2026-01-07 04:44:44.21	333.15	48.12	-30.0	-30.5	27.4	0.00e+00	0	34	0	3655335936	34	5414
2026-01-07 04:44:45.22	333.22	47.79	-30.3	-30.8	27.5	0.00e+00	0	35	0	3662675968	34	5579
2026-01-07 04:44:46.23	333.28	47.47	-30.2	-30.7	27.4	0.00e+00	0	34	0	3670016000	34	5532
2026-01-07 04:44:47.24	333.35	47.15	-30.4	-30.9	26.0	0.00e+00	0	35	0	3677356032	34	5666
2026-01-07 04:44:48.25	333.41	46.84	-30.1	-30.6	27.4	0.00e+00	0	35	0	3684696064	34	5470
2026-01-07 04:44:49.26	333.48	46.53	-29.9	-30.4	27.6	0.00e+00	0	35	0	3692036096	34	5359
2026-01-07 04:44:50.27	333.54	46.21	-29.7	-30.2	27.8	0.00e+00	0	35	0	3699376128	34	5219
2026-01-07 04:44:51.28	333.60	45.91	-29.7	-30.2	27.8	0.00e+00	0	35	0	3706716160	32	5857
2026-01-07 04:44:52.29	333.66	45.60	-29.7	-30.2	27.7	0.00e+00	0	35	0	3714056192	32	5835
2026-01-07 04:44:53.29	333.72	45.30	-29.4	-29.8	28.0	0.00e+00	0	35	0	3721396224	32	5620
2026-01-07 04:44:54.30	333.78	45.00	-29.2	-29.6	28.1	0.00e+00	0	35	0	3728736256	32	5498
2026-01-07 04:44:55.31	333.84	44.70	-29.1	-29.6	28.3	0.00e+00	0	35	0	3736076288	32	5457
2026-01-07 04:44:56.33	333.90	44.40	-29.1	-29.6	28.0	0.00e+00	0	35	0	3743416320	32	5448
2026-01-07 04:44:57.33	333.95	44.11	-29.2	-29.7	27.6	0.00e+00	0	35	0	3750756352	32	5509
2026-01-07 04:44:58.34	334.01	43.81	-29.3	-29.8	28.1	0.00e+00	0	34	0	3758096384	32	5570
2026-01-07 04:44:59.35	334.06	43.52	-29.3	-29.8	27.6	0.00e+00	0	34	0	3764387840	32	5595
2026-01-07 04:45:00.36	334.11	43.23	-29.4	-29.8	27.8	0.00e+00	0	35	0	3771727872	32	5627
2026-01-07 04:45:01.37	334.16	42.95	-29.5	-29.9	27.7	0.00e+00	0	34	0	3779067904	32	5681
2026-01-07 04:45:02.37	334.21	42.67	-29.5	-30.0	27.6	0.00e+00	0	34	0	3786407936	32	5713
2026-01-07 04:45:03.38	334.26	42.38	-29.4	-29.8	27.4	0.00e+00	0	34	0	3793747968	32	5621
2026-01-07 04:45:04.40	334.31	42.10	-29.4	-29.9	27.9	0.00e+00	0	34	0	3801088000	32	5662
2026-01-07 04:45:05.41	334.36	41.82	-29.5	-29.9	28.0	0.00e+00	0	35	0	3808428032	32	5684
2026-01-07 04:45:06.42	334.41	41.55	-29.3	-29.7	27.9	0.00e+00	0	35	0	3815768064	32	5559
2026-01-07 04:45:07.43	334.46	41.27	-29.4	-29.9	27.9	0.00e+00	0	34	0	3823108096	32	5671
2026-01-07 04:45:08.44	334.50	41.00	-29.3	-29.8	28.0	0.00e+00	0	35	0	3830448128	32	5601
2026-01-07 04:45:09.45	334.55	40.73	-29.3	-29.8	28.1	0.00e+00	0	35	0	3837788160	32	5599
2026-01-07 04:45:10.45	334.59	40.47	-29.4	-29.9	28.1	0.00e+00	0	34	0	3845128192	32	5645
2026-01-07 04:45:11.46	334.64	40.20	-29.5	-29.9	27.9	0.00e+00	0	35	0	3852468224	32	5681
2026-01-07 04:45:12.47	334.68	39.94	-29.5	-30.0	27.9	0.00e+00	0	34	0	3859808256	32	5710
2026-01-07 04:45:13.48	334.73	39.68	-29.6	-30.0	28.0	0.00e+00	0	35	0	3867148288	32	5743
2026-01-07 04:45:14.49	334.77	39.42	-29.6	-30.1	27.8	0.00e+00	0	35	0	3874488320	32	5797
2026-01-07 04:45:15.50	334.81	39.16	-29.5	-29.9	27.8	0.00e+00	0	35	0	3881828352	32	5688
2026-01-07 04:45:16.51	334.85	38.90	-29.4	-29.9	28.0	0.00e+00	0	35	0	3889168384	32	5654
2026-01-07 04:45:17.52	334.89	38.65	-29.4	-29.9	28.1	0.00e+00	0	35	0	3895459840	32	5639
2026-01-07 04:45:18.53	334.93	38.40	-29.2	-29.6	28.1	0.00e+00	0	34	0	3903848448	32	5498
2026-01-07 04:45:19.54	334.97	38.15	-29.1	-29.5	28.3	0.00e+00	0	34	0	3911188480	32	5432
2026-01-07 04:45:20.55	335.01	37.90	-28.9	-29.3	28.4	0.00e+00	0	35	0	3917479936	32	5310
2026-01-07 04:45:21.56	335.05	37.65	-28.7	-29.2	28.5	0.00e+00	0	35	0	3924819968	32	5210
2026-01-07 04:45:22.57	335.09	37.40	-28.8	-29.2	28.5	0.00e+00	0	35	0	3933208576	30	5887
2026-01-07 04:45:23.58	335.12	37.16	-28.8	-29.2	28.6	0.00e+00	0	34	0	3939500032	30	5863
2026-01-07 04:45:24.59	335.16	36.92	-28.8	-29.2	28.6	0.00e+00	0	35	0	3946840064	30	5878
2026-01-07 04:45:25.60	335.20	36.68	-28.8	-29.3	28.5	0.00e+00	0	35	0	3954180096	30	5909
2026-01-07 04:45:26.61	335.23	36.44	-29.0	-29.4	28.3	0.00e+00	0	35	0	3961520128	30	6000
2026-01-07 04:45:27.62	335.27	36.21	-28.9	-29.4	28.4	0.00e+00	0	35	0	3968860160	30	5973
2026-01-07 04:45:28.63	335.31	35.97	-29.0	-29.4	28.1	0.00e+00	0	34	0	3976200192	30	6018
2026-01-07 04:45:29.64	335.34	35.74	-29.0	-29.4	28.1	0.00e+00	0	35	0	3983540224	30	6015
2026-01-07 04:45:30.65	335.37	35.51	-29.0	-29.4	28.3	0.00e+00	0	35	0	3990880256	30	6018
2026-01-07 04:45:31.66	335.41	35.28	-29.0	-29.5	28.2	0.00e+00	0	35	0	3998220288	30	6056
2026-01-07 04:45:32.67	335.44	35.05	-28.9	-29.3	28.4	0.00e+00	0	34	0	4005560320	30	5938
2026-01-07 04:45:33.68	335.47	34.83	-28.9	-29.4	28.5	0.00e+00	0	35	0	4012900352	30	5972
2026-01-07 04:45:34.69	335.51	34.60	-28.8	-29.3	28.5	0.00e+00	0	35	0	4020240384	30	5942
2026-01-07 04:45:35.69	335.54	34.38	-28.9	-29.4	28.4	0.00e+00	0	35	0	4027580416	30	5975
2026-01-07 04:45:36.70	335.57	34.16	-28.8	-29.3	28.4	0.00e+00	0	35	0	4034920448	30	5930
2026-01-07 04:45:37.71	335.60	33.94	-28.7	-29.1	28.6	0.00e+00	0	35	0	4041211904	30	5814
2026-01-07 04:45:38.73	335.63	33.72	-28.7	-29.2	28.6	0.00e+00	0	35	0	4049600512	30	5833
2026-01-07 04:45:39.73	335.66	33.50	-28.7	-29.2	28.5	0.00e+00	0	34	0	4056940544	30	5859
2026-01-07 04:45:40.74	335.69	33.29	-28.6	-29.1	28.7	0.00e+00	0	35	0	4063232000	30	5775
2026-01-07 04:45:41.75	335.72	33.08	-28.7	-29.2	28.6	0.00e+00	0	35	0	4070572032	30	5836
2026-01-07 04:45:42.76	335.75	32.86	-28.8	-29.2	28.5	0.00e+00	0	35	0	4077912064	30	5886
2026-01-07 04:45:43.77	335.78	32.65	-28.7	-29.2	28.5	0.00e+00	0	35	0	4085252096	30	5854
2026-01-07 04:45:44.78	335.81	32.44	-28.8	-29.2	27.9	0.00e+00	0	35	0	4092592128	30	5873
2026-01-07 04:45:45.79	335.84	32.24	-28.8	-29.3	28.3	0.00e+00	0	35	0	4099932160	30	5908
2026-01-07 04:45:46.80	335.87	32.03	-28.8	-29.3	28.4	0.00e+00	0	35	0	4107272192	30	5916
2026-01-07 04:45:47.81	335.90	31.82	-28.9	-29.3	28.4	0.00e+00	0	35	0	4114612224	30	5953
2026-01-07 04:45:48.82	335.93	31.62	-28.9	-29.4	28.2	0.00e+00	0	35	0	4121952256	30	5969
2026-01-07 04:45:49.83	335.95	31.42	-29.0	-29.4	28.4	0.00e+00	0	35	0	4129292288	30	6031
2026-01-07 04:45:50.84	335.98	31.22	-29.1	-29.6	28.2	0.00e+00	0	35	0	4136632320	30	6139
2026-01-07 04:45:51.85	336.01	31.02	-29.1	-29.6	28.3	0.00e+00	0	34	0	4143972352	30	6127
2026-01-07 04:45:52.86	336.03	30.82	-29.3	-29.7	28.0	0.00e+00	0	35	0	4151312384	30	6217
2026-01-07 04:45:53.87	336.06	30.62	-29.2	-29.7	28.2	0.00e+00	0	35	0	4158652416	30	6190
2026-01-07 04:45:54.88	336.09	30.43	-29.4	-29.8	28.0	0.00e+00	0	35	0	4165992448	30	6306
2026-01-07 04:45:55.89	336.11	30.24	-29.4	-29.9	28.1	0.00e+00	0	35	0	4173332480	30	6326
2026-01-07 04:45:56.89	336.14	30.04	-29.3	-29.8	28.0	0.00e+00	0	35	0	4180672512	30	6264
2026-01-07 04:45:57.90	336.16	29.85	-29.4	-29.8	28.1	0.00e+00	0	35	0	4188012544	30	6304
2026-01-07 04:45:58.91	336.19	29.66	-29.4	-29.9	28.0	0.00e+00	0	35	0	4194304000	30	6334
2026-01-07 04:45:59.92	336.21	29.47	-29.5	-30.0	27.8	0.00e+00	0	35	0	4202692608	30	6414
2026-01-07 04:46:00.93	336.24	29.29	-29.4	-29.8	27.7	0.00e+00	0	35	0	4210032640	30	6312
2026-01-07 04:46:01.94	336.26	29.10	-29.5	-30.0	28.0	0.00e+00	0	35	0	4216324096	30	6404
2026-01-07 04:46:02.95	336.29	28.92	-29.5	-29.9	28.0	0.00e+00	0	35	0	4223664128	30	6368
2026-01-07 04:46:03.96	336.31	28.73	-29.5	-30.0	27.9	0.00e+00	0	35	0	4231004160	30	6424
2026-01-07 04:46:04.97	336.33	28.55	-29.6	-30.1	27.9	0.00e+00	0	35	0	4238344192	30	6511
2026-01-07 04:46:05.98	336.36	28.37	-29.6	-30.1	27.9	0.00e+00	0	35	0	4245684224	30	6476
2026-01-07 04:46:06.99	336.38	28.19	-29.6	-30.0	27.9	0.00e+00	0	35	0	4253024256	30	6453
2026-01-07 04:46:07.99	336.40	28.01	-29.6	-30.1	27.6	0.00e+00	0	35	0	4260364288	30	6490
2026-01-07 04:46:09.01	336.43	27.83	-29.5	-30.0	27.9	0.00e+00	0	35	0	4267704320	30	6431
2026-01-07 04:46:10.01	336.45	27.65	-29.6	-30.1	27.3	0.00e+00	0	35	0	4275044352	30	6480
2026-01-07 04:46:11.02	336.47	27.48	-29.6	-30.0	27.9	0.00e+00	0	35	0	4282384384	30	6459
2026-01-07 04:46:12.03	336.49	27.30	-29.7	-30.1	27.6	0.00e+00	0	35	0	4289724416	30	6535
2026-01-07 04:46:13.04	336.52	27.13	-29.6	-30.0	27.8	0.00e+00	0	35	0	4297064448	30	6462
2026-01-07 04:46:14.05	336.54	26.96	-29.5	-29.9	28.0	0.00e+00	0	35	0	4304404480	30	6355
2026-01-07 04:46:15.06	336.56	26.79	-29.5	-30.0	28.0	0.00e+00	0	35	0	4311744512	30	6423
2026-01-07 04:46:16.07	336.58	26.62	-29.5	-30.0	27.9	0.00e+00	0	35	0	4319084544	30	6426
2026-01-07 04:46:17.08	336.60	26.45	-29.5	-30.0	27.9	0.00e+00	0	35	0	4326424576	30	6412
2026-01-07 04:46:18.09	336.62	26.28	-29.5	-30.0	27.9	0.00e+00	0	35	0	4333764608	30	6430
2026-01-07 04:46:19.10	336.65	26.11	-29.4	-29.8	28.0	0.00e+00	0	35	0	4340056064	30	6317
2026-01-07 04:46:20.11	336.67	25.95	-29.6	-30.0	27.7	0.00e+00	0	35	0	4347396096	30	6448
2026-01-07 04:46:21.12	336.69	25.78	-29.6	-30.1	27.8	0.00e+00	0	35	0	4355784704	30	6479
2026-01-07 04:46:22.13	336.71	25.62	-29.5	-30.0	27.7	0.00e+00	0	35	0	4362076160	30	6391
2026-01-07 04:46:23.14	336.73	25.45	-29.6	-30.1	27.8	0.00e+00	0	35	0	4369416192	30	6487
2026-01-07 04:46:24.15	336.75	25.29	-29.5	-29.9	27.9	0.00e+00	0	35	0	4376756224	30	6372
2026-01-07 04:46:25.16	336.77	25.13	-29.6	-30.0	27.8	0.00e+00	0	35	0	4384096256	30	6456
2026-01-07 04:46:26.17	336.79	24.97	-29.5	-30.0	27.9	0.00e+00	0	35	0	4391436288	30	6396
2026-01-07 04:46:27.18	336.81	24.81	-29.5	-30.0	27.9	0.00e+00	0	35	0	4398776320	30	6445
2026-01-07 04:46:28.19	336.83	24.65	-29.5	-30.0	27.8	0.00e+00	0	35	0	4406116352	30	6438
2026-01-07 04:46:29.20	336.85	24.50	-29.5	-30.0	27.9	0.00e+00	0	35	0	4413456384	30	6422
2026-01-07 04:46:30.21	336.86	24.34	-29.8	-30.2	27.7	0.00e+00	0	35	0	4420796416	30	6592
2026-01-07 04:46:31.22	336.88	24.18	-29.5	-30.0	27.9	0.00e+00	0	35	0	4428136448	32	5704
2026-01-07 04:46:32.23	336.90	24.03	-29.6	-30.1	27.8	0.00e+00	0	35	0	4435476480	32	5768
2026-01-07 04:46:33.24	336.92	23.88	-29.6	-30.1	27.8	0.00e+00	0	35	0	4442816512	32	5766
2026-01-07 04:46:34.25	336.94	23.72	-29.6	-30.0	27.7	0.00e+00	0	35	0	4450156544	32	5752
2026-01-07 04:46:35.26	336.96	23.57	-29.6	-30.0	27.8	0.00e+00	0	35	0	4457496576	32	5742
2026-01-07 04:46:36.27	336.98	23.42	-29.6	-30.0	27.7	0.00e+00	0	35	0	4464836608	32	5749
2026-01-07 04:46:37.28	336.99	23.27	-29.7	-30.1	27.7	0.00e+00	0	34	0	4472176640	32	5809
2026-01-07 04:46:38.29	337.01	23.12	-29.6	-30.1	27.9	0.00e+00	0	35	0	4479516672	32	5773
2026-01-07 04:46:39.29	337.03	22.98	-29.6	-30.1	27.7	0.00e+00	0	35	0	4486856704	32	5795
2026-01-07 04:46:40.31	337.05	22.83	-29.6	-30.0	27.8	0.00e+00	0	35	0	4493148160	32	5742
2026-01-07 04:46:41.32	337.07	22.68	-29.6	-30.1	27.4	0.00e+00	0	35	0	4500488192	32	5779
2026-01-07 04:46:42.32	337.08	22.54	-29.7	-30.1	27.7	0.00e+00	0	35	0	4508876800	32	5805
2026-01-07 04:46:43.33	337.10	22.39	-29.7	-30.1	27.6	0.00e+00	0	34	0	4515168256	32	5820
2026-01-07 04:46:44.34	337.12	22.25	-29.7	-30.1	27.6	0.00e+00	0	35	0	4522508288	32	5796
2026-01-07 04:46:45.35	337.14	22.10	-29.7	-30.2	27.6	0.00e+00	0	35	0	4529848320	32	5864
2026-01-07 04:46:46.36	337.15	21.96	-29.8	-30.2	27.7	0.00e+00	0	35	0	4537188352	32	5883
2026-01-07 04:46:47.37	337.17	21.82	-29.8	-30.3	27.7	0.00e+00	0	35	0	4544528384	32	5911
2026-01-07 04:46:48.38	337.19	21.68	-29.8	-30.2	27.6	0.00e+00	0	35	0	4551868416	32	5870
2026-01-07 04:46:49.39	337.20	21.54	-30.0	-30.4	27.6	0.00e+00	0	35	0	4559208448	32	6015
2026-01-07 04:46:50.40	337.22	21.40	-29.8	-30.3	27.6	0.00e+00	0	35	0	4566548480	32	5925
2026-01-07 04:46:51.41	337.24	21.26	-30.0	-30.5	27.5	0.00e+00	0	35	0	4573888512	32	6037
2026-01-07 04:46:52.42	337.25	21.12	-29.9	-30.4	27.5	0.00e+00	0	35	0	4581228544	32	5973
2026-01-07 04:46:53.43	337.27	20.99	-29.9	-30.4	27.5	0.00e+00	0	35	0	4588568576	32	5977
2026-01-07 04:46:54.44	337.28	20.85	-30.0	-30.5	27.4	0.00e+00	0	35	0	4595908608	32	6048
