passes_logs/2026/01/15/XPeterburg/XPeterburg__20260115_021940_FENGYUN_3D_rec.log

#Pass ID: 20260115_021940_FENGYUN 3D
#Satellite: FENGYUN 3D
#Configuration: FENGYUN 3D
#Start time: 2026-01-15 02:19:36

#Version: 1.5.20200625
#Station: XPeterburg
#Location: 30.318091 lon 59.932769 lat
#TLE: 1 43010U 17072A   26013.94640698 -.00000044  00000+0  88349-6 0  9999
#TLE: 2 43010  98.9934 345.7464 0002313 110.9627 249.1796 14.19695403423100

#Time	Az	El	Level	Level2	SNR	BER	Gain	Gain2
2026-01-15 02:19:36.04	48.26	68.45	-39.1	-42.3	3.3	8392089	95	3556
2026-01-15 02:19:36.24	48.40	68.52	-39.2	-43.6	3.6	8464462	94	4075
2026-01-15 02:19:36.44	48.53	68.60	-38.6	-42.1	3.5	8435188	94	3694
2026-01-15 02:19:36.64	48.67	68.68	-38.4	-40.9	3.4	8435188	94	3258
2026-01-15 02:19:36.84	48.81	68.76	-38.3	-40.0	3.3	8406898	94	3026
2026-01-15 02:19:37.04	48.95	68.84	-38.0	-40.8	3.6	8384868	94	3381
2026-01-15 02:19:37.25	49.10	68.92	-37.8	-40.2	3.9	8384868	93	3249
2026-01-15 02:19:37.45	49.24	69.00	-37.4	-38.4	3.9	8417495	93	2734
2026-01-15 02:19:37.65	49.39	69.08	-37.0	-37.3	4.2	8305343	92	2543
2026-01-15 02:19:37.85	49.53	69.15	-36.5	-36.5	4.7	8305343	91	2451
2026-01-15 02:19:38.05	49.68	69.23	-35.8	-35.7	5.4	7934165	89	2448
2026-01-15 02:19:38.25	49.82	69.31	-35.1	-34.7	6.1	6074352	88	2347
2026-01-15 02:19:38.45	49.97	69.39	-34.5	-34.1	6.9	6074352	87	2324
2026-01-15 02:19:38.65	50.12	69.47	-33.7	-33.3	7.7	2553142	85	2350
2026-01-15 02:19:38.85	50.27	69.54	-33.0	-32.3	8.6	1067962	84	2286
2026-01-15 02:19:39.05	50.43	69.62	-32.3	-31.6	9.4	359905	83	2250
2026-01-15 02:19:39.26	50.59	69.70	-31.8	-31.0	10.2	359905	82	2231
2026-01-15 02:19:39.46	50.74	69.78	-31.3	-30.9	10.9	103820	80	2351
2026-01-15 02:19:39.66	50.90	69.86	-30.8	-29.8	11.6	24765	80	2205
2026-01-15 02:19:39.86	51.06	69.94	-30.1	-29.6	12.2	24765	78	2303
2026-01-15 02:19:40.06	51.21	70.01	-29.7	-29.2	12.6	5596	77	2318
2026-01-15 02:19:40.26	51.37	70.09	-29.3	-28.3	13.2	1350	77	2198
2026-01-15 02:19:40.46	51.54	70.17	-29.0	-28.2	13.5	1350	76	2251
2026-01-15 02:19:40.66	51.70	70.25	-28.4	-27.6	13.9	263	75	2240
2026-01-15 02:19:40.86	51.86	70.32	-28.2	-27.6	14.3	57	74	2303
2026-01-15 02:19:41.06	52.03	70.40	-27.9	-27.1	14.5	57	74	2244
2026-01-15 02:19:41.26	52.19	70.48	-27.8	-26.9	14.7	22	74	2215
2026-01-15 02:19:41.47	52.37	70.56	-27.7	-27.1	14.8	11	73	2309
2026-01-15 02:19:41.67	52.54	70.63	-27.6	-27.0	14.9	11	73	2287
2026-01-15 02:19:41.87	52.71	70.71	-27.6	-27.0	14.9	0	73	2289
2026-01-15 02:19:42.07	52.88	70.79	-27.6	-27.1	14.9	11	73	2301
2026-01-15 02:19:42.27	53.06	70.86	-27.7	-27.2	14.9	11	73	2318
2026-01-15 02:19:42.47	53.23	70.94	-27.6	-26.9	15.1	11	73	2275
2026-01-15 02:19:42.67	53.41	71.02	-27.7	-27.2	15.0	0	73	2318
2026-01-15 02:19:42.87	53.59	71.09	-27.8	-27.3	14.9	0	73	2339
2026-01-15 02:19:43.07	53.77	71.17	-27.8	-27.4	14.9	0	73	2350
2026-01-15 02:19:43.28	53.96	71.25	-28.0	-27.7	14.8	11	73	2390
2026-01-15 02:19:43.48	54.14	71.32	-28.0	-27.8	14.8	0	73	2401
2026-01-15 02:19:43.68	54.33	71.40	-28.0	-27.8	14.7	0	73	2412
2026-01-15 02:19:43.88	54.51	71.48	-27.9	-27.7	14.8	0	73	2393
2026-01-15 02:19:44.08	54.70	71.55	-28.0	-27.7	14.8	0	73	2390
2026-01-15 02:19:44.28	54.89	71.63	-27.9	-27.6	14.9	0	73	2376
2026-01-15 02:19:44.48	55.08	71.70	-27.8	-27.4	15.0	0	73	2347
2026-01-15 02:19:44.68	55.27	71.78	-27.6	-27.1	15.2	11	73	2306
2026-01-15 02:19:44.88	55.47	71.85	-27.6	-27.0	15.3	0	73	2297
2026-01-15 02:19:45.08	55.67	71.93	-27.5	-26.9	15.4	0	73	2278
2026-01-15 02:19:45.28	55.86	72.00	-27.5	-26.8	15.5	0	73	2265
2026-01-15 02:19:45.48	56.06	72.07	-27.6	-26.9	15.4	0	73	2284
2026-01-15 02:19:45.69	56.27	72.15	-27.5	-26.9	15.5	0	73	2284
2026-01-15 02:19:45.89	56.48	72.23	-27.7	-27.2	15.4	0	73	2322
2026-01-15 02:19:46.09	56.68	72.30	-27.7	-27.2	15.4	0	73	2321
2026-01-15 02:19:46.29	56.89	72.37	-27.9	-27.6	15.2	0	73	2381
2026-01-15 02:19:46.49	57.10	72.45	-27.9	-27.6	15.2	0	73	2380
2026-01-15 02:19:46.69	57.31	72.52	-28.0	-27.8	15.2	0	73	2406
2026-01-15 02:19:46.89	57.52	72.59	-28.0	-27.8	15.1	0	73	2421
2026-01-15 02:19:47.09	57.74	72.67	-28.0	-27.9	15.1	0	73	2428
2026-01-15 02:19:47.29	57.95	72.74	-28.1	-28.0	15.0	0	73	2445
2026-01-15 02:19:47.49	58.17	72.81	-28.0	-27.9	15.1	0	73	2426
2026-01-15 02:19:47.69	58.39	72.88	-28.0	-27.9	15.2	0	73	2428
2026-01-15 02:19:47.90	58.62	72.96	-28.0	-27.9	15.2	0	73	2428
2026-01-15 02:19:48.10	58.85	73.03	-28.0	-27.9	15.2	11	73	2428
2026-01-15 02:19:48.30	59.07	73.10	-28.0	-27.8	15.2	11	73	2420
2026-01-15 02:19:48.50	59.30	73.18	-28.0	-27.8	15.2	0	73	2417
2026-01-15 02:19:48.70	59.53	73.25	-27.9	-27.6	15.3	0	73	2390
2026-01-15 02:19:48.90	59.76	73.32	-27.9	-27.6	15.3	0	73	2390
2026-01-15 02:19:49.10	60.00	73.39	-27.8	-27.5	15.3	0	73	2378
2026-01-15 02:19:49.30	60.23	73.46	-27.9	-27.6	15.3	0	73	2380
2026-01-15 02:19:49.50	60.47	73.53	-27.9	-27.6	15.3	0	73	2376
2026-01-15 02:19:49.71	60.73	73.61	-27.9	-27.6	15.2	0	73	2384
2026-01-15 02:19:49.91	60.97	73.68	-27.9	-27.5	15.3	0	73	2373
2026-01-15 02:19:50.11	61.21	73.74	-28.0	-27.8	15.2	0	73	2405
2026-01-15 02:19:50.31	61.46	73.81	-27.9	-27.7	15.2	0	73	2399
2026-01-15 02:19:50.51	61.71	73.88	-28.0	-27.8	15.2	0	73	2408
2026-01-15 02:19:50.71	61.96	73.95	-28.0	-27.9	15.1	0	73	2418
2026-01-15 02:19:50.91	62.22	74.02	-28.0	-27.8	15.1	0	73	2418
2026-01-15 02:19:51.11	62.47	74.09	-27.9	-27.6	15.2	0	73	2379
2026-01-15 02:19:51.31	62.73	74.16	-27.8	-27.4	15.3	0	73	2356
2026-01-15 02:19:51.52	63.01	74.23	-27.7	-27.3	15.4	0	73	2343
2026-01-15 02:19:51.72	63.27	74.30	-27.6	-27.1	15.5	0	73	2309
2026-01-15 02:19:51.92	63.53	74.37	-27.6	-26.9	15.5	0	73	2291
2026-01-15 02:19:52.12	63.80	74.43	-27.5	-26.7	15.7	0	73	2264
2026-01-15 02:19:52.32	64.07	74.50	-27.4	-26.5	15.8	0	73	2235
2026-01-15 02:19:52.52	64.35	74.57	-27.3	-26.4	15.9	0	73	2224
2026-01-15 02:19:52.72	64.62	74.63	-27.3	-26.5	15.9	0	73	2229
2026-01-15 02:19:52.92	64.90	74.70	-27.4	-26.5	15.9	0	73	2237
2026-01-15 02:19:53.13	65.19	74.77	-27.4	-26.7	15.8	0	73	2261
2026-01-15 02:19:53.33	65.48	74.83	-27.5	-26.9	15.8	0	73	2282
2026-01-15 02:19:53.53	65.76	74.90	-27.6	-27.0	15.7	0	73	2302
2026-01-15 02:19:53.73	66.05	74.96	-27.7	-27.3	15.6	0	73	2340
2026-01-15 02:19:53.93	66.34	75.03	-27.8	-27.4	15.5	0	73	2361
2026-01-15 02:19:54.13	66.63	75.09	-27.9	-27.7	15.4	0	73	2395
2026-01-15 02:19:54.33	66.93	75.15	-27.9	-27.6	15.5	0	73	2381
2026-01-15 02:19:54.53	67.23	75.22	-27.8	-27.5	15.5	0	73	2371
2026-01-15 02:19:54.73	67.53	75.28	-27.7	-27.2	15.7	0	73	2333
2026-01-15 02:19:54.93	67.83	75.34	-27.5	-27.0	15.8	0	73	2300
2026-01-15 02:19:55.14	68.16	75.41	-27.4	-26.7	16.0	0	73	2263
2026-01-15 02:19:55.34	68.47	75.47	-27.3	-26.6	16.1	0	73	2245
2026-01-15 02:19:55.54	68.78	75.53	-27.3	-26.4	16.1	0	73	2223
2026-01-15 02:19:55.74	69.09	75.59	-27.3	-26.9	16.2	0	72	2353
2026-01-15 02:19:55.94	69.41	75.65	-27.2	-26.8	16.2	0	72	2340
2026-01-15 02:19:56.14	69.73	75.71	-27.2	-26.7	16.2	0	72	2332
2026-01-15 02:19:56.34	70.05	75.77	-27.2	-26.7	16.2	0	72	2325
2026-01-15 02:19:56.54	70.38	75.83	-27.2	-26.8	16.2	0	72	2337
2026-01-15 02:19:56.74	70.71	75.89	-27.2	-26.8	16.1	0	72	2335
2026-01-15 02:19:56.95	71.06	75.95	-27.2	-26.8	16.1	0	72	2339
2026-01-15 02:19:57.15	71.39	76.01	-27.2	-26.6	16.1	0	72	2314
2026-01-15 02:19:57.35	71.73	76.07	-27.1	-26.5	16.1	0	72	2303
2026-01-15 02:19:57.55	72.07	76.13	-27.1	-26.5	16.1	0	72	2294
2026-01-15 02:19:57.75	72.41	76.18	-27.1	-26.4	16.1	0	72	2288
2026-01-15 02:19:57.95	72.76	76.24	-27.1	-26.4	16.1	0	72	2282
2026-01-15 02:19:58.15	73.11	76.30	-27.0	-26.3	16.1	0	72	2276
2026-01-15 02:19:58.35	73.46	76.35	-27.0	-26.3	16.1	0	72	2266
2026-01-15 02:19:58.55	73.82	76.41	-26.9	-26.2	16.1	0	72	2253
2026-01-15 02:19:58.75	74.17	76.46	-27.0	-26.2	16.1	0	72	2256
2026-01-15 02:19:58.96	74.55	76.52	-26.9	-26.1	16.1	0	72	2247
2026-01-15 02:19:59.16	74.92	76.57	-26.9	-26.1	16.1	0	72	2244
2026-01-15 02:19:59.36	75.28	76.62	-26.9	-26.1	16.1	0	72	2241
2026-01-15 02:19:59.56	75.65	76.68	-26.9	-26.0	16.2	0	72	2230
2026-01-15 02:19:59.76	76.03	76.73	-26.8	-25.9	16.2	0	72	2214
2026-01-15 02:19:59.96	76.40	76.78	-26.8	-25.9	16.3	0	72	2218
2026-01-15 02:20:00.16	76.78	76.83	-26.6	-25.9	16.3	0	71	2280
2026-01-15 02:20:00.36	77.17	76.88	-26.5	-25.8	16.3	0	71	2270
2026-01-15 02:20:00.56	77.55	76.93	-26.5	-25.8	16.4	0	71	2264
2026-01-15 02:20:00.76	77.94	76.98	-26.4	-25.6	16.4	0	71	2234
2026-01-15 02:20:00.97	78.35	77.03	-26.4	-25.5	16.5	0	71	2220
2026-01-15 02:20:01.17	78.74	77.08	-26.3	-25.3	16.5	0	71	2199
2026-01-15 02:20:01.37	79.14	77.13	-26.3	-25.3	16.5	0	71	2192
2026-01-15 02:20:01.57	79.54	77.17	-26.3	-25.8	16.5	0	70	2331
2026-01-15 02:20:01.77	79.94	77.22	-26.3	-25.8	16.6	0	70	2331
2026-01-15 02:20:01.97	80.35	77.26	-26.3	-25.7	16.6	0	70	2315
2026-01-15 02:20:02.17	80.76	77.31	-26.2	-25.6	16.6	0	70	2304
2026-01-15 02:20:02.38	81.19	77.36	-26.1	-25.5	16.7	0	70	2286
2026-01-15 02:20:02.58	81.61	77.40	-26.1	-25.4	16.7	0	70	2274
2026-01-15 02:20:02.78	82.03	77.44	-26.0	-25.3	16.8	0	70	2264
2026-01-15 02:20:02.98	82.45	77.48	-26.0	-25.2	16.9	0	70	2254
2026-01-15 02:20:03.18	82.87	77.53	-26.0	-25.1	16.9	0	70	2240
2026-01-15 02:20:03.38	83.30	77.57	-25.8	-24.9	17.1	0	70	2208
2026-01-15 02:20:03.58	83.73	77.61	-25.8	-24.8	17.2	0	70	2191
2026-01-15 02:20:03.78	84.16	77.65	-25.7	-25.0	17.3	0	69	2293
2026-01-15 02:20:03.98	84.60	77.69	-25.6	-25.0	17.3	0	69	2289
2026-01-15 02:20:04.19	85.06	77.73	-25.6	-25.0	17.3	0	69	2286
2026-01-15 02:20:04.39	85.50	77.76	-25.7	-25.1	17.3	0	69	2293
2026-01-15 02:20:04.59	85.94	77.80	-25.7	-25.0	17.3	0	69	2291
2026-01-15 02:20:04.79	86.39	77.84	-25.7	-25.1	17.3	0	69	2301
2026-01-15 02:20:04.99	86.84	77.87	-25.7	-25.1	17.3	0	69	2305
2026-01-15 02:20:05.19	87.29	77.91	-25.7	-25.2	17.3	0	69	2317
2026-01-15 02:20:05.39	87.75	77.94	-25.8	-25.3	17.3	0	69	2323
2026-01-15 02:20:05.59	88.20	77.98	-25.8	-25.3	17.3	0	69	2327
2026-01-15 02:20:05.79	88.66	78.01	-25.8	-25.3	17.3	0	69	2323
2026-01-15 02:20:05.99	89.13	78.04	-25.7	-25.2	17.3	0	69	2322
2026-01-15 02:20:06.19	89.59	78.07	-25.8	-25.3	17.3	0	69	2324
2026-01-15 02:20:06.40	90.08	78.10	-25.7	-25.2	17.3	0	69	2313
2026-01-15 02:20:06.60	90.55	78.13	-25.7	-25.2	17.3	0	69	2311
2026-01-15 02:20:06.80	91.02	78.16	-25.7	-25.1	17.3	0	69	2304
2026-01-15 02:20:07.00	91.50	78.19	-25.6	-25.0	17.4	0	69	2289
2026-01-15 02:20:07.20	91.98	78.22	-25.6	-24.9	17.4	0	69	2270
2026-01-15 02:20:07.40	92.46	78.24	-25.6	-24.9	17.4	0	69	2277
2026-01-15 02:20:07.60	92.94	78.27	-25.6	-24.9	17.4	0	69	2279
2026-01-15 02:20:07.80	93.42	78.29	-25.6	-25.0	17.3	0	69	2288
2026-01-15 02:20:08.01	93.93	78.32	-25.7	-25.1	17.3	0	69	2297
2026-01-15 02:20:08.21	94.42	78.34	-25.8	-25.3	17.2	0	69	2322
2026-01-15 02:20:08.41	94.91	78.37	-25.8	-25.3	17.2	0	69	2334
2026-01-15 02:20:08.61	95.40	78.39	-25.9	-25.5	17.1	0	69	2363
2026-01-15 02:20:08.81	95.89	78.41	-25.9	-25.7	17.1	0	69	2383
2026-01-15 02:20:09.01	96.39	78.43	-26.0	-25.8	17.0	0	69	2402
2026-01-15 02:20:09.21	96.89	78.45	-26.0	-25.9	17.0	0	69	2409
2026-01-15 02:20:09.41	97.38	78.46	-26.0	-25.8	17.1	0	69	2401
2026-01-15 02:20:09.61	97.88	78.48	-25.9	-25.6	17.2	0	69	2374
2026-01-15 02:20:09.82	98.41	78.50	-25.8	-25.4	17.3	0	69	2351
2026-01-15 02:20:10.02	98.91	78.51	-25.8	-25.3	17.5	0	69	2324
2026-01-15 02:20:10.22	99.42	78.53	-25.7	-25.1	17.6	0	69	2305
2026-01-15 02:20:10.42	99.93	78.54	-25.6	-24.9	17.7	0	69	2278
2026-01-15 02:20:10.62	100.43	78.56	-25.5	-24.7	17.8	0	69	2255
2026-01-15 02:20:10.82	100.94	78.57	-25.4	-24.6	17.9	0	69	2236
2026-01-15 02:20:11.02	101.45	78.58	-25.4	-24.5	17.9	0	69	2223
2026-01-15 02:20:11.22	101.96	78.59	-25.3	-24.4	18.0	0	69	2211
2026-01-15 02:20:11.42	102.47	78.60	-25.3	-24.4	18.0	0	69	2215
2026-01-15 02:20:11.62	102.98	78.61	-25.4	-24.5	17.9	0	69	2219
2026-01-15 02:20:11.83	103.52	78.62	-25.4	-24.5	17.9	0	69	2230
2026-01-15 02:20:12.03	104.03	78.62	-25.4	-24.6	17.8	0	69	2243
2026-01-15 02:20:12.23	104.55	78.63	-25.5	-24.7	17.8	0	69	2247
2026-01-15 02:20:12.43	105.06	78.63	-25.4	-24.6	17.8	0	69	2238
2026-01-15 02:20:12.63	105.58	78.64	-25.4	-24.6	17.8	0	69	2235
2026-01-15 02:20:12.83	106.09	78.64	-25.4	-24.5	17.9	0	69	2218
2026-01-15 02:20:13.03	106.61	78.64	-25.4	-24.5	17.8	0	69	2220
2026-01-15 02:20:13.23	107.12	78.64	-25.3	-24.4	17.9	0	69	2208
2026-01-15 02:20:13.43	107.64	78.64	-25.3	-24.9	18.0	0	68	2334
2026-01-15 02:20:13.63	108.16	78.64	-25.3	-24.8	18.0	0	68	2328
2026-01-15 02:20:13.83	108.67	78.64	-25.2	-24.7	18.0	0	68	2314
2026-01-15 02:20:14.04	109.21	78.64	-25.2	-24.7	18.1	0	68	2310
2026-01-15 02:20:14.24	109.73	78.64	-25.3	-24.7	18.0	0	68	2322
2026-01-15 02:20:14.44	110.24	78.63	-25.2	-24.6	18.1	0	68	2301
2026-01-15 02:20:14.64	110.76	78.63	-25.3	-24.8	18.0	0	68	2327
2026-01-15 02:20:14.84	111.27	78.62	-25.3	-24.8	18.0	0	68	2329
2026-01-15 02:20:15.04	111.78	78.61	-25.3	-24.9	18.0	0	68	2340
2026-01-15 02:20:15.24	112.30	78.61	-25.4	-25.0	18.0	0	68	2355
2026-01-15 02:20:15.44	112.81	78.60	-25.3	-24.9	18.0	0	68	2349
2026-01-15 02:20:15.64	113.32	78.59	-25.4	-25.0	18.0	0	68	2362
2026-01-15 02:20:15.84	113.83	78.58	-25.4	-25.1	18.0	0	68	2367
2026-01-15 02:20:16.05	114.37	78.57	-25.4	-25.1	18.0	0	68	2366
2026-01-15 02:20:16.25	114.87	78.56	-25.4	-25.1	17.9	0	68	2376
2026-01-15 02:20:16.45	115.38	78.54	-25.4	-25.1	17.9	0	68	2372
2026-01-15 02:20:16.65	115.89	78.53	-25.5	-25.4	17.8	0	68	2407
2026-01-15 02:20:16.85	116.39	78.51	-25.6	-25.4	17.8	0	68	2414
2026-01-15 02:20:17.05	116.89	78.50	-25.6	-25.6	17.7	0	68	2436
2026-01-15 02:20:17.25	117.40	78.48	-25.7	-25.7	17.7	0	68	2464
2026-01-15 02:20:17.45	117.90	78.46	-25.8	-25.8	17.6	0	68	2468
2026-01-15 02:20:17.65	118.40	78.45	-25.8	-25.8	17.6	0	68	2473
2026-01-15 02:20:17.86	118.92	78.43	-25.7	-25.7	17.7	0	68	2457
2026-01-15 02:20:18.06	119.41	78.41	-25.7	-25.6	17.7	0	68	2448
2026-01-15 02:20:18.26	119.91	78.39	-25.7	-25.6	17.7	0	68	2445
2026-01-15 02:20:18.46	120.40	78.36	-25.6	-25.4	17.8	0	68	2413
2026-01-15 02:20:18.66	120.89	78.34	-25.5	-25.3	17.9	0	68	2400
2026-01-15 02:20:18.86	121.38	78.32	-25.4	-25.1	18.0	0	68	2366
2026-01-15 02:20:19.06	121.86	78.29	-25.3	-24.9	18.1	0	68	2341
2026-01-15 02:20:19.26	122.35	78.27	-25.3	-24.9	18.1	0	68	2341
2026-01-15 02:20:19.46	122.83	78.24	-25.2	-24.7	18.2	0	68	2322
2026-01-15 02:20:19.66	123.31	78.22	-25.3	-24.8	18.1	0	68	2338
2026-01-15 02:20:19.87	123.81	78.19	-25.3	-24.8	18.1	0	68	2330
2026-01-15 02:20:20.07	124.28	78.16	-25.3	-24.9	18.1	0	68	2346
2026-01-15 02:20:20.27	124.75	78.13	-25.3	-25.0	18.0	0	68	2355
2026-01-15 02:20:20.47	125.22	78.10	-25.4	-25.0	18.0	0	68	2364
2026-01-15 02:20:20.67	125.69	78.07	-25.4	-25.1	17.9	0	68	2381
2026-01-15 02:20:20.87	126.16	78.04	-25.4	-25.2	17.9	0	68	2381
2026-01-15 02:20:21.07	126.62	78.01	-25.5	-25.3	17.8	0	68	2395
2026-01-15 02:20:21.27	127.08	77.98	-25.5	-25.3	17.8	0	68	2400
2026-01-15 02:20:21.47	127.54	77.94	-25.5	-25.3	17.7	0	68	2403
2026-01-15 02:20:21.67	127.99	77.91	-25.6	-25.4	17.7	0	68	2415
2026-01-15 02:20:21.88	128.47	77.87	-25.5	-25.3	17.7	0	68	2399
2026-01-15 02:20:22.08	128.92	77.84	-25.6	-25.4	17.7	0	68	2410
2026-01-15 02:20:22.28	129.37	77.80	-25.5	-25.2	17.7	0	68	2388
2026-01-15 02:20:22.48	129.81	77.76	-25.5	-25.2	17.7	0	68	2379
2026-01-15 02:20:22.68	130.25	77.72	-25.5	-25.2	17.7	0	68	2374
2026-01-15 02:20:22.88	130.69	77.69	-25.4	-25.1	17.7	0	68	2365
2026-01-15 02:20:23.08	131.12	77.65	-25.4	-25.1	17.7	0	68	2362
2026-01-15 02:20:23.28	131.56	77.61	-25.5	-25.2	17.6	0	68	2382
2026-01-15 02:20:23.48	131.99	77.57	-25.4	-25.1	17.6	0	68	2366
2026-01-15 02:20:23.69	132.44	77.52	-25.5	-25.3	17.5	0	68	2386
2026-01-15 02:20:23.89	132.86	77.48	-25.5	-25.3	17.5	0	68	2389
2026-01-15 02:20:24.09	133.28	77.44	-25.6	-25.4	17.5	0	68	2403
2026-01-15 02:20:24.29	133.70	77.40	-25.6	-25.5	17.4	0	68	2426
2026-01-15 02:20:24.49	134.12	77.35	-25.6	-25.5	17.4	0	68	2426
2026-01-15 02:20:24.69	134.53	77.31	-25.7	-25.7	17.3	0	68	2450
2026-01-15 02:20:24.89	134.94	77.26	-25.7	-25.7	17.3	0	68	2448
2026-01-15 02:20:25.09	135.34	77.22	-25.7	-25.7	17.3	0	68	2449
2026-01-15 02:20:25.29	135.75	77.17	-25.8	-25.8	17.2	0	68	2463
2026-01-15 02:20:25.50	136.17	77.12	-25.7	-25.7	17.3	0	68	2444
2026-01-15 02:20:25.70	136.56	77.07	-25.8	-25.8	17.2	0	68	2460
2026-01-15 02:20:25.90	136.96	77.03	-25.7	-25.6	17.3	0	68	2443
2026-01-15 02:20:26.10	137.35	76.98	-25.7	-25.7	17.3	0	68	2447
2026-01-15 02:20:26.30	137.74	76.93	-25.7	-25.7	17.3	0	68	2455
2026-01-15 02:20:26.50	138.12	76.88	-25.7	-25.7	17.3	0	68	2449
2026-01-15 02:20:26.70	138.51	76.83	-25.8	-25.8	17.3	0	68	2461
2026-01-15 02:20:26.90	138.89	76.78	-25.8	-25.8	17.3	0	68	2462
2026-01-15 02:20:27.10	139.26	76.73	-25.8	-25.8	17.3	0	68	2461
2026-01-15 02:20:27.31	139.65	76.67	-25.8	-25.8	17.3	0	68	2474
2026-01-15 02:20:27.51	140.02	76.62	-25.9	-25.9	17.2	0	68	2488
2026-01-15 02:20:27.71	140.39	76.57	-25.9	-26.0	17.2	0	68	2499
2026-01-15 02:20:27.91	140.75	76.51	-25.9	-26.0	17.2	0	68	2502
2026-01-15 02:20:28.11	141.12	76.46	-25.9	-26.1	17.2	0	68	2512
2026-01-15 02:20:28.31	141.47	76.40	-25.9	-26.1	17.2	0	68	2510
2026-01-15 02:20:28.51	141.83	76.35	-26.0	-26.2	17.1	0	68	2533
2026-01-15 02:20:28.71	142.18	76.29	-26.0	-25.8	17.0	0	69	2397
2026-01-15 02:20:28.91	142.53	76.24	-26.0	-25.8	17.0	0	69	2400
2026-01-15 02:20:29.11	142.88	76.18	-26.1	-26.0	17.0	0	69	2419
2026-01-15 02:20:29.31	143.22	76.12	-26.1	-26.0	16.9	0	69	2422
2026-01-15 02:20:29.52	143.58	76.06	-26.2	-26.1	16.9	0	69	2442
2026-01-15 02:20:29.72	143.92	76.01	-26.2	-26.1	16.9	0	69	2440
2026-01-15 02:20:29.92	144.25	75.95	-26.2	-26.2	16.8	0	69	2454
2026-01-15 02:20:30.12	144.58	75.89	-26.2	-26.1	16.9	0	69	2442
2026-01-15 02:20:30.32	144.91	75.83	-26.2	-26.1	16.9	0	69	2445
2026-01-15 02:20:30.52	145.24	75.77	-26.2	-26.2	16.8	0	69	2458
2026-01-15 02:20:30.72	145.56	75.71	-26.2	-26.1	16.9	0	69	2440
2026-01-15 02:20:30.92	145.88	75.65	-26.4	-26.5	16.7	0	69	2500
2026-01-15 02:20:31.13	146.22	75.59	-26.2	-26.1	16.9	0	69	2436
2026-01-15 02:20:31.33	146.53	75.53	-26.4	-26.6	16.7	0	69	2514
2026-01-15 02:20:31.53	146.84	75.46	-26.3	-26.3	16.9	0	69	2469
2026-01-15 02:20:31.73	147.15	75.40	-26.6	-26.4	16.5	0	70	2417
2026-01-15 02:20:31.93	147.46	75.34	-26.4	-26.1	16.7	0	70	2372
2026-01-15 02:20:32.13	147.76	75.28	-26.6	-26.4	16.6	0	70	2419
2026-01-15 02:20:32.33	148.06	75.21	-26.6	-26.4	16.6	0	70	2411
2026-01-15 02:20:32.53	148.36	75.15	-26.6	-26.6	16.5	0	70	2440
2026-01-15 02:20:32.73	148.66	75.09	-26.7	-26.7	16.5	0	70	2460
2026-01-15 02:20:32.93	148.95	75.02	-26.7	-26.8	16.4	0	70	2473
2026-01-15 02:20:33.14	149.26	74.95	-26.9	-27.0	16.3	0	70	2508
2026-01-15 02:20:33.34	149.55	74.89	-26.7	-26.7	16.5	0	70	2457
2026-01-15 02:20:33.54	149.83	74.82	-26.8	-27.0	16.3	0	70	2497
2026-01-15 02:20:33.74	150.11	74.76	-26.7	-26.6	16.5	0	70	2448
2026-01-15 02:20:33.94	150.40	74.69	-26.8	-26.9	16.4	0	70	2482
2026-01-15 02:20:34.14	150.67	74.63	-26.7	-26.7	16.5	0	70	2464
2026-01-15 02:20:34.34	150.95	74.56	-26.8	-26.9	16.4	0	70	2488
2026-01-15 02:20:34.54	151.22	74.49	-26.9	-27.0	16.3	0	70	2507
2026-01-15 02:20:34.74	151.49	74.43	-26.9	-27.0	16.4	0	70	2507
2026-01-15 02:20:34.94	151.76	74.36	-27.0	-27.2	16.3	0	70	2537
2026-01-15 02:20:35.14	152.03	74.29	-27.0	-26.9	16.1	0	71	2415
2026-01-15 02:20:35.34	152.29	74.22	-27.1	-27.0	16.0	0	71	2438
2026-01-15 02:20:35.54	152.55	74.16	-27.2	-27.2	16.0	0	71	2466
2026-01-15 02:20:35.75	152.82	74.08	-27.2	-27.3	15.9	0	71	2482
2026-01-15 02:20:35.95	153.08	74.02	-27.3	-27.4	15.8	0	71	2495
2026-01-15 02:20:36.15	153.33	73.95	-27.3	-27.5	15.8	0	71	2511
2026-01-15 02:20:36.35	153.59	73.88	-27.4	-27.7	15.7	0	71	2542
2026-01-15 02:20:36.55	153.84	73.81	-27.4	-27.7	15.7	0	71	2542
2026-01-15 02:20:36.75	154.08	73.74	-27.4	-27.7	15.8	0	71	2533
2026-01-15 02:20:36.95	154.33	73.67	-27.4	-27.7	15.7	0	71	2534
2026-01-15 02:20:37.15	154.57	73.60	-27.4	-27.7	15.7	0	71	2542
2026-01-15 02:20:37.35	154.81	73.53	-27.5	-27.8	15.7	0	71	2549
2026-01-15 02:20:37.55	155.05	73.46	-27.4	-27.6	15.8	0	71	2521
2026-01-15 02:20:37.76	155.30	73.38	-27.4	-27.7	15.7	0	71	2534
2026-01-15 02:20:37.96	155.53	73.31	-27.4	-27.5	15.7	0	71	2514
2026-01-15 02:20:38.16	155.77	73.24	-27.4	-27.7	15.7	0	71	2531
2026-01-15 02:20:38.36	156.00	73.17	-27.4	-27.6	15.7	0	71	2519
2026-01-15 02:20:38.56	156.22	73.10	-27.4	-27.7	15.7	0	71	2534
2026-01-15 02:20:38.76	156.45	73.03	-27.4	-27.6	15.7	0	71	2517
2026-01-15 02:20:38.96	156.67	72.95	-27.4	-27.6	15.7	0	71	2516
2026-01-15 02:20:39.16	156.90	72.88	-27.4	-27.6	15.6	0	71	2522
2026-01-15 02:20:39.36	157.12	72.81	-27.4	-27.6	15.6	0	71	2523
2026-01-15 02:20:39.56	157.34	72.74	-27.4	-27.7	15.5	0	71	2534
2026-01-15 02:20:39.76	157.55	72.66	-27.5	-27.7	15.5	0	71	2540
2026-01-15 02:20:39.97	157.78	72.59	-27.7	-27.7	15.4	0	72	2460
2026-01-15 02:20:40.17	157.99	72.51	-27.8	-27.8	15.3	0	72	2483
2026-01-15 02:20:40.37	158.20	72.44	-27.8	-27.8	15.3	11	72	2480
2026-01-15 02:20:40.57	158.41	72.37	-27.8	-27.9	15.2	0	72	2494
2026-01-15 02:20:40.77	158.62	72.29	-27.9	-28.1	15.1	0	72	2517
2026-01-15 02:20:40.97	158.82	72.22	-27.9	-28.1	15.1	0	72	2528
2026-01-15 02:20:41.17	159.02	72.14	-27.9	-28.2	15.0	0	72	2527
2026-01-15 02:20:41.37	159.23	72.07	-27.9	-28.2	15.0	0	72	2532
2026-01-15 02:20:41.57	159.43	71.99	-27.9	-28.2	14.9	0	72	2532
2026-01-15 02:20:41.77	159.62	71.92	-27.9	-28.1	15.0	0	72	2515
2026-01-15 02:20:41.98	159.83	71.84	-27.9	-28.0	15.0	0	72	2501
2026-01-15 02:20:42.18	160.02	71.77	-27.8	-28.0	15.0	0	72	2497
2026-01-15 02:20:42.38	160.22	71.69	-27.8	-27.9	15.0	11	72	2484
2026-01-15 02:20:42.58	160.41	71.62	-27.8	-27.8	15.1	0	72	2476
2026-01-15 02:20:42.78	160.60	71.54	-27.7	-27.8	15.1	0	72	2470
2026-01-15 02:20:42.98	160.79	71.47	-27.8	-27.8	15.0	0	72	2475
2026-01-15 02:20:43.18	160.97	71.39	-27.8	-28.0	14.9	0	72	2500
2026-01-15 02:20:43.38	161.16	71.31	-27.8	-27.9	14.9	0	72	2490
2026-01-15 02:20:43.58	161.34	71.24	-27.9	-28.1	14.8	11	72	2523
2026-01-15 02:20:43.79	161.53	71.16	-27.9	-28.1	14.8	0	72	2529
2026-01-15 02:20:43.99	161.71	71.08	-27.9	-28.1	14.8	0	72	2522
2026-01-15 02:20:44.19	161.89	71.01	-28.0	-28.3	14.7	0	72	2543
2026-01-15 02:20:44.39	162.07	70.93	-27.9	-28.0	14.8	34	72	2507
2026-01-15 02:20:44.59	162.24	70.85	-28.0	-28.2	14.7	22	72	2541
2026-01-15 02:20:44.79	162.42	70.78	-27.8	-27.9	14.8	22	72	2486
2026-01-15 02:20:44.99	162.59	70.70	-27.8	-27.9	14.9	11	72	2482
2026-01-15 02:20:45.19	162.76	70.62	-38.1	-43.9	3.7	310100	88	4780
2026-01-15 02:20:45.39	162.93	70.55	-38.5	-42.4	3.6	310100	94	3858
2026-01-15 02:20:45.59	163.10	70.47	-39.0	-43.3	3.5	8427783	94	4082
2026-01-15 02:20:45.79	163.27	70.39	-38.8	-42.1	3.3	8427543	94	3605
2026-01-15 02:20:45.99	163.43	70.31	-39.3	-42.9	3.3	8427543	95	3727

#Closed at: 2026-01-15 02:20:46