passes_logs/2026/01/15/XPeterburg/XPeterburg__20260115_120412_AQUA_rec.log

#Pass ID: 20260115_120412_AQUA
#Satellite: AQUA
#Configuration: AQUA
#Start time: 2026-01-15 12:04:08

#Version: 1.5.20200625
#Station: XPeterburg
#Location: 30.318091 lon 59.932769 lat
#TLE: 1 27424U 02022A   26015.16029229  .00000619  00000+0  13375-3 0  9997
#TLE: 2 27424  98.4081 341.5903 0002042  78.2090 338.7813 14.61820973260912

#Time	Az	El	Level	Level2	SNR	BER	Gain	Gain2
2026-01-15 12:04:08.82	151.28	67.66	-35.3	-43.5	3.3	7672729	89	1534
2026-01-15 12:04:09.03	151.23	67.77	-35.1	-48.0	3.5	7590789	82	2626
2026-01-15 12:04:09.23	151.18	67.88	-35.3	-45.6	3.5	7571563	87	1960
2026-01-15 12:04:09.43	151.13	67.99	-35.3	-45.3	3.5	7621765	87	1882
2026-01-15 12:04:09.63	151.08	68.10	-35.4	-45.1	3.4	7602539	87	1841
2026-01-15 12:04:09.83	151.03	68.21	-35.5	-45.9	3.5	7570495	87	1987
2026-01-15 12:04:10.03	150.98	68.32	-35.4	-45.7	3.5	7541198	87	1939
2026-01-15 12:04:10.23	150.93	68.43	-35.4	-45.1	3.5	7601623	87	1826
2026-01-15 12:04:10.43	150.87	68.54	-35.4	-44.5	3.5	7610168	87	1703
2026-01-15 12:04:10.63	150.82	68.64	-35.3	-44.3	3.2	7557830	87	1696
2026-01-15 12:04:10.84	150.77	68.76	-35.2	-43.7	3.6	7561950	87	1600
2026-01-15 12:04:11.04	150.71	68.87	-35.1	-42.6	4.1	7422180	87	1425
2026-01-15 12:04:11.24	150.66	68.98	-34.9	-41.6	4.3	7347412	87	1283
2026-01-15 12:04:11.44	150.60	69.09	-34.9	-41.0	4.4	7317657	87	1209
2026-01-15 12:04:11.64	150.54	69.20	-34.7	-41.0	3.8	7482757	87	1230
2026-01-15 12:04:11.84	150.49	69.31	-34.5	-39.8	5.4	7016143	87	1097
2026-01-15 12:04:12.04	150.43	69.42	-34.3	-38.6	6.0	6902923	87	976
2026-01-15 12:04:12.24	150.37	69.53	-33.7	-37.3	7.0	6709442	85	909
2026-01-15 12:04:12.44	150.31	69.64	-33.5	-36.5	7.8	6594543	85	848
2026-01-15 12:04:12.64	150.25	69.75	-33.1	-35.9	8.4	6517028	84	824
2026-01-15 12:04:12.84	150.19	69.86	-33.0	-35.5	8.9	6429748	84	797
2026-01-15 12:04:13.05	150.13	69.98	-32.9	-35.2	9.0	6430511	84	780
2026-01-15 12:04:13.25	150.07	70.09	-32.8	-34.9	9.4	6392364	84	763
2026-01-15 12:04:13.45	150.01	70.20	-32.7	-35.2	9.5	6359252	83	798
2026-01-15 12:04:13.65	149.94	70.31	-32.7	-35.2	9.5	6351013	83	795
2026-01-15 12:04:13.85	149.88	70.42	-32.7	-35.0	9.6	6370239	83	786
2026-01-15 12:04:14.05	149.81	70.53	-32.5	-34.6	9.9	6345062	83	761
2026-01-15 12:04:14.25	149.75	70.64	-32.3	-34.5	10.4	6272583	82	765
2026-01-15 12:04:14.45	149.68	70.75	-32.3	-34.5	10.6	6286315	82	765
2026-01-15 12:04:14.65	149.61	70.87	-32.2	-34.2	10.8	6219635	82	754
2026-01-15 12:04:14.85	149.55	70.98	-32.2	-34.1	11.1	6217346	82	746
2026-01-15 12:04:15.06	149.47	71.10	-32.1	-33.9	11.2	6198120	82	736
2026-01-15 12:04:15.26	149.40	71.21	-32.0	-33.6	11.6	6196746	82	720
2026-01-15 12:04:15.46	149.33	71.32	-32.1	-33.8	11.6	6178894	82	731
2026-01-15 12:04:15.66	149.26	71.43	-32.0	-33.6	11.7	6197052	82	719
2026-01-15 12:04:15.86	149.19	71.54	-32.0	-33.6	11.8	6187286	82	721
2026-01-15 12:04:16.06	149.12	71.66	-32.1	-33.9	11.7	6171875	82	733
2026-01-15 12:04:16.26	149.04	71.77	-32.2	-34.2	11.6	6186676	82	753
2026-01-15 12:04:16.46	148.97	71.88	-32.3	-34.3	11.3	6225128	82	759
2026-01-15 12:04:16.66	148.89	71.99	-32.2	-34.3	11.5	6193389	82	758
2026-01-15 12:04:16.86	148.81	72.11	-32.2	-34.3	11.4	6204528	82	761
2026-01-15 12:04:17.07	148.73	72.22	-32.1	-33.9	11.7	6192779	82	734
2026-01-15 12:04:17.27	148.65	72.34	-32.1	-33.9	11.7	6192474	82	738
2026-01-15 12:04:17.47	148.57	72.45	-31.9	-33.4	12.1	6162414	82	712
2026-01-15 12:04:17.67	148.49	72.56	-32.0	-33.7	11.9	6175079	82	728
2026-01-15 12:04:17.87	148.40	72.68	-32.0	-33.6	11.9	6210632	82	721
2026-01-15 12:04:18.07	148.32	72.79	-31.9	-33.4	12.0	6153564	82	708
2026-01-15 12:04:18.27	148.23	72.90	-31.8	-33.2	12.2	6162414	82	699
2026-01-15 12:04:18.47	148.15	73.02	-31.8	-33.1	12.3	6154022	82	692
2026-01-15 12:04:18.67	148.06	73.13	-31.7	-33.3	12.4	6116333	81	720
2026-01-15 12:04:18.88	147.97	73.25	-31.7	-33.3	12.5	6121978	81	718
2026-01-15 12:04:19.08	147.88	73.36	-31.6	-33.1	12.6	6144714	81	709
2026-01-15 12:04:19.28	147.78	73.48	-31.7	-33.2	12.6	6152954	81	715
2026-01-15 12:04:19.48	147.69	73.59	-31.7	-33.3	12.5	6148223	81	718
2026-01-15 12:04:19.68	147.60	73.70	-31.7	-33.2	12.6	6163330	81	714
2026-01-15 12:04:19.88	147.50	73.82	-31.7	-33.4	12.5	6152343	81	724
2026-01-15 12:04:20.08	147.40	73.93	-31.9	-33.9	12.3	6138763	81	751
2026-01-15 12:04:20.28	147.30	74.04	-31.9	-33.9	12.3	6163177	81	747
2026-01-15 12:04:20.48	147.20	74.16	-31.9	-33.7	12.5	6157531	81	736
2026-01-15 12:04:20.68	147.10	74.27	-31.9	-33.7	12.5	6161804	81	740
2026-01-15 12:04:20.88	147.00	74.39	-31.7	-33.3	12.7	6134948	81	717
2026-01-15 12:04:21.09	146.89	74.51	-31.6	-33.1	12.8	6149444	81	710
2026-01-15 12:04:21.29	146.78	74.62	-31.5	-32.8	13.1	6119232	81	691
2026-01-15 12:04:21.49	146.67	74.73	-31.5	-32.7	13.1	6131591	81	690
2026-01-15 12:04:21.69	146.56	74.85	-31.5	-32.8	13.2	6128845	81	694
2026-01-15 12:04:21.89	146.45	74.96	-31.6	-33.0	13.0	6101531	81	704
2026-01-15 12:04:22.09	146.34	75.08	-31.6	-33.0	13.0	6143341	81	704
2026-01-15 12:04:22.29	146.22	75.19	-31.6	-33.0	13.0	6146850	81	701
2026-01-15 12:04:22.49	146.10	75.31	-31.5	-32.7	13.1	6107177	81	690
2026-01-15 12:04:22.70	145.98	75.43	-31.5	-32.7	13.1	6142730	81	689
2026-01-15 12:04:22.90	145.86	75.54	-31.5	-32.6	13.1	6138458	81	683
2026-01-15 12:04:23.10	145.73	75.66	-31.6	-33.0	12.9	6143798	81	703
2026-01-15 12:04:23.30	145.61	75.77	-31.7	-33.2	12.7	6133880	81	709
2026-01-15 12:04:23.50	145.48	75.89	-31.6	-33.1	12.7	6124725	81	705
2026-01-15 12:04:23.70	145.35	76.00	-31.7	-33.1	12.7	6129150	81	705
2026-01-15 12:04:23.90	145.22	76.12	-31.5	-32.7	12.9	6126403	81	686
2026-01-15 12:04:24.10	145.09	76.23	-31.4	-32.5	13.1	6147308	81	675
2026-01-15 12:04:24.31	144.94	76.35	-31.4	-32.4	13.1	6127014	81	669
2026-01-15 12:04:24.51	144.80	76.47	-31.3	-32.5	13.4	6117706	80	689
2026-01-15 12:04:24.71	144.66	76.58	-31.2	-32.4	13.5	6120300	80	685
2026-01-15 12:04:24.91	144.52	76.70	-31.1	-32.1	13.7	6104888	80	672
2026-01-15 12:04:25.11	144.37	76.81	-31.0	-32.0	13.8	6096801	80	667
2026-01-15 12:04:25.31	144.22	76.92	-31.2	-32.3	13.8	6084442	80	684
2026-01-15 12:04:25.51	144.07	77.04	-31.3	-32.6	13.6	6106262	80	696
2026-01-15 12:04:25.71	143.91	77.15	-31.5	-33.1	13.4	6127777	80	722
2026-01-15 12:04:25.91	143.76	77.27	-31.5	-33.0	13.4	6097412	80	716
2026-01-15 12:04:26.12	143.59	77.39	-31.5	-33.2	13.4	6121368	80	724
2026-01-15 12:04:26.32	143.42	77.50	-31.5	-33.0	13.5	6120758	80	713
2026-01-15 12:04:26.52	143.26	77.62	-31.3	-32.6	13.7	6107940	80	694
2026-01-15 12:04:26.72	143.09	77.73	-31.1	-32.2	14.0	6123046	80	678
2026-01-15 12:04:26.92	142.91	77.85	-31.0	-32.0	14.1	6113891	80	669
2026-01-15 12:04:27.12	142.73	77.96	-30.9	-31.8	14.3	6078491	80	660
2026-01-15 12:04:27.32	142.55	78.08	-30.8	-31.5	14.6	6102600	80	648
2026-01-15 12:04:27.53	142.36	78.20	-30.5	-31.4	14.8	6079559	79	662
2026-01-15 12:04:27.73	142.17	78.31	-30.6	-31.6	14.8	6111450	79	669
2026-01-15 12:04:27.93	141.98	78.43	-30.5	-31.5	14.8	6089782	79	664
2026-01-15 12:04:28.13	141.78	78.54	-30.6	-31.5	14.8	6077117	79	667
2026-01-15 12:04:28.33	141.58	78.66	-30.6	-31.5	14.9	6091613	79	668
2026-01-15 12:04:28.53	141.38	78.77	-30.4	-31.1	15.1	6072692	79	648
2026-01-15 12:04:28.73	141.17	78.89	-30.5	-31.4	15.1	6098022	79	662
2026-01-15 12:04:28.93	140.96	79.00	-30.5	-31.3	15.1	6081542	79	659
2026-01-15 12:04:29.13	140.74	79.11	-30.5	-31.5	15.0	6100006	79	667
2026-01-15 12:04:29.33	140.52	79.23	-30.5	-31.4	15.0	6080932	79	663
2026-01-15 12:04:29.54	140.28	79.35	-30.4	-31.1	15.2	6080627	79	649
2026-01-15 12:04:29.74	140.05	79.46	-30.2	-31.1	15.5	6082458	78	666
2026-01-15 12:04:29.94	139.81	79.58	-30.1	-30.9	15.7	6078948	78	657
2026-01-15 12:04:30.14	139.57	79.69	-30.0	-30.8	15.8	6073455	78	652
2026-01-15 12:04:30.34	139.32	79.80	-29.9	-30.6	15.8	6068878	78	642
2026-01-15 12:04:30.54	139.07	79.92	-29.8	-30.2	16.1	6067962	78	626
2026-01-15 12:04:30.74	138.81	80.03	-29.7	-30.4	16.2	6060791	77	652
2026-01-15 12:04:30.94	138.54	80.14	-29.6	-30.3	16.3	6063232	77	646
2026-01-15 12:04:31.14	138.27	80.26	-29.6	-30.3	16.3	6065521	77	645
2026-01-15 12:04:31.34	137.99	80.37	-29.4	-29.9	16.5	6064605	77	629
2026-01-15 12:04:31.55	137.69	80.49	-29.3	-29.5	16.7	6065216	77	613
2026-01-15 12:04:31.75	137.39	80.60	-29.3	-30.1	16.8	6060333	76	653
2026-01-15 12:04:31.95	137.09	80.71	-29.2	-29.9	16.9	6085052	76	646
2026-01-15 12:04:32.15	136.79	80.82	-29.3	-30.1	16.7	6059570	76	656
2026-01-15 12:04:32.35	136.47	80.94	-29.4	-30.4	16.7	6079711	76	667
2026-01-15 12:04:32.55	136.15	81.05	-29.5	-30.4	16.6	6072540	76	669
2026-01-15 12:04:32.75	135.82	81.16	-29.4	-30.3	16.6	6071014	76	661
2026-01-15 12:04:32.95	135.48	81.27	-29.3	-30.2	16.7	6073608	76	658
2026-01-15 12:04:33.16	135.11	81.39	-29.3	-30.0	16.8	6067657	76	651
2026-01-15 12:04:33.36	134.75	81.50	-29.1	-29.6	17.0	6059722	76	636
2026-01-15 12:04:33.56	134.38	81.61	-28.9	-29.1	17.2	6039581	76	614
2026-01-15 12:04:33.76	134.00	81.72	-28.8	-28.9	17.4	6066741	76	607
2026-01-15 12:04:33.96	133.61	81.83	-28.9	-29.2	17.3	6072540	76	615
2026-01-15 12:04:34.16	133.21	81.94	-29.0	-29.4	17.2	6057281	76	625
2026-01-15 12:04:34.36	132.80	82.05	-29.0	-29.4	17.2	6078948	76	623
2026-01-15 12:04:34.56	132.38	82.16	-28.9	-29.1	17.3	6050720	76	613
2026-01-15 12:04:34.76	131.95	82.26	-28.8	-28.9	17.4	6071166	76	606
2026-01-15 12:04:34.97	131.48	82.38	-28.9	-29.2	17.2	6060485	76	618
2026-01-15 12:04:35.17	131.02	82.48	-29.1	-29.7	17.0	6064147	76	638
2026-01-15 12:04:35.37	130.54	82.59	-29.2	-29.9	16.8	6067504	76	647
2026-01-15 12:04:35.57	130.06	82.70	-29.2	-29.9	16.7	6073455	76	644
2026-01-15 12:04:35.77	129.55	82.80	-29.3	-30.0	16.7	6071624	76	648
2026-01-15 12:04:35.97	129.04	82.91	-29.3	-30.0	16.6	6050872	76	648
2026-01-15 12:04:36.17	128.50	83.01	-29.4	-30.3	16.5	6111297	76	662
2026-01-15 12:04:36.37	127.95	83.12	-29.3	-30.0	16.5	6069183	76	648
2026-01-15 12:04:36.57	127.39	83.22	-29.2	-29.8	16.6	6082305	76	639
2026-01-15 12:04:36.77	126.80	83.33	-29.1	-29.5	16.8	6087036	76	629
2026-01-15 12:04:36.98	126.17	83.43	-28.9	-29.2	17.0	6083679	76	617
2026-01-15 12:04:37.18	125.55	83.54	-28.9	-29.1	17.1	6078796	76	612
2026-01-15 12:04:37.38	124.90	83.64	-29.0	-29.3	17.0	6066436	76	621
2026-01-15 12:04:37.58	124.24	83.74	-29.1	-29.5	16.9	6078643	76	628
2026-01-15 12:04:37.78	123.55	83.84	-29.2	-29.8	16.7	6065826	76	639
2026-01-15 12:04:37.98	122.85	83.93	-29.2	-29.9	16.6	6088256	76	644
2026-01-15 12:04:38.18	122.11	84.03	-29.3	-30.2	16.5	6063995	76	656
2026-01-15 12:04:38.38	121.36	84.13	-29.4	-30.2	16.4	6056823	76	658
2026-01-15 12:04:38.58	120.58	84.22	-29.4	-30.4	16.3	6061859	76	664
2026-01-15 12:04:38.79	119.73	84.32	-29.4	-30.3	16.3	6066589	76	663
2026-01-15 12:04:38.99	118.89	84.42	-29.4	-30.2	16.4	6064910	76	656
2026-01-15 12:04:39.19	118.03	84.51	-29.2	-29.9	16.6	6075744	76	644
2026-01-15 12:04:39.39	117.13	84.60	-28.9	-29.2	17.0	6053161	76	615
2026-01-15 12:04:39.59	116.21	84.69	-28.6	-28.9	17.2	6069183	75	622
2026-01-15 12:04:39.79	115.25	84.78	-28.5	-28.9	17.3	6075744	75	622
2026-01-15 12:04:39.99	114.27	84.86	-28.4	-28.6	17.4	6073608	75	611
2026-01-15 12:04:40.19	113.24	84.95	-28.4	-28.5	17.5	6074371	75	607
2026-01-15 12:04:40.39	112.19	85.03	-28.3	-28.9	17.7	6059722	74	639
2026-01-15 12:04:40.60	111.04	85.12	-28.3	-28.9	17.7	6069030	74	638
2026-01-15 12:04:40.80	109.90	85.20	-28.5	-29.2	17.5	6054382	74	652
2026-01-15 12:04:41.00	108.73	85.28	-28.6	-29.5	17.4	6076965	74	663
2026-01-15 12:04:41.20	107.53	85.35	-28.7	-29.7	17.3	6050567	74	669
2026-01-15 12:04:41.40	106.28	85.42	-28.6	-29.6	17.3	6063079	74	668
2026-01-15 12:04:41.60	104.99	85.50	-28.6	-29.6	17.3	6060333	74	666
2026-01-15 12:04:41.80	103.66	85.57	-28.6	-29.4	17.4	6052398	74	661
2026-01-15 12:04:42.00	102.29	85.63	-28.5	-29.3	17.5	6076660	74	653
2026-01-15 12:04:42.21	100.80	85.70	-28.3	-28.9	17.6	6081237	74	639
2026-01-15 12:04:42.41	99.34	85.76	-28.2	-28.7	17.8	6084289	74	629
2026-01-15 12:04:42.61	97.84	85.82	-28.0	-28.1	18.1	6058349	74	606
2026-01-15 12:04:42.81	96.30	85.87	-27.9	-27.9	18.2	6074523	74	600
2026-01-15 12:04:43.01	94.72	85.93	-27.8	-27.8	18.3	6083984	74	596
2026-01-15 12:04:43.21	93.10	85.98	-28.0	-28.1	18.1	6074829	74	607
2026-01-15 12:04:43.41	91.44	86.02	-28.1	-28.3	18.0	6082916	74	615
2026-01-15 12:04:43.61	89.74	86.07	-28.1	-28.4	17.9	6075897	74	617
2026-01-15 12:04:43.81	88.00	86.10	-28.1	-28.3	17.9	6054687	74	615
2026-01-15 12:04:44.01	86.24	86.14	-28.0	-28.2	18.0	6054992	74	611
2026-01-15 12:04:44.22	84.35	86.17	-28.0	-28.2	18.0	6069030	74	611
2026-01-15 12:04:44.42	82.52	86.20	-28.1	-28.5	17.8	6057891	74	621
2026-01-15 12:04:44.62	80.66	86.22	-28.2	-28.5	17.7	6067962	74	623
2026-01-15 12:04:44.82	78.79	86.24	-28.0	-28.2	17.8	6068115	74	609
2026-01-15 12:04:45.02	76.89	86.26	-27.9	-27.9	18.0	6084594	74	599
2026-01-15 12:04:45.22	74.99	86.27	-27.8	-27.7	18.1	6066894	74	592
2026-01-15 12:04:45.42	73.07	86.28	-27.6	-27.8	18.3	6078033	73	612
2026-01-15 12:04:45.62	71.15	86.28	-27.5	-27.5	18.5	6081085	73	602
2026-01-15 12:04:45.82	69.22	86.28	-27.4	-27.3	18.7	6058044	73	592
2026-01-15 12:04:46.03	67.20	86.28	-27.2	-27.5	18.8	6096496	72	617
2026-01-15 12:04:46.23	65.29	86.27	-27.3	-27.6	18.8	6047973	72	619
2026-01-15 12:04:46.43	63.39	86.25	-27.5	-28.0	18.6	6076965	72	635
2026-01-15 12:04:46.63	61.50	86.24	-27.7	-28.5	18.3	6083221	72	654
2026-01-15 12:04:46.83	59.64	86.21	-27.9	-28.9	18.0	6077423	72	672
2026-01-15 12:04:47.03	57.79	86.19	-28.1	-28.9	17.8	6075744	73	654
2026-01-15 12:04:47.23	55.98	86.16	-28.3	-29.3	17.5	6064300	73	672
2026-01-15 12:04:47.43	54.19	86.13	-28.3	-29.3	17.5	6069488	73	670
2026-01-15 12:04:47.63	52.44	86.09	-28.2	-29.0	17.7	6088714	73	660
2026-01-15 12:04:47.84	50.63	86.05	-28.0	-28.7	17.9	6081085	73	645
2026-01-15 12:04:48.04	48.95	86.00	-27.9	-28.4	18.1	6081085	73	634
2026-01-15 12:04:48.24	47.31	85.95	-27.9	-28.4	18.1	6061553	73	634
2026-01-15 12:04:48.44	45.70	85.90	-27.8	-28.3	18.2	6080169	73	631
2026-01-15 12:04:48.64	44.14	85.85	-27.7	-28.1	18.3	6040039	73	622
2026-01-15 12:04:48.84	42.62	85.79	-27.7	-28.1	18.4	6048126	73	622
2026-01-15 12:04:49.04	41.14	85.73	-27.9	-28.5	18.1	6050872	73	638
2026-01-15 12:04:49.24	39.70	85.67	-28.1	-28.9	17.9	6057891	73	656
2026-01-15 12:04:49.44	38.30	85.61	-28.5	-29.8	17.4	6072998	73	692
2026-01-15 12:04:49.65	36.88	85.53	-28.9	-30.1	17.0	6071319	74	689
2026-01-15 12:04:49.85	35.57	85.46	-29.0	-29.9	16.8	6063385	75	661
2026-01-15 12:04:50.05	34.30	85.39	-29.0	-29.8	16.7	6041717	75	657
2026-01-15 12:04:50.25	33.07	85.32	-29.0	-29.8	16.8	6069793	75	656
2026-01-15 12:04:50.45	31.88	85.24	-29.0	-29.9	16.7	6078948	75	659
2026-01-15 12:04:50.65	30.73	85.16	-28.9	-29.7	16.6	6079559	75	652
2026-01-15 12:04:50.85	29.61	85.08	-28.9	-29.7	16.7	6055755	75	651
2026-01-15 12:04:51.05	28.54	85.00	-28.8	-29.5	16.8	6047973	75	643
2026-01-15 12:04:51.25	27.49	84.91	-28.6	-29.0	17.1	6087341	75	624
2026-01-15 12:04:51.46	26.44	84.82	-28.5	-28.7	17.3	6056365	75	614
2026-01-15 12:04:51.66	25.46	84.74	-28.6	-28.9	17.3	6068725	75	619
2026-01-15 12:04:51.86	24.52	84.65	-28.7	-29.3	17.1	6030273	75	636
2026-01-15 12:04:52.06	23.61	84.56	-28.6	-29.1	17.2	6045379	75	628
2026-01-15 12:04:52.26	22.73	84.47	-28.5	-28.8	17.2	6069183	75	618
2026-01-15 12:04:52.46	21.88	84.37	-28.6	-29.0	17.1	6077270	75	624
2026-01-15 12:04:52.66	21.06	84.28	-28.7	-29.3	17.0	6060333	75	635
2026-01-15 12:04:52.86	20.26	84.19	-28.9	-29.7	16.7	6080474	75	652
2026-01-15 12:04:53.06	19.49	84.09	-29.2	-30.4	16.3	6080780	75	680
2026-01-15 12:04:53.27	18.71	83.99	-29.3	-30.6	16.1	6082611	75	691
2026-01-15 12:04:53.47	17.99	83.89	-29.3	-30.5	16.2	6093444	75	687
2026-01-15 12:04:53.67	17.29	83.79	-29.1	-30.2	16.4	6077423	75	674
2026-01-15 12:04:53.87	16.61	83.69	-29.1	-30.0	16.5	6073608	75	665
2026-01-15 12:04:54.07	15.96	83.59	-29.0	-29.9	16.6	6079864	75	662
2026-01-15 12:04:54.27	15.33	83.49	-29.0	-29.9	16.6	6062927	75	663
2026-01-15 12:04:54.47	14.71	83.39	-29.1	-30.0	16.5	6062469	75	668
2026-01-15 12:04:54.67	14.12	83.29	-29.0	-29.9	16.5	6073608	75	662
2026-01-15 12:04:54.87	13.54	83.18	-28.8	-29.5	16.6	6036834	75	644
2026-01-15 12:04:55.08	12.95	83.07	-28.8	-29.5	16.6	6072845	75	645
2026-01-15 12:04:55.28	12.41	82.97	-28.9	-29.6	16.6	6073760	75	650
2026-01-15 12:04:55.48	11.88	82.86	-28.9	-29.6	16.7	6053009	75	649
2026-01-15 12:04:55.68	11.37	82.76	-29.0	-29.8	16.6	6063385	75	659
2026-01-15 12:04:55.88	10.88	82.65	-29.2	-30.4	16.4	6063232	75	685
2026-01-15 12:04:56.08	10.40	82.54	-29.4	-30.9	16.2	6071777	75	707
2026-01-15 12:04:56.28	9.93	82.44	-29.5	-31.0	16.1	6094665	75	714
2026-01-15 12:04:56.48	9.48	82.33	-29.6	-30.8	16.1	6063232	76	686
2026-01-15 12:04:56.68	9.03	82.22	-29.5	-30.5	16.2	6067047	76	671
2026-01-15 12:04:56.88	8.61	82.11	-29.4	-30.2	16.5	6054382	76	659
2026-01-15 12:04:57.09	8.17	82.00	-29.2	-29.8	16.6	6067504	76	642
2026-01-15 12:04:57.29	7.76	81.89	-29.1	-29.5	16.8	6065826	76	629
2026-01-15 12:04:57.49	7.37	81.78	-29.0	-29.4	16.9	6063232	76	626
2026-01-15 12:04:57.69	6.98	81.67	-29.1	-29.5	16.8	6069641	76	630
2026-01-15 12:04:57.89	6.61	81.56	-29.1	-29.7	16.8	6062622	76	638
2026-01-15 12:04:58.09	6.25	81.45	-29.2	-29.9	16.8	6071624	76	648
2026-01-15 12:04:58.29	5.89	81.34	-29.2	-29.8	16.8	6052856	76	642
2026-01-15 12:04:58.49	5.55	81.23	-29.2	-29.8	16.9	6071624	76	641
2026-01-15 12:04:58.70	5.19	81.11	-29.2	-29.9	16.9	6073150	76	644
2026-01-15 12:04:58.90	4.86	81.00	-29.2	-29.9	16.9	6082763	76	648
2026-01-15 12:04:59.10	4.54	80.89	-29.4	-30.2	16.7	6062316	76	660
2026-01-15 12:04:59.30	4.23	80.78	-29.5	-30.5	16.6	6079254	76	671
2026-01-15 12:04:59.50	3.93	80.66	-29.6	-30.7	16.5	6056060	76	681
2026-01-15 12:04:59.70	3.63	80.55	-29.6	-30.8	16.4	6052246	76	687
2026-01-15 12:04:59.90	3.34	80.44	-29.6	-30.9	16.3	6078643	76	688
2026-01-15 12:05:00.11	3.04	80.32	-29.6	-30.9	16.2	6071472	76	689
2026-01-15 12:05:00.31	2.77	80.21	-29.6	-30.9	16.2	6048278	76	690
2026-01-15 12:05:00.51	2.50	80.10	-29.7	-30.9	16.1	6071166	76	691
2026-01-15 12:05:00.71	2.24	79.98	-29.7	-31.0	16.1	6083526	76	695
2026-01-15 12:05:00.91	1.98	79.87	-29.8	-31.1	16.1	6063385	76	701
2026-01-15 12:05:01.11	1.73	79.76	-29.8	-31.2	16.0	6064147	76	704
2026-01-15 12:05:01.31	1.48	79.64	-29.9	-31.4	15.9	6070709	76	711
2026-01-15 12:05:01.51	1.24	79.53	-30.0	-31.1	15.7	6063537	77	685
2026-01-15 12:05:01.72	0.99	79.41	-30.3	-31.8	15.4	6069793	77	717
2026-01-15 12:05:01.92	0.76	79.30	-30.6	-32.1	14.9	6094970	78	715
2026-01-15 12:05:02.12	0.54	79.18	-30.9	-32.8	14.5	6109466	78	748
2026-01-15 12:05:02.32	0.32	79.07	-30.9	-32.5	14.2	6091003	79	716
2026-01-15 12:05:02.52	0.10	78.95	-31.0	-32.6	14.2	6103515	79	718
2026-01-15 12:05:02.72	359.89	78.84	-30.9	-32.5	14.1	6096649	79	716
2026-01-15 12:05:02.92	359.69	78.72	-31.0	-32.5	14.2	6091766	79	713
2026-01-15 12:05:03.12	359.48	78.61	-31.0	-32.6	14.1	6119079	79	717
2026-01-15 12:05:03.33	359.28	78.49	-31.0	-32.5	14.1	6098327	79	712
2026-01-15 12:05:03.53	359.08	78.38	-31.0	-32.5	14.1	6109771	79	713
2026-01-15 12:05:03.73	358.89	78.26	-31.0	-32.6	13.9	6106109	79	720
2026-01-15 12:05:03.93	358.71	78.15	-31.0	-32.6	13.8	6119995	79	717
2026-01-15 12:05:04.13	358.52	78.03	-30.9	-32.4	13.9	6099395	79	708
2026-01-15 12:05:04.33	358.35	77.92	-30.8	-31.9	14.1	6092071	79	683
2026-01-15 12:05:04.53	358.17	77.80	-30.7	-31.9	14.1	6081390	79	682
2026-01-15 12:05:04.73	358.00	77.69	-30.8	-32.1	13.9	6084899	79	692
2026-01-15 12:05:04.93	357.83	77.57	-31.0	-32.4	13.7	6118164	79	708
2026-01-15 12:05:05.13	357.66	77.46	-31.2	-33.0	13.3	6098632	79	735
2026-01-15 12:05:05.34	357.49	77.34	-31.3	-33.4	13.1	6120910	79	755
2026-01-15 12:05:05.54	357.33	77.22	-31.8	-33.8	12.7	6130676	80	754
2026-01-15 12:05:05.74	357.18	77.11	-31.8	-33.8	12.7	6157226	80	754
2026-01-15 12:05:05.94	357.02	77.00	-31.8	-34.0	12.6	6175231	80	763
2026-01-15 12:05:06.14	356.87	76.88	-31.9	-34.1	12.4	6140289	80	769
2026-01-15 12:05:06.34	356.72	76.77	-31.8	-34.0	12.5	6155853	80	763
2026-01-15 12:05:06.54	356.58	76.65	-31.8	-33.9	12.5	6143341	80	760
2026-01-15 12:05:06.74	356.44	76.54	-31.9	-34.1	12.4	6143493	80	771
2026-01-15 12:05:06.94	356.29	76.42	-31.9	-33.8	12.2	6154174	81	743
2026-01-15 12:05:07.15	356.15	76.30	-32.1	-34.1	12.0	6181640	81	755
2026-01-15 12:05:07.35	356.01	76.19	-32.2	-34.4	11.8	6142730	81	774
2026-01-15 12:05:07.55	355.88	76.07	-32.3	-34.6	11.6	6156463	81	783
2026-01-15 12:05:07.75	355.75	75.96	-32.2	-34.5	11.6	6175689	81	777
2026-01-15 12:05:07.95	355.62	75.84	-32.1	-34.3	11.9	6183776	81	768
2026-01-15 12:05:08.15	355.50	75.73	-32.0	-33.9	12.1	6157836	81	745
2026-01-15 12:05:08.35	355.37	75.61	-31.9	-33.8	12.4	6149444	81	741
2026-01-15 12:05:08.55	355.25	75.50	-32.0	-33.9	12.5	6144714	81	745
2026-01-15 12:05:08.76	355.12	75.38	-32.0	-34.0	12.4	6170806	81	753
2026-01-15 12:05:08.96	355.00	75.27	-32.0	-34.2	12.3	6151733	81	765
2026-01-15 12:05:09.16	354.89	75.15	-32.1	-34.3	12.3	6148681	81	769
2026-01-15 12:05:09.36	354.77	75.04	-32.1	-34.3	12.3	6147155	81	768
2026-01-15 12:05:09.56	354.66	74.92	-32.1	-34.4	12.3	6128997	81	778
2026-01-15 12:05:09.76	354.55	74.81	-32.3	-34.8	12.1	6178283	81	802
2026-01-15 12:05:09.96	354.44	74.69	-32.3	-35.1	11.9	6182708	81	817
2026-01-15 12:05:10.16	354.33	74.58	-32.4	-35.2	11.8	6193695	81	827
2026-01-15 12:05:10.36	354.23	74.47	-32.4	-35.1	11.8	6192626	81	821
2026-01-15 12:05:10.56	354.12	74.35	-32.3	-34.8	12.0	6158447	81	804
2026-01-15 12:05:10.77	354.01	74.23	-32.1	-34.4	12.2	6147766	81	778
2026-01-15 12:05:10.97	353.91	74.12	-32.0	-34.2	12.4	6145782	81	768
2026-01-15 12:05:11.17	353.81	74.00	-32.0	-34.2	12.4	6153869	81	769
2026-01-15 12:05:11.37	353.71	73.89	-32.1	-34.5	12.3	6160430	81	784
2026-01-15 12:05:11.57	353.62	73.78	-32.3	-34.9	12.0	6170043	81	806
2026-01-15 12:05:11.77	353.52	73.66	-32.4	-35.2	11.7	6201782	81	825
2026-01-15 12:05:11.97	353.43	73.55	-32.4	-35.3	11.5	6204681	81	828
2026-01-15 12:05:12.17	353.34	73.44	-32.3	-34.7	11.7	6194610	81	796
2026-01-15 12:05:12.38	353.24	73.32	-32.2	-34.6	11.9	6182708	81	787
2026-01-15 12:05:12.58	353.15	73.20	-32.0	-34.1	12.1	6175994	81	761
2026-01-15 12:05:12.78	353.06	73.09	-32.0	-34.0	12.1	6164093	81	756
2026-01-15 12:05:12.98	352.98	72.98	-32.0	-34.0	12.1	6169128	81	755
2026-01-15 12:05:13.18	352.89	72.87	-32.0	-34.1	12.1	6164093	81	761
2026-01-15 12:05:13.38	352.80	72.75	-32.1	-34.2	12.0	6159820	81	767
2026-01-15 12:05:13.58	352.72	72.64	-32.1	-34.4	11.9	6170654	81	778
2026-01-15 12:05:13.78	352.64	72.53	-32.1	-34.5	11.8	6168670	81	782
2026-01-15 12:05:13.98	352.56	72.41	-32.2	-34.7	11.7	6188507	81	794
2026-01-15 12:05:14.18	352.48	72.30	-32.4	-35.2	11.4	6215362	81	824
2026-01-15 12:05:14.38	352.40	72.19	-32.6	-35.3	11.0	6261596	82	816
2026-01-15 12:05:14.59	352.32	72.07	-32.8	-35.9	10.5	6285552	82	853
2026-01-15 12:05:14.79	352.24	71.96	-32.9	-36.0	10.3	6265106	82	860
2026-01-15 12:05:14.99	352.16	71.85	-32.7	-35.5	10.5	6250152	82	826
2026-01-15 12:05:15.19	352.09	71.73	-32.7	-35.5	10.6	6266937	82	824
2026-01-15 12:05:15.39	352.01	71.62	-32.8	-35.7	10.7	6248016	82	833
2026-01-15 12:05:15.59	351.94	71.51	-32.8	-35.9	10.5	6259918	82	848
2026-01-15 12:05:15.79	351.87	71.40	-32.8	-35.8	10.6	6262207	82	844
2026-01-15 12:05:15.99	351.80	71.29	-32.9	-36.2	10.4	6280517	82	867
2026-01-15 12:05:16.19	351.73	71.17	-32.9	-35.8	10.2	6278076	83	832
2026-01-15 12:05:16.39	351.66	71.06	-33.0	-36.0	10.0	6308746	83	844
2026-01-15 12:05:16.60	351.58	70.95	-33.1	-36.2	9.8	6340332	83	855
2026-01-15 12:05:16.80	351.52	70.83	-33.2	-36.5	9.6	6368255	83	880

#Closed at: 2026-01-15 12:05:17