passes_logs/2026/01/26/R3.2S_Murmansk_2ch/R3.2S_Murmansk_2ch__20260126_210020_JL1KF02B07_rec.log

#Pass ID: 20260126_210020_JL1KF02B07
#Satellite: JL1KF02B07
#Configuration: 01B_900M
#almurnet v.1.7.20251203
#Start time: 2026-01-26 21:00:21

#Version: 2.2.20260125
#Station: R3.2S_Murmansk_2ch
#Location: 33.079688 lon 68.888172 lat
#TLE: 1 65939U 25226B   26025.87153421  .00007226  00000+0  45653-3 0  9997
#TLE: 2 65939  97.6523 104.8567 0017782 261.5678  98.3535 15.09229066 16108

#Time	Az	El	Level	Level2	SNR	BER	BlckErr	Temp	State	Recorded	gain1	gain2
2026-01-26 21:00:21.01	212.70	2.02	-48.0	-50.6	6.3	0.00e+00	0	44	0	0	67	19488
2026-01-26 21:00:22.01	212.79	2.08	-47.3	-49.8	6.2	0.00e+00	0	44	104	0	66	19005
2026-01-26 21:00:23.02	212.88	2.14	-46.9	-49.4	6.2	0.00e+00	0	44	104	0	65	19202
2026-01-26 21:00:24.03	212.98	2.20	-46.9	-49.4	6.2	0.00e+00	0	44	104	0	65	19171
2026-01-26 21:00:25.04	213.07	2.26	-46.9	-49.4	6.2	0.00e+00	0	44	104	0	65	19205
2026-01-26 21:00:26.05	213.17	2.32	-46.9	-49.4	6.2	0.00e+00	0	44	104	0	65	19201
2026-01-26 21:00:27.07	213.26	2.38	-46.8	-49.4	6.2	0.00e+00	0	44	104	0	65	19158
2026-01-26 21:00:28.08	213.36	2.44	-46.9	-49.4	6.2	0.00e+00	0	44	104	0	65	19137
2026-01-26 21:00:29.09	213.45	2.50	-46.8	-49.4	6.2	0.00e+00	0	44	104	0	65	19115
2026-01-26 21:00:30.17	213.56	2.56	-46.8	-49.4	6.2	0.00e+00	0	44	104	0	65	19085
2026-01-26 21:00:31.04	213.64	2.62	-46.8	-49.4	6.2	0.00e+00	0	44	104	0	65	19111
2026-01-26 21:00:32.20	213.75	2.69	-46.8	-49.4	6.2	0.00e+00	0	44	104	0	65	19106
2026-01-26 21:00:33.06	213.84	2.74	-46.8	-49.4	6.2	0.00e+00	0	45	104	0	65	19106
2026-01-26 21:00:34.22	213.95	2.81	-46.8	-49.4	6.2	0.00e+00	0	45	104	0	65	19089
2026-01-26 21:00:35.08	214.03	2.86	-46.8	-49.4	6.2	0.00e+00	0	45	104	0	65	19085
2026-01-26 21:00:36.24	214.15	2.93	-46.8	-49.4	6.2	0.00e+00	0	45	104	0	65	19075
2026-01-26 21:00:37.10	214.23	2.98	-46.8	-49.3	6.2	0.00e+00	0	45	104	0	65	19026
2026-01-26 21:00:38.26	214.35	3.05	-46.8	-49.4	6.2	0.00e+00	0	45	104	0	65	19091
2026-01-26 21:00:39.12	214.43	3.11	-46.8	-49.4	6.2	0.00e+00	0	45	104	0	65	19094
2026-01-26 21:00:40.28	214.55	3.18	-46.8	-49.4	6.2	0.00e+00	0	45	104	0	65	19095
2026-01-26 21:00:41.14	214.64	3.23	-46.8	-49.3	6.2	0.00e+00	0	45	104	0	65	18995
2026-01-26 21:00:42.30	214.75	3.30	-46.8	-49.4	6.2	0.00e+00	0	45	104	0	65	19039
2026-01-26 21:00:43.17	214.84	3.35	-46.8	-49.4	6.2	0.00e+00	0	45	104	0	65	19070
2026-01-26 21:00:44.32	214.96	3.42	-46.8	-49.3	6.2	0.00e+00	0	45	104	0	65	19020
2026-01-26 21:00:45.19	215.05	3.48	-46.8	-49.4	6.2	0.00e+00	0	45	104	0	65	19082
2026-01-26 21:00:46.34	215.17	3.55	-46.8	-49.4	6.2	0.00e+00	0	45	104	0	65	19064
2026-01-26 21:00:47.21	215.26	3.60	-46.8	-49.3	6.2	0.00e+00	0	45	104	0	65	19012
2026-01-26 21:00:48.36	215.38	3.67	-46.8	-49.3	6.2	0.00e+00	0	45	104	0	65	19006
2026-01-26 21:00:49.23	215.47	3.73	-46.8	-49.3	6.2	0.00e+00	0	45	104	0	65	19001
2026-01-26 21:00:50.38	215.59	3.80	-46.8	-49.4	6.2	0.00e+00	0	45	104	0	65	19047
2026-01-26 21:00:51.25	215.68	3.85	-46.8	-49.4	6.2	0.00e+00	0	45	104	0	65	19071
2026-01-26 21:00:52.40	215.80	3.93	-46.8	-49.4	6.2	0.00e+00	0	45	104	0	65	19037
2026-01-26 21:00:53.27	215.90	3.98	-46.8	-49.3	6.2	0.00e+00	0	45	104	0	65	19002
2026-01-26 21:00:54.42	216.02	4.05	-46.8	-49.3	6.2	0.00e+00	0	45	104	0	65	19024
2026-01-26 21:00:55.29	216.12	4.11	-46.8	-49.3	6.2	0.00e+00	0	45	104	0	65	19006
2026-01-26 21:00:56.44	216.24	4.18	-46.8	-49.3	6.2	0.00e+00	0	45	104	0	65	19019
2026-01-26 21:00:57.31	216.34	4.23	-46.8	-49.3	6.2	0.00e+00	0	45	104	0	65	19032
2026-01-26 21:00:58.47	216.46	4.31	-46.8	-49.3	6.2	0.00e+00	0	45	104	0	65	19001
2026-01-26 21:00:59.33	216.56	4.36	-46.8	-49.3	6.2	0.00e+00	0	45	104	0	65	18988
2026-01-26 21:01:00.48	216.68	4.43	-46.8	-49.3	6.2	0.00e+00	0	45	104	0	65	18993
2026-01-26 21:01:01.35	216.78	4.49	-46.8	-49.3	6.2	0.00e+00	0	46	104	0	65	18964
2026-01-26 21:01:02.50	216.91	4.56	-46.8	-49.3	6.2	0.00e+00	0	45	104	0	65	18962
2026-01-26 21:01:03.37	217.01	4.62	-46.8	-49.3	6.2	0.00e+00	0	45	104	0	65	18987
2026-01-26 21:01:04.52	217.14	4.69	-46.8	-49.3	6.2	0.00e+00	0	46	104	0	65	19007
2026-01-26 21:01:05.39	217.24	4.75	-46.8	-49.3	6.2	0.00e+00	0	46	104	0	65	18998
2026-01-26 21:01:06.53	217.37	4.82	-46.8	-49.3	6.2	0.00e+00	0	46	104	0	65	18930
2026-01-26 21:01:07.39	217.47	4.87	-46.8	-49.3	6.2	0.00e+00	0	46	104	0	65	18904
2026-01-26 21:01:08.54	217.60	4.95	-46.7	-49.3	6.2	0.00e+00	0	46	104	0	65	18935
2026-01-26 21:01:09.40	217.70	5.00	-46.7	-49.3	6.2	0.00e+00	0	46	104	0	65	18963
2026-01-26 21:01:10.55	217.83	5.08	-46.8	-49.4	6.2	0.00e+00	0	46	104	0	65	19103
2026-01-26 21:01:11.41	217.93	5.13	-46.8	-49.4	6.2	0.00e+00	0	46	104	0	65	19070
2026-01-26 21:01:12.56	218.07	5.21	-46.7	-49.3	6.2	0.00e+00	0	46	104	0	65	18872
2026-01-26 21:01:13.42	218.17	5.26	-46.7	-49.3	6.2	0.00e+00	0	46	104	0	65	18897
2026-01-26 21:01:14.57	218.31	5.34	-46.9	-49.4	6.2	0.00e+00	0	46	104	0	65	19226
2026-01-26 21:01:15.43	218.41	5.39	-46.9	-49.4	6.2	0.00e+00	0	46	104	0	65	19089
2026-01-26 21:01:16.57	218.55	5.47	-46.7	-49.3	6.2	0.00e+00	0	46	104	0	65	18890
2026-01-26 21:01:17.44	218.65	5.52	-46.7	-49.3	6.2	0.00e+00	0	46	104	0	65	18919
2026-01-26 21:01:18.59	218.79	5.60	-46.9	-49.4	6.2	0.00e+00	0	46	104	0	65	19178
2026-01-26 21:01:19.45	218.90	5.65	-46.8	-49.4	6.2	0.00e+00	0	46	104	0	65	19161
2026-01-26 21:01:20.60	219.04	5.73	-46.7	-49.3	6.2	0.00e+00	0	46	104	0	65	18850
2026-01-26 21:01:21.46	219.14	5.79	-46.7	-49.3	6.2	0.00e+00	0	46	104	0	65	18862
2026-01-26 21:01:22.61	219.29	5.86	-46.9	-49.4	6.2	0.00e+00	0	46	104	0	65	19236
2026-01-26 21:01:23.48	219.40	5.92	-46.8	-49.4	6.2	0.00e+00	0	46	104	0	65	19138
2026-01-26 21:01:24.63	219.54	6.00	-46.7	-49.3	6.2	0.00e+00	0	46	104	0	65	18882
2026-01-26 21:01:25.50	219.65	6.05	-46.7	-49.3	6.2	0.00e+00	0	46	104	0	65	18849
2026-01-26 21:01:26.65	219.80	6.13	-46.9	-49.4	6.2	0.00e+00	0	46	104	0	65	19236
2026-01-26 21:01:27.52	219.91	6.19	-46.9	-49.4	6.2	0.00e+00	0	46	104	0	65	19149
2026-01-26 21:01:28.67	220.05	6.26	-46.7	-49.3	6.2	0.00e+00	0	46	104	0	65	18837
2026-01-26 21:01:29.54	220.17	6.32	-46.7	-49.3	6.2	0.00e+00	0	46	104	0	65	18892
2026-01-26 21:01:30.69	220.32	6.40	-46.9	-49.5	6.2	0.00e+00	0	46	104	0	65	19298
2026-01-26 21:01:31.56	220.43	6.46	-46.9	-49.4	6.2	0.00e+00	0	46	104	0	65	19182
2026-01-26 21:01:32.71	220.58	6.53	-46.7	-49.3	6.2	0.00e+00	0	46	104	0	65	18899
2026-01-26 21:01:33.58	220.69	6.59	-46.8	-49.3	6.2	0.00e+00	0	46	104	0	65	18971
2026-01-26 21:01:34.73	220.85	6.67	-46.9	-49.5	6.2	0.00e+00	0	46	104	0	65	19340
2026-01-26 21:01:35.60	220.96	6.73	-46.9	-49.4	6.2	0.00e+00	0	46	104	0	65	19151
2026-01-26 21:01:36.75	221.12	6.80	-46.7	-49.3	6.2	0.00e+00	0	46	104	0	65	18971
2026-01-26 21:01:37.62	221.23	6.86	-46.8	-49.3	6.2	0.00e+00	0	46	104	0	65	18947
2026-01-26 21:01:38.77	221.39	6.94	-46.9	-49.5	6.2	0.00e+00	0	46	104	0	65	19303
2026-01-26 21:01:39.64	221.51	7.00	-46.9	-49.4	6.2	0.00e+00	0	46	104	0	65	19179
2026-01-26 21:01:40.79	221.66	7.08	-46.7	-49.3	6.2	0.00e+00	0	46	104	0	65	19004
2026-01-26 21:01:41.66	221.78	7.14	-46.8	-49.3	6.2	0.00e+00	0	46	104	0	65	18998
2026-01-26 21:01:42.81	221.94	7.21	-46.9	-49.5	6.2	0.00e+00	0	46	104	0	65	19408
2026-01-26 21:01:43.68	222.06	7.27	-46.9	-49.4	6.2	0.00e+00	0	46	104	0	65	19200
2026-01-26 21:01:44.83	222.22	7.35	-46.8	-49.3	6.2	0.00e+00	0	46	104	0	65	19002
2026-01-26 21:01:45.70	222.35	7.41	-46.8	-49.4	6.2	0.00e+00	0	46	104	0	65	19086
2026-01-26 21:01:46.85	222.51	7.49	-46.9	-49.5	6.2	0.00e+00	0	46	104	0	65	19338
2026-01-26 21:01:47.72	222.63	7.55	-46.9	-49.5	6.2	0.00e+00	0	46	104	0	65	19271
2026-01-26 21:01:48.88	222.80	7.63	-46.8	-49.4	6.2	0.00e+00	0	46	104	0	65	19078
2026-01-26 21:01:49.74	222.92	7.69	-46.8	-49.4	6.2	0.00e+00	0	46	104	0	65	19120
2026-01-26 21:01:50.90	223.09	7.77	-47.0	-49.5	6.2	0.00e+00	0	46	104	0	65	19382
2026-01-26 21:01:51.76	223.21	7.83	-46.9	-49.5	6.2	0.00e+00	0	47	104	0	65	19292
2026-01-26 21:01:52.92	223.38	7.91	-46.8	-49.4	6.2	0.00e+00	0	46	104	0	65	19214
2026-01-26 21:01:53.78	223.51	7.97	-46.9	-49.4	6.2	0.00e+00	0	46	104	0	65	19149
2026-01-26 21:01:54.94	223.68	8.05	-47.0	-49.5	6.2	0.00e+00	0	47	104	0	65	19478
2026-01-26 21:01:55.81	223.81	8.11	-46.9	-49.5	6.2	0.00e+00	0	47	104	0	65	19364
2026-01-26 21:01:56.96	223.98	8.19	-46.8	-49.4	6.2	0.00e+00	0	46	104	0	65	19201
2026-01-26 21:01:57.83	224.11	8.25	-46.9	-49.4	6.2	0.00e+00	0	46	104	0	65	19202
2026-01-26 21:01:58.98	224.28	8.33	-47.0	-49.5	6.2	0.00e+00	0	47	104	0	65	19436
2026-01-26 21:01:59.85	224.42	8.39	-46.9	-49.5	6.2	0.00e+00	0	46	104	0	65	19310
2026-01-26 21:02:01.00	224.59	8.47	-46.8	-49.4	6.2	0.00e+00	0	47	104	0	65	19215
2026-01-26 21:02:01.87	224.73	8.53	-46.9	-49.5	6.2	0.00e+00	0	47	104	0	65	19291
2026-01-26 21:02:03.02	224.90	8.61	-47.0	-49.5	6.2	0.00e+00	0	47	104	0	65	19436
2026-01-26 21:02:03.89	225.04	8.67	-47.0	-49.5	6.2	0.00e+00	0	47	104	0	65	19399
2026-01-26 21:02:05.04	225.22	8.75	-46.6	-49.1	6.2	0.00e+00	0	47	104	0	65	18527
2026-01-26 21:02:05.90	225.35	8.81	-46.2	-48.4	6.2	0.00e+00	0	46	104	0	63	19126
2026-01-26 21:02:07.06	225.54	8.89	-45.7	-47.6	6.3	0.00e+00	0	46	104	0	62	18489
2026-01-26 21:02:07.92	225.67	8.95	-44.8	-46.4	6.4	0.00e+00	0	47	104	0	61	17151
2026-01-26 21:02:09.08	225.86	9.03	-44.9	-46.6	6.4	0.00e+00	0	47	104	0	61	17441
2026-01-26 21:02:09.94	226.00	9.09	-45.0	-46.7	6.3	0.00e+00	0	46	104	0	61	17726
2026-01-26 21:02:11.10	226.18	9.18	-45.1	-46.8	6.3	0.00e+00	0	46	104	0	61	17919
2026-01-26 21:02:11.97	226.32	9.24	-45.2	-47.0	6.3	0.00e+00	0	46	104	0	61	18196
2026-01-26 21:02:13.12	226.51	9.32	-46.5	-48.7	6.2	0.00e+00	0	47	104	0	64	18817
2026-01-26 21:02:13.98	226.65	9.38	-46.2	-48.4	6.2	0.00e+00	0	47	104	0	64	18093
2026-01-26 21:02:15.14	226.84	9.46	-46.3	-48.6	6.2	0.00e+00	0	47	104	0	64	18433
2026-01-26 21:02:16.01	226.99	9.52	-45.9	-47.9	6.2	0.00e+00	0	47	104	0	63	18034
2026-01-26 21:02:17.16	227.18	9.61	-46.0	-48.1	6.2	0.00e+00	0	47	104	0	63	18429
2026-01-26 21:02:18.03	227.33	9.67	-46.0	-48.1	6.3	0.00e+00	0	47	104	0	63	18479
2026-01-26 21:02:19.18	227.52	9.75	-46.2	-48.3	6.2	0.00e+00	0	47	104	0	63	18924
2026-01-26 21:02:20.05	227.67	9.81	-46.3	-48.5	6.2	0.00e+00	0	47	104	0	63	19340
2026-01-26 21:02:21.20	227.86	9.89	-34.8	-35.0	12.3	2.69e-03	0	47	0	25165824	41	14591
2026-01-26 21:02:22.06	228.01	9.95	-32.5	-32.7	14.2	6.75e-04	0	47	0	117440512	37	14002
2026-01-26 21:02:23.22	228.21	10.04	-34.8	-35.0	12.2	4.46e-03	0	47	104	167772160	41	14442
2026-01-26 21:02:24.08	228.36	10.10	-29.6	-29.7	15.0	1.64e-04	0	47	0	260046848	31	14050
2026-01-26 21:02:25.24	228.56	10.18	-27.9	-28.0	16.3	1.90e-05	0	47	0	385875968	27	14460
2026-01-26 21:02:26.11	228.72	10.24	-26.8	-26.9	16.9	5.70e-06	0	47	0	486539264	25	14342
2026-01-26 21:02:27.26	228.92	10.33	-25.5	-25.6	17.5	0.00e+00	0	47	0	620756992	23	13910
2026-01-26 21:02:28.13	229.07	10.39	-24.9	-25.0	17.8	1.90e-06	0	47	0	713031680	21	14446
2026-01-26 21:02:29.28	229.28	10.47	-24.2	-24.2	18.0	0.00e+00	0	47	0	847249408	20	14109
2026-01-26 21:02:30.15	229.44	10.53	-23.9	-24.0	18.2	0.00e+00	0	47	0	947912704	19	14580
2026-01-26 21:02:31.31	229.65	10.62	-23.7	-23.8	18.2	0.00e+00	0	47	0	1073741824	19	14245
2026-01-26 21:02:32.17	229.80	10.68	-23.8	-23.9	18.0	0.00e+00	0	47	0	1166016512	19	14318
2026-01-26 21:02:33.33	230.01	10.76	-23.7	-23.8	18.0	0.00e+00	0	47	0	1300234240	19	14247
2026-01-26 21:02:34.19	230.17	10.82	-23.7	-23.8	18.0	0.00e+00	0	47	0	1400897536	19	14126
2026-01-26 21:02:35.35	230.39	10.91	-23.6	-23.7	18.0	0.00e+00	0	47	0	1526726656	19	14024
2026-01-26 21:02:36.21	230.55	10.97	-23.4	-23.5	18.1	0.00e+00	0	47	0	1627389952	18	14518
2026-01-26 21:02:37.37	230.76	11.05	-23.6	-23.6	17.9	0.00e+00	0	47	0	1753219072	18	14764
2026-01-26 21:02:38.23	230.92	11.11	-23.4	-23.5	17.9	0.00e+00	0	47	0	1853882368	18	14458
2026-01-26 21:02:39.39	231.14	11.20	-23.4	-23.5	17.9	0.00e+00	0	47	0	1979711488	18	14494
2026-01-26 21:02:40.25	231.31	11.26	-23.4	-23.5	17.9	0.00e+00	0	47	0	2080374784	18	14478
2026-01-26 21:02:41.41	231.53	11.34	-23.2	-23.3	17.9	0.00e+00	0	47	0	2206203904	18	14232
2026-01-26 21:02:42.27	231.69	11.41	-23.2	-23.3	17.9	0.00e+00	0	47	0	2306867200	18	14257
2026-01-26 21:02:43.43	231.92	11.49	-23.3	-23.4	17.9	0.00e+00	0	47	0	2432696320	18	14339
2026-01-26 21:02:44.30	232.09	11.55	-23.4	-23.5	17.9	0.00e+00	0	47	0	2533359616	18	14491
2026-01-26 21:02:45.45	232.31	11.64	-23.3	-23.4	17.8	0.00e+00	0	47	0	2667577344	18	14317
2026-01-26 21:02:46.32	232.48	11.70	-23.2	-23.3	17.9	0.00e+00	0	47	0	2759852032	18	14209
2026-01-26 21:02:47.47	232.71	11.78	-23.2	-23.3	18.0	0.00e+00	0	47	0	2885681152	18	14120
2026-01-26 21:02:48.34	232.88	11.84	-23.1	-23.2	18.1	0.00e+00	0	47	0	2986344448	18	13989
2026-01-26 21:02:49.49	233.11	11.93	-23.1	-23.2	18.1	0.00e+00	0	47	0	3120562176	18	14035
2026-01-26 21:02:50.36	233.29	11.99	-23.2	-23.3	18.0	0.00e+00	0	47	0	3212836864	18	14213
2026-01-26 21:02:51.52	233.52	12.07	-23.3	-23.4	17.9	0.00e+00	0	47	0	3347054592	18	14314
2026-01-26 21:02:52.38	233.70	12.13	-23.1	-23.2	18.1	0.00e+00	0	47	0	3439329280	18	14087
2026-01-26 21:02:53.54	233.94	12.22	-23.0	-23.1	18.3	0.00e+00	0	47	0	3573547008	18	13910
2026-01-26 21:02:54.40	234.11	12.28	-23.0	-23.1	18.3	0.00e+00	0	47	0	3674210304	18	13918
2026-01-26 21:02:55.56	234.35	12.36	-23.0	-23.1	18.1	0.00e+00	0	47	0	3800039424	18	13899
2026-01-26 21:02:56.42	234.53	12.43	-23.1	-23.2	18.1	0.00e+00	0	47	0	3900702720	18	14026
2026-01-26 21:02:57.58	234.77	12.51	-23.0	-23.1	18.3	0.00e+00	0	47	0	4026531840	18	13865
2026-01-26 21:02:58.44	234.95	12.57	-23.0	-23.1	18.5	0.00e+00	0	47	0	4127195136	18	13868
2026-01-26 21:02:59.60	235.20	12.65	-22.9	-23.0	18.2	0.00e+00	0	47	0	4261412864	17	14501
2026-01-26 21:03:00.47	235.38	12.72	-22.9	-23.0	18.3	0.00e+00	0	47	0	4353687552	17	14528
2026-01-26 21:03:01.62	235.63	12.80	-22.9	-23.0	18.3	0.00e+00	0	47	0	4479516672	17	14546
2026-01-26 21:03:02.49	235.82	12.86	-22.9	-23.0	18.3	0.00e+00	0	47	0	4580179968	17	14459
2026-01-26 21:03:03.64	236.07	12.94	-22.8	-22.9	18.3	0.00e+00	0	47	0	4714397696	17	14391
2026-01-26 21:03:04.51	236.26	13.01	-22.9	-23.0	18.5	0.00e+00	0	47	0	4806672384	17	14488
2026-01-26 21:03:05.66	236.51	13.09	-22.9	-23.0	18.4	0.00e+00	0	47	0	4940890112	17	14536
2026-01-26 21:03:06.53	236.70	13.15	-23.0	-23.1	18.3	0.00e+00	0	47	0	5033164800	17	14611
2026-01-26 21:03:07.69	236.95	13.23	-22.8	-22.9	18.4	0.00e+00	0	47	0	5158993920	17	14292
2026-01-26 21:03:08.55	237.15	13.29	-22.8	-22.9	18.4	0.00e+00	0	47	0	5268045824	17	14362
2026-01-26 21:03:09.70	237.40	13.37	-22.8	-22.8	18.4	0.00e+00	0	47	0	5393874944	17	14266
2026-01-26 21:03:10.57	237.60	13.44	-22.7	-22.8	18.4	0.00e+00	0	47	0	5486149632	17	14201
2026-01-26 21:03:11.72	237.86	13.52	-22.7	-22.8	18.2	0.00e+00	0	47	0	5620367360	17	14193
2026-01-26 21:03:12.59	238.06	13.58	-22.8	-22.8	18.5	0.00e+00	0	47	0	5712642048	17	14265
2026-01-26 21:03:13.74	238.32	13.66	-22.8	-22.9	18.3	0.00e+00	0	47	0	5846859776	17	14334
2026-01-26 21:03:14.61	238.52	13.72	-22.7	-22.8	18.5	0.00e+00	0	47	0	5947523072	17	14152
2026-01-26 21:03:15.77	238.79	13.80	-22.6	-22.7	18.5	0.00e+00	0	47	0	6073352192	17	14073
2026-01-26 21:03:16.63	238.99	13.86	-22.6	-22.6	18.3	0.00e+00	0	47	0	6165626880	17	13949
2026-01-26 21:03:17.79	239.26	13.94	-22.5	-22.6	18.4	0.00e+00	0	47	0	6299844608	17	13902
2026-01-26 21:03:18.65	239.46	14.00	-22.4	-22.5	18.3	0.00e+00	0	47	0	6400507904	16	14518
2026-01-26 21:03:19.81	239.73	14.09	-22.4	-22.5	18.1	0.00e+00	0	47	0	6526337024	16	14452
2026-01-26 21:03:20.67	239.94	14.14	-22.3	-22.4	18.2	0.00e+00	0	47	0	6627000320	16	14382
2026-01-26 21:03:21.83	240.21	14.23	-22.3	-22.4	18.2	0.00e+00	0	47	0	6752829440	16	14377
2026-01-26 21:03:22.70	240.42	14.29	-22.4	-22.5	18.1	0.00e+00	0	47	0	6853492736	16	14459
2026-01-26 21:03:23.85	240.70	14.36	-22.3	-22.4	18.2	0.00e+00	0	47	0	6987710464	16	14290
2026-01-26 21:03:24.72	240.91	14.42	-22.1	-22.2	18.1	0.00e+00	0	47	0	7079985152	16	14076
2026-01-26 21:03:25.87	241.19	14.50	-22.2	-22.3	18.1	0.00e+00	0	48	0	7214202880	16	14141
2026-01-26 21:03:26.73	241.40	14.56	-22.2	-22.3	18.2	0.00e+00	0	47	0	7306477568	16	14139
2026-01-26 21:03:27.89	241.68	14.64	-22.3	-22.3	18.3	0.00e+00	0	48	0	7432306688	16	14272
2026-01-26 21:03:28.76	241.90	14.70	-22.3	-22.4	18.3	0.00e+00	0	48	0	7532969984	16	14390
2026-01-26 21:03:29.91	242.18	14.78	-22.3	-22.4	18.2	0.00e+00	0	47	0	7667187712	16	14401
2026-01-26 21:03:30.78	242.40	14.84	-22.3	-22.3	18.1	0.00e+00	0	48	0	7759462400	16	14254
2026-01-26 21:03:31.93	242.69	14.92	-22.2	-22.3	18.1	0.00e+00	0	47	0	7893680128	16	14237
2026-01-26 21:03:32.80	242.91	14.97	-22.2	-22.3	17.8	0.00e+00	0	48	0	7994343424	16	14127
2026-01-26 21:03:33.95	243.20	15.05	-22.1	-22.2	18.2	0.00e+00	0	47	0	8120172544	16	14051
2026-01-26 21:03:34.82	243.42	15.11	-22.1	-22.2	18.1	0.00e+00	0	47	0	8220835840	16	14073
2026-01-26 21:03:35.97	243.72	15.18	-22.1	-22.2	17.9	0.00e+00	0	47	0	8346664960	16	14003
2026-01-26 21:03:36.84	243.94	15.24	-22.1	-22.2	17.9	0.00e+00	0	48	0	8438939648	16	13987
2026-01-26 21:03:37.99	244.24	15.32	-22.1	-22.2	18.0	0.00e+00	0	48	0	8581545984	16	14032
2026-01-26 21:03:38.86	244.47	15.37	-22.1	-22.2	18.1	0.00e+00	0	48	0	8673820672	16	14005
2026-01-26 21:03:40.02	244.77	15.45	-22.0	-22.1	17.8	0.00e+00	0	48	0	8799649792	16	13810
2026-01-26 21:03:40.88	245.00	15.51	-21.9	-21.9	17.9	1.90e-06	0	48	0	8900313088	15	14425
2026-01-26 21:03:42.04	245.30	15.58	-21.9	-22.0	17.7	0.00e+00	0	48	0	9026142208	15	14537
2026-01-26 21:03:42.90	245.53	15.64	-21.9	-22.0	17.6	0.00e+00	0	48	0	9126805504	15	14519
2026-01-26 21:03:44.06	245.84	15.71	-21.8	-21.9	17.6	0.00e+00	0	48	0	9261023232	15	14327
2026-01-26 21:03:44.92	246.07	15.77	-21.8	-21.9	17.5	0.00e+00	0	48	0	9353297920	15	14316
2026-01-26 21:03:46.08	246.38	15.84	-21.8	-21.9	17.3	0.00e+00	0	48	0	9479127040	15	14285
2026-01-26 21:03:46.94	246.61	15.89	-21.8	-21.9	17.7	0.00e+00	0	48	0	9579790336	15	14277
2026-01-26 21:03:48.10	246.93	15.97	-21.8	-21.9	17.6	0.00e+00	0	48	0	9714008064	15	14357
2026-01-26 21:03:48.97	247.17	16.02	-21.7	-21.8	17.7	0.00e+00	0	47	0	9806282752	15	14175
2026-01-26 21:03:50.12	247.48	16.09	-21.8	-21.8	17.2	0.00e+00	0	48	0	9940500480	15	14256
2026-01-26 21:03:50.98	247.72	16.14	-21.8	-21.8	17.2	0.00e+00	0	48	0	10032775168	15	14263
2026-01-26 21:03:52.14	248.04	16.21	-21.7	-21.7	17.6	0.00e+00	0	48	0	10166992896	15	14107
2026-01-26 21:03:53.01	248.28	16.27	-21.6	-21.6	17.2	0.00e+00	0	48	0	10267656192	15	13948
2026-01-26 21:03:54.16	248.60	16.34	-21.6	-21.7	17.3	0.00e+00	0	48	0	10393485312	15	14050
2026-01-26 21:03:55.03	248.85	16.39	-21.6	-21.6	17.0	0.00e+00	0	47	0	10494148608	15	13907
2026-01-26 21:03:56.18	249.17	16.46	-21.5	-21.6	17.3	0.00e+00	0	48	0	10619977728	15	13825
2026-01-26 21:03:57.05	249.42	16.51	-21.5	-21.6	17.2	0.00e+00	0	48	0	10720641024	15	13832
2026-01-26 21:03:58.20	249.74	16.58	-21.6	-21.6	16.8	0.00e+00	0	48	0	10846470144	15	13946
2026-01-26 21:03:59.07	249.99	16.63	-21.4	-21.5	17.2	0.00e+00	0	48	0	10947133440	14	14460
2026-01-26 21:04:00.23	250.32	16.69	-21.3	-21.4	17.2	0.00e+00	0	48	0	11072962560	14	14338
2026-01-26 21:04:01.09	250.57	16.74	-21.4	-21.5	16.9	0.00e+00	0	48	0	11173625856	14	14441
2026-01-26 21:04:02.25	250.91	16.81	-21.4	-21.5	17.2	0.00e+00	0	48	0	11307843584	14	14472
2026-01-26 21:04:03.11	251.16	16.86	-21.4	-21.4	17.0	0.00e+00	0	48	0	11400118272	14	14415
2026-01-26 21:04:04.27	251.50	16.92	-21.3	-21.4	16.7	0.00e+00	0	48	0	11534336000	14	14333
2026-01-26 21:04:05.13	251.75	16.97	-21.3	-21.4	16.8	0.00e+00	0	48	0	11626610688	14	14332
2026-01-26 21:04:06.29	252.09	17.03	-21.4	-21.4	16.7	0.00e+00	0	48	0	11752439808	14	14387
2026-01-26 21:04:07.15	252.34	17.08	-21.4	-21.5	16.7	0.00e+00	0	48	0	11853103104	14	14556
2026-01-26 21:04:08.31	252.69	17.14	-21.4	-21.5	16.8	0.00e+00	0	48	0	11987320832	14	14512
2026-01-26 21:04:09.17	252.94	17.19	-21.3	-21.4	16.9	0.00e+00	0	48	0	12079595520	14	14369
2026-01-26 21:04:10.33	253.29	17.25	-21.2	-21.2	16.7	0.00e+00	0	48	0	12213813248	14	14064
2026-01-26 21:04:11.19	253.55	17.29	-21.2	-21.3	16.5	0.00e+00	0	48	0	12314476544	14	14164
2026-01-26 21:04:12.35	253.90	17.35	-21.1	-21.2	16.7	1.90e-06	0	48	0	12440305664	14	14052
2026-01-26 21:04:13.21	254.16	17.40	-21.2	-21.3	16.6	0.00e+00	0	48	0	12540968960	14	14119
2026-01-26 21:04:14.37	254.51	17.46	-21.2	-21.3	16.4	0.00e+00	0	48	0	12666798080	14	14163
2026-01-26 21:04:15.24	254.77	17.50	-21.2	-21.2	16.3	0.00e+00	0	48	0	12759072768	14	14110
2026-01-26 21:04:16.39	255.12	17.56	-21.3	-21.3	16.4	1.90e-06	0	48	0	12893290496	14	14252
2026-01-26 21:04:17.26	255.39	17.60	-21.2	-21.3	16.3	0.00e+00	0	48	0	12993953792	14	14113
2026-01-26 21:04:18.41	255.74	17.65	-21.2	-21.2	16.2	0.00e+00	0	48	0	13119782912	14	14069
2026-01-26 21:04:19.28	256.01	17.69	-21.2	-21.3	16.2	0.00e+00	0	48	0	13220446208	14	14146
2026-01-26 21:04:20.42	256.37	17.75	-21.1	-21.2	16.4	0.00e+00	0	48	0	13346275328	14	14028
2026-01-26 21:04:21.29	256.64	17.79	-21.1	-21.2	16.3	0.00e+00	0	48	0	13446938624	14	13980
2026-01-26 21:04:22.44	256.99	17.84	-21.2	-21.2	16.2	0.00e+00	0	48	0	13581156352	14	14088
2026-01-26 21:04:23.31	257.27	17.88	-21.1	-21.2	16.3	0.00e+00	0	48	0	13673431040	14	14025
2026-01-26 21:04:24.47	257.63	17.93	-21.1	-21.1	16.7	0.00e+00	0	48	0	13799260160	14	13923
2026-01-26 21:04:25.33	257.90	17.97	-21.0	-21.1	16.7	0.00e+00	0	48	0	13899923456	14	13894
2026-01-26 21:04:26.49	258.27	18.02	-21.1	-21.2	16.6	0.00e+00	0	48	0	14025752576	14	14003
2026-01-26 21:04:27.35	258.54	18.05	-21.0	-21.1	16.7	0.00e+00	0	48	0	14126415872	14	13886
2026-01-26 21:04:28.50	258.91	18.10	-21.0	-21.1	16.5	0.00e+00	0	48	0	14260633600	14	13844
2026-01-26 21:04:29.37	259.18	18.14	-21.1	-21.2	17.0	0.00e+00	0	48	0	14352908288	14	14032
2026-01-26 21:04:30.53	259.55	18.18	-20.9	-21.0	16.9	1.90e-06	0	48	0	14487126016	13	14544
2026-01-26 21:04:31.39	259.83	18.22	-21.0	-21.1	16.4	1.90e-06	0	48	0	14587789312	13	14610
2026-01-26 21:04:32.55	260.20	18.26	-21.0	-21.0	16.6	0.00e+00	0	48	0	14713618432	13	14559
2026-01-26 21:04:33.41	260.48	18.29	-21.0	-21.1	16.7	0.00e+00	0	48	0	14805893120	13	14622
2026-01-26 21:04:34.57	260.86	18.34	-21.0	-21.1	17.1	0.00e+00	0	48	0	14940110848	13	14677
2026-01-26 21:04:35.43	261.14	18.37	-20.9	-21.0	17.0	0.00e+00	0	48	0	15032385536	13	14516
2026-01-26 21:04:36.59	261.51	18.41	-21.1	-21.1	16.6	0.00e+00	0	48	0	15166603264	13	14754
2026-01-26 21:04:37.46	261.80	18.44	-21.0	-21.0	16.6	0.00e+00	0	48	0	15267266560	13	14566
2026-01-26 21:04:38.61	262.17	18.48	-21.0	-21.0	16.8	0.00e+00	0	48	0	15393095680	13	14554
2026-01-26 21:04:39.48	262.46	18.51	-20.9	-21.0	17.3	0.00e+00	0	48	0	15493758976	13	14486
2026-01-26 21:04:40.63	262.83	18.54	-20.9	-21.0	17.3	0.00e+00	0	48	0	15619588096	13	14536
2026-01-26 21:04:41.50	263.12	18.57	-21.0	-21.1	17.0	0.00e+00	0	48	0	15720251392	13	14727
2026-01-26 21:04:42.65	263.50	18.61	-20.9	-21.0	17.2	0.00e+00	0	48	0	15854469120	13	14489
2026-01-26 21:04:43.52	263.79	18.63	-21.0	-21.1	16.8	0.00e+00	0	48	0	15946743808	13	14616
2026-01-26 21:04:44.67	264.17	18.67	-21.1	-21.1	16.9	0.00e+00	0	48	0	16072572928	13	14763
2026-01-26 21:04:45.54	264.46	18.69	-21.0	-21.0	17.3	0.00e+00	0	48	0	16173236224	13	14573
2026-01-26 21:04:46.70	264.84	18.72	-20.9	-21.0	17.5	0.00e+00	0	48	0	16307453952	13	14531
2026-01-26 21:04:47.56	265.13	18.74	-21.0	-21.0	17.4	0.00e+00	0	48	0	16399728640	13	14578
2026-01-26 21:04:48.72	265.52	18.77	-21.0	-21.1	17.1	0.00e+00	0	48	0	16533946368	13	14713
2026-01-26 21:04:49.58	265.80	18.80	-21.1	-21.1	17.5	0.00e+00	0	48	0	16626221056	13	14760
2026-01-26 21:04:50.74	266.19	18.82	-21.0	-21.1	17.8	0.00e+00	0	48	0	16760438784	13	14729
2026-01-26 21:04:51.60	266.48	18.84	-20.9	-21.0	17.2	0.00e+00	0	48	0	16861102080	13	14535
2026-01-26 21:04:52.76	266.87	18.87	-21.1	-21.1	17.3	0.00e+00	0	48	0	16986931200	13	14741
2026-01-26 21:04:53.63	267.16	18.89	-21.1	-21.2	17.9	0.00e+00	0	48	0	17079205888	13	14804
2026-01-26 21:04:54.78	267.55	18.91	-21.0	-21.1	18.0	0.00e+00	0	48	0	17213423616	13	14688
2026-01-26 21:04:55.65	267.85	18.93	-21.1	-21.1	17.6	0.00e+00	0	48	0	17314086912	13	14769
2026-01-26 21:04:56.80	268.23	18.95	-21.0	-21.1	18.1	0.00e+00	0	48	0	17439916032	13	14650
2026-01-26 21:04:57.67	268.53	18.97	-21.1	-21.1	18.1	0.00e+00	0	48	0	17540579328	13	14762
2026-01-26 21:04:58.82	268.92	18.99	-21.0	-21.1	17.8	0.00e+00	0	48	0	17666408448	13	14690
2026-01-26 21:04:59.69	269.21	19.00	-21.0	-21.1	18.1	0.00e+00	0	48	0	17767071744	13	14699
2026-01-26 21:05:00.85	269.61	19.02	-21.1	-21.1	18.2	0.00e+00	0	48	0	17901289472	13	14731
2026-01-26 21:05:01.71	269.90	19.03	-21.1	-21.2	18.4	0.00e+00	0	48	0	17993564160	13	14816
2026-01-26 21:05:02.87	270.30	19.04	-21.1	-21.2	18.2	0.00e+00	0	48	0	18119393280	13	14839
2026-01-26 21:05:03.73	270.59	19.06	-21.1	-21.1	18.6	0.00e+00	0	48	0	18220056576	13	14761
2026-01-26 21:05:04.89	270.98	19.07	-21.1	-21.1	18.5	0.00e+00	0	48	0	18345885696	13	14776
2026-01-26 21:05:05.75	271.28	19.08	-21.1	-21.2	18.8	0.00e+00	0	48	0	18446548992	13	14900
2026-01-26 21:05:06.91	271.67	19.09	-21.2	-21.2	18.4	0.00e+00	0	48	0	18580766720	13	14935
2026-01-26 21:05:07.78	271.97	19.10	-21.1	-21.1	18.5	0.00e+00	0	48	0	18673041408	13	14746
2026-01-26 21:05:08.93	272.36	19.11	-21.1	-21.2	18.7	0.00e+00	0	48	0	18807259136	13	14903
2026-01-26 21:05:09.80	272.66	19.11	-21.2	-21.3	18.6	0.00e+00	0	48	0	18907922432	13	14959
2026-01-26 21:05:10.95	273.06	19.12	-21.1	-21.2	18.7	0.00e+00	0	48	0	19033751552	13	14796
2026-01-26 21:05:11.82	273.35	19.12	-21.2	-21.2	19.0	0.00e+00	0	48	0	19126026240	13	14889
2026-01-26 21:05:12.97	273.75	19.13	-21.1	-21.2	18.6	0.00e+00	0	48	0	19260243968	13	14884
2026-01-26 21:05:13.84	274.05	19.13	-21.1	-21.2	18.9	0.00e+00	0	48	0	19352518656	13	14880
2026-01-26 21:05:15.00	274.44	19.13	-21.2	-21.3	18.7	0.00e+00	0	48	0	19486736384	13	15009
2026-01-26 21:05:15.86	274.74	19.13	-21.2	-21.2	18.8	0.00e+00	0	48	0	19587399680	13	14934
2026-01-26 21:05:17.01	275.13	19.13	-21.2	-21.3	19.1	0.00e+00	0	48	0	19713228800	13	14972
2026-01-26 21:05:17.88	275.43	19.13	-21.2	-21.2	19.2	0.00e+00	0	48	0	19813892096	13	14947
2026-01-26 21:05:19.04	275.83	19.13	-21.2	-21.3	19.2	0.00e+00	0	48	0	19939721216	13	15027
2026-01-26 21:05:19.90	276.12	19.13	-21.3	-21.3	19.0	0.00e+00	0	48	0	20040384512	13	15078
2026-01-26 21:05:21.06	276.52	19.13	-21.3	-21.4	18.9	0.00e+00	0	48	0	20174602240	13	15179
2026-01-26 21:05:21.92	276.81	19.12	-21.3	-21.4	19.3	0.00e+00	0	48	0	20266876928	13	15211
2026-01-26 21:05:23.08	277.21	19.12	-21.3	-21.4	19.2	0.00e+00	0	48	0	20392706048	13	15169
2026-01-26 21:05:23.94	277.51	19.11	-21.3	-21.4	19.4	0.00e+00	0	48	0	20493369344	13	15168
2026-01-26 21:05:25.10	277.90	19.10	-21.3	-21.3	19.4	0.00e+00	0	48	0	20627587072	13	15101
2026-01-26 21:05:25.96	278.20	19.10	-21.3	-21.4	19.2	0.00e+00	0	48	0	20719861760	13	15234
2026-01-26 21:05:27.12	278.59	19.09	-21.4	-21.4	19.0	0.00e+00	0	48	0	20854079488	13	15285
2026-01-26 21:05:27.98	278.89	19.08	-21.5	-21.5	18.9	0.00e+00	0	48	0	20946354176	13	15446
2026-01-26 21:05:29.14	279.28	19.07	-21.4	-21.5	19.4	0.00e+00	0	48	0	21072183296	13	15297
2026-01-26 21:05:30.01	279.58	19.06	-21.4	-21.5	19.4	0.00e+00	0	48	0	21181235200	13	15324
2026-01-26 21:05:31.16	279.97	19.04	-21.5	-21.5	19.4	0.00e+00	0	48	0	21307064320	13	15457
2026-01-26 21:05:32.03	280.26	19.03	-21.5	-21.5	19.2	0.00e+00	0	48	0	21399339008	13	15440
2026-01-26 21:05:33.18	280.65	19.01	-21.5	-21.5	19.3	0.00e+00	0	48	0	21533556736	13	15445
2026-01-26 21:05:34.05	280.95	19.00	-21.6	-21.6	19.2	0.00e+00	0	48	0	21634220032	13	15594
2026-01-26 21:05:35.20	281.34	18.98	-21.6	-21.7	19.1	0.00e+00	0	48	0	21760049152	13	15697
2026-01-26 21:05:36.07	281.63	18.97	-21.6	-21.6	19.2	0.00e+00	0	48	0	21860712448	13	15638
2026-01-26 21:05:37.22	282.02	18.94	-21.6	-21.6	19.1	0.00e+00	0	48	0	21986541568	13	15650
2026-01-26 21:05:38.09	282.32	18.93	-21.8	-21.9	19.1	0.00e+00	0	48	0	22087204864	14	15137
2026-01-26 21:05:39.24	282.70	18.91	-21.7	-21.8	18.8	0.00e+00	0	48	0	22221422592	14	15018
2026-01-26 21:05:40.11	283.00	18.89	-21.7	-21.7	19.0	0.00e+00	0	48	0	22313697280	14	14917
2026-01-26 21:05:41.26	283.38	18.86	-21.7	-21.8	19.2	0.00e+00	0	48	0	22439526400	14	14968
2026-01-26 21:05:42.13	283.68	18.84	-21.6	-21.7	19.2	0.00e+00	0	48	0	22540189696	14	14898
2026-01-26 21:05:43.28	284.06	18.82	-21.8	-21.8	19.2	0.00e+00	0	48	0	22666018816	14	15089
2026-01-26 21:05:44.15	284.35	18.80	-21.8	-21.9	19.3	0.00e+00	0	48	0	22766682112	14	15126
2026-01-26 21:05:45.31	284.74	18.77	-21.7	-21.8	19.2	0.00e+00	0	48	0	22900899840	14	15033
2026-01-26 21:05:46.17	285.02	18.74	-21.8	-21.8	18.8	0.00e+00	0	48	0	22993174528	14	15111
2026-01-26 21:05:47.33	285.41	18.71	-21.8	-21.9	19.0	0.00e+00	0	48	0	23127392256	14	15219
2026-01-26 21:05:48.19	285.70	18.69	-21.8	-21.8	18.9	0.00e+00	0	48	0	23228055552	14	15105
2026-01-26 21:05:49.35	286.08	18.66	-21.8	-21.9	19.0	0.00e+00	0	48	0	23353884672	14	15196
2026-01-26 21:05:50.21	286.36	18.63	-21.8	-21.9	18.8	0.00e+00	0	48	0	23446159360	14	15214
2026-01-26 21:05:51.37	286.75	18.60	-21.8	-21.9	19.0	0.00e+00	0	48	0	23580377088	14	15206
2026-01-26 21:05:52.24	287.03	18.57	-21.9	-22.0	18.9	0.00e+00	0	48	0	23672651776	14	15392
2026-01-26 21:05:53.39	287.41	18.53	-21.8	-21.9	18.9	0.00e+00	0	48	0	23806869504	14	15236
2026-01-26 21:05:54.26	287.69	18.51	-21.9	-22.0	18.9	0.00e+00	0	48	0	23907532800	14	15359
2026-01-26 21:05:55.41	288.07	18.47	-21.9	-22.0	19.1	0.00e+00	0	48	0	24033361920	14	15336
2026-01-26 21:05:56.28	288.35	18.44	-21.9	-22.0	19.2	0.00e+00	0	48	0	24134025216	14	15416
2026-01-26 21:05:57.43	288.73	18.40	-22.0	-22.0	18.8	0.00e+00	0	48	0	24259854336	14	15425
2026-01-26 21:05:58.30	289.01	18.37	-22.1	-22.1	19.0	0.00e+00	0	48	0	24360517632	14	15649
2026-01-26 21:05:59.45	289.38	18.33	-22.1	-22.2	18.8	0.00e+00	0	48	0	24494735360	14	15664
2026-01-26 21:06:00.32	289.66	18.29	-22.0	-22.1	18.8	0.00e+00	0	48	0	24587010048	14	15552
2026-01-26 21:06:01.48	290.03	18.25	-22.1	-22.1	18.6	0.00e+00	0	48	0	24712839168	14	15633
2026-01-26 21:06:02.34	290.31	18.22	-22.0	-22.1	19.1	0.00e+00	0	48	0	24813502464	14	15544
2026-01-26 21:06:03.49	290.68	18.17	-22.1	-22.2	19.0	0.00e+00	0	48	0	24947720192	14	15680
2026-01-26 21:06:04.36	290.95	18.14	-22.1	-22.2	19.0	0.00e+00	0	48	0	25039994880	14	15793
2026-01-26 21:06:05.52	291.32	18.09	-22.3	-22.4	19.1	0.00e+00	0	48	0	25174212608	15	15125
2026-01-26 21:06:06.38	291.59	18.06	-22.3	-22.4	19.1	0.00e+00	0	48	0	25266487296	15	15210
2026-01-26 21:06:07.54	291.96	18.01	-22.3	-22.4	19.0	0.00e+00	0	48	0	25392316416	15	15247
2026-01-26 21:06:08.40	292.23	17.97	-22.2	-22.3	18.7	0.00e+00	0	48	0	25501368320	15	15016
2026-01-26 21:06:09.56	292.59	17.92	-22.4	-22.5	18.8	0.00e+00	0	48	0	25627197440	15	15300
2026-01-26 21:06:10.42	292.86	17.88	-22.3	-22.4	19.1	0.00e+00	0	48	0	25719472128	15	15178
2026-01-26 21:06:11.57	293.22	17.83	-22.3	-22.4	18.8	0.00e+00	0	48	0	25853689856	15	15245
2026-01-26 21:06:12.44	293.49	17.79	-22.3	-22.4	19.0	0.00e+00	0	48	0	25945964544	15	15174
2026-01-26 21:06:13.60	293.85	17.74	-22.4	-22.4	18.8	0.00e+00	0	48	0	26080182272	15	15259
2026-01-26 21:06:14.46	294.12	17.70	-22.3	-22.4	18.7	0.00e+00	0	48	0	26180845568	15	15214
2026-01-26 21:06:15.62	294.47	17.64	-22.3	-22.4	18.7	0.00e+00	0	48	0	26306674688	15	15146
2026-01-26 21:06:16.48	294.74	17.60	-22.4	-22.4	18.7	0.00e+00	0	48	0	26398949376	15	15291
2026-01-26 21:06:17.64	295.09	17.55	-22.4	-22.4	18.6	0.00e+00	0	48	0	26533167104	15	15292
2026-01-26 21:06:18.50	295.35	17.50	-22.3	-22.4	18.7	0.00e+00	0	48	0	26633830400	15	15184
2026-01-26 21:06:19.66	295.70	17.45	-22.4	-22.5	18.8	0.00e+00	0	48	0	26759659520	15	15389
2026-01-26 21:06:20.52	295.96	17.40	-22.2	-22.3	18.9	0.00e+00	0	48	0	26860322816	15	15073
2026-01-26 21:06:21.68	296.31	17.34	-22.3	-22.3	18.7	0.00e+00	0	48	0	26986151936	15	15096
2026-01-26 21:06:22.55	296.57	17.30	-22.3	-22.4	19.0	0.00e+00	0	48	0	27086815232	15	15128
2026-01-26 21:06:23.70	296.92	17.24	-22.2	-22.3	18.8	0.00e+00	0	48	0	27221032960	15	14993
2026-01-26 21:06:24.57	297.17	17.19	-22.2	-22.3	18.9	0.00e+00	0	48	0	27313307648	15	15044
2026-01-26 21:06:25.72	297.51	17.13	-22.3	-22.3	18.8	0.00e+00	0	48	0	27447525376	15	15072
2026-01-26 21:06:26.59	297.77	17.09	-22.2	-22.3	18.7	0.00e+00	0	48	0	27539800064	15	15081
2026-01-26 21:06:27.74	298.11	17.02	-22.3	-22.4	18.8	0.00e+00	0	48	0	27674017792	15	15187
2026-01-26 21:06:28.61	298.36	16.98	-22.3	-22.4	18.7	0.00e+00	0	48	0	27766292480	15	15156
2026-01-26 21:06:29.77	298.70	16.91	-22.4	-22.4	18.7	0.00e+00	0	48	0	27900510208	15	15267
2026-01-26 21:06:30.63	298.95	16.87	-22.3	-22.4	18.9	0.00e+00	0	48	0	27992784896	15	15170
2026-01-26 21:06:31.79	299.29	16.80	-22.3	-22.4	18.9	0.00e+00	0	48	0	28127002624	15	15134
2026-01-26 21:06:32.66	299.54	16.75	-22.2	-22.3	19.0	0.00e+00	0	48	0	28227665920	15	15033
2026-01-26 21:06:33.81	299.86	16.69	-22.4	-22.5	18.8	0.00e+00	0	48	0	28353495040	15	15346
2026-01-26 21:06:34.68	300.11	16.64	-22.4	-22.5	18.8	0.00e+00	0	48	0	28454158336	15	15305
2026-01-26 21:06:35.83	300.44	16.57	-22.4	-22.5	18.8	0.00e+00	0	48	0	28579987456	15	15300
2026-01-26 21:06:36.70	300.69	16.52	-22.3	-22.3	18.9	0.00e+00	0	48	0	28680650752	15	15113
2026-01-26 21:06:37.85	301.01	16.45	-22.3	-22.4	19.1	0.00e+00	0	48	0	28806479872	15	15135
2026-01-26 21:06:38.72	301.25	16.40	-22.3	-22.4	19.2	0.00e+00	0	48	0	28907143168	15	15220
2026-01-26 21:06:39.88	301.58	16.33	-22.3	-22.4	18.9	0.00e+00	0	48	0	29032972288	15	15143
2026-01-26 21:06:40.74	301.81	16.28	-22.3	-22.4	19.2	0.00e+00	0	48	0	29133635584	15	15210
2026-01-26 21:06:41.90	302.14	16.21	-22.3	-22.4	18.9	0.00e+00	0	48	0	29267853312	15	15211
2026-01-26 21:06:42.76	302.37	16.16	-22.3	-22.4	19.0	0.00e+00	0	48	0	29360128000	15	15208
2026-01-26 21:06:43.92	302.69	16.09	-22.4	-22.5	18.8	0.00e+00	0	48	0	29494345728	15	15351
2026-01-26 21:06:44.78	302.92	16.03	-22.3	-22.4	19.0	0.00e+00	0	48	0	29586620416	15	15170
2026-01-26 21:06:45.94	303.24	15.96	-22.4	-22.4	19.2	0.00e+00	0	48	0	29712449536	15	15273
2026-01-26 21:06:46.80	303.47	15.91	-22.4	-22.5	19.2	0.00e+00	0	48	0	29821501440	15	15330
2026-01-26 21:06:47.96	303.78	15.84	-22.4	-22.5	19.2	0.00e+00	0	48	0	29947330560	15	15374
2026-01-26 21:06:48.82	304.01	15.78	-22.5	-22.6	19.1	0.00e+00	0	48	0	30039605248	15	15607
2026-01-26 21:06:49.98	304.32	15.71	-22.4	-22.5	19.2	0.00e+00	0	48	0	30173822976	15	15335
2026-01-26 21:06:50.84	304.55	15.65	-22.4	-22.5	19.0	0.00e+00	0	48	0	30274486272	15	15373
2026-01-26 21:06:52.00	304.86	15.58	-22.6	-22.7	19.0	0.00e+00	0	48	0	30400315392	15	15674
2026-01-26 21:06:52.87	305.08	15.52	-22.6	-22.6	18.9	0.00e+00	0	48	0	30500978688	15	15627
2026-01-26 21:06:54.02	305.38	15.45	-22.6	-22.7	18.5	0.00e+00	0	48	0	30626807808	15	15709
2026-01-26 21:06:54.89	305.61	15.39	-22.7	-22.8	18.6	0.00e+00	0	48	0	30719082496	16	15009
2026-01-26 21:06:56.04	305.91	15.32	-22.7	-22.8	18.8	0.00e+00	0	48	0	30861688832	16	15003
2026-01-26 21:06:56.91	306.13	15.26	-22.7	-22.7	19.0	0.00e+00	0	48	0	30953963520	16	14924
2026-01-26 21:06:58.06	306.43	15.19	-22.8	-22.9	18.9	0.00e+00	0	48	0	31079792640	16	15123
2026-01-26 21:06:58.93	306.65	15.13	-22.8	-22.9	18.7	0.00e+00	0	48	0	31180455936	16	15213
2026-01-26 21:07:00.08	306.94	15.05	-22.8	-22.9	18.8	0.00e+00	0	48	0	31306285056	16	15201
2026-01-26 21:07:00.95	307.16	15.00	-22.9	-23.0	18.8	0.00e+00	0	48	0	31406948352	16	15297
2026-01-26 21:07:02.11	307.45	14.92	-22.9	-23.0	18.9	0.00e+00	0	48	0	31541166080	16	15307
2026-01-26 21:07:02.97	307.66	14.86	-22.9	-23.0	18.7	0.00e+00	0	48	0	31633440768	16	15305
2026-01-26 21:07:04.13	307.95	14.78	-22.9	-22.9	18.8	0.00e+00	0	48	0	31767658496	16	15293
2026-01-26 21:07:04.99	308.16	14.72	-22.9	-23.0	18.6	0.00e+00	0	48	0	31868321792	16	15368
2026-01-26 21:07:06.15	308.45	14.65	-23.0	-23.0	18.8	0.00e+00	0	48	0	31994150912	16	15431
2026-01-26 21:07:07.01	308.66	14.59	-23.0	-23.1	18.7	0.00e+00	0	48	0	32086425600	16	15579
2026-01-26 21:07:08.17	308.94	14.51	-23.1	-23.1	18.7	0.00e+00	0	48	0	32220643328	16	15609
2026-01-26 21:07:09.04	309.15	14.45	-23.0	-23.1	18.8	0.00e+00	0	48	0	32312918016	16	15579
2026-01-26 21:07:10.19	309.43	14.37	-23.0	-23.1	18.6	0.00e+00	0	48	0	32447135744	16	15521
2026-01-26 21:07:11.06	309.64	14.31	-23.1	-23.2	18.6	0.00e+00	0	48	0	32547799040	16	15671
2026-01-26 21:07:12.21	309.91	14.23	-23.1	-23.2	18.7	0.00e+00	0	48	0	32673628160	17	14815
2026-01-26 21:07:13.08	310.12	14.17	-23.2	-23.3	18.7	0.00e+00	0	48	0	32774291456	17	14974
2026-01-26 21:07:14.23	310.39	14.09	-42.1	-36.1	12.1	4.10e-04	0	48	0	32900120576	17	65535
2026-01-26 21:07:15.10	310.59	14.03	-47.3	-49.9	6.2	0.00e+00	0	48	104	32900120576	65	20391
2026-01-26 21:07:16.25	310.86	13.95	-47.3	-50.0	6.2	0.00e+00	0	48	104	32900120576	65	20436
2026-01-26 21:07:17.12	311.06	13.89	-47.4	-50.0	6.2	0.00e+00	0	48	104	32900120576	65	20485
2026-01-26 21:07:18.28	311.33	13.81	-47.4	-50.0	6.2	0.00e+00	0	48	104	32900120576	65	20468
2026-01-26 21:07:19.14	311.53	13.75	-47.4	-50.0	6.2	0.00e+00	0	48	104	32900120576	65	20494
2026-01-26 21:07:20.30	311.79	13.67	-47.5	-50.0	6.2	0.00e+00	0	48	104	32900120576	65	20531
2026-01-26 21:07:21.16	311.99	13.61	-47.5	-50.0	6.2	0.00e+00	0	48	104	32900120576	65	20582
2026-01-26 21:07:22.32	312.25	13.53	-47.4	-50.0	6.2	0.00e+00	0	48	104	32900120576	65	20473
2026-01-26 21:07:23.19	312.44	13.47	-47.4	-50.0	6.2	0.00e+00	0	48	104	32900120576	65	20428
2026-01-26 21:07:24.34	312.70	13.39	-47.5	-50.0	6.2	0.00e+00	0	48	104	32900120576	65	20517
2026-01-26 21:07:25.21	312.89	13.33	-47.4	-50.0	6.2	0.00e+00	0	48	104	32900120576	65	20520
2026-01-26 21:07:26.36	313.15	13.25	-47.4	-50.0	6.2	0.00e+00	0	48	104	32900120576	65	20438
2026-01-26 21:07:27.23	313.34	13.19	-47.4	-49.9	6.2	0.00e+00	0	48	104	32900120576	65	20367
2026-01-26 21:07:28.38	313.59	13.10	-47.4	-50.0	6.2	0.00e+00	0	48	104	32900120576	65	20441
2026-01-26 21:07:29.25	313.78	13.04	-47.3	-49.9	6.2	0.00e+00	0	48	104	32900120576	65	20324
2026-01-26 21:07:30.40	314.03	12.96	-47.3	-49.9	6.2	0.00e+00	0	48	104	32900120576	65	20357
2026-01-26 21:07:31.27	314.21	12.90	-47.3	-49.9	6.2	0.00e+00	0	48	104	32900120576	65	20278
2026-01-26 21:07:32.42	314.46	12.82	-47.4	-49.9	6.2	0.00e+00	0	48	104	32900120576	65	20389
2026-01-26 21:07:33.29	314.64	12.76	-47.2	-49.8	6.2	0.00e+00	0	48	104	32900120576	65	20156
2026-01-26 21:07:34.45	314.89	12.67	-47.3	-49.9	6.2	0.00e+00	0	48	104	32900120576	65	20272
2026-01-26 21:07:35.31	315.07	12.61	-47.3	-49.8	6.2	0.00e+00	0	48	104	32900120576	65	20046
2026-01-26 21:07:36.47	315.31	12.53	-47.4	-49.9	6.2	0.00e+00	0	48	104	32900120576	65	20284
2026-01-26 21:07:37.34	315.49	12.47	-47.2	-49.8	6.2	0.00e+00	0	48	104	32900120576	65	20024
2026-01-26 21:07:38.49	315.73	12.39	-47.3	-49.8	6.2	0.00e+00	0	48	104	32900120576	65	20159
2026-01-26 21:07:39.36	315.91	12.32	-47.2	-49.7	6.2	0.00e+00	0	48	104	32900120576	65	19892
2026-01-26 21:07:40.51	316.14	12.24	-47.3	-49.9	6.2	0.00e+00	0	47	104	32900120576	65	20200
2026-01-26 21:07:41.38	316.32	12.18	-47.1	-49.7	6.2	0.00e+00	0	48	104	32900120576	65	19798
2026-01-26 21:07:42.54	316.55	12.10	-47.3	-49.8	6.2	0.00e+00	0	48	104	32900120576	65	20146
2026-01-26 21:07:43.40	316.73	12.04	-47.1	-49.6	6.2	0.00e+00	0	48	104	32900120576	65	19652
2026-01-26 21:07:44.56	316.96	11.95	-47.3	-49.8	6.2	0.00e+00	0	48	104	32900120576	65	20125
2026-01-26 21:07:45.42	317.13	11.89	-47.1	-49.6	6.2	0.00e+00	0	48	104	32900120576	65	19649
2026-01-26 21:07:46.57	317.36	11.81	-47.2	-49.8	6.2	0.00e+00	0	48	104	32900120576	65	20028
2026-01-26 21:07:47.44	317.53	11.75	-47.1	-49.6	6.2	0.00e+00	0	48	104	32900120576	65	19500
2026-01-26 21:07:48.60	317.75	11.66	-47.3	-49.8	6.2	0.00e+00	0	48	104	32900120576	65	19991
2026-01-26 21:07:49.46	317.92	11.60	-47.0	-49.5	6.2	0.00e+00	0	48	104	32900120576	65	19444
2026-01-26 21:07:50.62	318.15	11.52	-47.2	-49.8	6.2	0.00e+00	0	48	104	32900120576	65	19942
2026-01-26 21:07:51.48	318.31	11.46	-47.1	-49.5	6.2	0.00e+00	0	48	104	32900120576	65	19424
2026-01-26 21:07:52.64	318.53	11.38	-47.2	-49.7	6.2	0.00e+00	0	48	104	32900120576	65	19885
2026-01-26 21:07:53.50	318.70	11.31	-46.9	-49.5	6.2	0.00e+00	0	48	104	32900120576	65	19315
2026-01-26 21:07:54.66	318.92	11.23	-47.2	-49.7	6.2	0.00e+00	0	48	104	32900120576	65	19838
2026-01-26 21:07:55.52	319.08	11.17	-47.0	-49.5	6.2	0.00e+00	0	48	104	32900120576	65	19281
2026-01-26 21:07:56.68	319.29	11.09	-47.2	-49.7	6.2	0.00e+00	0	48	104	32900120576	65	19858
2026-01-26 21:07:57.54	319.45	11.03	-46.9	-49.4	6.2	0.00e+00	0	48	104	32900120576	65	19151
2026-01-26 21:07:58.69	319.67	10.94	-47.1	-49.7	6.2	0.00e+00	0	48	104	32900120576	65	19781
2026-01-26 21:07:59.56	319.83	10.88	-46.9	-49.4	6.2	0.00e+00	0	48	104	32900120576	65	19047
2026-01-26 21:08:00.72	320.04	10.80	-47.1	-49.7	6.2	0.00e+00	0	48	104	32900120576	65	19770
2026-01-26 21:08:01.58	320.19	10.74	-46.8	-49.3	6.2	0.00e+00	0	48	104	32900120576	65	18833
2026-01-26 21:08:02.73	320.40	10.66	-47.1	-49.6	6.2	0.00e+00	0	48	104	32900120576	65	19699
2026-01-26 21:08:03.60	320.56	10.59	-46.9	-49.2	6.2	0.00e+00	0	48	104	32900120576	65	18817
2026-01-26 21:08:04.76	320.76	10.51	-47.1	-49.7	6.2	0.00e+00	0	48	104	32900120576	65	19716
2026-01-26 21:08:05.62	320.92	10.45	-46.7	-49.0	6.2	0.00e+00	0	47	104	32900120576	65	18321
2026-01-26 21:08:06.78	321.12	10.37	-46.9	-49.4	6.2	0.00e+00	0	48	104	32900120576	65	19106
2026-01-26 21:08:07.64	321.27	10.31	-46.5	-48.8	6.2	0.00e+00	0	48	104	32900120576	64	18848
2026-01-26 21:08:08.80	321.48	10.22	-46.4	-48.7	6.2	0.00e+00	0	48	104	32900120576	64	18649
2026-01-26 21:08:09.66	321.62	10.16	-46.5	-48.8	6.2	0.00e+00	0	48	104	32900120576	64	18870
2026-01-26 21:08:10.81	321.82	10.08	-46.4	-48.6	6.2	0.00e+00	0	48	104	32900120576	64	18601
2026-01-26 21:08:11.68	321.97	10.02	-46.2	-48.3	6.2	0.00e+00	0	48	104	32900120576	64	17956
2026-01-26 21:08:12.84	322.17	9.94	-46.0	-48.1	6.3	0.00e+00	0	48	104	32900120576	64	17431
2026-01-26 21:08:13.70	322.32	9.88	-47.1	-49.6	6.2	0.00e+00	0	48	104	32900120576	64	20716
2026-01-26 21:08:14.86	322.51	9.80	-46.6	-49.0	6.2	0.00e+00	0	47	104	32900120576	64	19327
2026-01-26 21:08:15.73	322.66	9.73	-46.1	-48.1	6.3	0.00e+00	0	48	104	32900120576	63	18431
2026-01-26 21:08:16.88	322.85	9.65	-45.8	-47.7	6.3	0.00e+00	0	48	104	32900120576	63	17584
2026-01-26 21:08:17.75	322.99	9.59	-45.6	-47.4	6.3	0.00e+00	0	47	104	32900120576	63	17089
2026-01-26 21:08:18.90	323.18	9.51	-45.4	-47.1	6.4	0.00e+00	0	48	104	32900120576	62	17550
2026-01-26 21:08:19.77	323.33	9.45	-45.5	-47.3	6.3	0.00e+00	0	48	104	32900120576	62	17862
2026-01-26 21:08:20.92	323.52	9.37	-45.8	-47.7	6.3	0.00e+00	0	47	104	32900120576	62	18779
2026-01-26 21:08:21.79	323.66	9.31	-46.7	-49.0	6.2	0.00e+00	0	47	104	32900120576	64	19379
2026-01-26 21:08:22.94	323.84	9.23	-46.8	-49.3	6.2	0.00e+00	0	48	104	32900120576	64	20042
2026-01-26 21:08:23.81	323.98	9.17	-44.6	-46.2	6.5	0.00e+00	0	48	104	32900120576	60	17571
2026-01-26 21:08:24.96	324.17	9.09	-44.4	-45.8	6.5	0.00e+00	0	48	104	32900120576	60	16939
2026-01-26 21:08:25.83	324.30	9.03	-44.4	-45.9	6.5	0.00e+00	0	48	104	32900120576	60	17037
2026-01-26 21:08:26.98	324.48	8.95	-44.0	-45.4	6.6	0.00e+00	0	47	104	32900120576	59	17037
2026-01-26 21:08:27.85	324.62	8.89	-43.9	-45.2	6.7	0.00e+00	0	47	104	32900120576	59	16651
2026-01-26 21:08:29.01	324.80	8.81	-43.7	-45.0	6.7	0.00e+00	0	48	104	32900120576	59	16289
2026-01-26 21:08:29.87	324.94	8.75	-46.9	-49.4	6.2	0.00e+00	0	47	104	32900120576	64	20316
2026-01-26 21:08:31.03	325.12	8.66	-44.1	-45.5	6.6	0.00e+00	0	47	104	32900120576	60	16264
2026-01-26 21:08:31.89	325.25	8.61	-44.6	-46.1	6.5	0.00e+00	0	47	104	32900120576	59	18421
2026-01-26 21:08:33.05	325.42	8.53	-43.4	-44.6	6.8	0.00e+00	0	48	104	32900120576	58	16454
2026-01-26 21:08:33.91	325.55	8.47	-43.0	-44.2	6.9	0.00e+00	0	47	104	32900120576	58	15668
2026-01-26 21:08:35.07	325.73	8.39	-42.6	-43.7	7.0	0.00e+00	0	47	104	32900120576	57	15790
2026-01-26 21:08:35.94	325.86	8.33	-42.8	-43.9	7.0	0.00e+00	0	47	104	32900120576	57	16043
2026-01-26 21:08:37.09	326.03	8.25	-42.4	-43.5	7.1	0.00e+00	0	47	104	32900120576	55	17188
2026-01-26 21:08:37.96	326.16	8.19	-46.7	-49.1	6.2	0.00e+00	0	47	104	32900120576	64	19565
2026-01-26 21:08:39.11	326.33	8.11	-42.1	-43.0	7.1	0.00e+00	0	47	104	32900120576	56	15446
2026-01-26 21:08:39.98	326.46	8.05	-43.3	-44.5	6.8	0.00e+00	0	48	104	32900120576	57	17324
2026-01-26 21:08:41.13	326.63	7.97	-41.7	-42.6	7.3	0.00e+00	0	48	104	32900120576	55	15601
2026-01-26 21:08:42.00	326.75	7.91	-41.3	-42.2	7.4	0.00e+00	0	48	104	32900120576	54	15755
2026-01-26 21:08:43.15	326.92	7.83	-41.0	-41.8	7.4	0.00e+00	0	47	104	32900120576	53	15987
2026-01-26 21:08:44.02	327.04	7.77	-41.0	-41.8	7.4	0.00e+00	0	48	104	32900120576	54	15088
2026-01-26 21:08:45.17	327.21	7.69	-42.3	-43.3	7.1	0.00e+00	0	48	104	32900120576	54	17950
2026-01-26 21:08:46.04	327.33	7.63	-46.3	-48.5	6.2	0.00e+00	0	47	104	32900120576	64	18288
2026-01-26 21:08:47.19	327.50	7.56	-40.6	-41.4	7.5	0.00e+00	0	48	104	32900120576	52	16051
2026-01-26 21:08:48.06	327.62	7.50	-41.9	-42.9	7.2	0.00e+00	0	47	104	32900120576	56	15229
2026-01-26 21:08:49.21	327.78	7.42	-40.1	-40.9	7.7	0.00e+00	0	47	104	32900120576	52	15192
2026-01-26 21:08:50.08	327.90	7.36	-40.2	-41.0	7.6	0.00e+00	0	48	104	32900120576	51	16210
2026-01-26 21:08:51.23	328.06	7.28	-39.4	-40.1	7.8	0.00e+00	0	47	104	32900120576	50	15552
2026-01-26 21:08:52.10	328.18	7.23	-39.7	-40.4	7.7	0.00e+00	0	47	104	32900120576	50	16095
2026-01-26 21:08:53.26	328.34	7.15	-44.4	-45.5	6.7	0.00e+00	0	48	104	32900120576	58	18205
2026-01-26 21:08:54.12	328.45	7.09	-44.9	-46.7	6.4	0.00e+00	0	47	104	32900120576	62	16602
2026-01-26 21:08:55.28	328.61	7.01	-39.6	-40.3	7.8	0.00e+00	0	47	104	32900120576	50	15882
2026-01-26 21:08:56.14	328.73	6.95	-40.6	-41.4	7.5	0.00e+00	0	47	104	32900120576	53	15162
2026-01-26 21:08:57.30	328.88	6.88	-39.3	-40.0	7.8	0.00e+00	0	47	104	32900120576	50	15361
2026-01-26 21:08:58.16	329.00	6.82	-38.9	-39.6	7.9	0.00e+00	0	48	104	32900120576	49	15583
2026-01-26 21:08:59.32	329.15	6.74	-38.2	-38.9	8.1	0.00e+00	0	48	0	32900120576	48	15182
2026-01-26 21:09:00.18	329.26	6.68	-37.3	-38.0	8.1	0.00e+00	0	48	0	32900120576	46	15320
2026-01-26 21:09:01.34	329.42	6.61	-44.5	-46.0	6.5	0.00e+00	0	47	104	32900120576	59	18297
2026-01-26 21:09:02.21	329.53	6.55	-42.7	-43.8	6.9	0.00e+00	0	47	104	32900120576	57	15967
2026-01-26 21:09:03.36	329.68	6.47	-39.5	-40.2	7.8	0.00e+00	0	47	104	32900120576	49	16689
2026-01-26 21:09:04.23	329.79	6.42	-39.5	-40.2	7.8	0.00e+00	0	47	104	32900120576	51	14880
2026-01-26 21:09:05.38	329.94	6.34	-38.0	-38.6	8.1	0.00e+00	0	48	0	32900120576	48	14773
2026-01-26 21:09:06.25	330.05	6.28	-37.5	-38.2	8.1	0.00e+00	0	47	0	32900120576	46	15717
2026-01-26 21:09:07.40	330.20	6.21	-37.0	-37.6	8.2	0.00e+00	0	48	0	32900120576	45	15537
2026-01-26 21:09:08.27	330.31	6.15	-36.4	-37.0	8.4	0.00e+00	0	47	0	32900120576	44	15314
2026-01-26 21:09:09.42	330.45	6.08	-45.5	-47.5	6.3	0.00e+00	0	48	104	32900120576	61	19380
2026-01-26 21:09:10.29	330.56	6.02	-41.3	-42.2	7.3	0.00e+00	0	48	104	32900120576	54	15708
2026-01-26 21:09:11.44	330.70	5.94	-39.8	-40.6	7.7	0.00e+00	0	48	0	32900120576	50	16444
2026-01-26 21:09:12.31	330.81	5.89	-36.8	-37.5	8.1	0.00e+00	0	47	104	32900120576	45	15298
2026-01-26 21:09:13.46	330.95	5.81	-36.0	-36.6	8.4	0.00e+00	0	48	0	32900120576	44	14738
2026-01-26 21:09:14.33	331.06	5.76	-36.4	-37.0	8.4	0.00e+00	0	48	0	32900120576	43	16211
2026-01-26 21:09:15.48	331.20	5.68	-38.6	-39.3	7.6	0.00e+00	0	48	104	32900120576	47	16899
2026-01-26 21:09:16.35	331.30	5.62	-35.6	-36.1	8.5	0.00e+00	0	47	0	32900120576	42	15592
2026-01-26 21:09:17.50	331.44	5.55	-46.0	-48.3	6.2	0.00e+00	0	47	104	32900120576	62	19964
2026-01-26 21:09:18.37	331.55	5.49	-39.4	-40.1	7.7	0.00e+00	0	48	104	32900120576	50	15599
2026-01-26 21:09:19.52	331.68	5.42	-39.8	-40.5	7.7	0.00e+00	0	48	104	32900120576	49	17324
2026-01-26 21:09:20.39	331.79	5.36	-36.1	-36.6	8.3	0.00e+00	0	47	104	32900120576	43	15580
2026-01-26 21:09:21.55	331.92	5.29	-35.7	-36.3	8.5	0.00e+00	0	48	0	32900120576	42	15924
2026-01-26 21:09:22.41	332.02	5.23	-35.3	-35.9	8.6	0.00e+00	0	48	0	32900120576	42	15161
2026-01-26 21:09:23.57	332.16	5.16	-36.0	-36.6	8.4	0.00e+00	0	47	0	32900120576	42	16437
2026-01-26 21:09:24.43	332.26	5.11	-35.3	-35.9	8.5	0.00e+00	0	48	0	32900120576	42	15148
2026-01-26 21:09:25.58	332.39	5.03	-45.8	-48.1	6.2	0.00e+00	0	47	104	32900120576	62	19619
2026-01-26 21:09:26.45	332.49	4.98	-45.6	-47.7	6.2	0.00e+00	0	48	104	32900120576	62	18746
2026-01-26 21:09:27.60	332.63	4.90	-46.9	-49.4	6.2	0.00e+00	0	48	104	32900120576	64	20391
2026-01-26 21:09:28.47	332.72	4.85	-47.1	-49.7	6.2	0.00e+00	0	48	104	32900120576	64	20914
2026-01-26 21:09:29.62	332.85	4.78	-47.3	-49.8	6.2	0.00e+00	0	48	104	32900120576	65	20002
2026-01-26 21:09:30.49	332.95	4.72	-47.4	-49.9	6.2	0.00e+00	0	47	104	32900120576	65	20366
2026-01-26 21:09:31.64	333.08	4.65	-47.5	-50.0	6.2	0.00e+00	0	47	104	32900120576	65	20583
2026-01-26 21:09:32.51	333.18	4.59	-47.6	-50.1	6.2	0.00e+00	0	47	104	32900120576	65	20802
2026-01-26 21:09:33.66	333.31	4.52	-47.6	-50.1	6.2	0.00e+00	0	48	104	32900120576	65	20846
2026-01-26 21:09:34.53	333.40	4.47	-47.6	-50.1	6.2	0.00e+00	0	47	104	32900120576	65	20860
2026-01-26 21:09:35.68	333.53	4.40	-47.6	-50.1	6.2	0.00e+00	0	47	104	32900120576	65	20807
2026-01-26 21:09:36.55	333.62	4.34	-47.5	-50.1	6.2	0.00e+00	0	47	104	32900120576	65	20666
2026-01-26 21:09:37.70	333.75	4.27	-47.4	-49.9	6.2	0.00e+00	0	48	104	32900120576	65	20361
2026-01-26 21:09:38.57	333.84	4.22	-47.4	-49.9	6.2	0.00e+00	0	48	104	32900120576	65	20383
2026-01-26 21:09:39.73	333.97	4.14	-47.4	-50.0	6.2	0.00e+00	0	47	104	32900120576	65	20492
2026-01-26 21:09:40.59	334.06	4.09	-47.5	-50.0	6.2	0.00e+00	0	47	104	32900120576	65	20508
2026-01-26 21:09:41.75	334.18	4.02	-47.5	-50.1	6.2	0.00e+00	0	47	104	32900120576	65	20669
2026-01-26 21:09:42.61	334.28	3.96	-47.6	-50.1	6.2	0.00e+00	0	47	104	32900120576	65	20747
2026-01-26 21:09:43.77	334.40	3.89	-47.6	-50.1	6.2	0.00e+00	0	47	104	32900120576	65	20841
2026-01-26 21:09:44.63	334.49	3.84	-47.6	-50.2	6.2	0.00e+00	0	48	104	32900120576	65	20897
2026-01-26 21:09:45.79	334.61	3.77	-47.6	-50.2	6.2	0.00e+00	0	47	104	32900120576	65	20942
2026-01-26 21:09:46.65	334.70	3.72	-47.7	-50.2	6.2	0.00e+00	0	47	104	32900120576	65	20997
2026-01-26 21:09:47.80	334.82	3.65	-47.7	-50.2	6.2	0.00e+00	0	48	104	32900120576	65	21018
2026-01-26 21:09:48.67	334.91	3.59	-47.6	-50.2	6.2	0.00e+00	0	48	104	32900120576	65	20983
2026-01-26 21:09:49.82	335.03	3.52	-47.6	-50.2	6.2	0.00e+00	0	47	104	32900120576	65	20911
2026-01-26 21:09:50.69	335.12	3.47	-47.6	-50.1	6.2	0.00e+00	0	47	104	32900120576	65	20851
2026-01-26 21:09:51.85	335.23	3.40	-47.6	-50.1	6.2	0.00e+00	0	47	104	32900120576	65	20819
2026-01-26 21:09:52.71	335.32	3.35	-47.6	-50.1	6.2	0.00e+00	0	47	104	32900120576	65	20791
2026-01-26 21:09:53.87	335.44	3.28	-47.6	-50.1	6.2	0.00e+00	0	48	104	32900120576	65	20785
2026-01-26 21:09:54.73	335.52	3.22	-47.6	-50.1	6.2	0.00e+00	0	47	104	32900120576	65	20724
2026-01-26 21:09:55.89	335.64	3.15	-47.6	-50.1	6.2	0.00e+00	0	47	104	32900120576	65	20815
2026-01-26 21:09:56.76	335.73	3.10	-47.5	-50.1	6.2	0.00e+00	0	47	104	32900120576	65	20745
2026-01-26 21:09:57.91	335.84	3.03	-47.5	-50.1	6.2	0.00e+00	0	47	104	32900120576	65	20736
2026-01-26 21:09:58.78	335.92	2.98	-47.5	-50.1	6.2	0.00e+00	0	48	104	32900120576	65	20732
2026-01-26 21:09:59.93	336.04	2.91	-47.5	-50.1	6.2	0.00e+00	0	47	104	32900120576	65	20679
2026-01-26 21:10:00.80	336.12	2.86	-47.5	-50.1	6.2	0.00e+00	0	47	104	32900120576	65	20685
2026-01-26 21:10:01.95	336.23	2.79	-47.5	-50.1	6.2	0.00e+00	0	48	104	32900120576	65	20667
2026-01-26 21:10:02.81	336.32	2.74	-47.5	-50.1	6.2	0.00e+00	0	48	104	32900120576	65	20658
2026-01-26 21:10:03.97	336.43	2.67	-47.5	-50.1	6.2	0.00e+00	0	47	104	32900120576	65	20636
2026-01-26 21:10:04.84	336.51	2.62	-47.5	-50.1	6.2	0.00e+00	0	48	104	32900120576	65	20640
2026-01-26 21:10:05.99	336.62	2.55	-47.5	-50.1	6.2	0.00e+00	0	47	104	32900120576	65	20653
2026-01-26 21:10:06.86	336.70	2.50	-47.5	-50.1	6.2	0.00e+00	0	47	104	32900120576	65	20654
2026-01-26 21:10:08.01	336.81	2.43	-47.5	-50.0	6.2	0.00e+00	0	48	104	32900120576	65	20621
2026-01-26 21:10:08.88	336.89	2.38	-47.5	-50.0	6.2	0.00e+00	0	48	104	32900120576	65	20600
2026-01-26 21:10:10.03	337.00	2.31	-47.5	-50.0	6.2	0.00e+00	0	47	104	32900120576	65	20602
2026-01-26 21:10:10.90	337.08	2.26	-47.5	-50.1	6.2	0.00e+00	0	47	104	32900120576	65	20638
2026-01-26 21:10:12.05	337.19	2.19	-47.5	-50.0	6.2	0.00e+00	0	48	104	32900120576	65	20537
2026-01-26 21:10:12.92	337.27	2.14	-47.5	-50.0	6.2	0.00e+00	0	48	104	32900120576	65	20587
2026-01-26 21:10:14.07	337.37	2.07	-47.5	-50.0	6.2	0.00e+00	0	48	104	32900120576	65	20559
2026-01-26 21:10:14.94	337.45	2.02	-47.5	-50.0	6.2	0.00e+00	0	47	104	32900120576	65	20534
2026-01-26 21:10:16.10	337.56	1.96	-47.5	-50.0	6.2	0.00e+00	0	47	104	32900120576	65	20559

#Closed at: 2026-01-26 21:10:16
#Recorded file [32900 MB]: D:/lorett/data/31045_260127_000020.dat