passes_logs/2026/01/26/R3.2S_Murmansk_2ch/R3.2S_Murmansk_2ch__20260126_103909_TY-42_rec.log

#Pass ID: 20260126_103909_TY-42
#Satellite: TY-42
#Configuration: TY-42_900M
#almurnet v.1.7.20251203
#Start time: 2026-01-26 10:39:11

#Version: 2.2.20260125
#Station: R3.2S_Murmansk_2ch
#Location: 33.079688 lon 68.888172 lat
#TLE: 1 64048U 25103A   26025.90722222  .00008016  00000-0  38191-3 0 09994
#TLE: 2 64048 097.4113 101.1198 0001664 095.7251 298.2114 15.19193032 38479

#Time	Az	El	Level	Level2	SNR	BER	BlckErr	Temp	State	Recorded	gain1	gain2
2026-01-26 10:39:11.53	22.36	2.08	-42.3	-44.9	6.3	0.00e+00	0	50	0	0	55	20202
2026-01-26 10:39:12.53	22.31	2.14	-42.2	-44.8	6.2	0.00e+00	0	50	104	0	56	18998
2026-01-26 10:39:13.54	22.26	2.21	-42.3	-44.8	6.2	0.00e+00	0	50	104	0	56	18959
2026-01-26 10:39:14.55	22.21	2.28	-42.2	-44.8	6.2	0.00e+00	0	50	104	0	56	18971
2026-01-26 10:39:15.56	22.16	2.35	-42.2	-44.8	6.2	0.00e+00	0	50	104	0	56	18954
2026-01-26 10:39:16.57	22.11	2.42	-42.2	-44.8	6.2	0.00e+00	0	50	104	0	56	18982
2026-01-26 10:39:17.58	22.05	2.48	-42.2	-44.8	6.2	0.00e+00	0	51	104	0	56	18966
2026-01-26 10:39:18.59	22.00	2.55	-42.2	-44.8	6.2	0.00e+00	0	51	104	0	56	18988
2026-01-26 10:39:19.60	21.95	2.62	-42.2	-44.8	6.2	0.00e+00	0	51	104	0	56	19004
2026-01-26 10:39:20.61	21.90	2.69	-42.2	-44.8	6.2	0.00e+00	0	51	104	0	56	18943
2026-01-26 10:39:21.62	21.85	2.76	-42.2	-44.8	6.2	0.00e+00	0	51	104	0	56	18930
2026-01-26 10:39:22.63	21.79	2.83	-42.2	-44.8	6.2	0.00e+00	0	51	104	0	56	18969
2026-01-26 10:39:23.64	21.74	2.90	-42.2	-44.8	6.2	0.00e+00	0	51	104	0	56	18929
2026-01-26 10:39:24.65	21.68	2.97	-42.2	-44.8	6.2	0.00e+00	0	51	104	0	56	18970
2026-01-26 10:39:25.66	21.63	3.04	-42.2	-44.8	6.2	0.00e+00	0	51	104	0	56	18957
2026-01-26 10:39:26.67	21.58	3.11	-42.2	-44.8	6.2	0.00e+00	0	51	104	0	56	18893
2026-01-26 10:39:27.68	21.52	3.19	-42.2	-44.8	6.2	0.00e+00	0	51	104	0	56	18875
2026-01-26 10:39:28.69	21.47	3.26	-42.2	-44.8	6.2	0.00e+00	0	51	104	0	56	18908
2026-01-26 10:39:29.70	21.41	3.33	-42.2	-44.8	6.2	0.00e+00	0	51	104	0	56	18872
2026-01-26 10:39:30.71	21.35	3.40	-42.2	-44.8	6.2	0.00e+00	0	51	104	0	56	18883
2026-01-26 10:39:31.72	21.30	3.47	-42.2	-44.8	6.2	0.00e+00	0	51	104	0	56	18901
2026-01-26 10:39:32.73	21.24	3.54	-42.2	-44.8	6.2	0.00e+00	0	51	104	0	56	18888
2026-01-26 10:39:33.73	21.18	3.61	-42.2	-44.8	6.2	0.00e+00	0	52	104	0	56	18952
2026-01-26 10:39:34.74	21.13	3.69	-42.2	-44.8	6.2	0.00e+00	0	52	104	0	56	18925
2026-01-26 10:39:35.76	21.07	3.76	-42.2	-44.8	6.2	0.00e+00	0	52	104	0	56	18961
2026-01-26 10:39:36.77	21.01	3.83	-42.2	-44.8	6.2	0.00e+00	0	52	104	0	56	18916
2026-01-26 10:39:37.78	20.95	3.91	-42.2	-44.8	6.2	0.00e+00	0	52	104	0	56	18971
2026-01-26 10:39:38.79	20.89	3.98	-42.3	-44.8	6.2	0.00e+00	0	52	104	0	56	19012
2026-01-26 10:39:39.80	20.83	4.05	-42.2	-44.8	6.2	0.00e+00	0	52	104	0	56	18919
2026-01-26 10:39:40.81	20.77	4.13	-42.2	-44.8	6.2	0.00e+00	0	52	104	0	56	18938
2026-01-26 10:39:41.82	20.71	4.20	-42.2	-44.8	6.2	0.00e+00	0	52	104	0	56	18900
2026-01-26 10:39:42.82	20.65	4.28	-42.2	-44.8	6.2	0.00e+00	0	52	104	0	56	18934
2026-01-26 10:39:43.83	20.59	4.35	-42.2	-44.8	6.2	0.00e+00	0	52	104	0	56	18908
2026-01-26 10:39:44.84	20.53	4.43	-42.2	-44.8	6.2	0.00e+00	0	52	104	0	56	18952
2026-01-26 10:39:45.86	20.47	4.50	-42.2	-44.8	6.2	0.00e+00	0	52	104	0	56	18863
2026-01-26 10:39:46.87	20.40	4.58	-42.2	-44.8	6.2	0.00e+00	0	52	104	0	56	18918
2026-01-26 10:39:47.88	20.34	4.65	-42.2	-44.8	6.2	0.00e+00	0	52	104	0	56	18920
2026-01-26 10:39:48.89	20.28	4.73	-42.2	-44.8	6.2	0.00e+00	0	52	104	0	56	18895
2026-01-26 10:39:49.90	20.21	4.80	-42.2	-44.8	6.2	0.00e+00	0	52	104	0	56	18950
2026-01-26 10:39:50.91	20.15	4.88	-42.2	-44.8	6.2	0.00e+00	0	52	104	0	56	18946
2026-01-26 10:39:51.92	20.08	4.96	-42.2	-44.8	6.2	0.00e+00	0	53	104	0	56	18890
2026-01-26 10:39:52.93	20.02	5.03	-42.2	-44.8	6.2	0.00e+00	0	53	104	0	56	18935
2026-01-26 10:39:53.94	19.95	5.11	-42.2	-44.8	6.2	0.00e+00	0	53	104	0	56	18955
2026-01-26 10:39:54.95	19.89	5.19	-42.3	-44.8	6.2	0.00e+00	0	53	104	0	56	18962
2026-01-26 10:39:55.96	19.82	5.27	-42.3	-44.8	6.2	0.00e+00	0	53	104	0	56	18922
2026-01-26 10:39:56.97	19.75	5.34	-42.2	-44.8	6.2	0.00e+00	0	53	104	0	56	18991
2026-01-26 10:39:57.98	19.69	5.42	-42.2	-44.8	6.2	0.00e+00	0	53	104	0	56	18996
2026-01-26 10:39:58.99	19.62	5.50	-42.2	-44.8	6.2	0.00e+00	0	53	104	0	56	18931
2026-01-26 10:40:00.00	19.55	5.58	-42.3	-44.8	6.2	0.00e+00	0	53	104	0	56	18949
2026-01-26 10:40:01.01	19.48	5.66	-42.3	-44.8	6.2	0.00e+00	0	53	104	0	56	18976
2026-01-26 10:40:02.02	19.41	5.74	-42.3	-44.8	6.2	0.00e+00	0	53	104	0	56	18962
2026-01-26 10:40:03.03	19.34	5.82	-42.3	-44.8	6.2	0.00e+00	0	53	104	0	56	19024
2026-01-26 10:40:04.04	19.27	5.90	-42.3	-44.9	6.2	0.00e+00	0	53	104	0	56	19040
2026-01-26 10:40:05.05	19.20	5.98	-42.2	-44.8	6.2	0.00e+00	0	53	104	0	56	18955
2026-01-26 10:40:06.06	19.13	6.06	-42.3	-44.9	6.2	0.00e+00	0	53	104	0	56	19045
2026-01-26 10:40:07.07	19.06	6.14	-42.3	-44.8	6.2	0.00e+00	0	53	104	0	56	19013
2026-01-26 10:40:08.08	18.98	6.22	-42.2	-44.8	6.2	0.00e+00	0	53	104	0	56	18959
2026-01-26 10:40:09.09	18.91	6.30	-42.2	-44.8	6.2	0.00e+00	0	53	104	0	56	18954
2026-01-26 10:40:10.10	18.84	6.38	-42.3	-44.8	6.2	0.00e+00	0	53	104	0	56	18931
2026-01-26 10:40:11.11	18.76	6.47	-42.3	-44.8	6.2	0.00e+00	0	53	104	0	56	18975
2026-01-26 10:40:12.13	18.69	6.55	-42.3	-44.8	6.2	0.00e+00	0	53	104	0	56	18933
2026-01-26 10:40:13.14	18.61	6.63	-42.3	-44.8	6.2	0.00e+00	0	53	104	0	56	18949
2026-01-26 10:40:14.15	18.54	6.72	-42.2	-44.8	6.2	0.00e+00	0	53	104	0	56	18942
2026-01-26 10:40:15.15	18.46	6.80	-42.3	-44.8	6.2	0.00e+00	0	53	104	0	56	18925
2026-01-26 10:40:16.17	18.38	6.88	-42.2	-44.8	6.2	0.00e+00	0	53	104	0	56	18928
2026-01-26 10:40:17.18	18.30	6.97	-42.3	-44.8	6.2	0.00e+00	0	53	104	0	56	19022
2026-01-26 10:40:18.19	18.23	7.05	-42.2	-44.8	6.2	0.00e+00	0	53	104	0	56	18989
2026-01-26 10:40:19.20	18.15	7.13	-42.3	-44.8	6.2	0.00e+00	0	54	104	0	56	19022
2026-01-26 10:40:20.21	18.07	7.22	-42.2	-44.9	6.2	0.00e+00	0	54	104	0	56	19062
2026-01-26 10:40:21.22	17.99	7.30	-42.3	-44.8	6.2	0.00e+00	0	53	104	0	56	18976
2026-01-26 10:40:22.23	17.91	7.39	-42.3	-44.8	6.2	0.00e+00	0	54	104	0	56	19002
2026-01-26 10:40:23.24	17.83	7.48	-42.3	-44.9	6.2	0.00e+00	0	54	104	0	56	19066
2026-01-26 10:40:24.25	17.74	7.56	-42.3	-44.8	6.2	0.00e+00	0	53	104	0	56	19009
2026-01-26 10:40:25.26	17.66	7.65	-42.3	-44.8	6.2	0.00e+00	0	54	104	0	56	18947
2026-01-26 10:40:26.27	17.58	7.74	-42.3	-44.8	6.2	0.00e+00	0	54	104	0	56	18984
2026-01-26 10:40:27.28	17.50	7.82	-42.3	-44.8	6.2	0.00e+00	0	54	104	0	56	18994
2026-01-26 10:40:28.29	17.41	7.91	-42.3	-44.8	6.2	0.00e+00	0	53	104	0	56	19012
2026-01-26 10:40:29.30	17.33	8.00	-42.3	-44.8	6.2	0.00e+00	0	54	104	0	56	18975
2026-01-26 10:40:30.31	17.24	8.09	-42.3	-44.8	6.2	0.00e+00	0	54	104	0	56	19005
2026-01-26 10:40:31.32	17.15	8.18	-42.3	-44.8	6.2	0.00e+00	0	54	104	0	56	19023
2026-01-26 10:40:32.33	17.07	8.26	-42.3	-44.8	6.2	0.00e+00	0	54	104	0	56	18989
2026-01-26 10:40:33.35	16.98	8.35	-42.3	-44.8	6.2	0.00e+00	0	54	104	0	56	18980
2026-01-26 10:40:34.36	16.89	8.44	-42.3	-44.8	6.2	0.00e+00	0	54	104	0	56	19015
2026-01-26 10:40:35.37	16.80	8.53	-42.3	-44.8	6.2	0.00e+00	0	54	104	0	56	19029
2026-01-26 10:40:36.38	16.71	8.63	-42.3	-44.8	6.2	0.00e+00	0	54	104	0	56	18977
2026-01-26 10:40:37.39	16.62	8.72	-42.3	-44.8	6.2	0.00e+00	0	54	104	0	56	18958
2026-01-26 10:40:38.40	16.53	8.81	-42.3	-44.8	6.2	0.00e+00	0	54	104	0	56	18966
2026-01-26 10:40:39.41	16.44	8.90	-42.3	-44.8	6.2	0.00e+00	0	54	104	0	56	18991
2026-01-26 10:40:40.42	16.34	8.99	-42.2	-44.8	6.2	0.00e+00	0	54	104	0	56	18923
2026-01-26 10:40:41.43	16.25	9.08	-42.3	-44.8	6.2	0.00e+00	0	54	104	0	56	18937
2026-01-26 10:40:42.44	16.15	9.18	-42.3	-44.8	6.2	0.00e+00	0	54	104	0	56	18955
2026-01-26 10:40:43.45	16.06	9.27	-42.3	-44.9	6.2	0.00e+00	0	54	104	0	56	19056
2026-01-26 10:40:44.46	15.96	9.36	-42.3	-44.8	6.2	0.00e+00	0	54	104	0	56	18996
2026-01-26 10:40:45.47	15.87	9.46	-42.3	-44.8	6.2	0.00e+00	0	54	104	0	56	19008
2026-01-26 10:40:46.48	15.77	9.55	-42.3	-44.8	6.2	0.00e+00	0	54	104	0	56	18979
2026-01-26 10:40:47.49	15.67	9.65	-42.3	-44.8	6.2	0.00e+00	0	54	104	0	56	18992
2026-01-26 10:40:48.50	15.57	9.74	-42.3	-44.8	6.2	0.00e+00	0	54	104	0	56	19034
2026-01-26 10:40:49.51	15.47	9.84	-42.3	-44.8	6.2	0.00e+00	0	54	104	0	56	18955
2026-01-26 10:40:50.53	15.37	9.93	-42.3	-44.8	6.2	0.00e+00	0	54	104	0	56	18986
2026-01-26 10:40:51.54	15.27	10.03	-42.3	-44.8	6.2	0.00e+00	0	54	104	0	56	18978
2026-01-26 10:40:52.55	15.17	10.13	-42.3	-44.8	6.2	0.00e+00	0	54	104	0	56	18987
2026-01-26 10:40:53.55	15.06	10.22	-42.3	-44.8	6.2	0.00e+00	0	54	104	0	56	19033
2026-01-26 10:40:54.56	14.96	10.32	-42.3	-44.9	6.2	0.00e+00	0	54	104	0	56	19040
2026-01-26 10:40:55.57	14.85	10.42	-42.3	-44.9	6.2	0.00e+00	0	54	104	0	56	19044
2026-01-26 10:40:56.59	14.75	10.52	-42.3	-44.9	6.2	0.00e+00	0	54	104	0	56	19047
2026-01-26 10:40:57.60	14.64	10.62	-42.3	-44.8	6.2	0.00e+00	0	54	104	0	56	19020
2026-01-26 10:40:58.61	14.53	10.72	-42.3	-44.8	6.2	0.00e+00	0	54	104	0	56	19000
2026-01-26 10:40:59.62	14.42	10.82	-42.3	-44.9	6.2	0.00e+00	0	55	104	0	56	19061
2026-01-26 10:41:00.63	14.31	10.92	-42.3	-44.8	6.2	0.00e+00	0	54	104	0	56	19027
2026-01-26 10:41:01.64	14.20	11.02	-42.3	-44.9	6.2	0.00e+00	0	54	104	0	56	19047
2026-01-26 10:41:02.64	14.09	11.12	-42.3	-44.8	6.2	0.00e+00	0	54	104	0	56	19015
2026-01-26 10:41:03.66	13.98	11.22	-42.3	-44.9	6.2	0.00e+00	0	54	104	0	56	19040
2026-01-26 10:41:04.66	13.87	11.32	-42.3	-44.8	6.2	0.00e+00	0	54	104	0	56	19013
2026-01-26 10:41:05.67	13.75	11.42	-42.3	-44.8	6.2	0.00e+00	0	54	104	0	56	19032
2026-01-26 10:41:06.69	13.63	11.53	-42.3	-44.8	6.2	0.00e+00	0	54	104	0	56	19012
2026-01-26 10:41:07.70	13.52	11.63	-42.3	-44.8	6.2	0.00e+00	0	54	104	0	56	18983
2026-01-26 10:41:08.71	13.40	11.74	-42.3	-44.9	6.2	0.00e+00	0	54	104	0	56	19042
2026-01-26 10:41:09.72	13.28	11.84	-42.3	-44.8	6.2	0.00e+00	0	54	104	0	56	19005
2026-01-26 10:41:10.73	13.16	11.94	-42.3	-44.8	6.2	0.00e+00	0	54	104	0	56	18967
2026-01-26 10:41:11.74	13.04	12.05	-42.3	-44.8	6.2	0.00e+00	0	55	104	0	56	19031
2026-01-26 10:41:12.75	12.92	12.16	-42.3	-44.8	6.2	0.00e+00	0	55	104	0	56	19017
2026-01-26 10:41:13.76	12.80	12.26	-42.3	-44.8	6.2	0.00e+00	0	54	104	0	56	19023
2026-01-26 10:41:14.77	12.67	12.37	-42.3	-44.8	6.2	0.00e+00	0	54	104	0	56	19016
2026-01-26 10:41:15.78	12.55	12.48	-42.3	-44.9	6.2	0.00e+00	0	54	104	0	56	19050
2026-01-26 10:41:16.78	12.42	12.58	-42.3	-44.9	6.2	0.00e+00	0	55	104	0	56	19080
2026-01-26 10:41:17.80	12.29	12.69	-42.3	-44.9	6.2	0.00e+00	0	55	104	0	56	19053
2026-01-26 10:41:18.81	12.16	12.80	-42.3	-44.8	6.2	0.00e+00	0	54	104	0	56	19023
2026-01-26 10:41:19.82	12.03	12.91	-42.3	-44.9	6.2	0.00e+00	0	55	104	0	56	19037
2026-01-26 10:41:20.83	11.90	13.02	-42.3	-44.8	6.2	0.00e+00	0	54	104	0	56	18989
2026-01-26 10:41:21.84	11.77	13.13	-42.3	-44.9	6.2	0.00e+00	0	54	104	0	56	19051
2026-01-26 10:41:22.85	11.64	13.24	-42.3	-44.8	6.2	0.00e+00	0	55	104	0	56	19021
2026-01-26 10:41:23.86	11.50	13.35	-42.3	-44.8	6.2	0.00e+00	0	54	104	0	56	18997
2026-01-26 10:41:24.87	11.37	13.47	-42.3	-44.9	6.2	0.00e+00	0	55	104	0	56	19038
2026-01-26 10:41:25.88	11.23	13.58	-42.3	-44.8	6.2	0.00e+00	0	55	104	0	56	19029
2026-01-26 10:41:26.89	11.09	13.69	-42.3	-44.9	6.2	0.00e+00	0	55	104	0	56	19050
2026-01-26 10:41:27.90	10.95	13.81	-42.3	-44.8	6.2	0.00e+00	0	54	104	0	56	19016
2026-01-26 10:41:28.91	10.81	13.92	-42.3	-44.8	6.2	0.00e+00	0	55	104	0	56	19035
2026-01-26 10:41:29.92	10.67	14.04	-42.3	-44.9	6.2	0.00e+00	0	55	104	0	56	19059
2026-01-26 10:41:30.93	10.52	14.15	-42.3	-44.9	6.2	0.00e+00	0	55	104	0	56	19059
2026-01-26 10:41:31.94	10.38	14.27	-42.3	-44.8	6.2	0.00e+00	0	55	104	0	56	19032
2026-01-26 10:41:32.95	10.23	14.38	-42.3	-44.9	6.2	0.00e+00	0	55	104	0	56	19036
2026-01-26 10:41:33.97	10.08	14.50	-42.3	-44.9	6.2	0.00e+00	0	54	104	0	56	19036
2026-01-26 10:41:34.98	9.93	14.62	-42.3	-44.9	6.2	0.00e+00	0	55	104	0	56	19059
2026-01-26 10:41:35.98	9.78	14.74	-42.3	-44.9	6.2	0.00e+00	0	55	104	0	56	19064
2026-01-26 10:41:36.99	9.63	14.85	-42.3	-44.8	6.2	0.00e+00	0	55	104	0	56	18999
2026-01-26 10:41:38.00	9.48	14.97	-42.3	-44.9	6.2	0.00e+00	0	55	104	0	56	19107
2026-01-26 10:41:39.01	9.32	15.09	-42.3	-44.8	6.2	0.00e+00	0	55	104	0	56	19017
2026-01-26 10:41:40.03	9.16	15.21	-42.3	-44.9	6.2	0.00e+00	0	55	104	0	56	19043
2026-01-26 10:41:41.04	9.01	15.34	-42.3	-44.9	6.2	0.00e+00	0	55	104	0	56	19080
2026-01-26 10:41:42.05	8.85	15.46	-42.3	-44.9	6.2	0.00e+00	0	55	104	0	56	19049
2026-01-26 10:41:43.06	8.68	15.58	-42.3	-44.9	6.2	0.00e+00	0	55	104	0	56	19079
2026-01-26 10:41:44.06	8.52	15.70	-42.3	-44.9	6.2	0.00e+00	0	55	104	0	56	19059
2026-01-26 10:41:45.07	8.36	15.82	-42.3	-44.9	6.2	0.00e+00	0	55	104	0	56	19052
2026-01-26 10:41:46.08	8.19	15.95	-42.3	-44.9	6.2	0.00e+00	0	55	104	0	56	19068
2026-01-26 10:41:47.09	8.02	16.07	-42.3	-44.8	6.2	0.00e+00	0	55	104	0	56	19026
2026-01-26 10:41:48.10	7.85	16.20	-42.3	-44.8	6.2	0.00e+00	0	55	104	0	56	19014
2026-01-26 10:41:49.11	7.68	16.32	-42.3	-44.8	6.2	0.00e+00	0	55	104	0	56	19032
2026-01-26 10:41:50.12	7.51	16.45	-42.3	-44.8	6.2	0.00e+00	0	55	104	0	56	19015
2026-01-26 10:41:51.14	7.33	16.58	-42.3	-44.8	6.2	0.00e+00	0	55	104	0	56	19029
2026-01-26 10:41:52.15	7.16	16.70	-42.3	-44.9	6.2	0.00e+00	0	55	104	0	56	19070
2026-01-26 10:41:53.16	6.98	16.83	-42.3	-44.9	6.2	0.00e+00	0	55	104	0	56	19062
2026-01-26 10:41:54.17	6.80	16.96	-42.3	-44.8	6.2	0.00e+00	0	55	104	0	56	19022
2026-01-26 10:41:55.18	6.62	17.09	-42.3	-44.8	6.2	0.00e+00	0	55	104	0	56	18972
2026-01-26 10:41:56.19	6.43	17.22	-42.3	-44.8	6.2	0.00e+00	0	55	104	0	56	18993
2026-01-26 10:41:57.20	6.25	17.35	-42.3	-44.9	6.2	0.00e+00	0	55	104	0	56	19037
2026-01-26 10:41:58.21	6.06	17.48	-42.3	-44.8	6.2	0.00e+00	0	55	104	0	56	19007
2026-01-26 10:41:59.22	5.87	17.61	-42.3	-44.8	6.2	0.00e+00	0	55	104	0	56	19031
2026-01-26 10:42:00.23	5.68	17.75	-42.3	-44.8	6.2	0.00e+00	0	55	104	0	56	19029
2026-01-26 10:42:01.24	5.48	17.88	-42.3	-44.8	6.2	0.00e+00	0	55	104	0	56	18994
2026-01-26 10:42:02.25	5.29	18.01	-42.3	-44.8	6.2	0.00e+00	0	55	104	0	56	18993
2026-01-26 10:42:03.26	5.09	18.15	-42.3	-44.9	6.2	0.00e+00	0	55	104	0	56	19060
2026-01-26 10:42:04.27	4.89	18.28	-42.3	-44.9	6.2	0.00e+00	0	55	104	0	56	19042
2026-01-26 10:42:05.28	4.69	18.42	-42.3	-44.8	6.2	0.00e+00	0	55	104	0	56	18990
2026-01-26 10:42:06.29	4.48	18.55	-42.3	-44.9	6.2	0.00e+00	0	55	104	0	56	19083
2026-01-26 10:42:07.30	4.28	18.69	-42.3	-44.9	6.2	0.00e+00	0	55	104	0	56	19043
2026-01-26 10:42:08.31	4.07	18.83	-42.3	-44.9	6.2	0.00e+00	0	55	104	0	56	19085
2026-01-26 10:42:09.32	3.86	18.96	-42.3	-44.8	6.2	0.00e+00	0	55	104	0	56	19014
2026-01-26 10:42:10.33	3.65	19.10	-42.3	-44.9	6.2	0.00e+00	0	55	104	0	56	19047
2026-01-26 10:42:11.34	3.43	19.24	-42.3	-44.9	6.2	0.00e+00	0	55	104	0	56	19058
2026-01-26 10:42:12.36	3.21	19.38	-42.3	-44.9	6.2	0.00e+00	0	55	104	0	56	19075
2026-01-26 10:42:13.37	2.99	19.52	-42.3	-44.9	6.2	0.00e+00	0	55	104	0	56	19094
2026-01-26 10:42:14.38	2.77	19.66	-42.3	-44.8	6.2	0.00e+00	0	55	104	0	56	18945
2026-01-26 10:42:15.39	2.55	19.80	-42.3	-44.8	6.2	0.00e+00	0	55	104	0	56	19022
2026-01-26 10:42:16.40	2.32	19.95	-42.3	-44.8	6.2	0.00e+00	0	55	104	0	56	18988
2026-01-26 10:42:17.41	2.09	20.09	-42.3	-44.8	6.2	0.00e+00	0	55	104	0	56	19010
2026-01-26 10:42:18.42	1.86	20.23	-42.3	-44.8	6.2	0.00e+00	0	55	104	0	56	19028
2026-01-26 10:42:19.43	1.62	20.38	-42.3	-44.8	6.2	0.00e+00	0	55	104	0	56	19026
2026-01-26 10:42:20.44	1.39	20.52	-42.3	-44.8	6.2	0.00e+00	0	55	104	0	56	19004
2026-01-26 10:42:21.45	1.15	20.67	-42.3	-44.8	6.2	0.00e+00	0	55	104	0	56	18978
2026-01-26 10:42:22.46	0.91	20.81	-42.3	-44.8	6.2	0.00e+00	0	55	104	0	56	19023
2026-01-26 10:42:23.47	0.66	20.96	-42.3	-44.8	6.2	0.00e+00	0	55	104	0	56	19014
2026-01-26 10:42:24.48	0.41	21.10	-42.3	-44.8	6.2	0.00e+00	0	55	104	0	56	19026
2026-01-26 10:42:25.49	0.16	21.25	-42.3	-44.8	6.2	0.00e+00	0	55	104	0	56	19016
2026-01-26 10:42:26.50	359.91	21.40	-42.3	-44.8	6.2	0.00e+00	0	55	104	0	56	19033
2026-01-26 10:42:27.51	359.66	21.55	-42.3	-44.8	6.2	0.00e+00	0	55	104	0	56	18988
2026-01-26 10:42:28.52	359.40	21.69	-42.3	-44.8	6.2	0.00e+00	0	55	104	0	56	19011
2026-01-26 10:42:29.53	359.14	21.84	-42.3	-44.9	6.2	0.00e+00	0	55	104	0	56	19039
2026-01-26 10:42:30.54	358.87	21.99	-42.3	-44.9	6.2	0.00e+00	0	55	104	0	56	19061
2026-01-26 10:42:31.55	358.61	22.14	-42.3	-44.8	6.2	0.00e+00	0	55	104	0	56	19033
2026-01-26 10:42:32.56	358.34	22.29	-42.3	-44.9	6.2	0.00e+00	0	55	104	0	56	19039
2026-01-26 10:42:33.57	358.06	22.45	-42.3	-44.8	6.2	0.00e+00	0	55	104	0	56	19015
2026-01-26 10:42:34.58	357.79	22.60	-42.3	-44.9	6.2	0.00e+00	0	55	104	0	56	19065
2026-01-26 10:42:35.59	357.51	22.75	-42.3	-44.9	6.2	0.00e+00	0	55	104	0	56	19061
2026-01-26 10:42:36.60	357.23	22.90	-42.3	-44.9	6.2	0.00e+00	0	55	104	0	56	19047
2026-01-26 10:42:37.61	356.94	23.06	-42.3	-44.8	6.2	0.00e+00	0	55	104	0	56	19016
2026-01-26 10:42:38.63	356.65	23.21	-42.3	-44.9	6.2	0.00e+00	0	55	104	0	56	19061
2026-01-26 10:42:39.64	356.36	23.36	-42.3	-44.9	6.2	0.00e+00	0	55	104	0	56	19044
2026-01-26 10:42:40.65	356.06	23.52	-42.3	-44.9	6.2	0.00e+00	0	55	104	0	56	19045
2026-01-26 10:42:41.66	355.76	23.67	-42.3	-44.8	6.2	0.00e+00	0	55	104	0	56	19025
2026-01-26 10:42:42.67	355.46	23.83	-42.3	-44.9	6.2	0.00e+00	0	55	104	0	56	19061
2026-01-26 10:42:43.68	355.16	23.98	-42.3	-44.9	6.2	0.00e+00	0	55	104	0	56	19051
2026-01-26 10:42:44.69	354.85	24.14	-42.3	-44.9	6.2	0.00e+00	0	55	104	0	56	19065
2026-01-26 10:42:45.70	354.54	24.29	-42.3	-44.8	6.2	0.00e+00	0	55	104	0	56	19023
2026-01-26 10:42:46.71	354.22	24.45	-42.3	-44.8	6.2	0.00e+00	0	55	104	0	56	19012
2026-01-26 10:42:47.72	353.90	24.61	-42.3	-44.8	6.2	0.00e+00	0	55	104	0	56	19030
2026-01-26 10:42:48.73	353.58	24.76	-42.3	-44.9	6.2	0.00e+00	0	55	104	0	56	19043
2026-01-26 10:42:49.74	353.25	24.92	-42.3	-44.9	6.2	0.00e+00	0	55	104	0	56	19066
2026-01-26 10:42:50.75	352.92	25.08	-42.3	-44.8	6.2	0.00e+00	0	55	104	0	56	19035
2026-01-26 10:42:51.76	352.59	25.23	-42.3	-44.9	6.2	0.00e+00	0	55	104	0	56	19090
2026-01-26 10:42:52.77	352.25	25.39	-42.3	-44.9	6.2	0.00e+00	0	55	104	0	56	19046
2026-01-26 10:42:53.78	351.91	25.55	-42.3	-44.9	6.2	0.00e+00	0	55	104	0	56	19069
2026-01-26 10:42:54.79	351.57	25.71	-42.3	-44.8	6.2	0.00e+00	0	55	104	0	56	19013
2026-01-26 10:42:55.80	351.22	25.86	-42.3	-44.8	6.2	0.00e+00	0	55	104	0	56	18983
2026-01-26 10:42:56.82	350.86	26.02	-42.3	-44.8	6.2	0.00e+00	0	55	104	0	56	19015
2026-01-26 10:42:57.83	350.50	26.18	-42.3	-44.9	6.2	0.00e+00	0	55	104	0	56	19076
2026-01-26 10:42:58.84	350.14	26.34	-42.3	-44.9	6.2	0.00e+00	0	55	104	0	56	19038
2026-01-26 10:42:59.85	349.78	26.50	-42.3	-44.9	6.2	0.00e+00	0	55	104	0	56	19053
2026-01-26 10:43:00.86	349.41	26.65	-42.3	-44.8	6.2	0.00e+00	0	55	104	0	56	19004
2026-01-26 10:43:01.87	349.04	26.81	-42.3	-44.9	6.2	0.00e+00	0	55	104	0	56	19063
2026-01-26 10:43:02.88	348.66	26.97	-42.3	-44.9	6.2	0.00e+00	0	55	104	0	56	19045
2026-01-26 10:43:03.89	348.28	27.13	-42.3	-44.9	6.2	0.00e+00	0	55	104	0	56	19062
2026-01-26 10:43:04.90	347.89	27.28	-42.3	-44.9	6.2	0.00e+00	0	55	104	0	56	19045
2026-01-26 10:43:05.91	347.51	27.44	-42.3	-44.8	6.2	0.00e+00	0	55	104	0	56	19015
2026-01-26 10:43:06.92	347.11	27.60	-42.3	-44.9	6.2	0.00e+00	0	55	104	0	56	19051
2026-01-26 10:43:07.93	346.71	27.75	-42.3	-44.9	6.2	0.00e+00	0	55	104	0	56	19075
2026-01-26 10:43:08.94	346.31	27.91	-42.3	-44.8	6.2	0.00e+00	0	55	104	0	56	19021
2026-01-26 10:43:09.95	345.91	28.06	-42.3	-44.8	6.2	0.00e+00	0	55	104	0	56	19026
2026-01-26 10:43:10.96	345.50	28.22	-42.3	-44.9	6.2	0.00e+00	0	55	104	0	56	19087
2026-01-26 10:43:11.97	345.08	28.37	-42.3	-44.8	6.2	0.00e+00	0	55	104	0	56	19025
2026-01-26 10:43:12.98	344.66	28.53	-42.3	-44.9	6.2	0.00e+00	0	55	104	0	56	19089
2026-01-26 10:43:13.99	344.24	28.68	-42.3	-44.8	6.2	0.00e+00	0	55	104	0	56	19029
2026-01-26 10:43:14.99	343.81	28.83	-42.3	-44.8	6.2	0.00e+00	0	55	104	0	56	18988
2026-01-26 10:43:16.00	343.38	28.98	-42.3	-44.8	6.2	0.00e+00	0	55	104	0	56	18963
2026-01-26 10:43:17.01	342.94	29.13	-42.3	-44.8	6.2	0.00e+00	0	55	104	0	56	19006
2026-01-26 10:43:18.02	342.50	29.28	-42.3	-44.8	6.2	0.00e+00	0	55	104	0	56	19028
2026-01-26 10:43:19.04	342.05	29.43	-42.3	-44.8	6.2	0.00e+00	0	56	104	0	56	18996
2026-01-26 10:43:20.04	341.60	29.58	-42.3	-44.8	6.2	0.00e+00	0	55	104	0	56	19034
2026-01-26 10:43:21.06	341.14	29.73	-42.3	-44.9	6.2	0.00e+00	0	55	104	0	56	19054
2026-01-26 10:43:22.07	340.68	29.88	-42.3	-44.8	6.2	0.00e+00	0	55	104	0	56	18943
2026-01-26 10:43:23.08	340.22	30.02	-42.3	-44.8	6.2	0.00e+00	0	55	104	0	56	19009
2026-01-26 10:43:24.09	339.75	30.16	-42.3	-44.9	6.2	0.00e+00	0	55	104	0	56	19053
2026-01-26 10:43:25.09	339.28	30.31	-42.3	-44.9	6.2	0.00e+00	0	55	104	0	56	19036
2026-01-26 10:43:26.11	338.80	30.45	-42.3	-44.9	6.2	0.00e+00	0	55	104	0	56	19062
2026-01-26 10:43:27.12	338.32	30.59	-42.3	-44.8	6.2	0.00e+00	0	55	104	0	56	18975
2026-01-26 10:43:28.13	337.83	30.73	-42.3	-44.8	6.2	0.00e+00	0	55	104	0	56	19032
2026-01-26 10:43:29.14	337.34	30.87	-42.3	-44.8	6.2	0.00e+00	0	55	104	0	56	18998
2026-01-26 10:43:30.15	336.84	31.00	-42.3	-44.8	6.2	0.00e+00	0	55	104	0	56	19023
2026-01-26 10:43:31.16	336.34	31.14	-42.3	-44.8	6.2	0.00e+00	0	55	104	0	56	18991
2026-01-26 10:43:32.17	335.83	31.27	-42.3	-44.8	6.2	0.00e+00	0	55	104	0	56	18974
2026-01-26 10:43:33.18	335.32	31.40	-42.3	-44.8	6.2	0.00e+00	0	55	104	0	56	18961
2026-01-26 10:43:34.19	334.81	31.53	-42.3	-44.8	6.2	0.00e+00	0	55	104	0	56	19016
2026-01-26 10:43:35.20	334.29	31.66	-42.3	-44.8	6.2	0.00e+00	0	55	104	0	56	19023
2026-01-26 10:43:36.21	333.77	31.79	-42.3	-44.8	6.2	0.00e+00	0	55	104	0	56	18997
2026-01-26 10:43:37.22	333.24	31.91	-42.3	-44.8	6.2	0.00e+00	0	55	104	0	56	18967
2026-01-26 10:43:38.23	332.71	32.03	-42.3	-44.8	6.2	0.00e+00	0	55	104	0	56	18997
2026-01-26 10:43:39.24	332.17	32.15	-42.3	-44.9	6.2	0.00e+00	0	55	104	0	56	19083
2026-01-26 10:43:40.25	331.63	32.27	-42.3	-44.8	6.2	0.00e+00	0	55	104	0	56	18988
2026-01-26 10:43:41.26	331.08	32.39	-42.3	-44.8	6.2	0.00e+00	0	55	104	0	56	19015
2026-01-26 10:43:42.27	330.53	32.50	-42.3	-44.8	6.2	0.00e+00	0	56	104	0	56	18992
2026-01-26 10:43:43.28	329.98	32.61	-42.3	-44.9	6.2	0.00e+00	0	55	104	0	56	19062
2026-01-26 10:43:44.29	329.42	32.72	-42.3	-44.9	6.2	0.00e+00	0	55	104	0	56	19040
2026-01-26 10:43:45.30	328.86	32.82	-42.3	-44.8	6.2	0.00e+00	0	55	104	0	56	19009
2026-01-26 10:43:46.31	328.30	32.93	-42.3	-44.8	6.2	0.00e+00	0	56	104	0	56	18983
2026-01-26 10:43:47.32	327.73	33.03	-42.3	-44.9	6.2	0.00e+00	0	55	104	0	56	19116
2026-01-26 10:43:48.33	327.16	33.13	-42.3	-44.9	6.2	0.00e+00	0	55	104	0	56	19053
2026-01-26 10:43:49.34	326.58	33.22	-42.3	-44.8	6.2	0.00e+00	0	55	104	0	56	19008
2026-01-26 10:43:50.35	326.00	33.32	-42.3	-44.8	6.2	0.00e+00	0	55	104	0	56	19027
2026-01-26 10:43:51.36	325.42	33.41	-42.3	-44.9	6.2	0.00e+00	0	55	104	0	56	19044
2026-01-26 10:43:52.37	324.83	33.49	-42.3	-44.9	6.2	0.00e+00	0	55	104	0	56	19055
2026-01-26 10:43:53.38	324.24	33.58	-42.3	-44.9	6.2	0.00e+00	0	55	104	0	56	19117
2026-01-26 10:43:54.39	323.65	33.66	-42.3	-44.8	6.2	0.00e+00	0	55	104	0	56	19027
2026-01-26 10:43:55.41	323.04	33.74	-42.3	-44.8	6.2	0.00e+00	0	55	104	0	56	19006
2026-01-26 10:43:56.42	322.44	33.81	-42.2	-44.8	6.2	0.00e+00	0	55	104	0	56	18914
2026-01-26 10:43:57.43	321.84	33.89	-42.2	-44.8	6.2	0.00e+00	0	55	104	0	56	18934
2026-01-26 10:43:58.44	321.23	33.95	-42.3	-44.8	6.2	0.00e+00	0	55	104	0	56	19003
2026-01-26 10:43:59.45	320.63	34.02	-42.3	-44.9	6.2	0.00e+00	0	55	104	0	56	19040
2026-01-26 10:44:00.46	320.02	34.08	-42.3	-44.9	6.2	0.00e+00	0	55	104	0	56	19060
2026-01-26 10:44:01.47	319.40	34.14	-42.3	-44.8	6.2	0.00e+00	0	56	104	0	56	18978
2026-01-26 10:44:02.48	318.79	34.20	-42.3	-44.8	6.2	0.00e+00	0	55	104	0	56	18987
2026-01-26 10:44:03.50	318.16	34.25	-42.3	-44.8	6.2	0.00e+00	0	55	104	0	56	18951
2026-01-26 10:44:04.50	317.55	34.30	-42.3	-44.8	6.2	0.00e+00	0	56	104	0	56	18964
2026-01-26 10:44:05.51	316.93	34.34	-42.3	-44.9	6.2	0.00e+00	0	55	104	0	56	19043
2026-01-26 10:44:06.52	316.30	34.38	-42.3	-44.9	6.2	0.00e+00	0	55	104	0	56	19042
2026-01-26 10:44:07.54	315.67	34.42	-42.3	-44.8	6.2	0.00e+00	0	56	104	0	56	19001
2026-01-26 10:44:08.54	315.05	34.45	-42.3	-44.8	6.2	0.00e+00	0	55	104	0	56	19015
2026-01-26 10:44:09.56	314.42	34.48	-42.3	-44.8	6.2	0.00e+00	0	55	104	0	56	18988
2026-01-26 10:44:10.56	313.80	34.51	-42.3	-44.8	6.2	0.00e+00	0	55	104	0	56	19035
2026-01-26 10:44:11.58	313.16	34.53	-42.3	-44.9	6.2	0.00e+00	0	55	104	0	56	19049
2026-01-26 10:44:12.59	312.53	34.55	-42.3	-44.8	6.2	0.00e+00	0	56	104	0	56	19032
2026-01-26 10:44:13.60	311.90	34.57	-42.3	-44.9	6.2	0.00e+00	0	55	104	0	56	19053
2026-01-26 10:44:14.61	311.26	34.58	-42.3	-44.8	6.2	0.00e+00	0	55	104	0	56	19020
2026-01-26 10:44:15.62	310.63	34.59	-42.3	-44.8	6.2	0.00e+00	0	56	104	0	56	18974
2026-01-26 10:44:16.63	310.00	34.59	-42.3	-44.8	6.2	0.00e+00	0	55	104	0	56	18940
2026-01-26 10:44:17.64	309.36	34.59	-42.3	-44.8	6.2	0.00e+00	0	55	104	0	56	18993
2026-01-26 10:44:18.65	308.73	34.59	-42.3	-44.8	6.2	0.00e+00	0	55	104	0	56	19031
2026-01-26 10:44:19.66	308.10	34.58	-42.3	-44.8	6.2	0.00e+00	0	55	104	0	56	19002
2026-01-26 10:44:20.67	307.47	34.57	-42.3	-44.9	6.2	0.00e+00	0	55	104	0	56	19063
2026-01-26 10:44:21.68	306.83	34.56	-42.3	-44.9	6.2	0.00e+00	0	55	104	0	56	19044
2026-01-26 10:44:22.69	306.20	34.54	-42.3	-44.9	6.2	0.00e+00	0	55	104	0	56	19050
2026-01-26 10:44:23.70	305.57	34.52	-42.3	-44.8	6.2	0.00e+00	0	55	104	0	56	18980
2026-01-26 10:44:24.71	304.94	34.49	-42.3	-44.9	6.2	0.00e+00	0	55	104	0	56	19083
2026-01-26 10:44:25.72	304.31	34.46	-42.3	-44.8	6.2	0.00e+00	0	55	104	0	56	18997
2026-01-26 10:44:26.73	303.69	34.43	-42.3	-44.8	6.2	0.00e+00	0	55	104	0	56	18968
2026-01-26 10:44:27.74	303.06	34.39	-42.3	-44.8	6.2	0.00e+00	0	55	104	0	56	18925
2026-01-26 10:44:28.75	302.44	34.35	-42.3	-44.8	6.2	0.00e+00	0	55	104	0	56	19021
2026-01-26 10:44:29.76	301.81	34.31	-42.3	-44.8	6.2	0.00e+00	0	56	104	0	56	19010
2026-01-26 10:44:30.77	301.19	34.26	-42.3	-44.9	6.2	0.00e+00	0	55	104	0	56	19064
2026-01-26 10:44:31.78	300.57	34.21	-42.3	-44.9	6.2	0.00e+00	0	55	104	0	56	19057
2026-01-26 10:44:32.79	299.96	34.15	-42.3	-44.8	6.2	0.00e+00	0	55	104	0	56	18998
2026-01-26 10:44:33.80	299.34	34.09	-42.3	-44.9	6.2	0.00e+00	0	55	104	0	56	19068
2026-01-26 10:44:34.81	298.73	34.03	-42.3	-44.8	6.2	0.00e+00	0	55	104	0	56	18971
2026-01-26 10:44:35.82	298.12	33.97	-42.3	-44.8	6.2	0.00e+00	0	55	104	0	56	19030
2026-01-26 10:44:36.83	297.52	33.90	-42.3	-44.9	6.2	0.00e+00	0	55	104	0	56	19050
2026-01-26 10:44:37.84	296.91	33.83	-42.3	-44.8	6.2	0.00e+00	0	55	104	0	56	19023
2026-01-26 10:44:38.85	296.31	33.76	-42.3	-44.9	6.2	0.00e+00	0	55	104	0	56	19087
2026-01-26 10:44:39.87	295.71	33.68	-42.3	-44.8	6.2	0.00e+00	0	55	104	0	56	19010
2026-01-26 10:44:40.88	295.11	33.60	-42.3	-44.9	6.2	0.00e+00	0	55	104	0	56	19094
2026-01-26 10:44:41.89	294.52	33.51	-42.3	-44.9	6.2	0.00e+00	0	55	104	0	56	19072
2026-01-26 10:44:42.90	293.93	33.43	-42.3	-44.8	6.2	0.00e+00	0	55	104	0	56	19031
2026-01-26 10:44:43.91	293.35	33.34	-42.3	-44.9	6.2	0.00e+00	0	55	104	0	56	19075
2026-01-26 10:44:44.91	292.77	33.24	-42.3	-44.8	6.2	0.00e+00	0	55	104	0	56	19026
2026-01-26 10:44:45.92	292.19	33.15	-42.3	-44.9	6.2	0.00e+00	0	55	104	0	56	19052
2026-01-26 10:44:46.93	291.62	33.05	-42.3	-44.9	6.2	0.00e+00	0	55	104	0	56	19056
2026-01-26 10:44:47.95	291.04	32.95	-42.3	-44.9	6.2	0.00e+00	0	55	104	0	56	19053
2026-01-26 10:44:48.96	290.47	32.85	-42.3	-44.9	6.2	0.00e+00	0	55	104	0	56	19088
2026-01-26 10:44:49.97	289.91	32.74	-42.3	-44.9	6.2	0.00e+00	0	56	104	0	56	19099
2026-01-26 10:44:50.98	289.35	32.63	-42.3	-44.9	6.2	0.00e+00	0	55	104	0	56	19076
2026-01-26 10:44:51.99	288.80	32.52	-42.3	-44.9	6.2	0.00e+00	0	55	104	0	56	19061
2026-01-26 10:44:53.00	288.24	32.41	-42.3	-44.9	6.2	0.00e+00	0	55	104	0	56	19091
2026-01-26 10:44:54.01	287.70	32.29	-42.3	-44.9	6.2	0.00e+00	0	55	104	0	56	19065
2026-01-26 10:44:55.02	287.15	32.18	-42.3	-44.9	6.2	0.00e+00	0	56	104	0	56	19045
2026-01-26 10:44:56.03	286.62	32.06	-42.3	-44.9	6.2	0.00e+00	0	55	104	0	56	19076
2026-01-26 10:44:57.04	286.08	31.93	-42.3	-44.9	6.2	0.00e+00	0	55	104	0	56	19068
2026-01-26 10:44:58.05	285.55	31.81	-42.3	-44.9	6.2	0.00e+00	0	55	104	0	56	19063
2026-01-26 10:44:59.06	285.03	31.68	-42.3	-44.9	6.2	0.00e+00	0	55	104	0	56	19048
2026-01-26 10:45:00.07	284.51	31.56	-42.3	-44.9	6.2	0.00e+00	0	55	104	0	56	19063
2026-01-26 10:45:01.08	283.99	31.43	-42.3	-44.8	6.2	0.00e+00	0	55	104	0	56	19013
2026-01-26 10:45:02.09	283.48	31.29	-42.3	-44.9	6.2	0.00e+00	0	55	104	0	56	19076
2026-01-26 10:45:03.10	282.97	31.16	-42.3	-44.9	6.2	0.00e+00	0	55	104	0	56	19065
2026-01-26 10:45:04.11	282.47	31.03	-42.3	-44.8	6.2	0.00e+00	0	55	104	0	56	19033
2026-01-26 10:45:05.12	281.97	30.89	-42.3	-44.9	6.2	0.00e+00	0	55	104	0	56	19098
2026-01-26 10:45:06.13	281.47	30.75	-42.3	-44.9	6.2	0.00e+00	0	55	104	0	56	19043
2026-01-26 10:45:07.14	280.98	30.61	-42.3	-44.8	6.2	0.00e+00	0	55	104	0	56	19020
2026-01-26 10:45:08.15	280.50	30.47	-42.3	-44.9	6.2	0.00e+00	0	55	104	0	56	19044
2026-01-26 10:45:09.16	280.02	30.33	-42.3	-44.9	6.2	0.00e+00	0	55	104	0	56	19040
2026-01-26 10:45:10.17	279.54	30.19	-42.3	-44.8	6.2	0.00e+00	0	55	104	0	56	19005
2026-01-26 10:45:11.18	279.07	30.04	-42.3	-44.9	6.2	0.00e+00	0	55	104	0	56	19120
2026-01-26 10:45:12.19	278.60	29.90	-42.3	-44.9	6.2	0.00e+00	0	55	104	0	56	19082
2026-01-26 10:45:13.20	278.14	29.75	-42.3	-44.9	6.2	0.00e+00	0	55	104	0	56	19091
2026-01-26 10:45:14.21	277.68	29.60	-42.3	-44.9	6.2	0.00e+00	0	55	104	0	56	19054
2026-01-26 10:45:15.22	277.23	29.46	-42.3	-44.9	6.2	0.00e+00	0	55	104	0	56	19090
2026-01-26 10:45:16.23	276.78	29.31	-42.3	-44.9	6.2	0.00e+00	0	56	104	0	56	19069
2026-01-26 10:45:17.24	276.34	29.15	-42.3	-44.8	6.2	0.00e+00	0	55	104	0	56	19027
2026-01-26 10:45:18.25	275.90	29.00	-42.3	-44.9	6.2	0.00e+00	0	55	104	0	56	19071
2026-01-26 10:45:19.27	275.46	28.85	-42.3	-44.9	6.2	0.00e+00	0	55	104	0	56	19092
2026-01-26 10:45:20.27	275.03	28.70	-42.3	-44.9	6.2	0.00e+00	0	55	104	0	56	19085
2026-01-26 10:45:21.28	274.61	28.55	-42.3	-44.9	6.2	0.00e+00	0	55	104	0	56	19067
2026-01-26 10:45:22.30	274.18	28.39	-42.3	-44.9	6.2	0.00e+00	0	55	104	0	56	19046
2026-01-26 10:45:23.31	273.76	28.24	-42.3	-44.9	6.2	0.00e+00	0	55	104	0	56	19087
2026-01-26 10:45:24.32	273.35	28.08	-42.3	-44.9	6.2	0.00e+00	0	55	104	0	56	19075
2026-01-26 10:45:25.33	272.94	27.92	-42.3	-44.9	6.2	0.00e+00	0	55	104	0	56	19051
2026-01-26 10:45:26.34	272.54	27.77	-42.3	-44.9	6.2	0.00e+00	0	55	104	0	56	19127
2026-01-26 10:45:27.35	272.14	27.61	-42.3	-44.9	6.2	0.00e+00	0	55	104	0	56	19045
2026-01-26 10:45:28.36	271.74	27.46	-42.3	-44.9	6.2	0.00e+00	0	55	104	0	56	19048
2026-01-26 10:45:29.37	271.35	27.30	-42.3	-44.9	6.2	0.00e+00	0	55	104	0	56	19112
2026-01-26 10:45:30.38	270.97	27.14	-42.3	-44.8	6.2	0.00e+00	0	55	104	0	56	19008
2026-01-26 10:45:31.39	270.58	26.98	-42.3	-44.9	6.2	0.00e+00	0	55	104	0	56	19069
2026-01-26 10:45:32.40	270.20	26.83	-42.3	-44.9	6.2	0.00e+00	0	55	104	0	56	19093
2026-01-26 10:45:33.41	269.83	26.67	-42.3	-44.9	6.2	0.00e+00	0	55	104	0	56	19050
2026-01-26 10:45:34.42	269.46	26.51	-42.3	-44.8	6.2	0.00e+00	0	55	104	0	56	18954
2026-01-26 10:45:35.43	269.09	26.35	-42.3	-44.9	6.2	0.00e+00	0	55	104	0	56	19061
2026-01-26 10:45:36.44	268.73	26.19	-42.3	-44.9	6.2	0.00e+00	0	56	104	0	56	19058
2026-01-26 10:45:37.45	268.37	26.03	-42.3	-44.9	6.2	0.00e+00	0	55	104	0	56	19060
2026-01-26 10:45:38.46	268.02	25.88	-42.3	-44.9	6.2	0.00e+00	0	55	104	0	56	19063
2026-01-26 10:45:39.47	267.67	25.72	-42.3	-44.9	6.2	0.00e+00	0	56	104	0	56	19069
2026-01-26 10:45:40.48	267.32	25.56	-42.3	-44.9	6.2	0.00e+00	0	56	104	0	56	19069
2026-01-26 10:45:41.49	266.98	25.40	-42.3	-44.9	6.2	0.00e+00	0	55	104	0	56	19041
2026-01-26 10:45:42.50	266.64	25.24	-42.3	-44.9	6.2	0.00e+00	0	55	104	0	56	19074
2026-01-26 10:45:43.51	266.30	25.09	-42.3	-44.9	6.2	0.00e+00	0	55	104	0	56	19091
2026-01-26 10:45:44.52	265.97	24.93	-42.3	-44.9	6.2	0.00e+00	0	56	104	0	56	19097
2026-01-26 10:45:45.53	265.64	24.77	-42.3	-44.9	6.2	0.00e+00	0	55	104	0	56	19082
2026-01-26 10:45:46.54	265.32	24.61	-42.3	-44.9	6.2	0.00e+00	0	56	104	0	56	19116
2026-01-26 10:45:47.55	265.00	24.46	-42.3	-44.8	6.2	0.00e+00	0	55	104	0	56	19031
2026-01-26 10:45:48.56	264.68	24.30	-42.3	-44.9	6.2	0.00e+00	0	56	104	0	56	19070
2026-01-26 10:45:49.57	264.37	24.14	-42.3	-44.9	6.2	0.00e+00	0	56	104	0	56	19064
2026-01-26 10:45:50.59	264.05	23.98	-42.3	-44.9	6.2	0.00e+00	0	55	104	0	56	19101
2026-01-26 10:45:51.59	263.75	23.83	-42.3	-44.9	6.2	0.00e+00	0	55	104	0	56	19100
2026-01-26 10:45:52.61	263.44	23.67	-42.3	-44.9	6.2	0.00e+00	0	55	104	0	56	19104
2026-01-26 10:45:53.62	263.14	23.52	-42.3	-44.9	6.2	0.00e+00	0	55	104	0	56	19094
2026-01-26 10:45:54.63	262.84	23.36	-42.3	-44.9	6.2	0.00e+00	0	55	104	0	56	19068
2026-01-26 10:45:55.64	262.55	23.21	-42.3	-44.8	6.2	0.00e+00	0	55	104	0	56	19033
2026-01-26 10:45:56.65	262.26	23.05	-42.3	-44.9	6.2	0.00e+00	0	55	104	0	56	19076
2026-01-26 10:45:57.66	261.97	22.90	-42.3	-44.9	6.2	0.00e+00	0	55	104	0	56	19094
2026-01-26 10:45:58.67	261.69	22.75	-42.3	-44.8	6.2	0.00e+00	0	55	104	0	56	19010
2026-01-26 10:45:59.68	261.41	22.60	-42.3	-44.9	6.2	0.00e+00	0	56	104	0	56	19084
2026-01-26 10:46:00.69	261.13	22.44	-42.3	-44.9	6.2	0.00e+00	0	55	104	0	56	19098
2026-01-26 10:46:01.70	260.86	22.29	-42.3	-44.9	6.2	0.00e+00	0	56	104	0	56	19100
2026-01-26 10:46:02.71	260.59	22.14	-42.3	-44.9	6.2	0.00e+00	0	55	104	0	56	19114
2026-01-26 10:46:03.72	260.32	21.99	-42.3	-44.9	6.2	0.00e+00	0	56	104	0	56	19095
2026-01-26 10:46:04.73	260.05	21.84	-42.3	-44.9	6.2	0.00e+00	0	55	104	0	56	19097
2026-01-26 10:46:05.74	259.79	21.69	-42.3	-44.9	6.2	0.00e+00	0	56	104	0	56	19097
2026-01-26 10:46:06.75	259.53	21.54	-42.3	-44.9	6.2	0.00e+00	0	55	104	0	56	19082
2026-01-26 10:46:07.76	259.27	21.39	-42.3	-44.9	6.2	0.00e+00	0	55	104	0	56	19070
2026-01-26 10:46:08.77	259.02	21.24	-42.3	-44.8	6.2	0.00e+00	0	56	104	0	56	19023
2026-01-26 10:46:09.78	258.77	21.09	-42.3	-44.9	6.2	0.00e+00	0	55	104	0	56	19128
2026-01-26 10:46:10.79	258.52	20.95	-42.3	-44.9	6.2	0.00e+00	0	55	104	0	56	19097
2026-01-26 10:46:11.80	258.27	20.80	-42.3	-44.9	6.2	0.00e+00	0	55	104	0	56	19046
2026-01-26 10:46:12.81	258.03	20.65	-42.3	-44.9	6.2	0.00e+00	0	56	104	0	56	19081
2026-01-26 10:46:13.82	257.79	20.51	-42.3	-44.9	6.2	0.00e+00	0	55	104	0	56	19119
2026-01-26 10:46:14.83	257.55	20.36	-42.3	-44.9	6.2	0.00e+00	0	55	104	0	56	19058
2026-01-26 10:46:15.84	257.31	20.22	-42.3	-44.9	6.2	0.00e+00	0	55	104	0	56	19148
2026-01-26 10:46:16.85	257.08	20.07	-42.3	-44.9	6.2	0.00e+00	0	55	104	0	56	19059
2026-01-26 10:46:17.86	256.85	19.93	-42.3	-44.9	6.2	0.00e+00	0	55	104	0	56	19127
2026-01-26 10:46:18.87	256.62	19.79	-42.3	-44.9	6.2	0.00e+00	0	56	104	0	56	19098
2026-01-26 10:46:19.88	256.40	19.65	-42.3	-44.9	6.2	0.00e+00	0	56	104	0	56	19080
2026-01-26 10:46:20.89	256.17	19.51	-42.3	-44.9	6.2	0.00e+00	0	55	104	0	56	19099
2026-01-26 10:46:21.90	255.95	19.36	-42.3	-44.9	6.2	0.00e+00	0	56	104	0	56	19120
2026-01-26 10:46:22.91	255.73	19.22	-42.3	-44.9	6.2	0.00e+00	0	55	104	0	56	19126
2026-01-26 10:46:23.92	255.52	19.08	-42.3	-44.9	6.2	0.00e+00	0	55	104	0	56	19092
2026-01-26 10:46:24.93	255.30	18.95	-42.3	-44.9	6.2	0.00e+00	0	56	104	0	56	19095
2026-01-26 10:46:25.94	255.09	18.81	-42.3	-44.9	6.2	0.00e+00	0	55	104	0	56	19094
2026-01-26 10:46:26.95	254.88	18.67	-42.3	-44.9	6.2	0.00e+00	0	56	104	0	56	19109
2026-01-26 10:46:27.96	254.67	18.53	-42.3	-44.9	6.2	0.00e+00	0	55	104	0	56	19092
2026-01-26 10:46:28.97	254.47	18.40	-42.3	-44.9	6.2	0.00e+00	0	55	104	0	56	19069
2026-01-26 10:46:29.98	254.27	18.26	-42.3	-44.9	6.2	0.00e+00	0	56	104	0	56	19107
2026-01-26 10:46:30.99	254.07	18.12	-42.3	-44.9	6.2	0.00e+00	0	55	104	0	56	19069
2026-01-26 10:46:32.00	253.87	17.99	-42.3	-44.9	6.2	0.00e+00	0	56	104	0	56	19119
2026-01-26 10:46:33.01	253.67	17.86	-42.3	-44.9	6.2	0.00e+00	0	56	104	0	56	19070
2026-01-26 10:46:34.02	253.47	17.72	-42.3	-44.9	6.2	0.00e+00	0	55	104	0	56	19058
2026-01-26 10:46:35.03	253.28	17.59	-42.3	-44.9	6.2	0.00e+00	0	56	104	0	56	19058
2026-01-26 10:46:36.04	253.09	17.46	-42.3	-44.9	6.2	0.00e+00	0	56	104	0	56	19136
2026-01-26 10:46:37.05	252.90	17.32	-42.3	-44.9	6.2	0.00e+00	0	55	104	0	56	19166
2026-01-26 10:46:38.06	252.72	17.19	-42.3	-44.9	6.2	0.00e+00	0	55	104	0	56	19073
2026-01-26 10:46:39.07	252.53	17.06	-42.3	-44.9	6.2	0.00e+00	0	56	104	0	56	19066
2026-01-26 10:46:40.08	252.35	16.93	-42.3	-44.9	6.2	0.00e+00	0	55	104	0	56	19120
2026-01-26 10:46:41.09	252.17	16.80	-42.3	-44.9	6.2	0.00e+00	0	56	104	0	56	19091
2026-01-26 10:46:42.10	251.99	16.68	-42.3	-44.9	6.2	0.00e+00	0	56	104	0	56	19086
2026-01-26 10:46:43.11	251.81	16.55	-42.3	-44.8	6.2	0.00e+00	0	55	104	0	56	19013
2026-01-26 10:46:44.12	251.63	16.42	-42.3	-44.9	6.2	0.00e+00	0	56	104	0	56	19104
2026-01-26 10:46:45.13	251.46	16.29	-42.3	-44.9	6.2	0.00e+00	0	55	104	0	56	19105
2026-01-26 10:46:46.14	251.29	16.17	-42.3	-44.9	6.2	0.00e+00	0	56	104	0	56	19094
2026-01-26 10:46:47.15	251.12	16.04	-42.3	-44.9	6.2	0.00e+00	0	55	104	0	56	19089
2026-01-26 10:46:48.16	250.95	15.92	-42.3	-44.9	6.2	0.00e+00	0	55	104	0	56	19073
2026-01-26 10:46:49.17	250.78	15.79	-42.3	-44.9	6.2	0.00e+00	0	56	104	0	56	19120
2026-01-26 10:46:50.18	250.61	15.67	-42.3	-44.9	6.2	0.00e+00	0	56	104	0	56	19051
2026-01-26 10:46:51.19	250.45	15.54	-42.3	-44.9	6.2	0.00e+00	0	56	104	0	56	19112
2026-01-26 10:46:52.20	250.29	15.42	-42.3	-44.9	6.2	0.00e+00	0	55	104	0	56	19087
2026-01-26 10:46:53.21	250.13	15.30	-42.3	-44.9	6.2	0.00e+00	0	56	104	0	56	19072
2026-01-26 10:46:54.22	249.97	15.18	-42.3	-44.9	6.2	0.00e+00	0	56	104	0	56	19070
2026-01-26 10:46:55.23	249.81	15.06	-42.3	-44.9	6.2	0.00e+00	0	55	104	0	56	19106
2026-01-26 10:46:56.24	249.65	14.94	-42.3	-44.9	6.2	0.00e+00	0	56	104	0	56	19129
2026-01-26 10:46:57.25	249.50	14.82	-42.3	-44.9	6.2	0.00e+00	0	55	104	0	56	19038
2026-01-26 10:46:58.26	249.34	14.70	-42.3	-44.9	6.2	0.00e+00	0	55	104	0	56	19097
2026-01-26 10:46:59.27	249.19	14.58	-42.3	-44.9	6.2	0.00e+00	0	56	104	0	56	19123
2026-01-26 10:47:00.28	249.04	14.46	-42.3	-44.9	6.2	0.00e+00	0	56	104	0	56	19090
2026-01-26 10:47:01.29	248.89	14.34	-42.3	-44.9	6.2	0.00e+00	0	55	104	0	56	19113
2026-01-26 10:47:02.31	248.74	14.23	-42.3	-44.9	6.2	0.00e+00	0	56	104	0	56	19094
2026-01-26 10:47:03.32	248.60	14.11	-42.3	-44.9	6.2	0.00e+00	0	56	104	0	56	19118
2026-01-26 10:47:04.33	248.45	13.99	-42.3	-44.9	6.2	0.00e+00	0	56	104	0	56	19116
2026-01-26 10:47:05.33	248.31	13.88	-42.3	-44.9	6.2	0.00e+00	0	55	104	0	56	19112
2026-01-26 10:47:06.34	248.17	13.77	-42.3	-44.9	6.2	0.00e+00	0	56	104	0	56	19077
2026-01-26 10:47:07.35	248.03	13.65	-42.3	-44.9	6.2	0.00e+00	0	56	104	0	56	19108
2026-01-26 10:47:08.36	247.89	13.54	-42.3	-44.9	6.2	0.00e+00	0	56	104	0	56	19127
2026-01-26 10:47:09.37	247.75	13.42	-42.3	-44.9	6.2	0.00e+00	0	55	104	0	56	19083
2026-01-26 10:47:10.38	247.61	13.31	-42.3	-44.9	6.2	0.00e+00	0	56	104	0	56	19150
2026-01-26 10:47:11.39	247.48	13.20	-42.3	-44.9	6.2	0.00e+00	0	56	104	0	56	19039
2026-01-26 10:47:12.40	247.34	13.09	-42.3	-44.8	6.2	0.00e+00	0	55	104	0	56	19010
2026-01-26 10:47:13.41	247.21	12.98	-42.3	-44.8	6.2	0.00e+00	0	55	104	0	56	19008
2026-01-26 10:47:14.42	247.08	12.87	-42.3	-44.8	6.2	0.00e+00	0	56	104	0	56	19025
2026-01-26 10:47:15.43	246.95	12.76	-42.3	-44.8	6.2	0.00e+00	0	55	104	0	56	19032
2026-01-26 10:47:16.44	246.82	12.65	-42.3	-44.9	6.2	0.00e+00	0	55	104	0	56	19049
2026-01-26 10:47:17.45	246.69	12.54	-42.3	-44.9	6.2	0.00e+00	0	56	104	0	56	19068
2026-01-26 10:47:18.46	246.56	12.43	-42.3	-44.9	6.2	0.00e+00	0	55	104	0	56	19051
2026-01-26 10:47:19.48	246.44	12.32	-42.3	-44.9	6.2	0.00e+00	0	56	104	0	56	19077
2026-01-26 10:47:20.48	246.31	12.22	-42.3	-44.9	6.2	0.00e+00	0	55	104	0	56	19102
2026-01-26 10:47:21.49	246.19	12.11	-42.3	-44.9	6.2	0.00e+00	0	56	104	0	56	19050
2026-01-26 10:47:22.50	246.07	12.00	-42.3	-44.9	6.2	0.00e+00	0	55	104	0	56	19122
2026-01-26 10:47:23.52	245.94	11.90	-42.3	-44.9	6.2	0.00e+00	0	56	104	0	56	19068
2026-01-26 10:47:24.53	245.82	11.79	-42.3	-44.9	6.2	0.00e+00	0	56	104	0	56	19112
2026-01-26 10:47:25.54	245.70	11.69	-42.3	-44.9	6.2	0.00e+00	0	56	104	0	56	19111
2026-01-26 10:47:26.54	245.58	11.58	-42.3	-44.9	6.2	0.00e+00	0	55	104	0	56	19091
2026-01-26 10:47:27.56	245.47	11.48	-42.3	-44.9	6.2	0.00e+00	0	55	104	0	56	19090
2026-01-26 10:47:28.57	245.35	11.37	-42.3	-44.9	6.2	0.00e+00	0	56	104	0	56	19081
2026-01-26 10:47:29.58	245.23	11.27	-42.3	-44.9	6.2	0.00e+00	0	55	104	0	56	19058
2026-01-26 10:47:30.59	245.12	11.17	-42.3	-44.9	6.2	0.00e+00	0	55	104	0	56	19092
2026-01-26 10:47:31.60	245.01	11.07	-42.3	-44.9	6.2	0.00e+00	0	56	104	0	56	19064
2026-01-26 10:47:32.61	244.89	10.96	-42.3	-44.9	6.2	0.00e+00	0	55	104	0	56	19088
2026-01-26 10:47:33.62	244.78	10.86	-42.3	-44.9	6.2	0.00e+00	0	55	104	0	56	19092
2026-01-26 10:47:34.63	244.67	10.76	-42.3	-44.9	6.2	0.00e+00	0	56	104	0	56	19066
2026-01-26 10:47:35.64	244.56	10.66	-42.3	-44.9	6.2	0.00e+00	0	55	104	0	56	19110
2026-01-26 10:47:36.65	244.45	10.56	-42.3	-44.9	6.2	0.00e+00	0	55	104	0	56	19058
2026-01-26 10:47:37.66	244.35	10.46	-42.3	-44.9	6.2	0.00e+00	0	56	104	0	56	19133
2026-01-26 10:47:38.67	244.24	10.36	-42.3	-44.9	6.2	0.00e+00	0	55	104	0	56	19041
2026-01-26 10:47:39.68	244.13	10.27	-42.2	-44.8	6.2	0.00e+00	0	56	104	0	56	19026
2026-01-26 10:47:40.69	244.03	10.17	-42.3	-44.9	6.2	0.00e+00	0	56	104	0	56	19073
2026-01-26 10:47:41.70	243.92	10.07	-42.3	-44.9	6.2	0.00e+00	0	56	104	0	56	19081
2026-01-26 10:47:42.71	243.82	9.97	-42.3	-44.8	6.2	0.00e+00	0	56	104	0	56	19031
2026-01-26 10:47:43.72	243.72	9.88	-42.3	-44.9	6.2	0.00e+00	0	56	104	0	56	19066
2026-01-26 10:47:44.73	243.62	9.78	-42.3	-44.9	6.2	0.00e+00	0	55	104	0	56	19096
2026-01-26 10:47:45.74	243.52	9.68	-42.3	-44.9	6.2	0.00e+00	0	56	104	0	56	19055
2026-01-26 10:47:46.75	243.42	9.59	-42.3	-44.9	6.2	0.00e+00	0	56	104	0	56	19105
2026-01-26 10:47:47.76	243.32	9.49	-42.3	-44.9	6.2	0.00e+00	0	56	104	0	56	19064
2026-01-26 10:47:48.77	243.22	9.40	-42.3	-44.9	6.2	0.00e+00	0	55	104	0	56	19084
2026-01-26 10:47:49.78	243.12	9.30	-42.3	-44.9	6.2	0.00e+00	0	56	104	0	56	19105
2026-01-26 10:47:50.79	243.02	9.21	-42.3	-44.9	6.2	0.00e+00	0	56	104	0	56	19099
2026-01-26 10:47:51.80	242.93	9.12	-42.3	-44.9	6.2	0.00e+00	0	56	104	0	56	19110
2026-01-26 10:47:52.82	242.83	9.02	-42.3	-44.9	6.2	0.00e+00	0	55	104	0	56	19126
2026-01-26 10:47:53.83	242.74	8.93	-42.3	-44.9	6.2	0.00e+00	0	55	104	0	56	19143
2026-01-26 10:47:54.84	242.64	8.84	-42.3	-44.9	6.2	0.00e+00	0	56	104	0	56	19124
2026-01-26 10:47:55.85	242.55	8.75	-42.3	-44.9	6.2	0.00e+00	0	56	104	0	56	19108
2026-01-26 10:47:56.86	242.46	8.65	-42.3	-44.9	6.2	0.00e+00	0	56	104	0	56	19124
2026-01-26 10:47:57.87	242.37	8.56	-42.3	-44.9	6.2	0.00e+00	0	55	104	0	56	19091
2026-01-26 10:47:58.88	242.28	8.47	-42.3	-44.9	6.2	0.00e+00	0	56	104	0	56	19127
2026-01-26 10:47:59.89	242.19	8.38	-42.3	-44.9	6.2	0.00e+00	0	55	104	0	56	19151
2026-01-26 10:48:00.90	242.10	8.29	-42.3	-44.9	6.2	0.00e+00	0	56	104	0	56	19074
2026-01-26 10:48:01.91	242.01	8.20	-42.3	-44.9	6.2	0.00e+00	0	56	104	0	56	19112
2026-01-26 10:48:02.92	241.92	8.11	-42.3	-44.9	6.2	0.00e+00	0	56	104	0	56	19073
2026-01-26 10:48:03.93	241.83	8.02	-42.3	-44.9	6.2	0.00e+00	0	56	104	0	56	19134
2026-01-26 10:48:04.94	241.75	7.94	-42.3	-44.9	6.2	0.00e+00	0	55	104	0	56	19113
2026-01-26 10:48:05.95	241.66	7.85	-42.3	-44.9	6.2	0.00e+00	0	56	104	0	56	19131
2026-01-26 10:48:06.96	241.58	7.76	-42.3	-44.9	6.2	0.00e+00	0	56	104	0	56	19086
2026-01-26 10:48:07.97	241.49	7.67	-42.3	-44.9	6.2	0.00e+00	0	56	104	0	56	19116
2026-01-26 10:48:08.98	241.41	7.58	-42.3	-44.9	6.2	0.00e+00	0	56	104	0	56	19080
2026-01-26 10:48:09.99	241.33	7.50	-42.3	-44.9	6.2	0.00e+00	0	56	104	0	56	19144
2026-01-26 10:48:11.00	241.24	7.41	-42.3	-44.9	6.2	0.00e+00	0	56	104	0	56	19086
2026-01-26 10:48:12.01	241.16	7.32	-42.3	-44.9	6.2	0.00e+00	0	55	104	0	56	19097
2026-01-26 10:48:13.02	241.08	7.24	-42.3	-44.9	6.2	0.00e+00	0	56	104	0	56	19105
2026-01-26 10:48:14.03	241.00	7.15	-42.3	-44.9	6.2	0.00e+00	0	56	104	0	56	19099
2026-01-26 10:48:15.04	240.92	7.07	-42.3	-44.9	6.2	0.00e+00	0	56	104	0	56	19071
2026-01-26 10:48:16.05	240.84	6.98	-42.3	-44.9	6.2	0.00e+00	0	56	104	0	56	19123
2026-01-26 10:48:17.06	240.76	6.90	-42.3	-44.9	6.2	0.00e+00	0	56	104	0	56	19087
2026-01-26 10:48:18.07	240.68	6.81	-42.3	-44.9	6.2	0.00e+00	0	56	104	0	56	19092
2026-01-26 10:48:19.08	240.60	6.73	-42.3	-44.9	6.2	0.00e+00	0	56	104	0	56	19117
2026-01-26 10:48:20.09	240.53	6.65	-42.3	-44.9	6.2	0.00e+00	0	56	104	0	56	19151
2026-01-26 10:48:21.10	240.45	6.56	-42.3	-44.9	6.2	0.00e+00	0	56	104	0	56	19099
2026-01-26 10:48:22.11	240.37	6.48	-42.3	-44.9	6.2	0.00e+00	0	56	104	0	56	19100
2026-01-26 10:48:23.12	240.30	6.40	-42.3	-44.9	6.2	0.00e+00	0	56	104	0	56	19171
2026-01-26 10:48:24.14	240.22	6.32	-43.1	-45.7	6.2	0.00e+00	0	56	104	0	56	20941
2026-01-26 10:48:25.15	240.15	6.23	-43.3	-45.9	6.2	0.00e+00	0	56	104	0	57	20190
2026-01-26 10:48:26.16	240.08	6.15	-43.3	-45.9	6.2	0.00e+00	0	56	104	0	57	20207
2026-01-26 10:48:27.17	240.00	6.07	-43.3	-45.9	6.2	0.00e+00	0	56	104	0	57	20245
2026-01-26 10:48:28.18	239.93	5.99	-43.3	-45.9	6.2	0.00e+00	0	56	104	0	57	20175
2026-01-26 10:48:29.19	239.86	5.91	-43.3	-45.9	6.2	0.00e+00	0	56	104	0	57	20192
2026-01-26 10:48:30.20	239.79	5.83	-43.3	-45.9	6.2	0.00e+00	0	56	104	0	57	20213
2026-01-26 10:48:31.21	239.71	5.75	-43.3	-45.8	6.2	0.00e+00	0	56	104	0	57	20138
2026-01-26 10:48:32.22	239.64	5.67	-43.3	-45.9	6.2	0.00e+00	0	56	104	0	57	20195
2026-01-26 10:48:33.23	239.57	5.59	-43.3	-45.9	6.2	0.00e+00	0	56	104	0	57	20191
2026-01-26 10:48:34.24	239.50	5.51	-43.3	-45.9	6.2	0.00e+00	0	56	104	0	57	20203
2026-01-26 10:48:35.25	239.43	5.43	-43.3	-45.9	6.2	0.00e+00	0	56	104	0	57	20184
2026-01-26 10:48:36.26	239.37	5.35	-43.3	-45.9	6.2	0.00e+00	0	56	104	0	57	20225
2026-01-26 10:48:37.27	239.30	5.27	-43.3	-45.8	6.2	0.00e+00	0	56	104	0	57	20152
2026-01-26 10:48:38.28	239.23	5.19	-43.3	-45.9	6.2	0.00e+00	0	56	104	0	57	20222
2026-01-26 10:48:39.29	239.16	5.12	-43.3	-45.8	6.2	0.00e+00	0	56	104	0	57	20158
2026-01-26 10:48:40.30	239.10	5.04	-43.3	-45.9	6.2	0.00e+00	0	56	104	0	57	20216
2026-01-26 10:48:41.31	239.03	4.96	-43.3	-45.9	6.2	0.00e+00	0	56	104	0	57	20240
2026-01-26 10:48:42.32	238.96	4.88	-43.3	-45.8	6.2	0.00e+00	0	56	104	0	57	20162
2026-01-26 10:48:43.33	238.90	4.81	-43.3	-45.9	6.2	0.00e+00	0	56	104	0	57	20216
2026-01-26 10:48:44.34	238.83	4.73	-43.3	-45.9	6.2	0.00e+00	0	56	104	0	57	20209
2026-01-26 10:48:45.35	238.77	4.65	-43.3	-45.8	6.2	0.00e+00	0	55	104	0	57	20151
2026-01-26 10:48:46.36	238.71	4.58	-43.3	-45.8	6.2	0.00e+00	0	56	104	0	57	20162
2026-01-26 10:48:47.37	238.64	4.50	-43.3	-45.9	6.2	0.00e+00	0	55	104	0	57	20176
2026-01-26 10:48:48.38	238.58	4.43	-43.3	-45.9	6.2	0.00e+00	0	56	104	0	57	20188
2026-01-26 10:48:49.39	238.52	4.35	-43.3	-45.9	6.2	0.00e+00	0	56	104	0	57	20184
2026-01-26 10:48:50.40	238.45	4.28	-43.3	-45.9	6.2	0.00e+00	0	56	104	0	57	20181
2026-01-26 10:48:51.41	238.39	4.20	-43.3	-45.8	6.2	0.00e+00	0	56	104	0	57	20147
2026-01-26 10:48:52.42	238.33	4.13	-43.3	-45.8	6.2	0.00e+00	0	56	104	0	57	20148
2026-01-26 10:48:53.44	238.27	4.05	-43.3	-45.8	6.2	0.00e+00	0	56	104	0	57	20128
2026-01-26 10:48:54.44	238.21	3.98	-43.3	-45.9	6.2	0.00e+00	0	56	104	0	57	20165
2026-01-26 10:48:55.46	238.15	3.90	-43.3	-45.8	6.2	0.00e+00	0	55	104	0	57	20141
2026-01-26 10:48:56.47	238.09	3.83	-43.3	-45.8	6.2	0.00e+00	0	55	104	0	57	20123
2026-01-26 10:48:57.48	238.03	3.76	-43.3	-45.9	6.2	0.00e+00	0	56	104	0	57	20168
2026-01-26 10:48:58.49	237.97	3.68	-43.3	-45.8	6.2	0.00e+00	0	56	104	0	57	20140
2026-01-26 10:48:59.50	237.91	3.61	-43.3	-45.9	6.2	0.00e+00	0	56	104	0	57	20179
2026-01-26 10:49:00.51	237.85	3.54	-43.3	-45.9	6.2	0.00e+00	0	56	104	0	57	20218
2026-01-26 10:49:01.52	237.79	3.47	-43.3	-45.8	6.2	0.00e+00	0	56	104	0	57	20154
2026-01-26 10:49:02.53	237.74	3.39	-43.3	-45.8	6.2	0.00e+00	0	56	104	0	57	20132
2026-01-26 10:49:03.54	237.68	3.32	-43.3	-45.9	6.2	0.00e+00	0	56	104	0	57	20191
2026-01-26 10:49:04.55	237.62	3.25	-43.3	-45.9	6.2	0.00e+00	0	56	104	0	57	20170
2026-01-26 10:49:05.56	237.57	3.18	-43.3	-45.8	6.2	0.00e+00	0	56	104	0	57	20106
2026-01-26 10:49:06.57	237.51	3.11	-43.3	-45.8	6.2	0.00e+00	0	56	104	0	57	20146
2026-01-26 10:49:07.58	237.45	3.04	-43.3	-45.9	6.2	0.00e+00	0	56	104	0	57	20171
2026-01-26 10:49:08.59	237.40	2.96	-43.6	-46.1	6.2	0.00e+00	0	56	104	0	57	20796
2026-01-26 10:49:09.60	237.34	2.89	-43.6	-46.2	6.2	0.00e+00	0	56	104	0	57	21002
2026-01-26 10:49:10.61	237.29	2.82	-43.6	-46.2	6.2	0.00e+00	0	56	104	0	57	20957
2026-01-26 10:49:11.62	237.24	2.75	-43.6	-46.2	6.2	0.00e+00	0	56	104	0	57	20896
2026-01-26 10:49:12.63	237.18	2.68	-43.6	-46.2	6.2	0.00e+00	0	56	104	0	57	20875
2026-01-26 10:49:13.64	237.13	2.61	-43.6	-46.2	6.2	0.00e+00	0	56	104	0	57	20875
2026-01-26 10:49:14.65	237.08	2.54	-43.6	-46.2	6.2	0.00e+00	0	56	104	0	57	20924
2026-01-26 10:49:15.66	237.02	2.47	-43.6	-46.2	6.2	0.00e+00	0	56	104	0	57	20914
2026-01-26 10:49:16.67	236.97	2.40	-43.6	-46.1	6.2	0.00e+00	0	56	104	0	57	20872
2026-01-26 10:49:17.68	236.92	2.34	-43.6	-46.1	6.2	0.00e+00	0	56	104	0	57	20867
2026-01-26 10:49:18.69	236.87	2.27	-43.6	-46.2	6.2	0.00e+00	0	56	104	0	57	20978
2026-01-26 10:49:19.70	236.81	2.20	-43.6	-46.2	6.2	0.00e+00	0	55	104	0	57	20893
2026-01-26 10:49:20.71	236.76	2.13	-43.6	-46.2	6.2	0.00e+00	0	55	104	0	57	20891
2026-01-26 10:49:21.72	236.71	2.06	-43.6	-46.2	6.2	0.00e+00	0	55	104	0	57	20963

#Closed at: 2026-01-26 10:49:22
#Recorded file [0 MB]: D:/lorett/data/31045_260126_133911.dat