passes_logs/2026/01/26/R3.2S_Murmansk_2ch/R3.2S_Murmansk_2ch__20260126_213428_JL1KF02B03_rec.log

#Pass ID: 20260126_213428_JL1KF02B03
#Satellite: JL1KF02B03
#Configuration: 01B_900M
#almurnet v.1.7.20251203
#Start time: 2026-01-26 21:34:28

#Version: 2.2.20260125
#Station: R3.2S_Murmansk_2ch
#Location: 33.079688 lon 68.888172 lat
#TLE: 1 61190U 24169B   26025.63038829  .00007757  00000+0  48594-3 0  9991
#TLE: 2 61190  97.5617 116.6103 0014983 146.0369 214.1822 15.09544070 74327

#Time	Az	El	Level	Level2	SNR	BER	BlckErr	Temp	State	Recorded	gain1	gain2
2026-01-26 21:34:28.97	205.93	2.04	-48.3	-50.9	6.2	0.00e+00	0	45	0	0	67	20238
2026-01-26 21:34:29.94	206.01	2.10	-48.2	-50.8	6.2	0.00e+00	0	45	104	0	68	18832
2026-01-26 21:34:30.90	206.09	2.16	-48.2	-50.7	6.2	0.00e+00	0	45	104	0	68	18804
2026-01-26 21:34:31.87	206.17	2.22	-48.2	-50.7	6.2	0.00e+00	0	45	104	0	68	18802
2026-01-26 21:34:32.84	206.25	2.28	-48.2	-50.8	6.2	0.00e+00	0	45	104	0	68	18862
2026-01-26 21:34:33.81	206.33	2.34	-48.2	-50.8	6.2	0.00e+00	0	45	104	0	68	18888
2026-01-26 21:34:34.79	206.42	2.40	-48.4	-50.9	6.2	0.00e+00	0	45	104	0	68	19219
2026-01-26 21:34:35.76	206.50	2.46	-48.5	-51.0	6.2	0.00e+00	0	45	104	0	68	19457
2026-01-26 21:34:36.72	206.58	2.52	-48.6	-51.1	6.2	0.00e+00	0	45	104	0	68	19538
2026-01-26 21:34:37.69	206.67	2.58	-48.6	-51.1	6.2	0.00e+00	0	45	104	0	68	19602
2026-01-26 21:34:38.67	206.75	2.64	-48.6	-51.1	6.2	0.00e+00	0	45	104	0	68	19667
2026-01-26 21:34:39.64	206.84	2.70	-48.6	-51.1	6.2	0.00e+00	0	45	104	0	68	19569
2026-01-26 21:34:40.62	206.92	2.76	-48.5	-51.1	6.2	0.00e+00	0	45	104	0	68	19490
2026-01-26 21:34:41.59	207.01	2.83	-48.5	-51.0	6.2	0.00e+00	0	45	104	0	68	19438
2026-01-26 21:34:42.56	207.09	2.89	-48.5	-51.0	6.2	0.00e+00	0	45	104	0	68	19330
2026-01-26 21:34:43.53	207.18	2.95	-48.4	-51.0	6.2	0.00e+00	0	45	104	0	68	19267
2026-01-26 21:34:44.50	207.27	3.01	-48.4	-50.9	6.2	0.00e+00	0	45	104	0	68	19227
2026-01-26 21:34:45.47	207.35	3.07	-48.4	-50.9	6.2	0.00e+00	0	46	104	0	68	19129
2026-01-26 21:34:46.44	207.44	3.13	-48.3	-50.9	6.2	0.00e+00	0	46	104	0	68	19056
2026-01-26 21:34:47.41	207.53	3.19	-48.3	-50.8	6.2	0.00e+00	0	45	104	0	68	18890
2026-01-26 21:34:48.37	207.62	3.26	-48.2	-50.7	6.2	0.00e+00	0	45	104	0	68	18759
2026-01-26 21:34:49.34	207.71	3.32	-48.1	-50.7	6.2	0.00e+00	0	45	104	0	68	18635
2026-01-26 21:34:50.31	207.80	3.38	-48.1	-50.6	6.2	0.00e+00	0	45	104	0	68	18544
2026-01-26 21:34:51.28	207.89	3.44	-48.0	-50.5	6.2	0.00e+00	0	45	104	0	68	18382
2026-01-26 21:34:52.24	207.97	3.50	-48.0	-50.5	6.2	0.00e+00	0	46	104	0	67	19396
2026-01-26 21:34:53.21	208.07	3.57	-47.9	-50.4	6.2	0.00e+00	0	46	104	0	67	19252
2026-01-26 21:34:54.18	208.16	3.63	-47.8	-50.3	6.2	0.00e+00	0	46	104	0	67	18905
2026-01-26 21:34:55.15	208.25	3.69	-47.6	-50.1	6.2	0.00e+00	0	45	104	0	67	18579
2026-01-26 21:34:56.12	208.34	3.75	-47.3	-49.8	6.2	0.00e+00	0	45	104	0	66	18999
2026-01-26 21:34:57.09	208.43	3.82	-46.9	-49.4	6.2	0.00e+00	0	45	104	0	65	19223
2026-01-26 21:34:58.06	208.53	3.88	-46.9	-49.4	6.2	0.00e+00	0	46	104	0	65	19197
2026-01-26 21:34:59.03	208.62	3.94	-46.9	-49.4	6.2	0.00e+00	0	46	104	0	65	19152
2026-01-26 21:35:00.00	208.71	4.01	-46.9	-49.4	6.2	0.00e+00	0	46	104	0	65	19161
2026-01-26 21:35:00.97	208.81	4.07	-46.9	-49.4	6.2	0.00e+00	0	46	104	0	65	19166
2026-01-26 21:35:01.94	208.90	4.13	-46.9	-49.4	6.2	0.00e+00	0	46	104	0	65	19114
2026-01-26 21:35:02.91	209.00	4.20	-46.9	-49.4	6.2	0.00e+00	0	46	104	0	65	19146
2026-01-26 21:35:03.88	209.09	4.26	-46.9	-49.4	6.2	0.00e+00	0	46	104	0	65	19125
2026-01-26 21:35:04.85	209.19	4.33	-46.8	-49.4	6.2	0.00e+00	0	46	104	0	65	19169
2026-01-26 21:35:05.82	209.29	4.39	-46.8	-49.4	6.2	0.00e+00	0	46	104	0	65	19102
2026-01-26 21:35:06.79	209.39	4.46	-46.8	-49.4	6.2	0.00e+00	0	46	104	0	65	19134
2026-01-26 21:35:07.76	209.48	4.52	-46.8	-49.3	6.2	0.00e+00	0	46	104	0	65	19018
2026-01-26 21:35:08.73	209.58	4.58	-46.8	-49.4	6.2	0.00e+00	0	46	104	0	65	19122
2026-01-26 21:35:09.70	209.68	4.65	-46.8	-49.4	6.2	0.00e+00	0	46	104	0	65	19063
2026-01-26 21:35:10.67	209.78	4.71	-46.8	-49.4	6.2	0.00e+00	0	46	104	0	65	19135
2026-01-26 21:35:11.64	209.88	4.78	-46.8	-49.4	6.2	0.00e+00	0	46	104	0	65	19169
2026-01-26 21:35:12.61	209.98	4.84	-46.8	-49.4	6.2	0.00e+00	0	46	104	0	65	19094
2026-01-26 21:35:13.58	210.08	4.91	-46.8	-49.4	6.2	0.00e+00	0	46	104	0	65	19124
2026-01-26 21:35:14.55	210.18	4.98	-46.8	-49.4	6.2	0.00e+00	0	46	104	0	65	19083
2026-01-26 21:35:15.51	210.29	5.04	-47.0	-49.6	6.2	0.00e+00	0	46	104	0	65	19489
2026-01-26 21:35:16.48	210.39	5.11	-46.8	-49.3	6.2	0.00e+00	0	46	104	0	65	19024
2026-01-26 21:35:17.45	210.49	5.17	-46.8	-49.4	6.2	0.00e+00	0	46	104	0	65	19180
2026-01-26 21:35:18.41	210.59	5.24	-46.8	-49.4	6.2	0.00e+00	0	46	104	0	65	19169
2026-01-26 21:35:19.38	210.70	5.30	-46.8	-49.3	6.2	0.00e+00	0	46	104	0	65	18988
2026-01-26 21:35:20.35	210.80	5.37	-46.7	-49.3	6.2	0.00e+00	0	46	104	0	65	18828
2026-01-26 21:35:21.32	210.91	5.44	-46.8	-49.4	6.2	0.00e+00	0	46	104	0	65	19098
2026-01-26 21:35:22.28	211.01	5.50	-46.9	-49.4	6.2	0.00e+00	0	46	104	0	65	19089
2026-01-26 21:35:23.25	211.12	5.57	-46.8	-49.3	6.2	0.00e+00	0	46	104	0	65	19012
2026-01-26 21:35:24.22	211.23	5.64	-46.7	-49.3	6.2	0.00e+00	0	46	104	0	65	18942
2026-01-26 21:35:25.20	211.34	5.70	-46.8	-49.3	6.2	0.00e+00	0	46	104	0	65	18966
2026-01-26 21:35:26.17	211.45	5.77	-46.9	-49.4	6.2	0.00e+00	0	46	104	0	65	19232
2026-01-26 21:35:27.14	211.56	5.84	-46.8	-49.4	6.2	0.00e+00	0	46	104	0	65	19082
2026-01-26 21:35:28.11	211.66	5.91	-46.7	-49.3	6.2	0.00e+00	0	46	104	0	65	18891
2026-01-26 21:35:29.08	211.77	5.97	-46.8	-49.3	6.2	0.00e+00	0	46	104	0	65	18938
2026-01-26 21:35:30.05	211.89	6.04	-46.9	-49.4	6.2	0.00e+00	0	46	104	0	65	19235
2026-01-26 21:35:31.02	212.00	6.11	-46.8	-49.4	6.2	0.00e+00	0	46	104	0	65	19144
2026-01-26 21:35:31.99	212.11	6.18	-46.8	-49.3	6.2	0.00e+00	0	46	104	0	65	18948
2026-01-26 21:35:32.96	212.22	6.25	-46.8	-49.3	6.2	0.00e+00	0	46	104	0	65	18977
2026-01-26 21:35:33.93	212.34	6.32	-46.9	-49.5	6.2	0.00e+00	0	46	104	0	65	19305
2026-01-26 21:35:34.91	212.45	6.39	-46.9	-49.4	6.2	0.00e+00	0	46	104	0	65	19184
2026-01-26 21:35:35.88	212.56	6.45	-46.8	-49.4	6.2	0.00e+00	0	46	104	0	65	19095
2026-01-26 21:35:36.85	212.68	6.52	-46.8	-49.3	6.2	0.00e+00	0	46	104	0	65	19014
2026-01-26 21:35:37.82	212.80	6.59	-46.9	-49.5	6.2	0.00e+00	0	46	104	0	65	19302
2026-01-26 21:35:38.78	212.91	6.66	-46.9	-49.5	6.2	0.00e+00	0	46	104	0	65	19295
2026-01-26 21:35:39.75	213.03	6.73	-46.8	-49.4	6.2	0.00e+00	0	46	104	0	65	19095
2026-01-26 21:35:40.72	213.15	6.80	-46.8	-49.3	6.2	0.00e+00	0	47	104	0	65	19034
2026-01-26 21:35:41.69	213.26	6.87	-47.0	-49.5	6.2	0.00e+00	0	46	104	0	65	19405
2026-01-26 21:35:42.66	213.38	6.94	-46.9	-49.5	6.2	0.00e+00	0	46	104	0	65	19258
2026-01-26 21:35:43.63	213.50	7.01	-46.9	-49.4	6.2	0.00e+00	0	47	104	0	65	19185
2026-01-26 21:35:44.61	213.63	7.08	-46.8	-49.4	6.2	0.00e+00	0	47	104	0	65	19105
2026-01-26 21:35:45.58	213.75	7.15	-47.0	-49.5	6.2	0.00e+00	0	47	104	0	65	19403
2026-01-26 21:35:46.54	213.87	7.22	-46.9	-49.5	6.2	0.00e+00	0	47	104	0	65	19369
2026-01-26 21:35:47.52	213.99	7.29	-46.9	-49.4	6.2	0.00e+00	0	47	104	0	65	19232
2026-01-26 21:35:48.49	214.11	7.36	-46.9	-49.4	6.2	0.00e+00	0	47	104	0	65	19219
2026-01-26 21:35:49.46	214.24	7.43	-47.0	-49.5	6.2	0.00e+00	0	47	104	0	65	19370
2026-01-26 21:35:50.43	214.36	7.50	-47.0	-49.5	6.2	0.00e+00	0	47	104	0	65	19419
2026-01-26 21:35:51.40	214.49	7.58	-46.9	-49.5	6.2	0.00e+00	0	47	104	0	65	19300
2026-01-26 21:35:52.37	214.61	7.65	-46.9	-49.4	6.2	0.00e+00	0	47	104	0	65	19236
2026-01-26 21:35:53.34	214.74	7.72	-46.9	-49.5	6.2	0.00e+00	0	47	104	0	65	19443
2026-01-26 21:35:54.31	214.87	7.79	-47.0	-49.6	6.2	0.00e+00	0	47	104	0	65	19483
2026-01-26 21:35:55.28	215.00	7.86	-46.9	-49.5	6.2	0.00e+00	0	46	104	0	65	19442
2026-01-26 21:35:56.25	215.13	7.94	-46.9	-49.5	6.2	0.00e+00	0	47	104	0	65	19313
2026-01-26 21:35:57.22	215.26	8.01	-46.9	-49.5	6.2	0.00e+00	0	47	104	0	65	19385
2026-01-26 21:35:58.19	215.39	8.08	-47.0	-49.6	6.2	0.00e+00	0	47	104	0	65	19493
2026-01-26 21:35:59.16	215.52	8.15	-47.0	-49.5	6.2	0.00e+00	0	47	104	0	65	19316
2026-01-26 21:36:00.13	215.65	8.23	-46.9	-49.5	6.2	0.00e+00	0	47	104	0	65	19386
2026-01-26 21:36:01.10	215.78	8.30	-46.9	-49.5	6.2	0.00e+00	0	47	104	0	65	19335
2026-01-26 21:36:02.06	215.92	8.37	-47.0	-49.6	6.2	0.00e+00	0	47	104	0	65	19605
2026-01-26 21:36:03.03	216.05	8.44	-47.0	-49.6	6.2	0.00e+00	0	47	104	0	65	19522
2026-01-26 21:36:04.00	216.19	8.52	-47.0	-49.5	6.2	0.00e+00	0	47	104	0	65	19413
2026-01-26 21:36:04.97	216.32	8.59	-47.0	-49.5	6.2	0.00e+00	0	47	104	0	65	19394
2026-01-26 21:36:05.94	216.46	8.66	-47.1	-49.6	6.2	0.00e+00	0	47	104	0	65	19625
2026-01-26 21:36:06.91	216.60	8.74	-47.0	-49.6	6.2	0.00e+00	0	47	104	0	65	19488
2026-01-26 21:36:07.88	216.73	8.81	-47.0	-49.5	6.2	0.00e+00	0	47	104	0	65	19448
2026-01-26 21:36:08.85	216.87	8.89	-47.0	-49.5	6.2	0.00e+00	0	47	104	0	65	19413
2026-01-26 21:36:09.82	217.01	8.96	-47.1	-49.6	6.2	0.00e+00	0	47	104	0	65	19639
2026-01-26 21:36:10.78	217.15	9.03	-47.1	-49.6	6.2	0.00e+00	0	47	104	0	65	19601
2026-01-26 21:36:11.75	217.30	9.11	-47.0	-49.6	6.2	0.00e+00	0	47	104	0	65	19509
2026-01-26 21:36:12.72	217.44	9.18	-47.0	-49.5	6.2	0.00e+00	0	47	104	0	65	19435
2026-01-26 21:36:13.69	217.58	9.26	-47.1	-49.6	6.2	0.00e+00	0	47	104	0	65	19691
2026-01-26 21:36:14.66	217.73	9.33	-47.0	-49.5	6.2	0.00e+00	0	47	104	0	64	20586
2026-01-26 21:36:15.63	217.87	9.41	-29.5	-33.6	6.2	0.00e+00	0	47	104	0	29	24693
2026-01-26 21:36:16.60	218.02	9.48	-25.7	-25.8	15.7	2.67e-05	0	47	0	16777216	23	14112
2026-01-26 21:36:17.57	218.16	9.56	-25.6	-25.6	15.9	3.43e-05	0	47	0	125829120	23	13942
2026-01-26 21:36:18.53	218.31	9.63	-25.6	-25.6	15.9	3.24e-05	0	47	0	234881024	23	13913
2026-01-26 21:36:19.50	218.46	9.71	-25.4	-25.4	15.9	1.90e-05	0	47	0	343932928	22	14426
2026-01-26 21:36:20.46	218.61	9.79	-25.5	-25.5	15.8	1.33e-05	0	47	0	452984832	22	14537
2026-01-26 21:36:21.43	218.76	9.86	-25.4	-25.5	15.9	2.28e-05	0	47	0	562036736	22	14483
2026-01-26 21:36:22.40	218.91	9.94	-25.4	-25.4	15.9	2.09e-05	0	47	0	671088640	22	14408
2026-01-26 21:36:23.37	219.06	10.01	-25.4	-25.5	15.9	1.90e-05	0	47	0	780140544	22	14543
2026-01-26 21:36:24.34	219.22	10.09	-25.3	-25.4	16.0	2.67e-05	0	47	0	889192448	22	14338
2026-01-26 21:36:25.32	219.37	10.17	-25.4	-25.5	15.9	3.43e-05	0	47	0	998244352	22	14482
2026-01-26 21:36:26.29	219.53	10.24	-25.3	-25.4	16.0	1.33e-05	0	47	0	1107296256	22	14332
2026-01-26 21:36:27.26	219.68	10.32	-25.2	-25.3	16.0	1.33e-05	0	47	0	1216348160	22	14142
2026-01-26 21:36:28.23	219.84	10.40	-25.3	-25.3	16.0	2.09e-05	0	47	0	1325400064	22	14271
2026-01-26 21:36:29.19	220.00	10.48	-25.3	-25.3	15.9	1.52e-05	0	47	0	1434451968	22	14244
2026-01-26 21:36:30.16	220.16	10.55	-25.3	-25.3	16.0	1.71e-05	0	47	0	1543503872	22	14253
2026-01-26 21:36:31.13	220.32	10.63	-25.3	-25.4	15.9	3.05e-05	0	47	0	1652555776	22	14278
2026-01-26 21:36:32.10	220.48	10.71	-25.1	-25.2	16.0	1.71e-05	0	47	0	1761607680	22	13952
2026-01-26 21:36:33.07	220.64	10.79	-25.2	-25.2	16.0	1.71e-05	0	47	0	1870659584	22	14098
2026-01-26 21:36:34.05	220.80	10.86	-25.2	-25.3	16.0	2.47e-05	0	47	0	1979711488	22	14145
2026-01-26 21:36:35.02	220.97	10.94	-25.3	-25.4	16.0	1.33e-05	0	47	0	2088763392	22	14331
2026-01-26 21:36:35.99	221.13	11.02	-25.3	-25.3	16.0	1.52e-05	0	47	0	2197815296	22	14238
2026-01-26 21:36:36.95	221.30	11.10	-25.2	-25.2	16.0	1.90e-05	0	47	0	2306867200	22	14057
2026-01-26 21:36:37.93	221.47	11.18	-25.1	-25.2	16.0	1.90e-05	0	47	0	2415919104	22	14037
2026-01-26 21:36:38.90	221.63	11.26	-25.2	-25.3	15.9	2.09e-05	0	47	0	2524971008	22	14134
2026-01-26 21:36:39.87	221.80	11.34	-25.2	-25.2	16.0	1.52e-05	0	47	0	2642411520	22	14047
2026-01-26 21:36:40.84	221.97	11.41	-25.2	-25.2	16.0	1.14e-05	0	48	0	2743074816	22	14053
2026-01-26 21:36:41.81	222.14	11.49	-25.1	-25.2	16.0	1.90e-05	0	48	0	2860515328	22	14009
2026-01-26 21:36:42.78	222.32	11.57	-24.9	-24.9	16.1	1.14e-05	0	47	0	2961178624	21	14389
2026-01-26 21:36:43.75	222.49	11.65	-24.9	-24.9	16.1	5.70e-06	0	48	0	3070230528	21	14437
2026-01-26 21:36:44.72	222.66	11.73	-25.0	-25.0	16.0	1.14e-05	0	48	0	3187671040	21	14550
2026-01-26 21:36:45.69	222.84	11.81	-24.9	-24.9	16.1	5.70e-06	0	48	0	3288334336	21	14378
2026-01-26 21:36:46.66	223.02	11.89	-24.8	-24.9	16.1	1.14e-05	0	48	0	3397386240	21	14316
2026-01-26 21:36:47.63	223.20	11.97	-24.9	-24.9	16.0	1.33e-05	0	48	0	3506438144	21	14411
2026-01-26 21:36:48.60	223.37	12.05	-25.0	-25.1	15.9	2.47e-05	0	48	0	3615490048	21	14628
2026-01-26 21:36:49.57	223.55	12.13	-24.8	-24.8	16.1	5.70e-06	0	48	0	3732930560	21	14193
2026-01-26 21:36:50.54	223.74	12.21	-24.7	-24.8	16.1	2.28e-05	0	48	0	3833593856	21	14170
2026-01-26 21:36:51.51	223.92	12.29	-24.7	-24.8	16.1	3.80e-06	0	48	0	3942645760	21	14167
2026-01-26 21:36:52.48	224.10	12.37	-24.6	-24.7	16.1	9.50e-06	0	47	0	4060086272	21	14011
2026-01-26 21:36:53.45	224.29	12.45	-24.6	-24.7	16.1	1.14e-05	0	47	0	4160749568	21	14023
2026-01-26 21:36:54.41	224.47	12.53	-24.7	-24.8	16.1	1.14e-05	0	48	0	4269801472	21	14114
2026-01-26 21:36:55.39	224.66	12.61	-24.6	-24.7	16.1	1.71e-05	0	48	0	4378853376	21	14026
2026-01-26 21:36:56.36	224.85	12.69	-24.5	-24.5	16.2	1.71e-05	0	48	0	4487905280	21	13790
2026-01-26 21:36:57.33	225.04	12.77	-24.4	-24.5	16.1	1.14e-05	0	48	0	4605345792	20	14509
2026-01-26 21:36:58.30	225.23	12.85	-24.6	-24.6	16.1	3.80e-06	0	48	0	4706009088	20	14733
2026-01-26 21:36:59.27	225.42	12.93	-24.4	-24.5	16.2	9.50e-06	0	48	0	4823449600	20	14481
2026-01-26 21:37:00.23	225.61	13.01	-24.5	-24.6	16.2	2.09e-05	0	48	0	4924112896	20	14685
2026-01-26 21:37:01.21	225.81	13.10	-24.5	-24.5	16.1	5.70e-06	0	48	0	5033164800	20	14604
2026-01-26 21:37:02.18	226.00	13.18	-24.4	-24.4	16.2	1.14e-05	0	48	0	5150605312	20	14406
2026-01-26 21:37:03.15	226.20	13.26	-24.4	-24.4	16.2	9.50e-06	0	48	0	5251268608	20	14361
2026-01-26 21:37:04.12	226.40	13.34	-24.4	-24.5	16.2	5.70e-06	0	48	0	5368709120	20	14457
2026-01-26 21:37:05.09	226.59	13.42	-24.4	-24.4	16.2	1.14e-05	0	48	0	5469372416	20	14421
2026-01-26 21:37:06.06	226.80	13.50	-24.3	-24.4	16.2	1.14e-05	0	48	0	5578424320	20	14325
2026-01-26 21:37:07.03	227.00	13.58	-24.4	-24.4	16.1	7.60e-06	0	48	0	5695864832	20	14419
2026-01-26 21:37:08.00	227.20	13.67	-24.3	-24.4	16.2	7.60e-06	0	48	0	5796528128	20	14312
2026-01-26 21:37:08.97	227.40	13.75	-24.3	-24.4	16.1	1.33e-05	0	48	0	5913968640	20	14349
2026-01-26 21:37:09.94	227.61	13.83	-24.4	-24.4	16.1	1.52e-05	0	48	0	6023020544	20	14398
2026-01-26 21:37:10.91	227.82	13.91	-24.3	-24.4	16.1	3.80e-06	0	48	0	6123683840	20	14324
2026-01-26 21:37:11.88	228.02	13.99	-24.2	-24.2	16.2	7.60e-06	0	48	0	6241124352	20	14095
2026-01-26 21:37:12.85	228.23	14.07	-24.1	-24.2	16.2	1.14e-05	0	48	0	6341787648	20	13977
2026-01-26 21:37:13.82	228.44	14.16	-24.2	-24.2	16.2	1.14e-05	0	48	0	6459228160	20	14060
2026-01-26 21:37:14.79	228.66	14.24	-24.2	-24.3	16.2	3.80e-06	0	48	0	6568280064	20	14127
2026-01-26 21:37:15.76	228.87	14.32	-24.1	-24.2	16.2	1.90e-06	0	48	0	6668943360	20	13995
2026-01-26 21:37:16.73	229.08	14.40	-24.0	-24.1	16.2	7.60e-06	0	48	0	6786383872	20	13865
2026-01-26 21:37:17.71	229.30	14.48	-24.1	-24.1	16.2	7.60e-06	0	48	0	6887047168	20	13909
2026-01-26 21:37:18.67	229.52	14.57	-24.0	-24.1	16.2	7.60e-06	0	48	0	7004487680	20	13801
2026-01-26 21:37:19.64	229.74	14.65	-24.1	-24.2	16.2	1.52e-05	0	48	0	7113539584	19	14818
2026-01-26 21:37:20.61	229.96	14.73	-24.2	-24.3	16.1	1.14e-05	0	48	0	7222591488	19	14990
2026-01-26 21:37:21.58	230.18	14.81	-24.1	-24.2	16.2	1.52e-05	0	48	0	7331643392	19	14861
2026-01-26 21:37:22.55	230.40	14.89	-24.0	-24.0	16.3	1.90e-06	0	48	0	7440695296	19	14573
2026-01-26 21:37:23.52	230.63	14.98	-24.1	-24.1	16.3	7.60e-06	0	48	0	7549747200	19	14719
2026-01-26 21:37:24.49	230.85	15.06	-24.0	-24.0	16.3	3.80e-06	0	48	0	7658799104	19	14585
2026-01-26 21:37:25.46	231.08	15.14	-24.0	-24.0	16.3	7.60e-06	0	48	0	7759462400	19	14579
2026-01-26 21:37:26.43	231.31	15.22	-24.0	-24.1	16.2	9.50e-06	0	48	0	7876902912	19	14640
2026-01-26 21:37:27.40	231.54	15.30	-24.0	-24.1	16.3	9.50e-06	0	48	0	7985954816	19	14651
2026-01-26 21:37:28.37	231.77	15.38	-23.9	-24.0	16.2	1.52e-05	0	48	0	8095006720	19	14460
2026-01-26 21:37:29.34	232.00	15.47	-23.9	-23.9	16.3	5.70e-06	0	48	0	8204058624	19	14440
2026-01-26 21:37:30.30	232.23	15.55	-23.9	-23.9	16.3	1.14e-05	0	48	0	8304721920	19	14430
2026-01-26 21:37:31.27	232.47	15.63	-23.9	-23.9	16.3	1.90e-06	0	48	0	8422162432	19	14399
2026-01-26 21:37:32.24	232.71	15.71	-24.0	-24.0	16.2	1.90e-06	0	48	0	8531214336	19	14561
2026-01-26 21:37:33.21	232.95	15.79	-23.9	-23.9	16.2	5.70e-06	0	48	0	8631877632	19	14411
2026-01-26 21:37:34.18	233.19	15.87	-23.8	-23.9	16.3	3.80e-06	0	48	0	8749318144	19	14304
2026-01-26 21:37:35.15	233.43	15.95	-23.7	-23.8	16.3	3.80e-06	0	48	0	8858370048	19	14150
2026-01-26 21:37:36.12	233.67	16.03	-23.8	-23.8	16.3	1.90e-06	0	48	0	8967421952	19	14211
2026-01-26 21:37:37.09	233.91	16.12	-23.7	-23.8	16.3	5.70e-06	0	48	0	9076473856	19	14170
2026-01-26 21:37:38.06	234.16	16.20	-23.7	-23.8	16.3	3.80e-06	0	48	0	9177137152	19	14146
2026-01-26 21:37:39.02	234.41	16.28	-23.6	-23.6	16.4	9.50e-06	0	48	0	9294577664	19	13948
2026-01-26 21:37:39.99	234.65	16.36	-23.7	-23.8	16.3	1.90e-06	0	48	0	9403629568	19	14178
2026-01-26 21:37:40.96	234.91	16.44	-23.6	-23.7	16.3	1.90e-06	0	48	0	9504292864	19	14007
2026-01-26 21:37:41.93	235.16	16.52	-23.5	-23.6	16.3	0.00e+00	0	48	0	9621733376	19	13859
2026-01-26 21:37:42.90	235.41	16.60	-23.5	-23.6	16.3	3.80e-06	0	48	0	9722396672	19	13819
2026-01-26 21:37:43.87	235.67	16.68	-23.6	-23.6	16.3	1.90e-06	0	48	0	9839837184	19	13946
2026-01-26 21:37:44.83	235.92	16.76	-23.5	-23.5	16.4	3.80e-06	0	48	0	9948889088	19	13753
2026-01-26 21:37:45.81	236.18	16.84	-23.5	-23.6	16.4	1.14e-05	0	48	0	10049552384	19	13857
2026-01-26 21:37:46.77	236.44	16.92	-23.4	-23.4	16.4	3.80e-06	0	48	0	10166992896	18	14438
2026-01-26 21:37:47.74	236.70	17.00	-23.5	-23.5	16.3	7.60e-06	0	48	0	10267656192	18	14531
2026-01-26 21:37:48.71	236.96	17.08	-23.4	-23.5	16.4	5.70e-06	0	48	0	10376708096	18	14442
2026-01-26 21:37:49.68	237.23	17.15	-23.4	-23.5	16.3	9.50e-06	0	48	0	10494148608	18	14533
2026-01-26 21:37:50.65	237.49	17.23	-23.4	-23.5	16.3	0.00e+00	0	48	0	10594811904	18	14442
2026-01-26 21:37:51.62	237.76	17.31	-23.5	-23.5	16.3	0.00e+00	0	48	0	10712252416	18	14517
2026-01-26 21:37:52.59	238.03	17.39	-23.4	-23.4	16.3	1.90e-06	0	48	0	10821304320	18	14392
2026-01-26 21:37:53.56	238.30	17.47	-23.3	-23.3	16.4	1.90e-06	0	48	0	10921967616	18	14204
2026-01-26 21:37:54.53	238.57	17.55	-23.3	-23.3	16.4	3.80e-06	0	48	0	11039408128	18	14271
2026-01-26 21:37:55.50	238.85	17.62	-23.3	-23.3	16.4	7.60e-06	0	48	0	11140071424	18	14257
2026-01-26 21:37:56.47	239.12	17.70	-23.3	-23.4	16.3	0.00e+00	0	48	0	11257511936	18	14302
2026-01-26 21:37:57.43	239.40	17.78	-23.3	-23.4	16.3	5.70e-06	0	48	0	11366563840	18	14351
2026-01-26 21:37:58.40	239.67	17.85	-23.4	-23.4	16.4	7.60e-06	0	48	0	11467227136	18	14408
2026-01-26 21:37:59.37	239.95	17.93	-23.3	-23.3	16.4	3.80e-06	0	48	0	11584667648	18	14215
2026-01-26 21:38:00.34	240.24	18.01	-23.4	-23.5	16.4	1.90e-06	0	48	0	11685330944	18	14498
2026-01-26 21:38:01.31	240.52	18.08	-23.2	-23.3	16.4	3.80e-06	0	48	0	11794382848	18	14146
2026-01-26 21:38:02.28	240.80	18.16	-23.2	-23.3	16.3	0.00e+00	0	48	0	11911823360	18	14191
2026-01-26 21:38:03.25	241.09	18.23	-23.4	-23.4	16.3	7.60e-06	0	48	0	12012486656	18	14369
2026-01-26 21:38:04.22	241.38	18.31	-23.4	-23.4	16.4	5.70e-06	0	48	0	12129927168	18	14348
2026-01-26 21:38:05.19	241.67	18.38	-23.3	-23.3	16.4	1.90e-06	0	48	0	12238979072	18	14232
2026-01-26 21:38:06.16	241.96	18.45	-23.2	-23.2	16.4	3.80e-06	0	48	0	12339642368	18	14071
2026-01-26 21:38:07.13	242.25	18.53	-23.0	-23.1	16.4	1.90e-06	0	48	0	12457082880	18	13834
2026-01-26 21:38:08.10	242.55	18.60	-23.1	-23.1	16.4	1.90e-06	0	48	0	12557746176	18	13892
2026-01-26 21:38:09.07	242.84	18.67	-23.2	-23.2	16.4	3.80e-06	0	48	0	12675186688	18	14032
2026-01-26 21:38:10.05	243.14	18.75	-23.0	-23.0	16.4	1.90e-06	0	48	0	12784238592	18	13762
2026-01-26 21:38:11.01	243.44	18.82	-23.0	-23.0	16.3	1.90e-06	0	48	0	12884901888	17	14568
2026-01-26 21:38:11.99	243.74	18.89	-23.0	-23.0	16.3	1.90e-06	0	48	0	13002342400	17	14585
2026-01-26 21:38:12.96	244.04	18.96	-23.1	-23.2	16.3	0.00e+00	0	48	0	13103005696	17	14794
2026-01-26 21:38:13.93	244.35	19.03	-23.0	-23.1	16.3	0.00e+00	0	48	0	13220446208	17	14686
2026-01-26 21:38:14.90	244.65	19.10	-23.0	-23.0	16.3	3.80e-06	0	48	0	13329498112	17	14586
2026-01-26 21:38:15.87	244.96	19.17	-22.9	-23.0	16.5	9.50e-06	0	48	0	13438550016	17	14486
2026-01-26 21:38:16.83	245.26	19.24	-22.9	-22.9	16.4	3.80e-06	0	48	0	13547601920	17	14422
2026-01-26 21:38:17.81	245.58	19.31	-22.8	-22.8	16.4	3.80e-06	0	48	0	13648265216	17	14261
2026-01-26 21:38:18.78	245.89	19.38	-22.9	-22.9	16.4	0.00e+00	0	48	0	13765705728	17	14408
2026-01-26 21:38:19.76	246.21	19.45	-22.8	-22.8	16.4	1.90e-06	0	48	0	13874757632	17	14223
2026-01-26 21:38:20.73	246.52	19.51	-22.8	-22.9	16.4	0.00e+00	0	48	0	13983809536	17	14317
2026-01-26 21:38:21.70	246.84	19.58	-22.9	-22.9	16.3	5.70e-06	0	48	0	14092861440	17	14424
2026-01-26 21:38:22.67	247.15	19.65	-22.8	-22.9	16.3	3.80e-06	0	48	0	14201913344	17	14328
2026-01-26 21:38:23.64	247.47	19.71	-22.7	-22.8	16.4	0.00e+00	0	48	0	14310965248	17	14161
2026-01-26 21:38:24.61	247.79	19.78	-22.9	-22.9	16.3	1.90e-06	0	48	0	14420017152	17	14359
2026-01-26 21:38:25.58	248.12	19.84	-22.7	-22.7	16.4	5.70e-06	0	48	0	14529069056	17	14106
2026-01-26 21:38:26.55	248.44	19.90	-22.8	-22.8	16.4	0.00e+00	0	48	0	14638120960	17	14213
2026-01-26 21:38:27.52	248.77	19.97	-22.8	-22.9	16.3	5.70e-06	0	48	0	14747172864	17	14347
2026-01-26 21:38:28.49	249.09	20.03	-22.7	-22.7	16.3	1.90e-06	0	48	0	14856224768	17	14086
2026-01-26 21:38:29.46	249.42	20.09	-22.7	-22.7	16.3	1.90e-06	0	48	0	14965276672	17	14055
2026-01-26 21:38:30.43	249.75	20.15	-22.7	-22.7	16.3	3.80e-06	0	48	0	15074328576	17	14073
2026-01-26 21:38:31.40	250.08	20.21	-22.7	-22.7	16.4	9.50e-06	0	48	0	15183380480	17	14016
2026-01-26 21:38:32.37	250.41	20.27	-22.6	-22.6	16.4	3.80e-06	0	48	0	15292432384	17	13906
2026-01-26 21:38:33.33	250.74	20.33	-22.7	-22.7	16.3	0.00e+00	0	48	0	15401484288	17	14061
2026-01-26 21:38:34.30	251.08	20.39	-22.8	-22.9	16.2	3.80e-06	0	48	0	15510536192	17	14325
2026-01-26 21:38:35.27	251.42	20.44	-22.7	-22.8	16.4	3.80e-06	0	48	0	15619588096	17	14119
2026-01-26 21:38:36.24	251.75	20.50	-22.6	-22.6	16.4	0.00e+00	0	48	0	15728640000	17	13906
2026-01-26 21:38:37.21	252.09	20.56	-22.6	-22.7	16.5	1.90e-06	0	48	0	15837691904	17	14020
2026-01-26 21:38:38.18	252.43	20.61	-22.6	-22.6	16.5	1.90e-06	0	48	0	15946743808	17	13913
2026-01-26 21:38:39.15	252.78	20.67	-22.5	-22.6	16.4	0.00e+00	0	48	0	16055795712	17	13847
2026-01-26 21:38:40.11	253.12	20.72	-22.4	-22.5	16.4	0.00e+00	0	48	0	16164847616	16	14481
2026-01-26 21:38:41.08	253.46	20.77	-22.5	-22.6	16.4	0.00e+00	0	48	0	16273899520	16	14611
2026-01-26 21:38:42.05	253.81	20.82	-22.5	-22.5	16.5	3.80e-06	0	48	0	16382951424	16	14602
2026-01-26 21:38:43.02	254.15	20.87	-22.4	-22.4	16.4	1.90e-06	0	48	0	16492003328	16	14412
2026-01-26 21:38:43.99	254.50	20.92	-22.4	-22.5	16.4	5.70e-06	0	48	0	16601055232	16	14447
2026-01-26 21:38:44.96	254.85	20.97	-22.5	-22.5	16.4	0.00e+00	0	48	0	16710107136	16	14533
2026-01-26 21:38:45.92	255.20	21.02	-22.3	-22.4	16.4	5.70e-06	0	48	0	16819159040	16	14300
2026-01-26 21:38:46.89	255.55	21.07	-22.4	-22.5	16.3	0.00e+00	0	48	0	16928210944	16	14504
2026-01-26 21:38:47.86	255.90	21.12	-22.7	-22.7	16.3	1.90e-06	0	48	0	17037262848	16	14859
2026-01-26 21:38:48.83	256.26	21.16	-22.4	-22.5	16.3	3.80e-06	0	48	0	17146314752	16	14461
2026-01-26 21:38:49.80	256.61	21.21	-22.5	-22.6	16.2	1.90e-06	0	48	0	17255366656	16	14636
2026-01-26 21:38:50.77	256.97	21.25	-22.6	-22.6	16.3	0.00e+00	0	48	0	17364418560	16	14702
2026-01-26 21:38:51.74	257.33	21.29	-22.4	-22.4	16.3	1.90e-06	0	48	0	17473470464	16	14386
2026-01-26 21:38:52.71	257.69	21.33	-22.4	-22.4	16.3	3.80e-06	0	48	0	17582522368	16	14369
2026-01-26 21:38:53.68	258.05	21.38	-22.4	-22.4	16.3	1.90e-06	0	48	0	17691574272	16	14363
2026-01-26 21:38:54.64	258.41	21.42	-22.3	-22.3	16.3	1.90e-06	0	48	0	17800626176	16	14232
2026-01-26 21:38:55.61	258.77	21.45	-22.3	-22.3	16.3	1.90e-06	0	48	0	17909678080	16	14215
2026-01-26 21:38:56.58	259.13	21.49	-22.3	-22.4	16.3	0.00e+00	0	48	0	18018729984	16	14275
2026-01-26 21:38:57.55	259.49	21.53	-22.3	-22.3	16.3	0.00e+00	0	48	0	18127781888	16	14240
2026-01-26 21:38:58.52	259.86	21.57	-22.3	-22.4	16.3	0.00e+00	0	48	0	18236833792	16	14331
2026-01-26 21:38:59.50	260.23	21.60	-22.3	-22.4	16.3	1.90e-06	0	48	0	18345885696	16	14316
2026-01-26 21:39:00.46	260.59	21.64	-22.3	-22.4	16.3	1.90e-06	0	48	0	18454937600	16	14284
2026-01-26 21:39:01.44	260.96	21.67	-22.2	-22.3	16.4	1.90e-06	0	48	0	18563989504	16	14116
2026-01-26 21:39:02.41	261.33	21.70	-22.3	-22.3	16.4	0.00e+00	0	48	0	18673041408	16	14210
2026-01-26 21:39:03.38	261.70	21.73	-22.2	-22.2	16.3	1.90e-06	0	48	0	18782093312	16	14060
2026-01-26 21:39:04.35	262.07	21.76	-22.3	-22.3	16.4	5.70e-06	0	48	0	18891145216	16	14218
2026-01-26 21:39:05.31	262.44	21.79	-22.3	-22.4	16.3	0.00e+00	0	48	0	19000197120	16	14293
2026-01-26 21:39:06.28	262.81	21.82	-22.3	-22.3	16.3	0.00e+00	0	48	0	19109249024	16	14189
2026-01-26 21:39:07.25	263.18	21.84	-22.3	-22.4	16.3	3.80e-06	0	48	0	19218300928	16	14310
2026-01-26 21:39:08.22	263.56	21.87	-22.2	-22.2	16.3	0.00e+00	0	48	0	19327352832	16	14109
2026-01-26 21:39:09.19	263.93	21.89	-22.2	-22.3	16.4	0.00e+00	0	48	0	19436404736	16	14147
2026-01-26 21:39:10.16	264.30	21.92	-22.2	-22.2	16.4	0.00e+00	0	48	0	19545456640	16	14107
2026-01-26 21:39:11.13	264.68	21.94	-22.3	-22.3	16.3	1.90e-06	0	48	0	19654508544	16	14195
2026-01-26 21:39:12.10	265.05	21.96	-22.2	-22.2	16.4	5.70e-06	0	48	0	19763560448	16	14050
2026-01-26 21:39:13.07	265.43	21.98	-22.2	-22.3	16.3	0.00e+00	0	48	0	19872612352	16	14185
2026-01-26 21:39:14.04	265.81	22.00	-22.3	-22.3	16.4	3.80e-06	0	48	0	19981664256	16	14182
2026-01-26 21:39:15.01	266.18	22.02	-22.2	-22.2	16.4	0.00e+00	0	48	0	20090716160	16	14087
2026-01-26 21:39:15.97	266.56	22.03	-22.3	-22.3	16.3	1.90e-06	0	48	0	20199768064	16	14208
2026-01-26 21:39:16.94	266.94	22.05	-22.3	-22.3	16.3	5.70e-06	0	48	0	20308819968	16	14247
2026-01-26 21:39:17.91	267.31	22.06	-22.2	-22.2	16.4	0.00e+00	0	49	0	20409483264	16	14054
2026-01-26 21:39:18.88	267.69	22.08	-22.2	-22.3	16.3	0.00e+00	0	48	0	20526923776	16	14113
2026-01-26 21:39:19.84	268.07	22.09	-22.2	-22.2	16.3	5.70e-06	0	48	0	20635975680	16	14086
2026-01-26 21:39:20.81	268.45	22.10	-22.3	-22.3	16.3	5.70e-06	0	48	0	20736638976	16	14230
2026-01-26 21:39:21.78	268.83	22.11	-22.2	-22.2	16.4	1.90e-06	0	48	0	20854079488	16	14095
2026-01-26 21:39:22.75	269.21	22.12	-22.2	-22.2	16.4	1.90e-06	0	48	0	20963131392	16	14012
2026-01-26 21:39:23.72	269.59	22.12	-22.2	-22.3	16.4	1.90e-06	0	48	0	21072183296	16	14117
2026-01-26 21:39:24.69	269.97	22.13	-22.3	-22.4	16.3	0.00e+00	0	48	0	21181235200	16	14328
2026-01-26 21:39:25.66	270.35	22.13	-22.2	-22.3	16.2	5.70e-06	0	48	0	21281898496	16	14151
2026-01-26 21:39:26.62	270.72	22.14	-22.2	-22.3	16.3	5.70e-06	0	48	0	21399339008	16	14128
2026-01-26 21:39:27.59	271.10	22.14	-22.2	-22.2	16.4	3.80e-06	0	48	0	21508390912	16	14039
2026-01-26 21:39:28.56	271.49	22.14	-22.3	-22.3	16.3	1.90e-06	0	48	0	21617442816	16	14202
2026-01-26 21:39:29.54	271.87	22.14	-22.3	-22.4	16.5	3.80e-06	0	48	0	21726494720	16	14321
2026-01-26 21:39:30.50	272.25	22.14	-22.3	-22.3	16.5	1.90e-06	0	48	0	21827158016	16	14235
2026-01-26 21:39:31.47	272.63	22.14	-22.2	-22.3	16.5	0.00e+00	0	48	0	21944598528	16	14197
2026-01-26 21:39:32.44	273.01	22.14	-22.3	-22.3	16.5	0.00e+00	0	48	0	22053650432	16	14188
2026-01-26 21:39:33.41	273.39	22.13	-22.3	-22.3	16.4	0.00e+00	0	48	0	22154313728	16	14205
2026-01-26 21:39:34.38	273.77	22.13	-22.3	-22.3	16.4	1.90e-06	0	48	0	22271754240	16	14208
2026-01-26 21:39:35.34	274.14	22.12	-22.3	-22.3	16.5	3.80e-06	0	48	0	22372417536	16	14176
2026-01-26 21:39:36.31	274.52	22.11	-22.3	-22.3	16.5	0.00e+00	0	48	0	22481469440	16	14223
2026-01-26 21:39:37.27	274.90	22.10	-22.3	-22.3	16.5	0.00e+00	0	48	0	22598909952	16	14195
2026-01-26 21:39:38.24	275.28	22.09	-22.3	-22.3	16.5	3.80e-06	0	48	0	22699573248	16	14249
2026-01-26 21:39:39.21	275.66	22.08	-22.2	-22.3	16.5	0.00e+00	0	48	0	22808625152	16	14121
2026-01-26 21:39:40.18	276.04	22.07	-22.4	-22.4	16.7	1.90e-06	0	48	0	22926065664	16	14375
2026-01-26 21:39:41.15	276.42	22.05	-22.2	-22.3	16.6	1.90e-06	0	48	0	23026728960	16	14163
2026-01-26 21:39:42.12	276.79	22.04	-22.3	-22.4	16.7	0.00e+00	0	48	0	23144169472	16	14302
2026-01-26 21:39:43.08	277.17	22.02	-22.3	-22.4	16.6	1.90e-06	0	48	0	23244832768	16	14291
2026-01-26 21:39:44.05	277.55	22.00	-22.3	-22.4	16.6	0.00e+00	0	48	0	23353884672	16	14345
2026-01-26 21:39:45.02	277.92	21.99	-22.4	-22.4	16.6	5.70e-06	0	48	0	23471325184	16	14354
2026-01-26 21:39:45.99	278.30	21.97	-22.5	-22.5	16.5	3.80e-06	0	48	0	23571988480	16	14557
2026-01-26 21:39:46.96	278.67	21.95	-22.3	-22.4	16.6	0.00e+00	0	48	0	23681040384	16	14326
2026-01-26 21:39:47.93	279.05	21.92	-22.4	-22.5	16.6	0.00e+00	0	48	0	23790092288	16	14450
2026-01-26 21:39:48.90	279.42	21.90	-22.4	-22.4	16.7	3.80e-06	0	48	0	23899144192	16	14406
2026-01-26 21:39:49.86	279.79	21.88	-22.4	-22.4	16.7	0.00e+00	0	48	0	24008196096	16	14391
2026-01-26 21:39:50.83	280.17	21.85	-22.4	-22.5	16.7	1.90e-06	0	48	0	24117248000	16	14508
2026-01-26 21:39:51.80	280.54	21.82	-22.4	-22.4	16.7	1.90e-06	0	48	0	24226299904	16	14425
2026-01-26 21:39:52.77	280.91	21.80	-22.5	-22.5	16.7	3.80e-06	0	48	0	24343740416	16	14563
2026-01-26 21:39:53.74	281.28	21.77	-22.6	-22.7	16.7	3.80e-06	0	48	0	24444403712	16	14781
2026-01-26 21:39:54.70	281.65	21.74	-22.5	-22.6	16.8	0.00e+00	0	48	0	24553455616	16	14641
2026-01-26 21:39:55.67	282.02	21.71	-22.6	-22.6	16.7	0.00e+00	0	48	0	24662507520	16	14704
2026-01-26 21:39:56.64	282.39	21.68	-22.6	-22.6	16.8	1.90e-06	0	48	0	24771559424	16	14689
2026-01-26 21:39:57.61	282.76	21.64	-22.5	-22.5	16.8	0.00e+00	0	48	0	24880611328	16	14601
2026-01-26 21:39:58.58	283.12	21.61	-22.6	-22.7	16.8	0.00e+00	0	49	0	24989663232	16	14780
2026-01-26 21:39:59.54	283.49	21.58	-22.6	-22.6	16.8	0.00e+00	0	48	0	25098715136	16	14725
2026-01-26 21:40:00.51	283.85	21.54	-22.5	-22.5	16.9	0.00e+00	0	48	0	25207767040	16	14575
2026-01-26 21:40:01.48	284.21	21.50	-22.6	-22.6	16.9	1.90e-06	0	48	0	25316818944	16	14709
2026-01-26 21:40:02.45	284.58	21.47	-22.5	-22.6	17.0	1.90e-06	0	49	0	25425870848	16	14651
2026-01-26 21:40:03.42	284.94	21.43	-22.6	-22.6	16.9	1.90e-06	0	48	0	25534922752	16	14719
2026-01-26 21:40:04.38	285.30	21.39	-22.5	-22.5	17.0	5.70e-06	0	48	0	25643974656	16	14557
2026-01-26 21:40:05.35	285.66	21.35	-22.6	-22.6	17.0	3.80e-06	0	49	0	25753026560	16	14750
2026-01-26 21:40:06.32	286.02	21.31	-22.6	-22.6	17.1	0.00e+00	0	48	0	25862078464	16	14708
2026-01-26 21:40:07.29	286.38	21.26	-22.6	-22.7	17.1	0.00e+00	0	48	0	25971130368	16	14791
2026-01-26 21:40:08.26	286.73	21.22	-22.7	-22.7	17.1	1.90e-06	0	49	0	26080182272	16	14897
2026-01-26 21:40:09.23	287.09	21.17	-22.6	-22.6	17.2	0.00e+00	0	48	0	26189234176	16	14763
2026-01-26 21:40:10.19	287.44	21.13	-22.8	-22.8	17.2	0.00e+00	0	48	0	26298286080	16	15073
2026-01-26 21:40:11.15	287.79	21.08	-22.8	-22.8	17.2	1.90e-06	0	48	0	26407337984	16	15112
2026-01-26 21:40:12.12	288.14	21.04	-22.8	-22.9	17.3	0.00e+00	0	48	0	26516389888	16	15142
2026-01-26 21:40:13.09	288.49	20.99	-22.9	-22.9	17.3	0.00e+00	0	48	0	26625441792	16	15256
2026-01-26 21:40:14.06	288.84	20.94	-22.8	-22.9	17.4	0.00e+00	0	48	0	26734493696	16	15163
2026-01-26 21:40:15.03	289.19	20.89	-22.9	-22.9	17.4	1.90e-06	0	48	0	26843545600	16	15244
2026-01-26 21:40:15.99	289.54	20.84	-22.9	-22.9	17.4	0.00e+00	0	48	0	26952597504	16	15197
2026-01-26 21:40:16.96	289.88	20.79	-23.1	-23.1	17.4	3.80e-06	0	48	0	27053260800	16	15600
2026-01-26 21:40:17.93	290.23	20.74	-22.9	-23.0	17.6	0.00e+00	0	48	0	27170701312	16	15363
2026-01-26 21:40:18.90	290.57	20.68	-22.8	-22.9	17.6	0.00e+00	0	48	0	27279753216	16	15210
2026-01-26 21:40:19.86	290.91	20.63	-22.9	-22.9	17.7	0.00e+00	0	49	0	27388805120	16	15269
2026-01-26 21:40:20.83	291.25	20.57	-22.9	-23.0	17.7	0.00e+00	0	48	0	27497857024	16	15343
2026-01-26 21:40:21.80	291.59	20.52	-22.9	-23.0	17.7	0.00e+00	0	48	0	27598520320	16	15369
2026-01-26 21:40:22.77	291.93	20.46	-22.9	-22.9	17.8	0.00e+00	0	48	0	27715960832	16	15246
2026-01-26 21:40:23.74	292.27	20.41	-22.9	-22.9	17.8	0.00e+00	0	48	0	27825012736	16	15259
2026-01-26 21:40:24.70	292.60	20.35	-22.9	-23.0	17.9	0.00e+00	0	48	0	27925676032	16	15357
2026-01-26 21:40:25.67	292.93	20.29	-23.0	-23.0	17.9	0.00e+00	0	48	0	28043116544	16	15462
2026-01-26 21:40:26.64	293.27	20.23	-23.0	-23.0	17.9	0.00e+00	0	48	0	28143779840	16	15383
2026-01-26 21:40:27.60	293.60	20.17	-22.9	-23.0	18.0	0.00e+00	0	48	0	28252831744	16	15345
2026-01-26 21:40:28.57	293.93	20.11	-23.0	-23.1	18.0	0.00e+00	0	49	0	28370272256	16	15489
2026-01-26 21:40:29.54	294.25	20.05	-23.1	-23.1	18.0	0.00e+00	0	48	0	28470935552	16	15619
2026-01-26 21:40:30.51	294.58	19.99	-23.0	-23.1	18.1	0.00e+00	0	48	0	28579987456	16	15490
2026-01-26 21:40:31.48	294.91	19.92	-23.1	-23.1	18.1	0.00e+00	0	48	0	28697427968	16	15561
2026-01-26 21:40:32.45	295.23	19.86	-23.2	-23.2	18.1	0.00e+00	0	48	0	28798091264	16	15786
2026-01-26 21:40:33.41	295.55	19.80	-23.1	-23.2	18.0	3.80e-06	0	48	0	28915531776	16	15702
2026-01-26 21:40:34.38	295.87	19.73	-23.1	-23.1	18.1	0.00e+00	0	48	0	29016195072	16	15637
2026-01-26 21:40:35.35	296.19	19.67	-23.1	-23.1	18.3	0.00e+00	0	48	0	29125246976	16	15617
2026-01-26 21:40:36.32	296.51	19.60	-23.1	-23.1	18.2	0.00e+00	0	48	0	29242687488	16	15617
2026-01-26 21:40:37.28	296.82	19.54	-23.1	-23.2	18.3	0.00e+00	0	48	0	29343350784	16	15680
2026-01-26 21:40:38.26	297.14	19.47	-23.2	-23.2	18.4	0.00e+00	0	48	0	29452402688	17	14871
2026-01-26 21:40:39.22	297.45	19.40	-23.3	-23.3	18.4	0.00e+00	0	48	0	29561454592	17	15063
2026-01-26 21:40:40.19	297.76	19.34	-23.3	-23.4	18.4	0.00e+00	0	48	0	29670506496	17	15126
2026-01-26 21:40:41.16	298.08	19.27	-23.2	-23.3	18.4	0.00e+00	0	49	0	29787947008	17	14978
2026-01-26 21:40:42.13	298.38	19.20	-23.3	-23.3	18.4	0.00e+00	0	48	0	29888610304	17	15083
2026-01-26 21:40:43.09	298.69	19.13	-23.2	-23.3	18.5	0.00e+00	0	48	0	29997662208	17	14987
2026-01-26 21:40:44.06	298.99	19.06	-23.4	-23.4	18.5	0.00e+00	0	48	0	30115102720	17	15196
2026-01-26 21:40:45.03	299.30	18.99	-23.3	-23.4	18.5	0.00e+00	0	48	0	30215766016	17	15177
2026-01-26 21:40:46.00	299.60	18.92	-23.2	-23.3	18.5	0.00e+00	0	48	0	30324817920	17	14989
2026-01-26 21:40:46.96	299.90	18.85	-23.3	-23.4	18.5	0.00e+00	0	48	0	30433869824	17	15122
2026-01-26 21:40:47.93	300.20	18.78	-23.3	-23.3	18.6	0.00e+00	0	48	0	30542921728	17	15058
2026-01-26 21:40:48.90	300.50	18.70	-23.3	-23.3	18.6	0.00e+00	0	48	0	30651973632	17	15106
2026-01-26 21:40:49.87	300.79	18.63	-23.2	-23.3	18.7	0.00e+00	0	48	0	30761025536	17	15008
2026-01-26 21:40:50.83	301.09	18.56	-23.3	-23.3	18.7	0.00e+00	0	48	0	30870077440	17	15066
2026-01-26 21:40:51.80	301.38	18.49	-23.4	-23.4	18.7	0.00e+00	0	48	0	30979129344	17	15227
2026-01-26 21:40:52.77	301.67	18.41	-23.4	-23.5	18.7	0.00e+00	0	48	0	31088181248	17	15299
2026-01-26 21:40:53.73	301.96	18.34	-23.4	-23.5	18.7	0.00e+00	0	48	0	31197233152	17	15300
2026-01-26 21:40:54.70	302.25	18.26	-23.5	-23.5	18.7	0.00e+00	0	48	0	31306285056	17	15421
2026-01-26 21:40:55.66	302.53	18.19	-23.5	-23.5	18.7	0.00e+00	0	48	0	31415336960	17	15472
2026-01-26 21:40:56.63	302.82	18.11	-23.5	-23.5	18.8	0.00e+00	0	48	0	31524388864	17	15433
2026-01-26 21:40:57.60	303.10	18.04	-23.4	-23.5	18.8	0.00e+00	0	48	0	31633440768	17	15352
2026-01-26 21:40:58.56	303.38	17.96	-23.5	-23.6	18.8	0.00e+00	0	48	0	31742492672	17	15506
2026-01-26 21:40:59.53	303.66	17.89	-23.5	-23.5	18.9	0.00e+00	0	48	0	31851544576	17	15393
2026-01-26 21:41:00.51	303.94	17.81	-23.5	-23.5	18.9	0.00e+00	0	49	0	31952207872	17	15437
2026-01-26 21:41:01.47	304.22	17.73	-23.5	-23.5	18.9	0.00e+00	0	48	0	32069648384	17	15463
2026-01-26 21:41:02.44	304.50	17.66	-23.5	-23.6	19.0	0.00e+00	0	48	0	32178700288	17	15574
2026-01-26 21:41:03.41	304.77	17.58	-23.6	-23.6	19.0	0.00e+00	0	48	0	32279363584	17	15582
2026-01-26 21:41:04.38	305.04	17.50	-23.6	-23.6	19.0	0.00e+00	0	49	0	32396804096	17	15647
2026-01-26 21:41:05.34	305.31	17.43	-23.6	-23.7	18.9	0.00e+00	0	48	0	32497467392	17	15736
2026-01-26 21:41:06.31	305.58	17.35	-23.8	-23.8	18.9	0.00e+00	0	48	0	32606519296	18	15036
2026-01-26 21:41:07.28	305.85	17.27	-23.9	-23.9	18.9	0.00e+00	0	48	0	32723959808	18	15238
2026-01-26 21:41:08.25	306.12	17.19	-23.8	-23.8	19.0	0.00e+00	0	48	0	32824623104	18	15030
2026-01-26 21:41:09.22	306.38	17.11	-23.7	-23.8	19.1	0.00e+00	0	48	0	32942063616	18	14962
2026-01-26 21:41:10.18	306.64	17.03	-23.7	-23.8	19.1	0.00e+00	0	48	0	33051115520	18	15034
2026-01-26 21:41:11.15	306.90	16.95	-23.8	-23.8	19.0	0.00e+00	0	48	0	33151778816	18	15107
2026-01-26 21:41:12.11	307.16	16.88	-23.9	-24.0	18.9	0.00e+00	0	49	0	33269219328	18	15348
2026-01-26 21:41:13.08	307.42	16.80	-23.9	-23.9	19.0	0.00e+00	0	48	0	33369882624	18	15221
2026-01-26 21:41:14.05	307.68	16.72	-23.8	-23.9	19.0	0.00e+00	0	48	0	33478934528	18	15131
2026-01-26 21:41:15.02	307.93	16.64	-24.0	-24.0	18.9	0.00e+00	0	49	0	33596375040	18	15439
2026-01-26 21:41:15.98	308.19	16.56	-23.9	-24.0	19.0	0.00e+00	0	48	0	33697038336	18	15300
2026-01-26 21:41:16.95	308.44	16.48	-23.9	-24.0	19.1	0.00e+00	0	48	0	33806090240	18	15344
2026-01-26 21:41:17.92	308.69	16.40	-23.9	-23.9	19.1	0.00e+00	0	49	0	33915142144	18	15254
2026-01-26 21:41:18.89	308.94	16.32	-24.0	-24.0	19.0	0.00e+00	0	48	0	34024194048	18	15422
2026-01-26 21:41:19.85	309.19	16.24	-24.1	-24.1	19.0	0.00e+00	0	48	0	34133245952	18	15613
2026-01-26 21:41:20.82	309.43	16.15	-23.9	-24.0	19.1	0.00e+00	0	48	0	34242297856	18	15357
2026-01-26 21:41:21.79	309.68	16.07	-23.9	-24.0	19.0	0.00e+00	0	48	0	34351349760	18	15360
2026-01-26 21:41:22.75	309.92	15.99	-24.1	-24.1	19.0	0.00e+00	0	49	0	34460401664	18	15580
2026-01-26 21:41:23.73	310.17	15.91	-24.1	-24.2	19.0	0.00e+00	0	49	0	34569453568	18	15690
2026-01-26 21:41:24.69	310.40	15.83	-24.0	-24.1	19.0	0.00e+00	0	49	0	34678505472	18	15540
2026-01-26 21:41:25.66	310.64	15.75	-24.1	-24.2	18.9	1.90e-06	0	49	0	34787557376	18	15736
2026-01-26 21:41:26.63	310.88	15.67	-24.1	-24.2	18.9	0.00e+00	0	48	0	34896609280	18	15716
2026-01-26 21:41:27.59	311.12	15.59	-24.1	-24.2	19.0	0.00e+00	0	49	0	35005661184	18	15663
2026-01-26 21:41:28.56	311.35	15.51	-24.1	-24.1	19.0	0.00e+00	0	49	0	35114713088	18	15650
2026-01-26 21:41:29.53	311.58	15.43	-24.2	-24.3	18.9	1.90e-06	0	49	0	35223764992	18	15836
2026-01-26 21:41:30.50	311.82	15.34	-24.4	-24.4	18.9	0.00e+00	0	49	0	35332816896	19	15216
2026-01-26 21:41:31.47	312.05	15.26	-24.3	-24.3	18.9	0.00e+00	0	48	0	35441868800	19	15079
2026-01-26 21:41:32.44	312.28	15.18	-24.3	-24.3	18.9	0.00e+00	0	49	0	35550920704	19	15037
2026-01-26 21:41:33.41	312.51	15.10	-24.3	-24.3	18.9	0.00e+00	0	48	0	35659972608	19	15106
2026-01-26 21:41:34.38	312.73	15.02	-24.3	-24.4	18.9	0.00e+00	0	48	0	35769024512	19	15185
2026-01-26 21:41:35.35	312.96	14.93	-24.3	-24.4	18.9	0.00e+00	0	49	0	35878076416	19	15214
2026-01-26 21:41:36.32	313.18	14.85	-24.5	-24.5	18.8	0.00e+00	0	48	0	35987128320	19	15377
2026-01-26 21:41:37.28	313.40	14.77	-24.4	-24.4	18.8	0.00e+00	0	48	0	36096180224	19	15241
2026-01-26 21:41:38.25	313.62	14.69	-24.5	-24.5	18.8	0.00e+00	0	49	0	36205232128	19	15402
2026-01-26 21:41:39.22	313.84	14.61	-24.6	-24.6	18.8	0.00e+00	0	48	0	36314284032	19	15632
2026-01-26 21:41:40.19	314.06	14.53	-24.5	-24.5	18.8	1.90e-06	0	48	0	36423335936	19	15413
2026-01-26 21:41:41.15	314.27	14.45	-24.6	-24.6	18.7	0.00e+00	0	48	0	36532387840	19	15597
2026-01-26 21:41:42.12	314.49	14.36	-24.5	-24.5	18.8	0.00e+00	0	49	0	36641439744	19	15413
2026-01-26 21:41:43.09	314.70	14.28	-24.6	-24.6	18.7	0.00e+00	0	49	0	36750491648	19	15572
2026-01-26 21:41:44.05	314.92	14.20	-24.5	-24.6	18.7	0.00e+00	0	49	0	36851154944	19	15566
2026-01-26 21:41:45.02	315.13	14.12	-24.6	-24.7	18.7	0.00e+00	0	48	0	36968595456	19	15711
2026-01-26 21:41:45.99	315.34	14.04	-24.5	-24.6	18.7	0.00e+00	0	48	0	37077647360	19	15533
2026-01-26 21:41:46.97	315.55	13.96	-24.6	-24.7	18.6	0.00e+00	0	49	0	37186699264	19	15701
2026-01-26 21:41:47.96	315.76	13.87	-24.6	-24.7	18.6	0.00e+00	0	49	0	37295751168	19	15736
2026-01-26 21:41:48.96	315.97	13.79	-24.6	-24.7	18.6	1.90e-06	0	48	0	37404803072	19	15700
2026-01-26 21:41:49.96	316.18	13.70	-24.7	-24.7	18.6	0.00e+00	0	48	0	37522243584	19	15826
2026-01-26 21:41:50.96	316.39	13.62	-24.6	-24.7	18.6	0.00e+00	0	48	0	37631295488	20	14780
2026-01-26 21:41:51.96	316.60	13.54	-24.6	-24.7	18.6	0.00e+00	0	49	0	37748736000	20	14784
2026-01-26 21:41:52.97	316.81	13.45	-24.7	-24.7	18.5	0.00e+00	0	48	0	37866176512	20	14918
2026-01-26 21:41:53.98	317.02	13.37	-24.6	-24.7	18.6	0.00e+00	0	49	0	37975228416	20	14782
2026-01-26 21:41:54.99	317.23	13.28	-24.8	-24.9	18.5	0.00e+00	0	49	0	38084280320	20	15133
2026-01-26 21:41:56.00	317.43	13.20	-24.8	-24.8	18.5	0.00e+00	0	48	0	38201720832	20	15063
2026-01-26 21:41:57.01	317.64	13.11	-24.9	-24.9	18.4	1.90e-06	0	49	0	38310772736	20	15289
2026-01-26 21:41:58.02	317.84	13.03	-25.0	-25.1	18.7	1.90e-06	0	48	0	38428213248	20	15498
2026-01-26 21:41:59.03	318.04	12.94	-47.4	-50.0	6.2	0.00e+00	0	48	104	38453379072	65	20444
2026-01-26 21:42:00.04	318.24	12.86	-47.4	-49.9	6.2	0.00e+00	0	48	104	38453379072	65	20337
2026-01-26 21:42:01.05	318.44	12.78	-47.4	-50.0	6.2	0.00e+00	0	48	104	38453379072	65	20437
2026-01-26 21:42:02.05	318.63	12.69	-47.4	-49.9	6.2	0.00e+00	0	48	104	38453379072	65	20349
2026-01-26 21:42:03.06	318.83	12.61	-47.4	-49.9	6.2	0.00e+00	0	48	104	38453379072	65	20389
2026-01-26 21:42:04.07	319.02	12.52	-47.4	-49.9	6.2	0.00e+00	0	48	104	38453379072	65	20297
2026-01-26 21:42:05.08	319.22	12.44	-47.4	-49.9	6.2	0.00e+00	0	48	104	38453379072	65	20332
2026-01-26 21:42:06.09	319.41	12.36	-47.4	-49.9	6.2	0.00e+00	0	48	104	38453379072	65	20317
2026-01-26 21:42:07.11	319.60	12.27	-47.4	-49.9	6.2	0.00e+00	0	48	104	38453379072	65	20303
2026-01-26 21:42:08.12	319.79	12.19	-47.3	-49.9	6.2	0.00e+00	0	48	104	38453379072	65	20180
2026-01-26 21:42:09.13	319.98	12.11	-47.4	-49.9	6.2	0.00e+00	0	48	104	38453379072	65	20317
2026-01-26 21:42:10.14	320.17	12.02	-47.3	-49.9	6.2	0.00e+00	0	48	104	38453379072	65	20246
2026-01-26 21:42:11.15	320.36	11.94	-47.3	-49.8	6.2	0.00e+00	0	48	104	38453379072	65	20163
2026-01-26 21:42:12.16	320.54	11.86	-47.3	-49.8	6.2	0.00e+00	0	48	104	38453379072	65	20121
2026-01-26 21:42:13.17	320.72	11.77	-47.3	-49.9	6.2	0.00e+00	0	48	104	38453379072	65	20174
2026-01-26 21:42:14.18	320.91	11.69	-47.3	-49.8	6.2	0.00e+00	0	48	104	38453379072	65	20157
2026-01-26 21:42:15.19	321.09	11.61	-47.3	-49.8	6.2	0.00e+00	0	48	104	38453379072	65	20069
2026-01-26 21:42:16.20	321.27	11.53	-47.3	-49.8	6.2	0.00e+00	0	48	104	38453379072	65	20057
2026-01-26 21:42:17.21	321.45	11.44	-47.3	-49.8	6.2	0.00e+00	0	48	104	38453379072	65	20160
2026-01-26 21:42:18.21	321.62	11.36	-47.2	-49.8	6.2	0.00e+00	0	48	104	38453379072	65	20024
2026-01-26 21:42:19.22	321.80	11.28	-47.2	-49.8	6.2	0.00e+00	0	48	104	38453379072	65	19971
2026-01-26 21:42:20.24	321.98	11.20	-47.2	-49.7	6.2	0.00e+00	0	48	104	38453379072	65	19923
2026-01-26 21:42:21.25	322.15	11.12	-47.2	-49.8	6.2	0.00e+00	0	48	104	38453379072	65	20020
2026-01-26 21:42:22.26	322.33	11.04	-47.2	-49.8	6.2	0.00e+00	0	48	104	38453379072	65	19957
2026-01-26 21:42:23.27	322.50	10.95	-47.2	-49.7	6.2	0.00e+00	0	48	104	38453379072	65	19889
2026-01-26 21:42:24.28	322.67	10.87	-47.2	-49.7	6.2	0.00e+00	0	48	104	38453379072	65	19797
2026-01-26 21:42:25.29	322.84	10.79	-47.2	-49.7	6.2	0.00e+00	0	48	104	38453379072	65	19889
2026-01-26 21:42:26.30	323.01	10.71	-47.1	-49.6	6.2	0.00e+00	0	48	104	38453379072	65	19667
2026-01-26 21:42:27.31	323.18	10.63	-47.1	-49.7	6.2	0.00e+00	0	48	104	38453379072	65	19759
2026-01-26 21:42:28.32	323.34	10.55	-47.1	-49.7	6.2	0.00e+00	0	48	104	38453379072	65	19760
2026-01-26 21:42:29.33	323.51	10.47	-47.1	-49.7	6.2	0.00e+00	0	48	104	38453379072	65	19859
2026-01-26 21:42:30.34	323.67	10.39	-47.1	-49.7	6.2	0.00e+00	0	48	104	38453379072	65	19770
2026-01-26 21:42:31.35	323.84	10.31	-47.1	-49.7	6.2	0.00e+00	0	48	104	38453379072	65	19720
2026-01-26 21:42:32.36	324.00	10.23	-47.1	-49.7	6.2	0.00e+00	0	48	104	38453379072	65	19759
2026-01-26 21:42:33.37	324.16	10.15	-47.1	-49.7	6.2	0.00e+00	0	48	104	38453379072	65	19767
2026-01-26 21:42:34.38	324.32	10.07	-47.1	-49.6	6.2	0.00e+00	0	48	104	38453379072	65	19592
2026-01-26 21:42:35.39	324.48	9.99	-47.1	-49.6	6.2	0.00e+00	0	48	104	38453379072	65	19562
2026-01-26 21:42:36.40	324.64	9.91	-47.1	-49.6	6.2	0.00e+00	0	48	104	38453379072	65	19617
2026-01-26 21:42:37.41	324.80	9.83	-47.0	-49.6	6.2	0.00e+00	0	48	104	38453379072	65	19682
2026-01-26 21:42:38.42	324.95	9.75	-47.0	-49.6	6.2	0.00e+00	0	48	104	38453379072	65	19571
2026-01-26 21:42:39.43	325.11	9.67	-47.1	-49.6	6.2	0.00e+00	0	48	104	38453379072	65	19648
2026-01-26 21:42:40.44	325.27	9.59	-47.1	-49.6	6.2	0.00e+00	0	48	104	38453379072	65	19531
2026-01-26 21:42:41.45	325.42	9.51	-47.1	-49.6	6.2	0.00e+00	0	48	104	38453379072	65	19643
2026-01-26 21:42:42.46	325.57	9.44	-47.0	-49.6	6.2	0.00e+00	0	48	104	38453379072	65	19493
2026-01-26 21:42:43.47	325.72	9.36	-47.0	-49.6	6.2	0.00e+00	0	48	104	38453379072	65	19519
2026-01-26 21:42:44.47	325.87	9.28	-47.0	-49.5	6.2	0.00e+00	0	48	104	38453379072	65	19438
2026-01-26 21:42:45.48	326.02	9.20	-47.0	-49.6	6.2	0.00e+00	0	48	104	38453379072	65	19593
2026-01-26 21:42:46.50	326.17	9.12	-47.0	-49.5	6.2	0.00e+00	0	48	104	38453379072	65	19416
2026-01-26 21:42:47.51	326.32	9.05	-47.0	-49.5	6.2	0.00e+00	0	48	104	38453379072	65	19466
2026-01-26 21:42:48.52	326.47	8.97	-46.9	-49.5	6.2	0.00e+00	0	48	104	38453379072	65	19275
2026-01-26 21:42:49.52	326.61	8.89	-47.0	-49.5	6.2	0.00e+00	0	48	104	38453379072	65	19462
2026-01-26 21:42:50.54	326.76	8.81	-46.9	-49.4	6.2	0.00e+00	0	48	104	38453379072	65	19230
2026-01-26 21:42:51.55	326.91	8.74	-47.0	-49.5	6.2	0.00e+00	0	48	104	38453379072	65	19368
2026-01-26 21:42:52.56	327.05	8.66	-46.9	-49.5	6.2	0.00e+00	0	48	104	38453379072	65	19322
2026-01-26 21:42:53.57	327.19	8.58	-46.9	-49.4	6.2	0.00e+00	0	48	104	38453379072	65	19255
2026-01-26 21:42:54.58	327.33	8.51	-46.9	-49.5	6.2	0.00e+00	0	48	104	38453379072	65	19318
2026-01-26 21:42:55.59	327.47	8.43	-46.9	-49.5	6.2	0.00e+00	0	48	104	38453379072	65	19261
2026-01-26 21:42:56.60	327.61	8.36	-46.9	-49.4	6.2	0.00e+00	0	48	104	38453379072	65	19254
2026-01-26 21:42:57.60	327.75	8.28	-46.9	-49.5	6.2	0.00e+00	0	48	104	38453379072	65	19370
2026-01-26 21:42:58.61	327.89	8.20	-46.9	-49.4	6.2	0.00e+00	0	48	104	38453379072	65	19243
2026-01-26 21:42:59.62	328.03	8.13	-46.9	-49.4	6.2	0.00e+00	0	48	104	38453379072	65	19252
2026-01-26 21:43:00.63	328.17	8.05	-46.9	-49.4	6.2	0.00e+00	0	48	104	38453379072	65	19153
2026-01-26 21:43:01.64	328.30	7.98	-46.9	-49.5	6.2	0.00e+00	0	48	104	38453379072	65	19337
2026-01-26 21:43:02.66	328.44	7.90	-46.9	-49.4	6.2	0.00e+00	0	48	104	38453379072	65	19197
2026-01-26 21:43:03.66	328.57	7.83	-46.9	-49.4	6.2	0.00e+00	0	48	104	38453379072	65	19240
2026-01-26 21:43:04.67	328.71	7.75	-46.8	-49.4	6.2	0.00e+00	0	48	104	38453379072	65	19143
2026-01-26 21:43:05.68	328.84	7.68	-46.9	-49.4	6.2	0.00e+00	0	48	104	38453379072	65	19211
2026-01-26 21:43:06.69	328.97	7.61	-46.8	-49.3	6.2	0.00e+00	0	48	104	38453379072	65	18930
2026-01-26 21:43:07.70	329.10	7.53	-46.8	-49.3	6.2	0.00e+00	0	48	104	38453379072	65	18965
2026-01-26 21:43:08.71	329.23	7.46	-46.8	-49.3	6.2	0.00e+00	0	48	104	38453379072	65	18981
2026-01-26 21:43:09.72	329.36	7.38	-46.9	-49.4	6.2	0.00e+00	0	48	104	38453379072	65	19160
2026-01-26 21:43:10.73	329.49	7.31	-46.8	-49.3	6.2	0.00e+00	0	48	104	38453379072	65	18968
2026-01-26 21:43:11.74	329.62	7.24	-46.8	-49.3	6.2	0.00e+00	0	48	104	38453379072	65	19009
2026-01-26 21:43:12.75	329.75	7.16	-46.7	-49.3	6.2	0.00e+00	0	48	104	38453379072	65	18866
2026-01-26 21:43:13.76	329.87	7.09	-46.8	-49.4	6.2	0.00e+00	0	48	104	38453379072	65	19070
2026-01-26 21:43:14.77	330.00	7.02	-46.7	-49.2	6.2	0.00e+00	0	48	104	38453379072	65	18635
2026-01-26 21:43:15.78	330.12	6.94	-46.7	-49.2	6.2	0.00e+00	0	48	104	38453379072	65	18751
2026-01-26 21:43:16.79	330.25	6.87	-46.7	-49.2	6.2	0.00e+00	0	48	104	38453379072	65	18697
2026-01-26 21:43:17.80	330.37	6.80	-46.8	-49.3	6.2	0.00e+00	0	48	104	38453379072	65	18948
2026-01-26 21:43:18.81	330.49	6.73	-46.7	-49.3	6.2	0.00e+00	0	48	104	38453379072	65	18843
2026-01-26 21:43:19.82	330.62	6.65	-46.7	-49.3	6.2	0.00e+00	0	48	104	38453379072	65	18833
2026-01-26 21:43:20.83	330.74	6.58	-46.6	-49.2	6.2	0.00e+00	0	48	104	38453379072	65	18702
2026-01-26 21:43:21.84	330.86	6.51	-46.7	-49.2	6.2	0.00e+00	0	48	104	38453379072	65	18755
2026-01-26 21:43:22.85	330.98	6.44	-46.6	-49.1	6.2	0.00e+00	0	48	104	38453379072	65	18506
2026-01-26 21:43:23.86	331.10	6.37	-46.6	-49.1	6.2	0.00e+00	0	48	104	38453379072	65	18517
2026-01-26 21:43:24.87	331.22	6.30	-46.6	-49.1	6.2	0.00e+00	0	48	104	38453379072	65	18482
2026-01-26 21:43:25.88	331.34	6.22	-46.6	-49.1	6.2	0.00e+00	0	48	104	38453379072	65	18507
2026-01-26 21:43:26.89	331.45	6.15	-46.6	-49.1	6.2	0.00e+00	0	48	104	38453379072	65	18535
2026-01-26 21:43:27.90	331.57	6.08	-46.6	-49.1	6.2	0.00e+00	0	48	104	38453379072	65	18548
2026-01-26 21:43:28.91	331.69	6.01	-46.6	-49.1	6.2	0.00e+00	0	48	104	38453379072	65	18449
2026-01-26 21:43:29.93	331.80	5.94	-46.6	-49.2	6.2	0.00e+00	0	48	104	38453379072	65	18703
2026-01-26 21:43:30.94	331.92	5.87	-46.6	-49.1	6.2	0.00e+00	0	48	104	38453379072	65	18454
2026-01-26 21:43:31.95	332.03	5.80	-46.6	-49.1	6.2	0.00e+00	0	48	104	38453379072	65	18501
2026-01-26 21:43:32.96	332.15	5.73	-46.5	-49.0	6.2	0.00e+00	0	48	104	38453379072	64	19443
2026-01-26 21:43:33.97	332.26	5.66	-46.6	-49.1	6.2	0.00e+00	0	48	104	38453379072	64	19635
2026-01-26 21:43:34.97	332.37	5.59	-46.5	-49.0	6.2	0.00e+00	0	48	104	38453379072	64	19417
2026-01-26 21:43:35.98	332.48	5.52	-46.5	-49.0	6.2	0.00e+00	0	48	104	38453379072	64	19478
2026-01-26 21:43:36.99	332.59	5.45	-46.4	-49.0	6.2	0.00e+00	0	48	104	38453379072	64	19381
2026-01-26 21:43:38.00	332.70	5.38	-46.5	-49.1	6.2	0.00e+00	0	48	104	38453379072	64	19547
2026-01-26 21:43:39.01	332.81	5.31	-46.4	-49.0	6.2	0.00e+00	0	48	104	38453379072	64	19301
2026-01-26 21:43:40.02	332.92	5.24	-46.4	-49.0	6.2	0.00e+00	0	48	104	38453379072	64	19360
2026-01-26 21:43:41.03	333.03	5.18	-46.4	-48.9	6.2	0.00e+00	0	48	104	38453379072	64	19194
2026-01-26 21:43:42.04	333.14	5.11	-46.4	-49.0	6.2	0.00e+00	0	48	104	38453379072	64	19310
2026-01-26 21:43:43.05	333.25	5.04	-46.3	-48.9	6.2	0.00e+00	0	48	104	38453379072	64	19066
2026-01-26 21:43:44.06	333.35	4.97	-46.7	-49.3	6.2	0.00e+00	0	48	104	38453379072	64	19965
2026-01-26 21:43:45.07	333.46	4.90	-47.0	-49.5	6.2	0.00e+00	0	48	104	38453379072	64	20491
2026-01-26 21:43:46.08	333.57	4.83	-32.4	-33.2	6.3	0.00e+00	0	48	104	38453379072	34	17635
2026-01-26 21:43:47.09	333.67	4.77	-47.3	-49.8	6.2	0.00e+00	0	48	104	38453379072	65	20138
2026-01-26 21:43:48.10	333.77	4.70	-47.5	-50.1	6.2	0.00e+00	0	48	104	38453379072	65	20694
2026-01-26 21:43:49.11	333.88	4.63	-47.6	-50.1	6.2	0.00e+00	0	48	104	38453379072	65	20780
2026-01-26 21:43:50.12	333.98	4.56	-47.7	-50.2	6.2	0.00e+00	0	48	104	38453379072	65	21048
2026-01-26 21:43:51.13	334.09	4.50	-47.7	-50.2	6.2	0.00e+00	0	48	104	38453379072	65	21069
2026-01-26 21:43:52.14	334.19	4.43	-47.7	-50.2	6.2	0.00e+00	0	48	104	38453379072	65	21059
2026-01-26 21:43:53.15	334.29	4.36	-47.7	-50.2	6.2	0.00e+00	0	48	104	38453379072	65	20974
2026-01-26 21:43:54.16	334.39	4.30	-47.6	-50.1	6.2	0.00e+00	0	48	104	38453379072	65	20752
2026-01-26 21:43:55.17	334.49	4.23	-47.5	-50.0	6.2	0.00e+00	0	48	104	38453379072	65	20593
2026-01-26 21:43:56.19	334.59	4.16	-47.5	-50.0	6.2	0.00e+00	0	48	104	38453379072	65	20554
2026-01-26 21:43:57.20	334.69	4.10	-47.5	-50.0	6.2	0.00e+00	0	48	104	38453379072	65	20566
2026-01-26 21:43:58.20	334.79	4.03	-47.5	-50.1	6.2	0.00e+00	0	48	104	38453379072	65	20668
2026-01-26 21:43:59.22	334.89	3.96	-47.6	-50.1	6.2	0.00e+00	0	48	104	38453379072	65	20838
2026-01-26 21:44:00.23	334.99	3.90	-47.6	-50.2	6.2	0.00e+00	0	48	104	38453379072	65	20925
2026-01-26 21:44:01.24	335.09	3.83	-47.7	-50.2	6.2	0.00e+00	0	48	104	38453379072	65	20971
2026-01-26 21:44:02.25	335.18	3.77	-47.7	-50.2	6.2	0.00e+00	0	48	104	38453379072	65	21010
2026-01-26 21:44:03.26	335.28	3.70	-47.7	-50.3	6.2	0.00e+00	0	48	104	38453379072	65	21133
2026-01-26 21:44:04.27	335.37	3.64	-47.7	-50.3	6.2	0.00e+00	0	48	104	38453379072	65	21140
2026-01-26 21:44:05.27	335.47	3.57	-47.7	-50.2	6.2	0.00e+00	0	48	104	38453379072	65	21085
2026-01-26 21:44:06.28	335.56	3.51	-47.6	-50.2	6.2	0.00e+00	0	48	104	38453379072	65	20914
2026-01-26 21:44:07.30	335.66	3.44	-47.6	-50.2	6.2	0.00e+00	0	48	104	38453379072	65	20919
2026-01-26 21:44:08.31	335.75	3.38	-47.6	-50.2	6.2	0.00e+00	0	47	104	38453379072	65	20891
2026-01-26 21:44:09.32	335.85	3.31	-47.6	-50.1	6.2	0.00e+00	0	48	104	38453379072	65	20859
2026-01-26 21:44:10.32	335.94	3.25	-47.6	-50.2	6.2	0.00e+00	0	48	104	38453379072	65	20914
2026-01-26 21:44:11.34	336.03	3.18	-47.6	-50.1	6.2	0.00e+00	0	48	104	38453379072	65	20831
2026-01-26 21:44:12.35	336.13	3.12	-47.6	-50.1	6.2	0.00e+00	0	48	104	38453379072	65	20832
2026-01-26 21:44:13.35	336.22	3.06	-47.6	-50.1	6.2	0.00e+00	0	48	104	38453379072	65	20753
2026-01-26 21:44:14.36	336.31	2.99	-47.6	-50.1	6.2	0.00e+00	0	48	104	38453379072	65	20745
2026-01-26 21:44:15.37	336.40	2.93	-47.6	-50.1	6.2	0.00e+00	0	48	104	38453379072	65	20751
2026-01-26 21:44:16.38	336.49	2.87	-47.6	-50.1	6.2	0.00e+00	0	48	104	38453379072	65	20712
2026-01-26 21:44:17.40	336.58	2.80	-47.6	-50.1	6.2	0.00e+00	0	48	104	38453379072	65	20731
2026-01-26 21:44:18.40	336.67	2.74	-47.5	-50.1	6.2	0.00e+00	0	48	104	38453379072	65	20708
2026-01-26 21:44:19.41	336.76	2.68	-47.5	-50.1	6.2	0.00e+00	0	48	104	38453379072	65	20679
2026-01-26 21:44:20.42	336.84	2.61	-47.5	-50.1	6.2	0.00e+00	0	48	104	38453379072	65	20733
2026-01-26 21:44:21.43	336.93	2.55	-47.5	-50.1	6.2	0.00e+00	0	48	104	38453379072	65	20749
2026-01-26 21:44:22.44	337.02	2.49	-47.5	-50.1	6.2	0.00e+00	0	48	104	38453379072	65	20664
2026-01-26 21:44:23.45	337.11	2.42	-47.5	-50.1	6.2	0.00e+00	0	48	104	38453379072	65	20635
2026-01-26 21:44:24.46	337.19	2.36	-47.5	-50.1	6.2	0.00e+00	0	48	104	38453379072	65	20659
2026-01-26 21:44:25.47	337.28	2.30	-47.5	-50.1	6.2	0.00e+00	0	48	104	38453379072	65	20668
2026-01-26 21:44:26.48	337.37	2.24	-47.5	-50.0	6.2	0.00e+00	0	48	104	38453379072	65	20589
2026-01-26 21:44:27.49	337.45	2.17	-47.5	-50.1	6.2	0.00e+00	0	48	104	38453379072	65	20741
2026-01-26 21:44:28.50	337.54	2.11	-47.5	-50.1	6.2	0.00e+00	0	48	104	38453379072	65	20725
2026-01-26 21:44:29.51	337.62	2.05	-47.5	-50.1	6.2	0.00e+00	0	48	104	38453379072	65	20640
2026-01-26 21:44:30.52	337.71	1.99	-47.5	-50.1	6.2	0.00e+00	0	48	104	38453379072	65	20644

#Closed at: 2026-01-26 21:44:30
#Recorded file [38453 MB]: D:/lorett/data/31045_260127_003428.dat