passes_logs/2026/01/20/R2.0S_Raduga/R2.0S_Raduga__20260120_000400_NOAA_20_JPSS-1_rec.log

#Pass ID: 20260120_000400_NOAA 20 (JPSS-1)
#Satellite: NOAA 20 (JPSS-1)
#Configuration: NOAA 20 (JPSS-1)
#Start time: 2026-01-20 00:04:05.986570

#LorettStation: 1.0.0 05.05.2024
#Station: R2.0S_Raduga
#Location: 37.601861 lon 55.688408 lat
#TLE: 1 43013U 17073A   26018.92475364  .00000071  00000+0  54435-4 0  9998
#TLE: 2 43013  98.7641 319.8227 0001354  33.6678 326.4584 14.19536868423299

#Time	Az	El	Level	SNR
2026-01-20 00:04:10.166065	11.3	15.4	-94.6	0.0
2026-01-20 00:04:11.302130	11.3	15.6	-94.6	0.0
2026-01-20 00:04:12.442184	11.2	15.7	-94.6	0.0
2026-01-20 00:04:13.581040	11.2	15.8	-94.9	0.0
2026-01-20 00:04:14.719416	11.1	15.9	-94.8	0.0
2026-01-20 00:04:15.855595	11.1	16.1	-94.8	0.0
2026-01-20 00:04:16.996176	11.1	16.2	-94.8	0.0
2026-01-20 00:04:18.128542	11.0	16.3	-94.9	0.0
2026-01-20 00:04:19.267994	11.0	16.4	-94.8	0.0
2026-01-20 00:04:20.405027	10.9	16.6	-94.8	0.0
2026-01-20 00:04:21.545147	10.9	16.7	-94.8	0.0
2026-01-20 00:04:22.688850	10.8	16.8	-94.7	0.0
2026-01-20 00:04:23.828776	10.8	16.9	-94.9	0.0
2026-01-20 00:04:24.967043	10.8	17.1	-94.7	0.0
2026-01-20 00:04:26.105294	10.7	17.2	-94.8	0.0
2026-01-20 00:04:27.238150	10.7	17.3	-94.8	0.0
2026-01-20 00:04:28.375228	10.6	17.5	-94.7	0.0
2026-01-20 00:04:29.512017	10.6	17.6	-94.8	0.0
2026-01-20 00:04:30.649685	10.5	17.7	-94.9	0.0
2026-01-20 00:04:31.786081	10.5	17.9	-95.0	0.0
2026-01-20 00:04:32.924816	10.4	18.0	-94.9	0.0
2026-01-20 00:04:34.061258	10.4	18.1	-94.8	0.0
2026-01-20 00:04:35.200059	10.3	18.3	-94.8	0.0
2026-01-20 00:04:36.337807	10.3	18.4	-94.9	0.0
2026-01-20 00:04:37.485294	10.2	18.5	-95.0	0.0
2026-01-20 00:04:38.619638	10.2	18.7	-94.8	0.0
2026-01-20 00:04:39.760045	10.1	18.8	-94.8	0.0
2026-01-20 00:04:40.896414	10.1	19.0	-94.9	0.0
2026-01-20 00:04:42.033961	10.0	19.1	-94.8	0.0
2026-01-20 00:04:43.173486	10.0	19.2	-94.9	0.0
2026-01-20 00:04:44.311075	9.9	19.4	-95.0	0.0
2026-01-20 00:04:45.444756	9.9	19.5	-94.8	0.0
2026-01-20 00:04:46.584117	9.8	19.7	-94.8	0.0
2026-01-20 00:04:47.720389	9.8	19.8	-94.7	0.0
2026-01-20 00:04:48.854038	9.7	20.0	-94.9	0.0
2026-01-20 00:04:49.991956	9.7	20.1	-94.8	0.0
2026-01-20 00:04:51.128319	9.6	20.2	-94.8	0.0
2026-01-20 00:04:52.270957	9.6	20.4	-94.9	0.0
2026-01-20 00:04:53.407247	9.5	20.5	-95.0	0.0
2026-01-20 00:04:54.545930	9.4	20.7	-94.8	0.0
2026-01-20 00:04:55.683608	9.4	20.8	-94.8	0.0
2026-01-20 00:04:56.821601	9.3	21.0	-94.9	0.0
2026-01-20 00:04:57.962635	9.3	21.1	-94.9	0.0
2026-01-20 00:04:59.102003	9.2	21.3	-94.9	0.0
2026-01-20 00:05:00.242577	9.2	21.5	-94.7	0.0
2026-01-20 00:05:01.381446	9.1	21.6	-95.0	0.0
2026-01-20 00:05:02.520827	9.0	21.8	-94.9	0.0
2026-01-20 00:05:03.663701	9.0	21.9	-94.8	0.0
2026-01-20 00:05:04.801967	8.9	22.1	-94.8	0.0
2026-01-20 00:05:05.940795	8.8	22.2	-94.8	0.0
2026-01-20 00:05:07.077026	8.8	22.4	-94.8	0.0
2026-01-20 00:05:08.217550	8.7	22.6	-94.7	0.0
2026-01-20 00:05:09.356826	8.7	22.7	-94.9	0.0
2026-01-20 00:05:10.490367	8.6	22.9	-94.7	0.0
2026-01-20 00:05:11.627760	8.5	23.0	-94.7	0.0
2026-01-20 00:05:12.761605	8.5	23.2	-94.8	0.0
2026-01-20 00:05:13.895257	8.4	23.4	-94.9	0.0
2026-01-20 00:05:15.034637	8.3	23.5	-94.8	0.0
2026-01-20 00:05:16.173509	8.2	23.7	-94.9	0.0
2026-01-20 00:05:17.317595	8.2	23.9	-94.7	0.0
2026-01-20 00:05:18.462055	8.1	24.0	-94.8	0.0
2026-01-20 00:05:19.597240	8.0	24.2	-94.8	0.0
2026-01-20 00:05:20.733861	8.0	24.4	-94.8	0.0
2026-01-20 00:05:21.871871	7.9	24.6	-94.9	0.0
2026-01-20 00:05:23.011037	7.8	24.7	-94.9	0.0
2026-01-20 00:05:24.148354	7.7	24.9	-94.9	0.0
2026-01-20 00:05:25.284259	7.7	25.1	-94.9	0.0
2026-01-20 00:05:26.423578	7.6	25.3	-94.8	0.0
2026-01-20 00:05:27.561237	7.5	25.4	-94.8	0.0
2026-01-20 00:05:28.704087	7.4	25.6	-94.7	0.0
2026-01-20 00:05:29.843946	7.3	25.8	-94.8	0.0
2026-01-20 00:05:30.980956	7.3	26.0	-94.8	0.0
2026-01-20 00:05:32.115210	7.2	26.2	-94.8	0.0
2026-01-20 00:05:33.253227	7.1	26.3	-94.7	0.0
2026-01-20 00:05:34.393081	7.0	26.5	-94.8	0.0
2026-01-20 00:05:35.527699	6.9	26.7	-94.9	0.0
2026-01-20 00:05:36.667080	6.8	26.9	-94.8	0.0
2026-01-20 00:05:37.803377	6.7	27.1	-94.8	0.0
2026-01-20 00:05:38.946670	6.7	27.3	-94.8	0.0
2026-01-20 00:05:40.080410	6.6	27.5	-94.8	0.0
2026-01-20 00:05:41.217577	6.5	27.7	-94.8	0.0
2026-01-20 00:05:42.359049	6.4	27.8	-94.8	0.0
2026-01-20 00:05:43.494980	6.3	28.0	-94.8	0.0
2026-01-20 00:05:44.631861	6.2	28.2	-94.9	0.0
2026-01-20 00:05:45.766730	6.1	28.4	-94.8	0.0
2026-01-20 00:05:46.901727	6.0	28.6	-94.8	0.0
2026-01-20 00:05:48.044924	5.9	28.8	-94.8	0.0
2026-01-20 00:05:49.188547	5.8	29.0	-94.7	0.0
2026-01-20 00:05:50.324142	5.7	29.2	-94.8	0.0
2026-01-20 00:05:51.462284	5.6	29.4	-94.8	0.0
2026-01-20 00:05:52.601151	5.5	29.6	-94.8	0.0
2026-01-20 00:05:53.736000	5.4	29.9	-94.9	0.0
2026-01-20 00:05:54.874974	5.3	30.1	-94.8	0.0
2026-01-20 00:05:56.020151	5.2	30.3	-94.9	0.0
2026-01-20 00:05:57.157857	5.1	30.5	-94.8	0.0
2026-01-20 00:05:58.295177	5.0	30.7	-94.7	0.0
2026-01-20 00:05:59.437160	4.9	30.9	-94.9	0.0
2026-01-20 00:06:00.570522	4.7	31.1	-94.9	0.0
2026-01-20 00:06:01.710408	4.6	31.3	-95.0	0.0
2026-01-20 00:06:02.852049	4.5	31.6	-94.8	0.0
2026-01-20 00:06:03.998181	4.4	31.8	-94.9	0.0
2026-01-20 00:06:05.138478	4.3	32.0	-94.7	0.0
2026-01-20 00:06:06.276096	4.1	32.2	-94.8	0.0
2026-01-20 00:06:07.408584	4.0	32.4	-94.7	0.0
2026-01-20 00:06:08.558890	3.9	32.7	-94.9	0.0
2026-01-20 00:06:09.698794	3.8	32.9	-94.8	0.0
2026-01-20 00:06:10.841665	3.6	33.1	-94.8	0.0
2026-01-20 00:06:11.985844	3.5	33.4	-94.8	0.0
2026-01-20 00:06:13.120617	3.4	33.6	-94.9	0.0
2026-01-20 00:06:14.262842	3.2	33.8	-95.0	0.0
2026-01-20 00:06:15.403931	3.1	34.1	-95.0	0.0
2026-01-20 00:06:16.546124	3.0	34.3	-94.6	0.0
2026-01-20 00:06:17.684514	2.8	34.5	-94.9	0.0
2026-01-20 00:06:18.826052	2.7	34.8	-94.7	0.0
2026-01-20 00:06:19.973690	2.5	35.0	-94.8	0.0
2026-01-20 00:06:21.113367	2.4	35.3	-94.8	0.0
2026-01-20 00:06:22.247243	2.2	35.5	-94.8	0.0
2026-01-20 00:06:23.388478	2.1	35.8	-94.7	0.0
2026-01-20 00:06:24.522175	1.9	36.0	-94.8	0.0
2026-01-20 00:06:25.659444	1.8	36.3	-95.0	0.0
2026-01-20 00:06:26.797333	1.6	36.5	-94.8	0.0
2026-01-20 00:06:27.930784	1.5	36.8	-94.9	0.0
2026-01-20 00:06:29.070151	1.3	37.0	-94.9	0.0
2026-01-20 00:06:30.212752	1.1	37.3	-94.8	0.0
2026-01-20 00:06:31.344894	1.0	37.5	-94.8	0.0
2026-01-20 00:06:32.484387	0.8	37.8	-94.9	0.0
2026-01-20 00:06:33.621837	0.6	38.1	-94.8	0.0
2026-01-20 00:06:34.758034	0.4	38.3	-94.8	0.0
2026-01-20 00:06:35.894341	0.2	38.6	-94.9	0.0
2026-01-20 00:06:37.031493	0.1	38.9	-94.7	0.0
2026-01-20 00:06:38.168570	359.9	39.1	-94.8	0.0
2026-01-20 00:06:39.304969	359.7	39.4	-94.9	0.0
2026-01-20 00:06:40.438678	359.5	39.7	-94.9	0.0
2026-01-20 00:06:41.575161	359.3	39.9	-94.7	0.0
2026-01-20 00:06:42.708025	359.1	40.2	-94.7	0.0
2026-01-20 00:06:43.849376	358.9	40.5	-94.8	0.0
2026-01-20 00:06:44.987014	358.7	40.8	-94.9	0.0
2026-01-20 00:06:46.124392	358.5	41.1	-94.8	0.0
2026-01-20 00:06:47.261907	358.2	41.3	-95.0	0.0
2026-01-20 00:06:48.393157	358.0	41.6	-94.8	0.0
2026-01-20 00:06:49.531851	357.8	41.9	-94.9	0.0
2026-01-20 00:06:50.667724	357.6	42.2	-94.8	0.0
2026-01-20 00:06:51.807636	357.3	42.5	-94.9	0.0
2026-01-20 00:06:52.956405	357.1	42.8	-94.9	0.0
2026-01-20 00:06:54.092662	356.9	43.1	-94.8	0.0
2026-01-20 00:06:55.228927	356.6	43.4	-94.6	0.0
2026-01-20 00:06:56.367392	356.4	43.7	-94.9	0.0
2026-01-20 00:06:57.504034	356.1	44.0	-94.8	0.0
2026-01-20 00:06:58.642189	355.9	44.3	-94.8	0.0
2026-01-20 00:06:59.777602	355.6	44.6	-94.6	0.0
2026-01-20 00:07:00.918133	355.3	44.9	-94.8	0.0
2026-01-20 00:07:02.057965	355.0	45.2	-94.9	0.0
2026-01-20 00:07:03.197825	354.8	45.5	-94.8	0.0
2026-01-20 00:07:04.342359	354.5	45.8	-94.9	0.0
2026-01-20 00:07:05.480388	354.2	46.1	-94.7	0.0
2026-01-20 00:07:06.620587	353.9	46.4	-94.8	0.0
2026-01-20 00:07:07.752659	353.6	46.7	-94.7	0.0
2026-01-20 00:07:08.893154	353.3	47.1	-94.8	0.0
2026-01-20 00:07:10.028339	353.0	47.4	-94.7	0.0
2026-01-20 00:07:11.165069	352.6	47.7	-94.9	0.0
2026-01-20 00:07:12.302850	352.3	48.0	-94.9	0.0
2026-01-20 00:07:13.435826	352.0	48.3	-94.9	0.0
2026-01-20 00:07:14.569718	351.6	48.6	-94.7	0.0
2026-01-20 00:07:15.707912	351.3	49.0	-94.9	0.0
2026-01-20 00:07:16.844191	350.9	49.3	-94.7	0.0
2026-01-20 00:07:17.984881	350.6	49.6	-94.9	0.0
2026-01-20 00:07:19.130228	350.2	49.9	-94.9	0.0
2026-01-20 00:07:20.265834	349.8	50.3	-94.7	0.0
2026-01-20 00:07:21.402742	349.4	50.6	-94.8	0.0
2026-01-20 00:07:22.545914	349.0	50.9	-94.7	0.0
2026-01-20 00:07:23.683606	348.6	51.3	-94.9	0.0
2026-01-20 00:07:24.822229	348.2	51.6	-95.0	0.0
2026-01-20 00:07:25.960604	347.7	51.9	-94.8	0.0
2026-01-20 00:07:27.097974	347.3	52.3	-94.8	0.0
2026-01-20 00:07:28.237416	346.9	52.6	-94.8	0.0
2026-01-20 00:07:29.380960	346.4	52.9	-94.7	0.0
2026-01-20 00:07:30.518536	345.9	53.2	-94.9	0.0
2026-01-20 00:07:31.654779	345.5	53.6	-94.8	0.0
2026-01-20 00:07:32.799402	345.0	53.9	-94.8	0.0
2026-01-20 00:07:33.935809	344.5	54.3	-94.8	0.0
2026-01-20 00:07:35.070655	343.9	54.6	-94.8	0.0
2026-01-20 00:07:36.210209	343.4	54.9	-94.7	0.0
2026-01-20 00:07:37.344288	342.9	55.2	-94.9	0.0
2026-01-20 00:07:38.480848	342.3	55.6	-94.8	0.0
2026-01-20 00:07:39.617376	341.8	55.9	-94.8	0.0
2026-01-20 00:07:40.758739	341.2	56.2	-95.0	0.0
2026-01-20 00:07:41.895763	340.6	56.6	-94.7	0.0
2026-01-20 00:07:43.030843	340.0	56.9	-94.8	0.0
2026-01-20 00:07:44.170702	339.4	57.2	-95.0	0.0
2026-01-20 00:07:45.307449	338.7	57.6	-94.7	0.0
2026-01-20 00:07:46.442082	338.1	57.9	-94.7	0.0
2026-01-20 00:07:47.583390	337.4	58.2	-95.0	0.0
2026-01-20 00:07:48.720877	336.7	58.5	-95.0	0.0
2026-01-20 00:07:49.855851	336.0	58.8	-94.7	0.0
2026-01-20 00:07:50.994166	335.3	59.1	-94.8	0.0
2026-01-20 00:07:52.138384	334.6	59.5	-94.8	0.0
2026-01-20 00:07:53.283330	333.8	59.8	-94.8	0.0
2026-01-20 00:07:54.417348	333.0	60.1	-94.9	0.0
2026-01-20 00:07:55.557407	332.2	60.4	-94.8	0.0
2026-01-20 00:07:56.694745	331.4	60.7	-94.8	0.0
2026-01-20 00:07:57.833105	330.6	61.0	-94.9	0.0
2026-01-20 00:07:58.968925	329.8	61.3	-94.9	0.0
2026-01-20 00:08:00.105782	328.9	61.6	-94.8	0.0
2026-01-20 00:08:01.242789	328.0	61.8	-94.8	0.0
2026-01-20 00:08:02.380967	327.1	62.1	-94.7	0.0
2026-01-20 00:08:03.521149	326.2	62.4	-94.7	0.0
2026-01-20 00:08:04.660280	325.2	62.7	-94.9	0.0
2026-01-20 00:08:05.799799	324.2	62.9	-94.8	0.0
2026-01-20 00:08:06.941447	323.2	63.2	-94.7	0.0
2026-01-20 00:08:08.082301	322.2	63.4	-94.9	0.0
2026-01-20 00:08:09.218932	321.2	63.7	-94.8	0.0
2026-01-20 00:08:10.354703	320.1	63.9	-94.9	0.0
2026-01-20 00:08:11.491141	319.0	64.1	-95.1	0.0
2026-01-20 00:08:12.628479	317.9	64.4	-94.8	0.0
2026-01-20 00:08:13.761709	316.8	64.6	-94.8	0.0
2026-01-20 00:08:14.904996	315.7	64.8	-94.9	0.0
2026-01-20 00:08:16.043872	314.5	65.0	-94.9	0.0
2026-01-20 00:08:17.181097	313.3	65.2	-94.8	0.0
2026-01-20 00:08:18.316135	312.1	65.3	-94.9	0.0
2026-01-20 00:08:19.456312	310.9	65.5	-94.8	0.0
2026-01-20 00:08:20.594348	309.6	65.7	-94.8	0.0
2026-01-20 00:08:21.727674	308.4	65.8	-94.8	0.0
2026-01-20 00:08:22.867039	307.1	65.9	-94.8	0.0
2026-01-20 00:08:24.009855	305.8	66.1	-94.9	0.0
2026-01-20 00:08:25.155281	304.5	66.2	-94.8	0.0
2026-01-20 00:08:26.292669	303.2	66.3	-94.8	0.0
2026-01-20 00:08:27.436718	301.8	66.4	-94.8	0.0
2026-01-20 00:08:28.579814	300.5	66.5	-94.8	0.0
2026-01-20 00:08:29.715681	299.1	66.5	-95.0	0.0
2026-01-20 00:08:30.854917	297.8	66.6	-94.7	0.0
2026-01-20 00:08:31.992786	296.4	66.6	-94.8	0.0
2026-01-20 00:08:33.131652	295.1	66.7	-94.8	0.0
2026-01-20 00:08:34.268307	293.7	66.7	-94.7	0.0
2026-01-20 00:08:35.410945	292.3	66.7	-94.9	0.0
2026-01-20 00:08:36.552530	290.9	66.7	-94.9	0.0
2026-01-20 00:08:37.691301	289.5	66.7	-94.8	0.0
2026-01-20 00:08:38.827186	288.2	66.6	-94.8	0.0
2026-01-20 00:08:39.964531	286.8	66.6	-94.9	0.0
2026-01-20 00:08:41.100416	285.4	66.5	-94.7	0.0
2026-01-20 00:08:42.240094	284.1	66.5	-94.8	0.0
2026-01-20 00:08:43.376232	282.8	66.4	-94.9	0.0
2026-01-20 00:08:44.516405	281.4	66.3	-94.9	0.0
2026-01-20 00:08:45.650874	280.1	66.2	-95.0	0.0
2026-01-20 00:08:46.786249	278.8	66.1	-94.9	0.0
2026-01-20 00:08:47.922484	277.5	66.0	-94.7	0.0
2026-01-20 00:08:49.060926	276.2	65.8	-94.8	0.0
2026-01-20 00:08:50.194689	275.0	65.7	-94.8	0.0
2026-01-20 00:08:51.334049	273.7	65.5	-94.9	0.0
2026-01-20 00:08:52.467905	272.5	65.4	-94.7	0.0
2026-01-20 00:08:53.606546	271.3	65.2	-94.8	0.0
2026-01-20 00:08:54.739619	270.1	65.0	-94.7	0.0
2026-01-20 00:08:55.881001	268.9	64.8	-94.7	0.0
2026-01-20 00:08:57.021815	267.8	64.6	-94.8	0.0
2026-01-20 00:08:58.154849	266.6	64.4	-94.8	0.0
2026-01-20 00:08:59.289716	265.5	64.2	-94.8	0.0
2026-01-20 00:09:00.422430	264.4	64.0	-94.8	0.0
2026-01-20 00:09:01.560653	263.4	63.7	-94.7	0.0
2026-01-20 00:09:02.693018	262.3	63.5	-94.9	0.0
2026-01-20 00:09:03.832188	261.3	63.2	-94.7	0.0
2026-01-20 00:09:04.969875	260.3	63.0	-94.8	0.0
2026-01-20 00:09:06.105530	259.3	62.7	-94.9	0.0
2026-01-20 00:09:07.251096	258.4	62.5	-94.8	0.0
2026-01-20 00:09:08.386958	257.4	62.2	-94.8	0.0
2026-01-20 00:09:09.531301	256.5	61.9	-94.8	0.0
2026-01-20 00:09:10.671668	255.6	61.6	-94.8	0.0
2026-01-20 00:09:11.804836	254.7	61.3	-94.7	0.0
2026-01-20 00:09:12.941372	253.9	61.1	-94.9	0.0
2026-01-20 00:09:14.079612	253.0	60.8	-94.7	0.0
2026-01-20 00:09:15.222926	252.2	60.5	-94.8	0.0
2026-01-20 00:09:16.359663	251.4	60.1	-94.8	0.0
2026-01-20 00:09:17.496020	250.7	59.8	-94.7	0.0
2026-01-20 00:09:18.638155	249.9	59.5	-94.7	0.0
2026-01-20 00:09:19.774138	249.1	59.2	-94.9	0.0
2026-01-20 00:09:20.910226	248.4	58.9	-94.9	0.0
2026-01-20 00:09:22.049592	247.7	58.6	-95.0	0.0
2026-01-20 00:09:23.185316	247.0	58.3	-94.7	0.0
2026-01-20 00:09:24.329603	246.4	57.9	-94.8	0.0
2026-01-20 00:09:25.470508	245.7	57.6	-95.0	0.0
2026-01-20 00:09:26.618662	245.0	57.3	-94.8	0.0
2026-01-20 00:09:27.751193	244.4	57.0	-94.9	0.0
2026-01-20 00:09:28.888520	243.8	56.6	-94.8	0.0
2026-01-20 00:09:30.030150	243.2	56.3	-95.0	0.0
2026-01-20 00:09:31.173382	242.6	56.0	-94.8	0.0
2026-01-20 00:09:32.308946	242.1	55.6	-94.9	0.0
2026-01-20 00:09:33.445859	241.5	55.3	-94.8	0.0
2026-01-20 00:09:34.584175	241.0	55.0	-95.0	0.0
2026-01-20 00:09:35.727806	240.4	54.6	-94.7	0.0
2026-01-20 00:09:36.863159	239.9	54.3	-94.8	0.0
2026-01-20 00:09:38.005669	239.4	54.0	-94.8	0.0
2026-01-20 00:09:39.151717	238.9	53.6	-94.8	0.0
2026-01-20 00:09:40.284105	238.4	53.3	-94.8	0.0
2026-01-20 00:09:41.420497	238.0	53.0	-94.7	0.0
2026-01-20 00:09:42.559783	237.5	52.6	-94.8	0.0
2026-01-20 00:09:43.704141	237.0	52.3	-94.8	0.0
2026-01-20 00:09:44.843523	236.6	52.0	-94.9	0.0
2026-01-20 00:09:45.979647	236.2	51.6	-94.9	0.0
2026-01-20 00:09:47.112461	235.7	51.3	-94.8	0.0
2026-01-20 00:09:48.247148	235.3	51.0	-94.9	0.0
2026-01-20 00:09:49.384354	234.9	50.6	-94.9	0.0
2026-01-20 00:09:50.521687	234.5	50.3	-94.9	0.0
2026-01-20 00:09:51.656754	234.2	50.0	-94.9	0.0
2026-01-20 00:09:52.794195	233.8	49.7	-94.8	0.0
2026-01-20 00:09:53.932164	233.4	49.3	-94.8	0.0
2026-01-20 00:09:55.069116	233.1	49.0	-94.8	0.0
2026-01-20 00:09:56.203745	232.7	48.7	-94.7	0.0
2026-01-20 00:09:57.339877	232.4	48.4	-94.9	0.0
2026-01-20 00:09:58.478981	232.0	48.0	-94.6	0.0
2026-01-20 00:09:59.623013	231.7	47.7	-94.8	0.0
2026-01-20 00:10:00.761181	231.4	47.4	-94.7	0.0
2026-01-20 00:10:01.895571	231.0	47.1	-95.0	0.0
2026-01-20 00:10:03.037007	230.7	46.8	-94.8	0.0
2026-01-20 00:10:04.173958	230.4	46.4	-94.8	0.0
2026-01-20 00:10:05.313114	230.1	46.1	-94.9	0.0
2026-01-20 00:10:06.447487	229.8	45.8	-94.8	0.0
2026-01-20 00:10:07.585524	229.5	45.5	-94.8	0.0
2026-01-20 00:10:08.733056	229.2	45.2	-94.9	0.0
2026-01-20 00:10:09.869185	229.0	44.9	-94.9	0.0
2026-01-20 00:10:11.008182	228.7	44.6	-94.8	0.0
2026-01-20 00:10:12.150805	228.4	44.3	-94.9	0.0
2026-01-20 00:10:13.295384	228.2	44.0	-94.8	0.0
2026-01-20 00:10:14.433157	227.9	43.7	-94.9	0.0
2026-01-20 00:10:15.568086	227.7	43.4	-94.7	0.0
2026-01-20 00:10:16.705780	227.4	43.1	-94.9	0.0
2026-01-20 00:10:17.841803	227.2	42.8	-94.8	0.0
2026-01-20 00:10:18.985876	226.9	42.5	-94.9	0.0
2026-01-20 00:10:20.128734	226.7	42.2	-94.8	0.0
2026-01-20 00:10:21.267441	226.5	41.9	-94.9	0.0
2026-01-20 00:10:22.401152	226.2	41.6	-94.7	0.0
2026-01-20 00:10:23.540017	226.0	41.3	-95.0	0.0
2026-01-20 00:10:24.679553	225.8	41.1	-94.9	0.0
2026-01-20 00:10:25.815855	225.6	40.8	-94.9	0.0
2026-01-20 00:10:26.955256	225.4	40.5	-94.8	0.0
2026-01-20 00:10:28.096812	225.2	40.2	-94.8	0.0
2026-01-20 00:10:29.239128	225.0	39.9	-94.9	0.0
2026-01-20 00:10:30.372942	224.8	39.7	-94.8	0.0
2026-01-20 00:10:31.508905	224.6	39.4	-95.0	0.0
2026-01-20 00:10:32.653356	224.4	39.1	-94.6	0.0
2026-01-20 00:10:33.787233	224.2	38.8	-94.9	0.0
2026-01-20 00:10:34.935058	224.0	38.6	-94.8	0.0
2026-01-20 00:10:36.070210	223.8	38.3	-94.9	0.0
2026-01-20 00:10:37.205574	223.6	38.0	-94.8	0.0
2026-01-20 00:10:38.337710	223.5	37.8	-94.9	0.0
2026-01-20 00:10:39.472641	223.3	37.5	-94.7	0.0
2026-01-20 00:10:40.606401	223.1	37.3	-94.8	0.0
2026-01-20 00:10:41.746795	223.0	37.0	-94.8	0.0
2026-01-20 00:10:42.887838	222.8	36.7	-94.7	0.0
2026-01-20 00:10:44.020706	222.6	36.5	-94.8	0.0
2026-01-20 00:10:45.157002	222.5	36.2	-94.8	0.0
2026-01-20 00:10:46.290983	222.3	36.0	-95.0	0.0
2026-01-20 00:10:47.425822	222.2	35.7	-94.7	0.0
2026-01-20 00:10:48.561132	222.0	35.5	-95.0	0.0
2026-01-20 00:10:49.698126	221.9	35.2	-94.7	0.0
2026-01-20 00:10:50.834484	221.7	35.0	-94.8	0.0
2026-01-20 00:10:51.971350	221.6	34.7	-94.7	0.0
2026-01-20 00:10:53.107665	221.4	34.5	-94.9	0.0
2026-01-20 00:10:54.249525	221.3	34.3	-94.8	0.0
2026-01-20 00:10:55.380558	221.1	34.0	-94.7	0.0
2026-01-20 00:10:56.512989	221.0	33.8	-94.8	0.0
2026-01-20 00:10:57.659550	220.9	33.6	-94.8	0.0
2026-01-20 00:10:58.798046	220.7	33.3	-95.0	0.0
2026-01-20 00:10:59.940383	220.6	33.1	-94.9	0.0
2026-01-20 00:11:01.079635	220.5	32.9	-94.8	0.0
2026-01-20 00:11:02.228106	220.3	32.6	-94.7	0.0
2026-01-20 00:11:03.369920	220.2	32.4	-94.8	0.0
2026-01-20 00:11:04.503867	220.1	32.2	-94.8	0.0
2026-01-20 00:11:05.642260	220.0	32.0	-94.9	0.0
2026-01-20 00:11:06.777725	219.8	31.7	-94.9	0.0
2026-01-20 00:11:07.916582	219.7	31.5	-95.0	0.0
2026-01-20 00:11:09.053925	219.6	31.3	-94.9	0.0
2026-01-20 00:11:10.189392	219.5	31.1	-94.9	0.0
2026-01-20 00:11:11.332753	219.4	30.9	-94.8	0.0
2026-01-20 00:11:12.487690	219.3	30.6	-94.9	0.0
2026-01-20 00:11:13.624526	219.1	30.4	-95.0	0.0
2026-01-20 00:11:14.768428	219.0	30.2	-95.0	0.0
2026-01-20 00:11:15.910721	218.9	30.0	-94.8	0.0
2026-01-20 00:11:17.048498	218.8	29.8	-94.9	0.0
2026-01-20 00:11:18.186576	218.7	29.6	-95.0	0.0
2026-01-20 00:11:19.325461	218.6	29.4	-94.9	0.0
2026-01-20 00:11:20.463626	218.5	29.2	-94.8	0.0
2026-01-20 00:11:21.602402	218.4	29.0	-94.9	0.0
2026-01-20 00:11:22.740716	218.3	28.8	-94.8	0.0
2026-01-20 00:11:23.878404	218.2	28.6	-94.8	0.0
2026-01-20 00:11:25.012455	218.1	28.4	-95.0	0.0
2026-01-20 00:11:26.155836	218.0	28.2	-94.7	0.0
2026-01-20 00:11:27.293951	217.9	28.0	-94.7	0.0
2026-01-20 00:11:28.435002	217.8	27.8	-94.9	0.0
2026-01-20 00:11:29.576975	217.7	27.6	-94.8	0.0
2026-01-20 00:11:30.710550	217.6	27.4	-94.8	0.0
2026-01-20 00:11:31.848328	217.5	27.2	-94.7	0.0
2026-01-20 00:11:32.995516	217.5	27.0	-94.9	0.0
2026-01-20 00:11:34.136739	217.4	26.8	-94.8	0.0
2026-01-20 00:11:35.274590	217.3	26.6	-94.8	0.0
2026-01-20 00:11:36.408949	217.2	26.4	-94.9	0.0
2026-01-20 00:11:37.558320	217.1	26.3	-94.8	0.0
2026-01-20 00:11:38.699264	217.0	26.1	-94.8	0.0
2026-01-20 00:11:39.838624	216.9	25.9	-94.7	0.0
2026-01-20 00:11:40.977991	216.9	25.7	-94.7	0.0
2026-01-20 00:11:42.113397	216.8	25.5	-94.8	0.0
2026-01-20 00:11:43.257340	216.7	25.3	-94.7	0.0
2026-01-20 00:11:44.408520	216.6	25.2	-94.7	0.0
2026-01-20 00:11:45.551705	216.5	25.0	-94.9	0.0
2026-01-20 00:11:46.684922	216.5	24.8	-94.9	0.0
2026-01-20 00:11:47.822928	216.4	24.6	-94.8	0.0
2026-01-20 00:11:48.960353	216.3	24.5	-94.8	0.0
2026-01-20 00:11:50.099881	216.2	24.3	-94.7	0.0
2026-01-20 00:11:51.244173	216.2	24.1	-94.8	0.0
2026-01-20 00:11:52.388385	216.1	23.9	-94.9	0.0
2026-01-20 00:11:53.525740	216.0	23.8	-94.8	0.0
2026-01-20 00:11:54.664753	215.9	23.6	-94.8	0.0
2026-01-20 00:11:55.804558	215.9	23.4	-94.7	0.0
2026-01-20 00:11:56.952580	215.8	23.3	-94.9	0.0
2026-01-20 00:11:58.089788	215.7	23.1	-94.8	0.0
2026-01-20 00:11:59.230912	215.7	22.9	-94.6	0.0
2026-01-20 00:12:00.367333	215.6	22.8	-94.9	0.0
2026-01-20 00:12:01.501708	215.5	22.6	-94.7	0.0
2026-01-20 00:12:02.635621	215.5	22.4	-94.7	0.0
2026-01-20 00:12:03.773346	215.4	22.3	-94.8	0.0
2026-01-20 00:12:04.914598	215.3	22.1	-94.9	0.0
2026-01-20 00:12:06.053420	215.3	22.0	-94.8	0.0
2026-01-20 00:12:07.191159	215.2	21.8	-94.8	0.0
2026-01-20 00:12:08.331329	215.1	21.7	-94.8	0.0
2026-01-20 00:12:09.466338	215.1	21.5	-94.6	0.0
2026-01-20 00:12:10.604879	215.0	21.3	-94.8	0.0
2026-01-20 00:12:11.742751	215.0	21.2	-94.8	0.0
2026-01-20 00:12:12.881083	214.9	21.0	-94.9	0.0
2026-01-20 00:12:14.017443	214.8	20.9	-94.9	0.0
2026-01-20 00:12:15.150811	214.8	20.7	-95.0	0.0
2026-01-20 00:12:16.290366	214.7	20.6	-94.7	0.0
2026-01-20 00:12:17.432729	214.7	20.4	-94.8	0.0
2026-01-20 00:12:18.568270	214.6	20.3	-94.9	0.0
2026-01-20 00:12:19.707991	214.5	20.1	-94.8	0.0
2026-01-20 00:12:20.845375	214.5	20.0	-94.8	0.0
2026-01-20 00:12:21.981967	214.4	19.8	-95.0	0.0
2026-01-20 00:12:23.123347	214.4	19.7	-94.8	0.0
2026-01-20 00:12:24.261427	214.3	19.6	-94.7	0.0
2026-01-20 00:12:25.400854	214.3	19.4	-94.7	0.0
2026-01-20 00:12:26.540883	214.2	19.3	-94.9	0.0
2026-01-20 00:12:27.687185	214.2	19.1	-94.7	0.0
2026-01-20 00:12:28.830164	214.1	19.0	-94.6	0.0
2026-01-20 00:12:29.963093	214.1	18.8	-94.9	0.0
2026-01-20 00:12:31.104500	214.0	18.7	-95.0	0.0
2026-01-20 00:12:32.244311	214.0	18.6	-94.9	0.0
2026-01-20 00:12:33.389684	213.9	18.4	-94.7	0.0
2026-01-20 00:12:34.527229	213.9	18.3	-94.8	0.0
2026-01-20 00:12:35.663607	213.8	18.1	-94.8	0.0
2026-01-20 00:12:36.796547	213.8	18.0	-94.8	0.0
2026-01-20 00:12:37.929963	213.7	17.9	-94.9	0.0
2026-01-20 00:12:39.064706	213.7	17.7	-94.8	0.0
2026-01-20 00:12:40.203149	213.6	17.6	-95.0	0.0
2026-01-20 00:12:41.341872	213.6	17.5	-94.7	0.0
2026-01-20 00:12:42.478674	213.5	17.3	-94.8	0.0
2026-01-20 00:12:43.626374	213.5	17.2	-95.0	0.0
2026-01-20 00:12:44.764556	213.4	17.1	-94.9	0.0
2026-01-20 00:12:45.905736	213.4	16.9	-94.8	0.0
2026-01-20 00:12:47.050590	213.3	16.8	-94.9	0.0
2026-01-20 00:12:48.187109	213.3	16.7	-94.7	0.0
2026-01-20 00:12:49.327979	213.3	16.6	-94.9	0.0
2026-01-20 00:12:50.463358	213.2	16.4	-94.7	0.0
2026-01-20 00:12:51.612153	213.2	16.3	-94.9	0.0
2026-01-20 00:12:52.749936	213.1	16.2	-94.7	0.0
2026-01-20 00:12:53.885598	213.1	16.0	-94.9	0.0
2026-01-20 00:12:55.025602	213.0	15.9	-94.9	0.0
2026-01-20 00:12:56.165390	213.0	15.8	-94.8	0.0
2026-01-20 00:12:57.304136	213.0	15.7	-94.8	0.0
2026-01-20 00:12:58.442955	212.9	15.6	-94.8	0.0
2026-01-20 00:12:59.582097	212.9	15.4	-94.8	0.0
2026-01-20 00:13:00.715746	212.8	15.3	-95.0	0.0
2026-01-20 00:13:01.851789	212.8	15.2	-94.8	0.0
2026-01-20 00:13:02.986516	212.8	15.1	-94.8	0.0
#Closed at: 2026-01-20 00:04:00.990401