passes_logs/2026/01/20/R2.0S_Raduga/R2.0S_Raduga__20260120_095428_NOAA_20_JPSS-1_rec.log

#Pass ID: 20260120_095428_NOAA 20 (JPSS-1)
#Satellite: NOAA 20 (JPSS-1)
#Configuration: NOAA 20 (JPSS-1)
#Start time: 2026-01-20 09:54:33.391801

#LorettStation: 1.0.0 05.05.2024
#Station: R2.0S_Raduga
#Location: 37.601861 lon 55.688408 lat
#TLE: 1 43013U 17073A   26018.92475364  .00000071  00000+0  54435-4 0  9998
#TLE: 2 43013  98.7641 319.8227 0001354  33.6678 326.4584 14.19536868423299

#Time	Az	El	Level	SNR
2026-01-20 09:54:41.567271	158.2	15.9	-94.8	0.0
2026-01-20 09:54:42.702255	158.2	16.0	-94.8	0.0
2026-01-20 09:54:43.837586	158.2	16.1	-94.8	0.0
2026-01-20 09:54:44.976897	158.2	16.3	-94.7	0.0
2026-01-20 09:54:46.109935	158.2	16.4	-94.7	0.0
2026-01-20 09:54:47.242282	158.2	16.5	-94.9	0.0
2026-01-20 09:54:48.371885	158.2	16.7	-94.9	0.0
2026-01-20 09:54:49.505633	158.2	16.8	-94.7	0.0
2026-01-20 09:54:50.642128	158.2	16.9	-94.8	0.0
2026-01-20 09:54:51.775923	158.2	17.1	-94.9	0.0
2026-01-20 09:54:52.907797	158.2	17.2	-94.8	0.0
2026-01-20 09:54:54.038267	158.1	17.3	-94.8	0.0
2026-01-20 09:54:55.170581	158.1	17.5	-94.7	0.0
2026-01-20 09:54:56.307712	158.1	17.6	-94.7	0.0
2026-01-20 09:54:57.442234	158.1	17.7	-94.9	0.0
2026-01-20 09:54:58.576604	158.1	17.9	-94.8	0.0
2026-01-20 09:54:59.706460	158.1	18.0	-94.8	0.0
2026-01-20 09:55:00.847185	158.1	18.1	-94.8	0.0
2026-01-20 09:55:01.978972	158.1	18.3	-94.7	0.0
2026-01-20 09:55:03.117823	158.1	18.4	-94.8	0.0
2026-01-20 09:55:04.247711	158.1	18.6	-94.6	0.0
2026-01-20 09:55:05.382276	158.1	18.7	-94.8	0.0
2026-01-20 09:55:06.518491	158.1	18.8	-94.7	0.0
2026-01-20 09:55:07.650735	158.1	19.0	-94.8	0.0
2026-01-20 09:55:08.781504	158.0	19.1	-94.8	0.0
2026-01-20 09:55:09.914495	158.0	19.3	-94.7	0.0
2026-01-20 09:55:11.049588	158.0	19.4	-94.7	0.0
2026-01-20 09:55:12.182380	158.0	19.6	-94.8	0.0
2026-01-20 09:55:13.321813	158.0	19.7	-94.9	0.0
2026-01-20 09:55:14.457481	158.0	19.9	-94.9	0.0
2026-01-20 09:55:15.589716	158.0	20.0	-94.7	0.0
2026-01-20 09:55:16.721571	158.0	20.2	-94.8	0.0
2026-01-20 09:55:17.854452	158.0	20.3	-95.0	0.0
2026-01-20 09:55:18.984653	158.0	20.5	-94.9	0.0
2026-01-20 09:55:20.122816	158.0	20.6	-94.8	0.0
2026-01-20 09:55:21.260058	157.9	20.8	-94.6	0.0
2026-01-20 09:55:22.393718	157.9	20.9	-94.9	0.0
2026-01-20 09:55:23.523821	157.9	21.1	-94.8	0.0
2026-01-20 09:55:24.659961	157.9	21.2	-94.9	0.0
2026-01-20 09:55:25.795195	157.9	21.4	-94.8	0.0
2026-01-20 09:55:26.927435	157.9	21.5	-94.8	0.0
2026-01-20 09:55:28.064105	157.9	21.7	-94.8	0.0
2026-01-20 09:55:29.195361	157.9	21.9	-94.8	0.0
2026-01-20 09:55:30.335214	157.9	22.0	-94.8	0.0
2026-01-20 09:55:31.470418	157.8	22.2	-94.6	0.0
2026-01-20 09:55:32.604728	157.8	22.4	-94.8	0.0
2026-01-20 09:55:33.737813	157.8	22.5	-94.9	0.0
2026-01-20 09:55:34.868220	157.8	22.7	-94.8	0.0
2026-01-20 09:55:36.002141	157.8	22.9	-94.8	0.0
2026-01-20 09:55:37.133219	157.8	23.0	-94.8	0.0
2026-01-20 09:55:38.272060	157.8	23.2	-94.8	0.0
2026-01-20 09:55:39.404134	157.8	23.4	-94.9	0.0
2026-01-20 09:55:40.539745	157.7	23.5	-94.6	0.0
2026-01-20 09:55:41.670191	157.7	23.7	-94.8	0.0
2026-01-20 09:55:42.805656	157.7	23.9	-94.7	0.0
2026-01-20 09:55:43.941793	157.7	24.0	-94.7	0.0
2026-01-20 09:55:45.075452	157.7	24.2	-94.8	0.0
2026-01-20 09:55:46.210065	157.7	24.4	-94.9	0.0
2026-01-20 09:55:47.342233	157.7	24.6	-94.8	0.0
2026-01-20 09:55:48.478163	157.7	24.8	-94.9	0.0
2026-01-20 09:55:49.609674	157.6	24.9	-94.9	0.0
2026-01-20 09:55:50.748139	157.6	25.1	-94.9	0.0
2026-01-20 09:55:51.878872	157.6	25.3	-94.8	0.0
2026-01-20 09:55:53.017075	157.6	25.5	-94.8	0.0
2026-01-20 09:55:54.150424	157.6	25.7	-94.9	0.0
2026-01-20 09:55:55.284675	157.6	25.9	-94.8	0.0
2026-01-20 09:55:56.418561	157.6	26.0	-94.7	0.0
2026-01-20 09:55:57.552767	157.5	26.2	-94.7	0.0
2026-01-20 09:55:58.694157	157.5	26.4	-94.8	0.0
2026-01-20 09:55:59.825531	157.5	26.6	-94.9	0.0
2026-01-20 09:56:00.961393	157.5	26.8	-94.9	0.0
2026-01-20 09:56:02.094989	157.5	27.0	-94.8	0.0
2026-01-20 09:56:03.226678	157.5	27.2	-94.9	0.0
2026-01-20 09:56:04.368715	157.4	27.4	-94.8	0.0
2026-01-20 09:56:05.496045	157.4	27.6	-94.9	0.0
2026-01-20 09:56:06.634086	157.4	27.8	-94.7	0.0
2026-01-20 09:56:07.768959	157.4	28.0	-94.8	0.0
2026-01-20 09:56:08.906142	157.4	28.2	-94.7	0.0
2026-01-20 09:56:10.040615	157.3	28.4	-94.8	0.0
2026-01-20 09:56:11.174957	157.3	28.6	-94.8	0.0
2026-01-20 09:56:12.312866	157.3	28.8	-94.8	0.0
2026-01-20 09:56:13.450156	157.3	29.0	-94.9	0.0
2026-01-20 09:56:14.586286	157.3	29.3	-94.8	0.0
2026-01-20 09:56:15.718756	157.3	29.5	-94.9	0.0
2026-01-20 09:56:16.853830	157.2	29.7	-94.8	0.0
2026-01-20 09:56:17.991614	157.2	29.9	-94.8	0.0
2026-01-20 09:56:19.126521	157.2	30.1	-94.8	0.0
2026-01-20 09:56:20.260585	157.2	30.3	-94.8	0.0
2026-01-20 09:56:21.396943	157.2	30.6	-94.7	0.0
2026-01-20 09:56:22.535158	157.1	30.8	-94.8	0.0
2026-01-20 09:56:23.669814	157.1	31.0	-94.8	0.0
2026-01-20 09:56:24.802180	157.1	31.2	-94.8	0.0
2026-01-20 09:56:25.934057	157.1	31.5	-95.0	0.0
2026-01-20 09:56:27.067924	157.0	31.7	-94.8	0.0
2026-01-20 09:56:28.197687	157.0	31.9	-94.8	0.0
2026-01-20 09:56:29.331781	157.0	32.1	-94.8	0.0
2026-01-20 09:56:30.464638	157.0	32.4	-95.0	0.0
2026-01-20 09:56:31.597786	156.9	32.6	-94.8	0.0
2026-01-20 09:56:32.732580	156.9	32.9	-94.9	0.0
2026-01-20 09:56:33.866623	156.9	33.1	-94.7	0.0
2026-01-20 09:56:34.993067	156.9	33.3	-94.9	0.0
2026-01-20 09:56:36.126542	156.8	33.6	-94.8	0.0
2026-01-20 09:56:37.262642	156.8	33.8	-94.7	0.0
2026-01-20 09:56:38.397595	156.8	34.1	-94.9	0.0
2026-01-20 09:56:39.532770	156.8	34.3	-94.8	0.0
2026-01-20 09:56:40.665083	156.7	34.6	-94.8	0.0
2026-01-20 09:56:41.798108	156.7	34.8	-94.8	0.0
2026-01-20 09:56:42.929351	156.7	35.1	-94.8	0.0
2026-01-20 09:56:44.061136	156.6	35.4	-94.8	0.0
2026-01-20 09:56:45.191515	156.6	35.6	-94.9	0.0
2026-01-20 09:56:46.326700	156.6	35.9	-94.9	0.0
2026-01-20 09:56:47.460485	156.5	36.1	-94.9	0.0
2026-01-20 09:56:48.597190	156.5	36.4	-94.8	0.0
2026-01-20 09:56:49.726965	156.5	36.7	-94.9	0.0
2026-01-20 09:56:50.858024	156.5	37.0	-94.8	0.0
2026-01-20 09:56:51.990770	156.4	37.2	-94.8	0.0
2026-01-20 09:56:53.120466	156.4	37.5	-94.8	0.0
2026-01-20 09:56:54.251693	156.3	37.8	-94.7	0.0
2026-01-20 09:56:55.384070	156.3	38.1	-94.6	0.0
2026-01-20 09:56:56.525744	156.3	38.3	-94.8	0.0
2026-01-20 09:56:57.655752	156.2	38.6	-94.7	0.0
2026-01-20 09:56:58.785434	156.2	38.9	-94.9	0.0
2026-01-20 09:56:59.916144	156.2	39.2	-94.8	0.0
2026-01-20 09:57:01.054805	156.1	39.5	-94.8	0.0
2026-01-20 09:57:02.191123	156.1	39.8	-94.7	0.0
2026-01-20 09:57:03.324070	156.0	40.1	-94.9	0.0
2026-01-20 09:57:04.456106	156.0	40.4	-94.7	0.0
2026-01-20 09:57:05.588086	156.0	40.7	-94.8	0.0
2026-01-20 09:57:06.720048	155.9	41.0	-94.8	0.0
2026-01-20 09:57:07.854760	155.9	41.3	-95.0	0.0
2026-01-20 09:57:08.991940	155.8	41.6	-94.8	0.0
2026-01-20 09:57:10.128874	155.8	41.9	-94.8	0.0
2026-01-20 09:57:11.262112	155.7	42.2	-94.6	0.0
2026-01-20 09:57:12.398387	155.7	42.6	-94.7	0.0
2026-01-20 09:57:13.532741	155.6	42.9	-94.8	0.0
2026-01-20 09:57:14.667087	155.6	43.2	-94.9	0.0
2026-01-20 09:57:15.799636	155.5	43.5	-94.7	0.0
2026-01-20 09:57:16.930849	155.5	43.9	-94.8	0.0
2026-01-20 09:57:18.064715	155.4	44.2	-94.6	0.0
2026-01-20 09:57:19.202032	155.4	44.5	-94.8	0.0
2026-01-20 09:57:20.342979	155.3	44.9	-94.7	0.0
2026-01-20 09:57:21.475036	155.3	45.2	-94.8	0.0
2026-01-20 09:57:22.612995	155.2	45.6	-94.8	0.0
2026-01-20 09:57:23.750989	155.1	45.9	-94.8	0.0
2026-01-20 09:57:24.885690	155.1	46.3	-94.8	0.0
2026-01-20 09:57:26.023315	155.0	46.6	-94.9	0.0
2026-01-20 09:57:27.157166	154.9	47.0	-94.9	0.0
2026-01-20 09:57:28.293174	154.9	47.3	-94.7	0.0
2026-01-20 09:57:29.425961	154.8	47.7	-94.6	0.0
2026-01-20 09:57:30.558475	154.7	48.1	-94.8	0.0
2026-01-20 09:57:31.690480	154.7	48.4	-95.0	0.0
2026-01-20 09:57:32.823337	154.6	48.8	-94.8	0.0
2026-01-20 09:57:33.965096	154.5	49.2	-94.9	0.0
2026-01-20 09:57:35.096474	154.4	49.5	-95.0	0.0
2026-01-20 09:57:36.230633	154.4	49.9	-94.9	0.0
2026-01-20 09:57:37.365138	154.3	50.3	-95.0	0.0
2026-01-20 09:57:38.501723	154.2	50.7	-94.9	0.0
2026-01-20 09:57:39.634261	154.1	51.1	-94.8	0.0
2026-01-20 09:57:40.765043	154.0	51.5	-94.8	0.0
2026-01-20 09:57:41.897559	153.9	51.9	-94.6	0.0
2026-01-20 09:57:43.034171	153.8	52.3	-94.9	0.0
2026-01-20 09:57:44.174810	153.8	52.7	-94.8	0.0
2026-01-20 09:57:45.308689	153.7	53.1	-94.7	0.0
2026-01-20 09:57:46.445832	153.6	53.5	-94.9	0.0
2026-01-20 09:57:47.577752	153.4	53.9	-94.9	0.0
2026-01-20 09:57:48.711784	153.3	54.3	-94.8	0.0
2026-01-20 09:57:49.848522	153.2	54.7	-94.8	0.0
2026-01-20 09:57:50.980566	153.1	55.2	-94.8	0.0
2026-01-20 09:57:52.119266	153.0	55.6	-94.9	0.0
2026-01-20 09:57:53.251913	152.9	56.0	-94.8	0.0
2026-01-20 09:57:54.382008	152.8	56.4	-94.7	0.0
2026-01-20 09:57:55.514160	152.6	56.9	-94.9	0.0
2026-01-20 09:57:56.650648	152.5	57.3	-94.7	0.0
2026-01-20 09:57:57.784690	152.4	57.8	-94.7	0.0
2026-01-20 09:57:58.920451	152.2	58.2	-94.7	0.0
2026-01-20 09:58:00.060630	152.1	58.6	-94.8	0.0
2026-01-20 09:58:01.196278	151.9	59.1	-94.8	0.0
2026-01-20 09:58:02.328647	151.8	59.6	-94.8	0.0
2026-01-20 09:58:03.460503	151.6	60.0	-94.8	0.0
2026-01-20 09:58:04.594732	151.4	60.5	-94.8	0.0
2026-01-20 09:58:05.734067	151.2	60.9	-94.9	0.0
2026-01-20 09:58:06.868491	151.1	61.4	-94.8	0.0
2026-01-20 09:58:07.999840	150.9	61.9	-94.8	0.0
2026-01-20 09:58:09.141291	150.7	62.3	-94.7	0.0
2026-01-20 09:58:10.275656	150.5	62.8	-94.8	0.0
2026-01-20 09:58:11.414068	150.2	63.3	-94.8	0.0
2026-01-20 09:58:12.544026	150.0	63.8	-94.9	0.0
2026-01-20 09:58:13.674445	149.8	64.3	-94.9	0.0
2026-01-20 09:58:14.803948	149.5	64.7	-95.1	0.0
2026-01-20 09:58:15.939402	149.3	65.2	-94.9	0.0
2026-01-20 09:58:17.070484	149.0	65.7	-94.8	0.0
2026-01-20 09:58:18.202360	148.8	66.2	-95.0	0.0
2026-01-20 09:58:19.333512	148.5	66.7	-95.0	0.0
2026-01-20 09:58:20.473887	148.2	67.2	-94.9	0.0
2026-01-20 09:58:21.607366	147.8	67.7	-94.7	0.0
2026-01-20 09:58:22.744901	147.5	68.2	-94.8	0.0
2026-01-20 09:58:23.885967	147.1	68.7	-94.9	0.0
2026-01-20 09:58:25.022003	146.8	69.2	-94.9	0.0
2026-01-20 09:58:26.157425	146.4	69.8	-94.7	0.0
2026-01-20 09:58:27.298303	146.0	70.3	-94.8	0.0
2026-01-20 09:58:28.429426	145.5	70.8	-95.1	0.0
2026-01-20 09:58:29.562607	145.0	71.3	-94.9	0.0
2026-01-20 09:58:30.693970	144.6	71.8	-94.9	0.0
2026-01-20 09:58:31.829480	144.0	72.3	-94.8	0.0
2026-01-20 09:58:32.967678	143.5	72.8	-94.8	0.0
2026-01-20 09:58:34.102770	142.9	73.4	-94.9	0.0
2026-01-20 09:58:35.236870	142.2	73.9	-94.8	0.0
2026-01-20 09:58:36.371784	141.6	74.4	-94.7	0.0
2026-01-20 09:58:37.503172	140.8	74.9	-94.9	0.0
2026-01-20 09:58:38.635520	140.0	75.4	-94.9	0.0
2026-01-20 09:58:39.776496	139.2	76.0	-94.9	0.0
2026-01-20 09:58:40.908545	138.3	76.5	-94.7	0.0
2026-01-20 09:58:42.041181	137.3	77.0	-94.9	0.0
2026-01-20 09:58:43.173061	136.2	77.5	-94.8	0.0
2026-01-20 09:58:44.307242	135.1	78.0	-94.9	0.0
2026-01-20 09:58:45.440183	133.8	78.5	-94.8	0.0
2026-01-20 09:58:46.573619	132.4	79.0	-94.9	0.0
2026-01-20 09:58:47.705657	130.9	79.5	-94.8	0.0
2026-01-20 09:58:48.836533	129.2	80.0	-94.8	0.0
2026-01-20 09:58:49.970365	127.4	80.5	-94.7	0.0
2026-01-20 09:58:51.103235	125.3	80.9	-94.8	0.0
2026-01-20 09:58:52.240947	123.0	81.4	-94.9	0.0
2026-01-20 09:58:53.371320	120.5	81.8	-94.8	0.0
2026-01-20 09:58:54.514173	117.7	82.3	-94.8	0.0
2026-01-20 09:58:55.644707	114.5	82.7	-94.8	0.0
2026-01-20 09:58:56.780330	111.0	83.1	-94.8	0.0
2026-01-20 09:58:57.910144	107.1	83.4	-94.7	0.0
2026-01-20 09:58:59.048342	102.8	83.7	-94.8	0.0
2026-01-20 09:59:00.189990	98.0	84.0	-94.9	0.0
2026-01-20 09:59:01.326369	92.7	84.3	-94.9	0.0
2026-01-20 09:59:02.457731	87.1	84.5	-94.7	0.0
2026-01-20 09:59:03.587258	81.2	84.6	-94.7	0.0
2026-01-20 09:59:04.719464	75.0	84.7	-94.9	0.0
2026-01-20 09:59:05.848178	68.8	84.7	-94.8	0.0
2026-01-20 09:59:06.988413	62.5	84.6	-94.9	0.0
2026-01-20 09:59:08.126591	56.5	84.5	-94.8	0.0
2026-01-20 09:59:09.259831	50.8	84.3	-94.8	0.0
2026-01-20 09:59:10.394086	45.5	84.1	-94.9	0.0
2026-01-20 09:59:11.525720	40.6	83.8	-94.8	0.0
2026-01-20 09:59:12.660926	36.2	83.5	-94.7	0.0
2026-01-20 09:59:13.804915	32.2	83.1	-94.9	0.0
2026-01-20 09:59:14.942780	28.6	82.8	-94.9	0.0
2026-01-20 09:59:16.080752	25.4	82.4	-95.0	0.0
2026-01-20 09:59:17.212112	22.5	81.9	-94.7	0.0
2026-01-20 09:59:18.344473	19.9	81.5	-94.8	0.0
2026-01-20 09:59:19.483990	17.6	81.0	-94.8	0.0
2026-01-20 09:59:20.621383	15.5	80.6	-94.9	0.0
2026-01-20 09:59:21.754009	13.6	80.1	-94.8	0.0
2026-01-20 09:59:22.887396	11.9	79.6	-94.8	0.0
2026-01-20 09:59:24.026746	10.4	79.1	-94.9	0.0
2026-01-20 09:59:25.160035	9.0	78.6	-94.8	0.0
2026-01-20 09:59:26.292005	7.7	78.1	-94.9	0.0
2026-01-20 09:59:27.425181	6.5	77.6	-94.9	0.0
2026-01-20 09:59:28.556546	5.4	77.1	-95.0	0.0
2026-01-20 09:59:29.690271	4.4	76.6	-94.8	0.0
2026-01-20 09:59:30.824356	3.5	76.1	-94.9	0.0
2026-01-20 09:59:31.957374	2.6	75.5	-94.9	0.0
2026-01-20 09:59:33.091082	1.8	75.0	-94.7	0.0
2026-01-20 09:59:34.222436	1.1	74.5	-94.7	0.0
2026-01-20 09:59:35.360298	0.4	74.0	-94.8	0.0
2026-01-20 09:59:36.496238	359.8	73.5	-94.9	0.0
2026-01-20 09:59:37.627914	359.2	72.9	-94.7	0.0
2026-01-20 09:59:38.766219	358.6	72.4	-94.7	0.0
2026-01-20 09:59:39.902043	358.1	71.9	-94.8	0.0
2026-01-20 09:59:41.042794	357.6	71.4	-94.8	0.0
2026-01-20 09:59:42.180919	357.1	70.9	-94.9	0.0
2026-01-20 09:59:43.312307	356.7	70.4	-94.8	0.0
2026-01-20 09:59:44.446785	356.2	69.9	-94.9	0.0
2026-01-20 09:59:45.583377	355.8	69.3	-94.9	0.0
2026-01-20 09:59:46.719210	355.5	68.8	-94.9	0.0
2026-01-20 09:59:47.851091	355.1	68.3	-94.8	0.0
2026-01-20 09:59:48.989408	354.8	67.8	-94.8	0.0
2026-01-20 09:59:50.122477	354.4	67.3	-94.8	0.0
2026-01-20 09:59:51.254200	354.1	66.8	-94.6	0.0
2026-01-20 09:59:52.387371	353.8	66.3	-94.8	0.0
2026-01-20 09:59:53.518496	353.6	65.8	-94.9	0.0
2026-01-20 09:59:54.656346	353.3	65.4	-94.7	0.0
2026-01-20 09:59:55.788436	353.0	64.9	-94.7	0.0
2026-01-20 09:59:56.925880	352.8	64.4	-94.8	0.0
2026-01-20 09:59:58.061026	352.6	63.9	-94.8	0.0
2026-01-20 09:59:59.200068	352.3	63.4	-94.9	0.0
2026-01-20 10:00:00.334438	352.1	62.9	-94.7	0.0
2026-01-20 10:00:01.469341	351.9	62.5	-94.8	0.0
2026-01-20 10:00:02.603611	351.7	62.0	-94.8	0.0
2026-01-20 10:00:03.735469	351.5	61.5	-94.9	0.0
2026-01-20 10:00:04.867853	351.3	61.1	-94.7	0.0
2026-01-20 10:00:06.002294	351.2	60.6	-94.8	0.0
2026-01-20 10:00:07.137151	351.0	60.1	-94.9	0.0
2026-01-20 10:00:08.277120	350.8	59.7	-94.8	0.0
2026-01-20 10:00:09.409285	350.7	59.2	-94.7	0.0
2026-01-20 10:00:10.543781	350.5	58.8	-94.8	0.0
2026-01-20 10:00:11.675831	350.4	58.3	-94.8	0.0
2026-01-20 10:00:12.813867	350.2	57.9	-94.7	0.0
2026-01-20 10:00:13.946490	350.1	57.4	-94.8	0.0
2026-01-20 10:00:15.083688	349.9	57.0	-94.9	0.0
2026-01-20 10:00:16.215064	349.8	56.6	-94.9	0.0
2026-01-20 10:00:17.349419	349.7	56.1	-95.1	0.0
2026-01-20 10:00:18.486280	349.6	55.7	-94.9	0.0
2026-01-20 10:00:19.620390	349.5	55.3	-94.9	0.0
2026-01-20 10:00:20.750462	349.3	54.9	-94.9	0.0
2026-01-20 10:00:21.884363	349.2	54.5	-95.0	0.0
2026-01-20 10:00:23.017813	349.1	54.0	-94.9	0.0
2026-01-20 10:00:24.147742	349.0	53.6	-94.7	0.0
2026-01-20 10:00:25.280662	348.9	53.2	-94.8	0.0
2026-01-20 10:00:26.415812	348.8	52.8	-94.8	0.0
2026-01-20 10:00:27.550788	348.7	52.4	-94.9	0.0
2026-01-20 10:00:28.687729	348.6	52.0	-95.0	0.0
2026-01-20 10:00:29.818605	348.5	51.6	-94.7	0.0
2026-01-20 10:00:30.964958	348.4	51.2	-94.7	0.0
2026-01-20 10:00:32.107535	348.4	50.8	-94.9	0.0
2026-01-20 10:00:33.238294	348.3	50.5	-94.8	0.0
2026-01-20 10:00:34.377527	348.2	50.1	-94.9	0.0
2026-01-20 10:00:35.514572	348.1	49.7	-94.7	0.0
2026-01-20 10:00:36.650782	348.0	49.3	-94.9	0.0
2026-01-20 10:00:37.783542	348.0	48.9	-94.8	0.0
2026-01-20 10:00:38.913742	347.9	48.6	-94.8	0.0
2026-01-20 10:00:40.044195	347.8	48.2	-94.9	0.0
2026-01-20 10:00:41.185756	347.8	47.8	-94.9	0.0
2026-01-20 10:00:42.318181	347.7	47.5	-94.8	0.0
2026-01-20 10:00:43.452521	347.6	47.1	-94.9	0.0
2026-01-20 10:00:44.584657	347.6	46.8	-94.9	0.0
2026-01-20 10:00:45.716447	347.5	46.4	-94.9	0.0
2026-01-20 10:00:46.852736	347.4	46.1	-94.7	0.0
2026-01-20 10:00:47.985008	347.4	45.7	-94.8	0.0
2026-01-20 10:00:49.115777	347.3	45.4	-94.9	0.0
2026-01-20 10:00:50.256001	347.3	45.0	-94.8	0.0
2026-01-20 10:00:51.391247	347.2	44.7	-94.9	0.0
2026-01-20 10:00:52.527615	347.1	44.4	-94.8	0.0
2026-01-20 10:00:53.661317	347.1	44.0	-94.9	0.0
2026-01-20 10:00:54.794690	347.0	43.7	-94.9	0.0
2026-01-20 10:00:55.926978	347.0	43.4	-94.7	0.0
2026-01-20 10:00:57.058442	346.9	43.1	-94.8	0.0
2026-01-20 10:00:58.193310	346.9	42.7	-94.8	0.0
2026-01-20 10:00:59.328224	346.8	42.4	-94.8	0.0
2026-01-20 10:01:00.464122	346.8	42.1	-94.9	0.0
2026-01-20 10:01:01.599481	346.7	41.8	-94.9	0.0
2026-01-20 10:01:02.730770	346.7	41.5	-94.8	0.0
2026-01-20 10:01:03.867180	346.7	41.2	-94.9	0.0
2026-01-20 10:01:05.004630	346.6	40.9	-94.6	0.0
2026-01-20 10:01:06.136344	346.6	40.6	-94.9	0.0
2026-01-20 10:01:07.266727	346.5	40.3	-94.9	0.0
2026-01-20 10:01:08.399874	346.5	40.0	-94.9	0.0
2026-01-20 10:01:09.530505	346.4	39.7	-94.8	0.0
2026-01-20 10:01:10.662154	346.4	39.4	-94.7	0.0
2026-01-20 10:01:11.794479	346.4	39.1	-94.8	0.0
2026-01-20 10:01:12.930650	346.3	38.8	-94.8	0.0
2026-01-20 10:01:14.065311	346.3	38.5	-94.8	0.0
2026-01-20 10:01:15.201092	346.3	38.2	-94.9	0.0
2026-01-20 10:01:16.337403	346.2	38.0	-94.7	0.0
2026-01-20 10:01:17.472524	346.2	37.7	-94.9	0.0
2026-01-20 10:01:18.610039	346.2	37.4	-94.8	0.0
2026-01-20 10:01:19.741910	346.1	37.1	-94.8	0.0
2026-01-20 10:01:20.876730	346.1	36.9	-94.8	0.0
2026-01-20 10:01:22.007692	346.1	36.6	-94.7	0.0
2026-01-20 10:01:23.139139	346.0	36.3	-94.8	0.0
2026-01-20 10:01:24.271069	346.0	36.1	-94.9	0.0
2026-01-20 10:01:25.407080	346.0	35.8	-94.8	0.0
2026-01-20 10:01:26.540884	345.9	35.5	-95.0	0.0
2026-01-20 10:01:27.674235	345.9	35.3	-94.8	0.0
2026-01-20 10:01:28.808218	345.9	35.0	-94.9	0.0
2026-01-20 10:01:29.943818	345.8	34.8	-94.9	0.0
2026-01-20 10:01:31.078004	345.8	34.5	-94.8	0.0
2026-01-20 10:01:32.212413	345.8	34.3	-94.7	0.0
2026-01-20 10:01:33.345002	345.8	34.0	-94.9	0.0
2026-01-20 10:01:34.476980	345.7	33.8	-94.9	0.0
2026-01-20 10:01:35.614125	345.7	33.5	-94.9	0.0
2026-01-20 10:01:36.746344	345.7	33.3	-94.9	0.0
2026-01-20 10:01:37.881246	345.7	33.0	-94.9	0.0
2026-01-20 10:01:39.011300	345.6	32.8	-94.7	0.0
2026-01-20 10:01:40.147140	345.6	32.6	-95.0	0.0
2026-01-20 10:01:41.284559	345.6	32.3	-94.9	0.0
2026-01-20 10:01:42.414159	345.6	32.1	-94.9	0.0
2026-01-20 10:01:43.544708	345.5	31.9	-94.7	0.0
2026-01-20 10:01:44.682474	345.5	31.6	-94.8	0.0
2026-01-20 10:01:45.817422	345.5	31.4	-94.7	0.0
2026-01-20 10:01:46.947067	345.5	31.2	-94.8	0.0
2026-01-20 10:01:48.081978	345.5	31.0	-94.8	0.0
2026-01-20 10:01:49.213161	345.4	30.7	-94.9	0.0
2026-01-20 10:01:50.348260	345.4	30.5	-94.9	0.0
2026-01-20 10:01:51.480013	345.4	30.3	-94.8	0.0
2026-01-20 10:01:52.617764	345.4	30.1	-94.8	0.0
2026-01-20 10:01:53.748517	345.4	29.9	-94.9	0.0
2026-01-20 10:01:54.878339	345.3	29.7	-94.9	0.0
2026-01-20 10:01:56.011704	345.3	29.4	-95.0	0.0
2026-01-20 10:01:57.144579	345.3	29.2	-94.7	0.0
2026-01-20 10:01:58.278572	345.3	29.0	-94.8	0.0
2026-01-20 10:01:59.409988	345.3	28.8	-94.7	0.0
2026-01-20 10:02:00.541633	345.2	28.6	-94.8	0.0
2026-01-20 10:02:01.678569	345.2	28.4	-94.8	0.0
2026-01-20 10:02:02.812008	345.2	28.2	-95.0	0.0
2026-01-20 10:02:03.946077	345.2	28.0	-94.7	0.0
2026-01-20 10:02:05.080347	345.2	27.8	-94.8	0.0
2026-01-20 10:02:06.213620	345.2	27.6	-94.9	0.0
2026-01-20 10:02:07.345981	345.1	27.4	-94.9	0.0
2026-01-20 10:02:08.482289	345.1	27.2	-94.7	0.0
2026-01-20 10:02:09.618427	345.1	27.0	-95.0	0.0
2026-01-20 10:02:10.755382	345.1	26.8	-94.9	0.0
2026-01-20 10:02:11.889237	345.1	26.6	-94.8	0.0
2026-01-20 10:02:13.027107	345.1	26.4	-95.0	0.0
2026-01-20 10:02:14.159013	345.0	26.3	-94.8	0.0
2026-01-20 10:02:15.296587	345.0	26.1	-94.7	0.0
2026-01-20 10:02:16.435271	345.0	25.9	-94.7	0.0
2026-01-20 10:02:17.563502	345.0	25.7	-94.8	0.0
2026-01-20 10:02:18.699072	345.0	25.5	-94.9	0.0
2026-01-20 10:02:19.831927	345.0	25.3	-94.8	0.0
2026-01-20 10:02:20.966716	345.0	25.1	-94.8	0.0
2026-01-20 10:02:22.099632	344.9	25.0	-94.8	0.0
2026-01-20 10:02:23.229560	344.9	24.8	-94.8	0.0
2026-01-20 10:02:24.369937	344.9	24.6	-94.7	0.0
2026-01-20 10:02:25.506289	344.9	24.4	-94.7	0.0
2026-01-20 10:02:26.637421	344.9	24.3	-94.9	0.0
2026-01-20 10:02:27.771747	344.9	24.1	-94.8	0.0
2026-01-20 10:02:28.906855	344.9	23.9	-94.7	0.0
2026-01-20 10:02:30.045185	344.9	23.7	-95.0	0.0
2026-01-20 10:02:31.179150	344.8	23.6	-94.9	0.0
2026-01-20 10:02:32.312074	344.8	23.4	-94.9	0.0
2026-01-20 10:02:33.443227	344.8	23.2	-94.7	0.0
2026-01-20 10:02:34.573950	344.8	23.1	-94.9	0.0
2026-01-20 10:02:35.707047	344.8	22.9	-94.9	0.0
2026-01-20 10:02:36.838038	344.8	22.7	-95.0	0.0
2026-01-20 10:02:37.970989	344.8	22.6	-94.9	0.0
2026-01-20 10:02:39.105436	344.8	22.4	-94.8	0.0
2026-01-20 10:02:40.235591	344.8	22.2	-94.9	0.0
2026-01-20 10:02:41.370434	344.7	22.1	-94.6	0.0
2026-01-20 10:02:42.501478	344.7	21.9	-94.8	0.0
2026-01-20 10:02:43.633588	344.7	21.8	-94.7	0.0
2026-01-20 10:02:44.769573	344.7	21.6	-94.8	0.0
2026-01-20 10:02:45.909272	344.7	21.4	-94.9	0.0
2026-01-20 10:02:47.051017	344.7	21.3	-94.8	0.0
2026-01-20 10:02:48.184031	344.7	21.1	-95.0	0.0
2026-01-20 10:02:49.321009	344.7	21.0	-94.6	0.0
2026-01-20 10:02:50.450612	344.7	20.8	-94.8	0.0
2026-01-20 10:02:51.583295	344.7	20.7	-94.9	0.0
2026-01-20 10:02:52.714624	344.7	20.5	-95.0	0.0
2026-01-20 10:02:53.845348	344.6	20.4	-94.8	0.0
2026-01-20 10:02:54.979203	344.6	20.2	-95.0	0.0
2026-01-20 10:02:56.113976	344.6	20.1	-94.8	0.0
2026-01-20 10:02:57.250094	344.6	19.9	-94.9	0.0
2026-01-20 10:02:58.384110	344.6	19.8	-94.9	0.0
2026-01-20 10:02:59.524351	344.6	19.6	-94.8	0.0
2026-01-20 10:03:00.667959	344.6	19.5	-94.7	0.0
2026-01-20 10:03:01.803089	344.6	19.3	-94.8	0.0
2026-01-20 10:03:02.939515	344.6	19.2	-94.8	0.0
2026-01-20 10:03:04.070593	344.6	19.1	-94.7	0.0
2026-01-20 10:03:05.203533	344.6	18.9	-94.7	0.0
2026-01-20 10:03:06.339286	344.6	18.8	-94.8	0.0
2026-01-20 10:03:07.475650	344.5	18.6	-94.8	0.0
2026-01-20 10:03:08.607881	344.5	18.5	-94.8	0.0
2026-01-20 10:03:09.742585	344.5	18.4	-94.7	0.0
2026-01-20 10:03:10.879078	344.5	18.2	-94.8	0.0
2026-01-20 10:03:12.019964	344.5	18.1	-94.7	0.0
2026-01-20 10:03:13.151697	344.5	17.9	-94.9	0.0
2026-01-20 10:03:14.285780	344.5	17.8	-94.8	0.0
2026-01-20 10:03:15.419327	344.5	17.7	-94.9	0.0
2026-01-20 10:03:16.553482	344.5	17.5	-94.8	0.0
2026-01-20 10:03:17.686363	344.5	17.4	-94.9	0.0
2026-01-20 10:03:18.817576	344.5	17.3	-94.8	0.0
2026-01-20 10:03:19.949969	344.5	17.1	-94.8	0.0
2026-01-20 10:03:21.085892	344.5	17.0	-94.8	0.0
2026-01-20 10:03:22.222774	344.5	16.9	-94.9	0.0
2026-01-20 10:03:23.354477	344.5	16.8	-94.7	0.0
2026-01-20 10:03:24.486789	344.4	16.6	-94.8	0.0
2026-01-20 10:03:25.622796	344.4	16.5	-94.9	0.0
2026-01-20 10:03:26.758464	344.4	16.4	-95.0	0.0
2026-01-20 10:03:27.894362	344.4	16.2	-94.8	0.0
2026-01-20 10:03:29.033322	344.4	16.1	-94.9	0.0
2026-01-20 10:03:30.166003	344.4	16.0	-94.8	0.0
2026-01-20 10:03:31.306872	344.4	15.9	-94.9	0.0
2026-01-20 10:03:32.442895	344.4	15.7	-94.8	0.0
2026-01-20 10:03:33.573492	344.4	15.6	-95.0	0.0
2026-01-20 10:03:34.710257	344.4	15.5	-94.8	0.0
2026-01-20 10:03:35.850149	344.4	15.4	-94.9	0.0
2026-01-20 10:03:36.988030	344.4	15.2	-94.9	0.0
2026-01-20 10:03:38.124912	344.4	15.1	-94.9	0.0
2026-01-20 10:03:39.259422	344.4	15.0	-94.8	0.0
#Closed at: 2026-01-20 09:54:28.394841