passes_logs/2026/01/26/R2.0S_Moscow/R2.0S_Moscow__20260126_101740_FENGYUN_3D_rec.log

#Pass ID: 20260126_101740_FENGYUN 3D
#Satellite: FENGYUN 3D
#Configuration: FENGYUN 3D
#almurnet v.1.7.20251203
#Start time: 2026-01-26 10:17:41

#Version: 2.2.20231116
#Station: R2.0S_Moscow
#Location: 37.707566 lon 55.798166 lat
#TLE: 1 43010U 17072A   26025.85700374 -.00000071  00000+0 -11715-4 0  9992
#TLE: 2 43010  98.9962 357.8423 0002518  90.2035 269.9429 14.19699460424796

#Time	Az	El	Level	Level2	SNR	BER	BlckErr	Temp	State	Recorded	gain1	gain2
2026-01-26 10:17:41.83	110.73	2.09	-19.3	-38.5	3.9	8.46e-01	0	53	0	0	10	32543
2026-01-26 10:17:42.83	110.66	2.15	-23.0	-39.4	4.0	8.45e-01	0	53	104	0	12	31849
2026-01-26 10:17:43.84	110.59	2.20	-25.0	-40.5	3.9	8.47e-01	0	53	104	0	17	27165
2026-01-26 10:17:44.85	110.53	2.26	-25.0	-41.4	3.6	8.46e-01	0	53	104	0	17	30218
2026-01-26 10:17:45.86	110.46	2.32	-22.7	-40.4	4.0	8.45e-01	0	53	104	0	16	28462
2026-01-26 10:17:46.88	110.39	2.38	-20.0	-39.9	3.9	8.44e-01	0	53	104	0	17	25458
2026-01-26 10:17:47.89	110.32	2.43	-23.2	-40.5	3.8	8.44e-01	0	53	104	0	14	32415
2026-01-26 10:17:48.90	110.25	2.49	-24.6	-40.6	3.7	8.46e-01	0	53	104	0	14	32686
2026-01-26 10:17:49.91	110.18	2.55	-23.4	-40.8	3.8	8.44e-01	0	53	104	0	15	31576
2026-01-26 10:17:50.92	110.11	2.60	-26.5	-42.0	4.0	8.44e-01	0	53	104	0	19	28996
2026-01-26 10:17:51.93	110.03	2.66	-22.0	-40.0	3.8	8.45e-01	0	53	104	0	14	30484
2026-01-26 10:17:52.94	109.96	2.72	-27.7	-42.5	3.8	8.44e-01	0	54	104	0	20	28767
2026-01-26 10:17:53.95	109.89	2.78	-28.6	-42.1	3.8	8.42e-01	0	54	104	0	15	36799
2026-01-26 10:17:54.96	109.82	2.83	-24.1	-40.8	3.6	8.45e-01	0	54	104	0	14	33575
2026-01-26 10:17:55.97	109.75	2.89	-22.8	-41.0	3.7	8.43e-01	0	54	104	0	19	25846
2026-01-26 10:17:56.98	109.68	2.95	-18.7	-38.3	3.7	8.42e-01	0	54	104	0	12	28120
2026-01-26 10:17:57.99	109.60	3.01	-27.3	-43.7	4.0	8.44e-01	0	54	104	0	27	22045
2026-01-26 10:17:59.00	109.53	3.07	-23.1	-40.4	3.7	8.44e-01	0	54	104	0	24	17906
2026-01-26 10:18:00.01	109.46	3.12	-20.0	-40.3	4.0	8.45e-01	0	54	104	0	13	33538
2026-01-26 10:18:01.02	109.38	3.18	-26.4	-44.7	3.8	8.43e-01	0	54	104	0	26	26274
2026-01-26 10:18:02.03	109.31	3.24	-17.3	-38.7	3.9	8.44e-01	0	54	104	0	6	41703
2026-01-26 10:18:03.04	109.23	3.30	-24.0	-40.4	3.7	8.44e-01	0	54	104	0	17	26852
2026-01-26 10:18:04.05	109.16	3.36	-25.3	-42.9	3.7	8.44e-01	0	54	104	0	24	24008
2026-01-26 10:18:05.06	109.09	3.42	-27.5	-43.8	3.9	8.44e-01	0	54	104	0	23	28054
2026-01-26 10:18:06.07	109.01	3.48	-25.3	-40.8	3.6	8.45e-01	0	54	104	0	20	23622
2026-01-26 10:18:07.08	108.93	3.53	-24.5	-39.1	3.6	8.41e-01	0	54	104	0	13	29330
2026-01-26 10:18:08.09	108.86	3.59	-17.5	-40.6	3.9	8.43e-01	0	54	104	0	7	48917
2026-01-26 10:18:09.10	108.78	3.65	-19.8	-40.0	4.1	8.45e-01	0	54	104	0	17	25622
2026-01-26 10:18:10.11	108.71	3.71	-23.6	-40.5	3.8	8.44e-01	0	55	104	0	17	27249
2026-01-26 10:18:11.12	108.63	3.77	-25.8	-39.8	3.8	8.40e-01	0	55	104	0	21	19876
2026-01-26 10:18:12.14	108.55	3.83	-26.4	-41.2	4.0	8.42e-01	0	55	104	0	22	22030
2026-01-26 10:18:13.15	108.47	3.89	-27.8	-45.1	4.0	8.39e-01	0	55	104	0	25	29120
2026-01-26 10:18:14.16	108.40	3.95	-20.6	-41.9	4.1	8.38e-01	0	55	104	0	27	18037
2026-01-26 10:18:15.17	108.32	4.01	-23.5	-39.6	3.7	8.44e-01	0	55	104	0	13	31057
2026-01-26 10:18:16.18	108.24	4.07	-27.1	-43.3	4.0	8.44e-01	0	55	104	0	24	25152
2026-01-26 10:18:17.19	108.16	4.13	-30.3	-47.3	3.7	8.39e-01	0	55	104	0	30	28076
2026-01-26 10:18:18.20	108.08	4.18	-19.9	-38.7	3.7	8.37e-01	0	55	104	0	14	26170
2026-01-26 10:18:19.21	108.00	4.24	-27.8	-42.8	4.0	8.40e-01	0	55	104	0	22	26741
2026-01-26 10:18:20.22	107.92	4.30	-29.9	-45.0	3.8	8.39e-01	0	55	104	0	19	40697
2026-01-26 10:18:21.23	107.84	4.36	-31.1	-46.5	4.2	8.43e-01	0	55	104	0	33	21732
2026-01-26 10:18:22.24	107.76	4.42	-24.6	-41.4	3.9	8.44e-01	0	55	104	0	14	36012
2026-01-26 10:18:23.25	107.68	4.48	-16.7	-37.6	3.7	8.41e-01	0	56	104	0	14	23250
2026-01-26 10:18:24.26	107.60	4.54	-23.4	-41.7	3.5	8.41e-01	0	56	104	0	14	36953
2026-01-26 10:18:25.27	107.52	4.60	-26.2	-41.1	3.8	8.43e-01	0	56	104	0	21	23149
2026-01-26 10:18:26.28	107.44	4.66	-23.4	-41.4	4.1	8.44e-01	0	55	104	0	33	12016
2026-01-26 10:18:27.30	107.36	4.73	-30.5	-46.2	3.7	8.39e-01	0	56	104	0	26	31265
2026-01-26 10:18:28.31	107.27	4.79	-30.8	-47.1	3.9	8.41e-01	0	56	104	0	23	41421
2026-01-26 10:18:29.31	107.19	4.85	-32.0	-48.1	4.0	8.38e-01	0	56	104	0	35	23170
2026-01-26 10:18:30.33	107.11	4.91	-28.1	-46.2	3.9	8.37e-01	0	56	104	0	33	20966
2026-01-26 10:18:31.34	107.02	4.97	-22.0	-39.1	3.7	8.42e-01	0	56	104	0	19	20691
2026-01-26 10:18:32.35	106.94	5.03	-32.5	-47.6	4.2	8.39e-01	0	56	104	0	36	20676
2026-01-26 10:18:33.36	106.86	5.09	-32.4	-48.6	4.2	8.40e-01	0	56	104	0	41	17356
2026-01-26 10:18:34.37	106.77	5.15	-31.9	-47.3	3.6	8.37e-01	0	56	104	0	30	28236
2026-01-26 10:18:35.38	106.69	5.21	-25.0	-42.0	3.9	8.40e-01	0	56	104	0	22	24322
2026-01-26 10:18:36.39	106.60	5.27	-32.4	-45.0	4.0	8.42e-01	0	56	104	0	35	16266
2026-01-26 10:18:37.40	106.52	5.33	-25.5	-42.4	3.8	8.41e-01	0	56	104	0	23	24114
2026-01-26 10:18:38.41	106.43	5.39	-31.9	-46.2	3.7	8.42e-01	0	56	104	0	26	31274
2026-01-26 10:18:39.42	106.34	5.45	-22.2	-40.3	3.9	8.42e-01	0	56	0	0	21	21230
2026-01-26 10:18:40.43	106.26	5.52	-22.7	-39.6	3.8	8.41e-01	0	56	104	0	19	21760
2026-01-26 10:18:41.44	106.17	5.58	-24.8	-41.8	4.1	8.42e-01	0	57	104	0	24	21168
2026-01-26 10:18:42.45	106.08	5.64	-23.0	-41.8	3.9	8.43e-01	0	56	104	0	21	25182
2026-01-26 10:18:43.46	106.00	5.70	-25.9	-41.9	3.7	8.43e-01	0	57	104	0	22	24122
2026-01-26 10:18:44.47	105.91	5.76	-22.0	-39.4	3.8	8.41e-01	0	57	104	0	12	32071
2026-01-26 10:18:45.48	105.82	5.82	-22.6	-40.8	3.9	8.39e-01	0	57	104	0	23	19933
2026-01-26 10:18:46.49	105.73	5.89	-28.9	-44.4	3.8	8.41e-01	0	56	104	0	31	19130
2026-01-26 10:18:47.50	105.64	5.95	-33.2	-47.4	4.1	8.41e-01	0	57	104	0	35	21492
2026-01-26 10:18:48.51	105.55	6.01	-24.9	-41.1	3.7	8.42e-01	0	57	104	0	21	23113
2026-01-26 10:18:49.52	105.46	6.07	-23.8	-42.5	3.9	8.44e-01	0	57	104	0	22	25853
2026-01-26 10:18:50.53	105.37	6.13	-30.6	-43.9	4.0	8.39e-01	0	57	104	0	22	30163
2026-01-26 10:18:51.54	105.28	6.20	-21.8	-41.3	3.6	8.44e-01	0	57	104	0	11	42290
2026-01-26 10:18:52.55	105.19	6.26	-25.7	-41.3	4.0	8.43e-01	0	57	104	0	20	25177
2026-01-26 10:18:53.56	105.10	6.32	-24.3	-42.1	3.8	8.41e-01	0	57	104	0	27	18501
2026-01-26 10:18:54.58	105.00	6.38	-32.7	-45.4	3.7	8.39e-01	0	57	104	0	25	30183
2026-01-26 10:18:55.59	104.91	6.45	-32.6	-46.3	4.1	8.42e-01	0	57	104	0	30	24999
2026-01-26 10:18:56.60	104.82	6.51	-34.7	-48.3	3.8	8.42e-01	0	57	104	0	29	33324
2026-01-26 10:18:57.61	104.72	6.57	-32.8	-46.4	3.5	8.42e-01	0	57	104	0	24	35790
2026-01-26 10:18:58.62	104.63	6.64	-26.4	-42.5	3.8	8.42e-01	0	57	104	0	26	20401
2026-01-26 10:18:59.63	104.54	6.70	-26.5	-44.0	3.8	8.40e-01	0	57	104	0	27	22901
2026-01-26 10:19:00.64	104.44	6.76	-24.1	-40.3	3.7	8.41e-01	0	57	104	0	17	26621
2026-01-26 10:19:01.65	104.35	6.82	-21.9	-39.9	3.7	8.40e-01	0	57	104	0	20	21354
2026-01-26 10:19:02.66	104.25	6.89	-25.1	-40.6	3.8	8.42e-01	0	57	104	0	15	30983
2026-01-26 10:19:03.67	104.15	6.95	-29.2	-43.0	3.8	8.38e-01	0	58	104	0	22	27194
2026-01-26 10:19:04.68	104.06	7.01	-32.3	-46.1	4.2	8.42e-01	0	57	104	0	26	30822
2026-01-26 10:19:05.69	103.96	7.08	-28.0	-43.9	3.7	8.39e-01	0	57	104	0	29	20173
2026-01-26 10:19:06.70	103.86	7.14	-25.9	-41.3	3.8	8.42e-01	0	58	104	0	22	22277
2026-01-26 10:19:07.70	103.77	7.20	-25.0	-41.1	3.8	8.45e-01	0	57	104	0	21	23152
2026-01-26 10:19:08.71	103.67	7.27	-24.8	-42.1	3.7	8.43e-01	0	58	104	0	21	26022
2026-01-26 10:19:09.72	103.57	7.33	-31.9	-49.0	4.3	8.37e-01	0	57	104	0	37	22882
2026-01-26 10:19:10.73	103.47	7.39	-32.9	-46.4	4.3	8.39e-01	0	58	104	0	36	17890
2026-01-26 10:19:11.74	103.37	7.46	-30.7	-46.9	4.1	8.41e-01	0	58	104	0	38	16889
2026-01-26 10:19:12.75	103.27	7.52	-32.0	-49.0	4.0	8.42e-01	0	58	104	0	40	19386
2026-01-26 10:19:13.76	103.17	7.59	-24.9	-40.5	3.8	8.42e-01	0	58	104	0	24	18271
2026-01-26 10:19:14.78	103.07	7.65	-28.4	-42.8	4.3	8.41e-01	0	58	104	0	34	13358
2026-01-26 10:19:15.78	102.97	7.71	-29.2	-47.4	3.8	8.41e-01	0	58	104	0	31	26822
2026-01-26 10:19:16.80	102.87	7.78	-26.9	-44.3	3.8	8.42e-01	0	58	104	0	25	26677
2026-01-26 10:19:17.81	102.76	7.84	-25.2	-41.2	3.6	8.40e-01	0	58	104	0	20	24761
2026-01-26 10:19:18.82	102.66	7.91	-25.9	-40.5	4.1	8.45e-01	0	58	104	0	14	32493
2026-01-26 10:19:19.83	102.56	7.97	-21.3	-37.8	4.0	8.36e-01	0	58	104	0	21	15881
2026-01-26 10:19:20.84	102.46	8.04	-22.0	-37.2	4.3	8.24e-01	0	58	0	0	17	18589
2026-01-26 10:19:21.85	102.35	8.10	-30.3	-48.6	4.0	8.42e-01	0	58	104	0	37	21890
2026-01-26 10:19:22.86	102.25	8.17	-31.0	-46.6	4.2	8.42e-01	0	58	104	0	35	19472
2026-01-26 10:19:23.87	102.14	8.23	-24.3	-39.9	4.1	8.38e-01	0	58	104	0	19	22662
2026-01-26 10:19:24.88	102.04	8.30	-29.2	-43.8	4.0	8.43e-01	0	58	104	0	33	15849
2026-01-26 10:19:25.90	101.93	8.36	-24.6	-42.2	3.9	8.41e-01	0	58	104	0	29	16560
2026-01-26 10:19:26.91	101.82	8.43	-26.3	-42.4	4.2	8.43e-01	0	58	104	0	26	20252
2026-01-26 10:19:27.92	101.72	8.49	-30.1	-45.1	4.1	8.40e-01	0	58	104	0	25	29298
2026-01-26 10:19:28.93	101.61	8.56	-29.9	-44.9	3.9	8.41e-01	0	58	104	0	26	27013
2026-01-26 10:19:29.94	101.50	8.62	-26.9	-42.8	4.0	8.44e-01	0	58	104	0	20	29905
2026-01-26 10:19:30.94	101.39	8.69	-33.8	-46.1	3.9	8.40e-01	0	58	104	0	29	25898
2026-01-26 10:19:31.95	101.29	8.75	-26.7	-44.4	4.3	8.38e-01	0	58	104	0	27	23925
2026-01-26 10:19:32.96	101.18	8.82	-28.1	-45.0	4.0	8.42e-01	0	58	104	0	27	25638
2026-01-26 10:19:33.97	101.07	8.88	-27.0	-46.2	4.6	8.41e-01	0	58	104	0	23	37372
2026-01-26 10:19:34.98	100.96	8.95	-27.5	-45.8	4.3	8.41e-01	0	59	104	0	26	30030
2026-01-26 10:19:35.99	100.84	9.01	-20.8	-40.9	4.1	8.42e-01	0	58	104	0	26	16929
2026-01-26 10:19:37.00	100.73	9.08	-31.9	-42.3	4.0	8.42e-01	0	58	104	0	22	25092
2026-01-26 10:19:38.01	100.62	9.15	-32.4	-43.5	4.7	8.42e-01	0	58	104	0	24	25794
2026-01-26 10:19:39.02	100.51	9.21	-26.3	-39.6	3.8	8.38e-01	0	59	104	0	20	20636
2026-01-26 10:19:40.03	100.40	9.28	-22.5	-40.8	4.0	8.42e-01	0	59	104	0	20	23798
2026-01-26 10:19:41.04	100.28	9.34	-28.5	-44.8	3.5	8.41e-01	0	59	104	0	25	28301
2026-01-26 10:19:42.05	100.17	9.41	-25.1	-42.6	4.1	8.39e-01	0	59	104	0	31	15535
2026-01-26 10:19:43.06	100.05	9.48	-26.3	-41.1	4.0	8.42e-01	0	59	104	0	22	21828
2026-01-26 10:19:44.07	99.94	9.54	-31.6	-43.7	4.9	8.40e-01	0	59	104	0	34	14795
2026-01-26 10:19:45.07	99.82	9.61	-21.5	-39.1	3.9	8.40e-01	0	59	104	0	13	29174
2026-01-26 10:19:46.08	99.71	9.67	-21.9	-40.0	4.0	8.42e-01	0	59	104	0	17	25716
2026-01-26 10:19:47.09	99.59	9.74	-30.3	-43.7	4.4	8.39e-01	0	59	104	0	28	20959
2026-01-26 10:19:48.10	99.48	9.81	-18.3	-39.0	3.9	8.24e-01	0	59	0	0	8	38531
2026-01-26 10:19:49.11	99.36	9.87	-30.1	-46.0	4.2	8.41e-01	0	59	104	0	26	30577
2026-01-26 10:19:50.12	99.24	9.94	-29.1	-45.4	3.9	8.41e-01	0	59	104	0	31	21401
2026-01-26 10:19:51.14	99.12	10.01	-26.0	-43.3	4.0	8.43e-01	0	59	104	0	23	26708
2026-01-26 10:19:52.15	99.00	10.07	-29.1	-43.8	4.2	8.45e-01	0	59	0	0	19	35644
2026-01-26 10:19:53.15	98.88	10.14	-22.6	-41.0	3.7	8.43e-01	0	59	104	0	15	32325
2026-01-26 10:19:54.16	98.76	10.21	-27.4	-44.2	4.1	8.44e-01	0	59	104	0	27	23320
2026-01-26 10:19:55.17	98.64	10.27	-28.4	-44.1	4.0	8.44e-01	0	59	104	0	25	25880
2026-01-26 10:19:56.18	98.52	10.34	-26.0	-42.4	3.5	8.41e-01	0	59	104	0	19	30063
2026-01-26 10:19:57.19	98.40	10.41	-34.2	-43.2	5.7	8.25e-01	0	59	104	0	36	12499
2026-01-26 10:19:58.21	98.27	10.48	-20.5	-40.7	3.9	8.42e-01	0	59	104	0	28	14750
2026-01-26 10:19:59.22	98.15	10.54	-25.8	-40.7	5.7	8.20e-01	0	59	104	0	33	11064
2026-01-26 10:20:00.23	98.02	10.61	-25.7	-39.6	5.4	6.80e-01	0	59	0	0	27	13743
2026-01-26 10:20:01.24	97.90	10.68	-30.5	-40.9	6.8	6.92e-01	0	59	0	0	35	10060
2026-01-26 10:20:02.25	97.78	10.74	-31.8	-41.2	6.5	4.85e-01	0	59	0	2097152	36	9878
2026-01-26 10:20:03.26	97.65	10.81	-30.8	-40.4	7.0	6.50e-01	0	59	0	4194304	33	10746
2026-01-26 10:20:04.27	97.52	10.88	-33.6	-41.9	6.8	4.05e-01	0	59	0	7340032	37	10080
2026-01-26 10:20:05.27	97.40	10.95	-34.6	-41.2	7.8	2.59e-01	0	59	0	11534336	37	9281
2026-01-26 10:20:06.28	97.27	11.01	-25.7	-40.5	4.6	7.60e-01	0	59	104	13631488	29	13608
2026-01-26 10:20:07.29	97.14	11.08	-27.9	-43.9	4.2	8.41e-01	0	59	104	14680064	28	21380
2026-01-26 10:20:08.30	97.01	11.15	-29.8	-42.9	5.7	8.06e-01	0	59	0	14680064	33	14247
2026-01-26 10:20:09.31	96.88	11.22	-22.4	-39.4	4.3	8.43e-01	0	59	104	14680064	21	19102
2026-01-26 10:20:10.32	96.75	11.28	-32.5	-40.7	7.3	4.28e-01	0	59	0	15728640	35	9943
2026-01-26 10:20:11.33	96.62	11.35	-33.5	-41.4	8.0	1.44e-01	0	59	0	20971520	38	9019
2026-01-26 10:20:12.34	96.49	11.42	-34.0	-41.5	8.2	1.38e-01	0	59	0	26214400	39	8633
2026-01-26 10:20:13.35	96.36	11.49	-36.0	-41.4	9.8	1.43e-01	0	60	0	32505856	41	7546
2026-01-26 10:20:14.36	96.23	11.55	-33.4	-41.3	8.8	1.23e-01	0	60	0	37748736	42	7085
2026-01-26 10:20:15.37	96.10	11.62	-29.5	-40.2	7.6	1.11e-01	0	59	0	42991616	31	11779
2026-01-26 10:20:16.38	95.96	11.69	-33.1	-41.7	8.0	9.55e-02	0	59	0	49283072	37	9901
2026-01-26 10:20:17.39	95.83	11.76	-38.1	-41.9	9.6	9.76e-02	0	59	0	54525952	44	6753
2026-01-26 10:20:18.40	95.69	11.83	-34.7	-41.8	9.3	1.12e-01	0	59	0	59768832	42	7532
2026-01-26 10:20:19.41	95.56	11.89	-37.6	-41.8	11.1	4.16e-02	0	60	0	66060288	46	5970
2026-01-26 10:20:20.42	95.42	11.96	-36.4	-41.6	10.8	8.50e-03	0	60	0	71303168	45	6200
2026-01-26 10:20:21.44	95.28	12.03	-39.0	-42.1	11.4	2.13e-02	0	60	0	77594624	49	5208
2026-01-26 10:20:22.45	95.15	12.10	-38.9	-42.2	11.1	4.81e-03	0	59	0	82837504	48	5587
2026-01-26 10:20:23.46	95.01	12.17	-38.9	-42.1	11.5	2.90e-03	0	59	0	88080384	48	5495
2026-01-26 10:20:24.47	94.87	12.23	-38.4	-42.0	11.3	3.39e-03	0	60	0	94371840	47	5724
2026-01-26 10:20:25.48	94.73	12.30	-39.0	-42.3	11.2	1.48e-03	0	59	0	99614720	49	5301
2026-01-26 10:20:26.49	94.59	12.37	-38.3	-41.7	11.5	2.54e-03	0	60	0	105906176	48	5272
2026-01-26 10:20:27.49	94.45	12.44	-38.5	-41.1	12.6	5.09e-04	0	60	0	111149056	47	5170
2026-01-26 10:20:28.50	94.31	12.51	-38.3	-40.9	12.8	2.83e-04	0	60	0	116391936	47	5092
2026-01-26 10:20:29.52	94.17	12.58	-38.7	-41.4	12.4	3.57e-04	0	60	0	122683392	47	5344
2026-01-26 10:20:30.52	94.03	12.64	-38.2	-41.4	11.8	4.54e-04	0	60	0	127926272	48	5099
2026-01-26 10:20:31.54	93.88	12.71	-38.6	-41.6	11.7	5.56e-04	0	60	0	134217728	48	5161
2026-01-26 10:20:32.55	93.74	12.78	-38.6	-41.1	12.6	2.71e-04	0	60	0	139460608	48	4917
2026-01-26 10:20:33.56	93.59	12.85	-38.4	-40.9	12.8	1.79e-04	0	60	0	145752064	48	4805
2026-01-26 10:20:34.57	93.45	12.92	-38.2	-40.6	13.1	1.17e-04	0	60	0	150994944	47	4925
2026-01-26 10:20:35.58	93.30	12.99	-38.1	-40.4	13.3	2.63e-05	0	60	0	157286400	47	4793
2026-01-26 10:20:36.59	93.15	13.05	-38.1	-40.5	13.2	3.66e-05	0	60	0	162529280	47	4863
2026-01-26 10:20:37.60	93.01	13.12	-37.9	-40.3	13.4	2.17e-05	0	60	0	167772160	47	4723
2026-01-26 10:20:38.61	92.86	13.19	-37.8	-40.1	13.5	2.63e-05	0	60	0	174063616	47	4640
2026-01-26 10:20:39.62	92.71	13.26	-38.1	-40.5	13.2	2.28e-05	0	60	0	179306496	47	4831
2026-01-26 10:20:40.63	92.56	13.33	-38.0	-40.3	13.3	7.43e-05	0	60	0	185597952	47	4751
2026-01-26 10:20:41.64	92.41	13.40	-38.4	-40.9	12.7	5.49e-05	0	60	0	190840832	47	5061
2026-01-26 10:20:42.65	92.26	13.46	-38.3	-40.8	12.8	1.20e-04	0	60	0	196083712	47	5008
2026-01-26 10:20:43.66	92.11	13.53	-39.0	-41.7	12.0	3.63e-04	0	60	0	202375168	48	5248
2026-01-26 10:20:44.67	91.96	13.60	-38.9	-41.7	12.0	4.32e-04	0	60	0	207618048	48	5219
2026-01-26 10:20:45.68	91.80	13.67	-39.0	-41.7	11.9	7.48e-04	0	60	0	213909504	48	5260
2026-01-26 10:20:46.69	91.65	13.74	-39.0	-42.0	11.5	1.14e-03	0	60	0	219152384	48	5453
2026-01-26 10:20:47.70	91.49	13.81	-39.1	-42.0	11.5	1.39e-03	0	60	0	224395264	49	5153
2026-01-26 10:20:48.72	91.34	13.87	-39.2	-42.1	11.4	1.08e-03	0	60	0	230686720	49	5184
2026-01-26 10:20:49.72	91.18	13.94	-39.0	-41.8	11.7	8.09e-04	0	60	0	235929600	49	5005
2026-01-26 10:20:50.74	91.03	14.01	-38.7	-41.3	12.3	3.76e-04	0	60	0	242221056	49	4725
2026-01-26 10:20:51.74	90.87	14.08	-38.7	-41.3	12.3	2.76e-04	0	60	0	247463936	49	4733
2026-01-26 10:20:52.76	90.71	14.15	-38.6	-41.1	12.6	2.04e-04	0	60	0	253755392	48	4908
2026-01-26 10:20:53.77	90.55	14.22	-38.5	-41.1	12.6	1.23e-04	0	60	0	258998272	48	4873
2026-01-26 10:20:54.78	90.39	14.28	-38.2	-40.5	13.2	8.35e-05	0	60	0	265289728	48	4590
2026-01-26 10:20:55.79	90.23	14.35	-37.8	-40.1	13.4	3.77e-05	0	60	0	270532608	47	4644
2026-01-26 10:20:56.80	90.07	14.42	-37.8	-40.2	13.3	2.86e-05	0	60	0	275775488	47	4664
2026-01-26 10:20:57.81	89.91	14.49	-38.3	-40.8	12.5	1.18e-04	0	60	0	282066944	47	5038
2026-01-26 10:20:58.82	89.75	14.56	-38.4	-41.1	12.3	2.54e-04	0	60	0	287309824	47	5173
2026-01-26 10:20:59.83	89.58	14.62	-38.5	-41.3	12.0	3.52e-04	0	60	0	293601280	47	5303
2026-01-26 10:21:00.84	89.42	14.69	-38.6	-41.3	11.9	6.48e-04	0	60	0	298844160	47	5329
2026-01-26 10:21:01.85	89.25	14.76	-38.4	-41.2	12.0	4.45e-04	0	60	0	304087040	47	5233
2026-01-26 10:21:02.86	89.09	14.83	-38.2	-40.9	12.3	3.62e-04	0	60	0	310378496	47	5074
2026-01-26 10:21:03.87	88.92	14.90	-38.2	-40.8	12.3	2.94e-04	0	61	0	315621376	47	5021
2026-01-26 10:21:04.88	88.75	14.96	-38.2	-40.8	12.3	3.00e-04	0	60	0	321912832	47	5036
2026-01-26 10:21:05.90	88.59	15.03	-38.1	-40.7	12.4	2.06e-04	0	60	0	327155712	47	4963
2026-01-26 10:21:06.90	88.42	15.10	-38.2	-40.8	12.3	2.18e-04	0	60	0	332398592	47	5027
2026-01-26 10:21:07.91	88.25	15.17	-38.4	-41.1	12.0	4.94e-04	0	60	0	338690048	47	5216
2026-01-26 10:21:08.92	88.08	15.23	-38.7	-41.5	11.5	8.98e-04	0	60	0	343932928	47	5435
2026-01-26 10:21:09.93	87.91	15.30	-38.9	-41.9	11.1	1.68e-03	0	60	0	350224384	48	5389
2026-01-26 10:21:10.94	87.74	15.37	-39.0	-42.0	11.0	2.36e-03	0	60	0	355467264	48	5452
2026-01-26 10:21:11.95	87.56	15.43	-38.9	-41.9	11.0	2.87e-03	0	60	0	361758720	48	5397
2026-01-26 10:21:12.96	87.39	15.50	-38.7	-41.7	11.1	2.44e-03	0	60	0	367001600	48	5257
2026-01-26 10:21:13.97	87.22	15.57	-38.7	-41.7	11.0	2.29e-03	0	60	0	372244480	48	5273
2026-01-26 10:21:14.98	87.04	15.64	-38.9	-42.1	10.6	3.37e-03	0	60	0	378535936	48	5483
2026-01-26 10:21:15.99	86.87	15.70	-39.0	-42.4	10.3	6.28e-03	0	61	0	383778816	48	5687
2026-01-26 10:21:17.00	86.69	15.77	-39.1	-42.6	10.0	9.51e-03	0	60	0	390070272	48	5831
2026-01-26 10:21:18.01	86.51	15.84	-39.2	-42.6	10.1	9.86e-03	0	60	0	395313152	48	5803
2026-01-26 10:21:19.02	86.33	15.90	-39.1	-42.4	10.3	7.33e-03	0	61	0	400556032	48	5703
2026-01-26 10:21:20.03	86.15	15.97	-39.1	-42.4	10.4	6.23e-03	0	60	0	406847488	48	5693
2026-01-26 10:21:21.04	85.97	16.04	-39.2	-42.5	10.4	5.98e-03	0	61	0	412090368	48	5737
2026-01-26 10:21:22.05	85.79	16.10	-39.2	-42.5	10.3	6.24e-03	0	60	0	418381824	48	5765
2026-01-26 10:21:23.06	85.61	16.17	-39.2	-42.5	10.3	7.06e-03	0	61	0	423624704	48	5766
2026-01-26 10:21:24.07	85.43	16.23	-39.1	-42.3	10.6	4.95e-03	0	60	0	428867584	48	5601
2026-01-26 10:21:25.08	85.25	16.30	-38.9	-42.1	10.7	4.09e-03	0	60	0	435159040	48	5482
2026-01-26 10:21:26.09	85.06	16.37	-38.8	-41.9	10.9	3.30e-03	0	60	0	440401920	48	5365
2026-01-26 10:21:27.10	84.88	16.43	-38.8	-41.9	10.8	3.19e-03	0	61	0	446693376	48	5365
2026-01-26 10:21:28.11	84.69	16.50	-38.9	-42.0	10.8	3.61e-03	0	61	0	451936256	48	5430
2026-01-26 10:21:29.12	84.51	16.56	-38.8	-41.8	11.1	2.32e-03	0	61	0	458227712	48	5330
2026-01-26 10:21:30.13	84.32	16.63	-38.8	-41.7	11.4	1.56e-03	0	61	0	463470592	48	5251
2026-01-26 10:21:31.14	84.13	16.69	-38.9	-41.7	11.5	1.07e-03	0	61	0	469762048	48	5273
2026-01-26 10:21:32.15	83.94	16.76	-38.9	-41.7	11.7	8.82e-04	0	60	0	475004928	48	5257
2026-01-26 10:21:33.16	83.76	16.82	-38.9	-41.7	11.7	8.56e-04	0	61	0	480247808	48	5227
2026-01-26 10:21:34.17	83.57	16.89	-38.9	-41.7	11.7	8.16e-04	0	61	0	486539264	48	5275
2026-01-26 10:21:35.18	83.37	16.95	-39.0	-41.8	11.5	1.16e-03	0	61	0	491782144	48	5336
2026-01-26 10:21:36.19	83.18	17.02	-39.0	-41.9	11.4	1.41e-03	0	61	0	498073600	48	5401
2026-01-26 10:21:37.20	82.99	17.08	-38.9	-41.8	11.5	1.34e-03	0	61	0	503316480	48	5311
2026-01-26 10:21:38.21	82.80	17.15	-38.7	-41.5	11.7	7.78e-04	0	61	0	508559360	48	5103
2026-01-26 10:21:39.22	82.60	17.21	-38.6	-41.3	11.9	6.80e-04	0	61	0	514850816	48	5017
2026-01-26 10:21:40.23	82.41	17.27	-38.3	-40.9	12.3	3.76e-04	0	61	0	520093696	48	4803
2026-01-26 10:21:41.25	82.21	17.34	-38.0	-40.5	12.7	1.36e-04	0	61	0	526385152	48	4575
2026-01-26 10:21:42.25	82.01	17.40	-38.1	-40.6	12.7	1.15e-04	0	61	0	531628032	48	4616
2026-01-26 10:21:43.26	81.82	17.46	-38.1	-40.6	12.8	1.22e-04	0	61	0	536870912	48	4604
2026-01-26 10:21:44.27	81.62	17.53	-38.3	-40.8	12.6	1.14e-04	0	61	0	543162368	48	4727
2026-01-26 10:21:45.28	81.42	17.59	-38.5	-41.0	12.4	1.93e-04	0	61	0	548405248	48	4867
2026-01-26 10:21:46.29	81.22	17.65	-38.3	-40.9	12.5	2.09e-04	0	61	0	554696704	48	4779
2026-01-26 10:21:47.30	81.02	17.72	-38.3	-40.8	12.5	1.44e-04	0	61	0	559939584	48	4754
2026-01-26 10:21:48.31	80.81	17.78	-38.4	-41.1	12.2	3.26e-04	0	61	0	566231040	48	4878
2026-01-26 10:21:49.33	80.61	17.84	-38.4	-41.2	11.9	4.65e-04	0	61	0	571473920	48	4947
2026-01-26 10:21:50.33	80.41	17.90	-38.5	-41.4	11.6	9.14e-04	0	61	0	577765376	48	5054
2026-01-26 10:21:51.35	80.20	17.96	-38.6	-41.5	11.4	1.46e-03	0	61	0	583008256	48	5124
2026-01-26 10:21:52.36	80.00	18.02	-38.6	-41.7	11.1	1.78e-03	0	61	0	588251136	48	5239
2026-01-26 10:21:53.37	79.79	18.09	-38.8	-42.0	10.6	3.83e-03	0	61	0	594542592	48	5458
2026-01-26 10:21:54.38	79.58	18.15	-38.9	-42.3	10.4	6.07e-03	0	61	0	599785472	48	5600
2026-01-26 10:21:55.39	79.38	18.21	-39.0	-42.4	10.3	6.61e-03	0	61	0	606076928	48	5676
2026-01-26 10:21:56.40	79.17	18.27	-38.9	-42.1	10.6	5.37e-03	0	61	0	611319808	48	5517
2026-01-26 10:21:57.41	78.96	18.33	-38.8	-41.9	11.0	2.96e-03	0	61	0	616562688	48	5356
2026-01-26 10:21:58.42	78.75	18.39	-38.6	-41.5	11.4	1.63e-03	0	61	0	622854144	48	5141
2026-01-26 10:21:59.43	78.54	18.45	-38.6	-41.4	11.7	9.21e-04	0	61	0	628097024	48	5056
2026-01-26 10:22:00.44	78.32	18.51	-38.6	-41.4	11.8	8.46e-04	0	61	0	634388480	48	5060
2026-01-26 10:22:01.45	78.11	18.57	-38.5	-41.3	11.9	6.50e-04	0	61	0	639631360	48	4994
2026-01-26 10:22:02.46	77.90	18.63	-38.4	-41.2	12.0	4.84e-04	0	61	0	644874240	48	4927
2026-01-26 10:22:03.47	77.68	18.68	-38.3	-40.9	12.2	3.71e-04	0	61	0	651165696	48	4813
2026-01-26 10:22:04.48	77.47	18.74	-38.1	-40.7	12.5	2.29e-04	0	61	0	656408576	48	4655
2026-01-26 10:22:05.49	77.25	18.80	-38.0	-40.5	12.6	1.67e-04	0	61	0	662700032	48	4595
2026-01-26 10:22:06.50	77.03	18.86	-37.9	-40.4	12.6	1.42e-04	0	61	0	667942912	47	4777
2026-01-26 10:22:07.51	76.82	18.92	-37.9	-40.5	12.5	1.73e-04	0	61	0	674234368	47	4854
2026-01-26 10:22:08.51	76.60	18.97	-38.0	-40.6	12.5	1.65e-04	0	61	0	679477248	47	4881
2026-01-26 10:22:09.53	76.38	19.03	-38.1	-40.7	12.3	2.29e-04	0	61	0	685768704	47	4960
2026-01-26 10:22:10.54	76.16	19.09	-38.1	-40.7	12.3	2.67e-04	0	61	0	691011584	47	4975
2026-01-26 10:22:11.55	75.94	19.14	-38.0	-40.6	12.5	2.02e-04	0	61	0	696254464	47	4897
2026-01-26 10:22:12.56	75.72	19.20	-38.0	-40.5	12.7	1.49e-04	0	61	0	702545920	47	4841
2026-01-26 10:22:13.57	75.49	19.25	-38.0	-40.5	12.8	1.05e-04	0	61	0	707788800	47	4862
2026-01-26 10:22:14.58	75.27	19.31	-38.0	-40.4	12.8	8.69e-05	0	61	0	714080256	47	4807
2026-01-26 10:22:15.59	75.04	19.36	-37.8	-40.3	12.9	9.72e-05	0	61	0	719323136	47	4713
2026-01-26 10:22:16.60	74.82	19.42	-37.7	-40.1	13.0	5.37e-05	0	61	0	724566016	47	4648
2026-01-26 10:22:17.60	74.60	19.47	-37.7	-40.1	13.0	4.69e-05	0	61	0	730857472	47	4639
2026-01-26 10:22:18.61	74.37	19.53	-37.8	-40.2	12.9	6.75e-05	0	61	0	736100352	47	4703
2026-01-26 10:22:19.62	74.14	19.58	-37.8	-40.1	13.1	5.49e-05	0	61	0	741343232	47	4649
2026-01-26 10:22:20.63	73.91	19.63	-37.7	-40.0	13.3	2.97e-05	0	61	0	747634688	47	4586
2026-01-26 10:22:21.64	73.68	19.69	-37.8	-40.1	13.4	1.83e-05	0	61	0	752877568	47	4610
2026-01-26 10:22:22.65	73.45	19.74	-37.8	-40.2	13.4	2.63e-05	0	61	0	759169024	47	4658
2026-01-26 10:22:23.67	73.22	19.79	-37.7	-39.9	13.7	1.48e-05	0	61	0	764411904	47	4537
2026-01-26 10:22:24.68	72.99	19.84	-37.8	-40.1	13.6	1.48e-05	0	61	0	770703360	47	4600
2026-01-26 10:22:25.69	72.76	19.89	-37.8	-40.1	13.5	2.05e-05	0	61	0	775946240	47	4614
2026-01-26 10:22:26.69	72.53	19.95	-37.9	-40.2	13.4	2.28e-05	0	61	0	782237696	47	4688
2026-01-26 10:22:27.71	72.29	20.00	-38.0	-40.4	13.2	2.63e-05	0	61	0	787480576	47	4783
2026-01-26 10:22:28.71	72.06	20.05	-37.9	-40.3	13.4	3.43e-05	0	61	0	792723456	47	4722
2026-01-26 10:22:29.73	71.82	20.10	-37.9	-40.3	13.4	2.28e-05	0	61	0	799014912	47	4709
2026-01-26 10:22:30.74	71.58	20.15	-37.7	-40.0	13.8	6.80e-06	0	61	0	804257792	47	4554
2026-01-26 10:22:31.75	71.35	20.19	-37.8	-39.9	14.0	2.20e-06	0	61	0	810549248	47	4529
2026-01-26 10:22:32.76	71.11	20.24	-37.8	-39.9	14.1	2.20e-06	0	61	0	815792128	47	4538
2026-01-26 10:22:33.77	70.87	20.29	-37.8	-39.9	14.3	2.20e-06	0	61	0	821035008	47	4511
2026-01-26 10:22:34.78	70.63	20.34	-37.7	-39.8	14.5	0.00e+00	0	61	0	827326464	47	4451
2026-01-26 10:22:35.79	70.39	20.39	-37.6	-39.7	14.7	1.10e-06	0	61	0	832569344	47	4400
2026-01-26 10:22:36.80	70.15	20.43	-37.4	-39.3	15.1	0.00e+00	0	61	0	838860800	46	4475
2026-01-26 10:22:37.81	69.91	20.48	-37.2	-39.1	15.3	0.00e+00	0	61	0	844103680	46	4380
2026-01-26 10:22:38.82	69.67	20.52	-37.1	-39.0	15.4	0.00e+00	0	61	0	849346560	46	4335
2026-01-26 10:22:39.83	69.42	20.57	-37.1	-38.9	15.5	0.00e+00	0	61	0	855638016	46	4266
2026-01-26 10:22:40.84	69.18	20.61	-37.0	-38.8	15.6	0.00e+00	0	61	0	860880896	46	4241
2026-01-26 10:22:41.85	68.94	20.66	-37.0	-38.8	15.7	0.00e+00	0	61	0	867172352	46	4234
2026-01-26 10:22:42.86	68.69	20.70	-37.0	-38.8	15.8	0.00e+00	0	61	0	872415232	46	4202
2026-01-26 10:22:43.87	68.45	20.75	-36.9	-38.7	15.9	0.00e+00	0	61	0	878706688	45	4395
2026-01-26 10:22:44.88	68.20	20.79	-36.7	-38.4	16.2	0.00e+00	0	61	0	883949568	45	4265
2026-01-26 10:22:45.89	67.95	20.83	-36.6	-38.3	16.4	0.00e+00	0	61	0	890241024	45	4219
2026-01-26 10:22:46.90	67.70	20.87	-36.7	-38.4	16.3	0.00e+00	0	61	0	895483904	45	4248
2026-01-26 10:22:47.91	67.46	20.92	-36.7	-38.5	16.2	0.00e+00	0	61	0	900726784	45	4312
2026-01-26 10:22:48.92	67.21	20.96	-36.6	-38.3	16.5	0.00e+00	0	61	0	907018240	45	4197
2026-01-26 10:22:49.93	66.96	21.00	-36.5	-38.2	16.5	0.00e+00	0	61	0	912261120	45	4169
2026-01-26 10:22:50.94	66.71	21.04	-36.5	-38.2	16.6	0.00e+00	0	61	0	918552576	44	4395
2026-01-26 10:22:51.95	66.46	21.08	-36.5	-38.2	16.6	0.00e+00	0	61	0	923795456	44	4403
2026-01-26 10:22:52.96	66.20	21.12	-36.5	-38.2	16.5	0.00e+00	0	61	0	929038336	44	4427
2026-01-26 10:22:53.97	65.95	21.15	-36.5	-38.2	16.6	0.00e+00	0	61	0	935329792	44	4397
2026-01-26 10:22:54.98	65.70	21.19	-36.5	-38.2	16.5	0.00e+00	0	61	0	940572672	44	4439
2026-01-26 10:22:55.99	65.45	21.23	-36.5	-38.2	16.6	0.00e+00	0	61	0	946864128	44	4423
2026-01-26 10:22:57.00	65.19	21.27	-36.6	-38.3	16.5	0.00e+00	0	61	0	952107008	44	4442
2026-01-26 10:22:58.01	64.94	21.30	-36.6	-38.3	16.5	0.00e+00	0	61	0	957349888	44	4460
2026-01-26 10:22:59.02	64.68	21.34	-36.7	-38.4	16.4	0.00e+00	0	61	0	963641344	44	4513
2026-01-26 10:23:00.03	64.43	21.37	-36.7	-38.4	16.4	0.00e+00	0	61	0	968884224	44	4520
2026-01-26 10:23:01.05	64.17	21.41	-36.6	-38.3	16.5	0.00e+00	0	62	0	975175680	44	4486
2026-01-26 10:23:02.05	63.91	21.44	-36.7	-38.4	16.4	0.00e+00	0	61	0	980418560	44	4542
2026-01-26 10:23:03.06	63.65	21.48	-36.8	-38.6	16.3	0.00e+00	0	61	0	986710016	44	4602
2026-01-26 10:23:04.08	63.39	21.51	-36.8	-38.5	16.3	0.00e+00	0	61	0	991952896	44	4594
2026-01-26 10:23:05.09	63.13	21.54	-36.8	-38.5	16.3	0.00e+00	0	61	0	998244352	44	4554
2026-01-26 10:23:06.10	62.88	21.57	-36.7	-38.3	16.5	0.00e+00	0	61	0	1003487232	44	4493
2026-01-26 10:23:07.11	62.62	21.61	-36.7	-38.4	16.4	0.00e+00	0	61	0	1008730112	44	4523
2026-01-26 10:23:08.12	62.36	21.64	-36.8	-38.5	16.3	0.00e+00	0	62	0	1015021568	44	4569
2026-01-26 10:23:09.13	62.09	21.67	-36.9	-38.6	16.2	0.00e+00	0	61	0	1020264448	44	4631
2026-01-26 10:23:10.14	61.83	21.70	-36.9	-38.7	16.2	0.00e+00	0	61	0	1026555904	44	4656
2026-01-26 10:23:11.15	61.57	21.72	-36.8	-38.6	16.2	0.00e+00	0	62	0	1031798784	44	4614
2026-01-26 10:23:12.16	61.31	21.75	-36.8	-38.5	16.3	0.00e+00	0	61	0	1037041664	44	4568
2026-01-26 10:23:13.17	61.05	21.78	-36.6	-38.3	16.5	0.00e+00	0	61	0	1043333120	44	4488
2026-01-26 10:23:14.18	60.78	21.81	-36.5	-38.2	16.7	0.00e+00	0	62	0	1048576000	44	4392
2026-01-26 10:23:15.19	60.52	21.83	-36.5	-38.1	16.7	0.00e+00	0	61	0	1054867456	44	4375
2026-01-26 10:23:16.20	60.25	21.86	-36.5	-38.1	16.7	0.00e+00	0	62	0	1060110336	44	4372
2026-01-26 10:23:17.21	59.99	21.88	-36.5	-38.2	16.7	0.00e+00	0	61	0	1065353216	44	4399
2026-01-26 10:23:18.22	59.73	21.91	-36.5	-38.2	16.6	0.00e+00	0	61	0	1071644672	44	4420
2026-01-26 10:23:19.23	59.46	21.93	-36.5	-38.2	16.6	0.00e+00	0	61	0	1076887552	44	4429
2026-01-26 10:23:20.24	59.19	21.96	-36.5	-38.2	16.6	0.00e+00	0	61	0	1083179008	44	4415
2026-01-26 10:23:21.25	58.93	21.98	-36.5	-38.2	16.7	0.00e+00	0	61	0	1088421888	44	4397
2026-01-26 10:23:22.26	58.66	22.00	-36.5	-38.2	16.6	0.00e+00	0	61	0	1094713344	44	4424
2026-01-26 10:23:23.27	58.39	22.02	-36.5	-38.2	16.7	0.00e+00	0	61	0	1099956224	44	4408
2026-01-26 10:23:24.29	58.12	22.04	-36.6	-38.2	16.6	0.00e+00	0	61	0	1106247680	44	4430
2026-01-26 10:23:25.30	57.86	22.06	-36.5	-38.2	16.7	0.00e+00	0	61	0	1111490560	44	4403
2026-01-26 10:23:26.31	57.59	22.08	-36.6	-38.3	16.6	0.00e+00	0	61	0	1116733440	44	4446
2026-01-26 10:23:27.32	57.32	22.10	-36.4	-38.1	16.8	0.00e+00	0	61	0	1123024896	44	4350
2026-01-26 10:23:28.33	57.05	22.12	-36.5	-38.1	16.7	0.00e+00	0	61	0	1128267776	44	4383
2026-01-26 10:23:29.34	56.78	22.14	-36.5	-38.1	16.7	0.00e+00	0	61	0	1134559232	44	4385
2026-01-26 10:23:30.35	56.51	22.15	-36.5	-38.1	16.8	0.00e+00	0	62	0	1139802112	44	4368
2026-01-26 10:23:31.36	56.24	22.17	-36.5	-38.2	16.7	0.00e+00	0	61	0	1145044992	44	4415
2026-01-26 10:23:32.37	55.97	22.18	-36.7	-38.3	16.5	0.00e+00	0	61	0	1151336448	44	4493
2026-01-26 10:23:33.38	55.70	22.20	-36.8	-38.3	16.8	0.00e+00	0	61	0	1156579328	44	4474
2026-01-26 10:23:34.39	55.43	22.21	-36.8	-38.3	16.8	0.00e+00	0	61	0	1162870784	44	4476
2026-01-26 10:23:35.40	55.16	22.23	-36.9	-38.4	16.7	0.00e+00	0	62	0	1168113664	44	4519
2026-01-26 10:23:36.41	54.89	22.24	-36.9	-38.5	16.7	0.00e+00	0	61	0	1173356544	44	4549
2026-01-26 10:23:37.42	54.62	22.25	-36.9	-38.4	16.7	0.00e+00	0	62	0	1179648000	44	4535
2026-01-26 10:23:38.43	54.35	22.26	-36.8	-38.4	16.8	0.00e+00	0	62	0	1184890880	44	4497
2026-01-26 10:23:39.44	54.08	22.27	-36.7	-38.3	16.9	0.00e+00	0	62	0	1191182336	44	4452
2026-01-26 10:23:40.45	53.81	22.28	-36.6	-38.1	17.1	0.00e+00	0	61	0	1196425216	44	4370
2026-01-26 10:23:41.46	53.54	22.29	-36.5	-37.9	17.2	0.00e+00	0	62	0	1202716672	44	4289
2026-01-26 10:23:42.48	53.26	22.30	-36.4	-37.9	17.3	0.00e+00	0	62	0	1207959552	44	4249
2026-01-26 10:23:43.49	52.99	22.31	-36.5	-38.0	17.2	0.00e+00	0	61	0	1214251008	44	4306
2026-01-26 10:23:44.50	52.72	22.32	-36.6	-38.1	17.1	0.00e+00	0	62	0	1219493888	44	4349
2026-01-26 10:23:45.51	52.44	22.32	-36.5	-38.0	17.2	0.00e+00	0	62	0	1224736768	44	4301
2026-01-26 10:23:46.52	52.17	22.33	-36.5	-38.0	17.2	0.00e+00	0	62	0	1231028224	44	4303
2026-01-26 10:23:47.53	51.90	22.34	-36.6	-38.1	17.1	0.00e+00	0	62	0	1236271104	44	4362
2026-01-26 10:23:48.54	51.63	22.34	-36.6	-38.1	17.1	0.00e+00	0	61	0	1242562560	44	4364
2026-01-26 10:23:49.55	51.35	22.34	-36.6	-38.1	17.1	0.00e+00	0	61	0	1247805440	44	4387
2026-01-26 10:23:50.56	51.08	22.35	-36.7	-38.2	17.0	0.00e+00	0	62	0	1253048320	44	4421
2026-01-26 10:23:51.57	50.81	22.35	-36.7	-38.3	16.9	0.00e+00	0	61	0	1259339776	44	4452
2026-01-26 10:23:52.58	50.54	22.35	-36.9	-38.4	16.8	0.00e+00	0	62	0	1264582656	44	4517
2026-01-26 10:23:53.59	50.26	22.35	-36.9	-38.5	16.7	0.00e+00	0	62	0	1270874112	44	4566
2026-01-26 10:23:54.60	49.99	22.35	-37.0	-38.6	16.7	0.00e+00	0	62	0	1276116992	44	4601
2026-01-26 10:23:55.61	49.72	22.35	-36.9	-38.4	16.8	0.00e+00	0	62	0	1281359872	44	4530
2026-01-26 10:23:56.62	49.45	22.35	-36.9	-38.4	16.8	0.00e+00	0	62	0	1287651328	44	4521
2026-01-26 10:23:57.62	49.18	22.35	-37.0	-38.5	16.7	0.00e+00	0	62	0	1292894208	44	4575
2026-01-26 10:23:58.63	48.90	22.35	-37.0	-38.6	16.7	0.00e+00	0	62	0	1299185664	44	4602
2026-01-26 10:23:59.64	48.63	22.34	-36.8	-38.4	16.9	0.00e+00	0	61	0	1304428544	44	4495
2026-01-26 10:24:00.65	48.36	22.34	-36.7	-38.2	17.0	0.00e+00	0	62	0	1310720000	44	4430
2026-01-26 10:24:01.66	48.09	22.34	-36.6	-38.1	17.2	0.00e+00	0	61	0	1315962880	44	4349
2026-01-26 10:24:02.67	47.81	22.33	-36.6	-38.1	17.2	0.00e+00	0	61	0	1321205760	44	4347
2026-01-26 10:24:03.68	47.54	22.32	-36.5	-38.0	17.2	0.00e+00	0	62	0	1327497216	44	4329
2026-01-26 10:24:04.69	47.27	22.32	-36.6	-38.1	17.1	0.00e+00	0	61	0	1332740096	44	4360
2026-01-26 10:24:05.70	47.00	22.31	-36.6	-38.2	17.1	0.00e+00	0	62	0	1339031552	44	4396
2026-01-26 10:24:06.71	46.72	22.30	-36.6	-38.0	17.2	0.00e+00	0	62	0	1344274432	44	4330
2026-01-26 10:24:07.72	46.45	22.29	-36.5	-38.0	17.3	0.00e+00	0	62	0	1349517312	44	4310
2026-01-26 10:24:08.73	46.18	22.28	-36.6	-38.1	17.2	0.00e+00	0	62	0	1355808768	44	4353
2026-01-26 10:24:09.74	45.91	22.27	-36.6	-38.0	17.2	0.00e+00	0	62	0	1361051648	44	4335
2026-01-26 10:24:10.75	45.64	22.26	-36.7	-38.2	17.0	0.00e+00	0	61	0	1367343104	44	4399
2026-01-26 10:24:11.76	45.37	22.25	-36.7	-38.2	17.0	0.00e+00	0	62	0	1372585984	44	4411
2026-01-26 10:24:12.78	45.09	22.24	-36.7	-38.2	17.1	0.00e+00	0	62	0	1378877440	44	4398
2026-01-26 10:24:13.79	44.82	22.23	-36.7	-38.2	17.0	0.00e+00	0	62	0	1384120320	44	4424
2026-01-26 10:24:14.80	44.55	22.21	-36.7	-38.2	17.0	0.00e+00	0	62	0	1389363200	44	4427
2026-01-26 10:24:15.81	44.28	22.20	-36.7	-38.2	17.0	0.00e+00	0	62	0	1395654656	44	4434
2026-01-26 10:24:16.82	44.01	22.19	-36.7	-38.2	17.1	0.00e+00	0	62	0	1400897536	44	4408
2026-01-26 10:24:17.83	43.74	22.17	-36.7	-38.2	17.0	0.00e+00	0	62	0	1407188992	44	4423
2026-01-26 10:24:18.84	43.47	22.15	-36.7	-38.2	17.0	0.00e+00	0	62	0	1412431872	44	4430
2026-01-26 10:24:19.85	43.21	22.14	-36.7	-38.2	17.1	0.00e+00	0	62	0	1418723328	44	4396
2026-01-26 10:24:20.86	42.94	22.12	-36.7	-38.2	17.0	0.00e+00	0	62	0	1423966208	44	4437
2026-01-26 10:24:21.87	42.67	22.10	-36.6	-38.1	17.1	0.00e+00	0	62	0	1429209088	44	4352
2026-01-26 10:24:22.88	42.40	22.08	-36.6	-38.0	17.2	0.00e+00	0	62	0	1435500544	44	4339
2026-01-26 10:24:23.89	42.13	22.06	-36.6	-38.1	17.2	0.00e+00	0	62	0	1440743424	44	4354
2026-01-26 10:24:24.90	41.86	22.04	-36.7	-38.2	17.0	0.00e+00	0	62	0	1447034880	44	4400
2026-01-26 10:24:25.91	41.60	22.02	-36.6	-38.2	17.1	0.00e+00	0	62	0	1452277760	44	4396
2026-01-26 10:24:26.92	41.33	22.00	-36.7	-38.2	17.1	0.00e+00	0	62	0	1457520640	44	4401
2026-01-26 10:24:27.93	41.06	21.98	-36.6	-38.1	17.1	0.00e+00	0	62	0	1463812096	44	4360
2026-01-26 10:24:28.94	40.80	21.96	-36.6	-38.1	17.1	0.00e+00	0	62	0	1469054976	44	4355
2026-01-26 10:24:29.95	40.53	21.93	-36.6	-38.1	17.1	0.00e+00	0	62	0	1475346432	44	4379
2026-01-26 10:24:30.96	40.27	21.91	-36.6	-38.2	17.1	0.00e+00	0	62	0	1480589312	44	4394
2026-01-26 10:24:31.98	40.00	21.89	-36.6	-38.1	17.1	0.00e+00	0	62	0	1486880768	44	4382
2026-01-26 10:24:32.99	39.74	21.86	-36.7	-38.2	17.0	0.00e+00	0	62	0	1492123648	44	4412
2026-01-26 10:24:34.00	39.47	21.83	-36.7	-38.2	17.0	0.00e+00	0	62	0	1497366528	44	4409
2026-01-26 10:24:35.01	39.21	21.81	-36.6	-38.0	17.2	0.00e+00	0	61	0	1503657984	44	4332
2026-01-26 10:24:36.02	38.95	21.78	-36.6	-38.0	17.2	0.00e+00	0	62	0	1508900864	44	4339
2026-01-26 10:24:37.03	38.68	21.75	-36.6	-38.1	17.1	0.00e+00	0	62	0	1515192320	44	4386
2026-01-26 10:24:38.04	38.42	21.73	-36.7	-38.2	17.0	0.00e+00	0	62	0	1520435200	44	4430
2026-01-26 10:24:39.05	38.16	21.70	-36.8	-38.4	16.9	0.00e+00	0	62	0	1526726656	44	4511
2026-01-26 10:24:40.06	37.90	21.67	-36.9	-38.4	16.8	0.00e+00	0	62	0	1531969536	44	4537
2026-01-26 10:24:41.07	37.64	21.64	-36.9	-38.4	16.8	0.00e+00	0	62	0	1537212416	44	4538
2026-01-26 10:24:42.08	37.38	21.61	-36.8	-38.4	16.8	0.00e+00	0	62	0	1543503872	44	4510
2026-01-26 10:24:43.09	37.12	21.58	-36.9	-38.4	16.8	0.00e+00	0	62	0	1548746752	44	4516
2026-01-26 10:24:44.10	36.86	21.54	-36.8	-38.3	17.0	0.00e+00	0	62	0	1555038208	44	4444
2026-01-26 10:24:45.11	36.60	21.51	-36.7	-38.2	17.0	0.00e+00	0	62	0	1560281088	44	4420
2026-01-26 10:24:46.12	36.35	21.48	-36.8	-38.4	16.9	0.00e+00	0	62	0	1565523968	44	4497
2026-01-26 10:24:47.13	36.09	21.45	-36.8	-38.4	16.8	0.00e+00	0	62	0	1571815424	44	4507
2026-01-26 10:24:48.14	35.83	21.41	-36.8	-38.4	16.9	0.00e+00	0	62	0	1577058304	44	4510
2026-01-26 10:24:49.15	35.58	21.38	-36.9	-38.4	16.8	0.00e+00	0	62	0	1583349760	44	4544
2026-01-26 10:24:50.16	35.32	21.34	-36.9	-38.4	16.8	0.00e+00	0	62	0	1588592640	44	4531
2026-01-26 10:24:51.17	35.07	21.31	-36.8	-38.4	16.9	0.00e+00	0	62	0	1593835520	44	4503
2026-01-26 10:24:52.18	34.81	21.27	-36.8	-38.3	16.9	0.00e+00	0	62	0	1600126976	44	4457
2026-01-26 10:24:53.19	34.56	21.23	-36.8	-38.3	17.0	0.00e+00	0	62	0	1605369856	44	4453
2026-01-26 10:24:54.20	34.31	21.20	-36.8	-38.3	16.9	0.00e+00	0	62	0	1611661312	44	4471
2026-01-26 10:24:55.21	34.05	21.16	-36.8	-38.3	16.9	0.00e+00	0	62	0	1616904192	44	4463
2026-01-26 10:24:56.22	33.80	21.12	-36.8	-38.4	16.9	0.00e+00	0	62	0	1623195648	44	4497
2026-01-26 10:24:57.23	33.55	21.08	-36.8	-38.3	16.9	0.00e+00	0	62	0	1628438528	44	4471
2026-01-26 10:24:58.24	33.30	21.04	-36.8	-38.3	17.0	0.00e+00	0	62	0	1634729984	44	4452
2026-01-26 10:24:59.25	33.05	21.00	-36.7	-38.3	17.0	0.00e+00	0	62	0	1639972864	44	4446
2026-01-26 10:25:00.26	32.80	20.96	-36.8	-38.4	16.9	0.00e+00	0	62	0	1645215744	44	4508
2026-01-26 10:25:01.27	32.55	20.92	-36.9	-38.5	16.8	0.00e+00	0	62	0	1651507200	44	4546
2026-01-26 10:25:02.28	32.30	20.88	-36.9	-38.4	16.8	0.00e+00	0	62	0	1656750080	44	4544
2026-01-26 10:25:03.30	32.05	20.84	-36.9	-38.4	16.8	0.00e+00	0	62	0	1663041536	44	4521
2026-01-26 10:25:04.31	31.81	20.79	-36.9	-38.5	16.8	0.00e+00	0	62	0	1668284416	44	4547
2026-01-26 10:25:05.32	31.56	20.75	-37.0	-38.5	16.7	0.00e+00	0	62	0	1673527296	44	4580
2026-01-26 10:25:06.33	31.32	20.71	-37.1	-38.7	16.5	0.00e+00	0	62	0	1679818752	44	4665
2026-01-26 10:25:07.34	31.07	20.66	-37.0	-38.6	16.6	0.00e+00	0	62	0	1685061632	44	4634
2026-01-26 10:25:08.35	30.83	20.62	-37.1	-38.7	16.5	0.00e+00	0	62	0	1691353088	44	4658
2026-01-26 10:25:09.36	30.59	20.57	-37.0	-38.6	16.6	0.00e+00	0	62	0	1696595968	44	4621
2026-01-26 10:25:10.37	30.34	20.53	-37.0	-38.6	16.6	0.00e+00	0	62	0	1702887424	44	4620
2026-01-26 10:25:11.38	30.10	20.48	-37.1	-38.6	16.6	0.00e+00	0	62	0	1708130304	44	4648
2026-01-26 10:25:12.39	29.86	20.44	-37.0	-38.5	16.7	0.00e+00	0	62	0	1713373184	44	4587
2026-01-26 10:25:13.40	29.62	20.39	-37.0	-38.5	16.7	0.00e+00	0	62	0	1719664640	44	4593
2026-01-26 10:25:14.41	29.38	20.34	-37.0	-38.6	16.6	0.00e+00	0	62	0	1724907520	44	4622
2026-01-26 10:25:15.42	29.14	20.30	-37.2	-38.8	16.4	0.00e+00	0	62	0	1731198976	44	4708
2026-01-26 10:25:16.43	28.91	20.25	-37.0	-38.6	16.6	0.00e+00	0	62	0	1736441856	44	4619
2026-01-26 10:25:17.45	28.67	20.20	-36.9	-38.5	16.7	0.00e+00	0	62	0	1742733312	44	4556
2026-01-26 10:25:18.45	28.43	20.15	-37.0	-38.5	16.7	0.00e+00	0	62	0	1747976192	44	4576
2026-01-26 10:25:19.47	28.20	20.10	-37.0	-38.6	16.7	0.00e+00	0	62	0	1753219072	44	4623
2026-01-26 10:25:20.48	27.96	20.05	-37.1	-38.6	16.6	0.00e+00	0	62	0	1759510528	44	4644
2026-01-26 10:25:21.49	27.73	20.00	-37.0	-38.6	16.7	0.00e+00	0	62	0	1764753408	44	4612
2026-01-26 10:25:22.50	27.49	19.95	-37.0	-38.6	16.6	0.00e+00	0	62	0	1771044864	44	4637
2026-01-26 10:25:23.51	27.26	19.90	-37.1	-38.7	16.5	0.00e+00	0	62	0	1776287744	44	4669
2026-01-26 10:25:24.52	27.03	19.85	-37.1	-38.7	16.5	0.00e+00	0	62	0	1781530624	44	4679
2026-01-26 10:25:25.53	26.80	19.80	-37.1	-38.7	16.5	0.00e+00	0	62	0	1787822080	44	4699
2026-01-26 10:25:26.53	26.57	19.75	-37.2	-38.8	16.4	0.00e+00	0	62	0	1793064960	44	4738
2026-01-26 10:25:27.55	26.34	19.69	-37.2	-38.8	16.3	0.00e+00	0	62	0	1799356416	45	4492
2026-01-26 10:25:28.56	26.11	19.64	-37.3	-38.9	16.3	0.00e+00	0	62	0	1804599296	45	4510
2026-01-26 10:25:29.57	25.88	19.59	-37.2	-38.7	16.4	0.00e+00	0	62	0	1809842176	45	4436
2026-01-26 10:25:30.58	25.66	19.53	-37.2	-38.8	16.5	0.00e+00	0	62	0	1816133632	45	4449
2026-01-26 10:25:31.59	25.43	19.48	-37.2	-38.8	16.4	0.00e+00	0	62	0	1821376512	45	4470
2026-01-26 10:25:32.60	25.21	19.43	-37.3	-39.0	16.2	0.00e+00	0	62	0	1827667968	45	4554
2026-01-26 10:25:33.61	24.98	19.37	-37.4	-39.0	16.1	0.00e+00	0	62	0	1832910848	45	4591
2026-01-26 10:25:34.62	24.76	19.32	-37.4	-39.0	16.2	1.10e-06	0	62	0	1839202304	45	4586
2026-01-26 10:25:35.63	24.54	19.26	-37.4	-39.0	16.2	0.00e+00	0	62	0	1844445184	45	4582
2026-01-26 10:25:36.64	24.31	19.21	-37.4	-39.1	16.1	0.00e+00	0	62	0	1850736640	45	4609
2026-01-26 10:25:37.65	24.09	19.15	-37.3	-38.9	16.3	0.00e+00	0	62	0	1855979520	45	4516
2026-01-26 10:25:38.66	23.87	19.09	-37.3	-38.9	16.3	0.00e+00	0	62	0	1861222400	45	4530
2026-01-26 10:25:39.67	23.65	19.04	-37.3	-39.0	16.2	0.00e+00	0	62	0	1867513856	45	4552
2026-01-26 10:25:40.69	23.43	18.98	-37.3	-38.9	16.3	0.00e+00	0	62	0	1872756736	45	4538
2026-01-26 10:25:41.70	23.21	18.92	-37.3	-39.0	16.2	0.00e+00	0	62	0	1879048192	45	4551
2026-01-26 10:25:42.71	23.00	18.87	-37.3	-39.0	16.2	0.00e+00	0	62	0	1884291072	45	4566
2026-01-26 10:25:43.71	22.78	18.81	-37.4	-39.0	16.1	0.00e+00	0	62	0	1889533952	45	4595
2026-01-26 10:25:44.72	22.57	18.75	-37.4	-39.1	16.1	0.00e+00	0	62	0	1895825408	45	4601
2026-01-26 10:25:45.73	22.35	18.69	-37.4	-39.0	16.1	0.00e+00	0	62	0	1901068288	45	4587
2026-01-26 10:25:46.74	22.14	18.64	-37.4	-39.1	16.1	0.00e+00	0	62	0	1907359744	45	4613
2026-01-26 10:25:47.75	21.93	18.58	-37.5	-39.2	16.0	0.00e+00	0	62	0	1912602624	45	4667
2026-01-26 10:25:48.76	21.72	18.52	-37.5	-39.2	16.0	0.00e+00	0	62	0	1917845504	45	4669
2026-01-26 10:25:49.77	21.50	18.46	-37.6	-39.2	15.9	0.00e+00	0	62	0	1924136960	45	4703
2026-01-26 10:25:50.78	21.29	18.40	-37.6	-39.3	15.8	0.00e+00	0	62	0	1929379840	45	4752
2026-01-26 10:25:51.79	21.08	18.34	-37.7	-39.5	15.7	0.00e+00	0	62	0	1935671296	46	4558
2026-01-26 10:25:52.79	20.88	18.28	-37.9	-39.6	15.5	0.00e+00	0	62	0	1940914176	46	4647
2026-01-26 10:25:53.81	20.67	18.22	-37.9	-39.7	15.5	0.00e+00	0	62	0	1947205632	46	4664
2026-01-26 10:25:54.82	20.46	18.16	-37.9	-39.7	15.5	0.00e+00	0	62	0	1952448512	46	4670
2026-01-26 10:25:55.83	20.25	18.10	-37.9	-39.7	15.4	0.00e+00	0	62	0	1958739968	46	4684
2026-01-26 10:25:56.84	20.05	18.04	-37.9	-39.7	15.4	0.00e+00	0	62	0	1963982848	46	4673
2026-01-26 10:25:57.85	19.85	17.98	-37.8	-39.5	15.6	0.00e+00	0	62	0	1969225728	46	4596
2026-01-26 10:25:58.86	19.64	17.91	-37.8	-39.6	15.5	0.00e+00	0	62	0	1975517184	46	4615
2026-01-26 10:25:59.87	19.44	17.85	-37.9	-39.6	15.5	0.00e+00	0	62	0	1980760064	46	4650
2026-01-26 10:26:00.88	19.24	17.79	-37.9	-39.7	15.5	0.00e+00	0	62	0	1987051520	46	4666
2026-01-26 10:26:01.90	19.03	17.73	-38.0	-39.8	15.4	0.00e+00	0	62	0	1992294400	46	4712
2026-01-26 10:26:02.91	18.83	17.67	-37.8	-39.5	15.6	0.00e+00	0	62	0	1997537280	46	4584
2026-01-26 10:26:03.92	18.63	17.60	-37.7	-39.4	15.7	0.00e+00	0	62	0	2003828736	46	4520
2026-01-26 10:26:04.93	18.44	17.54	-37.6	-39.2	15.8	0.00e+00	0	62	0	2009071616	46	4437
2026-01-26 10:26:05.94	18.24	17.48	-37.7	-39.4	15.7	0.00e+00	0	62	0	2015363072	46	4521
2026-01-26 10:26:06.95	18.04	17.41	-37.7	-39.4	15.7	0.00e+00	0	62	0	2020605952	46	4515
2026-01-26 10:26:07.96	17.85	17.35	-37.7	-39.4	15.7	0.00e+00	0	62	0	2025848832	46	4530
2026-01-26 10:26:08.97	17.65	17.29	-37.6	-39.3	15.7	0.00e+00	0	62	0	2032140288	46	4491
2026-01-26 10:26:09.98	17.46	17.22	-37.6	-39.3	15.8	0.00e+00	0	62	0	2037383168	46	4457
2026-01-26 10:26:10.99	17.26	17.16	-37.6	-39.3	15.8	0.00e+00	0	62	0	2043674624	46	4484
2026-01-26 10:26:12.00	17.07	17.10	-37.6	-39.3	15.7	0.00e+00	0	62	0	2048917504	46	4484
2026-01-26 10:26:13.01	16.88	17.03	-37.6	-39.3	15.7	0.00e+00	0	62	0	2055208960	46	4487
2026-01-26 10:26:14.02	16.69	16.97	-37.7	-39.4	15.6	0.00e+00	0	62	0	2060451840	46	4532
2026-01-26 10:26:15.03	16.50	16.90	-37.8	-39.5	15.5	0.00e+00	0	62	0	2066743296	46	4576
2026-01-26 10:26:16.05	16.30	16.84	-37.7	-39.5	15.6	0.00e+00	0	62	0	2071986176	46	4567
2026-01-26 10:26:17.06	16.12	16.77	-37.8	-39.5	15.5	0.00e+00	0	62	0	2077229056	46	4587
2026-01-26 10:26:18.07	15.93	16.71	-37.8	-39.5	15.5	0.00e+00	0	62	0	2083520512	46	4571
2026-01-26 10:26:19.08	15.74	16.64	-37.8	-39.5	15.5	0.00e+00	0	62	0	2088763392	46	4595
2026-01-26 10:26:20.09	15.56	16.58	-37.7	-39.4	15.6	0.00e+00	0	62	0	2095054848	46	4541
2026-01-26 10:26:21.10	15.37	16.51	-37.7	-39.4	15.6	0.00e+00	0	62	0	2100297728	46	4538
2026-01-26 10:26:22.11	15.19	16.45	-37.7	-39.5	15.5	0.00e+00	0	62	0	2105540608	46	4585
2026-01-26 10:26:23.12	15.00	16.38	-37.8	-39.6	15.3	0.00e+00	0	62	0	2111832064	46	4645
2026-01-26 10:26:24.13	14.82	16.32	-37.8	-39.6	15.4	0.00e+00	0	62	0	2117074944	46	4615
2026-01-26 10:26:25.14	14.64	16.25	-37.7	-39.5	15.5	0.00e+00	0	62	0	2123366400	46	4584
2026-01-26 10:26:26.15	14.46	16.19	-37.7	-39.4	15.6	0.00e+00	0	62	0	2128609280	46	4528
2026-01-26 10:26:27.16	14.28	16.12	-37.7	-39.4	15.5	0.00e+00	0	62	0	2133852160	46	4545
2026-01-26 10:26:28.17	14.10	16.05	-37.8	-39.5	15.4	0.00e+00	0	62	0	2140143616	46	4591
2026-01-26 10:26:29.18	13.92	15.99	-37.9	-39.6	15.3	0.00e+00	0	62	0	2145386496	46	4647
2026-01-26 10:26:30.19	13.74	15.92	-37.8	-39.6	15.3	0.00e+00	0	62	0	2151677952	46	4645
2026-01-26 10:26:31.20	13.56	15.85	-37.8	-39.6	15.3	0.00e+00	0	62	0	2156920832	46	4651
2026-01-26 10:26:32.21	13.39	15.79	-37.9	-39.8	15.1	1.10e-06	0	62	0	2163212288	46	4714
2026-01-26 10:26:33.22	13.21	15.72	-37.9	-39.8	15.1	0.00e+00	0	62	0	2168455168	46	4706
2026-01-26 10:26:34.23	13.04	15.66	-38.0	-39.8	15.1	0.00e+00	0	62	0	2174746624	46	4737
2026-01-26 10:26:35.24	12.86	15.59	-38.1	-39.9	14.9	0.00e+00	0	62	0	2179989504	46	4797
2026-01-26 10:26:36.25	12.69	15.52	-38.0	-39.9	14.9	0.00e+00	0	62	0	2185232384	46	4795
2026-01-26 10:26:37.26	12.52	15.45	-38.1	-39.9	14.9	0.00e+00	0	62	0	2191523840	46	4812
2026-01-26 10:26:38.27	12.35	15.39	-38.1	-40.0	14.8	0.00e+00	0	62	0	2196766720	46	4861
2026-01-26 10:26:39.28	12.17	15.32	-38.2	-40.1	14.7	0.00e+00	0	62	0	2203058176	46	4918
2026-01-26 10:26:40.29	12.00	15.25	-38.2	-40.1	14.7	0.00e+00	0	62	0	2208301056	47	4613
2026-01-26 10:26:41.30	11.83	15.19	-38.1	-40.1	14.8	0.00e+00	0	62	0	2213543936	47	4602
2026-01-26 10:26:42.31	11.67	15.12	-38.1	-40.0	14.8	1.10e-06	0	62	0	2219835392	47	4573
2026-01-26 10:26:43.32	11.50	15.05	-38.1	-40.1	14.7	0.00e+00	0	62	0	2225078272	47	4602
2026-01-26 10:26:44.33	11.33	14.98	-38.1	-40.0	14.6	1.10e-06	0	62	0	2231369728	47	4588
2026-01-26 10:26:45.34	11.17	14.92	-38.2	-40.2	14.5	2.20e-06	0	62	0	2236612608	47	4660
2026-01-26 10:26:46.35	11.00	14.85	-38.2	-40.1	14.5	0.00e+00	0	62	0	2241855488	47	4647
2026-01-26 10:26:47.36	10.84	14.78	-38.1	-40.1	14.5	2.20e-06	0	62	0	2248146944	47	4605
2026-01-26 10:26:48.37	10.67	14.71	-38.1	-40.0	14.6	1.10e-06	0	62	0	2253389824	47	4574
2026-01-26 10:26:49.38	10.51	14.65	-38.0	-39.9	14.8	1.10e-06	0	62	0	2259681280	47	4501
2026-01-26 10:26:50.39	10.35	14.58	-38.1	-40.0	14.6	1.10e-06	0	62	0	2264924160	47	4548
2026-01-26 10:26:51.40	10.18	14.51	-38.1	-40.0	14.5	2.20e-06	0	62	0	2271215616	47	4590
2026-01-26 10:26:52.41	10.02	14.44	-38.0	-40.0	14.5	0.00e+00	0	62	0	2276458496	47	4567
2026-01-26 10:26:53.42	9.86	14.38	-38.0	-40.0	14.5	1.10e-06	0	62	0	2281701376	47	4551
2026-01-26 10:26:54.43	9.70	14.31	-38.1	-40.0	14.3	1.10e-06	0	62	0	2287992832	47	4598
2026-01-26 10:26:55.44	9.55	14.24	-38.2	-40.2	14.3	1.10e-06	0	62	0	2293235712	47	4656
2026-01-26 10:26:56.45	9.39	14.17	-38.1	-40.2	14.2	4.50e-06	0	62	0	2299527168	47	4662
2026-01-26 10:26:57.46	9.23	14.10	-38.2	-40.3	14.1	4.50e-06	0	62	0	2304770048	47	4712
2026-01-26 10:26:58.47	9.07	14.04	-38.1	-40.2	14.1	2.20e-06	0	62	0	2310012928	47	4670
2026-01-26 10:26:59.48	8.92	13.97	-38.1	-40.2	14.1	5.70e-06	0	62	0	2316304384	47	4669
2026-01-26 10:27:00.49	8.76	13.90	-38.2	-40.3	13.9	5.70e-06	0	62	0	2321547264	47	4755
2026-01-26 10:27:01.50	8.61	13.83	-38.1	-40.1	14.1	5.70e-06	0	62	0	2327838720	47	4639
2026-01-26 10:27:02.51	8.46	13.76	-38.2	-40.3	13.9	1.48e-05	0	62	0	2333081600	47	4728
2026-01-26 10:27:03.52	8.30	13.70	-38.2	-40.3	13.8	6.80e-06	0	62	0	2338324480	47	4744
2026-01-26 10:27:04.53	8.15	13.63	-38.4	-40.6	13.5	1.60e-05	0	62	0	2344615936	47	4888
2026-01-26 10:27:05.54	8.00	13.56	-38.3	-40.5	13.4	1.83e-05	0	62	0	2349858816	47	4870
2026-01-26 10:27:06.55	7.85	13.49	-38.1	-40.3	13.5	1.60e-05	0	62	0	2356150272	47	4727
2026-01-26 10:27:07.56	7.70	13.42	-38.0	-40.2	13.4	2.05e-05	0	62	0	2361393152	47	4685
2026-01-26 10:27:08.57	7.55	13.36	-38.0	-40.3	13.2	3.89e-05	0	62	0	2367684608	47	4717
2026-01-26 10:27:09.58	7.40	13.29	-37.9	-40.2	13.3	2.86e-05	0	62	0	2372927488	47	4667
2026-01-26 10:27:10.59	7.25	13.22	-38.2	-40.6	12.8	8.01e-05	0	62	0	2379218944	47	4887
2026-01-26 10:27:11.60	7.11	13.15	-38.3	-40.8	12.5	9.95e-05	0	62	0	2384461824	47	5018
2026-01-26 10:27:12.61	6.96	13.08	-38.3	-40.8	12.4	2.45e-04	0	62	0	2389704704	47	5026
2026-01-26 10:27:13.63	6.81	13.01	-38.2	-40.7	12.6	1.56e-04	0	62	0	2395996160	47	4943
2026-01-26 10:27:14.64	6.67	12.95	-38.3	-40.7	12.4	2.15e-04	0	62	0	2401239040	47	4983
2026-01-26 10:27:15.65	6.52	12.88	-37.9	-40.3	12.8	1.14e-04	0	62	0	2407530496	47	4724
2026-01-26 10:27:16.66	6.38	12.81	-38.1	-40.5	12.4	2.09e-04	0	62	0	2412773376	47	4867
2026-01-26 10:27:17.67	6.24	12.74	-37.7	-40.0	13.0	1.17e-04	0	62	0	2418016256	47	4565
2026-01-26 10:27:18.68	6.09	12.67	-37.6	-39.9	13.0	4.92e-05	0	62	0	2424307712	47	4531
2026-01-26 10:27:19.69	5.95	12.61	-37.9	-40.4	12.3	1.83e-04	0	62	0	2429550592	47	4806
2026-01-26 10:27:20.70	5.81	12.54	-37.9	-40.4	12.3	2.52e-04	0	62	0	2435842048	47	4804
2026-01-26 10:27:21.71	5.67	12.47	-37.9	-40.4	12.3	2.15e-04	0	62	0	2441084928	47	4804
2026-01-26 10:27:22.72	5.53	12.40	-38.2	-41.0	11.7	6.17e-04	0	62	0	2447376384	47	5106
2026-01-26 10:27:23.74	5.39	12.33	-38.5	-41.5	11.0	1.86e-03	0	62	0	2452619264	47	5424
2026-01-26 10:27:24.75	5.25	12.27	-38.6	-41.6	10.7	3.54e-03	0	62	0	2457862144	47	5528
2026-01-26 10:27:25.76	5.12	12.20	-38.6	-41.8	10.4	4.72e-03	0	62	0	2464153600	47	5630
2026-01-26 10:27:26.76	4.98	12.13	-39.3	-43.0	9.2	2.10e-02	0	62	0	2469396480	49	5762
2026-01-26 10:27:27.77	4.84	12.06	-40.0	-44.6	7.4	8.28e-02	0	62	0	2475687936	50	6566
2026-01-26 10:27:28.78	4.71	11.99	-40.4	-46.3	5.9	3.52e-01	0	62	0	2480930816	51	7477
2026-01-26 10:27:29.79	4.57	11.93	-40.8	-48.4	4.6	7.87e-01	0	62	0	2483027968	52	8991
2026-01-26 10:27:30.80	4.44	11.86	-41.0	-50.2	4.0	8.39e-01	0	62	0	2483027968	52	11113
2026-01-26 10:27:31.81	4.30	11.79	-41.0	-51.2	3.8	8.45e-01	0	62	104	2483027968	52	12415
2026-01-26 10:27:32.83	4.17	11.72	-41.0	-51.9	3.8	8.45e-01	0	62	104	2483027968	52	13536
2026-01-26 10:27:33.84	4.04	11.66	-41.2	-52.4	3.8	8.46e-01	0	62	104	2483027968	52	14301
2026-01-26 10:27:34.85	3.91	11.59	-40.5	-52.0	3.8	8.46e-01	0	62	104	2483027968	52	13689
2026-01-26 10:27:35.86	3.77	11.52	-40.4	-52.0	3.8	8.46e-01	0	62	104	2483027968	52	13598
2026-01-26 10:27:36.87	3.64	11.45	-40.9	-52.5	3.8	8.45e-01	0	62	104	2483027968	52	14376
2026-01-26 10:27:37.88	3.51	11.39	-40.3	-51.9	3.8	8.46e-01	0	62	104	2483027968	52	13436
2026-01-26 10:27:38.89	3.38	11.32	-40.2	-51.8	3.8	8.46e-01	0	62	104	2483027968	52	13302
2026-01-26 10:27:39.90	3.26	11.25	-40.2	-51.7	3.8	8.46e-01	0	62	104	2483027968	52	13174
2026-01-26 10:27:40.91	3.13	11.18	-40.0	-51.6	3.8	8.47e-01	0	62	104	2483027968	52	13021
2026-01-26 10:27:41.92	3.00	11.12	-40.1	-51.7	3.8	8.48e-01	0	62	104	2483027968	52	13209
2026-01-26 10:27:42.93	2.87	11.05	-40.5	-52.1	3.8	8.45e-01	0	62	104	2483027968	52	13814
2026-01-26 10:27:43.94	2.75	10.98	-40.7	-52.3	3.8	8.46e-01	0	62	104	2483027968	52	14120
2026-01-26 10:27:44.95	2.62	10.91	-40.1	-51.7	3.8	8.45e-01	0	62	104	2483027968	52	13173
2026-01-26 10:27:45.95	2.50	10.85	-40.0	-51.6	3.8	8.46e-01	0	62	104	2483027968	52	13043
2026-01-26 10:27:46.96	2.37	10.78	-40.0	-51.6	3.8	8.46e-01	0	62	104	2483027968	52	12987
2026-01-26 10:27:47.97	2.25	10.71	-40.0	-51.6	3.8	8.45e-01	0	62	104	2483027968	52	12985
2026-01-26 10:27:48.99	2.12	10.65	-40.1	-51.6	3.8	8.47e-01	0	62	104	2483027968	51	13801
2026-01-26 10:27:50.00	2.00	10.58	-40.1	-51.7	3.8	8.45e-01	0	62	104	2483027968	51	13948
2026-01-26 10:27:51.00	1.88	10.51	-40.5	-52.1	3.8	8.46e-01	0	62	104	2483027968	51	14580
2026-01-26 10:27:52.01	1.76	10.45	-40.1	-51.7	3.8	8.47e-01	0	62	104	2483027968	51	14005
2026-01-26 10:27:53.02	1.64	10.38	-40.3	-51.8	3.8	8.45e-01	0	62	104	2483027968	51	14165
2026-01-26 10:27:54.04	1.51	10.31	-40.4	-51.9	3.8	8.46e-01	0	62	104	2483027968	51	14324
2026-01-26 10:27:55.04	1.40	10.25	-40.2	-51.7	3.8	8.46e-01	0	62	104	2483027968	51	13969
2026-01-26 10:27:56.05	1.28	10.18	-40.1	-51.7	3.8	8.46e-01	0	62	104	2483027968	51	13888
2026-01-26 10:27:57.07	1.16	10.11	-40.2	-51.8	3.8	8.46e-01	0	62	104	2483027968	51	14065
2026-01-26 10:27:58.08	1.04	10.05	-40.3	-51.9	3.8	8.47e-01	0	62	104	2483027968	51	14260
2026-01-26 10:27:59.08	0.92	9.98	-40.1	-51.7	3.8	8.47e-01	0	62	104	2483027968	51	13890
2026-01-26 10:28:00.09	0.80	9.91	-40.1	-51.6	3.8	8.46e-01	0	62	104	2483027968	51	13849
2026-01-26 10:28:01.10	0.69	9.85	-40.1	-51.7	3.8	8.45e-01	0	62	104	2483027968	51	13942
2026-01-26 10:28:02.11	0.57	9.78	-40.2	-51.8	3.8	8.46e-01	0	62	104	2483027968	51	14194
2026-01-26 10:28:03.12	0.45	9.71	-40.1	-51.6	3.8	8.47e-01	0	62	104	2483027968	51	13839
2026-01-26 10:28:04.13	0.34	9.65	-40.1	-51.6	3.8	8.47e-01	0	62	104	2483027968	51	13866
2026-01-26 10:28:05.14	0.23	9.58	-40.1	-51.6	3.8	8.46e-01	0	62	104	2483027968	51	13876
2026-01-26 10:28:06.15	0.11	9.52	-40.2	-51.8	3.8	8.46e-01	0	62	104	2483027968	51	14052
2026-01-26 10:28:07.16	360.00	9.45	-40.1	-51.6	3.8	8.46e-01	0	62	104	2483027968	51	13883
2026-01-26 10:28:08.17	359.88	9.38	-40.1	-51.6	3.8	8.45e-01	0	62	104	2483027968	51	13782
2026-01-26 10:28:09.18	359.77	9.32	-40.1	-51.6	3.8	8.46e-01	0	62	104	2483027968	51	13850
2026-01-26 10:28:10.19	359.66	9.25	-40.1	-51.7	3.8	8.47e-01	0	62	104	2483027968	51	13924
2026-01-26 10:28:11.20	359.55	9.19	-40.1	-51.7	3.8	8.46e-01	0	62	104	2483027968	51	13902
2026-01-26 10:28:12.21	359.44	9.12	-40.0	-51.6	3.8	8.46e-01	0	62	104	2483027968	51	13742
2026-01-26 10:28:13.23	359.33	9.06	-40.0	-51.6	3.8	8.46e-01	0	62	104	2483027968	51	13807
2026-01-26 10:28:14.24	359.22	8.99	-40.1	-51.7	3.8	8.47e-01	0	62	104	2483027968	51	13897
2026-01-26 10:28:15.25	359.11	8.92	-40.1	-51.7	3.8	8.46e-01	0	62	104	2483027968	51	13907
2026-01-26 10:28:16.26	359.00	8.86	-40.0	-51.5	3.8	8.47e-01	0	62	104	2483027968	51	13662
2026-01-26 10:28:17.27	358.89	8.79	-40.0	-51.6	3.8	8.47e-01	0	62	104	2483027968	51	13804
2026-01-26 10:28:18.27	358.78	8.73	-40.0	-51.6	3.8	8.48e-01	0	62	104	2483027968	51	13809
2026-01-26 10:28:19.28	358.68	8.66	-40.0	-51.6	3.8	8.45e-01	0	62	104	2483027968	51	13734
2026-01-26 10:28:20.29	358.57	8.60	-39.9	-51.5	3.8	8.46e-01	0	62	104	2483027968	51	13657
2026-01-26 10:28:21.30	358.46	8.53	-40.0	-51.6	3.8	8.46e-01	0	62	104	2483027968	51	13794
2026-01-26 10:28:22.31	358.36	8.47	-40.0	-51.6	3.8	8.46e-01	0	62	104	2483027968	51	13803
2026-01-26 10:28:23.32	358.25	8.41	-39.9	-51.5	3.8	8.45e-01	0	62	104	2483027968	51	13692
2026-01-26 10:28:24.33	358.15	8.34	-39.9	-51.5	3.8	8.47e-01	0	62	104	2483027968	51	13659
2026-01-26 10:28:25.34	358.04	8.28	-40.0	-51.5	3.8	8.47e-01	0	62	104	2483027968	51	13703
2026-01-26 10:28:26.36	357.94	8.21	-40.0	-51.6	3.8	8.47e-01	0	62	104	2483027968	51	13753
2026-01-26 10:28:27.37	357.83	8.15	-39.9	-51.5	3.8	8.47e-01	0	62	104	2483027968	51	13680
2026-01-26 10:28:28.38	357.73	8.08	-39.9	-51.5	3.8	8.47e-01	0	62	104	2483027968	51	13646
2026-01-26 10:28:29.39	357.63	8.02	-39.9	-51.5	3.8	8.46e-01	0	62	104	2483027968	51	13653
2026-01-26 10:28:30.40	357.53	7.95	-41.0	-52.6	3.8	8.46e-01	0	62	104	2483027968	52	14575
2026-01-26 10:28:31.41	357.42	7.89	-44.5	-56.1	3.8	8.46e-01	0	62	104	2483027968	59	14656
2026-01-26 10:28:32.42	357.32	7.82	-44.9	-56.7	3.8	8.47e-01	0	62	104	2483027968	60	14848
2026-01-26 10:28:33.43	357.22	7.76	-45.1	-56.9	3.8	8.47e-01	0	62	104	2483027968	60	15138
2026-01-26 10:28:34.44	357.12	7.70	-45.2	-57.0	3.8	8.47e-01	0	62	104	2483027968	60	15348
2026-01-26 10:28:35.45	357.02	7.63	-45.3	-57.1	3.8	8.46e-01	0	62	104	2483027968	61	14676
2026-01-26 10:28:36.46	356.92	7.57	-45.3	-57.2	3.8	8.45e-01	0	62	104	2483027968	61	14714
2026-01-26 10:28:37.47	356.82	7.51	-45.3	-57.2	3.8	8.45e-01	0	62	104	2483027968	61	14727
2026-01-26 10:28:38.48	356.73	7.44	-45.3	-57.1	3.8	8.46e-01	0	62	104	2483027968	61	14655
2026-01-26 10:28:39.49	356.63	7.38	-45.2	-57.1	3.8	8.46e-01	0	62	104	2483027968	61	14559
2026-01-26 10:28:40.50	356.53	7.31	-45.0	-57.0	3.8	8.44e-01	0	62	104	2483027968	60	15276
2026-01-26 10:28:41.51	356.43	7.25	-45.2	-57.0	3.8	8.46e-01	0	62	104	2483027968	60	15242
2026-01-26 10:28:42.53	356.34	7.19	-45.2	-56.9	3.8	8.46e-01	0	62	104	2483027968	60	15132
2026-01-26 10:28:43.54	356.24	7.12	-45.2	-56.9	3.8	8.46e-01	0	62	104	2483027968	60	15114
2026-01-26 10:28:44.55	356.14	7.06	-45.1	-56.8	3.8	8.46e-01	0	62	104	2483027968	60	15033
2026-01-26 10:28:45.56	356.05	7.00	-45.0	-56.8	3.8	8.46e-01	0	62	104	2483027968	60	14981
2026-01-26 10:28:46.57	355.95	6.93	-45.1	-56.8	3.8	8.46e-01	0	62	104	2483027968	60	14956
2026-01-26 10:28:47.58	355.86	6.87	-45.1	-56.8	3.8	8.45e-01	0	62	104	2483027968	60	14915
2026-01-26 10:28:48.59	355.77	6.81	-45.0	-56.7	3.8	8.46e-01	0	62	104	2483027968	60	14832
2026-01-26 10:28:49.60	355.67	6.75	-45.0	-56.7	3.8	8.46e-01	0	62	104	2483027968	60	14811
2026-01-26 10:28:50.61	355.58	6.68	-45.0	-56.7	3.8	8.46e-01	0	62	104	2483027968	60	14861
2026-01-26 10:28:51.62	355.49	6.62	-45.0	-56.8	3.8	8.45e-01	0	62	104	2483027968	60	14883
2026-01-26 10:28:52.63	355.39	6.56	-44.9	-56.7	3.8	8.47e-01	0	62	104	2483027968	60	14778
2026-01-26 10:28:53.64	355.30	6.50	-45.0	-56.7	3.8	8.46e-01	0	62	104	2483027968	60	14821
2026-01-26 10:28:54.65	355.21	6.43	-44.6	-56.7	3.8	8.47e-01	0	62	104	2483027968	60	14749
2026-01-26 10:28:55.66	355.12	6.37	-44.8	-56.7	3.8	8.46e-01	0	62	104	2483027968	60	14830
2026-01-26 10:28:56.67	355.03	6.31	-45.0	-56.7	3.8	8.46e-01	0	62	104	2483027968	60	14842
2026-01-26 10:28:57.68	354.94	6.25	-45.0	-56.7	3.8	8.45e-01	0	62	104	2483027968	60	14868
2026-01-26 10:28:58.69	354.85	6.18	-45.0	-56.7	3.8	8.46e-01	0	62	104	2483027968	60	14813
2026-01-26 10:28:59.70	354.76	6.12	-45.0	-56.7	3.8	8.46e-01	0	62	104	2483027968	60	14845
2026-01-26 10:29:00.71	354.67	6.06	-45.0	-56.7	3.8	8.45e-01	0	62	104	2483027968	60	14840
2026-01-26 10:29:01.72	354.58	6.00	-45.0	-56.7	3.8	8.46e-01	0	62	104	2483027968	60	14789
2026-01-26 10:29:02.73	354.49	5.94	-45.0	-56.7	3.8	8.46e-01	0	62	104	2483027968	60	14794
2026-01-26 10:29:03.74	354.40	5.87	-45.0	-56.7	3.8	8.46e-01	0	62	104	2483027968	60	14794
2026-01-26 10:29:04.75	354.32	5.81	-45.0	-56.7	3.8	8.47e-01	0	62	104	2483027968	60	14836
2026-01-26 10:29:05.76	354.23	5.75	-44.8	-56.7	3.8	8.47e-01	0	62	104	2483027968	60	14817
2026-01-26 10:29:06.77	354.14	5.69	-45.0	-56.7	3.8	8.46e-01	0	62	104	2483027968	60	14856
2026-01-26 10:29:07.78	354.06	5.63	-45.0	-56.7	3.8	8.45e-01	0	62	104	2483027968	60	14850
2026-01-26 10:29:08.79	353.97	5.57	-45.0	-56.7	3.8	8.47e-01	0	62	104	2483027968	60	14813
2026-01-26 10:29:09.80	353.88	5.51	-45.0	-56.7	3.8	8.45e-01	0	62	104	2483027968	60	14801
2026-01-26 10:29:10.81	353.80	5.45	-45.0	-56.7	3.8	8.46e-01	0	62	104	2483027968	60	14860
2026-01-26 10:29:11.82	353.71	5.38	-44.9	-56.8	3.8	8.46e-01	0	62	104	2483027968	60	14906
2026-01-26 10:29:12.83	353.63	5.32	-45.0	-56.7	3.8	8.46e-01	0	62	104	2483027968	60	14805
2026-01-26 10:29:13.84	353.55	5.26	-45.0	-56.7	3.8	8.47e-01	0	62	104	2483027968	60	14776
2026-01-26 10:29:14.86	353.46	5.20	-45.0	-56.8	3.8	8.47e-01	0	62	104	2483027968	60	14888
2026-01-26 10:29:15.87	353.38	5.14	-45.0	-56.7	3.8	8.46e-01	0	62	104	2483027968	60	14840
2026-01-26 10:29:16.88	353.29	5.08	-44.4	-56.5	3.8	8.47e-01	0	62	104	2483027968	59	15399
2026-01-26 10:29:17.88	353.21	5.02	-45.0	-56.7	3.8	8.45e-01	0	62	104	2483027968	60	14791
2026-01-26 10:29:18.89	353.13	4.96	-45.0	-56.7	3.8	8.45e-01	0	62	104	2483027968	60	14748
2026-01-26 10:29:19.90	353.05	4.90	-44.9	-56.7	3.8	8.45e-01	0	62	104	2483027968	60	14794
2026-01-26 10:29:20.91	352.97	4.84	-44.9	-56.7	3.8	8.46e-01	0	62	104	2483027968	60	14815
2026-01-26 10:29:21.92	352.89	4.78	-44.8	-57.0	3.8	8.47e-01	0	62	104	2483027968	60	15298
2026-01-26 10:29:22.94	352.80	4.72	-45.0	-56.7	3.8	8.46e-01	0	62	104	2483027968	60	14737
2026-01-26 10:29:23.95	352.72	4.66	-44.9	-56.7	3.8	8.47e-01	0	62	104	2483027968	60	14719
