passes_logs/2026/01/26/R2.0S_Moscow/R2.0S_Moscow__20260126_104832_AQUA_rec.log

#Pass ID: 20260126_104832_AQUA
#Satellite: AQUA
#Configuration: AQUA
#almurnet v.1.7.20251203
#Start time: 2026-01-26 10:48:32

#Version: 2.2.20231116
#Station: R2.0S_Moscow
#Location: 37.707566 lon 55.798166 lat
#TLE: 1 27424U 02022A   26025.63222646  .00001891  00000+0  38818-3 0  9990
#TLE: 2 27424  98.4099 352.2393 0001892  65.6900 348.5270 14.61859542262445

#Time	Az	El	Level	Level2	SNR	BER	BlckErr	Temp	State	Recorded	gain1	gain2
2026-01-26 10:48:32.75	133.95	2.01	-10.7	-26.9	3.8	7.56e-01	0	54	0	0	0	15178
2026-01-26 10:48:33.75	133.90	2.08	-12.0	-26.2	3.9	7.59e-01	0	55	104	0	0	14042
2026-01-26 10:48:34.76	133.86	2.14	-11.0	-27.2	3.7	7.47e-01	0	55	104	0	0	15668
2026-01-26 10:48:35.77	133.81	2.21	-11.1	-25.6	4.0	7.58e-01	0	55	104	0	0	13094
2026-01-26 10:48:36.78	133.77	2.27	-12.9	-29.7	3.8	7.57e-01	0	55	104	0	0	20830
2026-01-26 10:48:37.79	133.72	2.34	-13.0	-29.8	3.4	7.53e-01	0	55	104	0	0	21253
2026-01-26 10:48:38.80	133.68	2.40	-12.2	-27.4	3.7	7.53e-01	0	55	104	0	0	15991
2026-01-26 10:48:39.81	133.63	2.47	-9.5	-28.3	3.8	7.57e-01	0	55	104	0	0	17744
2026-01-26 10:48:40.82	133.58	2.53	-12.6	-27.2	3.8	7.51e-01	0	55	104	0	0	15646
2026-01-26 10:48:41.83	133.53	2.60	-10.5	-27.5	3.8	7.54e-01	0	55	104	0	0	16295
2026-01-26 10:48:42.84	133.49	2.67	-16.8	-31.6	3.6	7.53e-01	0	55	104	0	2	23064
2026-01-26 10:48:43.85	133.44	2.73	-15.4	-33.4	3.5	7.54e-01	0	55	104	0	2	28465
2026-01-26 10:48:44.86	133.39	2.80	-10.9	-26.6	3.7	7.53e-01	0	55	104	0	0	14548
2026-01-26 10:48:45.87	133.34	2.87	-11.3	-27.0	3.7	7.52e-01	0	55	104	0	0	15334
2026-01-26 10:48:46.88	133.30	2.93	-15.7	-30.6	3.5	7.44e-01	0	56	104	0	1	21852
2026-01-26 10:48:47.89	133.25	3.00	-13.5	-29.7	3.8	7.52e-01	0	55	104	0	0	20975
2026-01-26 10:48:48.90	133.20	3.07	-14.6	-31.9	3.4	7.51e-01	0	56	104	0	0	27010
2026-01-26 10:48:49.91	133.15	3.13	-12.9	-29.3	3.6	7.51e-01	0	55	104	0	0	19859
2026-01-26 10:48:50.92	133.10	3.20	-14.3	-26.7	3.9	7.52e-01	0	56	104	0	0	14750
2026-01-26 10:48:51.94	133.05	3.27	-11.4	-26.3	4.1	7.50e-01	0	56	104	0	0	14118
2026-01-26 10:48:52.95	133.00	3.34	-15.1	-32.3	3.5	7.53e-01	0	56	104	0	1	26532
2026-01-26 10:48:53.96	132.95	3.40	-13.2	-29.9	3.9	7.52e-01	0	56	104	0	0	21481
2026-01-26 10:48:54.97	132.90	3.47	-11.9	-29.7	3.7	7.52e-01	0	56	104	0	0	20898
2026-01-26 10:48:55.98	132.85	3.54	-11.1	-26.0	3.7	7.55e-01	0	56	104	0	0	13634
2026-01-26 10:48:56.99	132.80	3.61	-13.7	-31.6	3.5	7.54e-01	0	56	104	0	0	25923
2026-01-26 10:48:58.00	132.75	3.68	-12.8	-29.5	4.0	7.66e-01	0	56	104	0	0	20339
2026-01-26 10:48:59.01	132.69	3.74	-10.6	-27.9	3.7	7.49e-01	0	56	104	0	0	16917
2026-01-26 10:49:00.02	132.64	3.81	-11.8	-29.3	3.6	7.60e-01	0	56	104	0	0	20061
2026-01-26 10:49:01.03	132.59	3.88	-10.8	-27.7	3.4	7.53e-01	0	56	104	0	0	16600
2026-01-26 10:49:02.04	132.54	3.95	-13.3	-30.8	3.8	7.57e-01	0	56	104	0	0	23817
2026-01-26 10:49:03.06	132.49	4.02	-12.3	-27.0	3.7	7.42e-01	0	56	104	0	0	15365
2026-01-26 10:49:04.07	132.43	4.09	-11.8	-26.5	3.8	7.56e-01	0	56	104	0	0	14406
2026-01-26 10:49:05.08	132.38	4.16	-12.9	-27.7	3.6	7.66e-01	0	56	104	0	0	16573
2026-01-26 10:49:06.09	132.33	4.23	-12.0	-27.5	3.8	7.50e-01	0	56	104	0	0	16264
2026-01-26 10:49:07.10	132.27	4.30	-12.1	-28.1	3.7	7.52e-01	0	56	104	0	0	17344
2026-01-26 10:49:08.10	132.22	4.37	-15.1	-30.8	3.6	7.55e-01	0	56	104	0	2	21114
2026-01-26 10:49:09.11	132.16	4.44	-14.7	-29.7	3.6	7.56e-01	0	56	104	0	0	20925
2026-01-26 10:49:10.12	132.11	4.51	-14.0	-29.0	3.8	7.52e-01	0	57	104	0	0	19304
2026-01-26 10:49:11.13	132.05	4.58	-11.2	-25.8	4.1	7.56e-01	0	57	104	0	0	13360
2026-01-26 10:49:12.14	132.00	4.65	-15.4	-30.9	3.6	7.51e-01	0	57	104	0	1	22547
2026-01-26 10:49:13.15	131.94	4.72	-12.1	-28.4	3.8	7.48e-01	0	57	104	0	0	18027
2026-01-26 10:49:14.16	131.89	4.79	-16.9	-31.2	3.7	7.67e-01	0	57	104	0	1	23533
2026-01-26 10:49:15.17	131.83	4.86	-13.2	-28.2	3.6	7.46e-01	0	57	104	0	0	17599
2026-01-26 10:49:16.18	131.77	4.94	-11.0	-25.9	3.8	7.54e-01	0	57	104	0	0	13461
2026-01-26 10:49:17.19	131.72	5.01	-12.8	-29.5	3.8	7.58e-01	0	57	104	0	0	20476
2026-01-26 10:49:18.20	131.66	5.08	-10.7	-29.3	3.8	7.55e-01	0	57	104	0	0	19967
2026-01-26 10:49:19.21	131.60	5.15	-13.4	-30.2	3.7	7.58e-01	0	57	104	0	0	22176
2026-01-26 10:49:20.22	131.55	5.22	-15.1	-32.9	3.7	7.70e-01	0	57	104	0	3	25521
2026-01-26 10:49:21.23	131.49	5.30	-10.7	-30.1	3.7	7.60e-01	0	57	104	0	0	21917
2026-01-26 10:49:22.24	131.43	5.37	-10.3	-30.3	3.8	7.50e-01	0	57	104	0	0	22277
2026-01-26 10:49:23.25	131.37	5.44	-15.4	-31.6	3.5	7.57e-01	0	57	104	0	0	26104
2026-01-26 10:49:24.26	131.31	5.52	-14.8	-32.1	3.4	7.54e-01	0	57	104	0	3	23058
2026-01-26 10:49:25.27	131.25	5.59	-14.0	-31.7	3.6	7.60e-01	0	57	104	0	0	26238
2026-01-26 10:49:26.28	131.19	5.66	-11.2	-26.6	3.9	7.47e-01	0	57	104	0	0	14545
2026-01-26 10:49:27.29	131.13	5.74	-16.1	-30.4	3.5	7.45e-01	0	57	104	0	0	22629
2026-01-26 10:49:28.30	131.07	5.81	-16.1	-32.7	3.5	7.48e-01	0	57	104	0	2	26162
2026-01-26 10:49:29.31	131.01	5.88	-13.6	-27.8	3.9	7.52e-01	0	58	104	0	0	16818
2026-01-26 10:49:30.32	130.95	5.96	-12.5	-25.9	3.9	7.52e-01	0	58	104	0	0	13445
2026-01-26 10:49:31.33	130.89	6.03	-14.9	-31.7	3.6	7.57e-01	0	57	104	0	1	24876
2026-01-26 10:49:32.34	130.83	6.11	-14.9	-32.2	3.4	7.44e-01	0	58	104	0	1	26158
2026-01-26 10:49:33.35	130.76	6.18	-13.7	-27.9	3.5	7.53e-01	0	58	104	0	0	17012
2026-01-26 10:49:34.36	130.70	6.26	-11.3	-27.5	3.8	7.56e-01	0	58	104	0	0	16204
2026-01-26 10:49:35.37	130.64	6.33	-13.6	-30.2	3.8	7.57e-01	0	58	104	0	0	22156
2026-01-26 10:49:36.38	130.57	6.41	-11.7	-27.1	3.9	7.61e-01	0	58	104	0	0	15514
2026-01-26 10:49:37.39	130.51	6.49	-11.4	-26.7	3.8	7.57e-01	0	58	104	0	0	14728
2026-01-26 10:49:38.40	130.45	6.56	-9.2	-27.6	3.7	7.57e-01	0	58	104	0	0	16349
2026-01-26 10:49:39.41	130.38	6.64	-13.3	-28.6	3.7	7.52e-01	0	58	104	0	0	18356
2026-01-26 10:49:40.42	130.32	6.71	-11.8	-28.3	3.6	7.52e-01	0	58	104	0	0	17759
2026-01-26 10:49:41.43	130.25	6.79	-11.6	-26.5	3.9	7.52e-01	0	58	104	0	0	14466
2026-01-26 10:49:42.44	130.19	6.87	-11.8	-28.6	3.8	7.67e-01	0	58	104	0	0	18414
2026-01-26 10:49:43.45	130.12	6.95	-11.5	-26.8	3.8	7.55e-01	0	58	104	0	0	14987
2026-01-26 10:49:44.46	130.05	7.02	-13.8	-29.3	3.6	7.65e-01	0	58	104	0	0	19897
2026-01-26 10:49:45.48	129.99	7.10	-10.0	-28.6	3.6	7.50e-01	0	58	104	0	0	18325
2026-01-26 10:49:46.49	129.92	7.18	-14.1	-30.6	3.5	7.45e-01	0	58	104	0	0	23147
2026-01-26 10:49:47.50	129.85	7.26	-13.7	-30.2	3.7	7.53e-01	0	58	104	0	0	22150
2026-01-26 10:49:48.51	129.78	7.34	-13.8	-28.1	4.0	7.55e-01	0	58	104	0	0	17349
2026-01-26 10:49:49.52	129.71	7.41	-13.1	-30.7	3.6	7.55e-01	0	59	104	0	0	23517
2026-01-26 10:49:50.53	129.64	7.49	-14.0	-28.4	3.7	7.44e-01	0	58	104	0	0	17919
2026-01-26 10:49:51.54	129.58	7.57	-10.9	-30.0	3.8	7.55e-01	0	58	104	0	0	21715
2026-01-26 10:49:52.55	129.51	7.65	-16.0	-31.4	3.3	7.57e-01	0	59	104	0	1	23962
2026-01-26 10:49:53.56	129.44	7.73	-12.4	-32.3	3.5	7.51e-01	0	58	104	0	2	25008
2026-01-26 10:49:54.57	129.36	7.81	-9.2	-26.6	3.5	7.43e-01	0	58	104	0	0	14679
2026-01-26 10:49:55.59	129.29	7.89	-11.5	-26.9	3.8	7.48e-01	0	59	104	0	0	15185
2026-01-26 10:49:56.60	129.22	7.97	-12.1	-27.8	3.5	7.53e-01	0	58	104	0	0	16877
2026-01-26 10:49:57.61	129.15	8.05	-12.8	-31.1	3.7	7.59e-01	0	59	104	0	1	23107
2026-01-26 10:49:58.62	129.08	8.13	-13.0	-31.6	3.5	7.38e-01	0	58	104	0	1	24503
2026-01-26 10:49:59.62	129.00	8.21	-15.2	-30.1	3.6	7.47e-01	0	58	104	0	0	21758
2026-01-26 10:50:00.63	128.93	8.29	-12.9	-30.2	3.7	7.62e-01	0	59	104	0	0	22185
2026-01-26 10:50:01.64	128.86	8.38	-13.6	-28.3	3.9	7.67e-01	0	59	104	0	0	17794
2026-01-26 10:50:02.65	128.78	8.46	-12.0	-28.4	3.6	7.62e-01	0	59	104	0	0	17967
2026-01-26 10:50:03.66	128.71	8.54	-13.7	-28.9	3.7	7.61e-01	0	59	104	0	0	19024
2026-01-26 10:50:04.67	128.63	8.62	-12.0	-27.9	3.8	7.55e-01	0	58	104	0	0	17071
2026-01-26 10:50:05.68	128.56	8.70	-12.3	-27.5	3.8	7.59e-01	0	59	104	0	0	16184
2026-01-26 10:50:06.69	128.48	8.79	-11.6	-26.7	3.6	7.52e-01	0	59	104	0	0	14860
2026-01-26 10:50:07.70	128.41	8.87	-12.1	-27.3	3.8	7.57e-01	0	59	104	0	0	15867
2026-01-26 10:50:08.71	128.33	8.95	-12.8	-29.0	3.7	7.45e-01	0	59	104	0	0	19265
2026-01-26 10:50:09.72	128.25	9.04	-11.9	-27.6	3.8	7.59e-01	0	59	104	0	0	16315
2026-01-26 10:50:10.73	128.17	9.12	-9.9	-26.0	3.8	7.53e-01	0	59	104	0	0	13605
2026-01-26 10:50:11.74	128.09	9.20	-11.6	-26.6	3.8	7.54e-01	0	59	104	0	0	14569
2026-01-26 10:50:12.75	128.01	9.29	-12.5	-27.3	3.7	7.50e-01	0	59	104	0	0	15856
2026-01-26 10:50:13.76	127.93	9.37	-11.9	-27.9	3.7	7.48e-01	0	59	104	0	0	16890
2026-01-26 10:50:14.77	127.85	9.46	-11.5	-27.4	3.7	7.46e-01	0	59	104	0	0	15992
2026-01-26 10:50:15.78	127.77	9.54	-13.0	-29.0	3.7	7.51e-01	0	59	104	0	0	19235
2026-01-26 10:50:16.79	127.69	9.63	-11.6	-28.2	3.8	7.51e-01	0	59	104	0	0	17592
2026-01-26 10:50:17.80	127.61	9.72	-9.7	-28.0	3.7	7.50e-01	0	59	104	0	0	17227
2026-01-26 10:50:18.81	127.53	9.80	-14.4	-30.6	3.4	7.50e-01	0	59	104	0	1	21863
2026-01-26 10:50:19.82	127.45	9.89	-10.2	-28.6	3.7	7.55e-01	0	59	104	0	0	18499
2026-01-26 10:50:20.83	127.36	9.97	-11.2	-28.6	3.8	7.55e-01	0	59	104	0	0	18371
2026-01-26 10:50:21.84	127.28	10.06	-11.6	-28.6	3.8	7.40e-01	0	59	104	0	0	18502
2026-01-26 10:50:22.85	127.19	10.15	-13.2	-29.9	3.9	7.52e-01	0	59	104	0	0	21367
2026-01-26 10:50:23.85	127.11	10.23	-16.3	-34.8	3.6	7.67e-01	0	59	104	0	3	31470
2026-01-26 10:50:24.87	127.02	10.32	-15.2	-32.8	3.6	7.58e-01	0	60	104	0	0	29784
2026-01-26 10:50:25.88	126.94	10.41	-12.5	-28.9	3.9	7.49e-01	0	59	104	0	0	19072
2026-01-26 10:50:26.88	126.85	10.50	-13.1	-31.2	3.4	7.50e-01	0	59	104	0	0	24823
2026-01-26 10:50:27.89	126.76	10.59	-13.6	-29.3	3.7	7.50e-01	0	59	104	0	0	20054
2026-01-26 10:50:28.90	126.68	10.68	-14.3	-32.4	3.6	7.61e-01	0	59	104	0	0	28471
2026-01-26 10:50:29.91	126.59	10.76	-12.5	-29.6	3.8	7.49e-01	0	60	104	0	0	20748
2026-01-26 10:50:30.92	126.50	10.85	-17.1	-33.1	3.7	7.58e-01	0	60	104	0	4	24649
2026-01-26 10:50:31.93	126.41	10.94	-19.0	-39.3	3.7	7.54e-01	0	60	104	0	8	39908
2026-01-26 10:50:32.94	126.32	11.03	-21.0	-38.0	3.7	7.39e-01	0	60	104	0	12	27232
2026-01-26 10:50:33.95	126.23	11.12	-15.1	-30.9	3.7	7.53e-01	0	60	104	0	0	23946
2026-01-26 10:50:34.96	126.14	11.21	-13.3	-31.2	3.7	7.43e-01	0	59	104	0	0	24831
2026-01-26 10:50:35.97	126.04	11.31	-16.3	-35.8	3.7	7.55e-01	0	59	104	0	4	33377
2026-01-26 10:50:36.98	125.95	11.40	-16.5	-34.0	3.9	7.60e-01	0	60	104	0	3	28713
2026-01-26 10:50:37.99	125.86	11.49	-15.8	-33.0	3.7	7.47e-01	0	60	104	0	2	27210
2026-01-26 10:50:39.00	125.76	11.58	-13.5	-31.6	3.6	7.53e-01	0	60	104	0	0	26078
2026-01-26 10:50:40.01	125.67	11.67	-20.6	-44.5	3.8	7.47e-01	0	60	104	0	29	21545
2026-01-26 10:50:41.02	125.57	11.77	-23.6	-42.2	3.8	7.55e-01	0	60	104	0	14	39380
2026-01-26 10:50:42.03	125.48	11.86	-16.0	-31.4	3.9	7.44e-01	0	60	104	0	1	24036
2026-01-26 10:50:43.04	125.38	11.95	-17.8	-34.3	3.7	7.54e-01	0	59	104	0	3	29708
2026-01-26 10:50:44.05	125.28	12.04	-19.7	-35.7	3.7	7.42e-01	0	60	104	0	8	26159
2026-01-26 10:50:45.06	125.19	12.14	-15.3	-33.9	3.6	7.44e-01	0	60	104	0	3	28457
2026-01-26 10:50:46.08	125.09	12.23	-16.2	-32.0	3.6	7.60e-01	0	60	104	0	1	25722
2026-01-26 10:50:47.09	124.99	12.33	-24.5	-43.5	4.0	7.52e-01	0	60	104	0	25	24255
2026-01-26 10:50:48.09	124.89	12.42	-29.9	-47.4	4.5	7.49e-01	0	60	104	0	21	48051
2026-01-26 10:50:49.10	124.79	12.52	-37.2	-51.3	4.1	7.44e-01	0	60	104	0	41	23762
2026-01-26 10:50:50.11	124.68	12.61	-16.6	-33.6	3.5	7.51e-01	0	60	104	0	2	29192
2026-01-26 10:50:51.13	124.58	12.71	-27.2	-39.0	4.0	7.55e-01	0	60	104	0	18	21700
2026-01-26 10:50:52.14	124.48	12.80	-14.9	-34.4	3.3	7.59e-01	0	60	104	0	2	31989
2026-01-26 10:50:53.14	124.37	12.90	-28.8	-41.1	4.0	7.12e-01	0	60	104	0	14	34570
2026-01-26 10:50:54.15	124.27	13.00	-17.1	-38.5	3.5	7.69e-01	0	60	104	0	11	30686
2026-01-26 10:50:55.16	124.16	13.09	-28.0	-40.0	3.7	7.57e-01	0	60	104	0	15	28685
2026-01-26 10:50:56.17	124.06	13.19	-33.8	-44.8	4.2	7.39e-01	0	60	104	0	32	18864
2026-01-26 10:50:57.18	123.95	13.29	-20.4	-43.6	3.9	7.57e-01	0	60	104	0	21	30828
2026-01-26 10:50:58.19	123.84	13.39	-27.6	-36.3	3.8	7.60e-01	0	60	104	0	11	23790
2026-01-26 10:50:59.20	123.74	13.49	-17.0	-34.6	3.8	7.56e-01	0	60	104	0	10	20726
2026-01-26 10:51:00.21	123.63	13.58	-18.0	-34.0	3.5	7.68e-01	0	60	104	0	18	12154
2026-01-26 10:51:01.22	123.52	13.68	-22.0	-37.9	3.9	7.51e-01	0	60	104	0	18	19009
2026-01-26 10:51:02.23	123.41	13.78	-24.6	-40.5	3.7	7.61e-01	0	60	104	0	20	22974
2026-01-26 10:51:03.24	123.29	13.88	-36.0	-45.9	4.2	7.32e-01	0	60	104	0	36	16995
2026-01-26 10:51:04.25	123.18	13.98	-33.7	-48.2	4.5	7.38e-01	0	60	104	0	47	11805
2026-01-26 10:51:05.26	123.07	14.08	-24.5	-35.3	3.6	7.37e-01	0	60	104	0	14	17884
2026-01-26 10:51:06.27	122.95	14.18	-21.7	-40.5	3.5	7.63e-01	0	60	104	0	21	21548
2026-01-26 10:51:07.28	122.84	14.29	-22.7	-36.7	3.9	7.56e-01	0	60	104	0	17	17679
2026-01-26 10:51:08.29	122.72	14.39	-34.2	-46.5	4.6	7.37e-01	0	60	104	0	39	15358
2026-01-26 10:51:09.30	122.61	14.49	-32.5	-46.1	4.2	7.41e-01	0	60	104	0	38	15423
2026-01-26 10:51:10.31	122.49	14.59	-35.3	-47.9	4.2	7.45e-01	0	60	104	0	41	16053
2026-01-26 10:51:11.32	122.37	14.69	-27.7	-42.8	4.3	7.31e-01	0	60	104	0	27	20018
2026-01-26 10:51:12.33	122.25	14.80	-35.3	-48.8	3.9	7.30e-01	0	61	104	0	45	14148
2026-01-26 10:51:13.34	122.13	14.90	-36.9	-46.7	4.5	7.38e-01	0	60	104	0	42	13184
2026-01-26 10:51:14.35	122.01	15.00	-29.8	-45.2	3.6	7.56e-01	0	60	104	0	31	20876
2026-01-26 10:51:15.36	121.89	15.11	-35.9	-46.6	3.8	7.48e-01	0	60	104	0	35	19512
2026-01-26 10:51:16.37	121.76	15.21	-33.3	-46.3	3.9	7.63e-01	0	60	104	0	31	23786
2026-01-26 10:51:17.38	121.64	15.32	-28.7	-44.8	3.7	7.72e-01	0	61	104	0	32	18770
2026-01-26 10:51:18.39	121.52	15.42	-33.8	-49.0	4.2	7.47e-01	0	61	104	0	41	18250
2026-01-26 10:51:19.40	121.39	15.53	-35.0	-44.0	4.3	7.35e-01	0	61	104	0	39	11495
2026-01-26 10:51:20.41	121.26	15.64	-40.8	-54.3	4.8	6.82e-01	4	60	104	0	58	12656
2026-01-26 10:51:21.42	121.13	15.74	-33.6	-46.0	4.7	7.27e-01	0	61	104	0	36	17196
2026-01-26 10:51:22.43	121.01	15.85	-40.3	-47.9	4.6	7.28e-01	0	60	104	0	48	10664
2026-01-26 10:51:23.44	120.88	15.96	-38.0	-44.9	10.1	6.25e-01	79	61	104	0	50	6780
2026-01-26 10:51:24.45	120.75	16.06	-38.9	-44.9	10.2	6.23e-01	79	61	0	1048576	48	7587
2026-01-26 10:51:25.46	120.61	16.17	-35.0	-44.1	6.9	6.59e-01	43	61	0	2621440	45	8187
2026-01-26 10:51:26.47	120.48	16.28	-35.6	-44.0	6.7	6.58e-01	86	60	104	3145728	38	12133
2026-01-26 10:51:27.48	120.35	16.39	-38.2	-44.9	9.2	6.21e-01	36	61	0	4194304	52	6027
2026-01-26 10:51:28.49	120.21	16.50	-36.2	-43.8	6.9	6.72e-01	92	61	0	5767168	44	8463
2026-01-26 10:51:29.50	120.08	16.61	-36.3	-44.1	7.6	6.63e-01	42	60	0	7340032	43	9204
2026-01-26 10:51:30.51	119.94	16.72	-40.8	-44.4	4.7	7.14e-01	0	61	104	8388608	43	9576
2026-01-26 10:51:31.52	119.80	16.83	-40.3	-45.0	12.0	6.18e-01	34	60	104	8388608	51	6442
2026-01-26 10:51:32.53	119.66	16.94	-36.5	-44.6	7.2	6.90e-01	44	61	0	8912896	45	8668
2026-01-26 10:51:33.54	119.52	17.05	-40.2	-45.4	12.1	6.11e-01	30	61	104	9437184	54	5680
2026-01-26 10:51:34.55	119.38	17.16	-41.8	-45.8	10.2	6.23e-01	52	61	0	10485760	52	6723
2026-01-26 10:51:35.56	119.24	17.27	-41.2	-45.4	12.8	6.14e-01	23	61	0	11010048	53	6033
2026-01-26 10:51:36.57	119.09	17.38	-39.6	-44.6	9.2	6.73e-01	63	61	0	12582912	47	7759
2026-01-26 10:51:37.58	118.95	17.50	-39.4	-44.9	12.8	6.20e-01	33	60	0	14680064	51	6378
2026-01-26 10:51:38.59	118.80	17.61	-38.3	-45.3	11.0	6.14e-01	36	61	0	16777216	51	6680
2026-01-26 10:51:39.60	118.65	17.72	-41.6	-45.7	13.5	6.09e-01	7	61	0	18350080	54	5862
2026-01-26 10:51:40.61	118.50	17.84	-41.9	-45.7	15.7	6.06e-01	0	61	0	20447232	54	5891
2026-01-26 10:51:41.62	118.36	17.95	-42.0	-45.7	13.2	6.16e-01	12	61	0	22020096	54	5922
2026-01-26 10:51:42.63	118.20	18.06	-42.0	-45.5	15.8	6.07e-01	0	61	0	24117248	54	5765
2026-01-26 10:51:43.64	118.05	18.18	-42.5	-45.8	9.3	6.48e-01	59	61	0	26214400	51	7112
2026-01-26 10:51:44.65	117.90	18.29	-42.0	-45.6	15.5	6.10e-01	0	61	0	27787264	54	5828
2026-01-26 10:51:45.66	117.74	18.41	-42.0	-45.4	14.4	6.07e-01	0	61	0	29884416	54	5716
2026-01-26 10:51:46.67	117.59	18.53	-42.0	-45.5	16.5	6.05e-01	0	61	0	31457280	54	5736
2026-01-26 10:51:47.68	117.43	18.64	-42.0	-45.5	16.1	6.09e-01	0	61	0	33554432	54	5763
2026-01-26 10:51:48.69	117.27	18.76	-41.9	-45.4	17.8	6.07e-01	0	61	0	35651584	54	5674
2026-01-26 10:51:49.70	117.11	18.88	-41.9	-45.1	18.1	6.05e-01	0	61	0	37224448	54	5518
2026-01-26 10:51:50.71	116.95	18.99	-41.7	-45.0	17.3	6.06e-01	0	61	0	39321600	53	5741
2026-01-26 10:51:51.73	116.79	19.11	-41.7	-45.0	18.1	6.07e-01	0	61	0	41418752	54	5449
2026-01-26 10:51:52.74	116.62	19.23	-38.9	-44.8	13.7	6.16e-01	13	61	0	42991616	52	5971
2026-01-26 10:51:53.75	116.46	19.35	-41.7	-44.9	17.7	6.08e-01	0	61	0	45088768	53	5658
2026-01-26 10:51:54.76	116.29	19.47	-41.7	-45.0	17.7	6.07e-01	0	61	0	46661632	54	5441
2026-01-26 10:51:55.77	116.12	19.59	-41.9	-45.1	16.2	6.06e-01	0	61	0	48758784	54	5526
2026-01-26 10:51:56.78	115.95	19.71	-41.6	-45.1	17.3	6.05e-01	0	61	0	50855936	54	5513
2026-01-26 10:51:57.79	115.78	19.83	-40.2	-45.0	14.8	6.08e-01	0	61	0	52428800	50	6855
2026-01-26 10:51:58.79	115.61	19.95	-41.7	-45.1	17.8	6.07e-01	0	61	0	54525952	54	5519
2026-01-26 10:51:59.80	115.44	20.07	-41.9	-45.3	18.0	6.09e-01	0	61	0	56098816	54	5606
2026-01-26 10:52:00.81	115.26	20.19	-41.9	-45.5	16.8	6.07e-01	0	61	0	58195968	54	5724
2026-01-26 10:52:01.82	115.09	20.31	-41.7	-45.3	17.2	6.06e-01	0	61	0	60293120	54	5623
2026-01-26 10:52:02.84	114.91	20.43	-41.9	-45.4	17.7	6.08e-01	0	61	0	61865984	54	5719
2026-01-26 10:52:03.84	114.73	20.56	-41.8	-45.4	17.5	6.05e-01	0	61	0	63963136	54	5717
2026-01-26 10:52:04.85	114.55	20.68	-42.1	-45.5	17.8	6.08e-01	0	61	0	66060288	54	5752
2026-01-26 10:52:05.86	114.37	20.80	-42.1	-45.5	18.0	6.06e-01	0	61	0	67633152	54	5749
2026-01-26 10:52:06.87	114.18	20.92	-42.1	-45.5	17.9	6.08e-01	0	61	0	69730304	54	5786
2026-01-26 10:52:07.88	114.00	21.05	-42.0	-45.5	17.2	6.05e-01	0	61	0	71303168	54	5754
2026-01-26 10:52:08.89	113.81	21.17	-42.1	-45.4	17.8	6.04e-01	0	61	0	73400320	54	5695
2026-01-26 10:52:09.90	113.62	21.30	-42.1	-45.4	17.4	6.08e-01	0	61	0	75497472	54	5706
2026-01-26 10:52:10.91	113.43	21.42	-42.0	-45.4	16.9	6.09e-01	0	61	0	77070336	54	5703
2026-01-26 10:52:11.92	113.24	21.55	-41.9	-45.4	17.5	6.08e-01	0	61	0	79167488	54	5706
2026-01-26 10:52:12.92	113.04	21.67	-42.1	-45.5	17.8	6.06e-01	0	61	0	80740352	54	5775
2026-01-26 10:52:13.93	112.85	21.80	-42.2	-45.6	17.5	6.07e-01	0	61	0	82837504	54	5806
2026-01-26 10:52:14.94	112.65	21.92	-42.0	-45.6	17.2	6.09e-01	0	61	0	84934656	55	5469
2026-01-26 10:52:15.95	112.45	22.05	-42.0	-45.3	18.2	6.06e-01	0	61	0	86507520	54	5629
2026-01-26 10:52:16.96	112.25	22.18	-42.0	-45.2	18.3	6.07e-01	0	61	0	88604672	54	5565
2026-01-26 10:52:17.97	112.05	22.31	-42.0	-45.2	18.1	6.05e-01	0	61	0	90177536	54	5581
2026-01-26 10:52:18.98	111.84	22.43	-41.6	-45.2	17.6	6.05e-01	0	61	0	92274688	54	5547
2026-01-26 10:52:19.99	111.64	22.56	-42.1	-45.3	18.1	6.05e-01	0	61	0	94371840	54	5652
2026-01-26 10:52:21.00	111.43	22.69	-42.1	-45.4	17.3	6.06e-01	0	61	0	95944704	54	5709
2026-01-26 10:52:22.01	111.22	22.82	-42.0	-45.4	18.0	6.05e-01	0	61	0	98041856	54	5689
2026-01-26 10:52:23.02	111.01	22.95	-42.1	-45.5	18.0	6.05e-01	0	61	0	99614720	54	5732
2026-01-26 10:52:24.03	110.80	23.08	-42.2	-45.5	18.0	6.07e-01	0	61	0	101711872	54	5745
2026-01-26 10:52:25.04	110.58	23.21	-42.2	-45.6	17.9	6.07e-01	0	61	0	103809024	54	5792
2026-01-26 10:52:26.05	110.36	23.33	-42.2	-45.6	17.7	6.07e-01	0	61	0	105381888	54	5798
2026-01-26 10:52:27.06	110.14	23.46	-41.9	-45.7	17.6	6.06e-01	0	61	0	107479040	55	5538
2026-01-26 10:52:28.06	109.93	23.59	-42.2	-45.6	18.1	6.04e-01	0	61	0	109576192	55	5465
2026-01-26 10:52:29.08	109.70	23.73	-42.1	-45.4	18.1	6.06e-01	0	61	0	111149056	55	5364
2026-01-26 10:52:30.09	109.48	23.86	-42.1	-45.4	18.1	6.07e-01	0	61	0	113246208	55	5389
2026-01-26 10:52:31.10	109.25	23.99	-42.1	-45.4	17.6	6.07e-01	0	61	0	114819072	55	5381
2026-01-26 10:52:32.11	109.02	24.12	-42.1	-45.4	18.1	6.04e-01	0	61	0	116916224	55	5396
2026-01-26 10:52:33.12	108.79	24.25	-42.0	-45.5	17.9	6.08e-01	0	61	0	119013376	55	5436
2026-01-26 10:52:34.13	108.56	24.38	-42.2	-45.5	18.0	6.04e-01	0	61	0	120586240	55	5431
2026-01-26 10:52:35.14	108.32	24.51	-42.1	-45.4	18.2	6.05e-01	0	61	0	122683392	55	5359
2026-01-26 10:52:36.15	108.08	24.65	-42.1	-45.4	18.0	6.04e-01	0	61	0	124256256	55	5374
2026-01-26 10:52:37.16	107.85	24.78	-42.1	-45.4	18.2	6.07e-01	0	61	0	126353408	55	5375
2026-01-26 10:52:38.17	107.60	24.91	-42.2	-45.5	18.2	6.05e-01	0	61	0	128450560	55	5426
2026-01-26 10:52:39.18	107.36	25.04	-42.2	-45.5	18.1	6.06e-01	0	61	0	130023424	55	5458
2026-01-26 10:52:40.19	107.11	25.18	-42.1	-45.4	18.2	6.06e-01	0	61	0	132120576	55	5389
2026-01-26 10:52:41.20	106.87	25.31	-42.1	-45.4	18.1	6.06e-01	0	61	0	134217728	55	5392
2026-01-26 10:52:42.21	106.62	25.44	-42.1	-45.4	18.2	6.06e-01	0	62	0	135790592	55	5371
2026-01-26 10:52:43.22	106.37	25.58	-42.1	-45.3	18.3	6.06e-01	0	61	0	137887744	55	5332
2026-01-26 10:52:44.23	106.11	25.71	-42.1	-45.3	18.3	6.07e-01	0	61	0	139460608	55	5324
2026-01-26 10:52:45.24	105.85	25.84	-42.1	-45.3	18.2	6.09e-01	0	62	0	141557760	55	5327
2026-01-26 10:52:46.25	105.60	25.98	-42.0	-45.1	18.5	6.05e-01	0	61	0	143654912	55	5205
2026-01-26 10:52:47.26	105.33	26.11	-41.9	-45.0	18.7	6.06e-01	0	61	0	145227776	55	5112
2026-01-26 10:52:48.27	105.07	26.24	-41.9	-45.1	18.5	6.04e-01	0	61	0	147324928	55	5174
2026-01-26 10:52:49.28	104.80	26.38	-42.0	-45.2	18.5	6.07e-01	0	61	0	148897792	55	5220
2026-01-26 10:52:50.29	104.54	26.51	-42.0	-45.1	18.5	6.06e-01	0	62	0	150994944	55	5213
2026-01-26 10:52:51.30	104.27	26.65	-42.0	-45.2	18.3	6.07e-01	0	62	0	153092096	55	5273
2026-01-26 10:52:52.31	103.99	26.78	-42.0	-45.2	18.3	6.06e-01	0	61	0	154664960	55	5238
2026-01-26 10:52:53.32	103.72	26.91	-42.0	-45.1	18.3	6.09e-01	0	61	0	156762112	55	5175
2026-01-26 10:52:54.33	103.44	27.05	-42.0	-45.1	18.4	6.06e-01	0	61	0	158334976	55	5192
2026-01-26 10:52:55.34	103.16	27.18	-42.0	-45.1	18.4	6.06e-01	0	62	0	160432128	55	5175
2026-01-26 10:52:56.35	102.88	27.32	-42.0	-45.1	18.5	6.08e-01	0	61	0	162529280	55	5201
2026-01-26 10:52:57.36	102.59	27.45	-41.9	-45.0	18.6	6.04e-01	0	62	0	164102144	55	5107
2026-01-26 10:52:58.37	102.30	27.58	-41.8	-44.9	18.7	6.07e-01	0	62	0	166199296	55	5058
2026-01-26 10:52:59.38	102.01	27.72	-41.8	-44.8	18.8	6.07e-01	0	62	0	167772160	55	5012
2026-01-26 10:53:00.39	101.72	27.85	-41.8	-44.8	18.8	6.08e-01	0	61	0	169869312	55	4993
2026-01-26 10:53:01.40	101.43	27.99	-41.7	-44.7	18.9	6.06e-01	0	62	0	171966464	55	4959
2026-01-26 10:53:02.41	101.13	28.12	-41.8	-44.8	18.9	6.07e-01	0	61	0	173539328	55	4988
2026-01-26 10:53:03.42	100.83	28.25	-41.8	-44.8	18.8	6.08e-01	0	61	0	175636480	55	5009
2026-01-26 10:53:04.43	100.52	28.39	-41.8	-44.8	18.8	6.06e-01	0	62	0	177733632	55	5037
2026-01-26 10:53:05.45	100.22	28.52	-41.8	-44.8	18.8	6.06e-01	0	62	0	179306496	55	5012
2026-01-26 10:53:06.46	99.91	28.65	-41.8	-44.7	18.9	6.06e-01	0	61	0	181403648	55	4982
2026-01-26 10:53:07.47	99.60	28.78	-41.6	-44.6	19.1	6.07e-01	0	61	0	182976512	55	4882
2026-01-26 10:53:08.48	99.28	28.92	-41.7	-44.6	19.0	6.07e-01	0	61	0	185073664	55	4899
2026-01-26 10:53:09.49	98.97	29.05	-41.6	-44.5	19.1	6.06e-01	0	61	0	187170816	55	4846
2026-01-26 10:53:10.50	98.65	29.18	-41.6	-44.6	19.0	6.06e-01	0	61	0	188743680	55	4889
2026-01-26 10:53:11.51	98.32	29.31	-41.7	-44.6	19.1	6.06e-01	0	61	0	190840832	55	4920
2026-01-26 10:53:12.52	98.00	29.44	-41.6	-44.5	19.2	6.05e-01	0	61	0	192413696	55	4861
2026-01-26 10:53:13.53	97.67	29.57	-41.6	-44.4	19.3	6.07e-01	0	62	0	194510848	55	4809
2026-01-26 10:53:14.54	97.34	29.70	-41.7	-44.6	19.2	6.08e-01	0	61	0	196608000	55	4882
2026-01-26 10:53:15.55	97.01	29.83	-41.6	-44.4	19.3	6.07e-01	0	61	0	198180864	55	4810
2026-01-26 10:53:16.56	96.67	29.96	-41.5	-44.3	19.4	6.05e-01	0	62	0	200278016	55	4757
2026-01-26 10:53:17.57	96.34	30.09	-41.5	-44.3	19.3	6.08e-01	0	62	0	202375168	54	4991
2026-01-26 10:53:18.58	95.99	30.22	-41.5	-44.4	19.4	6.05e-01	0	62	0	203948032	54	5048
2026-01-26 10:53:19.59	95.65	30.35	-41.5	-44.3	19.5	6.06e-01	0	61	0	206045184	54	5003
2026-01-26 10:53:20.60	95.30	30.48	-41.5	-44.4	19.4	6.05e-01	0	62	0	207618048	54	5055
2026-01-26 10:53:21.61	94.95	30.60	-41.6	-44.5	19.2	6.05e-01	0	61	0	209715200	54	5153
2026-01-26 10:53:22.62	94.60	30.73	-41.6	-44.5	19.2	6.06e-01	0	61	0	211812352	54	5153
2026-01-26 10:53:23.63	94.25	30.85	-41.7	-44.6	19.2	6.06e-01	0	62	0	213385216	54	5183
2026-01-26 10:53:24.65	93.88	30.98	-41.6	-44.4	19.4	6.07e-01	0	62	0	215482368	54	5081
2026-01-26 10:53:25.65	93.53	31.10	-41.5	-44.4	19.4	6.06e-01	0	62	0	217055232	54	5058
2026-01-26 10:53:26.66	93.16	31.23	-41.5	-44.3	19.5	6.08e-01	0	62	0	219152384	54	5000
2026-01-26 10:53:27.67	92.80	31.35	-41.6	-44.4	19.4	6.06e-01	0	61	0	221249536	54	5083
2026-01-26 10:53:28.68	92.43	31.47	-41.5	-44.4	19.4	6.06e-01	0	61	0	222822400	54	5056
2026-01-26 10:53:29.69	92.05	31.59	-41.6	-44.4	19.4	6.07e-01	0	61	0	224919552	54	5077
2026-01-26 10:53:30.70	91.68	31.71	-41.6	-44.5	19.3	6.07e-01	0	62	0	227016704	54	5117
2026-01-26 10:53:31.71	91.30	31.83	-41.6	-44.4	19.4	6.05e-01	0	62	0	228589568	54	5083
2026-01-26 10:53:32.72	90.92	31.95	-41.6	-44.4	19.4	6.05e-01	0	62	0	230686720	54	5083
2026-01-26 10:53:33.73	90.53	32.07	-41.7	-44.5	19.3	6.04e-01	0	61	0	232259584	54	5157
2026-01-26 10:53:34.74	90.15	32.19	-41.6	-44.5	19.4	6.07e-01	0	62	0	234356736	54	5104
2026-01-26 10:53:35.75	89.76	32.30	-41.6	-44.4	19.4	6.05e-01	0	61	0	236453888	54	5062
2026-01-26 10:53:36.76	89.36	32.42	-41.6	-44.5	19.3	6.06e-01	0	61	0	238026752	54	5129
2026-01-26 10:53:37.77	88.97	32.53	-41.7	-44.5	19.3	6.07e-01	0	62	0	240123904	54	5154
2026-01-26 10:53:38.78	88.57	32.65	-41.7	-44.5	19.3	6.09e-01	0	62	0	241696768	54	5151
2026-01-26 10:53:39.79	88.17	32.76	-41.7	-44.6	19.3	6.06e-01	0	61	0	243793920	54	5175
2026-01-26 10:53:40.80	87.76	32.87	-41.7	-44.6	19.4	6.05e-01	0	62	0	245891072	54	5162
2026-01-26 10:53:41.81	87.36	32.98	-41.8	-44.7	19.3	6.06e-01	0	62	0	247463936	54	5236
2026-01-26 10:53:42.82	86.95	33.09	-41.8	-44.8	19.2	6.06e-01	0	62	0	249561088	54	5289
2026-01-26 10:53:43.83	86.54	33.19	-41.7	-44.6	19.4	6.04e-01	0	62	0	251133952	54	5192
2026-01-26 10:53:44.84	86.12	33.30	-41.8	-44.7	19.3	6.06e-01	0	62	0	253231104	54	5248
2026-01-26 10:53:45.85	85.70	33.40	-41.8	-44.8	19.2	6.07e-01	0	62	0	255328256	54	5308
2026-01-26 10:53:46.86	85.28	33.51	-41.9	-44.9	19.1	6.07e-01	0	62	0	256901120	54	5358
2026-01-26 10:53:47.87	84.86	33.61	-41.9	-44.8	19.1	6.06e-01	0	61	0	258998272	54	5338
2026-01-26 10:53:48.88	84.43	33.71	-41.8	-44.8	19.0	6.07e-01	0	62	0	260571136	54	5330
2026-01-26 10:53:49.89	84.00	33.81	-41.8	-44.7	19.2	6.05e-01	0	61	0	262668288	54	5276
2026-01-26 10:53:50.90	83.57	33.91	-42.0	-45.0	18.7	6.05e-01	0	62	0	264765440	54	5463
2026-01-26 10:53:51.91	83.14	34.00	-42.0	-45.1	18.7	6.05e-01	0	61	0	266338304	54	5503
2026-01-26 10:53:52.92	82.70	34.10	-42.0	-45.1	18.9	6.04e-01	0	61	0	268435456	54	5467
2026-01-26 10:53:53.93	82.26	34.19	-42.0	-45.0	18.8	6.06e-01	0	62	0	270532608	54	5464
2026-01-26 10:53:54.94	81.82	34.28	-42.0	-45.1	18.9	6.06e-01	0	62	0	272105472	54	5478
2026-01-26 10:53:55.95	81.37	34.37	-42.0	-45.0	18.9	6.06e-01	0	61	0	274202624	54	5453
2026-01-26 10:53:56.96	80.93	34.46	-42.2	-45.3	18.6	6.08e-01	0	62	0	275775488	54	5629
2026-01-26 10:53:57.97	80.48	34.55	-42.1	-45.1	18.8	6.05e-01	0	62	0	277872640	54	5514
2026-01-26 10:53:58.98	80.02	34.63	-42.0	-45.0	18.9	6.07e-01	0	62	0	279969792	54	5459
2026-01-26 10:53:59.99	79.57	34.71	-42.1	-45.2	18.8	6.04e-01	0	62	0	281542656	54	5534
2026-01-26 10:54:01.00	79.11	34.80	-42.1	-45.2	18.8	6.06e-01	0	61	0	283639808	54	5539
2026-01-26 10:54:02.01	78.65	34.88	-42.2	-45.3	18.7	6.08e-01	0	61	0	285212672	54	5630
2026-01-26 10:54:03.02	78.19	34.95	-42.1	-45.1	18.9	6.05e-01	0	62	0	287309824	54	5509
2026-01-26 10:54:04.03	77.73	35.03	-42.1	-45.2	18.8	6.06e-01	0	62	0	289406976	54	5573
2026-01-26 10:54:05.05	77.26	35.10	-42.1	-45.2	18.8	6.05e-01	0	62	0	290979840	54	5533
2026-01-26 10:54:06.06	76.79	35.17	-42.2	-45.4	18.6	6.07e-01	0	62	0	293076992	55	5349
2026-01-26 10:54:07.07	76.32	35.24	-42.3	-45.4	18.6	6.05e-01	0	62	0	295174144	55	5374
2026-01-26 10:54:08.08	75.85	35.31	-42.3	-45.5	18.4	6.09e-01	0	62	0	296747008	55	5453
2026-01-26 10:54:09.09	75.37	35.38	-42.3	-45.4	18.6	6.07e-01	0	62	0	298844160	55	5367
2026-01-26 10:54:10.10	74.90	35.44	-42.4	-45.7	18.3	6.06e-01	0	61	0	300417024	55	5559
2026-01-26 10:54:11.11	74.42	35.50	-42.4	-45.7	18.2	6.06e-01	0	62	0	302514176	55	5570
2026-01-26 10:54:12.11	73.95	35.56	-42.3	-45.4	18.5	6.05e-01	0	61	0	304611328	55	5390
2026-01-26 10:54:13.12	73.46	35.62	-42.2	-45.3	18.7	6.06e-01	0	62	0	306184192	55	5319
2026-01-26 10:54:14.13	72.98	35.68	-42.3	-45.6	18.4	6.09e-01	0	62	0	308281344	55	5469
2026-01-26 10:54:15.14	72.50	35.73	-42.3	-45.5	18.4	6.06e-01	0	62	0	310378496	55	5448
2026-01-26 10:54:16.16	72.01	35.78	-42.3	-45.4	18.6	6.07e-01	0	62	0	311951360	55	5384
2026-01-26 10:54:17.17	71.52	35.83	-42.4	-45.6	18.3	6.06e-01	0	62	0	314048512	55	5524
2026-01-26 10:54:18.18	71.03	35.88	-42.3	-45.5	18.4	6.06e-01	0	62	0	315621376	55	5447
2026-01-26 10:54:19.18	70.54	35.92	-42.5	-45.8	18.2	6.04e-01	0	62	0	317718528	55	5602
2026-01-26 10:54:20.19	70.05	35.96	-42.1	-45.2	18.8	6.06e-01	0	62	0	319815680	55	5228
2026-01-26 10:54:21.20	69.56	36.00	-42.3	-45.5	18.5	6.07e-01	0	62	0	321388544	55	5418
2026-01-26 10:54:22.21	69.06	36.04	-42.3	-45.5	18.5	6.08e-01	0	61	0	323485696	55	5445
2026-01-26 10:54:23.22	68.57	36.07	-42.4	-45.7	18.3	6.06e-01	0	62	0	325058560	55	5533
2026-01-26 10:54:24.23	68.07	36.11	-42.2	-45.4	18.6	6.06e-01	0	62	0	327155712	55	5358
2026-01-26 10:54:25.24	67.57	36.14	-42.4	-45.6	18.4	6.06e-01	0	62	0	328728576	55	5476
2026-01-26 10:54:26.25	67.08	36.16	-42.4	-45.6	18.4	6.06e-01	0	62	0	330825728	55	5475
2026-01-26 10:54:27.26	66.58	36.19	-42.5	-45.8	18.2	6.06e-01	0	62	0	332922880	55	5614
2026-01-26 10:54:28.27	66.08	36.21	-42.5	-45.8	18.2	6.06e-01	0	62	0	334495744	55	5631
2026-01-26 10:54:29.28	65.58	36.23	-42.5	-45.8	18.2	6.05e-01	0	62	0	336592896	55	5599
2026-01-26 10:54:30.29	65.07	36.25	-42.4	-45.7	18.3	6.06e-01	0	62	0	338690048	55	5554
2026-01-26 10:54:31.30	64.57	36.27	-42.5	-45.8	18.2	6.06e-01	0	62	0	340262912	55	5627
2026-01-26 10:54:32.31	64.07	36.28	-42.6	-45.9	18.1	6.08e-01	0	62	0	342360064	55	5692
2026-01-26 10:54:33.31	63.57	36.29	-42.6	-46.0	18.0	6.04e-01	0	62	0	343932928	55	5740
2026-01-26 10:54:34.32	63.07	36.30	-42.5	-45.8	18.2	6.08e-01	0	62	0	346030080	55	5641
2026-01-26 10:54:35.33	62.57	36.30	-42.5	-45.7	18.3	6.05e-01	0	62	0	348127232	55	5579
2026-01-26 10:54:36.34	62.06	36.31	-42.6	-46.0	18.0	6.07e-01	0	62	0	349700096	55	5744
2026-01-26 10:54:37.35	61.56	36.31	-42.6	-46.0	18.0	6.06e-01	0	62	0	351797248	55	5741
2026-01-26 10:54:38.36	61.06	36.31	-42.4	-45.6	18.4	6.07e-01	0	62	0	353370112	55	5495
2026-01-26 10:54:39.37	60.55	36.30	-42.5	-45.7	18.3	6.08e-01	0	62	0	355467264	55	5592
2026-01-26 10:54:40.38	60.05	36.30	-42.5	-45.8	18.2	6.08e-01	0	62	0	357564416	55	5647
2026-01-26 10:54:41.39	59.55	36.29	-42.4	-45.6	18.5	6.05e-01	0	62	0	359137280	55	5466
2026-01-26 10:54:42.40	59.05	36.28	-42.5	-45.7	18.3	6.10e-01	0	62	0	361234432	55	5577
2026-01-26 10:54:43.41	58.54	36.26	-42.5	-45.9	18.1	6.07e-01	0	62	0	363331584	55	5694
2026-01-26 10:54:44.42	58.04	36.25	-42.5	-45.7	18.3	6.07e-01	0	62	0	364904448	55	5591
2026-01-26 10:54:45.43	57.54	36.23	-42.6	-46.0	18.1	6.08e-01	0	62	0	367001600	55	5725
2026-01-26 10:54:46.44	57.04	36.21	-42.8	-46.2	17.9	6.07e-01	0	62	0	368574464	56	5546
2026-01-26 10:54:47.45	56.54	36.18	-42.7	-46.0	17.9	6.05e-01	0	62	0	370671616	56	5456
2026-01-26 10:54:48.46	56.04	36.16	-42.6	-45.9	18.1	6.07e-01	0	62	0	372768768	56	5397
2026-01-26 10:54:49.47	55.55	36.13	-42.7	-46.1	18.0	6.07e-01	0	62	0	374341632	56	5505
2026-01-26 10:54:50.48	55.05	36.10	-42.8	-46.2	17.9	6.05e-01	0	62	0	376438784	56	5573
2026-01-26 10:54:51.49	54.55	36.07	-42.8	-46.2	17.9	6.06e-01	0	62	0	378011648	56	5573
2026-01-26 10:54:52.50	54.06	36.03	-42.6	-46.0	18.1	6.05e-01	0	62	0	380108800	56	5412
2026-01-26 10:54:53.51	53.56	35.99	-42.7	-46.0	18.1	6.07e-01	0	62	0	382205952	56	5464
2026-01-26 10:54:54.52	53.07	35.95	-42.7	-46.1	18.0	6.06e-01	0	62	0	383778816	56	5495
2026-01-26 10:54:55.53	52.58	35.91	-42.6	-45.9	18.2	6.07e-01	0	62	0	385875968	56	5391
2026-01-26 10:54:56.54	52.09	35.87	-42.8	-46.2	17.9	6.07e-01	0	62	0	387448832	56	5546
2026-01-26 10:54:57.55	51.60	35.82	-42.5	-45.8	18.3	6.06e-01	0	62	0	389545984	56	5313
2026-01-26 10:54:58.56	51.12	35.77	-42.5	-45.7	18.4	6.07e-01	0	62	0	391643136	56	5261
2026-01-26 10:54:59.56	50.63	35.72	-42.7	-46.0	18.1	6.04e-01	0	62	0	393216000	56	5439
2026-01-26 10:55:00.57	50.15	35.67	-42.7	-46.1	18.0	6.06e-01	0	62	0	395313152	56	5473
2026-01-26 10:55:01.58	49.67	35.61	-42.6	-45.9	18.2	6.05e-01	0	62	0	396886016	56	5396
2026-01-26 10:55:02.59	49.19	35.55	-42.6	-45.9	18.2	6.05e-01	0	62	0	398983168	56	5368
2026-01-26 10:55:03.60	48.71	35.49	-42.5	-45.8	18.3	6.05e-01	0	62	0	401080320	56	5304
2026-01-26 10:55:04.61	48.23	35.43	-42.7	-46.1	18.0	6.07e-01	0	62	0	402653184	56	5508
2026-01-26 10:55:05.62	47.76	35.37	-42.7	-46.0	18.1	6.07e-01	0	62	0	404750336	56	5422
2026-01-26 10:55:06.63	47.29	35.30	-42.6	-45.9	18.2	6.06e-01	0	62	0	406847488	56	5363
2026-01-26 10:55:07.64	46.82	35.23	-42.7	-46.1	18.0	6.07e-01	0	62	0	408420352	56	5489
2026-01-26 10:55:08.65	46.35	35.16	-42.6	-46.0	18.1	6.07e-01	0	62	0	410517504	56	5413
2026-01-26 10:55:09.66	45.88	35.09	-42.7	-46.0	18.1	6.07e-01	0	62	0	412090368	56	5413
2026-01-26 10:55:10.67	45.42	35.02	-42.8	-46.2	17.8	6.06e-01	0	62	0	414187520	56	5572
2026-01-26 10:55:11.68	44.95	34.94	-42.6	-45.9	18.1	6.06e-01	0	62	0	416284672	56	5354
2026-01-26 10:55:12.69	44.49	34.87	-42.5	-45.7	18.3	6.09e-01	0	62	0	417857536	56	5236
2026-01-26 10:55:13.70	44.04	34.79	-42.8	-55.5	3.9	7.39e-01	0	62	104	418906112	56	16148
2026-01-26 10:55:14.71	43.58	34.70	-42.8	-55.6	3.8	7.44e-01	0	62	104	418906112	56	16451
2026-01-26 10:55:15.72	43.13	34.62	-42.9	-55.7	3.8	7.46e-01	0	62	104	418906112	56	16595
2026-01-26 10:55:16.73	42.68	34.54	-44.4	-58.2	3.7	7.44e-01	0	62	104	418906112	59	18604
2026-01-26 10:55:17.74	42.23	34.45	-44.2	-58.0	3.8	7.44e-01	0	62	104	418906112	58	19336
2026-01-26 10:55:18.75	41.78	34.36	-44.7	-59.0	3.8	7.49e-01	0	62	104	418906112	59	20470
2026-01-26 10:55:19.76	41.34	34.27	-45.1	-60.4	3.8	7.49e-01	0	62	104	418906112	60	22591
2026-01-26 10:55:20.77	40.90	34.18	-43.3	-56.6	3.9	7.47e-01	0	62	104	418906112	58	16319
2026-01-26 10:55:21.78	40.46	34.09	-42.6	-55.2	3.8	7.43e-01	0	62	104	418906112	57	14796
2026-01-26 10:55:22.78	40.03	33.99	-42.6	-55.2	3.8	7.47e-01	0	62	104	418906112	57	14861
2026-01-26 10:55:23.79	39.60	33.90	-44.7	-59.7	3.9	7.44e-01	0	62	104	418906112	60	20927
2026-01-26 10:55:24.80	39.17	33.80	-44.2	-57.9	3.8	7.48e-01	0	62	104	418906112	58	19084
2026-01-26 10:55:25.81	38.74	33.70	-45.8	-61.5	3.7	7.50e-01	0	62	104	418906112	61	24314
2026-01-26 10:55:26.82	38.31	33.60	-44.7	-59.9	3.8	7.42e-01	0	62	104	418906112	61	20211
2026-01-26 10:55:27.83	37.89	33.50	-44.0	-57.4	3.8	7.44e-01	0	62	104	418906112	58	17931
2026-01-26 10:55:28.84	37.47	33.40	-42.9	-55.6	3.7	7.49e-01	0	62	104	418906112	57	15437
2026-01-26 10:55:29.85	37.06	33.29	-42.8	-55.5	4.0	7.40e-01	0	62	104	418906112	57	15280
2026-01-26 10:55:30.86	36.64	33.19	-42.8	-55.6	3.7	7.46e-01	0	62	104	418906112	57	15521
2026-01-26 10:55:31.87	36.23	33.08	-44.2	-58.3	3.8	7.46e-01	0	62	104	418906112	58	19942
2026-01-26 10:55:32.87	35.83	32.97	-44.7	-58.9	3.8	7.48e-01	0	62	104	418906112	59	20145
2026-01-26 10:55:33.88	35.42	32.86	-44.6	-59.6	3.8	7.46e-01	0	62	104	418906112	60	20619
2026-01-26 10:55:34.89	35.02	32.75	-44.8	-59.8	3.8	7.44e-01	0	62	104	418906112	60	21059
2026-01-26 10:55:35.91	34.62	32.64	-45.5	-62.2	3.8	7.45e-01	0	62	104	418906112	61	26260
2026-01-26 10:55:36.92	34.22	32.53	-42.8	-55.7	3.9	7.44e-01	0	62	104	418906112	57	15661
2026-01-26 10:55:37.93	33.83	32.41	-42.7	-55.4	3.8	7.46e-01	0	62	104	418906112	57	15155
2026-01-26 10:55:38.94	33.43	32.30	-42.6	-55.3	3.8	7.42e-01	0	62	104	418906112	57	14886
2026-01-26 10:55:39.95	33.05	32.18	-44.4	-58.8	3.8	7.47e-01	0	62	104	418906112	59	19928
2026-01-26 10:55:40.96	32.66	32.07	-44.6	-59.5	3.8	7.45e-01	0	62	104	418906112	60	20416
2026-01-26 10:55:41.97	32.28	31.95	-45.5	-62.0	3.8	7.46e-01	0	62	104	418906112	61	25765
2026-01-26 10:55:42.98	31.90	31.83	-44.8	-60.0	3.8	7.45e-01	0	62	104	418906112	60	21665
2026-01-26 10:55:43.99	31.52	31.71	-44.7	-59.2	3.7	7.44e-01	0	62	104	418906112	60	19806
2026-01-26 10:55:45.00	31.15	31.59	-42.7	-55.4	3.8	7.46e-01	0	62	104	418906112	57	15115
2026-01-26 10:55:46.01	30.78	31.47	-42.7	-55.5	3.8	7.43e-01	0	62	104	418906112	57	15300
2026-01-26 10:55:47.02	30.41	31.35	-42.6	-55.3	3.8	7.46e-01	0	62	104	418906112	57	15024
2026-01-26 10:55:48.03	30.04	31.23	-43.5	-57.2	3.8	7.45e-01	0	62	104	418906112	57	18654
2026-01-26 10:55:49.04	29.68	31.10	-45.0	-60.3	3.8	7.45e-01	0	62	104	418906112	60	22465
2026-01-26 10:55:50.05	29.32	30.98	-44.7	-59.8	3.8	7.48e-01	0	62	104	418906112	60	21169
2026-01-26 10:55:51.06	28.97	30.85	-44.6	-59.0	3.9	7.46e-01	0	62	104	418906112	59	20462
2026-01-26 10:55:52.08	28.61	30.73	-45.6	-62.5	3.8	7.41e-01	0	62	104	418906112	61	27127
2026-01-26 10:55:53.09	28.26	30.60	-42.8	-55.7	3.8	7.45e-01	0	62	104	418906112	57	15760
2026-01-26 10:55:54.10	27.91	30.48	-42.7	-55.6	3.8	7.42e-01	0	62	104	418906112	57	15572
2026-01-26 10:55:55.11	27.57	30.35	-42.7	-55.4	3.8	7.45e-01	0	62	104	418906112	57	15112
2026-01-26 10:55:56.12	27.22	30.22	-43.3	-56.3	3.8	7.44e-01	0	62	104	418906112	57	16805
2026-01-26 10:55:57.13	26.88	30.09	-44.8	-60.0	3.8	7.40e-01	0	62	104	418906112	60	21628
2026-01-26 10:55:58.14	26.55	29.97	-44.6	-59.9	3.8	7.44e-01	0	62	104	418906112	60	21488
2026-01-26 10:55:59.15	26.21	29.84	-43.9	-57.6	3.9	7.44e-01	0	62	104	418906112	59	17332
2026-01-26 10:56:00.15	25.89	29.71	-45.5	-62.3	3.8	7.42e-01	0	62	104	418906112	61	26618
2026-01-26 10:56:01.16	25.56	29.58	-42.6	-55.4	3.8	7.44e-01	0	62	104	418906112	57	15098
2026-01-26 10:56:02.17	25.23	29.45	-42.5	-55.0	3.8	7.38e-01	0	62	104	418906112	56	15397
2026-01-26 10:56:03.18	24.91	29.32	-42.4	-55.0	3.8	7.41e-01	0	62	104	418906112	56	15285
2026-01-26 10:56:04.19	24.59	29.19	-44.7	-59.8	3.8	7.42e-01	0	62	104	418906112	60	21080
2026-01-26 10:56:05.20	24.27	29.06	-43.7	-57.3	3.8	7.42e-01	0	62	104	418906112	59	16778
2026-01-26 10:56:06.21	23.96	28.93	-45.2	-61.5	3.8	7.45e-01	0	62	104	418906112	61	24386
2026-01-26 10:56:07.22	23.64	28.79	-44.2	-58.9	3.8	7.42e-01	0	62	104	418906112	60	19002
2026-01-26 10:56:08.23	23.34	28.66	-44.7	-59.8	3.8	7.43e-01	0	62	104	418906112	60	21218
2026-01-26 10:56:09.24	23.03	28.53	-42.8	-55.7	3.8	7.46e-01	0	62	104	418906112	57	15700
2026-01-26 10:56:10.25	22.72	28.40	-42.9	-55.7	3.8	7.44e-01	0	62	104	418906112	57	15607
2026-01-26 10:56:11.26	22.42	28.26	-42.6	-55.1	3.8	7.41e-01	0	62	104	418906112	57	14690
2026-01-26 10:56:12.27	22.12	28.13	-42.6	-55.6	3.8	7.42e-01	0	62	104	418906112	56	16401
2026-01-26 10:56:13.28	21.83	28.00	-44.1	-58.5	3.9	7.46e-01	0	62	104	418906112	60	18256
2026-01-26 10:56:14.29	21.53	27.87	-44.1	-58.9	3.9	7.41e-01	0	62	104	418906112	60	18957
2026-01-26 10:56:15.31	21.24	27.73	-42.8	-55.6	3.8	7.46e-01	0	62	104	418906112	57	15529
2026-01-26 10:56:16.32	20.95	27.60	-45.3	-61.9	3.8	7.42e-01	0	62	104	418906112	61	25356
2026-01-26 10:56:17.33	20.67	27.47	-42.7	-55.4	3.8	7.45e-01	0	62	104	418906112	57	15187
2026-01-26 10:56:18.33	20.38	27.33	-42.5	-55.1	3.8	7.46e-01	0	62	104	418906112	56	15519
2026-01-26 10:56:19.34	20.10	27.20	-42.8	-55.6	3.8	7.47e-01	0	62	104	418906112	56	16486
2026-01-26 10:56:20.35	19.82	27.07	-43.5	-57.3	3.8	7.46e-01	0	62	104	418906112	59	16859
2026-01-26 10:56:21.36	19.55	26.93	-42.6	-55.5	3.8	7.42e-01	0	62	104	418906112	57	15282
2026-01-26 10:56:22.37	19.27	26.80	-45.0	-60.9	3.8	7.41e-01	0	62	104	418906112	61	22751
2026-01-26 10:56:23.38	19.00	26.67	-43.9	-57.8	3.9	7.47e-01	0	62	104	418906112	59	17832
2026-01-26 10:56:24.39	18.73	26.53	-44.0	-58.2	3.8	7.43e-01	0	62	104	418906112	60	17536
2026-01-26 10:56:25.40	18.47	26.40	-42.9	-56.0	3.8	7.46e-01	0	62	104	418906112	57	16177
2026-01-26 10:56:26.41	18.20	26.27	-42.9	-55.9	3.8	7.43e-01	0	62	104	418906112	57	15985
2026-01-26 10:56:27.42	17.94	26.13	-42.9	-56.0	3.8	7.44e-01	0	62	104	418906112	57	16250
2026-01-26 10:56:28.43	17.68	26.00	-43.0	-56.1	3.8	7.43e-01	0	62	104	418906112	58	15567
2026-01-26 10:56:29.44	17.42	25.87	-43.1	-56.4	3.8	7.44e-01	0	62	104	418906112	58	16013
2026-01-26 10:56:30.45	17.17	25.74	-43.8	-57.7	3.8	7.44e-01	0	62	104	418906112	59	17573
2026-01-26 10:56:31.46	16.92	25.60	-42.7	-55.4	3.8	7.48e-01	0	62	104	418906112	56	15995
2026-01-26 10:56:32.47	16.67	25.47	-44.4	-59.6	3.9	7.44e-01	0	62	104	418906112	61	19470
2026-01-26 10:56:33.48	16.42	25.34	-42.5	-55.4	3.8	7.44e-01	0	62	104	418906112	57	15069
2026-01-26 10:56:34.50	16.17	25.20	-42.5	-55.3	3.8	7.45e-01	0	62	104	418906112	57	14997
2026-01-26 10:56:35.51	15.92	25.07	-43.4	-56.7	3.8	7.47e-01	0	62	104	418906112	57	17526
2026-01-26 10:56:36.52	15.68	24.94	-44.7	-59.9	3.9	7.45e-01	0	62	104	418906112	61	20270
2026-01-26 10:56:37.53	15.44	24.81	-43.1	-56.1	3.8	7.48e-01	0	62	104	418906112	57	16498
2026-01-26 10:56:38.54	15.21	24.68	-44.3	-59.1	3.8	7.47e-01	0	62	104	418906112	60	19481
2026-01-26 10:56:39.55	14.97	24.55	-42.5	-55.2	3.9	7.44e-01	0	62	104	418906112	57	14823
2026-01-26 10:56:40.56	14.74	24.41	-43.3	-56.5	3.9	7.44e-01	0	62	104	418906112	58	16210
2026-01-26 10:56:41.57	14.50	24.28	-42.6	-55.4	3.8	7.45e-01	0	62	104	418906112	56	16043
2026-01-26 10:56:42.58	14.28	24.15	-42.6	-55.4	3.8	7.45e-01	0	62	104	418906112	56	16020
2026-01-26 10:56:43.59	14.05	24.02	-43.1	-56.3	3.8	7.43e-01	0	62	104	418906112	56	17885
2026-01-26 10:56:44.60	13.82	23.89	-43.7	-57.4	3.8	7.40e-01	0	62	104	418906112	58	18015
2026-01-26 10:56:45.61	13.60	23.76	-44.3	-58.5	3.8	7.43e-01	0	62	104	418906112	58	20437
2026-01-26 10:56:46.62	13.38	23.63	-44.2	-58.8	3.9	7.45e-01	0	62	104	418906112	60	18882
2026-01-26 10:56:47.63	13.16	23.50	-42.6	-55.1	3.9	7.44e-01	0	62	104	418906112	57	14672
2026-01-26 10:56:48.64	12.94	23.37	-43.0	-56.0	3.8	7.46e-01	0	62	104	418906112	58	15279
2026-01-26 10:56:49.65	12.72	23.24	-42.6	-55.4	3.8	7.46e-01	0	62	104	418906112	57	15123
2026-01-26 10:56:50.66	12.51	23.12	-42.6	-55.5	3.8	7.45e-01	0	62	104	418906112	57	15374
2026-01-26 10:56:51.67	12.30	22.99	-42.8	-56.0	3.8	7.45e-01	0	62	104	418906112	57	16277
2026-01-26 10:56:52.68	12.09	22.86	-43.4	-56.8	3.8	7.44e-01	0	62	104	418906112	57	17767
2026-01-26 10:56:53.69	11.88	22.73	-45.3	-60.2	3.8	7.46e-01	0	62	104	418906112	60	22247
2026-01-26 10:56:54.70	11.67	22.60	-44.2	-59.0	3.8	7.45e-01	0	62	104	418906112	60	19247
2026-01-26 10:56:55.71	11.47	22.48	-43.1	-56.0	3.8	7.47e-01	0	62	104	418906112	57	16189
2026-01-26 10:56:56.72	11.27	22.35	-42.8	-55.7	3.8	7.44e-01	0	62	104	418906112	57	15711
2026-01-26 10:56:57.73	11.07	22.22	-42.6	-55.6	3.8	7.44e-01	0	62	104	418906112	57	15504
2026-01-26 10:56:58.74	10.87	22.10	-42.7	-55.7	3.8	7.48e-01	0	62	104	418906112	57	15743
2026-01-26 10:56:59.76	10.67	21.97	-43.2	-56.7	3.8	7.46e-01	0	62	104	418906112	57	17649
2026-01-26 10:57:00.76	10.47	21.84	-43.4	-56.8	3.8	7.44e-01	0	62	104	418906112	57	17873
2026-01-26 10:57:01.77	10.28	21.72	-44.9	-61.0	3.8	7.50e-01	0	62	104	418906112	60	24254
2026-01-26 10:57:02.78	10.09	21.59	-44.3	-59.2	3.8	7.46e-01	0	62	104	418906112	60	19820
2026-01-26 10:57:03.80	9.89	21.47	-43.8	-57.6	3.8	7.45e-01	0	62	104	418906112	58	18472
2026-01-26 10:57:04.81	9.70	21.34	-42.7	-55.5	3.8	7.43e-01	0	62	104	418906112	57	15394
2026-01-26 10:57:05.81	9.52	21.22	-42.5	-55.4	3.8	7.43e-01	0	62	104	418906112	57	15185
2026-01-26 10:57:06.83	9.33	21.10	-42.6	-55.6	3.8	7.45e-01	0	62	104	418906112	57	15435
2026-01-26 10:57:07.84	9.14	20.97	-42.9	-56.2	3.8	7.43e-01	0	62	104	418906112	56	17511
2026-01-26 10:57:08.84	8.96	20.85	-43.6	-57.1	3.8	7.47e-01	0	62	104	418906112	57	18473
2026-01-26 10:57:09.86	8.78	20.73	-45.1	-61.7	3.8	7.45e-01	0	62	104	418906112	60	26218
2026-01-26 10:57:10.87	8.60	20.61	-44.3	-59.5	3.8	7.47e-01	0	62	104	418906112	60	20454
2026-01-26 10:57:11.88	8.42	20.48	-44.1	-58.0	3.8	7.48e-01	0	62	104	418906112	58	19363
2026-01-26 10:57:12.89	8.25	20.36	-42.6	-55.4	3.8	7.41e-01	0	62	104	418906112	57	15197
2026-01-26 10:57:13.90	8.07	20.24	-42.4	-55.2	3.8	7.44e-01	0	62	104	418906112	56	15606
2026-01-26 10:57:14.91	7.90	20.12	-42.3	-55.0	3.8	7.42e-01	0	62	104	418906112	56	15359
2026-01-26 10:57:15.92	7.72	20.00	-43.4	-57.0	3.8	7.43e-01	0	62	104	418906112	57	18245
2026-01-26 10:57:16.93	7.55	19.88	-43.5	-57.0	3.8	7.45e-01	0	62	104	418906112	57	18204
2026-01-26 10:57:17.94	7.38	19.76	-45.1	-61.7	3.8	7.43e-01	0	62	104	418906112	60	26363
2026-01-26 10:57:18.95	7.21	19.64	-44.6	-60.2	3.8	7.46e-01	0	62	104	418906112	59	23423
2026-01-26 10:57:19.96	7.05	19.52	-44.7	-59.5	3.8	7.45e-01	0	62	104	418906112	59	21670
2026-01-26 10:57:20.97	6.88	19.41	-42.4	-55.2	3.8	7.48e-01	0	62	104	418906112	56	15663
2026-01-26 10:57:21.98	6.72	19.29	-42.5	-55.2	3.8	7.47e-01	0	62	104	418906112	56	15664
2026-01-26 10:57:22.99	6.56	19.17	-42.4	-55.3	3.8	7.46e-01	0	62	104	418906112	56	15829
2026-01-26 10:57:24.00	6.39	19.05	-43.2	-57.1	3.8	7.44e-01	0	62	104	418906112	56	19431
2026-01-26 10:57:25.01	6.24	18.94	-43.4	-57.2	3.8	7.42e-01	0	62	104	418906112	57	18561
2026-01-26 10:57:26.02	6.08	18.82	-45.0	-61.9	3.8	7.47e-01	0	62	104	418906112	60	26793
2026-01-26 10:57:27.03	5.92	18.70	-44.5	-60.0	3.8	7.45e-01	0	62	104	418906112	59	23044
2026-01-26 10:57:28.04	5.76	18.59	-44.8	-59.8	3.7	7.46e-01	0	62	104	418906112	59	22321
2026-01-26 10:57:29.05	5.61	18.47	-42.4	-55.1	3.8	7.47e-01	0	62	104	418906112	56	15435
2026-01-26 10:57:30.06	5.46	18.36	-42.3	-55.1	3.8	7.45e-01	0	62	104	418906112	56	15470
2026-01-26 10:57:31.07	5.30	18.24	-42.3	-55.2	3.8	7.43e-01	0	62	104	418906112	56	15746
2026-01-26 10:57:32.08	5.15	18.13	-42.9	-56.5	3.8	7.46e-01	0	62	104	418906112	56	18218
2026-01-26 10:57:33.09	5.00	18.01	-43.0	-56.4	3.8	7.44e-01	0	62	104	418906112	57	17011
2026-01-26 10:57:34.10	4.85	17.90	-44.8	-61.6	3.8	7.46e-01	0	62	104	418906112	60	26062
2026-01-26 10:57:35.11	4.71	17.79	-44.2	-59.5	3.8	7.43e-01	0	62	104	418906112	59	21666
2026-01-26 10:57:36.12	4.56	17.68	-44.4	-59.6	3.8	7.42e-01	0	62	104	418906112	60	20738
2026-01-26 10:57:37.13	4.42	17.56	-42.3	-55.3	3.8	7.44e-01	0	62	104	418906112	56	15815
2026-01-26 10:57:38.14	4.27	17.45	-42.3	-55.4	3.8	7.42e-01	0	62	104	418906112	56	15952
2026-01-26 10:57:39.15	4.13	17.34	-42.2	-55.3	3.8	7.44e-01	0	62	104	418906112	56	15899
2026-01-26 10:57:40.16	3.99	17.23	-43.0	-56.9	3.8	7.42e-01	0	62	104	418906112	56	19160
2026-01-26 10:57:41.17	3.85	17.12	-42.7	-56.1	3.9	7.45e-01	0	62	104	418906112	56	17392
2026-01-26 10:57:42.18	3.71	17.01	-44.5	-61.3	3.8	7.44e-01	0	62	104	418906112	60	25248
2026-01-26 10:57:43.19	3.57	16.90	-43.9	-59.0	3.9	7.45e-01	0	62	104	418906112	59	20304
2026-01-26 10:57:44.20	3.43	16.79	-44.1	-59.1	3.8	7.45e-01	0	62	104	418906112	60	19613
2026-01-26 10:57:45.21	3.30	16.68	-42.3	-55.2	3.8	7.46e-01	0	62	104	418906112	56	15633
2026-01-26 10:57:46.22	3.16	16.57	-42.2	-55.3	3.8	7.47e-01	0	62	104	418906112	56	15866
2026-01-26 10:57:47.23	3.03	16.46	-42.3	-55.5	3.8	7.45e-01	0	62	104	418906112	56	16285
2026-01-26 10:57:48.24	2.89	16.35	-42.4	-56.1	3.8	7.45e-01	0	62	104	418906112	56	17300
2026-01-26 10:57:49.25	2.76	16.25	-42.3	-55.7	3.9	7.45e-01	0	62	104	418906112	56	16571
2026-01-26 10:57:50.26	2.63	16.14	-44.4	-61.4	3.8	7.44e-01	0	62	104	418906112	59	27002
2026-01-26 10:57:51.27	2.50	16.03	-43.3	-57.9	3.9	7.44e-01	0	62	104	418906112	58	19001
2026-01-26 10:57:52.28	2.37	15.92	-44.1	-59.1	3.9	7.43e-01	0	62	104	418906112	59	20712
2026-01-26 10:57:53.29	2.25	15.82	-42.2	-55.1	3.8	7.45e-01	0	62	104	418906112	56	15533
2026-01-26 10:57:54.30	2.12	15.71	-42.2	-55.3	3.8	7.46e-01	0	62	104	418906112	56	15791
2026-01-26 10:57:55.31	1.99	15.61	-42.0	-55.1	3.8	7.43e-01	0	62	104	418906112	56	15408
2026-01-26 10:57:56.32	1.87	15.50	-42.2	-55.7	3.8	7.47e-01	0	62	104	418906112	56	16585
2026-01-26 10:57:57.33	1.74	15.40	-42.1	-55.4	3.9	7.40e-01	0	62	104	418906112	56	15977
2026-01-26 10:57:58.34	1.62	15.29	-43.5	-60.4	3.9	7.43e-01	0	62	104	418906112	58	25482
2026-01-26 10:57:59.35	1.50	15.19	-42.5	-57.0	3.9	7.43e-01	0	62	104	418906112	57	18117
2026-01-26 10:58:00.36	1.38	15.09	-43.6	-58.4	3.9	7.43e-01	0	62	104	418906112	59	18983
2026-01-26 10:58:01.37	1.26	14.98	-42.1	-55.3	3.8	7.46e-01	0	62	104	418906112	56	15941
2026-01-26 10:58:02.38	1.14	14.88	-41.8	-55.0	3.8	7.46e-01	0	62	104	418906112	55	16135
2026-01-26 10:58:03.39	1.02	14.78	-41.4	-54.5	3.8	7.44e-01	0	62	104	418906112	54	16188
2026-01-26 10:58:04.40	0.90	14.67	-41.8	-55.3	3.8	7.46e-01	0	62	104	418906112	54	17883
2026-01-26 10:58:05.41	0.79	14.57	-41.6	-55.2	3.8	7.45e-01	0	62	104	418906112	55	16573
2026-01-26 10:58:06.42	0.67	14.47	-42.8	-60.0	3.8	7.44e-01	0	62	104	418906112	56	27263
2026-01-26 10:58:07.43	0.56	14.37	-42.2	-57.0	3.8	7.42e-01	0	62	104	418906112	56	19241
2026-01-26 10:58:08.44	0.44	14.27	-42.7	-57.5	3.9	7.41e-01	0	62	104	418906112	57	19179
2026-01-26 10:58:09.45	0.33	14.17	-41.4	-55.0	3.8	7.42e-01	0	62	104	418906112	54	17114
2026-01-26 10:58:10.46	0.22	14.07	-41.5	-55.1	3.8	7.42e-01	0	62	104	418906112	54	17422
2026-01-26 10:58:11.47	0.11	13.97	-41.0	-54.5	3.8	7.44e-01	0	62	104	418906112	54	16167
2026-01-26 10:58:12.48	360.00	13.87	-41.3	-54.9	3.8	7.41e-01	0	62	104	418906112	53	18043
2026-01-26 10:58:13.49	359.89	13.77	-41.2	-55.2	3.8	7.43e-01	0	62	104	418906112	54	17523
2026-01-26 10:58:14.50	359.78	13.67	-41.8	-58.8	3.8	7.45e-01	0	62	104	418906112	54	26570
2026-01-26 10:58:15.51	359.67	13.57	-41.7	-56.4	3.9	7.41e-01	0	62	104	418906112	54	20280
2026-01-26 10:58:16.52	359.56	13.48	-42.7	-58.5	3.9	7.42e-01	0	62	104	418906112	57	21727
2026-01-26 10:58:17.53	359.46	13.38	-42.2	-57.6	3.8	7.46e-01	0	62	104	418906112	56	20705
2026-01-26 10:58:18.54	359.35	13.28	-42.4	-58.5	3.8	7.43e-01	0	62	104	418906112	56	22918
2026-01-26 10:58:19.55	359.24	13.18	-42.5	-59.5	3.8	7.46e-01	0	62	104	418906112	56	25798
2026-01-26 10:58:20.56	359.14	13.09	-42.7	-59.7	3.8	7.42e-01	0	62	104	418906112	56	26200
2026-01-26 10:58:21.57	359.04	12.99	-42.1	-60.6	3.8	7.44e-01	0	62	104	418906112	56	29323
2026-01-26 10:58:22.58	358.93	12.90	-41.9	-60.7	3.8	7.44e-01	0	62	104	418906112	55	31337
2026-01-26 10:58:23.59	358.83	12.80	-42.5	-60.4	3.8	7.44e-01	0	62	104	418906112	55	30317
2026-01-26 10:58:24.60	358.73	12.70	-42.8	-61.0	3.8	7.44e-01	0	62	104	418906112	57	28711
2026-01-26 10:58:25.61	358.63	12.61	-42.6	-60.9	3.8	7.47e-01	0	62	104	418906112	57	28574
2026-01-26 10:58:26.62	358.53	12.51	-42.5	-61.0	3.8	7.43e-01	0	62	104	418906112	57	28920
2026-01-26 10:58:27.64	358.43	12.42	-42.2	-60.8	3.8	7.44e-01	0	62	104	418906112	56	29844
2026-01-26 10:58:28.65	358.33	12.33	-42.4	-60.6	3.8	7.42e-01	0	62	104	418906112	56	29233
2026-01-26 10:58:29.66	358.23	12.23	-41.4	-60.3	3.8	7.48e-01	0	62	104	418906112	54	31765
2026-01-26 10:58:30.67	358.14	12.14	-41.3	-60.2	3.8	7.44e-01	0	62	104	418906112	54	31378
2026-01-26 10:58:31.68	358.04	12.05	-41.7	-60.7	3.8	7.47e-01	0	62	104	418906112	54	33091
2026-01-26 10:58:32.69	357.94	11.95	-41.4	-60.4	3.8	7.45e-01	0	62	104	418906112	54	31942
2026-01-26 10:58:33.70	357.85	11.86	-41.2	-60.2	3.8	7.44e-01	0	62	104	418906112	54	31099
2026-01-26 10:58:34.71	357.76	11.77	-41.1	-60.1	3.8	7.44e-01	0	62	104	418906112	54	30749
2026-01-26 10:58:35.72	357.66	11.68	-40.9	-59.8	3.8	7.47e-01	0	62	104	418906112	53	31759
2026-01-26 10:58:36.73	357.57	11.58	-41.0	-60.0	3.8	7.47e-01	0	62	104	418906112	53	32341
2026-01-26 10:58:37.74	357.48	11.49	-41.4	-60.4	3.8	7.41e-01	0	62	104	418906112	53	33743
2026-01-26 10:58:38.75	357.38	11.40	-41.9	-60.7	3.8	7.42e-01	0	62	104	418906112	54	33085
2026-01-26 10:58:39.76	357.29	11.31	-41.1	-60.1	3.8	7.44e-01	0	62	104	418906112	54	31044
2026-01-26 10:58:40.77	357.20	11.22	-41.0	-60.0	3.8	7.42e-01	0	62	104	418906112	54	30603
2026-01-26 10:58:41.78	357.11	11.13	-41.0	-60.0	3.8	7.46e-01	0	62	104	418906112	54	30520
2026-01-26 10:58:42.79	357.02	11.04	-40.9	-59.9	3.8	7.46e-01	0	62	104	418906112	53	32133
2026-01-26 10:58:43.79	356.94	10.95	-40.9	-59.9	3.8	7.45e-01	0	62	104	418906112	53	32070
2026-01-26 10:58:44.80	356.85	10.86	-40.9	-59.9	3.8	7.47e-01	0	62	104	418906112	53	31971
2026-01-26 10:58:45.81	356.76	10.78	-41.4	-60.4	3.8	7.45e-01	0	62	104	418906112	53	33929
2026-01-26 10:58:46.82	356.67	10.69	-40.9	-59.9	3.8	7.46e-01	0	62	104	418906112	53	32009
2026-01-26 10:58:47.84	356.59	10.60	-41.0	-60.0	3.8	7.45e-01	0	62	104	418906112	53	32402
2026-01-26 10:58:48.85	356.50	10.51	-40.9	-59.9	3.8	7.47e-01	0	62	104	418906112	53	31924
2026-01-26 10:58:49.86	356.42	10.42	-40.9	-59.9	3.8	7.46e-01	0	62	104	418906112	53	31847
2026-01-26 10:58:50.87	356.33	10.34	-40.9	-59.9	3.8	7.44e-01	0	62	104	418906112	53	31885
2026-01-26 10:58:51.88	356.25	10.25	-40.9	-59.8	3.8	7.43e-01	0	62	104	418906112	53	31737
2026-01-26 10:58:52.89	356.16	10.16	-40.9	-59.8	3.8	7.47e-01	0	62	104	418906112	53	31761
2026-01-26 10:58:53.90	356.08	10.08	-41.3	-60.3	3.8	7.47e-01	0	62	104	418906112	53	33413
2026-01-26 10:58:54.91	356.00	9.99	-41.0	-60.0	3.8	7.44e-01	0	62	104	418906112	53	32208
2026-01-26 10:58:55.92	355.92	9.90	-41.0	-60.0	3.8	7.47e-01	0	62	104	418906112	53	32413
2026-01-26 10:58:56.93	355.84	9.82	-41.2	-60.2	3.8	7.44e-01	0	62	104	418906112	53	33128
2026-01-26 10:58:57.94	355.76	9.73	-40.9	-59.9	3.8	7.46e-01	0	62	104	418906112	53	31942
2026-01-26 10:58:58.95	355.68	9.65	-41.0	-60.0	3.8	7.46e-01	0	62	104	418906112	53	32359
2026-01-26 10:58:59.96	355.60	9.56	-41.0	-60.0	3.8	7.45e-01	0	62	104	418906112	53	32278
2026-01-26 10:59:00.97	355.52	9.48	-41.2	-60.2	3.8	7.44e-01	0	62	104	418906112	53	33127
2026-01-26 10:59:01.98	355.44	9.39	-41.0	-59.9	3.8	7.46e-01	0	62	104	418906112	53	32099
2026-01-26 10:59:02.99	355.36	9.31	-41.1	-60.1	3.8	7.47e-01	0	62	104	418906112	53	32559
2026-01-26 10:59:04.00	355.28	9.23	-41.0	-59.9	3.8	7.45e-01	0	62	104	418906112	53	32157
2026-01-26 10:59:05.01	355.21	9.14	-41.2	-60.2	3.8	7.49e-01	0	62	104	418906112	53	32991
2026-01-26 10:59:06.02	355.13	9.06	-41.0	-60.0	3.8	7.45e-01	0	62	104	418906112	53	32268
2026-01-26 10:59:07.03	355.05	8.98	-41.1	-60.1	3.8	7.45e-01	0	62	104	418906112	53	32680
2026-01-26 10:59:08.04	354.98	8.89	-41.0	-59.9	3.8	7.47e-01	0	62	104	418906112	53	32160
2026-01-26 10:59:09.05	354.90	8.81	-41.1	-60.1	3.8	7.43e-01	0	62	104	418906112	53	32714
2026-01-26 10:59:10.06	354.83	8.73	-41.0	-60.0	3.8	7.44e-01	0	62	104	418906112	53	32294
2026-01-26 10:59:11.07	354.75	8.65	-41.1	-60.1	3.8	7.45e-01	0	62	104	418906112	53	32720
2026-01-26 10:59:12.08	354.68	8.57	-41.0	-60.0	3.8	7.45e-01	0	62	104	418906112	53	32246
2026-01-26 10:59:13.09	354.61	8.48	-41.1	-60.1	3.8	7.43e-01	0	62	104	418906112	53	32634
2026-01-26 10:59:14.10	354.53	8.40	-41.0	-59.9	3.8	7.46e-01	0	62	104	418906112	53	32133
2026-01-26 10:59:15.11	354.46	8.32	-41.1	-60.0	3.8	7.45e-01	0	62	104	418906112	53	32430
2026-01-26 10:59:16.12	354.39	8.24	-41.0	-60.0	3.8	7.45e-01	0	62	104	418906112	53	32290
2026-01-26 10:59:17.13	354.32	8.16	-41.2	-60.1	3.8	7.47e-01	0	62	104	418906112	53	32884
2026-01-26 10:59:18.14	354.25	8.08	-41.0	-59.9	3.8	7.44e-01	0	62	104	418906112	53	32069
2026-01-26 10:59:19.15	354.18	8.00	-41.1	-60.0	3.8	7.45e-01	0	62	104	418906112	53	32426
2026-01-26 10:59:20.16	354.11	7.92	-41.3	-60.3	3.8	7.46e-01	0	62	104	418906112	53	33476
2026-01-26 10:59:21.17	354.04	7.84	-43.2	-62.1	3.8	7.47e-01	0	62	104	418906112	56	34482
2026-01-26 10:59:22.18	353.97	7.76	-44.6	-63.3	3.8	7.45e-01	0	62	104	418906112	60	31722
2026-01-26 10:59:23.19	353.90	7.68	-45.8	-64.4	3.8	7.45e-01	0	62	104	418906112	62	32145
2026-01-26 10:59:24.20	353.83	7.60	-46.2	-64.8	3.8	7.47e-01	0	62	104	418906112	62	33403
2026-01-26 10:59:25.21	353.76	7.53	-46.3	-64.9	3.8	7.45e-01	0	62	104	418906112	63	31901
2026-01-26 10:59:26.22	353.70	7.45	-46.3	-64.9	3.8	7.46e-01	0	62	104	418906112	63	32000
2026-01-26 10:59:27.23	353.63	7.37	-46.3	-64.9	3.8	7.44e-01	0	62	104	418906112	63	31957
2026-01-26 10:59:28.24	353.56	7.29	-46.4	-64.5	3.8	7.45e-01	0	62	104	418906112	62	32367
2026-01-26 10:59:29.25	353.50	7.21	-46.3	-64.8	3.8	7.45e-01	0	62	104	418906112	63	31664
2026-01-26 10:59:30.26	353.43	7.14	-45.2	-63.2	4.1	7.61e-01	0	62	104	418906112	61	29407
2026-01-26 10:59:31.27	353.37	7.06	-46.1	-64.0	4.1	7.53e-01	0	62	104	418906112	62	30675
2026-01-26 10:59:32.28	353.30	6.98	-46.3	-64.8	3.8	7.48e-01	0	62	104	418906112	63	31576
2026-01-26 10:59:33.29	353.24	6.91	-46.2	-64.8	3.8	7.45e-01	0	62	104	418906112	63	31669
2026-01-26 10:59:34.30	353.17	6.83	-46.2	-64.7	3.8	7.47e-01	0	62	104	418906112	63	31357
2026-01-26 10:59:35.31	353.11	6.75	-46.2	-64.7	3.8	7.44e-01	0	62	104	418906112	63	31367
2026-01-26 10:59:36.32	353.05	6.68	-46.1	-64.6	3.8	7.50e-01	0	62	104	418906112	63	31086
2026-01-26 10:59:37.33	352.98	6.60	-45.8	-64.6	3.8	7.48e-01	0	62	104	418906112	62	32907
2026-01-26 10:59:38.34	352.92	6.53	-46.1	-64.6	3.8	7.47e-01	0	63	104	418906112	62	32880
2026-01-26 10:59:39.35	352.86	6.45	-46.0	-64.5	3.9	7.46e-01	0	62	104	418906112	62	32514
2026-01-26 10:59:40.36	352.80	6.38	-46.0	-64.6	3.8	7.48e-01	0	62	104	418906112	62	32755
2026-01-26 10:59:41.37	352.73	6.30	-46.1	-64.6	3.8	7.44e-01	0	62	104	418906112	62	32674
2026-01-26 10:59:42.38	352.67	6.23	-46.0	-64.5	3.8	7.42e-01	0	62	104	418906112	62	32543
2026-01-26 10:59:43.39	352.61	6.15	-46.0	-64.6	3.8	7.40e-01	0	63	104	418906112	62	32578
2026-01-26 10:59:44.40	352.55	6.08	-46.0	-64.6	3.8	7.44e-01	0	62	104	418906112	62	32553
2026-01-26 10:59:45.41	352.49	6.00	-46.0	-64.5	3.8	7.43e-01	0	62	104	418906112	62	32464
2026-01-26 10:59:46.43	352.43	5.93	-46.0	-64.5	3.8	7.44e-01	0	62	104	418906112	62	32471
2026-01-26 10:59:47.44	352.37	5.85	-46.0	-64.5	3.9	7.44e-01	0	62	104	418906112	62	32446
2026-01-26 10:59:48.45	352.31	5.78	-46.0	-64.5	3.8	7.45e-01	0	62	104	418906112	62	32506
2026-01-26 10:59:49.46	352.25	5.71	-46.0	-64.5	3.7	7.45e-01	0	62	104	418906112	62	32511
2026-01-26 10:59:50.47	352.20	5.63	-46.0	-64.5	3.8	7.47e-01	0	62	104	418906112	62	32437
2026-01-26 10:59:51.48	352.14	5.56	-46.0	-64.5	3.8	7.44e-01	0	62	104	418906112	62	32389
2026-01-26 10:59:52.49	352.08	5.49	-46.0	-64.5	3.8	7.44e-01	0	62	104	418906112	62	32482
2026-01-26 10:59:53.50	352.02	5.42	-46.0	-64.5	3.8	7.44e-01	0	62	104	418906112	62	32441
2026-01-26 10:59:54.51	351.97	5.34	-46.0	-64.5	3.8	7.45e-01	0	62	104	418906112	62	32406
2026-01-26 10:59:55.52	351.91	5.27	-46.0	-64.5	3.8	7.45e-01	0	62	104	418906112	62	32470
2026-01-26 10:59:56.53	351.85	5.20	-46.0	-64.5	3.8	7.47e-01	0	62	104	418906112	62	32441
2026-01-26 10:59:57.54	351.80	5.13	-45.7	-64.6	3.8	7.47e-01	0	62	104	418906112	62	32644
2026-01-26 10:59:58.55	351.74	5.06	-45.9	-64.5	3.8	7.45e-01	0	62	104	418906112	62	32398
2026-01-26 10:59:59.56	351.69	4.99	-46.0	-64.5	3.8	7.47e-01	0	62	104	418906112	62	32527
2026-01-26 11:00:00.57	351.63	4.91	-46.0	-64.5	3.8	7.46e-01	0	62	104	418906112	62	32409
2026-01-26 11:00:01.58	351.58	4.84	-45.9	-64.5	3.8	7.48e-01	0	62	104	418906112	62	32413
2026-01-26 11:00:02.59	351.52	4.77	-46.0	-64.5	3.8	7.45e-01	0	63	104	418906112	62	32414
2026-01-26 11:00:03.60	351.47	4.70	-46.0	-64.5	3.8	7.44e-01	0	62	104	418906112	62	32404
2026-01-26 11:00:04.61	351.41	4.63	-46.0	-64.5	3.8	7.48e-01	0	62	104	418906112	62	32381
2026-01-26 11:00:05.62	351.36	4.56	-45.8	-64.2	3.8	7.43e-01	0	63	104	418906112	62	31328
2026-01-26 11:00:06.63	351.31	4.49	-46.0	-64.5	3.8	7.44e-01	0	62	104	418906112	62	32380
2026-01-26 11:00:07.64	351.25	4.42	-44.5	-64.1	3.8	7.45e-01	0	62	104	418906112	61	32629
2026-01-26 11:00:08.65	351.20	4.35	-45.0	-64.5	3.8	7.45e-01	0	62	104	418906112	62	32264
2026-01-26 11:00:09.66	351.15	4.28	-46.0	-64.5	3.8	7.44e-01	0	62	104	418906112	62	32330
2026-01-26 11:00:10.68	351.10	4.21	-46.0	-64.5	3.8	7.43e-01	0	62	104	418906112	62	32387
2026-01-26 11:00:11.68	351.04	4.14	-46.0	-64.5	3.8	7.46e-01	0	62	104	418906112	62	32386
2026-01-26 11:00:12.70	350.99	4.07	-46.0	-64.5	3.8	7.46e-01	0	62	104	418906112	62	32360
2026-01-26 11:00:13.70	350.94	4.01	-46.0	-64.5	3.8	7.45e-01	0	62	104	418906112	62	32349
2026-01-26 11:00:14.72	350.89	3.94	-46.0	-64.5	3.8	7.45e-01	0	62	104	418906112	62	32419
2026-01-26 11:00:15.73	350.84	3.87	-46.0	-64.5	3.8	7.46e-01	0	62	104	418906112	62	32461
2026-01-26 11:00:16.74	350.79	3.80	-46.0	-64.5	3.8	7.46e-01	0	62	104	418906112	62	32444
