passes_logs/2026/01/26/R2.0S_Moscow/R2.0S_Moscow__20260126_080114_NOAA_20_JPSS-1_rec.log

#Pass ID: 20260126_080114_NOAA 20 (JPSS-1)
#Satellite: NOAA 20 (JPSS-1)
#Configuration: NOAA 20
#almurnet v.1.7.20251203
#Start time: 2026-01-26 08:01:14

#Version: 2.2.20231116
#Station: R2.0S_Moscow
#Location: 37.707566 lon 55.798166 lat
#TLE: 1 43013U 17073A   26025.83228772  .00000162  00000+0  97663-4 0  9996
#TLE: 2 43013  98.7646 326.6579 0001036  23.5840 336.5383 14.19540376424273

#Time	Az	El	Level	Level2	SNR	BER	BlckErr	Temp	State	Recorded	gain1	gain2
2026-01-26 08:01:14.97	104.46	2.05	-38.2	-53.7	3.9	1.49e+00	0	53	0	0	48	20806
2026-01-26 08:01:15.97	104.39	2.10	-39.4	-54.3	3.8	1.49e+00	0	53	104	0	48	22430
2026-01-26 08:01:16.98	104.31	2.16	-37.2	-53.6	3.8	1.49e+00	0	53	104	0	49	19613
2026-01-26 08:01:17.99	104.23	2.21	-39.6	-54.5	3.8	1.49e+00	0	53	104	0	50	20415
2026-01-26 08:01:19.00	104.15	2.27	-39.5	-54.6	3.8	1.49e+00	0	53	104	0	50	20643
2026-01-26 08:01:20.01	104.08	2.32	-39.9	-54.6	3.8	1.49e+00	0	53	104	0	50	20578
2026-01-26 08:01:21.02	104.00	2.38	-39.6	-54.5	3.8	1.49e+00	0	53	104	0	50	20532
2026-01-26 08:01:22.04	103.92	2.43	-39.8	-54.6	3.8	1.49e+00	0	53	104	0	50	20661
2026-01-26 08:01:23.05	103.84	2.49	-39.3	-54.3	3.9	1.49e+00	0	54	104	0	50	19987
2026-01-26 08:01:24.06	103.76	2.54	-38.7	-54.0	3.8	1.49e+00	0	53	104	0	49	20513
2026-01-26 08:01:25.07	103.68	2.60	-39.8	-54.6	3.8	1.49e+00	0	53	104	0	50	20548
2026-01-26 08:01:26.08	103.60	2.65	-40.0	-54.7	3.8	1.49e+00	0	54	104	0	50	20917
2026-01-26 08:01:27.09	103.52	2.71	-40.2	-54.5	3.9	1.49e+00	0	54	104	0	49	21744
2026-01-26 08:01:28.10	103.44	2.76	-40.0	-54.7	3.8	1.49e+00	0	54	104	0	50	20923
2026-01-26 08:01:29.11	103.36	2.82	-40.0	-54.7	3.8	1.49e+00	0	54	104	0	50	20855
2026-01-26 08:01:30.12	103.28	2.87	-40.0	-54.7	3.8	1.49e+00	0	54	104	0	50	20840
2026-01-26 08:01:31.13	103.20	2.93	-37.1	-53.9	3.6	1.49e+00	0	54	104	0	48	21283
2026-01-26 08:01:32.14	103.12	2.98	-37.9	-54.3	3.7	1.49e+00	0	54	104	0	47	23628
2026-01-26 08:01:33.15	103.04	3.04	-36.4	-53.2	4.0	1.49e+00	0	54	104	0	44	24949
2026-01-26 08:01:34.16	102.96	3.09	-40.1	-54.7	3.8	1.49e+00	0	54	104	0	50	20934
2026-01-26 08:01:35.17	102.88	3.15	-37.8	-53.6	3.7	1.49e+00	0	54	104	0	46	23076
2026-01-26 08:01:36.18	102.79	3.20	-40.1	-54.6	3.9	1.49e+00	0	54	104	0	50	20667
2026-01-26 08:01:37.19	102.71	3.26	-39.0	-54.5	3.8	1.49e+00	0	55	104	0	49	21644
2026-01-26 08:01:38.20	102.63	3.32	-37.6	-53.1	4.0	1.49e+00	0	54	104	0	45	23058
2026-01-26 08:01:39.21	102.54	3.37	-39.3	-54.5	3.8	1.49e+00	0	55	104	0	50	20424
2026-01-26 08:01:40.22	102.46	3.43	-40.1	-54.6	3.8	1.49e+00	0	55	104	0	50	20688
2026-01-26 08:01:41.23	102.38	3.48	-39.1	-54.0	3.8	1.49e+00	0	54	104	0	49	20370
2026-01-26 08:01:42.24	102.29	3.54	-39.8	-54.6	3.8	1.49e+00	0	55	104	0	50	20569
2026-01-26 08:01:43.26	102.21	3.60	-39.9	-54.7	3.8	1.49e+00	0	55	104	0	50	20837
2026-01-26 08:01:44.27	102.12	3.65	-39.9	-54.6	3.8	1.49e+00	0	55	104	0	50	20692
2026-01-26 08:01:45.27	102.04	3.71	-40.0	-54.7	3.8	1.49e+00	0	55	104	0	50	20917
2026-01-26 08:01:46.28	101.95	3.76	-40.5	-55.1	3.9	1.49e+00	0	55	104	0	50	21820
2026-01-26 08:01:47.30	101.86	3.82	-38.5	-54.1	3.8	1.49e+00	0	55	104	0	49	20560
2026-01-26 08:01:48.31	101.78	3.88	-40.0	-54.5	3.8	1.49e+00	0	55	104	0	50	20536
2026-01-26 08:01:49.32	101.69	3.93	-40.0	-54.7	3.8	1.49e+00	0	55	104	0	50	20992
2026-01-26 08:01:50.33	101.60	3.99	-39.5	-54.6	3.7	1.49e+00	0	55	104	0	50	20631
2026-01-26 08:01:51.34	101.52	4.04	-39.6	-54.3	3.8	1.49e+00	0	55	104	0	50	20052
2026-01-26 08:01:52.35	101.43	4.10	-40.0	-54.6	3.8	1.49e+00	0	55	104	0	50	20771
2026-01-26 08:01:53.36	101.34	4.16	-39.5	-53.9	3.8	1.49e+00	0	55	104	0	47	22609
2026-01-26 08:01:54.37	101.25	4.21	-38.2	-54.2	4.0	1.49e+00	0	55	104	0	48	22214
2026-01-26 08:01:55.38	101.16	4.27	-38.1	-53.5	3.5	1.49e+00	0	55	104	0	45	24209
2026-01-26 08:01:56.39	101.07	4.33	-38.8	-54.1	3.9	1.49e+00	0	56	104	0	44	27431
2026-01-26 08:01:57.40	100.98	4.38	-37.1	-53.9	4.0	1.49e+00	0	56	104	0	46	23931
2026-01-26 08:01:58.41	100.89	4.44	-39.1	-54.1	4.0	1.49e+00	0	56	104	0	48	21808
2026-01-26 08:01:59.42	100.80	4.50	-37.2	-53.6	3.7	1.49e+00	0	56	104	0	45	24513
2026-01-26 08:02:00.43	100.71	4.55	-36.2	-53.3	4.0	1.49e+00	0	56	104	0	48	20006
2026-01-26 08:02:01.44	100.62	4.61	-38.3	-53.7	3.8	1.49e+00	0	56	104	0	48	20940
2026-01-26 08:02:02.45	100.53	4.67	-39.4	-54.5	3.8	1.49e+00	0	56	104	0	50	20519
2026-01-26 08:02:03.46	100.44	4.73	-39.1	-54.3	3.9	1.49e+00	0	56	104	0	50	19880
2026-01-26 08:02:04.47	100.35	4.78	-36.5	-53.4	3.8	1.49e+00	0	56	104	0	48	20080
2026-01-26 08:02:05.48	100.26	4.84	-39.4	-54.5	3.8	1.49e+00	0	56	104	0	50	20435
2026-01-26 08:02:06.49	100.16	4.90	-39.5	-54.5	3.8	1.49e+00	0	56	104	0	50	20476
2026-01-26 08:02:07.50	100.07	4.95	-39.3	-54.0	3.8	1.49e+00	0	56	104	0	47	22869
2026-01-26 08:02:08.51	99.98	5.01	-39.5	-54.4	3.8	1.49e+00	0	56	104	0	49	21404
2026-01-26 08:02:09.53	99.88	5.07	-39.6	-54.5	3.8	1.49e+00	0	56	104	0	50	20498
2026-01-26 08:02:10.54	99.79	5.13	-39.0	-54.4	3.8	1.49e+00	0	56	104	0	50	20155
2026-01-26 08:02:11.55	99.69	5.18	-39.7	-54.3	3.7	1.49e+00	0	56	104	0	50	20071
2026-01-26 08:02:12.56	99.60	5.24	-39.6	-54.4	3.9	1.49e+00	0	56	104	0	50	20077
2026-01-26 08:02:13.57	99.50	5.30	-38.6	-54.4	3.8	1.49e+00	0	56	104	0	49	21335
2026-01-26 08:02:14.58	99.41	5.36	-39.3	-53.8	3.8	1.49e+00	0	56	104	0	49	19984
2026-01-26 08:02:15.59	99.31	5.41	-39.6	-54.9	3.7	1.49e+00	0	57	104	0	50	21313
2026-01-26 08:02:16.60	99.21	5.47	-39.3	-55.1	3.8	1.49e+00	0	56	104	0	50	21791
2026-01-26 08:02:17.61	99.12	5.53	-39.9	-54.6	3.9	1.49e+00	0	57	104	0	49	21785
2026-01-26 08:02:18.62	99.02	5.59	-39.5	-54.4	3.9	1.49e+00	0	57	104	0	48	22640
2026-01-26 08:02:19.63	98.92	5.64	-39.3	-54.5	3.8	1.49e+00	0	57	104	0	50	20390
2026-01-26 08:02:20.64	98.82	5.70	-38.4	-54.3	3.9	1.49e+00	0	57	104	0	49	21152
2026-01-26 08:02:21.65	98.72	5.76	-39.0	-54.1	3.9	1.49e+00	0	57	104	0	48	21758
2026-01-26 08:02:22.66	98.62	5.82	-39.2	-54.5	3.8	1.49e+00	0	57	104	0	48	22833
2026-01-26 08:02:23.67	98.52	5.88	-38.1	-53.7	3.9	1.49e+00	0	57	104	0	47	22080
2026-01-26 08:02:24.68	98.42	5.93	-38.3	-53.4	3.8	1.49e+00	0	57	104	0	48	20073
2026-01-26 08:02:25.69	98.32	5.99	-39.3	-54.0	3.9	1.49e+00	0	57	104	0	48	21589
2026-01-26 08:02:26.70	98.22	6.05	-36.7	-53.4	3.8	1.49e+00	0	57	104	0	45	23865
2026-01-26 08:02:27.71	98.12	6.11	-39.3	-54.3	3.8	1.49e+00	0	57	104	0	49	21068
2026-01-26 08:02:28.72	98.02	6.17	-39.6	-54.5	3.8	1.49e+00	0	57	104	0	50	20433
2026-01-26 08:02:29.73	97.92	6.23	-37.3	-53.7	3.8	1.49e+00	0	57	104	0	46	23406
2026-01-26 08:02:30.74	97.82	6.28	-38.9	-54.3	3.8	1.49e+00	0	57	104	0	49	21247
2026-01-26 08:02:31.75	97.71	6.34	-37.4	-53.7	3.7	1.49e+00	0	57	104	0	45	24752
2026-01-26 08:02:32.76	97.61	6.40	-37.2	-53.7	3.9	1.49e+00	0	57	104	0	46	23391
2026-01-26 08:02:33.77	97.51	6.46	-39.9	-54.5	3.9	1.49e+00	0	57	104	0	50	20425
2026-01-26 08:02:34.78	97.40	6.52	-40.0	-54.7	3.8	1.49e+00	0	57	104	0	50	20785
2026-01-26 08:02:35.79	97.30	6.58	-39.7	-54.4	3.8	1.49e+00	0	57	104	0	50	20271
2026-01-26 08:02:36.80	97.19	6.64	-39.1	-54.2	3.7	1.49e+00	0	57	104	0	48	22021
2026-01-26 08:02:37.82	97.09	6.69	-39.7	-54.6	3.7	1.49e+00	0	57	104	0	49	21984
2026-01-26 08:02:38.83	96.98	6.75	-39.3	-54.4	3.9	1.49e+00	0	58	104	0	49	21441
2026-01-26 08:02:39.84	96.88	6.81	-38.9	-53.7	3.9	1.49e+00	0	58	104	0	49	19830
2026-01-26 08:02:40.85	96.77	6.87	-39.5	-54.4	3.8	1.49e+00	0	58	104	0	49	21275
2026-01-26 08:02:41.86	96.66	6.93	-38.8	-54.2	3.9	1.49e+00	0	58	104	0	49	20890
2026-01-26 08:02:42.87	96.56	6.99	-39.9	-54.6	3.8	1.49e+00	0	58	104	0	50	20560
2026-01-26 08:02:43.88	96.45	7.05	-38.7	-54.3	3.8	1.49e+00	0	58	104	0	50	20038
2026-01-26 08:02:44.89	96.34	7.11	-38.2	-53.7	3.9	1.49e+00	0	58	104	0	47	22073
2026-01-26 08:02:45.90	96.23	7.17	-39.7	-54.5	3.8	1.49e+00	0	57	104	0	50	20494
2026-01-26 08:02:46.91	96.12	7.22	-39.2	-54.2	3.8	1.49e+00	0	58	104	0	49	20831
2026-01-26 08:02:47.92	96.01	7.28	-39.8	-54.6	3.8	1.49e+00	0	58	104	0	50	20569
2026-01-26 08:02:48.93	95.90	7.34	-39.1	-53.5	3.7	1.49e+00	0	58	104	0	47	21732
2026-01-26 08:02:49.94	95.79	7.40	-37.0	-54.1	3.8	1.49e+00	0	58	104	0	48	21874
2026-01-26 08:02:50.95	95.68	7.46	-39.0	-54.1	3.8	1.49e+00	0	58	104	0	48	21908
2026-01-26 08:02:51.96	95.57	7.52	-37.5	-54.4	3.8	1.49e+00	0	58	104	0	50	20261
2026-01-26 08:02:52.97	95.46	7.58	-38.2	-53.8	3.7	1.49e+00	0	58	104	0	47	22345
2026-01-26 08:02:53.98	95.34	7.64	-37.7	-53.7	4.0	1.49e+00	0	58	104	0	48	20813
2026-01-26 08:02:54.99	95.23	7.70	-38.9	-54.4	3.7	1.49e+00	0	58	104	0	46	25324
2026-01-26 08:02:56.00	95.12	7.76	-39.3	-54.2	4.0	1.49e+00	0	58	104	0	48	22112
2026-01-26 08:02:57.01	95.00	7.82	-40.0	-54.3	3.7	1.49e+00	0	58	104	0	50	19950
2026-01-26 08:02:58.02	94.89	7.88	-38.9	-53.6	3.8	1.49e+00	0	58	104	0	48	20551
2026-01-26 08:02:59.03	94.77	7.94	-39.9	-54.5	3.8	1.49e+00	0	58	104	0	50	20530
2026-01-26 08:03:00.04	94.66	8.00	-40.0	-54.6	3.8	1.49e+00	0	58	104	0	50	20713
2026-01-26 08:03:01.05	94.54	8.05	-40.0	-54.6	3.8	1.49e+00	0	58	104	0	50	20757
2026-01-26 08:03:02.06	94.43	8.11	-38.3	-54.4	3.7	1.49e+00	0	58	104	0	49	21439
2026-01-26 08:03:03.07	94.31	8.17	-37.6	-54.0	3.8	1.49e+00	0	58	104	0	46	24215
2026-01-26 08:03:04.09	94.19	8.23	-38.7	-54.2	3.8	1.49e+00	0	58	104	0	50	19791
2026-01-26 08:03:05.10	94.07	8.29	-40.4	-55.1	3.8	1.49e+00	0	58	104	0	51	20551
2026-01-26 08:03:06.11	93.95	8.35	-39.1	-54.3	3.9	1.49e+00	0	58	104	0	50	19897
2026-01-26 08:03:07.12	93.84	8.41	-39.8	-54.9	3.8	1.49e+00	0	58	104	0	50	21267
2026-01-26 08:03:08.13	93.72	8.47	-39.4	-54.8	3.8	1.49e+00	0	58	104	0	50	21127
2026-01-26 08:03:09.14	93.60	8.53	-38.6	-54.2	3.8	1.49e+00	0	58	104	0	49	20871
2026-01-26 08:03:10.15	93.48	8.59	-40.2	-54.9	3.8	1.49e+00	0	58	104	0	51	20102
2026-01-26 08:03:11.16	93.36	8.65	-38.5	-53.3	3.9	1.49e+00	0	59	104	0	47	21081
2026-01-26 08:03:12.17	93.23	8.71	-39.3	-54.7	3.8	1.49e+00	0	59	104	0	49	22026
2026-01-26 08:03:13.18	93.11	8.77	-38.9	-53.8	3.9	1.49e+00	0	59	104	0	47	22461
2026-01-26 08:03:14.19	92.99	8.83	-39.2	-54.4	3.8	1.49e+00	0	59	104	0	49	21298
2026-01-26 08:03:15.20	92.87	8.89	-39.9	-54.5	3.8	1.49e+00	0	59	104	0	50	20402
2026-01-26 08:03:16.21	92.74	8.95	-39.8	-54.5	3.8	1.49e+00	0	59	104	0	50	20438
2026-01-26 08:03:17.21	92.62	9.01	-40.0	-54.6	3.8	1.49e+00	0	59	104	0	50	20600
2026-01-26 08:03:18.22	92.50	9.07	-40.2	-54.7	3.8	1.49e+00	0	59	104	0	50	20817
2026-01-26 08:03:19.23	92.37	9.13	-40.3	-54.9	3.8	1.49e+00	0	59	104	0	51	20190
2026-01-26 08:03:20.24	92.25	9.19	-40.9	-55.5	3.8	1.49e+00	0	59	104	0	52	20518
2026-01-26 08:03:21.25	92.12	9.25	-40.2	-55.0	3.7	1.49e+00	0	59	104	0	51	20323
2026-01-26 08:03:22.26	92.00	9.31	-39.8	-54.8	3.9	1.49e+00	0	59	104	0	51	19857
2026-01-26 08:03:23.27	91.87	9.37	-40.3	-54.8	3.8	1.49e+00	0	59	104	0	51	20006
2026-01-26 08:03:24.28	91.74	9.43	-40.3	-55.1	3.7	1.49e+00	0	59	104	0	51	20583
2026-01-26 08:03:25.29	91.61	9.49	-40.3	-54.9	3.8	1.49e+00	0	59	104	0	51	20093
2026-01-26 08:03:26.30	91.48	9.55	-40.2	-54.8	3.8	1.49e+00	0	59	104	0	51	19880
2026-01-26 08:03:27.31	91.36	9.61	-39.0	-54.5	3.8	1.49e+00	0	59	104	0	48	22966
2026-01-26 08:03:28.32	91.23	9.67	-40.6	-54.1	3.8	1.49e+00	0	59	104	0	51	18400
2026-01-26 08:03:29.33	91.10	9.73	-41.3	-54.7	3.8	1.49e+00	0	59	104	0	53	17548
2026-01-26 08:03:30.34	90.96	9.79	-40.6	-54.5	3.8	1.49e+00	0	59	104	0	51	19300
2026-01-26 08:03:31.35	90.83	9.85	-40.7	-54.4	3.8	1.49e+00	0	59	104	0	52	18054
2026-01-26 08:03:32.36	90.70	9.91	-40.9	-54.5	3.7	1.49e+00	0	59	104	0	51	19388
2026-01-26 08:03:33.37	90.57	9.97	-40.9	-54.8	3.8	1.49e+00	0	59	104	0	52	18856
2026-01-26 08:03:34.38	90.44	10.03	-40.9	-55.1	3.8	1.49e+00	0	59	104	0	52	19581
2026-01-26 08:03:35.39	90.30	10.09	-40.9	-54.9	3.8	1.49e+00	0	59	104	0	52	18979
2026-01-26 08:03:36.40	90.17	10.15	-40.8	-54.8	3.8	1.49e+00	0	59	104	0	52	18837
2026-01-26 08:03:37.41	90.03	10.21	-41.2	-55.4	3.8	1.49e+00	0	59	104	0	53	19136
2026-01-26 08:03:38.42	89.90	10.27	-39.9	-55.0	3.8	1.49e+00	0	59	104	0	51	20407
2026-01-26 08:03:39.43	89.76	10.33	-40.2	-55.0	3.8	1.49e+00	0	59	104	0	51	20499
2026-01-26 08:03:40.44	89.63	10.39	-40.5	-55.1	3.8	1.49e+00	0	59	104	0	51	20610
2026-01-26 08:03:41.45	89.49	10.45	-40.5	-55.1	3.8	1.49e+00	0	59	104	0	51	20632
2026-01-26 08:03:42.46	89.35	10.51	-40.6	-55.2	3.8	1.49e+00	0	59	104	0	51	20883
2026-01-26 08:03:43.47	89.22	10.57	-40.9	-55.5	3.8	1.49e+00	0	59	104	0	52	20322
2026-01-26 08:03:44.48	89.08	10.63	-40.9	-55.6	3.8	1.49e+00	0	59	104	0	52	20576
2026-01-26 08:03:45.49	88.94	10.69	-40.5	-55.2	3.8	1.49e+00	0	59	104	0	52	19714
2026-01-26 08:03:46.50	88.80	10.75	-40.6	-55.2	3.8	1.49e+00	0	60	104	0	52	19668
2026-01-26 08:03:47.51	88.66	10.81	-40.6	-55.2	3.8	1.49e+00	0	59	104	0	51	20819
2026-01-26 08:03:48.52	88.52	10.87	-39.2	-54.9	3.7	1.49e+00	0	59	104	0	50	21268
2026-01-26 08:03:49.53	88.38	10.93	-40.5	-55.2	3.8	1.49e+00	0	59	104	0	51	20944
2026-01-26 08:03:50.54	88.23	10.99	-40.7	-55.2	3.8	1.49e+00	0	59	104	0	51	20941
2026-01-26 08:03:51.55	88.09	11.05	-40.0	-55.3	3.9	1.49e+00	0	60	104	0	51	21146
2026-01-26 08:03:52.57	87.95	11.11	-40.7	-55.3	3.9	1.49e+00	0	59	104	0	52	20042
2026-01-26 08:03:53.58	87.80	11.17	-40.7	-55.3	3.8	1.49e+00	0	60	104	0	52	19974
2026-01-26 08:03:54.59	87.66	11.23	-40.7	-55.3	3.8	1.49e+00	0	60	104	0	52	19923
2026-01-26 08:03:55.60	87.51	11.29	-40.6	-55.3	3.8	1.49e+00	0	59	104	0	51	21119
2026-01-26 08:03:56.60	87.37	11.35	-40.6	-55.2	3.8	1.49e+00	0	60	104	0	51	20989
2026-01-26 08:03:57.61	87.22	11.41	-40.6	-55.2	3.8	1.49e+00	0	59	104	0	51	20995
2026-01-26 08:03:58.62	87.08	11.47	-40.6	-55.2	3.8	1.49e+00	0	60	104	0	51	20999
2026-01-26 08:03:59.63	86.93	11.52	-40.6	-55.3	3.8	1.49e+00	0	60	104	0	51	21030
2026-01-26 08:04:00.64	86.78	11.58	-40.7	-55.3	3.8	1.49e+00	0	60	104	0	52	20004
2026-01-26 08:04:01.65	86.63	11.64	-40.5	-55.2	3.8	1.49e+00	0	60	104	0	52	19646
2026-01-26 08:04:02.66	86.48	11.70	-40.1	-55.1	3.9	1.49e+00	0	60	104	0	51	20616
2026-01-26 08:04:03.68	86.33	11.76	-40.6	-55.3	3.8	1.49e+00	0	60	104	0	51	21047
2026-01-26 08:04:04.69	86.18	11.82	-40.8	-55.4	3.8	1.49e+00	0	60	104	0	52	20230
2026-01-26 08:04:05.70	86.03	11.88	-40.5	-55.1	3.8	1.49e+00	0	60	104	0	52	19443
2026-01-26 08:04:06.71	85.88	11.94	-40.4	-55.0	3.8	1.49e+00	0	60	104	0	51	20536
2026-01-26 08:04:07.72	85.73	12.00	-40.6	-55.2	3.8	1.49e+00	0	60	104	0	51	20987
2026-01-26 08:04:08.73	85.57	12.06	-40.6	-55.3	3.8	1.49e+00	0	60	104	0	52	19871
2026-01-26 08:04:09.74	85.42	12.12	-40.2	-55.0	3.8	1.49e+00	0	60	104	0	51	20418
2026-01-26 08:04:10.75	85.27	12.18	-40.4	-55.0	3.8	1.49e+00	0	60	104	0	51	20407
2026-01-26 08:04:11.76	85.11	12.24	-40.5	-55.1	3.8	1.49e+00	0	60	104	0	51	20685
2026-01-26 08:04:12.77	84.96	12.29	-40.6	-55.2	3.8	1.49e+00	0	60	104	0	51	20943
2026-01-26 08:04:13.78	84.80	12.35	-40.3	-54.9	3.8	1.49e+00	0	60	104	0	52	19076
2026-01-26 08:04:14.79	84.64	12.41	-40.5	-55.1	3.8	1.49e+00	0	60	104	0	51	20579
2026-01-26 08:04:15.80	84.49	12.47	-40.4	-55.0	3.8	1.49e+00	0	60	104	0	51	20448
2026-01-26 08:04:16.81	84.33	12.53	-40.7	-55.3	3.8	1.49e+00	0	60	104	0	51	21151
2026-01-26 08:04:17.82	84.17	12.59	-40.3	-54.9	3.8	1.49e+00	0	60	104	0	52	19142
2026-01-26 08:04:18.82	84.01	12.65	-40.5	-55.1	3.8	1.49e+00	0	60	104	0	51	20667
2026-01-26 08:04:19.84	83.85	12.70	-40.5	-55.1	3.8	1.49e+00	0	60	104	0	51	20549
2026-01-26 08:04:20.84	83.69	12.76	-40.9	-55.4	3.8	1.49e+00	0	60	104	0	52	20163
2026-01-26 08:04:21.85	83.53	12.82	-40.2	-54.9	3.8	1.49e+00	0	60	104	0	52	19158
2026-01-26 08:04:22.86	83.37	12.88	-40.3	-54.9	3.8	1.49e+00	0	60	104	0	52	19042
2026-01-26 08:04:23.87	83.21	12.94	-40.4	-55.0	3.8	1.49e+00	0	60	104	0	51	20384
2026-01-26 08:04:24.88	83.04	12.99	-40.3	-55.0	3.8	1.49e+00	0	60	104	0	51	20381
2026-01-26 08:04:25.89	82.88	13.05	-40.4	-55.0	3.8	1.49e+00	0	60	104	0	51	20411
2026-01-26 08:04:26.90	82.71	13.11	-40.3	-55.0	3.8	1.49e+00	0	60	104	0	51	20395
2026-01-26 08:04:27.91	82.55	13.17	-40.9	-55.4	3.8	1.49e+00	0	60	104	0	52	20085
2026-01-26 08:04:28.91	82.39	13.22	-40.8	-55.3	3.8	1.49e+00	0	60	104	0	52	20046
2026-01-26 08:04:29.92	82.22	13.28	-40.5	-55.1	3.8	1.49e+00	0	60	104	0	52	19425
2026-01-26 08:04:30.93	82.05	13.34	-41.2	-55.4	3.8	1.49e+00	0	60	104	0	52	20157
2026-01-26 08:04:31.95	81.88	13.40	-40.3	-55.1	3.8	1.49e+00	0	60	104	0	52	19440
2026-01-26 08:04:32.96	81.72	13.45	-40.8	-55.4	3.8	1.49e+00	0	60	104	0	52	20085
2026-01-26 08:04:33.97	81.55	13.51	-40.6	-55.1	3.8	1.49e+00	0	60	104	0	52	19555
2026-01-26 08:04:34.98	81.38	13.57	-41.5	-55.6	3.8	1.49e+00	0	60	104	0	53	19493
2026-01-26 08:04:35.99	81.21	13.62	-40.5	-55.0	3.8	1.49e+00	0	60	104	0	52	19371
2026-01-26 08:04:37.00	81.04	13.68	-41.0	-55.3	3.8	1.49e+00	0	60	104	0	52	19951
2026-01-26 08:04:38.01	80.86	13.74	-40.8	-55.4	3.8	1.49e+00	0	60	104	0	52	20118
2026-01-26 08:04:39.02	80.69	13.79	-40.9	-54.9	3.8	1.49e+00	0	60	104	0	52	19013
2026-01-26 08:04:40.03	80.52	13.85	-40.9	-53.7	3.8	1.49e+00	0	60	104	0	52	16643
2026-01-26 08:04:41.04	80.35	13.91	-40.8	-53.1	3.8	1.48e+00	0	60	104	0	52	15462
2026-01-26 08:04:42.05	80.17	13.96	-40.9	-53.2	4.0	1.47e+00	0	60	104	0	52	15629
2026-01-26 08:04:43.07	80.00	14.02	-40.9	-55.4	3.8	1.49e+00	0	60	104	0	52	20125
2026-01-26 08:04:44.08	79.82	14.07	-41.2	-52.4	4.2	1.18e+00	0	60	0	0	53	13455
2026-01-26 08:04:45.09	79.64	14.13	-42.0	-55.2	3.8	1.43e+00	0	60	104	0	54	17550
2026-01-26 08:04:46.10	79.47	14.18	-40.7	-54.7	3.8	1.27e+00	0	60	104	0	53	17543
2026-01-26 08:04:47.10	79.29	14.24	-40.9	-51.0	4.6	1.37e+00	0	60	104	0	53	11468
2026-01-26 08:04:48.11	79.11	14.29	-40.8	-49.8	5.3	6.55e-01	0	61	0	1048576	53	9976
2026-01-26 08:04:49.12	78.93	14.35	-40.8	-49.0	5.9	4.66e-01	0	60	0	3145728	53	9149
2026-01-26 08:04:50.13	78.75	14.40	-40.7	-48.5	6.3	2.83e-01	0	61	0	5242880	53	8614
2026-01-26 08:04:51.14	78.57	14.46	-40.7	-48.3	6.5	2.43e-01	0	61	0	7340032	53	8394
2026-01-26 08:04:52.15	78.39	14.51	-40.5	-47.5	7.3	1.83e-01	0	60	0	8388608	53	7648
2026-01-26 08:04:53.16	78.21	14.57	-41.2	-50.4	5.1	6.25e-01	0	60	0	10485760	53	10685
2026-01-26 08:04:54.17	78.03	14.62	-40.9	-49.8	5.3	6.44e-01	0	60	0	12582912	53	10035
2026-01-26 08:04:55.18	77.85	14.68	-41.1	-50.5	5.0	1.50e-01	0	61	0	14680064	52	11511
2026-01-26 08:04:56.19	77.66	14.73	-41.4	-51.2	4.7	9.51e-01	0	60	0	15728640	53	11812
2026-01-26 08:04:57.20	77.48	14.78	-40.9	-52.8	3.9	1.04e+00	0	61	104	17825792	52	15039
2026-01-26 08:04:58.21	77.29	14.84	-40.5	-47.4	7.4	2.58e-01	0	61	0	18874368	52	8065
2026-01-26 08:04:59.22	77.11	14.89	-40.5	-47.5	7.2	1.28e-01	0	60	0	20971520	52	8152
2026-01-26 08:05:00.24	76.92	14.94	-40.6	-48.0	6.8	1.73e-01	0	61	0	22020096	52	8601
2026-01-26 08:05:01.24	76.74	15.00	-40.6	-48.1	6.7	1.94e-01	0	60	0	24117248	52	8716
2026-01-26 08:05:02.26	76.55	15.05	-40.6	-47.8	7.0	1.75e-01	0	61	0	26214400	52	8443
2026-01-26 08:05:03.26	76.36	15.10	-40.6	-47.7	7.1	1.39e-01	0	61	0	28311552	52	8346
2026-01-26 08:05:04.27	76.17	15.15	-41.6	-53.5	3.9	1.14e+00	0	61	104	29360128	53	15269
2026-01-26 08:05:05.28	75.98	15.20	-41.2	-50.3	5.0	1.48e+00	0	61	0	29360128	53	10580
2026-01-26 08:05:06.29	75.79	15.26	-41.1	-53.6	3.8	1.48e+00	0	61	104	30408704	53	15426
2026-01-26 08:05:07.31	75.60	15.31	-40.8	-50.1	5.0	1.09e+00	0	61	0	30408704	53	10320
2026-01-26 08:05:08.31	75.41	15.36	-41.3	-54.3	3.8	1.08e+00	0	61	104	31457280	53	16714
2026-01-26 08:05:09.33	75.22	15.41	-40.7	-50.0	5.2	6.53e-01	0	61	0	31457280	53	10203
2026-01-26 08:05:10.34	75.02	15.46	-40.7	-49.7	5.3	5.74e-01	0	61	0	33554432	53	9942
2026-01-26 08:05:11.34	74.83	15.51	-40.7	-49.8	5.2	5.83e-01	0	61	0	35651584	53	10002
2026-01-26 08:05:12.35	74.64	15.56	-40.7	-49.7	5.4	5.70e-01	0	61	0	37748736	53	9866
2026-01-26 08:05:13.37	74.44	15.61	-40.8	-49.7	5.4	5.25e-01	0	61	0	39845888	53	9901
2026-01-26 08:05:14.38	74.25	15.66	-41.0	-50.1	5.3	5.00e-01	0	61	0	40894464	53	10375
2026-01-26 08:05:15.38	74.05	15.71	-41.3	-52.2	4.3	1.06e+00	90	61	0	42991616	53	13149
2026-01-26 08:05:16.39	73.85	15.76	-41.1	-50.3	4.8	1.46e+00	0	61	104	42991616	53	10623
2026-01-26 08:05:17.40	73.66	15.81	-41.5	-52.9	4.1	1.20e+00	0	61	104	42991616	53	14356
2026-01-26 08:05:18.41	73.46	15.86	-41.1	-49.8	5.4	1.44e+00	0	61	104	42991616	53	10044
2026-01-26 08:05:19.42	73.26	15.91	-41.1	-50.0	5.3	7.76e-01	0	61	0	44040192	52	10846
2026-01-26 08:05:20.43	73.06	15.96	-40.9	-48.6	6.4	2.46e-01	0	61	0	46137344	52	9238
2026-01-26 08:05:21.44	72.86	16.01	-40.9	-48.7	6.3	2.66e-01	0	61	0	48234496	52	9303
2026-01-26 08:05:22.45	72.66	16.06	-40.8	-48.5	6.5	2.44e-01	0	61	0	50331648	52	9083
2026-01-26 08:05:23.46	72.46	16.10	-40.7	-48.2	6.7	2.05e-01	0	61	0	51380224	52	8786
2026-01-26 08:05:24.47	72.26	16.15	-40.6	-48.1	6.8	1.86e-01	0	61	0	53477376	52	8677
2026-01-26 08:05:25.48	72.05	16.20	-40.7	-48.5	6.4	2.30e-01	0	61	0	55574528	52	9095
2026-01-26 08:05:26.49	71.85	16.25	-40.9	-49.3	5.9	3.32e-01	0	61	0	57671680	52	9954
2026-01-26 08:05:27.50	71.65	16.29	-40.8	-48.7	6.4	1.36e+00	0	61	104	58720256	53	8779
2026-01-26 08:05:28.51	71.44	16.34	-41.3	-51.1	4.6	1.32e+00	2	61	0	58720256	53	11566
2026-01-26 08:05:29.52	71.24	16.39	-40.8	-48.0	7.1	4.37e-01	0	61	0	59768832	53	8095
2026-01-26 08:05:30.53	71.03	16.43	-41.1	-50.2	5.1	1.42e+00	0	61	104	60817408	53	10512
2026-01-26 08:05:31.54	70.82	16.48	-40.8	-48.0	7.1	2.37e-01	0	61	0	61865984	53	8153
2026-01-26 08:05:32.54	70.62	16.52	-40.8	-47.3	7.9	8.98e-02	0	61	0	63963136	53	7489
2026-01-26 08:05:33.56	70.41	16.57	-40.8	-46.8	8.6	4.89e-02	0	61	0	66060288	53	7060
2026-01-26 08:05:34.57	70.20	16.61	-40.8	-46.5	9.1	3.24e-02	0	61	0	68157440	53	6816
2026-01-26 08:05:35.58	69.99	16.66	-40.9	-46.3	9.4	1.52e-02	0	61	0	69206016	53	6700
2026-01-26 08:05:36.59	69.78	16.70	-41.0	-46.4	9.4	1.59e-02	0	61	0	71303168	53	6800
2026-01-26 08:05:37.60	69.57	16.75	-40.9	-46.1	9.9	1.27e-02	0	61	0	73400320	53	6551
2026-01-26 08:05:38.61	69.36	16.79	-41.0	-46.1	10.0	8.18e-03	0	61	0	75497472	53	6545
2026-01-26 08:05:39.62	69.15	16.83	-41.1	-46.2	10.1	7.58e-03	0	61	0	77594624	53	6573
2026-01-26 08:05:40.63	68.94	16.87	-41.1	-46.0	10.4	6.66e-03	0	61	0	78643200	53	6483
2026-01-26 08:05:41.64	68.73	16.92	-41.0	-45.5	10.9	2.84e-03	0	61	0	80740352	53	6121
2026-01-26 08:05:42.65	68.51	16.96	-40.9	-45.2	11.4	1.50e-03	0	61	0	82837504	53	5901
2026-01-26 08:05:43.66	68.30	17.00	-40.9	-45.1	11.5	9.36e-04	0	61	0	84934656	53	5827
2026-01-26 08:05:44.67	68.08	17.04	-41.0	-45.2	11.6	7.54e-04	0	61	0	87031808	53	5863
2026-01-26 08:05:45.68	67.87	17.08	-41.0	-45.2	11.6	7.21e-04	0	61	0	88080384	53	5885
2026-01-26 08:05:46.69	67.65	17.13	-41.1	-45.2	11.7	6.64e-04	0	61	0	90177536	53	5897
2026-01-26 08:05:47.70	67.44	17.17	-41.1	-45.2	11.8	5.74e-04	0	61	0	92274688	53	5863
2026-01-26 08:05:48.71	67.22	17.21	-41.1	-45.1	12.0	4.32e-04	0	61	0	94371840	53	5792
2026-01-26 08:05:49.72	67.00	17.25	-41.0	-44.9	12.3	2.23e-04	0	61	0	96468992	53	5670
2026-01-26 08:05:50.73	66.79	17.29	-41.0	-44.7	12.5	1.51e-04	0	61	0	98566144	53	5556
2026-01-26 08:05:51.74	66.57	17.32	-41.0	-44.7	12.6	9.76e-05	0	61	0	99614720	53	5558
2026-01-26 08:05:52.75	66.35	17.36	-41.0	-44.7	12.6	9.38e-05	0	61	0	101711872	53	5586
2026-01-26 08:05:53.76	66.13	17.40	-41.0	-44.7	12.7	7.78e-05	0	61	0	103809024	53	5577
2026-01-26 08:05:54.77	65.91	17.44	-41.0	-44.7	12.8	7.85e-05	0	61	0	105906176	53	5556
2026-01-26 08:05:55.78	65.69	17.48	-41.0	-44.6	12.8	7.47e-05	0	61	0	108003328	53	5515
2026-01-26 08:05:56.79	65.47	17.51	-41.1	-44.7	12.8	4.73e-05	0	61	0	109051904	53	5543
2026-01-26 08:05:57.80	65.24	17.55	-41.0	-44.6	12.9	4.50e-05	0	61	0	111149056	53	5515
2026-01-26 08:05:58.81	65.02	17.59	-41.1	-44.7	12.8	4.42e-05	0	61	0	113246208	53	5576
2026-01-26 08:05:59.82	64.80	17.62	-41.1	-44.8	12.8	5.87e-05	0	61	0	115343360	53	5618
2026-01-26 08:06:00.83	64.58	17.66	-41.2	-44.9	12.7	6.48e-05	0	61	0	117440512	53	5670
2026-01-26 08:06:01.84	64.35	17.69	-41.2	-44.9	12.7	8.08e-05	0	61	0	118489088	53	5708
2026-01-26 08:06:02.85	64.13	17.73	-41.3	-45.0	12.6	8.62e-05	0	61	0	120586240	53	5747
2026-01-26 08:06:03.86	63.90	17.76	-41.2	-44.8	12.8	6.48e-05	0	61	0	122683392	53	5599
2026-01-26 08:06:04.87	63.68	17.80	-41.2	-44.9	12.8	6.25e-05	0	61	0	124780544	53	5677
2026-01-26 08:06:05.88	63.45	17.83	-41.2	-44.8	12.9	5.79e-05	0	61	0	126877696	53	5606
2026-01-26 08:06:06.89	63.23	17.87	-41.2	-44.7	12.9	4.57e-05	0	61	0	127926272	53	5588
2026-01-26 08:06:07.90	63.00	17.90	-41.1	-44.5	13.1	3.20e-05	0	61	0	130023424	53	5462
2026-01-26 08:06:08.91	62.77	17.93	-41.1	-44.5	13.1	2.21e-05	0	61	0	132120576	53	5459
2026-01-26 08:06:09.92	62.54	17.96	-41.1	-44.7	13.0	2.74e-05	0	61	0	134217728	53	5535
2026-01-26 08:06:10.93	62.31	17.99	-41.2	-44.7	13.0	3.73e-05	0	61	0	136314880	53	5551
2026-01-26 08:06:11.94	62.09	18.03	-41.2	-44.8	12.9	3.28e-05	0	61	0	137363456	53	5631
2026-01-26 08:06:12.95	61.86	18.06	-41.2	-44.8	12.9	5.26e-05	0	61	0	139460608	53	5645
2026-01-26 08:06:13.96	61.63	18.09	-41.2	-44.8	12.9	5.18e-05	0	61	0	141557760	53	5643
2026-01-26 08:06:14.97	61.40	18.12	-41.3	-44.9	12.8	4.65e-05	0	61	0	143654912	53	5704
2026-01-26 08:06:15.98	61.17	18.15	-41.4	-45.1	12.6	5.79e-05	0	61	0	145752064	53	5811
2026-01-26 08:06:16.99	60.93	18.17	-41.4	-45.1	12.6	8.46e-05	0	61	0	146800640	53	5846
2026-01-26 08:06:18.00	60.70	18.20	-41.4	-45.2	12.5	1.04e-04	0	61	0	148897792	53	5885
2026-01-26 08:06:19.01	60.47	18.23	-41.5	-45.3	12.5	1.14e-04	0	61	0	150994944	53	5944
2026-01-26 08:06:20.02	60.24	18.26	-41.6	-45.5	12.3	1.63e-04	0	61	0	153092096	53	6070
2026-01-26 08:06:21.03	60.01	18.29	-41.7	-45.7	12.1	2.46e-04	0	61	0	155189248	53	6211
2026-01-26 08:06:22.04	59.77	18.31	-41.8	-45.8	12.0	3.35e-04	0	61	0	156237824	54	5965
2026-01-26 08:06:23.05	59.54	18.34	-41.7	-45.7	12.1	3.39e-04	0	61	0	158334976	54	5861
2026-01-26 08:06:24.06	59.30	18.36	-41.7	-45.6	12.2	2.40e-04	0	61	0	160432128	54	5803
2026-01-26 08:06:25.07	59.07	18.39	-41.7	-45.6	12.2	2.23e-04	0	61	0	162529280	54	5841
2026-01-26 08:06:26.08	58.83	18.41	-41.7	-45.6	12.1	2.72e-04	0	61	0	164626432	54	5834
2026-01-26 08:06:27.09	58.60	18.44	-41.7	-45.6	12.1	2.59e-04	0	61	0	166723584	54	5849
2026-01-26 08:06:28.10	58.36	18.46	-41.7	-45.6	12.2	2.67e-04	0	61	0	167772160	54	5830
2026-01-26 08:06:29.11	58.13	18.49	-41.7	-45.6	12.1	2.68e-04	0	61	0	169869312	54	5852
2026-01-26 08:06:30.12	57.89	18.51	-41.7	-45.5	12.3	2.44e-04	0	61	0	171966464	54	5774
2026-01-26 08:06:31.13	57.65	18.53	-41.7	-45.7	12.1	2.22e-04	0	61	0	174063616	54	5881
2026-01-26 08:06:32.14	57.42	18.55	-41.8	-45.7	12.1	2.84e-04	0	61	0	176160768	54	5920
2026-01-26 08:06:33.15	57.18	18.57	-41.8	-45.8	12.0	3.38e-04	0	61	0	177209344	54	5987
2026-01-26 08:06:34.16	56.94	18.60	-41.8	-45.8	12.0	2.85e-04	0	61	0	179306496	54	5950
2026-01-26 08:06:35.17	56.70	18.62	-41.8	-45.9	11.9	3.39e-04	0	61	0	181403648	54	6042
2026-01-26 08:06:36.18	56.47	18.64	-41.9	-46.0	11.8	3.99e-04	0	61	0	183500800	54	6086
2026-01-26 08:06:37.19	56.23	18.65	-42.0	-46.2	11.6	6.31e-04	0	62	0	185597952	54	6207
2026-01-26 08:06:38.20	55.99	18.67	-42.0	-46.1	11.7	5.61e-04	0	61	0	186646528	54	6194
2026-01-26 08:06:39.21	55.75	18.69	-42.0	-46.2	11.6	6.55e-04	0	61	0	188743680	54	6205
2026-01-26 08:06:40.22	55.51	18.71	-42.0	-46.2	11.6	6.84e-04	0	62	0	190840832	54	6236
2026-01-26 08:06:41.23	55.27	18.73	-42.0	-46.3	11.5	7.41e-04	0	61	0	192937984	54	6295
2026-01-26 08:06:42.24	55.03	18.74	-42.0	-46.2	11.6	8.45e-04	0	62	0	195035136	54	6273
2026-01-26 08:06:43.25	54.79	18.76	-41.9	-46.1	11.7	6.26e-04	0	61	0	196083712	54	6136
2026-01-26 08:06:44.26	54.55	18.78	-41.9	-45.9	11.9	4.52e-04	0	61	0	198180864	54	6059
2026-01-26 08:06:45.27	54.31	18.79	-41.9	-45.9	11.9	4.34e-04	0	61	0	200278016	54	6036
2026-01-26 08:06:46.28	54.07	18.81	-41.8	-45.9	12.0	3.98e-04	0	62	0	202375168	54	6011
2026-01-26 08:06:47.29	53.83	18.82	-41.9	-46.0	11.9	4.21e-04	0	61	0	204472320	54	6076
2026-01-26 08:06:48.30	53.58	18.84	-41.9	-46.1	11.7	4.05e-04	0	62	0	205520896	54	6161
2026-01-26 08:06:49.31	53.34	18.85	-41.9	-46.1	11.8	5.34e-04	0	62	0	207618048	54	6154
2026-01-26 08:06:50.32	53.10	18.86	-41.9	-46.1	11.8	4.97e-04	0	61	0	209715200	54	6133
2026-01-26 08:06:51.33	52.86	18.87	-41.9	-45.9	11.9	4.52e-04	0	61	0	211812352	54	6056
2026-01-26 08:06:52.34	52.62	18.89	-41.9	-46.0	11.8	4.03e-04	0	61	0	213909504	54	6126
2026-01-26 08:06:53.35	52.37	18.90	-41.9	-46.1	11.8	5.48e-04	0	61	0	214958080	54	6156
2026-01-26 08:06:54.36	52.13	18.91	-41.9	-46.1	11.8	5.26e-04	0	61	0	217055232	54	6138
2026-01-26 08:06:55.37	51.89	18.92	-41.9	-46.0	11.8	4.90e-04	0	61	0	219152384	54	6113
2026-01-26 08:06:56.38	51.65	18.93	-41.8	-45.8	12.0	3.50e-04	0	62	0	221249536	54	5988
2026-01-26 08:06:57.39	51.40	18.94	-41.8	-45.8	12.1	3.32e-04	0	62	0	223346688	54	5929
2026-01-26 08:06:58.40	51.16	18.94	-41.8	-45.8	12.0	3.06e-04	0	61	0	224395264	54	5986
2026-01-26 08:06:59.41	50.92	18.95	-41.9	-45.9	12.0	3.13e-04	0	61	0	226492416	54	6027
2026-01-26 08:07:00.42	50.67	18.96	-41.8	-45.8	12.1	2.92e-04	0	61	0	228589568	54	5968
2026-01-26 08:07:01.43	50.43	18.97	-41.8	-45.9	12.0	2.97e-04	0	61	0	230686720	54	6006
2026-01-26 08:07:02.44	50.18	18.97	-41.8	-45.7	12.2	2.84e-04	0	61	0	232783872	54	5890
2026-01-26 08:07:03.45	49.94	18.98	-41.8	-45.8	12.2	2.53e-04	0	62	0	234881024	54	5925
2026-01-26 08:07:04.46	49.70	18.99	-41.9	-45.9	12.0	2.83e-04	0	62	0	235929600	54	6030
2026-01-26 08:07:05.47	49.45	18.99	-41.9	-46.1	11.8	3.79e-04	0	61	0	238026752	54	6138
2026-01-26 08:07:06.48	49.21	18.99	-42.0	-46.2	11.7	5.26e-04	0	62	0	240123904	54	6216
2026-01-26 08:07:07.49	48.96	19.00	-42.0	-46.2	11.7	5.89e-04	0	61	0	242221056	54	6246
2026-01-26 08:07:08.50	48.72	19.00	-41.9	-45.9	11.9	5.68e-04	0	62	0	244318208	54	6059
2026-01-26 08:07:09.51	48.48	19.00	-41.8	-45.8	12.1	3.11e-04	0	61	0	245366784	54	5979
2026-01-26 08:07:10.52	48.23	19.01	-41.8	-45.7	12.2	2.47e-04	0	61	0	247463936	54	5866
2026-01-26 08:07:11.53	47.99	19.01	-41.7	-45.5	12.4	2.04e-04	0	62	0	249561088	54	5753
2026-01-26 08:07:12.54	47.74	19.01	-41.6	-45.4	12.5	1.42e-04	0	61	0	251658240	54	5696
2026-01-26 08:07:13.55	47.50	19.01	-41.6	-45.4	12.5	1.26e-04	0	62	0	253755392	54	5704
2026-01-26 08:07:14.56	47.26	19.01	-41.6	-45.4	12.5	1.17e-04	0	62	0	254803968	54	5689
2026-01-26 08:07:15.57	47.01	19.01	-41.5	-45.2	12.6	1.12e-04	0	61	0	256901120	54	5577
2026-01-26 08:07:16.58	46.77	19.01	-41.5	-45.2	12.7	8.23e-05	0	61	0	258998272	54	5577
2026-01-26 08:07:17.59	46.52	19.01	-41.6	-45.3	12.6	7.09e-05	0	62	0	261095424	54	5600
2026-01-26 08:07:18.60	46.28	19.00	-41.6	-45.4	12.5	8.31e-05	0	62	0	263192576	54	5690
2026-01-26 08:07:19.61	46.03	19.00	-41.6	-45.4	12.5	1.25e-04	0	62	0	264241152	54	5685
2026-01-26 08:07:20.63	45.79	19.00	-41.7	-45.4	12.5	1.08e-04	0	62	0	266338304	54	5718
2026-01-26 08:07:21.64	45.54	18.99	-41.6	-45.3	12.7	1.11e-04	0	62	0	268435456	54	5609
2026-01-26 08:07:22.65	45.30	18.99	-41.5	-45.1	12.8	5.95e-05	0	62	0	270532608	54	5470
2026-01-26 08:07:23.66	45.06	18.98	-41.4	-45.0	12.9	5.72e-05	0	62	0	272629760	54	5450
2026-01-26 08:07:24.67	44.81	18.98	-41.4	-45.0	13.0	3.43e-05	0	62	0	273678336	54	5403
2026-01-26 08:07:25.68	44.57	18.97	-41.4	-45.0	12.9	3.58e-05	0	61	0	275775488	54	5437
2026-01-26 08:07:26.69	44.32	18.97	-41.4	-44.9	13.0	4.11e-05	0	62	0	277872640	54	5386
2026-01-26 08:07:27.69	44.08	18.96	-41.3	-44.8	13.1	2.74e-05	0	62	0	279969792	54	5323
2026-01-26 08:07:28.70	43.84	18.95	-41.4	-44.9	13.1	3.28e-05	0	62	0	282066944	54	5343
2026-01-26 08:07:29.71	43.60	18.94	-41.4	-44.9	13.0	3.58e-05	0	62	0	283115520	54	5358
2026-01-26 08:07:30.72	43.35	18.93	-41.4	-45.0	13.0	3.81e-05	0	61	0	285212672	54	5407
2026-01-26 08:07:31.73	43.11	18.93	-41.3	-44.8	13.2	3.43e-05	0	62	0	287309824	54	5305
2026-01-26 08:07:32.74	42.87	18.92	-41.4	-44.9	13.1	3.05e-05	0	62	0	289406976	54	5355
2026-01-26 08:07:33.75	42.63	18.91	-41.4	-45.0	12.9	5.41e-05	0	62	0	291504128	54	5434
2026-01-26 08:07:34.76	42.38	18.89	-41.4	-44.9	13.1	4.95e-05	0	62	0	292552704	54	5355
2026-01-26 08:07:35.77	42.14	18.88	-41.2	-44.6	13.3	1.29e-05	0	62	0	294649856	54	5192
2026-01-26 08:07:36.79	41.90	18.87	-41.2	-44.5	13.5	1.75e-05	0	62	0	296747008	54	5130
2026-01-26 08:07:37.80	41.65	18.86	-41.2	-44.6	13.4	1.52e-05	0	62	0	298844160	54	5161
2026-01-26 08:07:38.81	41.41	18.85	-41.2	-44.5	13.5	1.14e-05	0	62	0	300941312	54	5131
2026-01-26 08:07:39.82	41.17	18.83	-41.1	-44.4	13.5	1.14e-05	0	62	0	303038464	54	5082
2026-01-26 08:07:40.83	40.93	18.82	-41.1	-44.3	13.6	1.52e-05	0	62	0	304087040	54	5027
2026-01-26 08:07:41.84	40.69	18.80	-41.1	-44.3	13.6	6.80e-06	0	62	0	306184192	53	5335
2026-01-26 08:07:42.85	40.45	18.79	-41.0	-44.3	13.7	9.90e-06	0	62	0	308281344	53	5299
2026-01-26 08:07:43.86	40.21	18.77	-41.1	-44.4	13.6	6.80e-06	0	62	0	310378496	53	5341
2026-01-26 08:07:44.87	39.97	18.76	-41.0	-44.3	13.7	4.50e-06	0	62	0	312475648	53	5284
2026-01-26 08:07:45.88	39.73	18.74	-40.9	-44.1	13.9	5.30e-06	0	62	0	313524224	53	5174
2026-01-26 08:07:46.89	39.49	18.72	-40.9	-44.1	13.9	3.00e-06	0	62	0	315621376	53	5177
2026-01-26 08:07:47.90	39.25	18.71	-41.0	-44.2	13.8	5.30e-06	0	62	0	317718528	53	5223
2026-01-26 08:07:48.91	39.01	18.69	-41.0	-44.3	13.6	6.10e-06	0	62	0	319815680	53	5308
2026-01-26 08:07:49.92	38.77	18.67	-41.1	-44.4	13.6	7.60e-06	0	62	0	321912832	53	5352
2026-01-26 08:07:50.93	38.53	18.65	-41.1	-44.5	13.5	9.10e-06	0	62	0	322961408	53	5424
2026-01-26 08:07:51.94	38.29	18.63	-41.2	-44.5	13.4	1.52e-05	0	62	0	325058560	53	5450
2026-01-26 08:07:52.95	38.06	18.61	-41.2	-44.6	13.3	2.28e-05	0	62	0	327155712	53	5500
2026-01-26 08:07:53.96	37.82	18.59	-41.2	-44.6	13.3	1.83e-05	0	62	0	329252864	53	5521
2026-01-26 08:07:54.97	37.58	18.57	-41.2	-44.6	13.3	1.44e-05	0	62	0	331350016	53	5505
2026-01-26 08:07:55.98	37.34	18.55	-41.2	-44.6	13.4	1.22e-05	0	62	0	332398592	53	5477
2026-01-26 08:07:56.99	37.11	18.53	-41.3	-44.7	13.2	1.14e-05	0	62	0	334495744	53	5541
2026-01-26 08:07:58.00	36.87	18.50	-41.3	-44.8	13.1	3.05e-05	0	62	0	336592896	53	5626
2026-01-26 08:07:59.01	36.64	18.48	-41.3	-44.8	13.1	3.35e-05	0	62	0	338690048	53	5656
2026-01-26 08:08:00.02	36.40	18.46	-41.3	-44.8	13.1	3.58e-05	0	62	0	340787200	53	5638
2026-01-26 08:08:01.03	36.17	18.43	-41.4	-44.9	13.0	4.95e-05	0	62	0	342884352	53	5707
2026-01-26 08:08:02.04	35.93	18.41	-41.4	-44.9	13.0	3.50e-05	0	62	0	343932928	53	5710
2026-01-26 08:08:03.05	35.70	18.39	-41.3	-44.9	13.0	3.12e-05	0	62	0	346030080	53	5670
2026-01-26 08:08:04.06	35.46	18.36	-41.3	-44.9	13.0	3.28e-05	0	62	0	348127232	53	5664
2026-01-26 08:08:05.07	35.23	18.33	-41.4	-45.0	12.9	3.50e-05	0	62	0	350224384	53	5732
2026-01-26 08:08:06.08	35.00	18.31	-41.4	-45.0	12.9	4.80e-05	0	62	0	352321536	53	5751
2026-01-26 08:08:07.08	34.77	18.28	-41.5	-45.2	12.7	4.95e-05	0	62	0	353370112	53	5869
2026-01-26 08:08:08.09	34.53	18.25	-41.6	-45.3	12.5	8.39e-05	0	62	0	355467264	53	5963
2026-01-26 08:08:09.10	34.30	18.23	-41.6	-45.4	12.5	1.09e-04	0	62	0	357564416	53	6013
2026-01-26 08:08:10.11	34.07	18.20	-41.6	-45.5	12.4	1.15e-04	0	62	0	359661568	53	6064
2026-01-26 08:08:11.12	33.84	18.17	-41.6	-45.4	12.5	1.29e-04	0	62	0	360710144	53	6004
2026-01-26 08:08:12.13	33.61	18.14	-41.6	-45.3	12.6	1.24e-04	0	62	0	362807296	53	5952
2026-01-26 08:08:13.14	33.38	18.11	-41.5	-45.3	12.6	7.47e-05	0	62	0	364904448	53	5930
2026-01-26 08:08:14.15	33.15	18.08	-41.5	-45.3	12.6	1.02e-04	0	62	0	367001600	53	5939
2026-01-26 08:08:15.16	32.92	18.05	-41.6	-45.4	12.5	1.05e-04	0	62	0	369098752	53	6016
2026-01-26 08:08:16.17	32.69	18.02	-41.6	-45.5	12.4	1.32e-04	0	62	0	371195904	53	6097
2026-01-26 08:08:17.18	32.46	17.99	-41.7	-45.7	12.2	2.02e-04	0	62	0	372244480	54	5871
2026-01-26 08:08:18.19	32.23	17.96	-41.8	-45.8	12.1	2.97e-04	0	62	0	374341632	54	5945
2026-01-26 08:08:19.20	32.01	17.93	-41.8	-45.9	12.0	2.94e-04	0	62	0	376438784	54	5995
2026-01-26 08:08:20.21	31.78	17.89	-41.8	-45.8	12.0	3.07e-04	0	62	0	378535936	54	5962
2026-01-26 08:08:21.22	31.55	17.86	-41.8	-45.7	12.2	2.43e-04	0	62	0	380633088	54	5878
2026-01-26 08:08:22.23	31.33	17.83	-41.7	-45.6	12.2	2.19e-04	0	62	0	381681664	54	5851
2026-01-26 08:08:23.24	31.10	17.79	-41.6	-45.5	12.3	2.09e-04	0	62	0	383778816	54	5757
2026-01-26 08:08:24.25	30.88	17.76	-41.6	-45.4	12.4	1.40e-04	0	62	0	385875968	54	5708
2026-01-26 08:08:25.26	30.65	17.73	-41.6	-45.4	12.5	1.13e-04	0	62	0	387973120	54	5671
2026-01-26 08:08:26.27	30.43	17.69	-41.7	-45.5	12.4	1.11e-04	0	62	0	390070272	54	5751
2026-01-26 08:08:27.28	30.21	17.66	-41.7	-45.5	12.3	1.85e-04	0	62	0	391118848	54	5775
2026-01-26 08:08:28.29	29.98	17.62	-41.8	-45.6	12.3	1.46e-04	0	62	0	393216000	54	5844
2026-01-26 08:08:29.30	29.76	17.58	-41.8	-45.7	12.2	1.96e-04	0	62	0	395313152	54	5911
2026-01-26 08:08:30.31	29.54	17.55	-41.8	-45.7	12.2	2.17e-04	0	62	0	397410304	54	5867
2026-01-26 08:08:31.32	29.32	17.51	-41.7	-45.6	12.3	1.45e-04	0	62	0	399507456	54	5805
2026-01-26 08:08:32.33	29.10	17.47	-41.8	-45.7	12.2	1.46e-04	0	62	0	400556032	54	5869
2026-01-26 08:08:33.34	28.88	17.44	-41.7	-45.5	12.4	1.27e-04	0	62	0	402653184	54	5731
2026-01-26 08:08:34.35	28.66	17.40	-41.7	-45.5	12.4	1.48e-04	0	62	0	404750336	54	5784
2026-01-26 08:08:35.36	28.44	17.36	-41.7	-45.6	12.3	1.62e-04	0	62	0	406847488	54	5847
2026-01-26 08:08:36.37	28.22	17.32	-41.8	-45.7	12.2	1.82e-04	0	62	0	408944640	54	5915
2026-01-26 08:08:37.38	28.01	17.28	-41.8	-45.8	12.1	2.68e-04	0	62	0	411041792	54	5926
2026-01-26 08:08:38.39	27.79	17.24	-41.8	-45.8	12.1	2.68e-04	0	62	0	412090368	54	5940
2026-01-26 08:08:39.40	27.57	17.20	-41.7	-45.7	12.2	2.39e-04	0	62	0	414187520	54	5856
2026-01-26 08:08:40.41	27.36	17.16	-41.7	-45.5	12.3	2.11e-04	0	62	0	416284672	54	5759
2026-01-26 08:08:41.42	27.14	17.12	-41.6	-45.5	12.4	1.69e-04	0	62	0	418381824	54	5725
2026-01-26 08:08:42.43	26.93	17.08	-41.6	-45.4	12.4	1.24e-04	0	62	0	420478976	54	5708
2026-01-26 08:08:43.44	26.71	17.04	-41.7	-45.6	12.3	1.83e-04	0	62	0	421527552	54	5798
2026-01-26 08:08:44.45	26.50	17.00	-41.8	-45.7	12.2	2.00e-04	0	62	0	423624704	54	5889
2026-01-26 08:08:45.46	26.29	16.96	-41.8	-45.7	12.1	2.43e-04	0	62	0	425721856	54	5888
2026-01-26 08:08:46.47	26.07	16.91	-41.9	-45.9	12.0	3.23e-04	0	62	0	427819008	54	6022
2026-01-26 08:08:47.48	25.86	16.87	-41.8	-45.9	11.9	3.94e-04	0	62	0	429916160	54	6021
2026-01-26 08:08:48.49	25.65	16.83	-41.9	-46.0	11.8	4.41e-04	0	62	0	430964736	54	6069
2026-01-26 08:08:49.50	25.44	16.79	-41.9	-46.1	11.7	4.84e-04	0	62	0	433061888	54	6157
2026-01-26 08:08:50.51	25.23	16.74	-41.9	-46.0	11.7	5.30e-04	0	62	0	435159040	54	6118
2026-01-26 08:08:51.52	25.02	16.70	-41.9	-46.0	11.7	5.19e-04	0	62	0	437256192	54	6123
2026-01-26 08:08:52.53	24.81	16.65	-41.9	-46.0	11.8	4.97e-04	0	62	0	439353344	54	6070
2026-01-26 08:08:53.54	24.60	16.61	-41.9	-46.0	11.8	4.19e-04	0	62	0	440401920	54	6103
2026-01-26 08:08:54.54	24.40	16.57	-41.9	-46.0	11.8	4.90e-04	0	62	0	442499072	54	6095
2026-01-26 08:08:55.56	24.19	16.52	-41.9	-46.1	11.7	5.71e-04	0	62	0	444596224	54	6169
2026-01-26 08:08:56.56	23.99	16.48	-42.0	-46.2	11.6	7.00e-04	0	62	0	446693376	54	6257
2026-01-26 08:08:57.57	23.78	16.43	-42.0	-46.3	11.4	9.01e-04	0	62	0	448790528	54	6334
2026-01-26 08:08:58.58	23.58	16.38	-42.1	-46.5	11.3	1.03e-03	0	62	0	449839104	54	6424
2026-01-26 08:08:59.59	23.37	16.34	-42.1	-46.5	11.3	1.23e-03	0	62	0	451936256	54	6440
2026-01-26 08:09:00.60	23.17	16.29	-42.0	-46.3	11.4	1.04e-03	0	62	0	454033408	54	6318
2026-01-26 08:09:01.61	22.96	16.24	-42.0	-46.2	11.5	8.24e-04	0	62	0	456130560	54	6252
2026-01-26 08:09:02.62	22.76	16.20	-42.0	-46.2	11.6	7.81e-04	0	62	0	458227712	54	6251
2026-01-26 08:09:03.63	22.56	16.15	-41.9	-46.1	11.7	6.52e-04	0	62	0	459276288	54	6156
2026-01-26 08:09:04.64	22.36	16.10	-41.9	-46.0	11.7	5.46e-04	0	62	0	461373440	54	6101
2026-01-26 08:09:05.65	22.16	16.05	-41.9	-46.1	11.7	5.02e-04	0	62	0	463470592	54	6134
2026-01-26 08:09:06.66	21.96	16.01	-41.9	-46.1	11.7	5.96e-04	0	62	0	465567744	54	6135
2026-01-26 08:09:07.67	21.76	15.96	-41.9	-46.1	11.6	6.64e-04	0	62	0	467664896	54	6153
2026-01-26 08:09:08.68	21.56	15.91	-41.9	-46.2	11.6	6.77e-04	0	62	0	468713472	54	6215
2026-01-26 08:09:09.69	21.36	15.86	-41.9	-46.1	11.6	6.60e-04	0	62	0	470810624	54	6181
2026-01-26 08:09:10.70	21.17	15.81	-41.9	-46.2	11.5	7.02e-04	0	62	0	472907776	54	6217
2026-01-26 08:09:11.71	20.97	15.76	-42.0	-46.3	11.4	7.90e-04	0	62	0	475004928	54	6289
2026-01-26 08:09:12.72	20.77	15.71	-42.0	-46.2	11.4	9.17e-04	0	62	0	477102080	54	6269
2026-01-26 08:09:13.72	20.58	15.66	-42.0	-46.4	11.3	1.13e-03	0	62	0	479199232	54	6373
2026-01-26 08:09:14.73	20.39	15.61	-42.0	-46.5	11.3	1.17e-03	0	62	0	480247808	54	6429
2026-01-26 08:09:15.74	20.19	15.56	-42.0	-46.4	11.2	1.18e-03	0	62	0	482344960	54	6415
2026-01-26 08:09:16.75	20.00	15.51	-42.0	-46.5	11.2	1.27e-03	0	62	0	484442112	54	6429
2026-01-26 08:09:17.76	19.81	15.46	-42.1	-46.6	11.1	1.47e-03	0	62	0	486539264	54	6521
2026-01-26 08:09:18.77	19.62	15.41	-42.1	-46.6	11.1	1.60e-03	0	62	0	488636416	54	6511
2026-01-26 08:09:19.78	19.42	15.36	-42.1	-46.7	11.0	1.78e-03	0	62	0	489684992	54	6575
2026-01-26 08:09:20.79	19.23	15.31	-42.1	-46.7	10.9	1.98e-03	0	62	0	491782144	54	6604
2026-01-26 08:09:21.80	19.04	15.26	-42.1	-46.6	11.0	2.10e-03	0	62	0	493879296	54	6549
2026-01-26 08:09:22.82	18.85	15.21	-42.0	-46.4	11.3	1.32e-03	0	62	0	495976448	54	6366
2026-01-26 08:09:23.83	18.67	15.15	-41.9	-46.2	11.4	1.05e-03	0	62	0	498073600	54	6253
2026-01-26 08:09:24.84	18.48	15.10	-41.9	-46.1	11.6	8.44e-04	0	62	0	499122176	54	6149
2026-01-26 08:09:25.85	18.29	15.05	-41.8	-46.1	11.6	7.61e-04	0	62	0	501219328	54	6147
2026-01-26 08:09:26.86	18.10	15.00	-42.0	-46.4	11.3	9.36e-04	0	62	0	503316480	54	6352
2026-01-26 08:09:27.87	17.92	14.94	-42.1	-46.6	11.0	1.36e-03	0	62	0	505413632	54	6516
2026-01-26 08:09:28.87	17.73	14.89	-42.1	-46.7	10.8	2.08e-03	0	62	0	507510784	54	6635
2026-01-26 08:09:29.88	17.55	14.84	-42.2	-46.9	10.7	2.64e-03	0	62	0	508559360	54	6729
2026-01-26 08:09:30.89	17.37	14.79	-42.2	-46.9	10.7	2.83e-03	0	62	0	510656512	54	6732
2026-01-26 08:09:31.90	17.18	14.73	-42.2	-47.0	10.6	3.50e-03	0	62	0	512753664	54	6804
2026-01-26 08:09:32.91	17.00	14.68	-42.2	-47.0	10.6	3.51e-03	0	62	0	514850816	54	6816
2026-01-26 08:09:33.92	16.82	14.62	-42.2	-47.0	10.5	3.76e-03	0	62	0	516947968	54	6861
2026-01-26 08:09:34.93	16.64	14.57	-42.2	-47.0	10.5	3.90e-03	0	62	0	517996544	54	6833
2026-01-26 08:09:35.94	16.46	14.52	-42.2	-47.1	10.4	5.08e-03	0	62	0	520093696	55	6542
2026-01-26 08:09:36.95	16.28	14.46	-42.2	-47.1	10.4	4.64e-03	0	62	0	522190848	55	6529
2026-01-26 08:09:37.96	16.10	14.41	-42.3	-47.2	10.3	5.11e-03	0	62	0	524288000	55	6604
2026-01-26 08:09:38.97	15.92	14.35	-42.3	-47.3	10.2	6.04e-03	0	62	0	526385152	55	6676
2026-01-26 08:09:39.98	15.74	14.30	-42.3	-47.3	10.2	6.38e-03	0	62	0	527433728	55	6649
2026-01-26 08:09:40.99	15.57	14.24	-42.2	-47.1	10.3	5.81e-03	0	62	0	529530880	55	6554
2026-01-26 08:09:42.00	15.39	14.19	-42.2	-47.0	10.4	5.06e-03	0	62	0	531628032	55	6486
2026-01-26 08:09:43.01	15.21	14.13	-42.2	-47.0	10.4	4.67e-03	0	62	0	533725184	55	6488
2026-01-26 08:09:44.02	15.04	14.08	-42.2	-47.0	10.4	4.90e-03	0	62	0	535822336	55	6491
2026-01-26 08:09:45.03	14.86	14.02	-42.2	-47.0	10.3	5.04e-03	0	62	0	536870912	55	6493
2026-01-26 08:09:46.04	14.69	13.97	-42.1	-47.1	10.3	5.08e-03	0	62	0	538968064	55	6507
2026-01-26 08:09:47.05	14.52	13.91	-42.1	-47.0	10.3	4.96e-03	0	62	0	541065216	55	6459
2026-01-26 08:09:48.07	14.34	13.85	-42.1	-47.1	10.2	5.70e-03	0	62	0	543162368	55	6531
2026-01-26 08:09:49.08	14.17	13.80	-42.2	-47.2	10.1	6.52e-03	0	62	0	545259520	55	6618
2026-01-26 08:09:50.09	14.00	13.74	-42.2	-47.2	10.0	7.04e-03	0	62	0	547356672	55	6622
2026-01-26 08:09:51.09	13.83	13.69	-42.2	-47.2	10.0	7.36e-03	0	62	0	548405248	55	6615
2026-01-26 08:09:52.10	13.66	13.63	-42.1	-47.2	10.0	7.91e-03	0	62	0	550502400	55	6628
2026-01-26 08:09:53.11	13.49	13.57	-42.1	-47.1	10.0	8.11e-03	0	62	0	552599552	55	6565
2026-01-26 08:09:54.13	13.32	13.52	-42.0	-47.0	10.2	6.47e-03	0	62	0	554696704	55	6440
2026-01-26 08:09:55.14	13.15	13.46	-42.0	-46.9	10.3	5.27e-03	0	62	0	556793856	55	6415
2026-01-26 08:09:56.15	12.99	13.40	-41.9	-46.8	10.4	4.88e-03	0	62	0	557842432	55	6296
2026-01-26 08:09:57.16	12.82	13.35	-41.9	-46.7	10.4	4.68e-03	0	62	0	559939584	55	6244
2026-01-26 08:09:58.17	12.65	13.29	-41.8	-46.6	10.5	3.74e-03	0	62	0	562036736	55	6144
2026-01-26 08:09:59.18	12.49	13.23	-41.8	-46.5	10.6	3.86e-03	0	62	0	564133888	55	6122
2026-01-26 08:10:00.19	12.33	13.17	-41.8	-46.5	10.5	3.67e-03	0	62	0	566231040	54	6488
2026-01-26 08:10:01.20	12.16	13.12	-41.8	-46.6	10.4	3.95e-03	0	62	0	567279616	54	6509
2026-01-26 08:10:02.21	12.00	13.06	-41.8	-46.6	10.3	5.07e-03	0	62	0	569376768	54	6565
2026-01-26 08:10:03.22	11.84	13.00	-41.7	-46.5	10.4	5.11e-03	0	62	0	571473920	54	6494
2026-01-26 08:10:04.23	11.67	12.94	-41.7	-46.5	10.4	4.32e-03	0	62	0	573571072	54	6430
2026-01-26 08:10:05.24	11.51	12.89	-41.7	-46.6	10.3	4.86e-03	0	62	0	575668224	54	6525
2026-01-26 08:10:06.25	11.35	12.83	-41.7	-46.6	10.2	5.89e-03	0	62	0	576716800	54	6517
2026-01-26 08:10:07.26	11.19	12.77	-41.5	-46.4	10.3	5.45e-03	0	62	0	578813952	54	6354
2026-01-26 08:10:08.27	11.03	12.71	-41.5	-46.3	10.2	5.92e-03	0	62	0	580911104	54	6335
2026-01-26 08:10:09.28	10.87	12.65	-41.5	-46.4	10.1	6.24e-03	0	62	0	583008256	54	6402
2026-01-26 08:10:10.29	10.72	12.60	-41.4	-46.3	10.2	7.16e-03	0	62	0	585105408	54	6290
2026-01-26 08:10:11.30	10.56	12.54	-41.2	-46.0	10.4	4.58e-03	0	62	0	586153984	54	6077
2026-01-26 08:10:12.31	10.40	12.48	-41.1	-45.8	10.5	3.65e-03	0	62	0	588251136	54	5988
2026-01-26 08:10:13.32	10.25	12.42	-41.2	-46.0	10.4	4.05e-03	0	62	0	590348288	54	6063
2026-01-26 08:10:14.33	10.09	12.36	-41.1	-45.8	10.5	4.05e-03	0	62	0	592445440	54	5951
2026-01-26 08:10:15.34	9.93	12.30	-40.9	-45.6	10.6	3.34e-03	0	62	0	594542592	53	6137
2026-01-26 08:10:16.35	9.78	12.25	-40.9	-45.6	10.5	3.56e-03	0	62	0	595591168	53	6187
2026-01-26 08:10:17.36	9.63	12.19	-40.9	-45.7	10.4	4.66e-03	0	62	0	597688320	53	6264
2026-01-26 08:10:18.37	9.47	12.13	-40.8	-45.5	10.6	4.20e-03	0	62	0	599785472	53	6065
2026-01-26 08:10:19.38	9.32	12.07	-40.6	-45.2	10.7	2.93e-03	0	62	0	601882624	53	5915
2026-01-26 08:10:20.39	9.17	12.01	-40.6	-45.5	10.3	4.60e-03	0	62	0	603979776	53	6067
2026-01-26 08:10:21.40	9.02	11.95	-40.7	-45.7	10.1	5.98e-03	0	62	0	605028352	53	6214
2026-01-26 08:10:22.41	8.87	11.89	-40.8	-46.1	9.6	1.12e-02	0	62	0	607125504	53	6521
2026-01-26 08:10:23.42	8.72	11.83	-40.7	-46.3	9.2	1.61e-02	0	62	0	609222656	53	6652
2026-01-26 08:10:24.43	8.57	11.77	-40.8	-46.8	8.6	2.94e-02	0	62	0	611319808	53	7054
2026-01-26 08:10:25.44	8.42	11.72	-40.9	-47.1	8.1	4.68e-02	0	62	0	613416960	53	7349
2026-01-26 08:10:26.45	8.27	11.66	-40.9	-47.6	7.6	7.37e-02	0	62	0	615514112	53	7782
2026-01-26 08:10:27.46	8.12	11.60	-41.0	-48.2	6.9	1.48e-01	0	62	0	616562688	53	8281
2026-01-26 08:10:28.47	7.98	11.54	-40.9	-48.6	6.4	2.09e-01	0	62	0	618659840	53	8690
2026-01-26 08:10:29.48	7.83	11.48	-40.9	-49.2	5.9	2.82e-01	0	62	0	620756992	53	9327
2026-01-26 08:10:30.49	7.69	11.42	-41.0	-50.0	5.3	5.05e-01	0	62	0	622854144	53	10219
2026-01-26 08:10:31.50	7.54	11.36	-41.0	-50.8	4.8	6.92e-01	0	62	0	624951296	53	11245
2026-01-26 08:10:32.51	7.40	11.30	-41.3	-51.8	4.4	1.23e+00	60	62	0	625999872	53	12543
2026-01-26 08:10:33.52	7.25	11.24	-40.9	-53.7	3.8	1.39e+00	0	62	104	627048448	53	15642
2026-01-26 08:10:34.53	7.11	11.18	-40.6	-55.0	3.8	1.49e+00	0	62	104	627048448	52	19341
2026-01-26 08:10:35.54	6.97	11.12	-41.2	-54.4	3.8	1.49e+00	0	62	104	627048448	52	18090
2026-01-26 08:10:36.55	6.82	11.06	-41.6	-54.9	3.8	1.49e+00	0	62	104	627048448	54	16980
2026-01-26 08:10:37.56	6.68	11.00	-41.4	-54.8	3.8	1.49e+00	0	62	104	627048448	54	16873
2026-01-26 08:10:38.57	6.54	10.94	-41.2	-54.7	3.8	1.49e+00	0	62	104	627048448	54	16572
2026-01-26 08:10:39.58	6.40	10.88	-41.0	-54.7	3.8	1.49e+00	0	62	104	627048448	54	16671
2026-01-26 08:10:40.59	6.26	10.82	-41.0	-55.0	3.8	1.49e+00	0	62	104	627048448	53	18112
2026-01-26 08:10:41.60	6.12	10.77	-40.5	-54.7	3.8	1.49e+00	0	62	104	627048448	52	18547
2026-01-26 08:10:42.61	5.98	10.71	-40.0	-54.5	3.8	1.49e+00	0	62	104	627048448	51	19365
2026-01-26 08:10:43.62	5.85	10.65	-40.1	-54.6	3.8	1.49e+00	0	62	104	627048448	51	19499
2026-01-26 08:10:44.63	5.71	10.59	-40.1	-54.6	3.8	1.49e+00	0	62	104	627048448	51	19464
2026-01-26 08:10:45.64	5.57	10.53	-40.0	-54.5	3.8	1.49e+00	0	62	104	627048448	51	19349
2026-01-26 08:10:46.65	5.44	10.47	-40.0	-54.5	3.8	1.49e+00	0	62	104	627048448	51	19258
2026-01-26 08:10:47.66	5.30	10.41	-39.9	-54.4	3.8	1.49e+00	0	62	104	627048448	51	19122
2026-01-26 08:10:48.67	5.17	10.35	-39.9	-54.5	3.8	1.49e+00	0	62	104	627048448	51	19191
2026-01-26 08:10:49.68	5.03	10.29	-40.5	-55.0	3.8	1.49e+00	0	62	104	627048448	51	20387
2026-01-26 08:10:50.69	4.90	10.23	-40.1	-54.6	3.8	1.49e+00	0	62	104	627048448	51	19557
2026-01-26 08:10:51.70	4.76	10.17	-40.0	-54.6	3.8	1.49e+00	0	62	104	627048448	51	19427
2026-01-26 08:10:52.71	4.63	10.11	-40.0	-54.5	3.8	1.49e+00	0	62	104	627048448	51	19273
2026-01-26 08:10:53.72	4.50	10.05	-39.9	-54.5	3.8	1.49e+00	0	62	104	627048448	51	19171
2026-01-26 08:10:54.73	4.37	9.99	-39.9	-54.5	3.8	1.49e+00	0	62	104	627048448	51	19228
2026-01-26 08:10:55.74	4.23	9.93	-39.9	-54.5	3.8	1.49e+00	0	62	104	627048448	51	19248
2026-01-26 08:10:56.75	4.10	9.87	-39.9	-54.5	3.8	1.49e+00	0	62	104	627048448	51	19276
2026-01-26 08:10:57.76	3.97	9.81	-40.3	-54.8	3.8	1.49e+00	0	62	104	627048448	51	19965
2026-01-26 08:10:58.77	3.84	9.75	-40.0	-54.6	3.8	1.49e+00	0	62	104	627048448	51	19407
2026-01-26 08:10:59.78	3.72	9.69	-40.1	-54.7	3.8	1.49e+00	0	62	104	627048448	51	19636
2026-01-26 08:11:00.79	3.59	9.63	-40.2	-54.8	3.8	1.49e+00	0	62	104	627048448	51	19968
2026-01-26 08:11:01.80	3.46	9.57	-40.0	-54.5	3.8	1.49e+00	0	62	104	627048448	51	19381
2026-01-26 08:11:02.81	3.33	9.51	-39.9	-54.5	3.8	1.49e+00	0	62	104	627048448	51	19227
2026-01-26 08:11:03.82	3.20	9.45	-40.0	-54.6	3.8	1.49e+00	0	62	104	627048448	51	19547
2026-01-26 08:11:04.84	3.08	9.39	-40.2	-54.7	3.8	1.49e+00	0	62	104	627048448	51	19745
2026-01-26 08:11:05.84	2.95	9.33	-39.9	-54.5	3.8	1.49e+00	0	62	104	627048448	51	19197
2026-01-26 08:11:06.86	2.83	9.27	-40.0	-54.5	3.8	1.49e+00	0	62	104	627048448	51	19339
2026-01-26 08:11:07.87	2.70	9.21	-40.0	-54.5	3.8	1.49e+00	0	62	104	627048448	51	19299
2026-01-26 08:11:08.88	2.58	9.15	-40.1	-54.7	3.8	1.49e+00	0	62	104	627048448	51	19644
2026-01-26 08:11:09.89	2.45	9.09	-39.9	-54.5	3.8	1.49e+00	0	62	104	627048448	51	19221
2026-01-26 08:11:10.90	2.33	9.03	-40.0	-54.6	3.8	1.49e+00	0	62	104	627048448	51	19429
2026-01-26 08:11:11.91	2.21	8.97	-39.9	-54.5	3.8	1.49e+00	0	62	104	627048448	51	19200
2026-01-26 08:11:12.92	2.09	8.91	-40.1	-54.6	3.8	1.49e+00	0	62	104	627048448	51	19496
2026-01-26 08:11:13.93	1.96	8.85	-40.0	-54.5	3.8	1.49e+00	0	62	104	627048448	51	19366
2026-01-26 08:11:14.94	1.84	8.79	-39.9	-54.5	3.8	1.49e+00	0	62	104	627048448	51	19224
2026-01-26 08:11:15.94	1.72	8.73	-40.0	-54.5	3.8	1.49e+00	0	62	104	627048448	51	19300
2026-01-26 08:11:16.95	1.60	8.68	-40.0	-54.6	3.8	1.49e+00	0	62	104	627048448	51	19412
2026-01-26 08:11:17.96	1.48	8.62	-40.0	-54.5	3.8	1.49e+00	0	62	104	627048448	51	19323
2026-01-26 08:11:18.97	1.36	8.56	-39.9	-54.4	3.8	1.49e+00	0	62	104	627048448	51	19131
2026-01-26 08:11:19.99	1.24	8.50	-40.0	-54.5	3.8	1.49e+00	0	62	104	627048448	51	19353
2026-01-26 08:11:20.99	1.13	8.44	-40.0	-54.5	3.8	1.49e+00	0	62	104	627048448	51	19331
2026-01-26 08:11:22.00	1.01	8.38	-40.0	-54.5	3.8	1.49e+00	0	62	104	627048448	51	19221
2026-01-26 08:11:23.02	0.89	8.32	-39.9	-54.5	3.8	1.49e+00	0	62	104	627048448	51	19207
2026-01-26 08:11:24.03	0.78	8.26	-39.9	-54.5	3.8	1.49e+00	0	62	104	627048448	51	19232
2026-01-26 08:11:25.03	0.66	8.20	-40.0	-54.5	3.8	1.49e+00	0	62	104	627048448	51	19290
2026-01-26 08:11:26.04	0.54	8.14	-39.9	-54.5	3.8	1.49e+00	0	62	104	627048448	51	19193
2026-01-26 08:11:27.05	0.43	8.08	-39.9	-54.5	3.8	1.49e+00	0	62	104	627048448	51	19174
2026-01-26 08:11:28.06	0.32	8.02	-39.9	-54.4	3.8	1.49e+00	0	62	104	627048448	51	19080
2026-01-26 08:11:29.07	0.20	7.96	-40.4	-55.0	3.8	1.49e+00	0	62	104	627048448	51	20306
2026-01-26 08:11:30.08	0.09	7.90	-44.2	-58.7	3.8	1.49e+00	0	62	104	627048448	58	20808
2026-01-26 08:11:31.09	359.97	7.84	-44.8	-59.6	3.8	1.49e+00	0	62	104	627048448	60	20562
2026-01-26 08:11:32.10	359.86	7.78	-45.0	-59.8	3.8	1.49e+00	0	62	104	627048448	60	21106
2026-01-26 08:11:33.11	359.75	7.73	-45.2	-59.9	3.8	1.49e+00	0	62	104	627048448	60	21349
2026-01-26 08:11:34.12	359.64	7.67	-45.3	-60.0	3.8	1.49e+00	0	62	104	627048448	61	20424
2026-01-26 08:11:35.13	359.53	7.61	-45.4	-60.1	3.8	1.49e+00	0	62	104	627048448	61	20630
2026-01-26 08:11:36.14	359.41	7.55	-44.7	-60.0	3.7	1.49e+00	0	62	104	627048448	60	21719
2026-01-26 08:11:37.15	359.30	7.49	-45.3	-60.0	3.8	1.49e+00	0	62	104	627048448	61	20507
2026-01-26 08:11:38.17	359.19	7.43	-45.9	-59.9	3.8	1.49e+00	0	62	104	627048448	59	22735
2026-01-26 08:11:39.18	359.08	7.37	-42.2	-60.1	3.8	1.49e+00	0	62	104	627048448	57	25869
2026-01-26 08:11:40.19	358.97	7.31	-44.9	-59.8	3.8	1.49e+00	0	62	104	627048448	60	21158
2026-01-26 08:11:41.20	358.87	7.25	-45.2	-59.8	3.8	1.49e+00	0	62	104	627048448	60	21099
2026-01-26 08:11:42.21	358.76	7.19	-45.1	-59.7	3.8	1.49e+00	0	62	104	627048448	60	20997
2026-01-26 08:11:43.22	358.65	7.14	-45.1	-59.8	3.8	1.49e+00	0	62	104	627048448	60	21029
2026-01-26 08:11:44.23	358.54	7.08	-45.0	-59.6	3.8	1.49e+00	0	62	104	627048448	60	20669
2026-01-26 08:11:45.24	358.44	7.02	-45.0	-59.6	3.8	1.49e+00	0	62	104	627048448	60	20739
2026-01-26 08:11:46.25	358.33	6.96	-45.0	-59.6	3.8	1.49e+00	0	62	104	627048448	60	20683
2026-01-26 08:11:47.26	358.22	6.90	-44.6	-59.6	3.8	1.49e+00	0	62	104	627048448	60	20549
2026-01-26 08:11:48.27	358.12	6.84	-44.6	-59.6	3.8	1.49e+00	0	62	104	627048448	60	20610
2026-01-26 08:11:49.28	358.01	6.78	-45.0	-59.6	3.8	1.49e+00	0	62	104	627048448	60	20589
2026-01-26 08:11:50.29	357.91	6.72	-45.0	-59.6	3.8	1.49e+00	0	62	104	627048448	60	20570
2026-01-26 08:11:51.30	357.80	6.67	-45.0	-59.6	3.8	1.49e+00	0	62	104	627048448	60	20648
2026-01-26 08:11:52.31	357.70	6.61	-45.0	-59.6	3.8	1.49e+00	0	62	104	627048448	60	20606
2026-01-26 08:11:53.32	357.60	6.55	-45.0	-59.6	3.8	1.49e+00	0	62	104	627048448	60	20640
2026-01-26 08:11:54.33	357.49	6.49	-45.0	-59.6	3.8	1.49e+00	0	62	104	627048448	60	20611
2026-01-26 08:11:55.34	357.39	6.43	-45.0	-59.6	3.8	1.49e+00	0	62	104	627048448	60	20669
2026-01-26 08:11:56.35	357.29	6.37	-45.0	-59.6	3.8	1.49e+00	0	62	104	627048448	60	20607
2026-01-26 08:11:57.36	357.19	6.32	-45.0	-59.6	3.9	1.49e+00	0	62	104	627048448	60	20606
2026-01-26 08:11:58.37	357.09	6.26	-45.0	-59.6	3.8	1.49e+00	0	62	104	627048448	60	20626
2026-01-26 08:11:59.38	356.99	6.20	-45.0	-59.6	3.8	1.49e+00	0	62	104	627048448	60	20564
2026-01-26 08:12:00.39	356.89	6.14	-45.0	-59.6	3.8	1.49e+00	0	62	104	627048448	60	20596
2026-01-26 08:12:01.40	356.79	6.08	-44.8	-59.6	3.8	1.49e+00	0	62	104	627048448	60	20559
2026-01-26 08:12:02.41	356.69	6.03	-45.0	-59.6	3.8	1.49e+00	0	62	104	627048448	60	20558
2026-01-26 08:12:03.42	356.59	5.97	-45.0	-59.6	3.8	1.49e+00	0	62	104	627048448	60	20562
2026-01-26 08:12:04.44	356.49	5.91	-44.9	-59.6	3.8	1.49e+00	0	62	104	627048448	60	20573
2026-01-26 08:12:05.45	356.39	5.85	-45.0	-59.6	3.8	1.49e+00	0	62	104	627048448	60	20545
2026-01-26 08:12:06.46	356.29	5.79	-45.0	-59.6	3.8	1.49e+00	0	62	104	627048448	60	20545
2026-01-26 08:12:07.47	356.19	5.74	-44.9	-59.6	3.8	1.49e+00	0	62	104	627048448	60	20630
2026-01-26 08:12:08.48	356.10	5.68	-45.0	-59.6	3.8	1.49e+00	0	62	104	627048448	60	20587
2026-01-26 08:12:09.49	356.00	5.62	-45.0	-59.6	3.8	1.49e+00	0	62	104	627048448	60	20544
2026-01-26 08:12:10.50	355.90	5.56	-45.0	-59.6	3.8	1.49e+00	0	62	104	627048448	60	20586
2026-01-26 08:12:11.51	355.81	5.51	-45.0	-59.6	3.8	1.49e+00	0	62	104	627048448	60	20562
2026-01-26 08:12:12.52	355.71	5.45	-44.9	-59.5	3.8	1.49e+00	0	62	104	627048448	60	20518
2026-01-26 08:12:13.53	355.62	5.39	-44.9	-59.5	3.8	1.49e+00	0	62	104	627048448	60	20506
2026-01-26 08:12:14.54	355.52	5.33	-45.0	-59.5	3.8	1.49e+00	0	62	104	627048448	60	20516
2026-01-26 08:12:15.55	355.43	5.28	-45.0	-59.6	3.8	1.49e+00	0	62	104	627048448	60	20646
2026-01-26 08:12:16.56	355.34	5.22	-45.0	-59.6	3.8	1.49e+00	0	62	104	627048448	60	20559
2026-01-26 08:12:17.57	355.24	5.16	-45.0	-59.6	3.8	1.49e+00	0	62	104	627048448	60	20763
2026-01-26 08:12:18.58	355.15	5.10	-45.0	-59.6	3.8	1.49e+00	0	62	104	627048448	60	20567
2026-01-26 08:12:19.59	355.06	5.05	-44.9	-59.6	3.8	1.49e+00	0	62	104	627048448	60	20566
2026-01-26 08:12:20.60	354.96	4.99	-45.0	-59.6	3.8	1.49e+00	0	62	104	627048448	60	20555
2026-01-26 08:12:21.61	354.87	4.93	-45.0	-59.5	3.8	1.49e+00	0	62	104	627048448	60	20507
2026-01-26 08:12:22.62	354.78	4.88	-45.0	-59.6	3.8	1.49e+00	0	62	104	627048448	60	20575
2026-01-26 08:12:23.64	354.69	4.82	-45.0	-59.6	3.8	1.49e+00	0	62	104	627048448	60	20577
2026-01-26 08:12:24.65	354.60	4.76	-44.9	-59.6	3.8	1.49e+00	0	62	104	627048448	60	20601
2026-01-26 08:12:25.66	354.51	4.70	-45.0	-59.6	3.8	1.49e+00	0	62	104	627048448	60	20548
2026-01-26 08:12:26.67	354.42	4.65	-45.0	-59.6	3.8	1.49e+00	0	62	104	627048448	60	20573
2026-01-26 08:12:27.68	354.33	4.59	-45.0	-59.6	3.8	1.49e+00	0	62	104	627048448	60	20546
2026-01-26 08:12:28.69	354.24	4.53	-45.0	-59.5	3.8	1.49e+00	0	62	104	627048448	60	20493
2026-01-26 08:12:29.70	354.15	4.48	-45.0	-59.6	3.8	1.49e+00	0	62	104	627048448	60	20576
2026-01-26 08:12:30.71	354.06	4.42	-45.0	-59.6	3.8	1.49e+00	0	62	104	627048448	60	20540
2026-01-26 08:12:31.72	353.97	4.37	-44.9	-59.5	3.8	1.49e+00	0	62	104	627048448	60	20475
2026-01-26 08:12:32.73	353.88	4.31	-44.9	-59.5	3.8	1.49e+00	0	62	104	627048448	60	20447
2026-01-26 08:12:33.74	353.79	4.25	-44.9	-59.5	3.8	1.49e+00	0	62	104	627048448	60	20445
2026-01-26 08:12:34.75	353.71	4.20	-44.9	-59.5	3.8	1.49e+00	0	62	104	627048448	60	20483
2026-01-26 08:12:35.76	353.62	4.14	-44.9	-59.5	3.8	1.49e+00	0	62	104	627048448	60	20488
2026-01-26 08:12:36.77	353.53	4.08	-44.9	-59.5	3.8	1.49e+00	0	62	104	627048448	60	20472
2026-01-26 08:12:37.78	353.45	4.03	-44.9	-59.5	3.8	1.49e+00	0	62	104	627048448	60	20398
2026-01-26 08:12:38.79	353.36	3.97	-44.9	-59.5	3.8	1.49e+00	0	62	104	627048448	60	20451
2026-01-26 08:12:39.80	353.28	3.91	-44.9	-59.5	3.8	1.49e+00	0	62	104	627048448	60	20414
2026-01-26 08:12:40.82	353.19	3.86	-44.9	-59.5	3.8	1.49e+00	0	62	104	627048448	60	20494
2026-01-26 08:12:41.83	353.10	3.80	-44.8	-59.5	3.8	1.49e+00	0	62	104	627048448	60	20331
2026-01-26 08:12:42.84	353.02	3.75	-44.9	-59.5	3.8	1.49e+00	0	62	104	627048448	60	20415
2026-01-26 08:12:43.85	352.94	3.69	-44.9	-59.4	3.8	1.49e+00	0	62	104	627048448	60	20254
2026-01-26 08:12:44.86	352.85	3.63	-44.9	-59.5	3.8	1.49e+00	0	62	104	627048448	60	20379
2026-01-26 08:12:45.87	352.77	3.58	-44.8	-59.5	3.8	1.49e+00	0	62	104	627048448	60	20410
2026-01-26 08:12:46.88	352.68	3.52	-44.6	-59.5	3.8	1.49e+00	0	62	104	627048448	60	20415
2026-01-26 08:12:47.89	352.60	3.47	-44.9	-59.5	3.8	1.49e+00	0	62	104	627048448	60	20429
2026-01-26 08:12:48.90	352.52	3.41	-44.9	-59.5	3.8	1.49e+00	0	62	104	627048448	60	20332
2026-01-26 08:12:49.91	352.44	3.36	-44.9	-59.5	3.8	1.49e+00	0	62	104	627048448	60	20335
2026-01-26 08:12:50.92	352.36	3.30	-44.9	-59.5	3.8	1.49e+00	0	62	104	627048448	60	20356
2026-01-26 08:12:51.93	352.27	3.25	-44.1	-59.2	3.8	1.49e+00	0	62	104	627048448	59	20871
2026-01-26 08:12:52.94	352.19	3.19	-44.9	-59.5	3.8	1.49e+00	0	62	104	627048448	60	20337
2026-01-26 08:12:53.95	352.11	3.14	-44.9	-59.5	3.8	1.49e+00	0	62	104	627048448	60	20304
2026-01-26 08:12:54.96	352.03	3.08	-44.9	-59.5	3.8	1.49e+00	0	62	104	627048448	60	20337
2026-01-26 08:12:55.98	351.95	3.02	-44.9	-59.5	3.8	1.49e+00	0	62	104	627048448	60	20374
2026-01-26 08:12:56.99	351.87	2.97	-44.9	-59.4	3.8	1.49e+00	0	62	104	627048448	60	20276
2026-01-26 08:12:58.00	351.79	2.91	-44.9	-59.5	3.8	1.49e+00	0	62	104	627048448	60	20343
2026-01-26 08:12:59.01	351.71	2.86	-44.9	-59.4	3.8	1.49e+00	0	62	104	627048448	60	20299
2026-01-26 08:13:00.02	351.63	2.80	-44.9	-59.4	3.9	1.49e+00	0	62	104	627048448	60	20303
2026-01-26 08:13:01.03	351.55	2.75	-44.8	-59.4	3.8	1.49e+00	0	62	104	627048448	60	20244
2026-01-26 08:13:02.04	351.47	2.69	-44.7	-59.4	3.8	1.49e+00	0	62	104	627048448	60	20283
2026-01-26 08:13:03.05	351.40	2.64	-44.8	-59.4	3.8	1.49e+00	0	62	104	627048448	60	20249
2026-01-26 08:13:04.06	351.32	2.58	-44.9	-59.5	3.8	1.49e+00	0	62	104	627048448	60	20365
2026-01-26 08:13:05.07	351.24	2.53	-44.7	-59.4	3.8	1.49e+00	0	62	104	627048448	60	20217
2026-01-26 08:13:06.08	351.16	2.48	-44.8	-59.4	3.8	1.49e+00	0	62	104	627048448	60	20240
2026-01-26 08:13:07.09	351.09	2.42	-44.8	-59.4	3.8	1.49e+00	0	62	104	627048448	60	20225
