passes_logs/2026/01/26/R2.0S_Moscow/R2.0S_Moscow__20260126_152001_FENGYUN_3E_rec.log

#Pass ID: 20260126_152001_FENGYUN 3E
#Satellite: FENGYUN 3E
#Configuration: FENGYUN 3E
#almurnet v.1.7.20251203
#Start time: 2026-01-26 15:20:02

#Version: 2.2.20231116
#Station: R2.0S_Moscow
#Location: 37.707566 lon 55.798166 lat
#TLE: 1 49008U 21062A   26025.99868676  .00000027  00000+0  33666-4 0  9992
#TLE: 2 49008  98.7499  30.9985 0002454 117.4834 242.6592 14.19886826236404

#Time	Az	El	Level	Level2	SNR	BER	BlckErr	Temp	State	Recorded	gain1	gain2
2026-01-26 15:20:02.87	194.43	2.11	-44.0	-55.0	3.8	8.46e-01	0	53	0	0	59	12231
2026-01-26 15:20:03.87	194.48	2.17	-44.0	-55.0	3.8	8.45e-01	0	53	104	0	59	12154
2026-01-26 15:20:04.89	194.54	2.23	-44.0	-55.0	3.8	8.47e-01	0	53	104	0	59	12201
2026-01-26 15:20:05.90	194.59	2.29	-44.0	-55.0	3.8	8.46e-01	0	53	104	0	59	12201
2026-01-26 15:20:06.91	194.65	2.35	-44.0	-55.1	3.8	8.46e-01	0	54	104	0	59	12251
2026-01-26 15:20:07.92	194.70	2.41	-44.0	-55.1	3.8	8.46e-01	0	54	104	0	59	12241
2026-01-26 15:20:08.93	194.76	2.47	-44.0	-55.0	3.8	8.46e-01	0	54	104	0	59	12233
2026-01-26 15:20:09.94	194.81	2.53	-44.0	-55.0	3.8	8.47e-01	0	54	104	0	59	12173
2026-01-26 15:20:10.95	194.87	2.59	-44.0	-55.0	3.8	8.46e-01	0	54	104	0	59	12192
2026-01-26 15:20:11.96	194.92	2.65	-44.0	-55.0	3.8	8.45e-01	0	54	104	0	59	12171
2026-01-26 15:20:12.97	194.98	2.71	-44.0	-55.0	3.8	8.47e-01	0	54	104	0	59	12206
2026-01-26 15:20:13.98	195.04	2.77	-44.0	-55.0	3.8	8.46e-01	0	54	104	0	59	12206
2026-01-26 15:20:14.99	195.09	2.84	-44.0	-55.0	3.8	8.47e-01	0	54	104	0	59	12197
2026-01-26 15:20:16.01	195.15	2.90	-44.0	-55.0	3.8	8.47e-01	0	54	104	0	59	12230
2026-01-26 15:20:17.02	195.21	2.96	-44.0	-55.0	3.8	8.47e-01	0	54	104	0	59	12198
2026-01-26 15:20:18.03	195.27	3.02	-44.0	-55.0	3.8	8.46e-01	0	54	104	0	59	12200
2026-01-26 15:20:19.04	195.32	3.08	-44.0	-55.0	3.8	8.47e-01	0	55	104	0	59	12173
2026-01-26 15:20:20.05	195.38	3.15	-44.0	-55.0	3.8	8.45e-01	0	55	104	0	59	12153
2026-01-26 15:20:21.06	195.44	3.21	-44.0	-55.0	3.8	8.46e-01	0	55	104	0	59	12233
2026-01-26 15:20:22.07	195.50	3.27	-44.0	-55.1	3.8	8.46e-01	0	55	104	0	59	12260
2026-01-26 15:20:23.08	195.56	3.33	-44.0	-55.1	3.8	8.46e-01	0	55	104	0	59	12245
2026-01-26 15:20:24.09	195.62	3.39	-44.0	-55.1	3.8	8.46e-01	0	55	104	0	59	12253
2026-01-26 15:20:25.10	195.67	3.46	-44.0	-55.1	3.8	8.46e-01	0	55	104	0	59	12237
2026-01-26 15:20:26.11	195.73	3.52	-44.0	-55.0	3.8	8.47e-01	0	55	104	0	59	12215
2026-01-26 15:20:27.12	195.79	3.58	-44.0	-55.0	3.8	8.47e-01	0	55	104	0	59	12219
2026-01-26 15:20:28.13	195.85	3.65	-44.0	-55.0	3.8	8.46e-01	0	55	104	0	59	12212
2026-01-26 15:20:29.14	195.91	3.71	-44.0	-55.0	3.8	8.45e-01	0	55	104	0	59	12172
2026-01-26 15:20:30.16	195.97	3.77	-44.0	-55.0	3.8	8.46e-01	0	55	104	0	59	12179
2026-01-26 15:20:31.17	196.04	3.84	-44.0	-55.0	3.8	8.46e-01	0	56	104	0	59	12122
2026-01-26 15:20:32.18	196.10	3.90	-44.0	-55.0	3.8	8.47e-01	0	56	104	0	59	12182
2026-01-26 15:20:33.19	196.16	3.96	-44.0	-55.0	3.8	8.45e-01	0	55	104	0	59	12145
2026-01-26 15:20:34.20	196.22	4.03	-44.0	-55.0	3.8	8.46e-01	0	55	104	0	59	12152
2026-01-26 15:20:35.21	196.28	4.09	-44.0	-55.0	3.8	8.46e-01	0	56	104	0	59	12144
2026-01-26 15:20:36.22	196.34	4.15	-44.0	-55.0	3.8	8.46e-01	0	55	104	0	59	12128
2026-01-26 15:20:37.23	196.40	4.22	-44.0	-55.0	3.8	8.46e-01	0	56	104	0	59	12188
2026-01-26 15:20:38.24	196.47	4.28	-44.0	-55.0	3.8	8.45e-01	0	56	104	0	59	12125
2026-01-26 15:20:39.25	196.53	4.35	-44.0	-55.0	3.8	8.46e-01	0	56	104	0	59	12161
2026-01-26 15:20:40.26	196.59	4.41	-44.0	-55.0	3.8	8.47e-01	0	56	104	0	59	12153
2026-01-26 15:20:41.27	196.66	4.47	-44.0	-55.0	3.8	8.46e-01	0	56	104	0	59	12118
2026-01-26 15:20:42.28	196.72	4.54	-44.0	-54.9	3.8	8.45e-01	0	56	104	0	59	12054
2026-01-26 15:20:43.29	196.78	4.60	-44.0	-54.9	3.8	8.45e-01	0	56	104	0	59	12089
2026-01-26 15:20:44.30	196.85	4.67	-44.0	-54.9	3.8	8.46e-01	0	56	104	0	58	12689
2026-01-26 15:20:45.31	196.91	4.73	-44.0	-54.9	3.8	8.47e-01	0	56	104	0	58	12674
2026-01-26 15:20:46.32	196.98	4.80	-44.0	-54.8	3.8	8.45e-01	0	56	104	0	58	12614
2026-01-26 15:20:47.33	197.04	4.86	-43.9	-54.7	3.8	8.46e-01	0	56	104	0	58	12402
2026-01-26 15:20:48.34	197.10	4.93	-43.9	-54.6	3.8	8.46e-01	0	56	104	0	58	12347
2026-01-26 15:20:49.35	197.17	5.00	-44.0	-54.7	3.8	8.47e-01	0	56	104	0	58	12501
2026-01-26 15:20:50.36	197.24	5.06	-43.9	-54.4	3.8	8.47e-01	0	57	104	0	58	11973
2026-01-26 15:20:51.37	197.30	5.13	-43.9	-54.5	3.8	8.46e-01	0	56	104	0	58	12199
2026-01-26 15:20:52.38	197.37	5.19	-43.9	-54.3	3.8	8.47e-01	0	56	104	0	58	11934
2026-01-26 15:20:53.39	197.43	5.26	-43.9	-54.1	3.8	8.45e-01	0	57	104	0	58	11636
2026-01-26 15:20:54.40	197.50	5.33	-43.9	-54.0	3.8	8.46e-01	0	57	104	0	58	11548
2026-01-26 15:20:55.41	197.57	5.39	-43.8	-53.9	3.8	8.45e-01	0	57	104	0	58	11346
2026-01-26 15:20:56.42	197.64	5.46	-43.8	-53.7	3.8	8.46e-01	0	57	104	0	58	11119
2026-01-26 15:20:57.43	197.70	5.53	-43.8	-53.7	3.8	8.46e-01	0	57	104	0	58	11064
2026-01-26 15:20:58.44	197.77	5.59	-43.8	-53.7	3.8	8.46e-01	0	57	104	0	58	11031
2026-01-26 15:20:59.46	197.84	5.66	-43.7	-53.0	3.8	8.45e-01	0	57	104	0	58	10192
2026-01-26 15:21:00.46	197.91	5.73	-43.7	-52.9	3.8	8.44e-01	0	57	104	0	58	10131
2026-01-26 15:21:01.47	197.98	5.79	-43.5	-52.2	3.9	8.45e-01	0	57	104	0	58	9281
2026-01-26 15:21:02.48	198.05	5.86	-43.5	-51.7	4.1	8.38e-01	0	57	0	0	57	9339
2026-01-26 15:21:03.49	198.12	5.93	-43.3	-51.0	4.3	8.32e-01	0	57	0	0	57	8567
2026-01-26 15:21:04.50	198.19	6.00	-43.1	-50.2	4.6	8.15e-01	0	57	0	0	57	7885
2026-01-26 15:21:05.51	198.26	6.06	-43.1	-50.2	4.6	8.08e-01	0	57	0	0	57	7890
2026-01-26 15:21:06.53	198.33	6.13	-42.8	-49.1	5.2	7.70e-01	0	57	0	0	56	7371
2026-01-26 15:21:07.54	198.40	6.20	-42.8	-49.2	5.2	7.25e-01	0	57	0	0	56	7399
2026-01-26 15:21:08.55	198.47	6.27	-42.2	-47.7	6.0	5.37e-01	0	57	0	1048576	55	6591
2026-01-26 15:21:09.56	198.54	6.34	-42.1	-47.3	6.3	2.62e-01	0	57	0	8388608	55	6346
2026-01-26 15:21:10.57	198.61	6.41	-42.1	-47.2	6.4	2.60e-01	0	57	0	15728640	55	6257
2026-01-26 15:21:11.58	198.68	6.47	-41.8	-46.7	6.9	1.94e-01	0	57	0	23068672	54	6246
2026-01-26 15:21:12.59	198.76	6.54	-41.6	-46.2	7.3	1.16e-01	0	58	0	30408704	54	5920
2026-01-26 15:21:13.60	198.83	6.61	-41.9	-47.0	6.6	1.70e-01	0	58	0	37748736	54	6477
2026-01-26 15:21:14.61	198.90	6.68	-41.7	-46.5	7.1	1.52e-01	0	58	0	45088768	54	6084
2026-01-26 15:21:15.62	198.97	6.75	-41.8	-46.7	6.8	1.72e-01	0	58	0	52428800	54	6259
2026-01-26 15:21:16.63	199.05	6.82	-41.6	-46.2	7.3	1.54e-01	0	58	0	59768832	54	5893
2026-01-26 15:21:17.64	199.12	6.89	-41.9	-46.8	6.7	1.47e-01	0	58	0	67108864	54	6338
2026-01-26 15:21:18.65	199.20	6.96	-41.6	-46.3	7.3	1.44e-01	0	58	0	74448896	54	5924
2026-01-26 15:21:19.66	199.27	7.03	-41.7	-46.3	7.2	1.43e-01	0	58	0	81788928	54	5967
2026-01-26 15:21:20.67	199.35	7.10	-41.6	-46.1	7.3	1.08e-01	0	58	0	89128960	54	5854
2026-01-26 15:21:21.68	199.42	7.17	-41.3	-45.5	8.0	8.20e-02	0	58	0	96468992	53	5726
2026-01-26 15:21:22.70	199.50	7.24	-41.0	-44.8	8.7	3.03e-02	0	58	0	103809024	52	5606
2026-01-26 15:21:23.71	199.57	7.31	-40.5	-44.0	9.5	1.52e-02	0	58	0	111149056	52	5114
2026-01-26 15:21:24.72	199.65	7.38	-40.3	-43.5	10.1	7.77e-03	0	58	0	117440512	51	5121
2026-01-26 15:21:25.73	199.73	7.45	-39.8	-42.7	11.0	2.30e-03	0	58	0	125829120	50	4947
2026-01-26 15:21:26.74	199.80	7.52	-39.6	-42.5	11.1	1.44e-03	0	58	0	133169152	50	4848
2026-01-26 15:21:27.75	199.88	7.59	-39.0	-41.6	12.1	4.62e-04	0	58	0	139460608	49	4604
2026-01-26 15:21:28.76	199.96	7.66	-38.4	-40.9	12.6	8.12e-05	0	58	0	146800640	47	4765
2026-01-26 15:21:29.77	200.04	7.74	-38.5	-41.0	12.5	5.14e-05	0	58	0	154140672	47	4817
2026-01-26 15:21:30.78	200.12	7.81	-38.3	-40.8	12.6	9.61e-05	0	59	0	161480704	47	4757
2026-01-26 15:21:31.79	200.19	7.88	-38.1	-40.5	12.9	4.80e-05	0	58	0	168820736	47	4587
2026-01-26 15:21:32.80	200.27	7.95	-38.1	-40.5	13.0	3.20e-05	0	58	0	176160768	47	4565
2026-01-26 15:21:33.82	200.35	8.02	-38.7	-41.4	12.1	3.31e-05	0	59	0	183500800	47	5055
2026-01-26 15:21:34.83	200.43	8.10	-38.0	-40.4	13.1	4.69e-05	0	58	0	190840832	47	4519
2026-01-26 15:21:35.84	200.51	8.17	-43.0	-50.8	4.3	5.18e-02	0	59	0	197132288	55	9465
2026-01-26 15:21:36.85	200.60	8.24	-40.1	-43.1	10.9	4.59e-04	0	59	0	199229440	49	5494
2026-01-26 15:21:37.86	200.68	8.31	-40.8	-44.2	9.9	6.67e-03	0	58	0	205520896	51	5551
2026-01-26 15:21:38.87	200.76	8.39	-41.6	-45.9	8.0	2.04e-04	0	59	0	212860928	52	6380
2026-01-26 15:21:39.88	200.84	8.46	-39.2	-41.9	12.0	5.48e-03	0	59	0	220200960	49	4787
2026-01-26 15:21:40.89	200.92	8.53	-39.1	-41.7	12.2	2.77e-04	0	59	0	227540992	49	4681
2026-01-26 15:21:41.90	201.01	8.61	-39.2	-41.9	12.0	4.00e-04	0	59	0	234881024	49	4775
2026-01-26 15:21:42.91	201.09	8.68	-39.3	-41.9	12.1	2.86e-04	0	59	0	242221056	49	4790
2026-01-26 15:21:43.92	201.17	8.75	-39.2	-41.9	12.1	3.26e-04	0	59	0	249561088	49	4770
2026-01-26 15:21:44.93	201.26	8.83	-39.3	-42.0	12.0	2.84e-04	0	59	0	256901120	48	5124
2026-01-26 15:21:45.95	201.34	8.90	-39.0	-41.5	12.5	1.26e-04	0	59	0	264241152	48	4832
2026-01-26 15:21:46.96	201.43	8.98	-38.9	-41.4	12.7	1.62e-04	0	59	0	271581184	48	4766
2026-01-26 15:21:47.97	201.51	9.05	-38.5	-40.8	13.2	2.51e-05	0	59	0	278921216	48	4480
2026-01-26 15:21:48.98	201.60	9.12	-38.1	-40.4	13.4	3.20e-05	0	59	0	286261248	47	4534
2026-01-26 15:21:49.99	201.68	9.20	-38.5	-40.9	13.0	5.49e-05	0	59	0	293601280	47	4778
2026-01-26 15:21:51.00	201.77	9.27	-38.1	-40.4	13.6	1.37e-05	0	59	0	300941312	47	4497
2026-01-26 15:21:52.01	201.86	9.35	-38.2	-40.5	13.4	1.71e-05	0	59	0	308281344	47	4590
2026-01-26 15:21:53.02	201.94	9.42	-38.2	-40.5	13.4	2.28e-05	0	59	0	314572800	47	4576
2026-01-26 15:21:54.03	202.03	9.50	-38.2	-40.5	13.4	2.86e-05	0	59	0	322961408	47	4578
2026-01-26 15:21:55.04	202.12	9.57	-38.2	-40.4	13.5	5.70e-06	0	59	0	330301440	46	4797
2026-01-26 15:21:56.05	202.21	9.65	-38.1	-40.3	13.6	1.83e-05	0	59	0	336592896	46	4738
2026-01-26 15:21:57.06	202.30	9.73	-37.9	-40.1	13.9	4.50e-06	0	59	0	343932928	46	4608
2026-01-26 15:21:58.07	202.39	9.80	-37.9	-40.0	13.9	3.40e-06	0	59	0	351272960	46	4595
2026-01-26 15:21:59.08	202.48	9.88	-38.2	-40.5	13.5	1.25e-05	0	59	0	358612992	46	4815
2026-01-26 15:22:00.09	202.57	9.95	-38.1	-40.3	13.7	1.60e-05	0	59	0	365953024	46	4754
2026-01-26 15:22:01.10	202.66	10.03	-37.9	-40.1	13.9	4.50e-06	0	59	0	373293056	46	4606
2026-01-26 15:22:02.11	202.75	10.11	-38.1	-40.3	13.7	9.10e-06	0	59	0	380633088	46	4747
2026-01-26 15:22:03.12	202.84	10.19	-38.1	-40.3	13.7	1.25e-05	0	59	0	387973120	46	4756
2026-01-26 15:22:04.13	202.93	10.26	-38.2	-40.4	13.7	4.50e-06	0	59	0	395313152	46	4764
2026-01-26 15:22:05.14	203.03	10.34	-37.9	-40.0	14.1	0.00e+00	0	59	0	402653184	46	4594
2026-01-26 15:22:06.16	203.12	10.42	-38.1	-40.3	13.8	2.20e-06	0	60	0	409993216	46	4737
2026-01-26 15:22:07.16	203.21	10.49	-37.9	-40.0	14.1	4.50e-06	0	60	0	417333248	46	4564
2026-01-26 15:22:08.17	203.31	10.57	-37.7	-39.8	14.3	0.00e+00	0	59	0	424673280	46	4447
2026-01-26 15:22:09.18	203.40	10.65	-37.9	-40.0	14.1	2.20e-06	0	59	0	432013312	46	4570
2026-01-26 15:22:10.19	203.50	10.73	-37.9	-40.0	14.1	2.20e-06	0	60	0	439353344	46	4593
2026-01-26 15:22:11.20	203.59	10.81	-37.9	-40.0	14.2	1.10e-06	0	60	0	446693376	46	4561
2026-01-26 15:22:12.21	203.69	10.89	-37.9	-40.0	14.1	5.70e-06	0	60	0	454033408	46	4587
2026-01-26 15:22:13.22	203.79	10.96	-37.8	-39.8	14.3	2.20e-06	0	59	0	461373440	46	4465
2026-01-26 15:22:14.23	203.88	11.04	-37.8	-39.8	14.3	2.20e-06	0	60	0	468713472	46	4491
2026-01-26 15:22:15.24	203.98	11.12	-37.8	-39.8	14.3	1.10e-06	0	60	0	476053504	46	4470
2026-01-26 15:22:16.25	204.08	11.20	-37.9	-39.9	14.2	5.70e-06	0	60	0	483393536	46	4532
2026-01-26 15:22:17.26	204.18	11.28	-37.8	-39.9	14.3	2.20e-06	0	60	0	489684992	46	4502
2026-01-26 15:22:18.27	204.28	11.36	-37.8	-39.9	14.3	3.40e-06	0	60	0	497025024	46	4503
2026-01-26 15:22:19.28	204.38	11.44	-37.8	-39.8	14.3	1.10e-06	0	60	0	505413632	46	4484
2026-01-26 15:22:20.29	204.48	11.52	-37.9	-40.0	14.2	0.00e+00	0	60	0	511705088	46	4564
2026-01-26 15:22:21.30	204.58	11.60	-37.7	-39.7	14.5	3.40e-06	0	60	0	519045120	46	4422
2026-01-26 15:22:22.31	204.68	11.68	-37.9	-40.0	14.2	1.10e-06	0	60	0	526385152	46	4555
2026-01-26 15:22:23.32	204.78	11.76	-37.7	-39.7	14.5	0.00e+00	0	60	0	533725184	46	4430
2026-01-26 15:22:24.33	204.88	11.84	-37.8	-39.9	14.3	0.00e+00	0	60	0	541065216	46	4527
2026-01-26 15:22:25.35	204.99	11.92	-37.6	-39.7	14.5	0.00e+00	0	60	0	548405248	46	4403
2026-01-26 15:22:26.36	205.09	12.00	-37.6	-39.7	14.5	1.10e-06	0	60	0	555745280	45	4670
2026-01-26 15:22:27.37	205.20	12.09	-37.7	-39.7	14.5	2.20e-06	0	60	0	563085312	45	4691
2026-01-26 15:22:28.38	205.30	12.17	-37.6	-39.6	14.6	1.10e-06	0	60	0	570425344	45	4625
2026-01-26 15:22:29.39	205.41	12.25	-37.7	-39.7	14.5	0.00e+00	0	60	0	577765376	45	4686
2026-01-26 15:22:30.40	205.51	12.33	-37.5	-39.5	14.7	0.00e+00	0	60	0	585105408	45	4574
2026-01-26 15:22:31.41	205.62	12.41	-37.5	-39.5	14.8	0.00e+00	0	60	0	592445440	45	4573
2026-01-26 15:22:32.42	205.72	12.49	-37.3	-39.3	14.9	0.00e+00	0	60	0	599785472	45	4481
2026-01-26 15:22:33.43	205.83	12.58	-37.3	-39.3	15.0	0.00e+00	0	60	0	607125504	45	4466
2026-01-26 15:22:34.44	205.94	12.66	-37.4	-39.4	14.9	0.00e+00	0	60	0	614465536	45	4532
2026-01-26 15:22:35.44	206.05	12.74	-37.4	-39.4	14.9	0.00e+00	0	60	0	621805568	45	4502
2026-01-26 15:22:36.45	206.16	12.82	-37.4	-39.4	14.9	0.00e+00	0	60	0	629145600	45	4518
2026-01-26 15:22:37.46	206.27	12.91	-37.4	-39.4	14.9	0.00e+00	0	60	0	635437056	45	4498
2026-01-26 15:22:38.47	206.38	12.99	-37.4	-39.4	14.9	0.00e+00	0	60	0	642777088	45	4539
2026-01-26 15:22:39.48	206.49	13.08	-37.4	-39.4	14.9	1.10e-06	0	60	0	651165696	45	4536
2026-01-26 15:22:40.50	206.60	13.16	-37.2	-39.2	15.1	0.00e+00	0	60	0	657457152	45	4423
2026-01-26 15:22:41.51	206.71	13.24	-37.3	-39.3	15.0	0.00e+00	0	60	0	664797184	45	4461
2026-01-26 15:22:42.52	206.83	13.33	-37.2	-39.3	15.0	0.00e+00	0	60	0	672137216	45	4457
2026-01-26 15:22:43.53	206.94	13.41	-37.3	-39.4	14.9	0.00e+00	0	60	0	679477248	45	4508
2026-01-26 15:22:44.54	207.05	13.50	-37.3	-39.4	14.9	0.00e+00	0	60	0	686817280	45	4528
2026-01-26 15:22:45.55	207.17	13.58	-37.1	-39.2	15.1	0.00e+00	0	60	0	694157312	45	4405
2026-01-26 15:22:46.55	207.28	13.67	-37.3	-39.4	14.9	0.00e+00	0	60	0	701497344	45	4498
2026-01-26 15:22:47.56	207.40	13.75	-37.1	-39.2	15.1	0.00e+00	0	60	0	708837376	45	4422
2026-01-26 15:22:48.57	207.52	13.84	-37.2	-39.2	15.1	0.00e+00	0	60	0	716177408	45	4422
2026-01-26 15:22:49.59	207.63	13.92	-37.1	-39.1	15.2	0.00e+00	0	60	0	723517440	44	4643
2026-01-26 15:22:50.60	207.75	14.01	-37.0	-39.0	15.2	0.00e+00	0	60	0	730857472	44	4585
2026-01-26 15:22:51.61	207.87	14.09	-36.9	-38.9	15.3	1.10e-06	0	61	0	738197504	44	4544
2026-01-26 15:22:52.62	207.99	14.18	-37.0	-39.0	15.2	0.00e+00	0	61	0	745537536	44	4598
2026-01-26 15:22:53.62	208.11	14.26	-37.0	-39.0	15.2	0.00e+00	0	60	0	752877568	44	4597
2026-01-26 15:22:54.63	208.23	14.35	-37.1	-39.2	15.1	0.00e+00	0	61	0	760217600	44	4660
2026-01-26 15:22:55.64	208.35	14.44	-36.9	-39.0	15.3	0.00e+00	0	61	0	767557632	44	4579
2026-01-26 15:22:56.65	208.47	14.52	-37.0	-39.1	15.3	0.00e+00	0	61	0	774897664	44	4601
2026-01-26 15:22:57.66	208.60	14.61	-36.9	-39.0	15.3	0.00e+00	0	61	0	782237696	44	4569
2026-01-26 15:22:58.67	208.72	14.70	-37.0	-39.1	15.2	0.00e+00	0	61	0	788529152	44	4622
2026-01-26 15:22:59.68	208.84	14.79	-37.0	-39.0	15.3	0.00e+00	0	60	0	796917760	44	4573
2026-01-26 15:23:00.69	208.97	14.87	-37.0	-39.0	15.3	1.10e-06	0	61	0	804257792	44	4589
2026-01-26 15:23:01.70	209.09	14.96	-36.8	-38.8	15.5	0.00e+00	0	60	0	810549248	44	4464
2026-01-26 15:23:02.71	209.22	15.05	-36.8	-38.8	15.5	0.00e+00	0	61	0	817889280	44	4473
2026-01-26 15:23:03.72	209.35	15.14	-36.8	-38.7	15.5	0.00e+00	0	61	0	825229312	44	4435
2026-01-26 15:23:04.73	209.47	15.23	-36.7	-38.7	15.7	0.00e+00	0	61	0	832569344	44	4393
2026-01-26 15:23:05.74	209.60	15.31	-36.6	-38.5	15.7	0.00e+00	0	61	0	839909376	44	4333
2026-01-26 15:23:06.75	209.73	15.40	-36.6	-38.5	15.8	0.00e+00	0	61	0	847249408	44	4294
2026-01-26 15:23:07.76	209.86	15.49	-36.5	-38.3	16.0	0.00e+00	0	61	0	854589440	44	4240
2026-01-26 15:23:08.77	209.99	15.58	-36.7	-38.6	15.7	0.00e+00	0	61	0	861929472	44	4347
2026-01-26 15:23:09.78	210.12	15.67	-36.3	-38.2	16.0	0.00e+00	0	61	0	869269504	43	4412
2026-01-26 15:23:10.79	210.26	15.76	-36.3	-38.2	16.0	0.00e+00	0	61	0	876609536	43	4402
2026-01-26 15:23:11.80	210.39	15.85	-36.4	-38.3	15.9	0.00e+00	0	61	0	883949568	43	4461
2026-01-26 15:23:12.81	210.52	15.94	-36.3	-38.2	16.0	0.00e+00	0	61	0	891289600	43	4415
2026-01-26 15:23:13.82	210.66	16.03	-36.4	-38.3	15.9	0.00e+00	0	61	0	898629632	43	4448
2026-01-26 15:23:14.83	210.79	16.12	-36.4	-38.3	15.9	0.00e+00	0	61	0	905969664	43	4448
2026-01-26 15:23:15.84	210.93	16.21	-36.4	-38.2	15.9	0.00e+00	0	61	0	913309696	43	4439
2026-01-26 15:23:16.85	211.07	16.30	-36.4	-38.3	15.9	0.00e+00	0	61	0	920649728	43	4464
2026-01-26 15:23:17.86	211.20	16.39	-36.5	-38.4	15.8	0.00e+00	0	61	0	927989760	43	4527
2026-01-26 15:23:18.87	211.34	16.48	-36.6	-38.5	15.7	0.00e+00	0	61	0	934281216	43	4573
2026-01-26 15:23:19.88	211.48	16.57	-36.5	-38.4	15.8	0.00e+00	0	61	0	942669824	43	4528
2026-01-26 15:23:20.89	211.62	16.67	-36.6	-38.5	15.8	0.00e+00	0	61	0	950009856	43	4546
2026-01-26 15:23:21.90	211.76	16.76	-36.3	-38.2	16.0	0.00e+00	0	61	0	956301312	43	4402
2026-01-26 15:23:22.91	211.91	16.85	-36.3	-38.2	16.0	0.00e+00	0	61	0	963641344	43	4398
2026-01-26 15:23:23.92	212.05	16.94	-36.3	-38.1	16.1	0.00e+00	0	61	0	970981376	43	4375
2026-01-26 15:23:24.93	212.19	17.03	-36.3	-38.1	16.1	0.00e+00	0	61	0	978321408	43	4384
2026-01-26 15:23:25.94	212.34	17.13	-36.3	-38.1	16.1	0.00e+00	0	61	0	985661440	43	4375
2026-01-26 15:23:26.95	212.48	17.22	-36.3	-38.0	16.2	0.00e+00	0	61	0	993001472	43	4335
2026-01-26 15:23:27.96	212.63	17.31	-36.1	-37.9	16.3	0.00e+00	0	61	0	1000341504	43	4255
2026-01-26 15:23:28.97	212.77	17.40	-36.2	-37.9	16.3	0.00e+00	0	61	0	1007681536	43	4285
2026-01-26 15:23:29.98	212.92	17.50	-36.1	-37.8	16.4	0.00e+00	0	61	0	1015021568	43	4206
2026-01-26 15:23:30.99	213.07	17.59	-36.0	-37.7	16.5	0.00e+00	0	61	0	1022361600	43	4169
2026-01-26 15:23:32.00	213.22	17.68	-35.9	-37.6	16.6	0.00e+00	0	61	0	1029701632	42	4385
2026-01-26 15:23:33.01	213.37	17.78	-35.9	-37.6	16.7	0.00e+00	0	61	0	1037041664	42	4362
2026-01-26 15:23:34.02	213.52	17.87	-35.9	-37.6	16.7	0.00e+00	0	61	0	1044381696	42	4344
2026-01-26 15:23:35.03	213.67	17.96	-35.9	-37.6	16.7	0.00e+00	0	61	0	1051721728	42	4355
2026-01-26 15:23:36.04	213.83	18.06	-35.9	-37.5	16.8	0.00e+00	0	61	0	1059061760	42	4315
2026-01-26 15:23:37.05	213.98	18.15	-36.0	-37.7	16.6	0.00e+00	0	61	0	1066401792	42	4398
2026-01-26 15:23:38.06	214.14	18.25	-35.9	-37.6	16.7	0.00e+00	0	61	0	1073741824	42	4383
2026-01-26 15:23:39.07	214.29	18.34	-36.0	-37.7	16.6	0.00e+00	0	61	0	1081081856	42	4414
2026-01-26 15:23:40.07	214.45	18.43	-35.9	-37.6	16.7	0.00e+00	0	61	0	1087373312	42	4376
2026-01-26 15:23:41.08	214.61	18.53	-36.0	-37.7	16.6	0.00e+00	0	61	0	1095761920	42	4427
2026-01-26 15:23:42.10	214.77	18.62	-35.9	-37.7	16.6	0.00e+00	0	61	0	1103101952	42	4404
2026-01-26 15:23:43.11	214.93	18.72	-36.0	-37.8	16.5	0.00e+00	0	61	0	1109393408	42	4467
2026-01-26 15:23:44.12	215.09	18.81	-36.0	-37.8	16.5	0.00e+00	0	61	0	1116733440	42	4475
2026-01-26 15:23:45.13	215.25	18.91	-35.9	-37.7	16.6	0.00e+00	0	61	0	1125122048	42	4412
2026-01-26 15:23:46.14	215.41	19.00	-35.9	-37.7	16.6	0.00e+00	0	61	0	1131413504	42	4416
2026-01-26 15:23:47.15	215.58	19.10	-35.8	-37.5	16.8	0.00e+00	0	61	0	1138753536	42	4337
2026-01-26 15:23:48.16	215.74	19.20	-35.8	-37.6	16.7	0.00e+00	0	61	0	1146093568	42	4360
2026-01-26 15:23:49.17	215.91	19.29	-35.8	-37.5	16.8	0.00e+00	0	61	0	1153433600	42	4331
2026-01-26 15:23:50.18	216.08	19.39	-35.7	-37.4	16.8	0.00e+00	0	61	0	1160773632	42	4281
2026-01-26 15:23:51.19	216.24	19.48	-35.6	-37.4	16.9	0.00e+00	0	61	0	1168113664	42	4244
2026-01-26 15:23:52.20	216.41	19.58	-35.6	-37.3	17.0	0.00e+00	0	61	0	1175453696	42	4216
2026-01-26 15:23:53.21	216.58	19.68	-35.5	-37.2	17.0	0.00e+00	0	61	0	1182793728	42	4186
2026-01-26 15:23:54.22	216.75	19.77	-35.4	-37.1	17.1	0.00e+00	0	61	0	1190133760	41	4389
2026-01-26 15:23:55.23	216.93	19.87	-35.4	-37.1	17.1	0.00e+00	0	61	0	1197473792	41	4384
2026-01-26 15:23:56.24	217.10	19.97	-35.6	-37.3	16.9	0.00e+00	0	61	0	1204813824	41	4471
2026-01-26 15:23:57.25	217.27	20.06	-35.7	-37.4	16.8	0.00e+00	0	61	0	1212153856	41	4525
2026-01-26 15:23:58.26	217.45	20.16	-35.7	-37.4	16.9	0.00e+00	0	61	0	1219493888	41	4509
2026-01-26 15:23:59.27	217.62	20.26	-35.6	-37.3	16.9	0.00e+00	0	62	0	1226833920	41	4479
2026-01-26 15:24:00.28	217.80	20.36	-35.6	-37.4	16.9	0.00e+00	0	61	0	1234173952	41	4520
2026-01-26 15:24:01.29	217.98	20.45	-35.7	-37.5	16.7	0.00e+00	0	61	0	1241513984	41	4574
2026-01-26 15:24:02.30	218.16	20.55	-35.7	-37.5	16.7	0.00e+00	0	61	0	1248854016	41	4577
2026-01-26 15:24:03.31	218.34	20.65	-35.9	-37.7	16.6	0.00e+00	0	62	0	1255145472	41	4669
2026-01-26 15:24:04.32	218.52	20.75	-35.9	-37.7	16.6	0.00e+00	0	61	0	1262485504	41	4660
2026-01-26 15:24:05.33	218.71	20.84	-35.7	-37.5	16.8	0.00e+00	0	61	0	1270874112	41	4557
2026-01-26 15:24:06.34	218.89	20.94	-35.6	-37.4	16.9	0.00e+00	0	61	0	1277165568	41	4504
2026-01-26 15:24:07.35	219.08	21.04	-35.5	-37.2	17.0	0.00e+00	0	61	0	1284505600	41	4441
2026-01-26 15:24:08.37	219.26	21.14	-35.5	-37.2	17.0	0.00e+00	0	61	0	1291845632	41	4418
2026-01-26 15:24:09.38	219.45	21.24	-35.4	-37.1	17.1	0.00e+00	0	61	0	1299185664	41	4374
2026-01-26 15:24:10.39	219.64	21.33	-35.4	-37.0	17.2	0.00e+00	0	61	0	1306525696	41	4339
2026-01-26 15:24:11.40	219.83	21.43	-35.3	-37.0	17.3	0.00e+00	0	61	0	1313865728	41	4303
2026-01-26 15:24:12.41	220.02	21.53	-35.4	-37.1	17.2	0.00e+00	0	62	0	1321205760	41	4348
2026-01-26 15:24:13.42	220.21	21.63	-35.4	-37.1	17.2	0.00e+00	0	61	0	1328545792	41	4341
2026-01-26 15:24:14.43	220.41	21.73	-35.4	-37.2	17.1	0.00e+00	0	62	0	1335885824	41	4394
2026-01-26 15:24:15.44	220.60	21.83	-35.4	-37.1	17.1	0.00e+00	0	62	0	1343225856	41	4390
2026-01-26 15:24:16.45	220.80	21.92	-35.4	-37.1	17.2	0.00e+00	0	61	0	1350565888	41	4342
2026-01-26 15:24:17.46	221.00	22.02	-35.3	-37.0	17.3	0.00e+00	0	62	0	1357905920	41	4294
2026-01-26 15:24:18.47	221.19	22.12	-35.3	-36.9	17.3	0.00e+00	0	61	0	1365245952	41	4281
2026-01-26 15:24:19.48	221.39	22.22	-35.3	-37.0	17.2	0.00e+00	0	61	0	1372585984	41	4317
2026-01-26 15:24:20.49	221.59	22.32	-35.3	-37.0	17.3	0.00e+00	0	62	0	1379926016	41	4311
2026-01-26 15:24:21.50	221.80	22.42	-35.5	-37.2	17.1	0.00e+00	0	62	0	1387266048	41	4398
2026-01-26 15:24:22.51	222.00	22.52	-35.5	-37.2	17.1	0.00e+00	0	62	0	1394606080	41	4396
2026-01-26 15:24:23.52	222.20	22.62	-35.5	-37.2	17.0	0.00e+00	0	61	0	1401946112	41	4427
2026-01-26 15:24:24.54	222.41	22.72	-35.5	-37.2	17.1	0.00e+00	0	62	0	1409286144	41	4429
2026-01-26 15:24:25.54	222.62	22.81	-35.5	-37.2	17.1	0.00e+00	0	61	0	1416626176	41	4401
2026-01-26 15:24:26.55	222.83	22.91	-35.3	-37.0	17.3	0.00e+00	0	62	0	1423966208	41	4326
2026-01-26 15:24:27.57	223.04	23.01	-35.3	-37.0	17.3	0.00e+00	0	62	0	1430257664	41	4319
2026-01-26 15:24:28.58	223.25	23.11	-35.3	-37.0	17.3	0.00e+00	0	61	0	1438646272	41	4319
2026-01-26 15:24:29.59	223.46	23.21	-35.3	-37.0	17.3	0.00e+00	0	61	0	1445986304	41	4328
2026-01-26 15:24:30.60	223.68	23.31	-35.4	-37.1	17.2	0.00e+00	0	62	0	1452277760	41	4369
2026-01-26 15:24:31.61	223.89	23.41	-35.5	-37.2	17.1	0.00e+00	0	62	0	1459617792	41	4399
2026-01-26 15:24:32.62	224.11	23.51	-35.4	-37.2	17.1	0.00e+00	0	61	0	1466957824	41	4400
2026-01-26 15:24:33.63	224.32	23.60	-35.4	-37.1	17.2	0.00e+00	0	62	0	1474297856	41	4350
2026-01-26 15:24:34.64	224.54	23.70	-35.3	-37.0	17.3	0.00e+00	0	62	0	1481637888	41	4296
2026-01-26 15:24:35.65	224.76	23.80	-35.1	-36.8	17.5	0.00e+00	0	61	0	1488977920	41	4197
2026-01-26 15:24:36.66	224.99	23.90	-35.1	-36.7	17.5	0.00e+00	0	62	0	1496317952	41	4192
2026-01-26 15:24:37.67	225.21	24.00	-35.0	-36.7	17.6	0.00e+00	0	62	0	1503657984	41	4147
2026-01-26 15:24:38.68	225.43	24.10	-34.9	-36.6	17.7	0.00e+00	0	62	0	1510998016	40	4359
2026-01-26 15:24:39.69	225.66	24.19	-34.9	-36.6	17.7	0.00e+00	0	62	0	1518338048	40	4356
2026-01-26 15:24:40.70	225.89	24.29	-35.0	-36.7	17.6	0.00e+00	0	62	0	1525678080	40	4413
2026-01-26 15:24:41.72	226.12	24.39	-35.1	-36.8	17.5	0.00e+00	0	62	0	1533018112	40	4449
2026-01-26 15:24:42.72	226.35	24.49	-35.1	-36.8	17.4	0.00e+00	0	62	0	1540358144	40	4474
2026-01-26 15:24:43.74	226.58	24.59	-35.1	-36.8	17.4	0.00e+00	0	62	0	1547698176	40	4466
2026-01-26 15:24:44.75	226.81	24.68	-35.2	-36.9	17.4	0.00e+00	0	62	0	1555038208	40	4511
2026-01-26 15:24:45.76	227.05	24.78	-35.3	-37.1	17.2	0.00e+00	0	62	0	1562378240	40	4613
2026-01-26 15:24:46.77	227.28	24.88	-35.3	-37.0	17.2	0.00e+00	0	62	0	1569718272	40	4582
2026-01-26 15:24:47.77	227.52	24.98	-35.3	-37.1	17.2	0.00e+00	0	62	0	1576009728	40	4599
2026-01-26 15:24:48.79	227.76	25.07	-35.4	-37.1	17.2	0.00e+00	0	62	0	1584398336	40	4613
2026-01-26 15:24:49.80	228.00	25.17	-35.2	-36.8	17.4	0.00e+00	0	62	0	1591738368	40	4483
2026-01-26 15:24:50.81	228.24	25.27	-35.1	-36.8	17.5	0.00e+00	0	62	0	1598029824	40	4451
2026-01-26 15:24:51.82	228.48	25.36	-35.2	-36.9	17.4	0.00e+00	0	62	0	1605369856	40	4509
2026-01-26 15:24:52.83	228.73	25.46	-35.3	-37.0	17.4	0.00e+00	0	62	0	1613758464	40	4561
2026-01-26 15:24:53.84	228.97	25.56	-35.3	-37.0	17.3	0.00e+00	0	62	0	1620049920	40	4582
2026-01-26 15:24:54.85	229.22	25.65	-35.4	-37.2	17.1	0.00e+00	0	62	0	1627389952	40	4668
2026-01-26 15:24:55.86	229.47	25.75	-35.2	-36.9	17.4	0.00e+00	0	62	0	1634729984	40	4525
2026-01-26 15:24:56.87	229.72	25.84	-35.2	-36.9	17.4	0.00e+00	0	62	0	1642070016	40	4498
2026-01-26 15:24:57.88	229.97	25.94	-35.0	-36.7	17.6	0.00e+00	0	62	0	1649410048	40	4394
2026-01-26 15:24:58.89	230.22	26.03	-35.0	-36.6	17.6	0.00e+00	0	62	0	1656750080	40	4381
2026-01-26 15:24:59.90	230.48	26.13	-34.9	-36.5	17.7	0.00e+00	0	62	0	1664090112	40	4334
2026-01-26 15:25:00.91	230.73	26.22	-34.8	-36.4	17.8	0.00e+00	0	62	0	1671430144	40	4277
2026-01-26 15:25:01.92	230.99	26.32	-34.8	-36.5	17.8	0.00e+00	0	62	0	1678770176	40	4294
2026-01-26 15:25:02.93	231.25	26.41	-34.8	-36.5	17.8	0.00e+00	0	62	0	1686110208	40	4308
2026-01-26 15:25:03.94	231.51	26.51	-34.9	-36.5	17.7	0.00e+00	0	62	0	1693450240	40	4328
2026-01-26 15:25:04.95	231.77	26.60	-34.9	-36.5	17.7	0.00e+00	0	62	0	1700790272	40	4332
2026-01-26 15:25:05.96	232.04	26.69	-34.8	-36.5	17.8	0.00e+00	0	62	0	1708130304	40	4303
2026-01-26 15:25:06.97	232.30	26.78	-34.8	-36.4	17.8	0.00e+00	0	62	0	1715470336	40	4279
2026-01-26 15:25:07.98	232.57	26.88	-34.9	-36.5	17.7	0.00e+00	0	62	0	1722810368	40	4337
2026-01-26 15:25:08.99	232.84	26.97	-34.8	-36.4	17.8	0.00e+00	0	62	0	1730150400	40	4291
2026-01-26 15:25:10.00	233.11	27.06	-34.9	-36.6	17.7	0.00e+00	0	62	0	1737490432	40	4363
2026-01-26 15:25:11.01	233.38	27.15	-35.0	-36.6	17.7	0.00e+00	0	62	0	1744830464	40	4391
2026-01-26 15:25:12.02	233.65	27.24	-35.0	-36.6	17.7	0.00e+00	0	62	0	1751121920	40	4387
2026-01-26 15:25:13.03	233.93	27.33	-35.0	-36.7	17.6	0.00e+00	0	62	0	1759510528	40	4416
2026-01-26 15:25:14.05	234.21	27.43	-34.9	-36.6	17.7	0.00e+00	0	62	0	1766850560	40	4363
2026-01-26 15:25:15.06	234.48	27.52	-35.0	-36.6	17.7	0.00e+00	0	62	0	1773142016	40	4383
2026-01-26 15:25:16.07	234.76	27.60	-34.9	-36.5	17.8	0.00e+00	0	62	0	1780482048	40	4324
2026-01-26 15:25:17.08	235.04	27.69	-34.9	-36.5	17.8	0.00e+00	0	62	0	1788870656	40	4311
2026-01-26 15:25:18.09	235.32	27.78	-34.9	-36.5	17.8	0.00e+00	0	62	0	1795162112	40	4311
2026-01-26 15:25:19.10	235.61	27.87	-34.8	-36.4	17.8	0.00e+00	0	62	0	1802502144	40	4280
2026-01-26 15:25:20.11	235.89	27.96	-34.8	-36.4	17.8	0.00e+00	0	62	0	1809842176	40	4287
2026-01-26 15:25:21.12	236.18	28.05	-34.8	-36.4	17.9	0.00e+00	0	62	0	1817182208	40	4277
2026-01-26 15:25:22.13	236.47	28.13	-34.8	-36.5	17.8	0.00e+00	0	62	0	1824522240	40	4298
2026-01-26 15:25:23.14	236.76	28.22	-34.7	-36.4	17.9	0.00e+00	0	62	0	1831862272	40	4246
2026-01-26 15:25:24.15	237.05	28.30	-34.7	-36.3	17.9	0.00e+00	0	62	0	1839202304	40	4240
2026-01-26 15:25:25.16	237.34	28.39	-34.7	-36.3	17.9	0.00e+00	0	62	0	1846542336	40	4234
2026-01-26 15:25:26.17	237.64	28.47	-34.6	-36.2	18.0	0.00e+00	0	62	0	1853882368	40	4172
2026-01-26 15:25:27.18	237.93	28.56	-34.5	-36.1	18.1	0.00e+00	0	62	0	1861222400	40	4119
2026-01-26 15:25:28.19	238.23	28.64	-34.6	-36.2	18.0	0.00e+00	0	62	0	1868562432	40	4186
2026-01-26 15:25:29.20	238.53	28.72	-34.6	-36.2	18.0	0.00e+00	0	62	0	1875902464	40	4180
2026-01-26 15:25:30.21	238.83	28.81	-34.7	-36.3	17.9	0.00e+00	0	62	0	1883242496	40	4220
2026-01-26 15:25:31.22	239.13	28.89	-34.7	-36.3	17.9	0.00e+00	0	62	0	1890582528	40	4241
2026-01-26 15:25:32.23	239.43	28.97	-34.7	-36.3	17.9	0.00e+00	0	62	0	1897922560	40	4233
2026-01-26 15:25:33.24	239.74	29.05	-34.7	-36.3	17.9	0.00e+00	0	62	0	1905262592	40	4240
2026-01-26 15:25:34.25	240.04	29.13	-34.7	-36.3	17.9	0.00e+00	0	62	0	1912602624	40	4217
2026-01-26 15:25:35.26	240.35	29.21	-34.6	-36.3	17.9	0.00e+00	0	62	0	1919942656	40	4202
2026-01-26 15:25:36.28	240.66	29.29	-34.7	-36.4	17.9	0.00e+00	0	62	0	1927282688	40	4253
2026-01-26 15:25:37.29	240.97	29.36	-34.7	-36.3	18.0	0.00e+00	0	62	0	1934622720	40	4218
2026-01-26 15:25:38.30	241.29	29.44	-34.7	-36.3	17.9	0.00e+00	0	62	0	1940914176	40	4233
2026-01-26 15:25:39.31	241.60	29.52	-34.6	-36.2	18.0	0.00e+00	0	62	0	1948254208	40	4166
2026-01-26 15:25:40.32	241.92	29.59	-34.6	-36.2	18.0	0.00e+00	0	62	0	1955594240	40	4164
2026-01-26 15:25:41.33	242.23	29.67	-34.6	-36.2	18.1	0.00e+00	0	62	0	1962934272	40	4157
2026-01-26 15:25:42.34	242.55	29.74	-34.6	-36.2	18.0	0.00e+00	0	62	0	1970274304	40	4164
2026-01-26 15:25:43.35	242.87	29.82	-34.7	-36.3	17.9	0.00e+00	0	62	0	1977614336	40	4215
2026-01-26 15:25:44.36	243.19	29.89	-34.8	-36.4	17.8	0.00e+00	0	62	0	1984954368	40	4281
2026-01-26 15:25:45.37	243.51	29.96	-34.7	-36.3	17.9	0.00e+00	0	62	0	1992294400	40	4214
2026-01-26 15:25:46.38	243.84	30.03	-34.6	-36.3	18.0	0.00e+00	0	62	0	1999634432	40	4197
2026-01-26 15:25:47.39	244.16	30.10	-34.6	-36.2	18.0	0.00e+00	0	62	0	2006974464	40	4181
2026-01-26 15:25:48.40	244.49	30.17	-34.6	-36.2	18.0	0.00e+00	0	62	0	2014314496	40	4166
2026-01-26 15:25:49.41	244.81	30.24	-34.6	-36.3	17.9	0.00e+00	0	62	0	2021654528	40	4204
2026-01-26 15:25:50.42	245.14	30.31	-34.6	-36.3	17.9	0.00e+00	0	62	0	2028994560	40	4219
2026-01-26 15:25:51.43	245.47	30.37	-34.7	-36.4	17.8	0.00e+00	0	62	0	2036334592	40	4256
2026-01-26 15:25:52.44	245.81	30.44	-34.7	-36.3	17.9	0.00e+00	0	62	0	2043674624	40	4232
2026-01-26 15:25:53.45	246.14	30.51	-34.6	-36.3	18.0	0.00e+00	0	62	0	2051014656	40	4195
2026-01-26 15:25:54.46	246.47	30.57	-34.6	-36.2	18.0	0.00e+00	0	62	0	2058354688	40	4184
2026-01-26 15:25:55.47	246.81	30.63	-34.5	-36.1	18.1	0.00e+00	0	62	0	2065694720	40	4134
2026-01-26 15:25:56.48	247.15	30.70	-34.6	-36.3	18.0	0.00e+00	0	62	0	2073034752	39	4457
2026-01-26 15:25:57.49	247.49	30.76	-34.8	-36.4	17.9	0.00e+00	0	62	0	2080374784	39	4519
2026-01-26 15:25:58.50	247.82	30.82	-34.7	-36.4	17.9	0.00e+00	0	62	0	2087714816	39	4504
2026-01-26 15:25:59.52	248.17	30.88	-34.6	-36.2	18.1	0.00e+00	0	62	0	2094006272	39	4433
2026-01-26 15:26:00.53	248.51	30.94	-34.5	-36.1	18.2	0.00e+00	0	62	0	2102394880	39	4374
2026-01-26 15:26:01.54	248.85	30.99	-34.5	-36.0	18.3	0.00e+00	0	62	0	2109734912	39	4337
2026-01-26 15:26:02.55	249.20	31.05	-34.4	-35.9	18.4	0.00e+00	0	62	0	2116026368	39	4273
2026-01-26 15:26:03.55	249.54	31.10	-34.4	-35.9	18.4	0.00e+00	0	62	0	2123366400	39	4291
2026-01-26 15:26:04.56	249.89	31.16	-34.4	-36.0	18.3	0.00e+00	0	62	0	2130706432	39	4311
2026-01-26 15:26:05.57	250.24	31.21	-34.4	-36.0	18.3	0.00e+00	0	62	0	2138046464	39	4312
2026-01-26 15:26:06.59	250.59	31.26	-34.6	-36.1	18.2	0.00e+00	0	62	0	2145386496	39	4388
2026-01-26 15:26:07.60	250.94	31.32	-34.7	-36.3	18.0	0.00e+00	0	62	0	2152726528	39	4465
2026-01-26 15:26:08.61	251.29	31.37	-34.8	-36.4	17.9	0.00e+00	0	62	0	2160066560	39	4517
2026-01-26 15:26:09.62	251.64	31.42	-34.7	-36.3	17.9	0.00e+00	0	62	0	2167406592	39	4484
2026-01-26 15:26:10.63	251.99	31.46	-34.7	-36.3	17.9	0.00e+00	0	62	0	2174746624	39	4489
2026-01-26 15:26:11.64	252.35	31.51	-34.6	-36.3	18.0	0.00e+00	0	62	0	2182086656	39	4449
2026-01-26 15:26:12.65	252.70	31.56	-34.7	-36.3	17.9	0.00e+00	0	62	0	2189426688	39	4481
2026-01-26 15:26:13.66	253.06	31.60	-34.7	-36.3	18.0	0.00e+00	0	62	0	2196766720	39	4474
2026-01-26 15:26:14.67	253.42	31.64	-34.8	-36.5	17.8	0.00e+00	0	62	0	2204106752	39	4553
2026-01-26 15:26:15.68	253.77	31.69	-35.2	-36.4	18.3	0.00e+00	0	62	0	2211446784	40	4265
2026-01-26 15:26:16.69	254.13	31.73	-35.2	-36.3	18.4	0.00e+00	0	62	0	2218786816	40	4239
2026-01-26 15:26:17.70	254.49	31.77	-35.2	-36.3	18.4	0.00e+00	0	62	0	2226126848	40	4231
2026-01-26 15:26:18.71	254.85	31.81	-35.0	-36.2	18.5	0.00e+00	0	62	0	2233466880	40	4160
2026-01-26 15:26:19.72	255.22	31.84	-35.1	-36.3	18.5	0.00e+00	0	62	0	2240806912	40	4208
2026-01-26 15:26:20.73	255.58	31.88	-35.0	-36.1	18.6	0.00e+00	0	62	0	2248146944	40	4119
2026-01-26 15:26:21.74	255.94	31.92	-34.8	-35.9	18.8	0.00e+00	0	62	0	2255486976	40	4042
2026-01-26 15:26:22.75	256.31	31.95	-34.8	-36.0	18.8	0.00e+00	0	62	0	2262827008	40	4053
2026-01-26 15:26:23.76	256.67	31.98	-34.9	-36.0	18.7	0.00e+00	0	62	0	2269118464	40	4095
2026-01-26 15:26:24.77	257.04	32.01	-35.0	-36.1	18.6	0.00e+00	0	62	0	2276458496	40	4125
2026-01-26 15:26:25.79	257.40	32.05	-35.0	-36.1	18.6	0.00e+00	0	62	0	2283798528	40	4128
2026-01-26 15:26:26.80	257.77	32.07	-34.9	-36.0	18.7	0.00e+00	0	62	0	2291138560	40	4061
2026-01-26 15:26:27.81	258.14	32.10	-34.9	-36.0	18.7	0.00e+00	0	62	0	2298478592	40	4093
2026-01-26 15:26:28.82	258.51	32.13	-35.0	-36.1	18.6	0.00e+00	0	62	0	2305818624	40	4105
2026-01-26 15:26:29.83	258.87	32.15	-35.1	-36.2	18.5	0.00e+00	0	62	0	2313158656	40	4163
2026-01-26 15:26:30.84	259.24	32.18	-35.0	-36.1	18.6	0.00e+00	0	62	0	2320498688	40	4143
2026-01-26 15:26:31.85	259.61	32.20	-35.1	-36.2	18.5	0.00e+00	0	62	0	2327838720	40	4177
2026-01-26 15:26:32.86	259.98	32.22	-35.1	-36.2	18.5	0.00e+00	0	62	0	2335178752	40	4192
2026-01-26 15:26:33.87	260.35	32.24	-35.0	-36.1	18.6	0.00e+00	0	62	0	2342518784	40	4118
2026-01-26 15:26:34.89	260.73	32.26	-34.8	-35.9	18.8	0.00e+00	0	62	0	2349858816	40	4036
2026-01-26 15:26:35.89	261.10	32.28	-34.8	-35.9	18.8	0.00e+00	0	62	0	2357198848	40	4022
2026-01-26 15:26:36.91	261.47	32.30	-34.8	-35.9	18.8	0.00e+00	0	62	0	2364538880	40	4029
2026-01-26 15:26:37.92	261.84	32.31	-34.9	-36.0	18.8	0.00e+00	0	62	0	2371878912	40	4063
2026-01-26 15:26:38.92	262.21	32.33	-35.0	-36.1	18.6	0.00e+00	0	62	0	2379218944	40	4130
2026-01-26 15:26:39.94	262.59	32.34	-35.1	-36.3	18.5	0.00e+00	0	62	0	2386558976	40	4212
2026-01-26 15:26:40.95	262.96	32.35	-35.0	-36.1	18.6	0.00e+00	0	62	0	2393899008	40	4141
2026-01-26 15:26:41.96	263.33	32.36	-35.0	-36.1	18.6	0.00e+00	0	62	0	2401239040	40	4137
2026-01-26 15:26:42.97	263.71	32.37	-34.9	-36.1	18.7	0.00e+00	0	62	0	2408579072	40	4101
2026-01-26 15:26:43.98	264.08	32.37	-35.0	-36.1	18.6	0.00e+00	0	62	0	2415919104	40	4132
2026-01-26 15:26:44.99	264.45	32.38	-35.0	-36.1	18.6	0.00e+00	0	62	0	2423259136	40	4129
2026-01-26 15:26:46.00	264.83	32.38	-34.9	-36.1	18.7	0.00e+00	0	62	0	2430599168	40	4102
2026-01-26 15:26:47.01	265.20	32.39	-34.9	-36.0	18.7	0.00e+00	0	62	0	2436890624	40	4098
2026-01-26 15:26:48.02	265.58	32.39	-34.8	-35.9	18.8	0.00e+00	0	62	0	2444230656	40	4023
2026-01-26 15:26:49.03	265.95	32.39	-34.7	-35.8	19.0	0.00e+00	0	62	0	2452619264	40	3972
2026-01-26 15:26:50.04	266.32	32.39	-34.7	-35.8	19.0	0.00e+00	0	62	0	2458910720	40	3963
2026-01-26 15:26:51.05	266.70	32.39	-34.6	-35.7	19.1	0.00e+00	0	62	0	2466250752	40	3931
2026-01-26 15:26:52.06	267.07	32.38	-34.7	-35.8	19.0	0.00e+00	0	62	0	2473590784	40	3974
2026-01-26 15:26:53.07	267.44	32.38	-34.7	-35.8	19.0	0.00e+00	0	62	0	2480930816	40	3980
2026-01-26 15:26:54.08	267.82	32.37	-34.7	-35.8	18.9	0.00e+00	0	62	0	2488270848	40	3986
2026-01-26 15:26:55.09	268.19	32.37	-34.5	-35.6	19.1	0.00e+00	0	62	0	2495610880	40	3896
2026-01-26 15:26:56.10	268.56	32.36	-34.6	-35.7	19.2	0.00e+00	0	62	0	2502950912	39	4149
2026-01-26 15:26:57.11	268.94	32.35	-34.6	-35.7	19.1	0.00e+00	0	62	0	2510290944	39	4176
2026-01-26 15:26:58.13	269.31	32.33	-34.8	-35.9	18.9	0.00e+00	0	62	0	2517630976	39	4285
2026-01-26 15:26:59.14	269.69	32.32	-35.0	-36.1	18.7	0.00e+00	0	62	0	2524971008	39	4361
2026-01-26 15:27:00.15	270.06	32.31	-35.2	-36.3	18.5	0.00e+00	0	62	0	2532311040	40	4223
2026-01-26 15:27:01.16	270.43	32.29	-35.2	-36.3	18.4	0.00e+00	0	62	0	2539651072	40	4238
2026-01-26 15:27:02.17	270.80	32.28	-35.2	-36.4	18.4	0.00e+00	0	62	0	2546991104	40	4266
2026-01-26 15:27:03.18	271.17	32.26	-35.0	-36.2	18.6	0.00e+00	0	62	0	2554331136	40	4154
2026-01-26 15:27:04.19	271.54	32.24	-34.9	-36.1	18.7	0.00e+00	0	62	0	2561671168	40	4101
2026-01-26 15:27:05.20	271.91	32.22	-34.9	-36.1	18.7	0.00e+00	0	62	0	2569011200	40	4099
2026-01-26 15:27:06.21	272.28	32.20	-34.9	-36.1	18.7	0.00e+00	0	62	0	2576351232	40	4103
2026-01-26 15:27:07.22	272.65	32.17	-35.1	-36.2	18.5	0.00e+00	0	62	0	2583691264	40	4185
2026-01-26 15:27:08.23	273.02	32.15	-35.1	-36.2	18.5	0.00e+00	0	62	0	2591031296	40	4193
2026-01-26 15:27:09.24	273.39	32.12	-35.1	-36.2	18.6	0.00e+00	0	62	0	2598371328	40	4185
2026-01-26 15:27:10.25	273.76	32.10	-35.1	-36.3	18.5	0.00e+00	0	62	0	2605711360	40	4196
2026-01-26 15:27:11.26	274.12	32.07	-35.2	-36.3	18.4	0.00e+00	0	62	0	2612002816	40	4228
2026-01-26 15:27:12.27	274.49	32.04	-35.1	-36.2	18.5	0.00e+00	0	62	0	2619342848	40	4178
2026-01-26 15:27:13.28	274.85	32.01	-34.8	-35.9	18.8	0.00e+00	0	62	0	2627731456	40	4046
2026-01-26 15:27:14.29	275.22	31.98	-34.7	-35.8	18.9	0.00e+00	0	62	0	2634022912	40	3993
2026-01-26 15:27:15.29	275.58	31.94	-34.5	-35.6	19.1	0.00e+00	0	62	0	2641362944	40	3892
2026-01-26 15:27:16.30	275.94	31.91	-34.5	-35.6	19.1	0.00e+00	0	62	0	2648702976	40	3884
2026-01-26 15:27:17.31	276.30	31.87	-34.7	-35.8	19.0	0.00e+00	0	62	0	2656043008	40	3966
2026-01-26 15:27:18.33	276.67	31.84	-34.8	-35.9	18.8	0.00e+00	0	62	0	2663383040	40	4038
2026-01-26 15:27:19.34	277.03	31.80	-34.9	-36.0	18.7	0.00e+00	0	62	0	2670723072	40	4082
2026-01-26 15:27:20.35	277.39	31.76	-35.0	-36.1	18.6	0.00e+00	0	62	0	2678063104	40	4132
2026-01-26 15:27:21.36	277.75	31.72	-35.0	-36.1	18.7	0.00e+00	0	62	0	2685403136	40	4132
2026-01-26 15:27:22.37	278.11	31.68	-34.9	-36.1	18.7	0.00e+00	0	62	0	2692743168	40	4101
2026-01-26 15:27:23.38	278.46	31.64	-34.9	-36.0	18.7	0.00e+00	0	62	0	2700083200	40	4075
2026-01-26 15:27:24.39	278.82	31.59	-35.0	-36.1	18.7	0.00e+00	0	62	0	2707423232	40	4129
2026-01-26 15:27:25.40	279.18	31.55	-35.1	-36.2	18.5	0.00e+00	0	62	0	2714763264	40	4178
2026-01-26 15:27:26.41	279.53	31.50	-35.2	-36.3	18.4	0.00e+00	0	62	0	2722103296	40	4228
2026-01-26 15:27:27.42	279.88	31.46	-35.1	-36.3	18.4	0.00e+00	0	62	0	2729443328	40	4214
2026-01-26 15:27:28.43	280.24	31.41	-35.2	-36.3	18.4	0.00e+00	0	62	0	2736783360	40	4228
2026-01-26 15:27:29.44	280.59	31.36	-35.2	-36.3	18.4	0.00e+00	0	62	0	2744123392	40	4238
2026-01-26 15:27:30.45	280.94	31.31	-35.1	-36.3	18.4	0.00e+00	0	62	0	2751463424	40	4223
2026-01-26 15:27:31.46	281.29	31.26	-35.2	-36.4	18.4	0.00e+00	0	62	0	2757754880	40	4255
2026-01-26 15:27:32.47	281.64	31.20	-35.1	-36.2	18.5	0.00e+00	0	62	0	2765094912	40	4185
2026-01-26 15:27:33.48	281.98	31.15	-35.1	-36.3	18.5	0.00e+00	0	62	0	2773483520	40	4195
2026-01-26 15:27:34.49	282.33	31.10	-35.1	-36.2	18.6	0.00e+00	0	62	0	2779774976	40	4186
2026-01-26 15:27:35.50	282.67	31.04	-35.1	-36.3	18.6	0.00e+00	0	62	0	2787115008	40	4203
2026-01-26 15:27:36.51	283.02	30.98	-35.1	-36.2	18.6	0.00e+00	0	62	0	2794455040	40	4182
2026-01-26 15:27:37.52	283.36	30.93	-35.0	-36.2	18.6	0.00e+00	0	62	0	2801795072	40	4155
2026-01-26 15:27:38.53	283.70	30.87	-35.1	-36.2	18.5	0.00e+00	0	62	0	2809135104	40	4181
2026-01-26 15:27:39.54	284.04	30.81	-35.1	-36.2	18.6	0.00e+00	0	62	0	2816475136	40	4178
2026-01-26 15:27:40.56	284.38	30.75	-35.1	-36.3	18.5	0.00e+00	0	62	0	2823815168	40	4195
2026-01-26 15:27:41.56	284.71	30.69	-35.2	-36.3	18.4	0.00e+00	0	62	0	2831155200	40	4234
2026-01-26 15:27:42.57	285.05	30.63	-35.1	-36.3	18.5	0.00e+00	0	62	0	2838495232	40	4212
2026-01-26 15:27:43.58	285.38	30.56	-35.2	-36.3	18.4	0.00e+00	0	62	0	2845835264	40	4241
2026-01-26 15:27:44.59	285.72	30.50	-35.2	-36.4	18.4	0.00e+00	0	62	0	2853175296	40	4249
2026-01-26 15:27:45.60	286.05	30.43	-35.2	-36.3	18.4	0.00e+00	0	62	0	2860515328	40	4241
2026-01-26 15:27:46.61	286.38	30.37	-35.2	-36.3	18.5	0.00e+00	0	62	0	2867855360	40	4222
2026-01-26 15:27:47.62	286.71	30.30	-35.1	-36.3	18.5	0.00e+00	0	62	0	2875195392	40	4200
2026-01-26 15:27:48.63	287.04	30.23	-35.0	-36.1	18.7	0.00e+00	0	62	0	2882535424	40	4128
2026-01-26 15:27:49.65	287.37	30.16	-35.0	-36.2	18.6	0.00e+00	0	62	0	2889875456	40	4152
2026-01-26 15:27:50.66	287.69	30.09	-35.0	-36.1	18.6	0.00e+00	0	62	0	2897215488	40	4134
2026-01-26 15:27:51.67	288.02	30.02	-34.9	-36.0	18.7	0.00e+00	0	62	0	2904555520	40	4091
2026-01-26 15:27:52.68	288.34	29.95	-35.0	-36.1	18.7	0.00e+00	0	62	0	2911895552	40	4121
2026-01-26 15:27:53.69	288.66	29.88	-35.1	-36.2	18.6	0.00e+00	0	62	0	2919235584	40	4163
2026-01-26 15:27:54.70	288.98	29.81	-35.1	-36.2	18.5	0.00e+00	0	62	0	2926575616	40	4184
2026-01-26 15:27:55.71	289.30	29.74	-35.1	-36.2	18.6	0.00e+00	0	62	0	2932867072	40	4179
2026-01-26 15:27:56.72	289.62	29.66	-35.1	-36.2	18.4	0.00e+00	0	62	0	2940207104	40	4175
2026-01-26 15:27:57.73	289.93	29.59	-35.1	-36.2	18.5	0.00e+00	0	62	0	2948595712	40	4180
2026-01-26 15:27:58.74	290.25	29.51	-35.1	-36.3	18.5	0.00e+00	0	62	0	2954887168	40	4197
2026-01-26 15:27:59.75	290.56	29.44	-35.1	-36.2	18.5	0.00e+00	0	62	0	2962227200	40	4190
2026-01-26 15:28:00.76	290.87	29.36	-35.1	-36.2	18.5	0.00e+00	0	62	0	2969567232	40	4185
2026-01-26 15:28:01.77	291.18	29.28	-35.1	-36.3	18.5	0.00e+00	0	62	0	2976907264	40	4208
2026-01-26 15:28:02.78	291.49	29.20	-35.1	-36.3	18.4	0.00e+00	0	62	0	2984247296	40	4214
2026-01-26 15:28:03.79	291.79	29.13	-35.1	-36.2	18.5	0.00e+00	0	62	0	2991587328	40	4192
2026-01-26 15:28:04.80	292.10	29.05	-35.1	-36.2	18.5	0.00e+00	0	62	0	2998927360	40	4179
2026-01-26 15:28:05.82	292.40	28.96	-35.2	-36.3	18.4	0.00e+00	0	62	0	3006267392	40	4222
2026-01-26 15:28:06.83	292.71	28.88	-35.0	-36.2	18.6	0.00e+00	0	62	0	3013607424	40	4159
2026-01-26 15:28:07.84	293.01	28.80	-35.0	-36.2	18.5	0.00e+00	0	62	0	3020947456	40	4153
2026-01-26 15:28:08.85	293.31	28.72	-35.0	-36.2	18.5	0.00e+00	0	62	0	3028287488	40	4166
2026-01-26 15:28:09.86	293.60	28.64	-35.1	-36.3	18.4	0.00e+00	0	62	0	3035627520	40	4216
2026-01-26 15:28:10.87	293.90	28.56	-35.3	-36.4	18.3	0.00e+00	0	62	0	3042967552	40	4288
2026-01-26 15:28:11.88	294.19	28.47	-35.3	-36.5	18.2	0.00e+00	0	62	0	3050307584	40	4335
2026-01-26 15:28:12.89	294.49	28.39	-35.3	-36.5	18.2	0.00e+00	0	62	0	3057647616	40	4322
2026-01-26 15:28:13.90	294.78	28.30	-35.4	-36.6	18.2	0.00e+00	0	62	0	3064987648	40	4346
2026-01-26 15:28:14.91	295.07	28.22	-35.3	-36.4	18.3	0.00e+00	0	62	0	3072327680	40	4280
2026-01-26 15:28:15.92	295.36	28.13	-35.1	-36.3	18.4	0.00e+00	0	62	0	3078619136	40	4202
2026-01-26 15:28:16.94	295.65	28.04	-35.2	-36.4	18.4	0.00e+00	0	62	0	3087007744	40	4244
2026-01-26 15:28:17.95	295.93	27.96	-35.0	-36.1	18.5	0.00e+00	0	62	0	3094347776	40	4133
2026-01-26 15:28:18.96	296.22	27.87	-35.1	-36.3	18.4	0.00e+00	0	62	0	3100639232	40	4224
2026-01-26 15:28:19.97	296.50	27.78	-35.2	-36.4	18.3	0.00e+00	0	62	0	3107979264	40	4245
2026-01-26 15:28:20.98	296.78	27.70	-35.3	-36.4	18.3	0.00e+00	0	62	0	3116367872	40	4287
2026-01-26 15:28:21.99	297.06	27.61	-35.3	-36.5	18.2	0.00e+00	0	62	0	3122659328	40	4296
2026-01-26 15:28:23.00	297.34	27.52	-35.4	-36.5	18.2	0.00e+00	0	62	0	3129999360	40	4332
2026-01-26 15:28:24.01	297.61	27.43	-35.3	-36.4	18.3	0.00e+00	0	62	0	3137339392	40	4280
2026-01-26 15:28:25.02	297.89	27.34	-35.3	-36.4	18.3	0.00e+00	0	62	0	3144679424	40	4272
2026-01-26 15:28:26.03	298.16	27.25	-35.3	-36.4	18.3	0.00e+00	0	62	0	3152019456	40	4267
2026-01-26 15:28:27.04	298.43	27.16	-35.3	-36.5	18.2	0.00e+00	0	62	0	3159359488	40	4303
2026-01-26 15:28:28.05	298.70	27.07	-35.4	-36.6	18.1	0.00e+00	0	62	0	3166699520	40	4366
2026-01-26 15:28:29.06	298.97	26.98	-35.4	-36.6	18.1	0.00e+00	0	62	0	3174039552	40	4358
2026-01-26 15:28:30.07	299.24	26.88	-35.4	-36.6	18.1	0.00e+00	0	62	0	3181379584	40	4366
2026-01-26 15:28:31.09	299.51	26.79	-35.6	-36.8	17.9	0.00e+00	0	62	0	3188719616	40	4447
2026-01-26 15:28:32.10	299.77	26.70	-35.5	-36.8	17.9	0.00e+00	0	62	0	3196059648	40	4449
2026-01-26 15:28:33.11	300.03	26.61	-35.4	-36.6	18.1	0.00e+00	0	62	0	3203399680	40	4341
2026-01-26 15:28:34.12	300.29	26.51	-35.4	-36.6	18.1	0.00e+00	0	62	0	3210739712	40	4367
2026-01-26 15:28:35.13	300.55	26.42	-35.5	-36.7	18.0	0.00e+00	0	62	0	3218079744	40	4415
2026-01-26 15:28:36.14	300.81	26.33	-35.5	-36.7	18.0	0.00e+00	0	62	0	3225419776	40	4412
2026-01-26 15:28:37.15	301.07	26.23	-35.5	-36.7	18.0	0.00e+00	0	62	0	3232759808	40	4407
2026-01-26 15:28:38.16	301.32	26.14	-35.4	-36.5	18.1	0.00e+00	0	62	0	3240099840	40	4331
2026-01-26 15:28:39.17	301.58	26.05	-35.3	-36.5	18.1	0.00e+00	0	62	0	3247439872	40	4327
2026-01-26 15:28:40.18	301.83	25.95	-35.4	-36.6	18.1	0.00e+00	0	62	0	3254779904	40	4375
2026-01-26 15:28:41.19	302.08	25.86	-35.5	-36.7	17.9	0.00e+00	0	62	0	3262119936	40	4425
2026-01-26 15:28:42.20	302.33	25.76	-35.5	-36.8	17.9	0.00e+00	0	62	0	3269459968	40	4446
2026-01-26 15:28:43.21	302.58	25.67	-35.6	-36.9	17.8	0.00e+00	0	62	0	3275751424	40	4498
2026-01-26 15:28:44.22	302.82	25.57	-35.6	-36.9	17.8	0.00e+00	0	62	0	3283091456	40	4501
2026-01-26 15:28:45.23	303.07	25.47	-35.6	-36.8	17.8	0.00e+00	0	62	0	3291480064	40	4471
2026-01-26 15:28:46.24	303.31	25.38	-35.6	-36.9	17.8	0.00e+00	0	62	0	3297771520	40	4497
2026-01-26 15:28:47.25	303.55	25.28	-35.5	-36.7	17.9	0.00e+00	0	62	0	3305111552	40	4418
2026-01-26 15:28:48.26	303.79	25.19	-35.6	-36.8	17.9	0.00e+00	0	62	0	3312451584	40	4448
2026-01-26 15:28:49.26	304.03	25.09	-35.4	-36.6	18.0	0.00e+00	0	62	0	3319791616	40	4358
2026-01-26 15:28:50.28	304.27	24.99	-35.4	-36.6	18.1	0.00e+00	0	62	0	3327131648	40	4349
2026-01-26 15:28:51.29	304.51	24.90	-35.3	-36.5	18.1	0.00e+00	0	62	0	3334471680	40	4332
2026-01-26 15:28:52.30	304.74	24.80	-35.4	-36.6	18.1	0.00e+00	0	62	0	3341811712	40	4347
2026-01-26 15:28:53.31	304.97	24.70	-35.4	-36.6	18.1	0.00e+00	0	62	0	3349151744	40	4343
2026-01-26 15:28:54.32	305.21	24.61	-35.4	-36.6	18.0	0.00e+00	0	62	0	3356491776	40	4362
2026-01-26 15:28:55.33	305.44	24.51	-35.5	-36.7	17.9	0.00e+00	0	62	0	3363831808	40	4437
2026-01-26 15:28:56.34	305.66	24.41	-35.5	-36.7	17.9	0.00e+00	0	62	0	3371171840	40	4434
2026-01-26 15:28:57.35	305.89	24.32	-35.5	-36.7	17.9	0.00e+00	0	62	0	3378511872	40	4441
2026-01-26 15:28:58.37	306.12	24.22	-35.6	-36.9	17.8	0.00e+00	0	62	0	3385851904	40	4508
2026-01-26 15:28:59.37	306.34	24.12	-35.7	-36.9	17.7	0.00e+00	0	62	0	3393191936	41	4280
2026-01-26 15:29:00.39	306.57	24.02	-35.8	-37.0	17.6	0.00e+00	0	62	0	3400531968	41	4325
2026-01-26 15:29:01.40	306.79	23.92	-35.7	-37.0	17.6	0.00e+00	0	62	0	3407872000	41	4315
2026-01-26 15:29:02.41	307.01	23.83	-35.8	-37.1	17.5	0.00e+00	0	62	0	3415212032	41	4358
2026-01-26 15:29:03.41	307.23	23.73	-35.7	-36.9	17.7	0.00e+00	0	62	0	3421503488	41	4266
2026-01-26 15:29:04.42	307.45	23.63	-35.7	-37.0	17.6	0.00e+00	0	62	0	3428843520	41	4303
2026-01-26 15:29:05.44	307.67	23.53	-35.7	-37.0	17.6	0.00e+00	0	62	0	3437232128	41	4296
2026-01-26 15:29:06.45	307.88	23.44	-35.7	-37.0	17.6	0.00e+00	0	62	0	3443523584	41	4310
2026-01-26 15:29:07.45	308.10	23.34	-35.6	-36.9	17.7	0.00e+00	0	62	0	3450863616	41	4249
2026-01-26 15:29:08.46	308.31	23.24	-35.6	-36.8	17.8	0.00e+00	0	62	0	3458203648	41	4205
2026-01-26 15:29:09.47	308.52	23.14	-35.6	-36.8	17.7	0.00e+00	0	62	0	3465543680	41	4209
2026-01-26 15:29:10.48	308.73	23.04	-35.6	-36.9	17.7	0.00e+00	0	62	0	3472883712	41	4243
2026-01-26 15:29:11.49	308.94	22.95	-35.6	-36.8	17.7	0.00e+00	0	62	0	3480223744	41	4228
2026-01-26 15:29:12.50	309.15	22.85	-35.6	-36.8	17.8	0.00e+00	0	62	0	3487563776	41	4206
2026-01-26 15:29:13.51	309.35	22.75	-35.7	-36.9	17.7	0.00e+00	0	62	0	3494903808	41	4277
2026-01-26 15:29:14.52	309.56	22.65	-35.8	-37.1	17.5	0.00e+00	0	62	0	3502243840	41	4346
2026-01-26 15:29:15.53	309.76	22.55	-35.9	-37.2	17.3	0.00e+00	0	62	0	3509583872	41	4424
2026-01-26 15:29:16.54	309.97	22.46	-36.0	-37.2	17.3	0.00e+00	0	62	0	3516923904	41	4436
2026-01-26 15:29:17.55	310.17	22.36	-36.1	-37.4	17.1	0.00e+00	0	62	0	3524263936	41	4535
2026-01-26 15:29:18.56	310.37	22.26	-36.2	-37.5	17.1	0.00e+00	0	62	0	3531603968	41	4554
2026-01-26 15:29:19.57	310.57	22.16	-36.1	-37.5	17.1	0.00e+00	0	62	0	3538944000	41	4546
2026-01-26 15:29:20.58	310.76	22.06	-36.2	-37.5	17.1	0.00e+00	0	62	0	3546284032	41	4569
2026-01-26 15:29:21.59	310.96	21.97	-36.1	-37.4	17.1	0.00e+00	0	62	0	3553624064	41	4530
2026-01-26 15:29:22.60	311.16	21.87	-36.1	-37.4	17.1	0.00e+00	0	62	0	3560964096	41	4531
2026-01-26 15:29:23.61	311.35	21.77	-36.1	-37.4	17.1	0.00e+00	0	62	0	3568304128	41	4531
2026-01-26 15:29:24.62	311.54	21.67	-36.0	-37.3	17.2	0.00e+00	0	62	0	3574595584	41	4467
2026-01-26 15:29:25.63	311.73	21.58	-35.9	-37.2	17.3	0.00e+00	0	62	0	3582984192	41	4405
2026-01-26 15:29:26.64	311.92	21.48	-35.9	-37.2	17.3	0.00e+00	0	62	0	3590324224	41	4421
2026-01-26 15:29:27.66	312.12	21.38	-36.0	-37.3	17.3	0.00e+00	0	62	0	3596615680	41	4444
2026-01-26 15:29:28.66	312.30	21.28	-36.0	-37.3	17.2	0.00e+00	0	62	0	3603955712	41	4471
2026-01-26 15:29:29.67	312.49	21.19	-36.1	-37.5	17.1	0.00e+00	0	62	0	3611295744	41	4553
2026-01-26 15:29:30.68	312.68	21.09	-36.1	-37.4	17.1	0.00e+00	0	62	0	3618635776	41	4545
2026-01-26 15:29:31.69	312.86	20.99	-36.2	-37.6	17.0	0.00e+00	0	62	0	3625975808	42	4351
2026-01-26 15:29:32.71	313.05	20.89	-36.4	-37.7	16.8	0.00e+00	0	62	0	3633315840	42	4424
2026-01-26 15:29:33.72	313.23	20.80	-36.4	-37.8	16.8	0.00e+00	0	62	0	3640655872	42	4459
2026-01-26 15:29:34.73	313.41	20.70	-36.5	-37.9	16.7	0.00e+00	0	62	0	3647995904	42	4502
2026-01-26 15:29:35.74	313.59	20.60	-36.5	-37.9	16.7	0.00e+00	0	62	0	3655335936	42	4504
2026-01-26 15:29:36.75	313.77	20.51	-36.6	-37.9	16.6	0.00e+00	0	62	0	3662675968	42	4537
2026-01-26 15:29:37.76	313.95	20.41	-36.5	-37.8	16.7	0.00e+00	0	62	0	3670016000	42	4479
2026-01-26 15:29:38.76	314.12	20.31	-36.5	-37.8	16.7	0.00e+00	0	62	0	3677356032	42	4491
2026-01-26 15:29:39.78	314.30	20.22	-36.4	-37.8	16.7	0.00e+00	0	62	0	3684696064	42	4464
2026-01-26 15:29:40.79	314.47	20.12	-36.3	-37.7	16.8	0.00e+00	0	62	0	3692036096	42	4412
2026-01-26 15:29:41.80	314.65	20.02	-36.3	-37.6	16.9	0.00e+00	0	62	0	3699376128	42	4377
2026-01-26 15:29:42.81	314.82	19.93	-36.1	-37.4	17.1	0.00e+00	0	62	0	3706716160	42	4263
2026-01-26 15:29:43.82	314.99	19.83	-36.2	-37.5	17.0	0.00e+00	0	63	0	3714056192	42	4309
2026-01-26 15:29:44.83	315.16	19.74	-36.1	-37.4	17.1	0.00e+00	0	62	0	3721396224	42	4251
2026-01-26 15:29:45.84	315.33	19.64	-36.1	-37.4	17.1	0.00e+00	0	62	0	3728736256	42	4250
2026-01-26 15:29:46.85	315.50	19.55	-36.1	-37.4	17.1	0.00e+00	0	62	0	3736076288	42	4270
2026-01-26 15:29:47.86	315.67	19.45	-36.1	-37.4	17.1	0.00e+00	0	62	0	3742367744	42	4286
2026-01-26 15:29:48.87	315.84	19.35	-36.1	-37.4	17.1	0.00e+00	0	62	0	3749707776	42	4268
2026-01-26 15:29:49.88	316.00	19.26	-36.2	-37.5	16.9	0.00e+00	0	62	0	3758096384	42	4340
2026-01-26 15:29:50.89	316.17	19.16	-36.3	-37.6	16.8	0.00e+00	0	62	0	3764387840	42	4391
2026-01-26 15:29:51.90	316.33	19.07	-36.5	-37.8	16.7	0.00e+00	0	62	0	3771727872	42	4487
2026-01-26 15:29:52.91	316.49	18.98	-36.6	-38.0	16.5	0.00e+00	0	62	0	3779067904	42	4565
2026-01-26 15:29:53.93	316.66	18.88	-36.7	-38.1	16.4	0.00e+00	0	63	0	3786407936	43	4377
2026-01-26 15:29:54.94	316.82	18.79	-36.8	-38.3	16.2	0.00e+00	0	62	0	3793747968	43	4444
2026-01-26 15:29:55.95	316.98	18.69	-36.8	-38.2	16.2	0.00e+00	0	62	0	3801088000	43	4439
2026-01-26 15:29:56.96	317.13	18.60	-36.9	-38.4	16.1	0.00e+00	0	62	0	3808428032	43	4495
2026-01-26 15:29:57.97	317.29	18.50	-36.9	-38.4	16.1	0.00e+00	0	62	0	3815768064	43	4524
2026-01-26 15:29:58.98	317.45	18.41	-37.0	-38.5	16.0	0.00e+00	0	62	0	3823108096	43	4548
2026-01-26 15:29:59.99	317.60	18.32	-37.0	-38.5	16.0	0.00e+00	0	62	0	3830448128	43	4574
2026-01-26 15:30:01.00	317.76	18.22	-37.0	-38.4	16.1	0.00e+00	0	62	0	3837788160	43	4534
2026-01-26 15:30:02.01	317.91	18.13	-36.9	-38.3	16.2	0.00e+00	0	62	0	3845128192	43	4466
2026-01-26 15:30:03.02	318.07	18.04	-36.9	-38.3	16.1	0.00e+00	0	62	0	3852468224	43	4475
2026-01-26 15:30:04.03	318.22	17.94	-36.9	-38.4	16.1	0.00e+00	0	63	0	3859808256	43	4498
2026-01-26 15:30:05.04	318.37	17.85	-36.8	-38.2	16.2	0.00e+00	0	62	0	3867148288	43	4422
2026-01-26 15:30:06.05	318.52	17.76	-36.8	-38.2	16.2	0.00e+00	0	62	0	3874488320	43	4428
2026-01-26 15:30:07.06	318.67	17.66	-36.8	-38.3	16.2	0.00e+00	0	62	0	3881828352	43	4444
2026-01-26 15:30:08.07	318.82	17.57	-36.8	-38.2	16.2	0.00e+00	0	62	0	3889168384	43	4408
2026-01-26 15:30:09.08	318.97	17.48	-36.6	-38.0	16.4	0.00e+00	0	62	0	3896508416	43	4336
2026-01-26 15:30:10.09	319.11	17.39	-36.6	-38.0	16.4	0.00e+00	0	62	0	3903848448	43	4327
2026-01-26 15:30:11.10	319.26	17.30	-36.7	-38.1	16.3	0.00e+00	0	62	0	3911188480	43	4358
2026-01-26 15:30:12.12	319.40	17.20	-36.8	-38.3	16.2	0.00e+00	0	62	0	3917479936	43	4447
2026-01-26 15:30:13.13	319.55	17.11	-36.9	-38.4	16.0	0.00e+00	0	63	0	3925868544	43	4517
2026-01-26 15:30:14.14	319.69	17.02	-36.9	-38.3	16.1	0.00e+00	0	62	0	3933208576	43	4479
2026-01-26 15:30:15.15	319.84	16.93	-36.8	-38.3	16.1	0.00e+00	0	63	0	3939500032	43	4460
2026-01-26 15:30:16.16	319.98	16.84	-37.0	-38.5	15.9	0.00e+00	0	62	0	3946840064	43	4549
2026-01-26 15:30:17.17	320.12	16.75	-37.0	-38.5	15.9	0.00e+00	0	62	0	3954180096	43	4562
2026-01-26 15:30:18.18	320.26	16.66	-37.1	-38.6	15.8	0.00e+00	0	62	0	3961520128	43	4611
2026-01-26 15:30:19.19	320.40	16.57	-37.1	-38.6	15.8	0.00e+00	0	63	0	3968860160	43	4615
2026-01-26 15:30:20.20	320.54	16.48	-37.2	-38.7	15.7	0.00e+00	0	62	0	3976200192	43	4686
2026-01-26 15:30:21.21	320.67	16.39	-37.2	-38.7	15.7	0.00e+00	0	63	0	3983540224	43	4673
2026-01-26 15:30:22.22	320.81	16.30	-37.5	-39.0	15.5	0.00e+00	0	62	0	3990880256	44	4594
2026-01-26 15:30:23.23	320.95	16.21	-37.5	-39.1	15.4	0.00e+00	0	62	0	3998220288	44	4616
2026-01-26 15:30:24.24	321.08	16.12	-37.4	-39.0	15.6	0.00e+00	0	63	0	4005560320	44	4547
2026-01-26 15:30:25.25	321.22	16.03	-37.4	-39.0	15.5	0.00e+00	0	62	0	4012900352	44	4558
2026-01-26 15:30:26.26	321.35	15.94	-37.4	-39.0	15.5	0.00e+00	0	63	0	4020240384	44	4551
2026-01-26 15:30:27.27	321.48	15.85	-37.5	-39.0	15.5	0.00e+00	0	62	0	4027580416	44	4584
2026-01-26 15:30:28.28	321.61	15.76	-37.3	-38.9	15.6	0.00e+00	0	62	0	4034920448	44	4509
2026-01-26 15:30:29.29	321.75	15.67	-37.3	-38.8	15.7	0.00e+00	0	62	0	4042260480	44	4480
2026-01-26 15:30:30.30	321.88	15.58	-37.3	-38.8	15.7	0.00e+00	0	63	0	4049600512	44	4457
2026-01-26 15:30:31.31	322.01	15.50	-37.2	-38.7	15.8	0.00e+00	0	62	0	4056940544	44	4410
2026-01-26 15:30:32.32	322.14	15.41	-37.2	-38.7	15.8	0.00e+00	0	62	0	4063232000	44	4429
2026-01-26 15:30:33.33	322.26	15.32	-37.1	-38.6	15.9	0.00e+00	0	62	0	4071620608	44	4354
2026-01-26 15:30:34.34	322.39	15.23	-37.1	-38.6	15.9	0.00e+00	0	62	0	4078960640	44	4354
2026-01-26 15:30:35.35	322.52	15.14	-37.2	-38.7	15.8	0.00e+00	0	63	0	4085252096	44	4420
2026-01-26 15:30:36.36	322.65	15.06	-37.2	-38.7	15.8	0.00e+00	0	62	0	4092592128	44	4394
2026-01-26 15:30:37.37	322.77	14.97	-37.1	-38.6	15.9	0.00e+00	0	63	0	4099932160	44	4364
2026-01-26 15:30:38.38	322.90	14.88	-37.1	-38.6	15.8	0.00e+00	0	63	0	4107272192	44	4367
2026-01-26 15:30:39.39	323.02	14.80	-37.2	-38.7	15.8	0.00e+00	0	63	0	4114612224	44	4393
2026-01-26 15:30:40.40	323.14	14.71	-37.2	-38.7	15.7	0.00e+00	0	63	0	4121952256	44	4423
2026-01-26 15:30:41.41	323.27	14.62	-37.2	-38.8	15.7	0.00e+00	0	62	0	4129292288	44	4449
2026-01-26 15:30:42.42	323.39	14.54	-37.3	-38.8	15.6	0.00e+00	0	62	0	4136632320	44	4485
2026-01-26 15:30:43.43	323.51	14.45	-37.4	-39.0	15.5	0.00e+00	0	63	0	4143972352	44	4560
2026-01-26 15:30:44.44	323.63	14.37	-37.4	-39.0	15.4	0.00e+00	0	62	0	4151312384	44	4567
2026-01-26 15:30:45.45	323.75	14.28	-37.5	-39.1	15.3	0.00e+00	0	62	0	4158652416	44	4626
2026-01-26 15:30:46.46	323.87	14.19	-37.6	-39.2	15.2	0.00e+00	0	62	0	4165992448	44	4668
2026-01-26 15:30:47.47	323.99	14.11	-37.6	-39.2	15.2	0.00e+00	0	62	0	4173332480	44	4660
2026-01-26 15:30:48.48	324.11	14.02	-37.7	-39.4	15.0	0.00e+00	0	63	0	4180672512	45	4504
2026-01-26 15:30:49.50	324.23	13.94	-37.7	-39.3	15.1	0.00e+00	0	63	0	4188012544	45	4477
2026-01-26 15:30:50.51	324.34	13.85	-37.7	-39.3	15.1	0.00e+00	0	62	0	4195352576	45	4457
2026-01-26 15:30:51.52	324.46	13.77	-37.6	-39.2	15.2	0.00e+00	0	62	0	4202692608	45	4441
2026-01-26 15:30:52.53	324.57	13.69	-37.8	-39.4	15.0	0.00e+00	0	62	0	4210032640	45	4518
2026-01-26 15:30:53.54	324.69	13.60	-37.5	-39.1	15.2	0.00e+00	0	62	0	4217372672	45	4364
2026-01-26 15:30:54.55	324.80	13.52	-37.6	-39.2	15.2	0.00e+00	0	63	0	4224712704	45	4413
2026-01-26 15:30:55.56	324.92	13.43	-37.6	-39.2	15.1	0.00e+00	0	62	0	4232052736	45	4435
2026-01-26 15:30:56.57	325.03	13.35	-37.6	-39.2	15.2	0.00e+00	0	62	0	4238344192	45	4393
2026-01-26 15:30:57.58	325.14	13.27	-37.6	-39.2	15.1	0.00e+00	0	63	0	4246732800	45	4440
2026-01-26 15:30:58.59	325.25	13.18	-37.5	-39.1	15.2	0.00e+00	0	62	0	4254072832	45	4384
2026-01-26 15:30:59.60	325.37	13.10	-37.7	-39.3	15.0	0.00e+00	0	62	0	4260364288	45	4489
2026-01-26 15:31:00.61	325.48	13.02	-37.7	-39.3	15.0	0.00e+00	0	63	0	4267704320	45	4456
2026-01-26 15:31:01.62	325.59	12.94	-37.7	-39.3	15.0	0.00e+00	0	62	0	4275044352	45	4477
2026-01-26 15:31:02.63	325.70	12.85	-37.8	-39.4	14.9	0.00e+00	0	63	0	4282384384	45	4537
2026-01-26 15:31:03.64	325.81	12.77	-37.9	-39.6	14.8	0.00e+00	0	62	0	4289724416	45	4615
2026-01-26 15:31:04.65	325.91	12.69	-37.9	-39.6	14.7	0.00e+00	0	62	0	4297064448	45	4644
2026-01-26 15:31:05.67	326.02	12.61	-38.0	-39.7	14.6	0.00e+00	0	62	0	4304404480	45	4670
2026-01-26 15:31:06.68	326.13	12.53	-38.1	-39.8	14.5	0.00e+00	0	62	0	4311744512	45	4742
2026-01-26 15:31:07.69	326.24	12.44	-38.0	-39.7	14.6	0.00e+00	0	63	0	4319084544	45	4683
2026-01-26 15:31:08.70	326.34	12.36	-38.1	-39.9	14.5	1.10e-06	0	62	0	4326424576	45	4760
2026-01-26 15:31:09.71	326.45	12.28	-38.1	-39.8	14.5	0.00e+00	0	63	0	4333764608	45	4727
2026-01-26 15:31:10.72	326.55	12.20	-38.1	-39.9	14.4	0.00e+00	0	63	0	4341104640	45	4765
2026-01-26 15:31:11.73	326.66	12.12	-38.3	-40.0	14.2	1.10e-06	0	62	0	4348444672	46	4587
2026-01-26 15:31:12.74	326.76	12.04	-38.3	-40.1	14.2	1.10e-06	0	62	0	4355784704	46	4611
2026-01-26 15:31:13.75	326.86	11.96	-38.3	-40.0	14.2	0.00e+00	0	63	0	4363124736	46	4592
2026-01-26 15:31:14.76	326.97	11.88	-38.2	-40.0	14.3	1.10e-06	0	63	0	4370464768	46	4571
2026-01-26 15:31:15.77	327.07	11.80	-38.1	-39.8	14.4	0.00e+00	0	62	0	4377804800	46	4472
2026-01-26 15:31:16.78	327.17	11.72	-37.9	-39.6	14.7	1.10e-06	0	62	0	4385144832	46	4360
2026-01-26 15:31:17.79	327.27	11.64	-38.0	-39.7	14.6	0.00e+00	0	63	0	4392484864	46	4398
2026-01-26 15:31:18.80	327.37	11.56	-37.9	-39.7	14.6	2.20e-06	0	62	0	4399824896	46	4405
2026-01-26 15:31:19.81	327.47	11.48	-38.0	-39.7	14.5	1.10e-06	0	63	0	4406116352	46	4422
2026-01-26 15:31:20.82	327.57	11.40	-37.9	-39.6	14.6	0.00e+00	0	62	0	4413456384	46	4373
2026-01-26 15:31:21.83	327.67	11.32	-38.0	-39.7	14.5	0.00e+00	0	62	0	4421844992	46	4408
2026-01-26 15:31:22.84	327.77	11.25	-38.0	-39.7	14.5	0.00e+00	0	63	0	4428136448	46	4420
2026-01-26 15:31:23.85	327.87	11.17	-38.0	-39.7	14.4	0.00e+00	0	63	0	4435476480	46	4437
2026-01-26 15:31:24.86	327.97	11.09	-38.1	-39.9	14.3	0.00e+00	0	62	0	4442816512	46	4504
2026-01-26 15:31:25.87	328.06	11.01	-38.1	-39.8	14.3	1.10e-06	0	62	0	4450156544	46	4485
2026-01-26 15:31:26.88	328.16	10.93	-38.0	-39.7	14.4	1.10e-06	0	63	0	4457496576	46	4426
2026-01-26 15:31:27.89	328.26	10.85	-38.0	-39.8	14.3	0.00e+00	0	63	0	4464836608	46	4465
2026-01-26 15:31:28.90	328.35	10.78	-38.1	-39.9	14.3	2.20e-06	0	62	0	4472176640	46	4502
2026-01-26 15:31:29.91	328.45	10.70	-38.2	-40.0	14.1	0.00e+00	0	63	0	4479516672	46	4580
2026-01-26 15:31:30.92	328.54	10.62	-38.2	-40.0	14.1	2.20e-06	0	63	0	4486856704	46	4578
2026-01-26 15:31:31.93	328.63	10.55	-38.3	-40.2	13.9	0.00e+00	0	62	0	4494196736	46	4659
2026-01-26 15:31:32.94	328.73	10.47	-38.3	-40.2	13.9	2.20e-06	0	62	0	4501536768	46	4666
2026-01-26 15:31:33.95	328.82	10.39	-38.4	-40.2	13.8	2.20e-06	0	63	0	4508876800	46	4703
