passes_logs/2026/01/26/R2.0S_Moscow/R2.0S_Moscow__20260126_020547_FENGYUN_3D_rec.log

#Pass ID: 20260126_020547_FENGYUN 3D
#Satellite: FENGYUN 3D
#Configuration: FENGYUN 3D
#almurnet v.1.7.20251203
#Start time: 2026-01-26 02:05:47

#Version: 2.2.20231116
#Station: R2.0S_Moscow
#Location: 37.707566 lon 55.798166 lat
#TLE: 1 43010U 17072A   26025.50461972  .00000046  00000+0  43592-4 0  9990
#TLE: 2 43010  98.9962 357.4844 0002523  89.7890 270.3575 14.19699798424744

#Time	Az	El	Level	Level2	SNR	BER	BlckErr	Temp	State	Recorded	gain1	gain2
2026-01-26 02:05:47.67	15.23	2.02	-42.9	-54.6	3.8	8.46e-01	0	52	0	0	57	13782
2026-01-26 02:05:48.67	15.22	2.09	-43.0	-54.6	3.8	8.46e-01	0	52	104	0	57	13794
2026-01-26 02:05:49.68	15.21	2.15	-42.9	-54.6	3.8	8.46e-01	0	52	104	0	57	13762
2026-01-26 02:05:50.69	15.20	2.22	-42.9	-54.6	3.8	8.46e-01	0	52	104	0	57	13785
2026-01-26 02:05:51.70	15.19	2.28	-42.9	-54.6	3.8	8.45e-01	0	52	104	0	57	13788
2026-01-26 02:05:52.71	15.18	2.35	-42.9	-54.6	3.8	8.45e-01	0	52	104	0	57	13766
2026-01-26 02:05:53.72	15.17	2.41	-42.9	-54.6	3.8	8.46e-01	0	52	104	0	57	13772
2026-01-26 02:05:54.73	15.16	2.48	-42.9	-54.6	3.8	8.46e-01	0	52	104	0	57	13752
2026-01-26 02:05:55.74	15.15	2.54	-42.9	-54.5	3.8	8.45e-01	0	53	104	0	57	13717
2026-01-26 02:05:56.75	15.14	2.61	-42.9	-54.6	3.8	8.46e-01	0	53	104	0	57	13755
2026-01-26 02:05:57.76	15.13	2.67	-42.9	-54.6	3.8	8.45e-01	0	53	104	0	57	13824
2026-01-26 02:05:58.77	15.12	2.74	-42.9	-54.6	3.8	8.47e-01	0	53	104	0	57	13734
2026-01-26 02:05:59.78	15.11	2.81	-42.9	-54.6	3.8	8.47e-01	0	53	104	0	57	13767
2026-01-26 02:06:00.79	15.10	2.87	-42.9	-54.6	3.8	8.47e-01	0	53	104	0	57	13765
2026-01-26 02:06:01.80	15.09	2.94	-42.9	-54.5	3.8	8.46e-01	0	53	104	0	57	13715
2026-01-26 02:06:02.81	15.08	3.00	-42.9	-54.6	3.8	8.46e-01	0	53	104	0	57	13772
2026-01-26 02:06:03.83	15.06	3.07	-42.9	-54.5	3.8	8.46e-01	0	53	104	0	57	13715
2026-01-26 02:06:04.84	15.05	3.14	-42.9	-54.6	3.8	8.45e-01	0	53	104	0	57	13732
2026-01-26 02:06:05.85	15.04	3.21	-42.9	-54.5	3.8	8.46e-01	0	53	104	0	57	13701
2026-01-26 02:06:06.86	15.03	3.27	-42.9	-54.6	3.8	8.45e-01	0	53	104	0	57	13775
2026-01-26 02:06:07.87	15.02	3.34	-42.9	-54.6	3.8	8.47e-01	0	53	104	0	57	13744
2026-01-26 02:06:08.88	15.01	3.41	-42.9	-54.5	3.8	8.46e-01	0	54	104	0	57	13692
2026-01-26 02:06:09.89	14.99	3.48	-42.9	-54.5	3.8	8.47e-01	0	53	104	0	57	13710
2026-01-26 02:06:10.90	14.98	3.54	-42.9	-54.6	3.8	8.46e-01	0	54	104	0	57	13739
2026-01-26 02:06:11.91	14.97	3.61	-42.9	-54.5	3.8	8.45e-01	0	54	104	0	57	13720
2026-01-26 02:06:12.92	14.96	3.68	-42.9	-54.5	3.8	8.47e-01	0	54	104	0	57	13713
2026-01-26 02:06:13.93	14.95	3.75	-42.9	-54.5	3.8	8.46e-01	0	54	104	0	57	13713
2026-01-26 02:06:14.94	14.94	3.82	-42.9	-54.5	3.8	8.46e-01	0	54	104	0	57	13655
2026-01-26 02:06:15.95	14.92	3.88	-42.9	-54.5	3.8	8.46e-01	0	54	104	0	57	13671
2026-01-26 02:06:16.96	14.91	3.95	-42.9	-54.6	3.8	8.45e-01	0	54	104	0	57	13774
2026-01-26 02:06:17.97	14.90	4.02	-42.9	-54.6	3.8	8.47e-01	0	54	104	0	57	13741
2026-01-26 02:06:18.98	14.89	4.09	-42.9	-54.6	3.8	8.46e-01	0	54	104	0	57	13733
2026-01-26 02:06:20.00	14.87	4.16	-42.9	-54.5	3.8	8.46e-01	0	54	104	0	57	13716
2026-01-26 02:06:21.01	14.86	4.23	-42.9	-54.5	3.8	8.45e-01	0	54	104	0	57	13720
2026-01-26 02:06:22.02	14.85	4.30	-42.9	-54.5	3.8	8.46e-01	0	55	104	0	57	13707
2026-01-26 02:06:23.03	14.84	4.37	-42.9	-54.5	3.8	8.47e-01	0	55	104	0	57	13724
2026-01-26 02:06:24.04	14.82	4.44	-42.9	-54.5	3.8	8.46e-01	0	55	104	0	57	13714
2026-01-26 02:06:25.05	14.81	4.51	-42.9	-54.5	3.8	8.47e-01	0	54	104	0	57	13703
2026-01-26 02:06:26.06	14.80	4.58	-42.9	-54.5	3.8	8.46e-01	0	55	104	0	57	13674
2026-01-26 02:06:27.07	14.78	4.65	-42.9	-54.4	3.8	8.46e-01	0	55	104	0	57	13547
2026-01-26 02:06:28.08	14.77	4.72	-42.9	-54.5	3.8	8.46e-01	0	55	104	0	57	13698
2026-01-26 02:06:29.09	14.76	4.79	-42.9	-54.4	3.8	8.47e-01	0	55	104	0	57	13534
2026-01-26 02:06:30.10	14.75	4.86	-42.9	-54.4	3.8	8.46e-01	0	55	104	0	57	13504
2026-01-26 02:06:31.11	14.73	4.94	-42.9	-54.5	3.8	8.47e-01	0	55	104	0	57	13657
2026-01-26 02:06:32.12	14.72	5.01	-42.9	-54.3	3.8	8.46e-01	0	55	104	0	57	13378
2026-01-26 02:06:33.13	14.70	5.08	-42.9	-54.4	3.8	8.46e-01	0	55	104	0	57	13441
2026-01-26 02:06:34.14	14.69	5.15	-42.9	-54.4	3.8	8.46e-01	0	55	104	0	57	13561
2026-01-26 02:06:35.15	14.68	5.22	-42.9	-54.3	3.8	8.46e-01	0	55	104	0	57	13343
2026-01-26 02:06:36.16	14.66	5.30	-42.9	-54.1	3.8	8.47e-01	0	55	104	0	57	13069
2026-01-26 02:06:37.17	14.65	5.37	-42.9	-54.2	3.8	8.44e-01	0	55	104	0	57	13205
2026-01-26 02:06:38.19	14.64	5.44	-42.9	-54.3	3.8	8.46e-01	0	55	104	0	57	13375
2026-01-26 02:06:39.20	14.62	5.51	-42.9	-54.2	3.8	8.45e-01	0	55	104	0	57	13123
2026-01-26 02:06:40.21	14.61	5.59	-42.8	-53.9	3.8	8.46e-01	0	55	104	0	57	12666
2026-01-26 02:06:41.22	14.59	5.66	-42.8	-53.9	3.8	8.46e-01	0	56	104	0	57	12687
2026-01-26 02:06:42.23	14.58	5.73	-42.9	-54.3	3.8	8.47e-01	0	55	104	0	57	13323
2026-01-26 02:06:43.24	14.56	5.81	-42.9	-54.4	3.8	8.44e-01	0	56	104	0	57	13462
2026-01-26 02:06:44.25	14.55	5.88	-42.9	-54.3	3.8	8.47e-01	0	56	104	0	57	13294
2026-01-26 02:06:45.26	14.54	5.96	-42.8	-53.9	3.8	8.47e-01	0	55	104	0	57	12777
2026-01-26 02:06:46.27	14.52	6.03	-42.8	-53.8	3.8	8.46e-01	0	56	104	0	57	12628
2026-01-26 02:06:47.28	14.51	6.10	-42.8	-53.9	3.8	8.47e-01	0	56	104	0	57	12719
2026-01-26 02:06:48.29	14.49	6.18	-42.9	-54.2	3.8	8.46e-01	0	56	104	0	57	13193
2026-01-26 02:06:49.30	14.48	6.25	-42.9	-54.5	3.8	8.47e-01	0	56	104	0	57	13602
2026-01-26 02:06:50.31	14.46	6.33	-42.9	-54.5	3.8	8.47e-01	0	56	104	0	57	13667
2026-01-26 02:06:51.32	14.45	6.41	-42.9	-54.2	3.8	8.46e-01	0	56	104	0	57	13240
2026-01-26 02:06:52.33	14.43	6.48	-42.8	-53.4	3.8	8.46e-01	0	56	104	0	57	12063
2026-01-26 02:06:53.34	14.42	6.56	-42.7	-52.4	3.8	8.46e-01	0	56	104	0	57	10747
2026-01-26 02:06:54.35	14.40	6.63	-42.5	-51.1	4.2	8.43e-01	0	56	0	0	57	9263
2026-01-26 02:06:55.36	14.38	6.71	-42.3	-49.9	4.5	8.23e-01	0	56	0	0	56	8552
2026-01-26 02:06:56.37	14.37	6.79	-42.0	-48.7	5.2	7.79e-01	0	56	0	0	56	7398
2026-01-26 02:06:57.39	14.35	6.86	-41.5	-47.3	6.0	4.58e-01	0	56	0	1048576	55	6708
2026-01-26 02:06:58.40	14.34	6.94	-41.2	-46.3	6.9	2.50e-01	0	56	0	7340032	54	6276
2026-01-26 02:06:59.41	14.32	7.02	-40.7	-45.1	8.0	9.14e-02	0	56	0	12582912	53	5799
2026-01-26 02:07:00.42	14.30	7.09	-40.2	-43.9	9.1	3.69e-02	0	56	0	18874368	52	5399
2026-01-26 02:07:01.43	14.29	7.17	-39.7	-43.0	10.2	8.77e-03	0	56	0	24117248	51	5115
2026-01-26 02:07:02.44	14.27	7.25	-39.1	-41.9	11.3	2.24e-03	0	56	0	30408704	50	4803
2026-01-26 02:07:03.45	14.26	7.33	-38.7	-41.4	12.0	8.52e-04	0	57	0	35651584	49	4765
2026-01-26 02:07:04.46	14.24	7.41	-38.7	-41.3	12.0	5.84e-04	0	56	0	40894464	49	4748
2026-01-26 02:07:05.47	14.22	7.48	-38.8	-41.6	11.7	6.13e-04	0	56	0	47185920	49	4881
2026-01-26 02:07:06.48	14.20	7.56	-39.0	-41.9	11.4	1.59e-03	0	56	0	52428800	49	5071
2026-01-26 02:07:07.49	14.19	7.64	-39.0	-41.8	11.4	1.39e-03	0	57	0	58720256	49	5023
2026-01-26 02:07:08.50	14.17	7.72	-38.8	-41.5	11.8	8.02e-04	0	57	0	63963136	49	4825
2026-01-26 02:07:09.51	14.15	7.80	-38.9	-41.7	11.6	8.19e-04	0	57	0	69206016	49	4956
2026-01-26 02:07:10.53	14.14	7.88	-39.4	-42.6	10.7	3.14e-03	0	57	0	75497472	49	5489
2026-01-26 02:07:11.54	14.12	7.96	-39.6	-42.8	10.4	6.46e-03	0	57	0	80740352	49	5628
2026-01-26 02:07:12.55	14.10	8.04	-39.5	-42.7	10.5	5.61e-03	0	57	0	87031808	49	5590
2026-01-26 02:07:13.56	14.08	8.12	-39.5	-42.5	11.0	6.74e-03	0	57	0	92274688	49	5443
2026-01-26 02:07:14.57	14.07	8.20	-39.9	-43.0	10.7	1.09e-02	0	57	0	97517568	51	5133
2026-01-26 02:07:15.58	14.05	8.29	-40.7	-44.9	8.6	1.17e-03	0	57	0	103809024	51	6410
2026-01-26 02:07:16.59	14.03	8.37	-41.3	-46.1	5.2	8.37e-01	0	57	104	104857600	54	6151
2026-01-26 02:07:17.60	14.01	8.45	-38.8	-41.4	12.3	6.22e-03	0	57	0	108003328	49	4760
2026-01-26 02:07:18.61	13.99	8.53	-39.5	-42.5	10.8	1.86e-02	0	57	0	114294784	51	4849
2026-01-26 02:07:19.62	13.98	8.61	-38.8	-41.4	12.2	1.42e-04	0	57	0	119537664	49	4761
2026-01-26 02:07:20.63	13.96	8.69	-39.1	-41.7	11.9	2.20e-04	0	57	0	125829120	49	4982
2026-01-26 02:07:21.64	13.94	8.78	-38.8	-41.3	12.3	1.38e-04	0	57	0	131072000	49	4751
2026-01-26 02:07:22.65	13.92	8.86	-38.9	-41.4	12.3	9.72e-05	0	57	0	137363456	49	4791
2026-01-26 02:07:23.67	13.90	8.94	-38.7	-41.1	12.6	6.98e-05	0	57	0	142606336	49	4651
2026-01-26 02:07:24.68	13.88	9.03	-38.8	-41.3	12.4	4.80e-05	0	57	0	148897792	49	4752
2026-01-26 02:07:25.69	13.86	9.11	-38.8	-41.2	12.5	6.75e-05	0	57	0	154140672	49	4692
2026-01-26 02:07:26.69	13.84	9.19	-38.8	-41.3	12.5	7.78e-05	0	57	0	159383552	49	4735
2026-01-26 02:07:27.71	13.82	9.28	-38.8	-41.2	12.6	5.26e-05	0	57	0	165675008	49	4678
2026-01-26 02:07:28.72	13.80	9.36	-38.7	-41.1	12.7	7.78e-05	0	57	0	170917888	49	4648
2026-01-26 02:07:29.73	13.78	9.45	-38.7	-41.1	12.7	4.92e-05	0	57	0	177209344	49	4637
2026-01-26 02:07:30.74	13.76	9.53	-38.6	-40.9	12.9	2.86e-05	0	57	0	182452224	49	4536
2026-01-26 02:07:31.75	13.74	9.62	-38.6	-41.0	12.8	3.20e-05	0	58	0	187695104	49	4569
2026-01-26 02:07:32.76	13.72	9.71	-38.7	-41.1	12.7	3.89e-05	0	58	0	193986560	49	4623
2026-01-26 02:07:33.77	13.70	9.79	-38.7	-41.1	12.7	4.23e-05	0	58	0	199229440	49	4648
2026-01-26 02:07:34.78	13.68	9.88	-38.7	-41.0	12.8	3.77e-05	0	58	0	205520896	49	4585
2026-01-26 02:07:35.79	13.66	9.96	-38.6	-41.0	12.8	3.77e-05	0	57	0	210763776	49	4577
2026-01-26 02:07:36.80	13.64	10.05	-38.8	-41.2	12.6	3.77e-05	0	58	0	216006656	49	4674
2026-01-26 02:07:37.81	13.62	10.14	-38.7	-41.1	12.7	4.34e-05	0	58	0	222298112	49	4637
2026-01-26 02:07:38.82	13.60	10.23	-38.7	-41.0	12.9	3.43e-05	0	58	0	227540992	49	4593
2026-01-26 02:07:39.83	13.58	10.31	-38.6	-40.9	13.1	2.28e-05	0	58	0	233832448	49	4522
2026-01-26 02:07:40.84	13.56	10.40	-38.6	-40.9	13.2	1.83e-05	0	58	0	239075328	49	4497
2026-01-26 02:07:41.85	13.54	10.49	-38.6	-40.8	13.2	2.28e-05	0	58	0	245366784	49	4479
2026-01-26 02:07:42.87	13.51	10.58	-38.5	-40.8	13.2	1.25e-05	0	58	0	250609664	49	4467
2026-01-26 02:07:43.88	13.49	10.67	-38.5	-40.8	13.2	2.05e-05	0	58	0	256901120	49	4471
2026-01-26 02:07:44.89	13.47	10.76	-38.6	-40.9	13.1	1.83e-05	0	58	0	262144000	49	4509
2026-01-26 02:07:45.90	13.45	10.85	-38.5	-40.8	13.2	1.14e-05	0	58	0	267386880	49	4472
2026-01-26 02:07:46.91	13.43	10.94	-38.6	-40.8	13.2	8.00e-06	0	58	0	273678336	49	4491
2026-01-26 02:07:47.92	13.40	11.03	-38.5	-40.7	13.3	6.80e-06	0	58	0	278921216	49	4438
2026-01-26 02:07:48.93	13.38	11.12	-38.5	-40.7	13.4	1.14e-05	0	58	0	285212672	49	4410
2026-01-26 02:07:49.94	13.36	11.21	-38.5	-40.7	13.4	9.10e-06	0	58	0	290455552	48	4662
2026-01-26 02:07:50.95	13.34	11.30	-38.5	-40.7	13.4	2.20e-06	0	58	0	295698432	48	4685
2026-01-26 02:07:51.96	13.31	11.39	-38.5	-40.7	13.3	2.20e-06	0	58	0	301989888	48	4700
2026-01-26 02:07:52.97	13.29	11.49	-38.5	-40.7	13.4	6.80e-06	0	58	0	307232768	48	4684
2026-01-26 02:07:53.98	13.27	11.58	-38.5	-40.7	13.4	1.60e-05	0	58	0	313524224	48	4679
2026-01-26 02:07:54.99	13.24	11.67	-38.5	-40.7	13.4	8.00e-06	0	58	0	318767104	48	4681
2026-01-26 02:07:56.00	13.22	11.76	-38.5	-40.7	13.4	2.20e-06	0	58	0	324009984	48	4658
2026-01-26 02:07:57.01	13.19	11.86	-38.5	-40.7	13.4	9.10e-06	0	58	0	330301440	48	4693
2026-01-26 02:07:58.02	13.17	11.95	-38.4	-40.6	13.5	3.40e-06	0	58	0	335544320	48	4641
2026-01-26 02:07:59.03	13.15	12.05	-38.5	-40.7	13.5	1.02e-05	0	58	0	341835776	48	4661
2026-01-26 02:08:00.04	13.12	12.14	-38.4	-40.6	13.6	5.70e-06	0	58	0	347078656	48	4620
2026-01-26 02:08:01.05	13.10	12.24	-38.4	-40.6	13.6	2.20e-06	0	59	0	353370112	48	4609
2026-01-26 02:08:02.06	13.07	12.33	-38.5	-40.6	13.6	2.20e-06	0	58	0	358612992	48	4644
2026-01-26 02:08:03.07	13.05	12.43	-38.4	-40.6	13.6	3.40e-06	0	58	0	364904448	48	4635
2026-01-26 02:08:04.09	13.02	12.52	-38.5	-40.7	13.6	4.50e-06	0	58	0	370147328	48	4656
2026-01-26 02:08:05.10	13.00	12.62	-38.5	-40.6	13.7	1.10e-06	0	58	0	375390208	48	4633
2026-01-26 02:08:06.11	12.97	12.72	-38.5	-40.6	13.7	3.40e-06	0	58	0	381681664	48	4647
2026-01-26 02:08:07.12	12.94	12.81	-38.5	-40.7	13.6	3.40e-06	0	58	0	386924544	48	4681
2026-01-26 02:08:08.13	12.92	12.91	-38.5	-40.6	13.8	6.80e-06	0	58	0	393216000	48	4626
2026-01-26 02:08:09.14	12.89	13.01	-38.4	-40.5	13.8	1.10e-06	0	59	0	398458880	48	4594
2026-01-26 02:08:10.15	12.87	13.11	-38.5	-40.6	13.8	4.50e-06	0	58	0	403701760	48	4629
2026-01-26 02:08:11.16	12.84	13.21	-38.5	-40.6	13.8	1.10e-06	0	59	0	409993216	48	4635
2026-01-26 02:08:12.17	12.81	13.31	-38.5	-40.6	13.8	2.20e-06	0	58	0	415236096	48	4636
2026-01-26 02:08:13.18	12.78	13.40	-38.5	-40.6	13.8	1.10e-06	0	59	0	421527552	48	4637
2026-01-26 02:08:14.19	12.76	13.50	-38.5	-40.6	13.8	5.70e-06	0	58	0	426770432	48	4618
2026-01-26 02:08:15.20	12.73	13.61	-38.5	-40.6	13.8	1.10e-06	0	59	0	432013312	48	4631
2026-01-26 02:08:16.22	12.70	13.71	-38.5	-40.6	13.8	1.10e-06	0	59	0	438304768	48	4649
2026-01-26 02:08:17.23	12.67	13.81	-38.5	-40.6	13.9	2.20e-06	0	59	0	443547648	48	4630
2026-01-26 02:08:18.24	12.65	13.91	-38.5	-40.6	13.9	2.20e-06	0	59	0	449839104	48	4632
2026-01-26 02:08:19.25	12.62	14.01	-38.5	-40.6	13.9	1.10e-06	0	59	0	455081984	48	4613
2026-01-26 02:08:20.26	12.59	14.11	-38.4	-40.5	14.0	4.50e-06	0	59	0	461373440	48	4568
2026-01-26 02:08:21.27	12.56	14.22	-38.4	-40.5	14.0	3.40e-06	0	59	0	466616320	48	4586
2026-01-26 02:08:22.28	12.53	14.32	-38.4	-40.5	14.0	0.00e+00	0	59	0	472907776	48	4572
2026-01-26 02:08:23.29	12.50	14.42	-38.4	-40.5	14.1	0.00e+00	0	59	0	478150656	48	4582
2026-01-26 02:08:24.30	12.47	14.53	-38.5	-40.6	14.1	0.00e+00	0	58	0	483393536	48	4599
2026-01-26 02:08:25.31	12.44	14.63	-38.4	-40.5	14.1	0.00e+00	0	59	0	489684992	48	4553
2026-01-26 02:08:26.32	12.41	14.74	-38.4	-40.5	14.1	0.00e+00	0	59	0	494927872	48	4547
2026-01-26 02:08:27.33	12.38	14.84	-38.3	-40.4	14.3	1.10e-06	0	59	0	501219328	48	4496
2026-01-26 02:08:28.34	12.35	14.95	-38.3	-40.3	14.4	0.00e+00	0	59	0	506462208	48	4478
2026-01-26 02:08:29.35	12.32	15.05	-38.2	-40.2	14.5	1.10e-06	0	59	0	511705088	48	4422
2026-01-26 02:08:30.36	12.29	15.16	-38.2	-40.1	14.6	0.00e+00	0	59	0	517996544	48	4361
2026-01-26 02:08:31.37	12.26	15.27	-38.2	-40.1	14.6	0.00e+00	0	59	0	523239424	48	4375
2026-01-26 02:08:32.39	12.23	15.38	-38.1	-40.0	14.8	0.00e+00	0	59	0	529530880	48	4304
2026-01-26 02:08:33.39	12.20	15.48	-38.0	-39.8	14.9	0.00e+00	0	59	0	534773760	48	4238
2026-01-26 02:08:34.40	12.16	15.59	-37.9	-39.7	15.0	0.00e+00	0	59	0	540016640	47	4420
2026-01-26 02:08:35.42	12.13	15.70	-37.9	-39.8	15.0	0.00e+00	0	59	0	546308096	47	4448
2026-01-26 02:08:36.42	12.10	15.81	-37.8	-39.7	15.1	0.00e+00	0	59	0	551550976	47	4393
2026-01-26 02:08:37.44	12.07	15.92	-37.9	-39.7	15.0	0.00e+00	0	59	0	557842432	47	4428
2026-01-26 02:08:38.45	12.03	16.03	-37.8	-39.6	15.2	0.00e+00	0	59	0	563085312	47	4373
2026-01-26 02:08:39.46	12.00	16.15	-37.6	-39.4	15.4	0.00e+00	0	59	0	569376768	47	4252
2026-01-26 02:08:40.47	11.97	16.26	-37.5	-39.3	15.5	0.00e+00	0	59	0	574619648	47	4220
2026-01-26 02:08:41.48	11.93	16.37	-37.6	-39.3	15.5	0.00e+00	0	59	0	580911104	47	4228
2026-01-26 02:08:42.49	11.90	16.48	-37.5	-39.3	15.5	0.00e+00	0	59	0	586153984	47	4200
2026-01-26 02:08:43.50	11.86	16.59	-37.5	-39.2	15.6	0.00e+00	0	59	0	591396864	46	4420
2026-01-26 02:08:44.51	11.83	16.71	-37.5	-39.2	15.6	0.00e+00	0	59	0	597688320	46	4427
2026-01-26 02:08:45.52	11.79	16.82	-37.4	-39.1	15.7	0.00e+00	0	59	0	602931200	46	4383
2026-01-26 02:08:46.53	11.76	16.94	-37.4	-39.1	15.8	0.00e+00	0	59	0	609222656	46	4382
2026-01-26 02:08:47.54	11.72	17.05	-37.4	-39.0	15.8	0.00e+00	0	59	0	614465536	46	4340
2026-01-26 02:08:48.55	11.69	17.17	-37.3	-39.0	15.8	0.00e+00	0	59	0	619708416	46	4335
2026-01-26 02:08:49.56	11.65	17.28	-37.4	-39.1	15.8	0.00e+00	0	59	0	625999872	46	4349
2026-01-26 02:08:50.57	11.61	17.40	-37.3	-38.9	16.0	0.00e+00	0	59	0	631242752	46	4282
2026-01-26 02:08:51.58	11.58	17.52	-37.3	-39.0	15.9	0.00e+00	0	59	0	637534208	46	4312
2026-01-26 02:08:52.59	11.54	17.64	-37.3	-38.9	16.0	0.00e+00	0	59	0	642777088	46	4278
2026-01-26 02:08:53.60	11.50	17.76	-37.2	-38.9	16.0	0.00e+00	0	59	0	648019968	46	4271
2026-01-26 02:08:54.61	11.46	17.87	-37.3	-39.0	16.0	0.00e+00	0	59	0	654311424	46	4296
2026-01-26 02:08:55.62	11.43	17.99	-37.2	-38.9	16.1	0.00e+00	0	59	0	659554304	46	4256
2026-01-26 02:08:56.63	11.39	18.11	-37.2	-38.8	16.1	0.00e+00	0	59	0	665845760	46	4229
2026-01-26 02:08:57.64	11.35	18.24	-37.0	-38.6	16.3	0.00e+00	0	59	0	671088640	46	4124
2026-01-26 02:08:58.65	11.31	18.36	-36.8	-38.4	16.6	0.00e+00	0	59	0	677380096	45	4258
2026-01-26 02:08:59.66	11.27	18.48	-36.8	-38.3	16.7	0.00e+00	0	59	0	682622976	45	4224
2026-01-26 02:09:00.67	11.23	18.60	-36.7	-38.3	16.7	0.00e+00	0	59	0	688914432	45	4196
2026-01-26 02:09:01.68	11.19	18.72	-36.7	-38.2	16.8	0.00e+00	0	60	0	694157312	45	4162
2026-01-26 02:09:02.69	11.15	18.85	-36.7	-38.2	16.8	0.00e+00	0	60	0	699400192	45	4179
2026-01-26 02:09:03.70	11.11	18.97	-36.6	-38.2	16.8	0.00e+00	0	60	0	705691648	45	4147
2026-01-26 02:09:04.72	11.07	19.10	-36.7	-38.2	16.8	0.00e+00	0	60	0	710934528	45	4168
2026-01-26 02:09:05.73	11.02	19.22	-36.7	-38.2	16.8	0.00e+00	0	59	0	717225984	45	4187
2026-01-26 02:09:06.74	10.98	19.35	-36.7	-38.2	16.8	0.00e+00	0	59	0	722468864	45	4171
2026-01-26 02:09:07.75	10.94	19.48	-36.7	-38.2	16.8	0.00e+00	0	60	0	727711744	45	4170
2026-01-26 02:09:08.76	10.90	19.60	-36.7	-38.3	16.8	0.00e+00	0	60	0	734003200	45	4209
2026-01-26 02:09:09.77	10.85	19.73	-36.8	-38.3	16.7	0.00e+00	0	60	0	739246080	45	4239
2026-01-26 02:09:10.78	10.81	19.86	-36.8	-38.3	16.7	0.00e+00	0	60	0	745537536	45	4226
2026-01-26 02:09:11.79	10.77	19.99	-36.9	-38.4	16.6	0.00e+00	0	60	0	750780416	45	4286
2026-01-26 02:09:12.80	10.72	20.12	-36.8	-38.4	16.6	0.00e+00	0	60	0	756023296	45	4277
2026-01-26 02:09:13.81	10.68	20.25	-36.9	-38.4	16.6	0.00e+00	0	60	0	762314752	45	4288
2026-01-26 02:09:14.82	10.63	20.38	-36.9	-38.5	16.5	0.00e+00	0	60	0	767557632	45	4325
2026-01-26 02:09:15.83	10.59	20.52	-36.9	-38.5	16.5	0.00e+00	0	60	0	773849088	45	4334
2026-01-26 02:09:16.84	10.54	20.65	-37.0	-38.6	16.4	0.00e+00	0	60	0	779091968	45	4368
2026-01-26 02:09:17.85	10.49	20.78	-37.1	-38.7	16.4	0.00e+00	0	60	0	785383424	45	4405
2026-01-26 02:09:18.86	10.45	20.92	-37.0	-38.6	16.4	0.00e+00	0	60	0	790626304	45	4387
2026-01-26 02:09:19.87	10.40	21.05	-37.1	-38.7	16.3	0.00e+00	0	60	0	795869184	45	4419
2026-01-26 02:09:20.88	10.35	21.19	-37.1	-38.7	16.3	0.00e+00	0	60	0	802160640	45	4428
2026-01-26 02:09:21.89	10.30	21.32	-37.0	-38.6	16.4	0.00e+00	0	60	0	807403520	45	4385
2026-01-26 02:09:22.90	10.25	21.46	-37.0	-38.6	16.5	0.00e+00	0	60	0	813694976	45	4351
2026-01-26 02:09:23.91	10.20	21.60	-36.9	-38.5	16.6	0.00e+00	0	60	0	818937856	45	4322
2026-01-26 02:09:24.92	10.15	21.74	-36.9	-38.5	16.6	0.00e+00	0	60	0	825229312	45	4324
2026-01-26 02:09:25.93	10.10	21.87	-37.0	-38.5	16.6	0.00e+00	0	60	0	830472192	45	4323
2026-01-26 02:09:26.95	10.05	22.02	-36.8	-38.3	16.7	0.00e+00	0	60	0	835715072	45	4230
2026-01-26 02:09:27.96	10.00	22.16	-36.6	-38.1	17.0	0.00e+00	0	60	0	842006528	45	4138
2026-01-26 02:09:28.97	9.95	22.30	-36.6	-38.1	17.0	0.00e+00	0	60	0	847249408	45	4118
2026-01-26 02:09:29.98	9.90	22.44	-36.5	-38.0	17.1	0.00e+00	0	60	0	853540864	45	4086
2026-01-26 02:09:30.99	9.84	22.58	-36.4	-37.8	17.3	0.00e+00	0	60	0	858783744	44	4237
2026-01-26 02:09:32.00	9.79	22.73	-36.3	-37.8	17.3	0.00e+00	0	60	0	864026624	44	4212
2026-01-26 02:09:33.01	9.74	22.87	-36.2	-37.7	17.4	0.00e+00	0	60	0	870318080	44	4157
2026-01-26 02:09:34.02	9.68	23.02	-36.1	-37.5	17.6	0.00e+00	0	60	0	875560960	44	4086
2026-01-26 02:09:35.03	9.63	23.16	-36.1	-37.5	17.6	0.00e+00	0	60	0	881852416	44	4062
2026-01-26 02:09:36.04	9.57	23.31	-36.2	-37.6	17.5	0.00e+00	0	60	0	887095296	44	4140
2026-01-26 02:09:37.05	9.52	23.46	-36.1	-37.5	17.6	0.00e+00	0	60	0	893386752	44	4078
2026-01-26 02:09:38.06	9.46	23.61	-36.1	-37.5	17.6	0.00e+00	0	60	0	898629632	44	4084
2026-01-26 02:09:39.07	9.40	23.76	-36.2	-37.6	17.6	0.00e+00	0	60	0	904921088	44	4112
2026-01-26 02:09:40.08	9.34	23.91	-36.1	-37.5	17.6	0.00e+00	0	60	0	910163968	44	4060
2026-01-26 02:09:41.09	9.29	24.06	-36.1	-37.6	17.6	0.00e+00	0	60	0	915406848	44	4106
2026-01-26 02:09:42.10	9.23	24.21	-36.2	-37.6	17.5	0.00e+00	0	60	0	921698304	44	4110
2026-01-26 02:09:43.12	9.17	24.36	-36.2	-37.6	17.5	0.00e+00	0	60	0	926941184	44	4129
2026-01-26 02:09:44.13	9.11	24.52	-36.2	-37.6	17.5	0.00e+00	0	60	0	933232640	44	4136
2026-01-26 02:09:45.14	9.05	24.67	-36.1	-37.6	17.6	0.00e+00	0	60	0	938475520	44	4100
2026-01-26 02:09:46.15	8.98	24.83	-36.2	-37.6	17.5	0.00e+00	0	60	0	943718400	44	4130
2026-01-26 02:09:47.16	8.92	24.98	-36.2	-37.6	17.5	0.00e+00	0	60	0	950009856	44	4123
2026-01-26 02:09:48.17	8.86	25.14	-36.2	-37.6	17.6	0.00e+00	0	60	0	955252736	44	4105
2026-01-26 02:09:49.18	8.80	25.30	-36.1	-37.5	17.7	0.00e+00	0	60	0	961544192	44	4071
2026-01-26 02:09:50.19	8.73	25.46	-36.1	-37.5	17.6	0.00e+00	0	60	0	966787072	44	4091
2026-01-26 02:09:51.20	8.67	25.62	-36.1	-37.5	17.6	0.00e+00	0	60	0	972029952	44	4095
2026-01-26 02:09:52.21	8.60	25.78	-36.1	-37.5	17.7	0.00e+00	0	60	0	978321408	44	4070
2026-01-26 02:09:53.22	8.54	25.94	-36.1	-37.5	17.6	0.00e+00	0	60	0	983564288	44	4097
2026-01-26 02:09:54.23	8.47	26.10	-36.0	-37.4	17.8	0.00e+00	0	60	0	989855744	44	4018
2026-01-26 02:09:55.25	8.40	26.27	-35.7	-37.1	17.9	0.00e+00	0	60	0	995098624	43	4119
2026-01-26 02:09:56.26	8.33	26.43	-35.8	-37.1	17.9	0.00e+00	0	60	0	1001390080	43	4143
2026-01-26 02:09:57.27	8.26	26.60	-35.7	-37.0	18.0	0.00e+00	0	60	0	1006632960	43	4087
2026-01-26 02:09:58.28	8.19	26.76	-35.7	-37.0	18.0	0.00e+00	0	60	0	1012924416	43	4095
2026-01-26 02:09:59.29	8.12	26.93	-35.7	-37.0	18.0	0.00e+00	0	60	0	1018167296	43	4079
2026-01-26 02:10:00.30	8.05	27.10	-35.8	-37.1	17.9	0.00e+00	0	60	0	1023410176	43	4135
2026-01-26 02:10:01.31	7.98	27.27	-35.8	-37.2	17.8	0.00e+00	0	60	0	1029701632	43	4168
2026-01-26 02:10:02.32	7.90	27.44	-35.9	-37.3	17.8	0.00e+00	0	60	0	1034944512	43	4198
2026-01-26 02:10:03.33	7.83	27.61	-36.0	-37.4	17.7	0.00e+00	0	60	0	1041235968	43	4243
2026-01-26 02:10:04.34	7.76	27.78	-36.0	-37.4	17.6	0.00e+00	0	60	0	1046478848	43	4267
2026-01-26 02:10:05.35	7.68	27.96	-36.0	-37.5	17.6	0.00e+00	0	60	0	1051721728	43	4297
2026-01-26 02:10:06.36	7.60	28.13	-35.9	-37.3	17.7	0.00e+00	0	60	0	1058013184	43	4227
2026-01-26 02:10:07.37	7.53	28.31	-36.0	-37.4	17.6	0.00e+00	0	60	0	1063256064	43	4280
2026-01-26 02:10:08.38	7.45	28.49	-36.0	-37.4	17.6	0.00e+00	0	60	0	1069547520	43	4287
2026-01-26 02:10:09.39	7.37	28.66	-36.0	-37.4	17.6	0.00e+00	0	60	0	1074790400	43	4276
2026-01-26 02:10:10.40	7.29	28.84	-35.9	-37.3	17.7	0.00e+00	0	60	0	1080033280	43	4229
2026-01-26 02:10:11.41	7.21	29.02	-35.9	-37.3	17.7	0.00e+00	0	60	0	1086324736	43	4212
2026-01-26 02:10:12.42	7.13	29.20	-35.9	-37.4	17.7	0.00e+00	0	60	0	1091567616	43	4244
2026-01-26 02:10:13.43	7.04	29.39	-35.9	-37.3	17.7	0.00e+00	0	60	0	1097859072	43	4240
2026-01-26 02:10:14.44	6.96	29.57	-35.9	-37.3	17.8	0.00e+00	0	60	0	1103101952	43	4201
2026-01-26 02:10:15.45	6.87	29.75	-36.0	-37.4	17.6	0.00e+00	0	60	0	1109393408	43	4276
2026-01-26 02:10:16.47	6.79	29.94	-36.0	-37.4	17.6	0.00e+00	0	60	0	1114636288	43	4276
2026-01-26 02:10:17.47	6.70	30.13	-36.0	-37.4	17.7	0.00e+00	0	60	0	1120927744	43	4260
2026-01-26 02:10:18.49	6.61	30.32	-36.0	-37.4	17.6	0.00e+00	0	60	0	1126170624	43	4278
2026-01-26 02:10:19.50	6.52	30.50	-35.9	-37.3	17.7	0.00e+00	0	60	0	1131413504	43	4241
2026-01-26 02:10:20.51	6.43	30.69	-35.8	-37.2	17.9	0.00e+00	0	60	0	1137704960	43	4164
2026-01-26 02:10:21.52	6.34	30.89	-35.8	-37.1	17.9	0.00e+00	0	60	0	1142947840	43	4134
2026-01-26 02:10:22.53	6.25	31.08	-35.8	-37.1	17.9	0.00e+00	0	60	0	1149239296	43	4139
2026-01-26 02:10:23.54	6.15	31.27	-35.8	-37.1	17.9	0.00e+00	0	61	0	1154482176	43	4132
2026-01-26 02:10:24.55	6.06	31.47	-35.6	-37.0	18.1	0.00e+00	0	60	0	1159725056	43	4067
2026-01-26 02:10:25.56	5.96	31.66	-35.6	-37.0	18.1	0.00e+00	0	60	0	1166016512	43	4062
2026-01-26 02:10:26.57	5.87	31.86	-35.7	-37.1	18.0	0.00e+00	0	60	0	1171259392	43	4102
2026-01-26 02:10:27.58	5.77	32.06	-35.6	-37.0	18.1	0.00e+00	0	60	0	1177550848	43	4058
2026-01-26 02:10:28.59	5.67	32.26	-35.5	-36.9	18.2	0.00e+00	0	60	0	1182793728	43	4017
2026-01-26 02:10:29.60	5.57	32.46	-35.4	-36.7	18.4	0.00e+00	0	60	0	1188036608	42	4161
2026-01-26 02:10:30.61	5.46	32.66	-35.3	-36.6	18.5	0.00e+00	0	60	0	1194328064	42	4113
2026-01-26 02:10:31.62	5.36	32.87	-35.3	-36.7	18.4	0.00e+00	0	60	0	1199570944	42	4151
2026-01-26 02:10:32.63	5.25	33.07	-35.3	-36.6	18.5	0.00e+00	0	61	0	1205862400	42	4106
2026-01-26 02:10:33.64	5.15	33.28	-35.3	-36.6	18.5	0.00e+00	0	60	0	1211105280	42	4127
2026-01-26 02:10:34.65	5.04	33.49	-35.3	-36.6	18.5	0.00e+00	0	61	0	1217396736	42	4121
2026-01-26 02:10:35.67	4.93	33.70	-35.3	-36.6	18.5	0.00e+00	0	60	0	1222639616	42	4126
2026-01-26 02:10:36.67	4.82	33.90	-35.4	-36.7	18.4	0.00e+00	0	60	0	1228931072	42	4151
2026-01-26 02:10:37.68	4.71	34.12	-35.4	-36.7	18.4	0.00e+00	0	60	0	1234173952	42	4158
2026-01-26 02:10:38.70	4.59	34.33	-35.4	-36.7	18.4	0.00e+00	0	61	0	1239416832	42	4193
2026-01-26 02:10:39.71	4.48	34.55	-35.5	-36.8	18.3	0.00e+00	0	60	0	1245708288	42	4238
2026-01-26 02:10:40.72	4.36	34.76	-35.4	-36.8	18.3	0.00e+00	0	60	0	1250951168	42	4205
2026-01-26 02:10:41.73	4.24	34.98	-35.4	-36.7	18.4	0.00e+00	0	61	0	1257242624	42	4161
2026-01-26 02:10:42.74	4.12	35.20	-35.4	-36.7	18.4	0.00e+00	0	60	0	1262485504	42	4178
2026-01-26 02:10:43.75	4.00	35.42	-35.3	-36.6	18.5	0.00e+00	0	60	0	1267728384	42	4107
2026-01-26 02:10:44.76	3.88	35.64	-35.2	-36.5	18.6	0.00e+00	0	60	0	1274019840	42	4058
2026-01-26 02:10:45.77	3.75	35.86	-35.0	-36.3	18.8	0.00e+00	0	61	0	1279262720	42	3983
2026-01-26 02:10:46.78	3.62	36.08	-34.9	-36.1	19.0	0.00e+00	0	60	0	1285554176	41	4134
2026-01-26 02:10:47.79	3.50	36.31	-34.9	-36.2	18.9	0.00e+00	0	60	0	1290797056	41	4160
2026-01-26 02:10:48.80	3.36	36.53	-34.9	-36.2	18.9	0.00e+00	0	61	0	1296039936	41	4166
2026-01-26 02:10:49.81	3.23	36.76	-35.0	-36.3	18.8	0.00e+00	0	61	0	1302331392	41	4197
2026-01-26 02:10:50.82	3.10	36.99	-35.1	-36.3	18.8	0.00e+00	0	61	0	1307574272	41	4234
2026-01-26 02:10:51.83	2.96	37.22	-35.2	-36.5	18.6	0.00e+00	0	61	0	1313865728	41	4324
2026-01-26 02:10:52.84	2.82	37.45	-35.3	-36.6	18.5	0.00e+00	0	61	0	1319108608	41	4341
2026-01-26 02:10:53.85	2.68	37.69	-35.3	-36.6	18.5	0.00e+00	0	60	0	1325400064	41	4386
2026-01-26 02:10:54.86	2.54	37.92	-35.4	-36.7	18.4	0.00e+00	0	61	0	1330642944	41	4416
2026-01-26 02:10:55.88	2.39	38.16	-35.4	-36.7	18.4	0.00e+00	0	61	0	1336934400	41	4410
2026-01-26 02:10:56.89	2.25	38.40	-35.2	-36.5	18.6	0.00e+00	0	60	0	1342177280	41	4331
2026-01-26 02:10:57.90	2.10	38.64	-35.0	-36.3	18.8	0.00e+00	0	61	0	1347420160	41	4221
2026-01-26 02:10:58.91	1.94	38.88	-35.0	-36.3	18.8	0.00e+00	0	60	0	1353711616	41	4212
2026-01-26 02:10:59.92	1.79	39.12	-35.1	-36.4	18.7	0.00e+00	0	61	0	1358954496	41	4263
2026-01-26 02:11:00.93	1.63	39.37	-35.3	-36.6	18.5	0.00e+00	0	61	0	1365245952	41	4355
2026-01-26 02:11:01.94	1.48	39.61	-35.5	-36.9	18.3	0.00e+00	0	61	0	1370488832	41	4495
2026-01-26 02:11:02.95	1.32	39.86	-35.7	-37.0	18.1	0.00e+00	0	61	0	1375731712	41	4579
2026-01-26 02:11:03.96	1.15	40.11	-35.8	-37.1	18.0	0.00e+00	0	61	0	1382023168	42	4372
2026-01-26 02:11:04.97	0.99	40.36	-35.8	-37.1	18.0	0.00e+00	0	61	0	1387266048	42	4385
2026-01-26 02:11:05.98	0.82	40.61	-35.8	-37.1	18.1	0.00e+00	0	60	0	1393557504	42	4365
2026-01-26 02:11:06.99	0.65	40.86	-35.8	-37.1	18.0	0.00e+00	0	61	0	1398800384	42	4372
2026-01-26 02:11:08.00	0.47	41.12	-35.8	-37.1	18.0	0.00e+00	0	61	0	1404043264	42	4368
2026-01-26 02:11:09.01	0.29	41.37	-35.8	-37.1	18.1	0.00e+00	0	61	0	1410334720	42	4382
2026-01-26 02:11:10.02	0.11	41.63	-35.7	-37.1	18.1	0.00e+00	0	61	0	1415577600	42	4343
2026-01-26 02:11:11.03	359.93	41.89	-35.6	-37.0	18.2	0.00e+00	0	60	0	1421869056	42	4296
2026-01-26 02:11:12.04	359.74	42.15	-35.7	-37.1	18.1	0.00e+00	0	61	0	1427111936	42	4348
2026-01-26 02:11:13.05	359.56	42.41	-35.6	-36.9	18.3	0.00e+00	0	61	0	1433403392	42	4259
2026-01-26 02:11:14.06	359.36	42.67	-35.7	-37.1	18.1	0.00e+00	0	61	0	1438646272	42	4358
2026-01-26 02:11:15.07	359.17	42.94	-35.8	-37.2	18.0	0.00e+00	0	61	0	1444937728	42	4402
2026-01-26 02:11:16.08	358.97	43.21	-35.8	-37.2	18.0	0.00e+00	0	61	0	1450180608	42	4400
2026-01-26 02:11:17.09	358.77	43.47	-35.8	-37.1	18.0	0.00e+00	0	61	0	1455423488	42	4386
2026-01-26 02:11:18.11	358.56	43.75	-35.7	-37.0	18.2	0.00e+00	0	61	0	1461714944	42	4306
2026-01-26 02:11:19.12	358.35	44.02	-35.5	-36.8	18.3	0.00e+00	0	61	0	1466957824	42	4231
2026-01-26 02:11:20.13	358.14	44.29	-35.4	-36.7	18.5	0.00e+00	0	61	0	1473249280	42	4173
2026-01-26 02:11:21.14	357.92	44.56	-35.5	-36.8	18.4	0.00e+00	0	61	0	1478492160	42	4240
2026-01-26 02:11:22.14	357.70	44.83	-35.7	-37.0	18.2	0.00e+00	0	61	0	1483735040	42	4323
2026-01-26 02:11:23.16	357.47	45.11	-35.8	-37.2	18.0	0.00e+00	0	61	0	1490026496	42	4415
2026-01-26 02:11:24.17	357.25	45.39	-35.8	-37.2	18.0	0.00e+00	0	61	0	1495269376	42	4422
2026-01-26 02:11:25.18	357.01	45.67	-35.8	-37.1	18.1	0.00e+00	0	61	0	1501560832	42	4383
2026-01-26 02:11:26.19	356.78	45.95	-35.7	-37.1	18.1	0.00e+00	0	61	0	1506803712	42	4352
2026-01-26 02:11:27.20	356.54	46.23	-35.8	-37.1	18.1	0.00e+00	0	61	0	1512046592	42	4383
2026-01-26 02:11:28.21	356.29	46.52	-35.8	-37.1	18.1	0.00e+00	0	61	0	1518338048	42	4363
2026-01-26 02:11:29.22	356.04	46.80	-35.7	-37.0	18.2	0.00e+00	0	61	0	1523580928	42	4308
2026-01-26 02:11:30.23	355.78	47.09	-35.5	-36.8	18.4	0.00e+00	0	61	0	1529872384	42	4240
2026-01-26 02:11:31.24	355.53	47.38	-35.6	-36.9	18.3	0.00e+00	0	61	0	1535115264	42	4259
2026-01-26 02:11:32.25	355.26	47.67	-35.5	-36.8	18.4	0.00e+00	0	61	0	1541406720	42	4209
2026-01-26 02:11:33.26	354.99	47.96	-35.6	-36.9	18.3	0.00e+00	0	61	0	1546649600	42	4285
2026-01-26 02:11:34.27	354.72	48.25	-35.8	-37.1	18.1	0.00e+00	0	61	0	1551892480	42	4371
2026-01-26 02:11:35.28	354.44	48.54	-35.9	-37.2	18.0	0.00e+00	0	61	0	1558183936	42	4438
2026-01-26 02:11:36.29	354.15	48.84	-36.1	-37.4	17.8	0.00e+00	0	61	0	1563426816	42	4541
2026-01-26 02:11:37.30	353.86	49.13	-36.2	-37.6	17.6	0.00e+00	0	61	0	1569718272	42	4646
2026-01-26 02:11:38.32	353.56	49.43	-36.3	-37.8	17.4	0.00e+00	0	61	0	1574961152	43	4446
2026-01-26 02:11:39.33	353.26	49.73	-36.4	-37.8	17.4	0.00e+00	0	61	0	1581252608	43	4452
2026-01-26 02:11:40.34	352.95	50.03	-36.6	-38.1	17.2	0.00e+00	0	61	0	1586495488	43	4619
2026-01-26 02:11:41.35	352.63	50.33	-36.7	-38.2	17.0	0.00e+00	0	61	0	1591738368	43	4664
2026-01-26 02:11:42.36	352.31	50.63	-36.6	-38.1	17.2	0.00e+00	0	61	0	1598029824	43	4600
2026-01-26 02:11:43.37	351.98	50.93	-36.5	-37.9	17.3	0.00e+00	0	61	0	1603272704	43	4541
2026-01-26 02:11:44.37	351.65	51.23	-36.6	-38.1	17.1	0.00e+00	0	61	0	1609564160	43	4621
2026-01-26 02:11:45.39	351.31	51.53	-37.0	-38.5	16.9	0.00e+00	0	61	0	1614807040	44	4574
2026-01-26 02:11:46.39	350.96	51.83	-36.8	-38.3	17.1	0.00e+00	0	61	0	1620049920	44	4465
2026-01-26 02:11:47.41	350.60	52.14	-36.8	-38.2	17.2	0.00e+00	0	61	0	1626341376	44	4432
2026-01-26 02:11:48.42	350.24	52.45	-36.6	-38.0	17.4	0.00e+00	0	61	0	1631584256	44	4315
2026-01-26 02:11:49.43	349.87	52.76	-36.6	-38.0	17.4	0.00e+00	0	61	0	1637875712	44	4319
2026-01-26 02:11:50.43	349.49	53.06	-36.6	-38.0	17.4	0.00e+00	0	61	0	1643118592	44	4327
2026-01-26 02:11:51.45	349.10	53.37	-36.6	-38.1	17.3	0.00e+00	0	61	0	1649410048	44	4343
2026-01-26 02:11:52.45	348.71	53.68	-36.5	-37.9	17.5	0.00e+00	0	61	0	1654652928	44	4267
2026-01-26 02:11:53.47	348.30	53.99	-36.3	-37.7	17.7	0.00e+00	0	61	0	1659895808	44	4172
2026-01-26 02:11:54.48	347.89	54.30	-36.3	-37.7	17.7	0.00e+00	0	61	0	1666187264	44	4177
2026-01-26 02:11:55.49	347.47	54.61	-36.4	-37.8	17.6	0.00e+00	0	61	0	1671430144	44	4215
2026-01-26 02:11:56.50	347.03	54.92	-36.4	-37.8	17.6	0.00e+00	0	61	0	1677721600	44	4216
2026-01-26 02:11:57.51	346.59	55.23	-36.5	-37.9	17.5	0.00e+00	0	61	0	1682964480	44	4280
2026-01-26 02:11:58.52	346.14	55.54	-36.5	-38.0	17.1	0.00e+00	0	61	0	1688207360	44	4322
2026-01-26 02:11:59.53	345.68	55.85	-36.5	-38.0	17.1	0.00e+00	0	61	0	1694498816	44	4324
2026-01-26 02:12:00.53	345.21	56.15	-36.3	-37.8	17.3	0.00e+00	0	61	0	1699741696	44	4221
2026-01-26 02:12:01.54	344.73	56.46	-36.3	-37.7	17.4	0.00e+00	0	61	0	1706033152	44	4187
2026-01-26 02:12:02.56	344.23	56.77	-36.2	-37.7	17.5	0.00e+00	0	61	0	1711276032	44	4157
2026-01-26 02:12:03.57	343.73	57.08	-36.3	-37.8	17.4	0.00e+00	0	61	0	1716518912	44	4199
2026-01-26 02:12:04.57	343.22	57.39	-36.2	-37.7	17.4	0.00e+00	0	61	0	1722810368	44	4188
2026-01-26 02:12:05.58	342.69	57.70	-36.1	-37.5	17.6	0.00e+00	0	61	0	1728053248	44	4089
2026-01-26 02:12:06.60	342.14	58.01	-36.1	-37.6	17.6	0.00e+00	0	61	0	1734344704	44	4105
2026-01-26 02:12:07.61	341.59	58.31	-36.2	-37.7	17.5	0.00e+00	0	61	0	1739587584	44	4161
2026-01-26 02:12:08.62	341.03	58.62	-36.3	-37.9	17.3	0.00e+00	0	61	0	1745879040	44	4251
2026-01-26 02:12:09.63	340.45	58.92	-36.2	-37.7	17.4	0.00e+00	0	61	0	1751121920	44	4187
2026-01-26 02:12:10.64	339.85	59.22	-35.8	-37.3	17.6	0.00e+00	0	61	0	1757413376	43	4229
2026-01-26 02:12:11.65	339.25	59.53	-35.6	-37.0	17.9	0.00e+00	0	61	0	1762656256	43	4085
2026-01-26 02:12:12.66	338.63	59.83	-35.9	-37.4	17.6	0.00e+00	0	61	0	1767899136	43	4256
2026-01-26 02:12:13.68	337.98	60.13	-36.1	-37.7	17.3	0.00e+00	0	61	0	1774190592	43	4393
2026-01-26 02:12:14.69	337.33	60.42	-35.7	-37.2	17.8	0.00e+00	0	61	0	1779433472	43	4151
2026-01-26 02:12:15.70	336.67	60.72	-35.5	-36.9	18.0	0.00e+00	0	61	0	1785724928	43	4047
2026-01-26 02:12:16.71	335.99	61.01	-35.4	-36.8	18.2	0.00e+00	0	61	0	1790967808	42	4209
2026-01-26 02:12:17.72	335.29	61.30	-35.3	-36.7	18.2	0.00e+00	0	61	0	1796210688	42	4180
2026-01-26 02:12:18.73	334.57	61.59	-35.5	-36.9	18.1	0.00e+00	0	61	0	1802502144	42	4262
2026-01-26 02:12:19.74	333.84	61.87	-35.5	-37.0	18.0	0.00e+00	0	61	0	1807745024	42	4293
2026-01-26 02:12:20.75	333.10	62.15	-35.4	-36.7	18.2	0.00e+00	0	61	0	1814036480	42	4193
2026-01-26 02:12:21.77	332.32	62.44	-35.2	-36.6	18.3	0.00e+00	0	61	0	1819279360	42	4121
2026-01-26 02:12:22.78	331.54	62.71	-35.2	-36.5	18.4	0.00e+00	0	61	0	1825570816	42	4083
2026-01-26 02:12:23.78	330.75	62.98	-35.2	-36.6	18.3	0.00e+00	0	61	0	1830813696	42	4127
2026-01-26 02:12:24.79	329.93	63.25	-35.1	-36.6	18.3	0.00e+00	0	61	0	1836056576	42	4104
2026-01-26 02:12:25.80	329.09	63.51	-34.9	-36.2	18.6	0.00e+00	0	61	0	1842348032	41	4188
2026-01-26 02:12:26.81	328.23	63.77	-35.0	-36.3	18.5	0.00e+00	0	61	0	1847590912	41	4221
2026-01-26 02:12:27.82	327.35	64.03	-34.8	-36.1	18.7	0.00e+00	0	61	0	1853882368	41	4141
2026-01-26 02:12:28.83	326.46	64.28	-34.7	-36.1	18.8	0.00e+00	0	61	0	1859125248	41	4113
2026-01-26 02:12:29.85	325.53	64.53	-34.8	-36.1	18.7	0.00e+00	0	61	0	1865416704	41	4121
2026-01-26 02:12:30.86	324.59	64.77	-34.8	-36.1	18.7	0.00e+00	0	61	0	1870659584	41	4131
2026-01-26 02:12:31.87	323.64	65.00	-34.8	-36.1	18.8	0.00e+00	0	61	0	1875902464	41	4128
2026-01-26 02:12:32.88	322.66	65.23	-34.8	-36.1	18.8	0.00e+00	0	61	0	1882193920	41	4121
2026-01-26 02:12:33.89	321.67	65.45	-34.7	-35.9	18.9	0.00e+00	0	61	0	1887436800	41	4047
2026-01-26 02:12:34.90	320.65	65.67	-34.7	-36.0	18.9	0.00e+00	0	61	0	1893728256	41	4056
2026-01-26 02:12:35.90	319.62	65.88	-34.9	-36.2	18.6	0.00e+00	0	61	0	1898971136	41	4184
2026-01-26 02:12:36.91	318.57	66.08	-34.9	-36.2	18.5	0.00e+00	0	61	0	1904214016	41	4191
2026-01-26 02:12:37.92	317.49	66.28	-34.5	-35.8	18.9	0.00e+00	0	61	0	1910505472	41	4001
2026-01-26 02:12:38.93	316.40	66.47	-34.3	-35.6	19.2	0.00e+00	0	61	0	1915748352	40	4104
2026-01-26 02:12:39.95	315.27	66.65	-34.4	-35.7	19.1	0.00e+00	0	61	0	1922039808	40	4176
2026-01-26 02:12:40.96	314.14	66.83	-34.5	-35.9	19.0	0.00e+00	0	61	0	1927282688	40	4246
2026-01-26 02:12:41.96	313.00	66.99	-34.5	-35.8	18.9	0.00e+00	0	61	0	1932525568	40	4227
2026-01-26 02:12:42.97	311.83	67.15	-34.3	-35.6	19.1	0.00e+00	0	61	0	1938817024	40	4131
2026-01-26 02:12:43.98	310.64	67.30	-34.3	-35.6	19.1	0.00e+00	0	61	0	1944059904	40	4138
2026-01-26 02:12:44.99	309.44	67.44	-34.3	-35.6	19.2	0.00e+00	0	61	0	1950351360	40	4113
2026-01-26 02:12:46.00	308.22	67.57	-34.1	-35.4	19.3	0.00e+00	0	61	0	1955594240	40	4019
2026-01-26 02:12:47.02	306.97	67.69	-34.0	-35.3	19.5	0.00e+00	0	61	0	1961885696	39	4195
2026-01-26 02:12:48.02	305.73	67.80	-34.1	-35.4	19.4	0.00e+00	0	61	0	1967128576	39	4272
2026-01-26 02:12:49.03	304.47	67.91	-34.3	-35.6	19.2	0.00e+00	0	61	0	1973420032	39	4347
2026-01-26 02:12:50.04	303.20	68.00	-34.3	-35.6	19.2	0.00e+00	0	61	0	1978662912	39	4367
2026-01-26 02:12:51.05	301.91	68.08	-34.3	-35.5	19.3	0.00e+00	0	61	0	1983905792	39	4324
2026-01-26 02:12:52.06	300.62	68.15	-34.2	-35.5	19.4	0.00e+00	0	61	0	1990197248	39	4306
2026-01-26 02:12:53.07	299.31	68.22	-34.1	-35.4	19.5	0.00e+00	0	61	0	1995440128	39	4245
2026-01-26 02:12:54.09	297.99	68.27	-34.2	-35.4	19.4	0.00e+00	0	61	0	2001731584	39	4290
2026-01-26 02:12:55.09	296.68	68.31	-34.3	-35.6	19.2	0.00e+00	0	61	0	2006974464	39	4390
2026-01-26 02:12:56.10	295.36	68.34	-34.3	-35.6	19.2	0.00e+00	0	61	0	2012217344	39	4369
2026-01-26 02:12:57.11	294.03	68.36	-34.3	-35.6	19.2	0.00e+00	0	61	0	2018508800	39	4359
2026-01-26 02:12:58.12	292.70	68.37	-34.1	-35.4	19.4	0.00e+00	0	61	0	2023751680	39	4250
2026-01-26 02:12:59.13	291.37	68.37	-34.1	-35.4	19.4	0.00e+00	0	61	0	2030043136	39	4270
2026-01-26 02:13:00.14	290.05	68.35	-34.4	-35.7	19.1	0.00e+00	0	61	0	2035286016	39	4403
2026-01-26 02:13:01.15	288.72	68.33	-34.3	-35.6	19.2	0.00e+00	0	61	0	2040528896	39	4343
2026-01-26 02:13:02.16	287.40	68.30	-34.3	-35.6	19.1	0.00e+00	0	61	0	2046820352	39	4386
2026-01-26 02:13:03.17	286.08	68.25	-34.5	-35.8	19.1	0.00e+00	0	61	0	2052063232	39	4451
2026-01-26 02:13:04.18	284.77	68.20	-34.5	-35.8	19.0	0.00e+00	0	61	0	2058354688	39	4455
2026-01-26 02:13:05.19	283.47	68.13	-34.4	-35.7	19.1	0.00e+00	0	61	0	2063597568	39	4427
2026-01-26 02:13:06.20	282.18	68.05	-34.2	-35.5	19.3	0.00e+00	0	61	0	2069889024	39	4314
2026-01-26 02:13:07.21	280.90	67.97	-34.2	-35.5	19.3	0.00e+00	0	61	0	2075131904	39	4320
2026-01-26 02:13:08.22	279.63	67.87	-34.3	-35.6	19.2	0.00e+00	0	61	0	2081423360	39	4355
2026-01-26 02:13:09.23	278.37	67.76	-34.3	-35.6	19.2	0.00e+00	0	61	0	2086666240	39	4350
2026-01-26 02:13:10.24	277.12	67.65	-33.9	-35.2	19.6	0.00e+00	0	61	0	2091909120	39	4164
2026-01-26 02:13:11.25	275.89	67.52	-34.0	-35.2	19.6	0.00e+00	0	61	0	2098200576	39	4164
2026-01-26 02:13:12.26	274.68	67.39	-34.1	-35.3	19.5	0.00e+00	0	61	0	2103443456	39	4237
2026-01-26 02:13:13.27	273.48	67.25	-34.3	-35.6	19.3	0.00e+00	0	61	0	2109734912	39	4358
2026-01-26 02:13:14.28	272.30	67.09	-34.4	-35.7	19.2	0.00e+00	0	61	0	2114977792	39	4394
2026-01-26 02:13:15.29	271.13	66.93	-34.3	-35.6	19.2	0.00e+00	0	61	0	2120220672	39	4372
2026-01-26 02:13:16.30	269.99	66.76	-34.4	-35.7	19.1	0.00e+00	0	61	0	2126512128	39	4437
2026-01-26 02:13:17.31	268.86	66.59	-34.2	-35.5	19.3	0.00e+00	0	61	0	2131755008	39	4315
2026-01-26 02:13:18.32	267.75	66.40	-34.4	-35.7	19.1	0.00e+00	0	61	0	2138046464	39	4403
2026-01-26 02:13:19.33	266.66	66.21	-34.7	-36.0	18.8	0.00e+00	0	61	0	2143289344	39	4572
2026-01-26 02:13:20.34	265.59	66.01	-34.4	-35.7	19.1	0.00e+00	0	61	0	2148532224	39	4436
2026-01-26 02:13:21.35	264.54	65.80	-34.4	-35.7	19.1	0.00e+00	0	61	0	2154823680	39	4413
2026-01-26 02:13:22.36	263.51	65.59	-34.6	-35.9	19.0	0.00e+00	0	61	0	2160066560	39	4505
2026-01-26 02:13:23.38	262.49	65.37	-34.6	-35.9	19.0	0.00e+00	0	61	0	2166358016	39	4527
2026-01-26 02:13:24.39	261.50	65.14	-34.7	-36.0	18.9	0.00e+00	0	61	0	2171600896	39	4569
2026-01-26 02:13:25.39	260.54	64.91	-34.7	-36.0	18.8	0.00e+00	0	61	0	2177892352	40	4336
2026-01-26 02:13:26.41	259.58	64.67	-34.5	-35.8	19.0	0.00e+00	0	61	0	2183135232	40	4206
2026-01-26 02:13:27.42	258.65	64.43	-34.7	-36.0	18.8	0.00e+00	0	61	0	2188378112	40	4317
2026-01-26 02:13:28.43	257.74	64.18	-34.8	-36.2	18.7	0.00e+00	0	61	0	2194669568	40	4392
2026-01-26 02:13:29.44	256.85	63.93	-34.6	-36.0	18.8	0.00e+00	0	61	0	2199912448	40	4292
2026-01-26 02:13:30.45	255.98	63.67	-34.6	-35.9	18.9	0.00e+00	0	61	0	2206203904	40	4281
2026-01-26 02:13:31.46	255.13	63.41	-34.8	-36.1	18.7	0.00e+00	0	61	0	2211446784	40	4391
2026-01-26 02:13:32.47	254.30	63.14	-34.7	-36.1	18.8	0.00e+00	0	61	0	2216689664	40	4350
2026-01-26 02:13:33.48	253.48	62.87	-34.9	-36.3	18.6	0.00e+00	0	61	0	2222981120	40	4463
2026-01-26 02:13:34.49	252.69	62.60	-35.0	-36.3	18.5	0.00e+00	0	61	0	2228224000	40	4485
2026-01-26 02:13:35.50	251.91	62.32	-35.0	-36.3	18.5	0.00e+00	0	61	0	2234515456	40	4480
2026-01-26 02:13:36.51	251.15	62.04	-35.0	-36.4	18.5	0.00e+00	0	61	0	2239758336	40	4494
2026-01-26 02:13:37.52	250.41	61.76	-35.1	-36.4	18.4	0.00e+00	0	61	0	2245001216	40	4535
2026-01-26 02:13:38.53	249.68	61.47	-34.9	-36.3	18.6	0.00e+00	0	61	0	2251292672	40	4472
2026-01-26 02:13:39.54	248.97	61.18	-35.0	-36.3	18.5	0.00e+00	0	61	0	2256535552	40	4484
2026-01-26 02:13:40.55	248.28	60.89	-34.9	-36.3	18.6	0.00e+00	0	61	0	2262827008	40	4461
2026-01-26 02:13:41.56	247.60	60.60	-34.8	-36.1	18.7	0.00e+00	0	61	0	2268069888	40	4382
2026-01-26 02:13:42.57	246.94	60.30	-34.9	-36.2	18.7	0.00e+00	0	61	0	2274361344	40	4412
2026-01-26 02:13:43.58	246.29	60.00	-35.5	-36.9	18.1	0.00e+00	0	61	0	2279604224	41	4497
2026-01-26 02:13:44.59	245.66	59.70	-35.8	-37.2	17.7	0.00e+00	0	61	0	2285895680	42	4439
2026-01-26 02:13:45.60	245.05	59.40	-35.9	-37.4	17.6	0.00e+00	0	61	0	2291138560	42	4494
2026-01-26 02:13:46.61	244.44	59.10	-35.7	-37.2	17.8	0.00e+00	0	61	0	2296381440	42	4395
2026-01-26 02:13:47.63	243.85	58.79	-35.5	-36.9	18.1	0.00e+00	0	61	0	2302672896	42	4247
2026-01-26 02:13:48.64	243.28	58.49	-35.7	-37.1	17.9	0.00e+00	0	61	0	2307915776	42	4355
2026-01-26 02:13:49.65	242.71	58.18	-35.9	-37.4	17.6	0.00e+00	0	61	0	2314207232	42	4517
2026-01-26 02:13:50.66	242.16	57.87	-35.8	-37.3	17.7	0.00e+00	0	61	0	2319450112	42	4454
2026-01-26 02:13:51.66	241.63	57.57	-35.4	-36.8	18.1	0.00e+00	0	61	0	2324692992	42	4228
2026-01-26 02:13:52.68	241.10	57.26	-35.5	-36.9	18.0	0.00e+00	0	61	0	2330984448	42	4285
2026-01-26 02:13:53.68	240.60	56.95	-35.8	-37.3	17.7	0.00e+00	0	61	0	2336227328	42	4466
2026-01-26 02:13:54.69	240.09	56.64	-35.7	-37.1	17.8	0.00e+00	0	61	0	2342518784	42	4384
2026-01-26 02:13:55.70	239.60	56.33	-35.5	-36.9	18.1	0.00e+00	0	61	0	2347761664	42	4247
2026-01-26 02:13:56.72	239.12	56.01	-35.6	-37.0	18.0	0.00e+00	0	61	0	2353004544	42	4308
2026-01-26 02:13:57.73	238.65	55.70	-35.9	-37.4	17.6	0.00e+00	0	61	0	2359296000	42	4497
2026-01-26 02:13:58.74	238.19	55.39	-36.0	-37.6	17.4	0.00e+00	0	61	0	2364538880	42	4599
2026-01-26 02:13:59.75	237.75	55.08	-35.9	-37.4	17.6	0.00e+00	0	61	0	2370830336	42	4520
2026-01-26 02:14:00.76	237.31	54.77	-35.8	-37.3	17.7	0.00e+00	0	61	0	2376073216	42	4457
2026-01-26 02:14:01.77	236.88	54.46	-35.7	-37.1	17.9	0.00e+00	0	61	0	2382364672	42	4382
2026-01-26 02:14:02.78	236.46	54.15	-35.6	-37.0	18.0	0.00e+00	0	61	0	2387607552	42	4332
2026-01-26 02:14:03.79	236.05	53.84	-35.7	-37.1	17.9	0.00e+00	0	61	0	2393899008	42	4353
2026-01-26 02:14:04.80	235.65	53.53	-35.8	-37.3	17.7	0.00e+00	0	61	0	2399141888	42	4468
2026-01-26 02:14:05.81	235.25	53.22	-35.9	-37.4	17.6	0.00e+00	0	61	0	2404384768	42	4524
2026-01-26 02:14:06.82	234.87	52.91	-35.9	-37.4	17.7	0.00e+00	0	61	0	2410676224	42	4495
2026-01-26 02:14:07.83	234.49	52.61	-35.9	-37.3	17.6	0.00e+00	0	61	0	2415919104	42	4492
2026-01-26 02:14:08.84	234.12	52.30	-36.1	-37.6	17.4	0.00e+00	0	61	0	2422210560	42	4601
2026-01-26 02:14:09.85	233.76	51.99	-36.0	-37.4	17.6	0.00e+00	0	61	0	2427453440	42	4535
2026-01-26 02:14:10.86	233.41	51.69	-35.9	-37.3	17.7	0.00e+00	0	61	0	2432696320	42	4471
2026-01-26 02:14:11.87	233.06	51.38	-35.9	-37.4	17.6	0.00e+00	0	61	0	2438987776	42	4497
2026-01-26 02:14:12.88	232.72	51.08	-36.0	-37.5	17.5	0.00e+00	0	61	0	2444230656	42	4569
2026-01-26 02:14:13.89	232.39	50.77	-36.1	-37.6	17.3	0.00e+00	0	61	0	2450522112	42	4638
2026-01-26 02:14:14.90	232.06	50.47	-35.9	-37.4	17.5	0.00e+00	0	61	0	2455764992	42	4539
2026-01-26 02:14:15.91	231.74	50.17	-35.7	-37.1	17.8	0.00e+00	0	61	0	2461007872	42	4372
2026-01-26 02:14:16.92	231.43	49.87	-35.3	-36.7	18.2	0.00e+00	0	61	0	2467299328	42	4176
2026-01-26 02:14:17.93	231.12	49.57	-35.3	-36.7	18.2	0.00e+00	0	61	0	2472542208	42	4169
2026-01-26 02:14:18.95	230.82	49.27	-35.4	-36.8	18.1	0.00e+00	0	61	0	2478833664	42	4230
2026-01-26 02:14:19.96	230.52	48.97	-35.5	-36.9	18.0	0.00e+00	0	61	0	2484076544	42	4249
2026-01-26 02:14:20.97	230.23	48.68	-35.6	-37.1	17.9	0.00e+00	0	61	0	2490368000	42	4343
2026-01-26 02:14:21.98	229.95	48.38	-35.6	-37.0	17.9	0.00e+00	0	61	0	2495610880	42	4315
2026-01-26 02:14:22.99	229.67	48.09	-35.5	-36.9	18.0	0.00e+00	0	61	0	2501902336	42	4276
2026-01-26 02:14:24.00	229.40	47.80	-35.4	-36.9	18.0	0.00e+00	0	61	0	2507145216	42	4246
2026-01-26 02:14:25.01	229.13	47.51	-35.5	-36.9	18.0	0.00e+00	0	61	0	2512388096	42	4279
2026-01-26 02:14:26.02	228.87	47.22	-35.4	-36.8	18.1	0.00e+00	0	61	0	2518679552	42	4234
2026-01-26 02:14:27.03	228.61	46.93	-35.3	-36.7	18.2	0.00e+00	0	61	0	2523922432	42	4175
2026-01-26 02:14:28.04	228.35	46.64	-35.2	-36.6	18.4	0.00e+00	0	62	0	2530213888	42	4102
2026-01-26 02:14:29.05	228.10	46.36	-35.0	-36.4	18.5	0.00e+00	0	61	0	2535456768	42	4030
2026-01-26 02:14:30.06	227.86	46.07	-34.9	-36.3	18.6	0.00e+00	0	61	0	2540699648	41	4201
2026-01-26 02:14:31.07	227.62	45.79	-34.9	-36.2	18.7	0.00e+00	0	61	0	2546991104	41	4155
2026-01-26 02:14:32.08	227.38	45.51	-34.8	-36.1	18.7	0.00e+00	0	61	0	2552233984	41	4131
2026-01-26 02:14:33.09	227.15	45.23	-34.9	-36.3	18.6	0.00e+00	0	61	0	2558525440	41	4216
2026-01-26 02:14:34.10	226.93	44.95	-35.1	-36.5	18.4	0.00e+00	0	61	0	2563768320	41	4307
2026-01-26 02:14:35.11	226.70	44.67	-35.1	-36.5	18.4	0.00e+00	0	61	0	2569011200	41	4317
2026-01-26 02:14:36.12	226.48	44.40	-35.1	-36.5	18.4	0.00e+00	0	61	0	2575302656	41	4320
2026-01-26 02:14:37.13	226.27	44.12	-35.0	-36.4	18.5	0.00e+00	0	61	0	2580545536	41	4263
2026-01-26 02:14:38.14	226.05	43.85	-35.0	-36.4	18.5	0.00e+00	0	61	0	2586836992	41	4248
2026-01-26 02:14:39.15	225.85	43.58	-35.1	-36.4	18.5	0.00e+00	0	61	0	2592079872	41	4274
2026-01-26 02:14:40.17	225.64	43.31	-35.1	-36.5	18.4	0.00e+00	0	62	0	2598371328	41	4322
2026-01-26 02:14:41.18	225.44	43.04	-35.1	-36.5	18.4	0.00e+00	0	61	0	2603614208	41	4320
2026-01-26 02:14:42.19	225.24	42.77	-35.1	-36.4	18.4	0.00e+00	0	61	0	2609905664	41	4286
2026-01-26 02:14:43.20	225.04	42.51	-35.0	-36.4	18.4	0.00e+00	0	61	0	2615148544	41	4268
2026-01-26 02:14:44.21	224.85	42.24	-35.0	-36.4	18.4	0.00e+00	0	61	0	2620391424	41	4283
2026-01-26 02:14:45.22	224.66	41.98	-34.9	-36.3	18.5	0.00e+00	0	61	0	2626682880	41	4228
2026-01-26 02:14:46.23	224.48	41.72	-34.9	-36.3	18.5	0.00e+00	0	61	0	2631925760	41	4230
2026-01-26 02:14:47.24	224.30	41.46	-34.8	-36.1	18.7	0.00e+00	0	61	0	2638217216	41	4142
2026-01-26 02:14:48.25	224.12	41.20	-34.7	-36.0	18.8	0.00e+00	0	61	0	2643460096	41	4091
2026-01-26 02:14:49.26	223.94	40.95	-34.7	-36.0	18.8	0.00e+00	0	61	0	2648702976	41	4079
2026-01-26 02:14:50.27	223.77	40.69	-34.7	-36.0	18.8	0.00e+00	0	61	0	2654994432	41	4090
2026-01-26 02:14:51.28	223.60	40.44	-34.5	-35.9	19.0	0.00e+00	0	61	0	2660237312	41	4008
2026-01-26 02:14:52.29	223.43	40.19	-34.6	-35.9	18.9	0.00e+00	0	61	0	2666528768	41	4027
2026-01-26 02:14:53.30	223.26	39.94	-34.7	-36.0	18.8	0.00e+00	0	61	0	2671771648	41	4079
2026-01-26 02:14:54.31	223.10	39.69	-34.7	-36.1	18.7	0.00e+00	0	61	0	2677014528	41	4104
2026-01-26 02:14:55.32	222.94	39.44	-34.8	-36.1	18.7	0.00e+00	0	61	0	2683305984	41	4127
2026-01-26 02:14:56.33	222.78	39.19	-34.9	-36.2	18.5	0.00e+00	0	61	0	2688548864	41	4183
2026-01-26 02:14:57.34	222.62	38.95	-34.9	-36.3	18.5	0.00e+00	0	61	0	2694840320	41	4194
2026-01-26 02:14:58.35	222.47	38.71	-34.9	-36.3	18.4	0.00e+00	0	61	0	2700083200	41	4237
2026-01-26 02:14:59.36	222.32	38.47	-35.0	-36.5	18.3	0.00e+00	0	61	0	2706374656	41	4304
2026-01-26 02:15:00.37	222.17	38.23	-35.1	-36.5	18.2	0.00e+00	0	61	0	2711617536	41	4331
2026-01-26 02:15:01.38	222.02	37.99	-35.1	-36.6	18.2	0.00e+00	0	61	0	2717908992	41	4341
2026-01-26 02:15:02.39	221.88	37.75	-35.0	-36.4	18.3	0.00e+00	0	61	0	2723151872	41	4265
2026-01-26 02:15:03.40	221.74	37.51	-35.0	-36.3	18.4	0.00e+00	0	61	0	2728394752	41	4237
2026-01-26 02:15:04.41	221.60	37.28	-34.8	-36.2	18.6	0.00e+00	0	61	0	2734686208	41	4157
2026-01-26 02:15:05.42	221.46	37.05	-34.8	-36.2	18.6	0.00e+00	0	61	0	2739929088	41	4150
2026-01-26 02:15:06.43	221.32	36.82	-34.8	-36.2	18.5	0.00e+00	0	61	0	2746220544	41	4191
2026-01-26 02:15:07.44	221.19	36.59	-34.7	-36.1	18.7	0.00e+00	0	61	0	2751463424	41	4100
2026-01-26 02:15:08.45	221.05	36.36	-34.5	-35.9	18.9	0.00e+00	0	61	0	2756706304	41	4016
2026-01-26 02:15:09.46	220.92	36.13	-34.6	-35.9	18.8	0.00e+00	0	61	0	2762997760	41	4034
2026-01-26 02:15:10.47	220.80	35.91	-34.6	-35.9	18.8	0.00e+00	0	61	0	2768240640	41	4048
2026-01-26 02:15:11.48	220.67	35.68	-34.6	-35.9	18.8	0.00e+00	0	61	0	2774532096	41	4027
2026-01-26 02:15:12.49	220.54	35.46	-34.6	-35.9	18.8	0.00e+00	0	61	0	2779774976	41	4041
2026-01-26 02:15:13.51	220.42	35.24	-34.6	-36.0	18.7	0.00e+00	0	61	0	2785017856	41	4065
2026-01-26 02:15:14.52	220.30	35.02	-34.7	-36.1	18.7	0.00e+00	0	61	0	2791309312	41	4115
2026-01-26 02:15:15.53	220.18	34.80	-34.7	-36.0	18.7	0.00e+00	0	61	0	2796552192	41	4086
2026-01-26 02:15:16.54	220.06	34.58	-34.6	-36.0	18.7	0.00e+00	0	61	0	2802843648	41	4068
2026-01-26 02:15:17.55	219.94	34.37	-34.7	-36.0	18.7	0.00e+00	0	61	0	2808086528	41	4093
2026-01-26 02:15:18.56	219.83	34.15	-34.7	-36.0	18.7	0.00e+00	0	61	0	2814377984	41	4084
2026-01-26 02:15:19.57	219.71	33.94	-34.6	-35.9	18.8	0.00e+00	0	61	0	2819620864	41	4031
2026-01-26 02:15:20.58	219.60	33.73	-34.5	-35.8	18.9	0.00e+00	0	61	0	2825912320	41	3983
2026-01-26 02:15:21.59	219.49	33.52	-34.5	-35.8	18.9	0.00e+00	0	61	0	2831155200	41	3981
2026-01-26 02:15:22.60	219.38	33.31	-34.6	-35.9	18.8	0.00e+00	0	61	0	2836398080	41	4040
2026-01-26 02:15:23.61	219.27	33.10	-34.6	-36.0	18.7	0.00e+00	0	61	0	2842689536	41	4081
2026-01-26 02:15:24.62	219.17	32.89	-34.7	-36.1	18.6	0.00e+00	0	61	0	2847932416	41	4116
2026-01-26 02:15:25.63	219.06	32.69	-34.8	-36.2	18.5	0.00e+00	0	61	0	2854223872	41	4162
2026-01-26 02:15:26.64	218.96	32.48	-34.8	-36.2	18.5	0.00e+00	0	61	0	2859466752	41	4175
2026-01-26 02:15:27.66	218.85	32.28	-34.8	-36.2	18.5	0.00e+00	0	61	0	2864709632	41	4189
2026-01-26 02:15:28.67	218.75	32.08	-34.8	-36.2	18.5	0.00e+00	0	61	0	2871001088	41	4186
2026-01-26 02:15:29.68	218.65	31.88	-35.0	-36.4	18.3	0.00e+00	0	61	0	2876243968	41	4258
2026-01-26 02:15:30.68	218.55	31.68	-34.9	-36.3	18.4	0.00e+00	0	61	0	2882535424	41	4222
2026-01-26 02:15:31.70	218.46	31.48	-34.9	-36.3	18.4	0.00e+00	0	61	0	2887778304	41	4233
2026-01-26 02:15:32.71	218.36	31.29	-34.9	-36.3	18.4	0.00e+00	0	61	0	2893021184	41	4213
2026-01-26 02:15:33.72	218.27	31.09	-35.1	-36.5	18.3	0.00e+00	0	61	0	2899312640	41	4301
2026-01-26 02:15:34.73	218.17	30.90	-35.0	-36.4	18.3	0.00e+00	0	61	0	2904555520	41	4266
2026-01-26 02:15:35.74	218.08	30.70	-35.0	-36.5	18.3	0.00e+00	0	61	0	2910846976	41	4299
2026-01-26 02:15:36.75	217.99	30.51	-35.0	-36.4	18.3	0.00e+00	0	61	0	2916089856	41	4256
2026-01-26 02:15:37.76	217.90	30.32	-35.0	-36.4	18.3	0.00e+00	0	61	0	2922381312	41	4291
2026-01-26 02:15:38.77	217.81	30.13	-35.0	-36.4	18.4	0.00e+00	0	61	0	2927624192	41	4255
2026-01-26 02:15:39.78	217.72	29.94	-35.0	-36.4	18.3	0.00e+00	0	61	0	2933915648	41	4289
2026-01-26 02:15:40.79	217.63	29.76	-35.0	-36.4	18.3	0.00e+00	0	61	0	2939158528	41	4277
2026-01-26 02:15:41.80	217.55	29.57	-35.0	-36.4	18.3	0.00e+00	0	61	0	2944401408	41	4288
2026-01-26 02:15:42.81	217.46	29.39	-35.1	-36.6	18.2	0.00e+00	0	61	0	2950692864	41	4348
2026-01-26 02:15:43.82	217.38	29.20	-35.0	-36.5	18.3	0.00e+00	0	61	0	2955935744	41	4300
2026-01-26 02:15:44.83	217.29	29.02	-35.1	-36.5	18.2	0.00e+00	0	61	0	2962227200	41	4340
2026-01-26 02:15:45.84	217.21	28.84	-35.2	-36.6	18.1	0.00e+00	0	62	0	2967470080	41	4378
2026-01-26 02:15:46.85	217.13	28.66	-35.2	-36.7	18.0	0.00e+00	0	61	0	2972712960	41	4407
2026-01-26 02:15:47.86	217.05	28.48	-35.3	-36.8	17.9	0.00e+00	0	61	0	2979004416	41	4444
2026-01-26 02:15:48.87	216.97	28.30	-35.3	-36.8	17.8	0.00e+00	0	61	0	2984247296	41	4487
2026-01-26 02:15:49.88	216.89	28.12	-35.3	-36.8	17.9	0.00e+00	0	61	0	2990538752	41	4466
2026-01-26 02:15:50.89	216.81	27.95	-35.3	-36.8	17.9	0.00e+00	0	61	0	2995781632	41	4481
2026-01-26 02:15:51.90	216.74	27.77	-35.3	-36.8	17.9	0.00e+00	0	61	0	3001024512	41	4480
2026-01-26 02:15:52.91	216.66	27.60	-35.3	-36.8	17.9	0.00e+00	0	61	0	3007315968	41	4455
2026-01-26 02:15:53.93	216.58	27.43	-35.2	-36.7	18.0	0.00e+00	0	61	0	3012558848	41	4412
2026-01-26 02:15:54.94	216.51	27.25	-35.3	-36.7	17.9	0.00e+00	0	61	0	3018850304	41	4439
2026-01-26 02:15:55.95	216.44	27.08	-35.2	-36.6	18.0	0.00e+00	0	61	0	3024093184	41	4379
2026-01-26 02:15:56.96	216.36	26.91	-35.2	-36.6	18.1	0.00e+00	0	61	0	3030384640	41	4374
2026-01-26 02:15:57.97	216.29	26.75	-35.2	-36.6	18.0	0.00e+00	0	61	0	3035627520	41	4389
2026-01-26 02:15:58.98	216.22	26.58	-35.1	-36.6	18.1	0.00e+00	0	61	0	3041918976	41	4354
2026-01-26 02:15:59.99	216.15	26.41	-35.2	-36.7	18.0	0.00e+00	0	61	0	3047161856	41	4400
2026-01-26 02:16:01.00	216.08	26.24	-35.2	-36.7	18.0	0.00e+00	0	61	0	3052404736	41	4404
2026-01-26 02:16:02.01	216.01	26.08	-35.3	-36.8	17.9	0.00e+00	0	61	0	3058696192	41	4448
2026-01-26 02:16:03.02	215.94	25.92	-35.3	-36.7	18.0	0.00e+00	0	61	0	3063939072	41	4420
2026-01-26 02:16:04.03	215.88	25.75	-35.3	-36.7	18.0	0.00e+00	0	61	0	3070230528	41	4429
2026-01-26 02:16:05.04	215.81	25.59	-35.3	-36.7	17.9	0.00e+00	0	61	0	3075473408	41	4421
2026-01-26 02:16:06.05	215.75	25.43	-35.3	-36.7	17.9	0.00e+00	0	61	0	3080716288	41	4425
2026-01-26 02:16:07.06	215.68	25.27	-35.3	-36.8	17.9	0.00e+00	0	61	0	3087007744	41	4459
2026-01-26 02:16:08.07	215.62	25.11	-35.4	-36.9	17.8	0.00e+00	0	61	0	3092250624	41	4496
2026-01-26 02:16:09.09	215.55	24.95	-35.4	-36.9	17.8	0.00e+00	0	61	0	3098542080	41	4514
2026-01-26 02:16:10.10	215.49	24.79	-35.5	-37.0	17.7	0.00e+00	0	61	0	3103784960	41	4557
2026-01-26 02:16:11.11	215.43	24.64	-35.4	-36.9	17.8	0.00e+00	0	61	0	3109027840	41	4530
2026-01-26 02:16:12.12	215.36	24.48	-35.4	-36.9	17.7	0.00e+00	0	61	0	3115319296	41	4534
2026-01-26 02:16:13.13	215.30	24.33	-35.4	-36.9	17.7	0.00e+00	0	61	0	3120562176	41	4533
2026-01-26 02:16:14.14	215.24	24.17	-35.4	-36.9	17.7	0.00e+00	0	61	0	3126853632	41	4535
2026-01-26 02:16:15.15	215.18	24.02	-35.4	-36.9	17.7	0.00e+00	0	61	0	3132096512	41	4523
2026-01-26 02:16:16.16	215.12	23.87	-35.4	-36.9	17.8	0.00e+00	0	61	0	3138387968	41	4510
2026-01-26 02:16:17.17	215.06	23.72	-35.5	-36.9	17.7	0.00e+00	0	61	0	3143630848	41	4544
2026-01-26 02:16:18.18	215.01	23.57	-35.4	-36.9	17.7	0.00e+00	0	61	0	3149922304	41	4520
2026-01-26 02:16:19.19	214.95	23.42	-35.4	-36.9	17.8	0.00e+00	0	61	0	3155165184	41	4500
2026-01-26 02:16:20.20	214.89	23.27	-35.5	-36.9	17.7	0.00e+00	0	61	0	3160408064	41	4544
2026-01-26 02:16:21.21	214.83	23.12	-35.4	-36.9	17.7	0.00e+00	0	61	0	3166699520	41	4519
2026-01-26 02:16:22.22	214.78	22.97	-35.4	-36.9	17.7	0.00e+00	0	61	0	3171942400	41	4521
2026-01-26 02:16:23.23	214.72	22.83	-35.5	-37.0	17.6	0.00e+00	0	61	0	3178233856	41	4580
2026-01-26 02:16:24.24	214.67	22.68	-35.6	-37.1	17.6	0.00e+00	0	61	0	3183476736	41	4625
2026-01-26 02:16:25.25	214.61	22.54	-35.8	-37.3	17.4	0.00e+00	0	61	0	3188719616	42	4444
2026-01-26 02:16:26.26	214.56	22.39	-35.7	-37.2	17.4	0.00e+00	0	61	0	3195011072	42	4439
2026-01-26 02:16:27.27	214.51	22.25	-35.8	-37.3	17.4	0.00e+00	0	61	0	3200253952	42	4460
2026-01-26 02:16:28.28	214.45	22.11	-35.8	-37.3	17.3	0.00e+00	0	61	0	3206545408	42	4470
2026-01-26 02:16:29.29	214.40	21.97	-35.8	-37.3	17.3	0.00e+00	0	61	0	3211788288	42	4491
2026-01-26 02:16:30.30	214.35	21.83	-35.8	-37.4	17.3	0.00e+00	0	62	0	3217031168	42	4494
2026-01-26 02:16:31.31	214.30	21.69	-35.9	-37.5	17.2	0.00e+00	0	61	0	3223322624	42	4559
2026-01-26 02:16:32.32	214.25	21.55	-35.9	-37.5	17.2	0.00e+00	0	61	0	3228565504	42	4568
2026-01-26 02:16:33.33	214.20	21.41	-36.0	-37.5	17.1	0.00e+00	0	61	0	3234856960	42	4583
2026-01-26 02:16:34.34	214.15	21.27	-35.9	-37.5	17.1	0.00e+00	0	61	0	3240099840	42	4589
2026-01-26 02:16:35.35	214.10	21.13	-35.9	-37.5	17.1	0.00e+00	0	61	0	3245342720	42	4574
2026-01-26 02:16:36.36	214.05	21.00	-35.9	-37.4	17.2	0.00e+00	0	61	0	3251634176	42	4537
2026-01-26 02:16:37.37	214.00	20.86	-36.0	-37.6	17.1	0.00e+00	0	61	0	3256877056	42	4620
2026-01-26 02:16:38.38	213.95	20.73	-36.0	-37.5	17.1	0.00e+00	0	62	0	3263168512	42	4595
2026-01-26 02:16:39.39	213.90	20.59	-35.8	-37.4	17.2	0.00e+00	0	61	0	3268411392	42	4500
2026-01-26 02:16:40.40	213.86	20.46	-35.7	-37.3	17.4	0.00e+00	0	61	0	3274702848	42	4448
2026-01-26 02:16:41.41	213.81	20.33	-35.7	-37.3	17.3	0.00e+00	0	61	0	3279945728	42	4455
2026-01-26 02:16:42.42	213.76	20.19	-35.8	-37.4	17.3	0.00e+00	0	61	0	3285188608	42	4500
2026-01-26 02:16:43.43	213.72	20.06	-35.9	-37.5	17.2	0.00e+00	0	61	0	3291480064	42	4548
2026-01-26 02:16:44.44	213.67	19.93	-35.8	-37.3	17.3	0.00e+00	0	61	0	3296722944	42	4455
2026-01-26 02:16:45.45	213.63	19.80	-35.7	-37.2	17.4	0.00e+00	0	61	0	3303014400	42	4438
2026-01-26 02:16:46.46	213.58	19.67	-35.7	-37.3	17.3	0.00e+00	0	61	0	3308257280	42	4448
2026-01-26 02:16:47.47	213.54	19.54	-35.8	-37.4	17.2	0.00e+00	0	61	0	3314548736	42	4502
2026-01-26 02:16:48.48	213.50	19.41	-35.8	-37.3	17.3	0.00e+00	0	61	0	3319791616	42	4462
2026-01-26 02:16:49.49	213.45	19.29	-35.8	-37.4	17.3	0.00e+00	0	61	0	3325034496	42	4499
2026-01-26 02:16:50.51	213.41	19.16	-35.9	-37.4	17.2	0.00e+00	0	61	0	3331325952	42	4527
2026-01-26 02:16:51.52	213.37	19.03	-36.0	-37.6	17.1	0.00e+00	0	61	0	3336568832	42	4604
2026-01-26 02:16:52.53	213.32	18.91	-36.1	-37.6	17.0	0.00e+00	0	61	0	3342860288	42	4622
2026-01-26 02:16:53.54	213.28	18.78	-36.1	-37.7	17.0	0.00e+00	0	61	0	3348103168	42	4661
2026-01-26 02:16:54.55	213.24	18.66	-36.2	-37.8	16.8	0.00e+00	0	61	0	3353346048	42	4735
2026-01-26 02:16:55.56	213.20	18.53	-36.2	-37.8	16.8	0.00e+00	0	61	0	3359637504	43	4488
2026-01-26 02:16:56.57	213.16	18.41	-36.2	-37.8	16.8	0.00e+00	0	62	0	3364880384	43	4483
2026-01-26 02:16:57.58	213.12	18.29	-36.4	-37.9	16.7	0.00e+00	0	61	0	3371171840	43	4544
2026-01-26 02:16:58.59	213.08	18.16	-36.4	-38.1	16.5	0.00e+00	0	61	0	3376414720	43	4601
2026-01-26 02:16:59.60	213.04	18.04	-36.4	-38.0	16.6	0.00e+00	0	61	0	3382706176	43	4583
2026-01-26 02:17:00.61	213.00	17.92	-36.4	-38.1	16.5	0.00e+00	0	61	0	3387949056	43	4600
2026-01-26 02:17:01.62	212.96	17.80	-36.5	-38.1	16.5	0.00e+00	0	62	0	3393191936	43	4649
2026-01-26 02:17:02.63	212.92	17.68	-36.5	-38.1	16.4	0.00e+00	0	62	0	3399483392	43	4645
2026-01-26 02:17:03.64	212.88	17.56	-36.6	-38.2	16.3	0.00e+00	0	62	0	3404726272	43	4698
2026-01-26 02:17:04.65	212.84	17.44	-36.6	-38.3	16.2	0.00e+00	0	61	0	3411017728	43	4756
2026-01-26 02:17:05.66	212.81	17.33	-36.6	-38.3	16.2	0.00e+00	0	61	0	3416260608	43	4756
2026-01-26 02:17:06.67	212.77	17.21	-36.7	-38.4	16.2	0.00e+00	0	61	0	3421503488	43	4779
2026-01-26 02:17:07.67	212.73	17.09	-36.9	-38.7	16.1	0.00e+00	0	61	0	3427794944	44	4662
2026-01-26 02:17:08.68	212.69	16.98	-36.9	-38.6	16.1	0.00e+00	0	62	0	3433037824	44	4629
2026-01-26 02:17:09.69	212.66	16.86	-36.9	-38.6	16.1	0.00e+00	0	61	0	3439329280	44	4642
2026-01-26 02:17:10.69	212.62	16.75	-36.9	-38.7	16.1	0.00e+00	0	61	0	3444572160	44	4655
2026-01-26 02:17:11.71	212.58	16.63	-37.0	-38.8	16.0	0.00e+00	0	62	0	3449815040	44	4717
2026-01-26 02:17:12.72	212.55	16.52	-37.0	-38.8	16.0	0.00e+00	0	61	0	3456106496	44	4728
2026-01-26 02:17:13.73	212.51	16.40	-37.1	-38.9	15.8	0.00e+00	0	61	0	3461349376	44	4791
2026-01-26 02:17:14.74	212.48	16.29	-37.2	-39.0	15.8	0.00e+00	0	62	0	3467640832	45	4552
2026-01-26 02:17:15.75	212.44	16.18	-37.1	-38.8	15.9	0.00e+00	0	61	0	3472883712	45	4488
2026-01-26 02:17:16.76	212.41	16.06	-37.1	-38.9	15.8	0.00e+00	0	61	0	3479175168	45	4527
2026-01-26 02:17:17.77	212.37	15.95	-37.2	-38.9	15.8	0.00e+00	0	62	0	3484418048	45	4534
2026-01-26 02:17:18.78	212.34	15.84	-37.1	-38.9	15.9	0.00e+00	0	61	0	3490709504	45	4504
2026-01-26 02:17:19.79	212.31	15.73	-37.2	-39.0	15.8	0.00e+00	0	61	0	3495952384	45	4555
2026-01-26 02:17:20.80	212.27	15.62	-37.3	-39.0	15.6	0.00e+00	0	61	0	3501195264	45	4597
2026-01-26 02:17:21.81	212.24	15.51	-37.2	-39.0	15.7	0.00e+00	0	61	0	3507486720	45	4575
2026-01-26 02:17:22.82	212.21	15.40	-37.3	-39.1	15.6	0.00e+00	0	61	0	3512729600	45	4610
2026-01-26 02:17:23.83	212.17	15.29	-37.3	-39.1	15.7	0.00e+00	0	61	0	3519021056	45	4599
