passes_logs/2026/01/26/R2.0S_Moscow/R2.0S_Moscow__20260126_223950_NOAA_21_JPSS-2_rec.log

#Pass ID: 20260126_223950_NOAA 21 (JPSS-2)
#Satellite: NOAA 21 (JPSS-2)
#Configuration: NOAA-21
#almurnet v.1.7.20251203
#Start time: 2026-01-26 22:39:51

#Version: 2.2.20231116
#Station: R2.0S_Moscow
#Location: 37.707566 lon 55.798166 lat
#TLE: 1 54234U 22150A   26026.43130734  .00000179  00000+0  10559-3 0  9998
#TLE: 2 54234  98.7509 327.1934 0000805 209.8356 150.2774 14.19539635166435

#Time	Az	El	Level	Level2	SNR	BER	BlckErr	Temp	State	Recorded	gain1	gain2
2026-01-26 22:39:51.74	21.61	2.10	-42.7	-55.0	3.8	1.49e+00	0	53	0	0	57	14388
2026-01-26 22:39:52.74	21.66	2.16	-42.7	-55.0	3.8	1.49e+00	0	53	104	0	57	14380
2026-01-26 22:39:53.75	21.71	2.22	-42.7	-54.9	3.8	1.49e+00	0	53	104	0	57	14367
2026-01-26 22:39:54.76	21.76	2.28	-42.7	-54.9	3.8	1.49e+00	0	53	104	0	57	14371
2026-01-26 22:39:55.77	21.81	2.34	-42.7	-54.9	3.8	1.49e+00	0	53	104	0	57	14368
2026-01-26 22:39:56.78	21.86	2.40	-42.7	-54.9	3.8	1.49e+00	0	53	104	0	57	14359
2026-01-26 22:39:57.79	21.91	2.46	-42.7	-54.9	3.8	1.49e+00	0	53	104	0	57	14347
2026-01-26 22:39:58.80	21.97	2.52	-42.7	-54.9	3.8	1.49e+00	0	53	104	0	57	14357
2026-01-26 22:39:59.81	22.02	2.59	-42.7	-55.0	3.8	1.49e+00	0	54	104	0	57	14379
2026-01-26 22:40:00.82	22.07	2.65	-42.7	-55.0	3.8	1.49e+00	0	54	104	0	57	14395
2026-01-26 22:40:01.83	22.12	2.71	-42.6	-54.9	3.8	1.49e+00	0	54	104	0	57	14318
2026-01-26 22:40:02.84	22.17	2.77	-42.6	-54.9	3.8	1.49e+00	0	54	104	0	57	14363
2026-01-26 22:40:03.85	22.22	2.83	-42.6	-54.9	3.8	1.49e+00	0	54	104	0	57	14342
2026-01-26 22:40:04.86	22.27	2.89	-42.6	-54.9	3.8	1.49e+00	0	54	104	0	57	14354
2026-01-26 22:40:05.87	22.33	2.95	-42.7	-54.9	3.8	1.49e+00	0	54	104	0	57	14327
2026-01-26 22:40:06.88	22.38	3.02	-42.6	-55.0	3.8	1.49e+00	0	54	104	0	57	14379
2026-01-26 22:40:07.89	22.43	3.08	-42.6	-54.9	3.8	1.49e+00	0	54	104	0	57	14355
2026-01-26 22:40:08.90	22.48	3.14	-42.6	-54.9	3.8	1.49e+00	0	54	104	0	57	14319
2026-01-26 22:40:09.91	22.54	3.20	-42.7	-54.9	3.8	1.49e+00	0	54	104	0	57	14324
2026-01-26 22:40:10.92	22.59	3.27	-42.6	-55.0	3.8	1.49e+00	0	54	104	0	57	14386
2026-01-26 22:40:11.93	22.64	3.33	-42.7	-54.9	3.8	1.49e+00	0	54	104	0	57	14371
2026-01-26 22:40:12.94	22.70	3.39	-42.6	-54.9	3.8	1.49e+00	0	54	104	0	57	14348
2026-01-26 22:40:13.95	22.75	3.45	-42.7	-54.9	3.8	1.49e+00	0	54	104	0	57	14363
2026-01-26 22:40:14.96	22.81	3.52	-42.6	-54.9	3.8	1.49e+00	0	54	104	0	57	14278
2026-01-26 22:40:15.97	22.86	3.58	-42.6	-54.9	3.8	1.49e+00	0	55	104	0	57	14324
2026-01-26 22:40:16.98	22.91	3.64	-42.6	-54.9	3.8	1.49e+00	0	54	104	0	57	14345
2026-01-26 22:40:17.99	22.97	3.71	-42.7	-54.9	3.8	1.49e+00	0	55	104	0	57	14343
2026-01-26 22:40:19.00	23.02	3.77	-42.7	-54.9	3.8	1.49e+00	0	55	104	0	57	14317
2026-01-26 22:40:20.01	23.08	3.83	-42.7	-54.9	3.8	1.49e+00	0	55	104	0	57	14348
2026-01-26 22:40:21.02	23.13	3.90	-42.7	-54.9	3.8	1.49e+00	0	55	104	0	57	14359
2026-01-26 22:40:22.03	23.19	3.96	-42.7	-55.0	3.8	1.49e+00	0	55	104	0	57	14386
2026-01-26 22:40:23.04	23.25	4.02	-42.7	-54.9	3.8	1.49e+00	0	55	104	0	57	14360
2026-01-26 22:40:24.05	23.30	4.09	-42.7	-55.0	3.8	1.49e+00	0	55	104	0	57	14413
2026-01-26 22:40:25.06	23.36	4.15	-42.7	-55.0	3.8	1.49e+00	0	55	104	0	57	14445
2026-01-26 22:40:26.07	23.41	4.22	-42.7	-55.0	3.8	1.49e+00	0	55	104	0	57	14401
2026-01-26 22:40:27.08	23.47	4.28	-42.7	-55.0	3.8	1.49e+00	0	55	104	0	57	14387
2026-01-26 22:40:28.09	23.53	4.35	-42.7	-55.0	3.8	1.49e+00	0	55	104	0	57	14383
2026-01-26 22:40:29.10	23.59	4.41	-42.7	-54.9	3.8	1.49e+00	0	55	104	0	57	14369
2026-01-26 22:40:30.11	23.64	4.48	-42.7	-54.9	3.8	1.49e+00	0	55	104	0	57	14344
2026-01-26 22:40:31.13	23.70	4.54	-42.7	-55.0	3.8	1.49e+00	0	55	104	0	57	14441
2026-01-26 22:40:32.14	23.76	4.61	-42.7	-55.0	3.8	1.49e+00	0	56	104	0	57	14397
2026-01-26 22:40:33.15	23.82	4.67	-42.7	-55.0	3.8	1.49e+00	0	55	104	0	57	14402
2026-01-26 22:40:34.16	23.88	4.74	-42.7	-55.0	3.8	1.49e+00	0	56	104	0	57	14401
2026-01-26 22:40:35.17	23.93	4.80	-42.7	-55.0	3.8	1.49e+00	0	55	104	0	57	14401
2026-01-26 22:40:36.18	23.99	4.87	-42.7	-54.9	3.8	1.49e+00	0	56	104	0	57	14358
2026-01-26 22:40:37.19	24.05	4.93	-42.7	-54.9	3.8	1.49e+00	0	56	104	0	57	14367
2026-01-26 22:40:38.20	24.11	5.00	-42.7	-54.9	3.8	1.49e+00	0	56	104	0	57	14364
2026-01-26 22:40:39.21	24.17	5.07	-42.6	-54.9	3.8	1.49e+00	0	56	104	0	57	14322
2026-01-26 22:40:40.22	24.23	5.13	-42.7	-54.9	3.8	1.49e+00	0	56	104	0	57	14362
2026-01-26 22:40:41.23	24.29	5.20	-42.6	-54.9	3.8	1.49e+00	0	56	104	0	57	14367
2026-01-26 22:40:42.24	24.35	5.27	-42.6	-54.9	3.8	1.49e+00	0	56	104	0	57	14329
2026-01-26 22:40:43.25	24.41	5.33	-42.7	-54.9	3.8	1.49e+00	0	56	104	0	57	14336
2026-01-26 22:40:44.26	24.47	5.40	-42.6	-54.9	3.8	1.49e+00	0	56	104	0	57	14363
2026-01-26 22:40:45.27	24.53	5.47	-42.7	-54.9	3.8	1.49e+00	0	56	104	0	57	14344
2026-01-26 22:40:46.29	24.60	5.53	-42.6	-54.9	3.8	1.49e+00	0	56	104	0	57	14306
2026-01-26 22:40:47.30	24.66	5.60	-42.6	-54.9	3.8	1.49e+00	0	56	104	0	57	14346
2026-01-26 22:40:48.31	24.72	5.67	-42.6	-54.9	3.8	1.49e+00	0	56	104	0	57	14321
2026-01-26 22:40:49.32	24.78	5.74	-42.7	-54.9	3.8	1.49e+00	0	56	104	0	57	14366
2026-01-26 22:40:50.33	24.84	5.80	-42.6	-54.9	3.8	1.49e+00	0	57	104	0	57	14321
2026-01-26 22:40:51.34	24.91	5.87	-42.7	-54.9	3.8	1.49e+00	0	56	104	0	57	14336
2026-01-26 22:40:52.35	24.97	5.94	-42.6	-54.9	3.8	1.49e+00	0	56	104	0	57	14337
2026-01-26 22:40:53.36	25.03	6.01	-42.7	-55.0	3.8	1.49e+00	0	57	104	0	57	14381
2026-01-26 22:40:54.37	25.10	6.08	-42.6	-54.9	3.8	1.49e+00	0	57	104	0	57	14347
2026-01-26 22:40:55.38	25.16	6.14	-42.6	-54.9	3.8	1.49e+00	0	57	104	0	57	14330
2026-01-26 22:40:56.39	25.22	6.21	-42.6	-54.9	3.8	1.49e+00	0	57	104	0	57	14324
2026-01-26 22:40:57.40	25.29	6.28	-42.6	-54.9	3.8	1.49e+00	0	57	104	0	57	14301
2026-01-26 22:40:58.41	25.35	6.35	-42.6	-54.9	3.8	1.49e+00	0	57	104	0	57	14369
2026-01-26 22:40:59.42	25.42	6.42	-42.6	-54.9	3.8	1.49e+00	0	57	104	0	57	14299
2026-01-26 22:41:00.43	25.48	6.49	-42.6	-54.9	3.8	1.49e+00	0	57	104	0	57	14331
2026-01-26 22:41:01.44	25.55	6.56	-42.6	-54.9	3.8	1.49e+00	0	57	104	0	57	14337
2026-01-26 22:41:02.45	25.61	6.63	-42.6	-54.9	3.8	1.49e+00	0	57	104	0	57	14298
2026-01-26 22:41:03.46	25.68	6.70	-42.6	-54.9	3.8	1.49e+00	0	57	104	0	57	14328
2026-01-26 22:41:04.47	25.75	6.77	-42.6	-54.9	3.8	1.49e+00	0	57	104	0	57	14303
2026-01-26 22:41:05.48	25.81	6.84	-42.6	-54.9	3.8	1.49e+00	0	57	104	0	57	14290
2026-01-26 22:41:06.49	25.88	6.91	-42.6	-54.9	3.8	1.49e+00	0	57	104	0	57	14339
2026-01-26 22:41:07.50	25.95	6.98	-42.6	-54.9	3.8	1.49e+00	0	57	104	0	57	14261
2026-01-26 22:41:08.51	26.01	7.05	-42.6	-54.9	3.8	1.49e+00	0	57	104	0	57	14282
2026-01-26 22:41:09.52	26.08	7.12	-42.6	-54.8	3.8	1.49e+00	0	57	104	0	57	14146
2026-01-26 22:41:10.53	26.15	7.19	-42.6	-54.7	3.8	1.49e+00	0	57	104	0	57	13999
2026-01-26 22:41:11.54	26.22	7.26	-42.6	-54.4	3.8	1.49e+00	0	57	104	0	57	13506
2026-01-26 22:41:12.55	26.29	7.33	-42.5	-54.1	3.8	1.49e+00	0	57	104	0	57	13059
2026-01-26 22:41:13.56	26.36	7.40	-42.5	-53.7	3.8	1.49e+00	0	57	104	0	57	12389
2026-01-26 22:41:14.57	26.43	7.48	-42.3	-52.0	3.9	1.48e+00	0	57	104	0	56	10782
2026-01-26 22:41:15.58	26.50	7.55	-42.2	-50.8	4.3	1.47e+00	0	57	104	0	56	9397
2026-01-26 22:41:16.59	26.57	7.62	-41.6	-48.7	5.3	6.88e-01	0	57	0	0	55	7844
2026-01-26 22:41:17.60	26.64	7.69	-41.3	-47.4	6.2	3.31e-01	0	57	0	3145728	54	7162
2026-01-26 22:41:18.61	26.71	7.76	-40.8	-46.0	7.4	1.30e-01	0	58	0	6291456	53	6429
2026-01-26 22:41:19.62	26.78	7.84	-40.6	-45.2	8.1	7.45e-02	0	58	0	9437184	53	5915
2026-01-26 22:41:20.63	26.85	7.91	-40.2	-44.4	9.0	3.18e-02	0	58	0	12582912	52	5667
2026-01-26 22:41:21.65	26.92	7.98	-40.0	-44.0	9.5	1.54e-02	0	58	0	15728640	52	5413
2026-01-26 22:41:22.66	26.99	8.06	-40.1	-43.7	10.1	1.14e-02	0	58	0	18874368	51	5588
2026-01-26 22:41:23.67	27.07	8.13	-41.0	-45.5	8.5	1.46e-02	0	58	0	22020096	52	6423
2026-01-26 22:41:24.68	27.14	8.20	-41.4	-47.8	6.0	6.24e-02	0	58	0	25165824	53	7940
2026-01-26 22:41:25.69	27.21	8.28	-42.3	-53.1	3.9	1.48e+00	0	58	104	26214400	55	13096
2026-01-26 22:41:26.70	27.29	8.35	-40.6	-44.4	9.8	7.02e-02	0	58	0	26214400	52	5690
2026-01-26 22:41:27.71	27.36	8.42	-40.5	-44.9	9.2	1.00e-01	0	58	0	29360128	53	5674
2026-01-26 22:41:28.72	27.43	8.50	-40.5	-44.1	10.1	9.60e-03	0	58	0	32505856	52	5516
2026-01-26 22:41:29.73	27.51	8.57	-40.4	-44.0	10.2	4.85e-03	0	58	0	35651584	52	5452
2026-01-26 22:41:30.74	27.58	8.65	-40.5	-44.2	10.0	8.62e-03	0	58	0	38797312	52	5552
2026-01-26 22:41:31.75	27.66	8.72	-40.4	-44.0	10.3	4.88e-03	0	58	0	41943040	52	5421
2026-01-26 22:41:32.76	27.73	8.79	-40.4	-44.0	10.4	4.76e-03	0	58	0	45088768	52	5421
2026-01-26 22:41:33.77	27.81	8.87	-40.7	-44.3	10.0	6.12e-03	0	58	0	48234496	52	5639
2026-01-26 22:41:34.78	27.89	8.94	-40.6	-44.2	10.4	5.01e-03	0	58	0	51380224	52	5534
2026-01-26 22:41:35.79	27.96	9.02	-40.6	-44.2	10.3	4.74e-03	0	58	0	54525952	52	5556
2026-01-26 22:41:36.80	28.04	9.10	-40.4	-43.8	10.8	2.89e-03	0	58	0	57671680	52	5297
2026-01-26 22:41:37.81	28.12	9.17	-40.5	-43.9	10.6	3.45e-03	0	58	0	60817408	52	5376
2026-01-26 22:41:38.82	28.20	9.25	-40.4	-43.8	10.9	2.39e-03	0	58	0	63963136	52	5295
2026-01-26 22:41:39.84	28.27	9.32	-40.4	-43.6	11.0	1.92e-03	0	58	0	67108864	52	5210
2026-01-26 22:41:40.84	28.35	9.40	-40.3	-43.5	11.1	1.76e-03	0	58	0	70254592	52	5147
2026-01-26 22:41:41.86	28.43	9.48	-40.4	-43.6	11.1	1.84e-03	0	58	0	73400320	52	5217
2026-01-26 22:41:42.86	28.51	9.55	-40.3	-43.4	11.3	1.53e-03	0	59	0	76546048	52	5078
2026-01-26 22:41:43.88	28.59	9.63	-40.4	-43.6	11.2	1.26e-03	0	58	0	79691776	52	5167
2026-01-26 22:41:44.89	28.67	9.71	-40.3	-43.5	11.2	1.11e-03	0	58	0	82837504	52	5137
2026-01-26 22:41:45.90	28.75	9.78	-40.3	-43.5	11.3	1.27e-03	0	59	0	85983232	52	5122
2026-01-26 22:41:46.91	28.83	9.86	-40.3	-43.5	11.3	1.14e-03	0	58	0	89128960	52	5113
2026-01-26 22:41:47.92	28.91	9.94	-40.4	-43.5	11.3	1.42e-03	0	58	0	92274688	52	5124
2026-01-26 22:41:48.93	29.00	10.02	-40.4	-43.5	11.3	1.18e-03	0	58	0	95420416	52	5111
2026-01-26 22:41:49.94	29.08	10.09	-40.4	-43.5	11.4	1.10e-03	0	58	0	98566144	52	5132
2026-01-26 22:41:50.95	29.16	10.17	-40.3	-43.4	11.4	9.22e-04	0	59	0	101711872	52	5095
2026-01-26 22:41:51.96	29.24	10.25	-40.4	-43.5	11.4	8.86e-04	0	58	0	104857600	52	5101
2026-01-26 22:41:52.97	29.33	10.33	-40.4	-43.4	11.5	8.54e-04	0	59	0	108003328	52	5097
2026-01-26 22:41:53.98	29.41	10.41	-40.4	-43.5	11.5	8.33e-04	0	59	0	111149056	52	5110
2026-01-26 22:41:55.00	29.50	10.49	-40.3	-43.2	11.8	5.02e-04	0	59	0	114294784	52	4981
2026-01-26 22:41:56.01	29.58	10.57	-40.3	-43.2	11.9	4.95e-04	0	59	0	117440512	52	4948
2026-01-26 22:41:57.02	29.66	10.65	-40.4	-43.4	11.7	5.43e-04	0	59	0	120586240	52	5054
2026-01-26 22:41:58.03	29.75	10.73	-40.3	-43.2	11.9	4.17e-04	0	59	0	123731968	52	4948
2026-01-26 22:41:59.03	29.84	10.80	-40.3	-43.2	11.9	4.26e-04	0	59	0	126877696	52	4945
2026-01-26 22:42:00.04	29.92	10.88	-40.2	-43.1	11.9	4.03e-04	0	59	0	130023424	52	4914
2026-01-26 22:42:01.05	30.01	10.96	-40.2	-43.1	12.0	3.49e-04	0	59	0	133169152	52	4920
2026-01-26 22:42:02.06	30.10	11.05	-40.4	-43.4	11.7	3.12e-04	0	59	0	136314880	52	5049
2026-01-26 22:42:03.07	30.18	11.13	-40.3	-43.2	12.1	2.83e-04	0	59	0	139460608	51	5219
2026-01-26 22:42:04.09	30.27	11.21	-40.3	-43.1	12.0	3.21e-04	0	59	0	142606336	51	5214
2026-01-26 22:42:05.10	30.36	11.29	-40.4	-43.3	11.9	4.03e-04	0	59	0	145752064	51	5306
2026-01-26 22:42:06.11	30.45	11.37	-40.4	-43.4	11.8	5.02e-04	0	59	0	148897792	51	5381
2026-01-26 22:42:07.11	30.54	11.45	-40.3	-43.1	12.1	2.89e-04	0	59	0	152043520	51	5205
2026-01-26 22:42:08.12	30.63	11.53	-40.2	-43.1	12.2	2.65e-04	0	59	0	155189248	51	5173
2026-01-26 22:42:09.13	30.72	11.61	-40.2	-43.0	12.2	2.57e-04	0	59	0	158334976	51	5158
2026-01-26 22:42:10.14	30.81	11.70	-40.1	-42.9	12.3	2.38e-04	0	59	0	161480704	51	5077
2026-01-26 22:42:11.15	30.90	11.78	-40.1	-42.9	12.4	2.19e-04	0	59	0	164626432	51	5050
2026-01-26 22:42:12.16	31.00	11.86	-40.2	-42.9	12.3	1.72e-04	0	59	0	167772160	51	5091
2026-01-26 22:42:13.17	31.09	11.94	-40.1	-42.8	12.4	1.43e-04	0	59	0	170917888	51	5041
2026-01-26 22:42:14.18	31.18	12.03	-40.1	-42.7	12.5	1.32e-04	0	59	0	174063616	51	4971
2026-01-26 22:42:15.19	31.27	12.11	-40.1	-42.7	12.5	1.30e-04	0	59	0	177209344	51	4983
2026-01-26 22:42:16.20	31.37	12.19	-40.1	-42.8	12.4	1.04e-04	0	59	0	180355072	51	5022
2026-01-26 22:42:17.21	31.46	12.28	-40.1	-42.8	12.5	1.38e-04	0	59	0	183500800	51	5039
2026-01-26 22:42:18.22	31.56	12.36	-40.2	-42.8	12.5	1.06e-04	0	59	0	186646528	51	5035
2026-01-26 22:42:19.23	31.65	12.44	-40.1	-42.8	12.5	1.34e-04	0	59	0	189792256	51	5029
2026-01-26 22:42:20.24	31.75	12.53	-40.2	-42.9	12.4	1.27e-04	0	59	0	192937984	51	5095
2026-01-26 22:42:21.25	31.85	12.61	-40.1	-42.8	12.6	9.84e-05	0	59	0	196083712	51	4987
2026-01-26 22:42:22.26	31.94	12.70	-40.1	-42.7	12.6	9.46e-05	0	59	0	199229440	51	4968
2026-01-26 22:42:23.27	32.04	12.78	-40.1	-42.8	12.6	1.03e-04	0	59	0	202375168	51	5002
2026-01-26 22:42:24.28	32.14	12.87	-40.1	-42.7	12.6	9.46e-05	0	59	0	205520896	51	4963
2026-01-26 22:42:25.29	32.24	12.95	-40.0	-42.7	12.7	6.17e-05	0	59	0	208666624	51	4933
2026-01-26 22:42:26.30	32.34	13.04	-40.0	-42.6	12.8	7.47e-05	0	59	0	211812352	51	4907
2026-01-26 22:42:27.31	32.44	13.13	-40.1	-42.7	12.6	7.32e-05	0	59	0	214958080	51	4974
2026-01-26 22:42:28.32	32.54	13.21	-40.0	-42.6	12.8	6.71e-05	0	59	0	218103808	51	4899
2026-01-26 22:42:29.34	32.64	13.30	-40.0	-42.5	12.8	6.40e-05	0	59	0	221249536	51	4870
2026-01-26 22:42:30.34	32.74	13.38	-40.0	-42.5	12.9	4.57e-05	0	59	0	224395264	51	4865
2026-01-26 22:42:31.35	32.84	13.47	-40.0	-42.6	12.9	4.27e-05	0	59	0	227540992	51	4884
2026-01-26 22:42:32.37	32.95	13.56	-40.1	-42.7	12.7	7.09e-05	0	60	0	230686720	51	4973
2026-01-26 22:42:33.37	33.05	13.65	-40.0	-42.7	12.8	5.64e-05	0	60	0	233832448	51	4928
2026-01-26 22:42:34.38	33.15	13.73	-40.0	-42.6	12.8	5.34e-05	0	59	0	236978176	51	4910
2026-01-26 22:42:35.39	33.26	13.82	-40.0	-42.6	12.8	6.79e-05	0	60	0	241172480	51	4920
2026-01-26 22:42:36.40	33.36	13.91	-40.0	-42.6	12.8	4.65e-05	0	59	0	243269632	51	4891
2026-01-26 22:42:37.41	33.47	14.00	-40.0	-42.6	12.8	6.02e-05	0	60	0	246415360	51	4915
2026-01-26 22:42:38.42	33.57	14.08	-40.1	-42.6	12.8	6.17e-05	0	60	0	249561088	51	4923
2026-01-26 22:42:39.43	33.68	14.17	-40.1	-42.6	12.8	4.50e-05	0	60	0	252706816	51	4926
2026-01-26 22:42:40.44	33.79	14.26	-40.0	-42.6	12.8	5.34e-05	0	60	0	256901120	51	4917
2026-01-26 22:42:41.46	33.90	14.35	-40.1	-42.7	12.8	6.17e-05	0	60	0	260046848	51	4932
2026-01-26 22:42:42.47	34.01	14.44	-40.0	-42.6	12.9	5.79e-05	0	60	0	263192576	51	4871
2026-01-26 22:42:43.48	34.12	14.53	-40.0	-42.6	12.9	4.65e-05	0	60	0	266338304	51	4900
2026-01-26 22:42:44.49	34.23	14.62	-40.1	-42.7	12.9	4.95e-05	0	60	0	269484032	51	4932
2026-01-26 22:42:45.50	34.34	14.71	-40.1	-42.6	12.9	4.34e-05	0	60	0	272629760	51	4900
2026-01-26 22:42:46.51	34.45	14.80	-40.1	-42.7	12.8	4.95e-05	0	60	0	275775488	51	4948
2026-01-26 22:42:47.52	34.56	14.89	-40.1	-42.6	12.9	4.88e-05	0	60	0	278921216	51	4902
2026-01-26 22:42:48.53	34.67	14.98	-40.1	-42.7	12.9	4.95e-05	0	60	0	282066944	51	4942
2026-01-26 22:42:49.54	34.79	15.07	-40.1	-42.7	12.8	5.87e-05	0	60	0	285212672	51	4961
2026-01-26 22:42:50.55	34.90	15.17	-40.2	-42.8	12.8	5.79e-05	0	60	0	288358400	51	4991
2026-01-26 22:42:51.56	35.01	15.26	-40.2	-42.8	12.8	5.34e-05	0	60	0	291504128	51	5007
2026-01-26 22:42:52.57	35.13	15.35	-40.2	-42.7	12.9	4.65e-05	0	60	0	294649856	51	4979
2026-01-26 22:42:53.58	35.25	15.44	-40.2	-42.8	12.7	7.01e-05	0	60	0	297795584	51	5034
2026-01-26 22:42:54.60	35.36	15.53	-40.2	-42.9	12.7	6.56e-05	0	60	0	300941312	51	5050
2026-01-26 22:42:55.61	35.48	15.63	-40.2	-42.7	12.8	5.41e-05	0	60	0	304087040	51	4970
2026-01-26 22:42:56.62	35.60	15.72	-40.1	-42.7	12.9	5.72e-05	0	60	0	307232768	51	4951
2026-01-26 22:42:57.63	35.72	15.81	-40.2	-42.8	12.8	7.01e-05	0	60	0	310378496	51	5014
2026-01-26 22:42:58.64	35.84	15.91	-40.2	-42.8	12.8	5.56e-05	0	60	0	313524224	51	4995
2026-01-26 22:42:59.65	35.96	16.00	-40.1	-42.7	12.9	5.79e-05	0	60	0	316669952	51	4944
2026-01-26 22:43:00.66	36.08	16.09	-40.1	-42.6	13.0	3.96e-05	0	60	0	319815680	51	4894
2026-01-26 22:43:01.67	36.20	16.19	-40.1	-42.7	13.0	4.95e-05	0	60	0	322961408	51	4946
2026-01-26 22:43:02.68	36.32	16.28	-40.1	-42.6	13.0	3.50e-05	0	60	0	326107136	51	4918
2026-01-26 22:43:03.69	36.45	16.38	-40.1	-42.7	13.0	3.73e-05	0	60	0	329252864	51	4937
2026-01-26 22:43:04.71	36.57	16.47	-40.1	-42.7	13.0	4.11e-05	0	60	0	332398592	51	4941
2026-01-26 22:43:05.72	36.70	16.57	-40.2	-42.7	12.9	4.57e-05	0	60	0	335544320	51	4967
2026-01-26 22:43:06.73	36.82	16.66	-40.1	-42.6	13.0	3.50e-05	0	60	0	338690048	51	4902
2026-01-26 22:43:07.74	36.95	16.76	-40.1	-42.6	13.1	4.65e-05	0	60	0	341835776	51	4877
2026-01-26 22:43:08.75	37.07	16.85	-40.2	-42.7	13.0	4.27e-05	0	60	0	344981504	51	4956
2026-01-26 22:43:09.76	37.20	16.95	-40.0	-42.5	13.1	2.51e-05	0	60	0	348127232	51	4849
2026-01-26 22:43:10.77	37.33	17.04	-40.0	-42.5	13.2	2.36e-05	0	60	0	351272960	51	4847
2026-01-26 22:43:11.78	37.46	17.14	-40.1	-42.6	13.2	2.36e-05	0	60	0	354418688	51	4875
2026-01-26 22:43:12.79	37.59	17.24	-40.1	-42.6	13.1	4.11e-05	0	60	0	357564416	51	4887
2026-01-26 22:43:13.80	37.72	17.33	-40.0	-42.5	13.2	2.74e-05	0	60	0	360710144	51	4822
2026-01-26 22:43:14.81	37.85	17.43	-40.0	-42.4	13.3	1.60e-05	0	60	0	363855872	51	4767
2026-01-26 22:43:15.82	37.99	17.53	-40.0	-42.4	13.3	1.67e-05	0	60	0	367001600	51	4797
2026-01-26 22:43:16.83	38.12	17.63	-40.0	-42.5	13.2	2.51e-05	0	60	0	370147328	51	4833
2026-01-26 22:43:17.84	38.25	17.72	-40.0	-42.5	13.2	1.67e-05	0	60	0	373293056	51	4845
2026-01-26 22:43:18.85	38.39	17.82	-39.9	-42.4	13.3	1.90e-05	0	60	0	376438784	51	4763
2026-01-26 22:43:19.86	38.52	17.92	-40.0	-42.5	13.2	2.67e-05	0	60	0	379584512	51	4845
2026-01-26 22:43:20.87	38.66	18.02	-40.0	-42.5	13.2	2.36e-05	0	60	0	382730240	51	4843
2026-01-26 22:43:21.88	38.80	18.12	-40.0	-42.5	13.3	2.21e-05	0	60	0	385875968	51	4817
2026-01-26 22:43:22.89	38.94	18.22	-40.0	-42.4	13.3	1.60e-05	0	60	0	389021696	51	4802
2026-01-26 22:43:23.90	39.08	18.32	-40.0	-42.4	13.3	2.67e-05	0	60	0	392167424	51	4805
2026-01-26 22:43:24.92	39.22	18.42	-40.0	-42.4	13.3	1.52e-05	0	60	0	395313152	51	4808
2026-01-26 22:43:25.93	39.36	18.52	-40.0	-42.5	13.2	1.83e-05	0	60	0	398458880	51	4826
2026-01-26 22:43:26.94	39.50	18.62	-39.9	-42.4	13.4	9.90e-06	0	60	0	401604608	51	4763
2026-01-26 22:43:27.95	39.64	18.72	-40.0	-42.4	13.4	1.75e-05	0	60	0	404750336	51	4769
2026-01-26 22:43:28.96	39.79	18.82	-39.9	-42.3	13.4	1.75e-05	0	60	0	407896064	51	4720
2026-01-26 22:43:29.97	39.93	18.92	-39.9	-42.3	13.5	1.52e-05	0	60	0	411041792	51	4730
2026-01-26 22:43:30.98	40.08	19.02	-39.9	-42.3	13.5	1.60e-05	0	60	0	414187520	51	4724
2026-01-26 22:43:31.99	40.23	19.12	-40.0	-42.4	13.3	1.98e-05	0	60	0	417333248	51	4803
2026-01-26 22:43:33.01	40.37	19.22	-39.9	-42.3	13.4	1.06e-05	0	60	0	420478976	51	4758
2026-01-26 22:43:34.01	40.52	19.33	-39.9	-42.4	13.4	9.90e-06	0	60	0	423624704	51	4765
2026-01-26 22:43:35.02	40.67	19.43	-40.0	-42.3	13.4	1.06e-05	0	60	0	426770432	51	4752
2026-01-26 22:43:36.03	40.82	19.53	-39.9	-42.3	13.4	1.22e-05	0	60	0	429916160	51	4731
2026-01-26 22:43:37.04	40.97	19.63	-39.9	-42.3	13.5	1.14e-05	0	60	0	433061888	51	4713
2026-01-26 22:43:38.05	41.13	19.73	-39.9	-42.2	13.5	8.30e-06	0	60	0	436207616	51	4697
2026-01-26 22:43:39.06	41.28	19.84	-39.8	-42.1	13.6	1.22e-05	0	60	0	439353344	51	4638
2026-01-26 22:43:40.07	41.43	19.94	-39.8	-42.1	13.6	9.90e-06	0	60	0	442499072	51	4602
2026-01-26 22:43:41.08	41.59	20.04	-39.7	-41.9	13.8	6.10e-06	0	60	0	445644800	51	4529
2026-01-26 22:43:42.09	41.75	20.15	-39.7	-41.9	13.8	3.00e-06	0	60	0	448790528	51	4530
2026-01-26 22:43:43.10	41.90	20.25	-39.6	-41.9	13.8	4.50e-06	0	60	0	451936256	51	4519
2026-01-26 22:43:44.11	42.06	20.36	-39.6	-41.9	13.9	4.50e-06	0	61	0	455081984	51	4500
2026-01-26 22:43:45.13	42.22	20.46	-39.6	-41.8	13.9	4.50e-06	0	61	0	458227712	51	4456
2026-01-26 22:43:46.14	42.38	20.57	-39.5	-41.8	14.0	2.20e-06	0	61	0	461373440	51	4448
2026-01-26 22:43:47.15	42.55	20.67	-39.5	-41.7	14.0	4.50e-06	0	61	0	464519168	50	4677
2026-01-26 22:43:48.16	42.71	20.78	-39.4	-41.6	14.2	3.00e-06	0	60	0	467664896	50	4602
2026-01-26 22:43:49.17	42.87	20.88	-39.5	-41.7	14.1	1.50e-06	0	61	0	470810624	50	4666
2026-01-26 22:43:50.18	43.04	20.99	-39.5	-41.7	14.1	2.20e-06	0	61	0	473956352	50	4681
2026-01-26 22:43:51.19	43.21	21.09	-39.5	-41.6	14.1	1.50e-06	0	61	0	477102080	50	4644
2026-01-26 22:43:52.20	43.37	21.20	-39.4	-41.6	14.2	2.20e-06	0	61	0	480247808	50	4617
2026-01-26 22:43:53.21	43.54	21.30	-39.5	-41.6	14.2	7.00e-07	0	61	0	483393536	50	4637
2026-01-26 22:43:54.22	43.71	21.41	-39.4	-41.5	14.3	3.00e-06	0	60	0	486539264	50	4597
2026-01-26 22:43:55.23	43.88	21.52	-39.3	-41.4	14.4	0.00e+00	0	61	0	489684992	50	4544
2026-01-26 22:43:56.24	44.05	21.62	-39.3	-41.4	14.4	1.50e-06	0	61	0	492830720	50	4527
2026-01-26 22:43:57.25	44.23	21.73	-39.2	-41.3	14.5	0.00e+00	0	61	0	495976448	50	4468
2026-01-26 22:43:58.26	44.40	21.84	-39.2	-41.2	14.6	0.00e+00	0	61	0	499122176	50	4412
2026-01-26 22:43:59.27	44.58	21.94	-39.1	-41.1	14.7	0.00e+00	0	61	0	502267904	50	4389
2026-01-26 22:44:00.28	44.75	22.05	-39.1	-41.1	14.7	7.00e-07	0	61	0	505413632	50	4383
2026-01-26 22:44:01.30	44.93	22.16	-39.1	-41.2	14.7	7.00e-07	0	61	0	509607936	50	4395
2026-01-26 22:44:02.30	45.11	22.27	-39.1	-41.2	14.7	0.00e+00	0	61	0	512753664	50	4393
2026-01-26 22:44:03.31	45.29	22.37	-39.1	-41.1	14.7	0.00e+00	0	61	0	514850816	50	4387
2026-01-26 22:44:04.32	45.47	22.48	-39.2	-41.2	14.6	1.50e-06	0	61	0	517996544	50	4440
2026-01-26 22:44:05.33	45.65	22.59	-39.2	-41.2	14.6	0.00e+00	0	61	0	521142272	50	4418
2026-01-26 22:44:06.34	45.84	22.70	-39.2	-41.3	14.6	0.00e+00	0	61	0	525336576	50	4443
2026-01-26 22:44:07.35	46.02	22.81	-39.1	-41.2	14.7	7.00e-07	0	61	0	528482304	50	4398
2026-01-26 22:44:08.37	46.21	22.92	-39.1	-41.1	14.7	0.00e+00	0	61	0	531628032	50	4374
2026-01-26 22:44:09.38	46.40	23.03	-39.0	-41.0	14.8	7.00e-07	0	61	0	534773760	50	4321
2026-01-26 22:44:10.39	46.59	23.14	-39.0	-41.0	14.8	7.00e-07	0	61	0	537919488	50	4325
2026-01-26 22:44:11.40	46.78	23.24	-39.0	-40.9	14.9	0.00e+00	0	60	0	541065216	49	4541
2026-01-26 22:44:12.41	46.97	23.35	-39.0	-41.0	14.8	7.00e-07	0	61	0	544210944	49	4556
2026-01-26 22:44:13.42	47.16	23.46	-39.0	-41.0	14.8	0.00e+00	0	61	0	547356672	49	4561
2026-01-26 22:44:14.43	47.36	23.57	-39.0	-41.0	14.8	0.00e+00	0	61	0	550502400	49	4588
2026-01-26 22:44:15.44	47.55	23.68	-39.1	-41.1	14.7	0.00e+00	0	61	0	553648128	49	4638
2026-01-26 22:44:16.45	47.75	23.79	-39.0	-41.0	14.8	7.00e-07	0	61	0	556793856	49	4594
2026-01-26 22:44:17.46	47.95	23.90	-39.1	-41.1	14.7	0.00e+00	0	61	0	559939584	49	4638
2026-01-26 22:44:18.47	48.15	24.01	-39.1	-41.2	14.6	7.00e-07	0	61	0	563085312	49	4669
2026-01-26 22:44:19.48	48.35	24.12	-39.1	-41.2	14.6	0.00e+00	0	61	0	566231040	49	4655
2026-01-26 22:44:20.49	48.55	24.23	-39.1	-41.2	14.6	0.00e+00	0	61	0	569376768	49	4673
2026-01-26 22:44:21.50	48.75	24.34	-39.1	-41.2	14.6	0.00e+00	0	61	0	572522496	49	4668
2026-01-26 22:44:22.51	48.96	24.46	-39.2	-41.2	14.5	7.00e-07	0	61	0	575668224	49	4699
2026-01-26 22:44:23.52	49.17	24.57	-39.2	-41.3	14.5	0.00e+00	0	61	0	578813952	49	4707
2026-01-26 22:44:24.53	49.37	24.68	-39.1	-41.2	14.6	1.50e-06	0	61	0	581959680	49	4677
2026-01-26 22:44:25.54	49.58	24.79	-39.2	-41.3	14.5	0.00e+00	0	61	0	585105408	49	4724
2026-01-26 22:44:26.55	49.79	24.90	-39.3	-41.4	14.4	1.50e-06	0	61	0	588251136	49	4809
2026-01-26 22:44:27.56	50.01	25.01	-39.3	-41.5	14.4	3.00e-06	0	61	0	591396864	49	4830
2026-01-26 22:44:28.57	50.22	25.12	-39.4	-41.6	14.3	7.00e-07	0	61	0	594542592	49	4873
2026-01-26 22:44:29.58	50.44	25.23	-39.4	-41.5	14.4	7.00e-07	0	61	0	597688320	49	4838
2026-01-26 22:44:30.59	50.65	25.34	-39.5	-41.6	14.2	7.00e-07	0	61	0	600834048	49	4918
2026-01-26 22:44:31.60	50.87	25.45	-39.5	-41.6	14.2	7.00e-07	0	61	0	603979776	49	4924
2026-01-26 22:44:32.61	51.09	25.57	-39.6	-41.7	14.1	3.00e-06	0	61	0	607125504	49	4979
2026-01-26 22:44:33.62	51.31	25.68	-39.6	-41.8	14.1	7.00e-07	0	61	0	610271232	49	5002
2026-01-26 22:44:34.63	51.54	25.79	-39.6	-41.8	14.0	1.50e-06	0	61	0	613416960	49	5033
2026-01-26 22:44:35.64	51.76	25.90	-39.6	-41.8	14.1	3.80e-06	0	61	0	616562688	49	5003
2026-01-26 22:44:36.65	51.99	26.01	-39.6	-41.8	14.1	7.00e-07	0	61	0	619708416	49	5023
2026-01-26 22:44:37.66	52.21	26.12	-39.6	-41.8	14.1	1.50e-06	0	61	0	622854144	49	5031
2026-01-26 22:44:38.67	52.44	26.23	-39.7	-42.0	13.9	1.50e-06	0	61	0	625999872	49	5104
2026-01-26 22:44:39.68	52.67	26.34	-39.7	-42.0	13.9	1.50e-06	0	61	0	629145600	50	4817
2026-01-26 22:44:40.69	52.91	26.46	-39.8	-42.1	13.8	1.50e-06	0	61	0	632291328	50	4876
2026-01-26 22:44:41.70	53.14	26.57	-39.8	-42.0	13.9	4.50e-06	0	61	0	635437056	50	4860
2026-01-26 22:44:42.71	53.37	26.68	-39.8	-42.0	13.9	4.50e-06	0	61	0	638582784	50	4863
2026-01-26 22:44:43.72	53.61	26.79	-39.7	-42.0	13.9	3.80e-06	0	61	0	641728512	50	4831
2026-01-26 22:44:44.73	53.85	26.90	-39.8	-42.1	13.9	4.50e-06	0	61	0	644874240	50	4882
2026-01-26 22:44:45.74	54.09	27.01	-39.8	-42.0	13.9	1.50e-06	0	61	0	648019968	50	4844
2026-01-26 22:44:46.75	54.33	27.12	-39.8	-42.0	13.9	1.50e-06	0	61	0	651165696	50	4855
2026-01-26 22:44:47.76	54.58	27.23	-39.9	-42.2	13.8	3.80e-06	0	61	0	654311424	50	4939
2026-01-26 22:44:48.77	54.82	27.34	-39.9	-42.2	13.8	2.20e-06	0	61	0	657457152	50	4927
2026-01-26 22:44:49.78	55.07	27.46	-39.9	-42.2	13.7	3.80e-06	0	61	0	660602880	50	4967
2026-01-26 22:44:50.79	55.32	27.57	-40.0	-42.3	13.6	3.80e-06	0	61	0	663748608	50	5021
2026-01-26 22:44:51.80	55.57	27.68	-40.0	-42.3	13.6	6.10e-06	0	61	0	666894336	50	5016
2026-01-26 22:44:52.81	55.82	27.79	-40.0	-42.3	13.6	5.30e-06	0	61	0	670040064	50	5031
2026-01-26 22:44:53.82	56.07	27.90	-40.0	-42.4	13.6	9.10e-06	0	61	0	673185792	50	5070
2026-01-26 22:44:54.83	56.33	28.01	-40.1	-42.4	13.5	8.30e-06	0	61	0	676331520	50	5096
2026-01-26 22:44:55.84	56.59	28.12	-40.1	-42.4	13.5	1.52e-05	0	61	0	679477248	50	5092
2026-01-26 22:44:56.85	56.85	28.23	-40.1	-42.5	13.4	1.14e-05	0	61	0	682622976	50	5151
2026-01-26 22:44:57.86	57.11	28.34	-40.0	-42.4	13.6	8.30e-06	0	61	0	685768704	50	5063
2026-01-26 22:44:58.87	57.37	28.45	-40.0	-42.3	13.7	3.00e-06	0	61	0	688914432	50	5012
2026-01-26 22:44:59.89	57.64	28.56	-40.0	-42.3	13.7	6.80e-06	0	61	0	692060160	50	5009
2026-01-26 22:45:00.90	57.90	28.66	-40.0	-42.4	13.6	9.10e-06	0	61	0	695205888	50	5064
2026-01-26 22:45:01.91	58.17	28.77	-40.0	-42.3	13.7	6.10e-06	0	61	0	698351616	50	5007
2026-01-26 22:45:02.92	58.44	28.88	-40.0	-42.3	13.7	6.80e-06	0	61	0	701497344	50	5024
2026-01-26 22:45:03.93	58.71	28.99	-40.1	-42.4	13.6	1.22e-05	0	61	0	704643072	50	5075
2026-01-26 22:45:04.94	58.99	29.10	-40.1	-42.5	13.5	9.90e-06	0	61	0	707788800	50	5110
2026-01-26 22:45:05.95	59.26	29.20	-40.1	-42.5	13.5	9.90e-06	0	61	0	710934528	50	5102
2026-01-26 22:45:06.96	59.54	29.31	-40.0	-42.4	13.6	6.80e-06	0	61	0	714080256	50	5042
2026-01-26 22:45:07.97	59.82	29.42	-40.0	-42.3	13.7	3.00e-06	0	61	0	717225984	50	5010
2026-01-26 22:45:08.98	60.10	29.53	-40.0	-42.3	13.6	1.14e-05	0	61	0	720371712	50	5035
2026-01-26 22:45:09.99	60.38	29.63	-39.9	-42.2	13.8	9.10e-06	0	61	0	723517440	50	4933
2026-01-26 22:45:11.00	60.66	29.74	-39.7	-41.9	14.0	5.30e-06	0	61	0	726663168	50	4808
2026-01-26 22:45:12.01	60.95	29.84	-39.6	-41.7	14.3	7.00e-07	0	61	0	729808896	50	4665
2026-01-26 22:45:13.02	61.24	29.95	-39.5	-41.6	14.4	0.00e+00	0	61	0	732954624	50	4639
2026-01-26 22:45:14.03	61.53	30.05	-39.6	-41.7	14.3	7.00e-07	0	61	0	736100352	50	4668
2026-01-26 22:45:15.04	61.82	30.16	-39.7	-41.8	14.2	3.80e-06	0	61	0	739246080	50	4751
2026-01-26 22:45:16.05	62.11	30.26	-39.7	-41.9	14.1	1.50e-06	0	61	0	742391808	50	4797
2026-01-26 22:45:17.06	62.41	30.37	-39.8	-42.0	14.0	3.00e-06	0	61	0	745537536	50	4844
2026-01-26 22:45:18.07	62.71	30.47	-39.9	-42.1	13.9	4.50e-06	0	61	0	748683264	50	4924
2026-01-26 22:45:19.09	63.01	30.57	-39.8	-42.0	14.0	4.50e-06	0	61	0	751828992	50	4868
2026-01-26 22:45:20.10	63.31	30.68	-39.8	-42.0	14.0	3.00e-06	0	61	0	754974720	50	4845
2026-01-26 22:45:21.11	63.61	30.78	-39.8	-42.0	14.0	0.00e+00	0	61	0	758120448	50	4856
2026-01-26 22:45:22.12	63.92	30.88	-39.7	-41.8	14.2	1.50e-06	0	61	0	761266176	50	4741
2026-01-26 22:45:23.13	64.23	30.98	-39.6	-41.8	14.3	3.00e-06	0	61	0	764411904	50	4723
2026-01-26 22:45:24.14	64.53	31.08	-39.7	-41.9	14.1	1.50e-06	0	61	0	767557632	50	4788
2026-01-26 22:45:25.15	64.84	31.18	-39.7	-41.9	14.1	3.00e-06	0	61	0	770703360	50	4804
2026-01-26 22:45:26.16	65.16	31.28	-39.7	-41.9	14.2	3.00e-06	0	61	0	773849088	50	4778
2026-01-26 22:45:27.17	65.47	31.38	-39.8	-41.9	14.1	0.00e+00	0	61	0	776994816	50	4813
2026-01-26 22:45:28.18	65.79	31.47	-39.7	-41.9	14.2	2.20e-06	0	61	0	780140544	50	4775
2026-01-26 22:45:29.19	66.11	31.57	-39.7	-41.8	14.2	7.00e-07	0	61	0	783286272	50	4757
2026-01-26 22:45:30.20	66.43	31.67	-39.8	-41.9	14.1	3.00e-06	0	61	0	786432000	50	4813
2026-01-26 22:45:31.21	66.75	31.76	-39.9	-42.1	14.0	3.00e-06	0	61	0	789577728	50	4908
2026-01-26 22:45:32.22	67.07	31.86	-39.9	-42.2	13.9	2.20e-06	0	61	0	792723456	50	4948
2026-01-26 22:45:33.23	67.40	31.95	-40.0	-42.3	13.8	3.00e-06	0	61	0	795869184	50	5033
2026-01-26 22:45:34.24	67.72	32.05	-40.1	-42.4	13.7	6.80e-06	0	61	0	800063488	50	5052
2026-01-26 22:45:35.25	68.05	32.14	-40.1	-42.4	13.7	7.60e-06	0	61	0	803209216	50	5055
2026-01-26 22:45:36.26	68.38	32.23	-40.1	-42.4	13.7	8.30e-06	0	61	0	806354944	50	5060
2026-01-26 22:45:37.27	68.72	32.32	-40.1	-42.3	13.7	6.10e-06	0	61	0	808452096	50	5031
2026-01-26 22:45:38.28	69.05	32.42	-40.1	-42.4	13.7	5.30e-06	0	61	0	811597824	50	5049
2026-01-26 22:45:39.29	69.39	32.51	-40.1	-42.4	13.6	4.50e-06	0	61	0	815792128	50	5079
2026-01-26 22:45:40.30	69.73	32.59	-40.3	-42.7	13.3	1.60e-05	0	61	0	818937856	51	4979
2026-01-26 22:45:41.31	70.07	32.68	-40.5	-42.9	13.1	2.89e-05	0	61	0	822083584	51	5086
2026-01-26 22:45:42.32	70.41	32.77	-40.5	-42.9	13.1	2.28e-05	0	61	0	825229312	51	5099
2026-01-26 22:45:43.33	70.76	32.86	-40.5	-43.0	13.1	3.28e-05	0	61	0	828375040	51	5101
2026-01-26 22:45:44.34	71.10	32.94	-40.4	-42.9	13.2	1.90e-05	0	61	0	831520768	51	5053
2026-01-26 22:45:45.35	71.45	33.03	-40.3	-42.7	13.4	2.05e-05	0	61	0	834666496	51	4935
2026-01-26 22:45:46.36	71.80	33.11	-40.3	-42.6	13.4	9.90e-06	0	61	0	837812224	51	4922
2026-01-26 22:45:47.37	72.15	33.20	-40.3	-42.7	13.3	1.14e-05	0	61	0	840957952	51	4954
2026-01-26 22:45:48.38	72.50	33.28	-40.3	-42.7	13.3	1.83e-05	0	61	0	844103680	51	4967
2026-01-26 22:45:49.39	72.86	33.36	-40.4	-42.9	13.1	2.21e-05	0	61	0	847249408	51	5081
2026-01-26 22:45:50.40	73.21	33.44	-40.5	-43.0	13.0	3.89e-05	0	61	0	850395136	51	5135
2026-01-26 22:45:51.41	73.57	33.52	-40.5	-43.0	13.1	3.66e-05	0	61	0	853540864	51	5120
2026-01-26 22:45:52.42	73.93	33.60	-40.5	-43.0	13.1	3.58e-05	0	61	0	856686592	51	5111
2026-01-26 22:45:53.43	74.30	33.67	-40.5	-42.9	13.1	2.97e-05	0	61	0	859832320	51	5095
2026-01-26 22:45:54.44	74.66	33.75	-40.3	-42.7	13.2	1.67e-05	0	61	0	862978048	51	4972
2026-01-26 22:45:55.45	75.02	33.82	-40.4	-42.8	13.1	2.05e-05	0	61	0	866123776	51	5026
2026-01-26 22:45:56.46	75.39	33.90	-40.4	-42.8	13.1	2.89e-05	0	61	0	869269504	51	5012
2026-01-26 22:45:57.47	75.76	33.97	-40.4	-42.9	13.1	3.58e-05	0	61	0	872415232	51	5080
2026-01-26 22:45:58.48	76.13	34.04	-40.3	-42.8	13.2	2.74e-05	0	61	0	875560960	51	4995
2026-01-26 22:45:59.49	76.50	34.11	-40.3	-42.7	13.3	1.60e-05	0	61	0	878706688	51	4968
2026-01-26 22:46:00.50	76.87	34.18	-40.4	-42.8	13.2	2.28e-05	0	61	0	881852416	51	5024
2026-01-26 22:46:01.51	77.25	34.25	-40.3	-42.8	13.2	1.67e-05	0	62	0	884998144	51	4987
2026-01-26 22:46:02.52	77.63	34.32	-40.4	-42.8	13.2	2.21e-05	0	61	0	888143872	51	5026
2026-01-26 22:46:03.53	78.00	34.38	-40.4	-42.9	13.1	2.59e-05	0	62	0	891289600	51	5066
2026-01-26 22:46:04.54	78.38	34.45	-40.5	-42.9	13.1	2.36e-05	0	62	0	894435328	51	5091
2026-01-26 22:46:05.55	78.76	34.51	-40.5	-43.0	13.0	3.12e-05	0	61	0	897581056	51	5141
2026-01-26 22:46:06.56	79.15	34.57	-40.6	-43.2	12.9	3.96e-05	0	61	0	900726784	51	5243
2026-01-26 22:46:07.57	79.53	34.63	-40.6	-43.2	12.8	5.11e-05	0	62	0	903872512	52	4956
2026-01-26 22:46:08.58	79.92	34.69	-40.6	-43.2	12.8	6.63e-05	0	62	0	907018240	52	4955
2026-01-26 22:46:09.59	80.30	34.75	-40.6	-43.3	12.7	4.95e-05	0	61	0	910163968	52	4990
2026-01-26 22:46:10.60	80.69	34.81	-40.4	-42.9	13.1	2.74e-05	0	61	0	913309696	52	4796
2026-01-26 22:46:11.61	81.08	34.86	-40.4	-42.9	13.2	2.59e-05	0	61	0	916455424	52	4765
2026-01-26 22:46:12.62	81.47	34.92	-40.4	-42.9	13.2	2.28e-05	0	62	0	919601152	52	4762
2026-01-26 22:46:13.63	81.86	34.97	-40.5	-43.0	12.9	3.89e-05	0	61	0	922746880	52	4865
2026-01-26 22:46:14.64	82.26	35.02	-40.5	-43.1	12.9	3.81e-05	0	62	0	925892608	52	4883
2026-01-26 22:46:15.65	82.65	35.07	-40.5	-43.0	13.0	3.50e-05	0	61	0	929038336	52	4824
2026-01-26 22:46:16.66	83.05	35.12	-40.3	-42.8	13.2	2.44e-05	0	61	0	932184064	52	4711
2026-01-26 22:46:17.67	83.44	35.17	-40.3	-42.7	13.2	2.74e-05	0	61	0	935329792	52	4703
2026-01-26 22:46:18.68	83.84	35.21	-40.3	-42.7	13.2	1.44e-05	0	61	0	938475520	52	4705
2026-01-26 22:46:19.69	84.24	35.26	-40.4	-42.9	13.0	2.89e-05	0	61	0	941621248	52	4805
2026-01-26 22:46:20.70	84.64	35.30	-40.6	-43.1	12.8	5.26e-05	0	61	0	944766976	52	4923
2026-01-26 22:46:21.71	85.04	35.34	-40.7	-43.4	12.6	8.69e-05	0	61	0	947912704	52	5051
2026-01-26 22:46:22.72	85.44	35.38	-40.8	-43.4	12.5	1.34e-04	0	62	0	951058432	52	5093
2026-01-26 22:46:23.73	85.85	35.42	-40.9	-43.6	12.4	1.40e-04	0	61	0	954204160	52	5187
2026-01-26 22:46:24.74	86.25	35.45	-40.9	-43.6	12.4	1.58e-04	0	61	0	957349888	52	5206
2026-01-26 22:46:25.75	86.65	35.49	-40.9	-43.7	12.3	2.00e-04	0	61	0	960495616	52	5235
2026-01-26 22:46:26.76	87.06	35.52	-40.8	-43.5	12.5	1.34e-04	0	62	0	963641344	52	5113
2026-01-26 22:46:27.77	87.47	35.56	-40.6	-43.1	12.9	7.55e-05	0	61	0	966787072	52	4915
2026-01-26 22:46:28.78	87.87	35.59	-40.6	-43.2	12.8	5.79e-05	0	62	0	969932800	52	4968
2026-01-26 22:46:29.79	88.28	35.61	-40.5	-43.0	13.0	4.04e-05	0	62	0	973078528	52	4862
2026-01-26 22:46:30.80	88.69	35.64	-40.5	-43.0	13.0	3.28e-05	0	62	0	976224256	52	4826
2026-01-26 22:46:31.81	89.10	35.67	-40.6	-43.1	12.9	3.66e-05	0	61	0	979369984	52	4925
2026-01-26 22:46:32.82	89.51	35.69	-40.6	-43.2	12.9	4.42e-05	0	62	0	982515712	52	4929
2026-01-26 22:46:33.83	89.92	35.71	-40.6	-43.1	13.0	4.88e-05	0	62	0	985661440	52	4917
2026-01-26 22:46:34.84	90.33	35.74	-40.5	-43.0	13.1	3.58e-05	0	61	0	988807168	52	4842
2026-01-26 22:46:35.85	90.74	35.76	-40.6	-43.1	13.0	2.59e-05	0	62	0	991952896	52	4883
2026-01-26 22:46:36.86	91.16	35.77	-40.6	-43.1	13.0	4.42e-05	0	61	0	995098624	52	4911
2026-01-26 22:46:37.87	91.57	35.79	-40.7	-43.3	12.8	5.03e-05	0	62	0	998244352	52	5009
2026-01-26 22:46:38.88	91.98	35.80	-40.7	-43.2	12.8	4.57e-05	0	62	0	1001390080	52	4981
2026-01-26 22:46:39.89	92.39	35.82	-40.5	-43.0	13.1	3.96e-05	0	62	0	1004535808	52	4828
2026-01-26 22:46:40.90	92.81	35.83	-40.5	-43.0	13.0	3.43e-05	0	62	0	1007681536	52	4841
2026-01-26 22:46:41.91	93.22	35.84	-40.5	-42.9	13.1	2.89e-05	0	62	0	1010827264	52	4807
2026-01-26 22:46:42.92	93.64	35.85	-40.4	-42.9	13.2	2.97e-05	0	62	0	1013972992	52	4785
2026-01-26 22:46:43.93	94.05	35.85	-40.2	-42.6	13.5	1.06e-05	0	62	0	1017118720	52	4612
2026-01-26 22:46:44.94	94.47	35.86	-40.2	-42.6	13.4	1.14e-05	0	61	0	1020264448	52	4625
2026-01-26 22:46:45.95	94.88	35.86	-40.2	-42.6	13.5	9.10e-06	0	61	0	1023410176	52	4612
2026-01-26 22:46:46.96	95.29	35.86	-40.2	-42.6	13.5	1.22e-05	0	62	0	1026555904	52	4627
2026-01-26 22:46:47.97	95.71	35.86	-40.4	-42.8	13.2	2.51e-05	0	62	0	1029701632	52	4736
2026-01-26 22:46:48.98	96.12	35.86	-40.3	-42.8	13.3	2.21e-05	0	62	0	1032847360	52	4731
2026-01-26 22:46:49.99	96.54	35.85	-40.4	-42.8	13.2	1.60e-05	0	62	0	1035993088	52	4744
2026-01-26 22:46:51.00	96.95	35.85	-40.4	-42.9	13.2	2.28e-05	0	62	0	1039138816	52	4768
2026-01-26 22:46:52.01	97.37	35.84	-40.5	-43.0	13.0	3.35e-05	0	62	0	1042284544	52	4868
2026-01-26 22:46:53.02	97.78	35.83	-40.5	-43.1	13.0	3.50e-05	0	61	0	1045430272	52	4881
2026-01-26 22:46:54.03	98.20	35.82	-40.5	-43.0	13.0	2.89e-05	0	62	0	1048576000	52	4857
2026-01-26 22:46:55.04	98.61	35.81	-40.6	-43.1	12.9	4.19e-05	0	62	0	1051721728	52	4920
2026-01-26 22:46:56.05	99.02	35.80	-40.6	-43.2	12.8	6.02e-05	0	62	0	1054867456	52	4967
2026-01-26 22:46:57.06	99.44	35.78	-40.7	-43.3	12.7	6.33e-05	0	62	0	1058013184	52	5004
2026-01-26 22:46:58.08	99.85	35.77	-40.6	-43.2	12.8	5.03e-05	0	62	0	1061158912	52	4944
2026-01-26 22:46:59.09	100.27	35.75	-40.5	-43.1	12.9	4.73e-05	0	62	0	1064304640	52	4876
2026-01-26 22:47:00.10	100.68	35.73	-40.6	-43.1	13.0	4.65e-05	0	62	0	1067450368	52	4909
2026-01-26 22:47:01.11	101.09	35.71	-40.6	-43.2	12.8	4.57e-05	0	62	0	1070596096	52	4950
2026-01-26 22:47:02.12	101.50	35.68	-40.6	-43.2	12.8	6.94e-05	0	62	0	1073741824	52	4957
2026-01-26 22:47:03.13	101.91	35.66	-40.6	-43.2	12.8	6.79e-05	0	62	0	1076887552	52	4981
2026-01-26 22:47:04.13	102.32	35.63	-40.6	-43.2	12.8	4.65e-05	0	62	0	1080033280	52	4958
2026-01-26 22:47:05.14	102.72	35.60	-40.7	-43.4	12.7	7.93e-05	0	62	0	1083179008	52	5044
2026-01-26 22:47:06.15	103.13	35.58	-40.9	-43.6	12.5	9.07e-05	0	62	0	1086324736	52	5187
2026-01-26 22:47:07.17	103.54	35.54	-40.9	-43.7	12.3	1.62e-04	0	62	0	1089470464	52	5243
2026-01-26 22:47:08.18	103.95	35.51	-41.0	-43.9	12.2	2.15e-04	0	62	0	1092616192	52	5350
2026-01-26 22:47:09.19	104.36	35.48	-40.8	-43.6	12.4	1.56e-04	0	62	0	1096810496	52	5177
2026-01-26 22:47:10.20	104.76	35.44	-40.8	-43.4	12.5	1.12e-04	0	62	0	1098907648	52	5096
2026-01-26 22:47:11.21	105.17	35.40	-40.7	-43.3	12.7	9.99e-05	0	62	0	1102053376	52	5027
2026-01-26 22:47:12.22	105.57	35.37	-40.5	-43.1	12.9	5.03e-05	0	62	0	1105199104	52	4877
2026-01-26 22:47:13.23	105.97	35.32	-40.5	-43.0	13.0	2.97e-05	0	62	0	1108344832	52	4860
2026-01-26 22:47:14.24	106.37	35.28	-40.5	-43.1	12.9	5.56e-05	0	62	0	1112539136	52	4901
2026-01-26 22:47:15.25	106.77	35.24	-40.5	-43.1	12.9	3.58e-05	0	62	0	1115684864	52	4911
2026-01-26 22:47:16.26	107.17	35.19	-40.5	-43.1	12.9	3.43e-05	0	62	0	1118830592	52	4879
2026-01-26 22:47:17.27	107.57	35.15	-40.6	-43.2	12.8	6.48e-05	0	62	0	1121976320	52	4973
2026-01-26 22:47:18.28	107.97	35.10	-40.7	-43.3	12.7	7.78e-05	0	62	0	1124073472	52	4998
2026-01-26 22:47:19.29	108.36	35.05	-40.7	-43.3	12.7	7.70e-05	0	62	0	1128267776	52	5003
2026-01-26 22:47:20.30	108.76	35.00	-40.7	-43.4	12.6	8.08e-05	0	62	0	1131413504	52	5054
2026-01-26 22:47:21.31	109.15	34.95	-40.8	-43.5	12.5	1.12e-04	0	62	0	1134559232	52	5116
2026-01-26 22:47:22.32	109.54	34.90	-40.7	-43.4	12.6	8.46e-05	0	62	0	1137704960	52	5082
2026-01-26 22:47:23.33	109.94	34.84	-40.7	-43.3	12.8	6.56e-05	0	62	0	1140850688	52	4992
2026-01-26 22:47:24.34	110.32	34.79	-40.6	-43.2	12.9	6.33e-05	0	62	0	1143996416	52	4965
2026-01-26 22:47:25.35	110.71	34.73	-40.6	-43.2	12.8	5.87e-05	0	62	0	1147142144	52	4946
2026-01-26 22:47:26.36	111.10	34.67	-40.7	-43.4	12.6	7.01e-05	0	62	0	1150287872	52	5063
2026-01-26 22:47:27.37	111.49	34.61	-40.7	-43.4	12.6	8.69e-05	0	62	0	1153433600	52	5053
2026-01-26 22:47:28.38	111.87	34.55	-40.8	-43.5	12.5	1.25e-04	0	62	0	1156579328	52	5102
2026-01-26 22:47:29.39	112.25	34.48	-40.5	-43.1	12.9	4.65e-05	0	62	0	1159725056	52	4890
2026-01-26 22:47:30.40	112.63	34.42	-40.4	-42.9	13.1	4.11e-05	0	62	0	1162870784	52	4770
2026-01-26 22:47:31.41	113.01	34.36	-40.3	-42.8	13.3	1.90e-05	0	62	0	1166016512	52	4717
2026-01-26 22:47:32.43	113.40	34.29	-40.2	-42.6	13.4	1.37e-05	0	62	0	1169162240	52	4637
2026-01-26 22:47:33.43	113.77	34.22	-40.2	-42.6	13.5	1.29e-05	0	62	0	1172307968	52	4601
2026-01-26 22:47:34.44	114.14	34.15	-40.1	-42.4	13.6	1.14e-05	0	62	0	1175453696	52	4526
2026-01-26 22:47:35.45	114.52	34.08	-40.2	-42.6	13.4	9.90e-06	0	62	0	1178599424	52	4631
2026-01-26 22:47:36.46	114.89	34.01	-40.5	-43.0	13.1	3.05e-05	0	62	0	1181745152	52	4829
2026-01-26 22:47:37.47	115.26	33.94	-40.7	-43.3	12.7	6.86e-05	0	62	0	1184890880	52	5022
2026-01-26 22:47:38.48	115.63	33.87	-40.5	-43.1	12.8	5.34e-05	0	62	0	1188036608	52	4921
2026-01-26 22:47:39.49	116.00	33.79	-40.4	-42.9	13.0	2.82e-05	0	62	0	1191182336	52	4803
2026-01-26 22:47:40.50	116.36	33.72	-40.4	-42.9	13.1	3.50e-05	0	62	0	1194328064	52	4778
2026-01-26 22:47:41.52	116.73	33.64	-40.4	-42.9	13.1	3.66e-05	0	62	0	1197473792	52	4789
2026-01-26 22:47:42.53	117.09	33.56	-40.4	-42.9	13.1	2.67e-05	0	62	0	1200619520	52	4803
2026-01-26 22:47:43.54	117.45	33.48	-40.2	-42.7	13.4	1.52e-05	0	62	0	1203765248	52	4667
2026-01-26 22:47:44.55	117.81	33.40	-40.3	-42.8	13.2	2.89e-05	0	62	0	1206910976	52	4736
2026-01-26 22:47:45.56	118.17	33.32	-40.3	-42.8	13.1	2.89e-05	0	62	0	1210056704	52	4753
2026-01-26 22:47:46.57	118.52	33.24	-40.4	-42.9	13.1	3.35e-05	0	62	0	1213202432	52	4775
2026-01-26 22:47:47.58	118.88	33.16	-40.4	-42.8	13.2	1.83e-05	0	62	0	1216348160	52	4751
2026-01-26 22:47:48.59	119.23	33.07	-40.2	-42.7	13.3	1.90e-05	0	62	0	1219493888	52	4658
2026-01-26 22:47:49.60	119.58	32.99	-40.0	-42.3	13.7	3.80e-06	0	62	0	1222639616	52	4492
2026-01-26 22:47:50.61	119.93	32.90	-40.1	-42.4	13.7	3.80e-06	0	62	0	1225785344	51	4801
2026-01-26 22:47:51.63	120.28	32.81	-40.1	-42.5	13.6	6.10e-06	0	62	0	1228931072	51	4830
2026-01-26 22:47:52.64	120.62	32.73	-40.0	-42.3	13.8	5.30e-06	0	62	0	1232076800	51	4724
2026-01-26 22:47:53.65	120.97	32.64	-40.0	-42.4	13.7	5.30e-06	0	62	0	1235222528	51	4761
2026-01-26 22:47:54.66	121.31	32.55	-40.1	-42.5	13.6	4.50e-06	0	62	0	1238368256	51	4827
2026-01-26 22:47:55.67	121.65	32.46	-40.1	-42.4	13.6	5.30e-06	0	62	0	1241513984	51	4813
2026-01-26 22:47:56.68	121.98	32.37	-40.1	-42.4	13.7	9.10e-06	0	62	0	1244659712	51	4766
2026-01-26 22:47:57.69	122.32	32.28	-40.0	-42.3	13.7	5.30e-06	0	62	0	1247805440	51	4719
2026-01-26 22:47:58.70	122.65	32.18	-40.0	-42.3	13.7	6.80e-06	0	62	0	1250951168	51	4753
2026-01-26 22:47:59.71	122.98	32.09	-39.9	-42.1	13.9	7.60e-06	0	62	0	1254096896	51	4643
2026-01-26 22:48:00.72	123.31	32.00	-39.9	-42.2	13.9	3.80e-06	0	62	0	1257242624	51	4662
2026-01-26 22:48:01.73	123.64	31.90	-39.9	-42.2	13.8	3.80e-06	0	62	0	1260388352	51	4687
2026-01-26 22:48:02.74	123.97	31.81	-39.9	-42.1	13.9	3.00e-06	0	62	0	1263534080	51	4649
2026-01-26 22:48:03.75	124.29	31.71	-39.8	-42.0	14.0	4.50e-06	0	62	0	1266679808	51	4585
2026-01-26 22:48:04.76	124.61	31.61	-39.8	-42.0	14.0	2.20e-06	0	62	0	1269825536	51	4589
2026-01-26 22:48:05.77	124.93	31.52	-39.8	-42.1	13.9	4.50e-06	0	62	0	1272971264	51	4613
2026-01-26 22:48:06.78	125.25	31.42	-39.8	-42.1	13.9	4.50e-06	0	62	0	1276116992	51	4621
2026-01-26 22:48:07.79	125.57	31.32	-39.9	-42.2	13.8	2.20e-06	0	62	0	1279262720	51	4695
2026-01-26 22:48:08.80	125.88	31.22	-39.9	-42.2	13.9	3.80e-06	0	62	0	1282408448	51	4681
2026-01-26 22:48:09.81	126.20	31.12	-39.9	-42.1	13.9	6.10e-06	0	62	0	1285554176	51	4644
2026-01-26 22:48:10.82	126.51	31.02	-39.7	-41.9	14.2	5.30e-06	0	62	0	1288699904	51	4529
2026-01-26 22:48:11.83	126.82	30.92	-39.6	-41.8	14.3	7.00e-07	0	62	0	1291845632	51	4450
2026-01-26 22:48:12.84	127.12	30.82	-39.7	-41.8	14.2	3.00e-06	0	62	0	1294991360	51	4481
2026-01-26 22:48:13.85	127.43	30.71	-39.8	-42.0	14.0	3.00e-06	0	62	0	1298137088	51	4575
2026-01-26 22:48:14.86	127.73	30.61	-39.8	-42.1	14.0	1.50e-06	0	62	0	1301282816	51	4610
2026-01-26 22:48:15.87	128.03	30.51	-39.8	-42.1	14.0	3.80e-06	0	62	0	1304428544	51	4611
2026-01-26 22:48:16.88	128.33	30.41	-39.9	-42.1	13.9	3.00e-06	0	62	0	1307574272	51	4649
2026-01-26 22:48:17.89	128.63	30.30	-39.8	-42.1	14.0	3.80e-06	0	62	0	1310720000	51	4615
2026-01-26 22:48:18.90	128.93	30.20	-39.8	-42.1	14.0	3.00e-06	0	62	0	1313865728	51	4602
2026-01-26 22:48:19.91	129.22	30.09	-39.7	-41.9	14.1	1.50e-06	0	62	0	1317011456	51	4536
2026-01-26 22:48:20.92	129.51	29.99	-39.6	-41.8	14.3	1.50e-06	0	62	0	1320157184	51	4452
2026-01-26 22:48:21.93	129.80	29.88	-39.6	-41.8	14.2	1.50e-06	0	62	0	1323302912	51	4451
2026-01-26 22:48:22.94	130.09	29.77	-39.5	-41.6	14.5	0.00e+00	0	62	0	1326448640	51	4357
2026-01-26 22:48:23.95	130.38	29.67	-39.5	-41.6	14.5	7.00e-07	0	62	0	1329594368	50	4601
2026-01-26 22:48:24.96	130.66	29.56	-39.4	-41.5	14.5	1.50e-06	0	62	0	1332740096	50	4549
2026-01-26 22:48:25.97	130.95	29.45	-39.4	-41.5	14.5	0.00e+00	0	62	0	1335885824	50	4582
2026-01-26 22:48:26.98	131.23	29.35	-39.4	-41.5	14.6	0.00e+00	0	62	0	1339031552	50	4564
2026-01-26 22:48:27.99	131.51	29.24	-39.4	-41.5	14.5	7.00e-07	0	62	0	1342177280	50	4580
2026-01-26 22:48:29.00	131.78	29.13	-39.4	-41.4	14.6	7.00e-07	0	62	0	1345323008	50	4543
2026-01-26 22:48:30.01	132.06	29.02	-39.4	-41.4	14.7	1.50e-06	0	62	0	1348468736	50	4514
2026-01-26 22:48:31.02	132.33	28.91	-39.5	-41.5	14.5	0.00e+00	0	62	0	1351614464	50	4591
2026-01-26 22:48:32.03	132.60	28.80	-39.7	-41.9	14.2	1.50e-06	0	62	0	1354760192	50	4761
2026-01-26 22:48:33.04	132.87	28.69	-39.9	-42.1	13.9	3.80e-06	0	62	0	1357905920	50	4900
2026-01-26 22:48:34.05	133.14	28.59	-39.9	-42.2	13.8	8.30e-06	0	62	0	1361051648	50	4954
2026-01-26 22:48:35.06	133.41	28.48	-39.9	-42.2	13.9	3.80e-06	0	62	0	1364197376	50	4943
2026-01-26 22:48:36.07	133.67	28.37	-39.9	-42.2	13.8	5.30e-06	0	62	0	1367343104	50	4955
2026-01-26 22:48:37.08	133.94	28.26	-39.7	-41.9	14.1	7.00e-07	0	62	0	1370488832	50	4797
2026-01-26 22:48:38.09	134.20	28.14	-39.7	-41.9	14.1	1.50e-06	0	62	0	1373634560	50	4812
2026-01-26 22:48:39.10	134.46	28.03	-39.5	-41.7	14.3	0.00e+00	0	62	0	1376780288	50	4652
2026-01-26 22:48:40.11	134.71	27.92	-39.5	-41.6	14.4	7.00e-07	0	62	0	1379926016	50	4630
2026-01-26 22:48:41.12	134.97	27.81	-39.5	-41.6	14.4	0.00e+00	0	62	0	1383071744	50	4648
2026-01-26 22:48:42.13	135.23	27.70	-39.5	-41.5	14.5	0.00e+00	0	62	0	1386217472	50	4597
2026-01-26 22:48:43.14	135.48	27.59	-39.4	-41.5	14.5	7.00e-07	0	62	0	1390411776	50	4580
2026-01-26 22:48:44.16	135.73	27.48	-39.5	-41.6	14.5	7.00e-07	0	62	0	1392508928	50	4612
2026-01-26 22:48:45.17	135.98	27.37	-39.4	-41.5	14.6	7.00e-07	0	62	0	1395654656	50	4572
2026-01-26 22:48:46.18	136.23	27.25	-39.4	-41.5	14.6	0.00e+00	0	62	0	1398800384	50	4547
2026-01-26 22:48:47.19	136.47	27.14	-39.5	-41.6	14.4	7.00e-07	0	62	0	1402994688	50	4619
2026-01-26 22:48:48.20	136.72	27.03	-39.6	-41.7	14.4	0.00e+00	0	62	0	1406140416	50	4679
2026-01-26 22:48:49.21	136.96	26.92	-39.5	-41.6	14.5	7.00e-07	0	62	0	1409286144	50	4620
2026-01-26 22:48:50.22	137.20	26.81	-39.5	-41.6	14.5	7.00e-07	0	62	0	1412431872	50	4620
2026-01-26 22:48:51.24	137.44	26.69	-39.5	-41.6	14.4	1.50e-06	0	62	0	1414529024	50	4619
2026-01-26 22:48:52.25	137.68	26.58	-39.5	-41.6	14.4	0.00e+00	0	62	0	1418723328	50	4642
2026-01-26 22:48:53.26	137.91	26.47	-39.6	-41.8	14.2	7.00e-07	0	62	0	1421869056	50	4710
2026-01-26 22:48:54.27	138.15	26.36	-39.7	-41.9	14.1	3.00e-06	0	62	0	1425014784	50	4788
2026-01-26 22:48:55.28	138.38	26.25	-39.7	-41.9	14.1	3.00e-06	0	62	0	1428160512	50	4770
2026-01-26 22:48:56.29	138.61	26.13	-39.6	-41.7	14.3	2.20e-06	0	62	0	1431306240	50	4691
2026-01-26 22:48:57.30	138.84	26.02	-39.5	-41.6	14.4	0.00e+00	0	62	0	1434451968	50	4613
2026-01-26 22:48:58.31	139.07	25.91	-39.5	-41.6	14.4	1.50e-06	0	62	0	1437597696	50	4626
2026-01-26 22:48:59.33	139.30	25.80	-39.5	-41.6	14.4	7.00e-07	0	62	0	1440743424	50	4639
2026-01-26 22:49:00.33	139.52	25.68	-39.4	-41.5	14.5	7.00e-07	0	62	0	1443889152	50	4564
2026-01-26 22:49:01.34	139.74	25.57	-39.3	-41.4	14.6	7.00e-07	0	62	0	1447034880	50	4499
2026-01-26 22:49:02.35	139.96	25.46	-39.2	-41.2	14.8	0.00e+00	0	62	0	1450180608	50	4421
2026-01-26 22:49:03.36	140.18	25.35	-39.3	-41.3	14.7	0.00e+00	0	62	0	1453326336	50	4453
2026-01-26 22:49:04.37	140.40	25.24	-39.2	-41.2	14.8	0.00e+00	0	62	0	1456472064	50	4437
2026-01-26 22:49:05.38	140.62	25.12	-39.3	-41.3	14.7	0.00e+00	0	62	0	1459617792	50	4455
2026-01-26 22:49:06.39	140.83	25.01	-39.3	-41.3	14.7	0.00e+00	0	62	0	1462763520	50	4461
2026-01-26 22:49:07.39	141.05	24.90	-39.3	-41.4	14.6	7.00e-07	0	62	0	1465909248	50	4514
2026-01-26 22:49:08.40	141.26	24.79	-39.3	-41.3	14.7	0.00e+00	0	62	0	1469054976	50	4464
2026-01-26 22:49:09.41	141.47	24.68	-39.3	-41.4	14.6	0.00e+00	0	62	0	1472200704	50	4500
2026-01-26 22:49:10.42	141.68	24.57	-39.3	-41.4	14.6	0.00e+00	0	62	0	1475346432	50	4503
2026-01-26 22:49:11.43	141.89	24.45	-39.2	-41.3	14.7	0.00e+00	0	62	0	1478492160	50	4444
2026-01-26 22:49:12.45	142.10	24.34	-39.2	-41.2	14.7	0.00e+00	0	62	0	1481637888	50	4441
2026-01-26 22:49:13.46	142.30	24.23	-39.2	-41.2	14.7	0.00e+00	0	62	0	1484783616	50	4433
2026-01-26 22:49:14.47	142.50	24.12	-39.3	-41.3	14.6	7.00e-07	0	62	0	1487929344	50	4458
2026-01-26 22:49:15.47	142.70	24.01	-39.3	-41.4	14.6	7.00e-07	0	62	0	1491075072	50	4495
2026-01-26 22:49:16.49	142.91	23.90	-39.3	-41.3	14.6	0.00e+00	0	62	0	1494220800	50	4487
2026-01-26 22:49:17.50	143.11	23.78	-39.4	-41.4	14.5	7.00e-07	0	62	0	1497366528	50	4543
2026-01-26 22:49:18.51	143.31	23.67	-39.3	-41.4	14.6	0.00e+00	0	62	0	1500512256	50	4525
2026-01-26 22:49:19.52	143.50	23.56	-39.3	-41.4	14.6	7.00e-07	0	62	0	1503657984	50	4515
2026-01-26 22:49:20.53	143.70	23.45	-39.4	-41.4	14.5	0.00e+00	0	62	0	1506803712	50	4545
2026-01-26 22:49:21.54	143.89	23.34	-39.3	-41.4	14.6	0.00e+00	0	62	0	1509949440	50	4510
2026-01-26 22:49:22.55	144.09	23.23	-39.4	-41.5	14.5	0.00e+00	0	62	0	1513095168	50	4579
2026-01-26 22:49:23.55	144.27	23.12	-39.5	-41.6	14.4	0.00e+00	0	62	0	1516240896	50	4604
2026-01-26 22:49:24.57	144.47	23.01	-39.6	-41.7	14.2	0.00e+00	0	62	0	1519386624	50	4693
2026-01-26 22:49:25.58	144.66	22.90	-39.6	-41.8	14.2	1.50e-06	0	62	0	1522532352	50	4716
2026-01-26 22:49:26.59	144.84	22.79	-39.6	-41.8	14.2	2.20e-06	0	62	0	1525678080	50	4708
2026-01-26 22:49:27.60	145.03	22.68	-39.6	-41.7	14.2	2.20e-06	0	62	0	1528823808	50	4696
2026-01-26 22:49:28.61	145.21	22.57	-39.6	-41.8	14.2	7.00e-07	0	62	0	1531969536	50	4718
2026-01-26 22:49:29.62	145.40	22.46	-39.6	-41.8	14.1	7.00e-07	0	62	0	1535115264	50	4750
2026-01-26 22:49:30.63	145.58	22.35	-39.6	-41.8	14.1	1.50e-06	0	62	0	1538260992	50	4753
2026-01-26 22:49:31.64	145.76	22.25	-39.6	-41.8	14.1	1.50e-06	0	62	0	1541406720	50	4711
2026-01-26 22:49:32.65	145.94	22.14	-39.7	-41.9	14.1	0.00e+00	0	62	0	1544552448	50	4778
2026-01-26 22:49:33.66	146.12	22.03	-39.6	-41.8	14.1	2.20e-06	0	62	0	1547698176	50	4712
2026-01-26 22:49:34.67	146.30	21.92	-39.6	-41.8	14.1	2.20e-06	0	62	0	1550843904	50	4748
2026-01-26 22:49:35.68	146.48	21.81	-39.7	-41.9	14.0	2.20e-06	0	62	0	1553989632	50	4768
2026-01-26 22:49:36.69	146.65	21.70	-39.8	-42.0	13.9	2.20e-06	0	62	0	1557135360	50	4858
2026-01-26 22:49:37.70	146.83	21.60	-39.8	-42.1	13.9	4.50e-06	0	62	0	1560281088	50	4872
2026-01-26 22:49:38.71	147.00	21.49	-39.9	-42.2	13.7	3.00e-06	0	62	0	1563426816	50	4945
2026-01-26 22:49:39.72	147.17	21.38	-39.9	-42.2	13.7	3.00e-06	0	62	0	1566572544	50	4962
2026-01-26 22:49:40.73	147.34	21.27	-40.0	-42.3	13.7	8.30e-06	0	62	0	1569718272	50	5000
2026-01-26 22:49:41.74	147.51	21.17	-39.9	-42.1	13.8	7.60e-06	0	62	0	1572864000	50	4925
2026-01-26 22:49:42.75	147.68	21.06	-39.8	-42.1	13.8	3.80e-06	0	62	0	1576009728	50	4920
2026-01-26 22:49:43.76	147.85	20.95	-39.8	-42.1	13.8	3.80e-06	0	62	0	1579155456	50	4914
2026-01-26 22:49:44.77	148.01	20.85	-39.9	-42.2	13.8	5.30e-06	0	62	0	1582301184	50	4933
2026-01-26 22:49:45.78	148.18	20.74	-39.8	-42.1	13.9	3.80e-06	0	62	0	1585446912	50	4879
2026-01-26 22:49:46.79	148.34	20.63	-39.8	-42.1	13.8	7.60e-06	0	62	0	1588592640	50	4883
2026-01-26 22:49:47.80	148.50	20.53	-39.8	-42.1	13.8	5.30e-06	0	62	0	1591738368	50	4875
2026-01-26 22:49:48.82	148.67	20.42	-39.8	-42.1	13.8	2.20e-06	0	62	0	1594884096	50	4892
2026-01-26 22:49:49.83	148.83	20.32	-39.9	-42.1	13.8	4.50e-06	0	62	0	1598029824	50	4923
2026-01-26 22:49:50.84	148.99	20.21	-39.8	-42.1	13.8	7.60e-06	0	62	0	1601175552	50	4895
2026-01-26 22:49:51.85	149.14	20.11	-39.8	-42.0	13.9	7.60e-06	0	62	0	1604321280	50	4866
2026-01-26 22:49:52.86	149.30	20.00	-39.7	-42.0	14.0	3.00e-06	0	62	0	1607467008	50	4817
2026-01-26 22:49:53.87	149.46	19.90	-39.7	-41.9	14.0	7.60e-06	0	62	0	1610612736	50	4771
2026-01-26 22:49:54.88	149.61	19.79	-39.7	-41.9	14.0	7.00e-07	0	62	0	1613758464	50	4791
2026-01-26 22:49:55.89	149.77	19.69	-39.7	-41.9	14.0	2.20e-06	0	62	0	1616904192	50	4772
2026-01-26 22:49:56.90	149.92	19.59	-39.7	-41.9	14.0	6.10e-06	0	62	0	1620049920	50	4780
2026-01-26 22:49:57.91	150.07	19.48	-39.6	-41.8	14.1	7.00e-07	0	62	0	1623195648	50	4738
2026-01-26 22:49:58.92	150.22	19.38	-39.5	-41.6	14.3	7.00e-07	0	62	0	1626341376	50	4623
2026-01-26 22:49:59.93	150.37	19.28	-39.5	-41.6	14.3	7.00e-07	0	62	0	1629487104	50	4621
2026-01-26 22:50:00.94	150.52	19.17	-39.5	-41.7	14.2	0.00e+00	0	62	0	1632632832	50	4665
2026-01-26 22:50:01.95	150.67	19.07	-39.5	-41.7	14.2	1.50e-06	0	62	0	1635778560	50	4678
2026-01-26 22:50:02.95	150.82	18.97	-39.5	-41.7	14.2	0.00e+00	0	62	0	1638924288	50	4687
2026-01-26 22:50:03.96	150.97	18.87	-39.5	-41.6	14.3	1.50e-06	0	62	0	1642070016	50	4619
2026-01-26 22:50:04.97	151.11	18.77	-39.4	-41.5	14.4	0.00e+00	0	62	0	1645215744	50	4594
2026-01-26 22:50:05.98	151.26	18.66	-39.5	-41.7	14.2	0.00e+00	0	62	0	1648361472	50	4675
2026-01-26 22:50:06.99	151.40	18.56	-39.6	-41.8	14.1	1.50e-06	0	62	0	1651507200	50	4731
2026-01-26 22:50:08.00	151.54	18.46	-39.6	-41.8	14.1	1.50e-06	0	62	0	1654652928	50	4728
2026-01-26 22:50:09.01	151.68	18.36	-39.6	-41.8	14.1	5.30e-06	0	62	0	1657798656	50	4755
2026-01-26 22:50:10.02	151.82	18.26	-39.6	-41.9	14.0	2.20e-06	0	62	0	1660944384	50	4768
2026-01-26 22:50:11.03	151.96	18.16	-39.7	-41.9	14.0	3.00e-06	0	62	0	1664090112	50	4786
2026-01-26 22:50:12.04	152.10	18.06	-39.7	-41.9	13.9	3.00e-06	0	62	0	1667235840	50	4814
2026-01-26 22:50:13.05	152.24	17.96	-39.7	-41.9	13.9	7.00e-07	0	62	0	1670381568	50	4812
2026-01-26 22:50:14.06	152.38	17.86	-39.7	-42.0	13.9	2.20e-06	0	62	0	1673527296	50	4816
2026-01-26 22:50:15.07	152.52	17.76	-39.8	-42.1	13.8	5.30e-06	0	62	0	1676673024	50	4883
2026-01-26 22:50:16.08	152.65	17.66	-39.8	-42.1	13.8	4.50e-06	0	62	0	1680867328	50	4883
2026-01-26 22:50:17.09	152.79	17.56	-39.8	-42.0	13.8	3.00e-06	0	62	0	1682964480	50	4869
2026-01-26 22:50:18.10	152.92	17.46	-39.8	-42.0	13.8	3.80e-06	0	62	0	1686110208	50	4868
2026-01-26 22:50:19.11	153.05	17.37	-39.8	-42.1	13.7	4.50e-06	0	62	0	1689255936	50	4905
2026-01-26 22:50:20.12	153.18	17.27	-39.8	-42.1	13.7	4.50e-06	0	62	0	1692401664	50	4912
2026-01-26 22:50:21.13	153.32	17.17	-39.9	-42.2	13.6	3.00e-06	0	62	0	1696595968	50	4962
2026-01-26 22:50:22.14	153.45	17.07	-39.9	-42.3	13.5	6.80e-06	0	62	0	1699741696	50	5003
2026-01-26 22:50:23.15	153.58	16.98	-40.0	-42.4	13.5	1.14e-05	0	62	0	1702887424	50	5064
2026-01-26 22:50:24.16	153.71	16.88	-40.0	-42.4	13.5	1.37e-05	0	62	0	1706033152	50	5077
2026-01-26 22:50:25.17	153.83	16.78	-40.0	-42.4	13.4	1.67e-05	0	62	0	1708130304	50	5071
2026-01-26 22:50:26.18	153.96	16.68	-40.0	-42.4	13.4	1.75e-05	0	62	0	1712324608	50	5085
2026-01-26 22:50:27.19	154.09	16.59	-40.0	-42.4	13.4	1.44e-05	0	62	0	1715470336	50	5098
2026-01-26 22:50:28.20	154.21	16.49	-39.9	-42.3	13.6	1.29e-05	0	62	0	1718616064	50	4990
2026-01-26 22:50:29.21	154.34	16.40	-40.0	-42.4	13.4	1.44e-05	0	62	0	1721761792	50	5079
2026-01-26 22:50:30.22	154.46	16.30	-40.0	-42.4	13.4	1.90e-05	0	62	0	1724907520	50	5069
2026-01-26 22:50:31.23	154.59	16.21	-40.0	-42.4	13.4	1.52e-05	0	62	0	1728053248	50	5079
2026-01-26 22:50:32.24	154.71	16.11	-40.0	-42.4	13.4	1.44e-05	0	62	0	1731198976	50	5095
2026-01-26 22:50:33.26	154.83	16.01	-40.0	-42.5	13.3	9.90e-06	0	62	0	1734344704	50	5121
2026-01-26 22:50:34.27	154.95	15.92	-40.1	-42.5	13.2	2.36e-05	0	62	0	1737490432	50	5153
2026-01-26 22:50:35.28	155.07	15.83	-40.1	-42.6	13.1	2.89e-05	0	62	0	1740636160	50	5204
2026-01-26 22:50:36.28	155.19	15.73	-40.2	-42.7	13.1	3.12e-05	0	62	0	1743781888	50	5249
2026-01-26 22:50:37.29	155.31	15.64	-40.2	-42.7	13.1	3.58e-05	0	62	0	1746927616	51	4951
2026-01-26 22:50:38.31	155.43	15.54	-40.2	-42.8	13.0	4.27e-05	0	62	0	1750073344	51	4987
2026-01-26 22:50:39.32	155.55	15.45	-40.2	-42.7	13.0	3.43e-05	0	62	0	1753219072	51	4966
2026-01-26 22:50:40.33	155.66	15.36	-40.2	-42.8	13.0	3.58e-05	0	62	0	1756364800	51	4998
2026-01-26 22:50:41.34	155.78	15.26	-40.3	-42.9	12.8	5.03e-05	0	62	0	1759510528	51	5047
2026-01-26 22:50:42.35	155.90	15.17	-40.2	-42.8	12.9	5.34e-05	0	62	0	1762656256	51	5000
2026-01-26 22:50:43.36	156.01	15.08	-40.3	-42.9	12.8	5.26e-05	0	62	0	1765801984	51	5070
2026-01-26 22:50:44.37	156.12	14.99	-40.3	-42.9	12.8	4.80e-05	0	62	0	1768947712	51	5081
2026-01-26 22:50:45.38	156.24	14.90	-40.3	-42.9	12.8	7.01e-05	0	62	0	1772093440	51	5097
2026-01-26 22:50:46.39	156.35	14.80	-40.4	-43.0	12.8	5.95e-05	0	62	0	1775239168	51	5119
2026-01-26 22:50:47.40	156.46	14.71	-40.3	-42.9	12.9	4.42e-05	0	62	0	1778384896	51	5065
2026-01-26 22:50:48.41	156.57	14.62	-40.3	-42.9	12.8	5.49e-05	0	62	0	1781530624	51	5060
2026-01-26 22:50:49.42	156.69	14.53	-40.3	-42.9	12.8	5.95e-05	0	62	0	1784676352	51	5061
2026-01-26 22:50:50.43	156.80	14.44	-40.2	-42.8	13.0	4.11e-05	0	62	0	1787822080	51	4993
2026-01-26 22:50:51.44	156.90	14.35	-40.3	-42.9	12.9	4.19e-05	0	62	0	1790967808	51	5050
2026-01-26 22:50:52.45	157.01	14.26	-40.3	-42.9	12.9	4.19e-05	0	62	0	1794113536	51	5044
2026-01-26 22:50:53.46	157.12	14.17	-40.2	-42.8	12.9	4.88e-05	0	62	0	1797259264	51	5014
2026-01-26 22:50:54.47	157.23	14.08	-40.2	-42.8	12.9	5.49e-05	0	62	0	1800404992	51	5024
2026-01-26 22:50:55.48	157.34	13.99	-40.2	-42.8	12.9	3.96e-05	0	62	0	1803550720	51	5010
2026-01-26 22:50:56.49	157.44	13.90	-40.2	-42.8	12.8	6.40e-05	0	62	0	1806696448	51	5029
2026-01-26 22:50:57.50	157.55	13.81	-40.3	-42.9	12.7	7.01e-05	0	62	0	1809842176	51	5079
2026-01-26 22:50:58.51	157.65	13.72	-40.3	-42.9	12.8	6.48e-05	0	62	0	1812987904	51	5063
2026-01-26 22:50:59.52	157.76	13.63	-40.3	-43.0	12.6	7.62e-05	0	62	0	1816133632	51	5138
2026-01-26 22:51:00.53	157.86	13.55	-40.4	-43.0	12.6	9.38e-05	0	62	0	1819279360	51	5139
2026-01-26 22:51:01.54	157.97	13.46	-40.4	-43.1	12.5	1.01e-04	0	62	0	1822425088	51	5177
2026-01-26 22:51:02.55	158.07	13.37	-40.5	-43.2	12.4	1.23e-04	0	62	0	1825570816	51	5253
2026-01-26 22:51:03.56	158.17	13.28	-40.5	-43.2	12.3	1.58e-04	0	62	0	1828716544	51	5260
2026-01-26 22:51:04.57	158.27	13.19	-40.5	-43.2	12.3	1.70e-04	0	62	0	1831862272	51	5255
2026-01-26 22:51:05.58	158.37	13.11	-40.4	-43.2	12.3	1.52e-04	0	62	0	1835008000	51	5227
2026-01-26 22:51:06.59	158.47	13.02	-40.5	-43.2	12.2	1.87e-04	0	62	0	1838153728	51	5268
2026-01-26 22:51:07.60	158.57	12.93	-40.5	-43.3	12.2	1.94e-04	0	62	0	1841299456	51	5289
2026-01-26 22:51:08.61	158.67	12.85	-40.4	-43.2	12.4	1.54e-04	0	62	0	1844445184	51	5228
2026-01-26 22:51:09.62	158.77	12.76	-40.5	-43.3	12.2	1.90e-04	0	62	0	1847590912	51	5285
2026-01-26 22:51:10.63	158.87	12.68	-40.5	-43.2	12.3	2.27e-04	0	62	0	1850736640	51	5268
2026-01-26 22:51:11.64	158.97	12.59	-40.4	-43.2	12.3	1.45e-04	0	62	0	1853882368	51	5249
2026-01-26 22:51:12.65	159.06	12.50	-40.5	-43.3	12.2	1.90e-04	0	62	0	1857028096	51	5305
2026-01-26 22:51:13.66	159.16	12.42	-40.4	-43.2	12.3	1.94e-04	0	62	0	1860173824	51	5272
2026-01-26 22:51:14.66	159.25	12.33	-40.4	-43.2	12.3	1.86e-04	0	62	0	1863319552	51	5245
2026-01-26 22:51:15.67	159.35	12.25	-40.5	-43.2	12.2	1.99e-04	0	62	0	1866465280	51	5279
2026-01-26 22:51:16.68	159.45	12.17	-40.4	-43.2	12.3	1.85e-04	0	62	0	1869611008	51	5228
2026-01-26 22:51:17.70	159.54	12.08	-40.4	-43.1	12.4	1.26e-04	0	62	0	1872756736	51	5182
2026-01-26 22:51:18.71	159.63	12.00	-40.4	-43.2	12.3	1.38e-04	0	62	0	1875902464	51	5238
2026-01-26 22:51:19.72	159.73	11.91	-40.4	-43.2	12.3	1.98e-04	0	62	0	1879048192	51	5243
2026-01-26 22:51:20.73	159.82	11.83	-40.4	-43.1	12.4	1.42e-04	0	62	0	1882193920	51	5195
2026-01-26 22:51:21.74	159.91	11.74	-40.4	-43.2	12.3	1.98e-04	0	62	0	1885339648	51	5240
2026-01-26 22:51:22.75	160.00	11.66	-40.5	-43.3	12.2	2.05e-04	0	62	0	1888485376	51	5298
2026-01-26 22:51:23.76	160.10	11.58	-40.4	-43.2	12.3	1.98e-04	0	62	0	1891631104	51	5243
2026-01-26 22:51:24.77	160.19	11.50	-40.5	-43.4	12.1	2.68e-04	0	62	0	1894776832	51	5343
2026-01-26 22:51:25.77	160.28	11.41	-40.5	-43.3	12.2	2.53e-04	0	62	0	1897922560	51	5296
2026-01-26 22:51:26.79	160.37	11.33	-40.5	-43.4	12.0	2.60e-04	0	62	0	1901068288	51	5362
2026-01-26 22:51:27.80	160.46	11.25	-40.5	-43.4	12.0	2.88e-04	0	62	0	1904214016	51	5361
2026-01-26 22:51:28.81	160.55	11.17	-40.6	-43.4	11.9	3.92e-04	0	62	0	1907359744	51	5398
2026-01-26 22:51:29.81	160.63	11.09	-40.5	-43.4	11.9	4.03e-04	0	62	0	1910505472	51	5378
2026-01-26 22:51:30.82	160.72	11.00	-40.6	-43.6	11.7	5.10e-04	0	62	0	1913651200	51	5508
