passes_logs/2026/01/26/R2.0S_Moscow/R2.0S_Moscow__20260126_002540_FENGYUN_3D_rec.log

#Pass ID: 20260126_002540_FENGYUN 3D
#Satellite: FENGYUN 3D
#Configuration: FENGYUN 3D
#almurnet v.1.7.20251203
#Start time: 2026-01-26 00:25:42

#Version: 2.2.20231116
#Station: R2.0S_Moscow
#Location: 37.707566 lon 55.798166 lat
#TLE: 1 43010U 17072A   26025.50461972  .00000046  00000+0  43592-4 0  9990
#TLE: 2 43010  98.9962 357.4844 0002523  89.7890 270.3575 14.19699798424744

#Time	Az	El	Level	Level2	SNR	BER	BlckErr	Temp	State	Recorded	gain1	gain2
2026-01-26 00:25:42.64	24.58	2.12	-42.5	-54.0	3.8	8.46e-01	0	52	0	0	57	12926
2026-01-26 00:25:43.64	24.65	2.18	-42.5	-54.0	3.8	8.46e-01	0	52	104	0	56	13699
2026-01-26 00:25:44.65	24.71	2.24	-42.5	-54.0	3.8	8.46e-01	0	52	104	0	56	13721
2026-01-26 00:25:45.66	24.78	2.29	-42.5	-54.0	3.8	8.47e-01	0	53	104	0	56	13646
2026-01-26 00:25:46.67	24.85	2.35	-42.5	-54.1	3.8	8.45e-01	0	53	104	0	56	13756
2026-01-26 00:25:47.68	24.91	2.41	-42.5	-54.1	3.8	8.47e-01	0	52	104	0	56	13757
2026-01-26 00:25:48.69	24.98	2.46	-42.5	-54.1	3.8	8.46e-01	0	53	104	0	56	13754
2026-01-26 00:25:49.70	25.05	2.52	-42.5	-54.0	3.8	8.45e-01	0	53	104	0	56	13687
2026-01-26 00:25:50.71	25.11	2.58	-42.5	-54.1	3.8	8.45e-01	0	53	104	0	56	13766
2026-01-26 00:25:51.72	25.18	2.64	-42.5	-54.1	3.8	8.46e-01	0	53	104	0	56	13729
2026-01-26 00:25:52.73	25.25	2.70	-42.5	-54.1	3.8	8.47e-01	0	53	104	0	56	13734
2026-01-26 00:25:53.75	25.32	2.75	-42.5	-54.0	3.8	8.47e-01	0	53	104	0	56	13695
2026-01-26 00:25:54.76	25.39	2.81	-42.5	-54.1	3.8	8.46e-01	0	53	104	0	56	13727
2026-01-26 00:25:55.77	25.45	2.87	-42.5	-54.0	3.8	8.45e-01	0	53	104	0	56	13714
2026-01-26 00:25:56.78	25.52	2.93	-42.5	-54.1	3.8	8.46e-01	0	53	104	0	56	13742
2026-01-26 00:25:57.79	25.59	2.99	-42.5	-54.1	3.8	8.46e-01	0	53	104	0	56	13731
2026-01-26 00:25:58.80	25.66	3.04	-42.5	-54.0	3.8	8.47e-01	0	54	104	0	56	13709
2026-01-26 00:25:59.81	25.73	3.10	-42.5	-54.0	3.8	8.47e-01	0	54	104	0	56	13713
2026-01-26 00:26:00.82	25.80	3.16	-42.5	-54.0	3.8	8.46e-01	0	53	104	0	56	13658
2026-01-26 00:26:01.83	25.87	3.22	-42.5	-54.0	3.8	8.45e-01	0	54	104	0	56	13720
2026-01-26 00:26:02.84	25.94	3.28	-42.5	-54.1	3.8	8.46e-01	0	54	104	0	56	13753
2026-01-26 00:26:03.85	26.01	3.34	-42.5	-54.0	3.8	8.45e-01	0	54	104	0	56	13707
2026-01-26 00:26:04.86	26.08	3.40	-42.5	-54.0	3.8	8.46e-01	0	54	104	0	56	13719
2026-01-26 00:26:05.87	26.15	3.46	-42.5	-54.0	3.8	8.47e-01	0	54	104	0	56	13679
2026-01-26 00:26:06.88	26.22	3.51	-42.5	-54.0	3.8	8.46e-01	0	54	104	0	56	13684
2026-01-26 00:26:07.89	26.30	3.57	-42.5	-54.0	3.8	8.46e-01	0	54	104	0	56	13726
2026-01-26 00:26:08.90	26.37	3.63	-42.5	-54.0	3.8	8.45e-01	0	54	104	0	56	13692
2026-01-26 00:26:09.91	26.44	3.69	-42.5	-54.0	3.8	8.45e-01	0	54	104	0	56	13725
2026-01-26 00:26:10.93	26.51	3.75	-42.5	-54.0	3.8	8.47e-01	0	54	104	0	56	13668
2026-01-26 00:26:11.94	26.59	3.81	-42.5	-54.0	3.8	8.46e-01	0	54	104	0	56	13703
2026-01-26 00:26:12.95	26.66	3.87	-42.5	-54.0	3.8	8.47e-01	0	54	104	0	56	13666
2026-01-26 00:26:13.96	26.73	3.93	-42.5	-54.0	3.8	8.45e-01	0	55	104	0	56	13691
2026-01-26 00:26:14.97	26.81	3.99	-42.5	-54.0	3.8	8.46e-01	0	55	104	0	56	13629
2026-01-26 00:26:15.98	26.88	4.05	-42.5	-54.0	3.8	8.46e-01	0	55	104	0	56	13694
2026-01-26 00:26:16.99	26.95	4.11	-42.5	-54.0	3.8	8.46e-01	0	55	104	0	56	13679
2026-01-26 00:26:18.00	27.03	4.17	-42.5	-54.0	3.8	8.46e-01	0	55	104	0	56	13718
2026-01-26 00:26:19.01	27.10	4.23	-42.5	-54.0	3.8	8.46e-01	0	55	104	0	56	13709
2026-01-26 00:26:20.02	27.18	4.29	-42.5	-54.0	3.8	8.47e-01	0	55	104	0	56	13716
2026-01-26 00:26:21.04	27.25	4.35	-42.5	-54.0	3.8	8.46e-01	0	55	104	0	56	13662
2026-01-26 00:26:22.05	27.33	4.41	-42.5	-54.0	3.8	8.46e-01	0	55	104	0	56	13625
2026-01-26 00:26:23.06	27.41	4.47	-42.5	-54.0	3.8	8.45e-01	0	55	104	0	56	13650
2026-01-26 00:26:24.07	27.48	4.54	-42.5	-54.0	3.8	8.47e-01	0	55	104	0	56	13636
2026-01-26 00:26:25.08	27.56	4.60	-42.5	-54.0	3.8	8.47e-01	0	55	104	0	56	13724
2026-01-26 00:26:26.09	27.63	4.66	-42.5	-54.0	3.8	8.47e-01	0	55	104	0	56	13715
2026-01-26 00:26:27.10	27.71	4.72	-42.5	-54.0	3.8	8.48e-01	0	55	104	0	56	13657
2026-01-26 00:26:28.11	27.79	4.78	-42.5	-54.0	3.8	8.45e-01	0	55	104	0	56	13674
2026-01-26 00:26:29.12	27.87	4.84	-42.5	-54.0	3.8	8.46e-01	0	55	104	0	56	13719
2026-01-26 00:26:30.13	27.94	4.90	-42.5	-54.0	3.8	8.46e-01	0	55	104	0	56	13687
2026-01-26 00:26:31.14	28.02	4.96	-42.5	-54.0	3.8	8.46e-01	0	55	104	0	56	13606
2026-01-26 00:26:32.15	28.10	5.03	-42.5	-54.0	3.8	8.45e-01	0	55	104	0	56	13700
2026-01-26 00:26:33.16	28.18	5.09	-42.5	-54.0	3.8	8.47e-01	0	55	104	0	56	13633
2026-01-26 00:26:34.17	28.26	5.15	-42.5	-54.0	3.8	8.46e-01	0	56	104	0	56	13712
2026-01-26 00:26:35.19	28.34	5.21	-42.5	-54.0	3.8	8.47e-01	0	56	104	0	56	13688
2026-01-26 00:26:36.20	28.42	5.27	-42.5	-54.0	3.8	8.46e-01	0	56	104	0	56	13639
2026-01-26 00:26:37.21	28.50	5.34	-42.5	-54.0	3.8	8.45e-01	0	56	104	0	56	13685
2026-01-26 00:26:38.22	28.58	5.40	-42.5	-54.0	3.8	8.47e-01	0	56	104	0	56	13691
2026-01-26 00:26:39.23	28.66	5.46	-42.5	-54.0	3.8	8.48e-01	0	56	104	0	56	13713
2026-01-26 00:26:40.24	28.74	5.52	-42.5	-54.0	3.8	8.45e-01	0	56	104	0	56	13695
2026-01-26 00:26:41.25	28.82	5.58	-42.5	-54.0	3.8	8.46e-01	0	56	104	0	56	13686
2026-01-26 00:26:42.26	28.91	5.65	-42.5	-54.0	3.8	8.45e-01	0	56	104	0	56	13657
2026-01-26 00:26:43.27	28.99	5.71	-42.5	-54.0	3.8	8.46e-01	0	56	104	0	56	13637
2026-01-26 00:26:44.28	29.07	5.77	-42.5	-54.0	3.8	8.47e-01	0	56	104	0	56	13676
2026-01-26 00:26:45.30	29.15	5.84	-42.5	-54.0	3.8	8.46e-01	0	56	104	0	56	13684
2026-01-26 00:26:46.31	29.24	5.90	-42.5	-54.1	3.8	8.46e-01	0	56	104	0	56	13740
2026-01-26 00:26:47.31	29.32	5.96	-42.5	-54.0	3.8	8.46e-01	0	56	104	0	56	13681
2026-01-26 00:26:48.32	29.40	6.02	-42.5	-54.0	3.8	8.45e-01	0	56	104	0	56	13711
2026-01-26 00:26:49.34	29.49	6.09	-42.5	-54.0	3.8	8.45e-01	0	56	104	0	56	13639
2026-01-26 00:26:50.35	29.57	6.15	-42.5	-54.0	3.8	8.46e-01	0	56	104	0	56	13684
2026-01-26 00:26:51.36	29.66	6.22	-42.5	-54.0	3.8	8.47e-01	0	56	104	0	56	13640
2026-01-26 00:26:52.37	29.74	6.28	-42.5	-54.0	3.8	8.46e-01	0	56	104	0	56	13652
2026-01-26 00:26:53.38	29.83	6.34	-42.5	-53.9	3.8	8.47e-01	0	57	104	0	56	13547
2026-01-26 00:26:54.39	29.92	6.41	-42.5	-53.8	3.8	8.47e-01	0	56	104	0	56	13329
2026-01-26 00:26:55.40	30.00	6.47	-42.4	-53.5	3.8	8.46e-01	0	57	104	0	56	12847
2026-01-26 00:26:56.41	30.09	6.54	-42.4	-53.3	3.8	8.46e-01	0	57	104	0	56	12527
2026-01-26 00:26:57.42	30.18	6.60	-42.4	-53.1	3.8	8.46e-01	0	57	104	0	56	12342
2026-01-26 00:26:58.43	30.26	6.66	-42.3	-52.7	3.8	8.46e-01	0	57	104	0	56	11757
2026-01-26 00:26:59.44	30.35	6.73	-42.3	-52.3	3.8	8.45e-01	0	57	104	0	56	11207
2026-01-26 00:27:00.45	30.44	6.79	-42.2	-51.7	3.9	8.44e-01	0	57	104	0	56	10478
2026-01-26 00:27:01.46	30.53	6.86	-42.2	-51.4	3.9	8.45e-01	0	57	104	0	56	10070
2026-01-26 00:27:02.47	30.62	6.92	-42.1	-50.6	4.1	8.45e-01	0	57	104	0	56	9267
2026-01-26 00:27:03.48	30.71	6.99	-42.0	-50.6	4.2	8.37e-01	0	57	0	0	56	9178
2026-01-26 00:27:04.49	30.79	7.05	-42.2	-51.5	4.0	8.43e-01	0	57	0	0	56	10187
2026-01-26 00:27:05.50	30.88	7.12	-42.2	-51.9	3.9	8.44e-01	0	57	104	0	56	10661
2026-01-26 00:27:06.52	30.98	7.18	-42.2	-51.6	3.8	8.46e-01	0	57	104	0	56	10384
2026-01-26 00:27:07.53	31.07	7.25	-42.2	-51.9	3.8	8.45e-01	0	57	104	0	56	10749
2026-01-26 00:27:08.54	31.16	7.31	-42.3	-52.1	3.8	8.45e-01	0	57	104	0	56	11019
2026-01-26 00:27:09.55	31.25	7.38	-42.3	-52.0	3.8	8.43e-01	0	57	104	0	56	10791
2026-01-26 00:27:10.56	31.34	7.44	-42.0	-50.1	4.3	8.42e-01	0	57	0	0	56	8723
2026-01-26 00:27:11.57	31.43	7.51	-41.6	-48.9	4.7	8.12e-01	0	57	0	0	55	8078
2026-01-26 00:27:12.58	31.53	7.58	-41.4	-48.1	5.1	7.78e-01	0	57	0	0	54	7723
2026-01-26 00:27:13.59	31.62	7.64	-41.0	-46.6	6.1	4.35e-01	0	57	0	1048576	54	6548
2026-01-26 00:27:14.60	31.71	7.71	-40.1	-44.4	8.1	1.28e-01	0	57	0	7340032	52	5685
2026-01-26 00:27:15.61	31.81	7.77	-39.5	-42.9	9.7	1.67e-02	0	57	0	12582912	51	5079
2026-01-26 00:27:16.62	31.90	7.84	-38.8	-41.8	10.9	4.38e-03	0	58	0	18874368	49	5012
2026-01-26 00:27:17.63	32.00	7.91	-38.5	-41.2	11.5	1.46e-03	0	58	0	24117248	48	4975
2026-01-26 00:27:18.64	32.09	7.97	-38.4	-41.2	11.5	1.05e-03	0	58	0	30408704	48	4963
2026-01-26 00:27:19.65	32.19	8.04	-39.1	-42.2	10.5	2.81e-03	0	58	0	35651584	48	5584
2026-01-26 00:27:20.66	32.28	8.11	-40.5	-44.0	9.9	2.53e-03	0	58	0	40894464	51	5744
2026-01-26 00:27:21.67	32.38	8.17	-41.0	-46.7	6.6	1.46e-01	0	58	0	45088768	52	7379
2026-01-26 00:27:22.68	32.48	8.24	-38.9	-41.5	11.6	6.29e-01	0	58	104	46137344	49	4834
2026-01-26 00:27:23.69	32.57	8.31	-40.3	-43.8	9.8	8.28e-03	0	58	0	51380224	51	5598
2026-01-26 00:27:24.70	32.67	8.37	-39.3	-42.3	11.1	5.89e-04	0	58	0	56623104	49	5297
2026-01-26 00:27:25.71	32.77	8.44	-39.4	-42.4	11.0	4.36e-02	0	58	0	61865984	50	5050
2026-01-26 00:27:26.72	32.87	8.51	-39.1	-41.8	11.6	1.04e-03	0	58	0	68157440	50	4751
2026-01-26 00:27:27.73	32.97	8.58	-39.0	-41.7	11.7	7.55e-04	0	58	0	73400320	50	4696
2026-01-26 00:27:28.74	33.07	8.64	-39.0	-41.7	11.8	8.56e-04	0	58	0	79691776	50	4678
2026-01-26 00:27:29.76	33.17	8.71	-39.0	-41.7	11.8	7.60e-04	0	58	0	84934656	50	4668
2026-01-26 00:27:30.77	33.27	8.78	-38.8	-41.4	12.2	4.02e-04	0	58	0	90177536	49	4778
2026-01-26 00:27:31.78	33.37	8.85	-39.0	-41.6	12.0	4.32e-04	0	58	0	96468992	49	4898
2026-01-26 00:27:32.79	33.47	8.92	-38.8	-41.3	12.3	3.82e-04	0	58	0	101711872	49	4755
2026-01-26 00:27:33.80	33.57	8.98	-38.8	-41.3	12.3	2.62e-04	0	58	0	108003328	49	4739
2026-01-26 00:27:34.81	33.67	9.05	-38.8	-41.3	12.3	3.33e-04	0	58	0	113246208	49	4747
2026-01-26 00:27:35.82	33.78	9.12	-38.8	-41.4	12.3	2.70e-04	0	58	0	118489088	49	4760
2026-01-26 00:27:36.83	33.88	9.19	-38.8	-41.3	12.4	2.55e-04	0	58	0	124780544	49	4757
2026-01-26 00:27:37.84	33.98	9.26	-38.8	-41.2	12.5	2.68e-04	0	58	0	130023424	49	4678
2026-01-26 00:27:38.86	34.09	9.33	-38.7	-41.1	12.7	9.26e-05	0	58	0	136314880	49	4625
2026-01-26 00:27:39.87	34.19	9.40	-38.6	-41.0	12.9	9.38e-05	0	58	0	141557760	49	4563
2026-01-26 00:27:40.88	34.30	9.46	-38.8	-41.3	12.6	1.34e-04	0	58	0	147849216	49	4730
2026-01-26 00:27:41.89	34.40	9.53	-38.9	-41.3	12.7	9.72e-05	0	58	0	153092096	49	4724
2026-01-26 00:27:42.90	34.51	9.60	-38.7	-41.1	12.9	1.83e-04	0	58	0	159383552	49	4640
2026-01-26 00:27:43.91	34.61	9.67	-38.8	-41.1	12.9	6.29e-05	0	58	0	164626432	49	4641
2026-01-26 00:27:44.92	34.72	9.74	-38.8	-41.2	12.8	8.23e-05	0	58	0	169869312	49	4689
2026-01-26 00:27:45.93	34.83	9.81	-38.6	-41.0	13.1	6.06e-05	0	58	0	176160768	49	4552
2026-01-26 00:27:46.94	34.94	9.88	-38.6	-40.9	13.2	3.77e-05	0	59	0	181403648	49	4520
2026-01-26 00:27:47.95	35.04	9.95	-38.6	-40.8	13.4	1.94e-05	0	59	0	187695104	49	4474
2026-01-26 00:27:48.97	35.15	10.02	-38.5	-40.7	13.5	1.37e-05	0	58	0	192937984	49	4436
2026-01-26 00:27:49.98	35.26	10.09	-38.5	-40.8	13.5	2.28e-05	0	58	0	198180864	49	4443
2026-01-26 00:27:50.99	35.37	10.16	-38.5	-40.6	13.7	1.25e-05	0	58	0	204472320	48	4631
2026-01-26 00:27:52.00	35.48	10.23	-38.5	-40.7	13.7	1.25e-05	0	59	0	209715200	48	4652
2026-01-26 00:27:53.01	35.59	10.30	-38.4	-40.5	13.8	5.70e-06	0	59	0	216006656	48	4568
2026-01-26 00:27:54.02	35.71	10.37	-38.4	-40.5	13.9	1.37e-05	0	59	0	221249536	48	4567
2026-01-26 00:27:55.03	35.82	10.44	-38.3	-40.4	14.0	5.70e-06	0	58	0	226492416	48	4513
2026-01-26 00:27:56.04	35.93	10.51	-38.3	-40.4	14.0	3.40e-06	0	58	0	232783872	48	4527
2026-01-26 00:27:57.05	36.04	10.58	-38.3	-40.4	13.9	1.02e-05	0	59	0	238026752	48	4534
2026-01-26 00:27:58.06	36.16	10.65	-38.3	-40.4	14.0	3.40e-06	0	58	0	244318208	48	4527
2026-01-26 00:27:59.07	36.27	10.73	-38.3	-40.4	14.0	5.70e-06	0	59	0	249561088	48	4530
2026-01-26 00:28:00.08	36.38	10.80	-38.4	-40.5	14.0	5.70e-06	0	59	0	255852544	48	4556
2026-01-26 00:28:01.09	36.50	10.87	-38.4	-40.5	13.9	6.80e-06	0	59	0	261095424	48	4572
2026-01-26 00:28:02.10	36.62	10.94	-38.4	-40.5	14.0	1.14e-05	0	59	0	267386880	48	4576
2026-01-26 00:28:03.11	36.73	11.01	-38.4	-40.4	14.1	5.70e-06	0	59	0	272629760	48	4518
2026-01-26 00:28:04.12	36.85	11.08	-38.4	-40.4	14.1	5.70e-06	0	59	0	277872640	48	4524
2026-01-26 00:28:05.13	36.97	11.15	-38.3	-40.4	14.2	6.80e-06	0	59	0	284164096	48	4503
2026-01-26 00:28:06.14	37.08	11.22	-38.2	-40.2	14.3	4.50e-06	0	59	0	289406976	48	4436
2026-01-26 00:28:07.15	37.20	11.30	-38.2	-40.2	14.3	1.10e-06	0	59	0	295698432	48	4416
2026-01-26 00:28:08.16	37.32	11.37	-38.2	-40.2	14.4	2.20e-06	0	59	0	300941312	48	4392
2026-01-26 00:28:09.18	37.44	11.44	-38.2	-40.1	14.4	1.10e-06	0	59	0	306184192	48	4389
2026-01-26 00:28:10.18	37.56	11.51	-38.2	-40.1	14.5	0.00e+00	0	59	0	312475648	48	4383
2026-01-26 00:28:11.20	37.68	11.59	-38.2	-40.1	14.5	1.10e-06	0	59	0	317718528	48	4377
2026-01-26 00:28:12.20	37.80	11.66	-38.2	-40.1	14.5	1.10e-06	0	59	0	324009984	48	4377
2026-01-26 00:28:13.22	37.92	11.73	-38.2	-40.2	14.5	1.10e-06	0	59	0	329252864	48	4401
2026-01-26 00:28:14.22	38.05	11.80	-38.2	-40.2	14.5	0.00e+00	0	59	0	334495744	48	4392
2026-01-26 00:28:15.23	38.17	11.87	-38.2	-40.1	14.5	0.00e+00	0	59	0	340787200	48	4371
2026-01-26 00:28:16.24	38.29	11.95	-38.3	-40.2	14.4	0.00e+00	0	59	0	346030080	48	4430
2026-01-26 00:28:17.25	38.42	12.02	-38.3	-40.3	14.4	1.10e-06	0	59	0	352321536	48	4448
2026-01-26 00:28:18.26	38.54	12.09	-38.2	-40.2	14.4	1.10e-06	0	59	0	357564416	48	4417
2026-01-26 00:28:19.28	38.67	12.17	-38.3	-40.2	14.4	1.10e-06	0	59	0	363855872	48	4432
2026-01-26 00:28:20.28	38.79	12.24	-38.3	-40.2	14.5	5.70e-06	0	59	0	369098752	48	4428
2026-01-26 00:28:21.29	38.92	12.31	-38.3	-40.2	14.4	4.50e-06	0	59	0	375390208	48	4441
2026-01-26 00:28:22.31	39.05	12.39	-38.1	-40.1	14.6	0.00e+00	0	59	0	380633088	48	4357
2026-01-26 00:28:23.32	39.17	12.46	-38.2	-40.1	14.6	0.00e+00	0	59	0	385875968	48	4365
2026-01-26 00:28:24.33	39.30	12.53	-38.2	-40.1	14.6	0.00e+00	0	59	0	392167424	48	4358
2026-01-26 00:28:25.34	39.43	12.61	-38.1	-40.1	14.7	0.00e+00	0	59	0	397410304	48	4352
2026-01-26 00:28:26.35	39.56	12.68	-38.1	-40.0	14.7	2.20e-06	0	59	0	403701760	48	4327
2026-01-26 00:28:27.36	39.69	12.75	-38.2	-40.1	14.7	0.00e+00	0	59	0	408944640	48	4356
2026-01-26 00:28:28.37	39.82	12.83	-38.1	-40.1	14.7	0.00e+00	0	59	0	414187520	48	4345
2026-01-26 00:28:29.38	39.95	12.90	-38.1	-40.0	14.7	0.00e+00	0	59	0	420478976	48	4337
2026-01-26 00:28:30.39	40.08	12.98	-38.1	-40.1	14.7	1.10e-06	0	59	0	425721856	48	4347
2026-01-26 00:28:31.40	40.22	13.05	-38.1	-40.0	14.7	0.00e+00	0	59	0	432013312	48	4315
2026-01-26 00:28:32.41	40.35	13.13	-38.1	-40.0	14.8	2.20e-06	0	59	0	437256192	48	4298
2026-01-26 00:28:33.42	40.48	13.20	-38.1	-40.0	14.8	0.00e+00	0	59	0	442499072	48	4318
2026-01-26 00:28:34.43	40.62	13.27	-38.1	-40.0	14.8	1.10e-06	0	59	0	448790528	48	4313
2026-01-26 00:28:35.44	40.75	13.35	-38.2	-40.1	14.8	0.00e+00	0	60	0	454033408	48	4342
2026-01-26 00:28:36.45	40.89	13.42	-38.1	-39.9	14.9	0.00e+00	0	59	0	460324864	48	4285
2026-01-26 00:28:37.46	41.03	13.50	-38.0	-39.9	14.9	0.00e+00	0	59	0	465567744	48	4259
2026-01-26 00:28:38.47	41.16	13.57	-38.0	-39.9	14.9	0.00e+00	0	59	0	471859200	48	4271
2026-01-26 00:28:39.48	41.30	13.65	-38.1	-40.0	14.8	0.00e+00	0	59	0	477102080	48	4299
2026-01-26 00:28:40.49	41.44	13.72	-38.1	-40.0	14.8	0.00e+00	0	59	0	483393536	48	4305
2026-01-26 00:28:41.50	41.58	13.80	-38.1	-40.0	14.8	1.10e-06	0	60	0	488636416	48	4319
2026-01-26 00:28:42.51	41.72	13.87	-38.1	-40.0	14.8	0.00e+00	0	59	0	493879296	48	4320
2026-01-26 00:28:43.52	41.86	13.95	-38.1	-40.0	14.9	1.10e-06	0	59	0	500170752	48	4298
2026-01-26 00:28:44.54	42.00	14.02	-37.9	-39.7	15.0	0.00e+00	0	60	0	505413632	47	4428
2026-01-26 00:28:45.55	42.15	14.10	-37.8	-39.6	15.1	0.00e+00	0	60	0	511705088	47	4368
2026-01-26 00:28:46.56	42.29	14.17	-37.7	-39.5	15.2	0.00e+00	0	60	0	516947968	47	4317
2026-01-26 00:28:47.57	42.43	14.25	-37.5	-39.3	15.4	0.00e+00	0	60	0	522190848	47	4222
2026-01-26 00:28:48.58	42.58	14.33	-37.5	-39.3	15.4	0.00e+00	0	59	0	528482304	47	4229
2026-01-26 00:28:49.59	42.72	14.40	-37.4	-39.2	15.6	0.00e+00	0	60	0	533725184	46	4396
2026-01-26 00:28:50.60	42.87	14.48	-37.5	-39.2	15.5	0.00e+00	0	60	0	540016640	46	4436
2026-01-26 00:28:51.61	43.01	14.55	-37.4	-39.2	15.6	0.00e+00	0	60	0	545259520	46	4404
2026-01-26 00:28:52.62	43.16	14.63	-37.4	-39.1	15.7	0.00e+00	0	60	0	550502400	46	4372
2026-01-26 00:28:53.63	43.31	14.70	-37.4	-39.2	15.6	0.00e+00	0	60	0	556793856	46	4395
2026-01-26 00:28:54.64	43.46	14.78	-37.4	-39.2	15.6	0.00e+00	0	60	0	562036736	46	4397
2026-01-26 00:28:55.65	43.61	14.86	-37.4	-39.2	15.6	0.00e+00	0	60	0	568328192	46	4401
2026-01-26 00:28:56.66	43.76	14.93	-37.5	-39.2	15.5	0.00e+00	0	60	0	573571072	46	4423
2026-01-26 00:28:57.67	43.91	15.01	-37.4	-39.2	15.6	0.00e+00	0	60	0	579862528	46	4400
2026-01-26 00:28:58.69	44.06	15.09	-37.4	-39.2	15.6	0.00e+00	0	60	0	585105408	46	4393
2026-01-26 00:28:59.70	44.21	15.16	-37.5	-39.2	15.6	0.00e+00	0	60	0	591396864	46	4407
2026-01-26 00:29:00.71	44.37	15.24	-37.5	-39.3	15.6	0.00e+00	0	60	0	596639744	46	4445
2026-01-26 00:29:01.72	44.52	15.31	-37.5	-39.2	15.6	0.00e+00	0	60	0	601882624	46	4427
2026-01-26 00:29:02.73	44.67	15.39	-37.5	-39.2	15.6	0.00e+00	0	60	0	608174080	46	4433
2026-01-26 00:29:03.74	44.83	15.47	-37.5	-39.3	15.5	0.00e+00	0	60	0	613416960	46	4477
2026-01-26 00:29:04.75	44.99	15.54	-37.6	-39.4	15.5	0.00e+00	0	60	0	619708416	46	4499
2026-01-26 00:29:05.76	45.14	15.62	-37.6	-39.3	15.5	0.00e+00	0	60	0	624951296	46	4468
2026-01-26 00:29:06.77	45.30	15.70	-37.6	-39.3	15.5	0.00e+00	0	60	0	630194176	46	4478
2026-01-26 00:29:07.78	45.46	15.77	-37.6	-39.4	15.4	0.00e+00	0	60	0	636485632	46	4515
2026-01-26 00:29:08.79	45.62	15.85	-37.7	-39.5	15.4	0.00e+00	0	60	0	641728512	46	4550
2026-01-26 00:29:09.80	45.78	15.93	-37.5	-39.3	15.6	0.00e+00	0	60	0	648019968	46	4459
2026-01-26 00:29:10.81	45.94	16.00	-37.4	-39.1	15.7	0.00e+00	0	60	0	653262848	46	4391
2026-01-26 00:29:11.82	46.10	16.08	-37.4	-39.1	15.8	0.00e+00	0	60	0	658505728	46	4361
2026-01-26 00:29:12.83	46.26	16.16	-37.5	-39.2	15.7	0.00e+00	0	60	0	664797184	46	4403
2026-01-26 00:29:13.84	46.43	16.23	-37.5	-39.2	15.7	0.00e+00	0	60	0	670040064	46	4411
2026-01-26 00:29:14.85	46.59	16.31	-37.4	-39.1	15.8	0.00e+00	0	60	0	676331520	46	4362
2026-01-26 00:29:15.86	46.76	16.39	-37.4	-39.1	15.7	0.00e+00	0	60	0	681574400	46	4385
2026-01-26 00:29:16.87	46.92	16.47	-37.4	-39.1	15.8	0.00e+00	0	60	0	687865856	46	4346
2026-01-26 00:29:17.88	47.09	16.54	-37.3	-39.0	15.9	0.00e+00	0	60	0	693108736	46	4303
2026-01-26 00:29:18.89	47.26	16.62	-37.4	-39.1	15.8	0.00e+00	0	60	0	699400192	46	4346
2026-01-26 00:29:19.90	47.42	16.70	-37.3	-39.0	15.9	0.00e+00	0	60	0	704643072	46	4321
2026-01-26 00:29:20.92	47.59	16.77	-37.3	-39.0	15.9	0.00e+00	0	60	0	709885952	46	4323
2026-01-26 00:29:21.93	47.76	16.85	-37.3	-39.0	16.0	0.00e+00	0	60	0	716177408	46	4299
2026-01-26 00:29:22.94	47.94	16.93	-37.2	-38.9	16.0	0.00e+00	0	60	0	721420288	46	4263
2026-01-26 00:29:23.95	48.11	17.01	-37.2	-38.9	16.0	0.00e+00	0	60	0	727711744	46	4265
2026-01-26 00:29:24.96	48.28	17.08	-37.3	-38.9	16.0	0.00e+00	0	60	0	732954624	46	4274
2026-01-26 00:29:25.97	48.45	17.16	-37.2	-38.9	16.1	0.00e+00	0	60	0	738197504	46	4246
2026-01-26 00:29:26.98	48.63	17.24	-37.1	-38.7	16.2	0.00e+00	0	60	0	744488960	46	4162
2026-01-26 00:29:27.99	48.80	17.31	-37.0	-38.6	16.3	0.00e+00	0	60	0	749731840	46	4136
2026-01-26 00:29:29.00	48.98	17.39	-37.0	-38.6	16.3	0.00e+00	0	60	0	756023296	46	4141
2026-01-26 00:29:30.02	49.16	17.47	-37.0	-38.7	16.3	0.00e+00	0	60	0	761266176	46	4147
2026-01-26 00:29:31.03	49.33	17.54	-37.0	-38.6	16.3	0.00e+00	0	60	0	766509056	46	4130
2026-01-26 00:29:32.04	49.51	17.62	-37.0	-38.7	16.3	0.00e+00	0	60	0	772800512	46	4150
2026-01-26 00:29:33.05	49.69	17.70	-37.1	-38.8	16.2	0.00e+00	0	60	0	778043392	46	4211
2026-01-26 00:29:34.06	49.87	17.78	-37.2	-38.8	16.1	0.00e+00	0	60	0	784334848	46	4234
2026-01-26 00:29:35.07	50.05	17.85	-37.1	-38.8	16.2	0.00e+00	0	60	0	789577728	46	4217
2026-01-26 00:29:36.08	50.24	17.93	-37.1	-38.8	16.2	0.00e+00	0	60	0	795869184	46	4198
2026-01-26 00:29:37.09	50.42	18.01	-37.1	-38.7	16.2	0.00e+00	0	60	0	801112064	46	4174
2026-01-26 00:29:38.10	50.60	18.08	-37.1	-38.7	16.3	0.00e+00	0	60	0	807403520	46	4158
2026-01-26 00:29:39.11	50.79	18.16	-37.1	-38.7	16.3	0.00e+00	0	60	0	812646400	46	4177
2026-01-26 00:29:40.12	50.98	18.24	-37.1	-38.7	16.3	0.00e+00	0	60	0	817889280	46	4159
2026-01-26 00:29:41.13	51.16	18.31	-37.0	-38.6	16.4	0.00e+00	0	60	0	824180736	46	4115
2026-01-26 00:29:42.14	51.35	18.39	-36.9	-38.5	16.4	0.00e+00	0	60	0	829423616	45	4327
2026-01-26 00:29:43.15	51.54	18.47	-36.9	-38.5	16.4	0.00e+00	0	60	0	835715072	45	4332
2026-01-26 00:29:44.16	51.73	18.54	-36.9	-38.4	16.5	0.00e+00	0	60	0	840957952	45	4286
2026-01-26 00:29:45.18	51.92	18.62	-36.8	-38.4	16.6	0.00e+00	0	60	0	846200832	45	4267
2026-01-26 00:29:46.19	52.11	18.70	-36.8	-38.4	16.6	0.00e+00	0	60	0	852492288	45	4266
2026-01-26 00:29:47.20	52.30	18.77	-36.8	-38.3	16.6	0.00e+00	0	60	0	857735168	45	4238
2026-01-26 00:29:48.21	52.50	18.85	-36.7	-38.2	16.7	0.00e+00	0	60	0	864026624	45	4192
2026-01-26 00:29:49.22	52.69	18.92	-36.7	-38.2	16.8	0.00e+00	0	60	0	869269504	45	4162
2026-01-26 00:29:50.23	52.89	19.00	-36.8	-38.3	16.7	0.00e+00	0	60	0	874512384	45	4227
2026-01-26 00:29:51.24	53.08	19.08	-36.8	-38.3	16.7	0.00e+00	0	60	0	880803840	45	4220
2026-01-26 00:29:52.25	53.28	19.15	-36.8	-38.3	16.6	0.00e+00	0	60	0	886046720	45	4231
2026-01-26 00:29:53.26	53.48	19.23	-36.7	-38.2	16.8	0.00e+00	0	60	0	892338176	45	4162
2026-01-26 00:29:54.27	53.68	19.30	-36.7	-38.3	16.7	0.00e+00	0	60	0	897581056	45	4204
2026-01-26 00:29:55.28	53.88	19.38	-36.6	-38.1	16.8	0.00e+00	0	60	0	903872512	45	4142
2026-01-26 00:29:56.29	54.08	19.45	-36.6	-38.1	16.9	0.00e+00	0	60	0	909115392	45	4127
2026-01-26 00:29:57.30	54.28	19.53	-36.7	-38.2	16.8	0.00e+00	0	60	0	915406848	45	4165
2026-01-26 00:29:58.31	54.48	19.61	-36.7	-38.3	16.8	0.00e+00	0	60	0	920649728	45	4202
2026-01-26 00:29:59.32	54.69	19.68	-36.8	-38.3	16.7	0.00e+00	0	60	0	925892608	45	4219
2026-01-26 00:30:00.33	54.89	19.76	-36.8	-38.3	16.7	0.00e+00	0	60	0	932184064	45	4225
2026-01-26 00:30:01.35	55.10	19.83	-36.7	-38.3	16.7	0.00e+00	0	60	0	937426944	45	4210
2026-01-26 00:30:02.36	55.31	19.91	-36.8	-38.4	16.7	0.00e+00	0	60	0	943718400	45	4249
2026-01-26 00:30:03.37	55.52	19.98	-36.9	-38.4	16.6	0.00e+00	0	60	0	948961280	45	4286
2026-01-26 00:30:04.38	55.72	20.05	-36.8	-38.3	16.7	0.00e+00	0	60	0	954204160	45	4220
2026-01-26 00:30:05.39	55.93	20.13	-36.8	-38.3	16.7	0.00e+00	0	60	0	960495616	45	4225
2026-01-26 00:30:06.40	56.14	20.20	-36.7	-38.3	16.8	0.00e+00	0	61	0	965738496	45	4199
2026-01-26 00:30:07.41	56.36	20.28	-36.7	-38.3	16.7	0.00e+00	0	60	0	972029952	45	4204
2026-01-26 00:30:08.42	56.57	20.35	-36.7	-38.2	16.8	0.00e+00	0	60	0	977272832	45	4169
2026-01-26 00:30:09.43	56.78	20.42	-36.6	-38.1	16.9	0.00e+00	0	61	0	982515712	45	4144
2026-01-26 00:30:10.44	57.00	20.50	-36.6	-38.1	16.9	0.00e+00	0	60	0	988807168	45	4144
2026-01-26 00:30:11.45	57.21	20.57	-36.6	-38.1	16.9	0.00e+00	0	60	0	994050048	45	4137
2026-01-26 00:30:12.46	57.43	20.64	-36.6	-38.1	16.9	0.00e+00	0	60	0	1000341504	45	4136
2026-01-26 00:30:13.47	57.65	20.72	-36.6	-38.1	16.9	0.00e+00	0	60	0	1005584384	45	4122
2026-01-26 00:30:14.48	57.87	20.79	-36.6	-38.1	16.9	0.00e+00	0	61	0	1011875840	45	4136
2026-01-26 00:30:15.49	58.09	20.86	-36.6	-38.1	16.9	0.00e+00	0	61	0	1017118720	45	4125
2026-01-26 00:30:16.50	58.31	20.93	-36.6	-38.1	16.9	0.00e+00	0	60	0	1023410176	45	4136
2026-01-26 00:30:17.51	58.53	21.01	-36.6	-38.1	17.0	0.00e+00	0	61	0	1028653056	45	4102
2026-01-26 00:30:18.52	58.75	21.08	-36.5	-38.0	17.0	0.00e+00	0	60	0	1033895936	45	4069
2026-01-26 00:30:19.53	58.98	21.15	-36.6	-38.1	17.0	0.00e+00	0	61	0	1040187392	45	4121
2026-01-26 00:30:20.54	59.20	21.22	-36.3	-38.0	16.8	0.00e+00	0	60	0	1045430272	44	4297
2026-01-26 00:30:21.55	59.43	21.29	-36.4	-38.1	16.7	0.00e+00	0	61	0	1051721728	44	4347
2026-01-26 00:30:22.56	59.66	21.36	-36.4	-38.1	16.7	0.00e+00	0	61	0	1056964608	44	4365
2026-01-26 00:30:23.57	59.88	21.43	-36.5	-38.2	16.5	0.00e+00	0	61	0	1062207488	44	4418
2026-01-26 00:30:24.58	60.11	21.50	-36.6	-38.2	16.5	0.00e+00	0	61	0	1068498944	44	4436
2026-01-26 00:30:25.59	60.34	21.57	-36.3	-37.9	16.8	0.00e+00	0	61	0	1073741824	44	4289
2026-01-26 00:30:26.60	60.57	21.64	-36.1	-37.7	17.1	0.00e+00	0	60	0	1080033280	44	4175
2026-01-26 00:30:27.61	60.81	21.71	-35.8	-37.3	17.3	0.00e+00	0	61	0	1085276160	43	4234
2026-01-26 00:30:28.62	61.04	21.78	-35.8	-37.3	17.2	0.00e+00	0	61	0	1090519040	43	4240
2026-01-26 00:30:29.63	61.27	21.85	-35.9	-37.4	17.2	0.00e+00	0	61	0	1096810496	43	4266
2026-01-26 00:30:30.64	61.51	21.92	-35.9	-37.5	17.1	0.00e+00	0	61	0	1102053376	43	4306
2026-01-26 00:30:31.65	61.75	21.99	-36.0	-37.6	17.0	0.00e+00	0	61	0	1108344832	43	4350
2026-01-26 00:30:32.67	61.99	22.06	-36.1	-37.7	16.9	0.00e+00	0	61	0	1113587712	43	4440
2026-01-26 00:30:33.68	62.22	22.12	-36.2	-37.9	16.7	0.00e+00	0	60	0	1119879168	43	4507
2026-01-26 00:30:34.69	62.46	22.19	-36.2	-37.8	16.8	0.00e+00	0	61	0	1125122048	43	4492
2026-01-26 00:30:35.70	62.70	22.26	-36.1	-37.7	16.9	0.00e+00	0	61	0	1131413504	43	4416
2026-01-26 00:30:36.71	62.95	22.33	-36.1	-37.7	16.9	0.00e+00	0	61	0	1136656384	43	4397
2026-01-26 00:30:37.72	63.19	22.39	-35.9	-37.5	17.0	0.00e+00	0	61	0	1141899264	43	4339
2026-01-26 00:30:38.73	63.43	22.46	-35.9	-37.5	17.1	0.00e+00	0	61	0	1148190720	43	4314
2026-01-26 00:30:39.74	63.68	22.52	-35.9	-37.5	17.1	0.00e+00	0	61	0	1153433600	43	4292
2026-01-26 00:30:40.75	63.92	22.59	-35.9	-37.5	17.1	0.00e+00	0	61	0	1159725056	43	4330
2026-01-26 00:30:41.76	64.17	22.65	-35.9	-37.5	17.1	0.00e+00	0	61	0	1164967936	43	4314
2026-01-26 00:30:42.77	64.42	22.72	-35.9	-37.5	17.1	0.00e+00	0	61	0	1170210816	43	4325
2026-01-26 00:30:43.78	64.66	22.78	-35.9	-37.5	17.1	0.00e+00	0	61	0	1176502272	43	4309
2026-01-26 00:30:44.79	64.91	22.85	-35.9	-37.5	17.0	0.00e+00	0	61	0	1181745152	43	4330
2026-01-26 00:30:45.80	65.16	22.91	-36.0	-37.6	17.0	0.00e+00	0	61	0	1188036608	43	4350
2026-01-26 00:30:46.81	65.42	22.97	-35.9	-37.5	17.1	0.00e+00	0	61	0	1193279488	43	4296
2026-01-26 00:30:47.82	65.67	23.04	-35.8	-37.4	17.2	0.00e+00	0	61	0	1198522368	43	4274
2026-01-26 00:30:48.83	65.92	23.10	-35.8	-37.4	17.2	0.00e+00	0	61	0	1204813824	43	4280
2026-01-26 00:30:49.85	66.18	23.16	-35.8	-37.4	17.2	0.00e+00	0	61	0	1210056704	43	4264
2026-01-26 00:30:50.86	66.43	23.22	-35.8	-37.3	17.3	0.00e+00	0	61	0	1216348160	43	4219
2026-01-26 00:30:51.87	66.69	23.28	-35.7	-37.2	17.3	0.00e+00	0	61	0	1221591040	43	4184
2026-01-26 00:30:52.88	66.95	23.34	-35.7	-37.3	17.3	0.00e+00	0	61	0	1227882496	43	4200
2026-01-26 00:30:53.89	67.21	23.40	-35.9	-37.5	17.1	0.00e+00	0	61	0	1233125376	43	4304
2026-01-26 00:30:54.90	67.47	23.46	-35.8	-37.3	17.2	0.00e+00	0	61	0	1239416832	43	4241
2026-01-26 00:30:55.91	67.73	23.52	-35.8	-37.4	17.2	0.00e+00	0	61	0	1244659712	43	4270
2026-01-26 00:30:56.92	67.99	23.58	-35.8	-37.4	17.2	0.00e+00	0	61	0	1249902592	43	4277
2026-01-26 00:30:57.93	68.25	23.64	-35.8	-37.4	17.2	0.00e+00	0	61	0	1256194048	43	4271
2026-01-26 00:30:58.94	68.51	23.70	-35.8	-37.4	17.2	0.00e+00	0	61	0	1261436928	43	4246
2026-01-26 00:30:59.95	68.78	23.75	-35.7	-37.3	17.3	0.00e+00	0	61	0	1267728384	43	4204
2026-01-26 00:31:00.96	69.04	23.81	-35.7	-37.2	17.4	0.00e+00	0	61	0	1272971264	43	4165
2026-01-26 00:31:01.97	69.31	23.87	-35.7	-37.2	17.4	0.00e+00	0	61	0	1278214144	43	4173
2026-01-26 00:31:02.98	69.58	23.92	-35.8	-37.3	17.3	0.00e+00	0	61	0	1284505600	43	4208
2026-01-26 00:31:03.99	69.85	23.98	-35.7	-37.2	17.4	0.00e+00	0	61	0	1289748480	43	4177
2026-01-26 00:31:05.00	70.11	24.03	-35.7	-37.2	17.3	0.00e+00	0	61	0	1296039936	43	4187
2026-01-26 00:31:06.01	70.38	24.09	-35.7	-37.3	17.3	0.00e+00	0	61	0	1301282816	43	4212
2026-01-26 00:31:07.02	70.66	24.14	-35.8	-37.3	17.3	0.00e+00	0	61	0	1306525696	43	4225
2026-01-26 00:31:08.03	70.93	24.19	-35.6	-37.2	17.5	0.00e+00	0	61	0	1312817152	43	4150
2026-01-26 00:31:09.04	71.20	24.25	-35.6	-37.1	17.5	0.00e+00	0	61	0	1318060032	43	4132
2026-01-26 00:31:10.05	71.47	24.30	-35.7	-37.2	17.4	0.00e+00	0	61	0	1324351488	43	4165
2026-01-26 00:31:11.06	71.75	24.35	-35.7	-37.2	17.4	0.00e+00	0	61	0	1329594368	43	4189
2026-01-26 00:31:12.08	72.03	24.40	-35.8	-37.3	17.3	0.00e+00	0	61	0	1335885824	43	4221
2026-01-26 00:31:13.09	72.30	24.45	-35.8	-37.3	17.3	0.00e+00	0	61	0	1341128704	43	4240
2026-01-26 00:31:14.10	72.58	24.50	-35.6	-37.1	17.5	0.00e+00	0	61	0	1347420160	43	4136
2026-01-26 00:31:15.11	72.86	24.55	-35.6	-37.1	17.5	0.00e+00	0	61	0	1352663040	43	4107
2026-01-26 00:31:16.12	73.14	24.60	-35.5	-37.0	17.6	0.00e+00	0	61	0	1357905920	43	4080
2026-01-26 00:31:17.13	73.42	24.65	-35.5	-37.0	17.6	0.00e+00	0	61	0	1364197376	43	4063
2026-01-26 00:31:18.14	73.70	24.69	-35.5	-37.0	17.6	0.00e+00	0	61	0	1369440256	43	4088
2026-01-26 00:31:19.15	73.98	24.74	-35.4	-36.9	17.6	0.00e+00	0	61	0	1375731712	42	4289
2026-01-26 00:31:20.16	74.26	24.78	-35.5	-37.0	17.6	0.00e+00	0	61	0	1380974592	42	4302
2026-01-26 00:31:21.17	74.54	24.83	-35.4	-36.9	17.7	0.00e+00	0	61	0	1386217472	42	4263
2026-01-26 00:31:22.18	74.83	24.87	-35.4	-36.9	17.6	0.00e+00	0	61	0	1392508928	42	4277
2026-01-26 00:31:23.19	75.11	24.92	-35.4	-36.9	17.6	0.00e+00	0	61	0	1397751808	42	4285
2026-01-26 00:31:24.20	75.40	24.96	-35.4	-36.8	17.8	0.00e+00	0	61	0	1404043264	42	4228
2026-01-26 00:31:25.21	75.68	25.00	-35.4	-36.8	17.8	0.00e+00	0	61	0	1409286144	42	4237
2026-01-26 00:31:26.22	75.97	25.05	-35.4	-36.9	17.7	0.00e+00	0	61	0	1414529024	42	4274
2026-01-26 00:31:27.23	76.26	25.09	-35.5	-37.0	17.7	0.00e+00	0	61	0	1420820480	42	4299
2026-01-26 00:31:28.25	76.55	25.13	-35.6	-37.1	17.5	0.00e+00	0	61	0	1426063360	42	4374
2026-01-26 00:31:29.26	76.84	25.17	-35.5	-37.0	17.6	0.00e+00	0	61	0	1432354816	42	4327
2026-01-26 00:31:30.27	77.13	25.21	-35.4	-36.9	17.7	0.00e+00	0	61	0	1437597696	42	4278
2026-01-26 00:31:31.28	77.42	25.25	-35.4	-36.9	17.7	0.00e+00	0	61	0	1443889152	42	4257
2026-01-26 00:31:32.29	77.71	25.28	-35.4	-36.9	17.7	0.00e+00	0	61	0	1449132032	42	4267
2026-01-26 00:31:33.30	78.00	25.32	-35.5	-37.0	17.7	0.00e+00	0	61	0	1455423488	42	4307
2026-01-26 00:31:34.31	78.29	25.36	-35.4	-36.9	17.7	0.00e+00	0	61	0	1460666368	42	4287
2026-01-26 00:31:35.32	78.59	25.39	-35.3	-36.7	17.9	0.00e+00	0	61	0	1465909248	42	4193
2026-01-26 00:31:36.33	78.88	25.43	-35.3	-36.8	17.9	0.00e+00	0	61	0	1472200704	42	4200
2026-01-26 00:31:37.33	79.17	25.46	-35.3	-36.8	17.9	0.00e+00	0	61	0	1477443584	42	4199
2026-01-26 00:31:38.34	79.47	25.50	-35.3	-36.7	17.9	0.00e+00	0	61	0	1483735040	42	4178
2026-01-26 00:31:39.36	79.77	25.53	-35.2	-36.7	17.9	0.00e+00	0	61	0	1488977920	42	4155
2026-01-26 00:31:40.37	80.06	25.56	-35.2	-36.7	17.9	0.00e+00	0	61	0	1494220800	42	4148
2026-01-26 00:31:41.38	80.36	25.59	-35.1	-36.6	18.0	0.00e+00	0	61	0	1500512256	42	4119
2026-01-26 00:31:42.39	80.66	25.62	-35.2	-36.7	17.9	0.00e+00	0	61	0	1505755136	42	4160
2026-01-26 00:31:43.40	80.96	25.65	-35.3	-36.8	17.9	0.00e+00	0	61	0	1512046592	42	4205
2026-01-26 00:31:44.41	81.25	25.68	-35.2	-36.7	17.9	0.00e+00	0	61	0	1517289472	42	4170
2026-01-26 00:31:45.42	81.55	25.71	-35.2	-36.7	17.9	0.00e+00	0	61	0	1522532352	42	4173
2026-01-26 00:31:46.43	81.85	25.74	-35.4	-36.8	17.7	0.00e+00	0	61	0	1528823808	42	4241
2026-01-26 00:31:47.44	82.15	25.76	-35.4	-36.9	17.7	0.00e+00	0	61	0	1534066688	42	4279
2026-01-26 00:31:48.45	82.45	25.79	-35.4	-36.9	17.7	0.00e+00	0	61	0	1540358144	42	4287
2026-01-26 00:31:49.46	82.76	25.81	-35.3	-36.8	17.8	0.00e+00	0	61	0	1545601024	42	4229
2026-01-26 00:31:50.47	83.06	25.84	-35.2	-36.7	17.9	0.00e+00	0	61	0	1551892480	42	4154
2026-01-26 00:31:51.48	83.36	25.86	-35.3	-36.8	17.8	0.00e+00	0	61	0	1557135360	42	4213
2026-01-26 00:31:52.49	83.66	25.88	-35.4	-36.9	17.7	0.00e+00	0	61	0	1563426816	42	4252
2026-01-26 00:31:53.50	83.96	25.90	-35.4	-36.8	17.8	0.00e+00	0	61	0	1568669696	42	4238
2026-01-26 00:31:54.51	84.27	25.92	-35.4	-37.0	17.6	0.00e+00	0	61	0	1573912576	42	4301
2026-01-26 00:31:55.52	84.57	25.94	-35.5	-37.1	17.6	0.00e+00	0	61	0	1580204032	42	4357
2026-01-26 00:31:56.53	84.88	25.96	-35.5	-37.0	17.6	0.00e+00	0	61	0	1585446912	42	4314
2026-01-26 00:31:57.54	85.18	25.98	-35.5	-37.0	17.6	0.00e+00	0	61	0	1591738368	42	4340
2026-01-26 00:31:58.55	85.49	26.00	-35.5	-37.0	17.6	0.00e+00	0	61	0	1596981248	42	4328
2026-01-26 00:31:59.56	85.79	26.02	-35.4	-37.0	17.7	0.00e+00	0	61	0	1602224128	42	4299
2026-01-26 00:32:00.56	86.09	26.03	-35.4	-37.0	17.7	0.00e+00	0	61	0	1608515584	42	4295
2026-01-26 00:32:01.57	86.40	26.05	-35.4	-36.9	17.8	0.00e+00	0	61	0	1613758464	42	4243
2026-01-26 00:32:02.58	86.70	26.06	-35.3	-36.8	17.8	0.00e+00	0	61	0	1619001344	42	4217
2026-01-26 00:32:03.59	87.01	26.07	-35.3	-36.8	17.8	0.00e+00	0	61	0	1625292800	42	4239
2026-01-26 00:32:04.60	87.32	26.09	-35.4	-37.0	17.7	0.00e+00	0	61	0	1630535680	42	4301
2026-01-26 00:32:05.61	87.62	26.10	-35.3	-36.8	17.8	0.00e+00	0	61	0	1636827136	42	4219
2026-01-26 00:32:06.62	87.93	26.11	-35.3	-36.7	17.9	0.00e+00	0	61	0	1642070016	42	4187
2026-01-26 00:32:07.63	88.24	26.12	-35.3	-36.7	17.9	0.00e+00	0	61	0	1648361472	42	4174
2026-01-26 00:32:08.64	88.55	26.13	-35.3	-36.7	18.0	0.00e+00	0	61	0	1653604352	42	4174
2026-01-26 00:32:09.66	88.86	26.14	-35.2	-36.7	18.0	0.00e+00	0	61	0	1659895808	42	4167
2026-01-26 00:32:10.66	89.16	26.14	-35.3	-36.8	17.9	0.00e+00	0	61	0	1665138688	42	4215
2026-01-26 00:32:11.67	89.47	26.15	-35.4	-36.9	17.8	0.00e+00	0	61	0	1670381568	42	4243
2026-01-26 00:32:12.68	89.78	26.16	-35.3	-36.7	18.0	0.00e+00	0	61	0	1676673024	42	4169
2026-01-26 00:32:13.69	90.09	26.16	-35.2	-36.7	18.0	0.00e+00	0	61	0	1681915904	42	4164
2026-01-26 00:32:14.70	90.39	26.16	-35.3	-36.7	17.9	0.00e+00	0	61	0	1688207360	42	4190
2026-01-26 00:32:15.71	90.70	26.17	-35.3	-36.7	18.0	0.00e+00	0	61	0	1693450240	42	4172
2026-01-26 00:32:16.72	91.01	26.17	-35.3	-36.7	18.0	0.00e+00	0	61	0	1698693120	42	4180
2026-01-26 00:32:17.73	91.32	26.17	-35.2	-36.7	18.0	0.00e+00	0	61	0	1704984576	42	4179
2026-01-26 00:32:18.74	91.63	26.17	-35.2	-36.6	18.1	0.00e+00	0	61	0	1710227456	42	4143
2026-01-26 00:32:19.75	91.94	26.17	-35.2	-36.6	18.1	0.00e+00	0	61	0	1716518912	42	4134
2026-01-26 00:32:20.77	92.25	26.17	-35.2	-36.6	18.0	0.00e+00	0	61	0	1721761792	42	4145
2026-01-26 00:32:21.78	92.56	26.17	-35.2	-36.7	18.0	0.00e+00	0	61	0	1727004672	42	4177
2026-01-26 00:32:22.79	92.86	26.16	-35.3	-36.7	18.0	0.00e+00	0	61	0	1733296128	42	4175
2026-01-26 00:32:23.80	93.17	26.16	-35.2	-36.7	18.0	0.00e+00	0	61	0	1738539008	42	4159
2026-01-26 00:32:24.81	93.48	26.15	-35.1	-36.5	18.2	0.00e+00	0	61	0	1744830464	42	4090
2026-01-26 00:32:25.82	93.79	26.15	-35.1	-36.5	18.2	0.00e+00	0	61	0	1750073344	42	4075
2026-01-26 00:32:26.83	94.10	26.14	-35.2	-36.6	18.2	0.00e+00	0	61	0	1756364800	42	4107
2026-01-26 00:32:27.84	94.40	26.13	-35.3	-36.7	18.0	0.00e+00	0	61	0	1761607680	42	4176
2026-01-26 00:32:28.85	94.71	26.13	-35.3	-36.7	18.0	0.00e+00	0	61	0	1767899136	42	4184
2026-01-26 00:32:29.86	95.02	26.12	-35.3	-36.8	17.9	0.00e+00	0	61	0	1773142016	42	4224
2026-01-26 00:32:30.87	95.33	26.11	-35.4	-36.8	17.9	0.00e+00	0	61	0	1778384896	42	4242
2026-01-26 00:32:31.88	95.63	26.10	-35.4	-36.9	17.9	0.00e+00	0	61	0	1784676352	42	4243
2026-01-26 00:32:32.89	95.94	26.08	-35.3	-36.8	17.9	0.00e+00	0	61	0	1789919232	42	4206
2026-01-26 00:32:33.90	96.25	26.07	-35.4	-36.8	17.9	0.00e+00	0	61	0	1796210688	42	4239
2026-01-26 00:32:34.91	96.56	26.06	-35.5	-37.0	17.7	0.00e+00	0	61	0	1801453568	42	4306
2026-01-26 00:32:35.92	96.86	26.04	-35.4	-36.9	17.8	0.00e+00	0	61	0	1806696448	42	4267
2026-01-26 00:32:36.93	97.17	26.03	-35.5	-37.0	17.8	0.00e+00	0	61	0	1812987904	42	4299
2026-01-26 00:32:37.94	97.47	26.01	-35.4	-36.8	17.9	0.00e+00	0	61	0	1818230784	42	4237
2026-01-26 00:32:38.95	97.78	26.00	-35.4	-36.8	17.9	0.00e+00	0	61	0	1824522240	42	4231
2026-01-26 00:32:39.96	98.08	25.98	-35.4	-36.8	17.9	0.00e+00	0	61	0	1829765120	42	4229
2026-01-26 00:32:40.97	98.39	25.96	-35.3	-36.7	18.0	0.00e+00	0	61	0	1835008000	42	4174
2026-01-26 00:32:41.98	98.69	25.94	-35.3	-36.7	18.0	0.00e+00	0	61	0	1841299456	42	4190
2026-01-26 00:32:42.99	99.00	25.92	-35.3	-36.7	18.0	0.00e+00	0	61	0	1846542336	42	4181
2026-01-26 00:32:44.00	99.30	25.90	-35.3	-36.8	18.0	0.00e+00	0	61	0	1852833792	42	4195
2026-01-26 00:32:45.01	99.60	25.88	-35.3	-36.7	18.0	0.00e+00	0	61	0	1858076672	42	4179
2026-01-26 00:32:46.02	99.91	25.85	-35.3	-36.8	17.9	0.00e+00	0	61	0	1864368128	42	4220
2026-01-26 00:32:47.03	100.21	25.83	-35.4	-36.9	17.9	0.00e+00	0	61	0	1869611008	42	4243
2026-01-26 00:32:48.04	100.51	25.81	-35.5	-37.0	17.8	0.00e+00	0	61	0	1875902464	42	4302
2026-01-26 00:32:49.05	100.81	25.78	-35.5	-37.0	17.8	0.00e+00	0	61	0	1881145344	42	4318
2026-01-26 00:32:50.06	101.11	25.76	-35.5	-37.0	17.7	0.00e+00	0	61	0	1886388224	42	4316
2026-01-26 00:32:51.07	101.41	25.73	-35.5	-37.1	17.7	0.00e+00	0	61	0	1892679680	42	4349
2026-01-26 00:32:52.08	101.71	25.70	-35.6	-37.1	17.7	0.00e+00	0	61	0	1897922560	42	4364
2026-01-26 00:32:53.09	102.01	25.67	-35.6	-37.1	17.7	0.00e+00	0	62	0	1904214016	42	4368
2026-01-26 00:32:54.10	102.31	25.64	-35.6	-37.1	17.6	0.00e+00	0	61	0	1909456896	42	4384
2026-01-26 00:32:55.11	102.61	25.61	-35.6	-37.1	17.7	0.00e+00	0	61	0	1914699776	42	4374
2026-01-26 00:32:56.12	102.91	25.58	-35.6	-37.1	17.7	0.00e+00	0	61	0	1920991232	42	4380
2026-01-26 00:32:57.13	103.21	25.55	-35.5	-37.0	17.8	0.00e+00	0	61	0	1926234112	42	4304
2026-01-26 00:32:58.14	103.50	25.52	-35.6	-37.0	17.7	0.00e+00	0	62	0	1931476992	42	4337
2026-01-26 00:32:59.15	103.80	25.49	-35.5	-37.0	17.7	0.00e+00	0	61	0	1937768448	42	4314
2026-01-26 00:33:00.16	104.10	25.45	-35.6	-37.1	17.6	0.00e+00	0	61	0	1943011328	42	4377
2026-01-26 00:33:01.17	104.39	25.42	-35.6	-37.2	17.5	0.00e+00	0	61	0	1949302784	42	4417
2026-01-26 00:33:02.18	104.69	25.38	-35.7	-37.2	17.5	0.00e+00	0	61	0	1954545664	42	4416
2026-01-26 00:33:03.19	104.98	25.35	-35.7	-37.2	17.5	0.00e+00	0	61	0	1960837120	42	4439
2026-01-26 00:33:04.20	105.27	25.31	-35.7	-37.2	17.5	0.00e+00	0	61	0	1966080000	42	4429
2026-01-26 00:33:05.21	105.56	25.27	-35.7	-37.2	17.6	0.00e+00	0	61	0	1972371456	42	4415
2026-01-26 00:33:06.22	105.86	25.24	-35.6	-37.1	17.7	0.00e+00	0	61	0	1977614336	42	4355
2026-01-26 00:33:07.23	106.15	25.20	-35.5	-37.0	17.7	0.00e+00	0	61	0	1982857216	42	4319
2026-01-26 00:33:08.25	106.44	25.16	-35.4	-36.9	17.8	0.00e+00	0	62	0	1989148672	42	4285
2026-01-26 00:33:09.25	106.73	25.12	-35.4	-36.9	17.8	0.00e+00	0	61	0	1994391552	42	4259
2026-01-26 00:33:10.26	107.02	25.08	-35.4	-36.8	17.9	0.00e+00	0	61	0	2000683008	42	4234
2026-01-26 00:33:11.27	107.30	25.03	-35.4	-36.8	17.9	0.00e+00	0	61	0	2005925888	42	4236
2026-01-26 00:33:12.28	107.59	24.99	-35.4	-36.9	17.9	0.00e+00	0	61	0	2011168768	42	4255
2026-01-26 00:33:13.30	107.88	24.95	-35.4	-36.8	17.9	0.00e+00	0	61	0	2017460224	42	4225
2026-01-26 00:33:14.30	108.16	24.91	-35.5	-37.0	17.8	0.00e+00	0	61	0	2022703104	42	4312
2026-01-26 00:33:15.31	108.45	24.86	-35.6	-37.1	17.7	0.00e+00	0	61	0	2028994560	42	4373
2026-01-26 00:33:16.32	108.73	24.82	-35.8	-37.3	17.5	0.00e+00	0	61	0	2034237440	42	4477
2026-01-26 00:33:17.33	109.02	24.77	-35.8	-37.3	17.5	0.00e+00	0	61	0	2039480320	42	4476
2026-01-26 00:33:18.34	109.30	24.72	-35.7	-37.3	17.5	0.00e+00	0	61	0	2045771776	42	4444
2026-01-26 00:33:19.35	109.58	24.68	-35.8	-37.3	17.5	0.00e+00	0	61	0	2051014656	42	4486
2026-01-26 00:33:20.36	109.86	24.63	-35.7	-37.2	17.5	0.00e+00	0	61	0	2057306112	42	4429
2026-01-26 00:33:21.37	110.14	24.58	-35.6	-37.1	17.7	0.00e+00	0	61	0	2062548992	42	4352
2026-01-26 00:33:22.38	110.42	24.53	-35.6	-37.1	17.6	0.00e+00	0	61	0	2068840448	42	4387
2026-01-26 00:33:23.39	110.70	24.48	-35.7	-37.2	17.5	0.00e+00	0	61	0	2074083328	42	4435
2026-01-26 00:33:24.41	110.98	24.43	-35.7	-37.3	17.5	0.00e+00	0	61	0	2080374784	42	4448
2026-01-26 00:33:25.42	111.26	24.38	-35.8	-37.4	17.3	0.00e+00	0	61	0	2085617664	42	4519
2026-01-26 00:33:26.43	111.53	24.33	-35.8	-37.4	17.4	0.00e+00	0	61	0	2090860544	42	4521
2026-01-26 00:33:27.44	111.81	24.28	-35.8	-37.3	17.5	0.00e+00	0	62	0	2097152000	42	4476
2026-01-26 00:33:28.45	112.08	24.23	-35.8	-37.3	17.5	0.00e+00	0	61	0	2102394880	42	4478
2026-01-26 00:33:29.46	112.36	24.17	-35.8	-37.3	17.5	0.00e+00	0	61	0	2108686336	42	4456
2026-01-26 00:33:30.47	112.63	24.12	-35.8	-37.3	17.5	0.00e+00	0	62	0	2113929216	42	4462
2026-01-26 00:33:31.48	112.90	24.07	-35.8	-37.4	17.4	0.00e+00	0	61	0	2119172096	42	4503
2026-01-26 00:33:32.50	113.17	24.01	-35.8	-37.4	17.4	0.00e+00	0	62	0	2125463552	42	4508
2026-01-26 00:33:33.51	113.44	23.96	-35.7	-37.3	17.4	0.00e+00	0	62	0	2130706432	42	4473
2026-01-26 00:33:34.52	113.71	23.90	-35.8	-37.4	17.4	0.00e+00	0	61	0	2136997888	42	4496
2026-01-26 00:33:35.53	113.98	23.85	-35.8	-37.3	17.4	0.00e+00	0	61	0	2142240768	42	4460
2026-01-26 00:33:36.54	114.25	23.79	-35.9	-37.4	17.3	0.00e+00	0	61	0	2148532224	42	4515
2026-01-26 00:33:37.55	114.51	23.73	-35.8	-37.3	17.5	0.00e+00	0	62	0	2153775104	42	4476
2026-01-26 00:33:38.56	114.78	23.67	-35.8	-37.4	17.4	0.00e+00	0	62	0	2159017984	42	4501
2026-01-26 00:33:39.57	115.04	23.62	-35.9	-37.5	17.3	0.00e+00	0	62	0	2165309440	42	4556
2026-01-26 00:33:40.58	115.31	23.56	-36.0	-37.6	17.2	0.00e+00	0	62	0	2170552320	42	4608
2026-01-26 00:33:41.59	115.57	23.50	-36.0	-37.6	17.1	0.00e+00	0	61	0	2176843776	42	4639
2026-01-26 00:33:42.60	115.83	23.44	-36.0	-37.6	17.2	0.00e+00	0	61	0	2182086656	42	4607
2026-01-26 00:33:43.61	116.09	23.38	-36.0	-37.6	17.2	0.00e+00	0	62	0	2188378112	42	4625
2026-01-26 00:33:44.62	116.35	23.32	-35.9	-37.5	17.3	0.00e+00	0	62	0	2193620992	42	4581
2026-01-26 00:33:45.63	116.61	23.26	-36.0	-37.6	17.3	0.00e+00	0	62	0	2198863872	42	4599
2026-01-26 00:33:46.64	116.86	23.19	-35.8	-37.3	17.5	0.00e+00	0	61	0	2205155328	42	4467
2026-01-26 00:33:47.65	117.12	23.13	-35.7	-37.2	17.5	0.00e+00	0	61	0	2210398208	42	4423
2026-01-26 00:33:48.66	117.38	23.07	-35.7	-37.2	17.5	0.00e+00	0	61	0	2216689664	42	4431
2026-01-26 00:33:49.67	117.63	23.01	-35.7	-37.3	17.5	0.00e+00	0	62	0	2221932544	42	4445
2026-01-26 00:33:50.68	117.88	22.94	-35.8	-37.4	17.4	0.00e+00	0	62	0	2227175424	42	4514
2026-01-26 00:33:51.69	118.13	22.88	-35.9	-37.5	17.3	0.00e+00	0	62	0	2233466880	42	4563
2026-01-26 00:33:52.70	118.39	22.82	-36.0	-37.6	17.2	0.00e+00	0	61	0	2238709760	42	4614
2026-01-26 00:33:53.71	118.64	22.75	-36.0	-37.6	17.1	0.00e+00	0	62	0	2245001216	42	4647
2026-01-26 00:33:54.73	118.89	22.69	-36.1	-37.8	17.0	0.00e+00	0	61	0	2250244096	42	4708
2026-01-26 00:33:55.74	119.14	22.62	-36.1	-37.7	17.0	0.00e+00	0	62	0	2255486976	42	4689
2026-01-26 00:33:56.74	119.38	22.56	-36.1	-37.8	16.9	0.00e+00	0	61	0	2261778432	42	4723
2026-01-26 00:33:57.75	119.63	22.49	-36.0	-37.6	17.1	0.00e+00	0	62	0	2267021312	42	4648
2026-01-26 00:33:58.76	119.87	22.43	-36.1	-37.7	17.0	0.00e+00	0	61	0	2273312768	42	4677
2026-01-26 00:33:59.77	120.12	22.36	-36.1	-37.7	17.0	0.00e+00	0	62	0	2278555648	42	4681
2026-01-26 00:34:00.79	120.36	22.29	-36.0	-37.6	17.1	0.00e+00	0	62	0	2284847104	42	4632
2026-01-26 00:34:01.80	120.60	22.22	-36.0	-37.6	17.1	0.00e+00	0	62	0	2290089984	42	4631
2026-01-26 00:34:02.81	120.85	22.16	-36.0	-37.6	17.1	0.00e+00	0	61	0	2296381440	42	4638
2026-01-26 00:34:03.82	121.09	22.09	-36.0	-37.6	17.1	0.00e+00	0	62	0	2301624320	42	4647
2026-01-26 00:34:04.83	121.32	22.02	-36.1	-37.7	17.0	0.00e+00	0	62	0	2306867200	42	4693
2026-01-26 00:34:05.84	121.56	21.95	-36.2	-37.8	16.9	0.00e+00	0	62	0	2313158656	42	4745
2026-01-26 00:34:06.85	121.80	21.88	-36.1	-37.7	17.0	0.00e+00	0	61	0	2318401536	43	4425
2026-01-26 00:34:07.86	122.04	21.81	-36.0	-37.6	17.2	0.00e+00	0	61	0	2324692992	43	4361
2026-01-26 00:34:08.87	122.27	21.74	-36.1	-37.6	17.1	0.00e+00	0	61	0	2329935872	43	4379
2026-01-26 00:34:09.88	122.50	21.67	-36.0	-37.6	17.1	0.00e+00	0	62	0	2335178752	43	4372
2026-01-26 00:34:10.88	122.73	21.60	-36.0	-37.6	17.1	0.00e+00	0	61	0	2341470208	43	4367
2026-01-26 00:34:11.89	122.97	21.53	-35.9	-37.5	17.3	0.00e+00	0	62	0	2346713088	43	4294
2026-01-26 00:34:12.90	123.20	21.46	-36.0	-37.6	17.2	0.00e+00	0	62	0	2353004544	43	4353
2026-01-26 00:34:13.90	123.42	21.39	-36.1	-37.8	16.9	0.00e+00	0	62	0	2358247424	43	4452
2026-01-26 00:34:14.91	123.65	21.32	-36.2	-37.8	16.9	0.00e+00	0	62	0	2363490304	43	4478
2026-01-26 00:34:15.92	123.88	21.25	-36.3	-38.0	16.7	0.00e+00	0	62	0	2369781760	43	4561
2026-01-26 00:34:16.94	124.11	21.18	-36.3	-38.0	16.8	0.00e+00	0	62	0	2375024640	43	4558
2026-01-26 00:34:17.95	124.34	21.11	-36.4	-38.0	16.7	0.00e+00	0	62	0	2381316096	43	4594
2026-01-26 00:34:18.96	124.56	21.03	-36.3	-37.9	16.8	0.00e+00	0	62	0	2386558976	43	4534
2026-01-26 00:34:19.97	124.78	20.96	-36.3	-37.9	16.8	0.00e+00	0	62	0	2392850432	43	4541
2026-01-26 00:34:20.98	125.01	20.89	-36.3	-38.0	16.7	0.00e+00	0	62	0	2398093312	43	4567
2026-01-26 00:34:21.99	125.23	20.82	-36.4	-38.1	16.6	0.00e+00	0	61	0	2403336192	43	4603
2026-01-26 00:34:23.00	125.45	20.74	-36.3	-38.0	16.6	0.00e+00	0	61	0	2409627648	43	4582
2026-01-26 00:34:24.02	125.67	20.67	-36.4	-38.1	16.6	0.00e+00	0	61	0	2414870528	43	4605
2026-01-26 00:34:25.03	125.89	20.60	-36.5	-38.2	16.4	0.00e+00	0	62	0	2421161984	43	4681
2026-01-26 00:34:26.04	126.11	20.52	-36.6	-38.3	16.4	0.00e+00	0	62	0	2426404864	43	4728
2026-01-26 00:34:27.05	126.32	20.45	-36.7	-38.4	16.3	0.00e+00	0	61	0	2432696320	43	4813
2026-01-26 00:34:28.06	126.54	20.37	-36.9	-38.6	16.2	0.00e+00	0	62	0	2437939200	44	4644
2026-01-26 00:34:29.07	126.75	20.30	-36.7	-38.5	16.3	0.00e+00	0	62	0	2443182080	44	4570
2026-01-26 00:34:30.08	126.97	20.23	-36.7	-38.5	16.4	0.00e+00	0	61	0	2449473536	44	4563
2026-01-26 00:34:31.09	127.18	20.15	-36.8	-38.5	16.3	0.00e+00	0	61	0	2454716416	44	4598
2026-01-26 00:34:32.10	127.39	20.08	-36.6	-38.2	16.6	0.00e+00	0	62	0	2461007872	44	4432
2026-01-26 00:34:33.11	127.60	20.00	-36.4	-38.0	16.7	0.00e+00	0	62	0	2466250752	44	4318
2026-01-26 00:34:34.12	127.81	19.93	-36.4	-38.0	16.8	0.00e+00	0	61	0	2471493632	44	4333
2026-01-26 00:34:35.13	128.02	19.85	-36.5	-38.1	16.7	0.00e+00	0	62	0	2477785088	44	4376
2026-01-26 00:34:36.13	128.22	19.78	-36.4	-38.1	16.7	0.00e+00	0	61	0	2483027968	44	4355
2026-01-26 00:34:37.14	128.43	19.70	-36.5	-38.2	16.7	0.00e+00	0	62	0	2489319424	44	4401
2026-01-26 00:34:38.15	128.64	19.63	-36.6	-38.3	16.5	0.00e+00	0	61	0	2494562304	44	4476
2026-01-26 00:34:39.16	128.84	19.55	-36.7	-38.4	16.4	0.00e+00	0	62	0	2499805184	44	4531
2026-01-26 00:34:40.17	129.04	19.47	-36.8	-38.6	16.2	0.00e+00	0	62	0	2506096640	44	4612
2026-01-26 00:34:41.18	129.25	19.40	-36.9	-38.6	16.2	0.00e+00	0	62	0	2511339520	44	4642
2026-01-26 00:34:42.19	129.45	19.32	-36.8	-38.6	16.1	0.00e+00	0	62	0	2517630976	44	4609
2026-01-26 00:34:43.20	129.65	19.25	-36.8	-38.5	16.3	0.00e+00	0	62	0	2522873856	44	4597
2026-01-26 00:34:44.21	129.85	19.17	-36.8	-38.5	16.1	0.00e+00	0	62	0	2529165312	44	4577
2026-01-26 00:34:45.22	130.05	19.09	-36.7	-38.4	16.3	0.00e+00	0	62	0	2534408192	44	4544
2026-01-26 00:34:46.23	130.24	19.02	-36.7	-38.5	16.3	0.00e+00	0	62	0	2539651072	44	4559
2026-01-26 00:34:47.25	130.44	18.94	-36.9	-38.6	16.1	2.20e-06	0	62	0	2545942528	44	4649
2026-01-26 00:34:48.26	130.64	18.86	-36.9	-38.7	16.0	2.40e-05	0	61	0	2551185408	44	4684
2026-01-26 00:34:49.27	130.83	18.79	-36.2	-38.6	14.5	1.24e-03	0	61	0	2557476864	43	4904
2026-01-26 00:34:50.28	131.03	18.71	-37.0	-38.8	15.9	1.37e-05	0	62	0	2562719744	44	4727
2026-01-26 00:34:51.29	131.22	18.63	-36.9	-38.8	15.7	1.02e-05	0	62	0	2569011200	44	4747
2026-01-26 00:34:52.30	131.41	18.55	-36.9	-38.7	16.1	2.28e-05	0	62	0	2574254080	44	4673
2026-01-26 00:34:53.31	131.60	18.48	-37.0	-38.7	15.9	9.10e-06	0	62	0	2579496960	44	4697
2026-01-26 00:34:54.32	131.79	18.40	-36.9	-38.7	16.0	3.80e-04	0	62	0	2585788416	44	4683
2026-01-26 00:34:55.33	131.98	18.32	-36.9	-38.7	16.0	4.00e-05	0	61	0	2591031296	44	4703
2026-01-26 00:34:56.34	132.17	18.25	-37.0	-38.8	15.9	4.69e-05	0	62	0	2596274176	44	4755
2026-01-26 00:34:57.35	132.36	18.17	-37.1	-38.9	15.8	1.05e-04	0	62	0	2602565632	44	4802
2026-01-26 00:34:58.36	132.54	18.09	-37.2	-39.0	15.7	2.03e-02	0	62	0	2607808512	44	4852
2026-01-26 00:34:59.37	132.73	18.01	-37.1	-39.0	15.4	2.66e-04	0	62	0	2614099968	44	4821
2026-01-26 00:35:00.38	132.91	17.94	-37.2	-39.0	15.7	8.01e-05	0	62	0	2619342848	44	4861
2026-01-26 00:35:01.39	133.10	17.86	-37.1	-39.0	15.4	2.08e-04	0	62	0	2625634304	44	4840
2026-01-26 00:35:02.40	133.28	17.78	-37.1	-39.0	15.7	2.39e-04	0	62	0	2630877184	44	4821
2026-01-26 00:35:03.41	133.46	17.70	-37.2	-39.1	15.6	2.80e-04	0	62	0	2637168640	45	4620
2026-01-26 00:35:04.42	133.64	17.63	-37.3	-39.1	15.5	2.16e-04	0	62	0	2642411520	45	4638
2026-01-26 00:35:05.43	133.82	17.55	-37.1	-39.1	15.5	1.94e-04	0	62	0	2647654400	45	4620
2026-01-26 00:35:06.44	134.00	17.47	-37.2	-39.1	15.6	2.51e-04	0	62	0	2653945856	45	4639
2026-01-26 00:35:07.46	134.18	17.39	-37.2	-39.1	15.6	3.41e-04	0	62	0	2659188736	45	4604
2026-01-26 00:35:08.47	134.36	17.32	-37.1	-39.0	15.5	4.29e-04	0	62	0	2665480192	45	4551
2026-01-26 00:35:09.48	134.53	17.24	-37.1	-39.0	15.6	3.87e-03	0	62	0	2670723072	44	4834
2026-01-26 00:35:10.49	134.71	17.16	-37.1	-39.1	15.3	2.79e-04	0	62	0	2677014528	44	4877
2026-01-26 00:35:11.50	134.88	17.08	-37.0	-39.0	15.6	3.28e-04	0	62	0	2682257408	44	4848
2026-01-26 00:35:12.50	135.06	17.01	-37.1	-38.9	15.7	3.39e-04	0	62	0	2687500288	44	4807
2026-01-26 00:35:13.52	135.23	16.93	-37.1	-39.1	15.5	4.42e-04	0	62	0	2693791744	44	4874
2026-01-26 00:35:14.53	135.40	16.85	-37.1	-39.2	15.4	2.86e-04	0	62	0	2699034624	45	4667
2026-01-26 00:35:15.54	135.57	16.77	-37.3	-39.3	15.3	2.85e-04	0	61	0	2704277504	45	4709
2026-01-26 00:35:16.55	135.74	16.69	-37.4	-39.3	15.3	1.89e-04	0	62	0	2710568960	45	4726
2026-01-26 00:35:17.56	135.91	16.62	-37.4	-39.4	15.0	2.61e-04	0	62	0	2715811840	45	4763
2026-01-26 00:35:18.57	136.08	16.54	-37.3	-39.2	15.4	1.91e-04	0	62	0	2722103296	45	4665
2026-01-26 00:35:19.58	136.25	16.46	-37.3	-39.1	15.5	3.17e-04	0	61	0	2727346176	45	4638
2026-01-26 00:35:20.59	136.42	16.38	-37.3	-39.1	15.5	2.17e-04	0	62	0	2733637632	45	4631
2026-01-26 00:35:21.60	136.58	16.31	-37.2	-39.2	15.5	6.98e-05	0	62	0	2738880512	45	4653
2026-01-26 00:35:22.61	136.75	16.23	-37.3	-39.2	15.5	1.09e-04	0	62	0	2745171968	45	4669
2026-01-26 00:35:23.62	136.91	16.15	-37.3	-39.2	15.4	3.77e-05	0	62	0	2750414848	45	4684
2026-01-26 00:35:24.63	137.07	16.07	-37.3	-39.2	15.4	5.83e-05	0	62	0	2755657728	45	4697
2026-01-26 00:35:25.64	137.24	15.99	-37.3	-39.2	15.4	4.57e-05	0	62	0	2761949184	45	4676
2026-01-26 00:35:26.65	137.40	15.92	-37.4	-39.3	15.3	4.46e-05	0	62	0	2767192064	45	4716
2026-01-26 00:35:27.66	137.56	15.84	-37.3	-39.2	15.4	4.80e-05	0	62	0	2773483520	45	4704
2026-01-26 00:35:28.67	137.72	15.76	-37.3	-39.3	15.4	1.02e-05	0	62	0	2778726400	45	4707
2026-01-26 00:35:29.68	137.88	15.69	-37.3	-39.2	15.4	4.50e-06	0	62	0	2783969280	45	4689
2026-01-26 00:35:30.69	138.04	15.61	-37.3	-39.2	15.4	2.20e-06	0	62	0	2790260736	45	4680
2026-01-26 00:35:31.70	138.20	15.53	-37.4	-39.3	15.3	2.20e-06	0	62	0	2795503616	45	4749
2026-01-26 00:35:32.71	138.35	15.45	-37.4	-39.3	15.3	5.70e-06	0	62	0	2801795072	45	4729
2026-01-26 00:35:33.72	138.51	15.38	-37.4	-39.4	15.2	0.00e+00	0	62	0	2807037952	45	4769
2026-01-26 00:35:34.73	138.67	15.30	-37.4	-39.4	15.2	0.00e+00	0	62	0	2812280832	45	4775
2026-01-26 00:35:35.74	138.82	15.22	-37.5	-39.5	15.1	1.10e-06	0	62	0	2818572288	45	4819
2026-01-26 00:35:36.75	138.97	15.14	-37.6	-39.5	15.1	0.00e+00	0	62	0	2823815168	45	4847
2026-01-26 00:35:37.76	139.13	15.07	-37.5	-39.5	15.1	0.00e+00	0	62	0	2830106624	45	4833
2026-01-26 00:35:38.77	139.28	14.99	-37.6	-39.5	15.1	0.00e+00	0	62	0	2835349504	45	4848
2026-01-26 00:35:39.78	139.43	14.91	-37.6	-39.6	15.0	0.00e+00	0	62	0	2841640960	45	4888
2026-01-26 00:35:40.79	139.58	14.84	-37.7	-39.6	15.0	0.00e+00	0	62	0	2846883840	45	4916
2026-01-26 00:35:41.80	139.73	14.76	-37.6	-39.6	15.0	0.00e+00	0	62	0	2853175296	45	4887
2026-01-26 00:35:42.81	139.88	14.68	-37.7	-39.7	14.9	0.00e+00	0	62	0	2858418176	45	4956
2026-01-26 00:35:43.82	140.03	14.61	-37.7	-39.6	14.9	1.10e-06	0	61	0	2863661056	45	4923
2026-01-26 00:35:44.83	140.18	14.53	-37.7	-39.7	14.9	0.00e+00	0	62	0	2869952512	45	4931
2026-01-26 00:35:45.84	140.32	14.45	-37.8	-39.8	14.8	0.00e+00	0	62	0	2875195392	46	4715
2026-01-26 00:35:46.85	140.47	14.38	-37.8	-39.9	14.7	0.00e+00	0	62	0	2881486848	46	4765
2026-01-26 00:35:47.86	140.62	14.30	-37.9	-39.9	14.7	0.00e+00	0	61	0	2886729728	46	4792
2026-01-26 00:35:48.87	140.76	14.22	-37.9	-39.9	14.6	0.00e+00	0	62	0	2891972608	46	4810
2026-01-26 00:35:49.89	140.91	14.15	-37.9	-39.9	14.7	0.00e+00	0	62	0	2898264064	46	4787
2026-01-26 00:35:50.90	141.05	14.07	-37.9	-39.9	14.7	0.00e+00	0	62	0	2903506944	46	4802
2026-01-26 00:35:51.91	141.19	14.00	-37.9	-39.9	14.6	0.00e+00	0	62	0	2909798400	46	4812
2026-01-26 00:35:52.92	141.34	13.92	-37.9	-40.0	14.6	0.00e+00	0	62	0	2915041280	46	4821
2026-01-26 00:35:53.93	141.48	13.84	-37.9	-40.0	14.5	0.00e+00	0	62	0	2920284160	46	4869
2026-01-26 00:35:54.94	141.62	13.77	-37.9	-40.0	14.5	1.10e-06	0	62	0	2926575616	46	4858
2026-01-26 00:35:55.95	141.76	13.69	-38.0	-40.0	14.5	1.10e-06	0	62	0	2931818496	46	4870
2026-01-26 00:35:56.96	141.90	13.62	-38.0	-40.1	14.5	1.10e-06	0	62	0	2938109952	46	4889
2026-01-26 00:35:57.97	142.04	13.54	-37.8	-39.9	14.6	0.00e+00	0	62	0	2943352832	46	4773
2026-01-26 00:35:58.98	142.17	13.46	-37.8	-39.8	14.7	0.00e+00	0	62	0	2949644288	46	4739
2026-01-26 00:35:59.99	142.31	13.39	-37.8	-39.9	14.6	0.00e+00	0	62	0	2954887168	46	4760
2026-01-26 00:36:01.00	142.45	13.31	-37.8	-39.9	14.7	0.00e+00	0	62	0	2961178624	46	4761
2026-01-26 00:36:02.01	142.58	13.24	-37.8	-39.8	14.7	0.00e+00	0	62	0	2966421504	46	4747
2026-01-26 00:36:03.02	142.72	13.16	-37.7	-39.7	14.8	1.10e-06	0	62	0	2971664384	46	4692
2026-01-26 00:36:04.03	142.85	13.09	-37.7	-39.7	14.7	1.10e-06	0	62	0	2977955840	46	4682
2026-01-26 00:36:05.04	142.99	13.01	-37.7	-39.7	14.8	0.00e+00	0	62	0	2983198720	46	4693
2026-01-26 00:36:06.05	143.12	12.94	-37.8	-39.8	14.7	0.00e+00	0	62	0	2989490176	46	4733
2026-01-26 00:36:07.07	143.25	12.86	-37.8	-39.9	14.6	0.00e+00	0	62	0	2994733056	46	4768
2026-01-26 00:36:08.08	143.39	12.79	-37.8	-39.9	14.6	0.00e+00	0	62	0	2999975936	46	4761
2026-01-26 00:36:09.09	143.52	12.71	-37.9	-40.0	14.5	1.10e-06	0	62	0	3006267392	46	4847
2026-01-26 00:36:10.10	143.65	12.64	-37.9	-40.0	14.4	0.00e+00	0	62	0	3011510272	46	4861
2026-01-26 00:36:11.11	143.78	12.56	-38.0	-40.1	14.4	1.10e-06	0	62	0	3017801728	46	4895
2026-01-26 00:36:12.12	143.91	12.49	-38.0	-40.1	14.4	0.00e+00	0	62	0	3023044608	46	4879
2026-01-26 00:36:13.13	144.04	12.42	-38.0	-40.1	14.3	0.00e+00	0	62	0	3028287488	46	4917
2026-01-26 00:36:14.14	144.16	12.34	-37.9	-40.0	14.4	0.00e+00	0	62	0	3034578944	46	4865
2026-01-26 00:36:15.15	144.29	12.27	-37.9	-40.0	14.4	0.00e+00	0	62	0	3039821824	46	4859
2026-01-26 00:36:16.16	144.42	12.19	-38.0	-40.1	14.4	0.00e+00	0	62	0	3046113280	46	4884
2026-01-26 00:36:17.18	144.55	12.12	-37.9	-40.0	14.4	1.10e-06	0	62	0	3051356160	46	4840
2026-01-26 00:36:18.19	144.67	12.05	-38.0	-40.1	14.4	0.00e+00	0	62	0	3057647616	46	4875
2026-01-26 00:36:19.20	144.80	11.97	-37.9	-40.0	14.4	0.00e+00	0	62	0	3062890496	46	4840
2026-01-26 00:36:20.20	144.92	11.90	-37.9	-40.0	14.4	1.10e-06	0	62	0	3069181952	46	4862
2026-01-26 00:36:21.21	145.04	11.83	-38.0	-40.1	14.3	0.00e+00	0	62	0	3074424832	46	4909
2026-01-26 00:36:22.22	145.17	11.75	-38.0	-40.1	14.3	0.00e+00	0	62	0	3079667712	46	4907
2026-01-26 00:36:23.23	145.29	11.68	-38.0	-40.2	14.2	0.00e+00	0	62	0	3085959168	46	4951
2026-01-26 00:36:24.24	145.41	11.61	-38.1	-40.3	14.1	1.10e-06	0	62	0	3091202048	46	5015
2026-01-26 00:36:25.25	145.53	11.53	-38.2	-40.4	14.0	1.10e-06	0	62	0	3097493504	46	5049
2026-01-26 00:36:26.26	145.65	11.46	-38.2	-40.5	13.9	2.20e-06	0	62	0	3102736384	47	4824
2026-01-26 00:36:27.27	145.78	11.39	-38.3	-40.5	13.8	3.40e-06	0	62	0	3107979264	47	4868
2026-01-26 00:36:28.28	145.89	11.31	-38.3	-40.5	13.8	0.00e+00	0	62	0	3114270720	47	4858
2026-01-26 00:36:29.30	146.02	11.24	-38.3	-40.6	13.7	2.20e-06	0	62	0	3119513600	47	4902
2026-01-26 00:36:30.31	146.13	11.17	-38.4	-40.6	13.7	1.10e-06	0	62	0	3125805056	47	4913
2026-01-26 00:36:31.32	146.25	11.10	-38.3	-40.6	13.7	5.70e-06	0	62	0	3131047936	47	4894
2026-01-26 00:36:32.33	146.37	11.02	-38.3	-40.6	13.7	0.00e+00	0	62	0	3136290816	47	4903
2026-01-26 00:36:33.34	146.49	10.95	-38.4	-40.7	13.6	1.10e-06	0	62	0	3142582272	47	4930
2026-01-26 00:36:34.35	146.60	10.88	-38.3	-40.6	13.7	2.20e-06	0	62	0	3147825152	47	4890
2026-01-26 00:36:35.36	146.72	10.81	-38.4	-40.7	13.6	5.70e-06	0	62	0	3154116608	47	4940
2026-01-26 00:36:36.37	146.83	10.74	-38.4	-40.6	13.6	2.20e-06	0	62	0	3159359488	47	4925
2026-01-26 00:36:37.38	146.95	10.66	-38.3	-40.6	13.6	4.50e-06	0	62	0	3165650944	47	4915
2026-01-26 00:36:38.39	147.06	10.59	-38.3	-40.6	13.7	4.50e-06	0	62	0	3170893824	47	4894
2026-01-26 00:36:39.40	147.18	10.52	-38.4	-40.7	13.6	5.70e-06	0	62	0	3177185280	47	4954
2026-01-26 00:36:40.41	147.29	10.45	-38.4	-40.7	13.5	8.00e-06	0	62	0	3182428160	47	4981
2026-01-26 00:36:41.42	147.40	10.38	-38.4	-40.8	13.4	3.40e-06	0	62	0	3187671040	47	4994
2026-01-26 00:36:42.43	147.51	10.31	-38.5	-40.9	13.3	9.10e-06	0	62	0	3193962496	47	5055
2026-01-26 00:36:43.44	147.63	10.24	-38.6	-41.0	13.2	1.02e-05	0	62	0	3199205376	47	5109
2026-01-26 00:36:44.45	147.74	10.16	-38.6	-41.0	13.2	1.02e-05	0	62	0	3205496832	47	5104
2026-01-26 00:36:45.46	147.85	10.09	-38.6	-41.0	13.1	1.14e-05	0	62	0	3210739712	47	5144
2026-01-26 00:36:46.47	147.96	10.02	-38.6	-41.1	13.1	2.40e-05	0	62	0	3215982592	47	5181
2026-01-26 00:36:47.48	148.07	9.95	-38.6	-41.1	13.0	2.17e-05	0	62	0	3222274048	47	5197
2026-01-26 00:36:48.49	148.17	9.88	-38.6	-41.1	13.0	2.40e-05	0	62	0	3227516928	47	5183
2026-01-26 00:36:49.50	148.28	9.81	-38.6	-41.1	13.0	3.08e-05	0	62	0	3233808384	47	5191
2026-01-26 00:36:50.50	148.39	9.74	-38.6	-41.1	13.0	2.40e-05	0	62	0	3239051264	47	5178
2026-01-26 00:36:51.52	148.50	9.67	-38.6	-41.1	12.9	3.31e-05	0	62	0	3244294144	47	5212
2026-01-26 00:36:52.53	148.61	9.60	-38.6	-41.1	12.9	2.05e-05	0	62	0	3250585600	47	5205
2026-01-26 00:36:53.54	148.71	9.53	-38.7	-41.2	12.8	4.46e-05	0	62	0	3255828480	47	5262
2026-01-26 00:36:54.55	148.82	9.46	-38.8	-41.3	12.8	3.31e-05	0	62	0	3262119936	48	5012
2026-01-26 00:36:55.56	148.92	9.39	-38.9	-41.4	12.7	3.31e-05	0	62	0	3267362816	48	5084
2026-01-26 00:36:56.57	149.03	9.32	-38.9	-41.4	12.8	5.83e-05	0	62	0	3273654272	48	5059
2026-01-26 00:36:57.58	149.13	9.25	-38.8	-41.3	12.8	3.89e-05	0	62	0	3278897152	48	5028
2026-01-26 00:36:58.59	149.24	9.18	-38.9	-41.4	12.7	6.17e-05	0	62	0	3285188608	48	5081
2026-01-26 00:36:59.60	149.34	9.11	-38.9	-41.4	12.6	5.26e-05	0	62	0	3290431488	48	5100
2026-01-26 00:37:00.61	149.44	9.04	-38.9	-41.5	12.6	6.17e-05	0	62	0	3295674368	48	5119
2026-01-26 00:37:01.62	149.55	8.98	-38.9	-41.5	12.6	7.78e-05	0	62	0	3301965824	48	5114
2026-01-26 00:37:02.63	149.65	8.91	-39.0	-41.6	12.5	7.66e-05	0	62	0	3307208704	48	5165
2026-01-26 00:37:03.64	149.75	8.84	-39.0	-41.7	12.3	9.72e-05	0	62	0	3313500160	48	5249
2026-01-26 00:37:04.65	149.85	8.77	-38.9	-41.5	12.5	9.38e-05	0	62	0	3318743040	48	5158
2026-01-26 00:37:05.66	149.95	8.70	-39.0	-41.6	12.4	9.49e-05	0	62	0	3323985920	48	5175
2026-01-26 00:37:06.67	150.05	8.63	-39.0	-41.6	12.4	8.92e-05	0	62	0	3330277376	48	5205
2026-01-26 00:37:07.68	150.15	8.56	-38.9	-41.5	12.4	9.72e-05	0	62	0	3335520256	48	5151
2026-01-26 00:37:08.69	150.25	8.49	-39.0	-41.6	12.4	9.15e-05	0	62	0	3341811712	48	5166
2026-01-26 00:37:09.71	150.35	8.43	-38.9	-41.4	12.5	8.46e-05	0	62	0	3347054592	48	5089
2026-01-26 00:37:10.72	150.45	8.36	-38.9	-41.6	12.4	7.20e-05	0	62	0	3352297472	48	5176
2026-01-26 00:37:11.73	150.55	8.29	-39.0	-41.6	12.3	1.25e-04	0	62	0	3358588928	48	5180
2026-01-26 00:37:12.74	150.64	8.22	-38.9	-41.5	12.4	9.15e-05	0	62	0	3363831808	48	5109
2026-01-26 00:37:13.75	150.74	8.15	-38.9	-41.5	12.4	1.04e-04	0	62	0	3370123264	48	5133
2026-01-26 00:37:14.76	150.84	8.09	-39.0	-41.6	12.2	1.42e-04	0	62	0	3375366144	48	5202
2026-01-26 00:37:15.77	150.93	8.02	-39.0	-41.7	12.2	1.77e-04	0	62	0	3381657600	48	5219
2026-01-26 00:37:16.78	151.03	7.95	-42.8	-49.3	5.3	2.24e-04	0	62	0	3385851904	56	7963
2026-01-26 00:37:17.79	151.13	7.88	-44.5	-56.0	3.8	8.47e-01	0	62	104	3386900480	59	14416
2026-01-26 00:37:18.81	151.22	7.82	-44.8	-56.6	3.8	8.46e-01	0	62	104	3386900480	60	14642
2026-01-26 00:37:19.82	151.32	7.75	-45.0	-56.9	3.8	8.45e-01	0	62	104	3386900480	60	15103
2026-01-26 00:37:20.83	151.41	7.68	-45.2	-57.1	3.8	8.46e-01	0	62	104	3386900480	61	14616
