passes_logs/2026/01/26/R2.0S_Moscow/R2.0S_Moscow__20260126_034621_FENGYUN_3D_rec.log

#Pass ID: 20260126_034621_FENGYUN 3D
#Satellite: FENGYUN 3D
#Configuration: FENGYUN 3D
#almurnet v.1.7.20251203
#Start time: 2026-01-26 03:46:22

#Version: 2.2.20231116
#Station: R2.0S_Moscow
#Location: 37.707566 lon 55.798166 lat
#TLE: 1 43010U 17072A   26025.50461972  .00000046  00000+0  43592-4 0  9990
#TLE: 2 43010  98.9962 357.4844 0002523  89.7890 270.3575 14.19699798424744

#Time	Az	El	Level	Level2	SNR	BER	BlckErr	Temp	State	Recorded	gain1	gain2
2026-01-26 03:46:22.93	9.81	2.05	-39.8	-51.4	3.8	8.46e-01	0	52	0	0	51	13469
2026-01-26 03:46:23.95	9.74	2.11	-39.8	-51.4	3.8	8.48e-01	0	52	104	0	51	13443
2026-01-26 03:46:24.96	9.66	2.16	-39.8	-51.3	3.8	8.46e-01	0	52	104	0	51	13412
2026-01-26 03:46:25.97	9.58	2.22	-39.8	-51.4	3.8	8.46e-01	0	52	104	0	51	13432
2026-01-26 03:46:26.97	9.51	2.27	-39.8	-51.4	3.8	8.45e-01	0	52	104	0	51	13465
2026-01-26 03:46:27.99	9.43	2.32	-39.8	-51.3	3.8	8.46e-01	0	53	104	0	51	13412
2026-01-26 03:46:29.00	9.35	2.38	-39.8	-51.3	3.8	8.46e-01	0	53	104	0	51	13411
2026-01-26 03:46:30.01	9.27	2.43	-39.8	-51.3	3.8	8.45e-01	0	53	104	0	51	13390
2026-01-26 03:46:31.02	9.19	2.49	-39.8	-51.3	3.8	8.45e-01	0	53	104	0	51	13406
2026-01-26 03:46:32.03	9.11	2.54	-39.8	-51.4	3.8	8.45e-01	0	53	104	0	51	13420
2026-01-26 03:46:33.04	9.03	2.60	-39.8	-51.3	3.8	8.46e-01	0	53	104	0	51	13395
2026-01-26 03:46:34.05	8.95	2.65	-39.8	-51.3	3.8	8.46e-01	0	53	104	0	51	13390
2026-01-26 03:46:35.06	8.87	2.70	-39.8	-51.3	3.8	8.47e-01	0	53	104	0	51	13413
2026-01-26 03:46:36.07	8.79	2.76	-39.8	-51.3	3.8	8.46e-01	0	53	104	0	51	13394
2026-01-26 03:46:37.08	8.71	2.81	-39.8	-51.4	3.8	8.45e-01	0	53	104	0	51	13427
2026-01-26 03:46:38.09	8.63	2.87	-39.8	-51.4	3.8	8.46e-01	0	53	104	0	51	13441
2026-01-26 03:46:39.10	8.55	2.92	-39.8	-51.3	3.8	8.47e-01	0	53	104	0	51	13361
2026-01-26 03:46:40.12	8.47	2.98	-39.8	-51.3	3.8	8.47e-01	0	53	104	0	51	13374
2026-01-26 03:46:41.13	8.39	3.03	-39.8	-51.3	3.8	8.45e-01	0	54	104	0	51	13387
2026-01-26 03:46:42.14	8.31	3.09	-39.8	-51.3	3.8	8.45e-01	0	54	104	0	51	13355
2026-01-26 03:46:43.15	8.22	3.14	-39.8	-51.3	3.8	8.46e-01	0	54	104	0	51	13384
2026-01-26 03:46:44.16	8.14	3.20	-39.8	-51.3	3.8	8.46e-01	0	54	104	0	51	13337
2026-01-26 03:46:45.17	8.06	3.25	-39.8	-51.3	3.8	8.47e-01	0	54	104	0	51	13365
2026-01-26 03:46:46.17	7.97	3.31	-39.8	-51.3	3.8	8.46e-01	0	54	104	0	51	13399
2026-01-26 03:46:47.18	7.89	3.36	-39.7	-51.3	3.8	8.46e-01	0	54	104	0	51	13383
2026-01-26 03:46:48.19	7.81	3.42	-39.7	-51.3	3.8	8.46e-01	0	54	104	0	51	13348
2026-01-26 03:46:49.20	7.72	3.47	-39.7	-51.3	3.8	8.46e-01	0	54	104	0	51	13311
2026-01-26 03:46:50.22	7.64	3.53	-39.7	-51.3	3.8	8.46e-01	0	54	104	0	51	13309
2026-01-26 03:46:51.23	7.55	3.58	-39.7	-51.3	3.8	8.46e-01	0	54	104	0	51	13324
2026-01-26 03:46:52.24	7.47	3.64	-39.7	-51.3	3.8	8.47e-01	0	54	104	0	51	13334
2026-01-26 03:46:53.25	7.38	3.69	-39.7	-51.3	3.8	8.46e-01	0	54	104	0	51	13302
2026-01-26 03:46:54.26	7.29	3.75	-39.7	-51.3	3.8	8.46e-01	0	54	104	0	51	13327
2026-01-26 03:46:55.27	7.21	3.80	-39.7	-51.3	3.8	8.47e-01	0	54	104	0	51	13278
2026-01-26 03:46:56.28	7.12	3.86	-39.7	-51.3	3.8	8.47e-01	0	55	104	0	51	13273
2026-01-26 03:46:57.29	7.03	3.91	-39.7	-51.3	3.8	8.46e-01	0	55	104	0	51	13290
2026-01-26 03:46:58.30	6.95	3.97	-39.7	-51.3	3.8	8.46e-01	0	55	104	0	51	13299
2026-01-26 03:46:59.31	6.86	4.03	-39.7	-51.3	3.8	8.47e-01	0	55	104	0	51	13266
2026-01-26 03:47:00.32	6.77	4.08	-39.7	-51.3	3.8	8.48e-01	0	55	104	0	51	13274
2026-01-26 03:47:01.33	6.68	4.14	-39.7	-51.2	3.8	8.46e-01	0	55	104	0	51	13247
2026-01-26 03:47:02.34	6.59	4.19	-39.7	-51.2	3.8	8.46e-01	0	55	104	0	51	13199
2026-01-26 03:47:03.35	6.50	4.25	-39.7	-51.2	3.8	8.46e-01	0	55	104	0	51	13240
2026-01-26 03:47:04.36	6.41	4.30	-39.7	-51.3	3.8	8.47e-01	0	55	104	0	51	13297
2026-01-26 03:47:05.37	6.32	4.36	-39.7	-51.2	3.8	8.46e-01	0	55	104	0	51	13221
2026-01-26 03:47:06.39	6.23	4.42	-39.7	-51.2	3.8	8.46e-01	0	55	104	0	51	13234
2026-01-26 03:47:07.39	6.14	4.47	-39.7	-51.2	3.8	8.47e-01	0	55	104	0	51	13223
2026-01-26 03:47:08.40	6.05	4.53	-39.7	-51.2	3.8	8.46e-01	0	55	104	0	51	13219
2026-01-26 03:47:09.41	5.96	4.58	-39.7	-51.2	3.8	8.46e-01	0	55	104	0	51	13214
2026-01-26 03:47:10.42	5.87	4.64	-39.7	-51.2	3.8	8.45e-01	0	55	104	0	51	13209
2026-01-26 03:47:11.43	5.78	4.70	-39.7	-51.2	3.8	8.46e-01	0	55	104	0	51	13187
2026-01-26 03:47:12.44	5.68	4.75	-39.7	-51.2	3.8	8.45e-01	0	55	104	0	51	13226
2026-01-26 03:47:13.45	5.59	4.81	-39.7	-51.2	3.8	8.46e-01	0	55	104	0	51	13190
2026-01-26 03:47:14.46	5.50	4.87	-39.7	-51.2	3.8	8.46e-01	0	56	104	0	51	13231
2026-01-26 03:47:15.47	5.41	4.92	-39.7	-51.2	3.8	8.45e-01	0	56	104	0	51	13204
2026-01-26 03:47:16.48	5.31	4.98	-39.6	-51.2	3.8	8.46e-01	0	56	104	0	51	13193
2026-01-26 03:47:17.49	5.22	5.03	-39.7	-51.2	3.8	8.46e-01	0	56	104	0	51	13219
2026-01-26 03:47:18.50	5.12	5.09	-39.7	-51.2	3.8	8.47e-01	0	56	104	0	51	13201
2026-01-26 03:47:19.51	5.03	5.15	-39.7	-51.2	3.8	8.46e-01	0	56	104	0	51	13226
2026-01-26 03:47:20.52	4.93	5.20	-39.7	-51.3	3.8	8.46e-01	0	56	104	0	51	13271
2026-01-26 03:47:21.53	4.84	5.26	-39.7	-51.2	3.8	8.46e-01	0	56	104	0	51	13247
2026-01-26 03:47:22.55	4.74	5.32	-39.7	-51.2	3.8	8.47e-01	0	56	104	0	51	13216
2026-01-26 03:47:23.56	4.64	5.38	-39.7	-51.2	3.8	8.46e-01	0	56	104	0	51	13195
2026-01-26 03:47:24.57	4.54	5.43	-39.7	-51.2	3.8	8.46e-01	0	56	104	0	51	13216
2026-01-26 03:47:25.58	4.45	5.49	-39.7	-51.2	3.8	8.47e-01	0	56	104	0	51	13218
2026-01-26 03:47:26.59	4.35	5.55	-39.7	-51.2	3.8	8.46e-01	0	56	104	0	51	13218
2026-01-26 03:47:27.60	4.25	5.60	-39.7	-51.2	3.8	8.47e-01	0	56	104	0	51	13189
2026-01-26 03:47:28.61	4.15	5.66	-39.7	-51.2	3.8	8.46e-01	0	56	104	0	51	13221
2026-01-26 03:47:29.62	4.05	5.72	-39.7	-51.2	3.8	8.45e-01	0	56	104	0	51	13207
2026-01-26 03:47:30.63	3.95	5.77	-39.7	-51.2	3.8	8.46e-01	0	57	104	0	51	13198
2026-01-26 03:47:31.64	3.85	5.83	-39.7	-51.2	3.8	8.46e-01	0	56	104	0	51	13228
2026-01-26 03:47:32.65	3.75	5.89	-39.7	-51.2	3.8	8.46e-01	0	57	104	0	51	13210
2026-01-26 03:47:33.66	3.65	5.95	-39.7	-51.2	3.8	8.46e-01	0	57	104	0	51	13196
2026-01-26 03:47:34.67	3.55	6.00	-39.7	-51.2	3.8	8.46e-01	0	57	104	0	51	13195
2026-01-26 03:47:35.68	3.45	6.06	-39.6	-51.2	3.8	8.47e-01	0	57	104	0	51	13203
2026-01-26 03:47:36.69	3.35	6.12	-39.7	-51.2	3.8	8.46e-01	0	57	104	0	51	13203
2026-01-26 03:47:37.70	3.25	6.17	-39.7	-51.2	3.8	8.46e-01	0	57	104	0	51	13177
2026-01-26 03:47:38.71	3.14	6.23	-39.7	-51.2	3.8	8.46e-01	0	57	104	0	51	13142
2026-01-26 03:47:39.72	3.04	6.29	-39.6	-51.2	3.8	8.46e-01	0	57	104	0	51	13180
2026-01-26 03:47:40.74	2.94	6.35	-39.7	-51.2	3.8	8.45e-01	0	57	104	0	51	13238
2026-01-26 03:47:41.75	2.83	6.40	-39.7	-51.2	3.8	8.45e-01	0	57	104	0	51	13197
2026-01-26 03:47:42.76	2.73	6.46	-39.7	-51.2	3.8	8.46e-01	0	57	104	0	51	13195
2026-01-26 03:47:43.77	2.62	6.52	-39.7	-51.2	3.8	8.46e-01	0	57	104	0	51	13199
2026-01-26 03:47:44.78	2.52	6.58	-39.7	-51.2	3.8	8.46e-01	0	57	104	0	51	13203
2026-01-26 03:47:45.79	2.41	6.64	-39.7	-51.2	3.8	8.47e-01	0	57	104	0	51	13173
2026-01-26 03:47:46.80	2.31	6.69	-39.7	-51.2	3.8	8.46e-01	0	57	104	0	51	13192
2026-01-26 03:47:47.81	2.20	6.75	-39.7	-51.2	3.8	8.45e-01	0	57	104	0	51	13202
2026-01-26 03:47:48.82	2.09	6.81	-39.7	-51.2	3.8	8.44e-01	0	57	104	0	51	13241
2026-01-26 03:47:49.83	1.98	6.87	-39.7	-51.2	3.8	8.46e-01	0	57	104	0	51	13211
2026-01-26 03:47:50.84	1.88	6.92	-39.6	-51.2	3.8	8.46e-01	0	57	104	0	51	13201
2026-01-26 03:47:51.85	1.77	6.98	-39.7	-51.2	3.8	8.46e-01	0	57	104	0	51	13197
2026-01-26 03:47:52.86	1.66	7.04	-39.7	-51.2	3.8	8.46e-01	0	57	104	0	51	13205
2026-01-26 03:47:53.87	1.55	7.10	-39.7	-51.2	3.8	8.46e-01	0	57	104	0	51	13197
2026-01-26 03:47:54.88	1.44	7.16	-39.7	-51.2	3.8	8.46e-01	0	57	104	0	51	13194
2026-01-26 03:47:55.89	1.33	7.21	-39.7	-51.2	3.8	8.46e-01	0	57	104	0	51	13179
2026-01-26 03:47:56.90	1.22	7.27	-39.6	-51.2	3.8	8.46e-01	0	57	104	0	51	13184
2026-01-26 03:47:57.91	1.11	7.33	-39.7	-51.2	3.8	8.46e-01	0	57	104	0	51	13218
2026-01-26 03:47:58.92	1.00	7.39	-39.7	-51.2	3.8	8.47e-01	0	58	104	0	51	13184
2026-01-26 03:47:59.93	0.88	7.45	-39.6	-51.2	3.8	8.46e-01	0	58	104	0	51	13199
2026-01-26 03:48:00.94	0.77	7.50	-39.7	-51.2	3.8	8.46e-01	0	57	104	0	51	13217
2026-01-26 03:48:01.96	0.66	7.56	-39.7	-51.2	3.8	8.45e-01	0	58	104	0	51	13197
2026-01-26 03:48:02.97	0.54	7.62	-39.6	-51.2	3.8	8.46e-01	0	57	104	0	51	13188
2026-01-26 03:48:03.98	0.43	7.68	-39.6	-51.2	3.8	8.47e-01	0	58	104	0	51	13218
2026-01-26 03:48:04.99	0.32	7.74	-39.6	-51.2	3.8	8.46e-01	0	58	104	0	51	13196
2026-01-26 03:48:06.00	0.20	7.80	-39.7	-51.2	3.8	8.47e-01	0	58	104	0	51	13179
2026-01-26 03:48:07.01	0.09	7.85	-39.6	-51.2	3.8	8.47e-01	0	58	104	0	51	13177
2026-01-26 03:48:08.02	359.97	7.91	-39.7	-51.2	3.8	8.46e-01	0	58	104	0	51	13173
2026-01-26 03:48:09.03	359.85	7.97	-39.7	-51.2	3.8	8.46e-01	0	58	104	0	51	13215
2026-01-26 03:48:10.04	359.74	8.03	-39.7	-51.2	3.8	8.46e-01	0	58	104	0	51	13226
2026-01-26 03:48:11.05	359.62	8.09	-39.7	-51.3	3.8	8.46e-01	0	58	104	0	51	13324
2026-01-26 03:48:12.06	359.50	8.15	-39.9	-51.4	3.8	8.47e-01	0	58	104	0	51	13552
2026-01-26 03:48:13.07	359.38	8.20	-39.8	-51.4	3.8	8.47e-01	0	58	104	0	51	13463
2026-01-26 03:48:14.08	359.27	8.26	-39.9	-51.4	3.8	8.46e-01	0	58	104	0	51	13496
2026-01-26 03:48:15.09	359.15	8.32	-39.9	-51.4	3.8	8.46e-01	0	58	104	0	51	13516
2026-01-26 03:48:16.10	359.03	8.38	-39.9	-51.5	3.8	8.47e-01	0	58	104	0	51	13628
2026-01-26 03:48:17.11	358.91	8.44	-39.7	-51.3	3.8	8.47e-01	0	58	104	0	51	13309
2026-01-26 03:48:18.12	358.79	8.50	-39.9	-51.4	3.8	8.45e-01	0	58	104	0	51	13483
2026-01-26 03:48:19.13	358.66	8.56	-39.9	-51.4	3.8	8.47e-01	0	58	104	0	51	13450
2026-01-26 03:48:20.14	358.54	8.61	-39.9	-51.4	3.8	8.46e-01	0	58	104	0	51	13481
2026-01-26 03:48:21.15	358.42	8.67	-39.7	-51.3	3.8	8.47e-01	0	58	104	0	51	13271
2026-01-26 03:48:22.16	358.30	8.73	-39.9	-51.4	3.8	8.46e-01	0	58	104	0	51	13511
2026-01-26 03:48:23.17	358.18	8.79	-39.8	-51.4	3.8	8.46e-01	0	58	104	0	51	13418
2026-01-26 03:48:24.18	358.05	8.85	-39.8	-51.4	3.8	8.46e-01	0	58	104	0	51	13484
2026-01-26 03:48:25.19	357.93	8.91	-39.7	-51.3	3.8	8.45e-01	0	58	104	0	51	13324
2026-01-26 03:48:26.20	357.80	8.97	-39.8	-51.4	3.8	8.46e-01	0	58	104	0	51	13477
2026-01-26 03:48:27.21	357.68	9.02	-39.8	-51.3	3.8	8.47e-01	0	58	104	0	51	13347
2026-01-26 03:48:28.22	357.55	9.08	-39.8	-51.4	3.8	8.45e-01	0	58	104	0	51	13490
2026-01-26 03:48:29.23	357.43	9.14	-39.7	-51.3	3.8	8.46e-01	0	59	104	0	51	13344
2026-01-26 03:48:30.24	357.30	9.20	-39.8	-51.4	3.8	8.46e-01	0	58	104	0	51	13440
2026-01-26 03:48:31.25	357.17	9.26	-39.8	-51.3	3.8	8.47e-01	0	59	104	0	51	13400
2026-01-26 03:48:32.26	357.04	9.32	-39.9	-51.4	3.8	8.46e-01	0	59	104	0	51	13501
2026-01-26 03:48:33.27	356.91	9.38	-39.7	-51.3	3.8	8.46e-01	0	59	104	0	51	13334
2026-01-26 03:48:34.28	356.79	9.43	-39.9	-51.4	3.8	8.47e-01	0	59	104	0	51	13494
2026-01-26 03:48:35.29	356.66	9.49	-39.8	-51.4	3.8	8.47e-01	0	59	104	0	51	13450
2026-01-26 03:48:36.30	356.53	9.55	-39.9	-51.4	3.8	8.47e-01	0	59	104	0	51	13532
2026-01-26 03:48:37.31	356.40	9.61	-39.8	-51.3	3.8	8.46e-01	0	59	104	0	51	13321
2026-01-26 03:48:38.32	356.26	9.67	-40.0	-51.5	3.8	8.46e-01	0	59	104	0	51	13638
2026-01-26 03:48:39.33	356.13	9.73	-39.8	-51.3	3.8	8.46e-01	0	59	104	0	51	13383
2026-01-26 03:48:40.34	356.00	9.79	-40.0	-51.5	3.8	8.46e-01	0	59	104	0	51	13656
2026-01-26 03:48:41.35	355.87	9.84	-39.8	-51.4	3.8	8.46e-01	0	59	104	0	51	13451
2026-01-26 03:48:42.36	355.74	9.90	-40.1	-51.6	3.8	8.47e-01	0	59	104	0	51	13775
2026-01-26 03:48:43.38	355.60	9.96	-39.9	-51.4	3.8	8.45e-01	0	59	104	0	51	13489
2026-01-26 03:48:44.39	355.47	10.02	-40.1	-51.6	3.8	8.45e-01	0	59	104	0	51	13825
2026-01-26 03:48:45.40	355.33	10.08	-39.9	-51.4	3.8	8.46e-01	0	59	104	0	51	13548
2026-01-26 03:48:46.41	355.20	10.14	-40.2	-51.7	3.8	8.46e-01	0	59	104	0	51	13962
2026-01-26 03:48:47.42	355.06	10.20	-40.0	-51.6	3.8	8.46e-01	0	59	104	0	51	13795
2026-01-26 03:48:48.43	354.92	10.25	-40.1	-51.6	3.8	8.46e-01	0	59	104	0	51	13847
2026-01-26 03:48:49.44	354.79	10.31	-40.1	-51.6	3.8	8.45e-01	0	59	104	0	51	13757
2026-01-26 03:48:50.45	354.65	10.37	-40.2	-51.7	3.8	8.45e-01	0	59	104	0	51	13970
2026-01-26 03:48:51.46	354.51	10.43	-40.2	-51.7	3.8	8.46e-01	0	59	104	0	51	13966
2026-01-26 03:48:52.47	354.37	10.49	-40.1	-51.7	3.8	8.47e-01	0	59	104	0	51	13904
2026-01-26 03:48:53.48	354.23	10.55	-40.2	-51.7	3.8	8.47e-01	0	59	104	0	51	13979
2026-01-26 03:48:54.49	354.09	10.60	-40.2	-51.7	3.8	8.47e-01	0	59	104	0	51	14038
2026-01-26 03:48:55.51	353.95	10.66	-40.2	-51.7	3.8	8.46e-01	0	59	104	0	51	13999
2026-01-26 03:48:56.51	353.81	10.72	-40.1	-51.7	3.8	8.45e-01	0	59	104	0	51	13919
2026-01-26 03:48:57.52	353.67	10.78	-40.2	-51.8	3.8	8.46e-01	0	59	104	0	51	14064
2026-01-26 03:48:58.53	353.53	10.84	-40.2	-51.8	3.8	8.47e-01	0	59	104	0	51	14061
2026-01-26 03:48:59.55	353.38	10.90	-40.2	-51.7	3.8	8.46e-01	0	59	104	0	51	14016
2026-01-26 03:49:00.56	353.24	10.95	-40.2	-51.7	3.8	8.46e-01	0	59	104	0	51	13968
2026-01-26 03:49:01.57	353.09	11.01	-40.4	-51.9	3.8	8.45e-01	0	59	104	0	51	14284
2026-01-26 03:49:02.58	352.95	11.07	-40.3	-51.8	3.8	8.45e-01	0	59	104	0	51	14171
2026-01-26 03:49:03.58	352.81	11.13	-40.3	-51.9	3.8	8.47e-01	0	60	104	0	51	14268
2026-01-26 03:49:04.60	352.66	11.19	-40.4	-51.9	3.8	8.46e-01	0	59	104	0	51	14294
2026-01-26 03:49:05.60	352.51	11.24	-40.5	-52.0	3.8	8.44e-01	0	59	104	0	51	14529
2026-01-26 03:49:06.62	352.37	11.30	-40.6	-52.1	3.8	8.45e-01	0	59	104	0	51	14657
2026-01-26 03:49:07.63	352.22	11.36	-40.6	-52.2	3.8	8.45e-01	0	59	104	0	51	14731
2026-01-26 03:49:08.64	352.07	11.42	-40.5	-52.0	3.8	8.46e-01	0	60	104	0	51	14491
2026-01-26 03:49:09.65	351.92	11.47	-40.6	-52.1	3.8	8.46e-01	0	60	104	0	51	14657
2026-01-26 03:49:10.66	351.77	11.53	-40.7	-52.2	3.8	8.46e-01	0	60	104	0	51	14858
2026-01-26 03:49:11.67	351.62	11.59	-40.6	-52.2	3.8	8.45e-01	0	60	104	0	51	14741
2026-01-26 03:49:12.68	351.47	11.65	-40.5	-52.0	3.8	8.47e-01	0	60	104	0	51	14507
2026-01-26 03:49:13.69	351.32	11.71	-40.7	-52.2	3.8	8.46e-01	0	59	104	0	52	14024
2026-01-26 03:49:14.70	351.17	11.76	-40.5	-52.1	3.8	8.47e-01	0	60	104	0	52	13812
2026-01-26 03:49:15.71	351.02	11.82	-40.5	-52.0	3.8	8.46e-01	0	60	104	0	52	13633
2026-01-26 03:49:16.72	350.86	11.88	-40.7	-52.2	3.8	8.46e-01	0	59	104	0	52	14027
2026-01-26 03:49:17.73	350.71	11.93	-40.6	-52.2	3.8	8.46e-01	0	59	104	0	52	13932
2026-01-26 03:49:18.74	350.55	11.99	-40.6	-52.2	3.8	8.46e-01	0	60	104	0	52	13924
2026-01-26 03:49:19.75	350.40	12.05	-40.6	-52.2	3.8	8.47e-01	0	60	104	0	52	13999
2026-01-26 03:49:20.76	350.24	12.11	-40.6	-52.2	3.8	8.46e-01	0	60	104	0	52	13970
2026-01-26 03:49:21.77	350.09	12.16	-40.6	-52.1	3.8	8.47e-01	0	60	104	0	52	13872
2026-01-26 03:49:22.78	349.93	12.22	-40.7	-52.2	3.8	8.46e-01	0	60	104	0	52	13974
2026-01-26 03:49:23.79	349.77	12.28	-40.7	-52.2	3.8	8.47e-01	0	60	104	0	52	13968
2026-01-26 03:49:24.80	349.62	12.33	-40.6	-52.2	3.8	8.47e-01	0	60	104	0	52	13932
2026-01-26 03:49:25.81	349.46	12.39	-40.9	-52.5	3.8	8.46e-01	0	60	104	0	52	14434
2026-01-26 03:49:26.82	349.30	12.45	-40.5	-52.1	3.8	8.47e-01	0	60	104	0	52	13797
2026-01-26 03:49:27.83	349.14	12.50	-40.8	-52.3	3.8	8.46e-01	0	60	104	0	52	14206
2026-01-26 03:49:28.84	348.98	12.56	-40.8	-52.4	3.8	8.47e-01	0	60	104	0	52	14222
2026-01-26 03:49:29.85	348.82	12.61	-41.0	-52.6	3.8	8.46e-01	0	60	104	0	52	14570
2026-01-26 03:49:30.85	348.66	12.67	-40.7	-52.3	3.8	8.48e-01	0	60	104	0	52	14144
2026-01-26 03:49:31.86	348.49	12.73	-41.0	-52.6	3.8	8.46e-01	0	60	104	0	52	14601
2026-01-26 03:49:32.87	348.33	12.78	-40.9	-52.4	3.8	8.47e-01	0	60	104	0	52	14362
2026-01-26 03:49:33.88	348.17	12.84	-41.1	-52.6	3.8	8.47e-01	0	60	104	0	52	14705
2026-01-26 03:49:34.89	348.00	12.89	-41.0	-52.6	3.8	8.46e-01	0	60	104	0	52	14604
2026-01-26 03:49:35.90	347.84	12.95	-41.1	-52.7	3.8	8.45e-01	0	60	104	0	52	14726
2026-01-26 03:49:36.91	347.67	13.01	-40.9	-52.5	3.8	8.45e-01	0	60	104	0	52	14463
2026-01-26 03:49:37.92	347.51	13.06	-41.1	-52.7	3.8	8.46e-01	0	60	104	0	52	14754
2026-01-26 03:49:38.93	347.34	13.12	-41.1	-52.6	3.8	8.46e-01	0	60	104	0	52	14678
2026-01-26 03:49:39.94	347.17	13.17	-41.2	-52.7	3.8	8.46e-01	0	60	104	0	52	14811
2026-01-26 03:49:40.95	347.01	13.23	-40.9	-52.5	3.8	8.47e-01	0	60	104	0	52	14446
2026-01-26 03:49:41.96	346.84	13.28	-40.9	-52.5	3.8	8.46e-01	0	60	104	0	52	14480
2026-01-26 03:49:42.97	346.67	13.34	-41.1	-52.7	3.8	8.47e-01	0	60	104	0	52	14750
2026-01-26 03:49:43.98	346.50	13.39	-41.1	-52.7	3.8	8.46e-01	0	60	104	0	52	14838
2026-01-26 03:49:44.99	346.33	13.45	-40.8	-52.3	3.8	8.46e-01	0	60	104	0	52	14205
2026-01-26 03:49:46.00	346.16	13.50	-40.7	-52.2	3.8	8.46e-01	0	60	104	0	52	14044
2026-01-26 03:49:47.01	345.98	13.55	-41.1	-52.7	3.8	8.45e-01	0	60	104	0	52	14773
2026-01-26 03:49:48.02	345.81	13.61	-40.9	-52.5	3.8	8.46e-01	0	60	104	0	52	14455
2026-01-26 03:49:49.03	345.64	13.66	-40.6	-52.2	3.8	8.45e-01	0	60	104	0	52	13889
2026-01-26 03:49:50.04	345.46	13.72	-40.6	-52.2	3.8	8.46e-01	0	60	104	0	52	13958
2026-01-26 03:49:51.05	345.29	13.77	-40.8	-52.5	3.8	8.46e-01	0	60	104	0	52	14419
2026-01-26 03:49:52.06	345.11	13.82	-40.7	-52.3	3.8	8.45e-01	0	60	104	0	52	14093
2026-01-26 03:49:53.07	344.94	13.88	-40.7	-52.2	3.8	8.47e-01	0	60	104	0	52	13994
2026-01-26 03:49:54.08	344.76	13.93	-40.6	-52.1	3.8	8.46e-01	0	60	104	0	52	13803
2026-01-26 03:49:55.09	344.59	13.98	-40.6	-52.2	3.8	8.47e-01	0	60	104	0	52	13961
2026-01-26 03:49:56.10	344.41	14.04	-40.8	-52.4	3.8	8.47e-01	0	60	104	0	52	14311
2026-01-26 03:49:57.11	344.23	14.09	-40.6	-52.2	3.8	8.45e-01	0	60	104	0	52	13925
2026-01-26 03:49:58.12	344.05	14.14	-40.5	-52.0	3.8	8.45e-01	0	60	104	0	52	13660
2026-01-26 03:49:59.12	343.87	14.19	-40.6	-52.2	3.8	8.46e-01	0	60	104	0	52	13898
2026-01-26 03:50:00.13	343.69	14.25	-40.6	-52.1	3.8	8.47e-01	0	60	104	0	52	13872
2026-01-26 03:50:01.14	343.51	14.30	-40.5	-52.0	3.8	8.47e-01	0	60	104	0	52	13711
2026-01-26 03:50:02.15	343.33	14.35	-40.5	-52.0	3.8	8.47e-01	0	60	104	0	52	13661
2026-01-26 03:50:03.16	343.15	14.40	-40.5	-52.0	3.8	8.46e-01	0	60	104	0	52	13678
2026-01-26 03:50:04.17	342.96	14.45	-40.6	-52.1	3.8	8.45e-01	0	60	104	0	52	13811
2026-01-26 03:50:05.18	342.78	14.51	-40.6	-52.1	3.8	8.46e-01	0	60	104	0	52	13847
2026-01-26 03:50:06.19	342.60	14.56	-40.3	-51.9	3.8	8.47e-01	0	60	104	0	52	13430
2026-01-26 03:50:07.20	342.41	14.61	-40.5	-52.0	3.8	8.45e-01	0	60	104	0	52	13660
2026-01-26 03:50:08.21	342.23	14.66	-40.6	-52.1	3.8	8.46e-01	0	60	104	0	52	13773
2026-01-26 03:50:09.22	342.04	14.71	-40.4	-51.9	3.8	8.45e-01	0	60	104	0	52	13524
2026-01-26 03:50:10.23	341.85	14.76	-40.3	-51.9	3.8	8.45e-01	0	60	104	0	52	13434
2026-01-26 03:50:11.24	341.67	14.81	-40.4	-52.0	3.8	8.47e-01	0	61	104	0	52	13570
2026-01-26 03:50:12.25	341.48	14.86	-40.4	-51.9	3.8	8.46e-01	0	61	104	0	52	13526
2026-01-26 03:50:13.26	341.29	14.91	-40.5	-52.0	3.8	8.47e-01	0	60	104	0	52	13681
2026-01-26 03:50:14.27	341.10	14.96	-40.6	-52.1	3.8	8.46e-01	0	60	104	0	52	13813
2026-01-26 03:50:15.28	340.91	15.01	-40.3	-51.8	3.8	8.47e-01	0	61	104	0	52	13298
2026-01-26 03:50:16.29	340.72	15.06	-40.6	-52.1	3.8	8.46e-01	0	61	104	0	52	13873
2026-01-26 03:50:17.30	340.53	15.11	-40.7	-52.1	3.8	8.45e-01	0	60	104	0	52	13869
2026-01-26 03:50:18.31	340.34	15.16	-40.9	-51.7	3.8	8.46e-01	0	60	104	0	52	13200
2026-01-26 03:50:19.32	340.14	15.20	-40.5	-51.9	3.8	8.47e-01	0	60	104	0	52	13495
2026-01-26 03:50:20.33	339.95	15.25	-40.9	-52.1	3.8	8.47e-01	0	60	104	0	52	13801
2026-01-26 03:50:21.33	339.76	15.30	-41.1	-51.1	3.8	8.45e-01	0	60	104	0	52	12244
2026-01-26 03:50:22.35	339.56	15.35	-40.8	-46.9	5.5	7.44e-01	0	60	0	0	53	7204
2026-01-26 03:50:23.35	339.37	15.40	-40.6	-50.2	3.8	8.47e-01	0	60	104	0	53	10462
2026-01-26 03:50:24.36	339.17	15.44	-39.9	-43.8	8.6	7.91e-02	0	61	0	3145728	51	5632
2026-01-26 03:50:25.37	338.98	15.49	-39.1	-42.2	10.4	9.11e-03	0	60	0	9437184	50	4958
2026-01-26 03:50:26.38	338.78	15.54	-38.3	-40.9	11.9	1.34e-03	0	61	0	14680064	48	4802
2026-01-26 03:50:27.39	338.58	15.58	-37.7	-40.0	12.9	1.07e-04	0	60	0	19922944	47	4568
2026-01-26 03:50:28.40	338.38	15.63	-37.4	-39.6	13.4	2.63e-05	0	61	0	26214400	46	4632
2026-01-26 03:50:29.41	338.19	15.68	-37.0	-39.1	14.1	1.48e-05	0	61	0	31457280	46	4342
2026-01-26 03:50:30.42	337.99	15.72	-37.0	-38.9	14.3	2.20e-06	0	61	0	36700160	45	4534
2026-01-26 03:50:31.43	337.79	15.77	-37.3	-39.3	14.1	5.70e-06	0	61	0	42991616	45	4712
2026-01-26 03:50:32.44	337.59	15.81	-37.7	-39.8	13.7	1.25e-05	0	61	0	48234496	45	4998
2026-01-26 03:50:33.45	337.38	15.86	-37.6	-39.6	14.0	4.50e-06	0	61	0	54525952	46	4637
2026-01-26 03:50:34.46	337.18	15.90	-37.3	-39.2	14.5	1.10e-06	0	61	0	59768832	46	4418
2026-01-26 03:50:35.47	336.98	15.95	-37.6	-39.6	14.2	3.40e-06	0	60	0	65011712	46	4644
2026-01-26 03:50:36.48	336.78	15.99	-37.7	-39.6	14.4	2.20e-06	0	61	0	71303168	46	4646
2026-01-26 03:50:37.49	336.57	16.04	-37.2	-39.0	15.1	1.10e-06	0	61	0	76546048	46	4306
2026-01-26 03:50:38.50	336.37	16.08	-37.3	-39.2	15.0	1.10e-06	0	61	0	82837504	46	4398
2026-01-26 03:50:39.51	336.16	16.12	-37.1	-38.9	15.3	0.00e+00	0	61	0	88080384	46	4264
2026-01-26 03:50:40.52	335.96	16.17	-37.0	-38.8	15.5	0.00e+00	0	60	0	94371840	46	4210
2026-01-26 03:50:41.53	335.75	16.21	-37.2	-38.9	15.4	0.00e+00	0	60	0	99614720	46	4273
2026-01-26 03:50:42.54	335.54	16.25	-37.0	-38.7	15.6	0.00e+00	0	61	0	105906176	46	4185
2026-01-26 03:50:43.55	335.34	16.29	-37.2	-38.9	15.5	0.00e+00	0	61	0	111149056	46	4256
2026-01-26 03:50:44.56	335.13	16.33	-37.0	-38.7	15.7	0.00e+00	0	61	0	116391936	46	4166
2026-01-26 03:50:45.58	334.92	16.38	-37.1	-38.8	15.6	0.00e+00	0	61	0	122683392	46	4229
2026-01-26 03:50:46.59	334.71	16.42	-37.1	-38.7	15.7	0.00e+00	0	61	0	127926272	46	4193
2026-01-26 03:50:47.60	334.50	16.46	-36.9	-38.6	15.9	0.00e+00	0	60	0	134217728	45	4351
2026-01-26 03:50:48.61	334.29	16.50	-37.0	-38.7	15.8	0.00e+00	0	61	0	139460608	45	4410
2026-01-26 03:50:49.61	334.08	16.54	-37.0	-38.6	15.9	0.00e+00	0	61	0	144703488	45	4382
2026-01-26 03:50:50.62	333.87	16.58	-37.0	-38.7	15.9	0.00e+00	0	61	0	150994944	45	4396
2026-01-26 03:50:51.63	333.66	16.62	-37.0	-38.6	15.9	0.00e+00	0	61	0	156237824	45	4386
2026-01-26 03:50:52.64	333.44	16.66	-36.9	-38.6	15.9	0.00e+00	0	61	0	162529280	45	4355
2026-01-26 03:50:53.65	333.23	16.70	-37.0	-38.6	16.0	0.00e+00	0	61	0	167772160	45	4369
2026-01-26 03:50:54.66	333.02	16.73	-37.0	-38.6	16.0	0.00e+00	0	61	0	173015040	45	4377
2026-01-26 03:50:55.67	332.80	16.77	-36.9	-38.5	16.0	0.00e+00	0	61	0	179306496	45	4338
2026-01-26 03:50:56.68	332.59	16.81	-36.8	-38.4	16.2	0.00e+00	0	61	0	184549376	45	4261
2026-01-26 03:50:57.69	332.37	16.85	-36.7	-38.3	16.3	0.00e+00	0	61	0	190840832	45	4208
2026-01-26 03:50:58.70	332.16	16.88	-36.7	-38.3	16.3	0.00e+00	0	61	0	196083712	45	4203
2026-01-26 03:50:59.71	331.94	16.92	-36.8	-38.3	16.3	0.00e+00	0	61	0	202375168	45	4230
2026-01-26 03:51:00.72	331.72	16.96	-36.7	-38.3	16.3	0.00e+00	0	61	0	207618048	45	4208
2026-01-26 03:51:01.73	331.51	16.99	-36.8	-38.3	16.3	0.00e+00	0	61	0	213909504	45	4235
2026-01-26 03:51:02.74	331.29	17.03	-36.9	-38.5	16.2	0.00e+00	0	61	0	219152384	45	4303
2026-01-26 03:51:03.75	331.07	17.06	-36.8	-38.4	16.2	0.00e+00	0	61	0	224395264	45	4275
2026-01-26 03:51:04.76	330.85	17.10	-36.7	-38.3	16.4	0.00e+00	0	61	0	230686720	45	4218
2026-01-26 03:51:05.77	330.63	17.13	-36.7	-38.3	16.4	0.00e+00	0	61	0	235929600	45	4207
2026-01-26 03:51:06.78	330.41	17.17	-36.6	-38.2	16.4	0.00e+00	0	61	0	242221056	45	4168
2026-01-26 03:51:07.79	330.19	17.20	-36.6	-38.2	16.5	0.00e+00	0	61	0	247463936	45	4168
2026-01-26 03:51:08.80	329.97	17.24	-36.6	-38.2	16.5	0.00e+00	0	61	0	252706816	45	4156
2026-01-26 03:51:09.81	329.75	17.27	-36.6	-38.1	16.6	0.00e+00	0	61	0	258998272	45	4120
2026-01-26 03:51:10.82	329.53	17.30	-36.5	-38.1	16.6	0.00e+00	0	61	0	264241152	45	4113
2026-01-26 03:51:11.83	329.30	17.33	-36.6	-38.2	16.5	0.00e+00	0	61	0	270532608	45	4163
2026-01-26 03:51:12.84	329.08	17.36	-36.6	-38.2	16.5	0.00e+00	0	61	0	275775488	45	4148
2026-01-26 03:51:13.85	328.86	17.40	-36.6	-38.1	16.6	0.00e+00	0	61	0	281018368	45	4144
2026-01-26 03:51:14.86	328.63	17.43	-36.7	-38.3	16.4	0.00e+00	0	61	0	287309824	45	4209
2026-01-26 03:51:15.87	328.41	17.46	-36.7	-38.3	16.4	0.00e+00	0	61	0	292552704	45	4218
2026-01-26 03:51:16.88	328.18	17.49	-36.7	-38.3	16.4	0.00e+00	0	61	0	298844160	45	4219
2026-01-26 03:51:17.89	327.96	17.52	-36.7	-38.3	16.4	0.00e+00	0	61	0	304087040	45	4211
2026-01-26 03:51:18.90	327.73	17.55	-36.8	-38.4	16.4	0.00e+00	0	61	0	310378496	45	4249
2026-01-26 03:51:19.91	327.50	17.58	-36.8	-38.3	16.4	0.00e+00	0	61	0	315621376	45	4227
2026-01-26 03:51:20.92	327.28	17.60	-36.8	-38.4	16.3	0.00e+00	0	61	0	321912832	45	4263
2026-01-26 03:51:21.93	327.05	17.63	-36.8	-38.4	16.3	0.00e+00	0	61	0	327155712	45	4273
2026-01-26 03:51:22.95	326.82	17.66	-36.8	-38.4	16.3	0.00e+00	0	61	0	332398592	45	4261
2026-01-26 03:51:23.95	326.60	17.69	-36.7	-38.3	16.4	0.00e+00	0	61	0	338690048	45	4219
2026-01-26 03:51:24.96	326.37	17.71	-36.8	-38.3	16.4	0.00e+00	0	61	0	343932928	45	4231
2026-01-26 03:51:25.97	326.14	17.74	-36.7	-38.3	16.5	0.00e+00	0	61	0	350224384	45	4199
2026-01-26 03:51:26.98	325.91	17.77	-36.6	-38.2	16.5	0.00e+00	0	61	0	355467264	45	4162
2026-01-26 03:51:28.00	325.68	17.79	-36.7	-38.3	16.5	0.00e+00	0	61	0	360710144	45	4204
2026-01-26 03:51:29.01	325.45	17.82	-36.8	-38.4	16.4	0.00e+00	0	61	0	367001600	45	4258
2026-01-26 03:51:30.02	325.22	17.84	-36.9	-38.5	16.2	0.00e+00	0	61	0	372244480	45	4299
2026-01-26 03:51:31.03	324.99	17.86	-36.8	-38.4	16.4	0.00e+00	0	61	0	378535936	45	4245
2026-01-26 03:51:32.04	324.75	17.89	-36.7	-38.3	16.5	0.00e+00	0	61	0	383778816	45	4204
2026-01-26 03:51:33.05	324.52	17.91	-36.7	-38.2	16.5	0.00e+00	0	61	0	389021696	45	4177
2026-01-26 03:51:34.06	324.29	17.93	-36.7	-38.3	16.5	0.00e+00	0	61	0	395313152	45	4200
2026-01-26 03:51:35.07	324.06	17.96	-36.7	-38.2	16.5	0.00e+00	0	61	0	400556032	45	4171
2026-01-26 03:51:36.08	323.83	17.98	-36.6	-38.1	16.6	0.00e+00	0	61	0	406847488	45	4142
2026-01-26 03:51:37.09	323.59	18.00	-36.5	-38.1	16.7	0.00e+00	0	61	0	412090368	45	4105
2026-01-26 03:51:38.10	323.36	18.02	-36.6	-38.1	16.6	0.00e+00	0	61	0	418381824	45	4130
2026-01-26 03:51:39.11	323.13	18.04	-36.6	-38.1	16.6	0.00e+00	0	61	0	423624704	45	4141
2026-01-26 03:51:40.12	322.89	18.06	-36.6	-38.1	16.6	0.00e+00	0	61	0	429916160	45	4129
2026-01-26 03:51:41.13	322.66	18.08	-36.6	-38.2	16.6	0.00e+00	0	61	0	435159040	45	4149
2026-01-26 03:51:42.14	322.42	18.10	-36.5	-38.0	16.7	0.00e+00	0	61	0	440401920	45	4097
2026-01-26 03:51:43.16	322.19	18.12	-36.4	-37.8	16.9	0.00e+00	0	61	0	446693376	44	4241
2026-01-26 03:51:44.17	321.95	18.13	-36.5	-38.0	16.8	0.00e+00	0	61	0	451936256	44	4295
2026-01-26 03:51:45.18	321.72	18.15	-36.4	-37.9	16.9	0.00e+00	0	61	0	458227712	44	4262
2026-01-26 03:51:46.19	321.48	18.17	-36.4	-37.9	16.8	0.00e+00	0	61	0	463470592	44	4269
2026-01-26 03:51:47.20	321.24	18.19	-36.4	-37.9	16.9	0.00e+00	0	61	0	468713472	44	4254
2026-01-26 03:51:48.21	321.01	18.20	-36.4	-37.9	16.9	0.00e+00	0	61	0	475004928	44	4259
2026-01-26 03:51:49.22	320.77	18.22	-36.4	-37.9	16.8	0.00e+00	0	61	0	480247808	44	4291
2026-01-26 03:51:50.23	320.54	18.23	-36.5	-38.0	16.8	0.00e+00	0	61	0	486539264	44	4300
2026-01-26 03:51:51.25	320.30	18.25	-36.6	-38.1	16.7	0.00e+00	0	61	0	491782144	44	4353
2026-01-26 03:51:52.25	320.06	18.26	-36.6	-38.1	16.6	0.00e+00	0	61	0	497025024	44	4389
2026-01-26 03:51:53.27	319.82	18.27	-36.5	-38.0	16.8	0.00e+00	0	61	0	503316480	44	4323
2026-01-26 03:51:54.28	319.58	18.29	-36.4	-37.9	16.8	0.00e+00	0	61	0	508559360	44	4281
2026-01-26 03:51:55.29	319.35	18.30	-36.4	-37.9	16.8	0.00e+00	0	61	0	514850816	44	4280
2026-01-26 03:51:56.30	319.11	18.31	-36.4	-37.9	16.9	0.00e+00	0	61	0	520093696	44	4250
2026-01-26 03:51:57.31	318.87	18.32	-36.3	-37.8	17.0	0.00e+00	0	61	0	526385152	44	4207
2026-01-26 03:51:58.32	318.63	18.33	-36.3	-37.8	17.0	0.00e+00	0	61	0	531628032	44	4206
2026-01-26 03:51:59.33	318.39	18.34	-36.3	-37.8	17.0	0.00e+00	0	61	0	537919488	44	4225
2026-01-26 03:52:00.34	318.15	18.35	-36.3	-37.8	17.0	0.00e+00	0	61	0	543162368	44	4214
2026-01-26 03:52:01.36	317.91	18.36	-36.3	-37.7	17.1	0.00e+00	0	61	0	548405248	44	4175
2026-01-26 03:52:02.36	317.68	18.37	-36.3	-37.8	17.0	0.00e+00	0	61	0	554696704	44	4207
2026-01-26 03:52:03.38	317.44	18.38	-36.4	-37.9	16.9	0.00e+00	0	61	0	559939584	44	4247
2026-01-26 03:52:04.39	317.20	18.39	-36.4	-37.9	16.9	0.00e+00	0	61	0	566231040	44	4277
2026-01-26 03:52:05.40	316.96	18.40	-36.4	-38.0	16.8	0.00e+00	0	61	0	571473920	44	4292
2026-01-26 03:52:06.41	316.72	18.40	-36.4	-37.9	16.8	0.00e+00	0	61	0	576716800	44	4283
2026-01-26 03:52:07.42	316.48	18.41	-36.4	-38.0	16.8	0.00e+00	0	61	0	583008256	44	4297
2026-01-26 03:52:08.43	316.24	18.42	-36.4	-37.9	16.9	0.00e+00	0	61	0	588251136	44	4276
2026-01-26 03:52:09.44	316.00	18.42	-36.4	-37.9	16.9	0.00e+00	0	61	0	594542592	44	4254
2026-01-26 03:52:10.45	315.76	18.43	-36.4	-37.9	16.9	0.00e+00	0	61	0	599785472	44	4269
2026-01-26 03:52:11.46	315.52	18.43	-36.4	-37.8	16.9	0.00e+00	0	61	0	605028352	44	4232
2026-01-26 03:52:12.47	315.28	18.43	-36.3	-37.8	17.0	0.00e+00	0	61	0	611319808	44	4226
2026-01-26 03:52:13.48	315.04	18.44	-36.3	-37.8	17.0	0.00e+00	0	61	0	616562688	44	4230
2026-01-26 03:52:14.49	314.80	18.44	-36.2	-37.6	17.1	0.00e+00	0	61	0	622854144	44	4137
2026-01-26 03:52:15.50	314.56	18.44	-36.1	-37.6	17.2	0.00e+00	0	61	0	628097024	44	4115
2026-01-26 03:52:16.51	314.32	18.44	-36.2	-37.6	17.1	0.00e+00	0	61	0	634388480	44	4127
2026-01-26 03:52:17.52	314.08	18.44	-36.2	-37.6	17.1	0.00e+00	0	61	0	639631360	44	4140
2026-01-26 03:52:18.53	313.84	18.45	-36.1	-37.6	17.2	0.00e+00	0	61	0	645922816	44	4112
2026-01-26 03:52:19.55	313.59	18.45	-36.0	-37.4	17.3	0.00e+00	0	61	0	651165696	44	4047
2026-01-26 03:52:20.56	313.35	18.45	-35.8	-37.2	17.4	0.00e+00	0	61	0	656408576	43	4179
2026-01-26 03:52:21.57	313.11	18.44	-35.8	-37.2	17.4	0.00e+00	0	61	0	662700032	43	4191
2026-01-26 03:52:22.58	312.87	18.44	-35.9	-37.4	17.2	0.00e+00	0	61	0	667942912	43	4264
2026-01-26 03:52:23.59	312.63	18.44	-36.0	-37.5	17.1	0.00e+00	0	61	0	674234368	43	4298
2026-01-26 03:52:24.60	312.39	18.44	-36.0	-37.4	17.2	0.00e+00	0	61	0	679477248	43	4276
2026-01-26 03:52:25.61	312.15	18.44	-36.0	-37.5	17.1	0.00e+00	0	61	0	684720128	43	4307
2026-01-26 03:52:26.62	311.91	18.43	-36.1	-37.6	17.1	0.00e+00	0	61	0	691011584	43	4342
2026-01-26 03:52:27.63	311.67	18.43	-36.2	-37.6	17.0	0.00e+00	0	61	0	696254464	43	4387
2026-01-26 03:52:28.64	311.43	18.42	-36.2	-37.6	17.0	0.00e+00	0	61	0	702545920	43	4390
2026-01-26 03:52:29.66	311.19	18.42	-36.2	-37.7	16.9	0.00e+00	0	61	0	707788800	43	4413
2026-01-26 03:52:30.67	310.95	18.41	-36.3	-37.8	16.8	0.00e+00	0	61	0	713031680	43	4481
2026-01-26 03:52:31.68	310.71	18.41	-36.4	-37.9	16.7	0.00e+00	0	61	0	719323136	43	4544
2026-01-26 03:52:32.69	310.47	18.40	-36.5	-38.0	16.6	0.00e+00	0	61	0	724566016	43	4594
2026-01-26 03:52:33.70	310.23	18.39	-36.4	-38.0	16.7	0.00e+00	0	61	0	730857472	43	4561
2026-01-26 03:52:34.71	309.99	18.38	-36.3	-37.8	16.8	0.00e+00	0	61	0	736100352	43	4473
2026-01-26 03:52:35.72	309.75	18.38	-36.3	-37.8	16.9	0.00e+00	0	61	0	742391808	43	4451
2026-01-26 03:52:36.73	309.51	18.37	-36.2	-37.7	16.9	0.00e+00	0	61	0	747634688	43	4434
2026-01-26 03:52:37.73	309.28	18.36	-36.2	-37.7	16.9	0.00e+00	0	61	0	753926144	43	4418
2026-01-26 03:52:38.74	309.04	18.35	-36.2	-37.7	17.0	0.00e+00	0	61	0	759169024	43	4394
2026-01-26 03:52:39.75	308.80	18.34	-36.1	-37.6	17.0	0.00e+00	0	61	0	764411904	43	4341
2026-01-26 03:52:40.76	308.56	18.33	-36.0	-37.4	17.2	0.00e+00	0	61	0	770703360	43	4271
2026-01-26 03:52:41.77	308.32	18.32	-35.9	-37.4	17.2	0.00e+00	0	61	0	775946240	43	4246
2026-01-26 03:52:42.78	308.08	18.31	-36.0	-37.5	17.1	0.00e+00	0	61	0	782237696	43	4302
2026-01-26 03:52:43.79	307.85	18.29	-36.0	-37.5	17.1	0.00e+00	0	61	0	787480576	43	4306
2026-01-26 03:52:44.80	307.61	18.28	-36.0	-37.5	17.1	0.00e+00	0	61	0	792723456	43	4298
2026-01-26 03:52:45.81	307.37	18.27	-36.1	-37.6	17.0	0.00e+00	0	61	0	799014912	43	4359
2026-01-26 03:52:46.82	307.13	18.25	-36.1	-37.6	17.0	0.00e+00	0	61	0	804257792	43	4372
2026-01-26 03:52:47.83	306.90	18.24	-36.1	-37.6	17.0	0.00e+00	0	61	0	810549248	43	4369
2026-01-26 03:52:48.84	306.66	18.22	-36.1	-37.5	17.1	0.00e+00	0	61	0	815792128	43	4329
2026-01-26 03:52:49.85	306.42	18.21	-36.1	-37.5	17.1	0.00e+00	0	61	0	821035008	43	4322
2026-01-26 03:52:50.86	306.19	18.19	-36.0	-37.5	17.1	0.00e+00	0	61	0	827326464	43	4301
2026-01-26 03:52:51.87	305.95	18.18	-36.1	-37.5	17.1	0.00e+00	0	61	0	832569344	43	4336
2026-01-26 03:52:52.88	305.71	18.16	-36.2	-37.7	17.0	0.00e+00	0	61	0	838860800	43	4400
2026-01-26 03:52:53.89	305.48	18.14	-36.2	-37.7	16.9	0.00e+00	0	61	0	844103680	43	4400
2026-01-26 03:52:54.90	305.24	18.13	-36.3	-37.8	16.8	0.00e+00	0	61	0	850395136	43	4467
2026-01-26 03:52:55.91	305.01	18.11	-36.3	-37.8	16.8	0.00e+00	0	61	0	855638016	43	4483
2026-01-26 03:52:56.92	304.77	18.09	-36.2	-37.7	16.9	0.00e+00	0	61	0	860880896	43	4431
2026-01-26 03:52:57.93	304.54	18.07	-36.4	-37.9	16.7	0.00e+00	0	61	0	867172352	43	4516
2026-01-26 03:52:58.94	304.30	18.05	-36.4	-37.9	16.7	0.00e+00	0	61	0	872415232	43	4536
2026-01-26 03:52:59.95	304.07	18.03	-36.4	-37.9	16.7	0.00e+00	0	61	0	878706688	43	4535
2026-01-26 03:53:00.96	303.83	18.01	-36.3	-37.8	16.8	0.00e+00	0	61	0	883949568	43	4487
2026-01-26 03:53:01.97	303.60	17.99	-36.3	-37.8	16.8	0.00e+00	0	61	0	889192448	43	4480
2026-01-26 03:53:02.98	303.37	17.97	-36.3	-37.8	16.8	0.00e+00	0	61	0	895483904	43	4486
2026-01-26 03:53:03.99	303.14	17.94	-36.3	-37.9	16.7	0.00e+00	0	61	0	900726784	43	4503
2026-01-26 03:53:05.00	302.90	17.92	-36.4	-37.9	16.7	0.00e+00	0	61	0	907018240	43	4528
2026-01-26 03:53:06.01	302.67	17.90	-36.4	-37.9	16.7	0.00e+00	0	61	0	912261120	43	4539
2026-01-26 03:53:07.03	302.44	17.88	-36.4	-38.0	16.7	0.00e+00	0	61	0	918552576	43	4549
2026-01-26 03:53:08.04	302.21	17.85	-36.5	-38.0	16.6	0.00e+00	0	61	0	923795456	43	4575
2026-01-26 03:53:09.05	301.97	17.83	-36.4	-38.0	16.6	0.00e+00	0	61	0	929038336	43	4570
2026-01-26 03:53:10.06	301.74	17.80	-36.4	-37.9	16.7	0.00e+00	0	61	0	935329792	43	4528
2026-01-26 03:53:11.07	301.51	17.78	-36.4	-38.0	16.6	0.00e+00	0	61	0	940572672	43	4570
2026-01-26 03:53:12.08	301.28	17.75	-36.5	-38.1	16.5	0.00e+00	0	61	0	946864128	43	4599
2026-01-26 03:53:13.09	301.05	17.73	-36.4	-37.9	16.7	0.00e+00	0	62	0	952107008	43	4515
2026-01-26 03:53:14.10	300.83	17.70	-36.3	-37.8	16.7	0.00e+00	0	61	0	958398464	43	4491
2026-01-26 03:53:15.11	300.60	17.67	-36.4	-38.0	16.6	0.00e+00	0	61	0	963641344	43	4564
2026-01-26 03:53:16.12	300.37	17.64	-36.5	-38.1	16.5	0.00e+00	0	61	0	968884224	43	4599
2026-01-26 03:53:17.13	300.14	17.62	-36.4	-38.0	16.6	0.00e+00	0	61	0	975175680	43	4558
2026-01-26 03:53:18.14	299.91	17.59	-36.5	-38.1	16.5	0.00e+00	0	61	0	980418560	43	4605
2026-01-26 03:53:19.15	299.69	17.56	-36.5	-38.0	16.5	0.00e+00	0	61	0	986710016	43	4582
2026-01-26 03:53:20.16	299.46	17.53	-36.5	-38.1	16.4	0.00e+00	0	61	0	991952896	43	4630
2026-01-26 03:53:21.17	299.23	17.50	-36.6	-38.1	16.4	0.00e+00	0	61	0	997195776	43	4648
2026-01-26 03:53:22.18	299.01	17.47	-36.6	-38.2	16.3	0.00e+00	0	61	0	1003487232	43	4696
2026-01-26 03:53:23.19	298.78	17.44	-36.6	-38.2	16.3	0.00e+00	0	61	0	1008730112	43	4682
2026-01-26 03:53:24.20	298.56	17.41	-36.6	-38.2	16.3	0.00e+00	0	61	0	1015021568	43	4675
2026-01-26 03:53:25.21	298.33	17.38	-36.5	-38.0	16.5	0.00e+00	0	61	0	1020264448	43	4578
2026-01-26 03:53:26.22	298.11	17.35	-36.5	-38.0	16.5	0.00e+00	0	61	0	1025507328	43	4587
2026-01-26 03:53:27.23	297.89	17.32	-36.4	-37.9	16.6	0.00e+00	0	61	0	1031798784	43	4533
2026-01-26 03:53:28.24	297.66	17.28	-36.4	-37.9	16.6	0.00e+00	0	61	0	1037041664	43	4531
2026-01-26 03:53:29.25	297.44	17.25	-36.4	-38.0	16.6	0.00e+00	0	61	0	1043333120	43	4549
2026-01-26 03:53:30.26	297.22	17.22	-36.4	-38.0	16.6	0.00e+00	0	61	0	1048576000	43	4551
2026-01-26 03:53:31.27	297.00	17.18	-36.4	-38.0	16.6	0.00e+00	0	61	0	1054867456	43	4559
2026-01-26 03:53:32.28	296.78	17.15	-36.5	-38.0	16.5	0.00e+00	0	61	0	1060110336	43	4571
2026-01-26 03:53:33.29	296.56	17.11	-36.4	-38.0	16.5	0.00e+00	0	61	0	1066401792	43	4563
2026-01-26 03:53:34.30	296.34	17.08	-36.5	-38.0	16.5	0.00e+00	0	61	0	1071644672	43	4571
2026-01-26 03:53:35.31	296.12	17.04	-36.4	-38.0	16.6	0.00e+00	0	61	0	1076887552	43	4553
2026-01-26 03:53:36.32	295.90	17.01	-36.5	-38.0	16.4	0.00e+00	0	62	0	1083179008	43	4598
2026-01-26 03:53:37.33	295.68	16.97	-36.6	-38.2	16.4	0.00e+00	0	61	0	1088421888	43	4659
2026-01-26 03:53:38.34	295.46	16.94	-36.7	-38.3	16.2	0.00e+00	0	61	0	1094713344	43	4722
2026-01-26 03:53:39.35	295.24	16.90	-36.7	-38.3	16.2	0.00e+00	0	61	0	1099956224	43	4738
2026-01-26 03:53:40.36	295.03	16.86	-36.7	-38.3	16.2	0.00e+00	0	61	0	1105199104	43	4750
2026-01-26 03:53:41.37	294.81	16.83	-36.8	-38.3	16.3	0.00e+00	0	61	0	1111490560	44	4489
2026-01-26 03:53:42.38	294.60	16.79	-36.8	-38.3	16.4	0.00e+00	0	61	0	1116733440	44	4479
2026-01-26 03:53:43.40	294.38	16.75	-36.7	-38.3	16.3	0.00e+00	0	61	0	1123024896	44	4469
2026-01-26 03:53:44.41	294.16	16.71	-36.7	-38.3	16.4	0.00e+00	0	61	0	1128267776	44	4462
2026-01-26 03:53:45.42	293.95	16.67	-36.8	-38.4	16.3	0.00e+00	0	61	0	1133510656	44	4498
2026-01-26 03:53:46.43	293.74	16.63	-36.7	-38.3	16.4	0.00e+00	0	62	0	1139802112	44	4452
2026-01-26 03:53:47.44	293.52	16.59	-36.6	-38.2	16.5	0.00e+00	0	62	0	1145044992	44	4403
2026-01-26 03:53:48.45	293.31	16.55	-36.6	-38.2	16.4	0.00e+00	0	61	0	1151336448	44	4410
2026-01-26 03:53:49.46	293.10	16.51	-36.7	-38.2	16.4	0.00e+00	0	62	0	1156579328	44	4440
2026-01-26 03:53:50.47	292.89	16.47	-36.6	-38.2	16.4	0.00e+00	0	61	0	1162870784	44	4432
2026-01-26 03:53:51.48	292.68	16.43	-36.7	-38.2	16.3	0.00e+00	0	61	0	1168113664	44	4441
2026-01-26 03:53:52.49	292.47	16.39	-36.8	-38.4	16.3	0.00e+00	0	61	0	1174405120	44	4504
2026-01-26 03:53:53.50	292.26	16.35	-36.8	-38.4	16.2	0.00e+00	0	61	0	1179648000	44	4526
2026-01-26 03:53:54.51	292.05	16.31	-36.8	-38.4	16.2	0.00e+00	0	61	0	1184890880	44	4533
2026-01-26 03:53:55.52	291.84	16.27	-36.8	-38.5	16.2	0.00e+00	0	62	0	1191182336	44	4553
2026-01-26 03:53:56.54	291.63	16.22	-36.9	-38.5	16.1	0.00e+00	0	61	0	1196425216	44	4591
2026-01-26 03:53:57.55	291.42	16.18	-36.9	-38.6	16.0	0.00e+00	0	61	0	1202716672	44	4614
2026-01-26 03:53:58.56	291.22	16.14	-36.9	-38.6	16.0	0.00e+00	0	61	0	1207959552	44	4619
2026-01-26 03:53:59.57	291.01	16.09	-36.9	-38.5	16.1	0.00e+00	0	61	0	1213202432	44	4568
2026-01-26 03:54:00.58	290.81	16.05	-36.9	-38.5	16.1	0.00e+00	0	62	0	1219493888	44	4564
2026-01-26 03:54:01.59	290.60	16.01	-37.0	-38.6	16.0	0.00e+00	0	61	0	1224736768	44	4637
2026-01-26 03:54:02.60	290.40	15.96	-37.1	-38.7	15.9	0.00e+00	0	61	0	1231028224	44	4692
2026-01-26 03:54:03.61	290.19	15.92	-37.2	-38.9	15.7	0.00e+00	0	61	0	1236271104	44	4761
2026-01-26 03:54:04.62	289.99	15.87	-37.1	-38.8	15.7	0.00e+00	0	61	0	1241513984	44	4754
2026-01-26 03:54:05.63	289.79	15.83	-37.2	-38.9	15.7	0.00e+00	0	61	0	1247805440	44	4760
2026-01-26 03:54:06.64	289.59	15.78	-37.1	-38.8	15.8	0.00e+00	0	61	0	1253048320	44	4745
2026-01-26 03:54:07.65	289.39	15.74	-37.0	-38.7	15.8	0.00e+00	0	61	0	1259339776	44	4681
2026-01-26 03:54:08.66	289.18	15.69	-37.0	-38.7	15.9	0.00e+00	0	61	0	1264582656	44	4664
2026-01-26 03:54:09.67	288.99	15.65	-37.1	-38.8	15.8	0.00e+00	0	61	0	1270874112	44	4708
2026-01-26 03:54:10.68	288.79	15.60	-37.0	-38.7	15.8	0.00e+00	0	61	0	1276116992	44	4687
2026-01-26 03:54:11.69	288.59	15.55	-37.0	-38.7	15.8	0.00e+00	0	62	0	1282408448	44	4682
2026-01-26 03:54:12.70	288.39	15.51	-37.1	-38.8	15.7	0.00e+00	0	61	0	1287651328	44	4713
2026-01-26 03:54:13.71	288.19	15.46	-37.1	-38.8	15.8	0.00e+00	0	61	0	1292894208	44	4706
2026-01-26 03:54:14.73	287.99	15.41	-37.1	-38.8	15.7	0.00e+00	0	61	0	1299185664	44	4714
2026-01-26 03:54:15.74	287.80	15.36	-37.1	-38.8	15.7	0.00e+00	0	62	0	1304428544	44	4736
2026-01-26 03:54:16.75	287.60	15.32	-37.2	-38.9	15.6	0.00e+00	0	61	0	1310720000	44	4775
2026-01-26 03:54:17.76	287.41	15.27	-37.2	-38.9	15.5	0.00e+00	0	61	0	1315962880	45	4533
2026-01-26 03:54:18.77	287.21	15.22	-37.0	-38.7	15.8	0.00e+00	0	61	0	1321205760	45	4417
2026-01-26 03:54:19.78	287.02	15.17	-37.0	-38.7	15.7	0.00e+00	0	61	0	1327497216	45	4438
2026-01-26 03:54:20.79	286.83	15.12	-37.1	-38.9	15.6	0.00e+00	0	61	0	1332740096	45	4494
2026-01-26 03:54:21.80	286.63	15.07	-37.1	-38.8	15.6	0.00e+00	0	61	0	1339031552	45	4464
2026-01-26 03:54:22.81	286.44	15.02	-37.1	-38.9	15.6	0.00e+00	0	62	0	1344274432	45	4501
2026-01-26 03:54:23.82	286.25	14.97	-37.2	-38.9	15.5	0.00e+00	0	61	0	1350565888	45	4524
2026-01-26 03:54:24.83	286.06	14.92	-37.3	-39.1	15.4	0.00e+00	0	61	0	1355808768	45	4607
2026-01-26 03:54:25.85	285.87	14.87	-37.3	-39.1	15.3	0.00e+00	0	61	0	1361051648	45	4621
2026-01-26 03:54:26.85	285.68	14.82	-37.3	-39.0	15.4	0.00e+00	0	61	0	1367343104	45	4596
2026-01-26 03:54:27.87	285.49	14.77	-37.2	-38.9	15.4	0.00e+00	0	61	0	1372585984	45	4533
2026-01-26 03:54:28.88	285.30	14.72	-37.1	-38.8	15.6	0.00e+00	0	61	0	1378877440	45	4485
2026-01-26 03:54:29.89	285.12	14.67	-37.2	-38.9	15.5	0.00e+00	0	61	0	1384120320	45	4516
2026-01-26 03:54:30.90	284.93	14.62	-37.2	-39.0	15.4	0.00e+00	0	61	0	1390411776	45	4566
2026-01-26 03:54:31.91	284.74	14.57	-37.3	-39.1	15.3	1.10e-06	0	62	0	1395654656	45	4638
2026-01-26 03:54:32.92	284.56	14.52	-37.5	-39.3	15.1	1.10e-06	0	61	0	1400897536	45	4714
2026-01-26 03:54:33.93	284.37	14.47	-37.5	-39.3	15.1	0.00e+00	0	61	0	1407188992	45	4754
2026-01-26 03:54:34.94	284.19	14.42	-37.5	-39.3	15.1	0.00e+00	0	61	0	1412431872	45	4729
2026-01-26 03:54:35.95	284.01	14.36	-37.5	-39.3	15.1	1.10e-06	0	61	0	1418723328	45	4737
2026-01-26 03:54:36.96	283.82	14.31	-37.5	-39.2	15.1	0.00e+00	0	61	0	1423966208	45	4705
2026-01-26 03:54:37.97	283.64	14.26	-37.3	-39.1	15.2	0.00e+00	0	62	0	1429209088	45	4635
2026-01-26 03:54:38.98	283.46	14.21	-37.4	-39.2	15.2	0.00e+00	0	62	0	1435500544	45	4660
2026-01-26 03:54:39.99	283.28	14.15	-37.4	-39.2	15.1	0.00e+00	0	62	0	1440743424	45	4701
2026-01-26 03:54:41.00	283.10	14.10	-37.5	-39.3	15.1	0.00e+00	0	61	0	1447034880	45	4726
2026-01-26 03:54:42.02	282.92	14.05	-37.5	-39.4	15.0	0.00e+00	0	62	0	1452277760	45	4760
2026-01-26 03:54:43.03	282.74	14.00	-37.5	-39.3	15.0	0.00e+00	0	61	0	1458569216	45	4733
2026-01-26 03:54:44.04	282.56	13.94	-37.5	-39.3	15.0	1.10e-06	0	61	0	1463812096	45	4720
2026-01-26 03:54:45.05	282.38	13.89	-37.5	-39.4	15.0	0.00e+00	0	61	0	1469054976	45	4760
2026-01-26 03:54:46.06	282.21	13.84	-37.6	-39.4	14.9	0.00e+00	0	62	0	1475346432	45	4810
2026-01-26 03:54:47.07	282.03	13.78	-37.6	-39.5	14.8	0.00e+00	0	62	0	1480589312	45	4855
2026-01-26 03:54:48.08	281.86	13.73	-37.6	-39.5	14.9	1.10e-06	0	61	0	1486880768	45	4835
2026-01-26 03:54:49.09	281.68	13.67	-37.7	-39.6	14.7	0.00e+00	0	62	0	1492123648	45	4892
2026-01-26 03:54:50.10	281.51	13.62	-37.7	-39.6	14.7	0.00e+00	0	61	0	1498415104	46	4650
2026-01-26 03:54:51.11	281.33	13.57	-37.7	-39.6	14.7	0.00e+00	0	62	0	1503657984	46	4624
2026-01-26 03:54:52.12	281.16	13.51	-37.8	-39.7	14.7	2.20e-06	0	62	0	1509949440	46	4672
2026-01-26 03:54:53.14	280.99	13.46	-37.7	-39.6	14.7	0.00e+00	0	62	0	1515192320	46	4615
2026-01-26 03:54:54.15	280.81	13.40	-37.6	-39.5	14.9	0.00e+00	0	62	0	1520435200	46	4560
2026-01-26 03:54:55.15	280.64	13.35	-37.6	-39.5	14.8	0.00e+00	0	61	0	1526726656	46	4548
2026-01-26 03:54:56.16	280.47	13.29	-37.6	-39.5	14.8	0.00e+00	0	62	0	1531969536	46	4577
2026-01-26 03:54:57.17	280.30	13.24	-37.7	-39.6	14.7	1.10e-06	0	61	0	1538260992	46	4612
2026-01-26 03:54:58.18	280.14	13.18	-37.8	-39.7	14.6	0.00e+00	0	62	0	1543503872	46	4674
2026-01-26 03:54:59.20	279.97	13.13	-37.6	-39.5	14.8	2.20e-06	0	61	0	1548746752	46	4574
2026-01-26 03:55:00.21	279.80	13.07	-37.6	-39.4	14.9	0.00e+00	0	61	0	1555038208	46	4513
2026-01-26 03:55:01.22	279.63	13.02	-37.6	-39.5	14.8	0.00e+00	0	61	0	1560281088	46	4548
2026-01-26 03:55:02.23	279.46	12.96	-37.5	-39.4	14.9	0.00e+00	0	62	0	1566572544	46	4508
2026-01-26 03:55:03.24	279.30	12.90	-37.6	-39.5	14.8	0.00e+00	0	61	0	1571815424	46	4560
2026-01-26 03:55:04.25	279.13	12.85	-37.6	-39.5	14.7	0.00e+00	0	62	0	1577058304	46	4577
2026-01-26 03:55:05.26	278.97	12.79	-37.7	-39.6	14.7	1.10e-06	0	61	0	1583349760	46	4644
2026-01-26 03:55:06.27	278.80	12.74	-37.7	-39.6	14.6	1.10e-06	0	61	0	1588592640	46	4648
2026-01-26 03:55:07.28	278.64	12.68	-37.6	-39.6	14.6	0.00e+00	0	61	0	1594884096	46	4606
2026-01-26 03:55:08.29	278.48	12.62	-37.6	-39.5	14.7	0.00e+00	0	62	0	1600126976	46	4554
2026-01-26 03:55:09.30	278.32	12.57	-37.5	-39.4	14.8	0.00e+00	0	61	0	1606418432	46	4514
2026-01-26 03:55:10.31	278.15	12.51	-37.6	-39.4	14.8	0.00e+00	0	61	0	1611661312	46	4534
2026-01-26 03:55:11.32	277.99	12.45	-37.6	-39.5	14.7	2.20e-06	0	62	0	1616904192	46	4554
2026-01-26 03:55:12.33	277.83	12.40	-37.6	-39.4	14.8	0.00e+00	0	62	0	1623195648	46	4541
2026-01-26 03:55:13.34	277.67	12.34	-37.7	-39.6	14.6	1.10e-06	0	62	0	1628438528	46	4633
2026-01-26 03:55:14.35	277.51	12.28	-37.8	-39.7	14.5	1.10e-06	0	61	0	1634729984	46	4680
2026-01-26 03:55:15.36	277.36	12.23	-37.8	-39.7	14.4	3.40e-06	0	61	0	1639972864	46	4688
2026-01-26 03:55:16.37	277.20	12.17	-37.8	-39.8	14.4	1.10e-06	0	61	0	1645215744	46	4708
2026-01-26 03:55:17.38	277.04	12.11	-37.8	-39.8	14.4	1.10e-06	0	62	0	1651507200	46	4708
2026-01-26 03:55:18.39	276.88	12.06	-37.8	-39.7	14.4	0.00e+00	0	61	0	1656750080	46	4677
2026-01-26 03:55:19.40	276.73	12.00	-37.8	-39.7	14.4	0.00e+00	0	61	0	1663041536	46	4684
2026-01-26 03:55:20.41	276.57	11.94	-37.8	-39.7	14.4	1.10e-06	0	62	0	1668284416	46	4704
2026-01-26 03:55:21.43	276.42	11.88	-37.9	-39.9	14.2	2.20e-06	0	61	0	1674575872	46	4760
2026-01-26 03:55:22.44	276.26	11.83	-37.9	-40.0	14.1	2.20e-06	0	62	0	1679818752	46	4819
2026-01-26 03:55:23.45	276.11	11.77	-38.0	-40.1	14.0	4.50e-06	0	61	0	1685061632	46	4895
2026-01-26 03:55:24.46	275.96	11.71	-38.1	-40.2	13.9	1.02e-05	0	61	0	1691353088	46	4930
2026-01-26 03:55:25.47	275.80	11.65	-38.0	-40.1	13.9	3.40e-06	0	61	0	1696595968	46	4872
2026-01-26 03:55:26.48	275.65	11.60	-38.0	-40.1	13.9	5.70e-06	0	61	0	1702887424	46	4884
2026-01-26 03:55:27.48	275.50	11.54	-38.0	-40.1	13.9	1.02e-05	0	62	0	1708130304	46	4888
2026-01-26 03:55:28.50	275.35	11.48	-38.0	-40.0	13.9	9.10e-06	0	62	0	1714421760	46	4867
2026-01-26 03:55:29.51	275.20	11.42	-38.0	-40.1	13.8	1.60e-05	0	61	0	1719664640	46	4877
2026-01-26 03:55:30.52	275.05	11.36	-38.0	-40.2	13.7	5.70e-06	0	61	0	1724907520	46	4933
2026-01-26 03:55:31.53	274.90	11.31	-38.1	-40.3	13.5	1.94e-05	0	61	0	1731198976	46	5000
2026-01-26 03:55:32.54	274.75	11.25	-38.2	-40.4	13.4	2.28e-05	0	61	0	1736441856	46	5051
2026-01-26 03:55:33.55	274.61	11.19	-38.2	-40.4	13.3	3.54e-05	0	61	0	1742733312	46	5099
2026-01-26 03:55:34.56	274.46	11.13	-38.2	-40.5	13.2	2.28e-05	0	61	0	1747976192	47	4834
2026-01-26 03:55:35.57	274.31	11.07	-38.3	-40.6	13.2	4.34e-05	0	62	0	1753219072	47	4872
2026-01-26 03:55:36.58	274.17	11.02	-38.3	-40.5	13.1	4.00e-05	0	61	0	1759510528	47	4861
2026-01-26 03:55:37.59	274.02	10.96	-38.3	-40.5	13.1	5.49e-05	0	62	0	1764753408	47	4868
2026-01-26 03:55:38.60	273.88	10.90	-38.3	-40.6	13.1	5.37e-05	0	61	0	1771044864	47	4877
2026-01-26 03:55:39.61	273.73	10.84	-38.3	-40.5	13.0	3.31e-05	0	61	0	1776287744	47	4864
2026-01-26 03:55:40.62	273.59	10.78	-38.3	-40.6	12.9	6.98e-05	0	61	0	1781530624	47	4884
2026-01-26 03:55:41.63	273.45	10.72	-38.3	-40.7	12.8	6.98e-05	0	61	0	1787822080	47	4933
2026-01-26 03:55:42.64	273.30	10.67	-38.4	-40.8	12.7	1.04e-04	0	61	0	1793064960	47	4997
2026-01-26 03:55:43.65	273.16	10.61	-38.4	-40.9	12.4	1.48e-04	0	61	0	1799356416	47	5089
2026-01-26 03:55:44.66	273.02	10.55	-38.5	-41.0	12.3	2.62e-04	0	62	0	1804599296	47	5148
2026-01-26 03:55:45.67	272.88	10.49	-38.6	-41.2	12.1	3.17e-04	0	62	0	1810890752	47	5236
2026-01-26 03:55:46.68	272.74	10.43	-38.7	-41.3	12.0	4.84e-04	0	62	0	1816133632	47	5302
2026-01-26 03:55:47.69	272.60	10.37	-38.8	-41.5	11.9	5.39e-04	0	62	0	1822425088	48	5104
2026-01-26 03:55:48.70	272.46	10.31	-38.8	-41.5	11.8	6.52e-04	0	62	0	1827667968	48	5110
2026-01-26 03:55:49.71	272.33	10.26	-38.9	-41.6	11.6	9.10e-04	0	62	0	1832910848	48	5212
2026-01-26 03:55:50.72	272.19	10.20	-38.9	-41.7	11.5	1.11e-03	0	62	0	1839202304	48	5235
2026-01-26 03:55:51.73	272.05	10.14	-38.9	-41.7	11.4	1.35e-03	0	61	0	1844445184	48	5265
2026-01-26 03:55:52.74	271.91	10.08	-39.0	-41.9	11.2	1.79e-03	0	62	0	1850736640	48	5349
2026-01-26 03:55:53.75	271.78	10.02	-39.0	-41.8	11.2	1.79e-03	0	62	0	1855979520	48	5329
2026-01-26 03:55:54.76	271.64	9.96	-39.0	-41.9	11.1	1.84e-03	0	62	0	1861222400	48	5345
2026-01-26 03:55:55.77	271.51	9.90	-38.9	-41.8	11.1	2.02e-03	0	62	0	1867513856	48	5338
2026-01-26 03:55:56.79	271.37	9.84	-39.0	-41.8	11.2	2.06e-03	0	62	0	1872756736	48	5333
2026-01-26 03:55:57.80	271.24	9.79	-38.9	-41.8	11.1	1.91e-03	0	62	0	1879048192	48	5317
2026-01-26 03:55:58.81	271.10	9.73	-38.9	-41.8	11.1	2.19e-03	0	62	0	1884291072	48	5296
2026-01-26 03:55:59.82	270.97	9.67	-39.0	-41.9	10.9	2.70e-03	0	62	0	1889533952	48	5392
2026-01-26 03:56:00.83	270.84	9.61	-38.9	-41.8	10.9	3.11e-03	0	62	0	1895825408	48	5335
2026-01-26 03:56:01.84	270.71	9.55	-38.9	-41.9	10.9	3.11e-03	0	62	0	1901068288	48	5377
2026-01-26 03:56:02.85	270.58	9.49	-39.0	-42.1	10.7	3.46e-03	0	62	0	1907359744	48	5490
2026-01-26 03:56:03.86	270.45	9.43	-39.0	-42.1	10.6	4.70e-03	0	62	0	1912602624	48	5515
2026-01-26 03:56:04.86	270.32	9.38	-39.0	-42.2	10.4	5.66e-03	0	62	0	1918894080	48	5544
2026-01-26 03:56:05.87	270.19	9.32	-39.1	-42.3	10.3	6.83e-03	0	62	0	1924136960	48	5631
2026-01-26 03:56:06.88	270.06	9.26	-39.2	-42.4	10.2	7.40e-03	0	62	0	1930428416	48	5698
2026-01-26 03:56:07.89	269.93	9.20	-39.2	-42.6	9.9	1.12e-02	0	62	0	1935671296	48	5823
2026-01-26 03:56:08.90	269.80	9.14	-39.3	-42.8	9.6	1.45e-02	0	62	0	1940914176	49	5653
2026-01-26 03:56:09.91	269.67	9.08	-39.4	-43.1	9.2	2.10e-02	0	62	0	1947205632	49	5843
2026-01-26 03:56:10.92	269.55	9.02	-39.5	-43.4	8.7	3.42e-02	0	62	0	1952448512	49	6058
2026-01-26 03:56:11.93	269.42	8.96	-39.7	-43.8	8.3	5.64e-02	0	62	0	1958739968	49	6318
2026-01-26 03:56:12.94	269.30	8.91	-39.8	-44.3	7.8	7.78e-02	0	62	0	1963982848	50	6296
2026-01-26 03:56:13.95	269.17	8.85	-40.0	-44.6	7.4	1.16e-01	0	61	0	1969225728	50	6559
2026-01-26 03:56:14.96	269.05	8.79	-40.1	-45.0	7.1	1.64e-01	0	61	0	1975517184	50	6837
2026-01-26 03:56:15.98	268.92	8.73	-40.2	-45.5	6.5	2.13e-01	0	62	0	1980760064	50	7233
2026-01-26 03:56:16.98	268.80	8.67	-40.3	-45.8	6.2	2.91e-01	0	62	0	1987051520	51	7049
2026-01-26 03:56:18.00	268.67	8.61	-40.3	-46.1	6.0	3.62e-01	0	62	0	1992294400	51	7324
2026-01-26 03:56:19.01	268.55	8.55	-40.3	-46.9	5.1	7.51e-01	0	62	0	1995440128	51	8079
2026-01-26 03:56:20.02	268.43	8.49	-41.1	-46.9	5.9	3.30e-01	0	62	0	1999634432	52	7620
2026-01-26 03:56:21.03	268.31	8.44	-40.0	-50.1	3.8	8.45e-01	0	62	104	2001731584	50	12240
2026-01-26 03:56:22.04	268.18	8.38	-40.9	-50.1	3.9	8.39e-01	0	62	104	2001731584	52	10928
2026-01-26 03:56:23.04	268.06	8.32	-41.0	-48.4	4.6	7.93e-01	0	62	0	2001731584	52	9067
2026-01-26 03:56:24.06	267.94	8.26	-40.7	-47.9	4.7	8.00e-01	0	62	0	2001731584	52	8480
2026-01-26 03:56:25.07	267.82	8.20	-40.6	-48.1	4.6	8.11e-01	0	62	0	2001731584	52	8735
2026-01-26 03:56:26.08	267.70	8.14	-40.7	-48.1	4.6	8.10e-01	0	62	0	2001731584	52	8740
2026-01-26 03:56:27.09	267.59	8.08	-40.7	-48.3	4.5	8.20e-01	0	62	0	2001731584	52	8932
2026-01-26 03:56:28.09	267.47	8.03	-40.8	-48.5	4.4	8.28e-01	0	62	0	2001731584	52	9132
2026-01-26 03:56:29.10	267.35	7.97	-44.1	-55.3	3.8	8.44e-01	0	62	104	2001731584	58	14177
2026-01-26 03:56:30.12	267.23	7.91	-44.6	-56.1	3.8	8.48e-01	0	62	104	2001731584	59	14658
2026-01-26 03:56:31.13	267.11	7.85	-44.7	-56.5	3.8	8.46e-01	0	62	104	2001731584	60	14461
2026-01-26 03:56:32.13	267.00	7.79	-44.8	-56.7	3.8	8.46e-01	0	61	104	2001731584	60	14721
2026-01-26 03:56:33.14	266.88	7.73	-45.0	-56.7	3.8	8.46e-01	0	62	104	2001731584	60	14812
2026-01-26 03:56:34.15	266.77	7.67	-45.0	-56.8	3.8	8.46e-01	0	62	104	2001731584	60	14882
2026-01-26 03:56:35.16	266.65	7.62	-45.0	-56.7	3.8	8.46e-01	0	62	104	2001731584	60	14864
2026-01-26 03:56:36.17	266.54	7.56	-45.0	-56.8	3.8	8.45e-01	0	62	104	2001731584	60	14897
2026-01-26 03:56:37.18	266.42	7.50	-45.0	-56.8	3.8	8.46e-01	0	62	104	2001731584	60	15004
2026-01-26 03:56:38.19	266.31	7.44	-45.1	-56.8	3.8	8.46e-01	0	62	104	2001731584	60	14991
2026-01-26 03:56:39.20	266.20	7.38	-45.0	-56.8	3.8	8.46e-01	0	62	104	2001731584	60	14887
2026-01-26 03:56:40.21	266.08	7.32	-45.0	-56.7	3.8	8.46e-01	0	62	104	2001731584	60	14835
2026-01-26 03:56:41.22	265.97	7.27	-45.0	-56.7	3.8	8.46e-01	0	62	104	2001731584	60	14744
2026-01-26 03:56:42.23	265.86	7.21	-44.9	-56.7	3.8	8.46e-01	0	62	104	2001731584	60	14792
2026-01-26 03:56:43.24	265.75	7.15	-44.9	-56.7	3.8	8.45e-01	0	62	104	2001731584	60	14758
2026-01-26 03:56:44.25	265.64	7.09	-44.9	-56.7	3.8	8.46e-01	0	62	104	2001731584	60	14724
2026-01-26 03:56:45.26	265.53	7.03	-44.9	-56.6	3.8	8.47e-01	0	62	104	2001731584	60	14671
2026-01-26 03:56:46.28	265.42	6.98	-44.9	-56.7	3.8	8.45e-01	0	62	104	2001731584	60	14778
2026-01-26 03:56:47.29	265.31	6.92	-44.9	-56.6	3.8	8.47e-01	0	62	104	2001731584	60	14675
2026-01-26 03:56:48.30	265.20	6.86	-44.9	-56.6	3.8	8.46e-01	0	62	104	2001731584	60	14672
2026-01-26 03:56:49.31	265.09	6.80	-44.9	-56.6	3.8	8.45e-01	0	62	104	2001731584	60	14620
2026-01-26 03:56:50.32	264.98	6.74	-44.9	-56.6	3.8	8.46e-01	0	62	104	2001731584	60	14556
2026-01-26 03:56:51.33	264.87	6.69	-44.9	-56.6	3.8	8.45e-01	0	62	104	2001731584	60	14654
2026-01-26 03:56:52.34	264.77	6.63	-44.8	-56.6	3.8	8.45e-01	0	62	104	2001731584	60	14581
2026-01-26 03:56:53.35	264.66	6.57	-44.9	-56.6	3.8	8.48e-01	0	62	104	2001731584	60	14563
2026-01-26 03:56:54.36	264.55	6.51	-44.9	-56.6	3.8	8.46e-01	0	62	104	2001731584	60	14589
2026-01-26 03:56:55.37	264.45	6.45	-44.8	-56.6	3.8	8.47e-01	0	62	104	2001731584	60	14632
2026-01-26 03:56:56.38	264.34	6.40	-44.8	-56.6	3.8	8.45e-01	0	62	104	2001731584	60	14618
2026-01-26 03:56:57.39	264.24	6.34	-44.8	-56.5	3.8	8.45e-01	0	62	104	2001731584	60	14498
2026-01-26 03:56:58.40	264.13	6.28	-44.8	-56.5	3.8	8.46e-01	0	62	104	2001731584	60	14435
2026-01-26 03:56:59.41	264.03	6.22	-44.8	-56.5	3.8	8.46e-01	0	62	104	2001731584	60	14473
2026-01-26 03:57:00.42	263.92	6.17	-44.8	-56.5	3.8	8.45e-01	0	62	104	2001731584	60	14477
2026-01-26 03:57:01.43	263.82	6.11	-44.8	-56.5	3.8	8.47e-01	0	62	104	2001731584	60	14403
2026-01-26 03:57:02.44	263.72	6.05	-44.8	-56.5	3.8	8.46e-01	0	62	104	2001731584	60	14467
2026-01-26 03:57:03.45	263.61	5.99	-44.8	-56.5	3.8	8.45e-01	0	62	104	2001731584	60	14409
2026-01-26 03:57:04.46	263.51	5.94	-44.8	-56.5	3.8	8.46e-01	0	62	104	2001731584	60	14435
2026-01-26 03:57:05.47	263.41	5.88	-44.8	-56.5	3.8	8.46e-01	0	62	104	2001731584	60	14451
2026-01-26 03:57:06.48	263.31	5.82	-44.8	-56.5	3.8	8.46e-01	0	62	104	2001731584	60	14423
2026-01-26 03:57:07.49	263.21	5.76	-44.7	-56.5	3.8	8.46e-01	0	62	104	2001731584	60	14430
2026-01-26 03:57:08.51	263.11	5.71	-44.7	-56.5	3.8	8.46e-01	0	62	104	2001731584	60	14427
2026-01-26 03:57:09.52	263.01	5.65	-44.7	-56.5	3.8	8.46e-01	0	62	104	2001731584	60	14427
2026-01-26 03:57:10.53	262.91	5.59	-44.7	-56.5	3.8	8.46e-01	0	62	104	2001731584	60	14458
2026-01-26 03:57:11.54	262.81	5.54	-44.7	-56.4	3.8	8.45e-01	0	62	104	2001731584	60	14368
2026-01-26 03:57:12.55	262.71	5.48	-44.7	-56.5	3.8	8.46e-01	0	62	104	2001731584	60	14428
2026-01-26 03:57:13.56	262.61	5.42	-44.7	-56.5	3.8	8.45e-01	0	62	104	2001731584	60	14378
2026-01-26 03:57:14.57	262.51	5.36	-44.7	-56.4	3.8	8.46e-01	0	62	104	2001731584	60	14344
2026-01-26 03:57:15.58	262.41	5.31	-44.7	-56.5	3.8	8.46e-01	0	62	104	2001731584	60	14381
2026-01-26 03:57:16.59	262.32	5.25	-44.7	-56.5	3.8	8.45e-01	0	62	104	2001731584	60	14413
2026-01-26 03:57:17.60	262.22	5.19	-44.7	-56.4	3.8	8.46e-01	0	62	104	2001731584	60	14344
2026-01-26 03:57:18.61	262.12	5.14	-44.7	-56.4	3.8	8.48e-01	0	62	104	2001731584	60	14324
2026-01-26 03:57:19.62	262.03	5.08	-44.7	-56.5	3.8	8.46e-01	0	62	104	2001731584	60	14443
2026-01-26 03:57:20.63	261.93	5.02	-44.7	-56.5	3.8	8.46e-01	0	62	104	2001731584	60	14459
2026-01-26 03:57:21.64	261.83	4.97	-44.6	-56.5	3.8	8.47e-01	0	62	104	2001731584	60	14419
2026-01-26 03:57:22.65	261.74	4.91	-44.7	-56.4	3.8	8.46e-01	0	62	104	2001731584	60	14366
2026-01-26 03:57:23.66	261.64	4.85	-44.7	-56.4	3.8	8.45e-01	0	62	104	2001731584	60	14368
2026-01-26 03:57:24.67	261.55	4.80	-44.7	-56.4	3.8	8.46e-01	0	62	104	2001731584	60	14328
2026-01-26 03:57:25.68	261.46	4.74	-44.6	-56.5	3.8	8.46e-01	0	62	104	2001731584	60	14382
2026-01-26 03:57:26.69	261.36	4.68	-44.7	-56.5	3.8	8.47e-01	0	62	104	2001731584	60	14425
2026-01-26 03:57:27.70	261.27	4.63	-44.7	-56.4	3.8	8.46e-01	0	62	104	2001731584	60	14348
2026-01-26 03:57:28.71	261.18	4.57	-44.7	-56.4	3.8	8.47e-01	0	62	104	2001731584	60	14347
2026-01-26 03:57:29.73	261.08	4.51	-44.7	-56.5	3.8	8.46e-01	0	62	104	2001731584	60	14384
2026-01-26 03:57:30.74	260.99	4.46	-44.7	-56.4	3.8	8.47e-01	0	62	104	2001731584	60	14322
2026-01-26 03:57:31.75	260.90	4.40	-44.7	-56.5	3.8	8.47e-01	0	62	104	2001731584	60	14456
2026-01-26 03:57:32.76	260.81	4.35	-44.7	-56.4	3.8	8.46e-01	0	62	104	2001731584	60	14343
2026-01-26 03:57:33.77	260.72	4.29	-44.7	-56.4	3.8	8.45e-01	0	62	104	2001731584	60	14317
2026-01-26 03:57:34.78	260.62	4.23	-44.7	-56.4	3.8	8.47e-01	0	62	104	2001731584	60	14334
2026-01-26 03:57:35.79	260.53	4.18	-44.7	-56.4	3.8	8.47e-01	0	62	104	2001731584	60	14348
2026-01-26 03:57:36.80	260.44	4.12	-44.7	-56.4	3.8	8.46e-01	0	62	104	2001731584	60	14326
2026-01-26 03:57:37.81	260.35	4.07	-44.7	-56.5	3.8	8.46e-01	0	62	104	2001731584	60	14380
2026-01-26 03:57:38.82	260.27	4.01	-44.7	-56.4	3.8	8.47e-01	0	62	104	2001731584	60	14316
2026-01-26 03:57:39.83	260.18	3.96	-44.7	-56.5	3.8	8.45e-01	0	62	104	2001731584	60	14376
2026-01-26 03:57:40.84	260.09	3.90	-44.7	-56.5	3.8	8.46e-01	0	62	104	2001731584	60	14385
2026-01-26 03:57:41.85	260.00	3.84	-44.7	-56.5	3.8	8.46e-01	0	62	104	2001731584	60	14432
2026-01-26 03:57:42.86	259.91	3.79	-44.7	-56.4	3.8	8.45e-01	0	62	104	2001731584	60	14365
2026-01-26 03:57:43.88	259.82	3.73	-44.7	-56.4	3.8	8.46e-01	0	62	104	2001731584	60	14316
2026-01-26 03:57:44.89	259.74	3.68	-44.7	-56.4	3.8	8.47e-01	0	62	104	2001731584	60	14371
2026-01-26 03:57:45.90	259.65	3.62	-44.7	-56.4	3.8	8.45e-01	0	62	104	2001731584	60	14345
2026-01-26 03:57:46.91	259.56	3.57	-44.7	-56.4	3.8	8.46e-01	0	62	104	2001731584	60	14341
2026-01-26 03:57:47.92	259.48	3.51	-44.7	-56.5	3.8	8.46e-01	0	62	104	2001731584	60	14425
2026-01-26 03:57:48.93	259.39	3.46	-44.7	-56.4	3.8	8.47e-01	0	62	104	2001731584	60	14342
2026-01-26 03:57:49.94	259.30	3.40	-44.7	-56.5	3.8	8.46e-01	0	62	104	2001731584	60	14452
2026-01-26 03:57:50.95	259.22	3.34	-44.7	-56.5	3.8	8.46e-01	0	62	104	2001731584	60	14469
2026-01-26 03:57:51.96	259.13	3.29	-44.7	-56.4	3.8	8.45e-01	0	62	104	2001731584	60	14343
2026-01-26 03:57:52.97	259.05	3.23	-44.7	-56.4	3.8	8.48e-01	0	62	104	2001731584	60	14284
2026-01-26 03:57:53.98	258.97	3.18	-44.7	-56.4	3.8	8.47e-01	0	62	104	2001731584	60	14342
2026-01-26 03:57:54.99	258.88	3.12	-44.7	-56.4	3.8	8.45e-01	0	62	104	2001731584	60	14342
2026-01-26 03:57:56.00	258.80	3.07	-44.7	-56.4	3.8	8.46e-01	0	62	104	2001731584	60	14362
2026-01-26 03:57:57.01	258.72	3.01	-44.7	-56.4	3.8	8.47e-01	0	62	104	2001731584	60	14302
2026-01-26 03:57:58.02	258.63	2.96	-44.7	-56.4	3.8	8.46e-01	0	62	104	2001731584	60	14362
2026-01-26 03:57:59.03	258.55	2.91	-44.7	-56.4	3.8	8.47e-01	0	62	104	2001731584	60	14311
2026-01-26 03:58:00.05	258.47	2.85	-44.7	-56.4	3.8	8.46e-01	0	62	104	2001731584	60	14359
2026-01-26 03:58:01.05	258.38	2.80	-44.7	-56.5	3.8	8.47e-01	0	62	104	2001731584	60	14390
2026-01-26 03:58:02.07	258.30	2.74	-44.7	-56.4	3.8	8.47e-01	0	62	104	2001731584	60	14345
2026-01-26 03:58:03.08	258.22	2.69	-44.7	-56.4	3.8	8.46e-01	0	62	104	2001731584	60	14343
2026-01-26 03:58:04.09	258.14	2.63	-44.7	-56.5	3.8	8.46e-01	0	62	104	2001731584	60	14391
2026-01-26 03:58:05.10	258.06	2.58	-44.7	-56.4	3.8	8.46e-01	0	62	104	2001731584	60	14356
2026-01-26 03:58:06.11	257.98	2.52	-44.7	-56.4	3.8	8.46e-01	0	62	104	2001731584	60	14370
2026-01-26 03:58:07.12	257.90	2.47	-44.7	-56.4	3.8	8.46e-01	0	62	104	2001731584	60	14332
2026-01-26 03:58:08.13	257.82	2.41	-44.7	-56.4	3.8	8.45e-01	0	62	104	2001731584	60	14317
2026-01-26 03:58:09.14	257.74	2.36	-44.7	-56.4	3.8	8.46e-01	0	62	104	2001731584	60	14278
2026-01-26 03:58:10.15	257.66	2.31	-44.7	-56.5	3.8	8.45e-01	0	62	104	2001731584	60	14394
