passes_logs/2026/01/26/R2.0S_Moscow/R2.0S_Moscow__20260126_233003_NOAA_20_JPSS-1_rec.log

#Pass ID: 20260126_233003_NOAA 20 (JPSS-1)
#Satellite: NOAA 20 (JPSS-1)
#Configuration: NOAA 20
#almurnet v.1.7.20251203
#Start time: 2026-01-26 23:30:03

#Version: 2.2.20231116
#Station: R2.0S_Moscow
#Location: 37.707566 lon 55.798166 lat
#TLE: 1 43013U 17073A   26026.46665230  .00000148  00000+0  91302-4 0  9998
#TLE: 2 43013  98.7646 327.2856 0001008  22.9532 337.1688 14.19540616424360

#Time	Az	El	Level	Level2	SNR	BER	BlckErr	Temp	State	Recorded	gain1	gain2
2026-01-26 23:30:03.39	16.97	2.02	-42.2	-56.8	3.8	1.49e+00	0	53	0	0	56	18918
2026-01-26 23:30:04.40	16.98	2.08	-42.2	-56.8	3.8	1.49e+00	0	54	104	0	56	18847
2026-01-26 23:30:05.41	16.99	2.15	-42.2	-56.8	3.8	1.49e+00	0	54	104	0	56	18870
2026-01-26 23:30:06.42	17.00	2.21	-42.2	-56.8	3.8	1.49e+00	0	54	104	0	56	18889
2026-01-26 23:30:07.43	17.01	2.28	-42.2	-56.8	3.8	1.49e+00	0	54	104	0	56	18870
2026-01-26 23:30:08.44	17.03	2.34	-42.2	-56.8	3.8	1.49e+00	0	54	104	0	56	18913
2026-01-26 23:30:09.45	17.04	2.41	-42.2	-56.8	3.8	1.49e+00	0	54	104	0	56	18885
2026-01-26 23:30:10.46	17.05	2.47	-42.2	-56.8	3.8	1.49e+00	0	54	104	0	56	18890
2026-01-26 23:30:11.47	17.06	2.54	-42.2	-56.8	3.8	1.49e+00	0	54	104	0	56	18844
2026-01-26 23:30:12.48	17.07	2.60	-42.2	-56.8	3.8	1.49e+00	0	54	104	0	56	18919
2026-01-26 23:30:13.49	17.09	2.67	-42.2	-56.9	3.8	1.49e+00	0	54	104	0	56	18949
2026-01-26 23:30:14.50	17.10	2.73	-42.2	-56.8	3.8	1.49e+00	0	55	104	0	56	18884
2026-01-26 23:30:15.51	17.11	2.80	-42.2	-56.8	3.8	1.49e+00	0	54	104	0	56	18878
2026-01-26 23:30:16.52	17.12	2.87	-42.2	-56.9	3.8	1.49e+00	0	55	104	0	56	18949
2026-01-26 23:30:17.53	17.13	2.93	-42.2	-56.9	3.8	1.49e+00	0	55	104	0	56	18981
2026-01-26 23:30:18.54	17.15	3.00	-42.2	-56.8	3.8	1.49e+00	0	55	104	0	56	18871
2026-01-26 23:30:19.55	17.16	3.07	-42.2	-56.8	3.8	1.49e+00	0	55	104	0	56	18907
2026-01-26 23:30:20.56	17.17	3.13	-42.2	-56.8	3.8	1.49e+00	0	55	104	0	56	18907
2026-01-26 23:30:21.57	17.18	3.20	-42.2	-56.8	3.8	1.49e+00	0	55	104	0	56	18922
2026-01-26 23:30:22.58	17.20	3.27	-42.2	-56.8	3.8	1.49e+00	0	55	104	0	56	18864
2026-01-26 23:30:23.59	17.21	3.33	-42.2	-56.8	3.8	1.49e+00	0	55	104	0	56	18836
2026-01-26 23:30:24.60	17.22	3.40	-42.2	-56.8	3.8	1.49e+00	0	55	104	0	56	18850
2026-01-26 23:30:25.61	17.23	3.47	-42.2	-56.8	3.8	1.49e+00	0	55	104	0	56	18873
2026-01-26 23:30:26.62	17.25	3.54	-42.2	-56.8	3.8	1.49e+00	0	55	104	0	56	18904
2026-01-26 23:30:27.63	17.26	3.60	-42.2	-56.8	3.8	1.49e+00	0	55	104	0	56	18874
2026-01-26 23:30:28.64	17.27	3.67	-42.2	-56.8	3.8	1.49e+00	0	55	104	0	56	18851
2026-01-26 23:30:29.66	17.28	3.74	-42.2	-56.8	3.8	1.49e+00	0	55	104	0	56	18869
2026-01-26 23:30:30.66	17.30	3.81	-42.2	-56.8	3.8	1.49e+00	0	56	104	0	56	18832
2026-01-26 23:30:31.67	17.31	3.88	-42.2	-56.8	3.8	1.49e+00	0	55	104	0	56	18794
2026-01-26 23:30:32.68	17.32	3.95	-42.2	-56.8	3.8	1.49e+00	0	55	104	0	56	18851
2026-01-26 23:30:33.69	17.33	4.01	-42.2	-56.8	3.8	1.49e+00	0	56	104	0	56	18801
2026-01-26 23:30:34.70	17.35	4.08	-42.2	-56.8	3.8	1.49e+00	0	56	104	0	56	18810
2026-01-26 23:30:35.72	17.36	4.15	-42.2	-56.8	3.8	1.49e+00	0	56	104	0	56	18845
2026-01-26 23:30:36.72	17.37	4.22	-42.2	-56.8	3.8	1.49e+00	0	56	104	0	56	18810
2026-01-26 23:30:37.73	17.38	4.29	-42.2	-56.8	3.8	1.49e+00	0	56	104	0	56	18843
2026-01-26 23:30:38.74	17.40	4.36	-42.2	-56.8	3.8	1.49e+00	0	56	104	0	56	18830
2026-01-26 23:30:39.75	17.41	4.43	-42.2	-56.8	3.8	1.49e+00	0	56	104	0	56	18838
2026-01-26 23:30:40.77	17.42	4.50	-42.2	-56.8	3.8	1.49e+00	0	56	104	0	56	18867
2026-01-26 23:30:41.77	17.44	4.57	-42.2	-56.8	3.8	1.49e+00	0	56	104	0	56	18868
2026-01-26 23:30:42.79	17.45	4.64	-42.2	-56.8	3.8	1.49e+00	0	56	104	0	56	18847
2026-01-26 23:30:43.80	17.46	4.71	-42.2	-56.8	3.8	1.49e+00	0	56	104	0	56	18856
2026-01-26 23:30:44.81	17.48	4.78	-42.2	-56.8	3.8	1.49e+00	0	56	104	0	56	18891
2026-01-26 23:30:45.82	17.49	4.85	-42.2	-56.8	3.8	1.49e+00	0	56	104	0	56	18918
2026-01-26 23:30:46.83	17.50	4.93	-42.2	-56.8	3.8	1.49e+00	0	56	104	0	56	18892
2026-01-26 23:30:47.84	17.52	5.00	-42.2	-56.8	3.8	1.49e+00	0	56	104	0	56	18847
2026-01-26 23:30:48.85	17.53	5.07	-42.2	-56.8	3.8	1.49e+00	0	56	104	0	56	18887
2026-01-26 23:30:49.86	17.54	5.14	-42.2	-56.8	3.8	1.49e+00	0	56	104	0	56	18846
2026-01-26 23:30:50.87	17.56	5.21	-42.2	-56.8	3.8	1.49e+00	0	57	104	0	56	18825
2026-01-26 23:30:51.88	17.57	5.29	-42.2	-56.8	3.8	1.49e+00	0	57	104	0	56	18846
2026-01-26 23:30:52.89	17.58	5.36	-42.2	-56.8	3.8	1.49e+00	0	57	104	0	56	18846
2026-01-26 23:30:53.90	17.60	5.43	-42.2	-56.8	3.8	1.49e+00	0	57	104	0	56	18796
2026-01-26 23:30:54.91	17.61	5.50	-42.2	-56.8	3.8	1.49e+00	0	57	104	0	56	18876
2026-01-26 23:30:55.92	17.62	5.58	-42.2	-56.8	3.8	1.49e+00	0	57	104	0	56	18852
2026-01-26 23:30:56.94	17.64	5.65	-42.2	-56.8	3.8	1.49e+00	0	57	104	0	56	18816
2026-01-26 23:30:57.95	17.65	5.72	-42.2	-56.8	3.8	1.49e+00	0	57	104	0	56	18837
2026-01-26 23:30:58.96	17.67	5.80	-42.2	-56.8	3.8	1.49e+00	0	57	104	0	56	18830
2026-01-26 23:30:59.97	17.68	5.87	-42.2	-56.8	3.8	1.49e+00	0	57	104	0	56	18812
2026-01-26 23:31:00.98	17.69	5.94	-42.2	-56.8	3.8	1.49e+00	0	57	104	0	56	18808
2026-01-26 23:31:01.99	17.71	6.02	-42.2	-56.8	3.8	1.49e+00	0	57	104	0	56	18820
2026-01-26 23:31:03.00	17.72	6.09	-42.2	-56.8	3.8	1.49e+00	0	57	104	0	56	18782
2026-01-26 23:31:04.01	17.74	6.17	-42.2	-56.8	3.8	1.49e+00	0	57	104	0	56	18766
2026-01-26 23:31:05.02	17.75	6.24	-42.2	-56.8	3.8	1.49e+00	0	57	104	0	56	18776
2026-01-26 23:31:06.03	17.76	6.32	-42.2	-56.8	3.8	1.49e+00	0	57	104	0	56	18787
2026-01-26 23:31:07.04	17.78	6.39	-42.2	-56.8	3.8	1.49e+00	0	57	104	0	56	18837
2026-01-26 23:31:08.05	17.79	6.47	-42.2	-56.8	3.8	1.49e+00	0	57	104	0	56	18833
2026-01-26 23:31:09.06	17.81	6.54	-42.2	-56.8	3.8	1.49e+00	0	57	104	0	56	18791
2026-01-26 23:31:10.07	17.82	6.62	-42.2	-56.8	3.8	1.49e+00	0	58	104	0	56	18779
2026-01-26 23:31:11.08	17.84	6.70	-42.2	-56.7	3.8	1.49e+00	0	58	104	0	56	18668
2026-01-26 23:31:12.09	17.85	6.77	-42.2	-56.7	3.8	1.49e+00	0	57	104	0	56	18636
2026-01-26 23:31:13.10	17.86	6.85	-42.2	-56.7	3.8	1.49e+00	0	57	104	0	56	18558
2026-01-26 23:31:14.11	17.88	6.93	-42.2	-56.6	3.8	1.49e+00	0	58	104	0	56	18442
2026-01-26 23:31:15.12	17.89	7.00	-42.2	-56.5	3.8	1.49e+00	0	58	104	0	56	18124
2026-01-26 23:31:16.13	17.91	7.08	-42.2	-56.3	3.8	1.49e+00	0	58	104	0	56	17810
2026-01-26 23:31:17.15	17.92	7.16	-42.2	-56.2	3.8	1.49e+00	0	58	104	0	56	17606
2026-01-26 23:31:18.15	17.94	7.24	-42.2	-56.2	3.8	1.49e+00	0	58	104	0	56	17522
2026-01-26 23:31:19.17	17.95	7.32	-42.2	-56.1	3.8	1.49e+00	0	58	104	0	56	17381
2026-01-26 23:31:20.18	17.97	7.39	-42.2	-55.9	3.8	1.49e+00	0	58	104	0	56	16894
2026-01-26 23:31:21.19	17.98	7.47	-42.1	-55.4	3.8	1.49e+00	0	58	104	0	56	16013
2026-01-26 23:31:22.20	18.00	7.55	-42.1	-54.7	3.8	1.49e+00	0	58	104	0	56	14807
2026-01-26 23:31:23.21	18.01	7.63	-42.0	-54.0	3.9	1.48e+00	0	58	104	0	56	13656
2026-01-26 23:31:24.22	18.03	7.71	-41.8	-52.9	4.3	1.41e+00	0	58	0	0	55	12692
2026-01-26 23:31:25.23	18.04	7.79	-41.7	-51.9	4.6	1.27e+00	0	58	0	1048576	55	11365
2026-01-26 23:31:26.24	18.06	7.87	-41.6	-51.0	5.1	7.59e-01	0	58	0	3145728	55	10246
2026-01-26 23:31:27.25	18.07	7.95	-41.5	-50.1	5.6	5.40e-01	0	58	0	5242880	54	9751
2026-01-26 23:31:28.26	18.09	8.03	-41.4	-49.3	6.2	3.98e-01	0	58	0	6291456	54	8888
2026-01-26 23:31:29.27	18.10	8.11	-41.9	-49.4	6.7	2.83e-01	0	58	0	8388608	54	9036
2026-01-26 23:31:30.28	18.12	8.19	-41.6	-47.4	8.7	1.42e-01	0	58	0	10485760	55	6724
2026-01-26 23:31:31.29	18.14	8.27	-41.6	-54.2	3.8	6.83e-01	0	58	104	11534336	54	15739
2026-01-26 23:31:32.30	18.15	8.35	-41.7	-50.3	4.3	1.44e+00	0	58	104	11534336	54	10025
2026-01-26 23:31:33.31	18.17	8.43	-41.9	-48.5	7.7	5.56e-02	0	58	0	12582912	54	8100
2026-01-26 23:31:34.32	18.18	8.52	-41.7	-47.8	8.3	4.16e-02	0	58	0	14680064	54	7529
2026-01-26 23:31:35.33	18.20	8.60	-41.8	-48.3	7.8	7.00e-02	0	58	0	15728640	54	7972
2026-01-26 23:31:36.35	18.21	8.68	-41.8	-48.0	8.3	6.49e-02	0	59	0	17825792	54	7700
2026-01-26 23:31:37.36	18.23	8.76	-41.7	-47.6	8.8	3.75e-02	0	58	0	19922944	54	7299
2026-01-26 23:31:38.37	18.25	8.85	-41.8	-47.5	8.9	2.61e-02	0	58	0	22020096	54	7286
2026-01-26 23:31:39.38	18.26	8.93	-41.9	-47.7	8.7	2.67e-02	0	59	0	24117248	54	7443
2026-01-26 23:31:40.39	18.28	9.01	-41.8	-47.5	9.0	3.24e-02	0	58	0	25165824	54	7265
2026-01-26 23:31:41.40	18.29	9.10	-41.7	-47.0	9.6	1.55e-02	0	58	0	27262976	54	6829
2026-01-26 23:31:42.41	18.31	9.18	-41.7	-47.1	9.4	1.48e-02	0	59	0	29360128	54	6952
2026-01-26 23:31:43.42	18.33	9.27	-41.7	-46.9	9.7	1.38e-02	0	59	0	31457280	54	6744
2026-01-26 23:31:44.42	18.34	9.35	-41.7	-47.0	9.6	1.11e-02	0	59	0	33554432	54	6859
2026-01-26 23:31:45.44	18.36	9.43	-41.8	-47.2	9.5	1.47e-02	0	59	0	34603008	54	6980
2026-01-26 23:31:46.45	18.38	9.52	-41.8	-47.2	9.6	1.28e-02	0	59	0	36700160	54	6995
2026-01-26 23:31:47.46	18.39	9.61	-41.8	-47.1	9.8	1.03e-02	0	59	0	38797312	54	6885
2026-01-26 23:31:48.47	18.41	9.69	-41.8	-47.1	9.7	1.05e-02	0	59	0	40894464	54	6905
2026-01-26 23:31:49.47	18.43	9.78	-41.7	-46.7	10.1	7.85e-03	0	59	0	42991616	54	6622
2026-01-26 23:31:50.48	18.44	9.86	-41.8	-47.0	9.9	8.18e-03	0	59	0	44040192	54	6803
2026-01-26 23:31:51.49	18.46	9.95	-41.8	-46.8	10.2	7.26e-03	0	59	0	46137344	54	6650
2026-01-26 23:31:52.50	18.48	10.04	-41.8	-46.8	10.2	6.06e-03	0	59	0	48234496	54	6689
2026-01-26 23:31:53.51	18.49	10.12	-41.7	-46.4	10.5	5.05e-03	0	59	0	50331648	54	6402
2026-01-26 23:31:54.52	18.51	10.21	-41.7	-46.5	10.5	4.01e-03	0	59	0	52428800	54	6492
2026-01-26 23:31:55.54	18.53	10.30	-41.8	-46.6	10.4	4.79e-03	0	59	0	54525952	54	6557
2026-01-26 23:31:56.55	18.55	10.39	-41.8	-46.7	10.4	4.76e-03	0	59	0	55574528	54	6631
2026-01-26 23:31:57.56	18.56	10.48	-41.8	-46.6	10.5	4.58e-03	0	59	0	57671680	54	6516
2026-01-26 23:31:58.57	18.58	10.57	-41.8	-46.7	10.3	4.90e-03	0	59	0	59768832	54	6638
2026-01-26 23:31:59.58	18.60	10.65	-41.7	-46.4	10.7	3.58e-03	0	59	0	61865984	54	6403
2026-01-26 23:32:00.58	18.62	10.74	-41.7	-46.3	10.8	3.66e-03	0	59	0	63963136	54	6322
2026-01-26 23:32:01.59	18.63	10.83	-41.7	-46.3	10.9	2.48e-03	0	59	0	65011712	54	6288
2026-01-26 23:32:02.60	18.65	10.92	-41.7	-46.3	10.9	2.48e-03	0	59	0	67108864	54	6275
2026-01-26 23:32:03.61	18.67	11.01	-41.8	-46.5	10.7	2.23e-03	0	59	0	69206016	54	6441
2026-01-26 23:32:04.62	18.69	11.10	-41.8	-46.4	10.7	2.29e-03	0	59	0	71303168	54	6417
2026-01-26 23:32:05.63	18.71	11.20	-41.7	-46.2	11.0	2.42e-03	0	59	0	73400320	54	6263
2026-01-26 23:32:06.64	18.72	11.29	-41.7	-46.2	11.1	2.03e-03	0	59	0	74448896	54	6207
2026-01-26 23:32:07.66	18.74	11.38	-41.7	-46.1	11.1	1.50e-03	0	59	0	76546048	54	6201
2026-01-26 23:32:08.66	18.76	11.47	-41.6	-46.0	11.3	1.38e-03	0	59	0	78643200	54	6105
2026-01-26 23:32:09.67	18.78	11.56	-41.7	-46.1	11.3	1.23e-03	0	59	0	80740352	54	6132
2026-01-26 23:32:10.68	18.80	11.66	-41.6	-46.0	11.3	1.24e-03	0	59	0	82837504	54	6102
2026-01-26 23:32:11.69	18.82	11.75	-41.7	-46.0	11.4	1.18e-03	0	59	0	83886080	54	6099
2026-01-26 23:32:12.70	18.83	11.84	-41.7	-46.0	11.4	1.01e-03	0	59	0	85983232	54	6087
2026-01-26 23:32:13.71	18.85	11.94	-41.6	-45.9	11.5	8.47e-04	0	59	0	88080384	54	6014
2026-01-26 23:32:14.72	18.87	12.03	-41.6	-45.8	11.6	8.52e-04	0	59	0	90177536	54	5988
2026-01-26 23:32:15.73	18.89	12.13	-41.7	-45.9	11.5	7.67e-04	0	59	0	92274688	54	6057
2026-01-26 23:32:16.74	18.91	12.22	-41.6	-45.9	11.6	8.54e-04	0	59	0	93323264	54	6007
2026-01-26 23:32:17.75	18.93	12.32	-41.7	-46.0	11.5	8.14e-04	0	60	0	95420416	54	6079
2026-01-26 23:32:18.76	18.95	12.41	-41.6	-45.8	11.7	6.63e-04	0	60	0	97517568	54	5931
2026-01-26 23:32:19.77	18.97	12.51	-41.6	-45.7	11.8	5.89e-04	0	60	0	99614720	54	5886
2026-01-26 23:32:20.78	18.99	12.60	-41.6	-45.8	11.7	5.03e-04	0	60	0	101711872	54	5924
2026-01-26 23:32:21.79	19.01	12.70	-41.5	-45.6	11.9	3.97e-04	0	60	0	102760448	54	5825
2026-01-26 23:32:22.80	19.03	12.80	-41.5	-45.5	12.0	3.11e-04	0	60	0	104857600	54	5778
2026-01-26 23:32:23.81	19.04	12.90	-41.6	-45.6	11.9	3.93e-04	0	60	0	106954752	54	5855
2026-01-26 23:32:24.82	19.06	12.99	-41.5	-45.5	12.0	3.85e-04	0	60	0	109051904	54	5781
2026-01-26 23:32:25.83	19.08	13.09	-41.6	-45.6	11.9	3.87e-04	0	60	0	111149056	54	5855
2026-01-26 23:32:26.83	19.10	13.19	-41.5	-45.6	12.0	3.94e-04	0	60	0	112197632	54	5791
2026-01-26 23:32:27.84	19.12	13.29	-41.6	-45.6	12.0	3.18e-04	0	60	0	114294784	54	5811
2026-01-26 23:32:28.85	19.14	13.39	-41.6	-45.6	12.0	3.03e-04	0	60	0	116391936	54	5808
2026-01-26 23:32:29.86	19.17	13.49	-41.5	-45.5	12.1	3.68e-04	0	60	0	118489088	54	5726
2026-01-26 23:32:30.87	19.19	13.59	-41.5	-45.5	12.0	2.76e-04	0	60	0	120586240	54	5763
2026-01-26 23:32:31.88	19.21	13.69	-41.5	-45.5	12.0	3.04e-04	0	60	0	122683392	54	5767
2026-01-26 23:32:32.89	19.23	13.79	-41.5	-45.5	12.0	3.51e-04	0	60	0	123731968	54	5788
2026-01-26 23:32:33.90	19.25	13.89	-41.5	-45.5	12.1	3.07e-04	0	60	0	125829120	54	5764
2026-01-26 23:32:34.91	19.27	14.00	-41.5	-45.5	12.1	3.06e-04	0	60	0	127926272	54	5741
2026-01-26 23:32:35.92	19.29	14.10	-41.5	-45.5	12.0	2.72e-04	0	60	0	130023424	54	5769
2026-01-26 23:32:36.93	19.31	14.20	-41.6	-45.7	11.9	3.41e-04	0	60	0	132120576	54	5870
2026-01-26 23:32:37.94	19.33	14.31	-41.5	-45.5	12.1	3.46e-04	0	60	0	133169152	54	5742
2026-01-26 23:32:38.95	19.35	14.41	-41.5	-45.5	12.1	2.66e-04	0	60	0	135266304	54	5746
2026-01-26 23:32:39.96	19.37	14.51	-41.6	-45.5	12.1	2.84e-04	0	60	0	137363456	54	5787
2026-01-26 23:32:40.97	19.40	14.62	-41.5	-45.4	12.2	2.36e-04	0	60	0	139460608	54	5701
2026-01-26 23:32:41.98	19.42	14.72	-41.5	-45.4	12.2	1.86e-04	0	60	0	141557760	54	5696
2026-01-26 23:32:42.98	19.44	14.83	-41.6	-45.5	12.2	2.48e-04	0	60	0	142606336	54	5749
2026-01-26 23:32:43.99	19.46	14.93	-41.6	-45.5	12.2	2.16e-04	0	60	0	144703488	54	5739
2026-01-26 23:32:45.00	19.48	15.04	-41.6	-45.5	12.2	2.20e-04	0	60	0	146800640	54	5767
2026-01-26 23:32:46.01	19.51	15.15	-41.6	-45.5	12.2	2.33e-04	0	60	0	148897792	54	5729
2026-01-26 23:32:47.02	19.53	15.26	-41.6	-45.5	12.2	2.12e-04	0	60	0	150994944	54	5746
2026-01-26 23:32:48.03	19.55	15.36	-41.7	-45.6	12.1	2.66e-04	0	60	0	152043520	54	5817
2026-01-26 23:32:49.04	19.57	15.47	-41.7	-45.6	12.2	2.43e-04	0	60	0	154140672	54	5808
2026-01-26 23:32:50.05	19.60	15.58	-41.6	-45.5	12.2	1.91e-04	0	60	0	156237824	54	5774
2026-01-26 23:32:51.06	19.62	15.69	-41.7	-45.6	12.2	2.07e-04	0	60	0	158334976	54	5800
2026-01-26 23:32:52.07	19.64	15.80	-41.7	-45.6	12.1	2.37e-04	0	60	0	160432128	54	5830
2026-01-26 23:32:53.08	19.67	15.91	-41.7	-45.6	12.1	2.68e-04	0	60	0	161480704	54	5845
2026-01-26 23:32:54.09	19.69	16.02	-41.7	-45.7	12.1	2.60e-04	0	60	0	163577856	54	5880
2026-01-26 23:32:55.10	19.71	16.13	-41.8	-45.8	11.9	3.19e-04	0	60	0	165675008	54	5984
2026-01-26 23:32:56.11	19.74	16.25	-41.8	-45.8	12.0	3.74e-04	0	60	0	167772160	54	5940
2026-01-26 23:32:57.12	19.76	16.36	-41.7	-45.7	12.0	3.46e-04	0	60	0	169869312	54	5912
2026-01-26 23:32:58.13	19.78	16.47	-41.7	-45.8	12.0	3.53e-04	0	60	0	170917888	54	5931
2026-01-26 23:32:59.14	19.81	16.59	-41.8	-45.8	11.9	3.80e-04	0	60	0	173015040	54	5984
2026-01-26 23:33:00.15	19.83	16.70	-41.8	-45.9	11.9	4.16e-04	0	60	0	175112192	54	6016
2026-01-26 23:33:01.15	19.86	16.81	-41.8	-45.9	11.9	4.69e-04	0	60	0	177209344	54	6027
2026-01-26 23:33:02.16	19.88	16.93	-41.8	-45.9	11.8	4.62e-04	0	60	0	179306496	54	6042
2026-01-26 23:33:03.18	19.90	17.05	-41.9	-46.0	11.8	4.68e-04	0	60	0	180355072	54	6078
2026-01-26 23:33:04.18	19.93	17.16	-41.9	-46.1	11.7	6.03e-04	0	60	0	182452224	54	6155
2026-01-26 23:33:05.19	19.95	17.28	-41.9	-46.0	11.8	6.35e-04	0	61	0	184549376	54	6112
2026-01-26 23:33:06.20	19.98	17.39	-41.9	-46.1	11.7	6.03e-04	0	60	0	186646528	54	6174
2026-01-26 23:33:07.21	20.00	17.51	-42.0	-46.2	11.6	6.45e-04	0	61	0	188743680	54	6230
2026-01-26 23:33:08.22	20.03	17.63	-42.0	-46.1	11.7	6.00e-04	0	60	0	190840832	54	6192
2026-01-26 23:33:09.23	20.06	17.75	-42.0	-46.2	11.6	6.83e-04	0	60	0	191889408	54	6223
2026-01-26 23:33:10.24	20.08	17.87	-42.0	-46.2	11.7	7.00e-04	0	60	0	193986560	54	6228
2026-01-26 23:33:11.25	20.11	17.99	-42.0	-46.3	11.6	6.51e-04	0	60	0	196083712	54	6290
2026-01-26 23:33:12.26	20.13	18.11	-42.1	-46.4	11.5	8.37e-04	0	61	0	198180864	54	6363
2026-01-26 23:33:13.27	20.16	18.23	-42.1	-46.4	11.4	9.60e-04	0	60	0	200278016	54	6381
2026-01-26 23:33:14.29	20.19	18.36	-42.2	-46.5	11.3	9.99e-04	0	60	0	201326592	54	6462
2026-01-26 23:33:15.30	20.21	18.48	-42.2	-46.6	11.3	1.19e-03	0	60	0	203423744	54	6516
2026-01-26 23:33:16.31	20.24	18.60	-42.3	-46.7	11.1	1.46e-03	0	61	0	205520896	55	6241
2026-01-26 23:33:17.31	20.27	18.72	-42.3	-46.8	11.0	1.59e-03	0	60	0	207618048	55	6301
2026-01-26 23:33:18.32	20.29	18.85	-42.2	-46.6	11.2	1.50e-03	0	60	0	209715200	55	6194
2026-01-26 23:33:19.34	20.32	18.97	-42.3	-46.8	11.1	1.64e-03	0	61	0	210763776	55	6281
2026-01-26 23:33:20.35	20.35	19.10	-42.3	-46.7	11.1	1.65e-03	0	61	0	212860928	55	6266
2026-01-26 23:33:21.35	20.38	19.23	-42.3	-46.8	11.1	1.69e-03	0	60	0	214958080	55	6287
2026-01-26 23:33:22.36	20.41	19.35	-42.3	-46.9	11.0	1.88e-03	0	61	0	217055232	55	6359
2026-01-26 23:33:23.37	20.43	19.48	-42.3	-46.9	11.0	1.80e-03	0	61	0	219152384	55	6357
2026-01-26 23:33:24.38	20.46	19.61	-42.4	-47.0	10.9	1.86e-03	0	61	0	220200960	55	6444
2026-01-26 23:33:25.39	20.49	19.74	-42.4	-46.9	10.9	2.22e-03	0	61	0	222298112	55	6420
2026-01-26 23:33:26.40	20.52	19.87	-42.4	-46.9	11.0	1.98e-03	0	61	0	224395264	55	6409
2026-01-26 23:33:27.41	20.55	20.00	-42.4	-47.0	10.9	2.18e-03	0	61	0	226492416	55	6472
2026-01-26 23:33:28.42	20.58	20.13	-42.4	-47.1	10.8	2.38e-03	0	61	0	228589568	55	6502
2026-01-26 23:33:29.43	20.61	20.26	-42.4	-47.0	10.8	2.34e-03	0	61	0	229638144	55	6476
2026-01-26 23:33:30.44	20.64	20.39	-42.4	-47.0	10.8	2.53e-03	0	61	0	231735296	55	6489
2026-01-26 23:33:31.45	20.67	20.53	-42.4	-47.1	10.8	2.35e-03	0	61	0	233832448	55	6504
2026-01-26 23:33:32.46	20.70	20.66	-42.5	-47.1	10.8	2.53e-03	0	61	0	235929600	55	6534
2026-01-26 23:33:33.47	20.73	20.79	-42.4	-47.0	10.9	2.39e-03	0	61	0	238026752	55	6445
2026-01-26 23:33:34.49	20.76	20.93	-42.4	-47.0	10.9	2.12e-03	0	61	0	239075328	55	6466
2026-01-26 23:33:35.50	20.79	21.07	-42.4	-47.0	10.9	2.09e-03	0	61	0	241172480	55	6464
2026-01-26 23:33:36.51	20.82	21.20	-42.5	-47.1	10.8	2.17e-03	0	61	0	243269632	55	6521
2026-01-26 23:33:37.52	20.85	21.34	-42.4	-47.0	10.9	2.38e-03	0	61	0	245366784	55	6474
2026-01-26 23:33:38.53	20.88	21.48	-42.4	-47.0	10.9	2.35e-03	0	61	0	247463936	55	6468
2026-01-26 23:33:39.54	20.91	21.62	-42.4	-46.9	11.0	2.10e-03	0	61	0	248512512	55	6416
2026-01-26 23:33:40.55	20.95	21.76	-42.4	-47.0	11.0	1.70e-03	0	61	0	250609664	55	6449
2026-01-26 23:33:41.56	20.98	21.90	-42.4	-46.9	11.0	2.01e-03	0	61	0	252706816	55	6419
2026-01-26 23:33:42.57	21.01	22.04	-42.4	-46.9	11.1	1.65e-03	0	61	0	254803968	55	6351
2026-01-26 23:33:43.58	21.04	22.18	-42.4	-46.8	11.1	1.52e-03	0	61	0	256901120	55	6338
2026-01-26 23:33:44.59	21.08	22.33	-42.4	-46.9	11.1	1.60e-03	0	61	0	258998272	55	6380
2026-01-26 23:33:45.59	21.11	22.47	-42.4	-46.9	11.1	1.64e-03	0	61	0	260046848	55	6355
2026-01-26 23:33:46.60	21.14	22.61	-42.5	-47.0	11.0	1.85e-03	0	61	0	262144000	55	6431
2026-01-26 23:33:47.61	21.18	22.76	-42.4	-46.8	11.2	1.97e-03	0	61	0	264241152	55	6332
2026-01-26 23:33:48.62	21.21	22.90	-42.4	-46.8	11.1	1.42e-03	0	61	0	266338304	55	6339
2026-01-26 23:33:49.63	21.25	23.05	-42.4	-46.7	11.2	1.23e-03	0	61	0	268435456	55	6273
2026-01-26 23:33:50.64	21.28	23.20	-42.3	-46.6	11.4	1.09e-03	0	61	0	269484032	55	6162
2026-01-26 23:33:51.65	21.32	23.35	-42.3	-46.6	11.5	8.55e-04	0	61	0	271581184	55	6138
2026-01-26 23:33:52.66	21.35	23.50	-42.3	-46.5	11.5	9.19e-04	0	61	0	273678336	55	6130
2026-01-26 23:33:53.67	21.39	23.65	-42.2	-46.4	11.7	7.25e-04	0	61	0	275775488	55	6009
2026-01-26 23:33:54.68	21.42	23.80	-42.2	-46.4	11.7	5.67e-04	0	61	0	277872640	55	5993
2026-01-26 23:33:55.69	21.46	23.95	-42.1	-46.2	11.9	5.46e-04	0	61	0	278921216	55	5884
2026-01-26 23:33:56.70	21.50	24.10	-42.1	-46.2	11.9	4.00e-04	0	61	0	281018368	55	5885
2026-01-26 23:33:57.71	21.53	24.26	-42.1	-46.1	12.0	3.94e-04	0	61	0	283115520	55	5822
2026-01-26 23:33:58.72	21.57	24.41	-42.1	-46.0	12.1	3.21e-04	0	61	0	285212672	55	5748
2026-01-26 23:33:59.73	21.61	24.57	-42.0	-45.9	12.1	2.73e-04	0	61	0	287309824	55	5721
2026-01-26 23:34:00.72	21.64	24.72	-42.0	-45.9	12.2	2.59e-04	0	61	0	288358400	55	5685
2026-01-26 23:34:01.73	21.68	24.88	-42.0	-46.0	12.1	2.38e-04	0	61	0	290455552	55	5727
2026-01-26 23:34:02.74	21.72	25.04	-42.0	-46.0	12.1	2.48e-04	0	61	0	292552704	55	5739
2026-01-26 23:34:03.75	21.76	25.20	-42.0	-45.8	12.2	2.59e-04	0	61	0	294649856	55	5649
2026-01-26 23:34:04.76	21.80	25.36	-42.1	-46.0	12.0	2.94e-04	0	61	0	296747008	55	5767
2026-01-26 23:34:05.77	21.84	25.52	-42.0	-46.0	12.0	3.58e-04	0	61	0	297795584	55	5757
2026-01-26 23:34:06.78	21.88	25.68	-42.0	-45.9	12.2	2.25e-04	0	61	0	299892736	55	5703
2026-01-26 23:34:07.79	21.92	25.84	-42.1	-46.0	12.1	2.78e-04	0	61	0	301989888	55	5753
2026-01-26 23:34:08.80	21.96	26.01	-42.1	-46.0	12.1	3.56e-04	0	61	0	304087040	55	5779
2026-01-26 23:34:09.81	22.00	26.17	-42.1	-46.2	12.0	3.11e-04	0	61	0	306184192	55	5856
2026-01-26 23:34:10.82	22.04	26.34	-42.1	-46.2	11.9	4.36e-04	0	61	0	307232768	55	5876
2026-01-26 23:34:11.83	22.08	26.51	-42.2	-46.2	11.9	4.10e-04	0	61	0	309329920	55	5920
2026-01-26 23:34:12.84	22.13	26.67	-42.3	-46.4	11.6	6.18e-04	0	61	0	311427072	55	6043
2026-01-26 23:34:13.85	22.17	26.84	-42.3	-46.6	11.5	7.75e-04	0	61	0	313524224	55	6135
2026-01-26 23:34:14.86	22.21	27.01	-42.4	-46.7	11.4	9.09e-04	0	61	0	315621376	55	6257
2026-01-26 23:34:15.86	22.26	27.18	-42.5	-46.8	11.2	1.19e-03	0	61	0	316669952	55	6343
2026-01-26 23:34:16.87	22.30	27.36	-42.5	-47.0	11.1	1.38e-03	0	61	0	318767104	55	6468
2026-01-26 23:34:17.88	22.34	27.53	-42.6	-47.1	11.0	2.03e-03	0	61	0	320864256	55	6532
2026-01-26 23:34:18.89	22.39	27.71	-42.6	-47.2	10.9	2.10e-03	0	61	0	322961408	55	6632
2026-01-26 23:34:19.90	22.43	27.88	-42.7	-47.3	10.8	2.91e-03	0	61	0	325058560	55	6668
2026-01-26 23:34:20.91	22.48	28.06	-42.9	-47.7	10.5	3.90e-03	0	61	0	327155712	56	6595
2026-01-26 23:34:21.92	22.53	28.24	-43.0	-47.8	10.4	3.74e-03	0	61	0	328204288	56	6687
2026-01-26 23:34:22.93	22.57	28.42	-42.9	-47.8	10.5	4.52e-03	0	61	0	330301440	56	6649
2026-01-26 23:34:23.94	22.62	28.60	-43.0	-47.9	10.3	4.89e-03	0	61	0	332398592	56	6762
2026-01-26 23:34:24.95	22.67	28.78	-43.1	-48.0	10.2	5.77e-03	0	61	0	334495744	56	6874
2026-01-26 23:34:25.96	22.72	28.96	-43.0	-48.0	10.3	5.25e-03	0	61	0	336592896	56	6805
2026-01-26 23:34:26.96	22.76	29.14	-43.1	-48.1	10.2	5.93e-03	0	61	0	337641472	56	6888
2026-01-26 23:34:27.97	22.81	29.33	-43.1	-48.0	10.2	6.18e-03	0	61	0	339738624	56	6872
2026-01-26 23:34:28.98	22.86	29.51	-43.1	-48.1	10.2	7.04e-03	0	61	0	341835776	56	6887
2026-01-26 23:34:29.99	22.91	29.70	-43.1	-48.1	10.1	6.70e-03	0	61	0	343932928	56	6899
2026-01-26 23:34:31.00	22.96	29.89	-43.0	-47.9	10.3	5.37e-03	0	61	0	346030080	56	6771
2026-01-26 23:34:32.01	23.02	30.08	-43.1	-48.0	10.3	5.66e-03	0	61	0	347078656	56	6838
2026-01-26 23:34:33.02	23.07	30.27	-43.1	-48.2	10.1	6.53e-03	0	61	0	349175808	56	6964
2026-01-26 23:34:34.03	23.12	30.46	-43.1	-48.1	10.2	5.80e-03	0	61	0	351272960	56	6897
2026-01-26 23:34:35.04	23.17	30.66	-43.2	-48.2	10.0	7.19e-03	0	61	0	353370112	56	7028
2026-01-26 23:34:36.05	23.23	30.85	-43.1	-48.1	10.1	6.78e-03	0	61	0	355467264	56	6933
2026-01-26 23:34:37.06	23.28	31.05	-43.2	-48.2	10.0	7.48e-03	0	62	0	356515840	56	7022
2026-01-26 23:34:38.07	23.34	31.25	-43.1	-48.2	10.0	8.80e-03	0	61	0	358612992	56	6996
2026-01-26 23:34:39.08	23.39	31.45	-43.2	-48.3	9.9	7.89e-03	0	62	0	360710144	56	7099
2026-01-26 23:34:40.09	23.45	31.65	-43.2	-48.4	9.8	9.03e-03	0	61	0	362807296	57	6795
2026-01-26 23:34:41.10	23.50	31.85	-43.2	-48.3	9.9	9.26e-03	0	61	0	364904448	57	6714
2026-01-26 23:34:42.11	23.56	32.05	-43.2	-48.3	9.9	9.05e-03	0	62	0	365953024	57	6699
2026-01-26 23:34:43.13	23.62	32.26	-43.2	-48.4	9.8	9.17e-03	0	61	0	368050176	57	6778
2026-01-26 23:34:44.13	23.68	32.46	-43.2	-48.3	10.0	7.50e-03	0	62	0	370147328	57	6651
2026-01-26 23:34:45.14	23.74	32.67	-43.1	-48.2	10.0	7.74e-03	0	61	0	372244480	57	6597
2026-01-26 23:34:46.15	23.80	32.88	-43.1	-48.0	10.2	7.24e-03	0	61	0	374341632	57	6472
2026-01-26 23:34:47.16	23.86	33.09	-43.1	-48.0	10.3	6.43e-03	0	61	0	375390208	57	6427
2026-01-26 23:34:48.17	23.92	33.30	-42.9	-47.7	10.6	4.37e-03	0	61	0	377487360	57	6203
2026-01-26 23:34:49.18	23.98	33.51	-42.9	-47.6	10.6	3.16e-03	0	62	0	379584512	57	6201
2026-01-26 23:34:50.19	24.05	33.73	-42.9	-47.6	10.7	3.10e-03	0	61	0	381681664	57	6186
2026-01-26 23:34:51.20	24.11	33.94	-42.8	-47.4	10.9	3.01e-03	0	61	0	383778816	57	6021
2026-01-26 23:34:52.21	24.17	34.16	-42.6	-46.9	11.4	1.49e-03	0	61	0	384827392	57	5705
2026-01-26 23:34:53.22	24.24	34.38	-42.5	-46.7	11.6	7.26e-04	0	62	0	386924544	57	5589
2026-01-26 23:34:54.23	24.31	34.60	-42.4	-46.6	11.8	4.59e-04	0	61	0	389021696	56	5791
2026-01-26 23:34:55.24	24.37	34.82	-42.5	-46.5	11.8	5.71e-04	0	61	0	391118848	56	5787
2026-01-26 23:34:56.25	24.44	35.04	-42.4	-46.5	11.9	4.19e-04	0	61	0	393216000	56	5740
2026-01-26 23:34:57.26	24.51	35.27	-42.4	-46.3	12.1	3.29e-04	0	61	0	395313152	56	5654
2026-01-26 23:34:58.27	24.58	35.50	-42.4	-46.3	12.0	2.94e-04	0	61	0	396361728	56	5641
2026-01-26 23:34:59.28	24.65	35.72	-42.4	-46.5	11.9	2.97e-04	0	61	0	398458880	56	5741
2026-01-26 23:35:00.29	24.72	35.95	-42.4	-46.4	12.1	3.09e-04	0	61	0	400556032	56	5663
2026-01-26 23:35:01.30	24.80	36.19	-42.3	-46.2	12.2	2.33e-04	0	62	0	402653184	56	5554
2026-01-26 23:35:02.31	24.87	36.42	-42.3	-46.1	12.3	2.04e-04	0	61	0	404750336	56	5510
2026-01-26 23:35:03.32	24.94	36.65	-42.2	-45.9	12.5	1.56e-04	0	62	0	405798912	56	5389
2026-01-26 23:35:04.33	25.02	36.89	-42.1	-45.8	12.6	9.38e-05	0	61	0	407896064	56	5322
2026-01-26 23:35:05.34	25.10	37.13	-42.1	-45.8	12.6	8.85e-05	0	62	0	409993216	56	5294
2026-01-26 23:35:06.35	25.18	37.37	-42.1	-45.8	12.6	8.46e-05	0	61	0	412090368	56	5294
2026-01-26 23:35:07.36	25.25	37.61	-42.2	-46.1	12.4	1.46e-04	0	61	0	414187520	56	5469
2026-01-26 23:35:08.37	25.33	37.85	-42.3	-46.2	12.2	1.84e-04	0	61	0	415236096	56	5541
2026-01-26 23:35:09.38	25.42	38.10	-42.4	-46.3	12.1	2.64e-04	0	61	0	417333248	56	5619
2026-01-26 23:35:10.39	25.50	38.34	-42.4	-46.5	11.9	3.08e-04	0	61	0	419430400	56	5730
2026-01-26 23:35:11.40	25.58	38.59	-42.5	-46.6	11.8	4.91e-04	0	62	0	421527552	56	5791
2026-01-26 23:35:12.41	25.67	38.84	-42.4	-46.5	11.8	5.03e-04	0	61	0	423624704	56	5769
2026-01-26 23:35:13.42	25.75	39.09	-42.5	-46.6	11.8	4.92e-04	0	61	0	424673280	56	5817
2026-01-26 23:35:14.43	25.84	39.35	-42.5	-46.6	11.8	5.27e-04	0	62	0	426770432	56	5854
2026-01-26 23:35:15.44	25.93	39.60	-42.5	-46.7	11.7	5.85e-04	0	61	0	428867584	56	5879
2026-01-26 23:35:16.45	26.02	39.86	-42.5	-46.5	11.9	5.63e-04	0	62	0	430964736	56	5770
2026-01-26 23:35:17.46	26.11	40.12	-42.4	-46.4	12.0	3.56e-04	0	61	0	433061888	56	5671
2026-01-26 23:35:18.47	26.20	40.38	-42.5	-46.5	11.9	3.11e-04	0	61	0	434110464	56	5756
2026-01-26 23:35:19.48	26.30	40.64	-42.5	-46.6	11.8	4.27e-04	0	61	0	436207616	56	5791
2026-01-26 23:35:20.49	26.40	40.91	-42.5	-46.7	11.7	5.39e-04	0	62	0	438304768	56	5862
2026-01-26 23:35:21.50	26.49	41.18	-42.7	-47.0	11.5	7.16e-04	0	62	0	440401920	56	6063
2026-01-26 23:35:22.51	26.59	41.44	-42.7	-47.1	11.3	1.16e-03	0	62	0	442499072	56	6168
2026-01-26 23:35:23.52	26.69	41.72	-42.8	-47.3	11.0	1.54e-03	0	62	0	443547648	56	6346
2026-01-26 23:35:24.53	26.79	41.99	-42.8	-47.2	11.2	1.55e-03	0	62	0	445644800	56	6269
2026-01-26 23:35:25.54	26.90	42.26	-42.7	-46.9	11.5	9.96e-04	0	62	0	447741952	56	6049
2026-01-26 23:35:26.56	27.01	42.54	-42.6	-46.9	11.5	8.25e-04	0	62	0	449839104	56	6001
2026-01-26 23:35:27.57	27.11	42.82	-42.6	-46.7	11.6	7.50e-04	0	61	0	451936256	56	5923
2026-01-26 23:35:28.58	27.22	43.10	-42.6	-46.9	11.5	6.77e-04	0	62	0	452984832	56	5993
2026-01-26 23:35:29.59	27.33	43.38	-42.7	-46.9	11.5	7.60e-04	0	62	0	455081984	56	6021
2026-01-26 23:35:30.59	27.44	43.66	-42.8	-47.3	11.1	9.78e-04	0	62	0	457179136	56	6284
2026-01-26 23:35:31.60	27.56	43.95	-43.0	-47.6	10.8	2.15e-03	0	62	0	459276288	56	6505
2026-01-26 23:35:32.61	27.68	44.24	-43.1	-47.9	10.4	3.76e-03	0	62	0	461373440	56	6782
2026-01-26 23:35:33.62	27.80	44.53	-43.2	-48.2	10.2	4.91e-03	0	62	0	463470592	56	7020
2026-01-26 23:35:34.63	27.92	44.82	-43.1	-48.0	10.3	5.92e-03	0	62	0	464519168	56	6817
2026-01-26 23:35:35.64	28.04	45.12	-43.1	-47.9	10.5	4.30e-03	0	62	0	466616320	56	6731
2026-01-26 23:35:36.65	28.17	45.41	-43.0	-47.8	10.6	3.68e-03	0	62	0	468713472	56	6652
2026-01-26 23:35:37.66	28.29	45.71	-43.1	-47.9	10.5	3.72e-03	0	62	0	470810624	56	6736
2026-01-26 23:35:38.67	28.42	46.01	-43.1	-47.9	10.4	4.88e-03	0	62	0	472907776	56	6755
2026-01-26 23:35:39.68	28.56	46.31	-43.0	-47.7	10.7	3.58e-03	0	62	0	473956352	56	6589
2026-01-26 23:35:40.69	28.69	46.62	-42.9	-47.5	10.8	2.38e-03	0	62	0	476053504	56	6451
2026-01-26 23:35:41.71	28.83	46.93	-43.0	-47.8	10.6	3.15e-03	0	62	0	478150656	56	6661
2026-01-26 23:35:42.72	28.97	47.24	-43.1	-47.9	10.5	3.92e-03	0	62	0	480247808	56	6727
2026-01-26 23:35:43.73	29.12	47.55	-43.1	-48.0	10.4	4.67e-03	0	62	0	482344960	56	6817
2026-01-26 23:35:44.74	29.26	47.86	-43.2	-48.2	10.1	5.14e-03	0	62	0	483393536	57	6635
2026-01-26 23:35:45.75	29.41	48.18	-43.1	-48.0	10.3	5.30e-03	0	62	0	485490688	57	6432
2026-01-26 23:35:46.76	29.56	48.49	-43.1	-47.8	10.6	4.69e-03	0	62	0	487587840	57	6332
2026-01-26 23:35:47.77	29.72	48.81	-42.9	-47.4	11.0	3.53e-03	0	62	0	489684992	57	5997
2026-01-26 23:35:48.78	29.88	49.14	-42.7	-46.9	11.5	1.08e-03	0	62	0	491782144	57	5718
2026-01-26 23:35:49.79	30.04	49.46	-42.5	-46.5	12.0	6.39e-04	0	62	0	492830720	57	5447
2026-01-26 23:35:50.80	30.20	49.79	-42.4	-46.2	12.2	2.28e-04	0	62	0	494927872	56	5580
2026-01-26 23:35:51.81	30.37	50.11	-42.1	-45.8	12.6	1.15e-04	0	62	0	497025024	56	5322
2026-01-26 23:35:52.82	30.54	50.44	-41.8	-45.2	13.1	4.42e-05	0	62	0	499122176	55	5268
2026-01-26 23:35:53.83	30.72	50.78	-41.6	-44.9	13.5	1.60e-05	0	62	0	501219328	55	5069
2026-01-26 23:35:54.84	30.90	51.11	-41.3	-44.4	14.0	5.30e-06	0	62	0	502267904	54	5047
2026-01-26 23:35:55.85	31.08	51.45	-40.9	-43.8	14.6	7.00e-07	0	62	0	504365056	53	5030
2026-01-26 23:35:56.86	31.27	51.79	-40.7	-43.4	15.0	2.20e-06	0	62	0	506462208	53	4772
2026-01-26 23:35:57.87	31.46	52.13	-40.6	-43.3	15.1	0.00e+00	0	62	0	508559360	53	4730
2026-01-26 23:35:58.88	31.66	52.47	-40.6	-43.2	15.2	0.00e+00	0	62	0	510656512	53	4685
2026-01-26 23:35:59.89	31.86	52.81	-40.6	-43.2	15.1	0.00e+00	0	62	0	511705088	53	4686
2026-01-26 23:36:00.90	32.07	53.16	-40.5	-43.1	15.2	0.00e+00	0	62	0	513802240	53	4647
2026-01-26 23:36:01.90	32.27	53.51	-40.4	-43.0	15.3	7.00e-07	0	62	0	515899392	52	4848
2026-01-26 23:36:02.91	32.49	53.86	-40.3	-42.8	15.6	0.00e+00	0	62	0	517996544	52	4712
2026-01-26 23:36:03.92	32.71	54.21	-40.2	-42.7	15.6	0.00e+00	0	62	0	520093696	52	4694
2026-01-26 23:36:04.93	32.94	54.57	-40.3	-42.8	15.6	0.00e+00	0	62	0	521142272	52	4744
2026-01-26 23:36:05.94	33.17	54.92	-40.3	-42.8	15.6	0.00e+00	0	62	0	523239424	52	4726
2026-01-26 23:36:06.95	33.41	55.28	-40.4	-42.9	15.4	0.00e+00	0	62	0	525336576	52	4807
2026-01-26 23:36:07.96	33.65	55.64	-40.6	-43.2	15.2	0.00e+00	0	62	0	527433728	52	4962
2026-01-26 23:36:08.98	33.90	56.01	-40.6	-43.3	15.1	0.00e+00	0	62	0	529530880	52	5020
2026-01-26 23:36:09.99	34.16	56.38	-40.7	-43.5	14.9	0.00e+00	0	62	0	531628032	52	5124
2026-01-26 23:36:11.00	34.42	56.74	-40.9	-43.8	14.6	0.00e+00	0	62	0	532676608	52	5288
2026-01-26 23:36:12.01	34.69	57.11	-41.1	-44.1	14.2	7.00e-07	0	62	0	534773760	52	5485
2026-01-26 23:36:13.02	34.97	57.48	-41.3	-44.3	13.9	3.00e-06	0	62	0	536870912	53	5335
2026-01-26 23:36:14.03	35.26	57.85	-41.2	-44.2	14.1	2.20e-06	0	62	0	538968064	53	5237
2026-01-26 23:36:15.04	35.55	58.23	-41.1	-44.1	14.3	2.20e-06	0	62	0	541065216	53	5200
2026-01-26 23:36:16.05	35.85	58.60	-40.9	-43.8	14.5	7.00e-07	0	62	0	542113792	53	5027
2026-01-26 23:36:17.06	36.16	58.98	-40.8	-43.6	14.7	0.00e+00	0	62	0	544210944	53	4893
2026-01-26 23:36:18.07	36.48	59.36	-40.5	-43.1	15.2	0.00e+00	0	62	0	546308096	53	4637
2026-01-26 23:36:19.08	36.81	59.74	-40.3	-42.7	15.6	0.00e+00	0	62	0	548405248	52	4695
2026-01-26 23:36:20.08	37.14	60.12	-40.1	-42.6	15.8	0.00e+00	0	62	0	550502400	52	4603
2026-01-26 23:36:21.09	37.49	60.50	-40.2	-42.6	15.7	0.00e+00	0	62	0	551550976	52	4623
2026-01-26 23:36:22.11	37.85	60.89	-40.2	-42.6	15.7	0.00e+00	0	62	0	553648128	52	4637
2026-01-26 23:36:23.11	38.22	61.27	-40.0	-42.4	16.0	0.00e+00	0	62	0	555745280	51	4788
2026-01-26 23:36:24.12	38.60	61.66	-39.7	-42.0	16.4	0.00e+00	0	62	0	557842432	51	4551
2026-01-26 23:36:25.13	38.99	62.05	-39.7	-42.0	16.4	0.00e+00	0	62	0	559939584	51	4564
2026-01-26 23:36:26.14	39.40	62.44	-39.8	-42.0	16.4	0.00e+00	0	62	0	560988160	51	4581
2026-01-26 23:36:27.15	39.82	62.83	-40.1	-42.5	16.0	0.00e+00	0	62	0	563085312	51	4837
2026-01-26 23:36:28.17	40.25	63.23	-40.3	-42.7	15.7	0.00e+00	0	62	0	565182464	51	4982
2026-01-26 23:36:29.17	40.70	63.61	-40.5	-43.0	15.3	0.00e+00	0	62	0	567279616	51	5152
2026-01-26 23:36:30.18	41.16	64.01	-40.7	-43.4	15.1	0.00e+00	0	62	0	569376768	51	5344
2026-01-26 23:36:31.19	41.64	64.40	-40.7	-43.4	14.9	0.00e+00	0	62	0	570425344	52	5057
2026-01-26 23:36:32.20	42.13	64.79	-40.6	-43.4	14.9	0.00e+00	0	62	0	572522496	52	5045
2026-01-26 23:36:33.21	42.64	65.19	-40.9	-43.7	14.6	0.00e+00	0	62	0	574619648	52	5247
2026-01-26 23:36:34.22	43.18	65.58	-41.2	-44.2	14.0	3.00e-06	0	62	0	576716800	52	5582
2026-01-26 23:36:35.23	43.72	65.98	-41.6	-44.9	13.4	5.30e-06	0	62	0	578813952	53	5689
2026-01-26 23:36:36.25	44.30	66.38	-42.0	-45.7	12.6	4.80e-05	0	62	0	580911104	54	5872
2026-01-26 23:36:37.26	44.89	66.77	-42.2	-46.2	12.1	2.11e-04	0	62	0	581959680	54	6207
2026-01-26 23:36:38.27	45.51	67.17	-42.4	-46.5	11.7	4.62e-04	0	62	0	584056832	55	6072
2026-01-26 23:36:39.28	46.14	67.56	-42.2	-46.1	12.0	4.84e-04	0	62	0	586153984	55	5842
2026-01-26 23:36:40.29	46.80	67.95	-42.2	-46.1	12.1	2.24e-04	0	62	0	588251136	55	5838
2026-01-26 23:36:41.30	47.49	68.34	-42.4	-46.6	11.6	3.46e-04	0	62	0	590348288	55	6160
2026-01-26 23:36:42.31	48.21	68.73	-42.6	-46.9	11.2	1.10e-03	0	62	0	591396864	55	6393
2026-01-26 23:36:43.32	48.95	69.12	-42.5	-46.8	11.2	1.83e-03	0	62	0	593494016	55	6341
2026-01-26 23:36:44.33	49.72	69.51	-42.6	-46.9	11.2	1.12e-03	0	62	0	595591168	55	6402
2026-01-26 23:36:45.34	50.53	69.89	-42.5	-46.7	11.4	1.07e-03	0	62	0	597688320	55	6236
2026-01-26 23:36:46.35	51.37	70.28	-42.2	-46.2	12.0	4.67e-04	0	62	0	599785472	55	5893
2026-01-26 23:36:47.36	52.24	70.66	-42.2	-46.0	12.1	2.91e-04	0	62	0	600834048	55	5770
2026-01-26 23:36:48.37	53.15	71.04	-42.2	-46.1	12.1	1.73e-04	0	62	0	602931200	55	5837
2026-01-26 23:36:49.38	54.10	71.41	-42.4	-46.4	11.7	2.72e-04	0	62	0	605028352	55	6050
2026-01-26 23:36:50.39	55.10	71.78	-42.6	-47.0	11.1	1.27e-03	0	62	0	607125504	55	6493
2026-01-26 23:36:51.40	56.13	72.15	-43.1	-48.0	10.2	3.39e-03	0	62	0	609222656	56	6813
2026-01-26 23:36:52.41	57.21	72.51	-43.1	-48.0	10.3	6.96e-03	0	62	0	610271232	56	6802
2026-01-26 23:36:53.42	58.34	72.87	-42.9	-47.6	10.6	3.88e-03	0	62	0	612368384	56	6541
2026-01-26 23:36:54.44	59.53	73.22	-43.1	-48.0	10.2	4.99e-03	0	62	0	614465536	56	6858
2026-01-26 23:36:55.45	60.76	73.57	-43.1	-48.1	10.2	7.48e-03	0	62	0	616562688	56	6890
2026-01-26 23:36:56.46	62.05	73.90	-42.9	-47.5	10.7	3.97e-03	0	62	0	618659840	56	6424
2026-01-26 23:36:57.47	63.39	74.24	-42.5	-46.6	11.6	1.28e-03	0	62	0	619708416	56	5845
2026-01-26 23:36:58.48	64.79	74.56	-42.4	-46.5	11.8	6.32e-04	0	62	0	621805568	56	5745
2026-01-26 23:36:59.48	66.24	74.87	-42.3	-46.1	12.1	2.41e-04	0	62	0	623902720	56	5508
2026-01-26 23:37:00.49	67.77	75.18	-42.4	-46.4	11.9	3.80e-04	0	62	0	625999872	56	5661
2026-01-26 23:37:01.50	69.36	75.48	-42.6	-46.8	11.4	6.94e-04	0	62	0	628097024	56	5927
2026-01-26 23:37:02.51	71.02	75.76	-42.8	-47.3	10.9	2.00e-03	0	62	0	629145600	56	6282
2026-01-26 23:37:03.52	72.75	76.04	-43.0	-47.8	10.3	3.14e-03	0	62	0	631242752	56	6673
2026-01-26 23:37:04.53	74.55	76.30	-43.1	-47.9	10.2	4.42e-03	0	62	0	633339904	56	6788
2026-01-26 23:37:05.54	76.42	76.55	-43.2	-48.2	9.9	6.86e-03	0	62	0	635437056	57	6620
2026-01-26 23:37:06.55	78.36	76.79	-43.0	-47.9	10.3	6.66e-03	0	62	0	637534208	57	6354
2026-01-26 23:37:07.56	80.37	77.01	-43.1	-48.0	10.1	7.23e-03	0	62	0	639631360	57	6474
2026-01-26 23:37:08.57	82.45	77.21	-42.9	-47.6	10.6	4.51e-03	0	62	0	640679936	57	6184
2026-01-26 23:37:09.58	84.60	77.40	-42.6	-46.9	11.3	1.75e-03	0	62	0	642777088	57	5706
2026-01-26 23:37:10.59	86.81	77.57	-42.8	-47.3	10.9	1.59e-03	0	62	0	644874240	57	5963
2026-01-26 23:37:11.60	89.08	77.73	-43.2	-48.2	9.8	4.93e-03	0	62	0	646971392	57	6641
2026-01-26 23:37:12.60	91.38	77.86	-43.0	-48.0	10.1	1.00e-02	0	62	0	649068544	57	6453
2026-01-26 23:37:13.61	93.76	77.97	-42.7	-47.2	11.0	3.24e-03	0	62	0	650117120	57	5869
2026-01-26 23:37:14.62	96.18	78.07	-42.6	-47.0	11.2	1.34e-03	0	62	0	652214272	57	5725
2026-01-26 23:37:15.63	98.63	78.14	-42.9	-47.6	10.6	2.92e-03	0	62	0	654311424	57	6157
2026-01-26 23:37:16.64	101.11	78.19	-43.2	-48.4	9.6	8.57e-03	0	62	0	656408576	57	6790
2026-01-26 23:37:17.65	103.60	78.22	-43.1	-48.1	10.0	1.11e-02	0	62	0	658505728	57	6501
2026-01-26 23:37:18.66	106.11	78.23	-42.6	-46.9	11.2	3.87e-03	0	62	0	659554304	57	5714
2026-01-26 23:37:19.67	108.61	78.21	-42.4	-46.5	11.7	7.77e-04	0	62	0	661651456	56	5724
2026-01-26 23:37:20.68	111.10	78.18	-42.5	-46.6	11.6	5.83e-04	0	62	0	663748608	56	5832
2026-01-26 23:37:21.69	113.57	78.12	-42.7	-47.0	11.2	1.20e-03	0	62	0	665845760	56	6084
2026-01-26 23:37:22.70	116.02	78.04	-43.0	-47.8	10.3	4.33e-03	0	62	0	667942912	56	6713
2026-01-26 23:37:23.71	118.42	77.94	-43.3	-48.5	9.4	1.37e-02	0	62	0	668991488	57	6858
2026-01-26 23:37:24.72	120.79	77.82	-43.5	-49.3	8.6	2.25e-02	0	62	0	671088640	57	7542
2026-01-26 23:37:25.73	123.10	77.68	-43.5	-49.1	9.0	3.52e-02	0	62	0	673185792	57	7325
2026-01-26 23:37:26.74	125.35	77.52	-43.5	-49.2	8.9	2.99e-02	0	62	0	675282944	57	7403
2026-01-26 23:37:27.75	127.55	77.35	-43.6	-49.7	8.4	3.17e-02	0	62	0	677380096	57	7822
2026-01-26 23:37:28.76	129.68	77.15	-43.8	-50.2	7.8	7.70e-02	0	62	0	678428672	58	7842
2026-01-26 23:37:29.77	131.74	76.95	-43.8	-50.0	8.1	7.09e-02	0	62	0	680525824	58	7690
2026-01-26 23:37:30.78	133.73	76.72	-43.6	-49.7	8.3	5.74e-02	0	62	0	682622976	58	7446
2026-01-26 23:37:31.79	135.65	76.48	-43.7	-49.9	8.2	4.15e-02	0	62	0	684720128	58	7584
2026-01-26 23:37:32.80	137.50	76.23	-43.5	-49.3	8.7	3.10e-02	0	62	0	686817280	58	7054
2026-01-26 23:37:33.81	139.28	75.96	-43.6	-49.4	8.7	3.04e-02	0	62	0	687865856	58	7163
2026-01-26 23:37:34.82	140.99	75.68	-43.2	-48.4	9.6	2.85e-02	0	62	0	689963008	58	6375
2026-01-26 23:37:35.83	142.64	75.39	-43.1	-48.0	10.0	8.47e-03	0	62	0	692060160	58	6096
2026-01-26 23:37:36.84	144.21	75.09	-43.4	-49.0	9.1	1.32e-02	0	62	0	694157312	58	6812
2026-01-26 23:37:37.85	145.72	74.78	-43.6	-49.6	8.4	3.22e-02	0	62	0	696254464	58	7340
2026-01-26 23:37:38.86	147.17	74.46	-43.5	-49.1	9.0	3.11e-02	0	62	0	697303040	58	6915
2026-01-26 23:37:39.87	148.55	74.13	-43.3	-48.7	9.3	2.26e-02	0	62	0	699400192	58	6627
2026-01-26 23:37:40.88	149.88	73.80	-43.4	-48.9	9.2	2.25e-02	0	62	0	701497344	58	6769
2026-01-26 23:37:41.89	151.15	73.46	-43.3	-48.7	9.5	1.64e-02	0	62	0	703594496	58	6582
2026-01-26 23:37:42.91	152.37	73.11	-43.2	-48.3	9.8	1.13e-02	0	62	0	705691648	58	6327
2026-01-26 23:37:43.92	153.54	72.75	-42.7	-47.1	11.0	6.23e-03	0	62	0	707788800	57	5849
2026-01-26 23:37:44.93	154.65	72.39	-42.5	-46.7	11.5	7.64e-04	0	62	0	708837376	57	5551
2026-01-26 23:37:45.94	155.72	72.03	-42.4	-46.5	11.7	6.88e-04	0	62	0	710934528	56	5781
2026-01-26 23:37:46.95	156.74	71.66	-42.4	-46.4	11.8	5.93e-04	0	62	0	713031680	56	5663
2026-01-26 23:37:47.96	157.72	71.29	-41.8	-45.4	12.7	1.17e-04	0	62	0	715128832	55	5372
2026-01-26 23:37:48.97	158.66	70.91	-41.7	-45.3	12.8	5.34e-05	0	62	0	717225984	55	5284
2026-01-26 23:37:49.98	159.56	70.53	-41.9	-45.7	12.3	1.12e-04	0	62	0	718274560	55	5537
2026-01-26 23:37:50.98	160.42	70.16	-42.3	-46.3	11.7	3.03e-04	0	62	0	720371712	55	5969
2026-01-26 23:37:51.99	161.25	69.77	-42.6	-47.2	10.9	1.74e-03	0	62	0	722468864	55	6575
2026-01-26 23:37:53.01	162.05	69.38	-42.9	-47.5	10.7	3.07e-03	0	62	0	724566016	56	6434
2026-01-26 23:37:54.02	162.82	68.99	-43.0	-47.8	10.3	3.82e-03	0	62	0	726663168	56	6668
2026-01-26 23:37:55.02	163.54	68.61	-43.3	-48.7	9.3	1.42e-02	0	62	0	727711744	57	7018
2026-01-26 23:37:56.03	164.25	68.21	-43.3	-48.6	9.4	2.41e-02	0	62	0	729808896	57	6902
2026-01-26 23:37:57.04	164.93	67.82	-42.9	-47.5	10.6	7.10e-03	0	62	0	731906048	57	6076
2026-01-26 23:37:58.05	165.59	67.43	-42.9	-47.5	10.7	2.86e-03	0	62	0	734003200	57	6080
2026-01-26 23:37:59.06	166.22	67.03	-42.9	-47.6	10.6	3.88e-03	0	62	0	736100352	57	6146
2026-01-26 23:38:00.07	166.82	66.64	-42.4	-46.4	11.8	1.93e-03	0	62	0	737148928	56	5708
2026-01-26 23:38:01.09	167.42	66.24	-42.0	-45.6	12.7	9.91e-05	0	62	0	739246080	56	5185
2026-01-26 23:38:02.10	167.98	65.84	-41.8	-45.3	12.8	5.11e-05	0	62	0	741343232	55	5312
2026-01-26 23:38:03.10	168.52	65.45	-41.4	-44.6	13.5	2.82e-05	0	62	0	743440384	54	5208
2026-01-26 23:38:04.11	169.04	65.05	-41.2	-44.2	13.9	0.00e+00	0	62	0	745537536	54	4939
2026-01-26 23:38:05.12	169.55	64.66	-41.1	-44.1	14.0	7.00e-07	0	62	0	746586112	54	4916
2026-01-26 23:38:06.13	170.04	64.26	-40.6	-43.3	14.8	1.50e-06	0	62	0	748683264	53	4736
2026-01-26 23:38:07.14	170.51	63.87	-40.2	-42.7	15.5	0.00e+00	0	62	0	750780416	52	4684
2026-01-26 23:38:08.15	170.97	63.48	-40.6	-43.3	15.0	0.00e+00	0	62	0	752877568	52	4990
2026-01-26 23:38:09.16	171.42	63.08	-40.9	-43.8	14.4	7.00e-07	0	62	0	754974720	52	5302
2026-01-26 23:38:10.17	171.84	62.69	-40.4	-43.0	15.1	0.00e+00	0	62	0	756023296	52	4820
2026-01-26 23:38:11.18	172.26	62.30	-40.0	-42.3	15.9	0.00e+00	0	62	0	758120448	51	4741
2026-01-26 23:38:12.19	172.66	61.91	-40.2	-42.6	15.7	0.00e+00	0	62	0	760217600	51	4891
2026-01-26 23:38:13.20	173.05	61.52	-40.5	-43.2	15.1	0.00e+00	0	62	0	762314752	51	5220
2026-01-26 23:38:14.22	173.43	61.13	-41.0	-43.9	14.2	7.00e-07	0	62	0	764411904	52	5396
2026-01-26 23:38:15.23	173.80	60.74	-42.0	-45.7	12.4	2.74e-05	0	62	0	765460480	54	5900
2026-01-26 23:38:16.24	174.16	60.35	-42.4	-46.5	11.5	5.68e-04	0	62	0	767557632	55	6102
2026-01-26 23:38:17.25	174.50	59.97	-42.1	-45.9	12.2	4.09e-04	0	62	0	769654784	55	5669
2026-01-26 23:38:18.26	174.84	59.59	-41.6	-44.9	13.2	4.11e-05	0	62	0	771751936	55	5080
2026-01-26 23:38:19.26	175.16	59.21	-42.0	-45.7	12.5	3.50e-05	0	62	0	773849088	55	5544
2026-01-26 23:38:20.27	175.47	58.83	-42.7	-47.2	10.9	3.38e-04	0	62	0	775946240	55	6621
2026-01-26 23:38:21.28	175.78	58.45	-43.1	-48.1	10.0	6.64e-03	0	62	0	776994816	56	6950
2026-01-26 23:38:22.29	176.08	58.08	-42.8	-47.2	10.9	4.11e-03	0	62	0	779091968	56	6263
2026-01-26 23:38:23.30	176.37	57.70	-42.3	-46.2	12.0	6.13e-04	0	62	0	781189120	56	5557
2026-01-26 23:38:24.31	176.65	57.33	-42.2	-45.9	12.3	2.06e-04	0	62	0	783286272	56	5391
2026-01-26 23:38:25.32	176.93	56.96	-41.8	-45.3	12.7	1.19e-04	0	62	0	785383424	55	5335
2026-01-26 23:38:26.33	177.20	56.59	-41.6	-44.9	13.2	3.50e-05	0	62	0	786432000	55	5081
2026-01-26 23:38:27.34	177.46	56.22	-41.6	-45.0	13.2	2.51e-05	0	62	0	788529152	55	5135
2026-01-26 23:38:28.35	177.71	55.85	-41.5	-44.9	13.3	1.67e-05	0	62	0	790626304	55	5051
2026-01-26 23:38:29.36	177.96	55.49	-41.3	-44.5	13.6	1.60e-05	0	62	0	792723456	54	5122
2026-01-26 23:38:30.37	178.20	55.13	-41.1	-44.1	14.0	2.20e-06	0	62	0	794820608	54	4903
2026-01-26 23:38:31.38	178.44	54.77	-41.0	-43.9	14.3	7.00e-07	0	62	0	795869184	53	5062
2026-01-26 23:38:32.39	178.67	54.41	-40.9	-43.9	14.3	3.00e-06	0	62	0	797966336	53	5049
2026-01-26 23:38:33.40	178.89	54.05	-41.3	-44.5	13.6	4.50e-06	0	62	0	800063488	53	5447
2026-01-26 23:38:34.41	179.11	53.70	-41.5	-44.8	13.4	6.80e-06	0	62	0	802160640	53	5609
2026-01-26 23:38:35.42	179.33	53.35	-41.3	-44.4	13.8	1.37e-05	0	62	0	804257792	53	5376
2026-01-26 23:38:36.43	179.54	53.00	-41.3	-44.5	13.7	4.50e-06	0	62	0	805306368	53	5412
2026-01-26 23:38:37.44	179.74	52.65	-41.7	-45.2	12.9	2.21e-05	0	62	0	807403520	53	5898
2026-01-26 23:38:38.45	179.94	52.31	-42.2	-46.2	12.0	1.77e-04	0	62	0	809500672	54	6214
2026-01-26 23:38:39.46	180.14	51.96	-42.3	-46.4	11.7	5.67e-04	0	62	0	811597824	55	6017
2026-01-26 23:38:40.47	180.33	51.62	-42.4	-46.4	11.6	4.83e-04	0	62	0	813694976	55	6060
2026-01-26 23:38:41.48	180.51	51.28	-43.0	-47.6	10.6	1.47e-03	0	62	0	814743552	56	6570
2026-01-26 23:38:42.50	180.70	50.94	-43.6	-49.5	8.6	1.22e-02	0	62	0	816840704	57	7667
2026-01-26 23:38:43.50	180.87	50.61	-44.0	-51.1	7.0	1.35e-01	0	62	0	818937856	58	8735
2026-01-26 23:38:44.51	181.05	50.28	-44.0	-50.8	7.2	1.55e-01	0	62	0	821035008	58	8444
2026-01-26 23:38:45.52	181.22	49.95	-43.7	-49.9	8.3	7.80e-02	0	62	0	823132160	58	7627
2026-01-26 23:38:46.53	181.39	49.62	-43.7	-49.8	8.3	5.73e-02	0	62	0	824180736	58	7495
2026-01-26 23:38:47.54	181.55	49.29	-43.7	-49.9	8.2	5.64e-02	0	62	0	826277888	58	7621
2026-01-26 23:38:48.55	181.71	48.97	-43.7	-49.8	8.3	6.12e-02	0	62	0	828375040	58	7497
2026-01-26 23:38:49.56	181.87	48.64	-43.5	-49.2	8.9	3.49e-02	0	62	0	830472192	58	7019
2026-01-26 23:38:50.57	182.02	48.32	-43.4	-48.9	9.2	2.27e-02	0	62	0	832569344	58	6752
2026-01-26 23:38:51.58	182.17	48.01	-43.3	-48.6	9.5	1.49e-02	0	62	0	833617920	58	6531
2026-01-26 23:38:52.59	182.32	47.69	-43.6	-49.3	8.8	1.94e-02	0	62	0	835715072	58	7085
2026-01-26 23:38:53.60	182.47	47.38	-43.7	-49.9	8.2	5.12e-02	0	62	0	837812224	58	7623
2026-01-26 23:38:54.61	182.61	47.06	-43.6	-49.6	8.5	5.15e-02	0	62	0	839909376	58	7338
2026-01-26 23:38:55.62	182.75	46.76	-43.2	-48.4	9.8	2.61e-02	0	62	0	842006528	58	6360
2026-01-26 23:38:56.63	182.88	46.45	-42.9	-47.5	10.6	5.06e-03	0	62	0	844103680	57	6128
2026-01-26 23:38:57.64	183.02	46.14	-42.8	-47.2	10.9	2.39e-03	0	62	0	845152256	57	5914
2026-01-26 23:38:58.65	183.15	45.84	-42.4	-46.4	11.8	9.18e-04	0	62	0	847249408	56	5664
2026-01-26 23:38:59.66	183.28	45.54	-42.0	-45.6	12.7	1.54e-04	0	62	0	849346560	56	5180
2026-01-26 23:39:00.67	183.41	45.24	-41.5	-44.7	13.5	2.28e-05	0	62	0	851443712	54	5255
2026-01-26 23:39:01.68	183.53	44.94	-41.2	-44.3	13.9	5.30e-06	0	62	0	853540864	54	5004
2026-01-26 23:39:02.69	183.65	44.65	-41.4	-44.6	13.6	7.60e-06	0	62	0	854589440	54	5176
2026-01-26 23:39:03.70	183.77	44.35	-41.7	-45.2	13.0	2.59e-05	0	62	0	856686592	54	5575
2026-01-26 23:39:04.71	183.89	44.06	-41.9	-45.6	12.5	7.17e-05	0	62	0	858783744	54	5833
2026-01-26 23:39:05.71	184.01	43.78	-42.2	-46.1	12.0	2.84e-04	0	62	0	860880896	54	6180
2026-01-26 23:39:06.73	184.12	43.49	-42.2	-46.2	11.9	3.86e-04	0	62	0	862978048	54	6212
2026-01-26 23:39:07.74	184.23	43.20	-42.0	-45.8	12.3	2.93e-04	0	62	0	864026624	54	5942
2026-01-26 23:39:08.75	184.34	42.92	-41.3	-44.6	13.5	6.25e-05	0	62	0	866123776	54	5165
2026-01-26 23:39:09.76	184.45	42.64	-41.1	-44.2	13.9	3.80e-06	0	62	0	868220928	54	4942
2026-01-26 23:39:10.77	184.56	42.36	-40.9	-43.8	14.3	2.20e-06	0	62	0	870318080	53	5012
2026-01-26 23:39:11.78	184.66	42.08	-40.9	-43.8	14.4	7.00e-07	0	62	0	872415232	53	4993
2026-01-26 23:39:12.78	184.77	41.81	-41.1	-44.1	14.1	1.50e-06	0	62	0	873463808	53	5178
2026-01-26 23:39:13.80	184.87	41.54	-41.5	-44.8	13.3	9.10e-06	0	62	0	875560960	53	5645
2026-01-26 23:39:14.81	184.97	41.27	-42.0	-45.9	12.2	7.17e-05	0	62	0	877658112	54	6004
2026-01-26 23:39:15.82	185.07	41.00	-42.4	-46.7	11.3	8.52e-04	0	62	0	879755264	55	6247
2026-01-26 23:39:16.83	185.16	40.73	-42.9	-47.7	10.4	3.14e-03	0	62	0	881852416	56	6606
2026-01-26 23:39:17.84	185.26	40.46	-43.0	-47.7	10.5	5.16e-03	0	62	0	882900992	56	6640
2026-01-26 23:39:18.85	185.35	40.20	-42.6	-46.9	11.3	1.55e-03	0	62	0	884998144	56	6022
2026-01-26 23:39:19.86	185.45	39.94	-42.2	-46.1	12.2	4.84e-04	0	62	0	887095296	56	5470
2026-01-26 23:39:20.87	185.54	39.68	-41.7	-45.2	12.9	1.43e-04	0	62	0	889192448	55	5227
2026-01-26 23:39:21.88	185.63	39.42	-41.6	-45.0	13.1	3.73e-05	0	62	0	891289600	55	5128
2026-01-26 23:39:22.89	185.71	39.17	-41.6	-45.1	13.1	2.59e-05	0	62	0	892338176	55	5168
2026-01-26 23:39:23.90	185.80	38.91	-41.9	-45.6	12.5	7.32e-05	0	62	0	894435328	55	5504
2026-01-26 23:39:24.91	185.89	38.66	-42.2	-46.2	11.9	1.88e-04	0	62	0	896532480	55	5876
2026-01-26 23:39:25.92	185.97	38.41	-42.6	-47.0	11.0	1.00e-03	0	62	0	898629632	55	6458
2026-01-26 23:39:26.93	186.05	38.16	-43.1	-48.0	10.1	4.12e-03	0	62	0	900726784	56	6879
2026-01-26 23:39:27.94	186.13	37.91	-43.4	-49.2	9.0	1.29e-02	0	62	0	901775360	57	7380
2026-01-26 23:39:28.95	186.22	37.67	-43.7	-50.1	8.0	5.38e-02	0	62	0	903872512	57	8232
2026-01-26 23:39:29.96	186.29	37.42	-43.8	-50.4	7.7	7.85e-02	0	62	0	905969664	58	8031
2026-01-26 23:39:30.97	186.37	37.18	-43.5	-49.5	8.6	7.64e-02	0	62	0	908066816	58	7253
2026-01-26 23:39:31.98	186.45	36.94	-43.3	-48.8	9.2	2.52e-02	0	62	0	910163968	58	6709
2026-01-26 23:39:32.99	186.53	36.70	-43.2	-48.3	9.7	1.44e-02	0	62	0	912261120	58	6334
2026-01-26 23:39:34.00	186.60	36.47	-42.9	-47.8	10.4	7.63e-03	0	62	0	913309696	57	6275
2026-01-26 23:39:35.01	186.68	36.23	-42.8	-47.3	10.8	2.40e-03	0	62	0	915406848	57	5941
2026-01-26 23:39:36.02	186.75	36.00	-42.5	-46.7	11.4	1.25e-03	0	62	0	917504000	57	5589
2026-01-26 23:39:37.03	186.82	35.77	-42.4	-46.4	11.8	5.82e-04	0	62	0	919601152	56	5709
2026-01-26 23:39:38.04	186.89	35.54	-42.5	-46.6	11.6	5.59e-04	0	62	0	921698304	56	5813
2026-01-26 23:39:39.05	186.96	35.31	-42.6	-47.0	11.2	9.86e-04	0	62	0	922746880	56	6075
2026-01-26 23:39:40.07	187.03	35.08	-42.9	-47.5	10.6	2.00e-03	0	62	0	924844032	56	6482
2026-01-26 23:39:41.08	187.10	34.85	-43.0	-48.0	10.1	4.26e-03	0	62	0	926941184	56	6867
2026-01-26 23:39:42.09	187.17	34.63	-43.3	-48.7	9.3	1.49e-02	0	62	0	929038336	57	7015
2026-01-26 23:39:43.10	187.23	34.41	-43.5	-49.4	8.7	2.56e-02	0	62	0	931135488	57	7557
2026-01-26 23:39:44.11	187.30	34.19	-43.8	-50.2	7.8	4.85e-02	0	62	0	932184064	58	7888
2026-01-26 23:39:45.12	187.37	33.97	-43.9	-51.0	7.1	1.35e-01	0	62	0	934281216	58	8639
2026-01-26 23:39:46.13	187.43	33.75	-44.1	-51.5	6.6	1.82e-01	0	62	0	936378368	58	9172
2026-01-26 23:39:47.14	187.49	33.53	-44.1	-51.6	6.5	2.25e-01	0	62	0	938475520	58	9263
2026-01-26 23:39:48.15	187.56	33.32	-43.9	-51.1	7.0	1.87e-01	0	62	0	940572672	58	8684
2026-01-26 23:39:49.16	187.62	33.10	-43.8	-50.5	7.6	1.22e-01	0	62	0	941621248	58	8112
2026-01-26 23:39:50.17	187.68	32.89	-43.6	-49.8	8.3	7.51e-02	0	62	0	943718400	58	7507
2026-01-26 23:39:51.18	187.74	32.68	-44.3	-53.2	5.3	7.89e-01	0	62	0	945815552	59	10432
2026-01-26 23:39:52.19	187.80	32.47	-44.7	-56.8	3.9	8.40e-01	0	62	104	946864128	60	14994
2026-01-26 23:39:53.20	187.86	32.27	-44.6	-56.1	4.1	1.42e+00	0	62	104	946864128	60	13731
2026-01-26 23:39:54.21	187.91	32.06	-43.9	-50.8	7.2	9.66e-02	0	62	0	947912704	58	8421
2026-01-26 23:39:55.22	187.97	31.85	-43.3	-48.7	9.4	1.73e-02	0	62	0	950009856	58	6593
2026-01-26 23:39:56.23	188.03	31.65	-43.2	-48.6	9.4	1.70e-02	0	62	0	952107008	58	6532
2026-01-26 23:39:57.23	188.08	31.45	-43.2	-48.6	9.4	1.63e-02	0	62	0	953155584	58	6553
2026-01-26 23:39:58.24	188.14	31.25	-43.2	-48.7	9.4	1.68e-02	0	62	0	955252736	58	6575
2026-01-26 23:39:59.25	188.19	31.05	-43.2	-48.7	9.4	1.88e-02	0	62	0	957349888	58	6578
2026-01-26 23:40:00.26	188.25	30.85	-43.2	-48.5	9.6	1.46e-02	0	62	0	959447040	58	6448
2026-01-26 23:40:01.27	188.30	30.66	-43.2	-48.5	9.6	1.30e-02	0	62	0	961544192	58	6429
2026-01-26 23:40:02.28	188.36	30.46	-43.0	-48.0	10.0	8.90e-03	0	62	0	962592768	58	6102
2026-01-26 23:40:03.29	188.41	30.27	-42.9	-47.8	10.2	5.66e-03	0	62	0	964689920	57	6309
2026-01-26 23:40:04.30	188.46	30.07	-42.9	-47.8	10.2	5.76e-03	0	62	0	966787072	57	6336
2026-01-26 23:40:05.31	188.51	29.88	-42.9	-47.8	10.2	6.36e-03	0	62	0	968884224	57	6337
2026-01-26 23:40:06.32	188.56	29.69	-42.8	-47.5	10.5	4.71e-03	0	62	0	970981376	57	6119
2026-01-26 23:40:07.33	188.61	29.50	-42.8	-47.5	10.6	3.62e-03	0	62	0	973078528	57	6093
2026-01-26 23:40:08.34	188.66	29.32	-42.8	-47.4	10.7	3.63e-03	0	62	0	974127104	57	6030
2026-01-26 23:40:09.35	188.71	29.13	-42.7	-47.2	10.8	2.84e-03	0	62	0	976224256	57	5923
2026-01-26 23:40:10.36	188.76	28.94	-42.6	-47.1	11.0	2.42e-03	0	62	0	978321408	57	5792
2026-01-26 23:40:11.37	188.81	28.76	-42.5	-46.9	11.2	1.48e-03	0	62	0	980418560	57	5699
2026-01-26 23:40:12.38	188.85	28.58	-42.5	-46.9	11.2	1.29e-03	0	62	0	982515712	57	5662
2026-01-26 23:40:13.39	188.90	28.39	-42.5	-46.8	11.3	1.28e-03	0	62	0	983564288	57	5641
2026-01-26 23:40:14.40	188.95	28.21	-42.4	-46.6	11.5	1.08e-03	0	62	0	985661440	56	5847
2026-01-26 23:40:15.41	188.99	28.03	-42.3	-46.4	11.7	6.61e-04	0	62	0	987758592	56	5705
2026-01-26 23:40:16.41	189.04	27.86	-42.2	-46.1	12.1	4.36e-04	0	62	0	989855744	56	5490
2026-01-26 23:40:17.42	189.08	27.68	-42.1	-45.9	12.2	2.46e-04	0	62	0	991952896	56	5395
2026-01-26 23:40:18.43	189.13	27.50	-42.1	-45.9	12.2	2.20e-04	0	62	0	993001472	56	5394
2026-01-26 23:40:19.44	189.17	27.33	-42.0	-45.8	12.3	2.39e-04	0	62	0	995098624	56	5339
2026-01-26 23:40:20.45	189.22	27.15	-41.8	-45.5	12.5	1.45e-04	0	62	0	997195776	55	5431
2026-01-26 23:40:21.47	189.26	26.98	-41.7	-45.4	12.6	1.04e-04	0	62	0	999292928	55	5394
2026-01-26 23:40:22.47	189.30	26.81	-41.8	-45.4	12.5	1.04e-04	0	62	0	1001390080	55	5400
2026-01-26 23:40:23.48	189.34	26.64	-41.7	-45.4	12.6	1.13e-04	0	62	0	1002438656	55	5354
2026-01-26 23:40:24.49	189.39	26.47	-41.7	-45.3	12.7	8.31e-05	0	62	0	1004535808	55	5312
2026-01-26 23:40:25.50	189.43	26.30	-41.7	-45.3	12.7	8.85e-05	0	62	0	1006632960	55	5316
2026-01-26 23:40:26.51	189.47	26.13	-41.6	-45.2	12.7	6.71e-05	0	62	0	1008730112	55	5274
2026-01-26 23:40:27.52	189.51	25.97	-41.7	-45.3	12.7	7.55e-05	0	62	0	1010827264	55	5312
2026-01-26 23:40:28.53	189.55	25.80	-41.7	-45.3	12.7	9.76e-05	0	62	0	1011875840	55	5304
2026-01-26 23:40:29.54	189.59	25.64	-41.6	-45.2	12.8	7.40e-05	0	62	0	1013972992	55	5263
2026-01-26 23:40:30.55	189.63	25.47	-41.7	-45.4	12.6	8.08e-05	0	62	0	1016070144	55	5357
2026-01-26 23:40:31.56	189.67	25.31	-41.7	-45.4	12.6	8.85e-05	0	62	0	1018167296	55	5356
2026-01-26 23:40:32.57	189.71	25.15	-41.6	-45.2	12.7	8.01e-05	0	62	0	1020264448	55	5268
2026-01-26 23:40:33.59	189.75	24.99	-41.6	-45.3	12.7	6.94e-05	0	62	0	1021313024	55	5280
2026-01-26 23:40:34.59	189.78	24.83	-41.5	-45.0	12.9	5.87e-05	0	62	0	1023410176	55	5143
2026-01-26 23:40:35.60	189.82	24.67	-41.4	-44.8	13.2	2.82e-05	0	62	0	1025507328	54	5302
2026-01-26 23:40:36.61	189.86	24.51	-41.4	-44.8	13.2	2.13e-05	0	62	0	1027604480	54	5310
2026-01-26 23:40:37.62	189.90	24.36	-41.3	-44.6	13.4	2.74e-05	0	62	0	1029701632	54	5205
2026-01-26 23:40:38.63	189.93	24.20	-41.2	-44.5	13.5	1.29e-05	0	62	0	1030750208	54	5131
2026-01-26 23:40:39.64	189.97	24.05	-41.2	-44.4	13.6	7.60e-06	0	62	0	1032847360	54	5067
2026-01-26 23:40:40.66	190.01	23.89	-41.1	-44.3	13.7	7.60e-06	0	62	0	1034944512	54	5008
2026-01-26 23:40:41.66	190.04	23.74	-41.1	-44.4	13.6	7.60e-06	0	62	0	1037041664	54	5048
2026-01-26 23:40:42.67	190.08	23.59	-41.1	-44.2	13.7	5.30e-06	0	62	0	1039138816	54	4982
2026-01-26 23:40:43.68	190.11	23.43	-41.0	-44.1	13.9	3.00e-06	0	62	0	1041235968	53	5167
2026-01-26 23:40:44.69	190.15	23.28	-41.1	-44.2	13.7	3.80e-06	0	62	0	1042284544	53	5255
2026-01-26 23:40:45.70	190.18	23.13	-41.0	-44.2	13.8	4.50e-06	0	62	0	1044381696	53	5239
2026-01-26 23:40:46.71	190.22	22.99	-41.1	-44.2	13.8	7.60e-06	0	62	0	1046478848	53	5249
2026-01-26 23:40:47.72	190.25	22.84	-41.0	-44.2	13.8	3.80e-06	0	62	0	1048576000	53	5236
2026-01-26 23:40:48.73	190.28	22.69	-40.9	-44.0	14.0	3.00e-06	0	62	0	1050673152	53	5124
2026-01-26 23:40:49.74	190.32	22.54	-40.9	-44.0	13.9	2.20e-06	0	62	0	1051721728	53	5147
2026-01-26 23:40:50.75	190.35	22.40	-41.0	-44.1	13.8	3.80e-06	0	62	0	1053818880	53	5170
2026-01-26 23:40:51.76	190.38	22.25	-40.9	-44.0	13.9	6.80e-06	0	62	0	1055916032	53	5131
2026-01-26 23:40:52.77	190.42	22.11	-41.0	-44.1	13.8	4.50e-06	0	62	0	1058013184	53	5214
2026-01-26 23:40:53.78	190.45	21.97	-41.0	-44.2	13.7	3.80e-06	0	62	0	1060110336	53	5245
2026-01-26 23:40:54.79	190.48	21.82	-41.1	-44.3	13.6	5.30e-06	0	62	0	1061158912	53	5304
2026-01-26 23:40:55.80	190.51	21.68	-41.1	-44.3	13.6	9.90e-06	0	62	0	1063256064	53	5329
2026-01-26 23:40:56.81	190.54	21.54	-41.2	-44.4	13.5	9.90e-06	0	62	0	1065353216	53	5386
2026-01-26 23:40:57.82	190.58	21.40	-41.1	-44.4	13.5	9.10e-06	0	62	0	1067450368	53	5361
2026-01-26 23:40:58.83	190.61	21.26	-41.1	-44.4	13.5	1.29e-05	0	62	0	1069547520	53	5395
2026-01-26 23:40:59.84	190.64	21.13	-41.3	-44.6	13.3	1.67e-05	0	62	0	1070596096	53	5497
2026-01-26 23:41:00.85	190.67	20.99	-41.3	-44.6	13.3	1.75e-05	0	62	0	1072693248	53	5505
2026-01-26 23:41:01.86	190.70	20.85	-41.3	-44.7	13.3	1.98e-05	0	62	0	1074790400	53	5534
2026-01-26 23:41:02.87	190.73	20.71	-41.3	-44.7	13.2	1.90e-05	0	62	0	1076887552	53	5542
2026-01-26 23:41:03.88	190.76	20.58	-41.3	-44.8	13.2	2.51e-05	0	62	0	1078984704	53	5599
2026-01-26 23:41:04.89	190.79	20.44	-41.3	-44.7	13.2	2.21e-05	0	62	0	1080033280	53	5560
2026-01-26 23:41:05.90	190.82	20.31	-41.3	-44.7	13.3	2.05e-05	0	62	0	1082130432	53	5543
2026-01-26 23:41:06.90	190.85	20.18	-41.4	-44.9	13.0	2.28e-05	0	62	0	1084227584	53	5678
2026-01-26 23:41:07.91	190.87	20.05	-41.3	-44.8	13.1	2.59e-05	0	62	0	1086324736	53	5610
2026-01-26 23:41:08.92	190.90	19.91	-41.3	-44.7	13.2	3.20e-05	0	62	0	1088421888	53	5549
2026-01-26 23:41:09.93	190.93	19.78	-41.3	-44.8	13.1	2.82e-05	0	62	0	1089470464	53	5610
2026-01-26 23:41:10.94	190.96	19.65	-41.3	-44.8	13.1	3.43e-05	0	62	0	1091567616	53	5629
2026-01-26 23:41:11.95	190.99	19.52	-41.4	-44.9	12.9	4.04e-05	0	62	0	1093664768	53	5709
2026-01-26 23:41:12.96	191.02	19.39	-41.4	-44.9	13.0	4.27e-05	0	62	0	1095761920	53	5717
2026-01-26 23:41:13.97	191.04	19.26	-41.4	-44.9	12.9	4.19e-05	0	62	0	1097859072	53	5707
2026-01-26 23:41:14.98	191.07	19.14	-41.5	-45.0	12.8	4.34e-05	0	62	0	1098907648	53	5776
2026-01-26 23:41:15.99	191.10	19.01	-41.5	-45.1	12.7	7.09e-05	0	62	0	1101004800	53	5853
2026-01-26 23:41:17.00	191.13	18.88	-41.6	-45.2	12.6	8.23e-05	0	62	0	1103101952	53	5902
2026-01-26 23:41:18.01	191.15	18.76	-41.5	-45.2	12.6	8.85e-05	0	62	0	1105199104	53	5879
2026-01-26 23:41:19.02	191.18	18.63	-41.6	-45.3	12.5	1.07e-04	0	62	0	1107296256	53	5955
2026-01-26 23:41:20.03	191.20	18.51	-41.6	-45.4	12.5	1.25e-04	0	62	0	1109393408	53	5996
2026-01-26 23:41:21.04	191.23	18.38	-41.7	-45.4	12.4	1.33e-04	0	62	0	1110441984	53	6038
2026-01-26 23:41:22.05	191.26	18.26	-41.6	-45.4	12.4	1.52e-04	0	62	0	1112539136	53	6018
2026-01-26 23:41:23.06	191.28	18.14	-41.7	-45.5	12.3	1.59e-04	0	62	0	1114636288	53	6115
2026-01-26 23:41:24.07	191.31	18.01	-41.7	-45.5	12.3	1.67e-04	0	62	0	1116733440	53	6127
2026-01-26 23:41:25.08	191.33	17.89	-41.7	-45.5	12.3	2.08e-04	0	62	0	1118830592	54	5767
2026-01-26 23:41:26.09	191.36	17.77	-41.7	-45.6	12.2	1.91e-04	0	62	0	1119879168	54	5789
2026-01-26 23:41:27.10	191.38	17.65	-41.7	-45.6	12.2	2.34e-04	0	62	0	1121976320	54	5820
2026-01-26 23:41:28.11	191.41	17.53	-41.8	-45.7	12.1	2.21e-04	0	62	0	1124073472	54	5866
2026-01-26 23:41:29.11	191.43	17.41	-41.8	-45.7	12.1	2.64e-04	0	62	0	1126170624	54	5887
2026-01-26 23:41:30.12	191.46	17.30	-41.8	-45.7	12.1	2.66e-04	0	62	0	1128267776	54	5883
2026-01-26 23:41:31.13	191.48	17.18	-41.8	-45.8	12.0	2.93e-04	0	62	0	1129316352	54	5961
2026-01-26 23:41:32.15	191.51	17.06	-41.8	-45.7	12.0	3.04e-04	0	62	0	1131413504	54	5888
2026-01-26 23:41:33.15	191.53	16.94	-41.8	-45.8	11.9	3.81e-04	0	62	0	1133510656	54	5989
2026-01-26 23:41:34.16	191.56	16.83	-41.8	-45.7	12.0	3.55e-04	0	62	0	1135607808	54	5896
2026-01-26 23:41:35.17	191.58	16.71	-41.7	-45.7	12.1	2.97e-04	0	62	0	1137704960	54	5859
2026-01-26 23:41:36.18	191.60	16.59	-41.7	-45.7	12.1	2.67e-04	0	62	0	1138753536	54	5876
2026-01-26 23:41:37.20	191.63	16.48	-41.7	-45.7	12.1	2.54e-04	0	62	0	1140850688	54	5862
2026-01-26 23:41:38.21	191.65	16.36	-41.7	-45.6	12.1	2.59e-04	0	62	0	1142947840	54	5814
2026-01-26 23:41:39.22	191.67	16.25	-41.7	-45.6	12.1	2.54e-04	0	62	0	1145044992	54	5835
2026-01-26 23:41:40.23	191.70	16.14	-41.7	-45.5	12.3	2.08e-04	0	62	0	1147142144	54	5762
2026-01-26 23:41:41.24	191.72	16.03	-41.6	-45.5	12.3	2.17e-04	0	62	0	1148190720	54	5730
2026-01-26 23:41:42.25	191.74	15.91	-41.6	-45.4	12.3	1.77e-04	0	62	0	1150287872	54	5714
2026-01-26 23:41:43.26	191.76	15.80	-41.6	-45.5	12.2	2.43e-04	0	62	0	1152385024	54	5749
2026-01-26 23:41:44.27	191.79	15.69	-41.6	-45.5	12.3	2.08e-04	0	62	0	1154482176	54	5733
2026-01-26 23:41:45.28	191.81	15.58	-41.6	-45.4	12.3	1.72e-04	0	62	0	1156579328	54	5708
