passes_logs/2026/01/26/R2.0S_Moscow/R2.0S_Moscow__20260126_195729_FENGYUN_3G_rec.log

#Pass ID: 20260126_195729_FENGYUN 3G
#Satellite: FENGYUN 3G
#Configuration: FENGYUN 3G
#almurnet v.1.7.20251203
#Start time: 2026-01-26 19:57:29

#Version: 2.2.20231116
#Station: R2.0S_Moscow
#Location: 37.707566 lon 55.798166 lat
#TLE: 1 56232U 23055A   26025.91671677  .00046094  00000+0  69205-3 0  9999
#TLE: 2 56232  49.9949 359.5770 0004051  85.3034 274.8396 15.54373411157896

#Time	Az	El	Level	Level2	SNR	BER	BlckErr	Temp	State	Recorded	gain1	gain2
2026-01-26 19:57:29.20	262.25	2.00	-43.9	-62.0	3.8	8.46e-01	0	52	0	0	59	28898
2026-01-26 19:57:30.20	262.18	2.06	-43.9	-61.9	3.8	8.43e-01	0	53	104	0	59	28662
2026-01-26 19:57:31.21	262.10	2.12	-43.9	-61.9	3.8	8.45e-01	0	53	104	0	59	28574
2026-01-26 19:57:32.22	262.02	2.19	-43.9	-61.9	3.8	8.47e-01	0	53	104	0	59	28419
2026-01-26 19:57:33.23	261.94	2.25	-43.9	-61.9	3.8	8.47e-01	0	53	104	0	59	28453
2026-01-26 19:57:34.23	261.86	2.32	-43.9	-61.9	3.8	8.47e-01	0	53	104	0	59	28391
2026-01-26 19:57:35.25	261.78	2.38	-43.9	-61.8	3.8	8.44e-01	0	53	104	0	59	28197
2026-01-26 19:57:36.26	261.70	2.45	-43.9	-61.8	3.8	8.44e-01	0	53	104	0	59	28070
2026-01-26 19:57:37.27	261.62	2.51	-43.9	-61.8	3.8	8.45e-01	0	53	104	0	59	28068
2026-01-26 19:57:38.28	261.54	2.58	-43.9	-61.7	3.8	8.46e-01	0	53	104	0	59	27853
2026-01-26 19:57:39.29	261.45	2.64	-43.9	-61.7	3.8	8.46e-01	0	53	104	0	59	28022
2026-01-26 19:57:40.30	261.37	2.71	-43.9	-61.7	3.8	8.47e-01	0	53	104	0	59	27994
2026-01-26 19:57:41.31	261.29	2.78	-43.9	-61.8	3.8	8.46e-01	0	53	104	0	59	28153
2026-01-26 19:57:42.32	261.20	2.84	-43.9	-61.8	3.8	8.46e-01	0	53	104	0	59	28147
2026-01-26 19:57:43.33	261.12	2.91	-43.9	-61.9	3.8	8.47e-01	0	53	104	0	59	28474
2026-01-26 19:57:44.34	261.03	2.98	-43.9	-61.9	3.8	8.46e-01	0	54	104	0	59	28583
2026-01-26 19:57:45.35	260.95	3.04	-43.9	-62.0	3.8	8.46e-01	0	54	104	0	59	28702
2026-01-26 19:57:46.36	260.86	3.11	-43.9	-62.0	3.8	8.46e-01	0	54	104	0	59	28798
2026-01-26 19:57:47.37	260.77	3.18	-43.9	-62.0	3.8	8.46e-01	0	54	104	0	59	28882
2026-01-26 19:57:48.38	260.68	3.24	-43.9	-62.0	3.8	8.47e-01	0	54	104	0	59	28779
2026-01-26 19:57:49.39	260.60	3.31	-43.9	-61.9	3.8	8.47e-01	0	54	104	0	59	28657
2026-01-26 19:57:50.40	260.51	3.38	-43.9	-61.9	3.8	8.46e-01	0	54	104	0	59	28500
2026-01-26 19:57:51.41	260.42	3.45	-43.9	-61.8	3.8	8.46e-01	0	54	104	0	59	28310
2026-01-26 19:57:52.42	260.33	3.52	-43.9	-61.7	3.8	8.46e-01	0	54	104	0	59	27758
2026-01-26 19:57:53.43	260.24	3.59	-43.9	-61.5	3.8	8.46e-01	0	54	104	0	59	27297
2026-01-26 19:57:54.44	260.14	3.65	-43.9	-61.5	3.8	8.45e-01	0	54	104	0	59	27216
2026-01-26 19:57:55.45	260.05	3.72	-43.9	-61.6	3.8	8.45e-01	0	54	104	0	59	27570
2026-01-26 19:57:56.46	259.96	3.79	-43.9	-61.7	3.8	8.46e-01	0	54	104	0	59	28023
2026-01-26 19:57:57.47	259.87	3.86	-43.9	-61.9	3.8	8.45e-01	0	55	104	0	59	28391
2026-01-26 19:57:58.48	259.77	3.93	-43.9	-61.9	3.8	8.46e-01	0	55	104	0	59	28602
2026-01-26 19:57:59.49	259.68	4.00	-43.9	-61.9	3.8	8.46e-01	0	55	104	0	59	28636
2026-01-26 19:58:00.50	259.58	4.07	-43.9	-61.9	3.8	8.47e-01	0	55	104	0	59	28641
2026-01-26 19:58:01.51	259.49	4.14	-43.9	-61.9	3.8	8.46e-01	0	54	104	0	59	28640
2026-01-26 19:58:02.52	259.39	4.21	-43.9	-61.9	3.8	8.46e-01	0	55	104	0	59	28525
2026-01-26 19:58:03.53	259.29	4.28	-43.9	-61.9	3.8	8.46e-01	0	55	104	0	59	28576
2026-01-26 19:58:04.54	259.19	4.35	-43.9	-61.8	3.8	8.46e-01	0	55	104	0	59	28314
2026-01-26 19:58:05.55	259.10	4.42	-43.9	-61.8	3.8	8.46e-01	0	55	104	0	59	28114
2026-01-26 19:58:06.56	259.00	4.50	-43.9	-61.8	3.8	8.46e-01	0	55	104	0	59	28326
2026-01-26 19:58:07.58	258.89	4.57	-43.9	-61.9	3.8	8.46e-01	0	55	104	0	59	28572
2026-01-26 19:58:08.59	258.79	4.64	-43.9	-61.9	3.8	8.46e-01	0	55	104	0	59	28567
2026-01-26 19:58:09.60	258.69	4.71	-43.9	-61.8	3.8	8.47e-01	0	55	104	0	59	28174
2026-01-26 19:58:10.61	258.59	4.78	-43.9	-61.7	3.8	8.47e-01	0	55	104	0	59	27961
2026-01-26 19:58:11.62	258.49	4.86	-43.9	-61.5	3.8	8.46e-01	0	55	104	0	59	27116
2026-01-26 19:58:12.63	258.38	4.93	-43.9	-61.0	3.8	8.46e-01	0	55	104	0	59	25691
2026-01-26 19:58:13.64	258.28	5.00	-43.9	-60.8	3.8	8.46e-01	0	55	104	0	59	25074
2026-01-26 19:58:14.65	258.17	5.08	-43.9	-60.5	3.8	8.45e-01	0	55	104	0	59	24345
2026-01-26 19:58:15.66	258.07	5.15	-43.9	-60.6	3.8	8.45e-01	0	55	104	0	59	24473
2026-01-26 19:58:16.67	257.96	5.22	-43.9	-60.8	3.8	8.45e-01	0	56	104	0	59	25057
2026-01-26 19:58:17.68	257.85	5.30	-43.9	-61.1	3.8	8.46e-01	0	56	104	0	59	25915
2026-01-26 19:58:18.69	257.74	5.37	-43.9	-61.5	3.8	8.46e-01	0	56	104	0	59	27102
2026-01-26 19:58:19.70	257.63	5.45	-43.9	-61.8	3.8	8.46e-01	0	56	104	0	59	28185
2026-01-26 19:58:20.71	257.52	5.52	-43.9	-61.8	3.8	8.46e-01	0	56	104	0	59	28276
2026-01-26 19:58:21.72	257.41	5.59	-43.9	-61.7	3.8	8.46e-01	0	56	104	0	59	27996
2026-01-26 19:58:22.73	257.30	5.67	-43.9	-61.5	3.8	8.46e-01	0	56	104	0	59	27154
2026-01-26 19:58:23.74	257.19	5.75	-43.9	-61.2	3.8	8.46e-01	0	56	104	0	59	26312
2026-01-26 19:58:24.75	257.07	5.82	-43.9	-60.7	3.8	8.45e-01	0	56	104	0	59	24926
2026-01-26 19:58:25.76	256.96	5.90	-43.9	-60.7	3.8	8.45e-01	0	56	104	0	59	24874
2026-01-26 19:58:26.77	256.84	5.97	-43.9	-60.4	3.8	8.45e-01	0	56	104	0	59	24081
2026-01-26 19:58:27.79	256.73	6.05	-43.9	-60.2	3.8	8.46e-01	0	56	104	0	59	23553
2026-01-26 19:58:28.80	256.61	6.13	-43.9	-59.9	3.8	8.46e-01	0	56	104	0	59	22770
2026-01-26 19:58:29.81	256.49	6.20	-43.8	-59.8	3.8	8.46e-01	0	56	104	0	59	22503
2026-01-26 19:58:30.82	256.37	6.28	-43.8	-59.5	3.8	8.45e-01	0	56	104	0	59	21699
2026-01-26 19:58:31.83	256.25	6.36	-43.8	-59.2	4.0	8.45e-01	0	56	104	0	59	20838
2026-01-26 19:58:32.84	256.13	6.44	-43.8	-58.5	4.2	8.44e-01	0	56	0	0	59	19308
2026-01-26 19:58:33.85	256.01	6.51	-43.7	-57.6	4.4	8.37e-01	0	56	0	0	59	17311
2026-01-26 19:58:34.86	255.89	6.59	-43.7	-56.4	5.0	8.13e-01	0	56	0	0	59	15140
2026-01-26 19:58:35.87	255.77	6.67	-43.6	-54.9	5.9	8.13e-01	0	56	0	0	59	12785
2026-01-26 19:58:36.88	255.64	6.75	-43.5	-54.0	6.7	5.87e-01	0	57	0	1048576	59	11479
2026-01-26 19:58:37.89	255.52	6.83	-43.3	-52.8	7.9	1.96e-01	0	57	0	2097152	58	10626
2026-01-26 19:58:38.90	255.39	6.91	-43.2	-52.0	8.6	1.96e-01	0	57	0	3145728	58	9637
2026-01-26 19:58:39.91	255.26	6.99	-43.1	-51.7	9.1	6.24e-02	0	57	0	4718592	58	9296
2026-01-26 19:58:40.92	255.14	7.07	-43.2	-51.8	8.9	3.30e-02	0	57	0	5767168	58	9449
2026-01-26 19:58:41.93	255.01	7.15	-43.3	-52.6	8.1	3.30e-02	0	57	0	6815744	58	10406
2026-01-26 19:58:42.94	254.88	7.23	-43.5	-53.9	6.9	4.86e-02	0	57	0	7864320	58	12067
2026-01-26 19:58:43.95	254.74	7.31	-43.7	-57.2	4.6	2.35e-01	0	57	0	8388608	58	17643
2026-01-26 19:58:44.96	254.61	7.39	-43.9	-61.4	3.8	2.35e-01	0	57	104	8388608	58	28485
2026-01-26 19:58:45.97	254.48	7.47	-43.8	-60.0	3.8	8.21e-01	0	57	104	8388608	58	24385
2026-01-26 19:58:46.99	254.34	7.56	-43.5	-54.7	6.0	8.42e-01	0	57	0	8388608	58	13224
2026-01-26 19:58:48.00	254.21	7.64	-43.0	-51.1	9.5	3.03e-01	0	57	0	9437184	58	8727
2026-01-26 19:58:49.01	254.07	7.72	-42.4	-48.8	12.0	3.03e-01	0	57	0	10485760	56	7466
2026-01-26 19:58:50.02	253.93	7.80	-41.7	-46.8	13.9	4.13e-03	0	57	0	11534336	55	6315
2026-01-26 19:58:51.03	253.79	7.88	-41.2	-45.7	15.1	9.10e-06	0	57	0	12582912	54	5878
2026-01-26 19:58:52.04	253.65	7.97	-41.2	-45.7	15.1	9.10e-06	0	57	0	14155776	54	5877
2026-01-26 19:58:53.05	253.51	8.05	-41.3	-45.8	14.9	0.00e+00	0	57	0	15204352	54	5987
2026-01-26 19:58:54.06	253.37	8.13	-41.2	-45.5	15.3	0.00e+00	0	57	0	16252928	53	6088
2026-01-26 19:58:55.07	253.23	8.22	-42.0	-47.5	13.4	0.00e+00	0	57	0	17301504	54	7261
2026-01-26 19:58:56.08	253.08	8.30	-43.7	-58.1	4.3	4.50e-06	0	57	0	18350080	58	19603
2026-01-26 19:58:57.09	252.94	8.39	-43.2	-51.0	10.4	3.69e-01	0	57	0	18874368	56	9625
2026-01-26 19:58:58.10	252.79	8.47	-43.0	-50.9	9.7	2.44e-03	0	57	0	19922944	56	9559
2026-01-26 19:58:59.11	252.64	8.56	-41.2	-45.5	15.4	2.44e-03	0	57	0	20971520	54	5756
2026-01-26 19:59:00.12	252.49	8.64	-41.0	-45.1	15.8	1.02e-03	0	57	0	22544384	54	5488
2026-01-26 19:59:01.13	252.34	8.73	-40.9	-44.9	16.0	0.00e+00	0	57	0	23592960	53	5706
2026-01-26 19:59:02.14	252.19	8.81	-40.9	-44.8	16.2	0.00e+00	0	57	0	24641536	53	5629
2026-01-26 19:59:03.15	252.04	8.90	-40.9	-44.8	16.1	0.00e+00	0	57	0	25690112	53	5637
2026-01-26 19:59:04.16	251.89	8.99	-40.8	-44.6	16.3	0.00e+00	0	58	0	26738688	53	5513
2026-01-26 19:59:05.17	251.73	9.07	-40.7	-44.4	16.5	0.00e+00	0	58	0	27787264	53	5402
2026-01-26 19:59:06.19	251.57	9.16	-40.5	-44.1	16.9	0.00e+00	0	58	0	29360128	52	5475
2026-01-26 19:59:07.20	251.41	9.25	-40.6	-44.3	16.7	0.00e+00	0	58	0	30408704	52	5598
2026-01-26 19:59:08.21	251.25	9.34	-40.5	-44.1	16.9	0.00e+00	0	58	0	31457280	52	5526
2026-01-26 19:59:09.22	251.09	9.43	-40.6	-44.2	16.8	0.00e+00	0	58	0	32505856	52	5533
2026-01-26 19:59:10.23	250.93	9.51	-40.6	-44.3	16.7	0.00e+00	0	58	0	33554432	52	5640
2026-01-26 19:59:11.24	250.77	9.60	-40.7	-44.4	16.6	0.00e+00	0	58	0	34603008	52	5681
2026-01-26 19:59:12.25	250.60	9.69	-40.6	-44.2	16.8	0.00e+00	0	58	0	36175872	52	5570
2026-01-26 19:59:13.25	250.44	9.78	-40.6	-44.3	16.8	0.00e+00	0	58	0	37224448	52	5606
2026-01-26 19:59:14.27	250.27	9.87	-40.6	-44.3	16.8	0.00e+00	0	58	0	38273024	52	5603
2026-01-26 19:59:15.28	250.10	9.96	-40.6	-44.3	16.8	0.00e+00	0	58	0	39321600	52	5620
2026-01-26 19:59:16.29	249.93	10.05	-40.7	-44.3	16.7	0.00e+00	0	58	0	40370176	52	5635
2026-01-26 19:59:17.30	249.76	10.14	-40.8	-44.5	16.6	0.00e+00	0	58	0	41943040	52	5769
2026-01-26 19:59:18.31	249.58	10.23	-40.7	-44.3	16.8	0.00e+00	0	58	0	42991616	52	5625
2026-01-26 19:59:19.31	249.41	10.32	-40.7	-44.3	16.8	0.00e+00	0	58	0	44040192	52	5637
2026-01-26 19:59:20.32	249.24	10.42	-40.5	-44.1	16.9	0.00e+00	0	58	0	45088768	52	5497
2026-01-26 19:59:21.33	249.06	10.51	-40.3	-43.7	17.4	0.00e+00	0	58	0	46137344	52	5255
2026-01-26 19:59:22.34	248.88	10.60	-40.4	-43.8	17.3	0.00e+00	0	58	0	47185920	52	5298
2026-01-26 19:59:23.35	248.70	10.69	-40.2	-43.5	17.6	0.00e+00	0	58	0	48234496	52	5156
2026-01-26 19:59:24.36	248.52	10.79	-40.1	-43.4	17.7	0.00e+00	0	58	0	49807360	52	5073
2026-01-26 19:59:25.37	248.33	10.88	-40.3	-43.7	17.5	0.00e+00	0	58	0	50855936	52	5219
2026-01-26 19:59:26.38	248.15	10.97	-40.3	-43.7	17.5	0.00e+00	0	58	0	51904512	52	5238
2026-01-26 19:59:27.39	247.96	11.07	-40.3	-43.7	17.5	0.00e+00	0	58	0	52953088	52	5255
2026-01-26 19:59:28.40	247.77	11.16	-40.4	-43.7	17.4	0.00e+00	0	58	0	54001664	52	5276
2026-01-26 19:59:29.41	247.58	11.25	-40.2	-43.5	17.6	0.00e+00	0	58	0	55050240	52	5147
2026-01-26 19:59:30.42	247.39	11.35	-40.2	-43.5	17.7	0.00e+00	0	58	0	56623104	52	5105
2026-01-26 19:59:31.43	247.19	11.44	-40.2	-43.4	17.8	0.00e+00	0	58	0	57671680	52	5062
2026-01-26 19:59:32.44	247.00	11.54	-40.1	-43.3	17.9	0.00e+00	0	58	0	58720256	52	4988
2026-01-26 19:59:33.45	246.80	11.63	-40.2	-43.3	17.9	0.00e+00	0	58	0	59768832	52	5038
2026-01-26 19:59:34.46	246.60	11.73	-40.2	-43.4	17.8	0.00e+00	0	58	0	60817408	52	5060
2026-01-26 19:59:35.47	246.40	11.83	-40.0	-43.1	18.1	0.00e+00	0	58	0	61865984	52	4874
2026-01-26 19:59:36.48	246.20	11.92	-39.9	-42.9	18.3	0.00e+00	0	58	0	63438848	51	5092
2026-01-26 19:59:37.49	245.99	12.02	-39.7	-42.6	18.7	0.00e+00	0	58	0	64487424	51	4922
2026-01-26 19:59:38.50	245.79	12.12	-39.8	-42.7	18.7	0.00e+00	0	58	0	65536000	51	4933
2026-01-26 19:59:39.51	245.58	12.21	-39.8	-42.7	18.6	0.00e+00	0	58	0	66584576	51	4960
2026-01-26 19:59:40.51	245.37	12.31	-39.8	-42.7	18.6	0.00e+00	0	58	0	67633152	51	4979
2026-01-26 19:59:41.52	245.16	12.41	-39.9	-42.8	18.5	0.00e+00	0	58	0	68681728	51	5027
2026-01-26 19:59:42.53	244.95	12.51	-40.0	-43.0	18.4	0.00e+00	0	58	0	70254592	51	5104
2026-01-26 19:59:43.54	244.73	12.60	-39.9	-42.8	18.5	0.00e+00	0	58	0	71303168	51	5033
2026-01-26 19:59:44.55	244.52	12.70	-39.8	-42.7	18.6	0.00e+00	0	59	0	72351744	51	4959
2026-01-26 19:59:45.56	244.30	12.80	-39.7	-42.5	18.8	0.00e+00	0	58	0	73400320	51	4842
2026-01-26 19:59:46.57	244.08	12.90	-39.5	-42.3	19.0	0.00e+00	0	58	0	74448896	51	4749
2026-01-26 19:59:47.58	243.85	13.00	-39.4	-42.1	19.2	0.00e+00	0	59	0	75497472	50	4925
2026-01-26 19:59:48.59	243.63	13.10	-39.6	-42.3	19.1	0.00e+00	0	59	0	77070336	50	5032
2026-01-26 19:59:49.60	243.40	13.20	-39.7	-42.5	18.9	0.00e+00	0	59	0	78118912	50	5137
2026-01-26 19:59:50.61	243.17	13.30	-39.6	-42.5	18.9	0.00e+00	0	59	0	79167488	50	5107
2026-01-26 19:59:51.62	242.94	13.40	-39.7	-42.5	18.9	0.00e+00	0	59	0	80216064	50	5116
2026-01-26 19:59:52.63	242.71	13.50	-39.7	-42.5	18.9	0.00e+00	0	59	0	81264640	50	5116
2026-01-26 19:59:53.64	242.47	13.60	-39.8	-42.6	18.8	0.00e+00	0	58	0	82313216	50	5208
2026-01-26 19:59:54.65	242.23	13.70	-39.7	-42.5	18.9	0.00e+00	0	59	0	83886080	50	5120
2026-01-26 19:59:55.66	242.00	13.80	-39.6	-42.3	19.1	0.00e+00	0	58	0	84934656	50	5020
2026-01-26 19:59:56.67	241.75	13.91	-39.6	-42.4	19.1	0.00e+00	0	59	0	85983232	50	5052
2026-01-26 19:59:57.68	241.51	14.01	-39.5	-42.3	19.2	0.00e+00	0	59	0	87031808	50	4987
2026-01-26 19:59:58.69	241.26	14.11	-39.5	-42.3	19.2	0.00e+00	0	59	0	88080384	50	4988
2026-01-26 19:59:59.70	241.02	14.21	-39.3	-41.9	19.5	0.00e+00	0	59	0	89128960	50	4812
2026-01-26 20:00:00.71	240.77	14.31	-39.1	-41.7	19.8	0.00e+00	0	59	0	90701824	50	4658
2026-01-26 20:00:01.72	240.51	14.42	-39.1	-41.7	19.8	0.00e+00	0	59	0	91750400	50	4672
2026-01-26 20:00:02.73	240.26	14.52	-39.2	-41.8	19.7	0.00e+00	0	59	0	92798976	50	4713
2026-01-26 20:00:03.74	240.00	14.62	-39.3	-41.9	19.6	0.00e+00	0	59	0	93847552	50	4786
2026-01-26 20:00:04.75	239.74	14.72	-39.3	-41.9	19.5	0.00e+00	0	59	0	94896128	50	4813
2026-01-26 20:00:05.76	239.48	14.83	-39.3	-41.9	19.6	0.00e+00	0	59	0	95944704	50	4772
2026-01-26 20:00:06.77	239.22	14.93	-39.2	-41.8	19.7	0.00e+00	0	59	0	97517568	50	4715
2026-01-26 20:00:07.78	238.95	15.04	-39.2	-41.8	19.7	0.00e+00	0	59	0	98566144	50	4740
2026-01-26 20:00:08.79	238.68	15.14	-39.2	-41.8	19.7	0.00e+00	0	59	0	99614720	50	4730
2026-01-26 20:00:09.80	238.41	15.24	-39.2	-41.7	19.8	0.00e+00	0	59	0	100663296	50	4672
2026-01-26 20:00:10.81	238.13	15.35	-39.1	-41.6	19.9	0.00e+00	0	59	0	101711872	50	4616
2026-01-26 20:00:11.82	237.86	15.45	-39.0	-41.5	20.0	0.00e+00	0	59	0	102760448	50	4548
2026-01-26 20:00:12.83	237.58	15.55	-39.0	-41.5	20.0	0.00e+00	0	59	0	104333312	49	4818
2026-01-26 20:00:13.84	237.30	15.66	-39.0	-41.5	20.0	0.00e+00	0	59	0	105381888	49	4855
2026-01-26 20:00:14.85	237.01	15.76	-38.9	-41.3	20.2	0.00e+00	0	59	0	106430464	49	4736
2026-01-26 20:00:15.86	236.73	15.87	-39.0	-41.5	20.1	0.00e+00	0	59	0	107479040	49	4824
2026-01-26 20:00:16.87	236.44	15.97	-39.1	-41.7	19.8	0.00e+00	0	59	0	108527616	49	4937
2026-01-26 20:00:17.88	236.15	16.08	-39.0	-41.5	20.0	0.00e+00	0	59	0	109576192	49	4867
2026-01-26 20:00:18.89	235.85	16.18	-39.1	-41.5	19.9	0.00e+00	0	59	0	111149056	49	4868
2026-01-26 20:00:19.90	235.56	16.28	-39.0	-41.5	20.0	0.00e+00	0	59	0	112197632	49	4849
2026-01-26 20:00:20.91	235.26	16.39	-38.9	-41.4	20.0	0.00e+00	0	59	0	113246208	49	4784
2026-01-26 20:00:21.92	234.96	16.49	-38.7	-41.0	20.4	0.00e+00	0	59	0	114294784	49	4583
2026-01-26 20:00:22.93	234.65	16.60	-38.7	-41.0	20.5	0.00e+00	0	59	0	115343360	49	4567
2026-01-26 20:00:23.94	234.35	16.70	-38.5	-40.8	20.7	0.00e+00	0	59	0	116391936	49	4460
2026-01-26 20:00:24.95	234.04	16.81	-38.5	-40.8	20.7	0.00e+00	0	59	0	117964800	49	4463
2026-01-26 20:00:25.96	233.72	16.91	-38.6	-40.9	20.7	0.00e+00	0	59	0	119013376	49	4499
2026-01-26 20:00:26.97	233.41	17.01	-38.6	-41.0	20.6	0.00e+00	0	59	0	120061952	49	4550
2026-01-26 20:00:27.98	233.09	17.12	-38.7	-41.1	20.5	0.00e+00	0	59	0	121110528	49	4599
2026-01-26 20:00:28.99	232.77	17.22	-38.8	-41.2	20.4	0.00e+00	0	59	0	122159104	49	4652
2026-01-26 20:00:30.00	232.45	17.33	-38.9	-41.3	20.3	0.00e+00	0	59	0	123731968	49	4729
2026-01-26 20:00:31.01	232.12	17.43	-38.9	-41.3	20.3	0.00e+00	0	59	0	124780544	49	4737
2026-01-26 20:00:32.02	231.79	17.53	-38.7	-41.0	20.5	0.00e+00	0	60	0	125829120	49	4581
2026-01-26 20:00:33.03	231.46	17.64	-38.6	-40.9	20.6	0.00e+00	0	59	0	126877696	49	4537
2026-01-26 20:00:34.04	231.12	17.74	-38.4	-40.7	20.9	0.00e+00	0	59	0	127926272	48	4670
2026-01-26 20:00:35.05	230.79	17.84	-38.5	-40.8	20.8	0.00e+00	0	59	0	128974848	48	4712
2026-01-26 20:00:36.06	230.45	17.94	-38.3	-40.5	21.1	0.00e+00	0	59	0	130023424	48	4548
2026-01-26 20:00:37.07	230.10	18.05	-37.9	-40.0	21.5	0.00e+00	0	59	0	131596288	47	4588
2026-01-26 20:00:38.08	229.76	18.15	-38.0	-40.2	21.4	0.00e+00	0	59	0	132644864	47	4679
2026-01-26 20:00:39.09	229.41	18.25	-38.2	-40.3	21.2	0.00e+00	0	59	0	133693440	47	4749
2026-01-26 20:00:40.10	229.05	18.35	-38.2	-40.4	21.2	0.00e+00	0	59	0	134742016	47	4765
2026-01-26 20:00:41.11	228.70	18.45	-38.5	-40.8	20.8	0.00e+00	0	60	0	135790592	47	5003
2026-01-26 20:00:42.12	228.34	18.55	-38.8	-41.2	20.3	0.00e+00	0	59	0	136839168	48	4968
2026-01-26 20:00:43.13	227.98	18.65	-38.8	-41.2	20.4	0.00e+00	0	59	0	138412032	48	4931
2026-01-26 20:00:44.14	227.62	18.75	-38.8	-41.1	20.5	0.00e+00	0	60	0	139460608	48	4899
2026-01-26 20:00:45.15	227.25	18.85	-38.5	-40.8	20.8	0.00e+00	0	60	0	140509184	48	4746
2026-01-26 20:00:46.16	226.88	18.95	-38.2	-40.3	21.3	0.00e+00	0	60	0	141557760	48	4480
2026-01-26 20:00:47.17	226.51	19.05	-38.0	-40.1	21.5	0.00e+00	0	59	0	142606336	48	4362
2026-01-26 20:00:48.18	226.13	19.15	-37.8	-39.9	21.7	0.00e+00	0	59	0	143654912	47	4523
2026-01-26 20:00:49.19	225.76	19.24	-37.8	-39.9	21.7	0.00e+00	0	59	0	145227776	47	4511
2026-01-26 20:00:50.20	225.37	19.34	-37.9	-40.0	21.6	0.00e+00	0	59	0	146276352	47	4546
2026-01-26 20:00:51.21	224.99	19.44	-37.7	-39.7	21.8	0.00e+00	0	59	0	147324928	47	4441
2026-01-26 20:00:52.22	224.60	19.53	-37.8	-39.9	21.7	0.00e+00	0	60	0	148373504	47	4511
2026-01-26 20:00:53.23	224.21	19.63	-37.8	-39.9	21.7	0.00e+00	0	60	0	149422080	47	4505
2026-01-26 20:00:54.24	223.82	19.72	-37.9	-40.0	21.6	0.00e+00	0	60	0	150470656	47	4564
2026-01-26 20:00:55.25	223.42	19.81	-38.0	-40.2	21.5	0.00e+00	0	60	0	152043520	47	4667
2026-01-26 20:00:56.26	223.02	19.91	-38.3	-40.5	21.2	0.00e+00	0	60	0	153092096	47	4828
2026-01-26 20:00:57.27	222.62	20.00	-38.3	-40.5	21.1	0.00e+00	0	60	0	154140672	47	4866
2026-01-26 20:00:58.28	222.22	20.09	-38.2	-40.4	21.2	0.00e+00	0	60	0	155189248	47	4770
2026-01-26 20:00:59.29	221.81	20.18	-38.2	-40.4	21.2	0.00e+00	0	60	0	156237824	47	4795
2026-01-26 20:01:00.30	221.40	20.27	-38.3	-40.6	21.1	0.00e+00	0	60	0	157810688	47	4878
2026-01-26 20:01:01.31	220.98	20.36	-38.4	-40.6	21.0	0.00e+00	0	60	0	158859264	47	4908
2026-01-26 20:01:02.32	220.57	20.45	-38.3	-40.5	21.1	0.00e+00	0	60	0	159907840	47	4868
2026-01-26 20:01:03.33	220.15	20.53	-38.3	-40.5	21.2	0.00e+00	0	60	0	160956416	47	4839
2026-01-26 20:01:04.34	219.73	20.62	-38.3	-40.5	21.2	0.00e+00	0	60	0	162004992	47	4828
2026-01-26 20:01:05.35	219.30	20.70	-38.3	-40.5	21.2	0.00e+00	0	60	0	163053568	47	4836
2026-01-26 20:01:06.36	218.87	20.79	-38.2	-40.4	21.3	0.00e+00	0	60	0	164626432	47	4760
2026-01-26 20:01:07.37	218.44	20.87	-38.0	-40.2	21.5	0.00e+00	0	60	0	165675008	47	4656
2026-01-26 20:01:08.38	218.01	20.95	-38.0	-40.1	21.6	0.00e+00	0	60	0	166723584	47	4607
2026-01-26 20:01:09.39	217.57	21.03	-37.7	-39.8	21.8	0.00e+00	0	60	0	167772160	47	4465
2026-01-26 20:01:10.40	217.13	21.11	-37.7	-39.7	22.0	0.00e+00	0	60	0	168820736	47	4419
2026-01-26 20:01:11.41	216.69	21.19	-37.6	-39.6	22.1	0.00e+00	0	60	0	169869312	47	4359
2026-01-26 20:01:12.42	216.25	21.27	-37.6	-39.7	22.0	0.00e+00	0	60	0	170917888	47	4394
2026-01-26 20:01:13.43	215.80	21.34	-37.5	-39.5	22.1	0.00e+00	0	60	0	172490752	47	4321
2026-01-26 20:01:14.44	215.35	21.42	-37.4	-39.4	22.3	0.00e+00	0	60	0	173539328	46	4509
2026-01-26 20:01:15.45	214.90	21.49	-37.6	-39.6	22.1	0.00e+00	0	60	0	174587904	46	4614
2026-01-26 20:01:16.46	214.44	21.56	-37.5	-39.5	22.1	0.00e+00	0	60	0	175636480	46	4585
2026-01-26 20:01:17.47	213.99	21.63	-37.5	-39.5	22.2	0.00e+00	0	60	0	176685056	46	4576
2026-01-26 20:01:18.48	213.53	21.70	-37.4	-39.3	22.4	0.00e+00	0	60	0	177733632	46	4477
2026-01-26 20:01:19.49	213.07	21.77	-37.4	-39.3	22.4	0.00e+00	0	60	0	179306496	46	4493
2026-01-26 20:01:20.50	212.60	21.83	-37.7	-39.7	22.0	0.00e+00	0	60	0	180355072	46	4668
2026-01-26 20:01:21.51	212.13	21.90	-37.8	-39.9	21.8	0.00e+00	0	60	0	181403648	46	4811
2026-01-26 20:01:22.52	211.66	21.96	-37.8	-39.8	21.8	0.00e+00	0	60	0	182452224	46	4754
2026-01-26 20:01:23.53	211.19	22.02	-37.7	-39.8	21.9	0.00e+00	0	60	0	183500800	46	4718
2026-01-26 20:01:24.54	210.72	22.08	-37.7	-39.8	21.9	0.00e+00	0	60	0	184549376	46	4721
2026-01-26 20:01:25.55	210.24	22.14	-37.7	-39.7	22.0	0.00e+00	0	60	0	186122240	46	4664
2026-01-26 20:01:26.56	209.77	22.20	-37.5	-39.5	22.1	0.00e+00	0	60	0	187170816	46	4592
2026-01-26 20:01:27.57	209.29	22.25	-37.4	-39.4	22.2	0.00e+00	0	60	0	188219392	46	4505
2026-01-26 20:01:28.58	208.80	22.30	-37.4	-39.4	22.3	0.00e+00	0	60	0	189267968	46	4497
2026-01-26 20:01:29.59	208.32	22.35	-37.3	-39.2	22.4	0.00e+00	0	60	0	190316544	46	4430
2026-01-26 20:01:30.60	207.84	22.40	-37.3	-39.3	22.5	0.00e+00	0	60	0	191889408	46	4443
2026-01-26 20:01:31.61	207.35	22.45	-37.5	-39.5	22.2	0.00e+00	0	60	0	192937984	46	4555
2026-01-26 20:01:32.62	206.86	22.50	-37.2	-39.1	22.5	0.00e+00	0	60	0	193986560	46	4371
2026-01-26 20:01:33.63	206.37	22.54	-37.2	-39.2	22.5	0.00e+00	0	60	0	195035136	46	4392
2026-01-26 20:01:34.64	205.87	22.58	-37.0	-38.8	22.8	0.00e+00	0	60	0	196083712	45	4493
2026-01-26 20:01:35.65	205.38	22.63	-37.0	-38.9	22.8	0.00e+00	0	60	0	197132288	45	4497
2026-01-26 20:01:36.66	204.89	22.66	-37.2	-39.1	22.5	0.00e+00	0	60	0	198705152	45	4651
2026-01-26 20:01:37.67	204.39	22.70	-37.1	-39.0	22.7	0.00e+00	0	60	0	199753728	45	4556
2026-01-26 20:01:38.68	203.89	22.74	-37.1	-39.0	22.7	0.00e+00	0	60	0	200802304	45	4581
2026-01-26 20:01:39.69	203.39	22.77	-37.3	-39.3	22.4	0.00e+00	0	60	0	201850880	45	4718
2026-01-26 20:01:40.70	202.89	22.80	-37.3	-39.3	22.4	0.00e+00	0	60	0	202899456	45	4707
2026-01-26 20:01:41.71	202.39	22.83	-37.1	-39.0	22.7	0.00e+00	0	60	0	203948032	45	4547
2026-01-26 20:01:42.72	201.88	22.86	-37.0	-38.9	22.8	0.00e+00	0	60	0	205520896	45	4514
2026-01-26 20:01:43.73	201.38	22.88	-37.1	-39.1	22.6	0.00e+00	0	60	0	206569472	45	4605
2026-01-26 20:01:44.74	200.87	22.90	-37.1	-38.9	22.7	0.00e+00	0	60	0	207618048	45	4543
2026-01-26 20:01:45.75	200.37	22.92	-37.2	-39.1	22.5	0.00e+00	0	60	0	208666624	45	4645
2026-01-26 20:01:46.76	199.86	22.94	-37.3	-39.3	22.4	0.00e+00	0	60	0	209715200	45	4716
2026-01-26 20:01:47.77	199.36	22.96	-37.3	-39.3	22.4	0.00e+00	0	60	0	210763776	45	4719
2026-01-26 20:01:48.78	198.85	22.97	-37.7	-39.8	22.0	0.00e+00	0	60	0	211812352	45	4987
2026-01-26 20:01:49.79	198.34	22.99	-37.7	-39.8	21.9	0.00e+00	0	60	0	213385216	46	4717
2026-01-26 20:01:50.80	197.83	23.00	-37.7	-39.7	22.0	0.00e+00	0	60	0	214433792	46	4694
2026-01-26 20:01:51.81	197.32	23.01	-37.8	-39.9	21.8	0.00e+00	0	60	0	215482368	46	4769
2026-01-26 20:01:52.82	196.81	23.01	-37.8	-39.9	21.8	0.00e+00	0	60	0	216530944	46	4767
2026-01-26 20:01:53.83	196.30	23.02	-37.4	-39.4	22.3	0.00e+00	0	60	0	217579520	46	4531
2026-01-26 20:01:54.84	195.79	23.02	-37.4	-39.4	22.3	0.00e+00	0	60	0	218628096	46	4525
2026-01-26 20:01:55.85	195.28	23.02	-37.4	-39.4	22.3	0.00e+00	0	60	0	220200960	46	4517
2026-01-26 20:01:56.86	194.77	23.02	-37.3	-39.3	22.4	0.00e+00	0	60	0	221249536	46	4471
2026-01-26 20:01:57.88	194.26	23.01	-37.2	-39.2	22.5	0.00e+00	0	60	0	222298112	46	4397
2026-01-26 20:01:58.89	193.75	23.01	-37.1	-39.0	22.7	0.00e+00	0	60	0	223346688	46	4335
2026-01-26 20:01:59.90	193.24	23.00	-37.3	-39.2	22.6	0.00e+00	0	60	0	224395264	46	4406
2026-01-26 20:02:00.90	192.73	22.99	-37.4	-39.4	22.3	0.00e+00	0	60	0	225968128	46	4516
2026-01-26 20:02:01.91	192.22	22.98	-37.6	-39.6	22.1	0.00e+00	0	60	0	227016704	46	4638
2026-01-26 20:02:02.93	191.71	22.96	-37.6	-39.7	22.0	0.00e+00	0	60	0	228065280	46	4655
2026-01-26 20:02:03.94	191.20	22.94	-37.9	-40.0	21.7	0.00e+00	0	60	0	229113856	46	4843
2026-01-26 20:02:04.94	190.70	22.92	-37.9	-40.0	21.7	0.00e+00	0	60	0	230162432	46	4837
2026-01-26 20:02:05.95	190.20	22.90	-37.9	-40.0	21.7	0.00e+00	0	60	0	231211008	46	4844
2026-01-26 20:02:06.96	189.69	22.88	-37.7	-39.7	22.0	0.00e+00	0	60	0	232783872	46	4690
2026-01-26 20:02:07.97	189.19	22.86	-37.6	-39.7	22.0	0.00e+00	0	60	0	233832448	46	4652
2026-01-26 20:02:08.98	188.68	22.83	-37.6	-39.6	22.0	0.00e+00	0	60	0	234881024	46	4638
2026-01-26 20:02:09.99	188.18	22.80	-37.3	-39.2	22.4	0.00e+00	0	60	0	235929600	46	4428
2026-01-26 20:02:11.00	187.68	22.77	-37.1	-39.0	22.6	0.00e+00	0	60	0	236978176	46	4338
2026-01-26 20:02:12.01	187.18	22.74	-36.9	-38.8	22.8	0.00e+00	0	60	0	238026752	45	4467
2026-01-26 20:02:13.02	186.68	22.70	-36.9	-38.7	22.9	0.00e+00	0	60	0	239599616	45	4440
2026-01-26 20:02:14.03	186.18	22.67	-37.0	-38.8	22.8	0.00e+00	0	60	0	240648192	45	4493
2026-01-26 20:02:15.04	185.69	22.63	-37.0	-38.9	22.7	0.00e+00	0	61	0	241696768	45	4533
2026-01-26 20:02:16.05	185.19	22.59	-37.1	-39.0	22.6	0.00e+00	0	60	0	242745344	45	4576
2026-01-26 20:02:17.06	184.70	22.54	-37.2	-39.1	22.5	0.00e+00	0	60	0	243793920	45	4630
2026-01-26 20:02:18.07	184.21	22.50	-37.1	-39.0	22.6	0.00e+00	0	60	0	244842496	45	4574
2026-01-26 20:02:19.08	183.72	22.45	-36.9	-38.8	22.9	0.00e+00	0	61	0	246415360	45	4452
2026-01-26 20:02:20.09	183.23	22.41	-36.6	-38.4	23.2	0.00e+00	0	61	0	247463936	45	4266
2026-01-26 20:02:21.10	182.75	22.36	-36.6	-38.4	23.2	0.00e+00	0	60	0	248512512	45	4281
2026-01-26 20:02:22.11	182.26	22.30	-36.9	-38.7	22.9	0.00e+00	0	60	0	249561088	45	4437
2026-01-26 20:02:23.12	181.78	22.25	-37.2	-39.1	22.5	0.00e+00	0	60	0	250609664	45	4643
2026-01-26 20:02:24.13	181.30	22.20	-37.6	-39.6	22.0	0.00e+00	0	60	0	251658240	45	4898
2026-01-26 20:02:25.14	180.82	22.14	-37.7	-39.8	21.8	0.00e+00	0	61	0	252706816	45	4994
2026-01-26 20:02:26.15	180.34	22.08	-37.6	-39.6	22.0	0.00e+00	0	61	0	254279680	45	4888
2026-01-26 20:02:27.15	179.88	22.02	-37.6	-39.7	21.9	0.00e+00	0	61	0	255328256	45	4935
2026-01-26 20:02:28.16	179.40	21.96	-37.4	-39.4	22.2	0.00e+00	0	61	0	256376832	45	4790
2026-01-26 20:02:29.17	178.93	21.90	-37.2	-39.1	22.5	0.00e+00	0	61	0	257425408	45	4625
2026-01-26 20:02:30.18	178.47	21.83	-37.2	-39.2	22.5	0.00e+00	0	60	0	258473984	45	4659
2026-01-26 20:02:31.19	178.00	21.77	-37.4	-39.4	22.2	0.00e+00	0	61	0	259522560	45	4796
2026-01-26 20:02:32.20	177.54	21.70	-37.6	-39.7	22.0	0.00e+00	0	61	0	261095424	45	4934
2026-01-26 20:02:33.21	177.08	21.63	-37.9	-40.0	21.7	0.00e+00	0	60	0	262144000	46	4830
2026-01-26 20:02:34.22	176.62	21.56	-37.9	-40.0	21.6	0.00e+00	0	61	0	263192576	46	4863
2026-01-26 20:02:35.23	176.17	21.49	-37.8	-39.8	21.8	0.00e+00	0	61	0	264241152	46	4753
2026-01-26 20:02:36.24	175.71	21.42	-37.6	-39.6	22.0	0.00e+00	0	60	0	265289728	46	4631
2026-01-26 20:02:37.26	175.26	21.34	-37.6	-39.6	22.0	0.00e+00	0	61	0	266862592	46	4628
2026-01-26 20:02:38.27	174.81	21.27	-37.6	-39.6	22.0	0.00e+00	0	61	0	267911168	46	4651
2026-01-26 20:02:39.28	174.37	21.19	-38.3	-40.4	21.6	0.00e+00	0	61	0	268959744	47	4802
2026-01-26 20:02:40.29	173.92	21.11	-38.2	-40.4	21.4	0.00e+00	0	61	0	270008320	47	4781
2026-01-26 20:02:41.30	173.48	21.03	-38.1	-40.2	21.5	0.00e+00	0	61	0	271056896	47	4675
2026-01-26 20:02:42.31	173.05	20.95	-37.9	-39.9	21.8	0.00e+00	0	61	0	272105472	47	4537
2026-01-26 20:02:43.32	172.61	20.87	-37.8	-39.9	21.8	0.00e+00	0	61	0	273678336	47	4519
2026-01-26 20:02:44.33	172.18	20.79	-37.9	-40.0	21.7	0.00e+00	0	61	0	274726912	47	4566
2026-01-26 20:02:45.34	171.75	20.70	-38.0	-40.1	21.5	0.00e+00	0	61	0	275775488	47	4648
2026-01-26 20:02:46.35	171.33	20.62	-38.0	-40.2	21.5	0.00e+00	0	61	0	276824064	47	4674
2026-01-26 20:02:47.36	170.91	20.53	-38.1	-40.3	21.5	0.00e+00	0	61	0	277872640	47	4712
2026-01-26 20:02:48.37	170.48	20.45	-38.1	-40.3	21.4	0.00e+00	0	61	0	278921216	47	4707
2026-01-26 20:02:49.38	170.07	20.36	-38.1	-40.3	21.4	0.00e+00	0	61	0	280494080	46	5000
2026-01-26 20:02:50.39	169.65	20.27	-38.3	-40.5	21.2	0.00e+00	0	61	0	281542656	47	4827
2026-01-26 20:02:51.40	169.24	20.18	-38.5	-40.8	21.0	0.00e+00	0	61	0	282591232	47	4986
2026-01-26 20:02:52.41	168.83	20.09	-38.5	-40.8	20.9	0.00e+00	0	61	0	283639808	47	5025
2026-01-26 20:02:53.42	168.43	20.00	-38.6	-40.9	20.8	0.00e+00	0	61	0	284688384	47	5100
2026-01-26 20:02:54.43	168.03	19.91	-38.3	-40.5	21.3	0.00e+00	0	61	0	285736960	47	4854
2026-01-26 20:02:55.44	167.63	19.81	-38.1	-40.2	21.5	0.00e+00	0	61	0	287309824	47	4689
2026-01-26 20:02:56.45	167.23	19.72	-37.9	-40.0	21.8	0.00e+00	0	61	0	288358400	47	4552
2026-01-26 20:02:57.46	166.83	19.63	-38.0	-40.1	21.7	0.00e+00	0	61	0	289406976	47	4602
2026-01-26 20:02:58.47	166.44	19.53	-38.0	-40.2	21.6	0.00e+00	0	61	0	290455552	47	4668
2026-01-26 20:02:59.48	166.06	19.44	-38.5	-40.7	21.1	0.00e+00	0	61	0	291504128	47	4982
2026-01-26 20:03:00.49	165.67	19.34	-38.7	-41.0	20.8	0.00e+00	0	61	0	292552704	47	5132
2026-01-26 20:03:01.50	165.29	19.24	-38.9	-41.3	20.6	0.00e+00	0	61	0	293601280	48	5010
2026-01-26 20:03:02.50	164.91	19.15	-38.7	-41.0	20.8	0.00e+00	0	61	0	295174144	48	4865
2026-01-26 20:03:03.51	164.54	19.05	-38.5	-40.7	21.1	0.00e+00	0	61	0	296222720	48	4663
2026-01-26 20:03:04.52	164.16	18.95	-38.5	-40.7	21.1	0.00e+00	0	61	0	297271296	48	4674
2026-01-26 20:03:05.53	163.79	18.85	-38.5	-40.7	21.0	0.00e+00	0	61	0	298319872	48	4697
2026-01-26 20:03:06.54	163.43	18.75	-38.5	-40.8	21.1	0.00e+00	0	61	0	299368448	48	4715
2026-01-26 20:03:07.55	163.06	18.65	-38.4	-40.5	21.3	0.00e+00	0	61	0	300941312	48	4593
2026-01-26 20:03:08.56	162.70	18.55	-38.3	-40.5	21.3	0.00e+00	0	61	0	301989888	48	4584
2026-01-26 20:03:09.57	162.34	18.45	-38.5	-40.8	21.1	0.00e+00	0	61	0	303038464	48	4708
2026-01-26 20:03:10.58	161.99	18.35	-38.6	-40.8	21.0	0.00e+00	0	61	0	304087040	48	4757
2026-01-26 20:03:11.59	161.63	18.25	-38.7	-41.0	20.9	0.00e+00	0	61	0	305135616	48	4855
2026-01-26 20:03:12.60	161.28	18.15	-38.7	-41.0	20.8	0.00e+00	0	61	0	306184192	48	4852
2026-01-26 20:03:13.62	160.93	18.04	-38.6	-40.9	21.0	0.00e+00	0	61	0	307757056	48	4784
2026-01-26 20:03:14.63	160.59	17.94	-38.6	-40.8	21.1	0.00e+00	0	61	0	308805632	48	4741
2026-01-26 20:03:15.64	160.25	17.84	-38.6	-40.9	21.0	0.00e+00	0	61	0	309854208	48	4760
2026-01-26 20:03:16.65	159.91	17.74	-38.5	-40.7	21.1	0.00e+00	0	61	0	310902784	48	4678
2026-01-26 20:03:17.66	159.58	17.63	-38.6	-40.8	21.0	0.00e+00	0	61	0	311951360	48	4754
2026-01-26 20:03:18.67	159.24	17.53	-38.6	-40.9	20.8	0.00e+00	0	61	0	312999936	48	4811
2026-01-26 20:03:19.68	158.91	17.43	-38.7	-41.0	20.9	0.00e+00	0	61	0	314572800	48	4827
2026-01-26 20:03:20.69	158.59	17.32	-38.8	-41.1	20.8	0.00e+00	0	61	0	315621376	48	4890
2026-01-26 20:03:21.70	158.26	17.22	-38.7	-41.0	20.9	0.00e+00	0	61	0	316669952	48	4852
2026-01-26 20:03:22.71	157.94	17.11	-38.6	-40.9	21.0	0.00e+00	0	61	0	317718528	48	4785
2026-01-26 20:03:23.72	157.62	17.01	-38.8	-41.1	20.7	0.00e+00	0	61	0	318767104	48	4923
2026-01-26 20:03:24.73	157.31	16.91	-38.8	-41.2	20.7	0.00e+00	0	61	0	319815680	48	4931
2026-01-26 20:03:25.74	156.99	16.80	-38.9	-41.3	20.6	0.00e+00	0	61	0	321388544	48	5001
2026-01-26 20:03:26.75	156.68	16.70	-39.0	-41.4	20.5	0.00e+00	0	61	0	322437120	48	5062
2026-01-26 20:03:27.76	156.37	16.59	-39.0	-41.4	20.4	0.00e+00	0	61	0	323485696	48	5091
2026-01-26 20:03:28.77	156.07	16.49	-38.9	-41.3	20.5	0.00e+00	0	61	0	324534272	48	5034
2026-01-26 20:03:29.78	155.77	16.38	-38.8	-41.1	20.7	0.00e+00	0	61	0	325582848	48	4917
2026-01-26 20:03:30.79	155.47	16.28	-38.9	-41.3	20.6	0.00e+00	0	61	0	326631424	48	5004
2026-01-26 20:03:31.80	155.17	16.17	-39.1	-41.6	20.3	0.00e+00	0	61	0	328204288	48	5170
2026-01-26 20:03:32.81	154.88	16.07	-39.2	-41.7	20.1	0.00e+00	0	61	0	329252864	48	5251
2026-01-26 20:03:33.82	154.58	15.96	-39.2	-41.7	20.1	0.00e+00	0	61	0	330301440	49	4973
2026-01-26 20:03:34.83	154.29	15.86	-39.2	-41.7	20.1	0.00e+00	0	61	0	331350016	49	4950
2026-01-26 20:03:35.84	154.01	15.76	-39.3	-41.8	20.0	0.00e+00	0	61	0	332398592	49	5007
2026-01-26 20:03:36.85	153.72	15.65	-39.3	-41.8	20.0	0.00e+00	0	61	0	333447168	49	5008
2026-01-26 20:03:37.86	153.44	15.55	-39.4	-41.9	19.9	0.00e+00	0	61	0	335020032	49	5095
2026-01-26 20:03:38.87	153.16	15.44	-39.4	-42.0	19.8	0.00e+00	0	61	0	336068608	49	5125
2026-01-26 20:03:39.88	152.89	15.34	-39.4	-42.0	19.8	0.00e+00	0	61	0	337117184	49	5125
2026-01-26 20:03:40.89	152.61	15.23	-39.4	-42.0	19.8	0.00e+00	0	61	0	338165760	49	5118
2026-01-26 20:03:41.90	152.34	15.13	-39.4	-42.0	19.8	0.00e+00	0	61	0	339214336	49	5133
2026-01-26 20:03:42.91	152.07	15.03	-39.4	-42.0	19.8	0.00e+00	0	61	0	340262912	49	5143
2026-01-26 20:03:43.92	151.80	14.92	-39.5	-42.1	19.7	0.00e+00	0	61	0	341835776	49	5195
2026-01-26 20:03:44.93	151.54	14.82	-39.5	-42.1	19.7	0.00e+00	0	61	0	342884352	49	5215
2026-01-26 20:03:45.94	151.28	14.72	-39.6	-42.3	19.5	0.00e+00	0	61	0	343932928	49	5323
2026-01-26 20:03:46.95	151.02	14.61	-39.7	-42.4	19.3	0.00e+00	0	61	0	344981504	49	5370
2026-01-26 20:03:47.96	150.76	14.51	-39.6	-42.4	19.4	0.00e+00	0	61	0	346030080	49	5350
2026-01-26 20:03:48.97	150.50	14.41	-39.7	-42.5	19.3	0.00e+00	0	61	0	347078656	49	5420
2026-01-26 20:03:49.98	150.25	14.30	-39.6	-42.3	19.4	0.00e+00	0	61	0	348651520	49	5326
2026-01-26 20:03:50.99	150.00	14.20	-39.6	-42.3	19.4	0.00e+00	0	61	0	349700096	49	5339
2026-01-26 20:03:52.00	149.75	14.10	-39.8	-42.6	19.2	0.00e+00	0	61	0	350748672	50	5163
2026-01-26 20:03:53.01	149.50	14.00	-39.9	-42.8	19.0	0.00e+00	0	61	0	351797248	50	5291
2026-01-26 20:03:54.02	149.26	13.89	-39.9	-42.8	18.9	0.00e+00	0	61	0	352845824	50	5340
2026-01-26 20:03:55.03	149.02	13.79	-39.9	-42.8	18.9	0.00e+00	0	61	0	353894400	50	5337
2026-01-26 20:03:56.04	148.78	13.69	-39.8	-42.7	19.1	0.00e+00	0	61	0	355467264	50	5220
2026-01-26 20:03:57.05	148.54	13.59	-39.7	-42.5	19.2	0.00e+00	0	61	0	356515840	50	5131
2026-01-26 20:03:58.06	148.30	13.49	-39.8	-42.6	19.2	0.00e+00	0	61	0	357564416	50	5188
2026-01-26 20:03:59.07	148.07	13.39	-39.8	-42.6	19.1	0.00e+00	0	61	0	358612992	50	5209
2026-01-26 20:04:00.07	147.84	13.29	-39.9	-42.7	19.1	0.00e+00	0	61	0	359661568	50	5245
2026-01-26 20:04:01.09	147.61	13.19	-39.9	-42.8	18.9	0.00e+00	0	61	0	360710144	50	5301
2026-01-26 20:04:02.09	147.38	13.09	-40.0	-43.1	18.7	0.00e+00	0	61	0	362283008	50	5470
2026-01-26 20:04:03.11	147.15	12.99	-40.1	-43.2	18.5	0.00e+00	0	61	0	363331584	50	5572
2026-01-26 20:04:04.12	146.93	12.89	-40.2	-43.2	18.5	0.00e+00	0	61	0	364380160	50	5577
2026-01-26 20:04:05.12	146.71	12.79	-40.3	-43.4	18.3	0.00e+00	0	61	0	365428736	51	5363
2026-01-26 20:04:06.13	146.49	12.69	-40.1	-43.3	18.3	0.00e+00	0	61	0	366477312	51	5340
2026-01-26 20:04:07.14	146.27	12.59	-40.2	-43.4	18.3	0.00e+00	0	61	0	367525888	51	5348
2026-01-26 20:04:08.15	146.06	12.49	-40.3	-43.5	18.2	0.00e+00	0	61	0	369098752	51	5436
2026-01-26 20:04:09.16	145.85	12.39	-40.4	-43.6	18.0	0.00e+00	0	61	0	370147328	51	5508
2026-01-26 20:04:10.17	145.63	12.30	-40.3	-43.5	18.1	0.00e+00	0	61	0	371195904	51	5461
2026-01-26 20:04:11.19	145.42	12.20	-40.3	-43.4	18.1	0.00e+00	0	61	0	372244480	51	5401
2026-01-26 20:04:12.20	145.21	12.10	-40.2	-43.4	18.2	0.00e+00	0	61	0	373293056	51	5369
2026-01-26 20:04:13.20	145.01	12.00	-40.2	-43.4	18.2	0.00e+00	0	61	0	374341632	51	5376
2026-01-26 20:04:14.21	144.80	11.91	-40.2	-43.4	18.2	0.00e+00	0	61	0	375914496	51	5369
2026-01-26 20:04:15.22	144.60	11.81	-40.3	-43.5	18.0	0.00e+00	0	61	0	376963072	51	5439
2026-01-26 20:04:16.23	144.40	11.71	-40.3	-43.5	18.0	0.00e+00	0	61	0	378011648	51	5449
2026-01-26 20:04:17.24	144.20	11.62	-40.4	-43.7	17.8	0.00e+00	0	61	0	379060224	51	5556
2026-01-26 20:04:18.25	144.00	11.52	-40.2	-43.6	17.9	0.00e+00	0	61	0	380108800	51	5469
2026-01-26 20:04:19.26	143.81	11.43	-40.4	-43.7	17.8	0.00e+00	0	61	0	381157376	51	5554
2026-01-26 20:04:20.27	143.61	11.33	-40.4	-43.7	17.8	0.00e+00	0	61	0	382730240	51	5554
2026-01-26 20:04:21.28	143.42	11.24	-40.3	-43.5	17.9	0.00e+00	0	61	0	383778816	51	5454
2026-01-26 20:04:22.29	143.23	11.14	-40.3	-43.6	17.8	0.00e+00	0	61	0	384827392	51	5507
2026-01-26 20:04:23.30	143.04	11.05	-40.4	-43.7	17.7	0.00e+00	0	61	0	385875968	51	5573
2026-01-26 20:04:24.31	142.85	10.95	-40.3	-43.6	17.8	0.00e+00	0	61	0	386924544	51	5479
2026-01-26 20:04:25.32	142.67	10.86	-40.3	-43.6	17.7	0.00e+00	0	61	0	387973120	51	5517
2026-01-26 20:04:26.32	142.48	10.77	-40.4	-43.9	17.4	0.00e+00	0	61	0	389545984	51	5666
2026-01-26 20:04:27.33	142.30	10.68	-40.5	-44.0	17.3	0.00e+00	0	61	0	390594560	51	5766
2026-01-26 20:04:28.34	142.12	10.58	-40.5	-44.1	17.1	0.00e+00	0	61	0	391643136	51	5830
2026-01-26 20:04:29.35	141.94	10.49	-40.5	-44.1	17.0	0.00e+00	0	61	0	392691712	51	5832
2026-01-26 20:04:30.36	141.76	10.40	-40.5	-44.1	17.0	0.00e+00	0	61	0	393740288	51	5843
2026-01-26 20:04:31.38	141.58	10.31	-40.5	-44.2	16.9	0.00e+00	0	61	0	394788864	51	5886
2026-01-26 20:04:32.39	141.41	10.21	-40.5	-44.2	16.9	0.00e+00	0	61	0	396361728	51	5890
2026-01-26 20:04:33.40	141.23	10.12	-40.6	-44.4	16.7	0.00e+00	0	61	0	397410304	51	6049
2026-01-26 20:04:34.41	141.06	10.03	-40.5	-44.4	16.4	0.00e+00	0	61	0	398458880	52	5699
2026-01-26 20:04:35.42	140.89	9.94	-40.4	-44.1	16.7	0.00e+00	0	61	0	399507456	52	5521
2026-01-26 20:04:36.43	140.72	9.85	-40.3	-44.1	16.7	0.00e+00	0	61	0	400556032	52	5482
2026-01-26 20:04:37.44	140.55	9.76	-40.4	-44.3	16.4	0.00e+00	0	61	0	401604608	52	5620
2026-01-26 20:04:38.45	140.39	9.67	-40.5	-44.5	16.2	0.00e+00	0	61	0	403177472	52	5734
2026-01-26 20:04:39.46	140.22	9.58	-40.5	-44.5	16.1	1.10e-06	0	61	0	404226048	52	5784
2026-01-26 20:04:40.47	140.06	9.49	-40.4	-44.4	16.2	0.00e+00	0	61	0	405274624	51	6029
2026-01-26 20:04:41.48	139.89	9.41	-40.6	-45.0	15.6	0.00e+00	0	61	0	406323200	52	6086
2026-01-26 20:04:42.49	139.73	9.32	-40.5	-44.9	15.6	1.48e-05	0	61	0	407371776	52	6007
2026-01-26 20:04:43.50	139.57	9.23	-39.7	-44.4	15.9	5.14e-05	0	61	0	408420352	51	6054
2026-01-26 20:04:44.51	139.42	9.14	-40.7	-46.0	14.4	5.14e-05	0	61	0	409993216	52	6816
2026-01-26 20:04:45.52	139.26	9.05	-41.3	-48.4	11.3	2.06e-04	0	61	0	411041792	53	8537
2026-01-26 20:04:46.53	139.10	8.97	-42.2	-51.9	8.1	1.27e-02	0	61	0	412090368	55	11289
2026-01-26 20:04:47.54	138.95	8.88	-42.5	-55.3	5.1	1.27e-02	0	61	0	412614656	55	16850
2026-01-26 20:04:48.55	138.79	8.79	-42.4	-57.2	4.2	4.00e-01	0	61	0	412614656	55	20834
2026-01-26 20:04:49.56	138.64	8.71	-39.1	-58.5	3.8	8.27e-01	0	61	104	412614656	55	24235
2026-01-26 20:04:50.57	138.49	8.62	-42.0	-59.3	4.0	8.42e-01	0	61	104	412614656	54	28062
2026-01-26 20:04:51.58	138.34	8.54	-41.5	-59.6	3.8	8.42e-01	0	61	104	412614656	53	30814
2026-01-26 20:04:52.58	138.20	8.45	-38.6	-59.9	3.9	8.46e-01	0	61	104	412614656	52	33793
2026-01-26 20:04:53.59	138.05	8.37	-38.2	-60.7	3.8	8.45e-01	0	61	104	412614656	54	32937
2026-01-26 20:04:54.60	137.90	8.28	-41.7	-60.6	4.0	8.45e-01	0	61	104	412614656	54	32690
2026-01-26 20:04:55.61	137.76	8.20	-39.0	-56.3	4.0	8.46e-01	0	61	104	412614656	42	39765
2026-01-26 20:04:56.62	137.61	8.11	-31.6	-55.3	3.6	8.38e-01	0	61	104	412614656	45	29968
2026-01-26 20:04:57.63	137.47	8.03	-39.1	-57.2	5.6	8.38e-01	0	61	104	412614656	40	49543
2026-01-26 20:04:58.64	137.33	7.95	-40.8	-61.9	3.8	8.33e-01	0	61	104	412614656	51	45331
2026-01-26 20:04:59.66	137.19	7.86	-44.8	-63.1	3.8	8.40e-01	0	62	104	412614656	60	30902
2026-01-26 20:05:00.66	137.05	7.78	-45.1	-63.4	3.8	8.40e-01	0	62	104	412614656	60	32031
2026-01-26 20:05:01.67	136.91	7.70	-45.2	-63.5	3.8	8.46e-01	0	61	104	412614656	60	32474
2026-01-26 20:05:02.68	136.77	7.62	-45.2	-63.6	3.8	8.47e-01	0	61	104	412614656	61	30835
2026-01-26 20:05:03.69	136.64	7.53	-45.3	-63.6	3.8	8.46e-01	0	61	104	412614656	61	30903
2026-01-26 20:05:04.70	136.50	7.45	-45.3	-63.6	3.8	8.46e-01	0	61	104	412614656	61	31072
2026-01-26 20:05:05.71	136.37	7.37	-45.3	-63.6	3.8	8.46e-01	0	61	104	412614656	61	30892
2026-01-26 20:05:06.72	136.24	7.29	-45.3	-63.6	3.8	8.45e-01	0	61	104	412614656	61	30994
2026-01-26 20:05:07.74	136.10	7.21	-45.3	-63.5	3.8	8.45e-01	0	62	104	412614656	61	30566
2026-01-26 20:05:08.75	135.97	7.13	-45.2	-63.4	3.8	8.47e-01	0	61	104	412614656	61	30192
2026-01-26 20:05:09.76	135.84	7.05	-45.1	-63.3	3.8	8.46e-01	0	61	104	412614656	61	29795
2026-01-26 20:05:10.77	135.72	6.97	-45.1	-63.2	3.8	8.46e-01	0	61	104	412614656	61	29537
2026-01-26 20:05:11.78	135.59	6.89	-45.1	-63.2	3.8	8.45e-01	0	62	104	412614656	61	29451
2026-01-26 20:05:12.79	135.46	6.81	-45.0	-63.1	3.8	8.46e-01	0	61	104	412614656	61	29225
2026-01-26 20:05:13.80	135.34	6.73	-45.0	-63.1	3.8	8.46e-01	0	61	104	412614656	61	29193
2026-01-26 20:05:14.81	135.21	6.65	-45.0	-63.1	3.8	8.46e-01	0	61	104	412614656	61	29181
2026-01-26 20:05:15.82	135.09	6.57	-44.9	-63.1	3.8	8.46e-01	0	61	104	412614656	61	29085
2026-01-26 20:05:16.83	134.96	6.49	-45.0	-63.1	3.8	8.47e-01	0	61	104	412614656	61	29066
2026-01-26 20:05:17.84	134.84	6.41	-45.0	-63.0	3.8	8.47e-01	0	61	104	412614656	61	28990
2026-01-26 20:05:18.85	134.72	6.34	-45.0	-63.1	3.8	8.46e-01	0	61	104	412614656	61	29064
2026-01-26 20:05:19.86	134.60	6.26	-45.0	-63.0	3.8	8.45e-01	0	61	104	412614656	61	28996
2026-01-26 20:05:20.87	134.48	6.18	-45.0	-63.1	3.8	8.45e-01	0	61	104	412614656	61	29072
2026-01-26 20:05:21.88	134.36	6.10	-45.0	-63.1	3.8	8.46e-01	0	61	104	412614656	61	29081
2026-01-26 20:05:22.89	134.25	6.03	-44.9	-63.1	3.8	8.47e-01	0	62	104	412614656	61	29067
2026-01-26 20:05:23.90	134.13	5.95	-45.0	-63.1	3.8	8.47e-01	0	61	104	412614656	61	29119
2026-01-26 20:05:24.91	134.02	5.87	-45.0	-63.1	3.8	8.46e-01	0	62	104	412614656	61	29047
2026-01-26 20:05:25.92	133.90	5.80	-45.0	-63.1	3.8	8.46e-01	0	62	104	412614656	61	29155
2026-01-26 20:05:26.93	133.79	5.72	-45.0	-63.1	3.8	8.46e-01	0	61	104	412614656	61	29026
2026-01-26 20:05:27.94	133.67	5.65	-44.9	-63.1	3.8	8.46e-01	0	61	104	412614656	61	29023
2026-01-26 20:05:28.95	133.56	5.57	-44.9	-63.1	3.8	8.46e-01	0	61	104	412614656	61	29024
2026-01-26 20:05:29.96	133.45	5.50	-44.9	-63.1	3.8	8.46e-01	0	62	104	412614656	61	29041
2026-01-26 20:05:30.97	133.34	5.42	-44.9	-63.0	3.8	8.46e-01	0	61	104	412614656	61	28966
2026-01-26 20:05:31.98	133.23	5.35	-44.9	-63.0	3.8	8.46e-01	0	61	104	412614656	61	28827
2026-01-26 20:05:32.99	133.12	5.27	-44.9	-63.0	3.8	8.46e-01	0	61	104	412614656	61	28802
2026-01-26 20:05:34.00	133.01	5.20	-44.9	-63.0	3.8	8.46e-01	0	61	104	412614656	61	28827
2026-01-26 20:05:35.01	132.91	5.12	-44.9	-63.0	3.8	8.46e-01	0	62	104	412614656	60	30643
2026-01-26 20:05:36.02	132.80	5.05	-44.9	-63.0	3.8	8.46e-01	0	61	104	412614656	60	30612
2026-01-26 20:05:37.03	132.69	4.98	-44.9	-63.0	3.8	8.46e-01	0	61	104	412614656	60	30551
2026-01-26 20:05:38.04	132.59	4.90	-44.9	-63.0	3.8	8.46e-01	0	61	104	412614656	60	30594
2026-01-26 20:05:39.05	132.48	4.83	-44.9	-63.0	3.8	8.46e-01	0	62	104	412614656	60	30547
2026-01-26 20:05:40.06	132.38	4.76	-44.9	-63.0	3.8	8.46e-01	0	61	104	412614656	60	30519
2026-01-26 20:05:41.07	132.28	4.69	-44.9	-63.0	3.8	8.46e-01	0	61	104	412614656	60	30403
2026-01-26 20:05:42.08	132.18	4.61	-44.9	-63.0	3.8	8.47e-01	0	61	104	412614656	60	30483
2026-01-26 20:05:43.09	132.07	4.54	-44.9	-63.0	3.8	8.46e-01	0	61	104	412614656	60	30515
2026-01-26 20:05:44.10	131.97	4.47	-44.9	-63.0	3.8	8.46e-01	0	61	104	412614656	60	30560
2026-01-26 20:05:45.11	131.87	4.40	-44.9	-63.0	3.8	8.46e-01	0	62	104	412614656	60	30590
2026-01-26 20:05:46.12	131.77	4.33	-44.9	-63.0	3.8	8.45e-01	0	62	104	412614656	60	30506
2026-01-26 20:05:47.13	131.68	4.26	-44.9	-63.0	3.8	8.45e-01	0	62	104	412614656	60	30459
2026-01-26 20:05:48.14	131.58	4.19	-44.9	-63.0	3.8	8.46e-01	0	61	104	412614656	60	30486
2026-01-26 20:05:49.15	131.48	4.12	-44.9	-63.0	3.8	8.47e-01	0	61	104	412614656	60	30471
2026-01-26 20:05:50.16	131.38	4.05	-44.9	-63.0	3.8	8.47e-01	0	61	104	412614656	60	30470
2026-01-26 20:05:51.17	131.29	3.98	-44.9	-63.0	3.8	8.46e-01	0	61	104	412614656	60	30438
2026-01-26 20:05:52.18	131.19	3.91	-44.9	-63.0	3.8	8.45e-01	0	62	104	412614656	60	30520
2026-01-26 20:05:53.19	131.10	3.84	-44.9	-63.0	3.8	8.45e-01	0	62	104	412614656	60	30402
2026-01-26 20:05:54.20	131.01	3.77	-44.9	-63.0	3.8	8.46e-01	0	61	104	412614656	60	30424
2026-01-26 20:05:55.21	130.91	3.70	-44.9	-63.0	3.8	8.47e-01	0	62	104	412614656	60	30540
2026-01-26 20:05:56.22	130.82	3.63	-44.9	-63.0	3.8	8.45e-01	0	61	104	412614656	60	30610
2026-01-26 20:05:57.23	130.73	3.56	-44.9	-63.0	3.8	8.45e-01	0	61	104	412614656	60	30488
2026-01-26 20:05:58.24	130.64	3.49	-44.9	-63.0	3.8	8.46e-01	0	61	104	412614656	60	30527
2026-01-26 20:05:59.25	130.55	3.42	-44.9	-63.0	3.8	8.46e-01	0	61	104	412614656	60	30415
2026-01-26 20:06:00.26	130.46	3.35	-44.9	-63.0	3.8	8.46e-01	0	62	104	412614656	60	30397
2026-01-26 20:06:01.27	130.37	3.29	-44.8	-63.0	3.8	8.47e-01	0	61	104	412614656	60	30461
2026-01-26 20:06:02.28	130.28	3.22	-44.9	-63.0	3.8	8.45e-01	0	61	104	412614656	60	30456
2026-01-26 20:06:03.29	130.19	3.15	-44.9	-63.0	3.8	8.45e-01	0	61	104	412614656	60	30441
2026-01-26 20:06:04.30	130.10	3.08	-44.9	-62.9	3.8	8.46e-01	0	61	104	412614656	60	30352
2026-01-26 20:06:05.31	130.02	3.02	-44.9	-63.0	3.8	8.45e-01	0	61	104	412614656	60	30404
2026-01-26 20:06:06.32	129.93	2.95	-44.9	-63.0	3.8	8.46e-01	0	62	104	412614656	60	30416
2026-01-26 20:06:07.33	129.84	2.88	-44.9	-63.0	3.8	8.46e-01	0	61	104	412614656	60	30408
2026-01-26 20:06:08.34	129.76	2.82	-44.9	-62.9	3.8	8.46e-01	0	62	104	412614656	60	30356
2026-01-26 20:06:09.35	129.67	2.75	-44.9	-62.9	3.8	8.46e-01	0	62	104	412614656	60	30297
2026-01-26 20:06:10.36	129.59	2.68	-44.9	-62.9	3.8	8.46e-01	0	61	104	412614656	60	30322
2026-01-26 20:06:11.38	129.50	2.62	-44.9	-62.9	3.8	8.45e-01	0	62	104	412614656	60	30353
2026-01-26 20:06:12.39	129.42	2.55	-44.9	-62.9	3.8	8.46e-01	0	62	104	412614656	60	30369
2026-01-26 20:06:13.40	129.34	2.48	-44.9	-62.9	3.8	8.46e-01	0	61	104	412614656	60	30344
2026-01-26 20:06:14.41	129.26	2.42	-44.9	-63.0	3.8	8.47e-01	0	61	104	412614656	60	30383
2026-01-26 20:06:15.42	129.18	2.35	-44.9	-62.9	3.8	8.45e-01	0	62	104	412614656	60	30332
2026-01-26 20:06:16.43	129.10	2.29	-44.9	-62.9	3.8	8.45e-01	0	62	104	412614656	60	30346
2026-01-26 20:06:17.44	129.01	2.22	-44.9	-63.0	3.8	8.46e-01	0	61	104	412614656	60	30420
2026-01-26 20:06:18.45	128.93	2.16	-44.9	-62.9	3.8	8.46e-01	0	62	104	412614656	60	30376
2026-01-26 20:06:19.46	128.86	2.09	-44.9	-63.0	3.8	8.46e-01	0	62	104	412614656	60	30400
2026-01-26 20:06:20.47	128.78	2.03	-44.9	-63.0	3.8	8.46e-01	0	62	104	412614656	60	30391
2026-01-26 20:06:21.48	128.70	1.97	-44.9	-63.0	3.8	8.46e-01	0	62	104	412614656	60	30438

#Closed at: 2026-01-26 20:06:21
#Recorded file [412 MB]: D:/lorett/data/31039_260126_225729.dat