passes_logs/2026/01/26/R2.0S_Moscow/R2.0S_Moscow__20260126_112052_NOAA_20_JPSS-1_rec.log

#Pass ID: 20260126_112052_NOAA 20 (JPSS-1)
#Satellite: NOAA 20 (JPSS-1)
#Configuration: NOAA 20
#almurnet v.1.7.20251203
#Start time: 2026-01-26 11:20:53

#Version: 2.2.20231116
#Station: R2.0S_Moscow
#Location: 37.707566 lon 55.798166 lat
#TLE: 1 43013U 17073A   26025.83228772  .00000162  00000+0  97663-4 0  9996
#TLE: 2 43013  98.7646 326.6579 0001036  23.5840 336.5383 14.19540376424273

#Time	Az	El	Level	Level2	SNR	BER	BlckErr	Temp	State	Recorded	gain1	gain2
2026-01-26 11:20:53.53	203.67	2.09	-44.0	-58.5	3.8	1.49e+00	0	54	0	0	59	19282
2026-01-26 11:20:54.53	203.73	2.14	-44.0	-58.5	3.8	1.49e+00	0	54	104	0	59	19209
2026-01-26 11:20:55.54	203.80	2.20	-44.0	-58.5	3.8	1.49e+00	0	55	104	0	59	19258
2026-01-26 11:20:56.55	203.87	2.26	-44.0	-58.5	3.8	1.49e+00	0	55	104	0	59	19215
2026-01-26 11:20:57.56	203.94	2.32	-44.0	-58.5	3.8	1.49e+00	0	55	104	0	59	19258
2026-01-26 11:20:58.57	204.01	2.37	-44.0	-58.5	3.8	1.49e+00	0	55	104	0	59	19281
2026-01-26 11:20:59.58	204.07	2.43	-44.0	-58.5	3.8	1.49e+00	0	55	104	0	59	19289
2026-01-26 11:21:00.60	204.14	2.49	-44.0	-58.5	3.8	1.49e+00	0	55	104	0	59	19258
2026-01-26 11:21:01.61	204.21	2.55	-44.0	-58.5	3.8	1.49e+00	0	55	104	0	59	19221
2026-01-26 11:21:02.62	204.28	2.60	-44.0	-58.5	3.8	1.49e+00	0	55	104	0	59	19238
2026-01-26 11:21:03.63	204.35	2.66	-44.0	-58.5	3.8	1.49e+00	0	55	104	0	59	19231
2026-01-26 11:21:04.64	204.42	2.72	-44.0	-58.5	3.8	1.49e+00	0	55	104	0	59	19260
2026-01-26 11:21:05.65	204.49	2.78	-44.0	-58.5	3.8	1.49e+00	0	55	104	0	59	19222
2026-01-26 11:21:06.66	204.56	2.84	-44.0	-58.5	3.8	1.49e+00	0	55	104	0	59	19250
2026-01-26 11:21:07.67	204.64	2.89	-44.0	-58.5	3.8	1.49e+00	0	55	104	0	59	19218
2026-01-26 11:21:08.68	204.71	2.95	-44.0	-58.5	3.8	1.49e+00	0	55	104	0	59	19269
2026-01-26 11:21:09.70	204.78	3.01	-44.0	-58.5	3.8	1.49e+00	0	55	104	0	59	19219
2026-01-26 11:21:10.71	204.85	3.07	-44.0	-58.5	3.8	1.49e+00	0	56	104	0	59	19240
2026-01-26 11:21:11.72	204.92	3.13	-44.0	-58.5	3.8	1.49e+00	0	56	104	0	59	19211
2026-01-26 11:21:12.73	204.99	3.19	-44.0	-58.5	3.8	1.49e+00	0	56	104	0	59	19265
2026-01-26 11:21:13.74	205.07	3.25	-44.0	-58.5	3.8	1.49e+00	0	56	104	0	59	19198
2026-01-26 11:21:14.75	205.14	3.31	-44.0	-58.5	3.8	1.49e+00	0	56	104	0	59	19214
2026-01-26 11:21:15.76	205.21	3.36	-44.0	-58.5	3.8	1.49e+00	0	56	104	0	59	19217
2026-01-26 11:21:16.77	205.29	3.42	-44.0	-58.5	3.8	1.49e+00	0	56	104	0	59	19195
2026-01-26 11:21:17.79	205.36	3.48	-44.0	-58.5	3.8	1.49e+00	0	56	104	0	59	19173
2026-01-26 11:21:18.80	205.44	3.54	-44.0	-58.5	3.8	1.49e+00	0	56	104	0	59	19206
2026-01-26 11:21:19.81	205.51	3.60	-44.0	-58.4	3.8	1.49e+00	0	56	104	0	59	19145
2026-01-26 11:21:20.82	205.58	3.66	-44.0	-58.5	3.8	1.49e+00	0	56	104	0	59	19272
2026-01-26 11:21:21.83	205.66	3.72	-44.0	-58.5	3.8	1.49e+00	0	56	104	0	59	19175
2026-01-26 11:21:22.84	205.73	3.78	-44.0	-58.5	3.8	1.49e+00	0	56	104	0	59	19258
2026-01-26 11:21:23.85	205.81	3.84	-44.0	-58.4	3.8	1.49e+00	0	56	104	0	59	19135
2026-01-26 11:21:24.86	205.88	3.90	-44.0	-58.5	3.8	1.49e+00	0	57	104	0	59	19179
2026-01-26 11:21:25.87	205.96	3.96	-44.0	-58.4	3.8	1.49e+00	0	57	104	0	59	19136
2026-01-26 11:21:26.88	206.04	4.02	-44.0	-58.5	3.8	1.49e+00	0	57	104	0	59	19193
2026-01-26 11:21:27.89	206.11	4.08	-44.0	-58.5	3.8	1.49e+00	0	57	104	0	59	19171
2026-01-26 11:21:28.90	206.19	4.14	-44.0	-58.5	3.8	1.49e+00	0	57	104	0	59	19174
2026-01-26 11:21:29.91	206.27	4.20	-44.0	-58.4	3.8	1.49e+00	0	57	104	0	59	19105
2026-01-26 11:21:30.92	206.35	4.26	-44.0	-58.5	3.8	1.49e+00	0	57	104	0	59	19223
2026-01-26 11:21:31.93	206.42	4.32	-44.0	-58.5	3.8	1.49e+00	0	57	104	0	59	19222
2026-01-26 11:21:32.94	206.50	4.38	-44.0	-58.4	3.8	1.49e+00	0	57	104	0	59	19127
2026-01-26 11:21:33.95	206.58	4.44	-44.0	-58.4	3.8	1.49e+00	0	57	104	0	59	19160
2026-01-26 11:21:34.96	206.66	4.50	-44.0	-58.4	3.8	1.49e+00	0	57	104	0	59	19158
2026-01-26 11:21:35.97	206.74	4.56	-44.0	-58.4	3.8	1.49e+00	0	57	104	0	59	19122
2026-01-26 11:21:36.99	206.82	4.63	-44.0	-58.5	3.8	1.49e+00	0	57	104	0	59	19217
2026-01-26 11:21:38.00	206.90	4.69	-44.0	-58.5	3.8	1.49e+00	0	57	104	0	59	19191
2026-01-26 11:21:39.01	206.98	4.75	-43.9	-58.4	3.8	1.49e+00	0	57	104	0	59	19164
2026-01-26 11:21:40.02	207.06	4.81	-44.0	-58.5	3.8	1.49e+00	0	57	104	0	59	19215
2026-01-26 11:21:41.03	207.14	4.87	-44.0	-58.4	3.8	1.49e+00	0	57	104	0	59	19080
2026-01-26 11:21:42.04	207.22	4.93	-44.0	-58.4	3.8	1.49e+00	0	57	104	0	59	19113
2026-01-26 11:21:43.05	207.30	4.99	-44.0	-58.4	3.8	1.49e+00	0	58	104	0	59	19095
2026-01-26 11:21:44.06	207.38	5.05	-44.0	-58.4	3.8	1.49e+00	0	58	104	0	59	19046
2026-01-26 11:21:45.07	207.46	5.12	-44.0	-58.4	3.8	1.49e+00	0	57	104	0	59	19022
2026-01-26 11:21:46.08	207.55	5.18	-44.0	-58.4	3.8	1.49e+00	0	58	104	0	59	19067
2026-01-26 11:21:47.09	207.63	5.24	-44.0	-58.3	3.8	1.49e+00	0	58	104	0	59	18752
2026-01-26 11:21:48.10	207.71	5.30	-44.0	-58.3	3.8	1.49e+00	0	58	104	0	59	18777
2026-01-26 11:21:49.11	207.80	5.36	-44.0	-58.2	3.8	1.49e+00	0	58	104	0	59	18729
2026-01-26 11:21:50.12	207.88	5.43	-44.0	-58.2	3.8	1.49e+00	0	58	104	0	59	18651
2026-01-26 11:21:51.13	207.96	5.49	-44.0	-58.2	3.8	1.49e+00	0	58	104	0	59	18542
2026-01-26 11:21:52.14	208.05	5.55	-44.0	-58.2	3.8	1.49e+00	0	58	104	0	59	18528
2026-01-26 11:21:53.15	208.13	5.61	-44.0	-58.0	3.8	1.49e+00	0	58	104	0	59	18303
2026-01-26 11:21:54.16	208.22	5.68	-44.0	-58.0	3.8	1.49e+00	0	58	104	0	59	18198
2026-01-26 11:21:55.17	208.30	5.74	-44.0	-58.0	3.8	1.49e+00	0	58	104	0	59	18152
2026-01-26 11:21:56.18	208.39	5.80	-44.0	-57.9	3.8	1.49e+00	0	58	104	0	59	18044
2026-01-26 11:21:57.19	208.48	5.86	-43.9	-57.8	3.8	1.49e+00	0	58	104	0	59	17819
2026-01-26 11:21:58.21	208.56	5.93	-43.9	-57.6	3.8	1.49e+00	0	58	104	0	59	17362
2026-01-26 11:21:59.22	208.65	5.99	-43.9	-57.4	3.8	1.49e+00	0	58	104	0	59	17045
2026-01-26 11:22:00.23	208.74	6.05	-43.9	-57.0	3.8	1.49e+00	0	58	104	0	59	16203
2026-01-26 11:22:01.24	208.82	6.12	-43.9	-56.7	3.9	1.49e+00	0	58	104	0	59	15628
2026-01-26 11:22:02.25	208.91	6.18	-43.9	-56.3	3.8	1.49e+00	0	58	104	0	59	15013
2026-01-26 11:22:03.26	209.00	6.24	-43.8	-55.8	4.0	1.48e+00	0	58	104	0	59	14175
2026-01-26 11:22:04.27	209.09	6.31	-43.8	-55.5	4.1	1.46e+00	0	58	104	0	59	13616
2026-01-26 11:22:05.28	209.18	6.37	-43.7	-54.7	4.2	1.42e+00	0	59	0	0	59	12485
2026-01-26 11:22:06.29	209.27	6.43	-43.7	-54.4	4.3	1.34e+00	56	58	0	0	59	12018
2026-01-26 11:22:07.30	209.36	6.50	-43.6	-54.0	4.5	1.18e+00	15	58	0	2097152	59	11490
2026-01-26 11:22:08.31	209.45	6.56	-43.6	-53.5	4.7	9.82e-01	0	58	0	3145728	59	10903
2026-01-26 11:22:09.32	209.54	6.63	-43.6	-53.2	4.8	8.19e-01	0	58	0	5242880	59	10480
2026-01-26 11:22:10.33	209.63	6.69	-43.5	-52.9	5.0	7.12e-01	0	59	0	7340032	59	10121
2026-01-26 11:22:11.34	209.72	6.75	-43.5	-52.7	5.1	6.56e-01	0	59	0	9437184	58	10506
2026-01-26 11:22:12.35	209.81	6.82	-43.5	-52.8	5.1	6.69e-01	0	59	0	11534336	58	10542
2026-01-26 11:22:13.36	209.90	6.88	-43.5	-52.8	5.0	6.69e-01	0	59	0	12582912	58	10624
2026-01-26 11:22:14.37	210.00	6.95	-43.5	-52.9	5.0	6.86e-01	0	59	0	14680064	58	10752
2026-01-26 11:22:15.38	210.09	7.01	-43.5	-53.1	4.9	7.40e-01	0	59	0	16777216	58	10914
2026-01-26 11:22:16.39	210.18	7.08	-43.5	-53.2	4.8	7.76e-01	0	59	0	18874368	58	11078
2026-01-26 11:22:17.40	210.28	7.14	-43.6	-53.5	4.7	8.50e-01	0	59	0	20971520	58	11442
2026-01-26 11:22:18.41	210.37	7.21	-43.6	-53.7	4.6	9.19e-01	0	59	0	22020096	58	11759
2026-01-26 11:22:19.42	210.47	7.27	-43.6	-53.5	4.7	9.28e-01	0	59	0	24117248	58	11491
2026-01-26 11:22:20.43	210.56	7.34	-43.5	-52.8	5.1	7.62e-01	0	59	0	26214400	58	10578
2026-01-26 11:22:21.45	210.66	7.40	-43.4	-52.3	5.3	6.20e-01	0	59	0	28311552	58	9975
2026-01-26 11:22:22.46	210.75	7.47	-43.3	-51.4	6.0	3.85e-01	0	59	0	30408704	58	8983
2026-01-26 11:22:23.47	210.85	7.53	-43.1	-50.5	6.7	2.70e-01	0	59	0	32505856	58	8099
2026-01-26 11:22:24.48	210.95	7.60	-42.9	-49.7	7.4	1.49e-01	0	59	0	33554432	57	7835
2026-01-26 11:22:25.49	211.04	7.66	-42.8	-49.2	7.9	8.31e-02	0	59	0	35651584	57	7418
2026-01-26 11:22:26.50	211.14	7.73	-42.6	-48.7	8.4	5.50e-02	0	59	0	37748736	57	7008
2026-01-26 11:22:27.51	211.24	7.80	-42.4	-48.1	9.0	3.49e-02	0	59	0	39845888	56	6910
2026-01-26 11:22:28.52	211.34	7.86	-42.4	-47.9	9.3	1.95e-02	0	59	0	41943040	56	6731
2026-01-26 11:22:29.53	211.43	7.93	-42.3	-47.6	9.5	1.50e-02	0	59	0	42991616	56	6554
2026-01-26 11:22:30.54	211.53	7.99	-42.3	-47.8	9.4	1.41e-02	0	59	0	45088768	56	6661
2026-01-26 11:22:31.55	211.63	8.06	-42.6	-48.4	8.9	1.67e-02	0	59	0	47185920	56	7148
2026-01-26 11:22:32.56	211.73	8.13	-43.5	-53.6	4.8	1.47e-01	0	59	0	49283072	57	12262
2026-01-26 11:22:33.57	211.83	8.19	-42.3	-47.5	9.3	1.49e+00	0	59	104	49283072	56	6473
2026-01-26 11:22:34.58	211.93	8.26	-43.1	-49.5	7.9	1.37e-01	0	59	0	50331648	57	7646
2026-01-26 11:22:35.59	212.04	8.33	-42.5	-47.9	9.5	5.61e-02	0	59	0	52428800	56	6792
2026-01-26 11:22:36.60	212.14	8.39	-43.0	-49.4	7.7	7.09e-01	0	59	0	54525952	57	7587
2026-01-26 11:22:37.61	212.24	8.46	-42.5	-48.0	9.3	2.14e-02	0	60	0	56623104	57	6440
2026-01-26 11:22:38.62	212.34	8.53	-42.5	-47.8	9.5	1.53e-02	0	59	0	57671680	56	6699
2026-01-26 11:22:39.63	212.45	8.59	-42.4	-47.6	9.8	1.14e-02	0	59	0	59768832	56	6521
2026-01-26 11:22:40.64	212.55	8.66	-42.3	-47.4	10.0	8.95e-03	0	59	0	61865984	56	6389
2026-01-26 11:22:41.65	212.65	8.73	-42.4	-47.5	9.8	9.17e-03	0	60	0	63963136	56	6473
2026-01-26 11:22:42.66	212.76	8.80	-42.4	-47.4	9.9	9.41e-03	0	59	0	66060288	56	6416
2026-01-26 11:22:43.67	212.86	8.86	-42.2	-47.1	10.3	6.68e-03	0	60	0	67108864	56	6183
2026-01-26 11:22:44.68	212.97	8.93	-42.2	-47.1	10.3	6.26e-03	0	59	0	69206016	56	6181
2026-01-26 11:22:45.69	213.07	9.00	-42.1	-46.9	10.5	4.57e-03	0	60	0	71303168	56	6028
2026-01-26 11:22:46.69	213.18	9.07	-42.2	-47.0	10.4	4.26e-03	0	60	0	73400320	56	6096
2026-01-26 11:22:47.70	213.29	9.13	-42.2	-47.0	10.4	4.43e-03	0	60	0	75497472	56	6063
2026-01-26 11:22:48.72	213.39	9.20	-42.2	-47.0	10.4	4.61e-03	0	60	0	76546048	56	6079
2026-01-26 11:22:49.73	213.50	9.27	-42.2	-46.9	10.5	3.81e-03	0	60	0	78643200	56	6058
2026-01-26 11:22:50.74	213.61	9.34	-42.2	-47.0	10.5	4.04e-03	0	60	0	80740352	56	6077
2026-01-26 11:22:51.75	213.72	9.41	-42.3	-47.1	10.4	4.16e-03	0	60	0	82837504	56	6144
2026-01-26 11:22:52.76	213.83	9.47	-42.2	-47.0	10.5	4.07e-03	0	60	0	84934656	56	6089
2026-01-26 11:22:53.77	213.94	9.54	-42.3	-47.0	10.5	4.07e-03	0	60	0	85983232	56	6121
2026-01-26 11:22:54.78	214.05	9.61	-42.3	-47.0	10.6	3.64e-03	0	60	0	88080384	56	6112
2026-01-26 11:22:55.79	214.16	9.68	-42.3	-47.1	10.5	3.82e-03	0	60	0	90177536	56	6171
2026-01-26 11:22:56.80	214.27	9.75	-42.3	-47.1	10.5	3.40e-03	0	60	0	92274688	56	6157
2026-01-26 11:22:57.81	214.38	9.82	-42.3	-47.1	10.5	3.64e-03	0	60	0	94371840	56	6186
2026-01-26 11:22:58.82	214.50	9.89	-42.3	-47.0	10.6	3.57e-03	0	60	0	95420416	56	6094
2026-01-26 11:22:59.83	214.61	9.96	-42.2	-46.9	10.7	3.07e-03	0	60	0	97517568	56	6007
2026-01-26 11:23:00.84	214.72	10.02	-42.2	-46.8	10.9	2.16e-03	0	60	0	99614720	56	5954
2026-01-26 11:23:01.85	214.84	10.09	-42.2	-46.7	11.0	2.24e-03	0	60	0	101711872	56	5887
2026-01-26 11:23:02.86	214.95	10.16	-42.2	-46.7	11.0	2.16e-03	0	60	0	103809024	56	5897
2026-01-26 11:23:03.87	215.06	10.23	-42.2	-46.7	10.9	2.08e-03	0	60	0	104857600	56	5912
2026-01-26 11:23:04.88	215.18	10.30	-42.1	-46.6	11.1	1.78e-03	0	60	0	106954752	56	5801
2026-01-26 11:23:05.89	215.30	10.37	-42.2	-46.6	11.0	1.64e-03	0	60	0	109051904	56	5854
2026-01-26 11:23:06.90	215.41	10.44	-42.1	-46.5	11.2	1.50e-03	0	60	0	111149056	56	5773
2026-01-26 11:23:07.91	215.53	10.51	-42.0	-46.3	11.4	1.07e-03	0	60	0	113246208	56	5629
2026-01-26 11:23:08.92	215.65	10.58	-42.0	-46.4	11.4	1.00e-03	0	60	0	115343360	56	5671
2026-01-26 11:23:09.93	215.77	10.65	-42.1	-46.4	11.3	1.05e-03	0	60	0	116391936	56	5717
2026-01-26 11:23:10.94	215.88	10.72	-42.1	-46.5	11.2	1.35e-03	0	60	0	118489088	56	5754
2026-01-26 11:23:11.95	216.00	10.79	-42.1	-46.4	11.3	1.09e-03	0	60	0	120586240	56	5695
2026-01-26 11:23:12.96	216.12	10.86	-42.1	-46.4	11.3	9.38e-04	0	60	0	122683392	56	5708
2026-01-26 11:23:13.97	216.24	10.93	-41.9	-46.1	11.5	9.24e-04	0	60	0	124780544	55	5837
2026-01-26 11:23:14.98	216.36	11.00	-41.9	-46.2	11.4	9.20e-04	0	60	0	125829120	55	5889
2026-01-26 11:23:15.99	216.49	11.07	-41.9	-46.2	11.4	9.81e-04	0	60	0	127926272	55	5895
2026-01-26 11:23:17.00	216.61	11.14	-41.9	-46.2	11.3	9.45e-04	0	60	0	130023424	55	5914
2026-01-26 11:23:18.01	216.73	11.21	-41.9	-46.2	11.4	1.05e-03	0	60	0	132120576	55	5874
2026-01-26 11:23:19.01	216.85	11.28	-41.9	-46.2	11.4	1.02e-03	0	60	0	134217728	55	5874
2026-01-26 11:23:20.02	216.98	11.36	-41.9	-46.1	11.5	1.09e-03	0	60	0	135266304	55	5820
2026-01-26 11:23:21.03	217.10	11.43	-41.9	-46.1	11.5	7.74e-04	0	60	0	137363456	55	5842
2026-01-26 11:23:22.04	217.23	11.50	-41.9	-46.2	11.5	8.09e-04	0	60	0	139460608	55	5869
2026-01-26 11:23:23.05	217.35	11.57	-41.9	-46.1	11.6	8.85e-04	0	60	0	141557760	55	5826
2026-01-26 11:23:24.05	217.48	11.64	-42.0	-46.2	11.5	7.36e-04	0	60	0	143654912	55	5874
2026-01-26 11:23:25.06	217.60	11.71	-41.9	-46.1	11.6	7.32e-04	0	60	0	144703488	55	5815
2026-01-26 11:23:26.07	217.73	11.78	-41.9	-46.2	11.5	8.35e-04	0	60	0	146800640	55	5862
2026-01-26 11:23:27.08	217.86	11.85	-42.0	-46.2	11.4	8.17e-04	0	61	0	148897792	55	5917
2026-01-26 11:23:28.09	217.99	11.92	-42.0	-46.3	11.4	9.01e-04	0	61	0	150994944	55	5958
2026-01-26 11:23:29.10	218.11	12.00	-42.0	-46.3	11.4	9.14e-04	0	60	0	153092096	55	5982
2026-01-26 11:23:30.10	218.24	12.07	-42.1	-46.5	11.3	1.27e-03	0	60	0	154140672	55	6065
2026-01-26 11:23:31.11	218.37	12.14	-42.1	-46.4	11.3	1.14e-03	0	61	0	156237824	55	6049
2026-01-26 11:23:32.12	218.50	12.21	-42.1	-46.4	11.3	1.25e-03	0	61	0	158334976	55	6051
2026-01-26 11:23:33.14	218.64	12.28	-42.0	-46.2	11.5	9.29e-04	0	61	0	160432128	55	5896
2026-01-26 11:23:34.14	218.77	12.35	-42.0	-46.2	11.5	8.92e-04	0	61	0	162529280	55	5915
2026-01-26 11:23:35.16	218.90	12.43	-42.0	-46.1	11.6	6.95e-04	0	60	0	163577856	55	5831
2026-01-26 11:23:36.17	219.04	12.50	-42.0	-46.1	11.6	6.53e-04	0	61	0	165675008	55	5834
2026-01-26 11:23:37.17	219.17	12.57	-42.0	-46.1	11.6	6.68e-04	0	61	0	167772160	55	5837
2026-01-26 11:23:38.19	219.30	12.64	-42.0	-46.1	11.6	7.19e-04	0	61	0	169869312	55	5811
2026-01-26 11:23:39.20	219.44	12.72	-42.0	-46.1	11.7	5.74e-04	0	61	0	171966464	55	5809
2026-01-26 11:23:40.21	219.58	12.79	-41.9	-46.0	11.8	5.72e-04	0	61	0	173015040	55	5756
2026-01-26 11:23:41.22	219.71	12.86	-41.9	-46.0	11.8	5.61e-04	0	61	0	175112192	55	5743
2026-01-26 11:23:42.23	219.85	12.93	-41.9	-45.9	11.9	3.92e-04	0	61	0	177209344	55	5664
2026-01-26 11:23:43.24	219.99	13.01	-41.8	-45.8	12.0	3.87e-04	0	61	0	179306496	55	5640
2026-01-26 11:23:44.25	220.13	13.08	-41.8	-45.8	12.0	3.50e-04	0	61	0	181403648	55	5630
2026-01-26 11:23:45.25	220.26	13.15	-41.8	-45.8	11.9	3.87e-04	0	61	0	183500800	55	5635
2026-01-26 11:23:46.26	220.40	13.22	-41.8	-45.7	12.1	3.07e-04	0	61	0	184549376	55	5582
2026-01-26 11:23:47.27	220.54	13.30	-41.8	-45.6	12.1	2.66e-04	0	61	0	186646528	55	5528
2026-01-26 11:23:48.28	220.69	13.37	-41.8	-45.7	12.1	2.63e-04	0	61	0	188743680	55	5554
2026-01-26 11:23:49.29	220.83	13.44	-41.8	-45.7	12.1	2.97e-04	0	61	0	190840832	55	5581
2026-01-26 11:23:50.30	220.97	13.52	-41.8	-45.7	12.2	2.42e-04	0	61	0	192937984	55	5537
2026-01-26 11:23:51.31	221.11	13.59	-41.8	-45.7	12.2	2.22e-04	0	61	0	193986560	55	5544
2026-01-26 11:23:52.32	221.26	13.66	-41.8	-45.7	12.2	2.35e-04	0	61	0	196083712	55	5547
2026-01-26 11:23:53.33	221.40	13.74	-41.8	-45.7	12.2	2.16e-04	0	61	0	198180864	55	5537
2026-01-26 11:23:54.34	221.55	13.81	-41.9	-45.8	12.0	2.35e-04	0	61	0	200278016	55	5641
2026-01-26 11:23:55.35	221.69	13.88	-41.8	-45.8	12.0	3.49e-04	0	61	0	202375168	55	5645
2026-01-26 11:23:56.36	221.84	13.96	-41.9	-45.9	11.9	3.43e-04	0	61	0	203423744	55	5703
2026-01-26 11:23:57.37	221.99	14.03	-41.9	-46.0	11.9	3.81e-04	0	61	0	205520896	55	5725
2026-01-26 11:23:58.38	222.14	14.10	-41.9	-45.9	11.9	4.28e-04	0	61	0	207618048	55	5713
2026-01-26 11:23:59.39	222.29	14.18	-41.9	-46.0	11.8	4.03e-04	0	61	0	209715200	55	5726
2026-01-26 11:24:00.40	222.43	14.25	-41.9	-45.9	11.9	4.10e-04	0	61	0	211812352	55	5689
2026-01-26 11:24:01.41	222.59	14.32	-41.9	-45.9	11.9	4.17e-04	0	61	0	212860928	55	5698
2026-01-26 11:24:02.42	222.74	14.40	-41.9	-45.9	11.9	3.80e-04	0	61	0	214958080	55	5683
2026-01-26 11:24:03.43	222.89	14.47	-41.9	-45.9	11.9	4.50e-04	0	61	0	217055232	55	5712
2026-01-26 11:24:04.44	223.04	14.55	-41.9	-45.8	12.1	3.26e-04	0	61	0	219152384	55	5604
2026-01-26 11:24:05.45	223.19	14.62	-41.9	-45.8	12.1	2.73e-04	0	61	0	221249536	55	5605
2026-01-26 11:24:06.46	223.35	14.69	-41.8	-45.7	12.2	2.33e-04	0	61	0	222298112	55	5567
2026-01-26 11:24:07.47	223.50	14.77	-41.8	-45.8	12.1	2.65e-04	0	61	0	224395264	55	5594
2026-01-26 11:24:08.48	223.66	14.84	-41.8	-45.7	12.2	2.59e-04	0	61	0	226492416	55	5563
2026-01-26 11:24:09.49	223.81	14.91	-41.8	-45.7	12.2	2.28e-04	0	61	0	228589568	55	5550
2026-01-26 11:24:10.50	223.97	14.99	-41.8	-45.6	12.3	2.06e-04	0	61	0	230686720	55	5500
2026-01-26 11:24:11.51	224.13	15.06	-41.8	-45.7	12.2	1.83e-04	0	61	0	231735296	55	5544
2026-01-26 11:24:12.52	224.29	15.14	-41.8	-45.6	12.3	1.98e-04	0	61	0	233832448	55	5518
2026-01-26 11:24:13.53	224.45	15.21	-41.8	-45.5	12.3	1.59e-04	0	61	0	235929600	55	5464
2026-01-26 11:24:14.53	224.61	15.28	-41.8	-45.6	12.3	1.58e-04	0	61	0	238026752	55	5481
2026-01-26 11:24:15.54	224.77	15.36	-41.7	-45.5	12.5	1.43e-04	0	61	0	240123904	55	5403
2026-01-26 11:24:16.55	224.93	15.43	-41.8	-45.6	12.3	1.39e-04	0	61	0	241172480	55	5487
2026-01-26 11:24:17.56	225.09	15.51	-41.8	-45.6	12.3	1.53e-04	0	61	0	243269632	55	5489
2026-01-26 11:24:18.57	225.25	15.58	-41.7	-45.5	12.4	1.56e-04	0	61	0	245366784	55	5428
2026-01-26 11:24:19.58	225.42	15.65	-41.7	-45.5	12.5	1.34e-04	0	61	0	247463936	55	5428
2026-01-26 11:24:20.59	225.58	15.73	-41.7	-45.5	12.4	1.31e-04	0	61	0	249561088	55	5433
2026-01-26 11:24:21.60	225.75	15.80	-41.8	-45.5	12.4	1.11e-04	0	61	0	251658240	54	5780
2026-01-26 11:24:22.61	225.91	15.88	-41.8	-45.5	12.4	1.14e-04	0	61	0	252706816	54	5778
2026-01-26 11:24:23.62	226.08	15.95	-41.7	-45.5	12.5	1.57e-04	0	61	0	254803968	54	5731
2026-01-26 11:24:24.63	226.25	16.02	-41.7	-45.3	12.7	1.01e-04	0	61	0	256901120	54	5610
2026-01-26 11:24:25.64	226.42	16.10	-41.6	-45.2	12.7	7.85e-05	0	61	0	258998272	54	5583
2026-01-26 11:24:26.65	226.59	16.17	-41.6	-45.1	12.8	5.95e-05	0	61	0	261095424	54	5522
2026-01-26 11:24:27.66	226.76	16.25	-41.6	-45.1	12.9	5.41e-05	0	61	0	262144000	54	5497
2026-01-26 11:24:28.67	226.93	16.32	-41.4	-45.1	12.9	5.41e-05	0	61	0	264241152	54	5477
2026-01-26 11:24:29.68	227.10	16.40	-41.6	-45.2	12.8	4.27e-05	0	61	0	266338304	54	5557
2026-01-26 11:24:30.69	227.27	16.47	-41.5	-45.0	13.0	4.65e-05	0	61	0	268435456	54	5430
2026-01-26 11:24:31.70	227.45	16.54	-41.6	-45.1	12.8	5.72e-05	0	61	0	270532608	54	5527
2026-01-26 11:24:32.71	227.62	16.62	-41.5	-45.0	12.9	4.50e-05	0	61	0	271581184	54	5442
2026-01-26 11:24:33.72	227.80	16.69	-41.5	-45.1	12.9	5.41e-05	0	61	0	273678336	54	5491
2026-01-26 11:24:34.73	227.97	16.76	-41.5	-45.1	12.8	4.50e-05	0	61	0	275775488	54	5527
2026-01-26 11:24:35.74	228.15	16.84	-41.5	-45.0	13.0	4.95e-05	0	62	0	277872640	54	5460
2026-01-26 11:24:36.75	228.33	16.91	-41.6	-45.2	12.9	4.80e-05	0	61	0	279969792	54	5531
2026-01-26 11:24:37.77	228.51	16.99	-41.6	-45.2	12.8	5.26e-05	0	61	0	281018368	54	5541
2026-01-26 11:24:38.77	228.69	17.06	-41.6	-45.2	12.8	5.64e-05	0	61	0	283115520	54	5559
2026-01-26 11:24:39.78	228.87	17.13	-41.7	-45.3	12.7	7.09e-05	0	61	0	285212672	54	5634
2026-01-26 11:24:40.79	229.05	17.21	-41.6	-45.2	12.8	7.47e-05	0	62	0	287309824	54	5570
2026-01-26 11:24:41.80	229.23	17.28	-41.8	-45.5	12.5	9.00e-05	0	62	0	289406976	54	5739
2026-01-26 11:24:42.81	229.41	17.35	-41.8	-45.5	12.5	1.10e-04	0	62	0	290455552	54	5750
2026-01-26 11:24:43.82	229.60	17.43	-41.8	-45.5	12.4	1.40e-04	0	62	0	292552704	54	5782
2026-01-26 11:24:44.83	229.78	17.50	-41.8	-45.6	12.4	1.63e-04	0	61	0	294649856	54	5827
2026-01-26 11:24:45.84	229.97	17.57	-41.9	-45.7	12.3	1.88e-04	0	61	0	296747008	54	5872
2026-01-26 11:24:46.85	230.15	17.65	-41.8	-45.6	12.4	1.79e-04	0	62	0	298844160	54	5841
2026-01-26 11:24:47.86	230.34	17.72	-41.8	-45.6	12.3	1.77e-04	0	62	0	299892736	54	5841
2026-01-26 11:24:48.87	230.53	17.79	-41.8	-45.7	12.3	1.88e-04	0	62	0	301989888	54	5858
2026-01-26 11:24:49.88	230.72	17.87	-41.9	-45.7	12.3	1.47e-04	0	62	0	304087040	54	5874
2026-01-26 11:24:50.88	230.91	17.94	-41.8	-45.6	12.4	1.50e-04	0	62	0	306184192	54	5848
2026-01-26 11:24:51.90	231.10	18.01	-41.8	-45.6	12.4	1.46e-04	0	62	0	308281344	54	5824
2026-01-26 11:24:52.90	231.29	18.09	-41.9	-45.7	12.3	1.43e-04	0	61	0	309329920	54	5861
2026-01-26 11:24:53.92	231.49	18.16	-41.7	-45.5	12.5	1.63e-04	0	62	0	311427072	54	5724
2026-01-26 11:24:54.92	231.68	18.23	-41.6	-45.2	12.8	6.79e-05	0	62	0	313524224	54	5580
2026-01-26 11:24:55.93	231.87	18.30	-41.5	-45.0	13.0	3.73e-05	0	61	0	315621376	54	5450
2026-01-26 11:24:56.94	232.07	18.38	-41.5	-45.0	13.0	3.50e-05	0	62	0	317718528	54	5444
2026-01-26 11:24:57.96	232.27	18.45	-41.5	-45.0	12.9	4.04e-05	0	61	0	319815680	54	5458
2026-01-26 11:24:58.96	232.46	18.52	-41.4	-45.0	13.1	4.04e-05	0	61	0	320864256	54	5408
2026-01-26 11:24:59.97	232.66	18.59	-41.5	-45.0	12.9	3.96e-05	0	62	0	322961408	54	5445
2026-01-26 11:25:00.98	232.86	18.66	-41.4	-44.8	13.2	2.13e-05	0	62	0	325058560	54	5326
2026-01-26 11:25:01.99	233.06	18.74	-41.3	-44.7	13.3	2.59e-05	0	61	0	327155712	54	5243
2026-01-26 11:25:03.01	233.26	18.81	-41.3	-44.7	13.4	1.98e-05	0	62	0	329252864	54	5220
2026-01-26 11:25:04.01	233.46	18.88	-41.3	-44.6	13.5	1.06e-05	0	62	0	330301440	54	5161
2026-01-26 11:25:05.02	233.66	18.95	-41.2	-44.5	13.6	1.52e-05	0	62	0	332398592	54	5104
2026-01-26 11:25:06.04	233.87	19.02	-41.1	-44.3	13.7	7.60e-06	0	62	0	334495744	54	5021
2026-01-26 11:25:07.05	234.07	19.09	-41.1	-44.2	13.9	5.30e-06	0	62	0	336592896	54	4964
2026-01-26 11:25:08.05	234.28	19.16	-41.1	-44.2	13.8	1.50e-06	0	62	0	338690048	54	4954
2026-01-26 11:25:09.06	234.48	19.23	-41.1	-44.2	13.8	3.80e-06	0	62	0	339738624	54	4979
2026-01-26 11:25:10.07	234.69	19.30	-41.1	-44.3	13.8	7.00e-07	0	62	0	341835776	54	4986
2026-01-26 11:25:11.08	234.90	19.38	-41.2	-44.4	13.6	8.30e-06	0	62	0	343932928	54	5073
2026-01-26 11:25:12.10	235.11	19.45	-41.1	-44.4	13.7	7.60e-06	0	62	0	346030080	54	5047
2026-01-26 11:25:13.11	235.32	19.52	-41.1	-44.2	13.8	6.10e-06	0	62	0	348127232	54	4983
2026-01-26 11:25:14.12	235.53	19.59	-41.1	-44.2	13.9	3.00e-06	0	62	0	349175808	54	4947
2026-01-26 11:25:15.13	235.74	19.66	-41.1	-44.2	13.9	2.20e-06	0	62	0	351272960	54	4964
2026-01-26 11:25:16.14	235.96	19.73	-40.9	-44.0	14.1	1.50e-06	0	62	0	353370112	53	5117
2026-01-26 11:25:17.15	236.17	19.79	-40.9	-43.9	14.2	3.00e-06	0	62	0	355467264	53	5045
2026-01-26 11:25:18.16	236.39	19.86	-40.9	-43.9	14.2	1.50e-06	0	62	0	357564416	53	5065
2026-01-26 11:25:19.17	236.60	19.93	-40.9	-44.0	14.1	2.20e-06	0	62	0	358612992	53	5106
2026-01-26 11:25:20.18	236.82	20.00	-41.0	-44.1	14.0	0.00e+00	0	61	0	360710144	53	5166
2026-01-26 11:25:21.18	237.03	20.07	-41.1	-44.2	13.9	1.50e-06	0	62	0	362807296	53	5230
2026-01-26 11:25:22.20	237.26	20.14	-41.1	-44.2	13.9	5.30e-06	0	62	0	364904448	53	5236
2026-01-26 11:25:23.20	237.47	20.20	-41.1	-44.3	13.8	6.80e-06	0	62	0	367001600	53	5307
2026-01-26 11:25:24.22	237.70	20.27	-41.1	-44.2	13.8	6.10e-06	0	62	0	368050176	53	5260
2026-01-26 11:25:25.23	237.92	20.34	-41.1	-44.3	13.8	3.00e-06	0	62	0	370147328	53	5292
2026-01-26 11:25:26.24	238.14	20.41	-41.1	-44.2	13.8	4.50e-06	0	62	0	372244480	53	5227
2026-01-26 11:25:27.25	238.36	20.48	-41.1	-44.2	13.8	6.80e-06	0	62	0	374341632	53	5255
2026-01-26 11:25:28.26	238.59	20.54	-41.1	-44.3	13.8	3.00e-06	0	62	0	376438784	53	5283
2026-01-26 11:25:29.27	238.81	20.61	-41.1	-44.2	13.9	1.50e-06	0	62	0	377487360	53	5230
2026-01-26 11:25:30.28	239.04	20.67	-41.1	-44.3	13.8	9.90e-06	0	62	0	379584512	53	5298
2026-01-26 11:25:31.29	239.27	20.74	-41.2	-44.4	13.7	1.22e-05	0	62	0	381681664	53	5348
2026-01-26 11:25:32.30	239.49	20.81	-41.2	-44.4	13.6	1.06e-05	0	62	0	383778816	53	5382
2026-01-26 11:25:33.31	239.72	20.87	-41.2	-44.4	13.6	1.14e-05	0	62	0	385875968	53	5399
2026-01-26 11:25:34.32	239.95	20.94	-41.2	-44.4	13.7	5.30e-06	0	62	0	387973120	53	5379
2026-01-26 11:25:35.33	240.19	21.00	-41.3	-44.5	13.5	7.60e-06	0	62	0	389021696	53	5440
2026-01-26 11:25:36.34	240.42	21.07	-41.3	-44.6	13.5	9.10e-06	0	62	0	391118848	53	5468
2026-01-26 11:25:37.35	240.65	21.13	-41.2	-44.4	13.6	9.90e-06	0	62	0	393216000	53	5387
2026-01-26 11:25:38.36	240.88	21.19	-41.3	-44.6	13.5	1.29e-05	0	62	0	395313152	53	5468
2026-01-26 11:25:39.37	241.12	21.26	-41.4	-44.7	13.3	1.29e-05	0	62	0	397410304	53	5576
2026-01-26 11:25:40.38	241.35	21.32	-41.4	-44.8	13.2	1.37e-05	0	62	0	398458880	53	5630
2026-01-26 11:25:41.39	241.59	21.38	-41.5	-45.0	13.0	3.12e-05	0	62	0	400556032	53	5764
2026-01-26 11:25:42.40	241.83	21.45	-41.6	-45.1	13.0	3.58e-05	0	62	0	402653184	53	5794
2026-01-26 11:25:43.41	242.07	21.51	-41.6	-45.1	12.9	3.05e-05	0	62	0	404750336	53	5846
2026-01-26 11:25:44.42	242.31	21.57	-41.7	-45.2	12.8	6.71e-05	0	62	0	406847488	53	5906
2026-01-26 11:25:45.43	242.55	21.63	-41.7	-45.3	12.8	6.33e-05	0	62	0	407896064	53	5950
2026-01-26 11:25:46.44	242.79	21.69	-41.7	-45.3	12.7	7.40e-05	0	62	0	409993216	54	5645
2026-01-26 11:25:47.45	243.03	21.75	-41.7	-45.2	12.8	6.33e-05	0	62	0	412090368	54	5585
2026-01-26 11:25:48.46	243.27	21.82	-41.7	-45.2	12.9	4.73e-05	0	62	0	414187520	54	5582
2026-01-26 11:25:49.47	243.52	21.88	-41.7	-45.3	12.7	6.56e-05	0	62	0	416284672	54	5618
2026-01-26 11:25:50.48	243.76	21.93	-41.7	-45.4	12.7	7.01e-05	0	62	0	417333248	54	5669
2026-01-26 11:25:51.49	244.01	21.99	-41.8	-45.4	12.6	9.00e-05	0	62	0	419430400	54	5696
2026-01-26 11:25:52.50	244.26	22.05	-41.8	-45.5	12.5	1.09e-04	0	62	0	421527552	54	5775
2026-01-26 11:25:53.51	244.50	22.11	-41.8	-45.6	12.4	1.56e-04	0	62	0	423624704	54	5813
2026-01-26 11:25:54.52	244.75	22.17	-41.8	-45.5	12.5	1.08e-04	0	62	0	425721856	54	5753
2026-01-26 11:25:55.53	245.00	22.23	-41.7	-45.3	12.7	7.47e-05	0	62	0	427819008	54	5622
2026-01-26 11:25:56.54	245.25	22.28	-41.7	-45.3	12.8	8.62e-05	0	62	0	428867584	54	5615
2026-01-26 11:25:57.55	245.50	22.34	-41.6	-45.2	12.9	4.80e-05	0	62	0	430964736	54	5529
2026-01-26 11:25:58.56	245.76	22.40	-41.6	-45.0	13.0	5.18e-05	0	62	0	433061888	54	5448
2026-01-26 11:25:59.57	246.01	22.45	-41.5	-45.0	13.0	3.73e-05	0	62	0	435159040	54	5417
2026-01-26 11:26:00.58	246.26	22.51	-41.6	-45.1	13.0	4.04e-05	0	62	0	436207616	54	5475
2026-01-26 11:26:01.59	246.52	22.56	-41.6	-45.2	12.9	5.79e-05	0	62	0	438304768	54	5539
2026-01-26 11:26:02.60	246.77	22.62	-41.6	-45.2	12.8	5.34e-05	0	62	0	440401920	54	5551
2026-01-26 11:26:03.61	247.03	22.67	-41.8	-45.4	12.6	7.78e-05	0	62	0	442499072	54	5696
2026-01-26 11:26:04.61	247.29	22.73	-41.9	-45.7	12.3	1.43e-04	0	62	0	444596224	54	5886
2026-01-26 11:26:05.62	247.54	22.78	-41.9	-45.7	12.3	2.06e-04	0	62	0	445644800	54	5917
2026-01-26 11:26:06.64	247.81	22.83	-42.0	-45.9	12.2	2.03e-04	0	62	0	447741952	54	6000
2026-01-26 11:26:07.65	248.07	22.88	-42.0	-45.8	12.3	2.33e-04	0	62	0	449839104	54	5966
2026-01-26 11:26:08.66	248.33	22.94	-41.9	-45.8	12.3	2.08e-04	0	62	0	451936256	54	5932
2026-01-26 11:26:09.66	248.59	22.99	-42.0	-45.8	12.2	1.94e-04	0	62	0	454033408	54	5967
2026-01-26 11:26:10.67	248.85	23.04	-42.0	-45.8	12.2	2.39e-04	0	62	0	456130560	54	5989
2026-01-26 11:26:11.68	249.11	23.09	-41.9	-45.8	12.2	2.63e-04	0	62	0	457179136	54	5942
2026-01-26 11:26:12.69	249.38	23.14	-42.0	-45.8	12.2	2.33e-04	0	62	0	459276288	54	5979
2026-01-26 11:26:13.70	249.64	23.19	-42.0	-45.9	12.2	2.36e-04	0	62	0	461373440	54	6000
2026-01-26 11:26:14.71	249.91	23.24	-42.1	-46.0	12.0	2.75e-04	0	62	0	463470592	54	6118
2026-01-26 11:26:15.72	250.18	23.28	-42.2	-46.3	11.7	4.76e-04	0	62	0	465567744	54	6307
2026-01-26 11:26:16.73	250.44	23.33	-42.3	-46.6	11.5	7.18e-04	0	62	0	466616320	55	6133
2026-01-26 11:26:17.74	250.71	23.38	-42.4	-46.7	11.3	1.02e-03	0	62	0	468713472	55	6254
2026-01-26 11:26:18.75	250.98	23.42	-42.4	-46.7	11.3	1.27e-03	0	62	0	470810624	55	6256
2026-01-26 11:26:19.76	251.25	23.47	-42.4	-46.7	11.2	1.30e-03	0	62	0	472907776	55	6258
2026-01-26 11:26:20.77	251.52	23.51	-42.4	-46.7	11.3	1.22e-03	0	62	0	475004928	55	6214
2026-01-26 11:26:21.78	251.79	23.56	-42.2	-46.4	11.6	7.45e-04	0	62	0	476053504	55	6013
2026-01-26 11:26:22.79	252.06	23.60	-42.2	-46.3	11.8	5.55e-04	0	62	0	478150656	55	5931
2026-01-26 11:26:23.80	252.34	23.65	-42.1	-46.0	12.0	3.83e-04	0	62	0	480247808	55	5784
2026-01-26 11:26:24.81	252.61	23.69	-42.0	-46.0	12.1	2.72e-04	0	62	0	482344960	55	5729
2026-01-26 11:26:25.82	252.88	23.73	-42.0	-45.8	12.2	2.25e-04	0	62	0	484442112	55	5654
2026-01-26 11:26:26.83	253.16	23.77	-42.0	-45.9	12.2	2.05e-04	0	62	0	485490688	55	5662
2026-01-26 11:26:27.84	253.44	23.81	-42.1	-46.0	12.1	2.36e-04	0	62	0	487587840	55	5741
2026-01-26 11:26:28.85	253.71	23.86	-42.2	-46.2	11.8	4.05e-04	0	62	0	489684992	55	5870
2026-01-26 11:26:29.86	253.99	23.90	-42.2	-46.3	11.7	5.42e-04	0	62	0	491782144	55	5963
2026-01-26 11:26:30.87	254.27	23.93	-42.4	-46.6	11.4	7.57e-04	0	62	0	493879296	55	6177
2026-01-26 11:26:31.88	254.55	23.97	-42.4	-46.8	11.2	1.16e-03	0	62	0	495976448	55	6309
2026-01-26 11:26:32.89	254.82	24.01	-42.4	-46.8	11.2	1.48e-03	0	62	0	497025024	55	6289
2026-01-26 11:26:33.90	255.10	24.05	-42.4	-46.7	11.3	1.34e-03	0	62	0	499122176	55	6261
2026-01-26 11:26:34.91	255.38	24.08	-42.3	-46.5	11.5	8.97e-04	0	62	0	501219328	55	6067
2026-01-26 11:26:35.92	255.67	24.12	-42.2	-46.4	11.6	7.51e-04	0	62	0	503316480	55	6023
2026-01-26 11:26:36.93	255.95	24.16	-42.2	-46.4	11.6	5.85e-04	0	62	0	505413632	55	6007
2026-01-26 11:26:37.94	256.23	24.19	-42.3	-46.4	11.6	6.19e-04	0	62	0	506462208	55	6022
2026-01-26 11:26:38.95	256.51	24.22	-42.4	-46.7	11.4	9.71e-04	0	62	0	508559360	55	6205
2026-01-26 11:26:39.96	256.80	24.26	-42.5	-47.0	11.0	1.39e-03	0	62	0	510656512	55	6429
2026-01-26 11:26:40.97	257.08	24.29	-42.6	-47.1	10.8	2.13e-03	0	62	0	512753664	55	6540
2026-01-26 11:26:41.98	257.36	24.32	-42.6	-47.3	10.6	3.02e-03	0	62	0	513802240	55	6689
2026-01-26 11:26:42.98	257.65	24.35	-42.7	-47.4	10.6	3.30e-03	0	62	0	515899392	55	6748
2026-01-26 11:26:43.99	257.93	24.38	-42.6	-47.3	10.6	3.80e-03	0	62	0	517996544	55	6690
2026-01-26 11:26:45.00	258.22	24.41	-42.6	-47.2	10.7	3.25e-03	0	62	0	520093696	55	6633
2026-01-26 11:26:46.01	258.51	24.44	-42.5	-47.1	10.9	2.39e-03	0	62	0	522190848	55	6536
2026-01-26 11:26:47.03	258.80	24.47	-42.5	-47.1	10.8	2.38e-03	0	62	0	524288000	55	6529
2026-01-26 11:26:48.03	259.08	24.50	-42.5	-47.0	10.9	2.47e-03	0	62	0	525336576	55	6475
2026-01-26 11:26:49.04	259.37	24.53	-42.4	-46.8	11.1	1.47e-03	0	62	0	527433728	55	6290
2026-01-26 11:26:50.05	259.66	24.55	-42.4	-46.7	11.3	1.39e-03	0	62	0	529530880	55	6217
2026-01-26 11:26:51.06	259.95	24.58	-42.4	-46.8	11.1	1.52e-03	0	62	0	531628032	55	6329
2026-01-26 11:26:52.07	260.24	24.60	-42.5	-46.9	11.1	1.71e-03	0	62	0	533725184	55	6382
2026-01-26 11:26:53.08	260.53	24.63	-42.5	-47.0	10.9	1.98e-03	0	62	0	534773760	55	6458
2026-01-26 11:26:54.09	260.82	24.65	-42.5	-47.0	10.9	2.09e-03	0	62	0	536870912	55	6494
2026-01-26 11:26:55.10	261.11	24.67	-42.5	-46.9	11.0	1.85e-03	0	62	0	538968064	55	6411
2026-01-26 11:26:56.11	261.40	24.69	-42.4	-46.8	11.2	1.67e-03	0	62	0	541065216	55	6323
2026-01-26 11:26:57.12	261.69	24.71	-42.3	-46.6	11.4	1.16e-03	0	62	0	543162368	55	6159
2026-01-26 11:26:58.13	261.98	24.73	-42.2	-46.3	11.7	7.36e-04	0	62	0	544210944	55	5971
2026-01-26 11:26:59.14	262.27	24.75	-42.1	-46.1	12.0	4.32e-04	0	62	0	546308096	55	5802
2026-01-26 11:27:00.15	262.57	24.77	-42.1	-46.0	12.0	3.43e-04	0	62	0	548405248	55	5780
2026-01-26 11:27:01.16	262.86	24.79	-42.0	-45.9	12.1	2.78e-04	0	62	0	550502400	55	5706
2026-01-26 11:27:02.17	263.15	24.81	-42.0	-45.9	12.1	2.48e-04	0	62	0	552599552	55	5713
2026-01-26 11:27:03.18	263.45	24.83	-42.1	-46.1	11.9	2.68e-04	0	62	0	553648128	55	5789
2026-01-26 11:27:04.19	263.74	24.84	-42.2	-46.3	11.7	4.54e-04	0	62	0	555745280	55	5931
2026-01-26 11:27:05.19	264.03	24.86	-42.1	-46.1	11.9	3.88e-04	0	62	0	557842432	55	5806
2026-01-26 11:27:06.20	264.33	24.87	-42.0	-46.0	12.0	3.17e-04	0	62	0	559939584	55	5734
2026-01-26 11:27:07.21	264.62	24.88	-42.1	-46.1	11.9	3.45e-04	0	62	0	562036736	55	5791
2026-01-26 11:27:08.22	264.92	24.90	-42.0	-45.9	12.1	2.66e-04	0	62	0	563085312	55	5690
2026-01-26 11:27:09.23	265.21	24.91	-41.9	-45.8	12.2	2.37e-04	0	62	0	565182464	55	5612
2026-01-26 11:27:10.24	265.51	24.92	-41.8	-45.5	12.6	1.36e-04	0	62	0	567279616	55	5437
2026-01-26 11:27:11.25	265.80	24.93	-41.8	-45.5	12.5	1.01e-04	0	62	0	569376768	55	5427
2026-01-26 11:27:12.26	266.10	24.94	-41.9	-45.7	12.4	1.17e-04	0	62	0	571473920	55	5554
2026-01-26 11:27:13.27	266.39	24.95	-42.0	-45.9	12.1	2.08e-04	0	62	0	572522496	55	5704
2026-01-26 11:27:14.28	266.69	24.96	-42.2	-46.3	11.7	4.22e-04	0	62	0	574619648	55	5938
2026-01-26 11:27:15.29	266.99	24.96	-42.3	-46.7	11.4	7.19e-04	0	62	0	576716800	55	6210
2026-01-26 11:27:16.30	267.28	24.97	-42.4	-46.8	11.2	1.19e-03	0	62	0	578813952	55	6293
2026-01-26 11:27:17.31	267.58	24.97	-42.4	-46.8	11.2	1.40e-03	0	62	0	580911104	55	6307
2026-01-26 11:27:18.32	267.87	24.98	-42.3	-46.5	11.4	1.09e-03	0	62	0	581959680	55	6109
2026-01-26 11:27:19.33	268.17	24.98	-42.1	-46.2	11.8	5.76e-04	0	62	0	584056832	55	5888
2026-01-26 11:27:20.34	268.47	24.99	-42.0	-45.9	12.1	2.88e-04	0	62	0	586153984	55	5690
2026-01-26 11:27:21.35	268.76	24.99	-41.9	-45.8	12.2	2.28e-04	0	62	0	588251136	55	5595
2026-01-26 11:27:22.36	269.06	24.99	-41.8	-45.6	12.4	1.75e-04	0	62	0	590348288	55	5490
2026-01-26 11:27:23.37	269.36	24.99	-41.9	-45.6	12.4	1.42e-04	0	62	0	592445440	55	5527
2026-01-26 11:27:24.38	269.65	24.99	-41.9	-45.7	12.3	1.46e-04	0	62	0	593494016	55	5538
2026-01-26 11:27:25.39	269.95	24.99	-42.0	-45.9	12.2	1.77e-04	0	62	0	595591168	55	5663
2026-01-26 11:27:26.40	270.25	24.99	-42.0	-45.9	12.1	2.65e-04	0	62	0	597688320	55	5708
2026-01-26 11:27:27.41	270.54	24.99	-42.0	-46.0	12.0	3.20e-04	0	62	0	599785472	55	5723
2026-01-26 11:27:28.42	270.84	24.98	-42.1	-46.0	12.0	2.97e-04	0	62	0	601882624	55	5776
2026-01-26 11:27:29.43	271.14	24.98	-42.0	-46.0	12.0	3.62e-04	0	62	0	602931200	55	5735
2026-01-26 11:27:30.44	271.43	24.97	-42.0	-45.8	12.2	2.72e-04	0	62	0	605028352	55	5645
2026-01-26 11:27:31.45	271.73	24.97	-41.9	-45.7	12.3	1.75e-04	0	62	0	607125504	55	5533
2026-01-26 11:27:32.46	272.03	24.96	-41.8	-45.5	12.5	1.69e-04	0	62	0	609222656	55	5449
2026-01-26 11:27:33.47	272.32	24.95	-41.7	-45.4	12.7	8.54e-05	0	62	0	611319808	55	5352
2026-01-26 11:27:34.47	272.61	24.95	-41.7	-45.4	12.7	9.30e-05	0	62	0	612368384	55	5345
2026-01-26 11:27:35.48	272.91	24.94	-41.8	-45.5	12.6	9.23e-05	0	62	0	614465536	55	5416
2026-01-26 11:27:36.49	273.21	24.93	-41.9	-45.6	12.4	1.38e-04	0	62	0	616562688	55	5492
2026-01-26 11:27:37.50	273.50	24.92	-42.0	-45.8	12.2	1.85e-04	0	62	0	618659840	55	5640
2026-01-26 11:27:38.51	273.80	24.91	-42.0	-45.9	12.1	2.41e-04	0	62	0	620756992	55	5676
2026-01-26 11:27:39.52	274.09	24.89	-42.0	-45.9	12.1	2.55e-04	0	62	0	621805568	55	5688
2026-01-26 11:27:40.53	274.39	24.88	-42.0	-45.9	12.1	2.98e-04	0	62	0	623902720	55	5721
2026-01-26 11:27:41.54	274.68	24.87	-41.9	-45.7	12.3	1.81e-04	0	62	0	625999872	55	5548
2026-01-26 11:27:42.55	274.97	24.85	-41.8	-45.5	12.4	1.59e-04	0	62	0	628097024	55	5464
2026-01-26 11:27:43.56	275.27	24.84	-41.7	-45.4	12.6	9.53e-05	0	62	0	630194176	55	5353
2026-01-26 11:27:44.57	275.56	24.82	-41.7	-45.4	12.6	9.68e-05	0	62	0	631242752	55	5369
2026-01-26 11:27:45.58	275.85	24.81	-41.7	-45.3	12.7	9.23e-05	0	62	0	633339904	55	5303
2026-01-26 11:27:46.59	276.15	24.79	-41.8	-45.5	12.5	1.04e-04	0	62	0	635437056	55	5442
2026-01-26 11:27:47.60	276.44	24.77	-41.9	-45.8	12.3	1.19e-04	0	62	0	637534208	55	5597
2026-01-26 11:27:48.61	276.73	24.75	-42.1	-46.1	11.9	2.58e-04	0	62	0	639631360	55	5815
2026-01-26 11:27:49.62	277.02	24.73	-42.2	-46.3	11.7	5.16e-04	0	62	0	640679936	55	5927
2026-01-26 11:27:50.63	277.32	24.71	-42.2	-46.4	11.6	6.91e-04	0	62	0	642777088	55	6020
2026-01-26 11:27:51.64	277.61	24.69	-42.2	-46.4	11.6	7.26e-04	0	62	0	644874240	55	5998
2026-01-26 11:27:52.65	277.90	24.67	-42.2	-46.2	11.8	5.32e-04	0	62	0	646971392	55	5899
2026-01-26 11:27:53.66	278.19	24.65	-42.2	-46.3	11.6	5.03e-04	0	62	0	649068544	55	5977
2026-01-26 11:27:54.67	278.48	24.62	-42.2	-46.2	11.8	5.56e-04	0	62	0	650117120	55	5921
2026-01-26 11:27:55.68	278.77	24.60	-42.2	-46.3	11.7	6.03e-04	0	62	0	652214272	55	5965
2026-01-26 11:27:56.69	279.06	24.58	-42.2	-46.2	11.8	5.66e-04	0	62	0	654311424	55	5901
2026-01-26 11:27:57.70	279.34	24.55	-42.1	-46.1	11.9	4.29e-04	0	62	0	656408576	55	5839
2026-01-26 11:27:58.70	279.63	24.52	-42.0	-46.0	12.0	4.27e-04	0	62	0	658505728	55	5753
2026-01-26 11:27:59.71	279.92	24.50	-42.0	-46.0	12.0	2.98e-04	0	62	0	660602880	55	5750
2026-01-26 11:28:00.72	280.20	24.47	-41.9	-45.8	12.2	2.10e-04	0	62	0	661651456	55	5608
2026-01-26 11:28:01.73	280.49	24.44	-42.0	-46.0	12.1	2.30e-04	0	62	0	663748608	55	5725
2026-01-26 11:28:02.74	280.78	24.41	-42.1	-46.1	11.9	3.97e-04	0	62	0	665845760	55	5810
2026-01-26 11:28:03.75	281.06	24.38	-42.1	-46.2	11.8	3.78e-04	0	62	0	667942912	55	5868
2026-01-26 11:28:04.76	281.35	24.35	-42.1	-46.2	11.8	5.08e-04	0	62	0	670040064	55	5876
2026-01-26 11:28:05.77	281.63	24.32	-42.1	-46.2	11.8	4.74e-04	0	62	0	671088640	55	5861
2026-01-26 11:28:06.78	281.92	24.29	-42.1	-46.0	11.9	3.62e-04	0	62	0	673185792	55	5779
2026-01-26 11:28:07.79	282.20	24.26	-41.9	-45.7	12.3	2.42e-04	0	62	0	675282944	55	5579
2026-01-26 11:28:08.80	282.48	24.22	-41.9	-45.6	12.4	1.50e-04	0	62	0	677380096	55	5522
2026-01-26 11:28:09.81	282.76	24.19	-41.8	-45.5	12.5	1.31e-04	0	62	0	679477248	55	5452
2026-01-26 11:28:10.82	283.05	24.15	-41.9	-45.7	12.3	1.81e-04	0	62	0	680525824	55	5567
2026-01-26 11:28:11.83	283.33	24.12	-42.0	-45.8	12.2	1.99e-04	0	62	0	682622976	55	5645
2026-01-26 11:28:12.84	283.61	24.08	-41.9	-45.8	12.2	2.10e-04	0	62	0	684720128	55	5612
2026-01-26 11:28:13.85	283.89	24.05	-41.9	-45.6	12.4	1.56e-04	0	62	0	686817280	55	5508
2026-01-26 11:28:14.86	284.17	24.01	-41.8	-45.5	12.5	1.43e-04	0	62	0	688914432	55	5447
2026-01-26 11:28:15.87	284.44	23.97	-41.7	-45.3	12.8	7.55e-05	0	62	0	689963008	55	5297
2026-01-26 11:28:16.88	284.72	23.93	-41.6	-45.2	12.8	5.49e-05	0	62	0	692060160	55	5250
2026-01-26 11:28:17.89	285.00	23.89	-41.6	-45.1	13.0	5.79e-05	0	62	0	694157312	55	5167
2026-01-26 11:28:18.90	285.27	23.86	-41.6	-45.1	13.0	4.19e-05	0	62	0	696254464	55	5170
2026-01-26 11:28:19.91	285.55	23.81	-41.6	-45.2	12.9	3.66e-05	0	62	0	698351616	55	5240
2026-01-26 11:28:20.92	285.83	23.77	-41.6	-45.2	12.8	6.79e-05	0	62	0	699400192	55	5250
2026-01-26 11:28:21.93	286.10	23.73	-41.6	-45.1	12.9	4.73e-05	0	62	0	701497344	55	5212
2026-01-26 11:28:22.94	286.37	23.69	-41.6	-45.0	13.0	3.96e-05	0	62	0	703594496	55	5151
2026-01-26 11:28:23.95	286.65	23.65	-41.6	-45.0	13.0	4.34e-05	0	62	0	705691648	55	5153
2026-01-26 11:28:24.96	286.92	23.60	-41.6	-45.2	12.9	4.27e-05	0	62	0	707788800	55	5220
2026-01-26 11:28:25.97	287.19	23.56	-41.6	-45.0	13.0	5.26e-05	0	62	0	708837376	55	5142
2026-01-26 11:28:26.98	287.46	23.52	-41.5	-44.9	13.1	3.73e-05	0	62	0	710934528	55	5095
2026-01-26 11:28:27.99	287.73	23.47	-41.5	-45.0	13.1	2.13e-05	0	62	0	713031680	55	5129
2026-01-26 11:28:28.99	287.99	23.43	-41.5	-45.0	13.1	2.67e-05	0	62	0	715128832	55	5119
2026-01-26 11:28:30.00	288.26	23.38	-41.5	-45.0	13.0	3.05e-05	0	62	0	717225984	55	5147
2026-01-26 11:28:31.01	288.53	23.33	-41.4	-44.8	13.2	2.36e-05	0	62	0	718274560	54	5313
2026-01-26 11:28:32.02	288.80	23.29	-41.3	-44.6	13.5	1.37e-05	0	62	0	720371712	54	5177
2026-01-26 11:28:33.03	289.06	23.24	-41.2	-44.5	13.6	1.44e-05	0	62	0	722468864	54	5120
2026-01-26 11:28:34.04	289.33	23.19	-41.2	-44.5	13.6	6.80e-06	0	62	0	724566016	54	5111
2026-01-26 11:28:35.05	289.59	23.14	-41.2	-44.4	13.7	9.10e-06	0	62	0	726663168	54	5067
2026-01-26 11:28:36.06	289.85	23.09	-41.1	-44.3	13.8	9.10e-06	0	62	0	728760320	54	5016
2026-01-26 11:28:37.07	290.12	23.04	-41.1	-44.2	13.9	9.10e-06	0	62	0	729808896	54	4943
2026-01-26 11:28:38.08	290.38	22.99	-41.0	-44.0	14.0	3.00e-06	0	62	0	731906048	54	4857
2026-01-26 11:28:39.09	290.64	22.94	-41.0	-44.0	14.1	3.00e-06	0	62	0	734003200	53	5133
2026-01-26 11:28:40.10	290.90	22.89	-40.9	-43.9	14.1	4.50e-06	0	62	0	736100352	53	5093
2026-01-26 11:28:41.11	291.16	22.84	-40.8	-43.7	14.3	7.00e-07	0	62	0	738197504	53	4969
2026-01-26 11:28:42.12	291.42	22.78	-40.8	-43.8	14.3	1.50e-06	0	62	0	739246080	53	4993
2026-01-26 11:28:43.13	291.67	22.73	-40.8	-43.8	14.3	0.00e+00	0	62	0	741343232	53	4988
2026-01-26 11:28:44.15	291.93	22.68	-40.8	-43.7	14.3	0.00e+00	0	62	0	743440384	53	4963
2026-01-26 11:28:45.16	292.19	22.62	-40.8	-43.8	14.3	0.00e+00	0	62	0	745537536	53	4987
2026-01-26 11:28:46.16	292.44	22.57	-40.7	-43.6	14.4	2.20e-06	0	62	0	747634688	53	4913
2026-01-26 11:28:47.18	292.70	22.52	-40.7	-43.6	14.5	0.00e+00	0	62	0	748683264	53	4890
2026-01-26 11:28:48.19	292.95	22.46	-40.8	-43.8	14.3	7.00e-07	0	62	0	750780416	53	4992
2026-01-26 11:28:49.20	293.20	22.40	-41.0	-44.1	14.0	3.00e-06	0	62	0	752877568	53	5165
2026-01-26 11:28:50.21	293.45	22.35	-41.1	-44.3	13.8	5.30e-06	0	62	0	754974720	53	5283
2026-01-26 11:28:51.22	293.70	22.29	-41.3	-44.5	13.5	6.80e-06	0	62	0	757071872	53	5464
2026-01-26 11:28:52.23	293.95	22.23	-41.3	-44.7	13.4	1.52e-05	0	62	0	758120448	53	5531
2026-01-26 11:28:53.24	294.20	22.18	-41.3	-44.5	13.4	1.90e-05	0	62	0	760217600	53	5457
2026-01-26 11:28:54.25	294.45	22.12	-41.2	-44.4	13.6	1.06e-05	0	62	0	762314752	53	5382
2026-01-26 11:28:55.26	294.70	22.06	-41.1	-44.3	13.7	3.00e-06	0	62	0	764411904	53	5339
2026-01-26 11:28:56.27	294.94	22.00	-41.1	-44.2	13.7	4.50e-06	0	62	0	766509056	53	5278
2026-01-26 11:28:57.27	295.19	21.95	-41.0	-44.0	14.0	4.50e-06	0	62	0	767557632	53	5158
2026-01-26 11:28:58.28	295.43	21.89	-41.0	-44.2	13.8	3.00e-06	0	62	0	769654784	53	5243
2026-01-26 11:28:59.29	295.67	21.83	-41.0	-44.1	13.9	2.20e-06	0	62	0	771751936	53	5167
2026-01-26 11:29:00.30	295.91	21.77	-41.0	-44.2	13.8	2.20e-06	0	62	0	773849088	53	5220
2026-01-26 11:29:01.31	296.16	21.71	-41.0	-44.1	13.9	4.50e-06	0	62	0	775946240	53	5207
2026-01-26 11:29:02.32	296.40	21.64	-41.0	-44.2	13.8	4.50e-06	0	62	0	776994816	53	5245
2026-01-26 11:29:03.33	296.64	21.58	-41.1	-44.4	13.6	4.50e-06	0	62	0	779091968	53	5346
2026-01-26 11:29:04.34	296.87	21.52	-41.3	-44.6	13.4	1.44e-05	0	62	0	781189120	53	5502
2026-01-26 11:29:05.35	297.11	21.46	-41.5	-44.9	13.0	3.20e-05	0	62	0	783286272	53	5692
2026-01-26 11:29:06.36	297.35	21.40	-41.7	-45.4	12.6	6.86e-05	0	62	0	785383424	53	6012
2026-01-26 11:29:07.37	297.58	21.34	-41.9	-45.8	12.1	1.94e-04	0	62	0	786432000	54	5955
2026-01-26 11:29:08.38	297.82	21.27	-42.0	-45.9	12.0	2.63e-04	0	62	0	788529152	54	6031
2026-01-26 11:29:09.39	298.05	21.21	-42.0	-46.1	11.8	3.71e-04	0	62	0	790626304	54	6145
2026-01-26 11:29:10.40	298.28	21.15	-42.0	-46.1	11.8	4.54e-04	0	62	0	792723456	54	6169
2026-01-26 11:29:11.41	298.52	21.08	-42.1	-46.2	11.7	5.07e-04	0	62	0	794820608	54	6231
2026-01-26 11:29:12.41	298.75	21.02	-42.1	-46.3	11.7	5.83e-04	0	62	0	796917760	54	6285
2026-01-26 11:29:13.43	298.98	20.95	-42.1	-46.1	11.8	5.25e-04	0	62	0	797966336	54	6175
2026-01-26 11:29:14.43	299.20	20.89	-42.0	-45.9	12.0	3.90e-04	0	62	0	800063488	54	6057
2026-01-26 11:29:15.44	299.43	20.83	-41.9	-45.7	12.2	2.84e-04	0	62	0	802160640	54	5889
2026-01-26 11:29:16.45	299.66	20.76	-41.7	-45.4	12.6	1.72e-04	0	62	0	804257792	54	5662
2026-01-26 11:29:17.46	299.89	20.69	-41.5	-45.0	12.9	5.72e-05	0	62	0	806354944	54	5421
2026-01-26 11:29:18.47	300.11	20.63	-41.5	-44.9	13.0	4.19e-05	0	62	0	807403520	54	5394
2026-01-26 11:29:19.48	300.34	20.56	-41.4	-44.9	13.1	3.58e-05	0	62	0	809500672	54	5367
2026-01-26 11:29:20.49	300.56	20.50	-41.4	-44.8	13.1	3.35e-05	0	62	0	811597824	54	5329
2026-01-26 11:29:21.50	300.78	20.43	-41.5	-45.0	12.9	3.89e-05	0	62	0	813694976	54	5446
2026-01-26 11:29:22.51	301.00	20.36	-41.6	-45.2	12.8	5.49e-05	0	62	0	815792128	54	5555
2026-01-26 11:29:23.52	301.22	20.30	-41.7	-45.3	12.6	7.01e-05	0	62	0	816840704	54	5634
2026-01-26 11:29:24.53	301.44	20.23	-41.8	-45.5	12.4	1.17e-04	0	62	0	818937856	54	5749
2026-01-26 11:29:25.54	301.66	20.16	-41.8	-45.6	12.3	1.55e-04	0	62	0	821035008	54	5821
2026-01-26 11:29:26.55	301.88	20.09	-41.8	-45.7	12.2	1.79e-04	0	62	0	823132160	54	5897
2026-01-26 11:29:27.56	302.10	20.03	-41.9	-45.7	12.2	2.33e-04	0	62	0	825229312	54	5899
2026-01-26 11:29:28.57	302.31	19.96	-41.9	-45.8	12.1	2.57e-04	0	62	0	826277888	54	5946
2026-01-26 11:29:29.58	302.53	19.89	-41.9	-45.9	12.0	3.04e-04	0	62	0	828375040	54	5997
2026-01-26 11:29:30.59	302.74	19.82	-41.9	-45.9	12.0	3.20e-04	0	62	0	830472192	54	5993
2026-01-26 11:29:31.60	302.95	19.75	-41.9	-45.9	12.0	3.13e-04	0	62	0	832569344	54	6008
2026-01-26 11:29:32.61	303.17	19.68	-41.8	-45.7	12.2	2.80e-04	0	62	0	834666496	54	5898
2026-01-26 11:29:33.62	303.38	19.62	-41.8	-45.6	12.3	1.77e-04	0	62	0	835715072	54	5835
2026-01-26 11:29:34.62	303.58	19.55	-41.8	-45.6	12.3	1.56e-04	0	62	0	837812224	54	5799
2026-01-26 11:29:35.63	303.79	19.48	-41.6	-45.2	12.7	8.92e-05	0	62	0	839909376	54	5568
2026-01-26 11:29:36.64	304.00	19.41	-41.6	-45.3	12.6	7.09e-05	0	62	0	842006528	54	5595
2026-01-26 11:29:37.65	304.21	19.34	-41.5	-45.1	12.8	6.48e-05	0	62	0	844103680	54	5513
2026-01-26 11:29:38.66	304.42	19.27	-41.7	-45.4	12.5	7.78e-05	0	62	0	845152256	54	5676
2026-01-26 11:29:39.67	304.62	19.20	-41.8	-45.6	12.3	1.23e-04	0	62	0	847249408	54	5820
2026-01-26 11:29:40.68	304.83	19.13	-41.8	-45.6	12.3	2.06e-04	0	62	0	849346560	54	5825
2026-01-26 11:29:41.69	305.03	19.06	-41.7	-45.5	12.4	1.60e-04	0	62	0	851443712	54	5748
2026-01-26 11:29:42.70	305.23	18.99	-41.6	-45.3	12.6	1.17e-04	0	62	0	853540864	54	5648
2026-01-26 11:29:43.71	305.43	18.92	-41.6	-45.2	12.7	7.62e-05	0	62	0	854589440	54	5578
2026-01-26 11:29:44.72	305.64	18.84	-41.6	-45.2	12.7	6.79e-05	0	62	0	856686592	54	5562
2026-01-26 11:29:45.73	305.84	18.77	-41.6	-45.3	12.6	8.62e-05	0	62	0	858783744	54	5631
2026-01-26 11:29:46.74	306.03	18.70	-41.7	-45.4	12.5	1.13e-04	0	62	0	860880896	54	5667
2026-01-26 11:29:47.75	306.23	18.63	-41.7	-45.5	12.4	1.35e-04	0	62	0	862978048	54	5739
2026-01-26 11:29:48.76	306.43	18.56	-41.7	-45.5	12.3	1.51e-04	0	62	0	865075200	54	5778
2026-01-26 11:29:49.76	306.62	18.49	-41.8	-45.6	12.3	1.70e-04	0	62	0	866123776	54	5806
2026-01-26 11:29:50.77	306.82	18.42	-41.8	-45.7	12.2	2.24e-04	0	62	0	868220928	54	5863
2026-01-26 11:29:51.78	307.01	18.35	-41.8	-45.7	12.1	2.12e-04	0	62	0	870318080	54	5911
2026-01-26 11:29:52.79	307.21	18.27	-41.8	-45.8	12.1	3.00e-04	0	62	0	872415232	54	5942
2026-01-26 11:29:53.80	307.40	18.20	-41.9	-45.9	12.0	3.34e-04	0	62	0	874512384	54	6001
2026-01-26 11:29:54.81	307.59	18.13	-42.0	-46.0	11.8	4.36e-04	0	62	0	875560960	54	6122
2026-01-26 11:29:55.82	307.78	18.06	-42.2	-46.4	11.4	6.05e-04	0	62	0	877658112	54	6392
2026-01-26 11:29:56.83	307.97	17.99	-42.2	-46.4	11.4	1.03e-03	0	62	0	879755264	54	6403
2026-01-26 11:29:57.84	308.16	17.91	-42.2	-46.6	11.3	1.08e-03	0	62	0	881852416	54	6507
2026-01-26 11:29:58.85	308.35	17.84	-42.1	-46.4	11.4	1.19e-03	0	62	0	883949568	54	6391
2026-01-26 11:29:59.86	308.54	17.77	-42.0	-46.1	11.7	7.02e-04	0	62	0	884998144	54	6183
2026-01-26 11:30:00.87	308.73	17.70	-41.9	-45.8	12.0	3.88e-04	0	62	0	887095296	54	5972
2026-01-26 11:30:01.88	308.91	17.62	-41.8	-45.6	12.2	2.44e-04	0	62	0	889192448	54	5842
2026-01-26 11:30:02.89	309.10	17.55	-41.6	-45.3	12.6	1.49e-04	0	62	0	891289600	54	5593
2026-01-26 11:30:03.90	309.28	17.48	-41.6	-45.3	12.5	9.84e-05	0	62	0	893386752	54	5644
2026-01-26 11:30:04.91	309.46	17.41	-41.8	-45.6	12.2	1.50e-04	0	62	0	894435328	54	5851
2026-01-26 11:30:05.92	309.65	17.33	-41.9	-45.9	11.9	3.69e-04	0	62	0	896532480	54	6048
2026-01-26 11:30:06.93	309.83	17.26	-42.1	-46.3	11.4	7.46e-04	0	62	0	898629632	54	6330
2026-01-26 11:30:07.94	310.01	17.19	-42.2	-46.7	11.1	1.19e-03	0	62	0	900726784	54	6583
2026-01-26 11:30:08.95	310.19	17.11	-42.2	-46.5	11.2	1.36e-03	0	62	0	902823936	54	6473
2026-01-26 11:30:09.96	310.37	17.04	-42.0	-46.2	11.5	9.69e-04	0	62	0	903872512	54	6265
2026-01-26 11:30:10.96	310.54	16.97	-41.9	-46.0	11.9	6.38e-04	0	62	0	905969664	54	6077
2026-01-26 11:30:11.97	310.72	16.90	-41.8	-45.7	12.1	3.49e-04	0	62	0	908066816	54	5917
2026-01-26 11:30:12.99	310.90	16.82	-41.6	-45.7	12.1	2.54e-04	0	62	0	910163968	54	5864
2026-01-26 11:30:14.00	311.07	16.75	-41.4	-45.6	12.2	2.57e-04	0	62	0	912261120	54	5816
2026-01-26 11:30:15.01	311.25	16.68	-41.6	-45.8	12.0	2.85e-04	0	62	0	913309696	54	5926
2026-01-26 11:30:16.01	311.42	16.60	-41.8	-45.9	11.8	4.28e-04	0	62	0	915406848	54	6051
2026-01-26 11:30:17.03	311.60	16.53	-41.8	-46.1	11.6	5.09e-04	0	62	0	917504000	54	6196
2026-01-26 11:30:18.03	311.77	16.46	-41.6	-46.2	11.5	6.96e-04	0	62	0	919601152	54	6221
2026-01-26 11:30:19.04	311.94	16.38	-41.6	-46.2	11.5	8.76e-04	0	62	0	921698304	54	6212
2026-01-26 11:30:20.05	312.11	16.31	-40.5	-46.1	11.3	9.78e-04	0	62	0	922746880	53	6510
2026-01-26 11:30:21.06	312.28	16.24	-41.0	-46.1	11.4	1.11e-03	0	62	0	924844032	52	6895
2026-01-26 11:30:22.07	312.45	16.16	-41.4	-46.2	11.4	9.55e-04	0	62	0	926941184	53	6591
2026-01-26 11:30:23.08	312.62	16.09	-40.9	-46.0	11.5	8.82e-04	0	62	0	929038336	53	6426
2026-01-26 11:30:24.09	312.78	16.02	-38.0	-45.9	10.9	8.98e-04	0	62	0	931135488	48	8471
2026-01-26 11:30:25.10	312.95	15.94	-34.6	-45.5	9.8	4.62e-03	0	62	0	933232640	41	12137
2026-01-26 11:30:26.11	313.11	15.87	-39.2	-46.2	10.8	6.02e-03	0	62	0	934281216	48	8785
2026-01-26 11:30:27.12	313.28	15.80	-33.9	-45.9	9.0	2.05e-03	0	62	0	936378368	39	14304
2026-01-26 11:30:28.13	313.44	15.72	-28.8	-45.2	6.3	1.31e-01	0	62	0	938475520	29	23387
2026-01-26 11:30:29.14	313.61	15.65	-30.6	-45.6	7.1	2.17e-01	0	62	0	940572672	31	21819
2026-01-26 11:30:30.15	313.77	15.58	-34.3	-46.4	9.1	4.51e-02	0	62	0	942669824	39	15113
2026-01-26 11:30:31.16	313.93	15.50	-34.3	-46.3	9.0	2.16e-02	0	62	0	943718400	39	15041
2026-01-26 11:30:32.17	314.09	15.43	-36.3	-46.1	9.8	1.19e-02	0	62	0	945815552	43	11641
2026-01-26 11:30:33.18	314.25	15.36	-38.6	-46.1	10.8	3.24e-03	0	62	0	947912704	47	9218
2026-01-26 11:30:34.19	314.41	15.28	-40.0	-46.2	11.2	1.48e-03	0	62	0	950009856	50	7817
2026-01-26 11:30:35.19	314.57	15.21	-40.8	-46.0	11.4	8.66e-04	0	62	0	952107008	52	6869
2026-01-26 11:30:36.20	314.73	15.14	-41.4	-46.1	11.5	6.71e-04	0	62	0	953155584	53	6522
2026-01-26 11:30:37.22	314.89	15.06	-41.8	-46.2	11.4	7.60e-04	0	62	0	955252736	54	6239
2026-01-26 11:30:38.22	315.04	14.99	-42.1	-46.7	11.0	1.23e-03	0	62	0	957349888	54	6617
2026-01-26 11:30:39.23	315.20	14.92	-42.2	-46.8	10.9	2.03e-03	0	62	0	959447040	55	6278
2026-01-26 11:30:40.24	315.35	14.84	-42.3	-46.8	10.9	2.25e-03	0	62	0	961544192	55	6323
2026-01-26 11:30:41.25	315.51	14.77	-42.2	-46.8	10.9	2.49e-03	0	62	0	962592768	55	6300
2026-01-26 11:30:42.26	315.66	14.70	-42.2	-46.7	11.0	2.07e-03	0	62	0	964689920	55	6209
2026-01-26 11:30:43.27	315.81	14.62	-42.1	-46.5	11.2	1.48e-03	0	62	0	966787072	55	6083
2026-01-26 11:30:44.28	315.97	14.55	-41.9	-46.1	11.6	1.02e-03	0	62	0	968884224	55	5795
2026-01-26 11:30:45.30	316.12	14.48	-41.8	-45.8	11.9	4.13e-04	0	62	0	970981376	55	5648
2026-01-26 11:30:46.31	316.27	14.41	-41.8	-45.9	11.8	3.71e-04	0	62	0	972029952	55	5706
2026-01-26 11:30:47.32	316.42	14.33	-41.9	-45.9	11.7	5.29e-04	0	62	0	974127104	55	5712
2026-01-26 11:30:48.33	316.57	14.26	-42.0	-46.2	11.5	6.59e-04	0	62	0	976224256	55	5867
2026-01-26 11:30:49.34	316.72	14.19	-42.1	-46.5	11.2	1.04e-03	0	62	0	978321408	55	6089
2026-01-26 11:30:50.35	316.87	14.11	-42.2	-46.8	10.8	1.70e-03	0	62	0	980418560	55	6294
2026-01-26 11:30:51.36	317.01	14.04	-42.2	-46.7	10.9	2.20e-03	0	62	0	981467136	55	6262
2026-01-26 11:30:52.37	317.16	13.97	-42.2	-46.7	10.9	2.38e-03	0	62	0	983564288	55	6265
2026-01-26 11:30:53.38	317.30	13.90	-42.2	-46.7	10.9	2.27e-03	0	62	0	985661440	55	6243
2026-01-26 11:30:54.39	317.45	13.82	-42.1	-46.6	11.0	1.99e-03	0	62	0	987758592	55	6139
2026-01-26 11:30:55.40	317.59	13.75	-42.1	-46.5	11.2	1.69e-03	0	62	0	989855744	55	6084
2026-01-26 11:30:56.41	317.74	13.68	-42.0	-46.3	11.3	1.32e-03	0	62	0	990904320	55	5958
2026-01-26 11:30:57.42	317.88	13.61	-41.9	-46.0	11.6	8.76e-04	0	62	0	993001472	55	5763
2026-01-26 11:30:58.43	318.02	13.53	-41.8	-45.9	11.7	5.25e-04	0	62	0	995098624	55	5700
2026-01-26 11:30:59.44	318.16	13.46	-41.9	-46.0	11.6	6.82e-04	0	62	0	997195776	55	5757
2026-01-26 11:31:00.45	318.31	13.39	-41.9	-46.1	11.5	7.77e-04	0	62	0	999292928	55	5817
2026-01-26 11:31:01.46	318.45	13.32	-42.0	-46.3	11.3	1.05e-03	0	62	0	1001390080	55	5988
2026-01-26 11:31:02.47	318.59	13.24	-42.1	-46.5	11.1	1.48e-03	0	62	0	1002438656	55	6107
2026-01-26 11:31:03.48	318.72	13.17	-42.1	-46.6	10.9	2.00e-03	0	62	0	1004535808	55	6190
2026-01-26 11:31:04.49	318.86	13.10	-42.2	-46.7	10.8	2.24e-03	0	62	0	1006632960	55	6243
2026-01-26 11:31:05.50	319.00	13.03	-42.1	-46.6	10.9	2.13e-03	0	62	0	1008730112	55	6195
2026-01-26 11:31:06.51	319.14	12.96	-42.1	-46.6	10.9	2.21e-03	0	62	0	1010827264	55	6197
2026-01-26 11:31:07.52	319.27	12.88	-42.1	-46.6	11.0	1.85e-03	0	62	0	1011875840	55	6165
2026-01-26 11:31:08.53	319.41	12.81	-42.1	-46.7	10.9	2.06e-03	0	62	0	1013972992	55	6206
2026-01-26 11:31:09.54	319.54	12.74	-42.0	-46.4	11.1	2.20e-03	0	62	0	1016070144	55	6056
2026-01-26 11:31:10.55	319.68	12.67	-41.9	-46.2	11.4	1.06e-03	0	62	0	1018167296	55	5883
2026-01-26 11:31:11.56	319.81	12.60	-42.0	-46.3	11.3	1.09e-03	0	62	0	1020264448	55	5929
2026-01-26 11:31:12.57	319.95	12.53	-42.0	-46.4	11.2	1.26e-03	0	62	0	1021313024	55	6014
2026-01-26 11:31:13.58	320.08	12.46	-42.1	-46.5	11.0	1.45e-03	0	62	0	1023410176	55	6106
2026-01-26 11:31:14.59	320.21	12.38	-42.1	-46.7	10.8	2.33e-03	0	62	0	1025507328	55	6246
2026-01-26 11:31:15.61	320.34	12.31	-42.2	-46.9	10.6	3.17e-03	0	62	0	1027604480	55	6381
2026-01-26 11:31:16.62	320.47	12.24	-42.3	-47.1	10.4	3.61e-03	0	62	0	1029701632	55	6523
2026-01-26 11:31:17.63	320.60	12.17	-42.3	-47.2	10.3	5.27e-03	0	62	0	1030750208	55	6589
2026-01-26 11:31:18.64	320.73	12.10	-42.3	-47.2	10.3	5.20e-03	0	62	0	1032847360	55	6605
2026-01-26 11:31:19.65	320.86	12.03	-42.3	-47.2	10.2	5.77e-03	0	62	0	1034944512	55	6625
2026-01-26 11:31:20.66	320.99	11.96	-42.2	-47.0	10.5	4.63e-03	0	62	0	1037041664	55	6483
2026-01-26 11:31:21.67	321.12	11.89	-42.2	-46.9	10.6	3.96e-03	0	62	0	1039138816	55	6398
2026-01-26 11:31:22.68	321.25	11.82	-42.2	-46.9	10.6	3.43e-03	0	62	0	1040187392	55	6351
2026-01-26 11:31:23.69	321.37	11.75	-42.0	-46.5	11.0	2.11e-03	0	62	0	1042284544	55	6096
2026-01-26 11:31:24.70	321.50	11.68	-42.0	-46.4	11.1	1.66e-03	0	62	0	1044381696	55	6043
2026-01-26 11:31:25.71	321.62	11.60	-42.0	-46.4	11.0	2.09e-03	0	62	0	1046478848	55	6058
2026-01-26 11:31:26.72	321.75	11.53	-42.0	-46.4	11.1	1.78e-03	0	62	0	1048576000	55	6016
2026-01-26 11:31:27.73	321.87	11.46	-42.0	-46.5	11.0	1.82e-03	0	62	0	1050673152	55	6084
2026-01-26 11:31:28.74	322.00	11.39	-42.0	-46.4	11.0	1.87e-03	0	62	0	1051721728	55	6028
2026-01-26 11:31:29.75	322.12	11.32	-42.0	-46.5	11.0	1.81e-03	0	62	0	1053818880	55	6083
2026-01-26 11:31:30.76	322.24	11.25	-42.0	-46.6	10.9	2.02e-03	0	62	0	1055916032	55	6145
2026-01-26 11:31:31.77	322.37	11.18	-42.1	-46.7	10.8	2.57e-03	0	62	0	1058013184	55	6211
2026-01-26 11:31:32.78	322.49	11.11	-42.1	-46.7	10.7	2.80e-03	0	62	0	1060110336	55	6240
2026-01-26 11:31:33.79	322.61	11.04	-42.1	-46.8	10.6	3.03e-03	0	62	0	1061158912	55	6318
2026-01-26 11:31:34.80	322.73	10.97	-42.1	-46.8	10.6	3.27e-03	0	62	0	1063256064	55	6313
2026-01-26 11:31:35.81	322.85	10.91	-42.1	-46.8	10.6	3.56e-03	0	62	0	1065353216	55	6334
2026-01-26 11:31:36.82	322.97	10.84	-42.1	-46.9	10.5	3.78e-03	0	62	0	1067450368	55	6389
2026-01-26 11:31:37.83	323.09	10.77	-42.2	-47.0	10.4	4.57e-03	0	62	0	1069547520	55	6485
2026-01-26 11:31:38.84	323.20	10.70	-42.2	-47.0	10.4	4.89e-03	0	62	0	1070596096	55	6454
2026-01-26 11:31:39.85	323.32	10.63	-42.2	-47.1	10.3	4.55e-03	0	62	0	1072693248	55	6496
2026-01-26 11:31:40.86	323.44	10.56	-42.2	-47.1	10.2	5.93e-03	0	62	0	1074790400	55	6533
2026-01-26 11:31:41.87	323.55	10.49	-42.3	-47.3	10.0	6.45e-03	0	62	0	1076887552	55	6705
2026-01-26 11:31:42.88	323.67	10.42	-42.3	-47.4	10.0	7.13e-03	0	62	0	1078984704	55	6742
2026-01-26 11:31:43.89	323.79	10.35	-42.3	-47.5	9.8	8.55e-03	0	62	0	1080033280	55	6808
2026-01-26 11:31:44.90	323.90	10.28	-42.3	-47.6	9.7	1.03e-02	0	62	0	1082130432	55	6883
2026-01-26 11:31:45.91	324.02	10.22	-42.3	-47.5	9.8	1.03e-02	0	62	0	1084227584	55	6816
2026-01-26 11:31:46.92	324.13	10.15	-42.1	-47.5	9.8	1.01e-02	0	62	0	1086324736	55	6830
2026-01-26 11:31:47.93	324.24	10.08	-41.9	-47.5	9.8	1.11e-02	0	62	0	1088421888	55	6805
2026-01-26 11:31:48.94	324.36	10.01	-42.0	-47.5	9.8	1.12e-02	0	62	0	1089470464	55	6830
2026-01-26 11:31:49.95	324.47	9.94	-42.2	-47.5	9.8	9.92e-03	0	62	0	1091567616	55	6803
2026-01-26 11:31:50.96	324.58	9.87	-42.2	-47.5	9.7	1.09e-02	0	62	0	1093664768	55	6866
2026-01-26 11:31:51.97	324.69	9.81	-41.8	-47.5	9.7	1.18e-02	0	62	0	1095761920	55	6831
2026-01-26 11:31:52.98	324.80	9.74	-41.3	-47.4	9.9	1.02e-02	0	62	0	1097859072	54	7152
2026-01-26 11:31:53.99	324.91	9.67	-41.0	-47.2	10.0	9.39e-03	0	62	0	1098907648	54	6988
2026-01-26 11:31:55.00	325.02	9.60	-41.1	-47.2	10.0	7.94e-03	0	62	0	1101004800	54	7013
2026-01-26 11:31:56.01	325.13	9.53	-41.5	-47.4	9.8	1.02e-02	0	62	0	1103101952	54	7196
2026-01-26 11:31:57.02	325.24	9.47	-41.7	-47.4	9.8	8.85e-03	0	62	0	1105199104	54	7160
2026-01-26 11:31:58.03	325.35	9.40	-41.9	-47.3	9.9	8.43e-03	0	62	0	1107296256	54	7104
2026-01-26 11:31:59.04	325.46	9.33	-41.9	-47.5	9.8	1.01e-02	0	62	0	1109393408	54	7216
2026-01-26 11:32:00.05	325.57	9.26	-41.8	-47.5	9.8	1.03e-02	0	62	0	1110441984	54	7211
2026-01-26 11:32:01.06	325.67	9.20	-42.0	-47.8	9.5	1.13e-02	0	62	0	1112539136	54	7480
2026-01-26 11:32:02.07	325.78	9.13	-42.0	-47.6	9.7	1.72e-02	0	62	0	1114636288	54	7291
2026-01-26 11:32:03.08	325.89	9.06	-42.1	-47.8	9.3	1.88e-02	0	62	0	1116733440	54	7528
2026-01-26 11:32:04.09	325.99	9.00	-42.2	-47.8	9.4	1.91e-02	0	62	0	1118830592	55	7101
2026-01-26 11:32:05.10	326.10	8.93	-42.3	-47.9	9.2	1.71e-02	0	62	0	1119879168	55	7200
2026-01-26 11:32:06.11	326.20	8.86	-42.4	-48.2	9.0	2.13e-02	0	62	0	1121976320	55	7373
2026-01-26 11:32:07.12	326.31	8.80	-42.4	-48.1	9.1	2.46e-02	0	62	0	1124073472	55	7325
2026-01-26 11:32:08.12	326.41	8.73	-42.4	-48.1	9.1	2.55e-02	0	62	0	1126170624	55	7321
2026-01-26 11:32:09.14	326.51	8.66	-42.5	-48.4	8.8	3.22e-02	0	62	0	1128267776	55	7565
2026-01-26 11:32:10.14	326.61	8.60	-42.5	-48.5	8.6	3.85e-02	0	62	0	1129316352	55	7662
2026-01-26 11:32:11.15	326.72	8.53	-42.6	-48.6	8.5	3.34e-02	0	62	0	1131413504	55	7741
2026-01-26 11:32:12.16	326.82	8.47	-42.6	-48.7	8.4	4.70e-02	0	62	0	1133510656	55	7842
2026-01-26 11:32:13.17	326.92	8.40	-42.6	-48.6	8.5	4.21e-02	0	62	0	1135607808	55	7759
2026-01-26 11:32:14.18	327.02	8.33	-42.7	-48.8	8.2	4.24e-02	0	62	0	1137704960	55	7989
2026-01-26 11:32:15.19	327.12	8.27	-42.7	-48.9	8.2	4.72e-02	0	62	0	1138753536	55	8007
2026-01-26 11:32:16.20	327.22	8.20	-42.6	-48.6	8.5	4.66e-02	0	62	0	1140850688	55	7750
2026-01-26 11:32:17.21	327.32	8.14	-42.6	-48.7	8.4	5.09e-02	0	62	0	1142947840	55	7844
2026-01-26 11:32:18.22	327.42	8.07	-42.6	-48.7	8.4	4.78e-02	0	62	0	1145044992	55	7814
2026-01-26 11:32:19.23	327.52	8.01	-42.7	-49.0	8.0	5.49e-02	0	62	0	1147142144	55	8132
2026-01-26 11:32:20.24	327.62	7.94	-44.4	-58.8	3.8	1.48e+00	0	62	104	1147142144	59	20027
2026-01-26 11:32:21.25	327.72	7.88	-44.6	-59.1	3.8	1.49e+00	0	62	104	1147142144	59	20595
2026-01-26 11:32:22.26	327.82	7.81	-44.8	-59.4	3.8	1.49e+00	0	62	104	1147142144	60	20234
2026-01-26 11:32:23.27	327.91	7.75	-44.9	-59.5	3.8	1.49e+00	0	62	104	1147142144	60	20486
2026-01-26 11:32:24.28	328.01	7.68	-45.0	-59.7	3.8	1.49e+00	0	62	104	1147142144	60	20868
2026-01-26 11:32:25.29	328.11	7.62	-45.1	-59.8	3.8	1.49e+00	0	62	104	1147142144	60	21035
2026-01-26 11:32:26.30	328.20	7.55	-45.2	-59.8	3.8	1.49e+00	0	62	104	1147142144	60	21181
2026-01-26 11:32:27.31	328.30	7.49	-45.2	-59.8	3.8	1.49e+00	0	62	104	1147142144	60	21122
2026-01-26 11:32:28.32	328.39	7.42	-36.5	-56.3	3.7	1.49e+00	0	62	104	1147142144	45	33451
2026-01-26 11:32:29.33	328.49	7.36	-45.1	-59.8	3.8	1.49e+00	0	62	104	1147142144	60	21193
2026-01-26 11:32:30.34	328.58	7.29	-45.1	-59.7	3.8	1.49e+00	0	62	104	1147142144	60	20968
