passes_logs/2026/01/26/R2.0S_Moscow/R2.0S_Moscow__20260126_105942_SUOMI_NPP_rec.log

#Pass ID: 20260126_105942_SUOMI NPP
#Satellite: SUOMI NPP
#Configuration: NPP
#almurnet v.1.7.20251203
#Start time: 2026-01-26 11:00:53

#Version: 2.2.20231116
#Station: R2.0S_Moscow
#Location: 37.707566 lon 55.798166 lat
#TLE: 1 37849U 11061A   26025.81780576  .00000180  00000+0  10635-3 0  9993
#TLE: 2 37849  98.7822 327.7738 0002159  45.0809 315.0541 14.19529973738242

#Time	Az	El	Level	Level2	SNR	BER	BlckErr	Temp	State	Recorded	gain1	gain2
2026-01-26 11:00:53.94	194.14	6.66	-45.9	-64.5	3.8	7.44e-01	0	62	0	0	62	32326
2026-01-26 11:00:54.94	194.20	6.73	-45.3	-60.0	3.8	1.49e+00	0	62	104	0	62	19192
2026-01-26 11:00:55.95	194.27	6.80	-45.3	-59.9	3.8	1.49e+00	0	62	104	0	62	19133
2026-01-26 11:00:56.96	194.33	6.87	-45.2	-59.9	3.8	1.49e+00	0	62	104	0	62	19131
2026-01-26 11:00:57.97	194.40	6.94	-45.2	-59.9	3.8	1.49e+00	0	62	104	0	62	19098
2026-01-26 11:00:58.98	194.47	7.01	-45.1	-59.8	3.8	1.49e+00	0	62	104	0	62	18916
2026-01-26 11:00:59.99	194.53	7.08	-44.9	-59.7	3.8	1.49e+00	0	62	104	0	61	19658
2026-01-26 11:01:01.01	194.60	7.16	-44.4	-58.9	3.8	1.49e+00	0	62	104	0	59	20206
2026-01-26 11:01:02.02	194.67	7.23	-40.8	-55.1	3.8	1.49e+00	0	62	104	0	53	18513
2026-01-26 11:01:03.03	194.73	7.30	-43.9	-58.2	3.8	1.49e+00	0	62	104	0	59	18690
2026-01-26 11:01:04.04	194.80	7.37	-43.8	-58.1	3.8	1.49e+00	0	62	104	0	59	18454
2026-01-26 11:01:05.05	194.87	7.45	-43.8	-58.1	3.8	1.49e+00	0	62	104	0	59	18333
2026-01-26 11:01:06.06	194.94	7.52	-43.8	-58.0	3.8	1.49e+00	0	62	104	0	59	18302
2026-01-26 11:01:07.07	195.01	7.59	-43.8	-58.0	3.8	1.49e+00	0	62	104	0	59	18232
2026-01-26 11:01:08.08	195.08	7.67	-43.8	-57.9	3.8	1.49e+00	0	62	104	0	59	18074
2026-01-26 11:01:09.09	195.15	7.74	-43.8	-58.0	3.8	1.49e+00	0	62	104	0	59	18104
2026-01-26 11:01:10.10	195.22	7.81	-43.8	-57.9	3.8	1.49e+00	0	62	104	0	59	17967
2026-01-26 11:01:11.11	195.29	7.89	-43.8	-57.8	3.8	1.49e+00	0	62	104	0	59	17857
2026-01-26 11:01:12.12	195.36	7.96	-43.8	-57.8	3.8	1.49e+00	0	62	104	0	59	17745
2026-01-26 11:01:13.14	195.43	8.04	-43.8	-57.7	3.8	1.49e+00	0	62	104	0	59	17588
2026-01-26 11:01:14.15	195.50	8.11	-43.7	-57.6	3.8	1.49e+00	0	62	104	0	59	17339
2026-01-26 11:01:15.16	195.57	8.18	-43.7	-57.4	3.8	1.49e+00	0	62	104	0	59	17062
2026-01-26 11:01:16.17	195.64	8.26	-43.7	-57.2	3.8	1.49e+00	0	62	104	0	59	16629
2026-01-26 11:01:17.18	195.71	8.33	-43.7	-57.0	3.8	1.49e+00	0	62	104	0	59	16193
2026-01-26 11:01:18.19	195.79	8.41	-43.7	-56.7	3.8	1.49e+00	0	62	104	0	59	15598
2026-01-26 11:01:19.20	195.86	8.48	-43.6	-56.2	3.8	1.49e+00	0	62	104	0	59	14861
2026-01-26 11:01:20.21	195.93	8.56	-43.6	-55.8	4.0	1.49e+00	0	62	104	0	59	14095
2026-01-26 11:01:21.22	196.01	8.64	-43.6	-55.3	4.0	1.48e+00	0	62	104	0	59	13394
2026-01-26 11:01:22.23	196.08	8.71	-43.5	-54.8	4.1	1.43e+00	0	62	0	0	59	12608
2026-01-26 11:01:23.24	196.15	8.79	-43.4	-54.2	4.3	1.39e+00	0	62	0	0	58	12472
2026-01-26 11:01:24.25	196.23	8.86	-43.4	-53.7	4.5	1.22e+00	0	62	0	1048576	58	11739
2026-01-26 11:01:25.26	196.30	8.94	-43.4	-53.4	4.6	1.01e+00	0	62	0	3145728	58	11359
2026-01-26 11:01:26.27	196.38	9.02	-43.3	-52.9	4.8	8.70e-01	0	62	0	5242880	58	10729
2026-01-26 11:01:27.29	196.46	9.09	-43.3	-52.8	4.8	8.08e-01	0	62	0	6291456	58	10620
2026-01-26 11:01:28.29	196.53	9.17	-43.2	-52.5	5.0	7.24e-01	0	62	0	8388608	58	10269
2026-01-26 11:01:29.31	196.61	9.25	-43.2	-52.5	5.0	6.86e-01	0	62	0	10485760	58	10201
2026-01-26 11:01:30.32	196.69	9.33	-43.2	-52.4	5.0	6.67e-01	0	62	0	12582912	58	10157
2026-01-26 11:01:31.33	196.76	9.40	-43.2	-52.4	5.1	6.51e-01	0	62	0	14680064	58	10145
2026-01-26 11:01:32.34	196.84	9.48	-43.2	-52.5	5.0	6.93e-01	0	62	0	15728640	58	10273
2026-01-26 11:01:33.34	196.92	9.56	-43.2	-52.6	5.0	6.84e-01	0	62	0	17825792	58	10324
2026-01-26 11:01:34.35	197.00	9.64	-43.2	-52.6	4.9	7.28e-01	0	62	0	19922944	58	10346
2026-01-26 11:01:35.36	197.08	9.72	-43.2	-52.5	5.0	7.24e-01	0	62	0	22020096	58	10206
2026-01-26 11:01:36.37	197.16	9.79	-43.2	-52.2	5.2	6.46e-01	0	62	0	24117248	58	9895
2026-01-26 11:01:37.38	197.24	9.87	-43.1	-51.7	5.5	5.31e-01	0	62	0	25165824	58	9339
2026-01-26 11:01:38.39	197.32	9.95	-43.0	-51.0	5.9	4.10e-01	0	62	0	27262976	58	8644
2026-01-26 11:01:39.40	197.40	10.03	-42.8	-50.5	6.4	3.11e-01	0	62	0	29360128	57	8579
2026-01-26 11:01:40.41	197.48	10.11	-42.6	-49.6	7.1	1.57e-01	0	62	0	31457280	57	7798
2026-01-26 11:01:41.42	197.56	10.19	-42.5	-48.9	7.8	9.44e-02	0	62	0	33554432	56	7585
2026-01-26 11:01:42.43	197.64	10.27	-42.3	-48.2	8.5	5.57e-02	0	62	0	34603008	56	7012
2026-01-26 11:01:43.44	197.72	10.35	-42.1	-47.7	9.0	2.97e-02	0	62	0	36700160	56	6614
2026-01-26 11:01:44.45	197.81	10.43	-41.8	-47.1	9.4	1.72e-02	0	62	0	38797312	55	6539
2026-01-26 11:01:45.46	197.89	10.51	-41.6	-46.7	9.8	1.09e-02	0	62	0	40894464	55	6226
2026-01-26 11:01:46.47	197.97	10.59	-41.6	-46.4	10.1	7.81e-03	0	62	0	42991616	55	6040
2026-01-26 11:01:47.49	198.06	10.67	-41.6	-46.5	10.0	7.22e-03	0	62	0	44040192	55	6117
2026-01-26 11:01:48.50	198.14	10.76	-43.2	-50.1	8.1	8.22e-03	0	62	0	46137344	56	8663
2026-01-26 11:01:49.51	198.23	10.84	-41.1	-52.2	3.9	1.49e+00	0	62	104	47185920	52	13907
2026-01-26 11:01:50.51	198.31	10.92	-41.9	-46.6	10.8	5.71e-02	0	62	0	47185920	55	6153
2026-01-26 11:01:51.52	198.40	11.00	-43.5	-53.0	4.9	1.02e+00	0	62	0	49283072	57	11485
2026-01-26 11:01:52.53	198.48	11.08	-42.3	-47.1	5.4	1.48e+00	0	62	104	49283072	56	6200
2026-01-26 11:01:53.54	198.57	11.16	-42.0	-47.7	8.4	3.65e-01	0	62	0	50331648	56	6603
2026-01-26 11:01:54.55	198.66	11.25	-41.7	-46.5	9.9	6.18e-03	0	62	0	52428800	55	6130
2026-01-26 11:01:55.56	198.75	11.33	-41.1	-46.2	9.6	8.81e-03	0	62	0	53477376	54	6233
2026-01-26 11:01:56.57	198.83	11.41	-40.7	-46.4	8.6	3.56e-02	0	62	0	55574528	53	6745
2026-01-26 11:01:57.58	198.92	11.49	-40.5	-46.3	8.4	4.23e-02	0	62	0	57671680	53	6669
2026-01-26 11:01:58.59	199.01	11.58	-40.3	-46.1	8.5	4.61e-02	0	62	0	59768832	52	6883
2026-01-26 11:01:59.60	199.10	11.66	-40.1	-46.2	7.9	6.84e-02	0	62	0	61865984	52	7004
2026-01-26 11:02:00.61	199.19	11.75	-39.9	-46.1	7.8	7.33e-02	0	62	0	62914560	51	7354
2026-01-26 11:02:01.62	199.28	11.83	-39.9	-46.1	8.0	8.57e-02	0	62	0	65011712	51	7289
2026-01-26 11:02:02.63	199.37	11.91	-40.0	-46.3	7.8	7.59e-02	0	62	0	67108864	51	7476
2026-01-26 11:02:03.64	199.47	12.00	-40.2	-46.3	8.1	5.81e-02	0	62	0	69206016	51	7482
2026-01-26 11:02:04.64	199.56	12.08	-40.4	-46.3	8.5	4.66e-02	0	62	0	71303168	51	7467
2026-01-26 11:02:05.65	199.65	12.17	-40.6	-45.9	9.3	2.86e-02	0	62	0	72351744	52	6779
2026-01-26 11:02:06.67	199.74	12.25	-41.1	-46.1	9.9	1.27e-02	0	62	0	74448896	52	6884
2026-01-26 11:02:07.68	199.84	12.34	-41.4	-46.2	10.3	5.73e-03	0	62	0	76546048	53	6574
2026-01-26 11:02:08.69	199.93	12.42	-41.5	-46.0	10.8	3.88e-03	0	62	0	78643200	53	6471
2026-01-26 11:02:09.70	200.03	12.51	-41.3	-46.0	10.8	2.25e-03	0	62	0	80740352	53	6443
2026-01-26 11:02:10.71	200.12	12.60	-41.3	-45.9	11.1	2.25e-03	0	62	0	81788928	53	6354
2026-01-26 11:02:11.71	200.22	12.68	-41.3	-46.1	10.7	2.33e-03	0	62	0	83886080	53	6514
2026-01-26 11:02:12.72	200.31	12.77	-41.0	-45.8	10.8	2.52e-03	0	62	0	85983232	53	6337
2026-01-26 11:02:13.73	200.41	12.85	-41.0	-45.8	10.9	1.76e-03	0	62	0	88080384	53	6308
2026-01-26 11:02:14.74	200.51	12.94	-40.6	-45.7	10.6	2.98e-03	0	62	0	90177536	53	6258
2026-01-26 11:02:15.76	200.61	13.03	-40.5	-45.6	10.7	2.81e-03	0	62	0	92274688	53	6192
2026-01-26 11:02:16.76	200.70	13.12	-40.6	-45.7	10.6	2.98e-03	0	62	0	93323264	52	6633
2026-01-26 11:02:17.78	200.81	13.20	-40.4	-45.7	10.5	2.56e-03	0	62	0	95420416	52	6580
2026-01-26 11:02:18.79	200.90	13.29	-40.4	-45.6	10.5	3.58e-03	0	62	0	97517568	52	6566
2026-01-26 11:02:19.80	201.01	13.38	-40.3	-45.5	10.4	4.04e-03	0	62	0	99614720	52	6448
2026-01-26 11:02:20.81	201.11	13.47	-40.2	-45.5	10.0	6.89e-03	0	62	0	101711872	52	6489
2026-01-26 11:02:21.82	201.21	13.56	-40.1	-45.6	9.7	9.48e-03	0	62	0	102760448	52	6557
2026-01-26 11:02:22.83	201.31	13.65	-40.0	-45.4	9.8	1.15e-02	0	62	0	104857600	51	6755
2026-01-26 11:02:23.84	201.41	13.74	-39.9	-45.4	9.5	1.41e-02	0	62	0	106954752	51	6777
2026-01-26 11:02:24.85	201.52	13.83	-39.8	-45.7	8.8	2.00e-02	0	62	0	109051904	51	7032
2026-01-26 11:02:25.86	201.62	13.92	-39.6	-45.4	8.9	2.96e-02	0	62	0	111149056	51	6796
2026-01-26 11:02:26.87	201.72	14.01	-39.6	-45.4	8.7	3.59e-02	0	62	0	112197632	51	6774
2026-01-26 11:02:27.88	201.83	14.10	-39.6	-45.5	8.6	3.95e-02	0	62	0	114294784	51	6834
2026-01-26 11:02:28.89	201.93	14.19	-39.7	-45.6	8.5	3.97e-02	0	62	0	116391936	51	6882
2026-01-26 11:02:29.90	202.04	14.28	-39.7	-45.4	8.7	3.38e-02	0	62	0	118489088	51	6742
2026-01-26 11:02:30.91	202.15	14.37	-39.8	-45.4	8.8	3.45e-02	0	62	0	120586240	51	6780
2026-01-26 11:02:31.92	202.26	14.46	-40.0	-45.3	9.1	3.06e-02	0	62	0	121634816	51	6720
2026-01-26 11:02:32.93	202.36	14.55	-40.2	-45.5	9.2	1.97e-02	0	62	0	123731968	51	6867
2026-01-26 11:02:33.94	202.47	14.64	-40.5	-45.6	9.6	1.56e-02	0	62	0	125829120	51	6941
2026-01-26 11:02:34.95	202.58	14.73	-40.6	-45.7	9.8	1.03e-02	0	62	0	127926272	51	7013
2026-01-26 11:02:35.96	202.69	14.83	-40.8	-45.7	10.1	6.31e-03	0	62	0	130023424	52	6606
2026-01-26 11:02:36.97	202.80	14.92	-40.9	-45.7	10.5	3.95e-03	0	62	0	131072000	52	6579
2026-01-26 11:02:37.98	202.92	15.01	-41.0	-45.6	10.9	2.78e-03	0	62	0	133169152	52	6511
2026-01-26 11:02:38.99	203.03	15.10	-41.1	-45.6	11.2	1.60e-03	0	62	0	135266304	52	6496
2026-01-26 11:02:40.00	203.14	15.20	-41.3	-45.7	11.3	1.17e-03	0	62	0	137363456	53	6226
2026-01-26 11:02:41.01	203.25	15.29	-41.3	-45.7	11.4	1.12e-03	0	62	0	139460608	53	6257
2026-01-26 11:02:42.02	203.37	15.39	-41.4	-45.7	11.6	6.53e-04	0	62	0	140509184	53	6209
2026-01-26 11:02:43.03	203.48	15.48	-41.5	-45.8	11.5	8.98e-04	0	63	0	142606336	53	6293
2026-01-26 11:02:44.04	203.60	15.57	-41.5	-45.6	11.7	6.62e-04	0	62	0	144703488	53	6188
2026-01-26 11:02:45.05	203.72	15.67	-41.5	-45.6	11.8	4.21e-04	0	62	0	146800640	53	6198
2026-01-26 11:02:46.06	203.83	15.76	-41.6	-45.7	11.8	5.53e-04	0	62	0	148897792	53	6256
2026-01-26 11:02:47.07	203.95	15.86	-41.7	-45.8	11.8	4.94e-04	0	62	0	149946368	53	6276
2026-01-26 11:02:48.08	204.07	15.95	-41.8	-45.8	11.7	5.17e-04	0	62	0	152043520	54	5992
2026-01-26 11:02:49.09	204.19	16.05	-41.7	-45.7	11.9	4.70e-04	0	62	0	154140672	54	5908
2026-01-26 11:02:50.10	204.31	16.14	-41.8	-45.9	11.7	5.18e-04	0	62	0	156237824	54	6042
2026-01-26 11:02:51.11	204.43	16.24	-41.7	-45.6	12.0	4.91e-04	0	62	0	158334976	54	5843
2026-01-26 11:02:52.11	204.55	16.34	-41.9	-46.0	11.7	3.98e-04	0	62	0	160432128	54	6084
2026-01-26 11:02:53.12	204.67	16.43	-41.9	-45.9	11.8	4.54e-04	0	62	0	161480704	54	6031
2026-01-26 11:02:54.13	204.79	16.53	-41.9	-46.0	11.8	3.46e-04	0	62	0	163577856	54	6090
2026-01-26 11:02:55.14	204.92	16.63	-41.9	-45.9	11.9	3.70e-04	0	62	0	165675008	54	6000
2026-01-26 11:02:56.15	205.04	16.72	-41.9	-46.0	11.8	4.10e-04	0	62	0	167772160	54	6080
2026-01-26 11:02:57.16	205.17	16.82	-41.9	-46.0	11.9	4.91e-04	0	62	0	169869312	54	6067
2026-01-26 11:02:58.17	205.29	16.92	-42.0	-46.1	11.8	5.09e-04	0	62	0	170917888	54	6159
2026-01-26 11:02:59.18	205.42	17.02	-42.1	-46.2	11.7	6.68e-04	0	62	0	173015040	54	6218
2026-01-26 11:03:00.19	205.55	17.12	-42.1	-46.1	11.8	5.26e-04	0	62	0	175112192	54	6171
2026-01-26 11:03:01.20	205.68	17.21	-42.0	-46.1	11.8	4.55e-04	0	62	0	177209344	54	6146
2026-01-26 11:03:02.20	205.81	17.31	-42.1	-46.1	11.8	5.87e-04	0	62	0	179306496	54	6185
2026-01-26 11:03:03.21	205.94	17.41	-42.0	-46.0	11.9	3.28e-04	0	62	0	180355072	54	6093
2026-01-26 11:03:04.22	206.07	17.51	-41.9	-45.8	12.1	2.36e-04	0	62	0	182452224	54	5979
2026-01-26 11:03:05.23	206.20	17.61	-41.9	-45.7	12.3	2.52e-04	0	62	0	184549376	54	5903
2026-01-26 11:03:06.24	206.33	17.71	-41.8	-45.6	12.4	1.93e-04	0	62	0	186646528	54	5825
2026-01-26 11:03:07.25	206.47	17.81	-41.9	-45.6	12.3	2.09e-04	0	62	0	188743680	54	5843
2026-01-26 11:03:08.26	206.60	17.91	-41.9	-45.7	12.3	1.88e-04	0	62	0	189792256	54	5870
2026-01-26 11:03:09.27	206.74	18.01	-41.8	-45.5	12.5	1.20e-04	0	62	0	191889408	54	5735
2026-01-26 11:03:10.28	206.87	18.11	-41.8	-45.6	12.5	1.01e-04	0	62	0	193986560	54	5801
2026-01-26 11:03:11.30	207.01	18.22	-41.9	-45.8	12.1	2.06e-04	0	62	0	196083712	54	5959
2026-01-26 11:03:12.30	207.15	18.32	-41.8	-45.6	12.3	2.34e-04	0	62	0	198180864	54	5843
2026-01-26 11:03:13.31	207.29	18.42	-42.0	-45.9	12.1	2.47e-04	0	62	0	199229440	54	6000
2026-01-26 11:03:14.32	207.43	18.52	-42.1	-46.1	11.9	2.46e-04	0	62	0	201326592	54	6180
2026-01-26 11:03:15.33	207.57	18.62	-42.1	-46.1	11.9	3.92e-04	0	62	0	203423744	54	6168
2026-01-26 11:03:16.34	207.71	18.73	-42.2	-46.3	11.8	5.72e-04	0	62	0	205520896	54	6282
2026-01-26 11:03:17.35	207.85	18.83	-42.3	-46.5	11.5	7.92e-04	0	62	0	207618048	55	6121
2026-01-26 11:03:18.36	207.99	18.93	-42.3	-46.6	11.5	7.81e-04	0	62	0	208666624	55	6163
2026-01-26 11:03:19.37	208.14	19.03	-42.3	-46.5	11.6	7.32e-04	0	62	0	210763776	55	6064
2026-01-26 11:03:20.38	208.28	19.14	-42.4	-46.7	11.3	8.39e-04	0	62	0	212860928	55	6237
2026-01-26 11:03:21.39	208.43	19.24	-42.2	-46.4	11.7	6.97e-04	0	62	0	214958080	55	6009
2026-01-26 11:03:22.40	208.58	19.35	-42.3	-46.5	11.6	6.88e-04	0	62	0	217055232	55	6073
2026-01-26 11:03:23.41	208.73	19.45	-42.4	-46.7	11.4	7.26e-04	0	62	0	218103808	55	6219
2026-01-26 11:03:24.42	208.87	19.56	-42.2	-46.3	11.7	7.05e-04	0	62	0	220200960	55	5972
2026-01-26 11:03:25.43	209.02	19.66	-42.3	-46.6	11.4	6.29e-04	0	62	0	222298112	55	6190
2026-01-26 11:03:26.44	209.18	19.77	-42.3	-46.6	11.5	7.39e-04	0	62	0	224395264	55	6145
2026-01-26 11:03:27.45	209.33	19.87	-42.3	-46.5	11.6	7.79e-04	0	62	0	226492416	55	6104
2026-01-26 11:03:28.46	209.48	19.98	-42.2	-46.4	11.7	6.45e-04	0	62	0	228589568	55	5998
2026-01-26 11:03:29.47	209.64	20.08	-42.2	-46.4	11.7	7.27e-04	0	62	0	229638144	55	5994
2026-01-26 11:03:30.48	209.79	20.19	-42.3	-46.5	11.5	6.88e-04	0	62	0	231735296	55	6110
2026-01-26 11:03:31.48	209.95	20.29	-42.1	-46.1	12.0	3.76e-04	0	62	0	233832448	55	5795
2026-01-26 11:03:32.49	210.10	20.40	-42.1	-46.0	11.9	4.52e-04	0	62	0	235929600	55	5786
2026-01-26 11:03:33.50	210.26	20.51	-42.2	-46.2	11.8	4.26e-04	0	62	0	238026752	55	5901
2026-01-26 11:03:34.51	210.42	20.61	-42.2	-46.4	11.7	4.81e-04	0	62	0	239075328	55	6029
2026-01-26 11:03:35.52	210.58	20.72	-42.2	-46.4	11.7	6.28e-04	0	62	0	241172480	55	6001
2026-01-26 11:03:36.53	210.74	20.83	-42.4	-46.7	11.4	8.76e-04	0	62	0	243269632	55	6214
2026-01-26 11:03:37.54	210.91	20.94	-42.5	-46.9	11.2	9.85e-04	0	62	0	245366784	55	6369
2026-01-26 11:03:38.55	211.07	21.05	-42.4	-46.6	11.4	9.45e-04	0	62	0	247463936	55	6199
2026-01-26 11:03:39.56	211.24	21.15	-42.4	-46.7	11.3	1.15e-03	0	62	0	248512512	55	6271
2026-01-26 11:03:40.57	211.40	21.26	-42.5	-47.0	11.1	1.13e-03	0	62	0	250609664	55	6464
2026-01-26 11:03:41.58	211.57	21.37	-42.4	-46.7	11.3	1.34e-03	0	62	0	252706816	55	6250
2026-01-26 11:03:42.59	211.74	21.48	-42.5	-46.8	11.2	1.25e-03	0	62	0	254803968	55	6344
2026-01-26 11:03:43.60	211.91	21.59	-42.3	-46.5	11.5	1.14e-03	0	62	0	256901120	55	6113
2026-01-26 11:03:44.61	212.08	21.70	-42.4	-46.6	11.5	7.99e-04	0	62	0	257949696	55	6154
2026-01-26 11:03:45.62	212.25	21.81	-42.3	-46.4	11.6	6.00e-04	0	62	0	260046848	55	6038
2026-01-26 11:03:46.63	212.43	21.92	-42.2	-46.2	11.8	5.48e-04	0	62	0	262144000	55	5916
2026-01-26 11:03:47.64	212.60	22.03	-42.1	-46.0	12.0	4.05e-04	0	62	0	264241152	55	5779
2026-01-26 11:03:48.65	212.78	22.14	-42.1	-45.9	12.1	2.49e-04	0	62	0	266338304	55	5709
2026-01-26 11:03:49.66	212.95	22.25	-42.0	-45.9	12.3	2.31e-04	0	62	0	267386880	55	5657
2026-01-26 11:03:50.67	213.13	22.36	-41.9	-45.5	12.6	1.25e-04	0	62	0	269484032	55	5439
2026-01-26 11:03:51.68	213.31	22.47	-41.9	-45.6	12.5	1.05e-04	0	62	0	271581184	55	5498
2026-01-26 11:03:52.69	213.49	22.58	-41.9	-45.7	12.4	1.38e-04	0	62	0	273678336	55	5544
2026-01-26 11:03:53.70	213.67	22.69	-41.9	-45.6	12.5	1.76e-04	0	62	0	275775488	55	5471
2026-01-26 11:03:54.71	213.86	22.80	-42.1	-46.0	12.1	1.23e-04	0	62	0	276824064	55	5777
2026-01-26 11:03:55.72	214.04	22.92	-42.0	-46.0	12.1	3.15e-04	0	62	0	278921216	55	5782
2026-01-26 11:03:56.73	214.23	23.03	-42.2	-46.2	11.9	3.42e-04	0	62	0	281018368	55	5886
2026-01-26 11:03:57.74	214.41	23.14	-42.2	-46.2	11.9	3.26e-04	0	62	0	283115520	55	5907
2026-01-26 11:03:58.75	214.60	23.25	-42.1	-46.0	12.1	4.33e-04	0	62	0	285212672	55	5738
2026-01-26 11:03:59.76	214.79	23.36	-42.1	-46.1	12.0	2.85e-04	0	62	0	286261248	55	5813
2026-01-26 11:04:00.77	214.98	23.48	-41.9	-45.7	12.4	1.46e-04	0	62	0	288358400	55	5557
2026-01-26 11:04:01.78	215.17	23.59	-41.9	-45.6	12.5	1.44e-04	0	62	0	290455552	55	5525
2026-01-26 11:04:02.79	215.37	23.70	-41.8	-45.4	12.7	9.00e-05	0	62	0	292552704	55	5358
2026-01-26 11:04:03.80	215.56	23.82	-41.9	-45.6	12.5	7.40e-05	0	62	0	294649856	55	5501
2026-01-26 11:04:04.81	215.76	23.93	-41.8	-45.5	12.6	9.53e-05	0	62	0	296747008	55	5420
2026-01-26 11:04:05.82	215.96	24.04	-41.9	-45.6	12.5	7.01e-05	0	62	0	297795584	55	5514
2026-01-26 11:04:06.83	216.16	24.16	-42.1	-46.0	12.1	1.14e-04	0	62	0	299892736	55	5738
2026-01-26 11:04:07.84	216.36	24.27	-42.1	-46.0	12.0	3.26e-04	0	62	0	301989888	55	5783
2026-01-26 11:04:08.85	216.56	24.38	-42.3	-46.3	11.8	6.08e-04	0	62	0	304087040	55	5977
2026-01-26 11:04:09.86	216.76	24.50	-42.3	-46.5	11.6	5.96e-04	0	62	0	306184192	55	6082
2026-01-26 11:04:10.87	216.97	24.61	-42.4	-46.6	11.5	9.31e-04	0	62	0	307232768	55	6175
2026-01-26 11:04:11.88	217.17	24.73	-42.4	-46.6	11.5	6.90e-04	0	62	0	309329920	55	6137
2026-01-26 11:04:12.89	217.38	24.84	-42.3	-46.3	11.8	5.38e-04	0	62	0	311427072	55	5991
2026-01-26 11:04:13.90	217.59	24.95	-42.0	-45.9	12.3	2.24e-04	0	62	0	313524224	55	5658
2026-01-26 11:04:14.91	217.80	25.07	-42.0	-45.7	12.4	1.73e-04	0	62	0	315621376	55	5575
2026-01-26 11:04:15.92	218.01	25.18	-41.9	-45.6	12.6	1.13e-04	0	62	0	316669952	55	5465
2026-01-26 11:04:16.93	218.23	25.30	-41.8	-45.5	12.7	9.91e-05	0	62	0	318767104	55	5405
2026-01-26 11:04:17.94	218.44	25.41	-41.8	-45.4	12.7	7.55e-05	0	62	0	320864256	55	5395
2026-01-26 11:04:18.95	218.66	25.53	-41.9	-45.6	12.5	9.84e-05	0	62	0	322961408	55	5494
2026-01-26 11:04:19.96	218.88	25.64	-41.8	-45.4	12.7	1.34e-04	0	62	0	325058560	55	5349
2026-01-26 11:04:20.97	219.10	25.76	-41.8	-45.5	12.7	7.09e-05	0	62	0	326107136	55	5420
2026-01-26 11:04:21.98	219.32	25.87	-42.0	-45.8	12.3	1.61e-04	0	62	0	328204288	55	5601
2026-01-26 11:04:22.99	219.54	25.99	-41.9	-45.6	12.6	1.04e-04	0	62	0	330301440	55	5475
2026-01-26 11:04:24.00	219.77	26.10	-41.8	-45.4	12.7	9.91e-05	0	62	0	332398592	55	5400
2026-01-26 11:04:25.01	220.00	26.22	-41.8	-45.4	12.8	7.40e-05	0	62	0	334495744	55	5363
2026-01-26 11:04:26.02	220.22	26.33	-41.8	-45.4	12.7	7.24e-05	0	62	0	335544320	55	5392
2026-01-26 11:04:27.02	220.45	26.45	-41.7	-45.2	13.0	6.71e-05	0	62	0	337641472	55	5242
2026-01-26 11:04:28.04	220.68	26.56	-41.9	-45.5	12.6	8.08e-05	0	62	0	339738624	55	5435
2026-01-26 11:04:29.05	220.92	26.68	-41.8	-45.3	12.8	5.79e-05	0	62	0	341835776	55	5326
2026-01-26 11:04:30.05	221.15	26.79	-41.8	-45.4	12.8	6.17e-05	0	62	0	343932928	55	5350
2026-01-26 11:04:31.07	221.39	26.91	-41.7	-45.2	12.9	3.35e-05	0	62	0	344981504	55	5266
2026-01-26 11:04:32.08	221.63	27.02	-41.7	-45.1	13.1	2.21e-05	0	62	0	347078656	55	5195
2026-01-26 11:04:33.09	221.87	27.14	-41.6	-45.1	13.1	2.82e-05	0	62	0	349175808	55	5175
2026-01-26 11:04:34.10	222.11	27.25	-41.5	-44.9	13.3	2.44e-05	0	62	0	351272960	55	5059
2026-01-26 11:04:35.11	222.35	27.37	-41.5	-44.8	13.4	1.60e-05	0	62	0	353370112	54	5285
2026-01-26 11:04:36.12	222.59	27.48	-41.6	-45.0	13.2	1.22e-05	0	62	0	354418688	54	5424
2026-01-26 11:04:37.13	222.84	27.60	-41.6	-45.0	13.1	3.20e-05	0	62	0	356515840	54	5447
2026-01-26 11:04:38.14	223.09	27.71	-41.7	-45.2	12.9	2.36e-05	0	62	0	358612992	54	5579
2026-01-26 11:04:39.15	223.34	27.83	-41.8	-45.4	12.7	5.72e-05	0	62	0	360710144	54	5718
2026-01-26 11:04:40.16	223.59	27.94	-41.8	-45.4	12.7	5.95e-05	0	62	0	362807296	54	5691
2026-01-26 11:04:41.17	223.84	28.05	-41.9	-45.6	12.5	9.53e-05	0	62	0	364904448	54	5821
2026-01-26 11:04:42.18	224.10	28.17	-42.0	-45.7	12.5	1.25e-04	0	62	0	365953024	54	5877
2026-01-26 11:04:43.19	224.36	28.28	-41.9	-45.5	12.6	1.23e-04	0	62	0	368050176	54	5772
2026-01-26 11:04:44.20	224.61	28.40	-41.9	-45.5	12.6	6.25e-05	0	62	0	370147328	54	5784
2026-01-26 11:04:45.20	224.87	28.51	-41.8	-45.3	12.8	5.56e-05	0	62	0	372244480	54	5645
2026-01-26 11:04:46.21	225.13	28.62	-41.8	-45.4	12.8	7.40e-05	0	62	0	374341632	54	5712
2026-01-26 11:04:47.22	225.40	28.74	-42.0	-45.7	12.4	1.22e-04	0	62	0	375390208	54	5903
2026-01-26 11:04:48.23	225.66	28.85	-42.0	-45.7	12.4	1.36e-04	0	62	0	377487360	54	5907
2026-01-26 11:04:49.24	225.93	28.96	-42.1	-46.0	12.2	1.52e-04	0	62	0	379584512	54	6081
2026-01-26 11:04:50.25	226.20	29.08	-42.3	-46.4	11.8	3.65e-04	0	62	0	381681664	55	6035
2026-01-26 11:04:51.26	226.47	29.19	-42.4	-46.5	11.6	5.32e-04	0	62	0	383778816	55	6088
2026-01-26 11:04:52.27	226.75	29.30	-42.5	-46.9	11.3	1.06e-03	0	62	0	384827392	55	6350
2026-01-26 11:04:53.28	227.02	29.41	-42.5	-46.9	11.2	1.54e-03	0	62	0	386924544	55	6388
2026-01-26 11:04:54.29	227.30	29.52	-42.6	-47.1	11.0	2.04e-03	0	62	0	389021696	55	6497
2026-01-26 11:04:55.30	227.58	29.64	-42.8	-47.4	10.9	2.27e-03	0	62	0	391118848	56	6363
2026-01-26 11:04:56.30	227.86	29.75	-42.9	-47.4	10.7	1.65e-03	0	62	0	393216000	56	6412
2026-01-26 11:04:57.31	228.14	29.86	-42.7	-47.1	11.2	1.29e-03	0	62	0	394264576	56	6147
2026-01-26 11:04:58.32	228.42	29.97	-42.8	-47.3	11.0	1.96e-03	0	62	0	396361728	56	6277
2026-01-26 11:04:59.33	228.71	30.08	-42.8	-47.2	11.1	2.03e-03	0	62	0	398458880	56	6228
2026-01-26 11:05:00.34	229.00	30.19	-43.0	-47.8	10.4	3.88e-03	0	62	0	400556032	56	6705
2026-01-26 11:05:01.35	229.29	30.30	-43.2	-48.2	10.0	8.31e-03	0	62	0	402653184	57	6614
2026-01-26 11:05:02.36	229.58	30.41	-43.3	-48.5	9.7	8.64e-03	0	62	0	403701760	57	6834
2026-01-26 11:05:03.37	229.88	30.52	-43.3	-48.7	9.5	1.27e-02	0	62	0	405798912	57	6980
2026-01-26 11:05:04.38	230.17	30.62	-43.5	-49.1	9.0	1.87e-02	0	62	0	407896064	57	7353
2026-01-26 11:05:05.39	230.47	30.73	-43.5	-49.1	9.1	2.35e-02	0	62	0	409993216	57	7301
2026-01-26 11:05:06.40	230.77	30.84	-43.4	-48.9	9.3	2.45e-02	0	62	0	412090368	57	7194
2026-01-26 11:05:07.41	231.07	30.95	-43.4	-48.9	9.3	2.63e-02	0	62	0	413138944	57	7185
2026-01-26 11:05:08.42	231.38	31.05	-43.5	-49.2	9.1	2.07e-02	0	62	0	415236096	57	7393
2026-01-26 11:05:09.43	231.69	31.16	-43.6	-49.5	8.7	2.93e-02	0	62	0	417333248	57	7692
2026-01-26 11:05:10.44	231.99	31.26	-43.7	-49.8	8.4	3.96e-02	0	62	0	419430400	58	7513
2026-01-26 11:05:11.45	232.30	31.37	-43.9	-50.4	7.7	8.65e-02	0	62	0	421527552	58	8079
2026-01-26 11:05:12.46	232.62	31.47	-43.9	-50.5	7.7	8.55e-02	0	62	0	422576128	58	8097
2026-01-26 11:05:13.47	232.93	31.58	-43.7	-49.9	8.2	5.92e-02	0	62	0	424673280	58	7596
2026-01-26 11:05:14.48	233.25	31.68	-43.6	-49.5	8.7	3.25e-02	0	62	0	426770432	58	7251
2026-01-26 11:05:15.49	233.56	31.78	-43.5	-49.2	8.9	2.09e-02	0	62	0	428867584	58	7029
2026-01-26 11:05:16.50	233.88	31.89	-43.4	-48.8	9.4	1.70e-02	0	62	0	430964736	58	6673
2026-01-26 11:05:17.51	234.21	31.99	-43.4	-48.9	9.4	1.85e-02	0	62	0	433061888	58	6727
2026-01-26 11:05:18.52	234.53	32.09	-43.4	-48.8	9.4	1.82e-02	0	62	0	434110464	58	6687
2026-01-26 11:05:19.53	234.86	32.19	-43.4	-49.0	9.1	1.92e-02	0	62	0	436207616	58	6837
2026-01-26 11:05:20.54	235.18	32.29	-43.4	-49.2	9.0	2.86e-02	0	62	0	438304768	58	6972
2026-01-26 11:05:21.55	235.51	32.39	-43.7	-49.6	8.5	3.05e-02	0	62	0	440401920	58	7368
2026-01-26 11:05:22.56	235.84	32.49	-43.8	-50.0	8.2	4.68e-02	0	62	0	442499072	58	7671
2026-01-26 11:05:23.57	236.18	32.58	-43.8	-50.0	8.1	6.42e-02	0	62	0	443547648	58	7703
2026-01-26 11:05:24.58	236.51	32.68	-43.8	-49.9	8.3	6.23e-02	0	62	0	445644800	58	7595
2026-01-26 11:05:25.59	236.85	32.78	-43.8	-49.9	8.3	4.53e-02	0	62	0	447741952	58	7610
2026-01-26 11:05:26.60	237.19	32.87	-43.6	-49.4	8.9	3.61e-02	0	62	0	449839104	58	7161
2026-01-26 11:05:27.61	237.53	32.96	-43.6	-49.3	8.9	2.21e-02	0	62	0	451936256	58	7075
2026-01-26 11:05:28.62	237.88	33.06	-43.4	-48.9	9.3	1.55e-02	0	62	0	452984832	58	6745
2026-01-26 11:05:29.63	238.22	33.15	-43.4	-48.9	9.3	1.55e-02	0	62	0	455081984	58	6731
2026-01-26 11:05:30.64	238.57	33.24	-43.6	-49.4	8.7	2.42e-02	0	62	0	457179136	58	7167
2026-01-26 11:05:31.65	238.92	33.33	-43.6	-49.5	8.6	3.27e-02	0	62	0	459276288	58	7263
2026-01-26 11:05:32.66	239.27	33.42	-43.7	-49.6	8.6	3.72e-02	0	62	0	461373440	58	7323
2026-01-26 11:05:33.67	239.62	33.51	-43.6	-49.5	8.7	4.55e-02	0	62	0	462422016	58	7241
2026-01-26 11:05:34.68	239.98	33.60	-43.4	-48.7	9.5	1.47e-02	0	62	0	464519168	58	6627
2026-01-26 11:05:35.69	240.34	33.69	-42.8	-47.4	10.8	5.11e-03	0	62	0	466616320	57	6016
2026-01-26 11:05:36.70	240.69	33.77	-42.7	-47.1	11.2	1.80e-03	0	62	0	468713472	57	5793
2026-01-26 11:05:37.71	241.06	33.86	-42.9	-47.5	10.8	2.11e-03	0	62	0	470810624	57	6085
2026-01-26 11:05:38.72	241.42	33.94	-43.2	-48.5	9.7	5.52e-03	0	62	0	471859200	57	6838
2026-01-26 11:05:39.73	241.78	34.03	-43.4	-48.8	9.3	1.37e-02	0	62	0	473956352	57	7096
2026-01-26 11:05:40.74	242.15	34.11	-43.5	-49.1	9.1	2.16e-02	0	62	0	476053504	57	7327
2026-01-26 11:05:41.75	242.52	34.19	-43.6	-49.3	8.8	2.35e-02	0	62	0	478150656	57	7538
2026-01-26 11:05:42.76	242.89	34.27	-43.2	-48.4	9.8	1.89e-02	0	62	0	480247808	57	6765
2026-01-26 11:05:43.77	243.26	34.35	-43.2	-48.3	10.0	7.87e-03	0	62	0	481296384	57	6649
2026-01-26 11:05:44.77	243.63	34.43	-42.9	-47.5	10.7	3.32e-03	0	62	0	483393536	57	6075
2026-01-26 11:05:45.79	244.01	34.50	-42.7	-47.1	11.1	2.68e-03	0	62	0	485490688	57	5842
2026-01-26 11:05:46.80	244.38	34.58	-42.5	-46.6	11.6	9.26e-04	0	62	0	487587840	57	5526
2026-01-26 11:05:47.81	244.76	34.65	-42.4	-46.5	11.9	5.79e-04	0	62	0	489684992	56	5723
2026-01-26 11:05:48.82	245.14	34.72	-42.5	-46.5	11.8	3.76e-04	0	62	0	490733568	56	5753
2026-01-26 11:05:49.83	245.52	34.80	-42.5	-46.7	11.6	5.10e-04	0	62	0	492830720	56	5856
2026-01-26 11:05:50.84	245.91	34.87	-42.8	-47.3	11.0	1.24e-03	0	62	0	494927872	56	6293
2026-01-26 11:05:51.85	246.29	34.94	-43.0	-47.7	10.5	3.07e-03	0	62	0	497025024	56	6607
2026-01-26 11:05:52.86	246.68	35.00	-42.9	-47.6	10.7	3.26e-03	0	62	0	499122176	56	6522
2026-01-26 11:05:53.87	247.07	35.07	-42.7	-47.0	11.2	2.20e-03	0	62	0	501219328	56	6118
2026-01-26 11:05:54.88	247.46	35.14	-42.4	-46.4	11.8	6.40e-04	0	63	0	502267904	56	5698
2026-01-26 11:05:55.89	247.85	35.20	-42.3	-46.1	12.1	3.75e-04	0	62	0	504365056	56	5521
2026-01-26 11:05:56.90	248.24	35.26	-42.5	-46.7	11.6	5.16e-04	0	62	0	506462208	56	5874
2026-01-26 11:05:57.91	248.63	35.32	-42.7	-46.9	11.3	8.75e-04	0	62	0	508559360	56	6055
2026-01-26 11:05:58.92	249.03	35.38	-42.5	-46.6	11.7	1.09e-03	0	62	0	510656512	56	5829
2026-01-26 11:05:59.93	249.43	35.44	-42.4	-46.4	11.8	5.41e-04	0	62	0	511705088	56	5698
2026-01-26 11:06:00.94	249.82	35.50	-42.3	-46.2	12.0	3.30e-04	0	62	0	513802240	56	5552
2026-01-26 11:06:01.95	250.22	35.56	-42.3	-46.1	12.1	2.57e-04	0	62	0	515899392	56	5511
2026-01-26 11:06:02.96	250.63	35.61	-42.4	-46.5	11.8	6.50e-04	0	62	0	517996544	56	5772
2026-01-26 11:06:03.97	251.03	35.66	-42.7	-47.2	11.1	1.43e-03	0	62	0	520093696	56	6230
2026-01-26 11:06:04.97	251.43	35.71	-42.7	-47.1	11.2	1.79e-03	0	62	0	521142272	56	6179
2026-01-26 11:06:05.98	251.83	35.76	-42.7	-46.9	11.3	1.14e-03	0	62	0	523239424	56	6057
2026-01-26 11:06:07.00	252.24	35.81	-42.4	-46.4	11.9	3.40e-04	0	62	0	525336576	56	5680
2026-01-26 11:06:08.01	252.65	35.86	-42.6	-46.9	11.4	6.12e-04	0	62	0	527433728	56	6028
2026-01-26 11:06:09.01	253.05	35.90	-42.9	-47.6	10.6	1.92e-03	0	62	0	529530880	56	6543
2026-01-26 11:06:10.02	253.46	35.95	-43.1	-47.9	10.3	5.64e-03	0	62	0	530579456	56	6790
2026-01-26 11:06:11.03	253.87	35.99	-42.9	-47.6	10.7	4.34e-03	0	62	0	532676608	56	6527
2026-01-26 11:06:12.04	254.29	36.03	-42.7	-47.0	11.3	1.99e-03	0	62	0	534773760	56	6062
2026-01-26 11:06:13.05	254.70	36.07	-42.7	-47.0	11.2	1.11e-03	0	62	0	536870912	56	6071
2026-01-26 11:06:14.06	255.11	36.11	-42.7	-47.0	11.3	9.46e-04	0	62	0	538968064	56	6079
2026-01-26 11:06:15.07	255.53	36.14	-42.5	-46.6	11.6	8.80e-04	0	62	0	540016640	56	5843
2026-01-26 11:06:16.08	255.94	36.18	-42.5	-46.6	11.7	8.30e-04	0	62	0	542113792	56	5812
2026-01-26 11:06:17.10	256.36	36.21	-42.4	-46.4	11.8	4.55e-04	0	62	0	544210944	56	5686
2026-01-26 11:06:18.11	256.78	36.24	-42.5	-46.7	11.6	4.60e-04	0	62	0	546308096	56	5867
2026-01-26 11:06:19.12	257.20	36.27	-42.8	-47.3	10.9	1.01e-03	0	62	0	548405248	56	6337
2026-01-26 11:06:20.13	257.61	36.30	-43.0	-47.9	10.4	3.58e-03	0	62	0	549453824	56	6750
2026-01-26 11:06:21.14	258.03	36.32	-43.3	-48.5	9.6	8.48e-03	0	62	0	551550976	57	6829
2026-01-26 11:06:22.15	258.45	36.35	-43.3	-48.7	9.5	1.21e-02	0	62	0	553648128	57	7004
2026-01-26 11:06:23.16	258.87	36.37	-43.2	-48.4	9.9	9.31e-03	0	62	0	555745280	57	6736
2026-01-26 11:06:24.17	259.29	36.39	-42.9	-47.4	10.8	4.94e-03	0	62	0	557842432	57	6038
2026-01-26 11:06:25.18	259.71	36.41	-42.8	-47.2	11.0	2.04e-03	0	62	0	558891008	57	5913
2026-01-26 11:06:26.19	260.14	36.43	-42.9	-47.4	10.9	2.10e-03	0	62	0	560988160	57	6009
2026-01-26 11:06:27.20	260.56	36.44	-43.1	-48.0	10.3	4.34e-03	0	62	0	563085312	57	6429
2026-01-26 11:06:28.21	260.98	36.46	-43.2	-48.2	10.0	5.35e-03	0	62	0	565182464	57	6615
2026-01-26 11:06:29.22	261.40	36.47	-43.1	-47.9	10.3	5.86e-03	0	62	0	567279616	57	6372
2026-01-26 11:06:30.23	261.83	36.48	-43.2	-48.4	9.7	6.40e-03	0	62	0	569376768	57	6737
2026-01-26 11:06:31.24	262.25	36.49	-43.4	-48.8	9.3	1.26e-02	0	62	0	570425344	57	7084
2026-01-26 11:06:32.25	262.67	36.50	-43.3	-48.7	9.5	1.81e-02	0	62	0	572522496	57	7017
2026-01-26 11:06:33.26	263.10	36.50	-43.4	-49.0	9.2	1.97e-02	0	62	0	574619648	57	7233
2026-01-26 11:06:34.27	263.52	36.51	-43.3	-48.6	9.6	1.43e-02	0	62	0	576716800	57	6918
2026-01-26 11:06:35.28	263.94	36.51	-43.2	-48.3	9.9	9.89e-03	0	62	0	578813952	57	6687
2026-01-26 11:06:36.29	264.37	36.51	-43.1	-48.1	10.1	6.13e-03	0	62	0	579862528	57	6567
2026-01-26 11:06:37.30	264.79	36.51	-42.9	-47.5	10.7	3.39e-03	0	62	0	581959680	57	6096
2026-01-26 11:06:38.31	265.22	36.51	-42.9	-47.6	10.7	2.48e-03	0	62	0	584056832	57	6158
2026-01-26 11:06:39.32	265.64	36.50	-43.1	-48.0	10.2	4.24e-03	0	62	0	586153984	57	6460
2026-01-26 11:06:40.33	266.06	36.49	-43.3	-48.5	9.7	8.92e-03	0	62	0	588251136	57	6836
2026-01-26 11:06:41.34	266.49	36.49	-43.3	-48.6	9.5	1.04e-02	0	62	0	589299712	57	6937
2026-01-26 11:06:42.35	266.91	36.48	-43.3	-48.7	9.4	1.50e-02	0	62	0	591396864	57	6982
2026-01-26 11:06:43.36	267.33	36.46	-43.4	-48.9	9.3	1.42e-02	0	62	0	593494016	57	7166
2026-01-26 11:06:44.37	267.75	36.45	-43.5	-49.1	9.1	2.11e-02	0	62	0	595591168	57	7365
2026-01-26 11:06:45.38	268.18	36.44	-43.5	-49.2	8.9	2.27e-02	0	62	0	597688320	57	7382
2026-01-26 11:06:46.39	268.60	36.42	-43.3	-48.7	9.5	1.70e-02	0	62	0	598736896	57	7002
2026-01-26 11:06:47.40	269.02	36.40	-43.1	-48.0	10.1	9.38e-03	0	62	0	600834048	57	6464
2026-01-26 11:06:48.40	269.44	36.38	-43.0	-47.9	10.3	4.57e-03	0	62	0	602931200	57	6375
2026-01-26 11:06:49.41	269.86	36.36	-43.0	-47.7	10.5	3.80e-03	0	62	0	605028352	57	6241
2026-01-26 11:06:50.42	270.27	36.34	-43.1	-47.9	10.3	4.20e-03	0	62	0	607125504	57	6385
2026-01-26 11:06:51.43	270.69	36.31	-43.0	-47.9	10.4	5.14e-03	0	62	0	608174080	57	6352
2026-01-26 11:06:52.44	271.11	36.28	-43.2	-48.2	10.0	6.85e-03	0	62	0	610271232	57	6632
2026-01-26 11:06:53.45	271.53	36.26	-43.5	-49.0	9.2	1.67e-02	0	62	0	612368384	57	7255
2026-01-26 11:06:54.46	271.95	36.22	-43.9	-50.4	7.7	4.71e-02	0	62	0	614465536	58	8034
2026-01-26 11:06:55.47	272.36	36.19	-44.1	-51.3	6.8	1.69e-01	0	62	0	616562688	58	8902
2026-01-26 11:06:56.48	272.78	36.16	-43.9	-50.7	7.4	1.57e-01	0	62	0	617611264	58	8303
2026-01-26 11:06:57.49	273.19	36.12	-43.7	-49.7	8.6	6.60e-02	0	62	0	619708416	58	7397
2026-01-26 11:06:58.50	273.60	36.09	-43.6	-49.5	8.7	2.89e-02	0	62	0	621805568	58	7208
2026-01-26 11:06:59.51	274.02	36.05	-43.8	-50.0	8.2	4.38e-02	0	62	0	623902720	58	7711
2026-01-26 11:07:00.52	274.43	36.01	-43.8	-50.0	8.2	6.49e-02	0	62	0	625999872	58	7645
2026-01-26 11:07:01.53	274.84	35.97	-43.6	-49.3	8.9	3.55e-02	0	62	0	627048448	58	7095
2026-01-26 11:07:02.54	275.25	35.93	-43.3	-48.4	9.7	1.51e-02	0	62	0	629145600	58	6412
2026-01-26 11:07:03.55	275.66	35.88	-43.4	-48.8	9.5	9.38e-03	0	62	0	631242752	58	6681
2026-01-26 11:07:04.56	276.06	35.84	-43.5	-49.0	9.1	1.85e-02	0	62	0	633339904	58	6874
2026-01-26 11:07:05.57	276.47	35.79	-44.0	-50.7	7.4	7.55e-02	0	62	0	635437056	58	8307
2026-01-26 11:07:06.58	276.87	35.74	-44.1	-51.1	7.1	1.39e-01	0	62	0	637534208	58	8722
2026-01-26 11:07:07.59	277.28	35.69	-43.9	-50.3	7.9	1.05e-01	0	62	0	638582784	58	7953
2026-01-26 11:07:08.60	277.68	35.64	-43.5	-49.0	9.2	2.80e-02	0	62	0	640679936	58	6828
2026-01-26 11:07:09.61	278.08	35.58	-43.4	-48.9	9.4	1.66e-02	0	62	0	642777088	58	6729
2026-01-26 11:07:10.62	278.48	35.53	-43.7	-49.7	8.4	3.11e-02	0	62	0	644874240	58	7449
2026-01-26 11:07:11.63	278.88	35.47	-44.0	-51.0	7.2	8.02e-02	0	62	0	646971392	58	8570
2026-01-26 11:07:12.64	279.28	35.41	-43.9	-50.4	7.7	9.13e-02	0	62	0	648019968	58	8061
2026-01-26 11:07:13.64	279.67	35.36	-43.7	-49.8	8.5	6.33e-02	0	62	0	650117120	58	7507
2026-01-26 11:07:14.65	280.06	35.30	-43.9	-50.4	7.8	5.88e-02	0	62	0	652214272	58	8032
2026-01-26 11:07:15.66	280.45	35.23	-44.1	-51.4	6.8	1.14e-01	0	62	0	654311424	58	9035
2026-01-26 11:07:16.67	280.84	35.17	-44.2	-52.0	6.3	2.82e-01	0	62	0	656408576	59	9122
2026-01-26 11:07:17.69	281.24	35.11	-44.2	-51.6	6.6	2.85e-01	0	62	0	657457152	59	8687
2026-01-26 11:07:18.69	281.62	35.04	-44.1	-51.1	7.1	1.49e-01	0	62	0	659554304	59	8214
2026-01-26 11:07:19.70	282.01	34.97	-44.1	-51.3	6.8	1.57e-01	0	62	0	661651456	59	8445
2026-01-26 11:07:20.71	282.39	34.90	-44.3	-52.4	6.0	1.71e-01	0	62	0	663748608	59	9539
2026-01-26 11:07:21.72	282.78	34.84	-44.7	-55.4	4.4	5.66e-01	0	62	0	665845760	60	12763
2026-01-26 11:07:22.73	283.16	34.76	-44.8	-56.7	4.1	7.43e-01	0	62	0	666894336	60	14777
2026-01-26 11:07:23.74	283.54	34.69	-44.8	-57.3	3.9	1.49e+00	0	62	104	666894336	60	15844
2026-01-26 11:07:24.75	283.92	34.62	-44.4	-53.1	5.6	5.32e-01	0	62	0	666894336	60	9823
2026-01-26 11:07:25.76	284.29	34.54	-44.1	-51.8	6.5	1.07e+00	0	62	0	667942912	60	8440
2026-01-26 11:07:26.77	284.67	34.47	-44.0	-51.4	6.9	2.29e-01	0	62	0	670040064	60	8036
2026-01-26 11:07:27.78	285.04	34.39	-44.0	-50.8	7.3	1.05e-01	0	62	0	672137216	59	7921
2026-01-26 11:07:28.79	285.41	34.31	-43.5	-49.3	8.8	3.82e-02	0	63	0	674234368	59	6656
2026-01-26 11:07:29.81	285.79	34.23	-43.2	-48.2	10.0	1.20e-02	0	62	0	675282944	58	6273
2026-01-26 11:07:30.82	286.15	34.15	-43.0	-47.6	10.6	4.58e-03	0	62	0	677380096	58	5842
2026-01-26 11:07:31.83	286.52	34.07	-43.0	-47.8	10.4	4.00e-03	0	62	0	679477248	57	6327
2026-01-26 11:07:32.84	286.88	33.99	-43.0	-47.8	10.3	7.27e-03	0	62	0	681574400	57	6329
2026-01-26 11:07:33.85	287.25	33.91	-42.9	-47.6	10.7	4.00e-03	0	62	0	683671552	57	6144
2026-01-26 11:07:34.86	287.61	33.82	-42.7	-47.0	11.3	1.78e-03	0	62	0	684720128	57	5728
2026-01-26 11:07:35.87	287.96	33.74	-42.8	-47.2	11.1	1.07e-03	0	62	0	686817280	57	5857
2026-01-26 11:07:36.88	288.32	33.65	-43.0	-47.8	10.4	2.46e-03	0	62	0	688914432	57	6299
2026-01-26 11:07:37.89	288.68	33.56	-43.3	-48.5	9.6	9.37e-03	0	62	0	691011584	57	6865
2026-01-26 11:07:38.90	289.03	33.48	-43.3	-48.6	9.6	2.03e-02	0	62	0	693108736	57	6898
2026-01-26 11:07:39.91	289.38	33.39	-43.2	-48.4	9.8	1.47e-02	0	62	0	695205888	57	6759
2026-01-26 11:07:40.92	289.73	33.30	-43.0	-47.8	10.4	6.06e-03	0	62	0	696254464	57	6334
2026-01-26 11:07:41.93	290.08	33.21	-42.8	-47.4	10.8	2.76e-03	0	62	0	698351616	57	6018
2026-01-26 11:07:42.94	290.42	33.12	-43.0	-47.8	10.4	2.46e-03	0	62	0	700448768	57	6291
2026-01-26 11:07:43.95	290.77	33.02	-43.2	-48.4	9.8	8.34e-03	0	62	0	702545920	57	6774
2026-01-26 11:07:44.96	291.11	32.93	-43.4	-48.9	9.2	2.35e-02	0	62	0	704643072	57	7157
2026-01-26 11:07:45.97	291.45	32.83	-43.2	-48.5	9.6	1.99e-02	0	62	0	705691648	57	6837
2026-01-26 11:07:46.98	291.78	32.74	-42.8	-47.5	10.8	4.17e-03	0	62	0	707788800	57	6062
2026-01-26 11:07:47.99	292.12	32.64	-42.3	-46.2	12.1	6.18e-04	0	62	0	709885952	56	5581
2026-01-26 11:07:49.00	292.45	32.55	-42.2	-46.0	12.3	1.61e-04	0	62	0	711983104	56	5404
2026-01-26 11:07:50.01	292.78	32.45	-42.4	-46.4	11.8	3.75e-04	0	62	0	714080256	56	5710
2026-01-26 11:07:51.02	293.11	32.35	-42.8	-47.2	11.0	1.47e-03	0	62	0	715128832	56	6219
2026-01-26 11:07:52.03	293.44	32.25	-42.7	-47.0	11.2	1.69e-03	0	62	0	717225984	56	6102
2026-01-26 11:07:53.03	293.76	32.16	-42.5	-46.6	11.6	1.29e-03	0	62	0	719323136	56	5853
2026-01-26 11:07:54.05	294.09	32.05	-42.5	-46.6	11.6	5.42e-04	0	62	0	721420288	56	5809
2026-01-26 11:07:55.06	294.41	31.95	-42.5	-46.6	11.7	7.33e-04	0	62	0	723517440	56	5811
2026-01-26 11:07:56.06	294.73	31.85	-42.6	-46.9	11.3	1.12e-03	0	62	0	724566016	56	6061
2026-01-26 11:07:57.07	295.05	31.75	-43.0	-47.9	10.3	3.26e-03	0	62	0	726663168	56	6750
2026-01-26 11:07:58.08	295.36	31.65	-43.0	-47.9	10.3	4.49e-03	0	62	0	728760320	56	6772
2026-01-26 11:07:59.09	295.68	31.55	-42.5	-46.6	11.5	2.15e-03	0	62	0	730857472	56	5814
2026-01-26 11:08:00.10	295.99	31.44	-41.7	-45.1	13.0	1.27e-04	0	62	0	732954624	55	5217
2026-01-26 11:08:01.11	296.30	31.34	-41.3	-44.4	13.7	4.50e-06	0	62	0	734003200	54	5072
2026-01-26 11:08:02.12	296.61	31.23	-41.2	-44.4	13.8	4.50e-06	0	62	0	736100352	54	5049
2026-01-26 11:08:03.13	296.91	31.13	-41.6	-45.0	13.1	1.90e-05	0	62	0	738197504	54	5424
2026-01-26 11:08:04.14	297.22	31.02	-42.1	-46.1	12.1	1.15e-04	0	62	0	740294656	54	6140
2026-01-26 11:08:05.15	297.52	30.92	-42.4	-46.6	11.5	5.15e-04	0	62	0	742391808	55	6173
2026-01-26 11:08:06.16	297.82	30.81	-42.3	-46.5	11.6	1.34e-03	0	62	0	743440384	55	6099
2026-01-26 11:08:07.17	298.12	30.70	-42.1	-46.0	12.2	3.87e-04	0	62	0	745537536	55	5740
2026-01-26 11:08:08.18	298.42	30.60	-41.9	-45.7	12.4	1.47e-04	0	62	0	747634688	55	5558
2026-01-26 11:08:09.20	298.71	30.49	-41.9	-45.5	12.6	1.09e-04	0	62	0	749731840	55	5451
2026-01-26 11:08:10.21	299.00	30.38	-42.2	-46.2	12.0	2.78e-04	0	62	0	751828992	55	5856
2026-01-26 11:08:11.22	299.30	30.27	-42.6	-47.1	11.0	7.88e-04	0	62	0	752877568	55	6501
2026-01-26 11:08:12.23	299.58	30.16	-42.8	-47.4	10.8	2.30e-03	0	62	0	754974720	56	6391
2026-01-26 11:08:13.24	299.87	30.05	-42.7	-47.1	11.1	2.20e-03	0	62	0	757071872	56	6166
2026-01-26 11:08:14.25	300.16	29.94	-41.8	-45.4	12.7	3.12e-04	0	62	0	759169024	55	5352
2026-01-26 11:08:15.26	300.44	29.83	-41.2	-44.4	13.7	1.67e-05	0	62	0	761266176	54	5047
2026-01-26 11:08:16.27	300.72	29.72	-41.2	-44.4	13.7	1.50e-06	0	62	0	763363328	54	5050
2026-01-26 11:08:17.28	301.00	29.61	-41.4	-44.7	13.4	5.30e-06	0	62	0	764411904	54	5223
2026-01-26 11:08:18.29	301.27	29.50	-41.9	-45.5	12.7	1.67e-05	0	62	0	766509056	54	5763
2026-01-26 11:08:19.30	301.55	29.39	-42.3	-46.3	11.7	5.55e-04	0	62	0	768606208	55	5965
2026-01-26 11:08:20.31	301.82	29.28	-42.1	-46.1	11.9	3.61e-04	0	62	0	770703360	55	5798
2026-01-26 11:08:21.32	302.10	29.17	-41.8	-45.4	12.7	1.88e-04	0	62	0	772800512	55	5355
2026-01-26 11:08:22.33	302.36	29.05	-41.4	-44.7	13.4	3.73e-05	0	62	0	773849088	54	5261
2026-01-26 11:08:23.34	302.63	28.94	-41.4	-44.7	13.4	1.67e-05	0	62	0	775946240	54	5264
2026-01-26 11:08:24.35	302.90	28.83	-41.7	-45.3	12.8	2.51e-05	0	62	0	778043392	54	5599
2026-01-26 11:08:25.36	303.16	28.72	-42.2	-46.2	11.8	1.22e-04	0	62	0	780140544	55	5920
2026-01-26 11:08:26.37	303.42	28.61	-42.5	-46.9	11.1	1.29e-03	0	62	0	782237696	55	6376
2026-01-26 11:08:27.38	303.69	28.49	-42.2	-46.3	11.8	7.89e-04	0	62	0	783286272	55	5944
2026-01-26 11:08:28.39	303.94	28.38	-42.1	-46.1	11.9	5.43e-04	0	62	0	785383424	55	5811
2026-01-26 11:08:29.39	304.20	28.27	-41.8	-45.5	12.5	1.02e-04	0	62	0	787480576	55	5432
2026-01-26 11:08:30.41	304.46	28.15	-41.9	-45.7	12.4	9.30e-05	0	62	0	789577728	55	5531
2026-01-26 11:08:31.42	304.71	28.04	-42.1	-46.1	12.0	2.08e-04	0	62	0	791674880	55	5793
2026-01-26 11:08:32.43	304.96	27.93	-42.6	-47.2	10.8	1.26e-03	0	62	0	792723456	55	6598
2026-01-26 11:08:33.44	305.21	27.81	-42.6	-47.2	10.8	2.22e-03	0	62	0	794820608	55	6591
2026-01-26 11:08:34.45	305.46	27.70	-42.4	-46.8	11.2	1.73e-03	0	62	0	796917760	55	6302
2026-01-26 11:08:35.46	305.71	27.58	-42.1	-46.1	11.9	5.77e-04	0	62	0	799014912	55	5850
2026-01-26 11:08:36.47	305.95	27.47	-41.5	-44.9	13.2	5.41e-05	0	62	0	801112064	55	5064
2026-01-26 11:08:37.48	306.19	27.36	-41.4	-44.6	13.4	3.12e-05	0	62	0	802160640	54	5217
2026-01-26 11:08:38.48	306.43	27.24	-41.3	-44.5	13.5	1.22e-05	0	62	0	804257792	54	5157
2026-01-26 11:08:39.49	306.67	27.13	-41.6	-45.1	13.0	1.90e-05	0	62	0	806354944	54	5507
2026-01-26 11:08:40.51	306.91	27.01	-42.2	-46.3	11.7	1.65e-04	0	62	0	808452096	54	6298
2026-01-26 11:08:41.52	307.15	26.90	-42.6	-47.2	10.7	1.20e-03	0	62	0	810549248	55	6613
2026-01-26 11:08:42.53	307.38	26.79	-42.6	-47.2	10.8	2.92e-03	0	62	0	811597824	55	6595
2026-01-26 11:08:43.54	307.62	26.67	-42.5	-46.9	11.0	2.25e-03	0	62	0	813694976	55	6383
2026-01-26 11:08:44.55	307.85	26.56	-42.2	-46.3	11.6	1.29e-03	0	62	0	815792128	55	5949
2026-01-26 11:08:45.56	308.08	26.44	-42.1	-46.1	11.9	4.88e-04	0	62	0	817889280	55	5818
2026-01-26 11:08:46.57	308.30	26.33	-42.3	-46.6	11.4	9.22e-04	0	62	0	819986432	55	6139
2026-01-26 11:08:47.58	308.53	26.22	-42.6	-47.2	10.6	1.51e-03	0	62	0	821035008	55	6595
2026-01-26 11:08:48.58	308.75	26.10	-42.9	-47.6	10.5	4.39e-03	0	62	0	823132160	56	6559
2026-01-26 11:08:49.59	308.98	25.99	-43.0	-48.0	10.0	6.66e-03	0	62	0	825229312	56	6876
2026-01-26 11:08:50.60	309.20	25.87	-42.7	-47.2	10.9	5.23e-03	0	62	0	827326464	56	6204
2026-01-26 11:08:51.62	309.42	25.76	-42.2	-46.1	12.1	4.67e-04	0	62	0	829423616	56	5470
2026-01-26 11:08:52.63	309.64	25.64	-42.0	-45.8	12.4	2.31e-04	0	62	0	831520768	56	5304
2026-01-26 11:08:53.63	309.85	25.53	-42.1	-45.9	12.3	1.75e-04	0	62	0	832569344	56	5370
2026-01-26 11:08:54.64	310.07	25.42	-42.4	-46.4	11.7	2.79e-04	0	62	0	834666496	56	5718
2026-01-26 11:08:55.65	310.28	25.30	-42.8	-47.5	10.6	2.36e-03	0	62	0	836763648	56	6470
2026-01-26 11:08:56.66	310.50	25.19	-43.1	-48.2	9.8	6.75e-03	0	62	0	838860800	56	7011
2026-01-26 11:08:57.67	310.71	25.08	-43.2	-48.8	9.3	1.60e-02	0	62	0	840957952	57	7045
2026-01-26 11:08:58.68	310.92	24.96	-43.1	-48.4	9.6	1.34e-02	0	62	0	842006528	57	6765
2026-01-26 11:08:59.69	311.12	24.85	-42.7	-47.3	10.9	4.50e-03	0	62	0	844103680	57	5937
2026-01-26 11:09:00.70	311.33	24.74	-42.2	-46.2	11.9	1.40e-03	0	62	0	846200832	56	5580
2026-01-26 11:09:01.70	311.53	24.63	-41.7	-45.3	12.6	1.76e-04	0	62	0	848297984	55	5311
2026-01-26 11:09:02.71	311.74	24.51	-41.5	-44.9	13.1	5.26e-05	0	62	0	850395136	55	5066
2026-01-26 11:09:03.72	311.94	24.40	-41.5	-44.9	13.1	1.75e-05	0	62	0	851443712	54	5375
2026-01-26 11:09:04.73	312.14	24.29	-41.8	-45.5	12.5	5.72e-05	0	62	0	853540864	54	5749
2026-01-26 11:09:05.74	312.34	24.17	-42.1	-46.0	12.0	2.14e-04	0	62	0	855638016	54	6108
2026-01-26 11:09:06.75	312.54	24.06	-42.3	-46.5	11.4	6.93e-04	0	62	0	857735168	55	6131
2026-01-26 11:09:07.76	312.74	23.95	-42.3	-46.7	11.2	1.12e-03	0	62	0	859832320	55	6221
2026-01-26 11:09:08.77	312.93	23.84	-42.3	-46.5	11.4	9.88e-04	0	62	0	860880896	55	6101
2026-01-26 11:09:09.78	313.13	23.72	-41.9	-45.8	12.1	5.32e-04	0	62	0	862978048	55	5615
2026-01-26 11:09:10.79	313.32	23.61	-41.7	-45.2	12.7	1.55e-04	0	62	0	865075200	55	5258
2026-01-26 11:09:11.80	313.51	23.50	-41.4	-44.7	13.3	3.50e-05	0	62	0	867172352	54	5228
2026-01-26 11:09:12.81	313.70	23.39	-41.2	-44.4	13.6	7.60e-06	0	62	0	869269504	54	5084
2026-01-26 11:09:13.82	313.89	23.28	-41.2	-44.4	13.6	9.90e-06	0	62	0	870318080	54	5079
2026-01-26 11:09:14.83	314.07	23.17	-41.4	-44.6	13.3	1.44e-05	0	62	0	872415232	54	5215
2026-01-26 11:09:15.84	314.26	23.06	-41.5	-45.0	12.9	3.89e-05	0	62	0	874512384	54	5438
2026-01-26 11:09:16.85	314.45	22.95	-41.8	-45.4	12.5	7.62e-05	0	62	0	876609536	54	5716
2026-01-26 11:09:17.86	314.63	22.83	-41.8	-45.6	12.4	1.65e-04	0	62	0	878706688	54	5802
2026-01-26 11:09:18.87	314.81	22.72	-41.7	-45.3	12.7	9.46e-05	0	62	0	879755264	54	5618
2026-01-26 11:09:19.88	314.99	22.61	-41.5	-45.0	12.9	3.73e-05	0	62	0	881852416	54	5440
2026-01-26 11:09:20.89	315.17	22.50	-41.4	-44.7	13.2	2.21e-05	0	62	0	883949568	54	5240
2026-01-26 11:09:21.90	315.35	22.39	-41.3	-44.5	13.4	1.29e-05	0	62	0	886046720	54	5155
2026-01-26 11:09:22.91	315.53	22.28	-41.2	-44.4	13.5	1.14e-05	0	62	0	888143872	54	5095
2026-01-26 11:09:23.92	315.70	22.17	-41.2	-44.4	13.5	1.14e-05	0	62	0	889192448	54	5100
2026-01-26 11:09:24.93	315.88	22.07	-41.4	-44.7	13.3	1.52e-05	0	62	0	891289600	54	5265
2026-01-26 11:09:25.94	316.05	21.96	-41.6	-45.1	12.8	3.12e-05	0	62	0	893386752	54	5485
2026-01-26 11:09:26.95	316.22	21.85	-41.7	-45.3	12.7	4.80e-05	0	62	0	895483904	54	5599
2026-01-26 11:09:27.96	316.40	21.74	-41.7	-45.3	12.6	9.38e-05	0	62	0	897581056	54	5631
2026-01-26 11:09:28.97	316.57	21.63	-41.7	-45.4	12.5	1.37e-04	0	62	0	898629632	54	5669
2026-01-26 11:09:29.98	316.73	21.52	-41.6	-45.2	12.7	1.04e-04	0	62	0	900726784	54	5587
2026-01-26 11:09:30.99	316.90	21.41	-41.6	-45.1	12.8	7.70e-05	0	62	0	902823936	54	5507
2026-01-26 11:09:32.00	317.07	21.31	-41.5	-45.0	12.9	4.34e-05	0	62	0	904921088	54	5422
2026-01-26 11:09:33.01	317.23	21.20	-41.3	-44.8	13.2	5.03e-05	0	62	0	907018240	54	5281
2026-01-26 11:09:34.02	317.40	21.09	-41.3	-44.6	13.3	2.36e-05	0	62	0	909115392	54	5196
2026-01-26 11:09:35.03	317.56	20.98	-41.2	-44.5	13.5	1.98e-05	0	62	0	910163968	54	5114
2026-01-26 11:09:36.04	317.72	20.88	-41.3	-44.7	13.3	2.44e-05	0	62	0	912261120	54	5219
2026-01-26 11:09:37.05	317.89	20.77	-41.4	-44.8	13.2	1.90e-05	0	62	0	914358272	54	5285
2026-01-26 11:09:38.06	318.05	20.66	-41.3	-44.7	13.2	1.14e-05	0	62	0	916455424	54	5246
2026-01-26 11:09:39.07	318.20	20.56	-41.4	-44.8	13.1	1.83e-05	0	62	0	918552576	54	5300
2026-01-26 11:09:40.08	318.36	20.45	-41.5	-45.0	12.9	3.66e-05	0	62	0	919601152	54	5431
2026-01-26 11:09:41.09	318.52	20.35	-41.5	-45.1	12.8	5.18e-05	0	62	0	921698304	54	5488
2026-01-26 11:09:42.10	318.67	20.24	-41.6	-45.2	12.6	8.08e-05	0	62	0	923795456	54	5587
2026-01-26 11:09:43.11	318.83	20.14	-41.7	-45.3	12.6	7.93e-05	0	62	0	925892608	54	5636
2026-01-26 11:09:44.11	318.98	20.03	-41.6	-45.3	12.6	6.56e-05	0	62	0	927989760	54	5626
2026-01-26 11:09:45.12	319.13	19.93	-41.6	-45.2	12.7	9.00e-05	0	62	0	929038336	54	5556
2026-01-26 11:09:46.13	319.29	19.82	-41.5	-45.0	12.8	6.17e-05	0	62	0	931135488	54	5458
2026-01-26 11:09:47.15	319.44	19.72	-41.5	-45.1	12.8	7.17e-05	0	62	0	933232640	54	5468
2026-01-26 11:09:48.16	319.59	19.61	-41.4	-44.8	13.0	2.82e-05	0	62	0	935329792	54	5318
2026-01-26 11:09:49.17	319.74	19.51	-41.3	-44.7	13.2	2.51e-05	0	62	0	937426944	54	5275
2026-01-26 11:09:50.18	319.88	19.41	-41.3	-44.7	13.2	3.66e-05	0	62	0	938475520	54	5226
2026-01-26 11:09:51.19	320.03	19.30	-41.4	-44.8	13.1	2.89e-05	0	62	0	940572672	54	5296
2026-01-26 11:09:52.20	320.18	19.20	-41.3	-44.8	13.1	4.11e-05	0	62	0	942669824	54	5286
2026-01-26 11:09:53.21	320.32	19.10	-41.4	-44.8	13.0	3.66e-05	0	62	0	944766976	54	5340
2026-01-26 11:09:54.21	320.46	19.00	-41.5	-44.9	12.9	6.17e-05	0	62	0	946864128	54	5393
2026-01-26 11:09:55.22	320.61	18.89	-41.3	-44.7	13.2	2.44e-05	0	62	0	947912704	54	5240
2026-01-26 11:09:56.23	320.75	18.79	-41.4	-44.8	13.0	1.75e-05	0	62	0	950009856	54	5306
2026-01-26 11:09:57.24	320.89	18.69	-41.2	-44.5	13.4	1.98e-05	0	62	0	952107008	54	5117
2026-01-26 11:09:58.25	321.03	18.59	-41.1	-44.4	13.4	1.75e-05	0	62	0	954204160	54	5090
2026-01-26 11:09:59.27	321.17	18.49	-41.2	-44.4	13.4	1.75e-05	0	62	0	956301312	54	5094
2026-01-26 11:10:00.28	321.31	18.39	-41.1	-44.3	13.5	1.06e-05	0	62	0	957349888	54	5013
2026-01-26 11:10:01.28	321.45	18.29	-41.0	-44.3	13.6	5.30e-06	0	62	0	959447040	54	4986
2026-01-26 11:10:02.29	321.58	18.19	-41.2	-44.5	13.4	1.22e-05	0	62	0	961544192	54	5101
2026-01-26 11:10:03.30	321.72	18.09	-41.2	-44.5	13.4	1.60e-05	0	62	0	963641344	54	5105
2026-01-26 11:10:04.31	321.85	17.99	-41.4	-45.0	12.8	1.90e-05	0	62	0	965738496	54	5422
2026-01-26 11:10:05.32	321.99	17.89	-41.5	-45.1	12.7	4.27e-05	0	62	0	966787072	54	5483
2026-01-26 11:10:06.33	322.12	17.79	-41.6	-45.3	12.5	8.23e-05	0	62	0	968884224	54	5640
2026-01-26 11:10:07.34	322.25	17.69	-41.9	-46.0	11.8	2.87e-04	0	62	0	970981376	54	6081
2026-01-26 11:10:08.35	322.39	17.59	-42.0	-46.1	11.7	4.96e-04	0	62	0	973078528	54	6141
2026-01-26 11:10:09.36	322.52	17.49	-42.2	-46.5	11.2	6.54e-04	0	62	0	975175680	54	6456
2026-01-26 11:10:10.37	322.65	17.39	-42.3	-46.8	10.9	2.36e-03	0	62	0	977272832	55	6322
2026-01-26 11:10:11.38	322.78	17.29	-42.3	-46.8	10.9	2.36e-03	0	62	0	978321408	55	6318
2026-01-26 11:10:12.39	322.90	17.20	-42.5	-47.3	10.3	3.62e-03	0	62	0	980418560	55	6715
2026-01-26 11:10:13.40	323.03	17.10	-42.5	-47.3	10.4	6.17e-03	0	62	0	982515712	55	6653
2026-01-26 11:10:14.42	323.16	17.00	-42.7	-47.7	10.0	5.46e-03	0	62	0	984612864	55	7000
2026-01-26 11:10:15.43	323.28	16.90	-42.6	-47.7	9.9	8.22e-03	0	62	0	986710016	55	6976
2026-01-26 11:10:16.44	323.41	16.81	-42.5	-47.3	10.4	4.61e-03	0	62	0	987758592	55	6651
2026-01-26 11:10:17.44	323.53	16.71	-42.4	-47.1	10.6	4.38e-03	0	62	0	989855744	55	6548
2026-01-26 11:10:18.45	323.66	16.61	-42.3	-46.9	10.6	3.51e-03	0	62	0	991952896	55	6420
2026-01-26 11:10:19.46	323.78	16.52	-42.2	-46.6	11.2	1.38e-03	0	62	0	994050048	55	6137
2026-01-26 11:10:20.47	323.90	16.42	-42.1	-46.4	11.2	1.61e-03	0	62	0	996147200	55	6045
2026-01-26 11:10:21.48	324.02	16.33	-41.9	-46.0	11.7	1.20e-03	0	62	0	997195776	55	5757
2026-01-26 11:10:22.49	324.14	16.23	-42.0	-46.0	11.6	5.40e-04	0	62	0	999292928	55	5787
2026-01-26 11:10:23.50	324.26	16.14	-42.0	-46.2	11.6	6.86e-04	0	62	0	1001390080	55	5867
2026-01-26 11:10:24.51	324.38	16.04	-41.8	-45.7	12.0	3.27e-04	0	62	0	1003487232	55	5531
2026-01-26 11:10:25.52	324.50	15.95	-42.0	-46.1	11.6	4.87e-04	0	62	0	1005584384	55	5844
2026-01-26 11:10:26.53	324.62	15.85	-42.0	-46.2	11.5	8.41e-04	0	62	0	1006632960	55	5880
2026-01-26 11:10:27.54	324.74	15.76	-42.1	-46.4	11.3	7.92e-04	0	62	0	1008730112	55	6007
2026-01-26 11:10:28.55	324.85	15.67	-42.2	-46.6	11.0	1.52e-03	0	62	0	1010827264	55	6182
2026-01-26 11:10:29.56	324.97	15.57	-42.1	-46.5	11.2	1.81e-03	0	62	0	1012924416	55	6068
2026-01-26 11:10:30.57	325.08	15.48	-42.3	-46.9	10.7	2.15e-03	0	62	0	1015021568	55	6377
2026-01-26 11:10:31.58	325.20	15.39	-42.3	-46.8	10.7	3.36e-03	0	62	0	1016070144	55	6327
2026-01-26 11:10:32.59	325.31	15.29	-42.2	-46.8	10.9	1.76e-03	0	63	0	1018167296	55	6287
2026-01-26 11:10:33.60	325.42	15.20	-42.3	-46.8	10.8	2.42e-03	0	62	0	1020264448	55	6304
2026-01-26 11:10:34.61	325.54	15.11	-42.1	-46.5	11.1	2.02e-03	0	62	0	1022361600	55	6078
2026-01-26 11:10:35.62	325.65	15.02	-42.0	-46.3	11.3	1.08e-03	0	62	0	1024458752	55	5967
2026-01-26 11:10:36.63	325.76	14.93	-42.0	-46.2	11.5	8.48e-04	0	62	0	1025507328	55	5866
2026-01-26 11:10:37.64	325.87	14.83	-41.8	-45.9	11.7	6.15e-04	0	63	0	1027604480	55	5674
2026-01-26 11:10:38.65	325.98	14.74	-41.8	-45.8	11.8	4.74e-04	0	62	0	1029701632	55	5655
2026-01-26 11:10:39.66	326.09	14.65	-41.7	-45.7	12.0	3.78e-04	0	62	0	1031798784	55	5533
2026-01-26 11:10:40.67	326.19	14.56	-41.7	-45.6	12.1	2.46e-04	0	62	0	1033895936	55	5481
2026-01-26 11:10:41.68	326.30	14.47	-41.7	-45.7	11.9	4.02e-04	0	62	0	1034944512	55	5542
2026-01-26 11:10:42.69	326.41	14.38	-41.8	-45.7	11.9	4.46e-04	0	62	0	1037041664	55	5583
2026-01-26 11:10:43.70	326.52	14.29	-41.9	-46.0	11.7	4.05e-04	0	62	0	1039138816	55	5728
2026-01-26 11:10:44.71	326.62	14.20	-41.9	-46.0	11.5	6.22e-04	0	62	0	1041235968	55	5786
2026-01-26 11:10:45.72	326.73	14.11	-41.9	-46.1	11.5	8.49e-04	0	62	0	1043333120	55	5801
2026-01-26 11:10:46.73	326.83	14.02	-42.0	-46.2	11.4	1.19e-03	0	62	0	1045430272	55	5883
2026-01-26 11:10:47.74	326.94	13.93	-42.0	-46.4	11.1	1.09e-03	0	62	0	1046478848	55	6053
2026-01-26 11:10:48.75	327.04	13.85	-42.0	-46.3	11.2	1.24e-03	0	62	0	1048576000	55	5988
2026-01-26 11:10:49.76	327.14	13.76	-42.1	-46.5	11.0	1.43e-03	0	62	0	1050673152	55	6103
2026-01-26 11:10:50.77	327.24	13.67	-41.9	-46.2	11.4	1.42e-03	0	62	0	1052770304	55	5870
2026-01-26 11:10:51.78	327.35	13.58	-42.0	-46.3	11.2	1.20e-03	0	62	0	1054867456	55	5945
2026-01-26 11:10:52.79	327.45	13.49	-41.9	-46.1	11.5	8.09e-04	0	62	0	1055916032	55	5807
2026-01-26 11:10:53.80	327.55	13.41	-41.7	-45.6	11.9	6.45e-04	0	62	0	1058013184	55	5523
2026-01-26 11:10:54.81	327.65	13.32	-41.7	-45.7	11.8	4.71e-04	0	62	0	1060110336	55	5554
2026-01-26 11:10:55.82	327.75	13.23	-41.6	-45.6	11.9	3.35e-04	0	62	0	1062207488	55	5494
2026-01-26 11:10:56.83	327.85	13.14	-41.6	-45.5	12.0	2.91e-04	0	62	0	1064304640	55	5454
2026-01-26 11:10:57.84	327.94	13.06	-41.6	-45.4	12.1	2.53e-04	0	62	0	1065353216	55	5385
2026-01-26 11:10:58.85	328.04	12.97	-41.5	-45.2	12.3	2.42e-04	0	62	0	1067450368	55	5273
2026-01-26 11:10:59.86	328.14	12.89	-41.6	-45.5	12.0	2.85e-04	0	62	0	1069547520	54	5747
2026-01-26 11:11:00.87	328.23	12.80	-41.6	-45.5	11.9	3.68e-04	0	62	0	1071644672	54	5786
2026-01-26 11:11:01.88	328.33	12.71	-41.7	-45.7	11.8	4.21e-04	0	62	0	1073741824	54	5884
2026-01-26 11:11:02.88	328.43	12.63	-41.8	-45.9	11.6	5.80e-04	0	62	0	1074790400	54	6015
2026-01-26 11:11:03.89	328.52	12.54	-41.8	-46.1	11.4	7.48e-04	0	62	0	1076887552	54	6149
2026-01-26 11:11:04.90	328.62	12.46	-41.9	-46.1	11.3	1.00e-03	0	62	0	1078984704	54	6191
2026-01-26 11:11:05.91	328.71	12.38	-42.0	-46.4	11.1	1.43e-03	0	62	0	1081081856	54	6370
2026-01-26 11:11:06.92	328.80	12.29	-42.0	-46.5	10.9	1.94e-03	0	62	0	1083179008	54	6459
2026-01-26 11:11:07.93	328.90	12.21	-42.0	-46.5	10.9	2.31e-03	0	62	0	1084227584	54	6478
2026-01-26 11:11:08.94	328.99	12.12	-42.1	-46.7	10.7	2.33e-03	0	62	0	1086324736	54	6624
2026-01-26 11:11:09.95	329.08	12.04	-42.1	-46.7	10.7	3.06e-03	0	62	0	1088421888	54	6584
2026-01-26 11:11:10.96	329.17	11.96	-42.1	-46.8	10.6	3.12e-03	0	62	0	1090519040	54	6663
2026-01-26 11:11:11.97	329.26	11.87	-42.1	-46.9	10.5	3.47e-03	0	62	0	1092616192	54	6725
2026-01-26 11:11:12.98	329.35	11.79	-42.1	-46.8	10.6	2.92e-03	0	62	0	1093664768	54	6649
2026-01-26 11:11:14.00	329.44	11.71	-42.1	-46.7	10.7	3.37e-03	0	62	0	1095761920	54	6594
2026-01-26 11:11:15.01	329.53	11.62	-42.1	-46.7	10.7	3.68e-03	0	62	0	1097859072	54	6603
2026-01-26 11:11:16.02	329.62	11.54	-42.1	-46.7	10.7	3.13e-03	0	62	0	1099956224	54	6580
2026-01-26 11:11:17.03	329.71	11.46	-42.0	-46.6	10.8	2.90e-03	0	62	0	1102053376	54	6531
2026-01-26 11:11:18.04	329.80	11.38	-42.0	-46.6	10.7	2.53e-03	0	62	0	1103101952	54	6548
2026-01-26 11:11:19.05	329.89	11.29	-41.9	-46.4	10.9	2.22e-03	0	62	0	1105199104	54	6408
2026-01-26 11:11:20.06	329.97	11.21	-42.0	-46.7	10.7	2.35e-03	0	62	0	1107296256	54	6571
2026-01-26 11:11:21.07	330.06	11.13	-42.0	-46.5	10.8	2.47e-03	0	62	0	1109393408	54	6491
2026-01-26 11:11:22.07	330.15	11.05	-41.9	-46.5	10.9	2.49e-03	0	62	0	1111490560	54	6424
2026-01-26 11:11:23.08	330.23	10.97	-42.0	-46.6	10.7	3.16e-03	0	62	0	1113587712	54	6513
2026-01-26 11:11:24.09	330.32	10.89	-42.0	-46.5	10.8	2.65e-03	0	62	0	1114636288	54	6463
2026-01-26 11:11:25.10	330.40	10.81	-42.0	-46.7	10.7	2.56e-03	0	62	0	1116733440	54	6595
2026-01-26 11:11:26.11	330.49	10.73	-41.9	-46.5	10.8	2.81e-03	0	62	0	1118830592	54	6421
2026-01-26 11:11:27.12	330.57	10.65	-41.9	-46.5	10.8	2.52e-03	0	62	0	1120927744	54	6456
2026-01-26 11:11:28.13	330.65	10.57	-42.0	-46.6	10.7	3.17e-03	0	62	0	1123024896	54	6500
2026-01-26 11:11:29.14	330.74	10.49	-41.9	-46.4	10.9	2.36e-03	0	62	0	1124073472	54	6369
2026-01-26 11:11:30.15	330.82	10.41	-41.9	-46.4	10.9	2.46e-03	0	62	0	1126170624	54	6383
2026-01-26 11:11:31.16	330.90	10.33	-41.9	-46.4	10.9	1.95e-03	0	62	0	1128267776	54	6350
2026-01-26 11:11:32.17	330.99	10.25	-41.8	-46.3	10.9	2.37e-03	0	62	0	1130364928	54	6299
2026-01-26 11:11:33.18	331.07	10.17	-42.0	-46.6	10.6	2.43e-03	0	62	0	1132462080	54	6568
2026-01-26 11:11:34.19	331.15	10.09	-41.9	-46.4	10.8	2.39e-03	0	62	0	1133510656	54	6420
2026-01-26 11:11:35.20	331.23	10.02	-41.8	-46.2	11.0	1.89e-03	0	62	0	1135607808	54	6255
2026-01-26 11:11:36.21	331.31	9.94	-41.7	-46.2	11.0	1.47e-03	0	62	0	1137704960	54	6209
2026-01-26 11:11:37.22	331.39	9.86	-41.7	-46.2	11.0	1.93e-03	0	62	0	1139802112	54	6214
2026-01-26 11:11:38.23	331.47	9.78	-41.6	-46.0	11.2	1.53e-03	0	62	0	1141899264	54	6066
2026-01-26 11:11:39.24	331.55	9.70	-41.7	-46.0	11.1	1.64e-03	0	62	0	1142947840	54	6128
2026-01-26 11:11:40.25	331.63	9.63	-41.6	-46.0	11.1	1.39e-03	0	62	0	1145044992	54	6101
2026-01-26 11:11:41.26	331.70	9.55	-41.7	-46.1	11.1	1.41e-03	0	62	0	1147142144	54	6133
2026-01-26 11:11:42.27	331.78	9.47	-41.5	-45.7	11.4	1.19e-03	0	62	0	1149239296	54	5920
2026-01-26 11:11:43.28	331.86	9.40	-41.5	-45.8	11.3	1.04e-03	0	62	0	1151336448	54	5929
2026-01-26 11:11:44.29	331.94	9.32	-41.5	-45.8	11.3	1.34e-03	0	62	0	1152385024	54	5990
2026-01-26 11:11:45.30	332.01	9.24	-41.6	-45.9	11.2	1.15e-03	0	62	0	1154482176	54	6024
2026-01-26 11:11:46.31	332.09	9.17	-41.5	-45.9	11.3	1.32e-03	0	62	0	1156579328	54	6003
2026-01-26 11:11:47.32	332.17	9.09	-41.6	-45.9	11.2	1.41e-03	0	62	0	1158676480	54	6027
2026-01-26 11:11:48.33	332.24	9.01	-41.6	-46.0	11.1	1.48e-03	0	62	0	1160773632	54	6099
2026-01-26 11:11:49.34	332.32	8.94	-41.6	-46.1	10.9	1.40e-03	0	62	0	1161822208	54	6161
2026-01-26 11:11:50.34	332.39	8.86	-41.6	-46.2	10.8	2.06e-03	0	62	0	1163919360	54	6211
2026-01-26 11:11:51.35	332.47	8.79	-41.6	-46.1	10.8	2.44e-03	0	62	0	1166016512	54	6176
2026-01-26 11:11:52.36	332.54	8.71	-41.6	-46.2	10.8	3.21e-03	0	62	0	1168113664	54	6219
2026-01-26 11:11:53.37	332.61	8.64	-41.6	-46.1	10.8	2.63e-03	0	62	0	1170210816	54	6170
2026-01-26 11:11:54.38	332.69	8.56	-41.6	-46.3	10.7	2.78e-03	0	62	0	1171259392	54	6278
2026-01-26 11:11:55.39	332.76	8.49	-41.6	-46.1	10.8	2.66e-03	0	62	0	1173356544	54	6187
2026-01-26 11:11:56.40	332.83	8.42	-41.6	-46.3	10.5	3.27e-03	0	62	0	1175453696	54	6342
2026-01-26 11:11:57.41	332.91	8.34	-41.7	-46.6	10.3	4.34e-03	0	62	0	1177550848	54	6512
2026-01-26 11:11:58.42	332.98	8.27	-41.7	-46.5	10.3	5.28e-03	0	62	0	1179648000	54	6467
2026-01-26 11:11:59.43	333.05	8.19	-41.7	-46.5	10.3	5.17e-03	0	62	0	1181745152	54	6452
2026-01-26 11:12:00.44	333.12	8.12	-41.6	-46.4	10.4	5.28e-03	0	62	0	1182793728	54	6354
2026-01-26 11:12:01.45	333.19	8.05	-41.7	-46.6	10.2	6.39e-03	0	62	0	1184890880	54	6526
2026-01-26 11:12:02.46	333.26	7.97	-42.1	-47.5	9.6	6.30e-03	0	62	0	1186988032	54	7253
2026-01-26 11:12:03.47	333.33	7.90	-44.3	-57.8	3.8	1.49e+00	0	62	104	1186988032	59	17780
2026-01-26 11:12:04.48	333.40	7.83	-44.7	-59.1	3.8	1.49e+00	0	62	104	1186988032	59	20609
2026-01-26 11:12:05.49	333.47	7.75	-44.8	-59.5	3.8	1.49e+00	0	62	104	1186988032	60	20333
2026-01-26 11:12:06.50	333.54	7.68	-45.0	-59.6	3.8	1.49e+00	0	62	104	1186988032	60	20665
2026-01-26 11:12:07.51	333.61	7.61	-45.1	-59.7	3.8	1.49e+00	0	62	104	1186988032	60	20875
2026-01-26 11:12:08.52	333.68	7.54	-45.2	-59.8	3.8	1.49e+00	0	62	104	1186988032	60	21131
2026-01-26 11:12:09.53	333.75	7.47	-45.2	-59.8	3.8	1.49e+00	0	62	104	1186988032	60	21163
2026-01-26 11:12:10.54	333.82	7.39	-45.2	-59.9	3.8	1.49e+00	0	62	104	1186988032	61	20079
2026-01-26 11:12:11.55	333.88	7.32	-45.2	-59.8	3.8	1.49e+00	0	62	104	1186988032	61	20029
2026-01-26 11:12:12.56	333.95	7.25	-45.1	-59.8	3.8	1.49e+00	0	62	104	1186988032	61	19981
2026-01-26 11:12:13.57	334.02	7.18	-45.1	-59.8	3.8	1.49e+00	0	62	104	1186988032	61	19888
2026-01-26 11:12:14.58	334.09	7.11	-45.1	-59.8	3.8	1.49e+00	0	62	104	1186988032	60	21101
2026-01-26 11:12:15.59	334.15	7.04	-45.2	-59.8	3.8	1.49e+00	0	62	104	1186988032	60	21044
2026-01-26 11:12:16.60	334.22	6.97	-45.0	-59.7	3.8	1.49e+00	0	62	104	1186988032	60	21009
2026-01-26 11:12:17.61	334.29	6.90	-45.1	-59.7	3.8	1.49e+00	0	62	104	1186988032	60	20888
2026-01-26 11:12:18.62	334.35	6.83	-45.1	-59.7	3.8	1.49e+00	0	62	104	1186988032	60	20892
2026-01-26 11:12:19.63	334.42	6.75	-45.0	-59.7	3.8	1.49e+00	0	62	104	1186988032	60	20862
2026-01-26 11:12:20.65	334.48	6.68	-45.0	-59.6	3.8	1.49e+00	0	62	104	1186988032	60	20776
2026-01-26 11:12:21.65	334.55	6.61	-45.0	-59.6	3.8	1.49e+00	0	62	104	1186988032	60	20684
2026-01-26 11:12:22.67	334.61	6.54	-45.0	-59.6	3.8	1.49e+00	0	62	104	1186988032	60	20676
2026-01-26 11:12:23.68	334.68	6.47	-44.9	-59.6	3.8	1.49e+00	0	62	104	1186988032	60	20744
2026-01-26 11:12:24.68	334.74	6.41	-45.0	-59.6	3.8	1.49e+00	0	62	104	1186988032	60	20700
2026-01-26 11:12:25.70	334.80	6.34	-45.0	-59.6	3.8	1.49e+00	0	62	104	1186988032	60	20717
2026-01-26 11:12:26.70	334.87	6.27	-45.0	-59.6	3.8	1.49e+00	0	62	104	1186988032	60	20730
