passes_logs/2026/01/26/R2.0S_Moscow/R2.0S_Moscow__20260126_003859_NOAA_21_JPSS-2_rec.log

#Pass ID: 20260126_003859_NOAA 21 (JPSS-2)
#Satellite: NOAA 21 (JPSS-2)
#Configuration: NOAA-21
#almurnet v.1.7.20251203
#Start time: 2026-01-26 00:39:04

#Version: 2.2.20231116
#Station: R2.0S_Moscow
#Location: 37.707566 lon 55.798166 lat
#TLE: 1 54234U 22150A   26025.44451686  .00000186  00000+0  10896-3 0  9992
#TLE: 2 54234  98.7509 326.2184 0000763 215.1852 144.9274 14.19539183166293

#Time	Az	El	Level	Level2	SNR	BER	BlckErr	Temp	State	Recorded	gain1	gain2
2026-01-26 00:39:04.31	12.17	2.32	-45.6	-58.1	3.8	1.49e+00	0	62	0	0	61	16319
2026-01-26 00:39:05.31	12.13	2.38	-45.3	-57.8	3.8	1.49e+00	0	62	104	0	62	14898
2026-01-26 00:39:06.32	12.09	2.44	-45.2	-57.7	3.8	1.49e+00	0	62	104	0	62	14752
2026-01-26 00:39:07.33	12.05	2.51	-45.1	-57.6	3.8	1.49e+00	0	62	104	0	62	14603
2026-01-26 00:39:08.34	12.01	2.57	-44.5	-57.0	3.8	1.49e+00	0	62	104	0	61	14437
2026-01-26 00:39:09.36	11.97	2.63	-42.9	-55.1	3.8	1.49e+00	0	62	104	0	57	14659
2026-01-26 00:39:10.37	11.93	2.70	-40.0	-52.4	3.8	1.49e+00	0	62	104	0	52	14258
2026-01-26 00:39:11.38	11.89	2.76	-40.0	-52.3	3.8	1.49e+00	0	62	104	0	52	14145
2026-01-26 00:39:12.39	11.85	2.82	-40.0	-52.3	3.8	1.49e+00	0	62	104	0	52	14100
2026-01-26 00:39:13.40	11.81	2.89	-40.0	-52.3	3.8	1.49e+00	0	62	104	0	52	14106
2026-01-26 00:39:14.41	11.77	2.95	-40.1	-52.4	3.8	1.49e+00	0	62	104	0	51	15092
2026-01-26 00:39:15.42	11.73	3.01	-40.0	-52.4	3.8	1.49e+00	0	62	104	0	51	15082
2026-01-26 00:39:16.43	11.69	3.08	-40.1	-52.4	3.8	1.49e+00	0	62	104	0	51	15120
2026-01-26 00:39:17.45	11.65	3.14	-40.0	-52.3	3.8	1.49e+00	0	62	104	0	51	15038
2026-01-26 00:39:18.46	11.61	3.21	-40.0	-52.3	3.8	1.49e+00	0	62	104	0	51	15043
2026-01-26 00:39:19.47	11.57	3.27	-40.0	-52.3	3.8	1.49e+00	0	62	104	0	51	15051
2026-01-26 00:39:20.48	11.52	3.33	-40.0	-52.3	3.8	1.49e+00	0	62	104	0	51	15013
2026-01-26 00:39:21.49	11.48	3.40	-40.0	-52.3	3.8	1.49e+00	0	62	104	0	51	15019
2026-01-26 00:39:22.50	11.44	3.46	-40.0	-52.3	3.8	1.49e+00	0	62	104	0	51	14967
2026-01-26 00:39:23.51	11.40	3.53	-40.0	-52.3	3.8	1.49e+00	0	62	104	0	51	14988
2026-01-26 00:39:24.52	11.35	3.59	-40.0	-52.3	3.8	1.49e+00	0	62	104	0	51	14929
2026-01-26 00:39:25.53	11.31	3.66	-40.0	-52.3	3.8	1.49e+00	0	62	104	0	51	15016
2026-01-26 00:39:26.54	11.27	3.72	-40.0	-52.3	3.8	1.49e+00	0	62	104	0	51	15001
2026-01-26 00:39:27.55	11.22	3.79	-40.0	-52.3	3.8	1.49e+00	0	62	104	0	51	15015
2026-01-26 00:39:28.56	11.18	3.86	-40.0	-52.3	3.8	1.49e+00	0	62	104	0	51	15031
2026-01-26 00:39:29.57	11.14	3.92	-40.0	-52.3	3.8	1.49e+00	0	62	104	0	51	15044
2026-01-26 00:39:30.58	11.09	3.99	-40.0	-52.3	3.8	1.49e+00	0	62	104	0	51	14985
2026-01-26 00:39:31.59	11.05	4.05	-40.0	-52.3	3.8	1.49e+00	0	62	104	0	51	14995
2026-01-26 00:39:32.60	11.00	4.12	-40.0	-52.3	3.8	1.49e+00	0	62	104	0	51	15008
2026-01-26 00:39:33.61	10.96	4.19	-40.0	-52.3	3.8	1.49e+00	0	62	104	0	51	15001
2026-01-26 00:39:34.62	10.91	4.25	-40.0	-52.3	3.8	1.49e+00	0	62	104	0	51	15013
2026-01-26 00:39:35.63	10.87	4.32	-40.0	-52.3	3.8	1.49e+00	0	62	104	0	51	15038
2026-01-26 00:39:36.64	10.82	4.39	-40.0	-52.3	3.8	1.49e+00	0	62	104	0	51	14974
2026-01-26 00:39:37.66	10.78	4.45	-40.0	-52.3	3.8	1.49e+00	0	62	104	0	51	14921
2026-01-26 00:39:38.66	10.73	4.52	-40.0	-52.3	3.8	1.49e+00	0	62	104	0	51	14976
2026-01-26 00:39:39.67	10.69	4.59	-40.0	-52.3	3.8	1.49e+00	0	62	104	0	51	14961
2026-01-26 00:39:40.68	10.64	4.65	-40.0	-52.3	3.8	1.49e+00	0	62	104	0	51	14963
2026-01-26 00:39:41.69	10.59	4.72	-40.0	-52.3	3.8	1.49e+00	0	62	104	0	51	14924
2026-01-26 00:39:42.70	10.55	4.79	-40.0	-52.3	3.8	1.49e+00	0	62	104	0	51	14957
2026-01-26 00:39:43.72	10.50	4.86	-40.0	-52.3	3.8	1.49e+00	0	62	104	0	51	14939
2026-01-26 00:39:44.73	10.45	4.92	-40.0	-52.3	3.8	1.49e+00	0	62	104	0	51	14961
2026-01-26 00:39:45.74	10.41	4.99	-40.0	-52.3	3.8	1.49e+00	0	62	104	0	51	14909
2026-01-26 00:39:46.75	10.36	5.06	-40.0	-52.3	3.8	1.49e+00	0	62	104	0	51	14931
2026-01-26 00:39:47.76	10.31	5.13	-40.0	-52.3	3.8	1.49e+00	0	62	104	0	51	14918
2026-01-26 00:39:48.77	10.26	5.20	-40.0	-52.3	3.8	1.49e+00	0	62	104	0	51	14939
2026-01-26 00:39:49.78	10.21	5.27	-40.0	-52.3	3.8	1.49e+00	0	62	104	0	51	14936
2026-01-26 00:39:50.79	10.16	5.34	-40.0	-52.3	3.8	1.49e+00	0	62	104	0	51	14929
2026-01-26 00:39:51.80	10.12	5.40	-40.0	-52.3	3.8	1.49e+00	0	62	104	0	51	14926
2026-01-26 00:39:52.81	10.07	5.47	-40.0	-52.3	3.8	1.49e+00	0	62	104	0	51	14978
2026-01-26 00:39:53.82	10.02	5.54	-40.0	-52.3	3.8	1.49e+00	0	62	104	0	51	14942
2026-01-26 00:39:54.83	9.97	5.61	-40.0	-52.3	3.8	1.49e+00	0	62	104	0	51	14918
2026-01-26 00:39:55.84	9.92	5.68	-40.0	-52.3	3.8	1.49e+00	0	62	104	0	51	14994
2026-01-26 00:39:56.85	9.87	5.75	-40.0	-52.3	3.8	1.49e+00	0	62	104	0	51	14952
2026-01-26 00:39:57.86	9.82	5.82	-40.0	-52.3	3.8	1.49e+00	0	62	104	0	51	14962
2026-01-26 00:39:58.87	9.77	5.89	-40.0	-52.3	3.8	1.49e+00	0	62	104	0	51	14912
2026-01-26 00:39:59.88	9.72	5.96	-40.0	-52.3	3.8	1.49e+00	0	62	104	0	51	14904
2026-01-26 00:40:00.89	9.66	6.03	-40.0	-52.3	3.8	1.49e+00	0	62	104	0	51	14909
2026-01-26 00:40:01.90	9.61	6.10	-40.0	-52.3	3.8	1.49e+00	0	62	104	0	51	14923
2026-01-26 00:40:02.91	9.56	6.17	-40.0	-52.3	3.8	1.49e+00	0	62	104	0	51	14903
2026-01-26 00:40:03.92	9.51	6.25	-40.0	-52.3	3.8	1.49e+00	0	62	104	0	51	14952
2026-01-26 00:40:04.93	9.46	6.32	-40.0	-52.3	3.8	1.49e+00	0	62	104	0	51	14907
2026-01-26 00:40:05.94	9.40	6.39	-40.0	-52.3	3.8	1.49e+00	0	62	104	0	51	14901
2026-01-26 00:40:06.95	9.35	6.46	-40.0	-52.3	3.8	1.49e+00	0	62	104	0	51	14936
2026-01-26 00:40:07.96	9.30	6.53	-40.0	-52.3	3.8	1.49e+00	0	62	104	0	51	14952
2026-01-26 00:40:08.97	9.24	6.60	-40.0	-52.3	3.8	1.49e+00	0	62	104	0	51	14916
2026-01-26 00:40:09.97	9.19	6.67	-40.0	-52.3	3.8	1.49e+00	0	62	104	0	51	14899
2026-01-26 00:40:10.98	9.14	6.75	-40.0	-52.3	3.8	1.49e+00	0	62	104	0	51	14880
2026-01-26 00:40:11.99	9.08	6.82	-40.0	-52.3	3.8	1.49e+00	0	62	104	0	51	14972
2026-01-26 00:40:13.00	9.03	6.89	-40.0	-52.3	3.8	1.49e+00	0	62	104	0	51	14907
2026-01-26 00:40:14.01	8.97	6.96	-40.0	-52.3	3.8	1.49e+00	0	62	104	0	51	14944
2026-01-26 00:40:15.02	8.92	7.04	-40.0	-52.3	3.8	1.49e+00	0	62	104	0	51	14915
2026-01-26 00:40:16.03	8.86	7.11	-40.0	-52.3	3.8	1.49e+00	0	62	104	0	51	14916
2026-01-26 00:40:17.04	8.81	7.18	-40.0	-52.3	3.8	1.49e+00	0	62	104	0	51	14928
2026-01-26 00:40:18.05	8.75	7.26	-40.0	-52.3	3.8	1.49e+00	0	62	104	0	51	14957
2026-01-26 00:40:19.06	8.69	7.33	-40.0	-52.3	3.8	1.49e+00	0	62	104	0	51	14938
2026-01-26 00:40:20.07	8.64	7.40	-40.0	-52.3	3.8	1.49e+00	0	62	104	0	51	14912
2026-01-26 00:40:21.08	8.58	7.48	-40.0	-52.3	3.8	1.49e+00	0	62	104	0	51	14959
2026-01-26 00:40:22.09	8.52	7.55	-40.0	-52.2	3.8	1.49e+00	0	62	104	0	51	14857
2026-01-26 00:40:23.10	8.47	7.63	-39.9	-52.3	3.8	1.49e+00	0	62	104	0	51	14935
2026-01-26 00:40:24.11	8.41	7.70	-40.0	-52.3	3.8	1.49e+00	0	62	104	0	51	14895
2026-01-26 00:40:25.12	8.35	7.78	-40.0	-52.3	3.8	1.49e+00	0	62	104	0	51	14899
2026-01-26 00:40:26.13	8.29	7.85	-40.0	-52.3	3.8	1.49e+00	0	62	104	0	51	14908
2026-01-26 00:40:27.14	8.23	7.93	-40.0	-52.3	3.8	1.49e+00	0	62	104	0	51	14944
2026-01-26 00:40:28.15	8.17	8.00	-40.0	-52.3	3.8	1.49e+00	0	62	104	0	51	14891
2026-01-26 00:40:29.16	8.11	8.08	-40.0	-52.3	3.8	1.49e+00	0	62	104	0	51	14900
2026-01-26 00:40:30.17	8.05	8.15	-39.9	-52.3	3.8	1.49e+00	0	62	104	0	51	14902
2026-01-26 00:40:31.18	7.99	8.23	-40.1	-52.4	3.8	1.49e+00	0	62	104	0	51	15098
2026-01-26 00:40:32.19	7.93	8.31	-40.1	-52.4	3.8	1.49e+00	0	62	104	0	51	15175
2026-01-26 00:40:33.20	7.87	8.38	-40.2	-52.5	3.8	1.49e+00	0	62	104	0	51	15369
2026-01-26 00:40:34.21	7.81	8.46	-40.0	-52.3	3.8	1.49e+00	0	62	104	0	51	14924
2026-01-26 00:40:35.22	7.75	8.53	-40.1	-52.4	3.8	1.49e+00	0	62	104	0	51	15147
2026-01-26 00:40:36.23	7.69	8.61	-40.1	-52.4	3.8	1.49e+00	0	62	104	0	51	15099
2026-01-26 00:40:37.24	7.63	8.69	-40.2	-52.5	3.8	1.49e+00	0	62	104	0	51	15254
2026-01-26 00:40:38.24	7.56	8.77	-39.9	-52.2	3.8	1.49e+00	0	62	104	0	51	14867
2026-01-26 00:40:39.25	7.50	8.84	-40.1	-52.4	3.8	1.49e+00	0	62	104	0	51	15138
2026-01-26 00:40:40.26	7.44	8.92	-40.0	-52.4	3.8	1.49e+00	0	62	104	0	51	15129
2026-01-26 00:40:41.27	7.37	9.00	-40.2	-52.5	3.8	1.49e+00	0	62	104	0	51	15256
2026-01-26 00:40:42.28	7.31	9.08	-39.9	-52.2	3.8	1.49e+00	0	62	104	0	51	14840
2026-01-26 00:40:43.29	7.25	9.16	-40.1	-52.4	3.8	1.49e+00	0	62	104	0	51	15195
2026-01-26 00:40:44.30	7.18	9.23	-40.0	-52.3	3.8	1.49e+00	0	62	104	0	51	15025
2026-01-26 00:40:45.31	7.12	9.31	-40.2	-52.5	3.8	1.49e+00	0	62	104	0	51	15385
2026-01-26 00:40:46.32	7.05	9.39	-39.9	-52.2	3.8	1.49e+00	0	62	104	0	51	14801
2026-01-26 00:40:47.33	6.98	9.47	-40.2	-52.5	3.8	1.49e+00	0	62	104	0	51	15328
2026-01-26 00:40:48.34	6.92	9.55	-40.0	-52.3	3.8	1.49e+00	0	62	104	0	51	14996
2026-01-26 00:40:49.35	6.85	9.63	-40.3	-52.6	3.8	1.49e+00	0	62	104	0	51	15472
2026-01-26 00:40:50.36	6.78	9.71	-39.8	-52.2	3.8	1.49e+00	0	62	104	0	51	14760
2026-01-26 00:40:51.37	6.72	9.79	-39.8	-52.1	3.8	1.49e+00	0	62	104	0	51	14685
2026-01-26 00:40:52.38	6.65	9.87	-39.8	-52.2	3.8	1.49e+00	0	62	104	0	51	14732
2026-01-26 00:40:53.39	6.58	9.95	-39.8	-52.1	3.8	1.49e+00	0	62	104	0	51	14670
2026-01-26 00:40:54.40	6.51	10.03	-39.8	-52.2	3.8	1.49e+00	0	62	104	0	51	14752
2026-01-26 00:40:55.41	6.44	10.11	-40.0	-52.3	3.8	1.49e+00	0	62	104	0	51	14967
2026-01-26 00:40:56.42	6.37	10.19	-40.5	-52.9	3.8	1.49e+00	0	62	104	0	51	15944
2026-01-26 00:40:57.43	6.30	10.27	-40.1	-52.4	3.8	1.49e+00	0	62	104	0	51	15206
2026-01-26 00:40:58.44	6.23	10.36	-39.9	-52.2	3.8	1.49e+00	0	62	104	0	51	14819
2026-01-26 00:40:59.45	6.16	10.44	-40.0	-52.3	3.8	1.49e+00	0	62	104	0	51	14989
2026-01-26 00:41:00.46	6.09	10.52	-40.0	-52.3	3.8	1.49e+00	0	62	104	0	51	14970
2026-01-26 00:41:01.46	6.02	10.60	-40.1	-52.4	3.8	1.49e+00	0	62	104	0	51	15097
2026-01-26 00:41:02.47	5.95	10.68	-40.2	-52.5	3.8	1.49e+00	0	62	104	0	51	15248
2026-01-26 00:41:03.48	5.88	10.77	-40.5	-52.8	3.8	1.49e+00	0	62	104	0	51	15837
2026-01-26 00:41:04.49	5.80	10.85	-40.7	-52.9	3.8	1.49e+00	0	62	104	0	52	15142
2026-01-26 00:41:05.50	5.73	10.93	-40.3	-52.5	3.8	1.49e+00	0	62	104	0	52	14400
2026-01-26 00:41:06.51	5.66	11.02	-40.2	-52.4	3.8	1.49e+00	0	62	104	0	51	15142
2026-01-26 00:41:07.52	5.58	11.10	-40.3	-52.4	3.8	1.49e+00	0	62	104	0	51	15196
2026-01-26 00:41:08.53	5.51	11.18	-40.3	-52.5	3.8	1.49e+00	0	62	104	0	51	15261
2026-01-26 00:41:09.54	5.43	11.27	-40.4	-52.6	3.8	1.49e+00	0	62	104	0	51	15545
2026-01-26 00:41:10.55	5.36	11.35	-40.4	-52.6	3.8	1.49e+00	0	62	104	0	51	15521
2026-01-26 00:41:11.56	5.28	11.44	-40.7	-52.8	3.8	1.49e+00	0	62	104	0	51	15765
2026-01-26 00:41:12.57	5.21	11.52	-41.1	-50.9	3.9	1.49e+00	0	62	104	0	53	11341
2026-01-26 00:41:13.58	5.13	11.61	-40.7	-52.5	3.8	1.47e+00	0	62	104	0	53	13665
2026-01-26 00:41:14.59	5.05	11.69	-40.7	-51.9	3.8	1.49e+00	0	62	104	0	53	12682
2026-01-26 00:41:15.60	4.97	11.78	-40.7	-48.9	4.5	1.38e+00	4	62	104	0	53	9063
2026-01-26 00:41:16.61	4.90	11.86	-40.7	-48.5	4.7	1.12e+00	0	62	104	0	53	8642
2026-01-26 00:41:17.62	4.82	11.95	-40.6	-48.8	4.0	1.26e+00	0	62	104	1048576	53	8889
2026-01-26 00:41:18.63	4.74	12.04	-40.7	-48.2	5.0	6.26e-01	0	62	0	3145728	53	8275
2026-01-26 00:41:19.64	4.66	12.12	-40.8	-50.8	3.9	1.00e+00	0	62	104	3145728	53	11223
2026-01-26 00:41:20.65	4.58	12.21	-41.2	-49.4	4.0	1.49e+00	0	62	104	3145728	53	9582
2026-01-26 00:41:21.66	4.50	12.30	-40.8	-50.8	3.9	8.01e-01	0	62	104	3145728	53	11181
2026-01-26 00:41:22.67	4.42	12.39	-40.8	-50.3	4.1	1.49e+00	0	62	104	3145728	53	10636
2026-01-26 00:41:23.68	4.33	12.47	-40.9	-49.0	4.7	1.19e+00	0	62	104	3145728	53	9072
2026-01-26 00:41:24.69	4.25	12.56	-40.8	-48.3	4.9	7.77e-01	0	62	0	3145728	53	8424
2026-01-26 00:41:25.70	4.17	12.65	-40.8	-47.8	5.3	5.86e-01	0	62	0	6291456	53	7927
2026-01-26 00:41:26.71	4.09	12.74	-40.8	-47.4	5.6	4.74e-01	0	62	0	9437184	53	7629
2026-01-26 00:41:27.72	4.00	12.83	-40.9	-47.6	5.6	4.21e-01	0	62	0	12582912	53	7787
2026-01-26 00:41:28.73	3.92	12.91	-41.0	-48.1	5.3	5.10e-01	0	62	0	15728640	53	8177
2026-01-26 00:41:29.74	3.83	13.00	-41.2	-48.1	5.4	5.41e-01	0	62	0	18874368	53	8258
2026-01-26 00:41:30.75	3.75	13.09	-41.2	-47.9	5.6	4.42e-01	0	62	0	22020096	53	8027
2026-01-26 00:41:31.76	3.66	13.18	-41.4	-52.6	3.8	1.07e+00	0	62	104	24117248	53	13851
2026-01-26 00:41:32.77	3.57	13.27	-41.4	-47.0	6.8	1.20e+00	0	62	104	24117248	53	7263
2026-01-26 00:41:33.78	3.49	13.36	-40.6	-48.4	4.9	2.86e-01	0	62	0	26214400	52	9017
2026-01-26 00:41:34.79	3.40	13.45	-39.8	-44.0	8.9	5.56e-01	0	62	0	27262976	51	5780
2026-01-26 00:41:35.80	3.31	13.54	-39.3	-42.7	10.6	4.85e-03	0	62	0	29360128	50	5254
2026-01-26 00:41:36.81	3.22	13.64	-38.9	-42.0	11.3	1.62e-03	0	62	0	32505856	49	5149
2026-01-26 00:41:37.82	3.13	13.73	-38.8	-41.9	11.4	9.09e-04	0	62	0	36700160	49	5060
2026-01-26 00:41:38.83	3.04	13.82	-38.9	-41.9	11.6	8.23e-04	0	62	0	39845888	49	5060
2026-01-26 00:41:39.84	2.95	13.91	-39.0	-42.0	11.6	6.79e-04	0	62	0	42991616	49	5118
2026-01-26 00:41:40.85	2.86	14.00	-39.1	-42.2	11.4	8.38e-04	0	62	0	46137344	49	5237
2026-01-26 00:41:41.86	2.77	14.10	-39.4	-42.5	11.1	1.39e-03	0	62	0	49283072	49	5464
2026-01-26 00:41:42.87	2.68	14.19	-39.7	-43.0	10.7	2.40e-03	0	62	0	52428800	49	5778
2026-01-26 00:41:43.88	2.59	14.28	-39.7	-43.1	10.8	3.06e-03	0	62	0	55574528	50	5474
2026-01-26 00:41:44.89	2.49	14.37	-39.7	-42.9	11.1	1.89e-03	0	62	0	58720256	50	5352
2026-01-26 00:41:45.90	2.40	14.47	-39.6	-42.6	11.4	1.09e-03	0	62	0	61865984	50	5200
2026-01-26 00:41:46.91	2.30	14.56	-39.4	-42.3	11.9	5.79e-04	0	62	0	65011712	50	5023
2026-01-26 00:41:47.92	2.21	14.66	-39.4	-42.1	12.2	2.86e-04	0	62	0	68157440	50	4908
2026-01-26 00:41:48.93	2.11	14.75	-39.3	-42.0	12.4	1.43e-04	0	62	0	71303168	50	4838
2026-01-26 00:41:49.94	2.02	14.84	-39.4	-42.1	12.3	1.58e-04	0	62	0	74448896	50	4899
2026-01-26 00:41:50.95	1.92	14.94	-39.6	-42.4	12.1	2.12e-04	0	62	0	77594624	50	5078
2026-01-26 00:41:51.96	1.82	15.03	-39.7	-42.4	12.2	2.65e-04	0	62	0	80740352	50	5083
2026-01-26 00:41:52.97	1.72	15.13	-39.4	-42.0	12.7	7.40e-05	0	62	0	83886080	50	4860
2026-01-26 00:41:53.98	1.62	15.23	-39.6	-42.2	12.6	8.08e-05	0	62	0	87031808	50	4933
2026-01-26 00:41:54.99	1.52	15.32	-39.6	-42.2	12.6	9.84e-05	0	62	0	90177536	50	4978
2026-01-26 00:41:56.00	1.42	15.42	-39.8	-42.6	12.3	1.61e-04	0	62	0	93323264	50	5161
2026-01-26 00:41:57.01	1.32	15.52	-39.7	-42.3	12.5	1.52e-04	0	62	0	96468992	50	5031
2026-01-26 00:41:58.02	1.22	15.61	-39.6	-42.2	12.7	8.85e-05	0	62	0	99614720	50	4939
2026-01-26 00:41:59.03	1.12	15.71	-39.7	-42.3	12.5	1.10e-04	0	62	0	102760448	50	5029
2026-01-26 00:42:00.04	1.02	15.81	-39.7	-42.4	12.4	1.41e-04	0	62	0	105906176	50	5073
2026-01-26 00:42:01.05	0.91	15.90	-39.7	-42.4	12.5	1.17e-04	0	62	0	109051904	50	5062
2026-01-26 00:42:02.06	0.81	16.00	-39.8	-42.5	12.4	1.39e-04	0	62	0	112197632	50	5122
2026-01-26 00:42:03.07	0.70	16.10	-39.7	-42.4	12.5	1.14e-04	0	62	0	115343360	50	5064
2026-01-26 00:42:04.08	0.60	16.20	-39.8	-42.4	12.4	1.26e-04	0	62	0	118489088	50	5097
2026-01-26 00:42:05.09	0.49	16.30	-39.7	-42.3	12.6	1.14e-04	0	62	0	121634816	50	5039
2026-01-26 00:42:06.10	0.38	16.40	-39.8	-42.5	12.4	1.50e-04	0	62	0	124780544	50	5132
2026-01-26 00:42:07.11	0.27	16.50	-39.7	-42.4	12.5	1.27e-04	0	62	0	127926272	50	5078
2026-01-26 00:42:08.12	0.16	16.60	-39.7	-42.3	12.6	8.23e-05	0	62	0	131072000	50	5024
2026-01-26 00:42:09.13	0.05	16.70	-39.8	-42.5	12.5	1.09e-04	0	62	0	134217728	50	5107
2026-01-26 00:42:10.14	359.94	16.80	-39.7	-42.3	12.6	1.13e-04	0	62	0	137363456	50	5016
2026-01-26 00:42:11.15	359.83	16.90	-39.7	-42.4	12.6	8.54e-05	0	62	0	140509184	50	5049
2026-01-26 00:42:12.16	359.72	17.00	-39.8	-42.4	12.6	1.04e-04	0	62	0	143654912	50	5093
2026-01-26 00:42:13.17	359.61	17.10	-39.7	-42.3	12.7	7.32e-05	0	62	0	146800640	50	5007
2026-01-26 00:42:14.18	359.49	17.20	-39.8	-42.4	12.6	8.92e-05	0	62	0	149946368	50	5078
2026-01-26 00:42:15.19	359.38	17.31	-39.8	-42.4	12.6	7.78e-05	0	62	0	153092096	50	5082
2026-01-26 00:42:16.20	359.26	17.41	-39.9	-42.5	12.5	1.19e-04	0	62	0	156237824	50	5153
2026-01-26 00:42:17.21	359.15	17.51	-39.7	-42.3	12.7	7.62e-05	0	62	0	159383552	50	5033
2026-01-26 00:42:18.22	359.03	17.61	-39.9	-42.5	12.5	1.17e-04	0	62	0	162529280	50	5151
2026-01-26 00:42:19.23	358.91	17.72	-39.8	-42.5	12.5	1.38e-04	0	62	0	165675008	50	5119
2026-01-26 00:42:20.24	358.80	17.82	-39.9	-42.6	12.4	1.36e-04	0	62	0	168820736	50	5186
2026-01-26 00:42:21.25	358.68	17.93	-39.9	-42.6	12.5	1.16e-04	0	62	0	171966464	50	5174
2026-01-26 00:42:22.26	358.56	18.03	-40.0	-42.8	12.2	1.76e-04	0	62	0	175112192	50	5295
2026-01-26 00:42:23.27	358.44	18.13	-40.0	-42.8	12.2	2.36e-04	0	62	0	178257920	50	5326
2026-01-26 00:42:24.28	358.31	18.24	-40.0	-42.8	12.2	2.36e-04	0	62	0	181403648	50	5299
2026-01-26 00:42:25.29	358.19	18.34	-40.0	-42.7	12.2	1.96e-04	0	62	0	184549376	50	5266
2026-01-26 00:42:26.30	358.07	18.45	-40.0	-42.7	12.2	2.28e-04	0	62	0	187695104	50	5276
2026-01-26 00:42:27.31	357.94	18.56	-40.0	-42.8	12.2	2.01e-04	0	62	0	190840832	50	5280
2026-01-26 00:42:28.32	357.82	18.66	-39.9	-42.7	12.1	2.72e-04	0	62	0	193986560	50	5272
2026-01-26 00:42:29.33	357.69	18.77	-39.6	-42.3	12.5	1.69e-04	0	62	0	197132288	50	4985
2026-01-26 00:42:30.34	357.56	18.87	-39.4	-42.0	12.7	8.31e-05	0	62	0	200278016	50	4823
2026-01-26 00:42:31.35	357.44	18.98	-39.3	-41.9	12.7	8.01e-05	0	62	0	203423744	50	4777
2026-01-26 00:42:32.36	357.31	19.09	-39.4	-42.0	12.6	9.38e-05	0	62	0	206569472	50	4850
2026-01-26 00:42:33.38	357.18	19.20	-39.4	-42.1	12.4	1.62e-04	0	62	0	209715200	50	4897
2026-01-26 00:42:34.39	357.04	19.31	-39.3	-41.9	12.5	1.07e-04	0	62	0	212860928	50	4793
2026-01-26 00:42:35.40	356.91	19.41	-39.3	-42.1	12.3	1.68e-04	0	62	0	216006656	50	4879
2026-01-26 00:42:36.40	356.78	19.52	-39.4	-42.2	12.1	2.01e-04	0	62	0	219152384	50	4943
2026-01-26 00:42:37.41	356.65	19.63	-39.6	-42.5	11.7	4.45e-04	0	62	0	222298112	50	5134
2026-01-26 00:42:38.42	356.51	19.74	-39.9	-43.2	10.9	1.59e-03	0	62	0	225443840	50	5573
2026-01-26 00:42:39.43	356.38	19.85	-40.1	-43.6	10.4	4.38e-03	0	62	0	228589568	50	5795
2026-01-26 00:42:40.44	356.24	19.96	-40.1	-43.6	10.4	4.33e-03	0	62	0	231735296	50	5818
2026-01-26 00:42:41.46	356.10	20.07	-40.2	-43.9	10.1	6.11e-03	0	62	0	234881024	50	6007
2026-01-26 00:42:42.46	355.96	20.18	-40.2	-43.8	10.1	7.14e-03	0	62	0	238026752	51	5649
2026-01-26 00:42:43.47	355.82	20.29	-40.1	-43.7	10.3	5.68e-03	0	62	0	241172480	51	5529
2026-01-26 00:42:44.48	355.68	20.40	-40.0	-43.3	10.8	3.10e-03	0	62	0	244318208	51	5310
2026-01-26 00:42:45.49	355.54	20.51	-40.0	-43.3	10.9	2.21e-03	0	62	0	247463936	51	5289
2026-01-26 00:42:46.50	355.40	20.62	-40.0	-43.3	10.9	2.20e-03	0	62	0	250609664	51	5313
2026-01-26 00:42:47.51	355.25	20.74	-40.0	-43.2	11.0	1.98e-03	0	62	0	253755392	51	5253
2026-01-26 00:42:48.52	355.11	20.85	-39.8	-42.8	11.4	1.39e-03	0	62	0	256901120	51	5020
2026-01-26 00:42:49.53	354.96	20.96	-39.2	-41.8	12.3	3.58e-04	0	62	0	260046848	50	4755
2026-01-26 00:42:50.54	354.81	21.07	-38.6	-41.0	13.1	5.49e-05	0	62	0	263192576	49	4592
2026-01-26 00:42:51.55	354.67	21.19	-38.4	-40.8	13.3	1.52e-05	0	62	0	266338304	48	4711
2026-01-26 00:42:52.56	354.52	21.30	-38.3	-40.7	13.4	1.06e-05	0	62	0	269484032	48	4657
2026-01-26 00:42:53.57	354.37	21.41	-38.4	-40.9	13.2	2.05e-05	0	62	0	272629760	48	4774
2026-01-26 00:42:54.58	354.21	21.53	-38.4	-40.8	13.3	1.22e-05	0	62	0	275775488	48	4710
2026-01-26 00:42:55.59	354.06	21.64	-38.4	-40.8	13.3	1.67e-05	0	62	0	278921216	48	4731
2026-01-26 00:42:56.60	353.91	21.76	-38.5	-40.9	13.2	1.98e-05	0	62	0	282066944	48	4792
2026-01-26 00:42:57.61	353.75	21.87	-38.5	-40.9	13.3	1.90e-05	0	62	0	285212672	48	4765
2026-01-26 00:42:58.62	353.59	21.99	-38.4	-40.7	13.5	1.83e-05	0	62	0	288358400	48	4696
2026-01-26 00:42:59.63	353.44	22.10	-38.3	-40.6	13.7	7.60e-06	0	62	0	291504128	48	4612
2026-01-26 00:43:00.64	353.28	22.22	-38.0	-40.1	14.2	0.00e+00	0	62	0	294649856	48	4380
2026-01-26 00:43:01.65	353.12	22.33	-38.0	-40.0	14.4	3.80e-06	0	62	0	297795584	48	4337
2026-01-26 00:43:02.67	352.96	22.45	-38.3	-40.4	14.1	1.50e-06	0	62	0	300941312	48	4541
2026-01-26 00:43:03.67	352.79	22.57	-38.6	-40.8	13.8	3.00e-06	0	62	0	304087040	48	4728
2026-01-26 00:43:04.68	352.63	22.69	-38.8	-41.1	13.5	4.50e-06	0	62	0	307232768	48	4882
2026-01-26 00:43:05.69	352.47	22.80	-38.8	-41.1	13.7	6.10e-06	0	62	0	310378496	48	4906
2026-01-26 00:43:06.70	352.30	22.92	-38.8	-41.1	13.8	6.80e-06	0	62	0	313524224	48	4872
2026-01-26 00:43:07.71	352.13	23.04	-38.7	-40.8	14.2	7.00e-07	0	62	0	316669952	48	4745
2026-01-26 00:43:08.72	351.96	23.16	-38.7	-40.8	14.2	3.00e-06	0	62	0	320864256	48	4731
2026-01-26 00:43:09.73	351.79	23.27	-38.7	-40.9	14.2	7.00e-07	0	62	0	322961408	48	4768
2026-01-26 00:43:10.74	351.62	23.39	-38.8	-41.0	14.1	1.50e-06	0	62	0	326107136	48	4826
2026-01-26 00:43:11.75	351.45	23.51	-38.7	-40.8	14.3	1.50e-06	0	62	0	329252864	48	4722
2026-01-26 00:43:12.76	351.27	23.63	-38.7	-40.8	14.4	7.00e-07	0	62	0	332398592	48	4727
2026-01-26 00:43:13.77	351.10	23.75	-38.8	-40.8	14.3	0.00e+00	0	62	0	336592896	48	4756
2026-01-26 00:43:14.78	350.92	23.87	-38.9	-41.0	14.2	7.00e-07	0	62	0	339738624	48	4836
2026-01-26 00:43:15.79	350.74	23.99	-38.8	-40.9	14.3	0.00e+00	0	62	0	342884352	48	4773
2026-01-26 00:43:16.80	350.56	24.11	-38.8	-40.9	14.3	0.00e+00	0	62	0	346030080	48	4794
2026-01-26 00:43:17.81	350.38	24.23	-39.0	-41.1	14.1	7.00e-07	0	62	0	348127232	48	4909
2026-01-26 00:43:18.82	350.20	24.35	-39.0	-41.2	14.1	1.50e-06	0	62	0	352321536	48	4939
2026-01-26 00:43:19.83	350.01	24.47	-39.1	-41.2	14.0	2.20e-06	0	62	0	355467264	48	4979
2026-01-26 00:43:20.84	349.83	24.59	-39.1	-41.3	14.0	3.80e-06	0	62	0	358612992	48	5009
2026-01-26 00:43:21.85	349.64	24.71	-39.2	-41.5	13.9	3.00e-06	0	62	0	361758720	49	4827
2026-01-26 00:43:22.86	349.45	24.84	-39.3	-41.5	13.9	3.80e-06	0	62	0	364904448	49	4836
2026-01-26 00:43:23.87	349.26	24.96	-39.4	-41.7	13.7	3.00e-06	0	62	0	368050176	49	4936
2026-01-26 00:43:24.88	349.07	25.08	-39.5	-41.8	13.5	9.90e-06	0	62	0	371195904	49	5028
2026-01-26 00:43:25.90	348.88	25.20	-39.4	-41.7	13.7	7.60e-06	0	62	0	374341632	49	4939
2026-01-26 00:43:26.90	348.69	25.32	-39.4	-41.7	13.7	7.60e-06	0	62	0	377487360	49	4966
2026-01-26 00:43:27.91	348.49	25.45	-39.4	-41.7	13.7	6.10e-06	0	62	0	380633088	49	4960
2026-01-26 00:43:28.93	348.29	25.57	-39.4	-41.6	13.8	3.80e-06	0	62	0	383778816	49	4908
2026-01-26 00:43:29.94	348.09	25.69	-39.4	-41.6	13.8	2.20e-06	0	62	0	386924544	49	4922
2026-01-26 00:43:30.95	347.89	25.82	-39.5	-41.7	13.7	3.00e-06	0	62	0	390070272	49	4961
2026-01-26 00:43:31.96	347.69	25.94	-39.6	-41.9	13.6	6.10e-06	0	62	0	393216000	49	5054
2026-01-26 00:43:32.97	347.48	26.06	-39.7	-42.1	13.4	1.29e-05	0	62	0	396361728	49	5190
2026-01-26 00:43:33.98	347.28	26.19	-39.9	-42.3	13.2	1.52e-05	0	62	0	399507456	50	5017
2026-01-26 00:43:34.99	347.07	26.31	-40.0	-42.5	13.1	2.28e-05	0	62	0	402653184	50	5108
2026-01-26 00:43:36.00	346.86	26.44	-39.9	-42.4	13.2	3.12e-05	0	62	0	405798912	50	5059
2026-01-26 00:43:37.01	346.65	26.56	-40.0	-42.5	13.1	2.21e-05	0	62	0	408944640	50	5124
2026-01-26 00:43:38.02	346.44	26.68	-39.9	-42.2	13.4	1.83e-05	0	62	0	412090368	50	4980
2026-01-26 00:43:39.03	346.23	26.81	-40.3	-42.9	12.8	6.10e-05	0	62	0	415236096	51	5063
2026-01-26 00:43:40.04	346.01	26.93	-39.6	-41.9	13.8	5.30e-06	0	62	0	418381824	50	4784
2026-01-26 00:43:41.05	345.79	27.06	-39.6	-41.8	13.9	6.80e-06	0	62	0	421527552	50	4730
2026-01-26 00:43:42.06	345.57	27.18	-39.7	-42.0	13.7	4.50e-06	0	62	0	424673280	50	4832
2026-01-26 00:43:43.07	345.35	27.31	-39.7	-42.0	13.7	5.30e-06	0	62	0	427819008	50	4825
2026-01-26 00:43:44.08	345.13	27.43	-39.9	-42.2	13.5	9.90e-06	0	62	0	430964736	50	4946
2026-01-26 00:43:45.09	344.91	27.56	-39.8	-42.1	13.6	8.30e-06	0	62	0	434110464	50	4919
2026-01-26 00:43:46.10	344.68	27.68	-39.9	-42.2	13.6	1.06e-05	0	62	0	437256192	50	4940
2026-01-26 00:43:47.11	344.45	27.81	-39.8	-42.2	13.6	8.30e-06	0	62	0	440401920	50	4935
2026-01-26 00:43:48.12	344.22	27.93	-39.6	-41.9	13.9	2.20e-06	0	62	0	443547648	50	4764
2026-01-26 00:43:49.13	343.99	28.06	-39.6	-41.8	14.0	3.00e-06	0	62	0	446693376	50	4741
2026-01-26 00:43:50.15	343.76	28.19	-39.6	-41.8	14.0	1.50e-06	0	62	0	449839104	50	4730
2026-01-26 00:43:51.16	343.52	28.31	-39.6	-41.7	14.1	3.00e-06	0	62	0	452984832	50	4680
2026-01-26 00:43:52.16	343.29	28.43	-39.6	-41.7	14.1	7.00e-07	0	62	0	456130560	50	4697
2026-01-26 00:43:53.18	343.05	28.56	-39.8	-42.0	13.8	3.80e-06	0	62	0	459276288	50	4841
2026-01-26 00:43:54.19	342.80	28.69	-39.8	-42.0	13.7	4.50e-06	0	62	0	462422016	50	4847
2026-01-26 00:43:55.20	342.56	28.81	-39.9	-42.2	13.6	3.80e-06	0	62	0	465567744	50	4930
2026-01-26 00:43:56.21	342.32	28.94	-39.8	-42.0	13.8	3.80e-06	0	62	0	468713472	50	4861
2026-01-26 00:43:57.22	342.07	29.06	-39.8	-42.0	13.8	3.00e-06	0	62	0	471859200	50	4855
2026-01-26 00:43:58.23	341.82	29.19	-39.7	-41.9	13.9	6.10e-06	0	62	0	475004928	50	4786
2026-01-26 00:43:59.24	341.57	29.31	-39.7	-41.8	14.0	3.00e-06	0	62	0	478150656	50	4754
2026-01-26 00:44:00.25	341.32	29.44	-39.6	-41.8	14.0	0.00e+00	0	62	0	481296384	50	4737
2026-01-26 00:44:01.26	341.06	29.56	-39.7	-41.9	14.0	2.20e-06	0	62	0	484442112	50	4761
2026-01-26 00:44:02.27	340.81	29.69	-39.7	-41.9	13.9	6.10e-06	0	62	0	487587840	50	4807
2026-01-26 00:44:03.28	340.55	29.81	-39.7	-41.9	13.9	2.20e-06	0	62	0	490733568	50	4795
2026-01-26 00:44:04.29	340.29	29.94	-39.8	-42.0	13.9	8.30e-06	0	62	0	493879296	50	4834
2026-01-26 00:44:05.30	340.03	30.06	-39.7	-41.8	14.0	7.00e-07	0	62	0	497025024	50	4752
2026-01-26 00:44:06.31	339.76	30.19	-39.6	-41.8	14.1	0.00e+00	0	62	0	500170752	50	4734
2026-01-26 00:44:07.32	339.49	30.31	-39.7	-41.8	14.0	1.50e-06	0	62	0	503316480	50	4744
2026-01-26 00:44:08.33	339.22	30.44	-39.7	-41.8	14.1	7.00e-07	0	62	0	506462208	50	4746
2026-01-26 00:44:09.34	338.95	30.56	-39.7	-41.9	14.0	2.20e-06	0	62	0	509607936	50	4760
2026-01-26 00:44:10.35	338.68	30.69	-39.8	-42.0	14.0	3.80e-06	0	62	0	512753664	50	4820
2026-01-26 00:44:11.36	338.41	30.81	-39.7	-41.9	14.0	1.50e-06	0	62	0	515899392	50	4772
2026-01-26 00:44:12.37	338.13	30.93	-39.8	-42.0	14.0	3.00e-06	0	62	0	519045120	50	4821
2026-01-26 00:44:13.38	337.85	31.06	-39.6	-41.8	14.1	7.00e-07	0	62	0	522190848	50	4716
2026-01-26 00:44:14.39	337.57	31.18	-39.7	-41.8	14.1	2.20e-06	0	62	0	525336576	50	4738
2026-01-26 00:44:15.41	337.28	31.30	-39.7	-41.9	14.1	3.00e-06	0	62	0	528482304	50	4770
2026-01-26 00:44:16.41	337.00	31.42	-39.8	-41.9	14.0	4.50e-06	0	62	0	531628032	50	4813
2026-01-26 00:44:17.42	336.71	31.55	-39.7	-41.8	14.1	1.50e-06	0	62	0	534773760	50	4747
2026-01-26 00:44:18.43	336.42	31.67	-39.7	-41.9	14.0	7.00e-07	0	62	0	537919488	50	4795
2026-01-26 00:44:19.44	336.13	31.79	-39.9	-42.2	13.8	5.30e-06	0	62	0	541065216	50	4936
2026-01-26 00:44:20.45	335.83	31.91	-40.0	-42.3	13.6	6.80e-06	0	62	0	544210944	50	5017
2026-01-26 00:44:21.46	335.53	32.03	-40.0	-42.3	13.6	6.10e-06	0	62	0	547356672	50	5026
2026-01-26 00:44:22.47	335.23	32.15	-40.1	-42.4	13.5	1.29e-05	0	62	0	550502400	50	5070
2026-01-26 00:44:23.48	334.93	32.27	-40.2	-42.6	13.4	1.52e-05	0	62	0	553648128	50	5160
2026-01-26 00:44:24.49	334.63	32.39	-40.2	-42.6	13.3	2.21e-05	0	62	0	556793856	51	4923
2026-01-26 00:44:25.50	334.32	32.51	-40.2	-42.6	13.3	1.83e-05	0	62	0	559939584	51	4906
2026-01-26 00:44:26.50	334.02	32.63	-40.3	-42.7	13.3	2.05e-05	0	62	0	563085312	51	4931
2026-01-26 00:44:27.51	333.71	32.75	-40.1	-42.4	13.6	9.90e-06	0	62	0	566231040	51	4766
2026-01-26 00:44:28.52	333.39	32.86	-40.0	-42.3	13.7	6.10e-06	0	62	0	569376768	51	4726
2026-01-26 00:44:29.53	333.08	32.98	-39.9	-42.2	13.8	7.60e-06	0	62	0	572522496	51	4663
2026-01-26 00:44:30.54	332.76	33.10	-39.9	-42.1	13.9	3.80e-06	0	62	0	575668224	51	4636
2026-01-26 00:44:31.55	332.44	33.21	-39.9	-42.1	13.9	3.80e-06	0	62	0	578813952	51	4618
2026-01-26 00:44:32.56	332.12	33.33	-39.9	-42.2	13.8	3.00e-06	0	62	0	581959680	51	4658
2026-01-26 00:44:33.57	331.79	33.44	-40.0	-42.2	13.7	4.50e-06	0	62	0	585105408	51	4703
2026-01-26 00:44:34.58	331.47	33.56	-40.1	-42.3	13.7	7.60e-06	0	62	0	588251136	51	4753
2026-01-26 00:44:35.59	331.14	33.67	-40.0	-42.2	13.7	4.50e-06	0	62	0	591396864	51	4698
2026-01-26 00:44:36.60	330.81	33.78	-39.9	-42.1	13.8	3.80e-06	0	62	0	594542592	51	4642
2026-01-26 00:44:37.61	330.47	33.90	-40.0	-42.3	13.7	5.30e-06	0	62	0	597688320	51	4706
2026-01-26 00:44:38.62	330.14	34.01	-40.2	-42.5	13.5	1.06e-05	0	62	0	600834048	51	4836
2026-01-26 00:44:39.63	329.80	34.12	-40.3	-42.6	13.3	2.13e-05	0	62	0	603979776	51	4923
2026-01-26 00:44:40.64	329.46	34.23	-40.3	-42.7	13.3	2.28e-05	0	62	0	607125504	51	4961
2026-01-26 00:44:41.65	329.11	34.34	-40.3	-42.6	13.3	1.29e-05	0	62	0	610271232	51	4915
2026-01-26 00:44:42.66	328.77	34.45	-40.3	-42.7	13.3	8.30e-06	0	62	0	614465536	51	4942
2026-01-26 00:44:43.67	328.42	34.55	-40.2	-42.6	13.4	1.67e-05	0	62	0	616562688	51	4885
2026-01-26 00:44:44.69	328.07	34.66	-40.2	-42.6	13.3	1.60e-05	0	62	0	619708416	51	4917
2026-01-26 00:44:45.70	327.72	34.77	-40.4	-42.8	13.1	2.82e-05	0	62	0	622854144	51	5035
2026-01-26 00:44:46.71	327.36	34.87	-40.4	-42.9	13.1	2.36e-05	0	62	0	625999872	51	5044
2026-01-26 00:44:47.72	327.00	34.98	-40.5	-42.9	13.1	2.51e-05	0	62	0	630194176	51	5073
2026-01-26 00:44:48.73	326.64	35.08	-40.5	-43.0	13.0	3.58e-05	0	62	0	633339904	51	5128
2026-01-26 00:44:49.74	326.28	35.18	-40.4	-42.8	13.2	2.97e-05	0	62	0	636485632	51	5029
2026-01-26 00:44:50.75	325.92	35.28	-40.4	-42.9	13.1	2.67e-05	0	62	0	639631360	51	5070
2026-01-26 00:44:51.76	325.55	35.38	-40.5	-43.0	13.0	4.57e-05	0	62	0	641728512	51	5101
2026-01-26 00:44:52.77	325.18	35.48	-40.6	-43.1	12.8	5.03e-05	0	62	0	645922816	51	5218
2026-01-26 00:44:53.78	324.81	35.58	-40.5	-43.0	12.9	4.57e-05	0	62	0	649068544	51	5141
2026-01-26 00:44:54.79	324.44	35.68	-40.4	-42.8	13.1	3.43e-05	0	62	0	652214272	51	5041
2026-01-26 00:44:55.80	324.07	35.77	-40.3	-42.7	13.3	2.59e-05	0	62	0	655360000	51	4941
2026-01-26 00:44:56.81	323.69	35.87	-40.1	-42.5	13.4	1.37e-05	0	62	0	658505728	51	4823
2026-01-26 00:44:57.82	323.31	35.96	-40.2	-42.6	13.4	2.28e-05	0	62	0	661651456	51	4880
2026-01-26 00:44:58.83	322.93	36.05	-40.2	-42.6	13.3	2.21e-05	0	62	0	664797184	51	4901
2026-01-26 00:44:59.84	322.54	36.15	-40.3	-42.7	13.2	1.90e-05	0	62	0	667942912	51	4978
2026-01-26 00:45:00.84	322.16	36.23	-40.4	-42.8	13.1	2.13e-05	0	62	0	671088640	51	5033
2026-01-26 00:45:01.86	321.77	36.32	-40.4	-42.8	13.2	2.05e-05	0	62	0	674234368	51	5033
2026-01-26 00:45:02.86	321.38	36.41	-40.4	-42.8	13.1	2.74e-05	0	62	0	677380096	51	5010
2026-01-26 00:45:03.88	320.99	36.50	-40.3	-42.6	13.3	1.83e-05	0	62	0	680525824	51	4922
2026-01-26 00:45:04.89	320.59	36.58	-40.4	-42.8	13.2	2.21e-05	0	62	0	683671552	51	5016
2026-01-26 00:45:05.90	320.19	36.67	-40.4	-42.8	13.1	2.89e-05	0	62	0	686817280	51	5041
2026-01-26 00:45:06.91	319.80	36.75	-40.5	-42.9	13.0	4.04e-05	0	62	0	689963008	51	5100
2026-01-26 00:45:07.92	319.39	36.83	-40.5	-42.9	13.0	3.35e-05	0	62	0	693108736	51	5087
2026-01-26 00:45:08.93	318.99	36.91	-40.4	-42.8	13.1	3.96e-05	0	62	0	696254464	51	5006
2026-01-26 00:45:09.94	318.59	36.99	-40.5	-42.9	13.0	3.12e-05	0	62	0	699400192	51	5083
2026-01-26 00:45:10.95	318.18	37.06	-40.6	-43.1	12.8	5.03e-05	0	62	0	702545920	51	5179
2026-01-26 00:45:11.96	317.77	37.14	-40.7	-43.3	12.5	9.38e-05	0	62	0	705691648	52	4998
2026-01-26 00:45:12.97	317.36	37.21	-40.8	-43.5	12.4	1.54e-04	0	62	0	708837376	52	5104
2026-01-26 00:45:13.98	316.95	37.29	-40.9	-43.6	12.2	2.12e-04	0	62	0	711983104	52	5210
2026-01-26 00:45:14.99	316.53	37.36	-41.0	-43.8	12.1	2.56e-04	0	62	0	715128832	52	5295
2026-01-26 00:45:16.00	316.12	37.43	-41.0	-43.8	12.0	2.92e-04	0	62	0	718274560	52	5325
2026-01-26 00:45:17.01	315.70	37.49	-41.1	-44.0	11.8	4.36e-04	0	62	0	721420288	52	5447
2026-01-26 00:45:18.02	315.28	37.56	-41.1	-44.0	11.8	4.29e-04	0	62	0	724566016	52	5442
2026-01-26 00:45:19.03	314.86	37.62	-41.0	-43.8	12.1	3.07e-04	0	62	0	727711744	52	5325
2026-01-26 00:45:20.04	314.44	37.69	-41.0	-43.7	12.1	2.53e-04	0	62	0	730857472	52	5276
2026-01-26 00:45:21.05	314.01	37.75	-40.9	-43.6	12.3	1.43e-04	0	62	0	734003200	52	5202
2026-01-26 00:45:22.06	313.59	37.81	-40.8	-43.4	12.5	1.18e-04	0	62	0	737148928	52	5078
2026-01-26 00:45:23.08	313.16	37.86	-40.9	-43.6	12.3	1.40e-04	0	62	0	740294656	52	5161
2026-01-26 00:45:24.08	312.73	37.92	-41.0	-43.7	12.1	2.39e-04	0	62	0	743440384	52	5279
2026-01-26 00:45:25.10	312.30	37.97	-41.0	-43.7	12.2	1.96e-04	0	62	0	746586112	52	5276
2026-01-26 00:45:26.10	311.87	38.02	-41.0	-43.7	12.2	2.21e-04	0	62	0	749731840	52	5255
2026-01-26 00:45:27.11	311.43	38.07	-40.9	-43.5	12.4	2.20e-04	0	62	0	752877568	52	5146
2026-01-26 00:45:28.12	311.00	38.12	-40.7	-43.4	12.5	1.35e-04	0	62	0	756023296	52	5044
2026-01-26 00:45:29.13	310.56	38.17	-40.8	-43.4	12.5	1.34e-04	0	62	0	759169024	52	5080
2026-01-26 00:45:30.14	310.13	38.22	-40.7	-43.4	12.5	1.37e-04	0	62	0	762314752	52	5048
2026-01-26 00:45:31.15	309.69	38.26	-40.7	-43.2	12.7	8.39e-05	0	62	0	765460480	52	4979
2026-01-26 00:45:32.16	309.25	38.30	-40.6	-43.2	12.7	8.69e-05	0	62	0	768606208	52	4950
2026-01-26 00:45:33.17	308.81	38.34	-40.7	-43.3	12.6	1.02e-04	0	62	0	771751936	52	5017
2026-01-26 00:45:34.18	308.37	38.38	-40.7	-43.3	12.6	1.01e-04	0	62	0	774897664	52	5030
2026-01-26 00:45:35.20	307.92	38.41	-40.7	-43.3	12.6	1.04e-04	0	62	0	778043392	52	4987
2026-01-26 00:45:36.21	307.47	38.45	-40.7	-43.3	12.6	1.09e-04	0	62	0	781189120	52	5014
2026-01-26 00:45:37.22	307.03	38.48	-40.7	-43.2	12.6	9.07e-05	0	62	0	784334848	52	4973
2026-01-26 00:45:38.23	306.58	38.51	-40.6	-43.1	12.8	7.01e-05	0	62	0	787480576	52	4895
2026-01-26 00:45:39.24	306.14	38.54	-40.5	-43.0	12.9	5.34e-05	0	62	0	790626304	52	4834
2026-01-26 00:45:40.25	305.69	38.56	-40.6	-43.2	12.6	8.23e-05	0	62	0	793772032	52	4962
2026-01-26 00:45:41.26	305.24	38.59	-40.7	-43.3	12.6	1.19e-04	0	62	0	796917760	52	5018
2026-01-26 00:45:42.27	304.80	38.61	-40.7	-43.3	12.5	8.92e-05	0	62	0	800063488	52	5033
2026-01-26 00:45:43.28	304.35	38.63	-40.9	-43.6	12.2	1.79e-04	0	62	0	803209216	52	5190
2026-01-26 00:45:44.29	303.90	38.65	-41.0	-43.9	12.0	3.25e-04	0	62	0	806354944	52	5351
2026-01-26 00:45:45.30	303.45	38.66	-41.0	-43.8	12.0	3.08e-04	0	62	0	809500672	52	5301
2026-01-26 00:45:46.31	303.00	38.68	-41.1	-43.9	11.9	4.18e-04	0	62	0	812646400	52	5401
2026-01-26 00:45:47.32	302.55	38.69	-41.1	-43.9	12.0	3.61e-04	0	62	0	815792128	52	5373
2026-01-26 00:45:48.33	302.09	38.70	-40.9	-43.6	12.3	1.88e-04	0	62	0	818937856	52	5183
2026-01-26 00:45:49.34	301.64	38.71	-40.8	-43.5	12.3	1.86e-04	0	62	0	822083584	52	5143
2026-01-26 00:45:50.35	301.19	38.71	-40.8	-43.5	12.4	1.56e-04	0	62	0	825229312	52	5131
2026-01-26 00:45:51.36	300.74	38.72	-40.8	-43.4	12.5	1.20e-04	0	62	0	828375040	52	5092
2026-01-26 00:45:52.37	300.29	38.72	-40.8	-43.5	12.4	1.30e-04	0	62	0	831520768	52	5120
2026-01-26 00:45:53.38	299.84	38.72	-40.9	-43.6	12.3	1.88e-04	0	62	0	834666496	52	5192
2026-01-26 00:45:54.39	299.38	38.71	-40.8	-43.4	12.5	1.46e-04	0	62	0	837812224	52	5087
2026-01-26 00:45:55.40	298.93	38.71	-40.9	-43.6	12.3	1.44e-04	0	62	0	840957952	52	5174
2026-01-26 00:45:56.41	298.48	38.70	-41.1	-43.9	12.0	2.95e-04	0	62	0	844103680	52	5361
2026-01-26 00:45:57.42	298.03	38.70	-41.0	-43.8	12.0	3.16e-04	0	62	0	847249408	52	5317
2026-01-26 00:45:58.43	297.58	38.69	-41.0	-43.9	12.0	2.92e-04	0	62	0	850395136	52	5349
2026-01-26 00:45:59.44	297.13	38.67	-41.1	-43.9	12.0	3.92e-04	0	62	0	853540864	52	5394
2026-01-26 00:46:00.45	296.68	38.66	-41.0	-43.8	12.0	2.97e-04	0	62	0	856686592	52	5325
2026-01-26 00:46:01.46	296.23	38.64	-41.1	-43.9	11.9	3.47e-04	0	62	0	859832320	52	5378
2026-01-26 00:46:02.47	295.78	38.62	-41.1	-43.9	11.9	4.42e-04	0	62	0	862978048	52	5397
2026-01-26 00:46:03.48	295.33	38.60	-41.1	-43.9	11.9	4.67e-04	0	62	0	866123776	52	5397
2026-01-26 00:46:04.49	294.88	38.58	-40.9	-43.6	12.2	2.39e-04	0	62	0	869269504	52	5212
2026-01-26 00:46:05.50	294.43	38.56	-40.9	-43.7	12.1	2.66e-04	0	62	0	872415232	52	5230
2026-01-26 00:46:06.51	293.98	38.53	-40.9	-43.6	12.2	2.53e-04	0	62	0	875560960	52	5187
2026-01-26 00:46:07.52	293.54	38.50	-40.8	-43.4	12.4	1.43e-04	0	62	0	878706688	52	5090
2026-01-26 00:46:08.53	293.09	38.47	-40.8	-43.5	12.3	1.61e-04	0	62	0	881852416	52	5147
2026-01-26 00:46:09.54	292.65	38.44	-40.9	-43.6	12.2	1.89e-04	0	62	0	884998144	52	5176
2026-01-26 00:46:10.55	292.20	38.41	-40.9	-43.6	12.3	2.08e-04	0	62	0	888143872	52	5195
2026-01-26 00:46:11.56	291.76	38.37	-40.9	-43.6	12.2	2.07e-04	0	62	0	891289600	52	5209
2026-01-26 00:46:12.57	291.32	38.33	-40.9	-43.7	12.2	2.50e-04	0	62	0	894435328	52	5221
2026-01-26 00:46:13.58	290.88	38.29	-40.8	-43.5	12.4	1.37e-04	0	62	0	897581056	52	5121
2026-01-26 00:46:14.59	290.44	38.25	-40.7	-43.3	12.5	8.85e-05	0	62	0	900726784	52	5024
2026-01-26 00:46:15.61	289.99	38.21	-40.6	-43.1	12.7	7.62e-05	0	62	0	903872512	52	4919
2026-01-26 00:46:16.62	289.55	38.16	-40.5	-43.0	12.9	5.56e-05	0	62	0	908066816	52	4861
2026-01-26 00:46:17.63	289.12	38.11	-40.6	-43.2	12.7	7.93e-05	0	62	0	910163968	52	4930
2026-01-26 00:46:18.64	288.68	38.07	-40.5	-43.1	12.8	6.40e-05	0	62	0	913309696	52	4873
2026-01-26 00:46:19.65	288.25	38.01	-40.4	-42.8	13.0	3.96e-05	0	62	0	916455424	52	4758
2026-01-26 00:46:20.66	287.82	37.96	-40.4	-42.8	13.1	3.89e-05	0	62	0	919601152	52	4731
2026-01-26 00:46:21.67	287.39	37.91	-40.3	-42.7	13.2	3.35e-05	0	62	0	923795456	52	4666
2026-01-26 00:46:22.68	286.96	37.85	-40.4	-42.8	13.0	3.20e-05	0	62	0	926941184	52	4730
2026-01-26 00:46:23.69	286.53	37.79	-40.4	-42.9	13.0	3.96e-05	0	62	0	930086912	52	4765
2026-01-26 00:46:24.70	286.10	37.73	-40.4	-42.9	13.0	4.11e-05	0	62	0	932184064	52	4778
2026-01-26 00:46:25.71	285.68	37.67	-40.4	-42.8	13.1	3.89e-05	0	62	0	935329792	52	4721
2026-01-26 00:46:26.72	285.25	37.61	-40.5	-43.0	12.9	5.95e-05	0	62	0	939524096	52	4834
2026-01-26 00:46:27.73	284.83	37.55	-40.7	-43.3	12.5	1.07e-04	0	62	0	942669824	52	5027
2026-01-26 00:46:28.74	284.41	37.48	-40.7	-43.3	12.5	1.20e-04	0	62	0	945815552	52	5034
2026-01-26 00:46:29.75	283.99	37.41	-40.8	-43.4	12.4	1.11e-04	0	62	0	948961280	52	5097
2026-01-26 00:46:30.76	283.58	37.34	-40.9	-43.7	12.2	1.79e-04	0	62	0	952107008	52	5223
2026-01-26 00:46:31.77	283.16	37.27	-41.0	-43.8	12.0	3.28e-04	0	62	0	955252736	52	5324
2026-01-26 00:46:32.78	282.75	37.20	-41.0	-43.8	12.1	2.75e-04	0	62	0	958398464	52	5309
2026-01-26 00:46:33.79	282.34	37.12	-41.0	-43.8	12.1	2.59e-04	0	62	0	961544192	52	5281
2026-01-26 00:46:34.80	281.93	37.05	-40.9	-43.6	12.3	1.89e-04	0	62	0	964689920	52	5181
2026-01-26 00:46:35.81	281.52	36.97	-40.7	-43.4	12.5	1.19e-04	0	62	0	967835648	52	5046
2026-01-26 00:46:36.82	281.12	36.89	-40.7	-43.4	12.5	1.24e-04	0	62	0	970981376	52	5044
2026-01-26 00:46:37.83	280.71	36.81	-40.4	-42.9	13.0	6.25e-05	0	62	0	974127104	52	4773
2026-01-26 00:46:38.84	280.31	36.73	-40.3	-42.6	13.2	2.89e-05	0	62	0	977272832	52	4650
2026-01-26 00:46:39.85	279.91	36.65	-40.4	-42.8	13.0	2.51e-05	0	62	0	980418560	52	4744
2026-01-26 00:46:40.87	279.51	36.56	-40.3	-42.8	13.1	3.43e-05	0	62	0	983564288	52	4720
2026-01-26 00:46:41.88	279.12	36.48	-40.4	-42.8	13.0	3.50e-05	0	62	0	986710016	52	4756
2026-01-26 00:46:42.88	278.73	36.39	-40.5	-43.0	12.9	4.57e-05	0	62	0	989855744	52	4831
2026-01-26 00:46:43.90	278.33	36.30	-40.5	-43.1	12.7	6.02e-05	0	62	0	993001472	52	4906
2026-01-26 00:46:44.90	277.95	36.21	-40.4	-42.9	13.0	5.95e-05	0	62	0	996147200	52	4768
2026-01-26 00:46:45.91	277.56	36.12	-40.2	-42.5	13.2	2.05e-05	0	62	0	999292928	52	4596
2026-01-26 00:46:46.92	277.18	36.03	-40.0	-42.3	13.6	1.60e-05	0	62	0	1002438656	51	4719
2026-01-26 00:46:47.93	276.79	35.94	-40.0	-42.3	13.5	1.44e-05	0	62	0	1005584384	51	4725
2026-01-26 00:46:48.94	276.41	35.84	-40.0	-42.3	13.6	9.90e-06	0	62	0	1008730112	51	4718
2026-01-26 00:46:49.95	276.04	35.75	-39.9	-42.1	13.8	5.30e-06	0	62	0	1011875840	51	4648
2026-01-26 00:46:50.96	275.66	35.65	-40.1	-42.3	13.6	1.14e-05	0	62	0	1015021568	51	4754
2026-01-26 00:46:51.97	275.29	35.56	-40.4	-42.8	13.2	1.83e-05	0	62	0	1018167296	51	5005
2026-01-26 00:46:52.98	274.91	35.46	-40.5	-43.0	12.9	3.28e-05	0	62	0	1021313024	51	5151
2026-01-26 00:46:53.99	274.55	35.36	-40.6	-43.2	12.7	7.47e-05	0	62	0	1024458752	51	5261
2026-01-26 00:46:55.00	274.18	35.26	-40.6	-43.1	12.7	7.55e-05	0	62	0	1027604480	51	5205
2026-01-26 00:46:56.01	273.81	35.15	-40.4	-42.8	13.0	3.28e-05	0	62	0	1030750208	51	5038
2026-01-26 00:46:57.01	273.46	35.05	-40.1	-42.5	13.4	1.60e-05	0	62	0	1033895936	51	4830
2026-01-26 00:46:58.02	273.10	34.95	-40.0	-42.3	13.5	1.06e-05	0	62	0	1037041664	51	4730
2026-01-26 00:46:59.03	272.74	34.84	-39.9	-42.1	13.8	8.30e-06	0	62	0	1040187392	51	4609
2026-01-26 00:47:00.04	272.38	34.74	-40.0	-42.2	13.7	9.10e-06	0	62	0	1043333120	51	4682
2026-01-26 00:47:01.05	272.03	34.63	-40.1	-42.5	13.5	1.06e-05	0	62	0	1046478848	51	4822
2026-01-26 00:47:02.06	271.68	34.52	-40.3	-42.7	13.2	2.36e-05	0	62	0	1049624576	51	4982
2026-01-26 00:47:03.07	271.33	34.42	-40.5	-42.9	12.9	3.20e-05	0	62	0	1052770304	51	5100
2026-01-26 00:47:04.08	270.98	34.31	-40.4	-42.8	13.0	4.19e-05	0	62	0	1055916032	51	5036
2026-01-26 00:47:05.09	270.64	34.20	-40.4	-42.9	12.9	3.28e-05	0	62	0	1059061760	51	5051
2026-01-26 00:47:06.10	270.30	34.09	-40.2	-42.7	13.2	3.20e-05	0	62	0	1062207488	51	4929
2026-01-26 00:47:07.11	269.96	33.98	-40.2	-42.5	13.3	1.83e-05	0	62	0	1065353216	51	4856
2026-01-26 00:47:08.11	269.63	33.87	-40.3	-42.7	13.2	1.67e-05	0	62	0	1068498944	51	4944
2026-01-26 00:47:09.12	269.29	33.75	-40.4	-42.9	13.0	4.04e-05	0	62	0	1071644672	51	5042
2026-01-26 00:47:10.13	268.96	33.64	-40.5	-43.0	12.9	6.10e-05	0	62	0	1074790400	51	5108
2026-01-26 00:47:11.14	268.63	33.52	-40.2	-42.6	13.3	2.05e-05	0	62	0	1077936128	51	4910
2026-01-26 00:47:12.15	268.30	33.41	-40.0	-42.3	13.6	1.06e-05	0	62	0	1081081856	51	4714
2026-01-26 00:47:13.15	267.98	33.30	-39.9	-42.1	13.8	3.00e-06	0	62	0	1084227584	51	4625
2026-01-26 00:47:14.16	267.66	33.18	-39.7	-41.8	14.1	3.80e-06	0	62	0	1087373312	51	4480
2026-01-26 00:47:15.18	267.33	33.06	-39.5	-41.6	14.3	7.00e-07	0	62	0	1090519040	51	4375
2026-01-26 00:47:16.19	267.01	32.94	-39.6	-41.7	14.2	1.50e-06	0	62	0	1093664768	51	4417
2026-01-26 00:47:17.20	266.70	32.83	-39.8	-42.0	13.9	3.80e-06	0	62	0	1096810496	51	4592
2026-01-26 00:47:18.20	266.39	32.71	-40.0	-42.2	13.7	1.06e-05	0	62	0	1099956224	51	4704
2026-01-26 00:47:19.21	266.08	32.59	-40.1	-42.4	13.5	1.14e-05	0	62	0	1103101952	51	4791
2026-01-26 00:47:20.22	265.77	32.47	-40.1	-42.4	13.5	1.06e-05	0	62	0	1106247680	51	4766
2026-01-26 00:47:21.23	265.46	32.35	-40.0	-42.3	13.5	9.10e-06	0	62	0	1109393408	51	4728
2026-01-26 00:47:22.24	265.15	32.23	-39.9	-42.1	13.7	6.10e-06	0	62	0	1112539136	51	4633
2026-01-26 00:47:23.25	264.85	32.11	-39.6	-41.8	14.1	2.20e-06	0	62	0	1115684864	51	4453
2026-01-26 00:47:24.26	264.55	31.99	-39.3	-41.3	14.5	0.00e+00	0	62	0	1118830592	50	4484
2026-01-26 00:47:25.27	264.25	31.87	-39.2	-41.1	14.7	0.00e+00	0	62	0	1121976320	50	4388
2026-01-26 00:47:26.28	263.96	31.75	-39.4	-41.5	14.3	7.00e-07	0	62	0	1125122048	50	4594
2026-01-26 00:47:27.29	263.66	31.63	-39.7	-41.8	14.0	3.80e-06	0	62	0	1128267776	50	4734
2026-01-26 00:47:28.30	263.37	31.50	-39.7	-41.9	13.9	1.50e-06	0	62	0	1131413504	50	4797
2026-01-26 00:47:29.31	263.08	31.38	-39.6	-41.8	14.0	4.50e-06	0	62	0	1134559232	50	4729
2026-01-26 00:47:30.32	262.80	31.26	-39.6	-41.7	14.0	3.80e-06	0	62	0	1137704960	50	4682
2026-01-26 00:47:31.33	262.51	31.13	-39.4	-41.5	14.2	2.20e-06	0	62	0	1140850688	50	4573
2026-01-26 00:47:32.34	262.23	31.01	-39.4	-41.5	14.2	1.50e-06	0	62	0	1143996416	50	4558
2026-01-26 00:47:33.35	261.95	30.89	-39.5	-41.6	14.1	7.00e-07	0	62	0	1147142144	50	4639
2026-01-26 00:47:34.36	261.67	30.76	-39.6	-41.7	14.1	1.50e-06	0	62	0	1150287872	50	4675
2026-01-26 00:47:35.37	261.40	30.64	-39.8	-42.0	13.8	4.50e-06	0	62	0	1153433600	50	4829
2026-01-26 00:47:36.38	261.12	30.51	-40.0	-42.3	13.5	6.80e-06	0	62	0	1156579328	50	5023
2026-01-26 00:47:37.39	260.85	30.39	-40.2	-42.6	13.3	7.60e-06	0	62	0	1159725056	50	5163
2026-01-26 00:47:38.40	260.58	30.26	-40.1	-42.5	13.4	1.22e-05	0	62	0	1162870784	50	5110
2026-01-26 00:47:39.41	260.31	30.14	-40.0	-42.4	13.5	1.22e-05	0	63	0	1166016512	50	5042
2026-01-26 00:47:40.42	260.05	30.01	-39.9	-42.2	13.6	1.06e-05	0	62	0	1169162240	50	4946
2026-01-26 00:47:41.43	259.78	29.89	-39.7	-41.9	13.9	7.60e-06	0	62	0	1172307968	50	4765
2026-01-26 00:47:42.44	259.52	29.76	-39.6	-41.7	14.1	2.20e-06	0	62	0	1175453696	50	4657
2026-01-26 00:47:43.45	259.26	29.64	-39.2	-41.2	14.6	0.00e+00	0	62	0	1178599424	50	4410
2026-01-26 00:47:44.46	259.00	29.51	-39.2	-41.1	14.6	0.00e+00	0	62	0	1181745152	50	4381
2026-01-26 00:47:45.47	258.75	29.39	-39.3	-41.3	14.5	7.00e-07	0	62	0	1184890880	50	4456
2026-01-26 00:47:46.48	258.50	29.26	-39.6	-41.7	14.1	0.00e+00	0	62	0	1188036608	50	4673
2026-01-26 00:47:47.49	258.24	29.13	-39.6	-41.7	14.1	7.00e-07	0	62	0	1191182336	50	4696
2026-01-26 00:47:48.50	257.99	29.01	-39.6	-41.8	14.0	3.00e-06	0	62	0	1194328064	50	4750
2026-01-26 00:47:49.51	257.75	28.88	-39.6	-41.7	14.1	1.50e-06	0	62	0	1197473792	50	4696
2026-01-26 00:47:50.52	257.50	28.76	-39.4	-41.4	14.4	7.00e-07	0	62	0	1200619520	50	4544
2026-01-26 00:47:51.53	257.26	28.63	-39.1	-41.1	14.8	0.00e+00	0	62	0	1203765248	50	4358
2026-01-26 00:47:52.54	257.02	28.50	-39.2	-41.2	14.6	7.00e-07	0	62	0	1206910976	50	4420
2026-01-26 00:47:53.55	256.78	28.38	-39.1	-41.1	14.7	0.00e+00	0	62	0	1210056704	50	4360
2026-01-26 00:47:54.55	256.54	28.25	-39.1	-41.1	14.8	1.50e-06	0	62	0	1213202432	50	4348
2026-01-26 00:47:55.56	256.30	28.13	-39.2	-41.2	14.6	2.20e-06	0	62	0	1216348160	50	4405
2026-01-26 00:47:56.57	256.07	28.00	-39.1	-41.1	14.7	0.00e+00	0	62	0	1219493888	50	4363
2026-01-26 00:47:57.58	255.84	27.88	-39.1	-41.1	14.7	0.00e+00	0	62	0	1222639616	50	4359
2026-01-26 00:47:58.59	255.61	27.75	-39.1	-41.1	14.7	0.00e+00	0	62	0	1225785344	50	4381
2026-01-26 00:47:59.60	255.38	27.62	-39.2	-41.2	14.6	0.00e+00	0	62	0	1228931072	50	4426
2026-01-26 00:48:00.61	255.15	27.50	-39.1	-41.1	14.7	0.00e+00	0	62	0	1232076800	50	4376
2026-01-26 00:48:01.62	254.93	27.37	-39.1	-41.0	14.8	0.00e+00	0	62	0	1235222528	50	4329
2026-01-26 00:48:02.63	254.70	27.25	-39.0	-41.0	14.9	0.00e+00	0	62	0	1238368256	50	4303
2026-01-26 00:48:03.64	254.48	27.12	-39.1	-41.0	14.8	0.00e+00	0	62	0	1241513984	50	4323
2026-01-26 00:48:04.65	254.26	27.00	-39.2	-41.2	14.6	3.80e-06	0	62	0	1244659712	50	4436
2026-01-26 00:48:05.66	254.04	26.87	-39.3	-41.4	14.4	1.50e-06	0	62	0	1247805440	50	4508
2026-01-26 00:48:06.67	253.83	26.75	-39.5	-41.7	14.1	1.50e-06	0	62	0	1250951168	50	4677
2026-01-26 00:48:07.68	253.61	26.62	-39.8	-42.1	13.7	6.10e-06	0	62	0	1254096896	50	4877
2026-01-26 00:48:08.69	253.40	26.50	-39.8	-42.1	13.6	9.10e-06	0	62	0	1257242624	50	4921
2026-01-26 00:48:09.70	253.19	26.37	-39.8	-42.0	13.8	6.80e-06	0	62	0	1260388352	50	4851
2026-01-26 00:48:10.71	252.98	26.25	-39.5	-41.6	14.1	7.00e-07	0	62	0	1264582656	50	4637
2026-01-26 00:48:11.72	252.77	26.12	-39.2	-41.3	14.5	0.00e+00	0	62	0	1267728384	50	4454
2026-01-26 00:48:12.72	252.57	26.00	-39.1	-41.1	14.7	0.00e+00	0	62	0	1270874112	50	4363
2026-01-26 00:48:13.73	252.36	25.87	-39.1	-41.1	14.6	0.00e+00	0	62	0	1272971264	50	4381
2026-01-26 00:48:14.74	252.16	25.75	-39.1	-41.1	14.6	0.00e+00	0	62	0	1276116992	50	4367
2026-01-26 00:48:15.75	251.96	25.63	-39.1	-41.1	14.6	7.00e-07	0	62	0	1279262720	50	4385
2026-01-26 00:48:16.76	251.76	25.50	-39.4	-41.4	14.3	0.00e+00	0	62	0	1283457024	50	4544
2026-01-26 00:48:17.77	251.56	25.38	-39.4	-41.6	14.2	1.50e-06	0	62	0	1286602752	50	4600
2026-01-26 00:48:18.78	251.36	25.26	-39.6	-41.8	14.0	0.00e+00	0	62	0	1289748480	50	4706
2026-01-26 00:48:19.79	251.17	25.13	-39.6	-41.7	14.0	7.00e-07	0	62	0	1292894208	50	4705
2026-01-26 00:48:20.80	250.97	25.01	-39.5	-41.7	14.1	3.00e-06	0	62	0	1294991360	50	4658
2026-01-26 00:48:21.81	250.78	24.89	-39.4	-41.5	14.3	1.50e-06	0	62	0	1299185664	50	4564
2026-01-26 00:48:22.82	250.59	24.77	-39.3	-41.4	14.4	7.00e-07	0	62	0	1302331392	50	4515
2026-01-26 00:48:23.83	250.40	24.64	-39.2	-41.2	14.6	7.00e-07	0	62	0	1305477120	50	4420
2026-01-26 00:48:24.84	250.21	24.52	-39.1	-41.1	14.6	0.00e+00	0	62	0	1308622848	50	4389
2026-01-26 00:48:25.85	250.03	24.40	-39.1	-41.0	14.7	0.00e+00	0	62	0	1311768576	50	4335
2026-01-26 00:48:26.86	249.84	24.28	-39.0	-41.0	14.8	0.00e+00	0	62	0	1314914304	50	4297
2026-01-26 00:48:27.87	249.66	24.16	-38.9	-40.9	14.9	0.00e+00	0	62	0	1318060032	49	4496
2026-01-26 00:48:28.88	249.48	24.04	-38.9	-40.8	15.0	0.00e+00	0	62	0	1321205760	49	4472
2026-01-26 00:48:29.90	249.29	23.91	-38.9	-40.9	14.9	0.00e+00	0	62	0	1324351488	49	4495
2026-01-26 00:48:30.90	249.12	23.80	-38.7	-40.6	15.2	0.00e+00	0	62	0	1327497216	49	4344
2026-01-26 00:48:31.91	248.94	23.67	-38.6	-40.5	15.3	0.00e+00	0	62	0	1330642944	49	4310
2026-01-26 00:48:32.92	248.76	23.55	-38.8	-40.6	15.2	0.00e+00	0	62	0	1333788672	49	4383
2026-01-26 00:48:33.93	248.59	23.44	-39.0	-40.9	14.8	0.00e+00	0	62	0	1336934400	49	4543
2026-01-26 00:48:34.94	248.41	23.32	-39.2	-41.2	14.6	0.00e+00	0	62	0	1340080128	49	4684
2026-01-26 00:48:35.95	248.24	23.20	-39.3	-41.4	14.4	0.00e+00	0	62	0	1343225856	49	4761
2026-01-26 00:48:36.96	248.07	23.08	-39.3	-41.4	14.4	0.00e+00	0	62	0	1346371584	49	4766
2026-01-26 00:48:37.97	247.90	22.96	-39.3	-41.4	14.4	7.00e-07	0	62	0	1349517312	49	4789
2026-01-26 00:48:38.98	247.73	22.84	-39.2	-41.3	14.5	0.00e+00	0	62	0	1352663040	49	4737
2026-01-26 00:48:39.99	247.56	22.72	-39.2	-41.2	14.6	1.50e-06	0	62	0	1355808768	49	4700
2026-01-26 00:48:41.00	247.40	22.60	-39.1	-41.1	14.7	0.00e+00	0	62	0	1358954496	49	4601
2026-01-26 00:48:42.01	247.23	22.49	-39.1	-41.1	14.7	0.00e+00	0	62	0	1362100224	49	4605
2026-01-26 00:48:43.02	247.07	22.37	-39.2	-41.2	14.5	0.00e+00	0	62	0	1365245952	49	4673
2026-01-26 00:48:44.03	246.91	22.25	-39.1	-41.2	14.5	0.00e+00	0	62	0	1368391680	49	4673
2026-01-26 00:48:45.04	246.75	22.14	-39.2	-41.3	14.5	0.00e+00	0	62	0	1371537408	49	4716
2026-01-26 00:48:46.05	246.59	22.02	-39.3	-41.3	14.4	0.00e+00	0	62	0	1374683136	49	4759
2026-01-26 00:48:47.06	246.43	21.90	-39.3	-41.4	14.3	2.20e-06	0	62	0	1377828864	49	4778
2026-01-26 00:48:48.07	246.27	21.79	-39.3	-41.4	14.3	1.50e-06	0	62	0	1380974592	49	4774
2026-01-26 00:48:49.08	246.12	21.67	-39.2	-41.3	14.4	7.00e-07	0	62	0	1384120320	49	4708
2026-01-26 00:48:50.09	245.96	21.56	-39.2	-41.3	14.4	0.00e+00	0	62	0	1387266048	49	4716
2026-01-26 00:48:51.10	245.81	21.44	-39.1	-41.2	14.5	0.00e+00	0	62	0	1390411776	49	4663
2026-01-26 00:48:52.11	245.65	21.33	-39.1	-41.2	14.5	7.00e-07	0	62	0	1393557504	49	4680
2026-01-26 00:48:53.12	245.50	21.21	-39.2	-41.3	14.4	0.00e+00	0	62	0	1396703232	49	4724
2026-01-26 00:48:54.14	245.35	21.10	-39.3	-41.3	14.3	0.00e+00	0	62	0	1399848960	49	4753
2026-01-26 00:48:55.14	245.20	20.99	-39.4	-41.5	14.1	7.00e-07	0	62	0	1402994688	49	4859
2026-01-26 00:48:56.15	245.05	20.87	-39.4	-41.6	14.1	1.50e-06	0	62	0	1406140416	49	4892
2026-01-26 00:48:57.16	244.91	20.76	-39.4	-41.6	14.1	2.20e-06	0	62	0	1409286144	49	4898
2026-01-26 00:48:58.17	244.76	20.65	-39.4	-41.6	14.1	2.20e-06	0	62	0	1412431872	49	4878
2026-01-26 00:48:59.18	244.62	20.53	-39.5	-41.7	13.9	4.50e-06	0	62	0	1415577600	49	4954
2026-01-26 00:49:00.19	244.47	20.42	-39.4	-41.6	14.0	3.00e-06	0	62	0	1418723328	49	4900
2026-01-26 00:49:01.20	244.33	20.31	-39.4	-41.6	14.1	2.20e-06	0	62	0	1421869056	49	4875
2026-01-26 00:49:02.21	244.19	20.20	-39.4	-41.5	14.1	7.00e-07	0	62	0	1425014784	49	4866
2026-01-26 00:49:03.22	244.05	20.09	-39.4	-41.5	14.1	7.00e-07	0	62	0	1428160512	49	4837
2026-01-26 00:49:04.23	243.91	19.98	-39.3	-41.5	14.2	2.20e-06	0	62	0	1431306240	49	4823
2026-01-26 00:49:05.24	243.77	19.87	-39.2	-41.3	14.3	1.50e-06	0	62	0	1434451968	49	4742
2026-01-26 00:49:06.25	243.63	19.76	-39.1	-41.2	14.5	7.00e-07	0	62	0	1437597696	49	4662
2026-01-26 00:49:07.26	243.49	19.65	-39.0	-40.9	14.7	1.50e-06	0	62	0	1440743424	49	4536
2026-01-26 00:49:08.27	243.36	19.54	-38.9	-40.8	14.8	0.00e+00	0	62	0	1443889152	49	4481
2026-01-26 00:49:09.28	243.22	19.43	-38.9	-40.9	14.8	7.00e-07	0	62	0	1447034880	49	4500
2026-01-26 00:49:10.29	243.09	19.32	-39.0	-40.9	14.7	0.00e+00	0	62	0	1450180608	49	4541
2026-01-26 00:49:11.30	242.96	19.21	-39.0	-40.9	14.7	0.00e+00	0	62	0	1453326336	49	4532
2026-01-26 00:49:12.31	242.83	19.10	-39.0	-41.1	14.6	0.00e+00	0	62	0	1456472064	49	4601
2026-01-26 00:49:13.32	242.70	18.99	-39.0	-41.0	14.6	0.00e+00	0	62	0	1459617792	49	4583
2026-01-26 00:49:14.33	242.57	18.88	-39.1	-41.1	14.6	7.00e-07	0	62	0	1462763520	49	4618
2026-01-26 00:49:15.34	242.44	18.78	-39.1	-41.1	14.5	0.00e+00	0	62	0	1465909248	49	4643
2026-01-26 00:49:16.35	242.31	18.67	-39.1	-41.2	14.5	7.00e-07	0	62	0	1469054976	49	4653
2026-01-26 00:49:17.36	242.18	18.56	-39.0	-40.9	14.7	0.00e+00	0	62	0	1472200704	49	4541
2026-01-26 00:49:18.37	242.05	18.46	-38.9	-40.8	14.8	7.00e-07	0	62	0	1475346432	49	4491
2026-01-26 00:49:19.38	241.93	18.35	-38.9	-40.8	14.9	0.00e+00	0	62	0	1478492160	49	4485
2026-01-26 00:49:20.39	241.81	18.24	-38.9	-40.9	14.8	0.00e+00	0	62	0	1481637888	49	4494
2026-01-26 00:49:21.40	241.68	18.14	-38.8	-40.8	14.9	7.00e-07	0	62	0	1484783616	49	4455
2026-01-26 00:49:22.41	241.56	18.03	-38.9	-40.9	14.8	0.00e+00	0	62	0	1487929344	49	4496
2026-01-26 00:49:23.42	241.44	17.93	-38.9	-40.9	14.7	7.00e-07	0	62	0	1491075072	49	4513
2026-01-26 00:49:24.43	241.32	17.82	-39.0	-41.0	14.6	7.00e-07	0	62	0	1494220800	49	4567
2026-01-26 00:49:25.44	241.20	17.72	-39.0	-41.1	14.5	0.00e+00	0	62	0	1497366528	49	4616
2026-01-26 00:49:26.45	241.08	17.62	-39.1	-41.2	14.4	7.00e-07	0	62	0	1500512256	49	4658
2026-01-26 00:49:27.46	240.96	17.51	-39.2	-41.3	14.3	7.00e-07	0	62	0	1503657984	49	4718
2026-01-26 00:49:28.47	240.84	17.41	-39.2	-41.3	14.3	2.20e-06	0	62	0	1506803712	49	4757
2026-01-26 00:49:29.48	240.72	17.31	-39.2	-41.3	14.3	7.00e-07	0	62	0	1509949440	49	4753
2026-01-26 00:49:30.49	240.61	17.20	-39.2	-41.3	14.3	7.00e-07	0	62	0	1513095168	49	4755
2026-01-26 00:49:31.50	240.49	17.10	-39.2	-41.3	14.3	0.00e+00	0	62	0	1516240896	49	4745
2026-01-26 00:49:32.51	240.38	17.00	-39.4	-41.5	14.1	1.50e-06	0	62	0	1519386624	49	4854
2026-01-26 00:49:33.52	240.26	16.90	-39.4	-41.6	14.0	0.00e+00	0	62	0	1522532352	49	4883
2026-01-26 00:49:34.53	240.15	16.79	-39.5	-41.7	13.9	2.20e-06	0	62	0	1525678080	49	4962
2026-01-26 00:49:35.54	240.04	16.69	-39.6	-41.8	13.8	4.50e-06	0	62	0	1528823808	49	5031
2026-01-26 00:49:36.54	239.93	16.59	-39.7	-42.0	13.6	8.30e-06	0	62	0	1531969536	49	5107
2026-01-26 00:49:37.55	239.82	16.49	-39.7	-42.0	13.5	9.90e-06	0	62	0	1535115264	49	5145
2026-01-26 00:49:38.56	239.71	16.39	-39.8	-42.2	13.4	1.06e-05	0	62	0	1538260992	50	4929
2026-01-26 00:49:39.57	239.60	16.29	-39.9	-42.3	13.3	1.67e-05	0	62	0	1541406720	50	5001
2026-01-26 00:49:40.58	239.49	16.19	-39.9	-42.3	13.3	2.28e-05	0	62	0	1544552448	50	5011
2026-01-26 00:49:41.59	239.38	16.09	-39.9	-42.3	13.2	2.51e-05	0	62	0	1547698176	50	5033
2026-01-26 00:49:42.60	239.28	15.99	-39.9	-42.3	13.2	1.60e-05	0	62	0	1550843904	50	5000
2026-01-26 00:49:43.61	239.17	15.89	-39.9	-42.3	13.2	2.44e-05	0	62	0	1553989632	50	5018
2026-01-26 00:49:44.62	239.06	15.80	-39.9	-42.3	13.2	3.12e-05	0	62	0	1557135360	50	5027
2026-01-26 00:49:45.63	238.96	15.70	-39.8	-42.2	13.2	9.90e-06	0	62	0	1560281088	50	4977
2026-01-26 00:49:46.64	238.86	15.60	-39.8	-42.2	13.3	1.44e-05	0	62	0	1563426816	50	4929
2026-01-26 00:49:47.65	238.75	15.50	-39.7	-42.1	13.4	1.60e-05	0	62	0	1566572544	50	4889
2026-01-26 00:49:48.66	238.65	15.41	-39.7	-42.1	13.4	2.05e-05	0	62	0	1569718272	50	4888
2026-01-26 00:49:49.67	238.55	15.31	-39.8	-42.2	13.3	1.52e-05	0	62	0	1572864000	50	4930
2026-01-26 00:49:50.68	238.45	15.21	-39.7	-42.0	13.5	7.60e-06	0	62	0	1576009728	50	4857
2026-01-26 00:49:51.69	238.35	15.11	-39.6	-42.0	13.5	4.50e-06	0	62	0	1579155456	50	4817
2026-01-26 00:49:52.70	238.25	15.02	-39.6	-41.9	13.6	9.90e-06	0	62	0	1582301184	50	4812
2026-01-26 00:49:53.71	238.15	14.92	-39.7	-42.0	13.5	7.60e-06	0	62	0	1586495488	50	4853
2026-01-26 00:49:54.72	238.05	14.83	-39.7	-42.0	13.5	1.22e-05	0	62	0	1588592640	50	4865
2026-01-26 00:49:55.73	237.95	14.73	-39.8	-42.1	13.4	6.80e-06	0	62	0	1591738368	50	4914
2026-01-26 00:49:56.74	237.85	14.64	-39.8	-42.2	13.4	1.52e-05	0	62	0	1594884096	50	4938
2026-01-26 00:49:57.75	237.76	14.54	-39.9	-42.3	13.2	1.52e-05	0	62	0	1598029824	50	5033
2026-01-26 00:49:58.76	237.66	14.45	-39.9	-42.3	13.2	2.05e-05	0	62	0	1602224128	50	5028
2026-01-26 00:49:59.77	237.56	14.35	-40.0	-42.4	13.1	3.05e-05	0	62	0	1605369856	50	5098
2026-01-26 00:50:00.78	237.47	14.26	-40.0	-42.5	13.0	3.28e-05	0	62	0	1608515584	50	5144
2026-01-26 00:50:01.79	237.37	14.17	-40.0	-42.5	13.0	3.50e-05	0	62	0	1610612736	50	5153
2026-01-26 00:50:02.80	237.28	14.07	-40.1	-42.6	12.8	6.02e-05	0	62	0	1613758464	50	5214
2026-01-26 00:50:03.81	237.19	13.98	-40.1	-42.6	12.8	5.18e-05	0	62	0	1617952768	50	5214
2026-01-26 00:50:04.82	237.10	13.89	-40.1	-42.7	12.8	5.87e-05	0	62	0	1621098496	50	5220
2026-01-26 00:50:05.82	237.00	13.80	-40.1	-42.6	12.8	5.87e-05	0	62	0	1624244224	50	5214
2026-01-26 00:50:06.84	236.91	13.70	-40.0	-42.6	12.9	6.25e-05	0	62	0	1627389952	50	5172
2026-01-26 00:50:07.85	236.82	13.61	-40.1	-42.6	12.7	6.86e-05	0	62	0	1630535680	50	5206
2026-01-26 00:50:08.86	236.73	13.52	-40.0	-42.5	12.9	6.33e-05	0	62	0	1633681408	50	5148
2026-01-26 00:50:09.87	236.64	13.43	-39.9	-42.3	13.1	4.57e-05	0	62	0	1636827136	50	5024
2026-01-26 00:50:10.88	236.55	13.34	-39.9	-42.4	13.0	3.66e-05	0	62	0	1639972864	50	5073
2026-01-26 00:50:11.89	236.46	13.25	-40.0	-42.5	12.9	5.49e-05	0	62	0	1643118592	50	5121
2026-01-26 00:50:12.90	236.38	13.15	-39.8	-42.1	13.2	2.67e-05	0	62	0	1646264320	50	4921
2026-01-26 00:50:13.91	236.29	13.06	-39.7	-42.0	13.3	1.14e-05	0	62	0	1649410048	50	4868
2026-01-26 00:50:14.92	236.20	12.97	-39.7	-42.1	13.2	1.67e-05	0	62	0	1652555776	50	4904
2026-01-26 00:50:15.93	236.12	12.88	-39.8	-42.2	13.2	2.44e-05	0	62	0	1655701504	50	4951
2026-01-26 00:50:16.94	236.03	12.80	-39.8	-42.2	13.2	2.74e-05	0	62	0	1658847232	50	4946
2026-01-26 00:50:17.95	235.94	12.71	-39.6	-42.0	13.4	1.90e-05	0	62	0	1661992960	50	4839
2026-01-26 00:50:18.96	235.86	12.62	-39.7	-42.0	13.4	1.52e-05	0	62	0	1665138688	50	4855
2026-01-26 00:50:19.97	235.78	12.53	-39.7	-42.1	13.3	1.44e-05	0	62	0	1668284416	50	4890
2026-01-26 00:50:20.98	235.69	12.44	-39.7	-42.0	13.4	1.75e-05	0	62	0	1671430144	50	4863
2026-01-26 00:50:21.99	235.61	12.35	-39.8	-42.2	13.2	1.98e-05	0	62	0	1674575872	50	4949
2026-01-26 00:50:23.00	235.53	12.26	-39.8	-42.2	13.2	2.44e-05	0	62	0	1677721600	50	4951
2026-01-26 00:50:24.01	235.44	12.18	-39.8	-42.2	13.2	3.05e-05	0	62	0	1680867328	50	4970
2026-01-26 00:50:25.01	235.36	12.09	-39.9	-42.3	13.0	2.51e-05	0	62	0	1684013056	50	5040
2026-01-26 00:50:26.02	235.28	12.00	-40.0	-42.5	12.9	4.34e-05	0	62	0	1687158784	50	5137
2026-01-26 00:50:27.03	235.20	11.92	-39.9	-42.4	12.9	3.20e-05	0	62	0	1690304512	50	5087
2026-01-26 00:50:28.04	235.12	11.83	-40.0	-42.5	12.8	4.65e-05	0	62	0	1693450240	50	5158
2026-01-26 00:50:29.05	235.04	11.74	-40.1	-42.7	12.7	8.01e-05	0	62	0	1696595968	50	5232
2026-01-26 00:50:30.07	234.96	11.66	-40.0	-42.7	12.7	8.92e-05	0	62	0	1699741696	50	5222
2026-01-26 00:50:31.07	234.88	11.57	-40.2	-42.8	12.5	1.01e-04	0	62	0	1702887424	50	5331
2026-01-26 00:50:32.09	234.80	11.48	-40.1	-42.8	12.5	1.21e-04	0	62	0	1706033152	50	5303
2026-01-26 00:50:33.09	234.73	11.40	-40.1	-42.8	12.5	9.99e-05	0	62	0	1709178880	50	5301
2026-01-26 00:50:34.10	234.65	11.31	-40.2	-42.9	12.5	1.34e-04	0	62	0	1712324608	50	5352
2026-01-26 00:50:35.11	234.57	11.23	-40.2	-42.9	12.4	1.81e-04	0	62	0	1715470336	51	5098
2026-01-26 00:50:36.12	234.50	11.14	-40.2	-42.9	12.4	1.33e-04	0	62	0	1718616064	51	5042
2026-01-26 00:50:37.13	234.42	11.06	-40.2	-43.0	12.3	1.56e-04	0	62	0	1721761792	51	5109
2026-01-26 00:50:38.14	234.35	10.98	-40.1	-42.8	12.5	1.42e-04	0	62	0	1724907520	51	4989
2026-01-26 00:50:39.16	234.27	10.89	-40.2	-42.9	12.3	1.57e-04	0	62	0	1728053248	51	5089
2026-01-26 00:50:40.16	234.20	10.81	-40.2	-42.9	12.3	1.94e-04	0	62	0	1731198976	51	5079
2026-01-26 00:50:41.17	234.12	10.72	-40.1	-42.8	12.4	1.62e-04	0	62	0	1734344704	51	5009
2026-01-26 00:50:42.19	234.05	10.64	-40.2	-42.9	12.3	1.79e-04	0	62	0	1737490432	51	5072
2026-01-26 00:50:43.20	233.97	10.56	-40.1	-42.7	12.5	1.50e-04	0	62	0	1740636160	51	4961
2026-01-26 00:50:44.21	233.90	10.47	-40.1	-42.8	12.4	1.46e-04	0	62	0	1743781888	51	5022
2026-01-26 00:50:45.22	233.83	10.39	-40.1	-42.9	12.3	1.70e-04	0	62	0	1746927616	51	5045
2026-01-26 00:50:46.23	233.76	10.31	-40.1	-42.8	12.4	1.69e-04	0	62	0	1750073344	51	4990
