passes_logs/2026/01/26/R2.0S_Moscow/R2.0S_Moscow__20260126_133806_FENGYUN_3D_rec.log

#Pass ID: 20260126_133806_FENGYUN 3D
#Satellite: FENGYUN 3D
#Configuration: FENGYUN 3D
#almurnet v.1.7.20251203
#Start time: 2026-01-26 13:38:06

#Version: 2.2.20231116
#Station: R2.0S_Moscow
#Location: 37.707566 lon 55.798166 lat
#TLE: 1 43010U 17072A   26025.99795741 -.00000136  00000+0 -42313-4 0  9999
#TLE: 2 43010  98.9962 357.9855 0002515  89.6991 270.4472 14.19699257424818

#Time	Az	El	Level	Level2	SNR	BER	BlckErr	Temp	State	Recorded	gain1	gain2
2026-01-26 13:38:06.77	210.70	1.99	-43.9	-55.5	3.8	8.47e-01	0	53	0	0	58	14439
2026-01-26 13:38:07.77	210.78	2.04	-43.9	-55.5	3.8	8.46e-01	0	54	104	0	59	13574
2026-01-26 13:38:08.78	210.86	2.10	-43.9	-55.5	3.8	8.46e-01	0	53	104	0	59	13586
2026-01-26 13:38:09.79	210.93	2.15	-43.9	-55.5	3.8	8.45e-01	0	54	104	0	59	13626
2026-01-26 13:38:10.80	211.01	2.21	-43.9	-55.5	3.8	8.46e-01	0	54	104	0	59	13581
2026-01-26 13:38:11.81	211.09	2.26	-43.9	-55.5	3.8	8.47e-01	0	54	104	0	59	13601
2026-01-26 13:38:12.82	211.17	2.32	-43.9	-55.5	3.8	8.45e-01	0	54	104	0	59	13600
2026-01-26 13:38:13.83	211.25	2.37	-43.9	-55.4	3.8	8.46e-01	0	54	104	0	59	13552
2026-01-26 13:38:14.84	211.33	2.42	-43.9	-55.4	3.8	8.47e-01	0	54	104	0	59	13556
2026-01-26 13:38:15.85	211.41	2.48	-43.9	-55.4	3.8	8.46e-01	0	54	104	0	59	13566
2026-01-26 13:38:16.86	211.49	2.53	-43.9	-55.5	3.8	8.45e-01	0	54	104	0	59	13636
2026-01-26 13:38:17.88	211.57	2.59	-43.9	-55.5	3.8	8.46e-01	0	54	104	0	59	13591
2026-01-26 13:38:18.89	211.65	2.64	-43.8	-55.4	3.8	8.47e-01	0	54	104	0	59	13566
2026-01-26 13:38:19.90	211.73	2.70	-43.9	-55.5	3.8	8.45e-01	0	55	104	0	59	13592
2026-01-26 13:38:20.91	211.81	2.75	-43.9	-55.4	3.8	8.46e-01	0	54	104	0	59	13547
2026-01-26 13:38:21.92	211.89	2.81	-43.9	-55.5	3.8	8.46e-01	0	55	104	0	59	13597
2026-01-26 13:38:22.93	211.97	2.86	-43.9	-55.4	3.8	8.46e-01	0	55	104	0	59	13556
2026-01-26 13:38:23.94	212.06	2.92	-43.9	-55.5	3.8	8.45e-01	0	55	104	0	59	13577
2026-01-26 13:38:24.95	212.14	2.97	-43.9	-55.4	3.8	8.46e-01	0	55	104	0	59	13566
2026-01-26 13:38:25.96	212.22	3.03	-43.9	-55.5	3.8	8.45e-01	0	55	104	0	59	13585
2026-01-26 13:38:26.97	212.30	3.08	-43.9	-55.5	3.8	8.46e-01	0	55	104	0	59	13587
2026-01-26 13:38:27.98	212.39	3.14	-43.9	-55.4	3.8	8.47e-01	0	55	104	0	59	13562
2026-01-26 13:38:28.99	212.47	3.19	-43.9	-55.4	3.8	8.46e-01	0	55	104	0	59	13560
2026-01-26 13:38:30.00	212.55	3.25	-43.9	-55.5	3.8	8.46e-01	0	55	104	0	59	13621
2026-01-26 13:38:31.01	212.64	3.31	-43.9	-55.5	3.8	8.46e-01	0	55	104	0	59	13596
2026-01-26 13:38:32.02	212.72	3.36	-43.9	-55.4	3.8	8.47e-01	0	55	104	0	59	13545
2026-01-26 13:38:33.04	212.81	3.42	-43.9	-55.5	3.8	8.46e-01	0	55	104	0	59	13582
2026-01-26 13:38:34.05	212.89	3.47	-43.9	-55.4	3.8	8.45e-01	0	55	104	0	59	13537
2026-01-26 13:38:35.06	212.98	3.53	-43.9	-55.4	3.8	8.46e-01	0	55	104	0	59	13537
2026-01-26 13:38:36.07	213.06	3.58	-43.9	-55.4	3.8	8.46e-01	0	56	104	0	59	13492
2026-01-26 13:38:37.07	213.15	3.64	-43.9	-55.4	3.8	8.48e-01	0	56	104	0	59	13540
2026-01-26 13:38:38.08	213.23	3.70	-43.9	-55.5	3.8	8.46e-01	0	56	104	0	59	13592
2026-01-26 13:38:39.10	213.32	3.75	-43.9	-55.4	3.8	8.45e-01	0	56	104	0	59	13532
2026-01-26 13:38:40.11	213.41	3.81	-43.9	-55.4	3.8	8.47e-01	0	56	104	0	59	13547
2026-01-26 13:38:41.12	213.50	3.86	-43.9	-55.5	3.8	8.47e-01	0	56	104	0	59	13585
2026-01-26 13:38:42.13	213.58	3.92	-43.9	-55.4	3.8	8.47e-01	0	56	104	0	59	13462
2026-01-26 13:38:43.14	213.67	3.98	-43.8	-55.4	3.8	8.45e-01	0	56	104	0	59	13542
2026-01-26 13:38:44.15	213.76	4.03	-43.8	-55.4	3.8	8.47e-01	0	56	104	0	59	13516
2026-01-26 13:38:45.16	213.85	4.09	-43.8	-55.4	3.8	8.45e-01	0	56	104	0	59	13500
2026-01-26 13:38:46.17	213.94	4.15	-43.8	-55.4	3.8	8.47e-01	0	56	104	0	59	13553
2026-01-26 13:38:47.18	214.03	4.20	-43.8	-55.4	3.8	8.46e-01	0	56	104	0	59	13544
2026-01-26 13:38:48.19	214.12	4.26	-43.8	-55.5	3.8	8.46e-01	0	56	104	0	59	13598
2026-01-26 13:38:49.20	214.20	4.32	-43.8	-55.4	3.8	8.47e-01	0	56	104	0	59	13517
2026-01-26 13:38:50.21	214.29	4.37	-43.8	-55.4	3.8	8.46e-01	0	56	104	0	59	13505
2026-01-26 13:38:51.22	214.39	4.43	-43.8	-55.4	3.8	8.46e-01	0	57	104	0	59	13481
2026-01-26 13:38:52.23	214.48	4.49	-43.8	-55.4	3.8	8.47e-01	0	57	104	0	59	13455
2026-01-26 13:38:53.24	214.57	4.54	-43.8	-55.4	3.8	8.46e-01	0	56	104	0	59	13467
2026-01-26 13:38:54.25	214.66	4.60	-43.8	-55.4	3.8	8.46e-01	0	57	104	0	59	13509
2026-01-26 13:38:55.26	214.75	4.66	-43.8	-55.4	3.8	8.46e-01	0	57	104	0	59	13503
2026-01-26 13:38:56.27	214.84	4.71	-43.8	-55.4	3.8	8.46e-01	0	57	104	0	59	13510
2026-01-26 13:38:57.28	214.94	4.77	-43.8	-55.4	3.8	8.47e-01	0	57	104	0	59	13437
2026-01-26 13:38:58.29	215.03	4.83	-43.8	-55.4	3.8	8.46e-01	0	57	104	0	59	13465
2026-01-26 13:38:59.30	215.12	4.89	-43.8	-55.4	3.8	8.46e-01	0	57	104	0	59	13487
2026-01-26 13:39:00.31	215.22	4.94	-43.8	-55.4	3.8	8.47e-01	0	57	104	0	59	13492
2026-01-26 13:39:01.32	215.31	5.00	-43.8	-55.4	3.8	8.46e-01	0	57	104	0	59	13500
2026-01-26 13:39:02.33	215.40	5.06	-43.8	-55.4	3.8	8.47e-01	0	57	104	0	59	13472
2026-01-26 13:39:03.34	215.50	5.12	-43.8	-55.3	3.8	8.46e-01	0	57	104	0	59	13384
2026-01-26 13:39:04.36	215.59	5.17	-43.8	-55.4	3.8	8.47e-01	0	57	104	0	59	13492
2026-01-26 13:39:05.37	215.69	5.23	-43.8	-55.4	3.8	8.45e-01	0	57	104	0	59	13472
2026-01-26 13:39:06.38	215.79	5.29	-43.8	-55.4	3.8	8.45e-01	0	57	104	0	59	13460
2026-01-26 13:39:07.39	215.88	5.35	-43.8	-55.3	3.8	8.47e-01	0	57	104	0	59	13380
2026-01-26 13:39:08.40	215.98	5.41	-43.8	-55.3	3.8	8.46e-01	0	58	104	0	58	14156
2026-01-26 13:39:09.41	216.07	5.46	-43.8	-55.2	3.8	8.45e-01	0	57	104	0	58	14013
2026-01-26 13:39:10.42	216.17	5.52	-43.8	-55.2	3.8	8.46e-01	0	57	104	0	58	13935
2026-01-26 13:39:11.43	216.27	5.58	-43.8	-55.1	3.8	8.46e-01	0	58	104	0	58	13837
2026-01-26 13:39:12.44	216.37	5.64	-43.8	-54.9	3.8	8.47e-01	0	58	104	0	58	13453
2026-01-26 13:39:13.45	216.47	5.70	-43.8	-54.8	3.8	8.45e-01	0	58	104	0	58	13368
2026-01-26 13:39:14.46	216.56	5.75	-43.7	-54.7	3.8	8.45e-01	0	58	104	0	58	13227
2026-01-26 13:39:15.47	216.66	5.81	-43.7	-54.5	3.8	8.46e-01	0	58	104	0	58	12932
2026-01-26 13:39:16.48	216.76	5.87	-43.7	-54.5	3.8	8.46e-01	0	58	104	0	58	12828
2026-01-26 13:39:17.50	216.86	5.93	-43.7	-54.4	3.8	8.47e-01	0	58	104	0	58	12727
2026-01-26 13:39:18.51	216.96	5.99	-43.7	-54.1	3.8	8.45e-01	0	58	104	0	58	12332
2026-01-26 13:39:19.52	217.06	6.05	-43.7	-54.2	3.8	8.46e-01	0	58	104	0	58	12395
2026-01-26 13:39:20.53	217.17	6.10	-43.7	-54.0	3.8	8.45e-01	0	58	104	0	58	12128
2026-01-26 13:39:21.54	217.27	6.16	-43.6	-53.8	3.8	8.45e-01	0	58	104	0	58	11891
2026-01-26 13:39:22.55	217.37	6.22	-43.6	-53.5	3.8	8.45e-01	0	58	104	0	58	11453
2026-01-26 13:39:23.56	217.47	6.28	-43.6	-53.2	3.8	8.44e-01	0	58	104	0	58	11060
2026-01-26 13:39:24.57	217.57	6.34	-43.5	-52.5	3.9	8.43e-01	0	58	104	0	58	10284
2026-01-26 13:39:25.58	217.68	6.40	-43.4	-52.1	4.1	8.43e-01	0	58	104	0	58	9799
2026-01-26 13:39:26.59	217.78	6.46	-43.4	-51.9	4.2	8.38e-01	0	58	0	0	58	9522
2026-01-26 13:39:27.60	217.88	6.52	-43.2	-51.0	4.4	8.25e-01	0	58	0	0	58	8647
2026-01-26 13:39:28.61	217.99	6.57	-43.1	-50.1	4.8	8.02e-01	0	58	0	0	58	7780
2026-01-26 13:39:29.62	218.09	6.63	-42.8	-49.6	5.2	7.67e-01	0	58	0	0	57	7727
2026-01-26 13:39:30.64	218.20	6.69	-42.7	-48.6	5.8	5.96e-01	0	58	0	1048576	57	6949
2026-01-26 13:39:31.65	218.30	6.75	-42.6	-48.5	5.9	4.11e-01	0	58	0	7340032	57	6806
2026-01-26 13:39:32.66	218.41	6.81	-42.4	-47.9	6.3	2.82e-01	0	58	0	12582912	56	6747
2026-01-26 13:39:33.67	218.52	6.87	-42.4	-47.7	6.5	2.31e-01	0	58	0	17825792	56	6577
2026-01-26 13:39:34.68	218.62	6.93	-42.2	-47.2	7.0	2.23e-01	0	58	0	24117248	56	6208
2026-01-26 13:39:35.69	218.73	6.99	-42.2	-47.4	6.8	2.03e-01	0	59	0	29360128	56	6350
2026-01-26 13:39:36.70	218.84	7.05	-42.2	-47.3	6.8	1.99e-01	0	59	0	35651584	56	6335
2026-01-26 13:39:37.71	218.95	7.11	-42.4	-47.8	6.5	2.41e-01	0	58	0	40894464	56	6679
2026-01-26 13:39:38.72	219.05	7.17	-42.4	-48.0	6.2	2.97e-01	0	59	0	47185920	56	6819
2026-01-26 13:39:39.73	219.16	7.23	-42.6	-48.4	6.0	3.46e-01	0	59	0	52428800	56	7140
2026-01-26 13:39:40.74	219.27	7.29	-42.6	-48.4	5.9	4.20e-01	0	59	0	57671680	56	7174
2026-01-26 13:39:41.75	219.38	7.35	-42.5	-48.1	6.2	3.64e-01	0	59	0	63963136	56	6927
2026-01-26 13:39:42.76	219.49	7.41	-42.4	-47.7	6.5	2.72e-01	0	59	0	69206016	56	6622
2026-01-26 13:39:43.78	219.60	7.47	-42.1	-47.0	7.1	2.03e-01	0	59	0	75497472	56	6089
2026-01-26 13:39:44.79	219.72	7.53	-41.6	-46.0	7.9	1.08e-01	0	59	0	80740352	55	5752
2026-01-26 13:39:45.80	219.83	7.59	-41.2	-45.1	8.9	4.76e-02	0	59	0	87031808	54	5499
2026-01-26 13:39:46.81	219.94	7.65	-40.7	-44.2	9.7	1.78e-02	0	59	0	92274688	53	5267
2026-01-26 13:39:47.82	220.05	7.71	-40.1	-43.2	10.8	5.55e-03	0	59	0	97517568	52	4945
2026-01-26 13:39:48.83	220.16	7.77	-39.9	-42.7	11.4	1.62e-03	0	59	0	103809024	51	4962
2026-01-26 13:39:49.84	220.28	7.83	-39.5	-42.2	12.0	6.05e-04	0	59	0	109051904	51	4654
2026-01-26 13:39:50.85	220.39	7.89	-39.5	-42.1	12.1	3.81e-04	0	59	0	115343360	50	4879
2026-01-26 13:39:51.86	220.51	7.95	-39.3	-41.8	12.3	2.84e-04	0	59	0	120586240	50	4742
2026-01-26 13:39:52.87	220.62	8.01	-39.5	-42.1	12.1	3.81e-04	0	59	0	126877696	50	4905
2026-01-26 13:39:53.89	220.74	8.07	-39.3	-41.7	12.7	9.49e-05	0	59	0	132120576	50	4659
2026-01-26 13:39:54.89	220.85	8.13	-40.6	-43.7	10.6	2.51e-03	0	60	0	137363456	51	5567
2026-01-26 13:39:55.91	220.97	8.19	-42.1	-47.3	6.8	6.59e-03	0	59	0	143654912	54	7096
2026-01-26 13:39:56.92	221.08	8.25	-43.7	-55.2	3.8	7.26e-01	0	59	104	145752064	57	14788
2026-01-26 13:39:57.93	221.20	8.31	-40.8	-44.0	10.4	2.76e-04	0	59	0	146800640	52	5438
2026-01-26 13:39:58.94	221.32	8.37	-39.5	-41.9	12.5	2.16e-03	0	59	0	152043520	51	4518
2026-01-26 13:39:59.95	221.44	8.43	-39.4	-41.8	12.7	1.46e-04	0	59	0	158334976	50	4728
2026-01-26 13:40:00.96	221.55	8.49	-39.2	-41.5	13.0	7.66e-05	0	59	0	163577856	50	4555
2026-01-26 13:40:01.97	221.67	8.55	-39.2	-41.5	13.0	5.03e-05	0	59	0	168820736	50	4579
2026-01-26 13:40:02.98	221.79	8.61	-38.9	-41.2	13.3	4.23e-05	0	59	0	175112192	49	4655
2026-01-26 13:40:03.99	221.91	8.67	-38.9	-41.0	13.4	2.05e-05	0	60	0	180355072	49	4597
2026-01-26 13:40:05.00	222.03	8.73	-38.9	-41.0	13.4	1.94e-05	0	59	0	186646528	49	4596
2026-01-26 13:40:06.01	222.15	8.80	-38.9	-41.1	13.4	2.86e-05	0	60	0	191889408	49	4603
2026-01-26 13:40:07.02	222.27	8.86	-38.7	-40.9	13.6	1.48e-05	0	60	0	197132288	49	4515
2026-01-26 13:40:08.03	222.40	8.92	-38.9	-41.0	13.5	1.71e-05	0	59	0	203423744	49	4590
2026-01-26 13:40:09.04	222.52	8.98	-38.9	-41.1	13.5	1.83e-05	0	60	0	208666624	49	4601
2026-01-26 13:40:10.05	222.64	9.04	-38.7	-40.8	13.7	1.02e-05	0	59	0	214958080	49	4472
2026-01-26 13:40:11.06	222.76	9.10	-38.8	-41.0	13.6	1.25e-05	0	59	0	220200960	49	4567
2026-01-26 13:40:12.08	222.89	9.16	-38.7	-40.8	13.7	8.00e-06	0	59	0	226492416	49	4493
2026-01-26 13:40:13.09	223.01	9.22	-38.8	-41.0	13.6	1.71e-05	0	60	0	231735296	49	4555
2026-01-26 13:40:14.10	223.14	9.28	-38.8	-41.0	13.6	5.70e-06	0	60	0	236978176	49	4573
2026-01-26 13:40:15.11	223.26	9.34	-38.9	-41.0	13.5	1.25e-05	0	60	0	243269632	49	4578
2026-01-26 13:40:16.12	223.39	9.41	-38.7	-40.9	13.7	5.70e-06	0	60	0	248512512	49	4501
2026-01-26 13:40:17.13	223.52	9.47	-38.7	-40.8	13.8	9.10e-06	0	60	0	254803968	49	4450
2026-01-26 13:40:18.14	223.64	9.53	-38.7	-40.8	13.8	1.37e-05	0	60	0	260046848	49	4477
2026-01-26 13:40:19.15	223.77	9.59	-38.7	-40.9	13.7	2.20e-06	0	60	0	266338304	49	4498
2026-01-26 13:40:20.16	223.90	9.65	-38.7	-40.8	13.8	8.00e-06	0	60	0	271581184	49	4493
2026-01-26 13:40:21.17	224.03	9.71	-38.7	-40.9	13.7	1.83e-05	0	60	0	276824064	49	4500
2026-01-26 13:40:22.18	224.16	9.77	-38.8	-41.0	13.6	1.25e-05	0	60	0	283115520	49	4560
2026-01-26 13:40:23.19	224.28	9.83	-38.9	-41.0	13.6	1.60e-05	0	60	0	288358400	49	4583
2026-01-26 13:40:24.20	224.41	9.90	-38.7	-40.8	13.8	9.10e-06	0	60	0	294649856	49	4487
2026-01-26 13:40:25.21	224.54	9.96	-38.8	-40.9	13.7	6.80e-06	0	60	0	299892736	49	4514
2026-01-26 13:40:26.22	224.68	10.02	-38.7	-40.8	13.8	5.70e-06	0	60	0	305135616	49	4478
2026-01-26 13:40:27.23	224.81	10.08	-38.7	-40.8	13.9	4.50e-06	0	60	0	311427072	49	4446
2026-01-26 13:40:28.24	224.94	10.14	-38.5	-40.5	14.1	2.20e-06	0	60	0	316669952	49	4332
2026-01-26 13:40:29.25	225.07	10.20	-38.6	-40.6	14.1	1.10e-06	0	60	0	322961408	49	4347
2026-01-26 13:40:30.26	225.21	10.26	-38.5	-40.4	14.2	4.50e-06	0	60	0	328204288	48	4545
2026-01-26 13:40:31.27	225.34	10.33	-38.4	-40.3	14.3	3.40e-06	0	60	0	334495744	48	4485
2026-01-26 13:40:32.29	225.47	10.39	-38.3	-40.2	14.5	0.00e+00	0	60	0	339738624	48	4411
2026-01-26 13:40:33.30	225.61	10.45	-38.4	-40.4	14.3	1.10e-06	0	60	0	344981504	48	4502
2026-01-26 13:40:34.31	225.74	10.51	-38.4	-40.4	14.3	0.00e+00	0	60	0	351272960	48	4534
2026-01-26 13:40:35.32	225.88	10.57	-38.5	-40.5	14.2	3.40e-06	0	60	0	356515840	48	4553
2026-01-26 13:40:36.33	226.02	10.63	-38.5	-40.5	14.2	0.00e+00	0	60	0	362807296	48	4586
2026-01-26 13:40:37.34	226.15	10.70	-38.5	-40.6	14.2	0.00e+00	0	60	0	368050176	48	4601
2026-01-26 13:40:38.35	226.29	10.76	-38.6	-40.6	14.1	1.10e-06	0	60	0	374341632	48	4628
2026-01-26 13:40:39.36	226.43	10.82	-38.7	-40.7	14.0	5.70e-06	0	60	0	379584512	48	4695
2026-01-26 13:40:40.37	226.57	10.88	-38.7	-40.7	14.0	1.10e-06	0	60	0	385875968	48	4689
2026-01-26 13:40:41.38	226.71	10.94	-38.5	-40.6	14.2	2.20e-06	0	60	0	391118848	48	4605
2026-01-26 13:40:42.39	226.85	11.00	-38.6	-40.6	14.1	6.80e-06	0	60	0	396361728	48	4625
2026-01-26 13:40:43.40	226.99	11.07	-38.6	-40.6	14.2	3.40e-06	0	61	0	402653184	48	4611
2026-01-26 13:40:44.41	227.13	11.13	-38.5	-40.5	14.3	1.10e-06	0	61	0	407896064	48	4577
2026-01-26 13:40:45.42	227.27	11.19	-38.5	-40.5	14.3	3.40e-06	0	60	0	414187520	48	4574
2026-01-26 13:40:46.43	227.41	11.25	-38.4	-40.4	14.3	2.20e-06	0	60	0	419430400	48	4524
2026-01-26 13:40:47.44	227.55	11.31	-38.5	-40.4	14.3	0.00e+00	0	61	0	424673280	48	4542
2026-01-26 13:40:48.45	227.70	11.37	-38.3	-40.3	14.5	0.00e+00	0	61	0	430964736	48	4447
2026-01-26 13:40:49.47	227.84	11.44	-38.4	-40.4	14.4	1.10e-06	0	61	0	436207616	48	4504
2026-01-26 13:40:50.48	227.99	11.50	-38.3	-40.3	14.5	2.20e-06	0	61	0	442499072	48	4452
2026-01-26 13:40:51.48	228.13	11.56	-38.3	-40.2	14.5	0.00e+00	0	61	0	447741952	48	4430
2026-01-26 13:40:52.50	228.28	11.62	-38.2	-40.1	14.7	1.10e-06	0	61	0	452984832	48	4375
2026-01-26 13:40:53.51	228.42	11.68	-38.4	-40.3	14.5	0.00e+00	0	61	0	459276288	48	4467
2026-01-26 13:40:54.52	228.57	11.74	-38.4	-40.3	14.5	1.10e-06	0	60	0	464519168	48	4480
2026-01-26 13:40:55.52	228.72	11.81	-38.3	-40.2	14.6	1.10e-06	0	61	0	470810624	48	4437
2026-01-26 13:40:56.53	228.87	11.87	-38.3	-40.3	14.5	0.00e+00	0	61	0	476053504	48	4458
2026-01-26 13:40:57.54	229.01	11.93	-38.3	-40.2	14.6	1.10e-06	0	61	0	482344960	48	4412
2026-01-26 13:40:58.55	229.16	11.99	-38.2	-40.1	14.7	1.10e-06	0	61	0	487587840	48	4384
2026-01-26 13:40:59.57	229.31	12.05	-38.3	-40.3	14.5	0.00e+00	0	60	0	492830720	48	4448
2026-01-26 13:41:00.58	229.46	12.11	-38.3	-40.2	14.7	0.00e+00	0	61	0	499122176	48	4405
2026-01-26 13:41:01.59	229.62	12.17	-38.2	-40.1	14.7	1.10e-06	0	61	0	504365056	48	4368
2026-01-26 13:41:02.60	229.77	12.24	-38.2	-40.1	14.7	0.00e+00	0	61	0	510656512	48	4377
2026-01-26 13:41:03.61	229.92	12.30	-38.1	-40.0	14.8	0.00e+00	0	61	0	515899392	48	4309
2026-01-26 13:41:04.62	230.07	12.36	-38.1	-40.0	14.8	0.00e+00	0	61	0	522190848	48	4300
2026-01-26 13:41:05.63	230.23	12.42	-38.1	-40.0	14.9	1.10e-06	0	61	0	527433728	48	4296
2026-01-26 13:41:06.64	230.38	12.48	-38.0	-39.8	15.0	0.00e+00	0	61	0	532676608	48	4238
2026-01-26 13:41:07.65	230.53	12.54	-38.0	-39.8	15.0	1.10e-06	0	61	0	538968064	48	4210
2026-01-26 13:41:08.67	230.69	12.60	-38.1	-39.9	15.0	0.00e+00	0	61	0	544210944	48	4260
2026-01-26 13:41:09.68	230.85	12.67	-38.0	-39.8	15.0	0.00e+00	0	61	0	550502400	48	4237
2026-01-26 13:41:10.69	231.00	12.73	-37.8	-39.6	15.1	0.00e+00	0	61	0	555745280	47	4357
2026-01-26 13:41:11.70	231.16	12.79	-37.9	-39.7	15.1	0.00e+00	0	61	0	560988160	47	4398
2026-01-26 13:41:12.71	231.32	12.85	-38.0	-39.9	14.8	0.00e+00	0	61	0	567279616	47	4506
2026-01-26 13:41:13.72	231.48	12.91	-38.1	-40.0	14.8	0.00e+00	0	61	0	572522496	47	4553
2026-01-26 13:41:14.73	231.64	12.97	-38.0	-39.9	14.9	0.00e+00	0	61	0	578813952	47	4498
2026-01-26 13:41:15.74	231.80	13.03	-37.9	-39.7	15.0	0.00e+00	0	61	0	584056832	47	4438
2026-01-26 13:41:16.75	231.96	13.09	-37.9	-39.7	15.0	0.00e+00	0	61	0	590348288	47	4429
2026-01-26 13:41:17.76	232.12	13.15	-37.8	-39.6	15.1	0.00e+00	0	61	0	595591168	47	4368
2026-01-26 13:41:18.77	232.28	13.22	-37.8	-39.6	15.1	0.00e+00	0	61	0	600834048	47	4385
2026-01-26 13:41:19.78	232.44	13.28	-37.9	-39.7	15.0	0.00e+00	0	61	0	607125504	47	4423
2026-01-26 13:41:20.79	232.61	13.34	-37.8	-39.6	15.2	0.00e+00	0	61	0	612368384	47	4366
2026-01-26 13:41:21.80	232.77	13.40	-37.8	-39.6	15.2	0.00e+00	0	61	0	618659840	47	4358
2026-01-26 13:41:22.81	232.93	13.46	-37.9	-39.8	15.0	0.00e+00	0	61	0	623902720	47	4457
2026-01-26 13:41:23.82	233.10	13.52	-38.1	-39.9	14.8	0.00e+00	0	61	0	630194176	47	4535
2026-01-26 13:41:24.83	233.26	13.58	-38.0	-39.9	14.9	0.00e+00	0	61	0	635437056	47	4498
2026-01-26 13:41:25.84	233.43	13.64	-38.0	-39.9	14.9	1.10e-06	0	61	0	640679936	47	4506
2026-01-26 13:41:26.85	233.60	13.70	-38.1	-39.9	14.8	0.00e+00	0	61	0	646971392	47	4540
2026-01-26 13:41:27.86	233.77	13.76	-38.0	-39.9	14.8	0.00e+00	0	61	0	652214272	47	4529
2026-01-26 13:41:28.88	233.94	13.82	-38.1	-40.0	14.8	1.10e-06	0	61	0	658505728	47	4564
2026-01-26 13:41:29.89	234.10	13.88	-38.0	-39.9	14.9	0.00e+00	0	61	0	663748608	47	4514
2026-01-26 13:41:30.90	234.27	13.94	-38.0	-39.9	14.9	0.00e+00	0	61	0	668991488	47	4501
2026-01-26 13:41:31.91	234.44	14.00	-38.1	-39.9	14.8	0.00e+00	0	61	0	675282944	47	4539
2026-01-26 13:41:32.92	234.62	14.06	-38.0	-39.8	14.9	1.10e-06	0	61	0	680525824	47	4486
2026-01-26 13:41:33.93	234.79	14.12	-37.9	-39.8	15.0	0.00e+00	0	61	0	686817280	47	4465
2026-01-26 13:41:34.94	234.96	14.18	-37.9	-39.7	15.1	0.00e+00	0	61	0	692060160	47	4413
2026-01-26 13:41:35.95	235.13	14.24	-37.7	-39.5	15.3	0.00e+00	0	61	0	698351616	47	4326
2026-01-26 13:41:36.96	235.31	14.30	-37.8	-39.6	15.2	0.00e+00	0	61	0	703594496	47	4350
2026-01-26 13:41:37.97	235.48	14.36	-37.7	-39.4	15.4	0.00e+00	0	61	0	708837376	47	4269
2026-01-26 13:41:38.98	235.66	14.42	-37.7	-39.4	15.4	0.00e+00	0	61	0	715128832	47	4265
2026-01-26 13:41:39.99	235.83	14.48	-37.7	-39.5	15.3	0.00e+00	0	62	0	720371712	47	4308
2026-01-26 13:41:41.00	236.01	14.53	-37.8	-39.6	15.2	0.00e+00	0	61	0	726663168	47	4362
2026-01-26 13:41:42.01	236.18	14.59	-37.8	-39.6	15.2	0.00e+00	0	61	0	731906048	47	4362
2026-01-26 13:41:43.02	236.36	14.65	-37.8	-39.6	15.2	0.00e+00	0	61	0	738197504	47	4349
2026-01-26 13:41:44.03	236.54	14.71	-37.8	-39.5	15.3	0.00e+00	0	61	0	743440384	47	4340
2026-01-26 13:41:45.04	236.72	14.77	-37.7	-39.4	15.4	1.10e-06	0	62	0	748683264	47	4282
2026-01-26 13:41:46.05	236.90	14.83	-37.7	-39.4	15.4	0.00e+00	0	61	0	754974720	47	4274
2026-01-26 13:41:47.06	237.08	14.89	-37.6	-39.4	15.4	0.00e+00	0	61	0	760217600	47	4257
2026-01-26 13:41:48.07	237.26	14.94	-37.7	-39.4	15.4	0.00e+00	0	61	0	766509056	47	4287
2026-01-26 13:41:49.09	237.44	15.00	-37.6	-39.4	15.5	0.00e+00	0	61	0	771751936	47	4253
2026-01-26 13:41:50.10	237.63	15.06	-37.7	-39.4	15.4	0.00e+00	0	61	0	776994816	47	4287
2026-01-26 13:41:51.11	237.81	15.12	-37.7	-39.4	15.4	0.00e+00	0	61	0	783286272	47	4267
2026-01-26 13:41:52.12	237.99	15.18	-37.7	-39.4	15.4	0.00e+00	0	61	0	788529152	47	4279
2026-01-26 13:41:53.13	238.18	15.23	-37.7	-39.4	15.4	0.00e+00	0	61	0	794820608	47	4266
2026-01-26 13:41:54.14	238.36	15.29	-37.5	-39.3	15.6	0.00e+00	0	62	0	800063488	47	4198
2026-01-26 13:41:55.15	238.55	15.35	-37.4	-39.1	15.7	0.00e+00	0	62	0	806354944	46	4388
2026-01-26 13:41:56.16	238.74	15.41	-37.6	-39.3	15.5	0.00e+00	0	61	0	811597824	46	4473
2026-01-26 13:41:57.17	238.92	15.46	-37.5	-39.2	15.6	0.00e+00	0	62	0	816840704	46	4436
2026-01-26 13:41:58.18	239.11	15.52	-37.5	-39.1	15.7	0.00e+00	0	61	0	823132160	46	4390
2026-01-26 13:41:59.19	239.30	15.58	-37.4	-39.1	15.7	0.00e+00	0	61	0	828375040	46	4388
2026-01-26 13:42:00.20	239.49	15.63	-37.5	-39.2	15.7	0.00e+00	0	61	0	834666496	46	4394
2026-01-26 13:42:01.21	239.68	15.69	-37.5	-39.2	15.7	0.00e+00	0	61	0	839909376	46	4398
2026-01-26 13:42:02.22	239.87	15.74	-37.4	-39.1	15.8	0.00e+00	0	62	0	846200832	46	4374
2026-01-26 13:42:03.23	240.06	15.80	-37.5	-39.2	15.7	0.00e+00	0	62	0	851443712	46	4399
2026-01-26 13:42:04.24	240.26	15.86	-37.4	-39.1	15.7	0.00e+00	0	62	0	856686592	46	4374
2026-01-26 13:42:05.25	240.45	15.91	-37.4	-39.1	15.8	0.00e+00	0	62	0	862978048	46	4353
2026-01-26 13:42:06.26	240.64	15.97	-37.3	-39.0	15.9	0.00e+00	0	61	0	868220928	46	4313
2026-01-26 13:42:07.28	240.84	16.02	-37.3	-39.0	15.9	0.00e+00	0	62	0	874512384	46	4302
2026-01-26 13:42:08.29	241.03	16.08	-37.3	-39.0	15.9	0.00e+00	0	62	0	879755264	46	4307
2026-01-26 13:42:09.30	241.23	16.13	-37.3	-38.9	16.0	0.00e+00	0	62	0	884998144	46	4272
2026-01-26 13:42:10.31	241.43	16.19	-37.3	-38.9	16.0	0.00e+00	0	62	0	891289600	46	4266
2026-01-26 13:42:11.32	241.62	16.24	-37.3	-39.0	15.9	0.00e+00	0	62	0	896532480	46	4297
2026-01-26 13:42:12.33	241.82	16.30	-37.2	-38.9	16.0	0.00e+00	0	62	0	902823936	46	4254
2026-01-26 13:42:13.34	242.02	16.35	-37.3	-39.0	15.9	0.00e+00	0	62	0	908066816	46	4299
2026-01-26 13:42:14.35	242.22	16.40	-37.2	-38.9	16.0	0.00e+00	0	62	0	914358272	46	4248
2026-01-26 13:42:15.36	242.42	16.46	-37.2	-38.8	16.1	0.00e+00	0	62	0	919601152	46	4210
2026-01-26 13:42:16.37	242.62	16.51	-37.1	-38.8	16.1	0.00e+00	0	62	0	924844032	46	4195
2026-01-26 13:42:17.38	242.82	16.56	-37.2	-38.9	16.0	0.00e+00	0	62	0	931135488	46	4243
2026-01-26 13:42:18.39	243.02	16.62	-37.2	-38.9	16.0	0.00e+00	0	62	0	936378368	46	4244
2026-01-26 13:42:19.40	243.22	16.67	-37.4	-39.0	15.9	0.00e+00	0	62	0	942669824	46	4328
2026-01-26 13:42:20.41	243.43	16.72	-37.3	-39.0	15.9	0.00e+00	0	62	0	947912704	46	4321
2026-01-26 13:42:21.42	243.63	16.78	-37.3	-38.9	15.9	0.00e+00	0	62	0	953155584	46	4291
2026-01-26 13:42:22.43	243.84	16.83	-37.3	-38.9	15.9	0.00e+00	0	62	0	959447040	46	4279
2026-01-26 13:42:23.44	244.04	16.88	-37.2	-38.8	16.0	0.00e+00	0	62	0	964689920	46	4234
2026-01-26 13:42:24.45	244.25	16.93	-37.2	-38.8	16.1	0.00e+00	0	62	0	970981376	46	4219
2026-01-26 13:42:25.46	244.45	16.98	-37.2	-38.9	16.0	0.00e+00	0	62	0	976224256	46	4249
2026-01-26 13:42:26.47	244.66	17.03	-37.2	-38.9	16.0	0.00e+00	0	62	0	981467136	46	4263
2026-01-26 13:42:27.48	244.87	17.08	-37.2	-38.8	16.1	0.00e+00	0	62	0	987758592	46	4207
2026-01-26 13:42:28.49	245.08	17.13	-37.1	-38.7	16.2	0.00e+00	0	62	0	993001472	46	4161
2026-01-26 13:42:29.50	245.29	17.19	-37.1	-38.8	16.2	0.00e+00	0	62	0	999292928	46	4196
2026-01-26 13:42:30.51	245.50	17.24	-37.2	-38.8	16.1	0.00e+00	0	62	0	1004535808	46	4204
2026-01-26 13:42:31.52	245.71	17.28	-37.3	-38.9	16.0	0.00e+00	0	62	0	1010827264	46	4260
2026-01-26 13:42:32.53	245.92	17.33	-37.3	-39.0	15.9	0.00e+00	0	62	0	1016070144	46	4321
2026-01-26 13:42:33.54	246.13	17.38	-37.3	-39.0	15.9	0.00e+00	0	62	0	1022361600	46	4300
2026-01-26 13:42:34.55	246.35	17.43	-37.2	-38.9	16.0	0.00e+00	0	62	0	1027604480	46	4255
2026-01-26 13:42:35.56	246.56	17.48	-37.0	-38.6	16.2	0.00e+00	0	62	0	1032847360	46	4132
2026-01-26 13:42:36.57	246.77	17.53	-37.0	-38.6	16.3	0.00e+00	0	62	0	1039138816	46	4123
2026-01-26 13:42:37.58	246.99	17.58	-37.1	-38.7	16.2	0.00e+00	0	62	0	1044381696	46	4151
2026-01-26 13:42:38.59	247.21	17.63	-37.0	-38.5	16.3	0.00e+00	0	62	0	1050673152	46	4095
2026-01-26 13:42:39.60	247.42	17.67	-36.9	-38.5	16.4	0.00e+00	0	62	0	1055916032	45	4304
2026-01-26 13:42:40.61	247.64	17.72	-36.9	-38.5	16.4	0.00e+00	0	62	0	1061158912	45	4321
2026-01-26 13:42:41.63	247.86	17.77	-37.0	-38.6	16.3	0.00e+00	0	62	0	1067450368	45	4353
2026-01-26 13:42:42.64	248.08	17.81	-37.0	-38.6	16.2	0.00e+00	0	62	0	1072693248	45	4378
2026-01-26 13:42:43.65	248.30	17.86	-37.0	-38.6	16.3	0.00e+00	0	62	0	1078984704	45	4349
2026-01-26 13:42:44.66	248.51	17.91	-37.0	-38.6	16.3	0.00e+00	0	62	0	1084227584	45	4365
2026-01-26 13:42:45.67	248.73	17.95	-36.9	-38.5	16.4	0.00e+00	0	62	0	1089470464	45	4312
2026-01-26 13:42:46.68	248.96	18.00	-36.9	-38.4	16.4	0.00e+00	0	62	0	1095761920	45	4289
2026-01-26 13:42:47.69	249.18	18.04	-36.9	-38.5	16.4	0.00e+00	0	62	0	1101004800	45	4317
2026-01-26 13:42:48.70	249.40	18.09	-36.9	-38.5	16.4	0.00e+00	0	62	0	1107296256	45	4314
2026-01-26 13:42:49.71	249.62	18.13	-36.8	-38.3	16.5	0.00e+00	0	62	0	1112539136	45	4241
2026-01-26 13:42:50.72	249.85	18.17	-36.7	-38.2	16.6	0.00e+00	0	62	0	1118830592	45	4189
2026-01-26 13:42:51.73	250.07	18.22	-36.7	-38.3	16.6	0.00e+00	0	62	0	1124073472	45	4200
2026-01-26 13:42:52.74	250.29	18.26	-36.7	-38.3	16.6	0.00e+00	0	62	0	1130364928	45	4194
2026-01-26 13:42:53.75	250.52	18.30	-36.9	-38.4	16.5	0.00e+00	0	62	0	1135607808	45	4285
2026-01-26 13:42:54.76	250.74	18.35	-36.9	-38.5	16.4	0.00e+00	0	62	0	1140850688	45	4302
2026-01-26 13:42:55.77	250.97	18.39	-37.0	-38.6	16.3	0.00e+00	0	62	0	1147142144	45	4353
2026-01-26 13:42:56.78	251.20	18.43	-37.0	-38.6	16.3	0.00e+00	0	62	0	1152385024	45	4366
2026-01-26 13:42:57.79	251.43	18.47	-37.0	-38.6	16.3	0.00e+00	0	62	0	1158676480	45	4350
2026-01-26 13:42:58.80	251.65	18.51	-36.9	-38.6	16.3	0.00e+00	0	62	0	1163919360	45	4345
2026-01-26 13:42:59.81	251.88	18.55	-36.8	-38.4	16.4	0.00e+00	0	62	0	1169162240	45	4282
2026-01-26 13:43:00.83	252.11	18.60	-36.8	-38.4	16.5	0.00e+00	0	62	0	1175453696	45	4260
2026-01-26 13:43:01.84	252.34	18.64	-36.8	-38.4	16.5	0.00e+00	0	62	0	1180696576	45	4267
2026-01-26 13:43:02.85	252.58	18.67	-36.8	-38.4	16.5	0.00e+00	0	62	0	1186988032	45	4259
2026-01-26 13:43:03.86	252.81	18.71	-37.0	-38.6	16.3	0.00e+00	0	62	0	1192230912	45	4359
2026-01-26 13:43:04.87	253.04	18.75	-36.9	-38.5	16.4	0.00e+00	0	62	0	1197473792	45	4321
2026-01-26 13:43:05.88	253.27	18.79	-36.9	-38.5	16.4	0.00e+00	0	62	0	1203765248	45	4298
2026-01-26 13:43:06.89	253.50	18.83	-36.8	-38.4	16.5	0.00e+00	0	62	0	1209008128	45	4260
2026-01-26 13:43:07.90	253.74	18.87	-36.9	-38.5	16.4	0.00e+00	0	62	0	1215299584	45	4311
2026-01-26 13:43:08.91	253.97	18.90	-36.8	-38.3	16.6	0.00e+00	0	62	0	1220542464	45	4229
2026-01-26 13:43:09.92	254.21	18.94	-36.8	-38.3	16.6	0.00e+00	0	62	0	1226833920	45	4242
2026-01-26 13:43:10.92	254.44	18.98	-36.8	-38.3	16.6	0.00e+00	0	62	0	1232076800	45	4217
2026-01-26 13:43:11.93	254.67	19.01	-36.8	-38.4	16.5	0.00e+00	0	62	0	1238368256	45	4253
2026-01-26 13:43:12.94	254.91	19.05	-36.7	-38.2	16.7	0.00e+00	0	62	0	1243611136	45	4178
2026-01-26 13:43:13.95	255.15	19.08	-36.7	-38.3	16.6	0.00e+00	0	62	0	1248854016	45	4204
2026-01-26 13:43:14.96	255.38	19.12	-36.7	-38.3	16.6	0.00e+00	0	62	0	1255145472	45	4205
2026-01-26 13:43:15.97	255.62	19.15	-36.7	-38.2	16.7	0.00e+00	0	62	0	1260388352	45	4165
2026-01-26 13:43:16.98	255.86	19.19	-36.6	-38.1	16.8	0.00e+00	0	62	0	1266679808	45	4123
2026-01-26 13:43:17.99	256.10	19.22	-36.6	-38.1	16.8	0.00e+00	0	62	0	1271922688	45	4135
2026-01-26 13:43:19.00	256.34	19.25	-36.7	-38.2	16.7	0.00e+00	0	62	0	1277165568	45	4169
2026-01-26 13:43:20.01	256.58	19.28	-36.6	-38.1	16.8	0.00e+00	0	62	0	1283457024	45	4136
2026-01-26 13:43:21.02	256.82	19.32	-36.6	-38.1	16.8	0.00e+00	0	62	0	1288699904	45	4131
2026-01-26 13:43:22.03	257.06	19.35	-36.7	-38.2	16.7	0.00e+00	0	62	0	1294991360	45	4164
2026-01-26 13:43:23.04	257.30	19.38	-36.6	-38.2	16.7	0.00e+00	0	62	0	1300234240	45	4157
2026-01-26 13:43:24.05	257.54	19.41	-36.6	-38.1	16.8	0.00e+00	0	62	0	1305477120	45	4123
2026-01-26 13:43:25.06	257.78	19.44	-36.5	-38.0	16.9	0.00e+00	0	62	0	1311768576	45	4056
2026-01-26 13:43:26.07	258.03	19.47	-36.4	-37.8	17.1	0.00e+00	0	62	0	1317011456	44	4233
2026-01-26 13:43:27.08	258.27	19.50	-36.4	-37.9	17.0	0.00e+00	0	62	0	1323302912	44	4259
2026-01-26 13:43:28.09	258.51	19.53	-36.5	-38.0	16.9	0.00e+00	0	62	0	1328545792	44	4312
2026-01-26 13:43:29.10	258.76	19.55	-36.5	-38.0	16.9	0.00e+00	0	62	0	1334837248	44	4305
2026-01-26 13:43:30.11	259.00	19.58	-36.5	-38.0	16.9	0.00e+00	0	62	0	1340080128	44	4312
2026-01-26 13:43:31.12	259.25	19.61	-36.5	-38.0	16.9	0.00e+00	0	62	0	1345323008	44	4295
2026-01-26 13:43:32.13	259.49	19.64	-36.4	-37.9	17.0	0.00e+00	0	62	0	1351614464	44	4256
2026-01-26 13:43:33.14	259.74	19.66	-36.5	-38.0	16.9	0.00e+00	0	62	0	1356857344	44	4311
2026-01-26 13:43:34.15	259.98	19.69	-36.6	-38.1	16.8	0.00e+00	0	62	0	1363148800	44	4371
2026-01-26 13:43:35.16	260.23	19.71	-36.6	-38.1	16.8	0.00e+00	0	62	0	1368391680	44	4390
2026-01-26 13:43:36.17	260.48	19.74	-36.7	-38.3	16.6	0.00e+00	0	62	0	1373634560	44	4445
2026-01-26 13:43:37.18	260.72	19.76	-36.6	-38.1	16.8	0.00e+00	0	62	0	1379926016	44	4366
2026-01-26 13:43:38.18	260.97	19.79	-36.6	-38.1	16.8	0.00e+00	0	62	0	1385168896	44	4371
2026-01-26 13:43:39.19	261.22	19.81	-36.6	-38.2	16.7	0.00e+00	0	62	0	1391460352	44	4403
2026-01-26 13:43:40.20	261.47	19.83	-36.6	-38.1	16.8	0.00e+00	0	62	0	1396703232	44	4373
2026-01-26 13:43:41.21	261.72	19.86	-36.6	-38.1	16.8	0.00e+00	0	62	0	1401946112	44	4384
2026-01-26 13:43:42.22	261.96	19.88	-36.5	-38.0	16.9	0.00e+00	0	62	0	1408237568	44	4321
2026-01-26 13:43:43.23	262.21	19.90	-36.5	-38.0	16.9	0.00e+00	0	62	0	1413480448	44	4296
2026-01-26 13:43:44.24	262.46	19.92	-36.5	-37.9	16.9	0.00e+00	0	62	0	1419771904	44	4291
2026-01-26 13:43:45.25	262.71	19.94	-36.5	-37.9	16.9	0.00e+00	0	62	0	1425014784	44	4284
2026-01-26 13:43:46.26	262.96	19.96	-36.5	-38.1	16.8	0.00e+00	0	62	0	1431306240	44	4347
2026-01-26 13:43:47.27	263.21	19.98	-36.5	-38.0	16.9	0.00e+00	0	62	0	1436549120	44	4328
2026-01-26 13:43:48.28	263.47	20.00	-36.6	-38.2	16.7	0.00e+00	0	62	0	1442840576	44	4400
2026-01-26 13:43:49.29	263.72	20.01	-36.6	-38.1	16.8	0.00e+00	0	62	0	1448083456	44	4381
2026-01-26 13:43:50.30	263.97	20.03	-36.5	-38.1	16.8	0.00e+00	0	62	0	1453326336	44	4352
2026-01-26 13:43:51.31	264.22	20.05	-36.5	-38.1	16.8	0.00e+00	0	62	0	1459617792	44	4341
2026-01-26 13:43:52.32	264.47	20.07	-36.6	-38.1	16.8	0.00e+00	0	62	0	1464860672	44	4354
2026-01-26 13:43:53.33	264.72	20.08	-36.5	-38.0	16.9	0.00e+00	0	62	0	1471152128	44	4311
2026-01-26 13:43:54.34	264.98	20.10	-36.4	-37.9	17.0	0.00e+00	0	62	0	1476395008	44	4290
2026-01-26 13:43:55.35	265.23	20.11	-36.4	-37.9	17.0	0.00e+00	0	62	0	1481637888	44	4280
2026-01-26 13:43:56.36	265.48	20.13	-36.5	-38.0	16.9	0.00e+00	0	62	0	1487929344	44	4307
2026-01-26 13:43:57.37	265.74	20.14	-36.5	-38.0	16.9	0.00e+00	0	62	0	1493172224	44	4308
2026-01-26 13:43:58.38	265.99	20.15	-36.6	-38.1	16.8	0.00e+00	0	62	0	1499463680	44	4383
2026-01-26 13:43:59.39	266.24	20.17	-36.6	-38.1	16.7	0.00e+00	0	62	0	1504706560	44	4388
2026-01-26 13:44:00.40	266.50	20.18	-36.5	-38.0	16.9	0.00e+00	0	62	0	1509949440	44	4320
2026-01-26 13:44:01.41	266.75	20.19	-36.5	-38.0	16.9	0.00e+00	0	62	0	1516240896	44	4308
2026-01-26 13:44:02.42	267.01	20.20	-36.5	-38.0	16.9	0.00e+00	0	62	0	1521483776	44	4310
2026-01-26 13:44:03.43	267.26	20.21	-36.5	-38.0	17.0	0.00e+00	0	62	0	1527775232	44	4295
2026-01-26 13:44:04.44	267.51	20.22	-36.4	-37.9	17.0	0.00e+00	0	62	0	1533018112	44	4264
2026-01-26 13:44:05.46	267.77	20.23	-36.5	-38.0	16.9	0.00e+00	0	62	0	1539309568	44	4326
2026-01-26 13:44:06.46	268.02	20.24	-36.4	-37.9	17.0	0.00e+00	0	62	0	1544552448	44	4285
2026-01-26 13:44:07.48	268.28	20.25	-36.4	-37.9	17.0	0.00e+00	0	62	0	1550843904	44	4250
2026-01-26 13:44:08.49	268.54	20.26	-36.4	-37.9	17.0	0.00e+00	0	62	0	1556086784	44	4277
2026-01-26 13:44:09.50	268.79	20.26	-36.4	-37.9	17.0	0.00e+00	0	62	0	1561329664	44	4251
2026-01-26 13:44:10.50	269.04	20.27	-36.3	-37.8	17.1	0.00e+00	0	62	0	1567621120	44	4203
2026-01-26 13:44:11.51	269.30	20.28	-36.3	-37.8	17.1	0.00e+00	0	62	0	1572864000	44	4223
2026-01-26 13:44:12.52	269.56	20.28	-36.4	-37.9	17.0	0.00e+00	0	62	0	1579155456	44	4281
2026-01-26 13:44:13.53	269.81	20.29	-36.4	-37.9	17.0	0.00e+00	0	62	0	1584398336	44	4245
2026-01-26 13:44:14.55	270.07	20.29	-36.4	-37.8	17.1	0.00e+00	0	62	0	1589641216	44	4235
2026-01-26 13:44:15.56	270.32	20.29	-36.3	-37.8	17.1	0.00e+00	0	62	0	1595932672	44	4210
2026-01-26 13:44:16.57	270.58	20.30	-36.4	-37.9	17.0	0.00e+00	0	62	0	1601175552	44	4266
2026-01-26 13:44:17.57	270.83	20.30	-36.4	-37.9	17.0	0.00e+00	0	62	0	1607467008	44	4276
2026-01-26 13:44:18.58	271.09	20.30	-36.5	-38.0	17.0	0.00e+00	0	62	0	1612709888	44	4294
2026-01-26 13:44:19.59	271.35	20.30	-36.4	-37.9	17.0	0.00e+00	0	62	0	1617952768	44	4275
2026-01-26 13:44:20.60	271.60	20.30	-36.5	-37.9	16.9	0.00e+00	0	62	0	1624244224	44	4291
2026-01-26 13:44:21.61	271.86	20.30	-36.4	-37.9	17.0	0.00e+00	0	62	0	1629487104	44	4283
2026-01-26 13:44:22.62	272.11	20.30	-36.4	-37.9	17.0	0.00e+00	0	62	0	1635778560	44	4264
2026-01-26 13:44:23.63	272.37	20.30	-36.5	-38.0	16.9	0.00e+00	0	62	0	1641021440	44	4319
2026-01-26 13:44:24.64	272.62	20.30	-36.5	-38.0	16.9	0.00e+00	0	62	0	1647312896	44	4308
2026-01-26 13:44:25.65	272.88	20.30	-36.5	-38.0	16.9	0.00e+00	0	62	0	1652555776	44	4296
2026-01-26 13:44:26.66	273.14	20.30	-36.5	-38.1	16.9	0.00e+00	0	62	0	1657798656	44	4346
2026-01-26 13:44:27.67	273.39	20.29	-36.4	-37.9	17.0	0.00e+00	0	62	0	1664090112	44	4284
2026-01-26 13:44:28.68	273.65	20.29	-36.4	-37.9	17.0	0.00e+00	0	62	0	1669332992	44	4274
2026-01-26 13:44:29.69	273.90	20.29	-36.5	-38.0	17.0	0.00e+00	0	62	0	1675624448	44	4300
2026-01-26 13:44:30.70	274.16	20.28	-36.5	-38.0	16.9	0.00e+00	0	62	0	1680867328	44	4340
2026-01-26 13:44:31.71	274.41	20.28	-36.6	-38.1	16.8	0.00e+00	0	62	0	1686110208	44	4347
2026-01-26 13:44:32.72	274.67	20.27	-36.5	-38.1	16.9	0.00e+00	0	62	0	1692401664	44	4342
2026-01-26 13:44:33.73	274.92	20.26	-36.5	-38.0	16.9	0.00e+00	0	62	0	1697644544	44	4294
2026-01-26 13:44:34.74	275.18	20.26	-36.4	-37.9	17.0	0.00e+00	0	62	0	1703936000	44	4253
2026-01-26 13:44:35.75	275.43	20.25	-36.5	-38.0	17.0	0.00e+00	0	62	0	1709178880	44	4296
2026-01-26 13:44:36.76	275.69	20.24	-36.4	-37.9	16.9	0.00e+00	0	62	0	1714421760	44	4290
2026-01-26 13:44:37.77	275.94	20.23	-36.5	-38.0	16.9	0.00e+00	0	62	0	1720713216	44	4309
2026-01-26 13:44:38.78	276.20	20.22	-36.6	-38.1	16.8	0.00e+00	0	62	0	1725956096	44	4373
2026-01-26 13:44:39.78	276.45	20.21	-36.5	-38.0	16.8	0.00e+00	0	62	0	1732247552	44	4340
2026-01-26 13:44:40.79	276.70	20.20	-36.6	-38.1	16.8	0.00e+00	0	62	0	1737490432	44	4360
2026-01-26 13:44:41.80	276.96	20.19	-36.6	-38.1	16.8	0.00e+00	0	62	0	1743781888	44	4379
2026-01-26 13:44:42.81	277.21	20.18	-36.7	-38.2	16.7	0.00e+00	0	62	0	1749024768	44	4427
2026-01-26 13:44:43.82	277.47	20.17	-36.7	-38.2	16.7	0.00e+00	0	62	0	1754267648	44	4433
2026-01-26 13:44:44.83	277.72	20.16	-36.7	-38.2	16.7	0.00e+00	0	62	0	1760559104	44	4426
2026-01-26 13:44:45.84	277.97	20.14	-36.7	-38.2	16.7	0.00e+00	0	62	0	1765801984	44	4431
2026-01-26 13:44:46.85	278.23	20.13	-36.6	-38.1	16.8	0.00e+00	0	62	0	1772093440	44	4369
2026-01-26 13:44:47.86	278.48	20.12	-36.5	-38.0	16.9	0.00e+00	0	62	0	1777336320	44	4326
2026-01-26 13:44:48.87	278.73	20.10	-36.5	-38.0	16.9	0.00e+00	0	62	0	1782579200	44	4331
2026-01-26 13:44:49.88	278.98	20.09	-36.5	-38.0	16.9	0.00e+00	0	62	0	1788870656	44	4309
2026-01-26 13:44:50.89	279.24	20.07	-36.5	-37.9	16.9	0.00e+00	0	62	0	1794113536	44	4288
2026-01-26 13:44:51.90	279.49	20.05	-36.3	-37.8	17.1	0.00e+00	0	62	0	1800404992	44	4199
2026-01-26 13:44:52.91	279.74	20.04	-36.2	-37.7	17.2	0.00e+00	0	62	0	1805647872	44	4146
2026-01-26 13:44:53.92	279.99	20.02	-36.3	-37.7	17.2	0.00e+00	0	62	0	1811939328	44	4175
2026-01-26 13:44:54.93	280.24	20.00	-36.4	-37.9	17.0	0.00e+00	0	62	0	1817182208	44	4274
2026-01-26 13:44:55.94	280.49	19.98	-36.6	-38.1	16.8	0.00e+00	0	62	0	1822425088	44	4356
2026-01-26 13:44:56.96	280.74	19.96	-36.7	-38.2	16.7	0.00e+00	0	62	0	1828716544	44	4417
2026-01-26 13:44:57.97	280.99	19.95	-36.7	-38.2	16.6	0.00e+00	0	62	0	1833959424	44	4440
2026-01-26 13:44:58.98	281.24	19.93	-36.7	-38.3	16.6	0.00e+00	0	62	0	1840250880	44	4450
2026-01-26 13:44:59.99	281.49	19.90	-36.7	-38.3	16.6	0.00e+00	0	62	0	1845493760	44	4468
2026-01-26 13:45:01.00	281.74	19.88	-36.7	-38.3	16.6	0.00e+00	0	62	0	1850736640	44	4443
2026-01-26 13:45:02.01	281.99	19.86	-36.7	-38.3	16.6	0.00e+00	0	62	0	1857028096	44	4466
2026-01-26 13:45:03.01	282.24	19.84	-36.9	-38.5	16.4	0.00e+00	0	62	0	1862270976	44	4578
2026-01-26 13:45:04.02	282.48	19.82	-36.9	-38.6	16.4	0.00e+00	0	62	0	1868562432	44	4599
2026-01-26 13:45:05.03	282.73	19.79	-36.9	-38.5	16.3	0.00e+00	0	62	0	1873805312	44	4594
2026-01-26 13:45:06.04	282.98	19.77	-37.0	-38.6	16.3	0.00e+00	0	62	0	1880096768	44	4602
2026-01-26 13:45:07.05	283.23	19.75	-37.0	-38.7	16.2	0.00e+00	0	62	0	1885339648	44	4660
2026-01-26 13:45:08.06	283.47	19.72	-37.0	-38.7	16.2	0.00e+00	0	62	0	1890582528	44	4655
2026-01-26 13:45:09.07	283.72	19.70	-36.9	-38.4	16.4	0.00e+00	0	62	0	1896873984	44	4541
2026-01-26 13:45:10.09	283.97	19.67	-36.9	-38.4	16.4	0.00e+00	0	62	0	1902116864	44	4538
2026-01-26 13:45:11.10	284.21	19.65	-36.8	-38.4	16.5	0.00e+00	0	62	0	1908408320	44	4521
2026-01-26 13:45:12.11	284.46	19.62	-36.9	-38.4	16.5	0.00e+00	0	62	0	1913651200	44	4528
2026-01-26 13:45:13.12	284.70	19.59	-36.9	-38.4	16.4	0.00e+00	0	62	0	1918894080	44	4543
2026-01-26 13:45:14.13	284.95	19.56	-36.8	-38.3	16.6	0.00e+00	0	62	0	1925185536	44	4478
2026-01-26 13:45:15.14	285.19	19.54	-36.8	-38.4	16.5	0.00e+00	0	62	0	1930428416	44	4507
2026-01-26 13:45:16.15	285.43	19.51	-36.9	-38.4	16.4	0.00e+00	0	62	0	1936719872	44	4536
2026-01-26 13:45:17.16	285.67	19.48	-36.9	-38.5	16.3	0.00e+00	0	62	0	1941962752	44	4591
2026-01-26 13:45:18.17	285.92	19.45	-36.9	-38.5	16.4	0.00e+00	0	62	0	1947205632	44	4557
2026-01-26 13:45:19.18	286.16	19.42	-36.8	-38.4	16.5	0.00e+00	0	62	0	1953497088	44	4530
2026-01-26 13:45:20.19	286.40	19.39	-36.8	-38.3	16.5	0.00e+00	0	62	0	1958739968	44	4489
2026-01-26 13:45:21.20	286.64	19.36	-36.7	-38.3	16.6	0.00e+00	0	62	0	1965031424	44	4449
2026-01-26 13:45:22.21	286.88	19.33	-36.7	-38.3	16.6	0.00e+00	0	62	0	1970274304	44	4468
2026-01-26 13:45:23.22	287.12	19.30	-36.8	-38.4	16.5	0.00e+00	0	62	0	1976565760	44	4499
2026-01-26 13:45:24.23	287.36	19.26	-36.8	-38.4	16.5	0.00e+00	0	62	0	1981808640	44	4511
2026-01-26 13:45:25.24	287.60	19.23	-36.8	-38.3	16.6	0.00e+00	0	62	0	1988100096	44	4472
2026-01-26 13:45:26.25	287.84	19.20	-36.8	-38.3	16.5	0.00e+00	0	62	0	1993342976	44	4483
2026-01-26 13:45:27.26	288.07	19.16	-36.8	-38.3	16.5	0.00e+00	0	62	0	1998585856	44	4487
2026-01-26 13:45:28.27	288.31	19.13	-36.8	-38.3	16.6	0.00e+00	0	62	0	2004877312	44	4464
2026-01-26 13:45:29.28	288.55	19.10	-36.8	-38.3	16.5	0.00e+00	0	62	0	2010120192	44	4484
2026-01-26 13:45:30.29	288.78	19.06	-36.7	-38.3	16.6	0.00e+00	0	62	0	2016411648	44	4448
2026-01-26 13:45:31.30	289.02	19.03	-36.7	-38.2	16.7	0.00e+00	0	62	0	2021654528	44	4404
2026-01-26 13:45:32.31	289.26	18.99	-36.7	-38.3	16.6	0.00e+00	0	62	0	2026897408	44	4446
2026-01-26 13:45:33.32	289.49	18.96	-36.8	-38.3	16.6	0.00e+00	0	62	0	2033188864	44	4464
2026-01-26 13:45:34.33	289.72	18.92	-36.9	-38.5	16.4	0.00e+00	0	62	0	2038431744	44	4560
2026-01-26 13:45:35.34	289.96	18.88	-36.8	-38.4	16.4	0.00e+00	0	62	0	2044723200	44	4534
2026-01-26 13:45:36.35	290.19	18.84	-37.0	-38.6	16.3	0.00e+00	0	62	0	2049966080	44	4602
2026-01-26 13:45:37.36	290.42	18.81	-36.9	-38.5	16.4	0.00e+00	0	62	0	2055208960	44	4569
2026-01-26 13:45:38.37	290.65	18.77	-36.9	-38.5	16.3	0.00e+00	0	62	0	2061500416	44	4583
2026-01-26 13:45:39.38	290.89	18.73	-37.0	-38.6	16.3	0.00e+00	0	62	0	2066743296	44	4600
2026-01-26 13:45:40.39	291.12	18.69	-37.0	-38.6	16.3	0.00e+00	0	62	0	2073034752	44	4609
2026-01-26 13:45:41.40	291.35	18.65	-37.0	-38.6	16.2	0.00e+00	0	62	0	2078277632	44	4650
2026-01-26 13:45:42.41	291.58	18.61	-37.1	-38.7	16.1	0.00e+00	0	62	0	2084569088	44	4678
2026-01-26 13:45:43.42	291.80	18.57	-37.0	-38.6	16.3	0.00e+00	0	62	0	2089811968	44	4613
2026-01-26 13:45:44.43	292.03	18.53	-37.0	-38.6	16.2	1.10e-06	0	62	0	2096103424	44	4637
2026-01-26 13:45:45.44	292.26	18.49	-37.0	-38.6	16.2	0.00e+00	0	62	0	2101346304	44	4639
2026-01-26 13:45:46.45	292.49	18.45	-37.0	-38.6	16.2	0.00e+00	0	62	0	2106589184	44	4633
2026-01-26 13:45:47.46	292.71	18.41	-37.0	-38.6	16.2	0.00e+00	0	62	0	2112880640	44	4620
2026-01-26 13:45:48.47	292.94	18.37	-37.1	-38.7	16.1	0.00e+00	0	62	0	2118123520	44	4689
2026-01-26 13:45:49.48	293.16	18.33	-37.1	-38.8	16.0	0.00e+00	0	62	0	2124414976	44	4739
2026-01-26 13:45:50.49	293.39	18.28	-37.2	-38.9	16.0	0.00e+00	0	62	0	2129657856	44	4771
2026-01-26 13:45:51.50	293.61	18.24	-37.1	-38.8	16.0	0.00e+00	0	62	0	2134900736	44	4729
2026-01-26 13:45:52.51	293.84	18.20	-37.1	-38.8	16.0	0.00e+00	0	62	0	2141192192	44	4722
2026-01-26 13:45:53.52	294.06	18.15	-37.1	-38.8	16.0	0.00e+00	0	62	0	2146435072	44	4727
2026-01-26 13:45:54.53	294.28	18.11	-37.1	-38.8	16.0	0.00e+00	0	62	0	2152726528	44	4727
2026-01-26 13:45:55.54	294.50	18.07	-37.2	-38.8	16.0	0.00e+00	0	62	0	2157969408	44	4758
2026-01-26 13:45:56.55	294.72	18.02	-37.2	-38.9	15.9	0.00e+00	0	62	0	2163212288	44	4771
2026-01-26 13:45:57.56	294.94	17.98	-37.3	-39.0	15.8	0.00e+00	0	62	0	2169503744	45	4554
2026-01-26 13:45:58.57	295.16	17.93	-37.4	-39.1	15.7	0.00e+00	0	62	0	2174746624	45	4612
2026-01-26 13:45:59.58	295.38	17.89	-37.3	-38.9	15.9	0.00e+00	0	62	0	2181038080	45	4530
2026-01-26 13:46:00.59	295.60	17.84	-37.4	-39.1	15.7	0.00e+00	0	62	0	2186280960	45	4614
2026-01-26 13:46:01.60	295.82	17.79	-37.3	-39.0	15.8	0.00e+00	0	62	0	2192572416	45	4549
2026-01-26 13:46:02.62	296.04	17.75	-37.2	-38.9	15.9	0.00e+00	0	62	0	2197815296	45	4526
2026-01-26 13:46:03.62	296.25	17.70	-37.3	-38.9	15.9	0.00e+00	0	62	0	2204106752	45	4523
2026-01-26 13:46:04.63	296.47	17.65	-37.2	-38.9	15.9	0.00e+00	0	62	0	2209349632	45	4521
2026-01-26 13:46:05.65	296.68	17.61	-37.3	-38.9	15.9	0.00e+00	0	62	0	2214592512	45	4536
2026-01-26 13:46:06.66	296.90	17.56	-37.3	-39.0	15.8	0.00e+00	0	62	0	2220883968	45	4549
2026-01-26 13:46:07.67	297.11	17.51	-37.3	-39.0	15.8	0.00e+00	0	63	0	2226126848	45	4586
2026-01-26 13:46:08.68	297.33	17.46	-37.3	-39.1	15.8	0.00e+00	0	62	0	2232418304	45	4600
2026-01-26 13:46:09.69	297.54	17.41	-37.3	-39.0	15.8	0.00e+00	0	62	0	2237661184	45	4578
2026-01-26 13:46:10.70	297.75	17.36	-37.2	-38.9	15.9	0.00e+00	0	62	0	2242904064	45	4528
2026-01-26 13:46:11.71	297.96	17.31	-37.2	-38.8	15.9	0.00e+00	0	62	0	2249195520	45	4477
2026-01-26 13:46:12.72	298.17	17.27	-37.3	-39.0	15.8	0.00e+00	0	62	0	2254438400	45	4557
2026-01-26 13:46:13.73	298.38	17.22	-37.3	-38.9	15.8	0.00e+00	0	62	0	2260729856	45	4543
2026-01-26 13:46:14.74	298.59	17.17	-37.3	-38.9	15.8	0.00e+00	0	62	0	2265972736	45	4539
2026-01-26 13:46:15.75	298.80	17.12	-37.3	-38.9	15.8	0.00e+00	0	62	0	2271215616	45	4531
2026-01-26 13:46:16.76	299.00	17.07	-37.3	-39.0	15.8	0.00e+00	0	62	0	2277507072	45	4562
2026-01-26 13:46:17.77	299.21	17.02	-37.4	-39.1	15.7	0.00e+00	0	62	0	2282749952	45	4622
2026-01-26 13:46:18.78	299.42	16.96	-37.4	-39.1	15.7	0.00e+00	0	62	0	2289041408	45	4604
2026-01-26 13:46:19.79	299.62	16.91	-37.4	-39.1	15.7	1.10e-06	0	62	0	2294284288	45	4633
2026-01-26 13:46:20.80	299.83	16.86	-37.3	-39.0	15.7	0.00e+00	0	62	0	2300575744	45	4586
2026-01-26 13:46:21.81	300.03	16.81	-37.3	-39.0	15.8	0.00e+00	0	62	0	2305818624	45	4579
2026-01-26 13:46:22.82	300.24	16.76	-37.4	-39.1	15.7	0.00e+00	0	62	0	2311061504	45	4613
2026-01-26 13:46:23.83	300.44	16.71	-37.4	-39.1	15.7	0.00e+00	0	62	0	2317352960	45	4616
2026-01-26 13:46:24.84	300.64	16.65	-37.4	-39.1	15.6	0.00e+00	0	62	0	2322595840	45	4637
2026-01-26 13:46:25.85	300.84	16.60	-37.3	-39.0	15.7	0.00e+00	0	62	0	2328887296	45	4594
2026-01-26 13:46:26.86	301.04	16.55	-37.2	-38.9	15.9	0.00e+00	0	62	0	2334130176	45	4512
2026-01-26 13:46:27.87	301.24	16.50	-37.3	-39.0	15.8	0.00e+00	0	62	0	2339373056	45	4554
2026-01-26 13:46:28.88	301.44	16.44	-37.3	-38.9	15.8	0.00e+00	0	62	0	2345664512	45	4543
2026-01-26 13:46:29.89	301.64	16.39	-37.4	-39.1	15.7	0.00e+00	0	62	0	2350907392	45	4631
2026-01-26 13:46:30.90	301.84	16.34	-37.5	-39.2	15.5	0.00e+00	0	62	0	2357198848	45	4702
2026-01-26 13:46:31.91	302.04	16.28	-37.5	-39.3	15.5	0.00e+00	0	62	0	2362441728	45	4716
2026-01-26 13:46:32.92	302.23	16.23	-37.7	-39.4	15.3	0.00e+00	0	62	0	2368733184	45	4810
2026-01-26 13:46:33.93	302.43	16.17	-37.7	-39.4	15.3	0.00e+00	0	62	0	2373976064	45	4805
2026-01-26 13:46:34.94	302.62	16.12	-37.8	-39.6	15.1	0.00e+00	0	62	0	2379218944	46	4648
2026-01-26 13:46:35.96	302.82	16.06	-37.8	-39.6	15.2	0.00e+00	0	62	0	2385510400	46	4616
2026-01-26 13:46:36.97	303.01	16.01	-37.7	-39.5	15.2	0.00e+00	0	62	0	2390753280	46	4592
2026-01-26 13:46:37.98	303.21	15.96	-37.8	-39.6	15.2	0.00e+00	0	62	0	2397044736	46	4600
2026-01-26 13:46:38.99	303.40	15.90	-37.7	-39.5	15.3	0.00e+00	0	62	0	2402287616	46	4575
2026-01-26 13:46:40.00	303.59	15.85	-37.8	-39.5	15.2	0.00e+00	0	62	0	2408579072	46	4597
2026-01-26 13:46:41.01	303.78	15.79	-37.7	-39.5	15.2	0.00e+00	0	63	0	2413821952	46	4586
2026-01-26 13:46:42.02	303.97	15.73	-37.7	-39.5	15.3	0.00e+00	0	63	0	2420113408	46	4566
2026-01-26 13:46:43.03	304.16	15.68	-37.8	-39.6	15.2	0.00e+00	0	62	0	2425356288	46	4612
2026-01-26 13:46:44.04	304.35	15.62	-37.7	-39.4	15.3	0.00e+00	0	62	0	2430599168	46	4541
2026-01-26 13:46:45.05	304.54	15.57	-37.7	-39.4	15.3	0.00e+00	0	62	0	2436890624	46	4529
2026-01-26 13:46:46.06	304.73	15.51	-37.7	-39.5	15.3	0.00e+00	0	62	0	2442133504	46	4549
2026-01-26 13:46:47.08	304.91	15.45	-37.6	-39.4	15.4	0.00e+00	0	62	0	2448424960	46	4515
2026-01-26 13:46:48.09	305.10	15.40	-37.6	-39.4	15.3	0.00e+00	0	62	0	2453667840	46	4522
2026-01-26 13:46:49.09	305.28	15.34	-37.6	-39.4	15.3	0.00e+00	0	62	0	2458910720	46	4516
2026-01-26 13:46:50.10	305.47	15.28	-37.7	-39.4	15.3	0.00e+00	0	62	0	2465202176	46	4545
2026-01-26 13:46:51.12	305.65	15.23	-37.7	-39.5	15.2	0.00e+00	0	62	0	2470445056	46	4596
2026-01-26 13:46:52.12	305.84	15.17	-37.8	-39.6	15.1	0.00e+00	0	63	0	2476736512	46	4613
2026-01-26 13:46:53.14	306.02	15.11	-37.8	-39.6	15.2	0.00e+00	0	62	0	2481979392	46	4622
2026-01-26 13:46:54.15	306.20	15.05	-38.0	-39.8	14.9	0.00e+00	0	62	0	2487222272	46	4745
2026-01-26 13:46:55.16	306.38	15.00	-37.9	-39.8	14.9	0.00e+00	0	62	0	2493513728	46	4720
2026-01-26 13:46:56.17	306.56	14.94	-38.0	-39.9	14.8	0.00e+00	0	62	0	2498756608	46	4786
2026-01-26 13:46:57.18	306.74	14.88	-38.1	-39.9	14.8	0.00e+00	0	63	0	2505048064	46	4810
2026-01-26 13:46:58.19	306.92	14.82	-38.1	-39.9	14.8	0.00e+00	0	62	0	2510290944	46	4804
2026-01-26 13:46:59.20	307.10	14.77	-38.1	-40.0	14.8	0.00e+00	0	62	0	2516582400	46	4815
2026-01-26 13:47:00.21	307.28	14.71	-38.1	-40.0	14.7	0.00e+00	0	62	0	2521825280	46	4831
2026-01-26 13:47:01.22	307.46	14.65	-38.1	-40.0	14.7	2.20e-06	0	62	0	2528116736	46	4840
2026-01-26 13:47:02.23	307.63	14.59	-38.1	-39.9	14.8	1.10e-06	0	62	0	2533359616	46	4802
2026-01-26 13:47:03.25	307.81	14.53	-38.2	-40.2	14.5	1.10e-06	0	62	0	2538602496	47	4682
2026-01-26 13:47:04.26	307.99	14.47	-38.3	-40.2	14.5	1.10e-06	0	62	0	2544893952	47	4693
2026-01-26 13:47:05.27	308.16	14.42	-38.3	-40.3	14.4	0.00e+00	0	63	0	2550136832	47	4726
2026-01-26 13:47:06.28	308.34	14.36	-38.3	-40.3	14.4	1.10e-06	0	62	0	2556428288	47	4715
2026-01-26 13:47:07.29	308.51	14.30	-38.3	-40.2	14.5	0.00e+00	0	62	0	2561671168	47	4682
2026-01-26 13:47:08.30	308.68	14.24	-38.1	-40.0	14.7	1.10e-06	0	62	0	2566914048	47	4590
2026-01-26 13:47:09.31	308.85	14.18	-38.1	-40.0	14.7	1.10e-06	0	62	0	2573205504	47	4561
2026-01-26 13:47:10.32	309.02	14.12	-38.0	-39.9	14.8	1.10e-06	0	62	0	2578448384	47	4536
2026-01-26 13:47:11.33	309.20	14.06	-38.1	-39.9	14.7	2.20e-06	0	63	0	2584739840	47	4541
2026-01-26 13:47:12.34	309.36	14.00	-37.9	-39.8	14.9	0.00e+00	0	63	0	2589982720	47	4465
2026-01-26 13:47:13.35	309.53	13.94	-37.9	-39.8	14.9	0.00e+00	0	63	0	2595225600	47	4459
2026-01-26 13:47:14.36	309.70	13.88	-38.0	-39.9	14.8	0.00e+00	0	62	0	2601517056	47	4500
2026-01-26 13:47:15.37	309.87	13.82	-38.0	-39.9	14.8	0.00e+00	0	62	0	2606759936	47	4498
2026-01-26 13:47:16.38	310.04	13.76	-37.9	-39.8	14.9	0.00e+00	0	63	0	2613051392	47	4451
2026-01-26 13:47:17.39	310.20	13.70	-37.9	-39.8	14.9	1.10e-06	0	63	0	2618294272	47	4468
2026-01-26 13:47:18.41	310.37	13.64	-38.0	-39.9	14.8	0.00e+00	0	62	0	2624585728	47	4509
2026-01-26 13:47:19.42	310.54	13.58	-38.0	-39.9	14.7	1.10e-06	0	63	0	2629828608	47	4543
2026-01-26 13:47:20.43	310.70	13.52	-38.0	-39.9	14.7	0.00e+00	0	63	0	2636120064	47	4529
2026-01-26 13:47:21.43	310.86	13.47	-38.1	-40.0	14.7	0.00e+00	0	62	0	2641362944	47	4550
2026-01-26 13:47:22.44	311.03	13.41	-37.9	-39.8	14.8	0.00e+00	0	63	0	2646605824	47	4488
2026-01-26 13:47:23.45	311.19	13.35	-38.0	-39.9	14.7	1.10e-06	0	63	0	2652897280	47	4531
2026-01-26 13:47:24.47	311.35	13.28	-37.9	-39.8	14.9	0.00e+00	0	62	0	2658140160	47	4462
2026-01-26 13:47:25.47	311.51	13.22	-38.0	-39.9	14.8	1.10e-06	0	62	0	2664431616	47	4503
2026-01-26 13:47:26.48	311.67	13.16	-38.0	-39.9	14.7	0.00e+00	0	62	0	2669674496	47	4524
2026-01-26 13:47:27.49	311.83	13.10	-38.1	-39.9	14.7	0.00e+00	0	62	0	2674917376	47	4545
2026-01-26 13:47:28.50	311.99	13.04	-38.1	-40.0	14.6	0.00e+00	0	62	0	2681208832	47	4579
2026-01-26 13:47:29.51	312.15	12.98	-38.2	-40.1	14.6	0.00e+00	0	63	0	2686451712	47	4600
2026-01-26 13:47:30.52	312.31	12.92	-38.2	-40.2	14.4	1.10e-06	0	62	0	2691694592	47	4678
2026-01-26 13:47:31.53	312.47	12.86	-38.3	-40.3	14.3	2.20e-06	0	62	0	2697986048	47	4730
2026-01-26 13:47:32.54	312.63	12.80	-38.4	-40.4	14.2	3.40e-06	0	62	0	2703228928	47	4793
2026-01-26 13:47:33.55	312.78	12.74	-38.3	-40.3	14.3	2.20e-06	0	63	0	2709520384	47	4743
2026-01-26 13:47:34.56	312.94	12.68	-38.4	-40.5	14.2	3.40e-06	0	63	0	2714763264	47	4824
2026-01-26 13:47:35.57	313.09	12.62	-38.4	-40.5	14.1	2.20e-06	0	62	0	2721054720	47	4845
2026-01-26 13:47:36.58	313.25	12.56	-38.3	-40.3	14.3	3.40e-06	0	63	0	2726297600	47	4748
2026-01-26 13:47:37.59	313.40	12.50	-38.4	-40.5	14.1	2.20e-06	0	62	0	2732589056	47	4831
2026-01-26 13:47:38.60	313.55	12.44	-38.4	-40.5	14.1	3.40e-06	0	62	0	2737831936	47	4815
2026-01-26 13:47:39.61	313.71	12.38	-38.6	-40.6	14.0	4.50e-06	0	62	0	2743074816	47	4910
2026-01-26 13:47:40.62	313.86	12.32	-38.5	-40.6	14.0	5.70e-06	0	62	0	2749366272	47	4892
2026-01-26 13:47:41.63	314.01	12.26	-38.6	-40.7	13.9	9.10e-06	0	63	0	2754609152	47	4930
2026-01-26 13:47:42.64	314.16	12.20	-38.6	-40.7	13.9	2.20e-06	0	62	0	2760900608	47	4938
2026-01-26 13:47:43.66	314.31	12.13	-38.6	-40.7	13.8	1.02e-05	0	62	0	2766143488	47	4981
2026-01-26 13:47:44.67	314.46	12.07	-38.6	-40.7	13.8	9.10e-06	0	62	0	2771386368	47	4970
2026-01-26 13:47:45.68	314.61	12.01	-38.6	-40.6	13.9	5.70e-06	0	62	0	2777677824	47	4925
2026-01-26 13:47:46.69	314.76	11.95	-38.6	-40.7	13.8	2.20e-06	0	63	0	2782920704	47	4978
2026-01-26 13:47:47.70	314.91	11.89	-38.5	-40.6	14.0	1.02e-05	0	62	0	2789212160	47	4871
2026-01-26 13:47:48.71	315.06	11.83	-38.6	-40.6	13.9	8.00e-06	0	62	0	2794455040	47	4917
2026-01-26 13:47:49.72	315.20	11.77	-38.5	-40.5	14.0	4.50e-06	0	62	0	2799697920	47	4860
2026-01-26 13:47:50.73	315.35	11.71	-38.6	-40.7	13.9	4.50e-06	0	63	0	2805989376	47	4942
2026-01-26 13:47:51.74	315.49	11.65	-38.6	-40.7	13.9	4.50e-06	0	63	0	2811232256	47	4953
2026-01-26 13:47:52.75	315.64	11.59	-38.5	-40.6	13.9	9.10e-06	0	62	0	2817523712	47	4887
2026-01-26 13:47:53.76	315.78	11.52	-38.4	-40.5	14.0	8.00e-06	0	63	0	2822766592	47	4829
2026-01-26 13:47:54.77	315.93	11.46	-38.3	-40.4	14.2	1.10e-06	0	62	0	2829058048	47	4769
2026-01-26 13:47:55.78	316.07	11.40	-38.4	-40.5	14.0	5.70e-06	0	62	0	2834300928	47	4830
2026-01-26 13:47:56.79	316.21	11.34	-38.4	-40.4	14.1	6.80e-06	0	62	0	2840592384	47	4789
2026-01-26 13:47:57.80	316.35	11.28	-38.4	-40.4	14.1	2.20e-06	0	62	0	2845835264	47	4789
2026-01-26 13:47:58.81	316.50	11.22	-38.3	-40.3	14.2	2.20e-06	0	62	0	2851078144	47	4757
2026-01-26 13:47:59.82	316.64	11.16	-38.4	-40.4	14.1	5.70e-06	0	63	0	2857369600	47	4767
2026-01-26 13:48:00.83	316.78	11.10	-38.4	-40.4	14.1	3.40e-06	0	63	0	2862612480	47	4794
2026-01-26 13:48:01.84	316.92	11.04	-38.5	-40.6	13.9	5.70e-06	0	62	0	2868903936	47	4919
2026-01-26 13:48:02.85	317.05	10.98	-38.5	-40.6	13.9	8.00e-06	0	63	0	2874146816	47	4916
2026-01-26 13:48:03.86	317.19	10.91	-38.6	-40.7	13.8	1.14e-05	0	63	0	2879389696	47	4957
2026-01-26 13:48:04.87	317.33	10.85	-38.5	-40.6	13.9	5.70e-06	0	62	0	2885681152	47	4881
2026-01-26 13:48:05.88	317.47	10.79	-38.5	-40.6	13.8	9.10e-06	0	62	0	2890924032	47	4922
2026-01-26 13:48:06.89	317.61	10.73	-38.6	-40.7	13.7	1.37e-05	0	63	0	2897215488	47	4980
2026-01-26 13:48:07.90	317.74	10.67	-38.7	-40.8	13.7	1.37e-05	0	62	0	2902458368	48	4751
2026-01-26 13:48:08.91	317.88	10.61	-38.9	-41.0	13.5	2.17e-05	0	63	0	2907701248	48	4849
2026-01-26 13:48:09.92	318.01	10.55	-38.8	-41.0	13.6	2.40e-05	0	63	0	2913992704	48	4825
2026-01-26 13:48:10.93	318.15	10.49	-38.8	-40.9	13.7	1.48e-05	0	63	0	2919235584	48	4780
2026-01-26 13:48:11.94	318.28	10.43	-39.1	-41.3	13.3	2.63e-05	0	62	0	2925527040	48	5016
2026-01-26 13:48:12.95	318.42	10.37	-38.9	-41.1	13.4	2.40e-05	0	63	0	2930769920	48	4914
2026-01-26 13:48:13.96	318.55	10.31	-39.0	-41.3	13.3	2.28e-05	0	62	0	2937061376	48	4986
2026-01-26 13:48:14.98	318.68	10.24	-39.0	-41.2	13.3	2.74e-05	0	62	0	2942304256	48	4979
2026-01-26 13:48:15.99	318.81	10.18	-39.1	-41.3	13.2	3.08e-05	0	63	0	2948595712	48	5034
2026-01-26 13:48:17.00	318.95	10.12	-39.2	-41.5	13.0	3.31e-05	0	63	0	2953838592	48	5134
2026-01-26 13:48:18.01	319.08	10.06	-39.3	-41.7	12.8	8.92e-05	0	63	0	2959081472	49	4967
2026-01-26 13:48:19.02	319.21	10.00	-39.3	-41.7	12.8	1.13e-04	0	63	0	2965372928	49	4964
2026-01-26 13:48:20.03	319.34	9.94	-39.3	-41.7	12.8	1.09e-04	0	63	0	2970615808	49	4937
2026-01-26 13:48:21.04	319.47	9.88	-39.3	-41.7	12.8	7.55e-05	0	63	0	2976907264	49	4941
2026-01-26 13:48:22.05	319.60	9.82	-39.1	-41.4	13.1	4.57e-05	0	63	0	2982150144	49	4761
2026-01-26 13:48:23.06	319.72	9.76	-39.3	-41.7	12.8	7.55e-05	0	62	0	2987393024	49	4937
2026-01-26 13:48:24.07	319.85	9.70	-39.3	-41.7	12.8	1.05e-04	0	63	0	2993684480	49	4937
2026-01-26 13:48:25.08	319.98	9.64	-39.3	-41.7	12.8	1.40e-04	0	62	0	2998927360	49	4937
2026-01-26 13:48:26.09	320.11	9.58	-39.3	-41.7	12.7	1.14e-04	0	63	0	3005218816	49	4969
2026-01-26 13:48:27.10	320.23	9.52	-39.2	-41.5	13.0	5.49e-05	0	62	0	3010461696	49	4818
2026-01-26 13:48:28.12	320.36	9.45	-39.0	-41.3	13.2	6.29e-05	0	62	0	3015704576	49	4735
2026-01-26 13:48:29.13	320.49	9.39	-39.2	-41.5	12.9	6.98e-05	0	62	0	3021996032	49	4859
2026-01-26 13:48:30.14	320.61	9.33	-39.1	-41.4	13.0	6.40e-05	0	62	0	3027238912	49	4810
2026-01-26 13:48:31.15	320.73	9.27	-39.3	-41.7	12.7	1.38e-04	0	62	0	3033530368	49	4951
2026-01-26 13:48:32.16	320.86	9.21	-39.2	-41.5	13.0	7.43e-05	0	62	0	3038773248	49	4831
2026-01-26 13:48:33.17	320.98	9.15	-39.2	-41.5	12.9	6.86e-05	0	62	0	3045064704	49	4857
2026-01-26 13:48:34.18	321.10	9.09	-39.5	-42.0	12.4	1.30e-04	0	62	0	3050307584	49	5113
2026-01-26 13:48:35.19	321.23	9.03	-39.1	-41.4	13.1	6.06e-05	0	62	0	3056599040	49	4768
2026-01-26 13:48:36.19	321.35	8.97	-39.6	-42.2	12.2	2.62e-04	0	62	0	3061841920	49	5242
2026-01-26 13:48:37.20	321.47	8.91	-39.3	-41.8	12.6	1.67e-04	0	62	0	3067084800	49	4987
2026-01-26 13:48:38.21	321.59	8.85	-39.4	-41.8	12.6	9.04e-05	0	62	0	3073376256	49	5024
2026-01-26 13:48:39.23	321.71	8.79	-39.4	-41.8	12.6	1.72e-04	0	62	0	3078619136	49	5025
2026-01-26 13:48:40.24	321.83	8.73	-39.2	-41.6	12.8	8.23e-05	0	62	0	3084910592	49	4892
2026-01-26 13:48:41.25	321.95	8.67	-39.3	-41.8	12.6	1.34e-04	0	63	0	3090153472	49	4996
2026-01-26 13:48:42.26	322.07	8.61	-39.2	-41.7	12.7	1.37e-04	0	63	0	3095396352	49	4928
2026-01-26 13:48:43.26	322.19	8.55	-39.4	-41.9	12.5	1.54e-04	0	62	0	3101687808	49	5067
2026-01-26 13:48:44.27	322.31	8.49	-39.2	-41.6	12.8	1.81e-04	0	62	0	3106930688	49	4876
2026-01-26 13:48:45.29	322.42	8.43	-39.2	-41.5	12.8	1.11e-04	0	62	0	3113222144	49	4868
2026-01-26 13:48:46.30	322.54	8.37	-39.3	-41.8	12.6	1.51e-04	0	63	0	3118465024	49	5005
2026-01-26 13:48:47.31	322.66	8.31	-39.3	-41.8	12.6	1.97e-04	0	62	0	3123707904	49	5003
2026-01-26 13:48:48.31	322.77	8.25	-39.2	-41.6	12.7	1.28e-04	0	62	0	3129999360	49	4911
2026-01-26 13:48:49.32	322.89	8.19	-39.4	-41.9	12.5	1.50e-04	0	63	0	3135242240	49	5050
2026-01-26 13:48:50.33	323.00	8.13	-39.4	-41.9	12.4	2.43e-04	0	63	0	3141533696	49	5064
2026-01-26 13:48:51.34	323.12	8.07	-39.3	-41.7	12.6	1.09e-04	0	62	0	3146776576	49	4966
2026-01-26 13:48:52.35	323.23	8.01	-39.6	-42.1	12.2	1.98e-04	0	63	0	3153068032	49	5206
2026-01-26 13:48:53.36	323.35	7.95	-44.2	-54.7	3.8	8.44e-01	0	62	104	3154116608	59	12469
2026-01-26 13:48:54.37	323.46	7.89	-44.6	-56.1	3.8	8.46e-01	0	62	104	3154116608	59	14578
2026-01-26 13:48:55.38	323.57	7.83	-44.7	-56.4	3.8	8.46e-01	0	62	104	3154116608	60	14327
2026-01-26 13:48:56.39	323.69	7.78	-44.8	-56.6	3.8	8.45e-01	0	63	104	3154116608	60	14575
2026-01-26 13:48:57.40	323.80	7.72	-44.9	-56.7	3.8	8.46e-01	0	63	104	3154116608	60	14759
2026-01-26 13:48:58.42	323.91	7.66	-45.0	-56.7	3.8	8.46e-01	0	62	104	3154116608	60	14847
2026-01-26 13:48:59.43	324.02	7.60	-45.0	-56.8	3.8	8.46e-01	0	63	104	3154116608	60	14966
2026-01-26 13:49:00.44	324.13	7.54	-45.0	-56.8	3.8	8.46e-01	0	62	104	3154116608	60	14963
2026-01-26 13:49:01.45	324.24	7.48	-45.0	-56.8	3.8	8.46e-01	0	63	104	3154116608	60	14963
2026-01-26 13:49:02.46	324.35	7.42	-45.0	-56.8	3.8	8.46e-01	0	63	104	3154116608	60	14888
2026-01-26 13:49:03.47	324.46	7.36	-44.9	-56.7	3.8	8.46e-01	0	62	104	3154116608	60	14792
2026-01-26 13:49:04.48	324.57	7.30	-44.9	-56.7	3.8	8.46e-01	0	62	104	3154116608	60	14725
2026-01-26 13:49:05.49	324.68	7.24	-44.8	-56.6	3.8	8.47e-01	0	62	104	3154116608	60	14606
2026-01-26 13:49:06.50	324.79	7.18	-44.9	-56.6	3.8	8.46e-01	0	63	104	3154116608	60	14701
2026-01-26 13:49:07.50	324.90	7.13	-44.6	-56.6	3.8	8.46e-01	0	62	104	3154116608	60	14604
2026-01-26 13:49:08.51	325.00	7.07	-44.9	-56.6	3.8	8.46e-01	0	62	104	3154116608	60	14691
2026-01-26 13:49:09.52	325.11	7.01	-44.9	-56.5	3.8	8.47e-01	0	63	104	3154116608	59	15257
2026-01-26 13:49:10.53	325.22	6.95	-44.9	-56.6	3.8	8.46e-01	0	63	104	3154116608	60	14639
2026-01-26 13:49:11.54	325.32	6.89	-44.8	-56.6	3.8	8.45e-01	0	62	104	3154116608	60	14662
2026-01-26 13:49:12.55	325.43	6.83	-44.8	-56.6	3.8	8.47e-01	0	63	104	3154116608	60	14620
2026-01-26 13:49:13.56	325.54	6.77	-44.4	-56.4	3.8	8.46e-01	0	62	104	3154116608	59	15126
2026-01-26 13:49:14.57	325.64	6.72	-44.8	-56.6	3.8	8.46e-01	0	63	104	3154116608	60	14633
2026-01-26 13:49:15.58	325.75	6.66	-44.8	-56.6	3.8	8.46e-01	0	63	104	3154116608	60	14635
2026-01-26 13:49:16.59	325.85	6.60	-44.8	-56.6	3.8	8.45e-01	0	63	104	3154116608	60	14640
2026-01-26 13:49:17.60	325.95	6.54	-44.7	-56.6	3.8	8.47e-01	0	63	104	3154116608	60	14636
2026-01-26 13:49:18.62	326.06	6.48	-44.8	-56.6	3.8	8.47e-01	0	63	104	3154116608	60	14572
2026-01-26 13:49:19.63	326.16	6.42	-44.8	-56.6	3.8	8.47e-01	0	62	104	3154116608	60	14624
2026-01-26 13:49:20.64	326.26	6.36	-44.8	-56.6	3.8	8.47e-01	0	63	104	3154116608	60	14649
2026-01-26 13:49:21.65	326.37	6.31	-44.4	-56.6	3.8	8.47e-01	0	62	104	3154116608	60	14608
2026-01-26 13:49:22.66	326.47	6.25	-44.8	-56.6	3.8	8.46e-01	0	63	104	3154116608	60	14610
2026-01-26 13:49:23.67	326.57	6.19	-44.8	-56.6	3.8	8.46e-01	0	63	104	3154116608	60	14608
2026-01-26 13:49:24.68	326.67	6.13	-44.8	-56.6	3.8	8.46e-01	0	63	104	3154116608	60	14632
2026-01-26 13:49:25.69	326.77	6.08	-44.8	-56.6	3.8	8.46e-01	0	63	104	3154116608	60	14631
2026-01-26 13:49:26.70	326.87	6.02	-44.8	-56.5	3.8	8.45e-01	0	63	104	3154116608	60	14538
2026-01-26 13:49:27.71	326.97	5.96	-44.9	-56.6	3.8	8.46e-01	0	63	104	3154116608	60	14702
2026-01-26 13:49:28.73	327.07	5.90	-44.8	-56.6	3.8	8.47e-01	0	63	104	3154116608	60	14610
2026-01-26 13:49:29.73	327.17	5.84	-44.8	-56.6	3.8	8.46e-01	0	63	104	3154116608	60	14624
2026-01-26 13:49:30.75	327.27	5.79	-44.6	-56.4	3.8	8.47e-01	0	63	104	3154116608	59	15141
2026-01-26 13:49:31.76	327.37	5.73	-44.8	-56.6	3.8	8.45e-01	0	63	104	3154116608	60	14625
2026-01-26 13:49:32.77	327.47	5.67	-44.8	-56.6	3.8	8.46e-01	0	63	104	3154116608	60	14649
2026-01-26 13:49:33.78	327.56	5.61	-44.8	-56.6	3.8	8.46e-01	0	63	104	3154116608	60	14562
2026-01-26 13:49:34.79	327.66	5.56	-44.8	-56.6	3.8	8.46e-01	0	62	104	3154116608	60	14632
2026-01-26 13:49:35.80	327.76	5.50	-44.8	-56.6	3.8	8.46e-01	0	63	104	3154116608	60	14626
2026-01-26 13:49:36.81	327.86	5.44	-44.8	-56.6	3.8	8.48e-01	0	63	104	3154116608	60	14545
2026-01-26 13:49:37.82	327.95	5.39	-44.8	-56.6	3.8	8.46e-01	0	63	104	3154116608	60	14580
2026-01-26 13:49:38.83	328.05	5.33	-44.8	-56.6	3.8	8.47e-01	0	63	104	3154116608	60	14623
2026-01-26 13:49:39.84	328.14	5.27	-44.8	-56.6	3.8	8.46e-01	0	63	104	3154116608	60	14586
