passes_logs/2026/01/26/R2.0S_Moscow/R2.0S_Moscow__20260126_164540_FENGYUN_3G_rec.log

#Pass ID: 20260126_164540_FENGYUN 3G
#Satellite: FENGYUN 3G
#Configuration: FENGYUN 3G
#almurnet v.1.7.20251203
#Start time: 2026-01-26 16:45:42

#Version: 2.2.20231116
#Station: R2.0S_Moscow
#Location: 37.707566 lon 55.798166 lat
#TLE: 1 56232U 23055A   26025.91671677  .00046094  00000+0  69205-3 0  9999
#TLE: 2 56232  49.9949 359.5770 0004051  85.3034 274.8396 15.54373411157896

#Time	Az	El	Level	Level2	SNR	BER	BlckErr	Temp	State	Recorded	gain1	gain2
2026-01-26 16:45:42.54	217.24	2.11	-43.7	-61.8	3.8	8.47e-01	0	53	0	0	59	28082
2026-01-26 16:45:43.56	217.14	2.17	-43.7	-61.8	3.8	8.45e-01	0	53	104	0	59	28111
2026-01-26 16:45:44.57	217.04	2.23	-43.7	-61.7	3.8	8.46e-01	0	53	104	0	59	28019
2026-01-26 16:45:45.58	216.94	2.30	-43.7	-61.8	3.8	8.46e-01	0	53	104	0	59	28070
2026-01-26 16:45:46.59	216.84	2.36	-43.7	-61.8	3.8	8.46e-01	0	54	104	0	59	28049
2026-01-26 16:45:47.60	216.73	2.42	-43.7	-61.7	3.8	8.45e-01	0	53	104	0	59	27960
2026-01-26 16:45:48.61	216.63	2.48	-43.7	-61.8	3.8	8.46e-01	0	54	104	0	59	28051
2026-01-26 16:45:49.62	216.53	2.54	-43.7	-61.7	3.8	8.46e-01	0	54	104	0	59	28005
2026-01-26 16:45:50.63	216.42	2.60	-43.7	-61.7	3.8	8.46e-01	0	54	104	0	59	27945
2026-01-26 16:45:51.64	216.32	2.67	-43.7	-61.8	3.8	8.46e-01	0	54	104	0	59	28036
2026-01-26 16:45:52.65	216.21	2.73	-43.7	-61.7	3.8	8.46e-01	0	54	104	0	59	27939
2026-01-26 16:45:53.66	216.10	2.79	-43.7	-61.7	3.8	8.45e-01	0	54	104	0	59	28022
2026-01-26 16:45:54.67	216.00	2.85	-43.7	-61.7	3.8	8.46e-01	0	54	104	0	59	27994
2026-01-26 16:45:55.68	215.89	2.92	-43.7	-61.7	3.8	8.46e-01	0	54	104	0	59	27994
2026-01-26 16:45:56.69	215.78	2.98	-43.7	-61.7	3.8	8.47e-01	0	54	104	0	59	27943
2026-01-26 16:45:57.70	215.67	3.04	-43.7	-61.7	3.8	8.47e-01	0	54	104	0	59	27957
2026-01-26 16:45:58.71	215.56	3.11	-43.7	-61.7	3.8	8.46e-01	0	54	104	0	59	27982
2026-01-26 16:45:59.72	215.45	3.17	-43.7	-61.7	3.8	8.46e-01	0	55	104	0	59	27976
2026-01-26 16:46:00.73	215.34	3.23	-43.7	-61.7	3.8	8.46e-01	0	55	104	0	59	27963
2026-01-26 16:46:01.74	215.23	3.30	-43.7	-61.7	3.8	8.46e-01	0	55	104	0	59	27900
2026-01-26 16:46:02.75	215.11	3.36	-43.7	-61.7	3.8	8.46e-01	0	55	104	0	59	27922
2026-01-26 16:46:03.76	215.00	3.42	-43.7	-61.7	3.8	8.47e-01	0	55	104	0	59	27973
2026-01-26 16:46:04.77	214.88	3.49	-43.7	-61.7	3.8	8.45e-01	0	55	104	0	59	27968
2026-01-26 16:46:05.78	214.77	3.55	-43.7	-61.7	3.8	8.45e-01	0	55	104	0	59	27925
2026-01-26 16:46:06.79	214.65	3.62	-43.7	-61.7	3.8	8.46e-01	0	55	104	0	59	27912
2026-01-26 16:46:07.80	214.54	3.68	-43.7	-61.7	3.8	8.46e-01	0	55	104	0	59	27907
2026-01-26 16:46:08.81	214.42	3.75	-43.7	-61.7	3.8	8.47e-01	0	55	104	0	59	27913
2026-01-26 16:46:09.82	214.30	3.81	-43.7	-61.7	3.8	8.47e-01	0	55	104	0	59	27972
2026-01-26 16:46:10.84	214.18	3.88	-43.7	-61.7	3.8	8.44e-01	0	55	104	0	59	27897
2026-01-26 16:46:11.85	214.06	3.94	-43.7	-61.8	3.8	8.45e-01	0	55	104	0	59	28052
2026-01-26 16:46:12.86	213.94	4.01	-43.7	-61.7	3.8	8.45e-01	0	55	104	0	59	27967
2026-01-26 16:46:13.87	213.82	4.07	-43.7	-61.7	3.8	8.46e-01	0	55	104	0	59	27965
2026-01-26 16:46:14.88	213.70	4.14	-43.7	-61.7	3.8	8.46e-01	0	55	104	0	59	27999
2026-01-26 16:46:15.89	213.57	4.20	-43.7	-61.7	3.8	8.46e-01	0	55	104	0	59	27950
2026-01-26 16:46:16.90	213.45	4.27	-43.7	-61.7	3.8	8.46e-01	0	55	104	0	59	27919
2026-01-26 16:46:17.91	213.33	4.34	-43.7	-61.7	3.8	8.45e-01	0	56	104	0	59	27905
2026-01-26 16:46:18.92	213.20	4.40	-43.7	-61.7	3.8	8.45e-01	0	55	104	0	59	27977
2026-01-26 16:46:19.93	213.08	4.47	-43.7	-61.7	3.8	8.46e-01	0	55	104	0	59	27842
2026-01-26 16:46:20.94	212.95	4.54	-43.7	-61.7	3.8	8.47e-01	0	56	104	0	59	27851
2026-01-26 16:46:21.95	212.82	4.60	-43.7	-61.6	3.8	8.46e-01	0	56	104	0	59	27678
2026-01-26 16:46:22.96	212.69	4.67	-43.7	-61.6	3.8	8.46e-01	0	56	104	0	59	27581
2026-01-26 16:46:23.97	212.56	4.74	-43.7	-61.6	3.8	8.46e-01	0	56	104	0	59	27552
2026-01-26 16:46:24.98	212.43	4.80	-43.7	-61.7	3.8	8.46e-01	0	56	104	0	59	27728
2026-01-26 16:46:25.99	212.30	4.87	-43.7	-61.7	3.8	8.46e-01	0	56	104	0	59	27720
2026-01-26 16:46:27.00	212.17	4.94	-43.7	-61.6	3.8	8.46e-01	0	56	104	0	59	27652
2026-01-26 16:46:28.01	212.04	5.01	-43.7	-61.6	3.8	8.46e-01	0	56	104	0	59	27623
2026-01-26 16:46:29.02	211.90	5.07	-43.7	-61.7	3.8	8.46e-01	0	56	104	0	59	27816
2026-01-26 16:46:30.03	211.77	5.14	-43.6	-61.7	3.8	8.48e-01	0	56	104	0	59	27716
2026-01-26 16:46:31.04	211.63	5.21	-43.6	-61.6	3.8	8.47e-01	0	56	104	0	59	27587
2026-01-26 16:46:32.05	211.50	5.28	-43.6	-61.6	3.8	8.47e-01	0	56	104	0	59	27689
2026-01-26 16:46:33.07	211.36	5.35	-43.6	-61.7	3.8	8.47e-01	0	56	104	0	59	27784
2026-01-26 16:46:34.08	211.22	5.42	-43.6	-61.7	3.8	8.47e-01	0	56	104	0	59	27721
2026-01-26 16:46:35.09	211.08	5.48	-43.6	-61.7	3.8	8.47e-01	0	56	104	0	59	27739
2026-01-26 16:46:36.10	210.94	5.55	-43.6	-61.5	3.8	8.47e-01	0	56	104	0	59	27151
2026-01-26 16:46:37.11	210.80	5.62	-43.6	-61.2	3.8	8.46e-01	0	56	104	0	59	26217
2026-01-26 16:46:38.12	210.66	5.69	-43.6	-61.2	3.8	8.45e-01	0	56	104	0	59	26194
2026-01-26 16:46:39.13	210.51	5.76	-43.6	-60.8	3.8	8.45e-01	0	57	104	0	59	25119
2026-01-26 16:46:40.14	210.37	5.83	-43.6	-60.8	3.8	8.46e-01	0	57	104	0	59	25108
2026-01-26 16:46:41.15	210.22	5.90	-43.6	-60.7	3.8	8.45e-01	0	57	104	0	59	24768
2026-01-26 16:46:42.16	210.08	5.97	-43.6	-60.8	3.8	8.45e-01	0	57	104	0	59	25241
2026-01-26 16:46:43.17	209.93	6.04	-43.6	-61.4	3.8	8.45e-01	0	57	104	0	59	27025
2026-01-26 16:46:44.18	209.78	6.11	-43.6	-61.4	3.8	8.46e-01	0	57	104	0	59	26795
2026-01-26 16:46:45.19	209.63	6.18	-43.6	-61.1	3.8	8.46e-01	0	57	104	0	59	26112
2026-01-26 16:46:46.20	209.48	6.25	-43.6	-61.2	3.8	8.46e-01	0	57	104	0	59	26363
2026-01-26 16:46:47.21	209.33	6.32	-43.6	-60.4	3.8	8.45e-01	0	57	104	0	59	24116
2026-01-26 16:46:48.22	209.18	6.39	-43.6	-60.0	3.8	8.45e-01	0	57	104	0	59	23014
2026-01-26 16:46:49.23	209.03	6.46	-43.6	-60.2	3.8	8.45e-01	0	57	104	0	59	23425
2026-01-26 16:46:50.24	208.87	6.53	-43.6	-59.9	3.8	8.46e-01	0	57	104	0	59	22644
2026-01-26 16:46:51.25	208.72	6.60	-43.6	-59.6	3.8	8.44e-01	0	57	104	0	59	21936
2026-01-26 16:46:52.26	208.56	6.68	-43.5	-58.9	3.9	8.44e-01	0	57	104	0	59	20098
2026-01-26 16:46:53.27	208.40	6.75	-43.6	-59.0	4.0	8.42e-01	0	57	104	0	59	20334
2026-01-26 16:46:54.28	208.24	6.82	-43.5	-57.9	4.2	8.44e-01	0	58	0	0	59	18035
2026-01-26 16:46:55.29	208.08	6.89	-43.5	-57.4	4.4	8.44e-01	0	57	0	0	59	17038
2026-01-26 16:46:56.30	207.92	6.96	-43.4	-56.0	5.0	8.33e-01	0	57	0	0	58	15380
2026-01-26 16:46:57.31	207.76	7.03	-43.2	-54.0	6.4	7.39e-01	0	57	0	524288	58	12104
2026-01-26 16:46:58.32	207.60	7.11	-43.1	-53.0	7.4	2.34e-01	0	57	0	1572864	58	10825
2026-01-26 16:46:59.33	207.43	7.18	-42.8	-51.3	9.0	2.34e-01	0	57	0	2621440	57	9421
2026-01-26 16:47:00.34	207.27	7.25	-42.7	-50.7	9.7	5.32e-02	0	58	0	3670016	57	8862
2026-01-26 16:47:01.35	207.10	7.32	-42.8	-50.9	9.5	1.74e-02	0	57	0	5242880	57	9046
2026-01-26 16:47:02.36	206.94	7.40	-43.0	-52.4	8.1	1.74e-02	0	58	0	6291456	57	10718
2026-01-26 16:47:03.38	206.76	7.47	-43.3	-55.0	5.8	5.30e-02	0	58	0	7340032	57	14486
2026-01-26 16:47:04.39	206.59	7.54	-43.6	-60.0	3.8	5.46e-01	0	58	104	7340032	57	25593
2026-01-26 16:47:05.40	206.42	7.62	-43.5	-59.0	3.9	5.46e-01	0	58	104	7340032	57	22851
2026-01-26 16:47:06.41	206.25	7.69	-43.1	-53.0	7.2	8.45e-01	0	58	0	7340032	57	11430
2026-01-26 16:47:07.42	206.08	7.76	-42.4	-49.2	11.1	3.21e-01	0	58	0	8388608	56	7847
2026-01-26 16:47:08.43	205.90	7.84	-41.7	-47.3	13.1	3.21e-01	0	57	0	9961472	55	6652
2026-01-26 16:47:09.44	205.73	7.91	-41.2	-45.9	14.5	1.55e-03	0	58	0	11010048	54	6030
2026-01-26 16:47:10.45	205.55	7.98	-40.8	-45.1	15.5	4.50e-06	0	58	0	12058624	53	5804
2026-01-26 16:47:11.46	205.37	8.06	-41.0	-45.5	15.1	0.00e+00	0	58	0	13107200	53	6073
2026-01-26 16:47:12.47	205.19	8.13	-41.0	-45.5	15.1	0.00e+00	0	58	0	14155776	53	6066
2026-01-26 16:47:13.48	205.01	8.21	-40.8	-45.0	15.5	1.48e-05	0	58	0	15204352	53	5772
2026-01-26 16:47:14.49	204.83	8.28	-42.5	-50.1	9.2	3.09e-01	0	58	0	16252928	56	8687
2026-01-26 16:47:15.50	204.64	8.35	-41.0	-45.5	15.0	3.09e-01	0	58	0	17301504	54	5752
2026-01-26 16:47:16.51	204.46	8.43	-42.0	-47.7	12.8	1.80e-02	0	58	0	18350080	56	6604
2026-01-26 16:47:17.52	204.27	8.50	-40.8	-45.0	15.5	9.97e-03	0	58	0	19398656	53	5786
2026-01-26 16:47:18.53	204.08	8.58	-40.8	-44.9	15.8	9.97e-03	0	58	0	20447232	53	5660
2026-01-26 16:47:19.54	203.90	8.65	-40.7	-44.7	16.0	0.00e+00	0	58	0	21495808	53	5547
2026-01-26 16:47:20.55	203.70	8.73	-40.9	-45.1	15.7	0.00e+00	0	58	0	22544384	53	5792
2026-01-26 16:47:21.56	203.51	8.80	-40.7	-44.8	15.9	0.00e+00	0	58	0	24117248	53	5608
2026-01-26 16:47:22.57	203.32	8.88	-40.5	-44.4	16.3	0.00e+00	0	58	0	25165824	53	5357
2026-01-26 16:47:23.58	203.13	8.95	-40.6	-44.6	16.1	0.00e+00	0	58	0	26214400	53	5497
2026-01-26 16:47:24.59	202.93	9.03	-40.6	-44.6	16.1	0.00e+00	0	58	0	27262976	53	5478
2026-01-26 16:47:25.60	202.73	9.11	-40.5	-44.3	16.4	0.00e+00	0	58	0	28311552	53	5339
2026-01-26 16:47:26.61	202.53	9.18	-40.7	-44.5	16.2	0.00e+00	0	58	0	29360128	53	5461
2026-01-26 16:47:27.62	202.33	9.26	-40.6	-44.4	16.5	0.00e+00	0	58	0	30932992	52	5684
2026-01-26 16:47:28.63	202.13	9.33	-40.5	-44.2	16.7	0.00e+00	0	58	0	31981568	52	5550
2026-01-26 16:47:29.64	201.93	9.41	-40.5	-44.1	16.8	0.00e+00	0	59	0	33030144	52	5493
2026-01-26 16:47:30.65	201.73	9.48	-40.5	-44.1	16.8	0.00e+00	0	58	0	34078720	52	5503
2026-01-26 16:47:31.66	201.52	9.56	-40.6	-44.4	16.6	0.00e+00	0	59	0	35127296	52	5676
2026-01-26 16:47:32.67	201.31	9.64	-40.4	-44.0	16.9	0.00e+00	0	58	0	36175872	52	5436
2026-01-26 16:47:33.68	201.10	9.71	-40.4	-43.9	17.0	0.00e+00	0	59	0	37748736	52	5373
2026-01-26 16:47:34.69	200.89	9.79	-40.4	-43.9	17.0	0.00e+00	0	59	0	38797312	52	5383
2026-01-26 16:47:35.70	200.68	9.87	-40.3	-43.7	17.2	0.00e+00	0	58	0	39845888	52	5237
2026-01-26 16:47:36.71	200.47	9.94	-40.3	-43.8	17.2	0.00e+00	0	59	0	40894464	52	5303
2026-01-26 16:47:37.72	200.25	10.02	-40.4	-43.9	17.2	0.00e+00	0	59	0	41943040	52	5358
2026-01-26 16:47:38.73	200.04	10.10	-40.4	-44.0	17.0	0.00e+00	0	59	0	42991616	52	5427
2026-01-26 16:47:39.74	199.82	10.17	-40.4	-43.9	17.1	0.00e+00	0	59	0	44564480	52	5378
2026-01-26 16:47:40.75	199.60	10.25	-40.4	-44.0	17.1	0.00e+00	0	59	0	45613056	52	5423
2026-01-26 16:47:41.76	199.38	10.33	-40.4	-43.9	17.1	0.00e+00	0	59	0	46661632	52	5363
2026-01-26 16:47:42.77	199.16	10.40	-40.4	-43.8	17.2	0.00e+00	0	59	0	47710208	52	5336
2026-01-26 16:47:43.78	198.93	10.48	-40.2	-43.6	17.4	0.00e+00	0	59	0	48758784	52	5188
2026-01-26 16:47:44.79	198.71	10.56	-40.2	-43.5	17.5	0.00e+00	0	59	0	50331648	52	5152
2026-01-26 16:47:45.80	198.48	10.63	-40.1	-43.4	17.7	0.00e+00	0	59	0	51380224	52	5077
2026-01-26 16:47:46.81	198.25	10.71	-40.0	-43.2	17.9	0.00e+00	0	59	0	52428800	52	4949
2026-01-26 16:47:47.82	198.02	10.79	-40.1	-43.2	18.0	0.00e+00	0	59	0	53477376	51	5263
2026-01-26 16:47:48.83	197.79	10.86	-40.1	-43.3	17.9	0.00e+00	0	59	0	54525952	51	5334
2026-01-26 16:47:49.85	197.55	10.94	-40.2	-43.5	17.8	0.00e+00	0	59	0	55574528	51	5407
2026-01-26 16:47:50.86	197.32	11.02	-40.4	-43.7	17.6	0.00e+00	0	59	0	57147392	51	5576
2026-01-26 16:47:51.87	197.08	11.09	-40.4	-43.7	17.6	0.00e+00	0	59	0	58195968	51	5559
2026-01-26 16:47:52.88	196.84	11.17	-40.5	-43.9	17.4	0.00e+00	0	59	0	59244544	51	5700
2026-01-26 16:47:53.88	196.60	11.25	-40.4	-43.7	17.5	0.00e+00	0	59	0	60293120	51	5592
2026-01-26 16:47:54.89	196.36	11.32	-40.3	-43.6	17.7	0.00e+00	0	59	0	61341696	51	5503
2026-01-26 16:47:55.90	196.12	11.40	-40.2	-43.4	17.9	0.00e+00	0	59	0	62390272	51	5387
2026-01-26 16:47:56.91	195.87	11.48	-40.2	-43.4	17.9	0.00e+00	0	59	0	63438848	51	5341
2026-01-26 16:47:57.92	195.62	11.55	-40.3	-43.5	17.8	0.00e+00	0	59	0	65011712	51	5417
2026-01-26 16:47:58.93	195.37	11.63	-40.2	-43.3	18.1	0.00e+00	0	59	0	66060288	51	5293
2026-01-26 16:47:59.94	195.12	11.71	-40.0	-43.1	18.2	0.00e+00	0	59	0	67108864	51	5174
2026-01-26 16:48:00.95	194.87	11.78	-40.0	-43.1	18.3	0.00e+00	0	59	0	68157440	51	5189
2026-01-26 16:48:01.96	194.62	11.86	-40.2	-43.3	18.0	0.00e+00	0	59	0	69206016	51	5308
2026-01-26 16:48:02.97	194.36	11.94	-40.1	-43.2	18.2	0.00e+00	0	59	0	70254592	51	5224
2026-01-26 16:48:03.98	194.10	12.01	-40.2	-43.4	17.9	0.00e+00	0	59	0	71827456	51	5371
2026-01-26 16:48:04.99	193.84	12.09	-40.4	-43.7	17.7	0.00e+00	0	59	0	72876032	51	5531
2026-01-26 16:48:06.00	193.58	12.17	-40.3	-43.6	17.8	0.00e+00	0	59	0	73924608	51	5478
2026-01-26 16:48:07.01	193.32	12.24	-40.3	-43.5	17.8	0.00e+00	0	59	0	74973184	51	5422
2026-01-26 16:48:08.02	193.05	12.32	-40.2	-43.4	18.0	0.00e+00	0	59	0	76021760	51	5362
2026-01-26 16:48:09.03	192.79	12.39	-40.2	-43.4	17.9	0.00e+00	0	59	0	77070336	51	5360
2026-01-26 16:48:10.04	192.52	12.47	-40.1	-43.2	18.1	0.00e+00	0	59	0	78643200	51	5276
2026-01-26 16:48:11.05	192.25	12.54	-39.8	-42.7	18.6	0.00e+00	0	59	0	79691776	51	4953
2026-01-26 16:48:12.06	191.98	12.62	-39.6	-42.4	18.9	0.00e+00	0	59	0	80740352	51	4788
2026-01-26 16:48:13.07	191.70	12.69	-39.6	-42.4	18.9	0.00e+00	0	59	0	81788928	51	4777
2026-01-26 16:48:14.08	191.43	12.77	-39.5	-42.3	19.0	0.00e+00	0	59	0	82837504	51	4746
2026-01-26 16:48:15.09	191.15	12.84	-39.6	-42.4	18.9	0.00e+00	0	60	0	83886080	51	4787
2026-01-26 16:48:16.10	190.87	12.92	-39.7	-42.6	18.8	0.00e+00	0	59	0	85458944	51	4873
2026-01-26 16:48:17.11	190.59	12.99	-39.8	-42.8	18.6	0.00e+00	0	60	0	86507520	51	5004
2026-01-26 16:48:18.12	190.30	13.07	-39.9	-42.9	18.5	0.00e+00	0	59	0	87556096	51	5067
2026-01-26 16:48:19.13	190.02	13.14	-40.0	-43.0	18.3	0.00e+00	0	60	0	88604672	51	5153
2026-01-26 16:48:20.14	189.73	13.21	-39.9	-42.9	18.5	0.00e+00	0	60	0	89653248	51	5054
2026-01-26 16:48:21.15	189.44	13.29	-39.9	-42.8	18.6	0.00e+00	0	60	0	91226112	51	5028
2026-01-26 16:48:22.16	189.15	13.36	-39.9	-42.8	18.6	0.00e+00	0	60	0	92274688	51	5034
2026-01-26 16:48:23.17	188.86	13.43	-39.9	-42.8	18.6	0.00e+00	0	60	0	93323264	51	5028
2026-01-26 16:48:24.18	188.57	13.51	-39.8	-42.7	18.6	0.00e+00	0	60	0	94371840	51	4974
2026-01-26 16:48:25.19	188.27	13.58	-39.8	-42.7	18.6	0.00e+00	0	60	0	95420416	51	4965
2026-01-26 16:48:26.20	187.97	13.65	-39.9	-42.8	18.6	0.00e+00	0	60	0	96468992	51	5000
2026-01-26 16:48:27.20	187.67	13.72	-39.8	-42.7	18.7	0.00e+00	0	60	0	98041856	51	4951
2026-01-26 16:48:28.21	187.37	13.79	-39.8	-42.8	18.6	0.00e+00	0	60	0	99090432	51	4984
2026-01-26 16:48:29.22	187.07	13.86	-39.8	-42.6	18.8	0.00e+00	0	60	0	100139008	51	4911
2026-01-26 16:48:30.23	186.76	13.94	-39.8	-42.7	18.7	0.00e+00	0	60	0	101187584	51	4946
2026-01-26 16:48:31.24	186.46	14.01	-39.9	-42.8	18.6	0.00e+00	0	60	0	102236160	51	5015
2026-01-26 16:48:32.25	186.15	14.08	-39.7	-42.5	18.9	0.00e+00	0	60	0	103284736	51	4838
2026-01-26 16:48:33.26	185.83	14.15	-39.5	-42.3	19.1	0.00e+00	0	60	0	104333312	51	4737
2026-01-26 16:48:34.27	185.52	14.22	-39.5	-42.3	19.1	0.00e+00	0	60	0	105906176	51	4715
2026-01-26 16:48:35.28	185.21	14.28	-39.4	-42.1	19.3	0.00e+00	0	60	0	106954752	50	4878
2026-01-26 16:48:36.29	184.89	14.35	-39.3	-41.9	19.5	0.00e+00	0	60	0	108003328	50	4807
2026-01-26 16:48:37.31	184.57	14.42	-39.4	-42.1	19.3	0.00e+00	0	60	0	109051904	50	4916
2026-01-26 16:48:38.32	184.25	14.49	-39.3	-42.0	19.5	0.00e+00	0	60	0	110100480	50	4843
2026-01-26 16:48:39.32	183.93	14.56	-39.4	-42.1	19.3	0.00e+00	0	60	0	111149056	50	4908
2026-01-26 16:48:40.33	183.60	14.62	-39.6	-42.3	19.1	0.00e+00	0	60	0	112721920	50	5032
2026-01-26 16:48:41.34	183.28	14.69	-39.5	-42.3	19.2	0.00e+00	0	60	0	113770496	50	4991
2026-01-26 16:48:42.35	182.95	14.75	-39.6	-42.3	19.2	0.00e+00	0	60	0	114819072	50	5036
2026-01-26 16:48:43.36	182.62	14.82	-39.5	-42.3	19.2	0.00e+00	0	60	0	115867648	50	5004
2026-01-26 16:48:44.37	182.29	14.88	-39.6	-42.3	19.1	0.00e+00	0	60	0	116916224	50	5041
2026-01-26 16:48:45.38	181.95	14.95	-39.4	-42.1	19.4	0.00e+00	0	60	0	117964800	50	4877
2026-01-26 16:48:46.39	181.62	15.01	-39.1	-41.7	19.8	0.00e+00	0	60	0	119537664	50	4652
2026-01-26 16:48:47.40	181.28	15.07	-39.1	-41.7	19.7	0.00e+00	0	60	0	120586240	50	4664
2026-01-26 16:48:48.42	180.94	15.14	-38.9	-41.4	20.0	0.00e+00	0	60	0	121634816	49	4806
2026-01-26 16:48:49.42	180.60	15.20	-39.0	-41.5	19.9	0.00e+00	0	60	0	122683392	49	4843
2026-01-26 16:48:50.43	180.26	15.26	-38.8	-41.3	20.1	0.00e+00	0	60	0	123731968	49	4720
2026-01-26 16:48:51.44	179.91	15.32	-38.9	-41.4	20.0	0.00e+00	0	60	0	125304832	49	4776
2026-01-26 16:48:52.45	179.57	15.38	-39.1	-41.6	19.8	0.00e+00	0	60	0	126353408	49	4921
2026-01-26 16:48:53.46	179.22	15.44	-39.2	-41.8	19.7	0.00e+00	0	60	0	127401984	49	4991
2026-01-26 16:48:54.47	178.87	15.50	-39.2	-41.8	19.6	0.00e+00	0	60	0	128450560	49	5012
2026-01-26 16:48:55.48	178.52	15.56	-39.1	-41.7	19.7	0.00e+00	0	60	0	129499136	49	4958
2026-01-26 16:48:56.50	178.16	15.62	-39.1	-41.7	19.7	0.00e+00	0	60	0	130547712	49	4953
2026-01-26 16:48:57.51	177.80	15.67	-39.2	-41.8	19.7	0.00e+00	0	60	0	132120576	49	4998
2026-01-26 16:48:58.52	177.45	15.73	-39.1	-41.7	19.8	0.00e+00	0	60	0	133169152	49	4937
2026-01-26 16:48:59.53	177.09	15.78	-39.1	-41.6	19.8	0.00e+00	0	60	0	134217728	49	4906
2026-01-26 16:49:00.54	176.73	15.84	-39.0	-41.5	19.9	0.00e+00	0	60	0	135266304	49	4863
2026-01-26 16:49:01.55	176.37	15.89	-39.0	-41.5	20.0	0.00e+00	0	60	0	136314880	49	4850
2026-01-26 16:49:02.56	176.00	15.94	-39.0	-41.5	19.9	0.00e+00	0	60	0	137363456	49	4869
2026-01-26 16:49:03.57	175.64	16.00	-39.1	-41.6	19.8	0.00e+00	0	60	0	138936320	49	4918
2026-01-26 16:49:04.58	175.27	16.05	-39.1	-41.7	19.8	0.00e+00	0	60	0	139984896	49	4931
2026-01-26 16:49:05.59	174.90	16.10	-39.4	-42.0	19.5	0.00e+00	0	60	0	141033472	49	5123
2026-01-26 16:49:06.60	174.53	16.15	-39.3	-41.9	19.6	0.00e+00	0	60	0	142082048	49	5082
2026-01-26 16:49:07.60	174.17	16.20	-39.6	-42.3	19.2	0.00e+00	0	60	0	143130624	49	5306
2026-01-26 16:49:08.61	173.79	16.24	-39.5	-42.2	19.2	0.00e+00	0	60	0	144179200	49	5279
2026-01-26 16:49:09.62	173.42	16.29	-39.4	-42.0	19.5	0.00e+00	0	60	0	145227776	49	5145
2026-01-26 16:49:10.63	173.04	16.34	-39.5	-42.1	19.6	0.00e+00	0	60	0	146800640	50	4923
2026-01-26 16:49:11.64	172.67	16.38	-39.3	-41.8	19.8	0.00e+00	0	60	0	147849216	50	4749
2026-01-26 16:49:12.65	172.29	16.43	-39.1	-41.6	20.0	0.00e+00	0	60	0	148897792	50	4600
2026-01-26 16:49:13.66	171.91	16.47	-39.1	-41.5	20.1	0.00e+00	0	60	0	149946368	50	4596
2026-01-26 16:49:14.67	171.53	16.51	-39.0	-41.5	20.0	0.00e+00	0	60	0	150994944	50	4580
2026-01-26 16:49:15.68	171.15	16.55	-39.0	-41.5	20.1	0.00e+00	0	60	0	152567808	50	4552
2026-01-26 16:49:16.69	170.76	16.59	-39.3	-41.9	19.7	0.00e+00	0	60	0	153616384	50	4807
2026-01-26 16:49:17.70	170.38	16.63	-39.4	-42.0	19.5	0.00e+00	0	60	0	154664960	50	4854
2026-01-26 16:49:18.71	169.99	16.67	-39.5	-42.1	19.5	0.00e+00	0	60	0	155713536	50	4899
2026-01-26 16:49:19.72	169.60	16.71	-39.8	-42.6	19.1	0.00e+00	0	60	0	156762112	50	5161
2026-01-26 16:49:20.73	169.21	16.75	-39.9	-42.6	19.1	0.00e+00	0	60	0	157810688	50	5207
2026-01-26 16:49:21.74	168.82	16.78	-39.7	-42.5	19.1	0.00e+00	0	60	0	159383552	50	5113
2026-01-26 16:49:22.75	168.43	16.82	-39.7	-42.4	19.3	0.00e+00	0	60	0	160432128	50	5048
2026-01-26 16:49:23.77	168.04	16.85	-39.5	-42.1	19.6	0.00e+00	0	60	0	161480704	50	4921
2026-01-26 16:49:24.77	167.65	16.88	-39.5	-42.1	19.7	0.00e+00	0	60	0	162529280	50	4875
2026-01-26 16:49:25.78	167.25	16.91	-39.3	-41.8	19.9	0.00e+00	0	61	0	163577856	50	4739
2026-01-26 16:49:26.79	166.86	16.94	-39.1	-41.5	20.3	0.00e+00	0	60	0	164626432	50	4549
2026-01-26 16:49:27.80	166.46	16.97	-39.0	-41.5	20.3	0.00e+00	0	60	0	166199296	50	4550
2026-01-26 16:49:28.81	166.06	17.00	-38.7	-41.0	20.7	0.00e+00	0	61	0	167247872	49	4586
2026-01-26 16:49:29.82	165.67	17.03	-38.8	-41.1	20.6	0.00e+00	0	61	0	168296448	49	4613
2026-01-26 16:49:30.83	165.27	17.05	-38.9	-41.2	20.5	0.00e+00	0	60	0	169345024	49	4685
2026-01-26 16:49:31.84	164.87	17.08	-38.9	-41.2	20.5	0.00e+00	0	60	0	170393600	49	4686
2026-01-26 16:49:32.85	164.47	17.10	-38.8	-41.2	20.6	0.00e+00	0	60	0	171442176	49	4653
2026-01-26 16:49:33.86	164.06	17.12	-38.9	-41.2	20.5	0.00e+00	0	60	0	173015040	49	4692
2026-01-26 16:49:34.87	163.66	17.14	-38.8	-41.2	20.6	0.00e+00	0	60	0	174063616	49	4661
2026-01-26 16:49:35.88	163.26	17.16	-38.9	-41.3	20.5	0.00e+00	0	60	0	175112192	49	4709
2026-01-26 16:49:36.89	162.86	17.18	-38.8	-41.2	20.6	0.00e+00	0	61	0	176160768	49	4668
2026-01-26 16:49:37.90	162.45	17.20	-38.7	-41.0	20.7	0.00e+00	0	60	0	177209344	49	4598
2026-01-26 16:49:38.91	162.05	17.22	-38.6	-40.8	20.9	0.00e+00	0	60	0	178257920	49	4479
2026-01-26 16:49:39.92	161.64	17.23	-38.5	-40.8	21.0	0.00e+00	0	60	0	179830784	49	4463
2026-01-26 16:49:40.93	161.24	17.25	-38.5	-40.8	21.0	0.00e+00	0	60	0	180879360	49	4447
2026-01-26 16:49:41.94	160.83	17.26	-38.4	-40.6	21.2	0.00e+00	0	61	0	181927936	48	4613
2026-01-26 16:49:42.95	160.43	17.27	-38.4	-40.6	21.2	0.00e+00	0	61	0	182976512	48	4610
2026-01-26 16:49:43.96	160.02	17.28	-38.3	-40.5	21.2	0.00e+00	0	60	0	184025088	47	4844
2026-01-26 16:49:44.97	159.61	17.29	-38.4	-40.7	21.1	0.00e+00	0	60	0	185073664	47	4933
2026-01-26 16:49:45.98	159.20	17.30	-38.4	-40.6	21.1	0.00e+00	0	60	0	186122240	47	4904
2026-01-26 16:49:46.99	158.80	17.31	-38.5	-40.9	20.9	0.00e+00	0	61	0	187695104	47	5052
2026-01-26 16:49:48.00	158.39	17.31	-38.7	-41.1	20.7	0.00e+00	0	60	0	188743680	47	5167
2026-01-26 16:49:49.01	157.98	17.32	-39.0	-41.4	20.5	0.00e+00	0	61	0	189792256	48	5052
2026-01-26 16:49:50.02	157.57	17.32	-39.2	-41.7	20.2	0.00e+00	0	61	0	190840832	48	5251
2026-01-26 16:49:51.03	157.16	17.32	-39.2	-41.7	20.1	0.00e+00	0	60	0	191889408	49	4964
2026-01-26 16:49:52.04	156.76	17.32	-39.1	-41.6	20.3	0.00e+00	0	61	0	193462272	49	4873
2026-01-26 16:49:53.05	156.35	17.32	-39.0	-41.4	20.4	0.00e+00	0	61	0	194510848	49	4780
2026-01-26 16:49:54.06	155.94	17.32	-38.8	-41.2	20.7	0.00e+00	0	60	0	195559424	49	4658
2026-01-26 16:49:55.07	155.53	17.32	-38.8	-41.1	20.7	0.00e+00	0	60	0	196608000	49	4640
2026-01-26 16:49:56.08	155.12	17.31	-38.6	-41.0	20.9	0.00e+00	0	61	0	197656576	49	4553
2026-01-26 16:49:57.09	154.72	17.31	-38.7	-41.0	20.8	0.00e+00	0	60	0	198705152	49	4566
2026-01-26 16:49:58.10	154.31	17.30	-38.8	-41.2	20.7	0.00e+00	0	61	0	200278016	49	4667
2026-01-26 16:49:59.11	153.90	17.29	-38.8	-41.2	20.6	0.00e+00	0	61	0	201326592	49	4695
2026-01-26 16:50:00.12	153.50	17.28	-38.8	-41.2	20.6	0.00e+00	0	61	0	202375168	49	4657
2026-01-26 16:50:01.13	153.09	17.27	-38.8	-41.2	20.7	0.00e+00	0	61	0	203423744	49	4663
2026-01-26 16:50:02.14	152.68	17.26	-38.8	-41.1	20.7	0.00e+00	0	61	0	204472320	49	4636
2026-01-26 16:50:03.15	152.28	17.25	-38.9	-41.4	20.5	0.00e+00	0	61	0	205520896	49	4785
2026-01-26 16:50:04.16	151.87	17.23	-38.8	-41.2	20.6	0.00e+00	0	61	0	207093760	49	4672
2026-01-26 16:50:05.17	151.47	17.22	-38.7	-41.1	20.7	0.00e+00	0	61	0	208142336	49	4633
2026-01-26 16:50:06.18	151.06	17.20	-38.6	-41.0	20.9	0.00e+00	0	61	0	209190912	49	4559
2026-01-26 16:50:07.19	150.66	17.18	-38.6	-41.0	20.8	0.00e+00	0	61	0	210239488	49	4575
2026-01-26 16:50:08.20	150.26	17.17	-38.8	-41.2	20.6	0.00e+00	0	61	0	211288064	49	4662
2026-01-26 16:50:09.21	149.85	17.15	-38.6	-40.9	20.9	0.00e+00	0	61	0	212336640	49	4545
2026-01-26 16:50:10.22	149.45	17.12	-38.7	-41.1	20.8	0.00e+00	0	61	0	213909504	49	4626
2026-01-26 16:50:11.23	149.05	17.10	-38.9	-41.3	20.5	0.00e+00	0	61	0	214958080	49	4725
2026-01-26 16:50:12.24	148.65	17.08	-38.9	-41.3	20.5	0.00e+00	0	61	0	216006656	49	4749
2026-01-26 16:50:13.25	148.25	17.05	-38.9	-41.3	20.5	0.00e+00	0	61	0	217055232	49	4720
2026-01-26 16:50:14.26	147.85	17.03	-39.0	-41.4	20.4	0.00e+00	0	61	0	218103808	49	4792
2026-01-26 16:50:15.27	147.45	17.00	-38.9	-41.4	20.3	0.00e+00	0	61	0	219152384	49	4798
2026-01-26 16:50:16.28	147.06	16.97	-38.8	-41.3	20.6	0.00e+00	0	61	0	220725248	48	4985
2026-01-26 16:50:17.29	146.66	16.95	-38.8	-41.4	20.2	0.00e+00	0	61	0	221773824	48	5095
2026-01-26 16:50:18.30	146.27	16.92	-38.9	-41.3	20.5	0.00e+00	0	61	0	222822400	48	5004
2026-01-26 16:50:19.31	145.87	16.88	-39.0	-41.4	20.1	1.10e-06	0	61	0	223870976	48	5069
2026-01-26 16:50:20.32	145.48	16.85	-39.0	-41.5	20.3	1.10e-06	0	61	0	224919552	48	5117
2026-01-26 16:50:21.33	145.09	16.82	-38.6	-41.5	20.1	3.40e-06	0	61	0	225968128	48	5127
2026-01-26 16:50:22.34	144.70	16.78	-38.8	-41.7	19.9	2.20e-06	0	61	0	227540992	48	5243
2026-01-26 16:50:23.35	144.31	16.75	-38.8	-41.9	19.9	2.20e-06	0	61	0	228589568	49	5075
2026-01-26 16:50:24.36	143.92	16.71	-38.9	-41.7	19.4	0.00e+00	0	61	0	229638144	48	5244
2026-01-26 16:50:25.37	143.53	16.67	-39.1	-41.8	19.6	2.51e-05	0	61	0	230686720	49	5034
2026-01-26 16:50:26.38	143.15	16.64	-39.2	-42.1	18.6	2.51e-05	0	61	0	231735296	48	5510
2026-01-26 16:50:27.39	142.76	16.60	-39.1	-42.2	18.7	5.83e-05	0	61	0	232783872	49	5263
2026-01-26 16:50:28.40	142.38	16.56	-38.4	-42.0	17.7	3.89e-05	0	61	0	234356736	48	5447
2026-01-26 16:50:29.41	141.99	16.52	-38.8	-42.4	18.6	3.89e-05	0	61	0	235405312	49	5373
2026-01-26 16:50:30.42	141.61	16.47	-38.9	-41.8	19.1	9.84e-05	0	61	0	236453888	48	5283
2026-01-26 16:50:31.43	141.23	16.43	-37.8	-41.6	19.1	6.63e-05	0	61	0	237502464	47	5475
2026-01-26 16:50:32.44	140.86	16.39	-37.2	-41.4	17.5	1.07e-04	0	61	0	238551040	47	5386
2026-01-26 16:50:33.45	140.48	16.34	-38.7	-41.7	18.9	1.07e-04	0	61	0	239599616	47	5576
2026-01-26 16:50:34.46	140.11	16.29	-39.3	-42.0	19.4	1.93e-04	0	61	0	241172480	49	5127
2026-01-26 16:50:35.47	139.73	16.25	-39.4	-42.1	19.6	3.89e-05	0	61	0	242221056	49	5182
2026-01-26 16:50:36.48	139.36	16.20	-39.5	-42.4	19.0	3.89e-05	0	61	0	243269632	49	5346
2026-01-26 16:50:37.49	138.99	16.15	-39.4	-42.4	19.1	5.70e-06	0	61	0	244318208	49	5357
2026-01-26 16:50:38.50	138.62	16.10	-38.8	-42.1	19.0	0.00e+00	0	61	0	245366784	49	5190
2026-01-26 16:50:39.51	138.25	16.05	-39.4	-42.1	19.5	0.00e+00	0	61	0	246415360	49	5199
2026-01-26 16:50:40.52	137.89	16.00	-37.5	-41.9	17.8	1.10e-06	0	61	0	247988224	46	6048
2026-01-26 16:50:41.53	137.52	15.95	-38.4	-42.3	17.8	1.37e-05	0	61	0	249036800	46	6289
2026-01-26 16:50:42.54	137.16	15.90	-34.6	-41.6	17.5	1.37e-05	0	61	0	250085376	41	7760
2026-01-26 16:50:43.55	136.80	15.84	-38.6	-42.0	19.0	2.21e-04	0	61	0	251133952	49	5109
2026-01-26 16:50:44.56	136.44	15.79	-39.1	-41.8	18.1	2.60e-03	0	61	0	252182528	48	5319
2026-01-26 16:50:45.57	136.08	15.73	-39.0	-41.9	17.4	4.96e-03	0	61	0	253231104	49	5090
2026-01-26 16:50:46.58	135.72	15.68	-39.1	-41.8	13.5	4.96e-03	0	61	0	254803968	47	5649
2026-01-26 16:50:47.59	135.37	15.62	-38.9	-41.7	15.0	1.76e-02	0	61	0	255852544	47	5582
2026-01-26 16:50:48.60	135.02	15.56	-35.0	-41.4	11.2	8.74e-02	0	61	0	256901120	40	8000
2026-01-26 16:50:49.61	134.67	15.51	-34.7	-41.6	13.6	8.74e-02	0	61	0	257949696	42	7327
2026-01-26 16:50:50.62	134.32	15.45	-38.2	-41.8	17.3	1.89e-01	0	61	0	258473984	46	5950
2026-01-26 16:50:51.63	133.97	15.39	-37.3	-41.9	17.2	4.03e-02	0	61	0	260046848	47	5692
2026-01-26 16:50:52.64	133.62	15.33	-38.3	-41.9	16.3	4.03e-02	0	61	0	261095424	47	5682
2026-01-26 16:50:53.65	133.28	15.27	-38.3	-41.7	14.5	2.18e-02	0	61	0	262144000	45	6223
2026-01-26 16:50:54.65	132.94	15.21	-37.7	-42.1	16.0	3.51e-03	0	61	0	263192576	46	6153
2026-01-26 16:50:55.67	132.60	15.14	-37.8	-41.8	17.1	3.51e-03	0	61	0	264241152	47	5625
2026-01-26 16:50:56.67	132.26	15.08	-37.5	-41.5	17.2	2.00e-03	0	61	0	265289728	47	5444
2026-01-26 16:50:57.68	131.93	15.02	-34.8	-42.1	14.3	2.24e-03	0	61	0	266862592	46	6200
2026-01-26 16:50:58.69	131.59	14.96	-38.6	-42.8	12.6	3.84e-02	0	61	0	267911168	41	8868
2026-01-26 16:50:59.70	131.26	14.89	-39.1	-43.2	12.1	3.84e-02	0	61	0	268959744	46	7008
2026-01-26 16:51:00.71	130.93	14.83	-39.0	-43.4	13.5	5.15e-02	0	61	0	270008320	48	6404
2026-01-26 16:51:01.72	130.60	14.76	-37.7	-42.1	17.1	3.79e-02	0	61	0	271056896	48	5509
2026-01-26 16:51:02.73	130.27	14.70	-39.1	-42.3	15.8	3.79e-02	0	61	0	272105472	48	5630
2026-01-26 16:51:03.74	129.94	14.63	-32.2	-41.6	10.0	1.23e-02	0	61	0	273154048	37	9775
2026-01-26 16:51:04.75	129.62	14.56	-35.6	-41.6	14.3	6.19e-02	0	61	0	274726912	42	7288
2026-01-26 16:51:05.76	129.30	14.50	-37.2	-41.8	14.1	6.19e-02	0	61	0	275775488	43	7054
2026-01-26 16:51:06.77	128.98	14.43	-36.0	-41.8	12.9	2.40e-02	0	61	0	276824064	42	7493
2026-01-26 16:51:07.78	128.66	14.36	-37.3	-42.4	14.7	3.44e-02	0	61	0	277872640	46	6379
2026-01-26 16:51:08.79	128.34	14.29	-37.2	-43.1	10.6	2.24e-02	0	61	0	278921216	42	8749
2026-01-26 16:51:09.79	128.03	14.23	-33.9	-42.5	13.0	2.24e-02	0	61	0	279969792	42	8170
2026-01-26 16:51:10.81	127.72	14.16	-31.6	-42.3	13.1	1.69e-01	0	61	0	281018368	42	7907
2026-01-26 16:51:11.82	127.40	14.09	-35.8	-42.5	14.4	1.03e-01	0	61	0	282066944	46	6426
2026-01-26 16:51:12.83	127.10	14.02	-36.5	-42.1	13.0	1.03e-01	0	61	0	283115520	40	8707
2026-01-26 16:51:13.83	126.79	13.95	-36.8	-41.9	12.4	2.75e-02	0	61	0	284164096	43	7142
2026-01-26 16:51:14.84	126.49	13.88	-31.1	-41.4	11.5	3.72e-02	0	61	0	285736960	40	8041
2026-01-26 16:51:15.85	126.18	13.81	-36.6	-42.5	12.6	3.72e-02	0	61	0	286785536	44	7210
2026-01-26 16:51:16.86	125.88	13.73	-32.7	-41.9	13.4	4.89e-02	0	61	0	287834112	42	7565
2026-01-26 16:51:17.87	125.58	13.66	-33.5	-42.1	13.7	1.42e-01	0	61	0	288882688	43	7353
2026-01-26 16:51:18.88	125.29	13.59	-35.2	-42.2	11.3	1.42e-01	0	61	0	289931264	38	9942
2026-01-26 16:51:19.89	124.99	13.52	-31.3	-43.4	10.1	1.09e-01	0	61	0	290455552	45	7593
2026-01-26 16:51:20.90	124.70	13.45	-32.1	-42.0	9.0	2.80e-01	0	61	0	291504128	33	12855
2026-01-26 16:51:21.91	124.40	13.37	-34.7	-42.8	11.3	2.80e-01	0	61	0	292028416	39	9988
2026-01-26 16:51:22.92	124.11	13.30	-33.6	-42.3	12.7	3.37e-01	0	61	0	293076992	38	9957
2026-01-26 16:51:23.93	123.83	13.23	-36.0	-43.0	11.9	1.19e-01	0	61	0	294125568	41	9124
2026-01-26 16:51:24.94	123.54	13.15	-30.9	-42.3	10.0	1.09e-01	0	61	0	295174144	31	14981
2026-01-26 16:51:25.95	123.26	13.08	-35.2	-42.3	12.9	1.09e-01	0	61	0	296222720	39	9444
2026-01-26 16:51:26.96	122.97	13.01	-34.2	-41.7	13.3	5.09e-02	0	62	0	297795584	41	7889
2026-01-26 16:51:27.97	122.69	12.93	-28.4	-40.7	10.6	4.40e-02	0	61	0	298844160	32	11695
2026-01-26 16:51:28.98	122.41	12.86	-37.2	-42.5	13.5	4.40e-02	0	61	0	299892736	43	7671
2026-01-26 16:51:29.99	122.14	12.78	-34.2	-42.7	12.6	9.21e-02	0	61	0	300941312	36	11802
2026-01-26 16:51:31.00	121.86	12.71	-34.3	-42.7	14.0	3.72e-02	0	62	0	301989888	42	8301
2026-01-26 16:51:32.01	121.59	12.63	-31.2	-42.0	9.9	3.72e-02	0	62	0	303038464	31	14445
2026-01-26 16:51:33.02	121.32	12.56	-32.6	-43.0	10.6	3.43e-02	0	61	0	304087040	36	12226
2026-01-26 16:51:34.03	121.05	12.48	-33.7	-43.5	12.1	6.56e-02	0	61	0	305659904	37	12104
2026-01-26 16:51:35.04	120.78	12.41	-34.8	-42.9	11.7	4.88e-02	0	61	0	306708480	40	9529
2026-01-26 16:51:36.05	120.51	12.33	-23.6	-42.4	7.9	4.88e-02	0	61	0	307757056	32	14325
2026-01-26 16:51:37.06	120.25	12.26	-35.9	-43.0	10.7	2.19e-01	0	61	0	308281344	37	11463
2026-01-26 16:51:38.07	119.99	12.18	-31.6	-42.9	10.1	7.95e-02	0	61	0	309329920	38	10760
2026-01-26 16:51:39.08	119.73	12.11	-28.7	-42.2	9.5	7.95e-02	0	61	0	310378496	32	13910
2026-01-26 16:51:40.09	119.47	12.03	-35.0	-43.5	13.4	1.45e-01	0	61	0	311427072	44	8149
2026-01-26 16:51:41.10	119.21	11.95	-38.3	-43.5	13.7	9.32e-02	0	61	0	312475648	45	7663
2026-01-26 16:51:42.11	118.96	11.88	-37.2	-43.3	13.4	9.32e-02	0	61	0	314048512	45	7538
2026-01-26 16:51:43.12	118.70	11.80	-35.9	-43.7	12.9	3.16e-02	0	61	0	315097088	42	9328
2026-01-26 16:51:44.13	118.45	11.73	-35.5	-43.0	13.4	2.29e-02	0	62	0	316145664	41	9099
2026-01-26 16:51:45.14	118.20	11.65	-33.3	-42.4	10.8	2.29e-02	0	61	0	317194240	36	11383
2026-01-26 16:51:46.15	117.95	11.57	-31.3	-42.4	10.3	3.88e-02	0	61	0	318242816	33	13509
2026-01-26 16:51:47.16	117.71	11.50	-30.9	-42.3	8.4	6.90e-02	0	61	0	319291392	30	15941
2026-01-26 16:51:48.17	117.46	11.42	-19.0	-38.7	5.3	5.58e-01	0	62	0	319291392	14	26271
2026-01-26 16:51:49.18	117.22	11.34	-33.3	-43.0	8.9	5.58e-01	0	62	0	319291392	34	13616
2026-01-26 16:51:50.19	116.98	11.27	-30.9	-42.7	8.5	4.05e-01	0	62	0	320339968	27	19746
2026-01-26 16:51:51.20	116.74	11.19	-24.5	-41.4	5.5	5.13e-01	0	62	104	320339968	22	22774
2026-01-26 16:51:52.21	116.50	11.11	-27.6	-42.3	6.4	5.13e-01	0	62	0	320339968	24	22412
2026-01-26 16:51:53.22	116.26	11.04	-24.5	-40.9	6.2	6.21e-01	0	61	0	320864256	21	22559
2026-01-26 16:51:54.24	116.02	10.96	-22.8	-39.8	6.4	4.20e-01	0	62	0	321388544	19	22269
2026-01-26 16:51:55.25	115.79	10.88	-24.2	-41.0	6.5	4.20e-01	0	62	0	321388544	23	20429
2026-01-26 16:51:56.26	115.56	10.81	-25.6	-42.6	5.4	6.36e-01	0	61	104	321388544	23	24483
2026-01-26 16:51:57.27	115.33	10.73	-26.9	-41.2	4.3	7.61e-01	0	61	104	321388544	15	33089
2026-01-26 16:51:58.28	115.10	10.65	-29.4	-42.6	6.4	7.61e-01	0	61	0	321388544	27	19614
2026-01-26 16:51:59.29	114.87	10.58	-28.1	-41.6	6.4	6.83e-01	0	62	0	321912832	25	19403
2026-01-26 16:52:00.30	114.65	10.50	-25.3	-41.0	6.3	5.43e-01	0	61	0	322437120	23	20519
2026-01-26 16:52:01.31	114.43	10.42	-28.1	-42.2	7.1	5.57e-01	0	62	0	322961408	26	19833
2026-01-26 16:52:02.32	114.20	10.35	-26.9	-42.6	6.1	5.57e-01	0	61	0	323485696	24	23227
2026-01-26 16:52:03.33	113.98	10.27	-25.0	-45.3	3.9	5.81e-01	0	62	104	323485696	21	37541
2026-01-26 16:52:04.34	113.77	10.19	-32.1	-47.3	4.4	7.73e-01	0	61	104	323485696	32	25095
2026-01-26 16:52:05.35	113.55	10.12	-25.6	-48.5	3.8	7.73e-01	0	62	104	323485696	23	48340
2026-01-26 16:52:06.36	113.33	10.04	-21.3	-44.6	3.8	7.85e-01	0	61	104	323485696	13	54803
2026-01-26 16:52:07.37	113.12	9.96	-27.2	-46.4	4.3	8.38e-01	0	62	104	323485696	23	38171
2026-01-26 16:52:08.38	112.91	9.89	-27.9	-47.9	4.1	8.38e-01	0	62	104	323485696	20	53819
2026-01-26 16:52:09.39	112.69	9.81	-28.5	-47.2	4.0	8.39e-01	0	62	104	323485696	21	46904
2026-01-26 16:52:10.40	112.48	9.74	-27.5	-45.5	3.6	8.39e-01	0	62	104	323485696	13	60854
2026-01-26 16:52:11.41	112.28	9.66	-28.5	-46.9	4.4	8.39e-01	0	62	104	323485696	24	37893
2026-01-26 16:52:12.42	112.07	9.58	-35.4	-52.6	3.5	8.37e-01	0	62	104	323485696	37	34511
2026-01-26 16:52:13.43	111.87	9.51	-28.1	-47.6	5.2	7.97e-01	0	62	0	323485696	29	30874
2026-01-26 16:52:14.44	111.66	9.43	-20.4	-45.2	4.1	7.99e-01	0	62	104	323485696	21	37348
2026-01-26 16:52:15.45	111.46	9.36	-28.3	-47.2	3.8	7.99e-01	0	62	104	323485696	27	32933
2026-01-26 16:52:16.45	111.26	9.28	-28.1	-45.9	5.7	8.37e-01	0	62	104	323485696	26	30171
2026-01-26 16:52:17.46	111.06	9.21	-29.4	-47.5	4.5	7.98e-01	0	62	104	323485696	27	34461
2026-01-26 16:52:18.47	110.86	9.13	-22.9	-44.1	5.0	7.98e-01	0	62	104	323485696	23	29261
2026-01-26 16:52:19.48	110.67	9.06	-29.7	-46.2	5.6	8.02e-01	0	62	0	323485696	29	26323
2026-01-26 16:52:20.49	110.47	8.98	-25.9	-46.7	5.1	6.80e-01	0	62	104	323485696	34	20958
2026-01-26 16:52:21.50	110.28	8.91	-29.2	-47.0	4.7	6.80e-01	0	62	0	323485696	24	38553
2026-01-26 16:52:22.51	110.08	8.83	-35.4	-44.0	10.5	7.06e-01	0	62	0	324009984	39	11486
2026-01-26 16:52:23.52	109.89	8.76	-36.4	-48.2	9.2	3.05e-01	0	62	0	325058560	44	13972
2026-01-26 16:52:24.53	109.70	8.68	-36.5	-45.7	10.6	4.20e-01	0	62	0	325582848	42	11779
2026-01-26 16:52:25.54	109.52	8.61	-36.7	-47.5	7.9	4.20e-01	0	62	0	326107136	42	14414
2026-01-26 16:52:26.56	109.33	8.53	-36.8	-46.0	10.3	3.17e-01	0	62	0	327155712	42	12198
2026-01-26 16:52:27.56	109.14	8.46	-36.8	-46.5	10.6	8.08e-02	0	62	0	328204288	44	11431
2026-01-26 16:52:28.58	108.96	8.38	-35.5	-46.0	8.9	8.08e-02	0	62	0	329777152	41	12861
2026-01-26 16:52:29.58	108.78	8.31	-37.6	-46.3	10.7	9.38e-02	0	62	0	330825728	44	11229
2026-01-26 16:52:30.60	108.59	8.23	-37.9	-45.9	11.5	4.33e-02	0	62	0	331874304	45	10125
2026-01-26 16:52:31.61	108.41	8.16	-37.5	-45.1	11.0	4.33e-02	0	62	0	332922880	40	12331
2026-01-26 16:52:32.62	108.23	8.09	-38.1	-46.3	10.8	3.74e-02	0	62	0	333971456	47	9440
2026-01-26 16:52:33.63	108.05	8.01	-40.1	-53.9	5.9	1.16e-01	0	62	0	335020032	47	22601
2026-01-26 16:52:34.64	107.88	7.94	-42.0	-58.4	3.6	1.16e-01	0	62	104	335020032	53	26921
2026-01-26 16:52:35.65	107.70	7.86	-44.5	-62.9	3.8	6.75e-01	0	62	104	335020032	59	31866
2026-01-26 16:52:36.66	107.53	7.79	-44.7	-63.0	3.8	8.46e-01	0	62	104	335020032	60	30588
2026-01-26 16:52:37.67	107.35	7.72	-44.9	-63.3	3.8	8.46e-01	0	62	104	335020032	60	31660
2026-01-26 16:52:38.68	107.18	7.64	-45.0	-63.5	3.8	8.46e-01	0	62	104	335020032	60	32336
2026-01-26 16:52:39.69	107.01	7.57	-45.1	-63.6	3.8	8.47e-01	0	62	104	335020032	61	31033
2026-01-26 16:52:40.70	106.84	7.50	-45.2	-63.7	3.8	8.46e-01	0	62	104	335020032	61	31313
2026-01-26 16:52:41.71	106.67	7.43	-45.4	-63.8	3.8	8.46e-01	0	62	104	335020032	61	31615
2026-01-26 16:52:42.72	106.51	7.35	-45.4	-63.8	3.8	8.47e-01	0	62	104	335020032	61	31738
2026-01-26 16:52:43.73	106.34	7.28	-45.3	-63.7	3.8	8.46e-01	0	62	104	335020032	61	31382
2026-01-26 16:52:44.74	106.18	7.21	-45.2	-63.6	3.8	8.46e-01	0	62	104	335020032	61	30928
2026-01-26 16:52:45.75	106.01	7.14	-45.2	-63.5	3.8	8.46e-01	0	62	104	335020032	61	30428
2026-01-26 16:52:46.76	105.85	7.06	-45.1	-63.4	3.8	8.46e-01	0	62	104	335020032	61	30084
2026-01-26 16:52:47.77	105.69	6.99	-45.1	-63.3	3.8	8.46e-01	0	62	104	335020032	61	29761
2026-01-26 16:52:48.78	105.53	6.92	-45.0	-63.2	3.8	8.45e-01	0	62	104	335020032	61	29562
2026-01-26 16:52:49.80	105.37	6.85	-44.9	-63.0	3.8	8.46e-01	0	62	104	335020032	60	30634
2026-01-26 16:52:50.81	105.21	6.78	-45.0	-63.1	3.8	8.46e-01	0	62	104	335020032	60	30859
2026-01-26 16:52:51.82	105.05	6.71	-45.0	-63.1	3.8	8.46e-01	0	62	104	335020032	60	30870
2026-01-26 16:52:52.83	104.90	6.64	-45.0	-63.1	3.8	8.46e-01	0	62	104	335020032	60	30853
2026-01-26 16:52:53.84	104.74	6.56	-45.0	-63.1	3.8	8.47e-01	0	62	104	335020032	60	30909
2026-01-26 16:52:54.85	104.59	6.49	-44.8	-63.1	3.8	8.47e-01	0	62	104	335020032	60	30819
2026-01-26 16:52:55.86	104.44	6.42	-45.0	-63.1	3.8	8.46e-01	0	62	104	335020032	60	30761
2026-01-26 16:52:56.87	104.28	6.35	-45.0	-63.1	3.8	8.46e-01	0	62	104	335020032	60	30864
2026-01-26 16:52:57.88	104.13	6.28	-45.0	-63.1	3.8	8.46e-01	0	62	104	335020032	60	30815
2026-01-26 16:52:58.89	103.98	6.21	-45.0	-63.1	3.8	8.46e-01	0	62	104	335020032	60	30849
2026-01-26 16:52:59.90	103.84	6.14	-45.0	-63.1	3.8	8.46e-01	0	62	104	335020032	60	30942
2026-01-26 16:53:00.91	103.69	6.07	-45.0	-63.1	3.8	8.46e-01	0	62	104	335020032	60	30809
2026-01-26 16:53:01.92	103.54	6.00	-45.0	-63.0	3.8	8.45e-01	0	62	104	335020032	60	30697
2026-01-26 16:53:02.93	103.40	5.93	-44.9	-63.1	3.8	8.46e-01	0	62	104	335020032	60	30793
2026-01-26 16:53:03.94	103.25	5.86	-45.0	-63.2	3.8	8.46e-01	0	62	104	335020032	60	31197
2026-01-26 16:53:04.95	103.11	5.79	-44.9	-63.0	3.8	8.46e-01	0	62	104	335020032	60	30715
2026-01-26 16:53:05.96	102.97	5.72	-45.0	-63.0	3.8	8.47e-01	0	62	104	335020032	60	30728
2026-01-26 16:53:06.97	102.82	5.66	-44.9	-63.1	3.8	8.47e-01	0	62	104	335020032	60	30754
2026-01-26 16:53:07.98	102.68	5.59	-45.0	-63.0	3.8	8.47e-01	0	62	104	335020032	60	30691
2026-01-26 16:53:08.99	102.54	5.52	-44.9	-63.0	3.8	8.47e-01	0	62	104	335020032	60	30673
2026-01-26 16:53:10.00	102.41	5.45	-44.9	-63.0	3.8	8.46e-01	0	62	104	335020032	60	30703
2026-01-26 16:53:11.01	102.27	5.38	-44.9	-63.0	3.8	8.46e-01	0	62	104	335020032	60	30601
2026-01-26 16:53:12.02	102.13	5.31	-44.9	-63.0	3.8	8.46e-01	0	62	104	335020032	60	30651
2026-01-26 16:53:13.04	101.99	5.24	-44.9	-63.1	3.8	8.46e-01	0	62	104	335020032	60	30745
2026-01-26 16:53:14.04	101.86	5.18	-44.9	-63.0	3.8	8.46e-01	0	62	104	335020032	60	30679
2026-01-26 16:53:15.06	101.72	5.11	-44.8	-63.0	3.8	8.46e-01	0	62	104	335020032	60	30647
2026-01-26 16:53:16.07	101.59	5.04	-44.9	-63.0	3.8	8.46e-01	0	62	104	335020032	60	30667
2026-01-26 16:53:17.08	101.46	4.97	-44.9	-63.0	3.8	8.46e-01	0	62	104	335020032	60	30584
2026-01-26 16:53:18.09	101.33	4.91	-44.9	-63.0	3.8	8.46e-01	0	62	104	335020032	60	30633
2026-01-26 16:53:19.10	101.20	4.84	-44.9	-63.0	3.8	8.45e-01	0	62	104	335020032	60	30638
2026-01-26 16:53:20.11	101.07	4.77	-44.9	-63.0	3.8	8.46e-01	0	62	104	335020032	60	30711
2026-01-26 16:53:21.12	100.94	4.71	-44.9	-63.0	3.8	8.46e-01	0	62	104	335020032	60	30587
2026-01-26 16:53:22.13	100.81	4.64	-44.9	-63.1	3.8	8.47e-01	0	62	104	335020032	60	30754
2026-01-26 16:53:23.14	100.68	4.57	-44.9	-63.0	3.8	8.45e-01	0	62	104	335020032	60	30671
2026-01-26 16:53:24.15	100.56	4.51	-44.9	-63.0	3.8	8.45e-01	0	62	104	335020032	60	30588
2026-01-26 16:53:25.16	100.43	4.44	-44.9	-63.0	3.8	8.47e-01	0	62	104	335020032	60	30515
2026-01-26 16:53:26.17	100.31	4.37	-44.9	-63.0	3.8	8.48e-01	0	62	104	335020032	60	30665
2026-01-26 16:53:27.18	100.18	4.31	-44.9	-63.0	3.8	8.48e-01	0	62	104	335020032	60	30702
2026-01-26 16:53:28.19	100.06	4.24	-44.9	-63.0	3.8	8.46e-01	0	62	104	335020032	60	30590
2026-01-26 16:53:29.20	99.94	4.18	-44.9	-63.0	3.8	8.45e-01	0	62	104	335020032	60	30573
2026-01-26 16:53:30.21	99.82	4.11	-44.9	-63.0	3.8	8.46e-01	0	62	104	335020032	60	30552
2026-01-26 16:53:31.22	99.69	4.05	-44.9	-63.0	3.8	8.46e-01	0	62	104	335020032	60	30476
2026-01-26 16:53:32.23	99.57	3.98	-44.9	-63.0	3.8	8.47e-01	0	62	104	335020032	60	30548
2026-01-26 16:53:33.24	99.46	3.91	-44.9	-63.0	3.8	8.46e-01	0	62	104	335020032	60	30471
2026-01-26 16:53:34.25	99.34	3.85	-44.9	-63.0	3.8	8.46e-01	0	62	104	335020032	60	30428
2026-01-26 16:53:35.26	99.22	3.79	-44.9	-63.0	3.8	8.46e-01	0	62	104	335020032	60	30493
2026-01-26 16:53:36.27	99.10	3.72	-44.9	-63.0	3.8	8.46e-01	0	62	104	335020032	60	30419
2026-01-26 16:53:37.28	98.99	3.66	-44.9	-63.0	3.8	8.46e-01	0	62	104	335020032	60	30505
2026-01-26 16:53:38.30	98.87	3.59	-44.9	-63.0	3.8	8.46e-01	0	62	104	335020032	60	30482
2026-01-26 16:53:39.31	98.76	3.53	-44.9	-62.9	3.8	8.48e-01	0	62	104	335020032	60	30349
2026-01-26 16:53:40.32	98.64	3.46	-44.8	-63.0	3.8	8.46e-01	0	62	104	335020032	60	30436
2026-01-26 16:53:41.33	98.53	3.40	-44.8	-62.9	3.8	8.46e-01	0	62	104	335020032	60	30255
2026-01-26 16:53:42.34	98.42	3.34	-44.9	-63.0	3.8	8.46e-01	0	62	104	335020032	60	30491
2026-01-26 16:53:43.35	98.30	3.27	-44.9	-63.0	3.8	8.46e-01	0	62	104	335020032	60	30430
2026-01-26 16:53:44.36	98.19	3.21	-44.9	-63.0	3.8	8.46e-01	0	62	104	335020032	60	30438
2026-01-26 16:53:45.37	98.08	3.15	-44.8	-62.9	3.8	8.47e-01	0	62	104	335020032	60	30350
2026-01-26 16:53:46.38	97.97	3.08	-44.8	-62.9	3.8	8.46e-01	0	62	104	335020032	60	30350
2026-01-26 16:53:47.39	97.86	3.02	-44.9	-62.9	3.8	8.46e-01	0	62	104	335020032	60	30338
2026-01-26 16:53:48.40	97.76	2.96	-44.8	-62.9	3.8	8.47e-01	0	62	104	335020032	60	30371
2026-01-26 16:53:49.41	97.65	2.89	-44.8	-62.9	3.8	8.45e-01	0	62	104	335020032	60	30334
2026-01-26 16:53:50.42	97.54	2.83	-44.8	-62.9	3.8	8.45e-01	0	62	104	335020032	60	30352
2026-01-26 16:53:51.43	97.44	2.77	-44.8	-62.9	3.8	8.47e-01	0	62	104	335020032	60	30332
2026-01-26 16:53:52.44	97.33	2.71	-44.8	-62.9	3.8	8.46e-01	0	62	104	335020032	60	30322
2026-01-26 16:53:53.45	97.23	2.64	-44.8	-62.9	3.8	8.47e-01	0	62	104	335020032	60	30341
2026-01-26 16:53:54.46	97.12	2.58	-44.8	-63.0	3.8	8.47e-01	0	62	104	335020032	60	30439
2026-01-26 16:53:55.47	97.02	2.52	-44.8	-62.9	3.8	8.46e-01	0	62	104	335020032	60	30312
2026-01-26 16:53:56.48	96.91	2.46	-44.8	-63.0	3.8	8.45e-01	0	62	104	335020032	60	30382
2026-01-26 16:53:57.49	96.81	2.40	-44.8	-62.9	3.8	8.45e-01	0	62	104	335020032	60	30349
2026-01-26 16:53:58.50	96.71	2.34	-44.8	-62.9	3.8	8.45e-01	0	62	104	335020032	60	30328
2026-01-26 16:53:59.51	96.61	2.27	-44.8	-62.9	3.8	8.46e-01	0	62	104	335020032	60	30280
2026-01-26 16:54:00.52	96.51	2.21	-44.8	-62.9	3.8	8.46e-01	0	62	104	335020032	60	30359
2026-01-26 16:54:01.54	96.41	2.15	-44.8	-62.9	3.8	8.45e-01	0	62	104	335020032	60	30374
2026-01-26 16:54:02.55	96.31	2.09	-44.8	-62.9	3.8	8.44e-01	0	62	104	335020032	60	30335
2026-01-26 16:54:03.56	96.21	2.03	-44.8	-62.9	3.8	8.44e-01	0	62	104	335020032	60	30339
2026-01-26 16:54:04.57	96.11	1.97	-44.8	-62.9	3.8	8.45e-01	0	62	104	335020032	60	30332

#Closed at: 2026-01-26 16:54:05
#Recorded file [335 MB]: D:/lorett/data/31039_260126_194542.dat