passes_logs/2026/01/26/R2.0S_Moscow/R2.0S_Moscow__20260126_025207_AQUA_rec.log

#Pass ID: 20260126_025207_AQUA
#Satellite: AQUA
#Configuration: AQUA
#almurnet v.1.7.20251203
#Start time: 2026-01-26 02:52:09

#Version: 2.2.20231116
#Station: R2.0S_Moscow
#Location: 37.707566 lon 55.798166 lat
#TLE: 1 27424U 02022A   26025.50647354  .00001868  00000+0  38363-3 0  9992
#TLE: 2 27424  98.4099 352.1114 0001896  65.7986  47.0097 14.61858879262422

#Time	Az	El	Level	Level2	SNR	BER	BlckErr	Temp	State	Recorded	gain1	gain2
2026-01-26 02:52:09.62	7.17	2.12	-40.7	-59.7	3.8	7.46e-01	0	52	0	0	53	31401
2026-01-26 02:52:10.63	7.10	2.18	-40.7	-59.7	3.8	7.44e-01	0	52	104	0	52	33260
2026-01-26 02:52:11.64	7.02	2.24	-40.7	-59.7	3.8	7.46e-01	0	52	104	0	52	33243
2026-01-26 02:52:12.65	6.95	2.30	-40.7	-59.7	3.8	7.47e-01	0	52	104	0	52	33245
2026-01-26 02:52:13.66	6.87	2.36	-40.7	-59.7	3.8	7.43e-01	0	52	104	0	52	33169
2026-01-26 02:52:14.67	6.80	2.42	-40.7	-59.7	3.8	7.46e-01	0	52	104	0	52	33213
2026-01-26 02:52:15.68	6.72	2.48	-40.7	-59.7	3.8	7.46e-01	0	52	104	0	52	33214
2026-01-26 02:52:16.69	6.65	2.54	-40.7	-59.7	3.8	7.41e-01	0	53	104	0	52	33115
2026-01-26 02:52:17.70	6.57	2.60	-40.7	-59.7	3.8	7.42e-01	0	53	104	0	52	33215
2026-01-26 02:52:18.71	6.50	2.66	-40.7	-59.7	3.8	7.46e-01	0	52	104	0	52	33125
2026-01-26 02:52:19.72	6.42	2.72	-40.7	-59.7	3.8	7.45e-01	0	53	104	0	52	33146
2026-01-26 02:52:20.73	6.34	2.78	-40.7	-59.7	3.8	7.47e-01	0	53	104	0	52	33130
2026-01-26 02:52:21.74	6.27	2.84	-40.7	-59.7	3.8	7.48e-01	0	53	104	0	52	33156
2026-01-26 02:52:22.75	6.19	2.90	-40.7	-59.7	3.8	7.43e-01	0	53	104	0	52	33123
2026-01-26 02:52:23.76	6.11	2.96	-40.7	-59.7	3.8	7.44e-01	0	53	104	0	52	33166
2026-01-26 02:52:24.77	6.03	3.02	-40.7	-59.7	3.8	7.44e-01	0	53	104	0	52	33220
2026-01-26 02:52:25.78	5.96	3.08	-40.7	-59.7	3.8	7.46e-01	0	53	104	0	52	33132
2026-01-26 02:52:26.79	5.88	3.14	-40.7	-59.7	3.8	7.45e-01	0	53	104	0	52	33164
2026-01-26 02:52:27.80	5.80	3.20	-40.7	-59.7	3.8	7.48e-01	0	53	104	0	52	33169
2026-01-26 02:52:28.81	5.72	3.26	-40.7	-59.7	3.8	7.47e-01	0	53	104	0	52	33172
2026-01-26 02:52:29.82	5.64	3.32	-40.7	-59.7	3.8	7.45e-01	0	53	104	0	52	33166
2026-01-26 02:52:30.83	5.56	3.39	-40.6	-59.7	3.8	7.46e-01	0	54	104	0	52	33145
2026-01-26 02:52:31.84	5.48	3.45	-40.6	-59.7	3.8	7.44e-01	0	53	104	0	52	33066
2026-01-26 02:52:32.85	5.40	3.51	-40.7	-59.7	3.8	7.47e-01	0	54	104	0	52	33056
2026-01-26 02:52:33.86	5.31	3.57	-40.7	-59.7	3.8	7.45e-01	0	53	104	0	52	33105
2026-01-26 02:52:34.87	5.23	3.63	-40.7	-59.7	3.8	7.46e-01	0	54	104	0	52	33097
2026-01-26 02:52:35.88	5.15	3.69	-40.7	-59.7	3.8	7.43e-01	0	54	104	0	52	33102
2026-01-26 02:52:36.90	5.07	3.75	-40.7	-59.7	3.8	7.43e-01	0	54	104	0	52	33063
2026-01-26 02:52:37.90	4.98	3.82	-40.6	-59.7	3.8	7.45e-01	0	54	104	0	52	33039
2026-01-26 02:52:38.92	4.90	3.88	-40.6	-59.7	3.8	7.42e-01	0	54	104	0	52	33077
2026-01-26 02:52:39.93	4.82	3.94	-40.6	-59.7	3.8	7.45e-01	0	54	104	0	52	33160
2026-01-26 02:52:40.94	4.73	4.00	-40.6	-59.7	3.8	7.46e-01	0	54	104	0	52	33070
2026-01-26 02:52:41.95	4.65	4.06	-40.6	-59.7	3.8	7.44e-01	0	54	104	0	52	33003
2026-01-26 02:52:42.96	4.56	4.13	-40.6	-59.7	3.8	7.43e-01	0	54	104	0	52	33066
2026-01-26 02:52:43.97	4.48	4.19	-40.6	-59.7	3.8	7.49e-01	0	54	104	0	52	33026
2026-01-26 02:52:44.98	4.39	4.25	-40.6	-59.7	3.8	7.48e-01	0	54	104	0	52	33023
2026-01-26 02:52:45.99	4.30	4.31	-40.6	-59.7	3.8	7.47e-01	0	54	104	0	52	33027
2026-01-26 02:52:47.00	4.22	4.38	-40.6	-59.7	3.8	7.49e-01	0	55	104	0	52	33037
2026-01-26 02:52:48.01	4.13	4.44	-40.6	-59.7	3.8	7.46e-01	0	55	104	0	52	33053
2026-01-26 02:52:49.02	4.04	4.50	-40.6	-59.7	3.8	7.42e-01	0	55	104	0	52	33017
2026-01-26 02:52:50.03	3.95	4.57	-40.6	-59.7	3.8	7.44e-01	0	55	104	0	52	33105
2026-01-26 02:52:51.04	3.86	4.63	-40.6	-59.7	3.8	7.47e-01	0	55	104	0	52	32992
2026-01-26 02:52:52.05	3.78	4.69	-40.6	-59.7	3.8	7.47e-01	0	55	104	0	52	33054
2026-01-26 02:52:53.07	3.68	4.76	-40.6	-59.7	3.8	7.42e-01	0	55	104	0	52	33029
2026-01-26 02:52:54.08	3.59	4.82	-40.6	-59.7	3.8	7.46e-01	0	55	104	0	52	33001
2026-01-26 02:52:55.09	3.50	4.88	-40.6	-59.7	3.8	7.45e-01	0	55	104	0	52	33031
2026-01-26 02:52:56.10	3.41	4.95	-40.6	-59.7	3.8	7.46e-01	0	55	104	0	52	33024
2026-01-26 02:52:57.11	3.32	5.01	-40.6	-59.7	3.8	7.44e-01	0	55	104	0	52	33008
2026-01-26 02:52:58.12	3.23	5.07	-40.6	-59.7	3.8	7.45e-01	0	55	104	0	52	33029
2026-01-26 02:52:59.13	3.14	5.14	-40.6	-59.7	3.8	7.48e-01	0	55	104	0	52	33049
2026-01-26 02:53:00.14	3.05	5.20	-40.6	-59.7	3.8	7.45e-01	0	55	104	0	52	32997
2026-01-26 02:53:01.15	2.95	5.27	-40.6	-59.7	3.8	7.46e-01	0	55	104	0	52	32969
2026-01-26 02:53:02.16	2.86	5.33	-40.6	-59.7	3.8	7.45e-01	0	55	104	0	52	33082
2026-01-26 02:53:03.17	2.77	5.40	-40.6	-59.7	3.8	7.47e-01	0	55	104	0	52	32999
2026-01-26 02:53:04.18	2.67	5.46	-40.6	-59.7	3.8	7.44e-01	0	55	104	0	52	32935
2026-01-26 02:53:05.19	2.58	5.52	-40.6	-59.7	3.8	7.46e-01	0	56	104	0	52	33033
2026-01-26 02:53:06.20	2.48	5.59	-40.6	-59.7	3.8	7.47e-01	0	55	104	0	52	33040
2026-01-26 02:53:07.21	2.38	5.65	-40.6	-59.7	3.8	7.46e-01	0	56	104	0	52	32993
2026-01-26 02:53:08.22	2.29	5.72	-40.6	-59.7	3.8	7.43e-01	0	56	104	0	52	32950
2026-01-26 02:53:09.23	2.19	5.78	-40.6	-59.7	3.8	7.47e-01	0	55	104	0	52	32953
2026-01-26 02:53:10.24	2.09	5.85	-40.6	-59.6	3.8	7.44e-01	0	56	104	0	52	32900
2026-01-26 02:53:11.25	2.00	5.91	-40.6	-59.7	3.8	7.45e-01	0	56	104	0	52	32962
2026-01-26 02:53:12.26	1.90	5.98	-40.6	-59.6	3.8	7.44e-01	0	56	104	0	52	32920
2026-01-26 02:53:13.27	1.80	6.05	-40.6	-59.7	3.8	7.46e-01	0	56	104	0	52	33023
2026-01-26 02:53:14.29	1.70	6.11	-40.6	-59.7	3.8	7.46e-01	0	56	104	0	52	32956
2026-01-26 02:53:15.30	1.60	6.18	-40.6	-59.7	3.8	7.46e-01	0	56	104	0	52	32990
2026-01-26 02:53:16.31	1.50	6.24	-40.6	-59.7	3.8	7.42e-01	0	56	104	0	52	32972
2026-01-26 02:53:17.32	1.40	6.31	-40.6	-59.7	3.8	7.43e-01	0	56	104	0	52	32942
2026-01-26 02:53:18.33	1.29	6.38	-40.6	-59.7	3.8	7.45e-01	0	56	104	0	52	33016
2026-01-26 02:53:19.34	1.19	6.44	-40.6	-59.7	3.8	7.47e-01	0	56	104	0	52	32933
2026-01-26 02:53:20.35	1.09	6.51	-40.6	-59.7	3.8	7.45e-01	0	56	104	0	52	33010
2026-01-26 02:53:21.36	0.99	6.57	-40.6	-59.7	3.8	7.49e-01	0	56	104	0	52	32941
2026-01-26 02:53:22.37	0.88	6.64	-40.6	-59.6	3.8	7.43e-01	0	56	104	0	52	32916
2026-01-26 02:53:23.38	0.78	6.71	-40.6	-59.7	3.8	7.46e-01	0	56	104	0	52	32946
2026-01-26 02:53:24.39	0.67	6.77	-40.6	-59.7	3.8	7.47e-01	0	56	104	0	52	32945
2026-01-26 02:53:25.40	0.57	6.84	-40.6	-59.7	3.8	7.45e-01	0	56	104	0	52	32961
2026-01-26 02:53:26.41	0.46	6.91	-40.6	-59.7	3.8	7.45e-01	0	56	104	0	52	32950
2026-01-26 02:53:27.42	0.36	6.97	-40.6	-59.7	3.8	7.42e-01	0	56	104	0	52	32965
2026-01-26 02:53:28.43	0.25	7.04	-40.6	-59.7	3.8	7.44e-01	0	56	104	0	52	32996
2026-01-26 02:53:29.44	0.14	7.11	-40.6	-59.7	3.8	7.43e-01	0	57	104	0	52	32992
2026-01-26 02:53:30.45	0.04	7.18	-40.6	-59.6	3.8	7.42e-01	0	56	104	0	52	32914
2026-01-26 02:53:31.46	359.93	7.24	-40.6	-59.7	3.8	7.45e-01	0	56	104	0	52	32938
2026-01-26 02:53:32.47	359.82	7.31	-40.6	-59.7	3.8	7.47e-01	0	56	104	0	52	32961
2026-01-26 02:53:33.48	359.71	7.38	-40.6	-59.7	3.8	7.46e-01	0	57	104	0	52	33015
2026-01-26 02:53:34.49	359.60	7.45	-40.6	-59.7	3.8	7.46e-01	0	57	104	0	52	32962
2026-01-26 02:53:35.50	359.49	7.51	-40.6	-59.7	3.8	7.46e-01	0	57	104	0	52	32958
2026-01-26 02:53:36.51	359.38	7.58	-40.6	-59.7	3.8	7.45e-01	0	57	104	0	52	32941
2026-01-26 02:53:37.52	359.26	7.65	-40.6	-59.7	3.8	7.45e-01	0	57	104	0	52	32929
2026-01-26 02:53:38.53	359.15	7.72	-40.6	-59.7	3.8	7.43e-01	0	57	104	0	52	32954
2026-01-26 02:53:39.53	359.04	7.79	-40.6	-59.7	3.8	7.46e-01	0	57	104	0	52	32943
2026-01-26 02:53:40.54	358.93	7.85	-40.6	-59.7	3.8	7.45e-01	0	57	104	0	52	32955
2026-01-26 02:53:41.55	358.81	7.92	-40.6	-59.6	3.8	7.43e-01	0	57	104	0	52	32897
2026-01-26 02:53:42.56	358.70	7.99	-40.6	-59.6	3.8	7.44e-01	0	57	104	0	52	32870
2026-01-26 02:53:43.57	358.58	8.06	-40.6	-59.7	3.8	7.45e-01	0	57	104	0	52	32976
2026-01-26 02:53:44.58	358.46	8.13	-40.8	-59.8	3.8	7.43e-01	0	57	104	0	52	33537
2026-01-26 02:53:45.59	358.35	8.20	-40.8	-59.8	3.8	7.44e-01	0	57	104	0	52	33529
2026-01-26 02:53:46.60	358.23	8.27	-40.9	-59.9	3.8	7.45e-01	0	57	104	0	52	33749
2026-01-26 02:53:47.61	358.11	8.33	-40.8	-59.9	3.8	7.50e-01	0	57	104	0	52	33765
2026-01-26 02:53:48.62	357.99	8.40	-40.9	-59.9	3.8	7.44e-01	0	57	104	0	52	33898
2026-01-26 02:53:49.63	357.87	8.47	-40.8	-59.8	3.8	7.43e-01	0	57	104	0	52	33690
2026-01-26 02:53:50.64	357.75	8.54	-40.9	-59.9	3.8	7.44e-01	0	57	104	0	52	33896
2026-01-26 02:53:51.65	357.63	8.61	-40.8	-59.9	3.8	7.43e-01	0	57	104	0	52	33815
2026-01-26 02:53:52.66	357.51	8.68	-40.8	-59.9	3.8	7.43e-01	0	57	104	0	52	33807
2026-01-26 02:53:53.67	357.39	8.75	-40.8	-59.8	3.8	7.46e-01	0	57	104	0	52	33687
2026-01-26 02:53:54.68	357.27	8.82	-40.9	-59.9	3.8	7.46e-01	0	57	104	0	52	33810
2026-01-26 02:53:55.69	357.14	8.89	-40.9	-59.9	3.8	7.49e-01	0	57	104	0	52	33862
2026-01-26 02:53:56.70	357.02	8.96	-40.9	-59.9	3.8	7.47e-01	0	57	104	0	52	33934
2026-01-26 02:53:57.71	356.90	9.03	-40.8	-59.8	3.8	7.42e-01	0	57	104	0	52	33563
2026-01-26 02:53:58.72	356.77	9.10	-40.9	-59.9	3.8	7.46e-01	0	58	104	0	52	33825
2026-01-26 02:53:59.72	356.65	9.17	-40.9	-59.9	3.8	7.45e-01	0	58	104	0	52	33761
2026-01-26 02:54:00.73	356.52	9.24	-40.9	-59.9	3.8	7.50e-01	0	58	104	0	52	33852
2026-01-26 02:54:01.74	356.39	9.31	-40.8	-59.8	3.8	7.45e-01	0	58	104	0	52	33545
2026-01-26 02:54:02.75	356.26	9.38	-40.9	-60.0	3.8	7.49e-01	0	58	104	0	52	34127
2026-01-26 02:54:03.76	356.14	9.45	-40.8	-59.8	3.8	7.44e-01	0	58	104	0	52	33694
2026-01-26 02:54:04.77	356.01	9.52	-41.0	-60.0	3.8	7.47e-01	0	58	104	0	52	34340
2026-01-26 02:54:05.78	355.88	9.59	-40.8	-59.9	3.8	7.48e-01	0	58	104	0	52	33757
2026-01-26 02:54:06.79	355.75	9.66	-41.1	-60.1	3.8	7.44e-01	0	58	104	0	52	34703
2026-01-26 02:54:07.80	355.61	9.74	-40.9	-59.9	3.8	7.47e-01	0	58	104	0	52	33883
2026-01-26 02:54:08.81	355.48	9.81	-41.1	-60.2	3.8	7.44e-01	0	58	104	0	52	34998
2026-01-26 02:54:09.82	355.35	9.88	-40.9	-59.9	3.8	7.48e-01	0	58	104	0	52	33948
2026-01-26 02:54:10.83	355.22	9.95	-41.2	-60.2	3.8	7.46e-01	0	58	104	0	52	34927
2026-01-26 02:54:11.84	355.08	10.02	-41.0	-60.0	3.8	7.44e-01	0	58	104	0	52	34390
2026-01-26 02:54:12.85	354.95	10.09	-41.2	-60.3	3.8	7.47e-01	0	58	104	0	53	33455
2026-01-26 02:54:13.86	354.81	10.16	-41.0	-60.0	3.8	7.44e-01	0	58	104	0	53	32391
2026-01-26 02:54:14.87	354.67	10.23	-41.2	-60.2	3.8	7.47e-01	0	58	104	0	53	33298
2026-01-26 02:54:15.88	354.54	10.31	-41.1	-60.1	3.8	7.45e-01	0	58	104	0	53	32768
2026-01-26 02:54:16.89	354.40	10.38	-41.3	-60.3	3.8	7.47e-01	0	58	104	0	53	33486
2026-01-26 02:54:17.90	354.26	10.45	-41.1	-60.1	3.8	7.44e-01	0	58	104	0	53	32696
2026-01-26 02:54:18.91	354.12	10.52	-41.2	-60.2	3.8	7.44e-01	0	58	104	0	53	33139
2026-01-26 02:54:19.92	353.98	10.59	-41.2	-60.2	3.8	7.43e-01	0	58	104	0	53	33130
2026-01-26 02:54:20.93	353.84	10.67	-41.3	-60.3	3.8	7.41e-01	0	58	104	0	53	33423
2026-01-26 02:54:21.95	353.70	10.74	-41.1	-60.1	3.8	7.45e-01	0	58	104	0	53	32892
2026-01-26 02:54:22.95	353.56	10.81	-41.4	-60.3	3.8	7.48e-01	0	58	104	0	53	33562
2026-01-26 02:54:23.96	353.41	10.88	-41.2	-60.2	3.8	7.43e-01	0	58	104	0	53	33222
2026-01-26 02:54:24.97	353.27	10.95	-41.3	-60.3	3.8	7.45e-01	0	58	104	0	53	33509
2026-01-26 02:54:25.98	353.12	11.03	-41.3	-60.2	3.8	7.43e-01	0	58	104	0	53	33257
2026-01-26 02:54:26.99	352.98	11.10	-41.6	-60.6	3.8	7.45e-01	0	58	104	0	53	34642
2026-01-26 02:54:28.00	352.83	11.17	-41.2	-60.2	3.8	7.44e-01	0	58	104	0	53	33190
2026-01-26 02:54:29.01	352.68	11.24	-41.4	-60.4	3.8	7.47e-01	0	58	104	0	53	33904
2026-01-26 02:54:30.02	352.54	11.32	-41.4	-60.4	3.8	7.45e-01	0	58	104	0	53	33780
2026-01-26 02:54:31.03	352.39	11.39	-41.6	-60.6	3.8	7.45e-01	0	58	104	0	53	34515
2026-01-26 02:54:32.04	352.24	11.46	-41.4	-60.3	3.8	7.42e-01	0	58	104	0	54	31754
2026-01-26 02:54:33.04	352.09	11.53	-41.4	-60.4	3.8	7.45e-01	0	58	104	0	54	31847
2026-01-26 02:54:34.05	351.94	11.61	-41.4	-60.3	3.8	7.48e-01	0	58	104	0	54	31745
2026-01-26 02:54:35.06	351.78	11.68	-41.4	-60.3	3.8	7.46e-01	0	58	104	0	54	31738
2026-01-26 02:54:36.07	351.63	11.75	-41.5	-60.4	3.8	7.46e-01	0	58	104	0	54	32108
2026-01-26 02:54:37.08	351.48	11.83	-41.6	-60.6	3.8	7.46e-01	0	59	104	0	54	32673
2026-01-26 02:54:38.09	351.32	11.90	-41.7	-60.7	3.8	7.46e-01	0	58	104	0	54	33072
2026-01-26 02:54:39.10	351.17	11.97	-41.6	-60.6	3.8	7.45e-01	0	58	104	0	54	32883
2026-01-26 02:54:40.11	351.01	12.05	-41.7	-60.7	3.8	7.44e-01	0	59	104	0	54	32950
2026-01-26 02:54:41.12	350.85	12.12	-41.6	-60.6	3.8	7.45e-01	0	59	104	0	54	32871
2026-01-26 02:54:42.13	350.70	12.19	-41.6	-60.5	3.8	7.51e-01	0	58	104	0	54	32507
2026-01-26 02:54:43.14	350.54	12.26	-41.9	-60.9	3.8	7.48e-01	0	59	104	0	54	33750
2026-01-26 02:54:44.15	350.38	12.34	-41.8	-60.7	3.8	7.46e-01	0	59	104	0	54	33259
2026-01-26 02:54:45.16	350.22	12.41	-41.7	-60.7	3.8	7.43e-01	0	59	104	0	54	33092
2026-01-26 02:54:46.17	350.05	12.48	-41.7	-60.7	3.8	7.48e-01	0	59	104	0	54	33000
2026-01-26 02:54:47.18	349.89	12.56	-41.9	-60.8	3.8	7.46e-01	0	58	104	0	54	33597
2026-01-26 02:54:48.19	349.73	12.63	-41.7	-60.6	3.8	7.45e-01	0	59	104	0	54	32602
2026-01-26 02:54:49.20	349.56	12.71	-42.0	-61.0	3.8	7.47e-01	0	59	104	0	54	34126
2026-01-26 02:54:50.21	349.40	12.78	-41.6	-60.6	3.8	7.43e-01	0	59	104	0	54	32765
2026-01-26 02:54:51.22	349.23	12.85	-41.8	-60.8	3.8	7.41e-01	0	59	104	0	54	33486
2026-01-26 02:54:52.23	349.07	12.93	-41.9	-60.7	3.8	7.48e-01	0	59	104	0	54	33240
2026-01-26 02:54:53.24	348.90	13.00	-42.1	-61.0	3.8	7.43e-01	0	59	104	0	54	34214
2026-01-26 02:54:54.25	348.73	13.07	-41.8	-60.7	3.8	7.44e-01	0	59	104	0	54	33051
2026-01-26 02:54:55.26	348.56	13.15	-42.1	-61.0	3.8	7.46e-01	0	59	104	0	54	34203
2026-01-26 02:54:56.27	348.39	13.22	-42.0	-60.8	3.8	7.45e-01	0	59	104	0	54	33564
2026-01-26 02:54:57.28	348.22	13.29	-42.2	-61.0	3.8	7.48e-01	0	59	104	0	55	32374
2026-01-26 02:54:58.29	348.04	13.37	-42.1	-61.0	3.8	7.45e-01	0	59	104	0	55	32352
2026-01-26 02:54:59.30	347.87	13.44	-42.2	-61.1	3.8	7.45e-01	0	59	104	0	55	32691
2026-01-26 02:55:00.31	347.70	13.51	-42.1	-60.8	3.8	7.43e-01	0	59	104	0	55	31709
2026-01-26 02:55:01.32	347.52	13.59	-42.2	-61.1	3.8	7.47e-01	0	59	104	0	55	32580
2026-01-26 02:55:02.33	347.34	13.66	-42.2	-61.1	3.8	7.45e-01	0	59	104	0	55	32712
2026-01-26 02:55:03.34	347.17	13.74	-42.3	-61.2	3.8	7.50e-01	0	59	104	0	55	33201
2026-01-26 02:55:04.35	346.99	13.81	-42.1	-60.9	3.8	7.41e-01	0	59	104	0	55	31994
2026-01-26 02:55:05.36	346.81	13.88	-42.1	-61.0	3.8	7.42e-01	0	59	104	0	55	32365
2026-01-26 02:55:06.36	346.63	13.96	-42.2	-61.2	3.8	7.42e-01	0	59	104	0	55	32982
2026-01-26 02:55:07.37	346.45	14.03	-42.3	-61.2	3.8	7.47e-01	0	59	104	0	55	33148
2026-01-26 02:55:08.38	346.27	14.10	-41.9	-60.8	3.8	7.46e-01	0	59	104	0	55	31555
2026-01-26 02:55:09.39	346.09	14.18	-41.9	-60.7	3.8	7.45e-01	0	59	104	0	55	31442
2026-01-26 02:55:10.40	345.90	14.25	-41.8	-60.6	3.8	7.42e-01	0	59	104	0	55	31066
2026-01-26 02:55:11.42	345.71	14.32	-41.8	-60.6	3.8	7.47e-01	0	59	104	0	55	31019
2026-01-26 02:55:12.43	345.53	14.40	-41.8	-60.6	3.8	7.44e-01	0	59	104	0	55	31082
2026-01-26 02:55:13.44	345.34	14.47	-41.7	-60.7	3.8	7.46e-01	0	59	104	0	55	31206
2026-01-26 02:55:14.45	345.15	14.54	-42.0	-61.0	3.8	7.45e-01	0	59	104	0	55	32222
2026-01-26 02:55:15.46	344.96	14.62	-41.8	-60.8	3.8	7.44e-01	0	59	104	0	55	31575
2026-01-26 02:55:16.47	344.77	14.69	-41.9	-60.8	3.8	7.47e-01	0	59	104	0	55	31773
2026-01-26 02:55:17.48	344.58	14.76	-42.0	-60.9	3.8	7.44e-01	0	59	104	0	55	31988
2026-01-26 02:55:18.49	344.39	14.84	-41.7	-60.6	3.8	7.44e-01	0	59	104	0	55	30892
2026-01-26 02:55:19.50	344.20	14.91	-41.8	-60.8	3.8	7.43e-01	0	59	104	0	55	31480
2026-01-26 02:55:20.51	344.00	14.98	-42.0	-61.0	3.8	7.45e-01	0	59	104	0	55	32311
2026-01-26 02:55:21.52	343.81	15.05	-41.7	-60.7	3.8	7.43e-01	0	59	104	0	55	31171
2026-01-26 02:55:22.52	343.61	15.13	-41.6	-60.6	3.8	7.46e-01	0	59	104	0	55	30809
2026-01-26 02:55:23.53	343.41	15.20	-41.7	-60.7	3.8	7.47e-01	0	59	104	0	55	31215
2026-01-26 02:55:24.54	343.22	15.27	-41.7	-60.7	3.8	7.45e-01	0	59	104	0	55	31391
2026-01-26 02:55:25.55	343.02	15.34	-41.7	-60.7	3.8	7.47e-01	0	59	104	0	55	31401
2026-01-26 02:55:26.56	342.82	15.42	-41.6	-60.6	3.8	7.44e-01	0	59	104	0	55	30946
2026-01-26 02:55:27.57	342.61	15.49	-41.8	-60.8	3.8	7.43e-01	0	60	104	0	55	31612
2026-01-26 02:55:28.58	342.41	15.56	-41.7	-60.7	3.8	7.48e-01	0	59	104	0	55	31385
2026-01-26 02:55:29.60	342.21	15.63	-41.7	-60.7	3.8	7.45e-01	0	59	104	0	55	31153
2026-01-26 02:55:30.61	342.00	15.71	-41.5	-60.5	3.8	7.45e-01	0	59	104	0	54	32438
2026-01-26 02:55:31.62	341.80	15.78	-41.7	-60.7	3.8	7.48e-01	0	60	104	0	54	32985
2026-01-26 02:55:32.63	341.59	15.85	-41.5	-60.6	3.8	7.44e-01	0	59	104	0	54	32584
2026-01-26 02:55:33.64	341.38	15.92	-41.6	-60.6	3.8	7.48e-01	0	60	104	0	54	32839
2026-01-26 02:55:34.65	341.17	15.99	-41.9	-60.9	3.8	7.45e-01	0	59	104	0	54	33698
2026-01-26 02:55:35.66	340.96	16.06	-41.7	-60.7	3.8	7.44e-01	0	60	104	0	54	33015
2026-01-26 02:55:36.67	340.75	16.13	-41.6	-60.6	3.8	7.45e-01	0	60	104	0	54	32552
2026-01-26 02:55:37.68	340.54	16.21	-42.0	-60.9	3.8	7.47e-01	0	60	104	0	54	33913
2026-01-26 02:55:38.69	340.32	16.28	-42.3	-59.8	3.9	7.45e-01	0	59	104	0	55	28287
2026-01-26 02:55:39.70	340.11	16.35	-41.9	-60.8	3.8	7.45e-01	0	60	104	0	55	31762
2026-01-26 02:55:40.71	339.89	16.42	-42.3	-57.4	4.0	7.36e-01	0	60	104	0	55	21416
2026-01-26 02:55:41.72	339.68	16.49	-43.2	-54.0	7.1	6.62e-01	92	60	0	1048576	56	13651
2026-01-26 02:55:42.73	339.46	16.56	-43.5	-53.5	7.9	6.47e-01	91	60	0	2621440	57	12199
2026-01-26 02:55:43.74	339.24	16.63	-43.6	-53.3	8.3	6.38e-01	42	60	0	4718592	57	11906
2026-01-26 02:55:44.75	339.02	16.70	-43.5	-52.4	9.3	6.26e-01	0	60	0	6815744	57	10673
2026-01-26 02:55:45.76	338.80	16.77	-43.2	-50.5	11.3	6.11e-01	0	60	0	8388608	57	8602
2026-01-26 02:55:46.77	338.58	16.84	-42.7	-48.4	13.6	6.04e-01	0	60	0	10485760	57	6744
2026-01-26 02:55:47.78	338.35	16.91	-42.1	-46.6	15.6	6.03e-01	0	60	0	12058624	56	5820
2026-01-26 02:55:48.79	338.13	16.98	-41.4	-45.2	17.0	6.03e-01	0	60	0	14155776	54	5574
2026-01-26 02:55:49.80	337.90	17.04	-41.2	-44.8	17.6	6.01e-01	0	60	0	16252928	54	5303
2026-01-26 02:55:50.81	337.68	17.11	-41.7	-45.5	17.1	6.05e-01	0	60	0	17825792	54	5763
2026-01-26 02:55:51.82	337.45	17.18	-41.9	-45.8	16.9	6.02e-01	0	60	0	19922944	54	5943
2026-01-26 02:55:52.83	337.22	17.25	-41.7	-45.5	17.2	6.01e-01	0	60	0	21495808	54	5737
2026-01-26 02:55:53.84	336.99	17.32	-41.8	-45.5	17.2	6.01e-01	0	60	0	23592960	54	5779
2026-01-26 02:55:54.85	336.76	17.38	-41.7	-45.3	17.4	6.03e-01	0	60	0	25690112	54	5631
2026-01-26 02:55:55.86	336.53	17.45	-41.5	-44.9	17.9	6.02e-01	0	60	0	27262976	54	5387
2026-01-26 02:55:56.87	336.29	17.52	-41.6	-45.1	17.8	6.03e-01	0	60	0	29360128	54	5471
2026-01-26 02:55:57.88	336.06	17.59	-41.5	-44.9	18.0	6.05e-01	0	60	0	31457280	54	5345
2026-01-26 02:55:58.88	335.83	17.65	-41.5	-44.8	18.1	6.04e-01	0	60	0	33030144	54	5339
2026-01-26 02:55:59.89	335.59	17.72	-41.6	-44.9	18.1	6.04e-01	0	60	0	35127296	54	5363
2026-01-26 02:56:00.90	335.35	17.78	-41.7	-45.1	17.9	6.01e-01	0	60	0	36700160	54	5501
2026-01-26 02:56:01.91	335.11	17.85	-41.7	-45.1	18.0	6.04e-01	0	60	0	38797312	54	5506
2026-01-26 02:56:02.92	334.87	17.91	-41.5	-44.8	18.2	6.02e-01	0	60	0	40894464	54	5325
2026-01-26 02:56:03.93	334.63	17.98	-41.5	-44.8	18.3	6.02e-01	0	60	0	42467328	54	5284
2026-01-26 02:56:04.94	334.39	18.04	-41.5	-44.7	18.4	6.03e-01	0	60	0	44564480	54	5240
2026-01-26 02:56:05.95	334.15	18.11	-41.5	-44.7	18.2	6.02e-01	0	60	0	46137344	54	5233
2026-01-26 02:56:06.96	333.90	18.17	-41.5	-44.7	18.4	6.02e-01	0	60	0	48234496	54	5266
2026-01-26 02:56:07.97	333.66	18.24	-41.5	-44.7	18.4	6.04e-01	0	60	0	50331648	54	5277
2026-01-26 02:56:08.98	333.41	18.30	-41.5	-44.8	18.4	6.03e-01	0	60	0	51904512	54	5292
2026-01-26 02:56:09.99	333.16	18.36	-41.5	-44.7	18.4	6.02e-01	0	60	0	54001664	54	5271
2026-01-26 02:56:11.00	332.91	18.43	-41.6	-44.8	18.3	6.02e-01	0	60	0	55574528	54	5323
2026-01-26 02:56:12.01	332.66	18.49	-41.7	-44.9	18.3	6.01e-01	0	60	0	57671680	54	5383
2026-01-26 02:56:13.02	332.41	18.55	-41.7	-44.9	18.2	6.03e-01	0	60	0	59768832	54	5401
2026-01-26 02:56:14.03	332.16	18.61	-41.7	-45.0	18.2	6.03e-01	0	60	0	61341696	54	5410
2026-01-26 02:56:15.04	331.91	18.67	-41.6	-44.8	18.3	6.05e-01	0	60	0	63438848	54	5321
2026-01-26 02:56:16.05	331.65	18.73	-41.6	-44.9	18.3	6.02e-01	0	60	0	65011712	54	5343
2026-01-26 02:56:17.06	331.40	18.80	-41.5	-44.8	18.3	6.02e-01	0	60	0	67108864	54	5323
2026-01-26 02:56:18.07	331.14	18.86	-41.6	-44.9	18.3	6.00e-01	0	60	0	69206016	54	5346
2026-01-26 02:56:19.08	330.88	18.92	-41.7	-45.0	18.2	6.01e-01	0	60	0	70778880	54	5445
2026-01-26 02:56:20.09	330.62	18.97	-41.7	-45.1	18.1	6.02e-01	0	60	0	72876032	54	5474
2026-01-26 02:56:21.10	330.36	19.03	-41.6	-45.0	18.2	6.02e-01	0	60	0	74973184	54	5429
2026-01-26 02:56:22.11	330.10	19.09	-41.6	-44.9	18.1	6.03e-01	0	60	0	76546048	54	5392
2026-01-26 02:56:23.12	329.84	19.15	-41.5	-45.0	18.1	6.03e-01	0	60	0	78643200	54	5417
2026-01-26 02:56:24.13	329.58	19.21	-41.4	-44.9	18.2	6.01e-01	0	60	0	80216064	54	5363
2026-01-26 02:56:25.14	329.31	19.26	-41.4	-44.9	18.3	6.01e-01	0	60	0	82313216	54	5384
2026-01-26 02:56:26.15	329.05	19.32	-41.5	-44.9	18.3	6.02e-01	0	60	0	84410368	54	5399
2026-01-26 02:56:27.16	328.78	19.38	-41.6	-45.0	18.2	6.03e-01	0	60	0	85983232	54	5443
2026-01-26 02:56:28.17	328.51	19.43	-41.6	-45.0	18.1	6.03e-01	0	60	0	88080384	54	5451
2026-01-26 02:56:29.18	328.25	19.49	-41.5	-45.1	18.0	6.03e-01	0	60	0	89653248	54	5477
2026-01-26 02:56:30.19	327.98	19.54	-41.2	-45.0	17.9	6.01e-01	0	60	0	91750400	54	5405
2026-01-26 02:56:31.20	327.71	19.60	-41.0	-44.9	17.7	6.03e-01	0	60	0	93847552	54	5385
2026-01-26 02:56:32.21	327.44	19.65	-41.3	-45.0	17.7	6.02e-01	0	60	0	95420416	54	5432
2026-01-26 02:56:33.22	327.16	19.70	-41.6	-45.0	18.0	6.03e-01	0	60	0	97517568	54	5453
2026-01-26 02:56:34.23	326.89	19.76	-41.7	-45.0	18.2	6.05e-01	0	60	0	99614720	54	5446
2026-01-26 02:56:35.24	326.62	19.81	-41.6	-45.0	18.1	6.02e-01	0	60	0	101187584	54	5458
2026-01-26 02:56:36.25	326.34	19.86	-41.6	-45.0	18.2	6.02e-01	0	60	0	103284736	54	5458
2026-01-26 02:56:37.26	326.06	19.91	-41.7	-45.1	18.1	6.03e-01	0	60	0	104857600	54	5521
2026-01-26 02:56:38.27	325.79	19.96	-41.8	-45.2	18.0	6.01e-01	0	60	0	106954752	54	5569
2026-01-26 02:56:39.28	325.51	20.01	-41.9	-45.2	18.0	6.03e-01	0	60	0	109051904	54	5592
2026-01-26 02:56:40.29	325.23	20.06	-41.8	-45.1	18.2	6.01e-01	0	60	0	110624768	54	5519
2026-01-26 02:56:41.31	324.95	20.11	-41.8	-45.0	18.3	6.02e-01	0	60	0	112721920	54	5442
2026-01-26 02:56:42.31	324.67	20.16	-41.8	-45.0	18.2	6.00e-01	0	60	0	114819072	54	5447
2026-01-26 02:56:43.32	324.39	20.20	-41.8	-45.1	18.2	6.05e-01	0	60	0	116391936	54	5483
2026-01-26 02:56:44.34	324.10	20.25	-41.8	-45.1	18.2	6.01e-01	0	60	0	118489088	54	5491
2026-01-26 02:56:45.35	323.82	20.30	-41.8	-45.2	18.1	6.02e-01	0	60	0	120061952	54	5575
2026-01-26 02:56:46.36	323.53	20.34	-41.7	-45.2	18.0	6.01e-01	0	60	0	122159104	54	5572
2026-01-26 02:56:47.36	323.25	20.39	-41.8	-45.2	18.1	6.02e-01	0	60	0	124256256	54	5550
2026-01-26 02:56:48.37	322.96	20.43	-41.9	-45.3	18.0	6.05e-01	0	60	0	125829120	54	5598
2026-01-26 02:56:49.38	322.67	20.47	-41.9	-45.3	17.9	6.01e-01	0	60	0	127926272	54	5622
2026-01-26 02:56:50.39	322.39	20.52	-41.8	-45.1	18.2	6.03e-01	0	60	0	129499136	54	5513
2026-01-26 02:56:51.40	322.10	20.56	-41.9	-45.3	18.1	6.01e-01	0	60	0	131596288	54	5613
2026-01-26 02:56:52.41	321.81	20.60	-41.9	-45.2	18.1	6.03e-01	0	60	0	133169152	54	5588
2026-01-26 02:56:53.42	321.51	20.64	-41.9	-45.2	18.2	6.02e-01	0	60	0	135266304	54	5574
2026-01-26 02:56:54.43	321.22	20.68	-41.9	-45.3	18.2	5.99e-01	0	60	0	137363456	54	5599
2026-01-26 02:56:55.44	320.93	20.72	-41.8	-45.1	18.3	6.02e-01	0	60	0	138936320	54	5506
2026-01-26 02:56:56.45	320.64	20.76	-41.9	-45.3	18.1	6.03e-01	0	60	0	141033472	54	5612
2026-01-26 02:56:57.46	320.34	20.80	-41.9	-45.2	18.2	6.02e-01	0	60	0	143130624	54	5574
2026-01-26 02:56:58.47	320.05	20.84	-41.9	-45.3	18.2	6.01e-01	0	60	0	144703488	54	5607
2026-01-26 02:56:59.48	319.75	20.88	-42.0	-45.3	18.1	6.02e-01	0	60	0	146800640	54	5639
2026-01-26 02:57:00.49	319.46	20.91	-41.9	-45.3	18.1	6.02e-01	0	60	0	148373504	54	5633
2026-01-26 02:57:01.50	319.16	20.95	-41.9	-45.2	18.2	6.03e-01	0	60	0	150470656	54	5555
2026-01-26 02:57:02.51	318.86	20.98	-41.9	-45.3	18.2	6.02e-01	0	60	0	152567808	54	5608
2026-01-26 02:57:03.52	318.56	21.02	-42.0	-45.3	18.1	6.02e-01	0	60	0	154140672	54	5645
2026-01-26 02:57:04.53	318.26	21.05	-41.9	-45.3	18.2	6.02e-01	0	60	0	156237824	54	5594
2026-01-26 02:57:05.54	317.96	21.08	-41.9	-45.2	18.3	6.01e-01	0	60	0	157810688	54	5536
2026-01-26 02:57:06.55	317.66	21.11	-42.0	-45.3	18.2	6.02e-01	0	60	0	159907840	54	5623
2026-01-26 02:57:07.56	317.36	21.14	-41.9	-45.2	18.2	6.01e-01	0	60	0	162004992	54	5590
2026-01-26 02:57:08.57	317.06	21.18	-41.9	-45.2	18.2	6.03e-01	0	60	0	163577856	54	5585
2026-01-26 02:57:09.58	316.76	21.20	-42.0	-45.4	18.1	6.03e-01	0	60	0	165675008	54	5673
2026-01-26 02:57:10.59	316.45	21.23	-42.0	-45.3	18.2	6.03e-01	0	60	0	167772160	54	5622
2026-01-26 02:57:11.60	316.15	21.26	-42.0	-45.3	18.2	6.04e-01	0	60	0	169345024	54	5644
2026-01-26 02:57:12.60	315.85	21.29	-42.0	-45.4	18.2	6.02e-01	0	60	0	171442176	54	5660
2026-01-26 02:57:13.61	315.54	21.31	-41.9	-45.2	18.3	6.03e-01	0	60	0	173015040	54	5564
2026-01-26 02:57:14.62	315.24	21.34	-42.0	-45.4	18.1	6.00e-01	0	60	0	175112192	54	5700
2026-01-26 02:57:15.63	314.93	21.37	-42.1	-45.5	18.0	6.03e-01	0	60	0	177209344	54	5737
2026-01-26 02:57:16.64	314.62	21.39	-42.1	-45.5	17.9	6.03e-01	0	60	0	178782208	54	5783
2026-01-26 02:57:17.65	314.32	21.41	-42.0	-45.3	18.2	6.04e-01	0	60	0	180879360	54	5638
2026-01-26 02:57:18.66	314.01	21.43	-42.1	-45.5	18.0	6.01e-01	0	60	0	182452224	54	5732
2026-01-26 02:57:19.67	313.70	21.46	-42.0	-45.3	18.2	6.04e-01	0	60	0	184549376	54	5617
2026-01-26 02:57:20.68	313.39	21.48	-42.1	-45.5	17.9	6.02e-01	0	60	0	186646528	54	5770
2026-01-26 02:57:21.69	313.08	21.50	-42.1	-45.6	17.8	6.00e-01	0	61	0	188219392	54	5821
2026-01-26 02:57:22.70	312.77	21.52	-42.0	-45.4	17.9	6.03e-01	0	60	0	190316544	54	5711
2026-01-26 02:57:23.71	312.46	21.53	-41.9	-45.2	18.1	6.04e-01	0	60	0	191889408	54	5591
2026-01-26 02:57:24.72	312.15	21.55	-42.0	-45.4	18.0	6.03e-01	0	60	0	193986560	54	5666
2026-01-26 02:57:25.73	311.84	21.57	-42.2	-45.7	17.6	6.04e-01	0	61	0	196083712	54	5872
2026-01-26 02:57:26.74	311.53	21.58	-42.0	-45.4	17.9	6.00e-01	0	60	0	197656576	54	5666
2026-01-26 02:57:27.75	311.22	21.60	-42.0	-45.3	17.9	6.02e-01	0	60	0	199753728	54	5642
2026-01-26 02:57:28.76	310.91	21.61	-41.9	-45.3	18.0	6.02e-01	0	60	0	201326592	54	5606
2026-01-26 02:57:29.77	310.60	21.63	-41.9	-45.2	18.0	6.02e-01	0	61	0	203423744	54	5580
2026-01-26 02:57:30.78	310.29	21.64	-42.2	-45.7	17.5	6.00e-01	0	60	0	205520896	54	5915
2026-01-26 02:57:31.79	309.97	21.65	-42.0	-45.3	17.9	6.00e-01	0	61	0	207093760	55	5338
2026-01-26 02:57:32.80	309.66	21.66	-42.2	-45.8	17.4	6.02e-01	0	60	0	209190912	55	5593
2026-01-26 02:57:33.81	309.35	21.67	-42.0	-45.3	17.9	6.02e-01	0	60	0	211288064	55	5326
2026-01-26 02:57:34.82	309.04	21.68	-41.9	-45.2	17.9	6.01e-01	0	60	0	212860928	55	5241
2026-01-26 02:57:35.83	308.72	21.69	-42.2	-45.7	17.6	6.03e-01	0	61	0	214958080	55	5535
2026-01-26 02:57:36.84	308.41	21.69	-41.9	-45.2	18.0	6.01e-01	0	60	0	216530944	55	5271
2026-01-26 02:57:37.85	308.10	21.70	-42.2	-45.7	17.5	6.03e-01	0	60	0	218628096	55	5533
2026-01-26 02:57:38.86	307.78	21.70	-42.3	-46.0	17.3	6.01e-01	0	61	0	220725248	55	5744
2026-01-26 02:57:39.87	307.47	21.71	-42.1	-45.4	17.8	6.03e-01	0	60	0	222298112	55	5398
2026-01-26 02:57:40.88	307.15	21.71	-42.2	-45.6	17.5	6.02e-01	0	60	0	224395264	55	5507
2026-01-26 02:57:41.89	306.84	21.72	-42.2	-45.7	17.6	6.03e-01	0	60	0	225968128	55	5537
2026-01-26 02:57:42.90	306.53	21.72	-42.0	-45.3	17.9	6.02e-01	0	60	0	228065280	55	5318
2026-01-26 02:57:43.91	306.21	21.72	-42.4	-46.1	17.1	6.05e-01	0	60	0	230162432	55	5842
2026-01-26 02:57:44.92	305.90	21.72	-42.2	-45.7	17.5	6.05e-01	0	60	0	231735296	55	5564
2026-01-26 02:57:45.93	305.58	21.72	-42.0	-45.3	17.9	6.04e-01	0	60	0	233832448	55	5296
2026-01-26 02:57:46.94	305.27	21.72	-42.4	-46.0	17.3	6.02e-01	0	61	0	235929600	55	5752
2026-01-26 02:57:47.95	304.96	21.71	-42.1	-45.5	17.7	6.01e-01	0	61	0	237502464	55	5447
2026-01-26 02:57:48.96	304.64	21.71	-42.1	-45.5	17.7	6.03e-01	0	60	0	239599616	55	5416
2026-01-26 02:57:49.97	304.33	21.71	-42.3	-45.8	17.5	6.02e-01	0	60	0	241172480	55	5622
2026-01-26 02:57:50.98	304.02	21.70	-42.2	-45.7	17.6	6.00e-01	0	60	0	243269632	55	5584
2026-01-26 02:57:51.99	303.70	21.69	-42.2	-45.7	17.6	6.04e-01	0	60	0	245366784	55	5542
2026-01-26 02:57:53.00	303.39	21.69	-42.2	-45.6	17.6	6.03e-01	0	60	0	246939648	55	5508
2026-01-26 02:57:54.01	303.07	21.68	-42.6	-46.4	16.9	6.01e-01	0	60	0	249036800	55	6036
2026-01-26 02:57:55.02	302.76	21.67	-42.0	-45.4	18.0	6.03e-01	0	60	0	251133952	55	5368
2026-01-26 02:57:56.03	302.45	21.66	-41.9	-45.1	18.1	6.03e-01	0	61	0	252706816	55	5217
2026-01-26 02:57:57.04	302.14	21.65	-42.2	-45.7	17.6	6.04e-01	0	60	0	254803968	55	5571
2026-01-26 02:57:58.05	301.82	21.64	-42.1	-45.6	17.8	6.02e-01	0	60	0	256376832	55	5504
2026-01-26 02:57:59.06	301.51	21.63	-42.1	-45.5	17.8	6.04e-01	0	61	0	258473984	55	5448
2026-01-26 02:58:00.07	301.20	21.61	-41.7	-44.8	18.4	6.02e-01	0	60	0	260571136	55	5007
2026-01-26 02:58:01.08	300.89	21.60	-42.4	-46.2	17.1	6.04e-01	0	61	0	262144000	55	5883
2026-01-26 02:58:02.09	300.58	21.59	-41.9	-45.1	18.2	6.01e-01	0	60	0	264241152	55	5198
2026-01-26 02:58:03.10	300.26	21.57	-42.1	-45.6	17.6	6.01e-01	0	61	0	265814016	55	5471
2026-01-26 02:58:04.11	299.95	21.55	-42.1	-45.5	17.8	6.00e-01	0	61	0	267911168	55	5447
2026-01-26 02:58:05.12	299.64	21.54	-42.6	-46.5	16.9	6.01e-01	0	60	0	270008320	55	6108
2026-01-26 02:58:06.12	299.34	21.52	-41.8	-44.9	18.5	6.02e-01	0	61	0	271581184	55	5087
2026-01-26 02:58:07.13	299.03	21.50	-42.2	-45.8	17.6	6.04e-01	0	61	0	273678336	55	5629
2026-01-26 02:58:08.14	298.72	21.48	-41.7	-44.8	18.6	6.00e-01	0	60	0	275251200	55	5033
2026-01-26 02:58:09.16	298.40	21.46	-42.4	-46.1	17.1	6.03e-01	0	60	0	277348352	55	5853
2026-01-26 02:58:10.17	298.10	21.44	-42.1	-45.6	18.0	6.02e-01	0	61	0	279445504	54	5830
2026-01-26 02:58:11.18	297.79	21.42	-41.8	-44.9	18.4	6.03e-01	0	61	0	281018368	55	5084
2026-01-26 02:58:12.19	297.48	21.39	-42.0	-45.4	18.1	6.04e-01	0	61	0	283115520	55	5388
2026-01-26 02:58:13.20	297.17	21.37	-42.3	-45.9	17.5	6.02e-01	0	61	0	284688384	55	5675
2026-01-26 02:58:14.20	296.87	21.34	-42.1	-45.5	18.0	6.04e-01	0	61	0	286785536	55	5447
2026-01-26 02:58:15.22	296.56	21.32	-42.6	-46.4	17.0	6.02e-01	0	61	0	288882688	56	5674
2026-01-26 02:58:16.23	296.26	21.29	-42.6	-46.3	17.4	6.00e-01	0	61	0	290455552	56	5621
2026-01-26 02:58:17.24	295.95	21.27	-42.5	-46.2	17.1	6.01e-01	0	61	0	292552704	57	5267
2026-01-26 02:58:18.25	295.65	21.24	-42.7	-46.7	17.0	6.02e-01	0	61	0	294125568	56	5858
2026-01-26 02:58:19.26	295.34	21.21	-42.5	-46.3	17.1	6.03e-01	0	60	0	296222720	56	5619
2026-01-26 02:58:20.27	295.04	21.18	-42.3	-45.8	17.8	6.04e-01	0	61	0	298319872	56	5286
2026-01-26 02:58:21.28	294.74	21.15	-42.5	-46.2	17.3	6.01e-01	0	61	0	299892736	56	5579
2026-01-26 02:58:22.29	294.43	21.12	-41.8	-45.0	18.4	6.01e-01	0	60	0	301989888	55	5138
2026-01-26 02:58:23.30	294.13	21.09	-43.0	-47.2	16.2	6.02e-01	0	61	0	304087040	56	6230
2026-01-26 02:58:24.31	293.83	21.05	-41.6	-44.7	18.8	6.03e-01	0	61	0	305659904	55	4938
2026-01-26 02:58:25.32	293.53	21.02	-42.7	-46.7	16.7	6.02e-01	0	61	0	307757056	56	5921
2026-01-26 02:58:26.33	293.23	20.99	-41.7	-44.8	18.8	6.03e-01	0	61	0	309329920	55	4990
2026-01-26 02:58:27.34	292.93	20.95	-42.3	-46.0	17.4	6.05e-01	0	61	0	311427072	55	5772
2026-01-26 02:58:28.34	292.64	20.92	-42.2	-45.7	17.8	6.02e-01	0	61	0	313524224	55	5555
2026-01-26 02:58:29.35	292.34	20.88	-42.4	-46.1	17.3	6.01e-01	0	61	0	315097088	55	5826
2026-01-26 02:58:30.37	292.04	20.84	-42.0	-45.3	18.0	6.02e-01	0	61	0	317194240	55	5313
2026-01-26 02:58:31.38	291.75	20.81	-42.1	-45.5	18.0	6.03e-01	0	61	0	319291392	55	5417
2026-01-26 02:58:32.39	291.45	20.77	-41.9	-45.2	18.1	6.04e-01	0	60	0	320864256	55	5270
2026-01-26 02:58:33.40	291.16	20.73	-42.2	-45.8	17.6	6.02e-01	0	61	0	322961408	55	5624
2026-01-26 02:58:34.41	290.86	20.69	-41.9	-45.3	18.2	6.04e-01	0	61	0	324534272	55	5295
2026-01-26 02:58:35.42	290.57	20.65	-42.0	-45.3	18.1	6.02e-01	0	61	0	326631424	55	5317
2026-01-26 02:58:36.42	290.28	20.61	-41.9	-45.2	18.3	6.01e-01	0	61	0	328728576	55	5248
2026-01-26 02:58:37.43	289.99	20.57	-42.2	-45.7	17.7	6.01e-01	0	61	0	330301440	55	5551
2026-01-26 02:58:38.44	289.70	20.52	-41.8	-45.0	18.5	6.05e-01	0	61	0	332398592	55	5129
2026-01-26 02:58:39.45	289.41	20.48	-42.2	-45.7	17.7	6.04e-01	0	61	0	333971456	55	5561
2026-01-26 02:58:40.46	289.12	20.44	-41.8	-45.0	18.5	6.01e-01	0	61	0	336068608	55	5114
2026-01-26 02:58:41.47	288.84	20.39	-42.0	-45.4	18.0	6.03e-01	0	61	0	338165760	55	5393
2026-01-26 02:58:42.48	288.55	20.35	-42.0	-45.3	18.1	6.02e-01	0	61	0	339738624	55	5310
2026-01-26 02:58:43.49	288.26	20.30	-42.0	-45.3	18.1	6.03e-01	0	61	0	341835776	55	5322
2026-01-26 02:58:44.50	287.98	20.26	-42.0	-45.4	18.0	6.00e-01	0	61	0	343408640	55	5364
2026-01-26 02:58:45.51	287.69	20.21	-41.9	-45.2	18.2	6.02e-01	0	61	0	345505792	55	5257
2026-01-26 02:58:46.52	287.41	20.16	-42.0	-45.4	18.0	6.02e-01	0	61	0	347602944	55	5387
2026-01-26 02:58:47.53	287.13	20.11	-41.9	-45.3	18.1	6.01e-01	0	61	0	349175808	55	5319
2026-01-26 02:58:48.54	286.85	20.06	-41.8	-44.9	18.5	6.02e-01	0	61	0	351272960	55	5098
2026-01-26 02:58:49.55	286.57	20.02	-42.1	-45.6	17.8	6.01e-01	0	61	0	352845824	55	5509
2026-01-26 02:58:50.56	286.29	19.97	-42.0	-45.4	17.9	6.03e-01	0	61	0	354942976	55	5389
2026-01-26 02:58:51.57	286.01	19.92	-42.0	-45.4	18.0	6.01e-01	0	61	0	357040128	55	5372
2026-01-26 02:58:52.58	285.73	19.86	-42.4	-46.2	17.2	6.00e-01	0	61	0	358612992	55	5886
2026-01-26 02:58:53.59	285.46	19.81	-41.7	-44.9	18.5	6.02e-01	0	61	0	360710144	55	5071
2026-01-26 02:58:54.60	285.18	19.76	-42.1	-45.6	17.8	6.02e-01	0	61	0	362283008	55	5513
2026-01-26 02:58:55.61	284.91	19.71	-41.9	-45.2	18.2	6.02e-01	0	61	0	364380160	55	5224
2026-01-26 02:58:56.62	284.63	19.65	-41.9	-45.2	18.2	6.02e-01	0	61	0	366477312	55	5278
2026-01-26 02:58:57.63	284.36	19.60	-41.9	-45.2	18.1	6.05e-01	0	61	0	368050176	55	5270
2026-01-26 02:58:58.64	284.09	19.55	-41.7	-44.9	18.5	6.00e-01	0	61	0	370147328	55	5085
2026-01-26 02:58:59.65	283.82	19.49	-42.2	-45.7	17.7	6.05e-01	0	61	0	372244480	55	5573
2026-01-26 02:59:00.66	283.55	19.44	-41.7	-44.9	18.4	6.05e-01	0	61	0	373817344	55	5095
2026-01-26 02:59:01.68	283.28	19.38	-42.1	-45.5	17.9	6.02e-01	0	61	0	375914496	55	5450
2026-01-26 02:59:02.69	283.01	19.32	-42.1	-45.6	17.7	6.02e-01	0	61	0	377487360	55	5471
2026-01-26 02:59:03.70	282.74	19.27	-41.6	-44.6	18.8	6.03e-01	0	61	0	379584512	55	4924
2026-01-26 02:59:04.71	282.48	19.21	-42.2	-45.8	17.6	6.06e-01	0	61	0	381681664	55	5609
2026-01-26 02:59:05.72	282.22	19.15	-41.9	-45.2	18.1	6.01e-01	0	61	0	383254528	55	5238
2026-01-26 02:59:06.73	281.95	19.10	-41.7	-44.8	18.5	6.01e-01	0	61	0	385351680	55	5040
2026-01-26 02:59:07.74	281.69	19.04	-42.3	-46.0	17.4	6.02e-01	0	60	0	387448832	55	5763
2026-01-26 02:59:08.75	281.43	18.98	-41.6	-44.8	18.4	6.03e-01	0	61	0	389021696	55	5018
2026-01-26 02:59:09.76	281.17	18.92	-41.8	-45.0	18.3	6.01e-01	0	61	0	391118848	55	5139
2026-01-26 02:59:10.77	280.91	18.86	-42.2	-46.0	17.3	6.01e-01	0	61	0	392691712	55	5737
2026-01-26 02:59:11.77	280.66	18.80	-41.5	-44.5	18.7	6.02e-01	0	61	0	394788864	55	4858
2026-01-26 02:59:12.78	280.40	18.74	-41.8	-45.0	18.3	6.04e-01	0	61	0	396886016	54	5462
2026-01-26 02:59:13.79	280.14	18.68	-42.1	-45.8	17.5	6.00e-01	0	61	0	398458880	54	5932
2026-01-26 02:59:14.80	279.89	18.62	-41.8	-45.1	18.2	6.00e-01	0	61	0	400556032	54	5523
2026-01-26 02:59:15.81	279.63	18.55	-42.2	-45.8	17.6	6.04e-01	0	61	0	402128896	54	5929
2026-01-26 02:59:16.82	279.38	18.49	-42.0	-45.5	17.7	6.02e-01	0	61	0	404226048	54	5770
2026-01-26 02:59:17.83	279.13	18.43	-41.6	-44.8	18.4	6.05e-01	0	61	0	406323200	54	5303
2026-01-26 02:59:18.84	278.88	18.37	-41.9	-45.3	18.0	6.01e-01	0	61	0	407896064	54	5629
2026-01-26 02:59:19.85	278.63	18.30	-41.9	-45.3	17.9	6.03e-01	0	61	0	409993216	54	5656
2026-01-26 02:59:20.86	278.38	18.24	-41.7	-44.9	18.4	6.02e-01	0	61	0	411566080	54	5378
2026-01-26 02:59:21.87	278.14	18.18	-41.9	-45.2	18.1	6.03e-01	0	61	0	413663232	54	5590
2026-01-26 02:59:22.88	277.89	18.11	-42.2	-45.9	17.4	6.03e-01	0	61	0	415760384	54	6017
2026-01-26 02:59:23.89	277.65	18.05	-41.8	-45.2	18.0	6.01e-01	0	61	0	417333248	54	5545
2026-01-26 02:59:24.90	277.40	17.98	-41.6	-44.8	18.5	5.99e-01	0	61	0	419430400	54	5287
2026-01-26 02:59:25.90	277.16	17.92	-41.8	-45.1	18.2	6.04e-01	0	61	0	421003264	54	5467
2026-01-26 02:59:26.91	276.92	17.85	-41.8	-45.1	18.2	6.03e-01	0	61	0	423100416	54	5505
2026-01-26 02:59:27.92	276.68	17.79	-41.6	-44.8	18.5	6.02e-01	0	61	0	425197568	54	5300
2026-01-26 02:59:28.93	276.44	17.72	-41.7	-44.9	18.4	6.03e-01	0	61	0	426770432	54	5379
2026-01-26 02:59:29.94	276.21	17.65	-41.9	-45.3	18.0	6.03e-01	0	61	0	428867584	54	5619
2026-01-26 02:59:30.95	275.97	17.59	-41.8	-45.1	18.2	6.03e-01	0	61	0	430440448	54	5528
2026-01-26 02:59:31.96	275.73	17.52	-41.8	-45.1	18.2	6.03e-01	0	61	0	432537600	54	5503
2026-01-26 02:59:32.97	275.50	17.45	-41.6	-44.8	18.4	6.03e-01	0	61	0	434634752	54	5337
2026-01-26 02:59:33.98	275.26	17.38	-41.7	-44.9	18.4	6.03e-01	0	61	0	436207616	54	5367
2026-01-26 02:59:34.99	275.03	17.32	-41.7	-44.9	18.3	6.02e-01	0	61	0	438304768	54	5391
2026-01-26 02:59:36.00	274.80	17.25	-41.7	-45.0	18.3	6.00e-01	0	61	0	440401920	54	5404
2026-01-26 02:59:37.01	274.57	17.18	-41.6	-44.9	18.4	6.02e-01	0	61	0	441974784	54	5366
2026-01-26 02:59:38.02	274.34	17.11	-41.7	-45.0	18.3	6.03e-01	0	61	0	444071936	54	5436
2026-01-26 02:59:39.03	274.11	17.04	-41.7	-45.1	18.2	6.03e-01	0	61	0	445644800	54	5474
2026-01-26 02:59:40.03	273.89	16.97	-41.8	-45.1	18.2	6.02e-01	0	61	0	447741952	54	5502
2026-01-26 02:59:41.04	273.66	16.90	-41.7	-45.0	18.3	6.01e-01	0	61	0	449839104	54	5448
2026-01-26 02:59:42.05	273.44	16.84	-41.7	-44.9	18.3	6.02e-01	0	61	0	451411968	54	5392
2026-01-26 02:59:43.06	273.22	16.77	-41.7	-44.9	18.3	6.02e-01	0	61	0	453509120	54	5394
2026-01-26 02:59:44.07	272.99	16.70	-41.7	-44.9	18.3	6.00e-01	0	61	0	455606272	54	5379
2026-01-26 02:59:45.08	272.77	16.63	-41.7	-44.9	18.3	6.02e-01	0	61	0	457179136	54	5390
2026-01-26 02:59:46.09	272.55	16.56	-41.7	-45.1	18.2	6.02e-01	0	61	0	459276288	54	5466
2026-01-26 02:59:47.10	272.33	16.48	-41.8	-45.2	18.0	6.03e-01	0	61	0	460849152	54	5567
2026-01-26 02:59:48.11	272.11	16.41	-41.8	-45.1	18.1	6.01e-01	0	61	0	462946304	54	5493
2026-01-26 02:59:49.12	271.90	16.34	-41.7	-45.0	18.2	6.01e-01	0	61	0	465043456	54	5443
2026-01-26 02:59:50.13	271.68	16.27	-41.7	-45.1	18.2	6.02e-01	0	61	0	466616320	54	5478
2026-01-26 02:59:51.14	271.47	16.20	-41.7	-45.0	18.2	6.04e-01	0	61	0	468713472	54	5441
2026-01-26 02:59:52.15	271.25	16.13	-41.7	-45.1	18.2	6.01e-01	0	61	0	470286336	54	5468
2026-01-26 02:59:53.16	271.04	16.06	-41.7	-44.9	18.3	6.02e-01	0	61	0	472383488	54	5376
2026-01-26 02:59:54.17	270.83	15.99	-41.8	-45.1	18.2	6.03e-01	0	61	0	474480640	54	5495
2026-01-26 02:59:55.18	270.62	15.92	-41.8	-45.1	18.1	6.00e-01	0	61	0	476053504	54	5527
2026-01-26 02:59:56.19	270.41	15.84	-41.8	-45.1	18.1	6.03e-01	0	61	0	478150656	54	5520
2026-01-26 02:59:57.20	270.20	15.77	-41.8	-45.1	18.1	6.02e-01	0	61	0	479723520	54	5514
2026-01-26 02:59:58.21	269.99	15.70	-41.8	-45.1	18.1	6.01e-01	0	61	0	481820672	54	5528
2026-01-26 02:59:59.22	269.79	15.63	-41.7	-45.1	18.1	6.02e-01	0	61	0	483917824	54	5488
2026-01-26 03:00:00.23	269.58	15.56	-41.7	-45.0	18.2	6.03e-01	0	61	0	485490688	54	5461
2026-01-26 03:00:01.24	269.38	15.48	-41.6	-44.9	18.3	6.04e-01	0	61	0	487587840	54	5350
2026-01-26 03:00:02.25	269.18	15.41	-41.6	-44.9	18.3	6.02e-01	0	61	0	489160704	54	5361
2026-01-26 03:00:03.26	268.97	15.34	-41.7	-45.0	18.2	6.01e-01	0	61	0	491257856	54	5464
2026-01-26 03:00:04.27	268.77	15.26	-41.7	-45.1	18.1	6.03e-01	0	61	0	493355008	54	5490
2026-01-26 03:00:05.28	268.57	15.19	-41.8	-45.2	18.0	6.01e-01	0	61	0	494927872	54	5531
2026-01-26 03:00:06.28	268.38	15.12	-41.8	-45.2	18.1	6.04e-01	0	61	0	497025024	54	5531
2026-01-26 03:00:07.30	268.18	15.05	-41.7	-45.0	18.2	6.02e-01	0	61	0	498597888	54	5447
2026-01-26 03:00:08.31	267.98	14.97	-41.7	-45.0	18.2	6.02e-01	0	61	0	500695040	54	5435
2026-01-26 03:00:09.32	267.78	14.90	-41.8	-45.1	18.1	5.99e-01	0	61	0	502792192	54	5516
2026-01-26 03:00:10.33	267.59	14.83	-41.7	-45.1	18.1	6.02e-01	0	61	0	504365056	54	5466
2026-01-26 03:00:11.34	267.40	14.75	-41.7	-45.0	18.2	6.01e-01	0	61	0	506462208	54	5421
2026-01-26 03:00:12.35	267.20	14.68	-41.7	-45.1	18.1	6.02e-01	0	61	0	508559360	54	5466
2026-01-26 03:00:13.36	267.01	14.61	-41.7	-45.0	18.2	6.03e-01	0	61	0	510132224	54	5431
2026-01-26 03:00:14.37	266.82	14.53	-41.7	-45.1	18.1	6.04e-01	0	61	0	512229376	54	5494
2026-01-26 03:00:15.38	266.63	14.46	-41.8	-45.2	18.0	6.01e-01	0	61	0	513802240	54	5534
2026-01-26 03:00:16.38	266.45	14.39	-41.8	-45.1	18.0	6.01e-01	0	61	0	515899392	54	5514
2026-01-26 03:00:17.39	266.26	14.31	-41.7	-45.1	18.1	6.02e-01	0	61	0	517996544	54	5499
2026-01-26 03:00:18.40	266.07	14.24	-41.8	-45.1	18.0	6.03e-01	0	61	0	519569408	54	5527
2026-01-26 03:00:19.41	265.89	14.16	-41.8	-45.2	18.0	6.03e-01	0	61	0	521666560	54	5537
2026-01-26 03:00:20.42	265.70	14.09	-41.8	-45.2	17.9	6.01e-01	0	61	0	523239424	54	5578
2026-01-26 03:00:21.43	265.52	14.02	-41.8	-45.3	17.9	6.03e-01	0	61	0	525336576	54	5603
2026-01-26 03:00:22.44	265.34	13.94	-41.7	-45.1	18.0	6.03e-01	0	61	0	527433728	54	5520
2026-01-26 03:00:23.45	265.15	13.87	-41.7	-45.0	18.1	6.01e-01	0	61	0	529006592	54	5432
2026-01-26 03:00:24.46	264.97	13.80	-41.6	-45.0	18.2	6.02e-01	0	61	0	531103744	54	5416
2026-01-26 03:00:25.47	264.79	13.72	-41.7	-45.1	18.0	6.03e-01	0	61	0	533200896	54	5512
2026-01-26 03:00:26.48	264.62	13.65	-41.8	-45.3	17.9	6.02e-01	0	61	0	534773760	54	5595
2026-01-26 03:00:27.49	264.44	13.57	-41.8	-45.2	17.9	6.02e-01	0	61	0	536870912	54	5584
2026-01-26 03:00:28.50	264.26	13.50	-41.8	-45.2	17.9	6.03e-01	0	61	0	538443776	54	5563
2026-01-26 03:00:29.50	264.09	13.43	-41.8	-45.2	17.9	6.03e-01	0	61	0	540540928	54	5537
2026-01-26 03:00:30.51	263.91	13.35	-41.7	-45.2	17.9	6.04e-01	0	61	0	542638080	54	5549
2026-01-26 03:00:31.52	263.74	13.28	-41.7	-45.1	17.9	6.02e-01	0	61	0	544210944	54	5503
2026-01-26 03:00:32.53	263.57	13.21	-41.8	-45.2	17.9	6.04e-01	0	61	0	546308096	54	5571
2026-01-26 03:00:33.54	263.39	13.13	-41.9	-45.4	17.7	6.03e-01	0	61	0	547880960	54	5677
2026-01-26 03:00:34.55	263.22	13.06	-41.9	-45.5	17.6	6.02e-01	0	61	0	549978112	54	5724
2026-01-26 03:00:35.56	263.05	12.98	-41.8	-45.2	17.8	6.01e-01	0	61	0	552075264	54	5585
2026-01-26 03:00:36.57	262.88	12.91	-41.7	-45.2	17.9	6.01e-01	0	61	0	553648128	54	5529
2026-01-26 03:00:37.58	262.71	12.84	-41.7	-45.1	17.9	6.02e-01	0	61	0	555745280	54	5484
2026-01-26 03:00:38.59	262.55	12.76	-41.8	-45.2	17.8	6.02e-01	0	61	0	557318144	54	5566
2026-01-26 03:00:39.60	262.38	12.69	-41.8	-45.2	17.8	6.04e-01	0	61	0	559415296	54	5579
2026-01-26 03:00:40.61	262.22	12.61	-41.8	-45.3	17.8	6.01e-01	0	61	0	561512448	54	5602
2026-01-26 03:00:41.63	262.05	12.54	-41.9	-45.4	17.6	6.02e-01	0	61	0	563085312	54	5695
2026-01-26 03:00:42.64	261.89	12.47	-41.9	-45.5	17.6	6.04e-01	0	61	0	565182464	54	5725
2026-01-26 03:00:43.65	261.72	12.39	-41.8	-45.4	17.7	6.01e-01	0	61	0	566755328	54	5664
2026-01-26 03:00:44.66	261.56	12.32	-41.8	-45.3	17.7	6.00e-01	0	61	0	568852480	54	5624
2026-01-26 03:00:45.67	261.40	12.24	-41.8	-45.3	17.7	6.03e-01	0	61	0	570949632	54	5650
2026-01-26 03:00:46.68	261.24	12.17	-41.8	-45.3	17.7	6.02e-01	0	61	0	572522496	54	5624
2026-01-26 03:00:47.69	261.08	12.10	-41.8	-45.3	17.7	6.04e-01	0	61	0	574619648	54	5633
2026-01-26 03:00:48.70	260.92	12.02	-41.8	-45.3	17.7	6.01e-01	0	61	0	576716800	54	5617
2026-01-26 03:00:49.71	260.76	11.95	-41.8	-45.3	17.7	6.03e-01	0	61	0	578289664	54	5632
2026-01-26 03:00:50.72	260.61	11.88	-41.9	-45.4	17.6	6.02e-01	0	61	0	580386816	54	5714
2026-01-26 03:00:51.73	260.45	11.80	-41.9	-45.5	17.5	6.01e-01	0	61	0	581959680	54	5742
2026-01-26 03:00:52.74	260.30	11.73	-41.9	-45.5	17.5	6.05e-01	0	61	0	584056832	54	5748
2026-01-26 03:00:53.75	260.14	11.66	-41.9	-45.5	17.5	6.01e-01	0	61	0	586153984	54	5762
2026-01-26 03:00:54.76	259.99	11.58	-41.9	-45.5	17.5	6.01e-01	0	61	0	587726848	54	5765
2026-01-26 03:00:55.77	259.84	11.51	-41.9	-45.4	17.6	6.03e-01	0	61	0	589824000	54	5717
2026-01-26 03:00:56.78	259.68	11.44	-41.9	-45.6	17.4	6.01e-01	0	61	0	591396864	54	5798
2026-01-26 03:00:57.79	259.53	11.36	-41.9	-45.6	17.4	6.01e-01	0	61	0	593494016	54	5838
2026-01-26 03:00:58.80	259.38	11.29	-41.9	-45.6	17.4	5.99e-01	0	61	0	595591168	54	5793
2026-01-26 03:00:59.81	259.23	11.22	-42.0	-45.6	17.3	6.02e-01	0	61	0	597164032	54	5846
2026-01-26 03:01:00.81	259.09	11.15	-41.9	-45.6	17.3	6.00e-01	0	61	0	599261184	54	5849
2026-01-26 03:01:01.82	258.94	11.07	-41.9	-45.6	17.4	6.00e-01	0	61	0	601358336	54	5809
2026-01-26 03:01:02.83	258.79	11.00	-41.9	-45.6	17.3	6.02e-01	0	61	0	602931200	54	5834
2026-01-26 03:01:03.84	258.65	10.93	-41.9	-45.7	17.3	6.02e-01	0	61	0	605028352	54	5865
2026-01-26 03:01:04.85	258.50	10.86	-41.9	-45.6	17.4	6.01e-01	0	61	0	606601216	54	5796
2026-01-26 03:01:05.86	258.36	10.78	-41.9	-45.6	17.3	6.02e-01	0	61	0	608698368	54	5833
2026-01-26 03:01:06.87	258.21	10.71	-42.0	-45.7	17.2	6.03e-01	0	61	0	610795520	54	5917
2026-01-26 03:01:07.88	258.07	10.64	-42.0	-45.7	17.2	6.01e-01	0	61	0	612368384	54	5920
2026-01-26 03:01:08.89	257.93	10.57	-42.0	-45.7	17.2	6.05e-01	0	61	0	614465536	54	5917
2026-01-26 03:01:09.90	257.78	10.49	-42.0	-45.7	17.2	6.02e-01	0	61	0	616038400	54	5886
2026-01-26 03:01:10.91	257.64	10.42	-42.0	-45.7	17.2	6.04e-01	0	61	0	618135552	54	5905
2026-01-26 03:01:11.92	257.50	10.35	-42.0	-45.8	17.1	6.01e-01	0	61	0	620232704	54	5931
2026-01-26 03:01:12.93	257.36	10.28	-41.9	-45.7	17.2	6.02e-01	0	61	0	621805568	54	5877
2026-01-26 03:01:13.94	257.23	10.21	-42.0	-45.7	17.2	6.04e-01	0	61	0	623902720	54	5911
2026-01-26 03:01:14.95	257.09	10.13	-41.9	-45.7	17.2	6.03e-01	0	61	0	625475584	54	5881
2026-01-26 03:01:15.96	256.95	10.06	-42.0	-45.7	17.2	6.03e-01	0	61	0	627572736	54	5903
2026-01-26 03:01:16.97	256.82	9.99	-42.0	-45.8	17.0	6.01e-01	0	61	0	629669888	54	5981
2026-01-26 03:01:17.98	256.68	9.92	-42.0	-45.7	17.1	6.02e-01	0	61	0	631242752	54	5919
2026-01-26 03:01:18.99	256.55	9.85	-42.0	-45.8	17.1	6.01e-01	0	61	0	633339904	54	5928
2026-01-26 03:01:19.99	256.41	9.78	-42.0	-45.8	17.0	6.03e-01	0	61	0	634912768	54	5988
2026-01-26 03:01:21.00	256.28	9.71	-42.0	-45.8	17.0	6.04e-01	0	61	0	637009920	54	5984
2026-01-26 03:01:22.01	256.15	9.63	-42.0	-45.8	17.0	6.02e-01	0	61	0	639107072	54	5951
2026-01-26 03:01:23.02	256.01	9.56	-42.0	-45.8	17.0	6.02e-01	0	61	0	640679936	54	5970
2026-01-26 03:01:24.03	255.88	9.49	-42.1	-46.0	16.9	6.02e-01	0	61	0	642777088	54	6074
2026-01-26 03:01:25.04	255.75	9.42	-42.0	-45.9	16.9	6.03e-01	0	61	0	644874240	54	6061
2026-01-26 03:01:26.05	255.62	9.35	-42.1	-46.1	16.8	6.01e-01	0	61	0	646447104	54	6139
2026-01-26 03:01:27.06	255.49	9.28	-42.1	-46.1	16.7	6.01e-01	0	61	0	648544256	54	6174
2026-01-26 03:01:28.07	255.37	9.21	-42.1	-46.1	16.7	6.02e-01	0	61	0	650117120	54	6169
2026-01-26 03:01:29.08	255.24	9.14	-42.1	-46.1	16.7	6.04e-01	0	61	0	652214272	54	6173
2026-01-26 03:01:30.09	255.11	9.07	-42.1	-46.2	16.6	6.02e-01	0	61	0	654311424	54	6207
2026-01-26 03:01:31.10	254.98	9.00	-42.1	-46.0	16.8	6.04e-01	0	61	0	655884288	54	6123
2026-01-26 03:01:32.11	254.86	8.93	-42.0	-45.9	16.9	6.03e-01	0	61	0	657981440	54	6032
2026-01-26 03:01:33.12	254.73	8.86	-42.0	-45.9	16.8	6.03e-01	0	61	0	659554304	54	6060
2026-01-26 03:01:34.13	254.61	8.79	-42.0	-46.0	16.8	6.02e-01	0	61	0	661651456	54	6066
2026-01-26 03:01:35.14	254.49	8.72	-42.0	-46.0	16.8	6.02e-01	0	61	0	663748608	54	6098
2026-01-26 03:01:36.15	254.36	8.65	-42.1	-46.1	16.7	6.02e-01	0	61	0	665321472	54	6156
2026-01-26 03:01:37.16	254.24	8.58	-42.1	-46.1	16.6	6.03e-01	0	61	0	667418624	54	6194
2026-01-26 03:01:38.17	254.12	8.51	-42.1	-46.2	16.6	6.04e-01	0	61	0	669515776	54	6203
2026-01-26 03:01:39.18	254.00	8.44	-42.1	-46.2	16.6	6.03e-01	0	61	0	671088640	54	6251
2026-01-26 03:01:40.19	253.88	8.37	-42.1	-46.1	16.6	6.03e-01	0	61	0	673185792	54	6199
2026-01-26 03:01:41.20	253.76	8.30	-42.1	-46.1	16.7	6.03e-01	0	61	0	674758656	54	6165
2026-01-26 03:01:42.21	253.64	8.23	-42.1	-46.1	16.7	6.01e-01	0	61	0	676855808	54	6168
2026-01-26 03:01:43.22	253.52	8.16	-42.1	-46.1	16.7	6.03e-01	0	61	0	678952960	54	6176
2026-01-26 03:01:44.23	253.40	8.09	-42.1	-46.1	16.7	6.02e-01	0	61	0	680525824	54	6143
2026-01-26 03:01:45.24	253.28	8.02	-42.1	-46.1	16.6	6.03e-01	0	61	0	682622976	54	6170
2026-01-26 03:01:46.25	253.17	7.95	-45.3	-63.4	3.8	7.42e-01	0	61	104	683671552	61	30152
2026-01-26 03:01:47.26	253.05	7.88	-45.7	-64.0	3.8	7.46e-01	0	61	104	683671552	61	32408
2026-01-26 03:01:48.27	252.93	7.81	-45.9	-64.5	3.8	7.44e-01	0	61	104	683671552	62	32247
2026-01-26 03:01:49.28	252.82	7.75	-46.0	-64.6	3.8	7.44e-01	0	61	104	683671552	62	32653
2026-01-26 03:01:50.29	252.70	7.68	-46.1	-64.7	3.8	7.48e-01	0	61	104	683671552	62	32945
2026-01-26 03:01:51.30	252.59	7.61	-46.2	-64.7	3.8	7.43e-01	0	61	104	683671552	62	33089
2026-01-26 03:01:52.31	252.48	7.54	-46.2	-64.7	3.8	7.44e-01	0	61	104	683671552	62	33170
2026-01-26 03:01:53.32	252.37	7.47	-46.2	-64.8	3.8	7.44e-01	0	61	104	683671552	62	33325
2026-01-26 03:01:54.33	252.25	7.40	-46.2	-64.8	3.8	7.40e-01	0	61	104	683671552	63	31507
2026-01-26 03:01:55.34	252.14	7.34	-46.2	-64.8	3.8	7.47e-01	0	61	104	683671552	63	31497
2026-01-26 03:01:56.35	252.03	7.27	-46.2	-64.7	3.8	7.47e-01	0	61	104	683671552	63	31390
2026-01-26 03:01:57.36	251.92	7.20	-46.1	-64.7	3.8	7.47e-01	0	61	104	683671552	63	31089
2026-01-26 03:01:58.38	251.81	7.13	-46.1	-64.6	3.8	7.46e-01	0	61	104	683671552	63	30952
2026-01-26 03:01:59.39	251.70	7.07	-46.1	-64.6	3.8	7.48e-01	0	61	104	683671552	63	30839
2026-01-26 03:02:00.40	251.59	7.00	-46.1	-64.6	3.8	7.45e-01	0	61	104	683671552	63	30903
2026-01-26 03:02:01.41	251.48	6.93	-46.1	-64.6	3.8	7.46e-01	0	61	104	683671552	63	30992
2026-01-26 03:02:02.42	251.38	6.86	-46.1	-64.6	3.8	7.46e-01	0	61	104	683671552	63	30844
2026-01-26 03:02:03.43	251.27	6.80	-46.1	-64.5	3.8	7.45e-01	0	61	104	683671552	63	30718
2026-01-26 03:02:04.44	251.16	6.73	-46.1	-64.6	3.8	7.48e-01	0	61	104	683671552	63	30745
2026-01-26 03:02:05.45	251.06	6.66	-46.1	-64.6	3.8	7.48e-01	0	61	104	683671552	63	30782
2026-01-26 03:02:06.46	250.95	6.60	-46.0	-64.6	3.8	7.47e-01	0	61	104	683671552	63	30750
2026-01-26 03:02:07.47	250.85	6.53	-46.1	-64.5	3.8	7.50e-01	0	61	104	683671552	62	32549
2026-01-26 03:02:08.48	250.74	6.46	-46.1	-64.5	3.8	7.43e-01	0	61	104	683671552	62	32530
2026-01-26 03:02:09.49	250.64	6.40	-46.0	-64.5	3.8	7.46e-01	0	61	104	683671552	62	32491
2026-01-26 03:02:10.50	250.54	6.33	-46.1	-64.5	3.8	7.46e-01	0	61	104	683671552	62	32480
2026-01-26 03:02:11.51	250.43	6.26	-46.0	-64.5	3.8	7.45e-01	0	61	104	683671552	62	32541
2026-01-26 03:02:12.52	250.33	6.20	-46.0	-64.5	3.8	7.45e-01	0	61	104	683671552	62	32513
2026-01-26 03:02:13.53	250.23	6.13	-46.0	-64.5	3.8	7.44e-01	0	61	104	683671552	62	32501
2026-01-26 03:02:14.54	250.13	6.07	-46.0	-64.5	3.8	7.45e-01	0	61	104	683671552	62	32527
2026-01-26 03:02:15.55	250.03	6.00	-46.0	-64.5	3.8	7.48e-01	0	61	104	683671552	62	32537
2026-01-26 03:02:16.56	249.93	5.93	-46.0	-64.5	3.8	7.44e-01	0	61	104	683671552	62	32478
2026-01-26 03:02:17.58	249.83	5.87	-46.0	-64.5	3.8	7.45e-01	0	61	104	683671552	62	32525
2026-01-26 03:02:18.59	249.73	5.80	-46.0	-64.5	3.8	7.47e-01	0	61	104	683671552	62	32476
2026-01-26 03:02:19.60	249.63	5.74	-46.0	-64.5	3.8	7.47e-01	0	61	104	683671552	62	32516
2026-01-26 03:02:20.61	249.53	5.67	-46.0	-64.5	3.8	7.45e-01	0	61	104	683671552	62	32448
2026-01-26 03:02:21.62	249.43	5.61	-46.0	-64.5	3.8	7.45e-01	0	61	104	683671552	62	32424
2026-01-26 03:02:22.63	249.34	5.54	-46.0	-64.5	3.8	7.44e-01	0	61	104	683671552	62	32488
2026-01-26 03:02:23.64	249.24	5.48	-46.0	-64.5	3.8	7.44e-01	0	61	104	683671552	62	32478
2026-01-26 03:02:24.65	249.14	5.41	-46.0	-64.5	3.8	7.48e-01	0	61	104	683671552	62	32393
2026-01-26 03:02:25.66	249.05	5.35	-46.0	-64.5	3.8	7.45e-01	0	61	104	683671552	62	32451
2026-01-26 03:02:26.67	248.95	5.28	-46.0	-64.5	3.8	7.43e-01	0	61	104	683671552	62	32460
2026-01-26 03:02:27.68	248.86	5.22	-46.0	-64.5	3.8	7.44e-01	0	62	104	683671552	62	32439
2026-01-26 03:02:28.69	248.76	5.15	-46.0	-64.5	3.8	7.48e-01	0	61	104	683671552	62	32357
2026-01-26 03:02:29.70	248.67	5.09	-46.0	-64.5	3.8	7.43e-01	0	61	104	683671552	62	32405
2026-01-26 03:02:30.71	248.58	5.02	-46.0	-64.5	3.8	7.48e-01	0	61	104	683671552	62	32413
2026-01-26 03:02:31.72	248.48	4.96	-46.0	-64.5	3.8	7.47e-01	0	62	104	683671552	62	32462
2026-01-26 03:02:32.73	248.39	4.90	-46.0	-64.5	3.8	7.45e-01	0	61	104	683671552	62	32398
2026-01-26 03:02:33.74	248.30	4.83	-46.0	-64.5	3.8	7.43e-01	0	61	104	683671552	62	32394
2026-01-26 03:02:34.75	248.21	4.77	-46.0	-64.5	3.8	7.43e-01	0	61	104	683671552	62	32365
2026-01-26 03:02:35.76	248.12	4.70	-46.0	-64.5	3.8	7.48e-01	0	61	104	683671552	62	32334
2026-01-26 03:02:36.77	248.03	4.64	-46.0	-64.5	3.8	7.45e-01	0	61	104	683671552	62	32284
2026-01-26 03:02:37.78	247.94	4.58	-46.0	-64.5	3.8	7.47e-01	0	61	104	683671552	62	32315
2026-01-26 03:02:38.79	247.85	4.51	-46.0	-64.5	3.8	7.46e-01	0	62	104	683671552	62	32294
2026-01-26 03:02:39.80	247.76	4.45	-46.0	-64.5	3.8	7.45e-01	0	61	104	683671552	62	32296
2026-01-26 03:02:40.82	247.67	4.39	-46.0	-64.5	3.8	7.44e-01	0	61	104	683671552	62	32240
2026-01-26 03:02:41.83	247.58	4.32	-46.0	-64.5	3.8	7.46e-01	0	61	104	683671552	62	32349
2026-01-26 03:02:42.84	247.49	4.26	-46.0	-64.4	3.8	7.45e-01	0	61	104	683671552	62	32154
2026-01-26 03:02:43.85	247.40	4.20	-45.9	-64.5	3.8	7.48e-01	0	61	104	683671552	62	32198
2026-01-26 03:02:44.86	247.31	4.14	-46.0	-64.4	3.8	7.42e-01	0	62	104	683671552	62	32120
2026-01-26 03:02:45.87	247.23	4.07	-45.9	-64.4	3.8	7.45e-01	0	61	104	683671552	62	32120
2026-01-26 03:02:46.88	247.14	4.01	-45.9	-64.4	3.8	7.44e-01	0	62	104	683671552	62	32095
2026-01-26 03:02:47.89	247.06	3.95	-45.9	-64.4	3.8	7.45e-01	0	61	104	683671552	62	32149
2026-01-26 03:02:48.90	246.97	3.89	-45.9	-64.4	3.8	7.46e-01	0	62	104	683671552	62	32093
2026-01-26 03:02:49.91	246.89	3.82	-45.9	-64.4	3.8	7.47e-01	0	61	104	683671552	62	32077
2026-01-26 03:02:50.92	246.80	3.76	-45.9	-64.4	3.8	7.45e-01	0	61	104	683671552	62	32096
2026-01-26 03:02:51.93	246.72	3.70	-45.9	-64.4	3.8	7.45e-01	0	61	104	683671552	62	32135
2026-01-26 03:02:52.94	246.63	3.64	-45.9	-64.4	3.8	7.45e-01	0	61	104	683671552	62	32113
2026-01-26 03:02:53.95	246.55	3.58	-45.9	-64.4	3.8	7.43e-01	0	61	104	683671552	62	32115
2026-01-26 03:02:54.96	246.47	3.51	-45.9	-64.4	3.8	7.43e-01	0	62	104	683671552	62	32073
2026-01-26 03:02:55.97	246.38	3.45	-45.9	-64.4	3.8	7.43e-01	0	61	104	683671552	62	32160
2026-01-26 03:02:56.98	246.30	3.39	-45.9	-64.4	3.8	7.49e-01	0	61	104	683671552	62	32154
2026-01-26 03:02:57.99	246.22	3.33	-45.9	-64.4	3.8	7.46e-01	0	61	104	683671552	62	32118
2026-01-26 03:02:59.00	246.14	3.27	-45.9	-64.4	3.8	7.47e-01	0	61	104	683671552	62	32112
2026-01-26 03:03:00.01	246.06	3.21	-45.9	-64.4	3.8	7.42e-01	0	61	104	683671552	62	32071
2026-01-26 03:03:01.02	245.97	3.15	-45.9	-64.4	3.8	7.44e-01	0	61	104	683671552	62	32075
2026-01-26 03:03:02.03	245.89	3.09	-45.9	-64.4	3.8	7.45e-01	0	62	104	683671552	62	32170
2026-01-26 03:03:03.04	245.81	3.02	-45.9	-64.4	3.8	7.46e-01	0	61	104	683671552	62	32176
2026-01-26 03:03:04.05	245.73	2.96	-45.9	-64.4	3.8	7.48e-01	0	62	104	683671552	62	32118
2026-01-26 03:03:05.06	245.65	2.90	-45.9	-64.4	3.8	7.44e-01	0	61	104	683671552	62	32161
2026-01-26 03:03:06.07	245.58	2.84	-45.9	-64.4	3.8	7.45e-01	0	61	104	683671552	62	32106
2026-01-26 03:03:07.08	245.50	2.78	-45.9	-64.4	3.8	7.44e-01	0	61	104	683671552	62	32074
2026-01-26 03:03:08.09	245.42	2.72	-45.9	-64.4	3.8	7.45e-01	0	62	104	683671552	62	32096
2026-01-26 03:03:09.11	245.34	2.66	-45.9	-64.4	3.8	7.45e-01	0	61	104	683671552	62	32047
2026-01-26 03:03:10.11	245.26	2.60	-45.9	-64.4	3.8	7.46e-01	0	61	104	683671552	62	32074
2026-01-26 03:03:11.13	245.19	2.54	-45.9	-64.4	3.8	7.45e-01	0	61	104	683671552	62	32117
2026-01-26 03:03:12.14	245.11	2.48	-45.9	-64.4	3.8	7.45e-01	0	62	104	683671552	62	32132
2026-01-26 03:03:13.15	245.03	2.42	-45.9	-64.4	3.8	7.42e-01	0	61	104	683671552	62	32126
2026-01-26 03:03:14.16	244.96	2.36	-45.9	-64.4	3.8	7.43e-01	0	61	104	683671552	62	32108
2026-01-26 03:03:15.17	244.88	2.30	-45.9	-64.4	3.8	7.48e-01	0	61	104	683671552	62	32114
2026-01-26 03:03:16.18	244.81	2.24	-45.9	-64.4	3.8	7.44e-01	0	61	104	683671552	62	32092
2026-01-26 03:03:17.19	244.73	2.18	-45.9	-64.4	3.8	7.43e-01	0	61	104	683671552	62	32105
2026-01-26 03:03:18.20	244.66	2.12	-45.9	-64.4	3.8	7.47e-01	0	61	104	683671552	62	32005
2026-01-26 03:03:19.21	244.58	2.06	-45.9	-64.4	3.8	7.46e-01	0	61	104	683671552	62	32127
2026-01-26 03:03:20.22	244.51	2.00	-45.9	-64.4	3.8	7.47e-01	0	61	104	683671552	62	31946

#Closed at: 2026-01-26 03:03:20
#Recorded file [683 MB]: D:/lorett/data/31039_260126_055209.dat