passes_logs/2026/01/26/R2.0S_Moscow/R2.0S_Moscow__20260126_091911_SUOMI_NPP_rec.log

#Pass ID: 20260126_091911_SUOMI NPP
#Satellite: SUOMI NPP
#Configuration: NPP
#almurnet v.1.7.20251203
#Start time: 2026-01-26 09:19:12

#Version: 2.2.20231116
#Station: R2.0S_Moscow
#Location: 37.707566 lon 55.798166 lat
#TLE: 1 37849U 11061A   26025.81780576  .00000180  00000+0  10635-3 0  9993
#TLE: 2 37849  98.7822 327.7738 0002159  45.0809 315.0541 14.19529973738242

#Time	Az	El	Level	Level2	SNR	BER	BlckErr	Temp	State	Recorded	gain1	gain2
2026-01-26 09:19:12.18	140.83	2.04	-40.5	-56.7	4.2	1.49e+00	0	52	0	0	52	23455
2026-01-26 09:19:13.19	140.80	2.11	-31.1	-53.3	4.1	1.51e+00	0	53	104	0	32	49935
2026-01-26 09:19:14.20	140.77	2.17	-31.8	-52.0	4.4	1.50e+00	0	53	104	0	35	36209
2026-01-26 09:19:15.21	140.74	2.23	-34.2	-55.4	4.0	1.50e+00	0	53	104	0	41	38166
2026-01-26 09:19:16.22	140.71	2.30	-34.7	-56.3	3.7	1.50e+00	0	53	104	0	45	33381
2026-01-26 09:19:17.23	140.69	2.36	-41.6	-53.4	3.9	1.49e+00	0	53	104	0	43	26786
2026-01-26 09:19:18.24	140.66	2.43	-31.2	-52.6	4.4	1.49e+00	0	53	104	0	34	41407
2026-01-26 09:19:19.25	140.63	2.49	-32.8	-54.3	4.0	1.50e+00	0	53	104	0	39	37458
2026-01-26 09:19:20.26	140.60	2.56	-41.3	-55.6	3.7	1.50e+00	0	53	104	0	38	46409
2026-01-26 09:19:21.27	140.57	2.62	-32.1	-53.2	4.2	1.49e+00	0	53	104	0	36	39322
2026-01-26 09:19:22.28	140.54	2.69	-39.1	-53.6	4.3	1.50e+00	0	53	104	0	41	31053
2026-01-26 09:19:23.29	140.51	2.75	-32.7	-53.8	4.1	1.50e+00	0	53	104	0	40	33495
2026-01-26 09:19:24.30	140.48	2.82	-32.1	-53.1	3.9	1.49e+00	0	53	104	0	33	46074
2026-01-26 09:19:25.31	140.45	2.88	-36.3	-54.4	4.3	1.50e+00	0	53	104	0	41	33830
2026-01-26 09:19:26.32	140.43	2.95	-38.4	-55.4	4.1	1.50e+00	0	54	104	0	42	35867
2026-01-26 09:19:27.33	140.40	3.02	-40.1	-55.5	4.0	1.49e+00	0	54	104	0	43	34478
2026-01-26 09:19:28.34	140.37	3.08	-30.7	-54.8	3.6	1.50e+00	0	54	104	0	45	28068
2026-01-26 09:19:29.35	140.34	3.15	-30.5	-48.1	4.1	1.51e+00	0	54	104	0	32	27599
2026-01-26 09:19:30.36	140.31	3.21	-42.0	-56.9	4.0	1.50e+00	0	54	104	0	45	35944
2026-01-26 09:19:31.37	140.28	3.28	-41.6	-55.6	4.2	1.50e+00	0	54	104	0	39	43730
2026-01-26 09:19:32.38	140.25	3.35	-35.7	-50.8	4.0	1.51e+00	0	54	104	0	30	42301
2026-01-26 09:19:33.39	140.22	3.41	-34.8	-52.0	4.2	1.51e+00	0	54	104	0	34	38454
2026-01-26 09:19:34.40	140.18	3.48	-34.6	-54.9	3.9	1.51e+00	0	54	104	0	40	37880
2026-01-26 09:19:35.41	140.15	3.55	-38.7	-55.7	4.3	1.51e+00	0	54	104	0	43	35039
2026-01-26 09:19:36.42	140.12	3.62	-27.4	-43.1	3.8	1.51e+00	0	54	104	0	25	23175
2026-01-26 09:19:37.44	140.09	3.68	-29.4	-49.7	4.5	1.51e+00	0	54	104	0	31	34951
2026-01-26 09:19:38.45	140.06	3.75	-28.3	-46.7	4.3	1.51e+00	0	54	104	0	33	22207
2026-01-26 09:19:39.46	140.03	3.82	-31.0	-49.1	4.0	1.51e+00	0	54	104	0	32	31056
2026-01-26 09:19:40.47	140.00	3.89	-28.0	-51.9	3.9	1.51e+00	0	54	104	0	32	42620
2026-01-26 09:19:41.48	139.97	3.95	-26.7	-42.5	4.2	1.51e+00	0	55	104	0	26	20435
2026-01-26 09:19:42.49	139.93	4.02	-42.6	-57.0	4.2	1.51e+00	0	55	104	0	50	27076
2026-01-26 09:19:43.50	139.90	4.09	-25.9	-42.4	3.7	1.51e+00	0	55	104	0	23	24020
2026-01-26 09:19:44.51	139.87	4.16	-26.5	-42.3	4.0	1.52e+00	0	55	104	0	26	19955
2026-01-26 09:19:45.52	139.84	4.23	-26.5	-44.6	3.7	1.51e+00	0	55	104	0	28	23304
2026-01-26 09:19:46.53	139.80	4.30	-26.1	-43.7	4.0	1.52e+00	0	55	104	0	29	19769
2026-01-26 09:19:47.54	139.77	4.37	-31.1	-46.9	3.8	1.52e+00	0	55	0	0	30	26787
2026-01-26 09:19:48.55	139.74	4.44	-30.0	-47.2	4.0	1.52e+00	0	55	104	0	29	29492
2026-01-26 09:19:49.56	139.71	4.51	-32.4	-53.1	4.4	1.50e+00	0	55	104	0	40	30732
2026-01-26 09:19:50.57	139.67	4.57	-29.0	-47.0	4.3	1.51e+00	0	55	104	0	35	20396
2026-01-26 09:19:51.58	139.64	4.64	-31.7	-45.1	4.5	1.51e+00	0	55	104	0	27	26043
2026-01-26 09:19:52.59	139.61	4.71	-33.2	-48.8	4.0	1.50e+00	0	55	104	0	41	17687
2026-01-26 09:19:53.60	139.57	4.78	-31.1	-50.4	4.0	1.51e+00	0	55	104	0	34	31880
2026-01-26 09:19:54.61	139.54	4.85	-31.1	-45.7	4.2	1.51e+00	0	55	104	0	40	13184
2026-01-26 09:19:55.62	139.50	4.93	-37.4	-53.2	3.9	1.51e+00	0	55	104	0	41	29678
2026-01-26 09:19:56.63	139.47	5.00	-36.6	-54.0	4.5	1.50e+00	0	55	104	0	50	19342
2026-01-26 09:19:57.65	139.44	5.07	-42.2	-56.5	4.1	1.50e+00	0	56	104	0	53	21748
2026-01-26 09:19:58.66	139.40	5.14	-41.9	-56.9	3.8	1.49e+00	0	56	104	0	54	21279
2026-01-26 09:19:59.67	139.37	5.21	-28.0	-45.5	3.8	1.51e+00	0	56	104	0	29	24132
2026-01-26 09:20:00.68	139.33	5.28	-29.5	-44.2	3.8	1.52e+00	0	56	0	0	29	20969
2026-01-26 09:20:01.69	139.30	5.35	-26.9	-42.7	4.1	1.52e+00	0	56	104	0	25	22200
2026-01-26 09:20:02.70	139.26	5.42	-25.8	-44.0	3.7	1.51e+00	0	56	104	0	25	25689
2026-01-26 09:20:03.71	139.23	5.50	-39.4	-49.6	3.5	1.51e+00	0	56	104	0	31	34809
2026-01-26 09:20:04.72	139.19	5.57	-33.9	-51.5	4.2	1.51e+00	0	56	104	0	42	22806
2026-01-26 09:20:05.73	139.15	5.64	-36.9	-56.1	4.1	1.49e+00	0	56	104	0	52	21897
2026-01-26 09:20:06.74	139.12	5.71	-32.0	-51.1	4.1	1.50e+00	0	56	104	0	45	18468
2026-01-26 09:20:07.75	139.08	5.79	-28.5	-44.6	3.9	1.51e+00	0	56	104	0	27	24580
2026-01-26 09:20:08.76	139.04	5.86	-30.1	-48.1	5.0	1.51e+00	0	56	104	0	38	19459
2026-01-26 09:20:09.77	139.01	5.93	-30.7	-45.7	4.1	1.50e+00	0	56	104	0	32	20792
2026-01-26 09:20:10.78	138.97	6.00	-29.4	-44.4	3.8	1.52e+00	0	56	104	0	27	23990
2026-01-26 09:20:11.79	138.93	6.08	-27.3	-44.0	3.9	1.52e+00	0	56	104	0	26	24340
2026-01-26 09:20:12.80	138.90	6.15	-35.7	-51.2	4.4	1.52e+00	0	56	0	0	39	26219
2026-01-26 09:20:13.81	138.86	6.22	-32.7	-48.7	4.2	1.51e+00	0	56	104	0	36	23427
2026-01-26 09:20:14.82	138.82	6.30	-38.8	-52.5	4.0	1.51e+00	0	56	104	0	45	21557
2026-01-26 09:20:15.83	138.78	6.37	-31.1	-50.2	3.8	1.51e+00	0	56	104	0	28	44374
2026-01-26 09:20:16.84	138.75	6.45	-42.3	-56.7	3.8	1.51e+00	0	56	104	0	51	24719
2026-01-26 09:20:17.85	138.71	6.52	-41.7	-55.6	4.1	1.50e+00	0	56	104	0	47	27405
2026-01-26 09:20:18.87	138.67	6.60	-40.9	-56.4	4.0	1.50e+00	0	56	104	0	52	22610
2026-01-26 09:20:19.88	138.63	6.67	-42.0	-55.6	4.1	1.51e+00	0	56	104	0	51	21829
2026-01-26 09:20:20.89	138.59	6.75	-32.8	-50.1	4.4	1.51e+00	0	57	104	0	41	20597
2026-01-26 09:20:21.90	138.55	6.82	-30.2	-44.1	4.3	1.51e+00	0	57	0	0	29	20607
2026-01-26 09:20:22.91	138.51	6.90	-32.9	-51.0	4.3	1.51e+00	0	57	104	0	46	17260
2026-01-26 09:20:23.92	138.47	6.97	-35.6	-55.6	4.0	1.51e+00	0	57	104	0	43	34614
2026-01-26 09:20:24.93	138.43	7.05	-33.3	-55.0	4.1	1.50e+00	0	57	104	0	51	20316
2026-01-26 09:20:25.94	138.39	7.13	-39.9	-52.3	4.1	1.50e+00	0	57	104	0	36	35626
2026-01-26 09:20:26.95	138.35	7.20	-38.3	-56.8	3.6	1.50e+00	0	57	104	0	52	23715
2026-01-26 09:20:27.96	138.31	7.28	-31.7	-51.0	3.7	1.51e+00	0	57	104	0	36	30668
2026-01-26 09:20:28.97	138.27	7.36	-39.7	-56.0	4.1	1.50e+00	0	57	104	0	50	24378
2026-01-26 09:20:29.98	138.23	7.43	-34.6	-54.3	3.9	1.50e+00	0	57	104	0	46	25027
2026-01-26 09:20:30.99	138.19	7.51	-36.9	-54.3	4.4	1.50e+00	0	57	104	0	42	31508
2026-01-26 09:20:32.00	138.15	7.59	-38.0	-55.9	3.6	1.49e+00	0	57	104	0	45	32130
2026-01-26 09:20:33.01	138.11	7.67	-32.4	-54.4	3.7	1.50e+00	0	57	104	0	38	40370
2026-01-26 09:20:34.03	138.07	7.75	-40.9	-56.2	4.0	1.50e+00	0	57	104	0	43	37179
2026-01-26 09:20:35.04	138.02	7.82	-41.1	-55.3	4.0	1.51e+00	0	57	104	0	41	37723
2026-01-26 09:20:36.05	137.98	7.90	-37.2	-57.3	3.8	1.50e+00	0	57	104	0	47	33646
2026-01-26 09:20:37.06	137.94	7.98	-39.0	-54.9	4.1	1.50e+00	0	57	104	0	45	28676
2026-01-26 09:20:38.07	137.90	8.06	-33.6	-54.3	4.0	1.50e+00	0	57	104	0	38	39694
2026-01-26 09:20:39.08	137.85	8.14	-33.6	-55.8	3.8	1.49e+00	0	57	104	0	43	35285
2026-01-26 09:20:40.09	137.81	8.22	-36.7	-55.5	3.8	1.49e+00	0	58	104	0	47	27358
2026-01-26 09:20:41.10	137.77	8.30	-34.8	-54.7	3.4	1.50e+00	0	57	104	0	44	29625
2026-01-26 09:20:42.11	137.72	8.38	-29.3	-44.0	4.0	1.51e+00	0	57	104	0	28	21715
2026-01-26 09:20:43.12	137.68	8.46	-30.9	-47.3	4.2	1.52e+00	0	57	104	0	36	19972
2026-01-26 09:20:44.13	137.63	8.54	-31.7	-45.4	3.9	1.51e+00	0	58	104	0	26	28670
2026-01-26 09:20:45.14	137.59	8.62	-33.8	-52.1	4.3	1.51e+00	0	58	104	0	34	38712
2026-01-26 09:20:46.15	137.54	8.70	-26.8	-52.3	3.8	1.51e+00	0	58	104	0	34	39613
2026-01-26 09:20:47.16	137.50	8.78	-34.9	-50.3	4.0	1.50e+00	0	58	104	0	38	25008
2026-01-26 09:20:48.17	137.45	8.86	-37.8	-55.0	4.1	1.51e+00	0	58	104	0	41	36377
2026-01-26 09:20:49.18	137.41	8.94	-38.5	-54.1	4.5	1.50e+00	0	58	104	0	38	38736
2026-01-26 09:20:50.19	137.36	9.03	-35.2	-56.4	4.2	1.50e+00	0	58	104	0	45	34042
2026-01-26 09:20:51.20	137.32	9.11	-36.7	-55.0	3.2	1.50e+00	0	58	104	0	45	28928
2026-01-26 09:20:52.21	137.27	9.19	-29.7	-46.1	4.0	1.51e+00	0	58	104	0	32	21959
2026-01-26 09:20:53.22	137.22	9.27	-33.7	-52.3	3.6	1.50e+00	0	58	104	0	42	25075
2026-01-26 09:20:54.23	137.18	9.36	-32.8	-47.5	4.1	1.50e+00	0	58	104	0	35	21636
2026-01-26 09:20:55.24	137.13	9.44	-36.9	-51.8	4.4	1.50e+00	0	58	104	0	38	29864
2026-01-26 09:20:56.25	137.08	9.52	-38.3	-53.7	3.9	1.50e+00	0	58	104	0	40	33024
2026-01-26 09:20:57.26	137.03	9.61	-39.3	-55.9	4.2	1.50e+00	0	58	104	0	46	30187
2026-01-26 09:20:58.27	136.99	9.69	-36.2	-56.9	2.7	1.50e+00	0	58	104	0	48	30110
2026-01-26 09:20:59.28	136.94	9.77	-37.2	-55.6	3.9	1.50e+00	0	58	104	0	44	32554
2026-01-26 09:21:00.29	136.89	9.86	-29.1	-46.1	4.3	1.50e+00	0	58	104	0	43	11649
2026-01-26 09:21:01.30	136.84	9.94	-35.8	-55.8	4.1	1.50e+00	0	58	104	0	44	33388
2026-01-26 09:21:02.31	136.79	10.03	-36.3	-57.4	3.7	1.50e+00	0	58	104	0	49	30123
2026-01-26 09:21:03.32	136.74	10.11	-29.9	-46.4	3.9	1.51e+00	0	58	104	0	34	20213
2026-01-26 09:21:04.33	136.69	10.20	-24.0	-41.5	3.7	1.51e+00	0	58	104	0	20	25580
2026-01-26 09:21:05.34	136.64	10.28	-25.0	-39.7	3.8	1.52e+00	0	58	104	0	24	16552
2026-01-26 09:21:06.35	136.59	10.37	-29.1	-43.8	4.3	1.51e+00	0	58	104	0	28	21124
2026-01-26 09:21:07.36	136.54	10.46	-28.1	-42.5	3.9	1.51e+00	0	58	0	0	28	18222
2026-01-26 09:21:08.37	136.49	10.54	-38.0	-49.2	5.0	1.50e+00	0	58	104	0	36	24782
2026-01-26 09:21:09.38	136.44	10.63	-33.3	-46.4	5.3	1.47e+00	0	58	104	0	40	14322
2026-01-26 09:21:10.39	136.38	10.72	-30.4	-44.0	6.1	7.59e-01	0	58	0	1048576	32	17268
2026-01-26 09:21:11.40	136.33	10.81	-31.9	-44.0	5.0	5.14e-01	0	58	104	2097152	37	12866
2026-01-26 09:21:12.41	136.28	10.89	-38.0	-46.0	5.4	1.36e+00	0	58	104	2097152	36	17269
2026-01-26 09:21:13.42	136.23	10.98	-29.8	-44.2	6.0	1.08e+00	0	58	0	2097152	41	10478
2026-01-26 09:21:14.43	136.17	11.07	-34.2	-46.9	7.4	9.00e-01	0	58	0	2097152	50	8471
2026-01-26 09:21:15.44	136.12	11.16	-32.9	-45.6	6.5	6.12e-01	0	59	0	3145728	40	13098
2026-01-26 09:21:16.45	136.07	11.25	-40.2	-47.0	7.2	1.89e-01	0	58	0	5242880	49	9143
2026-01-26 09:21:17.46	136.01	11.34	-36.1	-47.7	6.9	5.32e-01	0	58	0	7340032	49	9879
2026-01-26 09:21:18.47	135.96	11.43	-40.4	-48.4	7.0	6.97e-01	0	59	0	8388608	52	8976
2026-01-26 09:21:19.49	135.90	11.52	-41.2	-47.8	4.7	7.23e-01	0	59	0	10485760	37	19956
2026-01-26 09:21:20.50	135.85	11.61	-32.7	-48.2	5.5	1.29e+00	0	59	0	11534336	42	15705
2026-01-26 09:21:21.51	135.79	11.70	-36.7	-47.5	4.1	7.51e-01	0	59	104	12582912	40	16272
2026-01-26 09:21:22.52	135.74	11.79	-30.1	-45.5	4.2	1.46e+00	0	59	104	12582912	33	19237
2026-01-26 09:21:23.53	135.68	11.88	-36.1	-47.8	4.7	1.46e+00	0	59	104	12582912	39	17720
2026-01-26 09:21:24.54	135.62	11.97	-37.6	-49.4	4.6	1.44e+00	0	59	104	12582912	48	12756
2026-01-26 09:21:25.55	135.57	12.06	-37.1	-46.4	8.2	1.24e+00	0	59	0	12582912	49	8529
2026-01-26 09:21:26.56	135.51	12.15	-31.8	-51.0	4.3	1.50e+00	0	59	104	13631488	49	14537
2026-01-26 09:21:27.57	135.45	12.25	-37.9	-45.9	5.0	1.49e+00	0	59	104	13631488	44	10752
2026-01-26 09:21:28.58	135.39	12.34	-34.7	-44.6	5.1	1.14e+00	0	59	104	13631488	39	12295
2026-01-26 09:21:29.59	135.33	12.43	-25.0	-40.3	4.9	1.43e+00	0	59	104	13631488	32	11180
2026-01-26 09:21:30.60	135.28	12.52	-38.2	-45.8	7.5	1.21e+00	0	59	0	13631488	45	9986
2026-01-26 09:21:31.62	135.22	12.62	-29.1	-43.7	5.3	6.23e-01	0	59	0	14680064	37	12419
2026-01-26 09:21:32.63	135.16	12.71	-29.4	-42.5	8.6	3.19e-01	0	59	0	16777216	48	5739
2026-01-26 09:21:33.64	135.10	12.81	-37.3	-45.7	7.7	4.25e-01	0	59	0	18874368	46	9342
2026-01-26 09:21:34.65	135.04	12.90	-40.0	-47.1	8.5	4.72e-01	0	59	0	19922944	51	8201
2026-01-26 09:21:35.66	134.97	13.00	-36.8	-47.7	6.3	4.01e-01	0	59	0	22020096	51	8861
2026-01-26 09:21:36.67	134.91	13.09	-34.5	-46.8	4.3	1.39e+00	0	59	104	23068672	39	15895
2026-01-26 09:21:37.68	134.85	13.19	-34.8	-47.9	4.3	1.40e+00	0	59	104	23068672	42	15161
2026-01-26 09:21:38.69	134.79	13.28	-25.0	-40.3	4.0	1.50e+00	0	59	104	23068672	20	22407
2026-01-26 09:21:39.70	134.73	13.38	-26.9	-43.1	3.9	1.49e+00	0	59	104	23068672	27	20676
2026-01-26 09:21:40.71	134.66	13.48	-32.9	-46.5	5.2	1.48e+00	0	59	104	23068672	49	8651
2026-01-26 09:21:41.72	134.60	13.57	-41.5	-50.4	6.3	1.44e+00	0	59	104	23068672	52	11310
2026-01-26 09:21:42.73	134.54	13.67	-24.7	-38.5	4.3	1.49e+00	0	59	104	23068672	28	11507
2026-01-26 09:21:43.74	134.47	13.77	-26.3	-39.3	4.2	1.48e+00	0	59	104	23068672	24	15800
2026-01-26 09:21:44.75	134.41	13.87	-29.8	-40.3	4.4	1.43e+00	0	59	104	23068672	28	14124
2026-01-26 09:21:45.76	134.34	13.97	-37.2	-42.6	5.6	6.13e-01	0	59	0	23068672	27	19468
2026-01-26 09:21:46.77	134.28	14.06	-38.9	-43.4	10.4	4.26e-01	0	59	0	24117248	43	8521
2026-01-26 09:21:47.78	134.21	14.16	-39.2	-43.9	11.4	1.66e-01	0	59	0	26214400	48	6743
2026-01-26 09:21:48.78	134.15	14.26	-38.5	-44.6	6.5	2.10e-01	0	59	0	28311552	46	8249
2026-01-26 09:21:49.79	134.08	14.36	-39.9	-45.9	5.3	9.08e-01	0	59	104	29360128	49	8036
2026-01-26 09:21:50.81	134.01	14.46	-26.4	-41.8	4.4	6.38e-01	0	59	104	29360128	24	21042
2026-01-26 09:21:51.82	133.94	14.56	-27.2	-42.1	4.1	1.50e+00	0	59	104	29360128	24	21864
2026-01-26 09:21:52.83	133.87	14.67	-24.0	-39.4	4.1	1.49e+00	0	59	104	29360128	21	18988
2026-01-26 09:21:53.84	133.80	14.77	-29.2	-45.1	4.9	1.32e+00	0	59	104	29360128	36	15543
2026-01-26 09:21:54.85	133.74	14.87	-37.9	-47.7	4.7	1.46e+00	0	59	104	29360128	35	22243
2026-01-26 09:21:55.86	133.67	14.97	-32.5	-48.0	4.5	1.45e+00	0	59	104	29360128	37	20317
2026-01-26 09:21:56.87	133.60	15.07	-42.5	-48.7	8.1	1.40e+00	0	59	104	29360128	55	7897
2026-01-26 09:21:57.88	133.52	15.18	-40.6	-52.4	4.5	3.24e-01	0	60	0	30408704	46	20075
2026-01-26 09:21:58.89	133.45	15.28	-28.3	-42.3	5.5	1.39e+00	0	60	104	30408704	30	15928
2026-01-26 09:21:59.90	133.38	15.38	-29.7	-42.8	4.8	1.39e+00	0	60	104	30408704	30	16822
2026-01-26 09:22:00.91	133.31	15.49	-39.0	-45.7	5.0	1.42e+00	0	60	104	30408704	39	13928
2026-01-26 09:22:01.92	133.24	15.59	-39.5	-46.4	8.8	6.06e-01	0	60	0	30408704	50	8083
2026-01-26 09:22:02.93	133.16	15.70	-37.3	-47.7	6.6	2.05e-01	0	60	0	32505856	47	11042
2026-01-26 09:22:03.94	133.09	15.80	-40.9	-49.4	4.8	5.36e-01	0	60	104	34603008	50	11298
2026-01-26 09:22:04.95	133.01	15.91	-40.2	-49.9	5.8	4.23e-01	0	60	0	34603008	52	10729
2026-01-26 09:22:05.96	132.94	16.01	-29.8	-46.9	4.1	1.46e+00	0	60	104	35651584	32	24100
2026-01-26 09:22:06.97	132.86	16.12	-32.0	-46.8	4.4	1.48e+00	0	60	104	35651584	36	18937
2026-01-26 09:22:07.98	132.79	16.23	-24.0	-38.4	4.2	1.48e+00	0	60	104	35651584	21	16898
2026-01-26 09:22:08.99	132.71	16.34	-26.5	-39.9	4.3	1.48e+00	0	60	104	35651584	25	15993
2026-01-26 09:22:10.00	132.63	16.44	-32.5	-46.4	4.2	1.25e+00	0	60	104	35651584	30	25346
2026-01-26 09:22:11.01	132.55	16.55	-32.0	-46.2	4.6	1.46e+00	0	60	104	35651584	36	17549
2026-01-26 09:22:12.02	132.48	16.66	-26.8	-44.7	3.6	1.48e+00	0	60	104	35651584	28	23383
2026-01-26 09:22:13.03	132.40	16.77	-29.7	-50.1	4.5	1.51e+00	0	60	104	35651584	34	30802
2026-01-26 09:22:14.04	132.32	16.88	-27.0	-42.4	3.9	1.51e+00	0	60	104	35651584	26	20235
2026-01-26 09:22:15.05	132.24	16.99	-31.3	-46.5	4.2	1.52e+00	0	60	104	35651584	33	21519
2026-01-26 09:22:16.06	132.16	17.10	-28.9	-44.0	4.0	1.52e+00	0	60	104	35651584	26	24247
2026-01-26 09:22:17.07	132.07	17.21	-36.4	-50.6	4.2	1.51e+00	0	60	104	35651584	38	25998
2026-01-26 09:22:18.08	131.99	17.32	-41.9	-54.1	4.2	1.23e+00	0	60	0	35651584	54	15410
2026-01-26 09:22:19.09	131.91	17.43	-41.8	-53.8	4.3	1.44e+00	0	60	104	35651584	55	14170
2026-01-26 09:22:20.11	131.83	17.55	-33.1	-45.3	6.0	8.40e-01	0	60	0	35651584	38	14161
2026-01-26 09:22:21.11	131.74	17.66	-34.4	-43.2	7.7	3.61e-01	0	60	0	37748736	40	9885
2026-01-26 09:22:22.13	131.66	17.77	-39.1	-43.6	11.9	2.95e-01	0	60	0	38797312	50	5840
2026-01-26 09:22:23.14	131.57	17.89	-38.4	-43.6	10.3	1.50e-01	0	60	0	40894464	48	6552
2026-01-26 09:22:24.15	131.49	18.00	-35.9	-44.2	8.5	1.50e-01	0	60	0	42991616	45	8331
2026-01-26 09:22:25.16	131.40	18.11	-35.6	-44.8	9.1	2.07e-01	0	60	0	45088768	44	9416
2026-01-26 09:22:26.17	131.31	18.23	-36.7	-46.0	7.2	2.58e-01	0	60	0	47185920	45	10199
2026-01-26 09:22:27.18	131.22	18.34	-37.1	-46.3	6.9	4.15e-01	0	60	0	48234496	46	10038
2026-01-26 09:22:28.19	131.14	18.46	-40.0	-46.6	8.2	2.10e-01	0	60	0	50331648	50	8251
2026-01-26 09:22:29.20	131.05	18.58	-40.9	-45.9	11.3	4.23e-02	0	60	0	52428800	54	6054
2026-01-26 09:22:30.21	130.96	18.69	-40.8	-45.7	9.7	6.05e-03	0	60	0	54525952	50	7382
2026-01-26 09:22:31.22	130.86	18.81	-40.9	-45.1	11.8	2.94e-02	0	60	0	56623104	53	5789
2026-01-26 09:22:32.23	130.77	18.93	-39.9	-44.8	11.7	4.38e-02	0	60	0	58720256	51	6306
2026-01-26 09:22:33.24	130.68	19.05	-40.5	-45.1	12.0	1.92e-02	0	60	0	59768832	53	5836
2026-01-26 09:22:34.25	130.59	19.17	-41.7	-45.6	11.3	7.37e-03	0	60	0	61865984	53	6202
2026-01-26 09:22:35.26	130.49	19.29	-41.8	-46.0	11.8	1.05e-02	0	60	0	63963136	54	6075
2026-01-26 09:22:36.27	130.40	19.41	-42.1	-46.4	11.6	4.61e-03	0	60	0	66060288	54	6349
2026-01-26 09:22:37.28	130.30	19.53	-42.2	-46.6	11.5	3.40e-03	0	60	0	68157440	55	6137
2026-01-26 09:22:38.29	130.21	19.65	-39.4	-46.4	10.8	2.56e-03	0	60	0	69206016	52	7178
2026-01-26 09:22:39.29	130.11	19.77	-42.1	-46.2	11.9	8.15e-04	0	60	0	71303168	54	6251
2026-01-26 09:22:40.30	130.01	19.89	-41.9	-45.8	12.3	2.99e-04	0	60	0	73400320	54	5959
2026-01-26 09:22:41.31	129.92	20.01	-41.8	-45.5	12.6	1.03e-03	0	60	0	75497472	54	5777
2026-01-26 09:22:42.32	129.82	20.13	-42.0	-45.8	12.3	1.95e-04	0	60	0	77594624	54	5976
2026-01-26 09:22:43.33	129.72	20.26	-42.0	-46.1	11.9	2.23e-04	0	60	0	78643200	54	6142
2026-01-26 09:22:44.34	129.62	20.38	-42.2	-46.5	11.6	5.11e-04	0	60	0	80740352	55	6099
2026-01-26 09:22:45.35	129.51	20.50	-42.4	-47.0	11.1	1.43e-03	0	60	0	82837504	55	6442
2026-01-26 09:22:46.36	129.41	20.63	-42.5	-47.1	10.9	2.16e-03	0	60	0	84934656	55	6550
2026-01-26 09:22:47.37	129.31	20.75	-42.4	-46.9	11.2	1.40e-03	0	60	0	87031808	55	6355
2026-01-26 09:22:48.38	129.20	20.88	-42.2	-46.6	11.5	1.12e-03	0	60	0	88080384	55	6164
2026-01-26 09:22:49.39	129.10	21.01	-42.2	-46.5	11.7	8.63e-04	0	60	0	90177536	55	6065
2026-01-26 09:22:50.40	128.99	21.13	-42.0	-46.0	12.2	2.98e-04	0	60	0	92274688	55	5730
2026-01-26 09:22:51.41	128.89	21.26	-42.2	-46.4	11.8	2.62e-04	0	60	0	94371840	55	5997
2026-01-26 09:22:52.42	128.78	21.39	-42.1	-46.2	12.0	3.75e-04	0	61	0	96468992	55	5863
2026-01-26 09:22:53.43	128.67	21.52	-42.1	-46.2	12.0	3.37e-04	0	60	0	97517568	55	5880
2026-01-26 09:22:54.44	128.56	21.65	-42.1	-46.1	12.1	3.80e-04	0	60	0	99614720	55	5789
2026-01-26 09:22:55.45	128.45	21.78	-42.0	-46.1	12.1	3.14e-04	0	60	0	101711872	55	5803
2026-01-26 09:22:56.46	128.34	21.91	-41.9	-45.9	12.3	1.90e-04	0	60	0	103809024	55	5668
2026-01-26 09:22:57.47	128.23	22.04	-41.8	-45.5	12.7	8.23e-05	0	60	0	105906176	55	5415
2026-01-26 09:22:58.48	128.11	22.17	-41.9	-45.6	12.6	6.25e-05	0	60	0	106954752	55	5473
2026-01-26 09:22:59.49	128.00	22.30	-41.9	-45.9	12.2	1.33e-04	0	60	0	109051904	55	5701
2026-01-26 09:23:00.50	127.88	22.43	-42.1	-46.1	12.1	1.76e-04	0	60	0	111149056	55	5799
2026-01-26 09:23:01.51	127.77	22.57	-42.3	-46.6	11.5	5.18e-04	0	60	0	113246208	55	6186
2026-01-26 09:23:02.52	127.65	22.70	-42.5	-47.0	11.3	9.73e-04	0	60	0	115343360	55	6434
2026-01-26 09:23:03.53	127.53	22.83	-42.4	-46.9	11.2	1.52e-03	0	61	0	116391936	55	6374
2026-01-26 09:23:04.54	127.41	22.97	-42.4	-46.6	11.6	1.40e-03	0	60	0	118489088	55	6175
2026-01-26 09:23:05.55	127.29	23.10	-42.3	-46.5	11.7	7.27e-04	0	60	0	120586240	55	6079
2026-01-26 09:23:06.56	127.17	23.24	-42.3	-46.6	11.6	5.31e-04	0	60	0	122683392	55	6154
2026-01-26 09:23:07.56	127.05	23.37	-42.3	-46.5	11.7	4.90e-04	0	60	0	124780544	55	6101
2026-01-26 09:23:08.57	126.92	23.51	-42.4	-46.7	11.6	5.59e-04	0	60	0	126877696	55	6214
2026-01-26 09:23:09.58	126.80	23.65	-42.6	-47.2	11.0	1.75e-03	0	60	0	127926272	55	6625
2026-01-26 09:23:10.59	126.67	23.79	-42.9	-47.6	10.8	3.74e-03	0	60	0	130023424	56	6534
2026-01-26 09:23:11.60	126.54	23.93	-42.7	-47.3	11.1	1.99e-03	0	61	0	132120576	56	6296
2026-01-26 09:23:12.61	126.42	24.07	-42.5	-46.7	11.7	9.04e-04	0	60	0	134217728	56	5886
2026-01-26 09:23:13.62	126.29	24.21	-42.4	-46.5	11.9	5.16e-04	0	61	0	136314880	56	5782
2026-01-26 09:23:14.63	126.16	24.35	-42.4	-46.4	12.0	3.49e-04	0	60	0	137363456	56	5676
2026-01-26 09:23:15.64	126.02	24.49	-42.5	-46.6	11.8	3.03e-04	0	60	0	139460608	56	5837
2026-01-26 09:23:16.65	125.89	24.63	-42.5	-47.0	11.5	7.28e-04	0	61	0	141557760	56	6072
2026-01-26 09:23:17.67	125.75	24.77	-42.8	-47.6	10.8	2.01e-03	0	61	0	143654912	56	6548
2026-01-26 09:23:18.68	125.62	24.92	-42.9	-47.5	11.0	2.12e-03	0	61	0	145752064	56	6432
2026-01-26 09:23:19.69	125.48	25.06	-42.9	-47.6	10.8	1.59e-03	0	61	0	146800640	56	6552
2026-01-26 09:23:20.69	125.35	25.20	-42.7	-47.1	11.4	1.49e-03	0	61	0	148897792	56	6184
2026-01-26 09:23:21.70	125.21	25.35	-42.6	-46.9	11.6	8.63e-04	0	61	0	150994944	56	6004
2026-01-26 09:23:22.71	125.07	25.49	-42.7	-47.0	11.4	1.02e-03	0	61	0	153092096	56	6089
2026-01-26 09:23:23.72	124.92	25.64	-42.5	-46.6	11.8	4.48e-04	0	61	0	155189248	56	5834
2026-01-26 09:23:24.73	124.78	25.78	-42.6	-46.8	11.6	8.40e-04	0	61	0	156237824	56	5985
2026-01-26 09:23:25.74	124.64	25.93	-42.6	-46.9	11.6	8.01e-04	0	61	0	158334976	56	5993
2026-01-26 09:23:26.75	124.49	26.08	-42.5	-46.5	11.9	5.32e-04	0	61	0	160432128	56	5788
2026-01-26 09:23:27.76	124.34	26.23	-42.5	-46.5	11.9	2.55e-04	0	61	0	162529280	56	5755
2026-01-26 09:23:28.77	124.19	26.38	-42.3	-46.1	12.4	1.48e-04	0	61	0	164626432	56	5507
2026-01-26 09:23:29.78	124.04	26.53	-42.2	-46.0	12.5	1.30e-04	0	61	0	165675008	56	5461
2026-01-26 09:23:30.79	123.89	26.68	-42.4	-46.3	12.1	2.01e-04	0	61	0	167772160	56	5652
2026-01-26 09:23:31.80	123.74	26.83	-42.6	-46.7	11.7	2.90e-04	0	61	0	169869312	56	5921
2026-01-26 09:23:32.81	123.58	26.98	-42.5	-46.6	11.8	6.03e-04	0	61	0	171966464	56	5832
2026-01-26 09:23:33.82	123.43	27.13	-42.5	-46.5	12.0	5.48e-04	0	61	0	174063616	56	5765
2026-01-26 09:23:34.83	123.27	27.28	-42.5	-46.6	11.9	4.87e-04	0	61	0	175112192	56	5796
2026-01-26 09:23:35.83	123.11	27.43	-42.4	-46.3	12.1	3.04e-04	0	61	0	177209344	56	5653
2026-01-26 09:23:36.84	122.95	27.59	-42.4	-46.3	12.2	1.35e-04	0	61	0	179306496	56	5646
2026-01-26 09:23:37.85	122.79	27.74	-42.4	-46.4	12.1	1.63e-04	0	61	0	181403648	56	5688
2026-01-26 09:23:38.86	122.62	27.90	-42.5	-46.5	12.0	4.29e-04	0	61	0	183500800	56	5769
2026-01-26 09:23:39.87	122.46	28.05	-42.6	-46.9	11.6	5.10e-04	0	61	0	184549376	56	6015
2026-01-26 09:23:40.88	122.29	28.21	-42.8	-47.3	11.3	7.29e-04	0	61	0	186646528	56	6278
2026-01-26 09:23:41.89	122.12	28.37	-42.5	-46.7	11.8	4.62e-04	0	61	0	188743680	56	5860
2026-01-26 09:23:42.90	121.95	28.52	-42.6	-46.8	11.6	4.47e-04	0	61	0	190840832	56	5985
2026-01-26 09:23:43.91	121.78	28.68	-42.6	-46.8	11.6	9.19e-04	0	61	0	192937984	56	5987
2026-01-26 09:23:44.92	121.61	28.84	-42.8	-47.3	11.2	6.71e-04	0	61	0	195035136	56	6294
2026-01-26 09:23:45.93	121.43	29.00	-43.1	-47.9	10.6	2.29e-03	0	61	0	196083712	56	6738
2026-01-26 09:23:46.94	121.25	29.16	-43.0	-47.6	10.9	2.81e-03	0	61	0	198180864	56	6538
2026-01-26 09:23:47.95	121.07	29.32	-42.9	-47.4	11.1	2.07e-03	0	61	0	200278016	56	6388
2026-01-26 09:23:48.96	120.89	29.48	-42.8	-47.3	11.2	1.20e-03	0	61	0	202375168	56	6289
2026-01-26 09:23:49.97	120.71	29.64	-42.9	-47.3	11.1	1.06e-03	0	61	0	204472320	56	6334
2026-01-26 09:23:50.98	120.52	29.80	-42.9	-47.3	11.1	1.11e-03	0	61	0	205520896	56	6338
2026-01-26 09:23:51.99	120.34	29.97	-42.9	-47.5	10.9	1.66e-03	0	61	0	207618048	56	6485
2026-01-26 09:23:52.99	120.15	30.13	-43.0	-47.7	10.8	2.74e-03	0	61	0	209715200	56	6593
2026-01-26 09:23:54.00	119.96	30.29	-42.8	-47.2	11.2	1.99e-03	0	61	0	211812352	56	6273
2026-01-26 09:23:55.01	119.77	30.46	-42.9	-47.3	11.2	1.49e-03	0	61	0	213909504	56	6303
2026-01-26 09:23:56.02	119.57	30.62	-42.9	-47.3	11.2	1.78e-03	0	61	0	214958080	56	6330
2026-01-26 09:23:57.03	119.38	30.79	-43.1	-47.9	10.6	2.06e-03	0	61	0	217055232	56	6790
2026-01-26 09:23:58.04	119.18	30.95	-43.3	-48.3	10.1	7.15e-03	0	61	0	219152384	57	6716
2026-01-26 09:23:59.05	118.98	31.12	-43.1	-48.0	10.5	4.95e-03	0	61	0	221249536	57	6421
2026-01-26 09:24:00.06	118.77	31.29	-43.1	-48.0	10.5	3.39e-03	0	61	0	223346688	57	6447
2026-01-26 09:24:01.07	118.57	31.45	-43.1	-47.7	10.7	3.16e-03	0	61	0	224395264	57	6258
2026-01-26 09:24:02.08	118.36	31.62	-43.3	-48.3	10.2	5.24e-03	0	61	0	226492416	57	6660
2026-01-26 09:24:03.09	118.15	31.79	-43.3	-48.5	10.1	8.50e-03	0	61	0	228589568	57	6821
2026-01-26 09:24:04.10	117.94	31.96	-43.4	-48.8	9.6	1.41e-02	0	61	0	230686720	57	7098
2026-01-26 09:24:05.11	117.73	32.13	-43.2	-48.3	10.2	1.15e-02	0	61	0	232783872	57	6656
2026-01-26 09:24:06.12	117.51	32.30	-43.3	-48.3	10.2	7.59e-03	0	61	0	233832448	57	6652
2026-01-26 09:24:07.14	117.29	32.47	-43.3	-48.3	10.1	5.35e-03	0	61	0	235929600	57	6699
2026-01-26 09:24:08.15	117.07	32.65	-43.2	-48.1	10.2	3.72e-03	0	61	0	238026752	57	6558
2026-01-26 09:24:09.15	116.85	32.82	-43.3	-48.4	10.1	5.44e-03	0	61	0	240123904	57	6738
2026-01-26 09:24:10.17	116.62	32.99	-43.3	-48.4	10.0	8.50e-03	0	61	0	242221056	57	6780
2026-01-26 09:24:11.18	116.39	33.16	-43.2	-48.1	10.4	4.43e-03	0	61	0	243269632	57	6516
2026-01-26 09:24:12.19	116.16	33.34	-43.2	-48.1	10.4	5.19e-03	0	61	0	245366784	57	6545
2026-01-26 09:24:13.19	115.93	33.51	-43.1	-47.8	10.7	5.68e-03	0	61	0	247463936	57	6309
2026-01-26 09:24:14.21	115.70	33.68	-43.3	-48.5	9.9	6.94e-03	0	61	0	249561088	57	6865
2026-01-26 09:24:15.22	115.46	33.86	-43.4	-48.7	9.7	9.24e-03	0	61	0	251658240	57	7033
2026-01-26 09:24:16.23	115.22	34.03	-43.4	-48.6	9.8	6.31e-03	0	61	0	252706816	57	6947
2026-01-26 09:24:17.24	114.97	34.21	-43.2	-48.2	10.2	7.16e-03	0	61	0	254803968	57	6573
2026-01-26 09:24:18.25	114.73	34.39	-43.0	-47.7	10.5	3.54e-03	0	61	0	256901120	57	6252
2026-01-26 09:24:19.26	114.48	34.56	-43.0	-47.7	10.7	2.13e-03	0	61	0	258998272	57	6270
2026-01-26 09:24:20.27	114.23	34.74	-42.8	-47.2	11.3	1.75e-03	0	61	0	261095424	57	5882
2026-01-26 09:24:21.28	113.97	34.92	-43.0	-47.6	10.8	1.81e-03	0	61	0	263192576	57	6201
2026-01-26 09:24:22.29	113.72	35.09	-43.0	-47.5	10.9	2.94e-03	0	61	0	264241152	57	6118
2026-01-26 09:24:23.30	113.46	35.27	-43.1	-47.9	10.5	2.09e-03	0	61	0	266338304	57	6395
2026-01-26 09:24:24.31	113.20	35.45	-43.3	-48.5	9.9	7.42e-03	0	61	0	268435456	57	6824
2026-01-26 09:24:25.32	112.93	35.63	-43.5	-48.9	9.6	8.53e-03	0	61	0	270532608	57	7145
2026-01-26 09:24:26.33	112.66	35.81	-43.6	-49.4	9.0	1.69e-02	0	61	0	272629760	57	7629
2026-01-26 09:24:27.34	112.39	35.98	-43.9	-50.5	8.0	6.83e-02	0	61	0	273678336	58	8094
2026-01-26 09:24:28.35	112.12	36.16	-43.9	-50.4	8.1	6.04e-02	0	61	0	275775488	58	8016
2026-01-26 09:24:29.36	111.84	36.34	-43.7	-49.6	8.7	4.46e-02	0	61	0	277872640	58	7360
2026-01-26 09:24:30.37	111.56	36.52	-43.6	-49.2	9.2	2.60e-02	0	61	0	279969792	58	6979
2026-01-26 09:24:31.38	111.28	36.70	-43.5	-49.1	9.3	1.74e-02	0	61	0	282066944	58	6929
2026-01-26 09:24:32.39	110.99	36.88	-43.4	-48.5	9.9	1.34e-02	0	61	0	283115520	58	6489
2026-01-26 09:24:33.40	110.70	37.06	-43.3	-48.3	10.2	8.89e-03	0	61	0	285212672	58	6319
2026-01-26 09:24:34.41	110.41	37.24	-43.1	-48.0	10.5	3.87e-03	0	61	0	287309824	58	6068
2026-01-26 09:24:35.42	110.11	37.42	-43.0	-47.6	10.9	1.83e-03	0	61	0	289406976	57	6181
2026-01-26 09:24:36.43	109.81	37.60	-43.0	-47.5	10.9	2.21e-03	0	61	0	291504128	57	6126
2026-01-26 09:24:37.44	109.51	37.78	-43.0	-47.6	11.0	3.22e-03	0	61	0	292552704	57	6159
2026-01-26 09:24:38.45	109.20	37.96	-42.9	-47.4	11.1	2.33e-03	0	61	0	294649856	57	6054
2026-01-26 09:24:39.46	108.89	38.14	-43.0	-47.6	10.9	1.67e-03	0	61	0	296747008	57	6178
2026-01-26 09:24:40.47	108.58	38.33	-43.1	-47.8	10.7	2.24e-03	0	61	0	298844160	57	6344
2026-01-26 09:24:41.48	108.26	38.51	-43.2	-48.3	10.1	5.25e-03	0	62	0	300941312	57	6648
2026-01-26 09:24:42.49	107.94	38.69	-43.2	-48.1	10.4	5.07e-03	0	61	0	303038464	57	6521
2026-01-26 09:24:43.50	107.62	38.87	-43.1	-47.9	10.5	3.50e-03	0	61	0	304087040	57	6414
2026-01-26 09:24:44.51	107.29	39.05	-43.2	-48.1	10.4	3.81e-03	0	61	0	306184192	57	6522
2026-01-26 09:24:45.52	106.96	39.23	-43.3	-48.3	10.3	6.94e-03	0	61	0	308281344	57	6660
2026-01-26 09:24:46.53	106.62	39.41	-43.3	-48.5	10.1	6.39e-03	0	61	0	310378496	57	6830
2026-01-26 09:24:47.54	106.28	39.59	-43.5	-49.0	9.7	9.81e-03	0	61	0	312475648	57	7243
2026-01-26 09:24:48.55	105.94	39.77	-43.5	-48.8	9.6	9.40e-03	0	61	0	313524224	57	7111
2026-01-26 09:24:49.56	105.60	39.95	-43.5	-49.0	9.5	1.25e-02	0	61	0	315621376	57	7236
2026-01-26 09:24:50.57	105.25	40.12	-43.4	-48.5	10.0	1.50e-02	0	61	0	317718528	57	6841
2026-01-26 09:24:51.58	104.89	40.30	-43.1	-47.8	10.7	6.75e-03	0	61	0	319815680	57	6311
2026-01-26 09:24:52.59	104.53	40.48	-43.2	-48.0	10.5	3.34e-03	0	61	0	321912832	57	6448
2026-01-26 09:24:53.60	104.17	40.66	-43.0	-47.5	11.1	1.93e-03	0	61	0	322961408	57	6078
2026-01-26 09:24:54.61	103.81	40.84	-43.2	-48.0	10.5	2.64e-03	0	61	0	325058560	57	6434
2026-01-26 09:24:55.62	103.44	41.01	-43.3	-48.3	10.3	3.65e-03	0	61	0	327155712	57	6669
2026-01-26 09:24:56.63	103.06	41.19	-43.3	-48.3	10.2	6.39e-03	0	61	0	329252864	57	6687
2026-01-26 09:24:57.64	102.68	41.37	-43.4	-48.6	9.9	7.49e-03	0	61	0	331350016	57	6950
2026-01-26 09:24:58.65	102.30	41.54	-43.1	-47.8	10.7	6.62e-03	0	61	0	332398592	57	6307
2026-01-26 09:24:59.66	101.91	41.72	-42.9	-47.2	11.4	1.19e-03	0	61	0	334495744	57	5916
2026-01-26 09:25:00.66	101.53	41.89	-42.9	-47.2	11.4	1.31e-03	0	61	0	336592896	57	5914
2026-01-26 09:25:01.67	101.13	42.06	-43.1	-47.8	10.7	1.72e-03	0	61	0	338690048	57	6316
2026-01-26 09:25:02.68	100.73	42.23	-43.3	-48.2	10.4	2.77e-03	0	61	0	340787200	57	6621
2026-01-26 09:25:03.69	100.33	42.41	-43.4	-48.5	10.0	5.73e-03	0	61	0	341835776	57	6804
2026-01-26 09:25:04.70	99.92	42.58	-43.3	-48.3	10.3	4.92e-03	0	61	0	343932928	57	6655
2026-01-26 09:25:05.71	99.51	42.75	-43.6	-49.0	9.5	7.82e-03	0	62	0	346030080	57	7221
2026-01-26 09:25:06.72	99.09	42.92	-43.8	-49.8	8.7	2.17e-02	0	61	0	348127232	58	7533
2026-01-26 09:25:07.73	98.67	43.08	-44.0	-50.7	7.8	5.62e-02	0	61	0	350224384	58	8306
2026-01-26 09:25:08.74	98.25	43.25	-44.0	-50.4	8.1	6.40e-02	0	61	0	351272960	58	8067
2026-01-26 09:25:09.75	97.82	43.42	-43.7	-49.1	9.4	2.67e-02	0	61	0	353370112	58	6955
2026-01-26 09:25:10.76	97.38	43.58	-43.5	-48.5	10.2	7.05e-03	0	61	0	355467264	58	6490
2026-01-26 09:25:11.77	96.94	43.75	-43.0	-47.6	11.0	3.76e-03	0	61	0	357564416	58	5799
2026-01-26 09:25:12.78	96.50	43.91	-42.2	-46.0	12.7	1.92e-04	0	62	0	359661568	56	5422
2026-01-26 09:25:13.79	96.05	44.07	-41.7	-45.1	13.5	1.90e-05	0	61	0	360710144	55	5163
2026-01-26 09:25:14.80	95.60	44.23	-41.7	-45.1	13.5	1.52e-05	0	61	0	362807296	55	5204
2026-01-26 09:25:15.81	95.14	44.39	-42.2	-46.1	12.4	1.83e-05	0	62	0	364904448	55	5816
2026-01-26 09:25:16.82	94.68	44.55	-42.7	-47.1	11.4	5.45e-04	0	61	0	367001600	55	6567
2026-01-26 09:25:17.83	94.21	44.70	-43.1	-48.1	10.5	1.69e-03	0	62	0	369098752	56	6918
2026-01-26 09:25:18.84	93.74	44.86	-43.1	-48.2	10.4	5.02e-03	0	61	0	371195904	56	7014
2026-01-26 09:25:19.85	93.27	45.01	-42.8	-47.6	11.0	2.11e-03	0	61	0	372244480	56	6500
2026-01-26 09:25:20.86	92.79	45.16	-42.6	-47.0	11.7	9.70e-04	0	61	0	374341632	56	6067
2026-01-26 09:25:21.87	92.30	45.31	-42.8	-47.3	11.3	6.99e-04	0	61	0	376438784	56	6318
2026-01-26 09:25:22.88	91.82	45.46	-42.8	-47.5	11.1	1.97e-03	0	62	0	378535936	56	6458
2026-01-26 09:25:23.89	91.32	45.60	-42.6	-47.0	11.6	7.71e-04	0	61	0	380633088	56	6112
2026-01-26 09:25:24.90	90.82	45.75	-42.6	-47.0	11.6	6.39e-04	0	61	0	381681664	56	6129
2026-01-26 09:25:25.91	90.32	45.89	-42.6	-47.0	11.6	6.33e-04	0	62	0	383778816	56	6106
2026-01-26 09:25:26.92	89.81	46.03	-42.8	-47.4	11.3	1.28e-03	0	61	0	385875968	56	6349
2026-01-26 09:25:27.93	89.30	46.17	-42.5	-46.6	12.0	9.29e-04	0	62	0	387973120	56	5854
2026-01-26 09:25:28.94	88.79	46.30	-42.4	-46.3	12.3	2.39e-04	0	61	0	390070272	56	5640
2026-01-26 09:25:29.95	88.26	46.44	-42.4	-46.4	12.3	1.86e-04	0	61	0	391118848	56	5719
2026-01-26 09:25:30.96	87.74	46.57	-42.3	-46.3	12.4	1.58e-04	0	61	0	393216000	56	5637
2026-01-26 09:25:31.96	87.22	46.70	-42.4	-46.4	12.3	2.00e-04	0	61	0	395313152	56	5659
2026-01-26 09:25:32.98	86.68	46.82	-42.9	-47.7	11.0	6.56e-04	0	62	0	397410304	56	6580
2026-01-26 09:25:33.99	86.14	46.95	-43.5	-49.4	9.1	9.87e-03	0	61	0	399507456	57	7617
2026-01-26 09:25:35.00	85.60	47.07	-43.4	-49.2	9.4	3.14e-02	0	61	0	400556032	57	7381
2026-01-26 09:25:36.01	85.05	47.19	-43.3	-49.0	9.6	1.61e-02	0	61	0	402653184	57	7242
2026-01-26 09:25:37.02	84.50	47.31	-43.8	-50.5	7.9	3.42e-02	0	61	0	404750336	58	8145
2026-01-26 09:25:38.03	83.94	47.42	-44.0	-51.9	6.8	1.35e-01	0	62	0	406847488	58	9499
2026-01-26 09:25:39.04	83.39	47.53	-43.9	-51.5	7.1	1.64e-01	0	62	0	408944640	58	9139
2026-01-26 09:25:40.05	82.82	47.64	-43.7	-50.7	7.7	9.16e-02	0	61	0	409993216	58	8344
2026-01-26 09:25:41.05	82.26	47.75	-43.6	-50.3	8.2	8.06e-02	0	61	0	412090368	58	7959
2026-01-26 09:25:42.06	81.69	47.85	-43.8	-51.1	7.3	9.72e-02	0	61	0	414187520	58	8700
2026-01-26 09:25:43.08	81.11	47.95	-43.5	-49.8	8.5	3.37e-02	0	61	0	416284672	58	7527
2026-01-26 09:25:44.09	80.53	48.05	-43.6	-50.1	8.4	2.97e-02	0	61	0	418381824	58	7743
2026-01-26 09:25:45.09	79.96	48.14	-43.4	-49.3	9.2	2.52e-02	0	61	0	419430400	58	7048
2026-01-26 09:25:46.10	79.37	48.24	-43.1	-48.3	10.2	8.61e-03	0	61	0	421527552	58	6284
2026-01-26 09:25:47.11	78.78	48.32	-43.1	-48.4	10.1	5.90e-03	0	61	0	423624704	57	6777
2026-01-26 09:25:48.12	78.19	48.41	-43.2	-48.6	10.0	5.91e-03	0	62	0	425721856	57	6921
2026-01-26 09:25:49.13	77.60	48.49	-43.0	-48.2	10.3	4.10e-03	0	61	0	427819008	57	6608
2026-01-26 09:25:50.14	77.00	48.57	-43.0	-48.0	10.6	3.33e-03	0	61	0	428867584	57	6481
2026-01-26 09:25:51.15	76.40	48.65	-43.2	-48.7	9.8	5.44e-03	0	61	0	430964736	57	7035
2026-01-26 09:25:52.16	75.79	48.72	-43.0	-48.2	10.3	5.17e-03	0	61	0	433061888	57	6618
2026-01-26 09:25:53.17	75.19	48.79	-42.6	-47.2	11.4	1.97e-03	0	61	0	435159040	57	5863
2026-01-26 09:25:54.18	74.58	48.86	-42.5	-46.8	12.0	6.13e-04	0	61	0	437256192	56	5978
2026-01-26 09:25:55.19	73.96	48.92	-42.1	-46.1	12.6	2.30e-04	0	62	0	439353344	56	5470
2026-01-26 09:25:56.20	73.35	48.98	-42.3	-46.5	12.1	5.31e-04	0	61	0	440401920	56	5781
2026-01-26 09:25:57.21	72.73	49.03	-42.4	-46.9	11.7	5.46e-04	0	62	0	442499072	56	6022
2026-01-26 09:25:58.22	72.11	49.09	-42.2	-46.4	12.3	2.91e-04	0	62	0	444596224	56	5671
2026-01-26 09:25:59.23	71.49	49.13	-42.0	-45.9	12.7	9.68e-05	0	62	0	446693376	56	5365
2026-01-26 09:26:00.24	70.87	49.18	-41.5	-45.1	13.3	4.34e-05	0	62	0	448790528	55	5200
2026-01-26 09:26:01.25	70.24	49.22	-41.2	-44.6	13.8	1.29e-05	0	61	0	449839104	54	5180
2026-01-26 09:26:02.26	69.62	49.26	-40.9	-44.0	14.4	3.00e-06	0	62	0	451936256	53	5142
2026-01-26 09:26:03.27	68.99	49.29	-41.1	-44.4	14.1	1.50e-06	0	61	0	454033408	53	5355
2026-01-26 09:26:04.28	68.36	49.32	-41.7	-45.4	13.0	3.00e-06	0	61	0	456130560	53	6055
2026-01-26 09:26:05.28	67.74	49.35	-42.2	-46.7	11.8	1.75e-04	0	61	0	457179136	55	6215
2026-01-26 09:26:06.29	67.11	49.37	-42.2	-46.6	11.9	4.66e-04	0	61	0	459276288	55	6150
2026-01-26 09:26:07.31	66.47	49.39	-42.4	-47.2	11.2	7.06e-04	0	61	0	461373440	55	6593
2026-01-26 09:26:08.32	65.84	49.41	-42.5	-47.6	10.7	1.45e-03	0	61	0	463470592	55	6931
2026-01-26 09:26:09.33	65.20	49.42	-42.4	-47.2	11.1	1.53e-03	0	62	0	465567744	55	6595
2026-01-26 09:26:10.34	64.57	49.43	-42.1	-46.5	11.9	4.78e-04	0	62	0	467664896	55	6075
2026-01-26 09:26:11.35	63.93	49.43	-42.1	-46.6	11.8	3.81e-04	0	62	0	468713472	55	6135
2026-01-26 09:26:12.36	63.30	49.43	-42.6	-47.8	10.6	2.23e-03	0	61	0	470810624	55	7078
2026-01-26 09:26:13.37	62.67	49.43	-42.9	-48.3	10.2	5.46e-03	0	62	0	472907776	56	7054
2026-01-26 09:26:14.38	62.03	49.42	-42.5	-47.2	11.3	5.02e-03	0	62	0	475004928	56	6246
2026-01-26 09:26:15.39	61.40	49.41	-42.1	-46.2	12.4	2.70e-04	0	61	0	477102080	56	5530
2026-01-26 09:26:16.40	60.77	49.39	-41.7	-45.6	12.7	7.32e-05	0	62	0	478150656	55	5506
2026-01-26 09:26:17.41	60.14	49.38	-41.6	-45.3	13.1	3.35e-05	0	62	0	480247808	55	5316
2026-01-26 09:26:18.42	59.50	49.35	-41.5	-45.2	13.2	1.06e-05	0	61	0	482344960	54	5579
2026-01-26 09:26:19.43	58.87	49.33	-41.4	-45.0	13.3	1.06e-05	0	61	0	484442112	54	5409
2026-01-26 09:26:20.44	58.25	49.30	-41.3	-44.8	13.7	6.10e-06	0	62	0	486539264	54	5290
2026-01-26 09:26:21.45	57.62	49.27	-41.3	-44.8	13.7	6.80e-06	0	61	0	487587840	54	5284
2026-01-26 09:26:22.45	57.00	49.23	-41.6	-45.3	13.1	3.28e-05	0	61	0	489684992	54	5594
2026-01-26 09:26:23.46	56.37	49.19	-41.8	-45.7	12.5	5.56e-05	0	62	0	491782144	54	5920
2026-01-26 09:26:24.48	55.74	49.15	-41.9	-46.0	12.4	1.33e-04	0	62	0	493879296	54	6109
2026-01-26 09:26:25.49	55.12	49.10	-42.1	-46.4	11.9	2.37e-04	0	62	0	495976448	54	6409
2026-01-26 09:26:26.50	54.50	49.05	-42.1	-46.5	11.9	7.02e-04	0	62	0	497025024	55	6064
2026-01-26 09:26:27.51	53.89	48.99	-42.2	-46.6	11.7	6.64e-04	0	62	0	499122176	55	6169
2026-01-26 09:26:28.52	53.27	48.93	-42.0	-46.2	12.2	4.05e-04	0	62	0	501219328	55	5870
2026-01-26 09:26:29.53	52.66	48.87	-42.0	-46.2	12.2	2.18e-04	0	62	0	503316480	55	5863
2026-01-26 09:26:30.54	52.05	48.81	-42.1	-46.5	11.9	2.67e-04	0	62	0	505413632	55	6072
2026-01-26 09:26:31.55	51.44	48.74	-42.5	-47.3	11.0	1.32e-03	0	62	0	507510784	55	6696
2026-01-26 09:26:32.56	50.84	48.67	-42.5	-47.2	11.1	2.24e-03	0	61	0	508559360	55	6642
2026-01-26 09:26:33.57	50.24	48.59	-42.5	-47.4	10.9	1.87e-03	0	62	0	510656512	55	6754
2026-01-26 09:26:34.58	49.64	48.51	-42.0	-46.1	12.3	6.34e-04	0	62	0	512753664	55	5797
2026-01-26 09:26:35.59	49.04	48.43	-42.2	-46.7	11.7	4.59e-04	0	62	0	514850816	55	6232
2026-01-26 09:26:36.60	48.45	48.35	-42.0	-46.0	12.3	3.83e-04	0	62	0	516947968	55	5759
2026-01-26 09:26:37.61	47.86	48.26	-42.2	-46.4	11.9	4.74e-04	0	62	0	517996544	55	6056
2026-01-26 09:26:38.62	47.28	48.17	-42.5	-47.3	11.1	5.97e-04	0	62	0	520093696	55	6661
2026-01-26 09:26:39.63	46.70	48.08	-42.9	-47.9	10.5	3.03e-03	0	61	0	522190848	56	6787
2026-01-26 09:26:40.64	46.12	47.98	-42.9	-47.9	10.4	4.16e-03	0	62	0	524288000	56	6777
2026-01-26 09:26:41.65	45.54	47.88	-42.7	-47.3	11.2	2.31e-03	0	62	0	526385152	56	6319
2026-01-26 09:26:42.66	44.97	47.78	-42.6	-47.2	11.3	9.09e-04	0	62	0	527433728	56	6248
2026-01-26 09:26:43.67	44.41	47.67	-42.4	-46.7	11.8	4.84e-04	0	62	0	529530880	56	5920
2026-01-26 09:26:44.68	43.84	47.56	-42.6	-47.1	11.4	7.54e-04	0	62	0	531628032	56	6178
2026-01-26 09:26:45.69	43.29	47.45	-42.9	-48.0	10.5	2.82e-03	0	62	0	533725184	56	6817
2026-01-26 09:26:46.70	42.73	47.34	-42.7	-47.5	11.0	3.17e-03	0	62	0	535822336	56	6432
2026-01-26 09:26:47.71	42.18	47.22	-42.7	-47.4	11.0	2.49e-03	0	62	0	536870912	56	6365
2026-01-26 09:26:48.72	41.63	47.10	-42.8	-47.8	10.6	2.23e-03	0	62	0	538968064	56	6709
2026-01-26 09:26:49.73	41.09	46.98	-42.9	-47.9	10.5	3.07e-03	0	61	0	541065216	56	6764
2026-01-26 09:26:50.74	40.55	46.86	-42.9	-48.1	10.3	8.64e-03	0	62	0	543162368	56	6926
2026-01-26 09:26:51.75	40.02	46.73	-42.9	-48.0	10.4	5.20e-03	0	62	0	545259520	56	6862
2026-01-26 09:26:52.76	39.49	46.60	-42.9	-47.9	10.4	4.74e-03	0	62	0	546308096	56	6771
2026-01-26 09:26:53.77	38.97	46.47	-42.9	-47.9	10.4	3.96e-03	0	62	0	548405248	56	6778
2026-01-26 09:26:54.78	38.44	46.34	-42.9	-48.1	10.2	4.08e-03	0	62	0	550502400	56	6955
2026-01-26 09:26:55.79	37.93	46.21	-42.9	-48.0	10.4	6.91e-03	0	61	0	552599552	56	6802
2026-01-26 09:26:56.80	37.42	46.07	-42.4	-46.7	11.7	1.26e-03	0	62	0	554696704	56	5886
2026-01-26 09:26:57.81	36.91	45.93	-42.2	-46.3	12.1	3.33e-04	0	62	0	555745280	56	5651
2026-01-26 09:26:58.82	36.41	45.79	-42.3	-46.5	12.1	2.01e-04	0	62	0	557842432	56	5738
2026-01-26 09:26:59.83	35.91	45.65	-42.4	-46.8	11.7	4.61e-04	0	61	0	559939584	56	5932
2026-01-26 09:27:00.84	35.42	45.50	-42.4	-46.8	11.7	2.25e-04	0	62	0	562036736	56	5969
2026-01-26 09:27:01.85	34.93	45.35	-42.3	-46.3	12.0	3.66e-04	0	62	0	564133888	56	5655
2026-01-26 09:27:02.86	34.44	45.21	-42.7	-47.4	11.0	1.06e-03	0	62	0	565182464	56	6388
2026-01-26 09:27:03.87	33.96	45.06	-43.1	-48.3	10.1	4.76e-03	0	62	0	567279616	56	7045
2026-01-26 09:27:04.88	33.49	44.90	-43.4	-49.3	9.1	1.72e-02	0	62	0	569376768	57	7486
2026-01-26 09:27:05.89	33.02	44.75	-42.9	-47.7	10.6	1.46e-02	0	62	0	571473920	57	6263
2026-01-26 09:27:06.90	32.55	44.60	-42.5	-46.8	11.5	8.72e-04	0	62	0	573571072	57	5634
2026-01-26 09:27:07.91	32.09	44.44	-42.6	-47.0	11.4	5.28e-04	0	62	0	575668224	56	6113
2026-01-26 09:27:08.92	31.63	44.28	-43.1	-48.5	9.9	3.11e-03	0	62	0	576716800	56	7262
2026-01-26 09:27:09.93	31.18	44.12	-43.4	-49.1	9.3	2.07e-02	0	62	0	578813952	57	7360
2026-01-26 09:27:10.94	30.73	43.96	-43.0	-48.0	10.4	1.08e-02	0	62	0	580911104	57	6438
2026-01-26 09:27:11.95	30.29	43.80	-42.4	-46.6	11.8	1.69e-03	0	62	0	583008256	56	5843
2026-01-26 09:27:12.96	29.85	43.64	-42.2	-46.2	12.3	2.64e-04	0	61	0	585105408	56	5537
2026-01-26 09:27:13.97	29.41	43.47	-42.1	-46.0	12.5	2.43e-04	0	62	0	586153984	56	5404
2026-01-26 09:27:14.98	28.98	43.31	-42.2	-46.0	12.4	1.58e-04	0	62	0	588251136	56	5464
2026-01-26 09:27:15.98	28.56	43.14	-41.7	-45.4	12.9	1.16e-04	0	62	0	590348288	55	5361
2026-01-26 09:27:16.99	28.14	42.98	-41.8	-45.6	12.7	7.01e-05	0	62	0	592445440	55	5489
2026-01-26 09:27:18.00	27.73	42.81	-42.0	-45.9	12.4	5.18e-05	0	62	0	594542592	55	5697
2026-01-26 09:27:19.01	27.31	42.64	-42.0	-46.2	12.1	2.17e-04	0	62	0	595591168	55	5878
2026-01-26 09:27:20.02	26.91	42.47	-42.0	-46.0	12.3	3.19e-04	0	62	0	597688320	55	5744
2026-01-26 09:27:21.03	26.50	42.30	-41.9	-45.7	12.6	1.82e-04	0	61	0	599785472	55	5549
2026-01-26 09:27:22.04	26.10	42.13	-41.8	-45.6	12.7	8.08e-05	0	62	0	601882624	55	5503
2026-01-26 09:27:23.05	25.71	41.95	-42.2	-46.5	11.7	5.33e-04	0	62	0	603979776	55	6068
2026-01-26 09:27:24.06	25.32	41.78	-42.6	-47.3	10.9	8.64e-04	0	62	0	605028352	55	6721
2026-01-26 09:27:25.07	24.93	41.61	-43.0	-48.2	10.1	5.03e-03	0	62	0	607125504	56	6997
2026-01-26 09:27:26.08	24.55	41.43	-43.2	-48.8	9.4	1.45e-02	0	62	0	609222656	57	7093
2026-01-26 09:27:27.09	24.17	41.26	-43.4	-49.5	8.8	3.36e-02	0	62	0	611319808	57	7652
2026-01-26 09:27:28.10	23.80	41.08	-43.7	-50.6	7.7	4.36e-02	0	62	0	613416960	57	8668
2026-01-26 09:27:29.11	23.43	40.91	-43.5	-49.9	8.5	5.56e-02	0	62	0	614465536	57	8036
2026-01-26 09:27:30.12	23.06	40.73	-43.3	-49.0	9.1	2.51e-02	0	62	0	616562688	57	7285
2026-01-26 09:27:31.13	22.70	40.55	-43.0	-48.1	10.2	1.14e-02	0	62	0	618659840	57	6564
2026-01-26 09:27:32.14	22.34	40.38	-42.9	-47.8	10.4	4.03e-03	0	62	0	620756992	57	6335
2026-01-26 09:27:33.15	21.99	40.20	-42.8	-47.5	10.9	2.97e-03	0	62	0	622854144	57	6076
2026-01-26 09:27:34.16	21.64	40.02	-42.9	-47.7	10.6	1.76e-03	0	62	0	623902720	57	6225
2026-01-26 09:27:35.17	21.29	39.84	-42.9	-47.8	10.6	2.48e-03	0	62	0	625999872	57	6278
2026-01-26 09:27:36.18	20.95	39.66	-43.1	-48.3	10.0	4.77e-03	0	62	0	628097024	57	6719
2026-01-26 09:27:37.19	20.61	39.48	-43.2	-48.7	9.7	9.16e-03	0	62	0	630194176	57	6960
2026-01-26 09:27:38.20	20.28	39.30	-43.3	-48.9	9.7	1.30e-02	0	62	0	632291328	57	7166
2026-01-26 09:27:39.21	19.95	39.12	-43.0	-48.0	10.2	9.71e-03	0	62	0	633339904	57	6473
2026-01-26 09:27:40.22	19.62	38.95	-43.0	-48.0	10.3	6.29e-03	0	62	0	635437056	57	6466
2026-01-26 09:27:41.24	19.29	38.76	-43.0	-48.2	10.0	3.96e-03	0	62	0	637534208	57	6623
2026-01-26 09:27:42.24	18.97	38.59	-43.1	-48.4	10.0	7.66e-03	0	62	0	639631360	57	6750
2026-01-26 09:27:43.25	18.66	38.41	-43.3	-49.6	8.6	1.93e-02	0	62	0	641728512	57	7795
2026-01-26 09:27:44.26	18.34	38.23	-43.7	-50.4	7.8	6.30e-02	0	62	0	643825664	57	8545
2026-01-26 09:27:45.27	18.03	38.05	-43.9	-51.3	7.0	1.73e-01	0	62	0	644874240	58	8914
2026-01-26 09:27:46.28	17.73	37.87	-43.9	-51.3	7.0	1.94e-01	0	62	0	646971392	58	8863
2026-01-26 09:27:47.29	17.43	37.69	-43.7	-50.7	7.4	1.29e-01	0	62	0	649068544	58	8360
2026-01-26 09:27:48.30	17.13	37.51	-43.7	-50.6	7.6	9.45e-02	0	62	0	651165696	58	8221
2026-01-26 09:27:49.31	16.83	37.33	-44.0	-51.6	6.7	1.57e-01	0	62	0	653262848	58	9268
2026-01-26 09:27:50.32	16.54	37.15	-44.0	-51.7	6.6	1.91e-01	0	62	0	654311424	58	9351
2026-01-26 09:27:51.33	16.25	36.97	-43.8	-50.9	7.4	1.87e-01	0	62	0	656408576	58	8507
2026-01-26 09:27:52.34	15.96	36.79	-43.5	-49.7	8.6	5.45e-02	0	62	0	658505728	58	7380
2026-01-26 09:27:53.35	15.68	36.61	-43.3	-48.9	9.3	2.65e-01	0	62	0	660602880	58	6752
2026-01-26 09:27:54.36	15.40	36.43	-44.6	-53.9	5.0	6.11e-01	0	62	0	661651456	60	10759
2026-01-26 09:27:55.37	15.12	36.25	-43.6	-49.4	8.6	3.42e-01	0	62	0	663748608	58	7199
2026-01-26 09:27:56.38	14.85	36.08	-43.9	-50.5	7.5	1.99e-01	0	62	0	665845760	59	7659
2026-01-26 09:27:57.39	14.58	35.90	-42.3	-46.2	12.1	6.04e-04	0	62	0	667942912	56	5586
2026-01-26 09:27:58.40	14.31	35.72	-42.1	-46.0	12.2	2.27e-04	0	62	0	668991488	55	5784
2026-01-26 09:27:59.41	14.04	35.54	-42.4	-46.8	11.4	6.55e-04	0	62	0	671088640	55	6291
2026-01-26 09:28:00.42	13.78	35.37	-42.5	-47.1	11.0	1.29e-03	0	62	0	673185792	55	6551
2026-01-26 09:28:01.43	13.52	35.19	-43.1	-48.2	10.1	5.19e-03	0	62	0	675282944	56	6978
2026-01-26 09:28:02.44	13.27	35.01	-43.1	-48.4	9.9	1.09e-02	0	62	0	677380096	57	6731
2026-01-26 09:28:03.45	13.01	34.84	-43.5	-49.5	8.8	1.83e-02	0	62	0	678428672	57	7638
2026-01-26 09:28:04.46	12.76	34.66	-43.7	-50.2	8.0	4.68e-02	0	62	0	680525824	57	8339
2026-01-26 09:28:05.47	12.51	34.48	-43.9	-51.1	7.2	1.23e-01	0	62	0	682622976	58	8701
2026-01-26 09:28:06.48	12.27	34.31	-43.9	-51.0	7.3	1.17e-01	0	62	0	684720128	58	8575
2026-01-26 09:28:07.50	12.02	34.13	-43.7	-50.6	7.6	1.00e-01	0	62	0	686817280	58	8210
2026-01-26 09:28:08.51	11.78	33.96	-43.6	-49.9	8.3	7.27e-02	0	62	0	688914432	58	7567
2026-01-26 09:28:09.52	11.54	33.78	-43.6	-50.0	8.2	5.75e-02	0	62	0	689963008	58	7658
2026-01-26 09:28:10.53	11.31	33.61	-43.5	-49.4	8.8	5.36e-02	0	62	0	692060160	58	7152
2026-01-26 09:28:11.54	11.08	33.44	-43.3	-49.0	9.2	2.71e-02	0	62	0	694157312	58	6811
2026-01-26 09:28:12.55	10.85	33.26	-43.1	-48.1	10.1	1.17e-02	0	62	0	696254464	58	6197
2026-01-26 09:28:13.56	10.62	33.09	-42.7	-47.3	11.0	2.67e-03	0	62	0	698351616	57	5978
2026-01-26 09:28:14.57	10.39	32.92	-42.4	-46.5	11.8	4.91e-04	0	62	0	699400192	56	5759
2026-01-26 09:28:15.58	10.17	32.75	-42.5	-47.0	11.3	5.41e-04	0	62	0	701497344	56	6086
2026-01-26 09:28:16.59	9.95	32.58	-42.8	-47.6	10.8	1.62e-03	0	62	0	703594496	56	6531
2026-01-26 09:28:17.60	9.73	32.41	-43.2	-48.5	9.7	8.92e-03	0	62	0	705691648	56	7258
2026-01-26 09:28:18.61	9.52	32.24	-43.4	-49.2	8.9	2.24e-02	0	62	0	707788800	57	7441
2026-01-26 09:28:19.61	9.31	32.07	-43.7	-50.6	7.6	3.97e-02	0	62	0	708837376	58	8177
2026-01-26 09:28:20.62	9.10	31.90	-43.6	-49.7	8.4	6.77e-02	0	62	0	710934528	58	7415
2026-01-26 09:28:21.63	8.89	31.73	-43.2	-48.6	9.7	1.68e-02	0	62	0	713031680	58	6497
2026-01-26 09:28:22.64	8.68	31.57	-42.6	-47.0	11.2	2.91e-03	0	62	0	715128832	57	5770
2026-01-26 09:28:23.65	8.48	31.40	-42.3	-46.4	11.9	7.09e-04	0	62	0	717225984	56	5668
2026-01-26 09:28:24.66	8.27	31.23	-42.0	-45.8	12.5	1.74e-04	0	62	0	718274560	56	5308
2026-01-26 09:28:25.67	8.07	31.07	-41.8	-45.6	12.6	9.15e-05	0	62	0	720371712	55	5474
2026-01-26 09:28:26.68	7.87	30.90	-42.4	-46.7	11.4	2.06e-04	0	62	0	722468864	55	6238
2026-01-26 09:28:27.69	7.68	30.74	-42.6	-47.3	10.7	2.06e-03	0	62	0	724566016	55	6702
2026-01-26 09:28:28.70	7.48	30.57	-43.2	-48.7	9.4	7.51e-03	0	62	0	726663168	57	6997
2026-01-26 09:28:29.71	7.29	30.41	-43.3	-49.0	9.2	1.49e-02	0	62	0	727711744	57	7233
2026-01-26 09:28:30.72	7.10	30.24	-43.5	-49.7	8.4	4.79e-02	0	62	0	729808896	57	7836
2026-01-26 09:28:31.73	6.91	30.08	-43.3	-48.9	9.2	3.21e-02	0	62	0	731906048	57	7204
2026-01-26 09:28:32.74	6.73	29.92	-43.0	-48.4	9.8	1.78e-02	0	62	0	734003200	57	6745
2026-01-26 09:28:33.75	6.54	29.76	-42.9	-47.8	10.4	5.19e-03	0	62	0	736100352	57	6319
2026-01-26 09:28:34.76	6.36	29.60	-42.9	-48.0	10.2	4.58e-03	0	62	0	737148928	57	6447
2026-01-26 09:28:35.77	6.18	29.44	-42.7	-47.4	10.7	3.11e-03	0	62	0	739246080	57	6060
2026-01-26 09:28:36.78	6.00	29.28	-42.8	-47.8	10.4	3.50e-03	0	62	0	741343232	57	6283
2026-01-26 09:28:37.79	5.82	29.12	-42.8	-47.8	10.4	5.32e-03	0	62	0	743440384	57	6283
2026-01-26 09:28:38.80	5.65	28.96	-42.8	-47.7	10.4	4.81e-03	0	62	0	745537536	57	6225
2026-01-26 09:28:39.81	5.47	28.80	-42.6	-47.1	11.1	3.28e-03	0	62	0	746586112	57	5814
2026-01-26 09:28:40.82	5.30	28.64	-42.5	-46.9	11.2	1.20e-03	0	62	0	748683264	56	6056
2026-01-26 09:28:41.83	5.13	28.49	-42.3	-46.5	11.6	6.90e-04	0	62	0	750780416	56	5770
2026-01-26 09:28:42.84	4.96	28.33	-42.2	-46.2	12.0	3.59e-04	0	62	0	752877568	56	5553
2026-01-26 09:28:43.85	4.80	28.18	-42.2	-46.3	12.0	3.11e-04	0	62	0	754974720	56	5616
2026-01-26 09:28:44.86	4.63	28.02	-42.4	-46.8	11.5	5.60e-04	0	62	0	757071872	56	5945
2026-01-26 09:28:45.87	4.47	27.87	-42.4	-46.6	11.5	9.78e-04	0	62	0	758120448	56	5848
2026-01-26 09:28:46.88	4.31	27.71	-42.3	-46.6	11.6	7.86e-04	0	62	0	760217600	56	5809
2026-01-26 09:28:47.89	4.14	27.56	-42.5	-46.9	11.2	1.00e-03	0	62	0	762314752	56	6019
2026-01-26 09:28:48.90	3.99	27.41	-42.5	-47.0	11.2	1.33e-03	0	62	0	764411904	56	6072
2026-01-26 09:28:49.91	3.83	27.25	-42.7	-47.6	10.5	2.97e-03	0	62	0	766509056	56	6531
2026-01-26 09:28:50.92	3.67	27.10	-43.0	-48.2	9.9	8.28e-03	0	62	0	767557632	56	7002
2026-01-26 09:28:51.93	3.52	26.95	-43.3	-49.4	8.6	2.09e-02	0	62	0	769654784	57	7587
2026-01-26 09:28:52.94	3.37	26.80	-43.4	-49.6	8.5	4.69e-02	0	62	0	771751936	57	7725
2026-01-26 09:28:53.95	3.21	26.65	-43.6	-50.1	8.0	5.69e-02	0	62	0	773849088	57	8189
2026-01-26 09:28:54.96	3.06	26.50	-43.3	-49.4	8.6	5.08e-02	0	62	0	775946240	57	7559
2026-01-26 09:28:55.97	2.92	26.35	-43.2	-48.8	9.2	2.88e-02	0	62	0	776994816	57	7115
2026-01-26 09:28:56.98	2.77	26.21	-43.0	-48.3	9.7	1.36e-02	0	62	0	779091968	57	6710
2026-01-26 09:28:57.99	2.62	26.06	-42.9	-48.0	10.1	8.56e-03	0	62	0	781189120	57	6449
2026-01-26 09:28:59.00	2.48	25.91	-42.9	-47.9	10.1	7.27e-03	0	62	0	783286272	57	6411
2026-01-26 09:29:00.00	2.34	25.77	-42.9	-48.0	10.0	5.76e-03	0	62	0	785383424	57	6460
2026-01-26 09:29:01.01	2.20	25.62	-42.7	-47.6	10.4	4.35e-03	0	62	0	786432000	57	6187
2026-01-26 09:29:02.02	2.06	25.48	-42.6	-47.3	10.8	3.52e-03	0	62	0	788529152	57	5961
2026-01-26 09:29:03.04	1.92	25.33	-42.5	-47.0	11.1	2.04e-03	0	62	0	790626304	57	5757
2026-01-26 09:29:04.04	1.78	25.19	-42.4	-46.8	11.3	1.38e-03	0	62	0	792723456	56	5947
2026-01-26 09:29:05.05	1.64	25.05	-42.2	-46.4	11.7	1.02e-03	0	62	0	794820608	56	5705
2026-01-26 09:29:06.06	1.51	24.91	-42.3	-46.7	11.3	7.06e-04	0	62	0	795869184	56	5908
2026-01-26 09:29:07.07	1.37	24.76	-42.4	-47.0	11.1	8.58e-04	0	62	0	797966336	56	6088
2026-01-26 09:29:08.08	1.24	24.62	-42.5	-47.0	11.0	1.69e-03	0	62	0	800063488	56	6130
2026-01-26 09:29:09.09	1.11	24.48	-42.6	-47.4	10.6	2.19e-03	0	62	0	802160640	56	6411
2026-01-26 09:29:10.10	0.98	24.34	-42.7	-47.6	10.4	5.59e-03	0	62	0	804257792	56	6544
2026-01-26 09:29:11.11	0.85	24.20	-42.6	-47.5	10.5	4.27e-03	0	62	0	805306368	56	6423
2026-01-26 09:29:12.12	0.72	24.06	-42.6	-47.5	10.5	4.70e-03	0	62	0	807403520	56	6445
2026-01-26 09:29:13.13	0.60	23.93	-42.4	-46.9	11.1	2.14e-03	0	62	0	809500672	56	6011
2026-01-26 09:29:14.14	0.47	23.79	-42.3	-46.6	11.3	1.29e-03	0	62	0	811597824	56	5850
2026-01-26 09:29:15.15	0.35	23.65	-42.2	-46.3	11.7	8.70e-04	0	62	0	813694976	56	5646
2026-01-26 09:29:16.16	0.22	23.51	-42.1	-46.3	11.7	5.13e-04	0	62	0	814743552	56	5619
2026-01-26 09:29:17.18	0.10	23.38	-42.0	-46.0	11.9	4.79e-04	0	62	0	816840704	56	5432
2026-01-26 09:29:18.18	359.98	23.24	-41.9	-46.0	11.8	3.13e-04	0	62	0	818937856	55	5769
2026-01-26 09:29:19.20	359.86	23.11	-41.8	-45.7	12.1	3.05e-04	0	62	0	821035008	55	5567
2026-01-26 09:29:20.21	359.74	22.97	-41.7	-45.6	12.2	3.30e-04	0	62	0	823132160	55	5513
2026-01-26 09:29:21.21	359.62	22.84	-41.7	-45.6	12.2	2.32e-04	0	62	0	824180736	55	5507
2026-01-26 09:29:22.22	359.51	22.71	-41.7	-45.6	12.2	2.33e-04	0	62	0	826277888	55	5511
2026-01-26 09:29:23.23	359.39	22.57	-41.7	-45.6	12.1	2.30e-04	0	62	0	828375040	55	5486
2026-01-26 09:29:24.24	359.27	22.44	-41.7	-45.6	12.0	2.66e-04	0	62	0	830472192	55	5523
2026-01-26 09:29:25.25	359.16	22.31	-41.7	-45.7	12.0	3.47e-04	0	62	0	832569344	55	5591
2026-01-26 09:29:26.26	359.05	22.18	-41.9	-46.2	11.5	5.68e-04	0	62	0	834666496	55	5879
2026-01-26 09:29:27.27	358.94	22.05	-42.0	-46.4	11.2	9.51e-04	0	62	0	835715072	55	6007
2026-01-26 09:29:28.28	358.82	21.92	-42.1	-46.8	10.8	1.56e-03	0	62	0	837812224	55	6303
2026-01-26 09:29:29.30	358.71	21.79	-42.3	-47.2	10.3	4.28e-03	0	62	0	839909376	55	6601
2026-01-26 09:29:30.31	358.60	21.66	-42.3	-47.3	10.2	5.94e-03	0	62	0	842006528	55	6659
2026-01-26 09:29:31.32	358.50	21.53	-42.3	-47.2	10.3	6.52e-03	0	62	0	844103680	55	6604
2026-01-26 09:29:32.32	358.39	21.41	-42.3	-47.2	10.3	5.70e-03	0	62	0	845152256	55	6624
2026-01-26 09:29:33.33	358.28	21.28	-42.2	-47.0	10.4	6.24e-03	0	62	0	847249408	55	6472
2026-01-26 09:29:34.34	358.18	21.15	-42.1	-46.8	10.6	3.98e-03	0	62	0	849346560	55	6286
2026-01-26 09:29:35.35	358.07	21.03	-41.9	-46.5	10.9	2.34e-03	0	62	0	851443712	55	6108
2026-01-26 09:29:36.36	357.97	20.90	-41.9	-46.4	11.0	1.96e-03	0	62	0	853540864	55	6025
2026-01-26 09:29:37.37	357.87	20.78	-41.9	-46.4	10.9	2.15e-03	0	62	0	854589440	55	6022
2026-01-26 09:29:38.38	357.77	20.65	-41.9	-46.6	10.5	2.07e-03	0	62	0	856686592	55	6194
2026-01-26 09:29:39.39	357.66	20.53	-41.8	-46.4	10.7	3.38e-03	0	62	0	858783744	55	6011
2026-01-26 09:29:40.40	357.56	20.40	-41.7	-46.4	10.7	2.58e-03	0	62	0	860880896	55	6024
2026-01-26 09:29:41.41	357.47	20.28	-41.7	-46.5	10.5	3.71e-03	0	62	0	862978048	55	6112
2026-01-26 09:29:42.42	357.37	20.16	-41.7	-46.7	10.2	5.19e-03	0	62	0	864026624	55	6218
2026-01-26 09:29:43.43	357.27	20.04	-41.7	-46.8	10.0	7.07e-03	0	62	0	866123776	55	6327
2026-01-26 09:29:44.44	357.17	19.91	-41.7	-46.9	9.9	7.75e-03	0	62	0	868220928	55	6383
2026-01-26 09:29:45.45	357.08	19.79	-41.8	-47.2	9.4	1.52e-02	0	62	0	870318080	55	6630
2026-01-26 09:29:46.46	356.98	19.67	-41.6	-46.9	9.8	1.25e-02	0	62	0	872415232	55	6350
2026-01-26 09:29:47.47	356.89	19.55	-41.6	-46.9	9.7	1.08e-02	0	62	0	873463808	55	6369
2026-01-26 09:29:48.48	356.79	19.43	-41.5	-46.6	9.9	9.53e-03	0	62	0	875560960	54	6552
2026-01-26 09:29:49.49	356.70	19.32	-41.3	-46.3	10.1	6.21e-03	0	62	0	877658112	54	6309
2026-01-26 09:29:50.50	356.61	19.20	-41.2	-46.4	9.9	6.81e-03	0	62	0	879755264	54	6352
2026-01-26 09:29:51.51	356.51	19.08	-41.3	-46.7	9.7	1.11e-02	0	62	0	881852416	54	6578
2026-01-26 09:29:52.52	356.42	18.96	-41.2	-46.6	9.4	1.32e-02	0	62	0	882900992	54	6550
2026-01-26 09:29:53.53	356.33	18.84	-41.3	-47.0	9.0	1.94e-02	0	62	0	884998144	54	6844
2026-01-26 09:29:54.54	356.24	18.73	-41.4	-47.7	8.1	3.59e-02	0	62	0	887095296	54	7411
2026-01-26 09:29:55.55	356.16	18.61	-41.5	-48.4	7.3	9.54e-02	0	62	0	889192448	54	8008
2026-01-26 09:29:56.56	356.07	18.50	-41.5	-49.0	6.7	1.65e-01	0	62	0	891289600	54	8609
2026-01-26 09:29:57.57	355.98	18.38	-41.6	-49.8	5.9	2.87e-01	0	62	0	892338176	54	9472
2026-01-26 09:29:58.58	355.89	18.27	-41.5	-50.3	5.5	4.47e-01	0	62	0	894435328	54	10004
2026-01-26 09:29:59.59	355.81	18.15	-41.5	-51.0	5.0	6.37e-01	0	62	0	896532480	54	10806
2026-01-26 09:30:00.60	355.72	18.04	-41.5	-52.3	4.4	8.15e-01	0	62	0	898629632	54	12536
2026-01-26 09:30:01.61	355.64	17.93	-41.3	-54.1	3.8	1.44e+00	0	62	104	898629632	54	15442
2026-01-26 09:30:02.62	355.55	17.81	-41.9	-54.1	3.8	1.49e+00	0	62	104	898629632	54	15466
2026-01-26 09:30:03.63	355.47	17.70	-41.4	-55.5	3.8	1.49e+00	0	62	104	898629632	54	18228
2026-01-26 09:30:04.64	355.39	17.59	-41.9	-54.4	3.8	1.49e+00	0	62	104	898629632	54	16121
2026-01-26 09:30:05.65	355.31	17.48	-42.1	-54.4	4.0	1.48e+00	0	62	104	898629632	55	15076
2026-01-26 09:30:06.66	355.22	17.37	-42.0	-54.7	3.8	1.49e+00	0	62	104	898629632	55	15691
2026-01-26 09:30:07.67	355.14	17.26	-41.9	-55.1	3.8	1.49e+00	0	62	104	898629632	55	16498
2026-01-26 09:30:08.68	355.06	17.15	-41.7	-55.5	3.8	1.49e+00	0	62	104	898629632	55	17110
2026-01-26 09:30:09.69	354.98	17.04	-41.6	-55.5	3.8	1.49e+00	0	62	104	898629632	55	17095
2026-01-26 09:30:10.70	354.90	16.93	-40.8	-55.4	3.8	1.49e+00	0	62	104	898629632	53	19044
2026-01-26 09:30:11.70	354.83	16.82	-40.7	-55.3	3.8	1.49e+00	0	62	104	898629632	53	18879
2026-01-26 09:30:12.71	354.75	16.71	-41.1	-55.7	3.8	1.49e+00	0	62	104	898629632	53	19645
2026-01-26 09:30:13.72	354.67	16.60	-40.8	-55.5	3.8	1.49e+00	0	62	104	898629632	53	19170
2026-01-26 09:30:14.73	354.60	16.49	-40.9	-55.4	3.8	1.49e+00	0	62	104	898629632	53	19146
2026-01-26 09:30:15.74	354.52	16.39	-40.7	-55.3	3.8	1.49e+00	0	62	104	898629632	53	18761
2026-01-26 09:30:16.75	354.44	16.28	-41.0	-55.6	3.8	1.49e+00	0	62	104	898629632	53	19523
2026-01-26 09:30:17.76	354.37	16.17	-40.6	-55.2	3.8	1.49e+00	0	62	104	898629632	53	18551
2026-01-26 09:30:18.77	354.29	16.07	-40.8	-55.4	3.8	1.49e+00	0	62	104	898629632	53	19124
2026-01-26 09:30:19.78	354.22	15.96	-40.6	-55.2	3.8	1.49e+00	0	62	104	898629632	53	18684
2026-01-26 09:30:20.79	354.15	15.86	-40.8	-55.4	3.8	1.49e+00	0	62	104	898629632	53	19021
2026-01-26 09:30:21.80	354.07	15.75	-40.5	-55.1	3.8	1.49e+00	0	62	104	898629632	53	18306
2026-01-26 09:30:22.81	354.00	15.65	-40.8	-55.4	3.8	1.49e+00	0	62	104	898629632	53	19046
2026-01-26 09:30:23.82	353.93	15.55	-40.6	-55.1	3.8	1.49e+00	0	62	104	898629632	53	18504
2026-01-26 09:30:24.83	353.86	15.44	-40.6	-55.2	3.8	1.49e+00	0	62	104	898629632	53	18677
2026-01-26 09:30:25.84	353.79	15.34	-40.5	-55.1	3.8	1.49e+00	0	62	104	898629632	53	18332
2026-01-26 09:30:26.85	353.72	15.24	-40.7	-55.3	3.8	1.49e+00	0	62	104	898629632	53	18799
2026-01-26 09:30:27.86	353.65	15.13	-40.6	-55.1	3.8	1.49e+00	0	62	104	898629632	53	18494
2026-01-26 09:30:28.87	353.58	15.03	-40.7	-55.2	3.8	1.49e+00	0	62	104	898629632	53	18630
2026-01-26 09:30:29.88	353.51	14.93	-40.6	-55.1	3.8	1.49e+00	0	62	104	898629632	53	18470
2026-01-26 09:30:30.89	353.44	14.83	-40.6	-55.1	3.8	1.49e+00	0	62	104	898629632	53	18431
2026-01-26 09:30:31.90	353.38	14.73	-40.7	-55.2	3.8	1.49e+00	0	62	104	898629632	53	18580
2026-01-26 09:30:32.91	353.31	14.63	-40.6	-55.2	3.8	1.49e+00	0	62	104	898629632	53	18593
2026-01-26 09:30:33.92	353.24	14.53	-40.7	-55.2	3.8	1.49e+00	0	62	104	898629632	53	18648
2026-01-26 09:30:34.93	353.18	14.43	-40.5	-55.0	3.8	1.49e+00	0	62	104	898629632	53	18294
2026-01-26 09:30:35.94	353.11	14.33	-40.7	-55.2	3.8	1.49e+00	0	62	104	898629632	52	19774
2026-01-26 09:30:36.95	353.04	14.23	-40.5	-55.1	3.8	1.49e+00	0	62	104	898629632	52	19401
2026-01-26 09:30:37.96	352.98	14.13	-40.7	-55.2	3.8	1.49e+00	0	62	104	898629632	52	19822
2026-01-26 09:30:38.97	352.92	14.03	-40.5	-55.0	3.8	1.49e+00	0	62	104	898629632	52	19322
2026-01-26 09:30:39.98	352.85	13.94	-40.7	-55.2	3.8	1.49e+00	0	62	104	898629632	52	19792
2026-01-26 09:30:40.99	352.79	13.84	-40.5	-55.0	3.8	1.49e+00	0	62	104	898629632	52	19314
2026-01-26 09:30:42.00	352.72	13.74	-40.6	-55.2	3.8	1.49e+00	0	62	104	898629632	52	19626
2026-01-26 09:30:43.01	352.66	13.64	-40.5	-55.1	3.8	1.49e+00	0	62	104	898629632	52	19414
2026-01-26 09:30:44.02	352.60	13.55	-40.7	-55.3	3.8	1.49e+00	0	62	104	898629632	52	19850
2026-01-26 09:30:45.03	352.54	13.45	-40.5	-55.0	3.8	1.49e+00	0	62	104	898629632	52	19252
2026-01-26 09:30:46.04	352.48	13.36	-40.6	-55.1	3.8	1.49e+00	0	62	104	898629632	52	19470
2026-01-26 09:30:47.05	352.42	13.26	-40.6	-55.2	3.8	1.49e+00	0	62	104	898629632	52	19648
2026-01-26 09:30:48.06	352.36	13.16	-40.7	-55.2	3.8	1.49e+00	0	62	104	898629632	52	19770
2026-01-26 09:30:49.07	352.30	13.07	-40.5	-55.0	3.8	1.49e+00	0	62	104	898629632	52	19334
2026-01-26 09:30:50.08	352.24	12.98	-40.6	-55.1	3.8	1.49e+00	0	62	104	898629632	52	19488
2026-01-26 09:30:51.09	352.18	12.88	-40.7	-55.2	3.8	1.49e+00	0	62	104	898629632	52	19802
2026-01-26 09:30:52.10	352.12	12.79	-40.7	-55.2	3.8	1.49e+00	0	62	104	898629632	52	19684
2026-01-26 09:30:53.11	352.06	12.69	-40.6	-55.2	3.8	1.49e+00	0	62	104	898629632	52	19619
2026-01-26 09:30:54.12	352.00	12.60	-40.6	-55.1	3.8	1.49e+00	0	62	104	898629632	52	19454
2026-01-26 09:30:55.13	351.94	12.51	-40.7	-55.2	3.8	1.49e+00	0	62	104	898629632	52	19750
