passes_logs/2026/01/26/R2.0S_Moscow/R2.0S_Moscow__20260126_010848_SUOMI_NPP_rec.log

#Pass ID: 20260126_010848_SUOMI NPP
#Satellite: SUOMI NPP
#Configuration: NPP
#almurnet v.1.7.20251203
#Start time: 2026-01-26 01:08:49

#Version: 2.2.20231116
#Station: R2.0S_Moscow
#Location: 37.707566 lon 55.798166 lat
#TLE: 1 37849U 11061A   26025.53586395  .00000179  00000+0  10601-3 0  9996
#TLE: 2 37849  98.7821 327.4943 0002169  45.6246 314.5108 14.19529815738202

#Time	Az	El	Level	Level2	SNR	BER	BlckErr	Temp	State	Recorded	gain1	gain2
2026-01-26 01:08:49.28	11.04	2.06	-39.8	-54.4	3.8	1.49e+00	0	52	0	0	51	19017
2026-01-26 01:08:50.28	10.99	2.12	-39.8	-54.3	3.8	1.49e+00	0	53	104	0	51	18940
2026-01-26 01:08:51.29	10.93	2.17	-39.8	-54.3	3.8	1.49e+00	0	53	104	0	51	18917
2026-01-26 01:08:52.30	10.88	2.23	-39.8	-54.3	3.8	1.49e+00	0	53	104	0	51	18948
2026-01-26 01:08:53.31	10.82	2.29	-39.8	-54.3	3.8	1.49e+00	0	53	104	0	51	18886
2026-01-26 01:08:54.32	10.77	2.35	-39.8	-54.3	3.8	1.49e+00	0	53	104	0	51	18916
2026-01-26 01:08:55.33	10.71	2.41	-39.8	-54.4	3.8	1.49e+00	0	53	104	0	51	18964
2026-01-26 01:08:56.34	10.65	2.47	-39.8	-54.3	3.8	1.49e+00	0	53	104	0	51	18905
2026-01-26 01:08:57.35	10.60	2.53	-39.8	-54.3	3.8	1.49e+00	0	53	104	0	51	18935
2026-01-26 01:08:58.36	10.54	2.59	-39.8	-54.3	3.8	1.49e+00	0	53	104	0	51	18934
2026-01-26 01:08:59.37	10.48	2.65	-39.8	-54.4	3.8	1.49e+00	0	53	104	0	51	18968
2026-01-26 01:09:00.38	10.43	2.71	-39.8	-54.3	3.8	1.49e+00	0	53	104	0	51	18903
2026-01-26 01:09:01.39	10.37	2.77	-39.8	-54.3	3.8	1.49e+00	0	54	104	0	51	18843
2026-01-26 01:09:02.40	10.31	2.83	-39.8	-54.3	3.8	1.49e+00	0	53	104	0	51	18871
2026-01-26 01:09:03.41	10.25	2.90	-39.8	-54.3	3.8	1.49e+00	0	53	104	0	51	18935
2026-01-26 01:09:04.42	10.20	2.96	-39.8	-54.3	3.8	1.49e+00	0	54	104	0	51	18905
2026-01-26 01:09:05.43	10.14	3.02	-39.8	-54.3	3.8	1.49e+00	0	54	104	0	51	18887
2026-01-26 01:09:06.44	10.08	3.08	-39.8	-54.3	3.8	1.49e+00	0	54	104	0	51	18899
2026-01-26 01:09:07.45	10.02	3.14	-39.8	-54.3	3.8	1.49e+00	0	54	104	0	51	18945
2026-01-26 01:09:08.46	9.96	3.20	-39.8	-54.3	3.8	1.49e+00	0	54	104	0	51	18926
2026-01-26 01:09:09.47	9.90	3.26	-39.8	-54.3	3.8	1.49e+00	0	54	104	0	51	18896
2026-01-26 01:09:10.48	9.84	3.32	-39.8	-54.3	3.8	1.49e+00	0	54	104	0	51	18843
2026-01-26 01:09:11.50	9.78	3.38	-39.8	-54.3	3.8	1.49e+00	0	54	104	0	51	18925
2026-01-26 01:09:12.51	9.72	3.45	-39.8	-54.3	3.8	1.49e+00	0	54	104	0	51	18910
2026-01-26 01:09:13.52	9.66	3.51	-39.8	-54.3	3.8	1.49e+00	0	54	104	0	51	18855
2026-01-26 01:09:14.53	9.60	3.57	-39.8	-54.3	3.8	1.49e+00	0	54	104	0	51	18847
2026-01-26 01:09:15.54	9.54	3.63	-39.8	-54.3	3.8	1.49e+00	0	54	104	0	51	18917
2026-01-26 01:09:16.55	9.47	3.69	-39.8	-54.3	3.8	1.49e+00	0	55	104	0	51	18888
2026-01-26 01:09:17.56	9.41	3.76	-39.8	-54.3	3.8	1.49e+00	0	54	104	0	51	18880
2026-01-26 01:09:18.57	9.35	3.82	-39.8	-54.3	3.8	1.49e+00	0	54	104	0	51	18848
2026-01-26 01:09:19.58	9.29	3.88	-39.8	-54.3	3.8	1.49e+00	0	54	104	0	51	18855
2026-01-26 01:09:20.59	9.23	3.94	-39.8	-54.3	3.8	1.49e+00	0	55	104	0	51	18902
2026-01-26 01:09:21.60	9.16	4.00	-39.8	-54.3	3.8	1.49e+00	0	55	104	0	51	18879
2026-01-26 01:09:22.61	9.10	4.07	-39.8	-54.3	3.8	1.49e+00	0	55	104	0	51	18892
2026-01-26 01:09:23.62	9.04	4.13	-39.8	-54.3	3.8	1.49e+00	0	55	104	0	51	18904
2026-01-26 01:09:24.63	8.97	4.19	-39.8	-54.3	3.8	1.49e+00	0	55	104	0	51	18890
2026-01-26 01:09:25.64	8.91	4.26	-39.8	-54.3	3.8	1.49e+00	0	55	104	0	51	18875
2026-01-26 01:09:26.65	8.84	4.32	-39.8	-54.3	3.8	1.49e+00	0	55	104	0	51	18835
2026-01-26 01:09:27.66	8.78	4.38	-39.8	-54.3	3.8	1.49e+00	0	55	104	0	51	18875
2026-01-26 01:09:28.67	8.72	4.45	-39.8	-54.3	3.8	1.49e+00	0	55	104	0	51	18861
2026-01-26 01:09:29.68	8.65	4.51	-39.8	-54.3	3.8	1.49e+00	0	55	104	0	51	18862
2026-01-26 01:09:30.69	8.58	4.57	-39.8	-54.3	3.8	1.49e+00	0	55	104	0	51	18850
2026-01-26 01:09:31.71	8.52	4.64	-39.8	-54.3	3.8	1.49e+00	0	55	104	0	51	18861
2026-01-26 01:09:32.72	8.45	4.70	-39.8	-54.3	3.8	1.49e+00	0	55	104	0	51	18848
2026-01-26 01:09:33.73	8.39	4.76	-39.8	-54.3	3.8	1.49e+00	0	56	104	0	51	18901
2026-01-26 01:09:34.74	8.32	4.83	-39.8	-54.3	3.8	1.49e+00	0	55	104	0	51	18851
2026-01-26 01:09:35.75	8.25	4.89	-39.8	-54.3	3.8	1.49e+00	0	56	104	0	51	18890
2026-01-26 01:09:36.76	8.18	4.96	-39.8	-54.3	3.8	1.49e+00	0	55	104	0	51	18870
2026-01-26 01:09:37.77	8.12	5.02	-39.8	-54.3	3.8	1.49e+00	0	56	104	0	51	18870
2026-01-26 01:09:38.78	8.05	5.09	-39.8	-54.3	3.8	1.49e+00	0	56	104	0	51	18842
2026-01-26 01:09:39.79	7.98	5.15	-39.8	-54.3	3.8	1.49e+00	0	56	104	0	51	18800
2026-01-26 01:09:40.80	7.91	5.21	-39.8	-54.3	3.8	1.49e+00	0	56	104	0	51	18893
2026-01-26 01:09:41.81	7.84	5.28	-39.8	-54.3	3.8	1.49e+00	0	56	104	0	51	18801
2026-01-26 01:09:42.82	7.77	5.34	-39.8	-54.3	3.8	1.49e+00	0	56	104	0	51	18850
2026-01-26 01:09:43.83	7.70	5.41	-39.8	-54.3	3.8	1.49e+00	0	56	104	0	51	18898
2026-01-26 01:09:44.84	7.63	5.47	-39.8	-54.3	3.8	1.49e+00	0	56	104	0	51	18817
2026-01-26 01:09:45.86	7.56	5.54	-39.8	-54.3	3.8	1.49e+00	0	56	104	0	51	18875
2026-01-26 01:09:46.87	7.49	5.61	-39.8	-54.3	3.8	1.49e+00	0	56	104	0	51	18848
2026-01-26 01:09:47.88	7.42	5.67	-39.8	-54.3	3.8	1.49e+00	0	56	104	0	51	18854
2026-01-26 01:09:48.89	7.35	5.74	-39.8	-54.3	3.8	1.49e+00	0	56	104	0	51	18820
2026-01-26 01:09:49.90	7.28	5.80	-39.8	-54.3	3.8	1.49e+00	0	56	104	0	51	18871
2026-01-26 01:09:50.91	7.21	5.87	-39.8	-54.3	3.8	1.49e+00	0	56	104	0	51	18812
2026-01-26 01:09:51.92	7.13	5.93	-39.8	-54.3	3.8	1.49e+00	0	56	104	0	51	18841
2026-01-26 01:09:52.93	7.06	6.00	-39.8	-54.3	3.8	1.49e+00	0	56	104	0	51	18876
2026-01-26 01:09:53.94	6.99	6.07	-39.8	-54.3	3.8	1.49e+00	0	56	104	0	51	18839
2026-01-26 01:09:54.95	6.92	6.13	-39.8	-54.3	3.8	1.49e+00	0	56	104	0	51	18838
2026-01-26 01:09:55.96	6.84	6.20	-39.8	-54.3	3.8	1.49e+00	0	56	104	0	51	18800
2026-01-26 01:09:56.97	6.77	6.27	-39.8	-54.3	3.8	1.49e+00	0	56	104	0	51	18868
2026-01-26 01:09:57.99	6.69	6.33	-39.8	-54.3	3.8	1.49e+00	0	56	104	0	51	18872
2026-01-26 01:09:59.00	6.62	6.40	-39.8	-54.3	3.8	1.49e+00	0	56	104	0	51	18808
2026-01-26 01:10:00.01	6.54	6.47	-39.8	-54.3	3.8	1.49e+00	0	57	104	0	51	18846
2026-01-26 01:10:01.02	6.47	6.53	-39.8	-54.3	3.8	1.49e+00	0	57	104	0	51	18798
2026-01-26 01:10:02.03	6.39	6.60	-39.8	-54.3	3.8	1.49e+00	0	57	104	0	51	18847
2026-01-26 01:10:03.04	6.32	6.67	-39.8	-54.3	3.8	1.49e+00	0	57	104	0	51	18873
2026-01-26 01:10:04.05	6.24	6.74	-39.8	-54.3	3.8	1.49e+00	0	57	104	0	51	18802
2026-01-26 01:10:05.06	6.16	6.80	-39.8	-54.3	3.8	1.49e+00	0	57	104	0	51	18874
2026-01-26 01:10:06.07	6.08	6.87	-39.8	-54.3	3.8	1.49e+00	0	57	104	0	51	18802
2026-01-26 01:10:07.08	6.01	6.94	-39.7	-54.3	3.8	1.49e+00	0	57	104	0	51	18831
2026-01-26 01:10:08.09	5.93	7.01	-39.8	-54.3	3.8	1.49e+00	0	56	104	0	51	18847
2026-01-26 01:10:09.10	5.85	7.08	-39.8	-54.3	3.8	1.49e+00	0	57	104	0	51	18885
2026-01-26 01:10:10.11	5.77	7.14	-39.8	-54.3	3.8	1.49e+00	0	57	104	0	51	18830
2026-01-26 01:10:11.12	5.69	7.21	-39.8	-54.3	3.8	1.49e+00	0	57	104	0	51	18801
2026-01-26 01:10:12.13	5.61	7.28	-39.8	-54.3	3.8	1.49e+00	0	57	104	0	51	18863
2026-01-26 01:10:13.14	5.53	7.35	-39.8	-54.3	3.8	1.49e+00	0	57	104	0	51	18800
2026-01-26 01:10:14.15	5.45	7.42	-39.8	-54.3	3.8	1.49e+00	0	57	104	0	51	18855
2026-01-26 01:10:15.16	5.37	7.49	-39.8	-54.3	3.8	1.49e+00	0	57	104	0	51	18805
2026-01-26 01:10:16.17	5.29	7.56	-39.8	-54.3	3.8	1.49e+00	0	57	104	0	51	18815
2026-01-26 01:10:17.19	5.21	7.63	-39.8	-54.3	3.8	1.49e+00	0	57	104	0	51	18836
2026-01-26 01:10:18.20	5.13	7.70	-39.8	-54.3	3.8	1.49e+00	0	57	104	0	51	18816
2026-01-26 01:10:19.21	5.04	7.77	-39.8	-54.3	3.8	1.49e+00	0	57	104	0	51	18864
2026-01-26 01:10:20.21	4.96	7.83	-39.8	-54.3	3.8	1.49e+00	0	57	104	0	51	18779
2026-01-26 01:10:21.22	4.88	7.90	-39.8	-54.3	3.8	1.49e+00	0	57	104	0	51	18817
2026-01-26 01:10:22.24	4.79	7.97	-39.8	-54.3	3.8	1.49e+00	0	57	104	0	51	18821
2026-01-26 01:10:23.25	4.71	8.04	-39.8	-54.3	3.8	1.49e+00	0	58	104	0	51	18898
2026-01-26 01:10:24.26	4.62	8.11	-39.9	-54.4	3.8	1.49e+00	0	57	104	0	51	19077
2026-01-26 01:10:25.27	4.54	8.18	-39.9	-54.4	3.8	1.49e+00	0	58	104	0	51	19136
2026-01-26 01:10:26.28	4.45	8.25	-39.9	-54.5	3.8	1.49e+00	0	57	104	0	51	19197
2026-01-26 01:10:27.29	4.37	8.33	-40.0	-54.6	3.8	1.49e+00	0	57	104	0	51	19433
2026-01-26 01:10:28.29	4.28	8.40	-39.9	-54.5	3.8	1.49e+00	0	58	104	0	51	19199
2026-01-26 01:10:29.30	4.20	8.47	-40.0	-54.6	3.8	1.49e+00	0	57	104	0	51	19402
2026-01-26 01:10:30.31	4.11	8.54	-40.0	-54.5	3.8	1.49e+00	0	57	104	0	51	19221
2026-01-26 01:10:31.32	4.02	8.61	-40.0	-54.6	3.8	1.49e+00	0	57	104	0	51	19437
2026-01-26 01:10:32.33	3.93	8.68	-39.9	-54.5	3.8	1.49e+00	0	58	104	0	51	19207
2026-01-26 01:10:33.34	3.84	8.75	-40.0	-54.6	3.8	1.49e+00	0	58	104	0	51	19421
2026-01-26 01:10:34.35	3.76	8.82	-39.9	-54.4	3.8	1.49e+00	0	57	104	0	51	19130
2026-01-26 01:10:35.36	3.67	8.89	-40.0	-54.5	3.8	1.49e+00	0	58	104	0	51	19362
2026-01-26 01:10:36.36	3.58	8.96	-40.0	-54.5	3.8	1.49e+00	0	58	104	0	51	19300
2026-01-26 01:10:37.37	3.49	9.04	-40.0	-54.6	3.8	1.49e+00	0	58	104	0	51	19494
2026-01-26 01:10:38.38	3.40	9.11	-39.9	-54.4	3.8	1.49e+00	0	58	104	0	51	19106
2026-01-26 01:10:39.39	3.30	9.18	-40.0	-54.5	3.8	1.49e+00	0	58	104	0	51	19345
2026-01-26 01:10:40.40	3.21	9.25	-40.0	-54.5	3.8	1.49e+00	0	58	104	0	51	19327
2026-01-26 01:10:41.41	3.12	9.32	-40.0	-54.6	3.8	1.49e+00	0	58	104	0	51	19447
2026-01-26 01:10:42.42	3.03	9.40	-39.9	-54.4	3.8	1.49e+00	0	58	104	0	51	19163
2026-01-26 01:10:43.43	2.93	9.47	-40.0	-54.5	3.8	1.49e+00	0	58	104	0	51	19367
2026-01-26 01:10:44.44	2.84	9.54	-40.0	-54.5	3.8	1.49e+00	0	58	104	0	51	19305
2026-01-26 01:10:45.45	2.75	9.62	-40.0	-54.5	3.8	1.49e+00	0	58	104	0	51	19376
2026-01-26 01:10:46.46	2.65	9.69	-39.9	-54.5	3.8	1.49e+00	0	58	104	0	51	19280
2026-01-26 01:10:47.47	2.56	9.76	-40.0	-54.6	3.8	1.49e+00	0	58	104	0	51	19395
2026-01-26 01:10:48.48	2.46	9.84	-40.0	-54.5	3.8	1.49e+00	0	58	104	0	51	19378
2026-01-26 01:10:49.49	2.37	9.91	-40.0	-54.6	3.8	1.49e+00	0	58	104	0	51	19423
2026-01-26 01:10:50.50	2.27	9.98	-40.0	-54.5	3.8	1.49e+00	0	58	104	0	51	19289
2026-01-26 01:10:51.51	2.17	10.06	-40.0	-54.6	3.8	1.49e+00	0	58	104	0	51	19489
2026-01-26 01:10:52.52	2.07	10.13	-40.0	-54.6	3.8	1.49e+00	0	58	104	0	51	19458
2026-01-26 01:10:53.53	1.98	10.20	-40.0	-54.6	3.8	1.49e+00	0	58	104	0	51	19397
2026-01-26 01:10:54.53	1.88	10.28	-40.0	-54.5	3.8	1.49e+00	0	58	104	0	51	19334
2026-01-26 01:10:55.54	1.78	10.35	-40.1	-54.6	3.8	1.49e+00	0	58	104	0	51	19450
2026-01-26 01:10:56.55	1.68	10.43	-40.1	-54.6	3.8	1.49e+00	0	58	104	0	51	19597
2026-01-26 01:10:57.56	1.58	10.50	-40.0	-54.5	3.8	1.49e+00	0	58	104	0	51	19371
2026-01-26 01:10:58.57	1.48	10.58	-40.0	-54.5	3.8	1.49e+00	0	58	104	0	51	19380
2026-01-26 01:10:59.58	1.38	10.65	-40.0	-54.6	3.8	1.49e+00	0	58	104	0	51	19459
2026-01-26 01:11:00.59	1.27	10.73	-40.2	-54.7	3.8	1.49e+00	0	58	104	0	51	19727
2026-01-26 01:11:01.60	1.17	10.80	-40.0	-54.6	3.8	1.49e+00	0	59	104	0	51	19446
2026-01-26 01:11:02.61	1.07	10.88	-40.1	-54.6	3.8	1.49e+00	0	59	104	0	51	19581
2026-01-26 01:11:03.62	0.97	10.95	-40.1	-54.6	3.8	1.49e+00	0	58	104	0	51	19578
2026-01-26 01:11:04.63	0.86	11.03	-40.3	-54.8	3.8	1.49e+00	0	59	104	0	51	20057
2026-01-26 01:11:05.64	0.76	11.10	-40.0	-54.6	3.8	1.49e+00	0	59	104	0	51	19497
2026-01-26 01:11:06.65	0.65	11.18	-40.0	-54.6	3.8	1.49e+00	0	59	104	0	51	19412
2026-01-26 01:11:07.66	0.55	11.25	-40.0	-54.5	3.8	1.49e+00	0	59	104	0	51	19346
2026-01-26 01:11:08.67	0.44	11.33	-40.0	-54.5	3.8	1.49e+00	0	59	104	0	51	19354
2026-01-26 01:11:09.68	0.33	11.41	-40.0	-54.5	3.8	1.49e+00	0	59	104	0	51	19331
2026-01-26 01:11:10.69	0.23	11.48	-40.0	-54.5	3.8	1.49e+00	0	59	104	0	51	19350
2026-01-26 01:11:11.70	0.12	11.56	-40.1	-54.7	3.8	1.49e+00	0	59	104	0	51	19649
2026-01-26 01:11:12.71	0.01	11.64	-40.1	-54.6	3.8	1.49e+00	0	59	104	0	51	19540
2026-01-26 01:11:13.72	359.90	11.71	-40.6	-55.1	3.8	1.49e+00	0	59	104	0	51	20735
2026-01-26 01:11:14.73	359.79	11.79	-40.3	-54.8	3.8	1.49e+00	0	59	104	0	52	18939
2026-01-26 01:11:15.73	359.68	11.87	-40.0	-54.6	3.8	1.49e+00	0	59	104	0	52	18398
2026-01-26 01:11:16.75	359.57	11.94	-40.1	-54.6	3.8	1.49e+00	0	59	104	0	52	18433
2026-01-26 01:11:17.76	359.46	12.02	-40.1	-54.6	3.8	1.49e+00	0	59	104	0	52	18422
2026-01-26 01:11:18.77	359.35	12.10	-40.1	-54.6	3.8	1.49e+00	0	59	104	0	52	18482
2026-01-26 01:11:19.78	359.23	12.18	-40.3	-54.8	3.8	1.49e+00	0	59	104	0	52	18832
2026-01-26 01:11:20.78	359.12	12.25	-40.2	-54.7	3.8	1.49e+00	0	59	104	0	52	18542
2026-01-26 01:11:21.79	359.01	12.33	-40.9	-55.3	3.8	1.49e+00	0	59	104	0	52	19953
2026-01-26 01:11:22.80	358.89	12.41	-40.6	-55.1	3.8	1.49e+00	0	59	104	0	53	18347
2026-01-26 01:11:23.81	358.78	12.49	-40.2	-54.7	3.8	1.49e+00	0	59	104	0	52	18672
2026-01-26 01:11:24.82	358.66	12.57	-40.3	-54.8	3.8	1.49e+00	0	59	104	0	52	18733
2026-01-26 01:11:25.83	358.54	12.65	-40.3	-54.7	3.8	1.49e+00	0	59	104	0	52	18613
2026-01-26 01:11:26.84	358.43	12.72	-40.3	-54.5	3.8	1.49e+00	0	59	104	0	52	18281
2026-01-26 01:11:27.85	358.31	12.80	-40.6	-54.6	3.8	1.49e+00	0	59	104	0	52	18347
2026-01-26 01:11:28.86	358.19	12.88	-40.4	-54.5	3.8	1.49e+00	0	59	104	0	52	18127
2026-01-26 01:11:29.87	358.07	12.96	-41.7	-52.9	4.2	1.47e+00	0	59	104	0	53	14218
2026-01-26 01:11:30.88	357.95	13.04	-41.9	-51.5	4.8	1.09e+00	0	59	0	0	54	11459
2026-01-26 01:11:31.89	357.83	13.12	-41.3	-54.8	3.8	4.75e-01	0	59	104	2097152	54	16802
2026-01-26 01:11:32.90	357.71	13.20	-41.1	-48.1	7.0	7.93e-01	0	59	0	2097152	54	7808
2026-01-26 01:11:33.91	357.59	13.28	-40.7	-46.9	8.2	8.32e-02	0	59	0	3145728	53	7142
2026-01-26 01:11:34.92	357.47	13.36	-40.5	-46.2	8.9	3.83e-02	0	59	0	5242880	53	6618
2026-01-26 01:11:35.93	357.34	13.44	-40.6	-46.3	8.9	2.23e-02	0	59	0	7340032	52	7102
2026-01-26 01:11:36.94	357.22	13.52	-40.8	-47.0	8.2	4.46e-02	0	59	0	9437184	52	7678
2026-01-26 01:11:37.95	357.09	13.60	-40.9	-47.4	7.8	6.47e-02	0	59	0	11534336	52	8051
2026-01-26 01:11:38.96	356.97	13.68	-41.0	-47.6	7.6	9.35e-02	0	59	0	12582912	52	8222
2026-01-26 01:11:39.97	356.84	13.76	-41.0	-47.5	7.7	9.26e-02	0	59	0	14680064	52	8160
2026-01-26 01:11:40.98	356.72	13.84	-40.8	-46.9	8.3	7.69e-02	0	59	0	16777216	52	7566
2026-01-26 01:11:41.99	356.59	13.92	-40.8	-46.8	8.4	4.65e-02	0	59	0	18874368	52	7490
2026-01-26 01:11:43.00	356.46	14.00	-40.9	-47.4	7.8	6.71e-02	0	59	0	20971520	52	8037
2026-01-26 01:11:44.01	356.33	14.08	-41.0	-47.7	7.5	7.45e-02	0	59	0	23068672	52	8348
2026-01-26 01:11:45.02	356.20	14.16	-41.1	-48.7	6.5	1.40e-01	0	59	0	24117248	52	9355
2026-01-26 01:11:46.03	356.07	14.24	-41.1	-49.5	5.8	3.37e-01	0	59	0	26214400	52	10223
2026-01-26 01:11:47.04	355.94	14.32	-41.2	-50.7	4.9	5.42e-01	0	59	0	28311552	52	11778
2026-01-26 01:11:48.05	355.81	14.40	-41.1	-51.4	4.6	8.40e-01	0	59	0	30408704	52	12730
2026-01-26 01:11:49.06	355.68	14.48	-41.1	-52.8	4.1	1.41e+00	0	59	0	30408704	52	14893
2026-01-26 01:11:50.07	355.54	14.57	-41.7	-54.3	3.9	1.48e+00	0	59	104	30408704	53	16811
2026-01-26 01:11:51.08	355.41	14.65	-40.7	-55.1	3.8	1.49e+00	0	59	104	30408704	53	18489
2026-01-26 01:11:52.09	355.27	14.73	-40.8	-55.1	3.8	1.49e+00	0	60	104	30408704	53	18490
2026-01-26 01:11:53.10	355.14	14.81	-41.9	-55.7	3.8	1.49e+00	0	59	104	30408704	54	18548
2026-01-26 01:11:54.11	355.00	14.89	-41.3	-55.2	3.8	1.49e+00	0	59	104	30408704	54	17657
2026-01-26 01:11:55.12	354.87	14.98	-41.1	-55.2	3.8	1.49e+00	0	60	104	30408704	54	17638
2026-01-26 01:11:56.13	354.73	15.06	-40.9	-55.3	3.8	1.49e+00	0	60	104	30408704	53	18795
2026-01-26 01:11:57.14	354.59	15.14	-40.6	-55.2	3.8	1.49e+00	0	60	104	30408704	53	18610
2026-01-26 01:11:58.15	354.45	15.22	-40.8	-55.3	3.8	1.49e+00	0	60	104	30408704	53	18839
2026-01-26 01:11:59.16	354.31	15.30	-40.6	-55.1	3.8	1.49e+00	0	60	104	30408704	53	18412
2026-01-26 01:12:00.17	354.17	15.39	-40.8	-55.3	3.8	1.49e+00	0	60	104	30408704	53	18903
2026-01-26 01:12:01.17	354.03	15.47	-40.5	-55.0	3.8	1.49e+00	0	60	104	30408704	53	18176
2026-01-26 01:12:02.18	353.89	15.55	-40.6	-55.1	3.8	1.49e+00	0	60	104	30408704	52	19446
2026-01-26 01:12:03.19	353.74	15.63	-40.7	-55.2	3.8	1.49e+00	0	59	104	30408704	52	19780
2026-01-26 01:12:04.21	353.60	15.72	-40.6	-55.0	3.8	1.49e+00	0	60	104	30408704	52	19178
2026-01-26 01:12:05.22	353.45	15.80	-40.5	-55.0	3.8	1.49e+00	0	60	104	30408704	52	19249
2026-01-26 01:12:06.22	353.31	15.88	-40.7	-55.2	3.8	1.49e+00	0	60	104	30408704	52	19746
2026-01-26 01:12:07.23	353.16	15.97	-40.6	-55.1	3.8	1.49e+00	0	60	104	30408704	52	19524
2026-01-26 01:12:08.24	353.01	16.05	-40.5	-55.0	3.8	1.49e+00	0	60	104	30408704	52	19352
2026-01-26 01:12:09.25	352.87	16.13	-40.7	-55.2	3.8	1.49e+00	0	60	104	30408704	52	19768
2026-01-26 01:12:10.26	352.72	16.22	-40.7	-55.2	3.8	1.49e+00	0	60	104	30408704	52	19785
2026-01-26 01:12:11.27	352.57	16.30	-40.5	-55.1	3.8	1.49e+00	0	60	104	30408704	52	19448
2026-01-26 01:12:12.28	352.42	16.38	-40.7	-55.2	3.8	1.49e+00	0	60	104	30408704	52	19701
2026-01-26 01:12:13.29	352.26	16.47	-40.7	-55.2	3.8	1.49e+00	0	60	104	30408704	52	19774
2026-01-26 01:12:14.30	352.11	16.55	-40.7	-55.2	3.8	1.49e+00	0	60	104	30408704	52	19682
2026-01-26 01:12:15.31	351.96	16.64	-40.7	-55.2	3.8	1.49e+00	0	60	104	30408704	52	19707
2026-01-26 01:12:16.32	351.80	16.72	-40.7	-55.3	3.8	1.49e+00	0	60	104	30408704	52	19854
2026-01-26 01:12:17.33	351.65	16.80	-40.6	-55.2	3.8	1.49e+00	0	60	104	30408704	52	19676
2026-01-26 01:12:18.34	351.49	16.89	-40.8	-55.3	3.8	1.49e+00	0	60	104	30408704	52	19997
2026-01-26 01:12:19.35	351.34	16.97	-40.7	-55.2	3.8	1.49e+00	0	60	104	30408704	52	19696
2026-01-26 01:12:20.36	351.18	17.06	-40.7	-55.2	3.8	1.49e+00	0	60	104	30408704	52	19713
2026-01-26 01:12:21.37	351.02	17.14	-40.8	-55.3	3.8	1.49e+00	0	60	104	30408704	52	19931
2026-01-26 01:12:22.38	350.86	17.22	-41.0	-55.5	3.8	1.49e+00	0	60	104	30408704	52	20452
2026-01-26 01:12:23.39	350.70	17.31	-40.7	-55.2	3.8	1.49e+00	0	60	104	30408704	52	19770
2026-01-26 01:12:24.40	350.54	17.39	-40.9	-55.4	3.8	1.49e+00	0	60	104	30408704	52	20151
2026-01-26 01:12:25.41	350.37	17.48	-40.7	-55.3	3.8	1.49e+00	0	60	104	30408704	52	19879
2026-01-26 01:12:26.42	350.21	17.56	-40.9	-55.4	3.8	1.49e+00	0	60	104	30408704	52	20196
2026-01-26 01:12:27.43	350.05	17.65	-40.9	-55.4	3.8	1.49e+00	0	60	104	30408704	52	20239
2026-01-26 01:12:28.44	349.88	17.73	-40.8	-55.3	3.8	1.49e+00	0	60	104	30408704	52	20046
2026-01-26 01:12:29.45	349.72	17.82	-40.9	-55.5	3.8	1.49e+00	0	60	104	30408704	52	20309
2026-01-26 01:12:30.46	349.55	17.90	-40.9	-55.3	3.8	1.49e+00	0	60	104	30408704	52	20019
2026-01-26 01:12:31.47	349.38	17.99	-40.9	-55.4	3.8	1.49e+00	0	60	104	30408704	52	20151
2026-01-26 01:12:32.48	349.21	18.07	-40.8	-55.3	3.8	1.49e+00	0	60	104	30408704	52	19959
2026-01-26 01:12:33.49	349.04	18.16	-41.1	-55.6	3.8	1.49e+00	0	60	104	30408704	52	20694
2026-01-26 01:12:34.50	348.87	18.24	-40.9	-55.4	3.8	1.49e+00	0	60	104	30408704	52	20153
2026-01-26 01:12:35.51	348.70	18.33	-40.8	-55.3	3.8	1.49e+00	0	60	104	30408704	52	19978
2026-01-26 01:12:36.52	348.52	18.41	-40.9	-55.4	3.8	1.49e+00	0	60	104	30408704	52	20174
2026-01-26 01:12:37.53	348.35	18.50	-41.1	-55.5	3.8	1.49e+00	0	60	104	30408704	53	19345
2026-01-26 01:12:38.54	348.18	18.58	-40.9	-55.4	3.8	1.49e+00	0	60	104	30408704	53	19077
2026-01-26 01:12:39.55	348.00	18.67	-40.9	-55.4	3.8	1.49e+00	0	60	104	30408704	53	19153
2026-01-26 01:12:40.56	347.82	18.75	-40.9	-55.4	3.8	1.49e+00	0	60	104	30408704	53	18994
2026-01-26 01:12:41.57	347.64	18.84	-40.9	-55.4	3.8	1.49e+00	0	60	104	30408704	53	19005
2026-01-26 01:12:42.58	347.47	18.92	-41.0	-55.5	3.8	1.49e+00	0	60	104	30408704	53	19239
2026-01-26 01:12:43.59	347.29	19.01	-41.1	-55.6	3.8	1.49e+00	0	60	104	30408704	53	19603
2026-01-26 01:12:44.60	347.10	19.09	-40.9	-55.5	3.8	1.49e+00	0	60	104	30408704	53	19181
2026-01-26 01:12:45.61	346.92	19.18	-40.9	-55.4	3.8	1.49e+00	0	60	104	30408704	53	19025
2026-01-26 01:12:46.62	346.74	19.26	-41.0	-55.5	3.8	1.49e+00	0	60	104	30408704	53	19345
2026-01-26 01:12:47.63	346.56	19.35	-41.1	-55.6	3.8	1.49e+00	0	60	104	30408704	53	19562
2026-01-26 01:12:48.64	346.37	19.43	-40.9	-55.4	3.8	1.49e+00	0	60	104	30408704	53	19133
2026-01-26 01:12:49.65	346.18	19.52	-40.9	-55.5	3.8	1.49e+00	0	60	104	30408704	53	19267
2026-01-26 01:12:50.66	346.00	19.60	-41.0	-55.6	3.8	1.49e+00	0	60	104	30408704	53	19468
2026-01-26 01:12:51.67	345.81	19.69	-41.1	-55.6	3.8	1.49e+00	0	60	104	30408704	53	19526
2026-01-26 01:12:52.68	345.62	19.77	-40.9	-55.4	3.8	1.49e+00	0	60	104	30408704	53	19034
2026-01-26 01:12:53.69	345.43	19.86	-41.1	-55.6	3.8	1.49e+00	0	60	104	30408704	53	19442
2026-01-26 01:12:54.70	345.24	19.94	-41.1	-55.5	3.8	1.49e+00	0	60	104	30408704	53	19273
2026-01-26 01:12:55.71	345.04	20.03	-41.2	-55.6	3.8	1.49e+00	0	60	104	30408704	53	19515
2026-01-26 01:12:56.72	344.85	20.11	-41.0	-55.6	3.8	1.49e+00	0	60	104	30408704	53	19449
2026-01-26 01:12:57.72	344.66	20.19	-41.1	-55.6	3.8	1.49e+00	0	60	104	30408704	53	19584
2026-01-26 01:12:58.73	344.46	20.28	-41.1	-55.6	3.8	1.49e+00	0	60	104	30408704	53	19506
2026-01-26 01:12:59.75	344.26	20.36	-41.5	-55.1	3.8	1.49e+00	0	61	104	30408704	53	18421
2026-01-26 01:13:00.76	344.06	20.45	-41.1	-55.6	3.8	1.49e+00	0	60	104	30408704	54	18431
2026-01-26 01:13:01.76	343.87	20.53	-41.2	-54.9	3.8	1.49e+00	0	61	104	30408704	54	16981
2026-01-26 01:13:02.77	343.67	20.62	-41.5	-53.7	3.8	1.49e+00	0	61	104	30408704	54	14739
2026-01-26 01:13:03.78	343.46	20.70	-41.4	-53.2	3.9	1.45e+00	0	61	104	30408704	54	13978
2026-01-26 01:13:04.80	343.26	20.78	-41.5	-52.5	4.2	1.42e+00	0	61	0	30408704	54	12951
2026-01-26 01:13:05.80	343.06	20.87	-41.6	-51.7	4.6	1.29e+00	0	60	0	31457280	54	11756
2026-01-26 01:13:06.81	342.85	20.95	-41.7	-51.1	4.9	7.65e-01	0	60	0	32505856	54	11007
2026-01-26 01:13:07.82	342.65	21.04	-41.8	-50.3	5.6	5.12e-01	0	60	0	34603008	54	10012
2026-01-26 01:13:08.83	342.44	21.12	-41.8	-49.9	6.0	4.12e-01	0	61	0	36700160	54	9524
2026-01-26 01:13:09.84	342.23	21.20	-42.6	-52.9	4.5	6.03e-01	0	61	0	38797312	55	12747
2026-01-26 01:13:10.85	342.02	21.29	-41.5	-54.8	3.8	3.29e-01	0	61	104	39845888	54	16814
2026-01-26 01:13:11.86	341.81	21.37	-41.9	-49.1	6.8	1.47e+00	0	60	0	39845888	54	8758
2026-01-26 01:13:12.88	341.60	21.45	-41.8	-50.5	5.5	9.06e-02	0	61	0	40894464	54	10286
2026-01-26 01:13:13.89	341.39	21.54	-40.7	-45.5	10.4	1.29e-01	0	61	0	42991616	53	6065
2026-01-26 01:13:14.90	341.17	21.62	-40.5	-45.0	11.0	3.33e-03	0	60	0	45088768	53	5723
2026-01-26 01:13:15.91	340.96	21.70	-40.5	-44.8	11.3	2.10e-03	0	60	0	47185920	52	5935
2026-01-26 01:13:16.92	340.74	21.78	-40.7	-45.2	11.0	1.28e-03	0	61	0	49283072	52	6270
2026-01-26 01:13:17.93	340.52	21.87	-40.9	-45.6	10.7	2.30e-03	0	61	0	50331648	52	6517
2026-01-26 01:13:18.94	340.30	21.95	-41.2	-46.2	10.2	3.37e-03	0	61	0	52428800	53	6601
2026-01-26 01:13:19.95	340.08	22.03	-41.5	-46.6	9.8	1.30e-02	0	61	0	54525952	53	6938
2026-01-26 01:13:20.96	339.86	22.11	-41.5	-46.5	10.1	1.01e-02	0	61	0	56623104	53	6864
2026-01-26 01:13:21.97	339.64	22.19	-41.5	-46.3	10.6	5.40e-03	0	61	0	58720256	53	6671
2026-01-26 01:13:22.98	339.42	22.27	-41.4	-45.8	11.2	1.83e-03	0	61	0	59768832	53	6277
2026-01-26 01:13:23.99	339.19	22.36	-41.4	-45.6	11.5	9.60e-04	0	61	0	61865984	53	6155
2026-01-26 01:13:25.00	338.97	22.44	-41.3	-45.4	11.8	5.72e-04	0	61	0	63963136	53	6022
2026-01-26 01:13:26.00	338.74	22.52	-41.2	-45.1	12.2	2.46e-04	0	61	0	66060288	53	5830
2026-01-26 01:13:27.01	338.51	22.60	-41.0	-44.7	12.6	1.35e-04	0	61	0	68157440	53	5578
2026-01-26 01:13:28.02	338.28	22.68	-40.9	-44.4	13.0	5.18e-05	0	61	0	69206016	53	5377
2026-01-26 01:13:29.03	338.05	22.76	-40.9	-44.5	12.9	4.65e-05	0	61	0	71303168	53	5414
2026-01-26 01:13:30.04	337.82	22.84	-40.8	-44.2	13.2	3.81e-05	0	61	0	73400320	53	5267
2026-01-26 01:13:31.05	337.59	22.92	-40.8	-44.1	13.4	2.36e-05	0	61	0	75497472	53	5187
2026-01-26 01:13:32.06	337.35	22.99	-40.8	-44.2	13.3	2.28e-05	0	61	0	77594624	53	5264
2026-01-26 01:13:33.07	337.12	23.07	-40.8	-44.2	13.3	2.05e-05	0	61	0	78643200	53	5251
2026-01-26 01:13:34.08	336.88	23.15	-41.0	-44.5	13.1	3.28e-05	0	61	0	80740352	53	5436
2026-01-26 01:13:35.09	336.64	23.23	-41.0	-44.5	13.1	2.89e-05	0	61	0	82837504	53	5458
2026-01-26 01:13:36.10	336.41	23.31	-41.1	-44.8	12.9	3.66e-05	0	60	0	84934656	53	5599
2026-01-26 01:13:37.11	336.17	23.39	-41.2	-44.9	12.8	3.96e-05	0	61	0	87031808	53	5672
2026-01-26 01:13:38.12	335.92	23.46	-41.3	-45.0	12.7	6.10e-05	0	61	0	89128960	53	5723
2026-01-26 01:13:39.13	335.68	23.54	-41.4	-45.1	12.5	1.14e-04	0	61	0	90177536	53	5853
2026-01-26 01:13:40.14	335.44	23.62	-41.4	-45.2	12.5	1.06e-04	0	61	0	92274688	53	5872
2026-01-26 01:13:41.15	335.19	23.69	-41.4	-45.3	12.5	7.55e-05	0	61	0	94371840	53	5928
2026-01-26 01:13:42.15	334.95	23.77	-41.2	-44.8	12.9	5.34e-05	0	61	0	96468992	53	5637
2026-01-26 01:13:43.16	334.70	23.84	-41.0	-44.4	13.4	1.83e-05	0	61	0	98566144	53	5347
2026-01-26 01:13:44.17	334.45	23.92	-40.8	-44.0	13.8	1.29e-05	0	61	0	99614720	53	5132
2026-01-26 01:13:45.18	334.20	24.00	-40.7	-43.9	13.9	2.20e-06	0	61	0	101711872	53	5063
2026-01-26 01:13:46.19	333.95	24.07	-40.7	-43.9	13.9	1.50e-06	0	61	0	103809024	53	5056
2026-01-26 01:13:47.20	333.70	24.14	-40.9	-44.2	13.6	5.30e-06	0	61	0	105906176	53	5270
2026-01-26 01:13:48.21	333.45	24.22	-41.2	-44.6	13.2	1.22e-05	0	61	0	108003328	53	5517
2026-01-26 01:13:49.22	333.19	24.29	-41.2	-44.8	13.0	3.73e-05	0	61	0	109051904	53	5596
2026-01-26 01:13:50.23	332.93	24.36	-41.3	-44.8	13.0	3.58e-05	0	61	0	111149056	53	5654
2026-01-26 01:13:51.24	332.68	24.44	-41.1	-44.5	13.3	2.44e-05	0	61	0	113246208	53	5432
2026-01-26 01:13:52.25	332.42	24.51	-40.9	-44.2	13.6	7.60e-06	0	61	0	115343360	53	5244
2026-01-26 01:13:53.26	332.16	24.58	-40.7	-43.8	14.0	3.00e-06	0	61	0	117440512	53	5020
2026-01-26 01:13:54.27	331.90	24.65	-40.6	-43.7	14.2	3.00e-06	0	61	0	118489088	53	4956
2026-01-26 01:13:55.28	331.64	24.72	-40.7	-43.8	14.1	7.00e-07	0	61	0	120586240	53	4986
2026-01-26 01:13:56.29	331.37	24.79	-40.8	-43.9	14.0	2.20e-06	0	61	0	122683392	53	5060
2026-01-26 01:13:57.30	331.11	24.86	-41.0	-44.2	13.6	6.10e-06	0	61	0	124780544	53	5271
2026-01-26 01:13:58.31	330.84	24.93	-41.0	-44.3	13.5	4.50e-06	0	61	0	126877696	53	5328
2026-01-26 01:13:59.32	330.58	25.00	-41.0	-44.3	13.6	9.10e-06	0	61	0	127926272	53	5310
2026-01-26 01:14:00.33	330.31	25.07	-41.0	-44.3	13.5	9.10e-06	0	61	0	130023424	53	5315
2026-01-26 01:14:01.34	330.04	25.14	-41.0	-44.3	13.6	9.90e-06	0	61	0	132120576	53	5316
2026-01-26 01:14:02.35	329.77	25.20	-41.0	-44.3	13.6	1.29e-05	0	61	0	134217728	53	5302
2026-01-26 01:14:03.36	329.50	25.27	-41.1	-44.4	13.5	1.06e-05	0	61	0	136314880	53	5353
2026-01-26 01:14:04.37	329.23	25.34	-41.1	-44.5	13.4	1.14e-05	0	61	0	137363456	53	5407
2026-01-26 01:14:05.38	328.95	25.40	-41.1	-44.4	13.4	8.30e-06	0	61	0	139460608	53	5400
2026-01-26 01:14:06.39	328.68	25.47	-41.3	-44.8	13.1	3.20e-05	0	61	0	141557760	53	5629
2026-01-26 01:14:07.40	328.40	25.53	-41.5	-45.1	12.8	3.96e-05	0	61	0	143654912	53	5799
2026-01-26 01:14:08.41	328.13	25.60	-41.6	-45.4	12.6	7.70e-05	0	61	0	145752064	53	5996
2026-01-26 01:14:09.42	327.85	25.66	-41.4	-45.0	12.9	6.48e-05	0	61	0	146800640	53	5747
2026-01-26 01:14:10.43	327.57	25.72	-41.3	-44.8	13.1	4.19e-05	0	61	0	148897792	53	5655
2026-01-26 01:14:11.44	327.29	25.79	-41.2	-44.5	13.4	1.67e-05	0	61	0	150994944	53	5442
2026-01-26 01:14:12.45	327.01	25.85	-41.0	-44.1	13.8	3.00e-06	0	61	0	153092096	53	5208
2026-01-26 01:14:13.46	326.72	25.91	-41.0	-44.2	13.8	1.14e-05	0	61	0	155189248	53	5259
2026-01-26 01:14:14.47	326.44	25.97	-41.2	-44.6	13.3	9.90e-06	0	61	0	157286400	53	5475
2026-01-26 01:14:15.48	326.15	26.03	-41.4	-45.0	12.8	2.89e-05	0	61	0	158334976	53	5783
2026-01-26 01:14:16.49	325.87	26.09	-41.6	-45.3	12.6	8.23e-05	0	61	0	160432128	53	5970
2026-01-26 01:14:17.50	325.58	26.15	-41.6	-45.5	12.4	1.45e-04	0	61	0	162529280	53	6073
2026-01-26 01:14:18.51	325.29	26.20	-41.4	-45.0	12.8	9.61e-05	0	61	0	164626432	53	5764
2026-01-26 01:14:19.52	325.00	26.26	-41.4	-44.9	13.0	5.34e-05	0	61	0	166723584	53	5707
2026-01-26 01:14:20.53	324.71	26.32	-41.2	-44.6	13.3	3.20e-05	0	61	0	167772160	53	5469
2026-01-26 01:14:21.54	324.42	26.37	-41.1	-44.4	13.5	1.98e-05	0	61	0	169869312	53	5374
2026-01-26 01:14:22.55	324.13	26.43	-41.0	-44.2	13.7	5.30e-06	0	61	0	171966464	53	5268
2026-01-26 01:14:23.56	323.84	26.48	-41.1	-44.5	13.4	6.80e-06	0	61	0	174063616	53	5435
2026-01-26 01:14:24.57	323.54	26.53	-41.2	-44.6	13.3	2.13e-05	0	61	0	176160768	53	5492
2026-01-26 01:14:25.58	323.25	26.59	-41.3	-44.8	13.1	3.28e-05	0	61	0	177209344	53	5612
2026-01-26 01:14:26.59	322.95	26.64	-41.3	-44.8	13.1	4.88e-05	0	61	0	179306496	53	5610
2026-01-26 01:14:27.60	322.65	26.69	-41.4	-44.8	13.0	6.71e-05	0	61	0	181403648	53	5649
2026-01-26 01:14:28.61	322.36	26.74	-41.2	-44.5	13.4	1.98e-05	0	61	0	183500800	53	5463
2026-01-26 01:14:29.62	322.06	26.79	-41.1	-44.4	13.5	8.30e-06	0	61	0	185597952	53	5356
2026-01-26 01:14:30.63	321.76	26.84	-40.9	-44.1	13.8	1.14e-05	0	61	0	186646528	53	5188
2026-01-26 01:14:31.64	321.45	26.89	-40.9	-44.0	13.9	3.00e-06	0	61	0	188743680	53	5146
2026-01-26 01:14:32.65	321.15	26.94	-41.0	-44.2	13.7	4.50e-06	0	61	0	190840832	53	5235
2026-01-26 01:14:33.66	320.85	26.98	-41.1	-44.4	13.5	9.10e-06	0	61	0	192937984	53	5355
2026-01-26 01:14:34.67	320.55	27.03	-41.3	-44.8	13.1	3.35e-05	0	61	0	195035136	53	5620
2026-01-26 01:14:35.68	320.24	27.07	-41.2	-44.6	13.3	2.59e-05	0	61	0	197132288	53	5496
2026-01-26 01:14:36.69	319.94	27.12	-41.3	-44.7	13.2	2.05e-05	0	61	0	198180864	53	5576
2026-01-26 01:14:37.71	319.63	27.16	-41.4	-44.9	12.9	4.88e-05	0	61	0	200278016	53	5721
2026-01-26 01:14:38.72	319.32	27.20	-41.4	-44.9	12.9	4.73e-05	0	61	0	202375168	53	5710
2026-01-26 01:14:39.73	319.01	27.25	-41.4	-45.0	12.8	5.64e-05	0	61	0	204472320	53	5782
2026-01-26 01:14:40.74	318.70	27.29	-41.5	-45.2	12.6	9.07e-05	0	61	0	206569472	53	5865
2026-01-26 01:14:41.74	318.40	27.33	-41.5	-45.3	12.6	9.76e-05	0	61	0	207618048	53	5932
2026-01-26 01:14:42.75	318.09	27.37	-41.8	-45.7	12.1	7.70e-05	0	61	0	209715200	54	5897
2026-01-26 01:14:43.76	317.77	27.40	-42.0	-46.2	11.7	4.56e-04	0	61	0	211812352	54	6234
2026-01-26 01:14:44.77	317.46	27.44	-42.1	-46.3	11.5	5.63e-04	0	61	0	213909504	54	6321
2026-01-26 01:14:45.78	317.15	27.48	-42.1	-46.3	11.5	8.69e-04	0	61	0	216006656	54	6337
2026-01-26 01:14:46.80	316.83	27.51	-41.9	-46.0	11.8	6.65e-04	0	61	0	217055232	54	6088
2026-01-26 01:14:47.81	316.52	27.55	-41.9	-45.8	11.9	3.83e-04	0	61	0	219152384	54	5988
2026-01-26 01:14:48.81	316.21	27.58	-41.6	-45.3	12.5	1.43e-04	0	61	0	221249536	54	5631
2026-01-26 01:14:49.82	315.89	27.61	-41.4	-45.0	12.9	4.80e-05	0	61	0	223346688	54	5432
2026-01-26 01:14:50.83	315.58	27.65	-41.6	-45.3	12.6	7.40e-05	0	61	0	225443840	54	5606
2026-01-26 01:14:51.84	315.26	27.68	-41.7	-45.5	12.3	1.45e-04	0	61	0	226492416	54	5781
2026-01-26 01:14:52.85	314.94	27.71	-42.1	-46.3	11.5	3.43e-04	0	61	0	228589568	54	6346
2026-01-26 01:14:53.86	314.62	27.74	-42.3	-46.9	10.9	1.45e-03	0	61	0	230686720	55	6396
2026-01-26 01:14:54.87	314.31	27.76	-42.4	-47.0	10.8	1.85e-03	0	61	0	232783872	55	6467
2026-01-26 01:14:55.88	313.99	27.79	-42.3	-46.9	10.8	2.02e-03	0	61	0	234881024	55	6407
2026-01-26 01:14:56.89	313.67	27.82	-42.2	-46.5	11.3	1.18e-03	0	61	0	235929600	55	6110
2026-01-26 01:14:57.91	313.34	27.84	-42.1	-46.4	11.4	1.05e-03	0	61	0	238026752	55	6061
2026-01-26 01:14:58.92	313.02	27.87	-42.1	-46.3	11.4	7.84e-04	0	61	0	240123904	55	5989
2026-01-26 01:14:59.92	312.70	27.89	-42.1	-46.5	11.3	9.15e-04	0	61	0	242221056	55	6074
2026-01-26 01:15:00.93	312.38	27.91	-42.2	-46.8	11.0	1.15e-03	0	61	0	244318208	55	6316
2026-01-26 01:15:01.94	312.06	27.93	-42.2	-46.7	11.1	1.29e-03	0	61	0	245366784	55	6243
2026-01-26 01:15:02.95	311.74	27.95	-42.0	-46.3	11.5	1.22e-03	0	61	0	247463936	55	5954
2026-01-26 01:15:03.96	311.42	27.97	-42.0	-46.3	11.5	1.04e-03	0	61	0	249561088	55	5953
2026-01-26 01:15:04.97	311.09	27.99	-42.0	-46.2	11.6	6.47e-04	0	61	0	251658240	55	5892
2026-01-26 01:15:05.98	310.77	28.01	-42.1	-46.4	11.4	7.52e-04	0	61	0	253755392	55	6017
2026-01-26 01:15:06.99	310.44	28.03	-42.1	-46.4	11.3	1.30e-03	0	61	0	254803968	55	6044
2026-01-26 01:15:08.00	310.12	28.04	-42.0	-46.2	11.6	7.51e-04	0	61	0	256901120	55	5922
2026-01-26 01:15:09.01	309.80	28.06	-41.8	-46.0	11.9	6.48e-04	0	61	0	258998272	55	5725
2026-01-26 01:15:10.02	309.47	28.07	-41.8	-46.0	11.8	4.87e-04	0	61	0	261095424	55	5739
2026-01-26 01:15:11.03	309.15	28.08	-41.9	-46.2	11.6	5.89e-04	0	61	0	263192576	55	5877
2026-01-26 01:15:12.04	308.82	28.09	-42.0	-46.3	11.5	7.03e-04	0	61	0	265289728	55	5928
2026-01-26 01:15:13.05	308.49	28.10	-42.1	-46.7	11.0	1.45e-03	0	61	0	266338304	55	6268
2026-01-26 01:15:14.06	308.17	28.11	-42.2	-46.8	11.0	1.35e-03	0	61	0	268435456	55	6287
2026-01-26 01:15:15.07	307.84	28.12	-42.1	-46.7	11.1	1.73e-03	0	61	0	270532608	55	6262
2026-01-26 01:15:16.08	307.52	28.13	-42.4	-47.3	10.5	3.52e-03	0	61	0	272629760	55	6681
2026-01-26 01:15:17.09	307.19	28.13	-42.4	-47.5	10.2	5.88e-03	0	61	0	274726912	55	6805
2026-01-26 01:15:18.10	306.86	28.14	-42.6	-47.8	10.0	6.83e-03	0	61	0	275775488	55	7091
2026-01-26 01:15:19.11	306.54	28.14	-42.6	-47.8	9.9	8.18e-03	0	61	0	277872640	55	7090
2026-01-26 01:15:20.12	306.21	28.15	-42.5	-47.7	10.1	8.35e-03	0	61	0	279969792	55	6981
2026-01-26 01:15:21.13	305.88	28.15	-42.2	-46.8	11.0	3.07e-03	0	61	0	282066944	55	6340
2026-01-26 01:15:22.14	305.56	28.15	-42.0	-46.3	11.7	1.35e-03	0	61	0	284164096	55	5950
2026-01-26 01:15:23.15	305.23	28.15	-41.7	-45.7	12.1	2.88e-04	0	61	0	285212672	55	5538
2026-01-26 01:15:24.16	304.90	28.15	-41.5	-45.3	12.5	1.35e-04	0	61	0	287309824	55	5335
2026-01-26 01:15:25.17	304.58	28.14	-41.3	-44.9	13.0	9.30e-05	0	61	0	289406976	54	5373
2026-01-26 01:15:26.18	304.25	28.14	-41.4	-45.1	12.8	7.78e-05	0	61	0	291504128	54	5485
2026-01-26 01:15:27.19	303.92	28.14	-41.6	-45.3	12.6	8.69e-05	0	61	0	293601280	54	5645
2026-01-26 01:15:28.20	303.60	28.13	-41.6	-45.4	12.5	8.31e-05	0	61	0	294649856	54	5657
2026-01-26 01:15:29.21	303.27	28.13	-41.6	-45.4	12.4	1.23e-04	0	61	0	296747008	54	5717
2026-01-26 01:15:30.22	302.94	28.12	-41.6	-45.4	12.4	1.27e-04	0	61	0	298844160	54	5698
2026-01-26 01:15:31.22	302.62	28.11	-41.7	-45.6	12.3	1.69e-04	0	61	0	300941312	54	5806
2026-01-26 01:15:32.23	302.29	28.10	-41.8	-45.8	12.0	3.37e-04	0	61	0	303038464	54	5975
2026-01-26 01:15:33.24	301.97	28.09	-41.7	-45.6	12.3	2.61e-04	0	61	0	304087040	54	5820
2026-01-26 01:15:34.25	301.64	28.08	-41.7	-45.5	12.3	1.62e-04	0	61	0	306184192	54	5781
2026-01-26 01:15:35.26	301.32	28.07	-41.5	-45.1	12.8	1.09e-04	0	61	0	308281344	54	5484
2026-01-26 01:15:36.27	300.99	28.05	-41.6	-45.3	12.6	6.40e-05	0	61	0	310378496	54	5603
2026-01-26 01:15:37.28	300.67	28.04	-41.7	-45.4	12.4	9.07e-05	0	61	0	312475648	54	5721
2026-01-26 01:15:38.29	300.34	28.02	-41.8	-45.8	12.0	1.66e-04	0	61	0	313524224	54	5978
2026-01-26 01:15:39.31	300.02	28.01	-42.0	-46.3	11.6	5.68e-04	0	61	0	315621376	54	6289
2026-01-26 01:15:40.32	299.69	27.99	-42.1	-46.4	11.4	7.76e-04	0	61	0	317718528	54	6417
2026-01-26 01:15:41.33	299.37	27.97	-42.1	-46.4	11.5	1.11e-03	0	61	0	319815680	54	6379
2026-01-26 01:15:42.33	299.05	27.95	-42.2	-46.6	11.3	1.27e-03	0	61	0	321912832	54	6567
2026-01-26 01:15:43.34	298.73	27.93	-42.3	-46.9	11.0	1.57e-03	0	61	0	322961408	55	6360
2026-01-26 01:15:44.35	298.40	27.91	-42.2	-46.6	11.2	1.01e-03	0	62	0	325058560	55	6164
2026-01-26 01:15:45.36	298.08	27.89	-42.0	-46.3	11.6	7.57e-04	0	61	0	327155712	55	5926
2026-01-26 01:15:46.37	297.76	27.86	-41.9	-45.9	12.0	3.04e-04	0	61	0	329252864	55	5683
2026-01-26 01:15:47.38	297.44	27.84	-41.5	-45.2	12.7	1.27e-04	0	61	0	331350016	55	5226
2026-01-26 01:15:48.39	297.12	27.81	-41.2	-44.5	13.3	2.97e-05	0	61	0	333447168	54	5146
2026-01-26 01:15:49.40	296.80	27.79	-41.0	-44.2	13.7	6.80e-06	0	61	0	334495744	54	4965
2026-01-26 01:15:50.41	296.48	27.76	-40.9	-44.1	13.8	6.10e-06	0	61	0	336592896	53	5181
2026-01-26 01:15:51.41	296.16	27.73	-41.1	-44.4	13.5	1.06e-05	0	61	0	338690048	53	5346
2026-01-26 01:15:52.43	295.84	27.70	-41.3	-44.7	13.2	1.22e-05	0	61	0	340787200	53	5589
2026-01-26 01:15:53.44	295.53	27.67	-41.4	-45.1	12.7	3.50e-05	0	61	0	342884352	53	5822
2026-01-26 01:15:54.45	295.21	27.64	-41.3	-44.9	13.1	5.56e-05	0	61	0	343932928	53	5677
2026-01-26 01:15:55.45	294.90	27.61	-41.3	-44.8	13.1	1.90e-05	0	61	0	346030080	53	5599
2026-01-26 01:15:56.46	294.58	27.58	-41.1	-44.4	13.5	7.60e-06	0	61	0	348127232	53	5363
2026-01-26 01:15:57.47	294.26	27.54	-40.9	-44.0	13.8	1.83e-05	0	61	0	350224384	53	5154
2026-01-26 01:15:58.48	293.95	27.51	-41.0	-44.2	13.8	6.10e-06	0	61	0	352321536	53	5233
2026-01-26 01:15:59.49	293.64	27.47	-41.1	-44.3	13.6	2.20e-06	0	61	0	353370112	53	5337
2026-01-26 01:16:00.50	293.32	27.44	-41.2	-44.4	13.6	7.60e-06	0	61	0	355467264	53	5380
2026-01-26 01:16:01.51	293.01	27.40	-41.3	-44.6	13.4	1.37e-05	0	61	0	357564416	53	5478
2026-01-26 01:16:02.52	292.70	27.36	-41.2	-44.4	13.6	7.60e-06	0	61	0	359661568	53	5358
2026-01-26 01:16:03.53	292.39	27.32	-41.5	-44.9	13.0	1.90e-05	0	61	0	361758720	53	5685
2026-01-26 01:16:04.54	292.08	27.28	-41.4	-44.8	13.1	3.43e-05	0	61	0	362807296	53	5636
2026-01-26 01:16:05.55	291.77	27.24	-41.3	-44.6	13.3	6.80e-06	0	61	0	364904448	53	5510
2026-01-26 01:16:06.56	291.46	27.20	-41.3	-44.7	13.2	1.60e-05	0	61	0	367001600	53	5547
2026-01-26 01:16:07.57	291.15	27.15	-41.6	-45.1	12.9	3.05e-05	0	61	0	369098752	53	5840
2026-01-26 01:16:08.58	290.85	27.11	-41.8	-45.6	12.3	1.26e-04	0	61	0	371195904	54	5849
2026-01-26 01:16:09.58	290.54	27.07	-41.8	-45.6	12.3	1.67e-04	0	61	0	372244480	54	5838
2026-01-26 01:16:10.59	290.24	27.02	-41.8	-45.5	12.5	1.68e-04	0	61	0	374341632	54	5740
2026-01-26 01:16:11.60	289.93	26.98	-41.7	-45.4	12.6	1.14e-04	0	61	0	376438784	54	5682
2026-01-26 01:16:12.61	289.63	26.93	-41.8	-45.5	12.4	1.04e-04	0	61	0	378535936	54	5755
2026-01-26 01:16:13.62	289.33	26.88	-41.6	-45.2	12.8	8.46e-05	0	61	0	380633088	54	5557
2026-01-26 01:16:14.63	289.03	26.83	-41.6	-45.2	12.7	8.08e-05	0	61	0	381681664	54	5545
2026-01-26 01:16:15.64	288.73	26.78	-41.4	-44.7	13.3	2.67e-05	0	61	0	383778816	54	5240
2026-01-26 01:16:16.65	288.43	26.73	-41.2	-44.4	13.5	1.98e-05	0	61	0	385875968	54	5091
2026-01-26 01:16:17.66	288.13	26.68	-41.4	-44.8	13.1	1.83e-05	0	61	0	387973120	54	5324
2026-01-26 01:16:18.67	287.83	26.63	-41.5	-45.0	13.0	3.35e-05	0	62	0	390070272	54	5431
2026-01-26 01:16:19.68	287.53	26.58	-41.6	-45.1	12.8	4.57e-05	0	61	0	391118848	54	5524
2026-01-26 01:16:20.69	287.24	26.53	-41.3	-44.6	13.3	4.65e-05	0	61	0	393216000	54	5218
2026-01-26 01:16:21.70	286.94	26.47	-41.3	-44.6	13.4	1.52e-05	0	61	0	395313152	54	5171
2026-01-26 01:16:22.71	286.65	26.42	-41.4	-44.9	13.1	1.90e-05	0	61	0	397410304	54	5355
2026-01-26 01:16:23.72	286.36	26.36	-41.4	-44.8	13.2	2.36e-05	0	61	0	399507456	54	5293
2026-01-26 01:16:24.73	286.06	26.31	-41.6	-45.1	12.9	3.12e-05	0	61	0	401604608	54	5485
2026-01-26 01:16:25.74	285.77	26.25	-41.7	-45.3	12.8	6.10e-05	0	62	0	402653184	54	5610
2026-01-26 01:16:26.75	285.48	26.19	-41.7	-45.4	12.6	7.01e-05	0	61	0	404750336	54	5658
2026-01-26 01:16:27.76	285.19	26.13	-41.8	-45.5	12.4	1.51e-04	0	61	0	406847488	54	5765
2026-01-26 01:16:28.77	284.91	26.08	-41.9	-45.7	12.2	1.64e-04	0	61	0	408944640	54	5897
2026-01-26 01:16:29.78	284.62	26.02	-42.0	-46.0	11.9	3.11e-04	0	61	0	409993216	54	6104
2026-01-26 01:16:30.79	284.33	25.96	-42.1	-46.2	11.6	5.06e-04	0	61	0	412090368	54	6258
2026-01-26 01:16:31.80	284.05	25.90	-42.1	-46.3	11.6	7.35e-04	0	61	0	414187520	54	6279
2026-01-26 01:16:32.81	283.77	25.83	-42.2	-46.5	11.4	8.75e-04	0	61	0	416284672	55	6076
2026-01-26 01:16:33.82	283.49	25.77	-42.3	-46.7	11.2	1.77e-03	0	61	0	418381824	55	6207
2026-01-26 01:16:34.83	283.20	25.71	-42.4	-46.8	11.0	1.61e-03	0	61	0	419430400	55	6333
2026-01-26 01:16:35.84	282.92	25.65	-42.5	-47.0	10.8	2.25e-03	0	61	0	421527552	55	6478
2026-01-26 01:16:36.85	282.65	25.58	-42.6	-47.2	10.7	2.82e-03	0	61	0	423624704	55	6619
2026-01-26 01:16:37.85	282.37	25.52	-42.4	-46.9	10.9	1.97e-03	0	61	0	425721856	55	6376
2026-01-26 01:16:38.86	282.09	25.46	-42.4	-46.7	11.1	2.10e-03	0	61	0	427819008	55	6270
2026-01-26 01:16:39.87	281.82	25.39	-42.2	-46.4	11.4	1.51e-03	0	61	0	429916160	55	6047
2026-01-26 01:16:40.88	281.54	25.32	-42.1	-46.2	11.6	7.64e-04	0	61	0	430964736	55	5889
2026-01-26 01:16:41.90	281.27	25.26	-42.0	-45.9	12.0	4.48e-04	0	61	0	433061888	55	5680
2026-01-26 01:16:42.90	281.00	25.19	-41.9	-45.8	12.0	3.77e-04	0	61	0	435159040	55	5597
2026-01-26 01:16:43.91	280.73	25.12	-41.8	-45.7	12.2	2.23e-04	0	61	0	437256192	55	5541
2026-01-26 01:16:44.92	280.46	25.05	-41.7	-45.4	12.5	1.94e-04	0	61	0	439353344	55	5382
2026-01-26 01:16:45.93	280.19	24.99	-41.7	-45.3	12.6	8.08e-05	0	61	0	440401920	55	5298
2026-01-26 01:16:46.94	279.92	24.92	-41.7	-45.3	12.5	1.46e-04	0	61	0	442499072	55	5333
2026-01-26 01:16:47.95	279.66	24.85	-41.8	-45.5	12.3	1.11e-04	0	61	0	444596224	55	5430
2026-01-26 01:16:48.96	279.39	24.78	-41.9	-45.7	12.2	1.93e-04	0	61	0	446693376	55	5545
2026-01-26 01:16:49.96	279.13	24.71	-41.8	-45.6	12.2	2.08e-04	0	61	0	448790528	55	5513
2026-01-26 01:16:50.97	278.87	24.64	-41.6	-45.2	12.6	1.48e-04	0	61	0	449839104	55	5231
2026-01-26 01:16:51.98	278.61	24.56	-41.4	-44.8	13.1	3.89e-05	0	61	0	451936256	54	5319
2026-01-26 01:16:52.99	278.35	24.49	-41.4	-44.8	13.1	2.44e-05	0	61	0	454033408	54	5289
2026-01-26 01:16:54.00	278.09	24.42	-41.4	-44.9	13.0	4.11e-05	0	61	0	456130560	54	5382
2026-01-26 01:16:55.01	277.83	24.35	-41.7	-45.3	12.5	6.02e-05	0	61	0	458227712	54	5649
2026-01-26 01:16:56.02	277.57	24.27	-41.8	-45.5	12.3	1.65e-04	0	61	0	459276288	54	5784
2026-01-26 01:16:57.02	277.32	24.20	-42.1	-46.4	11.4	7.29e-04	0	61	0	461373440	54	6364
2026-01-26 01:16:58.03	277.06	24.13	-42.1	-46.4	11.4	9.70e-04	0	61	0	463470592	54	6348
2026-01-26 01:16:59.04	276.81	24.05	-42.1	-46.3	11.5	6.75e-04	0	61	0	465567744	54	6319
2026-01-26 01:17:00.05	276.56	23.98	-42.1	-46.3	11.6	9.54e-04	0	61	0	467664896	55	5928
2026-01-26 01:17:01.06	276.31	23.90	-42.2	-46.4	11.3	7.98e-04	0	61	0	468713472	55	6042
2026-01-26 01:17:02.07	276.06	23.83	-42.0	-46.2	11.6	8.43e-04	0	61	0	470810624	55	5864
2026-01-26 01:17:03.08	275.81	23.75	-41.9	-46.0	11.9	5.25e-04	0	61	0	472907776	55	5730
2026-01-26 01:17:04.09	275.56	23.67	-41.9	-46.0	11.9	6.07e-04	0	61	0	475004928	55	5731
2026-01-26 01:17:05.10	275.32	23.60	-41.7	-45.5	12.3	2.46e-04	0	61	0	477102080	55	5428
2026-01-26 01:17:06.11	275.07	23.52	-41.6	-45.3	12.5	1.14e-04	0	61	0	478150656	55	5282
2026-01-26 01:17:07.12	274.83	23.44	-41.6	-45.2	12.6	7.09e-05	0	61	0	480247808	54	5582
2026-01-26 01:17:08.12	274.59	23.37	-41.8	-45.7	12.2	1.43e-04	0	61	0	482344960	54	5860
2026-01-26 01:17:09.13	274.35	23.29	-41.9	-45.8	11.9	2.72e-04	0	61	0	484442112	54	5985
2026-01-26 01:17:10.14	274.11	23.21	-41.9	-46.0	11.8	4.54e-04	0	62	0	486539264	54	6118
2026-01-26 01:17:11.15	273.87	23.13	-42.1	-46.4	11.4	6.46e-04	0	61	0	487587840	54	6387
2026-01-26 01:17:12.16	273.63	23.05	-42.2	-46.6	11.1	1.18e-03	0	61	0	489684992	55	6202
2026-01-26 01:17:13.17	273.40	22.97	-42.0	-46.2	11.6	7.69e-04	0	61	0	491782144	55	5887
2026-01-26 01:17:14.18	273.16	22.89	-41.9	-46.0	11.9	5.23e-04	0	61	0	493879296	55	5728
2026-01-26 01:17:15.19	272.93	22.81	-41.7	-45.5	12.3	2.51e-04	0	61	0	495976448	55	5436
2026-01-26 01:17:16.20	272.70	22.73	-41.5	-45.2	12.6	1.11e-04	0	62	0	498073600	55	5223
2026-01-26 01:17:17.21	272.46	22.65	-41.3	-44.7	13.1	3.96e-05	0	61	0	499122176	54	5256
2026-01-26 01:17:18.22	272.23	22.57	-41.1	-44.4	13.4	8.30e-06	0	61	0	501219328	54	5068
2026-01-26 01:17:19.23	272.01	22.49	-41.0	-44.3	13.6	9.10e-06	0	61	0	503316480	54	4995
2026-01-26 01:17:20.24	271.78	22.41	-40.9	-44.0	13.8	4.50e-06	0	61	0	505413632	53	5157
2026-01-26 01:17:21.25	271.55	22.33	-41.0	-44.2	13.6	6.80e-06	0	61	0	507510784	53	5276
2026-01-26 01:17:22.26	271.33	22.25	-41.1	-44.4	13.6	5.30e-06	0	61	0	508559360	53	5346
2026-01-26 01:17:23.27	271.10	22.17	-41.1	-44.3	13.5	1.06e-05	0	62	0	510656512	53	5316
2026-01-26 01:17:24.28	270.88	22.09	-41.0	-44.2	13.6	5.30e-06	0	61	0	512753664	53	5235
2026-01-26 01:17:25.29	270.66	22.00	-41.0	-44.3	13.6	5.30e-06	0	62	0	514850816	53	5280
2026-01-26 01:17:26.30	270.44	21.92	-40.9	-44.0	13.8	4.50e-06	0	61	0	516947968	53	5122
2026-01-26 01:17:27.30	270.22	21.84	-40.9	-44.1	13.8	3.80e-06	0	61	0	517996544	53	5161
2026-01-26 01:17:28.31	270.00	21.76	-40.9	-43.9	13.9	6.80e-06	0	61	0	520093696	53	5089
2026-01-26 01:17:29.32	269.78	21.68	-40.9	-44.0	13.9	1.50e-06	0	62	0	522190848	53	5101
2026-01-26 01:17:30.33	269.57	21.59	-40.8	-43.9	14.0	1.50e-06	0	61	0	524288000	53	5045
2026-01-26 01:17:31.34	269.35	21.51	-40.7	-43.6	14.2	7.00e-07	0	61	0	526385152	53	4890
2026-01-26 01:17:32.35	269.14	21.43	-40.7	-43.6	14.2	1.50e-06	0	62	0	527433728	53	4919
2026-01-26 01:17:33.36	268.93	21.34	-40.8	-43.8	14.1	2.20e-06	0	62	0	529530880	53	4992
2026-01-26 01:17:34.37	268.71	21.26	-40.7	-43.8	14.0	1.50e-06	0	62	0	531628032	53	4994
2026-01-26 01:17:35.38	268.50	21.18	-40.9	-44.0	13.8	6.10e-06	0	61	0	533725184	53	5102
2026-01-26 01:17:36.39	268.30	21.09	-41.0	-44.2	13.6	8.30e-06	0	61	0	535822336	53	5233
2026-01-26 01:17:37.40	268.09	21.01	-41.1	-44.5	13.3	1.98e-05	0	61	0	536870912	53	5409
2026-01-26 01:17:38.41	267.88	20.92	-41.3	-44.8	13.0	2.21e-05	0	62	0	538968064	53	5620
2026-01-26 01:17:39.42	267.67	20.84	-41.4	-45.1	12.7	6.02e-05	0	62	0	541065216	53	5798
2026-01-26 01:17:40.43	267.47	20.76	-41.6	-45.3	12.4	1.25e-04	0	62	0	543162368	53	5960
2026-01-26 01:17:41.44	267.27	20.67	-41.7	-45.5	12.3	2.02e-04	0	62	0	545259520	54	5771
2026-01-26 01:17:42.45	267.06	20.59	-41.7	-45.5	12.3	2.61e-04	0	62	0	546308096	54	5748
2026-01-26 01:17:43.46	266.86	20.50	-41.5	-45.2	12.6	1.37e-04	0	61	0	548405248	54	5576
2026-01-26 01:17:44.47	266.66	20.42	-41.3	-44.7	13.1	4.57e-05	0	62	0	550502400	54	5269
2026-01-26 01:17:45.48	266.46	20.33	-41.2	-44.5	13.3	1.52e-05	0	62	0	552599552	54	5119
2026-01-26 01:17:46.49	266.27	20.25	-41.1	-44.3	13.5	9.10e-06	0	61	0	554696704	54	5012
2026-01-26 01:17:47.50	266.07	20.16	-41.2	-44.5	13.3	1.44e-05	0	61	0	555745280	54	5145
2026-01-26 01:17:48.51	265.87	20.08	-41.3	-44.7	13.1	2.05e-05	0	62	0	557842432	54	5247
2026-01-26 01:17:49.52	265.68	19.99	-41.3	-44.8	12.9	4.11e-05	0	61	0	559939584	54	5339
2026-01-26 01:17:50.53	265.49	19.91	-41.2	-44.6	13.1	3.43e-05	0	62	0	562036736	54	5214
2026-01-26 01:17:51.54	265.29	19.82	-41.2	-44.5	13.2	1.44e-05	0	61	0	564133888	54	5155
2026-01-26 01:17:52.55	265.10	19.74	-40.9	-44.1	13.6	1.37e-05	0	62	0	566231040	53	5170
2026-01-26 01:17:53.56	264.91	19.65	-40.7	-43.7	14.1	3.00e-06	0	61	0	567279616	53	4959
2026-01-26 01:17:54.57	264.72	19.57	-40.4	-43.3	14.5	1.50e-06	0	61	0	569376768	52	4987
2026-01-26 01:17:55.58	264.53	19.48	-40.5	-43.3	14.5	7.00e-07	0	62	0	571473920	52	5013
2026-01-26 01:17:56.60	264.34	19.40	-40.3	-43.1	14.7	0.00e+00	0	62	0	573571072	52	4882
2026-01-26 01:17:57.61	264.16	19.31	-40.3	-43.0	14.8	0.00e+00	0	62	0	575668224	52	4850
2026-01-26 01:17:58.62	263.97	19.23	-40.3	-43.1	14.7	1.50e-06	0	62	0	576716800	52	4893
2026-01-26 01:17:59.62	263.79	19.14	-40.3	-43.1	14.7	0.00e+00	0	61	0	578813952	52	4905
2026-01-26 01:18:00.63	263.61	19.06	-40.4	-43.3	14.5	7.00e-07	0	62	0	580911104	52	4986
2026-01-26 01:18:01.64	263.43	18.97	-40.6	-43.5	14.3	2.20e-06	0	61	0	583008256	52	5125
2026-01-26 01:18:02.65	263.25	18.89	-40.6	-43.6	14.2	7.00e-07	0	62	0	585105408	52	5201
2026-01-26 01:18:03.66	263.07	18.80	-40.7	-43.8	14.0	0.00e+00	0	61	0	586153984	52	5282
2026-01-26 01:18:04.68	262.89	18.71	-40.7	-43.8	13.9	7.00e-07	0	61	0	588251136	52	5318
2026-01-26 01:18:05.68	262.71	18.63	-40.8	-43.9	13.9	4.50e-06	0	62	0	590348288	52	5353
2026-01-26 01:18:06.69	262.53	18.54	-40.7	-43.7	14.0	7.00e-07	0	61	0	592445440	52	5262
2026-01-26 01:18:07.70	262.36	18.46	-40.7	-43.7	14.1	2.20e-06	0	61	0	594542592	52	5227
2026-01-26 01:18:08.71	262.18	18.37	-40.6	-43.7	14.1	0.00e+00	0	62	0	595591168	52	5231
2026-01-26 01:18:09.73	262.01	18.29	-40.6	-43.6	14.1	1.50e-06	0	62	0	597688320	52	5205
2026-01-26 01:18:10.74	261.83	18.20	-40.7	-43.7	14.0	2.20e-06	0	62	0	599785472	52	5256
2026-01-26 01:18:11.75	261.66	18.12	-40.8	-44.0	13.7	1.50e-06	0	62	0	601882624	52	5436
2026-01-26 01:18:12.76	261.49	18.03	-40.9	-44.1	13.7	5.30e-06	0	62	0	603979776	52	5500
2026-01-26 01:18:13.77	261.32	17.95	-40.8	-44.0	13.8	4.50e-06	0	62	0	605028352	52	5418
2026-01-26 01:18:14.78	261.15	17.86	-40.9	-44.1	13.6	8.30e-06	0	62	0	607125504	52	5504
2026-01-26 01:18:15.79	260.98	17.78	-41.0	-44.3	13.5	1.37e-05	0	62	0	609222656	52	5602
2026-01-26 01:18:16.80	260.82	17.69	-41.0	-44.3	13.4	1.90e-05	0	62	0	611319808	52	5645
2026-01-26 01:18:17.81	260.65	17.61	-41.1	-44.4	13.3	1.60e-05	0	61	0	613416960	52	5699
2026-01-26 01:18:18.82	260.49	17.52	-41.2	-44.6	13.1	1.14e-05	0	61	0	614465536	52	5829
2026-01-26 01:18:19.83	260.32	17.44	-41.0	-44.2	13.5	1.37e-05	0	62	0	616562688	52	5570
2026-01-26 01:18:20.84	260.16	17.35	-40.8	-44.0	13.7	9.10e-06	0	62	0	618659840	52	5446
2026-01-26 01:18:21.85	260.00	17.27	-40.7	-43.8	13.9	1.50e-06	0	61	0	620756992	52	5315
2026-01-26 01:18:22.85	259.84	17.18	-40.6	-43.6	14.1	7.00e-07	0	62	0	622854144	52	5206
2026-01-26 01:18:23.86	259.67	17.10	-40.5	-43.5	14.2	3.80e-06	0	62	0	623902720	52	5121
2026-01-26 01:18:24.87	259.52	17.01	-40.5	-43.5	14.2	0.00e+00	0	62	0	625999872	52	5122
2026-01-26 01:18:25.88	259.36	16.93	-40.6	-43.6	14.1	2.20e-06	0	62	0	628097024	52	5170
2026-01-26 01:18:26.89	259.20	16.84	-40.7	-43.8	13.9	1.50e-06	0	62	0	630194176	52	5335
2026-01-26 01:18:27.90	259.04	16.76	-41.0	-44.3	13.4	7.60e-06	0	62	0	632291328	52	5607
2026-01-26 01:18:28.91	258.89	16.68	-41.1	-44.6	12.9	2.59e-05	0	61	0	633339904	52	5823
2026-01-26 01:18:29.92	258.73	16.59	-41.2	-44.7	12.9	3.81e-05	0	62	0	635437056	53	5590
2026-01-26 01:18:30.93	258.58	16.51	-41.3	-44.8	12.8	5.26e-05	0	62	0	637534208	53	5654
2026-01-26 01:18:31.94	258.42	16.42	-41.4	-45.0	12.7	8.23e-05	0	62	0	639631360	53	5744
2026-01-26 01:18:32.95	258.27	16.34	-41.2	-44.7	12.9	6.63e-05	0	62	0	641728512	53	5584
2026-01-26 01:18:33.96	258.12	16.25	-41.2	-44.6	13.0	4.11e-05	0	62	0	643825664	53	5515
2026-01-26 01:18:34.97	257.97	16.17	-41.0	-44.4	13.2	2.51e-05	0	62	0	644874240	53	5379
2026-01-26 01:18:35.98	257.82	16.09	-41.0	-44.4	13.3	1.60e-05	0	62	0	646971392	53	5365
2026-01-26 01:18:36.99	257.67	16.00	-41.0	-44.4	13.3	1.37e-05	0	62	0	649068544	53	5363
2026-01-26 01:18:38.00	257.52	15.92	-41.0	-44.3	13.3	1.06e-05	0	62	0	651165696	53	5338
2026-01-26 01:18:39.01	257.37	15.84	-41.0	-44.4	13.2	2.05e-05	0	62	0	653262848	53	5384
2026-01-26 01:18:40.02	257.23	15.75	-40.9	-44.1	13.5	1.83e-05	0	62	0	654311424	53	5217
2026-01-26 01:18:41.03	257.08	15.67	-41.0	-44.3	13.3	1.37e-05	0	62	0	656408576	53	5315
2026-01-26 01:18:42.04	256.93	15.59	-41.0	-44.4	13.2	2.97e-05	0	62	0	658505728	53	5400
2026-01-26 01:18:43.05	256.79	15.50	-41.1	-44.6	13.0	2.59e-05	0	61	0	660602880	53	5499
2026-01-26 01:18:44.06	256.65	15.42	-41.1	-44.6	13.0	3.58e-05	0	62	0	662700032	53	5509
2026-01-26 01:18:45.07	256.50	15.34	-41.3	-44.9	12.7	7.24e-05	0	62	0	663748608	53	5699
2026-01-26 01:18:46.09	256.36	15.25	-41.4	-45.2	12.4	1.25e-04	0	62	0	665845760	53	5875
2026-01-26 01:18:47.10	256.22	15.17	-41.5	-45.3	12.3	1.81e-04	0	62	0	667942912	53	5964
2026-01-26 01:18:48.11	256.08	15.09	-41.8	-45.9	11.7	3.57e-04	0	62	0	670040064	54	6001
2026-01-26 01:18:49.12	255.94	15.01	-41.7	-45.8	11.8	4.43e-04	0	61	0	672137216	54	5936
2026-01-26 01:18:50.13	255.80	14.92	-41.7	-45.6	12.0	4.64e-04	0	62	0	673185792	54	5841
2026-01-26 01:18:51.14	255.66	14.84	-41.6	-45.5	12.1	4.04e-04	0	62	0	675282944	54	5748
2026-01-26 01:18:52.15	255.53	14.76	-41.5	-45.3	12.3	2.59e-04	0	62	0	677380096	54	5616
2026-01-26 01:18:53.16	255.39	14.68	-41.4	-45.1	12.5	1.56e-04	0	62	0	679477248	54	5528
2026-01-26 01:18:54.17	255.26	14.59	-41.3	-44.8	12.7	6.94e-05	0	62	0	681574400	54	5338
2026-01-26 01:18:55.18	255.12	14.51	-41.0	-44.4	13.2	3.05e-05	0	62	0	683671552	54	5094
2026-01-26 01:18:56.19	254.99	14.43	-40.8	-44.1	13.5	9.10e-06	0	62	0	684720128	53	5179
2026-01-26 01:18:57.19	254.85	14.35	-40.9	-44.3	13.3	1.22e-05	0	62	0	686817280	53	5280
2026-01-26 01:18:58.20	254.72	14.27	-40.9	-44.3	13.2	1.37e-05	0	62	0	688914432	53	5296
2026-01-26 01:18:59.21	254.59	14.19	-41.1	-44.5	13.1	1.83e-05	0	62	0	691011584	53	5436
2026-01-26 01:19:00.22	254.46	14.11	-41.2	-44.7	12.8	5.34e-05	0	62	0	693108736	53	5585
2026-01-26 01:19:01.23	254.33	14.02	-41.3	-44.9	12.7	8.23e-05	0	62	0	694157312	53	5673
2026-01-26 01:19:02.24	254.20	13.94	-41.2	-44.8	12.8	1.04e-04	0	62	0	696254464	53	5610
2026-01-26 01:19:03.25	254.07	13.86	-41.2	-44.8	12.7	7.93e-05	0	62	0	698351616	53	5631
2026-01-26 01:19:04.26	253.94	13.78	-41.3	-44.9	12.6	1.28e-04	0	62	0	700448768	53	5718
2026-01-26 01:19:05.27	253.81	13.70	-41.2	-44.8	12.8	6.10e-05	0	62	0	702545920	53	5607
2026-01-26 01:19:06.28	253.69	13.62	-41.3	-44.9	12.7	5.34e-05	0	62	0	703594496	53	5661
2026-01-26 01:19:07.29	253.56	13.54	-41.2	-44.7	12.9	4.50e-05	0	62	0	705691648	53	5535
2026-01-26 01:19:08.30	253.44	13.46	-41.3	-44.9	12.7	5.56e-05	0	62	0	707788800	53	5657
2026-01-26 01:19:09.31	253.31	13.38	-41.2	-44.7	12.8	4.73e-05	0	62	0	709885952	53	5580
2026-01-26 01:19:10.32	253.19	13.30	-41.2	-44.9	12.7	8.39e-05	0	62	0	711983104	53	5667
2026-01-26 01:19:11.33	253.06	13.22	-41.3	-44.9	12.6	1.11e-04	0	62	0	713031680	53	5710
2026-01-26 01:19:12.34	252.94	13.14	-41.3	-45.0	12.5	8.46e-05	0	62	0	715128832	53	5757
2026-01-26 01:19:13.35	252.82	13.06	-41.3	-45.1	12.4	1.23e-04	0	62	0	717225984	53	5790
2026-01-26 01:19:14.36	252.70	12.98	-41.3	-45.0	12.6	1.28e-04	0	62	0	719323136	53	5735
2026-01-26 01:19:15.37	252.58	12.90	-41.4	-45.2	12.2	1.21e-04	0	62	0	721420288	53	5914
2026-01-26 01:19:16.38	252.46	12.82	-41.5	-45.3	12.2	2.09e-04	0	62	0	722468864	53	5981
2026-01-26 01:19:17.39	252.34	12.74	-41.5	-45.3	12.2	2.11e-04	0	62	0	724566016	53	5986
2026-01-26 01:19:18.40	252.22	12.66	-41.5	-45.3	12.1	2.75e-04	0	62	0	726663168	53	5983
2026-01-26 01:19:19.41	252.10	12.59	-41.6	-45.6	11.9	3.58e-04	0	61	0	728760320	53	6136
2026-01-26 01:19:20.42	251.98	12.51	-41.6	-45.6	11.9	5.49e-04	0	62	0	730857472	53	6170
2026-01-26 01:19:21.43	251.87	12.43	-41.6	-45.7	11.7	4.35e-04	0	62	0	731906048	53	6268
2026-01-26 01:19:22.44	251.75	12.35	-41.8	-46.1	11.4	7.87e-04	0	62	0	734003200	54	6180
2026-01-26 01:19:23.45	251.63	12.27	-41.8	-46.1	11.3	1.16e-03	0	62	0	736100352	54	6162
2026-01-26 01:19:24.46	251.52	12.19	-41.9	-46.3	11.1	1.38e-03	0	62	0	738197504	54	6303
2026-01-26 01:19:25.47	251.41	12.12	-41.9	-46.4	11.0	1.98e-03	0	62	0	740294656	54	6360
2026-01-26 01:19:26.48	251.29	12.04	-42.0	-46.4	11.0	1.95e-03	0	62	0	741343232	54	6419
2026-01-26 01:19:27.49	251.18	11.96	-41.9	-46.4	11.0	1.87e-03	0	62	0	743440384	54	6407
2026-01-26 01:19:28.50	251.07	11.88	-41.8	-46.0	11.4	1.20e-03	0	62	0	745537536	54	6096
2026-01-26 01:19:29.52	250.95	11.80	-41.8	-46.0	11.5	9.09e-04	0	62	0	747634688	54	6087
2026-01-26 01:19:30.53	250.84	11.73	-41.6	-45.7	11.7	6.81e-04	0	62	0	749731840	54	5868
2026-01-26 01:19:31.54	250.73	11.65	-41.6	-45.7	11.7	4.29e-04	0	62	0	751828992	54	5890
2026-01-26 01:19:32.55	250.62	11.57	-41.6	-45.6	11.8	4.13e-04	0	62	0	752877568	54	5811
2026-01-26 01:19:33.56	250.51	11.50	-41.6	-45.7	11.8	3.48e-04	0	62	0	754974720	54	5891
2026-01-26 01:19:34.57	250.40	11.42	-41.5	-45.5	12.0	4.94e-04	0	62	0	757071872	54	5742
2026-01-26 01:19:35.58	250.29	11.34	-41.6	-45.7	11.8	4.55e-04	0	62	0	759169024	54	5873
2026-01-26 01:19:36.59	250.19	11.27	-41.7	-45.8	11.6	6.86e-04	0	62	0	761266176	54	5947
2026-01-26 01:19:37.60	250.08	11.19	-41.7	-46.0	11.4	8.54e-04	0	62	0	762314752	54	6070
2026-01-26 01:19:38.61	249.97	11.11	-41.8	-46.1	11.2	1.09e-03	0	62	0	764411904	54	6200
2026-01-26 01:19:39.62	249.87	11.04	-41.9	-46.4	10.9	1.77e-03	0	62	0	766509056	54	6384
2026-01-26 01:19:40.63	249.76	10.96	-42.0	-46.6	10.8	2.44e-03	0	62	0	768606208	54	6520
2026-01-26 01:19:41.64	249.66	10.89	-42.0	-46.6	10.7	3.21e-03	0	62	0	770703360	54	6533
2026-01-26 01:19:42.65	249.55	10.81	-42.0	-46.6	10.7	3.32e-03	0	62	0	771751936	54	6557
2026-01-26 01:19:43.66	249.45	10.73	-42.1	-46.8	10.5	3.25e-03	0	62	0	773849088	54	6672
2026-01-26 01:19:44.67	249.34	10.66	-41.9	-46.5	10.8	3.03e-03	0	62	0	775946240	54	6450
2026-01-26 01:19:45.67	249.24	10.59	-42.0	-46.6	10.7	2.52e-03	0	62	0	778043392	54	6529
2026-01-26 01:19:46.69	249.14	10.51	-41.8	-46.2	11.1	2.18e-03	0	62	0	780140544	54	6249
2026-01-26 01:19:47.70	249.04	10.43	-41.7	-46.1	11.3	1.22e-03	0	62	0	781189120	54	6145
2026-01-26 01:19:48.70	248.94	10.36	-41.7	-45.9	11.4	1.06e-03	0	62	0	783286272	54	6043
2026-01-26 01:19:49.71	248.84	10.29	-41.5	-45.5	11.9	5.04e-04	0	62	0	785383424	54	5763
2026-01-26 01:19:50.72	248.74	10.21	-41.5	-45.5	11.9	4.41e-04	0	62	0	787480576	54	5763
2026-01-26 01:19:51.73	248.64	10.14	-41.4	-45.4	12.0	3.97e-04	0	62	0	789577728	54	5684
2026-01-26 01:19:52.74	248.54	10.06	-41.4	-45.3	12.0	3.49e-04	0	62	0	790626304	54	5650
2026-01-26 01:19:53.75	248.44	9.99	-41.4	-45.5	11.8	4.41e-04	0	62	0	792723456	54	5735
2026-01-26 01:19:54.76	248.34	9.91	-41.4	-45.5	11.9	4.65e-04	0	62	0	794820608	54	5751
2026-01-26 01:19:55.77	248.24	9.84	-41.5	-45.6	11.7	5.93e-04	0	62	0	796917760	54	5827
2026-01-26 01:19:56.78	248.15	9.77	-41.6	-45.8	11.4	8.03e-04	0	62	0	799014912	54	5979
2026-01-26 01:19:57.79	248.05	9.69	-41.7	-46.1	11.2	1.11e-03	0	62	0	800063488	54	6159
2026-01-26 01:19:58.80	247.95	9.62	-41.8	-46.2	11.0	1.70e-03	0	62	0	802160640	54	6246
2026-01-26 01:19:59.81	247.86	9.55	-41.8	-46.4	10.9	1.81e-03	0	62	0	804257792	54	6357
2026-01-26 01:20:00.82	247.76	9.47	-41.9	-46.6	10.6	2.98e-03	0	62	0	806354944	54	6541
2026-01-26 01:20:01.83	247.67	9.40	-42.0	-46.8	10.4	4.64e-03	0	62	0	808452096	54	6701
2026-01-26 01:20:02.84	247.58	9.33	-42.1	-47.1	10.1	5.77e-03	0	62	0	809500672	54	6912
2026-01-26 01:20:03.85	247.48	9.25	-42.1	-47.2	10.0	6.82e-03	0	62	0	811597824	54	6982
2026-01-26 01:20:04.86	247.39	9.18	-42.1	-47.1	10.0	7.71e-03	0	62	0	813694976	54	6921
2026-01-26 01:20:05.87	247.30	9.11	-42.2	-47.3	9.8	9.18e-03	0	62	0	815792128	55	6709
2026-01-26 01:20:06.88	247.20	9.04	-42.2	-47.4	9.8	9.92e-03	0	62	0	817889280	55	6762
2026-01-26 01:20:07.89	247.11	8.97	-42.3	-47.6	9.6	1.18e-02	0	62	0	819986432	55	6940
2026-01-26 01:20:08.90	247.02	8.89	-42.3	-47.6	9.5	1.36e-02	0	62	0	821035008	55	6890
2026-01-26 01:20:09.91	246.93	8.82	-42.3	-47.6	9.5	1.52e-02	0	62	0	823132160	55	6944
2026-01-26 01:20:10.92	246.84	8.75	-42.3	-47.6	9.5	1.74e-02	0	62	0	825229312	55	6920
2026-01-26 01:20:11.93	246.75	8.68	-42.4	-47.9	9.1	1.92e-02	0	62	0	827326464	55	7174
2026-01-26 01:20:12.94	246.66	8.61	-42.4	-47.9	9.2	1.96e-02	0	62	0	829423616	55	7154
2026-01-26 01:20:13.95	246.57	8.54	-42.4	-47.9	9.2	1.90e-02	0	62	0	830472192	55	7154
2026-01-26 01:20:14.96	246.48	8.46	-42.3	-47.9	9.2	1.93e-02	0	62	0	832569344	55	7145
2026-01-26 01:20:15.97	246.39	8.39	-42.3	-47.8	9.3	2.16e-02	0	62	0	834666496	55	7049
2026-01-26 01:20:16.98	246.31	8.32	-42.3	-47.7	9.3	1.93e-02	0	62	0	836763648	55	7040
2026-01-26 01:20:17.99	246.22	8.25	-42.3	-47.8	9.2	1.95e-02	0	62	0	838860800	55	7099
2026-01-26 01:20:19.00	246.13	8.18	-42.3	-47.9	9.1	2.06e-02	0	62	0	839909376	55	7197
2026-01-26 01:20:20.01	246.05	8.11	-42.3	-48.0	9.1	2.23e-02	0	62	0	842006528	55	7216
2026-01-26 01:20:21.02	245.96	8.04	-42.3	-47.9	9.1	2.08e-02	0	61	0	844103680	55	7154
2026-01-26 01:20:22.03	245.87	7.97	-44.4	-58.7	3.8	1.01e+00	0	62	104	845152256	59	19657
2026-01-26 01:20:23.04	245.79	7.90	-44.7	-59.3	3.8	1.49e+00	0	62	104	845152256	60	19943
2026-01-26 01:20:24.05	245.70	7.83	-44.8	-59.5	3.8	1.49e+00	0	62	104	845152256	60	20433
2026-01-26 01:20:25.06	245.62	7.76	-45.0	-59.6	3.8	1.49e+00	0	62	104	845152256	60	20726
2026-01-26 01:20:26.07	245.54	7.69	-45.0	-59.7	3.8	1.49e+00	0	62	104	845152256	60	20836
2026-01-26 01:20:27.08	245.45	7.62	-45.1	-59.8	3.8	1.49e+00	0	62	104	845152256	60	21051
2026-01-26 01:20:28.09	245.37	7.55	-45.1	-59.8	3.8	1.49e+00	0	62	104	845152256	60	21212
2026-01-26 01:20:29.10	245.29	7.48	-45.1	-59.8	3.8	1.49e+00	0	62	104	845152256	60	21144
2026-01-26 01:20:30.11	245.21	7.41	-45.2	-59.8	3.8	1.49e+00	0	62	104	845152256	60	21160
2026-01-26 01:20:31.12	245.12	7.34	-45.2	-59.8	3.8	1.49e+00	0	62	104	845152256	60	21187
2026-01-26 01:20:32.13	245.04	7.27	-45.2	-59.8	3.8	1.49e+00	0	62	104	845152256	60	21112
2026-01-26 01:20:33.15	244.96	7.20	-45.1	-59.7	3.8	1.49e+00	0	62	104	845152256	60	20973
2026-01-26 01:20:34.15	244.88	7.14	-45.1	-59.7	3.8	1.49e+00	0	62	104	845152256	60	20981
2026-01-26 01:20:35.16	244.80	7.07	-45.1	-59.7	3.8	1.49e+00	0	62	104	845152256	60	20966
