passes_logs/2026/01/26/R2.0S_Moscow/R2.0S_Moscow__20260126_012927_NOAA_20_JPSS-1_rec.log

#Pass ID: 20260126_012927_NOAA 20 (JPSS-1)
#Satellite: NOAA 20 (JPSS-1)
#Configuration: NOAA 20
#almurnet v.1.7.20251203
#Start time: 2026-01-26 01:29:29

#Version: 2.2.20231116
#Station: R2.0S_Moscow
#Location: 37.707566 lon 55.798166 lat
#TLE: 1 43013U 17073A   26025.47986292  .00000161  00000+0  97249-4 0  9993
#TLE: 2 43013  98.7646 326.3091 0001052  24.2709 335.8516 14.19540188424225

#Time	Az	El	Level	Level2	SNR	BER	BlckErr	Temp	State	Recorded	gain1	gain2
2026-01-26 01:29:29.18	9.74	2.09	-39.9	-54.4	3.8	1.49e+00	0	56	0	0	51	19072
2026-01-26 01:29:30.18	9.67	2.15	-39.9	-54.4	3.8	1.49e+00	0	56	104	0	51	19022
2026-01-26 01:29:31.19	9.60	2.20	-39.9	-54.4	3.8	1.49e+00	0	57	104	0	51	19035
2026-01-26 01:29:32.20	9.52	2.26	-39.9	-54.4	3.8	1.49e+00	0	57	104	0	51	19024
2026-01-26 01:29:33.21	9.45	2.31	-39.9	-54.4	3.8	1.49e+00	0	57	104	0	51	19039
2026-01-26 01:29:34.22	9.38	2.37	-39.9	-54.4	3.8	1.49e+00	0	57	104	0	51	19030
2026-01-26 01:29:35.23	9.31	2.43	-39.8	-54.4	3.8	1.49e+00	0	57	104	0	51	18991
2026-01-26 01:29:36.24	9.24	2.48	-39.8	-54.4	3.8	1.49e+00	0	57	104	0	51	18998
2026-01-26 01:29:37.25	9.16	2.54	-39.9	-54.4	3.8	1.49e+00	0	57	104	0	51	18978
2026-01-26 01:29:38.26	9.09	2.59	-39.9	-54.4	3.8	1.49e+00	0	57	104	0	51	18950
2026-01-26 01:29:39.27	9.02	2.65	-39.8	-54.3	3.8	1.49e+00	0	57	104	0	51	18934
2026-01-26 01:29:40.28	8.94	2.71	-39.8	-54.3	3.8	1.49e+00	0	57	104	0	51	18909
2026-01-26 01:29:41.29	8.87	2.76	-39.8	-54.4	3.8	1.49e+00	0	57	104	0	51	18951
2026-01-26 01:29:42.30	8.80	2.82	-39.8	-54.3	3.8	1.49e+00	0	57	104	0	51	18915
2026-01-26 01:29:43.31	8.72	2.88	-39.8	-54.3	3.8	1.49e+00	0	57	104	0	51	18906
2026-01-26 01:29:44.32	8.65	2.93	-39.8	-54.4	3.8	1.49e+00	0	57	104	0	51	18951
2026-01-26 01:29:45.33	8.57	2.99	-39.8	-54.4	3.8	1.49e+00	0	57	104	0	51	18960
2026-01-26 01:29:46.34	8.50	3.05	-39.8	-54.3	3.8	1.49e+00	0	57	104	0	51	18880
2026-01-26 01:29:47.35	8.42	3.10	-39.8	-54.3	3.8	1.49e+00	0	57	104	0	51	18905
2026-01-26 01:29:48.36	8.35	3.16	-39.8	-54.3	3.8	1.49e+00	0	57	104	0	51	18926
2026-01-26 01:29:49.37	8.27	3.22	-39.8	-54.3	3.8	1.49e+00	0	57	104	0	51	18910
2026-01-26 01:29:50.37	8.19	3.27	-39.8	-54.3	3.8	1.49e+00	0	57	104	0	51	18903
2026-01-26 01:29:51.38	8.12	3.33	-39.8	-54.3	3.8	1.49e+00	0	58	104	0	51	18890
2026-01-26 01:29:52.39	8.04	3.39	-39.8	-54.3	3.8	1.49e+00	0	57	104	0	51	18944
2026-01-26 01:29:53.41	7.96	3.44	-39.8	-54.4	3.8	1.49e+00	0	57	104	0	51	18990
2026-01-26 01:29:54.41	7.89	3.50	-39.8	-54.3	3.8	1.49e+00	0	58	104	0	51	18920
2026-01-26 01:29:55.42	7.81	3.56	-39.8	-54.3	3.8	1.49e+00	0	57	104	0	51	18912
2026-01-26 01:29:56.43	7.73	3.62	-39.8	-54.3	3.8	1.49e+00	0	58	104	0	51	18898
2026-01-26 01:29:57.44	7.65	3.67	-39.8	-54.3	3.8	1.49e+00	0	58	104	0	51	18871
2026-01-26 01:29:58.45	7.57	3.73	-39.8	-54.4	3.8	1.49e+00	0	58	104	0	51	18951
2026-01-26 01:29:59.46	7.49	3.79	-39.8	-54.3	3.8	1.49e+00	0	58	104	0	51	18910
2026-01-26 01:30:00.47	7.41	3.85	-39.8	-54.4	3.8	1.49e+00	0	58	104	0	51	18962
2026-01-26 01:30:01.48	7.33	3.90	-39.8	-54.3	3.8	1.49e+00	0	58	104	0	51	18931
2026-01-26 01:30:02.49	7.25	3.96	-39.8	-54.3	3.8	1.49e+00	0	58	104	0	51	18836
2026-01-26 01:30:03.51	7.17	4.02	-39.8	-54.3	3.8	1.49e+00	0	58	104	0	51	18881
2026-01-26 01:30:04.52	7.09	4.08	-39.8	-54.3	3.8	1.49e+00	0	58	104	0	51	18921
2026-01-26 01:30:05.53	7.01	4.14	-39.8	-54.4	3.8	1.49e+00	0	58	104	0	51	18954
2026-01-26 01:30:06.54	6.93	4.19	-39.8	-54.3	3.8	1.49e+00	0	58	104	0	51	18886
2026-01-26 01:30:07.55	6.84	4.25	-39.8	-54.3	3.8	1.49e+00	0	58	104	0	51	18889
2026-01-26 01:30:08.56	6.76	4.31	-39.8	-54.3	3.8	1.49e+00	0	58	104	0	51	18867
2026-01-26 01:30:09.57	6.68	4.37	-39.8	-54.3	3.8	1.49e+00	0	58	104	0	51	18910
2026-01-26 01:30:10.58	6.60	4.43	-39.8	-54.3	3.8	1.49e+00	0	58	104	0	51	18881
2026-01-26 01:30:11.59	6.51	4.48	-39.8	-54.3	3.8	1.49e+00	0	58	104	0	51	18936
2026-01-26 01:30:12.60	6.43	4.54	-39.8	-54.3	3.8	1.49e+00	0	58	104	0	51	18911
2026-01-26 01:30:13.61	6.35	4.60	-39.8	-54.3	3.8	1.49e+00	0	58	104	0	51	18922
2026-01-26 01:30:14.62	6.26	4.66	-39.8	-54.3	3.8	1.49e+00	0	58	104	0	51	18913
2026-01-26 01:30:15.63	6.18	4.72	-39.8	-54.3	3.8	1.49e+00	0	58	104	0	51	18832
2026-01-26 01:30:16.64	6.09	4.78	-39.8	-54.3	3.8	1.49e+00	0	58	104	0	51	18847
2026-01-26 01:30:17.65	6.01	4.84	-39.8	-54.3	3.8	1.49e+00	0	58	104	0	51	18784
2026-01-26 01:30:18.66	5.92	4.90	-39.8	-54.3	3.8	1.49e+00	0	58	104	0	51	18863
2026-01-26 01:30:19.67	5.83	4.95	-39.8	-54.3	3.8	1.49e+00	0	59	104	0	51	18835
2026-01-26 01:30:20.69	5.75	5.01	-39.8	-54.3	3.8	1.49e+00	0	58	104	0	51	18834
2026-01-26 01:30:21.70	5.66	5.07	-39.8	-54.3	3.8	1.49e+00	0	59	104	0	51	18858
2026-01-26 01:30:22.71	5.57	5.13	-39.8	-54.3	3.8	1.49e+00	0	58	104	0	51	18810
2026-01-26 01:30:23.72	5.48	5.19	-39.8	-54.3	3.8	1.49e+00	0	59	104	0	51	18841
2026-01-26 01:30:24.73	5.40	5.25	-39.8	-54.3	3.8	1.49e+00	0	58	104	0	51	18763
2026-01-26 01:30:25.74	5.31	5.31	-39.7	-54.3	3.8	1.49e+00	0	58	104	0	51	18773
2026-01-26 01:30:26.74	5.22	5.37	-39.8	-54.3	3.8	1.49e+00	0	59	104	0	51	18807
2026-01-26 01:30:27.75	5.13	5.43	-39.7	-54.3	3.8	1.49e+00	0	59	104	0	51	18794
2026-01-26 01:30:28.76	5.04	5.49	-39.7	-54.3	3.8	1.49e+00	0	59	104	0	51	18762
2026-01-26 01:30:29.77	4.95	5.55	-39.7	-54.2	3.8	1.49e+00	0	59	104	0	51	18725
2026-01-26 01:30:30.78	4.86	5.61	-39.7	-54.3	3.8	1.49e+00	0	59	104	0	51	18736
2026-01-26 01:30:31.79	4.77	5.67	-39.7	-54.3	3.8	1.49e+00	0	59	104	0	51	18768
2026-01-26 01:30:32.80	4.68	5.73	-39.7	-54.3	3.8	1.49e+00	0	59	104	0	51	18784
2026-01-26 01:30:33.81	4.59	5.79	-39.7	-54.3	3.8	1.49e+00	0	59	104	0	51	18735
2026-01-26 01:30:34.82	4.49	5.85	-39.7	-54.3	3.8	1.49e+00	0	59	104	0	51	18765
2026-01-26 01:30:35.83	4.40	5.91	-39.7	-54.3	3.8	1.49e+00	0	59	104	0	51	18784
2026-01-26 01:30:36.84	4.31	5.97	-39.7	-54.3	3.8	1.49e+00	0	59	104	0	51	18798
2026-01-26 01:30:37.85	4.22	6.03	-39.7	-54.3	3.8	1.49e+00	0	59	104	0	51	18773
2026-01-26 01:30:38.86	4.12	6.09	-39.7	-54.3	3.8	1.49e+00	0	59	104	0	51	18758
2026-01-26 01:30:39.88	4.03	6.15	-39.7	-54.3	3.8	1.49e+00	0	59	104	0	51	18759
2026-01-26 01:30:40.89	3.93	6.21	-39.7	-54.2	3.8	1.49e+00	0	59	104	0	51	18727
2026-01-26 01:30:41.89	3.84	6.27	-39.7	-54.3	3.8	1.49e+00	0	59	104	0	51	18775
2026-01-26 01:30:42.91	3.74	6.33	-39.7	-54.3	3.8	1.49e+00	0	59	104	0	51	18751
2026-01-26 01:30:43.92	3.65	6.39	-39.7	-54.3	3.8	1.49e+00	0	59	104	0	51	18809
2026-01-26 01:30:44.93	3.55	6.45	-39.7	-54.3	3.8	1.49e+00	0	59	104	0	51	18758
2026-01-26 01:30:45.94	3.46	6.51	-39.7	-54.3	3.8	1.49e+00	0	59	104	0	51	18763
2026-01-26 01:30:46.95	3.36	6.57	-39.7	-54.3	3.8	1.49e+00	0	59	104	0	51	18747
2026-01-26 01:30:47.96	3.26	6.63	-39.7	-54.3	3.8	1.49e+00	0	59	104	0	51	18767
2026-01-26 01:30:48.97	3.16	6.69	-39.7	-54.2	3.8	1.49e+00	0	59	104	0	51	18714
2026-01-26 01:30:49.98	3.07	6.75	-39.7	-54.3	3.8	1.49e+00	0	59	104	0	51	18803
2026-01-26 01:30:50.99	2.97	6.81	-39.7	-54.3	3.8	1.49e+00	0	59	104	0	51	18763
2026-01-26 01:30:52.00	2.87	6.88	-39.7	-54.2	3.8	1.49e+00	0	59	104	0	51	18730
2026-01-26 01:30:53.02	2.77	6.94	-39.7	-54.3	3.8	1.49e+00	0	59	104	0	51	18759
2026-01-26 01:30:54.03	2.67	7.00	-39.7	-54.3	3.8	1.49e+00	0	59	104	0	51	18787
2026-01-26 01:30:55.04	2.57	7.06	-39.7	-54.3	3.8	1.49e+00	0	59	104	0	51	18772
2026-01-26 01:30:56.05	2.47	7.12	-39.7	-54.3	3.8	1.49e+00	0	59	104	0	51	18787
2026-01-26 01:30:57.06	2.37	7.18	-39.7	-54.3	3.8	1.49e+00	0	59	104	0	51	18735
2026-01-26 01:30:58.07	2.27	7.24	-39.7	-54.3	3.8	1.49e+00	0	59	104	0	51	18765
2026-01-26 01:30:59.08	2.16	7.31	-39.7	-54.3	3.8	1.49e+00	0	59	104	0	51	18749
2026-01-26 01:31:00.09	2.06	7.37	-39.7	-54.3	3.8	1.49e+00	0	60	104	0	51	18746
2026-01-26 01:31:01.10	1.96	7.43	-39.7	-54.3	3.8	1.49e+00	0	60	104	0	51	18744
2026-01-26 01:31:02.11	1.85	7.49	-39.7	-54.2	3.8	1.49e+00	0	59	104	0	51	18723
2026-01-26 01:31:03.12	1.75	7.55	-39.7	-54.3	3.8	1.49e+00	0	59	104	0	51	18734
2026-01-26 01:31:04.13	1.65	7.61	-39.7	-54.3	3.8	1.49e+00	0	59	104	0	51	18744
2026-01-26 01:31:05.14	1.54	7.68	-39.7	-54.3	3.8	1.49e+00	0	59	104	0	51	18763
2026-01-26 01:31:06.15	1.44	7.74	-39.7	-54.2	3.8	1.49e+00	0	59	104	0	51	18716
2026-01-26 01:31:07.16	1.33	7.80	-39.7	-54.3	3.8	1.49e+00	0	59	104	0	51	18778
2026-01-26 01:31:08.17	1.22	7.86	-39.7	-54.3	3.8	1.49e+00	0	60	104	0	51	18768
2026-01-26 01:31:09.18	1.12	7.92	-39.7	-54.3	3.8	1.49e+00	0	59	104	0	51	18736
2026-01-26 01:31:10.20	1.01	7.99	-39.7	-54.3	3.8	1.49e+00	0	59	104	0	51	18793
2026-01-26 01:31:11.21	0.90	8.05	-39.7	-54.3	3.8	1.49e+00	0	59	104	0	51	18787
2026-01-26 01:31:12.21	0.80	8.11	-39.8	-54.4	3.8	1.49e+00	0	60	104	0	51	19031
2026-01-26 01:31:13.22	0.69	8.17	-39.9	-54.5	3.8	1.49e+00	0	60	104	0	51	19176
2026-01-26 01:31:14.23	0.58	8.23	-39.9	-54.5	3.8	1.49e+00	0	60	104	0	51	19177
2026-01-26 01:31:15.25	0.47	8.30	-40.0	-54.6	3.8	1.49e+00	0	60	104	0	51	19416
2026-01-26 01:31:16.25	0.36	8.36	-39.9	-54.5	3.8	1.49e+00	0	59	104	0	51	19220
2026-01-26 01:31:17.26	0.25	8.42	-40.0	-54.6	3.8	1.49e+00	0	60	104	0	51	19419
2026-01-26 01:31:18.27	0.14	8.48	-39.9	-54.5	3.8	1.49e+00	0	60	104	0	51	19225
2026-01-26 01:31:19.28	0.03	8.55	-40.0	-54.6	3.8	1.49e+00	0	60	104	0	51	19428
2026-01-26 01:31:20.29	359.91	8.61	-40.0	-54.5	3.8	1.49e+00	0	60	104	0	51	19241
2026-01-26 01:31:21.31	359.80	8.67	-40.0	-54.6	3.8	1.49e+00	0	60	104	0	51	19390
2026-01-26 01:31:22.31	359.69	8.73	-40.0	-54.5	3.8	1.49e+00	0	60	104	0	51	19222
2026-01-26 01:31:23.33	359.57	8.80	-40.0	-54.5	3.8	1.49e+00	0	60	104	0	51	19367
2026-01-26 01:31:24.34	359.46	8.86	-40.0	-54.5	3.8	1.49e+00	0	60	104	0	51	19265
2026-01-26 01:31:25.35	359.35	8.92	-40.0	-54.5	3.8	1.49e+00	0	60	104	0	51	19320
2026-01-26 01:31:26.36	359.23	8.99	-39.9	-54.4	3.8	1.49e+00	0	60	104	0	51	19044
2026-01-26 01:31:27.37	359.12	9.05	-39.9	-54.5	3.8	1.49e+00	0	60	104	0	51	19259
2026-01-26 01:31:28.38	359.00	9.11	-40.0	-54.5	3.8	1.49e+00	0	60	104	0	51	19252
2026-01-26 01:31:29.39	358.88	9.18	-39.9	-54.5	3.8	1.49e+00	0	60	104	0	51	19196
2026-01-26 01:31:30.39	358.77	9.24	-39.9	-54.4	3.8	1.49e+00	0	60	104	0	51	19021
2026-01-26 01:31:31.40	358.65	9.30	-40.0	-54.5	3.8	1.49e+00	0	60	104	0	51	19227
2026-01-26 01:31:32.41	358.53	9.36	-39.9	-54.5	3.8	1.49e+00	0	60	104	0	51	19224
2026-01-26 01:31:33.42	358.41	9.43	-39.9	-54.5	3.8	1.49e+00	0	60	104	0	51	19236
2026-01-26 01:31:34.43	358.29	9.49	-39.9	-54.4	3.8	1.49e+00	0	60	104	0	51	19110
2026-01-26 01:31:35.44	358.18	9.55	-40.0	-54.5	3.8	1.49e+00	0	60	104	0	51	19269
2026-01-26 01:31:36.45	358.05	9.62	-39.9	-54.5	3.8	1.49e+00	0	60	104	0	51	19209
2026-01-26 01:31:37.46	357.93	9.68	-40.0	-54.5	3.8	1.49e+00	0	60	104	0	51	19265
2026-01-26 01:31:38.47	357.81	9.74	-39.9	-54.5	3.8	1.49e+00	0	60	104	0	51	19172
2026-01-26 01:31:39.48	357.69	9.81	-40.0	-54.5	3.8	1.49e+00	0	60	104	0	51	19319
2026-01-26 01:31:40.49	357.57	9.87	-40.0	-54.5	3.8	1.49e+00	0	60	104	0	51	19266
2026-01-26 01:31:41.50	357.45	9.94	-40.0	-54.5	3.8	1.49e+00	0	60	104	0	51	19294
2026-01-26 01:31:42.51	357.32	10.00	-39.9	-54.4	3.8	1.49e+00	0	60	104	0	51	19145
2026-01-26 01:31:43.52	357.20	10.06	-40.0	-54.5	3.8	1.49e+00	0	60	104	0	51	19352
2026-01-26 01:31:44.53	357.07	10.13	-40.0	-54.6	3.8	1.49e+00	0	60	104	0	51	19407
2026-01-26 01:31:45.54	356.95	10.19	-40.0	-54.5	3.8	1.49e+00	0	60	104	0	51	19243
2026-01-26 01:31:46.55	356.82	10.25	-40.0	-54.5	3.8	1.49e+00	0	60	104	0	51	19298
2026-01-26 01:31:47.56	356.70	10.32	-40.0	-54.6	3.8	1.49e+00	0	60	104	0	51	19432
2026-01-26 01:31:48.57	356.57	10.38	-40.1	-54.7	3.8	1.49e+00	0	60	104	0	51	19691
2026-01-26 01:31:49.58	356.44	10.45	-40.0	-54.6	3.8	1.49e+00	0	60	104	0	51	19415
2026-01-26 01:31:50.59	356.32	10.51	-40.2	-54.7	3.8	1.49e+00	0	60	104	0	51	19652
2026-01-26 01:31:51.60	356.19	10.57	-40.1	-54.7	3.8	1.49e+00	0	60	104	0	51	19670
2026-01-26 01:31:52.61	356.06	10.64	-40.3	-54.8	3.8	1.49e+00	0	60	104	0	51	19945
2026-01-26 01:31:53.62	355.93	10.70	-40.1	-54.7	3.8	1.49e+00	0	60	104	0	51	19624
2026-01-26 01:31:54.63	355.80	10.76	-40.3	-54.8	3.8	1.49e+00	0	60	104	0	51	19968
2026-01-26 01:31:55.64	355.67	10.83	-40.2	-54.8	3.8	1.49e+00	0	60	104	0	51	19894
2026-01-26 01:31:56.65	355.54	10.89	-40.4	-54.9	3.8	1.49e+00	0	60	104	0	51	20290
2026-01-26 01:31:57.66	355.40	10.96	-40.2	-54.8	3.8	1.49e+00	0	60	104	0	51	19892
2026-01-26 01:31:58.67	355.27	11.02	-40.3	-54.8	3.8	1.49e+00	0	60	104	0	51	20008
2026-01-26 01:31:59.68	355.14	11.08	-40.3	-54.8	3.8	1.49e+00	0	60	104	0	51	20032
2026-01-26 01:32:00.66	355.01	11.15	-40.5	-55.0	3.8	1.49e+00	0	60	104	0	51	20530
2026-01-26 01:32:01.67	354.87	11.21	-40.3	-54.8	3.8	1.49e+00	0	60	104	0	51	19949
2026-01-26 01:32:02.68	354.74	11.27	-40.3	-54.9	3.8	1.49e+00	0	60	104	0	51	20103
2026-01-26 01:32:03.69	354.60	11.34	-40.4	-54.9	3.8	1.49e+00	0	60	104	0	51	20167
2026-01-26 01:32:04.71	354.47	11.40	-40.5	-55.1	3.8	1.49e+00	0	60	104	0	51	20580
2026-01-26 01:32:05.71	354.33	11.47	-40.3	-54.8	3.8	1.49e+00	0	60	104	0	51	19905
2026-01-26 01:32:06.73	354.19	11.53	-40.3	-54.8	3.8	1.49e+00	0	60	104	0	51	20056
2026-01-26 01:32:07.73	354.05	11.59	-40.4	-54.9	3.8	1.49e+00	0	60	104	0	51	20196
2026-01-26 01:32:08.74	353.92	11.66	-40.5	-55.1	3.8	1.49e+00	0	60	104	0	51	20599
2026-01-26 01:32:09.75	353.78	11.72	-40.2	-54.8	3.8	1.49e+00	0	60	104	0	51	19876
2026-01-26 01:32:10.76	353.64	11.79	-40.5	-55.0	3.8	1.49e+00	0	60	104	0	51	20474
2026-01-26 01:32:11.77	353.50	11.85	-40.4	-54.9	3.8	1.49e+00	0	61	104	0	51	20195
2026-01-26 01:32:12.78	353.36	11.92	-40.5	-55.0	3.8	1.49e+00	0	60	104	0	51	20513
2026-01-26 01:32:13.79	353.21	11.98	-40.4	-54.9	3.8	1.49e+00	0	60	104	0	51	20195
2026-01-26 01:32:14.80	353.07	12.04	-40.6	-55.2	3.8	1.49e+00	0	60	104	0	52	19617
2026-01-26 01:32:15.81	352.93	12.11	-40.3	-54.9	3.8	1.49e+00	0	60	104	0	52	19017
2026-01-26 01:32:16.83	352.78	12.17	-40.5	-55.0	3.8	1.49e+00	0	60	104	0	52	19168
2026-01-26 01:32:17.84	352.64	12.24	-40.6	-55.1	3.8	1.49e+00	0	60	104	0	52	19491
2026-01-26 01:32:18.84	352.50	12.30	-40.6	-55.1	3.8	1.49e+00	0	61	104	0	52	19479
2026-01-26 01:32:19.86	352.35	12.36	-40.5	-55.0	3.8	1.49e+00	0	61	104	0	52	19261
2026-01-26 01:32:20.87	352.20	12.43	-40.7	-55.2	3.8	1.49e+00	0	61	104	0	52	19680
2026-01-26 01:32:21.88	352.05	12.49	-40.6	-55.1	3.8	1.49e+00	0	60	104	0	52	19498
2026-01-26 01:32:22.89	351.91	12.56	-40.6	-55.1	3.8	1.49e+00	0	61	104	0	52	19556
2026-01-26 01:32:23.90	351.76	12.62	-40.6	-55.1	3.8	1.49e+00	0	61	104	0	52	19575
2026-01-26 01:32:24.91	351.61	12.68	-40.7	-55.2	3.8	1.49e+00	0	60	104	0	52	19720
2026-01-26 01:32:25.92	351.46	12.75	-40.5	-55.1	3.8	1.49e+00	0	61	104	0	52	19397
2026-01-26 01:32:26.93	351.31	12.81	-40.8	-55.4	3.8	1.49e+00	0	61	104	0	52	20164
2026-01-26 01:32:27.94	351.16	12.88	-40.6	-55.1	3.8	1.49e+00	0	61	104	0	52	19474
2026-01-26 01:32:28.95	351.01	12.94	-40.7	-55.2	3.8	1.49e+00	0	61	104	0	52	19745
2026-01-26 01:32:29.96	350.86	13.00	-40.7	-55.2	3.8	1.49e+00	0	61	104	0	52	19733
2026-01-26 01:32:30.97	350.70	13.07	-40.8	-55.4	3.8	1.49e+00	0	61	104	0	52	20112
2026-01-26 01:32:31.98	350.55	13.13	-40.6	-55.2	3.8	1.49e+00	0	61	104	0	52	19650
2026-01-26 01:32:32.99	350.40	13.19	-40.8	-55.3	3.8	1.49e+00	0	61	104	0	52	20016
2026-01-26 01:32:34.00	350.24	13.26	-40.6	-55.1	3.8	1.49e+00	0	61	104	0	52	19479
2026-01-26 01:32:35.01	350.08	13.32	-40.9	-55.4	3.8	1.49e+00	0	61	104	0	52	20244
2026-01-26 01:32:36.02	349.93	13.38	-40.9	-55.4	3.8	1.49e+00	0	61	104	0	52	20232
2026-01-26 01:32:37.03	349.77	13.45	-40.7	-55.2	3.8	1.49e+00	0	61	104	0	52	19816
2026-01-26 01:32:38.04	349.61	13.51	-40.7	-55.2	3.8	1.49e+00	0	61	104	0	52	19796
2026-01-26 01:32:39.05	349.46	13.58	-41.1	-55.7	3.8	1.49e+00	0	61	104	0	52	20813
2026-01-26 01:32:40.06	349.30	13.64	-40.8	-55.4	3.8	1.49e+00	0	61	104	0	52	20169
2026-01-26 01:32:41.07	349.14	13.70	-40.9	-55.4	3.8	1.49e+00	0	61	104	0	52	20290
2026-01-26 01:32:42.08	348.98	13.77	-41.0	-55.5	3.8	1.49e+00	0	61	104	0	52	20516
2026-01-26 01:32:43.09	348.81	13.83	-41.2	-55.8	3.8	1.49e+00	0	61	104	0	52	21018
2026-01-26 01:32:44.10	348.65	13.89	-40.8	-55.4	3.8	1.49e+00	0	61	104	0	52	20206
2026-01-26 01:32:45.11	348.49	13.95	-41.2	-55.7	3.8	1.49e+00	0	61	104	0	53	19839
2026-01-26 01:32:46.12	348.33	14.02	-41.1	-55.6	3.8	1.49e+00	0	61	104	0	53	19539
2026-01-26 01:32:47.13	348.16	14.08	-41.3	-55.8	3.8	1.49e+00	0	61	104	0	53	19867
2026-01-26 01:32:48.14	348.00	14.14	-41.1	-55.7	3.8	1.49e+00	0	61	104	0	53	19635
2026-01-26 01:32:49.15	347.83	14.21	-41.3	-55.8	3.8	1.49e+00	0	61	104	0	53	19973
2026-01-26 01:32:50.16	347.67	14.27	-41.2	-55.7	3.8	1.49e+00	0	61	104	0	53	19678
2026-01-26 01:32:51.17	347.50	14.33	-41.3	-55.9	3.8	1.49e+00	0	61	104	0	53	20134
2026-01-26 01:32:52.18	347.33	14.39	-41.2	-55.7	3.8	1.49e+00	0	61	104	0	53	19758
2026-01-26 01:32:53.19	347.16	14.46	-41.4	-56.0	3.8	1.49e+00	0	61	104	0	53	20320
2026-01-26 01:32:54.20	347.00	14.52	-41.1	-55.7	3.8	1.49e+00	0	61	104	0	53	19645
2026-01-26 01:32:55.22	346.82	14.58	-41.2	-55.7	3.8	1.49e+00	0	61	104	0	53	19833
2026-01-26 01:32:56.23	346.65	14.64	-41.3	-55.8	3.8	1.49e+00	0	61	104	0	53	19952
2026-01-26 01:32:57.24	346.48	14.70	-41.4	-55.9	3.8	1.49e+00	0	61	104	0	53	20135
2026-01-26 01:32:58.25	346.31	14.77	-40.9	-55.5	3.8	1.49e+00	0	61	104	0	53	19216
2026-01-26 01:32:59.26	346.14	14.83	-40.9	-55.5	3.8	1.49e+00	0	61	104	0	53	19231
2026-01-26 01:33:00.27	345.96	14.89	-41.4	-55.9	3.8	1.49e+00	0	61	104	0	53	20123
2026-01-26 01:33:01.28	345.79	14.95	-41.0	-55.5	3.8	1.49e+00	0	61	104	0	53	19344
2026-01-26 01:33:02.29	345.62	15.01	-40.7	-55.2	3.8	1.49e+00	0	61	104	0	53	18557
2026-01-26 01:33:03.30	345.44	15.07	-41.0	-55.5	3.8	1.49e+00	0	61	104	0	53	19298
2026-01-26 01:33:04.31	345.26	15.14	-41.1	-55.6	3.8	1.49e+00	0	61	104	0	53	19526
2026-01-26 01:33:05.32	345.09	15.20	-40.8	-55.3	3.8	1.49e+00	0	61	104	0	53	18925
2026-01-26 01:33:06.33	344.91	15.26	-40.7	-55.2	3.8	1.49e+00	0	61	104	0	53	18670
2026-01-26 01:33:07.34	344.73	15.32	-41.0	-55.5	3.8	1.49e+00	0	61	104	0	53	19233
2026-01-26 01:33:08.35	344.55	15.38	-40.9	-55.5	3.8	1.49e+00	0	61	104	0	53	19173
2026-01-26 01:33:09.36	344.37	15.44	-40.8	-55.3	3.8	1.49e+00	0	61	104	0	53	18831
2026-01-26 01:33:10.37	344.19	15.50	-40.6	-55.1	3.8	1.49e+00	0	61	104	0	53	18397
2026-01-26 01:33:11.38	344.01	15.56	-40.7	-55.2	3.8	1.49e+00	0	61	104	0	53	18622
2026-01-26 01:33:12.39	343.83	15.62	-40.9	-55.5	3.8	1.49e+00	0	61	104	0	53	19212
2026-01-26 01:33:13.40	343.64	15.68	-40.6	-55.1	3.8	1.49e+00	0	61	104	0	53	18456
2026-01-26 01:33:14.41	343.46	15.74	-40.6	-55.1	3.8	1.49e+00	0	61	104	0	53	18365
2026-01-26 01:33:15.42	343.28	15.80	-40.7	-55.2	3.8	1.49e+00	0	61	104	0	53	18535
2026-01-26 01:33:16.43	343.09	15.86	-40.6	-55.2	3.8	1.49e+00	0	61	104	0	53	18518
2026-01-26 01:33:17.44	342.90	15.92	-40.6	-55.1	3.8	1.49e+00	0	61	104	0	53	18462
2026-01-26 01:33:18.45	342.72	15.98	-40.6	-55.1	3.8	1.49e+00	0	61	104	0	53	18470
2026-01-26 01:33:19.46	342.53	16.04	-40.6	-55.1	3.8	1.49e+00	0	61	104	0	53	18440
2026-01-26 01:33:20.47	342.34	16.10	-40.6	-55.1	3.8	1.49e+00	0	61	104	0	53	18397
2026-01-26 01:33:21.48	342.15	16.16	-40.5	-55.0	3.8	1.49e+00	0	61	104	0	53	18295
2026-01-26 01:33:22.49	341.96	16.21	-40.5	-55.0	3.8	1.49e+00	0	61	104	0	52	19353
2026-01-26 01:33:23.50	341.77	16.27	-40.5	-55.0	3.8	1.49e+00	0	61	104	0	52	19329
2026-01-26 01:33:24.51	341.58	16.33	-40.5	-55.0	3.8	1.49e+00	0	61	104	0	52	19302
2026-01-26 01:33:25.52	341.39	16.39	-40.5	-55.0	3.8	1.49e+00	0	61	104	0	52	19315
2026-01-26 01:33:26.53	341.20	16.45	-40.7	-55.2	3.8	1.49e+00	0	61	104	0	52	19765
2026-01-26 01:33:27.53	341.00	16.50	-40.6	-55.1	3.8	1.49e+00	0	61	104	0	52	19552
2026-01-26 01:33:28.54	340.81	16.56	-40.5	-55.0	3.8	1.49e+00	0	61	104	0	52	19265
2026-01-26 01:33:29.55	340.62	16.62	-40.7	-55.2	3.8	1.49e+00	0	61	104	0	52	19746
2026-01-26 01:33:30.56	340.42	16.68	-41.0	-55.3	3.8	1.49e+00	0	61	104	0	52	20032
2026-01-26 01:33:31.57	340.22	16.73	-40.7	-55.2	3.8	1.49e+00	0	61	104	0	53	18543
2026-01-26 01:33:32.58	340.03	16.79	-40.8	-55.3	3.8	1.49e+00	0	61	104	0	53	18849
2026-01-26 01:33:33.59	339.83	16.85	-41.0	-54.5	3.8	1.49e+00	0	61	104	0	53	17098
2026-01-26 01:33:34.60	339.63	16.90	-41.8	-53.8	3.9	1.49e+00	0	61	104	0	54	15023
2026-01-26 01:33:35.61	339.43	16.96	-41.2	-52.9	4.1	9.79e-01	0	61	0	0	54	13444
2026-01-26 01:33:36.62	339.23	17.01	-41.2	-51.3	4.0	1.48e+00	0	61	104	0	53	11845
2026-01-26 01:33:37.62	339.03	17.07	-41.5	-48.2	7.5	1.70e-01	0	61	0	0	53	8281
2026-01-26 01:33:38.63	338.83	17.12	-41.4	-47.2	8.7	5.98e-02	0	61	0	2097152	53	7388
2026-01-26 01:33:39.64	338.63	17.18	-41.4	-46.8	9.2	2.13e-02	0	61	0	4194304	53	7066
2026-01-26 01:33:40.65	338.42	17.23	-41.4	-46.6	9.6	1.41e-02	0	61	0	6291456	53	6949
2026-01-26 01:33:41.66	338.22	17.29	-41.4	-46.3	10.1	1.08e-02	0	61	0	8388608	53	6657
2026-01-26 01:33:42.67	338.01	17.34	-41.1	-45.5	11.1	3.76e-03	0	61	0	9437184	53	6067
2026-01-26 01:33:43.68	337.81	17.40	-41.1	-45.4	11.3	1.20e-03	0	61	0	11534336	53	6023
2026-01-26 01:33:44.69	337.60	17.45	-41.4	-45.9	10.9	1.33e-03	0	61	0	13631488	53	6401
2026-01-26 01:33:45.70	337.39	17.50	-41.5	-46.0	10.9	2.37e-03	0	61	0	15728640	53	6440
2026-01-26 01:33:46.71	337.19	17.56	-41.2	-45.2	11.9	6.47e-04	0	61	0	17825792	53	5868
2026-01-26 01:33:47.72	336.98	17.61	-41.2	-45.1	12.0	2.55e-04	0	61	0	19922944	53	5816
2026-01-26 01:33:48.73	336.77	17.66	-41.2	-45.1	12.0	5.66e-04	0	61	0	20971520	53	5831
2026-01-26 01:33:49.74	336.56	17.71	-40.9	-44.5	12.7	1.11e-04	0	61	0	23068672	53	5440
2026-01-26 01:33:50.75	336.35	17.77	-41.0	-44.6	12.7	5.56e-05	0	61	0	25165824	53	5494
2026-01-26 01:33:51.76	336.14	17.82	-41.0	-44.6	12.7	6.86e-05	0	61	0	27262976	53	5466
2026-01-26 01:33:52.77	335.92	17.87	-41.0	-44.6	12.7	8.16e-05	0	61	0	29360128	53	5495
2026-01-26 01:33:53.78	335.71	17.92	-41.2	-44.8	12.5	9.46e-05	0	61	0	30408704	53	5642
2026-01-26 01:33:54.79	335.50	17.97	-41.0	-44.5	12.9	7.62e-05	0	61	0	32505856	53	5447
2026-01-26 01:33:55.80	335.28	18.02	-41.1	-44.7	12.8	4.50e-05	0	61	0	34603008	53	5538
2026-01-26 01:33:56.81	335.07	18.07	-41.0	-44.5	13.0	4.73e-05	0	61	0	36700160	53	5430
2026-01-26 01:33:57.82	334.85	18.12	-41.1	-44.6	12.9	4.73e-05	0	61	0	38797312	53	5490
2026-01-26 01:33:58.83	334.64	18.17	-41.2	-44.7	12.8	4.34e-05	0	61	0	39845888	53	5588
2026-01-26 01:33:59.84	334.42	18.22	-41.2	-44.7	12.8	6.33e-05	0	61	0	41943040	53	5589
2026-01-26 01:34:00.85	334.20	18.27	-41.3	-44.9	12.7	9.46e-05	0	61	0	44040192	53	5680
2026-01-26 01:34:01.86	333.98	18.32	-41.2	-44.8	12.8	5.64e-05	0	61	0	46137344	53	5620
2026-01-26 01:34:02.87	333.76	18.37	-41.2	-44.8	12.8	6.33e-05	0	61	0	48234496	53	5593
2026-01-26 01:34:03.88	333.54	18.42	-41.2	-44.8	12.8	7.78e-05	0	61	0	49283072	53	5632
2026-01-26 01:34:04.89	333.32	18.46	-41.3	-44.9	12.7	6.17e-05	0	61	0	51380224	53	5699
2026-01-26 01:34:05.90	333.10	18.51	-41.3	-44.9	12.7	8.69e-05	0	61	0	53477376	53	5714
2026-01-26 01:34:06.91	332.88	18.56	-41.3	-44.9	12.7	6.33e-05	0	61	0	55574528	53	5704
2026-01-26 01:34:07.92	332.65	18.60	-41.3	-45.0	12.7	7.01e-05	0	61	0	57671680	53	5725
2026-01-26 01:34:08.92	332.43	18.65	-41.3	-44.8	12.8	6.94e-05	0	61	0	58720256	53	5637
2026-01-26 01:34:09.94	332.21	18.70	-41.3	-44.8	12.8	6.02e-05	0	61	0	60817408	53	5637
2026-01-26 01:34:10.95	331.98	18.74	-41.3	-44.8	12.8	6.63e-05	0	61	0	62914560	53	5650
2026-01-26 01:34:11.95	331.76	18.79	-41.2	-44.7	12.9	6.71e-05	0	61	0	65011712	53	5563
2026-01-26 01:34:12.96	331.53	18.83	-41.2	-44.6	13.1	3.66e-05	0	61	0	67108864	53	5477
2026-01-26 01:34:13.98	331.30	18.87	-41.0	-44.4	13.3	2.21e-05	0	61	0	68157440	53	5351
2026-01-26 01:34:14.99	331.07	18.92	-41.0	-44.3	13.4	1.83e-05	0	61	0	70254592	53	5311
2026-01-26 01:34:16.00	330.85	18.96	-41.1	-44.3	13.4	1.06e-05	0	61	0	72351744	53	5336
2026-01-26 01:34:17.01	330.62	19.01	-41.0	-44.2	13.5	1.06e-05	0	61	0	74448896	53	5240
2026-01-26 01:34:18.02	330.39	19.05	-40.9	-44.0	13.7	6.80e-06	0	61	0	76546048	53	5146
2026-01-26 01:34:19.03	330.16	19.09	-40.8	-44.0	13.7	6.10e-06	0	61	0	77594624	53	5112
2026-01-26 01:34:20.04	329.93	19.13	-40.9	-44.0	13.8	4.50e-06	0	61	0	79691776	53	5133
2026-01-26 01:34:21.05	329.69	19.17	-40.9	-44.0	13.7	6.80e-06	0	61	0	81788928	53	5131
2026-01-26 01:34:22.05	329.46	19.21	-40.9	-44.0	13.7	6.10e-06	0	61	0	83886080	53	5146
2026-01-26 01:34:23.06	329.23	19.25	-40.9	-44.0	13.8	1.06e-05	0	61	0	85983232	53	5128
2026-01-26 01:34:24.07	329.00	19.29	-40.9	-44.1	13.7	6.10e-06	0	61	0	88080384	53	5164
2026-01-26 01:34:25.08	328.76	19.33	-40.8	-43.9	13.9	7.00e-07	0	61	0	89128960	53	5045
2026-01-26 01:34:26.09	328.53	19.37	-40.8	-43.9	13.9	3.80e-06	0	61	0	91226112	53	5071
2026-01-26 01:34:27.10	328.29	19.41	-40.8	-43.9	13.8	4.50e-06	0	61	0	93323264	53	5096
2026-01-26 01:34:28.11	328.06	19.45	-40.8	-44.0	13.8	4.50e-06	0	61	0	95420416	53	5101
2026-01-26 01:34:29.13	327.82	19.49	-40.8	-43.9	13.8	2.20e-06	0	61	0	97517568	53	5098
2026-01-26 01:34:30.13	327.58	19.53	-40.8	-43.9	13.9	7.60e-06	0	61	0	98566144	53	5067
2026-01-26 01:34:31.14	327.35	19.56	-40.8	-43.8	14.0	4.50e-06	0	61	0	100663296	53	5018
2026-01-26 01:34:32.15	327.11	19.60	-40.8	-43.8	13.9	3.00e-06	0	61	0	102760448	53	5028
2026-01-26 01:34:33.16	326.87	19.64	-40.7	-43.7	14.0	3.00e-06	0	61	0	104857600	53	4983
2026-01-26 01:34:34.17	326.63	19.67	-40.7	-43.6	14.2	7.00e-07	0	61	0	106954752	53	4917
2026-01-26 01:34:35.18	326.39	19.71	-40.7	-43.8	14.1	2.20e-06	0	61	0	108003328	53	4990
2026-01-26 01:34:36.19	326.15	19.74	-40.8	-43.8	14.0	5.30e-06	0	61	0	110100480	53	5032
2026-01-26 01:34:37.20	325.91	19.78	-40.9	-44.1	13.7	1.50e-06	0	61	0	112197632	53	5187
2026-01-26 01:34:38.21	325.67	19.81	-40.9	-44.1	13.7	6.10e-06	0	61	0	114294784	53	5197
2026-01-26 01:34:39.22	325.42	19.84	-41.0	-44.2	13.6	9.10e-06	0	61	0	116391936	53	5236
2026-01-26 01:34:40.23	325.18	19.88	-41.0	-44.2	13.6	1.52e-05	0	62	0	117440512	53	5242
2026-01-26 01:34:41.24	324.94	19.91	-41.0	-44.2	13.5	6.10e-06	0	61	0	119537664	53	5261
2026-01-26 01:34:42.25	324.69	19.94	-41.0	-44.1	13.6	9.90e-06	0	61	0	121634816	53	5210
2026-01-26 01:34:43.26	324.45	19.97	-41.0	-44.2	13.6	5.30e-06	0	61	0	123731968	53	5252
2026-01-26 01:34:44.27	324.20	20.00	-41.1	-44.4	13.4	9.10e-06	0	61	0	125829120	53	5360
2026-01-26 01:34:45.28	323.96	20.03	-41.1	-44.3	13.5	1.06e-05	0	61	0	127926272	53	5327
2026-01-26 01:34:46.29	323.71	20.06	-41.1	-44.4	13.4	2.13e-05	0	61	0	128974848	53	5352
2026-01-26 01:34:47.30	323.47	20.09	-41.1	-44.5	13.3	1.52e-05	0	61	0	131072000	53	5408
2026-01-26 01:34:48.31	323.22	20.12	-41.2	-44.5	13.3	2.21e-05	0	61	0	133169152	53	5455
2026-01-26 01:34:49.32	322.97	20.15	-41.1	-44.4	13.4	1.60e-05	0	61	0	135266304	53	5373
2026-01-26 01:34:50.33	322.72	20.18	-41.1	-44.3	13.4	8.30e-06	0	62	0	137363456	53	5338
2026-01-26 01:34:51.34	322.48	20.20	-41.0	-44.3	13.5	1.22e-05	0	61	0	138412032	53	5286
2026-01-26 01:34:52.35	322.23	20.23	-41.0	-44.3	13.5	6.10e-06	0	61	0	140509184	53	5280
2026-01-26 01:34:53.36	321.98	20.26	-41.1	-44.4	13.4	1.60e-05	0	61	0	142606336	53	5370
2026-01-26 01:34:54.37	321.73	20.28	-41.1	-44.5	13.3	9.90e-06	0	61	0	144703488	53	5416
2026-01-26 01:34:55.38	321.48	20.31	-41.2	-44.6	13.2	2.97e-05	0	61	0	146800640	53	5491
2026-01-26 01:34:56.40	321.23	20.33	-41.3	-44.8	13.0	3.28e-05	0	61	0	147849216	53	5638
2026-01-26 01:34:57.40	320.98	20.35	-41.4	-44.9	12.9	4.27e-05	0	61	0	149946368	53	5670
2026-01-26 01:34:58.41	320.73	20.38	-41.4	-44.9	12.9	4.04e-05	0	61	0	152043520	53	5668
2026-01-26 01:34:59.42	320.48	20.40	-41.3	-44.8	12.9	4.11e-05	0	61	0	154140672	53	5638
2026-01-26 01:35:00.43	320.22	20.42	-41.4	-44.9	12.9	5.26e-05	0	61	0	156237824	53	5677
2026-01-26 01:35:01.44	319.97	20.44	-41.4	-44.9	12.8	4.27e-05	0	61	0	157286400	53	5720
2026-01-26 01:35:02.45	319.72	20.46	-41.5	-45.1	12.7	6.17e-05	0	61	0	159383552	53	5806
2026-01-26 01:35:03.46	319.47	20.48	-41.5	-45.2	12.6	9.15e-05	0	61	0	161480704	53	5898
2026-01-26 01:35:04.47	319.21	20.50	-41.6	-45.2	12.5	1.06e-04	0	61	0	163577856	53	5915
2026-01-26 01:35:05.48	318.96	20.52	-41.6	-45.4	12.4	1.41e-04	0	61	0	165675008	53	6024
2026-01-26 01:35:06.49	318.71	20.54	-41.7	-45.5	12.3	1.85e-04	0	61	0	166723584	53	6089
2026-01-26 01:35:07.50	318.45	20.56	-41.7	-45.6	12.2	2.04e-04	0	61	0	168820736	54	5830
2026-01-26 01:35:08.51	318.20	20.58	-41.8	-45.6	12.1	2.61e-04	0	61	0	170917888	54	5834
2026-01-26 01:35:09.52	317.94	20.60	-41.7	-45.5	12.3	2.34e-04	0	61	0	173015040	54	5765
2026-01-26 01:35:10.53	317.69	20.61	-41.7	-45.5	12.3	1.96e-04	0	61	0	175112192	54	5766
2026-01-26 01:35:11.54	317.43	20.63	-41.7	-45.5	12.3	2.06e-04	0	61	0	176160768	54	5758
2026-01-26 01:35:12.55	317.18	20.64	-41.7	-45.6	12.2	2.08e-04	0	61	0	178257920	54	5828
2026-01-26 01:35:13.56	316.92	20.66	-41.8	-45.7	12.1	2.37e-04	0	61	0	180355072	54	5868
2026-01-26 01:35:14.56	316.67	20.67	-41.8	-45.8	12.0	3.26e-04	0	61	0	182452224	54	5949
2026-01-26 01:35:15.57	316.41	20.68	-41.9	-46.0	11.8	4.81e-04	0	61	0	184549376	54	6110
2026-01-26 01:35:16.58	316.15	20.70	-42.0	-46.1	11.7	5.09e-04	0	61	0	185597952	54	6139
2026-01-26 01:35:17.59	315.90	20.71	-42.0	-46.1	11.6	6.74e-04	0	61	0	187695104	54	6160
2026-01-26 01:35:18.60	315.64	20.72	-42.0	-46.2	11.6	7.78e-04	0	61	0	189792256	54	6211
2026-01-26 01:35:19.61	315.38	20.73	-42.0	-46.0	11.7	6.54e-04	0	61	0	191889408	54	6129
2026-01-26 01:35:20.62	315.13	20.74	-41.9	-45.9	11.8	5.34e-04	0	61	0	193986560	54	6057
2026-01-26 01:35:21.63	314.87	20.75	-41.9	-45.9	11.9	4.39e-04	0	61	0	196083712	54	5994
2026-01-26 01:35:22.64	314.61	20.76	-41.8	-45.7	12.1	3.28e-04	0	61	0	197132288	54	5865
2026-01-26 01:35:23.65	314.35	20.77	-41.7	-45.5	12.3	2.51e-04	0	61	0	199229440	54	5748
2026-01-26 01:35:24.66	314.09	20.78	-41.7	-45.5	12.3	2.10e-04	0	61	0	201326592	54	5732
2026-01-26 01:35:25.67	313.84	20.79	-41.8	-45.6	12.2	2.14e-04	0	61	0	203423744	54	5807
2026-01-26 01:35:26.68	313.58	20.79	-41.8	-45.8	12.0	2.85e-04	0	61	0	205520896	54	5943
2026-01-26 01:35:27.69	313.32	20.80	-41.9	-46.0	11.8	3.87e-04	0	61	0	206569472	54	6066
2026-01-26 01:35:28.70	313.06	20.80	-42.0	-46.0	11.7	5.53e-04	0	61	0	208666624	54	6131
2026-01-26 01:35:29.71	312.80	20.81	-42.0	-46.1	11.6	6.28e-04	0	61	0	210763776	54	6175
2026-01-26 01:35:30.72	312.54	20.81	-42.0	-46.1	11.6	6.74e-04	0	61	0	212860928	54	6195
2026-01-26 01:35:31.73	312.28	20.82	-41.9	-46.0	11.7	5.69e-04	0	61	0	214958080	54	6080
2026-01-26 01:35:32.74	312.03	20.82	-41.9	-46.0	11.7	4.66e-04	0	61	0	216006656	54	6083
2026-01-26 01:35:33.75	311.77	20.82	-42.0	-46.0	11.7	5.35e-04	0	61	0	218103808	54	6126
2026-01-26 01:35:34.76	311.51	20.82	-41.9	-45.9	11.8	5.81e-04	0	61	0	220200960	54	6051
2026-01-26 01:35:35.77	311.25	20.83	-41.9	-45.9	11.9	3.89e-04	0	61	0	222298112	54	6015
2026-01-26 01:35:36.78	310.99	20.83	-41.9	-45.9	11.8	4.45e-04	0	61	0	224395264	54	6055
2026-01-26 01:35:37.79	310.73	20.83	-41.9	-45.9	11.9	4.49e-04	0	61	0	225443840	54	5998
2026-01-26 01:35:38.80	310.47	20.83	-41.8	-45.8	12.0	3.80e-04	0	61	0	227540992	54	5952
2026-01-26 01:35:39.81	310.21	20.82	-41.8	-45.8	12.0	3.39e-04	0	61	0	229638144	54	5936
2026-01-26 01:35:40.82	309.95	20.82	-41.8	-45.8	12.0	3.36e-04	0	61	0	231735296	54	5946
2026-01-26 01:35:41.83	309.70	20.82	-41.9	-45.8	12.0	3.26e-04	0	61	0	233832448	54	5956
2026-01-26 01:35:42.84	309.44	20.82	-41.8	-45.7	12.1	3.62e-04	0	61	0	234881024	54	5920
2026-01-26 01:35:43.85	309.18	20.81	-41.7	-45.6	12.2	2.53e-04	0	61	0	236978176	54	5817
2026-01-26 01:35:44.86	308.92	20.81	-41.7	-45.5	12.3	2.09e-04	0	61	0	239075328	54	5761
2026-01-26 01:35:45.87	308.66	20.80	-41.7	-45.5	12.3	2.03e-04	0	61	0	241172480	54	5774
2026-01-26 01:35:46.88	308.40	20.80	-41.6	-45.4	12.4	1.71e-04	0	61	0	243269632	54	5680
2026-01-26 01:35:47.89	308.14	20.79	-41.6	-45.3	12.5	1.30e-04	0	61	0	244318208	54	5631
2026-01-26 01:35:48.90	307.89	20.78	-41.6	-45.3	12.6	1.01e-04	0	61	0	246415360	54	5612
2026-01-26 01:35:49.91	307.63	20.78	-41.5	-45.2	12.6	9.30e-05	0	61	0	248512512	54	5564
2026-01-26 01:35:50.92	307.37	20.77	-41.5	-45.1	12.7	7.40e-05	0	61	0	250609664	54	5516
2026-01-26 01:35:51.93	307.11	20.76	-41.6	-45.3	12.5	9.76e-05	0	61	0	252706816	54	5622
2026-01-26 01:35:52.94	306.85	20.75	-41.6	-45.3	12.5	1.25e-04	0	61	0	253755392	54	5626
2026-01-26 01:35:53.95	306.60	20.74	-41.6	-45.2	12.6	1.16e-04	0	61	0	255852544	54	5571
2026-01-26 01:35:54.96	306.34	20.73	-41.5	-45.1	12.7	9.76e-05	0	61	0	257949696	54	5527
2026-01-26 01:35:55.97	306.08	20.72	-41.5	-45.1	12.6	9.23e-05	0	62	0	260046848	54	5517
2026-01-26 01:35:56.98	305.82	20.71	-41.4	-45.0	12.8	5.72e-05	0	61	0	262144000	54	5420
2026-01-26 01:35:57.99	305.57	20.70	-41.4	-45.0	12.8	7.01e-05	0	61	0	264241152	54	5442
2026-01-26 01:35:59.00	305.31	20.68	-41.4	-45.0	12.8	5.72e-05	0	61	0	265289728	54	5430
2026-01-26 01:36:00.01	305.05	20.67	-41.4	-44.9	12.9	4.04e-05	0	61	0	267386880	54	5390
2026-01-26 01:36:01.02	304.80	20.66	-41.3	-44.7	13.1	3.58e-05	0	61	0	269484032	54	5241
2026-01-26 01:36:02.03	304.54	20.64	-41.1	-44.4	13.4	2.36e-05	0	61	0	271581184	54	5097
2026-01-26 01:36:03.05	304.28	20.63	-41.0	-44.3	13.6	8.30e-06	0	61	0	273678336	54	4990
2026-01-26 01:36:04.06	304.03	20.61	-41.0	-44.1	13.7	4.50e-06	0	61	0	274726912	53	5207
2026-01-26 01:36:05.07	303.77	20.59	-40.9	-44.1	13.7	6.80e-06	0	62	0	276824064	53	5203
2026-01-26 01:36:06.08	303.52	20.58	-41.0	-44.1	13.7	6.80e-06	0	61	0	278921216	53	5217
2026-01-26 01:36:07.09	303.26	20.56	-41.0	-44.2	13.6	1.14e-05	0	62	0	281018368	53	5260
2026-01-26 01:36:08.10	303.01	20.54	-41.1	-44.3	13.5	6.80e-06	0	61	0	283115520	53	5310
2026-01-26 01:36:09.11	302.75	20.52	-41.1	-44.4	13.4	9.90e-06	0	61	0	284164096	53	5344
2026-01-26 01:36:10.12	302.50	20.50	-41.0	-44.2	13.6	1.22e-05	0	61	0	286261248	53	5249
2026-01-26 01:36:11.13	302.24	20.48	-41.0	-44.2	13.7	8.30e-06	0	61	0	288358400	53	5223
2026-01-26 01:36:12.14	301.99	20.46	-40.9	-44.0	13.8	3.00e-06	0	61	0	290455552	53	5148
2026-01-26 01:36:13.15	301.74	20.44	-40.9	-44.0	13.8	4.50e-06	0	61	0	292552704	53	5135
2026-01-26 01:36:14.16	301.49	20.42	-40.8	-44.0	13.9	7.60e-06	0	62	0	293601280	53	5107
2026-01-26 01:36:15.17	301.23	20.40	-40.8	-43.9	13.9	5.30e-06	0	61	0	295698432	53	5077
2026-01-26 01:36:16.18	300.98	20.37	-40.8	-43.8	14.0	2.20e-06	0	61	0	297795584	53	5038
2026-01-26 01:36:17.19	300.73	20.35	-40.8	-43.8	14.0	7.00e-07	0	61	0	299892736	53	5028
2026-01-26 01:36:18.20	300.48	20.33	-40.8	-43.8	14.0	2.20e-06	0	61	0	301989888	53	5024
2026-01-26 01:36:19.21	300.23	20.30	-40.7	-43.8	14.1	1.50e-06	0	61	0	303038464	53	4985
2026-01-26 01:36:20.22	299.98	20.28	-40.6	-43.6	14.3	2.20e-06	0	61	0	305135616	53	4871
2026-01-26 01:36:21.23	299.73	20.25	-40.5	-43.3	14.4	7.00e-07	0	61	0	307232768	53	4759
2026-01-26 01:36:22.24	299.48	20.23	-40.5	-43.4	14.4	1.50e-06	0	61	0	309329920	52	5085
2026-01-26 01:36:23.25	299.23	20.20	-40.5	-43.4	14.4	7.00e-07	0	62	0	311427072	52	5093
2026-01-26 01:36:24.26	298.98	20.17	-40.6	-43.5	14.3	1.50e-06	0	61	0	312475648	52	5124
2026-01-26 01:36:25.27	298.73	20.14	-40.7	-43.7	14.1	0.00e+00	0	61	0	314572800	52	5256
2026-01-26 01:36:26.29	298.48	20.12	-40.8	-43.8	14.0	1.50e-06	0	61	0	316669952	52	5315
2026-01-26 01:36:27.29	298.24	20.09	-40.9	-44.0	13.8	5.30e-06	0	61	0	318767104	52	5429
2026-01-26 01:36:28.30	297.99	20.06	-40.8	-43.9	13.9	8.30e-06	0	61	0	320864256	52	5387
2026-01-26 01:36:29.31	297.75	20.03	-40.7	-43.8	14.0	3.00e-06	0	61	0	321912832	52	5321
2026-01-26 01:36:30.32	297.50	20.00	-40.7	-43.7	14.0	7.00e-07	0	61	0	324009984	52	5273
2026-01-26 01:36:31.34	297.25	19.97	-40.7	-43.7	14.1	2.20e-06	0	61	0	326107136	52	5224
2026-01-26 01:36:32.35	297.01	19.94	-40.6	-43.5	14.3	0.00e+00	0	62	0	328204288	52	5113
2026-01-26 01:36:33.35	296.77	19.90	-40.5	-43.4	14.4	3.80e-06	0	62	0	330301440	52	5093
2026-01-26 01:36:34.36	296.52	19.87	-40.6	-43.5	14.3	2.20e-06	0	61	0	332398592	52	5127
2026-01-26 01:36:35.37	296.28	19.84	-40.7	-43.6	14.2	5.30e-06	0	61	0	333447168	52	5216
2026-01-26 01:36:36.38	296.04	19.81	-40.7	-43.7	14.1	2.20e-06	0	62	0	335544320	52	5252
2026-01-26 01:36:37.39	295.79	19.77	-40.8	-43.8	14.0	3.80e-06	0	61	0	337641472	52	5329
2026-01-26 01:36:38.40	295.55	19.74	-40.9	-44.0	13.8	3.00e-06	0	61	0	339738624	52	5437
2026-01-26 01:36:39.41	295.31	19.70	-41.0	-44.2	13.7	6.80e-06	0	61	0	341835776	52	5533
2026-01-26 01:36:40.42	295.07	19.67	-41.0	-44.3	13.4	9.10e-06	0	61	0	342884352	52	5650
2026-01-26 01:36:41.43	294.83	19.63	-41.1	-44.5	13.3	1.44e-05	0	62	0	344981504	52	5751
2026-01-26 01:36:42.44	294.59	19.60	-41.2	-44.6	13.2	2.28e-05	0	61	0	347078656	52	5801
2026-01-26 01:36:43.45	294.35	19.56	-41.3	-44.7	13.0	1.67e-05	0	61	0	349175808	53	5571
2026-01-26 01:36:44.46	294.11	19.52	-41.3	-44.8	13.0	2.97e-05	0	61	0	351272960	53	5620
2026-01-26 01:36:45.47	293.88	19.48	-41.4	-44.9	12.8	4.34e-05	0	62	0	352321536	53	5719
2026-01-26 01:36:46.48	293.64	19.45	-41.3	-44.9	12.9	5.41e-05	0	62	0	354418688	53	5672
2026-01-26 01:36:47.48	293.40	19.41	-41.3	-44.7	13.0	3.89e-05	0	61	0	356515840	53	5591
2026-01-26 01:36:48.49	293.17	19.37	-41.3	-44.7	13.1	3.50e-05	0	62	0	358612992	53	5574
2026-01-26 01:36:49.51	292.93	19.33	-41.2	-44.6	13.2	3.35e-05	0	62	0	360710144	53	5507
2026-01-26 01:36:50.51	292.70	19.29	-41.2	-44.7	13.1	2.89e-05	0	62	0	361758720	53	5549
2026-01-26 01:36:51.53	292.46	19.25	-41.3	-44.8	13.0	2.51e-05	0	62	0	363855872	53	5614
2026-01-26 01:36:52.54	292.23	19.21	-41.4	-45.0	12.8	5.79e-05	0	62	0	365953024	53	5749
2026-01-26 01:36:53.55	292.00	19.17	-41.5	-45.1	12.7	7.62e-05	0	61	0	368050176	53	5826
2026-01-26 01:36:54.56	291.76	19.13	-41.5	-45.2	12.5	1.03e-04	0	61	0	370147328	53	5911
2026-01-26 01:36:55.57	291.53	19.08	-41.5	-45.2	12.5	1.02e-04	0	61	0	371195904	53	5914
2026-01-26 01:36:56.57	291.30	19.04	-41.5	-45.2	12.5	1.16e-04	0	62	0	373293056	53	5902
2026-01-26 01:36:57.59	291.07	19.00	-41.6	-45.3	12.5	1.08e-04	0	62	0	375390208	53	5941
2026-01-26 01:36:58.60	290.84	18.95	-41.6	-45.3	12.4	1.29e-04	0	62	0	377487360	53	5989
2026-01-26 01:36:59.61	290.61	18.91	-41.6	-45.3	12.4	1.77e-04	0	61	0	379584512	53	5974
2026-01-26 01:37:00.62	290.38	18.87	-41.5	-45.3	12.4	1.36e-04	0	61	0	380633088	53	5951
2026-01-26 01:37:01.63	290.16	18.82	-41.6	-45.3	12.5	1.30e-04	0	62	0	382730240	53	5959
2026-01-26 01:37:02.64	289.93	18.78	-41.6	-45.3	12.4	1.70e-04	0	61	0	384827392	53	5972
2026-01-26 01:37:03.65	289.70	18.73	-41.6	-45.4	12.3	1.76e-04	0	61	0	386924544	53	6020
2026-01-26 01:37:04.66	289.48	18.69	-41.5	-45.3	12.4	1.38e-04	0	61	0	389021696	53	5943
2026-01-26 01:37:05.67	289.25	18.64	-41.5	-45.2	12.5	1.34e-04	0	62	0	390070272	53	5890
2026-01-26 01:37:06.68	289.03	18.59	-41.5	-45.2	12.5	1.06e-04	0	61	0	392167424	53	5922
2026-01-26 01:37:07.69	288.80	18.55	-41.5	-45.3	12.4	1.16e-04	0	62	0	394264576	53	5950
2026-01-26 01:37:08.70	288.58	18.50	-41.6	-45.3	12.4	1.42e-04	0	61	0	396361728	53	5978
2026-01-26 01:37:09.71	288.36	18.45	-41.6	-45.4	12.2	1.72e-04	0	62	0	398458880	53	6050
2026-01-26 01:37:10.72	288.14	18.41	-41.7	-45.6	12.1	2.67e-04	0	62	0	400556032	53	6161
2026-01-26 01:37:11.73	287.92	18.36	-41.8	-45.8	11.9	3.85e-04	0	61	0	401604608	54	5956
2026-01-26 01:37:12.74	287.70	18.31	-41.8	-45.9	11.8	4.05e-04	0	61	0	403701760	54	6011
2026-01-26 01:37:13.75	287.48	18.26	-41.8	-45.8	11.8	4.46e-04	0	62	0	405798912	54	5986
2026-01-26 01:37:14.76	287.26	18.21	-41.7	-45.7	12.0	3.50e-04	0	62	0	407896064	54	5860
2026-01-26 01:37:15.77	287.04	18.16	-41.7	-45.5	12.2	2.78e-04	0	62	0	409993216	54	5783
2026-01-26 01:37:16.78	286.82	18.11	-41.6	-45.3	12.4	1.72e-04	0	62	0	411041792	54	5645
2026-01-26 01:37:17.79	286.61	18.06	-41.5	-45.2	12.5	1.18e-04	0	62	0	413138944	54	5556
2026-01-26 01:37:18.80	286.39	18.01	-41.5	-45.1	12.6	1.17e-04	0	61	0	415236096	54	5517
2026-01-26 01:37:19.81	286.18	17.96	-41.5	-45.2	12.5	1.17e-04	0	61	0	417333248	54	5573
2026-01-26 01:37:20.82	285.96	17.91	-41.6	-45.4	12.3	1.88e-04	0	62	0	419430400	54	5665
2026-01-26 01:37:21.83	285.75	17.86	-41.6	-45.5	12.2	2.17e-04	0	61	0	420478976	54	5749
2026-01-26 01:37:22.84	285.53	17.81	-41.7	-45.6	12.1	2.28e-04	0	61	0	422576128	54	5796
2026-01-26 01:37:23.85	285.32	17.76	-41.8	-45.8	11.9	3.30e-04	0	61	0	424673280	54	5924
2026-01-26 01:37:24.86	285.11	17.70	-41.8	-45.9	11.8	4.87e-04	0	61	0	426770432	54	6036
2026-01-26 01:37:25.87	284.90	17.65	-41.9	-46.0	11.7	5.30e-04	0	62	0	428867584	54	6068
2026-01-26 01:37:26.88	284.69	17.60	-41.9	-46.0	11.7	6.18e-04	0	62	0	429916160	54	6073
2026-01-26 01:37:27.89	284.48	17.54	-41.9	-46.1	11.6	6.73e-04	0	61	0	432013312	54	6151
2026-01-26 01:37:28.90	284.27	17.49	-41.9	-46.0	11.6	7.32e-04	0	62	0	434110464	54	6108
2026-01-26 01:37:29.91	284.06	17.44	-41.9	-46.0	11.6	6.51e-04	0	62	0	436207616	54	6125
2026-01-26 01:37:30.92	283.86	17.38	-41.9	-46.0	11.6	5.97e-04	0	61	0	438304768	54	6086
2026-01-26 01:37:31.93	283.65	17.33	-41.9	-46.0	11.6	7.58e-04	0	62	0	440401920	54	6107
2026-01-26 01:37:32.94	283.45	17.27	-41.8	-46.0	11.6	7.19e-04	0	62	0	441450496	54	6084
2026-01-26 01:37:33.95	283.24	17.22	-41.9	-46.0	11.6	6.13e-04	0	62	0	443547648	54	6122
2026-01-26 01:37:34.96	283.04	17.17	-41.8	-46.0	11.6	7.57e-04	0	62	0	445644800	54	6098
2026-01-26 01:37:35.97	282.83	17.11	-41.8	-45.9	11.7	6.79e-04	0	62	0	447741952	54	6040
2026-01-26 01:37:36.98	282.63	17.05	-41.8	-45.8	11.8	4.93e-04	0	62	0	449839104	54	5968
2026-01-26 01:37:37.99	282.43	17.00	-41.8	-45.9	11.7	5.11e-04	0	61	0	450887680	54	6001
2026-01-26 01:37:39.00	282.23	16.94	-41.8	-45.9	11.7	5.49e-04	0	62	0	452984832	54	6041
2026-01-26 01:37:40.01	282.03	16.89	-41.8	-45.9	11.7	6.13e-04	0	61	0	455081984	54	6052
2026-01-26 01:37:41.02	281.83	16.83	-41.8	-46.0	11.6	6.95e-04	0	62	0	457179136	54	6113
2026-01-26 01:37:42.03	281.63	16.77	-41.9	-46.1	11.5	8.21e-04	0	62	0	459276288	54	6148
2026-01-26 01:37:43.04	281.43	16.72	-41.8	-46.0	11.6	6.31e-04	0	61	0	460324864	54	6069
2026-01-26 01:37:44.05	281.23	16.66	-41.8	-46.0	11.5	7.09e-04	0	62	0	462422016	54	6113
2026-01-26 01:37:45.06	281.04	16.60	-41.8	-45.9	11.7	7.26e-04	0	62	0	464519168	54	5996
2026-01-26 01:37:46.07	280.84	16.55	-41.7	-45.7	11.8	5.35e-04	0	61	0	466616320	54	5910
2026-01-26 01:37:47.08	280.65	16.49	-41.7	-45.6	11.9	3.74e-04	0	61	0	468713472	54	5833
2026-01-26 01:37:48.10	280.45	16.43	-41.8	-45.8	11.7	4.77e-04	0	61	0	469762048	54	5983
2026-01-26 01:37:49.10	280.26	16.37	-41.8	-46.0	11.6	5.79e-04	0	61	0	471859200	54	6082
2026-01-26 01:37:50.11	280.07	16.31	-41.8	-46.0	11.5	8.22e-04	0	61	0	473956352	54	6092
2026-01-26 01:37:51.12	279.87	16.26	-41.9	-46.2	11.3	9.61e-04	0	61	0	476053504	54	6248
2026-01-26 01:37:52.13	279.68	16.20	-41.9	-46.2	11.3	1.20e-03	0	62	0	478150656	54	6235
2026-01-26 01:37:53.14	279.49	16.14	-41.8	-46.1	11.4	1.07e-03	0	61	0	479199232	54	6160
2026-01-26 01:37:54.15	279.30	16.08	-41.8	-46.0	11.6	7.95e-04	0	62	0	481296384	54	6063
2026-01-26 01:37:55.16	279.11	16.02	-41.8	-45.9	11.6	6.51e-04	0	62	0	483393536	54	6022
2026-01-26 01:37:56.17	278.92	15.96	-41.8	-45.9	11.6	6.63e-04	0	61	0	485490688	54	6025
2026-01-26 01:37:57.19	278.74	15.90	-41.8	-45.9	11.6	6.90e-04	0	62	0	487587840	54	6045
2026-01-26 01:37:58.19	278.55	15.84	-41.7	-45.8	11.7	6.38e-04	0	62	0	488636416	54	5966
2026-01-26 01:37:59.20	278.36	15.78	-41.7	-45.8	11.7	5.07e-04	0	61	0	490733568	54	5944
2026-01-26 01:38:00.22	278.18	15.72	-41.8	-45.9	11.6	6.17e-04	0	62	0	492830720	54	6040
2026-01-26 01:38:01.23	277.99	15.66	-41.9	-46.1	11.4	7.57e-04	0	61	0	494927872	54	6179
2026-01-26 01:38:02.23	277.81	15.60	-41.9	-46.3	11.2	1.42e-03	0	61	0	497025024	54	6329
2026-01-26 01:38:03.24	277.63	15.54	-42.0	-46.4	11.1	1.52e-03	0	62	0	498073600	54	6407
2026-01-26 01:38:04.25	277.45	15.48	-42.1	-46.6	10.9	2.21e-03	0	62	0	500170752	54	6545
2026-01-26 01:38:05.26	277.26	15.42	-42.1	-46.8	10.7	2.50e-03	0	61	0	502267904	54	6660
2026-01-26 01:38:06.27	277.08	15.36	-42.1	-46.8	10.7	3.09e-03	0	62	0	504365056	54	6661
2026-01-26 01:38:07.28	276.90	15.30	-42.1	-46.7	10.8	2.96e-03	0	61	0	506462208	54	6574
2026-01-26 01:38:08.30	276.72	15.24	-42.0	-46.5	11.0	2.18e-03	0	62	0	508559360	54	6449
2026-01-26 01:38:09.31	276.54	15.17	-42.0	-46.4	11.0	1.68e-03	0	62	0	509607936	54	6412
2026-01-26 01:38:10.32	276.37	15.11	-42.0	-46.5	11.0	1.90e-03	0	62	0	511705088	54	6422
2026-01-26 01:38:11.33	276.19	15.05	-42.0	-46.6	10.8	2.08e-03	0	61	0	513802240	54	6544
2026-01-26 01:38:12.34	276.01	14.99	-42.1	-46.7	10.8	2.73e-03	0	62	0	515899392	54	6579
2026-01-26 01:38:13.35	275.84	14.93	-42.1	-46.8	10.7	3.01e-03	0	62	0	517996544	54	6656
2026-01-26 01:38:14.36	275.66	14.87	-42.1	-46.8	10.6	2.96e-03	0	62	0	519045120	54	6687
2026-01-26 01:38:15.37	275.49	14.81	-42.2	-46.9	10.5	3.58e-03	0	61	0	521142272	54	6760
2026-01-26 01:38:16.38	275.31	14.74	-42.2	-47.0	10.4	3.94e-03	0	62	0	523239424	54	6815
2026-01-26 01:38:17.39	275.14	14.68	-42.1	-46.9	10.6	4.08e-03	0	61	0	525336576	54	6727
2026-01-26 01:38:18.40	274.97	14.62	-42.1	-46.8	10.6	3.25e-03	0	62	0	527433728	54	6669
2026-01-26 01:38:19.41	274.80	14.56	-42.1	-46.7	10.7	3.28e-03	0	61	0	528482304	54	6606
2026-01-26 01:38:20.42	274.63	14.49	-42.0	-46.5	10.9	2.47e-03	0	62	0	530579456	54	6460
2026-01-26 01:38:21.43	274.46	14.43	-42.0	-46.5	10.9	2.16e-03	0	62	0	532676608	54	6483
2026-01-26 01:38:22.44	274.29	14.37	-42.0	-46.5	10.9	2.13e-03	0	61	0	534773760	54	6462
2026-01-26 01:38:23.45	274.12	14.31	-42.0	-46.5	10.9	2.09e-03	0	62	0	536870912	54	6445
2026-01-26 01:38:24.45	273.95	14.24	-42.0	-46.6	10.7	2.44e-03	0	61	0	537919488	54	6567
2026-01-26 01:38:25.46	273.79	14.18	-42.1	-46.7	10.6	3.01e-03	0	61	0	540016640	54	6625
2026-01-26 01:38:26.47	273.62	14.12	-42.1	-46.8	10.5	3.58e-03	0	61	0	542113792	54	6715
2026-01-26 01:38:27.48	273.46	14.06	-42.1	-46.8	10.5	4.18e-03	0	61	0	544210944	54	6717
2026-01-26 01:38:28.49	273.29	13.99	-42.0	-46.7	10.7	3.41e-03	0	61	0	546308096	54	6613
2026-01-26 01:38:29.50	273.13	13.93	-42.0	-46.7	10.7	2.93e-03	0	61	0	547356672	54	6576
2026-01-26 01:38:30.51	272.96	13.87	-42.0	-46.6	10.7	3.47e-03	0	62	0	549453824	54	6566
2026-01-26 01:38:31.52	272.80	13.80	-41.9	-46.3	11.1	2.40e-03	0	61	0	551550976	54	6298
2026-01-26 01:38:32.53	272.64	13.74	-41.8	-46.2	11.2	1.37e-03	0	62	0	553648128	54	6222
2026-01-26 01:38:33.54	272.48	13.68	-41.7	-46.0	11.3	1.09e-03	0	62	0	555745280	54	6114
2026-01-26 01:38:34.55	272.32	13.61	-41.7	-45.9	11.4	1.04e-03	0	62	0	556793856	54	6060
2026-01-26 01:38:35.56	272.16	13.55	-41.7	-45.9	11.5	8.09e-04	0	62	0	558891008	54	6032
2026-01-26 01:38:36.57	272.00	13.48	-41.7	-46.0	11.3	1.05e-03	0	61	0	560988160	54	6107
2026-01-26 01:38:37.58	271.84	13.42	-41.7	-46.0	11.3	1.08e-03	0	61	0	563085312	54	6104
2026-01-26 01:38:38.59	271.68	13.36	-41.7	-46.0	11.4	9.23e-04	0	62	0	565182464	54	6062
2026-01-26 01:38:39.60	271.52	13.29	-41.7	-45.9	11.4	9.18e-04	0	62	0	566231040	54	6041
2026-01-26 01:38:40.61	271.37	13.23	-41.7	-45.9	11.4	9.31e-04	0	62	0	568328192	54	6037
2026-01-26 01:38:41.61	271.21	13.17	-41.7	-46.0	11.4	9.96e-04	0	62	0	570425344	54	6069
2026-01-26 01:38:42.62	271.06	13.10	-41.7	-45.9	11.4	9.12e-04	0	62	0	572522496	54	6033
2026-01-26 01:38:43.63	270.90	13.04	-41.7	-46.0	11.4	1.09e-03	0	61	0	574619648	54	6064
2026-01-26 01:38:44.64	270.75	12.98	-41.7	-46.0	11.3	1.14e-03	0	62	0	576716800	54	6081
2026-01-26 01:38:45.65	270.60	12.91	-41.6	-45.9	11.4	9.60e-04	0	61	0	577765376	54	6047
2026-01-26 01:38:46.66	270.44	12.85	-41.6	-45.8	11.5	9.64e-04	0	61	0	579862528	54	5957
2026-01-26 01:38:47.67	270.29	12.78	-41.6	-45.8	11.5	9.12e-04	0	62	0	581959680	54	5967
2026-01-26 01:38:48.68	270.14	12.72	-41.5	-45.6	11.7	6.35e-04	0	61	0	584056832	54	5835
2026-01-26 01:38:49.69	269.99	12.65	-41.5	-45.5	11.8	5.28e-04	0	62	0	586153984	54	5765
2026-01-26 01:38:50.70	269.84	12.59	-41.4	-45.4	11.9	4.50e-04	0	61	0	587202560	54	5718
2026-01-26 01:38:51.71	269.69	12.53	-41.4	-45.5	11.8	4.40e-04	0	61	0	589299712	54	5761
2026-01-26 01:38:52.72	269.54	12.46	-41.5	-45.6	11.7	5.26e-04	0	62	0	591396864	54	5809
2026-01-26 01:38:53.73	269.40	12.40	-41.4	-45.5	11.8	5.48e-04	0	61	0	593494016	54	5731
2026-01-26 01:38:54.74	269.25	12.33	-41.4	-45.4	11.9	4.40e-04	0	61	0	595591168	54	5695
2026-01-26 01:38:55.75	269.10	12.27	-41.4	-45.4	11.8	4.42e-04	0	62	0	596639744	54	5717
2026-01-26 01:38:56.76	268.96	12.21	-41.3	-45.4	11.9	5.35e-04	0	61	0	598736896	54	5666
2026-01-26 01:38:57.77	268.81	12.14	-41.3	-45.3	12.0	3.36e-04	0	62	0	600834048	54	5594
2026-01-26 01:38:58.78	268.67	12.08	-41.3	-45.2	12.0	3.23e-04	0	62	0	602931200	54	5572
2026-01-26 01:38:59.79	268.52	12.01	-41.2	-45.1	12.2	2.72e-04	0	62	0	605028352	54	5483
2026-01-26 01:39:00.80	268.38	11.95	-41.2	-45.0	12.2	1.94e-04	0	62	0	606076928	54	5453
2026-01-26 01:39:01.81	268.24	11.88	-41.2	-45.0	12.2	2.04e-04	0	62	0	608174080	54	5448
2026-01-26 01:39:02.82	268.09	11.82	-41.1	-44.9	12.3	1.94e-04	0	62	0	610271232	54	5379
2026-01-26 01:39:03.82	267.95	11.76	-41.1	-44.9	12.3	1.85e-04	0	61	0	612368384	54	5398
2026-01-26 01:39:04.84	267.81	11.69	-41.1	-44.9	12.3	1.74e-04	0	61	0	614465536	54	5368
2026-01-26 01:39:05.85	267.67	11.63	-41.2	-45.1	12.2	1.79e-04	0	62	0	615514112	54	5466
2026-01-26 01:39:06.86	267.53	11.56	-41.2	-45.1	12.1	2.57e-04	0	62	0	617611264	54	5497
2026-01-26 01:39:07.86	267.39	11.50	-41.2	-45.1	12.1	2.91e-04	0	62	0	619708416	54	5517
2026-01-26 01:39:08.87	267.26	11.43	-41.1	-45.0	12.2	2.55e-04	0	62	0	621805568	54	5436
2026-01-26 01:39:09.88	267.12	11.37	-41.1	-45.0	12.1	2.45e-04	0	62	0	623902720	54	5458
2026-01-26 01:39:10.89	266.98	11.31	-41.2	-45.1	12.0	3.07e-04	0	61	0	624951296	54	5486
2026-01-26 01:39:11.90	266.84	11.24	-41.1	-44.9	12.2	2.29e-04	0	61	0	627048448	54	5393
2026-01-26 01:39:12.91	266.71	11.18	-41.0	-44.8	12.3	2.09e-04	0	62	0	629145600	54	5308
2026-01-26 01:39:13.93	266.57	11.11	-41.0	-44.9	12.2	2.01e-04	0	62	0	631242752	54	5341
2026-01-26 01:39:14.94	266.44	11.05	-41.0	-44.8	12.3	1.56e-04	0	62	0	633339904	54	5337
2026-01-26 01:39:15.95	266.30	10.98	-41.1	-45.0	12.1	2.30e-04	0	61	0	634388480	54	5419
2026-01-26 01:39:16.96	266.17	10.92	-41.1	-45.0	12.0	3.35e-04	0	61	0	636485632	54	5455
2026-01-26 01:39:17.97	266.04	10.86	-41.1	-44.9	12.1	2.45e-04	0	62	0	638582784	54	5394
2026-01-26 01:39:18.98	265.90	10.79	-41.1	-45.1	12.0	2.97e-04	0	62	0	640679936	54	5492
2026-01-26 01:39:19.98	265.77	10.73	-41.1	-45.1	11.9	3.42e-04	0	62	0	642777088	54	5495
2026-01-26 01:39:20.99	265.64	10.66	-41.1	-45.0	12.0	3.19e-04	0	62	0	644874240	54	5461
2026-01-26 01:39:22.01	265.51	10.60	-41.2	-45.2	11.8	4.19e-04	0	61	0	645922816	54	5554
2026-01-26 01:39:23.02	265.38	10.54	-41.1	-45.0	11.9	3.82e-04	0	62	0	648019968	54	5458
2026-01-26 01:39:24.02	265.25	10.47	-41.1	-45.1	11.8	4.17e-04	0	61	0	650117120	54	5515
2026-01-26 01:39:25.03	265.12	10.41	-41.2	-45.3	11.7	4.13e-04	0	62	0	652214272	54	5620
2026-01-26 01:39:26.04	265.00	10.34	-41.2	-45.4	11.6	6.06e-04	0	61	0	654311424	54	5671
2026-01-26 01:39:27.05	264.87	10.28	-41.2	-45.4	11.5	8.89e-04	0	62	0	655360000	54	5708
2026-01-26 01:39:28.06	264.74	10.22	-41.3	-45.5	11.5	7.88e-04	0	62	0	657457152	54	5749
2026-01-26 01:39:29.07	264.61	10.15	-41.2	-45.4	11.5	7.00e-04	0	61	0	659554304	54	5710
2026-01-26 01:39:30.08	264.49	10.09	-41.2	-45.4	11.5	7.83e-04	0	61	0	661651456	54	5696
2026-01-26 01:39:31.09	264.36	10.02	-41.2	-45.4	11.5	8.94e-04	0	62	0	663748608	54	5703
2026-01-26 01:39:32.10	264.24	9.96	-41.2	-45.4	11.5	8.34e-04	0	61	0	664797184	54	5677
2026-01-26 01:39:33.11	264.11	9.90	-41.2	-45.5	11.5	8.60e-04	0	61	0	666894336	54	5725
2026-01-26 01:39:34.12	263.99	9.83	-41.2	-45.4	11.5	7.99e-04	0	62	0	668991488	54	5661
2026-01-26 01:39:35.13	263.87	9.77	-41.2	-45.3	11.6	6.99e-04	0	62	0	671088640	54	5656
2026-01-26 01:39:36.14	263.74	9.71	-41.2	-45.4	11.4	8.85e-04	0	61	0	673185792	54	5704
2026-01-26 01:39:37.15	263.62	9.64	-41.2	-45.4	11.4	7.98e-04	0	62	0	674234368	54	5695
2026-01-26 01:39:38.16	263.50	9.58	-41.2	-45.4	11.4	9.62e-04	0	61	0	676331520	54	5686
2026-01-26 01:39:39.17	263.38	9.51	-41.2	-45.5	11.3	1.02e-03	0	61	0	678428672	54	5739
2026-01-26 01:39:40.18	263.26	9.45	-41.2	-45.4	11.4	1.01e-03	0	62	0	680525824	54	5696
2026-01-26 01:39:41.18	263.14	9.39	-41.2	-45.4	11.4	9.68e-04	0	62	0	682622976	54	5705
2026-01-26 01:39:42.19	263.02	9.32	-41.1	-45.3	11.5	8.25e-04	0	61	0	683671552	54	5596
2026-01-26 01:39:43.21	262.90	9.26	-41.1	-45.2	11.7	6.46e-04	0	62	0	685768704	54	5544
2026-01-26 01:39:44.21	262.78	9.20	-41.1	-45.2	11.7	6.25e-04	0	61	0	687865856	54	5546
2026-01-26 01:39:45.22	262.67	9.13	-41.1	-45.2	11.7	5.56e-04	0	62	0	689963008	54	5534
2026-01-26 01:39:46.23	262.55	9.07	-41.1	-45.3	11.6	6.80e-04	0	62	0	692060160	54	5620
2026-01-26 01:39:47.24	262.43	9.01	-41.1	-45.3	11.6	7.41e-04	0	61	0	693108736	54	5648
2026-01-26 01:39:48.25	262.31	8.95	-41.3	-45.6	11.3	8.96e-04	0	61	0	695205888	54	5805
2026-01-26 01:39:49.26	262.20	8.88	-41.3	-45.7	11.2	1.30e-03	0	61	0	697303040	54	5879
2026-01-26 01:39:50.27	262.08	8.82	-41.4	-45.9	11.0	1.85e-03	0	62	0	699400192	54	5993
2026-01-26 01:39:51.28	261.97	8.76	-41.4	-46.0	10.9	2.00e-03	0	61	0	701497344	54	6076
2026-01-26 01:39:52.29	261.85	8.69	-41.6	-46.3	10.5	2.67e-03	0	61	0	702545920	54	6300
2026-01-26 01:39:53.30	261.74	8.63	-41.6	-46.4	10.4	3.98e-03	0	61	0	704643072	54	6391
2026-01-26 01:39:54.31	261.63	8.57	-41.6	-46.4	10.5	4.09e-03	0	62	0	706740224	54	6358
2026-01-26 01:39:55.32	261.51	8.50	-41.6	-46.4	10.4	4.16e-03	0	62	0	708837376	54	6415
2026-01-26 01:39:56.33	261.40	8.44	-41.7	-46.5	10.3	5.46e-03	0	62	0	710934528	54	6468
2026-01-26 01:39:57.34	261.29	8.38	-41.6	-46.5	10.3	5.28e-03	0	62	0	713031680	54	6472
2026-01-26 01:39:58.35	261.18	8.32	-41.6	-46.5	10.3	5.28e-03	0	62	0	714080256	54	6449
2026-01-26 01:39:59.36	261.07	8.25	-41.7	-46.6	10.2	5.42e-03	0	62	0	716177408	54	6553
2026-01-26 01:40:00.37	260.96	8.19	-41.7	-46.6	10.2	5.97e-03	0	62	0	718274560	54	6558
2026-01-26 01:40:01.38	260.85	8.13	-41.7	-46.7	10.2	5.81e-03	0	62	0	720371712	54	6573
2026-01-26 01:40:02.40	260.74	8.07	-41.7	-46.6	10.2	5.68e-03	0	62	0	722468864	54	6513
2026-01-26 01:40:03.41	260.63	8.00	-41.7	-46.6	10.1	5.25e-03	0	62	0	723517440	54	6570
2026-01-26 01:40:04.42	260.52	7.94	-44.4	-58.6	3.8	1.49e+00	0	61	104	724566016	59	19613
2026-01-26 01:40:05.43	260.41	7.88	-44.6	-59.4	3.8	1.49e+00	0	61	104	724566016	60	20213
2026-01-26 01:40:06.44	260.30	7.82	-44.8	-59.5	3.8	1.49e+00	0	62	104	724566016	60	20460
2026-01-26 01:40:07.45	260.20	7.75	-45.0	-59.6	3.8	1.49e+00	0	62	104	724566016	60	20775
2026-01-26 01:40:08.46	260.09	7.69	-45.0	-59.7	3.8	1.49e+00	0	62	104	724566016	60	20975
2026-01-26 01:40:09.47	259.98	7.63	-45.1	-59.8	3.8	1.49e+00	0	62	104	724566016	60	21056
2026-01-26 01:40:10.48	259.88	7.57	-45.1	-59.8	3.8	1.49e+00	0	62	104	724566016	60	21140
2026-01-26 01:40:11.49	259.77	7.51	-45.1	-59.7	3.8	1.49e+00	0	62	104	724566016	60	21009
2026-01-26 01:40:12.50	259.67	7.44	-45.0	-59.7	3.8	1.49e+00	0	62	104	724566016	60	20816
2026-01-26 01:40:13.51	259.56	7.38	-45.0	-59.6	3.8	1.49e+00	0	62	104	724566016	60	20763
2026-01-26 01:40:14.52	259.46	7.32	-45.0	-59.7	3.8	1.49e+00	0	62	104	724566016	60	20778
2026-01-26 01:40:15.53	259.36	7.26	-45.0	-59.7	3.8	1.49e+00	0	62	104	724566016	60	20815
2026-01-26 01:40:16.54	259.25	7.20	-45.0	-59.6	3.8	1.49e+00	0	62	104	724566016	60	20696
2026-01-26 01:40:17.55	259.15	7.14	-45.0	-59.6	3.8	1.49e+00	0	62	104	724566016	60	20769
2026-01-26 01:40:18.56	259.05	7.07	-45.1	-59.7	3.8	1.49e+00	0	62	104	724566016	60	20917
2026-01-26 01:40:19.57	258.95	7.01	-45.1	-59.8	3.8	1.49e+00	0	62	104	724566016	60	21022
2026-01-26 01:40:20.59	258.85	6.95	-45.1	-59.8	3.8	1.49e+00	0	62	104	724566016	60	21140
2026-01-26 01:40:21.60	258.74	6.89	-45.1	-59.7	3.8	1.49e+00	0	62	104	724566016	60	20972
2026-01-26 01:40:22.61	258.64	6.83	-45.1	-59.7	3.8	1.49e+00	0	62	104	724566016	60	20892
2026-01-26 01:40:23.62	258.54	6.77	-45.1	-59.7	3.8	1.49e+00	0	62	104	724566016	60	20937
2026-01-26 01:40:24.63	258.45	6.71	-45.1	-59.7	3.8	1.49e+00	0	62	104	724566016	60	20829
2026-01-26 01:40:25.64	258.35	6.64	-45.1	-59.7	3.8	1.49e+00	0	62	104	724566016	60	20880
2026-01-26 01:40:26.65	258.25	6.58	-45.1	-59.7	3.8	1.49e+00	0	62	104	724566016	60	21014
2026-01-26 01:40:27.66	258.15	6.52	-45.0	-59.6	3.8	1.49e+00	0	62	104	724566016	60	20751
2026-01-26 01:40:28.67	258.05	6.46	-45.0	-59.6	3.8	1.49e+00	0	62	104	724566016	60	20765
2026-01-26 01:40:29.68	257.95	6.40	-45.1	-59.6	3.8	1.49e+00	0	62	104	724566016	60	20773
2026-01-26 01:40:30.69	257.86	6.34	-45.0	-59.7	3.8	1.49e+00	0	62	104	724566016	60	20833
2026-01-26 01:40:31.70	257.76	6.28	-45.0	-59.6	3.8	1.49e+00	0	62	104	724566016	60	20689
2026-01-26 01:40:32.71	257.66	6.22	-45.0	-59.6	3.8	1.49e+00	0	62	104	724566016	60	20702
2026-01-26 01:40:33.72	257.57	6.16	-45.0	-59.6	3.8	1.49e+00	0	62	104	724566016	60	20746
2026-01-26 01:40:34.73	257.47	6.10	-45.0	-59.6	3.8	1.49e+00	0	62	104	724566016	60	20734
2026-01-26 01:40:35.74	257.38	6.04	-45.0	-59.6	3.8	1.49e+00	0	62	104	724566016	60	20727
2026-01-26 01:40:36.75	257.28	5.98	-45.0	-59.6	3.8	1.49e+00	0	62	104	724566016	60	20755
2026-01-26 01:40:37.76	257.19	5.92	-45.0	-59.6	3.8	1.49e+00	0	62	104	724566016	60	20698
2026-01-26 01:40:38.77	257.10	5.86	-45.0	-59.6	3.8	1.49e+00	0	62	104	724566016	60	20655
2026-01-26 01:40:39.78	257.00	5.80	-45.0	-59.6	3.8	1.49e+00	0	62	104	724566016	60	20694
2026-01-26 01:40:40.79	256.91	5.74	-45.0	-59.6	3.8	1.49e+00	0	62	104	724566016	60	20685
2026-01-26 01:40:41.79	256.82	5.68	-45.0	-59.6	3.8	1.49e+00	0	62	104	724566016	60	20640
2026-01-26 01:40:42.81	256.73	5.62	-45.0	-59.6	3.8	1.49e+00	0	62	104	724566016	60	20725
2026-01-26 01:40:43.81	256.63	5.56	-45.0	-59.6	3.8	1.49e+00	0	62	104	724566016	60	20633
2026-01-26 01:40:44.82	256.54	5.50	-45.0	-59.6	3.8	1.49e+00	0	62	104	724566016	60	20691
2026-01-26 01:40:45.83	256.45	5.44	-45.0	-59.6	3.8	1.49e+00	0	62	104	724566016	60	20575
2026-01-26 01:40:46.84	256.36	5.38	-45.0	-59.6	3.8	1.49e+00	0	62	104	724566016	60	20556
2026-01-26 01:40:47.85	256.27	5.32	-45.0	-59.6	3.8	1.49e+00	0	62	104	724566016	60	20540
2026-01-26 01:40:48.86	256.18	5.26	-45.0	-59.6	3.8	1.49e+00	0	62	104	724566016	60	20558
2026-01-26 01:40:49.87	256.09	5.20	-45.0	-59.6	3.8	1.49e+00	0	62	104	724566016	60	20655
2026-01-26 01:40:50.88	256.00	5.14	-44.9	-59.5	3.8	1.49e+00	0	62	104	724566016	60	20511
2026-01-26 01:40:51.89	255.91	5.08	-44.9	-59.5	3.8	1.49e+00	0	62	104	724566016	60	20529
2026-01-26 01:40:52.90	255.83	5.02	-44.9	-59.5	3.8	1.49e+00	0	62	104	724566016	60	20514
2026-01-26 01:40:53.91	255.74	4.96	-44.9	-59.6	3.8	1.49e+00	0	62	104	724566016	60	20546
2026-01-26 01:40:54.92	255.65	4.90	-44.9	-59.5	3.8	1.49e+00	0	61	104	724566016	60	20398
2026-01-26 01:40:55.93	255.56	4.84	-44.9	-59.5	3.8	1.49e+00	0	62	104	724566016	60	20508
2026-01-26 01:40:56.94	255.48	4.78	-44.9	-59.5	3.8	1.49e+00	0	62	104	724566016	60	20472
2026-01-26 01:40:57.95	255.39	4.73	-44.9	-59.5	3.8	1.49e+00	0	62	104	724566016	60	20494
2026-01-26 01:40:58.96	255.30	4.67	-44.9	-59.5	3.8	1.49e+00	0	62	104	724566016	60	20497
2026-01-26 01:40:59.97	255.22	4.61	-44.9	-59.5	3.8	1.49e+00	0	62	104	724566016	60	20525
2026-01-26 01:41:00.98	255.13	4.55	-44.9	-59.5	3.8	1.49e+00	0	62	104	724566016	60	20492
2026-01-26 01:41:01.99	255.05	4.49	-44.9	-59.5	3.8	1.49e+00	0	62	104	724566016	60	20485
2026-01-26 01:41:03.00	254.96	4.43	-44.9	-59.5	3.8	1.49e+00	0	62	104	724566016	60	20440
2026-01-26 01:41:04.01	254.88	4.37	-44.9	-59.5	3.8	1.49e+00	0	62	104	724566016	60	20480
2026-01-26 01:41:05.02	254.79	4.32	-44.9	-59.5	3.8	1.49e+00	0	62	104	724566016	60	20512
2026-01-26 01:41:06.03	254.71	4.26	-44.9	-59.5	3.8	1.49e+00	0	62	104	724566016	60	20414
2026-01-26 01:41:07.04	254.63	4.20	-44.9	-59.5	3.8	1.49e+00	0	62	104	724566016	60	20492
2026-01-26 01:41:08.05	254.54	4.14	-44.9	-59.5	3.8	1.49e+00	0	62	104	724566016	60	20464
2026-01-26 01:41:09.06	254.46	4.08	-44.9	-59.5	3.8	1.49e+00	0	62	104	724566016	60	20366
2026-01-26 01:41:10.07	254.38	4.02	-44.9	-59.5	3.8	1.49e+00	0	62	104	724566016	60	20411
2026-01-26 01:41:11.09	254.30	3.97	-44.9	-59.5	3.8	1.49e+00	0	62	104	724566016	60	20332
2026-01-26 01:41:12.09	254.21	3.91	-44.9	-59.5	3.8	1.49e+00	0	62	104	724566016	60	20375
2026-01-26 01:41:13.10	254.13	3.85	-44.9	-59.5	3.8	1.49e+00	0	62	104	724566016	60	20454
2026-01-26 01:41:14.11	254.05	3.79	-44.9	-59.5	3.8	1.49e+00	0	62	104	724566016	60	20378
2026-01-26 01:41:15.12	253.97	3.73	-44.9	-59.5	3.8	1.49e+00	0	62	104	724566016	60	20392
2026-01-26 01:41:16.13	253.89	3.68	-44.9	-59.5	3.8	1.49e+00	0	62	104	724566016	60	20374
2026-01-26 01:41:17.14	253.81	3.62	-44.9	-59.5	3.8	1.49e+00	0	62	104	724566016	60	20396
2026-01-26 01:41:18.15	253.73	3.56	-44.9	-59.5	3.8	1.49e+00	0	62	104	724566016	60	20362
2026-01-26 01:41:19.16	253.65	3.50	-44.9	-59.5	3.8	1.49e+00	0	62	104	724566016	60	20409
2026-01-26 01:41:20.17	253.57	3.45	-44.9	-59.5	3.8	1.49e+00	0	62	104	724566016	60	20374
