passes_logs/2026/01/26/R2.0S_Moscow/R2.0S_Moscow__20260126_052908_FENGYUN_3E_rec.log

#Pass ID: 20260126_052908_FENGYUN 3E
#Satellite: FENGYUN 3E
#Configuration: FENGYUN 3E
#almurnet v.1.7.20251203
#Start time: 2026-01-26 05:29:09

#Version: 2.2.20231116
#Station: R2.0S_Moscow
#Location: 37.707566 lon 55.798166 lat
#TLE: 1 49008U 21062A   26025.85775150 -.00000016  00000+0  13398-4 0  9990
#TLE: 2 49008  98.7498  30.8591 0002468 117.3618 242.7810 14.19886460236384

#Time	Az	El	Level	Level2	SNR	BER	BlckErr	Temp	State	Recorded	gain1	gain2
2026-01-26 05:29:09.05	10.55	2.02	-40.2	-50.9	3.8	8.47e-01	0	52	0	0	51	12025
2026-01-26 05:29:10.05	10.49	2.08	-40.2	-50.9	3.8	8.46e-01	0	52	104	0	51	12067
2026-01-26 05:29:11.06	10.43	2.14	-40.2	-50.9	3.8	8.46e-01	0	52	104	0	51	12013
2026-01-26 05:29:12.07	10.37	2.20	-40.1	-50.9	3.8	8.46e-01	0	53	104	0	51	11993
2026-01-26 05:29:13.08	10.31	2.26	-40.2	-50.9	3.8	8.46e-01	0	53	104	0	51	12044
2026-01-26 05:29:14.09	10.25	2.32	-40.1	-50.9	3.8	8.47e-01	0	52	104	0	51	12029
2026-01-26 05:29:15.10	10.19	2.37	-40.1	-50.9	3.8	8.47e-01	0	53	104	0	51	12024
2026-01-26 05:29:16.11	10.13	2.43	-40.1	-50.9	3.8	8.46e-01	0	53	104	0	51	12033
2026-01-26 05:29:17.12	10.06	2.49	-40.1	-50.9	3.8	8.45e-01	0	53	104	0	51	11994
2026-01-26 05:29:18.14	10.00	2.55	-40.1	-50.9	3.8	8.46e-01	0	53	104	0	51	12012
2026-01-26 05:29:19.14	9.94	2.61	-40.1	-50.9	3.8	8.46e-01	0	53	104	0	51	12035
2026-01-26 05:29:20.15	9.88	2.67	-40.1	-50.9	3.8	8.45e-01	0	53	104	0	51	11999
2026-01-26 05:29:21.17	9.81	2.73	-40.1	-50.9	3.8	8.46e-01	0	53	104	0	51	11994
2026-01-26 05:29:22.18	9.75	2.79	-40.1	-50.9	3.8	8.46e-01	0	53	104	0	51	12033
2026-01-26 05:29:23.19	9.69	2.85	-40.1	-50.9	3.8	8.45e-01	0	53	104	0	51	11999
2026-01-26 05:29:24.20	9.62	2.91	-40.1	-50.9	3.8	8.46e-01	0	53	104	0	51	12030
2026-01-26 05:29:25.21	9.56	2.97	-40.1	-50.9	3.8	8.46e-01	0	54	104	0	51	12019
2026-01-26 05:29:26.22	9.49	3.02	-40.1	-50.9	3.8	8.45e-01	0	53	104	0	51	12041
2026-01-26 05:29:27.23	9.43	3.08	-40.1	-50.9	3.8	8.47e-01	0	53	104	0	51	11984
2026-01-26 05:29:28.24	9.36	3.14	-40.1	-50.9	3.8	8.47e-01	0	54	104	0	51	11994
2026-01-26 05:29:29.25	9.30	3.20	-40.1	-50.9	3.8	8.47e-01	0	54	104	0	51	12023
2026-01-26 05:29:30.26	9.23	3.26	-40.1	-50.9	3.8	8.45e-01	0	54	104	0	51	11992
2026-01-26 05:29:31.27	9.17	3.32	-40.1	-50.9	3.8	8.46e-01	0	54	104	0	51	12014
2026-01-26 05:29:32.28	9.10	3.38	-40.1	-50.9	3.8	8.47e-01	0	54	104	0	51	12044
2026-01-26 05:29:33.29	9.03	3.44	-40.1	-50.9	3.8	8.46e-01	0	54	104	0	51	11996
2026-01-26 05:29:34.30	8.97	3.50	-40.1	-50.9	3.8	8.45e-01	0	54	104	0	51	12009
2026-01-26 05:29:35.31	8.90	3.56	-40.1	-50.9	3.8	8.47e-01	0	54	104	0	51	12005
2026-01-26 05:29:36.32	8.83	3.63	-40.1	-50.9	3.8	8.46e-01	0	54	104	0	51	11973
2026-01-26 05:29:37.33	8.77	3.69	-40.1	-50.9	3.8	8.46e-01	0	54	104	0	51	12004
2026-01-26 05:29:38.34	8.70	3.75	-40.1	-50.9	3.8	8.48e-01	0	54	104	0	51	11983
2026-01-26 05:29:39.35	8.63	3.81	-40.1	-50.9	3.8	8.46e-01	0	54	104	0	51	11981
2026-01-26 05:29:40.36	8.56	3.87	-40.1	-50.9	3.8	8.46e-01	0	54	104	0	51	12009
2026-01-26 05:29:41.37	8.49	3.93	-40.1	-50.9	3.8	8.44e-01	0	55	104	0	51	12028
2026-01-26 05:29:42.38	8.42	3.99	-40.1	-50.9	3.8	8.45e-01	0	55	104	0	51	12024
2026-01-26 05:29:43.39	8.36	4.05	-40.1	-50.9	3.8	8.46e-01	0	55	104	0	51	11974
2026-01-26 05:29:44.40	8.29	4.11	-40.1	-50.9	3.8	8.45e-01	0	55	104	0	51	12025
2026-01-26 05:29:45.41	8.22	4.17	-40.1	-50.9	3.8	8.46e-01	0	55	104	0	51	12021
2026-01-26 05:29:46.42	8.15	4.24	-40.1	-50.9	3.8	8.47e-01	0	55	104	0	51	11998
2026-01-26 05:29:47.44	8.07	4.30	-40.1	-50.9	3.8	8.47e-01	0	55	104	0	51	12021
2026-01-26 05:29:48.44	8.00	4.36	-40.1	-50.9	3.8	8.45e-01	0	55	104	0	51	11988
2026-01-26 05:29:49.45	7.93	4.42	-40.1	-50.9	3.8	8.47e-01	0	55	104	0	51	11992
2026-01-26 05:29:50.46	7.86	4.48	-40.1	-50.9	3.8	8.46e-01	0	55	104	0	51	12005
2026-01-26 05:29:51.47	7.79	4.54	-40.1	-50.9	3.8	8.46e-01	0	55	104	0	51	12010
2026-01-26 05:29:52.48	7.72	4.61	-40.1	-50.9	3.8	8.47e-01	0	55	104	0	51	12021
2026-01-26 05:29:53.49	7.64	4.67	-40.1	-50.9	3.8	8.47e-01	0	55	104	0	51	12012
2026-01-26 05:29:54.50	7.57	4.73	-40.1	-50.9	3.8	8.46e-01	0	55	104	0	51	12022
2026-01-26 05:29:55.51	7.50	4.79	-40.1	-50.9	3.8	8.46e-01	0	55	104	0	51	11986
2026-01-26 05:29:56.52	7.42	4.85	-40.1	-50.9	3.8	8.45e-01	0	55	104	0	51	11979
2026-01-26 05:29:57.54	7.35	4.92	-40.1	-50.9	3.8	8.46e-01	0	55	104	0	51	11987
2026-01-26 05:29:58.55	7.28	4.98	-40.1	-50.8	3.8	8.47e-01	0	56	104	0	51	11929
2026-01-26 05:29:59.56	7.20	5.04	-40.1	-50.9	3.8	8.47e-01	0	56	104	0	51	11986
2026-01-26 05:30:00.57	7.13	5.11	-40.1	-50.9	3.8	8.47e-01	0	56	104	0	51	12015
2026-01-26 05:30:01.58	7.05	5.17	-40.1	-50.9	3.8	8.46e-01	0	56	104	0	51	12013
2026-01-26 05:30:02.59	6.98	5.23	-40.1	-50.8	3.8	8.46e-01	0	56	104	0	51	11926
2026-01-26 05:30:03.60	6.90	5.30	-40.1	-50.9	3.8	8.46e-01	0	56	104	0	51	11975
2026-01-26 05:30:04.61	6.82	5.36	-40.1	-50.9	3.8	8.46e-01	0	56	104	0	51	11963
2026-01-26 05:30:05.62	6.75	5.42	-40.1	-50.9	3.8	8.47e-01	0	56	104	0	51	11987
2026-01-26 05:30:06.63	6.67	5.49	-40.1	-50.9	3.8	8.46e-01	0	56	104	0	51	11970
2026-01-26 05:30:07.64	6.59	5.55	-40.1	-50.9	3.8	8.45e-01	0	56	104	0	51	11968
2026-01-26 05:30:08.65	6.52	5.61	-40.1	-50.8	3.8	8.47e-01	0	56	104	0	51	11948
2026-01-26 05:30:09.66	6.44	5.68	-40.1	-50.9	3.8	8.46e-01	0	56	104	0	51	11986
2026-01-26 05:30:10.67	6.36	5.74	-40.1	-50.9	3.8	8.46e-01	0	56	104	0	51	11971
2026-01-26 05:30:11.68	6.28	5.80	-40.1	-50.8	3.8	8.46e-01	0	56	104	0	51	11954
2026-01-26 05:30:12.69	6.20	5.87	-40.1	-50.9	3.8	8.47e-01	0	56	104	0	51	11972
2026-01-26 05:30:13.70	6.12	5.93	-40.1	-50.9	3.8	8.46e-01	0	56	104	0	51	12026
2026-01-26 05:30:14.71	6.04	6.00	-40.1	-50.9	3.8	8.47e-01	0	56	104	0	51	11982
2026-01-26 05:30:15.72	5.96	6.06	-40.1	-50.9	3.8	8.46e-01	0	56	104	0	51	11956
2026-01-26 05:30:16.73	5.88	6.13	-40.1	-50.9	3.8	8.46e-01	0	56	104	0	51	11982
2026-01-26 05:30:17.74	5.80	6.19	-40.1	-50.8	3.8	8.46e-01	0	57	104	0	51	11951
2026-01-26 05:30:18.75	5.72	6.25	-40.1	-50.8	3.8	8.46e-01	0	57	104	0	51	11944
2026-01-26 05:30:19.76	5.64	6.32	-40.1	-50.9	3.8	8.46e-01	0	57	104	0	51	11964
2026-01-26 05:30:20.76	5.56	6.38	-40.1	-50.8	3.8	8.45e-01	0	57	104	0	51	11945
2026-01-26 05:30:21.77	5.47	6.45	-40.1	-50.8	3.8	8.47e-01	0	57	104	0	51	11950
2026-01-26 05:30:22.79	5.39	6.51	-40.1	-50.9	3.8	8.46e-01	0	57	104	0	51	11994
2026-01-26 05:30:23.80	5.31	6.58	-40.1	-50.8	3.8	8.45e-01	0	57	104	0	51	11946
2026-01-26 05:30:24.81	5.22	6.65	-40.1	-50.9	3.8	8.46e-01	0	57	104	0	51	11956
2026-01-26 05:30:25.82	5.14	6.71	-40.1	-50.9	3.8	8.47e-01	0	57	104	0	51	11971
2026-01-26 05:30:26.83	5.06	6.78	-40.1	-50.9	3.8	8.46e-01	0	57	104	0	51	12004
2026-01-26 05:30:27.84	4.97	6.84	-40.1	-50.9	3.8	8.46e-01	0	57	104	0	51	12005
2026-01-26 05:30:28.85	4.89	6.91	-40.1	-50.9	3.8	8.46e-01	0	57	104	0	51	12028
2026-01-26 05:30:29.86	4.80	6.97	-40.1	-50.9	3.8	8.47e-01	0	57	104	0	51	11967
2026-01-26 05:30:30.87	4.71	7.04	-40.1	-50.9	3.8	8.46e-01	0	57	104	0	51	11956
2026-01-26 05:30:31.88	4.63	7.11	-40.1	-50.9	3.8	8.46e-01	0	57	104	0	51	11977
2026-01-26 05:30:32.89	4.54	7.17	-40.1	-50.9	3.8	8.46e-01	0	57	104	0	51	12001
2026-01-26 05:30:33.90	4.45	7.24	-40.1	-50.9	3.8	8.46e-01	0	57	104	0	51	11982
2026-01-26 05:30:34.91	4.37	7.30	-40.1	-50.9	3.8	8.45e-01	0	57	104	0	51	11957
2026-01-26 05:30:35.92	4.28	7.37	-40.1	-50.9	3.8	8.47e-01	0	57	104	0	51	11957
2026-01-26 05:30:36.93	4.19	7.44	-40.1	-50.9	3.8	8.47e-01	0	57	104	0	51	11988
2026-01-26 05:30:37.94	4.10	7.50	-40.1	-50.8	3.8	8.46e-01	0	57	104	0	51	11932
2026-01-26 05:30:38.95	4.01	7.57	-40.1	-50.9	3.8	8.46e-01	0	58	104	0	51	11964
2026-01-26 05:30:39.96	3.92	7.64	-40.1	-50.9	3.8	8.47e-01	0	57	104	0	51	11960
2026-01-26 05:30:40.97	3.83	7.71	-40.1	-50.9	3.8	8.45e-01	0	57	104	0	51	11971
2026-01-26 05:30:41.98	3.74	7.77	-40.1	-50.9	3.8	8.45e-01	0	57	104	0	51	11983
2026-01-26 05:30:42.99	3.65	7.84	-40.1	-50.9	3.8	8.46e-01	0	57	104	0	51	11969
2026-01-26 05:30:44.00	3.56	7.91	-40.1	-50.8	3.8	8.46e-01	0	58	104	0	51	11950
2026-01-26 05:30:45.01	3.47	7.97	-40.1	-50.8	3.8	8.46e-01	0	58	104	0	51	11930
2026-01-26 05:30:46.02	3.37	8.04	-40.1	-50.9	3.8	8.45e-01	0	58	104	0	51	11956
2026-01-26 05:30:47.03	3.28	8.11	-40.1	-50.9	3.8	8.48e-01	0	58	104	0	51	12012
2026-01-26 05:30:48.04	3.19	8.18	-40.2	-51.0	3.8	8.47e-01	0	58	104	0	51	12187
2026-01-26 05:30:49.05	3.09	8.25	-40.3	-51.1	3.8	8.46e-01	0	58	104	0	51	12254
2026-01-26 05:30:50.06	3.00	8.31	-40.4	-51.1	3.8	8.46e-01	0	58	104	0	51	12375
2026-01-26 05:30:51.07	2.90	8.38	-40.3	-51.0	3.8	8.46e-01	0	58	104	0	51	12233
2026-01-26 05:30:52.08	2.81	8.45	-40.4	-51.1	3.8	8.46e-01	0	58	104	0	51	12370
2026-01-26 05:30:53.09	2.71	8.52	-40.3	-51.0	3.8	8.46e-01	0	58	104	0	51	12172
2026-01-26 05:30:54.10	2.62	8.59	-40.3	-51.1	3.8	8.46e-01	0	58	104	0	51	12305
2026-01-26 05:30:55.11	2.52	8.66	-40.2	-51.0	3.8	8.46e-01	0	58	104	0	51	12194
2026-01-26 05:30:56.12	2.42	8.72	-40.4	-51.1	3.8	8.45e-01	0	58	104	0	51	12356
2026-01-26 05:30:57.13	2.33	8.79	-40.1	-50.9	3.8	8.48e-01	0	58	104	0	51	12010
2026-01-26 05:30:58.14	2.23	8.86	-40.3	-51.1	3.8	8.46e-01	0	58	104	0	51	12303
2026-01-26 05:30:59.15	2.13	8.93	-40.2	-51.0	3.8	8.46e-01	0	58	104	0	51	12182
2026-01-26 05:31:00.16	2.03	9.00	-40.3	-51.1	3.8	8.45e-01	0	58	104	0	51	12263
2026-01-26 05:31:01.17	1.93	9.07	-40.2	-50.9	3.8	8.46e-01	0	58	104	0	51	12055
2026-01-26 05:31:02.18	1.83	9.14	-40.4	-51.1	3.8	8.45e-01	0	58	104	0	51	12292
2026-01-26 05:31:03.19	1.73	9.21	-40.2	-51.0	3.8	8.46e-01	0	58	104	0	51	12125
2026-01-26 05:31:04.20	1.63	9.28	-40.3	-51.0	3.8	8.46e-01	0	58	104	0	51	12181
2026-01-26 05:31:05.21	1.53	9.35	-40.2	-51.0	3.8	8.47e-01	0	58	104	0	51	12174
2026-01-26 05:31:06.22	1.43	9.42	-40.3	-51.1	3.8	8.46e-01	0	58	104	0	51	12314
2026-01-26 05:31:07.23	1.32	9.49	-40.2	-50.9	3.8	8.45e-01	0	58	104	0	51	12088
2026-01-26 05:31:08.24	1.22	9.56	-40.3	-51.1	3.8	8.47e-01	0	58	104	0	51	12276
2026-01-26 05:31:09.25	1.12	9.63	-40.3	-51.1	3.8	8.47e-01	0	58	104	0	51	12240
2026-01-26 05:31:10.26	1.01	9.70	-40.3	-51.1	3.8	8.45e-01	0	59	104	0	51	12240
2026-01-26 05:31:11.27	0.91	9.77	-40.2	-50.9	3.8	8.46e-01	0	58	104	0	51	12080
2026-01-26 05:31:12.28	0.80	9.84	-40.3	-51.1	3.8	8.46e-01	0	58	104	0	51	12285
2026-01-26 05:31:13.28	0.70	9.91	-40.2	-51.0	3.8	8.46e-01	0	59	104	0	51	12181
2026-01-26 05:31:14.29	0.59	9.98	-40.3	-51.1	3.8	8.46e-01	0	59	104	0	51	12271
2026-01-26 05:31:15.31	0.49	10.05	-40.2	-51.0	3.8	8.47e-01	0	59	104	0	51	12140
2026-01-26 05:31:16.32	0.38	10.12	-40.4	-51.1	3.8	8.46e-01	0	59	104	0	51	12329
2026-01-26 05:31:17.33	0.27	10.19	-40.3	-51.0	3.8	8.46e-01	0	59	104	0	51	12190
2026-01-26 05:31:18.34	0.16	10.26	-40.4	-51.2	3.8	8.46e-01	0	59	104	0	51	12385
2026-01-26 05:31:19.35	0.05	10.33	-40.2	-51.0	3.8	8.46e-01	0	58	104	0	51	12184
2026-01-26 05:31:20.36	359.95	10.40	-40.4	-51.1	3.8	8.46e-01	0	59	104	0	51	12331
2026-01-26 05:31:21.37	359.84	10.48	-40.3	-51.1	3.8	8.46e-01	0	59	104	0	51	12254
2026-01-26 05:31:22.38	359.72	10.55	-40.5	-51.2	3.8	8.46e-01	0	59	104	0	51	12451
2026-01-26 05:31:23.39	359.61	10.62	-40.2	-50.9	3.8	8.46e-01	0	59	104	0	51	12069
2026-01-26 05:31:24.40	359.50	10.69	-40.4	-51.1	3.8	8.46e-01	0	59	104	0	51	12353
2026-01-26 05:31:25.41	359.39	10.76	-40.4	-51.1	3.8	8.46e-01	0	59	104	0	51	12335
2026-01-26 05:31:26.42	359.28	10.83	-40.5	-51.2	3.8	8.48e-01	0	59	104	0	51	12403
2026-01-26 05:31:27.43	359.16	10.91	-40.3	-51.0	3.8	8.46e-01	0	59	104	0	51	12116
2026-01-26 05:31:28.44	359.05	10.98	-40.5	-51.2	3.8	8.47e-01	0	59	104	0	51	12468
2026-01-26 05:31:29.45	358.94	11.05	-40.5	-51.2	3.8	8.46e-01	0	59	104	0	51	12447
2026-01-26 05:31:30.46	358.82	11.12	-40.5	-51.2	3.8	8.46e-01	0	59	104	0	51	12413
2026-01-26 05:31:31.47	358.71	11.19	-40.4	-51.1	3.8	8.47e-01	0	59	104	0	51	12333
2026-01-26 05:31:32.48	358.59	11.27	-40.6	-51.3	3.8	8.45e-01	0	59	104	0	51	12530
2026-01-26 05:31:33.49	358.47	11.34	-40.6	-51.3	3.8	8.46e-01	0	59	104	0	51	12521
2026-01-26 05:31:34.50	358.36	11.41	-40.6	-51.3	3.8	8.44e-01	0	59	104	0	51	12610
2026-01-26 05:31:35.51	358.24	11.49	-40.3	-51.0	3.8	8.47e-01	0	59	104	0	51	12164
2026-01-26 05:31:36.52	358.12	11.56	-40.3	-51.1	3.8	8.46e-01	0	59	104	0	51	12235
2026-01-26 05:31:37.52	358.00	11.63	-40.3	-51.0	3.8	8.45e-01	0	59	104	0	51	12146
2026-01-26 05:31:38.53	357.88	11.70	-40.3	-51.0	3.8	8.46e-01	0	59	104	0	51	12104
2026-01-26 05:31:39.54	357.76	11.78	-40.3	-50.9	3.8	8.46e-01	0	59	104	0	51	12047
2026-01-26 05:31:40.55	357.64	11.85	-40.7	-50.9	3.8	8.46e-01	0	59	104	0	51	12058
2026-01-26 05:31:41.56	357.52	11.92	-40.9	-48.8	4.1	8.45e-01	0	59	104	0	52	8933
2026-01-26 05:31:42.57	357.40	12.00	-40.6	-50.0	3.8	8.38e-01	0	59	104	0	52	10271
2026-01-26 05:31:43.58	357.27	12.07	-40.5	-48.7	3.9	8.47e-01	0	59	104	0	52	8806
2026-01-26 05:31:44.59	357.15	12.14	-40.1	-45.3	6.0	4.17e-01	0	59	0	1048576	51	6298
2026-01-26 05:31:45.60	357.02	12.22	-39.6	-43.8	7.4	1.54e-01	0	59	0	9437184	50	5615
2026-01-26 05:31:46.61	356.90	12.29	-39.0	-42.4	8.8	3.97e-02	0	59	0	16777216	49	5096
2026-01-26 05:31:47.62	356.77	12.36	-38.7	-41.9	9.4	1.92e-02	0	59	0	23068672	48	5068
2026-01-26 05:31:48.63	356.65	12.44	-38.5	-41.7	9.5	1.57e-02	0	59	0	30408704	48	4931
2026-01-26 05:31:49.64	356.52	12.51	-38.1	-41.1	9.8	1.06e-02	0	60	0	37748736	47	4907
2026-01-26 05:31:50.65	356.39	12.59	-38.3	-41.5	9.4	1.43e-02	0	60	0	45088768	47	5142
2026-01-26 05:31:51.66	356.27	12.66	-38.7	-42.3	8.5	3.73e-02	0	60	0	52428800	47	5621
2026-01-26 05:31:52.67	356.14	12.74	-39.4	-43.8	7.1	1.22e-01	0	59	0	59768832	48	6300
2026-01-26 05:31:53.68	356.01	12.81	-39.9	-45.5	5.6	4.26e-01	0	60	0	67108864	49	7228
2026-01-26 05:31:54.69	355.88	12.88	-40.3	-46.9	4.7	7.77e-01	0	59	0	68157440	50	7994
2026-01-26 05:31:55.70	355.75	12.96	-40.6	-48.6	4.1	8.38e-01	0	60	0	68157440	50	9813
2026-01-26 05:31:56.71	355.62	13.03	-40.7	-50.0	3.8	8.45e-01	0	59	104	68157440	51	10839
2026-01-26 05:31:57.72	355.48	13.11	-40.8	-50.7	3.8	8.47e-01	0	60	104	68157440	51	11792
2026-01-26 05:31:58.73	355.35	13.18	-40.9	-51.5	3.8	8.46e-01	0	59	104	68157440	51	12955
2026-01-26 05:31:59.74	355.22	13.26	-41.0	-51.6	3.8	8.47e-01	0	59	104	68157440	51	13086
2026-01-26 05:32:00.73	355.09	13.33	-41.2	-50.8	3.8	8.47e-01	0	60	104	68157440	52	11159
2026-01-26 05:32:01.74	354.95	13.41	-41.4	-50.8	3.8	8.45e-01	0	60	104	68157440	52	11159
2026-01-26 05:32:02.75	354.82	13.48	-40.8	-51.5	3.8	8.46e-01	0	60	104	68157440	52	12106
2026-01-26 05:32:03.76	354.68	13.56	-41.0	-51.5	3.8	8.46e-01	0	60	104	68157440	52	12102
2026-01-26 05:32:04.78	354.54	13.63	-41.0	-51.4	3.8	8.46e-01	0	60	104	68157440	52	12043
2026-01-26 05:32:05.79	354.40	13.71	-41.0	-51.5	3.8	8.46e-01	0	60	104	68157440	52	12231
2026-01-26 05:32:06.80	354.26	13.78	-41.0	-51.7	3.8	8.46e-01	0	60	104	68157440	52	12488
2026-01-26 05:32:07.81	354.12	13.86	-41.0	-51.7	3.8	8.45e-01	0	60	104	68157440	52	12462
2026-01-26 05:32:08.82	353.98	13.93	-40.9	-51.7	3.8	8.47e-01	0	60	104	68157440	52	12410
2026-01-26 05:32:09.83	353.84	14.01	-40.9	-51.7	3.8	8.46e-01	0	60	104	68157440	52	12400
2026-01-26 05:32:10.84	353.70	14.08	-40.7	-51.5	3.8	8.48e-01	0	60	104	68157440	52	12188
2026-01-26 05:32:11.85	353.56	14.16	-40.9	-51.8	3.8	8.47e-01	0	60	104	68157440	52	12550
2026-01-26 05:32:12.86	353.42	14.24	-41.0	-51.8	3.8	8.45e-01	0	60	104	68157440	52	12607
2026-01-26 05:32:13.87	353.27	14.31	-40.8	-51.6	3.8	8.45e-01	0	60	104	68157440	52	12322
2026-01-26 05:32:14.88	353.13	14.39	-40.9	-51.8	3.8	8.46e-01	0	60	104	68157440	52	12524
2026-01-26 05:32:15.89	352.98	14.46	-41.0	-51.9	3.8	8.46e-01	0	60	104	68157440	52	12679
2026-01-26 05:32:16.90	352.84	14.54	-40.9	-51.7	3.8	8.47e-01	0	60	104	68157440	52	12468
2026-01-26 05:32:17.91	352.69	14.61	-40.9	-51.7	3.8	8.47e-01	0	60	104	68157440	52	12501
2026-01-26 05:32:18.92	352.54	14.69	-41.1	-51.9	3.8	8.46e-01	0	60	104	68157440	52	12717
2026-01-26 05:32:19.93	352.40	14.77	-41.0	-51.7	3.8	8.46e-01	0	60	104	68157440	52	12518
2026-01-26 05:32:20.94	352.25	14.84	-40.9	-51.7	3.8	8.47e-01	0	60	104	68157440	52	12496
2026-01-26 05:32:21.95	352.10	14.92	-41.1	-52.0	3.8	8.46e-01	0	60	104	68157440	52	12842
2026-01-26 05:32:22.96	351.95	14.99	-40.9	-51.7	3.8	8.46e-01	0	60	104	68157440	52	12474
2026-01-26 05:32:23.97	351.80	15.07	-41.1	-51.9	3.8	8.46e-01	0	60	104	68157440	52	12793
2026-01-26 05:32:24.98	351.64	15.15	-41.0	-51.8	3.8	8.46e-01	0	60	104	68157440	52	12630
2026-01-26 05:32:25.99	351.49	15.22	-41.0	-51.8	3.8	8.46e-01	0	60	104	68157440	52	12585
2026-01-26 05:32:27.00	351.34	15.30	-41.0	-51.7	3.8	8.46e-01	0	60	104	68157440	52	12519
2026-01-26 05:32:28.01	351.18	15.38	-41.3	-52.1	3.8	8.46e-01	0	60	104	68157440	52	13067
2026-01-26 05:32:29.02	351.03	15.45	-41.0	-51.8	3.8	8.45e-01	0	60	104	68157440	52	12597
2026-01-26 05:32:30.03	350.87	15.53	-41.0	-51.8	3.8	8.46e-01	0	60	104	68157440	52	12608
2026-01-26 05:32:31.04	350.71	15.61	-41.1	-51.9	3.8	8.46e-01	0	60	104	68157440	52	12739
2026-01-26 05:32:32.05	350.56	15.68	-41.1	-51.9	3.8	8.46e-01	0	60	104	68157440	52	12734
2026-01-26 05:32:33.06	350.40	15.76	-41.1	-51.9	3.8	8.47e-01	0	60	104	68157440	52	12785
2026-01-26 05:32:34.07	350.24	15.83	-41.2	-52.0	3.8	8.46e-01	0	60	104	68157440	52	12882
2026-01-26 05:32:35.08	350.08	15.91	-41.2	-52.0	3.8	8.47e-01	0	60	104	68157440	52	12855
2026-01-26 05:32:36.09	349.92	15.99	-41.3	-52.1	3.8	8.45e-01	0	60	104	68157440	52	13071
2026-01-26 05:32:37.10	349.75	16.06	-41.3	-52.1	3.8	8.46e-01	0	60	104	68157440	52	12999
2026-01-26 05:32:38.11	349.59	16.14	-41.1	-51.9	3.8	8.45e-01	0	60	104	68157440	52	12794
2026-01-26 05:32:39.12	349.43	16.22	-41.4	-52.2	3.8	8.47e-01	0	60	104	68157440	52	13236
2026-01-26 05:32:40.13	349.26	16.29	-41.7	-52.6	3.8	8.46e-01	0	60	104	68157440	52	13746
2026-01-26 05:32:41.14	349.10	16.37	-41.1	-51.9	3.8	8.46e-01	0	60	104	68157440	52	12762
2026-01-26 05:32:42.15	348.93	16.45	-41.1	-51.9	3.8	8.46e-01	0	60	104	68157440	52	12805
2026-01-26 05:32:43.16	348.76	16.52	-41.4	-52.1	3.8	8.46e-01	0	60	104	68157440	52	13094
2026-01-26 05:32:44.17	348.60	16.60	-41.2	-52.0	3.8	8.46e-01	0	60	104	68157440	52	12895
2026-01-26 05:32:45.18	348.43	16.68	-41.3	-52.1	3.8	8.45e-01	0	61	104	68157440	52	13041
2026-01-26 05:32:46.19	348.26	16.75	-41.4	-52.2	3.8	8.47e-01	0	60	104	68157440	52	13158
2026-01-26 05:32:47.20	348.09	16.83	-41.5	-52.4	3.8	8.45e-01	0	60	104	68157440	52	13495
2026-01-26 05:32:48.21	347.92	16.90	-41.7	-52.5	3.8	8.45e-01	0	61	104	68157440	52	13694
2026-01-26 05:32:49.22	347.74	16.98	-41.7	-52.6	3.8	8.46e-01	0	60	104	68157440	53	13015
2026-01-26 05:32:50.23	347.57	17.06	-41.5	-52.4	3.8	8.47e-01	0	60	104	68157440	53	12666
2026-01-26 05:32:51.24	347.40	17.13	-41.7	-52.6	3.8	8.45e-01	0	61	104	68157440	53	13000
2026-01-26 05:32:52.25	347.22	17.21	-41.6	-52.5	3.8	8.47e-01	0	60	104	68157440	53	12909
2026-01-26 05:32:53.26	347.04	17.29	-41.7	-52.7	3.8	8.45e-01	0	60	104	68157440	53	13135
2026-01-26 05:32:54.27	346.87	17.36	-41.3	-52.1	3.8	8.47e-01	0	60	104	68157440	53	12335
2026-01-26 05:32:55.28	346.69	17.44	-41.6	-52.5	3.8	8.47e-01	0	61	104	68157440	53	12880
2026-01-26 05:32:56.29	346.51	17.51	-41.2	-51.9	3.8	8.46e-01	0	60	104	68157440	53	12084
2026-01-26 05:32:57.30	346.33	17.59	-41.1	-51.9	3.8	8.47e-01	0	60	104	68157440	53	12025
2026-01-26 05:32:58.31	346.15	17.67	-41.2	-52.0	3.8	8.46e-01	0	61	104	68157440	53	12120
2026-01-26 05:32:59.32	345.97	17.74	-41.4	-52.1	3.8	8.45e-01	0	61	104	68157440	53	12367
2026-01-26 05:33:00.33	345.79	17.82	-41.1	-51.8	3.8	8.46e-01	0	61	104	68157440	53	11908
2026-01-26 05:33:01.34	345.60	17.89	-41.2	-52.1	3.8	8.46e-01	0	60	104	68157440	53	12246
2026-01-26 05:33:02.35	345.42	17.97	-41.1	-51.9	3.8	8.46e-01	0	60	104	68157440	53	12042
2026-01-26 05:33:03.36	345.23	18.05	-41.2	-52.1	3.8	8.46e-01	0	60	104	68157440	53	12255
2026-01-26 05:33:04.37	345.05	18.12	-41.1	-51.8	3.8	8.45e-01	0	61	104	68157440	53	11944
2026-01-26 05:33:05.38	344.86	18.20	-41.3	-52.1	3.8	8.46e-01	0	60	104	68157440	53	12327
2026-01-26 05:33:06.39	344.67	18.27	-41.0	-51.7	3.8	8.46e-01	0	60	104	68157440	53	11782
2026-01-26 05:33:07.40	344.48	18.35	-41.1	-51.8	3.8	8.47e-01	0	61	104	68157440	53	11939
2026-01-26 05:33:08.41	344.29	18.42	-41.0	-51.7	3.8	8.47e-01	0	60	104	68157440	53	11783
2026-01-26 05:33:09.42	344.10	18.50	-41.0	-51.8	3.8	8.46e-01	0	61	104	68157440	53	11889
2026-01-26 05:33:10.43	343.91	18.57	-41.0	-51.7	3.8	8.45e-01	0	61	104	68157440	52	12452
2026-01-26 05:33:11.44	343.72	18.65	-41.0	-51.6	3.8	8.45e-01	0	61	104	68157440	52	12357
2026-01-26 05:33:12.45	343.52	18.72	-41.1	-51.8	3.8	8.46e-01	0	61	104	68157440	52	12655
2026-01-26 05:33:13.46	343.33	18.80	-41.0	-51.7	3.8	8.46e-01	0	61	104	68157440	52	12493
2026-01-26 05:33:14.47	343.13	18.87	-41.1	-51.8	3.8	8.47e-01	0	61	104	68157440	52	12565
2026-01-26 05:33:15.48	342.94	18.95	-41.1	-51.7	3.8	8.47e-01	0	61	104	68157440	52	12478
2026-01-26 05:33:16.49	342.74	19.02	-41.2	-51.7	3.8	8.46e-01	0	61	104	68157440	52	12501
2026-01-26 05:33:17.50	342.54	19.09	-41.0	-51.6	3.8	8.45e-01	0	61	104	68157440	52	12348
2026-01-26 05:33:18.51	342.34	19.17	-41.2	-51.9	3.8	8.47e-01	0	61	104	68157440	52	12719
2026-01-26 05:33:19.52	342.14	19.24	-41.3	-51.8	3.8	8.46e-01	0	61	104	68157440	52	12628
2026-01-26 05:33:20.53	341.94	19.32	-41.4	-52.1	3.8	8.47e-01	0	61	104	68157440	52	13012
2026-01-26 05:33:21.54	341.73	19.39	-41.3	-51.9	3.8	8.46e-01	0	61	104	68157440	52	12781
2026-01-26 05:33:22.55	341.53	19.46	-41.5	-52.1	3.8	8.46e-01	0	61	104	68157440	52	13089
2026-01-26 05:33:23.56	341.33	19.54	-41.6	-52.2	3.8	8.45e-01	0	61	104	68157440	52	13228
2026-01-26 05:33:24.57	341.12	19.61	-41.5	-51.8	3.8	8.46e-01	0	61	104	68157440	53	11820
2026-01-26 05:33:25.58	340.91	19.68	-41.5	-52.2	3.8	8.46e-01	0	61	104	68157440	53	12441
2026-01-26 05:33:26.59	340.71	19.75	-41.4	-52.0	3.8	8.47e-01	0	61	104	68157440	53	12104
2026-01-26 05:33:27.60	340.50	19.83	-41.1	-51.2	3.8	8.47e-01	0	61	104	68157440	53	11081
2026-01-26 05:33:28.61	340.29	19.90	-41.0	-50.4	3.8	8.46e-01	0	61	104	68157440	53	10143
2026-01-26 05:33:29.62	340.08	19.97	-40.9	-49.6	3.9	8.44e-01	0	61	104	68157440	52	9810
2026-01-26 05:33:30.64	339.86	20.04	-40.9	-49.0	4.0	8.42e-01	0	61	104	68157440	52	9160
2026-01-26 05:33:31.65	339.65	20.12	-40.7	-47.9	4.4	8.35e-01	0	61	0	68157440	52	8078
2026-01-26 05:33:32.66	339.44	20.19	-40.6	-47.0	4.8	8.02e-01	0	61	0	68157440	52	7246
2026-01-26 05:33:33.67	339.22	20.26	-40.5	-46.5	5.1	7.69e-01	0	61	0	68157440	52	6826
2026-01-26 05:33:34.68	339.01	20.33	-40.4	-45.5	6.0	4.36e-01	0	61	0	70254592	51	6477
2026-01-26 05:33:35.69	338.79	20.40	-40.4	-44.8	7.0	1.96e-01	0	61	0	76546048	51	5984
2026-01-26 05:33:36.70	338.57	20.47	-41.4	-45.9	7.0	1.18e-01	0	61	0	83886080	52	6414
2026-01-26 05:33:37.70	338.35	20.54	-37.1	-38.8	15.0	1.02e-05	0	61	0	92274688	43	4715
2026-01-26 05:33:38.72	338.13	20.61	-38.8	-40.8	13.6	3.08e-05	0	61	0	98566144	48	4445
2026-01-26 05:33:39.73	337.91	20.68	-37.9	-39.7	14.1	0.00e+00	0	61	0	105906176	45	4674
2026-01-26 05:33:40.74	337.69	20.75	-36.6	-38.1	15.9	1.26e-04	0	61	0	113246208	44	4102
2026-01-26 05:33:41.75	337.47	20.82	-35.9	-37.3	16.7	0.00e+00	0	61	0	120586240	42	4214
2026-01-26 05:33:42.76	337.24	20.89	-35.7	-36.9	17.1	0.00e+00	0	61	0	127926272	42	4050
2026-01-26 05:33:43.77	337.02	20.96	-35.9	-37.2	17.0	0.00e+00	0	61	0	135266304	42	4164
2026-01-26 05:33:44.78	336.79	21.03	-35.8	-37.0	17.2	0.00e+00	0	61	0	142606336	42	4095
2026-01-26 05:33:45.79	336.56	21.09	-35.7	-37.0	17.3	0.00e+00	0	61	0	149946368	42	4063
2026-01-26 05:33:46.81	336.33	21.16	-35.7	-37.0	17.2	0.00e+00	0	61	0	157286400	42	4083
2026-01-26 05:33:47.82	336.11	21.23	-35.8	-37.1	17.2	0.00e+00	0	61	0	164626432	42	4133
2026-01-26 05:33:48.83	335.88	21.30	-35.9	-37.1	17.2	0.00e+00	0	61	0	171966464	42	4140
2026-01-26 05:33:49.84	335.64	21.36	-35.8	-37.1	17.3	0.00e+00	0	61	0	179306496	42	4124
2026-01-26 05:33:50.85	335.41	21.43	-35.9	-37.2	17.2	0.00e+00	0	61	0	186646528	42	4179
2026-01-26 05:33:51.86	335.18	21.50	-36.0	-37.3	17.2	0.00e+00	0	61	0	193986560	42	4210
2026-01-26 05:33:52.87	334.94	21.56	-35.9	-37.2	17.3	0.00e+00	0	61	0	201326592	42	4172
2026-01-26 05:33:53.88	334.71	21.63	-35.8	-37.1	17.4	0.00e+00	0	61	0	208666624	42	4111
2026-01-26 05:33:54.89	334.47	21.70	-35.9	-37.2	17.4	0.00e+00	0	61	0	216006656	42	4153
2026-01-26 05:33:55.90	334.24	21.76	-35.7	-36.9	17.6	0.00e+00	0	61	0	223346688	42	4050
2026-01-26 05:33:56.91	334.00	21.82	-35.6	-36.8	17.8	0.00e+00	0	61	0	230686720	42	3969
2026-01-26 05:33:57.92	333.76	21.89	-35.6	-36.8	17.7	0.00e+00	0	61	0	238026752	42	3988
2026-01-26 05:33:58.93	333.52	21.95	-35.5	-36.7	17.9	0.00e+00	0	61	0	245366784	42	3944
2026-01-26 05:33:59.94	333.28	22.02	-35.4	-36.6	18.0	0.00e+00	0	61	0	251658240	41	4115
2026-01-26 05:34:00.95	333.03	22.08	-35.3	-36.4	18.1	0.00e+00	0	61	0	258998272	41	4042
2026-01-26 05:34:01.96	332.79	22.14	-35.2	-36.4	18.2	0.00e+00	0	61	0	267386880	41	4009
2026-01-26 05:34:02.97	332.55	22.20	-35.1	-36.3	18.3	0.00e+00	0	61	0	273678336	41	3978
2026-01-26 05:34:03.98	332.30	22.27	-35.1	-36.3	18.3	0.00e+00	0	61	0	281018368	41	3978
2026-01-26 05:34:04.99	332.06	22.33	-35.2	-36.3	18.3	0.00e+00	0	61	0	288358400	41	4002
2026-01-26 05:34:06.00	331.81	22.39	-35.2	-36.3	18.3	0.00e+00	0	61	0	295698432	41	3993
2026-01-26 05:34:07.01	331.56	22.45	-35.2	-36.4	18.2	0.00e+00	0	61	0	303038464	41	4024
2026-01-26 05:34:08.02	331.31	22.51	-35.3	-36.4	18.2	0.00e+00	0	61	0	310378496	41	4034
2026-01-26 05:34:09.03	331.06	22.57	-35.4	-36.5	18.1	0.00e+00	0	61	0	317718528	41	4094
2026-01-26 05:34:10.04	330.81	22.63	-35.5	-36.7	17.9	0.00e+00	0	61	0	325058560	41	4176
2026-01-26 05:34:11.05	330.56	22.69	-35.6	-36.9	17.8	0.00e+00	0	61	0	332398592	41	4248
2026-01-26 05:34:12.06	330.31	22.75	-35.7	-36.9	17.7	0.00e+00	0	61	0	339738624	41	4289
2026-01-26 05:34:13.07	330.05	22.80	-35.7	-37.0	17.7	0.00e+00	0	61	0	347078656	41	4298
2026-01-26 05:34:14.08	329.80	22.86	-35.7	-37.0	17.7	0.00e+00	0	61	0	354418688	41	4300
2026-01-26 05:34:15.09	329.54	22.92	-35.7	-36.9	17.8	0.00e+00	0	61	0	361758720	41	4258
2026-01-26 05:34:16.10	329.28	22.98	-35.7	-36.9	17.8	0.00e+00	0	61	0	369098752	41	4273
2026-01-26 05:34:17.11	329.03	23.03	-35.6	-36.8	17.9	0.00e+00	0	61	0	376438784	41	4224
2026-01-26 05:34:18.12	328.77	23.09	-35.5	-36.7	18.0	0.00e+00	0	61	0	383778816	41	4156
2026-01-26 05:34:19.13	328.51	23.14	-35.6	-36.8	17.8	0.00e+00	0	61	0	391118848	41	4223
2026-01-26 05:34:20.14	328.25	23.20	-35.4	-36.6	18.1	0.00e+00	0	61	0	397410304	41	4126
2026-01-26 05:34:21.15	327.99	23.25	-35.4	-36.6	18.1	0.00e+00	0	61	0	405798912	41	4137
2026-01-26 05:34:22.16	327.72	23.30	-35.3	-36.5	18.2	0.00e+00	0	61	0	413138944	41	4085
2026-01-26 05:34:23.18	327.46	23.36	-35.3	-36.5	18.2	0.00e+00	0	61	0	419430400	41	4084
2026-01-26 05:34:24.19	327.19	23.41	-35.4	-36.6	18.2	0.00e+00	0	61	0	426770432	41	4099
2026-01-26 05:34:25.20	326.93	23.46	-35.4	-36.6	18.1	0.00e+00	0	61	0	434110464	41	4122
2026-01-26 05:34:26.21	326.66	23.51	-35.4	-36.6	18.1	0.00e+00	0	61	0	441450496	41	4137
2026-01-26 05:34:27.22	326.39	23.56	-35.5	-36.7	18.1	0.00e+00	0	61	0	448790528	41	4147
2026-01-26 05:34:28.23	326.13	23.61	-35.4	-36.6	18.1	0.00e+00	0	61	0	456130560	41	4115
2026-01-26 05:34:29.24	325.86	23.66	-35.3	-36.5	18.2	0.00e+00	0	61	0	463470592	41	4081
2026-01-26 05:34:30.25	325.59	23.71	-35.3	-36.4	18.3	0.00e+00	0	61	0	470810624	41	4036
2026-01-26 05:34:31.26	325.32	23.76	-35.2	-36.4	18.3	0.00e+00	0	61	0	478150656	41	4037
2026-01-26 05:34:32.27	325.05	23.81	-35.3	-36.5	18.2	0.00e+00	0	61	0	485490688	41	4055
2026-01-26 05:34:33.28	324.78	23.85	-35.1	-36.2	18.5	0.00e+00	0	61	0	492830720	41	3938
2026-01-26 05:34:34.30	324.50	23.90	-35.1	-36.2	18.4	0.00e+00	0	61	0	500170752	41	3956
2026-01-26 05:34:35.31	324.23	23.95	-35.1	-36.3	18.4	0.00e+00	0	61	0	507510784	41	3975
2026-01-26 05:34:36.32	323.95	23.99	-35.0	-36.2	18.5	0.00e+00	0	61	0	514850816	41	3925
2026-01-26 05:34:37.33	323.68	24.04	-35.1	-36.2	18.4	0.00e+00	0	61	0	522190848	41	3953
2026-01-26 05:34:38.34	323.40	24.08	-35.1	-36.3	18.4	0.00e+00	0	61	0	529530880	41	3982
2026-01-26 05:34:39.35	323.12	24.12	-35.1	-36.3	18.4	0.00e+00	0	61	0	536870912	41	3976
2026-01-26 05:34:40.36	322.85	24.17	-35.2	-36.4	18.3	0.00e+00	0	61	0	544210944	41	4023
2026-01-26 05:34:41.37	322.57	24.21	-35.3	-36.4	18.3	0.00e+00	0	61	0	551550976	41	4043
2026-01-26 05:34:42.38	322.29	24.25	-35.3	-36.5	18.2	0.00e+00	0	61	0	558891008	41	4071
2026-01-26 05:34:43.39	322.01	24.29	-35.3	-36.5	18.2	0.00e+00	0	61	0	566231040	41	4082
2026-01-26 05:34:44.40	321.73	24.33	-35.3	-36.5	18.2	0.00e+00	0	61	0	572522496	41	4065
2026-01-26 05:34:45.41	321.45	24.37	-35.3	-36.5	18.2	0.00e+00	0	61	0	580911104	41	4082
2026-01-26 05:34:46.42	321.16	24.41	-35.3	-36.4	18.3	0.00e+00	0	61	0	588251136	41	4039
2026-01-26 05:34:47.43	320.88	24.45	-35.3	-36.5	18.2	0.00e+00	0	61	0	594542592	41	4082
2026-01-26 05:34:48.44	320.60	24.48	-35.4	-36.6	18.2	0.00e+00	0	61	0	601882624	41	4105
2026-01-26 05:34:49.46	320.31	24.52	-35.3	-36.5	18.2	0.00e+00	0	61	0	610271232	41	4070
2026-01-26 05:34:50.46	320.03	24.56	-35.4	-36.6	18.1	0.00e+00	0	61	0	616562688	41	4131
2026-01-26 05:34:51.47	319.74	24.59	-35.4	-36.6	18.1	0.00e+00	0	61	0	623902720	41	4099
2026-01-26 05:34:52.48	319.46	24.62	-35.2	-36.4	18.3	0.00e+00	0	62	0	631242752	41	4026
2026-01-26 05:34:53.49	319.17	24.66	-35.3	-36.4	18.3	0.00e+00	0	61	0	638582784	41	4042
2026-01-26 05:34:54.50	318.88	24.69	-35.2	-36.4	18.3	0.00e+00	0	61	0	645922816	41	4006
2026-01-26 05:34:55.51	318.60	24.72	-35.2	-36.3	18.3	0.00e+00	0	61	0	653262848	41	4001
2026-01-26 05:34:56.52	318.31	24.75	-35.2	-36.4	18.3	0.00e+00	0	61	0	660602880	41	4011
2026-01-26 05:34:57.53	318.02	24.78	-35.2	-36.4	18.3	0.00e+00	0	61	0	667942912	41	4010
2026-01-26 05:34:58.54	317.73	24.81	-35.2	-36.3	18.4	0.00e+00	0	61	0	675282944	41	3990
2026-01-26 05:34:59.55	317.44	24.84	-35.2	-36.3	18.4	0.00e+00	0	61	0	682622976	41	3991
2026-01-26 05:35:00.56	317.15	24.87	-35.2	-36.4	18.3	0.00e+00	0	61	0	689963008	41	4030
2026-01-26 05:35:01.57	316.86	24.90	-35.3	-36.4	18.3	0.00e+00	0	61	0	697303040	41	4033
2026-01-26 05:35:02.58	316.56	24.93	-35.3	-36.4	18.2	0.00e+00	0	61	0	704643072	41	4041
2026-01-26 05:35:03.59	316.27	24.95	-35.2	-36.4	18.3	0.00e+00	0	61	0	711983104	41	4025
2026-01-26 05:35:04.60	315.98	24.98	-35.2	-36.4	18.3	0.00e+00	0	61	0	719323136	41	4030
2026-01-26 05:35:05.61	315.69	25.00	-35.2	-36.4	18.3	0.00e+00	0	61	0	726663168	41	4005
2026-01-26 05:35:06.62	315.39	25.02	-35.3	-36.4	18.2	0.00e+00	0	61	0	734003200	41	4038
2026-01-26 05:35:07.63	315.10	25.05	-35.2	-36.4	18.3	0.00e+00	0	62	0	740294656	41	4025
2026-01-26 05:35:08.64	314.80	25.07	-35.1	-36.3	18.4	0.00e+00	0	62	0	747634688	41	3970
2026-01-26 05:35:09.65	314.51	25.09	-35.1	-36.3	18.4	0.00e+00	0	62	0	756023296	41	3979
2026-01-26 05:35:10.67	314.21	25.11	-35.2	-36.3	18.4	0.00e+00	0	61	0	762314752	41	3994
2026-01-26 05:35:11.68	313.92	25.13	-35.2	-36.4	18.3	0.00e+00	0	61	0	769654784	41	4031
2026-01-26 05:35:12.69	313.62	25.15	-35.2	-36.4	18.3	0.00e+00	0	62	0	776994816	41	4029
2026-01-26 05:35:13.70	313.32	25.17	-35.3	-36.5	18.2	0.00e+00	0	61	0	784334848	41	4052
2026-01-26 05:35:14.71	313.03	25.18	-35.3	-36.4	18.2	0.00e+00	0	62	0	791674880	41	4041
2026-01-26 05:35:15.72	312.73	25.20	-35.3	-36.4	18.3	0.00e+00	0	61	0	799014912	41	4044
2026-01-26 05:35:16.73	312.43	25.22	-35.2	-36.3	18.3	0.00e+00	0	61	0	806354944	41	4003
2026-01-26 05:35:17.74	312.13	25.23	-35.1	-36.3	18.4	0.00e+00	0	61	0	813694976	41	3969
2026-01-26 05:35:18.75	311.84	25.24	-35.1	-36.2	18.5	0.00e+00	0	61	0	821035008	41	3942
2026-01-26 05:35:19.76	311.54	25.26	-35.0	-36.1	18.6	0.00e+00	0	62	0	828375040	40	4124
2026-01-26 05:35:20.77	311.24	25.27	-34.9	-36.0	18.7	0.00e+00	0	62	0	835715072	40	4076
2026-01-26 05:35:21.78	310.94	25.28	-34.8	-35.9	18.7	0.00e+00	0	61	0	843055104	40	4042
2026-01-26 05:35:22.79	310.64	25.29	-34.9	-36.0	18.7	0.00e+00	0	62	0	850395136	40	4074
2026-01-26 05:35:23.80	310.34	25.30	-34.9	-36.1	18.6	0.00e+00	0	61	0	857735168	40	4099
2026-01-26 05:35:24.81	310.04	25.31	-35.0	-36.1	18.5	0.00e+00	0	62	0	865075200	40	4143
2026-01-26 05:35:25.82	309.74	25.32	-35.0	-36.1	18.6	0.00e+00	0	61	0	872415232	40	4113
2026-01-26 05:35:26.84	309.44	25.32	-35.0	-36.1	18.6	0.00e+00	0	61	0	879755264	40	4128
2026-01-26 05:35:27.85	309.14	25.33	-35.1	-36.2	18.5	0.00e+00	0	61	0	887095296	40	4173
2026-01-26 05:35:28.86	308.84	25.33	-35.1	-36.2	18.5	0.00e+00	0	62	0	894435328	40	4184
2026-01-26 05:35:29.87	308.54	25.34	-35.1	-36.3	18.4	0.00e+00	0	62	0	901775360	40	4202
2026-01-26 05:35:30.88	308.24	25.34	-35.2	-36.3	18.4	0.00e+00	0	61	0	909115392	40	4227
2026-01-26 05:35:31.89	307.94	25.34	-35.2	-36.3	18.3	0.00e+00	0	62	0	915406848	40	4236
2026-01-26 05:35:32.90	307.64	25.35	-35.1	-36.3	18.4	0.00e+00	0	61	0	922746880	40	4203
2026-01-26 05:35:33.91	307.34	25.35	-35.1	-36.3	18.4	0.00e+00	0	61	0	931135488	40	4207
2026-01-26 05:35:34.92	307.04	25.35	-35.1	-36.3	18.4	0.00e+00	0	61	0	937426944	40	4197
2026-01-26 05:35:35.93	306.74	25.35	-35.0	-36.2	18.5	0.00e+00	0	62	0	944766976	40	4165
2026-01-26 05:35:36.94	306.44	25.35	-35.1	-36.3	18.4	0.00e+00	0	61	0	952107008	40	4208
2026-01-26 05:35:37.95	306.14	25.34	-35.2	-36.4	18.3	0.00e+00	0	61	0	959447040	40	4254
2026-01-26 05:35:38.96	305.84	25.34	-35.2	-36.3	18.4	0.00e+00	0	62	0	966787072	40	4231
2026-01-26 05:35:39.97	305.54	25.34	-35.2	-36.4	18.3	0.00e+00	0	61	0	974127104	40	4245
2026-01-26 05:35:40.98	305.24	25.33	-35.2	-36.3	18.3	0.00e+00	0	61	0	981467136	40	4233
2026-01-26 05:35:42.00	304.94	25.32	-35.2	-36.4	18.4	0.00e+00	0	61	0	988807168	40	4243
2026-01-26 05:35:43.01	304.64	25.32	-35.2	-36.3	18.4	0.00e+00	0	62	0	996147200	40	4239
2026-01-26 05:35:44.02	304.34	25.31	-35.2	-36.3	18.4	0.00e+00	0	62	0	1003487232	40	4234
2026-01-26 05:35:45.03	304.04	25.30	-35.1	-36.3	18.4	0.00e+00	0	61	0	1010827264	40	4211
2026-01-26 05:35:46.04	303.74	25.29	-35.1	-36.3	18.4	0.00e+00	0	62	0	1018167296	40	4199
2026-01-26 05:35:47.05	303.44	25.28	-35.1	-36.3	18.4	0.00e+00	0	61	0	1025507328	40	4207
2026-01-26 05:35:48.06	303.14	25.27	-35.1	-36.3	18.4	0.00e+00	0	61	0	1032847360	40	4202
2026-01-26 05:35:49.07	302.84	25.26	-35.1	-36.3	18.4	0.00e+00	0	62	0	1040187392	40	4221
2026-01-26 05:35:50.08	302.54	25.25	-35.1	-36.3	18.4	0.00e+00	0	61	0	1047527424	40	4223
2026-01-26 05:35:51.09	302.25	25.23	-35.1	-36.2	18.5	0.00e+00	0	62	0	1054867456	40	4193
2026-01-26 05:35:52.10	301.95	25.22	-35.1	-36.3	18.4	0.00e+00	0	62	0	1061158912	40	4205
2026-01-26 05:35:53.11	301.65	25.20	-35.1	-36.2	18.5	0.00e+00	0	61	0	1069547520	40	4178
2026-01-26 05:35:54.12	301.35	25.19	-35.1	-36.2	18.5	0.00e+00	0	62	0	1076887552	40	4183
2026-01-26 05:35:55.13	301.06	25.17	-35.1	-36.2	18.5	0.00e+00	0	61	0	1083179008	40	4182
2026-01-26 05:35:56.14	300.76	25.15	-35.1	-36.2	18.5	0.00e+00	0	61	0	1090519040	40	4181
2026-01-26 05:35:57.15	300.46	25.13	-35.0	-36.2	18.5	0.00e+00	0	62	0	1098907648	40	4151
2026-01-26 05:35:58.16	300.17	25.11	-35.1	-36.2	18.5	0.00e+00	0	61	0	1105199104	40	4181
2026-01-26 05:35:59.17	299.87	25.09	-35.0	-36.2	18.5	0.00e+00	0	61	0	1112539136	40	4154
2026-01-26 05:36:00.18	299.58	25.07	-35.1	-36.2	18.5	0.00e+00	0	61	0	1119879168	40	4166
2026-01-26 05:36:01.19	299.28	25.05	-35.1	-36.2	18.5	0.00e+00	0	62	0	1127219200	40	4173
2026-01-26 05:36:02.21	298.98	25.03	-35.1	-36.3	18.4	0.00e+00	0	62	0	1134559232	40	4203
2026-01-26 05:36:03.21	298.69	25.00	-35.1	-36.2	18.5	0.00e+00	0	62	0	1141899264	40	4175
2026-01-26 05:36:04.23	298.39	24.98	-35.0	-36.1	18.5	0.00e+00	0	62	0	1149239296	40	4143
2026-01-26 05:36:05.24	298.10	24.96	-35.0	-36.1	18.5	0.00e+00	0	61	0	1156579328	40	4136
2026-01-26 05:36:06.25	297.81	24.93	-35.0	-36.1	18.6	0.00e+00	0	61	0	1163919360	40	4137
2026-01-26 05:36:07.26	297.52	24.90	-35.0	-36.1	18.6	0.00e+00	0	61	0	1171259392	40	4126
2026-01-26 05:36:08.27	297.22	24.88	-34.9	-36.0	18.7	0.00e+00	0	62	0	1178599424	40	4094
2026-01-26 05:36:09.28	296.93	24.85	-34.9	-36.1	18.6	0.00e+00	0	62	0	1185939456	40	4108
2026-01-26 05:36:10.29	296.64	24.82	-34.9	-36.0	18.6	0.00e+00	0	62	0	1193279488	40	4091
2026-01-26 05:36:11.29	296.36	24.79	-34.9	-36.0	18.7	0.00e+00	0	62	0	1200619520	40	4080
2026-01-26 05:36:12.30	296.07	24.76	-35.0	-36.2	18.5	0.00e+00	0	62	0	1207959552	40	4159
2026-01-26 05:36:13.31	295.78	24.73	-35.0	-36.2	18.5	0.00e+00	0	62	0	1215299584	40	4152
2026-01-26 05:36:14.32	295.49	24.70	-35.1	-36.3	18.4	0.00e+00	0	62	0	1222639616	40	4216
2026-01-26 05:36:15.33	295.20	24.66	-35.3	-36.4	18.3	0.00e+00	0	62	0	1229979648	40	4286
2026-01-26 05:36:16.34	294.91	24.63	-35.2	-36.4	18.3	0.00e+00	0	62	0	1236271104	40	4276
2026-01-26 05:36:17.35	294.63	24.59	-35.2	-36.4	18.3	0.00e+00	0	62	0	1244659712	40	4245
2026-01-26 05:36:18.36	294.34	24.56	-35.1	-36.3	18.4	0.00e+00	0	62	0	1251999744	40	4208
2026-01-26 05:36:19.37	294.05	24.52	-35.2	-36.3	18.4	0.00e+00	0	62	0	1258291200	40	4225
2026-01-26 05:36:20.38	293.77	24.49	-35.1	-36.2	18.5	0.00e+00	0	62	0	1265631232	40	4172
2026-01-26 05:36:21.39	293.49	24.45	-35.0	-36.2	18.5	0.00e+00	0	62	0	1272971264	40	4151
2026-01-26 05:36:22.40	293.20	24.41	-35.1	-36.2	18.4	0.00e+00	0	62	0	1280311296	40	4190
2026-01-26 05:36:23.41	292.92	24.37	-35.1	-36.2	18.4	0.00e+00	0	61	0	1287651328	40	4191
2026-01-26 05:36:24.43	292.64	24.33	-35.2	-36.4	18.3	0.00e+00	0	62	0	1294991360	40	4244
2026-01-26 05:36:25.44	292.35	24.29	-35.2	-36.4	18.3	0.00e+00	0	62	0	1302331392	40	4254
2026-01-26 05:36:26.45	292.07	24.25	-35.3	-36.5	18.2	0.00e+00	0	61	0	1309671424	40	4303
2026-01-26 05:36:27.46	291.79	24.21	-35.2	-36.4	18.3	0.00e+00	0	61	0	1317011456	40	4256
2026-01-26 05:36:28.47	291.51	24.17	-35.2	-36.3	18.4	0.00e+00	0	62	0	1324351488	40	4225
2026-01-26 05:36:29.48	291.24	24.13	-35.2	-36.4	18.3	0.00e+00	0	62	0	1331691520	40	4261
2026-01-26 05:36:30.49	290.96	24.08	-35.1	-36.3	18.4	0.00e+00	0	62	0	1339031552	40	4218
2026-01-26 05:36:31.50	290.68	24.04	-35.2	-36.3	18.4	0.00e+00	0	62	0	1346371584	40	4236
2026-01-26 05:36:32.51	290.40	24.00	-35.2	-36.3	18.4	0.00e+00	0	62	0	1353711616	40	4226
2026-01-26 05:36:33.52	290.13	23.95	-35.1	-36.2	18.4	0.00e+00	0	62	0	1361051648	40	4190
2026-01-26 05:36:34.53	289.86	23.91	-35.3	-36.5	18.2	0.00e+00	0	62	0	1368391680	40	4302
2026-01-26 05:36:35.54	289.58	23.86	-35.3	-36.5	18.2	0.00e+00	0	62	0	1375731712	40	4299
2026-01-26 05:36:36.55	289.31	23.81	-35.4	-36.6	18.1	0.00e+00	0	62	0	1382023168	40	4365
2026-01-26 05:36:37.56	289.04	23.76	-35.5	-36.7	18.0	0.00e+00	0	62	0	1390411776	40	4393
2026-01-26 05:36:38.57	288.77	23.72	-35.3	-36.4	18.2	0.00e+00	0	62	0	1397751808	40	4283
2026-01-26 05:36:39.58	288.49	23.67	-35.2	-36.4	18.3	0.00e+00	0	62	0	1404043264	40	4260
2026-01-26 05:36:40.59	288.23	23.62	-35.1	-36.3	18.4	0.00e+00	0	62	0	1411383296	40	4217
2026-01-26 05:36:41.60	287.96	23.57	-35.1	-36.2	18.4	0.00e+00	0	62	0	1419771904	40	4180
2026-01-26 05:36:42.62	287.69	23.52	-35.1	-36.2	18.4	0.00e+00	0	62	0	1426063360	40	4188
2026-01-26 05:36:43.63	287.42	23.46	-35.1	-36.2	18.3	0.00e+00	0	62	0	1433403392	40	4183
2026-01-26 05:36:44.64	287.15	23.41	-35.2	-36.4	18.3	0.00e+00	0	62	0	1440743424	40	4250
2026-01-26 05:36:45.65	286.89	23.36	-35.2	-36.4	18.2	0.00e+00	0	61	0	1448083456	40	4269
2026-01-26 05:36:46.66	286.62	23.31	-35.2	-36.4	18.3	0.00e+00	0	62	0	1455423488	40	4268
2026-01-26 05:36:47.67	286.36	23.25	-35.2	-36.3	18.3	0.00e+00	0	62	0	1462763520	40	4229
2026-01-26 05:36:48.68	286.10	23.20	-35.1	-36.3	18.4	0.00e+00	0	62	0	1470103552	40	4201
2026-01-26 05:36:49.69	285.84	23.15	-35.1	-36.3	18.4	0.00e+00	0	62	0	1477443584	40	4206
2026-01-26 05:36:50.71	285.57	23.09	-35.1	-36.2	18.4	0.00e+00	0	61	0	1484783616	40	4189
2026-01-26 05:36:51.71	285.32	23.03	-35.1	-36.3	18.4	0.00e+00	0	62	0	1492123648	40	4210
2026-01-26 05:36:52.72	285.06	22.98	-35.2	-36.4	18.2	0.00e+00	0	61	0	1499463680	40	4273
2026-01-26 05:36:53.73	284.80	22.92	-35.3	-36.5	18.1	0.00e+00	0	62	0	1506803712	40	4303
2026-01-26 05:36:54.75	284.54	22.86	-35.4	-36.6	18.1	0.00e+00	0	62	0	1514143744	40	4366
2026-01-26 05:36:55.76	284.28	22.81	-35.5	-36.7	18.0	0.00e+00	0	62	0	1521483776	40	4405
2026-01-26 05:36:56.77	284.03	22.75	-35.4	-36.6	18.0	0.00e+00	0	62	0	1528823808	40	4385
2026-01-26 05:36:57.78	283.77	22.69	-35.4	-36.6	18.0	0.00e+00	0	62	0	1536163840	40	4354
2026-01-26 05:36:58.79	283.52	22.63	-35.4	-36.6	18.1	0.00e+00	0	62	0	1543503872	40	4344
2026-01-26 05:36:59.80	283.27	22.57	-35.3	-36.5	18.1	0.00e+00	0	62	0	1550843904	40	4308
2026-01-26 05:37:00.81	283.02	22.51	-35.1	-36.3	18.3	0.00e+00	0	61	0	1558183936	40	4221
2026-01-26 05:37:01.82	282.77	22.45	-35.1	-36.3	18.3	0.00e+00	0	62	0	1565523968	40	4215
2026-01-26 05:37:02.83	282.52	22.39	-35.1	-36.3	18.3	0.00e+00	0	62	0	1572864000	40	4218
2026-01-26 05:37:03.84	282.27	22.33	-35.1	-36.3	18.3	0.00e+00	0	62	0	1579155456	40	4222
2026-01-26 05:37:04.85	282.02	22.27	-35.2	-36.4	18.2	0.00e+00	0	62	0	1586495488	40	4268
2026-01-26 05:37:05.86	281.78	22.21	-35.2	-36.4	18.2	0.00e+00	0	62	0	1594884096	40	4261
2026-01-26 05:37:06.87	281.53	22.14	-35.3	-36.5	18.2	0.00e+00	0	62	0	1601175552	40	4308
2026-01-26 05:37:07.88	281.29	22.08	-35.3	-36.5	18.1	0.00e+00	0	62	0	1608515584	40	4298
2026-01-26 05:37:08.89	281.04	22.02	-35.2	-36.4	18.2	0.00e+00	0	62	0	1615855616	40	4273
2026-01-26 05:37:09.90	280.80	21.95	-35.3	-36.5	18.1	0.00e+00	0	62	0	1623195648	40	4315
2026-01-26 05:37:10.91	280.56	21.89	-35.4	-36.6	18.0	0.00e+00	0	62	0	1630535680	40	4355
2026-01-26 05:37:11.92	280.32	21.83	-35.3	-36.5	18.1	0.00e+00	0	62	0	1637875712	40	4332
2026-01-26 05:37:12.93	280.08	21.76	-35.4	-36.6	18.0	0.00e+00	0	62	0	1645215744	40	4357
2026-01-26 05:37:13.94	279.84	21.70	-35.3	-36.5	18.1	0.00e+00	0	62	0	1652555776	40	4318
2026-01-26 05:37:14.95	279.61	21.63	-35.3	-36.5	18.1	0.00e+00	0	62	0	1659895808	40	4300
2026-01-26 05:37:15.96	279.37	21.56	-35.2	-36.4	18.2	0.00e+00	0	62	0	1667235840	40	4265
2026-01-26 05:37:16.97	279.13	21.50	-35.3	-36.4	18.2	0.00e+00	0	62	0	1674575872	40	4281
2026-01-26 05:37:17.98	278.90	21.43	-35.2	-36.4	18.2	0.00e+00	0	62	0	1681915904	40	4243
2026-01-26 05:37:18.99	278.67	21.36	-35.3	-36.4	18.2	0.00e+00	0	62	0	1689255936	40	4288
2026-01-26 05:37:20.00	278.43	21.30	-35.3	-36.5	18.1	0.00e+00	0	62	0	1696595968	40	4296
2026-01-26 05:37:21.01	278.20	21.23	-35.4	-36.5	18.1	0.00e+00	0	62	0	1703936000	40	4339
2026-01-26 05:37:22.02	277.97	21.16	-35.3	-36.5	18.1	0.00e+00	0	62	0	1711276032	40	4334
2026-01-26 05:37:23.03	277.74	21.09	-35.4	-36.6	18.0	0.00e+00	0	61	0	1718616064	40	4366
2026-01-26 05:37:24.04	277.52	21.02	-35.4	-36.6	17.9	0.00e+00	0	62	0	1724907520	40	4391
2026-01-26 05:37:25.05	277.29	20.96	-35.4	-36.6	18.0	0.00e+00	0	62	0	1732247552	40	4374
2026-01-26 05:37:26.06	277.06	20.89	-35.4	-36.6	18.0	0.00e+00	0	62	0	1740636160	40	4368
2026-01-26 05:37:27.07	276.84	20.82	-35.4	-36.6	18.0	0.00e+00	0	62	0	1746927616	40	4362
2026-01-26 05:37:28.08	276.61	20.75	-35.5	-36.7	17.9	0.00e+00	0	62	0	1754267648	40	4405
2026-01-26 05:37:29.09	276.39	20.68	-35.5	-36.7	17.9	0.00e+00	0	62	0	1761607680	40	4404
2026-01-26 05:37:30.10	276.17	20.61	-35.6	-36.8	17.8	0.00e+00	0	62	0	1768947712	40	4453
2026-01-26 05:37:31.11	275.95	20.54	-35.6	-36.9	17.7	0.00e+00	0	62	0	1776287744	40	4502
2026-01-26 05:37:32.12	275.73	20.47	-35.6	-36.8	17.8	0.00e+00	0	62	0	1783627776	40	4481
2026-01-26 05:37:33.13	275.51	20.40	-35.6	-36.8	17.7	0.00e+00	0	62	0	1790967808	40	4491
2026-01-26 05:37:34.14	275.29	20.33	-35.6	-36.8	17.8	0.00e+00	0	62	0	1798307840	40	4445
2026-01-26 05:37:35.15	275.07	20.25	-35.6	-36.8	17.7	0.00e+00	0	62	0	1805647872	40	4485
2026-01-26 05:37:36.17	274.86	20.18	-35.6	-36.8	17.7	0.00e+00	0	62	0	1812987904	40	4480
2026-01-26 05:37:37.18	274.64	20.11	-35.5	-36.7	17.9	0.00e+00	0	62	0	1820327936	40	4421
2026-01-26 05:37:38.19	274.43	20.04	-35.6	-36.9	17.7	0.00e+00	0	62	0	1827667968	40	4500
2026-01-26 05:37:39.20	274.21	19.97	-35.7	-36.9	17.6	0.00e+00	0	62	0	1835008000	40	4528
2026-01-26 05:37:40.21	274.00	19.89	-35.7	-37.0	17.6	0.00e+00	0	62	0	1842348032	41	4294
2026-01-26 05:37:41.21	273.79	19.82	-35.8	-37.1	17.5	0.00e+00	0	62	0	1849688064	41	4351
2026-01-26 05:37:42.22	273.58	19.75	-35.9	-37.1	17.4	0.00e+00	0	62	0	1857028096	41	4386
2026-01-26 05:37:43.23	273.37	19.68	-35.8	-37.1	17.4	0.00e+00	0	62	0	1864368128	41	4370
2026-01-26 05:37:44.24	273.17	19.60	-35.9	-37.1	17.4	0.00e+00	0	62	0	1871708160	41	4384
2026-01-26 05:37:45.25	272.96	19.53	-35.8	-37.0	17.5	0.00e+00	0	62	0	1879048192	41	4340
2026-01-26 05:37:46.26	272.75	19.46	-35.7	-36.9	17.6	0.00e+00	0	62	0	1886388224	41	4276
2026-01-26 05:37:47.27	272.55	19.38	-35.8	-37.0	17.5	0.00e+00	0	62	0	1893728256	41	4314
2026-01-26 05:37:48.28	272.34	19.31	-35.8	-37.0	17.5	0.00e+00	0	62	0	1900019712	41	4325
2026-01-26 05:37:49.30	272.14	19.23	-35.8	-37.0	17.5	0.00e+00	0	62	0	1907359744	41	4327
2026-01-26 05:37:50.31	271.94	19.16	-35.8	-37.0	17.5	0.00e+00	0	62	0	1915748352	41	4335
2026-01-26 05:37:51.32	271.74	19.09	-35.8	-37.0	17.5	0.00e+00	0	62	0	1922039808	41	4323
2026-01-26 05:37:52.33	271.54	19.01	-35.8	-37.0	17.5	0.00e+00	0	62	0	1929379840	41	4338
2026-01-26 05:37:53.34	271.34	18.94	-35.8	-37.0	17.5	0.00e+00	0	62	0	1936719872	41	4333
2026-01-26 05:37:54.35	271.14	18.86	-35.7	-37.0	17.5	0.00e+00	0	62	0	1944059904	41	4306
2026-01-26 05:37:55.36	270.94	18.79	-35.8	-37.0	17.5	0.00e+00	0	62	0	1951399936	41	4336
2026-01-26 05:37:56.37	270.75	18.71	-35.9	-37.1	17.4	0.00e+00	0	62	0	1958739968	41	4376
2026-01-26 05:37:57.38	270.55	18.64	-35.9	-37.2	17.3	0.00e+00	0	62	0	1966080000	41	4430
2026-01-26 05:37:58.39	270.36	18.56	-35.9	-37.2	17.3	0.00e+00	0	62	0	1973420032	41	4412
2026-01-26 05:37:59.40	270.16	18.49	-36.0	-37.3	17.2	0.00e+00	0	62	0	1980760064	41	4454
2026-01-26 05:38:00.41	269.97	18.41	-36.0	-37.3	17.2	0.00e+00	0	62	0	1988100096	41	4483
2026-01-26 05:38:01.42	269.78	18.34	-36.0	-37.3	17.2	0.00e+00	0	62	0	1995440128	41	4470
2026-01-26 05:38:02.43	269.59	18.26	-36.0	-37.3	17.2	0.00e+00	0	62	0	2002780160	41	4470
2026-01-26 05:38:03.44	269.40	18.18	-36.0	-37.3	17.2	0.00e+00	0	62	0	2010120192	41	4478
2026-01-26 05:38:04.45	269.21	18.11	-36.0	-37.3	17.2	0.00e+00	0	62	0	2017460224	41	4461
2026-01-26 05:38:05.46	269.03	18.03	-36.0	-37.2	17.2	0.00e+00	0	62	0	2024800256	41	4434
2026-01-26 05:38:06.48	268.84	17.96	-35.9	-37.2	17.2	0.00e+00	0	62	0	2032140288	41	4417
2026-01-26 05:38:07.49	268.65	17.88	-36.0	-37.2	17.3	0.00e+00	0	62	0	2039480320	41	4440
2026-01-26 05:38:08.50	268.47	17.80	-35.9	-37.2	17.3	0.00e+00	0	62	0	2045771776	41	4420
2026-01-26 05:38:09.51	268.28	17.73	-36.0	-37.3	17.2	0.00e+00	0	62	0	2054160384	41	4477
2026-01-26 05:38:10.52	268.10	17.65	-36.1	-37.4	17.1	0.00e+00	0	62	0	2061500416	41	4524
2026-01-26 05:38:11.53	267.92	17.58	-36.2	-37.6	16.9	0.00e+00	0	62	0	2067791872	42	4356
2026-01-26 05:38:12.54	267.74	17.50	-36.3	-37.7	16.8	0.00e+00	0	62	0	2075131904	42	4393
2026-01-26 05:38:13.55	267.56	17.42	-36.4	-37.7	16.8	0.00e+00	0	62	0	2082471936	42	4427
2026-01-26 05:38:14.56	267.38	17.35	-36.4	-37.8	16.7	0.00e+00	0	61	0	2089811968	42	4444
2026-01-26 05:38:15.57	267.20	17.27	-36.4	-37.8	16.7	0.00e+00	0	62	0	2097152000	42	4445
2026-01-26 05:38:16.58	267.02	17.19	-36.5	-37.8	16.7	0.00e+00	0	61	0	2104492032	42	4477
2026-01-26 05:38:17.58	266.85	17.12	-36.4	-37.8	16.7	0.00e+00	0	62	0	2111832064	42	4462
2026-01-26 05:38:18.59	266.67	17.04	-36.4	-37.8	16.7	0.00e+00	0	62	0	2119172096	42	4450
2026-01-26 05:38:19.60	266.50	16.96	-36.5	-37.8	16.6	0.00e+00	0	62	0	2126512128	42	4487
2026-01-26 05:38:20.61	266.33	16.89	-36.5	-37.9	16.6	0.00e+00	0	62	0	2133852160	42	4519
2026-01-26 05:38:21.63	266.15	16.81	-36.6	-38.0	16.5	0.00e+00	0	62	0	2141192192	42	4576
2026-01-26 05:38:22.64	265.98	16.73	-36.6	-38.1	16.4	0.00e+00	0	62	0	2148532224	42	4602
2026-01-26 05:38:23.65	265.81	16.66	-36.7	-38.1	16.4	0.00e+00	0	62	0	2155872256	42	4630
2026-01-26 05:38:24.66	265.64	16.58	-36.7	-38.1	16.3	0.00e+00	0	62	0	2163212288	43	4389
2026-01-26 05:38:25.67	265.47	16.50	-36.7	-38.1	16.3	0.00e+00	0	62	0	2170552320	43	4383
2026-01-26 05:38:26.68	265.30	16.43	-36.7	-38.1	16.4	0.00e+00	0	62	0	2177892352	43	4365
2026-01-26 05:38:27.69	265.13	16.35	-36.7	-38.1	16.4	0.00e+00	0	62	0	2185232384	43	4354
2026-01-26 05:38:28.70	264.97	16.27	-36.6	-38.0	16.5	0.00e+00	0	62	0	2192572416	43	4304
2026-01-26 05:38:29.71	264.80	16.20	-36.6	-38.0	16.4	0.00e+00	0	62	0	2199912448	43	4325
2026-01-26 05:38:30.72	264.64	16.12	-36.6	-38.0	16.4	0.00e+00	0	62	0	2207252480	43	4323
2026-01-26 05:38:31.73	264.47	16.04	-36.6	-38.0	16.4	0.00e+00	0	62	0	2214592512	43	4327
2026-01-26 05:38:32.74	264.31	15.97	-36.7	-38.1	16.3	0.00e+00	0	62	0	2220883968	43	4359
2026-01-26 05:38:33.75	264.15	15.89	-36.7	-38.1	16.3	0.00e+00	0	62	0	2229272576	43	4373
2026-01-26 05:38:34.76	263.99	15.81	-36.7	-38.2	16.2	0.00e+00	0	62	0	2236612608	43	4400
2026-01-26 05:38:35.77	263.82	15.73	-36.8	-38.2	16.2	0.00e+00	0	62	0	2242904064	43	4418
2026-01-26 05:38:36.78	263.66	15.66	-36.8	-38.3	16.2	0.00e+00	0	62	0	2250244096	43	4443
2026-01-26 05:38:37.79	263.51	15.58	-36.7	-38.1	16.3	0.00e+00	0	62	0	2257584128	43	4370
2026-01-26 05:38:38.80	263.35	15.50	-36.7	-38.1	16.3	0.00e+00	0	62	0	2264924160	43	4382
2026-01-26 05:38:39.82	263.19	15.43	-36.7	-38.1	16.3	0.00e+00	0	62	0	2272264192	43	4359
2026-01-26 05:38:40.83	263.03	15.35	-36.7	-38.2	16.2	0.00e+00	0	62	0	2279604224	43	4398
2026-01-26 05:38:41.84	262.88	15.27	-36.8	-38.3	16.1	0.00e+00	0	62	0	2286944256	43	4466
2026-01-26 05:38:42.85	262.72	15.20	-36.8	-38.2	16.2	0.00e+00	0	62	0	2294284288	43	4410
2026-01-26 05:38:43.86	262.57	15.12	-36.8	-38.3	16.1	0.00e+00	0	62	0	2301624320	43	4465
2026-01-26 05:38:44.87	262.41	15.04	-36.9	-38.3	16.0	0.00e+00	0	62	0	2308964352	43	4488
2026-01-26 05:38:45.88	262.26	14.97	-36.9	-38.4	16.0	0.00e+00	0	62	0	2316304384	43	4518
2026-01-26 05:38:46.89	262.11	14.89	-37.1	-38.6	15.8	0.00e+00	0	62	0	2323644416	43	4605
2026-01-26 05:38:47.90	261.96	14.81	-37.1	-38.5	15.8	0.00e+00	0	62	0	2330984448	43	4594
2026-01-26 05:38:48.91	261.81	14.74	-37.2	-38.7	15.7	0.00e+00	0	62	0	2338324480	43	4690
2026-01-26 05:38:49.92	261.66	14.66	-37.1	-38.7	15.7	0.00e+00	0	62	0	2345664512	43	4654
2026-01-26 05:38:50.93	261.51	14.59	-37.2	-38.7	15.7	0.00e+00	0	62	0	2353004544	43	4675
2026-01-26 05:38:51.94	261.36	14.51	-37.1	-38.7	15.7	0.00e+00	0	62	0	2360344576	43	4654
2026-01-26 05:38:52.95	261.22	14.43	-37.1	-38.7	15.7	0.00e+00	0	62	0	2366636032	43	4656
2026-01-26 05:38:53.96	261.07	14.36	-37.1	-38.6	15.7	0.00e+00	0	62	0	2375024640	43	4636
2026-01-26 05:38:54.97	260.92	14.28	-37.2	-38.7	15.7	0.00e+00	0	62	0	2382364672	43	4666
2026-01-26 05:38:55.98	260.78	14.20	-37.1	-38.6	15.8	0.00e+00	0	62	0	2388656128	43	4612
2026-01-26 05:38:56.99	260.64	14.13	-37.1	-38.5	15.8	0.00e+00	0	62	0	2395996160	43	4597
2026-01-26 05:38:58.00	260.49	14.05	-37.1	-38.6	15.8	0.00e+00	0	62	0	2403336192	43	4615
2026-01-26 05:38:59.01	260.35	13.98	-37.2	-38.7	15.6	0.00e+00	0	62	0	2410676224	43	4666
2026-01-26 05:39:00.02	260.21	13.90	-37.1	-38.7	15.6	0.00e+00	0	62	0	2418016256	43	4655
2026-01-26 05:39:01.03	260.07	13.83	-37.1	-38.6	15.7	0.00e+00	0	62	0	2425356288	43	4614
2026-01-26 05:39:02.03	259.93	13.75	-37.2	-38.7	15.6	0.00e+00	0	62	0	2432696320	43	4670
2026-01-26 05:39:03.05	259.79	13.67	-37.2	-38.7	15.6	0.00e+00	0	62	0	2440036352	43	4683
2026-01-26 05:39:04.05	259.65	13.60	-37.4	-38.9	15.6	0.00e+00	0	62	0	2447376384	44	4515
2026-01-26 05:39:05.06	259.51	13.52	-37.4	-38.9	15.6	0.00e+00	0	62	0	2454716416	44	4519
2026-01-26 05:39:06.08	259.37	13.45	-37.4	-39.0	15.5	0.00e+00	0	62	0	2462056448	44	4560
2026-01-26 05:39:07.08	259.24	13.37	-37.4	-39.0	15.5	0.00e+00	0	62	0	2469396480	44	4562
2026-01-26 05:39:08.10	259.10	13.30	-37.5	-39.1	15.4	0.00e+00	0	62	0	2476736512	44	4603
2026-01-26 05:39:09.11	258.96	13.22	-37.5	-39.1	15.3	0.00e+00	0	62	0	2484076544	44	4619
2026-01-26 05:39:10.11	258.83	13.15	-37.6	-39.2	15.2	0.00e+00	0	62	0	2491416576	44	4699
2026-01-26 05:39:11.13	258.70	13.07	-37.6	-39.2	15.2	0.00e+00	0	62	0	2498756608	44	4696
2026-01-26 05:39:12.14	258.56	13.00	-37.8	-39.4	15.0	0.00e+00	0	62	0	2506096640	45	4532
2026-01-26 05:39:13.15	258.43	12.92	-37.8	-39.4	15.0	0.00e+00	0	62	0	2513436672	45	4534
2026-01-26 05:39:14.16	258.30	12.85	-37.9	-39.6	14.8	0.00e+00	0	62	0	2520776704	45	4607
2026-01-26 05:39:15.17	258.17	12.77	-38.0	-39.7	14.7	0.00e+00	0	62	0	2528116736	45	4660
2026-01-26 05:39:16.18	258.04	12.70	-38.0	-39.6	14.7	0.00e+00	0	62	0	2535456768	45	4651
2026-01-26 05:39:17.19	257.91	12.62	-38.0	-39.7	14.7	0.00e+00	0	62	0	2541748224	45	4655
2026-01-26 05:39:18.20	257.78	12.55	-37.8	-39.5	14.9	0.00e+00	0	62	0	2550136832	45	4553
2026-01-26 05:39:19.21	257.65	12.47	-37.7	-39.4	15.0	0.00e+00	0	62	0	2557476864	45	4494
2026-01-26 05:39:20.22	257.52	12.40	-37.7	-39.3	15.1	0.00e+00	0	62	0	2563768320	45	4456
2026-01-26 05:39:21.23	257.39	12.33	-37.6	-39.1	15.2	0.00e+00	0	62	0	2571108352	45	4383
2026-01-26 05:39:22.25	257.27	12.25	-37.5	-39.0	15.3	0.00e+00	0	62	0	2578448384	45	4335
2026-01-26 05:39:23.26	257.14	12.18	-37.4	-38.9	15.4	0.00e+00	0	62	0	2585788416	45	4275
2026-01-26 05:39:24.27	257.01	12.10	-37.4	-39.0	15.3	0.00e+00	0	62	0	2593128448	45	4323
2026-01-26 05:39:25.28	256.89	12.03	-37.5	-39.1	15.3	0.00e+00	0	62	0	2600468480	45	4353
2026-01-26 05:39:26.29	256.77	11.96	-37.6	-39.2	15.1	0.00e+00	0	62	0	2607808512	45	4424
2026-01-26 05:39:27.30	256.64	11.88	-37.7	-39.3	15.0	0.00e+00	0	62	0	2615148544	45	4490
2026-01-26 05:39:28.31	256.52	11.81	-37.9	-39.5	14.8	0.00e+00	0	62	0	2622488576	45	4589
2026-01-26 05:39:29.32	256.40	11.73	-38.0	-39.7	14.6	0.00e+00	0	62	0	2629828608	45	4692
2026-01-26 05:39:30.33	256.28	11.66	-38.1	-39.8	14.5	1.10e-06	0	62	0	2637168640	45	4741
2026-01-26 05:39:31.34	256.15	11.59	-38.2	-40.0	14.3	0.00e+00	0	62	0	2644508672	45	4829
2026-01-26 05:39:32.35	256.03	11.51	-38.2	-40.0	14.3	0.00e+00	0	62	0	2651848704	46	4579
2026-01-26 05:39:33.36	255.91	11.44	-38.2	-40.0	14.4	2.20e-06	0	62	0	2659188736	46	4551
2026-01-26 05:39:34.37	255.80	11.37	-38.2	-40.0	14.4	1.10e-06	0	62	0	2666528768	46	4550
2026-01-26 05:39:35.38	255.68	11.30	-38.1	-39.8	14.5	0.00e+00	0	62	0	2673868800	46	4486
2026-01-26 05:39:36.39	255.56	11.22	-38.1	-39.8	14.5	1.10e-06	0	62	0	2681208832	46	4464
2026-01-26 05:39:37.40	255.44	11.15	-38.0	-39.8	14.6	0.00e+00	0	62	0	2687500288	46	4444
2026-01-26 05:39:38.41	255.32	11.08	-37.9	-39.5	14.8	0.00e+00	0	62	0	2695888896	46	4338
2026-01-26 05:39:39.41	255.21	11.01	-37.9	-39.6	14.7	0.00e+00	0	62	0	2703228928	46	4357
2026-01-26 05:39:40.42	255.09	10.93	-37.7	-39.4	14.8	1.10e-06	0	62	0	2709520384	46	4261
2026-01-26 05:39:41.43	254.98	10.86	-37.8	-39.5	14.8	0.00e+00	0	62	0	2716860416	46	4302
2026-01-26 05:39:42.44	254.87	10.79	-37.8	-39.5	14.8	0.00e+00	0	62	0	2724200448	46	4294
2026-01-26 05:39:43.45	254.75	10.72	-37.8	-39.5	14.8	0.00e+00	0	62	0	2731540480	46	4307
2026-01-26 05:39:44.47	254.64	10.64	-37.7	-39.4	14.9	0.00e+00	0	62	0	2738880512	46	4265
2026-01-26 05:39:45.47	254.53	10.57	-37.9	-39.6	14.7	1.10e-06	0	62	0	2746220544	46	4345
2026-01-26 05:39:46.48	254.41	10.50	-37.8	-39.5	14.7	1.10e-06	0	62	0	2753560576	46	4326
2026-01-26 05:39:47.49	254.30	10.43	-37.8	-39.5	14.8	0.00e+00	0	62	0	2760900608	46	4307
2026-01-26 05:39:48.50	254.19	10.36	-37.9	-39.6	14.6	0.00e+00	0	62	0	2768240640	46	4355
2026-01-26 05:39:49.51	254.08	10.29	-37.9	-39.6	14.7	0.00e+00	0	62	0	2775580672	46	4355
2026-01-26 05:39:50.52	253.97	10.21	-37.8	-39.5	14.8	0.00e+00	0	62	0	2782920704	46	4319
2026-01-26 05:39:51.54	253.86	10.14	-37.9	-39.6	14.6	0.00e+00	0	62	0	2790260736	46	4378
2026-01-26 05:39:52.55	253.75	10.07	-37.9	-39.6	14.6	0.00e+00	0	62	0	2797600768	46	4379
2026-01-26 05:39:53.56	253.64	10.00	-37.9	-39.6	14.7	0.00e+00	0	62	0	2804940800	46	4359
2026-01-26 05:39:54.56	253.54	9.93	-38.0	-39.7	14.5	0.00e+00	0	62	0	2812280832	46	4429
2026-01-26 05:39:55.58	253.43	9.86	-38.0	-39.7	14.5	0.00e+00	0	62	0	2819620864	46	4413
2026-01-26 05:39:56.59	253.32	9.79	-38.0	-39.8	14.4	0.00e+00	0	62	0	2826960896	46	4456
2026-01-26 05:39:57.60	253.22	9.72	-38.1	-39.8	14.3	1.10e-06	0	62	0	2834300928	46	4492
2026-01-26 05:39:58.61	253.11	9.65	-38.1	-39.8	14.3	1.10e-06	0	62	0	2841640960	46	4492
2026-01-26 05:39:59.62	253.00	9.58	-38.2	-40.0	14.2	1.10e-06	0	62	0	2848980992	46	4573
2026-01-26 05:40:00.63	252.90	9.50	-38.2	-40.0	14.2	4.50e-06	0	62	0	2856321024	46	4583
2026-01-26 05:40:01.64	252.80	9.43	-38.2	-40.0	14.2	1.10e-06	0	62	0	2862612480	46	4578
2026-01-26 05:40:02.65	252.69	9.36	-38.3	-40.1	14.1	0.00e+00	0	62	0	2871001088	46	4611
2026-01-26 05:40:03.66	252.59	9.29	-38.3	-40.1	14.1	2.20e-06	0	62	0	2878341120	46	4636
2026-01-26 05:40:04.67	252.49	9.22	-38.3	-40.1	14.0	3.40e-06	0	62	0	2884632576	46	4634
2026-01-26 05:40:05.68	252.38	9.15	-38.3	-40.2	14.0	0.00e+00	0	62	0	2891972608	46	4663
2026-01-26 05:40:06.69	252.28	9.09	-38.4	-40.3	13.8	5.70e-06	0	62	0	2899312640	46	4738
2026-01-26 05:40:07.70	252.18	9.02	-38.4	-40.3	13.8	4.50e-06	0	62	0	2906652672	46	4742
2026-01-26 05:40:08.71	252.08	8.95	-38.5	-40.4	13.7	2.20e-06	0	62	0	2913992704	46	4782
2026-01-26 05:40:09.72	251.98	8.88	-38.5	-40.4	13.7	3.40e-06	0	62	0	2921332736	46	4784
2026-01-26 05:40:10.73	251.88	8.81	-38.6	-40.5	13.6	5.70e-06	0	62	0	2928672768	46	4846
2026-01-26 05:40:11.74	251.78	8.74	-38.5	-40.4	13.7	2.20e-06	0	62	0	2936012800	46	4798
2026-01-26 05:40:12.75	251.68	8.67	-38.5	-40.4	13.7	1.02e-05	0	62	0	2943352832	46	4812
2026-01-26 05:40:13.76	251.59	8.60	-38.5	-40.5	13.6	4.50e-06	0	62	0	2950692864	46	4837
2026-01-26 05:40:14.77	251.49	8.53	-38.5	-40.4	13.7	3.40e-06	0	62	0	2958032896	46	4796
2026-01-26 05:40:15.79	251.39	8.46	-38.5	-40.4	13.7	5.70e-06	0	62	0	2965372928	46	4777
2026-01-26 05:40:16.80	251.29	8.39	-38.4	-40.2	13.8	4.50e-06	0	62	0	2972712960	46	4703
2026-01-26 05:40:17.80	251.20	8.33	-38.3	-40.2	13.8	4.50e-06	0	62	0	2980052992	46	4699
2026-01-26 05:40:18.81	251.10	8.26	-38.3	-40.2	13.8	1.10e-06	0	62	0	2987393024	46	4680
2026-01-26 05:40:19.82	251.01	8.19	-38.3	-40.1	13.9	1.10e-06	0	62	0	2994733056	46	4645
2026-01-26 05:40:20.83	250.91	8.12	-38.4	-40.3	13.7	4.50e-06	0	62	0	3002073088	46	4719
2026-01-26 05:40:21.84	250.82	8.05	-38.2	-40.1	13.9	4.50e-06	0	62	0	3008364544	46	4624
2026-01-26 05:40:22.85	250.72	7.98	-44.4	-54.4	3.8	7.13e-02	0	62	0	3015704576	58	12022
2026-01-26 05:40:23.86	250.63	7.92	-45.0	-56.0	3.8	8.46e-01	0	62	104	3015704576	59	13654
2026-01-26 05:40:24.88	250.54	7.85	-45.2	-56.2	3.8	8.46e-01	0	62	104	3015704576	59	13936
2026-01-26 05:40:25.89	250.44	7.78	-45.2	-56.6	3.8	8.47e-01	0	62	104	3015704576	60	13768
2026-01-26 05:40:26.90	250.35	7.71	-45.3	-56.7	3.8	8.46e-01	0	62	104	3015704576	60	13943
2026-01-26 05:40:27.91	250.26	7.65	-45.3	-56.7	3.8	8.46e-01	0	62	104	3015704576	60	13922
2026-01-26 05:40:28.92	250.17	7.58	-45.4	-56.8	3.8	8.45e-01	0	62	104	3015704576	60	14090
2026-01-26 05:40:29.93	250.08	7.51	-45.4	-56.8	3.8	8.46e-01	0	62	104	3015704576	60	14123
2026-01-26 05:40:30.94	249.99	7.44	-45.4	-56.8	3.8	8.46e-01	0	62	104	3015704576	60	14121
2026-01-26 05:40:31.95	249.90	7.38	-45.4	-56.8	3.8	8.46e-01	0	62	104	3015704576	60	14126
2026-01-26 05:40:32.96	249.81	7.31	-45.4	-56.8	3.8	8.46e-01	0	62	104	3015704576	60	14091
2026-01-26 05:40:33.97	249.72	7.24	-45.4	-56.8	3.8	8.45e-01	0	62	104	3015704576	60	14057
2026-01-26 05:40:34.98	249.63	7.18	-44.9	-56.7	3.8	8.46e-01	0	62	104	3015704576	60	13939
2026-01-26 05:40:35.99	249.54	7.11	-45.3	-56.7	3.8	8.46e-01	0	62	104	3015704576	60	13935
2026-01-26 05:40:37.00	249.45	7.04	-45.3	-56.7	3.8	8.46e-01	0	62	104	3015704576	60	13944
2026-01-26 05:40:38.01	249.37	6.98	-45.3	-56.7	3.8	8.46e-01	0	62	104	3015704576	60	13897
2026-01-26 05:40:39.02	249.28	6.91	-45.3	-56.7	3.8	8.46e-01	0	62	104	3015704576	60	13909
2026-01-26 05:40:40.03	249.19	6.85	-45.3	-56.7	3.8	8.47e-01	0	62	104	3015704576	60	13886
2026-01-26 05:40:41.04	249.11	6.78	-45.2	-56.6	3.8	8.47e-01	0	62	104	3015704576	60	13768
2026-01-26 05:40:42.05	249.02	6.71	-45.2	-56.6	3.8	8.46e-01	0	62	104	3015704576	60	13830
2026-01-26 05:40:43.06	248.93	6.65	-45.2	-56.6	3.8	8.45e-01	0	62	104	3015704576	60	13814
2026-01-26 05:40:44.07	248.85	6.58	-45.2	-56.6	3.8	8.47e-01	0	62	104	3015704576	60	13778
2026-01-26 05:40:45.08	248.76	6.52	-45.2	-56.6	3.8	8.46e-01	0	62	104	3015704576	60	13731
2026-01-26 05:40:46.09	248.68	6.45	-45.0	-56.6	3.8	8.46e-01	0	62	104	3015704576	60	13733
2026-01-26 05:40:47.10	248.60	6.39	-45.2	-56.6	3.8	8.46e-01	0	62	104	3015704576	60	13796
2026-01-26 05:40:48.11	248.51	6.32	-45.2	-56.5	3.8	8.46e-01	0	62	104	3015704576	60	13691
2026-01-26 05:40:49.12	248.43	6.26	-45.2	-56.6	3.8	8.46e-01	0	62	104	3015704576	60	13747
2026-01-26 05:40:50.13	248.35	6.19	-44.9	-56.5	3.8	8.47e-01	0	62	104	3015704576	60	13708
