passes_logs/2026/01/26/R2.0S_Moscow/R2.0S_Moscow__20260126_093929_NOAA_20_JPSS-1_rec.log

#Pass ID: 20260126_093929_NOAA 20 (JPSS-1)
#Satellite: NOAA 20 (JPSS-1)
#Configuration: NOAA 20
#almurnet v.1.7.20251203
#Start time: 2026-01-26 09:39:29

#Version: 2.2.20231116
#Station: R2.0S_Moscow
#Location: 37.707566 lon 55.798166 lat
#TLE: 1 43013U 17073A   26025.83228772  .00000162  00000+0  97663-4 0  9996
#TLE: 2 43013  98.7646 326.6579 0001036  23.5840 336.5383 14.19540376424273

#Time	Az	El	Level	Level2	SNR	BER	BlckErr	Temp	State	Recorded	gain1	gain2
2026-01-26 09:39:29.58	152.86	2.00	-44.0	-58.5	3.8	1.49e+00	0	54	0	0	59	19363
2026-01-26 09:39:30.58	152.85	2.06	-43.9	-58.5	3.8	1.49e+00	0	54	104	0	59	19333
2026-01-26 09:39:31.59	152.84	2.13	-43.9	-58.5	3.8	1.49e+00	0	54	104	0	59	19295
2026-01-26 09:39:32.60	152.83	2.19	-43.9	-58.5	3.8	1.49e+00	0	54	104	0	59	19270
2026-01-26 09:39:33.61	152.82	2.26	-43.9	-58.5	3.8	1.49e+00	0	54	104	0	59	19309
2026-01-26 09:39:34.62	152.81	2.32	-43.9	-58.5	3.8	1.49e+00	0	54	104	0	59	19365
2026-01-26 09:39:35.63	152.80	2.39	-43.9	-58.5	3.8	1.49e+00	0	55	104	0	59	19342
2026-01-26 09:39:36.64	152.79	2.45	-43.9	-58.5	3.8	1.49e+00	0	54	104	0	59	19292
2026-01-26 09:39:37.65	152.78	2.52	-43.9	-58.5	3.8	1.49e+00	0	55	104	0	59	19255
2026-01-26 09:39:38.67	152.77	2.59	-43.9	-58.5	3.8	1.49e+00	0	55	104	0	59	19379
2026-01-26 09:39:39.67	152.76	2.65	-43.9	-58.5	3.8	1.49e+00	0	55	104	0	59	19286
2026-01-26 09:39:40.69	152.75	2.72	-43.9	-58.5	3.8	1.49e+00	0	55	104	0	59	19287
2026-01-26 09:39:41.70	152.74	2.79	-43.9	-58.5	3.8	1.49e+00	0	55	104	0	59	19193
2026-01-26 09:39:42.71	152.73	2.85	-43.9	-58.5	3.8	1.49e+00	0	55	104	0	59	19230
2026-01-26 09:39:43.72	152.72	2.92	-43.9	-58.5	3.8	1.49e+00	0	55	104	0	59	19234
2026-01-26 09:39:44.73	152.71	2.99	-43.9	-58.5	3.8	1.49e+00	0	55	104	0	59	19178
2026-01-26 09:39:45.74	152.70	3.05	-43.9	-58.5	3.8	1.49e+00	0	55	104	0	59	19185
2026-01-26 09:39:46.75	152.69	3.12	-43.9	-58.5	3.8	1.49e+00	0	55	104	0	59	19221
2026-01-26 09:39:47.76	152.68	3.19	-43.9	-58.4	3.8	1.49e+00	0	55	104	0	59	19154
2026-01-26 09:39:48.77	152.67	3.26	-43.9	-58.4	3.8	1.49e+00	0	55	104	0	59	19156
2026-01-26 09:39:49.78	152.66	3.33	-43.9	-58.4	3.8	1.49e+00	0	55	104	0	59	19146
2026-01-26 09:39:50.79	152.65	3.39	-43.9	-58.4	3.8	1.49e+00	0	56	104	0	59	19145
2026-01-26 09:39:51.80	152.64	3.46	-43.9	-58.5	3.8	1.49e+00	0	56	104	0	59	19202
2026-01-26 09:39:52.81	152.63	3.53	-43.8	-58.4	3.8	1.49e+00	0	55	104	0	59	19122
2026-01-26 09:39:53.83	152.62	3.60	-43.9	-58.4	3.8	1.49e+00	0	55	104	0	59	19153
2026-01-26 09:39:54.84	152.61	3.67	-43.9	-58.4	3.8	1.49e+00	0	56	104	0	59	19116
2026-01-26 09:39:55.85	152.60	3.74	-43.8	-58.4	3.8	1.49e+00	0	56	104	0	59	19165
2026-01-26 09:39:56.86	152.58	3.81	-43.8	-58.4	3.8	1.49e+00	0	56	104	0	59	19069
2026-01-26 09:39:57.87	152.57	3.88	-43.9	-58.5	3.8	1.49e+00	0	56	104	0	59	19191
2026-01-26 09:39:58.88	152.56	3.95	-43.9	-58.5	3.8	1.49e+00	0	56	104	0	59	19198
2026-01-26 09:39:59.89	152.55	4.01	-43.9	-58.5	3.8	1.49e+00	0	56	104	0	59	19212
2026-01-26 09:40:00.90	152.54	4.08	-43.8	-58.4	3.8	1.49e+00	0	56	104	0	59	19137
2026-01-26 09:40:01.91	152.53	4.15	-43.9	-58.4	3.8	1.49e+00	0	56	104	0	59	19145
2026-01-26 09:40:02.92	152.52	4.22	-43.9	-58.4	3.8	1.49e+00	0	56	104	0	59	19113
2026-01-26 09:40:03.93	152.51	4.30	-43.9	-58.4	3.8	1.49e+00	0	56	104	0	59	19158
2026-01-26 09:40:04.94	152.49	4.37	-43.8	-58.4	3.8	1.49e+00	0	56	104	0	59	19159
2026-01-26 09:40:05.95	152.48	4.44	-43.9	-58.4	3.8	1.49e+00	0	56	104	0	59	19166
2026-01-26 09:40:06.96	152.47	4.51	-43.9	-58.4	3.8	1.49e+00	0	56	104	0	59	19134
2026-01-26 09:40:07.97	152.46	4.58	-43.9	-58.4	3.8	1.49e+00	0	56	104	0	59	19145
2026-01-26 09:40:08.98	152.45	4.65	-43.8	-58.4	3.8	1.49e+00	0	57	104	0	59	19066
2026-01-26 09:40:09.99	152.44	4.72	-43.9	-58.4	3.8	1.49e+00	0	57	104	0	59	19149
2026-01-26 09:40:11.00	152.42	4.79	-43.9	-58.4	3.8	1.49e+00	0	57	104	0	59	19096
2026-01-26 09:40:12.01	152.41	4.86	-43.9	-58.4	3.8	1.49e+00	0	57	104	0	59	19115
2026-01-26 09:40:13.02	152.40	4.94	-43.8	-58.4	3.8	1.49e+00	0	57	104	0	59	19109
2026-01-26 09:40:14.03	152.39	5.01	-43.8	-58.4	3.8	1.49e+00	0	57	104	0	59	19071
2026-01-26 09:40:15.05	152.38	5.08	-43.8	-58.4	3.8	1.49e+00	0	57	104	0	59	19085
2026-01-26 09:40:16.06	152.36	5.15	-43.8	-58.4	3.8	1.49e+00	0	57	104	0	59	18989
2026-01-26 09:40:17.07	152.35	5.23	-43.8	-58.3	3.8	1.49e+00	0	57	104	0	59	18885
2026-01-26 09:40:18.08	152.34	5.30	-43.8	-58.3	3.8	1.49e+00	0	57	104	0	59	18774
2026-01-26 09:40:19.09	152.33	5.37	-43.8	-58.2	3.8	1.49e+00	0	57	104	0	59	18590
2026-01-26 09:40:20.10	152.31	5.45	-43.8	-58.1	3.8	1.49e+00	0	57	104	0	59	18475
2026-01-26 09:40:21.11	152.30	5.52	-43.8	-57.9	3.8	1.49e+00	0	57	104	0	59	18068
2026-01-26 09:40:22.12	152.29	5.59	-43.8	-57.7	3.8	1.49e+00	0	57	104	0	59	17576
2026-01-26 09:40:23.13	152.28	5.67	-43.8	-57.4	3.8	1.49e+00	0	57	104	0	59	17074
2026-01-26 09:40:24.14	152.26	5.74	-43.8	-57.2	3.8	1.49e+00	0	57	104	0	59	16578
2026-01-26 09:40:25.15	152.25	5.82	-43.8	-57.1	3.8	1.49e+00	0	57	104	0	59	16417
2026-01-26 09:40:26.16	152.24	5.89	-43.7	-56.9	3.8	1.49e+00	0	58	104	0	59	16012
2026-01-26 09:40:27.17	152.22	5.97	-43.7	-56.5	3.8	1.49e+00	0	57	104	0	59	15393
2026-01-26 09:40:28.18	152.21	6.04	-43.7	-56.0	4.0	1.49e+00	0	57	104	0	59	14493
2026-01-26 09:40:29.20	152.20	6.12	-43.7	-55.8	3.9	1.47e+00	0	57	104	0	59	14051
2026-01-26 09:40:30.21	152.18	6.19	-43.7	-55.5	3.9	1.44e+00	0	58	104	0	59	13689
2026-01-26 09:40:31.22	152.17	6.27	-43.7	-55.5	3.9	1.45e+00	0	58	104	0	59	13611
2026-01-26 09:40:32.23	152.16	6.35	-43.7	-55.3	4.1	1.43e+00	0	58	0	0	59	13324
2026-01-26 09:40:33.24	152.14	6.42	-43.7	-55.1	4.1	1.42e+00	0	58	0	0	59	13097
2026-01-26 09:40:34.25	152.13	6.50	-43.6	-55.3	4.1	1.42e+00	0	58	0	0	59	13393
2026-01-26 09:40:35.26	152.11	6.57	-43.7	-55.7	3.9	1.48e+00	0	58	104	0	59	13952
2026-01-26 09:40:36.27	152.10	6.65	-43.7	-55.8	3.9	1.47e+00	0	58	104	0	59	14188
2026-01-26 09:40:37.28	152.09	6.73	-43.7	-56.3	3.8	1.47e+00	0	58	104	0	59	14942
2026-01-26 09:40:38.29	152.07	6.81	-43.8	-56.8	3.8	1.49e+00	0	58	104	0	59	15923
2026-01-26 09:40:39.30	152.06	6.88	-43.7	-57.1	3.8	1.49e+00	0	58	104	0	59	16497
2026-01-26 09:40:40.31	152.04	6.96	-43.8	-57.7	3.8	1.49e+00	0	58	104	0	59	17498
2026-01-26 09:40:41.32	152.03	7.04	-43.8	-57.6	3.8	1.49e+00	0	58	104	0	59	17474
2026-01-26 09:40:42.33	152.02	7.12	-43.8	-57.4	3.8	1.49e+00	0	58	104	0	59	17034
2026-01-26 09:40:43.34	152.00	7.20	-43.7	-56.6	3.8	1.49e+00	0	58	104	0	59	15568
2026-01-26 09:40:44.35	151.99	7.28	-43.7	-55.6	4.0	1.48e+00	0	58	104	0	59	13799
2026-01-26 09:40:45.36	151.97	7.35	-43.6	-54.4	4.4	1.38e+00	54	58	0	0	59	11976
2026-01-26 09:40:46.38	151.96	7.43	-43.4	-53.0	5.0	8.33e-01	0	58	0	1048576	58	10801
2026-01-26 09:40:47.39	151.94	7.51	-43.3	-51.9	5.6	6.08e-01	0	58	0	3145728	58	9596
2026-01-26 09:40:48.40	151.93	7.59	-43.0	-50.6	6.6	2.60e-01	0	58	0	5242880	58	8265
2026-01-26 09:40:49.41	151.91	7.67	-42.9	-49.9	7.2	1.74e-01	0	59	0	7340032	57	8059
2026-01-26 09:40:50.42	151.90	7.75	-42.7	-49.1	8.0	8.67e-02	0	58	0	9437184	57	7357
2026-01-26 09:40:51.43	151.88	7.83	-42.5	-48.3	8.8	5.64e-02	0	59	0	10485760	56	7103
2026-01-26 09:40:52.44	151.87	7.91	-42.3	-47.9	9.2	2.45e-02	0	59	0	12582912	56	6797
2026-01-26 09:40:53.45	151.85	8.00	-42.3	-47.7	9.5	1.74e-02	0	59	0	14680064	56	6611
2026-01-26 09:40:54.46	151.84	8.08	-43.4	-51.5	6.5	1.16e-02	0	58	0	16777216	57	9668
2026-01-26 09:40:55.47	151.82	8.16	-44.1	-57.8	3.8	1.47e+00	0	59	104	16777216	59	17884
2026-01-26 09:40:56.48	151.80	8.24	-42.4	-47.8	9.2	1.01e+00	0	59	0	16777216	56	6682
2026-01-26 09:40:57.49	151.79	8.32	-43.0	-49.6	7.9	1.53e-02	0	59	0	18874368	56	8243
2026-01-26 09:40:58.50	151.77	8.40	-42.2	-47.2	9.9	8.94e-01	0	59	0	19922944	56	6228
2026-01-26 09:40:59.51	151.76	8.49	-42.8	-49.7	7.1	8.58e-01	0	59	0	22020096	57	7858
2026-01-26 09:41:00.52	151.74	8.57	-41.8	-46.6	10.5	8.34e-03	0	58	0	24117248	55	6141
2026-01-26 09:41:01.53	151.72	8.65	-41.8	-46.6	10.5	4.36e-03	0	59	0	26214400	55	6176
2026-01-26 09:41:02.54	151.71	8.74	-41.8	-46.5	10.6	3.34e-03	0	59	0	27262976	55	6105
2026-01-26 09:41:03.55	151.69	8.82	-41.8	-46.4	10.7	2.66e-03	0	59	0	29360128	55	6044
2026-01-26 09:41:04.56	151.67	8.90	-41.7	-46.2	11.0	1.96e-03	0	59	0	31457280	55	5880
2026-01-26 09:41:05.57	151.66	8.99	-41.7	-46.2	11.0	1.83e-03	0	59	0	33554432	55	5915
2026-01-26 09:41:06.58	151.64	9.07	-41.7	-46.3	11.0	1.82e-03	0	59	0	35651584	55	5952
2026-01-26 09:41:07.59	151.62	9.16	-41.7	-46.2	11.1	1.71e-03	0	59	0	36700160	55	5908
2026-01-26 09:41:08.60	151.61	9.24	-41.7	-46.2	11.0	1.81e-03	0	59	0	38797312	55	5908
2026-01-26 09:41:09.61	151.59	9.33	-41.7	-46.2	11.0	1.79e-03	0	59	0	40894464	55	5922
2026-01-26 09:41:10.62	151.57	9.41	-41.7	-46.2	11.0	2.04e-03	0	59	0	42991616	55	5914
2026-01-26 09:41:11.63	151.55	9.50	-41.7	-46.1	11.3	1.25e-03	0	59	0	45088768	55	5804
2026-01-26 09:41:12.64	151.54	9.59	-41.7	-46.2	11.2	1.17e-03	0	59	0	47185920	55	5866
2026-01-26 09:41:13.65	151.52	9.67	-41.7	-46.1	11.3	1.20e-03	0	59	0	48234496	55	5833
2026-01-26 09:41:14.66	151.50	9.76	-41.7	-46.2	11.2	1.24e-03	0	59	0	50331648	55	5898
2026-01-26 09:41:15.67	151.48	9.85	-41.7	-46.2	11.2	1.46e-03	0	59	0	52428800	55	5877
2026-01-26 09:41:16.69	151.47	9.94	-41.8	-46.3	11.0	1.32e-03	0	59	0	54525952	55	5956
2026-01-26 09:41:17.70	151.45	10.02	-41.8	-46.2	11.1	1.50e-03	0	59	0	56623104	55	5910
2026-01-26 09:41:18.71	151.43	10.11	-41.8	-46.3	11.1	1.80e-03	0	59	0	57671680	55	5952
2026-01-26 09:41:19.72	151.41	10.20	-41.8	-46.1	11.3	1.36e-03	0	59	0	59768832	55	5851
2026-01-26 09:41:20.72	151.39	10.29	-41.8	-46.2	11.3	1.21e-03	0	59	0	61865984	55	5876
2026-01-26 09:41:21.73	151.37	10.38	-41.7	-46.1	11.3	1.23e-03	0	59	0	63963136	55	5820
2026-01-26 09:41:22.74	151.35	10.47	-41.7	-46.0	11.5	1.01e-03	0	59	0	66060288	55	5727
2026-01-26 09:41:23.75	151.34	10.56	-41.7	-45.9	11.6	7.36e-04	0	60	0	67108864	55	5706
2026-01-26 09:41:24.76	151.32	10.65	-41.7	-46.0	11.5	7.74e-04	0	59	0	69206016	55	5745
2026-01-26 09:41:25.77	151.30	10.74	-41.7	-46.0	11.5	9.06e-04	0	59	0	71303168	55	5742
2026-01-26 09:41:26.78	151.28	10.83	-41.6	-45.8	11.7	6.31e-04	0	59	0	73400320	55	5622
2026-01-26 09:41:27.79	151.26	10.92	-41.6	-45.8	11.8	4.97e-04	0	59	0	75497472	55	5604
2026-01-26 09:41:28.80	151.24	11.01	-41.7	-45.8	11.7	4.86e-04	0	60	0	76546048	55	5642
2026-01-26 09:41:29.81	151.22	11.10	-41.7	-45.8	11.8	5.29e-04	0	60	0	78643200	55	5637
2026-01-26 09:41:30.82	151.20	11.19	-41.6	-45.7	11.9	4.30e-04	0	60	0	80740352	55	5544
2026-01-26 09:41:31.83	151.18	11.29	-41.7	-45.7	11.9	4.82e-04	0	60	0	82837504	55	5589
2026-01-26 09:41:32.84	151.16	11.38	-41.7	-45.8	11.8	4.71e-04	0	60	0	84934656	55	5616
2026-01-26 09:41:33.85	151.14	11.47	-41.7	-45.8	11.8	5.00e-04	0	60	0	85983232	55	5649
2026-01-26 09:41:34.86	151.12	11.56	-41.7	-45.8	11.8	4.58e-04	0	60	0	88080384	55	5629
2026-01-26 09:41:35.87	151.10	11.66	-41.7	-45.7	11.9	5.11e-04	0	60	0	90177536	55	5587
2026-01-26 09:41:36.88	151.08	11.75	-41.6	-45.6	12.0	3.00e-04	0	60	0	92274688	55	5506
2026-01-26 09:41:37.89	151.06	11.85	-41.6	-45.7	12.0	3.07e-04	0	60	0	94371840	55	5540
2026-01-26 09:41:38.90	151.04	11.94	-41.6	-45.6	12.1	2.85e-04	0	59	0	95420416	55	5506
2026-01-26 09:41:39.91	151.01	12.04	-41.6	-45.5	12.2	2.75e-04	0	60	0	97517568	55	5458
2026-01-26 09:41:40.92	150.99	12.13	-41.6	-45.6	12.1	2.85e-04	0	60	0	99614720	55	5489
2026-01-26 09:41:41.93	150.97	12.23	-41.7	-45.7	12.1	2.48e-04	0	60	0	101711872	55	5539
2026-01-26 09:41:42.94	150.95	12.32	-41.6	-45.5	12.2	2.71e-04	0	60	0	103809024	55	5453
2026-01-26 09:41:43.95	150.93	12.42	-41.7	-45.6	12.1	2.59e-04	0	60	0	104857600	55	5511
2026-01-26 09:41:44.96	150.91	12.52	-41.7	-45.6	12.2	2.27e-04	0	60	0	106954752	55	5512
2026-01-26 09:41:45.97	150.88	12.62	-41.7	-45.7	12.1	2.33e-04	0	60	0	109051904	55	5568
2026-01-26 09:41:46.98	150.86	12.71	-41.6	-45.5	12.3	1.74e-04	0	60	0	111149056	55	5414
2026-01-26 09:41:47.99	150.84	12.81	-41.5	-45.3	12.4	1.36e-04	0	60	0	113246208	55	5338
2026-01-26 09:41:49.00	150.82	12.91	-41.6	-45.3	12.5	1.17e-04	0	60	0	115343360	55	5330
2026-01-26 09:41:50.02	150.79	13.01	-41.6	-45.3	12.5	1.27e-04	0	60	0	116391936	55	5322
2026-01-26 09:41:51.03	150.77	13.11	-41.5	-45.3	12.6	1.04e-04	0	60	0	118489088	55	5288
2026-01-26 09:41:52.04	150.75	13.21	-41.5	-45.1	12.7	8.23e-05	0	60	0	120586240	55	5217
2026-01-26 09:41:53.05	150.72	13.31	-41.5	-45.3	12.6	9.76e-05	0	60	0	122683392	55	5284
2026-01-26 09:41:54.06	150.70	13.41	-41.5	-45.1	12.7	7.32e-05	0	60	0	124780544	55	5212
2026-01-26 09:41:55.07	150.68	13.51	-41.4	-45.1	12.8	7.62e-05	0	60	0	125829120	54	5474
2026-01-26 09:41:56.07	150.65	13.61	-41.4	-45.0	12.9	5.95e-05	0	60	0	127926272	54	5432
2026-01-26 09:41:57.08	150.63	13.71	-41.4	-45.0	12.9	4.57e-05	0	60	0	130023424	54	5439
2026-01-26 09:41:58.09	150.60	13.82	-41.5	-45.2	12.7	4.95e-05	0	60	0	132120576	54	5549
2026-01-26 09:41:59.10	150.58	13.92	-41.5	-45.1	12.8	6.86e-05	0	60	0	134217728	54	5482
2026-01-26 09:42:00.11	150.56	14.02	-41.5	-45.1	12.8	5.18e-05	0	60	0	135266304	54	5492
2026-01-26 09:42:01.12	150.53	14.13	-41.5	-45.1	12.9	6.94e-05	0	60	0	137363456	54	5487
2026-01-26 09:42:02.13	150.51	14.23	-41.5	-45.0	12.9	4.50e-05	0	60	0	139460608	54	5464
2026-01-26 09:42:03.14	150.48	14.33	-41.5	-45.1	12.9	6.33e-05	0	60	0	141557760	54	5470
2026-01-26 09:42:04.15	150.46	14.44	-41.5	-45.1	12.8	6.33e-05	0	60	0	143654912	54	5502
2026-01-26 09:42:05.16	150.43	14.54	-41.5	-45.1	12.9	7.55e-05	0	61	0	144703488	54	5473
2026-01-26 09:42:06.17	150.40	14.65	-41.4	-44.9	13.1	3.28e-05	0	60	0	146800640	54	5347
2026-01-26 09:42:07.18	150.38	14.76	-41.4	-44.8	13.2	2.59e-05	0	60	0	148897792	54	5314
2026-01-26 09:42:08.20	150.35	14.86	-41.4	-44.9	13.2	2.44e-05	0	60	0	150994944	54	5352
2026-01-26 09:42:09.20	150.33	14.97	-41.4	-44.8	13.1	4.04e-05	0	60	0	153092096	54	5333
2026-01-26 09:42:10.21	150.30	15.08	-41.4	-44.9	13.2	2.28e-05	0	60	0	154140672	54	5345
2026-01-26 09:42:11.22	150.27	15.19	-41.3	-44.8	13.3	1.60e-05	0	60	0	156237824	54	5284
2026-01-26 09:42:12.23	150.24	15.30	-41.4	-44.8	13.3	1.83e-05	0	60	0	158334976	54	5307
2026-01-26 09:42:13.24	150.22	15.40	-41.3	-44.8	13.2	2.28e-05	0	60	0	160432128	54	5338
2026-01-26 09:42:14.26	150.19	15.52	-41.3	-44.7	13.3	2.67e-05	0	60	0	162529280	54	5273
2026-01-26 09:42:15.26	150.16	15.62	-41.3	-44.8	13.3	1.29e-05	0	60	0	163577856	54	5282
2026-01-26 09:42:16.28	150.13	15.74	-41.3	-44.7	13.3	1.37e-05	0	60	0	165675008	54	5272
2026-01-26 09:42:17.28	150.11	15.85	-41.3	-44.7	13.3	1.52e-05	0	60	0	167772160	54	5271
2026-01-26 09:42:18.29	150.08	15.96	-41.4	-44.8	13.3	1.98e-05	0	60	0	169869312	54	5286
2026-01-26 09:42:19.30	150.05	16.07	-41.4	-44.9	13.2	1.60e-05	0	60	0	171966464	54	5356
2026-01-26 09:42:20.31	150.02	16.18	-41.4	-44.8	13.3	2.74e-05	0	60	0	173015040	54	5308
2026-01-26 09:42:21.33	149.99	16.30	-41.4	-44.8	13.4	1.75e-05	0	60	0	175112192	54	5281
2026-01-26 09:42:22.33	149.96	16.41	-41.3	-44.7	13.4	1.37e-05	0	60	0	177209344	54	5270
2026-01-26 09:42:23.34	149.93	16.52	-41.3	-44.7	13.4	1.75e-05	0	60	0	179306496	54	5261
2026-01-26 09:42:24.35	149.90	16.64	-41.3	-44.7	13.5	7.60e-06	0	60	0	181403648	54	5226
2026-01-26 09:42:25.36	149.87	16.75	-41.3	-44.7	13.5	1.22e-05	0	60	0	183500800	54	5223
2026-01-26 09:42:26.37	149.84	16.87	-41.2	-44.5	13.6	6.80e-06	0	61	0	184549376	54	5141
2026-01-26 09:42:27.38	149.81	16.98	-41.3	-44.5	13.7	1.67e-05	0	61	0	186646528	54	5146
2026-01-26 09:42:28.39	149.78	17.10	-41.3	-44.6	13.6	1.37e-05	0	61	0	188743680	54	5166
2026-01-26 09:42:29.41	149.75	17.22	-41.3	-44.6	13.6	6.10e-06	0	61	0	190840832	54	5174
2026-01-26 09:42:30.42	149.72	17.34	-41.3	-44.6	13.6	5.30e-06	0	61	0	192937984	54	5166
2026-01-26 09:42:31.43	149.69	17.46	-41.3	-44.6	13.6	1.75e-05	0	61	0	193986560	54	5211
2026-01-26 09:42:32.44	149.65	17.58	-41.4	-44.7	13.5	6.10e-06	0	61	0	196083712	54	5263
2026-01-26 09:42:33.45	149.62	17.70	-41.3	-44.6	13.6	9.10e-06	0	61	0	198180864	54	5205
2026-01-26 09:42:34.46	149.59	17.82	-41.3	-44.6	13.6	8.30e-06	0	61	0	200278016	54	5199
2026-01-26 09:42:35.47	149.56	17.94	-41.3	-44.7	13.6	9.90e-06	0	61	0	202375168	54	5223
2026-01-26 09:42:36.48	149.52	18.06	-41.3	-44.6	13.6	9.10e-06	0	60	0	203423744	54	5199
2026-01-26 09:42:37.49	149.49	18.18	-41.3	-44.6	13.6	5.30e-06	0	61	0	205520896	54	5205
2026-01-26 09:42:38.49	149.46	18.30	-41.2	-44.4	13.9	4.50e-06	0	61	0	207618048	54	5045
2026-01-26 09:42:39.50	149.42	18.42	-41.1	-44.3	14.0	7.60e-06	0	61	0	209715200	54	4995
2026-01-26 09:42:40.51	149.39	18.55	-41.2	-44.4	13.9	3.00e-06	0	61	0	211812352	54	5050
2026-01-26 09:42:41.52	149.35	18.67	-41.2	-44.3	14.0	3.00e-06	0	60	0	212860928	54	5013
2026-01-26 09:42:42.53	149.32	18.80	-41.2	-44.3	14.0	2.20e-06	0	61	0	214958080	54	5012
2026-01-26 09:42:43.55	149.28	18.92	-41.1	-44.2	14.1	2.20e-06	0	61	0	217055232	54	4952
2026-01-26 09:42:44.55	149.25	19.05	-41.1	-44.2	14.1	1.50e-06	0	61	0	219152384	54	4950
2026-01-26 09:42:45.56	149.21	19.18	-41.2	-44.3	13.9	2.20e-06	0	61	0	221249536	54	5035
2026-01-26 09:42:46.57	149.18	19.30	-41.2	-44.3	14.0	2.20e-06	0	61	0	222298112	54	5017
2026-01-26 09:42:47.58	149.14	19.43	-41.2	-44.3	13.9	5.30e-06	0	61	0	224395264	54	5032
2026-01-26 09:42:48.59	149.10	19.56	-41.3	-44.4	13.9	4.50e-06	0	61	0	226492416	54	5085
2026-01-26 09:42:49.60	149.07	19.69	-41.2	-44.3	14.0	2.20e-06	0	61	0	228589568	54	4991
2026-01-26 09:42:50.61	149.03	19.82	-41.2	-44.3	14.0	7.00e-07	0	61	0	230686720	54	5032
2026-01-26 09:42:51.62	148.99	19.95	-41.2	-44.4	14.0	3.00e-06	0	61	0	231735296	54	5045
2026-01-26 09:42:52.63	148.95	20.08	-41.2	-44.3	14.0	5.30e-06	0	61	0	233832448	54	5035
2026-01-26 09:42:53.64	148.92	20.22	-41.2	-44.3	14.0	2.20e-06	0	61	0	235929600	54	5011
2026-01-26 09:42:54.65	148.88	20.35	-41.2	-44.4	14.0	3.00e-06	0	61	0	238026752	54	5053
2026-01-26 09:42:55.66	148.84	20.48	-41.2	-44.4	14.0	2.20e-06	0	61	0	240123904	54	5044
2026-01-26 09:42:56.67	148.80	20.62	-41.2	-44.4	13.9	7.00e-07	0	61	0	241172480	54	5076
2026-01-26 09:42:57.68	148.76	20.75	-41.2	-44.4	14.0	4.50e-06	0	61	0	243269632	54	5050
2026-01-26 09:42:58.69	148.72	20.89	-41.1	-44.2	14.1	7.00e-07	0	61	0	245366784	54	4974
2026-01-26 09:42:59.70	148.68	21.02	-41.1	-44.2	14.2	1.50e-06	0	61	0	247463936	54	4943
2026-01-26 09:43:00.71	148.64	21.16	-41.2	-44.2	14.2	7.00e-07	0	61	0	249561088	54	4968
2026-01-26 09:43:01.72	148.60	21.30	-41.1	-44.2	14.2	7.00e-07	0	61	0	251658240	54	4927
2026-01-26 09:43:02.73	148.55	21.44	-41.0	-44.0	14.3	0.00e+00	0	61	0	252706816	54	4850
2026-01-26 09:43:03.73	148.51	21.58	-41.0	-43.9	14.4	0.00e+00	0	61	0	254803968	54	4801
2026-01-26 09:43:04.74	148.47	21.72	-41.1	-44.0	14.4	0.00e+00	0	61	0	256901120	54	4853
2026-01-26 09:43:05.75	148.43	21.86	-41.0	-43.9	14.5	0.00e+00	0	61	0	258998272	54	4805
2026-01-26 09:43:06.76	148.38	22.00	-41.0	-44.0	14.4	7.00e-07	0	61	0	261095424	54	4834
2026-01-26 09:43:07.77	148.34	22.14	-41.0	-44.0	14.4	0.00e+00	0	61	0	262144000	54	4850
2026-01-26 09:43:08.78	148.29	22.28	-41.1	-44.2	14.2	7.00e-07	0	61	0	264241152	54	4941
2026-01-26 09:43:09.79	148.25	22.43	-41.2	-44.2	14.2	1.50e-06	0	61	0	266338304	54	4968
2026-01-26 09:43:10.80	148.20	22.57	-41.2	-44.3	14.1	7.00e-07	0	61	0	268435456	54	4991
2026-01-26 09:43:11.81	148.16	22.72	-41.2	-44.3	14.1	7.00e-07	0	61	0	270532608	54	5023
2026-01-26 09:43:12.82	148.11	22.86	-41.3	-44.4	14.0	1.50e-06	0	61	0	271581184	54	5051
2026-01-26 09:43:13.83	148.07	23.01	-41.2	-44.3	14.1	1.50e-06	0	61	0	273678336	54	5023
2026-01-26 09:43:14.84	148.02	23.16	-41.3	-44.5	13.9	2.20e-06	0	61	0	275775488	54	5103
2026-01-26 09:43:15.85	147.97	23.31	-41.2	-44.3	14.1	3.80e-06	0	61	0	277872640	54	5019
2026-01-26 09:43:16.86	147.92	23.46	-41.2	-44.2	14.2	2.20e-06	0	61	0	279969792	54	4964
2026-01-26 09:43:17.87	147.88	23.61	-41.2	-44.3	14.1	2.20e-06	0	61	0	281018368	54	5027
2026-01-26 09:43:18.88	147.83	23.76	-41.3	-44.4	14.1	1.50e-06	0	61	0	283115520	54	5062
2026-01-26 09:43:19.89	147.78	23.91	-41.3	-44.5	13.9	2.20e-06	0	61	0	285212672	54	5122
2026-01-26 09:43:20.90	147.73	24.07	-41.4	-44.7	13.8	5.30e-06	0	61	0	287309824	54	5226
2026-01-26 09:43:21.91	147.68	24.22	-41.5	-44.8	13.6	9.10e-06	0	61	0	289406976	54	5299
2026-01-26 09:43:22.92	147.63	24.37	-41.5	-44.9	13.5	1.14e-05	0	61	0	290455552	54	5353
2026-01-26 09:43:23.93	147.57	24.53	-41.6	-44.9	13.5	1.14e-05	0	61	0	292552704	54	5400
2026-01-26 09:43:24.94	147.52	24.69	-41.6	-44.9	13.5	1.22e-05	0	61	0	294649856	54	5394
2026-01-26 09:43:25.95	147.47	24.84	-41.6	-45.0	13.4	9.90e-06	0	61	0	296747008	54	5434
2026-01-26 09:43:26.96	147.42	25.00	-41.6	-44.9	13.5	7.60e-06	0	61	0	298844160	54	5384
2026-01-26 09:43:27.97	147.36	25.16	-41.5	-44.8	13.6	3.80e-06	0	61	0	299892736	54	5324
2026-01-26 09:43:28.98	147.31	25.32	-41.5	-44.8	13.6	7.60e-06	0	61	0	301989888	54	5280
2026-01-26 09:43:29.99	147.25	25.48	-41.6	-44.9	13.5	6.80e-06	0	61	0	304087040	54	5356
2026-01-26 09:43:31.00	147.20	25.65	-41.6	-45.0	13.4	1.44e-05	0	61	0	306184192	54	5454
2026-01-26 09:43:32.01	147.14	25.81	-41.8	-45.3	13.1	2.28e-05	0	61	0	308281344	54	5618
2026-01-26 09:43:33.02	147.09	25.97	-41.8	-45.4	13.0	3.58e-05	0	61	0	309329920	54	5699
2026-01-26 09:43:34.03	147.03	26.14	-42.0	-45.7	12.6	8.46e-05	0	61	0	311427072	54	5920
2026-01-26 09:43:35.04	146.97	26.31	-42.1	-46.0	12.4	1.11e-04	0	61	0	313524224	54	6080
2026-01-26 09:43:36.05	146.91	26.47	-42.2	-46.2	12.2	1.70e-04	0	61	0	315621376	54	6208
2026-01-26 09:43:37.06	146.85	26.64	-42.2	-46.1	12.3	2.36e-04	0	61	0	317718528	55	5831
2026-01-26 09:43:38.07	146.79	26.81	-42.3	-46.3	12.1	2.23e-04	0	61	0	319815680	55	5933
2026-01-26 09:43:39.08	146.73	26.98	-42.3	-46.3	12.1	2.32e-04	0	61	0	320864256	55	5942
2026-01-26 09:43:40.09	146.67	27.15	-42.3	-46.2	12.1	2.60e-04	0	61	0	322961408	55	5896
2026-01-26 09:43:41.11	146.61	27.33	-42.3	-46.3	12.1	2.66e-04	0	61	0	325058560	55	5928
2026-01-26 09:43:42.12	146.55	27.50	-42.3	-46.3	12.0	3.04e-04	0	61	0	327155712	55	5978
2026-01-26 09:43:43.13	146.48	27.67	-42.5	-46.6	11.8	3.73e-04	0	61	0	329252864	55	6174
2026-01-26 09:43:44.13	146.42	27.85	-42.5	-46.8	11.6	5.65e-04	0	61	0	330301440	55	6302
2026-01-26 09:43:45.15	146.35	28.03	-42.6	-47.0	11.3	9.34e-04	0	61	0	332398592	55	6476
2026-01-26 09:43:46.16	146.29	28.20	-42.9	-47.5	11.0	1.49e-03	0	62	0	334495744	56	6457
2026-01-26 09:43:47.17	146.22	28.38	-43.0	-47.8	10.7	2.43e-03	0	61	0	336592896	56	6662
2026-01-26 09:43:48.18	146.15	28.56	-43.0	-47.7	10.8	2.43e-03	0	61	0	338690048	56	6633
2026-01-26 09:43:49.19	146.09	28.74	-43.1	-47.8	10.7	3.10e-03	0	61	0	339738624	56	6691
2026-01-26 09:43:50.20	146.02	28.93	-43.1	-47.8	10.7	2.74e-03	0	61	0	341835776	56	6667
2026-01-26 09:43:51.21	145.95	29.11	-43.0	-47.7	10.8	2.54e-03	0	61	0	343932928	56	6624
2026-01-26 09:43:52.22	145.88	29.29	-43.0	-47.7	10.8	2.70e-03	0	61	0	346030080	56	6612
2026-01-26 09:43:53.23	145.81	29.48	-43.1	-47.8	10.6	3.35e-03	0	61	0	348127232	56	6717
2026-01-26 09:43:54.24	145.73	29.67	-43.2	-48.0	10.4	3.86e-03	0	61	0	349175808	56	6866
2026-01-26 09:43:55.25	145.66	29.85	-43.3	-48.3	10.1	4.46e-03	0	61	0	351272960	57	6722
2026-01-26 09:43:56.26	145.59	30.04	-43.3	-48.5	10.0	7.41e-03	0	61	0	353370112	57	6828
2026-01-26 09:43:57.27	145.51	30.23	-43.4	-48.6	9.9	9.57e-03	0	62	0	355467264	57	6886
2026-01-26 09:43:58.28	145.44	30.43	-43.5	-48.8	9.6	1.11e-02	0	61	0	357564416	57	7105
2026-01-26 09:43:59.29	145.36	30.62	-43.5	-48.8	9.7	1.16e-02	0	61	0	359661568	57	7110
2026-01-26 09:44:00.30	145.28	30.81	-43.5	-48.9	9.6	1.21e-02	0	61	0	360710144	57	7188
2026-01-26 09:44:01.31	145.20	31.01	-43.5	-48.9	9.5	1.53e-02	0	61	0	362807296	57	7181
2026-01-26 09:44:02.32	145.12	31.20	-43.5	-48.9	9.5	1.45e-02	0	61	0	364904448	57	7176
2026-01-26 09:44:03.33	145.04	31.40	-43.5	-49.1	9.4	1.42e-02	0	61	0	367001600	57	7292
2026-01-26 09:44:04.34	144.96	31.60	-43.6	-49.3	9.2	1.97e-02	0	61	0	369098752	57	7464
2026-01-26 09:44:05.35	144.88	31.80	-43.7	-49.4	9.0	2.33e-02	0	61	0	370147328	57	7624
2026-01-26 09:44:06.36	144.80	32.00	-43.8	-49.8	8.6	3.89e-02	0	61	0	372244480	58	7531
2026-01-26 09:44:07.37	144.71	32.21	-43.9	-50.1	8.4	4.38e-02	0	61	0	374341632	58	7742
2026-01-26 09:44:08.38	144.63	32.41	-43.9	-50.0	8.4	4.17e-02	0	62	0	376438784	58	7713
2026-01-26 09:44:09.39	144.54	32.62	-43.8	-49.9	8.5	4.11e-02	0	62	0	378535936	58	7601
2026-01-26 09:44:10.40	144.45	32.82	-43.9	-49.9	8.5	4.01e-02	0	61	0	379584512	58	7624
2026-01-26 09:44:11.41	144.36	33.03	-43.9	-50.1	8.4	4.18e-02	0	62	0	381681664	58	7770
2026-01-26 09:44:12.42	144.27	33.24	-43.8	-49.8	8.7	3.42e-02	0	61	0	383778816	58	7507
2026-01-26 09:44:13.43	144.18	33.45	-43.9	-50.0	8.5	3.79e-02	0	61	0	385875968	58	7697
2026-01-26 09:44:14.44	144.09	33.66	-43.9	-50.0	8.5	4.75e-02	0	61	0	387973120	58	7693
2026-01-26 09:44:15.45	143.99	33.88	-43.9	-50.2	8.3	4.59e-02	0	61	0	389021696	58	7816
2026-01-26 09:44:16.46	143.90	34.09	-43.9	-50.2	8.2	5.31e-02	0	61	0	391118848	58	7895
2026-01-26 09:44:17.47	143.80	34.31	-44.0	-50.4	8.1	5.41e-02	0	62	0	393216000	58	7998
2026-01-26 09:44:18.48	143.70	34.53	-43.9	-50.0	8.4	4.78e-02	0	62	0	395313152	58	7695
2026-01-26 09:44:19.49	143.60	34.75	-43.8	-49.8	8.7	3.82e-02	0	62	0	397410304	58	7483
2026-01-26 09:44:20.50	143.50	34.97	-43.8	-49.6	8.9	3.37e-02	0	61	0	398458880	58	7308
2026-01-26 09:44:21.51	143.40	35.19	-43.7	-49.3	9.2	2.73e-02	0	61	0	400556032	58	7073
2026-01-26 09:44:22.52	143.30	35.41	-43.6	-49.1	9.4	1.74e-02	0	62	0	402653184	58	6907
2026-01-26 09:44:23.53	143.19	35.64	-43.6	-49.1	9.5	1.66e-02	0	62	0	404750336	58	6886
2026-01-26 09:44:24.54	143.08	35.87	-43.5	-48.8	9.7	1.51e-02	0	62	0	406847488	58	6706
2026-01-26 09:44:25.55	142.98	36.09	-43.6	-49.0	9.6	1.29e-02	0	62	0	407896064	58	6807
2026-01-26 09:44:26.56	142.87	36.32	-43.6	-49.0	9.5	1.45e-02	0	62	0	409993216	58	6859
2026-01-26 09:44:27.57	142.76	36.55	-43.6	-49.0	9.5	1.31e-02	0	62	0	412090368	58	6842
2026-01-26 09:44:28.58	142.64	36.79	-43.7	-49.5	9.0	2.28e-02	0	62	0	414187520	58	7210
2026-01-26 09:44:29.59	142.53	37.02	-43.8	-49.7	8.8	2.67e-02	0	62	0	416284672	58	7444
2026-01-26 09:44:30.60	142.41	37.26	-43.9	-50.0	8.5	3.30e-02	0	62	0	417333248	58	7661
2026-01-26 09:44:31.61	142.29	37.50	-43.9	-50.1	8.4	5.01e-02	0	62	0	419430400	58	7799
2026-01-26 09:44:32.62	142.17	37.73	-43.9	-50.1	8.4	5.29e-02	0	62	0	421527552	58	7754
2026-01-26 09:44:33.63	142.05	37.97	-43.9	-50.1	8.4	4.56e-02	0	62	0	423624704	58	7785
2026-01-26 09:44:34.64	141.93	38.22	-43.9	-50.1	8.5	4.33e-02	0	62	0	425721856	58	7740
2026-01-26 09:44:35.65	141.80	38.46	-43.9	-50.1	8.4	4.38e-02	0	62	0	427819008	58	7771
2026-01-26 09:44:36.66	141.68	38.71	-43.9	-49.9	8.5	3.60e-02	0	62	0	428867584	58	7616
2026-01-26 09:44:37.67	141.55	38.95	-43.9	-50.0	8.5	3.78e-02	0	62	0	430964736	58	7673
2026-01-26 09:44:38.67	141.42	39.20	-43.9	-50.0	8.5	4.51e-02	0	62	0	433061888	58	7643
2026-01-26 09:44:39.69	141.28	39.45	-43.9	-50.0	8.5	4.03e-02	0	62	0	435159040	58	7645
2026-01-26 09:44:40.69	141.15	39.70	-43.9	-50.2	8.3	4.62e-02	0	62	0	437256192	58	7822
2026-01-26 09:44:41.70	141.01	39.95	-43.9	-50.1	8.4	4.64e-02	0	62	0	438304768	58	7732
2026-01-26 09:44:42.71	140.87	40.21	-43.8	-49.8	8.6	3.71e-02	0	62	0	440401920	58	7507
2026-01-26 09:44:43.73	140.73	40.47	-43.8	-49.6	9.0	3.52e-02	0	62	0	442499072	58	7290
2026-01-26 09:44:44.74	140.58	40.73	-43.7	-49.3	9.1	2.31e-02	0	62	0	444596224	58	7113
2026-01-26 09:44:45.75	140.43	40.99	-43.7	-49.3	9.2	1.93e-02	0	62	0	446693376	58	7050
2026-01-26 09:44:46.76	140.29	41.25	-43.6	-49.1	9.4	1.77e-02	0	62	0	447741952	58	6906
2026-01-26 09:44:47.77	140.13	41.51	-43.6	-49.1	9.4	1.60e-02	0	62	0	449839104	58	6918
2026-01-26 09:44:48.78	139.98	41.78	-43.6	-49.0	9.5	1.46e-02	0	62	0	451936256	58	6817
2026-01-26 09:44:49.79	139.82	42.04	-43.5	-48.8	9.8	1.29e-02	0	62	0	454033408	58	6651
2026-01-26 09:44:50.80	139.66	42.31	-43.4	-48.5	10.0	1.02e-02	0	62	0	456130560	58	6453
2026-01-26 09:44:51.81	139.50	42.58	-43.4	-48.5	9.9	8.59e-03	0	62	0	457179136	58	6491
2026-01-26 09:44:52.82	139.34	42.85	-43.3	-48.3	10.2	7.49e-03	0	62	0	459276288	58	6342
2026-01-26 09:44:53.82	139.17	43.12	-43.2	-48.1	10.5	4.79e-03	0	62	0	461373440	58	6149
2026-01-26 09:44:54.83	139.00	43.40	-43.3	-48.1	10.5	4.50e-03	0	62	0	463470592	58	6157
2026-01-26 09:44:55.84	138.82	43.67	-43.2	-48.0	10.6	3.94e-03	0	62	0	465567744	58	6086
2026-01-26 09:44:56.85	138.65	43.95	-43.2	-47.9	10.7	3.46e-03	0	62	0	466616320	58	5997
2026-01-26 09:44:57.86	138.47	44.23	-42.9	-47.3	11.3	1.40e-03	0	62	0	468713472	57	5938
2026-01-26 09:44:58.87	138.28	44.52	-42.9	-47.2	11.4	8.44e-04	0	62	0	470810624	57	5861
2026-01-26 09:44:59.88	138.10	44.80	-42.8	-47.0	11.6	6.62e-04	0	62	0	472907776	57	5755
2026-01-26 09:45:00.89	137.91	45.08	-42.9	-47.2	11.4	9.59e-04	0	62	0	475004928	57	5866
2026-01-26 09:45:01.90	137.71	45.37	-42.7	-46.8	11.7	8.23e-04	0	62	0	476053504	57	5618
2026-01-26 09:45:02.91	137.52	45.66	-42.6	-46.5	12.2	4.32e-04	0	62	0	478150656	57	5427
2026-01-26 09:45:03.92	137.31	45.95	-42.5	-46.4	12.3	2.30e-04	0	62	0	480247808	56	5666
2026-01-26 09:45:04.93	137.11	46.24	-42.4	-46.2	12.5	1.17e-04	0	62	0	482344960	56	5564
2026-01-26 09:45:05.94	136.90	46.53	-42.5	-46.3	12.3	1.52e-04	0	62	0	484442112	56	5642
2026-01-26 09:45:06.95	136.69	46.83	-42.5	-46.4	12.2	1.55e-04	0	62	0	485490688	56	5712
2026-01-26 09:45:07.96	136.47	47.13	-42.6	-46.5	12.2	2.37e-04	0	62	0	487587840	56	5739
2026-01-26 09:45:08.97	136.25	47.43	-42.4	-46.2	12.4	1.81e-04	0	62	0	489684992	56	5586
2026-01-26 09:45:09.98	136.03	47.73	-42.5	-46.4	12.3	1.23e-04	0	62	0	491782144	56	5688
2026-01-26 09:45:10.99	135.80	48.03	-42.6	-46.5	12.2	2.25e-04	0	62	0	493879296	56	5740
2026-01-26 09:45:12.01	135.56	48.33	-42.6	-46.5	12.1	2.81e-04	0	62	0	495976448	56	5782
2026-01-26 09:45:13.02	135.32	48.64	-42.6	-46.5	12.1	2.49e-04	0	62	0	497025024	56	5786
2026-01-26 09:45:14.03	135.08	48.94	-42.6	-46.5	12.2	2.29e-04	0	62	0	499122176	56	5724
2026-01-26 09:45:15.04	134.83	49.25	-42.5	-46.4	12.2	2.45e-04	0	62	0	501219328	56	5695
2026-01-26 09:45:16.05	134.57	49.56	-42.6	-46.5	12.2	2.37e-04	0	62	0	503316480	56	5744
2026-01-26 09:45:17.05	134.32	49.87	-42.4	-46.2	12.4	1.62e-04	0	62	0	505413632	56	5592
2026-01-26 09:45:18.07	134.05	50.19	-42.4	-46.1	12.6	1.18e-04	0	62	0	506462208	56	5477
2026-01-26 09:45:19.08	133.78	50.50	-42.3	-46.0	12.7	1.02e-04	0	62	0	508559360	56	5441
2026-01-26 09:45:20.09	133.50	50.82	-42.2	-45.7	13.0	4.34e-05	0	62	0	510656512	56	5259
2026-01-26 09:45:21.10	133.22	51.13	-41.8	-45.1	13.4	1.60e-05	0	62	0	512753664	55	5195
2026-01-26 09:45:22.11	132.93	51.45	-41.6	-44.8	13.8	9.10e-06	0	62	0	514850816	55	4996
2026-01-26 09:45:23.12	132.64	51.77	-41.6	-44.8	13.7	4.50e-06	0	62	0	515899392	55	5033
2026-01-26 09:45:24.13	132.34	52.09	-41.6	-44.9	13.7	1.50e-06	0	62	0	517996544	55	5044
2026-01-26 09:45:25.14	132.03	52.41	-41.5	-44.7	13.8	4.50e-06	0	62	0	520093696	55	4948
2026-01-26 09:45:26.15	131.72	52.74	-41.6	-44.7	13.8	3.80e-06	0	62	0	522190848	55	4975
2026-01-26 09:45:27.16	131.39	53.06	-41.6	-44.8	13.7	5.30e-06	0	62	0	524288000	55	5004
2026-01-26 09:45:28.17	131.07	53.39	-41.6	-44.8	13.7	4.50e-06	0	62	0	525336576	55	5029
2026-01-26 09:45:29.18	130.73	53.71	-41.5	-44.7	13.9	3.00e-06	0	62	0	527433728	55	4936
2026-01-26 09:45:30.19	130.39	54.04	-41.5	-44.6	13.9	7.00e-07	0	62	0	529530880	55	4894
2026-01-26 09:45:31.20	130.03	54.37	-41.7	-44.9	13.6	6.80e-06	0	62	0	531628032	55	5071
2026-01-26 09:45:32.21	129.67	54.70	-41.8	-45.2	13.3	9.90e-06	0	62	0	533725184	55	5228
2026-01-26 09:45:33.22	129.31	55.03	-41.9	-45.4	13.2	2.67e-05	0	62	0	534773760	55	5357
2026-01-26 09:45:34.23	128.93	55.36	-42.2	-45.8	12.7	4.57e-05	0	62	0	536870912	55	5624
2026-01-26 09:45:35.24	128.54	55.70	-42.6	-46.6	11.9	2.13e-04	0	62	0	538968064	55	6171
2026-01-26 09:45:36.25	128.15	56.03	-42.7	-46.9	11.5	5.68e-04	0	62	0	541065216	55	6373
2026-01-26 09:45:37.25	127.74	56.36	-42.9	-47.3	11.3	8.28e-04	0	62	0	543162368	56	6297
2026-01-26 09:45:38.26	127.33	56.69	-43.1	-47.7	10.9	1.35e-03	0	62	0	544210944	56	6627
2026-01-26 09:45:39.27	126.90	57.03	-43.5	-48.7	9.8	4.13e-03	0	62	0	546308096	57	6960
2026-01-26 09:45:40.28	126.47	57.36	-43.6	-49.0	9.5	1.56e-02	0	62	0	548405248	57	7285
2026-01-26 09:45:41.29	126.02	57.70	-43.8	-49.6	8.8	2.27e-02	0	62	0	550502400	58	7346
2026-01-26 09:45:42.30	125.56	58.04	-44.0	-50.3	8.1	3.98e-02	0	62	0	552599552	58	7966
2026-01-26 09:45:43.31	125.09	58.37	-44.1	-50.4	8.1	6.43e-02	0	62	0	553648128	58	8026
2026-01-26 09:45:44.32	124.61	58.71	-43.8	-49.5	9.0	4.45e-02	0	62	0	555745280	58	7233
2026-01-26 09:45:45.33	124.11	59.04	-43.7	-49.3	9.2	2.19e-02	0	62	0	557842432	58	7088
2026-01-26 09:45:46.34	123.61	59.38	-43.7	-49.1	9.4	1.93e-02	0	62	0	559939584	58	6938
2026-01-26 09:45:47.35	123.09	59.72	-43.5	-48.6	10.0	1.34e-02	0	62	0	562036736	58	6509
2026-01-26 09:45:48.35	122.56	60.05	-43.2	-48.0	10.6	4.90e-03	0	62	0	564133888	58	6067
2026-01-26 09:45:49.36	122.01	60.38	-43.1	-47.6	11.0	2.58e-03	0	62	0	565182464	58	5825
2026-01-26 09:45:50.37	121.45	60.72	-43.1	-47.5	11.1	1.37e-03	0	62	0	567279616	58	5750
2026-01-26 09:45:51.38	120.87	61.05	-42.9	-47.3	11.3	1.73e-03	0	62	0	569376768	57	5924
2026-01-26 09:45:52.39	120.27	61.38	-42.5	-46.3	12.3	5.28e-04	0	62	0	571473920	57	5313
2026-01-26 09:45:53.40	119.66	61.71	-42.1	-45.6	13.1	7.24e-05	0	62	0	573571072	56	5163
2026-01-26 09:45:54.41	119.04	62.04	-41.4	-44.5	14.0	1.29e-05	0	62	0	574619648	54	5139
2026-01-26 09:45:55.42	118.39	62.37	-41.0	-43.8	14.7	0.00e+00	0	62	0	576716800	54	4741
2026-01-26 09:45:56.43	117.73	62.70	-40.9	-43.7	14.8	0.00e+00	0	62	0	578813952	53	4932
2026-01-26 09:45:57.44	117.05	63.02	-41.1	-43.9	14.5	0.00e+00	0	62	0	580911104	53	5093
2026-01-26 09:45:58.45	116.35	63.34	-41.3	-44.2	14.3	0.00e+00	0	62	0	583008256	53	5276
2026-01-26 09:45:59.46	115.64	63.67	-41.4	-44.4	14.1	2.20e-06	0	62	0	584056832	53	5374
2026-01-26 09:46:00.47	114.90	63.98	-41.6	-44.8	13.7	5.30e-06	0	62	0	586153984	53	5634
2026-01-26 09:46:01.48	114.14	64.30	-41.7	-45.0	13.5	1.44e-05	0	62	0	588251136	54	5437
2026-01-26 09:46:02.49	113.36	64.61	-41.8	-45.2	13.2	1.37e-05	0	62	0	590348288	54	5561
2026-01-26 09:46:03.50	112.56	64.92	-41.9	-45.3	13.2	1.98e-05	0	62	0	592445440	54	5641
2026-01-26 09:46:04.51	111.74	65.23	-42.1	-45.8	12.7	4.65e-05	0	62	0	593494016	54	5956
2026-01-26 09:46:05.52	110.89	65.53	-42.5	-46.5	11.9	1.45e-04	0	62	0	595591168	55	6119
2026-01-26 09:46:06.53	110.02	65.83	-43.0	-47.4	11.2	6.65e-04	0	62	0	597688320	56	6362
2026-01-26 09:46:07.54	109.13	66.13	-43.1	-47.7	10.9	1.51e-03	0	62	0	599785472	56	6578
2026-01-26 09:46:08.55	108.21	66.42	-43.2	-48.1	10.4	2.72e-03	0	62	0	601882624	57	6517
2026-01-26 09:46:09.56	107.27	66.70	-43.5	-48.8	9.7	9.08e-03	0	62	0	602931200	57	7046
2026-01-26 09:46:10.57	106.30	66.98	-43.6	-48.9	9.5	1.55e-02	0	62	0	605028352	57	7170
2026-01-26 09:46:11.58	105.30	67.26	-43.5	-48.9	9.6	1.82e-02	0	62	0	607125504	57	7141
2026-01-26 09:46:12.59	104.28	67.53	-43.6	-49.0	9.4	1.67e-02	0	62	0	609222656	57	7242
2026-01-26 09:46:13.60	103.24	67.79	-43.4	-48.6	9.9	1.23e-02	0	62	0	611319808	57	6897
2026-01-26 09:46:14.61	102.16	68.05	-43.4	-48.6	9.8	1.12e-02	0	62	0	612368384	57	6942
2026-01-26 09:46:15.62	101.06	68.30	-43.4	-48.6	9.8	1.13e-02	0	62	0	614465536	57	6941
2026-01-26 09:46:16.63	99.93	68.55	-43.2	-48.0	10.5	6.03e-03	0	62	0	616562688	57	6449
2026-01-26 09:46:17.65	98.76	68.78	-43.2	-47.9	10.5	3.60e-03	0	62	0	618659840	57	6395
2026-01-26 09:46:18.65	97.58	69.01	-43.2	-48.1	10.4	4.58e-03	0	62	0	620756992	57	6496
2026-01-26 09:46:19.67	96.36	69.24	-42.9	-47.3	11.2	1.99e-03	0	62	0	621805568	57	5975
2026-01-26 09:46:20.68	95.12	69.45	-42.7	-46.9	11.6	8.27e-04	0	62	0	623902720	57	5693
2026-01-26 09:46:21.69	93.85	69.65	-42.5	-46.4	12.2	2.53e-04	0	62	0	625999872	57	5356
2026-01-26 09:46:22.70	92.55	69.85	-42.5	-46.5	12.1	1.71e-04	0	62	0	628097024	56	5741
2026-01-26 09:46:23.71	91.23	70.03	-42.7	-46.9	11.7	3.40e-04	0	62	0	630194176	56	5999
2026-01-26 09:46:24.72	89.88	70.21	-42.8	-47.0	11.5	6.77e-04	0	62	0	632291328	56	6093
2026-01-26 09:46:25.73	88.51	70.37	-42.5	-46.4	12.0	4.42e-04	0	62	0	633339904	56	5721
2026-01-26 09:46:26.74	87.11	70.53	-42.2	-45.9	12.6	1.30e-04	0	62	0	635437056	56	5351
2026-01-26 09:46:27.75	85.69	70.67	-42.3	-45.9	12.7	6.79e-05	0	62	0	637534208	56	5374
2026-01-26 09:46:28.76	84.25	70.81	-42.5	-46.4	12.2	2.21e-04	0	62	0	639631360	56	5688
2026-01-26 09:46:29.77	82.79	70.93	-42.7	-46.7	11.8	4.14e-04	0	62	0	641728512	56	5905
2026-01-26 09:46:30.78	81.31	71.04	-42.7	-46.8	11.8	5.71e-04	0	62	0	642777088	56	5942
2026-01-26 09:46:31.79	79.81	71.13	-42.7	-46.9	11.7	5.82e-04	0	62	0	644874240	56	6010
2026-01-26 09:46:32.80	78.29	71.22	-42.6	-46.5	12.0	4.37e-04	0	62	0	646971392	56	5753
2026-01-26 09:46:33.81	76.76	71.29	-42.7	-46.7	11.7	3.44e-04	0	62	0	649068544	56	5908
2026-01-26 09:46:34.82	75.22	71.35	-42.9	-47.4	11.1	7.33e-04	0	62	0	651165696	56	6369
2026-01-26 09:46:35.83	73.68	71.40	-43.0	-47.4	11.0	2.01e-03	0	62	0	652214272	56	6415
2026-01-26 09:46:36.84	72.12	71.43	-43.0	-47.5	10.9	1.66e-03	0	62	0	654311424	56	6437
2026-01-26 09:46:37.85	70.56	71.46	-43.0	-47.5	11.0	2.05e-03	0	62	0	656408576	56	6474
2026-01-26 09:46:38.86	68.99	71.46	-42.8	-47.0	11.4	1.11e-03	0	62	0	658505728	56	6122
2026-01-26 09:46:39.88	67.42	71.46	-42.6	-46.6	11.8	5.56e-04	0	62	0	660602880	56	5818
2026-01-26 09:46:40.89	65.85	71.44	-42.4	-46.4	12.1	4.92e-04	0	62	0	661651456	56	5657
2026-01-26 09:46:41.90	64.30	71.41	-42.4	-46.2	12.4	1.75e-04	0	62	0	663748608	56	5565
2026-01-26 09:46:42.91	62.74	71.37	-42.6	-46.5	12.0	2.23e-04	0	62	0	665845760	56	5748
2026-01-26 09:46:43.92	61.20	71.31	-42.7	-46.8	11.7	4.16e-04	0	62	0	667942912	56	5944
2026-01-26 09:46:44.93	59.67	71.24	-42.4	-46.3	12.1	3.17e-04	0	62	0	670040064	56	5647
2026-01-26 09:46:45.94	58.15	71.16	-42.3	-46.0	12.4	1.70e-04	0	62	0	672137216	56	5453
2026-01-26 09:46:46.95	56.65	71.07	-42.3	-46.1	12.4	1.56e-04	0	62	0	673185792	56	5513
2026-01-26 09:46:47.96	55.16	70.96	-42.5	-46.4	12.1	2.35e-04	0	62	0	675282944	56	5681
2026-01-26 09:46:48.97	53.70	70.84	-42.6	-46.6	11.9	3.86e-04	0	62	0	677380096	56	5795
2026-01-26 09:46:49.98	52.25	70.71	-42.6	-46.6	11.8	3.55e-04	0	62	0	679477248	56	5855
2026-01-26 09:46:50.99	50.82	70.57	-42.8	-47.0	11.5	4.81e-04	0	62	0	681574400	56	6111
2026-01-26 09:46:52.00	49.42	70.42	-42.9	-47.3	11.1	9.65e-04	0	62	0	682622976	56	6330
2026-01-26 09:46:53.01	48.04	70.26	-43.1	-47.7	10.7	2.56e-03	0	62	0	684720128	56	6596
2026-01-26 09:46:54.02	46.69	70.09	-43.2	-48.1	10.3	3.59e-03	0	62	0	686817280	57	6567
2026-01-26 09:46:55.03	45.36	69.90	-43.3	-48.3	10.1	9.23e-03	0	62	0	688914432	57	6708
2026-01-26 09:46:56.04	44.06	69.71	-43.5	-48.8	9.6	9.58e-03	0	62	0	691011584	57	7059
2026-01-26 09:46:57.05	42.78	69.51	-43.8	-49.6	8.8	2.03e-02	0	62	0	692060160	58	7293
2026-01-26 09:46:58.06	41.53	69.30	-43.8	-49.6	8.8	3.33e-02	0	62	0	694157312	58	7319
2026-01-26 09:46:59.07	40.31	69.08	-43.7	-49.4	8.9	3.12e-02	0	62	0	696254464	58	7171
2026-01-26 09:47:00.08	39.12	68.86	-43.7	-49.2	9.1	3.09e-02	0	62	0	698351616	58	7013
2026-01-26 09:47:01.09	37.95	68.62	-43.5	-48.7	9.6	1.57e-02	0	62	0	700448768	58	6605
2026-01-26 09:47:02.10	36.82	68.38	-43.8	-49.6	8.8	2.22e-02	0	62	0	701497344	58	7312
2026-01-26 09:47:03.11	35.71	68.13	-44.0	-50.5	7.8	5.07e-02	0	62	0	703594496	58	8163
2026-01-26 09:47:04.12	34.63	67.87	-44.1	-50.8	7.5	1.01e-01	0	62	0	705691648	58	8426
2026-01-26 09:47:05.13	33.57	67.61	-44.0	-50.4	8.0	6.94e-02	0	62	0	707788800	58	8051
2026-01-26 09:47:06.14	32.54	67.35	-43.8	-49.6	8.8	4.63e-02	0	62	0	709885952	58	7340
2026-01-26 09:47:07.15	31.54	67.07	-43.5	-48.6	9.8	1.29e-02	0	62	0	710934528	58	6553
2026-01-26 09:47:08.16	30.57	66.79	-43.4	-48.5	9.9	9.23e-03	0	62	0	713031680	58	6457
2026-01-26 09:47:09.17	29.62	66.51	-43.2	-48.0	10.5	5.26e-03	0	62	0	715128832	58	6088
2026-01-26 09:47:10.18	28.69	66.22	-43.0	-47.5	11.0	3.76e-03	0	62	0	717225984	58	5779
2026-01-26 09:47:11.19	27.79	65.93	-42.9	-47.4	11.1	1.40e-03	0	62	0	719323136	57	6008
2026-01-26 09:47:12.20	26.92	65.63	-42.5	-46.5	12.1	7.53e-04	0	62	0	720371712	56	5734
2026-01-26 09:47:13.21	26.07	65.33	-42.2	-45.8	12.8	1.43e-04	0	62	0	722468864	56	5322
2026-01-26 09:47:14.21	25.25	65.03	-42.0	-45.4	13.2	3.28e-05	0	62	0	724566016	56	5069
2026-01-26 09:47:15.22	24.44	64.72	-41.7	-44.9	13.5	1.22e-05	0	62	0	726663168	55	5076
2026-01-26 09:47:16.23	23.65	64.41	-41.4	-44.6	13.9	7.60e-06	0	62	0	728760320	54	5174
2026-01-26 09:47:17.24	22.89	64.10	-41.5	-44.6	13.8	5.30e-06	0	62	0	729808896	54	5196
2026-01-26 09:47:18.25	22.15	63.78	-41.5	-44.6	13.8	4.50e-06	0	62	0	731906048	54	5197
2026-01-26 09:47:19.26	21.42	63.46	-41.5	-44.6	13.8	3.00e-06	0	62	0	734003200	54	5198
2026-01-26 09:47:20.27	20.72	63.14	-41.5	-44.6	13.8	5.30e-06	0	62	0	736100352	54	5184
2026-01-26 09:47:21.28	20.04	62.81	-41.5	-44.6	13.8	3.80e-06	0	62	0	738197504	54	5204
2026-01-26 09:47:22.29	19.37	62.49	-41.5	-44.6	13.8	3.00e-06	0	62	0	740294656	54	5210
2026-01-26 09:47:23.30	18.72	62.16	-41.5	-44.7	13.7	5.30e-06	0	62	0	741343232	54	5277
2026-01-26 09:47:24.31	18.09	61.83	-41.6	-44.8	13.7	1.29e-05	0	62	0	743440384	54	5296
2026-01-26 09:47:25.32	17.48	61.50	-41.7	-44.9	13.5	3.80e-06	0	62	0	745537536	54	5396
2026-01-26 09:47:26.33	16.88	61.17	-41.9	-45.4	13.0	2.28e-05	0	62	0	747634688	54	5674
2026-01-26 09:47:27.34	16.30	60.84	-42.0	-45.6	12.8	5.49e-05	0	62	0	749731840	54	5836
2026-01-26 09:47:28.35	15.73	60.51	-42.1	-45.8	12.7	7.09e-05	0	62	0	750780416	54	5945
2026-01-26 09:47:29.36	15.18	60.18	-42.2	-45.9	12.6	9.00e-05	0	62	0	752877568	54	5997
2026-01-26 09:47:30.37	14.64	59.84	-42.2	-46.5	11.8	2.93e-04	0	62	0	754974720	55	6129
2026-01-26 09:47:31.38	14.12	59.51	-43.1	-47.8	10.7	1.68e-03	0	62	0	757071872	56	6695
2026-01-26 09:47:32.39	13.60	59.17	-43.2	-48.0	10.4	5.57e-03	0	62	0	759169024	57	6478
2026-01-26 09:47:33.40	13.11	58.84	-43.1	-47.8	10.6	3.29e-03	0	62	0	760217600	57	6284
2026-01-26 09:47:34.41	12.62	58.50	-43.2	-47.9	10.5	3.47e-03	0	62	0	762314752	57	6409
2026-01-26 09:47:35.41	12.15	58.17	-43.2	-48.1	10.3	4.77e-03	0	62	0	764411904	57	6530
2026-01-26 09:47:36.42	11.69	57.84	-43.2	-48.1	10.3	6.47e-03	0	62	0	766509056	57	6526
2026-01-26 09:47:37.43	11.24	57.50	-43.4	-48.4	10.0	6.61e-03	0	62	0	768606208	57	6791
2026-01-26 09:47:38.44	10.80	57.17	-43.4	-48.8	9.6	1.30e-02	0	62	0	769654784	57	7061
2026-01-26 09:47:39.45	10.38	56.83	-43.3	-48.2	10.2	1.28e-02	0	62	0	771751936	57	6581
2026-01-26 09:47:40.46	9.96	56.50	-42.8	-47.0	11.4	2.11e-03	0	62	0	773849088	57	5764
2026-01-26 09:47:41.47	9.55	56.17	-42.6	-46.5	12.0	4.29e-04	0	62	0	775946240	57	5457
2026-01-26 09:47:42.48	9.15	55.84	-42.3	-46.4	12.1	3.43e-04	0	62	0	778043392	56	5680
2026-01-26 09:47:43.49	8.76	55.50	-42.2	-46.1	12.2	1.91e-04	0	62	0	779091968	55	5790
2026-01-26 09:47:44.50	8.38	55.17	-42.2	-46.0	12.3	1.54e-04	0	62	0	781189120	55	5738
2026-01-26 09:47:45.51	8.01	54.84	-41.9	-45.5	12.8	1.54e-04	0	62	0	783286272	54	5774
2026-01-26 09:47:46.52	7.65	54.51	-41.8	-45.1	13.3	2.44e-05	0	62	0	785383424	54	5507
2026-01-26 09:47:47.53	7.30	54.19	-41.8	-45.2	13.2	2.44e-05	0	62	0	787480576	54	5570
2026-01-26 09:47:48.54	6.95	53.86	-41.9	-45.3	13.1	2.21e-05	0	62	0	788529152	54	5653
2026-01-26 09:47:49.55	6.61	53.53	-41.7	-45.1	13.3	2.59e-05	0	62	0	790626304	54	5489
2026-01-26 09:47:50.56	6.28	53.21	-41.6	-44.8	13.6	1.52e-05	0	62	0	792723456	54	5298
2026-01-26 09:47:51.57	5.96	52.88	-41.4	-44.7	13.7	4.50e-06	0	62	0	794820608	53	5530
2026-01-26 09:47:52.58	5.64	52.56	-41.7	-45.0	13.4	3.80e-06	0	62	0	796917760	53	5736
2026-01-26 09:47:53.59	5.34	52.24	-41.8	-45.1	13.2	1.90e-05	0	62	0	797966336	54	5524
2026-01-26 09:47:54.60	5.03	51.92	-41.9	-45.4	13.0	2.44e-05	0	62	0	800063488	54	5678
2026-01-26 09:47:55.61	4.74	51.60	-42.1	-45.8	12.5	5.79e-05	0	62	0	802160640	54	5979
2026-01-26 09:47:56.62	4.45	51.28	-41.6	-46.3	12.1	1.80e-04	0	62	0	804257792	55	5972
2026-01-26 09:47:57.63	4.16	50.97	-42.5	-46.5	11.8	4.68e-04	0	62	0	806354944	55	6093
2026-01-26 09:47:58.64	3.89	50.65	-42.6	-46.8	11.4	5.84e-04	0	62	0	808452096	55	6330
2026-01-26 09:47:59.65	3.62	50.34	-42.6	-46.9	11.4	8.06e-04	0	62	0	809500672	55	6395
2026-01-26 09:48:00.66	3.35	50.03	-42.9	-47.4	11.1	1.30e-03	0	62	0	811597824	56	6356
2026-01-26 09:48:01.67	3.09	49.72	-43.1	-47.8	10.7	1.76e-03	0	62	0	813694976	56	6691
2026-01-26 09:48:02.68	2.83	49.41	-43.1	-47.9	10.5	3.74e-03	0	62	0	815792128	56	6744
2026-01-26 09:48:03.69	2.58	49.10	-43.1	-48.0	10.4	4.41e-03	0	62	0	817889280	56	6816
2026-01-26 09:48:04.70	2.34	48.80	-43.1	-47.9	10.5	4.55e-03	0	62	0	818937856	56	6743
2026-01-26 09:48:05.71	2.10	48.49	-43.2	-48.2	10.2	4.92e-03	0	62	0	821035008	57	6594
2026-01-26 09:48:06.72	1.86	48.19	-43.3	-48.2	10.1	6.61e-03	0	62	0	823132160	57	6626
2026-01-26 09:48:07.73	1.63	47.89	-43.2	-48.2	10.2	6.30e-03	0	62	0	825229312	57	6581
2026-01-26 09:48:08.73	1.41	47.59	-43.1	-47.9	10.5	4.40e-03	0	62	0	827326464	56	6748
2026-01-26 09:48:09.74	1.19	47.29	-43.2	-48.0	10.5	3.49e-03	0	62	0	828375040	56	6841
2026-01-26 09:48:10.75	0.97	47.00	-43.1	-47.9	10.5	4.27e-03	0	62	0	830472192	56	6781
2026-01-26 09:48:11.76	0.76	46.70	-43.0	-47.9	10.5	3.90e-03	0	62	0	832569344	56	6769
2026-01-26 09:48:12.77	0.55	46.41	-43.0	-47.6	10.8	2.78e-03	0	62	0	834666496	56	6556
2026-01-26 09:48:13.79	0.34	46.12	-43.1	-47.8	10.6	2.78e-03	0	62	0	836763648	56	6706
2026-01-26 09:48:14.80	0.14	45.83	-42.9	-47.7	10.7	3.60e-03	0	62	0	837812224	56	6578
2026-01-26 09:48:15.80	359.94	45.54	-42.7	-47.7	10.7	2.76e-03	0	62	0	839909376	56	6628
2026-01-26 09:48:16.81	359.75	45.25	-43.0	-47.5	10.9	2.71e-03	0	62	0	842006528	56	6486
2026-01-26 09:48:17.82	359.56	44.97	-43.1	-47.9	10.5	2.92e-03	0	62	0	844103680	56	6786
2026-01-26 09:48:18.83	359.37	44.69	-43.2	-48.1	10.3	4.89e-03	0	62	0	846200832	56	6901
2026-01-26 09:48:19.84	359.18	44.41	-43.1	-47.9	10.5	3.71e-03	0	62	0	847249408	56	6772
2026-01-26 09:48:20.85	359.00	44.13	-43.1	-47.8	10.6	3.68e-03	0	62	0	849346560	56	6700
2026-01-26 09:48:21.87	358.82	43.85	-43.1	-47.9	10.5	3.63e-03	0	62	0	851443712	56	6756
2026-01-26 09:48:22.88	358.65	43.57	-43.2	-48.0	10.4	4.51e-03	0	62	0	853540864	56	6862
2026-01-26 09:48:23.89	358.48	43.29	-43.3	-48.4	10.0	5.46e-03	0	62	0	855638016	57	6725
2026-01-26 09:48:24.90	358.31	43.02	-43.4	-48.6	9.7	1.03e-02	0	62	0	856686592	57	6959
2026-01-26 09:48:25.91	358.14	42.75	-43.6	-49.3	9.1	1.99e-02	0	62	0	858783744	57	7499
2026-01-26 09:48:26.92	357.98	42.48	-43.5	-49.3	8.9	2.59e-02	0	62	0	860880896	57	7465
2026-01-26 09:48:27.93	357.82	42.21	-43.6	-49.3	9.0	2.04e-02	0	62	0	862978048	57	7476
2026-01-26 09:48:28.93	357.67	41.95	-43.6	-49.2	9.1	2.33e-02	0	62	0	865075200	57	7425
2026-01-26 09:48:29.94	357.51	41.69	-43.6	-49.2	9.1	2.18e-02	0	62	0	866123776	57	7426
2026-01-26 09:48:30.96	357.36	41.42	-43.6	-49.2	9.2	2.38e-02	0	62	0	868220928	57	7387
2026-01-26 09:48:31.97	357.21	41.16	-43.5	-48.9	9.4	1.87e-02	0	62	0	870318080	57	7183
2026-01-26 09:48:32.98	357.06	40.90	-43.5	-48.9	9.4	1.92e-02	0	62	0	872415232	57	7185
2026-01-26 09:48:33.99	356.92	40.64	-43.5	-49.1	9.2	1.89e-02	0	62	0	874512384	57	7336
2026-01-26 09:48:35.00	356.77	40.39	-43.5	-48.8	9.5	1.91e-02	0	62	0	876609536	57	7087
2026-01-26 09:48:36.01	356.63	40.13	-43.5	-49.0	9.4	1.51e-02	0	62	0	877658112	57	7226
2026-01-26 09:48:37.02	356.50	39.88	-43.5	-48.9	9.4	1.72e-02	0	62	0	879755264	57	7173
2026-01-26 09:48:38.03	356.36	39.63	-43.3	-48.4	9.9	1.41e-02	0	62	0	881852416	57	6783
2026-01-26 09:48:39.04	356.23	39.38	-43.3	-48.4	9.9	9.49e-03	0	62	0	883949568	57	6762
2026-01-26 09:48:40.05	356.10	39.13	-43.2	-48.1	10.2	8.32e-03	0	62	0	886046720	57	6529
2026-01-26 09:48:41.06	355.97	38.88	-43.1	-48.0	10.4	6.77e-03	0	62	0	887095296	57	6423
2026-01-26 09:48:42.07	355.84	38.64	-43.0	-47.7	10.7	3.44e-03	0	62	0	889192448	57	6235
2026-01-26 09:48:43.08	355.71	38.40	-43.1	-47.8	10.6	3.20e-03	0	62	0	891289600	57	6279
2026-01-26 09:48:44.09	355.59	38.15	-43.1	-47.8	10.6	3.45e-03	0	62	0	893386752	57	6303
2026-01-26 09:48:45.10	355.47	37.91	-43.0	-47.7	10.7	3.30e-03	0	62	0	895483904	57	6229
2026-01-26 09:48:46.11	355.35	37.68	-43.0	-47.6	10.8	2.80e-03	0	62	0	896532480	57	6132
2026-01-26 09:48:47.12	355.23	37.44	-43.0	-47.7	10.7	2.91e-03	0	62	0	898629632	57	6207
2026-01-26 09:48:48.12	355.11	37.21	-42.9	-47.5	10.9	2.61e-03	0	62	0	900726784	57	6093
2026-01-26 09:48:49.13	355.00	36.97	-42.9	-47.5	10.9	2.11e-03	0	62	0	902823936	57	6073
2026-01-26 09:48:50.14	354.89	36.74	-42.9	-47.4	10.9	2.25e-03	0	62	0	904921088	57	6059
2026-01-26 09:48:51.15	354.77	36.51	-43.0	-47.8	10.6	3.19e-03	0	62	0	905969664	57	6281
2026-01-26 09:48:52.16	354.67	36.28	-43.2	-48.1	10.2	4.99e-03	0	62	0	908066816	57	6495
2026-01-26 09:48:53.16	354.56	36.05	-43.2	-48.3	10.0	6.48e-03	0	62	0	910163968	57	6672
2026-01-26 09:48:54.17	354.45	35.83	-43.3	-48.4	9.9	8.28e-03	0	62	0	912261120	57	6729
2026-01-26 09:48:55.18	354.35	35.60	-43.2	-48.3	9.9	8.05e-03	0	62	0	914358272	57	6721
2026-01-26 09:48:56.19	354.24	35.38	-43.2	-48.1	10.1	8.23e-03	0	62	0	915406848	57	6562
2026-01-26 09:48:57.20	354.14	35.16	-43.2	-48.1	10.2	6.74e-03	0	62	0	917504000	57	6527
2026-01-26 09:48:58.21	354.04	34.94	-43.2	-48.2	10.1	6.57e-03	0	62	0	919601152	57	6608
2026-01-26 09:48:59.22	353.94	34.72	-43.3	-48.5	9.8	8.69e-03	0	62	0	921698304	57	6824
2026-01-26 09:49:00.23	353.84	34.50	-43.4	-48.6	9.6	1.05e-02	0	62	0	923795456	57	6955
2026-01-26 09:49:01.24	353.75	34.28	-43.4	-48.7	9.6	1.28e-02	0	62	0	924844032	57	6978
2026-01-26 09:49:02.25	353.65	34.07	-43.4	-48.7	9.5	1.42e-02	0	62	0	926941184	57	7012
2026-01-26 09:49:03.26	353.56	33.85	-43.4	-48.7	9.5	1.53e-02	0	62	0	929038336	57	7001
2026-01-26 09:49:04.27	353.46	33.64	-43.4	-48.9	9.4	1.66e-02	0	62	0	931135488	57	7129
2026-01-26 09:49:05.28	353.37	33.43	-43.4	-48.9	9.4	1.79e-02	0	62	0	933232640	57	7134
2026-01-26 09:49:06.29	353.28	33.22	-43.5	-49.1	9.1	1.87e-02	0	62	0	934281216	57	7330
2026-01-26 09:49:07.29	353.19	33.02	-43.5	-49.2	9.0	2.35e-02	0	62	0	936378368	57	7387
2026-01-26 09:49:08.30	353.11	32.81	-43.5	-49.3	8.9	2.26e-02	0	62	0	938475520	57	7474
2026-01-26 09:49:09.31	353.02	32.61	-43.5	-49.1	9.1	2.49e-02	0	62	0	940572672	57	7345
2026-01-26 09:49:10.32	352.93	32.40	-43.5	-49.0	9.1	2.18e-02	0	62	0	942669824	57	7278
2026-01-26 09:49:11.33	352.85	32.20	-43.3	-48.7	9.5	1.75e-02	0	62	0	944766976	57	7002
2026-01-26 09:49:12.33	352.77	32.00	-43.3	-48.7	9.5	1.48e-02	0	62	0	945815552	57	6974
2026-01-26 09:49:13.35	352.68	31.80	-43.4	-48.8	9.3	1.64e-02	0	62	0	947912704	57	7116
2026-01-26 09:49:14.36	352.60	31.60	-43.4	-49.0	9.2	1.92e-02	0	62	0	950009856	57	7225
2026-01-26 09:49:15.37	352.52	31.40	-43.5	-49.2	8.9	2.41e-02	0	62	0	952107008	57	7435
2026-01-26 09:49:16.38	352.44	31.20	-43.5	-49.2	8.9	2.93e-02	0	62	0	954204160	57	7445
2026-01-26 09:49:17.39	352.36	31.01	-43.5	-49.3	8.8	2.88e-02	0	62	0	955252736	57	7525
2026-01-26 09:49:18.40	352.29	30.82	-43.5	-49.4	8.7	3.36e-02	0	62	0	957349888	57	7591
2026-01-26 09:49:19.41	352.21	30.62	-43.6	-49.5	8.7	3.55e-02	0	62	0	959447040	57	7648
2026-01-26 09:49:20.42	352.13	30.43	-43.6	-49.5	8.6	4.02e-02	0	62	0	961544192	57	7702
2026-01-26 09:49:21.43	352.06	30.24	-43.6	-49.5	8.6	3.73e-02	0	62	0	963641344	57	7670
2026-01-26 09:49:22.44	351.99	30.05	-43.6	-49.5	8.6	4.33e-02	0	62	0	964689920	57	7686
2026-01-26 09:49:23.45	351.91	29.87	-43.5	-49.3	8.8	3.24e-02	0	62	0	966787072	57	7508
2026-01-26 09:49:24.46	351.84	29.68	-43.4	-49.2	8.8	2.99e-02	0	62	0	968884224	57	7441
2026-01-26 09:49:25.47	351.77	29.49	-43.4	-49.0	9.1	2.48e-02	0	62	0	970981376	57	7261
2026-01-26 09:49:26.48	351.70	29.31	-43.3	-48.8	9.2	2.38e-02	0	62	0	973078528	57	7094
2026-01-26 09:49:27.49	351.63	29.13	-43.3	-48.7	9.4	1.70e-02	0	62	0	974127104	57	7011
2026-01-26 09:49:28.50	351.56	28.94	-43.3	-48.9	9.1	1.90e-02	0	62	0	976224256	57	7170
2026-01-26 09:49:29.51	351.50	28.76	-43.3	-48.8	9.2	2.00e-02	0	62	0	978321408	57	7098
2026-01-26 09:49:30.52	351.43	28.58	-43.3	-48.9	9.1	2.08e-02	0	62	0	980418560	57	7183
2026-01-26 09:49:31.53	351.36	28.41	-43.3	-48.9	9.2	2.11e-02	0	62	0	982515712	57	7137
2026-01-26 09:49:32.54	351.30	28.23	-43.3	-48.9	9.1	2.14e-02	0	62	0	983564288	57	7153
2026-01-26 09:49:33.55	351.23	28.05	-43.2	-48.7	9.2	1.83e-02	0	62	0	985661440	57	7005
2026-01-26 09:49:34.56	351.17	27.88	-43.2	-48.6	9.4	1.76e-02	0	62	0	987758592	57	6905
2026-01-26 09:49:35.56	351.11	27.70	-43.1	-48.5	9.5	1.55e-02	0	62	0	989855744	57	6820
2026-01-26 09:49:36.58	351.04	27.53	-43.0	-48.1	9.9	9.19e-03	0	62	0	991952896	57	6545
2026-01-26 09:49:37.58	350.98	27.36	-42.9	-47.9	10.1	7.63e-03	0	62	0	993001472	57	6402
2026-01-26 09:49:38.59	350.92	27.19	-42.9	-47.9	10.1	7.77e-03	0	62	0	995098624	57	6352
2026-01-26 09:49:39.60	350.86	27.02	-42.9	-47.7	10.2	5.97e-03	0	62	0	997195776	57	6274
2026-01-26 09:49:40.62	350.80	26.85	-42.9	-47.8	10.2	6.26e-03	0	62	0	999292928	57	6329
2026-01-26 09:49:41.63	350.74	26.68	-42.9	-47.9	10.1	5.96e-03	0	62	0	1001390080	57	6359
2026-01-26 09:49:42.64	350.68	26.51	-42.9	-47.9	10.0	7.21e-03	0	62	0	1002438656	57	6365
2026-01-26 09:49:43.65	350.63	26.35	-42.8	-47.9	10.0	8.16e-03	0	62	0	1004535808	57	6371
2026-01-26 09:49:44.66	350.57	26.18	-42.9	-48.0	9.9	9.30e-03	0	62	0	1006632960	57	6450
2026-01-26 09:49:45.66	350.51	26.02	-42.8	-47.9	9.9	8.99e-03	0	62	0	1008730112	57	6415
2026-01-26 09:49:46.67	350.46	25.86	-42.8	-48.0	9.8	1.01e-02	0	62	0	1010827264	57	6442
2026-01-26 09:49:47.68	350.40	25.69	-42.8	-48.0	9.7	1.20e-02	0	62	0	1011875840	57	6463
2026-01-26 09:49:48.69	350.35	25.53	-42.7	-47.9	9.8	9.54e-03	0	62	0	1013972992	57	6361
2026-01-26 09:49:49.70	350.29	25.37	-42.7	-47.9	9.9	9.54e-03	0	62	0	1016070144	57	6349
2026-01-26 09:49:50.71	350.24	25.21	-42.7	-47.8	9.9	8.89e-03	0	62	0	1018167296	57	6276
2026-01-26 09:49:51.72	350.19	25.05	-42.6	-47.5	10.2	7.01e-03	0	62	0	1020264448	57	6121
2026-01-26 09:49:52.73	350.14	24.90	-42.5	-47.4	10.3	5.30e-03	0	62	0	1022361600	57	5997
2026-01-26 09:49:53.74	350.08	24.74	-42.5	-47.4	10.3	5.06e-03	0	62	0	1023410176	57	5999
2026-01-26 09:49:54.75	350.03	24.58	-42.5	-47.3	10.3	5.59e-03	0	62	0	1025507328	56	6312
2026-01-26 09:49:55.76	349.98	24.43	-42.4	-47.2	10.4	4.41e-03	0	62	0	1027604480	56	6247
2026-01-26 09:49:56.78	349.93	24.27	-42.4	-47.2	10.4	5.41e-03	0	62	0	1029701632	56	6254
2026-01-26 09:49:57.78	349.88	24.12	-42.3	-47.0	10.6	4.63e-03	0	62	0	1031798784	56	6065
2026-01-26 09:49:58.79	349.83	23.97	-42.3	-47.1	10.4	3.90e-03	0	62	0	1032847360	56	6147
2026-01-26 09:49:59.80	349.79	23.82	-42.2	-46.8	10.7	3.65e-03	0	62	0	1034944512	56	5972
2026-01-26 09:50:00.81	349.74	23.67	-42.1	-46.5	10.9	2.06e-03	0	62	0	1037041664	56	5778
2026-01-26 09:50:01.82	349.69	23.52	-42.1	-46.7	10.7	2.25e-03	0	62	0	1039138816	56	5864
2026-01-26 09:50:02.83	349.64	23.37	-42.0	-46.5	10.8	2.94e-03	0	62	0	1041235968	56	5777
2026-01-26 09:50:03.84	349.60	23.22	-41.7	-46.2	10.9	2.18e-03	0	62	0	1042284544	55	5887
2026-01-26 09:50:04.85	349.55	23.08	-41.7	-46.3	10.7	2.47e-03	0	62	0	1044381696	55	5962
2026-01-26 09:50:05.86	349.51	22.93	-41.8	-46.8	10.0	6.39e-03	0	62	0	1046478848	55	6287
2026-01-26 09:50:06.87	349.46	22.78	-41.7	-46.7	10.0	8.81e-03	0	62	0	1048576000	55	6222
2026-01-26 09:50:07.88	349.42	22.64	-41.5	-46.2	10.4	5.64e-03	0	62	0	1050673152	55	5899
2026-01-26 09:50:08.89	349.37	22.50	-41.4	-46.2	10.4	4.64e-03	0	62	0	1051721728	54	6213
2026-01-26 09:50:09.90	349.33	22.35	-41.2	-46.0	10.3	4.94e-03	0	62	0	1053818880	54	6115
2026-01-26 09:50:10.91	349.28	22.21	-41.3	-46.3	10.0	6.26e-03	0	62	0	1055916032	54	6308
2026-01-26 09:50:11.92	349.24	22.07	-41.1	-46.1	9.9	8.99e-03	0	62	0	1058013184	54	6189
2026-01-26 09:50:12.93	349.20	21.93	-41.1	-46.2	9.8	9.55e-03	0	62	0	1060110336	54	6258
2026-01-26 09:50:13.94	349.16	21.79	-41.2	-46.7	9.3	1.49e-02	0	62	0	1061158912	54	6589
2026-01-26 09:50:14.95	349.12	21.65	-41.3	-47.2	8.6	2.59e-02	0	62	0	1063256064	54	6998
2026-01-26 09:50:15.96	349.07	21.51	-41.5	-48.0	7.7	6.98e-02	0	62	0	1065353216	54	7697
2026-01-26 09:50:16.97	349.03	21.37	-41.6	-49.0	6.7	1.44e-01	0	62	0	1067450368	54	8646
2026-01-26 09:50:17.98	348.99	21.24	-41.7	-50.2	5.6	2.93e-01	0	62	0	1069547520	54	9891
2026-01-26 09:50:18.99	348.95	21.10	-41.8	-51.4	4.8	7.11e-01	0	62	0	1070596096	54	11370
2026-01-26 09:50:20.00	348.91	20.96	-41.7	-52.7	4.3	1.16e+00	0	62	0	1072693248	54	13150
2026-01-26 09:50:21.01	348.87	20.83	-41.7	-53.9	3.9	1.43e+00	0	62	104	1072693248	54	15165
2026-01-26 09:50:22.02	348.83	20.70	-41.6	-54.6	3.8	1.49e+00	0	62	104	1072693248	54	16390
2026-01-26 09:50:23.02	348.80	20.56	-41.6	-55.7	3.8	1.49e+00	0	62	104	1072693248	54	18700
2026-01-26 09:50:24.03	348.76	20.43	-41.3	-55.7	3.8	1.49e+00	0	62	104	1072693248	54	18622
2026-01-26 09:50:25.04	348.72	20.30	-41.2	-55.6	3.8	1.49e+00	0	62	104	1072693248	54	18414
2026-01-26 09:50:26.05	348.68	20.17	-41.9	-55.8	3.8	1.49e+00	0	62	104	1072693248	54	18863
2026-01-26 09:50:27.06	348.65	20.04	-41.2	-55.8	3.8	1.49e+00	0	62	104	1072693248	54	18843
2026-01-26 09:50:28.07	348.61	19.91	-41.2	-55.7	3.8	1.49e+00	0	62	104	1072693248	54	18575
2026-01-26 09:50:29.08	348.57	19.78	-41.1	-55.5	3.8	1.49e+00	0	62	104	1072693248	54	18295
2026-01-26 09:50:30.09	348.54	19.65	-41.4	-55.9	3.8	1.49e+00	0	62	104	1072693248	54	18949
2026-01-26 09:50:31.10	348.50	19.52	-41.2	-55.8	3.8	1.49e+00	0	62	104	1072693248	54	18779
2026-01-26 09:50:32.11	348.47	19.39	-41.1	-55.6	3.8	1.49e+00	0	62	104	1072693248	54	18392
2026-01-26 09:50:33.12	348.43	19.27	-41.0	-55.5	3.8	1.49e+00	0	62	104	1072693248	54	18211
2026-01-26 09:50:34.13	348.40	19.14	-41.1	-55.7	3.8	1.49e+00	0	62	104	1072693248	54	18690
2026-01-26 09:50:35.14	348.36	19.01	-41.2	-55.8	3.8	1.49e+00	0	62	104	1072693248	54	18792
2026-01-26 09:50:36.15	348.33	18.89	-40.9	-55.4	3.8	1.49e+00	0	62	104	1072693248	53	19141
2026-01-26 09:50:37.16	348.29	18.77	-41.1	-55.6	3.8	1.49e+00	0	62	104	1072693248	53	19542
2026-01-26 09:50:38.17	348.26	18.64	-41.2	-55.7	3.8	1.49e+00	0	62	104	1072693248	53	19777
2026-01-26 09:50:39.18	348.23	18.52	-41.0	-55.5	3.8	1.49e+00	0	62	104	1072693248	53	19364
2026-01-26 09:50:40.19	348.19	18.40	-41.0	-55.5	3.8	1.49e+00	0	62	104	1072693248	53	19211
2026-01-26 09:50:41.20	348.16	18.27	-41.3	-55.8	3.8	1.49e+00	0	62	104	1072693248	53	20030
2026-01-26 09:50:42.21	348.13	18.15	-41.1	-55.6	3.8	1.49e+00	0	62	104	1072693248	53	19590
2026-01-26 09:50:43.22	348.10	18.03	-41.0	-55.5	3.8	1.49e+00	0	62	104	1072693248	53	19264
2026-01-26 09:50:44.23	348.06	17.91	-41.2	-55.7	3.8	1.49e+00	0	62	104	1072693248	53	19638
2026-01-26 09:50:45.24	348.03	17.79	-41.4	-55.9	3.8	1.49e+00	0	62	104	1072693248	53	20168
2026-01-26 09:50:46.25	348.00	17.67	-40.9	-55.5	3.8	1.49e+00	0	62	104	1072693248	53	19223
2026-01-26 09:50:47.26	347.97	17.56	-41.2	-55.7	3.8	1.49e+00	0	62	104	1072693248	53	19698
2026-01-26 09:50:48.27	347.94	17.44	-41.4	-55.9	3.8	1.49e+00	0	62	104	1072693248	53	20119
2026-01-26 09:50:49.28	347.91	17.32	-41.5	-55.9	3.8	1.49e+00	0	62	104	1072693248	53	20155
2026-01-26 09:50:50.29	347.88	17.20	-41.0	-55.5	3.8	1.49e+00	0	62	104	1072693248	53	19343
2026-01-26 09:50:51.30	347.85	17.09	-41.4	-55.9	3.8	1.49e+00	0	62	104	1072693248	53	20171
2026-01-26 09:50:52.31	347.82	16.97	-41.4	-55.9	3.8	1.49e+00	0	62	104	1072693248	53	20131
2026-01-26 09:50:53.32	347.79	16.86	-41.4	-55.9	3.8	1.49e+00	0	62	104	1072693248	53	20125
2026-01-26 09:50:54.33	347.76	16.74	-41.3	-55.8	3.8	1.49e+00	0	62	104	1072693248	53	19891
2026-01-26 09:50:55.34	347.73	16.63	-41.5	-55.9	3.8	1.49e+00	0	62	104	1072693248	53	20266
2026-01-26 09:50:56.35	347.70	16.51	-41.4	-55.8	3.8	1.49e+00	0	62	104	1072693248	53	20002
2026-01-26 09:50:57.36	347.68	16.40	-41.4	-55.9	3.8	1.49e+00	0	62	104	1072693248	53	20154
2026-01-26 09:50:58.37	347.65	16.29	-41.4	-55.9	3.8	1.49e+00	0	62	104	1072693248	53	20225
2026-01-26 09:50:59.38	347.62	16.18	-41.4	-55.9	3.8	1.49e+00	0	62	104	1072693248	53	20095
2026-01-26 09:51:00.39	347.59	16.07	-41.4	-55.8	3.8	1.49e+00	0	62	104	1072693248	53	20039
2026-01-26 09:51:01.41	347.56	15.95	-41.4	-55.9	3.8	1.49e+00	0	62	104	1072693248	53	20301
2026-01-26 09:51:02.41	347.54	15.84	-41.4	-55.9	3.8	1.49e+00	0	62	104	1072693248	53	20186
2026-01-26 09:51:03.42	347.51	15.73	-41.4	-55.9	3.8	1.49e+00	0	62	104	1072693248	53	20155
2026-01-26 09:51:04.43	347.48	15.62	-41.4	-55.9	3.8	1.49e+00	0	62	104	1072693248	53	20192
2026-01-26 09:51:05.44	347.46	15.52	-41.5	-56.0	3.8	1.49e+00	0	62	104	1072693248	53	20508
2026-01-26 09:51:06.45	347.43	15.41	-41.4	-55.8	3.8	1.49e+00	0	62	104	1072693248	53	20032
2026-01-26 09:51:07.46	347.40	15.30	-41.5	-56.0	3.8	1.49e+00	0	62	104	1072693248	53	20423
2026-01-26 09:51:08.47	347.38	15.19	-41.4	-55.9	3.8	1.49e+00	0	62	104	1072693248	53	20094
