passes_logs/2026/01/26/R2.0S_Moscow/R2.0S_Moscow__20260126_122547_AQUA_rec.log

#Pass ID: 20260126_122547_AQUA
#Satellite: AQUA
#Configuration: AQUA
#almurnet v.1.7.20251203
#Start time: 2026-01-26 12:25:48

#Version: 2.2.20231116
#Station: R2.0S_Moscow
#Location: 37.707566 lon 55.798166 lat
#TLE: 1 27424U 02022A   26025.63222646  .00001891  00000+0  38818-3 0  9990
#TLE: 2 27424  98.4099 352.2393 0001892  65.6900 348.5270 14.61859542262445

#Time	Az	El	Level	Level2	SNR	BER	BlckErr	Temp	State	Recorded	gain1	gain2
2026-01-26 12:25:48.52	184.58	2.06	-45.0	-63.6	3.8	7.45e-01	0	53	0	0	61	30768
2026-01-26 12:25:49.52	184.63	2.13	-45.0	-63.6	3.8	7.41e-01	0	54	104	0	60	32601
2026-01-26 12:25:50.53	184.67	2.19	-45.0	-63.6	3.8	7.41e-01	0	54	104	0	60	32609
2026-01-26 12:25:51.54	184.72	2.26	-45.0	-63.5	3.8	7.44e-01	0	54	104	0	60	32549
2026-01-26 12:25:52.55	184.76	2.33	-45.0	-63.6	3.8	7.45e-01	0	54	104	0	60	32577
2026-01-26 12:25:53.56	184.80	2.39	-44.9	-63.5	3.8	7.44e-01	0	54	104	0	60	32536
2026-01-26 12:25:54.57	184.85	2.46	-45.0	-63.6	3.8	7.45e-01	0	54	104	0	60	32597
2026-01-26 12:25:55.58	184.89	2.52	-45.0	-63.5	3.8	7.45e-01	0	54	104	0	60	32540
2026-01-26 12:25:56.59	184.94	2.59	-45.0	-63.5	3.8	7.47e-01	0	54	104	0	60	32538
2026-01-26 12:25:57.61	184.98	2.66	-45.0	-63.6	3.8	7.44e-01	0	54	104	0	60	32618
2026-01-26 12:25:58.62	185.03	2.72	-45.0	-63.5	3.8	7.46e-01	0	54	104	0	60	32548
2026-01-26 12:25:59.63	185.08	2.79	-45.0	-63.5	3.8	7.44e-01	0	54	104	0	60	32533
2026-01-26 12:26:00.64	185.12	2.86	-45.0	-63.6	3.8	7.45e-01	0	54	104	0	60	32575
2026-01-26 12:26:01.65	185.17	2.92	-45.0	-63.6	3.8	7.45e-01	0	55	104	0	60	32578
2026-01-26 12:26:02.66	185.21	2.99	-45.0	-63.5	3.8	7.44e-01	0	55	104	0	60	32517
2026-01-26 12:26:03.67	185.26	3.06	-45.0	-63.6	3.8	7.45e-01	0	55	104	0	60	32607
2026-01-26 12:26:04.68	185.31	3.12	-45.0	-63.5	3.8	7.45e-01	0	55	104	0	60	32548
2026-01-26 12:26:05.69	185.35	3.19	-45.0	-63.6	3.8	7.41e-01	0	55	104	0	60	32608
2026-01-26 12:26:06.70	185.40	3.26	-45.0	-63.6	3.8	7.45e-01	0	55	104	0	60	32571
2026-01-26 12:26:07.71	185.45	3.33	-45.0	-63.6	3.8	7.46e-01	0	55	104	0	60	32599
2026-01-26 12:26:08.72	185.50	3.40	-45.0	-63.5	3.8	7.45e-01	0	55	104	0	60	32544
2026-01-26 12:26:09.73	185.54	3.46	-45.0	-63.5	3.8	7.45e-01	0	55	104	0	60	32468
2026-01-26 12:26:10.74	185.59	3.53	-45.0	-63.5	3.8	7.46e-01	0	55	104	0	60	32463
2026-01-26 12:26:11.75	185.64	3.60	-45.0	-63.5	3.8	7.43e-01	0	55	104	0	60	32438
2026-01-26 12:26:12.76	185.69	3.67	-45.0	-63.6	3.8	7.45e-01	0	55	104	0	60	32580
2026-01-26 12:26:13.77	185.74	3.74	-45.0	-63.5	3.8	7.42e-01	0	55	104	0	60	32547
2026-01-26 12:26:14.78	185.79	3.81	-45.0	-63.5	3.8	7.44e-01	0	55	104	0	60	32535
2026-01-26 12:26:15.79	185.84	3.88	-45.0	-63.6	3.8	7.43e-01	0	56	104	0	60	32579
2026-01-26 12:26:16.80	185.89	3.95	-45.0	-63.5	3.8	7.47e-01	0	55	104	0	60	32477
2026-01-26 12:26:17.81	185.94	4.02	-45.0	-63.5	3.8	7.44e-01	0	56	104	0	60	32449
2026-01-26 12:26:18.82	185.99	4.09	-45.0	-63.5	3.8	7.45e-01	0	55	104	0	60	32296
2026-01-26 12:26:19.83	186.04	4.16	-45.0	-63.5	3.8	7.44e-01	0	56	104	0	60	32352
2026-01-26 12:26:20.84	186.09	4.23	-45.0	-63.4	3.8	7.47e-01	0	56	104	0	60	32076
2026-01-26 12:26:21.85	186.14	4.30	-45.0	-63.4	3.8	7.47e-01	0	56	104	0	60	32080
2026-01-26 12:26:22.87	186.19	4.37	-45.0	-63.4	3.8	7.44e-01	0	56	104	0	60	32175
2026-01-26 12:26:23.87	186.24	4.44	-45.0	-63.4	3.8	7.43e-01	0	56	104	0	60	31926
2026-01-26 12:26:24.88	186.29	4.51	-45.0	-63.0	3.8	7.45e-01	0	56	104	0	60	30686
2026-01-26 12:26:25.89	186.34	4.58	-45.0	-62.8	3.8	7.43e-01	0	56	104	0	60	29996
2026-01-26 12:26:26.91	186.40	4.65	-44.9	-62.5	3.8	7.44e-01	0	56	104	0	60	28818
2026-01-26 12:26:27.92	186.45	4.72	-45.0	-62.5	3.8	7.46e-01	0	56	104	0	60	28999
2026-01-26 12:26:28.93	186.50	4.80	-44.9	-62.4	3.8	7.44e-01	0	56	104	0	60	28409
2026-01-26 12:26:29.94	186.55	4.87	-44.9	-62.2	3.8	7.44e-01	0	56	104	0	60	27887
2026-01-26 12:26:30.95	186.61	4.94	-44.9	-62.2	3.8	7.44e-01	0	56	104	0	60	27953
2026-01-26 12:26:31.96	186.66	5.01	-44.9	-61.9	3.8	7.44e-01	0	56	104	0	60	26988
2026-01-26 12:26:32.97	186.72	5.08	-44.9	-61.6	3.8	7.41e-01	0	56	104	0	60	25970
2026-01-26 12:26:33.98	186.77	5.16	-44.9	-61.4	3.8	7.44e-01	0	56	104	0	60	25552
2026-01-26 12:26:34.99	186.82	5.23	-44.9	-60.9	3.9	7.39e-01	0	56	104	0	60	23906
2026-01-26 12:26:36.00	186.88	5.30	-44.9	-60.4	4.1	7.39e-01	0	57	104	0	60	22555
2026-01-26 12:26:37.01	186.93	5.38	-44.9	-60.0	4.0	7.32e-01	0	57	104	0	60	21542
2026-01-26 12:26:38.02	186.99	5.45	-44.8	-59.2	4.5	7.26e-01	0	57	104	0	60	19627
2026-01-26 12:26:39.03	187.04	5.52	-44.8	-58.4	4.8	7.16e-01	0	57	104	0	60	17992
2026-01-26 12:26:40.04	187.10	5.60	-44.8	-57.5	5.3	7.01e-01	3	57	0	0	60	16136
2026-01-26 12:26:41.05	187.16	5.67	-44.7	-56.6	5.9	6.89e-01	78	57	0	524288	60	14642
2026-01-26 12:26:42.06	187.21	5.75	-44.6	-55.9	6.4	6.73e-01	92	57	0	2097152	60	13496
2026-01-26 12:26:43.07	187.27	5.82	-44.5	-54.8	7.4	6.57e-01	92	57	0	4194304	60	11954
2026-01-26 12:26:44.08	187.32	5.90	-44.4	-54.1	8.1	6.45e-01	65	57	0	6291456	60	10934
2026-01-26 12:26:45.09	187.38	5.97	-44.3	-53.4	8.8	6.37e-01	0	57	0	7864320	60	10082
2026-01-26 12:26:46.10	187.44	6.05	-44.2	-52.9	9.3	6.31e-01	0	57	0	9961472	60	9535
2026-01-26 12:26:47.12	187.50	6.12	-44.2	-52.5	9.7	6.30e-01	0	57	0	11534336	60	9117
2026-01-26 12:26:48.13	187.56	6.20	-44.1	-52.0	10.3	6.20e-01	0	57	0	13631488	60	8607
2026-01-26 12:26:49.14	187.61	6.28	-44.0	-51.5	10.8	6.18e-01	0	57	0	15728640	60	8150
2026-01-26 12:26:50.15	187.67	6.35	-44.2	-51.6	11.1	6.17e-01	0	57	0	17301504	59	8699
2026-01-26 12:26:51.16	187.73	6.43	-44.2	-51.5	11.2	6.17e-01	0	57	0	19398656	59	8608
2026-01-26 12:26:52.17	187.79	6.51	-44.2	-51.5	11.2	6.15e-01	0	57	0	20971520	59	8626
2026-01-26 12:26:53.18	187.85	6.58	-44.2	-51.6	11.1	6.15e-01	0	57	0	23068672	59	8749
2026-01-26 12:26:54.19	187.91	6.66	-44.2	-51.8	11.0	6.16e-01	0	58	0	25165824	59	8887
2026-01-26 12:26:55.20	187.97	6.74	-44.3	-52.1	10.7	6.19e-01	0	57	0	26738688	59	9216
2026-01-26 12:26:56.21	188.03	6.81	-44.3	-52.4	10.3	6.22e-01	0	58	0	28835840	59	9528
2026-01-26 12:26:57.22	188.09	6.89	-44.4	-52.7	10.0	6.23e-01	0	58	0	30932992	59	9848
2026-01-26 12:26:58.23	188.16	6.97	-44.4	-52.8	9.9	6.22e-01	0	58	0	32505856	59	9945
2026-01-26 12:26:59.24	188.22	7.05	-44.4	-52.7	9.9	6.25e-01	0	58	0	34603008	59	9913
2026-01-26 12:27:00.25	188.28	7.13	-44.3	-52.3	10.4	6.19e-01	0	57	0	36175872	59	9471
2026-01-26 12:27:01.26	188.34	7.21	-44.3	-52.0	10.7	6.20e-01	0	58	0	38273024	59	9119
2026-01-26 12:27:02.27	188.40	7.29	-44.1	-51.1	11.6	6.13e-01	0	58	0	40370176	59	8198
2026-01-26 12:27:03.29	188.47	7.37	-43.9	-50.3	12.5	6.11e-01	0	58	0	41943040	59	7481
2026-01-26 12:27:04.30	188.53	7.45	-43.6	-49.6	13.2	6.10e-01	0	58	0	44040192	59	6913
2026-01-26 12:27:05.31	188.60	7.53	-43.4	-48.8	14.0	6.08e-01	0	58	0	46137344	58	6654
2026-01-26 12:27:06.32	188.66	7.61	-43.2	-48.3	14.6	6.05e-01	0	58	0	47710208	58	6305
2026-01-26 12:27:07.33	188.72	7.69	-42.8	-47.5	15.4	6.06e-01	0	58	0	49807360	57	6084
2026-01-26 12:27:08.34	188.79	7.77	-42.7	-47.2	15.6	6.09e-01	0	58	0	51380224	57	5912
2026-01-26 12:27:09.35	188.85	7.85	-42.5	-46.7	16.2	6.08e-01	0	58	0	53477376	57	5564
2026-01-26 12:27:10.36	188.92	7.93	-42.5	-46.7	16.2	6.09e-01	0	58	0	55574528	56	5865
2026-01-26 12:27:11.37	188.99	8.01	-42.5	-46.7	16.2	6.07e-01	0	58	0	57147392	56	5915
2026-01-26 12:27:12.38	189.05	8.09	-42.6	-46.8	16.5	6.06e-01	0	58	0	59244544	56	5949
2026-01-26 12:27:13.39	189.12	8.17	-44.0	-50.4	11.3	6.14e-01	0	58	0	60293120	59	7589
2026-01-26 12:27:14.40	189.19	8.26	-43.7	-49.7	11.3	6.14e-01	0	58	104	61341696	59	7012
2026-01-26 12:27:15.41	189.25	8.34	-43.8	-49.6	13.1	6.09e-01	0	58	0	62914560	59	6941
2026-01-26 12:27:16.42	189.32	8.42	-42.7	-46.9	15.9	6.08e-01	0	58	0	64487424	57	5703
2026-01-26 12:27:17.43	189.39	8.50	-44.0	-50.7	11.9	6.15e-01	0	58	0	66584576	59	7836
2026-01-26 12:27:18.44	189.46	8.59	-42.6	-46.9	16.1	6.07e-01	0	58	0	68157440	57	5657
2026-01-26 12:27:19.45	189.53	8.67	-42.5	-46.7	16.3	6.08e-01	0	58	0	70254592	57	5557
2026-01-26 12:27:20.46	189.60	8.76	-42.4	-46.4	16.6	6.05e-01	0	59	0	72351744	56	5675
2026-01-26 12:27:21.47	189.67	8.84	-42.6	-46.8	16.2	6.05e-01	0	59	0	73924608	56	5924
2026-01-26 12:27:22.48	189.74	8.92	-42.4	-46.3	16.7	6.06e-01	0	59	0	76021760	56	5653
2026-01-26 12:27:23.49	189.81	9.01	-42.4	-46.3	16.7	6.05e-01	0	59	0	77594624	56	5632
2026-01-26 12:27:24.50	189.88	9.09	-42.5	-46.7	16.4	6.07e-01	0	59	0	79691776	56	5877
2026-01-26 12:27:25.51	189.95	9.18	-42.6	-46.7	16.3	6.06e-01	0	59	0	81788928	56	5892
2026-01-26 12:27:26.52	190.03	9.26	-42.4	-46.4	16.6	6.05e-01	0	59	0	83361792	56	5719
2026-01-26 12:27:27.53	190.10	9.35	-42.4	-46.4	16.7	6.06e-01	0	59	0	85458944	56	5658
2026-01-26 12:27:28.54	190.17	9.44	-42.5	-46.5	16.5	6.06e-01	0	59	0	87556096	56	5788
2026-01-26 12:27:29.55	190.25	9.52	-42.5	-46.5	16.6	6.06e-01	0	59	0	89128960	56	5759
2026-01-26 12:27:30.55	190.32	9.61	-42.4	-46.3	16.8	6.06e-01	0	59	0	91226112	56	5614
2026-01-26 12:27:31.56	190.39	9.70	-42.3	-46.1	17.1	6.06e-01	0	59	0	92798976	56	5480
2026-01-26 12:27:32.57	190.47	9.78	-42.3	-46.0	17.2	6.08e-01	0	59	0	94896128	56	5430
2026-01-26 12:27:33.58	190.54	9.87	-42.2	-46.0	17.1	6.05e-01	0	59	0	96993280	56	5428
2026-01-26 12:27:34.59	190.62	9.96	-42.2	-45.9	17.2	6.06e-01	0	59	0	98566144	56	5398
2026-01-26 12:27:35.60	190.70	10.05	-42.2	-45.9	17.2	6.05e-01	0	59	0	100663296	56	5391
2026-01-26 12:27:36.62	190.77	10.14	-42.3	-46.0	17.2	6.05e-01	0	59	0	102236160	56	5427
2026-01-26 12:27:37.63	190.85	10.23	-42.2	-45.9	17.3	6.05e-01	0	59	0	104333312	56	5355
2026-01-26 12:27:38.64	190.93	10.32	-42.2	-45.9	17.2	6.06e-01	0	59	0	106430464	56	5354
2026-01-26 12:27:39.65	191.01	10.40	-42.3	-46.0	17.1	6.07e-01	0	59	0	108003328	56	5447
2026-01-26 12:27:40.66	191.09	10.49	-42.3	-46.0	17.2	6.07e-01	0	59	0	110100480	56	5430
2026-01-26 12:27:41.66	191.16	10.58	-42.3	-46.0	17.2	6.08e-01	0	59	0	111673344	56	5442
2026-01-26 12:27:42.67	191.24	10.67	-42.3	-46.0	17.1	6.06e-01	0	59	0	113770496	56	5445
2026-01-26 12:27:43.69	191.32	10.77	-42.3	-45.9	17.4	6.05e-01	0	59	0	115867648	56	5360
2026-01-26 12:27:44.70	191.41	10.86	-42.3	-46.0	17.3	6.05e-01	0	59	0	117440512	56	5408
2026-01-26 12:27:45.71	191.49	10.95	-42.2	-45.8	17.4	6.06e-01	0	59	0	119537664	56	5326
2026-01-26 12:27:46.72	191.57	11.04	-42.2	-45.8	17.5	6.06e-01	0	59	0	121110528	56	5295
2026-01-26 12:27:47.73	191.65	11.13	-42.3	-45.9	17.4	6.05e-01	0	59	0	123207680	56	5358
2026-01-26 12:27:48.74	191.73	11.23	-42.2	-45.8	17.5	6.06e-01	0	59	0	125304832	56	5307
2026-01-26 12:27:49.75	191.82	11.32	-42.2	-45.8	17.5	6.06e-01	0	59	0	126877696	56	5300
2026-01-26 12:27:50.76	191.90	11.41	-42.2	-45.7	17.5	6.04e-01	0	59	0	128974848	56	5261
2026-01-26 12:27:51.77	191.99	11.51	-42.1	-45.6	17.7	6.06e-01	0	60	0	131072000	56	5169
2026-01-26 12:27:52.78	192.07	11.60	-42.1	-45.6	17.6	6.06e-01	0	59	0	132644864	56	5203
2026-01-26 12:27:53.79	192.16	11.69	-42.1	-45.6	17.8	6.05e-01	0	59	0	134742016	56	5162
2026-01-26 12:27:54.80	192.24	11.79	-42.1	-45.5	17.8	6.07e-01	0	59	0	136314880	56	5136
2026-01-26 12:27:55.81	192.33	11.88	-41.9	-45.4	17.8	6.09e-01	0	59	0	138412032	55	5350
2026-01-26 12:27:56.82	192.42	11.98	-42.0	-45.5	17.7	6.08e-01	0	60	0	140509184	55	5425
2026-01-26 12:27:57.83	192.51	12.07	-42.0	-45.5	17.7	6.06e-01	0	59	0	142082048	55	5426
2026-01-26 12:27:58.83	192.59	12.17	-42.0	-45.4	17.8	6.06e-01	0	60	0	144179200	55	5383
2026-01-26 12:27:59.84	192.68	12.27	-42.0	-45.4	17.8	6.06e-01	0	60	0	145752064	55	5388
2026-01-26 12:28:00.85	192.77	12.36	-42.0	-45.4	17.7	6.05e-01	0	59	0	147849216	55	5375
2026-01-26 12:28:01.86	192.86	12.46	-42.0	-45.5	17.7	6.06e-01	0	60	0	149946368	55	5433
2026-01-26 12:28:02.87	192.95	12.56	-41.9	-45.3	17.9	6.05e-01	0	60	0	151519232	55	5300
2026-01-26 12:28:03.88	193.05	12.66	-41.9	-45.3	17.9	6.04e-01	0	60	0	153616384	55	5322
2026-01-26 12:28:04.89	193.14	12.75	-41.9	-45.3	17.9	6.04e-01	0	60	0	155713536	55	5309
2026-01-26 12:28:05.90	193.23	12.85	-41.9	-45.3	18.0	6.04e-01	0	60	0	157286400	55	5298
2026-01-26 12:28:06.91	193.33	12.95	-41.8	-45.2	18.1	6.06e-01	0	60	0	159383552	55	5231
2026-01-26 12:28:07.92	193.42	13.05	-41.9	-45.2	18.0	6.05e-01	0	60	0	160956416	55	5263
2026-01-26 12:28:08.93	193.51	13.15	-41.9	-45.3	17.9	6.05e-01	0	60	0	163053568	55	5314
2026-01-26 12:28:09.94	193.61	13.25	-41.8	-45.2	18.1	6.08e-01	0	60	0	165150720	55	5233
2026-01-26 12:28:10.95	193.71	13.35	-41.8	-45.1	18.1	6.06e-01	0	60	0	166723584	55	5215
2026-01-26 12:28:11.96	193.80	13.45	-41.8	-45.1	18.1	6.06e-01	0	60	0	168820736	55	5196
2026-01-26 12:28:12.97	193.90	13.55	-41.8	-45.1	18.1	6.06e-01	0	60	0	170917888	55	5206
2026-01-26 12:28:13.98	194.00	13.66	-41.9	-45.2	18.1	6.05e-01	0	60	0	172490752	55	5247
2026-01-26 12:28:14.99	194.10	13.76	-41.8	-45.1	18.2	6.07e-01	0	60	0	174587904	55	5181
2026-01-26 12:28:16.00	194.20	13.86	-41.8	-45.1	18.1	6.03e-01	0	60	0	176160768	55	5208
2026-01-26 12:28:17.01	194.30	13.96	-41.7	-45.0	18.2	6.05e-01	0	60	0	178257920	55	5125
2026-01-26 12:28:18.02	194.40	14.07	-41.8	-45.0	18.2	6.06e-01	0	60	0	179830784	55	5141
2026-01-26 12:28:19.03	194.50	14.17	-41.7	-45.0	18.3	6.05e-01	0	60	0	181927936	55	5105
2026-01-26 12:28:20.04	194.60	14.28	-41.8	-45.0	18.2	6.04e-01	0	60	0	184025088	55	5143
2026-01-26 12:28:21.05	194.71	14.38	-41.8	-45.1	18.2	6.06e-01	0	60	0	185597952	55	5167
2026-01-26 12:28:22.06	194.81	14.49	-41.7	-45.0	18.3	6.07e-01	0	60	0	187695104	55	5120
2026-01-26 12:28:23.07	194.92	14.59	-41.7	-44.9	18.4	6.05e-01	0	60	0	189267968	55	5097
2026-01-26 12:28:24.07	195.02	14.70	-41.6	-44.7	18.6	6.03e-01	0	60	0	191365120	55	4963
2026-01-26 12:28:25.08	195.13	14.80	-41.6	-44.7	18.7	6.07e-01	0	60	0	193462272	55	4940
2026-01-26 12:28:26.09	195.24	14.91	-41.6	-44.7	18.6	6.06e-01	0	60	0	195035136	55	4977
2026-01-26 12:28:27.11	195.34	15.02	-41.6	-44.8	18.6	6.07e-01	0	60	0	197132288	55	4995
2026-01-26 12:28:28.11	195.45	15.12	-41.7	-44.9	18.4	6.04e-01	0	60	0	199229440	55	5067
2026-01-26 12:28:29.12	195.56	15.23	-41.8	-44.9	18.4	6.07e-01	0	60	0	200802304	55	5100
2026-01-26 12:28:30.13	195.67	15.34	-41.7	-44.9	18.4	6.09e-01	0	60	0	202899456	55	5090
2026-01-26 12:28:31.14	195.78	15.45	-41.7	-44.9	18.4	6.05e-01	0	60	0	204472320	55	5066
2026-01-26 12:28:32.15	195.90	15.56	-41.8	-44.9	18.4	6.07e-01	0	60	0	206569472	55	5099
2026-01-26 12:28:33.16	196.01	15.67	-41.7	-44.8	18.5	6.05e-01	0	60	0	208666624	55	4997
2026-01-26 12:28:34.17	196.12	15.78	-41.7	-44.8	18.6	6.06e-01	0	60	0	210239488	55	5026
2026-01-26 12:28:35.18	196.24	15.89	-41.7	-44.9	18.5	6.05e-01	0	60	0	212336640	55	5046
2026-01-26 12:28:36.19	196.35	16.00	-41.7	-44.8	18.6	6.05e-01	0	61	0	213909504	55	5008
2026-01-26 12:28:37.20	196.47	16.11	-41.7	-44.8	18.6	6.06e-01	0	60	0	216006656	55	5005
2026-01-26 12:28:38.21	196.59	16.23	-41.7	-44.9	18.5	6.06e-01	0	60	0	218103808	55	5070
2026-01-26 12:28:39.22	196.71	16.34	-41.7	-44.8	18.7	6.06e-01	0	60	0	219676672	55	4996
2026-01-26 12:28:40.23	196.83	16.45	-41.7	-44.8	18.6	6.06e-01	0	60	0	221773824	55	5024
2026-01-26 12:28:41.24	196.95	16.57	-41.7	-44.8	18.7	6.05e-01	0	60	0	223870976	55	4985
2026-01-26 12:28:42.25	197.07	16.68	-41.6	-44.7	18.8	6.06e-01	0	60	0	225443840	55	4934
2026-01-26 12:28:43.26	197.19	16.79	-41.5	-44.6	18.7	6.07e-01	0	60	0	227540992	55	4896
2026-01-26 12:28:44.28	197.31	16.91	-41.5	-44.6	18.9	6.07e-01	0	60	0	229113856	55	4879
2026-01-26 12:28:45.28	197.44	17.02	-41.5	-44.5	18.9	6.08e-01	0	61	0	231211008	55	4864
2026-01-26 12:28:46.30	197.56	17.14	-41.6	-44.6	18.8	6.06e-01	0	61	0	233308160	55	4925
2026-01-26 12:28:47.31	197.69	17.26	-41.6	-44.7	18.8	6.08e-01	0	60	0	234881024	55	4937
2026-01-26 12:28:48.32	197.81	17.38	-41.7	-44.8	18.7	6.05e-01	0	60	0	236978176	55	5017
2026-01-26 12:28:49.33	197.94	17.49	-41.8	-44.9	18.6	6.06e-01	0	61	0	239075328	55	5065
2026-01-26 12:28:50.34	198.07	17.61	-41.7	-44.8	18.7	6.07e-01	0	61	0	240648192	55	5003
2026-01-26 12:28:51.35	198.20	17.73	-41.6	-44.6	18.9	6.06e-01	0	61	0	242745344	55	4926
2026-01-26 12:28:52.36	198.33	17.85	-41.6	-44.6	18.9	6.06e-01	0	61	0	244318208	55	4899
2026-01-26 12:28:53.37	198.47	17.97	-41.6	-44.6	18.9	6.07e-01	0	61	0	246415360	55	4913
2026-01-26 12:28:54.38	198.60	18.09	-41.7	-44.7	18.8	6.07e-01	0	61	0	248512512	55	4973
2026-01-26 12:28:55.38	198.73	18.21	-41.8	-44.9	18.7	6.05e-01	0	60	0	250085376	55	5061
2026-01-26 12:28:56.40	198.87	18.33	-41.7	-44.8	18.7	6.05e-01	0	60	0	252182528	55	5025
2026-01-26 12:28:57.41	199.01	18.45	-41.7	-44.8	18.8	6.05e-01	0	61	0	253755392	55	4994
2026-01-26 12:28:58.41	199.14	18.57	-41.8	-44.9	18.7	6.07e-01	0	61	0	255852544	55	5056
2026-01-26 12:28:59.42	199.28	18.69	-41.7	-44.8	18.7	6.05e-01	0	60	0	257949696	55	5038
2026-01-26 12:29:00.43	199.42	18.82	-41.7	-44.7	18.8	6.04e-01	0	60	0	259522560	55	4972
2026-01-26 12:29:01.44	199.56	18.94	-41.7	-44.8	18.8	6.06e-01	0	61	0	261619712	55	5009
2026-01-26 12:29:02.45	199.70	19.06	-41.8	-45.0	18.6	6.07e-01	0	61	0	263192576	55	5101
2026-01-26 12:29:03.46	199.85	19.19	-41.8	-44.9	18.7	6.06e-01	0	60	0	265289728	55	5060
2026-01-26 12:29:04.47	199.99	19.31	-41.8	-44.9	18.7	6.06e-01	0	61	0	267386880	55	5076
2026-01-26 12:29:05.48	200.14	19.44	-41.7	-44.8	18.7	6.06e-01	0	60	0	268959744	55	5013
2026-01-26 12:29:06.49	200.29	19.57	-41.7	-44.8	18.8	6.07e-01	0	61	0	271056896	55	4997
2026-01-26 12:29:07.50	200.43	19.69	-41.6	-44.7	18.9	6.05e-01	0	61	0	272629760	55	4930
2026-01-26 12:29:08.51	200.58	19.82	-41.6	-44.6	19.0	6.07e-01	0	61	0	274726912	55	4919
2026-01-26 12:29:09.52	200.74	19.95	-41.7	-44.7	18.8	6.05e-01	0	60	0	276824064	55	4977
2026-01-26 12:29:10.53	200.89	20.08	-41.7	-44.8	18.8	6.05e-01	0	61	0	278396928	55	5022
2026-01-26 12:29:11.54	201.04	20.20	-41.8	-45.0	18.6	6.08e-01	0	61	0	280494080	55	5119
2026-01-26 12:29:12.55	201.20	20.33	-41.8	-44.9	18.6	6.07e-01	0	61	0	282066944	55	5083
2026-01-26 12:29:13.56	201.35	20.46	-41.8	-45.1	18.5	6.06e-01	0	61	0	284164096	55	5171
2026-01-26 12:29:14.57	201.51	20.59	-41.8	-44.9	18.7	6.06e-01	0	61	0	286261248	55	5053
2026-01-26 12:29:15.58	201.67	20.72	-41.8	-45.0	18.6	6.07e-01	0	61	0	287834112	55	5104
2026-01-26 12:29:16.59	201.83	20.86	-41.9	-45.0	18.5	6.06e-01	0	61	0	289931264	55	5154
2026-01-26 12:29:17.60	201.99	20.99	-41.9	-45.1	18.5	6.06e-01	0	61	0	292028416	55	5209
2026-01-26 12:29:18.61	202.16	21.12	-42.1	-45.3	18.3	6.06e-01	0	61	0	293601280	55	5333
2026-01-26 12:29:19.62	202.32	21.25	-42.0	-45.3	18.4	6.07e-01	0	61	0	295698432	55	5283
2026-01-26 12:29:20.63	202.49	21.39	-42.0	-45.1	18.5	6.07e-01	0	61	0	297271296	55	5213
2026-01-26 12:29:21.64	202.65	21.52	-42.0	-45.2	18.5	6.07e-01	0	61	0	299368448	55	5227
2026-01-26 12:29:22.65	202.82	21.66	-42.0	-45.2	18.5	6.05e-01	0	61	0	301465600	55	5233
2026-01-26 12:29:23.66	202.99	21.79	-42.0	-45.3	18.3	6.07e-01	0	61	0	303038464	55	5307
2026-01-26 12:29:24.67	203.17	21.93	-42.0	-45.3	18.3	6.06e-01	0	61	0	305135616	55	5298
2026-01-26 12:29:25.68	203.34	22.06	-41.9	-45.1	18.5	6.07e-01	0	61	0	307232768	55	5196
2026-01-26 12:29:26.69	203.52	22.20	-41.9	-45.0	18.6	6.04e-01	0	61	0	308805632	55	5124
2026-01-26 12:29:27.70	203.69	22.34	-41.9	-45.0	18.6	6.07e-01	0	61	0	310902784	55	5127
2026-01-26 12:29:28.71	203.87	22.48	-41.9	-45.1	18.6	6.08e-01	0	61	0	312475648	55	5162
2026-01-26 12:29:29.72	204.05	22.61	-41.9	-45.0	18.6	6.06e-01	0	61	0	314572800	55	5152
2026-01-26 12:29:30.73	204.23	22.75	-41.9	-45.1	18.4	6.08e-01	0	61	0	316669952	55	5211
2026-01-26 12:29:31.74	204.42	22.89	-42.0	-45.2	18.4	6.07e-01	0	61	0	318242816	55	5267
2026-01-26 12:29:32.75	204.60	23.03	-42.0	-45.1	18.5	6.05e-01	0	61	0	320339968	55	5203
2026-01-26 12:29:33.76	204.79	23.17	-41.9	-45.1	18.6	6.07e-01	0	61	0	321912832	55	5178
2026-01-26 12:29:34.77	204.98	23.32	-42.0	-45.1	18.6	6.06e-01	0	61	0	324009984	55	5203
2026-01-26 12:29:35.78	205.17	23.46	-42.0	-45.1	18.5	6.06e-01	0	61	0	326107136	55	5190
2026-01-26 12:29:36.79	205.36	23.60	-41.9	-45.0	18.7	6.07e-01	0	61	0	327680000	55	5130
2026-01-26 12:29:37.80	205.55	23.74	-41.9	-45.0	18.6	6.06e-01	0	61	0	329777152	55	5155
2026-01-26 12:29:38.81	205.75	23.89	-42.0	-45.2	18.5	6.05e-01	0	61	0	331350016	55	5234
2026-01-26 12:29:39.82	205.95	24.03	-42.0	-45.2	18.5	6.07e-01	0	61	0	333447168	55	5247
2026-01-26 12:29:40.83	206.15	24.17	-42.0	-45.2	18.5	6.06e-01	0	61	0	335544320	55	5251
2026-01-26 12:29:41.84	206.35	24.32	-42.1	-45.3	18.4	6.05e-01	0	61	0	337117184	55	5283
2026-01-26 12:29:42.85	206.55	24.46	-42.0	-45.2	18.4	6.05e-01	0	61	0	339214336	55	5270
2026-01-26 12:29:43.86	206.76	24.61	-42.0	-45.2	18.5	6.07e-01	0	61	0	340787200	55	5246
2026-01-26 12:29:44.87	206.96	24.76	-41.9	-45.0	18.7	6.05e-01	0	61	0	342884352	55	5157
2026-01-26 12:29:45.88	207.17	24.90	-41.9	-45.0	18.7	6.04e-01	0	61	0	344981504	55	5157
2026-01-26 12:29:46.89	207.38	25.05	-41.9	-45.0	18.7	6.06e-01	0	61	0	346554368	55	5131
2026-01-26 12:29:47.90	207.60	25.20	-41.9	-45.0	18.7	6.05e-01	0	61	0	348651520	55	5139
2026-01-26 12:29:48.91	207.81	25.35	-41.9	-45.0	18.7	6.04e-01	0	61	0	350224384	55	5129
2026-01-26 12:29:49.92	208.03	25.50	-41.9	-45.0	18.8	6.06e-01	0	61	0	352321536	55	5134
2026-01-26 12:29:50.93	208.25	25.65	-42.0	-45.2	18.6	6.05e-01	0	61	0	354418688	55	5227
2026-01-26 12:29:51.94	208.47	25.80	-42.0	-45.1	18.7	6.07e-01	0	61	0	355991552	55	5174
2026-01-26 12:29:52.95	208.69	25.95	-41.9	-44.9	18.8	6.06e-01	0	61	0	358088704	55	5099
2026-01-26 12:29:53.96	208.92	26.10	-41.9	-45.0	18.8	6.04e-01	0	61	0	360185856	55	5105
2026-01-26 12:29:54.97	209.15	26.25	-41.9	-45.0	18.8	6.05e-01	0	61	0	361758720	55	5124
2026-01-26 12:29:55.98	209.38	26.40	-42.0	-45.2	18.6	6.06e-01	0	61	0	363855872	55	5244
2026-01-26 12:29:56.99	209.61	26.55	-42.0	-45.1	18.7	6.07e-01	0	61	0	365428736	55	5173
2026-01-26 12:29:58.00	209.85	26.71	-42.0	-45.1	18.7	6.05e-01	0	61	0	367525888	55	5168
2026-01-26 12:29:59.01	210.08	26.86	-41.9	-45.0	18.8	6.06e-01	0	61	0	369623040	55	5128
2026-01-26 12:30:00.02	210.32	27.01	-41.9	-45.0	18.7	6.04e-01	0	61	0	371195904	55	5143
2026-01-26 12:30:01.03	210.56	27.17	-41.9	-45.0	18.8	6.06e-01	0	61	0	373293056	55	5123
2026-01-26 12:30:02.04	210.81	27.32	-42.0	-45.0	18.7	6.07e-01	0	61	0	375390208	55	5151
2026-01-26 12:30:03.05	211.05	27.48	-42.0	-45.1	18.6	6.08e-01	0	61	0	376963072	55	5208
2026-01-26 12:30:04.06	211.30	27.63	-42.0	-45.1	18.6	6.06e-01	0	61	0	379060224	55	5204
2026-01-26 12:30:05.07	211.56	27.79	-41.9	-45.0	18.8	6.05e-01	0	61	0	380633088	55	5126
2026-01-26 12:30:06.08	211.81	27.94	-42.0	-45.1	18.7	6.07e-01	0	61	0	382730240	55	5194
2026-01-26 12:30:07.09	212.07	28.10	-42.0	-45.1	18.6	6.06e-01	0	61	0	384827392	55	5203
2026-01-26 12:30:08.09	212.32	28.25	-42.0	-45.1	18.7	6.07e-01	0	61	0	386400256	55	5169
2026-01-26 12:30:09.10	212.58	28.41	-41.9	-45.0	18.8	6.07e-01	0	61	0	388497408	55	5132
2026-01-26 12:30:10.11	212.85	28.57	-41.8	-44.8	18.9	6.08e-01	0	61	0	390070272	55	5035
2026-01-26 12:30:11.12	213.12	28.73	-41.8	-44.9	18.9	6.07e-01	0	61	0	392167424	55	5044
2026-01-26 12:30:12.13	213.39	28.88	-41.9	-45.0	18.8	6.06e-01	0	61	0	394264576	55	5118
2026-01-26 12:30:13.14	213.66	29.04	-41.9	-44.9	18.8	6.05e-01	0	61	0	395837440	55	5098
2026-01-26 12:30:14.15	213.93	29.20	-41.9	-45.0	18.8	6.04e-01	0	61	0	397934592	55	5128
2026-01-26 12:30:15.16	214.21	29.36	-41.9	-45.0	18.7	6.08e-01	0	61	0	399507456	55	5153
2026-01-26 12:30:16.17	214.49	29.52	-41.9	-44.9	18.9	6.07e-01	0	61	0	401604608	55	5057
2026-01-26 12:30:17.18	214.77	29.68	-41.9	-45.0	18.8	6.06e-01	0	61	0	403701760	55	5145
2026-01-26 12:30:18.19	215.06	29.84	-41.9	-45.0	18.8	6.07e-01	0	61	0	405274624	55	5146
2026-01-26 12:30:19.20	215.35	30.00	-41.9	-45.0	18.8	6.06e-01	0	61	0	407371776	55	5120
2026-01-26 12:30:20.21	215.64	30.16	-41.9	-44.9	18.9	6.06e-01	0	61	0	408944640	55	5083
2026-01-26 12:30:21.22	215.94	30.32	-42.0	-45.2	18.6	6.07e-01	0	61	0	411041792	55	5220
2026-01-26 12:30:22.23	216.24	30.48	-42.0	-45.2	18.5	6.05e-01	0	62	0	413138944	55	5230
2026-01-26 12:30:23.24	216.54	30.64	-41.9	-45.0	18.7	6.05e-01	0	61	0	414711808	54	5440
2026-01-26 12:30:24.25	216.84	30.80	-41.9	-45.0	18.8	6.06e-01	0	61	0	416808960	54	5458
2026-01-26 12:30:25.25	217.14	30.96	-42.1	-45.2	18.6	6.05e-01	0	61	0	418381824	54	5560
2026-01-26 12:30:26.26	217.46	31.12	-42.0	-45.1	18.7	6.06e-01	0	61	0	420478976	54	5524
2026-01-26 12:30:27.27	217.77	31.28	-42.0	-45.1	18.7	6.06e-01	0	62	0	422576128	54	5490
2026-01-26 12:30:28.28	218.09	31.44	-42.0	-45.1	18.7	6.06e-01	0	61	0	424148992	54	5485
2026-01-26 12:30:29.29	218.41	31.60	-42.0	-45.1	18.7	6.04e-01	0	62	0	426246144	54	5498
2026-01-26 12:30:30.30	218.73	31.76	-42.2	-45.4	18.4	6.05e-01	0	61	0	428343296	54	5662
2026-01-26 12:30:31.31	219.05	31.92	-42.2	-45.4	18.4	6.05e-01	0	61	0	429916160	55	5384
2026-01-26 12:30:32.32	219.38	32.08	-42.0	-45.2	18.6	6.07e-01	0	61	0	432013312	55	5236
2026-01-26 12:30:33.33	219.72	32.24	-42.1	-45.2	18.6	6.07e-01	0	61	0	433586176	55	5225
2026-01-26 12:30:34.34	220.05	32.40	-42.2	-45.4	18.4	6.05e-01	0	61	0	435683328	55	5350
2026-01-26 12:30:35.35	220.39	32.56	-42.2	-45.4	18.4	6.04e-01	0	61	0	437780480	55	5396
2026-01-26 12:30:36.36	220.74	32.72	-42.2	-45.4	18.4	6.06e-01	0	61	0	439353344	55	5387
2026-01-26 12:30:37.37	221.08	32.88	-42.3	-45.6	18.2	6.06e-01	0	61	0	441450496	55	5500
2026-01-26 12:30:38.38	221.43	33.04	-42.2	-45.5	18.3	6.04e-01	0	61	0	443547648	55	5425
2026-01-26 12:30:39.39	221.79	33.20	-42.2	-45.4	18.4	6.07e-01	0	61	0	445120512	55	5387
2026-01-26 12:30:40.39	222.14	33.36	-42.3	-45.6	18.3	6.06e-01	0	61	0	447217664	55	5473
2026-01-26 12:30:41.40	222.50	33.52	-42.4	-45.8	18.0	6.06e-01	0	61	0	448790528	55	5609
2026-01-26 12:30:42.42	222.87	33.68	-42.3	-45.7	18.1	6.05e-01	0	62	0	450887680	55	5543
2026-01-26 12:30:43.43	223.23	33.84	-42.4	-45.8	18.0	6.07e-01	0	62	0	452984832	55	5608
2026-01-26 12:30:44.43	223.60	33.99	-42.4	-45.7	18.1	6.08e-01	0	61	0	454557696	55	5540
2026-01-26 12:30:45.44	223.98	34.15	-42.4	-45.8	18.0	6.04e-01	0	61	0	456654848	55	5596
2026-01-26 12:30:46.45	224.36	34.31	-42.4	-45.8	18.0	6.07e-01	0	61	0	458227712	55	5642
2026-01-26 12:30:47.46	224.74	34.46	-42.4	-45.7	18.1	6.08e-01	0	61	0	460324864	55	5549
2026-01-26 12:30:48.47	225.12	34.62	-42.4	-45.8	18.0	6.06e-01	0	62	0	462422016	55	5612
2026-01-26 12:30:49.48	225.51	34.77	-42.5	-45.9	17.9	6.06e-01	0	62	0	463994880	55	5676
2026-01-26 12:30:50.49	225.91	34.93	-42.4	-45.7	18.0	6.05e-01	0	62	0	466092032	55	5582
2026-01-26 12:30:51.50	226.30	35.08	-42.4	-45.8	18.0	6.06e-01	0	62	0	467664896	55	5619
2026-01-26 12:30:52.51	226.70	35.23	-42.4	-45.8	17.9	6.06e-01	0	61	0	469762048	55	5631
2026-01-26 12:30:53.52	227.11	35.38	-42.5	-46.0	17.6	6.05e-01	0	62	0	471859200	55	5724
2026-01-26 12:30:54.53	227.52	35.54	-42.5	-46.0	17.7	6.05e-01	0	61	0	473432064	55	5768
2026-01-26 12:30:55.54	227.93	35.69	-42.3	-45.6	18.2	6.07e-01	0	62	0	475529216	55	5475
2026-01-26 12:30:56.55	228.35	35.84	-42.4	-45.8	18.0	6.07e-01	0	61	0	477102080	55	5610
2026-01-26 12:30:57.56	228.77	35.99	-42.4	-45.9	17.9	6.04e-01	0	62	0	479199232	55	5693
2026-01-26 12:30:58.57	229.19	36.13	-42.5	-46.0	17.7	6.07e-01	0	61	0	481296384	55	5785
2026-01-26 12:30:59.58	229.62	36.28	-42.5	-45.9	17.8	6.04e-01	0	62	0	482869248	55	5664
2026-01-26 12:31:00.58	230.05	36.42	-42.5	-45.9	17.9	6.08e-01	0	62	0	484966400	55	5673
2026-01-26 12:31:01.59	230.48	36.57	-42.5	-45.9	17.8	6.07e-01	0	61	0	486539264	55	5704
2026-01-26 12:31:02.60	230.92	36.71	-42.3	-45.7	18.1	6.05e-01	0	61	0	488636416	55	5560
2026-01-26 12:31:03.61	231.37	36.86	-42.5	-46.0	17.8	6.07e-01	0	62	0	490733568	55	5733
2026-01-26 12:31:04.62	231.81	37.00	-42.6	-46.0	17.6	6.06e-01	0	62	0	492306432	55	5781
2026-01-26 12:31:05.63	232.26	37.14	-42.4	-45.8	17.9	6.06e-01	0	62	0	494403584	55	5644
2026-01-26 12:31:06.64	232.72	37.27	-42.5	-45.9	17.8	6.05e-01	0	62	0	496500736	55	5713
2026-01-26 12:31:07.65	233.18	37.41	-42.5	-46.0	17.9	6.06e-01	0	62	0	498073600	55	5732
2026-01-26 12:31:08.66	233.64	37.55	-42.3	-45.8	18.0	6.07e-01	0	62	0	500170752	55	5654
2026-01-26 12:31:09.67	234.11	37.68	-42.5	-46.0	17.7	6.06e-01	0	62	0	501743616	55	5731
2026-01-26 12:31:10.68	234.58	37.81	-42.6	-46.1	17.7	6.05e-01	0	62	0	503840768	55	5812
2026-01-26 12:31:11.69	235.05	37.95	-42.6	-46.1	17.7	6.06e-01	0	62	0	505937920	55	5806
2026-01-26 12:31:12.70	235.53	38.08	-42.6	-46.1	17.6	6.05e-01	0	62	0	507510784	55	5821
2026-01-26 12:31:13.71	236.01	38.20	-42.5	-45.9	17.9	6.06e-01	0	62	0	509607936	55	5677
2026-01-26 12:31:14.72	236.50	38.33	-42.5	-45.9	18.0	6.05e-01	0	61	0	511180800	55	5660
2026-01-26 12:31:15.73	236.99	38.45	-42.4	-45.7	18.1	6.04e-01	0	62	0	513277952	55	5539
2026-01-26 12:31:16.74	237.48	38.58	-42.3	-45.6	18.2	6.05e-01	0	62	0	515375104	55	5526
2026-01-26 12:31:17.75	237.98	38.70	-42.5	-45.9	17.9	6.06e-01	0	62	0	516947968	55	5718
2026-01-26 12:31:18.76	238.48	38.82	-42.4	-45.7	18.0	6.07e-01	0	62	0	519045120	55	5590
2026-01-26 12:31:19.77	238.99	38.93	-42.3	-45.6	18.2	6.05e-01	0	62	0	520617984	55	5468
2026-01-26 12:31:20.78	239.49	39.05	-42.4	-45.8	18.0	6.09e-01	0	61	0	522715136	55	5616
2026-01-26 12:31:21.79	240.01	39.16	-42.3	-45.5	18.3	6.05e-01	0	62	0	524812288	55	5454
2026-01-26 12:31:22.80	240.52	39.27	-42.3	-45.7	18.2	6.06e-01	0	62	0	526385152	55	5531
2026-01-26 12:31:23.81	241.04	39.38	-42.3	-45.5	18.3	6.06e-01	0	62	0	528482304	55	5438
2026-01-26 12:31:24.82	241.56	39.49	-42.4	-45.7	18.1	6.06e-01	0	62	0	530579456	55	5563
2026-01-26 12:31:25.83	242.09	39.59	-42.1	-45.2	18.6	6.06e-01	0	62	0	532152320	55	5270
2026-01-26 12:31:26.85	242.62	39.69	-42.2	-45.5	18.4	6.05e-01	0	62	0	534249472	55	5430
2026-01-26 12:31:27.85	243.15	39.79	-42.3	-45.6	18.2	6.04e-01	0	62	0	535822336	55	5517
2026-01-26 12:31:28.86	243.69	39.89	-42.3	-45.5	18.3	6.05e-01	0	62	0	537919488	55	5431
2026-01-26 12:31:29.88	244.23	39.98	-42.4	-45.7	18.1	6.04e-01	0	61	0	540016640	55	5546
2026-01-26 12:31:30.89	244.77	40.08	-42.4	-45.8	18.0	6.08e-01	0	62	0	541589504	55	5619
2026-01-26 12:31:31.89	245.31	40.16	-42.5	-45.9	18.0	6.06e-01	0	62	0	543686656	55	5671
2026-01-26 12:31:32.90	245.86	40.25	-42.5	-45.9	18.0	6.05e-01	0	62	0	545259520	55	5708
2026-01-26 12:31:33.91	246.41	40.33	-42.5	-45.9	17.9	6.06e-01	0	62	0	547356672	55	5718
2026-01-26 12:31:34.92	246.96	40.42	-42.4	-45.7	18.1	6.05e-01	0	62	0	549453824	55	5534
2026-01-26 12:31:35.93	247.52	40.49	-42.1	-45.2	18.6	6.06e-01	0	62	0	551026688	55	5275
2026-01-26 12:31:36.94	248.08	40.57	-42.3	-45.5	18.3	6.05e-01	0	62	0	553123840	55	5446
2026-01-26 12:31:37.95	248.64	40.64	-42.2	-45.5	18.4	6.06e-01	0	62	0	554696704	55	5418
2026-01-26 12:31:38.96	249.21	40.71	-42.2	-45.4	18.5	6.06e-01	0	62	0	556793856	55	5347
2026-01-26 12:31:39.97	249.77	40.78	-42.1	-45.3	18.5	6.06e-01	0	62	0	558891008	55	5301
2026-01-26 12:31:40.99	250.35	40.85	-42.2	-45.4	18.4	6.06e-01	0	62	0	560463872	55	5369
2026-01-26 12:31:42.00	250.92	40.91	-42.1	-45.2	18.7	6.06e-01	0	62	0	562561024	55	5227
2026-01-26 12:31:43.01	251.49	40.97	-42.1	-45.3	18.6	6.05e-01	0	62	0	564658176	55	5301
2026-01-26 12:31:44.02	252.07	41.02	-42.1	-45.3	18.6	6.09e-01	0	62	0	566231040	55	5288
2026-01-26 12:31:45.03	252.64	41.07	-42.1	-45.2	18.6	6.04e-01	0	62	0	568328192	55	5266
2026-01-26 12:31:46.04	253.22	41.12	-42.0	-45.1	18.7	6.06e-01	0	62	0	569901056	55	5197
2026-01-26 12:31:47.05	253.80	41.17	-42.2	-45.5	18.4	6.05e-01	0	62	0	571998208	55	5406
2026-01-26 12:31:48.06	254.38	41.21	-42.0	-45.1	18.7	6.07e-01	0	62	0	574095360	55	5197
2026-01-26 12:31:49.07	254.97	41.25	-42.2	-45.3	18.5	6.05e-01	0	62	0	575668224	55	5329
2026-01-26 12:31:50.08	255.55	41.29	-42.2	-45.4	18.4	6.06e-01	0	62	0	577765376	55	5381
2026-01-26 12:31:51.09	256.14	41.32	-42.2	-45.4	18.5	6.05e-01	0	62	0	579862528	55	5352
2026-01-26 12:31:52.10	256.73	41.35	-42.2	-45.4	18.5	6.05e-01	0	62	0	581435392	55	5357
2026-01-26 12:31:53.11	257.32	41.38	-42.1	-45.2	18.6	6.07e-01	0	62	0	583532544	55	5258
2026-01-26 12:31:54.12	257.91	41.40	-42.1	-45.2	18.6	6.06e-01	0	62	0	585105408	55	5267
2026-01-26 12:31:55.13	258.50	41.42	-42.1	-45.3	18.5	6.07e-01	0	62	0	587202560	55	5307
2026-01-26 12:31:56.14	259.09	41.44	-42.0	-45.1	18.7	6.06e-01	0	62	0	589299712	55	5208
2026-01-26 12:31:57.15	259.68	41.45	-42.0	-45.0	18.8	6.07e-01	0	62	0	590872576	55	5156
2026-01-26 12:31:58.16	260.27	41.46	-42.1	-45.2	18.6	6.07e-01	0	62	0	592969728	55	5259
2026-01-26 12:31:59.17	260.86	41.47	-42.2	-45.4	18.5	6.05e-01	0	62	0	594542592	55	5342
2026-01-26 12:32:00.18	261.45	41.47	-42.2	-45.3	18.5	6.05e-01	0	62	0	596639744	55	5317
2026-01-26 12:32:01.19	262.05	41.47	-42.1	-45.2	18.6	6.05e-01	0	62	0	598736896	55	5258
2026-01-26 12:32:02.20	262.64	41.47	-42.1	-45.2	18.7	6.05e-01	0	62	0	600309760	55	5266
2026-01-26 12:32:03.21	263.23	41.46	-42.1	-45.3	18.5	6.07e-01	0	62	0	602406912	55	5313
2026-01-26 12:32:04.22	263.82	41.45	-42.2	-45.4	18.5	6.04e-01	0	62	0	603979776	55	5357
2026-01-26 12:32:05.23	264.41	41.44	-42.2	-45.4	18.4	6.05e-01	0	62	0	606076928	55	5383
2026-01-26 12:32:06.24	265.00	41.42	-42.3	-45.5	18.4	6.03e-01	0	62	0	608174080	55	5432
2026-01-26 12:32:07.25	265.59	41.41	-42.3	-45.6	18.3	6.07e-01	0	62	0	609746944	55	5468
2026-01-26 12:32:08.26	266.18	41.38	-42.2	-45.3	18.5	6.03e-01	0	62	0	611844096	55	5320
2026-01-26 12:32:09.27	266.77	41.36	-42.1	-45.2	18.6	6.05e-01	0	62	0	613941248	55	5263
2026-01-26 12:32:10.28	267.36	41.33	-42.2	-45.4	18.5	6.08e-01	0	62	0	615514112	55	5348
2026-01-26 12:32:11.29	267.95	41.29	-42.3	-45.5	18.3	6.06e-01	0	61	0	617611264	55	5454
2026-01-26 12:32:12.30	268.53	41.26	-42.3	-45.6	18.3	6.05e-01	0	62	0	619184128	55	5466
2026-01-26 12:32:13.31	269.11	41.22	-42.4	-45.8	18.0	6.04e-01	0	62	0	621281280	55	5639
2026-01-26 12:32:14.32	269.70	41.18	-42.4	-45.7	18.2	6.03e-01	0	62	0	623378432	55	5563
2026-01-26 12:32:15.33	270.28	41.13	-42.5	-46.0	17.9	6.06e-01	0	62	0	624951296	55	5727
2026-01-26 12:32:16.34	270.86	41.08	-42.5	-45.9	18.0	6.04e-01	0	62	0	627048448	55	5666
2026-01-26 12:32:17.35	271.43	41.03	-42.1	-45.3	18.6	6.06e-01	0	62	0	628621312	55	5293
2026-01-26 12:32:18.36	272.01	40.98	-42.3	-45.5	18.3	6.06e-01	0	62	0	630718464	55	5448
2026-01-26 12:32:19.37	272.58	40.92	-42.2	-45.4	18.5	6.06e-01	0	62	0	632815616	55	5365
2026-01-26 12:32:20.38	273.15	40.86	-42.2	-45.3	18.5	6.04e-01	0	62	0	634388480	55	5332
2026-01-26 12:32:21.39	273.72	40.80	-42.4	-45.7	18.1	6.05e-01	0	62	0	636485632	55	5565
2026-01-26 12:32:22.40	274.29	40.73	-42.1	-45.3	18.5	6.06e-01	0	62	0	638058496	55	5318
2026-01-26 12:32:23.41	274.85	40.66	-42.3	-45.5	18.4	6.05e-01	0	62	0	640155648	55	5429
2026-01-26 12:32:24.42	275.41	40.59	-42.4	-45.8	18.0	6.06e-01	0	62	0	642252800	55	5620
2026-01-26 12:32:25.43	275.97	40.51	-42.4	-45.6	18.2	6.07e-01	0	62	0	643825664	55	5521
2026-01-26 12:32:26.44	276.53	40.44	-42.2	-45.5	18.4	6.04e-01	0	62	0	645922816	55	5422
2026-01-26 12:32:27.45	277.08	40.36	-42.4	-45.7	18.1	6.04e-01	0	62	0	648019968	55	5571
2026-01-26 12:32:28.46	277.63	40.27	-42.3	-45.5	18.3	6.06e-01	0	62	0	649592832	55	5433
2026-01-26 12:32:29.47	278.18	40.19	-42.3	-45.6	18.3	6.05e-01	0	62	0	651689984	55	5473
2026-01-26 12:32:30.48	278.72	40.10	-42.3	-45.6	18.2	6.07e-01	0	62	0	653262848	55	5502
2026-01-26 12:32:31.49	279.26	40.01	-42.4	-45.7	18.2	6.06e-01	0	62	0	655360000	55	5555
2026-01-26 12:32:32.50	279.80	39.91	-42.3	-45.7	18.2	6.06e-01	0	62	0	657457152	55	5537
2026-01-26 12:32:33.51	280.34	39.82	-42.3	-45.5	18.3	6.08e-01	0	62	0	659030016	55	5458
2026-01-26 12:32:34.52	280.87	39.72	-42.4	-45.7	18.2	6.07e-01	0	62	0	661127168	55	5541
2026-01-26 12:32:35.53	281.40	39.62	-42.3	-45.6	18.3	6.06e-01	0	62	0	662700032	55	5472
2026-01-26 12:32:36.54	281.92	39.51	-42.4	-45.8	18.1	6.09e-01	0	62	0	664797184	55	5594
2026-01-26 12:32:37.55	282.45	39.41	-42.3	-45.6	18.2	6.05e-01	0	62	0	666894336	55	5507
2026-01-26 12:32:38.56	282.96	39.30	-42.3	-45.6	18.3	6.04e-01	0	62	0	668467200	55	5465
2026-01-26 12:32:39.57	283.48	39.19	-42.4	-45.7	18.1	6.04e-01	0	62	0	670564352	55	5567
2026-01-26 12:32:40.58	283.99	39.08	-42.2	-45.4	18.5	6.07e-01	0	62	0	672661504	55	5366
2026-01-26 12:32:41.59	284.50	38.97	-42.3	-45.7	18.2	6.05e-01	0	62	0	674234368	55	5529
2026-01-26 12:32:42.60	285.00	38.85	-42.4	-45.7	18.1	6.07e-01	0	62	0	676331520	55	5573
2026-01-26 12:32:43.61	285.50	38.73	-42.4	-45.7	18.1	6.05e-01	0	62	0	677904384	55	5588
2026-01-26 12:32:44.62	286.00	38.61	-42.3	-45.6	18.2	6.05e-01	0	62	0	680001536	55	5514
2026-01-26 12:32:45.63	286.49	38.49	-42.5	-45.9	17.9	6.06e-01	0	62	0	682098688	55	5681
2026-01-26 12:32:46.64	286.98	38.37	-42.4	-45.7	18.1	6.06e-01	0	62	0	683671552	55	5583
2026-01-26 12:32:47.65	287.47	38.24	-42.4	-45.8	18.1	6.07e-01	0	62	0	685768704	55	5620
2026-01-26 12:32:48.66	287.95	38.12	-42.3	-45.5	18.3	6.07e-01	0	62	0	687341568	55	5451
2026-01-26 12:32:49.67	288.43	37.99	-42.3	-45.5	18.3	6.07e-01	0	62	0	689438720	55	5426
2026-01-26 12:32:50.68	288.90	37.86	-42.3	-45.6	18.2	6.07e-01	0	62	0	691535872	55	5516
2026-01-26 12:32:51.69	289.37	37.73	-42.4	-45.8	18.0	6.02e-01	0	62	0	693108736	55	5653
2026-01-26 12:32:52.70	289.84	37.59	-42.2	-45.3	18.5	6.05e-01	0	62	0	695205888	55	5337
2026-01-26 12:32:53.71	290.30	37.46	-42.1	-45.2	18.6	6.06e-01	0	62	0	696778752	55	5256
2026-01-26 12:32:54.72	290.76	37.32	-42.2	-45.5	18.4	6.03e-01	0	62	0	698875904	55	5410
2026-01-26 12:32:55.73	291.21	37.18	-42.2	-45.4	18.5	6.06e-01	0	62	0	700973056	55	5353
2026-01-26 12:32:56.74	291.66	37.04	-42.2	-45.4	18.4	6.05e-01	0	62	0	702545920	55	5380
2026-01-26 12:32:57.75	292.11	36.90	-42.1	-45.3	18.5	6.05e-01	0	62	0	704643072	55	5291
2026-01-26 12:32:58.76	292.55	36.76	-42.0	-45.2	18.7	6.06e-01	0	62	0	706215936	55	5221
2026-01-26 12:32:59.77	292.99	36.62	-42.0	-45.1	18.7	6.06e-01	0	62	0	708313088	55	5190
2026-01-26 12:33:00.76	293.42	36.48	-42.0	-45.2	18.6	6.06e-01	0	62	0	710410240	55	5236
2026-01-26 12:33:01.77	293.85	36.34	-42.1	-45.2	18.6	6.06e-01	0	62	0	711983104	55	5227
2026-01-26 12:33:02.78	294.28	36.19	-42.0	-45.1	18.7	6.06e-01	0	62	0	714080256	55	5166
2026-01-26 12:33:03.79	294.70	36.04	-42.0	-45.1	18.7	6.04e-01	0	62	0	715653120	55	5168
2026-01-26 12:33:04.80	295.12	35.89	-41.9	-45.0	18.8	6.05e-01	0	62	0	717750272	55	5108
2026-01-26 12:33:05.81	295.54	35.75	-41.8	-44.8	19.0	6.05e-01	0	62	0	719847424	55	5026
2026-01-26 12:33:06.82	295.95	35.60	-42.0	-45.0	18.8	6.07e-01	0	62	0	721420288	55	5155
2026-01-26 12:33:07.83	296.36	35.45	-42.0	-45.1	18.7	6.06e-01	0	62	0	723517440	55	5172
2026-01-26 12:33:08.84	296.76	35.30	-41.8	-44.8	19.0	6.07e-01	0	62	0	725614592	55	5001
2026-01-26 12:33:09.85	297.16	35.14	-41.9	-44.9	18.9	6.06e-01	0	62	0	727187456	55	5053
2026-01-26 12:33:10.86	297.56	34.99	-41.9	-44.9	18.9	6.08e-01	0	62	0	729284608	55	5063
2026-01-26 12:33:11.87	297.95	34.84	-41.8	-44.8	19.0	6.07e-01	0	62	0	730857472	55	5032
2026-01-26 12:33:12.88	298.34	34.68	-42.0	-45.0	18.8	6.07e-01	0	62	0	732954624	55	5141
2026-01-26 12:33:13.89	298.73	34.53	-41.8	-44.8	18.9	6.06e-01	0	62	0	735051776	55	5040
2026-01-26 12:33:14.90	299.11	34.37	-41.8	-44.8	19.0	6.07e-01	0	62	0	736624640	55	4993
2026-01-26 12:33:15.91	299.49	34.22	-41.8	-44.7	19.1	6.04e-01	0	62	0	738721792	55	4962
2026-01-26 12:33:16.92	299.86	34.06	-41.8	-44.7	19.1	6.04e-01	0	62	0	740294656	55	4969
2026-01-26 12:33:17.93	300.23	33.91	-41.6	-44.5	19.3	6.07e-01	0	62	0	742391808	55	4834
2026-01-26 12:33:18.94	300.60	33.75	-41.6	-44.5	19.3	6.07e-01	0	62	0	744488960	55	4826
2026-01-26 12:33:19.95	300.96	33.59	-41.5	-44.3	19.5	6.06e-01	0	62	0	746061824	55	4755
2026-01-26 12:33:20.96	301.32	33.43	-41.6	-44.5	19.2	6.06e-01	0	62	0	748158976	55	4861
2026-01-26 12:33:21.97	301.68	33.28	-41.6	-44.4	19.4	6.07e-01	0	62	0	749731840	55	4799
2026-01-26 12:33:22.98	302.03	33.12	-41.6	-44.4	19.4	6.06e-01	0	62	0	751828992	55	4793
2026-01-26 12:33:23.99	302.38	32.96	-41.5	-44.4	19.4	6.07e-01	0	62	0	753926144	55	4765
2026-01-26 12:33:25.00	302.73	32.80	-41.4	-44.1	19.7	6.08e-01	0	62	0	755499008	54	4913
2026-01-26 12:33:26.01	303.07	32.64	-41.3	-44.1	19.7	6.05e-01	0	62	0	757596160	54	4894
2026-01-26 12:33:27.02	303.41	32.48	-41.4	-44.3	19.5	6.06e-01	0	62	0	759693312	54	4992
2026-01-26 12:33:28.03	303.75	32.32	-41.5	-44.3	19.4	6.04e-01	0	62	0	761266176	54	5024
2026-01-26 12:33:29.05	304.08	32.16	-41.5	-44.3	19.4	6.06e-01	0	62	0	763363328	54	5007
2026-01-26 12:33:30.06	304.41	32.00	-41.4	-44.2	19.5	6.06e-01	0	62	0	764936192	54	4963
2026-01-26 12:33:31.07	304.74	31.84	-41.4	-44.2	19.5	6.05e-01	0	62	0	767033344	54	4978
2026-01-26 12:33:32.08	305.06	31.68	-41.5	-44.3	19.4	6.05e-01	0	62	0	769130496	54	5009
2026-01-26 12:33:33.09	305.38	31.52	-41.5	-44.3	19.4	6.05e-01	0	62	0	770703360	54	5000
2026-01-26 12:33:34.10	305.70	31.36	-41.5	-44.4	19.3	6.04e-01	0	62	0	772800512	54	5055
2026-01-26 12:33:35.11	306.01	31.20	-41.6	-44.5	19.2	6.07e-01	0	62	0	774373376	54	5130
2026-01-26 12:33:36.12	306.32	31.05	-41.5	-44.4	19.3	6.05e-01	0	62	0	776470528	54	5070
2026-01-26 12:33:37.13	306.63	30.89	-41.5	-44.3	19.4	6.07e-01	0	62	0	778567680	54	5026
2026-01-26 12:33:38.14	306.93	30.73	-41.6	-44.4	19.3	6.04e-01	0	62	0	780140544	54	5083
2026-01-26 12:33:39.15	307.23	30.57	-41.5	-44.4	19.4	6.05e-01	0	62	0	782237696	54	5056
2026-01-26 12:33:40.16	307.53	30.41	-41.5	-44.4	19.3	6.05e-01	0	62	0	783810560	54	5090
2026-01-26 12:33:41.17	307.83	30.25	-41.6	-44.6	19.2	6.06e-01	0	62	0	785907712	54	5163
2026-01-26 12:33:42.18	308.12	30.09	-41.7	-44.6	19.1	6.07e-01	0	62	0	788004864	54	5191
2026-01-26 12:33:43.19	308.41	29.93	-41.7	-44.6	19.2	6.03e-01	0	62	0	789577728	54	5170
2026-01-26 12:33:44.20	308.69	29.77	-41.5	-44.4	19.4	6.07e-01	0	62	0	791674880	54	5077
2026-01-26 12:33:45.21	308.98	29.61	-41.5	-44.4	19.4	6.08e-01	0	62	0	793772032	54	5079
2026-01-26 12:33:46.22	309.26	29.46	-41.7	-44.6	19.1	6.07e-01	0	62	0	795344896	54	5207
2026-01-26 12:33:47.23	309.54	29.30	-41.8	-44.9	18.9	6.08e-01	0	62	0	797442048	54	5341
2026-01-26 12:33:48.24	309.81	29.14	-41.7	-44.7	19.0	6.06e-01	0	62	0	799014912	54	5277
2026-01-26 12:33:49.25	310.08	28.98	-41.7	-44.6	19.1	6.03e-01	0	62	0	801112064	54	5188
2026-01-26 12:33:50.26	310.35	28.83	-41.7	-44.7	19.1	6.06e-01	0	62	0	803209216	54	5226
2026-01-26 12:33:51.27	310.62	28.67	-41.6	-44.4	19.3	6.05e-01	0	62	0	804782080	54	5093
2026-01-26 12:33:52.28	310.88	28.51	-41.6	-44.5	19.2	6.03e-01	0	62	0	806879232	54	5135
2026-01-26 12:33:53.29	311.14	28.36	-41.9	-54.3	7.1	7.48e-01	2	62	0	808452096	54	15887
2026-01-26 12:33:54.30	311.40	28.20	-41.9	-54.5	3.8	7.47e-01	0	62	104	808452096	54	16184
2026-01-26 12:33:55.31	311.66	28.05	-42.0	-54.6	3.8	7.44e-01	0	62	104	808452096	54	16374
2026-01-26 12:33:56.32	311.91	27.89	-42.1	-54.5	3.9	7.44e-01	0	62	104	808452096	54	16198
2026-01-26 12:33:57.33	312.17	27.74	-43.1	-56.3	3.9	7.44e-01	0	62	104	808452096	58	15859
2026-01-26 12:33:58.34	312.41	27.58	-45.3	-62.3	3.9	7.43e-01	0	62	104	808452096	61	26633
2026-01-26 12:33:59.35	312.66	27.43	-43.8	-58.1	3.7	7.43e-01	0	62	104	808452096	59	18345
2026-01-26 12:34:00.36	312.90	27.28	-44.1	-58.3	3.9	7.44e-01	0	62	104	808452096	60	17724
2026-01-26 12:34:01.37	313.15	27.12	-42.7	-55.4	3.9	7.43e-01	0	62	104	808452096	57	15186
2026-01-26 12:34:02.38	313.39	26.97	-42.5	-55.1	3.8	7.46e-01	0	62	104	808452096	57	14680
2026-01-26 12:34:03.39	313.62	26.82	-42.4	-55.0	3.9	7.42e-01	0	62	104	808452096	56	15302
2026-01-26 12:34:04.40	313.86	26.67	-42.4	-55.2	3.8	7.44e-01	0	62	104	808452096	56	15611
2026-01-26 12:34:05.41	314.09	26.52	-42.5	-55.3	3.9	7.41e-01	0	62	104	808452096	57	15002
2026-01-26 12:34:06.42	314.32	26.36	-44.6	-60.3	3.8	7.43e-01	0	62	104	808452096	60	22383
2026-01-26 12:34:07.43	314.55	26.21	-43.0	-56.3	3.8	7.45e-01	0	62	104	808452096	58	15865
2026-01-26 12:34:08.44	314.77	26.06	-44.1	-58.3	3.9	7.47e-01	0	62	104	808452096	59	18867
2026-01-26 12:34:09.45	315.00	25.91	-42.5	-55.1	4.0	7.38e-01	0	62	104	808452096	56	15412
2026-01-26 12:34:10.46	315.22	25.77	-42.5	-55.2	3.7	7.48e-01	0	62	104	808452096	56	15719
2026-01-26 12:34:11.47	315.44	25.62	-42.4	-54.9	3.8	7.42e-01	0	62	104	808452096	56	15143
2026-01-26 12:34:12.48	315.66	25.47	-42.5	-55.1	3.7	7.44e-01	0	62	104	808452096	56	15554
2026-01-26 12:34:13.49	315.87	25.32	-42.4	-55.0	3.8	7.48e-01	0	62	104	808452096	56	15379
2026-01-26 12:34:14.50	316.08	25.17	-45.2	-62.3	3.8	7.44e-01	0	62	104	808452096	61	26476
2026-01-26 12:34:15.51	316.30	25.03	-43.4	-57.2	3.7	7.42e-01	0	62	104	808452096	59	16602
2026-01-26 12:34:16.52	316.51	24.88	-43.8	-57.4	3.9	7.34e-01	0	62	104	808452096	59	17071
2026-01-26 12:34:17.53	316.71	24.74	-43.0	-56.1	3.9	7.51e-01	0	62	104	808452096	58	15420
2026-01-26 12:34:18.54	316.92	24.59	-42.8	-55.8	3.8	7.49e-01	0	62	104	808452096	57	15937
2026-01-26 12:34:19.55	317.12	24.45	-42.6	-55.6	3.8	7.44e-01	0	62	104	808452096	57	15480
2026-01-26 12:34:20.56	317.32	24.30	-42.7	-55.7	3.8	7.44e-01	0	62	104	808452096	56	16577
2026-01-26 12:34:21.57	317.52	24.16	-42.5	-55.3	3.8	7.46e-01	0	62	104	808452096	56	15766
2026-01-26 12:34:22.58	317.72	24.02	-44.8	-60.8	3.8	7.47e-01	0	62	104	808452096	60	23587
2026-01-26 12:34:23.59	317.92	23.87	-42.4	-55.1	3.8	7.43e-01	0	62	104	808452096	56	15471
2026-01-26 12:34:24.59	318.11	23.73	-43.3	-56.7	3.9	7.44e-01	0	62	104	808452096	58	16581
2026-01-26 12:34:25.60	318.30	23.59	-42.5	-55.3	3.8	7.46e-01	0	62	104	808452096	57	15048
2026-01-26 12:34:26.61	318.49	23.45	-42.5	-55.2	3.8	7.43e-01	0	62	104	808452096	56	15750
2026-01-26 12:34:27.62	318.68	23.31	-42.6	-55.5	3.8	7.43e-01	0	62	104	808452096	56	16144
2026-01-26 12:34:28.63	318.87	23.17	-43.4	-56.9	3.8	7.44e-01	0	62	104	808452096	57	18085
2026-01-26 12:34:29.64	319.05	23.03	-43.4	-57.0	3.8	7.45e-01	0	62	104	808452096	57	18258
2026-01-26 12:34:30.65	319.24	22.89	-45.1	-61.9	3.8	7.44e-01	0	62	104	808452096	61	25324
2026-01-26 12:34:31.66	319.42	22.75	-42.6	-55.6	3.8	7.46e-01	0	62	104	808452096	57	15515
2026-01-26 12:34:32.67	319.60	22.62	-43.1	-56.5	3.8	7.45e-01	0	62	104	808452096	58	16200
2026-01-26 12:34:33.68	319.78	22.48	-42.8	-55.9	3.8	7.45e-01	0	62	104	808452096	57	16006
2026-01-26 12:34:34.69	319.95	22.34	-42.7	-55.7	3.8	7.43e-01	0	62	104	808452096	57	15599
2026-01-26 12:34:35.70	320.13	22.21	-42.5	-55.5	3.8	7.48e-01	0	62	104	808452096	56	16181
2026-01-26 12:34:36.71	320.30	22.07	-43.3	-56.7	3.8	7.47e-01	0	62	104	808452096	57	17570
2026-01-26 12:34:37.72	320.48	21.94	-43.8	-57.7	3.8	7.48e-01	0	62	104	808452096	57	19732
2026-01-26 12:34:38.73	320.65	21.80	-45.1	-61.7	3.8	7.47e-01	0	62	104	808452096	60	26248
2026-01-26 12:34:39.74	320.82	21.67	-43.6	-57.2	3.8	7.45e-01	0	62	104	808452096	57	18692
2026-01-26 12:34:40.75	320.99	21.53	-42.8	-55.9	3.8	7.41e-01	0	62	104	808452096	57	16053
2026-01-26 12:34:41.76	321.15	21.40	-42.3	-55.1	3.8	7.43e-01	0	62	104	808452096	56	15533
2026-01-26 12:34:42.77	321.32	21.27	-42.2	-55.0	3.8	7.46e-01	0	62	104	808452096	56	15266
2026-01-26 12:34:43.78	321.48	21.14	-43.6	-57.5	3.8	7.45e-01	0	62	104	808452096	57	19263
2026-01-26 12:34:44.79	321.64	21.01	-44.1	-58.5	3.8	7.47e-01	0	62	104	808452096	58	20533
2026-01-26 12:34:45.80	321.80	20.87	-44.5	-60.4	3.8	7.47e-01	0	62	104	808452096	60	22554
2026-01-26 12:34:46.81	321.96	20.74	-45.0	-61.6	3.8	7.41e-01	0	62	104	808452096	61	24418
2026-01-26 12:34:47.82	322.12	20.61	-42.9	-55.8	3.8	7.48e-01	0	62	104	808452096	56	16882
2026-01-26 12:34:48.83	322.28	20.49	-42.7	-55.7	3.8	7.44e-01	0	62	104	808452096	57	15616
2026-01-26 12:34:49.84	322.43	20.36	-42.6	-55.6	3.8	7.42e-01	0	62	104	808452096	57	15507
2026-01-26 12:34:50.85	322.59	20.23	-42.6	-55.6	3.8	7.43e-01	0	62	104	808452096	57	15517
2026-01-26 12:34:51.86	322.74	20.10	-42.2	-55.0	3.8	7.45e-01	0	62	104	808452096	56	15267
2026-01-26 12:34:52.86	322.89	19.98	-44.0	-58.1	3.9	7.50e-01	0	62	104	808452096	58	19598
2026-01-26 12:34:53.87	323.04	19.85	-44.7	-60.2	3.8	7.46e-01	0	62	104	808452096	59	23452
2026-01-26 12:34:54.88	323.19	19.72	-45.2	-62.2	3.8	7.48e-01	0	62	104	808452096	60	27985
2026-01-26 12:34:55.89	323.34	19.60	-44.6	-59.6	3.7	7.45e-01	0	62	104	808452096	59	21930
2026-01-26 12:34:56.90	323.48	19.47	-42.4	-55.4	3.8	7.48e-01	0	62	104	808452096	56	16127
2026-01-26 12:34:57.91	323.63	19.35	-42.4	-55.3	3.8	7.45e-01	0	62	104	808452096	56	15910
2026-01-26 12:34:58.93	323.77	19.22	-42.2	-55.0	3.8	7.46e-01	0	62	104	808452096	56	15325
2026-01-26 12:34:59.94	323.92	19.10	-43.3	-57.1	3.8	7.42e-01	0	62	104	808452096	57	18316
2026-01-26 12:35:00.94	324.06	18.98	-44.7	-60.1	3.8	7.45e-01	0	62	104	808452096	59	23228
2026-01-26 12:35:01.95	324.20	18.86	-45.1	-61.9	3.8	7.46e-01	0	62	104	808452096	60	26865
2026-01-26 12:35:02.96	324.34	18.73	-44.9	-61.3	3.8	7.50e-01	0	62	104	808452096	61	23678
2026-01-26 12:35:03.97	324.47	18.61	-44.1	-58.2	3.8	7.46e-01	0	62	104	808452096	58	19663
2026-01-26 12:35:04.99	324.61	18.49	-42.5	-55.3	3.9	7.48e-01	0	62	104	808452096	57	14887
2026-01-26 12:35:06.00	324.75	18.37	-42.6	-55.4	3.8	7.43e-01	0	62	104	808452096	57	15133
2026-01-26 12:35:07.01	324.88	18.25	-42.6	-55.4	3.8	7.46e-01	0	62	104	808452096	57	15153
2026-01-26 12:35:08.01	325.02	18.13	-42.0	-54.7	3.8	7.45e-01	0	62	104	808452096	56	14713
2026-01-26 12:35:09.02	325.15	18.01	-44.4	-59.2	3.8	7.48e-01	0	62	104	808452096	59	20979
2026-01-26 12:35:10.03	325.28	17.90	-44.5	-60.3	3.9	7.42e-01	0	62	104	808452096	60	22327
2026-01-26 12:35:11.04	325.41	17.78	-45.1	-62.2	3.8	7.45e-01	0	62	104	808452096	60	27779
2026-01-26 12:35:12.05	325.54	17.66	-44.7	-60.6	3.9	7.48e-01	0	62	104	808452096	60	23200
2026-01-26 12:35:13.06	325.67	17.54	-42.2	-55.2	3.8	7.43e-01	0	62	104	808452096	56	15636
2026-01-26 12:35:14.07	325.80	17.43	-42.3	-55.2	3.8	7.45e-01	0	62	104	808452096	56	15639
2026-01-26 12:35:15.08	325.92	17.31	-42.1	-54.9	3.8	7.47e-01	0	62	104	808452096	56	15093
2026-01-26 12:35:16.09	326.05	17.20	-42.8	-56.1	3.8	7.44e-01	0	62	104	808452096	56	17399
2026-01-26 12:35:17.10	326.17	17.08	-44.4	-60.1	3.8	7.43e-01	0	62	104	808452096	60	21804
2026-01-26 12:35:18.11	326.30	16.97	-45.0	-62.1	3.8	7.41e-01	0	62	104	808452096	60	27646
2026-01-26 12:35:19.12	326.42	16.85	-44.7	-61.1	3.8	7.47e-01	0	62	104	808452096	60	24654
2026-01-26 12:35:20.13	326.54	16.74	-44.0	-58.3	3.8	7.42e-01	0	62	104	808452096	58	19912
2026-01-26 12:35:21.14	326.66	16.63	-42.4	-55.2	3.8	7.46e-01	0	62	104	808452096	56	15757
2026-01-26 12:35:22.15	326.78	16.51	-42.3	-55.0	3.8	7.44e-01	0	62	104	808452096	56	15296
2026-01-26 12:35:23.16	326.90	16.40	-42.1	-54.9	3.8	7.47e-01	0	62	104	808452096	56	15059
2026-01-26 12:35:24.17	327.02	16.29	-42.6	-55.7	3.8	7.42e-01	0	62	104	808452096	56	16588
2026-01-26 12:35:25.18	327.13	16.18	-43.6	-57.6	3.9	7.39e-01	0	62	104	808452096	59	17449
2026-01-26 12:35:26.19	327.25	16.07	-44.6	-60.4	3.8	7.44e-01	0	62	104	808452096	59	23868
2026-01-26 12:35:27.20	327.37	15.96	-44.4	-60.1	3.9	7.44e-01	0	62	104	808452096	60	21769
2026-01-26 12:35:28.21	327.48	15.85	-44.4	-59.9	3.8	7.44e-01	0	62	104	808452096	60	21446
2026-01-26 12:35:29.22	327.59	15.74	-42.2	-55.1	3.8	7.43e-01	0	62	104	808452096	56	15461
2026-01-26 12:35:30.23	327.71	15.63	-42.0	-54.7	3.8	7.42e-01	0	62	104	808452096	56	14833
2026-01-26 12:35:31.24	327.82	15.52	-41.9	-54.5	3.8	7.46e-01	0	62	104	808452096	55	15387
2026-01-26 12:35:32.25	327.93	15.41	-42.7	-56.0	3.9	7.44e-01	0	62	104	808452096	57	16279
2026-01-26 12:35:33.26	328.04	15.30	-43.9	-58.6	3.9	7.44e-01	0	62	104	808452096	59	19552
2026-01-26 12:35:34.27	328.15	15.20	-44.8	-61.5	3.8	7.44e-01	0	62	104	808452096	60	25837
2026-01-26 12:35:35.28	328.26	15.09	-44.1	-59.6	3.9	7.45e-01	0	62	104	808452096	60	20551
2026-01-26 12:35:36.29	328.37	14.98	-43.7	-57.8	3.9	7.46e-01	0	62	104	808452096	58	18893
2026-01-26 12:35:37.30	328.47	14.88	-42.4	-55.2	3.8	7.46e-01	0	62	104	808452096	56	15738
2026-01-26 12:35:38.31	328.58	14.77	-42.2	-55.0	3.8	7.45e-01	0	62	104	808452096	56	15316
2026-01-26 12:35:39.32	328.68	14.67	-42.2	-55.0	3.8	7.49e-01	0	62	104	808452096	56	15298
2026-01-26 12:35:40.33	328.79	14.56	-42.2	-55.0	3.8	7.43e-01	0	62	104	808452096	56	15368
2026-01-26 12:35:41.34	328.89	14.46	-42.5	-55.6	3.9	7.42e-01	0	62	104	808452096	57	15554
2026-01-26 12:35:42.35	329.00	14.36	-44.4	-60.2	3.8	7.44e-01	0	62	104	808452096	59	23459
2026-01-26 12:35:43.36	329.10	14.25	-43.2	-57.1	3.9	7.42e-01	0	62	104	808452096	58	17372
2026-01-26 12:35:44.37	329.20	14.15	-44.0	-59.0	3.8	7.48e-01	0	62	104	808452096	60	19274
2026-01-26 12:35:45.38	329.30	14.05	-42.3	-55.3	3.8	7.47e-01	0	62	104	808452096	56	15804
2026-01-26 12:35:46.39	329.40	13.94	-42.3	-55.3	3.8	7.44e-01	0	62	104	808452096	56	15877
2026-01-26 12:35:47.40	329.50	13.84	-42.1	-54.9	3.8	7.41e-01	0	62	104	808452096	56	15151
2026-01-26 12:35:48.41	329.60	13.74	-42.1	-55.1	3.8	7.45e-01	0	62	104	808452096	56	15408
2026-01-26 12:35:49.42	329.70	13.64	-42.6	-55.9	3.9	7.43e-01	0	62	104	808452096	57	16009
2026-01-26 12:35:50.43	329.80	13.54	-44.6	-61.3	3.8	7.45e-01	0	62	104	808452096	60	24993
2026-01-26 12:35:51.44	329.89	13.44	-43.3	-57.3	3.9	7.42e-01	0	62	104	808452096	58	17813
2026-01-26 12:35:52.45	329.99	13.34	-43.3	-57.1	3.9	7.45e-01	0	62	104	808452096	58	17397
2026-01-26 12:35:53.46	330.09	13.24	-42.5	-55.5	3.8	7.44e-01	0	62	104	808452096	56	16273
2026-01-26 12:35:54.47	330.18	13.14	-42.4	-55.4	3.8	7.46e-01	0	62	104	808452096	56	16070
2026-01-26 12:35:55.48	330.28	13.04	-42.3	-55.4	3.8	7.42e-01	0	62	104	808452096	56	15957
2026-01-26 12:35:56.49	330.37	12.95	-42.2	-55.1	3.8	7.46e-01	0	62	104	808452096	56	15496
2026-01-26 12:35:57.50	330.46	12.85	-42.0	-54.9	3.9	7.42e-01	0	62	104	808452096	56	15138
2026-01-26 12:35:58.51	330.55	12.75	-44.3	-60.0	3.8	7.45e-01	0	62	104	808452096	59	23044
2026-01-26 12:35:59.52	330.65	12.65	-42.1	-55.1	3.8	7.44e-01	0	62	104	808452096	56	15471
2026-01-26 12:36:00.52	330.74	12.56	-43.3	-57.3	3.9	7.45e-01	0	62	104	808452096	58	17797
2026-01-26 12:36:01.54	330.83	12.46	-42.4	-55.6	3.8	7.42e-01	0	62	104	808452096	56	16416
2026-01-26 12:36:02.55	330.92	12.36	-42.4	-55.5	3.8	7.40e-01	0	62	104	808452096	56	16294
2026-01-26 12:36:03.55	331.01	12.27	-42.3	-55.4	3.8	7.45e-01	0	62	104	808452096	56	16053
2026-01-26 12:36:04.56	331.09	12.17	-42.6	-55.9	3.8	7.44e-01	0	62	104	808452096	56	16928
2026-01-26 12:36:05.57	331.18	12.08	-42.5	-55.6	3.8	7.46e-01	0	62	104	808452096	56	16468
2026-01-26 12:36:06.58	331.27	11.98	-44.5	-61.1	3.8	7.45e-01	0	62	104	808452096	60	24638
2026-01-26 12:36:07.59	331.36	11.89	-42.3	-55.4	3.9	7.45e-01	0	62	104	808452096	56	15985
2026-01-26 12:36:08.60	331.44	11.80	-43.0	-56.4	3.8	7.42e-01	0	62	104	808452096	58	15996
2026-01-26 12:36:09.61	331.53	11.70	-42.6	-55.8	3.8	7.50e-01	0	62	104	808452096	57	15925
2026-01-26 12:36:10.62	331.62	11.61	-42.7	-55.8	3.8	7.44e-01	0	63	104	808452096	57	15878
2026-01-26 12:36:11.63	331.70	11.52	-42.5	-55.6	3.8	7.43e-01	0	62	104	808452096	56	16389
2026-01-26 12:36:12.64	331.78	11.42	-43.0	-56.4	3.8	7.45e-01	0	62	104	808452096	56	18007
2026-01-26 12:36:13.65	331.87	11.33	-43.0	-56.6	3.8	7.45e-01	0	62	104	808452096	56	18388
2026-01-26 12:36:14.66	331.95	11.24	-44.5	-60.4	3.8	7.45e-01	0	62	104	808452096	59	24112
2026-01-26 12:36:15.67	332.03	11.15	-43.2	-57.0	3.8	7.45e-01	0	62	104	808452096	56	19327
2026-01-26 12:36:16.68	332.12	11.06	-42.9	-56.4	3.9	7.46e-01	0	62	104	808452096	57	17070
2026-01-26 12:36:17.69	332.20	10.97	-42.4	-55.7	3.8	7.46e-01	0	62	104	808452096	56	16506
2026-01-26 12:36:18.70	332.28	10.88	-42.3	-55.4	3.8	7.45e-01	0	62	104	808452096	56	16014
2026-01-26 12:36:19.72	332.36	10.79	-42.8	-56.3	3.8	7.46e-01	0	62	104	808452096	56	17886
2026-01-26 12:36:20.73	332.44	10.70	-43.7	-58.3	3.8	7.46e-01	0	62	104	808452096	57	21101
2026-01-26 12:36:21.74	332.52	10.61	-43.8	-58.8	3.8	7.49e-01	0	62	104	808452096	58	21192
2026-01-26 12:36:22.75	332.60	10.52	-44.4	-61.5	3.8	7.44e-01	0	62	104	808452096	60	25605
2026-01-26 12:36:23.76	332.68	10.43	-42.7	-55.9	3.8	7.44e-01	0	62	104	808452096	56	17075
2026-01-26 12:36:24.77	332.76	10.34	-42.7	-56.2	3.8	7.43e-01	0	62	104	808452096	57	16581
2026-01-26 12:36:25.78	332.83	10.25	-42.7	-56.1	3.8	7.44e-01	0	62	104	808452096	57	16353
2026-01-26 12:36:26.79	332.91	10.16	-42.6	-55.9	3.8	7.45e-01	0	62	104	808452096	57	15952
2026-01-26 12:36:27.80	332.99	10.08	-42.2	-55.4	3.8	7.45e-01	0	62	104	808452096	56	15946
2026-01-26 12:36:28.81	333.06	9.99	-43.9	-58.5	3.8	7.47e-01	0	63	104	808452096	58	20509
2026-01-26 12:36:29.82	333.14	9.90	-43.9	-59.3	3.7	7.47e-01	0	62	104	808452096	58	22432
2026-01-26 12:36:30.83	333.21	9.81	-44.6	-61.4	3.8	7.47e-01	0	62	104	808452096	59	26964
2026-01-26 12:36:31.84	333.29	9.73	-44.0	-59.3	3.8	7.48e-01	0	62	104	808452096	58	22436
2026-01-26 12:36:32.85	333.36	9.64	-42.6	-56.2	3.8	7.42e-01	0	62	104	808452096	57	16672
2026-01-26 12:36:33.86	333.44	9.56	-42.4	-55.9	3.8	7.42e-01	0	62	104	808452096	56	16902
2026-01-26 12:36:34.87	333.51	9.47	-42.2	-55.7	3.8	7.43e-01	0	62	104	808452096	56	16513
2026-01-26 12:36:35.88	333.58	9.39	-43.2	-57.6	3.8	7.47e-01	0	62	104	808452096	56	20623
2026-01-26 12:36:36.89	333.66	9.30	-44.0	-59.3	3.8	7.46e-01	0	62	104	808452096	58	22334
2026-01-26 12:36:37.90	333.73	9.22	-44.1	-60.6	3.8	7.45e-01	0	62	104	808452096	58	25873
2026-01-26 12:36:38.91	333.80	9.13	-44.4	-61.3	3.8	7.47e-01	0	62	104	808452096	59	26677
2026-01-26 12:36:39.92	333.87	9.05	-44.1	-59.8	3.8	7.44e-01	0	62	104	808452096	58	23689
2026-01-26 12:36:40.93	333.94	8.96	-42.5	-56.3	3.8	7.45e-01	0	62	104	808452096	57	16815
2026-01-26 12:36:41.94	334.01	8.88	-42.4	-56.1	3.8	7.44e-01	0	62	104	808452096	56	17325
2026-01-26 12:36:42.95	334.08	8.80	-42.3	-55.9	3.8	7.44e-01	0	62	104	808452096	56	16931
2026-01-26 12:36:43.96	334.15	8.71	-43.1	-57.7	3.8	7.46e-01	0	62	104	808452096	56	20944
2026-01-26 12:36:44.97	334.22	8.63	-44.1	-60.1	3.8	7.48e-01	0	62	104	808452096	58	24525
2026-01-26 12:36:45.98	334.29	8.55	-44.3	-61.3	3.8	7.42e-01	0	62	104	808452096	59	26670
2026-01-26 12:36:46.99	334.36	8.47	-44.2	-61.9	3.8	7.45e-01	0	62	104	808452096	59	28426
2026-01-26 12:36:48.00	334.43	8.38	-43.7	-58.9	3.7	7.48e-01	0	62	104	808452096	57	22620
2026-01-26 12:36:49.01	334.50	8.30	-42.7	-56.7	3.8	7.45e-01	0	62	104	808452096	57	17540
2026-01-26 12:36:50.02	334.56	8.22	-42.6	-56.5	3.8	7.43e-01	0	62	104	808452096	57	17271
2026-01-26 12:36:51.03	334.63	8.14	-42.4	-56.2	3.8	7.47e-01	0	62	104	808452096	56	17657
2026-01-26 12:36:52.04	334.70	8.06	-42.6	-56.7	3.8	7.43e-01	0	62	104	808452096	56	18675
2026-01-26 12:36:53.05	334.76	7.98	-44.8	-62.5	3.8	7.50e-01	0	62	104	808452096	60	28897
2026-01-26 12:36:54.06	334.83	7.90	-45.4	-64.0	3.8	7.48e-01	0	62	104	808452096	61	32197
2026-01-26 12:36:55.07	334.90	7.82	-45.6	-64.2	3.8	7.44e-01	0	63	104	808452096	61	33163
2026-01-26 12:36:56.08	334.96	7.74	-45.9	-64.4	3.8	7.45e-01	0	62	104	808452096	62	31937
2026-01-26 12:36:57.09	335.03	7.66	-46.0	-64.5	3.8	7.46e-01	0	62	104	808452096	62	32329
2026-01-26 12:36:58.10	335.09	7.58	-46.1	-64.7	3.8	7.44e-01	0	62	104	808452096	62	32948
2026-01-26 12:36:59.11	335.15	7.50	-46.1	-64.7	3.8	7.47e-01	0	62	104	808452096	62	33204
2026-01-26 12:37:00.12	335.22	7.42	-46.2	-64.8	3.8	7.44e-01	0	62	104	808452096	62	33458
2026-01-26 12:37:01.13	335.28	7.34	-46.2	-64.8	3.8	7.46e-01	0	62	104	808452096	62	33479
2026-01-26 12:37:02.14	335.34	7.27	-46.2	-64.7	3.8	7.43e-01	0	62	104	808452096	62	33055
2026-01-26 12:37:03.16	335.41	7.19	-46.0	-64.7	3.8	7.43e-01	0	62	104	808452096	62	33085
2026-01-26 12:37:04.17	335.47	7.11	-45.9	-64.1	3.8	7.42e-01	0	62	104	808452096	62	30883
2026-01-26 12:37:05.18	335.53	7.03	-46.1	-64.7	3.8	7.44e-01	0	63	104	808452096	62	32970
2026-01-26 12:37:06.19	335.59	6.95	-46.1	-64.6	3.8	7.48e-01	0	62	104	808452096	62	32887
2026-01-26 12:37:07.20	335.65	6.88	-46.1	-64.6	3.8	7.42e-01	0	62	104	808452096	62	32751
2026-01-26 12:37:08.21	335.72	6.80	-46.1	-64.5	3.8	7.47e-01	0	62	104	808452096	62	32535
2026-01-26 12:37:09.22	335.78	6.72	-46.0	-64.5	3.9	7.45e-01	0	62	104	808452096	62	32505
2026-01-26 12:37:10.23	335.84	6.65	-46.0	-64.5	3.8	7.47e-01	0	62	104	808452096	62	32475
2026-01-26 12:37:11.24	335.90	6.57	-46.0	-64.5	3.7	7.44e-01	0	62	104	808452096	62	32532
2026-01-26 12:37:12.25	335.96	6.50	-46.0	-64.5	3.8	7.46e-01	0	62	104	808452096	62	32524
2026-01-26 12:37:13.26	336.02	6.42	-46.0	-64.5	3.8	7.46e-01	0	63	104	808452096	62	32456
2026-01-26 12:37:14.26	336.07	6.34	-46.0	-64.5	3.8	7.44e-01	0	62	104	808452096	62	32429
2026-01-26 12:37:15.28	336.13	6.27	-46.0	-64.5	3.8	7.48e-01	0	62	104	808452096	62	32356
2026-01-26 12:37:16.29	336.19	6.19	-45.4	-64.5	3.8	7.45e-01	0	62	104	808452096	62	32346
2026-01-26 12:37:17.30	336.25	6.12	-46.0	-64.5	3.8	7.43e-01	0	62	104	808452096	62	32366
2026-01-26 12:37:18.31	336.31	6.04	-46.0	-64.5	3.8	7.42e-01	0	62	104	808452096	62	32217
2026-01-26 12:37:19.32	336.37	5.97	-46.0	-64.5	3.8	7.48e-01	0	63	104	808452096	62	32337
2026-01-26 12:37:20.33	336.42	5.90	-45.9	-64.5	3.8	7.44e-01	0	62	104	808452096	62	32264
