passes_logs/2026/01/26/R2.0S_Moscow/R2.0S_Moscow__20260126_230931_SUOMI_NPP_rec.log

#Pass ID: 20260126_230931_SUOMI NPP
#Satellite: SUOMI NPP
#Configuration: NPP
#almurnet v.1.7.20251203
#Start time: 2026-01-26 23:09:31

#Version: 2.2.20231116
#Station: R2.0S_Moscow
#Location: 37.707566 lon 55.798166 lat
#TLE: 1 37849U 11061A   26026.52266023  .00000173  00000+0  10323-3 0  9994
#TLE: 2 37849  98.7822 328.4727 0002140  43.9411 316.1934 14.19530258738341

#Time	Az	El	Level	Level2	SNR	BER	BlckErr	Temp	State	Recorded	gain1	gain2
2026-01-26 23:09:31.20	19.13	2.00	-42.1	-56.6	3.8	1.49e+00	0	52	0	0	56	18451
2026-01-26 23:09:32.19	19.16	2.06	-41.9	-56.4	3.8	1.49e+00	0	53	104	0	55	19118
2026-01-26 23:09:33.21	19.19	2.13	-41.9	-56.4	3.8	1.49e+00	0	53	104	0	55	19131
2026-01-26 23:09:34.22	19.22	2.19	-41.9	-56.4	3.8	1.49e+00	0	53	104	0	55	19116
2026-01-26 23:09:35.23	19.25	2.25	-41.9	-56.4	3.8	1.49e+00	0	53	104	0	55	19162
2026-01-26 23:09:36.24	19.28	2.32	-41.9	-56.4	3.8	1.49e+00	0	53	104	0	55	19144
2026-01-26 23:09:37.25	19.32	2.38	-41.9	-56.4	3.8	1.49e+00	0	53	104	0	55	19113
2026-01-26 23:09:38.26	19.35	2.44	-41.9	-56.4	3.8	1.49e+00	0	53	104	0	55	19109
2026-01-26 23:09:39.27	19.38	2.51	-41.9	-56.4	3.8	1.49e+00	0	53	104	0	55	19096
2026-01-26 23:09:40.28	19.41	2.57	-41.9	-56.4	3.8	1.49e+00	0	53	104	0	55	19096
2026-01-26 23:09:41.29	19.44	2.64	-41.9	-56.4	3.8	1.49e+00	0	53	104	0	55	19117
2026-01-26 23:09:42.30	19.47	2.70	-41.9	-56.4	3.8	1.49e+00	0	53	104	0	55	19134
2026-01-26 23:09:43.31	19.51	2.76	-41.9	-56.4	3.8	1.49e+00	0	54	104	0	55	19068
2026-01-26 23:09:44.32	19.54	2.83	-41.9	-56.4	3.8	1.49e+00	0	53	104	0	55	19141
2026-01-26 23:09:45.33	19.57	2.89	-41.9	-56.4	3.8	1.49e+00	0	54	104	0	55	19119
2026-01-26 23:09:46.34	19.60	2.96	-41.9	-56.4	3.8	1.49e+00	0	54	104	0	55	19129
2026-01-26 23:09:47.35	19.64	3.02	-41.9	-56.4	3.8	1.49e+00	0	54	104	0	55	19140
2026-01-26 23:09:48.36	19.67	3.09	-41.9	-56.4	3.8	1.49e+00	0	54	104	0	55	19108
2026-01-26 23:09:49.38	19.70	3.15	-41.9	-56.4	3.8	1.49e+00	0	54	104	0	55	19062
2026-01-26 23:09:50.39	19.73	3.22	-41.9	-56.4	3.8	1.49e+00	0	54	104	0	55	19086
2026-01-26 23:09:51.40	19.77	3.29	-41.9	-56.4	3.8	1.49e+00	0	54	104	0	55	19036
2026-01-26 23:09:52.41	19.80	3.35	-41.8	-56.4	3.8	1.49e+00	0	54	104	0	55	19113
2026-01-26 23:09:53.42	19.83	3.42	-41.9	-56.4	3.8	1.49e+00	0	54	104	0	55	19102
2026-01-26 23:09:54.43	19.87	3.48	-41.9	-56.4	3.8	1.49e+00	0	54	104	0	55	19059
2026-01-26 23:09:55.44	19.90	3.55	-41.8	-56.4	3.8	1.49e+00	0	54	104	0	55	19073
2026-01-26 23:09:56.45	19.93	3.62	-41.9	-56.4	3.8	1.49e+00	0	54	104	0	55	19075
2026-01-26 23:09:57.46	19.97	3.68	-41.8	-56.4	3.8	1.49e+00	0	54	104	0	55	19073
2026-01-26 23:09:58.47	20.00	3.75	-41.8	-56.4	3.8	1.49e+00	0	55	104	0	55	19065
2026-01-26 23:09:59.48	20.04	3.82	-41.9	-56.4	3.8	1.49e+00	0	54	104	0	55	19011
2026-01-26 23:10:00.49	20.07	3.88	-41.9	-56.4	3.8	1.49e+00	0	54	104	0	55	19098
2026-01-26 23:10:01.50	20.10	3.95	-41.9	-56.4	3.8	1.49e+00	0	55	104	0	55	19070
2026-01-26 23:10:02.51	20.14	4.02	-41.8	-56.4	3.8	1.49e+00	0	55	104	0	55	19042
2026-01-26 23:10:03.52	20.17	4.08	-41.8	-56.4	3.8	1.49e+00	0	55	104	0	55	19086
2026-01-26 23:10:04.53	20.21	4.15	-41.9	-56.4	3.8	1.49e+00	0	55	104	0	55	19082
2026-01-26 23:10:05.54	20.24	4.22	-41.9	-56.4	3.8	1.49e+00	0	55	104	0	55	19083
2026-01-26 23:10:06.55	20.28	4.29	-41.9	-56.4	3.8	1.49e+00	0	55	104	0	55	19077
2026-01-26 23:10:07.56	20.31	4.36	-41.8	-56.4	3.8	1.49e+00	0	55	104	0	55	19072
2026-01-26 23:10:08.57	20.35	4.42	-41.9	-56.4	3.8	1.49e+00	0	55	104	0	55	19082
2026-01-26 23:10:09.58	20.38	4.49	-41.9	-56.4	3.8	1.49e+00	0	55	104	0	55	19015
2026-01-26 23:10:10.59	20.42	4.56	-41.9	-56.4	3.8	1.49e+00	0	55	104	0	55	19053
2026-01-26 23:10:11.60	20.45	4.63	-41.8	-56.4	3.8	1.49e+00	0	55	104	0	55	19019
2026-01-26 23:10:12.62	20.49	4.70	-41.8	-56.4	3.8	1.49e+00	0	55	104	0	55	19023
2026-01-26 23:10:13.62	20.53	4.77	-41.8	-56.4	3.8	1.49e+00	0	55	104	0	55	19019
2026-01-26 23:10:14.63	20.56	4.84	-41.8	-56.4	3.8	1.49e+00	0	55	104	0	55	19068
2026-01-26 23:10:15.64	20.60	4.91	-41.8	-56.4	3.8	1.49e+00	0	55	104	0	55	19014
2026-01-26 23:10:16.66	20.64	4.98	-41.9	-56.4	3.8	1.49e+00	0	55	104	0	55	19078
2026-01-26 23:10:17.67	20.67	5.05	-41.8	-56.4	3.8	1.49e+00	0	55	104	0	55	19057
2026-01-26 23:10:18.68	20.71	5.12	-41.8	-56.4	3.8	1.49e+00	0	56	104	0	55	19022
2026-01-26 23:10:19.69	20.75	5.19	-41.8	-56.4	3.8	1.49e+00	0	56	104	0	55	19053
2026-01-26 23:10:20.70	20.78	5.26	-41.8	-56.4	3.8	1.49e+00	0	56	104	0	55	18993
2026-01-26 23:10:21.71	20.82	5.33	-41.9	-56.4	3.8	1.49e+00	0	56	104	0	55	19071
2026-01-26 23:10:22.72	20.86	5.40	-41.8	-56.4	3.8	1.49e+00	0	56	104	0	55	19051
2026-01-26 23:10:23.73	20.89	5.47	-41.8	-56.4	3.8	1.49e+00	0	56	104	0	55	19064
2026-01-26 23:10:24.74	20.93	5.54	-41.9	-56.4	3.8	1.49e+00	0	56	104	0	55	19047
2026-01-26 23:10:25.75	20.97	5.61	-41.8	-56.4	3.8	1.49e+00	0	56	104	0	55	19003
2026-01-26 23:10:26.76	21.01	5.68	-41.9	-56.4	3.8	1.49e+00	0	56	104	0	55	19060
2026-01-26 23:10:27.77	21.05	5.75	-41.8	-56.4	3.8	1.49e+00	0	56	104	0	55	19069
2026-01-26 23:10:28.78	21.08	5.82	-41.9	-56.4	3.8	1.49e+00	0	56	104	0	55	19113
2026-01-26 23:10:29.79	21.12	5.90	-41.9	-56.4	3.8	1.49e+00	0	56	104	0	55	19025
2026-01-26 23:10:30.80	21.16	5.97	-41.9	-56.4	3.8	1.49e+00	0	56	104	0	55	19047
2026-01-26 23:10:31.81	21.20	6.04	-41.9	-56.4	3.8	1.49e+00	0	56	104	0	55	19063
2026-01-26 23:10:32.82	21.24	6.11	-41.9	-56.4	3.8	1.49e+00	0	56	104	0	55	19016
2026-01-26 23:10:33.83	21.28	6.19	-41.8	-56.4	3.8	1.49e+00	0	56	104	0	55	18999
2026-01-26 23:10:34.85	21.32	6.26	-41.9	-56.4	3.8	1.49e+00	0	56	104	0	55	19041
2026-01-26 23:10:35.86	21.36	6.33	-41.8	-56.4	3.8	1.49e+00	0	56	104	0	55	19060
2026-01-26 23:10:36.87	21.40	6.41	-41.9	-56.4	3.8	1.49e+00	0	56	104	0	55	19018
2026-01-26 23:10:37.88	21.44	6.48	-41.8	-56.4	3.8	1.49e+00	0	57	104	0	55	19012
2026-01-26 23:10:38.89	21.48	6.55	-41.9	-56.4	3.8	1.49e+00	0	56	104	0	55	19024
2026-01-26 23:10:39.90	21.52	6.63	-41.8	-56.4	3.8	1.49e+00	0	56	104	0	55	19033
2026-01-26 23:10:40.91	21.56	6.70	-41.9	-56.4	3.8	1.49e+00	0	57	104	0	55	19062
2026-01-26 23:10:41.92	21.60	6.78	-41.9	-56.4	3.8	1.49e+00	0	57	104	0	55	19035
2026-01-26 23:10:42.93	21.64	6.85	-41.9	-56.4	3.8	1.49e+00	0	57	104	0	55	19017
2026-01-26 23:10:43.94	21.68	6.93	-41.8	-56.4	3.8	1.49e+00	0	57	104	0	55	18973
2026-01-26 23:10:44.95	21.72	7.00	-41.8	-56.3	3.8	1.49e+00	0	57	104	0	55	18879
2026-01-26 23:10:45.96	21.76	7.08	-41.8	-56.2	3.8	1.49e+00	0	57	104	0	55	18693
2026-01-26 23:10:46.97	21.81	7.15	-41.8	-56.1	3.8	1.49e+00	0	57	104	0	55	18508
2026-01-26 23:10:47.98	21.85	7.23	-41.8	-56.0	3.8	1.49e+00	0	57	104	0	55	18152
2026-01-26 23:10:48.99	21.89	7.30	-41.8	-56.0	3.8	1.49e+00	0	57	104	0	55	18096
2026-01-26 23:10:50.00	21.93	7.38	-41.8	-56.0	3.8	1.49e+00	0	57	104	0	55	18169
2026-01-26 23:10:51.01	21.97	7.45	-41.8	-55.9	3.8	1.49e+00	0	57	104	0	55	18048
2026-01-26 23:10:52.02	22.02	7.53	-41.8	-55.6	3.8	1.49e+00	0	57	104	0	55	17439
2026-01-26 23:10:53.03	22.06	7.61	-41.8	-55.2	3.8	1.49e+00	0	57	104	0	55	16538
2026-01-26 23:10:54.04	22.10	7.68	-41.8	-54.6	3.8	1.49e+00	0	57	104	0	55	15556
2026-01-26 23:10:55.05	22.14	7.76	-41.7	-53.6	4.0	1.48e+00	0	57	104	0	55	13878
2026-01-26 23:10:56.06	22.19	7.84	-41.6	-52.5	4.3	1.45e+00	0	57	0	0	55	12162
2026-01-26 23:10:57.07	22.23	7.92	-41.5	-51.5	4.7	9.91e-01	0	57	0	1048576	55	10788
2026-01-26 23:10:58.09	22.28	7.99	-41.4	-50.8	5.0	7.74e-01	0	57	0	3145728	54	10588
2026-01-26 23:10:59.10	22.32	8.07	-41.4	-50.6	5.2	6.29e-01	0	57	0	5242880	54	10300
2026-01-26 23:11:00.11	22.36	8.15	-41.6	-49.5	6.1	3.28e-01	0	57	0	7340032	54	9084
2026-01-26 23:11:01.12	22.41	8.23	-42.2	-50.2	5.9	2.92e-01	0	57	0	8388608	55	9337
2026-01-26 23:11:02.13	22.45	8.31	-41.4	-54.3	3.8	4.88e-01	0	57	104	10485760	54	15875
2026-01-26 23:11:03.14	22.50	8.39	-41.7	-55.8	3.8	1.49e+00	0	58	104	10485760	54	18798
2026-01-26 23:11:04.15	22.54	8.47	-42.1	-49.2	6.9	6.62e-02	0	58	0	10485760	54	8798
2026-01-26 23:11:05.16	22.59	8.55	-41.3	-46.7	9.4	4.42e-02	0	58	0	12582912	54	6587
2026-01-26 23:11:06.17	22.63	8.62	-41.4	-46.8	9.2	1.78e-02	0	58	0	14680064	54	6698
2026-01-26 23:11:07.18	22.68	8.70	-41.6	-47.3	8.9	2.64e-02	0	58	0	16777216	54	7052
2026-01-26 23:11:08.19	22.73	8.78	-41.7	-47.6	8.6	3.06e-02	0	58	0	18874368	54	7360
2026-01-26 23:11:09.20	22.77	8.87	-41.8	-47.8	8.5	4.84e-02	0	58	0	19922944	54	7483
2026-01-26 23:11:10.21	22.82	8.95	-41.7	-47.5	8.7	3.56e-02	0	58	0	22020096	54	7263
2026-01-26 23:11:11.22	22.86	9.03	-41.8	-47.5	8.9	3.03e-02	0	58	0	24117248	54	7227
2026-01-26 23:11:12.23	22.91	9.11	-41.8	-47.6	8.8	2.99e-02	0	58	0	26214400	54	7360
2026-01-26 23:11:13.24	22.96	9.19	-41.8	-47.6	8.9	2.68e-02	0	58	0	28311552	54	7301
2026-01-26 23:11:14.25	23.01	9.27	-41.9	-47.6	8.9	2.96e-02	0	58	0	29360128	54	7345
2026-01-26 23:11:15.26	23.05	9.35	-41.9	-47.6	8.9	2.87e-02	0	58	0	31457280	54	7338
2026-01-26 23:11:16.27	23.10	9.43	-41.8	-47.3	9.4	1.62e-02	0	58	0	33554432	54	7043
2026-01-26 23:11:17.28	23.15	9.52	-41.9	-47.4	9.2	1.74e-02	0	58	0	35651584	54	7190
2026-01-26 23:11:18.29	23.20	9.60	-41.9	-47.5	9.2	2.52e-02	0	58	0	37748736	54	7251
2026-01-26 23:11:19.30	23.25	9.68	-41.8	-47.0	9.8	1.36e-02	0	58	0	38797312	54	6838
2026-01-26 23:11:20.31	23.29	9.77	-42.1	-47.8	9.0	1.57e-02	0	58	0	40894464	54	7514
2026-01-26 23:11:21.32	23.34	9.85	-42.0	-47.5	9.3	2.38e-02	0	58	0	42991616	54	7244
2026-01-26 23:11:22.33	23.39	9.93	-41.9	-47.2	9.7	1.17e-02	0	58	0	45088768	54	6996
2026-01-26 23:11:23.34	23.44	10.02	-42.0	-47.5	9.4	1.88e-02	0	58	0	47185920	54	7239
2026-01-26 23:11:24.35	23.49	10.10	-42.0	-47.3	9.7	1.24e-02	0	58	0	49283072	54	7056
2026-01-26 23:11:25.36	23.54	10.19	-42.2	-47.8	9.3	1.76e-02	0	58	0	50331648	54	7482
2026-01-26 23:11:26.37	23.59	10.27	-41.9	-47.0	10.0	1.00e-02	0	58	0	52428800	54	6814
2026-01-26 23:11:27.38	23.64	10.36	-42.1	-47.3	9.7	9.79e-03	0	58	0	54525952	54	7099
2026-01-26 23:11:28.39	23.69	10.44	-41.9	-47.0	10.0	1.04e-02	0	58	0	56623104	54	6872
2026-01-26 23:11:29.40	23.75	10.53	-42.0	-47.1	10.0	7.73e-03	0	58	0	58720256	54	6892
2026-01-26 23:11:30.41	23.80	10.61	-42.0	-47.0	10.1	5.96e-03	0	59	0	59768832	54	6836
2026-01-26 23:11:31.42	23.85	10.70	-41.9	-46.9	10.2	5.66e-03	0	59	0	61865984	54	6734
2026-01-26 23:11:32.43	23.90	10.78	-41.9	-46.8	10.3	5.81e-03	0	59	0	63963136	54	6682
2026-01-26 23:11:33.44	23.95	10.87	-41.9	-46.8	10.4	4.47e-03	0	58	0	66060288	54	6685
2026-01-26 23:11:34.45	24.01	10.96	-41.9	-46.9	10.3	5.81e-03	0	58	0	68157440	54	6728
2026-01-26 23:11:35.46	24.06	11.05	-42.0	-46.8	10.4	5.36e-03	0	58	0	69206016	54	6692
2026-01-26 23:11:36.47	24.11	11.13	-41.9	-46.6	10.6	3.58e-03	0	59	0	71303168	54	6543
2026-01-26 23:11:37.48	24.17	11.22	-41.9	-46.7	10.5	4.28e-03	0	58	0	73400320	54	6618
2026-01-26 23:11:38.49	24.22	11.31	-41.9	-46.6	10.7	3.04e-03	0	59	0	75497472	54	6550
2026-01-26 23:11:39.50	24.27	11.40	-41.9	-46.6	10.7	2.82e-03	0	59	0	77594624	54	6500
2026-01-26 23:11:40.51	24.33	11.49	-42.0	-46.7	10.6	3.14e-03	0	59	0	78643200	54	6628
2026-01-26 23:11:41.52	24.38	11.58	-41.9	-46.4	10.9	2.75e-03	0	59	0	80740352	54	6416
2026-01-26 23:11:42.53	24.44	11.67	-41.8	-46.4	11.0	2.65e-03	0	59	0	82837504	54	6355
2026-01-26 23:11:43.54	24.49	11.76	-41.8	-46.3	11.0	2.53e-03	0	59	0	84934656	54	6336
2026-01-26 23:11:44.55	24.55	11.85	-41.8	-46.4	10.9	2.06e-03	0	59	0	87031808	54	6374
2026-01-26 23:11:45.56	24.60	11.94	-41.8	-46.3	11.0	2.36e-03	0	59	0	88080384	54	6315
2026-01-26 23:11:46.57	24.66	12.03	-41.8	-46.3	11.0	1.68e-03	0	59	0	90177536	54	6325
2026-01-26 23:11:47.58	24.72	12.12	-41.9	-46.4	11.0	1.59e-03	0	59	0	92274688	54	6403
2026-01-26 23:11:48.59	24.77	12.21	-41.8	-46.3	11.1	1.81e-03	0	59	0	94371840	54	6279
2026-01-26 23:11:49.60	24.83	12.30	-41.7	-46.1	11.2	1.28e-03	0	59	0	96468992	54	6181
2026-01-26 23:11:50.61	24.89	12.39	-41.7	-46.1	11.2	1.45e-03	0	59	0	97517568	54	6190
2026-01-26 23:11:51.62	24.95	12.48	-41.6	-45.9	11.6	1.01e-03	0	59	0	99614720	54	6017
2026-01-26 23:11:52.63	25.00	12.58	-41.7	-46.0	11.4	8.21e-04	0	59	0	101711872	54	6071
2026-01-26 23:11:53.64	25.06	12.67	-41.7	-46.0	11.4	1.01e-03	0	59	0	103809024	54	6063
2026-01-26 23:11:54.65	25.12	12.76	-41.7	-46.0	11.4	9.28e-04	0	59	0	105906176	54	6105
2026-01-26 23:11:55.66	25.18	12.86	-41.6	-45.8	11.6	8.15e-04	0	59	0	106954752	54	5977
2026-01-26 23:11:56.67	25.24	12.95	-41.6	-45.7	11.8	6.24e-04	0	59	0	109051904	54	5885
2026-01-26 23:11:57.68	25.30	13.04	-41.6	-45.7	11.8	5.42e-04	0	59	0	111149056	54	5880
2026-01-26 23:11:58.69	25.36	13.14	-41.5	-45.5	12.0	3.39e-04	0	59	0	113246208	54	5726
2026-01-26 23:11:59.70	25.42	13.23	-41.5	-45.5	12.0	2.85e-04	0	59	0	115343360	54	5767
2026-01-26 23:12:00.71	25.48	13.33	-41.5	-45.4	12.1	2.47e-04	0	59	0	116391936	54	5703
2026-01-26 23:12:01.72	25.54	13.43	-41.4	-45.3	12.2	1.96e-04	0	59	0	118489088	54	5626
2026-01-26 23:12:02.73	25.60	13.52	-41.5	-45.4	12.1	2.20e-04	0	59	0	120586240	54	5681
2026-01-26 23:12:03.73	25.67	13.62	-41.4	-45.3	12.3	1.73e-04	0	59	0	122683392	54	5593
2026-01-26 23:12:04.74	25.73	13.71	-41.4	-45.1	12.4	1.24e-04	0	59	0	124780544	54	5519
2026-01-26 23:12:05.75	25.79	13.81	-41.4	-45.1	12.5	1.45e-04	0	59	0	126877696	54	5501
2026-01-26 23:12:06.76	25.85	13.91	-41.3	-44.9	12.7	1.04e-04	0	59	0	127926272	54	5372
2026-01-26 23:12:07.77	25.92	14.01	-41.3	-45.0	12.6	1.26e-04	0	59	0	130023424	54	5441
2026-01-26 23:12:08.78	25.98	14.10	-41.3	-45.0	12.6	7.85e-05	0	59	0	132120576	54	5426
2026-01-26 23:12:09.79	26.05	14.20	-41.3	-44.9	12.7	1.05e-04	0	59	0	134217728	54	5384
2026-01-26 23:12:10.80	26.11	14.30	-41.4	-45.1	12.5	9.68e-05	0	59	0	136314880	54	5524
2026-01-26 23:12:11.81	26.18	14.40	-41.3	-44.9	12.7	8.16e-05	0	59	0	137363456	54	5399
2026-01-26 23:12:12.82	26.24	14.50	-41.4	-45.2	12.5	9.07e-05	0	59	0	139460608	54	5539
2026-01-26 23:12:13.83	26.31	14.60	-41.3	-44.9	12.8	5.72e-05	0	60	0	141557760	54	5362
2026-01-26 23:12:14.84	26.37	14.70	-41.3	-44.8	12.9	6.56e-05	0	59	0	143654912	54	5324
2026-01-26 23:12:15.85	26.44	14.80	-41.3	-45.0	12.7	7.55e-05	0	59	0	145752064	54	5420
2026-01-26 23:12:16.86	26.51	14.90	-41.3	-45.0	12.8	6.71e-05	0	59	0	146800640	54	5403
2026-01-26 23:12:17.87	26.58	15.00	-41.3	-44.9	12.8	6.56e-05	0	59	0	148897792	54	5365
2026-01-26 23:12:18.89	26.65	15.11	-41.3	-44.8	12.9	4.88e-05	0	59	0	150994944	54	5340
2026-01-26 23:12:19.89	26.71	15.21	-41.2	-44.8	12.9	4.57e-05	0	59	0	153092096	54	5298
2026-01-26 23:12:20.90	26.78	15.31	-41.1	-44.6	13.0	5.18e-05	0	59	0	155189248	54	5204
2026-01-26 23:12:21.91	26.85	15.41	-41.2	-44.8	12.9	3.89e-05	0	59	0	156237824	54	5308
2026-01-26 23:12:22.92	26.92	15.52	-41.2	-44.7	13.0	5.87e-05	0	60	0	158334976	54	5266
2026-01-26 23:12:23.93	26.99	15.62	-41.2	-44.7	13.0	3.28e-05	0	60	0	160432128	54	5272
2026-01-26 23:12:24.94	27.06	15.73	-41.2	-44.7	13.0	5.26e-05	0	60	0	162529280	54	5235
2026-01-26 23:12:25.95	27.13	15.83	-41.2	-44.7	13.0	3.81e-05	0	60	0	164626432	54	5261
2026-01-26 23:12:26.96	27.21	15.94	-41.1	-44.6	13.1	3.20e-05	0	60	0	165675008	54	5203
2026-01-26 23:12:27.97	27.28	16.04	-41.2	-44.7	13.0	4.19e-05	0	60	0	167772160	54	5258
2026-01-26 23:12:28.98	27.35	16.15	-41.2	-44.6	13.1	3.43e-05	0	60	0	169869312	54	5202
2026-01-26 23:12:29.99	27.42	16.25	-41.2	-44.7	13.0	2.28e-05	0	60	0	171966464	54	5259
2026-01-26 23:12:31.00	27.50	16.36	-41.2	-44.7	13.0	2.36e-05	0	60	0	174063616	54	5248
2026-01-26 23:12:32.01	27.57	16.47	-41.1	-44.6	13.2	1.90e-05	0	60	0	175112192	54	5171
2026-01-26 23:12:33.03	27.65	16.58	-41.2	-44.6	13.2	2.05e-05	0	60	0	177209344	54	5211
2026-01-26 23:12:34.04	27.72	16.69	-41.1	-44.5	13.3	2.89e-05	0	60	0	179306496	54	5147
2026-01-26 23:12:35.04	27.80	16.79	-41.1	-44.5	13.3	1.98e-05	0	60	0	181403648	54	5119
2026-01-26 23:12:36.05	27.87	16.90	-41.0	-44.4	13.4	2.36e-05	0	60	0	183500800	54	5049
2026-01-26 23:12:37.06	27.95	17.01	-41.1	-44.5	13.3	1.37e-05	0	60	0	184549376	54	5139
2026-01-26 23:12:38.07	28.03	17.12	-41.1	-44.4	13.4	1.44e-05	0	60	0	186646528	54	5062
2026-01-26 23:12:39.08	28.11	17.23	-41.0	-44.3	13.6	1.44e-05	0	60	0	188743680	54	4994
2026-01-26 23:12:40.09	28.18	17.34	-41.1	-44.4	13.4	1.06e-05	0	60	0	190840832	54	5071
2026-01-26 23:12:41.11	28.26	17.46	-41.1	-44.5	13.4	8.30e-06	0	60	0	192937984	54	5107
2026-01-26 23:12:42.12	28.34	17.57	-41.1	-44.4	13.5	9.10e-06	0	60	0	195035136	53	5389
2026-01-26 23:12:43.13	28.42	17.68	-41.1	-44.4	13.5	6.10e-06	0	60	0	196083712	53	5352
2026-01-26 23:12:44.14	28.50	17.79	-41.0	-44.3	13.5	1.22e-05	0	60	0	198180864	53	5325
2026-01-26 23:12:45.15	28.59	17.91	-41.0	-44.3	13.6	1.22e-05	0	60	0	200278016	53	5306
2026-01-26 23:12:46.16	28.67	18.02	-41.1	-44.4	13.5	9.10e-06	0	60	0	202375168	53	5376
2026-01-26 23:12:47.16	28.75	18.13	-41.1	-44.4	13.5	1.44e-05	0	60	0	204472320	53	5351
2026-01-26 23:12:48.17	28.83	18.25	-41.2	-44.5	13.4	1.98e-05	0	60	0	205520896	53	5438
2026-01-26 23:12:49.18	28.91	18.36	-41.2	-44.6	13.4	9.10e-06	0	60	0	207618048	53	5466
2026-01-26 23:12:50.19	29.00	18.48	-41.3	-44.7	13.2	2.36e-05	0	60	0	209715200	53	5553
2026-01-26 23:12:51.20	29.08	18.59	-41.3	-44.7	13.2	2.89e-05	0	60	0	211812352	53	5562
2026-01-26 23:12:52.21	29.17	18.71	-41.1	-44.5	13.4	1.83e-05	0	60	0	213909504	53	5409
2026-01-26 23:12:53.22	29.26	18.83	-41.3	-44.7	13.2	1.60e-05	0	60	0	214958080	53	5550
2026-01-26 23:12:54.23	29.34	18.95	-41.3	-44.7	13.2	2.36e-05	0	60	0	217055232	53	5555
2026-01-26 23:12:55.24	29.43	19.06	-41.2	-44.5	13.5	1.29e-05	0	60	0	219152384	53	5408
2026-01-26 23:12:56.25	29.52	19.18	-41.2	-44.5	13.4	1.14e-05	0	60	0	221249536	53	5432
2026-01-26 23:12:57.26	29.61	19.30	-41.2	-44.5	13.4	1.37e-05	0	60	0	223346688	53	5446
2026-01-26 23:12:58.27	29.69	19.42	-41.2	-44.5	13.4	1.67e-05	0	60	0	224395264	53	5464
2026-01-26 23:12:59.28	29.78	19.54	-41.3	-44.7	13.2	1.83e-05	0	60	0	226492416	53	5561
2026-01-26 23:13:00.29	29.88	19.66	-41.2	-44.6	13.3	1.60e-05	0	60	0	228589568	53	5522
2026-01-26 23:13:01.30	29.97	19.78	-41.1	-44.4	13.5	8.30e-06	0	60	0	230686720	53	5388
2026-01-26 23:13:02.31	30.06	19.91	-41.1	-44.4	13.5	1.22e-05	0	60	0	232783872	53	5380
2026-01-26 23:13:03.32	30.15	20.03	-41.1	-44.4	13.5	1.44e-05	0	60	0	233832448	53	5397
2026-01-26 23:13:04.33	30.24	20.15	-41.2	-44.6	13.4	1.06e-05	0	60	0	235929600	53	5480
2026-01-26 23:13:05.34	30.34	20.27	-41.2	-44.5	13.5	1.37e-05	0	60	0	238026752	53	5407
2026-01-26 23:13:06.35	30.43	20.40	-41.1	-44.4	13.6	9.10e-06	0	60	0	240123904	53	5361
2026-01-26 23:13:07.36	30.53	20.52	-41.1	-44.3	13.6	1.06e-05	0	60	0	242221056	53	5329
2026-01-26 23:13:08.37	30.62	20.65	-41.2	-44.4	13.5	9.10e-06	0	60	0	243269632	53	5401
2026-01-26 23:13:09.38	30.72	20.77	-41.1	-44.4	13.6	8.30e-06	0	60	0	245366784	53	5359
2026-01-26 23:13:10.39	30.82	20.90	-41.1	-44.3	13.7	7.60e-06	0	60	0	247463936	53	5308
2026-01-26 23:13:11.40	30.92	21.03	-41.1	-44.4	13.7	9.10e-06	0	60	0	249561088	53	5342
2026-01-26 23:13:12.41	31.02	21.15	-41.1	-44.3	13.6	5.30e-06	0	60	0	251658240	53	5327
2026-01-26 23:13:13.42	31.12	21.28	-41.1	-44.3	13.6	3.80e-06	0	60	0	252706816	53	5336
2026-01-26 23:13:14.43	31.22	21.41	-41.1	-44.4	13.6	5.30e-06	0	60	0	254803968	53	5362
2026-01-26 23:13:15.44	31.32	21.54	-41.2	-44.6	13.5	1.52e-05	0	60	0	256901120	53	5467
2026-01-26 23:13:16.45	31.42	21.67	-41.2	-44.4	13.6	7.60e-06	0	60	0	258998272	53	5393
2026-01-26 23:13:17.46	31.53	21.80	-41.2	-44.4	13.6	7.60e-06	0	60	0	261095424	53	5391
2026-01-26 23:13:18.47	31.63	21.93	-41.2	-44.5	13.5	1.60e-05	0	60	0	263192576	53	5458
2026-01-26 23:13:19.48	31.74	22.06	-41.1	-44.4	13.6	8.30e-06	0	60	0	264241152	53	5341
2026-01-26 23:13:20.49	31.84	22.19	-41.1	-44.2	13.8	6.80e-06	0	60	0	266338304	53	5274
2026-01-26 23:13:21.49	31.95	22.32	-41.2	-44.5	13.6	6.10e-06	0	60	0	268435456	53	5420
2026-01-26 23:13:22.50	32.05	22.45	-41.0	-44.2	13.8	8.30e-06	0	60	0	270532608	53	5225
2026-01-26 23:13:23.51	32.16	22.59	-41.1	-44.2	13.9	3.00e-06	0	60	0	272629760	53	5265
2026-01-26 23:13:24.52	32.27	22.72	-41.2	-44.4	13.7	1.50e-06	0	60	0	273678336	53	5351
2026-01-26 23:13:25.53	32.38	22.86	-41.0	-44.1	14.0	3.80e-06	0	60	0	275775488	53	5204
2026-01-26 23:13:26.54	32.49	22.99	-41.1	-44.2	13.8	2.20e-06	0	60	0	277872640	53	5249
2026-01-26 23:13:27.55	32.61	23.13	-41.1	-44.3	13.7	3.80e-06	0	60	0	279969792	53	5315
2026-01-26 23:13:28.56	32.72	23.27	-41.0	-44.1	13.9	3.80e-06	0	60	0	282066944	53	5202
2026-01-26 23:13:29.57	32.83	23.40	-41.2	-44.4	13.6	5.30e-06	0	61	0	283115520	53	5375
2026-01-26 23:13:30.58	32.95	23.54	-41.1	-44.4	13.6	6.10e-06	0	60	0	285212672	53	5353
2026-01-26 23:13:31.59	33.06	23.68	-41.3	-44.6	13.5	1.44e-05	0	60	0	287309824	53	5475
2026-01-26 23:13:32.60	33.18	23.82	-41.3	-44.7	13.3	1.90e-05	0	60	0	289406976	53	5552
2026-01-26 23:13:33.61	33.30	23.96	-41.4	-44.9	13.1	1.52e-05	0	60	0	291504128	53	5684
2026-01-26 23:13:34.62	33.42	24.10	-41.2	-44.5	13.5	1.67e-05	0	60	0	292552704	53	5447
2026-01-26 23:13:35.63	33.54	24.24	-41.3	-44.6	13.4	1.06e-05	0	60	0	294649856	53	5494
2026-01-26 23:13:36.63	33.66	24.38	-41.4	-44.8	13.2	2.28e-05	0	60	0	296747008	53	5611
2026-01-26 23:13:37.64	33.78	24.52	-41.3	-44.6	13.4	1.29e-05	0	60	0	298844160	53	5523
2026-01-26 23:13:38.65	33.90	24.67	-41.3	-44.7	13.4	8.30e-06	0	60	0	300941312	53	5549
2026-01-26 23:13:39.66	34.03	24.81	-41.2	-44.5	13.5	2.51e-05	0	61	0	301989888	53	5440
2026-01-26 23:13:40.67	34.15	24.95	-41.3	-44.6	13.4	1.75e-05	0	60	0	304087040	53	5514
2026-01-26 23:13:41.68	34.28	25.10	-41.4	-44.7	13.4	1.60e-05	0	60	0	306184192	53	5587
2026-01-26 23:13:42.69	34.41	25.24	-41.5	-44.9	13.2	2.74e-05	0	61	0	308281344	53	5689
2026-01-26 23:13:43.70	34.54	25.39	-41.4	-44.9	13.1	1.75e-05	0	60	0	310378496	53	5672
2026-01-26 23:13:44.71	34.67	25.54	-41.4	-44.8	13.3	1.83e-05	0	60	0	311427072	53	5610
2026-01-26 23:13:45.72	34.80	25.68	-41.4	-44.8	13.3	2.36e-05	0	60	0	313524224	53	5615
2026-01-26 23:13:46.73	34.93	25.83	-41.5	-45.0	13.1	4.34e-05	0	60	0	315621376	53	5728
2026-01-26 23:13:47.74	35.06	25.98	-41.7	-45.3	12.8	2.74e-05	0	60	0	317718528	53	5937
2026-01-26 23:13:48.75	35.20	26.13	-41.7	-45.4	12.7	6.48e-05	0	61	0	319815680	54	5679
2026-01-26 23:13:49.76	35.33	26.28	-41.6	-45.2	12.9	4.88e-05	0	61	0	320864256	54	5561
2026-01-26 23:13:50.77	35.47	26.43	-41.7	-45.3	12.8	5.49e-05	0	61	0	322961408	54	5641
2026-01-26 23:13:51.78	35.61	26.58	-41.7	-45.3	12.8	6.33e-05	0	60	0	325058560	54	5609
2026-01-26 23:13:52.79	35.75	26.74	-41.6	-45.2	13.0	6.86e-05	0	61	0	327155712	54	5539
2026-01-26 23:13:53.80	35.89	26.89	-41.6	-45.1	12.9	4.57e-05	0	60	0	329252864	54	5523
2026-01-26 23:13:54.81	36.03	27.04	-41.7	-45.3	12.8	5.11e-05	0	61	0	331350016	54	5630
2026-01-26 23:13:55.82	36.18	27.20	-41.6	-45.2	12.9	5.79e-05	0	61	0	332398592	54	5547
2026-01-26 23:13:56.83	36.32	27.35	-41.7	-45.2	13.0	3.89e-05	0	61	0	334495744	54	5561
2026-01-26 23:13:57.84	36.47	27.51	-41.8	-45.5	12.6	4.95e-05	0	60	0	336592896	54	5725
2026-01-26 23:13:58.85	36.62	27.67	-41.9	-45.6	12.6	1.16e-04	0	61	0	338690048	54	5822
2026-01-26 23:13:59.86	36.77	27.82	-41.9	-45.8	12.3	1.15e-04	0	61	0	340787200	54	5929
2026-01-26 23:14:00.87	36.92	27.98	-42.0	-45.8	12.4	1.27e-04	0	61	0	341835776	54	5942
2026-01-26 23:14:01.88	37.07	28.14	-42.1	-46.0	12.1	1.68e-04	0	61	0	343932928	54	6095
2026-01-26 23:14:02.89	37.22	28.30	-42.1	-45.9	12.2	2.78e-04	0	61	0	346030080	54	6061
2026-01-26 23:14:03.90	37.38	28.46	-42.2	-46.2	12.0	2.50e-04	0	61	0	348127232	54	6209
2026-01-26 23:14:04.91	37.53	28.62	-42.3	-46.5	11.6	4.98e-04	0	61	0	350224384	55	6100
2026-01-26 23:14:05.92	37.69	28.78	-42.4	-46.8	11.3	7.08e-04	0	61	0	351272960	55	6296
2026-01-26 23:14:06.93	37.85	28.94	-42.6	-47.1	11.0	8.27e-04	0	61	0	353370112	55	6504
2026-01-26 23:14:07.94	38.01	29.11	-42.6	-47.3	10.8	1.91e-03	0	61	0	355467264	55	6656
2026-01-26 23:14:08.94	38.18	29.27	-42.9	-47.7	10.5	3.76e-03	0	61	0	357564416	56	6638
2026-01-26 23:14:09.96	38.34	29.43	-43.1	-48.1	10.1	5.34e-03	0	61	0	359661568	56	6930
2026-01-26 23:14:10.96	38.51	29.60	-43.1	-48.2	10.1	6.20e-03	0	61	0	360710144	56	6987
2026-01-26 23:14:11.97	38.67	29.76	-43.1	-48.1	10.1	7.09e-03	0	61	0	362807296	56	6934
2026-01-26 23:14:12.98	38.84	29.93	-43.0	-48.0	10.2	7.36e-03	0	61	0	364904448	56	6847
2026-01-26 23:14:13.99	39.02	30.10	-43.0	-47.8	10.5	5.40e-03	0	61	0	367001600	56	6674
2026-01-26 23:14:15.00	39.19	30.27	-42.9	-47.5	10.8	3.73e-03	0	61	0	369098752	56	6477
2026-01-26 23:14:16.01	39.36	30.43	-42.9	-47.6	10.7	3.07e-03	0	61	0	370147328	56	6520
2026-01-26 23:14:17.02	39.54	30.60	-42.9	-47.6	10.7	3.29e-03	0	61	0	372244480	56	6527
2026-01-26 23:14:18.03	39.72	30.77	-42.9	-47.6	10.7	2.45e-03	0	61	0	374341632	56	6525
2026-01-26 23:14:19.04	39.90	30.94	-42.8	-47.3	11.0	2.38e-03	0	61	0	376438784	56	6291
2026-01-26 23:14:20.05	40.08	31.12	-42.7	-47.1	11.2	2.69e-03	0	61	0	378535936	56	6179
2026-01-26 23:14:21.06	40.27	31.29	-42.7	-47.2	11.0	1.72e-03	0	61	0	379584512	56	6234
2026-01-26 23:14:22.07	40.45	31.46	-42.6	-47.0	11.3	8.88e-04	0	61	0	381681664	56	6081
2026-01-26 23:14:23.08	40.64	31.63	-42.6	-46.8	11.5	8.23e-04	0	61	0	383778816	56	5981
2026-01-26 23:14:24.09	40.83	31.81	-42.6	-46.9	11.4	7.48e-04	0	61	0	385875968	56	6016
2026-01-26 23:14:25.10	41.02	31.98	-42.5	-46.7	11.6	5.27e-04	0	61	0	387973120	56	5892
2026-01-26 23:14:26.11	41.22	32.16	-42.5	-46.6	11.7	6.02e-04	0	61	0	389021696	56	5823
2026-01-26 23:14:27.12	41.41	32.34	-42.6	-46.9	11.5	6.80e-04	0	61	0	391118848	56	5997
2026-01-26 23:14:28.13	41.61	32.51	-42.6	-47.0	11.3	6.96e-04	0	61	0	393216000	56	6106
2026-01-26 23:14:29.14	41.81	32.69	-42.6	-46.9	11.5	6.55e-04	0	61	0	395313152	56	6019
2026-01-26 23:14:30.16	42.01	32.87	-42.6	-47.0	11.4	1.28e-03	0	61	0	397410304	56	6067
2026-01-26 23:14:31.16	42.22	33.05	-42.4	-46.6	11.8	8.07e-04	0	61	0	399507456	56	5794
2026-01-26 23:14:32.17	42.42	33.23	-42.5	-46.6	11.7	5.23e-04	0	61	0	400556032	56	5848
2026-01-26 23:14:33.18	42.63	33.41	-42.2	-46.1	12.3	2.96e-04	0	61	0	402653184	56	5467
2026-01-26 23:14:34.19	42.84	33.59	-42.0	-45.6	12.8	1.02e-04	0	61	0	404750336	56	5174
2026-01-26 23:14:35.20	43.06	33.77	-41.8	-45.4	12.8	6.86e-05	0	61	0	406847488	55	5365
2026-01-26 23:14:36.21	43.27	33.95	-41.9	-45.5	12.7	6.48e-05	0	61	0	408944640	55	5426
2026-01-26 23:14:37.22	43.49	34.14	-41.8	-45.4	12.9	1.13e-04	0	61	0	409993216	55	5373
2026-01-26 23:14:38.23	43.71	34.32	-42.0	-45.9	12.4	7.32e-05	0	61	0	412090368	55	5657
2026-01-26 23:14:39.24	43.94	34.50	-42.3	-46.3	11.9	1.88e-04	0	61	0	414187520	55	5981
2026-01-26 23:14:40.25	44.16	34.69	-42.3	-46.3	11.9	3.46e-04	0	61	0	416284672	55	5961
2026-01-26 23:14:41.26	44.39	34.87	-42.2	-46.3	11.9	2.85e-04	0	61	0	418381824	55	5947
2026-01-26 23:14:42.27	44.62	35.06	-42.2	-46.1	12.1	2.23e-04	0	61	0	419430400	55	5805
2026-01-26 23:14:43.28	44.86	35.25	-42.2	-46.2	12.0	2.78e-04	0	61	0	421527552	55	5864
2026-01-26 23:14:44.28	45.09	35.43	-42.2	-46.2	12.1	2.70e-04	0	61	0	423624704	55	5865
2026-01-26 23:14:45.29	45.33	35.62	-42.1	-45.9	12.3	1.85e-04	0	61	0	425721856	55	5713
2026-01-26 23:14:46.31	45.57	35.81	-42.1	-45.9	12.3	2.39e-04	0	61	0	427819008	55	5718
2026-01-26 23:14:47.32	45.82	36.00	-42.0	-45.7	12.5	1.49e-04	0	61	0	428867584	55	5581
2026-01-26 23:14:48.32	46.06	36.19	-41.7	-45.2	13.1	8.92e-05	0	61	0	430964736	55	5232
2026-01-26 23:14:49.33	46.31	36.38	-41.9	-45.5	12.7	8.16e-05	0	61	0	433061888	55	5420
2026-01-26 23:14:50.34	46.57	36.57	-41.7	-45.2	13.0	4.27e-05	0	61	0	435159040	55	5277
2026-01-26 23:14:51.35	46.82	36.76	-41.8	-45.4	12.9	5.03e-05	0	61	0	437256192	55	5341
2026-01-26 23:14:52.36	47.08	36.95	-41.8	-45.4	12.9	8.39e-05	0	61	0	438304768	55	5357
2026-01-26 23:14:53.37	47.34	37.14	-41.9	-45.5	12.8	9.00e-05	0	61	0	440401920	55	5445
2026-01-26 23:14:54.38	47.61	37.34	-41.8	-45.3	12.9	5.49e-05	0	61	0	442499072	55	5308
2026-01-26 23:14:55.39	47.88	37.53	-41.7	-45.2	13.1	6.86e-05	0	61	0	444596224	55	5231
2026-01-26 23:14:56.40	48.15	37.72	-41.7	-45.1	13.1	2.28e-05	0	61	0	446693376	55	5195
2026-01-26 23:14:57.41	48.42	37.92	-41.6	-45.0	13.3	9.10e-06	0	61	0	447741952	55	5112
2026-01-26 23:14:58.42	48.70	38.11	-41.4	-44.6	13.6	1.22e-05	0	61	0	449839104	54	5209
2026-01-26 23:14:59.43	48.98	38.31	-41.6	-45.0	13.4	1.37e-05	0	61	0	451936256	54	5405
2026-01-26 23:15:00.44	49.26	38.50	-41.6	-45.0	13.4	1.29e-05	0	61	0	454033408	54	5418
2026-01-26 23:15:01.45	49.55	38.70	-41.6	-45.0	13.3	1.90e-05	0	61	0	456130560	54	5434
2026-01-26 23:15:02.46	49.84	38.89	-41.7	-45.3	13.0	1.44e-05	0	61	0	457179136	54	5600
2026-01-26 23:15:03.47	50.14	39.09	-42.0	-45.7	12.6	5.03e-05	0	61	0	459276288	54	5917
2026-01-26 23:15:04.48	50.44	39.28	-41.9	-45.6	12.6	1.14e-04	0	61	0	461373440	54	5844
2026-01-26 23:15:05.49	50.74	39.48	-42.1	-46.0	12.2	1.16e-04	0	61	0	463470592	54	6112
2026-01-26 23:15:06.50	51.04	39.68	-41.9	-45.6	12.7	1.13e-04	0	61	0	465567744	54	5827
2026-01-26 23:15:07.51	51.35	39.88	-42.0	-45.6	12.6	1.05e-04	0	61	0	467664896	54	5837
2026-01-26 23:15:08.52	51.66	40.07	-41.9	-45.4	12.8	7.09e-05	0	61	0	468713472	54	5720
2026-01-26 23:15:09.53	51.98	40.27	-41.9	-45.5	12.7	4.73e-05	0	61	0	470810624	54	5785
2026-01-26 23:15:10.54	52.30	40.47	-41.8	-45.3	13.0	3.20e-05	0	61	0	472907776	54	5652
2026-01-26 23:15:11.55	52.62	40.67	-41.7	-45.0	13.4	1.98e-05	0	61	0	475004928	54	5461
2026-01-26 23:15:12.56	52.95	40.86	-41.5	-44.7	13.6	6.10e-06	0	61	0	477102080	54	5273
2026-01-26 23:15:13.57	53.29	41.06	-41.5	-44.8	13.6	6.80e-06	0	61	0	478150656	54	5281
2026-01-26 23:15:14.58	53.62	41.26	-41.5	-44.7	13.6	1.29e-05	0	61	0	480247808	54	5261
2026-01-26 23:15:15.59	53.96	41.46	-41.6	-44.8	13.5	1.14e-05	0	61	0	482344960	54	5340
2026-01-26 23:15:16.60	54.31	41.65	-41.9	-45.5	12.8	2.51e-05	0	61	0	484442112	54	5759
2026-01-26 23:15:17.61	54.65	41.85	-42.2	-46.1	12.2	6.86e-05	0	61	0	486539264	54	6158
2026-01-26 23:15:18.62	55.01	42.05	-42.1	-45.9	12.5	1.79e-04	0	61	0	487587840	54	6025
2026-01-26 23:15:19.63	55.36	42.25	-42.1	-45.9	12.3	7.93e-05	0	61	0	489684992	54	6048
2026-01-26 23:15:20.64	55.73	42.44	-41.9	-45.6	12.8	6.25e-05	0	61	0	491782144	54	5792
2026-01-26 23:15:21.65	56.09	42.64	-41.8	-45.3	12.9	5.56e-05	0	61	0	493879296	54	5649
2026-01-26 23:15:22.66	56.46	42.84	-41.9	-45.4	12.9	3.96e-05	0	61	0	495976448	54	5714
2026-01-26 23:15:23.67	56.84	43.04	-41.7	-45.2	13.2	2.36e-05	0	61	0	497025024	54	5538
2026-01-26 23:15:24.68	57.22	43.23	-41.7	-45.1	13.1	2.59e-05	0	61	0	499122176	54	5525
2026-01-26 23:15:25.69	57.60	43.43	-41.8	-45.3	13.1	2.13e-05	0	61	0	501219328	54	5608
2026-01-26 23:15:26.70	57.99	43.62	-41.8	-45.3	13.0	4.04e-05	0	61	0	503316480	54	5650
2026-01-26 23:15:27.71	58.38	43.82	-42.0	-45.7	12.6	3.20e-05	0	61	0	505413632	54	5922
2026-01-26 23:15:28.72	58.78	44.01	-42.2	-46.0	12.4	1.56e-04	0	61	0	506462208	54	6074
2026-01-26 23:15:29.73	59.18	44.21	-42.0	-45.7	12.7	9.46e-05	0	61	0	508559360	55	5564
2026-01-26 23:15:30.74	59.59	44.40	-42.1	-45.8	12.5	8.62e-05	0	61	0	510656512	55	5642
2026-01-26 23:15:31.75	60.00	44.59	-41.8	-45.3	13.1	4.19e-05	0	61	0	512753664	55	5305
2026-01-26 23:15:32.76	60.42	44.79	-42.0	-45.6	12.8	4.65e-05	0	61	0	514850816	55	5487
2026-01-26 23:15:33.77	60.85	44.98	-42.0	-45.6	12.7	1.06e-04	0	61	0	515899392	55	5521
2026-01-26 23:15:34.78	61.27	45.17	-42.3	-46.2	12.2	1.05e-04	0	61	0	517996544	55	5865
2026-01-26 23:15:35.79	61.71	45.36	-42.3	-46.3	12.0	2.68e-04	0	61	0	520093696	55	5934
2026-01-26 23:15:36.80	62.14	45.55	-42.5	-46.7	11.7	5.55e-04	0	61	0	522190848	55	6245
2026-01-26 23:15:37.81	62.59	45.73	-42.6	-46.8	11.4	7.03e-04	0	61	0	524288000	55	6338
2026-01-26 23:15:38.82	63.04	45.92	-42.6	-47.0	11.3	7.38e-04	0	61	0	525336576	55	6462
2026-01-26 23:15:39.83	63.49	46.11	-42.3	-46.3	12.0	7.56e-04	0	61	0	527433728	55	5959
2026-01-26 23:15:40.85	63.95	46.29	-42.1	-45.9	12.4	2.43e-04	0	61	0	529530880	55	5713
2026-01-26 23:15:41.85	64.41	46.48	-42.0	-45.7	12.7	7.40e-05	0	61	0	531628032	55	5551
2026-01-26 23:15:42.87	64.89	46.66	-42.0	-45.7	12.7	5.79e-05	0	61	0	533725184	55	5544
2026-01-26 23:15:43.87	65.36	46.84	-41.9	-45.5	12.9	4.42e-05	0	61	0	535822336	55	5423
2026-01-26 23:15:44.88	65.84	47.02	-41.7	-45.0	13.4	2.74e-05	0	61	0	536870912	55	5130
2026-01-26 23:15:45.89	66.33	47.20	-41.4	-44.5	13.8	2.20e-06	0	61	0	538968064	54	5131
2026-01-26 23:15:46.90	66.82	47.38	-41.4	-44.5	13.8	2.20e-06	0	61	0	541065216	54	5136
2026-01-26 23:15:47.91	67.32	47.55	-41.4	-44.5	13.8	2.20e-06	0	61	0	543162368	54	5145
2026-01-26 23:15:48.92	67.82	47.72	-41.4	-44.5	13.8	3.80e-06	0	61	0	545259520	54	5145
2026-01-26 23:15:49.93	68.33	47.90	-41.6	-44.9	13.6	2.20e-06	0	61	0	546308096	54	5346
2026-01-26 23:15:50.94	68.84	48.07	-41.6	-44.9	13.5	5.30e-06	0	61	0	548405248	54	5346
2026-01-26 23:15:51.95	69.36	48.24	-41.7	-45.0	13.4	1.22e-05	0	61	0	550502400	54	5416
2026-01-26 23:15:52.96	69.89	48.40	-41.9	-45.4	13.0	2.59e-05	0	61	0	552599552	54	5667
2026-01-26 23:15:53.97	70.42	48.57	-41.9	-45.3	13.1	2.36e-05	0	61	0	554696704	54	5649
2026-01-26 23:15:54.98	70.96	48.73	-41.8	-45.2	13.1	3.58e-05	0	61	0	555745280	54	5572
2026-01-26 23:15:55.99	71.50	48.89	-41.8	-45.2	13.1	1.22e-05	0	62	0	557842432	54	5583
2026-01-26 23:15:57.00	72.05	49.05	-41.9	-45.3	13.1	1.37e-05	0	61	0	559939584	54	5639
2026-01-26 23:15:58.01	72.60	49.21	-42.1	-45.8	12.7	4.50e-05	0	61	0	562036736	54	5924
2026-01-26 23:15:59.02	73.16	49.36	-42.2	-46.1	12.3	1.01e-04	0	62	0	564133888	55	5805
2026-01-26 23:16:00.03	73.73	49.51	-42.0	-45.6	12.8	6.56e-05	0	61	0	565182464	55	5473
2026-01-26 23:16:01.04	74.30	49.66	-41.8	-45.3	13.1	5.87e-05	0	61	0	567279616	55	5308
2026-01-26 23:16:02.05	74.87	49.81	-42.1	-45.9	12.5	6.40e-05	0	61	0	569376768	55	5690
2026-01-26 23:16:03.06	75.46	49.95	-42.4	-46.3	12.0	3.03e-04	0	61	0	571473920	55	5990
2026-01-26 23:16:04.07	76.04	50.09	-42.6	-46.7	11.6	5.15e-04	0	62	0	573571072	55	6271
2026-01-26 23:16:05.08	76.64	50.23	-42.3	-46.2	12.1	3.31e-04	0	61	0	574619648	55	5896
2026-01-26 23:16:06.09	77.23	50.37	-42.4	-46.4	11.8	3.52e-04	0	62	0	576716800	55	6060
2026-01-26 23:16:07.11	77.84	50.50	-42.6	-46.8	11.6	4.37e-04	0	61	0	578813952	55	6312
2026-01-26 23:16:08.12	78.45	50.63	-42.4	-46.4	12.0	3.89e-04	0	62	0	580911104	55	5996
2026-01-26 23:16:09.13	79.07	50.76	-42.2	-45.9	12.4	2.45e-04	0	61	0	583008256	55	5707
2026-01-26 23:16:10.14	79.68	50.89	-42.6	-46.9	11.4	2.34e-04	0	62	0	584056832	55	6412
2026-01-26 23:16:11.15	80.31	51.01	-42.8	-47.3	11.2	2.02e-03	0	61	0	586153984	56	6284
2026-01-26 23:16:12.16	80.94	51.12	-42.9	-47.3	11.1	3.01e-03	0	62	0	588251136	56	6339
2026-01-26 23:16:13.17	81.57	51.24	-42.7	-46.8	11.7	1.40e-03	0	61	0	590348288	56	5980
2026-01-26 23:16:14.17	82.20	51.35	-42.7	-46.9	11.7	6.92e-04	0	61	0	592445440	56	5997
2026-01-26 23:16:15.19	82.85	51.46	-42.4	-46.2	12.3	2.33e-04	0	62	0	593494016	56	5585
2026-01-26 23:16:16.20	83.50	51.56	-42.3	-46.0	12.6	1.65e-04	0	61	0	595591168	56	5425
2026-01-26 23:16:17.21	84.15	51.66	-41.6	-44.8	13.6	1.52e-05	0	61	0	597688320	55	5006
2026-01-26 23:16:18.22	84.81	51.76	-41.7	-45.0	13.5	1.67e-05	0	61	0	599785472	55	5147
2026-01-26 23:16:19.23	85.47	51.85	-41.8	-45.2	13.3	2.13e-05	0	61	0	601882624	55	5224
2026-01-26 23:16:20.24	86.14	51.94	-41.4	-44.5	13.8	9.90e-06	0	62	0	603979776	54	5140
2026-01-26 23:16:21.24	86.80	52.03	-41.1	-44.1	14.4	0.00e+00	0	62	0	605028352	54	4876
2026-01-26 23:16:22.25	87.47	52.11	-41.4	-44.6	13.9	1.50e-06	0	62	0	607125504	54	5161
2026-01-26 23:16:23.26	88.15	52.19	-41.6	-44.9	13.6	8.30e-06	0	61	0	609222656	54	5373
2026-01-26 23:16:24.27	88.83	52.26	-41.9	-45.4	13.0	2.21e-05	0	62	0	611319808	54	5677
2026-01-26 23:16:25.29	89.52	52.33	-42.0	-45.6	12.8	3.28e-05	0	62	0	613416960	54	5832
2026-01-26 23:16:26.29	90.19	52.40	-42.2	-46.1	12.4	9.46e-05	0	61	0	614465536	55	5816
2026-01-26 23:16:27.30	90.88	52.46	-42.3	-46.2	12.1	3.34e-04	0	62	0	616562688	55	5900
2026-01-26 23:16:28.31	91.58	52.52	-42.1	-45.8	12.5	2.70e-04	0	62	0	618659840	55	5634
2026-01-26 23:16:29.32	92.27	52.57	-41.6	-44.9	13.4	3.58e-05	0	61	0	620756992	55	5047
2026-01-26 23:16:30.33	92.97	52.62	-41.7	-45.0	13.4	7.60e-06	0	61	0	622854144	54	5427
2026-01-26 23:16:31.34	93.67	52.67	-42.0	-45.7	12.7	2.97e-05	0	62	0	623902720	54	5871
2026-01-26 23:16:32.35	94.37	52.71	-42.3	-46.2	12.1	1.94e-04	0	62	0	625999872	55	5881
2026-01-26 23:16:33.36	95.07	52.74	-42.2	-46.1	12.2	3.29e-04	0	62	0	628097024	55	5837
2026-01-26 23:16:34.37	95.78	52.78	-42.1	-45.8	12.6	9.53e-05	0	62	0	630194176	55	5652
2026-01-26 23:16:35.38	96.48	52.80	-42.4	-46.4	11.8	2.43e-04	0	62	0	632291328	55	6057
2026-01-26 23:16:36.39	97.19	52.83	-42.5	-46.7	11.6	6.98e-04	0	62	0	633339904	55	6254
2026-01-26 23:16:37.40	97.90	52.85	-42.3	-46.3	12.0	9.41e-04	0	62	0	635437056	55	5951
2026-01-26 23:16:38.41	98.61	52.86	-42.3	-46.1	12.2	3.48e-04	0	62	0	637534208	55	5835
2026-01-26 23:16:39.42	99.32	52.87	-42.3	-46.1	12.1	3.38e-04	0	61	0	639631360	55	5835
2026-01-26 23:16:40.43	100.03	52.88	-42.1	-45.7	12.6	1.83e-04	0	62	0	641728512	55	5592
2026-01-26 23:16:41.44	100.74	52.88	-41.8	-45.2	13.2	3.89e-05	0	62	0	642777088	55	5238
2026-01-26 23:16:42.46	101.46	52.88	-42.1	-45.8	12.5	3.66e-05	0	62	0	644874240	55	5654
2026-01-26 23:16:43.47	102.17	52.87	-42.5	-46.6	11.7	5.01e-04	0	62	0	646971392	55	6201
2026-01-26 23:16:44.48	102.88	52.86	-42.8	-47.1	11.6	1.33e-03	0	61	0	649068544	56	6157
2026-01-26 23:16:45.49	103.59	52.84	-42.4	-46.2	12.4	3.52e-04	0	62	0	651165696	56	5560
2026-01-26 23:16:46.50	104.30	52.82	-42.2	-45.9	12.6	9.99e-05	0	61	0	652214272	56	5349
2026-01-26 23:16:47.51	105.00	52.79	-42.3	-46.1	12.5	1.70e-04	0	62	0	654311424	56	5503
2026-01-26 23:16:48.52	105.71	52.77	-41.6	-44.8	13.5	4.42e-05	0	62	0	656408576	55	5036
2026-01-26 23:16:49.53	106.41	52.73	-41.1	-44.0	14.3	2.20e-06	0	61	0	658505728	54	4857
2026-01-26 23:16:50.54	107.12	52.69	-41.4	-44.5	13.9	2.20e-06	0	62	0	660602880	54	5154
2026-01-26 23:16:51.55	107.82	52.65	-41.6	-45.0	13.4	1.14e-05	0	62	0	662700032	54	5404
2026-01-26 23:16:52.56	108.52	52.60	-41.3	-44.4	14.0	1.22e-05	0	62	0	663748608	54	5058
2026-01-26 23:16:53.57	109.21	52.55	-40.8	-43.6	14.8	0.00e+00	0	62	0	665845760	53	4907
2026-01-26 23:16:54.58	109.91	52.50	-40.1	-42.6	15.7	0.00e+00	0	61	0	667942912	52	4611
2026-01-26 23:16:55.59	110.60	52.44	-40.1	-42.5	15.8	0.00e+00	0	62	0	670040064	52	4588
2026-01-26 23:16:56.60	111.29	52.37	-40.7	-43.5	14.9	0.00e+00	0	61	0	672137216	52	5110
2026-01-26 23:16:57.61	111.97	52.31	-41.4	-44.6	13.9	1.50e-06	0	61	0	673185792	53	5483
2026-01-26 23:16:58.62	112.66	52.23	-41.4	-44.6	13.8	9.90e-06	0	62	0	675282944	53	5483
2026-01-26 23:16:59.63	113.33	52.16	-41.6	-44.9	13.5	6.80e-06	0	62	0	677380096	53	5707
2026-01-26 23:17:00.64	114.01	52.08	-41.8	-45.2	13.2	2.82e-05	0	61	0	679477248	54	5574
2026-01-26 23:17:01.65	114.68	52.00	-42.2	-46.0	12.3	6.02e-05	0	61	0	681574400	54	6122
2026-01-26 23:17:02.66	115.35	51.91	-42.1	-45.8	12.5	2.17e-04	0	62	0	682622976	55	5655
2026-01-26 23:17:03.67	116.01	51.82	-42.4	-46.5	11.9	1.65e-04	0	62	0	684720128	55	6080
2026-01-26 23:17:04.68	116.67	51.72	-42.1	-45.8	12.5	1.23e-04	0	61	0	686817280	55	5641
2026-01-26 23:17:05.69	117.33	51.62	-41.9	-45.5	13.0	1.07e-04	0	62	0	688914432	55	5404
2026-01-26 23:17:06.70	117.98	51.52	-41.7	-45.1	13.3	1.75e-05	0	62	0	691011584	55	5162
2026-01-26 23:17:07.71	118.63	51.42	-41.4	-44.6	13.8	5.30e-06	0	61	0	692060160	54	5179
2026-01-26 23:17:08.72	119.27	51.31	-41.3	-44.3	14.1	1.50e-06	0	62	0	694157312	54	5007
2026-01-26 23:17:09.73	119.91	51.19	-40.7	-43.4	15.0	0.00e+00	0	62	0	696254464	53	4784
2026-01-26 23:17:10.74	120.54	51.08	-40.7	-43.5	15.0	0.00e+00	0	62	0	698351616	53	4823
2026-01-26 23:17:11.75	121.17	50.96	-41.5	-44.7	13.7	0.00e+00	0	62	0	700448768	53	5570
2026-01-26 23:17:12.76	121.79	50.84	-42.1	-45.8	12.6	4.95e-05	0	62	0	701497344	54	5949
2026-01-26 23:17:13.77	122.41	50.71	-42.2	-46.0	12.3	1.40e-04	0	62	0	703594496	55	5781
2026-01-26 23:17:14.78	123.02	50.58	-42.1	-45.8	12.5	1.69e-04	0	62	0	705691648	55	5649
2026-01-26 23:17:15.79	123.63	50.45	-41.7	-45.1	13.3	2.67e-05	0	62	0	707788800	55	5195
2026-01-26 23:17:16.80	124.23	50.32	-41.4	-44.5	13.9	9.90e-06	0	62	0	709885952	54	5134
2026-01-26 23:17:17.81	124.83	50.18	-41.5	-44.7	13.6	4.50e-06	0	62	0	711983104	54	5265
2026-01-26 23:17:18.82	125.42	50.04	-41.3	-44.4	14.0	2.20e-06	0	62	0	713031680	54	5074
2026-01-26 23:17:19.83	126.01	49.90	-41.5	-44.7	13.7	8.30e-06	0	62	0	715128832	54	5269
2026-01-26 23:17:20.84	126.59	49.75	-41.7	-45.1	13.4	1.52e-05	0	61	0	717225984	54	5470
2026-01-26 23:17:21.85	127.16	49.60	-41.8	-45.2	13.2	3.43e-05	0	62	0	719323136	54	5550
2026-01-26 23:17:22.86	127.73	49.45	-42.1	-45.8	12.5	6.56e-05	0	62	0	721420288	54	5952
2026-01-26 23:17:23.87	128.30	49.30	-42.2	-46.0	12.3	1.62e-04	0	62	0	722468864	55	5749
2026-01-26 23:17:24.88	128.86	49.14	-41.9	-45.4	13.0	1.62e-04	0	62	0	724566016	55	5399
2026-01-26 23:17:25.89	129.41	48.98	-41.2	-44.1	14.3	2.20e-06	0	62	0	726663168	54	4894
2026-01-26 23:17:26.89	129.95	48.83	-40.9	-43.8	14.6	0.00e+00	0	61	0	728760320	53	5006
2026-01-26 23:17:27.90	130.49	48.66	-41.8	-45.3	13.1	1.50e-06	0	62	0	730857472	54	5596
2026-01-26 23:17:28.92	131.03	48.50	-42.6	-47.0	11.3	4.31e-04	0	62	0	731906048	55	6440
2026-01-26 23:17:29.92	131.56	48.33	-42.8	-47.2	11.3	1.15e-03	0	62	0	734003200	56	6242
2026-01-26 23:17:30.93	132.08	48.17	-42.7	-46.9	11.6	7.77e-04	0	62	0	736100352	56	6019
2026-01-26 23:17:31.94	132.60	48.00	-42.9	-47.3	11.1	1.25e-03	0	62	0	738197504	56	6342
2026-01-26 23:17:32.95	133.12	47.82	-43.2	-48.0	10.5	2.46e-03	0	62	0	740294656	56	6826
2026-01-26 23:17:33.96	133.62	47.65	-43.4	-48.5	9.9	5.33e-03	0	62	0	741343232	57	6877
2026-01-26 23:17:34.97	134.13	47.48	-43.5	-49.0	9.4	9.61e-03	0	62	0	743440384	57	7218
2026-01-26 23:17:35.98	134.62	47.30	-43.8	-49.7	8.7	3.81e-02	0	62	0	745537536	58	7438
2026-01-26 23:17:36.99	135.11	47.12	-43.7	-49.5	8.8	3.95e-02	0	62	0	747634688	58	7255
2026-01-26 23:17:38.00	135.60	46.94	-43.7	-49.5	8.9	2.78e-02	0	62	0	749731840	58	7246
2026-01-26 23:17:39.01	136.08	46.76	-43.7	-49.4	8.8	3.46e-02	0	62	0	750780416	58	7194
2026-01-26 23:17:40.02	136.55	46.58	-44.0	-50.5	7.9	5.31e-02	0	62	0	752877568	58	8149
2026-01-26 23:17:41.03	137.02	46.39	-43.7	-49.3	9.1	4.65e-02	0	62	0	754974720	58	7115
2026-01-26 23:17:42.04	137.49	46.21	-42.8	-47.1	11.3	3.09e-03	0	62	0	757071872	57	5809
2026-01-26 23:17:43.05	137.95	46.02	-43.2	-47.9	10.5	2.24e-03	0	62	0	759169024	57	6414
2026-01-26 23:17:44.06	138.40	45.84	-43.6	-49.2	9.2	9.03e-03	0	62	0	760217600	57	7428
2026-01-26 23:17:45.07	138.85	45.65	-44.0	-50.4	8.1	5.75e-02	0	62	0	762314752	58	8005
2026-01-26 23:17:46.08	139.29	45.46	-44.3	-51.7	6.7	1.77e-01	0	62	0	764411904	59	8833
2026-01-26 23:17:47.09	139.73	45.27	-44.2	-51.2	7.1	1.78e-01	0	62	0	766509056	59	8276
2026-01-26 23:17:48.10	140.16	45.08	-44.0	-50.4	8.0	1.24e-01	0	62	0	768606208	59	7606
2026-01-26 23:17:49.11	140.59	44.89	-43.9	-49.9	8.5	6.34e-02	0	62	0	769654784	59	7164
2026-01-26 23:17:50.12	141.01	44.69	-44.2	-51.4	6.9	1.23e-01	0	62	0	771751936	59	8533
2026-01-26 23:17:51.12	141.42	44.50	-44.5	-52.9	5.8	2.78e-01	0	62	0	773849088	59	10157
2026-01-26 23:17:52.13	141.83	44.31	-44.5	-52.8	5.9	4.02e-01	0	62	0	775946240	59	9999
2026-01-26 23:17:53.15	142.24	44.11	-44.6	-53.2	5.6	3.10e-01	0	62	0	778043392	59	10505
2026-01-26 23:17:54.16	142.65	43.92	-44.6	-53.7	5.2	5.11e-01	0	61	0	780140544	59	11031
2026-01-26 23:17:55.17	143.04	43.72	-44.7	-55.2	4.6	8.39e-01	0	62	0	781189120	60	12393
2026-01-26 23:17:56.18	143.44	43.52	-45.0	-58.0	3.8	1.48e+00	0	62	104	782237696	60	17237
2026-01-26 23:17:57.19	143.82	43.33	-45.1	-59.6	3.8	1.42e+00	0	62	104	782237696	60	20747
2026-01-26 23:17:58.20	144.21	43.13	-44.9	-57.4	3.9	1.49e+00	0	62	104	782237696	60	16014
2026-01-26 23:17:59.21	144.58	42.93	-44.6	-54.1	5.0	3.00e-01	0	62	0	783286272	60	11009
2026-01-26 23:18:00.22	144.96	42.74	-44.0	-50.6	7.6	1.68e-01	0	62	0	785383424	59	7783
2026-01-26 23:18:01.23	145.33	42.54	-44.3	-52.2	6.3	1.53e-01	0	62	0	786432000	59	9342
2026-01-26 23:18:02.24	145.69	42.34	-44.7	-54.4	4.9	5.66e-01	0	62	0	788529152	59	11982
2026-01-26 23:18:03.25	146.05	42.14	-44.6	-54.0	5.1	8.27e-01	0	62	0	790626304	60	10863
2026-01-26 23:18:04.26	146.41	41.94	-44.3	-52.6	6.1	4.20e-01	0	62	0	792723456	60	9184
2026-01-26 23:18:05.27	146.76	41.74	-44.0	-50.6	7.7	1.05e-01	0	62	0	794820608	59	7753
2026-01-26 23:18:06.28	147.11	41.55	-44.4	-52.3	6.0	4.62e-01	0	62	0	795869184	59	9466
2026-01-26 23:18:07.29	147.45	41.35	-44.6	-54.2	4.9	2.28e-01	0	62	0	797966336	60	11132
2026-01-26 23:18:08.30	147.79	41.15	-44.9	-57.8	3.8	1.46e+00	0	62	104	799014912	60	16751
2026-01-26 23:18:09.31	148.13	40.95	-44.6	-54.3	4.8	1.48e+00	0	62	0	799014912	60	11211
2026-01-26 23:18:10.32	148.46	40.75	-44.9	-58.4	3.9	1.11e+00	0	62	104	799014912	60	17891
2026-01-26 23:18:11.33	148.79	40.55	-43.1	-47.8	10.5	1.05e-02	0	62	0	799014912	58	5950
2026-01-26 23:18:12.34	149.11	40.35	-42.4	-46.3	12.1	3.56e-04	0	62	0	801112064	56	5637
2026-01-26 23:18:13.35	149.43	40.15	-42.7	-47.0	11.3	4.36e-04	0	62	0	803209216	56	6090
2026-01-26 23:18:14.36	149.74	39.96	-43.4	-48.7	9.5	7.22e-03	0	62	0	805306368	57	7000
2026-01-26 23:18:15.37	150.06	39.76	-43.9	-50.6	7.7	5.60e-02	0	62	0	807403520	58	8188
2026-01-26 23:18:16.38	150.36	39.56	-44.1	-51.4	7.0	1.88e-01	0	62	0	808452096	59	8503
2026-01-26 23:18:17.39	150.67	39.36	-43.5	-49.2	9.0	4.22e-02	0	62	0	810549248	59	6587
2026-01-26 23:18:18.40	150.97	39.16	-42.7	-46.9	11.4	1.79e-03	0	62	0	812646400	57	5718
2026-01-26 23:18:19.41	151.27	38.97	-42.9	-47.3	11.0	8.83e-04	0	62	0	814743552	57	5966
2026-01-26 23:18:20.42	151.56	38.77	-43.2	-48.3	10.1	5.34e-03	0	62	0	816840704	57	6650
2026-01-26 23:18:21.43	151.85	38.57	-43.5	-49.2	9.1	2.26e-02	0	62	0	818937856	57	7417
2026-01-26 23:18:22.43	152.13	38.38	-43.7	-49.6	8.6	3.84e-02	0	62	0	819986432	58	7306
2026-01-26 23:18:23.44	152.42	38.18	-43.5	-48.9	9.5	3.02e-02	0	62	0	822083584	58	6786
2026-01-26 23:18:24.45	152.70	37.99	-43.3	-48.4	9.8	6.99e-03	0	62	0	824180736	58	6355
2026-01-26 23:18:25.46	152.98	37.79	-42.8	-47.2	11.1	3.41e-03	0	62	0	826277888	57	5923
2026-01-26 23:18:26.47	153.25	37.60	-42.3	-46.3	12.0	1.01e-03	0	62	0	828375040	56	5608
2026-01-26 23:18:27.48	153.52	37.40	-42.1	-45.8	12.6	1.82e-04	0	62	0	829423616	56	5292
2026-01-26 23:18:28.49	153.79	37.21	-42.0	-45.7	12.7	8.46e-05	0	62	0	831520768	56	5227
2026-01-26 23:18:29.50	154.05	37.02	-42.1	-45.8	12.4	8.54e-05	0	62	0	833617920	55	5637
2026-01-26 23:18:30.51	154.31	36.82	-42.5	-46.7	11.5	5.66e-04	0	62	0	835715072	55	6210
2026-01-26 23:18:31.52	154.57	36.63	-42.4	-46.6	11.6	7.33e-04	0	62	0	837812224	55	6132
2026-01-26 23:18:32.53	154.83	36.44	-42.4	-46.6	11.6	7.27e-04	0	62	0	838860800	55	6144
2026-01-26 23:18:33.54	155.08	36.25	-42.1	-45.9	12.2	6.45e-04	0	62	0	840957952	55	5696
2026-01-26 23:18:34.55	155.33	36.06	-41.7	-45.1	13.0	6.56e-05	0	62	0	843055104	55	5213
2026-01-26 23:18:35.56	155.57	35.87	-41.6	-44.9	13.3	9.90e-06	0	62	0	845152256	54	5384
2026-01-26 23:18:36.57	155.82	35.68	-41.8	-45.4	12.8	1.29e-05	0	62	0	847249408	54	5661
2026-01-26 23:18:37.58	156.06	35.49	-42.0	-45.8	12.4	1.48e-04	0	62	0	848297984	54	5929
2026-01-26 23:18:38.59	156.30	35.30	-42.5	-46.8	11.3	5.84e-04	0	62	0	850395136	55	6308
2026-01-26 23:18:39.60	156.53	35.11	-43.1	-48.1	10.1	2.27e-03	0	62	0	852492288	56	6946
2026-01-26 23:18:40.61	156.76	34.92	-43.3	-48.7	9.5	1.11e-02	0	62	0	854589440	57	6989
2026-01-26 23:18:41.62	156.99	34.74	-43.4	-48.8	9.4	1.40e-02	0	62	0	856686592	57	7043
2026-01-26 23:18:42.63	157.22	34.55	-43.3	-48.6	9.5	1.51e-02	0	62	0	857735168	57	6929
2026-01-26 23:18:43.64	157.45	34.36	-43.0	-47.8	10.3	6.33e-03	0	62	0	859832320	57	6331
2026-01-26 23:18:44.65	157.67	34.18	-42.8	-47.4	10.7	5.29e-03	0	62	0	861929472	57	6054
2026-01-26 23:18:45.66	157.89	33.99	-42.7	-47.2	11.1	1.62e-03	0	62	0	864026624	57	5880
2026-01-26 23:18:46.67	158.11	33.81	-42.4	-46.5	11.8	6.32e-04	0	62	0	866123776	56	5762
2026-01-26 23:18:47.68	158.32	33.63	-42.4	-46.5	11.9	4.34e-04	0	62	0	867172352	56	5733
2026-01-26 23:18:48.69	158.54	33.44	-42.6	-46.9	11.3	8.57e-04	0	62	0	869269504	56	6033
2026-01-26 23:18:49.70	158.75	33.26	-42.9	-47.5	10.7	2.07e-03	0	62	0	871366656	56	6478
2026-01-26 23:18:50.71	158.96	33.08	-43.1	-48.0	10.1	6.73e-03	0	62	0	873463808	56	6852
2026-01-26 23:18:51.72	159.16	32.90	-43.2	-48.5	9.6	1.08e-02	0	61	0	875560960	57	6812
2026-01-26 23:18:52.73	159.37	32.72	-43.3	-48.7	9.5	1.37e-02	0	62	0	876609536	57	6964
2026-01-26 23:18:53.74	159.57	32.54	-43.0	-48.0	10.1	8.24e-03	0	62	0	878706688	57	6468
2026-01-26 23:18:54.75	159.77	32.36	-42.6	-46.9	11.2	2.64e-03	0	62	0	880803840	57	5706
2026-01-26 23:18:55.76	159.96	32.19	-42.4	-46.6	11.7	1.11e-03	0	62	0	882900992	56	5801
2026-01-26 23:18:56.77	160.16	32.01	-42.4	-46.4	11.8	4.21e-04	0	62	0	884998144	56	5690
2026-01-26 23:18:57.78	160.35	31.83	-42.5	-46.7	11.5	7.59e-04	0	62	0	887095296	56	5881
2026-01-26 23:18:58.79	160.54	31.66	-42.6	-46.9	11.3	1.24e-03	0	62	0	888143872	56	5996
2026-01-26 23:18:59.80	160.73	31.48	-42.7	-47.1	11.0	1.40e-03	0	62	0	890241024	56	6197
2026-01-26 23:19:00.81	160.92	31.31	-42.7	-47.1	10.9	2.52e-03	0	62	0	892338176	56	6185
2026-01-26 23:19:01.82	161.11	31.13	-42.5	-46.7	11.4	1.58e-03	0	62	0	894435328	56	5885
2026-01-26 23:19:02.83	161.29	30.96	-42.6	-47.0	11.2	1.46e-03	0	62	0	896532480	56	6073
2026-01-26 23:19:03.84	161.47	30.79	-42.7	-47.1	11.1	1.49e-03	0	62	0	897581056	56	6149
2026-01-26 23:19:04.85	161.65	30.62	-42.7	-47.1	11.0	1.35e-03	0	62	0	899678208	56	6198
2026-01-26 23:19:05.86	161.83	30.45	-42.9	-47.7	10.3	4.38e-03	0	62	0	901775360	56	6628
2026-01-26 23:19:06.87	162.00	30.28	-42.9	-47.7	10.4	3.82e-03	0	62	0	903872512	56	6578
2026-01-26 23:19:07.87	162.18	30.11	-43.1	-48.4	9.7	8.20e-03	0	62	0	905969664	56	7142
2026-01-26 23:19:08.88	162.35	29.94	-43.2	-48.5	9.5	1.58e-02	0	62	0	907018240	57	6822
2026-01-26 23:19:09.89	162.52	29.77	-43.4	-49.3	8.8	3.60e-02	0	62	0	909115392	57	7478
2026-01-26 23:19:10.90	162.69	29.61	-43.4	-49.2	8.8	3.99e-02	0	62	0	911212544	57	7410
2026-01-26 23:19:11.91	162.86	29.44	-43.3	-49.0	9.0	2.42e-02	0	62	0	913309696	57	7226
2026-01-26 23:19:12.92	163.02	29.27	-43.0	-48.1	9.9	1.29e-02	0	62	0	915406848	57	6513
2026-01-26 23:19:13.93	163.19	29.11	-42.6	-47.0	11.1	2.76e-03	0	62	0	916455424	57	5743
2026-01-26 23:19:14.94	163.35	28.95	-42.6	-47.0	11.1	1.57e-03	0	62	0	918552576	57	5747
2026-01-26 23:19:15.95	163.51	28.78	-41.7	-45.4	12.6	2.54e-04	0	62	0	920649728	55	5350
2026-01-26 23:19:16.95	163.67	28.62	-41.5	-45.0	13.0	4.73e-05	0	62	0	922746880	54	5423
2026-01-26 23:19:17.97	163.83	28.46	-41.7	-45.4	12.6	7.85e-05	0	62	0	924844032	54	5661
2026-01-26 23:19:18.98	163.98	28.30	-41.7	-45.3	12.7	5.95e-05	0	62	0	925892608	54	5613
2026-01-26 23:19:19.99	164.14	28.14	-41.9	-45.8	12.2	1.45e-04	0	62	0	927989760	54	5926
2026-01-26 23:19:21.00	164.29	27.98	-41.6	-45.3	12.7	1.87e-04	0	62	0	930086912	54	5609
2026-01-26 23:19:22.01	164.44	27.82	-41.6	-45.2	12.8	6.63e-05	0	62	0	932184064	54	5584
2026-01-26 23:19:23.02	164.59	27.66	-41.7	-45.4	12.6	6.40e-05	0	62	0	934281216	54	5682
2026-01-26 23:19:24.03	164.74	27.50	-41.6	-45.2	12.7	5.79e-05	0	62	0	935329792	54	5567
2026-01-26 23:19:25.04	164.89	27.34	-41.7	-45.3	12.7	5.34e-05	0	62	0	937426944	54	5594
2026-01-26 23:19:26.04	165.03	27.19	-41.6	-45.1	12.9	1.14e-04	0	62	0	939524096	54	5505
2026-01-26 23:19:27.05	165.18	27.03	-41.7	-45.4	12.7	5.87e-05	0	62	0	941621248	54	5671
2026-01-26 23:19:28.06	165.32	26.88	-41.7	-45.3	12.6	7.93e-05	0	62	0	943718400	54	5647
2026-01-26 23:19:29.07	165.46	26.72	-41.9	-45.7	12.3	1.41e-04	0	62	0	944766976	54	5885
2026-01-26 23:19:30.08	165.60	26.57	-42.1	-46.1	11.9	2.70e-04	0	62	0	946864128	54	6139
2026-01-26 23:19:31.09	165.74	26.42	-42.1	-46.3	11.6	4.11e-04	0	62	0	948961280	54	6289
2026-01-26 23:19:32.10	165.88	26.26	-42.2	-46.4	11.6	9.41e-04	0	62	0	951058432	55	6005
2026-01-26 23:19:33.11	166.01	26.11	-42.2	-46.4	11.5	9.70e-04	0	62	0	953155584	55	6001
2026-01-26 23:19:34.12	166.15	25.96	-42.5	-47.0	10.8	1.71e-03	0	62	0	955252736	55	6452
2026-01-26 23:19:35.13	166.28	25.81	-42.9	-47.8	10.2	3.06e-03	0	62	0	956301312	56	6680
2026-01-26 23:19:36.14	166.42	25.66	-43.0	-48.0	10.0	5.59e-03	0	62	0	958398464	56	6821
2026-01-26 23:19:37.15	166.55	25.51	-42.9	-47.9	10.1	6.52e-03	0	62	0	960495616	56	6758
2026-01-26 23:19:38.16	166.68	25.37	-43.0	-48.1	9.8	8.82e-03	0	62	0	962592768	56	6887
2026-01-26 23:19:39.17	166.81	25.22	-42.9	-47.9	10.1	8.93e-03	0	62	0	964689920	56	6757
2026-01-26 23:19:40.18	166.94	25.07	-43.1	-48.3	9.6	1.13e-02	0	62	0	965738496	56	7115
2026-01-26 23:19:41.19	167.06	24.93	-42.9	-47.8	10.2	9.77e-03	0	62	0	967835648	56	6710
2026-01-26 23:19:42.20	167.19	24.78	-42.7	-47.4	10.6	3.68e-03	0	62	0	969932800	56	6378
2026-01-26 23:19:43.21	167.31	24.63	-42.6	-47.0	11.0	3.11e-03	0	62	0	972029952	56	6124
2026-01-26 23:19:44.22	167.44	24.49	-42.3	-46.4	11.7	1.24e-03	0	62	0	974127104	56	5680
2026-01-26 23:19:45.23	167.56	24.35	-42.2	-46.1	11.9	4.32e-04	0	62	0	975175680	56	5519
2026-01-26 23:19:46.24	167.68	24.20	-42.1	-45.9	12.2	4.08e-04	0	62	0	977272832	56	5354
2026-01-26 23:19:47.24	167.80	24.06	-41.6	-45.2	12.8	1.03e-04	0	62	0	979369984	55	5226
2026-01-26 23:19:48.25	167.92	23.92	-41.7	-45.4	12.5	1.46e-04	0	62	0	981467136	55	5351
2026-01-26 23:19:49.26	168.04	23.78	-41.7	-45.3	12.5	1.13e-04	0	62	0	983564288	55	5328
2026-01-26 23:19:50.28	168.16	23.64	-42.0	-46.0	11.9	1.22e-04	0	62	0	984612864	55	5727
2026-01-26 23:19:51.28	168.27	23.50	-42.1	-46.3	11.6	4.59e-04	0	62	0	986710016	55	5948
2026-01-26 23:19:52.29	168.39	23.36	-42.2	-46.5	11.4	1.02e-03	0	62	0	988807168	55	6099
2026-01-26 23:19:53.30	168.50	23.22	-42.5	-47.1	10.7	2.17e-03	0	62	0	990904320	55	6526
2026-01-26 23:19:54.31	168.61	23.09	-42.5	-47.3	10.6	3.66e-03	0	62	0	993001472	55	6658
2026-01-26 23:19:55.32	168.73	22.95	-42.5	-47.2	10.6	2.54e-03	0	62	0	994050048	55	6604
2026-01-26 23:19:56.34	168.84	22.81	-42.4	-47.0	10.8	3.34e-03	0	62	0	996147200	55	6431
2026-01-26 23:19:57.35	168.95	22.68	-42.3	-46.7	11.1	2.77e-03	0	62	0	998244352	55	6234
2026-01-26 23:19:58.36	169.06	22.54	-42.2	-46.6	11.2	1.57e-03	0	62	0	1000341504	55	6164
2026-01-26 23:19:59.37	169.17	22.41	-42.1	-46.2	11.6	8.94e-04	0	62	0	1002438656	55	5908
2026-01-26 23:20:00.37	169.27	22.27	-41.9	-45.9	11.9	5.19e-04	0	62	0	1003487232	55	5705
2026-01-26 23:20:01.39	169.38	22.14	-41.8	-45.6	12.1	2.84e-04	0	62	0	1005584384	55	5507
2026-01-26 23:20:02.40	169.49	22.01	-41.5	-45.1	12.6	1.29e-04	0	62	0	1007681536	55	5207
2026-01-26 23:20:03.41	169.59	21.87	-41.7	-45.4	12.4	8.31e-05	0	62	0	1009778688	54	5703
2026-01-26 23:20:04.42	169.70	21.74	-41.6	-45.3	12.5	1.27e-04	0	62	0	1011875840	54	5625
2026-01-26 23:20:05.43	169.80	21.61	-41.7	-45.4	12.4	1.67e-04	0	62	0	1012924416	54	5673
2026-01-26 23:20:06.44	169.90	21.48	-41.8	-45.6	12.2	1.94e-04	0	62	0	1015021568	54	5848
2026-01-26 23:20:07.45	170.00	21.35	-42.0	-46.0	11.8	3.75e-04	0	62	0	1017118720	54	6115
2026-01-26 23:20:08.46	170.11	21.22	-42.1	-46.3	11.5	6.17e-04	0	62	0	1019215872	54	6331
2026-01-26 23:20:09.47	170.21	21.09	-42.1	-46.2	11.4	8.22e-04	0	62	0	1021313024	54	6270
2026-01-26 23:20:10.48	170.30	20.96	-42.1	-46.2	11.5	8.06e-04	0	62	0	1023410176	54	6259
2026-01-26 23:20:11.49	170.40	20.84	-42.0	-46.0	11.8	6.38e-04	0	62	0	1024458752	54	6076
2026-01-26 23:20:12.50	170.50	20.71	-41.8	-45.6	12.2	2.78e-04	0	62	0	1026555904	54	5833
2026-01-26 23:20:13.51	170.60	20.58	-41.8	-45.6	12.2	2.35e-04	0	62	0	1028653056	54	5800
2026-01-26 23:20:14.52	170.69	20.46	-41.6	-45.3	12.5	1.58e-04	0	62	0	1030750208	54	5623
2026-01-26 23:20:15.53	170.79	20.33	-41.6	-45.2	12.6	9.76e-05	0	62	0	1032847360	54	5584
2026-01-26 23:20:16.54	170.88	20.21	-41.5	-45.0	12.7	9.23e-05	0	62	0	1033895936	54	5458
2026-01-26 23:20:17.55	170.98	20.08	-41.3	-44.8	13.0	3.96e-05	0	62	0	1035993088	54	5326
2026-01-26 23:20:18.56	171.07	19.96	-41.3	-44.8	13.0	3.05e-05	0	62	0	1038090240	54	5329
2026-01-26 23:20:19.57	171.16	19.84	-41.1	-44.5	13.3	2.36e-05	0	62	0	1040187392	54	5101
2026-01-26 23:20:20.58	171.26	19.71	-41.1	-44.4	13.3	1.22e-05	0	62	0	1042284544	54	5100
2026-01-26 23:20:21.59	171.35	19.59	-41.0	-44.2	13.6	9.90e-06	0	62	0	1043333120	54	4983
2026-01-26 23:20:22.60	171.44	19.47	-41.0	-44.2	13.6	5.30e-06	0	62	0	1045430272	54	4944
2026-01-26 23:20:23.61	171.53	19.35	-41.0	-44.2	13.5	1.44e-05	0	62	0	1047527424	53	5245
2026-01-26 23:20:24.62	171.62	19.23	-41.0	-44.2	13.5	1.37e-05	0	62	0	1049624576	53	5258
2026-01-26 23:20:25.63	171.70	19.11	-41.0	-44.3	13.5	1.22e-05	0	62	0	1051721728	53	5321
2026-01-26 23:20:26.64	171.79	18.99	-41.1	-44.5	13.2	1.67e-05	0	62	0	1052770304	53	5433
2026-01-26 23:20:27.65	171.88	18.87	-41.1	-44.4	13.3	2.51e-05	0	62	0	1054867456	53	5387
2026-01-26 23:20:28.66	171.97	18.75	-41.3	-44.7	13.0	2.67e-05	0	62	0	1056964608	53	5567
2026-01-26 23:20:29.67	172.05	18.63	-41.4	-45.0	12.7	4.80e-05	0	62	0	1059061760	53	5748
2026-01-26 23:20:30.68	172.14	18.52	-41.5	-45.2	12.5	7.70e-05	0	62	0	1061158912	53	5895
2026-01-26 23:20:31.69	172.22	18.40	-41.6	-45.3	12.4	1.38e-04	0	62	0	1063256064	53	5992
2026-01-26 23:20:32.70	172.31	18.28	-41.8	-45.8	11.9	3.14e-04	0	62	0	1064304640	54	5942
2026-01-26 23:20:33.72	172.39	18.17	-41.9	-46.0	11.7	5.21e-04	0	62	0	1066401792	54	6117
2026-01-26 23:20:34.73	172.47	18.05	-42.1	-46.5	11.2	7.70e-04	0	62	0	1068498944	54	6436
2026-01-26 23:20:35.74	172.55	17.94	-42.1	-46.4	11.2	1.07e-03	0	62	0	1070596096	54	6403
2026-01-26 23:20:36.75	172.64	17.82	-42.1	-46.5	11.1	1.43e-03	0	62	0	1072693248	54	6440
2026-01-26 23:20:37.76	172.72	17.71	-42.2	-46.6	11.0	1.85e-03	0	62	0	1073741824	55	6187
2026-01-26 23:20:38.77	172.80	17.59	-42.2	-46.7	10.9	1.96e-03	0	62	0	1075838976	55	6236
2026-01-26 23:20:39.78	172.88	17.48	-42.3	-46.9	10.8	2.44e-03	0	62	0	1077936128	55	6393
2026-01-26 23:20:40.79	172.96	17.37	-42.2	-46.6	11.0	2.27e-03	0	62	0	1080033280	55	6198
2026-01-26 23:20:41.80	173.03	17.26	-42.2	-46.7	11.0	2.39e-03	0	62	0	1082130432	55	6223
2026-01-26 23:20:42.81	173.11	17.14	-42.2	-46.6	11.0	1.96e-03	0	62	0	1083179008	55	6175
2026-01-26 23:20:43.82	173.19	17.03	-42.2	-46.6	11.0	1.54e-03	0	62	0	1085276160	55	6169
2026-01-26 23:20:44.83	173.27	16.92	-42.1	-46.6	11.1	1.72e-03	0	62	0	1087373312	55	6160
2026-01-26 23:20:45.84	173.34	16.81	-42.0	-46.3	11.3	1.56e-03	0	62	0	1089470464	55	5951
2026-01-26 23:20:46.85	173.42	16.70	-41.9	-46.2	11.4	9.07e-04	0	62	0	1091567616	55	5866
2026-01-26 23:20:47.86	173.49	16.59	-41.9	-46.1	11.5	6.83e-04	0	62	0	1092616192	55	5824
2026-01-26 23:20:48.87	173.57	16.48	-41.7	-45.7	11.9	4.28e-04	0	62	0	1094713344	55	5567
2026-01-26 23:20:49.88	173.64	16.37	-41.7	-45.6	12.0	3.47e-04	0	62	0	1096810496	55	5523
2026-01-26 23:20:50.89	173.72	16.27	-41.7	-45.5	12.1	3.34e-04	0	62	0	1098907648	55	5459
2026-01-26 23:20:51.90	173.79	16.16	-41.6	-45.5	12.1	2.45e-04	0	62	0	1101004800	55	5428
2026-01-26 23:20:52.91	173.86	16.05	-41.7	-45.6	12.1	2.57e-04	0	62	0	1102053376	55	5493
2026-01-26 23:20:53.92	173.94	15.95	-41.5	-45.3	12.3	1.88e-04	0	62	0	1104150528	55	5317
2026-01-26 23:20:54.93	174.01	15.84	-41.5	-45.2	12.4	1.62e-04	0	62	0	1106247680	54	5583
2026-01-26 23:20:55.94	174.08	15.73	-41.4	-45.1	12.5	1.28e-04	0	62	0	1108344832	54	5508
2026-01-26 23:20:56.95	174.15	15.63	-41.3	-44.9	12.7	7.70e-05	0	62	0	1110441984	54	5388
2026-01-26 23:20:57.96	174.22	15.52	-41.4	-45.0	12.6	7.47e-05	0	62	0	1111490560	54	5428
2026-01-26 23:20:58.97	174.29	15.42	-41.3	-44.8	12.9	7.47e-05	0	62	0	1113587712	54	5298
2026-01-26 23:20:59.98	174.36	15.31	-41.3	-44.9	12.7	5.87e-05	0	62	0	1115684864	54	5377
2026-01-26 23:21:00.99	174.43	15.21	-41.3	-44.9	12.7	7.32e-05	0	62	0	1117782016	54	5369
2026-01-26 23:21:02.00	174.50	15.11	-41.2	-44.8	12.8	7.40e-05	0	62	0	1119879168	54	5300
2026-01-26 23:21:03.01	174.57	15.00	-41.3	-44.9	12.7	1.05e-04	0	62	0	1120927744	54	5362
2026-01-26 23:21:04.02	174.63	14.90	-41.3	-44.9	12.7	7.70e-05	0	62	0	1123024896	54	5388
2026-01-26 23:21:05.03	174.70	14.80	-41.3	-44.8	12.8	6.25e-05	0	62	0	1125122048	54	5330
2026-01-26 23:21:06.04	174.77	14.70	-41.3	-44.8	12.8	7.09e-05	0	62	0	1127219200	54	5325
2026-01-26 23:21:07.05	174.83	14.59	-41.1	-44.6	13.0	6.02e-05	0	62	0	1129316352	54	5176
2026-01-26 23:21:08.06	174.90	14.49	-41.2	-44.8	12.8	5.34e-05	0	62	0	1131413504	54	5304
2026-01-26 23:21:09.07	174.96	14.39	-41.2	-44.8	12.8	5.41e-05	0	62	0	1132462080	54	5301
2026-01-26 23:21:10.08	175.03	14.29	-41.3	-44.9	12.7	5.56e-05	0	62	0	1134559232	54	5367
2026-01-26 23:21:11.09	175.09	14.19	-41.2	-44.8	12.8	6.48e-05	0	62	0	1136656384	54	5315
2026-01-26 23:21:12.10	175.16	14.09	-41.2	-44.8	12.7	7.70e-05	0	62	0	1138753536	54	5332
2026-01-26 23:21:13.11	175.22	13.99	-41.3	-44.9	12.6	7.70e-05	0	62	0	1140850688	54	5383
2026-01-26 23:21:14.12	175.29	13.90	-41.4	-45.2	12.4	1.01e-04	0	62	0	1141899264	54	5552
