passes_logs/2026/01/26/R2.0S_Moscow/R2.0S_Moscow__20260126_102935_NOAA_21_JPSS-2_rec.log

#Pass ID: 20260126_102935_NOAA 21 (JPSS-2)
#Satellite: NOAA 21 (JPSS-2)
#Configuration: NOAA-21
#almurnet v.1.7.20251203
#Start time: 2026-01-26 10:30:18

#Version: 2.2.20231116
#Station: R2.0S_Moscow
#Location: 37.707566 lon 55.798166 lat
#TLE: 1 54234U 22150A   26025.79694208  .00000182  00000+0  10700-3 0  9999
#TLE: 2 54234  98.7509 326.5666 0000777 213.2444 146.8684 14.19539347166346

#Time	Az	El	Level	Level2	SNR	BER	BlckErr	Temp	State	Recorded	gain1	gain2
2026-01-26 10:30:18.02	178.72	4.84	-43.9	-56.7	3.8	8.45e-01	0	62	0	0	60	14744
2026-01-26 10:30:19.02	178.76	4.91	-45.3	-57.7	3.8	1.49e+00	0	62	104	0	62	14793
2026-01-26 10:30:20.03	178.79	4.98	-45.3	-57.8	3.8	1.49e+00	0	62	104	0	62	14979
2026-01-26 10:30:21.04	178.82	5.05	-45.3	-57.8	3.8	1.49e+00	0	62	104	0	62	14919
2026-01-26 10:30:22.05	178.86	5.12	-45.3	-57.7	3.8	1.49e+00	0	62	104	0	62	14842
2026-01-26 10:30:23.06	178.89	5.20	-45.1	-57.6	3.8	1.49e+00	0	62	104	0	62	14623
2026-01-26 10:30:24.07	178.93	5.27	-45.1	-57.6	3.8	1.49e+00	0	62	104	0	62	14583
2026-01-26 10:30:25.08	178.96	5.34	-44.4	-57.0	3.8	1.49e+00	0	62	104	0	60	15343
2026-01-26 10:30:26.09	179.00	5.41	-41.0	-53.3	3.8	1.49e+00	0	62	104	0	54	14159
2026-01-26 10:30:27.10	179.03	5.48	-44.3	-56.8	3.8	1.49e+00	0	62	104	0	60	15038
2026-01-26 10:30:28.11	179.07	5.55	-44.4	-56.5	3.8	1.49e+00	0	62	104	0	60	14417
2026-01-26 10:30:29.12	179.10	5.63	-44.1	-55.8	3.8	1.49e+00	0	62	104	0	60	13390
2026-01-26 10:30:30.13	179.14	5.70	-44.1	-55.8	3.8	1.49e+00	0	62	104	0	60	13359
2026-01-26 10:30:31.14	179.18	5.77	-44.1	-55.7	3.8	1.49e+00	0	62	104	0	60	13111
2026-01-26 10:30:32.15	179.21	5.84	-44.1	-55.3	3.8	1.49e+00	0	62	104	0	60	12599
2026-01-26 10:30:33.16	179.25	5.92	-44.0	-55.0	3.8	1.49e+00	0	62	104	0	60	12136
2026-01-26 10:30:34.17	179.28	5.99	-44.1	-54.7	3.8	1.49e+00	0	62	104	0	59	12431
2026-01-26 10:30:35.18	179.32	6.06	-44.0	-54.5	3.9	1.48e+00	0	62	104	0	59	12206
2026-01-26 10:30:36.19	179.36	6.14	-44.0	-53.8	4.0	1.48e+00	0	62	104	0	59	11166
2026-01-26 10:30:37.20	179.40	6.21	-43.9	-53.6	3.9	1.47e+00	0	62	104	0	59	11021
2026-01-26 10:30:38.21	179.43	6.28	-43.8	-52.6	4.3	1.46e+00	0	62	104	0	59	9756
2026-01-26 10:30:39.23	179.47	6.36	-43.8	-52.6	3.9	1.33e+00	0	62	104	0	59	9722
2026-01-26 10:30:40.24	179.51	6.43	-43.7	-51.7	4.7	1.24e+00	0	62	104	0	59	8775
2026-01-26 10:30:41.24	179.54	6.51	-43.6	-51.9	4.0	8.26e-01	0	62	104	0	59	9065
2026-01-26 10:30:42.26	179.58	6.58	-43.6	-51.1	5.0	7.15e-01	0	62	0	1048576	59	8185
2026-01-26 10:30:43.27	179.62	6.66	-43.5	-50.6	5.2	6.32e-01	0	62	0	4194304	58	8235
2026-01-26 10:30:44.28	179.66	6.73	-43.4	-50.2	5.5	5.04e-01	0	62	0	7340032	58	7856
2026-01-26 10:30:45.29	179.70	6.81	-43.3	-50.0	5.6	4.53e-01	0	62	0	10485760	58	7715
2026-01-26 10:30:46.30	179.74	6.89	-43.3	-49.8	5.8	4.15e-01	0	62	0	13631488	58	7529
2026-01-26 10:30:47.31	179.77	6.96	-43.3	-49.9	5.7	4.01e-01	0	62	0	16777216	58	7557
2026-01-26 10:30:48.32	179.81	7.04	-43.2	-49.7	5.8	3.88e-01	0	62	0	19922944	58	7414
2026-01-26 10:30:49.33	179.85	7.11	-43.2	-49.7	5.9	3.70e-01	0	62	0	23068672	58	7423
2026-01-26 10:30:50.34	179.89	7.19	-43.3	-49.8	5.7	4.00e-01	0	62	0	26214400	58	7505
2026-01-26 10:30:51.35	179.93	7.27	-43.3	-49.9	5.6	4.10e-01	0	62	0	29360128	58	7630
2026-01-26 10:30:52.36	179.97	7.34	-43.3	-50.1	5.5	4.48e-01	0	62	0	32505856	58	7780
2026-01-26 10:30:53.37	180.01	7.42	-43.4	-50.3	5.4	4.90e-01	0	62	0	35651584	58	7919
2026-01-26 10:30:54.38	180.05	7.50	-43.4	-50.3	5.4	5.05e-01	0	62	0	38797312	58	7917
2026-01-26 10:30:55.39	180.09	7.58	-43.3	-50.2	5.5	4.97e-01	0	62	0	41943040	58	7871
2026-01-26 10:30:56.40	180.13	7.65	-43.3	-50.1	5.5	4.69e-01	0	62	0	45088768	58	7753
2026-01-26 10:30:57.41	180.17	7.73	-43.2	-49.8	5.8	4.22e-01	0	62	0	48234496	58	7482
2026-01-26 10:30:58.42	180.21	7.81	-43.1	-49.2	6.2	3.30e-01	0	62	0	51380224	58	7006
2026-01-26 10:30:59.43	180.25	7.89	-42.9	-48.7	6.5	2.41e-01	0	62	0	54525952	57	7036
2026-01-26 10:31:00.44	180.30	7.97	-42.8	-48.2	7.0	1.67e-01	0	62	0	57671680	57	6636
2026-01-26 10:31:01.45	180.34	8.05	-42.5	-47.5	7.6	1.11e-01	0	62	0	60817408	57	6128
2026-01-26 10:31:02.46	180.38	8.13	-42.3	-46.9	8.3	5.77e-02	0	62	0	63963136	56	6040
2026-01-26 10:31:03.47	180.42	8.21	-42.0	-46.3	8.9	2.95e-02	0	62	0	67108864	56	5593
2026-01-26 10:31:04.49	180.46	8.29	-41.6	-45.6	9.4	1.68e-02	0	62	0	70254592	55	5497
2026-01-26 10:31:05.49	180.50	8.37	-41.4	-45.2	9.9	9.51e-03	0	62	0	73400320	54	5539
2026-01-26 10:31:06.50	180.55	8.45	-41.2	-44.7	10.4	4.86e-03	0	62	0	76546048	54	5240
2026-01-26 10:31:07.52	180.59	8.53	-41.0	-44.4	10.7	3.11e-03	0	62	0	79691776	54	5072
2026-01-26 10:31:08.52	180.63	8.61	-40.9	-44.2	11.0	1.88e-03	0	62	0	82837504	53	5223
2026-01-26 10:31:09.54	180.68	8.69	-40.8	-44.0	11.2	1.54e-03	0	62	0	85983232	53	5107
2026-01-26 10:31:10.55	180.72	8.77	-40.7	-43.8	11.3	1.16e-03	0	62	0	89128960	53	5040
2026-01-26 10:31:11.56	180.76	8.85	-40.7	-43.9	11.2	1.36e-03	0	62	0	92274688	53	5058
2026-01-26 10:31:12.57	180.81	8.93	-41.1	-44.4	10.9	1.23e-03	0	62	0	95420416	53	5352
2026-01-26 10:31:13.58	180.85	9.02	-42.6	-47.4	7.9	9.93e-02	0	62	0	98566144	56	6367
2026-01-26 10:31:14.59	180.90	9.10	-41.0	-44.5	10.8	7.95e-03	0	62	0	101711872	53	5408
2026-01-26 10:31:15.60	180.94	9.18	-43.2	-49.9	5.7	7.48e-01	0	62	0	102760448	57	8033
2026-01-26 10:31:16.61	180.99	9.26	-40.7	-43.7	11.5	3.20e-02	0	62	0	103809024	53	4960
2026-01-26 10:31:17.62	181.03	9.35	-41.0	-44.3	10.9	1.38e-02	0	62	0	106954752	54	5009
2026-01-26 10:31:18.63	181.08	9.43	-40.7	-43.7	11.5	7.99e-04	0	62	0	110100480	53	4976
2026-01-26 10:31:19.64	181.12	9.51	-40.6	-43.6	11.6	7.43e-04	0	62	0	113246208	53	4882
2026-01-26 10:31:20.65	181.17	9.60	-40.6	-43.6	11.7	6.19e-04	0	62	0	116391936	53	4890
2026-01-26 10:31:21.66	181.21	9.68	-40.5	-43.5	11.8	5.29e-04	0	62	0	119537664	53	4827
2026-01-26 10:31:22.67	181.26	9.76	-40.5	-43.5	11.8	5.45e-04	0	62	0	122683392	53	4839
2026-01-26 10:31:23.69	181.31	9.85	-40.5	-43.5	11.7	5.47e-04	0	62	0	125829120	53	4833
2026-01-26 10:31:24.70	181.35	9.94	-40.6	-43.6	11.7	5.94e-04	0	62	0	128974848	53	4898
2026-01-26 10:31:25.71	181.40	10.02	-40.5	-43.5	11.8	5.08e-04	0	62	0	132120576	53	4834
2026-01-26 10:31:26.72	181.45	10.11	-40.5	-43.5	11.8	5.54e-04	0	62	0	135266304	53	4816
2026-01-26 10:31:27.73	181.49	10.19	-40.4	-43.2	12.1	3.32e-04	0	62	0	138412032	52	4973
2026-01-26 10:31:28.74	181.54	10.28	-40.4	-43.3	12.1	2.84e-04	0	62	0	141557760	52	4991
2026-01-26 10:31:29.75	181.59	10.36	-40.4	-43.2	12.1	2.72e-04	0	62	0	144703488	52	4968
2026-01-26 10:31:30.76	181.64	10.45	-40.4	-43.2	12.2	2.54e-04	0	62	0	147849216	52	4932
2026-01-26 10:31:31.77	181.69	10.54	-40.4	-43.2	12.1	2.68e-04	0	62	0	150994944	52	4947
2026-01-26 10:31:32.78	181.74	10.62	-40.4	-43.2	12.1	2.91e-04	0	62	0	154140672	52	4964
2026-01-26 10:31:33.79	181.79	10.71	-40.3	-43.1	12.2	2.23e-04	0	62	0	157286400	52	4886
2026-01-26 10:31:34.80	181.84	10.80	-40.2	-43.0	12.3	1.79e-04	0	62	0	160432128	52	4827
2026-01-26 10:31:35.81	181.88	10.89	-40.2	-43.0	12.4	1.44e-04	0	62	0	163577856	52	4833
2026-01-26 10:31:36.82	181.93	10.98	-40.3	-43.0	12.3	1.83e-04	0	62	0	166723584	52	4838
2026-01-26 10:31:37.82	181.98	11.06	-40.3	-43.0	12.3	1.68e-04	0	62	0	169869312	52	4846
2026-01-26 10:31:38.83	182.04	11.15	-40.2	-43.0	12.4	1.50e-04	0	62	0	173015040	52	4819
2026-01-26 10:31:39.84	182.09	11.24	-40.3	-43.0	12.4	1.81e-04	0	62	0	176160768	52	4865
2026-01-26 10:31:40.85	182.14	11.33	-40.3	-43.1	12.3	1.92e-04	0	62	0	179306496	52	4900
2026-01-26 10:31:41.86	182.19	11.42	-40.3	-43.0	12.3	1.56e-04	0	62	0	182452224	52	4860
2026-01-26 10:31:42.86	182.24	11.51	-40.2	-42.9	12.5	1.26e-04	0	62	0	185597952	52	4796
2026-01-26 10:31:43.87	182.29	11.60	-40.3	-43.0	12.4	1.12e-04	0	62	0	188743680	52	4818
2026-01-26 10:31:44.88	182.34	11.69	-40.3	-43.1	12.3	1.62e-04	0	62	0	191889408	52	4895
2026-01-26 10:31:45.89	182.40	11.78	-40.3	-43.0	12.4	1.68e-04	0	62	0	195035136	52	4858
2026-01-26 10:31:46.90	182.45	11.88	-40.3	-42.9	12.5	1.35e-04	0	62	0	198180864	52	4804
2026-01-26 10:31:47.91	182.50	11.97	-40.2	-42.9	12.5	1.13e-04	0	62	0	201326592	52	4784
2026-01-26 10:31:48.92	182.56	12.06	-40.2	-42.9	12.5	9.91e-05	0	62	0	204472320	52	4789
2026-01-26 10:31:49.93	182.61	12.15	-40.1	-42.8	12.6	9.15e-05	0	62	0	207618048	52	4709
2026-01-26 10:31:50.94	182.66	12.24	-40.1	-42.7	12.7	8.77e-05	0	62	0	210763776	52	4696
2026-01-26 10:31:51.95	182.72	12.34	-40.1	-42.7	12.7	8.77e-05	0	62	0	213909504	52	4682
2026-01-26 10:31:52.96	182.77	12.43	-40.1	-42.7	12.7	7.32e-05	0	62	0	217055232	52	4678
2026-01-26 10:31:53.97	182.83	12.53	-40.1	-42.7	12.7	7.24e-05	0	62	0	220200960	52	4674
2026-01-26 10:31:54.98	182.88	12.62	-40.2	-42.8	12.6	8.01e-05	0	62	0	223346688	52	4727
2026-01-26 10:31:55.99	182.94	12.71	-40.1	-42.6	12.8	6.40e-05	0	62	0	226492416	52	4638
2026-01-26 10:31:57.00	183.00	12.81	-40.0	-42.5	12.9	4.57e-05	0	62	0	229638144	52	4598
2026-01-26 10:31:58.01	183.05	12.90	-40.0	-42.6	12.9	4.73e-05	0	62	0	232783872	52	4611
2026-01-26 10:31:59.02	183.11	13.00	-40.1	-42.6	12.8	5.95e-05	0	62	0	235929600	52	4639
2026-01-26 10:32:00.03	183.17	13.10	-40.0	-42.6	12.9	5.11e-05	0	62	0	239075328	52	4601
2026-01-26 10:32:01.04	183.23	13.19	-40.1	-42.7	12.8	5.41e-05	0	62	0	242221056	52	4657
2026-01-26 10:32:02.05	183.28	13.29	-40.0	-42.5	13.0	3.43e-05	0	62	0	245366784	52	4558
2026-01-26 10:32:03.06	183.34	13.38	-40.0	-42.5	13.1	3.89e-05	0	62	0	248512512	51	4848
2026-01-26 10:32:04.07	183.40	13.48	-40.0	-42.5	13.1	2.74e-05	0	62	0	251658240	51	4820
2026-01-26 10:32:05.08	183.46	13.58	-40.1	-42.6	13.0	3.20e-05	0	62	0	254803968	51	4900
2026-01-26 10:32:06.09	183.52	13.68	-40.1	-42.5	13.1	4.27e-05	0	62	0	257949696	51	4866
2026-01-26 10:32:07.10	183.58	13.78	-40.0	-42.5	13.1	2.89e-05	0	62	0	261095424	51	4839
2026-01-26 10:32:08.11	183.64	13.88	-40.0	-42.5	13.2	1.98e-05	0	62	0	264241152	51	4825
2026-01-26 10:32:09.12	183.70	13.97	-40.0	-42.5	13.1	2.74e-05	0	62	0	267386880	51	4827
2026-01-26 10:32:10.12	183.76	14.07	-40.1	-42.5	13.1	2.82e-05	0	62	0	270532608	51	4867
2026-01-26 10:32:11.13	183.82	14.17	-40.0	-42.5	13.2	2.13e-05	0	62	0	273678336	51	4829
2026-01-26 10:32:12.14	183.88	14.27	-40.0	-42.4	13.2	1.98e-05	0	62	0	276824064	51	4801
2026-01-26 10:32:13.15	183.94	14.37	-40.0	-42.5	13.2	2.44e-05	0	62	0	279969792	51	4817
2026-01-26 10:32:14.16	184.01	14.48	-40.0	-42.4	13.2	2.21e-05	0	62	0	283115520	51	4805
2026-01-26 10:32:15.17	184.07	14.58	-40.0	-42.4	13.2	2.21e-05	0	62	0	286261248	51	4809
2026-01-26 10:32:16.18	184.13	14.68	-40.0	-42.5	13.2	2.74e-05	0	62	0	289406976	51	4818
2026-01-26 10:32:17.19	184.20	14.78	-40.0	-42.4	13.2	1.90e-05	0	62	0	292552704	51	4812
2026-01-26 10:32:18.20	184.26	14.88	-40.0	-42.5	13.2	1.44e-05	0	62	0	295698432	51	4836
2026-01-26 10:32:19.21	184.33	14.99	-40.0	-42.5	13.2	1.60e-05	0	62	0	298844160	51	4821
2026-01-26 10:32:20.22	184.39	15.09	-39.9	-42.3	13.4	1.22e-05	0	62	0	301989888	51	4747
2026-01-26 10:32:21.23	184.46	15.19	-40.0	-42.4	13.3	1.75e-05	0	62	0	305135616	51	4782
2026-01-26 10:32:22.24	184.52	15.30	-40.0	-42.4	13.3	2.97e-05	0	62	0	308281344	51	4790
2026-01-26 10:32:23.25	184.59	15.40	-40.0	-42.4	13.3	1.75e-05	0	62	0	311427072	51	4767
2026-01-26 10:32:24.26	184.65	15.51	-40.0	-42.4	13.3	2.44e-05	0	62	0	314572800	51	4786
2026-01-26 10:32:25.27	184.72	15.61	-40.0	-42.4	13.3	2.21e-05	0	62	0	317718528	51	4771
2026-01-26 10:32:26.28	184.79	15.72	-39.9	-42.3	13.4	2.13e-05	0	62	0	320864256	51	4723
2026-01-26 10:32:27.29	184.86	15.83	-39.9	-42.2	13.4	1.60e-05	0	62	0	324009984	51	4702
2026-01-26 10:32:28.30	184.93	15.93	-39.9	-42.3	13.3	1.52e-05	0	62	0	327155712	51	4718
2026-01-26 10:32:29.31	185.00	16.04	-39.9	-42.2	13.4	1.67e-05	0	62	0	330301440	51	4688
2026-01-26 10:32:30.32	185.06	16.15	-39.8	-42.1	13.5	1.22e-05	0	62	0	334495744	51	4649
2026-01-26 10:32:31.33	185.13	16.26	-39.8	-42.2	13.5	1.37e-05	0	62	0	337641472	51	4653
2026-01-26 10:32:32.34	185.21	16.36	-39.9	-42.2	13.4	1.60e-05	0	62	0	340787200	51	4678
2026-01-26 10:32:33.35	185.28	16.47	-39.9	-42.2	13.4	1.60e-05	0	62	0	343932928	51	4686
2026-01-26 10:32:34.36	185.35	16.58	-39.9	-42.2	13.4	1.37e-05	0	62	0	346030080	51	4693
2026-01-26 10:32:35.37	185.42	16.69	-39.8	-42.1	13.5	1.60e-05	0	62	0	349175808	51	4631
2026-01-26 10:32:36.38	185.49	16.80	-39.8	-42.1	13.6	1.29e-05	0	62	0	353370112	51	4609
2026-01-26 10:32:37.38	185.56	16.91	-39.8	-42.2	13.6	1.14e-05	0	62	0	356515840	51	4654
2026-01-26 10:32:38.39	185.64	17.02	-39.9	-42.2	13.5	6.80e-06	0	62	0	359661568	51	4659
2026-01-26 10:32:39.40	185.71	17.14	-39.9	-42.2	13.5	1.44e-05	0	62	0	362807296	51	4697
2026-01-26 10:32:40.41	185.79	17.25	-39.9	-42.2	13.5	7.60e-06	0	62	0	365953024	51	4691
2026-01-26 10:32:41.42	185.86	17.36	-39.9	-42.2	13.5	9.90e-06	0	62	0	369098752	51	4685
2026-01-26 10:32:42.43	185.94	17.47	-39.9	-42.3	13.5	1.29e-05	0	62	0	372244480	51	4716
2026-01-26 10:32:43.44	186.01	17.59	-39.9	-42.3	13.5	1.37e-05	0	62	0	375390208	51	4732
2026-01-26 10:32:44.45	186.09	17.70	-39.9	-42.2	13.5	7.60e-06	0	62	0	378535936	51	4697
2026-01-26 10:32:45.46	186.17	17.82	-39.9	-42.2	13.6	9.10e-06	0	62	0	381681664	51	4666
2026-01-26 10:32:46.47	186.24	17.93	-39.9	-42.2	13.5	8.30e-06	0	62	0	384827392	51	4678
2026-01-26 10:32:47.48	186.32	18.05	-39.9	-42.2	13.5	6.10e-06	0	62	0	387973120	51	4699
2026-01-26 10:32:48.49	186.40	18.16	-39.9	-42.2	13.5	8.30e-06	0	62	0	391118848	51	4701
2026-01-26 10:32:49.50	186.48	18.28	-39.9	-42.2	13.5	9.90e-06	0	62	0	394264576	51	4700
2026-01-26 10:32:50.51	186.56	18.40	-40.0	-42.3	13.5	1.14e-05	0	62	0	397410304	51	4735
2026-01-26 10:32:51.52	186.64	18.52	-40.0	-42.3	13.4	1.44e-05	0	62	0	400556032	51	4754
2026-01-26 10:32:52.53	186.72	18.63	-40.0	-42.4	13.4	1.29e-05	0	62	0	403701760	51	4772
2026-01-26 10:32:53.54	186.80	18.75	-40.1	-42.5	13.3	1.98e-05	0	62	0	406847488	51	4838
2026-01-26 10:32:54.55	186.89	18.87	-40.1	-42.5	13.3	2.13e-05	0	62	0	409993216	51	4862
2026-01-26 10:32:55.56	186.97	18.99	-40.1	-42.6	13.3	1.67e-05	0	62	0	413138944	51	4873
2026-01-26 10:32:56.57	187.05	19.11	-40.2	-42.6	13.2	2.59e-05	0	62	0	416284672	51	4897
2026-01-26 10:32:57.58	187.14	19.23	-40.2	-42.7	13.1	3.35e-05	0	62	0	419430400	51	4966
2026-01-26 10:32:58.59	187.22	19.35	-40.2	-42.7	13.1	2.51e-05	0	62	0	422576128	51	4952
2026-01-26 10:32:59.60	187.31	19.48	-40.2	-42.7	13.1	3.20e-05	0	62	0	425721856	51	4930
2026-01-26 10:33:00.59	187.39	19.60	-40.2	-42.6	13.2	1.67e-05	0	62	0	428867584	51	4922
2026-01-26 10:33:01.60	187.48	19.72	-40.2	-42.6	13.2	2.36e-05	0	62	0	432013312	51	4926
2026-01-26 10:33:02.61	187.57	19.84	-40.2	-42.7	13.1	3.28e-05	0	62	0	435159040	51	4933
2026-01-26 10:33:03.62	187.66	19.97	-40.2	-42.6	13.2	2.36e-05	0	62	0	438304768	51	4893
2026-01-26 10:33:04.62	187.75	20.09	-40.2	-42.7	13.2	2.51e-05	0	62	0	441450496	51	4935
2026-01-26 10:33:05.63	187.83	20.21	-40.1	-42.5	13.3	2.51e-05	0	62	0	444596224	51	4864
2026-01-26 10:33:06.64	187.93	20.34	-40.0	-42.4	13.4	1.29e-05	0	62	0	447741952	51	4800
2026-01-26 10:33:07.65	188.02	20.47	-39.9	-42.3	13.5	1.22e-05	0	62	0	450887680	51	4725
2026-01-26 10:33:08.66	188.11	20.59	-39.9	-42.2	13.5	9.10e-06	0	62	0	454033408	51	4691
2026-01-26 10:33:09.67	188.20	20.72	-39.9	-42.2	13.6	7.60e-06	0	62	0	457179136	51	4691
2026-01-26 10:33:10.68	188.29	20.85	-39.9	-42.3	13.5	1.29e-05	0	62	0	460324864	51	4708
2026-01-26 10:33:11.69	188.39	20.98	-39.9	-42.3	13.5	1.14e-05	0	62	0	463470592	51	4706
2026-01-26 10:33:12.70	188.48	21.11	-39.8	-42.1	13.7	6.10e-06	0	62	0	466616320	51	4611
2026-01-26 10:33:13.71	188.58	21.24	-39.7	-41.9	13.9	3.00e-06	0	62	0	469762048	51	4540
2026-01-26 10:33:14.72	188.68	21.37	-39.7	-41.9	14.0	0.00e+00	0	62	0	472907776	51	4508
2026-01-26 10:33:15.73	188.77	21.50	-39.6	-41.7	14.1	0.00e+00	0	62	0	476053504	51	4427
2026-01-26 10:33:16.74	188.87	21.63	-39.5	-41.7	14.2	7.00e-07	0	62	0	479199232	51	4406
2026-01-26 10:33:17.75	188.97	21.76	-39.5	-41.6	14.2	2.20e-06	0	62	0	482344960	51	4387
2026-01-26 10:33:18.76	189.07	21.89	-39.5	-41.6	14.3	0.00e+00	0	62	0	485490688	50	4627
2026-01-26 10:33:19.77	189.17	22.03	-39.5	-41.6	14.3	7.00e-07	0	62	0	488636416	50	4620
2026-01-26 10:33:20.78	189.27	22.16	-39.3	-41.4	14.4	0.00e+00	0	62	0	491782144	50	4517
2026-01-26 10:33:21.79	189.37	22.30	-39.2	-41.1	14.7	0.00e+00	0	62	0	494927872	50	4386
2026-01-26 10:33:22.80	189.48	22.43	-39.0	-40.9	14.9	0.00e+00	0	62	0	498073600	50	4286
2026-01-26 10:33:23.80	189.58	22.56	-39.0	-40.9	14.9	0.00e+00	0	62	0	501219328	49	4541
2026-01-26 10:33:24.82	189.68	22.70	-39.0	-41.0	14.8	7.00e-07	0	62	0	504365056	49	4578
2026-01-26 10:33:25.82	189.79	22.84	-39.1	-41.0	14.8	0.00e+00	0	62	0	507510784	49	4592
2026-01-26 10:33:26.84	189.90	22.98	-39.1	-41.0	14.8	0.00e+00	0	62	0	510656512	49	4591
2026-01-26 10:33:27.85	190.00	23.12	-38.9	-40.8	15.0	0.00e+00	0	62	0	513802240	49	4481
2026-01-26 10:33:28.86	190.11	23.25	-38.8	-40.7	15.1	0.00e+00	0	62	0	516947968	49	4434
2026-01-26 10:33:29.87	190.22	23.39	-38.9	-40.8	15.0	0.00e+00	0	62	0	520093696	49	4485
2026-01-26 10:33:30.88	190.33	23.53	-39.0	-40.9	14.9	0.00e+00	0	62	0	523239424	49	4542
2026-01-26 10:33:31.89	190.44	23.68	-39.0	-41.0	14.9	7.00e-07	0	62	0	526385152	49	4569
2026-01-26 10:33:32.90	190.55	23.82	-39.0	-41.0	14.8	1.50e-06	0	62	0	529530880	49	4558
2026-01-26 10:33:33.91	190.67	23.96	-38.9	-40.9	14.9	0.00e+00	0	62	0	532676608	49	4508
2026-01-26 10:33:34.92	190.78	24.10	-39.0	-41.0	14.9	0.00e+00	0	62	0	535822336	49	4566
2026-01-26 10:33:35.93	190.90	24.25	-39.0	-41.0	14.8	0.00e+00	0	62	0	538968064	49	4566
2026-01-26 10:33:36.94	191.01	24.39	-39.1	-41.0	14.8	0.00e+00	0	62	0	542113792	49	4597
2026-01-26 10:33:37.95	191.13	24.54	-39.0	-41.0	14.8	0.00e+00	0	62	0	545259520	49	4571
2026-01-26 10:33:38.96	191.25	24.68	-39.1	-41.0	14.8	0.00e+00	0	62	0	548405248	49	4587
2026-01-26 10:33:39.97	191.37	24.83	-39.1	-41.1	14.8	0.00e+00	0	62	0	551550976	49	4622
2026-01-26 10:33:40.98	191.49	24.97	-39.2	-41.1	14.8	0.00e+00	0	62	0	554696704	49	4649
2026-01-26 10:33:41.98	191.61	25.12	-39.2	-41.2	14.7	0.00e+00	0	62	0	557842432	49	4698
2026-01-26 10:33:42.99	191.73	25.27	-39.3	-41.3	14.6	1.50e-06	0	62	0	560988160	49	4728
2026-01-26 10:33:44.00	191.85	25.42	-39.3	-41.3	14.6	0.00e+00	0	62	0	564133888	49	4736
2026-01-26 10:33:45.01	191.98	25.57	-39.4	-41.5	14.5	7.00e-07	0	62	0	567279616	49	4835
2026-01-26 10:33:46.02	192.11	25.72	-39.5	-41.6	14.4	3.00e-06	0	62	0	570425344	49	4876
2026-01-26 10:33:47.03	192.23	25.87	-39.5	-41.5	14.4	0.00e+00	0	62	0	573571072	49	4870
2026-01-26 10:33:48.04	192.36	26.02	-39.5	-41.6	14.4	1.50e-06	0	62	0	576716800	49	4897
2026-01-26 10:33:49.05	192.49	26.17	-39.6	-41.7	14.3	1.50e-06	0	62	0	579862528	49	4943
2026-01-26 10:33:50.06	192.62	26.33	-39.6	-41.7	14.2	1.50e-06	0	62	0	583008256	49	4976
2026-01-26 10:33:51.07	192.75	26.48	-39.7	-41.9	14.1	1.50e-06	0	62	0	586153984	49	5058
2026-01-26 10:33:52.08	192.89	26.64	-39.8	-41.9	14.0	3.00e-06	0	62	0	589299712	50	4807
2026-01-26 10:33:53.09	193.02	26.79	-39.8	-42.0	13.9	1.50e-06	0	62	0	592445440	50	4848
2026-01-26 10:33:54.10	193.16	26.95	-39.8	-42.0	13.9	2.20e-06	0	62	0	595591168	50	4870
2026-01-26 10:33:55.11	193.29	27.11	-39.8	-42.1	13.9	6.10e-06	0	62	0	598736896	50	4871
2026-01-26 10:33:56.12	193.43	27.26	-39.8	-42.0	14.0	5.30e-06	0	62	0	601882624	50	4830
2026-01-26 10:33:57.13	193.57	27.42	-39.9	-42.1	13.8	4.50e-06	0	62	0	605028352	50	4902
2026-01-26 10:33:58.14	193.71	27.58	-39.9	-42.2	13.8	5.30e-06	0	62	0	608174080	50	4943
2026-01-26 10:33:59.15	193.86	27.74	-40.0	-42.3	13.6	8.30e-06	0	62	0	611319808	50	5018
2026-01-26 10:34:00.16	194.00	27.90	-40.1	-42.4	13.5	9.10e-06	0	62	0	614465536	50	5057
2026-01-26 10:34:01.17	194.14	28.06	-40.1	-42.4	13.5	8.30e-06	0	62	0	617611264	50	5087
2026-01-26 10:34:02.18	194.29	28.23	-40.2	-42.5	13.5	9.90e-06	0	62	0	620756992	50	5138
2026-01-26 10:34:03.19	194.44	28.39	-40.2	-42.6	13.4	1.29e-05	0	62	0	623902720	50	5180
2026-01-26 10:34:04.20	194.59	28.55	-40.1	-42.4	13.6	9.90e-06	0	62	0	627048448	51	4773
2026-01-26 10:34:05.21	194.74	28.72	-40.1	-42.4	13.6	6.80e-06	0	62	0	630194176	51	4776
2026-01-26 10:34:06.22	194.89	28.88	-40.1	-42.4	13.6	8.30e-06	0	62	0	633339904	51	4792
2026-01-26 10:34:07.23	195.05	29.05	-40.0	-42.3	13.7	7.60e-06	0	62	0	636485632	51	4730
2026-01-26 10:34:08.24	195.20	29.22	-40.0	-42.2	13.8	6.80e-06	0	62	0	639631360	51	4689
2026-01-26 10:34:09.25	195.36	29.38	-40.0	-42.2	13.8	6.80e-06	0	62	0	642777088	51	4679
2026-01-26 10:34:10.26	195.52	29.55	-40.0	-42.3	13.7	8.30e-06	0	62	0	645922816	51	4716
2026-01-26 10:34:11.27	195.68	29.72	-40.1	-42.4	13.6	7.60e-06	0	62	0	649068544	51	4779
2026-01-26 10:34:12.28	195.84	29.89	-40.0	-42.3	13.7	3.80e-06	0	62	0	652214272	51	4727
2026-01-26 10:34:13.29	196.01	30.06	-40.0	-42.3	13.7	7.60e-06	0	62	0	655360000	51	4748
2026-01-26 10:34:14.30	196.17	30.23	-40.0	-42.3	13.7	6.10e-06	0	62	0	658505728	51	4741
2026-01-26 10:34:15.31	196.34	30.41	-39.9	-42.1	13.9	2.20e-06	0	62	0	661651456	51	4622
2026-01-26 10:34:16.32	196.51	30.58	-39.8	-42.0	14.0	1.50e-06	0	62	0	664797184	51	4576
2026-01-26 10:34:17.33	196.68	30.75	-39.9	-42.1	13.9	7.00e-07	0	62	0	667942912	51	4617
2026-01-26 10:34:18.34	196.85	30.93	-39.7	-41.9	14.1	2.20e-06	0	62	0	671088640	51	4510
2026-01-26 10:34:19.35	197.03	31.10	-39.7	-41.9	14.2	7.00e-07	0	62	0	674234368	51	4497
2026-01-26 10:34:20.36	197.20	31.28	-39.7	-41.9	14.2	2.20e-06	0	62	0	677380096	51	4496
2026-01-26 10:34:21.37	197.38	31.46	-39.6	-41.8	14.3	1.50e-06	0	62	0	681574400	51	4453
2026-01-26 10:34:22.38	197.56	31.63	-39.7	-41.9	14.1	0.00e+00	0	62	0	684720128	51	4522
2026-01-26 10:34:23.39	197.74	31.81	-39.8	-42.0	14.0	3.00e-06	0	62	0	686817280	51	4563
2026-01-26 10:34:24.40	197.93	31.99	-39.8	-42.0	14.0	3.00e-06	0	62	0	689963008	51	4571
2026-01-26 10:34:25.41	198.11	32.17	-39.8	-41.9	14.1	1.50e-06	0	62	0	693108736	51	4542
2026-01-26 10:34:26.42	198.30	32.35	-39.8	-42.0	14.1	2.20e-06	0	62	0	696254464	51	4546
2026-01-26 10:34:27.43	198.49	32.53	-39.8	-42.0	14.1	1.50e-06	0	62	0	700448768	51	4548
2026-01-26 10:34:28.44	198.68	32.71	-39.9	-42.1	14.0	7.00e-07	0	62	0	703594496	51	4607
2026-01-26 10:34:29.45	198.88	32.90	-39.9	-42.1	14.0	3.80e-06	0	62	0	706740224	51	4607
2026-01-26 10:34:30.46	199.07	33.08	-39.9	-42.1	14.0	2.20e-06	0	62	0	709885952	51	4605
2026-01-26 10:34:31.47	199.27	33.27	-40.0	-42.2	13.8	4.50e-06	0	62	0	711983104	51	4685
2026-01-26 10:34:32.48	199.47	33.45	-40.1	-42.4	13.6	3.80e-06	0	62	0	716177408	51	4806
2026-01-26 10:34:33.49	199.68	33.64	-40.2	-42.6	13.5	9.10e-06	0	62	0	719323136	51	4900
2026-01-26 10:34:34.50	199.88	33.82	-40.4	-42.8	13.3	2.13e-05	0	62	0	722468864	51	5018
2026-01-26 10:34:35.50	200.09	34.01	-40.5	-43.0	13.0	3.05e-05	0	62	0	725614592	51	5144
2026-01-26 10:34:36.51	200.30	34.20	-40.7	-43.3	12.6	7.47e-05	0	62	0	728760320	52	5034
2026-01-26 10:34:37.52	200.51	34.39	-40.8	-43.5	12.5	9.91e-05	0	62	0	731906048	52	5145
2026-01-26 10:34:38.53	200.73	34.58	-40.8	-43.5	12.4	1.45e-04	0	62	0	735051776	52	5145
2026-01-26 10:34:39.54	200.94	34.77	-41.0	-43.8	12.2	2.18e-04	0	62	0	738197504	52	5284
2026-01-26 10:34:40.55	201.16	34.96	-41.1	-43.9	12.1	2.54e-04	0	62	0	741343232	52	5378
2026-01-26 10:34:41.56	201.39	35.15	-41.1	-44.0	12.0	3.07e-04	0	62	0	744488960	52	5407
2026-01-26 10:34:42.57	201.61	35.34	-41.1	-44.0	12.0	2.86e-04	0	62	0	747634688	52	5416
2026-01-26 10:34:43.58	201.84	35.53	-41.1	-43.9	12.1	2.27e-04	0	62	0	750780416	52	5361
2026-01-26 10:34:44.59	202.07	35.73	-41.0	-43.8	12.2	2.51e-04	0	62	0	753926144	52	5300
2026-01-26 10:34:45.60	202.30	35.92	-41.0	-43.8	12.1	2.43e-04	0	62	0	757071872	52	5321
2026-01-26 10:34:46.61	202.54	36.12	-41.0	-43.8	12.2	2.24e-04	0	62	0	760217600	52	5313
2026-01-26 10:34:47.62	202.78	36.31	-41.1	-43.9	12.1	2.55e-04	0	62	0	763363328	52	5359
2026-01-26 10:34:48.63	203.02	36.51	-41.1	-44.0	12.0	2.92e-04	0	62	0	766509056	52	5404
2026-01-26 10:34:49.64	203.26	36.71	-41.1	-44.0	12.0	3.42e-04	0	62	0	769654784	52	5441
2026-01-26 10:34:50.65	203.51	36.90	-41.1	-44.0	12.0	4.94e-04	0	62	0	772800512	53	5124
2026-01-26 10:34:51.66	203.76	37.10	-41.1	-44.0	12.0	3.25e-04	0	62	0	775946240	53	5119
2026-01-26 10:34:52.67	204.01	37.30	-41.0	-43.7	12.3	1.69e-04	0	62	0	779091968	52	5271
2026-01-26 10:34:53.68	204.27	37.50	-41.0	-43.8	12.2	1.96e-04	0	62	0	782237696	52	5311
2026-01-26 10:34:54.69	204.53	37.70	-41.2	-44.1	12.0	3.01e-04	0	62	0	785383424	52	5471
2026-01-26 10:34:55.70	204.79	37.90	-41.3	-44.2	11.8	4.46e-04	0	62	0	788529152	53	5236
2026-01-26 10:34:56.71	205.06	38.10	-41.3	-44.3	11.6	5.85e-04	0	62	0	791674880	53	5336
2026-01-26 10:34:57.72	205.33	38.30	-41.5	-44.6	11.3	8.54e-04	0	62	0	794820608	53	5494
2026-01-26 10:34:58.73	205.60	38.51	-41.4	-44.6	11.3	1.24e-03	0	62	0	797966336	53	5477
2026-01-26 10:34:59.74	205.87	38.71	-41.5	-44.6	11.3	1.51e-03	0	62	0	801112064	53	5518
2026-01-26 10:35:00.74	206.15	38.91	-41.5	-44.7	11.2	1.34e-03	0	62	0	804257792	53	5532
2026-01-26 10:35:01.75	206.43	39.11	-41.6	-44.8	11.0	1.73e-03	0	62	0	807403520	53	5653
2026-01-26 10:35:02.76	206.72	39.32	-41.7	-45.0	10.9	2.08e-03	0	62	0	810549248	53	5727
2026-01-26 10:35:03.77	207.01	39.52	-41.6	-44.9	11.0	2.08e-03	0	62	0	813694976	53	5670
2026-01-26 10:35:04.78	207.30	39.72	-41.6	-44.7	11.2	1.51e-03	0	62	0	816840704	53	5588
2026-01-26 10:35:05.79	207.60	39.93	-41.5	-44.6	11.3	1.21e-03	0	62	0	819986432	53	5508
2026-01-26 10:35:06.80	207.90	40.14	-41.3	-44.2	11.7	5.48e-04	0	62	0	823132160	53	5273
2026-01-26 10:35:07.81	208.20	40.34	-41.2	-44.1	11.9	3.80e-04	0	62	0	826277888	53	5164
2026-01-26 10:35:08.82	208.51	40.55	-41.3	-44.3	11.7	6.58e-04	0	62	0	829423616	53	5284
2026-01-26 10:35:09.83	208.82	40.75	-41.3	-44.3	11.7	5.42e-04	0	62	0	832569344	53	5298
2026-01-26 10:35:10.84	209.14	40.96	-41.3	-44.3	11.7	4.97e-04	0	62	0	835715072	53	5285
2026-01-26 10:35:11.85	209.46	41.17	-41.3	-44.2	11.7	4.94e-04	0	62	0	838860800	53	5262
2026-01-26 10:35:12.86	209.78	41.37	-41.1	-43.9	12.1	3.04e-04	0	62	0	842006528	53	5056
2026-01-26 10:35:13.87	210.11	41.58	-41.0	-43.7	12.2	2.67e-04	0	62	0	845152256	53	4969
2026-01-26 10:35:14.88	210.44	41.79	-41.1	-43.9	12.1	2.80e-04	0	62	0	848297984	53	5055
2026-01-26 10:35:15.89	210.78	41.99	-41.1	-43.9	12.0	2.83e-04	0	62	0	851443712	53	5100
2026-01-26 10:35:16.90	211.12	42.20	-41.1	-43.8	12.2	2.47e-04	0	62	0	854589440	53	5036
2026-01-26 10:35:17.91	211.46	42.41	-41.1	-44.0	12.0	2.92e-04	0	62	0	857735168	53	5105
2026-01-26 10:35:18.92	211.81	42.62	-41.4	-44.4	11.6	6.26e-04	0	62	0	860880896	53	5349
2026-01-26 10:35:19.94	212.17	42.83	-41.6	-44.8	11.2	1.15e-03	0	62	0	864026624	53	5595
2026-01-26 10:35:20.95	212.53	43.03	-41.8	-45.2	10.8	2.14e-03	0	62	0	867172352	54	5533
2026-01-26 10:35:21.96	212.89	43.24	-41.8	-45.2	10.7	2.50e-03	0	62	0	870318080	54	5572
2026-01-26 10:35:22.97	213.26	43.45	-41.8	-45.1	10.9	2.65e-03	0	62	0	873463808	54	5482
2026-01-26 10:35:23.98	213.63	43.65	-41.7	-45.0	11.0	2.16e-03	0	62	0	876609536	54	5407
2026-01-26 10:35:24.99	214.01	43.86	-41.8	-45.0	10.9	2.01e-03	0	62	0	879755264	54	5460
2026-01-26 10:35:26.00	214.39	44.07	-41.8	-45.1	10.8	2.33e-03	0	62	0	882900992	54	5525
2026-01-26 10:35:27.01	214.78	44.27	-41.8	-45.2	10.8	2.55e-03	0	62	0	886046720	54	5544
2026-01-26 10:35:28.02	215.17	44.48	-41.9	-45.3	10.7	2.76e-03	0	62	0	889192448	54	5605
2026-01-26 10:35:29.03	215.57	44.69	-41.7	-44.9	10.9	1.97e-03	0	62	0	892338176	54	5388
2026-01-26 10:35:30.04	215.97	44.89	-41.7	-44.9	11.2	1.54e-03	0	62	0	895483904	54	5344
2026-01-26 10:35:31.05	216.38	45.09	-41.3	-44.2	11.8	7.01e-04	0	62	0	898629632	54	4964
2026-01-26 10:35:32.06	216.79	45.30	-41.1	-43.9	12.1	2.78e-04	0	62	0	901775360	54	4795
2026-01-26 10:35:33.07	217.21	45.50	-41.0	-43.7	12.3	1.98e-04	0	62	0	904921088	53	4967
2026-01-26 10:35:34.07	217.62	45.70	-40.8	-43.5	12.6	1.02e-04	0	62	0	908066816	53	4818
2026-01-26 10:35:35.08	218.05	45.90	-40.8	-43.4	12.6	8.08e-05	0	62	0	911212544	53	4769
2026-01-26 10:35:36.09	218.49	46.11	-40.9	-43.6	12.5	1.23e-04	0	62	0	914358272	53	4879
2026-01-26 10:35:37.10	218.93	46.31	-41.0	-43.8	12.3	1.72e-04	0	62	0	917504000	53	4996
2026-01-26 10:35:38.11	219.37	46.51	-41.1	-44.0	12.0	3.45e-04	0	62	0	920649728	53	5126
2026-01-26 10:35:39.12	219.82	46.70	-41.3	-44.2	11.8	4.56e-04	0	62	0	923795456	53	5233
2026-01-26 10:35:40.13	220.28	46.90	-41.2	-44.1	11.8	4.95e-04	0	62	0	926941184	53	5168
2026-01-26 10:35:41.14	220.74	47.10	-41.2	-44.1	11.8	5.00e-04	0	62	0	930086912	53	5215
2026-01-26 10:35:42.15	221.21	47.29	-41.3	-44.2	11.7	5.12e-04	0	62	0	933232640	53	5227
2026-01-26 10:35:43.16	221.68	47.49	-41.4	-44.4	11.5	7.84e-04	0	62	0	936378368	53	5392
2026-01-26 10:35:44.17	222.16	47.68	-41.5	-44.6	11.3	1.06e-03	0	62	0	939524096	53	5492
2026-01-26 10:35:45.18	222.64	47.87	-41.6	-44.9	11.1	1.35e-03	0	62	0	942669824	53	5669
2026-01-26 10:35:46.19	223.13	48.06	-41.6	-44.8	11.1	1.50e-03	0	62	0	945815552	53	5619
2026-01-26 10:35:47.20	223.63	48.25	-41.5	-44.6	11.2	1.43e-03	0	62	0	948961280	53	5527
2026-01-26 10:35:48.21	224.13	48.44	-41.5	-44.7	11.1	1.64e-03	0	62	0	952107008	53	5534
2026-01-26 10:35:49.22	224.64	48.63	-41.4	-44.4	11.5	7.33e-04	0	62	0	955252736	53	5374
2026-01-26 10:35:50.22	225.15	48.81	-41.2	-44.1	11.8	5.32e-04	0	62	0	958398464	53	5205
2026-01-26 10:35:51.23	225.67	48.99	-41.1	-44.0	11.9	3.82e-04	0	62	0	961544192	53	5117
2026-01-26 10:35:52.24	226.20	49.17	-41.3	-44.2	11.7	4.77e-04	0	62	0	964689920	53	5271
2026-01-26 10:35:53.25	226.74	49.35	-41.3	-44.3	11.6	7.15e-04	0	62	0	967835648	53	5332
2026-01-26 10:35:54.26	227.28	49.53	-41.5	-44.6	11.3	1.06e-03	0	62	0	970981376	53	5502
2026-01-26 10:35:55.28	227.83	49.70	-41.6	-44.7	11.2	1.50e-03	0	62	0	974127104	53	5582
2026-01-26 10:35:56.28	228.37	49.88	-41.3	-44.3	11.8	6.03e-04	0	62	0	977272832	53	5285
2026-01-26 10:35:57.29	228.93	50.05	-41.2	-44.0	11.9	4.20e-04	0	62	0	980418560	53	5152
2026-01-26 10:35:58.30	229.50	50.22	-41.1	-44.0	12.0	3.36e-04	0	62	0	983564288	53	5106
2026-01-26 10:35:59.31	230.07	50.38	-40.6	-43.6	12.4	1.86e-04	0	62	0	986710016	53	4877
2026-01-26 10:36:00.32	230.64	50.55	-40.7	-43.3	12.7	1.12e-04	0	62	0	989855744	52	4989
2026-01-26 10:36:01.33	231.23	50.71	-40.6	-43.1	12.9	5.49e-05	0	62	0	993001472	52	4920
2026-01-26 10:36:02.34	231.82	50.87	-40.2	-42.8	13.3	1.98e-05	0	62	0	996147200	51	4991
2026-01-26 10:36:03.35	232.41	51.02	-40.3	-42.6	13.5	6.10e-06	0	62	0	999292928	51	4894
2026-01-26 10:36:04.36	233.01	51.18	-40.4	-42.7	13.3	1.60e-05	0	62	0	1002438656	51	4981
2026-01-26 10:36:05.37	233.62	51.33	-40.4	-42.8	13.3	1.90e-05	0	62	0	1005584384	51	5003
2026-01-26 10:36:06.38	234.23	51.47	-40.4	-42.8	13.3	1.83e-05	0	62	0	1008730112	51	4994
2026-01-26 10:36:07.39	234.85	51.62	-40.5	-42.9	13.2	1.83e-05	0	62	0	1011875840	51	5058
2026-01-26 10:36:08.40	235.48	51.76	-40.4	-42.9	13.3	1.98e-05	0	62	0	1015021568	51	5043
2026-01-26 10:36:09.41	236.11	51.90	-40.5	-43.0	13.0	2.89e-05	0	62	0	1018167296	51	5125
2026-01-26 10:36:10.42	236.75	52.04	-40.7	-43.3	12.7	7.09e-05	0	62	0	1021313024	52	5019
2026-01-26 10:36:11.43	237.39	52.17	-40.7	-43.3	12.7	9.53e-05	0	62	0	1025507328	52	4996
2026-01-26 10:36:12.44	238.04	52.30	-40.6	-43.2	12.8	7.85e-05	0	63	0	1027604480	52	4959
2026-01-26 10:36:13.45	238.69	52.42	-40.5	-43.1	12.9	5.18e-05	0	62	0	1030750208	52	4900
2026-01-26 10:36:14.46	239.35	52.55	-40.6	-43.1	12.9	4.73e-05	0	63	0	1033895936	52	4923
2026-01-26 10:36:15.47	240.02	52.66	-40.6	-43.3	12.7	6.48e-05	0	62	0	1037041664	52	4996
2026-01-26 10:36:16.48	240.69	52.78	-40.8	-43.6	12.4	1.43e-04	0	62	0	1041235968	52	5161
2026-01-26 10:36:17.49	241.36	52.89	-40.7	-43.4	12.6	1.01e-04	0	62	0	1044381696	52	5055
2026-01-26 10:36:18.49	242.04	53.00	-40.6	-43.1	12.9	7.40e-05	0	62	0	1047527424	52	4877
2026-01-26 10:36:19.50	242.72	53.10	-40.5	-43.0	12.8	3.43e-05	0	62	0	1049624576	52	4865
2026-01-26 10:36:20.52	243.42	53.20	-40.7	-43.4	12.4	1.11e-04	0	62	0	1052770304	52	5064
2026-01-26 10:36:21.52	244.11	53.29	-41.0	-43.9	11.9	4.02e-04	0	62	0	1056964608	52	5396
2026-01-26 10:36:22.53	244.81	53.39	-40.8	-43.4	12.5	1.61e-04	0	62	0	1060110336	52	5084
2026-01-26 10:36:23.54	245.51	53.47	-40.5	-43.0	13.0	5.26e-05	0	62	0	1063256064	52	4835
2026-01-26 10:36:24.55	246.22	53.56	-40.4	-43.0	12.9	4.11e-05	0	62	0	1066401792	52	4822
2026-01-26 10:36:25.56	246.93	53.64	-40.8	-43.5	12.4	1.04e-04	0	62	0	1069547520	52	5115
2026-01-26 10:36:26.57	247.64	53.71	-40.8	-43.4	12.5	1.55e-04	0	62	0	1072693248	52	5082
2026-01-26 10:36:27.58	248.36	53.78	-40.3	-42.7	13.2	4.27e-05	0	62	0	1075838976	52	4700
2026-01-26 10:36:28.59	249.08	53.85	-40.1	-42.4	13.5	9.90e-06	0	62	0	1078984704	52	4510
2026-01-26 10:36:29.60	249.81	53.91	-40.2	-42.5	13.4	1.22e-05	0	62	0	1082130432	52	4598
2026-01-26 10:36:30.61	250.53	53.96	-40.4	-42.8	13.1	2.59e-05	0	63	0	1085276160	52	4738
2026-01-26 10:36:31.62	251.27	54.02	-40.3	-42.6	13.3	2.21e-05	0	62	0	1088421888	52	4650
2026-01-26 10:36:32.63	252.00	54.06	-40.2	-42.6	13.3	1.52e-05	0	62	0	1091567616	52	4638
2026-01-26 10:36:33.64	252.73	54.11	-40.3	-42.6	13.3	1.98e-05	0	62	0	1094713344	52	4644
2026-01-26 10:36:34.66	253.48	54.15	-40.5	-43.0	12.9	3.81e-05	0	62	0	1097859072	52	4868
2026-01-26 10:36:35.66	254.21	54.18	-40.6	-43.1	12.8	6.33e-05	0	62	0	1101004800	52	4915
2026-01-26 10:36:36.67	254.95	54.21	-40.3	-42.7	13.3	1.60e-05	0	63	0	1104150528	52	4688
2026-01-26 10:36:37.68	255.69	54.23	-40.2	-42.5	13.4	1.83e-05	0	62	0	1107296256	52	4589
2026-01-26 10:36:38.69	256.44	54.25	-40.2	-42.5	13.3	1.06e-05	0	62	0	1110441984	52	4597
2026-01-26 10:36:39.70	257.18	54.27	-40.4	-42.8	13.0	4.34e-05	0	62	0	1113587712	52	4747
2026-01-26 10:36:40.71	257.93	54.28	-40.4	-42.9	13.0	4.04e-05	0	62	0	1116733440	52	4791
2026-01-26 10:36:41.72	258.67	54.28	-40.3	-42.6	13.3	1.22e-05	0	62	0	1119879168	52	4632
2026-01-26 10:36:42.72	259.41	54.28	-40.4	-42.9	13.0	2.36e-05	0	62	0	1123024896	52	4782
2026-01-26 10:36:43.74	260.16	54.28	-40.8	-43.5	12.4	9.46e-05	0	62	0	1126170624	52	5115
2026-01-26 10:36:44.74	260.90	54.27	-40.9	-43.7	12.2	1.97e-04	0	62	0	1129316352	52	5233
2026-01-26 10:36:45.75	261.64	54.26	-40.9	-43.6	12.4	1.85e-04	0	62	0	1132462080	52	5164
2026-01-26 10:36:46.76	262.38	54.24	-40.7	-43.2	12.7	1.23e-04	0	62	0	1135607808	52	4975
2026-01-26 10:36:47.77	263.13	54.21	-40.5	-43.0	12.9	5.56e-05	0	62	0	1138753536	52	4845
2026-01-26 10:36:48.78	263.87	54.18	-40.6	-43.1	12.8	7.40e-05	0	63	0	1141899264	52	4924
2026-01-26 10:36:49.79	264.61	54.15	-40.6	-43.2	12.7	8.31e-05	0	62	0	1145044992	52	4949
2026-01-26 10:36:50.80	265.34	54.11	-40.5	-43.1	12.9	6.48e-05	0	62	0	1148190720	52	4882
2026-01-26 10:36:51.81	266.08	54.07	-40.3	-42.7	13.3	2.21e-05	0	62	0	1151336448	52	4677
2026-01-26 10:36:52.82	266.81	54.03	-40.2	-42.6	13.4	9.90e-06	0	62	0	1154482176	52	4605
2026-01-26 10:36:53.83	267.54	53.97	-40.1	-42.4	13.5	1.06e-05	0	63	0	1157627904	52	4504
2026-01-26 10:36:54.84	268.27	53.92	-40.1	-42.4	13.6	7.60e-06	0	62	0	1160773632	52	4498
2026-01-26 10:36:55.85	269.00	53.86	-40.2	-42.5	13.4	8.30e-06	0	63	0	1163919360	52	4595
2026-01-26 10:36:56.86	269.72	53.79	-40.3	-42.7	13.2	1.60e-05	0	62	0	1167065088	52	4663
2026-01-26 10:36:57.87	270.44	53.72	-40.6	-43.2	12.6	5.11e-05	0	63	0	1170210816	52	4969
2026-01-26 10:36:58.88	271.15	53.65	-40.8	-43.5	12.3	1.21e-04	0	62	0	1173356544	52	5151
2026-01-26 10:36:59.88	271.86	53.57	-40.4	-42.8	13.1	7.78e-05	0	62	0	1176502272	52	4754
2026-01-26 10:37:00.90	272.57	53.49	-40.0	-42.2	13.7	1.14e-05	0	62	0	1179648000	52	4431
2026-01-26 10:37:01.90	273.27	53.40	-40.0	-42.3	13.7	4.50e-06	0	63	0	1182793728	51	4719
2026-01-26 10:37:02.91	273.96	53.31	-40.2	-42.6	13.4	1.52e-05	0	62	0	1185939456	51	4884
2026-01-26 10:37:03.92	274.66	53.22	-40.5	-42.9	13.1	3.20e-05	0	62	0	1189085184	51	5091
2026-01-26 10:37:04.93	275.35	53.12	-40.7	-43.2	12.7	6.71e-05	0	62	0	1192230912	52	4983
2026-01-26 10:37:05.94	276.03	53.02	-40.9	-43.6	12.3	1.33e-04	0	62	0	1195376640	52	5184
2026-01-26 10:37:06.95	276.71	52.91	-40.9	-43.6	12.3	1.98e-04	0	62	0	1198522368	52	5170
2026-01-26 10:37:07.96	277.39	52.80	-40.7	-43.3	12.7	8.92e-05	0	62	0	1201668096	52	5006
2026-01-26 10:37:08.97	278.06	52.69	-40.6	-43.1	12.9	5.49e-05	0	62	0	1204813824	52	4911
2026-01-26 10:37:09.98	278.73	52.57	-40.6	-43.2	12.8	6.71e-05	0	62	0	1207959552	52	4939
2026-01-26 10:37:10.99	279.38	52.45	-40.5	-43.0	13.0	3.66e-05	0	62	0	1211105280	52	4822
2026-01-26 10:37:12.00	280.04	52.33	-40.4	-42.9	13.1	3.43e-05	0	62	0	1214251008	52	4774
2026-01-26 10:37:13.01	280.69	52.20	-40.2	-42.6	13.4	1.90e-05	0	62	0	1217396736	52	4617
2026-01-26 10:37:14.02	281.33	52.07	-40.2	-42.5	13.5	1.44e-05	0	62	0	1220542464	52	4588
2026-01-26 10:37:15.03	281.97	51.93	-40.3	-42.6	13.2	2.74e-05	0	62	0	1223688192	52	4648
2026-01-26 10:37:16.04	282.60	51.79	-40.2	-42.5	13.3	1.37e-05	0	62	0	1226833920	52	4598
2026-01-26 10:37:17.05	283.23	51.65	-40.5	-43.0	12.9	3.12e-05	0	62	0	1229979648	52	4847
2026-01-26 10:37:18.06	283.84	51.51	-40.8	-43.4	12.6	8.62e-05	0	62	0	1233125376	52	5070
2026-01-26 10:37:19.07	284.46	51.36	-41.0	-43.8	12.2	2.34e-04	0	63	0	1236271104	52	5321
2026-01-26 10:37:20.08	285.07	51.21	-41.2	-44.1	11.9	3.96e-04	0	63	0	1239416832	53	5179
2026-01-26 10:37:21.09	285.67	51.06	-41.3	-44.2	11.7	5.17e-04	0	62	0	1242562560	53	5266
2026-01-26 10:37:22.10	286.26	50.90	-41.5	-44.6	11.3	7.90e-04	0	62	0	1245708288	53	5512
2026-01-26 10:37:23.11	286.85	50.75	-41.5	-44.6	11.3	1.05e-03	0	62	0	1248854016	53	5502
2026-01-26 10:37:24.12	287.44	50.59	-41.3	-44.3	11.7	7.48e-04	0	62	0	1251999744	53	5304
2026-01-26 10:37:25.13	288.01	50.42	-41.2	-44.1	11.9	3.88e-04	0	62	0	1255145472	53	5175
2026-01-26 10:37:26.14	288.58	50.26	-41.0	-43.8	12.2	3.32e-04	0	62	0	1258291200	53	5014
2026-01-26 10:37:27.14	289.14	50.09	-41.2	-44.0	11.9	3.29e-04	0	62	0	1261436928	53	5135
2026-01-26 10:37:28.15	289.70	49.92	-41.5	-44.6	11.4	7.77e-04	0	62	0	1264582656	53	5474
2026-01-26 10:37:29.16	290.25	49.75	-41.3	-44.3	11.6	7.54e-04	0	62	0	1267728384	53	5327
2026-01-26 10:37:30.17	290.80	49.58	-41.0	-43.8	12.2	2.33e-04	0	62	0	1270874112	53	4997
2026-01-26 10:37:31.18	291.34	49.40	-41.0	-43.7	12.2	2.25e-04	0	62	0	1274019840	53	4943
2026-01-26 10:37:32.19	291.87	49.22	-41.0	-43.7	12.3	2.01e-04	0	62	0	1277165568	53	4935
2026-01-26 10:37:33.20	292.40	49.04	-40.9	-43.5	12.5	1.33e-04	0	62	0	1280311296	53	4862
2026-01-26 10:37:34.21	292.92	48.86	-41.0	-43.7	12.3	1.57e-04	0	62	0	1283457024	53	4961
2026-01-26 10:37:35.22	293.44	48.68	-41.2	-44.1	11.9	3.18e-04	0	62	0	1286602752	53	5184
2026-01-26 10:37:36.23	293.95	48.49	-41.4	-44.4	11.6	7.32e-04	0	62	0	1289748480	53	5350
2026-01-26 10:37:37.25	294.45	48.30	-41.4	-44.4	11.5	7.64e-04	0	62	0	1292894208	53	5374
2026-01-26 10:37:38.26	294.95	48.12	-41.3	-44.3	11.6	7.03e-04	0	62	0	1296039936	53	5289
2026-01-26 10:37:39.26	295.44	47.93	-41.6	-44.8	11.1	9.90e-04	0	62	0	1299185664	53	5609
2026-01-26 10:37:40.27	295.92	47.74	-41.4	-44.4	11.5	1.14e-03	0	62	0	1302331392	53	5377
2026-01-26 10:37:41.28	296.40	47.55	-41.2	-44.1	11.9	5.42e-04	0	62	0	1305477120	53	5162
2026-01-26 10:37:42.29	296.88	47.35	-41.2	-43.9	12.0	3.36e-04	0	62	0	1308622848	53	5095
2026-01-26 10:37:43.30	297.34	47.16	-41.1	-43.8	12.1	2.82e-04	0	62	0	1311768576	53	5041
2026-01-26 10:37:44.31	297.81	46.96	-41.2	-44.1	11.8	3.97e-04	0	62	0	1314914304	53	5186
2026-01-26 10:37:45.32	298.26	46.77	-41.4	-44.5	11.4	7.42e-04	0	62	0	1318060032	53	5435
2026-01-26 10:37:46.33	298.71	46.57	-41.4	-44.4	11.5	9.41e-04	0	62	0	1321205760	53	5349
2026-01-26 10:37:47.34	299.16	46.37	-41.2	-44.1	11.8	4.83e-04	0	63	0	1324351488	53	5184
2026-01-26 10:37:48.35	299.60	46.17	-41.0	-43.8	12.2	3.25e-04	0	63	0	1327497216	53	5009
2026-01-26 10:37:49.36	300.03	45.97	-40.9	-43.5	12.4	1.44e-04	0	62	0	1330642944	53	4850
2026-01-26 10:37:50.37	300.46	45.77	-40.9	-43.6	12.3	1.47e-04	0	63	0	1333788672	53	4924
2026-01-26 10:37:51.38	300.88	45.57	-41.1	-43.9	12.1	2.75e-04	0	62	0	1336934400	53	5042
2026-01-26 10:37:52.39	301.30	45.37	-41.2	-44.1	11.8	4.64e-04	0	62	0	1340080128	53	5218
2026-01-26 10:37:53.40	301.71	45.16	-41.4	-44.4	11.5	7.11e-04	0	62	0	1343225856	53	5389
2026-01-26 10:37:54.41	302.12	44.96	-41.6	-44.7	11.2	1.34e-03	0	63	0	1346371584	53	5575
2026-01-26 10:37:55.42	302.52	44.76	-41.7	-44.9	11.0	1.87e-03	0	62	0	1349517312	53	5677
2026-01-26 10:37:56.43	302.92	44.55	-41.6	-44.7	11.1	1.43e-03	0	63	0	1352663040	53	5569
2026-01-26 10:37:57.44	303.31	44.35	-41.6	-44.7	11.2	1.20e-03	0	63	0	1355808768	53	5559
2026-01-26 10:37:58.45	303.70	44.14	-41.8	-45.0	10.8	2.02e-03	0	63	0	1358954496	54	5456
2026-01-26 10:37:59.46	304.08	43.94	-42.0	-45.5	10.4	3.91e-03	0	63	0	1362100224	54	5745
2026-01-26 10:38:00.47	304.46	43.73	-42.1	-45.6	10.2	6.17e-03	0	63	0	1366294528	54	5818
2026-01-26 10:38:01.48	304.83	43.53	-42.1	-45.7	10.2	6.99e-03	0	63	0	1368391680	54	5869
2026-01-26 10:38:02.49	305.20	43.32	-41.9	-45.3	10.5	4.52e-03	0	63	0	1371537408	54	5612
2026-01-26 10:38:03.50	305.56	43.11	-41.5	-44.6	11.3	1.78e-03	0	62	0	1374683136	54	5180
2026-01-26 10:38:04.51	305.92	42.91	-41.3	-44.3	11.6	7.82e-04	0	63	0	1377828864	54	4999
2026-01-26 10:38:05.52	306.27	42.70	-41.1	-43.9	12.0	4.24e-04	0	63	0	1382023168	54	4775
2026-01-26 10:38:06.53	306.62	42.50	-41.0	-43.8	12.0	2.48e-04	0	63	0	1385168896	54	4733
2026-01-26 10:38:07.54	306.97	42.29	-41.1	-43.9	12.0	3.36e-04	0	63	0	1388314624	54	4809
2026-01-26 10:38:08.55	307.31	42.08	-41.3	-44.3	11.5	5.93e-04	0	62	0	1390411776	54	5020
2026-01-26 10:38:09.56	307.65	41.88	-41.4	-44.4	11.4	7.03e-04	0	62	0	1393557504	54	5090
2026-01-26 10:38:10.57	307.98	41.67	-41.4	-44.3	11.6	7.54e-04	0	63	0	1397751808	54	5030
2026-01-26 10:38:11.58	308.31	41.46	-41.4	-44.4	11.4	9.47e-04	0	63	0	1400897536	54	5080
2026-01-26 10:38:12.59	308.63	41.26	-41.5	-44.6	11.3	1.11e-03	0	62	0	1404043264	54	5177
2026-01-26 10:38:13.61	308.95	41.05	-41.4	-44.4	11.5	8.45e-04	0	62	0	1407188992	54	5055
2026-01-26 10:38:14.61	309.27	40.85	-41.3	-44.3	11.5	7.84e-04	0	62	0	1410334720	54	5006
2026-01-26 10:38:15.63	309.58	40.64	-41.4	-44.4	11.4	9.00e-04	0	62	0	1413480448	54	5087
2026-01-26 10:38:16.64	309.89	40.44	-41.6	-44.7	11.1	1.39e-03	0	62	0	1416626176	54	5262
2026-01-26 10:38:17.65	310.19	40.23	-41.6	-44.8	11.1	1.85e-03	0	63	0	1419771904	54	5290
2026-01-26 10:38:18.65	310.49	40.03	-41.7	-44.9	11.0	1.85e-03	0	63	0	1422917632	54	5347
2026-01-26 10:38:19.66	310.79	39.82	-41.6	-44.8	11.0	1.89e-03	0	62	0	1426063360	54	5320
2026-01-26 10:38:20.67	311.08	39.62	-41.6	-44.7	11.1	1.69e-03	0	62	0	1429209088	54	5257
2026-01-26 10:38:21.68	311.37	39.42	-41.5	-44.7	11.2	1.65e-03	0	63	0	1432354816	54	5221
2026-01-26 10:38:22.69	311.66	39.21	-41.5	-44.5	11.3	1.09e-03	0	62	0	1435500544	54	5128
2026-01-26 10:38:23.71	311.94	39.01	-41.3	-44.2	11.7	7.35e-04	0	63	0	1438646272	54	4963
2026-01-26 10:38:24.72	312.22	38.81	-41.3	-44.2	11.7	6.06e-04	0	62	0	1441792000	54	4956
2026-01-26 10:38:25.73	312.50	38.61	-41.3	-44.3	11.6	7.65e-04	0	63	0	1444937728	54	4988
2026-01-26 10:38:26.73	312.77	38.41	-41.0	-43.8	12.1	3.23e-04	0	62	0	1448083456	54	4720
2026-01-26 10:38:27.74	313.04	38.21	-40.6	-43.1	12.8	1.06e-04	0	62	0	1451229184	53	4633
2026-01-26 10:38:28.75	313.30	38.01	-40.5	-43.0	12.9	4.73e-05	0	62	0	1454374912	53	4574
2026-01-26 10:38:29.76	313.57	37.81	-40.5	-42.9	13.0	3.50e-05	0	62	0	1457520640	52	4797
2026-01-26 10:38:30.77	313.83	37.61	-40.5	-43.0	12.9	4.34e-05	0	62	0	1460666368	52	4815
2026-01-26 10:38:31.78	314.08	37.41	-40.7	-43.3	12.5	8.85e-05	0	62	0	1463812096	52	5017
2026-01-26 10:38:32.79	314.34	37.21	-41.0	-43.7	12.1	2.42e-04	0	63	0	1466957824	52	5251
2026-01-26 10:38:33.80	314.59	37.02	-41.0	-43.8	12.0	2.98e-04	0	62	0	1470103552	52	5294
2026-01-26 10:38:34.81	314.83	36.82	-41.1	-43.9	11.9	3.59e-04	0	62	0	1473249280	52	5396
2026-01-26 10:38:35.82	315.08	36.62	-41.0	-43.8	12.1	3.51e-04	0	63	0	1476395008	52	5294
2026-01-26 10:38:36.83	315.32	36.43	-40.7	-43.3	12.5	1.46e-04	0	62	0	1479540736	52	5030
2026-01-26 10:38:37.84	315.56	36.23	-40.7	-43.2	12.6	8.01e-05	0	62	0	1482686464	52	4978
2026-01-26 10:38:38.85	315.80	36.04	-40.7	-43.4	12.4	1.14e-04	0	63	0	1485832192	52	5061
2026-01-26 10:38:39.86	316.03	35.85	-40.8	-43.4	12.4	1.71e-04	0	62	0	1488977920	52	5074
2026-01-26 10:38:40.87	316.26	35.65	-40.8	-43.5	12.3	1.65e-04	0	63	0	1492123648	52	5130
2026-01-26 10:38:41.88	316.49	35.46	-40.8	-43.5	12.3	1.69e-04	0	62	0	1495269376	52	5132
2026-01-26 10:38:42.89	316.71	35.27	-40.8	-43.5	12.2	2.39e-04	0	63	0	1498415104	52	5152
2026-01-26 10:38:43.91	316.94	35.08	-40.8	-43.5	12.3	2.23e-04	0	62	0	1501560832	52	5116
2026-01-26 10:38:44.92	317.16	34.89	-40.7	-43.3	12.5	1.15e-04	0	62	0	1504706560	52	5041
2026-01-26 10:38:45.92	317.37	34.70	-40.6	-43.2	12.6	9.76e-05	0	63	0	1507852288	52	4968
2026-01-26 10:38:46.93	317.59	34.51	-40.6	-43.2	12.7	9.30e-05	0	62	0	1510998016	52	4951
2026-01-26 10:38:47.94	317.80	34.32	-40.5	-42.9	12.9	4.88e-05	0	63	0	1514143744	52	4812
2026-01-26 10:38:48.95	318.01	34.14	-40.3	-42.7	13.1	2.74e-05	0	63	0	1517289472	52	4705
2026-01-26 10:38:49.96	318.22	33.95	-40.4	-42.9	13.0	3.12e-05	0	62	0	1520435200	52	4764
2026-01-26 10:38:50.97	318.43	33.76	-40.5	-43.1	12.8	6.10e-05	0	62	0	1523580928	52	4892
2026-01-26 10:38:51.98	318.63	33.58	-40.6	-43.1	12.7	6.94e-05	0	62	0	1526726656	52	4907
2026-01-26 10:38:52.99	318.83	33.39	-40.5	-43.0	12.9	6.86e-05	0	62	0	1529872384	52	4839
2026-01-26 10:38:54.00	319.03	33.21	-40.3	-42.6	13.2	2.36e-05	0	62	0	1533018112	52	4649
2026-01-26 10:38:55.01	319.23	33.03	-40.2	-42.5	13.4	1.44e-05	0	63	0	1536163840	52	4594
2026-01-26 10:38:56.02	319.42	32.84	-40.1	-42.4	13.4	1.22e-05	0	63	0	1539309568	52	4543
2026-01-26 10:38:57.03	319.61	32.66	-40.0	-42.3	13.5	1.06e-05	0	62	0	1542455296	52	4484
2026-01-26 10:38:58.04	319.81	32.48	-40.0	-42.4	13.5	1.06e-05	0	62	0	1545601024	52	4496
2026-01-26 10:38:59.05	319.99	32.30	-40.0	-42.3	13.5	1.14e-05	0	62	0	1548746752	52	4489
2026-01-26 10:39:00.06	320.18	32.12	-40.0	-42.4	13.5	1.14e-05	0	62	0	1551892480	52	4507
2026-01-26 10:39:01.07	320.36	31.95	-40.0	-42.2	13.7	3.00e-06	0	62	0	1555038208	51	4698
2026-01-26 10:39:02.08	320.55	31.77	-40.0	-42.2	13.7	4.50e-06	0	62	0	1558183936	51	4680
2026-01-26 10:39:03.09	320.73	31.59	-39.9	-42.1	13.9	4.50e-06	0	62	0	1561329664	51	4622
2026-01-26 10:39:04.10	320.91	31.42	-39.7	-41.8	14.1	2.20e-06	0	63	0	1564475392	51	4478
2026-01-26 10:39:05.11	321.08	31.24	-39.7	-41.9	14.1	7.00e-07	0	62	0	1567621120	51	4500
2026-01-26 10:39:06.12	321.26	31.07	-39.4	-41.5	14.5	7.00e-07	0	63	0	1570766848	50	4546
2026-01-26 10:39:07.13	321.43	30.89	-39.4	-41.4	14.6	7.00e-07	0	62	0	1573912576	50	4506
2026-01-26 10:39:08.14	321.60	30.72	-39.4	-41.5	14.5	0.00e+00	0	63	0	1577058304	50	4549
2026-01-26 10:39:09.16	321.77	30.55	-39.5	-41.5	14.4	7.00e-07	0	62	0	1580204032	50	4593
2026-01-26 10:39:10.17	321.94	30.37	-39.7	-41.8	14.2	7.00e-07	0	63	0	1583349760	50	4715
2026-01-26 10:39:11.18	322.11	30.20	-39.7	-41.9	14.1	2.20e-06	0	62	0	1586495488	50	4760
2026-01-26 10:39:12.19	322.27	30.03	-39.9	-42.1	13.8	6.10e-06	0	62	0	1589641216	50	4904
2026-01-26 10:39:13.19	322.43	29.87	-39.9	-42.2	13.7	4.50e-06	0	62	0	1592786944	50	4953
2026-01-26 10:39:14.21	322.60	29.70	-40.0	-42.3	13.6	6.80e-06	0	62	0	1595932672	50	5015
2026-01-26 10:39:15.22	322.75	29.53	-40.1	-42.4	13.4	1.14e-05	0	62	0	1599078400	50	5086
2026-01-26 10:39:16.22	322.91	29.36	-40.0	-42.3	13.6	8.30e-06	0	63	0	1602224128	50	5004
2026-01-26 10:39:17.23	323.07	29.20	-40.0	-42.3	13.6	8.30e-06	0	63	0	1605369856	50	5004
2026-01-26 10:39:18.24	323.22	29.03	-40.0	-42.2	13.7	8.30e-06	0	62	0	1608515584	50	4982
2026-01-26 10:39:19.26	323.38	28.87	-39.7	-41.9	14.0	3.80e-06	0	62	0	1611661312	50	4806
2026-01-26 10:39:20.27	323.53	28.70	-39.7	-41.9	14.1	1.50e-06	0	62	0	1614807040	50	4767
2026-01-26 10:39:21.27	323.68	28.54	-39.6	-41.8	14.2	7.00e-07	0	63	0	1617952768	50	4713
2026-01-26 10:39:22.28	323.83	28.38	-39.7	-41.8	14.1	2.20e-06	0	63	0	1621098496	50	4733
2026-01-26 10:39:23.29	323.97	28.22	-39.6	-41.7	14.3	7.00e-07	0	62	0	1624244224	50	4659
2026-01-26 10:39:24.31	324.12	28.05	-39.7	-41.8	14.1	3.00e-06	0	62	0	1627389952	50	4742
2026-01-26 10:39:25.32	324.26	27.89	-39.7	-41.8	14.1	3.00e-06	0	62	0	1630535680	50	4751
2026-01-26 10:39:26.33	324.41	27.73	-39.7	-41.8	14.1	3.00e-06	0	62	0	1633681408	50	4742
2026-01-26 10:39:27.34	324.55	27.58	-39.7	-41.8	14.1	2.20e-06	0	62	0	1636827136	50	4753
2026-01-26 10:39:28.35	324.69	27.42	-39.6	-41.8	14.1	3.00e-06	0	63	0	1639972864	50	4712
2026-01-26 10:39:29.36	324.83	27.26	-39.5	-41.6	14.4	7.00e-07	0	62	0	1643118592	50	4601
2026-01-26 10:39:30.37	324.97	27.10	-39.5	-41.6	14.3	0.00e+00	0	63	0	1646264320	50	4608
2026-01-26 10:39:31.38	325.10	26.95	-39.6	-41.7	14.2	0.00e+00	0	63	0	1649410048	50	4658
2026-01-26 10:39:32.39	325.24	26.79	-39.6	-41.7	14.2	7.00e-07	0	63	0	1652555776	50	4670
2026-01-26 10:39:33.40	325.37	26.64	-39.6	-41.7	14.2	1.50e-06	0	62	0	1655701504	50	4675
2026-01-26 10:39:34.41	325.50	26.49	-39.6	-41.7	14.1	7.00e-07	0	63	0	1658847232	50	4701
2026-01-26 10:39:35.42	325.63	26.33	-39.6	-41.7	14.2	5.30e-06	0	62	0	1661992960	50	4679
2026-01-26 10:39:36.43	325.76	26.18	-39.6	-41.8	14.1	1.50e-06	0	62	0	1665138688	50	4711
2026-01-26 10:39:37.44	325.89	26.03	-39.6	-41.7	14.1	1.50e-06	0	62	0	1668284416	50	4683
2026-01-26 10:39:38.45	326.02	25.88	-39.6	-41.8	14.1	3.00e-06	0	62	0	1671430144	50	4712
2026-01-26 10:39:39.46	326.15	25.73	-39.7	-41.8	14.0	3.00e-06	0	62	0	1674575872	50	4752
2026-01-26 10:39:40.47	326.27	25.58	-39.6	-41.8	14.1	1.50e-06	0	62	0	1678770176	50	4713
2026-01-26 10:39:41.48	326.40	25.43	-39.6	-41.7	14.2	1.50e-06	0	62	0	1680867328	50	4690
2026-01-26 10:39:42.49	326.52	25.28	-39.6	-41.8	14.1	2.20e-06	0	62	0	1684013056	50	4719
2026-01-26 10:39:43.50	326.64	25.14	-39.7	-41.8	14.1	5.30e-06	0	62	0	1687158784	50	4743
2026-01-26 10:39:44.51	326.76	24.99	-39.5	-41.7	14.2	7.00e-07	0	62	0	1690304512	50	4659
2026-01-26 10:39:45.53	326.88	24.84	-39.6	-41.7	14.2	3.80e-06	0	62	0	1694498816	50	4673
2026-01-26 10:39:46.54	327.00	24.70	-39.6	-41.8	14.1	4.50e-06	0	62	0	1697644544	50	4706
2026-01-26 10:39:47.55	327.12	24.55	-39.5	-41.6	14.2	2.20e-06	0	62	0	1700790272	50	4651
2026-01-26 10:39:48.56	327.24	24.41	-39.6	-41.7	14.2	7.00e-07	0	63	0	1703936000	50	4666
2026-01-26 10:39:49.57	327.35	24.27	-39.7	-41.9	13.9	1.50e-06	0	63	0	1706033152	50	4761
2026-01-26 10:39:50.57	327.47	24.13	-39.7	-41.9	13.9	3.80e-06	0	62	0	1710227456	50	4763
2026-01-26 10:39:51.58	327.58	23.98	-39.7	-41.9	13.9	4.50e-06	0	62	0	1713373184	50	4801
2026-01-26 10:39:52.59	327.69	23.84	-39.8	-42.0	13.8	6.10e-06	0	62	0	1716518912	50	4859
2026-01-26 10:39:53.60	327.80	23.70	-39.7	-41.9	13.9	5.30e-06	0	63	0	1719664640	50	4799
2026-01-26 10:39:54.62	327.92	23.56	-39.6	-41.8	14.0	2.20e-06	0	62	0	1722810368	50	4744
2026-01-26 10:39:55.63	328.03	23.42	-39.6	-41.8	14.0	3.80e-06	0	62	0	1725956096	50	4732
2026-01-26 10:39:56.64	328.13	23.29	-39.6	-41.8	14.0	3.80e-06	0	62	0	1729101824	50	4735
2026-01-26 10:39:57.65	328.24	23.15	-39.6	-41.8	14.0	6.10e-06	0	62	0	1732247552	50	4708
2026-01-26 10:39:58.65	328.35	23.01	-39.6	-41.7	14.1	3.00e-06	0	63	0	1735393280	50	4681
2026-01-26 10:39:59.66	328.46	22.87	-39.5	-41.7	14.1	4.50e-06	0	62	0	1738539008	50	4653
2026-01-26 10:40:00.67	328.56	22.74	-39.5	-41.7	14.1	0.00e+00	0	62	0	1741684736	50	4655
2026-01-26 10:40:01.68	328.66	22.60	-39.5	-41.6	14.2	2.20e-06	0	62	0	1744830464	50	4631
2026-01-26 10:40:02.69	328.77	22.47	-39.4	-41.5	14.2	1.50e-06	0	62	0	1747976192	50	4595
2026-01-26 10:40:03.71	328.87	22.33	-39.5	-41.6	14.2	1.50e-06	0	62	0	1751121920	50	4612
2026-01-26 10:40:04.72	328.97	22.20	-39.6	-41.7	14.0	1.50e-06	0	62	0	1754267648	50	4674
2026-01-26 10:40:05.73	329.07	22.07	-39.5	-41.7	14.1	3.00e-06	0	62	0	1757413376	50	4661
2026-01-26 10:40:06.74	329.18	21.94	-39.6	-41.7	14.0	4.50e-06	0	62	0	1760559104	50	4702
2026-01-26 10:40:07.75	329.27	21.80	-39.5	-41.7	14.0	7.00e-07	0	62	0	1763704832	50	4673
2026-01-26 10:40:08.76	329.37	21.67	-39.6	-41.8	13.9	3.00e-06	0	62	0	1766850560	50	4736
2026-01-26 10:40:09.77	329.47	21.54	-39.7	-41.9	13.8	2.20e-06	0	62	0	1769996288	50	4803
2026-01-26 10:40:10.78	329.57	21.41	-39.7	-41.9	13.8	5.30e-06	0	62	0	1773142016	50	4781
2026-01-26 10:40:11.79	329.66	21.28	-39.7	-42.0	13.8	5.30e-06	0	62	0	1776287744	50	4815
2026-01-26 10:40:12.80	329.76	21.16	-39.7	-41.9	13.8	8.30e-06	0	62	0	1779433472	50	4808
2026-01-26 10:40:13.81	329.85	21.03	-39.7	-42.0	13.7	7.60e-06	0	62	0	1782579200	50	4834
2026-01-26 10:40:14.83	329.95	20.90	-39.7	-41.9	13.8	2.20e-06	0	62	0	1785724928	50	4812
2026-01-26 10:40:15.84	330.04	20.77	-39.7	-41.9	13.8	3.00e-06	0	63	0	1788870656	50	4810
2026-01-26 10:40:16.85	330.14	20.65	-39.8	-42.1	13.6	5.30e-06	0	62	0	1792016384	50	4878
2026-01-26 10:40:17.86	330.23	20.52	-39.8	-42.0	13.7	9.10e-06	0	62	0	1795162112	50	4862
2026-01-26 10:40:18.87	330.32	20.39	-39.8	-42.1	13.5	6.80e-06	0	62	0	1798307840	50	4925
2026-01-26 10:40:19.88	330.41	20.27	-39.8	-42.2	13.5	1.37e-05	0	62	0	1801453568	50	4936
2026-01-26 10:40:20.89	330.50	20.15	-39.9	-42.3	13.4	1.44e-05	0	62	0	1804599296	50	4997
2026-01-26 10:40:21.90	330.59	20.02	-40.0	-42.4	13.3	1.22e-05	0	62	0	1807745024	50	5050
2026-01-26 10:40:22.91	330.68	19.90	-39.9	-42.3	13.3	1.14e-05	0	62	0	1810890752	50	5020
2026-01-26 10:40:23.92	330.76	19.78	-39.9	-42.3	13.3	2.36e-05	0	62	0	1814036480	50	5011
2026-01-26 10:40:24.93	330.85	19.66	-39.9	-42.3	13.4	2.13e-05	0	63	0	1817182208	50	5009
2026-01-26 10:40:25.94	330.94	19.53	-39.8	-42.2	13.5	1.06e-05	0	62	0	1820327936	50	4931
2026-01-26 10:40:26.95	331.02	19.41	-39.9	-42.2	13.4	1.29e-05	0	62	0	1823473664	50	4966
2026-01-26 10:40:27.96	331.11	19.29	-39.9	-42.2	13.4	1.37e-05	0	62	0	1826619392	50	4977
2026-01-26 10:40:28.97	331.19	19.17	-39.7	-42.0	13.6	8.30e-06	0	62	0	1829765120	50	4851
2026-01-26 10:40:29.98	331.28	19.05	-39.6	-41.8	13.8	6.10e-06	0	62	0	1832910848	50	4753
2026-01-26 10:40:30.99	331.36	18.94	-39.6	-41.8	13.8	6.80e-06	0	63	0	1836056576	50	4730
2026-01-26 10:40:32.00	331.44	18.82	-39.6	-41.9	13.7	3.80e-06	0	62	0	1839202304	50	4800
2026-01-26 10:40:33.01	331.52	18.70	-39.6	-41.8	13.7	2.20e-06	0	62	0	1842348032	50	4751
2026-01-26 10:40:34.02	331.60	18.58	-39.6	-41.8	13.7	7.60e-06	0	63	0	1845493760	50	4739
2026-01-26 10:40:35.03	331.69	18.47	-39.6	-41.9	13.7	9.90e-06	0	62	0	1848639488	50	4767
2026-01-26 10:40:36.04	331.77	18.35	-39.6	-41.8	13.7	5.30e-06	0	62	0	1851785216	50	4726
2026-01-26 10:40:37.05	331.84	18.23	-39.6	-41.9	13.7	8.30e-06	0	62	0	1854930944	50	4765
2026-01-26 10:40:38.05	331.92	18.12	-39.7	-42.0	13.6	6.10e-06	0	62	0	1858076672	50	4816
2026-01-26 10:40:39.06	332.00	18.00	-39.5	-41.7	13.8	6.10e-06	0	62	0	1861222400	50	4693
2026-01-26 10:40:40.08	332.08	17.89	-39.5	-41.7	13.8	6.10e-06	0	62	0	1864368128	50	4705
2026-01-26 10:40:41.09	332.16	17.78	-39.5	-41.6	13.9	6.80e-06	0	62	0	1867513856	50	4649
2026-01-26 10:40:42.10	332.23	17.66	-39.5	-41.7	13.8	4.50e-06	0	62	0	1870659584	50	4685
2026-01-26 10:40:43.11	332.31	17.55	-39.5	-41.7	13.8	3.80e-06	0	62	0	1873805312	50	4658
2026-01-26 10:40:44.12	332.39	17.44	-39.5	-41.8	13.7	3.00e-06	0	62	0	1876951040	50	4718
2026-01-26 10:40:45.13	332.46	17.33	-39.6	-41.8	13.7	6.10e-06	0	62	0	1880096768	50	4729
2026-01-26 10:40:46.14	332.54	17.21	-39.5	-41.7	13.8	4.50e-06	0	62	0	1883242496	50	4695
2026-01-26 10:40:47.15	332.61	17.10	-39.5	-41.7	13.8	4.50e-06	0	63	0	1886388224	50	4669
2026-01-26 10:40:48.16	332.68	16.99	-39.5	-41.8	13.7	4.50e-06	0	62	0	1889533952	50	4714
2026-01-26 10:40:49.17	332.76	16.88	-39.5	-41.8	13.7	6.80e-06	0	62	0	1892679680	50	4734
2026-01-26 10:40:50.18	332.83	16.77	-39.5	-41.7	13.7	3.80e-06	0	62	0	1895825408	50	4694
2026-01-26 10:40:51.19	332.90	16.66	-39.6	-41.8	13.7	7.60e-06	0	62	0	1898971136	50	4747
2026-01-26 10:40:52.20	332.97	16.56	-39.7	-42.0	13.4	1.22e-05	0	62	0	1902116864	50	4840
2026-01-26 10:40:53.21	333.05	16.45	-39.6	-41.9	13.5	1.14e-05	0	62	0	1905262592	50	4799
2026-01-26 10:40:54.22	333.12	16.34	-39.6	-42.0	13.5	1.14e-05	0	62	0	1908408320	50	4825
2026-01-26 10:40:55.23	333.19	16.23	-39.7	-42.1	13.3	1.06e-05	0	62	0	1911554048	50	4886
2026-01-26 10:40:56.25	333.26	16.12	-39.8	-42.2	13.2	2.05e-05	0	62	0	1914699776	50	4945
2026-01-26 10:40:57.25	333.33	16.02	-39.8	-42.3	13.2	2.28e-05	0	62	0	1917845504	50	4990
2026-01-26 10:40:58.26	333.39	15.91	-39.9	-42.3	13.1	2.89e-05	0	62	0	1920991232	50	5028
2026-01-26 10:40:59.28	333.46	15.81	-39.9	-42.4	13.0	3.58e-05	0	62	0	1924136960	50	5057
2026-01-26 10:41:00.29	333.53	15.70	-40.0	-42.4	12.9	4.80e-05	0	62	0	1927282688	50	5091
2026-01-26 10:41:01.30	333.60	15.60	-39.9	-42.4	12.9	5.11e-05	0	62	0	1930428416	50	5074
2026-01-26 10:41:02.31	333.67	15.49	-40.0	-42.5	12.8	4.73e-05	0	62	0	1933574144	50	5114
2026-01-26 10:41:03.32	333.73	15.39	-40.1	-42.6	12.7	8.39e-05	0	62	0	1936719872	50	5209
2026-01-26 10:41:04.33	333.80	15.29	-40.1	-42.7	12.7	8.54e-05	0	62	0	1939865600	50	5220
2026-01-26 10:41:05.34	333.86	15.18	-40.1	-42.6	12.7	7.40e-05	0	62	0	1943011328	50	5217
2026-01-26 10:41:06.35	333.93	15.08	-40.1	-42.7	12.6	1.09e-04	0	62	0	1946157056	50	5268
2026-01-26 10:41:07.36	333.99	14.98	-40.2	-42.9	12.4	1.19e-04	0	62	0	1949302784	50	5360
2026-01-26 10:41:08.37	334.06	14.88	-40.1	-42.8	12.5	1.07e-04	0	62	0	1952448512	50	5284
2026-01-26 10:41:09.38	334.12	14.77	-40.1	-42.8	12.5	1.15e-04	0	62	0	1955594240	50	5299
2026-01-26 10:41:10.39	334.19	14.67	-40.1	-42.7	12.5	1.17e-04	0	62	0	1958739968	50	5277
2026-01-26 10:41:11.40	334.25	14.57	-40.1	-42.8	12.4	1.50e-04	0	62	0	1961885696	50	5318
2026-01-26 10:41:12.42	334.31	14.47	-40.2	-42.8	12.4	1.42e-04	0	62	0	1965031424	50	5340
2026-01-26 10:41:13.43	334.38	14.37	-40.2	-42.9	12.4	1.52e-04	0	62	0	1969225728	50	5350
2026-01-26 10:41:14.44	334.44	14.27	-40.2	-42.8	12.4	1.85e-04	0	62	0	1972371456	51	5039
2026-01-26 10:41:15.45	334.50	14.17	-40.1	-42.8	12.4	1.59e-04	0	63	0	1974468608	51	5011
2026-01-26 10:41:16.46	334.56	14.07	-40.1	-42.8	12.4	1.45e-04	0	62	0	1977614336	51	5008
2026-01-26 10:41:17.47	334.62	13.98	-40.2	-42.9	12.3	2.04e-04	0	62	0	1980760064	51	5062
2026-01-26 10:41:18.48	334.68	13.88	-40.1	-42.9	12.3	2.07e-04	0	62	0	1984954368	51	5072
2026-01-26 10:41:19.49	334.74	13.78	-40.2	-42.9	12.2	2.07e-04	0	62	0	1988100096	51	5091
2026-01-26 10:41:20.50	334.80	13.68	-40.2	-43.0	12.1	2.39e-04	0	62	0	1991245824	51	5131
2026-01-26 10:41:21.51	334.86	13.59	-40.1	-43.0	12.1	2.69e-04	0	62	0	1994391552	51	5101
2026-01-26 10:41:22.52	334.92	13.49	-40.1	-42.9	12.2	1.96e-04	0	62	0	1997537280	51	5060
2026-01-26 10:41:23.53	334.98	13.39	-40.1	-42.9	12.1	2.59e-04	0	62	0	2000683008	51	5094
2026-01-26 10:41:24.54	335.04	13.30	-40.2	-43.0	12.0	2.73e-04	0	62	0	2003828736	51	5154
2026-01-26 10:41:25.56	335.10	13.20	-40.1	-42.9	12.1	3.24e-04	0	62	0	2006974464	51	5086
2026-01-26 10:41:26.57	335.16	13.11	-40.0	-42.9	12.2	2.09e-04	0	62	0	2010120192	51	5042
2026-01-26 10:41:27.58	335.21	13.01	-40.0	-42.8	12.2	2.30e-04	0	62	0	2013265920	51	5027
2026-01-26 10:41:28.59	335.27	12.92	-40.1	-43.0	12.0	2.73e-04	0	62	0	2016411648	51	5130
2026-01-26 10:41:29.60	335.33	12.82	-40.2	-43.1	11.9	3.28e-04	0	62	0	2019557376	51	5170
2026-01-26 10:41:30.61	335.38	12.73	-40.3	-43.2	11.7	4.92e-04	0	62	0	2022703104	51	5240
2026-01-26 10:41:31.62	335.44	12.63	-40.3	-43.2	11.7	5.49e-04	0	62	0	2025848832	51	5227
2026-01-26 10:41:32.63	335.50	12.54	-40.2	-43.1	11.8	4.96e-04	0	62	0	2028994560	51	5203
2026-01-26 10:41:33.64	335.55	12.45	-40.2	-43.1	11.8	4.49e-04	0	62	0	2032140288	51	5176
2026-01-26 10:41:34.65	335.61	12.36	-40.3	-43.2	11.7	5.58e-04	0	62	0	2035286016	51	5271
2026-01-26 10:41:35.66	335.66	12.26	-40.3	-43.2	11.6	7.48e-04	0	62	0	2038431744	51	5271
2026-01-26 10:41:36.67	335.72	12.17	-40.3	-43.3	11.5	7.50e-04	0	62	0	2041577472	51	5336
2026-01-26 10:41:37.68	335.77	12.08	-40.4	-43.5	11.3	1.11e-03	0	62	0	2044723200	51	5457
2026-01-26 10:41:38.69	335.82	11.99	-40.3	-43.4	11.4	9.74e-04	0	63	0	2047868928	51	5353
2026-01-26 10:41:39.70	335.88	11.90	-40.3	-43.3	11.5	8.03e-04	0	62	0	2051014656	51	5292
2026-01-26 10:41:40.71	335.93	11.81	-40.2	-43.2	11.6	5.83e-04	0	62	0	2054160384	51	5227
2026-01-26 10:41:41.72	335.98	11.72	-40.3	-43.3	11.5	7.99e-04	0	62	0	2057306112	51	5282
2026-01-26 10:41:42.74	336.04	11.63	-40.2	-43.2	11.5	8.11e-04	0	63	0	2060451840	51	5256
2026-01-26 10:41:43.74	336.09	11.54	-40.3	-43.3	11.4	9.40e-04	0	62	0	2063597568	51	5315
2026-01-26 10:41:44.76	336.14	11.45	-40.4	-43.5	11.2	1.25e-03	0	62	0	2066743296	51	5408
2026-01-26 10:41:45.77	336.19	11.36	-40.4	-43.6	11.1	1.56e-03	0	62	0	2069889024	51	5510
2026-01-26 10:41:46.78	336.24	11.27	-40.5	-43.7	10.9	2.09e-03	0	63	0	2073034752	51	5574
