passes_logs/2026/01/26/R2.0S_Moscow/R2.0S_Moscow__20260126_215012_NOAA_20_JPSS-1_rec.log

#Pass ID: 20260126_215012_NOAA 20 (JPSS-1)
#Satellite: NOAA 20 (JPSS-1)
#Configuration: NOAA 20
#almurnet v.1.7.20251203
#Start time: 2026-01-26 21:50:12

#Version: 2.2.20231116
#Station: R2.0S_Moscow
#Location: 37.707566 lon 55.798166 lat
#TLE: 1 43013U 17073A   26026.46665230  .00000148  00000+0  91302-4 0  9998
#TLE: 2 43013  98.7646 327.2856 0001008  22.9532 337.1688 14.19540616424360

#Time	Az	El	Level	Level2	SNR	BER	BlckErr	Temp	State	Recorded	gain1	gain2
2026-01-26 21:50:12.12	28.42	2.00	-44.7	-59.3	3.8	1.49e+00	0	52	0	0	60	20049
2026-01-26 21:50:13.13	28.50	2.05	-44.7	-59.4	3.8	1.49e+00	0	52	104	0	61	18978
2026-01-26 21:50:14.15	28.59	2.10	-44.7	-59.3	3.8	1.49e+00	0	52	104	0	61	18886
2026-01-26 21:50:15.16	28.68	2.15	-44.7	-59.3	3.8	1.49e+00	0	52	104	0	61	18913
2026-01-26 21:50:16.17	28.77	2.20	-44.7	-59.3	3.8	1.49e+00	0	53	104	0	60	20070
2026-01-26 21:50:17.18	28.86	2.25	-44.7	-59.4	3.8	1.49e+00	0	53	104	0	60	20087
2026-01-26 21:50:18.19	28.94	2.30	-44.7	-59.4	3.8	1.49e+00	0	53	104	0	60	20109
2026-01-26 21:50:19.20	29.03	2.35	-44.7	-59.4	3.8	1.49e+00	0	53	104	0	60	20075
2026-01-26 21:50:20.21	29.12	2.40	-44.7	-59.3	3.8	1.49e+00	0	53	104	0	60	20048
2026-01-26 21:50:21.22	29.21	2.45	-44.8	-59.3	3.8	1.49e+00	0	53	104	0	60	20022
2026-01-26 21:50:22.23	29.30	2.50	-44.7	-59.3	3.8	1.49e+00	0	53	104	0	60	20035
2026-01-26 21:50:23.24	29.39	2.55	-44.7	-59.4	3.8	1.49e+00	0	53	104	0	60	20111
2026-01-26 21:50:24.25	29.48	2.61	-44.7	-59.4	3.8	1.49e+00	0	53	104	0	60	20081
2026-01-26 21:50:25.26	29.57	2.66	-44.8	-59.4	3.8	1.49e+00	0	53	104	0	60	20111
2026-01-26 21:50:26.27	29.66	2.71	-44.8	-59.4	3.8	1.49e+00	0	53	104	0	60	20103
2026-01-26 21:50:27.28	29.75	2.76	-44.8	-59.4	3.8	1.49e+00	0	53	104	0	60	20108
2026-01-26 21:50:28.29	29.84	2.81	-44.7	-59.3	3.8	1.49e+00	0	53	104	0	60	20012
2026-01-26 21:50:29.30	29.93	2.86	-44.8	-59.4	3.8	1.49e+00	0	54	104	0	60	20097
2026-01-26 21:50:30.31	30.02	2.91	-44.8	-59.3	3.8	1.49e+00	0	54	104	0	60	20062
2026-01-26 21:50:31.32	30.12	2.96	-44.8	-59.4	3.8	1.49e+00	0	54	104	0	60	20103
2026-01-26 21:50:32.33	30.21	3.01	-44.8	-59.4	3.8	1.49e+00	0	54	104	0	60	20084
2026-01-26 21:50:33.34	30.30	3.06	-44.8	-59.4	3.8	1.49e+00	0	54	104	0	60	20121
2026-01-26 21:50:34.35	30.39	3.11	-44.8	-59.3	3.8	1.49e+00	0	54	104	0	60	20071
2026-01-26 21:50:35.36	30.49	3.16	-44.8	-59.4	3.8	1.49e+00	0	54	104	0	60	20139
2026-01-26 21:50:36.37	30.58	3.21	-44.8	-59.4	3.8	1.49e+00	0	54	104	0	60	20198
2026-01-26 21:50:37.39	30.68	3.26	-44.8	-59.4	3.8	1.49e+00	0	54	104	0	60	20108
2026-01-26 21:50:38.40	30.77	3.31	-44.8	-59.3	3.8	1.49e+00	0	54	104	0	60	20052
2026-01-26 21:50:39.41	30.86	3.37	-44.8	-59.4	3.8	1.49e+00	0	54	104	0	60	20096
2026-01-26 21:50:40.42	30.96	3.42	-44.8	-59.4	3.8	1.49e+00	0	54	104	0	60	20082
2026-01-26 21:50:41.43	31.05	3.47	-44.8	-59.4	3.8	1.49e+00	0	54	104	0	60	20098
2026-01-26 21:50:42.44	31.15	3.52	-44.8	-59.4	3.8	1.49e+00	0	54	104	0	60	20146
2026-01-26 21:50:43.45	31.24	3.57	-44.8	-59.4	3.8	1.49e+00	0	54	104	0	60	20205
2026-01-26 21:50:44.46	31.34	3.62	-44.8	-59.4	3.8	1.49e+00	0	55	104	0	60	20113
2026-01-26 21:50:45.47	31.44	3.67	-44.8	-59.4	3.8	1.49e+00	0	55	104	0	60	20167
2026-01-26 21:50:46.48	31.53	3.72	-44.8	-59.4	3.8	1.49e+00	0	55	104	0	60	20184
2026-01-26 21:50:47.49	31.63	3.77	-44.8	-59.4	3.8	1.49e+00	0	55	104	0	60	20198
2026-01-26 21:50:48.50	31.73	3.83	-44.8	-59.4	3.8	1.49e+00	0	55	104	0	60	20195
2026-01-26 21:50:49.51	31.83	3.88	-44.8	-59.4	3.8	1.49e+00	0	55	104	0	60	20186
2026-01-26 21:50:50.52	31.92	3.93	-44.8	-59.4	3.8	1.49e+00	0	55	104	0	60	20172
2026-01-26 21:50:51.53	32.02	3.98	-44.8	-59.4	3.8	1.49e+00	0	55	104	0	60	20152
2026-01-26 21:50:52.54	32.12	4.03	-44.8	-59.4	3.8	1.49e+00	0	55	104	0	60	20140
2026-01-26 21:50:53.55	32.22	4.08	-44.8	-59.4	3.8	1.49e+00	0	55	104	0	60	20202
2026-01-26 21:50:54.56	32.32	4.13	-44.8	-59.4	3.8	1.49e+00	0	55	104	0	60	20178
2026-01-26 21:50:55.57	32.42	4.19	-44.8	-59.4	3.8	1.49e+00	0	55	104	0	60	20162
2026-01-26 21:50:56.58	32.52	4.24	-44.8	-59.4	3.8	1.49e+00	0	55	104	0	60	20206
2026-01-26 21:50:57.60	32.62	4.29	-44.8	-59.4	3.8	1.49e+00	0	55	104	0	60	20167
2026-01-26 21:50:58.61	32.72	4.34	-44.8	-59.4	3.8	1.49e+00	0	55	104	0	60	20206
2026-01-26 21:50:59.62	32.82	4.39	-44.8	-59.4	3.8	1.49e+00	0	56	104	0	60	20210
2026-01-26 21:51:00.63	32.92	4.44	-44.8	-59.4	3.8	1.49e+00	0	56	104	0	60	20217
2026-01-26 21:51:01.64	33.02	4.49	-44.8	-59.4	3.8	1.49e+00	0	55	104	0	60	20280
2026-01-26 21:51:02.65	33.13	4.55	-44.8	-59.4	3.8	1.49e+00	0	56	104	0	60	20213
2026-01-26 21:51:03.66	33.23	4.60	-44.8	-59.4	3.8	1.49e+00	0	55	104	0	60	20242
2026-01-26 21:51:04.67	33.33	4.65	-44.8	-59.5	3.8	1.49e+00	0	56	104	0	60	20321
2026-01-26 21:51:05.68	33.43	4.70	-44.8	-59.4	3.8	1.49e+00	0	56	104	0	60	20211
2026-01-26 21:51:06.69	33.54	4.75	-44.8	-59.4	3.8	1.49e+00	0	56	104	0	60	20236
2026-01-26 21:51:07.70	33.64	4.81	-44.8	-59.4	3.8	1.49e+00	0	56	104	0	60	20247
2026-01-26 21:51:08.71	33.74	4.86	-44.8	-59.4	3.8	1.49e+00	0	56	104	0	60	20139
2026-01-26 21:51:09.72	33.85	4.91	-44.8	-59.4	3.8	1.49e+00	0	56	104	0	60	20247
2026-01-26 21:51:10.73	33.95	4.96	-44.8	-59.4	3.8	1.49e+00	0	56	104	0	60	20182
2026-01-26 21:51:11.74	34.06	5.01	-44.8	-59.4	3.8	1.49e+00	0	56	104	0	60	20239
2026-01-26 21:51:12.75	34.16	5.06	-44.8	-59.4	3.8	1.49e+00	0	56	104	0	60	20285
2026-01-26 21:51:13.76	34.27	5.12	-44.8	-59.4	3.8	1.49e+00	0	56	104	0	60	20278
2026-01-26 21:51:14.77	34.38	5.17	-44.8	-59.4	3.8	1.49e+00	0	56	104	0	60	20196
2026-01-26 21:51:15.78	34.48	5.22	-44.8	-59.4	3.8	1.49e+00	0	56	104	0	60	20269
2026-01-26 21:51:16.79	34.59	5.27	-44.8	-59.4	3.8	1.49e+00	0	56	104	0	60	20202
2026-01-26 21:51:17.80	34.70	5.32	-44.8	-59.5	3.8	1.49e+00	0	56	104	0	60	20317
2026-01-26 21:51:18.81	34.80	5.38	-44.8	-59.5	3.8	1.49e+00	0	57	104	0	60	20315
2026-01-26 21:51:19.82	34.91	5.43	-44.8	-59.4	3.8	1.49e+00	0	56	104	0	60	20269
2026-01-26 21:51:20.83	35.02	5.48	-44.8	-59.4	3.8	1.49e+00	0	57	104	0	60	20290
2026-01-26 21:51:21.84	35.13	5.53	-44.8	-59.4	3.8	1.49e+00	0	57	104	0	60	20211
2026-01-26 21:51:22.86	35.24	5.59	-44.8	-59.5	3.8	1.49e+00	0	57	104	0	60	20346
2026-01-26 21:51:23.87	35.35	5.64	-44.8	-59.5	3.8	1.49e+00	0	57	104	0	60	20374
2026-01-26 21:51:24.88	35.46	5.69	-44.8	-59.4	3.8	1.49e+00	0	56	104	0	60	20289
2026-01-26 21:51:25.89	35.57	5.74	-44.8	-59.4	3.8	1.49e+00	0	57	104	0	60	20287
2026-01-26 21:51:26.90	35.68	5.79	-44.8	-59.4	3.8	1.49e+00	0	56	104	0	60	20292
2026-01-26 21:51:27.91	35.79	5.85	-44.8	-59.5	3.8	1.49e+00	0	57	104	0	60	20313
2026-01-26 21:51:28.92	35.90	5.90	-44.9	-59.5	3.8	1.49e+00	0	57	104	0	60	20395
2026-01-26 21:51:29.93	36.01	5.95	-44.8	-59.5	3.8	1.49e+00	0	57	104	0	60	20345
2026-01-26 21:51:30.94	36.13	6.00	-44.8	-59.5	3.8	1.49e+00	0	57	104	0	60	20331
2026-01-26 21:51:31.95	36.24	6.05	-44.9	-59.4	3.8	1.49e+00	0	57	104	0	60	20244
2026-01-26 21:51:32.96	36.35	6.11	-44.9	-59.5	3.8	1.49e+00	0	57	104	0	60	20386
2026-01-26 21:51:33.97	36.46	6.16	-44.8	-59.5	3.8	1.49e+00	0	57	104	0	60	20343
2026-01-26 21:51:34.98	36.58	6.21	-44.9	-59.5	3.8	1.49e+00	0	57	104	0	60	20358
2026-01-26 21:51:35.99	36.69	6.26	-44.9	-59.5	3.8	1.49e+00	0	57	104	0	60	20335
2026-01-26 21:51:37.00	36.81	6.32	-44.9	-59.5	3.8	1.49e+00	0	57	104	0	60	20374
2026-01-26 21:51:38.01	36.92	6.37	-44.9	-59.5	3.8	1.49e+00	0	57	104	0	60	20317
2026-01-26 21:51:39.03	37.04	6.42	-44.9	-59.5	3.8	1.49e+00	0	57	104	0	60	20391
2026-01-26 21:51:40.03	37.15	6.47	-44.9	-59.5	3.8	1.49e+00	0	57	104	0	60	20362
2026-01-26 21:51:41.04	37.27	6.53	-44.9	-59.5	3.8	1.49e+00	0	57	104	0	60	20386
2026-01-26 21:51:42.05	37.38	6.58	-44.9	-59.5	3.8	1.49e+00	0	57	104	0	60	20433
2026-01-26 21:51:43.07	37.50	6.63	-44.9	-59.5	3.8	1.49e+00	0	57	104	0	60	20401
2026-01-26 21:51:44.08	37.62	6.68	-44.9	-59.5	3.8	1.49e+00	0	57	104	0	60	20411
2026-01-26 21:51:45.09	37.74	6.74	-44.9	-59.5	3.8	1.49e+00	0	58	104	0	60	20324
2026-01-26 21:51:46.09	37.85	6.79	-44.9	-59.5	3.8	1.49e+00	0	57	104	0	60	20443
2026-01-26 21:51:47.11	37.97	6.84	-44.9	-59.5	3.8	1.49e+00	0	58	104	0	60	20358
2026-01-26 21:51:48.12	38.09	6.89	-44.9	-59.5	3.8	1.49e+00	0	57	104	0	60	20441
2026-01-26 21:51:49.13	38.21	6.95	-44.9	-59.5	3.8	1.49e+00	0	57	104	0	60	20375
2026-01-26 21:51:50.14	38.33	7.00	-44.9	-59.5	3.8	1.49e+00	0	58	104	0	60	20452
2026-01-26 21:51:51.15	38.45	7.05	-44.9	-59.5	3.8	1.49e+00	0	58	104	0	60	20441
2026-01-26 21:51:52.16	38.57	7.10	-44.9	-59.5	3.8	1.49e+00	0	58	104	0	60	20427
2026-01-26 21:51:53.17	38.69	7.16	-44.9	-59.5	3.8	1.49e+00	0	58	104	0	60	20459
2026-01-26 21:51:54.18	38.82	7.21	-44.9	-59.5	3.8	1.49e+00	0	58	104	0	60	20413
2026-01-26 21:51:55.19	38.94	7.26	-44.9	-59.5	3.8	1.49e+00	0	58	104	0	60	20445
2026-01-26 21:51:56.20	39.06	7.31	-44.9	-59.5	3.8	1.49e+00	0	58	104	0	60	20522
2026-01-26 21:51:57.21	39.18	7.37	-44.9	-59.5	3.8	1.49e+00	0	58	104	0	60	20505
2026-01-26 21:51:58.22	39.31	7.42	-44.9	-59.5	3.8	1.49e+00	0	58	104	0	60	20421
2026-01-26 21:51:59.23	39.43	7.47	-44.9	-59.5	3.8	1.49e+00	0	58	104	0	60	20514
2026-01-26 21:52:00.24	39.55	7.52	-44.9	-59.5	3.8	1.49e+00	0	58	104	0	60	20524
2026-01-26 21:52:01.26	39.68	7.58	-44.9	-59.5	3.8	1.49e+00	0	58	104	0	60	20495
2026-01-26 21:52:02.26	39.80	7.63	-44.9	-59.5	3.8	1.49e+00	0	58	104	0	60	20469
2026-01-26 21:52:03.27	39.93	7.68	-44.9	-59.6	3.8	1.49e+00	0	58	104	0	60	20566
2026-01-26 21:52:04.28	40.05	7.73	-44.9	-59.6	3.8	1.49e+00	0	58	104	0	60	20550
2026-01-26 21:52:05.29	40.18	7.79	-44.9	-59.6	3.8	1.49e+00	0	58	104	0	60	20589
2026-01-26 21:52:06.31	40.31	7.84	-44.9	-59.5	3.8	1.49e+00	0	58	104	0	60	20534
2026-01-26 21:52:07.32	40.43	7.89	-44.9	-59.5	3.8	1.49e+00	0	58	104	0	60	20518
2026-01-26 21:52:08.33	40.56	7.94	-44.9	-59.6	3.8	1.49e+00	0	58	104	0	60	20545
2026-01-26 21:52:09.34	40.69	8.00	-44.9	-59.6	3.8	1.49e+00	0	58	104	0	60	20589
2026-01-26 21:52:10.35	40.82	8.05	-44.9	-59.5	3.8	1.49e+00	0	58	104	0	60	20511
2026-01-26 21:52:11.36	40.95	8.10	-44.9	-59.6	3.8	1.49e+00	0	58	104	0	60	20542
2026-01-26 21:52:12.37	41.08	8.15	-44.9	-59.5	3.8	1.49e+00	0	58	104	0	60	20520
2026-01-26 21:52:13.38	41.20	8.21	-44.9	-59.5	3.8	1.49e+00	0	58	104	0	60	20485
2026-01-26 21:52:14.39	41.33	8.26	-44.9	-59.5	3.8	1.49e+00	0	58	104	0	60	20531
2026-01-26 21:52:15.40	41.47	8.31	-44.9	-59.6	3.8	1.49e+00	0	58	104	0	60	20612
2026-01-26 21:52:16.41	41.60	8.36	-44.9	-59.6	3.8	1.49e+00	0	58	104	0	60	20616
2026-01-26 21:52:17.42	41.73	8.41	-44.9	-59.6	3.8	1.49e+00	0	58	104	0	60	20580
2026-01-26 21:52:18.43	41.86	8.47	-44.9	-59.6	3.8	1.49e+00	0	58	104	0	60	20569
2026-01-26 21:52:19.44	41.99	8.52	-44.9	-59.6	3.8	1.49e+00	0	58	104	0	60	20592
2026-01-26 21:52:20.46	42.13	8.57	-45.0	-59.6	3.8	1.49e+00	0	58	104	0	60	20590
2026-01-26 21:52:21.46	42.26	8.62	-45.0	-59.6	3.8	1.49e+00	0	59	104	0	60	20594
2026-01-26 21:52:22.48	42.39	8.68	-45.0	-59.6	3.8	1.49e+00	0	58	104	0	60	20614
2026-01-26 21:52:23.49	42.53	8.73	-45.0	-59.6	3.8	1.49e+00	0	59	104	0	60	20541
2026-01-26 21:52:24.50	42.66	8.78	-45.0	-59.6	3.8	1.49e+00	0	59	104	0	60	20633
2026-01-26 21:52:25.51	42.80	8.83	-45.0	-59.6	3.8	1.49e+00	0	59	104	0	60	20606
2026-01-26 21:52:26.52	42.93	8.89	-45.0	-59.6	3.8	1.49e+00	0	59	104	0	60	20630
2026-01-26 21:52:27.53	43.07	8.94	-45.0	-59.6	3.8	1.49e+00	0	59	104	0	60	20595
2026-01-26 21:52:28.54	43.21	8.99	-45.0	-59.6	3.8	1.49e+00	0	59	104	0	60	20628
2026-01-26 21:52:29.55	43.34	9.04	-45.0	-59.6	3.8	1.49e+00	0	59	104	0	60	20695
2026-01-26 21:52:30.56	43.48	9.09	-45.0	-59.6	3.8	1.49e+00	0	59	104	0	60	20663
2026-01-26 21:52:31.57	43.62	9.15	-45.0	-59.6	3.8	1.49e+00	0	59	104	0	60	20727
2026-01-26 21:52:32.58	43.76	9.20	-45.0	-59.6	3.8	1.49e+00	0	59	104	0	60	20682
2026-01-26 21:52:33.59	43.90	9.25	-45.0	-59.6	3.8	1.49e+00	0	59	104	0	60	20620
2026-01-26 21:52:34.60	44.04	9.30	-45.0	-59.6	3.8	1.49e+00	0	59	104	0	60	20713
2026-01-26 21:52:35.61	44.17	9.35	-45.0	-59.6	3.8	1.49e+00	0	59	104	0	60	20638
2026-01-26 21:52:36.62	44.32	9.40	-45.0	-59.6	3.8	1.49e+00	0	59	104	0	60	20682
2026-01-26 21:52:37.63	44.46	9.46	-45.0	-59.6	3.8	1.49e+00	0	59	104	0	60	20696
2026-01-26 21:52:38.64	44.60	9.51	-45.0	-59.6	3.8	1.49e+00	0	59	104	0	60	20674
2026-01-26 21:52:39.65	44.74	9.56	-45.0	-59.6	3.8	1.49e+00	0	59	104	0	60	20689
2026-01-26 21:52:40.66	44.88	9.61	-45.0	-59.7	3.8	1.49e+00	0	59	104	0	60	20788
2026-01-26 21:52:41.67	45.02	9.66	-45.0	-59.6	3.8	1.49e+00	0	59	104	0	60	20739
2026-01-26 21:52:42.68	45.17	9.71	-45.0	-59.6	3.8	1.49e+00	0	59	104	0	60	20687
2026-01-26 21:52:43.69	45.31	9.77	-45.0	-59.6	3.8	1.49e+00	0	59	104	0	60	20728
2026-01-26 21:52:44.70	45.46	9.82	-45.0	-59.6	3.8	1.49e+00	0	59	104	0	60	20735
2026-01-26 21:52:45.71	45.60	9.87	-45.0	-59.6	3.8	1.49e+00	0	59	104	0	60	20705
2026-01-26 21:52:46.72	45.75	9.92	-45.0	-59.6	3.8	1.49e+00	0	59	104	0	60	20684
2026-01-26 21:52:47.73	45.89	9.97	-45.0	-59.6	3.8	1.49e+00	0	59	104	0	60	20728
2026-01-26 21:52:48.74	46.04	10.02	-45.0	-59.7	3.8	1.49e+00	0	59	104	0	60	20816
2026-01-26 21:52:49.75	46.18	10.07	-45.0	-59.6	3.8	1.49e+00	0	59	104	0	60	20709
2026-01-26 21:52:50.76	46.33	10.12	-45.0	-59.6	3.8	1.49e+00	0	59	104	0	60	20710
2026-01-26 21:52:51.77	46.48	10.18	-45.0	-59.7	3.8	1.49e+00	0	59	104	0	60	20794
2026-01-26 21:52:52.78	46.63	10.23	-45.0	-59.6	3.8	1.49e+00	0	59	104	0	60	20757
2026-01-26 21:52:53.79	46.78	10.28	-45.0	-59.6	3.8	1.49e+00	0	59	104	0	60	20773
2026-01-26 21:52:54.80	46.93	10.33	-45.0	-59.6	3.8	1.49e+00	0	59	104	0	60	20768
2026-01-26 21:52:55.82	47.08	10.38	-45.0	-59.7	3.8	1.49e+00	0	59	104	0	60	20786
2026-01-26 21:52:56.83	47.23	10.43	-45.0	-59.6	3.8	1.49e+00	0	59	104	0	60	20682
2026-01-26 21:52:57.84	47.38	10.48	-45.0	-59.7	3.8	1.49e+00	0	59	104	0	60	20810
2026-01-26 21:52:58.85	47.53	10.53	-45.0	-59.7	3.8	1.49e+00	0	59	104	0	60	20785
2026-01-26 21:52:59.86	47.68	10.58	-45.0	-59.6	3.8	1.49e+00	0	60	104	0	60	20724
2026-01-26 21:53:00.87	47.83	10.63	-45.0	-59.7	3.8	1.49e+00	0	59	104	0	60	20833
2026-01-26 21:53:01.88	47.99	10.68	-45.0	-59.6	3.8	1.49e+00	0	59	104	0	60	20773
2026-01-26 21:53:02.89	48.14	10.73	-45.0	-59.6	3.8	1.49e+00	0	59	104	0	60	20755
2026-01-26 21:53:03.90	48.29	10.78	-45.0	-59.7	3.8	1.49e+00	0	59	104	0	60	20812
2026-01-26 21:53:04.91	48.45	10.83	-45.0	-59.7	3.8	1.49e+00	0	60	104	0	60	20839
2026-01-26 21:53:05.92	48.60	10.88	-45.0	-59.7	3.8	1.49e+00	0	60	104	0	60	20778
2026-01-26 21:53:06.93	48.76	10.93	-45.0	-59.7	3.8	1.49e+00	0	59	104	0	60	20847
2026-01-26 21:53:07.94	48.91	10.98	-45.0	-59.7	3.8	1.49e+00	0	59	104	0	60	20901
2026-01-26 21:53:08.95	49.07	11.03	-45.0	-59.7	3.8	1.49e+00	0	59	104	0	60	20844
2026-01-26 21:53:09.96	49.23	11.08	-45.0	-59.7	3.8	1.49e+00	0	59	104	0	60	20842
2026-01-26 21:53:10.97	49.38	11.13	-45.0	-59.7	3.8	1.49e+00	0	59	104	0	60	20841
2026-01-26 21:53:11.98	49.54	11.18	-45.0	-59.6	3.8	1.49e+00	0	60	104	0	60	20742
2026-01-26 21:53:12.99	49.70	11.23	-45.1	-59.7	3.8	1.49e+00	0	60	104	0	60	20840
2026-01-26 21:53:14.00	49.86	11.28	-45.0	-59.7	3.8	1.49e+00	0	60	104	0	60	20852
2026-01-26 21:53:15.01	50.02	11.33	-45.0	-59.7	3.8	1.49e+00	0	60	104	0	60	20815
2026-01-26 21:53:16.02	50.18	11.38	-45.0	-59.7	3.8	1.49e+00	0	60	104	0	60	20933
2026-01-26 21:53:17.03	50.34	11.43	-45.1	-59.7	3.8	1.49e+00	0	60	104	0	60	20865
2026-01-26 21:53:18.04	50.50	11.48	-45.0	-59.7	3.8	1.49e+00	0	60	104	0	60	20857
2026-01-26 21:53:19.05	50.66	11.53	-45.1	-59.7	3.8	1.49e+00	0	60	104	0	60	20885
2026-01-26 21:53:20.06	50.82	11.57	-45.0	-59.7	3.8	1.49e+00	0	60	104	0	60	20928
2026-01-26 21:53:21.07	50.99	11.62	-45.0	-59.7	3.8	1.49e+00	0	60	104	0	60	20808
2026-01-26 21:53:22.08	51.15	11.67	-45.0	-59.7	3.8	1.49e+00	0	59	104	0	60	20854
2026-01-26 21:53:23.09	51.31	11.72	-45.0	-59.7	3.8	1.49e+00	0	59	104	0	60	20896
2026-01-26 21:53:24.10	51.48	11.77	-45.0	-59.7	3.8	1.49e+00	0	60	104	0	60	20875
2026-01-26 21:53:25.11	51.64	11.82	-45.1	-59.7	3.8	1.49e+00	0	60	104	0	60	20910
2026-01-26 21:53:26.12	51.81	11.87	-45.1	-59.7	3.8	1.49e+00	0	60	104	0	60	20894
2026-01-26 21:53:27.13	51.97	11.91	-45.1	-59.7	3.8	1.49e+00	0	60	104	0	60	20905
2026-01-26 21:53:28.14	52.14	11.96	-45.1	-59.7	3.8	1.49e+00	0	60	104	0	60	20870
2026-01-26 21:53:29.15	52.31	12.01	-45.1	-59.7	3.8	1.49e+00	0	60	104	0	60	20872
2026-01-26 21:53:30.16	52.48	12.06	-45.1	-59.7	3.8	1.49e+00	0	60	104	0	60	20868
2026-01-26 21:53:31.17	52.64	12.10	-45.1	-59.7	3.8	1.49e+00	0	60	104	0	60	20932
2026-01-26 21:53:32.18	52.81	12.15	-45.1	-59.7	3.8	1.49e+00	0	60	104	0	60	20867
2026-01-26 21:53:33.20	52.98	12.20	-45.1	-59.7	3.8	1.49e+00	0	60	104	0	60	20927
2026-01-26 21:53:34.21	53.15	12.25	-45.1	-59.7	3.8	1.49e+00	0	60	104	0	60	20899
2026-01-26 21:53:35.22	53.32	12.29	-45.1	-59.7	3.8	1.49e+00	0	60	104	0	60	20893
2026-01-26 21:53:36.23	53.49	12.34	-45.1	-59.7	3.8	1.49e+00	0	60	104	0	60	20893
2026-01-26 21:53:37.24	53.66	12.39	-45.1	-59.7	3.8	1.49e+00	0	60	104	0	60	20936
2026-01-26 21:53:38.25	53.83	12.43	-45.1	-59.7	3.8	1.49e+00	0	60	104	0	60	20895
2026-01-26 21:53:39.26	54.01	12.48	-45.1	-59.7	3.8	1.49e+00	0	60	104	0	60	20931
2026-01-26 21:53:40.27	54.18	12.53	-45.1	-59.7	3.8	1.49e+00	0	60	104	0	60	20850
2026-01-26 21:53:41.28	54.35	12.57	-45.1	-59.7	3.8	1.49e+00	0	60	104	0	60	20905
2026-01-26 21:53:42.29	54.53	12.62	-45.1	-59.7	3.8	1.49e+00	0	60	104	0	60	20846
2026-01-26 21:53:43.30	54.70	12.66	-45.1	-59.7	3.8	1.49e+00	0	60	104	0	60	20910
2026-01-26 21:53:44.31	54.88	12.71	-45.1	-59.7	3.8	1.49e+00	0	60	104	0	60	20913
2026-01-26 21:53:45.32	55.05	12.75	-45.1	-59.7	3.8	1.49e+00	0	60	104	0	60	20932
2026-01-26 21:53:46.33	55.23	12.80	-45.1	-59.7	3.8	1.49e+00	0	60	104	0	60	20951
2026-01-26 21:53:47.34	55.40	12.85	-45.1	-59.7	3.8	1.49e+00	0	60	104	0	60	20918
2026-01-26 21:53:48.35	55.58	12.89	-45.1	-59.7	3.8	1.49e+00	0	60	104	0	60	20924
2026-01-26 21:53:49.37	55.76	12.94	-45.1	-59.7	3.8	1.49e+00	0	60	104	0	60	20907
2026-01-26 21:53:50.38	55.94	12.98	-45.1	-59.7	3.8	1.49e+00	0	60	104	0	60	20907
2026-01-26 21:53:51.39	56.12	13.02	-45.1	-59.7	3.8	1.49e+00	0	60	104	0	60	20995
2026-01-26 21:53:52.40	56.30	13.07	-45.1	-59.7	3.8	1.49e+00	0	60	104	0	60	20927
2026-01-26 21:53:53.41	56.47	13.11	-45.1	-59.7	3.8	1.49e+00	0	60	104	0	60	20969
2026-01-26 21:53:54.42	56.65	13.16	-45.1	-59.7	3.8	1.49e+00	0	60	104	0	60	20982
2026-01-26 21:53:55.43	56.84	13.20	-45.1	-59.7	3.8	1.49e+00	0	60	104	0	60	20970
2026-01-26 21:53:56.44	57.02	13.25	-45.1	-59.7	3.8	1.49e+00	0	60	104	0	60	20920
2026-01-26 21:53:57.45	57.20	13.29	-45.1	-59.7	3.8	1.49e+00	0	60	104	0	60	20955
2026-01-26 21:53:58.46	57.38	13.33	-45.1	-59.7	3.8	1.49e+00	0	61	104	0	60	20905
2026-01-26 21:53:59.47	57.56	13.37	-45.1	-59.7	3.8	1.49e+00	0	60	104	0	60	20990
2026-01-26 21:54:00.48	57.75	13.42	-45.1	-59.7	3.8	1.49e+00	0	60	104	0	60	20888
2026-01-26 21:54:01.49	57.93	13.46	-45.1	-59.7	3.8	1.49e+00	0	60	104	0	60	20929
2026-01-26 21:54:02.50	58.11	13.50	-45.1	-59.7	3.8	1.49e+00	0	60	104	0	60	20900
2026-01-26 21:54:03.51	58.30	13.55	-45.1	-59.7	3.8	1.49e+00	0	60	104	0	60	20911
2026-01-26 21:54:04.52	58.48	13.59	-45.1	-59.7	3.8	1.49e+00	0	60	104	0	60	20931
2026-01-26 21:54:05.53	58.67	13.63	-45.1	-59.7	3.8	1.49e+00	0	60	104	0	60	20988
2026-01-26 21:54:06.54	58.86	13.67	-45.1	-59.7	3.8	1.49e+00	0	60	104	0	60	20947
2026-01-26 21:54:07.55	59.04	13.71	-45.1	-59.7	3.8	1.49e+00	0	61	104	0	60	20932
2026-01-26 21:54:08.56	59.23	13.75	-45.1	-59.7	3.8	1.49e+00	0	60	104	0	60	20959
2026-01-26 21:54:09.57	59.42	13.80	-45.1	-59.7	3.8	1.49e+00	0	60	104	0	60	20870
2026-01-26 21:54:10.58	59.61	13.84	-45.1	-59.7	3.8	1.49e+00	0	60	104	0	60	21000
2026-01-26 21:54:11.59	59.80	13.88	-45.0	-59.7	3.8	1.49e+00	0	60	104	0	60	20876
2026-01-26 21:54:12.60	59.99	13.92	-45.0	-59.7	3.8	1.49e+00	0	60	104	0	60	20943
2026-01-26 21:54:13.61	60.17	13.96	-45.0	-59.7	3.8	1.49e+00	0	61	104	0	60	20953
2026-01-26 21:54:14.62	60.37	14.00	-45.0	-59.7	3.8	1.49e+00	0	60	104	0	60	20914
2026-01-26 21:54:15.64	60.56	14.04	-45.0	-59.7	3.8	1.49e+00	0	60	104	0	60	20945
2026-01-26 21:54:16.65	60.75	14.08	-45.0	-59.7	3.8	1.49e+00	0	61	104	0	60	20899
2026-01-26 21:54:17.66	60.94	14.12	-45.1	-59.7	3.8	1.49e+00	0	61	104	0	60	20928
2026-01-26 21:54:18.67	61.13	14.16	-45.1	-59.7	3.8	1.49e+00	0	60	104	0	60	20892
2026-01-26 21:54:19.68	61.33	14.19	-45.1	-59.7	3.8	1.49e+00	0	61	104	0	60	20948
2026-01-26 21:54:20.69	61.52	14.23	-45.1	-59.7	3.8	1.49e+00	0	61	104	0	60	20953
2026-01-26 21:54:21.70	61.71	14.27	-45.0	-59.7	3.8	1.49e+00	0	61	104	0	60	20885
2026-01-26 21:54:22.71	61.91	14.31	-45.0	-59.7	3.8	1.49e+00	0	61	104	0	60	20847
2026-01-26 21:54:23.72	62.10	14.35	-45.0	-59.7	3.8	1.49e+00	0	61	104	0	60	20886
2026-01-26 21:54:24.73	62.30	14.39	-45.0	-59.7	3.8	1.49e+00	0	61	104	0	60	20882
2026-01-26 21:54:25.74	62.49	14.42	-45.0	-59.7	3.8	1.49e+00	0	61	104	0	60	20918
2026-01-26 21:54:26.75	62.69	14.46	-45.0	-59.7	3.8	1.49e+00	0	61	104	0	60	20887
2026-01-26 21:54:27.76	62.89	14.50	-45.0	-59.7	3.8	1.49e+00	0	61	104	0	60	20934
2026-01-26 21:54:28.77	63.08	14.53	-45.0	-59.7	3.8	1.49e+00	0	61	104	0	60	20866
2026-01-26 21:54:29.79	63.28	14.57	-45.1	-59.7	3.8	1.49e+00	0	61	104	0	60	20887
2026-01-26 21:54:30.80	63.48	14.61	-45.0	-59.7	3.8	1.49e+00	0	61	104	0	60	20886
2026-01-26 21:54:31.81	63.68	14.64	-45.0	-59.7	3.8	1.49e+00	0	61	104	0	60	20878
2026-01-26 21:54:32.82	63.88	14.68	-45.0	-59.7	3.8	1.49e+00	0	61	104	0	60	20981
2026-01-26 21:54:33.83	64.08	14.71	-45.0	-59.7	3.8	1.49e+00	0	61	104	0	60	20950
2026-01-26 21:54:34.84	64.28	14.75	-45.1	-59.7	3.8	1.49e+00	0	61	104	0	60	20945
2026-01-26 21:54:35.85	64.48	14.78	-45.1	-59.7	3.8	1.49e+00	0	61	104	0	60	20926
2026-01-26 21:54:36.86	64.68	14.82	-45.0	-59.7	3.8	1.49e+00	0	61	104	0	60	20967
2026-01-26 21:54:37.87	64.88	14.85	-45.0	-59.7	3.8	1.49e+00	0	61	104	0	60	20920
2026-01-26 21:54:38.88	65.09	14.89	-45.0	-59.7	3.8	1.49e+00	0	61	104	0	60	20908
2026-01-26 21:54:39.89	65.29	14.92	-45.0	-59.7	3.8	1.49e+00	0	61	104	0	60	20916
2026-01-26 21:54:40.90	65.49	14.95	-45.0	-59.7	3.8	1.49e+00	0	61	104	0	60	20900
2026-01-26 21:54:41.91	65.69	14.99	-45.0	-59.7	3.8	1.49e+00	0	61	104	0	60	20898
2026-01-26 21:54:42.92	65.90	15.02	-45.0	-59.7	3.8	1.49e+00	0	61	104	0	60	20938
2026-01-26 21:54:43.93	66.10	15.05	-45.0	-59.7	3.8	1.49e+00	0	61	104	0	60	20981
2026-01-26 21:54:44.94	66.31	15.08	-45.0	-59.7	3.8	1.49e+00	0	61	104	0	60	20964
2026-01-26 21:54:45.95	66.51	15.12	-45.0	-59.7	3.8	1.49e+00	0	61	104	0	60	20889
2026-01-26 21:54:46.96	66.72	15.15	-45.0	-59.7	3.8	1.49e+00	0	61	104	0	60	20884
2026-01-26 21:54:47.97	66.92	15.18	-45.0	-59.7	3.8	1.49e+00	0	61	104	0	60	20850
2026-01-26 21:54:48.98	67.13	15.21	-45.0	-59.7	3.8	1.49e+00	0	61	104	0	60	20898
2026-01-26 21:54:49.99	67.34	15.24	-45.0	-59.7	3.8	1.49e+00	0	61	104	0	60	20953
2026-01-26 21:54:51.00	67.54	15.27	-45.0	-59.7	3.8	1.49e+00	0	61	104	0	60	20903
2026-01-26 21:54:52.01	67.75	15.30	-45.0	-59.7	3.8	1.49e+00	0	61	104	0	60	20904
2026-01-26 21:54:53.02	67.96	15.33	-45.0	-59.7	3.8	1.49e+00	0	61	104	0	60	20815
2026-01-26 21:54:54.04	68.17	15.36	-45.0	-59.7	3.8	1.49e+00	0	61	104	0	60	20842
2026-01-26 21:54:55.05	68.38	15.39	-45.0	-59.7	3.8	1.49e+00	0	61	104	0	60	20883
2026-01-26 21:54:56.06	68.59	15.42	-45.0	-59.7	3.8	1.49e+00	0	61	104	0	60	20919
2026-01-26 21:54:57.07	68.80	15.45	-45.0	-59.7	3.8	1.49e+00	0	61	104	0	60	20883
2026-01-26 21:54:58.08	69.01	15.47	-45.0	-59.7	3.8	1.49e+00	0	61	104	0	60	20880
2026-01-26 21:54:59.09	69.22	15.50	-45.0	-59.7	3.8	1.49e+00	0	61	104	0	60	20922
2026-01-26 21:55:00.10	69.43	15.53	-45.0	-59.7	3.8	1.49e+00	0	61	104	0	60	20921
2026-01-26 21:55:01.11	69.64	15.56	-45.0	-59.7	3.8	1.49e+00	0	61	104	0	60	20893
2026-01-26 21:55:02.12	69.85	15.58	-45.0	-59.7	3.8	1.49e+00	0	61	104	0	60	20840
2026-01-26 21:55:03.13	70.06	15.61	-45.0	-59.7	3.8	1.49e+00	0	61	104	0	60	20827
2026-01-26 21:55:04.14	70.28	15.64	-45.0	-59.7	3.8	1.49e+00	0	61	104	0	60	20832
2026-01-26 21:55:05.15	70.49	15.66	-45.0	-59.7	3.8	1.49e+00	0	61	104	0	60	20850
2026-01-26 21:55:06.16	70.70	15.69	-45.0	-59.7	3.8	1.49e+00	0	61	104	0	60	20853
2026-01-26 21:55:07.17	70.91	15.71	-45.0	-59.7	3.8	1.49e+00	0	61	104	0	60	20841
2026-01-26 21:55:08.18	71.13	15.74	-45.0	-59.7	3.8	1.49e+00	0	61	104	0	60	20919
2026-01-26 21:55:09.19	71.34	15.76	-45.0	-59.7	3.8	1.49e+00	0	61	104	0	60	20909
2026-01-26 21:55:10.21	71.56	15.79	-45.0	-59.7	3.8	1.49e+00	0	61	104	0	60	20927
2026-01-26 21:55:11.22	71.77	15.81	-45.0	-59.7	3.8	1.49e+00	0	61	104	0	60	20874
2026-01-26 21:55:12.23	71.99	15.83	-45.0	-59.7	3.8	1.49e+00	0	61	104	0	60	20932
2026-01-26 21:55:13.24	72.20	15.86	-45.0	-59.7	3.8	1.49e+00	0	61	104	0	60	20867
2026-01-26 21:55:14.25	72.42	15.88	-45.0	-59.7	3.8	1.49e+00	0	61	104	0	60	20873
2026-01-26 21:55:15.26	72.64	15.90	-45.0	-59.7	3.8	1.49e+00	0	61	104	0	60	20844
2026-01-26 21:55:16.27	72.85	15.92	-45.0	-59.7	3.8	1.49e+00	0	61	104	0	60	20822
2026-01-26 21:55:17.28	73.07	15.95	-45.0	-59.7	3.8	1.49e+00	0	61	104	0	60	20920
2026-01-26 21:55:18.29	73.29	15.97	-45.0	-59.7	3.8	1.49e+00	0	61	104	0	60	20880
2026-01-26 21:55:19.30	73.50	15.99	-45.0	-59.7	3.8	1.49e+00	0	61	104	0	60	20938
2026-01-26 21:55:20.31	73.72	16.01	-45.0	-59.7	3.8	1.49e+00	0	61	104	0	60	20910
2026-01-26 21:55:21.32	73.94	16.03	-45.0	-59.7	3.8	1.49e+00	0	61	104	0	60	20886
2026-01-26 21:55:22.34	74.16	16.05	-45.0	-59.7	3.8	1.49e+00	0	61	104	0	60	20886
2026-01-26 21:55:23.35	74.38	16.07	-45.0	-59.7	3.8	1.49e+00	0	61	104	0	60	20881
2026-01-26 21:55:24.35	74.59	16.09	-45.0	-59.7	3.8	1.49e+00	0	61	104	0	60	20830
2026-01-26 21:55:25.36	74.81	16.10	-45.0	-59.7	3.8	1.49e+00	0	61	104	0	60	20841
2026-01-26 21:55:26.37	75.03	16.12	-45.0	-59.7	3.8	1.49e+00	0	61	104	0	60	20793
2026-01-26 21:55:27.38	75.25	16.14	-45.0	-59.7	3.8	1.49e+00	0	61	104	0	60	20911
2026-01-26 21:55:28.39	75.47	16.16	-45.0	-59.7	3.8	1.49e+00	0	61	104	0	60	20872
2026-01-26 21:55:29.40	75.69	16.17	-45.0	-59.7	3.8	1.49e+00	0	61	104	0	60	20886
2026-01-26 21:55:30.41	75.91	16.19	-45.0	-59.7	3.8	1.49e+00	0	61	104	0	60	20879
2026-01-26 21:55:31.42	76.13	16.21	-45.0	-59.7	3.8	1.49e+00	0	61	104	0	60	20860
2026-01-26 21:55:32.43	76.35	16.22	-45.0	-59.7	3.8	1.49e+00	0	61	104	0	60	20876
2026-01-26 21:55:33.45	76.58	16.24	-45.0	-59.6	3.8	1.49e+00	0	61	104	0	60	20771
2026-01-26 21:55:34.46	76.80	16.25	-45.0	-59.7	3.8	1.49e+00	0	61	104	0	60	20807
2026-01-26 21:55:35.46	77.02	16.27	-45.0	-59.6	3.8	1.49e+00	0	61	104	0	60	20729
2026-01-26 21:55:36.47	77.24	16.28	-45.0	-59.7	3.8	1.49e+00	0	61	104	0	60	20808
2026-01-26 21:55:37.49	77.46	16.30	-45.0	-59.7	3.8	1.49e+00	0	61	104	0	60	20907
2026-01-26 21:55:38.50	77.68	16.31	-45.0	-59.7	3.8	1.49e+00	0	61	104	0	60	20849
2026-01-26 21:55:39.51	77.91	16.32	-45.0	-59.7	3.8	1.49e+00	0	61	104	0	60	20944
2026-01-26 21:55:40.52	78.13	16.34	-45.0	-59.7	3.8	1.49e+00	0	61	104	0	60	20848
2026-01-26 21:55:41.53	78.35	16.35	-45.0	-59.7	3.8	1.49e+00	0	61	104	0	60	20786
2026-01-26 21:55:42.54	78.57	16.36	-45.0	-59.7	3.8	1.49e+00	0	61	104	0	60	20866
2026-01-26 21:55:43.55	78.80	16.37	-45.0	-59.7	3.8	1.49e+00	0	61	104	0	60	20800
2026-01-26 21:55:44.56	79.02	16.38	-45.0	-59.7	3.8	1.49e+00	0	61	104	0	60	20839
2026-01-26 21:55:45.57	79.24	16.39	-45.0	-59.6	3.8	1.49e+00	0	61	104	0	60	20755
2026-01-26 21:55:46.58	79.47	16.40	-45.0	-59.7	3.8	1.49e+00	0	61	104	0	60	20819
2026-01-26 21:55:47.59	79.69	16.41	-45.0	-59.7	3.8	1.49e+00	0	61	104	0	60	20826
2026-01-26 21:55:48.60	79.91	16.42	-45.0	-59.7	3.8	1.49e+00	0	61	104	0	60	20784
2026-01-26 21:55:49.61	80.14	16.43	-45.0	-59.7	3.8	1.49e+00	0	61	104	0	60	20842
2026-01-26 21:55:50.62	80.36	16.44	-45.0	-59.6	3.8	1.49e+00	0	61	104	0	60	20711
2026-01-26 21:55:51.63	80.59	16.45	-45.0	-59.6	3.8	1.49e+00	0	61	104	0	60	20763
2026-01-26 21:55:52.64	80.81	16.46	-45.0	-59.7	3.8	1.49e+00	0	61	104	0	60	20862
2026-01-26 21:55:53.65	81.04	16.46	-45.0	-59.7	3.8	1.49e+00	0	61	104	0	60	20814
2026-01-26 21:55:54.66	81.26	16.47	-45.0	-59.7	3.8	1.49e+00	0	61	104	0	60	20780
2026-01-26 21:55:55.67	81.49	16.48	-45.0	-59.7	3.8	1.49e+00	0	61	104	0	60	20854
2026-01-26 21:55:56.69	81.71	16.48	-45.0	-59.7	3.8	1.49e+00	0	61	104	0	60	20784
2026-01-26 21:55:57.70	81.94	16.49	-45.0	-59.6	3.8	1.49e+00	0	61	104	0	60	20741
2026-01-26 21:55:58.71	82.16	16.49	-45.0	-59.6	3.8	1.49e+00	0	61	104	0	60	20666
2026-01-26 21:55:59.72	82.39	16.50	-45.0	-59.6	3.8	1.49e+00	0	61	104	0	60	20731
2026-01-26 21:56:00.73	82.61	16.50	-45.0	-59.6	3.8	1.49e+00	0	61	104	0	60	20768
2026-01-26 21:56:01.74	82.84	16.51	-44.9	-59.6	3.8	1.49e+00	0	61	104	0	60	20752
2026-01-26 21:56:02.75	83.06	16.51	-45.0	-59.6	3.8	1.49e+00	0	61	104	0	60	20729
2026-01-26 21:56:03.76	83.29	16.51	-44.9	-59.7	3.8	1.49e+00	0	61	104	0	60	20798
2026-01-26 21:56:04.77	83.51	16.52	-45.0	-59.6	3.8	1.49e+00	0	61	104	0	60	20738
2026-01-26 21:56:05.78	83.74	16.52	-45.0	-59.6	3.8	1.49e+00	0	61	104	0	60	20771
2026-01-26 21:56:06.78	83.96	16.52	-45.0	-59.6	3.8	1.49e+00	0	61	104	0	60	20727
2026-01-26 21:56:07.79	84.19	16.52	-44.9	-59.6	3.8	1.49e+00	0	61	104	0	60	20762
2026-01-26 21:56:08.80	84.41	16.52	-45.0	-59.6	3.8	1.49e+00	0	61	104	0	60	20762
2026-01-26 21:56:09.81	84.64	16.52	-45.0	-59.7	3.8	1.49e+00	0	61	104	0	60	20794
2026-01-26 21:56:10.82	84.86	16.52	-45.0	-59.6	3.8	1.49e+00	0	61	104	0	60	20758
2026-01-26 21:56:11.84	85.09	16.52	-44.9	-59.6	3.8	1.49e+00	0	61	104	0	60	20730
2026-01-26 21:56:12.85	85.32	16.52	-44.9	-59.6	3.8	1.49e+00	0	61	104	0	60	20729
2026-01-26 21:56:13.86	85.54	16.52	-44.9	-59.6	3.8	1.49e+00	0	61	104	0	60	20736
2026-01-26 21:56:14.87	85.77	16.52	-45.0	-59.6	3.8	1.49e+00	0	61	104	0	60	20731
2026-01-26 21:56:15.88	85.99	16.52	-44.9	-59.6	3.8	1.49e+00	0	61	104	0	60	20746
2026-01-26 21:56:16.89	86.22	16.52	-44.9	-59.6	3.8	1.49e+00	0	61	104	0	60	20747
2026-01-26 21:56:17.90	86.44	16.51	-44.9	-59.6	3.8	1.49e+00	0	61	104	0	60	20716
2026-01-26 21:56:18.91	86.67	16.51	-44.9	-59.6	3.8	1.49e+00	0	61	104	0	60	20714
2026-01-26 21:56:19.92	86.89	16.51	-44.9	-59.6	3.8	1.49e+00	0	61	104	0	60	20718
2026-01-26 21:56:20.93	87.12	16.50	-44.9	-59.6	3.8	1.49e+00	0	61	104	0	60	20766
2026-01-26 21:56:21.94	87.34	16.50	-44.9	-59.6	3.8	1.49e+00	0	61	104	0	60	20757
2026-01-26 21:56:22.95	87.57	16.49	-44.9	-59.6	3.8	1.49e+00	0	61	104	0	60	20768
2026-01-26 21:56:23.96	87.79	16.49	-44.9	-59.7	3.8	1.49e+00	0	61	104	0	60	20787
2026-01-26 21:56:24.97	88.02	16.48	-44.9	-59.7	3.8	1.49e+00	0	61	104	0	60	20783
2026-01-26 21:56:25.98	88.24	16.48	-45.0	-59.6	3.8	1.49e+00	0	62	104	0	60	20722
2026-01-26 21:56:26.99	88.47	16.47	-45.0	-59.6	3.8	1.49e+00	0	61	104	0	60	20723
2026-01-26 21:56:28.00	88.69	16.46	-44.9	-59.7	3.8	1.49e+00	0	61	104	0	60	20826
2026-01-26 21:56:29.01	88.92	16.46	-45.0	-59.7	3.8	1.49e+00	0	62	104	0	60	20837
2026-01-26 21:56:30.02	89.14	16.45	-44.9	-59.7	3.8	1.49e+00	0	61	104	0	60	20792
2026-01-26 21:56:31.03	89.37	16.44	-44.9	-59.6	3.8	1.49e+00	0	61	104	0	60	20764
2026-01-26 21:56:32.04	89.59	16.43	-45.0	-59.7	3.8	1.49e+00	0	61	104	0	60	20802
2026-01-26 21:56:33.05	89.82	16.42	-45.0	-59.7	3.8	1.49e+00	0	62	104	0	60	20794
2026-01-26 21:56:34.06	90.04	16.41	-44.9	-59.6	3.8	1.49e+00	0	61	104	0	60	20759
2026-01-26 21:56:35.07	90.26	16.40	-45.0	-59.7	3.8	1.49e+00	0	61	104	0	60	20841
2026-01-26 21:56:36.08	90.49	16.39	-44.9	-59.6	3.8	1.49e+00	0	61	104	0	60	20767
2026-01-26 21:56:37.09	90.71	16.38	-44.9	-59.7	3.8	1.49e+00	0	61	104	0	60	20787
2026-01-26 21:56:38.10	90.93	16.37	-44.9	-59.6	3.8	1.49e+00	0	61	104	0	60	20767
2026-01-26 21:56:39.11	91.16	16.36	-44.9	-59.7	3.8	1.49e+00	0	61	104	0	60	20829
2026-01-26 21:56:40.12	91.38	16.35	-44.9	-59.7	3.8	1.49e+00	0	62	104	0	60	20779
2026-01-26 21:56:41.13	91.60	16.34	-45.0	-59.7	3.8	1.49e+00	0	61	104	0	60	20862
2026-01-26 21:56:42.14	91.83	16.32	-44.9	-59.7	3.8	1.49e+00	0	61	104	0	60	20786
2026-01-26 21:56:43.15	92.05	16.31	-44.9	-59.7	3.8	1.49e+00	0	61	104	0	60	20788
2026-01-26 21:56:44.17	92.27	16.30	-44.9	-59.6	3.8	1.49e+00	0	61	104	0	60	20727
2026-01-26 21:56:45.18	92.50	16.28	-44.9	-59.7	3.8	1.49e+00	0	62	104	0	60	20801
2026-01-26 21:56:46.19	92.72	16.27	-44.9	-59.6	3.8	1.49e+00	0	62	104	0	60	20739
2026-01-26 21:56:47.20	92.94	16.25	-44.9	-59.6	3.8	1.49e+00	0	62	104	0	60	20770
2026-01-26 21:56:48.21	93.16	16.24	-44.9	-59.6	3.8	1.49e+00	0	62	104	0	60	20755
2026-01-26 21:56:49.22	93.38	16.22	-44.9	-59.7	3.8	1.49e+00	0	62	104	0	60	20799
2026-01-26 21:56:50.23	93.60	16.21	-44.9	-59.7	3.8	1.49e+00	0	61	104	0	60	20783
2026-01-26 21:56:51.24	93.83	16.19	-44.9	-59.7	3.8	1.49e+00	0	62	104	0	60	20789
2026-01-26 21:56:52.25	94.05	16.18	-44.9	-59.7	3.8	1.49e+00	0	61	104	0	60	20797
2026-01-26 21:56:53.26	94.27	16.16	-44.9	-59.7	3.8	1.49e+00	0	61	104	0	60	20783
2026-01-26 21:56:54.27	94.49	16.14	-44.9	-59.6	3.8	1.49e+00	0	62	104	0	60	20701
2026-01-26 21:56:55.28	94.71	16.12	-44.9	-59.6	3.8	1.49e+00	0	62	104	0	60	20763
2026-01-26 21:56:56.29	94.93	16.10	-44.9	-59.6	3.8	1.49e+00	0	62	104	0	60	20728
2026-01-26 21:56:57.30	95.15	16.09	-44.9	-59.6	3.8	1.49e+00	0	61	104	0	60	20740
2026-01-26 21:56:58.31	95.37	16.07	-44.9	-59.6	3.8	1.49e+00	0	61	104	0	60	20765
2026-01-26 21:56:59.32	95.58	16.05	-44.9	-59.6	3.8	1.49e+00	0	62	104	0	60	20733
2026-01-26 21:57:00.33	95.80	16.03	-44.9	-59.6	3.8	1.49e+00	0	61	104	0	60	20760
2026-01-26 21:57:01.34	96.02	16.01	-44.9	-59.6	3.8	1.49e+00	0	61	104	0	60	20762
2026-01-26 21:57:02.35	96.24	15.99	-44.9	-59.7	3.8	1.49e+00	0	62	104	0	60	20783
2026-01-26 21:57:03.37	96.46	15.97	-44.9	-59.7	3.8	1.49e+00	0	61	104	0	60	20783
2026-01-26 21:57:04.38	96.68	15.94	-44.9	-59.6	3.8	1.49e+00	0	62	104	0	60	20759
2026-01-26 21:57:05.39	96.89	15.92	-44.9	-59.6	3.8	1.49e+00	0	61	104	0	60	20748
2026-01-26 21:57:06.40	97.11	15.90	-44.9	-59.6	3.8	1.49e+00	0	61	104	0	60	20720
2026-01-26 21:57:07.41	97.33	15.88	-44.9	-59.6	3.8	1.49e+00	0	62	104	0	60	20623
2026-01-26 21:57:08.42	97.54	15.86	-44.9	-59.6	3.8	1.49e+00	0	61	104	0	60	20667
2026-01-26 21:57:09.43	97.76	15.83	-44.9	-59.6	3.8	1.49e+00	0	61	104	0	60	20688
2026-01-26 21:57:10.44	97.98	15.81	-44.9	-59.6	3.8	1.49e+00	0	62	104	0	60	20685
2026-01-26 21:57:11.45	98.19	15.79	-44.9	-59.6	3.8	1.49e+00	0	62	104	0	60	20731
2026-01-26 21:57:12.46	98.41	15.76	-44.9	-59.6	3.8	1.49e+00	0	62	104	0	60	20757
2026-01-26 21:57:13.47	98.62	15.74	-44.9	-59.6	3.8	1.49e+00	0	62	104	0	60	20686
2026-01-26 21:57:14.48	98.83	15.71	-44.9	-59.6	3.8	1.49e+00	0	62	104	0	60	20748
2026-01-26 21:57:15.49	99.05	15.69	-44.9	-59.6	3.8	1.49e+00	0	62	104	0	60	20760
2026-01-26 21:57:16.50	99.26	15.66	-44.9	-59.6	3.8	1.49e+00	0	61	104	0	60	20703
2026-01-26 21:57:17.51	99.48	15.64	-44.9	-59.6	3.8	1.49e+00	0	62	104	0	60	20716
2026-01-26 21:57:18.53	99.69	15.61	-44.9	-59.6	3.8	1.49e+00	0	61	104	0	60	20626
2026-01-26 21:57:19.54	99.90	15.58	-44.9	-59.6	3.8	1.49e+00	0	62	104	0	60	20758
2026-01-26 21:57:20.55	100.12	15.56	-44.9	-59.6	3.8	1.49e+00	0	61	104	0	60	20748
2026-01-26 21:57:21.55	100.33	15.53	-44.9	-59.6	3.8	1.49e+00	0	62	104	0	60	20747
2026-01-26 21:57:22.57	100.54	15.50	-44.9	-59.6	3.8	1.49e+00	0	62	104	0	60	20743
2026-01-26 21:57:23.58	100.75	15.47	-44.9	-59.6	3.8	1.49e+00	0	62	104	0	60	20729
2026-01-26 21:57:24.59	100.96	15.44	-44.9	-59.6	3.8	1.49e+00	0	62	104	0	60	20711
2026-01-26 21:57:25.60	101.17	15.42	-44.9	-59.6	3.8	1.49e+00	0	62	104	0	60	20708
2026-01-26 21:57:26.61	101.38	15.39	-44.9	-59.6	3.8	1.49e+00	0	61	104	0	60	20706
2026-01-26 21:57:27.62	101.59	15.36	-44.9	-59.6	3.8	1.49e+00	0	62	104	0	60	20746
2026-01-26 21:57:28.62	101.80	15.33	-44.9	-59.6	3.8	1.49e+00	0	61	104	0	60	20702
2026-01-26 21:57:29.63	102.01	15.30	-44.9	-59.6	3.8	1.49e+00	0	62	104	0	60	20706
2026-01-26 21:57:30.64	102.21	15.27	-44.9	-59.6	3.8	1.49e+00	0	62	104	0	60	20727
2026-01-26 21:57:31.66	102.42	15.24	-44.9	-59.7	3.8	1.49e+00	0	62	104	0	60	20796
2026-01-26 21:57:32.67	102.63	15.21	-44.9	-59.6	3.8	1.49e+00	0	62	104	0	60	20709
2026-01-26 21:57:33.68	102.84	15.18	-44.9	-59.6	3.8	1.49e+00	0	62	104	0	60	20716
2026-01-26 21:57:34.69	103.05	15.14	-44.9	-59.6	3.8	1.49e+00	0	62	104	0	60	20770
2026-01-26 21:57:35.70	103.25	15.11	-44.9	-59.6	3.8	1.49e+00	0	62	104	0	60	20753
2026-01-26 21:57:36.71	103.46	15.08	-44.9	-59.6	3.8	1.49e+00	0	62	104	0	60	20701
2026-01-26 21:57:37.72	103.66	15.05	-44.9	-59.6	3.8	1.49e+00	0	62	104	0	60	20720
2026-01-26 21:57:38.73	103.87	15.01	-44.9	-59.6	3.8	1.49e+00	0	62	104	0	60	20675
2026-01-26 21:57:39.74	104.07	14.98	-44.9	-59.6	3.8	1.49e+00	0	61	104	0	60	20743
2026-01-26 21:57:40.75	104.28	14.95	-44.9	-59.6	3.8	1.49e+00	0	62	104	0	60	20695
2026-01-26 21:57:41.76	104.48	14.91	-44.9	-59.6	3.8	1.49e+00	0	62	104	0	60	20733
2026-01-26 21:57:42.77	104.68	14.88	-44.9	-59.6	3.8	1.49e+00	0	62	104	0	60	20712
2026-01-26 21:57:43.78	104.89	14.85	-44.9	-59.7	3.8	1.49e+00	0	62	104	0	60	20804
2026-01-26 21:57:44.79	105.09	14.81	-44.9	-59.6	3.8	1.49e+00	0	62	104	0	60	20730
2026-01-26 21:57:45.80	105.29	14.78	-44.9	-59.6	3.8	1.49e+00	0	61	104	0	60	20758
2026-01-26 21:57:46.81	105.49	14.74	-44.9	-59.6	3.8	1.49e+00	0	62	104	0	60	20766
2026-01-26 21:57:47.82	105.69	14.71	-44.9	-59.6	3.8	1.49e+00	0	62	104	0	60	20717
2026-01-26 21:57:48.83	105.89	14.67	-44.9	-59.7	3.8	1.49e+00	0	62	104	0	60	20819
2026-01-26 21:57:49.84	106.09	14.64	-44.9	-59.6	3.8	1.49e+00	0	62	104	0	60	20701
2026-01-26 21:57:50.85	106.29	14.60	-44.9	-59.6	3.8	1.49e+00	0	62	104	0	60	20773
2026-01-26 21:57:51.86	106.49	14.56	-44.9	-59.7	3.8	1.49e+00	0	62	104	0	60	20843
2026-01-26 21:57:52.87	106.69	14.53	-44.9	-59.7	3.8	1.49e+00	0	62	104	0	60	20821
2026-01-26 21:57:53.88	106.89	14.49	-44.9	-59.6	3.8	1.49e+00	0	62	104	0	60	20738
2026-01-26 21:57:54.89	107.09	14.45	-44.9	-59.6	3.8	1.49e+00	0	61	104	0	60	20735
2026-01-26 21:57:55.90	107.28	14.42	-44.9	-59.6	3.8	1.49e+00	0	62	104	0	60	20730
2026-01-26 21:57:56.91	107.48	14.38	-44.9	-59.7	3.8	1.49e+00	0	61	104	0	60	20790
2026-01-26 21:57:57.92	107.68	14.34	-44.9	-59.6	3.8	1.49e+00	0	62	104	0	60	20771
2026-01-26 21:57:58.93	107.87	14.30	-44.9	-59.7	3.8	1.49e+00	0	62	104	0	60	20780
2026-01-26 21:57:59.94	108.07	14.26	-44.9	-59.6	3.8	1.49e+00	0	62	104	0	60	20664
2026-01-26 21:58:00.95	108.26	14.22	-44.9	-59.6	3.8	1.49e+00	0	62	104	0	60	20708
2026-01-26 21:58:01.96	108.46	14.19	-44.9	-59.6	3.8	1.49e+00	0	62	104	0	60	20712
2026-01-26 21:58:02.97	108.65	14.15	-44.9	-59.6	3.8	1.49e+00	0	62	104	0	60	20766
2026-01-26 21:58:03.98	108.84	14.11	-44.9	-59.7	3.8	1.49e+00	0	62	104	0	60	20848
2026-01-26 21:58:04.99	109.04	14.07	-44.9	-59.6	3.8	1.49e+00	0	62	104	0	60	20726
2026-01-26 21:58:06.01	109.23	14.03	-44.9	-59.7	3.8	1.49e+00	0	62	104	0	60	20801
2026-01-26 21:58:07.02	109.42	13.99	-44.9	-59.6	3.8	1.49e+00	0	62	104	0	60	20724
2026-01-26 21:58:08.03	109.61	13.95	-44.9	-59.6	3.8	1.49e+00	0	62	104	0	60	20740
2026-01-26 21:58:09.04	109.80	13.91	-44.9	-59.6	3.8	1.49e+00	0	62	104	0	60	20652
2026-01-26 21:58:10.05	109.99	13.87	-44.9	-59.6	3.8	1.49e+00	0	62	104	0	60	20693
2026-01-26 21:58:11.06	110.18	13.82	-44.9	-59.6	3.8	1.49e+00	0	62	104	0	60	20687
2026-01-26 21:58:12.07	110.37	13.78	-44.9	-59.6	3.8	1.49e+00	0	62	104	0	60	20743
2026-01-26 21:58:13.08	110.56	13.74	-44.9	-59.6	3.8	1.49e+00	0	62	104	0	60	20705
2026-01-26 21:58:14.09	110.75	13.70	-44.9	-59.6	3.8	1.49e+00	0	62	104	0	60	20735
2026-01-26 21:58:15.10	110.94	13.66	-44.9	-59.6	3.8	1.49e+00	0	62	104	0	60	20669
2026-01-26 21:58:16.11	111.12	13.62	-44.9	-59.6	3.8	1.49e+00	0	62	104	0	60	20721
2026-01-26 21:58:17.12	111.31	13.57	-44.9	-59.6	3.8	1.49e+00	0	62	104	0	60	20731
2026-01-26 21:58:18.13	111.50	13.53	-44.9	-59.6	3.8	1.49e+00	0	62	104	0	60	20724
2026-01-26 21:58:19.15	111.68	13.49	-44.9	-59.6	3.8	1.49e+00	0	62	104	0	60	20748
2026-01-26 21:58:20.16	111.87	13.45	-44.9	-59.6	3.8	1.49e+00	0	62	104	0	60	20718
2026-01-26 21:58:21.17	112.05	13.40	-44.9	-59.6	3.8	1.49e+00	0	62	104	0	60	20715
2026-01-26 21:58:22.18	112.24	13.36	-44.9	-59.6	3.8	1.49e+00	0	62	104	0	60	20776
2026-01-26 21:58:23.19	112.42	13.32	-44.9	-59.6	3.8	1.49e+00	0	62	104	0	60	20710
2026-01-26 21:58:24.20	112.60	13.27	-44.9	-59.6	3.8	1.49e+00	0	62	104	0	60	20757
2026-01-26 21:58:25.21	112.79	13.23	-44.9	-59.6	3.8	1.49e+00	0	62	104	0	60	20633
2026-01-26 21:58:26.22	112.97	13.18	-44.9	-59.6	3.8	1.49e+00	0	62	104	0	60	20727
2026-01-26 21:58:27.23	113.15	13.14	-44.9	-59.6	3.8	1.49e+00	0	62	104	0	60	20761
2026-01-26 21:58:28.24	113.33	13.10	-44.9	-59.6	3.8	1.49e+00	0	62	104	0	60	20711
2026-01-26 21:58:29.25	113.51	13.05	-44.9	-59.6	3.8	1.49e+00	0	62	104	0	60	20700
2026-01-26 21:58:30.26	113.69	13.01	-44.9	-59.7	3.8	1.49e+00	0	62	104	0	60	20777
2026-01-26 21:58:31.27	113.87	12.96	-44.9	-59.6	3.8	1.49e+00	0	62	104	0	60	20662
2026-01-26 21:58:32.28	114.05	12.92	-44.9	-59.6	3.8	1.49e+00	0	62	104	0	60	20703
2026-01-26 21:58:33.29	114.23	12.87	-44.9	-59.6	3.8	1.49e+00	0	62	104	0	60	20723
2026-01-26 21:58:34.30	114.41	12.82	-44.9	-59.6	3.8	1.49e+00	0	62	104	0	60	20674
2026-01-26 21:58:35.31	114.58	12.78	-44.9	-59.6	3.8	1.49e+00	0	62	104	0	60	20705
2026-01-26 21:58:36.32	114.76	12.73	-44.9	-59.6	3.8	1.49e+00	0	62	104	0	60	20662
2026-01-26 21:58:37.33	114.94	12.69	-44.9	-59.6	3.8	1.49e+00	0	62	104	0	60	20739
2026-01-26 21:58:38.34	115.11	12.64	-44.9	-59.6	3.8	1.49e+00	0	62	104	0	60	20649
2026-01-26 21:58:39.35	115.29	12.60	-44.9	-59.6	3.8	1.49e+00	0	62	104	0	60	20678
2026-01-26 21:58:40.37	115.46	12.55	-44.9	-59.6	3.8	1.49e+00	0	62	104	0	60	20685
2026-01-26 21:58:41.38	115.64	12.50	-44.9	-59.6	3.8	1.49e+00	0	62	104	0	60	20642
2026-01-26 21:58:42.39	115.81	12.46	-44.9	-59.6	3.8	1.49e+00	0	62	104	0	60	20654
2026-01-26 21:58:43.40	115.98	12.41	-44.8	-59.6	3.8	1.49e+00	0	62	104	0	60	20701
2026-01-26 21:58:44.41	116.15	12.36	-44.9	-59.6	3.8	1.49e+00	0	62	104	0	60	20697
2026-01-26 21:58:45.42	116.33	12.31	-44.9	-59.6	3.8	1.49e+00	0	62	104	0	60	20737
2026-01-26 21:58:46.43	116.50	12.27	-44.9	-59.6	3.8	1.49e+00	0	62	104	0	60	20660
2026-01-26 21:58:47.44	116.67	12.22	-44.8	-59.6	3.8	1.49e+00	0	62	104	0	60	20596
2026-01-26 21:58:48.45	116.84	12.17	-44.8	-59.6	3.8	1.49e+00	0	62	104	0	60	20632
2026-01-26 21:58:49.46	117.01	12.12	-44.9	-59.6	3.8	1.49e+00	0	62	104	0	60	20724
2026-01-26 21:58:50.47	117.18	12.08	-44.9	-59.6	3.8	1.49e+00	0	62	104	0	60	20690
2026-01-26 21:58:51.48	117.35	12.03	-44.8	-59.6	3.8	1.49e+00	0	62	104	0	60	20640
2026-01-26 21:58:52.49	117.51	11.98	-44.8	-59.6	3.8	1.49e+00	0	62	104	0	60	20656
2026-01-26 21:58:53.50	117.68	11.93	-44.9	-59.6	3.8	1.49e+00	0	62	104	0	60	20643
2026-01-26 21:58:54.51	117.85	11.88	-44.8	-59.6	3.8	1.49e+00	0	62	104	0	60	20565
2026-01-26 21:58:55.52	118.02	11.84	-44.8	-59.6	3.8	1.49e+00	0	62	104	0	60	20626
2026-01-26 21:58:56.53	118.18	11.79	-44.8	-59.6	3.8	1.49e+00	0	62	104	0	60	20617
2026-01-26 21:58:57.54	118.35	11.74	-44.8	-59.6	3.8	1.49e+00	0	62	104	0	60	20648
2026-01-26 21:58:58.55	118.51	11.69	-44.8	-59.6	3.8	1.49e+00	0	62	104	0	60	20628
2026-01-26 21:58:59.56	118.68	11.64	-44.9	-59.6	3.8	1.49e+00	0	62	104	0	60	20645
2026-01-26 21:59:00.57	118.84	11.59	-44.8	-59.6	3.8	1.49e+00	0	62	104	0	60	20595
2026-01-26 21:59:01.58	119.00	11.54	-44.8	-59.6	3.8	1.49e+00	0	62	104	0	60	20578
2026-01-26 21:59:02.59	119.17	11.49	-44.8	-59.6	3.8	1.49e+00	0	62	104	0	60	20623
2026-01-26 21:59:03.60	119.33	11.44	-44.8	-59.6	3.8	1.49e+00	0	62	104	0	60	20604
2026-01-26 21:59:04.61	119.49	11.39	-44.8	-59.6	3.8	1.49e+00	0	62	104	0	60	20600
2026-01-26 21:59:05.62	119.65	11.34	-44.8	-59.6	3.8	1.49e+00	0	62	104	0	60	20636
2026-01-26 21:59:06.63	119.81	11.29	-44.8	-59.6	3.8	1.49e+00	0	62	104	0	60	20603
2026-01-26 21:59:07.64	119.97	11.25	-44.8	-59.6	3.8	1.49e+00	0	62	104	0	60	20560
2026-01-26 21:59:08.65	120.13	11.20	-44.8	-59.6	3.8	1.49e+00	0	62	104	0	60	20577
2026-01-26 21:59:09.66	120.29	11.15	-44.8	-59.6	3.8	1.49e+00	0	62	104	0	60	20589
2026-01-26 21:59:10.67	120.45	11.10	-44.8	-59.6	3.8	1.49e+00	0	62	104	0	60	20600
2026-01-26 21:59:11.68	120.61	11.04	-44.8	-59.6	3.8	1.49e+00	0	62	104	0	60	20646
2026-01-26 21:59:12.69	120.77	10.99	-44.8	-59.6	3.8	1.49e+00	0	62	104	0	60	20557
2026-01-26 21:59:13.70	120.92	10.94	-44.8	-59.6	3.8	1.49e+00	0	62	104	0	60	20606
2026-01-26 21:59:14.71	121.08	10.89	-44.8	-59.5	3.8	1.49e+00	0	62	104	0	60	20525
2026-01-26 21:59:15.72	121.24	10.84	-44.8	-59.5	3.8	1.49e+00	0	62	104	0	60	20533
2026-01-26 21:59:16.74	121.39	10.79	-44.8	-59.6	3.8	1.49e+00	0	62	104	0	60	20578
2026-01-26 21:59:17.75	121.55	10.74	-44.8	-59.6	3.8	1.49e+00	0	62	104	0	60	20564
2026-01-26 21:59:18.76	121.70	10.69	-44.8	-59.6	3.8	1.49e+00	0	62	104	0	60	20592
2026-01-26 21:59:19.77	121.86	10.64	-44.8	-59.6	3.8	1.49e+00	0	62	104	0	60	20552
2026-01-26 21:59:20.78	122.01	10.59	-44.8	-59.6	3.8	1.49e+00	0	62	104	0	60	20629
2026-01-26 21:59:21.79	122.16	10.54	-44.8	-59.5	3.8	1.49e+00	0	62	104	0	60	20497
2026-01-26 21:59:22.80	122.31	10.49	-44.8	-59.5	3.8	1.49e+00	0	62	104	0	60	20486
2026-01-26 21:59:23.81	122.47	10.44	-44.8	-59.5	3.8	1.49e+00	0	62	104	0	60	20501
2026-01-26 21:59:24.82	122.62	10.38	-44.8	-59.5	3.8	1.49e+00	0	62	104	0	60	20477
2026-01-26 21:59:25.83	122.77	10.33	-44.8	-59.5	3.8	1.49e+00	0	62	104	0	60	20484
2026-01-26 21:59:26.84	122.92	10.28	-44.8	-59.6	3.8	1.49e+00	0	62	104	0	60	20542
2026-01-26 21:59:27.85	123.07	10.23	-44.8	-59.5	3.8	1.49e+00	0	62	104	0	60	20452
2026-01-26 21:59:28.86	123.22	10.18	-44.8	-59.5	3.8	1.49e+00	0	62	104	0	60	20475
2026-01-26 21:59:29.87	123.37	10.13	-44.8	-59.5	3.8	1.49e+00	0	62	104	0	60	20485
2026-01-26 21:59:30.88	123.52	10.08	-44.8	-59.5	3.8	1.49e+00	0	62	104	0	60	20499
2026-01-26 21:59:31.89	123.66	10.02	-44.8	-59.5	3.8	1.49e+00	0	62	104	0	60	20492
2026-01-26 21:59:32.90	123.81	9.97	-44.8	-59.5	3.8	1.49e+00	0	62	104	0	60	20427
2026-01-26 21:59:33.91	123.96	9.92	-44.8	-59.5	3.8	1.49e+00	0	62	104	0	60	20455
2026-01-26 21:59:34.92	124.10	9.87	-44.8	-59.5	3.8	1.49e+00	0	62	104	0	60	20500
2026-01-26 21:59:35.93	124.25	9.82	-44.8	-59.5	3.8	1.49e+00	0	62	104	0	60	20514
2026-01-26 21:59:36.94	124.39	9.77	-44.8	-59.5	3.8	1.49e+00	0	62	104	0	60	20432
2026-01-26 21:59:37.95	124.54	9.71	-44.8	-59.5	3.8	1.49e+00	0	62	104	0	60	20423
2026-01-26 21:59:38.96	124.68	9.66	-44.8	-59.5	3.8	1.49e+00	0	62	104	0	60	20444
2026-01-26 21:59:39.97	124.83	9.61	-44.8	-59.5	3.8	1.49e+00	0	62	104	0	60	20452
2026-01-26 21:59:40.99	124.97	9.56	-44.8	-59.5	3.8	1.49e+00	0	62	104	0	60	20404
2026-01-26 21:59:42.00	125.11	9.50	-44.8	-59.5	3.8	1.49e+00	0	62	104	0	60	20447
2026-01-26 21:59:43.01	125.26	9.45	-44.8	-59.5	3.8	1.49e+00	0	62	104	0	60	20407
2026-01-26 21:59:44.02	125.40	9.40	-44.7	-59.5	3.8	1.49e+00	0	62	104	0	60	20411
2026-01-26 21:59:45.03	125.54	9.35	-44.7	-59.5	3.8	1.49e+00	0	62	104	0	60	20410
2026-01-26 21:59:46.04	125.68	9.30	-44.7	-59.5	3.8	1.49e+00	0	62	104	0	60	20358
2026-01-26 21:59:47.05	125.82	9.24	-44.7	-59.4	3.8	1.49e+00	0	62	104	0	60	20296
2026-01-26 21:59:48.06	125.96	9.19	-44.7	-59.5	3.8	1.49e+00	0	62	104	0	60	20349
2026-01-26 21:59:49.07	126.10	9.14	-44.7	-59.5	3.8	1.49e+00	0	62	104	0	60	20333
2026-01-26 21:59:50.08	126.24	9.09	-44.7	-59.5	3.8	1.49e+00	0	62	104	0	60	20340
2026-01-26 21:59:51.09	126.38	9.03	-44.7	-59.4	3.8	1.49e+00	0	62	104	0	60	20293
2026-01-26 21:59:52.10	126.52	8.98	-44.7	-59.4	3.8	1.49e+00	0	62	104	0	60	20301
2026-01-26 21:59:53.11	126.65	8.93	-44.7	-59.5	3.8	1.49e+00	0	62	104	0	60	20314
2026-01-26 21:59:54.12	126.79	8.88	-44.7	-59.5	3.8	1.49e+00	0	62	104	0	60	20319
2026-01-26 21:59:55.13	126.93	8.82	-44.7	-59.5	3.8	1.49e+00	0	62	104	0	60	20309
2026-01-26 21:59:56.14	127.06	8.77	-44.7	-59.5	3.8	1.49e+00	0	62	104	0	60	20339
2026-01-26 21:59:57.15	127.20	8.72	-44.7	-59.5	3.8	1.49e+00	0	62	104	0	60	20351
2026-01-26 21:59:58.16	127.33	8.66	-44.7	-59.4	3.8	1.49e+00	0	62	104	0	60	20269
2026-01-26 21:59:59.17	127.47	8.61	-44.7	-59.4	3.8	1.49e+00	0	62	104	0	60	20296
2026-01-26 22:00:00.18	127.60	8.56	-44.7	-59.4	3.8	1.49e+00	0	62	104	0	60	20284
2026-01-26 22:00:01.19	127.74	8.51	-44.7	-59.5	3.8	1.49e+00	0	62	104	0	60	20363
2026-01-26 22:00:02.20	127.87	8.45	-44.7	-59.4	3.8	1.49e+00	0	62	104	0	60	20236
2026-01-26 22:00:03.21	128.00	8.40	-44.7	-59.4	3.8	1.49e+00	0	62	104	0	60	20259
2026-01-26 22:00:04.22	128.13	8.35	-44.7	-59.4	3.8	1.49e+00	0	62	104	0	60	20254
2026-01-26 22:00:05.23	128.27	8.29	-44.7	-59.4	3.8	1.49e+00	0	62	104	0	60	20267
2026-01-26 22:00:06.24	128.40	8.24	-44.7	-59.5	3.8	1.49e+00	0	62	104	0	60	20310
2026-01-26 22:00:07.25	128.53	8.19	-44.7	-59.4	3.8	1.49e+00	0	62	104	0	60	20245
2026-01-26 22:00:08.26	128.66	8.14	-44.7	-59.4	3.8	1.49e+00	0	62	104	0	60	20209
2026-01-26 22:00:09.27	128.79	8.08	-44.7	-59.4	3.8	1.49e+00	0	62	104	0	60	20219
2026-01-26 22:00:10.28	128.92	8.03	-44.7	-59.4	3.8	1.49e+00	0	62	104	0	60	20256
2026-01-26 22:00:11.29	129.05	7.98	-44.6	-59.4	3.8	1.49e+00	0	62	104	0	60	20167
2026-01-26 22:00:12.30	129.18	7.92	-44.6	-59.4	3.8	1.49e+00	0	62	104	0	60	20120
2026-01-26 22:00:13.31	129.30	7.87	-44.7	-59.4	3.8	1.49e+00	0	62	104	0	60	20199
2026-01-26 22:00:14.33	129.43	7.82	-44.7	-59.4	3.8	1.49e+00	0	62	104	0	60	20197
2026-01-26 22:00:15.33	129.56	7.76	-44.7	-59.4	3.8	1.49e+00	0	62	104	0	60	20188
2026-01-26 22:00:16.34	129.69	7.71	-44.7	-59.4	3.8	1.49e+00	0	62	104	0	60	20200
2026-01-26 22:00:17.35	129.81	7.66	-44.7	-59.4	3.8	1.49e+00	0	62	104	0	60	20153
2026-01-26 22:00:18.37	129.94	7.61	-44.6	-59.4	3.8	1.49e+00	0	62	104	0	60	20151
2026-01-26 22:00:19.37	130.06	7.55	-44.6	-59.4	3.8	1.49e+00	0	62	104	0	60	20140
2026-01-26 22:00:20.38	130.19	7.50	-44.6	-59.4	3.8	1.49e+00	0	62	104	0	60	20188
2026-01-26 22:00:21.39	130.31	7.45	-44.6	-59.4	3.8	1.49e+00	0	62	104	0	60	20215
2026-01-26 22:00:22.40	130.44	7.39	-44.6	-59.4	3.8	1.49e+00	0	62	104	0	60	20076
2026-01-26 22:00:23.41	130.56	7.34	-44.6	-59.4	3.8	1.49e+00	0	62	104	0	60	20168
2026-01-26 22:00:24.42	130.68	7.29	-44.6	-59.4	3.8	1.49e+00	0	62	104	0	60	20150
2026-01-26 22:00:25.43	130.81	7.23	-44.6	-59.4	3.8	1.49e+00	0	62	104	0	60	20117
2026-01-26 22:00:26.44	130.93	7.18	-44.6	-59.4	3.8	1.49e+00	0	62	104	0	60	20111
2026-01-26 22:00:27.45	131.05	7.13	-44.6	-59.3	3.8	1.49e+00	0	62	104	0	60	20001
2026-01-26 22:00:28.46	131.17	7.07	-44.6	-59.3	3.8	1.49e+00	0	62	104	0	60	20054
2026-01-26 22:00:29.47	131.29	7.02	-44.6	-59.4	3.8	1.49e+00	0	62	104	0	60	20128
2026-01-26 22:00:30.49	131.42	6.97	-44.6	-59.4	3.8	1.49e+00	0	62	104	0	60	20076
2026-01-26 22:00:31.49	131.53	6.92	-44.6	-59.3	3.8	1.49e+00	0	62	104	0	60	20009
2026-01-26 22:00:32.50	131.65	6.86	-44.6	-59.3	3.8	1.49e+00	0	62	104	0	60	20043
2026-01-26 22:00:33.51	131.77	6.81	-44.6	-59.3	3.8	1.49e+00	0	62	104	0	60	19992
2026-01-26 22:00:34.52	131.89	6.76	-44.6	-59.3	3.8	1.49e+00	0	62	104	0	60	19997
2026-01-26 22:00:35.54	132.01	6.70	-44.5	-59.4	3.8	1.49e+00	0	62	104	0	60	20089
2026-01-26 22:00:36.55	132.13	6.65	-44.6	-59.3	3.8	1.49e+00	0	62	104	0	60	19936
2026-01-26 22:00:37.56	132.25	6.60	-44.6	-59.3	3.8	1.49e+00	0	62	104	0	60	19998
2026-01-26 22:00:38.57	132.37	6.54	-44.5	-59.3	3.8	1.49e+00	0	62	104	0	60	19991
2026-01-26 22:00:39.58	132.48	6.49	-44.5	-59.3	3.8	1.49e+00	0	62	104	0	60	20000
2026-01-26 22:00:40.59	132.60	6.44	-44.5	-59.3	3.8	1.49e+00	0	62	104	0	60	19888
2026-01-26 22:00:41.60	132.72	6.38	-44.5	-59.3	3.8	1.49e+00	0	62	104	0	60	19968
2026-01-26 22:00:42.61	132.83	6.33	-44.6	-59.3	3.8	1.49e+00	0	62	104	0	60	20020
2026-01-26 22:00:43.62	132.95	6.28	-44.5	-59.3	3.8	1.49e+00	0	62	104	0	60	19891
2026-01-26 22:00:44.63	133.06	6.23	-44.5	-59.3	3.8	1.49e+00	0	62	104	0	60	19911
2026-01-26 22:00:45.64	133.18	6.17	-44.5	-59.3	3.8	1.49e+00	0	62	104	0	60	19945
2026-01-26 22:00:46.65	133.29	6.12	-44.5	-59.3	3.8	1.49e+00	0	62	104	0	60	19894
2026-01-26 22:00:47.66	133.40	6.07	-44.5	-59.3	3.8	1.49e+00	0	62	104	0	60	19950
2026-01-26 22:00:48.67	133.52	6.01	-44.5	-59.3	3.8	1.49e+00	0	62	104	0	60	19999
2026-01-26 22:00:49.68	133.63	5.96	-44.5	-59.3	3.8	1.49e+00	0	62	104	0	60	19916
2026-01-26 22:00:50.69	133.74	5.91	-44.5	-59.3	3.8	1.49e+00	0	62	104	0	60	19890
2026-01-26 22:00:51.70	133.85	5.86	-44.5	-59.3	3.8	1.49e+00	0	62	104	0	60	19903
2026-01-26 22:00:52.71	133.97	5.80	-44.5	-59.3	3.8	1.49e+00	0	62	104	0	60	19849
2026-01-26 22:00:53.72	134.08	5.75	-44.5	-59.3	3.8	1.49e+00	0	62	104	0	60	19876
2026-01-26 22:00:54.73	134.19	5.70	-44.5	-59.3	3.8	1.49e+00	0	62	104	0	60	19878
2026-01-26 22:00:55.74	134.30	5.64	-44.5	-59.3	3.8	1.49e+00	0	62	104	0	60	19858
2026-01-26 22:00:56.76	134.41	5.59	-44.5	-59.3	3.8	1.49e+00	0	62	104	0	60	19855
2026-01-26 22:00:57.77	134.52	5.54	-44.5	-59.3	3.8	1.49e+00	0	62	104	0	60	19843
2026-01-26 22:00:58.78	134.63	5.48	-44.5	-59.2	3.8	1.49e+00	0	62	104	0	60	19835
2026-01-26 22:00:59.79	134.74	5.43	-44.5	-59.2	3.8	1.49e+00	0	62	104	0	60	19772
2026-01-26 22:01:00.80	134.85	5.38	-44.5	-59.2	3.8	1.49e+00	0	62	104	0	60	19786
2026-01-26 22:01:01.81	134.96	5.33	-44.5	-59.2	3.8	1.49e+00	0	62	104	0	60	19708
2026-01-26 22:01:02.82	135.06	5.27	-44.5	-59.2	3.8	1.49e+00	0	62	104	0	60	19729
2026-01-26 22:01:03.83	135.17	5.22	-44.5	-59.2	3.8	1.49e+00	0	62	104	0	60	19812
2026-01-26 22:01:04.84	135.28	5.17	-44.5	-59.2	3.8	1.49e+00	0	62	104	0	60	19802
2026-01-26 22:01:05.85	135.39	5.12	-44.5	-59.2	3.8	1.49e+00	0	62	104	0	60	19707
2026-01-26 22:01:06.86	135.49	5.06	-44.4	-59.2	3.8	1.49e+00	0	62	104	0	60	19735
2026-01-26 22:01:07.87	135.60	5.01	-44.4	-59.2	3.8	1.49e+00	0	62	104	0	60	19688
2026-01-26 22:01:08.88	135.70	4.96	-44.4	-59.2	3.8	1.49e+00	0	62	104	0	60	19619
2026-01-26 22:01:09.89	135.81	4.91	-44.4	-59.2	3.8	1.49e+00	0	62	104	0	60	19682
2026-01-26 22:01:10.91	135.91	4.85	-44.4	-59.2	3.8	1.49e+00	0	62	104	0	60	19634
2026-01-26 22:01:11.92	136.02	4.80	-44.4	-59.2	3.8	1.49e+00	0	62	104	0	60	19643
2026-01-26 22:01:12.93	136.12	4.75	-44.4	-59.2	3.8	1.49e+00	0	62	104	0	60	19679
2026-01-26 22:01:13.94	136.23	4.70	-44.4	-59.2	3.8	1.49e+00	0	62	104	0	60	19682
2026-01-26 22:01:14.95	136.33	4.64	-44.4	-59.2	3.8	1.49e+00	0	62	104	0	60	19655
2026-01-26 22:01:15.96	136.43	4.59	-44.4	-59.2	3.8	1.49e+00	0	62	104	0	60	19652
2026-01-26 22:01:16.97	136.54	4.54	-44.4	-59.1	3.8	1.49e+00	0	62	104	0	60	19593
2026-01-26 22:01:17.98	136.64	4.49	-44.4	-59.1	3.8	1.49e+00	0	62	104	0	60	19579
2026-01-26 22:01:18.99	136.74	4.43	-44.4	-59.1	3.8	1.49e+00	0	62	104	0	60	19496
2026-01-26 22:01:20.00	136.84	4.38	-44.4	-59.1	3.8	1.49e+00	0	62	104	0	60	19562
2026-01-26 22:01:21.01	136.94	4.33	-44.4	-59.1	3.8	1.49e+00	0	62	104	0	60	19535
2026-01-26 22:01:22.02	137.05	4.28	-44.4	-59.1	3.8	1.49e+00	0	62	104	0	60	19577
2026-01-26 22:01:23.03	137.15	4.23	-44.4	-59.1	3.8	1.49e+00	0	62	104	0	60	19525
2026-01-26 22:01:24.04	137.25	4.17	-44.3	-59.1	3.8	1.49e+00	0	62	104	0	60	19483
2026-01-26 22:01:25.05	137.35	4.12	-44.3	-59.1	3.8	1.49e+00	0	62	104	0	60	19438
2026-01-26 22:01:26.06	137.45	4.07	-44.3	-59.1	3.8	1.49e+00	0	62	104	0	60	19517
2026-01-26 22:01:27.07	137.55	4.02	-44.4	-59.1	3.8	1.49e+00	0	62	104	0	60	19507
2026-01-26 22:01:28.08	137.64	3.96	-44.3	-59.1	3.8	1.49e+00	0	62	104	0	60	19456
2026-01-26 22:01:29.09	137.74	3.91	-44.3	-59.1	3.8	1.49e+00	0	62	104	0	60	19471
2026-01-26 22:01:30.10	137.84	3.86	-44.3	-59.1	3.8	1.49e+00	0	62	104	0	60	19465
2026-01-26 22:01:31.11	137.94	3.81	-44.3	-59.1	3.8	1.49e+00	0	62	104	0	60	19487
2026-01-26 22:01:32.12	138.04	3.76	-44.3	-59.1	3.8	1.49e+00	0	62	104	0	60	19447
2026-01-26 22:01:33.13	138.13	3.71	-44.3	-59.1	3.8	1.49e+00	0	62	104	0	60	19493
2026-01-26 22:01:34.14	138.23	3.65	-44.3	-59.1	3.8	1.49e+00	0	62	104	0	60	19445
2026-01-26 22:01:35.15	138.33	3.60	-44.3	-59.0	3.8	1.49e+00	0	62	104	0	60	19378
2026-01-26 22:01:36.16	138.42	3.55	-44.3	-59.1	3.8	1.49e+00	0	62	104	0	60	19474
2026-01-26 22:01:37.17	138.52	3.50	-44.3	-59.1	3.8	1.49e+00	0	62	104	0	60	19501
2026-01-26 22:01:38.18	138.62	3.45	-44.3	-59.1	3.8	1.49e+00	0	62	104	0	60	19450
2026-01-26 22:01:39.19	138.71	3.39	-44.3	-59.1	3.8	1.49e+00	0	62	104	0	60	19471
2026-01-26 22:01:40.20	138.81	3.34	-44.3	-59.1	3.8	1.49e+00	0	62	104	0	60	19404
2026-01-26 22:01:41.21	138.90	3.29	-44.3	-59.1	3.8	1.49e+00	0	62	104	0	60	19399
2026-01-26 22:01:42.22	139.00	3.24	-44.3	-59.1	3.8	1.49e+00	0	62	104	0	60	19421
2026-01-26 22:01:43.24	139.09	3.19	-44.3	-59.1	3.8	1.49e+00	0	62	104	0	60	19439
2026-01-26 22:01:44.25	139.18	3.14	-44.3	-59.0	3.8	1.49e+00	0	62	104	0	60	19345
2026-01-26 22:01:45.26	139.28	3.08	-44.2	-59.0	3.8	1.49e+00	0	62	104	0	60	19373
2026-01-26 22:01:46.27	139.37	3.03	-44.3	-59.0	3.8	1.49e+00	0	62	104	0	60	19356
2026-01-26 22:01:47.28	139.46	2.98	-44.2	-59.0	3.8	1.49e+00	0	62	104	0	60	19315
2026-01-26 22:01:48.29	139.56	2.93	-44.2	-59.0	3.8	1.49e+00	0	62	104	0	60	19256
2026-01-26 22:01:49.30	139.65	2.88	-44.2	-59.0	3.8	1.49e+00	0	62	104	0	60	19324
2026-01-26 22:01:50.31	139.74	2.83	-44.2	-59.0	3.8	1.49e+00	0	62	104	0	60	19292
2026-01-26 22:01:51.32	139.83	2.78	-44.2	-59.0	3.8	1.49e+00	0	62	104	0	60	19269
2026-01-26 22:01:52.33	139.92	2.73	-44.2	-59.0	3.8	1.49e+00	0	62	104	0	60	19290
2026-01-26 22:01:53.34	140.01	2.67	-44.2	-59.0	3.8	1.49e+00	0	62	104	0	60	19264
2026-01-26 22:01:54.35	140.10	2.62	-44.2	-59.0	3.8	1.49e+00	0	62	104	0	60	19214
2026-01-26 22:01:55.36	140.20	2.57	-44.2	-59.0	3.8	1.49e+00	0	62	104	0	60	19180
2026-01-26 22:01:56.37	140.29	2.52	-44.2	-59.0	3.8	1.49e+00	0	62	104	0	60	19186
2026-01-26 22:01:57.38	140.37	2.47	-44.2	-59.0	3.8	1.49e+00	0	62	104	0	60	19182
2026-01-26 22:01:58.39	140.46	2.42	-44.2	-58.9	3.8	1.49e+00	0	62	104	0	60	19157
2026-01-26 22:01:59.40	140.55	2.37	-44.2	-59.0	3.8	1.49e+00	0	62	104	0	60	19175
2026-01-26 22:02:00.41	140.64	2.32	-44.2	-58.9	3.8	1.49e+00	0	62	104	0	60	19113
2026-01-26 22:02:01.42	140.73	2.27	-44.2	-58.9	3.8	1.49e+00	0	62	104	0	60	19031
2026-01-26 22:02:02.43	140.82	2.22	-44.1	-58.9	3.8	1.49e+00	0	62	104	0	60	19134
2026-01-26 22:02:03.44	140.91	2.16	-44.1	-58.9	3.8	1.49e+00	0	62	104	0	60	19064
2026-01-26 22:02:04.45	140.99	2.11	-44.1	-58.9	3.8	1.49e+00	0	62	104	0	60	19075
2026-01-26 22:02:05.46	141.08	2.06	-44.1	-58.9	3.8	1.49e+00	0	62	104	0	60	18961
2026-01-26 22:02:06.47	141.17	2.01	-44.1	-58.9	3.8	1.49e+00	0	62	104	0	60	19045
2026-01-26 22:02:07.48	141.26	1.96	-44.1	-58.8	3.8	1.49e+00	0	62	104	0	60	18945

#Closed at: 2026-01-26 22:02:07
#Recorded file [0 MB]: D:/lorett/data/31039_260127_005011.dat