passes_logs/2026/01/26/R2.0S_Moscow/R2.0S_Moscow__20260126_084951_NOAA_21_JPSS-2_rec.log

#Pass ID: 20260126_084951_NOAA 21 (JPSS-2)
#Satellite: NOAA 21 (JPSS-2)
#Configuration: NOAA-21
#almurnet v.1.7.20251203
#Start time: 2026-01-26 08:49:52

#Version: 2.2.20231116
#Station: R2.0S_Moscow
#Location: 37.707566 lon 55.798166 lat
#TLE: 1 54234U 22150A   26025.79694208  .00000182  00000+0  10700-3 0  9999
#TLE: 2 54234  98.7509 326.5666 0000777 213.2444 146.8684 14.19539347166346

#Time	Az	El	Level	Level2	SNR	BER	BlckErr	Temp	State	Recorded	gain1	gain2
2026-01-26 08:49:52.03	128.84	2.01	-27.7	-44.5	3.8	1.52e+00	0	53	0	0	29	21689
2026-01-26 08:49:53.03	128.79	2.07	-25.7	-39.5	3.6	1.52e+00	0	53	104	0	21	19333
2026-01-26 08:49:54.04	128.75	2.13	-28.0	-43.0	3.7	1.52e+00	0	53	104	0	22	27197
2026-01-26 08:49:55.05	128.70	2.19	-23.7	-36.3	3.6	1.52e+00	0	53	104	0	20	14207
2026-01-26 08:49:56.06	128.66	2.25	-26.0	-40.4	3.5	1.52e+00	0	53	104	0	24	17906
2026-01-26 08:49:57.07	128.61	2.32	-27.4	-40.5	3.5	1.52e+00	0	53	104	0	22	20338
2026-01-26 08:49:58.08	128.57	2.38	-29.5	-42.3	3.9	1.52e+00	0	53	104	0	27	18895
2026-01-26 08:49:59.09	128.52	2.44	-26.9	-41.1	3.6	1.52e+00	0	53	104	0	27	16442
2026-01-26 08:50:00.10	128.47	2.50	-27.4	-41.0	3.8	1.52e+00	0	53	104	0	26	17216
2026-01-26 08:50:01.11	128.43	2.56	-24.3	-37.7	3.6	1.52e+00	0	54	104	0	23	14004
2026-01-26 08:50:02.12	128.38	2.63	-25.2	-39.0	3.8	1.52e+00	0	54	104	0	23	16267
2026-01-26 08:50:03.13	128.33	2.69	-25.5	-38.7	3.8	1.52e+00	0	54	104	0	24	14793
2026-01-26 08:50:04.14	128.29	2.75	-25.3	-38.5	3.6	1.52e+00	0	54	104	0	24	14445
2026-01-26 08:50:05.16	128.24	2.82	-26.5	-40.0	3.6	1.52e+00	0	54	104	0	25	16247
2026-01-26 08:50:06.17	128.19	2.88	-21.7	-34.6	3.7	1.52e+00	0	54	104	0	26	8224
2026-01-26 08:50:07.18	128.14	2.94	-28.9	-42.2	3.7	1.51e+00	0	54	104	0	29	16685
2026-01-26 08:50:08.19	128.09	3.01	-33.9	-48.2	4.1	1.51e+00	0	54	104	0	39	18627
2026-01-26 08:50:09.20	128.05	3.07	-31.8	-46.9	3.9	1.51e+00	0	54	104	0	37	17967
2026-01-26 08:50:10.21	128.00	3.13	-31.9	-47.4	4.0	1.52e+00	0	54	104	0	33	23972
2026-01-26 08:50:11.22	127.95	3.20	-29.3	-45.4	4.0	1.51e+00	0	54	104	0	27	26861
2026-01-26 08:50:12.23	127.90	3.26	-26.9	-41.2	4.0	1.51e+00	0	54	104	0	33	11778
2026-01-26 08:50:13.24	127.85	3.33	-30.6	-45.9	4.0	1.52e+00	0	54	104	0	34	19062
2026-01-26 08:50:14.25	127.80	3.39	-34.4	-48.9	4.0	1.51e+00	0	54	104	0	38	21436
2026-01-26 08:50:15.26	127.75	3.45	-34.6	-50.2	3.9	1.51e+00	0	54	104	0	39	23382
2026-01-26 08:50:16.27	127.70	3.52	-30.6	-43.9	3.8	1.51e+00	0	54	104	0	21	31916
2026-01-26 08:50:17.28	127.65	3.58	-32.1	-49.0	4.1	1.51e+00	0	54	104	0	29	36318
2026-01-26 08:50:18.30	127.60	3.65	-29.7	-43.2	3.5	1.52e+00	0	54	104	0	22	27739
2026-01-26 08:50:19.31	127.55	3.71	-30.3	-44.7	3.9	1.52e+00	0	55	104	0	32	18597
2026-01-26 08:50:20.32	127.50	3.78	-25.8	-43.1	3.9	1.51e+00	0	55	104	0	29	18480
2026-01-26 08:50:21.33	127.45	3.84	-30.5	-43.5	3.7	1.51e+00	0	55	104	0	31	17210
2026-01-26 08:50:22.34	127.40	3.91	-30.3	-49.9	4.1	1.51e+00	0	55	104	0	38	24015
2026-01-26 08:50:23.35	127.35	3.97	-32.1	-48.0	3.9	1.51e+00	0	55	104	0	33	25745
2026-01-26 08:50:24.36	127.30	4.04	-30.0	-43.5	3.7	1.51e+00	0	55	104	0	29	19216
2026-01-26 08:50:25.37	127.24	4.10	-30.3	-48.6	3.9	1.51e+00	0	55	104	0	34	25975
2026-01-26 08:50:26.38	127.19	4.17	-32.9	-47.0	4.1	1.51e+00	0	55	104	0	33	22904
2026-01-26 08:50:27.39	127.14	4.24	-31.9	-48.8	3.8	1.51e+00	0	55	104	0	37	22379
2026-01-26 08:50:28.40	127.09	4.30	-29.2	-45.4	3.9	1.51e+00	0	55	104	0	32	20292
2026-01-26 08:50:29.41	127.03	4.37	-34.3	-49.5	4.2	1.52e+00	0	55	104	0	36	25562
2026-01-26 08:50:30.42	126.98	4.43	-33.4	-47.9	3.6	1.51e+00	0	55	104	0	26	37916
2026-01-26 08:50:31.43	126.93	4.50	-23.4	-36.6	3.6	1.52e+00	0	55	104	0	17	17401
2026-01-26 08:50:32.44	126.87	4.57	-31.2	-46.1	3.7	1.52e+00	0	55	104	0	34	19497
2026-01-26 08:50:33.45	126.82	4.63	-30.6	-45.9	3.6	1.51e+00	0	56	104	0	29	25434
2026-01-26 08:50:34.47	126.77	4.70	-28.9	-44.9	3.8	1.51e+00	0	56	104	0	31	20217
2026-01-26 08:50:35.47	126.71	4.77	-31.0	-45.4	4.0	1.51e+00	0	56	104	0	26	28509
2026-01-26 08:50:36.48	126.66	4.83	-31.4	-45.2	4.0	1.52e+00	0	56	104	0	33	18573
2026-01-26 08:50:37.50	126.60	4.90	-31.1	-47.0	3.6	1.51e+00	0	56	104	0	32	24244
2026-01-26 08:50:38.50	126.55	4.97	-33.3	-49.1	4.0	1.51e+00	0	56	104	0	36	24684
2026-01-26 08:50:39.52	126.49	5.04	-33.5	-46.4	4.0	1.51e+00	0	56	104	0	38	15989
2026-01-26 08:50:40.53	126.44	5.10	-31.2	-45.1	3.9	1.51e+00	0	56	104	0	34	17311
2026-01-26 08:50:41.54	126.38	5.17	-25.3	-37.6	3.7	1.51e+00	0	56	104	0	22	14664
2026-01-26 08:50:42.54	126.32	5.24	-23.4	-36.7	3.7	1.52e+00	0	56	104	0	18	16504
2026-01-26 08:50:43.56	126.27	5.31	-26.1	-44.5	3.5	1.52e+00	0	56	104	0	30	20347
2026-01-26 08:50:44.57	126.21	5.38	-35.0	-47.3	4.1	1.51e+00	0	56	104	0	39	16752
2026-01-26 08:50:45.58	126.15	5.45	-31.5	-45.2	3.8	1.51e+00	0	56	104	0	32	19768
2026-01-26 08:50:46.59	126.10	5.51	-31.8	-49.9	3.8	1.51e+00	0	56	104	0	39	22634
2026-01-26 08:50:47.60	126.04	5.58	-34.9	-48.4	4.2	1.51e+00	0	56	104	0	37	21304
2026-01-26 08:50:48.61	125.98	5.65	-28.9	-44.1	4.3	1.51e+00	0	56	104	0	37	13051
2026-01-26 08:50:49.62	125.92	5.72	-28.1	-39.8	3.4	1.52e+00	0	56	104	0	21	20055
2026-01-26 08:50:50.63	125.86	5.79	-33.9	-49.1	3.6	1.51e+00	0	56	104	0	34	27507
2026-01-26 08:50:51.64	125.80	5.86	-31.9	-47.2	4.0	1.51e+00	0	56	104	0	36	19648
2026-01-26 08:50:52.65	125.75	5.93	-31.0	-46.6	3.7	1.51e+00	0	56	104	0	31	24693
2026-01-26 08:50:53.66	125.69	6.00	-29.6	-45.6	3.9	1.51e+00	0	56	104	0	31	21864
2026-01-26 08:50:54.67	125.63	6.07	-30.6	-44.9	3.8	1.51e+00	0	56	104	0	30	21368
2026-01-26 08:50:55.68	125.57	6.14	-28.6	-45.0	3.8	1.51e+00	0	57	104	0	30	21523
2026-01-26 08:50:56.69	125.51	6.21	-29.0	-44.7	4.0	1.51e+00	0	57	104	0	32	18686
2026-01-26 08:50:57.70	125.45	6.28	-30.0	-46.9	4.0	1.52e+00	0	56	104	0	33	22573
2026-01-26 08:50:58.71	125.38	6.35	-29.1	-42.6	3.7	1.52e+00	0	57	104	0	30	16437
2026-01-26 08:50:59.72	125.32	6.42	-27.4	-43.7	4.1	1.51e+00	0	57	104	0	37	12424
2026-01-26 08:51:00.73	125.26	6.49	-31.6	-47.2	3.7	1.52e+00	0	57	104	0	28	31235
2026-01-26 08:51:01.74	125.20	6.56	-26.6	-42.3	3.6	1.52e+00	0	57	104	0	28	17839
2026-01-26 08:51:02.75	125.14	6.63	-24.8	-38.7	3.5	1.52e+00	0	57	104	0	21	17508
2026-01-26 08:51:03.76	125.08	6.70	-29.4	-44.8	4.0	1.52e+00	0	57	104	0	29	22407
2026-01-26 08:51:04.77	125.01	6.78	-27.3	-42.1	3.7	1.52e+00	0	57	104	0	26	19509
2026-01-26 08:51:05.78	124.95	6.85	-34.5	-50.0	4.0	1.51e+00	0	57	104	0	35	28742
2026-01-26 08:51:06.79	124.89	6.92	-27.3	-42.5	3.8	1.52e+00	0	57	104	0	29	17193
2026-01-26 08:51:07.80	124.82	6.99	-27.6	-42.4	3.8	1.51e+00	0	57	104	0	26	20259
2026-01-26 08:51:08.81	124.76	7.06	-28.4	-43.4	3.4	1.51e+00	0	57	104	0	23	27000
2026-01-26 08:51:09.82	124.69	7.14	-31.7	-46.0	4.0	1.51e+00	0	57	104	0	34	19379
2026-01-26 08:51:10.84	124.63	7.21	-27.5	-43.5	3.7	1.52e+00	0	57	104	0	25	24136
2026-01-26 08:51:11.85	124.56	7.28	-25.3	-39.9	3.9	1.52e+00	0	57	104	0	21	20121
2026-01-26 08:51:12.86	124.50	7.35	-25.2	-40.0	3.8	1.52e+00	0	57	104	0	23	18225
2026-01-26 08:51:13.87	124.43	7.43	-25.6	-37.7	3.7	1.52e+00	0	57	104	0	19	17629
2026-01-26 08:51:14.88	124.37	7.50	-26.0	-40.4	3.8	1.52e+00	0	57	104	0	23	18990
2026-01-26 08:51:15.89	124.30	7.57	-23.6	-36.8	3.8	1.52e+00	0	57	104	0	21	14094
2026-01-26 08:51:16.90	124.23	7.65	-29.3	-43.5	3.9	1.51e+00	0	57	104	0	29	19225
2026-01-26 08:51:17.91	124.17	7.72	-25.0	-39.0	3.8	1.51e+00	0	57	104	0	22	17148
2026-01-26 08:51:18.92	124.10	7.79	-24.1	-38.2	3.8	1.51e+00	0	58	104	0	20	17513
2026-01-26 08:51:19.93	124.03	7.87	-23.9	-38.2	3.8	1.51e+00	0	57	104	0	18	19660
2026-01-26 08:51:20.94	123.96	7.94	-25.2	-39.0	3.9	1.50e+00	0	57	104	0	20	19239
2026-01-26 08:51:21.95	123.89	8.02	-25.1	-38.3	4.1	1.50e+00	0	58	104	0	19	18831
2026-01-26 08:51:22.96	123.83	8.09	-27.3	-41.2	3.7	1.51e+00	0	58	104	0	24	19766
2026-01-26 08:51:23.97	123.76	8.17	-25.4	-40.5	3.5	1.52e+00	0	58	104	0	23	19341
2026-01-26 08:51:24.98	123.69	8.24	-28.9	-43.2	3.6	1.45e+00	0	58	104	0	29	18603
2026-01-26 08:51:25.99	123.62	8.32	-33.8	-48.8	3.9	1.50e+00	0	58	104	0	39	19888
2026-01-26 08:51:27.00	123.55	8.39	-37.7	-44.8	6.2	6.29e-01	5	58	0	0	45	8961
2026-01-26 08:51:28.01	123.48	8.47	-32.1	-44.1	4.1	1.45e+00	0	58	104	0	35	14647
2026-01-26 08:51:29.02	123.40	8.54	-31.7	-43.5	4.0	1.29e+00	0	58	104	0	39	10902
2026-01-26 08:51:30.03	123.33	8.62	-34.4	-45.2	4.2	1.41e+00	0	58	104	0	37	14795
2026-01-26 08:51:31.04	123.26	8.69	-34.4	-43.6	5.4	1.01e+00	9	58	0	0	38	11677
2026-01-26 08:51:32.05	123.19	8.77	-38.1	-46.5	3.8	1.47e+00	0	58	104	0	41	13590
2026-01-26 08:51:33.06	123.12	8.85	-25.9	-44.2	4.0	1.48e+00	0	58	104	0	28	22182
2026-01-26 08:51:34.07	123.04	8.92	-34.6	-48.4	3.5	1.50e+00	0	58	104	0	30	31921
2026-01-26 08:51:35.07	122.97	9.00	-30.1	-42.8	3.9	1.34e+00	0	58	104	0	28	18912
2026-01-26 08:51:36.09	122.90	9.08	-28.9	-44.6	3.7	1.49e+00	0	58	104	0	34	16419
2026-01-26 08:51:37.10	122.82	9.15	-25.5	-39.3	3.8	1.51e+00	0	58	104	0	22	17696
2026-01-26 08:51:38.11	122.75	9.23	-27.8	-41.5	3.8	1.51e+00	0	58	104	0	25	19253
2026-01-26 08:51:39.12	122.67	9.31	-38.5	-51.1	4.1	1.50e+00	0	59	104	0	42	21907
2026-01-26 08:51:40.13	122.60	9.39	-33.0	-47.3	4.4	1.50e+00	0	58	104	0	41	14964
2026-01-26 08:51:41.14	122.52	9.46	-31.4	-45.2	4.0	1.50e+00	0	58	104	0	35	16624
2026-01-26 08:51:42.14	122.45	9.54	-35.5	-49.8	4.3	1.49e+00	0	58	104	0	43	17760
2026-01-26 08:51:43.16	122.37	9.62	-32.5	-45.9	3.9	1.16e+00	0	58	104	0	41	12793
2026-01-26 08:51:44.16	122.29	9.70	-36.9	-47.2	4.3	1.47e+00	0	59	104	0	43	13207
2026-01-26 08:51:45.17	122.21	9.78	-28.6	-43.8	4.1	1.25e+00	0	58	104	0	33	15773
2026-01-26 08:51:46.19	122.13	9.86	-36.6	-46.1	4.1	1.48e+00	0	59	104	0	33	20675
2026-01-26 08:51:47.20	122.06	9.94	-34.0	-46.2	4.3	1.46e+00	0	59	104	0	34	19791
2026-01-26 08:51:48.21	121.98	10.02	-33.0	-45.7	4.6	1.49e+00	0	59	104	0	33	19803
2026-01-26 08:51:49.22	121.90	10.10	-33.0	-47.4	3.9	1.50e+00	0	59	104	0	33	23956
2026-01-26 08:51:50.22	121.82	10.17	-36.7	-51.0	4.2	1.50e+00	0	59	104	0	42	21722
2026-01-26 08:51:51.23	121.74	10.25	-38.4	-50.9	4.3	1.49e+00	0	59	104	0	41	22700
2026-01-26 08:51:52.25	121.66	10.34	-35.1	-46.6	5.0	1.41e+00	0	59	104	0	41	13737
2026-01-26 08:51:53.26	121.58	10.42	-37.2	-47.4	4.2	1.46e+00	0	59	104	0	44	12753
2026-01-26 08:51:54.27	121.49	10.50	-38.0	-47.5	4.3	1.46e+00	0	59	104	0	40	16206
2026-01-26 08:51:55.28	121.41	10.58	-32.5	-47.8	4.1	1.48e+00	0	59	104	0	40	16827
2026-01-26 08:51:56.29	121.33	10.66	-28.6	-42.3	4.3	1.48e+00	0	59	104	0	33	13310
2026-01-26 08:51:57.30	121.25	10.74	-30.7	-46.6	4.2	1.40e+00	0	59	104	0	39	15420
2026-01-26 08:51:58.31	121.16	10.82	-35.4	-48.6	4.2	1.49e+00	0	59	104	0	47	12277
2026-01-26 08:51:59.32	121.08	10.90	-33.6	-44.3	4.5	1.27e+00	0	59	104	0	37	13388
2026-01-26 08:52:00.33	121.00	10.98	-33.4	-41.6	8.0	2.87e-01	9	59	0	0	39	8757
2026-01-26 08:52:01.34	120.91	11.07	-35.1	-42.8	7.1	2.81e-01	7	59	0	2097152	39	10038
2026-01-26 08:52:02.35	120.82	11.15	-35.9	-43.0	6.3	2.90e-01	14	59	0	3145728	38	10833
2026-01-26 08:52:03.36	120.74	11.23	-35.0	-42.7	7.1	3.81e-01	16	59	0	4194304	41	8835
2026-01-26 08:52:04.37	120.65	11.31	-37.0	-42.7	8.5	3.70e-01	17	59	0	6291456	43	7869
2026-01-26 08:52:05.38	120.57	11.40	-28.9	-39.9	4.4	4.90e-01	0	59	104	8388608	27	14337
2026-01-26 08:52:06.39	120.48	11.48	-37.2	-42.5	9.6	2.08e-01	0	59	0	9437184	47	6097
2026-01-26 08:52:07.40	120.39	11.56	-34.3	-41.8	9.2	1.45e-01	6	59	0	11534336	41	7912
2026-01-26 08:52:08.41	120.30	11.65	-37.9	-42.2	10.4	1.66e-01	0	59	0	14680064	45	6623
2026-01-26 08:52:09.42	120.21	11.73	-33.0	-41.6	10.0	1.41e-01	5	59	0	17825792	46	5822
2026-01-26 08:52:10.43	120.12	11.81	-38.0	-43.5	4.8	1.17e-01	0	59	104	19922944	46	7219
2026-01-26 08:52:11.44	120.03	11.90	-29.3	-41.7	4.5	1.44e+00	0	59	104	19922944	33	12376
2026-01-26 08:52:12.45	119.94	11.98	-36.8	-42.3	9.0	2.64e-01	4	59	0	19922944	43	7540
2026-01-26 08:52:13.46	119.85	12.07	-29.7	-40.6	4.3	7.03e-01	0	59	104	22020096	25	17395
2026-01-26 08:52:14.47	119.76	12.15	-25.1	-39.4	5.8	3.45e-01	7	59	0	22020096	38	7146
2026-01-26 08:52:15.48	119.67	12.24	-35.1	-41.9	8.6	2.99e-01	7	59	0	23068672	39	8969
2026-01-26 08:52:16.49	119.58	12.32	-34.5	-41.7	6.8	1.78e-01	14	59	0	25165824	39	8777
2026-01-26 08:52:17.50	119.48	12.41	-34.5	-41.8	9.3	2.35e-01	4	59	0	27262976	40	8408
2026-01-26 08:52:18.51	119.39	12.49	-35.4	-42.2	9.9	2.96e-01	2	59	0	30408704	43	7400
2026-01-26 08:52:19.52	119.29	12.58	-33.1	-41.8	10.0	6.81e-02	2	59	0	32505856	43	7052
2026-01-26 08:52:20.53	119.20	12.66	-37.6	-42.5	10.3	8.42e-02	0	59	0	35651584	45	6803
2026-01-26 08:52:21.54	119.10	12.75	-30.9	-41.5	9.1	2.73e-01	8	59	0	38797312	33	12160
2026-01-26 08:52:22.55	119.01	12.84	-36.2	-41.9	9.4	3.12e-01	3	59	0	40894464	41	7999
2026-01-26 08:52:23.56	118.91	12.92	-28.2	-41.8	8.6	2.49e-01	6	60	0	44040192	40	8436
2026-01-26 08:52:24.57	118.81	13.01	-31.2	-41.8	4.6	5.75e-01	0	59	104	46137344	36	10548
2026-01-26 08:52:25.58	118.72	13.10	-36.9	-42.6	10.1	1.37e+00	6	60	104	46137344	42	8249
2026-01-26 08:52:26.58	118.62	13.19	-36.0	-42.3	10.2	2.38e-01	0	59	0	48234496	42	7959
2026-01-26 08:52:27.59	118.52	13.27	-34.4	-42.3	9.7	1.08e-01	0	59	0	51380224	42	7941
2026-01-26 08:52:28.60	118.42	13.36	-34.5	-42.2	10.5	1.06e-01	1	59	0	53477376	42	7859
2026-01-26 08:52:29.61	118.32	13.45	-31.2	-42.1	9.5	2.74e-01	1	60	0	56623104	37	10331
2026-01-26 08:52:30.62	118.22	13.54	-36.1	-42.4	10.1	1.54e-01	0	60	0	58720256	42	8073
2026-01-26 08:52:31.63	118.12	13.63	-35.9	-42.4	10.4	1.45e-01	0	59	0	61865984	42	8035
2026-01-26 08:52:32.64	118.02	13.72	-36.2	-42.2	9.4	1.43e-01	3	60	0	65011712	41	8338
2026-01-26 08:52:33.65	117.91	13.80	-34.4	-41.5	7.7	3.19e-01	7	59	0	68157440	31	13643
2026-01-26 08:52:34.66	117.81	13.89	-33.5	-43.1	4.7	6.67e-01	0	59	104	68157440	37	11617
2026-01-26 08:52:35.68	117.70	13.98	-33.9	-42.2	8.1	1.02e+00	9	60	104	68157440	36	11059
2026-01-26 08:52:36.69	117.60	14.07	-34.9	-41.7	7.6	1.20e+00	0	60	104	68157440	33	12495
2026-01-26 08:52:37.70	117.49	14.16	-35.7	-41.8	8.2	1.59e-01	3	60	0	70254592	40	8461
2026-01-26 08:52:38.71	117.39	14.25	-36.8	-42.0	11.6	1.54e-01	0	60	0	73400320	45	6479
2026-01-26 08:52:39.72	117.28	14.35	-37.1	-42.1	11.0	4.14e-02	0	60	0	76546048	46	6149
2026-01-26 08:52:40.73	117.17	14.44	-37.5	-42.3	12.1	2.07e-02	0	60	0	79691776	48	5641
2026-01-26 08:52:41.74	117.07	14.53	-37.6	-42.4	11.1	2.03e-02	0	60	0	82837504	46	6401
2026-01-26 08:52:42.75	116.96	14.62	-38.7	-42.6	11.6	9.18e-03	0	60	0	85983232	48	5824
2026-01-26 08:52:43.76	116.85	14.71	-36.7	-42.5	12.0	8.13e-03	0	60	0	89128960	48	5757
2026-01-26 08:52:44.77	116.74	14.80	-39.3	-42.5	12.1	3.26e-03	0	60	0	92274688	48	5778
2026-01-26 08:52:45.78	116.63	14.89	-39.2	-42.6	11.7	1.36e-02	0	60	0	95420416	46	6566
2026-01-26 08:52:46.79	116.52	14.99	-39.7	-42.5	12.6	1.08e-02	0	60	0	98566144	50	5113
2026-01-26 08:52:47.80	116.40	15.08	-39.5	-42.3	12.6	2.07e-03	0	60	0	101711872	49	5338
2026-01-26 08:52:48.81	116.29	15.17	-39.1	-42.3	12.7	1.77e-03	0	60	0	104857600	48	5641
2026-01-26 08:52:49.82	116.18	15.26	-39.3	-42.3	12.9	2.08e-03	0	60	0	108003328	50	4991
2026-01-26 08:52:50.83	116.06	15.36	-39.7	-42.3	12.7	9.23e-03	0	60	0	111149056	49	5335
2026-01-26 08:52:51.84	115.95	15.45	-38.3	-42.2	11.7	1.93e-03	0	60	0	114294784	49	5279
2026-01-26 08:52:52.85	115.83	15.54	-38.6	-42.3	12.0	1.38e-02	0	60	0	117440512	48	5645
2026-01-26 08:52:53.86	115.72	15.64	-39.8	-42.4	12.7	1.58e-03	0	60	0	120586240	49	5374
2026-01-26 08:52:54.87	115.60	15.73	-38.3	-42.2	11.3	4.94e-03	0	60	0	123731968	46	6229
2026-01-26 08:52:55.88	115.48	15.83	-38.4	-42.3	11.8	1.18e-02	0	60	0	126877696	48	5648
2026-01-26 08:52:56.89	115.36	15.92	-39.5	-42.4	12.4	3.40e-03	0	60	0	130023424	49	5371
2026-01-26 08:52:57.90	115.24	16.02	-39.7	-42.3	13.0	3.20e-03	0	60	0	133169152	50	5033
2026-01-26 08:52:58.92	115.12	16.11	-39.1	-42.4	12.4	1.11e-03	0	60	0	136314880	49	5370
2026-01-26 08:52:59.93	115.00	16.21	-39.9	-42.5	12.9	4.86e-04	0	60	0	139460608	50	5132
2026-01-26 08:53:00.94	114.88	16.30	-39.6	-42.3	13.0	2.83e-03	0	60	0	142606336	50	5002
2026-01-26 08:53:01.95	114.76	16.40	-37.2	-42.1	12.6	4.60e-03	0	60	0	145752064	48	5471
2026-01-26 08:53:02.96	114.63	16.49	-39.7	-42.1	12.9	7.21e-04	0	60	0	148897792	49	5216
2026-01-26 08:53:03.96	114.51	16.59	-39.8	-42.3	13.2	1.56e-03	0	60	0	152043520	50	4984
2026-01-26 08:53:04.97	114.39	16.69	-39.8	-42.4	12.6	2.73e-03	0	60	0	155189248	49	5381
2026-01-26 08:53:05.98	114.26	16.78	-39.9	-42.5	13.1	2.95e-04	0	60	0	158334976	50	5101
2026-01-26 08:53:06.99	114.13	16.88	-39.9	-42.4	13.1	1.59e-04	0	60	0	161480704	50	5073
2026-01-26 08:53:08.00	114.01	16.98	-39.9	-42.5	13.0	1.88e-04	0	60	0	164626432	50	5103
2026-01-26 08:53:09.01	113.88	17.08	-39.9	-42.5	13.1	4.57e-05	0	60	0	167772160	50	5118
2026-01-26 08:53:10.02	113.75	17.17	-40.0	-42.4	13.2	3.90e-04	0	60	0	170917888	50	5090
2026-01-26 08:53:11.03	113.62	17.27	-40.0	-42.5	13.1	1.24e-04	0	60	0	174063616	50	5132
2026-01-26 08:53:12.04	113.49	17.37	-40.0	-42.4	13.2	4.42e-05	0	60	0	177209344	50	5090
2026-01-26 08:53:13.05	113.36	17.47	-39.9	-42.3	13.3	1.52e-05	0	60	0	180355072	50	5038
2026-01-26 08:53:14.06	113.22	17.57	-39.9	-42.3	13.3	4.65e-05	0	60	0	183500800	50	5019
2026-01-26 08:53:15.07	113.09	17.67	-39.8	-42.2	13.4	1.29e-05	0	60	0	186646528	50	4977
2026-01-26 08:53:16.08	112.96	17.76	-39.9	-42.3	13.4	5.64e-05	0	60	0	189792256	50	5012
2026-01-26 08:53:17.09	112.82	17.86	-39.9	-42.3	13.3	3.12e-05	0	60	0	192937984	50	5023
2026-01-26 08:53:18.10	112.68	17.96	-39.9	-42.3	13.3	1.22e-05	0	60	0	196083712	50	5014
2026-01-26 08:53:19.11	112.55	18.06	-39.9	-42.3	13.3	1.29e-05	0	60	0	199229440	50	5014
2026-01-26 08:53:20.12	112.41	18.16	-39.9	-42.4	13.3	1.90e-05	0	60	0	202375168	50	5047
2026-01-26 08:53:21.13	112.27	18.26	-40.0	-42.5	13.1	3.81e-05	0	60	0	205520896	50	5130
2026-01-26 08:53:22.14	112.13	18.36	-39.9	-42.3	13.3	1.98e-05	0	60	0	208666624	50	5030
2026-01-26 08:53:23.15	111.99	18.47	-39.9	-42.4	13.3	1.37e-05	0	60	0	211812352	50	5055
2026-01-26 08:53:24.16	111.85	18.57	-39.8	-42.3	13.4	2.97e-05	0	60	0	214958080	50	5017
2026-01-26 08:53:25.17	111.71	18.67	-39.7	-42.2	13.5	1.44e-05	0	60	0	218103808	50	4947
2026-01-26 08:53:26.18	111.56	18.77	-39.8	-42.2	13.4	1.52e-05	0	60	0	221249536	50	4982
2026-01-26 08:53:27.19	111.42	18.87	-39.8	-42.1	13.6	1.22e-05	0	60	0	224395264	50	4909
2026-01-26 08:53:28.20	111.27	18.97	-39.7	-42.0	13.7	4.50e-06	0	61	0	227540992	50	4854
2026-01-26 08:53:29.22	111.12	19.08	-39.7	-42.0	13.7	7.60e-06	0	60	0	230686720	50	4862
2026-01-26 08:53:30.22	110.98	19.18	-39.6	-41.9	13.8	2.20e-06	0	61	0	233832448	50	4803
2026-01-26 08:53:31.23	110.83	19.28	-39.6	-41.9	13.8	4.50e-06	0	61	0	236978176	50	4787
2026-01-26 08:53:32.24	110.68	19.38	-39.5	-41.7	14.0	1.50e-06	0	60	0	240123904	50	4699
2026-01-26 08:53:33.25	110.53	19.49	-39.4	-41.7	14.0	3.00e-06	0	60	0	243269632	50	4664
2026-01-26 08:53:34.26	110.38	19.59	-39.5	-41.7	14.0	1.50e-06	0	60	0	246415360	50	4696
2026-01-26 08:53:35.27	110.22	19.69	-39.4	-41.7	14.0	4.50e-06	0	60	0	249561088	50	4675
2026-01-26 08:53:36.28	110.07	19.80	-39.5	-41.7	14.0	3.00e-06	0	60	0	252706816	50	4688
2026-01-26 08:53:37.29	109.92	19.90	-39.5	-41.7	14.0	3.80e-06	0	60	0	255852544	50	4684
2026-01-26 08:53:38.31	109.76	20.01	-39.4	-41.6	14.2	1.50e-06	0	60	0	258998272	50	4600
2026-01-26 08:53:39.32	109.60	20.11	-39.4	-41.6	14.2	2.20e-06	0	60	0	262144000	50	4599
2026-01-26 08:53:40.33	109.44	20.21	-39.3	-41.4	14.4	2.20e-06	0	60	0	265289728	50	4534
2026-01-26 08:53:41.34	109.28	20.32	-39.2	-41.4	14.4	1.50e-06	0	61	0	268435456	50	4494
2026-01-26 08:53:42.35	109.12	20.42	-39.3	-41.4	14.4	1.50e-06	0	61	0	271581184	50	4510
2026-01-26 08:53:43.36	108.96	20.53	-39.3	-41.4	14.4	1.50e-06	0	60	0	274726912	50	4516
2026-01-26 08:53:44.37	108.80	20.64	-39.1	-41.2	14.6	0.00e+00	0	61	0	277872640	50	4414
2026-01-26 08:53:45.38	108.64	20.74	-39.1	-41.1	14.7	0.00e+00	0	60	0	281018368	50	4381
2026-01-26 08:53:46.39	108.47	20.85	-39.0	-41.1	14.7	7.00e-07	0	61	0	284164096	50	4356
2026-01-26 08:53:47.40	108.30	20.95	-39.1	-41.2	14.7	7.00e-07	0	61	0	287309824	50	4396
2026-01-26 08:53:48.41	108.14	21.06	-39.0	-41.0	14.8	0.00e+00	0	61	0	290455552	50	4338
2026-01-26 08:53:49.42	107.97	21.16	-38.9	-40.9	14.9	0.00e+00	0	60	0	293601280	49	4545
2026-01-26 08:53:50.43	107.80	21.27	-38.9	-40.9	14.9	0.00e+00	0	61	0	296747008	49	4520
2026-01-26 08:53:51.45	107.63	21.38	-38.9	-40.9	14.9	0.00e+00	0	60	0	299892736	49	4540
2026-01-26 08:53:52.45	107.46	21.49	-38.9	-41.0	14.9	7.00e-07	0	61	0	303038464	49	4547
2026-01-26 08:53:53.46	107.28	21.59	-38.9	-40.9	14.9	0.00e+00	0	61	0	306184192	49	4526
2026-01-26 08:53:54.47	107.11	21.70	-39.0	-41.0	14.7	0.00e+00	0	61	0	309329920	49	4589
2026-01-26 08:53:55.48	106.94	21.81	-38.9	-40.9	14.8	0.00e+00	0	61	0	313524224	49	4542
2026-01-26 08:53:56.49	106.76	21.91	-39.0	-41.0	14.8	0.00e+00	0	61	0	315621376	49	4576
2026-01-26 08:53:57.50	106.58	22.02	-39.0	-41.0	14.8	0.00e+00	0	61	0	318767104	49	4592
2026-01-26 08:53:58.51	106.40	22.13	-38.9	-40.9	14.9	0.00e+00	0	61	0	321912832	49	4543
2026-01-26 08:53:59.52	106.22	22.24	-38.9	-40.9	14.9	0.00e+00	0	61	0	325058560	49	4501
2026-01-26 08:54:00.53	106.04	22.35	-38.8	-40.8	15.0	0.00e+00	0	61	0	329252864	49	4476
2026-01-26 08:54:01.54	105.86	22.45	-38.8	-40.8	14.9	0.00e+00	0	61	0	332398592	49	4481
2026-01-26 08:54:02.56	105.67	22.56	-38.8	-40.7	15.0	0.00e+00	0	61	0	335544320	49	4436
2026-01-26 08:54:03.57	105.48	22.67	-38.8	-40.8	15.0	0.00e+00	0	61	0	338690048	49	4445
2026-01-26 08:54:04.58	105.30	22.78	-38.8	-40.7	15.0	0.00e+00	0	61	0	341835776	49	4429
2026-01-26 08:54:05.59	105.11	22.89	-38.8	-40.8	14.9	0.00e+00	0	61	0	344981504	49	4485
2026-01-26 08:54:06.60	104.92	23.00	-38.9	-41.0	14.8	0.00e+00	0	61	0	348127232	49	4552
2026-01-26 08:54:07.61	104.73	23.11	-39.0	-41.1	14.7	0.00e+00	0	61	0	351272960	49	4626
2026-01-26 08:54:08.62	104.54	23.22	-39.0	-41.0	14.7	0.00e+00	0	61	0	354418688	49	4596
2026-01-26 08:54:09.63	104.34	23.33	-39.1	-41.1	14.7	0.00e+00	0	61	0	357564416	49	4626
2026-01-26 08:54:10.64	104.15	23.44	-38.9	-41.0	14.8	0.00e+00	0	60	0	360710144	49	4555
2026-01-26 08:54:11.65	103.95	23.55	-38.9	-40.9	15.0	0.00e+00	0	61	0	363855872	49	4507
2026-01-26 08:54:12.66	103.75	23.66	-38.8	-40.8	15.0	0.00e+00	0	61	0	367001600	49	4473
2026-01-26 08:54:13.67	103.55	23.76	-38.9	-40.8	15.1	0.00e+00	0	61	0	370147328	49	4464
2026-01-26 08:54:14.68	103.35	23.87	-38.8	-40.8	15.1	0.00e+00	0	61	0	373293056	49	4451
2026-01-26 08:54:15.69	103.15	23.98	-38.8	-40.7	15.1	0.00e+00	0	61	0	376438784	49	4430
2026-01-26 08:54:16.70	102.95	24.09	-38.9	-40.8	15.0	0.00e+00	0	60	0	379584512	49	4492
2026-01-26 08:54:17.71	102.74	24.20	-38.9	-41.0	14.9	0.00e+00	0	61	0	382730240	49	4547
2026-01-26 08:54:18.72	102.54	24.31	-39.0	-41.0	14.8	0.00e+00	0	61	0	385875968	49	4589
2026-01-26 08:54:19.73	102.33	24.42	-39.0	-41.0	14.8	7.00e-07	0	61	0	389021696	49	4593
2026-01-26 08:54:20.74	102.12	24.53	-39.0	-41.0	14.8	0.00e+00	0	61	0	392167424	49	4592
2026-01-26 08:54:21.75	101.91	24.65	-39.0	-41.0	14.9	7.00e-07	0	61	0	395313152	49	4556
2026-01-26 08:54:22.76	101.70	24.76	-39.0	-41.1	14.8	0.00e+00	0	61	0	398458880	49	4607
2026-01-26 08:54:23.77	101.48	24.87	-39.0	-40.9	14.9	0.00e+00	0	61	0	401604608	49	4540
2026-01-26 08:54:24.78	101.27	24.98	-39.0	-41.0	14.9	0.00e+00	0	61	0	404750336	49	4576
2026-01-26 08:54:25.79	101.05	25.09	-39.0	-41.1	14.8	1.50e-06	0	61	0	407896064	49	4601
2026-01-26 08:54:26.80	100.83	25.20	-39.1	-41.1	14.7	1.50e-06	0	61	0	411041792	49	4641
2026-01-26 08:54:27.81	100.61	25.31	-39.1	-41.2	14.7	0.00e+00	0	61	0	414187520	49	4664
2026-01-26 08:54:28.82	100.39	25.42	-39.3	-41.4	14.5	0.00e+00	0	61	0	417333248	49	4761
2026-01-26 08:54:29.83	100.17	25.53	-39.3	-41.4	14.5	1.50e-06	0	61	0	420478976	49	4760
2026-01-26 08:54:30.84	99.95	25.64	-39.3	-41.4	14.5	7.00e-07	0	61	0	423624704	49	4809
2026-01-26 08:54:31.85	99.72	25.75	-39.4	-41.6	14.3	2.20e-06	0	61	0	426770432	49	4907
2026-01-26 08:54:32.87	99.49	25.86	-39.4	-41.6	14.3	4.50e-06	0	61	0	429916160	49	4876
2026-01-26 08:54:33.88	99.26	25.97	-39.4	-41.5	14.4	7.00e-07	0	61	0	433061888	49	4862
2026-01-26 08:54:34.89	99.03	26.08	-39.4	-41.6	14.3	2.20e-06	0	61	0	436207616	49	4889
2026-01-26 08:54:35.90	98.80	26.19	-39.4	-41.6	14.4	7.00e-07	0	61	0	439353344	49	4881
2026-01-26 08:54:36.91	98.56	26.30	-39.6	-41.8	14.2	4.50e-06	0	61	0	442499072	49	4986
2026-01-26 08:54:37.92	98.33	26.41	-39.6	-41.8	14.1	2.20e-06	0	61	0	445644800	49	5016
2026-01-26 08:54:38.93	98.09	26.52	-39.6	-41.9	14.1	7.00e-07	0	61	0	448790528	49	5044
2026-01-26 08:54:39.94	97.85	26.63	-39.7	-41.9	14.0	3.80e-06	0	61	0	451936256	49	5097
2026-01-26 08:54:40.95	97.61	26.74	-39.8	-42.0	13.9	3.80e-06	0	61	0	455081984	50	4854
2026-01-26 08:54:41.96	97.37	26.85	-39.8	-42.0	14.0	1.50e-06	0	61	0	458227712	50	4852
2026-01-26 08:54:42.97	97.12	26.96	-39.6	-41.8	14.2	2.20e-06	0	61	0	461373440	50	4746
2026-01-26 08:54:43.98	96.88	27.07	-39.6	-41.7	14.2	1.50e-06	0	61	0	464519168	50	4694
2026-01-26 08:54:44.99	96.63	27.18	-39.5	-41.7	14.3	1.50e-06	0	61	0	467664896	50	4669
2026-01-26 08:54:46.01	96.38	27.29	-39.5	-41.6	14.3	1.50e-06	0	61	0	470810624	50	4645
2026-01-26 08:54:47.02	96.13	27.39	-39.5	-41.6	14.3	7.00e-07	0	61	0	473956352	50	4639
2026-01-26 08:54:48.03	95.88	27.50	-39.5	-41.7	14.3	7.00e-07	0	61	0	477102080	50	4676
2026-01-26 08:54:49.04	95.62	27.61	-39.6	-41.8	14.2	7.00e-07	0	61	0	480247808	50	4721
2026-01-26 08:54:50.05	95.37	27.72	-39.6	-41.7	14.2	2.20e-06	0	61	0	483393536	50	4699
2026-01-26 08:54:51.06	95.11	27.83	-39.3	-41.4	14.5	0.00e+00	0	61	0	486539264	50	4526
2026-01-26 08:54:52.07	94.85	27.93	-39.3	-41.4	14.6	7.00e-07	0	61	0	489684992	50	4515
2026-01-26 08:54:53.08	94.59	28.04	-39.3	-41.5	14.5	7.00e-07	0	61	0	492830720	50	4546
2026-01-26 08:54:54.09	94.32	28.15	-39.3	-41.4	14.5	0.00e+00	0	61	0	495976448	50	4537
2026-01-26 08:54:55.10	94.06	28.26	-39.3	-41.3	14.6	7.00e-07	0	61	0	499122176	50	4482
2026-01-26 08:54:56.11	93.79	28.36	-39.2	-41.2	14.7	0.00e+00	0	61	0	502267904	50	4432
2026-01-26 08:54:57.12	93.52	28.47	-39.2	-41.2	14.7	0.00e+00	0	61	0	505413632	50	4432
2026-01-26 08:54:58.13	93.25	28.58	-39.3	-41.3	14.6	7.00e-07	0	61	0	508559360	50	4481
2026-01-26 08:54:59.14	92.98	28.68	-39.3	-41.3	14.6	1.50e-06	0	61	0	511705088	50	4488
2026-01-26 08:55:00.15	92.71	28.79	-39.3	-41.4	14.6	0.00e+00	0	61	0	514850816	50	4521
2026-01-26 08:55:01.16	92.43	28.89	-39.4	-41.5	14.5	0.00e+00	0	61	0	517996544	50	4563
2026-01-26 08:55:02.17	92.16	29.00	-39.5	-41.7	14.3	0.00e+00	0	61	0	521142272	50	4655
2026-01-26 08:55:03.18	91.88	29.10	-39.6	-41.8	14.2	1.50e-06	0	61	0	524288000	50	4718
2026-01-26 08:55:04.19	91.60	29.20	-39.6	-41.8	14.1	1.50e-06	0	61	0	527433728	50	4738
2026-01-26 08:55:05.20	91.31	29.31	-39.7	-41.9	14.1	1.50e-06	0	61	0	530579456	50	4772
2026-01-26 08:55:06.21	91.03	29.41	-39.7	-41.9	14.0	4.50e-06	0	61	0	533725184	50	4809
2026-01-26 08:55:07.22	90.74	29.51	-39.6	-41.8	14.1	0.00e+00	0	61	0	536870912	50	4755
2026-01-26 08:55:08.23	90.45	29.62	-39.6	-41.7	14.3	1.50e-06	0	62	0	540016640	50	4695
2026-01-26 08:55:09.24	90.16	29.72	-39.6	-41.7	14.3	0.00e+00	0	61	0	543162368	50	4686
2026-01-26 08:55:10.26	89.87	29.82	-39.6	-41.8	14.2	1.50e-06	0	61	0	546308096	50	4750
2026-01-26 08:55:11.26	89.58	29.92	-39.6	-41.8	14.2	2.20e-06	0	61	0	549453824	50	4721
2026-01-26 08:55:12.27	89.28	30.02	-39.6	-41.8	14.2	7.00e-07	0	61	0	552599552	50	4720
2026-01-26 08:55:13.28	88.98	30.12	-39.6	-41.7	14.3	0.00e+00	0	61	0	555745280	50	4676
2026-01-26 08:55:14.29	88.68	30.22	-39.6	-41.8	14.2	1.50e-06	0	61	0	558891008	50	4721
2026-01-26 08:55:15.30	88.38	30.32	-39.6	-41.7	14.3	1.50e-06	0	61	0	562036736	50	4681
2026-01-26 08:55:16.31	88.08	30.42	-39.4	-41.5	14.5	7.00e-07	0	61	0	565182464	50	4581
2026-01-26 08:55:17.32	87.78	30.51	-39.4	-41.5	14.6	7.00e-07	0	61	0	568328192	50	4551
2026-01-26 08:55:18.33	87.47	30.61	-39.5	-41.7	14.3	2.20e-06	0	61	0	571473920	50	4664
2026-01-26 08:55:19.34	87.16	30.71	-39.6	-41.7	14.3	7.00e-07	0	61	0	574619648	50	4703
2026-01-26 08:55:20.35	86.85	30.80	-39.7	-41.9	14.2	7.00e-07	0	61	0	577765376	50	4761
2026-01-26 08:55:21.36	86.54	30.90	-39.7	-41.9	14.1	7.00e-07	0	61	0	580911104	50	4780
2026-01-26 08:55:22.37	86.22	30.99	-39.7	-41.9	14.2	0.00e+00	0	62	0	584056832	50	4763
2026-01-26 08:55:23.38	85.91	31.09	-39.6	-41.8	14.3	7.00e-07	0	61	0	587202560	50	4724
2026-01-26 08:55:24.39	85.59	31.18	-39.6	-41.7	14.3	1.50e-06	0	61	0	590348288	50	4687
2026-01-26 08:55:25.40	85.27	31.27	-39.6	-41.7	14.3	7.00e-07	0	61	0	593494016	50	4694
2026-01-26 08:55:26.41	84.95	31.36	-39.6	-41.7	14.3	0.00e+00	0	61	0	596639744	50	4697
2026-01-26 08:55:27.42	84.62	31.46	-39.6	-41.7	14.3	0.00e+00	0	61	0	599785472	50	4681
2026-01-26 08:55:28.43	84.30	31.55	-39.5	-41.6	14.4	7.00e-07	0	61	0	602931200	50	4649
2026-01-26 08:55:29.44	83.97	31.63	-39.4	-41.5	14.5	7.00e-07	0	61	0	607125504	50	4591
2026-01-26 08:55:30.45	83.64	31.72	-39.6	-41.7	14.4	0.00e+00	0	61	0	609222656	50	4688
2026-01-26 08:55:31.46	83.31	31.81	-39.7	-41.9	14.2	2.20e-06	0	61	0	612368384	50	4790
2026-01-26 08:55:32.47	82.98	31.90	-40.0	-42.2	13.8	6.80e-06	0	61	0	615514112	50	4981
2026-01-26 08:55:33.48	82.65	31.98	-40.1	-42.5	13.6	9.10e-06	0	61	0	619708416	50	5110
2026-01-26 08:55:34.49	82.31	32.07	-40.1	-42.5	13.6	8.30e-06	0	61	0	622854144	50	5142
2026-01-26 08:55:35.50	81.97	32.15	-40.2	-42.5	13.5	6.80e-06	0	61	0	625999872	50	5154
2026-01-26 08:55:36.51	81.63	32.24	-40.2	-42.6	13.5	8.30e-06	0	61	0	629145600	50	5164
2026-01-26 08:55:37.52	81.29	32.32	-40.2	-42.6	13.5	6.80e-06	0	61	0	632291328	50	5177
2026-01-26 08:55:38.53	80.95	32.40	-40.2	-42.6	13.5	3.80e-06	0	61	0	635437056	50	5167
2026-01-26 08:55:39.54	80.61	32.48	-40.1	-42.4	13.6	9.10e-06	0	61	0	638582784	50	5092
2026-01-26 08:55:40.55	80.26	32.56	-40.2	-42.5	13.6	9.10e-06	0	61	0	641728512	50	5135
2026-01-26 08:55:41.56	79.91	32.64	-40.2	-42.5	13.6	9.90e-06	0	61	0	644874240	50	5145
2026-01-26 08:55:42.57	79.56	32.72	-40.2	-42.6	13.5	4.50e-06	0	62	0	648019968	50	5166
2026-01-26 08:55:43.58	79.21	32.80	-40.1	-42.4	13.7	4.50e-06	0	61	0	651165696	50	5084
2026-01-26 08:55:44.59	78.86	32.87	-40.1	-42.4	13.8	3.80e-06	0	61	0	654311424	50	5065
2026-01-26 08:55:45.60	78.50	32.95	-40.2	-42.6	13.5	8.30e-06	0	61	0	657457152	50	5174
2026-01-26 08:55:46.61	78.15	33.02	-40.2	-42.6	13.5	9.90e-06	0	61	0	660602880	51	4916
2026-01-26 08:55:47.62	77.79	33.09	-40.1	-42.5	13.7	6.80e-06	0	61	0	663748608	51	4823
2026-01-26 08:55:48.63	77.43	33.16	-40.1	-42.4	13.7	3.80e-06	0	61	0	666894336	51	4796
2026-01-26 08:55:49.64	77.07	33.23	-40.1	-42.4	13.7	8.30e-06	0	61	0	670040064	51	4788
2026-01-26 08:55:50.65	76.71	33.30	-40.1	-42.4	13.7	3.00e-06	0	61	0	673185792	51	4795
2026-01-26 08:55:51.66	76.34	33.37	-40.1	-42.5	13.6	7.60e-06	0	61	0	676331520	51	4822
2026-01-26 08:55:52.67	75.98	33.44	-40.2	-42.6	13.6	3.80e-06	0	61	0	679477248	51	4874
2026-01-26 08:55:53.68	75.61	33.50	-40.2	-42.6	13.5	5.30e-06	0	61	0	682622976	51	4891
2026-01-26 08:55:54.69	75.24	33.57	-40.3	-42.7	13.4	1.52e-05	0	61	0	685768704	51	4941
2026-01-26 08:55:55.70	74.87	33.63	-40.3	-42.7	13.4	1.29e-05	0	61	0	688914432	51	4969
2026-01-26 08:55:56.71	74.50	33.69	-40.4	-42.8	13.3	1.29e-05	0	61	0	692060160	51	5015
2026-01-26 08:55:57.72	74.13	33.76	-40.4	-42.9	13.3	2.51e-05	0	61	0	695205888	51	5045
2026-01-26 08:55:58.73	73.75	33.81	-40.3	-42.8	13.3	1.83e-05	0	61	0	698351616	51	4997
2026-01-26 08:55:59.74	73.38	33.87	-40.3	-42.7	13.4	1.37e-05	0	62	0	701497344	51	4971
2026-01-26 08:56:00.75	73.00	33.93	-40.3	-42.6	13.4	1.52e-05	0	61	0	704643072	51	4925
2026-01-26 08:56:01.76	72.62	33.99	-40.3	-42.7	13.4	1.29e-05	0	61	0	707788800	51	4959
2026-01-26 08:56:02.77	72.24	34.04	-40.3	-42.7	13.5	1.29e-05	0	62	0	710934528	51	4950
2026-01-26 08:56:03.78	71.86	34.09	-40.2	-42.6	13.6	7.60e-06	0	62	0	714080256	51	4877
2026-01-26 08:56:04.79	71.48	34.14	-40.2	-42.6	13.5	1.06e-05	0	61	0	717225984	51	4913
2026-01-26 08:56:05.80	71.10	34.19	-40.2	-42.6	13.6	9.10e-06	0	62	0	720371712	51	4882
2026-01-26 08:56:06.81	70.71	34.24	-40.3	-42.7	13.5	1.37e-05	0	62	0	723517440	51	4935
2026-01-26 08:56:07.82	70.33	34.29	-40.3	-42.7	13.4	1.98e-05	0	62	0	726663168	51	4955
2026-01-26 08:56:08.83	69.94	34.34	-40.2	-42.6	13.6	1.22e-05	0	61	0	729808896	51	4877
2026-01-26 08:56:09.84	69.55	34.38	-40.3	-42.8	13.3	1.14e-05	0	61	0	732954624	51	4990
2026-01-26 08:56:10.85	69.16	34.42	-40.4	-42.9	13.2	2.21e-05	0	62	0	736100352	51	5079
2026-01-26 08:56:11.86	68.77	34.47	-40.4	-42.8	13.3	2.51e-05	0	62	0	739246080	51	5028
2026-01-26 08:56:12.87	68.38	34.51	-40.3	-42.6	13.5	9.90e-06	0	61	0	742391808	51	4919
2026-01-26 08:56:13.88	67.99	34.55	-40.2	-42.6	13.5	9.10e-06	0	61	0	745537536	51	4895
2026-01-26 08:56:14.89	67.60	34.58	-40.3	-42.7	13.5	1.14e-05	0	62	0	748683264	51	4944
2026-01-26 08:56:15.90	67.21	34.62	-40.4	-42.9	13.3	1.37e-05	0	62	0	751828992	51	5048
2026-01-26 08:56:16.91	66.81	34.65	-40.4	-42.9	13.3	1.83e-05	0	62	0	754974720	51	5047
2026-01-26 08:56:17.92	66.42	34.69	-40.4	-42.9	13.2	1.67e-05	0	62	0	758120448	51	5085
2026-01-26 08:56:18.93	66.02	34.72	-40.5	-42.9	13.2	2.13e-05	0	62	0	761266176	51	5085
2026-01-26 08:56:19.95	65.62	34.75	-40.4	-42.9	13.3	1.14e-05	0	62	0	764411904	51	5063
2026-01-26 08:56:20.96	65.22	34.78	-40.5	-43.0	13.2	2.67e-05	0	62	0	767557632	51	5152
2026-01-26 08:56:21.97	64.83	34.80	-40.6	-43.1	13.1	3.81e-05	0	62	0	770703360	51	5201
2026-01-26 08:56:22.98	64.43	34.83	-40.6	-43.2	13.0	4.50e-05	0	62	0	773849088	51	5238
2026-01-26 08:56:23.99	64.03	34.85	-40.6	-43.2	13.0	4.80e-05	0	62	0	776994816	51	5251
2026-01-26 08:56:25.00	63.63	34.87	-40.6	-43.2	13.0	3.28e-05	0	62	0	780140544	51	5239
2026-01-26 08:56:26.01	63.23	34.89	-40.7	-43.3	12.9	5.11e-05	0	62	0	783286272	51	5316
2026-01-26 08:56:27.02	62.83	34.91	-40.7	-43.4	12.7	8.77e-05	0	62	0	786432000	52	5079
2026-01-26 08:56:28.03	62.43	34.93	-40.7	-43.3	12.8	4.73e-05	0	62	0	789577728	52	4990
2026-01-26 08:56:29.04	62.03	34.95	-40.7	-43.3	12.8	6.02e-05	0	62	0	792723456	52	5018
2026-01-26 08:56:30.05	61.62	34.96	-40.7	-43.3	12.8	7.40e-05	0	61	0	795869184	52	4993
2026-01-26 08:56:31.06	61.22	34.97	-40.6	-43.2	12.9	4.80e-05	0	62	0	799014912	52	4934
2026-01-26 08:56:32.07	60.82	34.98	-40.7	-43.3	12.8	6.17e-05	0	62	0	802160640	52	5016
2026-01-26 08:56:33.08	60.42	34.99	-40.6	-43.2	12.9	6.17e-05	0	62	0	805306368	52	4960
2026-01-26 08:56:34.09	60.01	35.00	-40.3	-42.7	13.4	1.67e-05	0	62	0	808452096	52	4701
2026-01-26 08:56:35.10	59.61	35.01	-40.1	-42.4	13.7	3.80e-06	0	62	0	811597824	52	4531
2026-01-26 08:56:36.11	59.21	35.01	-40.2	-42.5	13.6	6.80e-06	0	62	0	814743552	52	4588
2026-01-26 08:56:37.12	58.80	35.01	-40.3	-42.7	13.4	1.75e-05	0	62	0	817889280	52	4674
2026-01-26 08:56:38.13	58.40	35.01	-40.3	-42.8	13.4	1.67e-05	0	62	0	821035008	52	4706
2026-01-26 08:56:39.14	58.00	35.01	-40.4	-42.9	13.2	1.67e-05	0	62	0	824180736	52	4772
2026-01-26 08:56:40.15	57.59	35.01	-40.5	-42.9	13.2	1.44e-05	0	62	0	827326464	52	4806
2026-01-26 08:56:41.16	57.19	35.01	-40.4	-42.9	13.3	2.21e-05	0	62	0	830472192	52	4766
2026-01-26 08:56:42.17	56.79	35.00	-40.4	-42.9	13.1	2.89e-05	0	62	0	833617920	52	4809
2026-01-26 08:56:43.18	56.39	35.00	-40.6	-43.1	13.0	6.02e-05	0	62	0	836763648	52	4915
2026-01-26 08:56:44.19	55.98	34.99	-40.6	-43.1	13.0	3.81e-05	0	62	0	839909376	52	4906
2026-01-26 08:56:45.20	55.58	34.98	-40.6	-43.1	12.9	3.96e-05	0	62	0	843055104	52	4912
2026-01-26 08:56:46.21	55.18	34.97	-40.7	-43.3	12.8	4.95e-05	0	62	0	846200832	52	5004
2026-01-26 08:56:47.22	54.78	34.95	-40.6	-43.2	12.9	5.64e-05	0	62	0	849346560	52	4955
2026-01-26 08:56:48.24	54.37	34.94	-40.6	-43.1	12.9	4.65e-05	0	62	0	852492288	52	4919
2026-01-26 08:56:49.24	53.97	34.92	-40.7	-43.3	12.8	5.03e-05	0	62	0	855638016	52	4999
2026-01-26 08:56:50.26	53.57	34.90	-40.9	-43.6	12.4	1.31e-04	0	61	0	858783744	52	5215
2026-01-26 08:56:51.27	53.17	34.88	-41.0	-43.8	12.3	1.69e-04	0	62	0	861929472	52	5292
2026-01-26 08:56:52.28	52.77	34.86	-40.7	-43.4	12.7	9.91e-05	0	62	0	865075200	52	5057
2026-01-26 08:56:53.29	52.37	34.84	-40.6	-43.1	12.9	5.64e-05	0	62	0	868220928	52	4926
2026-01-26 08:56:54.30	51.97	34.82	-40.6	-43.2	12.9	4.65e-05	0	62	0	871366656	52	4937
2026-01-26 08:56:55.31	51.57	34.79	-40.6	-43.2	12.9	4.11e-05	0	61	0	874512384	52	4977
2026-01-26 08:56:56.32	51.18	34.76	-40.7	-43.3	12.9	4.27e-05	0	62	0	877658112	52	4989
2026-01-26 08:56:57.33	50.78	34.73	-40.7	-43.4	12.7	7.62e-05	0	62	0	880803840	52	5051
2026-01-26 08:56:58.34	50.38	34.70	-40.7	-43.4	12.7	7.01e-05	0	62	0	883949568	52	5056
2026-01-26 08:56:59.35	49.99	34.67	-40.8	-43.4	12.7	8.62e-05	0	62	0	887095296	52	5084
2026-01-26 08:57:00.36	49.59	34.64	-40.8	-43.4	12.7	6.63e-05	0	62	0	890241024	52	5066
2026-01-26 08:57:01.37	49.20	34.60	-40.7	-43.3	12.8	6.48e-05	0	62	0	893386752	52	5012
2026-01-26 08:57:02.38	48.81	34.57	-40.6	-43.2	13.0	4.50e-05	0	62	0	897581056	52	4932
2026-01-26 08:57:03.39	48.42	34.53	-40.5	-43.0	13.1	3.12e-05	0	62	0	900726784	52	4821
2026-01-26 08:57:04.41	48.02	34.49	-40.4	-42.9	13.2	2.05e-05	0	62	0	902823936	52	4781
2026-01-26 08:57:05.42	47.63	34.45	-40.4	-42.9	13.2	1.90e-05	0	62	0	905969664	52	4764
2026-01-26 08:57:06.42	47.25	34.40	-40.4	-42.8	13.3	2.74e-05	0	62	0	909115392	52	4729
2026-01-26 08:57:07.43	46.86	34.36	-40.2	-42.6	13.5	1.44e-05	0	62	0	913309696	52	4621
2026-01-26 08:57:08.44	46.47	34.32	-40.3	-42.7	13.4	8.30e-06	0	62	0	916455424	52	4679
2026-01-26 08:57:09.45	46.09	34.27	-40.4	-42.8	13.3	1.67e-05	0	62	0	919601152	52	4742
2026-01-26 08:57:10.46	45.70	34.22	-40.4	-42.8	13.3	1.90e-05	0	62	0	922746880	52	4748
2026-01-26 08:57:11.48	45.32	34.17	-40.4	-42.8	13.3	1.75e-05	0	62	0	924844032	52	4737
2026-01-26 08:57:12.49	44.94	34.12	-40.4	-42.9	13.2	2.44e-05	0	62	0	929038336	52	4774
2026-01-26 08:57:13.50	44.56	34.07	-40.3	-42.6	13.4	1.14e-05	0	62	0	932184064	52	4651
2026-01-26 08:57:14.51	44.18	34.01	-40.2	-42.6	13.5	1.37e-05	0	62	0	935329792	52	4630
2026-01-26 08:57:15.52	43.80	33.96	-40.3	-42.7	13.4	9.90e-06	0	62	0	938475520	52	4673
2026-01-26 08:57:16.53	43.42	33.90	-40.3	-42.8	13.3	1.83e-05	0	62	0	941621248	52	4719
2026-01-26 08:57:17.54	43.05	33.85	-40.3	-42.7	13.4	2.13e-05	0	62	0	944766976	52	4702
2026-01-26 08:57:18.55	42.67	33.79	-40.4	-42.9	13.2	2.05e-05	0	62	0	947912704	52	4787
2026-01-26 08:57:19.56	42.30	33.73	-40.5	-43.0	13.1	2.44e-05	0	62	0	951058432	52	4856
2026-01-26 08:57:20.57	41.93	33.67	-40.7	-43.3	12.8	5.49e-05	0	62	0	954204160	52	5013
2026-01-26 08:57:21.59	41.55	33.60	-40.8	-43.5	12.6	8.31e-05	0	62	0	957349888	52	5116
2026-01-26 08:57:22.60	41.18	33.54	-40.7	-43.4	12.7	8.92e-05	0	62	0	960495616	52	5081
2026-01-26 08:57:23.60	40.82	33.48	-40.6	-43.2	12.9	6.40e-05	0	62	0	963641344	52	4956
2026-01-26 08:57:24.62	40.45	33.41	-40.3	-42.8	13.3	1.90e-05	0	62	0	966787072	52	4714
2026-01-26 08:57:25.63	40.09	33.34	-40.2	-42.6	13.5	9.10e-06	0	62	0	969932800	52	4641
2026-01-26 08:57:26.64	39.73	33.27	-40.3	-42.7	13.4	1.44e-05	0	62	0	973078528	52	4677
2026-01-26 08:57:27.65	39.36	33.20	-40.5	-43.0	13.1	1.67e-05	0	62	0	976224256	52	4838
2026-01-26 08:57:28.66	39.01	33.13	-40.7	-43.3	12.8	4.73e-05	0	62	0	979369984	52	4999
2026-01-26 08:57:29.67	38.65	33.06	-40.8	-43.4	12.7	7.09e-05	0	62	0	982515712	52	5088
2026-01-26 08:57:30.68	38.29	32.99	-40.8	-43.5	12.6	7.78e-05	0	62	0	985661440	52	5113
2026-01-26 08:57:31.69	37.94	32.91	-40.7	-43.3	12.8	7.78e-05	0	62	0	988807168	52	5030
2026-01-26 08:57:32.70	37.58	32.84	-40.4	-43.0	13.2	2.67e-05	0	62	0	991952896	52	4817
2026-01-26 08:57:33.71	37.23	32.76	-40.2	-42.6	13.5	1.14e-05	0	62	0	995098624	52	4615
2026-01-26 08:57:34.72	36.88	32.69	-40.2	-42.5	13.6	9.10e-06	0	62	0	998244352	52	4589
2026-01-26 08:57:35.73	36.53	32.61	-40.1	-42.4	13.6	1.14e-05	0	62	0	1001390080	52	4538
2026-01-26 08:57:36.74	36.19	32.53	-40.0	-42.3	13.8	3.00e-06	0	62	0	1004535808	52	4455
2026-01-26 08:57:37.75	35.84	32.45	-40.2	-42.6	13.5	1.14e-05	0	62	0	1007681536	52	4600
2026-01-26 08:57:38.76	35.50	32.37	-40.4	-42.8	13.2	1.90e-05	0	62	0	1010827264	52	4748
2026-01-26 08:57:39.77	35.16	32.29	-40.5	-43.0	13.1	1.60e-05	0	62	0	1013972992	52	4827
2026-01-26 08:57:40.78	34.82	32.20	-40.3	-42.7	13.3	1.83e-05	0	62	0	1017118720	52	4680
2026-01-26 08:57:41.79	34.48	32.12	-40.2	-42.6	13.5	1.52e-05	0	62	0	1020264448	52	4617
2026-01-26 08:57:42.80	34.15	32.03	-40.2	-42.5	13.5	1.52e-05	0	62	0	1023410176	52	4586
2026-01-26 08:57:43.81	33.81	31.95	-40.1	-42.5	13.6	7.60e-06	0	62	0	1026555904	52	4568
2026-01-26 08:57:44.82	33.48	31.86	-40.0	-42.3	13.8	7.60e-06	0	62	0	1029701632	52	4463
2026-01-26 08:57:45.83	33.15	31.78	-40.1	-42.4	13.8	3.00e-06	0	62	0	1032847360	51	4782
2026-01-26 08:57:46.84	32.82	31.69	-40.2	-42.6	13.5	7.60e-06	0	62	0	1035993088	51	4887
2026-01-26 08:57:47.85	32.50	31.60	-40.2	-42.6	13.5	8.30e-06	0	62	0	1039138816	51	4885
2026-01-26 08:57:48.86	32.17	31.51	-40.2	-42.5	13.5	9.10e-06	0	62	0	1042284544	51	4867
2026-01-26 08:57:49.87	31.85	31.42	-40.0	-42.2	13.8	1.06e-05	0	62	0	1045430272	51	4697
2026-01-26 08:57:50.88	31.53	31.33	-39.9	-42.1	14.0	1.50e-06	0	62	0	1048576000	51	4599
2026-01-26 08:57:51.89	31.21	31.24	-39.9	-42.1	14.0	1.50e-06	0	62	0	1051721728	51	4617
2026-01-26 08:57:52.90	30.89	31.14	-39.9	-42.1	14.0	2.20e-06	0	62	0	1054867456	51	4651
2026-01-26 08:57:53.91	30.57	31.05	-40.0	-42.3	13.8	4.50e-06	0	62	0	1058013184	51	4720
2026-01-26 08:57:54.92	30.26	30.96	-40.3	-42.6	13.5	6.80e-06	0	62	0	1061158912	51	4911
2026-01-26 08:57:55.94	29.94	30.86	-40.4	-42.8	13.3	1.44e-05	0	62	0	1064304640	51	5034
2026-01-26 08:57:56.95	29.63	30.77	-40.5	-43.0	13.1	2.44e-05	0	62	0	1067450368	51	5112
2026-01-26 08:57:57.96	29.32	30.67	-40.5	-43.0	13.1	3.58e-05	0	62	0	1070596096	51	5138
2026-01-26 08:57:58.97	29.02	30.57	-40.3	-42.8	13.3	2.28e-05	0	62	0	1073741824	51	4988
2026-01-26 08:57:59.98	28.71	30.48	-40.1	-42.5	13.6	8.30e-06	0	62	0	1076887552	51	4832
2026-01-26 08:58:00.99	28.41	30.38	-40.1	-42.4	13.7	4.50e-06	0	62	0	1080033280	51	4795
2026-01-26 08:58:02.00	28.11	30.28	-40.1	-42.5	13.6	2.20e-06	0	62	0	1083179008	51	4820
2026-01-26 08:58:03.01	27.81	30.18	-40.1	-42.5	13.7	4.50e-06	0	62	0	1086324736	51	4815
2026-01-26 08:58:04.02	27.51	30.08	-40.1	-42.4	13.7	5.30e-06	0	62	0	1089470464	51	4775
2026-01-26 08:58:05.03	27.22	29.98	-40.0	-42.3	13.8	6.10e-06	0	62	0	1092616192	51	4725
2026-01-26 08:58:06.04	26.92	29.88	-40.1	-42.3	13.8	6.10e-06	0	62	0	1095761920	51	4749
2026-01-26 08:58:07.05	26.63	29.78	-40.0	-42.3	13.9	2.20e-06	0	62	0	1098907648	51	4708
2026-01-26 08:58:08.06	26.34	29.68	-40.0	-42.2	13.9	3.80e-06	0	62	0	1102053376	51	4701
2026-01-26 08:58:09.07	26.05	29.58	-39.8	-42.0	14.1	0.00e+00	0	62	0	1105199104	51	4568
2026-01-26 08:58:10.08	25.77	29.48	-39.9	-42.1	14.0	7.00e-07	0	62	0	1108344832	51	4629
2026-01-26 08:58:11.09	25.48	29.38	-40.0	-42.2	13.9	2.20e-06	0	62	0	1111490560	51	4684
2026-01-26 08:58:12.10	25.20	29.27	-40.0	-42.3	13.8	3.80e-06	0	62	0	1114636288	51	4746
2026-01-26 08:58:13.10	24.92	29.17	-40.1	-42.4	13.7	6.10e-06	0	62	0	1117782016	51	4779
2026-01-26 08:58:14.12	24.64	29.07	-40.0	-42.3	13.7	7.60e-06	0	62	0	1120927744	51	4757
2026-01-26 08:58:15.13	24.36	28.96	-39.9	-42.2	13.9	2.20e-06	0	62	0	1124073472	51	4670
2026-01-26 08:58:16.14	24.09	28.86	-40.0	-42.2	13.9	2.20e-06	0	62	0	1127219200	51	4698
2026-01-26 08:58:17.14	23.82	28.75	-39.9	-42.1	14.0	3.80e-06	0	62	0	1130364928	51	4638
2026-01-26 08:58:18.15	23.54	28.65	-39.7	-41.8	14.3	0.00e+00	0	62	0	1133510656	51	4475
2026-01-26 08:58:19.16	23.27	28.54	-39.7	-41.8	14.4	0.00e+00	0	62	0	1136656384	51	4452
2026-01-26 08:58:20.17	23.01	28.44	-39.7	-41.9	14.2	7.00e-07	0	62	0	1139802112	51	4512
2026-01-26 08:58:21.18	22.74	28.33	-39.7	-41.8	14.3	7.00e-07	0	62	0	1142947840	51	4465
2026-01-26 08:58:22.19	22.48	28.23	-39.6	-41.7	14.4	2.20e-06	0	62	0	1146093568	51	4422
2026-01-26 08:58:23.20	22.21	28.12	-39.6	-41.7	14.3	0.00e+00	0	62	0	1149239296	51	4438
2026-01-26 08:58:24.21	21.95	28.01	-39.5	-41.6	14.4	7.00e-07	0	62	0	1152385024	51	4388
2026-01-26 08:58:25.22	21.69	27.90	-39.5	-41.6	14.5	0.00e+00	0	62	0	1155530752	50	4606
2026-01-26 08:58:26.24	21.43	27.80	-39.5	-41.5	14.6	0.00e+00	0	62	0	1158676480	50	4585
2026-01-26 08:58:27.25	21.18	27.69	-39.5	-41.7	14.5	7.00e-07	0	62	0	1161822208	50	4655
2026-01-26 08:58:28.26	20.92	27.58	-39.7	-41.9	14.3	2.20e-06	0	62	0	1164967936	50	4762
2026-01-26 08:58:29.27	20.67	27.47	-39.9	-42.1	14.0	3.80e-06	0	62	0	1168113664	50	4926
2026-01-26 08:58:30.28	20.42	27.36	-40.1	-42.4	13.7	3.80e-06	0	62	0	1171259392	50	5072
2026-01-26 08:58:31.29	20.17	27.26	-40.1	-42.4	13.7	4.50e-06	0	62	0	1174405120	50	5083
2026-01-26 08:58:32.30	19.92	27.15	-40.0	-42.3	13.7	5.30e-06	0	62	0	1177550848	50	5039
2026-01-26 08:58:33.31	19.68	27.04	-39.9	-42.2	13.9	5.30e-06	0	62	0	1180696576	50	4971
2026-01-26 08:58:34.32	19.43	26.93	-39.9	-42.2	13.9	2.20e-06	0	62	0	1183842304	50	4944
2026-01-26 08:58:35.34	19.19	26.82	-39.8	-42.2	13.9	3.80e-06	0	62	0	1188036608	50	4930
2026-01-26 08:58:36.35	18.95	26.71	-39.7	-41.9	14.1	4.50e-06	0	62	0	1191182336	50	4795
2026-01-26 08:58:37.36	18.71	26.60	-39.5	-41.6	14.4	0.00e+00	0	62	0	1193279488	50	4646
2026-01-26 08:58:38.37	18.47	26.49	-39.4	-41.5	14.6	7.00e-07	0	62	0	1196425216	50	4547
2026-01-26 08:58:39.38	18.24	26.38	-39.4	-41.5	14.5	7.00e-07	0	62	0	1200619520	50	4569
2026-01-26 08:58:40.39	18.00	26.27	-39.4	-41.5	14.5	7.00e-07	0	62	0	1203765248	50	4578
2026-01-26 08:58:41.40	17.77	26.17	-39.4	-41.5	14.6	1.50e-06	0	62	0	1206910976	50	4553
2026-01-26 08:58:42.41	17.54	26.06	-39.3	-41.4	14.6	0.00e+00	0	62	0	1210056704	50	4524
2026-01-26 08:58:43.42	17.31	25.95	-39.4	-41.4	14.6	0.00e+00	0	62	0	1213202432	50	4516
2026-01-26 08:58:44.43	17.08	25.84	-39.4	-41.5	14.6	1.50e-06	0	62	0	1216348160	50	4553
2026-01-26 08:58:45.44	16.86	25.73	-39.5	-41.6	14.4	7.00e-07	0	62	0	1219493888	50	4627
2026-01-26 08:58:46.45	16.63	25.62	-39.7	-41.9	14.2	7.00e-07	0	62	0	1222639616	50	4774
2026-01-26 08:58:47.47	16.41	25.51	-39.9	-42.1	13.9	4.50e-06	0	62	0	1225785344	50	4923
2026-01-26 08:58:48.48	16.19	25.40	-40.0	-42.4	13.6	9.10e-06	0	62	0	1228931072	50	5064
2026-01-26 08:58:49.49	15.97	25.29	-40.1	-42.5	13.5	8.30e-06	0	62	0	1232076800	50	5105
2026-01-26 08:58:50.50	15.75	25.18	-40.1	-42.4	13.6	9.90e-06	0	62	0	1235222528	50	5083
2026-01-26 08:58:51.51	15.53	25.07	-39.9	-42.3	13.7	5.30e-06	0	62	0	1238368256	50	4987
2026-01-26 08:58:52.52	15.32	24.96	-39.9	-42.2	13.8	6.80e-06	0	62	0	1241513984	50	4945
2026-01-26 08:58:53.53	15.11	24.85	-39.8	-42.0	13.9	1.50e-06	0	62	0	1244659712	50	4862
2026-01-26 08:58:54.54	14.89	24.74	-39.6	-41.7	14.2	3.80e-06	0	62	0	1247805440	50	4670
2026-01-26 08:58:55.55	14.68	24.63	-39.4	-41.4	14.6	7.00e-07	0	62	0	1250951168	50	4521
2026-01-26 08:58:56.56	14.48	24.52	-39.3	-41.3	14.7	7.00e-07	0	62	0	1254096896	50	4456
2026-01-26 08:58:57.57	14.27	24.41	-39.3	-41.4	14.6	0.00e+00	0	62	0	1257242624	50	4505
2026-01-26 08:58:58.58	14.06	24.30	-39.3	-41.3	14.7	7.00e-07	0	62	0	1260388352	50	4479
2026-01-26 08:58:59.59	13.86	24.19	-39.3	-41.3	14.7	1.50e-06	0	62	0	1263534080	50	4462
2026-01-26 08:59:00.60	13.65	24.08	-39.3	-41.3	14.7	0.00e+00	0	62	0	1266679808	50	4453
2026-01-26 08:59:01.61	13.45	23.97	-39.3	-41.3	14.6	0.00e+00	0	62	0	1269825536	50	4482
2026-01-26 08:59:02.62	13.25	23.86	-39.3	-41.3	14.6	0.00e+00	0	62	0	1272971264	50	4479
2026-01-26 08:59:03.63	13.05	23.75	-39.2	-41.3	14.6	0.00e+00	0	62	0	1276116992	50	4446
2026-01-26 08:59:04.64	12.86	23.64	-39.2	-41.2	14.8	0.00e+00	0	62	0	1279262720	50	4396
2026-01-26 08:59:05.65	12.66	23.53	-39.1	-41.1	14.8	0.00e+00	0	62	0	1282408448	50	4351
2026-01-26 08:59:06.65	12.47	23.43	-39.1	-41.0	14.9	0.00e+00	0	62	0	1285554176	50	4323
2026-01-26 08:59:07.67	12.27	23.32	-39.1	-41.1	14.8	0.00e+00	0	62	0	1288699904	50	4342
2026-01-26 08:59:08.68	12.08	23.21	-39.2	-41.2	14.7	0.00e+00	0	62	0	1291845632	50	4400
2026-01-26 08:59:09.69	11.89	23.10	-39.2	-41.3	14.6	0.00e+00	0	62	0	1294991360	50	4444
2026-01-26 08:59:10.69	11.70	22.99	-39.3	-41.4	14.5	0.00e+00	0	62	0	1298137088	50	4503
2026-01-26 08:59:11.70	11.51	22.88	-39.3	-41.4	14.5	7.00e-07	0	62	0	1301282816	50	4507
2026-01-26 08:59:12.71	11.33	22.77	-39.4	-41.5	14.4	0.00e+00	0	62	0	1304428544	50	4565
2026-01-26 08:59:13.73	11.14	22.66	-39.4	-41.5	14.3	1.50e-06	0	62	0	1307574272	50	4596
2026-01-26 08:59:14.74	10.96	22.56	-39.5	-41.6	14.2	7.00e-07	0	62	0	1310720000	50	4644
2026-01-26 08:59:15.74	10.78	22.45	-39.4	-41.5	14.4	1.50e-06	0	62	0	1313865728	50	4571
2026-01-26 08:59:16.75	10.59	22.34	-39.4	-41.4	14.4	0.00e+00	0	62	0	1317011456	50	4535
2026-01-26 08:59:17.75	10.42	22.24	-39.3	-41.4	14.5	7.00e-07	0	62	0	1320157184	50	4507
2026-01-26 08:59:18.76	10.24	22.13	-39.3	-41.4	14.5	1.50e-06	0	62	0	1323302912	50	4522
2026-01-26 08:59:19.77	10.06	22.02	-39.4	-41.5	14.4	7.00e-07	0	62	0	1326448640	50	4577
2026-01-26 08:59:20.78	9.88	21.91	-39.4	-41.5	14.3	7.00e-07	0	62	0	1329594368	50	4589
2026-01-26 08:59:21.79	9.71	21.81	-39.5	-41.7	14.2	1.50e-06	0	62	0	1332740096	50	4688
2026-01-26 08:59:22.80	9.53	21.70	-39.6	-41.9	14.0	0.00e+00	0	62	0	1335885824	50	4764
2026-01-26 08:59:23.82	9.36	21.59	-39.7	-41.9	13.9	3.80e-06	0	62	0	1339031552	50	4801
2026-01-26 08:59:24.83	9.19	21.49	-39.7	-41.9	13.9	3.00e-06	0	62	0	1342177280	50	4784
2026-01-26 08:59:25.84	9.02	21.38	-39.7	-41.9	13.9	4.50e-06	0	62	0	1345323008	50	4810
2026-01-26 08:59:26.85	8.85	21.27	-39.7	-42.0	13.8	1.50e-06	0	62	0	1348468736	50	4832
2026-01-26 08:59:27.86	8.68	21.17	-39.8	-42.1	13.7	3.80e-06	0	62	0	1351614464	50	4888
2026-01-26 08:59:28.87	8.52	21.06	-39.7	-42.0	13.8	7.00e-07	0	62	0	1354760192	50	4815
2026-01-26 08:59:29.88	8.35	20.96	-39.6	-41.8	13.9	6.10e-06	0	62	0	1357905920	50	4757
2026-01-26 08:59:30.89	8.19	20.85	-39.6	-41.7	14.0	4.50e-06	0	62	0	1361051648	50	4704
2026-01-26 08:59:31.90	8.02	20.75	-39.6	-41.8	14.0	0.00e+00	0	62	0	1364197376	50	4736
2026-01-26 08:59:32.91	7.86	20.64	-39.6	-41.9	13.9	7.00e-07	0	62	0	1367343104	50	4764
2026-01-26 08:59:33.92	7.70	20.54	-39.7	-42.0	13.8	5.30e-06	0	62	0	1370488832	50	4826
2026-01-26 08:59:34.93	7.54	20.43	-39.7	-42.0	13.7	6.80e-06	0	62	0	1373634560	50	4862
2026-01-26 08:59:35.94	7.38	20.33	-39.7	-42.0	13.7	4.50e-06	0	62	0	1376780288	50	4843
2026-01-26 08:59:36.95	7.22	20.22	-39.7	-42.0	13.7	1.22e-05	0	62	0	1379926016	50	4838
2026-01-26 08:59:37.96	7.07	20.12	-39.7	-42.0	13.6	3.80e-06	0	62	0	1383071744	50	4865
2026-01-26 08:59:38.96	6.91	20.02	-39.7	-42.0	13.8	7.60e-06	0	62	0	1386217472	50	4822
2026-01-26 08:59:39.98	6.76	19.91	-39.7	-42.0	13.7	6.10e-06	0	62	0	1389363200	50	4837
2026-01-26 08:59:40.99	6.60	19.81	-39.7	-42.0	13.7	8.30e-06	0	62	0	1392508928	50	4829
2026-01-26 08:59:42.00	6.45	19.70	-39.6	-41.8	13.9	0.00e+00	0	62	0	1395654656	50	4743
2026-01-26 08:59:43.01	6.30	19.60	-39.5	-41.7	13.9	3.00e-06	0	62	0	1398800384	50	4701
2026-01-26 08:59:44.02	6.15	19.50	-39.4	-41.6	14.0	1.50e-06	0	62	0	1401946112	50	4632
2026-01-26 08:59:45.03	6.00	19.40	-39.4	-41.6	14.0	3.80e-06	0	62	0	1405091840	50	4622
2026-01-26 08:59:46.04	5.85	19.29	-39.5	-41.7	13.9	7.00e-07	0	62	0	1408237568	50	4674
2026-01-26 08:59:47.05	5.70	19.19	-39.4	-41.5	14.0	4.50e-06	0	62	0	1411383296	50	4591
2026-01-26 08:59:48.06	5.56	19.09	-39.2	-41.3	14.3	7.00e-07	0	62	0	1414529024	50	4455
2026-01-26 08:59:49.07	5.41	18.99	-39.1	-41.1	14.5	1.50e-06	0	62	0	1417674752	50	4365
2026-01-26 08:59:50.08	5.27	18.89	-39.0	-41.1	14.5	0.00e+00	0	62	0	1420820480	50	4360
2026-01-26 08:59:51.09	5.13	18.79	-39.1	-41.1	14.5	0.00e+00	0	62	0	1423966208	50	4382
2026-01-26 08:59:52.10	4.98	18.68	-39.1	-41.2	14.4	2.20e-06	0	62	0	1427111936	50	4405
2026-01-26 08:59:53.11	4.84	18.58	-39.2	-41.3	14.3	1.50e-06	0	62	0	1430257664	50	4456
2026-01-26 08:59:54.12	4.70	18.48	-39.2	-41.4	14.2	2.20e-06	0	62	0	1433403392	50	4495
2026-01-26 08:59:55.13	4.56	18.38	-39.3	-41.5	14.0	7.00e-07	0	62	0	1436549120	50	4570
2026-01-26 08:59:56.14	4.42	18.28	-39.3	-41.5	14.0	1.50e-06	0	62	0	1439694848	50	4579
2026-01-26 08:59:57.15	4.29	18.18	-39.4	-41.6	13.9	4.50e-06	0	62	0	1442840576	50	4608
2026-01-26 08:59:58.16	4.15	18.08	-39.3	-41.5	14.0	3.00e-06	0	62	0	1445986304	50	4561
2026-01-26 08:59:59.17	4.01	17.98	-39.4	-41.6	13.9	1.50e-06	0	62	0	1449132032	50	4616
2026-01-26 09:00:00.18	3.88	17.89	-39.4	-41.6	13.8	3.80e-06	0	62	0	1452277760	50	4634
2026-01-26 09:00:01.19	3.75	17.79	-39.3	-41.6	13.8	1.50e-06	0	62	0	1455423488	50	4603
2026-01-26 09:00:02.20	3.61	17.69	-39.4	-41.6	13.7	5.30e-06	0	62	0	1458569216	50	4631
2026-01-26 09:00:03.21	3.48	17.59	-39.3	-41.6	13.8	6.10e-06	0	62	0	1461714944	50	4622
2026-01-26 09:00:04.22	3.35	17.49	-39.4	-41.6	13.7	3.80e-06	0	62	0	1464860672	50	4649
2026-01-26 09:00:05.23	3.22	17.39	-39.4	-41.6	13.7	3.80e-06	0	62	0	1468006400	50	4631
2026-01-26 09:00:06.24	3.09	17.30	-39.4	-41.7	13.7	5.30e-06	0	62	0	1471152128	50	4664
2026-01-26 09:00:07.25	2.96	17.20	-39.5	-41.8	13.5	6.10e-06	0	62	0	1474297856	50	4745
2026-01-26 09:00:08.26	2.83	17.10	-39.5	-41.8	13.4	1.22e-05	0	62	0	1477443584	50	4740
2026-01-26 09:00:09.27	2.71	17.00	-39.6	-42.1	13.2	2.05e-05	0	62	0	1480589312	50	4879
2026-01-26 09:00:10.28	2.58	16.91	-39.7	-42.1	13.0	2.97e-05	0	62	0	1484783616	50	4918
2026-01-26 09:00:11.29	2.45	16.81	-39.8	-42.4	12.8	4.80e-05	0	62	0	1486880768	50	5049
2026-01-26 09:00:12.30	2.33	16.71	-39.8	-42.4	12.7	9.38e-05	0	62	0	1490026496	50	5073
2026-01-26 09:00:13.31	2.21	16.62	-39.9	-42.6	12.5	8.31e-05	0	62	0	1493172224	50	5161
2026-01-26 09:00:14.32	2.08	16.52	-40.0	-42.7	12.4	1.54e-04	0	62	0	1496317952	50	5259
2026-01-26 09:00:15.34	1.96	16.43	-40.0	-42.8	12.2	1.83e-04	0	62	0	1500512256	50	5305
2026-01-26 09:00:16.35	1.84	16.33	-40.1	-42.9	12.1	2.45e-04	0	62	0	1503657984	50	5357
2026-01-26 09:00:17.36	1.72	16.24	-40.1	-43.0	12.0	2.78e-04	0	62	0	1506803712	50	5428
2026-01-26 09:00:18.37	1.60	16.14	-40.0	-42.8	12.2	2.20e-04	0	62	0	1508900864	50	5296
2026-01-26 09:00:19.38	1.48	16.05	-39.9	-42.6	12.4	1.45e-04	0	62	0	1512046592	50	5173
2026-01-26 09:00:20.39	1.36	15.95	-39.8	-42.5	12.4	1.40e-04	0	62	0	1516240896	50	5144
2026-01-26 09:00:21.40	1.24	15.86	-39.8	-42.4	12.5	1.19e-04	0	62	0	1519386624	50	5097
2026-01-26 09:00:22.40	1.13	15.76	-39.8	-42.6	12.3	1.88e-04	0	62	0	1522532352	50	5162
2026-01-26 09:00:23.41	1.01	15.67	-39.7	-42.4	12.5	1.42e-04	0	62	0	1525678080	50	5054
2026-01-26 09:00:24.42	0.90	15.58	-39.7	-42.4	12.5	1.17e-04	0	62	0	1528823808	50	5065
2026-01-26 09:00:25.43	0.78	15.48	-39.8	-42.5	12.2	1.81e-04	0	62	0	1531969536	50	5155
2026-01-26 09:00:26.45	0.67	15.39	-39.8	-42.6	12.1	2.76e-04	0	62	0	1535115264	50	5189
2026-01-26 09:00:27.46	0.56	15.30	-39.6	-42.2	12.4	1.44e-04	0	62	0	1538260992	50	4976
2026-01-26 09:00:28.47	0.44	15.21	-39.6	-42.3	12.3	1.44e-04	0	62	0	1541406720	50	5039
2026-01-26 09:00:29.48	0.33	15.11	-39.9	-42.9	11.6	5.01e-04	0	62	0	1544552448	50	5380
2026-01-26 09:00:30.49	0.22	15.02	-39.9	-42.9	11.5	9.52e-04	0	62	0	1547698176	50	5398
2026-01-26 09:00:31.50	0.11	14.93	-39.8	-42.8	11.4	8.72e-04	0	62	0	1550843904	50	5330
2026-01-26 09:00:32.51	0.00	14.84	-39.7	-42.8	11.3	1.06e-03	0	62	0	1553989632	50	5321
2026-01-26 09:00:33.52	359.89	14.75	-39.7	-42.8	11.3	1.11e-03	0	62	0	1557135360	50	5302
2026-01-26 09:00:34.53	359.79	14.66	-39.9	-43.2	10.9	1.87e-03	0	62	0	1560281088	50	5577
2026-01-26 09:00:35.54	359.68	14.56	-40.1	-43.6	10.4	4.31e-03	0	62	0	1563426816	50	5817
2026-01-26 09:00:36.55	359.57	14.47	-40.1	-43.5	10.5	4.33e-03	0	62	0	1566572544	50	5754
2026-01-26 09:00:37.56	359.47	14.38	-39.9	-43.2	10.8	2.83e-03	0	62	0	1569718272	50	5539
2026-01-26 09:00:38.57	359.36	14.29	-39.8	-43.0	11.0	1.86e-03	0	62	0	1572864000	50	5436
2026-01-26 09:00:39.58	359.26	14.20	-39.7	-42.9	11.0	1.97e-03	0	62	0	1576009728	50	5397
2026-01-26 09:00:40.59	359.15	14.11	-39.6	-42.8	11.0	1.86e-03	0	62	0	1579155456	50	5306
2026-01-26 09:00:41.60	359.05	14.02	-39.4	-42.5	11.3	1.36e-03	0	62	0	1582301184	50	5104
2026-01-26 09:00:42.61	358.95	13.94	-39.4	-42.5	11.0	1.67e-03	0	62	0	1585446912	50	5159
2026-01-26 09:00:43.63	358.84	13.85	-39.4	-42.6	10.9	2.06e-03	0	62	0	1588592640	50	5195
2026-01-26 09:00:44.64	358.74	13.76	-39.4	-42.7	10.7	2.91e-03	0	62	0	1591738368	50	5253
2026-01-26 09:00:45.65	358.64	13.67	-39.4	-42.9	10.4	4.50e-03	0	62	0	1594884096	50	5357
2026-01-26 09:00:46.66	358.54	13.58	-39.6	-43.2	10.0	5.57e-03	0	62	0	1598029824	50	5543
2026-01-26 09:00:47.67	358.44	13.49	-39.8	-43.6	9.4	1.22e-02	0	62	0	1601175552	50	5843
2026-01-26 09:00:48.68	358.34	13.40	-39.8	-43.8	9.2	1.70e-02	0	62	0	1604321280	50	5977
2026-01-26 09:00:49.69	358.24	13.32	-39.8	-44.0	9.0	2.43e-02	0	62	0	1607467008	50	6073
2026-01-26 09:00:50.70	358.15	13.23	-39.8	-44.1	8.7	3.16e-02	0	62	0	1610612736	50	6170
2026-01-26 09:00:51.71	358.05	13.14	-40.0	-44.6	8.1	5.20e-02	0	62	0	1613758464	50	6515
2026-01-26 09:00:52.72	357.95	13.06	-40.0	-44.7	8.1	6.19e-02	0	62	0	1616904192	50	6602
2026-01-26 09:00:53.73	357.86	12.97	-40.1	-45.0	7.7	8.46e-02	0	62	0	1620049920	50	6834
2026-01-26 09:00:54.74	357.76	12.88	-40.2	-45.6	7.0	1.32e-01	0	62	0	1623195648	51	6950
2026-01-26 09:00:55.75	357.67	12.80	-40.3	-45.6	7.0	1.65e-01	0	62	0	1626341376	51	6921
2026-01-26 09:00:56.76	357.57	12.71	-40.2	-45.3	7.4	1.21e-01	0	62	0	1629487104	51	6693
2026-01-26 09:00:57.77	357.48	12.63	-40.2	-45.3	7.4	1.14e-01	0	62	0	1632632832	51	6715
2026-01-26 09:00:58.78	357.39	12.54	-40.2	-45.4	7.2	1.27e-01	0	62	0	1635778560	51	6770
2026-01-26 09:00:59.79	357.29	12.45	-40.7	-46.5	6.4	1.95e-01	0	62	0	1638924288	51	7705
2026-01-26 09:01:00.80	357.20	12.37	-40.4	-52.2	3.8	2.68e-01	0	62	104	1641021440	52	14036
2026-01-26 09:01:01.82	357.11	12.28	-40.4	-49.5	4.2	1.49e+00	0	62	104	1641021440	52	10205
2026-01-26 09:01:02.83	357.02	12.20	-41.7	-51.5	3.9	5.89e-01	0	62	104	1641021440	53	12177
2026-01-26 09:01:03.84	356.93	12.11	-40.8	-49.5	4.0	1.48e+00	0	62	104	1641021440	53	9705
2026-01-26 09:01:04.85	356.84	12.03	-40.8	-49.7	4.3	1.46e+00	0	62	104	1641021440	53	9914
2026-01-26 09:01:05.86	356.75	11.95	-40.8	-50.4	3.9	1.47e+00	0	62	104	1641021440	53	10770
2026-01-26 09:01:06.87	356.66	11.86	-40.6	-51.1	3.9	1.48e+00	0	62	104	1641021440	53	11682
2026-01-26 09:01:07.88	356.57	11.78	-41.0	-51.5	3.8	1.48e+00	0	62	104	1641021440	53	12153
2026-01-26 09:01:08.89	356.48	11.70	-40.2	-52.4	3.8	1.49e+00	0	62	104	1641021440	52	14347
2026-01-26 09:01:09.90	356.40	11.61	-40.6	-52.9	3.8	1.49e+00	0	62	104	1641021440	52	15078
2026-01-26 09:01:10.91	356.31	11.53	-41.5	-52.8	3.8	1.49e+00	0	62	104	1641021440	53	14172
2026-01-26 09:01:11.92	356.22	11.45	-40.8	-52.6	3.8	1.49e+00	0	62	104	1641021440	53	13827
2026-01-26 09:01:12.93	356.14	11.36	-40.8	-52.7	3.8	1.49e+00	0	62	104	1641021440	53	14044
2026-01-26 09:01:13.94	356.05	11.28	-40.7	-52.8	3.8	1.49e+00	0	62	104	1641021440	53	14128
2026-01-26 09:01:14.95	355.97	11.20	-40.4	-52.7	3.8	1.49e+00	0	62	104	1641021440	52	14776
2026-01-26 09:01:15.96	355.88	11.12	-40.6	-52.9	3.8	1.49e+00	0	62	104	1641021440	52	15103
2026-01-26 09:01:16.97	355.80	11.04	-40.1	-52.4	3.8	1.49e+00	0	62	104	1641021440	52	14266
2026-01-26 09:01:17.98	355.72	10.96	-40.2	-52.5	3.8	1.49e+00	0	62	104	1641021440	52	14521
2026-01-26 09:01:18.99	355.63	10.87	-40.4	-52.7	3.8	1.49e+00	0	62	104	1641021440	52	14811
2026-01-26 09:01:20.00	355.55	10.79	-40.5	-52.8	3.8	1.49e+00	0	62	104	1641021440	52	15014
2026-01-26 09:01:21.01	355.47	10.71	-40.0	-52.4	3.8	1.49e+00	0	62	104	1641021440	52	14227
2026-01-26 09:01:22.02	355.39	10.63	-40.2	-52.5	3.8	1.49e+00	0	62	104	1641021440	52	14483
2026-01-26 09:01:23.03	355.31	10.55	-40.3	-52.7	3.8	1.49e+00	0	62	104	1641021440	52	14710
2026-01-26 09:01:24.04	355.23	10.47	-40.3	-52.7	3.8	1.49e+00	0	62	104	1641021440	52	14727
2026-01-26 09:01:25.05	355.15	10.39	-40.0	-52.4	3.8	1.49e+00	0	62	104	1641021440	52	14210
2026-01-26 09:01:26.06	355.07	10.31	-40.1	-52.4	3.8	1.49e+00	0	62	104	1641021440	52	14348
2026-01-26 09:01:27.07	354.99	10.23	-40.2	-52.6	3.8	1.49e+00	0	62	104	1641021440	52	14610
2026-01-26 09:01:28.08	354.91	10.15	-40.2	-52.6	3.8	1.49e+00	0	62	104	1641021440	52	14597
2026-01-26 09:01:29.09	354.83	10.07	-40.0	-52.3	3.8	1.49e+00	0	62	104	1641021440	52	14200
2026-01-26 09:01:30.10	354.76	9.99	-40.1	-52.4	3.8	1.49e+00	0	62	104	1641021440	52	14291
2026-01-26 09:01:31.11	354.68	9.92	-40.2	-52.5	3.8	1.49e+00	0	62	104	1641021440	52	14515
2026-01-26 09:01:32.12	354.60	9.84	-40.2	-52.6	3.8	1.49e+00	0	62	104	1641021440	52	14549
2026-01-26 09:01:33.13	354.52	9.76	-40.0	-52.4	3.8	1.49e+00	0	62	104	1641021440	52	14232
2026-01-26 09:01:34.14	354.45	9.68	-40.1	-52.4	3.8	1.49e+00	0	62	104	1641021440	52	14283
