passes_logs/2026/01/26/R2.0S_Moscow/R2.0S_Moscow__20260126_115616_FENGYUN_3D_rec.log

#Pass ID: 20260126_115616_FENGYUN 3D
#Satellite: FENGYUN 3D
#Configuration: FENGYUN 3D
#almurnet v.1.7.20251203
#Start time: 2026-01-26 11:56:17

#Version: 2.2.20231116
#Station: R2.0S_Moscow
#Location: 37.707566 lon 55.798166 lat
#TLE: 1 43010U 17072A   26025.85700374 -.00000071  00000+0 -11715-4 0  9992
#TLE: 2 43010  98.9962 357.8423 0002518  90.2035 269.9429 14.19699460424796

#Time	Az	El	Level	Level2	SNR	BER	BlckErr	Temp	State	Recorded	gain1	gain2
2026-01-26 11:56:17.57	158.99	2.04	-44.1	-55.7	3.8	8.46e-01	0	53	0	0	59	13930
2026-01-26 11:56:18.58	158.99	2.11	-44.0	-55.7	3.8	8.47e-01	0	53	104	0	59	13904
2026-01-26 11:56:19.59	158.99	2.17	-44.0	-55.7	3.8	8.47e-01	0	53	104	0	59	13889
2026-01-26 11:56:20.61	158.99	2.24	-44.0	-55.6	3.8	8.45e-01	0	53	104	0	59	13860
2026-01-26 11:56:21.62	158.99	2.30	-44.0	-55.6	3.8	8.47e-01	0	53	104	0	59	13885
2026-01-26 11:56:22.63	158.99	2.37	-44.0	-55.7	3.8	8.47e-01	0	54	104	0	59	13887
2026-01-26 11:56:23.63	158.99	2.44	-44.0	-55.7	3.8	8.46e-01	0	54	104	0	59	13900
2026-01-26 11:56:24.64	159.00	2.50	-44.0	-55.7	3.8	8.46e-01	0	54	104	0	59	13917
2026-01-26 11:56:25.66	159.00	2.57	-44.0	-55.6	3.8	8.46e-01	0	54	104	0	59	13846
2026-01-26 11:56:26.67	159.00	2.64	-44.0	-55.6	3.8	8.47e-01	0	54	104	0	59	13879
2026-01-26 11:56:27.68	159.00	2.70	-44.0	-55.7	3.8	8.47e-01	0	54	104	0	59	13888
2026-01-26 11:56:28.69	159.00	2.77	-44.0	-55.7	3.8	8.46e-01	0	54	104	0	59	13891
2026-01-26 11:56:29.70	159.00	2.84	-44.0	-55.6	3.8	8.46e-01	0	54	104	0	59	13841
2026-01-26 11:56:30.71	159.00	2.90	-44.0	-55.6	3.8	8.47e-01	0	54	104	0	59	13822
2026-01-26 11:56:31.72	159.00	2.97	-44.0	-55.6	3.8	8.46e-01	0	54	104	0	59	13883
2026-01-26 11:56:32.73	159.00	3.04	-44.0	-55.6	3.8	8.44e-01	0	54	104	0	59	13802
2026-01-26 11:56:33.74	159.00	3.10	-44.0	-55.6	3.8	8.46e-01	0	54	104	0	59	13858
2026-01-26 11:56:34.75	159.00	3.17	-44.0	-55.6	3.8	8.47e-01	0	54	104	0	59	13885
2026-01-26 11:56:35.76	159.00	3.24	-44.0	-55.6	3.8	8.47e-01	0	54	104	0	59	13828
2026-01-26 11:56:36.77	159.00	3.31	-44.0	-55.6	3.8	8.46e-01	0	55	104	0	59	13824
2026-01-26 11:56:37.78	159.00	3.38	-44.0	-55.6	3.8	8.47e-01	0	55	104	0	59	13827
2026-01-26 11:56:38.79	159.00	3.44	-44.0	-55.6	3.8	8.46e-01	0	55	104	0	59	13770
2026-01-26 11:56:39.80	159.00	3.51	-44.0	-55.6	3.8	8.46e-01	0	55	104	0	59	13813
2026-01-26 11:56:40.81	159.00	3.58	-44.0	-55.6	3.8	8.47e-01	0	55	104	0	59	13841
2026-01-26 11:56:41.82	159.00	3.65	-44.0	-55.6	3.8	8.47e-01	0	55	104	0	59	13781
2026-01-26 11:56:42.83	159.00	3.72	-44.0	-55.6	3.8	8.46e-01	0	55	104	0	59	13819
2026-01-26 11:56:43.85	159.00	3.79	-44.0	-55.6	3.8	8.46e-01	0	55	104	0	59	13840
2026-01-26 11:56:44.86	159.00	3.86	-44.0	-55.6	3.8	8.47e-01	0	55	104	0	59	13788
2026-01-26 11:56:45.87	159.00	3.93	-43.9	-55.6	3.8	8.46e-01	0	55	104	0	59	13766
2026-01-26 11:56:46.88	159.00	4.00	-43.9	-55.6	3.8	8.46e-01	0	55	104	0	59	13733
2026-01-26 11:56:47.89	159.01	4.07	-44.0	-55.6	3.8	8.46e-01	0	55	104	0	59	13780
2026-01-26 11:56:48.90	159.01	4.14	-44.0	-55.6	3.8	8.47e-01	0	55	104	0	59	13736
2026-01-26 11:56:49.91	159.01	4.21	-44.0	-55.6	3.8	8.46e-01	0	55	104	0	59	13837
2026-01-26 11:56:50.92	159.01	4.28	-44.0	-55.6	3.8	8.45e-01	0	55	104	0	59	13790
2026-01-26 11:56:51.93	159.01	4.35	-43.9	-55.6	3.8	8.46e-01	0	56	104	0	59	13781
2026-01-26 11:56:52.94	159.01	4.42	-44.0	-55.5	3.8	8.46e-01	0	56	104	0	59	13726
2026-01-26 11:56:53.95	159.01	4.49	-43.9	-55.5	3.8	8.46e-01	0	56	104	0	59	13717
2026-01-26 11:56:54.96	159.01	4.56	-43.9	-55.5	3.8	8.47e-01	0	56	104	0	59	13724
2026-01-26 11:56:55.97	159.01	4.64	-43.9	-55.5	3.8	8.47e-01	0	56	104	0	59	13705
2026-01-26 11:56:56.98	159.01	4.71	-44.0	-55.5	3.8	8.46e-01	0	56	104	0	59	13710
2026-01-26 11:56:57.99	159.01	4.78	-43.9	-55.6	3.8	8.46e-01	0	56	104	0	59	13741
2026-01-26 11:56:59.00	159.01	4.85	-43.9	-55.5	3.8	8.47e-01	0	56	104	0	59	13602
2026-01-26 11:57:00.01	159.01	4.92	-43.9	-55.4	3.8	8.46e-01	0	56	104	0	59	13526
2026-01-26 11:57:01.03	159.01	5.00	-43.9	-55.4	3.8	8.47e-01	0	56	104	0	59	13521
2026-01-26 11:57:02.04	159.01	5.07	-43.9	-55.4	3.8	8.46e-01	0	56	104	0	59	13478
2026-01-26 11:57:03.05	159.01	5.14	-43.9	-55.4	3.8	8.46e-01	0	56	104	0	59	13424
2026-01-26 11:57:04.06	159.01	5.22	-43.9	-55.3	3.8	8.45e-01	0	56	104	0	59	13261
2026-01-26 11:57:05.07	159.01	5.29	-43.9	-55.1	3.8	8.46e-01	0	56	104	0	59	13109
2026-01-26 11:57:06.08	159.01	5.36	-43.9	-55.0	3.8	8.46e-01	0	56	104	0	59	12955
2026-01-26 11:57:07.09	159.01	5.44	-43.9	-54.9	3.8	8.48e-01	0	57	104	0	59	12727
2026-01-26 11:57:08.10	159.01	5.51	-43.8	-54.6	3.8	8.46e-01	0	56	104	0	59	12303
2026-01-26 11:57:09.11	159.01	5.58	-43.8	-54.2	3.8	8.46e-01	0	56	104	0	59	11758
2026-01-26 11:57:10.12	159.01	5.66	-43.7	-53.6	3.9	8.46e-01	0	57	104	0	59	11021
2026-01-26 11:57:11.13	159.01	5.73	-43.7	-53.3	3.8	8.45e-01	0	57	104	0	59	10590
2026-01-26 11:57:12.15	159.01	5.81	-43.6	-52.8	3.9	8.43e-01	0	57	104	0	59	9956
2026-01-26 11:57:13.16	159.01	5.88	-43.5	-52.3	4.1	8.40e-01	0	57	0	0	59	9470
2026-01-26 11:57:14.17	159.01	5.96	-43.5	-51.9	4.2	8.36e-01	0	57	0	0	58	9538
2026-01-26 11:57:15.18	159.01	6.03	-43.4	-51.7	4.3	8.34e-01	0	57	0	0	58	9350
2026-01-26 11:57:16.19	159.01	6.11	-43.4	-51.4	4.3	8.30e-01	0	57	0	0	58	9053
2026-01-26 11:57:17.20	159.01	6.18	-43.3	-50.8	4.6	8.20e-01	0	57	0	0	58	8401
2026-01-26 11:57:18.21	159.01	6.26	-43.3	-50.9	4.6	8.18e-01	0	57	0	0	58	8509
2026-01-26 11:57:19.22	159.01	6.34	-43.3	-50.9	4.5	8.17e-01	0	57	0	0	58	8537
2026-01-26 11:57:20.23	159.01	6.41	-43.3	-51.0	4.5	8.20e-01	0	57	0	0	58	8588
2026-01-26 11:57:21.24	159.01	6.49	-43.4	-51.4	4.4	8.28e-01	0	57	0	0	58	8993
2026-01-26 11:57:22.25	159.01	6.57	-43.4	-51.4	4.4	8.28e-01	0	57	0	0	58	9059
2026-01-26 11:57:23.26	159.01	6.64	-43.5	-52.4	4.1	8.38e-01	0	57	0	0	58	10103
2026-01-26 11:57:24.27	159.01	6.72	-43.6	-53.2	3.8	8.43e-01	0	57	104	0	58	11113
2026-01-26 11:57:25.28	159.01	6.80	-43.7	-53.7	3.8	8.45e-01	0	57	104	0	58	11773
2026-01-26 11:57:26.29	159.01	6.88	-43.7	-54.0	3.8	8.46e-01	0	57	104	0	58	12116
2026-01-26 11:57:27.31	159.01	6.96	-43.8	-54.5	3.8	8.45e-01	0	57	104	0	58	12919
2026-01-26 11:57:28.31	159.01	7.03	-43.7	-54.0	3.8	8.45e-01	0	57	104	0	58	12203
2026-01-26 11:57:29.33	159.01	7.11	-43.6	-52.8	4.0	8.45e-01	0	57	104	0	58	10581
2026-01-26 11:57:30.34	159.01	7.19	-43.4	-51.7	4.3	8.38e-01	0	58	0	0	58	9309
2026-01-26 11:57:31.35	159.01	7.27	-43.0	-49.9	5.0	7.90e-01	0	58	0	0	58	7627
2026-01-26 11:57:32.36	159.01	7.35	-42.7	-48.8	5.7	7.20e-01	0	58	0	0	57	7086
2026-01-26 11:57:33.37	159.01	7.43	-42.2	-47.4	6.8	2.31e-01	0	58	0	6291456	56	6388
2026-01-26 11:57:34.38	159.01	7.51	-41.6	-46.1	7.9	1.15e-01	0	58	0	11534336	55	5840
2026-01-26 11:57:35.39	159.01	7.59	-41.2	-45.1	8.9	4.12e-02	0	58	0	16777216	54	5516
2026-01-26 11:57:36.40	159.01	7.67	-40.7	-44.3	9.7	1.85e-02	0	58	0	23068672	53	5324
2026-01-26 11:57:37.41	159.01	7.75	-40.5	-43.9	10.2	9.39e-03	0	58	0	28311552	53	5048
2026-01-26 11:57:38.42	159.01	7.83	-40.1	-43.1	11.0	3.16e-03	0	58	0	34603008	52	4925
2026-01-26 11:57:39.43	159.01	7.91	-39.9	-42.8	11.4	2.29e-03	0	58	0	39845888	51	5020
2026-01-26 11:57:40.44	159.01	7.99	-39.7	-42.5	11.7	9.96e-04	0	58	0	45088768	51	4830
2026-01-26 11:57:41.45	159.01	8.08	-39.7	-42.5	11.8	7.29e-04	0	58	0	51380224	51	4843
2026-01-26 11:57:42.46	159.01	8.16	-40.1	-43.1	11.2	3.07e-03	0	58	0	56623104	51	5218
2026-01-26 11:57:43.47	159.00	8.24	-40.0	-42.9	11.3	2.16e-01	0	58	0	62914560	52	4809
2026-01-26 11:57:44.49	159.00	8.32	-41.2	-45.0	9.4	4.44e-03	0	58	0	68157440	52	6086
2026-01-26 11:57:45.50	159.00	8.41	-40.0	-42.8	11.5	7.22e-01	0	58	0	71303168	51	5022
2026-01-26 11:57:46.51	159.00	8.49	-41.4	-45.5	8.4	4.57e-01	0	58	0	75497472	55	5459
2026-01-26 11:57:47.52	159.00	8.57	-39.7	-42.4	11.9	5.05e-04	0	58	0	80740352	51	4800
2026-01-26 11:57:48.53	159.00	8.66	-39.6	-42.4	12.0	5.01e-04	0	58	0	87031808	51	4761
2026-01-26 11:57:49.54	159.00	8.74	-39.7	-42.4	12.0	6.23e-04	0	58	0	92274688	51	4793
2026-01-26 11:57:50.55	159.00	8.82	-39.6	-42.3	12.0	4.15e-04	0	58	0	98566144	51	4742
2026-01-26 11:57:51.56	159.00	8.91	-39.5	-42.1	12.3	2.61e-04	0	58	0	103809024	50	4926
2026-01-26 11:57:52.57	159.00	8.99	-39.6	-42.2	12.2	3.02e-04	0	58	0	110100480	50	4968
2026-01-26 11:57:53.58	159.00	9.08	-39.4	-41.9	12.5	1.81e-04	0	58	0	115343360	50	4801
2026-01-26 11:57:54.59	159.00	9.16	-39.5	-42.1	12.3	2.32e-04	0	59	0	120586240	50	4912
2026-01-26 11:57:55.60	159.00	9.25	-39.4	-41.9	12.6	1.49e-04	0	59	0	126877696	50	4797
2026-01-26 11:57:56.61	159.00	9.33	-39.3	-41.8	12.7	1.18e-04	0	59	0	132120576	50	4728
2026-01-26 11:57:57.62	159.00	9.42	-39.2	-41.7	12.8	1.09e-04	0	59	0	138412032	50	4681
2026-01-26 11:57:58.63	159.00	9.51	-39.1	-41.6	13.0	6.52e-05	0	59	0	143654912	50	4603
2026-01-26 11:57:59.64	159.00	9.59	-39.2	-41.6	13.0	7.43e-05	0	59	0	148897792	50	4645
2026-01-26 11:58:00.65	159.00	9.68	-39.2	-41.6	13.0	6.86e-05	0	59	0	155189248	50	4612
2026-01-26 11:58:01.66	158.99	9.77	-39.0	-41.3	13.2	4.11e-05	0	59	0	160432128	50	4492
2026-01-26 11:58:02.67	158.99	9.86	-39.1	-41.4	13.1	2.97e-05	0	59	0	166723584	50	4533
2026-01-26 11:58:03.68	158.99	9.94	-39.1	-41.5	13.2	3.66e-05	0	59	0	171966464	50	4551
2026-01-26 11:58:04.69	158.99	10.03	-39.0	-41.3	13.3	2.97e-05	0	59	0	177209344	50	4493
2026-01-26 11:58:05.70	158.99	10.12	-39.0	-41.4	13.3	2.51e-05	0	59	0	183500800	50	4500
2026-01-26 11:58:06.72	158.99	10.21	-39.0	-41.3	13.4	3.54e-05	0	59	0	188743680	49	4747
2026-01-26 11:58:07.73	158.99	10.30	-39.0	-41.3	13.3	2.86e-05	0	59	0	195035136	49	4759
2026-01-26 11:58:08.74	158.99	10.39	-39.0	-41.3	13.3	2.74e-05	0	59	0	200278016	49	4747
2026-01-26 11:58:09.75	158.99	10.48	-39.0	-41.3	13.4	1.94e-05	0	59	0	206569472	49	4753
2026-01-26 11:58:10.76	158.99	10.57	-39.1	-41.4	13.3	2.51e-05	0	59	0	211812352	49	4767
2026-01-26 11:58:11.77	158.99	10.66	-39.0	-41.3	13.3	3.08e-05	0	59	0	218103808	49	4758
2026-01-26 11:58:12.78	158.98	10.75	-39.0	-41.3	13.4	1.71e-05	0	59	0	223346688	49	4750
2026-01-26 11:58:13.79	158.98	10.84	-39.0	-41.3	13.5	1.71e-05	0	59	0	228589568	49	4709
2026-01-26 11:58:14.80	158.98	10.93	-39.0	-41.2	13.6	1.25e-05	0	59	0	234881024	49	4683
2026-01-26 11:58:15.81	158.98	11.03	-39.0	-41.2	13.5	2.17e-05	0	59	0	240123904	49	4705
2026-01-26 11:58:16.82	158.98	11.12	-39.1	-41.3	13.4	2.40e-05	0	59	0	246415360	49	4757
2026-01-26 11:58:17.83	158.98	11.21	-39.0	-41.3	13.5	1.71e-05	0	59	0	251658240	49	4710
2026-01-26 11:58:18.84	158.98	11.30	-38.9	-41.2	13.6	1.83e-05	0	59	0	256901120	49	4676
2026-01-26 11:58:19.85	158.98	11.40	-39.0	-41.2	13.6	1.94e-05	0	59	0	263192576	49	4685
2026-01-26 11:58:20.86	158.98	11.49	-39.0	-41.3	13.6	2.51e-05	0	59	0	268435456	49	4718
2026-01-26 11:58:21.88	158.98	11.59	-39.1	-41.3	13.5	1.37e-05	0	59	0	274726912	49	4759
2026-01-26 11:58:22.89	158.97	11.68	-39.0	-41.2	13.7	8.00e-06	0	59	0	279969792	49	4684
2026-01-26 11:58:23.90	158.97	11.78	-39.0	-41.2	13.7	1.14e-05	0	59	0	285212672	49	4676
2026-01-26 11:58:24.91	158.97	11.87	-38.9	-41.2	13.7	3.40e-06	0	59	0	291504128	49	4653
2026-01-26 11:58:25.92	158.97	11.97	-38.8	-41.0	13.9	3.40e-06	0	59	0	296747008	49	4572
2026-01-26 11:58:26.93	158.97	12.06	-38.8	-41.0	13.9	5.70e-06	0	59	0	303038464	49	4573
2026-01-26 11:58:27.94	158.97	12.16	-38.8	-40.9	14.0	3.40e-06	0	59	0	308281344	49	4542
2026-01-26 11:58:28.95	158.97	12.25	-38.8	-40.9	14.0	2.20e-06	0	59	0	314572800	49	4538
2026-01-26 11:58:29.96	158.96	12.35	-38.8	-40.9	14.0	5.70e-06	0	60	0	319815680	49	4522
2026-01-26 11:58:30.97	158.96	12.45	-38.8	-40.9	14.0	8.00e-06	0	59	0	326107136	49	4518
2026-01-26 11:58:31.98	158.96	12.55	-38.8	-41.0	13.9	6.80e-06	0	60	0	331350016	49	4572
2026-01-26 11:58:32.99	158.96	12.65	-38.7	-40.8	14.2	4.50e-06	0	60	0	336592896	49	4454
2026-01-26 11:58:34.00	158.96	12.74	-38.7	-40.7	14.2	5.70e-06	0	59	0	342884352	49	4436
2026-01-26 11:58:35.01	158.96	12.84	-38.6	-40.7	14.2	2.20e-06	0	60	0	348127232	49	4419
2026-01-26 11:58:36.02	158.96	12.94	-38.6	-40.7	14.2	3.40e-06	0	59	0	354418688	49	4431
2026-01-26 11:58:37.03	158.95	13.04	-38.6	-40.7	14.3	0.00e+00	0	60	0	359661568	49	4404
2026-01-26 11:58:38.04	158.95	13.14	-38.6	-40.7	14.3	1.10e-06	0	60	0	364904448	49	4394
2026-01-26 11:58:39.05	158.95	13.24	-38.5	-40.6	14.4	2.20e-06	0	60	0	371195904	49	4356
2026-01-26 11:58:40.06	158.95	13.34	-38.5	-40.5	14.5	1.10e-06	0	60	0	376438784	48	4556
2026-01-26 11:58:41.07	158.95	13.45	-38.4	-40.4	14.5	0.00e+00	0	60	0	382730240	48	4543
2026-01-26 11:58:42.08	158.95	13.55	-38.4	-40.4	14.6	1.10e-06	0	60	0	387973120	48	4517
2026-01-26 11:58:43.09	158.94	13.65	-38.4	-40.4	14.6	1.10e-06	0	60	0	393216000	48	4518
2026-01-26 11:58:44.10	158.94	13.75	-38.4	-40.4	14.6	0.00e+00	0	60	0	399507456	48	4496
2026-01-26 11:58:45.11	158.94	13.86	-38.4	-40.3	14.7	1.10e-06	0	60	0	404750336	48	4476
2026-01-26 11:58:46.12	158.94	13.96	-38.3	-40.3	14.8	2.20e-06	0	60	0	411041792	48	4446
2026-01-26 11:58:47.13	158.94	14.06	-38.3	-40.3	14.8	0.00e+00	0	60	0	416284672	48	4450
2026-01-26 11:58:48.14	158.93	14.17	-38.3	-40.2	14.8	0.00e+00	0	60	0	422576128	48	4425
2026-01-26 11:58:49.15	158.93	14.27	-38.2	-40.1	14.9	3.40e-06	0	60	0	427819008	48	4378
2026-01-26 11:58:50.17	158.93	14.38	-38.2	-40.2	14.9	0.00e+00	0	60	0	433061888	48	4399
2026-01-26 11:58:51.18	158.93	14.49	-38.1	-40.1	15.0	0.00e+00	0	60	0	439353344	48	4346
2026-01-26 11:58:52.18	158.93	14.59	-38.1	-39.9	15.1	0.00e+00	0	60	0	444596224	48	4286
2026-01-26 11:58:53.20	158.92	14.70	-38.0	-39.9	15.2	0.00e+00	0	60	0	450887680	48	4260
2026-01-26 11:58:54.21	158.92	14.81	-38.1	-40.0	15.0	0.00e+00	0	60	0	456130560	48	4306
2026-01-26 11:58:55.22	158.92	14.92	-38.1	-40.0	15.1	0.00e+00	0	60	0	462422016	48	4307
2026-01-26 11:58:56.23	158.92	15.02	-37.8	-39.7	15.2	0.00e+00	0	60	0	467664896	47	4429
2026-01-26 11:58:57.24	158.92	15.13	-37.8	-39.7	15.3	0.00e+00	0	60	0	472907776	47	4397
2026-01-26 11:58:58.25	158.91	15.24	-37.7	-39.6	15.3	0.00e+00	0	60	0	479199232	47	4368
2026-01-26 11:58:59.26	158.91	15.35	-37.7	-39.6	15.4	0.00e+00	0	60	0	484442112	47	4364
2026-01-26 11:59:00.27	158.91	15.46	-37.8	-39.6	15.3	0.00e+00	0	60	0	489684992	47	4386
2026-01-26 11:59:01.28	158.91	15.57	-37.7	-39.5	15.4	0.00e+00	0	60	0	495976448	47	4336
2026-01-26 11:59:02.29	158.90	15.68	-37.7	-39.5	15.4	1.10e-06	0	60	0	501219328	47	4316
2026-01-26 11:59:03.30	158.90	15.80	-37.6	-39.5	15.5	0.00e+00	0	60	0	507510784	47	4304
2026-01-26 11:59:04.31	158.90	15.91	-37.7	-39.5	15.4	0.00e+00	0	60	0	512753664	47	4310
2026-01-26 11:59:05.32	158.90	16.02	-37.7	-39.5	15.4	0.00e+00	0	60	0	519045120	47	4327
2026-01-26 11:59:06.33	158.89	16.13	-37.6	-39.4	15.6	0.00e+00	0	60	0	524288000	47	4247
2026-01-26 11:59:07.34	158.89	16.25	-37.5	-39.3	15.6	0.00e+00	0	60	0	530579456	47	4237
2026-01-26 11:59:08.35	158.89	16.36	-37.5	-39.3	15.7	0.00e+00	0	60	0	535822336	47	4210
2026-01-26 11:59:09.36	158.89	16.48	-37.5	-39.3	15.7	0.00e+00	0	60	0	541065216	47	4203
2026-01-26 11:59:10.37	158.88	16.59	-37.5	-39.3	15.7	0.00e+00	0	60	0	547356672	47	4228
2026-01-26 11:59:11.38	158.88	16.71	-37.5	-39.3	15.7	0.00e+00	0	60	0	552599552	47	4208
2026-01-26 11:59:12.39	158.88	16.83	-37.5	-39.3	15.7	0.00e+00	0	60	0	558891008	47	4211
2026-01-26 11:59:13.40	158.87	16.94	-37.4	-39.2	15.8	0.00e+00	0	60	0	564133888	46	4428
2026-01-26 11:59:14.41	158.87	17.06	-37.4	-39.1	15.8	0.00e+00	0	61	0	569376768	46	4391
2026-01-26 11:59:15.42	158.87	17.18	-37.3	-39.0	15.9	0.00e+00	0	60	0	575668224	46	4330
2026-01-26 11:59:16.43	158.86	17.30	-37.3	-39.0	16.0	0.00e+00	0	61	0	580911104	46	4301
2026-01-26 11:59:17.45	158.86	17.42	-37.3	-39.0	16.0	0.00e+00	0	60	0	587202560	46	4335
2026-01-26 11:59:18.46	158.86	17.54	-37.2	-38.9	16.1	0.00e+00	0	61	0	592445440	46	4274
2026-01-26 11:59:19.47	158.86	17.66	-37.2	-39.0	16.0	0.00e+00	0	61	0	598736896	46	4294
2026-01-26 11:59:20.48	158.85	17.78	-37.1	-38.8	16.2	0.00e+00	0	61	0	603979776	46	4240
2026-01-26 11:59:21.49	158.85	17.90	-37.1	-38.8	16.2	0.00e+00	0	61	0	609222656	46	4240
2026-01-26 11:59:22.50	158.85	18.03	-37.1	-38.8	16.2	0.00e+00	0	61	0	615514112	46	4213
2026-01-26 11:59:23.51	158.84	18.15	-37.1	-38.8	16.2	0.00e+00	0	61	0	620756992	46	4230
2026-01-26 11:59:24.52	158.84	18.27	-37.1	-38.7	16.3	0.00e+00	0	61	0	627048448	46	4189
2026-01-26 11:59:25.53	158.84	18.40	-37.0	-38.7	16.3	0.00e+00	0	61	0	632291328	46	4165
2026-01-26 11:59:26.53	158.83	18.52	-36.9	-38.6	16.4	0.00e+00	0	60	0	638582784	45	4367
2026-01-26 11:59:27.54	158.83	18.65	-37.0	-38.6	16.4	0.00e+00	0	61	0	643825664	45	4388
2026-01-26 11:59:28.55	158.82	18.77	-37.0	-38.6	16.4	0.00e+00	0	61	0	649068544	45	4379
2026-01-26 11:59:29.56	158.82	18.90	-36.9	-38.6	16.4	0.00e+00	0	61	0	655360000	45	4359
2026-01-26 11:59:30.57	158.82	19.03	-36.9	-38.5	16.5	0.00e+00	0	61	0	660602880	45	4319
2026-01-26 11:59:31.58	158.81	19.16	-36.9	-38.6	16.4	0.00e+00	0	61	0	666894336	45	4348
2026-01-26 11:59:32.59	158.81	19.29	-36.9	-38.5	16.5	0.00e+00	0	61	0	672137216	45	4325
2026-01-26 11:59:33.60	158.81	19.41	-36.9	-38.5	16.4	0.00e+00	0	61	0	677380096	45	4332
2026-01-26 11:59:34.61	158.80	19.54	-36.9	-38.6	16.4	0.00e+00	0	61	0	683671552	45	4341
2026-01-26 11:59:35.62	158.80	19.68	-36.9	-38.5	16.5	0.00e+00	0	61	0	688914432	45	4328
2026-01-26 11:59:36.63	158.79	19.81	-36.9	-38.6	16.4	0.00e+00	0	61	0	695205888	45	4351
2026-01-26 11:59:37.64	158.79	19.94	-37.0	-38.6	16.3	0.00e+00	0	61	0	700448768	45	4387
2026-01-26 11:59:38.66	158.78	20.07	-36.9	-38.6	16.3	0.00e+00	0	61	0	705691648	45	4362
2026-01-26 11:59:39.67	158.78	20.21	-37.0	-38.6	16.4	0.00e+00	0	61	0	711983104	45	4369
2026-01-26 11:59:40.68	158.78	20.34	-36.9	-38.6	16.3	0.00e+00	0	61	0	717225984	45	4381
2026-01-26 11:59:41.69	158.77	20.48	-37.0	-38.6	16.3	0.00e+00	0	61	0	723517440	45	4386
2026-01-26 11:59:42.70	158.77	20.61	-36.9	-38.6	16.4	0.00e+00	0	61	0	728760320	45	4341
2026-01-26 11:59:43.71	158.76	20.75	-36.9	-38.5	16.4	0.00e+00	0	61	0	735051776	45	4333
2026-01-26 11:59:44.72	158.76	20.89	-36.8	-38.5	16.5	0.00e+00	0	61	0	740294656	45	4316
2026-01-26 11:59:45.73	158.75	21.03	-36.9	-38.5	16.4	0.00e+00	0	61	0	746586112	45	4339
2026-01-26 11:59:46.74	158.75	21.17	-36.8	-38.5	16.5	0.00e+00	0	61	0	751828992	45	4300
2026-01-26 11:59:47.75	158.74	21.31	-36.9	-38.5	16.4	0.00e+00	0	61	0	757071872	45	4337
2026-01-26 11:59:48.76	158.74	21.45	-36.7	-38.4	16.6	0.00e+00	0	61	0	763363328	45	4251
2026-01-26 11:59:49.77	158.73	21.59	-36.6	-38.3	16.7	0.00e+00	0	61	0	768606208	45	4198
2026-01-26 11:59:50.78	158.73	21.73	-36.5	-38.2	16.8	0.00e+00	0	61	0	774897664	45	4152
2026-01-26 11:59:51.79	158.72	21.87	-36.5	-38.1	16.8	0.00e+00	0	61	0	780140544	45	4144
2026-01-26 11:59:52.80	158.72	22.02	-36.5	-38.1	16.9	0.00e+00	0	61	0	785383424	45	4129
2026-01-26 11:59:53.81	158.71	22.16	-36.5	-38.1	16.9	0.00e+00	0	61	0	791674880	45	4128
2026-01-26 11:59:54.82	158.71	22.31	-36.5	-38.1	16.9	0.00e+00	0	61	0	796917760	44	4351
2026-01-26 11:59:55.83	158.70	22.45	-36.5	-38.1	16.9	0.00e+00	0	61	0	803209216	44	4371
2026-01-26 11:59:56.84	158.70	22.60	-36.4	-38.0	17.0	0.00e+00	0	61	0	808452096	44	4297
2026-01-26 11:59:57.85	158.69	22.75	-36.5	-38.1	16.9	0.00e+00	0	61	0	813694976	44	4347
2026-01-26 11:59:58.86	158.69	22.90	-36.3	-37.9	17.1	0.00e+00	0	61	0	819986432	44	4275
2026-01-26 11:59:59.87	158.68	23.05	-36.3	-37.8	17.2	0.00e+00	0	61	0	825229312	44	4218
2026-01-26 12:00:00.88	158.67	23.20	-36.3	-37.9	17.1	0.00e+00	0	61	0	831520768	44	4255
2026-01-26 12:00:01.89	158.67	23.35	-36.4	-38.0	17.0	0.00e+00	0	61	0	836763648	44	4306
2026-01-26 12:00:02.90	158.66	23.50	-36.3	-37.8	17.1	0.00e+00	0	61	0	843055104	44	4232
2026-01-26 12:00:03.91	158.66	23.65	-36.2	-37.7	17.3	0.00e+00	0	61	0	848297984	44	4160
2026-01-26 12:00:04.92	158.65	23.81	-36.1	-37.6	17.4	0.00e+00	0	61	0	854589440	44	4142
2026-01-26 12:00:05.93	158.64	23.96	-36.2	-37.7	17.3	0.00e+00	0	61	0	859832320	44	4157
2026-01-26 12:00:06.94	158.64	24.12	-36.2	-37.7	17.3	0.00e+00	0	61	0	865075200	44	4171
2026-01-26 12:00:07.95	158.63	24.28	-36.2	-37.7	17.3	0.00e+00	0	61	0	871366656	44	4169
2026-01-26 12:00:08.96	158.62	24.43	-36.1	-37.7	17.3	0.00e+00	0	61	0	876609536	44	4152
2026-01-26 12:00:09.98	158.62	24.59	-36.2	-37.7	17.3	0.00e+00	0	61	0	882900992	44	4178
2026-01-26 12:00:10.99	158.61	24.75	-36.1	-37.7	17.4	0.00e+00	0	61	0	888143872	44	4153
2026-01-26 12:00:12.00	158.60	24.91	-36.1	-37.5	17.5	0.00e+00	0	61	0	893386752	44	4093
2026-01-26 12:00:13.00	158.60	25.07	-36.0	-37.5	17.5	0.00e+00	0	61	0	899678208	44	4077
2026-01-26 12:00:14.02	158.59	25.24	-36.1	-37.6	17.4	0.00e+00	0	61	0	904921088	44	4131
2026-01-26 12:00:15.03	158.58	25.40	-36.2	-37.7	17.3	0.00e+00	0	61	0	911212544	44	4152
2026-01-26 12:00:16.04	158.58	25.57	-36.1	-37.6	17.4	0.00e+00	0	61	0	916455424	44	4122
2026-01-26 12:00:17.05	158.57	25.73	-36.1	-37.6	17.4	0.00e+00	0	61	0	921698304	44	4121
2026-01-26 12:00:18.06	158.56	25.90	-36.1	-37.6	17.4	0.00e+00	0	61	0	927989760	44	4134
2026-01-26 12:00:19.07	158.55	26.07	-36.1	-37.6	17.4	0.00e+00	0	61	0	933232640	44	4115
2026-01-26 12:00:20.08	158.55	26.24	-36.1	-37.5	17.4	0.00e+00	0	61	0	939524096	44	4097
2026-01-26 12:00:21.09	158.54	26.41	-36.0	-37.5	17.5	0.00e+00	0	61	0	944766976	44	4072
2026-01-26 12:00:22.10	158.53	26.58	-36.0	-37.5	17.5	0.00e+00	0	61	0	951058432	44	4092
2026-01-26 12:00:23.11	158.52	26.75	-36.0	-37.5	17.5	0.00e+00	0	61	0	956301312	44	4085
2026-01-26 12:00:24.13	158.51	26.92	-36.0	-37.5	17.5	0.00e+00	0	61	0	962592768	44	4089
2026-01-26 12:00:25.14	158.51	27.10	-36.0	-37.5	17.4	0.00e+00	0	61	0	967835648	44	4089
2026-01-26 12:00:26.15	158.50	27.27	-36.0	-37.6	17.4	0.00e+00	0	61	0	973078528	44	4111
2026-01-26 12:00:27.16	158.49	27.45	-36.1	-37.6	17.4	0.00e+00	0	61	0	979369984	44	4130
2026-01-26 12:00:28.17	158.48	27.63	-36.2	-37.7	17.3	0.00e+00	0	62	0	984612864	44	4169
2026-01-26 12:00:29.18	158.47	27.81	-36.2	-37.7	17.3	0.00e+00	0	61	0	990904320	44	4171
2026-01-26 12:00:30.19	158.46	27.99	-36.2	-37.7	17.3	0.00e+00	0	61	0	996147200	44	4163
2026-01-26 12:00:31.20	158.45	28.17	-36.1	-37.7	17.3	0.00e+00	0	61	0	1001390080	44	4148
2026-01-26 12:00:32.21	158.44	28.35	-36.1	-37.6	17.3	0.00e+00	0	61	0	1007681536	44	4131
2026-01-26 12:00:33.22	158.43	28.54	-36.1	-37.7	17.3	0.00e+00	0	61	0	1012924416	44	4169
2026-01-26 12:00:34.23	158.43	28.72	-36.2	-37.8	17.2	0.00e+00	0	61	0	1019215872	44	4211
2026-01-26 12:00:35.24	158.42	28.91	-36.3	-37.9	17.1	0.00e+00	0	61	0	1024458752	44	4263
2026-01-26 12:00:36.25	158.41	29.09	-36.3	-37.8	17.1	0.00e+00	0	61	0	1029701632	44	4234
2026-01-26 12:00:37.27	158.40	29.29	-36.2	-37.8	17.1	0.00e+00	0	61	0	1035993088	44	4228
2026-01-26 12:00:38.28	158.39	29.48	-36.2	-37.8	17.1	0.00e+00	0	61	0	1041235968	44	4229
2026-01-26 12:00:39.29	158.38	29.67	-36.2	-37.7	17.2	0.00e+00	0	61	0	1047527424	44	4192
2026-01-26 12:00:40.30	158.37	29.86	-36.1	-37.6	17.3	0.00e+00	0	61	0	1052770304	44	4143
2026-01-26 12:00:41.31	158.35	30.05	-35.8	-37.3	17.5	0.00e+00	0	61	0	1059061760	43	4219
2026-01-26 12:00:42.32	158.34	30.25	-35.7	-37.2	17.6	0.00e+00	0	61	0	1064304640	43	4170
2026-01-26 12:00:43.33	158.33	30.44	-35.7	-37.2	17.6	0.00e+00	0	61	0	1070596096	43	4171
2026-01-26 12:00:44.34	158.32	30.64	-35.7	-37.2	17.6	0.00e+00	0	61	0	1075838976	43	4175
2026-01-26 12:00:45.35	158.31	30.84	-35.6	-37.0	17.8	0.00e+00	0	61	0	1081081856	43	4078
2026-01-26 12:00:46.36	158.30	31.04	-35.6	-37.0	17.8	0.00e+00	0	62	0	1087373312	43	4097
2026-01-26 12:00:47.37	158.29	31.24	-35.5	-36.9	17.9	0.00e+00	0	61	0	1092616192	43	4040
2026-01-26 12:00:48.38	158.28	31.45	-35.5	-36.9	17.9	0.00e+00	0	61	0	1098907648	42	4273
2026-01-26 12:00:49.39	158.26	31.65	-35.5	-36.9	17.9	0.00e+00	0	61	0	1104150528	42	4288
2026-01-26 12:00:50.40	158.25	31.86	-35.5	-36.9	17.9	0.00e+00	0	61	0	1109393408	42	4270
2026-01-26 12:00:51.41	158.24	32.07	-35.5	-36.9	17.9	0.00e+00	0	62	0	1115684864	42	4289
2026-01-26 12:00:52.43	158.23	32.28	-35.5	-37.0	17.8	0.00e+00	0	62	0	1120927744	42	4315
2026-01-26 12:00:53.44	158.21	32.49	-35.6	-37.1	17.7	0.00e+00	0	62	0	1127219200	42	4372
2026-01-26 12:00:54.45	158.20	32.70	-35.7	-37.1	17.7	0.00e+00	0	61	0	1132462080	42	4382
2026-01-26 12:00:55.46	158.19	32.91	-35.6	-37.1	17.7	0.00e+00	0	61	0	1137704960	42	4364
2026-01-26 12:00:56.47	158.17	33.13	-35.7	-37.2	17.7	0.00e+00	0	62	0	1143996416	42	4393
2026-01-26 12:00:57.48	158.16	33.35	-35.6	-37.1	17.7	0.00e+00	0	62	0	1149239296	42	4347
2026-01-26 12:00:58.49	158.15	33.56	-35.5	-37.0	17.8	0.00e+00	0	61	0	1155530752	42	4301
2026-01-26 12:00:59.50	158.13	33.78	-35.6	-37.0	17.8	0.00e+00	0	61	0	1160773632	42	4332
2026-01-26 12:01:00.51	158.12	34.00	-35.6	-37.1	17.7	0.00e+00	0	61	0	1167065088	42	4360
2026-01-26 12:01:01.52	158.10	34.23	-35.6	-37.1	17.7	0.00e+00	0	61	0	1172307968	42	4356
2026-01-26 12:01:02.53	158.09	34.45	-35.5	-37.0	17.9	0.00e+00	0	61	0	1178599424	42	4309
2026-01-26 12:01:03.54	158.07	34.68	-35.5	-36.9	17.9	0.00e+00	0	61	0	1183842304	42	4278
2026-01-26 12:01:04.55	158.06	34.91	-35.4	-36.8	18.0	0.00e+00	0	62	0	1189085184	42	4224
2026-01-26 12:01:05.56	158.04	35.14	-35.3	-36.7	18.1	0.00e+00	0	62	0	1195376640	42	4164
2026-01-26 12:01:06.57	158.03	35.37	-35.3	-36.7	18.1	0.00e+00	0	61	0	1200619520	42	4180
2026-01-26 12:01:07.58	158.01	35.60	-35.3	-36.8	18.1	0.00e+00	0	61	0	1206910976	42	4198
2026-01-26 12:01:08.59	158.00	35.83	-35.3	-36.7	18.1	0.00e+00	0	61	0	1212153856	42	4183
2026-01-26 12:01:09.60	157.98	36.07	-35.3	-36.7	18.1	0.00e+00	0	62	0	1217396736	42	4181
2026-01-26 12:01:10.61	157.96	36.31	-35.3	-36.7	18.2	0.00e+00	0	61	0	1223688192	42	4158
2026-01-26 12:01:11.62	157.95	36.55	-35.4	-36.8	18.0	0.00e+00	0	62	0	1228931072	42	4225
2026-01-26 12:01:12.63	157.93	36.79	-35.4	-36.8	18.0	0.00e+00	0	62	0	1235222528	42	4240
2026-01-26 12:01:13.64	157.91	37.03	-35.4	-36.8	18.0	0.00e+00	0	61	0	1240465408	42	4237
2026-01-26 12:01:14.65	157.89	37.28	-35.4	-36.8	18.0	0.00e+00	0	62	0	1245708288	42	4227
2026-01-26 12:01:15.66	157.87	37.53	-35.3	-36.7	18.1	0.00e+00	0	62	0	1251999744	42	4179
2026-01-26 12:01:16.67	157.85	37.78	-35.2	-36.6	18.2	0.00e+00	0	61	0	1257242624	42	4144
2026-01-26 12:01:17.68	157.84	38.03	-35.0	-36.4	18.4	0.00e+00	0	62	0	1263534080	42	4036
2026-01-26 12:01:18.69	157.82	38.28	-35.1	-36.5	18.4	0.00e+00	0	62	0	1268776960	42	4058
2026-01-26 12:01:19.70	157.80	38.53	-35.0	-36.4	18.4	0.00e+00	0	62	0	1275068416	42	4035
2026-01-26 12:01:20.71	157.78	38.79	-35.1	-36.5	18.3	0.00e+00	0	62	0	1280311296	42	4070
2026-01-26 12:01:21.72	157.76	39.05	-35.3	-36.7	18.2	0.00e+00	0	62	0	1286602752	42	4171
2026-01-26 12:01:22.73	157.73	39.31	-35.4	-36.9	18.0	0.00e+00	0	62	0	1291845632	42	4256
2026-01-26 12:01:23.74	157.71	39.57	-35.6	-37.1	17.8	0.00e+00	0	62	0	1297088512	42	4346
2026-01-26 12:01:24.75	157.69	39.83	-35.8	-37.2	17.6	0.00e+00	0	62	0	1303379968	42	4441
2026-01-26 12:01:25.76	157.67	40.10	-35.8	-37.3	17.6	0.00e+00	0	62	0	1308622848	42	4478
2026-01-26 12:01:26.77	157.65	40.37	-36.0	-37.5	17.4	0.00e+00	0	62	0	1314914304	42	4567
2026-01-26 12:01:27.78	157.62	40.64	-36.0	-37.6	17.3	0.00e+00	0	62	0	1320157184	42	4614
2026-01-26 12:01:28.79	157.60	40.91	-36.2	-37.8	17.2	0.00e+00	0	62	0	1325400064	42	4712
2026-01-26 12:01:29.80	157.58	41.19	-36.1	-37.6	17.3	0.00e+00	0	62	0	1331691520	42	4648
2026-01-26 12:01:30.81	157.55	41.46	-36.0	-37.5	17.4	0.00e+00	0	62	0	1336934400	42	4573
2026-01-26 12:01:31.82	157.53	41.74	-36.1	-37.5	17.4	0.00e+00	0	62	0	1343225856	42	4597
2026-01-26 12:01:32.83	157.50	42.02	-35.9	-37.3	17.6	0.00e+00	0	62	0	1348468736	42	4484
2026-01-26 12:01:33.84	157.48	42.30	-35.8	-37.3	17.6	0.00e+00	0	62	0	1353711616	42	4483
2026-01-26 12:01:34.85	157.45	42.59	-36.0	-37.4	17.5	0.00e+00	0	62	0	1360003072	42	4543
2026-01-26 12:01:35.86	157.42	42.88	-35.9	-37.3	17.6	0.00e+00	0	62	0	1365245952	42	4492
2026-01-26 12:01:36.87	157.40	43.17	-35.9	-37.4	17.6	0.00e+00	0	62	0	1371537408	42	4499
2026-01-26 12:01:37.88	157.37	43.46	-35.9	-37.4	17.5	0.00e+00	0	62	0	1376780288	42	4538
2026-01-26 12:01:38.89	157.34	43.75	-35.9	-37.4	17.6	0.00e+00	0	62	0	1383071744	42	4519
2026-01-26 12:01:39.90	157.31	44.05	-36.0	-37.5	17.5	0.00e+00	0	62	0	1388314624	42	4560
2026-01-26 12:01:40.91	157.28	44.35	-35.8	-37.3	17.7	0.00e+00	0	62	0	1393557504	42	4445
2026-01-26 12:01:41.92	157.25	44.65	-35.9	-37.4	17.6	0.00e+00	0	62	0	1399848960	42	4506
2026-01-26 12:01:42.94	157.22	44.95	-35.9	-37.4	17.6	0.00e+00	0	62	0	1405091840	42	4536
2026-01-26 12:01:43.95	157.19	45.26	-36.1	-37.6	17.4	0.00e+00	0	62	0	1411383296	42	4639
2026-01-26 12:01:44.96	157.16	45.57	-36.1	-37.6	17.4	0.00e+00	0	62	0	1416626176	42	4625
2026-01-26 12:01:45.97	157.12	45.88	-36.0	-37.5	17.5	0.00e+00	0	62	0	1422917632	42	4568
2026-01-26 12:01:46.98	157.09	46.19	-36.1	-37.6	17.4	0.00e+00	0	62	0	1428160512	42	4603
2026-01-26 12:01:47.99	157.05	46.50	-35.9	-37.4	17.6	0.00e+00	0	62	0	1433403392	42	4513
2026-01-26 12:01:49.00	157.02	46.82	-35.9	-37.4	17.6	0.00e+00	0	62	0	1439694848	42	4496
2026-01-26 12:01:50.01	156.98	47.14	-35.6	-37.1	17.9	0.00e+00	0	62	0	1444937728	42	4358
2026-01-26 12:01:51.02	156.95	47.46	-35.5	-36.9	18.0	0.00e+00	0	62	0	1450180608	42	4288
2026-01-26 12:01:52.03	156.91	47.79	-35.5	-36.9	18.1	0.00e+00	0	62	0	1456472064	42	4277
2026-01-26 12:01:53.03	156.87	48.11	-35.8	-37.2	17.8	0.00e+00	0	62	0	1461714944	42	4416
2026-01-26 12:01:54.05	156.83	48.44	-36.0	-37.5	17.6	0.00e+00	0	62	0	1468006400	42	4552
2026-01-26 12:01:55.06	156.79	48.77	-36.0	-37.5	17.5	0.00e+00	0	62	0	1473249280	42	4583
2026-01-26 12:01:56.07	156.75	49.11	-35.9	-37.3	17.8	0.00e+00	0	62	0	1479540736	42	4458
2026-01-26 12:01:57.08	156.71	49.44	-36.0	-37.5	17.6	0.00e+00	0	62	0	1484783616	42	4554
2026-01-26 12:01:58.08	156.66	49.78	-36.2	-37.7	17.3	0.00e+00	0	62	0	1491075072	43	4423
2026-01-26 12:01:59.09	156.62	50.12	-36.2	-37.7	17.4	0.00e+00	0	62	0	1496317952	43	4410
2026-01-26 12:02:00.10	156.57	50.47	-36.2	-37.6	17.4	0.00e+00	0	62	0	1501560832	43	4380
2026-01-26 12:02:01.11	156.53	50.81	-36.2	-37.7	17.4	0.00e+00	0	62	0	1507852288	43	4413
2026-01-26 12:02:02.12	156.48	51.16	-36.4	-37.9	17.2	0.00e+00	0	62	0	1513095168	43	4510
2026-01-26 12:02:03.13	156.43	51.52	-36.5	-38.0	17.0	0.00e+00	0	62	0	1519386624	43	4589
2026-01-26 12:02:04.15	156.38	51.87	-36.6	-38.1	17.0	0.00e+00	0	62	0	1524629504	43	4625
2026-01-26 12:02:05.16	156.33	52.23	-36.5	-38.1	17.0	0.00e+00	0	62	0	1529872384	43	4627
2026-01-26 12:02:06.17	156.28	52.59	-36.6	-38.2	16.9	0.00e+00	0	62	0	1536163840	43	4661
2026-01-26 12:02:07.18	156.22	52.95	-36.6	-38.2	16.8	0.00e+00	0	62	0	1541406720	43	4675
2026-01-26 12:02:08.19	156.17	53.32	-36.7	-38.3	16.7	0.00e+00	0	62	0	1547698176	43	4737
2026-01-26 12:02:09.20	156.11	53.69	-37.0	-38.6	16.6	0.00e+00	0	62	0	1552941056	44	4632
2026-01-26 12:02:10.21	156.05	54.06	-37.0	-38.7	16.5	0.00e+00	0	62	0	1558183936	44	4674
2026-01-26 12:02:11.22	155.99	54.43	-37.1	-38.7	16.5	0.00e+00	0	62	0	1564475392	44	4686
2026-01-26 12:02:12.23	155.93	54.81	-37.3	-38.9	16.3	0.00e+00	0	62	0	1569718272	45	4545
2026-01-26 12:02:13.24	155.86	55.18	-37.2	-38.8	16.4	0.00e+00	0	62	0	1576009728	45	4488
2026-01-26 12:02:14.25	155.80	55.57	-36.9	-38.4	16.8	0.00e+00	0	62	0	1581252608	45	4290
2026-01-26 12:02:15.26	155.73	55.95	-36.5	-38.0	17.2	0.00e+00	0	62	0	1587544064	45	4083
2026-01-26 12:02:16.27	155.66	56.34	-36.4	-37.9	17.3	0.00e+00	0	62	0	1592786944	44	4255
2026-01-26 12:02:17.28	155.59	56.72	-36.5	-38.0	17.2	0.00e+00	0	62	0	1599078400	44	4305
2026-01-26 12:02:18.29	155.52	57.12	-36.9	-38.4	16.8	0.00e+00	0	62	0	1604321280	44	4532
2026-01-26 12:02:19.31	155.44	57.51	-36.9	-38.5	16.7	0.00e+00	0	62	0	1609564160	44	4565
2026-01-26 12:02:20.32	155.36	57.91	-36.6	-38.1	17.1	0.00e+00	0	62	0	1615855616	44	4361
2026-01-26 12:02:21.33	155.28	58.31	-36.4	-37.9	17.3	0.00e+00	0	62	0	1621098496	44	4277
2026-01-26 12:02:22.34	155.20	58.71	-36.5	-37.9	17.2	0.00e+00	0	62	0	1627389952	44	4291
2026-01-26 12:02:23.35	155.11	59.12	-36.5	-38.0	17.2	0.00e+00	0	62	0	1632632832	44	4311
2026-01-26 12:02:24.36	155.02	59.53	-36.1	-37.6	17.6	0.00e+00	0	62	0	1637875712	44	4107
2026-01-26 12:02:25.37	154.93	59.94	-36.2	-37.6	17.5	0.00e+00	0	62	0	1644167168	44	4140
2026-01-26 12:02:26.38	154.84	60.35	-36.2	-37.7	17.5	0.00e+00	0	62	0	1649410048	44	4148
2026-01-26 12:02:27.39	154.74	60.77	-36.4	-38.0	17.2	0.00e+00	0	62	0	1655701504	44	4297
2026-01-26 12:02:28.40	154.64	61.18	-36.5	-38.0	17.2	0.00e+00	0	62	0	1660944384	44	4321
2026-01-26 12:02:29.41	154.53	61.60	-36.2	-37.7	17.5	0.00e+00	0	62	0	1666187264	44	4157
2026-01-26 12:02:30.42	154.42	62.03	-36.3	-37.8	17.4	0.00e+00	0	62	0	1672478720	44	4213
2026-01-26 12:02:31.43	154.31	62.45	-36.2	-37.7	17.4	0.00e+00	0	62	0	1677721600	44	4190
2026-01-26 12:02:32.44	154.20	62.88	-35.7	-37.2	17.8	0.00e+00	0	62	0	1684013056	43	4162
2026-01-26 12:02:33.45	154.07	63.31	-35.4	-36.7	18.2	0.00e+00	0	62	0	1689255936	42	4192
2026-01-26 12:02:34.47	153.95	63.75	-35.2	-36.5	18.3	0.00e+00	0	62	0	1695547392	42	4091
2026-01-26 12:02:35.48	153.82	64.19	-35.3	-36.7	18.2	0.00e+00	0	62	0	1700790272	42	4152
2026-01-26 12:02:36.49	153.68	64.63	-35.3	-36.7	18.2	0.00e+00	0	62	0	1707081728	42	4172
2026-01-26 12:02:37.50	153.54	65.07	-35.2	-36.6	18.3	0.00e+00	0	62	0	1712324608	42	4108
2026-01-26 12:02:38.51	153.39	65.51	-35.2	-36.6	18.3	0.00e+00	0	62	0	1717567488	42	4118
2026-01-26 12:02:39.52	153.24	65.96	-35.2	-36.6	18.3	0.00e+00	0	62	0	1723858944	42	4100
2026-01-26 12:02:40.53	153.08	66.40	-35.1	-36.4	18.5	0.00e+00	0	62	0	1729101824	42	4036
2026-01-26 12:02:41.54	152.91	66.85	-34.9	-36.2	18.6	0.00e+00	0	62	0	1735393280	41	4189
2026-01-26 12:02:42.55	152.74	67.31	-35.0	-36.3	18.5	0.00e+00	0	62	0	1740636160	41	4221
2026-01-26 12:02:43.56	152.56	67.76	-35.0	-36.3	18.5	0.00e+00	0	62	0	1745879040	41	4235
2026-01-26 12:02:44.57	152.36	68.22	-34.8	-36.2	18.7	0.00e+00	0	62	0	1752170496	41	4158
2026-01-26 12:02:45.58	152.16	68.68	-34.8	-36.1	18.7	0.00e+00	0	62	0	1757413376	41	4111
2026-01-26 12:02:46.60	151.95	69.14	-34.7	-36.0	18.8	0.00e+00	0	62	0	1763704832	41	4093
2026-01-26 12:02:47.61	151.73	69.60	-34.4	-35.7	19.1	0.00e+00	0	62	0	1768947712	40	4171
2026-01-26 12:02:48.62	151.50	70.07	-34.3	-35.6	19.2	0.00e+00	0	62	0	1775239168	40	4113
2026-01-26 12:02:49.63	151.26	70.54	-34.4	-35.7	19.1	0.00e+00	0	62	0	1780482048	40	4150
2026-01-26 12:02:50.64	151.00	71.01	-34.5	-35.8	19.0	0.00e+00	0	62	0	1785724928	40	4232
2026-01-26 12:02:51.65	150.73	71.48	-34.5	-35.8	19.0	0.00e+00	0	62	0	1792016384	40	4217
2026-01-26 12:02:52.66	150.45	71.95	-34.4	-35.7	19.1	0.00e+00	0	62	0	1797259264	40	4175
2026-01-26 12:02:53.67	150.15	72.42	-34.5	-35.8	19.0	0.00e+00	0	62	0	1803550720	40	4236
2026-01-26 12:02:54.68	149.83	72.90	-34.3	-35.6	19.2	0.00e+00	0	62	0	1808793600	40	4115
2026-01-26 12:02:55.69	149.49	73.37	-34.4	-35.7	19.1	0.00e+00	0	62	0	1815085056	40	4165
2026-01-26 12:02:56.70	149.13	73.85	-34.4	-35.6	19.1	0.00e+00	0	62	0	1820327936	40	4142
2026-01-26 12:02:57.71	148.74	74.33	-34.2	-35.5	19.2	0.00e+00	0	62	0	1825570816	40	4054
2026-01-26 12:02:58.72	148.34	74.81	-34.3	-35.6	19.1	0.00e+00	0	62	0	1831862272	40	4132
2026-01-26 12:02:59.73	147.90	75.29	-34.4	-35.7	19.0	0.00e+00	0	62	0	1837105152	40	4185
2026-01-26 12:03:00.74	147.43	75.78	-34.1	-35.4	19.3	0.00e+00	0	62	0	1843396608	40	4013
2026-01-26 12:03:01.75	146.93	76.26	-34.1	-35.4	19.3	0.00e+00	0	62	0	1848639488	40	4018
2026-01-26 12:03:02.76	146.39	76.74	-34.1	-35.4	19.3	0.00e+00	0	62	0	1853882368	40	4018
2026-01-26 12:03:03.77	145.81	77.23	-33.9	-35.2	19.5	0.00e+00	0	62	0	1860173824	39	4165
2026-01-26 12:03:04.78	145.18	77.71	-33.8	-35.0	19.7	0.00e+00	0	62	0	1865416704	39	4084
2026-01-26 12:03:05.79	144.49	78.19	-33.8	-35.1	19.7	0.00e+00	0	62	0	1871708160	39	4107
2026-01-26 12:03:06.80	143.75	78.68	-33.6	-34.8	19.9	0.00e+00	0	62	0	1876951040	39	4002
2026-01-26 12:03:07.81	142.94	79.16	-33.2	-34.4	20.2	0.00e+00	0	62	0	1882193920	38	4032
2026-01-26 12:03:08.82	142.05	79.64	-33.3	-34.5	20.2	0.00e+00	0	62	0	1888485376	38	4072
2026-01-26 12:03:09.83	141.07	80.12	-33.4	-34.6	20.0	0.00e+00	0	62	0	1893728256	38	4140
2026-01-26 12:03:10.84	139.99	80.60	-33.2	-34.4	20.2	0.00e+00	0	62	0	1900019712	38	4048
2026-01-26 12:03:11.85	138.79	81.08	-33.1	-34.3	20.4	0.00e+00	0	62	0	1905262592	38	3966
2026-01-26 12:03:12.86	137.46	81.55	-33.2	-34.4	20.2	0.00e+00	0	62	0	1911554048	38	4023
2026-01-26 12:03:13.87	135.97	82.02	-33.0	-34.2	20.4	0.00e+00	0	62	0	1916796928	38	3942
2026-01-26 12:03:14.89	134.27	82.48	-32.9	-34.1	20.5	0.00e+00	0	62	0	1923088384	37	4107
2026-01-26 12:03:15.90	132.36	82.94	-32.8	-34.0	20.6	0.00e+00	0	62	0	1928331264	37	4053
2026-01-26 12:03:16.91	130.20	83.39	-33.2	-34.3	20.3	0.00e+00	0	62	0	1933574144	37	4239
2026-01-26 12:03:17.92	127.71	83.83	-33.2	-34.4	20.2	0.00e+00	0	62	0	1939865600	37	4261
2026-01-26 12:03:18.93	124.86	84.25	-33.5	-34.7	20.0	0.00e+00	0	62	0	1945108480	37	4410
2026-01-26 12:03:19.94	121.55	84.66	-33.8	-35.1	19.7	0.00e+00	0	62	0	1951399936	38	4341
2026-01-26 12:03:20.95	117.70	85.05	-33.9	-35.2	19.6	0.00e+00	0	62	0	1956642816	38	4392
2026-01-26 12:03:21.96	113.22	85.41	-33.9	-35.1	19.6	0.00e+00	0	62	0	1961885696	38	4385
2026-01-26 12:03:22.97	108.00	85.75	-33.9	-35.2	19.5	0.00e+00	0	62	0	1968177152	38	4412
2026-01-26 12:03:23.98	101.96	86.04	-33.7	-34.9	19.8	0.00e+00	0	62	0	1973420032	38	4273
2026-01-26 12:03:24.99	95.05	86.28	-33.8	-35.0	19.7	0.00e+00	0	62	0	1979711488	38	4330
2026-01-26 12:03:26.00	87.32	86.45	-33.8	-35.1	19.6	0.00e+00	0	62	0	1984954368	38	4344
2026-01-26 12:03:27.01	78.93	86.56	-34.1	-35.3	19.4	0.00e+00	0	62	0	1990197248	38	4489
2026-01-26 12:03:28.03	70.11	86.59	-34.2	-35.5	19.2	0.00e+00	0	62	0	1996488704	39	4304
2026-01-26 12:03:29.04	61.43	86.55	-34.1	-35.4	19.3	0.00e+00	0	62	0	2001731584	39	4259
2026-01-26 12:03:30.05	53.17	86.42	-34.3	-35.6	19.1	0.00e+00	0	62	0	2008023040	39	4354
2026-01-26 12:03:31.06	45.61	86.23	-34.1	-35.4	19.3	0.00e+00	0	62	0	2013265920	39	4277
2026-01-26 12:03:32.07	38.90	85.97	-34.2	-35.5	19.3	0.00e+00	0	62	0	2019557376	39	4292
2026-01-26 12:03:33.08	33.05	85.67	-34.2	-35.5	19.3	0.00e+00	0	62	0	2024800256	39	4296
2026-01-26 12:03:34.09	28.00	85.34	-33.7	-34.9	19.7	0.00e+00	0	62	0	2031091712	39	4043
2026-01-26 12:03:35.10	23.68	84.97	-33.4	-34.7	20.0	0.00e+00	0	62	0	2036334592	38	4151
2026-01-26 12:03:36.11	19.96	84.57	-33.4	-34.6	20.1	0.00e+00	0	62	0	2041577472	38	4119
2026-01-26 12:03:37.12	16.76	84.16	-33.5	-34.7	20.0	0.00e+00	0	62	0	2047868928	38	4182
2026-01-26 12:03:38.13	13.99	83.73	-33.5	-34.8	19.9	0.00e+00	0	62	0	2053111808	38	4206
2026-01-26 12:03:39.14	11.59	83.29	-33.4	-34.6	20.2	0.00e+00	0	62	0	2059403264	38	4121
2026-01-26 12:03:40.15	9.48	82.84	-33.5	-34.7	20.0	0.00e+00	0	62	0	2064646144	38	4185
2026-01-26 12:03:41.16	7.63	82.38	-33.4	-34.6	20.1	0.00e+00	0	62	0	2069889024	38	4109
2026-01-26 12:03:42.17	6.00	81.92	-33.0	-34.2	20.5	0.00e+00	0	62	0	2076180480	38	3935
2026-01-26 12:03:43.18	4.54	81.45	-33.0	-34.2	20.5	0.00e+00	0	62	0	2081423360	37	4154
2026-01-26 12:03:44.19	3.24	80.98	-33.2	-34.4	20.2	0.00e+00	0	62	0	2087714816	37	4281
2026-01-26 12:03:45.20	2.07	80.50	-33.3	-34.5	20.2	0.00e+00	0	62	0	2092957696	37	4307
2026-01-26 12:03:46.21	1.01	80.02	-33.4	-34.6	20.1	0.00e+00	0	62	0	2098200576	37	4371
2026-01-26 12:03:47.22	0.05	79.54	-33.5	-34.7	20.0	0.00e+00	0	62	0	2104492032	37	4431
2026-01-26 12:03:48.23	359.18	79.06	-33.8	-35.0	19.7	0.00e+00	0	62	0	2109734912	38	4340
2026-01-26 12:03:49.24	358.39	78.58	-33.8	-35.1	19.7	0.00e+00	0	62	0	2116026368	38	4342
2026-01-26 12:03:50.25	357.66	78.10	-33.8	-35.1	19.7	0.00e+00	0	62	0	2121269248	38	4357
2026-01-26 12:03:51.26	356.98	77.61	-33.9	-35.1	19.7	0.00e+00	0	62	0	2127560704	38	4378
2026-01-26 12:03:52.27	356.36	77.13	-33.6	-34.9	19.9	0.00e+00	0	62	0	2132803584	38	4247
2026-01-26 12:03:53.28	355.79	76.65	-33.7	-34.9	19.9	0.00e+00	0	62	0	2139095040	38	4275
2026-01-26 12:03:54.29	355.26	76.17	-34.0	-35.3	19.6	0.00e+00	0	62	0	2144337920	38	4452
2026-01-26 12:03:55.30	354.77	75.68	-34.1	-35.3	19.5	0.00e+00	0	62	0	2149580800	38	4491
2026-01-26 12:03:56.31	354.31	75.20	-34.0	-35.3	19.5	0.00e+00	0	62	0	2155872256	38	4450
2026-01-26 12:03:57.32	353.87	74.72	-34.2	-35.4	19.4	0.00e+00	0	62	0	2161115136	38	4531
2026-01-26 12:03:58.33	353.47	74.24	-34.2	-35.5	19.3	0.00e+00	0	62	0	2167406592	39	4326
2026-01-26 12:03:59.34	353.09	73.76	-34.5	-35.8	19.1	0.00e+00	0	62	0	2172649472	39	4470
2026-01-26 12:04:00.35	352.74	73.29	-34.5	-35.8	19.1	0.00e+00	0	62	0	2177892352	39	4442
2026-01-26 12:04:01.36	352.40	72.81	-34.4	-35.7	19.2	0.00e+00	0	62	0	2184183808	39	4408
2026-01-26 12:04:02.37	352.09	72.34	-34.5	-35.8	19.1	0.00e+00	0	62	0	2189426688	39	4451
2026-01-26 12:04:03.39	351.79	71.86	-34.6	-35.9	19.0	0.00e+00	0	62	0	2195718144	39	4522
2026-01-26 12:04:04.40	351.51	71.39	-34.7	-36.1	18.8	0.00e+00	0	62	0	2200961024	40	4357
2026-01-26 12:04:05.41	351.24	70.92	-34.9	-36.3	18.6	0.00e+00	0	62	0	2206203904	40	4454
2026-01-26 12:04:06.42	350.99	70.45	-34.8	-36.1	18.7	0.00e+00	0	62	0	2212495360	40	4384
2026-01-26 12:04:07.43	350.75	69.99	-35.3	-36.7	18.2	0.00e+00	0	62	0	2217738240	41	4421
2026-01-26 12:04:08.44	350.52	69.52	-35.6	-37.1	17.8	0.00e+00	0	62	0	2224029696	41	4603
2026-01-26 12:04:09.45	350.30	69.06	-35.1	-36.5	18.4	0.00e+00	0	62	0	2229272576	41	4299
2026-01-26 12:04:10.46	350.09	68.60	-35.0	-36.4	18.5	0.00e+00	0	62	0	2235564032	41	4259
2026-01-26 12:04:11.47	349.90	68.14	-35.4	-36.9	18.1	0.00e+00	0	62	0	2240806912	41	4509
2026-01-26 12:04:12.48	349.71	67.69	-35.5	-36.9	18.0	0.00e+00	0	62	0	2247098368	41	4535
2026-01-26 12:04:13.49	349.53	67.23	-35.3	-36.6	18.3	0.00e+00	0	62	0	2252341248	41	4388
2026-01-26 12:04:14.50	349.35	66.78	-35.1	-36.4	18.5	0.00e+00	0	62	0	2257584128	41	4285
2026-01-26 12:04:15.51	349.19	66.33	-35.1	-36.5	18.4	0.00e+00	0	62	0	2263875584	41	4303
2026-01-26 12:04:16.52	349.03	65.89	-34.9	-36.3	18.6	0.00e+00	0	62	0	2269118464	41	4217
2026-01-26 12:04:17.53	348.88	65.44	-35.0	-36.3	18.6	0.00e+00	0	62	0	2275409920	40	4483
2026-01-26 12:04:18.55	348.73	65.00	-35.2	-36.6	18.4	0.00e+00	0	62	0	2280652800	40	4610
2026-01-26 12:04:19.56	348.59	64.56	-35.1	-36.4	18.6	0.00e+00	0	62	0	2285895680	40	4540
2026-01-26 12:04:20.56	348.46	64.13	-35.0	-36.3	18.7	0.00e+00	0	62	0	2292187136	40	4472
2026-01-26 12:04:21.57	348.33	63.69	-34.9	-36.3	18.8	1.10e-06	0	62	0	2297430016	40	4451
2026-01-26 12:04:22.58	348.20	63.26	-35.0	-36.3	18.8	0.00e+00	0	62	0	2303721472	40	4467
2026-01-26 12:04:23.60	348.08	62.83	-34.7	-36.3	18.6	0.00e+00	0	62	0	2308964352	40	4488
2026-01-26 12:04:24.61	347.97	62.40	-35.1	-36.4	18.6	2.20e-06	0	62	0	2314207232	40	4512
2026-01-26 12:04:25.62	347.86	61.98	-35.2	-36.6	18.5	0.00e+00	0	62	0	2320498688	40	4609
2026-01-26 12:04:26.63	347.75	61.55	-35.2	-36.5	18.5	0.00e+00	0	62	0	2325741568	41	4336
2026-01-26 12:04:27.63	347.65	61.14	-35.2	-36.5	18.5	0.00e+00	0	62	0	2332033024	41	4318
2026-01-26 12:04:28.64	347.55	60.72	-35.2	-36.6	18.4	0.00e+00	0	62	0	2337275904	41	4354
2026-01-26 12:04:29.65	347.45	60.31	-35.4	-36.8	18.2	0.00e+00	0	62	0	2343567360	41	4458
2026-01-26 12:04:30.66	347.35	59.90	-35.7	-37.2	17.9	3.40e-06	0	62	0	2348810240	41	4653
2026-01-26 12:04:31.67	347.26	59.49	-35.9	-37.3	17.7	0.00e+00	0	62	0	2355101696	42	4475
2026-01-26 12:04:32.68	347.18	59.08	-35.9	-37.3	17.7	0.00e+00	0	62	0	2360344576	42	4478
2026-01-26 12:04:33.69	347.09	58.68	-36.0	-37.5	17.6	0.00e+00	0	62	0	2365587456	42	4555
2026-01-26 12:04:34.70	347.01	58.28	-36.2	-37.7	17.4	9.10e-06	0	62	0	2371878912	42	4652
2026-01-26 12:04:35.71	346.93	57.88	-36.3	-37.9	17.2	0.00e+00	0	62	0	2377121792	43	4504
2026-01-26 12:04:36.72	346.85	57.49	-36.2	-37.7	17.3	0.00e+00	0	62	0	2383413248	43	4418
2026-01-26 12:04:37.73	346.78	57.09	-36.2	-37.7	17.4	0.00e+00	0	62	0	2388656128	43	4403
2026-01-26 12:04:38.74	346.70	56.70	-36.4	-37.9	17.2	0.00e+00	0	62	0	2393899008	43	4499
2026-01-26 12:04:39.75	346.63	56.32	-36.5	-38.1	16.8	0.00e+00	0	62	0	2400190464	43	4624
2026-01-26 12:04:40.76	346.56	55.93	-36.6	-38.2	16.9	0.00e+00	0	62	0	2405433344	43	4653
2026-01-26 12:04:41.77	346.50	55.55	-36.6	-38.2	16.9	2.20e-06	0	62	0	2411724800	43	4664
2026-01-26 12:04:42.78	346.43	55.17	-36.9	-38.5	16.8	0.00e+00	0	62	0	2416967680	44	4567
2026-01-26 12:04:43.79	346.37	54.79	-36.8	-38.3	16.9	0.00e+00	0	62	0	2422210560	44	4485
2026-01-26 12:04:44.80	346.31	54.42	-36.6	-38.2	17.1	0.00e+00	0	62	0	2428502016	44	4412
2026-01-26 12:04:45.81	346.25	54.05	-36.6	-38.1	17.1	1.10e-06	0	62	0	2433744896	44	4373
2026-01-26 12:04:46.82	346.19	53.68	-36.6	-38.1	17.1	0.00e+00	0	62	0	2440036352	44	4363
2026-01-26 12:04:47.84	346.13	53.31	-36.6	-38.2	17.1	0.00e+00	0	62	0	2445279232	44	4394
2026-01-26 12:04:48.85	346.08	52.94	-36.7	-38.3	17.0	0.00e+00	0	62	0	2451570688	44	4450
2026-01-26 12:04:49.86	346.02	52.58	-36.8	-38.3	17.2	0.00e+00	0	62	0	2456813568	44	4451
2026-01-26 12:04:50.87	345.97	52.23	-36.7	-38.1	17.3	0.00e+00	0	62	0	2463105024	44	4380
2026-01-26 12:04:51.88	345.92	51.87	-36.7	-38.1	17.3	0.00e+00	0	62	0	2468347904	44	4381
2026-01-26 12:04:52.89	345.87	51.52	-36.6	-38.0	17.5	0.00e+00	0	62	0	2473590784	44	4311
2026-01-26 12:04:53.90	345.82	51.17	-36.4	-37.8	17.6	0.00e+00	0	62	0	2479882240	44	4226
2026-01-26 12:04:54.91	345.77	50.82	-36.2	-37.5	17.9	0.00e+00	0	62	0	2485125120	44	4096
2026-01-26 12:04:55.92	345.73	50.47	-35.7	-37.0	18.2	0.00e+00	0	62	0	2491416576	43	4086
2026-01-26 12:04:56.93	345.68	50.13	-35.7	-37.0	18.3	0.00e+00	0	62	0	2496659456	43	4079
2026-01-26 12:04:57.94	345.64	49.79	-35.8	-37.2	18.1	0.00e+00	0	62	0	2501902336	43	4153
2026-01-26 12:04:58.95	345.60	49.45	-36.0	-37.3	18.0	0.00e+00	0	62	0	2508193792	43	4237
2026-01-26 12:04:59.96	345.56	49.12	-36.1	-37.5	17.8	0.00e+00	0	62	0	2513436672	43	4316
2026-01-26 12:05:00.97	345.51	48.78	-36.0	-37.4	17.9	0.00e+00	0	62	0	2519728128	43	4249
2026-01-26 12:05:01.98	345.47	48.45	-35.9	-37.3	18.0	0.00e+00	0	62	0	2524971008	43	4215
2026-01-26 12:05:02.99	345.44	48.13	-36.0	-37.4	17.9	0.00e+00	0	62	0	2530213888	43	4259
2026-01-26 12:05:04.00	345.40	47.80	-35.7	-37.0	18.3	0.00e+00	0	62	0	2536505344	43	4066
2026-01-26 12:05:05.02	345.36	47.47	-35.8	-37.1	18.2	0.00e+00	0	62	0	2541748224	43	4115
2026-01-26 12:05:06.03	345.32	47.15	-35.8	-37.1	18.2	0.00e+00	0	62	0	2548039680	43	4141
2026-01-26 12:05:07.04	345.29	46.84	-35.7	-37.1	18.2	0.00e+00	0	62	0	2553282560	43	4116
2026-01-26 12:05:08.05	345.25	46.52	-35.7	-37.1	18.2	0.00e+00	0	62	0	2559574016	43	4101
2026-01-26 12:05:09.06	345.22	46.21	-35.8	-37.1	18.2	0.00e+00	0	62	0	2564816896	43	4135
2026-01-26 12:05:10.07	345.19	45.90	-35.9	-37.2	18.1	0.00e+00	0	62	0	2570059776	43	4188
2026-01-26 12:05:11.08	345.15	45.59	-35.8	-37.2	18.1	0.00e+00	0	62	0	2576351232	43	4154
2026-01-26 12:05:12.09	345.12	45.28	-35.8	-37.2	18.1	0.00e+00	0	62	0	2581594112	43	4164
2026-01-26 12:05:13.10	345.09	44.98	-35.9	-37.2	18.1	0.00e+00	0	62	0	2587885568	43	4181
2026-01-26 12:05:14.11	345.06	44.68	-35.8	-37.1	18.1	0.00e+00	0	62	0	2593128448	43	4136
2026-01-26 12:05:15.12	345.03	44.38	-35.6	-36.9	18.4	0.00e+00	0	62	0	2599419904	43	4018
2026-01-26 12:05:16.13	345.00	44.08	-35.6	-36.9	18.4	0.00e+00	0	62	0	2604662784	43	4013
2026-01-26 12:05:17.14	344.97	43.79	-35.7	-37.0	18.2	0.00e+00	0	62	0	2609905664	43	4085
2026-01-26 12:05:18.15	344.94	43.49	-35.8	-37.2	18.1	0.00e+00	0	62	0	2616197120	43	4160
2026-01-26 12:05:19.16	344.92	43.20	-35.9	-37.3	18.0	0.00e+00	0	62	0	2621440000	43	4225
2026-01-26 12:05:20.17	344.89	42.92	-35.9	-37.3	17.9	0.00e+00	0	62	0	2627731456	43	4232
2026-01-26 12:05:21.19	344.86	42.63	-35.9	-37.3	18.0	0.00e+00	0	62	0	2632974336	43	4212
2026-01-26 12:05:22.20	344.84	42.34	-35.8	-37.2	18.1	0.00e+00	0	62	0	2638217216	43	4148
2026-01-26 12:05:23.21	344.81	42.06	-35.9	-37.3	18.0	0.00e+00	0	62	0	2644508672	43	4199
2026-01-26 12:05:24.22	344.79	41.78	-35.8	-37.1	18.2	0.00e+00	0	62	0	2649751552	43	4103
2026-01-26 12:05:25.23	344.76	41.51	-35.7	-37.0	18.2	0.00e+00	0	62	0	2656043008	43	4080
2026-01-26 12:05:26.24	344.74	41.23	-35.5	-36.8	18.4	0.00e+00	0	62	0	2661285888	43	3986
2026-01-26 12:05:27.25	344.72	40.96	-35.5	-36.7	18.5	0.00e+00	0	62	0	2667577344	42	4189
2026-01-26 12:05:28.26	344.69	40.69	-35.5	-36.8	18.5	0.00e+00	0	62	0	2672820224	42	4221
2026-01-26 12:05:29.27	344.67	40.42	-35.6	-36.9	18.4	0.00e+00	0	62	0	2679111680	42	4243
2026-01-26 12:05:30.28	344.65	40.15	-35.5	-36.8	18.5	0.00e+00	0	62	0	2684354560	42	4210
2026-01-26 12:05:31.29	344.63	39.89	-35.4	-36.7	18.6	0.00e+00	0	62	0	2689597440	42	4155
2026-01-26 12:05:32.31	344.61	39.62	-35.2	-36.4	18.8	0.00e+00	0	62	0	2695888896	42	4038
2026-01-26 12:05:33.31	344.58	39.36	-35.0	-36.2	19.0	0.00e+00	0	62	0	2701131776	42	3958
2026-01-26 12:05:34.33	344.56	39.10	-35.0	-36.3	18.9	0.00e+00	0	62	0	2707423232	42	3964
2026-01-26 12:05:35.34	344.54	38.84	-34.8	-36.0	19.1	0.00e+00	0	62	0	2712666112	41	4080
2026-01-26 12:05:36.35	344.52	38.59	-34.8	-36.0	19.1	0.00e+00	0	62	0	2717908992	41	4093
2026-01-26 12:05:37.36	344.51	38.33	-34.8	-36.0	19.1	0.00e+00	0	62	0	2724200448	41	4087
2026-01-26 12:05:38.37	344.49	38.08	-34.9	-36.1	19.1	0.00e+00	0	62	0	2729443328	41	4124
2026-01-26 12:05:39.38	344.47	37.83	-35.1	-36.3	18.9	0.00e+00	0	62	0	2735734784	41	4226
2026-01-26 12:05:40.39	344.45	37.59	-35.2	-36.4	18.8	0.00e+00	0	62	0	2740977664	41	4286
2026-01-26 12:05:41.40	344.43	37.34	-35.4	-36.7	18.5	0.00e+00	0	62	0	2746220544	41	4410
2026-01-26 12:05:42.41	344.41	37.10	-35.5	-36.9	18.3	0.00e+00	0	62	0	2752512000	41	4500
2026-01-26 12:05:43.42	344.40	36.85	-35.6	-37.0	18.2	0.00e+00	0	62	0	2757754880	41	4568
2026-01-26 12:05:44.43	344.38	36.61	-35.7	-37.1	18.1	0.00e+00	0	62	0	2764046336	41	4616
2026-01-26 12:05:45.44	344.36	36.37	-35.6	-37.0	18.2	0.00e+00	0	62	0	2769289216	41	4569
2026-01-26 12:05:46.45	344.35	36.14	-35.7	-37.0	18.1	0.00e+00	0	62	0	2775580672	41	4595
2026-01-26 12:05:47.46	344.33	35.90	-35.6	-36.9	18.2	0.00e+00	0	62	0	2780823552	41	4524
2026-01-26 12:05:48.47	344.31	35.67	-35.4	-36.7	18.4	0.00e+00	0	62	0	2787115008	41	4436
2026-01-26 12:05:49.48	344.30	35.44	-35.4	-36.6	18.5	0.00e+00	0	62	0	2792357888	41	4386
2026-01-26 12:05:50.49	344.28	35.21	-35.4	-36.6	18.5	0.00e+00	0	62	0	2797600768	41	4381
2026-01-26 12:05:51.50	344.27	34.98	-35.3	-36.6	18.6	0.00e+00	0	62	0	2803892224	41	4343
2026-01-26 12:05:52.51	344.25	34.75	-35.3	-36.6	18.6	0.00e+00	0	62	0	2809135104	41	4354
2026-01-26 12:05:53.52	344.24	34.53	-35.4	-36.7	18.5	0.00e+00	0	62	0	2815426560	41	4395
2026-01-26 12:05:54.54	344.22	34.30	-35.4	-36.7	18.4	0.00e+00	0	62	0	2820669440	41	4412
2026-01-26 12:05:55.54	344.21	34.08	-35.6	-36.9	18.2	0.00e+00	0	62	0	2825912320	41	4510
2026-01-26 12:05:56.55	344.20	33.86	-35.7	-37.0	18.2	0.00e+00	0	62	0	2832203776	41	4564
2026-01-26 12:05:57.56	344.18	33.64	-35.7	-37.0	18.1	0.00e+00	0	62	0	2837446656	41	4594
2026-01-26 12:05:58.57	344.17	33.42	-35.8	-37.2	18.0	0.00e+00	0	62	0	2843738112	42	4416
2026-01-26 12:05:59.58	344.16	33.21	-35.9	-37.3	17.8	0.00e+00	0	62	0	2848980992	42	4461
2026-01-26 12:06:00.59	344.14	33.00	-36.0	-37.4	17.8	0.00e+00	0	62	0	2854223872	42	4498
2026-01-26 12:06:01.60	344.13	32.78	-36.0	-37.4	17.7	0.00e+00	0	62	0	2860515328	42	4531
2026-01-26 12:06:02.61	344.12	32.57	-36.0	-37.5	17.7	0.00e+00	0	62	0	2865758208	42	4550
2026-01-26 12:06:03.62	344.11	32.36	-36.0	-37.4	17.7	0.00e+00	0	62	0	2872049664	42	4541
2026-01-26 12:06:04.63	344.10	32.15	-36.0	-37.4	17.8	0.00e+00	0	62	0	2877292544	42	4498
2026-01-26 12:06:05.65	344.08	31.94	-35.9	-37.3	17.8	0.00e+00	0	62	0	2883584000	42	4467
2026-01-26 12:06:06.66	344.07	31.74	-36.0	-37.3	17.8	0.00e+00	0	62	0	2888826880	42	4489
2026-01-26 12:06:07.67	344.06	31.54	-35.8	-37.2	17.9	0.00e+00	0	62	0	2894069760	42	4421
2026-01-26 12:06:08.68	344.05	31.33	-35.7	-37.0	18.1	0.00e+00	0	62	0	2900361216	42	4314
2026-01-26 12:06:09.69	344.04	31.13	-35.7	-37.0	18.1	0.00e+00	0	62	0	2905604096	42	4308
2026-01-26 12:06:10.70	344.03	30.93	-35.7	-37.1	18.0	0.00e+00	0	62	0	2911895552	42	4341
2026-01-26 12:06:11.71	344.02	30.73	-35.7	-37.0	18.1	0.00e+00	0	62	0	2917138432	42	4304
2026-01-26 12:06:12.72	344.01	30.54	-35.7	-37.1	18.0	0.00e+00	0	62	0	2923429888	42	4348
2026-01-26 12:06:13.73	344.00	30.34	-35.7	-37.0	18.1	0.00e+00	0	62	0	2928672768	42	4311
2026-01-26 12:06:14.74	343.99	30.15	-35.6	-36.9	18.1	0.00e+00	0	62	0	2933915648	42	4273
2026-01-26 12:06:15.75	343.98	29.95	-35.6	-36.9	18.1	0.00e+00	0	62	0	2940207104	42	4273
2026-01-26 12:06:16.76	343.97	29.76	-35.7	-37.0	18.0	0.00e+00	0	62	0	2945449984	42	4319
2026-01-26 12:06:17.76	343.96	29.57	-35.7	-37.1	18.0	0.00e+00	0	62	0	2950692864	42	4353
2026-01-26 12:06:18.77	343.95	29.38	-35.7	-37.1	17.9	0.00e+00	0	62	0	2956984320	42	4369
2026-01-26 12:06:19.78	343.94	29.20	-35.8	-37.1	17.9	0.00e+00	0	62	0	2962227200	42	4379
2026-01-26 12:06:20.79	343.93	29.01	-35.8	-37.1	17.9	0.00e+00	0	62	0	2968518656	42	4381
2026-01-26 12:06:21.80	343.92	28.83	-35.7	-37.1	17.9	0.00e+00	0	62	0	2973761536	42	4360
2026-01-26 12:06:22.81	343.91	28.64	-35.7	-37.1	17.9	0.00e+00	0	62	0	2980052992	42	4353
2026-01-26 12:06:23.82	343.90	28.46	-35.8	-37.1	17.9	0.00e+00	0	62	0	2985295872	42	4373
2026-01-26 12:06:24.83	343.89	28.28	-35.7	-37.0	17.9	0.00e+00	0	62	0	2990538752	42	4338
2026-01-26 12:06:25.84	343.88	28.10	-35.5	-36.9	18.1	0.00e+00	0	62	0	2996830208	42	4257
2026-01-26 12:06:26.85	343.88	27.92	-35.5	-36.8	18.1	0.00e+00	0	62	0	3002073088	42	4217
2026-01-26 12:06:27.86	343.87	27.74	-35.6	-36.9	18.0	0.00e+00	0	62	0	3008364544	42	4257
2026-01-26 12:06:28.88	343.86	27.56	-35.6	-36.9	18.0	0.00e+00	0	62	0	3013607424	42	4279
2026-01-26 12:06:29.88	343.85	27.39	-35.5	-36.8	18.1	0.00e+00	0	62	0	3019898880	42	4207
2026-01-26 12:06:30.89	343.84	27.21	-35.4	-36.7	18.2	0.00e+00	0	62	0	3025141760	42	4192
2026-01-26 12:06:31.91	343.84	27.03	-35.5	-36.8	18.1	0.00e+00	0	62	0	3030384640	42	4219
2026-01-26 12:06:32.92	343.83	26.86	-35.5	-36.9	18.0	0.00e+00	0	62	0	3036676096	42	4247
2026-01-26 12:06:33.93	343.82	26.69	-35.6	-37.0	17.9	0.00e+00	0	62	0	3041918976	42	4295
2026-01-26 12:06:34.94	343.81	26.52	-35.7	-37.0	17.8	0.00e+00	0	62	0	3048210432	42	4325
2026-01-26 12:06:35.95	343.81	26.35	-35.6	-37.0	17.8	0.00e+00	0	62	0	3053453312	42	4318
2026-01-26 12:06:36.96	343.80	26.18	-35.8	-37.2	17.6	0.00e+00	0	62	0	3058696192	42	4396
2026-01-26 12:06:37.97	343.79	26.02	-35.9	-37.3	17.5	0.00e+00	0	62	0	3064987648	42	4464
2026-01-26 12:06:38.98	343.79	25.85	-35.9	-37.3	17.5	0.00e+00	0	62	0	3070230528	42	4458
2026-01-26 12:06:39.99	343.78	25.68	-35.9	-37.4	17.3	0.00e+00	0	62	0	3076521984	42	4514
2026-01-26 12:06:41.00	343.77	25.52	-36.0	-37.5	17.2	0.00e+00	0	62	0	3081764864	42	4554
2026-01-26 12:06:42.01	343.77	25.36	-36.0	-37.5	17.2	0.00e+00	0	62	0	3087007744	42	4553
2026-01-26 12:06:43.02	343.76	25.20	-36.1	-37.5	17.1	0.00e+00	0	62	0	3093299200	42	4595
2026-01-26 12:06:44.03	343.75	25.03	-36.0	-37.5	17.1	0.00e+00	0	62	0	3098542080	42	4572
2026-01-26 12:06:45.04	343.75	24.87	-36.1	-37.6	17.1	0.00e+00	0	62	0	3104833536	42	4616
2026-01-26 12:06:46.05	343.74	24.71	-36.0	-37.5	17.1	0.00e+00	0	62	0	3110076416	42	4551
2026-01-26 12:06:47.06	343.73	24.56	-36.1	-37.6	17.0	0.00e+00	0	62	0	3116367872	42	4637
2026-01-26 12:06:48.07	343.73	24.40	-36.1	-37.5	17.0	0.00e+00	0	62	0	3121610752	42	4582
2026-01-26 12:06:49.08	343.72	24.24	-36.1	-37.6	16.9	0.00e+00	0	62	0	3127902208	42	4610
2026-01-26 12:06:50.10	343.72	24.09	-36.0	-37.5	17.0	0.00e+00	0	62	0	3133145088	42	4560
2026-01-26 12:06:51.11	343.71	23.93	-36.1	-37.6	16.8	0.00e+00	0	62	0	3138387968	42	4601
2026-01-26 12:06:52.12	343.71	23.78	-36.1	-37.6	16.8	0.00e+00	0	62	0	3144679424	42	4638
2026-01-26 12:06:53.13	343.70	23.63	-36.1	-37.6	16.7	0.00e+00	0	62	0	3149922304	42	4647
2026-01-26 12:06:54.14	343.70	23.47	-36.2	-37.8	16.6	0.00e+00	0	62	0	3156213760	43	4462
2026-01-26 12:06:55.15	343.69	23.32	-36.2	-37.8	16.5	0.00e+00	0	62	0	3161456640	43	4447
2026-01-26 12:06:56.16	343.69	23.17	-36.0	-37.5	16.6	0.00e+00	0	62	0	3166699520	43	4327
2026-01-26 12:06:57.17	343.68	23.02	-36.0	-37.6	16.4	0.00e+00	0	62	0	3172990976	43	4369
2026-01-26 12:06:58.18	343.68	22.88	-36.4	-38.1	15.8	0.00e+00	0	62	0	3178233856	43	4610
2026-01-26 12:06:59.19	343.67	22.73	-36.5	-38.2	15.4	0.00e+00	0	62	0	3184525312	43	4689
2026-01-26 12:07:00.20	343.67	22.58	-36.3	-38.1	15.3	0.00e+00	0	62	0	3189768192	43	4624
2026-01-26 12:07:01.21	343.66	22.44	-36.3	-38.1	15.2	0.00e+00	0	62	0	3195011072	43	4623
2026-01-26 12:07:02.22	343.66	22.29	-36.2	-38.0	15.2	0.00e+00	0	62	0	3201302528	43	4577
2026-01-26 12:07:03.23	343.65	22.15	-36.2	-38.0	15.3	0.00e+00	0	62	0	3206545408	43	4552
2026-01-26 12:07:04.24	343.65	22.00	-36.1	-37.8	15.3	0.00e+00	0	62	0	3212836864	43	4485
2026-01-26 12:07:05.25	343.64	21.86	-36.0	-37.7	15.3	0.00e+00	0	62	0	3218079744	43	4434
2026-01-26 12:07:06.26	343.64	21.72	-36.0	-37.8	15.1	0.00e+00	0	62	0	3224371200	43	4483
2026-01-26 12:07:07.27	343.63	21.58	-36.5	-38.4	14.5	0.00e+00	0	62	0	3229614080	43	4795
2026-01-26 12:07:08.28	343.63	21.44	-37.2	-39.4	13.6	2.20e-06	0	62	0	3235905536	44	5057
2026-01-26 12:07:09.29	343.63	21.30	-37.9	-40.5	12.3	1.19e-04	0	62	0	3241148416	46	5109
2026-01-26 12:07:10.30	343.62	21.16	-38.7	-41.7	10.8	1.18e-03	0	62	0	3246391296	47	5563
2026-01-26 12:07:11.31	343.62	21.02	-39.4	-43.1	9.3	1.63e-02	0	62	0	3252682752	49	5799
2026-01-26 12:07:12.32	343.61	20.89	-40.1	-44.8	7.3	7.30e-02	0	62	0	3257925632	50	6697
2026-01-26 12:07:13.33	343.61	20.75	-40.6	-46.3	5.9	3.24e-01	0	62	0	3264217088	51	7533
2026-01-26 12:07:14.35	343.61	20.61	-40.8	-47.9	4.8	7.58e-01	0	62	0	3265265664	52	8543
2026-01-26 12:07:15.36	343.60	20.48	-40.9	-49.4	4.2	8.34e-01	0	62	0	3265265664	52	10097
2026-01-26 12:07:16.37	343.60	20.34	-41.0	-50.5	3.9	8.46e-01	0	62	104	3265265664	52	11507
2026-01-26 12:07:17.38	343.60	20.21	-41.1	-51.5	3.8	8.47e-01	0	62	104	3265265664	52	12914
2026-01-26 12:07:18.39	343.59	20.08	-41.2	-52.3	3.8	8.46e-01	0	62	104	3265265664	52	14182
2026-01-26 12:07:19.40	343.59	19.95	-41.2	-52.7	3.8	8.46e-01	0	62	104	3265265664	52	14756
2026-01-26 12:07:20.41	343.58	19.82	-41.0	-52.3	3.8	8.47e-01	0	62	104	3265265664	52	14161
2026-01-26 12:07:21.42	343.58	19.69	-41.0	-52.3	3.8	8.46e-01	0	62	104	3265265664	52	14082
2026-01-26 12:07:22.43	343.58	19.56	-41.1	-52.6	3.8	8.46e-01	0	62	104	3265265664	53	13836
2026-01-26 12:07:23.44	343.58	19.43	-40.7	-52.0	3.8	8.45e-01	0	62	104	3265265664	53	12926
2026-01-26 12:07:24.45	343.57	19.30	-40.7	-52.1	3.8	8.47e-01	0	62	104	3265265664	53	13075
2026-01-26 12:07:25.46	343.57	19.17	-40.9	-52.3	3.8	8.46e-01	0	62	104	3265265664	53	13402
2026-01-26 12:07:26.47	343.57	19.04	-41.0	-52.5	3.8	8.46e-01	0	62	104	3265265664	53	13572
2026-01-26 12:07:27.48	343.56	18.92	-40.8	-52.2	3.8	8.46e-01	0	62	104	3265265664	53	13120
2026-01-26 12:07:28.49	343.56	18.79	-41.0	-52.5	3.8	8.47e-01	0	62	104	3265265664	53	13658
2026-01-26 12:07:29.50	343.56	18.67	-40.8	-52.2	3.8	8.46e-01	0	62	104	3265265664	53	13238
2026-01-26 12:07:30.51	343.55	18.54	-40.8	-52.3	3.8	8.46e-01	0	62	104	3265265664	53	13319
2026-01-26 12:07:31.52	343.55	18.42	-40.7	-52.2	3.8	8.47e-01	0	62	104	3265265664	53	13200
2026-01-26 12:07:32.52	343.55	18.29	-40.8	-52.3	3.8	8.46e-01	0	62	104	3265265664	53	13341
2026-01-26 12:07:33.54	343.55	18.17	-40.7	-52.2	3.8	8.46e-01	0	62	104	3265265664	53	13191
2026-01-26 12:07:34.55	343.54	18.05	-40.9	-52.4	3.8	8.47e-01	0	62	104	3265265664	53	13444
2026-01-26 12:07:35.56	343.54	17.93	-40.7	-52.2	3.8	8.46e-01	0	62	104	3265265664	53	13242
2026-01-26 12:07:36.57	343.54	17.81	-40.8	-52.3	3.8	8.45e-01	0	62	104	3265265664	53	13303
2026-01-26 12:07:37.58	343.54	17.69	-40.8	-52.3	3.8	8.45e-01	0	62	104	3265265664	53	13411
2026-01-26 12:07:38.59	343.53	17.57	-40.8	-52.3	3.8	8.45e-01	0	62	104	3265265664	53	13280
2026-01-26 12:07:39.60	343.53	17.45	-40.8	-52.3	3.8	8.46e-01	0	62	104	3265265664	53	13284
2026-01-26 12:07:40.61	343.53	17.33	-40.8	-52.3	3.8	8.45e-01	0	62	104	3265265664	53	13334
2026-01-26 12:07:41.62	343.53	17.21	-40.9	-52.3	3.8	8.46e-01	0	62	104	3265265664	53	13385
2026-01-26 12:07:42.63	343.53	17.09	-40.7	-52.2	3.8	8.46e-01	0	62	104	3265265664	53	13193
2026-01-26 12:07:43.64	343.52	16.98	-40.8	-52.3	3.8	8.47e-01	0	62	104	3265265664	53	13298
2026-01-26 12:07:44.65	343.52	16.86	-40.8	-52.3	3.8	8.46e-01	0	62	104	3265265664	53	13291
2026-01-26 12:07:45.66	343.52	16.74	-40.7	-52.2	3.8	8.46e-01	0	62	104	3265265664	53	13249
2026-01-26 12:07:46.67	343.52	16.63	-40.8	-52.3	3.8	8.46e-01	0	62	104	3265265664	53	13281
2026-01-26 12:07:47.68	343.52	16.51	-40.7	-52.2	3.8	8.46e-01	0	62	104	3265265664	53	13243
2026-01-26 12:07:48.69	343.51	16.40	-40.7	-52.2	3.8	8.47e-01	0	62	104	3265265664	53	13253
2026-01-26 12:07:49.70	343.51	16.29	-40.7	-52.2	3.8	8.46e-01	0	62	104	3265265664	53	13259
