passes_logs/2026/01/26/R2.0S_Moscow/R2.0S_Moscow__20260126_182117_FENGYUN_3G_rec.log

#Pass ID: 20260126_182117_FENGYUN 3G
#Satellite: FENGYUN 3G
#Configuration: FENGYUN 3G
#almurnet v.1.7.20251203
#Start time: 2026-01-26 18:21:17

#Version: 2.2.20231116
#Station: R2.0S_Moscow
#Location: 37.707566 lon 55.798166 lat
#TLE: 1 56232U 23055A   26025.91671677  .00046094  00000+0  69205-3 0  9999
#TLE: 2 56232  49.9949 359.5770 0004051  85.3034 274.8396 15.54373411157896

#Time	Az	El	Level	Level2	SNR	BER	BlckErr	Temp	State	Recorded	gain1	gain2
2026-01-26 18:21:17.99	247.14	2.05	-43.9	-62.0	3.8	8.45e-01	0	52	0	0	59	28777
2026-01-26 18:21:18.99	247.08	2.11	-43.9	-62.0	3.8	8.43e-01	0	52	104	0	59	28852
2026-01-26 18:21:20.00	247.01	2.18	-43.9	-62.0	3.8	8.47e-01	0	52	104	0	59	28721
2026-01-26 18:21:21.01	246.95	2.25	-43.9	-62.0	3.8	8.47e-01	0	53	104	0	59	28820
2026-01-26 18:21:22.02	246.89	2.31	-43.9	-61.9	3.8	8.47e-01	0	53	104	0	59	28654
2026-01-26 18:21:23.03	246.82	2.38	-43.9	-62.0	3.8	8.46e-01	0	53	104	0	59	28689
2026-01-26 18:21:24.04	246.76	2.45	-43.9	-61.9	3.8	8.46e-01	0	53	104	0	59	28492
2026-01-26 18:21:25.05	246.69	2.52	-43.9	-61.9	3.8	8.46e-01	0	53	104	0	59	28618
2026-01-26 18:21:26.06	246.62	2.58	-43.9	-61.9	3.8	8.46e-01	0	53	104	0	59	28412
2026-01-26 18:21:27.07	246.56	2.65	-43.9	-61.9	3.8	8.46e-01	0	53	104	0	59	28505
2026-01-26 18:21:28.08	246.49	2.72	-43.9	-61.8	3.8	8.46e-01	0	53	104	0	59	28317
2026-01-26 18:21:29.09	246.42	2.79	-43.9	-61.9	3.8	8.47e-01	0	53	104	0	59	28437
2026-01-26 18:21:30.10	246.35	2.86	-43.9	-61.9	3.8	8.45e-01	0	53	104	0	59	28512
2026-01-26 18:21:31.11	246.28	2.93	-43.9	-61.8	3.8	8.45e-01	0	53	104	0	59	28339
2026-01-26 18:21:32.13	246.22	3.00	-43.9	-61.9	3.8	8.46e-01	0	53	104	0	59	28570
2026-01-26 18:21:33.14	246.15	3.07	-43.9	-61.9	3.8	8.45e-01	0	53	104	0	59	28465
2026-01-26 18:21:34.15	246.08	3.13	-43.9	-61.9	3.8	8.46e-01	0	53	104	0	59	28562
2026-01-26 18:21:35.16	246.00	3.20	-43.9	-61.9	3.8	8.46e-01	0	54	104	0	59	28642
2026-01-26 18:21:36.17	245.93	3.27	-43.9	-61.9	3.8	8.47e-01	0	53	104	0	59	28515
2026-01-26 18:21:37.18	245.86	3.34	-43.9	-62.0	3.8	8.46e-01	0	54	104	0	59	28720
2026-01-26 18:21:38.19	245.79	3.42	-43.9	-61.9	3.8	8.46e-01	0	54	104	0	59	28558
2026-01-26 18:21:39.20	245.72	3.49	-43.9	-61.9	3.8	8.46e-01	0	54	104	0	59	28567
2026-01-26 18:21:40.21	245.64	3.56	-43.9	-62.0	3.8	8.45e-01	0	54	104	0	59	28710
2026-01-26 18:21:41.22	245.57	3.63	-43.9	-61.9	3.8	8.45e-01	0	54	104	0	59	28423
2026-01-26 18:21:42.23	245.50	3.70	-43.9	-62.0	3.8	8.46e-01	0	54	104	0	59	28694
2026-01-26 18:21:43.24	245.42	3.77	-43.9	-61.9	3.8	8.46e-01	0	54	104	0	59	28489
2026-01-26 18:21:44.25	245.35	3.84	-43.9	-61.9	3.8	8.46e-01	0	54	104	0	59	28582
2026-01-26 18:21:45.26	245.27	3.92	-43.9	-61.8	3.8	8.46e-01	0	54	104	0	59	28245
2026-01-26 18:21:46.27	245.19	3.99	-43.9	-61.6	3.8	8.47e-01	0	54	104	0	59	27453
2026-01-26 18:21:47.28	245.12	4.06	-43.9	-61.7	3.8	8.47e-01	0	54	104	0	59	27772
2026-01-26 18:21:48.29	245.04	4.13	-43.8	-61.2	3.8	8.47e-01	0	54	104	0	59	26283
2026-01-26 18:21:49.30	244.96	4.21	-43.8	-60.9	3.8	8.47e-01	0	54	104	0	59	25518
2026-01-26 18:21:50.31	244.88	4.28	-43.8	-60.9	3.8	8.45e-01	0	54	104	0	59	25311
2026-01-26 18:21:51.32	244.80	4.36	-43.8	-60.7	3.8	8.45e-01	0	54	104	0	59	24852
2026-01-26 18:21:52.33	244.72	4.43	-43.8	-60.4	3.8	8.46e-01	0	54	104	0	59	23969
2026-01-26 18:21:53.34	244.64	4.50	-43.8	-60.5	3.8	8.45e-01	0	55	104	0	59	24307
2026-01-26 18:21:54.35	244.56	4.58	-43.8	-60.7	3.8	8.45e-01	0	55	104	0	59	24960
2026-01-26 18:21:55.36	244.48	4.65	-43.8	-60.9	3.8	8.45e-01	0	55	104	0	59	25323
2026-01-26 18:21:56.37	244.40	4.73	-43.8	-61.0	3.8	8.46e-01	0	55	104	0	59	25733
2026-01-26 18:21:57.39	244.32	4.81	-43.8	-61.1	3.8	8.45e-01	0	55	104	0	59	26068
2026-01-26 18:21:58.40	244.23	4.88	-43.9	-61.2	3.8	8.45e-01	0	55	104	0	59	26379
2026-01-26 18:21:59.41	244.15	4.96	-43.8	-60.9	3.8	8.46e-01	0	55	104	0	59	25464
2026-01-26 18:22:00.42	244.06	5.03	-43.8	-60.8	3.8	8.47e-01	0	55	104	0	59	25116
2026-01-26 18:22:01.43	243.98	5.11	-43.8	-60.7	3.8	8.47e-01	0	55	104	0	59	24895
2026-01-26 18:22:02.44	243.89	5.19	-43.8	-60.2	3.8	8.46e-01	0	55	104	0	59	23375
2026-01-26 18:22:03.45	243.80	5.26	-43.8	-59.8	3.9	8.45e-01	0	55	104	0	59	22288
2026-01-26 18:22:04.46	243.72	5.34	-43.8	-59.1	3.9	8.45e-01	0	55	104	0	59	20688
2026-01-26 18:22:05.47	243.63	5.42	-43.7	-58.5	4.2	8.43e-01	0	55	0	0	59	19220
2026-01-26 18:22:06.48	243.54	5.50	-43.8	-58.7	4.1	8.40e-01	0	55	0	0	59	19809
2026-01-26 18:22:07.49	243.45	5.58	-43.7	-58.4	4.2	8.40e-01	0	55	0	0	59	19082
2026-01-26 18:22:08.50	243.36	5.66	-43.7	-58.0	4.3	8.38e-01	0	55	0	0	59	18265
2026-01-26 18:22:09.51	243.27	5.73	-43.7	-57.8	4.4	8.33e-01	0	56	0	0	59	17814
2026-01-26 18:22:10.52	243.18	5.81	-43.7	-57.9	4.3	8.31e-01	0	55	0	0	59	18059
2026-01-26 18:22:11.54	243.08	5.89	-43.7	-58.1	4.3	8.31e-01	0	55	0	0	59	18336
2026-01-26 18:22:12.55	242.99	5.97	-43.7	-58.0	4.3	8.30e-01	0	55	0	0	59	18192
2026-01-26 18:22:13.56	242.90	6.05	-43.7	-57.5	4.5	8.30e-01	0	56	0	0	59	17131
2026-01-26 18:22:14.57	242.80	6.14	-43.7	-56.8	4.8	8.30e-01	0	55	0	0	59	15893
2026-01-26 18:22:15.58	242.71	6.22	-43.6	-55.6	5.4	8.10e-01	0	56	0	0	59	13808
2026-01-26 18:22:16.59	242.61	6.30	-43.5	-54.8	6.0	7.17e-01	0	56	0	0	59	12600
2026-01-26 18:22:17.60	242.51	6.38	-43.4	-54.1	6.5	7.17e-01	0	56	0	1048576	58	12258
2026-01-26 18:22:18.61	242.42	6.46	-43.2	-52.4	8.1	3.32e-01	0	56	0	2621440	58	10133
2026-01-26 18:22:19.62	242.32	6.54	-43.1	-51.7	9.0	9.21e-02	0	56	0	3670016	58	9362
2026-01-26 18:22:20.63	242.22	6.63	-43.0	-50.9	9.8	9.21e-02	0	56	0	4718592	58	8524
2026-01-26 18:22:21.64	242.12	6.71	-42.8	-50.3	10.4	2.55e-02	0	56	0	5767168	57	8425
2026-01-26 18:22:22.65	242.02	6.79	-42.8	-50.3	10.5	8.11e-03	0	56	0	6815744	57	8372
2026-01-26 18:22:23.66	241.92	6.88	-42.9	-50.6	10.1	6.79e-03	0	56	0	7864320	57	8745
2026-01-26 18:22:24.67	241.81	6.96	-43.1	-51.6	9.1	6.79e-03	0	56	0	9437184	57	9797
2026-01-26 18:22:25.68	241.71	7.05	-43.4	-53.6	7.1	2.22e-02	0	56	0	10485760	57	12287
2026-01-26 18:22:26.70	241.61	7.13	-43.6	-56.6	4.9	2.28e-01	0	56	0	11010048	57	17430
2026-01-26 18:22:27.71	241.50	7.22	-43.8	-60.2	3.8	2.28e-01	0	56	104	11010048	58	24731
2026-01-26 18:22:28.72	241.39	7.30	-43.8	-59.2	4.0	8.23e-01	0	56	104	11010048	58	22115
2026-01-26 18:22:29.73	241.29	7.39	-43.5	-54.8	5.9	8.31e-01	0	56	0	11010048	58	13373
2026-01-26 18:22:30.74	241.18	7.47	-43.0	-51.3	9.3	8.31e-01	0	56	0	12058624	58	8901
2026-01-26 18:22:31.75	241.07	7.56	-42.5	-48.9	11.8	2.23e-01	0	56	0	13107200	57	7191
2026-01-26 18:22:32.76	240.96	7.65	-42.0	-47.5	13.3	2.90e-03	0	56	0	14155776	56	6469
2026-01-26 18:22:33.77	240.85	7.73	-41.4	-46.2	14.5	3.43e-05	0	56	0	15204352	54	6210
2026-01-26 18:22:34.78	240.74	7.82	-41.1	-45.6	15.1	3.43e-05	0	57	0	16777216	54	5810
2026-01-26 18:22:35.79	240.63	7.91	-41.2	-45.7	15.1	0.00e+00	0	56	0	17825792	54	5905
2026-01-26 18:22:36.80	240.51	8.00	-41.3	-45.9	14.9	1.10e-06	0	57	0	18874368	54	6006
2026-01-26 18:22:37.81	240.40	8.09	-41.0	-45.2	15.7	1.10e-06	0	57	0	19922944	53	5907
2026-01-26 18:22:38.82	240.28	8.18	-42.5	-49.0	11.9	0.00e+00	0	57	0	20971520	55	8117
2026-01-26 18:22:39.83	240.17	8.27	-43.2	-52.0	9.9	3.31e-04	0	57	0	22020096	56	10782
2026-01-26 18:22:40.84	240.05	8.36	-41.5	-46.1	15.0	3.31e-04	0	57	0	23068672	54	6149
2026-01-26 18:22:41.85	239.93	8.45	-43.6	-56.0	6.2	1.25e-01	0	57	0	24641536	57	16263
2026-01-26 18:22:42.86	239.81	8.54	-41.0	-45.2	15.3	3.05e-01	0	57	0	25165824	54	5591
2026-01-26 18:22:43.87	239.69	8.63	-40.8	-44.8	16.0	3.05e-01	0	57	0	26214400	53	5636
2026-01-26 18:22:44.88	239.57	8.72	-40.7	-44.7	16.2	1.44e-03	0	57	0	27262976	53	5532
2026-01-26 18:22:45.89	239.45	8.81	-40.8	-44.8	16.0	0.00e+00	0	57	0	28311552	53	5601
2026-01-26 18:22:46.89	239.32	8.91	-40.4	-44.0	16.9	0.00e+00	0	57	0	29360128	52	5428
2026-01-26 18:22:47.90	239.20	9.00	-40.2	-43.6	17.3	0.00e+00	0	57	0	30932992	52	5205
2026-01-26 18:22:48.91	239.07	9.09	-40.2	-43.7	17.3	0.00e+00	0	57	0	31981568	52	5230
2026-01-26 18:22:49.92	238.95	9.19	-40.2	-43.7	17.3	0.00e+00	0	57	0	33030144	52	5232
2026-01-26 18:22:50.93	238.82	9.28	-40.2	-43.5	17.4	0.00e+00	0	57	0	34078720	52	5152
2026-01-26 18:22:51.94	238.69	9.38	-40.2	-43.7	17.3	0.00e+00	0	57	0	35127296	52	5233
2026-01-26 18:22:52.95	238.56	9.47	-40.2	-43.6	17.4	0.00e+00	0	57	0	36175872	52	5190
2026-01-26 18:22:53.96	238.43	9.57	-40.3	-43.7	17.3	0.00e+00	0	57	0	37748736	52	5259
2026-01-26 18:22:54.97	238.29	9.66	-40.2	-43.6	17.4	0.00e+00	0	57	0	38797312	52	5217
2026-01-26 18:22:55.98	238.16	9.76	-40.3	-43.7	17.2	0.00e+00	0	57	0	39845888	52	5278
2026-01-26 18:22:56.99	238.02	9.86	-40.3	-43.7	17.4	0.00e+00	0	57	0	40894464	52	5226
2026-01-26 18:22:58.00	237.89	9.95	-40.3	-43.7	17.3	0.00e+00	0	57	0	41943040	52	5267
2026-01-26 18:22:59.01	237.75	10.05	-40.3	-43.8	17.3	0.00e+00	0	57	0	42991616	52	5286
2026-01-26 18:23:00.02	237.61	10.15	-40.1	-43.3	17.9	0.00e+00	0	57	0	44564480	51	5282
2026-01-26 18:23:01.04	237.47	10.25	-40.1	-43.4	17.7	0.00e+00	0	57	0	45613056	51	5350
2026-01-26 18:23:02.05	237.33	10.35	-40.0	-43.1	18.0	0.00e+00	0	57	0	46661632	51	5201
2026-01-26 18:23:03.05	237.19	10.45	-39.9	-43.0	18.1	0.00e+00	0	57	0	47710208	51	5131
2026-01-26 18:23:04.06	237.04	10.55	-40.0	-43.2	17.9	0.00e+00	0	58	0	48758784	51	5250
2026-01-26 18:23:05.07	236.90	10.65	-40.2	-43.4	17.7	0.00e+00	0	58	0	49807360	51	5370
2026-01-26 18:23:06.08	236.75	10.75	-40.2	-43.5	17.7	0.00e+00	0	58	0	51380224	51	5420
2026-01-26 18:23:07.09	236.60	10.85	-40.1	-43.2	17.8	0.00e+00	0	58	0	52428800	51	5276
2026-01-26 18:23:08.10	236.45	10.95	-40.1	-43.4	17.8	0.00e+00	0	57	0	53477376	51	5357
2026-01-26 18:23:09.11	236.30	11.06	-40.1	-43.3	17.9	0.00e+00	0	58	0	54525952	51	5285
2026-01-26 18:23:10.12	236.15	11.16	-40.1	-43.3	17.8	0.00e+00	0	57	0	55574528	51	5332
2026-01-26 18:23:11.13	235.99	11.26	-40.0	-43.2	18.0	0.00e+00	0	58	0	56623104	51	5245
2026-01-26 18:23:12.14	235.84	11.37	-40.1	-43.3	17.9	0.00e+00	0	58	0	58195968	51	5291
2026-01-26 18:23:13.15	235.68	11.47	-39.9	-43.0	18.2	0.00e+00	0	58	0	59244544	51	5102
2026-01-26 18:23:14.16	235.52	11.58	-39.8	-42.8	18.4	0.00e+00	0	58	0	60293120	51	5008
2026-01-26 18:23:15.17	235.36	11.68	-39.6	-42.4	18.8	0.00e+00	0	58	0	61341696	51	4803
2026-01-26 18:23:16.18	235.20	11.79	-39.6	-42.5	18.7	0.00e+00	0	58	0	62390272	51	4858
2026-01-26 18:23:17.19	235.04	11.90	-39.8	-42.7	18.5	0.00e+00	0	58	0	63438848	51	4971
2026-01-26 18:23:18.20	234.87	12.00	-39.6	-42.5	18.7	0.00e+00	0	58	0	65011712	51	4852
2026-01-26 18:23:19.20	234.71	12.11	-39.6	-42.6	18.7	0.00e+00	0	58	0	66060288	51	4871
2026-01-26 18:23:20.21	234.54	12.22	-39.7	-42.6	18.6	0.00e+00	0	58	0	67108864	51	4880
2026-01-26 18:23:21.22	234.37	12.33	-39.6	-42.5	18.7	0.00e+00	0	58	0	68157440	51	4853
2026-01-26 18:23:22.23	234.20	12.44	-39.8	-42.8	18.4	0.00e+00	0	58	0	69206016	51	5022
2026-01-26 18:23:23.24	234.02	12.55	-39.9	-42.9	18.4	0.00e+00	0	58	0	70254592	51	5065
2026-01-26 18:23:24.25	233.85	12.66	-39.7	-42.6	18.7	0.00e+00	0	58	0	71827456	51	4905
2026-01-26 18:23:25.27	233.67	12.77	-39.8	-42.8	18.5	0.00e+00	0	58	0	72876032	51	4994
2026-01-26 18:23:26.28	233.49	12.88	-39.7	-42.6	18.7	0.00e+00	0	58	0	73924608	51	4907
2026-01-26 18:23:27.29	233.31	12.99	-39.5	-42.3	18.9	0.00e+00	0	58	0	74973184	51	4743
2026-01-26 18:23:28.30	233.13	13.10	-39.5	-42.3	18.9	0.00e+00	0	58	0	76021760	50	5037
2026-01-26 18:23:29.31	232.94	13.22	-39.4	-42.2	19.1	0.00e+00	0	58	0	77070336	50	4938
2026-01-26 18:23:30.32	232.76	13.33	-39.4	-42.1	19.2	0.00e+00	0	58	0	78643200	50	4888
2026-01-26 18:23:31.33	232.57	13.44	-39.4	-42.2	19.1	0.00e+00	0	58	0	79691776	50	4928
2026-01-26 18:23:32.34	232.38	13.56	-39.5	-42.4	18.9	0.00e+00	0	58	0	80740352	50	5050
2026-01-26 18:23:33.35	232.19	13.67	-39.4	-42.2	19.1	0.00e+00	0	58	0	81788928	50	4932
2026-01-26 18:23:34.36	232.00	13.79	-39.3	-42.0	19.3	0.00e+00	0	58	0	82837504	50	4849
2026-01-26 18:23:35.36	231.80	13.91	-39.3	-42.0	19.3	0.00e+00	0	58	0	83886080	50	4833
2026-01-26 18:23:36.37	231.60	14.02	-39.4	-42.1	19.3	0.00e+00	0	58	0	85458944	50	4880
2026-01-26 18:23:37.38	231.41	14.14	-39.5	-42.3	19.0	0.00e+00	0	59	0	86507520	50	5027
2026-01-26 18:23:38.39	231.20	14.26	-39.4	-42.1	19.2	0.00e+00	0	58	0	87556096	50	4924
2026-01-26 18:23:39.40	231.00	14.38	-39.4	-42.2	19.1	0.00e+00	0	59	0	88604672	50	4966
2026-01-26 18:23:40.41	230.79	14.49	-39.5	-42.3	19.0	0.00e+00	0	58	0	89653248	50	5024
2026-01-26 18:23:41.42	230.59	14.61	-39.2	-41.9	19.5	0.00e+00	0	58	0	90701824	50	4760
2026-01-26 18:23:42.43	230.38	14.73	-39.2	-41.8	19.6	0.00e+00	0	59	0	92274688	50	4731
2026-01-26 18:23:43.44	230.16	14.86	-39.1	-41.7	19.7	0.00e+00	0	59	0	93323264	50	4680
2026-01-26 18:23:44.45	229.95	14.98	-39.0	-41.5	19.8	0.00e+00	0	58	0	94371840	49	4842
2026-01-26 18:23:45.46	229.73	15.10	-38.9	-41.5	19.9	0.00e+00	0	59	0	95420416	49	4817
2026-01-26 18:23:46.47	229.51	15.22	-39.0	-41.5	19.8	0.00e+00	0	59	0	96468992	49	4854
2026-01-26 18:23:47.48	229.29	15.34	-39.1	-41.7	19.7	0.00e+00	0	58	0	97517568	49	4947
2026-01-26 18:23:48.50	229.07	15.47	-39.0	-41.5	19.8	0.00e+00	0	58	0	99090432	49	4864
2026-01-26 18:23:49.51	228.84	15.59	-39.2	-41.8	19.6	0.00e+00	0	59	0	100139008	49	5013
2026-01-26 18:23:50.51	228.61	15.72	-39.0	-41.6	19.8	0.00e+00	0	59	0	101187584	49	4871
2026-01-26 18:23:51.52	228.38	15.84	-38.9	-41.5	20.0	0.00e+00	0	59	0	102236160	49	4816
2026-01-26 18:23:52.53	228.15	15.97	-38.8	-41.3	20.1	0.00e+00	0	59	0	103284736	49	4724
2026-01-26 18:23:53.54	227.91	16.09	-38.6	-41.0	20.4	0.00e+00	0	59	0	104333312	49	4558
2026-01-26 18:23:54.55	227.67	16.22	-38.6	-41.0	20.5	0.00e+00	0	59	0	105906176	48	4823
2026-01-26 18:23:55.56	227.43	16.35	-38.4	-40.8	20.6	0.00e+00	0	59	0	106954752	48	4710
2026-01-26 18:23:56.57	227.19	16.47	-38.4	-40.8	20.6	0.00e+00	0	59	0	108003328	48	4728
2026-01-26 18:23:57.58	226.94	16.60	-38.3	-40.6	20.9	0.00e+00	0	59	0	109051904	48	4611
2026-01-26 18:23:58.59	226.69	16.73	-38.6	-41.0	20.4	0.00e+00	0	59	0	110100480	48	4844
2026-01-26 18:23:59.60	226.44	16.86	-38.7	-41.1	20.2	0.00e+00	0	59	0	111149056	48	4922
2026-01-26 18:24:00.61	226.19	16.99	-38.9	-41.4	20.1	0.00e+00	0	59	0	112721920	48	5048
2026-01-26 18:24:01.62	225.93	17.12	-39.0	-41.4	20.0	0.00e+00	0	59	0	113770496	48	5092
2026-01-26 18:24:02.63	225.67	17.25	-39.0	-41.5	20.0	0.00e+00	0	59	0	114819072	48	5131
2026-01-26 18:24:03.64	225.41	17.38	-38.7	-41.1	20.4	0.00e+00	0	59	0	115867648	48	4873
2026-01-26 18:24:04.65	225.14	17.51	-38.5	-40.8	20.7	0.00e+00	0	59	0	116916224	48	4714
2026-01-26 18:24:05.66	224.87	17.65	-38.3	-40.5	21.0	0.00e+00	0	59	0	117964800	48	4576
2026-01-26 18:24:06.67	224.60	17.78	-38.3	-40.5	20.9	0.00e+00	0	59	0	119537664	48	4592
2026-01-26 18:24:07.68	224.33	17.91	-38.5	-40.8	20.7	0.00e+00	0	59	0	120586240	48	4711
2026-01-26 18:24:08.69	224.05	18.05	-38.3	-40.6	20.9	0.00e+00	0	59	0	121634816	48	4610
2026-01-26 18:24:09.70	223.77	18.18	-38.2	-40.4	21.1	0.00e+00	0	59	0	122683392	48	4517
2026-01-26 18:24:10.71	223.48	18.31	-38.3	-40.6	20.9	0.00e+00	0	59	0	123731968	48	4619
2026-01-26 18:24:11.72	223.20	18.45	-38.4	-40.7	20.8	0.00e+00	0	59	0	124780544	48	4672
2026-01-26 18:24:12.73	222.91	18.58	-38.4	-40.7	20.8	0.00e+00	0	59	0	126353408	48	4700
2026-01-26 18:24:13.74	222.61	18.72	-38.4	-40.7	20.8	0.00e+00	0	59	0	127401984	48	4677
2026-01-26 18:24:14.75	222.32	18.86	-38.4	-40.6	20.9	0.00e+00	0	59	0	128450560	48	4647
2026-01-26 18:24:15.76	222.02	18.99	-38.3	-40.5	21.0	0.00e+00	0	59	0	129499136	48	4581
2026-01-26 18:24:16.77	221.71	19.13	-38.2	-40.4	21.1	0.00e+00	0	59	0	130547712	48	4526
2026-01-26 18:24:17.78	221.41	19.27	-38.1	-40.3	21.2	0.00e+00	0	59	0	131596288	48	4469
2026-01-26 18:24:18.79	221.10	19.40	-37.9	-40.0	21.4	0.00e+00	0	59	0	133169152	47	4582
2026-01-26 18:24:19.80	220.78	19.54	-38.0	-40.1	21.4	0.00e+00	0	59	0	134217728	47	4635
2026-01-26 18:24:20.81	220.47	19.68	-38.0	-40.2	21.4	0.00e+00	0	59	0	135266304	47	4658
2026-01-26 18:24:21.82	220.15	19.82	-37.9	-40.1	21.4	0.00e+00	0	59	0	136314880	47	4637
2026-01-26 18:24:22.83	219.82	19.96	-38.0	-40.2	21.3	0.00e+00	0	59	0	137363456	47	4693
2026-01-26 18:24:23.84	219.49	20.10	-37.9	-40.1	21.4	0.00e+00	0	59	0	138412032	47	4615
2026-01-26 18:24:24.85	219.16	20.24	-38.0	-40.2	21.4	0.00e+00	0	59	0	139984896	47	4664
2026-01-26 18:24:25.86	218.83	20.37	-38.0	-40.2	21.4	0.00e+00	0	59	0	141033472	47	4656
2026-01-26 18:24:26.87	218.49	20.51	-38.0	-40.2	21.4	0.00e+00	0	59	0	142082048	47	4672
2026-01-26 18:24:27.88	218.15	20.65	-37.9	-40.0	21.5	0.00e+00	0	59	0	143130624	47	4576
2026-01-26 18:24:28.89	217.80	20.79	-37.7	-39.7	21.8	0.00e+00	0	59	0	144179200	47	4438
2026-01-26 18:24:29.90	217.45	20.93	-37.5	-39.5	22.0	0.00e+00	0	59	0	145227776	47	4315
2026-01-26 18:24:30.91	217.10	21.07	-37.5	-39.5	22.0	0.00e+00	0	59	0	146800640	46	4596
2026-01-26 18:24:31.92	216.74	21.21	-37.6	-39.7	21.9	0.00e+00	0	59	0	147849216	46	4678
2026-01-26 18:24:32.93	216.38	21.35	-37.5	-39.5	22.0	0.00e+00	0	59	0	148897792	46	4598
2026-01-26 18:24:33.94	216.01	21.49	-37.9	-40.0	21.6	0.00e+00	0	59	0	149946368	46	4841
2026-01-26 18:24:34.95	215.64	21.63	-38.0	-40.2	21.4	0.00e+00	0	59	0	150994944	46	4944
2026-01-26 18:24:35.96	215.27	21.77	-38.2	-40.4	21.2	0.00e+00	0	59	0	152043520	46	5072
2026-01-26 18:24:36.97	214.89	21.91	-38.0	-40.1	21.4	0.00e+00	0	59	0	153616384	46	4924
2026-01-26 18:24:37.98	214.51	22.05	-37.7	-39.8	21.8	0.00e+00	0	59	0	154664960	46	4725
2026-01-26 18:24:38.99	214.13	22.19	-37.6	-39.6	21.9	0.00e+00	0	59	0	155713536	46	4649
2026-01-26 18:24:40.00	213.74	22.33	-37.5	-39.5	22.0	0.00e+00	0	59	0	156762112	46	4591
2026-01-26 18:24:41.01	213.34	22.47	-37.4	-39.5	22.1	0.00e+00	0	60	0	157810688	46	4555
2026-01-26 18:24:42.02	212.94	22.61	-37.4	-39.4	22.2	0.00e+00	0	59	0	158859264	46	4523
2026-01-26 18:24:43.03	212.54	22.75	-37.2	-39.2	22.4	0.00e+00	0	59	0	160432128	46	4403
2026-01-26 18:24:44.04	212.14	22.89	-36.9	-38.8	22.8	0.00e+00	0	60	0	161480704	45	4459
2026-01-26 18:24:45.05	211.72	23.03	-37.1	-39.0	22.6	0.00e+00	0	59	0	162529280	45	4548
2026-01-26 18:24:46.06	211.31	23.17	-37.0	-39.0	22.6	0.00e+00	0	59	0	163577856	45	4546
2026-01-26 18:24:47.07	210.89	23.30	-37.1	-39.0	22.5	0.00e+00	0	60	0	164626432	45	4596
2026-01-26 18:24:48.08	210.47	23.44	-37.3	-39.2	22.3	0.00e+00	0	60	0	165675008	45	4703
2026-01-26 18:24:49.09	210.04	23.58	-37.4	-39.4	22.2	0.00e+00	0	60	0	167247872	45	4765
2026-01-26 18:24:50.10	209.60	23.71	-37.5	-39.5	22.1	0.00e+00	0	60	0	168296448	45	4823
2026-01-26 18:24:51.11	209.17	23.85	-37.3	-39.3	22.3	0.00e+00	0	59	0	169345024	45	4720
2026-01-26 18:24:52.12	208.73	23.98	-37.4	-39.4	22.2	0.00e+00	0	59	0	170393600	45	4792
2026-01-26 18:24:53.13	208.28	24.12	-37.3	-39.3	22.3	0.00e+00	0	60	0	171442176	45	4719
2026-01-26 18:24:54.14	207.83	24.25	-37.3	-39.3	22.3	0.00e+00	0	59	0	173015040	45	4737
2026-01-26 18:24:55.15	207.37	24.38	-37.2	-39.1	22.5	0.00e+00	0	60	0	174063616	45	4648
2026-01-26 18:24:56.16	206.91	24.51	-37.3	-39.2	22.4	0.00e+00	0	60	0	175112192	45	4691
2026-01-26 18:24:57.17	206.45	24.64	-37.2	-39.1	22.5	0.00e+00	0	60	0	176160768	45	4616
2026-01-26 18:24:58.18	205.98	24.77	-37.2	-39.1	22.5	0.00e+00	0	59	0	177209344	45	4620
2026-01-26 18:24:59.19	205.51	24.90	-37.2	-39.1	22.5	0.00e+00	0	60	0	178257920	45	4617
2026-01-26 18:25:00.20	205.03	25.03	-37.2	-39.1	22.5	0.00e+00	0	60	0	179306496	45	4651
2026-01-26 18:25:01.21	204.55	25.16	-37.3	-39.2	22.4	0.00e+00	0	60	0	180879360	45	4684
2026-01-26 18:25:02.22	204.06	25.28	-37.3	-39.2	22.4	0.00e+00	0	60	0	181927936	45	4705
2026-01-26 18:25:03.23	203.57	25.41	-37.3	-39.2	22.4	0.00e+00	0	60	0	182976512	45	4684
2026-01-26 18:25:04.24	203.08	25.53	-37.1	-39.0	22.6	0.00e+00	0	60	0	184025088	45	4595
2026-01-26 18:25:05.25	202.58	25.65	-37.0	-38.9	22.7	0.00e+00	0	60	0	185073664	45	4535
2026-01-26 18:25:06.26	202.07	25.77	-36.9	-38.8	22.8	0.00e+00	0	60	0	186122240	45	4466
2026-01-26 18:25:07.27	201.57	25.89	-36.9	-38.8	22.8	0.00e+00	0	60	0	187695104	45	4473
2026-01-26 18:25:08.28	201.05	26.01	-37.0	-38.9	22.8	0.00e+00	0	60	0	188743680	45	4494
2026-01-26 18:25:09.29	200.54	26.12	-36.9	-38.8	22.8	0.00e+00	0	60	0	189792256	45	4482
2026-01-26 18:25:10.30	200.01	26.23	-36.8	-38.6	23.0	0.00e+00	0	60	0	190840832	45	4368
2026-01-26 18:25:11.31	199.49	26.35	-36.6	-38.4	23.2	0.00e+00	0	60	0	191889408	45	4265
2026-01-26 18:25:12.32	198.96	26.46	-36.6	-38.4	23.2	0.00e+00	0	60	0	192937984	45	4277
2026-01-26 18:25:13.33	198.42	26.57	-36.6	-38.4	23.2	0.00e+00	0	60	0	194510848	45	4257
2026-01-26 18:25:14.34	197.89	26.67	-36.4	-38.2	23.4	0.00e+00	0	60	0	195559424	44	4399
2026-01-26 18:25:15.35	197.34	26.78	-36.5	-38.2	23.4	0.00e+00	0	60	0	196608000	44	4440
2026-01-26 18:25:16.36	196.80	26.88	-36.7	-38.5	23.1	0.00e+00	0	60	0	197656576	44	4581
2026-01-26 18:25:17.37	196.25	26.98	-36.7	-38.5	23.1	0.00e+00	0	60	0	198705152	44	4595
2026-01-26 18:25:18.38	195.69	27.08	-36.6	-38.4	23.1	0.00e+00	0	60	0	199753728	44	4529
2026-01-26 18:25:19.38	195.14	27.17	-36.3	-38.1	23.5	0.00e+00	0	60	0	201326592	44	4359
2026-01-26 18:25:20.39	194.58	27.27	-36.4	-38.1	23.4	0.00e+00	0	60	0	202375168	44	4371
2026-01-26 18:25:21.40	194.01	27.36	-36.4	-38.2	23.3	0.00e+00	0	60	0	203423744	44	4429
2026-01-26 18:25:22.41	193.44	27.45	-36.7	-38.5	23.1	0.00e+00	0	60	0	204472320	44	4575
2026-01-26 18:25:23.42	192.87	27.54	-36.6	-38.4	23.2	0.00e+00	0	60	0	205520896	44	4512
2026-01-26 18:25:24.44	192.29	27.62	-36.4	-38.2	23.4	0.00e+00	0	60	0	206569472	44	4395
2026-01-26 18:25:25.44	191.71	27.70	-36.3	-38.1	23.5	0.00e+00	0	60	0	208142336	44	4348
2026-01-26 18:25:26.46	191.12	27.78	-36.1	-37.8	23.8	0.00e+00	0	60	0	209190912	44	4228
2026-01-26 18:25:27.47	190.53	27.86	-36.2	-37.9	23.6	0.00e+00	0	60	0	210239488	44	4289
2026-01-26 18:25:28.48	189.94	27.93	-36.2	-37.9	23.7	0.00e+00	0	60	0	211288064	44	4267
2026-01-26 18:25:29.49	189.35	28.00	-36.3	-38.0	23.6	0.00e+00	0	60	0	212336640	44	4322
2026-01-26 18:25:30.50	188.76	28.07	-36.3	-38.0	23.6	0.00e+00	0	60	0	213909504	44	4312
2026-01-26 18:25:31.50	188.16	28.14	-36.3	-38.0	23.6	0.00e+00	0	60	0	214958080	44	4330
2026-01-26 18:25:32.51	187.56	28.20	-36.3	-38.0	23.5	0.00e+00	0	60	0	216006656	44	4340
2026-01-26 18:25:33.53	186.95	28.26	-36.7	-38.5	23.1	0.00e+00	0	60	0	217055232	44	4580
2026-01-26 18:25:34.53	186.35	28.32	-36.9	-38.7	22.9	0.00e+00	0	60	0	218103808	44	4685
2026-01-26 18:25:35.54	185.74	28.37	-37.1	-39.0	22.7	0.00e+00	0	60	0	219152384	44	4822
2026-01-26 18:25:36.55	185.13	28.42	-37.0	-38.9	22.7	0.00e+00	0	60	0	220200960	44	4767
2026-01-26 18:25:37.56	184.52	28.47	-37.0	-38.9	22.7	0.00e+00	0	60	0	221773824	44	4805
2026-01-26 18:25:38.57	183.90	28.51	-37.1	-39.0	22.6	0.00e+00	0	60	0	222822400	44	4847
2026-01-26 18:25:39.58	183.29	28.55	-37.1	-39.1	22.6	0.00e+00	0	60	0	223870976	44	4883
2026-01-26 18:25:40.59	182.67	28.59	-37.1	-39.1	22.6	0.00e+00	0	60	0	224919552	45	4601
2026-01-26 18:25:41.60	182.05	28.62	-37.1	-39.0	22.7	0.00e+00	0	60	0	225968128	45	4558
2026-01-26 18:25:42.62	181.42	28.65	-37.0	-38.9	22.8	0.00e+00	0	60	0	227016704	45	4495
2026-01-26 18:25:43.63	180.80	28.68	-37.0	-38.9	22.7	0.00e+00	0	60	0	228589568	45	4539
2026-01-26 18:25:44.64	180.17	28.71	-36.9	-38.7	22.9	0.00e+00	0	60	0	229638144	45	4428
2026-01-26 18:25:45.65	179.55	28.73	-36.9	-38.7	22.8	0.00e+00	0	60	0	230686720	45	4436
2026-01-26 18:25:46.66	178.92	28.74	-37.0	-38.9	22.8	0.00e+00	0	60	0	231735296	45	4495
2026-01-26 18:25:47.66	178.30	28.76	-37.0	-38.8	22.8	0.00e+00	0	60	0	232783872	45	4489
2026-01-26 18:25:48.67	177.67	28.77	-37.0	-38.8	22.8	0.00e+00	0	60	0	233832448	45	4487
2026-01-26 18:25:49.68	177.05	28.78	-36.8	-38.7	23.0	0.00e+00	0	60	0	235405312	45	4412
2026-01-26 18:25:50.69	176.42	28.78	-36.8	-38.6	23.0	0.00e+00	0	60	0	236453888	45	4367
2026-01-26 18:25:51.70	175.79	28.78	-36.8	-38.7	23.0	0.00e+00	0	60	0	237502464	45	4397
2026-01-26 18:25:52.71	175.16	28.78	-36.7	-38.6	23.1	0.00e+00	0	60	0	238551040	45	4354
2026-01-26 18:25:53.72	174.54	28.77	-37.1	-38.9	22.9	0.00e+00	0	60	0	239599616	45	4542
2026-01-26 18:25:54.73	173.91	28.76	-37.0	-38.8	22.9	0.00e+00	0	60	0	240648192	45	4491
2026-01-26 18:25:55.74	173.28	28.75	-36.8	-38.7	23.0	0.00e+00	0	60	0	242221056	45	4399
2026-01-26 18:25:56.75	172.66	28.73	-36.9	-38.7	23.0	0.00e+00	0	60	0	243269632	45	4438
2026-01-26 18:25:57.76	172.03	28.71	-37.0	-38.9	22.7	0.00e+00	0	60	0	244318208	45	4510
2026-01-26 18:25:58.77	171.41	28.69	-36.9	-38.7	23.0	0.00e+00	0	60	0	245366784	45	4429
2026-01-26 18:25:59.78	170.78	28.66	-36.8	-38.6	23.1	0.00e+00	0	60	0	246415360	45	4357
2026-01-26 18:26:00.79	170.16	28.63	-36.8	-38.6	23.0	0.00e+00	0	60	0	247988224	45	4383
2026-01-26 18:26:01.80	169.54	28.60	-36.8	-38.7	23.0	0.00e+00	0	60	0	249036800	45	4393
2026-01-26 18:26:02.81	168.92	28.56	-36.9	-38.8	22.8	0.00e+00	0	60	0	250085376	45	4480
2026-01-26 18:26:03.82	168.31	28.52	-36.9	-38.8	22.9	0.00e+00	0	60	0	251133952	45	4469
2026-01-26 18:26:04.83	167.69	28.48	-37.0	-38.9	22.8	0.00e+00	0	60	0	252182528	45	4532
2026-01-26 18:26:05.84	167.08	28.43	-36.7	-38.5	23.3	0.00e+00	0	60	0	253231104	44	4573
2026-01-26 18:26:06.85	166.47	28.38	-36.7	-38.5	23.3	0.00e+00	0	60	0	254803968	44	4587
2026-01-26 18:26:07.86	165.86	28.33	-36.9	-38.7	23.0	0.00e+00	0	60	0	255852544	44	4689
2026-01-26 18:26:08.87	165.25	28.27	-37.1	-39.0	22.9	0.00e+00	0	60	0	256901120	44	4835
2026-01-26 18:26:09.88	164.64	28.21	-36.9	-38.8	23.0	0.00e+00	0	60	0	257949696	44	4716
2026-01-26 18:26:10.89	164.04	28.15	-36.6	-38.4	23.3	0.00e+00	0	60	0	258998272	44	4524
2026-01-26 18:26:11.90	163.44	28.09	-36.5	-38.3	23.4	0.00e+00	0	60	0	260046848	44	4465
2026-01-26 18:26:12.91	162.85	28.02	-36.5	-38.3	23.5	0.00e+00	0	60	0	261095424	44	4464
2026-01-26 18:26:13.92	162.25	27.95	-36.6	-38.4	23.5	0.00e+00	0	60	0	262668288	44	4514
2026-01-26 18:26:14.93	161.66	27.87	-36.8	-38.7	23.1	0.00e+00	0	60	0	263716864	44	4653
2026-01-26 18:26:15.95	161.07	27.80	-36.7	-38.5	23.3	0.00e+00	0	60	0	264765440	44	4570
2026-01-26 18:26:16.96	160.49	27.72	-36.7	-38.5	23.3	0.00e+00	0	60	0	265814016	44	4568
2026-01-26 18:26:17.96	159.91	27.64	-36.6	-38.4	23.4	0.00e+00	0	60	0	266862592	44	4538
2026-01-26 18:26:18.97	159.33	27.56	-36.6	-38.4	23.4	0.00e+00	0	60	0	267911168	44	4518
2026-01-26 18:26:19.99	158.75	27.47	-36.7	-38.5	23.3	0.00e+00	0	60	0	269484032	44	4596
2026-01-26 18:26:21.00	158.18	27.38	-36.6	-38.5	23.4	0.00e+00	0	60	0	270532608	44	4551
2026-01-26 18:26:22.00	157.62	27.29	-36.7	-38.6	23.2	0.00e+00	0	60	0	271581184	44	4611
2026-01-26 18:26:23.01	157.06	27.20	-36.6	-38.4	23.5	0.00e+00	0	61	0	272629760	44	4494
2026-01-26 18:26:24.02	156.50	27.10	-36.4	-38.2	23.7	0.00e+00	0	60	0	273678336	44	4392
2026-01-26 18:26:25.03	155.95	27.00	-36.3	-38.1	23.7	0.00e+00	0	60	0	274726912	44	4360
2026-01-26 18:26:26.04	155.39	26.90	-36.2	-37.9	24.0	0.00e+00	0	60	0	276299776	44	4265
2026-01-26 18:26:27.05	154.85	26.80	-36.6	-38.4	23.5	0.00e+00	0	60	0	277348352	44	4541
2026-01-26 18:26:28.06	154.30	26.69	-37.0	-38.9	22.9	0.00e+00	0	60	0	278396928	44	4811
2026-01-26 18:26:29.07	153.77	26.59	-37.5	-39.5	22.4	0.00e+00	0	61	0	279445504	45	4860
2026-01-26 18:26:30.08	153.23	26.48	-37.7	-39.7	22.2	0.00e+00	0	60	0	280494080	45	4970
2026-01-26 18:26:31.09	152.70	26.37	-37.3	-39.2	22.7	0.00e+00	0	60	0	282066944	45	4681
2026-01-26 18:26:32.10	152.17	26.26	-37.1	-39.0	22.9	0.00e+00	0	60	0	283115520	45	4558
2026-01-26 18:26:33.11	151.65	26.15	-36.9	-38.8	23.1	0.00e+00	0	60	0	284164096	45	4447
2026-01-26 18:26:34.12	151.13	26.03	-37.0	-38.9	23.0	0.00e+00	0	60	0	285212672	45	4514
2026-01-26 18:26:35.13	150.62	25.91	-37.2	-39.2	22.8	0.00e+00	0	60	0	286261248	45	4652
2026-01-26 18:26:36.15	150.10	25.79	-37.2	-39.2	22.8	0.00e+00	0	60	0	287309824	45	4664
2026-01-26 18:26:37.15	149.61	25.68	-37.3	-39.3	22.7	0.00e+00	0	60	0	288882688	45	4717
2026-01-26 18:26:38.16	149.10	25.55	-37.5	-39.5	22.4	0.00e+00	0	61	0	289931264	45	4845
2026-01-26 18:26:39.17	148.61	25.43	-37.6	-39.6	22.3	0.00e+00	0	60	0	290979840	45	4893
2026-01-26 18:26:40.18	148.12	25.31	-37.6	-39.7	22.3	0.00e+00	0	61	0	292028416	45	4936
2026-01-26 18:26:41.19	147.63	25.18	-37.5	-39.5	22.4	0.00e+00	0	60	0	293076992	45	4834
2026-01-26 18:26:42.20	147.15	25.06	-37.5	-39.5	22.4	0.00e+00	0	60	0	294125568	45	4869
2026-01-26 18:26:43.21	146.67	24.93	-37.5	-39.5	22.4	0.00e+00	0	60	0	295698432	45	4836
2026-01-26 18:26:44.22	146.20	24.80	-37.5	-39.5	22.4	0.00e+00	0	60	0	296747008	45	4847
2026-01-26 18:26:45.23	145.73	24.67	-37.6	-39.6	22.3	0.00e+00	0	60	0	297795584	45	4908
2026-01-26 18:26:46.24	145.26	24.54	-37.6	-39.6	22.3	0.00e+00	0	60	0	298844160	45	4891
2026-01-26 18:26:47.25	144.80	24.41	-37.6	-39.6	22.3	0.00e+00	0	61	0	299892736	45	4886
2026-01-26 18:26:48.26	144.35	24.28	-37.4	-39.4	22.5	0.00e+00	0	61	0	300941312	45	4800
2026-01-26 18:26:49.27	143.89	24.15	-37.3	-39.3	22.6	0.00e+00	0	61	0	301989888	45	4709
2026-01-26 18:26:50.28	143.45	24.01	-37.2	-39.2	22.7	0.00e+00	0	60	0	303562752	45	4671
2026-01-26 18:26:51.29	143.01	23.88	-37.1	-39.0	22.8	0.00e+00	0	60	0	304611328	45	4575
2026-01-26 18:26:52.30	142.57	23.74	-37.2	-39.1	22.7	0.00e+00	0	61	0	305659904	45	4618
2026-01-26 18:26:53.31	142.13	23.61	-37.5	-39.5	22.3	0.00e+00	0	60	0	306708480	45	4846
2026-01-26 18:26:54.32	141.70	23.47	-37.9	-40.0	21.8	0.00e+00	0	60	0	307757056	46	4842
2026-01-26 18:26:55.33	141.28	23.33	-37.9	-40.0	21.8	0.00e+00	0	60	0	308805632	46	4829
2026-01-26 18:26:56.34	140.86	23.20	-37.7	-39.8	21.9	0.00e+00	0	61	0	310378496	46	4751
2026-01-26 18:26:57.35	140.44	23.06	-37.7	-39.7	22.0	0.00e+00	0	61	0	311427072	46	4697
2026-01-26 18:26:58.36	140.03	22.92	-37.6	-39.6	22.2	0.00e+00	0	61	0	312475648	46	4636
2026-01-26 18:26:59.37	139.62	22.78	-37.6	-39.6	22.2	0.00e+00	0	61	0	313524224	46	4628
2026-01-26 18:27:00.38	139.22	22.64	-37.5	-39.5	22.3	0.00e+00	0	60	0	314572800	46	4597
2026-01-26 18:27:01.38	138.83	22.51	-37.6	-39.7	22.2	0.00e+00	0	61	0	315621376	46	4664
2026-01-26 18:27:02.39	138.43	22.37	-37.7	-39.8	22.0	0.00e+00	0	60	0	317194240	46	4751
2026-01-26 18:27:03.41	138.04	22.23	-37.7	-39.8	22.1	0.00e+00	0	61	0	318242816	46	4720
2026-01-26 18:27:04.41	137.65	22.09	-37.9	-40.0	21.9	0.00e+00	0	61	0	319291392	46	4841
2026-01-26 18:27:05.43	137.27	21.95	-37.9	-40.0	21.8	0.00e+00	0	61	0	320339968	46	4870
2026-01-26 18:27:06.43	136.89	21.81	-37.9	-40.1	21.8	0.00e+00	0	61	0	321388544	46	4881
2026-01-26 18:27:07.44	136.52	21.67	-37.9	-40.1	21.8	0.00e+00	0	61	0	322961408	46	4894
2026-01-26 18:27:08.45	136.15	21.53	-37.9	-40.0	21.8	0.00e+00	0	60	0	324009984	46	4854
2026-01-26 18:27:09.46	135.78	21.39	-37.8	-39.9	22.0	0.00e+00	0	61	0	325058560	46	4776
2026-01-26 18:27:10.48	135.42	21.25	-37.9	-40.1	21.8	0.00e+00	0	60	0	326107136	46	4883
2026-01-26 18:27:11.48	135.06	21.11	-38.2	-40.4	21.5	0.00e+00	0	61	0	327155712	46	5067
2026-01-26 18:27:12.49	134.71	20.97	-38.2	-40.5	21.4	0.00e+00	0	61	0	328204288	47	4835
2026-01-26 18:27:13.50	134.36	20.83	-38.2	-40.5	21.4	0.00e+00	0	60	0	329777152	47	4825
2026-01-26 18:27:14.51	134.01	20.69	-38.3	-40.6	21.2	0.00e+00	0	61	0	330825728	47	4900
2026-01-26 18:27:15.52	133.67	20.55	-38.2	-40.4	21.4	0.00e+00	0	61	0	331874304	47	4809
2026-01-26 18:27:16.53	133.33	20.41	-38.0	-40.1	21.7	0.00e+00	0	61	0	332922880	47	4637
2026-01-26 18:27:17.54	132.99	20.27	-38.0	-40.2	21.6	0.00e+00	0	61	0	333971456	47	4678
2026-01-26 18:27:18.55	132.66	20.13	-38.1	-40.4	21.5	0.00e+00	0	61	0	335020032	47	4767
2026-01-26 18:27:19.56	132.33	19.99	-37.8	-40.3	21.5	0.00e+00	0	60	0	336592896	47	4724
2026-01-26 18:27:20.57	132.01	19.85	-38.1	-40.3	21.4	0.00e+00	0	61	0	337641472	46	5037
2026-01-26 18:27:21.58	131.69	19.71	-38.1	-40.4	19.4	0.00e+00	0	61	0	338690048	46	5076
2026-01-26 18:27:22.59	131.37	19.58	-38.2	-40.4	19.9	1.10e-06	0	61	0	339738624	46	5092
2026-01-26 18:27:23.60	131.06	19.44	-38.2	-40.6	20.9	6.80e-06	0	61	0	340787200	47	4924
2026-01-26 18:27:24.61	130.75	19.30	-38.2	-40.2	19.0	6.80e-06	0	61	0	341835776	45	5262
2026-01-26 18:27:25.62	130.44	19.16	-38.4	-40.7	19.6	5.83e-05	0	61	0	342884352	47	4964
2026-01-26 18:27:26.63	130.14	19.03	-36.0	-40.7	17.5	1.60e-04	0	60	0	344457216	45	5556
2026-01-26 18:27:27.64	129.84	18.89	-38.3	-40.7	20.8	1.60e-04	0	60	0	345505792	47	4956
2026-01-26 18:27:28.65	129.54	18.75	-38.2	-40.5	20.2	1.94e-04	0	61	0	346554368	46	5105
2026-01-26 18:27:29.66	129.24	18.62	-38.2	-40.5	20.7	1.35e-04	0	61	0	347602944	47	4848
2026-01-26 18:27:30.67	128.95	18.48	-38.4	-40.7	20.9	1.35e-04	0	61	0	348651520	47	4964
2026-01-26 18:27:31.68	128.67	18.35	-38.2	-40.8	20.4	3.40e-06	0	61	0	349700096	47	5039
2026-01-26 18:27:32.69	128.38	18.21	-38.5	-40.8	20.5	3.40e-06	0	61	0	351272960	47	5031
2026-01-26 18:27:33.70	128.10	18.08	-38.5	-40.8	20.8	3.40e-06	0	61	0	352321536	47	5020
2026-01-26 18:27:34.71	127.82	17.95	-38.4	-40.8	20.4	1.10e-06	0	61	0	353370112	47	5018
2026-01-26 18:27:35.72	127.55	17.81	-38.7	-41.1	20.5	0.00e+00	0	61	0	354418688	47	5218
2026-01-26 18:27:36.73	127.27	17.68	-38.8	-41.4	19.8	0.00e+00	0	61	0	355467264	47	5360
2026-01-26 18:27:37.74	127.01	17.55	-38.6	-41.0	20.6	0.00e+00	0	61	0	357040128	47	5135
2026-01-26 18:27:38.75	126.74	17.42	-38.5	-41.0	20.6	0.00e+00	0	61	0	358088704	47	5137
2026-01-26 18:27:39.75	126.48	17.29	-38.8	-41.3	20.4	0.00e+00	0	61	0	359137280	48	5011
2026-01-26 18:27:40.76	126.22	17.15	-39.0	-41.6	20.0	0.00e+00	0	61	0	360185856	48	5176
2026-01-26 18:27:41.78	125.96	17.02	-38.7	-41.3	20.2	0.00e+00	0	61	0	361234432	48	4988
2026-01-26 18:27:42.79	125.70	16.89	-38.5	-40.8	20.7	0.00e+00	0	61	0	362283008	47	5033
2026-01-26 18:27:43.80	125.45	16.76	-38.7	-41.2	19.3	0.00e+00	0	61	0	363855872	47	5259
2026-01-26 18:27:44.81	125.20	16.64	-39.2	-41.9	19.6	1.10e-06	0	61	0	364904448	48	5345
2026-01-26 18:27:45.82	124.95	16.51	-39.3	-42.0	19.3	0.00e+00	0	61	0	365953024	49	5136
2026-01-26 18:27:46.83	124.71	16.38	-39.1	-41.8	19.7	0.00e+00	0	61	0	367001600	49	4986
2026-01-26 18:27:47.83	124.47	16.25	-37.9	-41.8	18.1	6.80e-06	0	61	0	368050176	47	5635
2026-01-26 18:27:48.85	124.23	16.13	-38.6	-41.7	19.8	2.20e-06	0	61	0	369098752	48	5246
2026-01-26 18:27:49.86	123.99	16.00	-39.0	-41.8	19.5	1.10e-06	0	61	0	370671616	48	5289
2026-01-26 18:27:50.87	123.76	15.87	-35.3	-41.1	19.9	1.10e-06	0	61	0	371720192	46	5526
2026-01-26 18:27:51.87	123.53	15.75	-38.4	-41.3	18.5	3.08e-05	0	61	0	372768768	47	5297
2026-01-26 18:27:52.88	123.30	15.62	-39.0	-41.8	18.9	2.20e-04	0	61	0	373817344	48	5283
2026-01-26 18:27:53.89	123.07	15.50	-36.1	-41.6	19.1	2.20e-04	0	61	0	374865920	45	6199
2026-01-26 18:27:54.90	122.85	15.38	-38.5	-41.7	17.7	7.01e-04	0	61	0	375914496	48	5260
2026-01-26 18:27:55.91	122.63	15.25	-38.4	-41.7	18.9	6.68e-04	0	61	0	377487360	47	5567
2026-01-26 18:27:56.92	122.41	15.13	-39.0	-42.0	18.6	6.68e-04	0	61	0	378535936	47	5766
2026-01-26 18:27:57.93	122.19	15.01	-38.4	-42.4	16.1	4.45e-04	0	61	0	379584512	48	5720
2026-01-26 18:27:58.94	121.98	14.89	-33.7	-42.3	16.6	3.65e-03	0	61	0	380633088	46	6302
2026-01-26 18:27:59.95	121.76	14.77	-35.9	-42.1	16.8	3.65e-03	0	61	0	381681664	45	6502
2026-01-26 18:28:00.96	121.55	14.65	-30.8	-41.5	14.8	3.63e-03	0	61	0	382730240	40	8146
2026-01-26 18:28:01.97	121.34	14.53	-38.4	-42.2	15.6	8.32e-03	0	61	0	383778816	45	6597
2026-01-26 18:28:02.98	121.14	14.41	-38.3	-42.4	15.2	1.88e-02	0	61	0	385351680	46	6365
2026-01-26 18:28:03.99	120.93	14.29	-35.9	-42.2	13.4	1.88e-02	0	61	0	386400256	43	7455
2026-01-26 18:28:05.00	120.73	14.17	-34.1	-42.0	12.7	1.95e-02	0	61	0	387448832	38	9614
2026-01-26 18:28:06.01	120.53	14.05	-36.5	-42.1	12.6	3.10e-02	0	61	0	388497408	41	8260
2026-01-26 18:28:07.02	120.33	13.94	-36.3	-42.7	13.3	3.10e-02	0	61	0	389545984	38	10485
2026-01-26 18:28:08.03	120.14	13.82	-34.7	-42.3	13.3	2.25e-02	0	61	0	390594560	37	10581
2026-01-26 18:28:09.03	119.95	13.71	-35.9	-43.0	12.3	4.18e-02	0	61	0	392167424	42	8617
2026-01-26 18:28:10.04	119.75	13.59	-26.2	-41.3	10.7	4.18e-02	0	61	0	393216000	31	13283
2026-01-26 18:28:11.05	119.56	13.48	-36.4	-42.4	13.0	1.07e-01	0	61	0	394264576	39	9601
2026-01-26 18:28:12.06	119.38	13.36	-35.2	-42.2	11.4	7.95e-02	0	61	0	395313152	35	11803
2026-01-26 18:28:13.07	119.19	13.25	-34.2	-41.9	12.7	7.95e-02	0	61	0	396361728	36	10723
2026-01-26 18:28:14.08	119.01	13.14	-21.1	-40.5	8.8	2.26e-02	0	61	0	397410304	20	22955
2026-01-26 18:28:15.09	118.82	13.02	-32.7	-42.8	12.3	9.40e-02	0	61	0	398458880	41	8869
2026-01-26 18:28:16.10	118.64	12.91	-29.5	-42.0	10.9	9.54e-02	0	61	0	399507456	34	12209
2026-01-26 18:28:17.11	118.46	12.80	-30.9	-42.2	12.2	9.54e-02	0	61	0	400556032	36	11105
2026-01-26 18:28:18.12	118.29	12.69	-30.6	-42.1	9.6	4.57e-02	0	61	0	401604608	32	13883
2026-01-26 18:28:19.13	118.11	12.58	-34.7	-42.9	11.7	7.28e-02	0	61	0	402653184	38	10660
2026-01-26 18:28:20.14	117.94	12.47	-32.3	-42.9	10.9	7.28e-02	0	61	0	404226048	36	12009
2026-01-26 18:28:21.15	117.77	12.36	-32.7	-42.7	13.7	6.94e-02	0	61	0	405274624	40	9293
2026-01-26 18:28:22.16	117.60	12.25	-29.3	-41.6	8.8	3.26e-02	0	61	0	406323200	29	15470
2026-01-26 18:28:23.16	117.43	12.14	-36.1	-43.1	12.9	3.26e-02	0	61	0	407371776	40	9735
2026-01-26 18:28:24.18	117.26	12.03	-29.1	-41.8	10.9	7.97e-02	0	61	0	408420352	34	11880
2026-01-26 18:28:25.19	117.10	11.93	-34.4	-42.8	11.8	8.85e-02	0	61	0	409468928	37	11248
2026-01-26 18:28:26.19	116.93	11.82	-32.2	-43.7	6.1	1.56e-01	0	61	0	410517504	31	17631
2026-01-26 18:28:27.20	116.77	11.72	-33.9	-42.9	10.2	1.56e-01	0	61	0	411566080	34	13480
2026-01-26 18:28:28.21	116.61	11.61	-34.2	-43.1	11.6	1.47e-01	0	61	0	412614656	38	10937
2026-01-26 18:28:29.22	116.45	11.50	-34.4	-43.0	11.3	9.33e-02	0	61	0	413663232	37	11490
2026-01-26 18:28:30.23	116.29	11.40	-23.4	-40.5	4.9	9.33e-02	0	61	0	414711808	19	24296
2026-01-26 18:28:31.24	116.14	11.30	-32.5	-43.6	8.1	3.56e-01	0	61	0	415236096	34	14647
2026-01-26 18:28:32.25	115.98	11.19	-31.7	-43.0	7.6	2.33e-01	0	61	0	416284672	30	17131
2026-01-26 18:28:33.26	115.83	11.09	-26.5	-43.0	7.7	2.33e-01	0	61	0	417333248	30	17243
2026-01-26 18:28:34.27	115.68	10.99	-24.5	-42.2	4.7	3.49e-01	0	61	0	417333248	20	27739
2026-01-26 18:28:35.28	115.53	10.88	-30.1	-43.1	6.4	6.63e-01	0	61	0	417857536	26	21783
2026-01-26 18:28:36.29	115.38	10.78	-26.0	-41.9	5.7	6.63e-01	0	61	0	417857536	23	22664
2026-01-26 18:28:37.30	115.23	10.68	-27.1	-41.9	4.6	6.85e-01	0	61	104	418381824	18	30060
2026-01-26 18:28:38.31	115.09	10.58	-20.7	-42.7	4.1	7.33e-01	0	61	104	418381824	18	33039
2026-01-26 18:28:39.32	114.94	10.48	-20.9	-40.8	5.8	6.98e-01	0	61	0	418381824	21	22420
2026-01-26 18:28:40.33	114.80	10.38	-24.7	-42.0	7.1	6.98e-01	0	61	0	418906112	26	19326
2026-01-26 18:28:41.34	114.66	10.28	-32.7	-50.3	4.0	5.45e-01	0	61	104	418906112	35	29841
2026-01-26 18:28:42.35	114.52	10.18	-24.7	-48.6	4.4	8.21e-01	0	61	104	418906112	34	26104
2026-01-26 18:28:43.36	114.38	10.08	-19.7	-43.1	4.0	8.21e-01	0	61	104	418906112	13	46067
2026-01-26 18:28:44.36	114.24	9.99	-24.9	-46.0	3.7	8.09e-01	0	61	104	418906112	14	60988
2026-01-26 18:28:45.38	114.10	9.89	-25.1	-46.0	3.8	8.37e-01	0	61	104	418906112	20	43091
2026-01-26 18:28:46.38	113.97	9.79	-20.1	-45.3	3.6	8.37e-01	0	61	104	418906112	14	56256
2026-01-26 18:28:47.39	113.83	9.69	-24.2	-45.0	3.9	8.39e-01	0	61	104	418906112	18	43004
2026-01-26 18:28:48.41	113.70	9.60	-25.0	-45.3	4.0	8.33e-01	0	61	104	418906112	20	39848
2026-01-26 18:28:49.41	113.57	9.50	-27.2	-47.6	4.3	8.33e-01	0	61	104	418906112	25	39091
2026-01-26 18:28:50.42	113.44	9.41	-20.4	-43.7	3.7	8.33e-01	0	61	104	418906112	16	41715
2026-01-26 18:28:51.44	113.31	9.31	-24.1	-44.6	4.2	8.38e-01	0	61	104	418906112	19	39039
2026-01-26 18:28:52.45	113.18	9.22	-22.1	-45.6	3.9	8.36e-01	0	61	104	418906112	19	43617
2026-01-26 18:28:53.46	113.05	9.12	-24.9	-45.1	4.0	8.36e-01	0	61	104	418906112	18	43758
2026-01-26 18:28:54.47	112.93	9.03	-18.1	-41.0	3.8	8.36e-01	0	61	104	418906112	11	40541
2026-01-26 18:28:55.48	112.80	8.94	-26.5	-47.4	3.5	8.38e-01	0	61	104	418906112	21	48029
2026-01-26 18:28:56.49	112.68	8.84	-19.6	-41.0	5.7	8.38e-01	0	61	0	418906112	20	24229
2026-01-26 18:28:57.49	112.55	8.75	-25.1	-46.4	4.3	7.35e-01	0	61	104	418906112	20	45423
2026-01-26 18:28:58.51	112.43	8.66	-25.1	-42.4	6.5	8.34e-01	0	61	104	418906112	24	22738
2026-01-26 18:28:59.52	112.31	8.57	-22.3	-44.8	3.4	8.34e-01	0	61	104	418906112	14	52865
2026-01-26 18:29:00.53	112.19	8.48	-27.2	-42.9	5.1	8.03e-01	0	61	104	418906112	19	31828
2026-01-26 18:29:01.54	112.07	8.39	-26.0	-43.7	6.0	7.18e-01	0	61	0	418906112	26	23564
2026-01-26 18:29:02.55	111.96	8.30	-22.1	-42.4	5.2	7.18e-01	0	61	104	418906112	20	28572
2026-01-26 18:29:03.56	111.84	8.21	-27.7	-43.9	6.0	6.73e-01	0	61	0	418906112	26	23997
2026-01-26 18:29:04.57	111.72	8.12	-28.6	-44.8	5.9	6.11e-01	0	61	0	418906112	27	25191
2026-01-26 18:29:05.58	111.61	8.03	-27.3	-47.7	7.7	5.76e-01	0	61	0	419430400	33	24907
2026-01-26 18:29:06.59	111.50	7.94	-40.1	-60.7	3.7	5.76e-01	0	61	104	419430400	50	41640
2026-01-26 18:29:07.60	111.38	7.85	-44.6	-62.7	3.8	7.94e-01	0	61	104	419430400	59	31428
2026-01-26 18:29:08.61	111.27	7.76	-44.7	-62.9	3.8	8.46e-01	0	61	104	419430400	60	30316
2026-01-26 18:29:09.62	111.16	7.68	-44.9	-63.1	3.8	8.46e-01	0	61	104	419430400	60	30993
2026-01-26 18:29:10.63	111.05	7.59	-45.0	-63.3	3.8	8.46e-01	0	61	104	419430400	60	31610
2026-01-26 18:29:11.64	110.94	7.50	-45.2	-63.5	3.8	8.47e-01	0	61	104	419430400	60	32251
2026-01-26 18:29:12.66	110.83	7.42	-45.3	-63.6	3.8	8.47e-01	0	61	104	419430400	61	31020
2026-01-26 18:29:13.67	110.73	7.33	-45.4	-63.7	3.8	8.45e-01	0	61	104	419430400	61	31263
2026-01-26 18:29:14.68	110.62	7.24	-45.4	-63.7	3.8	8.46e-01	0	61	104	419430400	61	31363
2026-01-26 18:29:15.69	110.51	7.16	-45.3	-63.6	3.8	8.45e-01	0	61	104	419430400	61	31043
2026-01-26 18:29:16.70	110.41	7.07	-45.2	-63.5	3.8	8.45e-01	0	61	104	419430400	61	30581
2026-01-26 18:29:17.71	110.31	6.99	-45.2	-63.4	3.8	8.47e-01	0	61	104	419430400	61	30116
2026-01-26 18:29:18.72	110.20	6.90	-45.1	-63.3	3.8	8.46e-01	0	61	104	419430400	61	29874
2026-01-26 18:29:19.73	110.10	6.82	-45.1	-63.2	3.8	8.46e-01	0	61	104	419430400	61	29483
2026-01-26 18:29:20.74	110.00	6.74	-45.0	-63.2	3.8	8.47e-01	0	61	104	419430400	61	29379
2026-01-26 18:29:21.75	109.90	6.65	-44.9	-63.1	3.8	8.44e-01	0	61	104	419430400	61	29039
2026-01-26 18:29:22.76	109.80	6.57	-44.9	-63.0	3.8	8.44e-01	0	61	104	419430400	60	30598
2026-01-26 18:29:23.77	109.70	6.49	-44.9	-63.0	3.8	8.47e-01	0	61	104	419430400	60	30555
2026-01-26 18:29:24.78	109.61	6.41	-44.9	-63.0	3.8	8.47e-01	0	61	104	419430400	60	30472
2026-01-26 18:29:25.79	109.51	6.33	-44.9	-63.0	3.8	8.47e-01	0	61	104	419430400	60	30446
2026-01-26 18:29:26.80	109.41	6.24	-44.9	-63.0	3.8	8.47e-01	0	61	104	419430400	60	30487
2026-01-26 18:29:27.82	109.32	6.16	-44.9	-63.0	3.8	8.47e-01	0	61	104	419430400	60	30505
2026-01-26 18:29:28.82	109.22	6.08	-44.9	-63.0	3.8	8.47e-01	0	61	104	419430400	60	30495
2026-01-26 18:29:29.83	109.13	6.00	-44.9	-63.0	3.8	8.46e-01	0	61	104	419430400	60	30423
2026-01-26 18:29:30.84	109.03	5.92	-44.9	-62.9	3.8	8.47e-01	0	61	104	419430400	60	30364
2026-01-26 18:29:31.86	108.94	5.84	-44.9	-62.9	3.8	8.47e-01	0	61	104	419430400	60	30323
2026-01-26 18:29:32.87	108.85	5.76	-44.8	-62.9	3.8	8.47e-01	0	61	104	419430400	60	30365
2026-01-26 18:29:33.88	108.76	5.68	-44.8	-62.9	3.8	8.46e-01	0	61	104	419430400	60	30379
2026-01-26 18:29:34.89	108.67	5.60	-44.8	-62.9	3.8	8.45e-01	0	61	104	419430400	60	30334
2026-01-26 18:29:35.89	108.58	5.53	-44.9	-63.0	3.8	8.45e-01	0	61	104	419430400	60	30394
2026-01-26 18:29:36.90	108.49	5.45	-44.9	-62.9	3.8	8.46e-01	0	61	104	419430400	60	30297
2026-01-26 18:29:37.91	108.40	5.37	-44.8	-63.0	3.8	8.47e-01	0	61	104	419430400	60	30401
2026-01-26 18:29:38.92	108.32	5.29	-44.8	-62.9	3.8	8.47e-01	0	61	104	419430400	60	30356
2026-01-26 18:29:39.93	108.23	5.22	-44.8	-62.9	3.8	8.47e-01	0	61	104	419430400	60	30329
2026-01-26 18:29:40.94	108.14	5.14	-44.8	-63.0	3.8	8.46e-01	0	61	104	419430400	60	30525
2026-01-26 18:29:41.95	108.06	5.06	-44.8	-62.9	3.8	8.45e-01	0	61	104	419430400	60	30282
2026-01-26 18:29:42.96	107.97	4.98	-44.8	-62.9	3.8	8.45e-01	0	61	104	419430400	60	30327
2026-01-26 18:29:43.98	107.89	4.91	-44.8	-62.9	3.8	8.47e-01	0	61	104	419430400	60	30368
2026-01-26 18:29:44.99	107.80	4.83	-44.8	-62.9	3.8	8.45e-01	0	61	104	419430400	60	30282
2026-01-26 18:29:46.00	107.72	4.76	-44.8	-62.9	3.8	8.45e-01	0	61	104	419430400	60	30258
2026-01-26 18:29:47.01	107.64	4.68	-44.8	-62.9	3.8	8.46e-01	0	61	104	419430400	60	30259
2026-01-26 18:29:48.02	107.56	4.61	-44.8	-62.9	3.8	8.45e-01	0	61	104	419430400	60	30170
2026-01-26 18:29:49.03	107.47	4.53	-44.8	-62.9	3.8	8.45e-01	0	61	104	419430400	60	30171
2026-01-26 18:29:50.04	107.39	4.46	-44.8	-62.9	3.8	8.46e-01	0	61	104	419430400	60	30080
2026-01-26 18:29:51.05	107.31	4.38	-43.3	-62.4	3.8	8.45e-01	0	61	104	419430400	59	30186
2026-01-26 18:29:52.06	107.24	4.31	-44.6	-63.0	3.8	8.45e-01	0	61	104	419430400	60	30602
2026-01-26 18:29:53.07	107.16	4.24	-43.6	-62.6	3.8	8.45e-01	0	61	104	419430400	58	32818
2026-01-26 18:29:54.08	107.08	4.16	-44.5	-63.3	3.8	8.47e-01	0	61	104	419430400	59	33678
2026-01-26 18:29:55.09	107.00	4.09	-43.4	-62.7	3.8	8.46e-01	0	61	104	419430400	59	31264
2026-01-26 18:29:56.10	106.92	4.02	-44.9	-63.3	3.8	8.46e-01	0	61	104	419430400	59	33546
2026-01-26 18:29:57.11	106.85	3.94	-44.1	-62.9	3.9	8.46e-01	0	61	104	419430400	59	31954
2026-01-26 18:29:58.12	106.77	3.87	-43.8	-62.7	3.8	8.46e-01	0	61	104	419430400	59	31414
2026-01-26 18:29:59.13	106.70	3.80	-43.8	-62.6	3.7	8.46e-01	0	61	104	419430400	58	32712
2026-01-26 18:30:00.14	106.62	3.73	-44.2	-63.3	3.7	8.45e-01	0	61	104	419430400	59	33408
2026-01-26 18:30:01.15	106.55	3.66	-44.8	-63.4	3.7	8.45e-01	0	61	104	419430400	60	31884
2026-01-26 18:30:02.17	106.47	3.58	-44.8	-62.9	3.8	8.45e-01	0	61	104	419430400	60	30200
2026-01-26 18:30:03.17	106.40	3.51	-44.4	-63.0	3.8	8.46e-01	0	61	104	419430400	60	30563
2026-01-26 18:30:04.18	106.33	3.44	-44.6	-62.9	3.8	8.46e-01	0	61	104	419430400	60	30135
2026-01-26 18:30:05.19	106.26	3.37	-42.9	-62.3	3.9	8.46e-01	0	62	104	419430400	58	31588
2026-01-26 18:30:06.20	106.18	3.30	-44.2	-62.9	3.8	8.46e-01	0	61	104	419430400	60	30231
2026-01-26 18:30:07.21	106.11	3.23	-44.8	-62.9	3.8	8.46e-01	0	61	104	419430400	60	30216
2026-01-26 18:30:08.22	106.04	3.16	-44.8	-62.9	3.8	8.45e-01	0	61	104	419430400	60	30232
2026-01-26 18:30:09.23	105.97	3.09	-44.8	-62.9	3.8	8.45e-01	0	61	104	419430400	60	30265
2026-01-26 18:30:10.25	105.90	3.02	-44.7	-62.9	3.8	8.47e-01	0	61	104	419430400	60	30149
2026-01-26 18:30:11.26	105.83	2.95	-44.7	-62.9	3.8	8.45e-01	0	61	104	419430400	60	30192
2026-01-26 18:30:12.27	105.76	2.88	-44.8	-62.9	3.8	8.45e-01	0	61	104	419430400	60	30284
2026-01-26 18:30:13.28	105.70	2.81	-44.8	-62.9	3.8	8.44e-01	0	61	104	419430400	60	30206
2026-01-26 18:30:14.29	105.63	2.75	-44.7	-62.9	3.8	8.47e-01	0	61	104	419430400	60	30219
2026-01-26 18:30:15.30	105.56	2.68	-44.9	-62.9	3.8	8.47e-01	0	61	104	419430400	60	30320
2026-01-26 18:30:16.31	105.49	2.61	-44.8	-62.9	3.8	8.47e-01	0	61	104	419430400	60	30231
2026-01-26 18:30:17.32	105.43	2.54	-44.8	-62.9	3.8	8.46e-01	0	61	104	419430400	60	30226
2026-01-26 18:30:18.33	105.36	2.47	-44.8	-62.9	3.8	8.46e-01	0	61	104	419430400	60	30243
2026-01-26 18:30:19.34	105.30	2.41	-44.8	-62.9	3.8	8.46e-01	0	61	104	419430400	60	30217
2026-01-26 18:30:20.35	105.23	2.34	-44.8	-62.9	3.8	8.46e-01	0	61	104	419430400	60	30268
2026-01-26 18:30:21.36	105.17	2.27	-44.8	-62.9	3.8	8.46e-01	0	61	104	419430400	60	30220
2026-01-26 18:30:22.37	105.10	2.21	-44.8	-62.9	3.8	8.46e-01	0	61	104	419430400	60	30276
2026-01-26 18:30:23.38	105.04	2.14	-44.8	-62.9	3.8	8.45e-01	0	61	104	419430400	60	30229
2026-01-26 18:30:24.39	104.98	2.07	-44.8	-62.9	3.8	8.46e-01	0	61	104	419430400	60	30179
2026-01-26 18:30:25.40	104.91	2.01	-44.8	-62.9	3.8	8.46e-01	0	61	104	419430400	60	30185

#Closed at: 2026-01-26 18:30:25
#Recorded file [419 MB]: D:/lorett/data/31039_260126_212117.dat