passes_logs/2026/01/20/R2M6_AANII_01/R2M6_AANII_01__20260120_014217_NOAA_20_JPSS-1_rec.log

#Pass ID: 20260120_014217_NOAA 20 (JPSS-1)
#Satellite: NOAA 20 (JPSS-1)
#Configuration: NOAA 20
#almurnet v.1.7.20240730
#Start time: 2026-01-20 01:42:19

#Version: 2.2.20231116
#Station: R2M6_AANII_01
#Location: 30.233357 lon 59.946436 lat
#TLE: 1 43013U 17073A   26019.27717929  .00000087  00000+0  62288-4 0  9995
#TLE: 2 43013  98.7641 320.1715 0001339  33.1986 326.9274 14.19537047423343

#Time	Az	El	Level	Level2	SNR	BER	BlckErr	Temp	State	Recorded	gain1	gain2
2026-01-20 01:42:19.46	12.15	7.14	-32.1	-38.8	4.9	1.28e+00	0	42	0	0	24	7737
2026-01-20 01:42:20.46	12.09	7.21	-32.1	-38.7	4.9	1.28e+00	0	42	104	0	24	7683
2026-01-20 01:42:21.46	12.02	7.29	-32.2	-38.8	7.4	1.03e-01	0	42	0	0	24	7693
2026-01-20 01:42:22.46	11.95	7.36	-32.2	-38.7	7.5	1.22e-01	0	42	0	1048576	24	7651
2026-01-20 01:42:23.46	11.88	7.43	-32.1	-38.4	7.8	1.06e-01	0	42	0	3145728	24	7407
2026-01-20 01:42:24.46	11.82	7.50	-32.2	-38.5	7.7	9.04e-02	0	42	0	5242880	24	7500
2026-01-20 01:42:25.46	11.75	7.57	-32.1	-38.4	7.8	8.53e-02	0	42	0	7340032	24	7423
2026-01-20 01:42:26.46	11.68	7.64	-32.1	-38.0	8.1	8.47e-02	0	42	0	9437184	24	7172
2026-01-20 01:42:27.47	11.61	7.71	-31.9	-37.6	8.8	4.53e-02	0	42	0	10485760	23	7001
2026-01-20 01:42:28.47	11.54	7.79	-31.8	-37.2	9.2	2.23e-02	0	42	0	12582912	23	6743
2026-01-20 01:42:29.47	11.47	7.86	-31.6	-36.5	9.8	1.34e-02	0	42	0	14680064	23	6322
2026-01-20 01:42:30.47	11.40	7.93	-31.4	-36.5	10.2	9.68e-03	0	42	0	16777216	22	6411
2026-01-20 01:42:31.47	11.33	8.00	-31.4	-36.4	10.3	4.94e-03	0	42	0	17825792	22	6380
2026-01-20 01:42:32.47	11.26	8.08	-31.5	-36.0	10.2	9.71e-03	0	42	0	19922944	23	6062
2026-01-20 01:42:33.47	11.19	8.15	-31.5	-36.1	10.2	8.96e-03	0	42	0	22020096	23	6131
2026-01-20 01:42:34.47	11.12	8.22	-31.5	-36.5	10.3	7.05e-03	0	42	0	24117248	22	6421
2026-01-20 01:42:35.48	11.05	8.29	-31.6	-36.3	10.0	5.26e-03	0	42	0	26214400	23	6223
2026-01-20 01:42:36.48	10.98	8.37	-31.5	-36.2	10.1	1.06e-02	0	42	0	27262976	23	6183
2026-01-20 01:42:37.48	10.90	8.44	-31.5	-36.0	10.2	6.88e-03	0	42	0	29360128	23	6086
2026-01-20 01:42:38.48	10.83	8.51	-31.3	-36.0	10.6	6.65e-03	0	42	0	31457280	22	6192
2026-01-20 01:42:39.48	10.76	8.59	-31.4	-36.3	10.4	6.60e-03	0	43	0	33554432	22	6293
2026-01-20 01:42:40.49	10.68	8.66	-31.3	-35.8	10.8	4.13e-03	0	42	0	35651584	22	6059
2026-01-20 01:42:41.50	10.61	8.74	-31.3	-35.7	10.9	4.98e-03	0	42	0	36700160	22	6029
2026-01-20 01:42:42.50	10.53	8.81	-31.2	-35.5	11.0	2.44e-03	0	43	0	38797312	22	5925
2026-01-20 01:42:43.49	10.46	8.89	-31.2	-35.7	10.9	2.24e-03	0	43	0	40894464	22	5986
2026-01-20 01:42:44.50	10.39	8.96	-31.3	-35.9	10.8	5.53e-03	0	43	0	42991616	22	6101
2026-01-20 01:42:45.50	10.31	9.04	-31.2	-35.4	11.2	4.41e-03	0	43	0	45088768	22	5839
2026-01-20 01:42:46.50	10.23	9.11	-31.3	-35.7	11.0	2.32e-03	0	43	0	46137344	22	5997
2026-01-20 01:42:47.49	10.16	9.18	-31.2	-35.5	11.1	4.18e-03	0	43	0	48234496	22	5915
2026-01-20 01:42:48.49	10.08	9.26	-31.2	-35.6	11.0	3.96e-03	0	43	0	50331648	22	5935
2026-01-20 01:42:49.49	10.00	9.34	-31.3	-35.8	10.9	1.99e-03	0	43	0	52428800	22	6031
2026-01-20 01:42:50.49	9.93	9.41	-31.2	-35.4	11.2	3.73e-03	0	43	0	53477376	22	5875
2026-01-20 01:42:51.49	9.85	9.49	-31.3	-35.7	10.9	4.49e-03	0	43	0	55574528	22	6021
2026-01-20 01:42:52.50	9.77	9.56	-31.3	-35.8	10.9	2.76e-03	0	43	0	57671680	22	6024
2026-01-20 01:42:53.50	9.69	9.64	-31.2	-35.4	11.2	3.94e-03	0	43	0	59768832	22	5852
2026-01-20 01:42:54.50	9.61	9.72	-31.2	-35.3	11.3	3.71e-03	0	43	0	61865984	22	5819
2026-01-20 01:42:55.50	9.53	9.79	-31.2	-35.3	11.3	1.81e-03	0	43	0	62914560	22	5827
2026-01-20 01:42:56.51	9.45	9.87	-31.2	-35.4	11.2	3.74e-03	0	43	0	65011712	22	5860
2026-01-20 01:42:57.51	9.37	9.95	-31.2	-35.6	11.1	4.22e-03	0	43	0	67108864	22	5927
2026-01-20 01:42:58.52	9.29	10.02	-31.2	-35.4	11.3	1.65e-03	0	43	0	69206016	22	5839
2026-01-20 01:42:59.52	9.21	10.10	-31.2	-35.4	11.3	3.29e-03	0	43	0	71303168	22	5822
2026-01-20 01:43:00.52	9.12	10.18	-31.2	-35.4	11.3	3.81e-03	0	43	0	72351744	22	5825
2026-01-20 01:43:01.52	9.04	10.26	-31.1	-35.2	11.4	1.81e-03	0	43	0	74448896	22	5755
2026-01-20 01:43:02.52	8.96	10.33	-31.2	-35.5	11.2	3.52e-03	0	43	0	76546048	22	5909
2026-01-20 01:43:03.52	8.88	10.41	-31.2	-35.6	11.2	1.41e-03	0	43	0	78643200	22	5916
2026-01-20 01:43:04.53	8.79	10.49	-31.2	-35.4	11.3	1.62e-03	0	43	0	80740352	22	5814
2026-01-20 01:43:05.53	8.71	10.57	-31.2	-35.4	11.3	3.82e-03	0	43	0	81788928	22	5824
2026-01-20 01:43:06.53	8.62	10.65	-31.3	-35.7	11.0	1.71e-03	0	43	0	83886080	22	5998
2026-01-20 01:43:07.53	8.54	10.73	-31.3	-35.6	11.1	1.46e-03	0	43	0	85983232	22	5945
2026-01-20 01:43:08.53	8.45	10.81	-31.3	-35.5	11.2	3.50e-03	0	43	0	88080384	22	5883
2026-01-20 01:43:09.53	8.37	10.89	-31.3	-35.8	11.1	3.89e-03	0	43	0	90177536	22	6008
2026-01-20 01:43:10.53	8.28	10.96	-31.4	-36.0	10.9	2.77e-03	0	43	0	91226112	22	6105
2026-01-20 01:43:11.54	8.19	11.04	-31.2	-35.5	11.3	3.86e-03	0	43	0	93323264	22	5874
2026-01-20 01:43:12.54	8.10	11.12	-31.2	-35.3	11.4	3.60e-03	0	43	0	95420416	22	5796
2026-01-20 01:43:13.54	8.01	11.20	-31.2	-35.3	11.5	8.43e-04	0	43	0	97517568	22	5750
2026-01-20 01:43:14.55	7.93	11.28	-31.2	-35.2	11.5	8.01e-04	0	43	0	98566144	22	5751
2026-01-20 01:43:15.56	7.83	11.37	-31.2	-35.3	11.5	3.05e-03	0	43	0	100663296	22	5782
2026-01-20 01:43:16.56	7.75	11.45	-31.2	-35.4	11.4	1.52e-03	0	43	0	102760448	22	5801
2026-01-20 01:43:17.57	7.65	11.53	-31.1	-35.0	11.7	6.67e-04	0	43	0	104857600	22	5632
2026-01-20 01:43:18.57	7.56	11.61	-31.1	-35.0	11.7	6.30e-04	0	43	0	106954752	22	5655
2026-01-20 01:43:19.57	7.47	11.69	-31.1	-35.0	11.7	8.41e-04	0	43	0	108003328	22	5653
2026-01-20 01:43:20.57	7.38	11.77	-31.1	-34.9	11.8	5.25e-04	0	43	0	110100480	22	5600
2026-01-20 01:43:21.57	7.29	11.85	-31.1	-35.1	11.7	6.15e-04	0	43	0	112197632	22	5673
2026-01-20 01:43:22.57	7.20	11.93	-31.2	-35.2	11.6	7.48e-04	0	43	0	114294784	22	5736
2026-01-20 01:43:23.57	7.10	12.02	-31.1	-35.2	11.6	7.40e-04	0	43	0	116391936	22	5708
2026-01-20 01:43:24.58	7.01	12.10	-31.1	-34.9	11.8	5.03e-04	0	43	0	117440512	22	5580
2026-01-20 01:43:25.58	6.91	12.18	-31.0	-34.5	12.1	3.65e-04	0	43	0	119537664	22	5415
2026-01-20 01:43:26.57	6.82	12.26	-30.9	-35.0	12.1	2.31e-03	0	44	0	121634816	21	5735
2026-01-20 01:43:27.57	6.72	12.34	-30.9	-35.0	12.1	2.60e-04	0	44	0	123731968	21	5747
2026-01-20 01:43:28.57	6.63	12.43	-31.0	-35.1	12.0	2.39e-04	0	43	0	125829120	21	5784
2026-01-20 01:43:29.57	6.53	12.51	-30.9	-34.4	12.2	2.68e-03	0	43	0	126877696	22	5357
2026-01-20 01:43:30.57	6.43	12.59	-30.8	-34.6	12.4	1.56e-04	0	43	0	128974848	21	5565
2026-01-20 01:43:31.58	6.33	12.68	-30.8	-34.4	12.5	1.51e-04	0	44	0	131072000	21	5500
2026-01-20 01:43:32.58	6.24	12.76	-30.8	-34.5	12.4	1.27e-04	0	43	0	133169152	21	5514
2026-01-20 01:43:33.58	6.14	12.85	-30.8	-34.5	12.4	2.33e-03	0	43	0	135266304	21	5536
2026-01-20 01:43:34.59	6.04	12.93	-30.9	-34.7	12.3	1.40e-04	0	44	0	136314880	21	5611
2026-01-20 01:43:35.59	5.94	13.01	-30.9	-34.7	12.3	1.72e-04	0	43	0	138412032	21	5612
2026-01-20 01:43:36.59	5.83	13.10	-30.9	-34.7	12.3	1.69e-04	0	44	0	140509184	21	5617
2026-01-20 01:43:37.59	5.73	13.18	-30.9	-34.8	12.3	1.75e-04	0	44	0	142606336	21	5630
2026-01-20 01:43:38.60	5.63	13.27	-30.8	-34.7	12.3	1.69e-04	0	43	0	143654912	21	5597
2026-01-20 01:43:39.60	5.53	13.35	-30.9	-34.9	12.1	1.44e-04	0	44	0	145752064	21	5712
2026-01-20 01:43:40.60	5.42	13.44	-30.9	-34.4	12.2	5.31e-04	0	44	0	147849216	22	5376
2026-01-20 01:43:41.60	5.32	13.52	-30.9	-34.9	12.2	2.33e-04	0	43	0	149946368	21	5675
2026-01-20 01:43:42.61	5.22	13.61	-31.0	-35.0	12.2	1.98e-04	0	43	0	152043520	21	5731
2026-01-20 01:43:43.61	5.11	13.70	-31.1	-34.8	12.0	2.75e-04	0	44	0	153092096	22	5525
2026-01-20 01:43:44.61	5.00	13.78	-31.0	-34.6	12.1	3.55e-04	0	44	0	155189248	22	5454
2026-01-20 01:43:45.62	4.90	13.87	-31.0	-34.7	12.0	2.63e-04	0	44	0	157286400	22	5502
2026-01-20 01:43:46.62	4.79	13.96	-31.2	-35.2	11.7	4.41e-04	0	43	0	159383552	22	5716
2026-01-20 01:43:47.62	4.68	14.04	-31.1	-35.0	11.9	4.98e-04	0	44	0	161480704	22	5600
2026-01-20 01:43:48.63	4.57	14.13	-31.2	-35.2	11.7	3.71e-04	0	44	0	162529280	22	5713
2026-01-20 01:43:49.63	4.46	14.22	-31.2	-35.2	11.8	7.21e-04	0	44	0	164626432	22	5683
2026-01-20 01:43:50.64	4.35	14.31	-31.0	-34.7	12.1	3.73e-04	0	44	0	166723584	22	5484
2026-01-20 01:43:51.64	4.24	14.39	-31.0	-34.4	12.3	1.88e-04	0	44	0	168820736	22	5369
2026-01-20 01:43:52.65	4.13	14.48	-31.0	-34.5	12.2	1.97e-04	0	44	0	170917888	22	5402
2026-01-20 01:43:53.65	4.02	14.57	-31.0	-34.4	12.3	2.13e-04	0	44	0	171966464	22	5355
2026-01-20 01:43:54.65	3.91	14.66	-30.8	-34.5	12.6	1.37e-04	0	44	0	174063616	21	5488
2026-01-20 01:43:55.65	3.79	14.75	-30.8	-34.4	12.7	7.93e-05	0	44	0	176160768	21	5446
2026-01-20 01:43:56.65	3.68	14.83	-30.7	-34.3	12.8	5.72e-05	0	44	0	178257920	21	5402
2026-01-20 01:43:57.65	3.57	14.92	-30.8	-34.3	12.7	7.47e-05	0	44	0	180355072	21	5428
2026-01-20 01:43:58.66	3.45	15.01	-30.7	-34.2	12.8	8.08e-05	0	43	0	181403648	21	5391
2026-01-20 01:43:59.66	3.33	15.10	-30.7	-34.1	12.9	6.17e-05	0	44	0	183500800	21	5355
2026-01-20 01:44:00.66	3.22	15.19	-30.7	-34.2	12.8	4.57e-05	0	44	0	185597952	21	5377
2026-01-20 01:44:01.66	3.10	15.28	-30.7	-34.2	12.8	4.73e-05	0	44	0	187695104	21	5377
2026-01-20 01:44:02.66	2.98	15.37	-30.7	-34.2	12.8	6.86e-05	0	44	0	189792256	21	5354
2026-01-20 01:44:03.67	2.86	15.46	-30.8	-34.5	12.6	8.77e-05	0	44	0	190840832	21	5515
2026-01-20 01:44:04.67	2.74	15.55	-30.9	-34.6	12.5	2.56e-03	0	44	0	192937984	21	5540
2026-01-20 01:44:05.68	2.62	15.64	-30.9	-34.7	12.5	8.85e-05	0	44	0	195035136	21	5597
2026-01-20 01:44:06.69	2.50	15.73	-30.9	-34.7	12.5	1.39e-04	0	44	0	197132288	21	5579
2026-01-20 01:44:07.69	2.38	15.83	-31.0	-34.9	12.4	1.27e-04	0	44	0	198180864	21	5650
2026-01-20 01:44:08.69	2.25	15.92	-31.0	-34.5	12.3	1.78e-04	0	44	0	200278016	22	5397
2026-01-20 01:44:09.70	2.13	16.01	-31.1	-34.9	12.1	2.27e-04	0	44	0	202375168	22	5542
2026-01-20 01:44:10.70	2.01	16.10	-31.1	-34.8	12.2	2.60e-04	0	44	0	204472320	22	5500
2026-01-20 01:44:11.70	1.88	16.19	-31.0	-34.5	12.3	2.68e-03	0	44	0	206569472	22	5389
2026-01-20 01:44:12.70	1.76	16.28	-31.0	-34.6	12.3	1.91e-04	0	44	0	207618048	22	5402
2026-01-20 01:44:13.70	1.63	16.38	-31.1	-34.8	12.2	1.74e-04	0	44	0	209715200	22	5490
2026-01-20 01:44:14.70	1.50	16.47	-31.1	-34.7	12.3	1.88e-04	0	44	0	211812352	22	5462
2026-01-20 01:44:15.70	1.37	16.56	-31.2	-35.0	12.1	4.04e-04	0	44	0	213909504	22	5587
2026-01-20 01:44:16.70	1.25	16.65	-31.1	-34.9	12.1	3.33e-04	0	44	0	216006656	22	5531
2026-01-20 01:44:17.69	1.12	16.74	-31.0	-34.9	12.5	1.91e-04	0	44	0	217055232	21	5653
2026-01-20 01:44:18.69	0.99	16.84	-31.0	-34.4	12.5	3.56e-04	0	44	0	219152384	22	5341
2026-01-20 01:44:19.69	0.86	16.93	-31.0	-34.5	12.5	1.07e-04	0	44	0	221249536	22	5349
2026-01-20 01:44:20.70	0.72	17.02	-30.9	-34.7	12.6	1.50e-04	0	44	0	223346688	21	5583
2026-01-20 01:44:21.70	0.59	17.12	-30.9	-34.7	12.7	2.97e-04	0	44	0	225443840	21	5542
2026-01-20 01:44:22.70	0.46	17.21	-30.9	-34.7	12.7	2.36e-03	0	44	0	226492416	21	5547
2026-01-20 01:44:23.70	0.32	17.31	-30.9	-34.6	12.7	7.24e-05	0	44	0	228589568	21	5511
2026-01-20 01:44:24.70	0.18	17.40	-30.9	-34.6	12.7	4.95e-05	0	44	0	230686720	21	5537
2026-01-20 01:44:25.71	0.05	17.50	-31.0	-34.9	12.5	2.41e-03	0	44	0	232783872	21	5628
2026-01-20 01:44:26.71	359.91	17.59	-31.1	-34.7	12.3	1.40e-04	0	44	0	233832448	22	5462
2026-01-20 01:44:27.71	359.77	17.68	-31.1	-34.7	12.3	2.42e-04	0	44	0	235929600	22	5458
2026-01-20 01:44:28.71	359.63	17.78	-31.1	-34.6	12.4	2.25e-03	0	44	0	238026752	22	5401
2026-01-20 01:44:29.72	359.49	17.88	-31.2	-35.0	12.1	2.80e-03	0	44	0	240123904	22	5590
2026-01-20 01:44:30.72	359.35	17.97	-31.1	-34.8	12.2	2.44e-04	0	44	0	242221056	22	5473
2026-01-20 01:44:31.72	359.21	18.07	-31.2	-34.9	12.2	2.60e-03	0	44	0	244318208	22	5545
2026-01-20 01:44:32.73	359.06	18.16	-31.2	-35.0	12.1	2.77e-03	0	44	0	245366784	22	5564
2026-01-20 01:44:33.73	358.92	18.26	-31.3	-35.3	12.0	7.42e-04	0	44	0	247463936	22	5684
2026-01-20 01:44:34.73	358.78	18.36	-31.4	-35.6	11.7	3.66e-04	0	44	0	249561088	22	5820
2026-01-20 01:44:35.74	358.63	18.45	-31.4	-35.6	11.8	3.03e-03	0	44	0	251658240	22	5831
2026-01-20 01:44:36.73	358.48	18.55	-31.3	-35.4	11.9	1.06e-03	0	44	0	252706816	22	5741
2026-01-20 01:44:37.74	358.33	18.65	-31.3	-35.2	12.0	3.55e-04	0	44	0	254803968	22	5678
2026-01-20 01:44:38.74	358.19	18.74	-31.2	-35.1	12.1	2.97e-03	0	44	0	256901120	22	5605
2026-01-20 01:44:39.74	358.04	18.84	-31.3	-35.2	12.0	7.77e-04	0	44	0	258998272	22	5647
2026-01-20 01:44:40.75	357.89	18.94	-31.2	-34.9	12.2	2.61e-03	0	44	0	261095424	22	5528
2026-01-20 01:44:41.75	357.73	19.03	-31.3	-35.3	12.0	2.13e-04	0	44	0	262144000	22	5676
2026-01-20 01:44:42.76	357.58	19.13	-31.2	-35.1	12.1	1.01e-03	0	44	0	264241152	22	5603
2026-01-20 01:44:43.76	357.43	19.23	-31.1	-34.6	12.5	2.40e-03	0	44	0	266338304	22	5396
2026-01-20 01:44:44.77	357.27	19.33	-31.0	-34.4	12.6	2.15e-03	0	44	0	268435456	22	5331
2026-01-20 01:44:45.77	357.12	19.43	-31.1	-34.7	12.5	8.10e-04	0	44	0	270532608	22	5418
2026-01-20 01:44:46.77	356.96	19.53	-31.1	-34.5	12.5	2.14e-03	0	44	0	271581184	22	5363
2026-01-20 01:44:47.77	356.80	19.62	-31.0	-34.4	12.6	2.90e-03	0	44	0	273678336	22	5308
2026-01-20 01:44:48.78	356.64	19.72	-31.0	-34.4	12.6	8.92e-04	0	44	0	275775488	22	5318
2026-01-20 01:44:49.78	356.48	19.82	-31.1	-34.5	12.6	2.38e-03	0	44	0	277872640	22	5349
2026-01-20 01:44:50.78	356.32	19.92	-31.2	-34.8	12.3	2.91e-03	0	44	0	279969792	22	5484
2026-01-20 01:44:51.78	356.16	20.02	-31.1	-34.5	12.5	9.86e-04	0	44	0	281018368	22	5369
2026-01-20 01:44:52.78	356.00	20.12	-31.0	-34.3	12.7	2.03e-03	0	44	0	283115520	22	5265
2026-01-20 01:44:53.78	355.83	20.22	-31.0	-34.7	12.7	2.12e-03	0	44	0	285212672	21	5555
2026-01-20 01:44:54.79	355.67	20.32	-31.0	-34.3	12.7	6.82e-04	0	44	0	287309824	22	5276
2026-01-20 01:44:55.79	355.50	20.42	-31.0	-34.3	12.7	7.70e-05	0	44	0	289406976	22	5278
2026-01-20 01:44:56.80	355.33	20.52	-31.1	-34.6	12.6	1.73e-03	0	44	0	290455552	22	5373
2026-01-20 01:44:57.80	355.16	20.62	-31.0	-34.4	12.7	6.73e-04	0	44	0	292552704	22	5299
2026-01-20 01:44:58.80	354.99	20.72	-31.1	-34.5	12.6	1.10e-03	0	44	0	294649856	22	5332
2026-01-20 01:44:59.81	354.82	20.82	-31.0	-34.3	12.7	1.69e-03	0	44	0	296747008	22	5250
2026-01-20 01:45:00.81	354.65	20.92	-31.0	-34.8	12.8	6.75e-04	0	44	0	297795584	21	5573
2026-01-20 01:45:01.81	354.48	21.02	-31.0	-34.4	12.7	1.38e-03	0	44	0	299892736	22	5293
2026-01-20 01:45:02.81	354.30	21.12	-30.9	-34.6	12.9	4.57e-04	0	44	0	301989888	21	5487
2026-01-20 01:45:03.81	354.13	21.22	-30.9	-34.5	13.0	6.13e-04	0	44	0	304087040	21	5444
2026-01-20 01:45:04.81	353.95	21.32	-30.9	-34.4	13.0	1.39e-03	0	44	0	306184192	21	5400
2026-01-20 01:45:05.81	353.78	21.42	-30.9	-34.4	13.0	1.88e-03	0	44	0	307232768	21	5405
2026-01-20 01:45:06.81	353.60	21.52	-30.8	-34.3	13.1	4.38e-04	0	44	0	309329920	21	5358
2026-01-20 01:45:07.81	353.42	21.62	-30.8	-34.2	13.2	1.56e-03	0	44	0	311427072	21	5316
2026-01-20 01:45:08.82	353.23	21.73	-30.8	-34.2	13.2	1.84e-03	0	44	0	313524224	21	5334
2026-01-20 01:45:09.82	353.05	21.83	-30.8	-34.4	13.0	2.44e-05	0	44	0	315621376	21	5398
2026-01-20 01:45:10.82	352.87	21.93	-30.8	-34.2	13.2	1.39e-03	0	44	0	316669952	21	5334
2026-01-20 01:45:11.83	352.68	22.03	-30.9	-34.4	13.0	1.67e-03	0	44	0	318767104	21	5424
2026-01-20 01:45:12.84	352.50	22.13	-30.9	-34.5	13.0	4.27e-05	0	44	0	320864256	21	5434
2026-01-20 01:45:13.84	352.31	22.23	-31.0	-34.7	12.8	5.11e-05	0	44	0	322961408	21	5549
2026-01-20 01:45:14.85	352.12	22.34	-31.0	-34.7	12.9	1.08e-03	0	44	0	325058560	21	5523
2026-01-20 01:45:15.84	351.93	22.44	-31.0	-34.4	12.8	3.35e-04	0	44	0	326107136	22	5292
2026-01-20 01:45:16.85	351.74	22.54	-31.1	-34.5	12.7	8.08e-05	0	44	0	328204288	22	5338
2026-01-20 01:45:17.85	351.55	22.64	-31.1	-34.6	12.6	1.24e-03	0	44	0	330301440	22	5382
2026-01-20 01:45:18.85	351.35	22.74	-31.1	-34.5	12.7	2.76e-04	0	44	0	332398592	22	5322
2026-01-20 01:45:19.85	351.16	22.85	-31.1	-34.7	12.5	9.46e-05	0	44	0	334495744	22	5410
2026-01-20 01:45:20.85	350.96	22.95	-31.2	-34.8	12.5	2.77e-04	0	44	0	335544320	22	5451
2026-01-20 01:45:21.85	350.76	23.05	-31.2	-34.8	12.5	2.96e-04	0	44	0	337641472	22	5469
2026-01-20 01:45:22.85	350.57	23.15	-31.3	-35.2	12.2	1.90e-03	0	44	0	339738624	22	5640
2026-01-20 01:45:23.86	350.36	23.25	-31.3	-35.2	12.3	2.42e-04	0	44	0	341835776	22	5604
2026-01-20 01:45:24.86	350.16	23.36	-31.4	-35.3	12.1	3.62e-04	0	44	0	342884352	22	5673
2026-01-20 01:45:25.87	349.96	23.46	-31.6	-35.5	11.7	2.64e-03	0	44	0	344981504	23	5633
2026-01-20 01:45:26.87	349.75	23.56	-31.4	-34.9	12.1	3.69e-04	0	44	0	347078656	23	5368
2026-01-20 01:45:27.87	349.55	23.66	-31.4	-34.9	12.0	2.94e-04	0	44	0	349175808	23	5405
2026-01-20 01:45:28.87	349.34	23.77	-31.4	-35.5	12.0	2.55e-03	0	44	0	351272960	22	5754
2026-01-20 01:45:29.87	349.13	23.87	-31.5	-35.6	12.0	2.98e-04	0	44	0	352321536	22	5784
2026-01-20 01:45:30.87	348.92	23.97	-31.5	-35.7	11.9	3.47e-04	0	44	0	354418688	22	5824
2026-01-20 01:45:31.88	348.71	24.07	-31.5	-35.2	11.9	4.20e-04	0	44	0	356515840	23	5513
2026-01-20 01:45:32.88	348.50	24.17	-31.5	-35.3	11.8	2.08e-03	0	44	0	358612992	23	5565
2026-01-20 01:45:33.88	348.29	24.28	-31.5	-35.1	12.0	4.22e-04	0	44	0	360710144	23	5480
2026-01-20 01:45:34.88	348.07	24.38	-31.3	-35.2	12.2	2.66e-04	0	44	0	361758720	22	5616
2026-01-20 01:45:35.88	347.85	24.48	-31.2	-34.9	12.5	1.59e-04	0	44	0	363855872	22	5477
2026-01-20 01:45:36.88	347.64	24.58	-31.2	-34.8	12.5	9.76e-05	0	44	0	365953024	22	5425
2026-01-20 01:45:37.88	347.42	24.68	-31.3	-35.1	12.4	1.27e-04	0	44	0	368050176	22	5562
2026-01-20 01:45:38.87	347.20	24.78	-31.2	-34.8	12.5	1.30e-04	0	44	0	370147328	22	5450
2026-01-20 01:45:39.88	346.97	24.89	-31.2	-34.7	12.6	9.23e-05	0	44	0	371195904	22	5413
2026-01-20 01:45:40.88	346.75	24.99	-31.2	-34.8	12.6	9.61e-05	0	44	0	373293056	22	5436
2026-01-20 01:45:41.88	346.53	25.09	-31.2	-34.7	12.6	9.23e-05	0	44	0	375390208	22	5416
2026-01-20 01:45:42.89	346.30	25.19	-31.2	-34.9	12.5	9.38e-05	0	44	0	377487360	22	5467
2026-01-20 01:45:43.89	346.07	25.29	-31.4	-35.4	12.2	1.85e-04	0	44	0	379584512	22	5684
2026-01-20 01:45:44.89	345.84	25.39	-31.3	-35.0	12.4	1.83e-04	0	44	0	380633088	22	5526
2026-01-20 01:45:45.89	345.61	25.50	-31.1	-34.6	12.8	1.12e-04	0	44	0	382730240	22	5356
2026-01-20 01:45:46.89	345.37	25.60	-30.9	-33.9	13.1	2.97e-05	0	44	0	384827392	22	5107
2026-01-20 01:45:47.89	345.14	25.70	-30.9	-34.4	13.1	2.51e-05	0	44	0	386924544	21	5408
2026-01-20 01:45:48.89	344.91	25.80	-30.8	-34.3	13.2	2.13e-05	0	44	0	387973120	21	5346
2026-01-20 01:45:49.90	344.67	25.90	-30.8	-34.3	13.2	2.05e-05	0	44	0	390070272	21	5344
2026-01-20 01:45:50.90	344.43	26.00	-31.0	-34.3	12.9	4.11e-05	0	44	0	392167424	22	5248
2026-01-20 01:45:51.91	344.18	26.10	-31.2	-34.7	12.6	6.86e-05	0	44	0	394264576	22	5420
2026-01-20 01:45:52.91	343.94	26.20	-31.1	-34.4	12.8	9.30e-05	0	44	0	396361728	22	5297
2026-01-20 01:45:53.91	343.70	26.30	-30.9	-34.1	13.1	2.89e-05	0	44	0	397410304	22	5149
2026-01-20 01:45:54.92	343.45	26.40	-31.0	-34.2	13.0	3.12e-05	0	44	0	399507456	22	5222
2026-01-20 01:45:55.92	343.21	26.50	-30.9	-34.1	13.0	4.27e-05	0	44	0	401604608	22	5185
2026-01-20 01:45:56.92	342.96	26.60	-30.9	-34.5	13.1	2.89e-05	0	44	0	403701760	21	5446
2026-01-20 01:45:57.93	342.71	26.70	-30.9	-34.4	13.0	2.67e-05	0	44	0	405798912	21	5375
2026-01-20 01:45:58.93	342.45	26.80	-30.8	-34.1	12.4	9.90e-06	0	44	0	406847488	21	5272
2026-01-20 01:45:59.93	342.20	26.90	-30.8	-34.2	13.3	1.06e-05	0	44	0	408944640	21	5308
2026-01-20 01:46:00.93	341.95	26.99	-30.7	-33.9	13.0	1.06e-05	0	44	0	411041792	21	5197
2026-01-20 01:46:01.93	341.69	27.09	-30.7	-34.0	12.9	1.98e-05	0	44	0	413138944	21	5230
2026-01-20 01:46:02.93	341.43	27.19	-30.8	-34.2	13.3	2.05e-05	0	44	0	415236096	21	5324
2026-01-20 01:46:03.93	341.18	27.29	-31.0	-34.6	13.0	1.94e-03	0	44	0	416284672	21	5475
2026-01-20 01:46:04.93	340.91	27.38	-31.1	-34.4	12.8	4.50e-05	0	44	0	418381824	22	5281
2026-01-20 01:46:05.93	340.65	27.48	-31.1	-34.5	12.8	4.34e-05	0	44	0	420478976	22	5306
2026-01-20 01:46:06.93	340.39	27.57	-31.2	-34.8	12.6	6.63e-05	0	44	0	422576128	22	5455
2026-01-20 01:46:07.93	340.12	27.67	-31.0	-34.3	12.9	6.86e-05	0	44	0	424673280	22	5245
2026-01-20 01:46:08.93	339.86	27.77	-30.9	-34.0	13.1	3.50e-05	0	44	0	425721856	22	5125
2026-01-20 01:46:09.93	339.59	27.86	-31.0	-34.7	13.0	3.12e-05	0	44	0	427819008	21	5510
2026-01-20 01:46:10.92	339.32	27.96	-31.2	-34.8	12.6	1.51e-03	0	44	0	429916160	22	5442
2026-01-20 01:46:11.92	339.05	28.05	-31.3	-35.1	12.4	1.25e-04	0	44	0	432013312	22	5552
2026-01-20 01:46:12.92	338.77	28.14	-31.4	-35.3	12.2	1.72e-04	0	44	0	433061888	22	5657
2026-01-20 01:46:13.92	338.50	28.24	-31.4	-35.3	12.2	2.04e-04	0	44	0	435159040	22	5667
2026-01-20 01:46:14.93	338.22	28.33	-31.5	-35.3	11.9	6.13e-04	0	44	0	437256192	23	5533
2026-01-20 01:46:15.94	337.94	28.42	-31.7	-35.9	11.5	6.08e-04	0	44	0	439353344	23	5807
2026-01-20 01:46:16.94	337.66	28.52	-31.8	-36.1	11.3	1.09e-03	0	44	0	441450496	23	5927
2026-01-20 01:46:17.95	337.37	28.61	-31.9	-36.3	11.2	1.68e-03	0	44	0	442499072	23	6014
2026-01-20 01:46:18.96	337.09	28.70	-32.0	-36.6	11.0	1.75e-03	0	44	0	444596224	23	6147
2026-01-20 01:46:19.96	336.80	28.79	-32.0	-36.2	10.9	1.87e-03	0	44	0	446693376	24	5861
2026-01-20 01:46:20.97	336.51	28.88	-32.0	-36.3	10.7	2.54e-03	0	44	0	448790528	24	5904
2026-01-20 01:46:21.96	336.23	28.97	-32.1	-36.6	10.6	3.06e-03	0	44	0	450887680	24	6040
2026-01-20 01:46:22.97	335.94	29.06	-32.3	-37.1	10.1	4.18e-03	0	44	0	451936256	24	6272
2026-01-20 01:46:23.97	335.64	29.15	-32.4	-37.5	9.9	6.01e-03	0	44	0	454033408	24	6516
2026-01-20 01:46:24.98	335.35	29.24	-32.3	-37.2	10.2	6.69e-03	0	44	0	456130560	24	6311
2026-01-20 01:46:25.98	335.05	29.33	-32.3	-37.1	10.2	6.33e-03	0	44	0	458227712	24	6279
2026-01-20 01:46:26.98	334.76	29.41	-32.3	-37.3	10.1	5.63e-03	0	44	0	460324864	24	6369
2026-01-20 01:46:27.98	334.46	29.50	-32.4	-37.6	9.9	8.75e-03	0	44	0	461373440	24	6549
2026-01-20 01:46:28.98	334.16	29.59	-32.4	-37.6	9.9	1.01e-02	0	44	0	463470592	24	6543
2026-01-20 01:46:29.98	333.86	29.67	-32.4	-37.7	9.8	8.25e-03	0	44	0	465567744	24	6592
2026-01-20 01:46:30.99	333.55	29.76	-32.4	-37.6	9.9	8.41e-03	0	44	0	467664896	24	6521
2026-01-20 01:46:32.00	333.24	29.84	-32.5	-37.9	9.7	1.11e-02	0	44	0	469762048	24	6733
2026-01-20 01:46:33.00	332.94	29.92	-32.6	-38.0	9.2	1.69e-02	0	44	0	470810624	25	6653
2026-01-20 01:46:34.00	332.63	30.01	-32.7	-38.1	9.1	1.99e-02	0	44	0	472907776	25	6742
2026-01-20 01:46:35.00	332.32	30.09	-32.8	-38.5	8.8	3.10e-02	0	44	0	475004928	25	6962
2026-01-20 01:46:36.01	332.01	30.17	-32.7	-38.1	9.1	2.73e-02	0	44	0	477102080	25	6725
2026-01-20 01:46:37.00	331.70	30.25	-32.6	-37.7	9.5	1.73e-02	0	44	0	478150656	25	6478
2026-01-20 01:46:38.01	331.38	30.33	-32.5	-37.4	9.7	1.47e-02	0	44	0	480247808	25	6332
2026-01-20 01:46:39.01	331.07	30.41	-32.4	-37.6	9.8	1.14e-02	0	44	0	482344960	24	6569
2026-01-20 01:46:40.02	330.75	30.49	-32.4	-37.7	9.9	1.16e-02	0	44	0	484442112	24	6577
2026-01-20 01:46:41.02	330.43	30.56	-32.4	-37.7	9.8	8.74e-03	0	44	0	486539264	24	6603
2026-01-20 01:46:42.03	330.10	30.64	-32.3	-37.1	10.3	7.76e-03	0	44	0	488636416	24	6276
2026-01-20 01:46:43.04	329.78	30.72	-32.2	-36.8	10.5	7.48e-03	0	44	0	489684992	24	6131
2026-01-20 01:46:44.05	329.45	30.79	-32.3	-37.2	10.2	7.47e-03	0	44	0	491782144	24	6317
2026-01-20 01:46:45.05	329.13	30.87	-32.3	-37.3	10.2	7.41e-03	0	44	0	493879296	24	6361
2026-01-20 01:46:46.05	328.80	30.94	-32.4	-37.5	10.0	1.00e-02	0	44	0	495976448	24	6486
2026-01-20 01:46:47.06	328.47	31.01	-32.3	-37.1	10.3	9.24e-03	0	44	0	497025024	24	6274
2026-01-20 01:46:48.05	328.14	31.08	-32.2	-36.9	10.4	4.94e-03	0	44	0	499122176	24	6198
2026-01-20 01:46:49.06	327.81	31.15	-32.2	-36.7	10.6	6.27e-03	0	44	0	501219328	24	6074
2026-01-20 01:46:50.06	327.48	31.22	-32.2	-36.7	10.6	6.26e-03	0	44	0	503316480	24	6093
2026-01-20 01:46:51.07	327.14	31.29	-32.2	-37.0	10.3	4.74e-03	0	44	0	505413632	24	6218
2026-01-20 01:46:52.07	326.81	31.36	-32.1	-36.5	10.8	6.43e-03	0	44	0	506462208	24	5969
2026-01-20 01:46:53.07	326.47	31.43	-32.0	-36.2	11.0	5.73e-03	0	45	0	508559360	24	5826
2026-01-20 01:46:54.08	326.13	31.49	-32.0	-36.2	11.0	2.41e-03	0	44	0	510656512	24	5837
2026-01-20 01:46:55.08	325.79	31.56	-32.0	-36.1	11.0	4.78e-03	0	44	0	512753664	24	5803
2026-01-20 01:46:56.07	325.45	31.62	-32.0	-36.6	11.1	4.83e-03	0	45	0	514850816	23	6105
2026-01-20 01:46:57.08	325.11	31.68	-32.0	-36.3	10.9	2.30e-03	0	45	0	515899392	24	5871
2026-01-20 01:46:58.09	324.76	31.75	-32.2	-36.7	10.6	5.80e-03	0	44	0	517996544	24	6088
2026-01-20 01:46:59.09	324.42	31.81	-32.1	-36.4	10.8	5.83e-03	0	44	0	520093696	24	5907
2026-01-20 01:47:00.09	324.07	31.87	-31.9	-35.8	11.3	2.09e-03	0	44	0	522190848	24	5655
2026-01-20 01:47:01.08	323.73	31.92	-31.8	-36.1	11.4	3.46e-03	0	44	0	524288000	23	5865
2026-01-20 01:47:02.09	323.37	31.98	-31.9	-36.3	11.3	1.23e-03	0	44	0	525336576	23	5970
2026-01-20 01:47:03.10	323.02	32.04	-31.9	-36.4	11.3	1.48e-03	0	44	0	527433728	23	6002
2026-01-20 01:47:04.10	322.67	32.09	-32.1	-36.4	10.8	4.00e-03	0	45	0	529530880	24	5937
2026-01-20 01:47:05.10	322.32	32.15	-32.2	-36.9	10.4	3.82e-03	0	44	0	531628032	24	6176
2026-01-20 01:47:06.10	321.96	32.20	-32.1	-36.4	10.8	3.24e-03	0	44	0	533725184	24	5920
2026-01-20 01:47:07.10	321.61	32.25	-32.0	-36.3	10.9	4.42e-03	0	44	0	534773760	24	5873
2026-01-20 01:47:08.11	321.25	32.30	-31.9	-36.3	11.3	3.39e-03	0	44	0	536870912	23	5969
2026-01-20 01:47:09.11	320.89	32.35	-31.8	-36.0	11.4	8.86e-04	0	44	0	538968064	23	5852
2026-01-20 01:47:10.12	320.53	32.40	-31.8	-36.0	11.5	2.64e-03	0	44	0	541065216	23	5840
2026-01-20 01:47:11.12	320.17	32.45	-31.8	-36.1	11.4	2.66e-03	0	44	0	543162368	23	5891
2026-01-20 01:47:12.12	319.81	32.50	-31.9	-36.3	11.3	1.41e-03	0	44	0	544210944	23	6004
2026-01-20 01:47:13.12	319.45	32.54	-32.0	-36.3	11.0	1.40e-03	0	44	0	546308096	24	5872
2026-01-20 01:47:14.12	319.09	32.58	-32.1	-36.4	10.8	4.14e-03	0	44	0	548405248	24	5946
2026-01-20 01:47:15.13	318.73	32.63	-32.2	-36.8	10.6	3.36e-03	0	44	0	550502400	24	6115
2026-01-20 01:47:16.14	318.36	32.67	-31.9	-35.8	11.2	2.00e-03	0	44	0	551550976	24	5662
2026-01-20 01:47:17.14	317.99	32.71	-31.7	-35.6	11.8	2.76e-03	0	44	0	553648128	23	5655
2026-01-20 01:47:18.15	317.62	32.75	-31.5	-35.2	12.1	7.70e-04	0	44	0	555745280	23	5474
2026-01-20 01:47:19.15	317.26	32.78	-31.4	-34.9	12.3	1.97e-04	0	44	0	557842432	23	5356
2026-01-20 01:47:20.15	316.89	32.82	-31.3	-35.1	12.5	1.20e-04	0	44	0	559939584	22	5536
2026-01-20 01:47:21.15	316.52	32.85	-31.2	-34.7	12.8	4.94e-04	0	44	0	560988160	22	5390
2026-01-20 01:47:22.15	316.15	32.89	-31.1	-34.5	12.9	4.19e-05	0	44	0	563085312	22	5284
2026-01-20 01:47:23.16	315.78	32.92	-31.1	-34.5	12.9	1.01e-04	0	44	0	565182464	22	5293
2026-01-20 01:47:24.16	315.41	32.95	-30.8	-33.6	13.5	3.79e-04	0	44	0	567279616	22	4950
2026-01-20 01:47:25.17	315.04	32.98	-30.8	-34.0	13.6	1.14e-05	0	44	0	569376768	21	5207
2026-01-20 01:47:26.17	314.66	33.01	-30.9	-34.3	13.4	1.23e-04	0	44	0	570425344	21	5338
2026-01-20 01:47:27.18	314.29	33.03	-31.0	-34.1	13.2	6.10e-05	0	44	0	572522496	22	5132
2026-01-20 01:47:28.18	313.91	33.06	-31.1	-34.4	12.9	1.34e-03	0	44	0	574619648	22	5275
2026-01-20 01:47:29.18	313.54	33.08	-31.3	-34.9	12.7	6.63e-05	0	44	0	576716800	22	5465
2026-01-20 01:47:30.18	313.17	33.10	-31.3	-35.0	12.5	2.74e-04	0	44	0	578813952	22	5518
2026-01-20 01:47:31.18	312.79	33.13	-31.4	-35.1	12.4	1.40e-04	0	44	0	579862528	22	5559
2026-01-20 01:47:32.18	312.42	33.14	-31.3	-35.0	12.6	1.01e-04	0	44	0	581959680	22	5520
2026-01-20 01:47:33.18	312.04	33.16	-31.3	-35.1	12.5	3.06e-04	0	45	0	584056832	22	5542
2026-01-20 01:47:34.19	311.66	33.18	-31.3	-35.0	12.6	9.15e-05	0	44	0	586153984	22	5485
2026-01-20 01:47:35.19	311.29	33.20	-31.4	-35.2	12.4	1.81e-03	0	44	0	588251136	22	5596
2026-01-20 01:47:36.19	310.91	33.21	-31.5	-35.5	12.3	1.88e-04	0	45	0	589299712	22	5724
2026-01-20 01:47:37.20	310.53	33.22	-31.4	-35.2	12.5	1.88e-04	0	44	0	591396864	22	5609
2026-01-20 01:47:38.20	310.15	33.23	-31.4	-35.4	12.3	3.10e-04	0	44	0	593494016	22	5686
2026-01-20 01:47:39.20	309.77	33.24	-31.5	-35.2	12.1	2.19e-04	0	44	0	595591168	23	5476
2026-01-20 01:47:40.20	309.40	33.25	-31.7	-35.6	11.8	4.32e-04	0	44	0	596639744	23	5640
2026-01-20 01:47:41.21	309.01	33.26	-31.6	-35.3	12.1	8.79e-04	0	45	0	598736896	23	5508
2026-01-20 01:47:42.22	308.63	33.26	-31.6	-35.3	12.1	3.09e-04	0	44	0	600834048	23	5509
2026-01-20 01:47:43.22	308.25	33.27	-31.7	-35.8	11.7	5.52e-04	0	44	0	602931200	23	5723
2026-01-20 01:47:44.22	307.88	33.27	-31.6	-35.3	12.0	7.85e-04	0	44	0	605028352	23	5529
2026-01-20 01:47:45.22	307.50	33.27	-31.6	-35.4	12.0	5.97e-04	0	44	0	607125504	23	5547
2026-01-20 01:47:46.23	307.12	33.27	-31.7	-35.8	11.7	5.05e-04	0	44	0	608174080	23	5740
2026-01-20 01:47:47.24	306.73	33.27	-31.9	-36.4	11.2	8.25e-04	0	44	0	610271232	23	6042
2026-01-20 01:47:48.24	306.36	33.27	-32.1	-36.3	10.9	1.95e-03	0	44	0	612368384	24	5887
2026-01-20 01:47:49.24	305.98	33.26	-31.9	-35.8	11.3	1.28e-03	0	44	0	614465536	24	5650
2026-01-20 01:47:50.24	305.60	33.26	-31.7	-35.8	11.7	8.73e-04	0	44	0	615514112	23	5723
2026-01-20 01:47:51.24	305.22	33.25	-31.7	-35.8	11.6	1.04e-03	0	44	0	617611264	23	5737
2026-01-20 01:47:52.25	304.84	33.24	-31.7	-35.8	11.6	6.85e-04	0	44	0	619708416	23	5751
2026-01-20 01:47:53.25	304.46	33.23	-31.8	-35.9	11.5	8.32e-04	0	44	0	621805568	23	5784
2026-01-20 01:47:54.25	304.08	33.22	-31.6	-35.4	11.9	4.22e-04	0	44	0	623902720	23	5587
2026-01-20 01:47:55.26	303.70	33.21	-31.8	-36.1	11.4	4.95e-04	0	44	0	624951296	23	5862
2026-01-20 01:47:56.26	303.33	33.19	-32.0	-36.5	11.2	1.30e-03	0	44	0	627048448	23	6069
2026-01-20 01:47:57.26	302.95	33.18	-31.8	-36.2	11.4	9.86e-04	0	44	0	629145600	23	5929
2026-01-20 01:47:58.26	302.57	33.16	-32.2	-36.7	10.7	2.02e-03	0	44	0	631242752	24	6044
2026-01-20 01:47:59.27	302.20	33.14	-32.4	-37.6	10.0	8.47e-03	0	44	0	633339904	24	6513
2026-01-20 01:48:00.27	301.82	33.12	-32.3	-37.0	10.4	6.14e-03	0	45	0	634388480	24	6212
2026-01-20 01:48:01.28	301.44	33.10	-32.2	-37.0	10.4	4.98e-03	0	44	0	636485632	24	6199
2026-01-20 01:48:02.28	301.07	33.08	-32.2	-36.8	10.5	4.49e-03	0	44	0	638582784	24	6116
2026-01-20 01:48:03.28	300.69	33.05	-32.2	-36.7	10.5	3.72e-03	0	45	0	640679936	24	6093
2026-01-20 01:48:04.29	300.32	33.03	-32.1	-36.5	10.8	3.75e-03	0	44	0	642777088	24	5963
2026-01-20 01:48:05.28	299.95	33.00	-32.1	-36.4	10.8	2.82e-03	0	44	0	643825664	24	5939
2026-01-20 01:48:06.28	299.58	32.97	-32.1	-36.5	10.8	3.99e-03	0	44	0	645922816	24	5948
2026-01-20 01:48:07.28	299.20	32.94	-32.2	-36.8	10.5	3.46e-03	0	44	0	648019968	24	6138
2026-01-20 01:48:08.29	298.83	32.91	-32.3	-37.1	10.3	5.92e-03	0	44	0	650117120	24	6275
2026-01-20 01:48:09.29	298.46	32.88	-32.1	-36.5	10.7	4.13e-03	0	44	0	652214272	24	5956
2026-01-20 01:48:10.30	298.09	32.85	-31.9	-36.4	11.1	3.02e-03	0	44	0	653262848	23	6048
2026-01-20 01:48:11.30	297.72	32.81	-31.9	-36.5	11.1	1.33e-03	0	44	0	655360000	23	6059
2026-01-20 01:48:12.29	297.36	32.78	-32.1	-36.3	10.9	1.73e-03	0	44	0	657457152	24	5893
2026-01-20 01:48:13.30	296.99	32.74	-32.1	-36.6	10.7	4.35e-03	0	44	0	659554304	24	6036
2026-01-20 01:48:14.31	296.62	32.70	-32.0	-36.2	11.0	2.15e-03	0	44	0	660602880	24	5814
2026-01-20 01:48:15.31	296.25	32.66	-32.1	-36.3	10.9	2.78e-03	0	44	0	662700032	24	5901
2026-01-20 01:48:16.31	295.89	32.62	-32.0	-36.1	11.0	2.30e-03	0	44	0	664797184	24	5794
2026-01-20 01:48:17.31	295.52	32.58	-32.0	-36.2	10.9	1.77e-03	0	44	0	666894336	24	5842
2026-01-20 01:48:18.32	295.16	32.53	-32.1	-36.4	10.8	2.62e-03	0	44	0	668991488	24	5953
2026-01-20 01:48:19.32	294.80	32.49	-32.0	-36.1	11.0	2.11e-03	0	44	0	670040064	24	5760
2026-01-20 01:48:20.32	294.44	32.44	-31.9	-36.3	11.2	1.77e-03	0	44	0	672137216	23	6010
2026-01-20 01:48:21.31	294.08	32.40	-31.9	-36.3	11.2	3.48e-03	0	44	0	674234368	23	5981
2026-01-20 01:48:22.32	293.72	32.35	-32.0	-36.3	10.9	1.62e-03	0	44	0	676331520	24	5882
2026-01-20 01:48:23.33	293.36	32.30	-32.2	-36.7	10.6	3.09e-03	0	45	0	678428672	24	6087
2026-01-20 01:48:24.33	293.00	32.25	-32.3	-37.1	10.3	8.45e-03	0	45	0	679477248	24	6261
2026-01-20 01:48:25.33	292.65	32.19	-32.1	-36.6	10.6	4.38e-03	0	45	0	681574400	24	6014
2026-01-20 01:48:26.33	292.29	32.14	-31.9	-36.0	11.0	2.55e-03	0	45	0	683671552	24	5762
2026-01-20 01:48:27.33	291.94	32.09	-31.9	-36.4	11.1	3.97e-03	0	44	0	685768704	23	6038
2026-01-20 01:48:28.33	291.59	32.03	-31.9	-36.4	11.1	3.57e-03	0	45	0	687865856	23	6050
2026-01-20 01:48:29.34	291.24	31.97	-32.0	-36.4	10.8	2.05e-03	0	44	0	688914432	24	5914
2026-01-20 01:48:30.34	290.89	31.92	-32.2	-37.1	10.3	6.63e-03	0	44	0	691011584	24	6265
2026-01-20 01:48:31.34	290.54	31.86	-32.2	-36.8	10.5	6.23e-03	0	44	0	693108736	24	6117
2026-01-20 01:48:32.35	290.19	31.80	-32.2	-36.7	10.5	3.98e-03	0	44	0	695205888	24	6096
2026-01-20 01:48:33.35	289.85	31.74	-32.1	-36.6	10.6	5.28e-03	0	44	0	697303040	24	6040
2026-01-20 01:48:34.36	289.50	31.67	-32.1	-36.4	10.7	5.75e-03	0	44	0	698351616	24	5953
2026-01-20 01:48:35.36	289.16	31.61	-31.9	-36.1	11.0	2.02e-03	0	44	0	700448768	24	5781
2026-01-20 01:48:36.36	288.81	31.55	-31.9	-36.5	11.0	1.73e-03	0	44	0	702545920	23	6086
2026-01-20 01:48:37.37	288.47	31.48	-31.9	-36.0	11.0	4.44e-03	0	45	0	704643072	24	5731
2026-01-20 01:48:38.37	288.13	31.42	-31.9	-36.0	11.0	1.48e-03	0	44	0	706740224	24	5733
2026-01-20 01:48:39.37	287.80	31.35	-32.0	-36.6	10.9	3.67e-03	0	44	0	707788800	23	6147
2026-01-20 01:48:40.38	287.46	31.28	-32.1	-36.7	10.5	5.32e-03	0	44	0	709885952	24	6098
2026-01-20 01:48:41.38	287.12	31.21	-32.3	-37.3	10.0	5.56e-03	0	44	0	711983104	24	6398
2026-01-20 01:48:42.38	286.79	31.14	-32.4	-37.5	10.0	1.03e-02	0	44	0	714080256	24	6488
2026-01-20 01:48:43.39	286.46	31.07	-32.2	-36.9	10.3	5.99e-03	0	45	0	715128832	24	6189
2026-01-20 01:48:44.39	286.13	31.00	-31.9	-36.1	11.0	2.43e-03	0	44	0	717225984	24	5778
2026-01-20 01:48:45.40	285.79	30.93	-31.8	-35.6	11.3	1.54e-03	0	44	0	719323136	24	5581
2026-01-20 01:48:46.39	285.47	30.85	-31.7	-35.9	11.5	8.93e-04	0	44	0	721420288	23	5816
2026-01-20 01:48:47.40	285.14	30.78	-31.7	-35.8	11.5	9.69e-04	0	44	0	723517440	23	5753
2026-01-20 01:48:48.41	284.82	30.70	-31.7	-35.9	11.5	1.38e-03	0	44	0	724566016	23	5807
2026-01-20 01:48:49.41	284.49	30.63	-31.8	-36.2	11.2	2.87e-03	0	44	0	726663168	23	5972
2026-01-20 01:48:50.42	284.17	30.55	-31.9	-36.3	11.1	1.29e-03	0	44	0	728760320	23	6017
2026-01-20 01:48:51.42	283.85	30.47	-32.0	-36.2	10.8	4.77e-03	0	44	0	730857472	24	5866
2026-01-20 01:48:52.43	283.53	30.39	-31.9	-36.6	10.9	4.41e-03	0	44	0	732954624	23	6143
2026-01-20 01:48:53.43	283.21	30.31	-31.9	-36.5	11.0	1.99e-03	0	44	0	734003200	23	6115
2026-01-20 01:48:54.43	282.90	30.23	-32.0	-36.3	10.8	4.89e-03	0	44	0	736100352	24	5923
2026-01-20 01:48:55.43	282.59	30.15	-32.0	-36.4	10.7	4.67e-03	0	44	0	738197504	24	5935
2026-01-20 01:48:56.43	282.27	30.07	-31.9	-35.8	11.1	2.74e-03	0	44	0	740294656	24	5685
2026-01-20 01:48:57.44	281.96	29.99	-31.8	-36.0	11.4	1.20e-03	0	44	0	742391808	23	5852
2026-01-20 01:48:58.44	281.65	29.91	-31.7	-35.7	11.5	8.39e-04	0	44	0	743440384	23	5743
2026-01-20 01:48:59.44	281.35	29.82	-31.7	-35.7	11.5	7.84e-04	0	44	0	745537536	23	5725
2026-01-20 01:49:00.45	281.04	29.74	-31.6	-35.6	11.6	7.62e-04	0	44	0	747634688	23	5703
2026-01-20 01:49:01.44	280.74	29.65	-31.7	-35.8	11.5	3.24e-03	0	44	0	749731840	23	5774
2026-01-20 01:49:02.45	280.43	29.57	-31.8	-36.3	11.1	1.47e-03	0	45	0	751828992	23	6013
2026-01-20 01:49:03.45	280.13	29.48	-31.9	-36.4	11.0	4.07e-03	0	44	0	752877568	23	6041
2026-01-20 01:49:04.46	279.83	29.40	-31.8	-36.0	11.3	1.75e-03	0	44	0	754974720	23	5891
2026-01-20 01:49:05.46	279.53	29.31	-31.7	-35.7	11.5	1.22e-03	0	44	0	757071872	23	5729
2026-01-20 01:49:06.47	279.24	29.22	-31.6	-35.5	11.6	3.06e-03	0	44	0	759169024	23	5646
2026-01-20 01:49:07.47	278.94	29.13	-31.5	-35.3	11.8	5.55e-04	0	44	0	761266176	23	5549
2026-01-20 01:49:08.47	278.65	29.04	-31.5	-35.3	11.8	4.71e-04	0	45	0	762314752	23	5549
2026-01-20 01:49:09.48	278.36	28.95	-31.5	-35.2	11.9	2.79e-03	0	44	0	764411904	23	5502
2026-01-20 01:49:10.48	278.07	28.86	-31.6	-35.5	11.6	6.16e-04	0	44	0	766509056	23	5658
2026-01-20 01:49:11.48	277.78	28.77	-31.7	-35.9	11.3	8.88e-04	0	44	0	768606208	23	5829
2026-01-20 01:49:12.48	277.49	28.68	-31.8	-36.3	11.0	4.28e-03	0	44	0	770703360	23	6026
2026-01-20 01:49:13.49	277.21	28.59	-31.9	-36.6	10.8	4.05e-03	0	44	0	771751936	23	6186
2026-01-20 01:49:14.49	276.93	28.50	-31.9	-36.2	10.7	3.21e-03	0	44	0	773849088	24	5887
2026-01-20 01:49:15.50	276.64	28.40	-31.7	-36.0	11.2	1.36e-03	0	44	0	775946240	23	5882
2026-01-20 01:49:16.50	276.36	28.31	-31.6	-35.7	11.5	2.99e-03	0	45	0	778043392	23	5723
2026-01-20 01:49:17.50	276.09	28.22	-31.6	-35.6	11.5	7.57e-04	0	44	0	779091968	23	5692
2026-01-20 01:49:18.51	275.81	28.12	-31.6	-35.6	11.5	1.11e-03	0	44	0	781189120	23	5708
2026-01-20 01:49:19.51	275.53	28.03	-31.4	-34.9	12.0	4.31e-04	0	44	0	783286272	23	5414
2026-01-20 01:49:20.52	275.26	27.93	-31.3	-34.7	12.2	2.62e-04	0	44	0	785383424	23	5300
2026-01-20 01:49:21.52	274.99	27.84	-31.3	-35.2	12.1	2.06e-04	0	45	0	787480576	22	5631
2026-01-20 01:49:22.52	274.72	27.74	-31.5	-35.8	11.8	3.20e-04	0	44	0	789577728	22	5894
2026-01-20 01:49:23.52	274.45	27.64	-31.7	-36.0	11.2	6.14e-04	0	44	0	790626304	23	5877
2026-01-20 01:49:24.53	274.18	27.55	-31.8	-36.3	11.0	2.24e-03	0	44	0	792723456	23	6037
2026-01-20 01:49:25.53	273.92	27.45	-31.6	-35.7	11.4	1.35e-03	0	44	0	794820608	23	5745
2026-01-20 01:49:26.53	273.65	27.35	-31.4	-35.0	11.9	5.86e-04	0	44	0	796917760	23	5430
2026-01-20 01:49:27.54	273.39	27.26	-31.1	-34.2	12.5	1.36e-04	0	44	0	797966336	23	5120
2026-01-20 01:49:28.54	273.13	27.16	-31.1	-34.1	12.6	1.08e-04	0	44	0	800063488	23	5077
2026-01-20 01:49:29.55	272.87	27.06	-31.1	-34.2	12.5	1.14e-04	0	44	0	802160640	23	5111
2026-01-20 01:49:30.54	272.62	26.96	-31.2	-34.3	12.4	1.23e-04	0	44	0	804257792	23	5158
2026-01-20 01:49:31.55	272.36	26.86	-31.2	-34.3	12.4	1.80e-04	0	44	0	806354944	23	5163
2026-01-20 01:49:32.56	272.10	26.76	-31.1	-34.2	12.4	1.25e-04	0	44	0	807403520	23	5148
2026-01-20 01:49:33.57	271.85	26.66	-31.1	-34.6	12.5	1.53e-04	0	44	0	809500672	22	5378
2026-01-20 01:49:34.57	271.60	26.56	-30.9	-34.1	12.9	5.87e-05	0	45	0	811597824	22	5179
2026-01-20 01:49:35.57	271.35	26.46	-30.7	-33.6	13.2	3.58e-05	0	44	0	813694976	22	4986
2026-01-20 01:49:36.56	271.10	26.37	-30.6	-33.6	13.5	1.67e-05	0	44	0	815792128	21	5125
2026-01-20 01:49:37.57	270.86	26.27	-30.4	-33.1	13.8	6.80e-06	0	45	0	816840704	21	4930
2026-01-20 01:49:38.56	270.62	26.17	-30.4	-33.2	13.7	9.10e-06	0	44	0	818937856	21	4979
2026-01-20 01:49:39.57	270.37	26.06	-30.4	-33.6	13.8	5.30e-06	0	44	0	821035008	20	5212
2026-01-20 01:49:40.57	270.13	25.96	-30.3	-33.5	13.8	3.80e-06	0	44	0	823132160	20	5182
2026-01-20 01:49:41.57	269.89	25.86	-30.2	-33.3	14.0	7.00e-07	0	44	0	825229312	20	5093
2026-01-20 01:49:42.57	269.65	25.76	-30.2	-33.2	14.0	3.00e-06	0	44	0	826277888	20	5081
2026-01-20 01:49:43.57	269.42	25.66	-30.2	-33.3	14.0	3.00e-04	0	44	0	828375040	20	5094
2026-01-20 01:49:44.57	269.18	25.56	-29.3	-32.3	14.0	3.80e-06	0	44	0	830472192	20	5072
2026-01-20 01:49:45.56	268.95	25.46	-30.1	-32.9	14.2	1.50e-06	0	44	0	832569344	20	4957
2026-01-20 01:49:46.56	268.72	25.36	-30.1	-32.9	14.2	7.00e-07	0	44	0	833617920	20	4982
2026-01-20 01:49:47.56	268.49	25.26	-30.0	-32.7	14.3	7.00e-07	0	44	0	835715072	20	4896
2026-01-20 01:49:48.56	268.26	25.16	-29.9	-32.4	14.5	0.00e+00	0	44	0	837812224	20	4788
2026-01-20 01:49:49.56	268.03	25.05	-29.9	-32.9	14.5	4.50e-06	0	44	0	839909376	19	5086
2026-01-20 01:49:50.56	267.81	24.95	-29.8	-32.3	14.6	1.74e-04	0	44	0	842006528	20	4757
2026-01-20 01:49:51.57	267.58	24.85	-29.7	-32.4	14.8	1.77e-03	0	44	0	843055104	19	4897
2026-01-20 01:49:52.58	267.36	24.75	-29.7	-32.3	14.9	2.43e-04	0	44	0	845152256	19	4876
2026-01-20 01:49:53.58	267.13	24.64	-29.6	-32.1	15.0	3.25e-04	0	44	0	847249408	19	4809
2026-01-20 01:49:54.58	266.91	24.54	-29.6	-32.2	15.0	0.00e+00	0	44	0	849346560	19	4822
2026-01-20 01:49:55.59	266.69	24.44	-29.5	-32.0	15.1	0.00e+00	0	44	0	851443712	19	4761
2026-01-20 01:49:56.58	266.48	24.34	-29.5	-32.3	15.3	8.83e-04	0	44	0	852492288	18	4978
2026-01-20 01:49:57.59	266.26	24.24	-29.6	-32.2	15.0	0.00e+00	0	44	0	854589440	19	4823
2026-01-20 01:49:58.58	266.05	24.13	-29.6	-32.0	15.1	0.00e+00	0	44	0	856686592	19	4779
2026-01-20 01:49:59.58	265.84	24.03	-29.4	-32.0	15.4	0.00e+00	0	44	0	858783744	18	4894
2026-01-20 01:50:00.59	265.62	23.93	-29.3	-31.9	15.4	0.00e+00	0	44	0	860880896	18	4851
2026-01-20 01:50:01.59	265.41	23.83	-29.3	-31.9	15.5	1.96e-03	0	44	0	861929472	18	4859
2026-01-20 01:50:02.59	265.20	23.72	-29.2	-31.5	15.7	0.00e+00	0	44	0	864026624	18	4713
2026-01-20 01:50:03.59	265.00	23.62	-29.0	-31.2	15.8	0.00e+00	0	44	0	866123776	18	4620
2026-01-20 01:50:04.59	264.79	23.52	-29.0	-31.0	16.0	1.99e-03	0	44	0	868220928	18	4562
2026-01-20 01:50:05.59	264.58	23.42	-29.1	-31.5	15.7	1.64e-04	0	44	0	869269504	18	4701
2026-01-20 01:50:06.59	264.38	23.31	-29.1	-31.3	15.8	0.00e+00	0	44	0	871366656	18	4655
2026-01-20 01:50:07.59	264.18	23.21	-28.9	-31.4	16.0	1.99e-03	0	44	0	873463808	17	4810
2026-01-20 01:50:08.60	263.98	23.11	-28.9	-31.5	16.0	1.88e-03	0	44	0	875560960	17	4824
2026-01-20 01:50:09.61	263.78	23.00	-29.1	-31.5	15.7	2.27e-03	0	44	0	877658112	18	4708
2026-01-20 01:50:10.61	263.58	22.90	-29.3	-32.0	15.3	2.01e-03	0	44	0	879755264	18	4879
2026-01-20 01:50:11.62	263.38	22.80	-29.4	-32.2	15.2	1.69e-03	0	44	0	880803840	18	4967
2026-01-20 01:50:12.63	263.18	22.70	-29.3	-31.9	15.4	2.67e-03	0	44	0	882900992	18	4858
2026-01-20 01:50:13.64	262.99	22.59	-29.4	-32.0	15.4	0.00e+00	0	44	0	884998144	18	4900
2026-01-20 01:50:14.64	262.79	22.49	-29.3	-32.0	15.3	1.44e-03	0	44	0	887095296	18	4892
2026-01-20 01:50:15.64	262.60	22.39	-29.3	-31.9	15.4	2.47e-03	0	44	0	888143872	18	4850
2026-01-20 01:50:16.64	262.41	22.29	-29.3	-31.9	15.4	0.00e+00	0	44	0	890241024	18	4856
2026-01-20 01:50:17.64	262.22	22.18	-29.4	-32.2	15.2	9.68e-05	0	44	0	892338176	18	4952
2026-01-20 01:50:18.64	262.03	22.08	-29.4	-32.2	15.2	2.20e-03	0	44	0	894435328	18	4970
2026-01-20 01:50:19.64	261.85	21.98	-29.4	-32.2	15.2	0.00e+00	0	44	0	896532480	18	4940
2026-01-20 01:50:20.65	261.66	21.88	-29.5	-32.3	15.1	2.15e-03	0	44	0	897581056	18	4999
2026-01-20 01:50:21.65	261.48	21.78	-29.6	-32.1	15.0	0.00e+00	0	44	0	899678208	19	4799
2026-01-20 01:50:22.65	261.29	21.67	-29.6	-32.1	14.9	7.00e-07	0	44	0	901775360	19	4821
2026-01-20 01:50:23.65	261.11	21.57	-29.5	-32.0	15.0	2.19e-03	0	44	0	903872512	19	4768
2026-01-20 01:50:24.65	260.93	21.47	-29.5	-31.8	15.1	0.00e+00	0	44	0	905969664	19	4720
2026-01-20 01:50:25.65	260.75	21.37	-29.6	-32.1	15.0	1.22e-05	0	44	0	907018240	19	4798
2026-01-20 01:50:26.66	260.57	21.27	-29.5	-31.9	15.0	2.19e-03	0	44	0	909115392	19	4756
2026-01-20 01:50:27.66	260.40	21.17	-29.6	-32.1	14.9	2.32e-03	0	44	0	911212544	19	4811
2026-01-20 01:50:28.66	260.22	21.07	-29.7	-32.4	14.7	1.22e-03	0	44	0	913309696	19	4928
2026-01-20 01:50:29.67	260.04	20.96	-29.7	-32.5	14.7	1.20e-03	0	44	0	915406848	19	4961
2026-01-20 01:50:30.66	259.87	20.87	-29.9	-33.0	14.3	2.18e-04	0	44	0	916455424	19	5122
2026-01-20 01:50:31.66	259.70	20.76	-30.2	-33.2	13.9	2.20e-06	0	44	0	918552576	20	5084
2026-01-20 01:50:32.67	259.53	20.66	-30.2	-33.1	13.9	8.89e-04	0	44	0	920649728	20	5077
2026-01-20 01:50:33.67	259.36	20.56	-30.0	-32.9	14.0	1.31e-03	0	44	0	922746880	20	4977
2026-01-20 01:50:34.67	259.19	20.46	-30.1	-33.1	13.9	6.80e-06	0	44	0	924844032	20	5069
2026-01-20 01:50:35.67	259.02	20.36	-30.3	-33.5	13.6	1.79e-03	0	44	0	925892608	20	5210
2026-01-20 01:50:36.68	258.85	20.26	-30.2	-33.3	13.7	2.26e-03	0	44	0	927989760	20	5153
2026-01-20 01:50:37.67	258.69	20.16	-30.1	-33.0	13.9	3.80e-06	0	44	0	930086912	20	5035
2026-01-20 01:50:38.67	258.52	20.06	-30.1	-32.9	14.0	2.37e-03	0	44	0	932184064	20	5006
2026-01-20 01:50:39.68	258.36	19.96	-30.1	-33.0	13.9	2.43e-03	0	44	0	933232640	20	5030
2026-01-20 01:50:40.68	258.20	19.86	-30.2	-33.2	13.8	2.82e-04	0	44	0	935329792	20	5102
2026-01-20 01:50:41.68	258.04	19.76	-30.1	-33.0	13.9	2.80e-03	0	44	0	937426944	20	5015
2026-01-20 01:50:42.68	257.88	19.67	-30.0	-32.8	14.0	1.03e-03	0	44	0	939524096	20	4969
2026-01-20 01:50:43.68	257.72	19.57	-30.0	-32.8	14.0	4.39e-04	0	44	0	941621248	20	4956
2026-01-20 01:50:44.69	257.56	19.47	-30.1	-33.0	13.9	2.52e-03	0	44	0	942669824	20	5032
2026-01-20 01:50:45.69	257.40	19.37	-30.1	-33.0	13.9	2.85e-03	0	44	0	944766976	20	5023
2026-01-20 01:50:46.69	257.24	19.27	-30.1	-32.9	13.9	6.03e-04	0	44	0	946864128	20	5011
2026-01-20 01:50:47.69	257.09	19.17	-30.1	-33.2	13.8	2.70e-03	0	44	0	948961280	20	5090
2026-01-20 01:50:48.70	256.93	19.07	-30.1	-33.0	13.8	2.55e-03	0	44	0	951058432	20	5049
2026-01-20 01:50:49.69	256.78	18.98	-30.1	-32.9	13.9	7.00e-07	0	44	0	952107008	20	4996
2026-01-20 01:50:50.69	256.63	18.88	-30.0	-32.9	13.9	2.64e-03	0	44	0	954204160	20	4986
2026-01-20 01:50:51.69	256.48	18.78	-30.1	-33.0	13.9	2.43e-03	0	44	0	956301312	20	5040
2026-01-20 01:50:52.70	256.33	18.68	-30.2	-33.3	13.7	4.83e-04	0	44	0	958398464	20	5156
2026-01-20 01:50:53.70	256.18	18.59	-30.2	-33.2	13.7	2.21e-03	0	44	0	959447040	20	5126
2026-01-20 01:50:54.71	256.03	18.49	-30.2	-33.4	13.6	2.31e-03	0	44	0	961544192	20	5199
2026-01-20 01:50:55.71	255.88	18.39	-30.3	-33.5	13.5	1.56e-04	0	44	0	963641344	20	5231
2026-01-20 01:50:56.71	255.74	18.30	-30.4	-33.8	13.3	1.22e-05	0	44	0	965738496	20	5328
2026-01-20 01:50:57.71	255.59	18.20	-30.3	-33.7	13.4	1.52e-04	0	44	0	967835648	20	5314
2026-01-20 01:50:58.72	255.44	18.10	-30.4	-33.9	13.2	1.75e-05	0	44	0	969932800	20	5403
2026-01-20 01:50:59.72	255.30	18.01	-30.4	-33.9	13.3	1.75e-05	0	44	0	970981376	20	5371
2026-01-20 01:51:00.73	255.16	17.91	-30.4	-34.0	13.1	2.44e-05	0	44	0	973078528	20	5437
2026-01-20 01:51:01.73	255.02	17.81	-30.4	-33.9	13.2	3.19e-04	0	44	0	975175680	20	5383
2026-01-20 01:51:02.73	254.87	17.72	-30.4	-33.9	13.3	2.44e-03	0	44	0	977272832	20	5373
2026-01-20 01:51:03.73	254.73	17.62	-30.4	-34.0	13.2	2.67e-05	0	44	0	978321408	20	5419
2026-01-20 01:51:04.74	254.59	17.53	-30.5	-33.7	13.0	8.62e-04	0	44	0	980418560	21	5210
2026-01-20 01:51:05.74	254.46	17.43	-30.6	-34.1	12.7	3.33e-03	0	44	0	982515712	21	5373
2026-01-20 01:51:06.74	254.32	17.34	-30.6	-34.1	12.7	1.80e-03	0	44	0	984612864	21	5377
2026-01-20 01:51:07.75	254.18	17.24	-30.7	-34.2	12.6	1.12e-04	0	44	0	986710016	21	5411
2026-01-20 01:51:08.75	254.05	17.15	-30.8	-34.7	12.4	3.72e-03	0	44	0	987758592	21	5596
2026-01-20 01:51:09.75	253.91	17.05	-30.8	-34.7	12.4	3.69e-03	0	44	0	989855744	21	5599
2026-01-20 01:51:10.75	253.78	16.96	-30.9	-34.9	12.2	2.05e-04	0	44	0	991952896	21	5693
2026-01-20 01:51:11.75	253.65	16.87	-31.0	-34.8	11.9	4.26e-04	0	44	0	994050048	22	5535
2026-01-20 01:51:12.76	253.51	16.77	-31.0	-35.1	11.9	4.51e-03	0	44	0	996147200	21	5779
2026-01-20 01:51:13.76	253.38	16.68	-31.0	-34.8	11.8	2.25e-03	0	44	0	997195776	22	5570
2026-01-20 01:51:14.76	253.25	16.58	-31.2	-35.4	11.4	7.09e-04	0	44	0	999292928	22	5845
2026-01-20 01:51:15.77	253.12	16.49	-31.1	-35.2	11.6	4.87e-03	0	44	0	1001390080	22	5711
2026-01-20 01:51:16.77	252.99	16.40	-31.0	-34.7	11.9	1.69e-03	0	44	0	1003487232	22	5532
2026-01-20 01:51:17.77	252.86	16.31	-30.8	-34.7	12.2	2.61e-04	0	44	0	1005584384	21	5617
2026-01-20 01:51:18.78	252.73	16.21	-30.8	-34.6	12.3	1.90e-04	0	44	0	1006632960	21	5570
2026-01-20 01:51:19.78	252.61	16.12	-30.8	-34.6	12.3	9.28e-04	0	44	0	1008730112	21	5588
2026-01-20 01:51:20.78	252.48	16.03	-30.8	-34.5	12.4	1.39e-04	0	44	0	1010827264	21	5540
2026-01-20 01:51:21.78	252.36	15.94	-30.7	-34.4	12.4	1.37e-04	0	45	0	1012924416	21	5491
2026-01-20 01:51:22.78	252.23	15.85	-30.8	-34.5	12.3	1.06e-03	0	45	0	1015021568	21	5560
2026-01-20 01:51:23.79	252.11	15.75	-30.8	-34.5	12.4	1.75e-04	0	44	0	1016070144	21	5552
2026-01-20 01:51:24.80	251.99	15.66	-30.8	-34.7	12.2	1.72e-04	0	44	0	1018167296	21	5625
2026-01-20 01:51:25.80	251.86	15.57	-31.0	-35.1	11.9	2.68e-04	0	45	0	1020264448	21	5819
2026-01-20 01:51:26.80	251.74	15.48	-30.9	-35.0	12.0	4.71e-03	0	44	0	1022361600	21	5756
2026-01-20 01:51:27.80	251.62	15.39	-30.9	-35.0	12.0	5.41e-04	0	44	0	1023410176	21	5762
2026-01-20 01:51:28.81	251.50	15.30	-31.0	-34.9	11.7	4.48e-04	0	45	0	1025507328	22	5606
2026-01-20 01:51:29.81	251.38	15.21	-31.2	-35.5	11.3	8.29e-04	0	44	0	1027604480	22	5870
2026-01-20 01:51:30.82	251.26	15.12	-31.1	-35.2	11.4	1.38e-03	0	44	0	1029701632	22	5736
2026-01-20 01:51:31.82	251.15	15.03	-31.0	-34.8	11.7	8.10e-04	0	44	0	1031798784	22	5553
2026-01-20 01:51:32.82	251.03	14.94	-30.9	-35.0	11.9	4.50e-04	0	44	0	1032847360	21	5762
2026-01-20 01:51:33.82	250.92	14.85	-30.9	-34.9	12.0	5.48e-04	0	45	0	1034944512	21	5727
2026-01-20 01:51:34.82	250.80	14.76	-31.0	-34.8	11.7	7.47e-04	0	44	0	1037041664	22	5561
2026-01-20 01:51:35.83	250.68	14.67	-31.2	-35.3	11.4	7.44e-04	0	44	0	1039138816	22	5784
2026-01-20 01:51:36.83	250.57	14.58	-31.0	-34.8	11.6	1.00e-03	0	44	0	1041235968	22	5591
2026-01-20 01:51:37.83	250.46	14.49	-30.9	-34.4	12.0	6.83e-04	0	44	0	1042284544	22	5413
2026-01-20 01:51:38.83	250.35	14.41	-30.8	-34.8	12.0	3.34e-04	0	44	0	1044381696	21	5666
2026-01-20 01:51:39.83	250.23	14.32	-30.8	-34.7	12.1	2.83e-04	0	45	0	1046478848	21	5623
2026-01-20 01:51:40.84	250.12	14.23	-30.9	-35.1	11.8	6.33e-04	0	44	0	1048576000	21	5807
2026-01-20 01:51:41.84	250.01	14.14	-30.8	-34.8	12.0	3.70e-04	0	44	0	1050673152	21	5680
2026-01-20 01:51:42.84	249.90	14.05	-30.8	-34.6	12.1	4.50e-04	0	44	0	1051721728	21	5613
2026-01-20 01:51:43.84	249.79	13.97	-30.8	-34.7	12.1	4.44e-04	0	44	0	1053818880	21	5622
2026-01-20 01:51:44.85	249.68	13.88	-30.8	-34.6	12.1	2.66e-04	0	44	0	1055916032	21	5623
2026-01-20 01:51:45.85	249.58	13.79	-30.9	-34.9	11.9	5.07e-04	0	44	0	1058013184	21	5750
2026-01-20 01:51:46.86	249.47	13.71	-30.8	-34.7	12.0	4.25e-04	0	44	0	1060110336	21	5673
2026-01-20 01:51:47.86	249.36	13.62	-30.9	-35.0	11.7	4.16e-04	0	44	0	1061158912	21	5782
2026-01-20 01:51:48.87	249.25	13.53	-31.1	-35.2	11.4	8.85e-04	0	45	0	1063256064	22	5747
2026-01-20 01:51:49.86	249.15	13.45	-29.9	-34.7	10.5	1.49e-03	0	44	0	1065353216	21	6258
2026-01-20 01:51:50.87	249.04	13.36	-31.1	-35.3	11.2	1.63e-03	0	44	0	1067450368	22	5800
2026-01-20 01:51:51.87	248.94	13.28	-31.3	-35.7	10.9	1.80e-03	0	44	0	1069547520	22	6024
2026-01-20 01:51:52.88	248.84	13.19	-31.1	-35.4	11.1	2.15e-03	0	45	0	1070596096	22	5849
2026-01-20 01:51:53.88	248.73	13.10	-31.3	-35.8	10.8	7.06e-03	0	44	0	1072693248	22	6076
2026-01-20 01:51:54.88	248.63	13.02	-31.3	-36.0	10.7	3.07e-03	0	44	0	1074790400	22	6142
2026-01-20 01:51:55.88	248.53	12.94	-31.3	-36.0	10.6	3.70e-03	0	44	0	1076887552	22	6157
2026-01-20 01:51:56.87	248.43	12.85	-31.4	-36.3	10.4	3.42e-03	0	44	0	1077936128	22	6337
2026-01-20 01:51:57.88	248.33	12.77	-31.4	-36.3	10.4	6.69e-03	0	44	0	1080033280	22	6305
2026-01-20 01:51:58.88	248.23	12.68	-31.5	-36.5	10.3	5.07e-03	0	44	0	1082130432	22	6401
2026-01-20 01:51:59.88	248.13	12.60	-31.4	-36.3	10.4	4.82e-03	0	44	0	1084227584	22	6294
2026-01-20 01:52:00.85	248.03	12.52	-31.6	-36.4	10.0	5.14e-03	0	44	0	1086324736	23	6273
2026-01-20 01:52:01.86	247.94	12.43	-31.4	-36.3	10.4	6.63e-03	0	44	0	1087373312	22	6336
2026-01-20 01:52:02.87	247.84	12.35	-31.2	-35.6	10.9	3.31e-03	0	45	0	1089470464	22	5979
2026-01-20 01:52:03.86	247.74	12.27	-31.0	-35.1	11.3	2.25e-03	0	44	0	1091567616	22	5739
2026-01-20 01:52:04.86	247.64	12.18	-31.0	-35.3	11.5	4.34e-03	0	45	0	1093664768	21	5947
2026-01-20 01:52:05.87	247.55	12.10	-31.1	-35.2	11.2	9.37e-04	0	44	0	1095761920	22	5767
2026-01-20 01:52:06.87	247.45	12.02	-31.1	-35.3	11.1	1.90e-03	0	44	0	1096810496	22	5846
2026-01-20 01:52:07.88	247.36	11.94	-31.1	-35.4	11.1	4.41e-03	0	44	0	1098907648	22	5863
2026-01-20 01:52:08.88	247.26	11.85	-31.2	-35.6	10.9	4.89e-03	0	44	0	1101004800	22	5955
2026-01-20 01:52:09.88	247.17	11.77	-31.1	-35.4	11.0	2.96e-03	0	45	0	1103101952	22	5896
2026-01-20 01:52:10.89	247.08	11.69	-31.2	-35.6	10.8	3.15e-03	0	44	0	1105199104	22	5980
2026-01-20 01:52:11.89	246.98	11.61	-31.2	-35.5	10.9	5.74e-03	0	44	0	1106247680	22	5958
2026-01-20 01:52:12.89	246.89	11.53	-31.3	-36.1	10.5	3.98e-03	0	44	0	1108344832	22	6237
2026-01-20 01:52:13.89	246.80	11.45	-31.2	-35.7	10.7	5.24e-03	0	44	0	1110441984	22	6051
2026-01-20 01:52:14.90	246.71	11.36	-31.1	-35.4	11.0	6.32e-03	0	44	0	1112539136	22	5871
2026-01-20 01:52:15.90	246.62	11.28	-31.0	-35.1	11.2	4.67e-03	0	44	0	1113587712	22	5762
2026-01-20 01:52:16.90	246.53	11.20	-30.9	-35.4	11.3	2.41e-03	0	44	0	1115684864	21	5990
2026-01-20 01:52:17.91	246.44	11.12	-30.9	-35.3	11.4	9.41e-04	0	44	0	1117782016	21	5952
2026-01-20 01:52:18.91	246.35	11.04	-31.0	-35.1	11.1	2.88e-03	0	44	0	1119879168	22	5773
2026-01-20 01:52:19.91	246.26	10.96	-30.9	-35.4	11.3	6.19e-03	0	44	0	1121976320	21	5995
2026-01-20 01:52:20.91	246.17	10.88	-30.9	-35.4	11.3	1.12e-03	0	44	0	1123024896	21	5997
2026-01-20 01:52:21.92	246.08	10.80	-31.0	-35.6	11.2	2.72e-03	0	44	0	1125122048	21	6084
2026-01-20 01:52:22.92	246.00	10.72	-31.2	-35.6	10.8	5.87e-03	0	44	0	1127219200	22	6022
2026-01-20 01:52:23.92	245.91	10.64	-31.3	-35.9	10.5	3.07e-03	0	44	0	1129316352	22	6143
2026-01-20 01:52:24.92	245.82	10.56	-31.1	-35.4	10.9	2.96e-03	0	44	0	1131413504	22	5907
2026-01-20 01:52:25.93	245.74	10.49	-31.3	-35.9	10.5	6.00e-03	0	44	0	1132462080	22	6172
2026-01-20 01:52:26.93	245.65	10.41	-31.1	-35.6	10.8	5.38e-03	0	44	0	1134559232	22	5984
2026-01-20 01:52:27.94	245.57	10.33	-31.1	-35.3	11.0	2.63e-03	0	44	0	1136656384	22	5839
2026-01-20 01:52:28.94	245.48	10.25	-31.1	-35.4	10.9	3.99e-03	0	44	0	1138753536	22	5906
2026-01-20 01:52:29.94	245.40	10.17	-31.1	-35.5	10.8	2.85e-03	0	44	0	1140850688	22	5955
2026-01-20 01:52:30.94	245.32	10.09	-31.2	-35.9	10.5	3.17e-03	0	44	0	1141899264	22	6144
2026-01-20 01:52:31.94	245.23	10.02	-31.4	-36.4	10.1	7.19e-03	0	44	0	1143996416	22	6416
2026-01-20 01:52:32.94	245.15	9.94	-31.3	-36.0	10.4	8.14e-03	0	45	0	1146093568	22	6237
2026-01-20 01:52:33.94	245.07	9.86	-31.2	-35.7	10.7	4.08e-03	0	45	0	1148190720	22	6039
2026-01-20 01:52:34.94	244.99	9.78	-31.2	-35.8	10.6	3.32e-03	0	44	0	1150287872	22	6120
2026-01-20 01:52:35.94	244.91	9.71	-31.2	-35.9	10.4	7.44e-03	0	45	0	1151336448	22	6183
2026-01-20 01:52:36.95	244.82	9.63	-31.2	-35.8	10.5	4.20e-03	0	44	0	1153433600	22	6115
2026-01-20 01:52:37.94	244.75	9.55	-31.3	-36.2	10.2	7.55e-03	0	44	0	1155530752	22	6350
2026-01-20 01:52:38.94	244.67	9.48	-31.2	-35.9	10.5	7.85e-03	0	44	0	1157627904	22	6156
2026-01-20 01:52:39.95	244.59	9.40	-31.2	-35.7	10.6	4.40e-03	0	44	0	1158676480	22	6085
2026-01-20 01:52:40.96	244.51	9.32	-31.2	-35.8	10.5	6.76e-03	0	44	0	1160773632	22	6102
2026-01-20 01:52:41.96	244.43	9.25	-31.2	-35.7	10.6	3.59e-03	0	44	0	1162870784	22	6079
2026-01-20 01:52:42.97	244.35	9.17	-31.3	-36.2	10.2	4.88e-03	0	44	0	1164967936	22	6332
2026-01-20 01:52:43.97	244.27	9.10	-31.2	-35.8	10.4	8.28e-03	0	45	0	1167065088	22	6141
2026-01-20 01:52:44.97	244.19	9.02	-31.2	-35.9	10.4	6.63e-03	0	44	0	1169162240	22	6194
2026-01-20 01:52:45.97	244.12	8.95	-31.2	-35.9	10.4	5.47e-03	0	44	0	1170210816	22	6207
2026-01-20 01:52:46.97	244.04	8.87	-31.3	-36.3	10.1	7.63e-03	0	44	0	1172307968	22	6380
2026-01-20 01:52:47.98	243.96	8.80	-31.2	-36.0	10.3	9.69e-03	0	44	0	1174405120	22	6259
2026-01-20 01:52:48.98	243.89	8.72	-31.2	-36.1	10.2	6.24e-03	0	44	0	1176502272	22	6299
2026-01-20 01:52:49.98	243.81	8.65	-31.2	-36.1	10.2	8.87e-03	0	44	0	1177550848	22	6304
2026-01-20 01:52:50.98	243.74	8.57	-31.4	-36.5	9.8	9.61e-03	0	44	0	1179648000	22	6545
2026-01-20 01:52:51.99	243.66	8.50	-31.2	-36.1	10.1	7.34e-03	0	45	0	1181745152	22	6325
2026-01-20 01:52:52.99	243.59	8.42	-31.3	-36.2	10.1	8.37e-03	0	44	0	1183842304	22	6379
2026-01-20 01:52:53.99	243.52	8.35	-31.3	-36.2	10.1	9.23e-03	0	44	0	1185939456	22	6369
2026-01-20 01:52:54.99	243.44	8.28	-31.4	-36.6	9.7	7.49e-03	0	44	0	1186988032	22	6603
2026-01-20 01:52:55.99	243.37	8.20	-31.3	-36.3	9.9	9.49e-03	0	44	0	1189085184	22	6429
2026-01-20 01:52:57.00	243.30	8.13	-31.2	-36.1	10.1	1.02e-02	0	44	0	1191182336	22	6333
2026-01-20 01:52:58.00	243.23	8.06	-31.3	-36.5	9.8	9.87e-03	0	45	0	1193279488	22	6543
2026-01-20 01:52:59.01	243.15	7.98	-31.3	-36.3	9.9	8.23e-03	0	44	0	1195376640	22	6420
2026-01-20 01:53:00.01	243.08	7.91	-31.3	-36.3	9.9	9.18e-03	0	44	0	1196425216	22	6455
2026-01-20 01:53:01.01	243.01	7.84	-31.3	-36.5	9.7	9.86e-03	0	45	0	1198522368	22	6549
2026-01-20 01:53:02.01	242.94	7.77	-31.3	-36.5	9.7	1.36e-02	0	44	0	1200619520	22	6581
2026-01-20 01:53:03.01	242.87	7.69	-31.3	-36.4	9.8	1.11e-02	0	44	0	1202716672	22	6504
2026-01-20 01:53:04.01	242.80	7.62	-31.2	-36.3	9.9	8.85e-03	0	44	0	1204813824	22	6446
2026-01-20 01:53:05.02	242.73	7.55	-31.3	-36.5	9.7	1.22e-02	0	44	0	1205862400	22	6580
2026-01-20 01:53:06.02	242.66	7.48	-31.3	-36.5	9.7	1.13e-02	0	44	0	1207959552	22	6560
2026-01-20 01:53:07.02	242.59	7.41	-31.3	-36.7	9.5	1.30e-02	0	45	0	1210056704	22	6678
2026-01-20 01:53:08.02	242.52	7.33	-31.3	-36.8	9.4	1.78e-02	0	45	0	1212153856	22	6770
2026-01-20 01:53:09.02	242.46	7.26	-31.4	-37.0	9.3	1.72e-02	0	45	0	1214251008	22	6858
2026-01-20 01:53:10.02	242.39	7.19	-31.3	-36.8	9.4	1.59e-02	0	44	0	1215299584	22	6758
2026-01-20 01:53:11.02	242.32	7.12	-31.3	-36.7	9.5	1.70e-02	0	44	0	1217396736	22	6710
2026-01-20 01:53:12.02	242.25	7.05	-33.3	-47.5	3.8	9.05e-01	0	44	104	1218445312	26	18559
2026-01-20 01:53:13.01	242.19	6.98	-33.5	-47.7	3.8	1.49e+00	0	44	104	1218445312	27	18347
2026-01-20 01:53:14.02	242.12	6.91	-33.9	-48.3	3.8	1.49e+00	0	45	104	1218445312	27	18987
2026-01-20 01:53:15.02	242.05	6.84	-34.0	-48.1	3.8	1.49e+00	0	44	104	1218445312	28	18237

#Closed at: 2026-01-20 01:53:15
#Recorded file [1218 MB]: D:/data/31010_260120_044221.dat