passes_logs/2026/01/20/R2M6_AANII_01/R2M6_AANII_01__20260120_111438_SUOMI_NPP_rec.log

#Pass ID: 20260120_111438_SUOMI NPP
#Satellite: SUOMI NPP
#Configuration: NPP
#almurnet v.1.7.20240730
#Start time: 2026-01-20 11:14:37

#Version: 2.2.20231116
#Station: R2M6_AANII_01
#Location: 30.233357 lon 59.946436 lat
#TLE: 1 37849U 11061A   26019.61507914  .00000076  00000+0  57195-4 0  9994
#TLE: 2 37849  98.7817 321.6240 0002347  55.5899 304.5499 14.19526391737369

#Time	Az	El	Level	Level2	SNR	BER	BlckErr	Temp	State	Recorded	gain1	gain2
2026-01-20 11:14:37.97	186.99	6.97	-31.0	-33.4	5.4	1.21e+00	0	42	0	0	23	4746
2026-01-20 11:14:38.96	187.04	7.04	-31.7	-36.2	5.0	1.27e+00	0	42	104	0	23	6020
2026-01-20 11:14:39.96	187.10	7.12	-31.8	-36.5	7.9	8.26e-02	0	42	0	0	23	6176
2026-01-20 11:14:40.96	187.15	7.19	-31.6	-35.6	8.7	4.49e-02	0	42	0	1048576	23	5708
2026-01-20 11:14:41.97	187.20	7.26	-31.8	-36.2	8.2	4.89e-02	0	42	0	3145728	23	6018
2026-01-20 11:14:42.97	187.26	7.34	-31.5	-35.3	8.9	4.33e-02	0	42	0	5242880	23	5553
2026-01-20 11:14:43.98	187.31	7.41	-31.4	-34.9	9.2	1.79e-02	0	42	0	7340032	23	5356
2026-01-20 11:14:44.99	187.36	7.49	-31.3	-34.5	9.5	1.33e-02	0	42	0	9437184	23	5168
2026-01-20 11:14:45.99	187.42	7.56	-31.1	-33.7	10.2	5.00e-03	0	42	0	10485760	23	4850
2026-01-20 11:14:47.00	187.47	7.64	-30.9	-33.1	10.6	6.11e-03	0	42	0	12582912	23	4626
2026-01-20 11:14:48.00	187.53	7.72	-31.1	-33.6	10.3	4.76e-03	0	42	0	14680064	23	4792
2026-01-20 11:14:49.00	187.58	7.79	-31.1	-33.7	10.2	5.96e-03	0	42	0	16777216	23	4847
2026-01-20 11:14:50.01	187.64	7.87	-31.2	-34.0	9.9	6.72e-03	0	42	0	17825792	23	4976
2026-01-20 11:14:51.01	187.69	7.94	-31.1	-33.6	10.3	5.16e-03	0	42	0	19922944	23	4783
2026-01-20 11:14:52.03	187.75	8.02	-31.2	-34.0	10.0	5.95e-03	0	42	0	22020096	23	4950
2026-01-20 11:14:53.03	187.81	8.10	-31.2	-33.9	10.1	7.25e-03	0	42	0	24117248	23	4901
2026-01-20 11:14:54.03	187.86	8.17	-31.2	-33.9	10.2	6.13e-03	0	42	0	26214400	23	4895
2026-01-20 11:14:55.03	187.92	8.25	-31.3	-34.3	9.8	7.74e-03	0	42	0	28311552	23	5096
2026-01-20 11:14:56.03	187.98	8.33	-31.3	-34.1	10.0	1.01e-02	0	42	0	29360128	23	5003
2026-01-20 11:14:57.04	188.04	8.41	-31.3	-34.1	10.0	8.48e-03	0	42	0	31457280	23	5000
2026-01-20 11:14:58.04	188.09	8.48	-31.5	-35.0	9.3	1.39e-02	0	42	0	33554432	23	5387
2026-01-20 11:14:59.04	188.15	8.56	-31.3	-34.2	9.9	1.26e-02	0	43	0	35651584	23	5033
2026-01-20 11:15:00.04	188.21	8.64	-31.3	-34.0	10.0	7.41e-03	0	43	0	36700160	23	4962
2026-01-20 11:15:01.05	188.27	8.72	-31.1	-33.6	10.4	5.07e-03	0	42	0	38797312	23	4780
2026-01-20 11:15:02.05	188.33	8.80	-31.1	-33.6	10.5	4.27e-03	0	43	0	40894464	23	4775
2026-01-20 11:15:03.05	188.39	8.87	-31.1	-33.6	10.4	5.56e-03	0	43	0	42991616	23	4769
2026-01-20 11:15:04.06	188.45	8.95	-31.1	-33.6	10.4	4.82e-03	0	43	0	45088768	23	4786
2026-01-20 11:15:05.06	188.51	9.03	-31.0	-33.3	10.6	3.95e-03	0	43	0	46137344	23	4674
2026-01-20 11:15:06.07	188.57	9.11	-31.1	-33.4	10.5	3.90e-03	0	43	0	48234496	23	4701
2026-01-20 11:15:07.08	188.63	9.19	-31.1	-33.4	10.5	3.47e-03	0	43	0	50331648	23	4728
2026-01-20 11:15:08.08	188.69	9.27	-31.1	-33.4	10.5	3.56e-03	0	43	0	52428800	23	4728
2026-01-20 11:15:09.08	188.75	9.35	-31.2	-34.0	10.1	4.66e-03	0	43	0	54525952	23	4938
2026-01-20 11:15:10.08	188.81	9.43	-31.1	-33.5	10.5	5.52e-03	0	43	0	55574528	23	4735
2026-01-20 11:15:11.09	188.87	9.51	-31.0	-33.4	10.6	3.68e-03	0	43	0	57671680	23	4698
2026-01-20 11:15:12.09	188.93	9.59	-31.1	-33.6	10.3	3.63e-03	0	43	0	59768832	23	4794
2026-01-20 11:15:13.10	189.00	9.67	-31.0	-33.1	10.8	2.85e-03	0	43	0	61865984	23	4606
2026-01-20 11:15:14.10	189.06	9.76	-31.0	-33.2	10.7	3.41e-03	0	43	0	63963136	23	4616
2026-01-20 11:15:15.10	189.12	9.84	-31.0	-33.2	10.8	2.10e-03	0	43	0	65011712	23	4618
2026-01-20 11:15:16.10	189.18	9.92	-31.1	-33.4	10.6	3.46e-03	0	43	0	67108864	23	4709
2026-01-20 11:15:17.10	189.25	10.00	-31.0	-33.1	10.8	2.94e-03	0	43	0	69206016	23	4598
2026-01-20 11:15:18.11	189.31	10.08	-30.9	-32.7	11.1	1.32e-03	0	43	0	71303168	23	4462
2026-01-20 11:15:19.11	189.38	10.16	-30.9	-32.7	11.1	1.83e-03	0	43	0	73400320	23	4457
2026-01-20 11:15:20.12	189.44	10.25	-30.7	-32.8	11.4	1.37e-03	0	43	0	74448896	22	4565
2026-01-20 11:15:21.11	189.51	10.33	-30.9	-33.3	11.1	1.19e-03	0	43	0	76546048	22	4731
2026-01-20 11:15:22.12	189.57	10.41	-30.8	-32.9	11.4	1.14e-03	0	43	0	78643200	22	4589
2026-01-20 11:15:23.12	189.64	10.50	-30.8	-33.1	11.3	9.30e-04	0	43	0	80740352	22	4663
2026-01-20 11:15:24.12	189.70	10.58	-30.9	-33.2	11.2	1.37e-03	0	43	0	82837504	22	4703
2026-01-20 11:15:25.12	189.77	10.66	-30.7	-32.7	11.6	6.61e-04	0	43	0	83886080	22	4510
2026-01-20 11:15:26.13	189.84	10.75	-30.7	-32.5	11.7	5.74e-04	0	43	0	85983232	22	4427
2026-01-20 11:15:27.13	189.90	10.83	-30.7	-32.6	11.7	4.99e-04	0	43	0	88080384	22	4466
2026-01-20 11:15:28.13	189.97	10.92	-30.8	-32.8	11.6	6.32e-04	0	43	0	90177536	22	4538
2026-01-20 11:15:29.14	190.04	11.00	-30.9	-33.1	11.3	1.13e-03	0	43	0	91226112	22	4646
2026-01-20 11:15:30.14	190.11	11.09	-30.8	-32.8	11.5	1.12e-03	0	43	0	93323264	22	4541
2026-01-20 11:15:31.14	190.18	11.17	-30.8	-33.0	11.5	9.15e-04	0	43	0	95420416	22	4593
2026-01-20 11:15:32.14	190.24	11.26	-30.8	-32.7	11.6	6.53e-04	0	43	0	97517568	22	4507
2026-01-20 11:15:33.14	190.31	11.34	-30.7	-32.6	11.7	5.48e-04	0	43	0	99614720	22	4466
2026-01-20 11:15:34.13	190.38	11.43	-30.9	-33.0	11.4	7.31e-04	0	43	0	100663296	22	4624
2026-01-20 11:15:35.14	190.45	11.52	-30.8	-32.7	11.6	6.80e-04	0	43	0	102760448	22	4498
2026-01-20 11:15:36.15	190.52	11.60	-30.8	-32.7	11.6	6.33e-04	0	43	0	104857600	22	4505
2026-01-20 11:15:37.16	190.60	11.69	-30.7	-32.6	11.7	5.26e-04	0	43	0	106954752	22	4465
2026-01-20 11:15:38.16	190.67	11.78	-30.9	-33.1	11.3	6.42e-04	0	44	0	109051904	22	4645
2026-01-20 11:15:39.16	190.74	11.87	-30.6	-32.3	11.9	5.48e-04	0	43	0	110100480	22	4381
2026-01-20 11:15:40.16	190.81	11.95	-30.5	-31.8	12.3	2.24e-04	0	43	0	112197632	22	4207
2026-01-20 11:15:41.16	190.88	12.04	-30.3	-31.9	12.5	1.09e-04	0	43	0	114294784	21	4337
2026-01-20 11:15:42.16	190.96	12.13	-30.3	-32.0	12.5	1.04e-04	0	43	0	116391936	21	4346
2026-01-20 11:15:43.16	191.03	12.22	-30.4	-32.2	12.3	1.72e-04	0	43	0	118489088	21	4432
2026-01-20 11:15:44.16	191.10	12.31	-30.3	-32.0	12.5	1.35e-04	0	43	0	119537664	21	4346
2026-01-20 11:15:45.16	191.18	12.40	-30.3	-31.9	12.5	8.62e-05	0	43	0	121634816	21	4342
2026-01-20 11:15:46.16	191.25	12.49	-30.4	-32.3	12.3	1.81e-04	0	44	0	123731968	21	4451
2026-01-20 11:15:47.16	191.33	12.58	-30.3	-31.8	12.5	1.36e-04	0	44	0	125829120	21	4304
2026-01-20 11:15:48.15	191.40	12.66	-30.1	-31.4	12.8	8.31e-05	0	43	0	126877696	21	4182
2026-01-20 11:15:49.16	191.48	12.76	-30.2	-31.5	12.7	4.80e-05	0	43	0	128974848	21	4221
2026-01-20 11:15:50.16	191.55	12.85	-30.1	-31.4	12.8	5.11e-05	0	43	0	131072000	21	4189
2026-01-20 11:15:51.15	191.63	12.94	-30.1	-31.5	12.8	7.93e-05	0	44	0	133169152	21	4208
2026-01-20 11:15:52.16	191.71	13.03	-30.3	-31.8	12.5	7.85e-05	0	44	0	135266304	21	4321
2026-01-20 11:15:53.16	191.78	13.12	-30.5	-32.5	12.0	2.68e-04	0	44	0	136314880	21	4552
2026-01-20 11:15:54.16	191.86	13.21	-30.2	-31.8	12.4	1.70e-04	0	44	0	138412032	21	4320
2026-01-20 11:15:55.16	191.94	13.30	-30.1	-31.4	12.7	9.07e-05	0	44	0	140509184	21	4185
2026-01-20 11:15:56.15	192.02	13.39	-30.0	-31.0	12.9	3.05e-05	0	44	0	142606336	21	4068
2026-01-20 11:15:57.16	192.10	13.49	-29.9	-30.8	13.2	2.97e-05	0	44	0	144703488	21	4000
2026-01-20 11:15:58.15	192.18	13.58	-30.0	-31.1	13.0	2.13e-05	0	44	0	145752064	21	4084
2026-01-20 11:15:59.16	192.26	13.67	-30.0	-31.0	13.1	1.83e-05	0	44	0	147849216	21	4033
2026-01-20 11:16:00.16	192.34	13.77	-29.9	-30.9	13.2	1.37e-05	0	44	0	149946368	21	3997
2026-01-20 11:16:01.16	192.42	13.86	-30.0	-31.0	13.1	1.29e-05	0	43	0	152043520	21	4051
2026-01-20 11:16:02.16	192.50	13.96	-29.9	-30.6	13.4	9.10e-06	0	43	0	153092096	21	3932
2026-01-20 11:16:03.16	192.59	14.05	-29.8	-30.5	13.5	6.80e-06	0	44	0	155189248	21	3884
2026-01-20 11:16:04.17	192.67	14.15	-29.8	-30.5	13.5	9.10e-06	0	44	0	157286400	21	3898
2026-01-20 11:16:05.17	192.75	14.24	-29.8	-31.0	13.5	8.30e-06	0	44	0	159383552	20	4126
2026-01-20 11:16:06.17	192.84	14.34	-29.8	-31.0	13.5	7.60e-06	0	44	0	161480704	20	4128
2026-01-20 11:16:07.17	192.92	14.43	-29.9	-31.1	13.5	9.10e-06	0	43	0	163577856	20	4167
2026-01-20 11:16:08.17	193.01	14.53	-29.9	-31.1	13.4	1.14e-05	0	43	0	164626432	20	4158
2026-01-20 11:16:09.18	193.09	14.63	-29.7	-30.8	13.7	6.10e-06	0	44	0	166723584	20	4055
2026-01-20 11:16:10.17	193.18	14.72	-29.8	-31.0	13.5	1.22e-05	0	44	0	168820736	20	4126
2026-01-20 11:16:11.18	193.27	14.82	-29.8	-30.9	13.6	9.90e-06	0	44	0	170917888	20	4088
2026-01-20 11:16:12.18	193.35	14.92	-29.8	-30.9	13.6	8.30e-06	0	44	0	171966464	20	4097
2026-01-20 11:16:13.19	193.44	15.02	-29.8	-30.9	13.6	3.80e-06	0	44	0	174063616	20	4086
2026-01-20 11:16:14.19	193.53	15.11	-29.7	-30.5	13.9	7.60e-06	0	44	0	176160768	20	3973
2026-01-20 11:16:15.20	193.62	15.21	-29.9	-31.1	13.5	5.30e-06	0	44	0	178257920	20	4144
2026-01-20 11:16:16.20	193.71	15.31	-29.8	-30.9	13.7	4.50e-06	0	44	0	180355072	20	4074
2026-01-20 11:16:17.20	193.80	15.41	-29.8	-30.9	13.7	4.50e-06	0	43	0	181403648	20	4090
2026-01-20 11:16:18.21	193.89	15.51	-29.8	-30.9	13.8	3.80e-06	0	44	0	183500800	20	4063
2026-01-20 11:16:19.21	193.98	15.61	-29.7	-30.7	13.8	6.80e-06	0	44	0	185597952	20	4032
2026-01-20 11:16:20.20	194.07	15.71	-29.8	-30.9	13.8	4.50e-06	0	44	0	187695104	20	4079
2026-01-20 11:16:21.20	194.16	15.81	-29.8	-30.8	13.9	6.10e-06	0	44	0	189792256	20	4041
2026-01-20 11:16:22.21	194.26	15.91	-29.7	-30.5	14.1	2.20e-06	0	44	0	190840832	20	3967
2026-01-20 11:16:23.21	194.35	16.01	-29.6	-30.4	14.1	1.50e-06	0	44	0	192937984	20	3942
2026-01-20 11:16:24.21	194.45	16.12	-29.8	-30.8	13.9	7.00e-07	0	44	0	195035136	20	4034
2026-01-20 11:16:25.22	194.54	16.22	-29.9	-31.1	13.7	6.80e-06	0	44	0	197132288	20	4122
2026-01-20 11:16:26.22	194.64	16.32	-29.7	-30.5	14.0	1.50e-06	0	44	0	199229440	20	3968
2026-01-20 11:16:27.23	194.73	16.42	-29.7	-30.6	14.0	3.00e-06	0	44	0	200278016	20	3996
2026-01-20 11:16:28.23	194.83	16.53	-29.7	-30.6	14.0	2.20e-06	0	44	0	202375168	20	3986
2026-01-20 11:16:29.23	194.93	16.63	-29.8	-30.9	13.9	3.00e-06	0	44	0	204472320	20	4078
2026-01-20 11:16:30.23	195.03	16.73	-29.8	-30.8	13.9	7.00e-07	0	44	0	206569472	20	4033
2026-01-20 11:16:31.23	195.12	16.84	-30.0	-31.2	13.6	3.00e-06	0	44	0	208666624	20	4170
2026-01-20 11:16:32.23	195.22	16.94	-30.0	-31.2	13.7	3.80e-06	0	44	0	209715200	20	4150
2026-01-20 11:16:33.24	195.32	17.05	-30.2	-31.8	13.3	1.29e-05	0	44	0	211812352	20	4347
2026-01-20 11:16:34.24	195.42	17.15	-29.9	-31.2	13.7	5.30e-06	0	44	0	213909504	20	4152
2026-01-20 11:16:35.24	195.53	17.26	-30.0	-31.3	13.7	6.80e-06	0	44	0	216006656	20	4174
2026-01-20 11:16:36.24	195.63	17.36	-29.9	-31.0	13.8	5.30e-06	0	44	0	217055232	20	4108
2026-01-20 11:16:37.25	195.73	17.47	-30.0	-31.3	13.6	7.60e-06	0	44	0	219152384	20	4199
2026-01-20 11:16:38.25	195.83	17.58	-30.1	-31.5	13.4	1.52e-05	0	44	0	221249536	20	4257
2026-01-20 11:16:39.25	195.94	17.69	-30.0	-31.3	13.6	3.80e-06	0	44	0	223346688	20	4181
2026-01-20 11:16:40.25	196.04	17.79	-30.3	-32.1	13.0	3.28e-05	0	44	0	225443840	20	4457
2026-01-20 11:16:41.25	196.15	17.90	-30.1	-31.7	13.3	1.37e-05	0	44	0	226492416	20	4297
2026-01-20 11:16:42.26	196.26	18.01	-30.1	-31.5	13.5	4.50e-06	0	44	0	228589568	20	4241
2026-01-20 11:16:43.25	196.36	18.12	-30.1	-31.6	13.4	6.10e-06	0	44	0	230686720	20	4287
2026-01-20 11:16:44.25	196.47	18.23	-30.1	-31.6	13.4	2.21e-05	0	44	0	232783872	20	4282
2026-01-20 11:16:45.25	196.58	18.34	-30.2	-31.8	13.3	1.60e-05	0	44	0	234881024	20	4353
2026-01-20 11:16:46.26	196.69	18.45	-30.3	-32.0	13.2	1.67e-05	0	44	0	235929600	20	4403
2026-01-20 11:16:47.26	196.80	18.56	-30.4	-32.4	12.9	3.28e-05	0	44	0	238026752	20	4541
2026-01-20 11:16:48.27	196.91	18.67	-30.2	-31.8	13.3	2.36e-05	0	44	0	240123904	20	4339
2026-01-20 11:16:49.27	197.02	18.78	-30.3	-32.1	13.2	4.88e-05	0	44	0	242221056	20	4427
2026-01-20 11:16:50.28	197.13	18.89	-30.5	-32.1	12.8	6.17e-05	0	44	0	244318208	21	4351
2026-01-20 11:16:51.27	197.25	19.00	-30.5	-32.1	12.8	5.56e-05	0	44	0	245366784	21	4334
2026-01-20 11:16:52.28	197.36	19.12	-30.5	-32.3	12.7	6.48e-05	0	44	0	247463936	21	4389
2026-01-20 11:16:53.28	197.48	19.23	-30.5	-32.1	12.8	5.87e-05	0	44	0	249561088	21	4346
2026-01-20 11:16:54.27	197.59	19.34	-30.5	-32.0	12.9	4.65e-05	0	44	0	251658240	21	4320
2026-01-20 11:16:55.27	197.71	19.45	-30.5	-32.1	12.9	4.34e-05	0	44	0	253755392	21	4349
2026-01-20 11:16:56.27	197.82	19.57	-30.6	-32.4	12.7	4.80e-05	0	44	0	254803968	21	4427
2026-01-20 11:16:57.27	197.94	19.68	-30.5	-32.1	12.9	7.78e-05	0	44	0	256901120	21	4338
2026-01-20 11:16:58.27	198.06	19.80	-30.4	-31.8	13.1	3.66e-05	0	44	0	258998272	21	4238
2026-01-20 11:16:59.27	198.18	19.91	-30.4	-31.9	13.0	3.73e-05	0	44	0	261095424	21	4277
2026-01-20 11:17:00.27	198.30	20.03	-30.6	-32.3	12.8	5.03e-05	0	44	0	262144000	21	4417
2026-01-20 11:17:01.28	198.42	20.14	-30.6	-32.5	12.7	4.88e-05	0	44	0	264241152	21	4458
2026-01-20 11:17:02.28	198.55	20.26	-30.6	-32.4	12.7	8.23e-05	0	44	0	266338304	21	4433
2026-01-20 11:17:03.28	198.67	20.38	-30.5	-32.2	12.8	8.46e-05	0	44	0	268435456	21	4378
2026-01-20 11:17:04.28	198.79	20.49	-30.7	-32.6	12.6	1.11e-04	0	44	0	270532608	21	4494
2026-01-20 11:17:05.29	198.92	20.61	-30.8	-32.9	12.4	1.48e-04	0	44	0	271581184	21	4589
2026-01-20 11:17:06.29	199.04	20.73	-30.6	-32.5	12.7	1.18e-04	0	44	0	273678336	21	4480
2026-01-20 11:17:07.30	199.17	20.85	-30.5	-32.2	12.9	7.93e-05	0	44	0	275775488	21	4371
2026-01-20 11:17:08.30	199.30	20.97	-30.6	-32.5	12.7	8.54e-05	0	44	0	277872640	21	4443
2026-01-20 11:17:09.30	199.43	21.09	-30.5	-32.2	12.8	7.93e-05	0	44	0	279969792	21	4364
2026-01-20 11:17:10.31	199.56	21.21	-30.4	-31.9	13.1	2.13e-05	0	44	0	281018368	21	4270
2026-01-20 11:17:11.31	199.69	21.33	-30.5	-32.0	13.0	3.05e-05	0	44	0	283115520	21	4295
2026-01-20 11:17:12.31	199.82	21.45	-30.2	-31.3	13.5	2.97e-05	0	44	0	285212672	21	4073
2026-01-20 11:17:13.31	199.96	21.57	-30.2	-31.3	13.5	1.37e-05	0	44	0	287309824	21	4090
2026-01-20 11:17:14.31	200.09	21.69	-30.2	-31.4	13.4	1.14e-05	0	44	0	289406976	21	4106
2026-01-20 11:17:15.31	200.22	21.81	-30.3	-31.5	13.3	9.10e-06	0	44	0	290455552	21	4153
2026-01-20 11:17:16.32	200.36	21.93	-30.2	-31.3	13.5	1.06e-05	0	44	0	292552704	21	4077
2026-01-20 11:17:17.32	200.50	22.06	-30.1	-31.1	13.7	6.10e-06	0	44	0	294649856	21	4033
2026-01-20 11:17:18.32	200.64	22.18	-30.3	-31.4	13.5	1.14e-05	0	44	0	296747008	21	4116
2026-01-20 11:17:19.32	200.78	22.30	-30.4	-31.7	13.3	1.44e-05	0	44	0	298844160	21	4209
2026-01-20 11:17:20.33	200.92	22.43	-30.5	-32.0	13.1	1.14e-05	0	44	0	299892736	21	4305
2026-01-20 11:17:21.34	201.06	22.55	-30.3	-31.5	13.4	1.29e-05	0	44	0	301989888	21	4135
2026-01-20 11:17:22.34	201.20	22.68	-30.3	-31.6	13.3	1.60e-05	0	44	0	304087040	21	4164
2026-01-20 11:17:23.34	201.35	22.80	-30.5	-32.1	13.0	4.27e-05	0	44	0	306184192	21	4312
2026-01-20 11:17:24.34	201.49	22.93	-30.5	-32.1	13.0	3.73e-05	0	44	0	307232768	21	4336
2026-01-20 11:17:25.35	201.64	23.06	-30.3	-31.6	13.4	1.98e-05	0	44	0	309329920	21	4171
2026-01-20 11:17:26.36	201.79	23.18	-30.5	-32.0	13.1	2.51e-05	0	44	0	311427072	21	4285
2026-01-20 11:17:27.36	201.93	23.31	-30.5	-32.0	13.1	3.05e-05	0	44	0	313524224	21	4288
2026-01-20 11:17:28.36	202.08	23.44	-30.3	-31.6	13.3	1.75e-05	0	44	0	315621376	21	4173
2026-01-20 11:17:29.37	202.23	23.57	-30.4	-31.8	13.3	9.10e-06	0	44	0	317718528	21	4217
2026-01-20 11:17:30.37	202.39	23.70	-30.6	-32.3	13.0	2.51e-05	0	44	0	318767104	21	4381
2026-01-20 11:17:31.38	202.54	23.83	-30.2	-31.4	13.5	1.29e-05	0	44	0	320864256	21	4108
2026-01-20 11:17:32.38	202.69	23.95	-30.3	-31.6	13.4	9.90e-06	0	44	0	322961408	21	4180
2026-01-20 11:17:33.38	202.85	24.08	-30.4	-31.8	13.3	1.60e-05	0	44	0	325058560	21	4225
2026-01-20 11:17:34.39	203.01	24.22	-30.4	-31.8	13.3	1.90e-05	0	44	0	326107136	21	4241
2026-01-20 11:17:35.38	203.16	24.34	-30.4	-31.9	13.2	1.29e-05	0	44	0	328204288	21	4251
2026-01-20 11:17:36.39	203.32	24.48	-30.4	-31.8	13.3	1.60e-05	0	44	0	330301440	21	4225
2026-01-20 11:17:37.39	203.48	24.61	-30.2	-31.2	13.7	1.83e-05	0	44	0	332398592	21	4052
2026-01-20 11:17:38.39	203.65	24.74	-30.3	-31.4	13.6	1.06e-05	0	44	0	334495744	21	4101
2026-01-20 11:17:39.39	203.81	24.87	-30.5	-31.9	13.2	1.83e-05	0	44	0	335544320	21	4270
2026-01-20 11:17:40.39	203.97	25.00	-30.5	-32.0	13.2	2.59e-05	0	44	0	337641472	21	4294
2026-01-20 11:17:41.40	204.14	25.14	-30.4	-31.8	13.3	2.21e-05	0	44	0	339738624	21	4214
2026-01-20 11:17:42.41	204.31	25.27	-30.4	-31.8	13.3	3.43e-05	0	44	0	341835776	21	4222
2026-01-20 11:17:43.41	204.48	25.41	-30.3	-31.6	13.4	1.44e-05	0	44	0	343932928	21	4155
2026-01-20 11:17:44.41	204.65	25.54	-30.2	-31.2	13.7	2.05e-05	0	44	0	344981504	21	4059
2026-01-20 11:17:45.41	204.82	25.67	-30.2	-31.1	13.7	4.50e-06	0	44	0	347078656	21	4015
2026-01-20 11:17:46.41	204.99	25.81	-30.1	-31.0	13.8	4.50e-06	0	44	0	349175808	21	3996
2026-01-20 11:17:47.42	205.17	25.95	-29.9	-30.5	14.2	3.00e-06	0	44	0	351272960	21	3845
2026-01-20 11:17:48.42	205.34	26.08	-30.0	-30.8	14.0	2.20e-06	0	44	0	353370112	21	3924
2026-01-20 11:17:49.42	205.52	26.22	-30.0	-30.8	14.0	7.00e-07	0	44	0	354418688	21	3916
2026-01-20 11:17:50.42	205.70	26.36	-30.3	-31.5	13.6	7.00e-07	0	44	0	356515840	21	4130
2026-01-20 11:17:51.43	205.88	26.49	-30.3	-31.3	13.6	5.30e-06	0	44	0	358612992	21	4077
2026-01-20 11:17:52.43	206.06	26.63	-30.4	-31.6	13.5	6.80e-06	0	44	0	360710144	21	4153
2026-01-20 11:17:53.43	206.24	26.77	-30.4	-31.7	13.4	1.37e-05	0	44	0	362807296	21	4191
2026-01-20 11:17:54.44	206.43	26.91	-30.2	-31.2	13.7	1.06e-05	0	44	0	363855872	21	4047
2026-01-20 11:17:55.44	206.62	27.05	-30.2	-31.3	13.7	9.10e-06	0	44	0	365953024	21	4061
2026-01-20 11:17:56.45	206.81	27.19	-30.1	-31.0	13.8	3.80e-06	0	44	0	368050176	21	3992
2026-01-20 11:17:57.45	207.00	27.33	-30.1	-31.0	13.8	1.50e-06	0	44	0	370147328	21	3997
2026-01-20 11:17:58.45	207.19	27.47	-30.0	-30.7	14.1	3.80e-06	0	44	0	371195904	21	3911
2026-01-20 11:17:59.45	207.38	27.61	-30.2	-31.1	13.8	5.30e-06	0	44	0	373293056	21	4029
2026-01-20 11:18:00.46	207.58	27.75	-30.2	-31.1	13.8	5.30e-06	0	44	0	375390208	21	4021
2026-01-20 11:18:01.46	207.77	27.89	-30.3	-31.5	13.6	5.30e-06	0	44	0	377487360	21	4140
2026-01-20 11:18:02.45	207.97	28.03	-30.6	-32.4	13.0	2.82e-05	0	44	0	379584512	21	4398
2026-01-20 11:18:03.44	208.17	28.17	-30.9	-33.0	12.6	4.04e-05	0	44	0	380633088	21	4620
2026-01-20 11:18:04.45	208.37	28.31	-31.1	-33.1	12.2	1.19e-04	0	44	0	382730240	22	4546
2026-01-20 11:18:05.46	208.57	28.46	-31.2	-33.5	11.9	3.89e-04	0	44	0	384827392	22	4701
2026-01-20 11:18:06.47	208.78	28.60	-31.4	-34.1	11.6	7.30e-04	0	44	0	386924544	22	4907
2026-01-20 11:18:07.46	208.99	28.74	-31.5	-34.1	11.1	1.06e-03	0	44	0	389021696	23	4809
2026-01-20 11:18:08.47	209.20	28.89	-31.7	-34.4	10.9	2.06e-03	0	44	0	390070272	23	4956
2026-01-20 11:18:09.47	209.41	29.03	-31.5	-33.8	11.4	1.63e-03	0	44	0	392167424	23	4724
2026-01-20 11:18:10.47	209.62	29.18	-31.5	-34.0	11.2	8.96e-04	0	44	0	394264576	23	4804
2026-01-20 11:18:11.48	209.83	29.32	-31.4	-33.7	11.5	1.36e-03	0	44	0	396361728	23	4671
2026-01-20 11:18:12.48	210.05	29.47	-31.3	-33.3	11.7	8.93e-04	0	44	0	398458880	23	4540
2026-01-20 11:18:13.49	210.27	29.61	-31.5	-33.8	11.4	9.99e-04	0	44	0	399507456	23	4694
2026-01-20 11:18:14.49	210.49	29.76	-31.7	-34.4	11.0	6.51e-04	0	44	0	401604608	23	4919
2026-01-20 11:18:15.49	210.71	29.90	-31.8	-34.8	10.7	1.55e-03	0	44	0	403701760	23	5082
2026-01-20 11:18:16.49	210.93	30.05	-31.6	-34.2	11.2	1.56e-03	0	44	0	405798912	23	4844
2026-01-20 11:18:17.49	211.16	30.20	-31.6	-34.0	11.2	1.46e-03	0	44	0	407896064	23	4774
2026-01-20 11:18:18.49	211.39	30.34	-31.5	-33.9	11.4	1.12e-03	0	44	0	408944640	23	4754
2026-01-20 11:18:19.49	211.62	30.49	-31.6	-34.1	11.3	1.65e-03	0	44	0	411041792	23	4790
2026-01-20 11:18:20.50	211.85	30.64	-31.5	-33.7	11.6	1.15e-03	0	44	0	413138944	23	4657
2026-01-20 11:18:21.50	212.08	30.78	-31.3	-33.3	11.9	4.88e-04	0	44	0	415236096	23	4501
2026-01-20 11:18:22.50	212.32	30.93	-31.2	-32.9	12.1	2.55e-04	0	44	0	416284672	23	4371
2026-01-20 11:18:23.51	212.56	31.08	-31.1	-32.7	12.3	3.40e-04	0	44	0	418381824	23	4299
2026-01-20 11:18:24.51	212.80	31.23	-31.2	-32.8	12.2	3.27e-04	0	44	0	420478976	23	4327
2026-01-20 11:18:25.51	213.04	31.38	-31.2	-33.0	12.1	3.11e-04	0	44	0	422576128	23	4397
2026-01-20 11:18:26.52	213.29	31.53	-31.4	-33.6	11.7	4.36e-04	0	44	0	424673280	23	4612
2026-01-20 11:18:27.52	213.54	31.68	-31.6	-34.2	11.2	6.95e-04	0	44	0	425721856	23	4826
2026-01-20 11:18:28.52	213.79	31.82	-31.8	-34.8	10.8	1.62e-03	0	44	0	427819008	23	5066
2026-01-20 11:18:29.52	214.04	31.97	-32.0	-34.8	10.4	4.02e-03	0	44	0	429916160	24	4978
2026-01-20 11:18:30.52	214.29	32.12	-31.9	-34.5	10.7	4.38e-03	0	44	0	432013312	24	4857
2026-01-20 11:18:31.53	214.55	32.27	-31.8	-34.1	11.0	2.43e-03	0	44	0	434110464	24	4694
2026-01-20 11:18:32.53	214.81	32.42	-31.7	-34.0	11.0	1.51e-03	0	44	0	435159040	24	4672
2026-01-20 11:18:33.53	215.07	32.57	-31.6	-33.6	11.2	1.04e-03	0	44	0	437256192	24	4532
2026-01-20 11:18:34.53	215.33	32.72	-31.7	-33.7	11.1	1.27e-03	0	44	0	439353344	24	4576
2026-01-20 11:18:35.53	215.59	32.87	-31.6	-33.5	11.3	1.92e-03	0	44	0	441450496	24	4503
2026-01-20 11:18:36.54	215.86	33.02	-31.5	-33.4	11.5	7.78e-04	0	44	0	443547648	24	4445
2026-01-20 11:18:37.54	216.13	33.17	-31.5	-33.3	11.5	1.13e-03	0	44	0	444596224	24	4440
2026-01-20 11:18:38.54	216.41	33.32	-31.4	-33.4	11.9	4.36e-04	0	44	0	446693376	23	4536
2026-01-20 11:18:39.54	216.68	33.47	-31.4	-33.4	11.8	4.64e-04	0	44	0	448790528	23	4555
2026-01-20 11:18:40.55	216.96	33.62	-31.4	-33.5	11.7	6.90e-04	0	44	0	450887680	23	4579
2026-01-20 11:18:41.55	217.24	33.77	-31.5	-33.7	11.6	5.21e-04	0	44	0	452984832	23	4658
2026-01-20 11:18:42.55	217.52	33.92	-31.8	-34.7	10.9	1.71e-03	0	44	0	454033408	23	5039
2026-01-20 11:18:43.56	217.81	34.07	-32.0	-35.0	10.4	3.87e-03	0	44	0	456130560	24	5056
2026-01-20 11:18:44.56	218.10	34.22	-32.2	-35.4	9.9	9.82e-03	0	44	0	458227712	24	5251
2026-01-20 11:18:45.57	218.39	34.37	-31.9	-34.6	10.6	5.40e-03	0	44	0	460324864	24	4886
2026-01-20 11:18:46.57	218.69	34.52	-31.5	-33.1	11.6	1.39e-03	0	44	0	462422016	24	4363
2026-01-20 11:18:47.58	218.98	34.67	-31.2	-32.8	12.3	3.61e-04	0	44	0	463470592	23	4347
2026-01-20 11:18:48.58	219.28	34.82	-31.1	-32.5	12.5	1.69e-04	0	44	0	465567744	23	4250
2026-01-20 11:18:49.58	219.58	34.97	-31.0	-32.2	12.6	1.60e-04	0	44	0	467664896	23	4157
2026-01-20 11:18:50.58	219.89	35.12	-31.4	-33.3	11.9	3.32e-04	0	44	0	469762048	23	4519
2026-01-20 11:18:51.58	220.19	35.27	-31.5	-33.8	11.6	2.58e-04	0	44	0	470810624	23	4694
2026-01-20 11:18:52.59	220.50	35.42	-31.7	-34.3	11.2	1.11e-03	0	44	0	472907776	23	4858
2026-01-20 11:18:53.60	220.82	35.57	-31.7	-34.5	11.2	1.41e-03	0	44	0	475004928	23	4934
2026-01-20 11:18:54.59	221.13	35.71	-31.4	-33.6	11.8	1.26e-03	0	44	0	477102080	23	4593
2026-01-20 11:18:55.60	221.45	35.86	-31.0	-32.4	12.6	3.01e-04	0	44	0	479199232	23	4202
2026-01-20 11:18:56.60	221.77	36.01	-30.8	-31.7	13.0	1.14e-04	0	44	0	480247808	23	3984
2026-01-20 11:18:57.61	222.10	36.16	-30.7	-31.9	13.2	3.50e-05	0	44	0	482344960	22	4142
2026-01-20 11:18:58.61	222.42	36.31	-31.0	-32.7	12.7	2.44e-05	0	44	0	484442112	22	4392
2026-01-20 11:18:59.61	222.75	36.45	-31.0	-32.8	12.6	7.47e-05	0	44	0	486539264	22	4426
2026-01-20 11:19:00.62	223.09	36.60	-31.3	-33.6	12.1	1.50e-04	0	44	0	488636416	22	4687
2026-01-20 11:19:01.62	223.42	36.74	-31.2	-33.4	12.2	3.03e-04	0	44	0	489684992	22	4619
2026-01-20 11:19:02.63	223.76	36.89	-31.2	-33.2	12.4	2.30e-04	0	44	0	491782144	22	4570
2026-01-20 11:19:03.63	224.11	37.04	-31.0	-32.9	12.6	2.19e-04	0	44	0	493879296	22	4444
2026-01-20 11:19:04.63	224.45	37.18	-31.3	-33.7	12.0	2.07e-04	0	44	0	495976448	22	4739
2026-01-20 11:19:05.63	224.80	37.32	-31.2	-33.4	12.3	3.18e-04	0	44	0	498073600	22	4642
2026-01-20 11:19:06.63	225.15	37.47	-31.2	-33.5	12.2	2.95e-04	0	44	0	499122176	22	4656
2026-01-20 11:19:07.63	225.50	37.61	-31.1	-33.1	12.5	1.52e-04	0	44	0	501219328	22	4521
2026-01-20 11:19:08.63	225.85	37.75	-30.9	-32.4	12.9	8.46e-05	0	44	0	503316480	22	4290
2026-01-20 11:19:09.63	226.21	37.89	-30.9	-32.5	12.8	6.10e-05	0	44	0	505413632	22	4334
2026-01-20 11:19:10.63	226.58	38.03	-31.5	-34.1	11.8	1.79e-04	0	44	0	507510784	22	4900
2026-01-20 11:19:11.63	226.94	38.17	-31.9	-35.0	10.8	1.08e-03	0	45	0	508559360	23	5153
2026-01-20 11:19:12.64	227.31	38.31	-32.2	-35.5	10.0	4.68e-03	0	44	0	510656512	24	5274
2026-01-20 11:19:13.64	227.68	38.45	-31.9	-34.7	10.6	5.35e-03	0	44	0	512753664	24	4949
2026-01-20 11:19:14.64	228.06	38.59	-31.8	-34.4	10.8	4.06e-03	0	44	0	514850816	24	4814
2026-01-20 11:19:15.64	228.44	38.73	-31.8	-34.1	11.0	2.54e-03	0	44	0	515899392	24	4690
2026-01-20 11:19:16.65	228.82	38.86	-31.7	-33.8	11.3	1.45e-03	0	44	0	517996544	24	4597
2026-01-20 11:19:17.65	229.20	39.00	-31.7	-34.0	11.1	1.27e-03	0	44	0	520093696	24	4683
2026-01-20 11:19:18.66	229.59	39.13	-31.7	-34.0	11.1	1.59e-03	0	44	0	522190848	24	4666
2026-01-20 11:19:19.66	229.98	39.27	-31.7	-33.8	11.3	1.12e-03	0	44	0	524288000	24	4601
2026-01-20 11:19:20.66	230.38	39.40	-31.6	-33.7	11.3	1.48e-03	0	44	0	525336576	24	4553
2026-01-20 11:19:21.66	230.77	39.53	-31.7	-33.8	11.2	1.99e-03	0	44	0	527433728	24	4593
2026-01-20 11:19:22.67	231.18	39.66	-31.6	-33.7	11.3	1.88e-03	0	44	0	529530880	24	4574
2026-01-20 11:19:23.67	231.58	39.79	-31.4	-33.0	11.8	7.67e-04	0	44	0	531628032	24	4326
2026-01-20 11:19:24.67	231.99	39.92	-31.1	-32.5	12.5	1.63e-04	0	44	0	533725184	23	4239
2026-01-20 11:19:25.67	232.40	40.05	-31.0	-32.2	12.8	5.49e-05	0	44	0	534773760	23	4128
2026-01-20 11:19:26.67	232.81	40.17	-31.3	-33.1	12.1	1.59e-04	0	44	0	536870912	23	4418
2026-01-20 11:19:27.67	233.22	40.30	-31.4	-33.4	11.9	3.97e-04	0	44	0	538968064	23	4544
2026-01-20 11:19:28.67	233.64	40.42	-31.3	-33.2	12.0	3.08e-04	0	44	0	541065216	23	4459
2026-01-20 11:19:29.67	234.06	40.54	-31.1	-32.4	12.6	3.40e-04	0	44	0	543162368	23	4202
2026-01-20 11:19:30.67	234.49	40.66	-30.9	-32.0	12.9	7.85e-05	0	44	0	544210944	23	4062
2026-01-20 11:19:31.67	234.92	40.78	-30.9	-32.3	13.0	2.51e-05	0	44	0	546308096	22	4260
2026-01-20 11:19:32.68	235.35	40.90	-30.8	-32.1	13.2	1.83e-05	0	44	0	548405248	22	4195
2026-01-20 11:19:33.68	235.79	41.02	-30.8	-32.0	13.2	3.05e-05	0	44	0	550502400	22	4168
2026-01-20 11:19:34.68	236.22	41.14	-31.0	-32.7	12.8	2.89e-05	0	44	0	552599552	22	4375
2026-01-20 11:19:35.68	236.66	41.25	-31.0	-32.8	12.8	4.73e-05	0	44	0	553648128	22	4411
2026-01-20 11:19:36.69	237.11	41.36	-30.9	-32.5	12.9	8.23e-05	0	44	0	555745280	22	4313
2026-01-20 11:19:37.70	237.56	41.47	-30.8	-32.3	13.1	3.28e-05	0	44	0	557842432	22	4236
2026-01-20 11:19:38.70	238.01	41.58	-30.6	-31.6	13.5	2.05e-05	0	44	0	559939584	22	4051
2026-01-20 11:19:39.70	238.46	41.69	-30.6	-31.5	13.6	9.10e-06	0	44	0	562036736	22	4019
2026-01-20 11:19:40.70	238.92	41.80	-30.4	-31.6	13.8	1.50e-06	0	44	0	563085312	21	4140
2026-01-20 11:19:41.70	239.38	41.90	-30.2	-31.0	14.2	1.50e-06	0	44	0	565182464	21	3954
2026-01-20 11:19:42.71	239.84	42.00	-30.5	-31.8	13.6	3.80e-06	0	44	0	567279616	21	4183
2026-01-20 11:19:43.72	240.31	42.11	-30.9	-33.0	12.9	1.22e-05	0	44	0	569376768	21	4572
2026-01-20 11:19:44.72	240.78	42.21	-31.2	-33.2	12.5	1.43e-04	0	44	0	571473920	22	4524
2026-01-20 11:19:45.73	241.25	42.30	-31.2	-33.1	12.5	2.01e-04	0	44	0	572522496	22	4511
2026-01-20 11:19:46.74	241.73	42.40	-31.1	-32.9	12.8	1.10e-04	0	44	0	574619648	22	4437
2026-01-20 11:19:47.75	242.21	42.49	-31.0	-32.6	12.9	3.66e-05	0	44	0	576716800	22	4355
2026-01-20 11:19:48.75	242.69	42.58	-31.2	-33.2	12.5	1.02e-04	0	44	0	578813952	22	4544
2026-01-20 11:19:49.76	243.17	42.67	-31.1	-32.9	12.6	1.33e-04	0	44	0	579862528	22	4431
2026-01-20 11:19:50.76	243.66	42.76	-31.1	-33.0	12.6	7.55e-05	0	44	0	581959680	22	4477
2026-01-20 11:19:51.77	244.15	42.85	-30.9	-32.4	13.0	5.87e-05	0	44	0	584056832	22	4263
2026-01-20 11:19:52.76	244.63	42.93	-30.7	-31.7	13.5	1.67e-05	0	44	0	586153984	22	4047
2026-01-20 11:19:53.77	245.13	43.01	-30.7	-31.7	13.4	9.90e-06	0	45	0	588251136	22	4056
2026-01-20 11:19:54.77	245.62	43.09	-30.9	-32.4	13.0	1.37e-05	0	44	0	590348288	22	4265
2026-01-20 11:19:55.77	246.12	43.17	-31.1	-32.9	12.7	5.95e-05	0	44	0	591396864	22	4420
2026-01-20 11:19:56.77	246.61	43.24	-31.5	-33.7	11.9	1.50e-04	0	44	0	593494016	23	4621
2026-01-20 11:19:57.77	247.11	43.31	-31.5	-33.5	11.9	5.60e-04	0	44	0	595591168	23	4554
2026-01-20 11:19:58.77	247.62	43.38	-31.4	-33.4	12.0	3.39e-04	0	44	0	597688320	23	4496
2026-01-20 11:19:59.76	248.11	43.45	-30.8	-31.6	13.3	8.92e-05	0	44	0	598736896	23	3935
2026-01-20 11:20:00.77	248.63	43.52	-30.3	-30.8	14.1	5.30e-06	0	44	0	600834048	22	3794
2026-01-20 11:20:01.77	249.13	43.58	-30.3	-31.3	14.0	7.00e-07	0	44	0	602931200	21	4020
2026-01-20 11:20:02.77	249.65	43.64	-30.3	-31.3	14.1	3.00e-06	0	45	0	605028352	21	4022
2026-01-20 11:20:03.77	250.16	43.70	-30.2	-30.9	14.3	0.00e+00	0	44	0	607125504	21	3915
2026-01-20 11:20:04.77	250.67	43.75	-30.3	-31.3	14.0	1.50e-06	0	44	0	608174080	21	4025
2026-01-20 11:20:05.78	251.19	43.81	-30.8	-32.5	13.3	3.80e-06	0	44	0	610271232	21	4408
2026-01-20 11:20:06.78	251.71	43.86	-30.8	-32.7	13.1	2.82e-05	0	44	0	612368384	21	4463
2026-01-20 11:20:07.79	252.23	43.91	-30.3	-31.3	14.1	9.10e-06	0	44	0	614465536	21	4027
2026-01-20 11:20:08.80	252.76	43.95	-30.2	-31.1	14.2	1.50e-06	0	44	0	616562688	21	3969
2026-01-20 11:20:09.79	253.28	44.00	-30.7	-32.2	13.5	2.20e-06	0	44	0	617611264	21	4294
2026-01-20 11:20:10.79	253.80	44.04	-31.0	-33.0	13.0	2.36e-05	0	44	0	619708416	21	4565
2026-01-20 11:20:11.79	254.32	44.07	-30.8	-32.6	13.2	1.22e-05	0	44	0	621805568	21	4410
2026-01-20 11:20:12.79	254.85	44.11	-30.6	-32.1	13.6	6.80e-06	0	44	0	623902720	21	4263
2026-01-20 11:20:13.79	255.38	44.14	-30.9	-32.8	13.2	9.10e-06	0	44	0	624951296	21	4472
2026-01-20 11:20:14.79	255.91	44.17	-30.9	-32.8	13.1	2.51e-05	0	44	0	627048448	21	4492
2026-01-20 11:20:15.79	256.43	44.20	-30.8	-32.6	13.3	2.74e-05	0	44	0	629145600	21	4423
2026-01-20 11:20:16.80	256.97	44.23	-30.8	-32.5	13.3	4.04e-05	0	44	0	631242752	21	4395
2026-01-20 11:20:17.80	257.50	44.25	-30.4	-31.4	14.1	3.00e-06	0	44	0	633339904	21	4051
2026-01-20 11:20:18.80	258.03	44.27	-30.5	-31.8	13.7	3.80e-06	0	44	0	634388480	21	4184
2026-01-20 11:20:19.80	258.56	44.29	-31.0	-32.7	12.9	1.60e-05	0	44	0	636485632	22	4350
2026-01-20 11:20:20.80	259.09	44.30	-31.5	-33.9	12.1	1.17e-04	0	44	0	638582784	22	4757
2026-01-20 11:20:21.80	259.63	44.31	-31.6	-33.8	11.8	4.83e-04	0	44	0	640679936	23	4643
2026-01-20 11:20:22.80	260.16	44.32	-31.1	-32.4	12.8	1.58e-04	0	44	0	642777088	23	4170
2026-01-20 11:20:23.81	260.70	44.33	-30.4	-31.0	14.0	1.29e-05	0	44	0	643825664	22	3859
2026-01-20 11:20:24.82	261.24	44.33	-30.1	-30.8	14.4	0.00e+00	0	44	0	645922816	21	3881
2026-01-20 11:20:25.81	261.77	44.33	-30.3	-31.3	14.1	2.20e-06	0	44	0	648019968	21	4023
2026-01-20 11:20:26.81	262.30	44.33	-30.3	-31.2	14.1	1.50e-06	0	44	0	650117120	21	3983
2026-01-20 11:20:27.81	262.83	44.33	-30.0	-30.5	14.7	2.20e-06	0	44	0	652214272	21	3794
2026-01-20 11:20:28.82	263.37	44.32	-30.3	-31.1	14.3	0.00e+00	0	44	0	653262848	21	3973
2026-01-20 11:20:29.82	263.90	44.31	-30.8	-32.6	13.3	2.20e-06	0	45	0	655360000	21	4408
2026-01-20 11:20:30.82	264.44	44.30	-30.9	-32.8	13.1	2.51e-05	0	44	0	657457152	21	4480
2026-01-20 11:20:31.82	264.97	44.28	-31.0	-32.7	12.9	3.50e-05	0	44	0	659554304	22	4347
2026-01-20 11:20:32.82	265.50	44.26	-30.9	-32.2	13.3	3.05e-05	0	44	0	661651456	22	4210
2026-01-20 11:20:33.82	266.03	44.24	-30.7	-31.7	13.7	9.90e-06	0	44	0	662700032	22	4067
2026-01-20 11:20:34.82	266.56	44.22	-30.9	-32.3	13.3	3.00e-06	0	44	0	664797184	22	4222
2026-01-20 11:20:35.84	267.10	44.19	-31.2	-33.2	12.6	4.73e-05	0	44	0	666894336	22	4530
2026-01-20 11:20:36.84	267.63	44.16	-31.3	-33.5	12.6	1.56e-04	0	44	0	668991488	22	4615
2026-01-20 11:20:37.85	268.16	44.13	-30.9	-32.3	13.1	1.27e-04	0	44	0	670040064	22	4240
2026-01-20 11:20:38.86	268.69	44.10	-30.3	-30.8	14.1	3.00e-06	0	44	0	672137216	22	3789
2026-01-20 11:20:39.86	269.22	44.06	-30.6	-31.6	13.6	3.80e-06	0	44	0	674234368	22	4018
2026-01-20 11:20:40.86	269.74	44.02	-30.9	-32.4	13.1	1.75e-05	0	44	0	676331520	22	4248
2026-01-20 11:20:41.86	270.26	43.98	-31.4	-33.6	12.4	1.13e-04	0	44	0	678428672	22	4670
2026-01-20 11:20:42.86	270.78	43.94	-30.9	-32.2	13.3	3.58e-05	0	44	0	679477248	22	4201
2026-01-20 11:20:43.87	271.31	43.89	-30.3	-31.2	14.2	3.00e-06	0	44	0	681574400	21	3985
2026-01-20 11:20:44.87	271.83	43.84	-30.9	-32.8	13.1	1.52e-05	0	44	0	683671552	21	4492
2026-01-20 11:20:45.88	272.35	43.79	-31.7	-34.2	11.6	2.77e-04	0	45	0	685768704	23	4799
2026-01-20 11:20:46.88	272.86	43.73	-32.2	-35.1	10.6	4.60e-03	0	44	0	687865856	24	5037
2026-01-20 11:20:47.88	273.38	43.68	-31.7	-33.7	11.7	1.62e-03	0	44	0	688914432	24	4501
2026-01-20 11:20:48.88	273.89	43.62	-31.6	-33.2	11.9	4.86e-04	0	45	0	691011584	24	4338
2026-01-20 11:20:49.89	274.40	43.56	-32.1	-34.8	10.8	7.70e-04	0	44	0	693108736	24	4941
2026-01-20 11:20:50.89	274.91	43.49	-32.8	-37.0	8.8	9.26e-03	0	44	0	695205888	25	5815
2026-01-20 11:20:51.90	275.42	43.43	-33.0	-37.2	8.3	5.25e-02	0	45	0	697303040	26	5840
2026-01-20 11:20:52.90	275.92	43.36	-32.5	-35.2	9.6	2.00e-02	0	44	0	698351616	26	4924
2026-01-20 11:20:53.91	276.43	43.29	-32.2	-34.7	10.5	5.85e-03	0	44	0	700448768	25	4790
2026-01-20 11:20:54.91	276.92	43.21	-32.3	-35.1	10.1	4.28e-03	0	44	0	702545920	25	4941
2026-01-20 11:20:55.91	277.42	43.14	-32.4	-35.4	10.1	8.49e-03	0	45	0	704643072	25	5058
2026-01-20 11:20:56.91	277.91	43.06	-32.5	-35.7	9.8	1.18e-02	0	44	0	706740224	25	5207
2026-01-20 11:20:57.91	278.41	42.98	-32.3	-35.1	10.2	9.56e-03	0	44	0	707788800	25	4955
2026-01-20 11:20:58.92	278.90	42.90	-32.4	-35.3	10.2	3.32e-03	0	44	0	709885952	25	5026
2026-01-20 11:20:59.92	279.39	42.82	-32.9	-37.1	8.8	8.66e-03	0	44	0	711983104	25	5853
2026-01-20 11:21:00.92	279.87	42.73	-33.4	-38.9	7.0	6.08e-02	0	45	0	714080256	26	6792
2026-01-20 11:21:01.92	280.35	42.64	-33.5	-39.1	6.5	2.56e-01	0	44	0	716177408	27	6828
2026-01-20 11:21:02.92	280.83	42.55	-33.7	-40.0	5.9	3.64e-01	0	44	0	717225984	27	7462
2026-01-20 11:21:03.93	281.31	42.46	-33.4	-38.5	7.0	2.29e-01	0	44	0	719323136	27	6439
2026-01-20 11:21:04.92	281.78	42.37	-33.0	-36.4	8.6	9.54e-02	0	44	0	721420288	27	5368
2026-01-20 11:21:05.93	282.25	42.27	-32.8	-36.2	9.1	2.67e-02	0	44	0	723517440	26	5327
2026-01-20 11:21:06.93	282.72	42.17	-32.4	-34.9	10.1	9.12e-03	0	44	0	725614592	26	4771
2026-01-20 11:21:07.93	283.19	42.07	-32.4	-35.0	10.1	7.48e-03	0	44	0	726663168	26	4804
2026-01-20 11:21:08.93	283.65	41.97	-32.5	-35.0	10.0	8.16e-03	0	44	0	728760320	26	4834
2026-01-20 11:21:09.94	284.11	41.87	-32.5	-35.0	10.0	9.38e-03	0	44	0	730857472	26	4831
2026-01-20 11:21:10.94	284.57	41.77	-31.9	-33.8	11.2	3.26e-03	0	44	0	732954624	25	4449
2026-01-20 11:21:11.94	285.02	41.66	-31.8	-33.5	11.4	1.43e-03	0	44	0	734003200	25	4338
2026-01-20 11:21:12.94	285.47	41.55	-32.1	-34.6	11.0	1.26e-03	0	44	0	736100352	24	4849
2026-01-20 11:21:13.95	285.92	41.44	-32.1	-34.9	10.7	3.69e-03	0	44	0	738197504	24	4946
2026-01-20 11:21:14.95	286.37	41.33	-32.2	-35.3	10.5	3.65e-03	0	45	0	740294656	24	5105
2026-01-20 11:21:15.95	286.81	41.22	-31.5	-32.9	12.2	6.44e-04	0	45	0	742391808	24	4238
2026-01-20 11:21:16.95	287.25	41.10	-31.1	-32.4	13.0	3.73e-05	0	45	0	743440384	23	4147
2026-01-20 11:21:17.95	287.68	40.99	-30.9	-31.8	13.3	2.05e-05	0	45	0	745537536	23	3995
2026-01-20 11:21:18.96	288.12	40.87	-31.1	-32.4	12.9	3.73e-05	0	44	0	747634688	23	4161
2026-01-20 11:21:19.96	288.55	40.75	-31.9	-34.6	11.3	6.10e-04	0	45	0	749731840	23	4944
2026-01-20 11:21:20.95	288.97	40.64	-32.0	-34.5	11.0	3.08e-03	0	44	0	751828992	24	4778
2026-01-20 11:21:21.95	289.39	40.51	-31.5	-32.8	12.3	1.10e-03	0	44	0	752877568	24	4212
2026-01-20 11:21:22.96	289.82	40.39	-31.1	-32.2	13.0	6.56e-05	0	44	0	754974720	23	4108
2026-01-20 11:21:23.96	290.23	40.27	-31.0	-32.0	13.1	2.89e-05	0	44	0	757071872	23	4049
2026-01-20 11:21:24.96	290.65	40.14	-31.2	-32.6	12.7	7.24e-05	0	44	0	759169024	23	4234
2026-01-20 11:21:25.95	291.05	40.02	-31.1	-32.2	13.0	1.11e-04	0	44	0	760217600	23	4102
2026-01-20 11:21:26.96	291.46	39.89	-31.0	-32.0	13.2	2.21e-05	0	44	0	762314752	23	4045
2026-01-20 11:21:27.96	291.87	39.76	-31.1	-32.5	12.8	4.95e-05	0	44	0	764411904	23	4185
2026-01-20 11:21:28.96	292.27	39.63	-30.9	-31.8	13.3	6.10e-05	0	44	0	766509056	23	3971
2026-01-20 11:21:29.96	292.66	39.50	-30.8	-31.9	13.4	1.37e-05	0	45	0	768606208	22	4102
2026-01-20 11:21:30.97	293.06	39.37	-31.1	-32.8	12.9	2.28e-05	0	44	0	770703360	22	4367
2026-01-20 11:21:31.97	293.45	39.24	-31.3	-33.3	12.6	6.25e-05	0	44	0	771751936	22	4541
2026-01-20 11:21:32.97	293.84	39.11	-31.4	-33.6	12.4	1.22e-04	0	44	0	773849088	22	4654
2026-01-20 11:21:33.98	294.23	38.97	-30.9	-32.2	13.2	2.82e-05	0	44	0	775946240	22	4192
2026-01-20 11:21:34.98	294.61	38.84	-30.0	-30.4	14.7	7.00e-07	0	44	0	778043392	21	3766
2026-01-20 11:21:35.98	294.99	38.70	-29.7	-30.3	15.1	0.00e+00	0	45	0	779091968	20	3830
2026-01-20 11:21:36.99	295.37	38.56	-30.0	-30.9	14.7	0.00e+00	0	44	0	781189120	20	4003
2026-01-20 11:21:37.99	295.74	38.43	-30.3	-31.6	14.4	2.20e-06	0	44	0	783286272	20	4190
2026-01-20 11:21:38.99	296.11	38.29	-30.8	-32.5	13.5	2.20e-06	0	44	0	785383424	21	4374
2026-01-20 11:21:39.98	296.47	38.15	-30.3	-31.1	14.3	0.00e+00	0	44	0	787480576	21	3970
2026-01-20 11:21:40.98	296.84	38.01	-29.5	-29.7	15.5	0.00e+00	0	44	0	788529152	20	3682
2026-01-20 11:21:41.98	297.20	37.87	-29.0	-29.0	16.2	0.00e+00	0	45	0	790626304	19	3587
2026-01-20 11:21:42.99	297.56	37.73	-29.2	-29.4	16.0	0.00e+00	0	45	0	792723456	19	3677
2026-01-20 11:21:43.99	297.91	37.59	-29.0	-28.8	16.3	0.00e+00	0	45	0	794820608	19	3547
2026-01-20 11:21:44.99	298.26	37.45	-29.0	-29.1	16.1	0.00e+00	0	45	0	796917760	19	3602
2026-01-20 11:21:46.00	298.61	37.30	-29.2	-29.3	16.0	0.00e+00	0	45	0	797966336	19	3665
2026-01-20 11:21:47.00	298.96	37.16	-29.3	-29.6	15.9	0.00e+00	0	45	0	800063488	19	3737
2026-01-20 11:21:48.01	299.30	37.01	-29.4	-30.0	15.6	0.00e+00	0	44	0	802160640	19	3846
2026-01-20 11:21:49.02	299.65	36.87	-29.5	-30.2	15.5	0.00e+00	0	45	0	804257792	19	3899
2026-01-20 11:21:50.02	299.98	36.72	-29.5	-30.1	15.6	0.00e+00	0	44	0	806354944	19	3864
2026-01-20 11:21:51.01	300.31	36.58	-29.1	-29.1	16.1	0.00e+00	0	44	0	807403520	19	3625
2026-01-20 11:21:52.00	300.64	36.44	-29.1	-29.1	16.1	0.00e+00	0	45	0	809500672	19	3621
2026-01-20 11:21:52.99	300.96	36.29	-29.2	-29.5	16.0	0.00e+00	0	44	0	811597824	19	3709
2026-01-20 11:21:53.99	301.29	36.15	-29.2	-29.4	16.0	0.00e+00	0	45	0	813694976	19	3678
2026-01-20 11:21:54.99	301.61	36.00	-29.7	-30.7	15.2	0.00e+00	0	44	0	814743552	19	4022
2026-01-20 11:21:55.99	301.93	35.85	-29.8	-31.0	15.0	0.00e+00	0	45	0	816840704	19	4119
2026-01-20 11:21:56.99	302.24	35.71	-30.1	-31.3	14.5	0.00e+00	0	45	0	818937856	20	4111
2026-01-20 11:21:58.00	302.56	35.56	-29.4	-29.5	15.5	0.00e+00	0	45	0	821035008	20	3634
2026-01-20 11:21:59.00	302.87	35.41	-29.4	-29.5	15.5	0.00e+00	0	44	0	823132160	20	3631
2026-01-20 11:22:00.00	303.18	35.26	-29.6	-30.0	15.3	0.00e+00	0	44	0	824180736	20	3751
2026-01-20 11:22:01.01	303.48	35.11	-30.5	-31.8	13.9	0.00e+00	0	45	0	826277888	21	4165
2026-01-20 11:22:02.01	303.78	34.97	-31.0	-32.7	12.9	2.89e-05	0	44	0	828375040	22	4351
2026-01-20 11:22:03.02	304.09	34.82	-30.5	-31.2	13.8	2.97e-05	0	44	0	830472192	22	3898
2026-01-20 11:22:04.02	304.38	34.67	-29.7	-30.3	15.0	0.00e+00	0	44	0	832569344	20	3827
2026-01-20 11:22:05.02	304.68	34.52	-29.4	-29.4	15.6	0.00e+00	0	44	0	833617920	20	3595
2026-01-20 11:22:06.02	304.97	34.37	-29.9	-30.6	14.9	0.00e+00	0	45	0	835715072	20	3909
2026-01-20 11:22:07.02	305.26	34.22	-30.3	-31.7	14.2	7.00e-07	0	44	0	837812224	20	4232
2026-01-20 11:22:08.02	305.54	34.07	-31.0	-32.6	13.0	1.37e-05	0	44	0	839909376	22	4317
2026-01-20 11:22:09.02	305.83	33.93	-31.2	-33.2	12.6	9.99e-05	0	44	0	842006528	22	4539
2026-01-20 11:22:10.03	306.11	33.77	-30.9	-32.3	13.2	5.87e-05	0	44	0	843055104	22	4243
2026-01-20 11:22:11.03	306.39	33.63	-30.8	-31.9	13.5	6.80e-06	0	44	0	845152256	22	4108
2026-01-20 11:22:12.03	306.67	33.48	-30.7	-31.8	13.5	9.10e-06	0	44	0	847249408	22	4076
2026-01-20 11:22:13.02	306.94	33.33	-30.4	-31.0	14.1	9.90e-06	0	44	0	849346560	22	3852
2026-01-20 11:22:14.02	307.21	33.18	-30.9	-32.2	13.3	6.10e-06	0	44	0	850395136	22	4205
2026-01-20 11:22:15.02	307.48	33.03	-31.8	-34.5	11.5	2.24e-04	0	44	0	852492288	23	4897
2026-01-20 11:22:16.02	307.74	32.88	-32.5	-36.2	9.7	4.75e-03	0	44	0	854589440	24	5537
2026-01-20 11:22:17.03	308.01	32.73	-32.3	-35.1	10.2	1.12e-02	0	44	0	856686592	25	4959
2026-01-20 11:22:18.03	308.27	32.59	-31.6	-33.3	11.7	1.47e-03	0	44	0	858783744	24	4369
2026-01-20 11:22:19.03	308.53	32.44	-30.7	-31.7	13.5	6.10e-05	0	45	0	859832320	22	4039
2026-01-20 11:22:20.04	308.79	32.29	-30.2	-31.0	14.3	2.20e-06	0	45	0	861929472	21	3931
2026-01-20 11:22:21.04	309.04	32.14	-30.5	-31.7	13.9	7.00e-07	0	44	0	864026624	21	4124
2026-01-20 11:22:22.04	309.29	31.99	-30.8	-32.5	13.4	6.10e-06	0	44	0	866123776	21	4382
2026-01-20 11:22:23.05	309.55	31.84	-31.8	-34.4	11.5	1.11e-04	0	44	0	868220928	23	4849
2026-01-20 11:22:24.04	309.79	31.70	-32.5	-36.0	9.5	3.28e-03	0	44	0	869269504	25	5345
2026-01-20 11:22:25.05	310.04	31.55	-32.3	-35.3	10.0	1.25e-02	0	44	0	871366656	25	5041
2026-01-20 11:22:26.05	310.28	31.40	-31.7	-33.8	11.5	3.24e-03	0	44	0	873463808	24	4550
2026-01-20 11:22:27.05	310.52	31.25	-31.1	-32.3	12.9	2.55e-04	0	44	0	875560960	23	4143
2026-01-20 11:22:28.05	310.76	31.11	-30.9	-31.7	13.2	3.73e-05	0	45	0	877658112	23	3974
2026-01-20 11:22:29.06	311.00	30.96	-30.8	-31.9	13.4	1.83e-05	0	45	0	878706688	22	4114
2026-01-20 11:22:30.06	311.24	30.81	-31.3	-33.5	12.4	4.04e-05	0	45	0	880803840	22	4634
2026-01-20 11:22:31.06	311.47	30.67	-31.3	-33.4	12.3	9.53e-05	0	44	0	882900992	22	4598
2026-01-20 11:22:32.07	311.70	30.52	-32.0	-34.9	11.1	9.75e-04	0	44	0	884998144	23	5067
2026-01-20 11:22:33.07	311.93	30.37	-32.1	-34.9	10.6	3.59e-03	0	44	0	887095296	24	4980
2026-01-20 11:22:34.07	312.16	30.23	-32.1	-35.0	10.5	5.58e-03	0	44	0	888143872	24	5015
2026-01-20 11:22:35.08	312.39	30.08	-31.5	-33.0	12.0	1.06e-03	0	44	0	890241024	24	4285
2026-01-20 11:22:36.08	312.61	29.94	-30.9	-31.8	13.2	7.70e-05	0	44	0	892338176	23	3988
2026-01-20 11:22:37.09	312.83	29.79	-30.5	-31.2	13.8	6.10e-06	0	44	0	894435328	22	3893
2026-01-20 11:22:38.09	313.05	29.65	-30.3	-30.7	14.1	3.80e-06	0	44	0	896532480	22	3777
2026-01-20 11:22:39.10	313.27	29.50	-30.9	-32.4	13.2	8.30e-06	0	45	0	897581056	22	4245
2026-01-20 11:22:40.10	313.48	29.36	-31.5	-33.5	11.9	1.37e-04	0	44	0	899678208	23	4554
2026-01-20 11:22:41.10	313.70	29.21	-32.4	-35.8	9.9	1.64e-03	0	44	0	901775360	24	5375
2026-01-20 11:22:42.10	313.91	29.07	-32.4	-36.0	9.7	1.06e-02	0	45	0	903872512	24	5462
2026-01-20 11:22:43.10	314.12	28.93	-32.5	-35.9	9.5	1.64e-02	0	44	0	904921088	25	5327
2026-01-20 11:22:44.10	314.32	28.78	-31.7	-33.6	11.4	5.45e-03	0	45	0	907018240	24	4490
2026-01-20 11:22:45.10	314.53	28.64	-30.8	-31.6	13.2	8.39e-05	0	44	0	909115392	23	3941
2026-01-20 11:22:46.11	314.74	28.50	-30.0	-30.4	14.6	1.50e-06	0	44	0	911212544	21	3769
2026-01-20 11:22:47.11	314.94	28.36	-29.8	-30.4	14.9	7.00e-07	0	44	0	913309696	20	3860
2026-01-20 11:22:48.11	315.14	28.22	-29.8	-30.5	14.9	0.00e+00	0	44	0	914358272	20	3897
2026-01-20 11:22:49.12	315.34	28.07	-30.1	-31.3	14.3	0.00e+00	0	45	0	916455424	20	4125
2026-01-20 11:22:50.12	315.54	27.93	-30.8	-32.5	13.2	8.30e-06	0	44	0	918552576	21	4399
2026-01-20 11:22:51.12	315.73	27.79	-31.1	-33.0	12.7	3.35e-05	0	44	0	920649728	22	4465
2026-01-20 11:22:52.12	315.93	27.65	-31.6	-33.9	11.6	2.98e-04	0	45	0	922746880	23	4701
2026-01-20 11:22:53.13	316.12	27.51	-31.4	-33.4	11.9	3.83e-04	0	45	0	923795456	23	4532
2026-01-20 11:22:54.13	316.31	27.38	-31.1	-32.5	12.5	1.49e-04	0	45	0	925892608	23	4235
2026-01-20 11:22:55.14	316.50	27.24	-30.9	-31.8	13.0	4.65e-05	0	44	0	927989760	23	3998
2026-01-20 11:22:56.14	316.69	27.10	-30.7	-31.7	13.4	3.05e-05	0	45	0	930086912	22	4067
2026-01-20 11:22:57.15	316.87	26.96	-30.4	-31.1	13.8	1.50e-06	0	45	0	932184064	22	3897
2026-01-20 11:22:58.15	317.06	26.82	-30.3	-30.9	13.9	2.20e-06	0	44	0	933232640	22	3826
2026-01-20 11:22:59.16	317.24	26.68	-30.8	-32.1	13.2	1.14e-05	0	45	0	935329792	22	4186
2026-01-20 11:23:00.16	317.42	26.55	-30.8	-32.1	13.2	1.29e-05	0	44	0	937426944	22	4168
2026-01-20 11:23:01.16	317.60	26.41	-30.9	-32.4	12.9	1.83e-05	0	44	0	939524096	22	4281
2026-01-20 11:23:02.17	317.78	26.27	-30.7	-32.0	13.3	2.36e-05	0	44	0	941621248	22	4143
2026-01-20 11:23:03.17	317.96	26.14	-30.8	-32.2	13.1	2.36e-05	0	45	0	942669824	22	4209
2026-01-20 11:23:04.17	318.13	26.00	-30.7	-31.8	13.4	2.05e-05	0	44	0	944766976	22	4104
2026-01-20 11:23:05.18	318.31	25.87	-30.5	-31.3	13.6	1.44e-05	0	44	0	946864128	22	3958
2026-01-20 11:23:06.19	318.48	25.73	-30.2	-30.9	14.1	4.50e-06	0	44	0	948961280	21	3931
2026-01-20 11:23:07.19	318.65	25.60	-30.1	-30.7	14.3	3.80e-06	0	44	0	951058432	21	3881
2026-01-20 11:23:08.19	318.82	25.47	-29.7	-30.4	14.8	7.00e-07	0	44	0	952107008	20	3871
2026-01-20 11:23:09.19	318.99	25.33	-29.7	-30.2	15.0	7.00e-07	0	45	0	954204160	20	3829
2026-01-20 11:23:10.19	319.16	25.20	-29.7	-30.3	14.8	0.00e+00	0	45	0	956301312	20	3852
2026-01-20 11:23:11.19	319.32	25.07	-29.7	-30.3	14.9	0.00e+00	0	45	0	958398464	20	3842
2026-01-20 11:23:12.20	319.49	24.94	-29.9	-30.7	14.5	0.00e+00	0	45	0	959447040	20	3956
2026-01-20 11:23:13.20	319.65	24.80	-29.8	-30.6	14.7	0.00e+00	0	44	0	961544192	20	3927
2026-01-20 11:23:14.20	319.81	24.67	-29.9	-30.7	14.4	0.00e+00	0	45	0	963641344	20	3961
2026-01-20 11:23:15.20	319.97	24.54	-30.3	-31.8	13.9	3.80e-06	0	45	0	965738496	20	4276
2026-01-20 11:23:16.20	320.13	24.41	-30.4	-32.0	13.8	6.80e-06	0	44	0	967835648	20	4354
2026-01-20 11:23:17.20	320.29	24.28	-30.6	-32.1	13.4	1.14e-05	0	45	0	968884224	21	4284
2026-01-20 11:23:18.20	320.44	24.16	-30.7	-32.4	13.1	1.83e-05	0	45	0	970981376	21	4377
2026-01-20 11:23:19.21	320.60	24.03	-30.6	-32.1	13.4	1.83e-05	0	44	0	973078528	21	4280
2026-01-20 11:23:20.22	320.76	23.90	-30.7	-32.5	13.1	2.74e-05	0	45	0	975175680	21	4408
2026-01-20 11:23:21.22	320.91	23.77	-30.6	-32.1	13.4	3.66e-05	0	45	0	977272832	21	4275
2026-01-20 11:23:22.23	321.06	23.64	-30.5	-31.7	13.6	5.30e-06	0	45	0	978321408	21	4172
2026-01-20 11:23:23.23	321.21	23.51	-30.3	-31.2	13.9	3.80e-06	0	45	0	980418560	21	4024
2026-01-20 11:23:24.24	321.36	23.39	-29.8	-30.1	14.6	7.00e-07	0	44	0	982515712	21	3711
2026-01-20 11:23:25.25	321.51	23.26	-29.7	-30.2	14.9	0.00e+00	0	45	0	984612864	20	3832
2026-01-20 11:23:26.26	321.66	23.13	-29.8	-30.4	14.7	0.00e+00	0	44	0	986710016	20	3890
2026-01-20 11:23:27.25	321.80	23.01	-30.0	-30.9	14.4	0.00e+00	0	44	0	987758592	20	4027
2026-01-20 11:23:28.26	321.95	22.88	-30.2	-31.5	14.1	2.20e-06	0	44	0	989855744	20	4182
2026-01-20 11:23:29.26	322.09	22.76	-30.2	-31.5	14.0	1.50e-06	0	44	0	991952896	20	4183
2026-01-20 11:23:30.26	322.23	22.63	-30.6	-32.2	13.2	1.06e-05	0	44	0	994050048	21	4333
2026-01-20 11:23:31.27	322.38	22.51	-30.8	-32.6	13.0	1.22e-05	0	44	0	996147200	21	4442
2026-01-20 11:23:32.26	322.51	22.39	-30.9	-33.0	12.7	5.49e-05	0	44	0	997195776	21	4575
2026-01-20 11:23:33.26	322.65	22.27	-30.9	-32.5	12.6	1.15e-04	0	45	0	999292928	22	4339
2026-01-20 11:23:34.26	322.79	22.14	-31.0	-32.7	12.6	9.68e-05	0	45	0	1001390080	22	4383
2026-01-20 11:23:35.27	322.93	22.02	-31.0	-32.8	12.5	1.27e-04	0	44	0	1003487232	22	4437
2026-01-20 11:23:36.27	323.06	21.90	-31.0	-32.7	12.6	9.23e-05	0	44	0	1005584384	22	4395
2026-01-20 11:23:37.27	323.20	21.78	-31.1	-33.0	12.5	1.18e-04	0	44	0	1006632960	22	4498
2026-01-20 11:23:38.27	323.33	21.66	-31.0	-32.6	12.6	1.17e-04	0	45	0	1008730112	22	4372
2026-01-20 11:23:39.27	323.47	21.54	-30.7	-31.9	13.2	3.43e-05	0	44	0	1010827264	22	4143
2026-01-20 11:23:40.27	323.60	21.42	-30.8	-32.3	12.8	5.34e-05	0	45	0	1012924416	22	4265
2026-01-20 11:23:41.27	323.73	21.30	-30.6	-31.7	13.2	3.96e-05	0	44	0	1015021568	22	4090
2026-01-20 11:23:42.28	323.86	21.18	-30.8	-32.1	13.0	2.44e-05	0	44	0	1016070144	22	4195
2026-01-20 11:23:43.28	323.99	21.06	-30.9	-32.4	12.8	6.33e-05	0	45	0	1018167296	22	4291
2026-01-20 11:23:44.29	324.12	20.94	-30.8	-32.2	12.9	5.41e-05	0	44	0	1020264448	22	4228
2026-01-20 11:23:45.30	324.24	20.82	-30.9	-32.4	12.8	4.11e-05	0	44	0	1022361600	22	4291
2026-01-20 11:23:46.30	324.37	20.71	-31.0	-32.8	12.5	1.43e-04	0	44	0	1023410176	22	4415
2026-01-20 11:23:47.30	324.50	20.59	-31.0	-32.7	12.6	1.05e-04	0	45	0	1025507328	22	4394
2026-01-20 11:23:48.31	324.62	20.47	-31.2	-33.3	12.1	1.93e-04	0	44	0	1027604480	22	4606
2026-01-20 11:23:49.31	324.74	20.36	-30.9	-32.6	12.6	2.14e-04	0	44	0	1029701632	22	4354
2026-01-20 11:23:50.32	324.87	20.24	-30.9	-32.5	12.6	5.87e-05	0	44	0	1031798784	22	4341
2026-01-20 11:23:51.32	324.99	20.13	-30.9	-32.5	12.5	1.37e-04	0	44	0	1032847360	22	4318
2026-01-20 11:23:52.32	325.11	20.01	-30.5	-31.5	13.3	2.44e-05	0	44	0	1034944512	22	4028
2026-01-20 11:23:53.32	325.23	19.90	-30.6	-31.8	13.2	1.29e-05	0	44	0	1037041664	22	4100
2026-01-20 11:23:54.32	325.35	19.78	-30.4	-31.3	13.4	1.52e-05	0	44	0	1039138816	22	3960
2026-01-20 11:23:55.33	325.47	19.67	-30.1	-30.8	14.0	6.80e-06	0	44	0	1041235968	21	3905
2026-01-20 11:23:56.34	325.59	19.55	-30.1	-30.8	14.1	2.20e-06	0	45	0	1042284544	21	3924
2026-01-20 11:23:57.34	325.70	19.44	-30.0	-30.7	14.1	2.20e-06	0	44	0	1044381696	21	3873
2026-01-20 11:23:58.35	325.82	19.33	-30.0	-30.5	14.3	1.50e-06	0	44	0	1046478848	21	3832
2026-01-20 11:23:59.36	325.93	19.22	-30.1	-30.9	14.0	7.00e-07	0	44	0	1048576000	21	3932
2026-01-20 11:24:00.36	326.05	19.10	-30.2	-31.2	13.8	2.20e-06	0	45	0	1050673152	21	4034
2026-01-20 11:24:01.37	326.16	18.99	-30.3	-31.5	13.6	6.10e-06	0	44	0	1051721728	21	4113
2026-01-20 11:24:02.37	326.27	18.88	-30.4	-31.8	13.4	4.50e-06	0	44	0	1053818880	21	4209
2026-01-20 11:24:03.38	326.39	18.77	-30.6	-32.2	13.2	2.59e-05	0	44	0	1055916032	21	4325
2026-01-20 11:24:04.38	326.50	18.66	-30.8	-32.7	12.8	3.28e-05	0	44	0	1058013184	21	4485
2026-01-20 11:24:05.37	326.61	18.55	-30.9	-33.0	12.7	4.57e-05	0	44	0	1060110336	21	4597
2026-01-20 11:24:06.37	326.72	18.44	-31.2	-33.3	12.1	2.35e-04	0	44	0	1061158912	22	4603
2026-01-20 11:24:07.37	326.82	18.34	-31.0	-33.0	12.3	3.50e-04	0	45	0	1063256064	22	4501
2026-01-20 11:24:08.37	326.93	18.23	-31.3	-33.7	11.8	3.89e-04	0	44	0	1065353216	22	4753
2026-01-20 11:24:09.37	327.04	18.12	-31.2	-33.4	12.1	4.45e-04	0	45	0	1067450368	22	4645
2026-01-20 11:24:10.38	327.15	18.01	-31.0	-32.8	12.3	1.75e-04	0	45	0	1069547520	22	4459
2026-01-20 11:24:11.38	327.25	17.90	-30.8	-32.4	12.7	1.31e-04	0	45	0	1070596096	22	4306
2026-01-20 11:24:12.38	327.36	17.80	-30.8	-32.2	12.8	8.92e-05	0	44	0	1072693248	22	4242
2026-01-20 11:24:13.38	327.46	17.69	-30.6	-31.8	13.0	3.35e-05	0	44	0	1074790400	22	4125
2026-01-20 11:24:14.38	327.56	17.58	-30.6	-31.8	13.0	4.34e-05	0	45	0	1076887552	22	4128
2026-01-20 11:24:15.38	327.67	17.48	-30.4	-31.3	13.3	2.13e-05	0	44	0	1077936128	22	3965
2026-01-20 11:24:16.39	327.77	17.37	-30.4	-31.2	13.4	1.75e-05	0	45	0	1080033280	22	3948
2026-01-20 11:24:17.39	327.87	17.27	-30.4	-31.2	13.3	2.05e-05	0	44	0	1082130432	22	3943
2026-01-20 11:24:18.40	327.97	17.16	-30.3	-31.0	13.5	3.05e-05	0	44	0	1084227584	22	3880
2026-01-20 11:24:19.40	328.07	17.06	-30.5	-32.1	13.1	1.98e-05	0	44	0	1086324736	21	4317
2026-01-20 11:24:20.40	328.17	16.96	-30.5	-32.1	13.1	2.28e-05	0	45	0	1087373312	21	4312
2026-01-20 11:24:21.41	328.27	16.85	-30.7	-32.6	12.8	7.01e-05	0	44	0	1089470464	21	4479
2026-01-20 11:24:22.41	328.37	16.75	-30.8	-32.9	12.5	6.48e-05	0	44	0	1091567616	21	4592
2026-01-20 11:24:23.42	328.47	16.64	-31.1	-33.1	12.1	2.08e-04	0	45	0	1093664768	22	4539
2026-01-20 11:24:24.42	328.57	16.54	-31.1	-33.3	12.0	3.73e-04	0	45	0	1095761920	22	4614
2026-01-20 11:24:25.42	328.66	16.44	-31.2	-33.6	11.8	5.47e-04	0	44	0	1096810496	22	4736
2026-01-20 11:24:26.42	328.76	16.34	-31.5	-33.9	11.2	8.57e-04	0	45	0	1098907648	23	4735
2026-01-20 11:24:27.42	328.85	16.24	-31.5	-33.8	11.3	7.26e-04	0	44	0	1101004800	23	4712
2026-01-20 11:24:28.43	328.95	16.14	-31.5	-34.0	11.2	1.23e-03	0	44	0	1103101952	23	4779
2026-01-20 11:24:29.44	329.04	16.03	-31.4	-33.5	11.4	1.17e-03	0	45	0	1105199104	23	4617
2026-01-20 11:24:30.44	329.13	15.93	-31.4	-33.7	11.3	1.09e-03	0	45	0	1106247680	23	4670
2026-01-20 11:24:31.45	329.23	15.83	-31.3	-33.4	11.5	1.02e-03	0	44	0	1108344832	23	4578
2026-01-20 11:24:32.45	329.32	15.73	-31.2	-33.2	11.6	1.16e-03	0	44	0	1110441984	23	4493
2026-01-20 11:24:33.45	329.41	15.63	-31.2	-33.1	11.8	6.15e-04	0	44	0	1112539136	23	4464
2026-01-20 11:24:34.45	329.50	15.54	-31.4	-33.6	11.4	7.92e-04	0	45	0	1114636288	23	4633
2026-01-20 11:24:35.45	329.59	15.44	-31.2	-33.0	11.8	4.77e-04	0	44	0	1115684864	23	4418
2026-01-20 11:24:36.46	329.68	15.34	-31.2	-32.9	11.8	4.44e-04	0	44	0	1117782016	23	4405
2026-01-20 11:24:37.45	329.77	15.24	-31.2	-32.9	11.8	8.12e-04	0	44	0	1119879168	23	4414
2026-01-20 11:24:38.46	329.86	15.14	-31.2	-33.1	11.7	5.50e-04	0	44	0	1121976320	23	4459
2026-01-20 11:24:39.45	329.95	15.05	-31.3	-33.5	11.4	7.22e-04	0	44	0	1123024896	23	4598
2026-01-20 11:24:40.45	330.04	14.95	-31.3	-33.4	11.4	7.98e-04	0	44	0	1125122048	23	4583
2026-01-20 11:24:41.46	330.12	14.85	-31.3	-33.2	11.6	1.04e-03	0	44	0	1127219200	23	4523
2026-01-20 11:24:42.45	330.21	14.76	-31.5	-33.8	11.1	1.01e-03	0	45	0	1129316352	23	4739
2026-01-20 11:24:43.45	330.29	14.66	-31.4	-33.8	11.1	1.51e-03	0	44	0	1131413504	23	4732
2026-01-20 11:24:44.45	330.38	14.57	-31.5	-34.1	10.9	2.01e-03	0	45	0	1132462080	23	4831
2026-01-20 11:24:45.45	330.46	14.47	-31.6	-34.2	10.8	2.17e-03	0	44	0	1134559232	23	4886
2026-01-20 11:24:46.45	330.55	14.38	-31.6	-34.4	10.6	2.95e-03	0	44	0	1136656384	23	4964
2026-01-20 11:24:47.46	330.63	14.28	-31.6	-34.4	10.6	4.21e-03	0	44	0	1138753536	23	4987
2026-01-20 11:24:48.46	330.72	14.19	-31.7	-34.6	10.5	3.49e-03	0	44	0	1140850688	23	5042
2026-01-20 11:24:49.47	330.80	14.09	-31.6	-34.5	10.7	2.80e-03	0	44	0	1141899264	23	5000
2026-01-20 11:24:50.47	330.88	14.00	-31.7	-34.8	10.3	4.01e-03	0	44	0	1143996416	23	5143
2026-01-20 11:24:51.47	330.96	13.91	-31.5	-34.1	10.8	2.08e-03	0	44	0	1146093568	23	4837
2026-01-20 11:24:52.48	331.05	13.81	-31.3	-33.6	11.2	1.53e-03	0	44	0	1148190720	23	4652
2026-01-20 11:24:53.48	331.13	13.72	-31.4	-33.7	11.2	1.67e-03	0	44	0	1150287872	23	4684
2026-01-20 11:24:54.48	331.21	13.63	-31.2	-33.2	11.5	1.06e-03	0	44	0	1151336448	23	4519
2026-01-20 11:24:55.49	331.29	13.53	-31.2	-33.1	11.5	6.47e-04	0	44	0	1153433600	23	4493
2026-01-20 11:24:56.49	331.37	13.44	-31.2	-33.1	11.5	1.15e-03	0	44	0	1155530752	23	4490
2026-01-20 11:24:57.50	331.45	13.35	-30.9	-32.2	12.2	3.63e-04	0	45	0	1157627904	23	4185
2026-01-20 11:24:58.50	331.53	13.26	-30.8	-32.5	12.3	1.84e-04	0	45	0	1159725056	22	4387
2026-01-20 11:24:59.50	331.60	13.17	-30.8	-32.3	12.5	1.83e-04	0	45	0	1160773632	22	4313
2026-01-20 11:25:00.50	331.68	13.08	-30.8	-32.5	12.3	1.53e-04	0	45	0	1162870784	22	4384
2026-01-20 11:25:01.51	331.76	12.99	-30.9	-32.8	12.0	3.20e-04	0	45	0	1164967936	22	4467
2026-01-20 11:25:02.52	331.84	12.90	-30.8	-32.5	12.3	2.27e-04	0	44	0	1167065088	22	4359
2026-01-20 11:25:03.52	331.91	12.81	-30.8	-32.3	12.4	1.53e-04	0	45	0	1169162240	22	4326
2026-01-20 11:25:04.52	331.99	12.72	-30.9	-32.7	12.1	2.42e-04	0	44	0	1170210816	22	4448
2026-01-20 11:25:05.53	332.07	12.63	-30.8	-32.4	12.4	1.33e-04	0	44	0	1172307968	22	4338
2026-01-20 11:25:06.53	332.14	12.54	-31.0	-33.0	11.9	2.01e-04	0	45	0	1174405120	22	4552
2026-01-20 11:25:07.54	332.22	12.45	-30.8	-32.5	12.2	2.98e-04	0	44	0	1176502272	22	4363
2026-01-20 11:25:08.54	332.29	12.36	-30.9	-32.7	12.1	1.85e-04	0	44	0	1178599424	22	4443
2026-01-20 11:25:09.55	332.36	12.27	-30.9	-32.9	11.9	4.79e-04	0	44	0	1179648000	22	4521
2026-01-20 11:25:10.55	332.44	12.18	-30.8	-32.4	12.3	2.66e-04	0	44	0	1181745152	22	4346
2026-01-20 11:25:11.55	332.51	12.10	-30.7	-32.1	12.5	1.73e-04	0	45	0	1183842304	22	4243
2026-01-20 11:25:12.56	332.58	12.01	-30.7	-32.2	12.4	1.15e-04	0	44	0	1185939456	22	4280
2026-01-20 11:25:13.56	332.66	11.92	-30.7	-32.2	12.4	1.49e-04	0	44	0	1186988032	22	4288
2026-01-20 11:25:14.56	332.73	11.84	-30.9	-32.9	11.9	2.77e-04	0	44	0	1189085184	22	4527
2026-01-20 11:25:15.57	332.80	11.75	-30.9	-32.9	12.0	3.13e-04	0	44	0	1191182336	22	4510
2026-01-20 11:25:16.57	332.87	11.66	-31.0	-33.0	11.9	3.23e-04	0	44	0	1193279488	22	4558
2026-01-20 11:25:17.57	332.94	11.58	-31.0	-33.2	11.7	5.97e-04	0	45	0	1195376640	22	4644
2026-01-20 11:25:18.58	333.01	11.49	-31.0	-33.1	11.8	4.17e-04	0	44	0	1196425216	22	4585
2026-01-20 11:25:19.58	333.08	11.40	-31.2	-33.7	11.3	6.68e-04	0	44	0	1198522368	22	4792
2026-01-20 11:25:20.59	333.15	11.32	-31.1	-33.5	11.5	9.83e-04	0	44	0	1200619520	22	4743
2026-01-20 11:25:21.59	333.22	11.23	-31.1	-33.3	11.6	6.84e-04	0	44	0	1202716672	22	4680
2026-01-20 11:25:22.59	333.29	11.15	-31.3	-34.1	11.0	1.18e-03	0	44	0	1204813824	22	4983
2026-01-20 11:25:23.60	333.36	11.06	-31.3	-34.1	11.0	2.71e-03	0	45	0	1205862400	22	4982
2026-01-20 11:25:24.61	333.43	10.98	-31.2	-33.9	11.2	1.88e-03	0	44	0	1207959552	22	4878
2026-01-20 11:25:25.61	333.49	10.90	-31.3	-34.2	11.0	1.92e-03	0	44	0	1210056704	22	4990
2026-01-20 11:25:26.61	333.56	10.81	-31.4	-34.4	10.8	2.28e-03	0	44	0	1212153856	22	5090
2026-01-20 11:25:27.61	333.63	10.73	-31.5	-34.1	10.6	2.85e-03	0	44	0	1214251008	23	4894
2026-01-20 11:25:28.62	333.70	10.65	-31.5	-34.1	10.6	4.02e-03	0	44	0	1215299584	23	4884
2026-01-20 11:25:29.61	333.76	10.56	-31.5	-34.4	10.4	3.28e-03	0	44	0	1217396736	23	5019
2026-01-20 11:25:30.62	333.83	10.48	-31.7	-34.8	10.0	6.53e-03	0	44	0	1219493888	23	5190
2026-01-20 11:25:31.62	333.89	10.40	-31.5	-34.3	10.4	5.24e-03	0	44	0	1221591040	23	4976
2026-01-20 11:25:32.62	333.96	10.32	-31.6	-34.5	10.3	4.84e-03	0	44	0	1223688192	23	5040
2026-01-20 11:25:33.63	334.02	10.23	-31.6	-34.6	10.3	6.37e-03	0	44	0	1224736768	23	5080
2026-01-20 11:25:34.63	334.09	10.15	-31.5	-34.4	10.3	4.80e-03	0	44	0	1226833920	23	5012
2026-01-20 11:25:35.63	334.15	10.07	-31.6	-34.8	10.1	4.64e-03	0	45	0	1228931072	23	5165
2026-01-20 11:25:36.63	334.22	9.99	-31.5	-34.3	10.3	6.66e-03	0	45	0	1231028224	23	4988
2026-01-20 11:25:37.63	334.28	9.91	-31.6	-34.6	10.2	6.43e-03	0	44	0	1233125376	23	5086
2026-01-20 11:25:38.64	334.34	9.83	-31.6	-34.7	10.0	6.05e-03	0	44	0	1234173952	23	5148
2026-01-20 11:25:39.64	334.41	9.75	-31.6	-34.5	10.2	6.20e-03	0	44	0	1236271104	23	5062
2026-01-20 11:25:40.64	334.47	9.67	-31.4	-34.2	10.5	5.45e-03	0	44	0	1238368256	23	4923
2026-01-20 11:25:41.64	334.53	9.59	-31.5	-34.5	10.2	6.66e-03	0	44	0	1240465408	23	5075
2026-01-20 11:25:42.65	334.59	9.51	-31.5	-34.4	10.2	6.92e-03	0	45	0	1241513984	23	5038
2026-01-20 11:25:43.65	334.65	9.43	-31.5	-34.6	10.1	5.82e-03	0	44	0	1243611136	23	5089
2026-01-20 11:25:44.65	334.72	9.35	-31.5	-34.4	10.2	6.81e-03	0	44	0	1245708288	23	5033
2026-01-20 11:25:45.66	334.78	9.27	-31.5	-34.3	10.3	4.71e-03	0	44	0	1247805440	23	4985
2026-01-20 11:25:46.66	334.84	9.19	-31.5	-34.4	10.2	4.88e-03	0	45	0	1249902592	23	5045
2026-01-20 11:25:47.66	334.90	9.11	-31.5	-34.4	10.2	4.75e-03	0	44	0	1250951168	23	5015
2026-01-20 11:25:48.66	334.96	9.04	-31.5	-34.6	10.1	7.40e-03	0	44	0	1253048320	23	5114
2026-01-20 11:25:49.66	335.02	8.96	-31.5	-34.5	10.1	6.68e-03	0	44	0	1255145472	23	5076
2026-01-20 11:25:50.66	335.08	8.88	-31.6	-34.7	9.9	7.38e-03	0	44	0	1257242624	23	5184
2026-01-20 11:25:51.66	335.14	8.80	-31.6	-34.8	9.9	9.93e-03	0	44	0	1259339776	23	5204
2026-01-20 11:25:52.66	335.19	8.72	-31.6	-34.8	9.9	9.67e-03	0	45	0	1260388352	23	5189
2026-01-20 11:25:53.66	335.25	8.65	-31.7	-35.2	9.5	1.21e-02	0	45	0	1262485504	23	5391
2026-01-20 11:25:54.67	335.31	8.57	-31.8	-35.5	9.3	1.76e-02	0	44	0	1264582656	23	5555
2026-01-20 11:25:55.68	335.37	8.49	-31.7	-35.4	9.4	1.80e-02	0	45	0	1266679808	23	5482
2026-01-20 11:25:56.68	335.43	8.42	-31.8	-35.5	9.4	1.94e-02	0	45	0	1268776960	23	5517
2026-01-20 11:25:57.69	335.49	8.34	-31.8	-35.8	9.1	2.01e-02	0	45	0	1269825536	23	5681
2026-01-20 11:25:58.70	335.54	8.26	-31.7	-35.4	9.4	1.72e-02	0	44	0	1271922688	23	5475
2026-01-20 11:25:59.70	335.60	8.19	-31.7	-35.4	9.3	1.94e-02	0	44	0	1274019840	23	5506
2026-01-20 11:26:00.70	335.66	8.11	-31.7	-35.3	9.4	1.83e-02	0	45	0	1276116992	23	5470
2026-01-20 11:26:01.70	335.71	8.04	-31.9	-35.9	8.9	2.57e-02	0	45	0	1278214144	23	5732
2026-01-20 11:26:02.70	335.77	7.96	-31.9	-36.1	8.8	3.15e-02	0	44	0	1279262720	23	5818
