passes_logs/2026/01/20/R2M6_AANII_01/R2M6_AANII_01__20260120_093417_SUOMI_NPP_rec.log

#Pass ID: 20260120_093417_SUOMI NPP
#Satellite: SUOMI NPP
#Configuration: NPP
#almurnet v.1.7.20240730
#Start time: 2026-01-20 09:34:17

#Version: 2.2.20231116
#Station: R2M6_AANII_01
#Location: 30.233357 lon 59.946436 lat
#TLE: 1 37849U 11061A   26019.61507914  .00000076  00000+0  57195-4 0  9994
#TLE: 2 37849  98.7817 321.6240 0002347  55.5899 304.5499 14.19526391737369

#Time	Az	El	Level	Level2	SNR	BER	BlckErr	Temp	State	Recorded	gain1	gain2
2026-01-20 09:34:17.42	134.71	7.01	-31.5	-34.7	5.2	1.26e+00	0	41	0	0	24	5230
2026-01-20 09:34:18.41	134.68	7.08	-32.0	-37.2	4.7	1.33e+00	0	41	104	0	24	6578
2026-01-20 09:34:19.41	134.64	7.16	-32.0	-37.3	6.8	1.79e-01	0	42	0	0	24	6597
2026-01-20 09:34:20.42	134.60	7.23	-32.1	-37.6	6.7	1.90e-01	0	42	0	1048576	24	6753
2026-01-20 09:34:21.43	134.55	7.31	-32.1	-37.7	6.6	2.28e-01	0	42	0	3145728	24	6810
2026-01-20 09:34:22.43	134.51	7.39	-32.0	-37.0	7.1	1.52e-01	0	42	0	5242880	24	6412
2026-01-20 09:34:23.43	134.47	7.46	-31.8	-36.1	7.8	1.14e-01	0	42	0	7340032	24	5927
2026-01-20 09:34:24.43	134.43	7.54	-31.7	-35.6	8.2	6.33e-02	0	42	0	9437184	24	5665
2026-01-20 09:34:25.43	134.39	7.61	-31.4	-34.7	8.9	4.33e-02	0	42	0	10485760	24	5256
2026-01-20 09:34:26.44	134.35	7.69	-31.3	-34.3	9.2	2.47e-02	0	42	0	12582912	24	5055
2026-01-20 09:34:27.44	134.31	7.77	-31.3	-34.4	9.2	2.08e-02	0	42	0	14680064	24	5119
2026-01-20 09:34:28.44	134.27	7.85	-31.2	-34.3	9.6	1.96e-02	0	42	0	16777216	23	5150
2026-01-20 09:34:29.44	134.22	7.92	-30.9	-33.2	10.4	8.66e-03	0	42	0	17825792	23	4699
2026-01-20 09:34:30.44	134.18	8.00	-30.9	-33.1	10.5	4.63e-03	0	42	0	19922944	23	4665
2026-01-20 09:34:31.44	134.14	8.08	-30.7	-33.1	11.0	1.90e-03	0	42	0	22020096	22	4716
2026-01-20 09:34:32.45	134.10	8.16	-30.7	-33.0	11.1	1.68e-03	0	42	0	24117248	22	4702
2026-01-20 09:34:33.45	134.05	8.24	-31.0	-33.8	10.4	2.75e-03	0	42	0	26214400	22	5016
2026-01-20 09:34:34.45	134.01	8.32	-31.1	-34.5	10.0	5.86e-03	0	42	0	27262976	22	5302
2026-01-20 09:34:35.45	133.97	8.40	-31.5	-35.7	9.1	1.35e-02	0	42	0	29360128	22	5846
2026-01-20 09:34:36.46	133.92	8.48	-31.7	-36.0	8.5	3.92e-02	0	42	0	31457280	23	5900
2026-01-20 09:34:37.47	133.88	8.56	-31.8	-36.7	7.9	6.13e-02	0	42	0	33554432	23	6296
2026-01-20 09:34:38.46	133.83	8.64	-31.9	-37.2	7.6	1.05e-01	0	42	0	35651584	23	6558
2026-01-20 09:34:39.45	133.79	8.72	-32.0	-37.3	7.5	1.01e-01	0	42	0	36700160	23	6625
2026-01-20 09:34:40.46	133.74	8.80	-32.1	-37.1	7.3	1.07e-01	0	42	0	38797312	24	6440
2026-01-20 09:34:41.47	133.70	8.88	-31.9	-36.2	7.9	1.13e-01	0	42	0	40894464	24	5945
2026-01-20 09:34:42.46	133.65	8.96	-31.6	-35.1	8.8	3.83e-02	0	43	0	42991616	24	5378
2026-01-20 09:34:43.46	133.61	9.04	-31.4	-34.3	9.4	2.19e-02	0	42	0	45088768	24	5037
2026-01-20 09:34:44.46	133.56	9.12	-31.5	-34.5	9.4	1.50e-02	0	42	0	46137344	24	5098
2026-01-20 09:34:45.46	133.51	9.20	-31.4	-34.1	9.7	1.82e-02	0	42	0	48234496	24	4916
2026-01-20 09:34:46.46	133.47	9.28	-31.2	-34.0	10.2	7.89e-03	0	43	0	50331648	23	4953
2026-01-20 09:34:47.46	133.42	9.36	-31.3	-34.2	10.0	5.87e-03	0	43	0	52428800	23	5038
2026-01-20 09:34:48.46	133.37	9.45	-31.4	-34.6	9.8	8.36e-03	0	43	0	53477376	23	5189
2026-01-20 09:34:49.46	133.33	9.53	-31.7	-35.4	9.2	2.12e-02	0	43	0	55574528	23	5519
2026-01-20 09:34:50.47	133.28	9.61	-31.8	-36.2	8.7	2.49e-02	0	43	0	57671680	23	5913
2026-01-20 09:34:51.47	133.23	9.70	-32.0	-36.4	8.1	6.21e-02	0	43	0	59768832	24	5928
2026-01-20 09:34:52.47	133.18	9.78	-32.2	-37.3	7.4	7.96e-02	0	43	0	61865984	24	6441
2026-01-20 09:34:53.47	133.13	9.86	-32.3	-37.8	7.0	1.51e-01	0	43	0	62914560	24	6761
2026-01-20 09:34:54.48	133.08	9.95	-32.4	-37.8	7.0	1.50e-01	0	43	0	65011712	24	6765
2026-01-20 09:34:55.48	133.04	10.03	-32.3	-37.9	6.9	1.81e-01	0	43	0	67108864	24	6809
2026-01-20 09:34:56.49	132.99	10.12	-32.1	-36.6	7.9	1.01e-01	0	43	0	69206016	24	6068
2026-01-20 09:34:57.49	132.94	10.20	-31.8	-35.4	8.9	5.20e-02	0	43	0	71303168	24	5434
2026-01-20 09:34:58.50	132.88	10.29	-31.6	-34.6	9.5	1.93e-02	0	43	0	72351744	24	5100
2026-01-20 09:34:59.50	132.83	10.37	-31.3	-33.6	10.2	9.07e-03	0	43	0	74448896	24	4677
2026-01-20 09:35:00.50	132.78	10.46	-31.1	-33.5	10.7	4.17e-03	0	43	0	76546048	23	4716
2026-01-20 09:35:01.50	132.73	10.54	-31.1	-33.3	10.9	2.08e-03	0	43	0	78643200	23	4649
2026-01-20 09:35:02.51	132.68	10.63	-31.1	-33.5	10.7	2.01e-03	0	43	0	80740352	23	4734
2026-01-20 09:35:03.51	132.63	10.72	-31.1	-33.5	10.9	3.01e-03	0	43	0	81788928	23	4715
2026-01-20 09:35:04.51	132.58	10.80	-31.1	-33.3	10.9	1.99e-03	0	43	0	83886080	23	4666
2026-01-20 09:35:05.52	132.53	10.89	-30.9	-32.9	11.2	1.26e-03	0	43	0	85983232	23	4507
2026-01-20 09:35:06.52	132.47	10.98	-30.9	-32.9	11.2	1.38e-03	0	43	0	88080384	23	4505
2026-01-20 09:35:07.52	132.42	11.06	-30.9	-32.9	11.2	1.49e-03	0	43	0	90177536	23	4517
2026-01-20 09:35:08.53	132.37	11.15	-30.9	-32.9	11.2	1.18e-03	0	43	0	91226112	23	4517
2026-01-20 09:35:09.54	132.31	11.24	-31.0	-33.1	11.1	1.22e-03	0	43	0	93323264	23	4571
2026-01-20 09:35:10.54	132.26	11.33	-30.9	-32.8	11.2	1.08e-03	0	43	0	95420416	23	4479
2026-01-20 09:35:11.54	132.20	11.42	-30.7	-32.8	11.5	1.32e-03	0	43	0	97517568	22	4573
2026-01-20 09:35:12.53	132.15	11.51	-30.5	-32.0	12.2	4.10e-04	0	43	0	99614720	22	4300
2026-01-20 09:35:13.54	132.09	11.60	-30.3	-31.6	12.5	1.35e-04	0	43	0	100663296	22	4150
2026-01-20 09:35:14.55	132.04	11.69	-30.2	-31.8	12.6	1.34e-04	0	43	0	102760448	21	4314
2026-01-20 09:35:15.55	131.98	11.78	-30.3	-31.8	12.7	1.14e-04	0	43	0	104857600	21	4303
2026-01-20 09:35:16.54	131.93	11.86	-30.1	-31.4	13.0	6.48e-05	0	43	0	106954752	21	4162
2026-01-20 09:35:17.54	131.87	11.95	-30.2	-31.6	12.9	2.51e-05	0	43	0	108003328	21	4228
2026-01-20 09:35:18.54	131.81	12.05	-30.3	-31.8	12.7	7.47e-05	0	43	0	110100480	21	4315
2026-01-20 09:35:19.54	131.76	12.14	-30.5	-32.6	12.2	1.59e-04	0	43	0	112197632	21	4557
2026-01-20 09:35:20.53	131.70	12.23	-30.7	-33.1	11.8	3.81e-04	0	43	0	114294784	21	4729
2026-01-20 09:35:21.54	131.64	12.32	-30.9	-33.6	11.5	5.83e-04	0	43	0	116391936	21	4941
2026-01-20 09:35:22.55	131.58	12.41	-31.0	-33.4	11.3	1.45e-03	0	43	0	117440512	22	4764
2026-01-20 09:35:23.55	131.52	12.50	-30.9	-33.0	11.6	9.15e-04	0	43	0	119537664	22	4611
2026-01-20 09:35:24.56	131.46	12.60	-30.9	-33.0	11.6	5.44e-04	0	43	0	121634816	22	4601
2026-01-20 09:35:25.56	131.41	12.69	-30.7	-32.6	11.9	3.78e-04	0	43	0	123731968	22	4445
2026-01-20 09:35:26.57	131.35	12.78	-30.6	-32.2	12.2	2.80e-04	0	43	0	125829120	22	4321
2026-01-20 09:35:27.57	131.28	12.88	-30.7	-32.3	12.1	1.96e-04	0	43	0	126877696	22	4328
2026-01-20 09:35:28.57	131.22	12.97	-30.6	-32.2	12.2	2.85e-04	0	43	0	128974848	22	4318
2026-01-20 09:35:29.58	131.16	13.07	-30.5	-31.8	12.5	1.52e-04	0	43	0	131072000	22	4180
2026-01-20 09:35:30.58	131.10	13.16	-30.4	-31.5	12.7	7.62e-05	0	43	0	133169152	22	4076
2026-01-20 09:35:31.59	131.04	13.26	-30.6	-32.1	12.3	1.33e-04	0	43	0	135266304	22	4272
2026-01-20 09:35:32.59	130.98	13.35	-30.6	-32.2	12.2	1.87e-04	0	43	0	136314880	22	4325
2026-01-20 09:35:33.59	130.91	13.45	-30.6	-32.2	12.2	1.31e-04	0	43	0	138412032	22	4331
2026-01-20 09:35:34.60	130.85	13.54	-30.7	-32.6	11.9	2.23e-04	0	43	0	140509184	22	4451
2026-01-20 09:35:35.59	130.79	13.64	-30.7	-32.6	11.9	4.85e-04	0	43	0	142606336	22	4455
2026-01-20 09:35:36.60	130.72	13.74	-30.7	-32.4	12.1	3.34e-04	0	43	0	144703488	22	4402
2026-01-20 09:35:37.60	130.66	13.83	-30.7	-32.3	12.2	1.93e-04	0	43	0	145752064	22	4373
2026-01-20 09:35:38.59	130.59	13.93	-30.4	-31.7	12.6	2.93e-04	0	43	0	147849216	22	4156
2026-01-20 09:35:39.58	130.53	14.03	-30.3	-31.5	12.7	1.07e-04	0	43	0	149946368	22	4112
2026-01-20 09:35:40.58	130.46	14.12	-30.3	-31.5	12.7	7.85e-05	0	43	0	152043520	22	4125
2026-01-20 09:35:41.59	130.40	14.22	-30.4	-31.7	12.5	1.34e-04	0	43	0	153092096	22	4204
2026-01-20 09:35:42.59	130.33	14.32	-30.3	-31.8	12.7	8.69e-05	0	44	0	155189248	21	4311
2026-01-20 09:35:43.59	130.26	14.42	-30.3	-32.1	12.6	6.33e-05	0	44	0	157286400	21	4412
2026-01-20 09:35:44.60	130.20	14.52	-30.5	-32.6	12.2	1.10e-04	0	43	0	159383552	21	4582
2026-01-20 09:35:45.59	130.13	14.62	-30.7	-33.0	12.0	2.91e-04	0	44	0	161480704	21	4708
2026-01-20 09:35:46.60	130.06	14.72	-30.6	-32.7	12.2	2.91e-04	0	43	0	162529280	21	4590
2026-01-20 09:35:47.60	129.99	14.82	-30.8	-33.2	11.8	4.00e-04	0	44	0	164626432	21	4792
2026-01-20 09:35:48.61	129.92	14.92	-30.8	-33.4	11.7	4.01e-04	0	43	0	166723584	21	4849
2026-01-20 09:35:49.60	129.85	15.02	-30.8	-33.1	12.0	3.12e-04	0	43	0	168820736	21	4727
2026-01-20 09:35:50.61	129.78	15.13	-30.6	-32.7	12.4	1.73e-04	0	44	0	170917888	21	4554
2026-01-20 09:35:51.61	129.71	15.23	-30.7	-32.7	12.3	1.65e-04	0	44	0	171966464	21	4565
2026-01-20 09:35:52.60	129.64	15.33	-30.7	-32.7	12.4	1.43e-04	0	44	0	174063616	21	4538
2026-01-20 09:35:53.60	129.57	15.43	-30.6	-32.5	12.5	1.43e-04	0	44	0	176160768	21	4479
2026-01-20 09:35:54.60	129.49	15.53	-30.4	-32.0	12.8	9.84e-05	0	44	0	178257920	21	4330
2026-01-20 09:35:55.60	129.42	15.64	-30.7	-32.8	12.4	1.11e-04	0	44	0	180355072	21	4575
2026-01-20 09:35:56.61	129.35	15.74	-30.7	-32.7	12.4	1.34e-04	0	44	0	181403648	21	4555
2026-01-20 09:35:57.62	129.27	15.85	-30.8	-33.0	12.2	1.30e-04	0	44	0	183500800	21	4656
2026-01-20 09:35:58.62	129.20	15.95	-30.7	-32.9	12.3	2.04e-04	0	44	0	185597952	21	4624
2026-01-20 09:35:59.63	129.12	16.06	-30.7	-32.9	12.3	2.12e-04	0	44	0	187695104	21	4628
2026-01-20 09:36:00.63	129.05	16.16	-30.7	-32.8	12.3	1.69e-04	0	43	0	189792256	21	4595
2026-01-20 09:36:01.64	128.97	16.27	-30.5	-32.2	12.7	8.39e-05	0	44	0	190840832	21	4396
2026-01-20 09:36:02.64	128.89	16.38	-30.3	-31.8	13.0	2.74e-05	0	44	0	192937984	21	4274
2026-01-20 09:36:03.64	128.81	16.48	-30.5	-32.2	12.8	6.25e-05	0	44	0	195035136	21	4374
2026-01-20 09:36:04.64	128.74	16.59	-30.5	-32.4	12.7	7.01e-05	0	44	0	197132288	21	4449
2026-01-20 09:36:05.65	128.66	16.70	-30.5	-32.4	12.6	8.08e-05	0	44	0	198180864	21	4453
2026-01-20 09:36:06.65	128.58	16.81	-30.5	-32.3	12.7	8.46e-05	0	44	0	200278016	21	4440
2026-01-20 09:36:07.65	128.50	16.92	-30.6	-32.7	12.5	1.02e-04	0	44	0	202375168	21	4559
2026-01-20 09:36:08.65	128.42	17.02	-30.7	-32.9	12.3	1.39e-04	0	44	0	204472320	21	4629
2026-01-20 09:36:09.66	128.34	17.14	-30.7	-33.0	12.2	1.64e-04	0	44	0	206569472	21	4699
2026-01-20 09:36:10.66	128.26	17.24	-30.5	-32.3	12.7	2.04e-04	0	44	0	207618048	21	4426
2026-01-20 09:36:11.67	128.17	17.36	-30.4	-32.0	12.9	6.10e-05	0	44	0	209715200	21	4354
2026-01-20 09:36:12.66	128.09	17.47	-30.3	-31.6	13.2	2.51e-05	0	44	0	211812352	21	4214
2026-01-20 09:36:13.66	128.01	17.58	-30.1	-31.3	13.4	1.29e-05	0	44	0	213909504	21	4116
2026-01-20 09:36:14.66	127.92	17.69	-30.0	-31.0	13.6	6.10e-06	0	44	0	216006656	21	4020
2026-01-20 09:36:15.67	127.84	17.80	-30.2	-31.5	13.3	9.10e-06	0	44	0	217055232	21	4187
2026-01-20 09:36:16.67	127.75	17.91	-30.3	-31.7	13.2	3.05e-05	0	44	0	219152384	21	4238
2026-01-20 09:36:17.68	127.67	18.03	-30.3	-31.8	13.1	1.44e-05	0	44	0	221249536	21	4257
2026-01-20 09:36:18.68	127.58	18.14	-30.5	-32.3	12.8	5.18e-05	0	44	0	223346688	21	4423
2026-01-20 09:36:19.68	127.49	18.25	-30.8	-33.1	12.3	1.60e-04	0	44	0	225443840	21	4694
2026-01-20 09:36:20.69	127.40	18.37	-30.8	-33.0	12.3	2.26e-04	0	44	0	226492416	21	4671
2026-01-20 09:36:21.69	127.31	18.48	-30.8	-33.0	12.4	1.72e-04	0	44	0	228589568	21	4639
2026-01-20 09:36:22.69	127.23	18.60	-30.8	-33.0	12.3	1.59e-04	0	44	0	230686720	21	4666
2026-01-20 09:36:23.69	127.14	18.71	-30.9	-33.4	12.1	1.94e-04	0	44	0	232783872	21	4765
2026-01-20 09:36:24.68	127.05	18.83	-31.0	-33.6	12.0	2.13e-04	0	44	0	234881024	21	4834
2026-01-20 09:36:25.68	126.95	18.95	-31.0	-32.9	12.1	3.61e-04	0	44	0	235929600	22	4509
2026-01-20 09:36:26.68	126.86	19.06	-30.8	-32.5	12.4	1.62e-04	0	44	0	238026752	22	4376
2026-01-20 09:36:27.69	126.77	19.18	-30.8	-32.3	12.6	9.46e-05	0	44	0	240123904	22	4303
2026-01-20 09:36:28.68	126.68	19.30	-30.8	-32.5	12.5	6.94e-05	0	44	0	242221056	22	4356
2026-01-20 09:36:29.69	126.58	19.42	-30.9	-32.8	12.3	1.57e-04	0	44	0	243269632	22	4465
2026-01-20 09:36:30.69	126.49	19.54	-30.9	-32.6	12.4	2.26e-04	0	44	0	245366784	22	4394
2026-01-20 09:36:31.69	126.39	19.65	-30.9	-32.6	12.5	1.21e-04	0	44	0	247463936	22	4379
2026-01-20 09:36:32.69	126.29	19.77	-30.8	-32.3	12.6	7.40e-05	0	44	0	249561088	22	4303
2026-01-20 09:36:33.70	126.19	19.90	-30.6	-32.0	12.9	5.87e-05	0	44	0	251658240	22	4197
2026-01-20 09:36:34.71	126.09	20.02	-30.6	-31.9	13.0	6.71e-05	0	44	0	252706816	22	4156
2026-01-20 09:36:35.72	125.99	20.14	-30.7	-32.0	12.8	8.54e-05	0	44	0	254803968	22	4207
2026-01-20 09:36:36.72	125.90	20.26	-30.7	-32.1	12.8	4.73e-05	0	44	0	256901120	22	4250
2026-01-20 09:36:37.72	125.79	20.38	-30.9	-32.6	12.5	1.17e-04	0	44	0	258998272	22	4403
2026-01-20 09:36:38.72	125.69	20.51	-31.0	-32.9	12.3	1.99e-04	0	44	0	261095424	22	4490
2026-01-20 09:36:39.72	125.59	20.63	-31.1	-33.2	12.0	2.73e-04	0	44	0	262144000	22	4586
2026-01-20 09:36:40.72	125.49	20.75	-31.1	-33.3	12.0	3.27e-04	0	44	0	264241152	22	4609
2026-01-20 09:36:41.72	125.38	20.88	-31.0	-33.0	12.3	2.97e-04	0	44	0	266338304	22	4517
2026-01-20 09:36:42.71	125.28	21.00	-30.8	-32.2	12.8	1.75e-04	0	44	0	268435456	22	4251
2026-01-20 09:36:43.72	125.17	21.13	-30.9	-32.5	12.6	8.62e-05	0	44	0	270532608	22	4331
2026-01-20 09:36:44.72	125.07	21.25	-30.6	-31.9	13.0	8.08e-05	0	44	0	271581184	22	4144
2026-01-20 09:36:45.73	124.96	21.38	-30.7	-32.0	13.0	6.71e-05	0	44	0	273678336	22	4193
2026-01-20 09:36:46.73	124.85	21.51	-30.6	-31.8	13.0	5.26e-05	0	44	0	275775488	22	4140
2026-01-20 09:36:47.73	124.74	21.64	-30.9	-32.7	12.4	9.07e-05	0	44	0	277872640	22	4414
2026-01-20 09:36:48.73	124.63	21.76	-30.8	-32.4	12.7	9.23e-05	0	44	0	279969792	22	4332
2026-01-20 09:36:49.73	124.52	21.89	-30.8	-32.2	12.8	6.63e-05	0	44	0	281018368	22	4247
2026-01-20 09:36:50.73	124.41	22.02	-30.8	-32.3	12.8	6.63e-05	0	44	0	283115520	22	4273
2026-01-20 09:36:51.74	124.29	22.15	-30.6	-31.8	13.1	4.57e-05	0	44	0	285212672	22	4134
2026-01-20 09:36:52.74	124.18	22.28	-30.5	-31.6	13.2	1.83e-05	0	44	0	287309824	22	4070
2026-01-20 09:36:53.75	124.06	22.41	-30.9	-32.6	12.6	4.04e-05	0	44	0	289406976	22	4385
2026-01-20 09:36:54.76	123.94	22.55	-31.0	-32.9	12.4	1.59e-04	0	44	0	290455552	22	4477
2026-01-20 09:36:55.75	123.83	22.68	-31.3	-33.9	11.8	2.15e-04	0	44	0	292552704	22	4814
2026-01-20 09:36:56.76	123.71	22.81	-31.2	-33.6	11.9	5.04e-04	0	44	0	294649856	22	4706
2026-01-20 09:36:57.76	123.59	22.94	-31.2	-33.3	12.2	2.67e-04	0	44	0	296747008	22	4593
2026-01-20 09:36:58.76	123.47	23.08	-31.1	-33.2	12.2	2.13e-04	0	44	0	297795584	22	4572
2026-01-20 09:36:59.76	123.35	23.21	-31.1	-33.0	12.4	1.92e-04	0	44	0	299892736	22	4487
2026-01-20 09:37:00.77	123.22	23.35	-31.0	-32.9	12.4	1.79e-04	0	44	0	301989888	22	4469
2026-01-20 09:37:01.77	123.10	23.48	-31.2	-33.4	12.1	3.20e-04	0	44	0	304087040	22	4634
2026-01-20 09:37:02.77	122.98	23.62	-31.4	-34.1	11.6	5.13e-04	0	44	0	306184192	22	4885
2026-01-20 09:37:03.78	122.85	23.76	-31.7	-34.3	11.1	6.63e-04	0	44	0	307232768	23	4893
2026-01-20 09:37:04.78	122.72	23.89	-31.6	-34.0	11.3	1.26e-03	0	44	0	309329920	23	4780
2026-01-20 09:37:05.79	122.59	24.03	-31.6	-34.2	11.2	1.56e-03	0	44	0	311427072	23	4833
2026-01-20 09:37:06.79	122.46	24.17	-31.4	-33.3	11.8	1.12e-03	0	44	0	313524224	23	4520
2026-01-20 09:37:07.79	122.33	24.31	-31.2	-32.8	12.2	2.40e-04	0	44	0	315621376	23	4321
2026-01-20 09:37:08.79	122.20	24.45	-31.1	-32.5	12.4	1.81e-04	0	44	0	316669952	23	4229
2026-01-20 09:37:09.79	122.07	24.59	-31.3	-33.1	12.0	3.67e-04	0	44	0	318767104	23	4425
2026-01-20 09:37:10.80	121.94	24.73	-31.3	-33.2	11.9	4.50e-04	0	44	0	320864256	23	4492
2026-01-20 09:37:11.80	121.80	24.87	-31.6	-34.2	11.2	5.10e-04	0	44	0	322961408	23	4847
2026-01-20 09:37:12.79	121.67	25.01	-31.8	-34.6	10.9	1.27e-03	0	44	0	325058560	23	5010
2026-01-20 09:37:13.79	121.53	25.15	-31.6	-34.2	11.2	2.02e-03	0	44	0	326107136	23	4839
2026-01-20 09:37:14.80	121.39	25.29	-31.5	-33.7	11.6	9.95e-04	0	44	0	328204288	23	4658
2026-01-20 09:37:15.79	121.25	25.44	-31.2	-32.8	12.3	2.38e-04	0	44	0	330301440	23	4341
2026-01-20 09:37:16.79	121.11	25.58	-31.0	-32.4	12.5	1.23e-04	0	44	0	332398592	23	4202
2026-01-20 09:37:17.80	120.96	25.72	-31.0	-32.2	12.6	9.84e-05	0	44	0	334495744	23	4153
2026-01-20 09:37:18.81	120.82	25.87	-31.0	-32.2	12.7	8.31e-05	0	44	0	335544320	23	4130
2026-01-20 09:37:19.81	120.67	26.02	-31.1	-32.6	12.4	7.17e-05	0	44	0	337641472	23	4265
2026-01-20 09:37:20.81	120.53	26.16	-31.0	-32.2	12.7	8.39e-05	0	44	0	339738624	23	4148
2026-01-20 09:37:21.81	120.38	26.31	-30.8	-31.8	12.9	4.50e-05	0	44	0	341835776	23	4010
2026-01-20 09:37:22.80	120.23	26.45	-30.7	-32.0	13.2	3.58e-05	0	44	0	342884352	22	4163
2026-01-20 09:37:23.80	120.08	26.60	-30.8	-32.2	13.1	2.13e-05	0	44	0	344981504	22	4230
2026-01-20 09:37:24.81	119.93	26.75	-30.9	-32.4	12.9	3.12e-05	0	44	0	347078656	22	4279
2026-01-20 09:37:25.81	119.77	26.90	-30.9	-32.3	13.0	5.64e-05	0	44	0	349175808	22	4250
2026-01-20 09:37:26.82	119.62	27.05	-31.1	-33.1	12.5	7.17e-05	0	44	0	351272960	22	4509
2026-01-20 09:37:27.82	119.46	27.20	-31.3	-33.4	12.2	2.15e-04	0	44	0	352321536	22	4632
2026-01-20 09:37:28.82	119.30	27.35	-31.0	-32.7	12.7	8.85e-05	0	44	0	354418688	22	4388
2026-01-20 09:37:29.82	119.14	27.50	-31.0	-32.7	12.8	9.15e-05	0	44	0	356515840	22	4365
2026-01-20 09:37:30.82	118.98	27.66	-31.0	-32.8	12.7	1.07e-04	0	44	0	358612992	22	4413
2026-01-20 09:37:31.82	118.82	27.81	-31.3	-33.4	12.3	1.44e-04	0	44	0	360710144	22	4621
2026-01-20 09:37:32.83	118.65	27.96	-31.3	-33.6	12.2	1.93e-04	0	44	0	361758720	22	4692
2026-01-20 09:37:33.84	118.48	28.12	-31.4	-33.2	12.1	3.62e-04	0	44	0	363855872	23	4469
2026-01-20 09:37:34.84	118.32	28.27	-31.5	-34.0	11.5	7.62e-04	0	44	0	365953024	23	4778
2026-01-20 09:37:35.85	118.14	28.43	-31.5	-33.9	11.5	1.27e-03	0	44	0	368050176	23	4755
2026-01-20 09:37:36.85	117.97	28.58	-31.3	-33.1	12.0	3.06e-04	0	44	0	370147328	23	4475
2026-01-20 09:37:37.85	117.80	28.74	-31.2	-33.0	12.0	2.73e-04	0	44	0	371195904	23	4428
2026-01-20 09:37:38.85	117.63	28.90	-31.4	-33.4	11.8	4.65e-04	0	44	0	373293056	23	4562
2026-01-20 09:37:39.86	117.45	29.05	-31.3	-33.3	12.0	4.68e-04	0	44	0	375390208	23	4522
2026-01-20 09:37:40.86	117.27	29.21	-31.3	-33.2	12.2	3.38e-04	0	44	0	377487360	23	4476
2026-01-20 09:37:41.87	117.09	29.37	-31.3	-33.1	12.1	2.29e-04	0	44	0	379584512	23	4436
2026-01-20 09:37:42.88	116.91	29.53	-31.4	-33.4	11.9	3.68e-04	0	44	0	380633088	23	4562
2026-01-20 09:37:43.87	116.72	29.69	-31.3	-33.0	12.2	3.49e-04	0	44	0	382730240	23	4425
2026-01-20 09:37:44.87	116.54	29.85	-31.3	-33.1	12.1	2.08e-04	0	44	0	384827392	23	4460
2026-01-20 09:37:45.88	116.35	30.01	-31.4	-33.5	11.8	3.76e-04	0	44	0	386924544	23	4611
2026-01-20 09:37:46.88	116.16	30.17	-31.3	-33.4	11.9	3.33e-04	0	44	0	389021696	23	4557
2026-01-20 09:37:47.88	115.97	30.33	-31.4	-33.6	11.8	3.90e-04	0	44	0	390070272	23	4633
2026-01-20 09:37:48.88	115.78	30.50	-31.4	-33.5	11.9	3.94e-04	0	44	0	392167424	23	4615
2026-01-20 09:37:49.88	115.58	30.66	-31.5	-34.0	11.4	7.87e-04	0	44	0	394264576	23	4765
2026-01-20 09:37:50.88	115.39	30.82	-31.5	-33.7	11.7	1.07e-03	0	44	0	396361728	23	4660
2026-01-20 09:37:51.89	115.19	30.99	-31.4	-33.6	11.8	4.91e-04	0	44	0	397410304	23	4620
2026-01-20 09:37:52.89	114.98	31.15	-31.5	-33.9	11.5	6.60e-04	0	44	0	399507456	23	4742
2026-01-20 09:37:53.89	114.78	31.32	-31.7	-34.3	11.2	8.31e-04	0	44	0	401604608	23	4893
2026-01-20 09:37:54.90	114.57	31.48	-31.7	-34.3	11.3	1.17e-03	0	44	0	403701760	23	4903
2026-01-20 09:37:55.91	114.37	31.65	-31.7	-34.4	11.2	1.06e-03	0	44	0	405798912	23	4915
2026-01-20 09:37:56.91	114.16	31.82	-31.6	-34.1	11.6	9.94e-04	0	44	0	406847488	23	4809
2026-01-20 09:37:57.92	113.94	31.99	-31.5	-33.8	11.7	5.46e-04	0	44	0	408944640	23	4679
2026-01-20 09:37:58.92	113.73	32.15	-31.4	-33.6	11.9	3.83e-04	0	44	0	411041792	23	4600
2026-01-20 09:37:59.93	113.51	32.32	-31.5	-33.8	11.7	7.86e-04	0	44	0	413138944	23	4689
2026-01-20 09:38:00.93	113.29	32.49	-31.6	-33.9	11.6	6.13e-04	0	44	0	415236096	23	4735
2026-01-20 09:38:01.93	113.07	32.66	-31.6	-34.2	11.5	7.64e-04	0	44	0	416284672	23	4816
2026-01-20 09:38:02.94	112.85	32.83	-31.4	-33.5	11.9	4.46e-04	0	44	0	418381824	23	4575
2026-01-20 09:38:03.94	112.62	33.00	-31.5	-33.8	11.7	4.97e-04	0	44	0	420478976	23	4688
2026-01-20 09:38:04.94	112.39	33.17	-31.5	-33.7	11.7	4.32e-04	0	44	0	422576128	23	4618
2026-01-20 09:38:05.95	112.16	33.34	-31.6	-34.0	11.6	3.46e-04	0	44	0	424673280	23	4742
2026-01-20 09:38:06.95	111.93	33.51	-31.8	-34.4	11.4	7.98e-04	0	44	0	425721856	23	4885
2026-01-20 09:38:07.96	111.69	33.69	-31.7	-34.3	11.5	1.46e-03	0	44	0	427819008	23	4848
2026-01-20 09:38:08.96	111.45	33.86	-31.7	-33.9	11.4	1.99e-03	0	44	0	429916160	24	4609
2026-01-20 09:38:09.96	111.21	34.03	-31.6	-33.6	11.6	1.08e-03	0	44	0	432013312	24	4499
2026-01-20 09:38:10.97	110.97	34.20	-31.6	-33.6	11.6	5.07e-04	0	44	0	434110464	24	4502
2026-01-20 09:38:11.98	110.72	34.38	-31.7	-33.9	11.4	8.80e-04	0	44	0	435159040	24	4599
2026-01-20 09:38:12.98	110.47	34.55	-31.3	-32.7	12.1	4.91e-04	0	44	0	437256192	24	4218
2026-01-20 09:38:13.98	110.22	34.73	-31.4	-33.1	11.9	5.82e-04	0	44	0	439353344	24	4330
2026-01-20 09:38:14.98	109.97	34.90	-31.5	-33.3	11.8	3.72e-04	0	44	0	441450496	24	4409
2026-01-20 09:38:15.98	109.71	35.07	-31.6	-33.7	11.5	4.85e-04	0	44	0	443547648	24	4570
2026-01-20 09:38:16.99	109.45	35.25	-31.8	-34.1	11.2	1.46e-03	0	44	0	444596224	24	4711
2026-01-20 09:38:18.00	109.19	35.43	-32.0	-35.1	10.4	2.51e-03	0	44	0	446693376	24	5110
2026-01-20 09:38:18.99	108.92	35.60	-32.4	-36.3	9.6	1.17e-02	0	44	0	448790528	24	5626
2026-01-20 09:38:20.00	108.65	35.78	-32.4	-35.8	9.5	1.47e-02	0	44	0	450887680	25	5325
2026-01-20 09:38:21.00	108.38	35.95	-32.4	-35.7	9.7	1.42e-02	0	44	0	452984832	25	5299
2026-01-20 09:38:21.99	108.11	36.13	-32.5	-36.0	9.4	1.50e-02	0	44	0	454033408	25	5399
2026-01-20 09:38:23.00	107.83	36.30	-32.3	-35.6	9.7	9.99e-03	0	44	0	456130560	25	5211
2026-01-20 09:38:24.00	107.55	36.48	-32.3	-35.3	9.8	1.18e-02	0	44	0	458227712	25	5111
2026-01-20 09:38:25.00	107.27	36.66	-32.1	-34.8	10.3	7.70e-03	0	44	0	460324864	25	4873
2026-01-20 09:38:26.00	106.99	36.83	-31.8	-34.1	11.2	2.10e-03	0	44	0	461373440	24	4716
2026-01-20 09:38:27.01	106.70	37.01	-31.5	-33.1	11.8	8.16e-04	0	44	0	463470592	24	4364
2026-01-20 09:38:28.01	106.40	37.19	-31.6	-33.5	11.7	8.41e-04	0	44	0	465567744	24	4470
2026-01-20 09:38:29.01	106.11	37.36	-31.5	-33.2	11.9	3.51e-04	0	44	0	467664896	24	4392
2026-01-20 09:38:30.02	105.81	37.54	-31.2	-32.7	12.5	8.69e-05	0	44	0	469762048	23	4318
2026-01-20 09:38:31.03	105.50	37.72	-31.1	-32.5	12.8	7.32e-05	0	44	0	470810624	23	4247
2026-01-20 09:38:32.04	105.19	37.90	-31.5	-33.8	11.8	1.96e-04	0	44	0	472907776	23	4677
2026-01-20 09:38:33.04	104.89	38.08	-31.8	-34.6	11.2	8.69e-04	0	44	0	475004928	23	5002
2026-01-20 09:38:34.04	104.57	38.25	-31.8	-34.7	11.1	2.01e-03	0	44	0	477102080	23	5048
2026-01-20 09:38:35.04	104.26	38.43	-31.5	-33.7	11.9	1.44e-03	0	44	0	479199232	23	4640
2026-01-20 09:38:36.05	103.94	38.61	-31.4	-33.4	12.1	2.78e-04	0	44	0	480247808	23	4551
2026-01-20 09:38:37.05	103.62	38.78	-31.6	-34.0	11.6	4.14e-04	0	44	0	482344960	23	4759
2026-01-20 09:38:38.05	103.29	38.96	-31.6	-34.2	11.5	1.33e-03	0	44	0	484442112	23	4844
2026-01-20 09:38:39.05	102.96	39.14	-32.0	-35.3	10.7	1.74e-03	0	44	0	486539264	23	5265
2026-01-20 09:38:40.05	102.63	39.31	-31.8	-34.8	11.0	1.40e-03	0	44	0	488636416	23	5093
2026-01-20 09:38:41.05	102.29	39.49	-31.8	-34.8	11.0	1.50e-03	0	44	0	489684992	23	5087
2026-01-20 09:38:42.05	101.95	39.66	-31.9	-34.6	10.9	2.69e-03	0	44	0	491782144	24	4924
2026-01-20 09:38:43.05	101.61	39.84	-32.0	-35.1	10.6	3.58e-03	0	44	0	493879296	24	5090
2026-01-20 09:38:44.05	101.26	40.01	-31.8	-34.3	11.0	3.27e-03	0	44	0	495976448	24	4777
2026-01-20 09:38:45.05	100.91	40.19	-31.8	-34.3	11.1	3.24e-03	0	44	0	498073600	24	4792
2026-01-20 09:38:46.05	100.55	40.36	-31.3	-32.9	12.1	2.69e-04	0	44	0	499122176	24	4282
2026-01-20 09:38:47.06	100.19	40.54	-31.2	-33.0	12.3	1.72e-04	0	45	0	501219328	23	4410
2026-01-20 09:38:48.06	99.83	40.71	-31.2	-33.1	12.1	1.44e-04	0	44	0	503316480	23	4459
2026-01-20 09:38:49.07	99.46	40.89	-31.7	-34.5	11.2	9.10e-04	0	44	0	505413632	23	4991
2026-01-20 09:38:50.07	99.09	41.06	-31.9	-35.2	10.7	2.90e-03	0	44	0	507510784	23	5282
2026-01-20 09:38:51.07	98.71	41.23	-31.7	-34.5	11.2	3.12e-03	0	44	0	508559360	23	4972
2026-01-20 09:38:52.07	98.33	41.40	-31.4	-33.6	11.9	7.48e-04	0	44	0	510656512	23	4638
2026-01-20 09:38:53.07	97.95	41.57	-31.6	-34.1	11.6	4.20e-04	0	44	0	512753664	23	4796
2026-01-20 09:38:54.07	97.56	41.74	-31.6	-34.1	11.6	5.61e-04	0	44	0	514850816	23	4794
2026-01-20 09:38:55.07	97.17	41.91	-31.3	-33.2	12.3	3.61e-04	0	44	0	515899392	23	4464
2026-01-20 09:38:56.06	96.78	42.08	-31.4	-33.5	12.1	2.62e-04	0	44	0	517996544	23	4558
2026-01-20 09:38:57.06	96.38	42.25	-31.5	-33.9	11.8	4.84e-04	0	44	0	520093696	23	4701
2026-01-20 09:38:58.07	95.98	42.41	-31.8	-34.8	11.1	1.21e-03	0	44	0	522190848	23	5073
2026-01-20 09:38:59.07	95.57	42.58	-31.6	-34.1	11.5	1.33e-03	0	44	0	524288000	23	4812
2026-01-20 09:39:00.06	95.16	42.74	-31.8	-34.8	11.1	1.16e-03	0	44	0	525336576	23	5072
2026-01-20 09:39:01.06	94.74	42.91	-31.9	-34.8	10.7	1.77e-03	0	44	0	527433728	24	4982
2026-01-20 09:39:02.06	94.32	43.07	-32.1	-35.4	10.3	4.27e-03	0	44	0	529530880	24	5237
2026-01-20 09:39:03.07	93.89	43.23	-31.7	-34.1	11.2	3.17e-03	0	44	0	531628032	24	4725
2026-01-20 09:39:04.07	93.47	43.40	-30.9	-32.0	13.1	1.70e-04	0	44	0	533725184	23	4078
2026-01-20 09:39:05.07	93.03	43.55	-30.6	-31.6	13.7	7.60e-06	0	44	0	534773760	22	4039
2026-01-20 09:39:06.08	92.59	43.71	-30.4	-31.0	14.0	7.60e-06	0	44	0	536870912	22	3883
2026-01-20 09:39:07.08	92.15	43.87	-30.3	-30.9	14.2	0.00e+00	0	44	0	538968064	22	3829
2026-01-20 09:39:08.09	91.70	44.03	-30.6	-32.0	13.8	1.50e-06	0	44	0	541065216	21	4228
2026-01-20 09:39:09.08	91.25	44.18	-31.0	-32.6	13.1	7.60e-06	0	44	0	543162368	22	4346
2026-01-20 09:39:10.08	90.80	44.34	-31.9	-34.8	11.2	6.06e-04	0	44	0	544210944	23	5057
2026-01-20 09:39:11.08	90.34	44.49	-31.8	-34.7	11.1	1.61e-03	0	44	0	546308096	23	5040
2026-01-20 09:39:12.08	89.87	44.64	-31.8	-34.7	11.3	1.08e-03	0	44	0	548405248	23	5026
2026-01-20 09:39:13.08	89.40	44.79	-31.9	-34.6	10.9	1.65e-03	0	44	0	550502400	24	4885
2026-01-20 09:39:14.08	88.93	44.93	-31.7	-33.9	11.4	1.36e-03	0	44	0	551550976	24	4646
2026-01-20 09:39:15.08	88.45	45.08	-31.3	-32.7	12.2	5.26e-04	0	44	0	553648128	24	4238
2026-01-20 09:39:16.08	87.97	45.22	-31.0	-32.4	12.8	1.36e-04	0	44	0	555745280	23	4205
2026-01-20 09:39:17.08	87.49	45.36	-31.2	-32.7	12.7	5.41e-05	0	44	0	557842432	23	4324
2026-01-20 09:39:18.08	87.00	45.50	-31.0	-32.3	12.9	5.18e-05	0	44	0	559939584	23	4171
2026-01-20 09:39:19.08	86.50	45.64	-30.8	-32.2	13.4	1.83e-05	0	44	0	560988160	22	4247
2026-01-20 09:39:20.09	86.00	45.78	-31.0	-32.7	12.9	3.35e-05	0	44	0	563085312	22	4408
2026-01-20 09:39:21.10	85.49	45.91	-30.8	-32.2	13.3	1.44e-05	0	44	0	565182464	22	4233
2026-01-20 09:39:22.10	84.98	46.05	-30.5	-31.5	13.8	6.80e-06	0	44	0	567279616	22	4007
2026-01-20 09:39:23.11	84.46	46.18	-30.4	-31.5	14.1	1.50e-06	0	44	0	569376768	21	4115
2026-01-20 09:39:24.11	83.95	46.31	-30.3	-31.4	14.2	2.20e-06	0	44	0	570425344	21	4077
2026-01-20 09:39:25.12	83.42	46.43	-30.6	-32.1	13.6	4.50e-06	0	44	0	572522496	21	4282
2026-01-20 09:39:26.11	82.90	46.56	-31.5	-34.2	11.9	4.27e-05	0	44	0	574619648	22	4932
2026-01-20 09:39:27.11	82.37	46.68	-31.8	-34.9	11.0	2.99e-04	0	44	0	576716800	23	5130
2026-01-20 09:39:28.12	81.84	46.80	-31.7	-34.2	11.1	2.08e-03	0	44	0	578813952	24	4761
2026-01-20 09:39:29.12	81.30	46.91	-32.0	-35.0	10.6	2.12e-03	0	44	0	579862528	24	5102
2026-01-20 09:39:30.13	80.75	47.03	-32.2	-35.7	10.2	2.02e-03	0	44	0	581959680	24	5428
2026-01-20 09:39:31.12	80.22	47.14	-32.6	-36.8	8.8	1.87e-02	0	44	0	584056832	25	5884
2026-01-20 09:39:32.13	79.66	47.25	-32.7	-37.4	8.2	4.66e-02	0	44	0	586153984	25	6183
2026-01-20 09:39:33.13	79.11	47.35	-32.5	-36.6	9.0	3.95e-02	0	44	0	588251136	25	5769
2026-01-20 09:39:34.13	78.55	47.46	-32.2	-35.5	9.7	1.62e-02	0	44	0	589299712	25	5244
2026-01-20 09:39:35.13	77.99	47.56	-31.8	-34.2	10.7	5.89e-03	0	44	0	591396864	25	4710
2026-01-20 09:39:36.14	77.42	47.66	-32.0	-35.3	10.2	2.67e-03	0	44	0	593494016	24	5297
2026-01-20 09:39:37.14	76.86	47.75	-32.0	-35.1	10.5	5.93e-03	0	44	0	595591168	24	5185
2026-01-20 09:39:38.15	76.28	47.85	-32.0	-35.2	10.5	4.91e-03	0	44	0	596639744	24	5209
2026-01-20 09:39:39.15	75.71	47.94	-31.7	-33.9	11.3	2.37e-03	0	44	0	598736896	24	4654
2026-01-20 09:39:40.15	75.13	48.02	-31.8	-34.3	11.1	1.46e-03	0	44	0	600834048	24	4817
2026-01-20 09:39:41.15	74.55	48.11	-32.0	-35.1	10.8	2.24e-03	0	44	0	602931200	24	5097
2026-01-20 09:39:42.15	73.97	48.19	-31.7	-34.0	11.3	1.18e-03	0	44	0	605028352	24	4696
2026-01-20 09:39:43.16	73.38	48.26	-31.5	-33.4	11.8	7.89e-04	0	44	0	606076928	24	4468
2026-01-20 09:39:44.16	72.79	48.34	-31.8	-34.2	11.3	8.93e-04	0	44	0	608174080	24	4741
2026-01-20 09:39:45.16	72.20	48.41	-32.0	-34.9	10.7	2.05e-03	0	44	0	610271232	24	5027
2026-01-20 09:39:46.16	71.60	48.48	-31.6	-33.6	11.7	1.41e-03	0	44	0	612368384	24	4541
2026-01-20 09:39:47.17	71.00	48.54	-30.8	-32.3	13.3	1.80e-04	0	44	0	614465536	22	4258
2026-01-20 09:39:48.17	70.40	48.60	-30.8	-32.3	13.2	1.60e-05	0	44	0	615514112	22	4290
2026-01-20 09:39:49.17	69.80	48.66	-31.2	-33.5	12.4	4.11e-05	0	44	0	617611264	22	4681
2026-01-20 09:39:50.18	69.19	48.72	-31.4	-34.3	12.0	1.50e-04	0	44	0	619708416	22	4987
2026-01-20 09:39:51.18	68.58	48.77	-31.4	-33.6	11.9	6.77e-04	0	44	0	621805568	23	4630
2026-01-20 09:39:52.18	67.97	48.81	-30.8	-31.8	13.2	6.86e-05	0	44	0	623902720	23	4055
2026-01-20 09:39:53.18	67.36	48.86	-30.3	-31.5	13.9	5.30e-06	0	44	0	624951296	21	4153
2026-01-20 09:39:54.19	66.75	48.90	-29.8	-30.8	14.8	7.00e-07	0	44	0	627048448	20	4036
2026-01-20 09:39:55.19	66.13	48.94	-29.4	-30.2	15.5	0.00e+00	0	44	0	629145600	19	3953
2026-01-20 09:39:56.19	65.52	48.97	-29.3	-30.0	15.6	0.00e+00	0	44	0	631242752	19	3883
2026-01-20 09:39:57.20	64.90	49.00	-29.8	-31.1	14.9	0.00e+00	0	44	0	633339904	19	4206
2026-01-20 09:39:58.21	64.28	49.03	-30.3	-32.2	13.8	7.00e-07	0	44	0	634388480	20	4479
2026-01-20 09:39:59.20	63.66	49.05	-30.8	-32.9	13.1	1.67e-05	0	44	0	636485632	21	4605
2026-01-20 09:40:00.20	63.05	49.07	-30.8	-33.0	13.0	1.98e-05	0	44	0	638582784	21	4626
2026-01-20 09:40:01.20	62.43	49.09	-31.1	-33.6	12.2	1.47e-04	0	44	0	640679936	22	4764
2026-01-20 09:40:02.20	61.81	49.10	-31.5	-34.9	11.3	8.25e-04	0	44	0	641728512	22	5311
2026-01-20 09:40:03.20	61.19	49.11	-30.9	-32.5	12.6	4.36e-04	0	44	0	643825664	23	4319
2026-01-20 09:40:04.20	60.57	49.11	-30.6	-32.0	13.3	4.65e-05	0	44	0	645922816	22	4229
2026-01-20 09:40:05.21	59.94	49.11	-31.0	-33.1	12.6	1.14e-04	0	44	0	648019968	22	4596
2026-01-20 09:40:06.21	59.32	49.11	-31.5	-34.6	11.5	3.11e-04	0	44	0	650117120	22	5152
2026-01-20 09:40:07.22	58.69	49.10	-31.2	-33.2	12.1	1.16e-03	0	44	0	652214272	23	4531
2026-01-20 09:40:08.22	58.07	49.09	-30.7	-32.1	13.3	6.33e-05	0	44	0	653262848	22	4251
2026-01-20 09:40:09.22	57.45	49.08	-30.2	-31.3	14.1	3.00e-06	0	44	0	655360000	21	4090
2026-01-20 09:40:10.22	56.83	49.06	-30.1	-31.0	14.4	0.00e+00	0	44	0	657457152	21	3981
2026-01-20 09:40:11.23	56.21	49.04	-29.9	-30.5	14.6	0.00e+00	0	44	0	659554304	21	3858
2026-01-20 09:40:12.23	55.59	49.02	-29.9	-30.6	14.5	7.00e-07	0	44	0	660602880	21	3876
2026-01-20 09:40:13.24	54.97	48.99	-29.6	-30.3	14.9	0.00e+00	0	44	0	662700032	20	3902
2026-01-20 09:40:14.24	54.36	48.96	-29.5	-30.1	15.3	0.00e+00	0	44	0	664797184	20	3844
2026-01-20 09:40:15.24	53.74	48.93	-29.7	-30.4	15.0	7.00e-07	0	44	0	666894336	20	3901
2026-01-20 09:40:16.25	53.12	48.89	-30.2	-31.8	14.2	7.00e-07	0	44	0	668991488	20	4337
2026-01-20 09:40:17.25	52.51	48.85	-30.5	-32.3	13.4	9.10e-06	0	44	0	670040064	21	4402
2026-01-20 09:40:18.25	51.90	48.80	-30.6	-32.4	13.3	1.52e-05	0	44	0	672137216	21	4436
2026-01-20 09:40:19.26	51.29	48.75	-31.0	-33.5	12.6	2.82e-05	0	44	0	674234368	21	4849
2026-01-20 09:40:20.25	50.69	48.70	-31.1	-33.4	12.4	2.33e-04	0	44	0	676331520	22	4700
2026-01-20 09:40:21.26	50.08	48.65	-30.8	-32.7	12.9	4.61e-04	0	44	0	678428672	22	4440
2026-01-20 09:40:22.26	49.48	48.59	-30.6	-31.9	13.3	2.51e-05	0	44	0	679477248	22	4182
2026-01-20 09:40:23.27	48.88	48.52	-30.7	-32.2	13.1	1.52e-05	0	44	0	681574400	22	4301
2026-01-20 09:40:24.26	48.29	48.46	-31.1	-33.4	12.3	5.03e-05	0	44	0	683671552	22	4699
2026-01-20 09:40:25.26	47.70	48.39	-31.0	-33.1	12.6	8.92e-05	0	44	0	685768704	22	4592
2026-01-20 09:40:26.26	47.11	48.32	-31.1	-33.4	12.4	1.43e-04	0	44	0	686817280	22	4688
2026-01-20 09:40:27.27	46.51	48.24	-31.0	-33.0	12.7	7.93e-05	0	44	0	688914432	22	4537
2026-01-20 09:40:28.27	45.93	48.17	-31.2	-33.6	12.2	2.26e-04	0	44	0	691011584	22	4750
2026-01-20 09:40:29.27	45.35	48.09	-30.9	-32.6	13.0	5.64e-05	0	44	0	693108736	22	4387
2026-01-20 09:40:30.27	44.77	48.00	-30.8	-32.3	13.1	3.43e-05	0	44	0	695205888	22	4280
2026-01-20 09:40:31.27	44.19	47.91	-31.1	-33.1	12.7	1.75e-05	0	44	0	697303040	22	4541
2026-01-20 09:40:32.28	43.61	47.82	-31.6	-34.3	11.6	6.03e-04	0	44	0	698351616	23	4879
2026-01-20 09:40:33.29	43.04	47.73	-32.0	-35.5	10.6	8.12e-04	0	44	0	700448768	23	5385
2026-01-20 09:40:34.29	42.48	47.63	-31.6	-33.6	11.6	1.77e-03	0	44	0	702545920	24	4539
2026-01-20 09:40:35.30	41.91	47.53	-31.6	-33.7	11.6	5.87e-04	0	44	0	704643072	24	4581
2026-01-20 09:40:36.30	41.35	47.43	-31.4	-33.1	12.1	4.32e-04	0	44	0	705691648	24	4355
2026-01-20 09:40:37.30	40.80	47.33	-31.4	-33.7	11.9	1.97e-04	0	44	0	707788800	23	4679
2026-01-20 09:40:38.30	40.25	47.22	-31.3	-33.2	12.3	2.97e-04	0	44	0	709885952	23	4486
2026-01-20 09:40:39.30	39.70	47.11	-31.4	-33.7	12.0	2.07e-04	0	44	0	711983104	23	4646
2026-01-20 09:40:40.30	39.16	47.00	-31.5	-33.9	11.7	4.27e-04	0	44	0	714080256	23	4748
2026-01-20 09:40:41.31	38.61	46.89	-31.6	-34.3	11.5	8.48e-04	0	44	0	715128832	23	4904
2026-01-20 09:40:42.31	38.08	46.77	-31.8	-34.8	11.1	1.33e-03	0	44	0	717225984	23	5107
2026-01-20 09:40:43.32	37.54	46.65	-32.1	-35.2	10.5	2.46e-03	0	44	0	719323136	24	5142
2026-01-20 09:40:44.32	37.02	46.53	-32.2	-35.5	10.2	5.71e-03	0	44	0	721420288	24	5296
2026-01-20 09:40:45.32	36.49	46.40	-32.3	-36.2	9.7	8.66e-03	0	44	0	723517440	24	5621
2026-01-20 09:40:46.32	35.98	46.28	-32.2	-35.1	10.1	1.50e-02	0	44	0	724566016	25	5054
2026-01-20 09:40:47.32	35.46	46.15	-31.9	-34.2	10.8	3.82e-03	0	44	0	726663168	25	4673
2026-01-20 09:40:48.32	34.95	46.02	-32.0	-34.5	10.6	3.54e-03	0	44	0	728760320	25	4794
2026-01-20 09:40:49.32	34.45	45.89	-31.9	-34.4	10.7	4.50e-03	0	44	0	730857472	25	4758
2026-01-20 09:40:50.32	33.95	45.75	-31.8	-34.4	10.9	2.55e-03	0	44	0	732954624	24	4867
2026-01-20 09:40:51.32	33.45	45.62	-31.4	-33.1	11.9	6.54e-04	0	44	0	734003200	24	4360
2026-01-20 09:40:52.32	32.96	45.48	-31.6	-33.6	11.7	3.20e-04	0	44	0	736100352	24	4529
2026-01-20 09:40:53.32	32.47	45.34	-31.7	-34.0	11.4	5.63e-04	0	44	0	738197504	24	4673
2026-01-20 09:40:54.32	31.98	45.20	-31.7	-34.0	11.3	7.44e-04	0	44	0	740294656	24	4689
2026-01-20 09:40:55.33	31.50	45.05	-31.9	-34.4	11.0	1.97e-03	0	44	0	742391808	24	4833
2026-01-20 09:40:56.33	31.03	44.91	-31.8	-34.0	11.4	1.33e-03	0	44	0	743440384	24	4663
2026-01-20 09:40:57.33	30.55	44.76	-31.6	-33.6	11.7	5.34e-04	0	44	0	745537536	24	4520
2026-01-20 09:40:58.33	30.09	44.61	-31.8	-34.3	11.1	1.11e-03	0	44	0	747634688	24	4778
2026-01-20 09:40:59.34	29.62	44.46	-31.9	-34.4	11.0	1.54e-03	0	44	0	749731840	24	4807
2026-01-20 09:41:00.34	29.16	44.31	-31.1	-32.5	12.6	3.70e-04	0	44	0	750780416	23	4239
2026-01-20 09:41:01.34	28.71	44.15	-31.0	-32.2	12.8	4.04e-05	0	44	0	752877568	23	4148
2026-01-20 09:41:02.34	28.26	44.00	-31.2	-33.0	12.4	5.56e-05	0	44	0	754974720	23	4395
2026-01-20 09:41:03.35	27.81	43.84	-31.8	-34.8	11.1	9.66e-04	0	44	0	757071872	23	5090
2026-01-20 09:41:04.35	27.37	43.69	-31.6	-34.2	11.6	1.52e-03	0	44	0	759169024	23	4804
2026-01-20 09:41:05.36	26.93	43.53	-31.3	-33.1	12.3	5.16e-04	0	44	0	760217600	23	4426
2026-01-20 09:41:06.37	26.50	43.36	-30.8	-32.1	13.3	3.05e-05	0	44	0	762314752	22	4191
2026-01-20 09:41:07.37	26.07	43.20	-31.0	-32.7	13.0	1.52e-05	0	44	0	764411904	22	4370
2026-01-20 09:41:08.38	25.65	43.04	-31.3	-33.5	12.5	9.07e-05	0	44	0	766509056	22	4625
2026-01-20 09:41:09.37	25.23	42.88	-31.4	-33.4	12.1	2.43e-04	0	44	0	768606208	23	4507
2026-01-20 09:41:10.37	24.82	42.72	-30.8	-31.6	13.3	4.80e-05	0	44	0	769654784	23	3951
2026-01-20 09:41:11.38	24.40	42.55	-30.6	-31.7	13.6	1.22e-05	0	44	0	771751936	22	4059
2026-01-20 09:41:12.38	24.00	42.38	-30.5	-31.4	13.8	3.80e-06	0	44	0	773849088	22	3984
2026-01-20 09:41:13.38	23.60	42.22	-30.9	-32.4	13.1	3.12e-05	0	44	0	775946240	22	4291
2026-01-20 09:41:14.38	23.20	42.05	-30.9	-32.4	13.1	4.73e-05	0	44	0	778043392	22	4287
2026-01-20 09:41:15.39	22.80	41.88	-30.9	-32.5	13.0	5.18e-05	0	44	0	779091968	22	4311
2026-01-20 09:41:16.40	22.41	41.71	-31.3	-33.7	12.3	1.07e-04	0	44	0	781189120	22	4706
2026-01-20 09:41:17.40	22.03	41.54	-31.7	-34.3	11.4	7.93e-04	0	44	0	783286272	23	4866
2026-01-20 09:41:18.40	21.65	41.37	-31.8	-34.7	11.1	5.52e-04	0	44	0	785383424	23	5009
2026-01-20 09:41:19.40	21.27	41.20	-32.3	-35.6	10.1	7.51e-03	0	44	0	787480576	24	5315
2026-01-20 09:41:20.40	20.90	41.03	-32.3	-35.9	9.9	5.08e-03	0	44	0	788529152	24	5448
2026-01-20 09:41:21.40	20.53	40.86	-32.8	-37.2	8.6	3.46e-02	0	44	0	790626304	25	5963
2026-01-20 09:41:22.41	20.16	40.68	-32.9	-37.4	7.9	4.75e-02	0	44	0	792723456	26	5988
2026-01-20 09:41:23.41	19.80	40.51	-32.7	-36.4	8.8	4.51e-02	0	44	0	794820608	26	5478
2026-01-20 09:41:24.41	19.44	40.34	-32.5	-35.5	9.5	1.88e-02	0	44	0	795869184	26	5053
2026-01-20 09:41:25.42	19.09	40.16	-32.6	-35.7	9.4	1.46e-02	0	44	0	797966336	26	5130
2026-01-20 09:41:26.41	18.74	39.99	-32.6	-35.7	9.4	1.64e-02	0	44	0	800063488	26	5136
2026-01-20 09:41:27.42	18.39	39.81	-32.3	-34.6	10.1	9.12e-03	0	44	0	802160640	26	4689
2026-01-20 09:41:28.42	18.05	39.64	-32.1	-34.5	10.6	5.01e-03	0	44	0	804257792	25	4745
2026-01-20 09:41:29.41	17.71	39.47	-32.1	-34.5	10.6	2.42e-03	0	44	0	805306368	25	4737
2026-01-20 09:41:30.41	17.38	39.29	-32.3	-35.0	10.3	3.98e-03	0	44	0	807403520	25	4963
2026-01-20 09:41:31.42	17.05	39.11	-32.4	-35.7	9.7	9.42e-03	0	44	0	809500672	25	5238
2026-01-20 09:41:32.43	16.72	38.94	-32.4	-35.7	9.7	8.16e-03	0	44	0	811597824	25	5249
2026-01-20 09:41:33.44	16.39	38.76	-32.4	-35.5	9.9	6.71e-03	0	44	0	813694976	25	5166
2026-01-20 09:41:34.44	16.07	38.58	-32.2	-34.9	10.3	8.32e-03	0	44	0	814743552	25	4923
2026-01-20 09:41:35.44	15.75	38.41	-32.1	-34.7	10.5	3.54e-03	0	44	0	816840704	25	4824
2026-01-20 09:41:36.45	15.44	38.23	-32.0	-34.3	10.6	2.13e-03	0	44	0	818937856	25	4702
2026-01-20 09:41:37.45	15.13	38.05	-32.4	-35.9	9.5	8.99e-03	0	44	0	821035008	25	5328
2026-01-20 09:41:38.46	14.82	37.88	-32.7	-37.1	8.5	1.62e-02	0	44	0	823132160	25	5913
2026-01-20 09:41:39.46	14.52	37.70	-33.1	-38.0	7.5	4.84e-02	0	44	0	824180736	26	6316
2026-01-20 09:41:40.46	14.22	37.52	-33.0	-37.8	7.6	9.90e-02	0	44	0	826277888	26	6213
2026-01-20 09:41:41.47	13.92	37.35	-33.1	-37.9	7.4	8.59e-02	0	44	0	828375040	26	6281
2026-01-20 09:41:42.47	13.62	37.17	-33.0	-37.8	7.6	9.27e-02	0	44	0	830472192	26	6219
2026-01-20 09:41:43.47	13.33	36.99	-33.2	-38.8	7.0	1.46e-01	0	44	0	832569344	26	6864
2026-01-20 09:41:44.47	13.05	36.82	-33.4	-39.4	6.4	1.99e-01	0	44	0	833617920	26	7214
2026-01-20 09:41:45.47	12.76	36.64	-33.4	-39.7	6.2	2.30e-01	0	44	0	835715072	26	7428
2026-01-20 09:41:46.48	12.48	36.46	-33.1	-37.8	7.6	1.49e-01	0	44	0	837812224	26	6225
2026-01-20 09:41:47.48	12.20	36.29	-32.9	-37.2	8.2	5.29e-02	0	44	0	839909376	26	5863
2026-01-20 09:41:48.49	11.92	36.11	-32.7	-36.1	9.0	2.94e-02	0	44	0	842006528	26	5324
2026-01-20 09:41:49.48	11.66	35.94	-32.7	-36.2	9.0	2.19e-02	0	44	0	843055104	26	5380
2026-01-20 09:41:50.48	11.39	35.76	-32.8	-36.4	8.8	3.30e-02	0	44	0	845152256	26	5467
2026-01-20 09:41:51.48	11.12	35.59	-32.3	-34.7	10.0	1.18e-02	0	44	0	847249408	26	4739
2026-01-20 09:41:52.49	10.86	35.41	-32.0	-34.0	10.9	3.95e-03	0	44	0	849346560	25	4573
2026-01-20 09:41:53.49	10.60	35.24	-31.7	-33.8	11.4	1.25e-03	0	44	0	850395136	24	4582
2026-01-20 09:41:54.49	10.34	35.07	-31.7	-33.7	11.5	8.37e-04	0	44	0	852492288	24	4536
2026-01-20 09:41:55.48	10.09	34.90	-31.7	-33.8	11.4	5.71e-04	0	44	0	854589440	24	4572
2026-01-20 09:41:56.49	9.83	34.72	-32.1	-34.9	10.6	1.58e-03	0	44	0	856686592	24	5008
2026-01-20 09:41:57.49	9.58	34.55	-32.2	-35.3	10.3	4.21e-03	0	44	0	858783744	24	5166
2026-01-20 09:41:58.50	9.34	34.37	-32.4	-36.3	9.5	7.85e-03	0	45	0	859832320	24	5634
2026-01-20 09:41:59.51	9.09	34.20	-32.5	-36.1	9.2	2.26e-02	0	44	0	861929472	25	5430
2026-01-20 09:42:00.51	8.85	34.03	-32.6	-36.3	9.0	2.87e-02	0	44	0	864026624	25	5552
2026-01-20 09:42:01.51	8.61	33.86	-32.3	-35.3	9.8	1.15e-02	0	44	0	866123776	25	5102
2026-01-20 09:42:02.50	8.38	33.69	-32.3	-35.4	9.8	1.12e-02	0	44	0	868220928	25	5115
2026-01-20 09:42:03.51	8.14	33.52	-32.3	-35.2	9.9	7.29e-03	0	44	0	869269504	25	5062
2026-01-20 09:42:04.51	7.91	33.35	-32.1	-34.6	10.4	6.13e-03	0	44	0	871366656	25	4790
2026-01-20 09:42:05.51	7.68	33.18	-31.9	-34.0	10.8	4.21e-03	0	44	0	873463808	25	4590
2026-01-20 09:42:06.52	7.45	33.01	-32.1	-34.5	10.4	5.02e-03	0	44	0	875560960	25	4771
2026-01-20 09:42:07.53	7.23	32.83	-31.9	-33.9	10.9	2.07e-03	0	44	0	877658112	25	4537
2026-01-20 09:42:08.53	7.00	32.67	-31.8	-34.1	11.1	1.74e-03	0	44	0	878706688	24	4689
2026-01-20 09:42:09.54	6.78	32.50	-31.9	-34.5	10.8	1.86e-03	0	44	0	880803840	24	4850
2026-01-20 09:42:10.54	6.57	32.33	-31.9	-34.5	10.8	2.55e-03	0	44	0	882900992	24	4822
2026-01-20 09:42:11.54	6.35	32.16	-32.1	-35.1	10.4	2.65e-03	0	44	0	884998144	24	5089
2026-01-20 09:42:12.54	6.14	32.00	-32.4	-36.2	9.5	1.12e-02	0	44	0	887095296	24	5553
2026-01-20 09:42:13.55	5.93	31.83	-32.9	-37.6	8.0	2.68e-02	0	44	0	888143872	25	6224
2026-01-20 09:42:14.55	5.72	31.66	-33.1	-38.3	7.1	1.36e-01	0	44	0	890241024	26	6508
2026-01-20 09:42:15.54	5.52	31.50	-32.7	-36.6	8.0	1.21e-01	0	44	0	892338176	26	5592
2026-01-20 09:42:16.54	5.31	31.34	-32.2	-34.9	10.1	1.79e-02	0	44	0	894435328	25	4916
2026-01-20 09:42:17.55	5.11	31.17	-31.4	-32.9	11.8	9.15e-04	0	44	0	895483904	24	4296
2026-01-20 09:42:18.54	4.91	31.01	-30.8	-32.3	13.1	7.47e-05	0	44	0	897581056	22	4248
2026-01-20 09:42:19.55	4.71	30.84	-30.4	-31.1	13.8	2.44e-05	0	44	0	899678208	22	3913
2026-01-20 09:42:20.56	4.51	30.68	-30.6	-31.6	13.4	1.14e-05	0	44	0	901775360	22	4045
2026-01-20 09:42:21.56	4.32	30.52	-31.0	-32.7	12.7	5.18e-05	0	44	0	903872512	22	4374
2026-01-20 09:42:22.57	4.13	30.36	-31.2	-33.5	12.2	7.70e-05	0	44	0	904921088	22	4647
2026-01-20 09:42:23.57	3.94	30.19	-31.7	-34.3	11.2	7.97e-04	0	44	0	907018240	23	4855
2026-01-20 09:42:24.57	3.75	30.03	-32.1	-35.2	10.2	3.48e-03	0	44	0	909115392	24	5136
2026-01-20 09:42:25.57	3.56	29.88	-32.3	-36.1	9.5	1.32e-02	0	44	0	911212544	24	5547
2026-01-20 09:42:26.57	3.38	29.72	-32.1	-35.3	10.0	1.45e-02	0	44	0	913309696	24	5216
2026-01-20 09:42:27.57	3.20	29.56	-32.3	-35.9	9.7	1.29e-02	0	44	0	914358272	24	5439
2026-01-20 09:42:28.57	3.02	29.40	-32.2	-35.7	9.8	9.88e-03	0	44	0	916455424	24	5369
2026-01-20 09:42:29.58	2.84	29.24	-32.1	-35.4	9.9	1.31e-02	0	44	0	918552576	24	5230
2026-01-20 09:42:30.59	2.66	29.08	-31.7	-34.0	11.0	3.22e-03	0	44	0	920649728	24	4687
2026-01-20 09:42:31.59	2.48	28.93	-31.8	-34.3	10.7	1.47e-03	0	44	0	922746880	24	4802
2026-01-20 09:42:32.59	2.31	28.77	-31.7	-34.0	11.1	2.13e-03	0	44	0	923795456	24	4664
2026-01-20 09:42:33.59	2.14	28.62	-31.7	-33.7	11.2	1.42e-03	0	44	0	925892608	24	4579
2026-01-20 09:42:34.59	1.97	28.46	-31.5	-33.4	11.4	9.69e-04	0	44	0	927989760	24	4454
2026-01-20 09:42:35.60	1.80	28.31	-31.6	-33.6	11.3	9.83e-04	0	44	0	930086912	24	4514
2026-01-20 09:42:36.60	1.63	28.15	-31.7	-34.0	11.0	1.27e-03	0	44	0	932184064	24	4676
2026-01-20 09:42:37.61	1.47	28.00	-31.7	-34.0	11.1	1.09e-03	0	44	0	933232640	24	4669
2026-01-20 09:42:38.61	1.30	27.85	-31.8	-34.4	10.7	3.52e-03	0	44	0	935329792	24	4811
2026-01-20 09:42:39.61	1.14	27.69	-31.5	-33.4	11.4	1.47e-03	0	44	0	937426944	24	4468
2026-01-20 09:42:40.61	0.98	27.54	-31.2	-32.8	12.2	6.53e-04	0	44	0	939524096	23	4339
2026-01-20 09:42:41.62	0.82	27.39	-30.9	-32.1	12.7	1.20e-04	0	44	0	941621248	23	4117
2026-01-20 09:42:42.62	0.66	27.24	-31.0	-32.2	12.6	8.46e-05	0	44	0	942669824	23	4150
2026-01-20 09:42:43.62	0.51	27.09	-30.9	-32.1	12.7	7.70e-05	0	45	0	944766976	23	4116
2026-01-20 09:42:44.63	0.35	26.94	-31.2	-32.9	12.1	2.14e-04	0	44	0	946864128	23	4397
2026-01-20 09:42:45.63	0.20	26.79	-31.6	-34.1	11.3	7.78e-04	0	44	0	948961280	23	4800
2026-01-20 09:42:46.62	0.05	26.65	-32.0	-35.5	10.3	2.87e-03	0	44	0	951058432	23	5369
2026-01-20 09:42:47.62	359.90	26.50	-32.2	-35.8	9.6	1.26e-02	0	44	0	952107008	24	5419
2026-01-20 09:42:48.62	359.75	26.35	-32.5	-36.7	8.9	1.64e-02	0	44	0	954204160	24	5876
2026-01-20 09:42:49.62	359.61	26.21	-32.3	-36.3	9.2	2.28e-02	0	44	0	956301312	24	5661
2026-01-20 09:42:50.62	359.46	26.06	-32.2	-35.7	9.6	1.55e-02	0	44	0	958398464	24	5400
2026-01-20 09:42:51.62	359.32	25.92	-32.2	-35.6	9.8	1.14e-02	0	44	0	959447040	24	5323
2026-01-20 09:42:52.62	359.17	25.77	-32.0	-34.9	10.3	1.06e-02	0	45	0	961544192	24	5024
2026-01-20 09:42:53.63	359.03	25.63	-31.7	-34.1	10.9	3.93e-03	0	44	0	963641344	24	4723
2026-01-20 09:42:54.63	358.89	25.49	-31.6	-33.6	11.2	1.33e-03	0	44	0	965738496	24	4534
2026-01-20 09:42:55.63	358.75	25.34	-31.3	-32.8	11.8	6.61e-04	0	45	0	967835648	24	4280
2026-01-20 09:42:56.64	358.61	25.20	-31.1	-32.5	12.3	3.91e-04	0	44	0	968884224	23	4261
2026-01-20 09:42:57.64	358.48	25.06	-30.9	-32.0	12.6	1.41e-04	0	44	0	970981376	23	4109
2026-01-20 09:42:58.64	358.34	24.92	-30.9	-32.1	12.6	7.85e-05	0	44	0	973078528	23	4127
2026-01-20 09:42:59.65	358.20	24.78	-30.8	-32.2	12.9	5.95e-05	0	44	0	975175680	22	4243
2026-01-20 09:43:00.65	358.07	24.64	-30.6	-31.8	13.1	3.50e-05	0	44	0	977272832	22	4119
2026-01-20 09:43:01.64	357.94	24.50	-31.0	-32.9	12.4	1.09e-04	0	44	0	978321408	22	4490
2026-01-20 09:43:02.64	357.81	24.36	-31.1	-33.3	12.1	2.84e-04	0	44	0	980418560	22	4593
2026-01-20 09:43:03.64	357.68	24.22	-31.4	-34.0	11.6	3.65e-04	0	44	0	982515712	22	4887
2026-01-20 09:43:04.64	357.55	24.09	-31.7	-34.4	11.0	1.47e-03	0	44	0	984612864	23	4937
2026-01-20 09:43:05.64	357.43	23.95	-31.5	-33.9	11.3	1.36e-03	0	44	0	986710016	23	4765
2026-01-20 09:43:06.64	357.30	23.81	-31.5	-34.0	11.2	1.48e-03	0	44	0	987758592	23	4791
2026-01-20 09:43:07.64	357.18	23.68	-31.4	-33.4	11.7	1.05e-03	0	44	0	989855744	23	4577
2026-01-20 09:43:08.65	357.05	23.54	-31.2	-33.1	11.9	3.58e-04	0	44	0	991952896	23	4457
2026-01-20 09:43:09.65	356.93	23.41	-31.2	-32.9	12.0	3.09e-04	0	44	0	994050048	23	4381
2026-01-20 09:43:10.65	356.81	23.27	-31.2	-33.0	11.9	2.82e-04	0	44	0	995098624	23	4432
2026-01-20 09:43:11.65	356.69	23.14	-31.1	-32.7	12.2	4.07e-04	0	44	0	997195776	23	4315
2026-01-20 09:43:12.65	356.57	23.01	-30.8	-31.8	12.8	7.93e-05	0	44	0	999292928	23	4037
2026-01-20 09:43:13.66	356.45	22.88	-30.7	-32.1	12.9	6.94e-05	0	44	0	1001390080	22	4222
2026-01-20 09:43:14.66	356.33	22.74	-30.7	-32.1	12.9	5.03e-05	0	44	0	1003487232	22	4215
2026-01-20 09:43:15.66	356.22	22.61	-30.7	-31.9	13.0	4.27e-05	0	44	0	1004535808	22	4163
2026-01-20 09:43:16.67	356.10	22.48	-30.5	-31.5	13.3	2.59e-05	0	44	0	1006632960	22	4022
2026-01-20 09:43:17.67	355.99	22.35	-30.4	-31.3	13.4	1.52e-05	0	44	0	1008730112	22	3976
2026-01-20 09:43:18.68	355.87	22.22	-30.5	-31.4	13.4	9.10e-06	0	44	0	1010827264	22	4006
2026-01-20 09:43:19.67	355.76	22.09	-30.4	-31.2	13.5	9.90e-06	0	44	0	1012924416	22	3942
2026-01-20 09:43:20.68	355.65	21.96	-30.7	-32.2	12.9	3.28e-05	0	44	0	1013972992	22	4233
2026-01-20 09:43:21.68	355.54	21.83	-30.8	-32.3	12.7	9.61e-05	0	44	0	1016070144	22	4292
2026-01-20 09:43:22.68	355.43	21.71	-31.1	-33.2	12.2	1.77e-04	0	44	0	1018167296	22	4567
2026-01-20 09:43:23.68	355.32	21.58	-31.2	-33.6	11.8	4.43e-04	0	44	0	1020264448	22	4715
2026-01-20 09:43:24.68	355.21	21.45	-31.5	-34.3	11.4	5.47e-04	0	44	0	1022361600	22	4980
2026-01-20 09:43:25.68	355.11	21.33	-31.4	-33.7	11.4	1.57e-03	0	44	0	1023410176	23	4671
2026-01-20 09:43:26.68	355.00	21.20	-31.3	-33.5	11.6	7.90e-04	0	44	0	1025507328	23	4593
2026-01-20 09:43:27.68	354.90	21.08	-31.3	-33.3	11.7	6.38e-04	0	44	0	1027604480	23	4534
2026-01-20 09:43:28.69	354.79	20.95	-31.2	-32.9	12.0	5.69e-04	0	44	0	1029701632	23	4402
2026-01-20 09:43:29.69	354.69	20.83	-31.1	-32.7	12.0	3.52e-04	0	45	0	1031798784	23	4336
2026-01-20 09:43:30.69	354.58	20.71	-31.0	-32.6	12.2	2.36e-04	0	44	0	1032847360	23	4286
2026-01-20 09:43:31.70	354.48	20.58	-31.1	-32.7	12.1	2.30e-04	0	44	0	1034944512	23	4327
2026-01-20 09:43:32.70	354.38	20.46	-31.1	-32.6	12.1	2.51e-04	0	45	0	1037041664	23	4298
2026-01-20 09:43:33.71	354.28	20.34	-30.9	-32.2	12.5	1.55e-04	0	44	0	1039138816	23	4166
2026-01-20 09:43:34.71	354.18	20.22	-30.9	-32.2	12.4	1.38e-04	0	45	0	1040187392	23	4166
2026-01-20 09:43:35.71	354.08	20.10	-31.1	-32.8	11.9	1.37e-04	0	44	0	1042284544	23	4365
2026-01-20 09:43:36.71	353.99	19.98	-31.1	-32.7	12.1	3.51e-04	0	44	0	1044381696	23	4315
2026-01-20 09:43:37.71	353.89	19.86	-31.1	-32.9	11.9	2.88e-04	0	44	0	1046478848	23	4399
2026-01-20 09:43:38.71	353.79	19.74	-31.1	-32.8	11.9	4.26e-04	0	44	0	1048576000	23	4376
2026-01-20 09:43:39.71	353.70	19.62	-31.3	-33.3	11.6	8.00e-04	0	44	0	1049624576	23	4553
2026-01-20 09:43:40.71	353.61	19.50	-31.3	-33.5	11.5	8.49e-04	0	44	0	1051721728	23	4612
2026-01-20 09:43:41.71	353.51	19.38	-31.1	-32.8	11.9	4.62e-04	0	45	0	1053818880	23	4391
2026-01-20 09:43:42.72	353.42	19.26	-31.1	-32.7	12.0	4.08e-04	0	45	0	1055916032	23	4350
2026-01-20 09:43:43.72	353.33	19.15	-31.0	-32.5	12.1	2.98e-04	0	45	0	1058013184	23	4284
2026-01-20 09:43:44.72	353.23	19.03	-31.0	-32.5	12.1	2.14e-04	0	44	0	1059061760	23	4291
2026-01-20 09:43:45.72	353.14	18.91	-31.0	-32.3	12.2	2.30e-04	0	44	0	1061158912	23	4226
2026-01-20 09:43:46.73	353.05	18.80	-30.9	-32.8	12.3	1.26e-04	0	44	0	1063256064	22	4478
2026-01-20 09:43:47.73	352.96	18.68	-30.7	-32.1	12.7	1.19e-04	0	44	0	1065353216	22	4229
2026-01-20 09:43:48.74	352.88	18.57	-30.5	-31.6	13.1	4.73e-05	0	44	0	1067450368	22	4084
2026-01-20 09:43:49.74	352.79	18.45	-30.4	-31.2	13.3	2.67e-05	0	44	0	1068498944	22	3970
2026-01-20 09:43:50.74	352.70	18.34	-30.3	-31.6	13.3	2.05e-05	0	45	0	1070596096	21	4173
2026-01-20 09:43:51.75	352.61	18.22	-30.2	-31.3	13.6	1.06e-05	0	44	0	1072693248	21	4071
2026-01-20 09:43:52.75	352.53	18.11	-30.0	-30.7	13.9	9.90e-06	0	44	0	1074790400	21	3912
2026-01-20 09:43:53.75	352.44	18.00	-30.1	-31.0	13.7	3.00e-06	0	44	0	1076887552	21	3993
2026-01-20 09:43:54.76	352.36	17.89	-30.1	-30.9	13.8	7.60e-06	0	44	0	1077936128	21	3966
2026-01-20 09:43:55.76	352.27	17.78	-29.9	-30.6	14.0	3.80e-06	0	44	0	1080033280	21	3880
2026-01-20 09:43:56.77	352.19	17.66	-30.1	-31.0	13.7	6.80e-06	0	44	0	1082130432	21	3995
2026-01-20 09:43:57.76	352.11	17.55	-30.1	-31.0	13.7	8.30e-06	0	45	0	1084227584	21	4004
2026-01-20 09:43:58.77	352.03	17.44	-30.2	-31.2	13.6	1.14e-05	0	44	0	1086324736	21	4049
2026-01-20 09:43:59.78	351.94	17.33	-30.3	-31.6	13.3	1.67e-05	0	44	0	1087373312	21	4166
2026-01-20 09:44:00.78	351.86	17.22	-30.5	-32.3	12.9	4.19e-05	0	44	0	1089470464	21	4384
2026-01-20 09:44:01.78	351.78	17.11	-30.7	-32.6	12.6	7.62e-05	0	44	0	1091567616	21	4506
2026-01-20 09:44:02.79	351.70	17.01	-30.9	-33.3	12.2	1.20e-04	0	44	0	1093664768	21	4737
2026-01-20 09:44:03.79	351.62	16.90	-31.1	-33.4	11.8	2.81e-04	0	44	0	1094713344	22	4677
2026-01-20 09:44:04.80	351.54	16.79	-31.2	-33.8	11.5	4.46e-04	0	44	0	1096810496	22	4840
2026-01-20 09:44:05.80	351.47	16.68	-31.3	-34.0	11.3	7.70e-04	0	44	0	1098907648	22	4901
2026-01-20 09:44:06.81	351.39	16.57	-31.5	-34.5	11.0	1.66e-03	0	44	0	1101004800	22	5114
2026-01-20 09:44:07.81	351.31	16.47	-31.5	-34.2	10.8	2.83e-03	0	45	0	1103101952	23	4913
2026-01-20 09:44:08.81	351.24	16.36	-31.7	-34.9	10.3	3.39e-03	0	44	0	1104150528	23	5173
2026-01-20 09:44:09.81	351.16	16.26	-31.8	-35.1	10.1	7.56e-03	0	44	0	1106247680	23	5297
2026-01-20 09:44:10.81	351.09	16.15	-31.8	-35.3	10.0	7.36e-03	0	44	0	1108344832	23	5353
2026-01-20 09:44:11.82	351.01	16.05	-31.9	-35.1	9.6	8.82e-03	0	44	0	1110441984	24	5194
2026-01-20 09:44:12.81	350.94	15.94	-32.0	-35.4	9.5	1.32e-02	0	44	0	1112539136	24	5317
2026-01-20 09:44:13.81	350.87	15.84	-31.9	-35.2	9.6	1.19e-02	0	44	0	1113587712	24	5249
2026-01-20 09:44:14.82	350.79	15.73	-31.9	-35.1	9.7	1.19e-02	0	45	0	1115684864	24	5213
2026-01-20 09:44:15.82	350.72	15.63	-31.9	-35.1	9.7	1.34e-02	0	44	0	1117782016	24	5191
2026-01-20 09:44:16.83	350.65	15.53	-31.8	-34.9	9.9	9.72e-03	0	44	0	1119879168	24	5114
2026-01-20 09:44:17.83	350.58	15.43	-31.7	-34.4	10.2	7.54e-03	0	44	0	1121976320	24	4900
2026-01-20 09:44:18.83	350.51	15.32	-31.7	-34.3	10.2	7.54e-03	0	44	0	1123024896	24	4887
2026-01-20 09:44:19.84	350.44	15.22	-31.6	-34.0	10.5	4.17e-03	0	44	0	1125122048	24	4757
2026-01-20 09:44:20.84	350.37	15.12	-31.6	-34.2	10.3	4.47e-03	0	44	0	1127219200	24	4837
2026-01-20 09:44:21.84	350.30	15.02	-31.6	-34.1	10.3	6.47e-03	0	44	0	1129316352	24	4819
2026-01-20 09:44:22.84	350.23	14.92	-31.6	-34.0	10.4	4.39e-03	0	44	0	1131413504	24	4756
2026-01-20 09:44:23.85	350.16	14.82	-31.9	-35.0	9.7	7.91e-03	0	44	0	1132462080	24	5185
2026-01-20 09:44:24.85	350.09	14.72	-31.7	-34.6	9.9	1.24e-02	0	44	0	1134559232	24	4983
2026-01-20 09:44:25.86	350.02	14.62	-31.6	-34.0	10.4	6.92e-03	0	44	0	1136656384	24	4758
2026-01-20 09:44:26.86	349.96	14.52	-31.3	-33.3	10.9	2.29e-03	0	44	0	1138753536	24	4489
2026-01-20 09:44:27.86	349.89	14.42	-31.4	-33.9	10.8	2.33e-03	0	44	0	1139802112	23	4813
2026-01-20 09:44:28.86	349.83	14.32	-31.3	-33.6	10.8	2.25e-03	0	44	0	1141899264	23	4716
2026-01-20 09:44:29.86	349.76	14.22	-31.4	-33.9	10.8	2.85e-03	0	44	0	1143996416	23	4821
2026-01-20 09:44:30.86	349.70	14.13	-31.5	-34.5	10.3	4.22e-03	0	44	0	1146093568	23	5062
2026-01-20 09:44:31.86	349.63	14.03	-31.5	-34.4	10.4	3.74e-03	0	44	0	1148190720	23	5004
2026-01-20 09:44:32.87	349.57	13.93	-31.5	-34.4	10.3	3.16e-03	0	44	0	1150287872	23	5024
2026-01-20 09:44:33.87	349.50	13.84	-31.6	-34.7	10.2	5.28e-03	0	44	0	1151336448	23	5157
2026-01-20 09:44:34.87	349.44	13.74	-31.6	-34.7	10.1	5.66e-03	0	44	0	1153433600	23	5154
2026-01-20 09:44:35.87	349.38	13.64	-31.6	-34.8	10.1	7.02e-03	0	44	0	1155530752	23	5174
2026-01-20 09:44:36.88	349.32	13.55	-31.6	-34.6	10.1	6.55e-03	0	44	0	1157627904	23	5123
2026-01-20 09:44:37.88	349.25	13.45	-31.7	-35.2	9.7	9.29e-03	0	45	0	1158676480	23	5388
2026-01-20 09:44:38.88	349.19	13.36	-31.7	-34.9	10.0	1.32e-02	0	44	0	1160773632	23	5253
2026-01-20 09:44:39.88	349.13	13.26	-31.8	-35.3	9.7	8.28e-03	0	44	0	1162870784	23	5430
2026-01-20 09:44:40.89	349.07	13.17	-31.6	-34.7	10.2	6.84e-03	0	44	0	1164967936	23	5132
2026-01-20 09:44:41.88	349.01	13.08	-31.7	-35.0	9.9	6.54e-03	0	44	0	1167065088	23	5287
2026-01-20 09:44:42.88	348.95	12.98	-31.7	-35.0	9.9	9.96e-03	0	44	0	1168113664	23	5283
2026-01-20 09:44:43.89	348.89	12.89	-31.4	-34.0	10.6	3.68e-03	0	44	0	1170210816	23	4871
2026-01-20 09:44:44.89	348.83	12.80	-31.5	-34.4	10.3	3.50e-03	0	44	0	1172307968	23	5038
2026-01-20 09:44:45.89	348.77	12.70	-31.4	-34.0	10.6	3.08e-03	0	44	0	1174405120	23	4884
2026-01-20 09:44:46.89	348.72	12.61	-31.6	-34.7	10.1	5.81e-03	0	44	0	1176502272	23	5135
2026-01-20 09:44:47.90	348.66	12.52	-31.5	-34.3	10.3	6.09e-03	0	44	0	1177550848	23	5003
2026-01-20 09:44:48.91	348.60	12.43	-31.5	-34.4	10.4	6.11e-03	0	44	0	1179648000	23	5029
2026-01-20 09:44:49.92	348.54	12.33	-31.5	-34.5	10.2	4.68e-03	0	44	0	1181745152	23	5061
2026-01-20 09:44:50.92	348.49	12.24	-31.8	-35.5	9.5	1.21e-02	0	44	0	1183842304	23	5513
2026-01-20 09:44:51.92	348.43	12.15	-31.7	-35.1	9.7	1.43e-02	0	44	0	1185939456	23	5345
2026-01-20 09:44:52.93	348.37	12.06	-31.7	-35.3	9.5	1.26e-02	0	44	0	1186988032	23	5446
2026-01-20 09:44:53.94	348.32	11.97	-31.7	-35.3	9.6	1.39e-02	0	44	0	1189085184	23	5421
2026-01-20 09:44:54.95	348.26	11.88	-32.0	-36.2	8.8	2.03e-02	0	44	0	1191182336	23	5874
2026-01-20 09:44:55.95	348.21	11.79	-32.0	-35.8	8.8	3.40e-02	0	44	0	1193279488	24	5587
2026-01-20 09:44:56.96	348.15	11.70	-31.9	-35.7	8.9	3.00e-02	0	44	0	1195376640	24	5527
2026-01-20 09:44:57.96	348.10	11.61	-32.0	-35.8	8.7	2.87e-02	0	44	0	1196425216	24	5573
2026-01-20 09:44:58.97	348.04	11.52	-32.1	-36.2	8.5	3.75e-02	0	44	0	1198522368	24	5768
2026-01-20 09:44:59.97	347.99	11.43	-32.0	-35.7	8.8	4.69e-02	0	44	0	1200619520	24	5558
2026-01-20 09:45:00.97	347.94	11.35	-31.9	-35.4	9.1	2.58e-02	0	44	0	1202716672	24	5387
2026-01-20 09:45:01.97	347.89	11.26	-31.9	-35.4	9.1	1.68e-02	0	44	0	1204813824	24	5377
2026-01-20 09:45:02.98	347.83	11.17	-31.8	-35.1	9.3	2.10e-02	0	44	0	1205862400	24	5255
2026-01-20 09:45:03.98	347.78	11.08	-31.7	-34.6	9.7	1.29e-02	0	44	0	1207959552	24	5036
2026-01-20 09:45:04.98	347.73	11.00	-31.6	-34.2	9.9	9.38e-03	0	44	0	1210056704	24	4888
2026-01-20 09:45:05.99	347.68	10.91	-31.5	-34.2	9.9	8.30e-03	0	44	0	1212153856	24	4871
2026-01-20 09:45:06.99	347.63	10.82	-31.4	-33.6	10.4	5.10e-03	0	44	0	1213202432	24	4656
2026-01-20 09:45:07.99	347.58	10.74	-31.3	-33.5	10.4	4.11e-03	0	44	0	1215299584	24	4627
2026-01-20 09:45:08.98	347.53	10.65	-31.2	-33.7	10.8	3.87e-03	0	44	0	1217396736	23	4760
2026-01-20 09:45:09.98	347.48	10.57	-31.3	-33.7	10.6	2.73e-03	0	44	0	1219493888	23	4788
2026-01-20 09:45:10.98	347.43	10.48	-31.2	-33.4	10.9	2.31e-03	0	44	0	1221591040	23	4675
2026-01-20 09:45:11.99	347.38	10.40	-31.1	-33.1	11.1	1.79e-03	0	44	0	1222639616	23	4551
2026-01-20 09:45:12.99	347.33	10.31	-31.1	-33.4	10.9	1.54e-03	0	44	0	1224736768	23	4649
2026-01-20 09:45:13.99	347.28	10.23	-31.1	-33.2	11.0	2.25e-03	0	44	0	1226833920	23	4602
2026-01-20 09:45:14.99	347.23	10.14	-31.1	-33.4	10.9	2.11e-03	0	44	0	1228931072	23	4652
2026-01-20 09:45:15.99	347.18	10.06	-31.1	-33.3	10.9	1.66e-03	0	44	0	1231028224	23	4620
2026-01-20 09:45:16.99	347.13	9.98	-31.3	-33.9	10.4	2.76e-03	0	44	0	1232076800	23	4872
2026-01-20 09:45:17.99	347.09	9.89	-31.3	-33.9	10.4	4.51e-03	0	44	0	1234173952	23	4847
2026-01-20 09:45:18.98	347.04	9.81	-31.4	-34.2	10.3	5.30e-03	0	44	0	1236271104	23	4977
2026-01-20 09:45:19.99	346.99	9.73	-31.4	-34.2	10.2	8.05e-03	0	44	0	1238368256	23	4976
2026-01-20 09:45:20.99	346.95	9.65	-31.2	-33.6	10.6	4.95e-03	0	44	0	1240465408	23	4759
2026-01-20 09:45:22.00	346.90	9.56	-31.3	-34.0	10.3	5.11e-03	0	44	0	1241513984	23	4901
2026-01-20 09:45:22.99	346.85	9.48	-31.4	-34.2	10.3	4.42e-03	0	44	0	1243611136	23	4972
2026-01-20 09:45:23.99	346.81	9.40	-31.5	-34.5	10.0	5.94e-03	0	44	0	1245708288	23	5124
2026-01-20 09:45:24.99	346.76	9.32	-31.3	-34.2	10.2	5.38e-03	0	44	0	1247805440	23	4974
2026-01-20 09:45:25.99	346.72	9.24	-31.5	-34.8	9.7	1.10e-02	0	44	0	1248854016	23	5243
2026-01-20 09:45:27.00	346.67	9.16	-31.3	-34.0	10.3	8.48e-03	0	44	0	1250951168	23	4922
2026-01-20 09:45:28.00	346.63	9.08	-31.3	-34.2	10.2	6.70e-03	0	45	0	1253048320	23	4973
2026-01-20 09:45:29.00	346.58	8.99	-31.1	-33.5	10.7	3.64e-03	0	44	0	1255145472	23	4717
2026-01-20 09:45:30.00	346.54	8.91	-31.2	-33.6	10.5	3.57e-03	0	44	0	1257242624	23	4774
2026-01-20 09:45:31.00	346.49	8.83	-31.2	-33.9	10.3	3.95e-03	0	44	0	1258291200	23	4870
2026-01-20 09:45:32.00	346.45	8.76	-31.3	-33.9	10.3	4.53e-03	0	44	0	1260388352	23	4887
2026-01-20 09:45:33.01	346.41	8.67	-31.3	-34.0	10.2	7.11e-03	0	44	0	1262485504	23	4910
2026-01-20 09:45:34.00	346.36	8.60	-31.4	-34.3	10.0	6.84e-03	0	44	0	1264582656	23	5050
2026-01-20 09:45:35.00	346.32	8.52	-31.2	-33.9	10.3	5.81e-03	0	45	0	1266679808	23	4879
2026-01-20 09:45:36.00	346.28	8.44	-31.3	-34.1	10.1	7.44e-03	0	44	0	1267728384	23	4965
2026-01-20 09:45:37.00	346.23	8.36	-31.6	-35.3	9.2	1.27e-02	0	44	0	1269825536	23	5505
2026-01-20 09:45:38.00	346.19	8.28	-31.4	-34.6	9.8	1.92e-02	0	44	0	1271922688	23	5167
2026-01-20 09:45:39.00	346.15	8.20	-31.5	-34.9	9.5	1.17e-02	0	44	0	1274019840	23	5313
2026-01-20 09:45:40.00	346.11	8.13	-31.4	-34.4	9.8	1.56e-02	0	44	0	1275068416	23	5125
2026-01-20 09:45:41.00	346.07	8.05	-31.5	-34.8	9.5	1.24e-02	0	45	0	1277165568	23	5285
2026-01-20 09:45:42.00	346.03	7.97	-31.6	-35.2	9.2	2.00e-02	0	44	0	1279262720	23	5445
2026-01-20 09:45:43.00	345.99	7.89	-31.5	-34.9	9.4	1.97e-02	0	44	0	1281359872	23	5317
2026-01-20 09:45:44.01	345.94	7.82	-31.4	-34.6	9.6	1.41e-02	0	44	0	1283457024	23	5219
2026-01-20 09:45:45.01	345.90	7.74	-31.3	-34.3	9.8	9.90e-03	0	44	0	1284505600	23	5065
2026-01-20 09:45:46.02	345.86	7.66	-31.4	-34.8	9.5	9.87e-03	0	44	0	1286602752	23	5271
2026-01-20 09:45:47.02	345.82	7.59	-31.5	-35.1	9.2	1.52e-02	0	44	0	1288699904	23	5430
