passes_logs/2026/01/20/R2M6_AANII_01/R2M6_AANII_01__20260120_075634_SUOMI_NPP_rec.log

#Pass ID: 20260120_075634_SUOMI NPP
#Satellite: SUOMI NPP
#Configuration: NPP
#almurnet v.1.7.20240730
#Start time: 2026-01-20 07:56:35

#Version: 2.2.20231116
#Station: R2M6_AANII_01
#Location: 30.233357 lon 59.946436 lat
#TLE: 1 37849U 11061A   26019.61507914  .00000076  00000+0  57195-4 0  9994
#TLE: 2 37849  98.7817 321.6240 0002347  55.5899 304.5499 14.19526391737369

#Time	Az	El	Level	Level2	SNR	BER	BlckErr	Temp	State	Recorded	gain1	gain2
2026-01-20 07:56:35.53	83.75	7.05	-32.7	-40.4	4.1	1.45e+00	0	41	0	0	26	8705
2026-01-20 07:56:36.53	83.64	7.10	-32.5	-38.4	4.4	1.34e+00	0	41	104	0	26	7116
2026-01-20 07:56:37.53	83.53	7.16	-32.5	-38.5	5.6	5.15e-01	0	42	0	0	26	7160
2026-01-20 07:56:38.53	83.41	7.22	-32.5	-38.5	5.7	4.17e-01	0	42	0	1048576	26	7126
2026-01-20 07:56:39.54	83.30	7.27	-32.6	-38.7	5.5	4.40e-01	0	42	0	3145728	26	7304
2026-01-20 07:56:40.54	83.18	7.33	-32.6	-38.6	5.6	4.21e-01	0	42	0	5242880	26	7239
2026-01-20 07:56:41.54	83.07	7.38	-32.5	-38.3	5.8	4.45e-01	0	42	0	7340032	26	7024
2026-01-20 07:56:42.55	82.95	7.44	-32.4	-37.7	6.2	3.57e-01	0	42	0	9437184	26	6601
2026-01-20 07:56:43.54	82.84	7.50	-32.2	-36.9	7.1	2.39e-01	0	42	0	10485760	25	6215
2026-01-20 07:56:44.54	82.72	7.55	-32.1	-36.6	7.4	1.33e-01	0	42	0	12582912	25	6006
2026-01-20 07:56:45.54	82.60	7.61	-31.9	-35.7	8.1	7.78e-02	0	42	0	14680064	25	5566
2026-01-20 07:56:46.54	82.48	7.66	-31.8	-35.4	8.7	4.13e-02	0	42	0	16777216	24	5477
2026-01-20 07:56:47.54	82.37	7.72	-31.6	-34.8	9.2	3.03e-02	0	42	0	17825792	24	5191
2026-01-20 07:56:48.54	82.25	7.78	-31.6	-34.6	9.3	2.73e-02	0	42	0	19922944	24	5114
2026-01-20 07:56:49.54	82.13	7.83	-31.6	-34.6	9.4	1.38e-02	0	42	0	22020096	24	5087
2026-01-20 07:56:50.54	82.01	7.89	-31.5	-34.4	9.6	1.58e-02	0	42	0	24117248	24	5018
2026-01-20 07:56:51.55	81.89	7.94	-31.4	-34.1	9.8	1.23e-02	0	42	0	26214400	24	4901
2026-01-20 07:56:52.55	81.77	8.00	-31.4	-34.0	9.8	1.20e-02	0	42	0	27262976	24	4841
2026-01-20 07:56:53.56	81.65	8.06	-31.4	-34.3	10.0	6.20e-03	0	42	0	29360128	23	5058
2026-01-20 07:56:54.56	81.53	8.11	-31.4	-34.3	10.0	1.20e-02	0	42	0	31457280	23	5058
2026-01-20 07:56:55.56	81.40	8.17	-31.3	-34.1	10.2	5.61e-03	0	42	0	33554432	23	4956
2026-01-20 07:56:56.57	81.28	8.23	-31.3	-34.1	10.2	4.86e-03	0	42	0	35651584	23	4965
2026-01-20 07:56:57.57	81.16	8.28	-31.3	-34.0	10.3	5.36e-03	0	42	0	36700160	23	4929
2026-01-20 07:56:58.57	81.03	8.34	-31.2	-33.8	10.4	5.17e-03	0	42	0	38797312	23	4852
2026-01-20 07:56:59.57	80.91	8.39	-31.4	-34.4	10.0	8.18e-03	0	42	0	40894464	23	5065
2026-01-20 07:57:00.57	80.79	8.45	-31.5	-34.8	9.6	1.04e-02	0	42	0	42991616	23	5275
2026-01-20 07:57:01.57	80.66	8.51	-31.5	-34.6	9.8	1.08e-02	0	42	0	45088768	23	5149
2026-01-20 07:57:02.57	80.54	8.56	-31.6	-34.9	9.5	2.05e-02	0	42	0	46137344	23	5318
2026-01-20 07:57:03.57	80.41	8.62	-31.5	-34.6	9.9	1.21e-02	0	42	0	48234496	23	5146
2026-01-20 07:57:04.57	80.29	8.67	-31.5	-34.8	9.7	1.05e-02	0	42	0	50331648	23	5237
2026-01-20 07:57:05.57	80.16	8.73	-31.4	-34.4	10.0	7.40e-03	0	42	0	52428800	23	5079
2026-01-20 07:57:06.57	80.03	8.79	-31.5	-34.8	9.7	1.01e-02	0	42	0	53477376	23	5250
2026-01-20 07:57:07.58	79.90	8.84	-31.5	-34.6	9.9	1.01e-02	0	42	0	55574528	23	5135
2026-01-20 07:57:08.58	79.78	8.90	-31.7	-35.2	9.4	1.04e-02	0	42	0	57671680	23	5426
2026-01-20 07:57:09.58	79.65	8.95	-31.5	-34.6	9.9	1.11e-02	0	42	0	59768832	23	5170
2026-01-20 07:57:10.59	79.52	9.01	-31.6	-35.0	9.7	1.16e-02	0	43	0	61865984	23	5302
2026-01-20 07:57:11.59	79.39	9.07	-31.5	-34.8	9.8	1.01e-02	0	43	0	62914560	23	5264
2026-01-20 07:57:12.60	79.26	9.12	-31.6	-35.1	9.5	1.20e-02	0	42	0	65011712	23	5424
2026-01-20 07:57:13.59	79.13	9.18	-31.4	-34.6	9.8	1.18e-02	0	42	0	67108864	23	5198
2026-01-20 07:57:14.60	78.99	9.23	-31.3	-34.3	10.1	9.07e-03	0	43	0	69206016	23	5055
2026-01-20 07:57:15.60	78.86	9.29	-31.3	-34.1	10.3	5.47e-03	0	42	0	71303168	23	4969
2026-01-20 07:57:16.61	78.73	9.35	-31.3	-34.0	10.3	4.71e-03	0	43	0	72351744	23	4945
2026-01-20 07:57:17.60	78.60	9.40	-31.3	-34.3	10.1	6.39e-03	0	43	0	74448896	23	5054
2026-01-20 07:57:18.60	78.47	9.46	-31.4	-34.4	10.0	8.02e-03	0	43	0	76546048	23	5114
2026-01-20 07:57:19.60	78.33	9.51	-31.3	-34.2	10.1	6.56e-03	0	43	0	78643200	23	5043
2026-01-20 07:57:20.61	78.20	9.57	-31.4	-34.4	10.0	5.45e-03	0	43	0	80740352	23	5103
2026-01-20 07:57:21.61	78.06	9.62	-31.3	-34.1	10.2	6.89e-03	0	43	0	81788928	23	4959
2026-01-20 07:57:22.62	77.92	9.68	-31.3	-34.1	10.3	5.07e-03	0	42	0	83886080	23	4955
2026-01-20 07:57:23.62	77.79	9.74	-31.3	-34.0	10.3	5.62e-03	0	43	0	85983232	23	4945
2026-01-20 07:57:24.62	77.65	9.79	-31.4	-34.3	10.1	5.68e-03	0	43	0	88080384	23	5055
2026-01-20 07:57:25.63	77.51	9.85	-31.2	-33.9	10.4	4.69e-03	0	43	0	90177536	23	4898
2026-01-20 07:57:26.63	77.38	9.90	-31.3	-33.9	10.5	3.53e-03	0	43	0	91226112	23	4884
2026-01-20 07:57:27.63	77.24	9.96	-31.5	-34.6	9.9	6.27e-03	0	43	0	93323264	23	5187
2026-01-20 07:57:28.64	77.10	10.01	-31.4	-34.5	10.0	6.29e-03	0	43	0	95420416	23	5138
2026-01-20 07:57:29.64	76.96	10.07	-31.4	-34.4	10.1	6.57e-03	0	43	0	97517568	23	5098
2026-01-20 07:57:30.64	76.82	10.13	-31.3	-34.0	10.5	6.05e-03	0	43	0	99614720	23	4917
2026-01-20 07:57:31.63	76.68	10.18	-31.4	-34.4	10.1	6.48e-03	0	43	0	100663296	23	5084
2026-01-20 07:57:32.63	76.54	10.24	-31.4	-34.4	10.1	8.21e-03	0	43	0	102760448	23	5103
2026-01-20 07:57:33.62	76.40	10.29	-31.5	-34.9	9.7	7.87e-03	0	43	0	104857600	23	5316
2026-01-20 07:57:34.62	76.26	10.35	-31.5	-34.9	9.7	1.12e-02	0	43	0	106954752	23	5305
2026-01-20 07:57:35.62	76.12	10.40	-31.6	-35.1	9.6	9.05e-03	0	43	0	108003328	23	5416
2026-01-20 07:57:36.62	75.98	10.46	-31.5	-34.9	9.7	8.28e-03	0	43	0	110100480	23	5296
2026-01-20 07:57:37.62	75.83	10.51	-31.6	-35.1	9.5	1.49e-02	0	43	0	112197632	23	5412
2026-01-20 07:57:38.62	75.69	10.57	-31.7	-35.6	9.2	1.78e-02	0	43	0	114294784	23	5630
2026-01-20 07:57:39.62	75.55	10.62	-31.8	-36.0	8.9	2.83e-02	0	43	0	116391936	23	5825
2026-01-20 07:57:40.63	75.40	10.68	-31.7	-35.6	9.2	2.20e-02	0	43	0	117440512	23	5609
2026-01-20 07:57:41.63	75.25	10.73	-31.8	-36.0	9.0	2.17e-02	0	43	0	119537664	23	5814
2026-01-20 07:57:42.63	75.11	10.79	-31.8	-35.8	9.1	2.07e-02	0	43	0	121634816	23	5701
2026-01-20 07:57:43.64	74.96	10.84	-31.8	-35.7	9.2	1.80e-02	0	43	0	123731968	23	5654
2026-01-20 07:57:44.64	74.81	10.90	-31.7	-35.5	9.3	2.09e-02	0	43	0	125829120	23	5565
2026-01-20 07:57:45.65	74.66	10.95	-31.7	-35.4	9.4	1.55e-02	0	43	0	126877696	23	5508
2026-01-20 07:57:46.65	74.52	11.01	-31.6	-35.0	9.7	1.34e-02	0	43	0	128974848	23	5346
2026-01-20 07:57:47.66	74.36	11.06	-31.6	-35.1	9.7	9.43e-03	0	43	0	131072000	23	5374
2026-01-20 07:57:48.66	74.22	11.11	-31.6	-35.0	9.7	1.18e-02	0	43	0	133169152	23	5355
2026-01-20 07:57:49.66	74.07	11.17	-31.5	-34.7	9.9	8.79e-03	0	43	0	135266304	23	5217
2026-01-20 07:57:50.66	73.92	11.22	-31.6	-35.1	9.6	1.28e-02	0	43	0	136314880	23	5408
2026-01-20 07:57:51.66	73.76	11.28	-31.5	-34.6	10.0	1.39e-02	0	43	0	138412032	23	5178
2026-01-20 07:57:52.66	73.61	11.33	-31.4	-34.3	10.3	6.86e-03	0	43	0	140509184	23	5031
2026-01-20 07:57:53.66	73.46	11.39	-31.4	-34.4	10.2	5.41e-03	0	43	0	142606336	23	5063
2026-01-20 07:57:54.66	73.31	11.44	-31.3	-34.1	10.4	4.24e-03	0	43	0	143654912	23	4965
2026-01-20 07:57:55.67	73.15	11.49	-31.2	-33.8	10.6	4.14e-03	0	43	0	145752064	23	4864
2026-01-20 07:57:56.68	73.00	11.55	-31.2	-33.6	10.7	3.00e-03	0	43	0	147849216	23	4766
2026-01-20 07:57:57.68	72.84	11.60	-31.1	-33.5	10.8	2.56e-03	0	43	0	149946368	23	4744
2026-01-20 07:57:58.69	72.69	11.66	-31.2	-33.6	10.8	2.70e-03	0	43	0	152043520	23	4749
2026-01-20 07:57:59.69	72.53	11.71	-31.2	-33.6	10.8	2.35e-03	0	43	0	153092096	23	4744
2026-01-20 07:58:00.69	72.37	11.76	-31.3	-33.9	10.6	3.05e-03	0	43	0	155189248	23	4871
2026-01-20 07:58:01.70	72.22	11.82	-31.1	-33.4	10.9	2.57e-03	0	43	0	157286400	23	4672
2026-01-20 07:58:02.70	72.06	11.87	-31.2	-33.5	10.9	1.49e-03	0	43	0	159383552	23	4734
2026-01-20 07:58:03.70	71.90	11.92	-31.1	-33.2	11.1	1.52e-03	0	43	0	161480704	23	4625
2026-01-20 07:58:04.70	71.74	11.98	-31.1	-33.3	11.0	1.66e-03	0	43	0	162529280	23	4643
2026-01-20 07:58:05.71	71.58	12.03	-31.0	-33.1	11.1	2.01e-03	0	43	0	164626432	23	4570
2026-01-20 07:58:06.71	71.42	12.08	-31.0	-33.0	11.2	1.56e-03	0	43	0	166723584	23	4549
2026-01-20 07:58:07.72	71.26	12.14	-30.9	-32.8	11.4	1.11e-03	0	43	0	168820736	23	4478
2026-01-20 07:58:08.71	71.10	12.19	-31.0	-33.1	11.2	1.17e-03	0	43	0	170917888	23	4566
2026-01-20 07:58:09.71	70.94	12.24	-31.0	-33.2	11.2	1.42e-03	0	43	0	171966464	23	4593
2026-01-20 07:58:10.71	70.78	12.29	-31.2	-33.8	10.7	2.66e-03	0	43	0	174063616	23	4815
2026-01-20 07:58:11.71	70.61	12.35	-31.2	-33.6	10.8	3.66e-03	0	43	0	176160768	23	4769
2026-01-20 07:58:12.72	70.45	12.40	-31.2	-33.5	10.8	2.56e-03	0	43	0	178257920	23	4729
2026-01-20 07:58:13.72	70.29	12.45	-31.1	-33.5	10.8	2.31e-03	0	43	0	180355072	23	4738
2026-01-20 07:58:14.73	70.12	12.50	-31.1	-33.3	11.1	1.68e-03	0	43	0	181403648	23	4634
2026-01-20 07:58:15.73	69.96	12.55	-31.2	-33.8	10.7	2.04e-03	0	43	0	183500800	23	4843
2026-01-20 07:58:16.74	69.79	12.61	-31.1	-33.5	11.0	3.55e-03	0	43	0	185597952	23	4700
2026-01-20 07:58:17.74	69.62	12.66	-31.0	-33.0	11.3	1.15e-03	0	43	0	187695104	23	4548
2026-01-20 07:58:18.75	69.45	12.71	-30.8	-32.9	11.8	6.93e-04	0	43	0	189792256	22	4583
2026-01-20 07:58:19.76	69.28	12.76	-30.8	-32.8	11.8	5.37e-04	0	44	0	190840832	22	4547
2026-01-20 07:58:20.76	69.12	12.81	-31.0	-33.4	11.4	9.36e-04	0	43	0	192937984	22	4740
2026-01-20 07:58:21.77	68.95	12.86	-30.8	-32.8	11.7	6.13e-04	0	43	0	195035136	22	4539
2026-01-20 07:58:22.76	68.78	12.92	-30.8	-33.0	11.7	5.05e-04	0	43	0	197132288	22	4615
2026-01-20 07:58:23.77	68.61	12.97	-30.7	-32.7	11.9	6.49e-04	0	43	0	198180864	22	4504
2026-01-20 07:58:24.77	68.44	13.02	-30.7	-32.7	11.9	4.23e-04	0	43	0	200278016	22	4506
2026-01-20 07:58:25.77	68.27	13.07	-30.8	-33.0	11.7	4.98e-04	0	43	0	202375168	22	4638
2026-01-20 07:58:26.78	68.09	13.12	-31.0	-33.6	11.3	8.62e-04	0	43	0	204472320	22	4829
2026-01-20 07:58:27.78	67.92	13.17	-30.9	-33.3	11.5	8.90e-04	0	43	0	206569472	22	4716
2026-01-20 07:58:28.78	67.75	13.22	-30.8	-33.0	11.7	6.16e-04	0	43	0	207618048	22	4612
2026-01-20 07:58:29.79	67.57	13.27	-30.8	-32.8	11.8	5.06e-04	0	43	0	209715200	22	4571
2026-01-20 07:58:30.79	67.40	13.32	-30.9	-33.3	11.5	7.22e-04	0	44	0	211812352	22	4733
2026-01-20 07:58:31.80	67.22	13.37	-31.1	-33.8	11.2	1.34e-03	0	43	0	213909504	22	4914
2026-01-20 07:58:32.80	67.05	13.42	-31.3	-34.4	10.7	2.17e-03	0	43	0	216006656	22	5177
2026-01-20 07:58:33.80	66.87	13.47	-31.2	-34.1	10.9	3.15e-03	0	43	0	217055232	22	5049
2026-01-20 07:58:34.81	66.70	13.52	-31.0	-33.4	11.4	1.19e-03	0	43	0	219152384	22	4789
2026-01-20 07:58:35.81	66.52	13.57	-30.7	-32.7	11.9	5.42e-04	0	43	0	221249536	22	4508
2026-01-20 07:58:36.81	66.34	13.61	-30.6	-32.4	12.1	2.60e-04	0	43	0	223346688	22	4419
2026-01-20 07:58:37.81	66.16	13.66	-30.5	-31.9	12.5	1.75e-04	0	43	0	225443840	22	4243
2026-01-20 07:58:38.80	65.99	13.71	-30.5	-31.9	12.5	1.28e-04	0	43	0	226492416	22	4261
2026-01-20 07:58:39.81	65.81	13.76	-30.2	-31.6	13.0	8.69e-05	0	44	0	228589568	21	4242
2026-01-20 07:58:40.80	65.63	13.81	-30.1	-31.2	13.3	3.05e-05	0	43	0	230686720	21	4115
2026-01-20 07:58:41.80	65.45	13.85	-30.1	-31.2	13.3	1.52e-05	0	44	0	232783872	21	4112
2026-01-20 07:58:42.81	65.27	13.90	-30.1	-31.2	13.3	1.60e-05	0	43	0	234881024	21	4090
2026-01-20 07:58:43.81	65.08	13.95	-30.1	-31.2	13.3	1.98e-05	0	43	0	235929600	21	4098
2026-01-20 07:58:44.81	64.90	14.00	-30.2	-31.4	13.1	2.28e-05	0	43	0	238026752	21	4168
2026-01-20 07:58:45.81	64.72	14.04	-30.2	-31.4	13.2	2.44e-05	0	44	0	240123904	21	4157
2026-01-20 07:58:46.81	64.54	14.09	-30.1	-31.2	13.3	1.90e-05	0	43	0	242221056	21	4112
2026-01-20 07:58:47.81	64.35	14.14	-30.2	-31.6	13.1	1.98e-05	0	44	0	243269632	21	4217
2026-01-20 07:58:48.81	64.17	14.18	-30.4	-32.0	12.8	3.89e-05	0	44	0	245366784	21	4353
2026-01-20 07:58:49.81	63.98	14.23	-30.4	-32.1	12.7	5.79e-05	0	43	0	247463936	21	4371
2026-01-20 07:58:50.82	63.80	14.28	-30.5	-32.5	12.4	7.62e-05	0	44	0	249561088	21	4522
2026-01-20 07:58:51.82	63.61	14.32	-30.5	-32.4	12.5	1.45e-04	0	44	0	251658240	21	4504
2026-01-20 07:58:52.83	63.42	14.37	-30.6	-32.7	12.4	1.27e-04	0	44	0	252706816	21	4578
2026-01-20 07:58:53.84	63.23	14.41	-30.5	-32.3	12.6	1.50e-04	0	44	0	254803968	21	4452
2026-01-20 07:58:54.84	63.04	14.46	-30.4	-32.2	12.7	7.55e-05	0	44	0	256901120	21	4429
2026-01-20 07:58:55.85	62.85	14.50	-30.4	-32.2	12.6	5.26e-05	0	44	0	258998272	21	4426
2026-01-20 07:58:56.86	62.66	14.55	-30.2	-31.7	13.0	5.87e-05	0	44	0	261095424	21	4256
2026-01-20 07:58:57.86	62.47	14.59	-30.1	-31.2	13.2	2.13e-05	0	44	0	262144000	21	4111
2026-01-20 07:58:58.86	62.28	14.64	-30.2	-31.6	13.0	2.28e-05	0	44	0	264241152	21	4236
2026-01-20 07:58:59.87	62.09	14.68	-30.2	-31.5	13.1	2.59e-05	0	44	0	266338304	21	4204
2026-01-20 07:59:00.87	61.90	14.73	-30.4	-32.0	12.8	3.43e-05	0	44	0	268435456	21	4351
2026-01-20 07:59:01.87	61.71	14.77	-30.5	-32.6	12.4	1.20e-04	0	44	0	270532608	21	4542
2026-01-20 07:59:02.87	61.51	14.81	-30.6	-32.7	12.3	1.94e-04	0	43	0	271581184	21	4602
2026-01-20 07:59:03.88	61.32	14.86	-30.4	-32.2	12.7	1.69e-04	0	44	0	273678336	21	4427
2026-01-20 07:59:04.88	61.13	14.90	-30.6	-32.7	12.4	1.08e-04	0	44	0	275775488	21	4568
2026-01-20 07:59:05.88	60.93	14.94	-30.5	-32.4	12.5	1.27e-04	0	44	0	277872640	21	4489
2026-01-20 07:59:06.88	60.74	14.98	-30.4	-32.1	12.8	7.24e-05	0	44	0	279969792	21	4372
2026-01-20 07:59:07.89	60.54	15.03	-30.3	-31.9	12.9	5.11e-05	0	44	0	281018368	21	4297
2026-01-20 07:59:08.89	60.34	15.07	-30.3	-31.8	13.0	4.50e-05	0	44	0	283115520	21	4279
2026-01-20 07:59:09.90	60.15	15.11	-30.3	-31.6	13.0	3.35e-05	0	44	0	285212672	21	4212
2026-01-20 07:59:10.90	59.95	15.15	-30.2	-31.5	13.1	4.27e-05	0	44	0	287309824	21	4185
2026-01-20 07:59:11.91	59.75	15.19	-30.1	-31.3	13.3	2.21e-05	0	44	0	289406976	21	4117
2026-01-20 07:59:12.91	59.55	15.23	-30.0	-31.1	13.5	1.52e-05	0	44	0	290455552	21	4050
2026-01-20 07:59:13.91	59.35	15.27	-30.2	-31.5	13.2	1.75e-05	0	44	0	292552704	21	4197
2026-01-20 07:59:14.91	59.15	15.31	-30.2	-31.5	13.2	2.97e-05	0	44	0	294649856	21	4170
2026-01-20 07:59:15.92	58.95	15.35	-30.2	-31.6	13.0	2.59e-05	0	44	0	296747008	21	4227
2026-01-20 07:59:16.91	58.75	15.39	-30.2	-31.5	13.0	3.20e-05	0	44	0	298844160	21	4182
2026-01-20 07:59:17.91	58.55	15.43	-30.4	-32.0	12.8	3.43e-05	0	44	0	299892736	21	4349
2026-01-20 07:59:18.92	58.35	15.47	-30.2	-31.5	13.1	3.12e-05	0	44	0	301989888	21	4185
2026-01-20 07:59:19.92	58.15	15.51	-30.2	-31.4	13.3	1.98e-05	0	44	0	304087040	21	4141
2026-01-20 07:59:20.92	57.95	15.55	-30.2	-31.5	13.2	1.98e-05	0	44	0	306184192	21	4175
2026-01-20 07:59:21.93	57.74	15.59	-30.2	-31.4	13.2	2.51e-05	0	44	0	307232768	21	4148
2026-01-20 07:59:22.93	57.54	15.62	-30.1	-31.2	13.3	1.67e-05	0	44	0	309329920	21	4094
2026-01-20 07:59:23.93	57.33	15.66	-30.2	-31.5	13.2	1.98e-05	0	44	0	311427072	21	4182
2026-01-20 07:59:24.92	57.13	15.70	-30.1	-31.2	13.3	2.59e-05	0	44	0	313524224	21	4100
2026-01-20 07:59:25.92	56.93	15.73	-29.9	-30.8	13.6	1.14e-05	0	44	0	315621376	21	3975
2026-01-20 07:59:26.92	56.72	15.77	-29.8	-30.4	13.9	6.10e-06	0	44	0	316669952	21	3856
2026-01-20 07:59:27.92	56.52	15.81	-29.9	-30.8	13.6	3.80e-06	0	44	0	318767104	21	3966
2026-01-20 07:59:28.92	56.31	15.84	-29.7	-30.6	14.1	6.10e-06	0	44	0	320864256	20	3997
2026-01-20 07:59:29.93	56.10	15.88	-29.5	-30.2	14.2	3.80e-06	0	44	0	322961408	20	3902
2026-01-20 07:59:30.93	55.89	15.91	-29.7	-30.6	14.1	2.20e-06	0	44	0	325058560	20	4015
2026-01-20 07:59:31.93	55.69	15.95	-29.7	-30.7	14.1	4.50e-06	0	44	0	326107136	20	4016
2026-01-20 07:59:32.93	55.48	15.98	-29.7	-30.6	14.1	1.50e-06	0	44	0	328204288	20	4002
2026-01-20 07:59:33.94	55.27	16.02	-29.6	-30.2	14.4	0.00e+00	0	44	0	330301440	20	3888
2026-01-20 07:59:34.94	55.06	16.05	-29.6	-30.4	14.3	0.00e+00	0	44	0	332398592	20	3925
2026-01-20 07:59:35.94	54.85	16.08	-29.7	-30.6	14.1	1.50e-06	0	44	0	334495744	20	4009
2026-01-20 07:59:36.94	54.64	16.12	-30.0	-31.5	13.5	3.00e-06	0	44	0	335544320	20	4261
2026-01-20 07:59:37.94	54.43	16.15	-30.0	-31.5	13.6	7.60e-06	0	44	0	337641472	20	4246
2026-01-20 07:59:38.95	54.21	16.18	-30.3	-32.1	13.2	1.75e-05	0	43	0	339738624	20	4438
2026-01-20 07:59:39.95	54.00	16.21	-30.2	-31.9	13.3	1.06e-05	0	44	0	341835776	20	4386
2026-01-20 07:59:40.94	53.79	16.25	-29.9	-31.2	13.8	1.60e-05	0	44	0	343932928	20	4176
2026-01-20 07:59:41.95	53.58	16.28	-30.0	-31.3	13.6	6.80e-06	0	44	0	344981504	20	4214
2026-01-20 07:59:42.94	53.37	16.31	-29.9	-31.2	13.7	6.10e-06	0	43	0	347078656	20	4179
2026-01-20 07:59:43.95	53.15	16.34	-30.1	-31.5	13.6	9.90e-06	0	44	0	349175808	20	4273
2026-01-20 07:59:44.95	52.94	16.37	-30.1	-31.7	13.4	6.80e-06	0	44	0	351272960	20	4326
2026-01-20 07:59:45.95	52.72	16.40	-30.1	-31.8	13.4	1.75e-05	0	44	0	352321536	20	4349
2026-01-20 07:59:46.96	52.51	16.43	-30.2	-32.0	13.2	1.06e-05	0	44	0	354418688	20	4411
2026-01-20 07:59:47.96	52.29	16.46	-30.2	-32.0	13.2	2.05e-05	0	44	0	356515840	20	4419
2026-01-20 07:59:48.96	52.08	16.49	-30.4	-32.4	12.9	4.65e-05	0	44	0	358612992	20	4567
2026-01-20 07:59:49.96	51.86	16.51	-30.2	-32.0	13.2	3.58e-05	0	44	0	360710144	20	4431
2026-01-20 07:59:50.96	51.64	16.54	-30.2	-32.1	13.2	2.74e-05	0	44	0	361758720	20	4448
2026-01-20 07:59:51.97	51.43	16.57	-30.3	-32.2	13.1	1.60e-05	0	43	0	363855872	20	4473
2026-01-20 07:59:52.97	51.21	16.60	-30.4	-32.5	12.9	3.20e-05	0	44	0	365953024	20	4572
2026-01-20 07:59:53.97	50.99	16.62	-30.3	-32.3	13.1	3.89e-05	0	44	0	368050176	20	4521
2026-01-20 07:59:54.97	50.77	16.65	-30.3	-32.2	13.1	2.51e-05	0	44	0	370147328	20	4474
2026-01-20 07:59:55.97	50.56	16.68	-30.4	-32.5	12.9	4.65e-05	0	44	0	371195904	20	4575
2026-01-20 07:59:56.98	50.33	16.70	-30.5	-32.2	12.8	6.10e-05	0	44	0	373293056	21	4379
2026-01-20 07:59:57.98	50.12	16.73	-30.5	-32.4	12.6	9.23e-05	0	44	0	375390208	21	4459
2026-01-20 07:59:58.98	49.90	16.75	-30.4	-31.9	13.0	6.40e-05	0	44	0	377487360	21	4283
2026-01-20 07:59:59.99	49.67	16.78	-30.2	-31.3	13.4	1.98e-05	0	44	0	379584512	21	4120
2026-01-20 08:00:01.00	49.45	16.80	-30.3	-31.6	13.2	1.14e-05	0	44	0	380633088	21	4204
2026-01-20 08:00:02.00	49.23	16.83	-30.3	-31.6	13.2	1.67e-05	0	44	0	382730240	21	4205
2026-01-20 08:00:02.99	49.01	16.85	-30.3	-31.6	13.2	2.44e-05	0	44	0	384827392	21	4208
2026-01-20 08:00:04.00	48.79	16.87	-30.1	-31.1	13.5	2.05e-05	0	44	0	386924544	21	4055
2026-01-20 08:00:05.01	48.57	16.89	-30.1	-31.0	13.6	1.06e-05	0	44	0	389021696	21	4025
2026-01-20 08:00:06.01	48.34	16.92	-29.9	-30.7	13.8	2.20e-06	0	44	0	390070272	21	3938
2026-01-20 08:00:07.01	48.12	16.94	-30.0	-30.8	13.7	8.30e-06	0	44	0	392167424	21	3969
2026-01-20 08:00:08.02	47.90	16.96	-30.0	-31.0	13.6	7.60e-06	0	44	0	394264576	21	4024
2026-01-20 08:00:09.02	47.68	16.98	-30.0	-30.9	13.7	4.50e-06	0	44	0	396361728	21	3984
2026-01-20 08:00:10.03	47.45	17.00	-29.9	-30.7	13.7	7.60e-06	0	44	0	397410304	21	3941
2026-01-20 08:00:11.03	47.23	17.02	-30.0	-30.9	13.6	9.10e-06	0	44	0	399507456	21	4003
2026-01-20 08:00:12.03	47.00	17.04	-30.3	-31.6	13.2	8.30e-06	0	44	0	401604608	21	4198
2026-01-20 08:00:13.04	46.78	17.06	-30.2	-31.5	13.2	2.13e-05	0	44	0	403701760	21	4183
2026-01-20 08:00:14.05	46.55	17.08	-30.3	-31.8	13.1	1.22e-05	0	44	0	405798912	21	4258
2026-01-20 08:00:15.05	46.33	17.09	-30.4	-32.2	12.8	3.43e-05	0	44	0	407896064	21	4415
2026-01-20 08:00:16.05	46.10	17.11	-30.5	-32.3	12.6	5.79e-05	0	44	0	408944640	21	4457
2026-01-20 08:00:17.04	45.88	17.13	-30.6	-32.7	12.4	1.06e-04	0	44	0	411041792	21	4589
2026-01-20 08:00:18.05	45.65	17.15	-30.8	-33.4	11.9	2.51e-04	0	44	0	413138944	21	4843
2026-01-20 08:00:19.05	45.43	17.16	-30.8	-33.3	12.0	3.74e-04	0	44	0	415236096	21	4818
2026-01-20 08:00:20.05	45.20	17.18	-31.0	-33.9	11.6	5.57e-04	0	44	0	416284672	21	5033
2026-01-20 08:00:21.05	44.97	17.19	-30.9	-33.5	11.8	4.64e-04	0	44	0	418381824	21	4892
2026-01-20 08:00:22.06	44.75	17.21	-30.9	-33.5	11.8	4.78e-04	0	44	0	420478976	21	4879
2026-01-20 08:00:23.06	44.52	17.22	-30.9	-33.7	11.7	5.67e-04	0	44	0	422576128	21	4954
2026-01-20 08:00:24.07	44.29	17.24	-31.0	-33.5	11.6	5.91e-04	0	44	0	424673280	22	4781
2026-01-20 08:00:25.06	44.07	17.25	-31.2	-34.0	11.2	1.08e-03	0	44	0	425721856	22	4981
2026-01-20 08:00:26.07	43.84	17.26	-30.9	-33.1	11.8	9.77e-04	0	44	0	427819008	22	4633
2026-01-20 08:00:27.07	43.61	17.28	-30.8	-32.7	12.1	2.57e-04	0	44	0	429916160	22	4483
2026-01-20 08:00:28.08	43.38	17.29	-30.5	-32.0	12.5	1.20e-04	0	44	0	432013312	22	4246
2026-01-20 08:00:29.08	43.15	17.30	-30.5	-31.9	12.6	1.38e-04	0	44	0	434110464	22	4229
2026-01-20 08:00:30.08	42.92	17.31	-30.5	-32.0	12.5	1.19e-04	0	44	0	435159040	22	4271
2026-01-20 08:00:31.09	42.69	17.32	-30.5	-32.0	12.6	1.02e-04	0	44	0	437256192	22	4271
2026-01-20 08:00:32.08	42.47	17.33	-30.6	-32.3	12.4	1.20e-04	0	44	0	439353344	22	4369
2026-01-20 08:00:33.09	42.24	17.34	-30.5	-31.8	12.7	7.62e-05	0	44	0	441450496	22	4206
2026-01-20 08:00:34.09	42.01	17.35	-30.4	-31.7	12.8	8.54e-05	0	44	0	443547648	22	4163
2026-01-20 08:00:35.10	41.78	17.36	-30.3	-31.2	13.1	4.34e-05	0	44	0	444596224	22	4024
2026-01-20 08:00:36.10	41.55	17.37	-30.3	-31.2	13.1	3.35e-05	0	44	0	446693376	22	4017
2026-01-20 08:00:37.10	41.32	17.38	-30.4	-31.4	13.0	3.66e-05	0	44	0	448790528	22	4076
2026-01-20 08:00:38.10	41.09	17.39	-30.2	-31.4	13.3	3.20e-05	0	44	0	450887680	21	4155
2026-01-20 08:00:39.10	40.86	17.39	-30.2	-31.4	13.3	2.05e-05	0	44	0	452984832	21	4142
2026-01-20 08:00:40.10	40.64	17.40	-30.2	-31.6	13.2	1.44e-05	0	44	0	454033408	21	4210
2026-01-20 08:00:41.11	40.40	17.41	-30.4	-32.0	12.8	2.82e-05	0	44	0	456130560	21	4344
2026-01-20 08:00:42.10	40.18	17.41	-30.4	-32.0	12.9	3.66e-05	0	44	0	458227712	21	4330
2026-01-20 08:00:43.10	39.95	17.42	-30.5	-32.3	12.7	5.11e-05	0	44	0	460324864	21	4427
2026-01-20 08:00:44.10	39.72	17.42	-30.7	-32.8	12.3	1.13e-04	0	44	0	461373440	21	4610
2026-01-20 08:00:45.11	39.49	17.43	-30.9	-33.5	11.8	3.10e-04	0	44	0	463470592	21	4880
2026-01-20 08:00:46.11	39.26	17.43	-30.7	-33.0	12.1	3.06e-04	0	44	0	465567744	21	4695
2026-01-20 08:00:47.12	39.03	17.43	-30.7	-32.9	12.2	2.34e-04	0	44	0	467664896	21	4653
2026-01-20 08:00:48.12	38.80	17.44	-30.6	-32.8	12.3	1.52e-04	0	44	0	469762048	21	4610
2026-01-20 08:00:49.12	38.57	17.44	-30.6	-32.6	12.4	1.50e-04	0	44	0	470810624	21	4561
2026-01-20 08:00:50.12	38.34	17.44	-30.5	-32.4	12.5	1.48e-04	0	44	0	472907776	21	4475
2026-01-20 08:00:51.13	38.10	17.44	-30.6	-32.5	12.4	1.28e-04	0	44	0	475004928	21	4525
2026-01-20 08:00:52.13	37.87	17.44	-30.4	-32.1	12.8	8.23e-05	0	44	0	477102080	21	4377
2026-01-20 08:00:53.14	37.64	17.44	-30.5	-32.3	12.7	6.48e-05	0	44	0	479199232	21	4436
2026-01-20 08:00:54.14	37.41	17.44	-30.6	-32.5	12.6	9.38e-05	0	44	0	480247808	21	4498
2026-01-20 08:00:55.15	37.18	17.44	-30.5	-32.2	12.7	5.95e-05	0	44	0	482344960	21	4400
2026-01-20 08:00:56.15	36.95	17.44	-30.5	-32.5	12.5	9.23e-05	0	44	0	484442112	21	4496
2026-01-20 08:00:57.14	36.72	17.44	-30.7	-32.9	12.3	1.10e-04	0	44	0	486539264	21	4637
2026-01-20 08:00:58.14	36.49	17.44	-30.8	-33.1	12.1	2.63e-04	0	44	0	488636416	21	4706
2026-01-20 08:00:59.14	36.26	17.44	-31.0	-33.4	11.6	4.24e-04	0	44	0	489684992	22	4723
2026-01-20 08:01:00.14	36.03	17.43	-31.1	-33.6	11.5	7.02e-04	0	44	0	491782144	22	4787
2026-01-20 08:01:01.14	35.81	17.43	-31.1	-33.6	11.4	1.11e-03	0	44	0	493879296	22	4796
2026-01-20 08:01:02.15	35.57	17.43	-31.1	-33.7	11.4	9.80e-04	0	44	0	495976448	22	4842
2026-01-20 08:01:03.15	35.34	17.42	-31.2	-33.9	11.2	1.25e-03	0	44	0	498073600	22	4907
2026-01-20 08:01:04.15	35.11	17.42	-31.2	-33.8	11.3	1.05e-03	0	44	0	499122176	22	4867
2026-01-20 08:01:05.16	34.88	17.41	-31.1	-33.5	11.5	6.56e-04	0	44	0	501219328	22	4746
2026-01-20 08:01:06.16	34.65	17.41	-31.0	-33.2	11.7	5.84e-04	0	44	0	503316480	22	4652
2026-01-20 08:01:07.17	34.42	17.40	-31.1	-33.5	11.6	6.96e-04	0	44	0	505413632	22	4748
2026-01-20 08:01:08.17	34.19	17.40	-30.7	-32.2	12.4	2.76e-04	0	44	0	506462208	22	4323
2026-01-20 08:01:09.17	33.96	17.39	-30.6	-32.1	12.5	1.33e-04	0	44	0	508559360	22	4262
2026-01-20 08:01:10.17	33.74	17.38	-30.5	-31.8	12.7	8.01e-05	0	44	0	510656512	22	4177
2026-01-20 08:01:11.18	33.50	17.37	-30.5	-31.8	12.7	6.48e-05	0	44	0	512753664	22	4173
2026-01-20 08:01:12.17	33.28	17.36	-30.5	-31.7	12.8	6.10e-05	0	44	0	514850816	22	4150
2026-01-20 08:01:13.18	33.05	17.36	-30.6	-32.0	12.5	1.02e-04	0	44	0	515899392	22	4251
2026-01-20 08:01:14.18	32.82	17.35	-30.4	-31.5	12.9	7.47e-05	0	44	0	517996544	22	4092
2026-01-20 08:01:15.18	32.59	17.34	-30.2	-31.4	13.3	2.36e-05	0	44	0	520093696	21	4148
2026-01-20 08:01:16.19	32.36	17.33	-30.1	-31.1	13.5	1.90e-05	0	44	0	522190848	21	4046
2026-01-20 08:01:17.18	32.14	17.32	-30.1	-31.3	13.3	9.90e-06	0	44	0	524288000	21	4114
2026-01-20 08:01:18.18	31.91	17.30	-30.1	-31.3	13.3	1.37e-05	0	44	0	525336576	21	4116
2026-01-20 08:01:19.18	31.68	17.29	-30.2	-31.5	13.2	1.75e-05	0	44	0	527433728	21	4172
2026-01-20 08:01:20.19	31.45	17.28	-30.3	-31.9	13.0	2.82e-05	0	44	0	529530880	21	4282
2026-01-20 08:01:21.20	31.22	17.27	-30.2	-31.3	13.3	1.90e-05	0	44	0	531628032	21	4112
2026-01-20 08:01:22.20	31.00	17.26	-30.1	-31.2	13.4	8.30e-06	0	44	0	533725184	21	4090
2026-01-20 08:01:23.21	30.77	17.24	-30.0	-30.9	13.6	8.30e-06	0	44	0	534773760	21	3988
2026-01-20 08:01:24.21	30.54	17.23	-29.8	-30.7	14.0	4.50e-06	0	44	0	536870912	20	4030
2026-01-20 08:01:25.22	30.31	17.21	-29.6	-30.2	14.4	0.00e+00	0	44	0	538968064	20	3876
2026-01-20 08:01:26.22	30.09	17.20	-29.6	-30.3	14.3	7.00e-07	0	44	0	541065216	20	3902
2026-01-20 08:01:27.22	29.86	17.18	-29.7	-30.6	14.1	7.00e-07	0	44	0	543162368	20	3994
2026-01-20 08:01:28.23	29.63	17.17	-29.6	-30.3	14.3	1.50e-06	0	44	0	544210944	20	3913
2026-01-20 08:01:29.23	29.41	17.15	-29.9	-31.1	13.8	3.80e-06	0	44	0	546308096	20	4116
2026-01-20 08:01:30.23	29.18	17.13	-29.7	-30.4	14.3	4.50e-06	0	44	0	548405248	20	3935
2026-01-20 08:01:31.24	28.95	17.12	-29.7	-30.6	14.2	7.00e-07	0	44	0	550502400	20	3979
2026-01-20 08:01:32.24	28.73	17.10	-29.8	-30.9	13.9	2.20e-06	0	44	0	552599552	20	4072
2026-01-20 08:01:33.24	28.51	17.08	-30.0	-31.2	13.8	3.80e-06	0	44	0	553648128	20	4162
2026-01-20 08:01:34.24	28.28	17.06	-30.0	-31.2	13.8	1.14e-05	0	44	0	555745280	20	4165
2026-01-20 08:01:35.24	28.06	17.04	-30.1	-31.5	13.5	9.90e-06	0	44	0	557842432	20	4251
2026-01-20 08:01:36.25	27.83	17.03	-30.3	-32.1	13.2	1.67e-05	0	44	0	559939584	20	4445
2026-01-20 08:01:37.25	27.61	17.01	-30.2	-31.9	13.3	1.83e-05	0	44	0	560988160	20	4370
2026-01-20 08:01:38.25	27.39	16.99	-30.3	-32.1	13.2	2.67e-05	0	44	0	563085312	20	4436
2026-01-20 08:01:39.25	27.16	16.97	-30.1	-31.7	13.5	1.83e-05	0	44	0	565182464	20	4322
2026-01-20 08:01:40.25	26.94	16.94	-30.2	-31.9	13.3	2.51e-05	0	44	0	567279616	20	4363
2026-01-20 08:01:41.26	26.72	16.92	-30.2	-32.0	13.2	1.67e-05	0	44	0	569376768	20	4417
2026-01-20 08:01:42.26	26.50	16.90	-30.4	-32.0	13.0	4.88e-05	0	44	0	570425344	21	4306
2026-01-20 08:01:43.25	26.28	16.88	-30.2	-31.5	13.2	2.89e-05	0	44	0	572522496	21	4156
2026-01-20 08:01:44.25	26.06	16.86	-30.0	-31.0	13.6	6.10e-06	0	44	0	574619648	21	4005
2026-01-20 08:01:45.25	25.84	16.83	-30.0	-31.0	13.6	7.60e-06	0	44	0	576716800	21	4009
2026-01-20 08:01:46.25	25.62	16.81	-30.1	-31.1	13.5	1.14e-05	0	44	0	578813952	21	4049
2026-01-20 08:01:47.25	25.40	16.79	-30.1	-31.1	13.5	1.29e-05	0	44	0	579862528	21	4030
2026-01-20 08:01:48.25	25.18	16.76	-30.3	-31.7	13.2	1.67e-05	0	44	0	581959680	21	4218
2026-01-20 08:01:49.25	24.96	16.74	-30.4	-32.0	12.9	4.73e-05	0	44	0	584056832	21	4311
2026-01-20 08:01:50.26	24.74	16.71	-30.4	-31.9	13.0	4.19e-05	0	44	0	586153984	21	4279
2026-01-20 08:01:51.26	24.52	16.69	-30.3	-31.7	13.1	2.97e-05	0	44	0	588251136	21	4230
2026-01-20 08:01:52.26	24.30	16.66	-30.4	-31.9	12.9	3.12e-05	0	44	0	589299712	21	4287
2026-01-20 08:01:53.27	24.08	16.63	-30.5	-32.1	12.8	5.18e-05	0	44	0	591396864	21	4358
2026-01-20 08:01:54.27	23.86	16.61	-30.2	-31.4	13.3	3.89e-05	0	44	0	593494016	21	4122
2026-01-20 08:01:55.27	23.65	16.58	-30.4	-32.0	12.9	2.51e-05	0	44	0	595591168	21	4307
2026-01-20 08:01:56.27	23.43	16.55	-30.5	-32.3	12.7	6.48e-05	0	44	0	596639744	21	4412
2026-01-20 08:01:57.28	23.21	16.53	-30.5	-32.1	12.9	6.33e-05	0	44	0	598736896	21	4364
2026-01-20 08:01:58.28	23.00	16.50	-30.5	-32.3	12.7	6.25e-05	0	44	0	600834048	21	4424
2026-01-20 08:01:59.27	22.78	16.47	-30.3	-31.8	13.0	5.72e-05	0	44	0	602931200	21	4253
2026-01-20 08:02:00.28	22.57	16.44	-30.6	-32.5	12.5	1.18e-04	0	44	0	605028352	21	4504
2026-01-20 08:02:01.28	22.35	16.41	-30.6	-32.7	12.4	1.59e-04	0	44	0	606076928	21	4541
2026-01-20 08:02:02.27	22.14	16.38	-30.8	-33.3	11.9	1.82e-04	0	44	0	608174080	21	4778
2026-01-20 08:02:03.28	21.93	16.35	-30.9	-33.6	11.8	5.01e-04	0	44	0	610271232	21	4891
2026-01-20 08:02:04.28	21.71	16.32	-30.9	-33.6	11.8	3.84e-04	0	44	0	612368384	21	4869
2026-01-20 08:02:05.28	21.50	16.29	-30.9	-33.6	11.8	4.15e-04	0	44	0	614465536	21	4879
2026-01-20 08:02:06.29	21.29	16.26	-30.9	-33.0	11.9	7.81e-04	0	44	0	615514112	22	4566
2026-01-20 08:02:07.29	21.07	16.23	-30.9	-33.0	11.9	5.13e-04	0	44	0	617611264	22	4563
2026-01-20 08:02:08.28	20.87	16.19	-30.8	-32.7	12.1	2.89e-04	0	44	0	619708416	22	4470
2026-01-20 08:02:09.28	20.65	16.16	-31.0	-33.2	11.8	4.29e-04	0	44	0	621805568	22	4621
2026-01-20 08:02:10.28	20.44	16.13	-31.0	-33.3	11.7	6.23e-04	0	44	0	623902720	22	4656
2026-01-20 08:02:11.28	20.23	16.10	-30.8	-32.6	12.2	4.75e-04	0	44	0	624951296	22	4439
2026-01-20 08:02:12.28	20.02	16.06	-30.7	-32.2	12.4	2.15e-04	0	44	0	627048448	22	4306
2026-01-20 08:02:13.28	19.82	16.03	-30.6	-32.0	12.5	1.30e-04	0	44	0	629145600	22	4238
2026-01-20 08:02:14.29	19.61	16.00	-30.5	-31.8	12.6	1.11e-04	0	44	0	631242752	22	4194
2026-01-20 08:02:15.29	19.40	15.96	-30.7	-32.5	12.2	1.44e-04	0	44	0	633339904	22	4395
2026-01-20 08:02:16.29	19.19	15.93	-30.5	-31.8	12.6	1.02e-04	0	44	0	634388480	22	4193
2026-01-20 08:02:17.29	18.98	15.89	-30.5	-31.7	12.7	6.25e-05	0	44	0	636485632	22	4145
2026-01-20 08:02:18.29	18.78	15.86	-30.6	-32.0	12.6	8.77e-05	0	44	0	638582784	22	4235
2026-01-20 08:02:19.29	18.57	15.82	-30.5	-31.9	12.6	7.55e-05	0	44	0	640679936	22	4214
2026-01-20 08:02:20.29	18.37	15.79	-30.3	-31.2	13.1	5.11e-05	0	44	0	641728512	22	4011
2026-01-20 08:02:21.30	18.16	15.75	-30.1	-31.3	13.3	3.66e-05	0	44	0	643825664	21	4118
2026-01-20 08:02:22.30	17.95	15.71	-29.8	-30.5	13.8	1.37e-05	0	44	0	645922816	21	3876
2026-01-20 08:02:23.30	17.75	15.68	-29.8	-30.8	13.9	7.00e-07	0	44	0	648019968	20	4061
2026-01-20 08:02:24.30	17.55	15.64	-29.7	-30.5	14.1	3.00e-06	0	44	0	650117120	20	3960
2026-01-20 08:02:25.30	17.34	15.60	-29.8	-30.8	13.9	2.20e-06	0	44	0	651165696	20	4054
2026-01-20 08:02:26.30	17.14	15.56	-29.7	-30.5	14.1	7.00e-07	0	44	0	653262848	20	3976
2026-01-20 08:02:27.31	16.94	15.52	-29.8	-30.9	13.8	3.80e-06	0	44	0	655360000	20	4080
2026-01-20 08:02:28.30	16.74	15.49	-29.9	-31.1	13.8	8.30e-06	0	44	0	657457152	20	4137
2026-01-20 08:02:29.30	16.54	15.45	-29.9	-31.3	13.6	3.00e-06	0	44	0	659554304	20	4192
2026-01-20 08:02:30.30	16.34	15.41	-30.0	-31.3	13.6	1.22e-05	0	44	0	660602880	20	4206
2026-01-20 08:02:31.31	16.14	15.37	-30.0	-31.4	13.5	7.60e-06	0	44	0	662700032	20	4242
2026-01-20 08:02:32.31	15.94	15.33	-30.1	-31.8	13.3	2.59e-05	0	44	0	664797184	20	4353
2026-01-20 08:02:33.31	15.74	15.29	-30.4	-32.5	12.8	4.95e-05	0	44	0	666894336	20	4590
2026-01-20 08:02:34.31	15.54	15.25	-30.7	-32.9	12.2	1.44e-04	0	44	0	668991488	21	4631
2026-01-20 08:02:35.31	15.34	15.21	-30.9	-33.6	11.7	4.08e-04	0	44	0	670040064	21	4901
2026-01-20 08:02:36.31	15.14	15.17	-30.9	-33.4	11.8	5.19e-04	0	44	0	672137216	21	4835
2026-01-20 08:02:37.30	14.95	15.13	-30.9	-33.6	11.6	6.79e-04	0	44	0	674234368	21	4881
2026-01-20 08:02:38.30	14.75	15.09	-30.8	-33.4	11.8	5.57e-04	0	44	0	676331520	21	4812
2026-01-20 08:02:39.30	14.56	15.05	-30.8	-33.1	12.0	3.53e-04	0	44	0	677380096	21	4727
2026-01-20 08:02:40.31	14.36	15.00	-30.7	-33.1	12.0	2.68e-04	0	44	0	679477248	21	4707
2026-01-20 08:02:41.31	14.17	14.96	-30.7	-33.1	12.0	3.73e-04	0	44	0	681574400	21	4702
2026-01-20 08:02:42.31	13.97	14.92	-30.7	-32.8	12.1	2.66e-04	0	44	0	683671552	21	4625
2026-01-20 08:02:43.32	13.78	14.88	-30.8	-33.1	12.0	3.31e-04	0	44	0	685768704	21	4727
2026-01-20 08:02:44.32	13.59	14.83	-30.8	-33.2	11.9	3.97e-04	0	44	0	686817280	21	4764
2026-01-20 08:02:45.33	13.39	14.79	-30.9	-33.7	11.6	4.13e-04	0	44	0	688914432	21	4926
2026-01-20 08:02:46.33	13.20	14.75	-31.0	-33.2	11.5	5.66e-04	0	44	0	691011584	22	4666
2026-01-20 08:02:47.33	13.01	14.70	-30.9	-32.9	11.8	5.02e-04	0	44	0	693108736	22	4562
2026-01-20 08:02:48.33	12.82	14.66	-30.9	-33.0	11.9	4.50e-04	0	44	0	695205888	22	4574
2026-01-20 08:02:49.33	12.63	14.62	-30.9	-32.9	11.8	5.61e-04	0	44	0	696254464	22	4559
2026-01-20 08:02:50.34	12.44	14.57	-30.7	-32.4	12.1	3.44e-04	0	44	0	698351616	22	4382
2026-01-20 08:02:51.34	12.25	14.53	-30.6	-32.1	12.3	2.42e-04	0	44	0	700448768	22	4267
2026-01-20 08:02:52.35	12.06	14.48	-30.6	-32.2	12.3	1.23e-04	0	44	0	702545920	22	4311
2026-01-20 08:02:53.35	11.87	14.44	-30.7	-32.5	12.1	1.78e-04	0	44	0	704643072	22	4404
2026-01-20 08:02:54.35	11.69	14.39	-30.4	-31.6	12.6	9.84e-05	0	44	0	705691648	22	4139
2026-01-20 08:02:55.35	11.50	14.35	-30.4	-31.6	12.6	8.69e-05	0	44	0	707788800	22	4130
2026-01-20 08:02:56.36	11.31	14.30	-30.4	-31.6	12.6	8.69e-05	0	44	0	709885952	22	4140
2026-01-20 08:02:57.36	11.13	14.26	-30.5	-31.8	12.5	1.06e-04	0	44	0	711983104	22	4195
2026-01-20 08:02:58.36	10.94	14.21	-30.5	-31.8	12.5	6.71e-05	0	44	0	714080256	22	4194
2026-01-20 08:02:59.36	10.76	14.16	-30.4	-31.4	12.7	9.68e-05	0	44	0	715128832	22	4084
2026-01-20 08:03:00.37	10.57	14.12	-30.1	-31.3	13.2	3.66e-05	0	44	0	717225984	21	4132
2026-01-20 08:03:01.38	10.39	14.07	-30.1	-31.4	13.1	3.96e-05	0	44	0	719323136	21	4148
2026-01-20 08:03:02.38	10.21	14.02	-30.3	-31.8	12.8	3.89e-05	0	44	0	721420288	21	4284
2026-01-20 08:03:03.39	10.02	13.97	-30.5	-32.4	12.4	8.62e-05	0	44	0	723517440	21	4459
2026-01-20 08:03:04.39	9.84	13.93	-30.5	-32.4	12.4	1.11e-04	0	44	0	724566016	21	4487
2026-01-20 08:03:05.39	9.66	13.88	-30.7	-32.9	12.0	2.56e-04	0	44	0	726663168	21	4656
2026-01-20 08:03:06.40	9.48	13.83	-30.7	-32.8	12.2	2.68e-04	0	44	0	728760320	21	4624
2026-01-20 08:03:07.40	9.30	13.78	-30.6	-32.8	12.1	2.27e-04	0	44	0	730857472	21	4608
2026-01-20 08:03:08.40	9.12	13.74	-30.6	-32.7	12.2	2.72e-04	0	44	0	731906048	21	4566
2026-01-20 08:03:09.40	8.94	13.69	-30.6	-32.6	12.3	1.31e-04	0	44	0	734003200	21	4545
2026-01-20 08:03:10.40	8.77	13.64	-30.4	-32.1	12.6	1.43e-04	0	44	0	736100352	21	4379
2026-01-20 08:03:11.40	8.59	13.59	-30.5	-32.3	12.5	1.24e-04	0	44	0	738197504	21	4443
2026-01-20 08:03:12.41	8.41	13.54	-30.6	-32.6	12.3	2.01e-04	0	44	0	740294656	21	4544
2026-01-20 08:03:13.41	8.24	13.49	-30.7	-32.9	12.1	1.72e-04	0	44	0	741343232	21	4639
2026-01-20 08:03:14.41	8.06	13.44	-31.0	-33.3	11.5	6.76e-04	0	44	0	743440384	22	4714
2026-01-20 08:03:15.41	7.89	13.40	-31.1	-33.6	11.3	7.29e-04	0	44	0	745537536	22	4802
2026-01-20 08:03:16.41	7.71	13.35	-31.3	-34.3	10.7	2.21e-03	0	44	0	747634688	22	5088
2026-01-20 08:03:17.42	7.54	13.30	-31.5	-34.9	10.3	3.56e-03	0	44	0	749731840	22	5350
2026-01-20 08:03:18.42	7.37	13.25	-31.7	-35.3	9.6	9.75e-03	0	44	0	750780416	23	5452
2026-01-20 08:03:19.42	7.19	13.20	-31.9	-36.0	9.0	2.26e-02	0	44	0	752877568	23	5806
2026-01-20 08:03:20.42	7.02	13.15	-32.0	-36.1	8.6	2.55e-02	0	44	0	754974720	24	5763
2026-01-20 08:03:21.42	6.85	13.10	-32.1	-36.3	8.4	4.85e-02	0	44	0	757071872	24	5840
2026-01-20 08:03:22.43	6.68	13.05	-31.9	-35.8	8.8	4.20e-02	0	44	0	759169024	24	5588
2026-01-20 08:03:23.44	6.51	12.99	-31.8	-35.2	9.2	3.36e-02	0	44	0	760217600	24	5339
2026-01-20 08:03:24.44	6.34	12.94	-31.8	-35.1	9.3	1.68e-02	0	44	0	762314752	24	5284
2026-01-20 08:03:25.44	6.17	12.89	-31.7	-34.8	9.6	1.61e-02	0	44	0	764411904	24	5128
2026-01-20 08:03:26.44	6.00	12.84	-31.6	-34.5	9.8	1.08e-02	0	44	0	766509056	24	5019
2026-01-20 08:03:27.44	5.83	12.79	-31.7	-34.8	9.7	9.44e-03	0	44	0	768606208	24	5114
2026-01-20 08:03:28.44	5.67	12.74	-31.7	-34.7	9.7	1.38e-02	0	44	0	769654784	24	5095
2026-01-20 08:03:29.43	5.50	12.69	-31.5	-34.1	10.0	7.99e-03	0	44	0	771751936	24	4864
2026-01-20 08:03:30.44	5.34	12.64	-31.4	-33.9	10.3	6.73e-03	0	44	0	773849088	24	4751
2026-01-20 08:03:31.44	5.17	12.59	-31.3	-33.5	10.5	4.06e-03	0	44	0	775946240	24	4619
2026-01-20 08:03:32.44	5.01	12.54	-31.3	-33.9	10.6	2.66e-03	0	44	0	776994816	23	4853
2026-01-20 08:03:33.44	4.84	12.48	-31.2	-33.4	11.0	2.35e-03	0	44	0	779091968	23	4672
2026-01-20 08:03:34.45	4.68	12.43	-31.1	-33.1	11.2	1.35e-03	0	44	0	781189120	23	4554
2026-01-20 08:03:35.44	4.52	12.38	-31.0	-33.0	11.3	1.38e-03	0	44	0	783286272	23	4527
2026-01-20 08:03:36.45	4.35	12.33	-31.2	-33.4	11.0	1.60e-03	0	44	0	785383424	23	4656
2026-01-20 08:03:37.45	4.19	12.27	-31.3	-33.9	10.8	1.78e-03	0	44	0	786432000	23	4830
2026-01-20 08:03:38.45	4.03	12.22	-31.4	-34.2	10.4	4.44e-03	0	44	0	788529152	23	4964
2026-01-20 08:03:39.46	3.87	12.17	-31.2	-33.7	10.8	3.26e-03	0	44	0	790626304	23	4751
2026-01-20 08:03:40.46	3.71	12.12	-31.2	-33.6	10.8	2.81e-03	0	44	0	792723456	23	4742
2026-01-20 08:03:41.46	3.55	12.06	-31.1	-33.3	11.1	2.03e-03	0	44	0	794820608	23	4615
2026-01-20 08:03:42.46	3.39	12.01	-31.0	-33.0	11.3	1.21e-03	0	44	0	795869184	23	4503
2026-01-20 08:03:43.47	3.23	11.96	-31.0	-32.9	11.4	9.53e-04	0	44	0	797966336	23	4465
2026-01-20 08:03:44.47	3.07	11.91	-31.0	-32.9	11.4	9.73e-04	0	44	0	800063488	23	4471
2026-01-20 08:03:45.48	2.92	11.85	-31.1	-33.2	11.2	1.27e-03	0	44	0	802160640	23	4573
2026-01-20 08:03:46.48	2.76	11.80	-31.1	-33.1	11.2	1.14e-03	0	44	0	804257792	23	4549
2026-01-20 08:03:47.49	2.60	11.74	-31.1	-33.2	11.2	1.74e-03	0	44	0	805306368	23	4568
2026-01-20 08:03:48.49	2.45	11.69	-31.0	-32.9	11.4	1.17e-03	0	44	0	807403520	23	4462
2026-01-20 08:03:49.50	2.29	11.64	-30.9	-32.7	11.4	1.16e-03	0	44	0	809500672	23	4418
2026-01-20 08:03:50.50	2.14	11.58	-31.0	-33.0	11.2	1.01e-03	0	44	0	811597824	23	4523
2026-01-20 08:03:51.51	1.98	11.53	-31.0	-32.9	11.2	1.14e-03	0	44	0	813694976	23	4486
2026-01-20 08:03:52.51	1.83	11.48	-30.9	-32.6	11.6	8.90e-04	0	44	0	814743552	23	4375
2026-01-20 08:03:53.51	1.68	11.42	-30.8	-32.9	11.6	5.68e-04	0	44	0	816840704	22	4553
2026-01-20 08:03:54.52	1.52	11.37	-30.8	-32.9	11.6	5.61e-04	0	44	0	818937856	22	4585
2026-01-20 08:03:55.52	1.37	11.31	-30.9	-33.2	11.4	9.99e-04	0	44	0	821035008	22	4667
2026-01-20 08:03:56.53	1.22	11.26	-31.0	-33.4	11.2	1.24e-03	0	44	0	822083584	22	4772
2026-01-20 08:03:57.53	1.07	11.21	-31.0	-33.6	11.2	1.61e-03	0	44	0	824180736	22	4816
2026-01-20 08:03:58.53	0.92	11.15	-31.0	-33.6	11.2	1.86e-03	0	44	0	826277888	22	4816
2026-01-20 08:03:59.53	0.77	11.10	-31.0	-33.6	11.2	1.58e-03	0	44	0	828375040	22	4808
2026-01-20 08:04:00.54	0.62	11.04	-31.1	-33.6	11.1	1.69e-03	0	44	0	830472192	22	4821
2026-01-20 08:04:01.54	0.48	10.99	-31.1	-33.6	11.1	1.55e-03	0	44	0	832569344	22	4845
2026-01-20 08:04:02.55	0.33	10.93	-31.0	-33.4	11.3	1.20e-03	0	44	0	833617920	22	4741
2026-01-20 08:04:03.55	0.18	10.88	-30.9	-33.1	11.4	9.79e-04	0	44	0	835715072	22	4660
2026-01-20 08:04:04.54	0.04	10.82	-30.8	-32.8	11.6	7.95e-04	0	44	0	837812224	22	4522
2026-01-20 08:04:05.54	359.89	10.77	-30.7	-32.6	11.9	5.39e-04	0	44	0	839909376	22	4453
2026-01-20 08:04:06.55	359.74	10.71	-30.8	-32.7	11.7	5.15e-04	0	44	0	840957952	22	4519
2026-01-20 08:04:07.56	359.60	10.66	-30.7	-32.5	11.9	5.82e-04	0	44	0	843055104	22	4438
2026-01-20 08:04:08.56	359.45	10.60	-30.4	-31.6	12.5	1.50e-04	0	44	0	845152256	22	4128
2026-01-20 08:04:09.57	359.31	10.55	-30.2	-31.5	12.8	7.32e-05	0	44	0	847249408	21	4206
2026-01-20 08:04:10.57	359.17	10.49	-30.0	-31.1	13.1	3.96e-05	0	44	0	849346560	21	4086
2026-01-20 08:04:11.58	359.02	10.44	-30.0	-31.1	13.2	3.12e-05	0	44	0	850395136	21	4068
2026-01-20 08:04:12.58	358.88	10.38	-30.1	-31.4	13.0	2.36e-05	0	44	0	852492288	21	4158
2026-01-20 08:04:13.59	358.74	10.33	-30.0	-31.1	13.1	4.11e-05	0	44	0	854589440	21	4086
2026-01-20 08:04:14.59	358.60	10.27	-30.0	-31.0	13.2	2.67e-05	0	44	0	856686592	21	4032
2026-01-20 08:04:15.60	358.46	10.22	-30.0	-31.0	13.1	1.60e-05	0	44	0	858783744	21	4056
2026-01-20 08:04:16.60	358.32	10.16	-30.2	-31.6	12.7	5.11e-05	0	44	0	859832320	21	4235
2026-01-20 08:04:17.60	358.18	10.11	-30.2	-31.7	12.7	6.25e-05	0	44	0	861929472	21	4272
2026-01-20 08:04:18.60	358.04	10.05	-30.4	-32.3	12.3	1.89e-04	0	44	0	864026624	21	4463
2026-01-20 08:04:19.60	357.90	10.00	-30.5	-32.4	12.2	2.52e-04	0	44	0	866123776	21	4494
2026-01-20 08:04:20.60	357.77	9.94	-30.6	-32.8	12.0	2.46e-04	0	44	0	868220928	21	4627
2026-01-20 08:04:21.61	357.63	9.89	-30.6	-32.7	12.0	3.83e-04	0	44	0	869269504	21	4594
2026-01-20 08:04:22.61	357.49	9.83	-30.5	-32.6	12.1	2.62e-04	0	44	0	871366656	21	4557
2026-01-20 08:04:23.62	357.36	9.77	-30.5	-32.4	12.2	2.17e-04	0	44	0	873463808	21	4510
2026-01-20 08:04:24.62	357.22	9.72	-30.4	-32.1	12.4	1.54e-04	0	44	0	875560960	21	4406
2026-01-20 08:04:25.63	357.08	9.66	-30.4	-32.1	12.4	1.75e-04	0	44	0	877658112	21	4397
2026-01-20 08:04:26.64	356.95	9.61	-30.2	-31.5	12.7	1.04e-04	0	44	0	878706688	21	4209
2026-01-20 08:04:27.63	356.82	9.55	-30.2	-31.5	12.8	7.55e-05	0	44	0	880803840	21	4203
2026-01-20 08:04:28.63	356.68	9.50	-30.2	-31.7	12.7	7.55e-05	0	44	0	882900992	21	4269
2026-01-20 08:04:29.63	356.55	9.44	-30.2	-31.7	12.6	9.46e-05	0	44	0	884998144	21	4266
2026-01-20 08:04:30.63	356.42	9.39	-30.3	-31.8	12.6	5.64e-05	0	44	0	887095296	21	4283
2026-01-20 08:04:31.64	356.29	9.33	-30.4	-32.2	12.3	1.06e-04	0	44	0	888143872	21	4441
2026-01-20 08:04:32.64	356.16	9.27	-30.4	-32.1	12.4	2.09e-04	0	44	0	890241024	21	4397
2026-01-20 08:04:33.65	356.02	9.22	-30.4	-32.2	12.3	1.87e-04	0	44	0	892338176	21	4438
2026-01-20 08:04:34.63	355.90	9.16	-30.6	-32.7	11.9	2.40e-04	0	44	0	894435328	21	4612
2026-01-20 08:04:35.64	355.77	9.11	-30.5	-32.6	12.0	5.12e-04	0	44	0	895483904	21	4563
2026-01-20 08:04:36.64	355.64	9.05	-30.5	-32.6	12.1	2.52e-04	0	44	0	897581056	21	4558
2026-01-20 08:04:37.64	355.51	9.00	-30.6	-32.9	11.8	6.34e-04	0	44	0	899678208	21	4696
2026-01-20 08:04:38.65	355.38	8.94	-30.6	-32.8	11.8	5.29e-04	0	44	0	901775360	21	4649
2026-01-20 08:04:39.65	355.25	8.88	-30.7	-33.1	11.7	8.50e-04	0	44	0	903872512	21	4744
2026-01-20 08:04:40.66	355.12	8.83	-30.8	-33.4	11.4	6.87e-04	0	44	0	904921088	21	4877
2026-01-20 08:04:41.65	355.00	8.77	-30.9	-33.6	11.2	1.06e-03	0	44	0	907018240	21	4950
2026-01-20 08:04:42.66	354.87	8.72	-30.7	-33.2	11.6	7.68e-04	0	44	0	909115392	21	4803
2026-01-20 08:04:43.66	354.75	8.66	-30.9	-33.7	11.2	1.38e-03	0	44	0	911212544	21	4972
2026-01-20 08:04:44.66	354.62	8.60	-30.9	-33.6	11.2	1.46e-03	0	44	0	913309696	21	4951
2026-01-20 08:04:45.66	354.50	8.55	-30.9	-33.7	11.2	1.03e-03	0	44	0	914358272	21	5005
2026-01-20 08:04:46.66	354.37	8.49	-30.8	-33.4	11.4	1.11e-03	0	44	0	916455424	21	4880
2026-01-20 08:04:47.67	354.25	8.44	-30.7	-33.1	11.6	1.23e-03	0	44	0	918552576	21	4763
2026-01-20 08:04:48.67	354.13	8.38	-30.6	-32.9	11.7	8.96e-04	0	44	0	920649728	21	4697
2026-01-20 08:04:49.67	354.00	8.32	-30.7	-33.2	11.5	6.17e-04	0	44	0	922746880	21	4792
2026-01-20 08:04:50.66	353.88	8.27	-30.7	-33.3	11.4	9.73e-04	0	44	0	923795456	21	4820
2026-01-20 08:04:51.66	353.76	8.21	-30.4	-32.2	12.1	4.61e-04	0	44	0	925892608	21	4441
2026-01-20 08:04:52.67	353.64	8.16	-30.4	-32.2	12.1	2.45e-04	0	44	0	927989760	21	4455
2026-01-20 08:04:53.68	353.52	8.10	-30.4	-32.4	12.1	4.82e-04	0	44	0	930086912	21	4516
2026-01-20 08:04:54.68	353.40	8.04	-30.1	-31.5	12.6	2.24e-04	0	44	0	931135488	21	4215
2026-01-20 08:04:55.68	353.28	7.99	-30.3	-32.1	12.3	1.11e-04	0	44	0	933232640	21	4396
2026-01-20 08:04:56.69	353.16	7.93	-30.4	-32.3	12.1	1.65e-04	0	44	0	935329792	21	4486
2026-01-20 08:04:57.70	353.04	7.88	-30.3	-32.1	12.2	2.74e-04	0	44	0	937426944	21	4413
2026-01-20 08:04:58.71	352.92	7.82	-30.4	-32.3	12.1	2.89e-04	0	44	0	939524096	21	4493
2026-01-20 08:04:59.70	352.80	7.76	-30.4	-32.4	12.0	3.31e-04	0	44	0	940572672	21	4528
2026-01-20 08:05:00.71	352.68	7.71	-30.6	-33.0	11.5	3.91e-04	0	44	0	942669824	21	4752
2026-01-20 08:05:01.70	352.57	7.65	-30.7	-33.3	11.3	7.55e-04	0	44	0	944766976	21	4855
2026-01-20 08:05:02.71	352.45	7.60	-30.8	-33.5	11.1	1.53e-03	0	44	0	946864128	21	4936
2026-01-20 08:05:03.70	352.33	7.54	-30.7	-33.3	11.3	1.61e-03	0	44	0	948961280	21	4845
2026-01-20 08:05:04.71	352.22	7.49	-30.9	-33.9	10.9	1.74e-03	0	44	0	950009856	21	5071
2026-01-20 08:05:05.71	352.10	7.43	-30.8	-33.6	11.0	2.27e-03	0	44	0	952107008	21	4976
2026-01-20 08:05:06.71	351.99	7.37	-30.8	-33.7	11.0	1.75e-03	0	44	0	954204160	21	5005
2026-01-20 08:05:07.71	351.87	7.32	-30.8	-33.7	11.0	1.31e-03	0	44	0	956301312	21	4993
2026-01-20 08:05:08.72	351.76	7.26	-30.6	-32.9	11.6	1.25e-03	0	44	0	958398464	21	4706
2026-01-20 08:05:09.72	351.65	7.21	-30.5	-32.7	11.7	6.73e-04	0	44	0	959447040	21	4620
2026-01-20 08:05:10.72	351.53	7.15	-30.5	-32.7	11.7	5.09e-04	0	44	0	961544192	21	4614
2026-01-20 08:05:11.72	351.42	7.09	-30.5	-32.6	11.8	3.86e-04	0	44	0	963641344	21	4607
2026-01-20 08:05:12.72	351.31	7.04	-33.3	-45.4	3.8	1.10e-03	0	44	104	964689920	26	14426
2026-01-20 08:05:13.73	351.20	6.98	-33.6	-45.6	3.8	1.49e+00	0	44	104	964689920	27	14427
2026-01-20 08:05:14.74	351.09	6.93	-33.8	-46.4	3.8	1.49e+00	0	44	104	964689920	27	15353

#Closed at: 2026-01-20 08:05:15
#Recorded file [964 MB]: D:/data/31010_260120_105637.dat