passes_logs/2026/01/20/R2M6_AANII_01/R2M6_AANII_01__20260120_095438_NOAA_20_JPSS-1_rec.log

#Pass ID: 20260120_095438_NOAA 20 (JPSS-1)
#Satellite: NOAA 20 (JPSS-1)
#Configuration: NOAA 20
#almurnet v.1.7.20240730
#Start time: 2026-01-20 09:54:39

#Version: 2.2.20231116
#Station: R2M6_AANII_01
#Location: 30.233357 lon 59.946436 lat
#TLE: 1 43013U 17073A   26019.55911981  .00000079  00000+0  58510-4 0  9994
#TLE: 2 43013  98.7641 320.4504 0001323  32.6518 327.4739 14.19537050423380

#Time	Az	El	Level	Level2	SNR	BER	BlckErr	Temp	State	Recorded	gain1	gain2
2026-01-20 09:54:39.50	147.40	7.11	-30.9	-37.0	5.2	1.25e+00	0	41	0	0	22	7286
2026-01-20 09:54:40.50	147.38	7.19	-31.1	-37.1	5.1	1.28e+00	0	41	104	0	23	7219
2026-01-20 09:54:41.51	147.36	7.27	-31.1	-36.9	8.3	4.01e-02	0	41	0	0	23	7066
2026-01-20 09:54:42.51	147.34	7.35	-31.0	-36.7	8.5	4.87e-02	0	42	0	1048576	23	6914
2026-01-20 09:54:43.51	147.32	7.42	-30.8	-35.8	9.2	2.31e-02	0	42	0	3145728	23	6408
2026-01-20 09:54:44.51	147.31	7.50	-30.8	-36.1	9.5	1.93e-02	0	42	0	5242880	22	6613
2026-01-20 09:54:45.51	147.29	7.58	-30.6	-35.5	9.9	1.03e-02	0	42	0	7340032	22	6294
2026-01-20 09:54:46.52	147.27	7.66	-30.7	-35.6	9.8	1.12e-02	0	42	0	9437184	22	6385
2026-01-20 09:54:47.53	147.25	7.74	-30.6	-35.4	10.0	1.08e-02	0	42	0	10485760	22	6234
2026-01-20 09:54:48.53	147.23	7.82	-30.5	-35.0	10.3	5.63e-03	0	42	0	12582912	22	6017
2026-01-20 09:54:49.54	147.21	7.90	-30.4	-34.5	10.7	3.29e-03	0	42	0	14680064	22	5789
2026-01-20 09:54:50.54	147.19	7.98	-30.3	-34.0	11.2	1.95e-03	0	42	0	16777216	22	5527
2026-01-20 09:54:51.54	147.17	8.06	-30.2	-34.2	11.3	1.57e-03	0	42	0	17825792	21	5709
2026-01-20 09:54:52.55	147.15	8.14	-30.2	-34.0	11.6	7.37e-04	0	42	0	19922944	21	5577
2026-01-20 09:54:53.55	147.13	8.22	-30.4	-34.6	11.2	1.02e-03	0	42	0	22020096	21	5842
2026-01-20 09:54:54.56	147.11	8.30	-30.2	-34.1	11.5	1.09e-03	0	42	0	24117248	21	5610
2026-01-20 09:54:55.55	147.09	8.38	-30.3	-34.2	11.6	8.05e-04	0	42	0	26214400	21	5625
2026-01-20 09:54:56.56	147.07	8.47	-30.4	-34.2	11.6	6.18e-04	0	42	0	28311552	21	5632
2026-01-20 09:54:57.55	147.05	8.55	-30.4	-34.2	11.6	7.70e-04	0	42	0	29360128	21	5605
2026-01-20 09:54:58.55	147.03	8.63	-30.4	-34.2	11.6	6.56e-04	0	42	0	31457280	21	5589
2026-01-20 09:54:59.56	147.01	8.71	-30.4	-34.1	11.8	5.90e-04	0	42	0	33554432	21	5510
2026-01-20 09:55:00.55	146.99	8.79	-30.3	-33.8	12.0	4.00e-04	0	42	0	35651584	21	5389
2026-01-20 09:55:01.55	146.97	8.88	-30.5	-34.5	11.5	5.78e-04	0	42	0	36700160	21	5698
2026-01-20 09:55:02.56	146.95	8.96	-30.4	-34.2	11.7	5.01e-04	0	42	0	38797312	21	5551
2026-01-20 09:55:03.56	146.93	9.04	-30.4	-34.0	11.9	5.31e-04	0	42	0	40894464	21	5460
2026-01-20 09:55:04.57	146.91	9.13	-30.4	-33.9	12.0	3.26e-04	0	42	0	42991616	21	5434
2026-01-20 09:55:05.57	146.89	9.21	-30.3	-33.8	12.1	2.77e-04	0	42	0	45088768	21	5387
2026-01-20 09:55:06.57	146.87	9.30	-30.3	-33.7	12.1	2.49e-04	0	42	0	46137344	21	5332
2026-01-20 09:55:07.57	146.85	9.38	-30.2	-33.5	12.2	2.58e-04	0	43	0	48234496	21	5263
2026-01-20 09:55:08.57	146.83	9.47	-30.3	-33.8	12.1	2.08e-04	0	43	0	50331648	21	5377
2026-01-20 09:55:09.58	146.80	9.55	-30.3	-33.7	12.2	2.64e-04	0	42	0	52428800	21	5311
2026-01-20 09:55:10.59	146.78	9.64	-30.2	-33.4	12.4	1.80e-04	0	43	0	54525952	21	5208
2026-01-20 09:55:11.59	146.76	9.72	-30.2	-33.7	12.2	1.79e-04	0	43	0	55574528	21	5337
2026-01-20 09:55:12.60	146.74	9.81	-30.1	-33.4	12.3	1.91e-04	0	42	0	57671680	21	5245
2026-01-20 09:55:13.60	146.72	9.90	-30.2	-33.5	12.3	1.69e-04	0	42	0	59768832	21	5283
2026-01-20 09:55:14.61	146.69	9.98	-30.1	-33.3	12.4	1.44e-04	0	43	0	61865984	21	5198
2026-01-20 09:55:15.61	146.67	10.07	-30.1	-33.2	12.5	1.61e-04	0	43	0	63963136	21	5180
2026-01-20 09:55:16.61	146.65	10.16	-30.1	-33.2	12.4	1.50e-04	0	43	0	65011712	21	5195
2026-01-20 09:55:17.61	146.62	10.24	-29.9	-32.9	12.7	9.61e-05	0	43	0	67108864	21	5057
2026-01-20 09:55:18.61	146.60	10.33	-30.0	-33.1	12.5	9.00e-05	0	43	0	69206016	21	5167
2026-01-20 09:55:19.61	146.58	10.42	-29.9	-32.8	12.7	1.09e-04	0	43	0	71303168	21	5048
2026-01-20 09:55:20.61	146.56	10.51	-29.9	-32.8	12.8	6.48e-05	0	43	0	73400320	21	5039
2026-01-20 09:55:21.61	146.53	10.60	-29.9	-32.8	12.8	7.62e-05	0	43	0	74448896	21	5020
2026-01-20 09:55:22.61	146.51	10.69	-30.0	-33.0	12.6	6.33e-05	0	43	0	76546048	21	5105
2026-01-20 09:55:23.62	146.48	10.78	-29.9	-32.7	12.8	9.91e-05	0	43	0	78643200	21	4989
2026-01-20 09:55:24.62	146.46	10.87	-29.9	-32.7	12.9	4.65e-05	0	43	0	80740352	21	4976
2026-01-20 09:55:25.63	146.44	10.96	-29.9	-32.7	12.9	4.42e-05	0	43	0	81788928	21	4970
2026-01-20 09:55:26.63	146.41	11.05	-29.9	-32.6	13.0	3.20e-05	0	43	0	83886080	21	4934
2026-01-20 09:55:27.63	146.39	11.14	-29.9	-32.6	13.0	5.34e-05	0	43	0	85983232	21	4929
2026-01-20 09:55:28.63	146.36	11.23	-29.8	-32.4	13.2	3.28e-05	0	43	0	88080384	21	4843
2026-01-20 09:55:29.64	146.34	11.32	-29.9	-32.8	12.9	1.90e-05	0	43	0	90177536	21	4997
2026-01-20 09:55:30.64	146.31	11.41	-29.9	-32.5	13.1	4.50e-05	0	43	0	91226112	21	4894
2026-01-20 09:55:31.64	146.29	11.50	-29.8	-32.4	13.2	3.28e-05	0	43	0	93323264	21	4842
2026-01-20 09:55:32.64	146.26	11.60	-29.8	-32.4	13.1	1.98e-05	0	43	0	95420416	21	4863
2026-01-20 09:55:33.64	146.24	11.69	-29.8	-32.4	13.2	2.59e-05	0	43	0	97517568	21	4866
2026-01-20 09:55:34.64	146.21	11.78	-29.9	-32.6	13.0	3.73e-05	0	43	0	99614720	21	4938
2026-01-20 09:55:35.64	146.19	11.87	-29.9	-32.7	13.0	3.89e-05	0	43	0	100663296	21	4952
2026-01-20 09:55:36.64	146.16	11.97	-29.8	-32.4	13.2	3.43e-05	0	43	0	102760448	21	4853
2026-01-20 09:55:37.65	146.13	12.06	-29.9	-32.6	13.1	2.89e-05	0	43	0	104857600	21	4903
2026-01-20 09:55:38.65	146.11	12.16	-29.9	-32.6	13.1	2.89e-05	0	43	0	106954752	21	4901
2026-01-20 09:55:39.65	146.08	12.25	-29.9	-32.5	13.1	2.05e-05	0	43	0	109051904	21	4887
2026-01-20 09:55:40.65	146.05	12.35	-29.9	-32.6	13.1	1.83e-05	0	43	0	110100480	21	4897
2026-01-20 09:55:41.65	146.03	12.44	-30.0	-32.8	13.0	3.12e-05	0	43	0	112197632	21	4987
2026-01-20 09:55:42.66	146.00	12.54	-30.0	-32.9	13.0	3.73e-05	0	43	0	114294784	21	5005
2026-01-20 09:55:43.66	145.97	12.64	-30.0	-32.7	13.1	1.75e-05	0	43	0	116391936	21	4944
2026-01-20 09:55:44.67	145.94	12.73	-30.0	-32.9	13.0	3.35e-05	0	43	0	118489088	21	4995
2026-01-20 09:55:45.67	145.92	12.83	-30.0	-32.8	13.1	2.67e-05	0	43	0	119537664	21	4952
2026-01-20 09:55:46.67	145.89	12.93	-30.0	-32.7	13.2	2.28e-05	0	43	0	121634816	21	4922
2026-01-20 09:55:47.67	145.86	13.03	-30.0	-32.8	13.1	2.28e-05	0	43	0	123731968	21	4970
2026-01-20 09:55:48.67	145.83	13.12	-30.1	-32.9	13.1	3.89e-05	0	43	0	125829120	21	4967
2026-01-20 09:55:49.66	145.80	13.22	-29.8	-32.3	13.4	2.05e-05	0	43	0	126877696	21	4763
2026-01-20 09:55:50.66	145.78	13.32	-29.8	-32.2	13.6	1.22e-05	0	43	0	128974848	21	4730
2026-01-20 09:55:51.66	145.75	13.42	-29.9	-32.4	13.4	9.10e-06	0	43	0	131072000	21	4784
2026-01-20 09:55:52.67	145.72	13.52	-29.8	-32.1	13.6	6.80e-06	0	43	0	133169152	21	4685
2026-01-20 09:55:53.66	145.69	13.62	-29.8	-32.5	13.7	6.80e-06	0	43	0	135266304	20	4937
2026-01-20 09:55:54.67	145.66	13.72	-29.8	-32.5	13.7	8.30e-06	0	43	0	136314880	20	4920
2026-01-20 09:55:55.67	145.63	13.82	-29.9	-32.8	13.5	4.50e-06	0	43	0	138412032	20	5027
2026-01-20 09:55:56.67	145.60	13.92	-29.8	-32.6	13.6	6.80e-06	0	43	0	140509184	20	4972
2026-01-20 09:55:57.68	145.57	14.02	-29.8	-32.6	13.7	7.60e-06	0	43	0	142606336	20	4946
2026-01-20 09:55:58.68	145.54	14.13	-29.8	-32.5	13.7	4.50e-06	0	43	0	144703488	20	4919
2026-01-20 09:55:59.68	145.51	14.23	-29.9	-32.8	13.5	4.50e-06	0	43	0	145752064	20	5039
2026-01-20 09:56:00.67	145.48	14.33	-29.8	-32.5	13.7	3.00e-06	0	43	0	147849216	20	4931
2026-01-20 09:56:01.67	145.44	14.43	-29.9	-32.7	13.6	9.90e-06	0	43	0	149946368	20	4997
2026-01-20 09:56:02.68	145.41	14.54	-29.8	-32.7	13.6	5.30e-06	0	43	0	152043520	20	4979
2026-01-20 09:56:03.68	145.38	14.64	-29.9	-32.8	13.6	6.10e-06	0	43	0	153092096	20	5012
2026-01-20 09:56:04.69	145.35	14.75	-30.0	-33.0	13.4	1.06e-05	0	43	0	155189248	20	5101
2026-01-20 09:56:05.69	145.32	14.85	-30.0	-33.0	13.5	1.14e-05	0	43	0	157286400	20	5084
2026-01-20 09:56:06.70	145.28	14.96	-29.9	-32.9	13.5	6.10e-06	0	43	0	159383552	20	5055
2026-01-20 09:56:07.71	145.25	15.07	-30.1	-33.3	13.2	1.06e-05	0	43	0	161480704	20	5222
2026-01-20 09:56:08.71	145.22	15.17	-30.0	-33.1	13.4	1.14e-05	0	43	0	163577856	20	5145
2026-01-20 09:56:09.72	145.18	15.28	-29.9	-32.9	13.5	1.22e-05	0	43	0	164626432	20	5046
2026-01-20 09:56:10.73	145.15	15.39	-29.8	-32.6	13.7	1.06e-05	0	43	0	166723584	20	4952
2026-01-20 09:56:11.73	145.12	15.50	-29.8	-32.5	13.8	4.50e-06	0	43	0	168820736	20	4908
2026-01-20 09:56:12.73	145.08	15.61	-29.8	-32.6	13.7	5.30e-06	0	43	0	170917888	20	4943
2026-01-20 09:56:13.73	145.05	15.72	-29.9	-32.7	13.7	7.60e-06	0	43	0	171966464	20	4976
2026-01-20 09:56:14.73	145.01	15.83	-30.0	-32.9	13.5	1.29e-05	0	43	0	174063616	20	5066
2026-01-20 09:56:15.74	144.98	15.94	-29.9	-32.8	13.6	5.30e-06	0	43	0	176160768	20	5029
2026-01-20 09:56:16.74	144.94	16.05	-30.0	-33.1	13.5	9.90e-06	0	43	0	178257920	20	5104
2026-01-20 09:56:17.74	144.91	16.16	-30.0	-33.0	13.5	1.14e-05	0	44	0	180355072	20	5099
2026-01-20 09:56:18.74	144.87	16.27	-30.0	-32.9	13.6	6.80e-06	0	44	0	181403648	20	5043
2026-01-20 09:56:19.75	144.84	16.38	-30.0	-32.9	13.5	6.80e-06	0	43	0	183500800	20	5054
2026-01-20 09:56:20.75	144.80	16.49	-30.0	-33.0	13.5	1.37e-05	0	43	0	185597952	20	5079
2026-01-20 09:56:21.75	144.76	16.61	-30.0	-33.1	13.4	1.06e-05	0	43	0	187695104	20	5106
2026-01-20 09:56:22.76	144.73	16.72	-30.3	-33.7	13.1	2.28e-05	0	44	0	189792256	20	5332
2026-01-20 09:56:23.76	144.69	16.84	-30.2	-33.4	13.2	2.82e-05	0	44	0	190840832	20	5234
2026-01-20 09:56:24.76	144.65	16.95	-29.9	-32.6	13.8	7.60e-06	0	44	0	192937984	20	4937
2026-01-20 09:56:25.77	144.61	17.07	-29.8	-32.4	13.9	2.20e-06	0	44	0	195035136	20	4856
2026-01-20 09:56:26.77	144.58	17.18	-29.7	-32.1	14.1	2.20e-06	0	44	0	197132288	20	4769
2026-01-20 09:56:27.77	144.54	17.30	-29.8	-32.3	14.0	5.30e-06	0	44	0	199229440	20	4815
2026-01-20 09:56:28.77	144.50	17.41	-29.8	-32.4	14.0	3.00e-06	0	44	0	200278016	20	4848
2026-01-20 09:56:29.77	144.46	17.53	-29.7	-32.2	14.2	1.50e-06	0	44	0	202375168	20	4774
2026-01-20 09:56:30.77	144.42	17.65	-29.9	-32.6	14.0	3.00e-06	0	44	0	204472320	20	4915
2026-01-20 09:56:31.78	144.38	17.77	-29.8	-32.5	14.0	3.80e-06	0	44	0	206569472	20	4875
2026-01-20 09:56:32.78	144.34	17.89	-29.8	-32.5	14.0	1.50e-06	0	43	0	208666624	20	4886
2026-01-20 09:56:33.79	144.30	18.01	-30.0	-32.9	13.7	3.00e-06	0	44	0	209715200	20	5031
2026-01-20 09:56:34.79	144.26	18.13	-29.9	-32.6	14.0	6.80e-06	0	44	0	211812352	20	4913
2026-01-20 09:56:35.79	144.22	18.25	-29.7	-32.1	14.2	3.80e-06	0	44	0	213909504	20	4757
2026-01-20 09:56:36.79	144.18	18.37	-29.7	-32.0	14.4	7.00e-07	0	44	0	216006656	20	4708
2026-01-20 09:56:37.80	144.13	18.49	-29.6	-31.7	14.6	0.00e+00	0	44	0	217055232	20	4619
2026-01-20 09:56:38.80	144.09	18.61	-29.6	-31.7	14.6	7.00e-07	0	43	0	219152384	20	4608
2026-01-20 09:56:39.80	144.05	18.73	-29.6	-31.9	14.5	7.00e-07	0	44	0	221249536	20	4651
2026-01-20 09:56:40.80	144.01	18.86	-29.6	-31.8	14.6	0.00e+00	0	44	0	223346688	20	4638
2026-01-20 09:56:41.80	143.96	18.98	-29.7	-31.9	14.5	0.00e+00	0	44	0	225443840	20	4681
2026-01-20 09:56:42.81	143.92	19.11	-29.7	-32.0	14.5	0.00e+00	0	44	0	226492416	20	4687
2026-01-20 09:56:43.80	143.88	19.23	-29.7	-32.1	14.4	7.00e-07	0	44	0	228589568	20	4746
2026-01-20 09:56:44.81	143.83	19.36	-29.8	-32.4	14.2	7.00e-07	0	44	0	230686720	20	4828
2026-01-20 09:56:45.81	143.79	19.48	-29.8	-32.3	14.3	1.50e-06	0	44	0	232783872	20	4787
2026-01-20 09:56:46.81	143.74	19.61	-29.8	-32.3	14.3	0.00e+00	0	44	0	234881024	20	4783
2026-01-20 09:56:47.81	143.70	19.74	-29.8	-32.2	14.4	0.00e+00	0	44	0	235929600	20	4767
2026-01-20 09:56:48.82	143.65	19.87	-29.8	-32.3	14.4	1.50e-06	0	44	0	238026752	20	4791
2026-01-20 09:56:49.83	143.60	20.00	-29.9	-32.4	14.2	1.50e-06	0	44	0	240123904	20	4839
2026-01-20 09:56:50.83	143.56	20.13	-29.9	-32.4	14.3	7.00e-07	0	44	0	242221056	20	4812
2026-01-20 09:56:51.83	143.51	20.26	-29.9	-32.4	14.3	7.00e-07	0	44	0	244318208	20	4805
2026-01-20 09:56:52.83	143.46	20.39	-29.9	-32.5	14.3	3.00e-06	0	44	0	245366784	20	4843
2026-01-20 09:56:53.83	143.41	20.52	-30.0	-32.8	14.1	3.80e-06	0	44	0	247463936	20	4955
2026-01-20 09:56:54.84	143.36	20.65	-30.0	-32.8	14.1	2.20e-06	0	44	0	249561088	20	4960
2026-01-20 09:56:55.84	143.32	20.79	-30.1	-33.1	13.9	7.00e-07	0	44	0	251658240	20	5079
2026-01-20 09:56:56.84	143.27	20.92	-30.0	-32.8	14.0	2.20e-06	0	44	0	253755392	20	4970
2026-01-20 09:56:57.84	143.22	21.05	-30.0	-32.8	14.1	2.20e-06	0	44	0	254803968	20	4954
2026-01-20 09:56:58.84	143.17	21.19	-30.0	-32.9	14.0	2.20e-06	0	44	0	256901120	20	4984
2026-01-20 09:56:59.84	143.12	21.33	-30.0	-32.8	14.1	7.00e-07	0	44	0	258998272	20	4962
2026-01-20 09:57:00.84	143.06	21.46	-30.0	-32.8	14.1	1.50e-06	0	44	0	261095424	20	4969
2026-01-20 09:57:01.84	143.01	21.60	-30.0	-32.7	14.2	2.20e-06	0	44	0	262144000	20	4931
2026-01-20 09:57:02.84	142.96	21.74	-30.1	-33.0	14.0	2.20e-06	0	44	0	264241152	20	5026
2026-01-20 09:57:03.84	142.91	21.87	-29.9	-32.5	14.3	5.30e-06	0	44	0	266338304	20	4842
2026-01-20 09:57:04.85	142.85	22.02	-29.7	-32.0	14.7	0.00e+00	0	44	0	268435456	20	4672
2026-01-20 09:57:05.85	142.80	22.16	-29.7	-31.9	14.7	0.00e+00	0	44	0	270532608	20	4652
2026-01-20 09:57:06.85	142.75	22.30	-29.7	-32.0	14.7	0.00e+00	0	44	0	272629760	20	4674
2026-01-20 09:57:07.85	142.69	22.44	-29.7	-32.0	14.7	0.00e+00	0	44	0	273678336	20	4684
2026-01-20 09:57:08.86	142.64	22.58	-29.8	-32.2	14.6	2.20e-06	0	44	0	275775488	20	4735
2026-01-20 09:57:09.85	142.58	22.72	-29.8	-32.1	14.7	0.00e+00	0	44	0	277872640	20	4703
2026-01-20 09:57:10.85	142.52	22.87	-29.9	-32.3	14.5	7.00e-07	0	44	0	279969792	20	4784
2026-01-20 09:57:11.86	142.47	23.01	-29.9	-32.3	14.5	0.00e+00	0	44	0	281018368	20	4781
2026-01-20 09:57:12.86	142.41	23.16	-29.9	-32.4	14.5	0.00e+00	0	44	0	283115520	20	4802
2026-01-20 09:57:13.86	142.35	23.30	-30.0	-32.7	14.2	0.00e+00	0	44	0	285212672	20	4927
2026-01-20 09:57:14.86	142.29	23.45	-29.9	-32.4	14.5	7.00e-07	0	44	0	287309824	20	4800
2026-01-20 09:57:15.86	142.23	23.60	-30.0	-32.7	14.3	1.50e-06	0	44	0	289406976	20	4897
2026-01-20 09:57:16.86	142.17	23.75	-29.9	-32.5	14.4	0.00e+00	0	44	0	290455552	20	4824
2026-01-20 09:57:17.87	142.11	23.90	-29.8	-32.2	14.6	0.00e+00	0	44	0	292552704	20	4744
2026-01-20 09:57:18.88	142.05	24.05	-29.9	-32.4	14.5	0.00e+00	0	44	0	294649856	20	4785
2026-01-20 09:57:19.88	141.99	24.20	-30.0	-32.6	14.4	0.00e+00	0	44	0	296747008	20	4879
2026-01-20 09:57:20.88	141.93	24.35	-30.0	-32.8	14.3	1.50e-06	0	44	0	298844160	20	4921
2026-01-20 09:57:21.88	141.86	24.51	-30.2	-33.3	14.0	1.50e-06	0	44	0	299892736	20	5110
2026-01-20 09:57:22.89	141.80	24.66	-30.2	-33.1	14.1	1.50e-06	0	44	0	301989888	20	5032
2026-01-20 09:57:23.90	141.74	24.82	-30.1	-32.9	14.1	3.80e-06	0	44	0	304087040	20	4987
2026-01-20 09:57:24.90	141.67	24.97	-30.2	-33.1	14.1	7.00e-07	0	44	0	306184192	20	5034
2026-01-20 09:57:25.90	141.61	25.13	-30.1	-33.0	14.2	3.00e-06	0	44	0	308281344	20	5004
2026-01-20 09:57:26.91	141.54	25.29	-30.2	-33.2	14.0	3.00e-06	0	44	0	309329920	20	5091
2026-01-20 09:57:27.91	141.47	25.44	-30.2	-33.2	14.0	2.20e-06	0	44	0	311427072	20	5100
2026-01-20 09:57:28.91	141.40	25.60	-30.3	-33.5	13.8	2.20e-06	0	44	0	313524224	20	5219
2026-01-20 09:57:29.91	141.34	25.76	-30.4	-33.7	13.7	6.80e-06	0	44	0	315621376	20	5257
2026-01-20 09:57:30.91	141.27	25.92	-30.5	-33.5	13.5	7.60e-06	0	44	0	317718528	21	5098
2026-01-20 09:57:31.92	141.20	26.09	-30.6	-33.7	13.4	4.50e-06	0	44	0	318767104	21	5153
2026-01-20 09:57:32.91	141.13	26.25	-30.7	-34.0	13.3	1.44e-05	0	44	0	320864256	21	5265
2026-01-20 09:57:33.91	141.06	26.41	-30.7	-34.0	13.2	2.44e-05	0	44	0	322961408	21	5274
2026-01-20 09:57:34.91	140.98	26.58	-30.9	-34.5	12.9	2.44e-05	0	44	0	325058560	21	5479
2026-01-20 09:57:35.91	140.91	26.74	-30.9	-34.5	12.9	4.73e-05	0	44	0	326107136	21	5480
2026-01-20 09:57:36.91	140.84	26.91	-30.9	-34.7	12.8	5.03e-05	0	44	0	328204288	21	5526
2026-01-20 09:57:37.92	140.76	27.08	-31.2	-34.8	12.4	1.01e-04	0	44	0	330301440	22	5460
2026-01-20 09:57:38.93	140.69	27.25	-31.2	-34.9	12.3	1.70e-04	0	44	0	332398592	22	5523
2026-01-20 09:57:39.93	140.61	27.41	-31.4	-35.4	12.1	2.25e-04	0	44	0	334495744	22	5709
2026-01-20 09:57:40.93	140.53	27.59	-31.4	-35.6	11.9	3.36e-04	0	44	0	335544320	22	5827
2026-01-20 09:57:41.93	140.46	27.76	-31.6	-35.4	11.7	5.76e-04	0	44	0	337641472	23	5624
2026-01-20 09:57:42.94	140.38	27.93	-31.7	-36.0	11.3	1.09e-03	0	44	0	339738624	23	5907
2026-01-20 09:57:43.94	140.30	28.10	-31.7	-35.9	11.3	1.18e-03	0	44	0	341835776	23	5860
2026-01-20 09:57:44.94	140.22	28.28	-31.7	-36.1	11.2	1.07e-03	0	44	0	343932928	23	5919
2026-01-20 09:57:45.95	140.14	28.46	-31.9	-36.4	11.0	1.70e-03	0	44	0	344981504	23	6076
2026-01-20 09:57:46.95	140.05	28.63	-31.8	-36.2	11.2	1.57e-03	0	44	0	347078656	23	5952
2026-01-20 09:57:47.94	139.97	28.81	-31.7	-35.8	11.4	1.06e-03	0	44	0	349175808	23	5772
2026-01-20 09:57:48.94	139.89	28.99	-31.6	-35.6	11.6	7.41e-04	0	44	0	351272960	23	5695
2026-01-20 09:57:49.94	139.80	29.17	-31.6	-35.6	11.7	7.84e-04	0	44	0	352321536	23	5669
2026-01-20 09:57:50.94	139.72	29.35	-31.6	-35.5	11.7	7.53e-04	0	44	0	354418688	23	5656
2026-01-20 09:57:51.94	139.63	29.53	-31.7	-35.7	11.5	6.09e-04	0	44	0	356515840	23	5740
2026-01-20 09:57:52.95	139.54	29.71	-31.8	-36.0	11.3	7.11e-04	0	44	0	358612992	23	5875
2026-01-20 09:57:53.95	139.45	29.90	-31.8	-36.0	11.3	1.14e-03	0	44	0	360710144	23	5879
2026-01-20 09:57:54.95	139.36	30.08	-31.9	-36.3	11.1	1.47e-03	0	44	0	362807296	23	6028
2026-01-20 09:57:55.95	139.27	30.27	-31.9	-36.4	11.1	1.42e-03	0	44	0	363855872	23	6060
2026-01-20 09:57:56.96	139.18	30.46	-32.0	-36.4	10.7	2.42e-03	0	44	0	365953024	24	5946
2026-01-20 09:57:57.96	139.08	30.64	-32.0	-36.4	10.7	3.16e-03	0	44	0	368050176	24	5965
2026-01-20 09:57:58.96	138.99	30.83	-32.3	-37.3	10.1	5.12e-03	0	44	0	370147328	24	6399
2026-01-20 09:57:59.96	138.89	31.02	-32.3	-37.3	10.0	7.80e-03	0	44	0	371195904	24	6412
2026-01-20 09:58:00.96	138.80	31.22	-32.4	-37.6	9.8	6.85e-03	0	44	0	373293056	24	6568
2026-01-20 09:58:01.96	138.70	31.41	-32.3	-37.4	9.9	8.03e-03	0	44	0	375390208	24	6474
2026-01-20 09:58:02.96	138.60	31.60	-32.4	-37.6	9.8	8.70e-03	0	44	0	377487360	24	6542
2026-01-20 09:58:03.96	138.50	31.80	-32.5	-37.9	9.6	1.13e-02	0	44	0	379584512	24	6755
2026-01-20 09:58:04.96	138.40	32.00	-32.6	-37.8	9.4	1.60e-02	0	44	0	380633088	25	6570
2026-01-20 09:58:05.96	138.29	32.19	-32.8	-38.7	8.6	2.52e-02	0	44	0	382730240	25	7124
2026-01-20 09:58:06.96	138.19	32.39	-32.8	-38.6	8.6	3.88e-02	0	44	0	384827392	25	7063
2026-01-20 09:58:07.95	138.08	32.59	-32.9	-39.2	8.3	4.28e-02	0	44	0	386924544	25	7420
2026-01-20 09:58:08.95	137.98	32.79	-32.7	-38.4	8.8	3.66e-02	0	44	0	389021696	25	6941
2026-01-20 09:58:09.95	137.87	33.00	-32.6	-37.8	9.3	2.34e-02	0	44	0	390070272	25	6580
2026-01-20 09:58:10.95	137.76	33.20	-32.4	-37.2	9.8	1.22e-02	0	44	0	392167424	25	6244
2026-01-20 09:58:11.95	137.65	33.40	-32.3	-37.0	10.0	8.23e-03	0	44	0	394264576	25	6128
2026-01-20 09:58:12.96	137.53	33.61	-32.3	-36.8	10.1	7.53e-03	0	44	0	396361728	25	6051
2026-01-20 09:58:13.95	137.42	33.82	-32.4	-37.1	9.8	1.04e-02	0	44	0	397410304	25	6212
2026-01-20 09:58:14.95	137.31	34.03	-32.4	-37.3	9.8	1.20e-02	0	44	0	399507456	25	6270
2026-01-20 09:58:15.95	137.19	34.24	-32.4	-37.1	9.9	1.08e-02	0	44	0	401604608	25	6204
2026-01-20 09:58:16.95	137.07	34.45	-32.4	-37.2	9.9	1.03e-02	0	44	0	403701760	25	6251
2026-01-20 09:58:17.95	136.95	34.66	-32.5	-37.3	9.7	1.11e-02	0	44	0	405798912	25	6323
2026-01-20 09:58:18.96	136.83	34.88	-32.4	-37.2	9.9	9.71e-03	0	44	0	406847488	25	6250
2026-01-20 09:58:19.96	136.70	35.09	-32.4	-37.1	9.9	8.62e-03	0	44	0	408944640	25	6204
2026-01-20 09:58:20.96	136.58	35.31	-32.5	-37.5	9.6	1.12e-02	0	44	0	411041792	25	6382
2026-01-20 09:58:21.96	136.45	35.53	-32.6	-37.8	9.4	1.24e-02	0	44	0	413138944	25	6573
2026-01-20 09:58:22.96	136.32	35.75	-32.6	-38.0	9.2	1.64e-02	0	44	0	415236096	25	6702
2026-01-20 09:58:23.97	136.19	35.97	-32.7	-38.2	9.1	2.22e-02	0	44	0	416284672	25	6809
2026-01-20 09:58:24.97	136.06	36.19	-32.8	-38.5	8.9	2.85e-02	0	44	0	418381824	25	6945
2026-01-20 09:58:25.97	135.92	36.42	-32.7	-38.2	9.2	2.13e-02	0	44	0	420478976	25	6776
2026-01-20 09:58:26.97	135.79	36.64	-32.6	-38.0	9.3	1.92e-02	0	44	0	422576128	25	6644
2026-01-20 09:58:27.98	135.65	36.87	-32.6	-38.0	9.3	1.85e-02	0	44	0	424673280	25	6655
2026-01-20 09:58:28.98	135.51	37.10	-32.7	-38.2	9.2	2.10e-02	0	44	0	425721856	25	6803
2026-01-20 09:58:29.99	135.36	37.33	-32.8	-38.5	9.0	2.09e-02	0	44	0	427819008	25	6974
2026-01-20 09:58:30.99	135.22	37.56	-32.6	-38.0	9.3	1.96e-02	0	44	0	429916160	25	6670
2026-01-20 09:58:32.00	135.07	37.79	-32.5	-37.5	9.7	1.40e-02	0	44	0	432013312	25	6395
2026-01-20 09:58:33.00	134.92	38.03	-32.5	-37.3	9.9	1.09e-02	0	44	0	434110464	25	6276
2026-01-20 09:58:34.01	134.77	38.26	-32.5	-37.5	9.8	1.08e-02	0	44	0	435159040	25	6353
2026-01-20 09:58:35.01	134.62	38.50	-32.4	-37.1	10.1	7.99e-03	0	44	0	437256192	25	6166
2026-01-20 09:58:36.02	134.46	38.74	-32.4	-37.2	9.9	7.97e-03	0	44	0	439353344	25	6207
2026-01-20 09:58:37.02	134.30	38.98	-32.4	-37.0	10.2	7.62e-03	0	44	0	441450496	25	6110
2026-01-20 09:58:38.02	134.14	39.22	-32.4	-36.9	10.2	5.46e-03	0	44	0	442499072	25	6047
2026-01-20 09:58:39.02	133.98	39.46	-32.3	-36.6	10.5	4.54e-03	0	44	0	444596224	25	5897
2026-01-20 09:58:40.02	133.82	39.70	-32.2	-36.5	10.6	3.66e-03	0	44	0	446693376	25	5850
2026-01-20 09:58:41.02	133.65	39.95	-32.2	-36.2	10.7	3.16e-03	0	44	0	448790528	25	5732
2026-01-20 09:58:42.02	133.48	40.19	-32.0	-35.7	11.0	2.13e-03	0	44	0	450887680	25	5521
2026-01-20 09:58:43.03	133.31	40.44	-32.0	-35.7	11.1	1.39e-03	0	44	0	451936256	25	5520
2026-01-20 09:58:44.03	133.13	40.69	-32.0	-35.5	11.3	1.46e-03	0	44	0	454033408	25	5404
2026-01-20 09:58:45.03	132.95	40.94	-32.0	-35.7	11.2	1.39e-03	0	44	0	456130560	25	5473
2026-01-20 09:58:46.04	132.77	41.20	-31.8	-34.9	11.7	6.92e-04	0	44	0	458227712	25	5167
2026-01-20 09:58:47.05	132.58	41.45	-31.7	-35.1	12.0	3.46e-04	0	44	0	460324864	24	5344
2026-01-20 09:58:48.06	132.40	41.71	-31.7	-35.3	11.8	4.23e-04	0	44	0	461373440	24	5406
2026-01-20 09:58:49.06	132.21	41.96	-31.7	-35.2	11.9	3.78e-04	0	44	0	463470592	24	5377
2026-01-20 09:58:50.06	132.01	42.22	-31.8	-35.4	11.7	4.60e-04	0	44	0	465567744	24	5465
2026-01-20 09:58:51.06	131.82	42.48	-31.6	-34.8	12.2	2.70e-04	0	44	0	467664896	24	5203
2026-01-20 09:58:52.07	131.62	42.74	-31.6	-34.9	12.1	2.06e-04	0	44	0	469762048	24	5247
2026-01-20 09:58:53.07	131.41	43.00	-31.7	-35.0	12.1	2.71e-04	0	44	0	470810624	24	5272
2026-01-20 09:58:54.07	131.21	43.27	-31.6	-34.9	12.1	2.83e-04	0	44	0	472907776	24	5255
2026-01-20 09:58:55.07	131.00	43.53	-31.7	-35.0	12.0	3.48e-04	0	44	0	475004928	24	5260
2026-01-20 09:58:56.07	130.79	43.80	-31.3	-34.0	12.8	1.21e-04	0	44	0	477102080	24	4877
2026-01-20 09:58:57.07	130.57	44.06	-31.1	-33.8	13.2	4.19e-05	0	44	0	479199232	23	4912
2026-01-20 09:58:58.07	130.35	44.33	-31.0	-33.5	13.4	1.44e-05	0	44	0	480247808	23	4809
2026-01-20 09:58:59.07	130.12	44.60	-31.1	-33.7	13.3	1.29e-05	0	44	0	482344960	23	4890
2026-01-20 09:59:00.06	129.90	44.87	-31.0	-33.4	13.5	1.29e-05	0	44	0	484442112	23	4766
2026-01-20 09:59:01.07	129.66	45.15	-31.2	-33.9	13.1	1.75e-05	0	44	0	486539264	23	4946
2026-01-20 09:59:02.07	129.43	45.42	-31.0	-33.5	13.5	1.67e-05	0	44	0	488636416	23	4798
2026-01-20 09:59:03.08	129.19	45.70	-30.8	-33.1	13.7	6.80e-06	0	44	0	489684992	23	4652
2026-01-20 09:59:04.08	128.94	45.97	-30.8	-33.5	13.8	6.10e-06	0	44	0	491782144	22	4907
2026-01-20 09:59:05.08	128.69	46.25	-30.8	-33.4	13.9	4.50e-06	0	44	0	493879296	22	4850
2026-01-20 09:59:06.09	128.44	46.53	-30.8	-33.5	13.8	3.00e-06	0	44	0	495976448	22	4890
2026-01-20 09:59:07.09	128.18	46.81	-30.8	-33.3	13.9	6.10e-06	0	44	0	497025024	22	4843
2026-01-20 09:59:08.09	127.92	47.09	-30.7	-33.2	14.0	3.00e-06	0	44	0	499122176	22	4810
2026-01-20 09:59:09.10	127.65	47.38	-30.8	-33.5	13.8	5.30e-06	0	44	0	501219328	22	4913
2026-01-20 09:59:10.10	127.37	47.66	-31.0	-33.9	13.5	7.60e-06	0	44	0	503316480	22	5058
2026-01-20 09:59:11.10	127.10	47.95	-31.0	-33.9	13.6	9.90e-06	0	44	0	505413632	22	5029
2026-01-20 09:59:12.10	126.81	48.23	-31.1	-34.2	13.4	1.22e-05	0	44	0	506462208	22	5147
2026-01-20 09:59:13.10	126.53	48.52	-31.1	-34.2	13.4	1.29e-05	0	44	0	508559360	22	5152
2026-01-20 09:59:14.10	126.23	48.81	-31.3	-34.8	13.0	2.59e-05	0	44	0	510656512	22	5372
2026-01-20 09:59:15.10	125.93	49.10	-31.1	-34.1	13.4	1.98e-05	0	44	0	512753664	22	5133
2026-01-20 09:59:16.11	125.62	49.39	-30.8	-33.3	14.0	3.00e-06	0	44	0	514850816	22	4839
2026-01-20 09:59:17.11	125.31	49.68	-30.6	-33.0	14.1	1.50e-06	0	44	0	515899392	22	4714
2026-01-20 09:59:18.12	124.99	49.98	-30.5	-32.7	14.4	0.00e+00	0	44	0	517996544	22	4633
2026-01-20 09:59:19.12	124.67	50.27	-30.6	-32.8	14.3	1.50e-06	0	44	0	520093696	22	4660
2026-01-20 09:59:20.13	124.34	50.57	-30.3	-32.2	14.7	0.00e+00	0	44	0	522190848	22	4457
2026-01-20 09:59:21.14	124.00	50.87	-30.3	-32.5	14.8	0.00e+00	0	44	0	524288000	21	4677
2026-01-20 09:59:22.14	123.65	51.16	-30.2	-32.3	14.9	0.00e+00	0	44	0	525336576	21	4605
2026-01-20 09:59:23.14	123.31	51.46	-30.1	-32.2	15.0	0.00e+00	0	44	0	527433728	21	4582
2026-01-20 09:59:24.14	122.95	51.76	-30.2	-32.4	14.9	0.00e+00	0	44	0	529530880	21	4632
2026-01-20 09:59:25.14	122.58	52.06	-30.1	-32.1	15.1	0.00e+00	0	44	0	531628032	21	4541
2026-01-20 09:59:26.14	122.21	52.35	-30.0	-31.8	15.3	7.00e-07	0	44	0	533725184	21	4445
2026-01-20 09:59:27.14	121.83	52.65	-30.0	-31.9	15.3	0.00e+00	0	44	0	534773760	21	4455
2026-01-20 09:59:28.15	121.44	52.96	-30.0	-31.7	15.3	0.00e+00	0	44	0	536870912	21	4420
2026-01-20 09:59:29.15	121.05	53.26	-30.1	-32.0	15.1	0.00e+00	0	44	0	538968064	21	4515
2026-01-20 09:59:30.16	120.64	53.56	-30.3	-32.7	14.7	0.00e+00	0	44	0	541065216	21	4724
2026-01-20 09:59:31.16	120.23	53.86	-30.2	-32.4	15.0	7.00e-07	0	44	0	543162368	21	4610
2026-01-20 09:59:32.16	119.81	54.16	-30.1	-32.1	15.0	0.00e+00	0	44	0	544210944	21	4534
2026-01-20 09:59:33.16	119.38	54.46	-30.3	-32.5	14.9	0.00e+00	0	44	0	546308096	21	4650
2026-01-20 09:59:34.16	118.94	54.76	-30.6	-33.4	14.3	0.00e+00	0	44	0	548405248	21	4973
2026-01-20 09:59:35.16	118.49	55.06	-30.9	-34.2	13.8	2.20e-06	0	44	0	550502400	21	5243
2026-01-20 09:59:36.17	118.03	55.37	-31.3	-34.7	13.2	1.37e-05	0	44	0	551550976	22	5331
2026-01-20 09:59:37.17	117.56	55.67	-31.4	-34.9	13.0	1.52e-05	0	44	0	553648128	22	5418
2026-01-20 09:59:38.17	117.08	55.97	-31.5	-34.9	12.7	6.56e-05	0	44	0	555745280	23	5297
2026-01-20 09:59:39.17	116.59	56.27	-31.7	-35.5	12.4	1.14e-04	0	44	0	557842432	23	5536
2026-01-20 09:59:40.17	116.09	56.57	-31.8	-35.8	12.1	2.11e-04	0	44	0	559939584	23	5685
2026-01-20 09:59:41.18	115.57	56.87	-32.0	-36.2	11.8	3.23e-04	0	44	0	560988160	23	5880
2026-01-20 09:59:42.18	115.05	57.17	-32.2	-36.6	11.2	7.73e-04	0	44	0	563085312	24	5958
2026-01-20 09:59:43.19	114.51	57.47	-32.4	-37.1	10.7	2.39e-03	0	44	0	565182464	24	6219
2026-01-20 09:59:44.19	113.97	57.77	-32.4	-36.6	10.7	3.38e-03	0	44	0	567279616	25	5854
2026-01-20 09:59:45.19	113.41	58.06	-32.4	-36.6	10.9	2.60e-03	0	44	0	569376768	25	5817
2026-01-20 09:59:46.20	112.84	58.36	-32.2	-35.8	11.3	1.26e-03	0	44	0	570425344	25	5482
2026-01-20 09:59:47.20	112.25	58.65	-32.2	-35.9	11.3	9.79e-04	0	44	0	572522496	25	5517
2026-01-20 09:59:48.21	111.65	58.95	-32.4	-36.6	10.9	1.57e-03	0	44	0	574619648	25	5852
2026-01-20 09:59:49.21	111.04	59.24	-32.0	-35.4	11.6	7.48e-04	0	44	0	576716800	25	5319
2026-01-20 09:59:50.21	110.42	59.53	-31.8	-34.8	12.1	4.87e-04	0	44	0	578813952	25	5061
2026-01-20 09:59:51.21	109.78	59.81	-31.8	-35.2	12.2	1.91e-04	0	44	0	579862528	24	5292
2026-01-20 09:59:52.21	109.13	60.10	-32.0	-35.7	11.8	3.03e-04	0	44	0	581959680	24	5511
2026-01-20 09:59:53.22	108.46	60.38	-31.4	-34.0	13.0	7.24e-05	0	44	0	584056832	24	4840
2026-01-20 09:59:54.23	107.77	60.67	-30.7	-33.1	14.3	8.30e-06	0	44	0	586153984	22	4734
2026-01-20 09:59:55.23	107.07	60.94	-30.2	-32.2	15.1	7.00e-07	0	44	0	588251136	21	4561
2026-01-20 09:59:56.24	106.35	61.22	-30.2	-32.3	15.0	7.00e-07	0	44	0	589299712	21	4584
2026-01-20 09:59:57.24	105.62	61.49	-30.2	-32.4	14.9	0.00e+00	0	44	0	591396864	21	4616
2026-01-20 09:59:58.24	104.88	61.76	-30.1	-32.1	15.2	0.00e+00	0	44	0	593494016	21	4532
2026-01-20 09:59:59.25	104.11	62.03	-29.9	-31.6	15.5	0.00e+00	0	44	0	595591168	21	4357
2026-01-20 10:00:00.26	103.33	62.30	-29.7	-31.5	15.8	0.00e+00	0	44	0	597688320	20	4458
2026-01-20 10:00:01.25	102.54	62.55	-29.8	-31.8	15.7	0.00e+00	0	44	0	598736896	20	4522
2026-01-20 10:00:02.25	101.73	62.81	-29.6	-31.4	15.9	0.00e+00	0	44	0	600834048	20	4397
2026-01-20 10:00:03.25	100.90	63.06	-29.3	-30.6	16.3	0.00e+00	0	44	0	602931200	20	4194
2026-01-20 10:00:04.26	100.05	63.31	-29.3	-31.2	16.3	0.00e+00	0	44	0	605028352	19	4450
2026-01-20 10:00:05.26	99.18	63.55	-29.4	-31.3	16.3	0.00e+00	0	44	0	607125504	19	4490
2026-01-20 10:00:06.27	98.29	63.79	-29.6	-31.7	16.1	0.00e+00	0	44	0	608174080	19	4600
2026-01-20 10:00:07.27	97.39	64.02	-29.9	-32.6	15.5	0.00e+00	0	44	0	610271232	19	4906
2026-01-20 10:00:08.27	96.47	64.25	-30.1	-32.5	15.2	0.00e+00	0	44	0	612368384	20	4756
2026-01-20 10:00:09.28	95.53	64.47	-30.1	-32.6	15.1	0.00e+00	0	44	0	614465536	20	4794
2026-01-20 10:00:10.29	94.56	64.69	-30.2	-32.9	15.0	0.00e+00	0	44	0	615514112	20	4871
2026-01-20 10:00:11.29	93.59	64.90	-30.5	-33.2	14.5	0.00e+00	0	44	0	617611264	21	4867
2026-01-20 10:00:12.29	92.60	65.11	-30.8	-33.9	14.0	7.00e-07	0	44	0	619708416	21	5149
2026-01-20 10:00:13.30	91.58	65.31	-31.1	-34.2	13.6	2.20e-06	0	44	0	621805568	22	5132
2026-01-20 10:00:14.30	90.55	65.50	-31.6	-35.0	12.7	4.27e-05	0	44	0	623902720	23	5324
2026-01-20 10:00:15.30	89.51	65.68	-31.8	-35.6	12.3	1.57e-04	0	44	0	624951296	23	5600
2026-01-20 10:00:16.30	88.44	65.86	-31.7	-35.4	12.4	2.84e-04	0	44	0	627048448	23	5495
2026-01-20 10:00:17.30	87.36	66.03	-31.4	-34.6	12.9	8.39e-05	0	44	0	629145600	23	5166
2026-01-20 10:00:18.31	86.26	66.20	-31.5	-34.7	12.9	3.73e-05	0	44	0	631242752	23	5244
2026-01-20 10:00:19.31	85.14	66.35	-31.6	-35.1	12.7	5.26e-05	0	44	0	633339904	23	5369
2026-01-20 10:00:20.30	84.03	66.50	-31.7	-35.4	12.4	1.63e-04	0	44	0	634388480	23	5492
2026-01-20 10:00:21.30	82.88	66.64	-31.8	-35.6	12.3	1.40e-04	0	44	0	636485632	23	5604
2026-01-20 10:00:22.31	81.71	66.77	-31.9	-36.0	12.0	2.04e-04	0	44	0	638582784	23	5742
2026-01-20 10:00:23.31	80.54	66.89	-31.9	-35.5	12.0	3.67e-04	0	44	0	640679936	24	5439
2026-01-20 10:00:24.32	79.35	67.00	-31.7	-34.9	12.4	2.34e-04	0	44	0	642777088	24	5211
2026-01-20 10:00:25.33	78.14	67.11	-31.6	-34.6	12.7	9.46e-05	0	44	0	643825664	24	5078
2026-01-20 10:00:26.32	76.94	67.20	-31.6	-34.4	12.8	6.71e-05	0	44	0	645922816	24	4993
2026-01-20 10:00:27.33	75.71	67.29	-31.6	-34.5	12.6	8.62e-05	0	44	0	648019968	24	5040
2026-01-20 10:00:28.33	74.48	67.36	-31.6	-34.7	12.7	7.40e-05	0	44	0	650117120	24	5105
2026-01-20 10:00:29.34	73.23	67.43	-31.7	-34.7	12.6	1.30e-04	0	44	0	652214272	24	5096
2026-01-20 10:00:30.34	71.99	67.49	-31.5	-34.2	12.9	5.56e-05	0	44	0	653262848	24	4934
2026-01-20 10:00:31.34	70.74	67.53	-31.6	-34.6	12.6	8.62e-05	0	44	0	655360000	24	5087
2026-01-20 10:00:32.35	69.47	67.57	-31.8	-35.1	12.3	1.25e-04	0	44	0	657457152	24	5264
2026-01-20 10:00:33.35	68.21	67.60	-31.7	-34.9	12.5	1.37e-04	0	44	0	659554304	24	5200
2026-01-20 10:00:34.36	66.93	67.61	-31.8	-35.2	12.3	1.78e-04	0	44	0	661651456	24	5316
2026-01-20 10:00:35.36	65.67	67.62	-31.7	-34.8	12.4	1.19e-04	0	44	0	662700032	24	5145
2026-01-20 10:00:36.36	64.41	67.62	-32.0	-35.7	11.9	4.28e-04	0	44	0	664797184	24	5506
2026-01-20 10:00:37.36	63.14	67.60	-31.9	-35.6	11.9	3.82e-04	0	44	0	666894336	24	5481
2026-01-20 10:00:38.36	61.88	67.58	-31.8	-35.1	12.3	3.01e-04	0	44	0	668991488	24	5260
2026-01-20 10:00:39.36	60.63	67.55	-31.7	-34.8	12.5	1.69e-04	0	44	0	670040064	24	5158
2026-01-20 10:00:40.36	59.37	67.50	-31.5	-34.3	12.8	9.15e-05	0	44	0	672137216	24	4973
2026-01-20 10:00:41.36	58.13	67.45	-31.4	-34.1	13.0	4.88e-05	0	44	0	674234368	24	4879
2026-01-20 10:00:42.37	56.88	67.39	-31.6	-34.4	12.9	3.66e-05	0	44	0	676331520	24	5008
2026-01-20 10:00:43.37	55.64	67.31	-31.7	-34.9	12.4	1.28e-04	0	44	0	678428672	24	5204
2026-01-20 10:00:44.38	54.41	67.23	-31.7	-34.8	12.6	1.04e-04	0	44	0	679477248	24	5150
2026-01-20 10:00:45.38	53.20	67.14	-31.5	-34.1	13.0	4.19e-05	0	44	0	681574400	24	4894
2026-01-20 10:00:46.38	52.00	67.04	-31.5	-34.2	12.9	2.59e-05	0	44	0	683671552	24	4901
2026-01-20 10:00:47.38	50.81	66.93	-31.5	-34.4	12.8	4.42e-05	0	44	0	685768704	24	4981
2026-01-20 10:00:48.39	49.62	66.81	-31.7	-35.0	12.4	9.15e-05	0	44	0	687865856	24	5214
2026-01-20 10:00:49.39	48.46	66.68	-31.6	-34.6	12.6	9.53e-05	0	44	0	688914432	24	5085
2026-01-20 10:00:50.39	47.31	66.55	-31.3	-33.7	13.2	1.83e-05	0	44	0	691011584	24	4734
2026-01-20 10:00:51.40	46.17	66.40	-31.4	-34.4	13.1	2.05e-05	0	44	0	693108736	23	5094
2026-01-20 10:00:52.40	45.05	66.25	-31.4	-34.4	13.1	1.22e-05	0	44	0	695205888	23	5090
2026-01-20 10:00:53.40	43.95	66.09	-31.2	-33.9	13.5	2.21e-05	0	44	0	697303040	23	4903
2026-01-20 10:00:54.40	42.87	65.92	-30.9	-33.2	13.9	7.60e-06	0	44	0	698351616	23	4674
2026-01-20 10:00:55.40	41.80	65.74	-31.2	-33.9	13.4	6.80e-06	0	44	0	700448768	23	4923
2026-01-20 10:00:56.40	40.75	65.56	-31.0	-33.5	13.6	2.13e-05	0	44	0	702545920	23	4788
2026-01-20 10:00:57.41	39.71	65.37	-30.5	-32.7	14.5	0.00e+00	0	44	0	704643072	22	4619
2026-01-20 10:00:58.41	38.70	65.18	-30.2	-32.2	15.1	0.00e+00	0	44	0	706740224	21	4569
2026-01-20 10:00:59.41	37.70	64.97	-29.7	-31.7	15.7	0.00e+00	0	44	0	707788800	20	4505
2026-01-20 10:01:00.42	36.71	64.76	-29.3	-30.5	16.4	0.00e+00	0	44	0	709885952	20	4162
2026-01-20 10:01:01.42	35.75	64.55	-29.3	-31.0	16.5	0.00e+00	0	44	0	711983104	19	4404
2026-01-20 10:01:02.42	34.81	64.33	-29.3	-31.0	16.5	0.00e+00	0	44	0	714080256	19	4386
2026-01-20 10:01:03.43	33.88	64.10	-29.5	-31.4	16.2	7.00e-07	0	44	0	715128832	19	4527
2026-01-20 10:01:04.43	32.98	63.87	-29.8	-32.2	15.8	0.00e+00	0	44	0	717225984	19	4768
2026-01-20 10:01:05.42	32.10	63.64	-29.9	-32.5	15.6	0.00e+00	0	44	0	719323136	19	4867
2026-01-20 10:01:06.43	31.22	63.40	-29.9	-32.4	15.6	1.50e-06	0	44	0	721420288	19	4841
2026-01-20 10:01:07.43	30.37	63.15	-30.0	-32.4	15.3	0.00e+00	0	44	0	723517440	20	4716
2026-01-20 10:01:08.43	29.53	62.90	-30.2	-32.7	15.0	0.00e+00	0	44	0	724566016	20	4820
2026-01-20 10:01:09.43	28.72	62.65	-30.5	-33.2	14.5	0.00e+00	0	44	0	726663168	21	4881
2026-01-20 10:01:10.44	27.91	62.39	-30.9	-34.2	13.8	2.20e-06	0	44	0	728760320	21	5247
2026-01-20 10:01:11.44	27.13	62.13	-31.1	-34.1	13.6	7.60e-06	0	44	0	730857472	22	5096
2026-01-20 10:01:12.45	26.36	61.86	-31.0	-33.9	13.8	3.80e-06	0	44	0	732954624	22	5016
2026-01-20 10:01:13.45	25.61	61.59	-31.1	-34.2	13.6	3.00e-06	0	44	0	734003200	22	5135
2026-01-20 10:01:14.46	24.87	61.32	-31.4	-34.9	13.1	1.67e-05	0	44	0	736100352	22	5386
2026-01-20 10:01:15.47	24.15	61.04	-31.6	-34.9	12.7	3.50e-05	0	44	0	738197504	23	5315
2026-01-20 10:01:16.48	23.44	60.77	-31.7	-35.5	12.3	1.32e-04	0	44	0	740294656	23	5543
2026-01-20 10:01:17.48	22.75	60.49	-32.0	-36.3	11.9	2.55e-04	0	44	0	742391808	23	5892
2026-01-20 10:01:18.48	22.08	60.21	-32.1	-36.0	11.6	7.35e-04	0	44	0	743440384	24	5672
2026-01-20 10:01:19.48	21.43	59.92	-32.0	-35.7	11.8	5.59e-04	0	44	0	745537536	24	5550
2026-01-20 10:01:20.49	20.78	59.63	-32.2	-36.4	11.2	5.51e-04	0	44	0	747634688	24	5860
2026-01-20 10:01:21.49	20.15	59.35	-32.5	-37.0	10.5	3.20e-03	0	44	0	749731840	25	6059
2026-01-20 10:01:22.50	19.53	59.06	-32.4	-36.7	10.7	4.07e-03	0	44	0	751828992	25	5900
2026-01-20 10:01:23.50	18.94	58.76	-32.1	-35.7	11.3	2.25e-03	0	44	0	752877568	25	5454
2026-01-20 10:01:24.50	18.35	58.47	-32.0	-35.3	11.8	5.93e-04	0	44	0	754974720	25	5254
2026-01-20 10:01:25.50	17.78	58.18	-32.1	-35.7	11.4	7.44e-04	0	44	0	757071872	25	5450
2026-01-20 10:01:26.50	17.21	57.89	-32.0	-35.4	11.6	1.14e-03	0	44	0	759169024	25	5286
2026-01-20 10:01:27.50	16.67	57.59	-32.0	-35.2	11.8	4.71e-04	0	44	0	761266176	25	5222
2026-01-20 10:01:28.51	16.12	57.29	-32.0	-35.4	11.6	5.71e-04	0	44	0	762314752	25	5326
2026-01-20 10:01:29.51	15.60	56.99	-31.8	-34.8	12.0	4.58e-04	0	44	0	764411904	25	5055
2026-01-20 10:01:30.52	15.08	56.69	-31.7	-34.9	12.3	2.34e-04	0	44	0	766509056	24	5193
2026-01-20 10:01:31.52	14.58	56.39	-31.8	-35.3	12.1	2.70e-04	0	44	0	768606208	24	5375
2026-01-20 10:01:32.52	14.09	56.10	-31.5	-34.3	12.7	3.06e-04	0	44	0	770703360	24	4981
2026-01-20 10:01:33.52	13.61	55.80	-31.1	-33.8	13.3	3.89e-05	0	44	0	771751936	23	4885
2026-01-20 10:01:34.52	13.13	55.50	-30.8	-32.8	14.0	6.10e-06	0	44	0	773849088	23	4562
2026-01-20 10:01:35.52	12.67	55.20	-30.4	-32.4	14.6	7.00e-07	0	44	0	775946240	22	4500
2026-01-20 10:01:36.53	12.22	54.89	-30.1	-32.1	15.0	0.00e+00	0	44	0	778043392	21	4521
2026-01-20 10:01:37.53	11.78	54.59	-30.2	-32.5	14.8	0.00e+00	0	44	0	779091968	21	4649
2026-01-20 10:01:38.52	11.35	54.30	-30.1	-32.2	15.0	7.00e-07	0	44	0	781189120	21	4565
2026-01-20 10:01:39.52	10.93	54.00	-30.0	-31.9	15.2	0.00e+00	0	44	0	783286272	21	4454
2026-01-20 10:01:40.51	10.52	53.70	-30.1	-32.1	15.0	0.00e+00	0	44	0	785383424	21	4528
2026-01-20 10:01:41.52	10.10	53.40	-30.2	-32.4	14.8	0.00e+00	0	44	0	787480576	21	4638
2026-01-20 10:01:42.52	9.71	53.10	-30.3	-32.6	14.7	0.00e+00	0	44	0	788529152	21	4689
2026-01-20 10:01:43.53	9.31	52.80	-30.3	-32.6	14.7	0.00e+00	0	44	0	790626304	21	4695
2026-01-20 10:01:44.53	8.93	52.50	-30.1	-32.1	15.0	0.00e+00	0	44	0	792723456	21	4524
2026-01-20 10:01:45.54	8.56	52.20	-30.1	-32.2	15.0	0.00e+00	0	44	0	794820608	21	4559
2026-01-20 10:01:46.53	8.19	51.90	-30.2	-32.3	14.9	7.00e-07	0	44	0	796917760	21	4607
2026-01-20 10:01:47.54	7.83	51.60	-30.3	-32.6	14.7	0.00e+00	0	44	0	797966336	21	4712
2026-01-20 10:01:48.53	7.48	51.31	-30.3	-32.6	14.6	0.00e+00	0	44	0	800063488	21	4705
2026-01-20 10:01:49.53	7.14	51.02	-30.6	-33.5	14.1	0.00e+00	0	44	0	802160640	21	5018
2026-01-20 10:01:50.53	6.80	50.72	-30.8	-34.1	13.7	3.00e-06	0	44	0	804257792	21	5217
2026-01-20 10:01:51.53	6.47	50.43	-30.9	-34.1	13.7	4.50e-06	0	44	0	806354944	21	5248
2026-01-20 10:01:52.54	6.14	50.13	-30.7	-33.7	13.9	5.30e-06	0	44	0	807403520	21	5086
2026-01-20 10:01:53.54	5.82	49.84	-30.9	-34.1	13.7	5.30e-06	0	44	0	809500672	21	5242
2026-01-20 10:01:54.54	5.51	49.55	-31.1	-34.2	13.4	8.30e-06	0	44	0	811597824	22	5147
2026-01-20 10:01:55.54	5.20	49.26	-31.3	-34.9	12.9	4.27e-05	0	44	0	813694976	22	5430
2026-01-20 10:01:56.55	4.90	48.97	-31.4	-35.1	12.7	7.09e-05	0	44	0	814743552	22	5522
2026-01-20 10:01:57.55	4.60	48.68	-31.4	-35.1	12.7	6.86e-05	0	44	0	816840704	22	5525
2026-01-20 10:01:58.55	4.31	48.40	-31.4	-35.1	12.7	6.86e-05	0	44	0	818937856	22	5534
2026-01-20 10:01:59.55	4.03	48.11	-31.4	-34.7	12.7	1.09e-04	0	44	0	821035008	23	5227
2026-01-20 10:02:00.56	3.75	47.82	-31.3	-34.2	13.1	5.72e-05	0	44	0	823132160	23	5035
2026-01-20 10:02:01.56	3.47	47.54	-31.4	-34.5	12.7	8.08e-05	0	44	0	824180736	23	5182
2026-01-20 10:02:02.55	3.21	47.26	-31.5	-35.0	12.4	1.65e-04	0	44	0	826277888	23	5351
2026-01-20 10:02:03.56	2.94	46.98	-31.8	-35.9	11.8	1.85e-04	0	44	0	828375040	23	5748
2026-01-20 10:02:04.57	2.68	46.69	-32.0	-36.0	11.4	7.07e-04	0	44	0	830472192	24	5678
2026-01-20 10:02:05.58	2.42	46.41	-32.1	-36.4	11.1	1.42e-03	0	44	0	832569344	24	5866
2026-01-20 10:02:06.58	2.17	46.14	-32.2	-36.5	11.0	2.21e-03	0	44	0	833617920	24	5941
2026-01-20 10:02:07.58	1.93	45.86	-32.1	-36.2	11.2	2.02e-03	0	44	0	835715072	24	5790
2026-01-20 10:02:08.59	1.68	45.58	-31.8	-35.4	11.8	6.13e-04	0	44	0	837812224	24	5419
2026-01-20 10:02:09.59	1.45	45.31	-31.8	-35.2	11.9	3.99e-04	0	44	0	839909376	24	5352
2026-01-20 10:02:10.59	1.21	45.04	-31.8	-35.4	11.8	5.04e-04	0	44	0	842006528	24	5422
2026-01-20 10:02:11.60	0.98	44.76	-31.9	-35.6	11.6	5.19e-04	0	44	0	843055104	24	5524
2026-01-20 10:02:12.60	0.76	44.50	-31.7	-35.2	11.9	6.32e-04	0	44	0	845152256	24	5347
2026-01-20 10:02:13.61	0.53	44.23	-31.6	-34.8	12.2	2.78e-04	0	44	0	847249408	24	5203
2026-01-20 10:02:14.62	0.31	43.96	-31.7	-35.0	12.1	1.84e-04	0	44	0	849346560	24	5262
2026-01-20 10:02:15.63	0.10	43.69	-32.0	-36.0	11.3	8.30e-04	0	44	0	851443712	24	5706
2026-01-20 10:02:16.63	359.89	43.42	-32.1	-36.5	10.9	1.89e-03	0	44	0	852492288	24	5918
2026-01-20 10:02:17.64	359.68	43.16	-32.2	-36.6	10.9	2.53e-03	0	44	0	854589440	24	5964
2026-01-20 10:02:18.64	359.48	42.90	-32.2	-36.6	10.9	2.45e-03	0	44	0	856686592	24	6000
2026-01-20 10:02:19.64	359.28	42.64	-32.3	-37.0	10.6	3.61e-03	0	44	0	858783744	24	6191
2026-01-20 10:02:20.65	359.08	42.38	-32.4	-37.2	10.4	3.77e-03	0	44	0	860880896	24	6287
2026-01-20 10:02:21.66	358.88	42.12	-32.6	-37.6	9.7	9.26e-03	0	44	0	861929472	25	6378
2026-01-20 10:02:22.66	358.69	41.86	-32.7	-37.9	9.6	1.19e-02	0	44	0	864026624	25	6560
2026-01-20 10:02:23.66	358.51	41.61	-32.7	-37.8	9.5	1.62e-02	0	44	0	866123776	25	6514
2026-01-20 10:02:24.66	358.32	41.36	-32.7	-37.8	9.6	1.56e-02	0	44	0	868220928	25	6516
2026-01-20 10:02:25.67	358.14	41.10	-32.9	-38.9	8.7	2.86e-02	0	44	0	870318080	25	7145
2026-01-20 10:02:26.67	357.96	40.85	-33.0	-38.4	8.8	3.77e-02	0	44	0	871366656	26	6743
2026-01-20 10:02:27.67	357.78	40.61	-32.8	-38.0	9.1	2.67e-02	0	44	0	873463808	26	6493
2026-01-20 10:02:28.68	357.61	40.36	-32.5	-36.7	10.1	9.68e-03	0	44	0	875560960	26	5810
2026-01-20 10:02:29.68	357.44	40.11	-32.4	-36.3	10.3	5.00e-03	0	44	0	877658112	26	5663
2026-01-20 10:02:30.68	357.27	39.87	-32.2	-36.3	10.8	4.25e-03	0	44	0	879755264	25	5731
2026-01-20 10:02:31.69	357.10	39.62	-32.2	-36.2	10.7	2.83e-03	0	44	0	880803840	25	5684
2026-01-20 10:02:32.68	356.94	39.38	-32.2	-36.0	10.9	2.10e-03	0	44	0	882900992	25	5607
2026-01-20 10:02:33.68	356.78	39.14	-32.2	-36.2	10.7	2.51e-03	0	44	0	884998144	25	5713
2026-01-20 10:02:34.68	356.63	38.91	-32.2	-36.1	10.8	2.56e-03	0	44	0	887095296	25	5657
2026-01-20 10:02:35.68	356.47	38.67	-32.1	-36.0	10.9	1.90e-03	0	44	0	888143872	25	5620
2026-01-20 10:02:36.68	356.32	38.43	-31.9	-35.2	11.5	1.31e-03	0	44	0	890241024	25	5242
2026-01-20 10:02:37.68	356.17	38.20	-31.8	-35.0	11.6	6.61e-04	0	44	0	892338176	25	5184
2026-01-20 10:02:38.68	356.02	37.97	-31.9	-35.2	11.5	6.58e-04	0	44	0	894435328	25	5252
2026-01-20 10:02:39.68	355.87	37.73	-31.9	-35.4	11.3	1.00e-03	0	44	0	896532480	25	5354
2026-01-20 10:02:40.68	355.73	37.50	-32.0	-35.7	11.1	1.34e-03	0	44	0	897581056	25	5488
2026-01-20 10:02:41.69	355.58	37.27	-31.9	-35.3	11.4	1.16e-03	0	44	0	899678208	25	5325
2026-01-20 10:02:42.70	355.44	37.04	-31.9	-35.3	11.4	9.06e-04	0	44	0	901775360	25	5301
2026-01-20 10:02:43.70	355.30	36.82	-31.9	-35.3	11.4	8.75e-04	0	44	0	903872512	25	5298
2026-01-20 10:02:44.70	355.17	36.59	-31.7	-35.3	11.7	1.02e-03	0	44	0	905969664	24	5404
2026-01-20 10:02:45.70	355.03	36.37	-31.7	-35.1	11.9	4.13e-04	0	44	0	907018240	24	5314
2026-01-20 10:02:46.70	354.90	36.15	-31.9	-35.7	11.4	6.74e-04	0	44	0	909115392	24	5606
2026-01-20 10:02:47.70	354.77	35.93	-31.9	-35.6	11.4	1.00e-03	0	44	0	911212544	24	5539
2026-01-20 10:02:48.70	354.64	35.71	-31.7	-35.3	11.7	6.73e-04	0	44	0	913309696	24	5412
2026-01-20 10:02:49.70	354.51	35.49	-31.6	-34.9	12.0	3.71e-04	0	44	0	915406848	24	5249
2026-01-20 10:02:50.71	354.39	35.27	-31.7	-35.0	11.9	3.43e-04	0	44	0	916455424	24	5287
2026-01-20 10:02:51.71	354.26	35.06	-31.7	-35.0	11.9	4.76e-04	0	44	0	918552576	24	5271
2026-01-20 10:02:52.72	354.14	34.84	-31.7	-35.1	11.9	3.76e-04	0	44	0	920649728	24	5315
2026-01-20 10:02:53.72	354.02	34.63	-31.8	-35.4	11.6	4.83e-04	0	44	0	922746880	24	5459
2026-01-20 10:02:54.72	353.90	34.42	-31.8	-35.6	11.5	7.67e-04	0	44	0	924844032	24	5529
2026-01-20 10:02:55.73	353.78	34.21	-31.9	-35.7	11.4	8.52e-04	0	44	0	925892608	24	5612
2026-01-20 10:02:56.74	353.66	34.00	-31.8	-35.4	11.6	8.70e-04	0	44	0	927989760	24	5457
2026-01-20 10:02:57.73	353.55	33.79	-31.7	-35.0	11.8	6.02e-04	0	44	0	930086912	24	5313
2026-01-20 10:02:58.73	353.44	33.58	-31.7	-35.0	11.8	3.49e-04	0	44	0	932184064	24	5309
2026-01-20 10:02:59.74	353.33	33.38	-31.7	-35.3	11.7	6.17e-04	0	44	0	933232640	24	5418
2026-01-20 10:03:00.74	353.22	33.17	-31.8	-35.5	11.5	7.39e-04	0	44	0	935329792	24	5496
2026-01-20 10:03:01.74	353.11	32.97	-32.0	-36.2	11.1	1.25e-03	0	44	0	937426944	24	5792
2026-01-20 10:03:02.74	353.00	32.77	-32.1	-36.4	10.9	1.99e-03	0	44	0	939524096	24	5920
2026-01-20 10:03:03.74	352.90	32.57	-32.2	-36.8	10.5	3.15e-03	0	44	0	941621248	24	6133
2026-01-20 10:03:04.75	352.79	32.37	-32.3	-37.1	10.4	4.34e-03	0	44	0	942669824	24	6246
2026-01-20 10:03:05.74	352.69	32.17	-32.4	-37.4	10.1	5.05e-03	0	44	0	944766976	24	6412
2026-01-20 10:03:06.74	352.59	31.98	-32.5	-37.4	9.6	9.49e-03	0	44	0	946864128	25	6348
2026-01-20 10:03:07.75	352.48	31.78	-32.6	-37.8	9.4	1.51e-02	0	44	0	948961280	25	6556
2026-01-20 10:03:08.75	352.39	31.59	-32.7	-38.2	9.1	2.07e-02	0	44	0	951058432	25	6761
2026-01-20 10:03:09.74	352.29	31.40	-32.7	-38.3	9.0	2.42e-02	0	44	0	952107008	25	6829
2026-01-20 10:03:10.74	352.19	31.20	-32.7	-38.4	8.9	2.57e-02	0	44	0	954204160	25	6870
2026-01-20 10:03:11.75	352.10	31.01	-32.8	-38.5	8.9	2.84e-02	0	44	0	956301312	25	6931
2026-01-20 10:03:12.76	352.00	30.82	-32.7	-38.3	9.0	3.06e-02	0	44	0	958398464	25	6853
2026-01-20 10:03:13.76	351.91	30.63	-32.7	-38.3	9.0	2.70e-02	0	44	0	960495616	25	6863
2026-01-20 10:03:14.76	351.81	30.45	-32.8	-38.6	8.8	3.11e-02	0	44	0	961544192	25	7014
2026-01-20 10:03:15.76	351.72	30.26	-32.7	-38.3	9.0	3.40e-02	0	44	0	963641344	25	6818
2026-01-20 10:03:16.76	351.63	30.08	-32.7	-38.1	9.1	2.30e-02	0	44	0	965738496	25	6743
2026-01-20 10:03:17.77	351.54	29.89	-32.6	-37.9	9.3	1.80e-02	0	44	0	967835648	25	6594
2026-01-20 10:03:18.76	351.46	29.71	-32.6	-37.7	9.5	1.64e-02	0	44	0	969932800	25	6488
2026-01-20 10:03:19.77	351.37	29.53	-32.6	-37.6	9.6	1.41e-02	0	44	0	970981376	25	6425
2026-01-20 10:03:20.77	351.28	29.35	-32.6	-37.6	9.5	1.24e-02	0	44	0	973078528	25	6461
2026-01-20 10:03:21.77	351.20	29.17	-32.5	-37.3	9.7	1.42e-02	0	44	0	975175680	25	6272
2026-01-20 10:03:22.77	351.11	28.99	-32.3	-36.8	10.1	8.66e-03	0	44	0	977272832	25	6050
2026-01-20 10:03:23.77	351.03	28.81	-32.4	-37.1	9.9	8.46e-03	0	44	0	978321408	25	6176
2026-01-20 10:03:24.77	350.95	28.64	-32.4	-37.0	9.9	7.03e-03	0	44	0	980418560	25	6129
2026-01-20 10:03:25.78	350.87	28.46	-32.4	-37.2	9.8	9.10e-03	0	44	0	982515712	25	6252
2026-01-20 10:03:26.78	350.79	28.28	-32.4	-37.1	9.8	1.05e-02	0	44	0	984612864	25	6167
2026-01-20 10:03:27.79	350.71	28.11	-32.3	-36.8	10.0	7.76e-03	0	44	0	986710016	25	6049
2026-01-20 10:03:28.79	350.63	27.94	-32.3	-36.6	10.2	6.28e-03	0	44	0	987758592	25	5960
2026-01-20 10:03:29.80	350.55	27.77	-32.3	-36.8	10.1	6.12e-03	0	44	0	989855744	25	6036
2026-01-20 10:03:30.80	350.47	27.60	-32.3	-36.7	10.2	6.27e-03	0	44	0	991952896	25	5974
2026-01-20 10:03:31.80	350.40	27.43	-32.2	-36.3	10.5	4.79e-03	0	44	0	994050048	25	5783
2026-01-20 10:03:32.80	350.32	27.26	-32.2	-36.4	10.4	4.20e-03	0	44	0	996147200	25	5837
2026-01-20 10:03:33.81	350.25	27.09	-32.1	-36.0	10.6	3.60e-03	0	44	0	997195776	25	5664
2026-01-20 10:03:34.81	350.18	26.92	-31.9	-35.5	11.0	2.31e-03	0	44	0	999292928	25	5442
2026-01-20 10:03:35.81	350.10	26.76	-31.8	-35.1	11.2	1.53e-03	0	44	0	1001390080	25	5284
2026-01-20 10:03:36.81	350.03	26.59	-31.8	-35.5	11.4	1.05e-03	0	44	0	1003487232	24	5513
2026-01-20 10:03:37.81	349.96	26.43	-31.5	-34.7	11.9	6.73e-04	0	44	0	1005584384	24	5214
2026-01-20 10:03:38.81	349.89	26.27	-31.5	-34.7	11.9	3.88e-04	0	44	0	1006632960	24	5210
2026-01-20 10:03:39.81	349.82	26.11	-31.5	-34.8	11.8	4.75e-04	0	44	0	1008730112	24	5255
2026-01-20 10:03:40.80	349.75	25.95	-31.5	-34.7	11.9	3.83e-04	0	44	0	1010827264	24	5193
2026-01-20 10:03:41.80	349.69	25.79	-31.6	-35.0	11.7	4.53e-04	0	44	0	1012924416	24	5325
2026-01-20 10:03:42.81	349.62	25.63	-31.6	-34.9	11.7	6.14e-04	0	44	0	1015021568	24	5295
2026-01-20 10:03:43.81	349.55	25.47	-31.6	-35.1	11.6	6.16e-04	0	44	0	1016070144	24	5384
2026-01-20 10:03:44.82	349.48	25.31	-31.6	-35.2	11.6	7.12e-04	0	44	0	1018167296	24	5409
2026-01-20 10:03:45.82	349.42	25.16	-31.7	-35.3	11.4	8.71e-04	0	44	0	1020264448	24	5481
2026-01-20 10:03:46.83	349.35	25.00	-31.9	-35.9	10.9	1.23e-03	0	44	0	1022361600	24	5724
2026-01-20 10:03:47.83	349.29	24.85	-31.7	-35.4	11.3	1.51e-03	0	44	0	1023410176	24	5511
2026-01-20 10:03:48.82	349.23	24.69	-31.6	-35.1	11.5	9.15e-04	0	44	0	1025507328	24	5389
2026-01-20 10:03:49.83	349.16	24.54	-31.4	-34.6	11.9	7.00e-04	0	44	0	1027604480	24	5171
2026-01-20 10:03:50.83	349.10	24.39	-31.5	-34.7	11.8	4.23e-04	0	44	0	1029701632	24	5205
2026-01-20 10:03:51.83	349.04	24.24	-31.4	-34.4	12.0	3.04e-04	0	44	0	1031798784	24	5089
2026-01-20 10:03:52.83	348.98	24.09	-31.2	-34.3	12.5	1.81e-04	0	44	0	1032847360	23	5150
2026-01-20 10:03:53.83	348.92	23.94	-31.2	-34.4	12.4	1.67e-04	0	44	0	1034944512	23	5190
2026-01-20 10:03:54.83	348.86	23.79	-31.0	-33.8	12.7	8.31e-05	0	44	0	1037041664	23	4960
2026-01-20 10:03:55.83	348.80	23.64	-31.1	-34.1	12.5	7.55e-05	0	44	0	1039138816	23	5073
2026-01-20 10:03:56.83	348.74	23.50	-30.9	-33.5	12.9	9.38e-05	0	44	0	1041235968	23	4875
2026-01-20 10:03:57.84	348.69	23.35	-30.8	-33.4	13.0	2.89e-05	0	44	0	1042284544	23	4806
2026-01-20 10:03:58.84	348.63	23.20	-30.8	-33.8	13.1	2.74e-05	0	44	0	1044381696	22	5084
2026-01-20 10:03:59.84	348.57	23.06	-30.8	-33.6	13.2	2.89e-05	0	44	0	1046478848	22	4996
2026-01-20 10:04:00.85	348.52	22.91	-30.8	-33.7	13.1	3.12e-05	0	44	0	1048576000	22	5032
2026-01-20 10:04:01.85	348.46	22.77	-30.8	-33.6	13.2	2.89e-05	0	44	0	1050673152	22	4998
2026-01-20 10:04:02.85	348.41	22.63	-30.8	-33.8	13.1	2.67e-05	0	44	0	1051721728	22	5080
2026-01-20 10:04:03.86	348.35	22.49	-30.8	-33.8	13.0	4.11e-05	0	44	0	1053818880	22	5088
2026-01-20 10:04:04.85	348.30	22.35	-30.8	-33.8	13.0	2.97e-05	0	44	0	1055916032	22	5081
2026-01-20 10:04:05.86	348.24	22.21	-30.9	-34.0	12.9	4.27e-05	0	44	0	1058013184	22	5160
2026-01-20 10:04:06.85	348.19	22.07	-30.9	-34.0	13.0	5.26e-05	0	44	0	1060110336	22	5142
2026-01-20 10:04:07.86	348.14	21.93	-30.8	-33.8	13.0	4.11e-05	0	44	0	1061158912	22	5096
2026-01-20 10:04:08.86	348.09	21.79	-30.9	-34.1	12.8	4.73e-05	0	44	0	1063256064	22	5182
2026-01-20 10:04:09.86	348.04	21.65	-31.0	-34.3	12.7	5.18e-05	0	44	0	1065353216	22	5273
2026-01-20 10:04:10.85	347.99	21.52	-30.9	-34.2	12.7	6.17e-05	0	44	0	1067450368	22	5227
2026-01-20 10:04:11.86	347.94	21.38	-30.8	-33.9	12.9	4.34e-05	0	44	0	1068498944	22	5122
2026-01-20 10:04:12.86	347.89	21.25	-30.9	-34.1	12.8	5.79e-05	0	44	0	1070596096	22	5215
2026-01-20 10:04:13.86	347.84	21.11	-30.9	-34.0	12.9	5.72e-05	0	44	0	1072693248	22	5136
2026-01-20 10:04:14.86	347.79	20.98	-30.9	-34.1	12.9	5.41e-05	0	44	0	1074790400	22	5184
2026-01-20 10:04:15.87	347.74	20.85	-30.9	-34.0	12.8	6.56e-05	0	44	0	1076887552	22	5161
2026-01-20 10:04:16.87	347.69	20.72	-30.9	-34.1	12.7	3.73e-05	0	44	0	1077936128	22	5215
2026-01-20 10:04:17.88	347.64	20.58	-30.9	-34.0	12.8	5.18e-05	0	44	0	1080033280	22	5179
2026-01-20 10:04:18.88	347.60	20.45	-30.9	-34.1	12.8	4.73e-05	0	44	0	1082130432	22	5207
2026-01-20 10:04:19.88	347.55	20.32	-30.9	-34.0	12.9	6.17e-05	0	44	0	1084227584	22	5152
2026-01-20 10:04:20.89	347.50	20.19	-31.0	-34.5	12.5	6.48e-05	0	44	0	1086324736	22	5358
2026-01-20 10:04:21.89	347.46	20.06	-31.1	-34.6	12.4	1.30e-04	0	44	0	1087373312	22	5404
2026-01-20 10:04:22.90	347.41	19.93	-31.1	-34.6	12.4	1.58e-04	0	44	0	1089470464	22	5418
2026-01-20 10:04:23.90	347.37	19.81	-31.0	-34.5	12.4	1.53e-04	0	44	0	1091567616	22	5378
2026-01-20 10:04:24.90	347.32	19.68	-31.1	-34.6	12.4	1.84e-04	0	44	0	1093664768	22	5408
2026-01-20 10:04:25.90	347.28	19.55	-31.1	-34.8	12.3	1.79e-04	0	44	0	1095761920	22	5493
2026-01-20 10:04:26.90	347.23	19.43	-31.3	-35.2	11.9	2.59e-04	0	44	0	1096810496	22	5658
2026-01-20 10:04:27.90	347.19	19.30	-31.1	-34.8	12.2	2.10e-04	0	44	0	1098907648	22	5483
2026-01-20 10:04:28.90	347.15	19.18	-31.1	-34.6	12.3	1.45e-04	0	44	0	1101004800	22	5419
2026-01-20 10:04:29.90	347.10	19.05	-31.1	-34.6	12.3	1.08e-04	0	44	0	1103101952	22	5412
2026-01-20 10:04:30.89	347.06	18.93	-31.1	-34.7	12.2	1.86e-04	0	44	0	1104150528	22	5475
2026-01-20 10:04:31.88	347.02	18.81	-31.1	-34.7	12.3	1.94e-04	0	44	0	1106247680	22	5456
2026-01-20 10:04:32.89	346.98	18.69	-31.3	-35.2	12.0	2.81e-04	0	44	0	1108344832	22	5671
2026-01-20 10:04:33.89	346.94	18.57	-31.4	-35.6	11.7	3.78e-04	0	44	0	1110441984	22	5828
2026-01-20 10:04:34.90	346.90	18.44	-31.3	-35.2	11.8	4.18e-04	0	44	0	1112539136	22	5682
2026-01-20 10:04:35.90	346.86	18.32	-31.3	-35.3	11.9	4.59e-04	0	44	0	1113587712	22	5712
2026-01-20 10:04:36.91	346.81	18.20	-31.4	-35.6	11.6	6.02e-04	0	44	0	1115684864	22	5846
2026-01-20 10:04:37.91	346.78	18.08	-31.3	-35.5	11.7	7.87e-04	0	44	0	1117782016	22	5806
2026-01-20 10:04:38.90	346.74	17.97	-31.4	-35.5	11.7	6.30e-04	0	44	0	1119879168	22	5821
2026-01-20 10:04:39.90	346.70	17.85	-31.5	-35.6	11.2	1.01e-03	0	44	0	1121976320	23	5732
2026-01-20 10:04:40.91	346.66	17.73	-31.7	-36.1	10.8	1.48e-03	0	44	0	1123024896	23	6005
2026-01-20 10:04:41.91	346.62	17.61	-31.6	-35.9	10.9	2.40e-03	0	44	0	1125122048	23	5897
2026-01-20 10:04:42.92	346.58	17.50	-31.7	-36.3	10.6	2.85e-03	0	44	0	1127219200	23	6069
2026-01-20 10:04:43.92	346.54	17.38	-32.0	-37.2	10.0	4.76e-03	0	44	0	1129316352	23	6550
2026-01-20 10:04:44.92	346.51	17.27	-31.9	-36.4	10.2	7.45e-03	0	44	0	1131413504	24	6013
2026-01-20 10:04:45.92	346.47	17.15	-31.7	-35.6	10.8	2.77e-03	0	44	0	1132462080	24	5657
2026-01-20 10:04:46.92	346.43	17.04	-31.4	-34.7	11.5	1.89e-03	0	44	0	1134559232	24	5272
2026-01-20 10:04:47.93	346.39	16.92	-31.4	-34.8	11.4	1.06e-03	0	44	0	1136656384	24	5298
2026-01-20 10:04:48.93	346.36	16.81	-31.5	-35.0	11.3	8.43e-04	0	44	0	1138753536	24	5377
2026-01-20 10:04:49.94	346.32	16.69	-31.5	-35.2	11.1	1.51e-03	0	44	0	1140850688	24	5492
2026-01-20 10:04:50.94	346.29	16.58	-31.4	-34.7	11.4	1.12e-03	0	44	0	1141899264	24	5280
2026-01-20 10:04:51.94	346.25	16.47	-31.5	-35.2	11.1	1.34e-03	0	44	0	1143996416	24	5487
2026-01-20 10:04:52.95	346.22	16.36	-31.5	-35.1	11.1	1.47e-03	0	44	0	1146093568	24	5434
2026-01-20 10:04:53.95	346.18	16.25	-31.5	-35.0	11.2	1.43e-03	0	44	0	1148190720	24	5414
2026-01-20 10:04:54.96	346.15	16.14	-31.4	-34.9	11.2	1.35e-03	0	44	0	1150287872	24	5376
2026-01-20 10:04:55.96	346.11	16.03	-31.6	-35.4	10.9	1.63e-03	0	44	0	1151336448	24	5582
2026-01-20 10:04:56.96	346.08	15.92	-31.5	-35.1	11.2	2.19e-03	0	44	0	1153433600	24	5450
2026-01-20 10:04:57.96	346.04	15.81	-31.6	-35.3	10.9	1.68e-03	0	44	0	1155530752	24	5541
2026-01-20 10:04:58.96	346.01	15.70	-31.8	-36.0	10.4	3.63e-03	0	44	0	1157627904	24	5883
2026-01-20 10:04:59.96	345.98	15.59	-31.7	-35.9	10.5	5.63e-03	0	44	0	1158676480	24	5795
2026-01-20 10:05:00.97	345.94	15.48	-31.8	-36.2	10.2	3.81e-03	0	44	0	1160773632	24	5977
2026-01-20 10:05:01.97	345.91	15.38	-31.9	-36.6	9.9	7.26e-03	0	44	0	1162870784	24	6178
2026-01-20 10:05:02.97	345.88	15.27	-31.9	-36.6	9.9	8.62e-03	0	44	0	1164967936	24	6177
2026-01-20 10:05:03.97	345.85	15.17	-31.9	-36.7	9.8	8.57e-03	0	44	0	1167065088	24	6216
2026-01-20 10:05:04.98	345.82	15.06	-32.0	-36.8	9.7	1.01e-02	0	44	0	1168113664	24	6292
2026-01-20 10:05:05.98	345.78	14.95	-32.0	-36.9	9.7	1.07e-02	0	44	0	1170210816	24	6315
2026-01-20 10:05:06.97	345.75	14.85	-32.1	-37.3	9.4	1.21e-02	0	44	0	1172307968	24	6544
2026-01-20 10:05:07.97	345.72	14.75	-31.9	-36.5	10.0	1.41e-02	0	44	0	1174405120	24	6121
2026-01-20 10:05:08.98	345.69	14.64	-31.7	-36.0	10.3	7.00e-03	0	44	0	1176502272	24	5870
2026-01-20 10:05:09.99	345.66	14.54	-31.6	-35.6	10.6	4.09e-03	0	44	0	1177550848	24	5682
2026-01-20 10:05:10.98	345.63	14.44	-31.6	-35.5	10.7	2.88e-03	0	44	0	1179648000	24	5644
2026-01-20 10:05:11.98	345.60	14.33	-31.7	-35.9	10.4	3.35e-03	0	44	0	1181745152	24	5856
2026-01-20 10:05:12.99	345.57	14.23	-31.6	-35.6	10.6	3.67e-03	0	44	0	1183842304	24	5671
2026-01-20 10:05:13.99	345.54	14.13	-31.7	-35.7	10.5	3.15e-03	0	44	0	1185939456	24	5744
2026-01-20 10:05:14.99	345.51	14.03	-31.6	-35.7	10.6	3.78e-03	0	44	0	1186988032	24	5730
2026-01-20 10:05:15.99	345.48	13.93	-31.6	-35.7	10.5	4.01e-03	0	44	0	1189085184	24	5732
2026-01-20 10:05:16.99	345.45	13.83	-31.7	-35.8	10.5	3.68e-03	0	44	0	1191182336	24	5765
2026-01-20 10:05:17.99	345.42	13.73	-31.6	-35.5	10.7	3.13e-03	0	44	0	1193279488	24	5635
2026-01-20 10:05:18.99	345.40	13.63	-31.6	-35.7	10.5	3.21e-03	0	44	0	1194328064	24	5762
2026-01-20 10:05:19.99	345.37	13.53	-31.6	-35.5	10.6	3.49e-03	0	44	0	1196425216	24	5662
2026-01-20 10:05:21.00	345.34	13.43	-31.6	-35.5	10.6	2.77e-03	0	44	0	1198522368	24	5647
2026-01-20 10:05:22.00	345.31	13.33	-31.6	-35.7	10.4	3.98e-03	0	44	0	1200619520	24	5746
2026-01-20 10:05:23.01	345.28	13.23	-31.5	-35.4	10.7	3.27e-03	0	44	0	1202716672	24	5628
2026-01-20 10:05:24.01	345.26	13.13	-31.6	-35.6	10.5	3.23e-03	0	44	0	1203765248	24	5713
2026-01-20 10:05:25.01	345.23	13.04	-31.5	-35.4	10.7	2.98e-03	0	44	0	1205862400	24	5607
2026-01-20 10:05:26.01	345.20	12.94	-31.5	-35.4	10.6	3.30e-03	0	44	0	1207959552	24	5633
2026-01-20 10:05:27.02	345.17	12.84	-31.5	-35.3	10.7	2.82e-03	0	44	0	1210056704	24	5590
2026-01-20 10:05:28.03	345.15	12.74	-31.6	-35.5	10.5	4.08e-03	0	44	0	1212153856	24	5674
2026-01-20 10:05:29.03	345.12	12.65	-31.5	-35.4	10.6	3.02e-03	0	44	0	1213202432	24	5623
2026-01-20 10:05:30.03	345.10	12.55	-31.5	-35.4	10.6	3.21e-03	0	44	0	1215299584	24	5624
2026-01-20 10:05:31.03	345.07	12.46	-31.4	-35.1	10.8	2.59e-03	0	44	0	1217396736	24	5495
2026-01-20 10:05:32.03	345.04	12.36	-31.5	-35.3	10.7	2.87e-03	0	44	0	1219493888	24	5581
2026-01-20 10:05:33.03	345.02	12.27	-31.5	-35.2	10.8	2.70e-03	0	44	0	1221591040	24	5537
2026-01-20 10:05:34.03	344.99	12.18	-31.5	-35.4	10.6	3.39e-03	0	44	0	1222639616	24	5652
2026-01-20 10:05:35.03	344.97	12.08	-31.4	-35.0	10.9	2.17e-03	0	44	0	1224736768	24	5470
2026-01-20 10:05:36.03	344.94	11.99	-31.4	-35.1	10.8	2.51e-03	0	44	0	1226833920	24	5513
2026-01-20 10:05:37.04	344.92	11.90	-31.4	-35.0	10.9	2.48e-03	0	44	0	1228931072	24	5457
2026-01-20 10:05:38.04	344.89	11.80	-31.5	-35.3	10.7	2.74e-03	0	44	0	1231028224	24	5594
2026-01-20 10:05:39.05	344.87	11.71	-31.4	-34.9	10.9	2.91e-03	0	44	0	1232076800	24	5412
2026-01-20 10:05:40.05	344.84	11.62	-31.4	-35.0	10.8	2.32e-03	0	44	0	1234173952	24	5440
2026-01-20 10:05:41.05	344.82	11.53	-31.4	-35.0	10.9	2.09e-03	0	44	0	1236271104	24	5438
2026-01-20 10:05:42.05	344.80	11.44	-31.3	-34.8	10.9	2.51e-03	0	44	0	1238368256	24	5382
2026-01-20 10:05:43.05	344.77	11.34	-31.4	-35.0	10.8	2.54e-03	0	44	0	1240465408	24	5476
2026-01-20 10:05:44.05	344.75	11.25	-31.4	-35.0	10.8	2.57e-03	0	44	0	1241513984	24	5481
2026-01-20 10:05:45.06	344.72	11.16	-31.4	-35.1	10.8	2.55e-03	0	44	0	1243611136	24	5497
2026-01-20 10:05:46.07	344.70	11.07	-31.4	-35.2	10.6	2.57e-03	0	44	0	1245708288	24	5566
2026-01-20 10:05:47.06	344.68	10.98	-31.6	-35.7	10.2	4.33e-03	0	44	0	1247805440	24	5790
2026-01-20 10:05:48.06	344.65	10.89	-31.5	-35.3	10.5	4.25e-03	0	44	0	1248854016	24	5608
2026-01-20 10:05:49.06	344.63	10.81	-31.5	-35.5	10.4	4.67e-03	0	44	0	1250951168	24	5709
2026-01-20 10:05:50.07	344.61	10.72	-31.5	-35.4	10.5	4.19e-03	0	44	0	1253048320	24	5665
2026-01-20 10:05:51.06	344.59	10.63	-31.6	-35.7	10.2	5.54e-03	0	44	0	1255145472	24	5797
2026-01-20 10:05:52.06	344.56	10.54	-31.4	-35.2	10.6	4.24e-03	0	44	0	1257242624	24	5571
2026-01-20 10:05:53.06	344.54	10.45	-31.6	-35.9	10.1	5.40e-03	0	44	0	1258291200	24	5909
2026-01-20 10:05:54.06	344.52	10.37	-31.5	-35.5	10.4	5.19e-03	0	44	0	1260388352	24	5702
2026-01-20 10:05:55.07	344.50	10.28	-31.6	-36.0	10.0	6.69e-03	0	44	0	1262485504	24	5938
2026-01-20 10:05:56.06	344.48	10.19	-31.6	-35.7	10.2	7.54e-03	0	44	0	1264582656	24	5790
2026-01-20 10:05:57.06	344.46	10.11	-31.4	-35.3	10.5	4.25e-03	0	44	0	1266679808	24	5608
2026-01-20 10:05:58.06	344.43	10.02	-31.4	-35.2	10.5	5.46e-03	0	45	0	1267728384	24	5574
2026-01-20 10:05:59.07	344.41	9.93	-31.6	-35.7	10.2	5.05e-03	0	44	0	1269825536	24	5790
2026-01-20 10:06:00.07	344.39	9.85	-31.5	-35.5	10.4	4.77e-03	0	44	0	1271922688	24	5700
2026-01-20 10:06:01.07	344.37	9.76	-31.6	-35.9	10.0	6.44e-03	0	44	0	1274019840	24	5899
2026-01-20 10:06:02.08	344.35	9.68	-31.5	-35.7	10.2	6.06e-03	0	44	0	1276116992	24	5811
2026-01-20 10:06:03.08	344.33	9.59	-31.7	-36.1	9.8	6.89e-03	0	44	0	1277165568	24	6017
2026-01-20 10:06:04.08	344.31	9.51	-31.6	-35.8	10.1	7.37e-03	0	44	0	1279262720	24	5850
2026-01-20 10:06:05.09	344.29	9.42	-31.7	-36.2	9.8	8.77e-03	0	44	0	1281359872	24	6057
2026-01-20 10:06:06.08	344.27	9.34	-31.7	-36.1	9.8	8.55e-03	0	44	0	1283457024	24	6026
