passes_logs/2026/01/20/R2M6_AANII_01/R2M6_AANII_01__20260120_003950_FENGYUN_3D_rec.log

#Pass ID: 20260120_003950_FENGYUN 3D
#Satellite: FENGYUN 3D
#Configuration: FENGYUN 3D
#almurnet v.1.7.20240730
#Start time: 2026-01-20 00:39:50

#Version: 2.2.20231116
#Station: R2M6_AANII_01
#Location: 30.233357 lon 59.946436 lat
#TLE: 1 43010U 17072A   26019.30265705  .00000224  00000+0  12791-3 0  9991
#TLE: 2 43010  98.9940 351.1850 0002428 100.8496 259.2953 14.19697535423864

#Time	Az	El	Level	Level2	SNR	BER	BlckErr	Temp	State	Recorded	gain1	gain2
2026-01-20 00:39:50.21	32.36	6.97	-29.5	-32.3	5.5	7.66e-01	0	42	0	0	19	4945
2026-01-20 00:39:51.20	32.46	7.03	-30.6	-34.5	5.2	7.84e-01	0	42	104	0	21	5613
2026-01-20 00:39:52.20	32.56	7.09	-30.6	-34.3	8.7	5.18e-02	0	42	0	0	21	5503
2026-01-20 00:39:53.20	32.67	7.15	-30.4	-33.6	9.2	2.15e-02	0	42	0	5242880	21	5231
2026-01-20 00:39:54.21	32.77	7.21	-30.5	-34.1	8.9	4.02e-02	0	42	0	10485760	21	5433
2026-01-20 00:39:55.21	32.88	7.27	-30.3	-33.8	9.5	2.53e-02	0	42	0	16777216	20	5399
2026-01-20 00:39:56.22	32.98	7.33	-29.8	-32.6	10.3	1.02e-02	0	42	0	22020096	20	4957
2026-01-20 00:39:57.23	33.09	7.39	-29.7	-32.1	10.6	4.96e-03	0	42	0	28311552	20	4774
2026-01-20 00:39:58.22	33.20	7.44	-29.3	-31.6	11.4	1.61e-03	0	42	0	33554432	19	4686
2026-01-20 00:39:59.23	33.30	7.50	-29.2	-31.4	11.5	1.12e-03	0	42	0	38797312	19	4621
2026-01-20 00:40:00.23	33.41	7.56	-29.2	-31.8	11.6	9.31e-04	0	42	0	45088768	18	4854
2026-01-20 00:40:01.22	33.52	7.62	-29.1	-31.5	11.8	4.97e-04	0	42	0	50331648	18	4759
2026-01-20 00:40:02.22	33.62	7.68	-28.9	-31.1	12.0	6.05e-04	0	42	0	55574528	18	4640
2026-01-20 00:40:03.22	33.73	7.74	-28.5	-30.6	12.7	1.91e-04	0	42	0	61865984	17	4580
2026-01-20 00:40:04.22	33.84	7.80	-28.0	-30.0	13.3	2.46e-04	0	42	0	67108864	16	4512
2026-01-20 00:40:05.22	33.95	7.86	-27.9	-29.6	13.6	2.17e-05	0	42	0	72351744	16	4384
2026-01-20 00:40:06.23	34.06	7.92	-28.3	-30.7	12.9	2.36e-04	0	42	0	78643200	16	4725
2026-01-20 00:40:07.23	34.17	7.98	-28.4	-30.3	12.9	1.27e-04	0	43	0	83886080	17	4494
2026-01-20 00:40:08.23	34.28	8.04	-28.0	-29.3	13.4	2.97e-05	0	43	0	90177536	17	4206
2026-01-20 00:40:09.24	34.39	8.10	-28.2	-29.8	13.2	2.40e-05	0	43	0	95420416	17	4344
2026-01-20 00:40:10.24	34.50	8.16	-28.3	-30.2	12.9	1.04e-04	0	42	0	100663296	17	4472
2026-01-20 00:40:11.24	34.62	8.22	-28.2	-29.9	13.1	4.69e-05	0	42	0	106954752	17	4377
2026-01-20 00:40:12.25	34.73	8.29	-28.1	-29.7	13.3	2.86e-05	0	43	0	112197632	17	4306
2026-01-20 00:40:13.25	34.84	8.35	-28.0	-29.9	13.5	1.26e-04	0	43	0	117440512	16	4479
2026-01-20 00:40:14.26	34.96	8.41	-28.2	-30.3	13.2	3.31e-05	0	43	0	123731968	16	4611
2026-01-20 00:40:15.27	35.07	8.47	-28.2	-30.4	13.1	2.14e-04	0	43	0	128974848	16	4637
2026-01-20 00:40:16.28	35.19	8.53	-28.1	-30.0	13.3	1.48e-05	0	43	0	135266304	16	4526
2026-01-20 00:40:17.28	35.30	8.59	-27.6	-29.1	14.0	6.80e-06	0	43	0	140509184	16	4242
2026-01-20 00:40:18.28	35.42	8.65	-27.7	-29.1	14.2	1.51e-04	0	43	0	145752064	16	4230
2026-01-20 00:40:19.28	35.53	8.71	-27.9	-29.6	13.8	8.00e-06	0	43	0	152043520	16	4368
2026-01-20 00:40:20.28	35.65	8.77	-27.9	-29.7	13.7	1.94e-05	0	43	0	157286400	16	4402
2026-01-20 00:40:21.28	35.76	8.83	-27.7	-29.1	14.1	2.20e-06	0	43	0	163577856	16	4252
2026-01-20 00:40:22.28	35.88	8.89	-27.7	-29.1	14.1	8.92e-05	0	43	0	168820736	16	4226
2026-01-20 00:40:23.28	36.00	8.95	-27.4	-28.5	14.4	1.10e-06	0	43	0	174063616	16	4073
2026-01-20 00:40:24.28	36.11	9.01	-27.3	-28.2	14.6	3.54e-05	0	43	0	180355072	16	3999
2026-01-20 00:40:25.28	36.23	9.08	-27.4	-28.3	14.6	3.40e-06	0	43	0	185597952	16	4030
2026-01-20 00:40:26.28	36.35	9.14	-27.1	-28.4	14.7	1.10e-06	0	43	0	190840832	15	4155
2026-01-20 00:40:27.29	36.47	9.20	-27.4	-28.9	14.4	0.00e+00	0	43	0	197132288	15	4298
2026-01-20 00:40:28.29	36.59	9.26	-27.3	-28.6	14.5	1.10e-06	0	43	0	202375168	15	4220
2026-01-20 00:40:29.30	36.71	9.32	-27.6	-29.4	14.1	0.00e+00	0	43	0	207618048	15	4430
2026-01-20 00:40:30.30	36.83	9.38	-27.6	-29.4	14.1	3.40e-06	0	43	0	213909504	15	4434
2026-01-20 00:40:31.31	36.96	9.44	-27.6	-29.6	13.9	6.80e-06	0	43	0	219152384	15	4488
2026-01-20 00:40:32.30	37.08	9.50	-27.5	-29.2	14.2	2.20e-06	0	43	0	225443840	15	4383
2026-01-20 00:40:33.29	37.20	9.57	-27.3	-28.8	14.4	3.40e-06	0	43	0	230686720	15	4265
2026-01-20 00:40:34.29	37.32	9.63	-27.1	-28.3	14.7	0.00e+00	0	43	0	235929600	15	4144
2026-01-20 00:40:35.30	37.44	9.69	-27.4	-29.1	14.3	0.00e+00	0	43	0	242221056	15	4342
2026-01-20 00:40:36.29	37.57	9.75	-27.4	-29.0	14.3	1.10e-06	0	43	0	247463936	15	4339
2026-01-20 00:40:37.29	37.69	9.81	-27.5	-29.3	14.2	4.50e-06	0	43	0	252706816	15	4402
2026-01-20 00:40:38.30	37.82	9.87	-27.2	-28.5	14.6	0.00e+00	0	43	0	258998272	15	4202
2026-01-20 00:40:39.30	37.94	9.93	-27.1	-28.2	14.8	0.00e+00	0	43	0	264241152	15	4112
2026-01-20 00:40:40.30	38.07	10.00	-27.1	-28.3	14.7	1.10e-06	0	43	0	269484032	15	4134
2026-01-20 00:40:41.30	38.19	10.06	-27.1	-28.2	14.6	0.00e+00	0	43	0	275775488	15	4111
2026-01-20 00:40:42.29	38.32	10.12	-27.1	-28.3	14.8	0.00e+00	0	43	0	281018368	15	4139
2026-01-20 00:40:43.30	38.45	10.18	-27.3	-28.8	14.4	0.00e+00	0	43	0	287309824	15	4284
2026-01-20 00:40:44.30	38.57	10.24	-27.1	-28.3	14.8	1.10e-06	0	43	0	292552704	15	4143
2026-01-20 00:40:45.30	38.70	10.30	-27.2	-28.6	14.6	0.00e+00	0	43	0	297795584	15	4220
2026-01-20 00:40:46.30	38.83	10.37	-27.2	-28.6	14.6	0.00e+00	0	43	0	304087040	15	4207
2026-01-20 00:40:47.31	38.96	10.43	-27.1	-28.4	14.8	1.02e-05	0	43	0	309329920	15	4149
2026-01-20 00:40:48.31	39.09	10.49	-27.0	-28.1	14.9	1.10e-06	0	43	0	315621376	15	4079
2026-01-20 00:40:49.31	39.22	10.55	-27.2	-28.4	14.7	1.10e-06	0	43	0	320864256	15	4173
2026-01-20 00:40:50.31	39.35	10.61	-27.3	-28.7	14.6	0.00e+00	0	43	0	326107136	15	4240
2026-01-20 00:40:51.32	39.48	10.68	-27.4	-28.9	14.4	0.00e+00	0	43	0	332398592	15	4307
2026-01-20 00:40:52.32	39.61	10.74	-27.3	-28.8	14.5	9.49e-05	0	43	0	337641472	15	4265
2026-01-20 00:40:53.32	39.75	10.80	-27.1	-28.4	14.8	0.00e+00	0	43	0	342884352	15	4158
2026-01-20 00:40:54.32	39.88	10.86	-27.0	-28.1	15.0	0.00e+00	0	43	0	349175808	15	4066
2026-01-20 00:40:55.33	40.02	10.93	-27.2	-28.5	14.7	0.00e+00	0	43	0	354418688	15	4183
2026-01-20 00:40:56.34	40.15	10.99	-27.3	-28.7	14.6	2.21e-04	0	43	0	360710144	15	4243
2026-01-20 00:40:57.34	40.28	11.05	-27.2	-28.5	14.7	0.00e+00	0	43	0	365953024	15	4195
2026-01-20 00:40:58.35	40.42	11.11	-27.3	-28.7	14.6	1.83e-04	0	43	0	371195904	15	4240
2026-01-20 00:40:59.35	40.56	11.17	-27.0	-28.1	15.0	2.07e-04	0	43	0	377487360	15	4064
2026-01-20 00:41:00.34	40.69	11.24	-26.8	-27.7	15.2	0.00e+00	0	43	0	382730240	15	3957
2026-01-20 00:41:01.34	40.83	11.30	-26.7	-27.9	15.4	1.27e-04	0	44	0	387973120	14	4113
2026-01-20 00:41:02.35	40.97	11.36	-26.7	-27.8	15.4	0.00e+00	0	43	0	394264576	14	4097
2026-01-20 00:41:03.36	41.11	11.42	-26.7	-27.8	15.4	0.00e+00	0	43	0	399507456	14	4105
2026-01-20 00:41:04.36	41.25	11.49	-26.6	-27.6	15.5	0.00e+00	0	43	0	405798912	14	4059
2026-01-20 00:41:05.36	41.38	11.55	-26.4	-27.2	15.8	2.20e-06	0	44	0	411041792	14	3936
2026-01-20 00:41:06.36	41.52	11.61	-26.4	-27.3	15.7	0.00e+00	0	44	0	416284672	14	3970
2026-01-20 00:41:07.36	41.66	11.67	-26.5	-27.4	15.6	1.10e-06	0	44	0	422576128	14	4007
2026-01-20 00:41:08.35	41.80	11.73	-26.4	-27.1	15.8	0.00e+00	0	44	0	427819008	14	3925
2026-01-20 00:41:09.35	41.94	11.80	-26.4	-27.1	15.8	0.00e+00	0	43	0	433061888	14	3915
2026-01-20 00:41:10.36	42.09	11.86	-26.4	-27.3	15.8	0.00e+00	0	43	0	439353344	14	3962
2026-01-20 00:41:11.36	42.23	11.92	-26.5	-27.5	15.6	0.00e+00	0	44	0	444596224	14	4023
2026-01-20 00:41:12.36	42.37	11.98	-26.6	-27.7	15.5	0.00e+00	0	44	0	450887680	14	4064
2026-01-20 00:41:13.36	42.52	12.05	-26.6	-27.6	15.5	1.10e-06	0	44	0	456130560	14	4054
2026-01-20 00:41:14.36	42.66	12.11	-26.4	-27.3	15.8	1.10e-06	0	44	0	461373440	14	3961
2026-01-20 00:41:15.37	42.81	12.17	-26.4	-27.3	15.8	0.00e+00	0	44	0	467664896	14	3975
2026-01-20 00:41:16.37	42.95	12.23	-26.5	-27.4	15.7	5.72e-05	0	44	0	472907776	14	4008
2026-01-20 00:41:17.38	43.10	12.30	-26.4	-27.3	15.8	3.08e-05	0	44	0	479199232	14	3959
2026-01-20 00:41:18.39	43.25	12.36	-26.5	-27.3	15.7	0.00e+00	0	44	0	484442112	14	3981
2026-01-20 00:41:19.39	43.40	12.42	-26.4	-27.3	15.8	5.49e-05	0	44	0	489684992	14	3961
2026-01-20 00:41:20.40	43.55	12.48	-26.5	-27.4	15.7	9.04e-05	0	44	0	495976448	14	3996
2026-01-20 00:41:21.40	43.69	12.55	-26.5	-27.3	15.8	0.00e+00	0	44	0	501219328	14	3969
2026-01-20 00:41:22.41	43.84	12.61	-26.5	-27.5	15.7	1.70e-04	0	44	0	507510784	14	4018
2026-01-20 00:41:23.41	43.99	12.67	-26.6	-27.6	15.7	0.00e+00	0	44	0	512753664	14	4053
2026-01-20 00:41:24.42	44.15	12.73	-26.7	-27.8	15.5	0.00e+00	0	44	0	517996544	14	4103
2026-01-20 00:41:25.43	44.30	12.80	-26.8	-28.1	15.3	0.00e+00	0	44	0	524288000	14	4194
2026-01-20 00:41:26.43	44.45	12.86	-26.8	-28.1	15.4	0.00e+00	0	44	0	529530880	14	4178
2026-01-20 00:41:27.43	44.60	12.92	-26.7	-28.0	15.4	0.00e+00	0	44	0	534773760	14	4142
2026-01-20 00:41:28.43	44.76	12.98	-26.8	-28.1	15.3	0.00e+00	0	44	0	541065216	14	4185
2026-01-20 00:41:29.43	44.91	13.05	-26.7	-27.8	15.5	3.79e-04	0	44	0	546308096	14	4089
2026-01-20 00:41:30.43	45.06	13.11	-26.7	-27.8	15.6	0.00e+00	0	44	0	552599552	14	4103
2026-01-20 00:41:31.44	45.22	13.17	-26.6	-27.6	15.6	1.72e-04	0	44	0	557842432	14	4043
2026-01-20 00:41:32.44	45.37	13.23	-26.7	-27.9	15.5	0.00e+00	0	44	0	563085312	14	4123
2026-01-20 00:41:33.44	45.53	13.29	-26.7	-27.8	15.5	0.00e+00	0	44	0	569376768	14	4108
2026-01-20 00:41:34.45	45.69	13.36	-26.4	-27.8	15.8	2.87e-04	0	44	0	574619648	13	4212
2026-01-20 00:41:35.46	45.85	13.42	-26.3	-27.4	16.0	0.00e+00	0	44	0	580911104	13	4113
2026-01-20 00:41:36.46	46.01	13.48	-26.4	-27.8	15.8	0.00e+00	0	44	0	586153984	13	4190
2026-01-20 00:41:37.47	46.17	13.54	-26.3	-27.5	16.0	0.00e+00	0	44	0	591396864	13	4129
2026-01-20 00:41:38.47	46.32	13.61	-26.0	-26.8	16.3	0.00e+00	0	44	0	597688320	13	3956
2026-01-20 00:41:39.48	46.49	13.67	-26.0	-26.8	16.3	0.00e+00	0	44	0	602931200	13	3958
2026-01-20 00:41:40.49	46.65	13.73	-26.1	-27.1	16.2	0.00e+00	0	44	0	608174080	13	4010
2026-01-20 00:41:41.49	46.81	13.79	-26.0	-26.9	16.3	0.00e+00	0	44	0	614465536	13	3972
2026-01-20 00:41:42.49	46.97	13.85	-26.2	-27.2	16.2	0.00e+00	0	44	0	619708416	13	4046
2026-01-20 00:41:43.50	47.14	13.92	-26.2	-27.3	16.1	0.00e+00	0	44	0	625999872	13	4064
2026-01-20 00:41:44.50	47.30	13.98	-26.3	-27.4	16.1	0.00e+00	0	44	0	631242752	13	4107
2026-01-20 00:41:45.51	47.46	14.04	-26.2	-27.2	16.1	0.00e+00	0	44	0	636485632	13	4043
2026-01-20 00:41:46.51	47.63	14.10	-26.0	-26.8	16.4	0.00e+00	0	44	0	642777088	13	3949
2026-01-20 00:41:47.51	47.79	14.16	-26.0	-26.8	16.4	0.00e+00	0	44	0	648019968	13	3947
2026-01-20 00:41:48.51	47.96	14.22	-26.1	-27.0	16.3	0.00e+00	0	44	0	654311424	13	3987
2026-01-20 00:41:49.52	48.13	14.28	-26.1	-26.9	16.3	0.00e+00	0	44	0	659554304	13	3971
2026-01-20 00:41:50.52	48.29	14.35	-26.1	-27.1	16.2	0.00e+00	0	44	0	664797184	13	4025
2026-01-20 00:41:51.52	48.46	14.41	-26.2	-27.1	16.2	0.00e+00	0	44	0	671088640	13	4025
2026-01-20 00:41:52.52	48.63	14.47	-26.1	-27.1	16.2	0.00e+00	0	44	0	676331520	13	4025
2026-01-20 00:41:53.53	48.80	14.53	-26.0	-26.8	16.4	0.00e+00	0	44	0	681574400	13	3938
2026-01-20 00:41:54.53	48.97	14.59	-25.8	-26.8	16.7	0.00e+00	0	44	0	687865856	12	4046
2026-01-20 00:41:55.53	49.14	14.65	-25.8	-26.9	16.6	0.00e+00	0	44	0	693108736	12	4066
2026-01-20 00:41:56.54	49.31	14.71	-25.8	-26.8	16.7	0.00e+00	0	44	0	699400192	12	4045
2026-01-20 00:41:57.54	49.49	14.77	-25.7	-26.7	16.8	0.00e+00	0	44	0	704643072	12	4016
2026-01-20 00:41:58.55	49.66	14.83	-25.8	-26.9	16.6	0.00e+00	0	44	0	709885952	12	4062
2026-01-20 00:41:59.55	49.83	14.89	-25.9	-27.5	16.6	0.00e+00	0	44	0	716177408	11	4335
2026-01-20 00:42:00.56	50.01	14.95	-25.9	-27.6	16.6	0.00e+00	0	44	0	721420288	11	4373
2026-01-20 00:42:01.56	50.18	15.02	-25.8	-27.4	16.7	0.00e+00	0	44	0	727711744	11	4327
2026-01-20 00:42:02.56	50.36	15.08	-25.8	-27.4	16.7	0.00e+00	0	44	0	732954624	11	4305
2026-01-20 00:42:03.56	50.54	15.14	-25.7	-27.2	16.8	0.00e+00	0	44	0	738197504	11	4251
2026-01-20 00:42:04.56	50.71	15.20	-25.7	-27.2	16.8	0.00e+00	0	44	0	744488960	11	4276
2026-01-20 00:42:05.56	50.89	15.26	-25.9	-27.5	16.7	0.00e+00	0	44	0	749731840	11	4348
2026-01-20 00:42:06.57	51.07	15.32	-25.9	-27.5	16.7	0.00e+00	0	44	0	754974720	11	4346
2026-01-20 00:42:07.57	51.25	15.37	-25.6	-27.0	16.9	0.00e+00	0	44	0	761266176	11	4210
2026-01-20 00:42:08.57	51.43	15.43	-25.7	-27.0	16.9	0.00e+00	0	44	0	766509056	11	4213
2026-01-20 00:42:09.57	51.61	15.49	-25.7	-27.1	16.9	0.00e+00	0	44	0	772800512	11	4232
2026-01-20 00:42:10.57	51.79	15.55	-25.8	-27.4	16.7	0.00e+00	0	44	0	778043392	11	4315
2026-01-20 00:42:11.58	51.97	15.61	-25.7	-27.1	16.9	0.00e+00	0	44	0	783286272	11	4226
2026-01-20 00:42:12.58	52.16	15.67	-25.7	-27.1	16.9	0.00e+00	0	44	0	789577728	11	4234
2026-01-20 00:42:13.58	52.34	15.73	-25.6	-27.0	17.0	0.00e+00	0	44	0	794820608	11	4198
2026-01-20 00:42:14.58	52.52	15.79	-25.6	-27.0	17.0	0.00e+00	0	44	0	800063488	11	4201
2026-01-20 00:42:15.59	52.71	15.85	-25.7	-27.2	16.9	0.00e+00	0	44	0	806354944	11	4249
2026-01-20 00:42:16.59	52.89	15.91	-25.7	-27.0	16.9	0.00e+00	0	44	0	811597824	11	4210
2026-01-20 00:42:17.59	53.08	15.97	-25.6	-26.9	17.1	0.00e+00	0	44	0	816840704	11	4178
2026-01-20 00:42:18.59	53.27	16.02	-25.6	-26.9	17.0	0.00e+00	0	44	0	823132160	11	4177
2026-01-20 00:42:19.58	53.45	16.08	-25.8	-27.4	16.8	0.00e+00	0	44	0	828375040	11	4300
2026-01-20 00:42:20.59	53.64	16.14	-25.9	-27.6	16.7	0.00e+00	0	44	0	834666496	11	4364
2026-01-20 00:42:21.59	53.83	16.20	-25.8	-26.8	16.8	0.00e+00	0	44	0	839909376	12	4040
2026-01-20 00:42:22.59	54.02	16.25	-25.5	-26.2	17.1	0.00e+00	0	44	0	845152256	12	3904
2026-01-20 00:42:23.59	54.21	16.31	-25.7	-27.2	16.9	0.00e+00	0	44	0	851443712	11	4254
2026-01-20 00:42:24.60	54.40	16.37	-25.9	-27.6	16.6	0.00e+00	0	44	0	856686592	11	4380
2026-01-20 00:42:25.60	54.59	16.43	-25.8	-27.4	16.8	0.00e+00	0	44	0	861929472	11	4323
2026-01-20 00:42:26.60	54.79	16.48	-25.8	-27.3	16.9	0.00e+00	0	44	0	868220928	11	4285
2026-01-20 00:42:27.60	54.98	16.54	-25.6	-27.0	17.0	0.00e+00	0	44	0	873463808	11	4224
2026-01-20 00:42:28.60	55.17	16.60	-25.7	-27.1	16.9	0.00e+00	0	44	0	878706688	11	4244
2026-01-20 00:42:29.60	55.37	16.65	-25.8	-27.3	16.8	0.00e+00	0	44	0	884998144	11	4294
2026-01-20 00:42:30.61	55.56	16.71	-25.6	-26.9	17.0	0.00e+00	0	44	0	890241024	11	4179
2026-01-20 00:42:31.60	55.76	16.77	-25.7	-27.2	16.9	0.00e+00	0	44	0	896532480	11	4256
2026-01-20 00:42:32.60	55.95	16.82	-25.7	-27.1	17.0	0.00e+00	0	44	0	901775360	11	4230
2026-01-20 00:42:33.59	56.15	16.88	-25.1	-26.2	15.5	0.00e+00	0	44	0	907018240	11	4067
2026-01-20 00:42:34.60	56.35	16.93	-25.5	-26.6	14.9	0.00e+00	0	44	0	913309696	11	4099
2026-01-20 00:42:35.60	56.55	16.99	-25.4	-26.6	17.2	0.00e+00	0	44	0	918552576	11	4100
2026-01-20 00:42:36.60	56.75	17.04	-25.5	-26.8	17.0	0.00e+00	0	44	0	923795456	11	4146
2026-01-20 00:42:37.60	56.95	17.10	-25.7	-27.1	16.9	0.00e+00	0	44	0	930086912	11	4241
2026-01-20 00:42:38.61	57.15	17.15	-25.6	-27.0	17.0	0.00e+00	0	44	0	935329792	11	4202
2026-01-20 00:42:39.62	57.35	17.21	-25.7	-27.0	17.0	0.00e+00	0	44	0	941621248	11	4215
2026-01-20 00:42:40.62	57.56	17.26	-25.6	-27.0	17.0	3.42e-04	0	44	0	946864128	11	4204
2026-01-20 00:42:41.61	57.76	17.32	-25.6	-27.0	17.0	0.00e+00	0	44	0	952107008	11	4200
2026-01-20 00:42:42.62	57.96	17.37	-25.5	-26.6	17.2	2.55e-04	0	44	0	958398464	11	4098
2026-01-20 00:42:43.62	58.17	17.42	-25.5	-26.7	17.2	0.00e+00	0	44	0	963641344	11	4122
2026-01-20 00:42:44.63	58.37	17.48	-25.5	-26.8	17.1	0.00e+00	0	44	0	969932800	11	4142
2026-01-20 00:42:45.63	58.58	17.53	-25.5	-26.8	17.2	2.40e-04	0	44	0	975175680	11	4145
2026-01-20 00:42:46.63	58.79	17.58	-25.5	-26.8	17.1	0.00e+00	0	44	0	980418560	11	4144
2026-01-20 00:42:47.65	59.00	17.64	-25.5	-26.6	17.2	0.00e+00	0	44	0	986710016	11	4100
2026-01-20 00:42:48.64	59.20	17.69	-25.7	-27.0	17.0	0.00e+00	0	44	0	991952896	11	4207
2026-01-20 00:42:49.64	59.41	17.74	-25.6	-26.9	17.1	4.82e-04	0	44	0	997195776	11	4180
2026-01-20 00:42:50.64	59.62	17.79	-25.7	-27.1	17.0	0.00e+00	0	44	0	1003487232	11	4226
2026-01-20 00:42:51.64	59.83	17.85	-25.5	-26.7	17.2	0.00e+00	0	44	0	1008730112	11	4136
2026-01-20 00:42:52.64	60.04	17.90	-25.4	-26.4	17.3	4.24e-04	0	44	0	1013972992	11	4053
2026-01-20 00:42:53.64	60.25	17.95	-25.4	-26.4	17.3	0.00e+00	0	44	0	1020264448	11	4059
2026-01-20 00:42:54.65	60.47	18.00	-25.4	-26.9	17.4	3.48e-04	0	44	0	1025507328	10	4286
2026-01-20 00:42:55.65	60.68	18.05	-25.3	-26.7	17.5	0.00e+00	0	44	0	1031798784	10	4234
2026-01-20 00:42:56.65	60.89	18.10	-25.3	-26.8	17.4	0.00e+00	0	44	0	1037041664	10	4268
2026-01-20 00:42:57.65	61.11	18.15	-25.3	-26.6	17.5	2.37e-04	0	44	0	1042284544	10	4221
2026-01-20 00:42:58.66	61.33	18.20	-25.4	-26.9	17.3	2.68e-04	0	44	0	1048576000	10	4302
2026-01-20 00:42:59.66	61.54	18.25	-25.4	-26.9	17.4	0.00e+00	0	44	0	1053818880	10	4291
2026-01-20 00:43:00.67	61.76	18.30	-25.2	-26.5	17.6	3.08e-04	0	44	0	1060110336	10	4193
2026-01-20 00:43:01.67	61.98	18.35	-25.3	-26.7	17.5	3.25e-04	0	44	0	1065353216	10	4249
2026-01-20 00:43:02.67	62.19	18.40	-25.3	-26.8	17.4	0.00e+00	0	44	0	1070596096	10	4273
2026-01-20 00:43:03.68	62.41	18.45	-25.5	-26.7	17.2	3.65e-04	0	44	0	1076887552	11	4135
2026-01-20 00:43:04.67	62.63	18.49	-25.4	-26.4	17.4	3.43e-04	0	44	0	1082130432	11	4059
2026-01-20 00:43:05.68	62.85	18.54	-25.3	-26.3	17.4	0.00e+00	0	44	0	1087373312	11	4039
2026-01-20 00:43:06.68	63.07	18.59	-25.3	-26.2	17.5	3.49e-04	0	44	0	1093664768	11	4010
2026-01-20 00:43:07.69	63.30	18.64	-25.5	-26.7	17.2	4.02e-04	0	44	0	1098907648	11	4122
2026-01-20 00:43:08.69	63.52	18.68	-25.5	-26.6	17.3	0.00e+00	0	44	0	1105199104	11	4113
2026-01-20 00:43:09.69	63.74	18.73	-25.5	-26.6	17.3	7.30e-04	0	44	0	1110441984	11	4101
2026-01-20 00:43:10.69	63.96	18.77	-25.4	-27.0	17.4	8.30e-04	0	44	0	1115684864	10	4319
2026-01-20 00:43:11.70	64.19	18.82	-25.4	-26.9	17.4	0.00e+00	0	44	0	1121976320	10	4294
2026-01-20 00:43:12.70	64.42	18.87	-25.5	-26.7	17.2	7.82e-04	0	45	0	1127219200	11	4143
2026-01-20 00:43:13.70	64.64	18.91	-25.8	-27.4	16.9	8.94e-04	0	44	0	1132462080	11	4308
2026-01-20 00:43:14.71	64.87	18.96	-25.6	-26.9	17.1	0.00e+00	0	44	0	1138753536	11	4179
2026-01-20 00:43:15.71	65.09	19.00	-25.3	-26.2	17.5	6.59e-04	0	44	0	1143996416	11	4010
2026-01-20 00:43:16.72	65.32	19.04	-25.1	-26.4	17.7	0.00e+00	0	44	0	1150287872	10	4166
2026-01-20 00:43:17.72	65.55	19.09	-25.1	-26.3	17.7	0.00e+00	0	44	0	1155530752	10	4137
2026-01-20 00:43:18.72	65.78	19.13	-25.3	-26.7	17.5	0.00e+00	0	44	0	1160773632	10	4233
2026-01-20 00:43:19.72	66.01	19.17	-25.2	-26.6	17.5	0.00e+00	0	44	0	1167065088	10	4214
2026-01-20 00:43:20.72	66.24	19.22	-25.2	-26.5	17.6	0.00e+00	0	44	0	1172307968	10	4181
2026-01-20 00:43:21.72	66.47	19.26	-25.3	-26.8	17.4	0.00e+00	0	44	0	1178599424	10	4272
2026-01-20 00:43:22.73	66.70	19.30	-25.2	-26.6	17.6	4.14e-04	0	44	0	1183842304	10	4209
2026-01-20 00:43:23.74	66.94	19.34	-25.1	-26.2	17.7	0.00e+00	0	44	0	1189085184	10	4122
2026-01-20 00:43:24.74	67.17	19.38	-25.0	-26.2	17.8	4.05e-04	0	44	0	1195376640	10	4108
2026-01-20 00:43:25.74	67.40	19.42	-25.0	-26.1	17.8	0.00e+00	0	44	0	1200619520	10	4096
2026-01-20 00:43:26.74	67.63	19.46	-25.2	-26.6	17.6	0.00e+00	0	44	0	1205862400	10	4206
2026-01-20 00:43:27.75	67.87	19.50	-25.1	-26.3	17.7	3.70e-04	0	44	0	1212153856	10	4137
2026-01-20 00:43:28.75	68.10	19.54	-24.9	-25.9	17.9	0.00e+00	0	44	0	1217396736	10	4038
2026-01-20 00:43:29.74	68.34	19.58	-24.8	-25.7	18.0	0.00e+00	0	44	0	1222639616	10	4000
2026-01-20 00:43:30.74	68.57	19.62	-24.7	-25.5	18.2	0.00e+00	0	44	0	1228931072	10	3934
2026-01-20 00:43:31.74	68.81	19.66	-24.8	-25.7	18.0	0.00e+00	0	44	0	1234173952	10	3988
2026-01-20 00:43:32.74	69.05	19.69	-24.8	-25.6	18.1	0.00e+00	0	44	0	1240465408	10	3969
2026-01-20 00:43:33.74	69.28	19.73	-24.7	-25.5	18.1	0.00e+00	0	44	0	1245708288	10	3952
2026-01-20 00:43:34.74	69.52	19.77	-24.9	-26.0	17.9	1.68e-04	0	44	0	1250951168	10	4052
2026-01-20 00:43:35.74	69.76	19.81	-24.9	-25.9	17.9	0.00e+00	0	44	0	1257242624	10	4039
2026-01-20 00:43:36.74	70.00	19.84	-24.8	-25.6	18.1	0.00e+00	0	44	0	1262485504	10	3966
2026-01-20 00:43:37.74	70.24	19.88	-24.7	-25.5	18.2	0.00e+00	0	44	0	1267728384	10	3935
2026-01-20 00:43:38.74	70.48	19.91	-24.8	-25.7	18.0	0.00e+00	0	44	0	1274019840	10	3996
2026-01-20 00:43:39.74	70.72	19.95	-24.7	-25.5	18.2	0.00e+00	0	44	0	1279262720	10	3937
2026-01-20 00:43:40.75	70.96	19.98	-24.7	-25.5	18.1	0.00e+00	0	44	0	1285554176	10	3946
2026-01-20 00:43:41.75	71.21	20.01	-24.9	-25.9	18.0	0.00e+00	0	44	0	1290797056	10	4027
2026-01-20 00:43:42.76	71.45	20.05	-24.8	-25.7	18.1	0.00e+00	0	44	0	1296039936	10	3993
2026-01-20 00:43:43.76	71.69	20.08	-24.9	-25.8	18.0	0.00e+00	0	44	0	1302331392	10	4020
2026-01-20 00:43:44.76	71.94	20.11	-24.9	-25.8	18.0	0.00e+00	0	44	0	1307574272	10	4018
2026-01-20 00:43:45.77	72.18	20.14	-25.0	-26.1	17.9	0.00e+00	0	44	0	1313865728	10	4078
2026-01-20 00:43:46.77	72.43	20.18	-24.9	-25.9	18.0	0.00e+00	0	45	0	1319108608	10	4033
2026-01-20 00:43:47.77	72.67	20.21	-24.8	-25.7	18.1	0.00e+00	0	44	0	1324351488	10	3994
2026-01-20 00:43:48.76	72.91	20.24	-24.8	-25.7	17.9	0.00e+00	0	44	0	1330642944	10	3995
2026-01-20 00:43:49.77	73.16	20.27	-24.9	-25.9	17.8	0.00e+00	0	44	0	1335885824	10	4050
2026-01-20 00:43:50.77	73.41	20.30	-25.1	-26.3	17.6	0.00e+00	0	44	0	1341128704	10	4144
2026-01-20 00:43:51.77	73.66	20.33	-24.9	-26.0	17.8	0.00e+00	0	44	0	1347420160	10	4083
2026-01-20 00:43:52.77	73.90	20.35	-24.7	-25.6	18.0	0.00e+00	0	44	0	1352663040	10	3995
2026-01-20 00:43:53.78	74.15	20.38	-24.7	-25.7	17.9	0.00e+00	0	44	0	1358954496	10	4002
2026-01-20 00:43:54.78	74.40	20.41	-24.8	-25.8	17.9	0.00e+00	0	44	0	1364197376	10	4033
2026-01-20 00:43:55.78	74.65	20.44	-24.8	-25.8	17.9	0.00e+00	0	44	0	1369440256	10	4030
2026-01-20 00:43:56.78	74.90	20.46	-24.9	-26.0	17.7	0.00e+00	0	44	0	1375731712	10	4087
2026-01-20 00:43:57.78	75.15	20.49	-24.9	-25.9	17.8	0.00e+00	0	44	0	1380974592	10	4054
2026-01-20 00:43:58.78	75.40	20.51	-24.8	-25.8	17.8	0.00e+00	0	44	0	1386217472	10	4045
2026-01-20 00:43:59.77	75.65	20.54	-24.8	-25.8	17.9	0.00e+00	0	44	0	1392508928	10	4028
2026-01-20 00:44:00.77	75.90	20.56	-24.8	-25.7	17.9	0.00e+00	0	44	0	1397751808	10	3995
2026-01-20 00:44:01.77	76.15	20.59	-25.0	-26.2	17.6	0.00e+00	0	44	0	1402994688	10	4133
2026-01-20 00:44:02.77	76.40	20.61	-25.0	-26.1	17.7	0.00e+00	0	44	0	1409286144	10	4105
2026-01-20 00:44:03.78	76.65	20.63	-25.1	-26.5	17.5	0.00e+00	0	44	0	1414529024	10	4197
2026-01-20 00:44:04.78	76.90	20.66	-25.2	-26.7	17.4	1.10e-06	0	44	0	1420820480	10	4274
2026-01-20 00:44:05.78	77.16	20.68	-25.2	-26.6	17.5	0.00e+00	0	45	0	1426063360	10	4231
2026-01-20 00:44:06.79	77.41	20.70	-25.3	-26.7	17.4	0.00e+00	0	44	0	1431306240	10	4269
2026-01-20 00:44:07.79	77.67	20.72	-25.1	-26.3	17.6	0.00e+00	0	44	0	1437597696	10	4159
2026-01-20 00:44:08.80	77.92	20.74	-24.9	-26.0	17.8	0.00e+00	0	44	0	1442840576	10	4066
2026-01-20 00:44:09.80	78.18	20.76	-24.9	-26.0	17.7	0.00e+00	0	44	0	1448083456	10	4088
2026-01-20 00:44:10.80	78.43	20.78	-25.0	-26.2	17.6	0.00e+00	0	44	0	1454374912	10	4137
2026-01-20 00:44:11.80	78.68	20.80	-24.8	-25.7	17.9	0.00e+00	0	44	0	1459617792	10	4009
2026-01-20 00:44:12.80	78.94	20.81	-24.6	-25.2	18.1	0.00e+00	0	44	0	1464860672	10	3896
2026-01-20 00:44:13.80	79.19	20.83	-24.4	-24.9	18.3	0.00e+00	0	44	0	1471152128	10	3816
2026-01-20 00:44:14.80	79.45	20.85	-24.5	-25.1	18.2	0.00e+00	0	44	0	1476395008	10	3856
2026-01-20 00:44:15.80	79.70	20.87	-24.4	-24.9	18.3	0.00e+00	0	45	0	1482686464	10	3807
2026-01-20 00:44:16.80	79.96	20.88	-24.4	-24.9	18.3	0.00e+00	0	44	0	1487929344	10	3814
2026-01-20 00:44:17.80	80.22	20.90	-24.5	-25.1	18.2	0.00e+00	0	44	0	1493172224	10	3862
2026-01-20 00:44:18.81	80.48	20.91	-24.5	-25.2	18.2	0.00e+00	0	44	0	1499463680	10	3887
2026-01-20 00:44:19.81	80.73	20.92	-24.5	-25.2	18.2	0.00e+00	0	44	0	1504706560	10	3879
2026-01-20 00:44:20.82	80.99	20.94	-24.7	-25.4	18.0	0.00e+00	0	44	0	1510998016	10	3943
2026-01-20 00:44:21.82	81.25	20.95	-24.5	-25.2	18.2	0.00e+00	0	44	0	1516240896	10	3878
2026-01-20 00:44:22.82	81.51	20.96	-24.6	-25.3	18.1	0.00e+00	0	44	0	1521483776	10	3902
2026-01-20 00:44:23.83	81.77	20.98	-24.6	-25.4	18.0	0.00e+00	0	44	0	1527775232	10	3942
2026-01-20 00:44:24.82	82.02	20.99	-24.5	-25.1	18.2	0.00e+00	0	44	0	1533018112	10	3861
2026-01-20 00:44:25.83	82.28	21.00	-24.5	-25.2	18.1	0.00e+00	0	44	0	1538260992	10	3888
2026-01-20 00:44:26.83	82.54	21.01	-24.5	-25.0	18.2	0.00e+00	0	44	0	1544552448	10	3849
2026-01-20 00:44:27.84	82.80	21.02	-24.6	-25.4	18.0	0.00e+00	0	44	0	1549795328	10	3937
2026-01-20 00:44:28.84	83.06	21.03	-24.6	-25.2	18.1	0.00e+00	0	44	0	1556086784	10	3894
2026-01-20 00:44:29.84	83.32	21.03	-24.5	-25.1	17.8	0.00e+00	0	44	0	1561329664	10	3854
2026-01-20 00:44:30.85	83.58	21.04	-24.7	-25.5	18.0	0.00e+00	0	44	0	1566572544	10	3953
2026-01-20 00:44:31.85	83.84	21.05	-24.5	-25.2	18.1	0.00e+00	0	44	0	1572864000	10	3882
2026-01-20 00:44:32.85	84.10	21.06	-24.5	-25.1	18.2	0.00e+00	0	44	0	1578106880	10	3852
2026-01-20 00:44:33.85	84.36	21.06	-24.6	-25.3	18.1	0.00e+00	0	44	0	1583349760	10	3901
2026-01-20 00:44:34.86	84.62	21.07	-24.4	-24.8	18.3	0.00e+00	0	44	0	1589641216	10	3803
2026-01-20 00:44:35.85	84.87	21.07	-24.4	-24.8	18.3	0.00e+00	0	44	0	1594884096	10	3799
2026-01-20 00:44:36.84	85.13	21.08	-24.4	-24.9	18.3	2.20e-06	0	45	0	1600126976	10	3822
2026-01-20 00:44:37.85	85.39	21.08	-24.5	-25.0	18.2	0.00e+00	0	44	0	1606418432	10	3848
2026-01-20 00:44:38.85	85.65	21.08	-24.4	-24.9	18.3	0.00e+00	0	45	0	1611661312	10	3823
2026-01-20 00:44:39.86	85.91	21.08	-24.4	-24.9	18.3	0.00e+00	0	44	0	1617952768	10	3815
2026-01-20 00:44:40.86	86.17	21.09	-24.4	-24.9	18.3	0.00e+00	0	45	0	1623195648	10	3821
2026-01-20 00:44:41.86	86.43	21.09	-24.5	-25.2	18.2	0.00e+00	0	44	0	1629487104	10	3893
2026-01-20 00:44:42.87	86.70	21.09	-24.5	-25.1	18.2	0.00e+00	0	44	0	1634729984	10	3870
2026-01-20 00:44:43.87	86.95	21.09	-24.6	-25.4	18.1	0.00e+00	0	44	0	1639972864	10	3937
2026-01-20 00:44:44.88	87.22	21.09	-24.6	-25.3	18.1	0.00e+00	0	45	0	1646264320	10	3903
2026-01-20 00:44:45.88	87.48	21.09	-24.6	-25.4	18.0	7.32e-05	0	45	0	1651507200	10	3933
2026-01-20 00:44:46.89	87.74	21.09	-24.6	-25.2	18.1	0.00e+00	0	45	0	1656750080	10	3898
2026-01-20 00:44:47.89	88.00	21.08	-24.5	-25.2	18.1	1.27e-04	0	45	0	1663041536	10	3893
2026-01-20 00:44:48.89	88.26	21.08	-24.7	-25.5	18.0	1.44e-04	0	44	0	1668284416	10	3970
2026-01-20 00:44:49.88	88.51	21.08	-24.6	-25.4	18.0	0.00e+00	0	45	0	1673527296	10	3946
2026-01-20 00:44:50.88	88.77	21.07	-24.8	-25.8	17.8	1.85e-04	0	44	0	1679818752	10	4041
2026-01-20 00:44:51.89	89.04	21.07	-24.7	-25.5	18.0	0.00e+00	0	45	0	1685061632	10	3974
2026-01-20 00:44:52.89	89.29	21.06	-24.5	-25.1	18.2	0.00e+00	0	45	0	1691353088	10	3870
2026-01-20 00:44:53.89	89.55	21.06	-24.8	-25.7	17.9	1.97e-04	0	45	0	1696595968	10	4004
2026-01-20 00:44:54.90	89.82	21.05	-24.4	-24.9	18.3	1.91e-04	0	44	0	1701838848	10	3821
2026-01-20 00:44:55.90	90.07	21.04	-24.3	-25.1	18.4	0.00e+00	0	44	0	1708130304	9	3967
2026-01-20 00:44:56.91	90.34	21.04	-24.3	-25.2	18.4	2.41e-04	0	45	0	1713373184	9	4001
2026-01-20 00:44:57.91	90.59	21.03	-24.3	-25.2	18.4	2.49e-04	0	44	0	1719664640	9	3981
2026-01-20 00:44:58.91	90.85	21.02	-24.3	-25.3	18.4	0.00e+00	0	45	0	1724907520	9	4010
2026-01-20 00:44:59.92	91.11	21.01	-24.4	-25.4	18.3	2.08e-04	0	45	0	1730150400	9	4044
2026-01-20 00:45:00.92	91.37	21.00	-24.5	-25.6	18.2	1.76e-04	0	44	0	1736441856	9	4083
2026-01-20 00:45:01.92	91.63	20.99	-24.5	-25.7	18.2	0.00e+00	0	44	0	1741684736	9	4114
2026-01-20 00:45:02.92	91.89	20.98	-24.5	-25.8	18.1	3.31e-05	0	44	0	1746927616	9	4136
2026-01-20 00:45:03.92	92.15	20.97	-24.5	-25.6	18.2	2.20e-06	0	45	0	1753219072	9	4104
2026-01-20 00:45:04.92	92.40	20.95	-24.6	-25.8	18.1	0.00e+00	0	44	0	1758461952	9	4137
2026-01-20 00:45:05.91	92.66	20.94	-24.6	-25.9	18.0	0.00e+00	0	45	0	1764753408	9	4181
2026-01-20 00:45:06.92	92.92	20.93	-24.8	-26.2	17.9	2.20e-06	0	45	0	1769996288	9	4247
2026-01-20 00:45:07.93	93.18	20.91	-24.8	-26.2	17.9	0.00e+00	0	45	0	1775239168	9	4259
2026-01-20 00:45:08.93	93.44	20.90	-24.7	-26.1	17.9	4.92e-05	0	45	0	1781530624	9	4228
2026-01-20 00:45:09.93	93.69	20.89	-24.9	-26.4	17.8	5.26e-05	0	45	0	1786773504	9	4309
2026-01-20 00:45:10.93	93.95	20.87	-24.8	-26.2	17.9	1.10e-06	0	45	0	1792016384	9	4249
2026-01-20 00:45:11.93	94.20	20.85	-24.6	-25.9	18.0	8.58e-05	0	44	0	1798307840	9	4176
2026-01-20 00:45:12.94	94.46	20.84	-24.7	-26.0	18.0	0.00e+00	0	45	0	1803550720	9	4182
2026-01-20 00:45:13.95	94.72	20.82	-24.5	-25.7	18.1	0.00e+00	0	45	0	1808793600	9	4121
2026-01-20 00:45:14.96	94.98	20.80	-24.6	-25.8	18.1	0.00e+00	0	44	0	1815085056	9	4152
2026-01-20 00:45:15.96	95.23	20.78	-24.7	-26.1	17.9	4.11e-05	0	44	0	1820327936	9	4214
2026-01-20 00:45:16.96	95.49	20.76	-24.6	-25.9	18.0	0.00e+00	0	45	0	1826619392	9	4181
2026-01-20 00:45:17.96	95.74	20.74	-24.8	-26.2	17.9	0.00e+00	0	44	0	1831862272	9	4247
2026-01-20 00:45:18.96	96.00	20.72	-25.0	-26.3	17.6	0.00e+00	0	45	0	1838153728	10	4158
2026-01-20 00:45:19.97	96.25	20.70	-25.0	-26.1	17.7	0.00e+00	0	45	0	1843396608	10	4110
2026-01-20 00:45:20.96	96.50	20.68	-24.9	-26.0	17.7	0.00e+00	0	44	0	1848639488	10	4098
2026-01-20 00:45:21.97	96.76	20.66	-25.1	-26.4	17.5	0.00e+00	0	44	0	1854930944	10	4183
2026-01-20 00:45:22.97	97.01	20.64	-24.8	-25.8	17.8	0.00e+00	0	44	0	1860173824	10	4042
2026-01-20 00:45:23.96	97.26	20.62	-24.7	-25.6	17.9	0.00e+00	0	44	0	1865416704	10	3979
2026-01-20 00:45:24.96	97.51	20.59	-24.8	-25.7	17.9	0.00e+00	0	44	0	1871708160	10	4016
2026-01-20 00:45:25.95	97.76	20.57	-24.9	-25.9	17.8	0.00e+00	0	45	0	1876951040	10	4059
2026-01-20 00:45:26.95	98.01	20.55	-24.7	-25.5	18.0	0.00e+00	0	44	0	1882193920	10	3949
2026-01-20 00:45:27.95	98.26	20.52	-24.6	-25.2	18.1	0.00e+00	0	44	0	1888485376	10	3897
2026-01-20 00:45:28.95	98.51	20.50	-24.7	-25.5	18.0	0.00e+00	0	44	0	1893728256	10	3946
2026-01-20 00:45:29.96	98.77	20.47	-24.6	-25.3	18.1	0.00e+00	0	44	0	1900019712	10	3914
2026-01-20 00:45:30.96	99.02	20.44	-24.8	-25.7	17.9	0.00e+00	0	44	0	1905262592	10	4006
2026-01-20 00:45:31.96	99.27	20.42	-24.7	-25.7	17.9	0.00e+00	0	44	0	1910505472	10	4000
2026-01-20 00:45:32.97	99.52	20.39	-24.7	-25.6	17.9	1.19e-04	0	44	0	1916796928	10	3979
2026-01-20 00:45:33.97	99.77	20.36	-24.7	-25.5	18.0	0.00e+00	0	44	0	1922039808	10	3950
2026-01-20 00:45:34.97	100.01	20.33	-24.5	-25.2	18.1	0.00e+00	0	44	0	1927282688	10	3876
2026-01-20 00:45:35.98	100.26	20.30	-24.5	-25.2	18.1	0.00e+00	0	44	0	1933574144	10	3889
2026-01-20 00:45:36.97	100.51	20.27	-24.8	-25.7	17.8	0.00e+00	0	44	0	1938817024	10	4005
2026-01-20 00:45:37.97	100.75	20.24	-24.6	-25.4	18.0	0.00e+00	0	44	0	1944059904	10	3936
2026-01-20 00:45:38.96	101.00	20.21	-24.6	-25.5	18.0	0.00e+00	0	44	0	1950351360	10	3952
2026-01-20 00:45:39.97	101.25	20.18	-24.6	-25.3	18.0	0.00e+00	0	44	0	1955594240	10	3922
2026-01-20 00:45:40.98	101.49	20.15	-24.6	-25.4	18.0	0.00e+00	0	44	0	1961885696	10	3930
2026-01-20 00:45:41.97	101.74	20.12	-24.6	-25.4	18.0	0.00e+00	0	44	0	1967128576	10	3938
2026-01-20 00:45:42.97	101.98	20.09	-24.8	-25.7	17.8	0.00e+00	0	44	0	1972371456	10	3999
2026-01-20 00:45:43.97	102.22	20.05	-24.9	-25.9	17.7	0.00e+00	0	44	0	1978662912	10	4067
2026-01-20 00:45:44.97	102.47	20.02	-25.0	-26.2	17.6	0.00e+00	0	44	0	1983905792	10	4127
2026-01-20 00:45:45.98	102.71	19.99	-25.0	-26.3	17.5	0.00e+00	0	44	0	1989148672	10	4154
2026-01-20 00:45:46.98	102.95	19.95	-25.2	-26.7	17.3	0.00e+00	0	44	0	1995440128	10	4253
2026-01-20 00:45:47.99	103.20	19.92	-25.1	-26.4	17.4	0.00e+00	0	44	0	2000683008	10	4185
2026-01-20 00:45:49.00	103.44	19.88	-25.0	-26.1	17.6	0.00e+00	0	44	0	2005925888	10	4117
2026-01-20 00:45:50.00	103.68	19.85	-25.1	-26.4	17.5	0.00e+00	0	44	0	2012217344	10	4184
2026-01-20 00:45:50.99	103.92	19.81	-25.0	-26.2	17.5	0.00e+00	0	44	0	2017460224	10	4129
2026-01-20 00:45:52.00	104.16	19.78	-25.0	-26.3	17.5	0.00e+00	0	44	0	2023751680	10	4166
2026-01-20 00:45:53.00	104.40	19.74	-25.1	-26.4	17.5	0.00e+00	0	44	0	2028994560	10	4179
2026-01-20 00:45:54.00	104.64	19.70	-25.0	-26.1	17.6	0.00e+00	0	44	0	2034237440	10	4119
2026-01-20 00:45:55.00	104.88	19.66	-24.9	-26.0	17.6	0.00e+00	0	44	0	2040528896	10	4089
2026-01-20 00:45:56.00	105.11	19.63	-25.2	-26.6	17.3	0.00e+00	0	44	0	2045771776	10	4224
2026-01-20 00:45:57.01	105.35	19.59	-25.0	-26.2	17.5	0.00e+00	0	44	0	2051014656	10	4140
2026-01-20 00:45:58.01	105.59	19.55	-25.0	-26.2	17.5	0.00e+00	0	44	0	2057306112	10	4138
2026-01-20 00:45:59.02	105.83	19.51	-25.0	-26.3	17.4	0.00e+00	0	44	0	2062548992	10	4166
2026-01-20 00:46:00.02	106.06	19.47	-25.3	-26.9	17.2	0.00e+00	0	44	0	2068840448	10	4306
2026-01-20 00:46:01.02	106.29	19.43	-25.1	-26.4	17.4	0.00e+00	0	44	0	2074083328	10	4196
2026-01-20 00:46:02.02	106.53	19.39	-25.1	-26.5	17.4	0.00e+00	0	44	0	2079326208	10	4221
2026-01-20 00:46:03.03	106.76	19.35	-25.2	-26.6	17.3	0.00e+00	0	44	0	2085617664	10	4239
2026-01-20 00:46:04.03	107.00	19.30	-25.1	-26.5	17.4	0.00e+00	0	44	0	2090860544	10	4207
2026-01-20 00:46:05.04	107.23	19.26	-25.2	-26.6	17.3	0.00e+00	0	44	0	2097152000	10	4244
2026-01-20 00:46:06.04	107.46	19.22	-25.1	-26.5	17.4	0.00e+00	0	44	0	2102394880	10	4208
2026-01-20 00:46:07.04	107.69	19.18	-25.2	-26.6	17.3	0.00e+00	0	44	0	2107637760	10	4250
2026-01-20 00:46:08.04	107.92	19.13	-25.0	-26.3	17.5	0.00e+00	0	44	0	2113929216	10	4153
2026-01-20 00:46:09.04	108.15	19.09	-25.0	-26.1	17.6	0.00e+00	0	44	0	2119172096	10	4121
2026-01-20 00:46:10.04	108.38	19.05	-25.0	-26.2	17.5	0.00e+00	0	44	0	2124414976	10	4138
2026-01-20 00:46:11.05	108.61	19.00	-25.2	-26.6	17.3	0.00e+00	0	44	0	2130706432	10	4245
2026-01-20 00:46:12.05	108.84	18.96	-25.1	-26.4	17.4	0.00e+00	0	44	0	2135949312	10	4191
2026-01-20 00:46:13.05	109.06	18.91	-25.2	-26.7	17.2	0.00e+00	0	45	0	2142240768	10	4273
2026-01-20 00:46:14.06	109.29	18.87	-25.2	-26.6	17.3	0.00e+00	0	44	0	2147483648	10	4246
2026-01-20 00:46:15.06	109.52	18.82	-25.3	-26.8	17.2	3.40e-06	0	44	0	2153775104	10	4281
2026-01-20 00:46:16.06	109.74	18.78	-25.5	-27.2	17.0	0.00e+00	0	45	0	2159017984	10	4405
2026-01-20 00:46:17.06	109.97	18.73	-25.3	-26.8	17.2	0.00e+00	0	44	0	2164260864	10	4291
2026-01-20 00:46:18.07	110.19	18.68	-25.2	-26.6	17.3	1.10e-06	0	44	0	2170552320	10	4248
2026-01-20 00:46:19.07	110.41	18.64	-25.3	-26.9	17.2	0.00e+00	0	44	0	2175795200	10	4309
2026-01-20 00:46:20.07	110.64	18.59	-25.3	-26.8	17.2	0.00e+00	0	45	0	2181038080	10	4289
2026-01-20 00:46:21.08	110.86	18.54	-25.2	-26.7	17.2	0.00e+00	0	45	0	2187329536	10	4260
2026-01-20 00:46:22.08	111.08	18.49	-25.3	-26.8	17.2	0.00e+00	0	45	0	2192572416	10	4293
2026-01-20 00:46:23.08	111.30	18.45	-25.5	-27.2	17.0	0.00e+00	0	44	0	2197815296	10	4408
2026-01-20 00:46:24.08	111.52	18.40	-25.2	-26.7	17.2	2.20e-06	0	45	0	2204106752	10	4272
2026-01-20 00:46:25.09	111.74	18.35	-25.1	-26.5	17.4	0.00e+00	0	44	0	2209349632	10	4206
2026-01-20 00:46:26.09	111.96	18.30	-25.1	-26.4	17.3	0.00e+00	0	44	0	2215641088	10	4199
2026-01-20 00:46:27.09	112.18	18.25	-25.1	-26.5	16.6	1.10e-06	0	44	0	2220883968	10	4217
2026-01-20 00:46:28.10	112.40	18.20	-25.1	-26.4	17.4	0.00e+00	0	45	0	2226126848	10	4187
2026-01-20 00:46:29.10	112.61	18.15	-25.3	-26.8	17.2	0.00e+00	0	44	0	2232418304	10	4281
2026-01-20 00:46:30.10	112.83	18.10	-25.3	-26.9	17.1	1.10e-06	0	44	0	2237661184	10	4332
2026-01-20 00:46:31.11	113.04	18.05	-25.6	-27.0	16.8	0.00e+00	0	44	0	2243952640	11	4250
2026-01-20 00:46:32.11	113.26	18.00	-25.6	-27.1	16.7	0.00e+00	0	45	0	2249195520	11	4254
2026-01-20 00:46:33.11	113.47	17.95	-25.7	-27.2	16.6	0.00e+00	0	45	0	2254438400	11	4301
2026-01-20 00:46:34.11	113.68	17.89	-25.7	-27.2	16.7	0.00e+00	0	45	0	2260729856	11	4293
2026-01-20 00:46:35.12	113.90	17.84	-25.6	-27.1	16.7	8.00e-06	0	45	0	2265972736	11	4261
2026-01-20 00:46:36.12	114.11	17.79	-25.6	-27.1	16.7	0.00e+00	0	45	0	2271215616	11	4257
2026-01-20 00:46:37.12	114.32	17.74	-25.7	-27.2	16.6	0.00e+00	0	45	0	2277507072	11	4288
2026-01-20 00:46:38.11	114.53	17.69	-25.6	-27.1	16.7	0.00e+00	0	44	0	2282749952	11	4251
2026-01-20 00:46:39.12	114.74	17.63	-25.6	-27.0	16.8	1.37e-05	0	44	0	2289041408	11	4234
2026-01-20 00:46:40.13	114.95	17.58	-25.6	-27.0	16.8	0.00e+00	0	44	0	2294284288	11	4230
2026-01-20 00:46:41.14	115.16	17.53	-25.7	-27.2	16.7	0.00e+00	0	45	0	2299527168	11	4276
2026-01-20 00:46:42.14	115.36	17.47	-25.6	-26.9	16.8	3.89e-05	0	45	0	2305818624	11	4219
2026-01-20 00:46:43.15	115.57	17.42	-25.6	-27.1	16.8	0.00e+00	0	45	0	2311061504	11	4246
2026-01-20 00:46:44.15	115.78	17.36	-25.5	-26.8	16.9	6.75e-05	0	45	0	2316304384	11	4181
2026-01-20 00:46:45.15	115.98	17.31	-25.5	-26.8	16.9	0.00e+00	0	44	0	2322595840	11	4185
2026-01-20 00:46:46.15	116.19	17.26	-25.6	-27.1	16.7	0.00e+00	0	45	0	2327838720	11	4246
2026-01-20 00:46:47.15	116.39	17.20	-25.5	-26.7	16.9	0.00e+00	0	44	0	2333081600	11	4152
2026-01-20 00:46:48.16	116.59	17.15	-25.7	-27.1	16.7	0.00e+00	0	45	0	2339373056	11	4267
2026-01-20 00:46:49.16	116.80	17.09	-25.6	-27.0	16.8	0.00e+00	0	45	0	2344615936	11	4223
2026-01-20 00:46:50.17	117.00	17.04	-25.7	-27.3	16.6	0.00e+00	0	44	0	2350907392	11	4309
2026-01-20 00:46:51.17	117.20	16.98	-25.8	-27.5	16.4	0.00e+00	0	45	0	2356150272	11	4381
2026-01-20 00:46:52.17	117.40	16.92	-25.9	-27.3	16.3	0.00e+00	0	45	0	2362441728	12	4203
2026-01-20 00:46:53.17	117.60	16.87	-25.9	-27.2	16.3	0.00e+00	0	45	0	2367684608	12	4180
2026-01-20 00:46:54.18	117.80	16.81	-25.9	-27.2	16.3	4.57e-05	0	45	0	2372927488	12	4175
2026-01-20 00:46:55.18	117.99	16.76	-26.0	-27.3	16.2	0.00e+00	0	44	0	2379218944	12	4213
2026-01-20 00:46:56.19	118.19	16.70	-26.0	-27.3	16.2	1.14e-04	0	45	0	2384461824	12	4201
2026-01-20 00:46:57.20	118.39	16.64	-26.1	-27.6	16.1	1.05e-04	0	45	0	2389704704	12	4269
2026-01-20 00:46:58.20	118.59	16.58	-26.4	-28.2	15.7	0.00e+00	0	45	0	2395996160	12	4454
2026-01-20 00:46:59.21	118.78	16.53	-26.2	-27.8	16.0	1.10e-06	0	45	0	2401239040	12	4342
2026-01-20 00:47:00.21	118.98	16.47	-26.1	-27.6	16.0	2.39e-04	0	45	0	2407530496	12	4294
2026-01-20 00:47:01.20	119.17	16.41	-26.1	-27.6	16.0	0.00e+00	0	45	0	2412773376	12	4277
2026-01-20 00:47:02.21	119.36	16.35	-26.2	-27.8	15.9	1.80e-04	0	44	0	2418016256	12	4351
2026-01-20 00:47:03.21	119.55	16.30	-26.1	-27.5	16.1	1.54e-04	0	45	0	2424307712	12	4264
2026-01-20 00:47:04.21	119.75	16.24	-25.9	-27.3	16.2	0.00e+00	0	44	0	2429550592	12	4198
2026-01-20 00:47:05.21	119.94	16.18	-26.0	-27.4	16.1	7.32e-05	0	45	0	2435842048	12	4237
2026-01-20 00:47:06.22	120.13	16.12	-25.8	-27.0	16.4	0.00e+00	0	44	0	2441084928	12	4127
2026-01-20 00:47:07.22	120.32	16.06	-25.8	-27.1	16.3	0.00e+00	0	45	0	2446327808	12	4147
2026-01-20 00:47:08.22	120.50	16.01	-25.8	-27.0	16.4	5.70e-06	0	45	0	2452619264	12	4125
2026-01-20 00:47:09.22	120.69	15.95	-25.7	-26.8	16.5	0.00e+00	0	45	0	2457862144	12	4073
2026-01-20 00:47:10.23	120.88	15.89	-25.7	-26.7	16.5	0.00e+00	0	45	0	2463105024	12	4054
2026-01-20 00:47:11.23	121.07	15.83	-25.7	-26.7	16.5	2.20e-06	0	45	0	2469396480	12	4061
2026-01-20 00:47:12.24	121.25	15.77	-25.7	-26.8	16.5	5.60e-05	0	45	0	2474639360	12	4074
2026-01-20 00:47:13.24	121.44	15.71	-25.8	-27.0	16.3	0.00e+00	0	45	0	2479882240	12	4121
2026-01-20 00:47:14.24	121.62	15.65	-25.6	-26.5	16.6	1.10e-06	0	45	0	2486173696	12	4001
2026-01-20 00:47:15.23	121.80	15.59	-25.6	-26.4	16.6	3.66e-05	0	45	0	2491416576	12	3983
2026-01-20 00:47:16.23	121.99	15.53	-25.7	-26.6	16.5	0.00e+00	0	44	0	2497708032	12	4033
2026-01-20 00:47:17.24	122.17	15.47	-25.7	-26.7	16.5	2.20e-06	0	45	0	2502950912	12	4049
2026-01-20 00:47:18.24	122.35	15.41	-25.7	-26.9	16.4	0.00e+00	0	45	0	2508193792	12	4090
2026-01-20 00:47:19.25	122.53	15.35	-25.8	-27.0	16.3	0.00e+00	0	45	0	2514485248	12	4125
2026-01-20 00:47:20.25	122.71	15.29	-25.9	-27.2	16.2	2.20e-06	0	45	0	2519728128	12	4179
2026-01-20 00:47:21.25	122.89	15.23	-25.9	-27.2	16.2	0.00e+00	0	45	0	2524971008	12	4181
2026-01-20 00:47:22.25	123.07	15.17	-26.0	-27.3	16.1	0.00e+00	0	45	0	2531262464	12	4216
2026-01-20 00:47:23.25	123.25	15.11	-25.9	-27.2	16.2	0.00e+00	0	45	0	2536505344	12	4176
2026-01-20 00:47:24.26	123.42	15.05	-25.9	-27.1	16.2	2.83e-04	0	45	0	2541748224	12	4166
2026-01-20 00:47:25.27	123.60	14.99	-26.0	-27.4	16.1	0.00e+00	0	45	0	2548039680	12	4233
2026-01-20 00:47:26.26	123.78	14.93	-26.0	-27.5	16.1	2.20e-06	0	45	0	2553282560	12	4258
2026-01-20 00:47:27.27	123.95	14.87	-26.1	-27.7	15.9	0.00e+00	0	45	0	2559574016	12	4320
2026-01-20 00:47:28.27	124.13	14.80	-26.0	-27.4	16.0	0.00e+00	0	45	0	2564816896	12	4247
2026-01-20 00:47:29.26	124.30	14.74	-26.1	-27.6	16.0	1.83e-05	0	45	0	2571108352	12	4288
2026-01-20 00:47:30.26	124.47	14.68	-26.2	-27.8	15.9	0.00e+00	0	45	0	2576351232	12	4337
2026-01-20 00:47:31.26	124.64	14.62	-26.4	-28.2	15.6	1.10e-06	0	45	0	2581594112	12	4468
2026-01-20 00:47:32.26	124.81	14.56	-26.3	-28.1	15.7	0.00e+00	0	45	0	2587885568	12	4419
2026-01-20 00:47:33.26	124.98	14.50	-26.4	-28.3	15.5	0.00e+00	0	45	0	2593128448	12	4501
2026-01-20 00:47:34.26	125.15	14.44	-26.4	-28.4	15.5	0.00e+00	0	45	0	2598371328	12	4507
2026-01-20 00:47:35.26	125.32	14.38	-26.3	-28.1	15.7	0.00e+00	0	45	0	2604662784	12	4435
2026-01-20 00:47:36.26	125.49	14.31	-26.2	-28.0	15.7	0.00e+00	0	45	0	2609905664	12	4396
2026-01-20 00:47:37.26	125.66	14.25	-26.2	-27.9	15.8	0.00e+00	0	45	0	2615148544	12	4383
2026-01-20 00:47:38.26	125.83	14.19	-26.2	-27.9	15.7	0.00e+00	0	45	0	2621440000	12	4381
2026-01-20 00:47:39.27	126.00	14.13	-26.1	-27.7	15.9	0.00e+00	0	45	0	2626682880	12	4315
2026-01-20 00:47:40.26	126.16	14.07	-26.2	-27.9	15.8	0.00e+00	0	45	0	2632974336	12	4358
2026-01-20 00:47:41.27	126.33	14.01	-26.1	-27.7	15.9	5.70e-06	0	45	0	2638217216	12	4304
2026-01-20 00:47:42.27	126.49	13.94	-26.1	-27.7	15.8	0.00e+00	0	45	0	2643460096	12	4331
2026-01-20 00:47:43.27	126.66	13.88	-26.2	-27.8	15.8	9.10e-06	0	45	0	2649751552	12	4333
2026-01-20 00:47:44.27	126.82	13.82	-26.2	-27.9	15.7	3.40e-06	0	45	0	2654994432	12	4373
2026-01-20 00:47:45.28	126.98	13.76	-26.2	-27.8	15.8	0.00e+00	0	45	0	2660237312	12	4356
2026-01-20 00:47:46.28	127.14	13.69	-26.2	-27.8	15.8	0.00e+00	0	45	0	2666528768	12	4338
2026-01-20 00:47:47.28	127.31	13.63	-26.2	-27.9	15.7	0.00e+00	0	44	0	2671771648	12	4379
2026-01-20 00:47:48.28	127.47	13.57	-26.3	-28.0	15.6	0.00e+00	0	45	0	2677014528	12	4417
2026-01-20 00:47:49.28	127.63	13.51	-26.3	-28.1	15.6	0.00e+00	0	45	0	2683305984	12	4425
2026-01-20 00:47:50.29	127.79	13.44	-26.3	-28.1	15.6	0.00e+00	0	45	0	2688548864	12	4430
2026-01-20 00:47:51.28	127.94	13.38	-26.2	-27.9	15.7	0.00e+00	0	45	0	2694840320	12	4389
2026-01-20 00:47:52.29	128.10	13.32	-26.2	-27.9	15.7	0.00e+00	0	45	0	2700083200	12	4374
2026-01-20 00:47:53.29	128.26	13.26	-26.3	-28.1	15.6	0.00e+00	0	44	0	2705326080	12	4421
2026-01-20 00:47:54.29	128.42	13.19	-26.3	-28.0	15.6	0.00e+00	0	45	0	2711617536	12	4414
2026-01-20 00:47:55.29	128.57	13.13	-26.4	-28.2	15.5	0.00e+00	0	45	0	2716860416	12	4464
2026-01-20 00:47:56.30	128.73	13.07	-26.2	-27.9	15.7	0.00e+00	0	45	0	2722103296	12	4368
2026-01-20 00:47:57.30	128.88	13.01	-26.3	-28.0	15.6	0.00e+00	0	45	0	2728394752	12	4392
2026-01-20 00:47:58.30	129.04	12.94	-26.4	-28.3	15.5	0.00e+00	0	45	0	2733637632	12	4476
2026-01-20 00:47:59.30	129.19	12.88	-26.4	-28.3	15.5	0.00e+00	0	45	0	2738880512	12	4468
2026-01-20 00:48:00.30	129.35	12.82	-26.4	-28.4	15.4	0.00e+00	0	45	0	2745171968	12	4507
2026-01-20 00:48:01.31	129.50	12.75	-26.5	-28.0	15.3	0.00e+00	0	45	0	2750414848	13	4297
2026-01-20 00:48:02.31	129.65	12.69	-26.7	-28.4	15.1	0.00e+00	0	45	0	2756706304	13	4412
2026-01-20 00:48:03.31	129.80	12.63	-26.6	-28.2	15.2	0.00e+00	0	45	0	2761949184	13	4355
2026-01-20 00:48:04.32	129.95	12.57	-26.6	-28.3	15.1	0.00e+00	0	45	0	2768240640	13	4375
2026-01-20 00:48:05.32	130.10	12.50	-26.6	-28.4	15.1	0.00e+00	0	45	0	2773483520	13	4393
2026-01-20 00:48:06.31	130.25	12.44	-26.5	-28.1	15.2	1.10e-06	0	45	0	2778726400	13	4324
2026-01-20 00:48:07.32	130.40	12.38	-26.4	-27.9	15.3	0.00e+00	0	45	0	2785017856	13	4275
2026-01-20 00:48:08.32	130.55	12.31	-26.5	-28.1	15.2	0.00e+00	0	45	0	2790260736	13	4329
2026-01-20 00:48:09.32	130.70	12.25	-26.6	-28.3	15.1	1.10e-06	0	45	0	2795503616	13	4366
2026-01-20 00:48:10.33	130.84	12.19	-26.5	-28.0	15.3	1.10e-06	0	45	0	2801795072	13	4290
2026-01-20 00:48:11.33	130.99	12.13	-26.5	-28.1	15.2	0.00e+00	0	45	0	2807037952	13	4322
2026-01-20 00:48:12.33	131.14	12.06	-26.6	-28.3	15.1	0.00e+00	0	45	0	2812280832	13	4364
2026-01-20 00:48:13.34	131.28	12.00	-26.6	-28.3	15.1	0.00e+00	0	45	0	2818572288	13	4386
2026-01-20 00:48:14.34	131.43	11.94	-26.7	-28.6	14.9	1.10e-06	0	45	0	2823815168	13	4451
2026-01-20 00:48:15.33	131.57	11.87	-26.7	-28.5	14.9	0.00e+00	0	45	0	2830106624	13	4448
2026-01-20 00:48:16.33	131.71	11.81	-26.9	-28.9	14.7	0.00e+00	0	45	0	2835349504	13	4568
2026-01-20 00:48:17.34	131.85	11.75	-26.8	-28.9	14.7	1.10e-06	0	45	0	2840592384	13	4544
2026-01-20 00:48:18.34	132.00	11.69	-27.0	-29.1	14.6	0.00e+00	0	45	0	2846883840	13	4630
2026-01-20 00:48:19.34	132.14	11.62	-27.1	-29.0	14.4	3.40e-06	0	45	0	2852126720	14	4470
2026-01-20 00:48:20.35	132.28	11.56	-27.2	-29.1	14.3	2.20e-06	0	45	0	2857369600	14	4502
2026-01-20 00:48:21.35	132.42	11.50	-27.0	-28.7	14.5	0.00e+00	0	45	0	2863661056	14	4388
2026-01-20 00:48:22.35	132.56	11.43	-27.1	-29.0	13.5	2.20e-06	0	45	0	2868903936	14	4477
2026-01-20 00:48:23.35	132.70	11.37	-27.4	-29.6	14.0	4.50e-06	0	45	0	2874146816	14	4637
2026-01-20 00:48:24.36	132.84	11.31	-27.4	-29.7	14.0	1.10e-06	0	45	0	2880438272	14	4682
2026-01-20 00:48:25.37	132.98	11.24	-27.3	-29.4	14.2	3.40e-06	0	45	0	2885681152	14	4572
2026-01-20 00:48:26.37	133.11	11.18	-27.5	-29.2	14.0	3.60e-04	0	44	0	2891972608	15	4421
2026-01-20 00:48:27.37	133.25	11.12	-27.4	-29.1	14.0	3.40e-06	0	45	0	2897215488	15	4391
2026-01-20 00:48:28.37	133.39	11.06	-27.5	-29.3	13.9	5.50e-04	0	45	0	2903506944	15	4442
2026-01-20 00:48:29.37	133.52	10.99	-27.5	-29.4	13.8	2.20e-06	0	45	0	2908749824	15	4487
2026-01-20 00:48:30.38	133.66	10.93	-27.6	-29.7	13.6	2.05e-05	0	45	0	2913992704	15	4564
2026-01-20 00:48:31.38	133.79	10.87	-27.3	-29.6	14.0	6.36e-04	0	45	0	2920284160	14	4655
2026-01-20 00:48:32.38	133.93	10.80	-27.3	-29.5	14.0	5.70e-06	0	45	0	2925527040	14	4628
2026-01-20 00:48:33.39	134.06	10.74	-27.5	-29.4	13.8	1.14e-05	0	45	0	2930769920	15	4487
2026-01-20 00:48:34.39	134.19	10.68	-27.3	-29.0	14.0	3.40e-06	0	45	0	2937061376	15	4366
2026-01-20 00:48:35.40	134.33	10.62	-27.1	-29.1	14.2	4.65e-04	0	45	0	2942304256	14	4496
2026-01-20 00:48:36.40	134.46	10.55	-27.3	-29.4	14.1	2.20e-06	0	45	0	2947547136	14	4595
2026-01-20 00:48:37.40	134.59	10.49	-27.1	-28.9	14.3	2.82e-04	0	45	0	2953838592	14	4452
2026-01-20 00:48:38.40	134.72	10.43	-27.1	-29.0	14.3	2.35e-04	0	45	0	2959081472	14	4471
2026-01-20 00:48:39.41	134.85	10.36	-27.0	-28.8	14.3	1.10e-06	0	45	0	2965372928	14	4423
2026-01-20 00:48:40.41	134.98	10.30	-27.2	-29.2	14.1	2.44e-04	0	45	0	2970615808	14	4544
2026-01-20 00:48:41.40	135.11	10.24	-27.1	-28.9	14.3	4.50e-06	0	45	0	2975858688	14	4429
2026-01-20 00:48:42.41	135.24	10.18	-27.0	-28.7	14.4	1.10e-06	0	45	0	2982150144	14	4390
2026-01-20 00:48:43.41	135.37	10.12	-27.1	-29.0	14.3	3.57e-04	0	45	0	2987393024	14	4467
2026-01-20 00:48:44.42	135.50	10.05	-27.1	-29.0	14.3	3.80e-04	0	45	0	2993684480	14	4459
2026-01-20 00:48:45.42	135.62	9.99	-27.2	-29.2	14.1	4.50e-06	0	45	0	2998927360	14	4533
2026-01-20 00:48:46.42	135.75	9.93	-27.3	-29.3	14.1	4.37e-04	0	45	0	3004170240	14	4541
2026-01-20 00:48:47.42	135.88	9.87	-27.2	-29.1	14.2	4.18e-04	0	44	0	3010461696	14	4484
2026-01-20 00:48:48.43	136.00	9.80	-27.3	-29.4	14.0	3.40e-06	0	45	0	3015704576	14	4567
2026-01-20 00:48:49.44	136.13	9.74	-27.4	-29.7	13.8	4.49e-04	0	45	0	3020947456	14	4658
2026-01-20 00:48:50.44	136.25	9.68	-27.5	-29.5	13.7	4.15e-04	0	45	0	3027238912	15	4490
2026-01-20 00:48:51.45	136.38	9.62	-27.6	-29.6	13.6	1.94e-05	0	45	0	3032481792	15	4536
2026-01-20 00:48:52.45	136.50	9.55	-27.5	-29.4	13.7	4.21e-04	0	45	0	3038773248	15	4473
2026-01-20 00:48:53.45	136.62	9.49	-27.4	-29.3	13.7	1.66e-04	0	45	0	3044016128	15	4457
2026-01-20 00:48:54.46	136.75	9.43	-27.3	-29.1	13.8	1.14e-05	0	45	0	3050307584	15	4404
2026-01-20 00:48:55.46	136.87	9.37	-27.4	-29.2	13.7	1.25e-05	0	45	0	3055550464	15	4457
2026-01-20 00:48:56.46	136.99	9.31	-27.5	-29.5	13.5	4.36e-04	0	45	0	3060793344	15	4549
2026-01-20 00:48:57.46	137.11	9.24	-27.2	-28.9	13.9	1.37e-05	0	45	0	3066036224	15	4368
2026-01-20 00:48:58.46	137.23	9.18	-27.3	-29.7	13.7	5.38e-04	0	45	0	3072327680	14	4699
2026-01-20 00:48:59.46	137.35	9.12	-27.3	-29.6	13.7	5.16e-04	0	45	0	3077570560	14	4678
2026-01-20 00:49:00.46	137.47	9.06	-27.2	-29.4	13.9	8.00e-06	0	45	0	3083862016	14	4609
2026-01-20 00:49:01.46	137.59	9.00	-27.3	-29.4	13.8	4.53e-04	0	45	0	3089104896	14	4620
2026-01-20 00:49:02.46	137.71	8.94	-27.3	-29.6	13.8	9.10e-06	0	45	0	3094347776	14	4654
2026-01-20 00:49:03.46	137.82	8.87	-27.6	-29.7	13.4	1.83e-05	0	45	0	3100639232	15	4571
2026-01-20 00:49:04.46	137.94	8.81	-27.4	-29.3	13.6	1.02e-05	0	45	0	3105882112	15	4443
2026-01-20 00:49:05.46	138.06	8.75	-27.4	-29.1	13.7	5.70e-06	0	45	0	3112173568	15	4406
2026-01-20 00:49:06.46	138.17	8.69	-27.5	-29.5	13.4	1.25e-05	0	45	0	3117416448	15	4522
2026-01-20 00:49:07.47	138.29	8.63	-27.5	-29.5	13.5	1.02e-05	0	45	0	3122659328	15	4517
2026-01-20 00:49:08.47	138.41	8.57	-27.5	-29.5	13.4	3.00e-04	0	45	0	3128950784	15	4534
2026-01-20 00:49:09.47	138.52	8.51	-27.5	-29.6	13.4	1.60e-05	0	45	0	3134193664	15	4556
2026-01-20 00:49:10.47	138.64	8.44	-27.5	-29.5	13.4	2.99e-04	0	45	0	3139436544	15	4534
2026-01-20 00:49:11.47	138.75	8.38	-27.5	-29.5	13.4	1.37e-05	0	45	0	3145728000	15	4524
2026-01-20 00:49:12.47	138.86	8.32	-27.7	-29.9	13.2	3.20e-05	0	45	0	3150970880	15	4666
2026-01-20 00:49:13.48	138.98	8.26	-27.6	-29.8	13.2	4.68e-04	0	45	0	3157262336	15	4612
2026-01-20 00:49:14.48	139.09	8.20	-27.4	-29.2	13.6	1.83e-05	0	45	0	3162505216	15	4457
2026-01-20 00:49:15.48	139.20	8.14	-27.6	-29.7	13.3	1.71e-05	0	45	0	3167748096	15	4581
2026-01-20 00:49:16.49	139.32	8.08	-27.7	-29.9	13.2	5.03e-05	0	45	0	3174039552	15	4658
2026-01-20 00:49:17.49	139.43	8.02	-27.6	-29.8	13.2	3.43e-05	0	45	0	3179282432	15	4603
2026-01-20 00:49:18.48	139.54	7.96	-27.7	-29.9	13.2	3.77e-05	0	45	0	3184525312	15	4644
2026-01-20 00:49:19.49	139.65	7.89	-27.6	-29.7	13.3	4.34e-05	0	45	0	3190816768	15	4583
2026-01-20 00:49:20.48	139.76	7.83	-27.6	-29.8	13.2	2.28e-05	0	45	0	3196059648	15	4622
2026-01-20 00:49:21.49	139.87	7.77	-27.8	-30.1	12.9	6.29e-05	0	45	0	3201302528	15	4734
2026-01-20 00:49:22.49	139.98	7.71	-28.2	-30.7	12.4	9.26e-05	0	45	0	3207593984	16	4813
2026-01-20 00:49:23.50	140.09	7.65	-28.0	-30.3	12.6	1.68e-04	0	45	0	3212836864	16	4683
2026-01-20 00:49:24.51	140.20	7.59	-28.0	-30.4	12.6	1.20e-04	0	45	0	3219128320	16	4717
2026-01-20 00:49:25.51	140.30	7.53	-27.9	-30.2	12.6	2.02e-04	0	45	0	3224371200	16	4669
2026-01-20 00:49:26.52	140.41	7.47	-27.9	-30.1	12.7	1.27e-04	0	45	0	3230662656	16	4630
2026-01-20 00:49:27.52	140.52	7.41	-28.0	-30.5	12.4	1.92e-04	0	45	0	3235905536	16	4762
2026-01-20 00:49:28.52	140.63	7.35	-28.0	-30.5	12.4	1.48e-04	0	45	0	3241148416	16	4767
2026-01-20 00:49:29.53	140.73	7.29	-28.4	-31.3	11.9	6.16e-04	0	45	0	3247439872	16	5027
2026-01-20 00:49:30.53	140.84	7.23	-27.8	-29.9	12.7	1.37e-04	0	45	0	3252682752	16	4582
2026-01-20 00:49:31.53	140.94	7.17	-27.9	-30.6	12.4	2.77e-04	0	45	0	3257925632	15	4943
2026-01-20 00:49:32.53	141.05	7.11	-28.2	-30.8	12.2	2.79e-04	0	45	0	3264217088	16	4857
2026-01-20 00:49:33.53	141.15	7.05	-32.8	-43.2	3.8	2.45e-03	0	45	104	3268411392	25	11931
2026-01-20 00:49:34.54	141.26	6.99	-33.4	-45.0	3.8	8.46e-01	0	45	104	3268411392	26	13647
2026-01-20 00:49:35.53	141.36	6.93	-33.8	-45.3	3.8	8.47e-01	0	45	104	3268411392	27	13521
2026-01-20 00:49:36.54	141.47	6.87	-34.0	-45.1	3.8	8.46e-01	0	45	104	3268411392	28	12899

#Closed at: 2026-01-20 00:49:36
#Recorded file [3268 MB]: D:/data/31010_260120_033952.dat