passes_logs/2026/01/20/R2M6_AANII_01/R2M6_AANII_01__20260120_012135_SUOMI_NPP_rec.log

#Pass ID: 20260120_012135_SUOMI NPP
#Satellite: SUOMI NPP
#Configuration: NPP
#almurnet v.1.7.20240730
#Start time: 2026-01-20 01:21:36

#Version: 2.2.20231116
#Station: R2M6_AANII_01
#Location: 30.233357 lon 59.946436 lat
#TLE: 1 37849U 11061A   26019.26265094  .00000081  00000+0  59609-4 0  9993
#TLE: 2 37849  98.7817 321.2746 0002356  56.2510 303.8890 14.19526363737315

#Time	Az	El	Level	Level2	SNR	BER	BlckErr	Temp	State	Recorded	gain1	gain2
2026-01-20 01:21:36.13	13.88	7.06	-31.8	-36.1	5.1	1.26e+00	0	42	0	0	23	5902
2026-01-20 01:21:37.12	13.83	7.13	-31.8	-36.4	5.0	1.29e+00	0	42	104	0	23	6055
2026-01-20 01:21:38.13	13.79	7.21	-31.6	-35.1	9.3	3.50e-02	0	42	0	0	23	5401
2026-01-20 01:21:39.14	13.74	7.28	-31.8	-36.2	8.5	3.87e-02	0	42	0	1048576	23	5934
2026-01-20 01:21:40.14	13.69	7.36	-31.6	-35.4	9.1	3.31e-02	0	42	0	3145728	23	5533
2026-01-20 01:21:41.14	13.65	7.43	-31.5	-34.9	9.5	1.90e-02	0	42	0	5242880	23	5328
2026-01-20 01:21:42.15	13.60	7.51	-31.5	-34.8	9.6	1.24e-02	0	42	0	7340032	23	5259
2026-01-20 01:21:43.15	13.55	7.58	-31.5	-35.2	9.7	1.50e-02	0	42	0	9437184	22	5533
2026-01-20 01:21:44.15	13.50	7.66	-31.8	-35.9	8.8	2.85e-02	0	42	0	10485760	23	5780
2026-01-20 01:21:45.16	13.46	7.73	-31.5	-34.7	9.7	2.14e-02	0	42	0	12582912	23	5220
2026-01-20 01:21:46.16	13.41	7.81	-31.2	-34.1	10.6	7.03e-03	0	42	0	14680064	22	5051
2026-01-20 01:21:47.16	13.36	7.89	-31.1	-34.0	10.7	7.00e-03	0	42	0	16777216	22	4985
2026-01-20 01:21:48.17	13.31	7.96	-31.2	-34.2	10.5	5.90e-03	0	42	0	17825792	22	5070
2026-01-20 01:21:49.16	13.26	8.04	-31.1	-34.0	10.6	5.88e-03	0	42	0	19922944	22	4983
2026-01-20 01:21:50.17	13.21	8.12	-31.2	-34.1	10.6	5.91e-03	0	43	0	22020096	22	5026
2026-01-20 01:21:51.17	13.16	8.19	-31.1	-33.7	10.8	2.94e-03	0	42	0	24117248	22	4895
2026-01-20 01:21:52.17	13.12	8.27	-31.4	-34.7	10.1	7.76e-03	0	43	0	26214400	22	5287
2026-01-20 01:21:53.17	13.07	8.35	-31.3	-34.5	10.3	8.17e-03	0	42	0	27262976	22	5186
2026-01-20 01:21:54.18	13.01	8.43	-31.0	-33.9	11.0	2.76e-03	0	43	0	29360128	21	5057
2026-01-20 01:21:55.18	12.96	8.50	-31.0	-33.5	11.1	4.62e-03	0	43	0	31457280	22	4811
2026-01-20 01:21:56.19	12.91	8.58	-31.2	-34.1	10.7	4.90e-03	0	42	0	33554432	22	5013
2026-01-20 01:21:57.18	12.86	8.66	-31.3	-34.3	10.5	3.95e-03	0	43	0	35651584	22	5110
2026-01-20 01:21:58.19	12.81	8.74	-31.0	-33.6	11.0	4.85e-03	0	43	0	36700160	22	4834
2026-01-20 01:21:59.19	12.76	8.82	-31.0	-33.4	11.2	1.42e-03	0	43	0	38797312	22	4767
2026-01-20 01:22:00.19	12.71	8.90	-31.1	-33.7	10.9	2.68e-03	0	43	0	40894464	22	4883
2026-01-20 01:22:01.19	12.66	8.97	-31.2	-34.1	10.7	5.66e-03	0	43	0	42991616	22	5012
2026-01-20 01:22:02.19	12.60	9.05	-31.0	-33.5	11.2	4.70e-03	0	43	0	45088768	22	4795
2026-01-20 01:22:03.19	12.55	9.13	-30.8	-33.4	11.6	1.23e-03	0	43	0	46137344	21	4833
2026-01-20 01:22:04.19	12.50	9.21	-30.7	-33.1	11.8	3.09e-03	0	43	0	48234496	21	4733
2026-01-20 01:22:05.20	12.44	9.29	-30.9	-33.6	11.5	3.04e-03	0	43	0	50331648	21	4915
2026-01-20 01:22:06.20	12.39	9.37	-30.9	-33.5	11.6	1.06e-03	0	43	0	52428800	21	4879
2026-01-20 01:22:07.21	12.33	9.46	-30.8	-33.4	11.6	3.56e-03	0	43	0	54525952	21	4848
2026-01-20 01:22:08.21	12.28	9.54	-30.9	-33.2	11.4	3.92e-03	0	43	0	55574528	22	4685
2026-01-20 01:22:09.21	12.23	9.62	-31.1	-33.8	11.0	2.12e-03	0	43	0	57671680	22	4897
2026-01-20 01:22:10.22	12.17	9.70	-31.0	-33.8	11.4	1.42e-03	0	43	0	59768832	21	4978
2026-01-20 01:22:11.22	12.12	9.78	-30.9	-33.6	11.5	3.33e-03	0	43	0	61865984	21	4904
2026-01-20 01:22:12.22	12.06	9.86	-30.8	-33.4	11.7	1.22e-03	0	43	0	62914560	21	4831
2026-01-20 01:22:13.23	12.00	9.94	-31.0	-33.4	11.3	1.29e-03	0	43	0	65011712	22	4740
2026-01-20 01:22:14.23	11.95	10.03	-31.0	-33.8	11.4	3.28e-03	0	43	0	67108864	21	4985
2026-01-20 01:22:15.23	11.89	10.11	-30.8	-33.3	11.7	1.06e-03	0	43	0	69206016	21	4799
2026-01-20 01:22:16.23	11.83	10.19	-30.7	-32.8	12.1	6.61e-04	0	43	0	71303168	21	4627
2026-01-20 01:22:17.24	11.77	10.28	-30.7	-32.8	12.1	2.77e-04	0	43	0	73400320	21	4621
2026-01-20 01:22:18.25	11.72	10.36	-30.7	-32.8	12.1	6.05e-04	0	43	0	74448896	21	4626
2026-01-20 01:22:19.25	11.66	10.44	-30.7	-32.9	12.0	2.86e-03	0	43	0	76546048	21	4651
2026-01-20 01:22:20.25	11.60	10.53	-30.6	-32.8	12.2	2.30e-04	0	43	0	78643200	21	4602
2026-01-20 01:22:21.26	11.54	10.61	-30.8	-33.1	11.9	4.20e-04	0	43	0	80740352	21	4707
2026-01-20 01:22:22.26	11.48	10.70	-30.8	-33.2	11.8	2.90e-03	0	43	0	81788928	21	4749
2026-01-20 01:22:23.26	11.42	10.78	-30.7	-32.9	12.1	2.75e-04	0	43	0	83886080	21	4647
2026-01-20 01:22:24.26	11.36	10.86	-30.6	-32.5	12.4	3.66e-04	0	43	0	85983232	21	4521
2026-01-20 01:22:25.27	11.30	10.95	-30.6	-32.6	12.3	2.91e-03	0	43	0	88080384	21	4546
2026-01-20 01:22:26.27	11.24	11.04	-30.9	-33.6	11.6	2.98e-03	0	43	0	90177536	21	4880
2026-01-20 01:22:27.28	11.18	11.12	-30.8	-33.2	11.9	5.50e-04	0	43	0	91226112	21	4758
2026-01-20 01:22:28.28	11.12	11.21	-30.8	-33.1	11.9	5.68e-04	0	43	0	93323264	21	4728
2026-01-20 01:22:29.28	11.06	11.29	-30.7	-33.0	12.1	2.98e-03	0	43	0	95420416	21	4689
2026-01-20 01:22:30.28	10.99	11.38	-30.8	-33.2	11.9	5.99e-04	0	43	0	97517568	21	4748
2026-01-20 01:22:31.29	10.93	11.47	-30.8	-33.2	11.9	5.85e-04	0	43	0	99614720	21	4729
2026-01-20 01:22:32.28	10.87	11.55	-30.9	-33.4	11.8	3.29e-04	0	43	0	100663296	21	4813
2026-01-20 01:22:33.28	10.80	11.64	-30.9	-33.6	11.7	8.11e-04	0	43	0	102760448	21	4885
2026-01-20 01:22:34.28	10.74	11.73	-30.8	-33.3	11.9	6.49e-04	0	43	0	104857600	21	4779
2026-01-20 01:22:35.28	10.68	11.81	-30.9	-33.0	11.8	5.55e-04	0	44	0	106954752	22	4566
2026-01-20 01:22:36.28	10.61	11.90	-30.7	-32.9	12.1	8.24e-04	0	44	0	109051904	21	4651
2026-01-20 01:22:37.28	10.55	11.99	-30.7	-32.8	12.3	3.38e-04	0	44	0	110100480	21	4581
2026-01-20 01:22:38.28	10.48	12.08	-30.6	-32.5	12.4	1.83e-04	0	44	0	112197632	21	4501
2026-01-20 01:22:39.29	10.42	12.17	-30.6	-32.6	12.4	2.71e-04	0	44	0	114294784	21	4519
2026-01-20 01:22:40.30	10.35	12.26	-30.7	-32.8	12.2	3.97e-04	0	43	0	116391936	21	4599
2026-01-20 01:22:41.30	10.28	12.35	-30.5	-32.4	12.6	1.76e-04	0	43	0	118489088	21	4456
2026-01-20 01:22:42.30	10.22	12.44	-30.4	-32.6	12.7	2.84e-04	0	44	0	119537664	20	4612
2026-01-20 01:22:43.31	10.15	12.53	-30.5	-32.3	12.6	2.13e-03	0	44	0	121634816	21	4428
2026-01-20 01:22:44.31	10.08	12.62	-30.5	-32.7	12.7	7.47e-05	0	44	0	123731968	20	4648
2026-01-20 01:22:45.31	10.01	12.71	-30.3	-32.2	13.0	2.69e-04	0	44	0	125829120	20	4486
2026-01-20 01:22:46.32	9.94	12.80	-30.3	-32.3	13.0	2.43e-04	0	43	0	126877696	20	4504
2026-01-20 01:22:47.32	9.87	12.89	-30.5	-32.3	12.6	8.46e-05	0	44	0	128974848	21	4425
2026-01-20 01:22:48.32	9.80	12.98	-30.5	-32.2	12.7	2.30e-04	0	44	0	131072000	21	4377
2026-01-20 01:22:49.32	9.73	13.07	-30.4	-32.6	12.8	2.03e-04	0	44	0	133169152	20	4603
2026-01-20 01:22:50.32	9.66	13.17	-30.5	-32.2	12.8	6.71e-05	0	43	0	135266304	21	4377
2026-01-20 01:22:51.32	9.59	13.26	-30.6	-32.5	12.6	2.97e-04	0	44	0	136314880	21	4475
2026-01-20 01:22:52.33	9.52	13.35	-30.5	-32.1	12.8	2.39e-04	0	44	0	138412032	21	4364
2026-01-20 01:22:53.33	9.45	13.44	-30.5	-32.4	12.6	6.86e-05	0	44	0	140509184	21	4451
2026-01-20 01:22:54.33	9.37	13.54	-30.6	-32.4	12.6	3.37e-04	0	44	0	142606336	21	4465
2026-01-20 01:22:55.34	9.30	13.63	-30.6	-32.5	12.5	3.42e-04	0	44	0	144703488	21	4485
2026-01-20 01:22:56.33	9.23	13.72	-30.6	-32.4	12.6	5.95e-05	0	44	0	145752064	21	4464
2026-01-20 01:22:57.34	9.15	13.82	-30.6	-32.5	12.6	1.01e-04	0	44	0	147849216	21	4489
2026-01-20 01:22:58.34	9.08	13.91	-30.4	-32.0	12.9	3.53e-04	0	44	0	149946368	21	4327
2026-01-20 01:22:59.34	9.00	14.01	-30.5	-32.3	12.7	5.72e-05	0	44	0	152043520	21	4417
2026-01-20 01:23:00.34	8.93	14.10	-29.9	-31.9	12.6	3.12e-04	0	44	0	154140672	21	4537
2026-01-20 01:23:01.35	8.85	14.20	-30.6	-33.0	12.0	2.55e-04	0	44	0	155189248	20	4738
2026-01-20 01:23:02.35	8.77	14.30	-30.5	-32.3	12.5	8.23e-05	0	44	0	157286400	21	4415
2026-01-20 01:23:03.36	8.70	14.39	-30.7	-32.7	11.9	2.14e-04	0	44	0	159383552	21	4548
2026-01-20 01:23:04.36	8.62	14.49	-30.7	-32.8	11.7	1.33e-04	0	44	0	161480704	21	4591
2026-01-20 01:23:05.36	8.54	14.59	-30.7	-32.9	12.2	1.98e-04	0	44	0	163577856	21	4622
2026-01-20 01:23:06.37	8.46	14.68	-30.6	-32.5	12.5	1.83e-04	0	44	0	164626432	21	4480
2026-01-20 01:23:07.37	8.38	14.78	-30.6	-32.6	12.5	1.33e-04	0	44	0	166723584	21	4526
2026-01-20 01:23:08.37	8.30	14.88	-30.6	-32.4	12.7	7.55e-05	0	44	0	168820736	21	4450
2026-01-20 01:23:09.37	8.22	14.98	-30.6	-32.4	12.7	1.64e-04	0	44	0	170917888	21	4443
2026-01-20 01:23:10.37	8.14	15.07	-30.7	-32.8	12.4	2.20e-04	0	44	0	171966464	21	4570
2026-01-20 01:23:11.38	8.06	15.17	-30.7	-32.7	12.5	3.39e-04	0	44	0	174063616	21	4537
2026-01-20 01:23:12.38	7.98	15.27	-30.6	-32.4	12.7	1.90e-04	0	44	0	176160768	21	4450
2026-01-20 01:23:13.38	7.89	15.37	-30.7	-32.6	12.6	2.53e-04	0	44	0	178257920	21	4509
2026-01-20 01:23:14.39	7.81	15.47	-30.6	-32.5	12.6	3.42e-04	0	44	0	180355072	21	4472
2026-01-20 01:23:15.39	7.73	15.57	-30.7	-32.9	12.4	1.65e-04	0	44	0	181403648	21	4590
2026-01-20 01:23:16.40	7.64	15.67	-30.8	-32.9	12.4	1.62e-04	0	44	0	183500800	21	4610
2026-01-20 01:23:17.41	7.56	15.78	-30.7	-32.7	12.6	1.39e-04	0	44	0	185597952	21	4527
2026-01-20 01:23:18.41	7.47	15.88	-30.8	-32.9	12.5	2.26e-03	0	44	0	187695104	21	4586
2026-01-20 01:23:19.41	7.38	15.98	-30.9	-33.1	12.3	2.04e-04	0	44	0	189792256	21	4687
2026-01-20 01:23:20.41	7.30	16.08	-30.8	-32.8	12.5	8.46e-05	0	44	0	190840832	21	4575
2026-01-20 01:23:21.41	7.21	16.18	-30.7	-32.8	12.6	2.45e-03	0	44	0	192937984	21	4554
2026-01-20 01:23:22.41	7.12	16.29	-30.7	-32.8	12.6	1.47e-04	0	44	0	195035136	21	4549
2026-01-20 01:23:23.42	7.03	16.39	-30.9	-33.2	12.3	1.43e-04	0	44	0	197132288	21	4708
2026-01-20 01:23:24.42	6.94	16.49	-31.0	-33.4	12.2	2.52e-03	0	44	0	199229440	21	4770
2026-01-20 01:23:25.42	6.85	16.60	-30.8	-32.8	12.6	2.20e-03	0	44	0	200278016	21	4567
2026-01-20 01:23:26.43	6.76	16.70	-30.6	-32.3	12.9	8.69e-05	0	44	0	202375168	21	4387
2026-01-20 01:23:27.43	6.67	16.81	-30.6	-32.4	12.9	7.62e-05	0	44	0	204472320	21	4422
2026-01-20 01:23:28.43	6.58	16.91	-30.5	-32.2	13.0	2.33e-03	0	44	0	206569472	21	4370
2026-01-20 01:23:29.44	6.48	17.02	-30.4	-31.9	13.2	2.21e-04	0	44	0	208666624	21	4242
2026-01-20 01:23:30.45	6.39	17.12	-30.3	-32.0	13.4	5.18e-05	0	44	0	209715200	20	4400
2026-01-20 01:23:31.46	6.30	17.23	-30.5	-32.0	13.1	2.21e-03	0	44	0	211812352	21	4303
2026-01-20 01:23:32.46	6.20	17.34	-30.3	-31.7	13.3	1.88e-04	0	44	0	213909504	21	4216
2026-01-20 01:23:33.46	6.11	17.44	-30.3	-32.0	13.4	1.75e-05	0	44	0	216006656	20	4391
2026-01-20 01:23:34.47	6.01	17.55	-30.3	-32.1	13.4	1.96e-03	0	44	0	218103808	20	4426
2026-01-20 01:23:35.47	5.91	17.66	-30.4	-32.4	13.2	1.66e-04	0	44	0	219152384	20	4522
2026-01-20 01:23:36.47	5.81	17.77	-30.3	-32.2	13.3	2.00e-03	0	44	0	221249536	20	4443
2026-01-20 01:23:37.48	5.72	17.88	-30.3	-31.9	13.5	7.09e-05	0	44	0	223346688	20	4372
2026-01-20 01:23:38.48	5.62	17.98	-30.4	-32.3	13.3	1.91e-04	0	44	0	225443840	20	4481
2026-01-20 01:23:39.47	5.52	18.09	-30.3	-32.1	13.4	2.29e-03	0	44	0	226492416	20	4414
2026-01-20 01:23:40.48	5.42	18.20	-30.4	-32.2	13.3	2.30e-03	0	44	0	228589568	20	4466
2026-01-20 01:23:41.49	5.31	18.31	-30.4	-32.3	13.3	1.94e-04	0	44	0	230686720	20	4474
2026-01-20 01:23:42.49	5.21	18.42	-30.5	-32.6	13.1	2.29e-03	0	44	0	232783872	20	4575
2026-01-20 01:23:43.49	5.11	18.53	-30.6	-32.4	12.9	2.08e-03	0	44	0	234881024	21	4431
2026-01-20 01:23:44.50	5.01	18.65	-30.6	-32.5	12.9	2.36e-04	0	44	0	236978176	21	4449
2026-01-20 01:23:45.50	4.90	18.76	-30.6	-32.5	12.9	2.08e-03	0	44	0	238026752	21	4449
2026-01-20 01:23:46.50	4.80	18.87	-30.7	-32.5	12.8	2.36e-03	0	44	0	240123904	21	4457
2026-01-20 01:23:47.51	4.69	18.98	-30.8	-32.8	12.7	2.53e-04	0	44	0	242221056	21	4557
2026-01-20 01:23:48.52	4.58	19.10	-30.8	-32.9	12.6	2.39e-03	0	44	0	244318208	21	4582
2026-01-20 01:23:49.52	4.47	19.21	-30.7	-32.6	12.8	2.37e-03	0	44	0	245366784	21	4492
2026-01-20 01:23:50.52	4.37	19.32	-30.9	-33.1	12.4	2.84e-04	0	44	0	247463936	21	4671
2026-01-20 01:23:51.53	4.26	19.44	-31.1	-33.2	12.1	2.05e-03	0	44	0	249561088	22	4609
2026-01-20 01:23:52.53	4.15	19.55	-31.1	-33.1	12.2	2.29e-03	0	44	0	251658240	22	4568
2026-01-20 01:23:53.53	4.04	19.67	-31.1	-33.3	12.0	4.06e-04	0	44	0	253755392	22	4639
2026-01-20 01:23:54.52	3.92	19.78	-31.3	-33.7	11.8	2.48e-03	0	44	0	254803968	22	4761
2026-01-20 01:23:55.52	3.81	19.89	-31.3	-33.7	11.8	2.90e-03	0	44	0	256901120	22	4773
2026-01-20 01:23:56.53	3.70	20.01	-31.2	-33.4	11.9	6.33e-04	0	44	0	258998272	22	4668
2026-01-20 01:23:57.53	3.58	20.13	-31.0	-32.9	12.3	2.83e-03	0	44	0	261095424	22	4468
2026-01-20 01:23:58.53	3.47	20.24	-31.0	-32.9	12.3	2.23e-04	0	44	0	263192576	22	4500
2026-01-20 01:23:59.53	3.35	20.36	-31.2	-33.4	12.1	3.68e-04	0	44	0	264241152	22	4649
2026-01-20 01:24:00.53	3.24	20.48	-31.1	-33.4	12.1	2.68e-03	0	44	0	266338304	22	4641
2026-01-20 01:24:01.54	3.12	20.60	-31.0	-32.9	12.4	1.82e-04	0	44	0	268435456	22	4483
2026-01-20 01:24:02.54	3.00	20.72	-31.3	-33.7	11.8	4.23e-04	0	44	0	270532608	22	4770
2026-01-20 01:24:03.54	2.88	20.83	-31.1	-33.2	12.2	2.58e-03	0	44	0	272629760	22	4559
2026-01-20 01:24:04.55	2.76	20.96	-30.8	-32.4	12.7	2.63e-03	0	44	0	273678336	22	4318
2026-01-20 01:24:05.55	2.63	21.07	-30.7	-32.0	13.0	6.25e-05	0	44	0	275775488	22	4184
2026-01-20 01:24:06.56	2.51	21.20	-30.8	-32.7	12.8	2.54e-03	0	44	0	277872640	21	4501
2026-01-20 01:24:07.55	2.39	21.32	-30.8	-32.8	12.9	2.46e-03	0	44	0	279969792	21	4519
2026-01-20 01:24:08.55	2.26	21.44	-30.7	-32.5	13.0	3.35e-05	0	44	0	282066944	21	4424
2026-01-20 01:24:09.55	2.14	21.56	-30.6	-32.4	13.1	2.67e-05	0	44	0	283115520	21	4394
2026-01-20 01:24:10.55	2.01	21.68	-30.8	-32.8	12.8	2.11e-03	0	44	0	285212672	21	4521
2026-01-20 01:24:11.55	1.88	21.80	-30.8	-32.7	12.9	2.41e-04	0	44	0	287309824	21	4494
2026-01-20 01:24:12.55	1.75	21.92	-30.8	-32.9	12.8	6.25e-05	0	44	0	289406976	21	4552
2026-01-20 01:24:13.56	1.62	22.05	-30.9	-32.5	12.7	2.48e-03	0	44	0	290455552	22	4325
2026-01-20 01:24:14.56	1.49	22.17	-31.0	-32.8	12.5	2.55e-04	0	44	0	292552704	22	4444
2026-01-20 01:24:15.57	1.36	22.30	-31.0	-32.9	12.5	1.60e-04	0	44	0	294649856	22	4492
2026-01-20 01:24:16.57	1.22	22.42	-31.1	-33.1	12.3	1.36e-04	0	44	0	296747008	22	4529
2026-01-20 01:24:17.57	1.09	22.55	-31.3	-33.6	12.0	3.54e-04	0	44	0	298844160	22	4725
2026-01-20 01:24:18.57	0.95	22.67	-31.4	-34.1	11.5	2.83e-03	0	44	0	299892736	22	4914
2026-01-20 01:24:19.57	0.82	22.80	-31.2	-33.3	12.1	2.96e-04	0	44	0	301989888	22	4629
2026-01-20 01:24:20.57	0.68	22.92	-31.0	-32.8	12.4	2.34e-04	0	44	0	304087040	22	4461
2026-01-20 01:24:21.58	0.54	23.05	-31.1	-33.2	12.2	2.41e-03	0	44	0	306184192	22	4577
2026-01-20 01:24:22.58	0.40	23.18	-31.0	-32.9	12.4	1.40e-04	0	44	0	308281344	22	4497
2026-01-20 01:24:23.58	0.26	23.31	-31.0	-33.0	12.3	7.85e-05	0	44	0	309329920	22	4521
2026-01-20 01:24:24.58	0.12	23.43	-31.0	-32.8	12.5	2.55e-03	0	44	0	311427072	22	4447
2026-01-20 01:24:25.59	359.97	23.56	-30.7	-32.7	12.9	7.47e-05	0	44	0	313524224	21	4500
2026-01-20 01:24:26.59	359.83	23.69	-30.8	-32.8	12.7	6.48e-05	0	44	0	315621376	21	4545
2026-01-20 01:24:27.59	359.68	23.82	-30.8	-32.8	12.8	5.18e-05	0	44	0	317718528	21	4521
2026-01-20 01:24:28.58	359.54	23.95	-30.9	-33.2	12.6	2.16e-03	0	44	0	318767104	21	4669
2026-01-20 01:24:29.58	359.39	24.08	-31.1	-33.1	12.4	2.49e-04	0	44	0	320864256	22	4542
2026-01-20 01:24:30.58	359.24	24.21	-31.2	-33.3	12.2	2.04e-04	0	44	0	322961408	22	4609
2026-01-20 01:24:31.58	359.09	24.34	-31.4	-34.2	11.7	2.65e-03	0	44	0	325058560	22	4923
2026-01-20 01:24:32.58	358.93	24.47	-31.5	-33.7	11.6	6.09e-04	0	44	0	327155712	23	4661
2026-01-20 01:24:33.58	358.78	24.61	-31.5	-33.9	11.5	8.32e-04	0	44	0	328204288	23	4729
2026-01-20 01:24:34.58	358.63	24.74	-31.6	-34.3	11.1	7.97e-04	0	44	0	330301440	23	4882
2026-01-20 01:24:35.58	358.47	24.87	-31.6	-34.2	11.2	9.20e-04	0	44	0	332398592	23	4848
2026-01-20 01:24:36.58	358.31	25.00	-31.4	-33.6	11.7	9.58e-04	0	44	0	334495744	23	4619
2026-01-20 01:24:37.58	358.15	25.14	-31.2	-33.0	12.0	8.78e-04	0	44	0	335544320	23	4430
2026-01-20 01:24:38.59	357.99	25.27	-31.0	-32.4	12.5	2.28e-04	0	44	0	337641472	23	4224
2026-01-20 01:24:39.60	357.83	25.41	-31.2	-33.3	12.2	1.02e-04	0	44	0	339738624	22	4614
2026-01-20 01:24:40.61	357.66	25.54	-30.7	-32.1	13.0	4.95e-05	0	44	0	341835776	22	4203
2026-01-20 01:24:41.61	357.50	25.68	-30.6	-32.2	13.3	2.74e-05	0	44	0	343932928	21	4333
2026-01-20 01:24:42.62	357.33	25.82	-30.7	-32.7	12.9	5.49e-05	0	44	0	344981504	21	4487
2026-01-20 01:24:43.62	357.16	25.95	-30.6	-32.3	13.2	2.13e-05	0	44	0	347078656	21	4364
2026-01-20 01:24:44.62	356.99	26.09	-30.5	-32.0	13.3	1.67e-05	0	44	0	349175808	21	4290
2026-01-20 01:24:45.62	356.82	26.23	-30.7	-32.7	12.9	6.86e-05	0	44	0	351272960	21	4517
2026-01-20 01:24:46.62	356.65	26.36	-31.0	-33.4	12.4	1.08e-04	0	44	0	353370112	21	4761
2026-01-20 01:24:47.63	356.48	26.50	-31.3	-34.0	11.7	1.62e-04	0	45	0	354418688	22	4875
2026-01-20 01:24:48.63	356.30	26.64	-31.1	-33.1	12.4	2.70e-04	0	44	0	356515840	22	4546
2026-01-20 01:24:49.63	356.12	26.78	-31.2	-33.5	12.0	2.83e-04	0	44	0	358612992	22	4706
2026-01-20 01:24:50.63	355.95	26.92	-31.1	-32.7	12.3	6.32e-04	0	44	0	360710144	23	4305
2026-01-20 01:24:51.63	355.77	27.06	-30.8	-32.4	12.8	7.24e-05	0	44	0	362807296	22	4301
2026-01-20 01:24:52.63	355.59	27.20	-30.6	-31.8	13.2	2.59e-05	0	44	0	363855872	22	4125
2026-01-20 01:24:53.64	355.40	27.34	-30.7	-31.9	13.2	3.66e-05	0	44	0	365953024	22	4141
2026-01-20 01:24:54.64	355.22	27.48	-30.7	-32.6	13.1	4.19e-05	0	44	0	368050176	21	4451
2026-01-20 01:24:55.64	355.03	27.62	-30.9	-33.1	12.8	1.52e-05	0	44	0	370147328	21	4613
2026-01-20 01:24:56.65	354.84	27.77	-30.6	-32.3	13.3	1.75e-05	0	44	0	372244480	21	4358
2026-01-20 01:24:57.65	354.65	27.91	-30.9	-33.1	12.8	5.72e-05	0	44	0	373293056	21	4610
2026-01-20 01:24:58.65	354.46	28.05	-30.9	-32.5	12.8	1.35e-04	0	45	0	375390208	22	4350
2026-01-20 01:24:59.66	354.26	28.19	-30.0	-31.7	12.4	5.41e-05	0	44	0	377487360	22	4388
2026-01-20 01:25:00.66	354.07	28.34	-31.1	-33.5	12.3	1.12e-04	0	44	0	379584512	21	4765
2026-01-20 01:25:01.66	353.87	28.48	-31.2	-33.5	12.2	3.42e-04	0	44	0	380633088	22	4656
2026-01-20 01:25:02.65	353.67	28.62	-31.5	-34.1	11.2	2.57e-04	0	44	0	382730240	22	4900
2026-01-20 01:25:03.65	353.47	28.77	-31.6	-34.0	10.9	5.42e-04	0	44	0	384827392	23	4774
2026-01-20 01:25:04.66	353.27	28.91	-31.3	-33.2	12.0	3.29e-04	0	44	0	386924544	23	4473
2026-01-20 01:25:05.66	353.07	29.06	-31.3	-33.9	11.8	3.62e-04	0	44	0	389021696	22	4806
2026-01-20 01:25:06.66	352.86	29.20	-31.5	-33.7	11.4	2.61e-03	0	45	0	390070272	23	4678
2026-01-20 01:25:07.67	352.65	29.35	-31.4	-33.4	11.9	4.69e-04	0	44	0	392167424	23	4545
2026-01-20 01:25:08.67	352.44	29.49	-31.5	-33.9	11.4	1.01e-03	0	44	0	394264576	23	4736
2026-01-20 01:25:09.67	352.23	29.64	-31.5	-34.2	11.7	1.56e-03	0	44	0	396361728	22	4940
2026-01-20 01:25:10.68	352.01	29.79	-31.4	-33.5	11.8	5.36e-04	0	45	0	398458880	23	4596
2026-01-20 01:25:11.69	351.79	29.94	-31.7	-34.6	11.1	7.00e-04	0	44	0	399507456	23	4983
2026-01-20 01:25:12.70	351.57	30.08	-31.5	-33.9	11.7	7.79e-04	0	44	0	401604608	23	4714
2026-01-20 01:25:13.70	351.35	30.23	-31.6	-34.2	11.4	7.06e-04	0	45	0	403701760	23	4839
2026-01-20 01:25:14.71	351.13	30.38	-31.7	-34.3	11.3	2.03e-03	0	44	0	405798912	23	4854
2026-01-20 01:25:15.71	350.91	30.53	-31.8	-34.6	11.2	1.43e-03	0	45	0	407896064	23	4964
2026-01-20 01:25:16.72	350.68	30.68	-31.9	-35.1	10.8	2.32e-03	0	45	0	408944640	23	5187
2026-01-20 01:25:17.71	350.45	30.82	-32.0	-35.2	10.7	5.62e-03	0	45	0	411041792	23	5216
2026-01-20 01:25:18.71	350.22	30.97	-31.9	-35.0	10.8	3.58e-03	0	44	0	413138944	23	5150
2026-01-20 01:25:19.70	349.99	31.12	-32.1	-35.2	10.3	2.08e-03	0	44	0	415236096	24	5134
2026-01-20 01:25:20.71	349.76	31.27	-32.0	-35.2	10.7	4.22e-03	0	44	0	417333248	23	5211
2026-01-20 01:25:21.70	349.52	31.42	-31.6	-34.1	11.5	1.48e-03	0	44	0	418381824	23	4771
2026-01-20 01:25:22.70	349.28	31.57	-31.4	-33.4	12.0	6.49e-04	0	45	0	420478976	23	4548
2026-01-20 01:25:23.71	349.04	31.72	-31.4	-33.4	12.0	2.31e-03	0	44	0	422576128	23	4538
2026-01-20 01:25:24.71	348.79	31.87	-31.6	-33.9	11.6	2.39e-03	0	44	0	424673280	23	4717
2026-01-20 01:25:25.71	348.55	32.02	-31.7	-34.1	11.6	8.38e-04	0	44	0	425721856	23	4777
2026-01-20 01:25:26.71	348.30	32.17	-31.9	-35.0	10.9	1.64e-03	0	44	0	427819008	23	5128
2026-01-20 01:25:27.71	348.05	32.32	-32.2	-35.4	10.2	4.59e-03	0	44	0	429916160	24	5234
2026-01-20 01:25:28.72	347.80	32.47	-32.3	-35.8	9.9	6.92e-03	0	45	0	432013312	24	5399
2026-01-20 01:25:29.72	347.54	32.62	-32.4	-36.2	9.5	1.20e-02	0	44	0	434110464	24	5595
2026-01-20 01:25:30.72	347.28	32.77	-32.3	-35.3	9.8	1.14e-02	0	44	0	435159040	25	5114
2026-01-20 01:25:31.73	347.02	32.92	-32.3	-35.4	9.7	8.23e-03	0	44	0	437256192	25	5164
2026-01-20 01:25:32.74	346.75	33.07	-32.2	-35.5	9.9	7.39e-03	0	44	0	439353344	24	5270
2026-01-20 01:25:33.74	346.49	33.23	-32.1	-35.3	10.2	5.03e-03	0	44	0	441450496	24	5205
2026-01-20 01:25:34.74	346.22	33.38	-32.2	-35.6	9.9	7.91e-03	0	44	0	443547648	24	5330
2026-01-20 01:25:35.75	345.95	33.53	-32.0	-34.7	10.7	9.00e-03	0	44	0	444596224	24	4938
2026-01-20 01:25:36.75	345.68	33.68	-32.1	-35.1	10.5	6.88e-03	0	45	0	446693376	24	5108
2026-01-20 01:25:37.75	345.40	33.83	-32.3	-36.0	9.8	8.48e-03	0	45	0	448790528	24	5474
2026-01-20 01:25:38.75	345.12	33.98	-32.5	-36.1	9.3	1.50e-02	0	44	0	450887680	25	5442
2026-01-20 01:25:39.75	344.84	34.13	-32.5	-36.1	9.3	1.50e-02	0	45	0	452984832	25	5451
2026-01-20 01:25:40.75	344.56	34.28	-32.7	-36.7	9.0	2.68e-02	0	45	0	454033408	25	5691
2026-01-20 01:25:41.75	344.27	34.43	-32.6	-36.5	9.0	2.82e-02	0	45	0	456130560	25	5609
2026-01-20 01:25:42.75	343.99	34.58	-32.5	-35.8	9.5	1.64e-02	0	44	0	458227712	25	5301
2026-01-20 01:25:43.76	343.69	34.74	-32.2	-34.9	10.2	8.81e-03	0	44	0	460324864	25	4920
2026-01-20 01:25:44.76	343.40	34.89	-32.0	-34.6	11.0	7.43e-03	0	44	0	462422016	24	4850
2026-01-20 01:25:45.77	343.10	35.04	-32.1	-34.9	10.6	4.79e-03	0	44	0	463470592	24	4987
2026-01-20 01:25:46.77	342.80	35.19	-32.1	-34.9	10.7	3.90e-03	0	44	0	465567744	24	4958
2026-01-20 01:25:47.78	342.49	35.34	-32.0	-34.7	10.9	4.11e-03	0	44	0	467664896	24	4878
2026-01-20 01:25:48.78	342.19	35.49	-31.9	-34.4	11.1	4.27e-03	0	44	0	469762048	24	4802
2026-01-20 01:25:49.79	341.88	35.64	-31.9	-34.3	11.1	1.64e-03	0	44	0	471859200	24	4735
2026-01-20 01:25:50.79	341.57	35.79	-32.1	-35.0	10.7	4.73e-03	0	44	0	472907776	24	5005
2026-01-20 01:25:51.79	341.25	35.94	-32.1	-35.0	10.6	6.54e-03	0	45	0	475004928	24	5012
2026-01-20 01:25:52.79	340.94	36.08	-32.0	-34.5	10.8	3.32e-03	0	44	0	477102080	24	4850
2026-01-20 01:25:53.80	340.61	36.23	-32.0	-34.7	10.8	5.51e-03	0	44	0	479199232	24	4924
2026-01-20 01:25:54.79	340.30	36.38	-32.1	-35.1	10.5	6.87e-03	0	44	0	481296384	24	5069
2026-01-20 01:25:55.79	339.97	36.53	-32.2	-35.6	10.1	8.14e-03	0	45	0	482344960	24	5282
2026-01-20 01:25:56.80	339.64	36.68	-32.3	-36.0	9.8	1.03e-02	0	45	0	484442112	24	5493
2026-01-20 01:25:57.80	339.31	36.82	-32.7	-36.6	8.9	1.87e-02	0	45	0	486539264	25	5681
2026-01-20 01:25:58.80	338.97	36.97	-32.8	-37.2	8.5	3.26e-02	0	44	0	488636416	25	5976
2026-01-20 01:25:59.81	338.63	37.12	-33.0	-37.9	8.0	5.39e-02	0	44	0	489684992	25	6330
2026-01-20 01:26:00.81	338.29	37.26	-33.1	-37.7	7.8	6.88e-02	0	45	0	491782144	26	6141
2026-01-20 01:26:01.82	337.94	37.41	-32.9	-37.1	8.2	6.84e-02	0	45	0	493879296	26	5801
2026-01-20 01:26:02.82	337.60	37.55	-32.6	-36.4	9.2	3.01e-02	0	45	0	495976448	25	5541
2026-01-20 01:26:03.82	337.25	37.69	-32.4	-35.6	9.8	1.54e-02	0	44	0	498073600	25	5192
2026-01-20 01:26:04.83	336.89	37.84	-32.3	-35.1	10.0	7.57e-03	0	45	0	499122176	25	4982
2026-01-20 01:26:05.83	336.54	37.98	-32.4	-36.1	9.8	1.18e-02	0	44	0	501219328	24	5512
2026-01-20 01:26:06.83	336.18	38.12	-32.4	-36.0	9.8	1.29e-02	0	45	0	503316480	24	5482
2026-01-20 01:26:07.84	335.81	38.27	-32.8	-37.0	8.6	3.09e-02	0	45	0	505413632	25	5884
2026-01-20 01:26:08.85	335.44	38.41	-33.0	-37.9	8.0	5.99e-02	0	44	0	507510784	25	6360
2026-01-20 01:26:09.85	335.07	38.55	-33.1	-38.0	7.6	8.57e-02	0	45	0	508559360	26	6301
2026-01-20 01:26:10.85	334.70	38.68	-32.9	-37.3	8.0	9.83e-02	0	44	0	510656512	26	5938
2026-01-20 01:26:11.85	334.33	38.82	-32.6	-36.4	9.0	4.21e-02	0	44	0	512753664	25	5616
2026-01-20 01:26:12.85	333.95	38.96	-32.1	-35.0	10.3	1.38e-02	0	44	0	514850816	24	5065
2026-01-20 01:26:13.85	333.57	39.09	-31.5	-33.3	11.7	1.48e-03	0	45	0	516947968	24	4406
2026-01-20 01:26:14.84	333.19	39.23	-31.4	-33.9	11.9	3.29e-04	0	45	0	517996544	22	4812
2026-01-20 01:26:15.85	332.79	39.36	-31.5	-34.2	11.8	2.81e-04	0	45	0	520093696	22	4918
2026-01-20 01:26:16.85	332.40	39.50	-31.9	-35.0	10.8	1.02e-03	0	44	0	522190848	23	5140
2026-01-20 01:26:17.85	332.01	39.63	-32.0	-34.7	10.6	3.37e-03	0	45	0	524288000	24	4961
2026-01-20 01:26:18.85	331.61	39.76	-31.8	-34.2	11.1	3.32e-03	0	45	0	526385152	24	4754
2026-01-20 01:26:19.85	331.21	39.89	-31.5	-33.2	11.8	5.43e-04	0	45	0	527433728	24	4393
2026-01-20 01:26:20.85	330.80	40.02	-31.4	-33.3	12.3	2.21e-03	0	44	0	529530880	23	4518
2026-01-20 01:26:21.85	330.40	40.15	-31.1	-33.1	12.6	8.31e-05	0	44	0	531628032	22	4512
2026-01-20 01:26:22.84	329.99	40.27	-31.0	-32.9	12.6	5.03e-05	0	44	0	533725184	22	4439
2026-01-20 01:26:23.85	329.57	40.40	-31.3	-33.6	12.3	2.22e-03	0	45	0	534773760	22	4680
2026-01-20 01:26:24.84	329.16	40.52	-31.5	-33.6	11.8	4.07e-04	0	45	0	536870912	23	4608
2026-01-20 01:26:25.85	328.74	40.64	-31.9	-34.9	10.9	1.06e-03	0	44	0	538968064	23	5109
2026-01-20 01:26:26.85	328.31	40.76	-31.9	-35.1	10.9	1.45e-03	0	45	0	541065216	23	5179
2026-01-20 01:26:27.85	327.89	40.88	-31.9	-34.7	10.7	4.90e-03	0	45	0	543162368	24	4935
2026-01-20 01:26:28.85	327.46	41.00	-31.5	-33.3	11.5	1.01e-03	0	45	0	544210944	24	4424
2026-01-20 01:26:29.84	327.03	41.12	-31.2	-33.3	12.4	2.97e-04	0	45	0	546308096	22	4603
2026-01-20 01:26:30.84	326.59	41.23	-31.1	-33.2	12.6	2.43e-03	0	45	0	548405248	22	4540
2026-01-20 01:26:31.84	326.15	41.35	-31.2	-33.4	12.3	3.36e-04	0	45	0	550502400	22	4639
2026-01-20 01:26:32.84	325.71	41.46	-31.1	-33.2	12.6	6.56e-05	0	45	0	552599552	22	4538
2026-01-20 01:26:33.84	325.26	41.57	-31.0	-32.6	12.9	4.65e-05	0	45	0	553648128	22	4363
2026-01-20 01:26:34.85	324.81	41.68	-30.8	-32.3	13.1	4.57e-05	0	44	0	555745280	22	4247
2026-01-20 01:26:35.85	324.36	41.79	-30.9	-33.0	13.0	1.76e-04	0	44	0	557842432	21	4586
2026-01-20 01:26:36.85	323.90	41.89	-31.1	-33.0	12.6	6.71e-05	0	44	0	559939584	22	4506
2026-01-20 01:26:37.85	323.45	42.00	-31.5	-34.2	11.9	1.04e-04	0	44	0	562036736	22	4907
2026-01-20 01:26:38.85	322.99	42.10	-31.4	-33.4	12.0	5.61e-04	0	44	0	563085312	23	4539
2026-01-20 01:26:39.84	322.53	42.20	-31.1	-33.2	12.4	1.50e-04	0	45	0	565182464	22	4576
2026-01-20 01:26:40.84	322.06	42.30	-30.8	-32.4	12.9	1.01e-04	0	45	0	567279616	22	4311
2026-01-20 01:26:41.84	321.59	42.39	-30.7	-32.4	13.2	1.23e-03	0	45	0	569376768	21	4424
2026-01-20 01:26:42.85	321.12	42.49	-30.7	-32.4	13.2	3.28e-05	0	45	0	570425344	21	4418
2026-01-20 01:26:43.85	320.64	42.58	-30.9	-33.2	12.8	4.80e-05	0	45	0	572522496	21	4653
2026-01-20 01:26:44.85	320.16	42.67	-31.4	-33.9	11.9	1.47e-04	0	45	0	574619648	22	4831
2026-01-20 01:26:45.85	319.68	42.76	-31.1	-33.0	12.5	1.29e-04	0	45	0	576716800	22	4497
2026-01-20 01:26:46.85	319.20	42.85	-30.6	-31.6	13.3	3.73e-05	0	44	0	578813952	22	4076
2026-01-20 01:26:47.85	318.71	42.93	-30.7	-32.4	13.2	1.22e-05	0	45	0	579862528	21	4424
2026-01-20 01:26:48.86	318.22	43.01	-30.6	-32.3	13.4	1.44e-03	0	44	0	581959680	21	4376
2026-01-20 01:26:49.86	317.73	43.09	-30.9	-33.0	12.9	3.28e-05	0	44	0	584056832	21	4593
2026-01-20 01:26:50.87	317.23	43.17	-31.1	-33.1	12.5	7.70e-05	0	45	0	586153984	22	4548
2026-01-20 01:26:51.87	316.74	43.25	-31.3	-33.8	12.0	2.03e-04	0	45	0	588251136	22	4779
2026-01-20 01:26:52.87	316.24	43.32	-31.5	-34.0	11.6	5.76e-04	0	45	0	589299712	23	4751
2026-01-20 01:26:53.87	315.74	43.39	-31.7	-34.2	11.5	9.11e-04	0	45	0	591396864	23	4848
2026-01-20 01:26:54.87	315.24	43.46	-31.3	-33.2	12.2	5.62e-04	0	45	0	593494016	23	4469
2026-01-20 01:26:55.87	314.73	43.53	-30.8	-32.1	13.3	1.42e-04	0	45	0	595591168	22	4180
2026-01-20 01:26:56.88	314.22	43.59	-30.5	-31.9	13.7	1.49e-04	0	44	0	597688320	21	4212
2026-01-20 01:26:57.89	313.71	43.65	-30.4	-31.6	13.9	4.50e-06	0	44	0	598736896	21	4132
2026-01-20 01:26:58.89	313.20	43.71	-30.9	-32.5	13.1	1.37e-05	0	44	0	600834048	22	4311
2026-01-20 01:26:59.89	312.69	43.77	-31.3	-33.5	12.3	2.30e-04	0	45	0	602931200	22	4657
2026-01-20 01:27:00.90	312.17	43.82	-31.4	-33.4	12.1	2.04e-04	0	45	0	605028352	23	4507
2026-01-20 01:27:01.90	311.65	43.88	-31.1	-32.5	12.7	1.41e-04	0	45	0	607125504	23	4233
2026-01-20 01:27:02.89	311.14	43.92	-31.2	-33.3	12.6	6.17e-05	0	44	0	608174080	22	4569
2026-01-20 01:27:03.90	310.61	43.97	-30.2	-32.4	12.4	1.62e-04	0	45	0	610271232	22	4604
2026-01-20 01:27:04.90	310.09	44.02	-31.2	-33.7	11.9	1.83e-04	0	45	0	612368384	21	4796
2026-01-20 01:27:05.90	309.57	44.06	-30.9	-33.0	12.2	8.23e-05	0	45	0	614465536	21	4576
2026-01-20 01:27:06.91	309.04	44.10	-31.0	-32.8	12.6	7.24e-05	0	45	0	615514112	22	4439
2026-01-20 01:27:07.91	308.52	44.13	-31.3	-33.7	11.8	1.33e-04	0	44	0	617611264	22	4732
2026-01-20 01:27:08.92	307.99	44.16	-30.9	-33.0	12.7	1.31e-04	0	45	0	619708416	21	4595
2026-01-20 01:27:09.92	307.46	44.20	-30.4	-31.5	13.9	9.90e-06	0	45	0	621805568	21	4111
2026-01-20 01:27:10.92	306.93	44.22	-30.6	-32.1	13.6	3.80e-06	0	45	0	623902720	21	4288
2026-01-20 01:27:11.93	306.40	44.25	-31.0	-32.9	12.7	1.29e-05	0	45	0	624951296	22	4480
2026-01-20 01:27:12.94	305.87	44.27	-31.5	-34.2	11.8	3.94e-04	0	45	0	627048448	22	4937
2026-01-20 01:27:13.94	305.34	44.29	-31.6	-34.0	11.6	3.74e-04	0	44	0	629145600	23	4745
2026-01-20 01:27:14.94	304.81	44.31	-31.7	-34.4	11.3	8.28e-04	0	45	0	631242752	23	4934
2026-01-20 01:27:15.94	304.27	44.32	-31.9	-35.2	10.8	2.02e-03	0	45	0	633339904	23	5233
2026-01-20 01:27:16.94	303.74	44.33	-32.4	-36.2	9.6	8.62e-03	0	45	0	634388480	24	5617
2026-01-20 01:27:17.94	303.21	44.34	-32.2	-35.5	10.2	1.32e-02	0	44	0	636485632	24	5291
2026-01-20 01:27:18.95	302.67	44.35	-31.7	-34.0	11.3	4.13e-03	0	45	0	638582784	24	4681
2026-01-20 01:27:19.96	302.13	44.35	-31.3	-33.2	12.0	5.45e-04	0	45	0	640679936	23	4482
2026-01-20 01:27:20.96	301.60	44.35	-30.8	-31.7	13.0	1.04e-04	0	45	0	642777088	23	4012
2026-01-20 01:27:21.96	301.07	44.35	-30.7	-32.1	13.2	1.90e-05	0	45	0	643825664	22	4205
2026-01-20 01:27:22.96	300.54	44.34	-31.1	-33.2	12.4	8.46e-05	0	44	0	645922816	22	4567
2026-01-20 01:27:23.96	300.01	44.34	-31.6	-34.4	11.2	7.16e-04	0	44	0	648019968	23	4969
2026-01-20 01:27:24.97	299.47	44.33	-31.8	-35.0	10.8	2.56e-03	0	45	0	650117120	23	5183
2026-01-20 01:27:25.96	298.94	44.31	-31.4	-33.5	11.8	1.20e-03	0	45	0	652214272	23	4586
2026-01-20 01:27:26.97	298.41	44.30	-31.0	-32.9	12.6	1.40e-03	0	44	0	653262848	22	4470
2026-01-20 01:27:27.97	297.88	44.28	-31.5	-33.6	11.8	1.54e-04	0	44	0	655360000	23	4627
2026-01-20 01:27:28.98	297.34	44.25	-31.7	-34.4	11.2	8.70e-04	0	45	0	657457152	23	4922
2026-01-20 01:27:29.98	296.81	44.23	-32.0	-35.0	10.5	4.40e-03	0	44	0	659554304	24	5087
2026-01-20 01:27:30.98	296.28	44.20	-32.2	-35.5	10.1	5.73e-03	0	45	0	661651456	24	5276
2026-01-20 01:27:31.98	295.76	44.17	-32.2	-35.8	9.8	6.85e-03	0	45	0	662700032	24	5412
2026-01-20 01:27:32.98	295.23	44.14	-32.5	-36.2	9.1	2.48e-02	0	45	0	664797184	25	5546
2026-01-20 01:27:33.99	294.70	44.10	-32.4	-35.9	9.3	1.62e-02	0	44	0	666894336	25	5420
2026-01-20 01:27:34.99	294.18	44.07	-32.6	-36.8	8.7	2.85e-02	0	44	0	668991488	25	5827
2026-01-20 01:27:35.99	293.65	44.03	-32.5	-36.5	8.9	3.26e-02	0	45	0	670040064	25	5684
2026-01-20 01:27:36.99	293.13	43.98	-32.4	-35.9	9.5	1.99e-02	0	44	0	672137216	25	5371
2026-01-20 01:27:37.99	292.61	43.94	-32.5	-36.2	9.2	1.97e-02	0	44	0	674234368	25	5475
2026-01-20 01:27:38.99	292.09	43.89	-32.1	-35.4	10.3	1.84e-02	0	45	0	676331520	24	5221
2026-01-20 01:27:39.99	291.58	43.84	-31.9	-34.7	10.7	3.74e-03	0	45	0	678428672	24	4950
2026-01-20 01:27:40.99	291.06	43.79	-31.8	-34.5	10.9	4.33e-03	0	45	0	679477248	24	4869
2026-01-20 01:27:41.99	290.55	43.73	-32.2	-35.7	9.8	4.44e-03	0	45	0	681574400	24	5384
2026-01-20 01:27:42.99	290.04	43.67	-32.2	-35.9	9.7	7.60e-03	0	45	0	683671552	24	5473
2026-01-20 01:27:43.99	289.53	43.61	-32.3	-36.2	9.4	1.10e-02	0	45	0	685768704	24	5640
2026-01-20 01:27:44.99	289.02	43.55	-32.1	-35.4	10.0	1.48e-02	0	45	0	687865856	24	5296
2026-01-20 01:27:45.99	288.51	43.48	-31.8	-34.6	10.7	1.23e-02	0	45	0	688914432	24	4926
2026-01-20 01:27:47.00	288.01	43.41	-31.9	-34.8	10.5	7.10e-03	0	45	0	691011584	24	5013
2026-01-20 01:27:48.01	287.50	43.34	-31.8	-34.6	10.7	3.33e-03	0	45	0	693108736	24	4930
2026-01-20 01:27:49.01	287.00	43.27	-31.8	-34.6	10.7	2.06e-03	0	45	0	695205888	24	4939
2026-01-20 01:27:50.01	286.50	43.19	-31.9	-35.5	10.3	2.47e-03	0	45	0	697303040	23	5431
2026-01-20 01:27:51.01	286.01	43.12	-32.2	-36.0	9.5	1.14e-02	0	44	0	698351616	24	5609
2026-01-20 01:27:52.01	285.52	43.04	-31.8	-34.7	10.5	8.48e-03	0	44	0	700448768	24	5004
2026-01-20 01:27:53.01	285.03	42.95	-31.3	-33.4	11.8	3.22e-03	0	44	0	702545920	23	4596
2026-01-20 01:27:54.02	284.54	42.87	-30.4	-31.9	13.5	6.72e-04	0	44	0	704643072	21	4256
2026-01-20 01:27:55.02	284.05	42.78	-30.5	-32.0	13.4	2.44e-05	0	45	0	705691648	21	4294
2026-01-20 01:27:56.02	283.57	42.70	-30.7	-32.5	13.1	1.16e-04	0	45	0	707788800	21	4457
2026-01-20 01:27:57.02	283.09	42.61	-30.8	-32.9	12.9	1.32e-04	0	45	0	709885952	21	4586
2026-01-20 01:27:58.02	282.62	42.51	-30.9	-32.8	12.6	8.31e-05	0	44	0	711983104	22	4469
2026-01-20 01:27:59.03	282.14	42.42	-30.7	-32.6	13.0	1.07e-03	0	45	0	714080256	21	4498
2026-01-20 01:28:00.03	281.67	42.32	-30.3	-32.0	13.8	1.79e-03	0	45	0	715128832	20	4384
2026-01-20 01:28:01.03	281.20	42.22	-30.0	-31.1	14.3	2.20e-06	0	44	0	717225984	20	4113
2026-01-20 01:28:02.04	280.73	42.12	-30.4	-32.2	13.8	2.22e-03	0	45	0	719323136	20	4431
2026-01-20 01:28:03.04	280.27	42.02	-30.5	-32.2	13.4	2.27e-03	0	44	0	721420288	21	4355
2026-01-20 01:28:04.05	279.80	41.92	-30.5	-32.0	13.4	1.98e-05	0	45	0	723517440	21	4304
2026-01-20 01:28:05.05	279.35	41.81	-30.1	-31.4	14.1	2.15e-03	0	45	0	724566016	20	4201
2026-01-20 01:28:06.05	278.89	41.70	-30.1	-31.4	14.1	2.32e-03	0	44	0	726663168	20	4186
2026-01-20 01:28:07.05	278.44	41.60	-30.2	-31.7	13.9	1.50e-06	0	45	0	728760320	20	4296
2026-01-20 01:28:08.05	278.00	41.48	-30.1	-31.5	14.1	2.28e-03	0	44	0	730857472	20	4208
2026-01-20 01:28:09.06	277.55	41.37	-30.4	-32.4	13.5	2.20e-03	0	44	0	732954624	20	4499
2026-01-20 01:28:10.06	277.11	41.26	-30.5	-32.0	13.4	1.44e-05	0	45	0	734003200	21	4307
2026-01-20 01:28:11.06	276.67	41.14	-30.3	-31.6	13.7	1.90e-05	0	45	0	736100352	21	4181
2026-01-20 01:28:12.07	276.23	41.02	-30.0	-31.2	14.3	2.04e-03	0	45	0	738197504	20	4134
2026-01-20 01:28:13.07	275.80	40.91	-29.6	-30.2	14.9	0.00e+00	0	45	0	740294656	20	3842
2026-01-20 01:28:14.07	275.37	40.79	-29.3	-30.3	15.5	2.13e-03	0	45	0	742391808	18	4038
2026-01-20 01:28:15.07	274.95	40.67	-29.0	-29.7	15.9	0.00e+00	0	44	0	743440384	18	3890
2026-01-20 01:28:16.07	274.53	40.54	-28.8	-29.2	16.1	0.00e+00	0	45	0	745537536	18	3758
2026-01-20 01:28:17.08	274.10	40.42	-29.0	-29.7	15.9	2.15e-03	0	44	0	747634688	18	3899
2026-01-20 01:28:18.08	273.69	40.29	-29.3	-30.5	15.4	0.00e+00	0	44	0	749731840	18	4100
2026-01-20 01:28:19.08	273.27	40.17	-29.8	-31.1	14.7	7.00e-07	0	45	0	751828992	19	4181
2026-01-20 01:28:20.08	272.87	40.04	-29.5	-30.4	15.2	1.34e-03	0	44	0	752877568	19	3985
2026-01-20 01:28:21.08	272.46	39.91	-29.4	-30.5	15.4	0.00e+00	0	44	0	754974720	18	4115
2026-01-20 01:28:22.09	272.05	39.78	-29.3	-30.4	15.4	0.00e+00	0	45	0	757071872	18	4074
2026-01-20 01:28:23.09	271.65	39.65	-29.2	-30.2	15.5	1.56e-03	0	44	0	759169024	18	4025
2026-01-20 01:28:24.10	271.25	39.51	-28.6	-28.6	16.4	2.09e-03	0	44	0	760217600	18	3616
2026-01-20 01:28:25.10	270.86	39.38	-28.8	-29.2	16.1	0.00e+00	0	44	0	762314752	18	3763
2026-01-20 01:28:26.09	270.48	39.25	-29.0	-29.8	15.8	0.00e+00	0	45	0	764411904	18	3907
2026-01-20 01:28:27.09	270.09	39.11	-29.7	-30.8	14.9	2.20e-03	0	45	0	766509056	19	4103
2026-01-20 01:28:28.10	269.70	38.98	-29.7	-31.0	14.8	0.00e+00	0	44	0	768606208	19	4156
2026-01-20 01:28:29.10	269.32	38.84	-29.4	-30.2	15.3	0.00e+00	0	44	0	769654784	19	3932
2026-01-20 01:28:30.10	268.95	38.70	-29.2	-30.0	15.7	1.91e-03	0	44	0	771751936	18	3976
2026-01-20 01:28:31.10	268.57	38.56	-29.4	-30.6	15.4	0.00e+00	0	44	0	773849088	18	4121
2026-01-20 01:28:32.11	268.20	38.42	-29.1	-29.9	15.8	0.00e+00	0	45	0	775946240	18	3931
2026-01-20 01:28:33.12	267.83	38.28	-29.4	-30.6	15.4	0.00e+00	0	44	0	778043392	18	4119
2026-01-20 01:28:34.11	267.47	38.14	-29.5	-30.8	15.4	0.00e+00	0	45	0	779091968	18	4175
2026-01-20 01:28:35.11	267.11	38.00	-29.9	-31.3	14.6	0.00e+00	0	44	0	781189120	19	4246
2026-01-20 01:28:36.11	266.75	37.86	-30.3	-32.0	13.9	1.50e-06	0	44	0	783286272	20	4349
2026-01-20 01:28:37.11	266.39	37.71	-30.4	-31.7	13.6	5.30e-06	0	44	0	785383424	21	4180
2026-01-20 01:28:38.12	266.04	37.57	-29.9	-30.8	14.6	0.00e+00	0	44	0	787480576	20	4003
2026-01-20 01:28:39.12	265.69	37.42	-29.8	-30.7	14.6	0.00e+00	0	44	0	788529152	20	3962
2026-01-20 01:28:40.13	265.34	37.28	-30.3	-31.8	13.6	7.00e-07	0	45	0	790626304	20	4302
2026-01-20 01:28:41.12	265.00	37.13	-30.8	-32.9	13.0	2.18e-03	0	45	0	792723456	21	4537
2026-01-20 01:28:42.13	264.66	36.99	-30.9	-32.4	12.9	8.08e-05	0	45	0	794820608	22	4310
2026-01-20 01:28:43.13	264.33	36.84	-30.5	-31.3	13.7	3.28e-05	0	45	0	796917760	22	3955
2026-01-20 01:28:44.13	263.99	36.69	-30.3	-31.9	13.9	2.20e-06	0	45	0	797966336	20	4306
2026-01-20 01:28:45.13	263.66	36.54	-30.6	-32.2	13.4	1.29e-05	0	44	0	800063488	21	4307
2026-01-20 01:28:46.14	263.33	36.40	-30.7	-32.4	13.2	2.13e-05	0	45	0	802160640	21	4390
2026-01-20 01:28:47.14	263.01	36.25	-30.4	-31.6	13.8	7.60e-06	0	45	0	804257792	21	4137
2026-01-20 01:28:48.15	262.68	36.10	-30.1	-31.3	14.2	1.50e-06	0	45	0	805306368	20	4127
2026-01-20 01:28:49.15	262.37	35.95	-30.5	-31.9	13.6	4.50e-06	0	45	0	807403520	21	4234
2026-01-20 01:28:50.16	262.05	35.80	-30.7	-32.5	13.2	2.28e-05	0	45	0	809500672	21	4426
2026-01-20 01:28:51.16	261.74	35.65	-30.8	-32.2	13.0	3.50e-05	0	44	0	811597824	22	4225
2026-01-20 01:28:52.16	261.43	35.50	-30.6	-32.1	13.4	1.74e-03	0	45	0	813694976	21	4293
2026-01-20 01:28:53.16	261.12	35.35	-30.6	-32.1	13.4	7.60e-06	0	45	0	814743552	21	4288
2026-01-20 01:28:54.17	260.81	35.20	-30.5	-32.0	13.4	1.67e-05	0	45	0	816840704	21	4264
2026-01-20 01:28:55.17	260.51	35.05	-30.5	-31.9	13.5	1.73e-03	0	45	0	818937856	21	4223
2026-01-20 01:28:56.17	260.22	34.90	-29.9	-31.2	14.6	0.00e+00	0	45	0	821035008	19	4207
2026-01-20 01:28:57.18	259.92	34.74	-29.6	-30.5	15.1	7.00e-07	0	45	0	823132160	19	4008
2026-01-20 01:28:58.18	259.62	34.59	-29.9	-31.3	13.8	1.24e-03	0	45	0	824180736	19	4238
2026-01-20 01:28:59.18	259.33	34.44	-31.1	-32.9	12.7	4.29e-04	0	44	0	826277888	21	4435
2026-01-20 01:29:00.19	259.04	34.29	-31.2	-33.4	12.3	7.62e-05	0	45	0	828375040	22	4650
2026-01-20 01:29:01.19	258.76	34.14	-31.6	-34.1	11.2	5.86e-04	0	45	0	830472192	23	4818
2026-01-20 01:29:02.20	258.48	33.98	-31.3	-33.7	11.7	5.19e-04	0	45	0	832569344	22	4752
2026-01-20 01:29:03.20	258.20	33.83	-31.1	-33.0	12.4	1.90e-04	0	45	0	833617920	22	4509
2026-01-20 01:29:04.20	257.92	33.68	-31.3	-33.6	12.0	1.43e-04	0	45	0	835715072	22	4712
2026-01-20 01:29:05.20	257.65	33.53	-31.3	-33.6	12.0	2.89e-03	0	45	0	837812224	22	4723
2026-01-20 01:29:06.20	257.37	33.38	-31.5	-34.0	11.5	5.45e-04	0	45	0	839909376	23	4767
2026-01-20 01:29:07.20	257.11	33.23	-31.9	-35.2	10.6	1.87e-03	0	45	0	842006528	23	5231
2026-01-20 01:29:08.20	256.84	33.08	-32.2	-35.8	9.7	4.62e-03	0	45	0	843055104	24	5413
2026-01-20 01:29:09.21	256.57	32.92	-32.6	-36.7	8.6	2.99e-02	0	45	0	845152256	25	5773
2026-01-20 01:29:10.21	256.31	32.77	-33.2	-39.3	6.3	1.13e-01	0	45	0	847249408	26	7270
2026-01-20 01:29:11.21	256.05	32.62	-33.3	-39.9	5.8	3.03e-01	0	45	0	849346560	26	7696
2026-01-20 01:29:12.22	255.79	32.47	-33.0	-38.3	6.9	2.10e-01	0	45	0	850395136	26	6582
2026-01-20 01:29:13.22	255.54	32.32	-32.3	-36.2	9.2	4.46e-02	0	45	0	852492288	24	5625
2026-01-20 01:29:14.22	255.29	32.17	-31.9	-34.7	10.5	5.97e-03	0	44	0	854589440	24	4942
2026-01-20 01:29:15.22	255.04	32.02	-31.6	-33.7	11.2	1.95e-03	0	45	0	856686592	24	4567
2026-01-20 01:29:16.23	254.79	31.87	-31.9	-35.3	10.4	5.09e-03	0	45	0	858783744	23	5306
2026-01-20 01:29:17.23	254.54	31.72	-32.1	-35.5	9.9	5.78e-03	0	45	0	860880896	24	5321
2026-01-20 01:29:18.23	254.30	31.57	-32.2	-35.9	9.5	1.05e-02	0	45	0	861929472	24	5492
2026-01-20 01:29:19.23	254.06	31.42	-32.0	-35.1	10.1	1.22e-02	0	45	0	864026624	24	5126
2026-01-20 01:29:20.24	253.82	31.26	-31.8	-34.7	10.8	3.04e-03	0	45	0	866123776	23	5063
2026-01-20 01:29:21.25	253.58	31.11	-31.6	-34.3	11.1	1.60e-03	0	45	0	868220928	23	4885
2026-01-20 01:29:22.25	253.35	30.96	-31.7	-34.7	10.8	2.86e-03	0	45	0	869269504	23	5036
2026-01-20 01:29:23.25	253.12	30.81	-31.5	-33.8	11.4	2.50e-03	0	45	0	871366656	23	4703
2026-01-20 01:29:24.25	252.89	30.67	-31.4	-33.6	11.6	7.46e-04	0	44	0	873463808	23	4624
2026-01-20 01:29:25.25	252.66	30.52	-31.6	-34.1	11.1	9.79e-04	0	45	0	875560960	23	4832
2026-01-20 01:29:26.26	252.43	30.37	-31.7	-34.5	11.0	2.92e-03	0	45	0	877658112	23	4983
2026-01-20 01:29:27.26	252.21	30.22	-32.0	-35.4	10.4	2.95e-03	0	44	0	878706688	23	5334
2026-01-20 01:29:28.27	251.99	30.07	-32.0	-35.5	10.3	3.48e-03	0	45	0	880803840	23	5373
2026-01-20 01:29:29.27	251.77	29.92	-32.0	-35.2	10.1	1.04e-02	0	45	0	882900992	24	5177
2026-01-20 01:29:30.28	251.55	29.77	-31.7	-34.0	10.9	4.04e-03	0	45	0	884998144	24	4704
2026-01-20 01:29:31.28	251.33	29.63	-31.4	-33.6	11.5	1.45e-03	0	45	0	887095296	23	4649
2026-01-20 01:29:32.28	251.12	29.48	-31.2	-33.6	11.9	2.45e-03	0	45	0	888143872	22	4718
2026-01-20 01:29:33.29	250.91	29.33	-31.3	-33.8	11.8	5.79e-04	0	45	0	890241024	22	4785
2026-01-20 01:29:34.29	250.70	29.19	-31.1	-33.1	12.3	2.33e-03	0	45	0	892338176	22	4543
2026-01-20 01:29:35.29	250.49	29.04	-31.2	-33.6	11.9	2.34e-04	0	45	0	894435328	22	4730
2026-01-20 01:29:36.29	250.29	28.90	-31.4	-34.2	11.5	9.38e-04	0	45	0	896532480	22	4963
2026-01-20 01:29:37.30	250.08	28.75	-31.3	-33.7	11.8	3.20e-03	0	45	0	897581056	22	4787
2026-01-20 01:29:38.30	249.88	28.61	-31.0	-33.0	12.3	2.79e-03	0	45	0	899678208	22	4514
2026-01-20 01:29:39.31	249.68	28.46	-30.9	-32.5	12.6	2.49e-04	0	45	0	901775360	22	4362
2026-01-20 01:29:40.31	249.48	28.32	-30.8	-32.8	12.7	2.07e-03	0	45	0	903872512	21	4556
2026-01-20 01:29:41.30	249.29	28.17	-30.9	-33.0	12.6	2.10e-03	0	44	0	905969664	21	4616
2026-01-20 01:29:42.31	249.09	28.03	-31.0	-32.9	12.4	1.57e-04	0	45	0	907018240	22	4467
2026-01-20 01:29:43.32	248.90	27.88	-31.0	-33.1	12.3	2.57e-03	0	45	0	909115392	22	4549
2026-01-20 01:29:44.32	248.70	27.74	-31.1	-33.3	12.1	3.40e-03	0	45	0	911212544	22	4617
2026-01-20 01:29:45.32	248.52	27.60	-31.2	-33.4	12.0	1.20e-03	0	45	0	913309696	22	4657
2026-01-20 01:29:46.32	248.33	27.46	-31.3	-33.9	11.6	4.10e-03	0	44	0	914358272	22	4845
2026-01-20 01:29:47.33	248.14	27.32	-31.2	-33.6	11.9	4.42e-03	0	45	0	916455424	22	4719
2026-01-20 01:29:48.33	247.96	27.17	-31.2	-33.6	11.9	2.00e-03	0	45	0	918552576	22	4746
2026-01-20 01:29:49.33	247.77	27.03	-31.2	-33.4	11.9	2.59e-03	0	45	0	920649728	22	4679
2026-01-20 01:29:50.33	247.59	26.89	-31.3	-33.9	11.5	4.56e-03	0	45	0	922746880	22	4850
2026-01-20 01:29:51.33	247.41	26.75	-31.2	-33.6	11.8	2.71e-03	0	45	0	924844032	22	4724
2026-01-20 01:29:52.33	247.24	26.62	-31.2	-33.6	11.8	4.44e-03	0	45	0	925892608	22	4735
2026-01-20 01:29:53.34	247.06	26.48	-31.3	-33.7	11.8	5.21e-03	0	45	0	927989760	22	4778
2026-01-20 01:29:54.35	246.88	26.34	-31.2	-33.7	11.8	2.47e-03	0	45	0	930086912	22	4755
2026-01-20 01:29:55.36	246.71	26.20	-31.0	-32.9	12.3	4.78e-03	0	44	0	932184064	22	4483
2026-01-20 01:29:56.36	246.54	26.06	-30.7	-32.6	12.8	8.77e-05	0	45	0	933232640	21	4484
2026-01-20 01:29:57.36	246.37	25.92	-30.6	-32.3	13.0	1.06e-03	0	44	0	935329792	21	4378
2026-01-20 01:29:58.36	246.20	25.78	-30.5	-31.9	13.2	3.12e-03	0	44	0	937426944	21	4271
2026-01-20 01:29:59.37	246.03	25.65	-30.4	-31.9	13.3	2.92e-03	0	45	0	939524096	21	4249
2026-01-20 01:30:00.37	245.86	25.51	-30.3	-31.5	13.5	5.30e-06	0	44	0	941621248	21	4119
2026-01-20 01:30:01.38	245.70	25.37	-30.7	-32.5	13.0	1.98e-03	0	45	0	942669824	21	4415
2026-01-20 01:30:02.38	245.53	25.24	-30.6	-32.2	13.2	1.30e-03	0	45	0	944766976	21	4312
2026-01-20 01:30:03.38	245.37	25.10	-30.9	-33.0	12.6	6.71e-05	0	45	0	946864128	21	4612
2026-01-20 01:30:04.38	245.21	24.97	-31.1	-33.2	12.2	7.51e-04	0	44	0	948961280	22	4571
2026-01-20 01:30:05.39	245.05	24.84	-31.1	-33.2	12.2	2.82e-03	0	45	0	951058432	22	4565
2026-01-20 01:30:06.39	244.90	24.70	-31.1	-33.1	12.2	2.82e-04	0	45	0	952107008	22	4550
2026-01-20 01:30:07.40	244.74	24.57	-30.9	-32.5	12.7	1.31e-04	0	45	0	954204160	22	4344
2026-01-20 01:30:08.40	244.58	24.44	-30.7	-32.5	12.9	2.21e-03	0	45	0	956301312	21	4438
2026-01-20 01:30:09.40	244.43	24.30	-30.6	-32.3	13.1	1.06e-04	0	45	0	958398464	21	4364
2026-01-20 01:30:10.40	244.28	24.17	-30.5	-32.1	13.2	2.74e-05	0	45	0	960495616	21	4295
2026-01-20 01:30:11.41	244.13	24.04	-30.5	-31.9	13.3	2.59e-03	0	45	0	961544192	21	4257
2026-01-20 01:30:12.41	243.98	23.91	-30.5	-32.0	13.2	2.66e-04	0	45	0	963641344	21	4267
2026-01-20 01:30:13.42	243.83	23.78	-30.4	-31.6	13.5	1.52e-05	0	45	0	965738496	21	4155
2026-01-20 01:30:14.42	243.68	23.65	-30.6	-32.2	13.1	1.75e-05	0	45	0	967835648	21	4354
2026-01-20 01:30:15.42	243.54	23.52	-31.1	-33.0	12.2	4.74e-04	0	45	0	969932800	22	4517
2026-01-20 01:30:16.42	243.39	23.39	-31.4	-34.0	11.6	4.23e-04	0	45	0	970981376	22	4858
2026-01-20 01:30:17.42	243.25	23.26	-31.8	-34.7	10.7	2.08e-03	0	45	0	973078528	23	5059
2026-01-20 01:30:18.42	243.11	23.13	-31.8	-35.0	10.4	3.08e-03	0	45	0	975175680	23	5192
2026-01-20 01:30:19.43	242.96	23.00	-31.9	-34.7	10.3	9.13e-03	0	45	0	977272832	24	4955
2026-01-20 01:30:20.43	242.82	22.88	-31.7	-34.7	10.7	2.88e-03	0	45	0	979369984	23	5056
2026-01-20 01:30:21.42	242.69	22.75	-31.7	-34.6	10.7	2.60e-03	0	44	0	980418560	23	5034
2026-01-20 01:30:22.42	242.55	22.63	-31.5	-33.9	11.2	4.11e-03	0	45	0	982515712	23	4756
2026-01-20 01:30:23.43	242.41	22.50	-31.4	-33.7	11.3	1.23e-03	0	45	0	984612864	23	4684
2026-01-20 01:30:24.44	242.28	22.37	-31.5	-33.8	11.3	1.17e-03	0	45	0	986710016	23	4713
2026-01-20 01:30:25.44	242.14	22.25	-31.5	-34.0	11.2	1.53e-03	0	45	0	987758592	23	4790
2026-01-20 01:30:26.45	242.01	22.12	-31.4	-33.5	11.5	1.06e-03	0	45	0	989855744	23	4612
2026-01-20 01:30:27.45	241.88	22.00	-31.4	-34.1	11.4	7.40e-04	0	45	0	991952896	22	4911
2026-01-20 01:30:28.45	241.74	21.87	-31.3	-33.7	11.7	7.93e-04	0	45	0	994050048	22	4772
2026-01-20 01:30:29.45	241.61	21.75	-31.1	-33.2	12.0	5.13e-04	0	45	0	996147200	22	4588
2026-01-20 01:30:30.45	241.49	21.63	-31.2	-33.6	11.8	6.06e-04	0	44	0	997195776	22	4727
2026-01-20 01:30:31.46	241.36	21.50	-31.1	-33.2	12.1	4.71e-04	0	45	0	999292928	22	4591
2026-01-20 01:30:32.46	241.23	21.38	-31.1	-33.3	11.9	2.48e-04	0	44	0	1001390080	22	4611
2026-01-20 01:30:33.46	241.11	21.26	-31.1	-33.2	12.0	3.49e-04	0	45	0	1003487232	22	4581
2026-01-20 01:30:34.46	240.98	21.14	-31.0	-32.9	12.3	1.86e-04	0	44	0	1005584384	22	4478
2026-01-20 01:30:35.47	240.86	21.02	-30.8	-33.0	12.5	1.48e-04	0	45	0	1006632960	21	4603
2026-01-20 01:30:36.47	240.73	20.90	-30.8	-32.8	12.6	7.85e-05	0	45	0	1008730112	21	4533
2026-01-20 01:30:37.47	240.61	20.78	-30.9	-33.1	12.4	1.07e-04	0	45	0	1010827264	21	4644
2026-01-20 01:30:38.47	240.49	20.66	-30.6	-32.4	12.8	1.03e-04	0	45	0	1012924416	21	4418
2026-01-20 01:30:39.47	240.37	20.54	-30.4	-31.8	13.2	3.66e-05	0	45	0	1015021568	21	4212
2026-01-20 01:30:40.48	240.25	20.42	-30.3	-31.9	12.8	1.75e-05	0	45	0	1016070144	20	4344
2026-01-20 01:30:41.48	240.13	20.30	-30.4	-32.2	13.3	1.06e-05	0	45	0	1018167296	20	4430
2026-01-20 01:30:42.49	240.01	20.18	-30.4	-31.8	12.9	2.97e-05	0	45	0	1020264448	21	4234
2026-01-20 01:30:43.48	239.90	20.07	-30.5	-31.9	13.1	7.19e-04	0	45	0	1022361600	21	4262
2026-01-20 01:30:44.49	239.78	19.95	-30.6	-32.3	12.9	2.74e-05	0	45	0	1024458752	21	4385
2026-01-20 01:30:45.49	239.67	19.83	-30.6	-32.3	12.9	6.56e-05	0	45	0	1025507328	21	4377
2026-01-20 01:30:46.49	239.56	19.72	-29.9	-31.9	12.6	7.24e-05	0	44	0	1027604480	21	4535
2026-01-20 01:30:47.49	239.44	19.60	-30.9	-33.1	12.3	8.92e-05	0	45	0	1029701632	21	4666
2026-01-20 01:30:48.49	239.33	19.49	-30.9	-33.3	11.6	2.03e-04	0	45	0	1031798784	21	4727
2026-01-20 01:30:49.50	239.22	19.37	-31.0	-33.5	11.5	3.09e-04	0	45	0	1032847360	21	4800
2026-01-20 01:30:50.49	239.11	19.26	-31.0	-33.1	12.0	3.28e-04	0	45	0	1034944512	22	4573
2026-01-20 01:30:51.50	239.00	19.14	-31.1	-33.1	11.9	3.04e-04	0	45	0	1037041664	22	4582
2026-01-20 01:30:52.50	238.89	19.03	-30.9	-33.2	12.2	2.89e-04	0	45	0	1039138816	21	4688
2026-01-20 01:30:53.50	238.79	18.92	-30.7	-32.8	12.5	1.46e-04	0	45	0	1041235968	21	4545
2026-01-20 01:30:54.51	238.68	18.80	-30.5	-32.2	12.9	5.26e-05	0	45	0	1042284544	21	4352
2026-01-20 01:30:55.51	238.57	18.69	-30.4	-32.4	13.1	3.35e-05	0	45	0	1044381696	20	4510
2026-01-20 01:30:56.52	238.47	18.58	-30.5	-32.2	12.9	3.35e-05	0	45	0	1046478848	21	4363
2026-01-20 01:30:57.52	238.36	18.47	-30.6	-32.4	12.8	3.14e-03	0	45	0	1048576000	21	4407
2026-01-20 01:30:58.52	238.26	18.36	-30.7	-32.8	12.5	1.11e-04	0	45	0	1050673152	21	4552
2026-01-20 01:30:59.53	238.15	18.25	-30.8	-33.0	12.3	2.03e-04	0	45	0	1051721728	21	4615
2026-01-20 01:31:00.53	238.05	18.14	-31.0	-33.1	11.9	3.47e-03	0	45	0	1053818880	22	4563
2026-01-20 01:31:01.53	237.95	18.03	-31.0	-33.4	12.0	3.38e-03	0	45	0	1055916032	21	4786
2026-01-20 01:31:02.54	237.85	17.92	-31.1	-33.3	11.7	4.42e-04	0	44	0	1058013184	22	4655
2026-01-20 01:31:03.54	237.75	17.81	-31.1	-33.3	11.7	5.53e-04	0	45	0	1060110336	22	4660
2026-01-20 01:31:04.54	237.65	17.70	-31.1	-33.3	11.8	3.93e-03	0	45	0	1061158912	22	4640
2026-01-20 01:31:05.54	237.55	17.59	-31.0	-33.2	11.9	3.98e-04	0	45	0	1063256064	22	4603
2026-01-20 01:31:06.54	237.46	17.48	-31.1	-33.3	11.8	4.51e-04	0	45	0	1065353216	22	4654
2026-01-20 01:31:07.54	237.36	17.38	-31.2	-33.7	11.5	4.09e-03	0	45	0	1067450368	22	4782
2026-01-20 01:31:08.54	237.26	17.27	-31.3	-33.9	11.3	2.59e-03	0	44	0	1069547520	22	4875
2026-01-20 01:31:09.54	237.17	17.16	-31.4	-34.3	11.0	1.45e-03	0	45	0	1070596096	22	5040
2026-01-20 01:31:10.54	237.07	17.06	-31.5	-34.5	10.8	1.53e-03	0	45	0	1072693248	22	5130
2026-01-20 01:31:11.55	236.98	16.95	-31.5	-34.0	10.8	4.54e-03	0	44	0	1074790400	23	4839
2026-01-20 01:31:12.55	236.88	16.84	-31.5	-34.1	10.7	6.95e-03	0	45	0	1076887552	23	4874
2026-01-20 01:31:13.55	236.79	16.74	-31.3	-34.0	11.2	2.18e-03	0	45	0	1077936128	22	4926
2026-01-20 01:31:14.55	236.70	16.63	-31.0	-33.2	11.8	1.81e-03	0	44	0	1080033280	22	4604
2026-01-20 01:31:15.55	236.61	16.53	-30.8	-33.1	12.1	2.73e-03	0	44	0	1082130432	21	4684
2026-01-20 01:31:16.55	236.52	16.43	-30.7	-32.9	12.3	2.55e-04	0	45	0	1084227584	21	4604
2026-01-20 01:31:17.55	236.43	16.32	-30.5	-32.2	12.7	1.31e-04	0	45	0	1086324736	21	4390
2026-01-20 01:31:18.56	236.34	16.22	-30.4	-32.3	13.0	1.81e-03	0	45	0	1087373312	20	4502
2026-01-20 01:31:19.57	236.25	16.11	-30.4	-32.5	12.9	2.14e-03	0	45	0	1089470464	20	4576
2026-01-20 01:31:20.57	236.16	16.01	-30.3	-32.1	13.1	3.20e-05	0	45	0	1091567616	20	4441
2026-01-20 01:31:21.57	236.07	15.91	-30.2	-31.8	13.3	2.20e-03	0	45	0	1093664768	20	4348
2026-01-20 01:31:22.58	235.98	15.81	-30.3	-32.3	13.0	2.50e-03	0	45	0	1095761920	20	4494
2026-01-20 01:31:23.57	235.90	15.71	-30.3	-32.1	13.1	4.04e-05	0	45	0	1096810496	20	4455
2026-01-20 01:31:24.58	235.81	15.60	-30.4	-32.5	12.8	2.82e-05	0	45	0	1098907648	20	4587
2026-01-20 01:31:25.58	235.73	15.50	-30.5	-32.7	12.7	2.51e-03	0	45	0	1101004800	20	4657
2026-01-20 01:31:26.58	235.64	15.40	-30.4	-32.0	12.9	5.95e-05	0	45	0	1103101952	21	4310
2026-01-20 01:31:27.59	235.56	15.30	-30.5	-32.3	12.6	5.95e-05	0	45	0	1105199104	21	4397
2026-01-20 01:31:28.59	235.47	15.20	-30.7	-32.7	12.3	2.51e-03	0	45	0	1106247680	21	4549
2026-01-20 01:31:29.59	235.39	15.10	-30.7	-32.8	12.2	1.46e-04	0	45	0	1108344832	21	4598
2026-01-20 01:31:30.59	235.31	15.00	-30.6	-32.6	12.4	2.63e-03	0	45	0	1110441984	21	4507
2026-01-20 01:31:31.60	235.23	14.90	-30.7	-32.9	12.2	2.86e-03	0	45	0	1112539136	21	4610
2026-01-20 01:31:32.60	235.14	14.81	-30.7	-32.9	12.2	2.32e-04	0	45	0	1114636288	21	4610
2026-01-20 01:31:33.60	235.06	14.71	-30.8	-33.0	12.1	2.88e-03	0	45	0	1115684864	21	4667
2026-01-20 01:31:34.60	234.98	14.61	-30.8	-33.0	12.1	3.81e-04	0	45	0	1117782016	21	4660
2026-01-20 01:31:35.60	234.90	14.51	-30.6	-32.5	12.4	2.49e-04	0	45	0	1119879168	21	4485
2026-01-20 01:31:36.60	234.83	14.42	-30.7	-32.7	12.3	2.90e-03	0	45	0	1121976320	21	4563
2026-01-20 01:31:37.60	234.75	14.32	-30.7	-32.8	12.2	2.68e-03	0	45	0	1123024896	21	4597
2026-01-20 01:31:38.60	234.67	14.22	-30.7	-32.7	12.2	1.75e-04	0	45	0	1125122048	21	4575
2026-01-20 01:31:39.60	234.59	14.13	-30.6	-32.5	12.4	2.67e-03	0	45	0	1127219200	21	4505
2026-01-20 01:31:40.61	234.51	14.03	-30.6	-32.7	12.2	3.20e-03	0	45	0	1129316352	21	4562
2026-01-20 01:31:41.61	234.44	13.93	-30.7	-33.0	12.1	2.51e-04	0	45	0	1131413504	21	4658
2026-01-20 01:31:42.62	234.36	13.84	-30.8	-33.3	11.8	3.27e-03	0	45	0	1132462080	21	4778
2026-01-20 01:31:43.61	234.29	13.74	-30.8	-33.3	11.8	3.23e-03	0	44	0	1134559232	21	4774
2026-01-20 01:31:44.61	234.21	13.65	-31.0	-33.7	11.5	8.75e-04	0	45	0	1136656384	21	4937
2026-01-20 01:31:45.61	234.14	13.56	-31.1	-33.7	11.2	3.96e-03	0	45	0	1138753536	22	4832
2026-01-20 01:31:46.61	234.06	13.46	-31.2	-34.1	10.9	4.46e-03	0	45	0	1140850688	22	4996
2026-01-20 01:31:47.61	233.99	13.37	-31.1	-33.8	11.0	2.08e-03	0	45	0	1141899264	22	4897
2026-01-20 01:31:48.62	233.92	13.28	-31.2	-34.1	10.8	2.42e-03	0	44	0	1143996416	22	5033
2026-01-20 01:31:49.62	233.84	13.18	-31.3	-34.5	10.5	6.07e-03	0	45	0	1146093568	22	5178
2026-01-20 01:31:50.62	233.77	13.09	-31.3	-34.4	10.6	3.77e-03	0	44	0	1148190720	22	5143
2026-01-20 01:31:51.62	233.70	13.00	-31.4	-34.8	10.3	6.03e-03	0	44	0	1150287872	22	5303
2026-01-20 01:31:52.63	233.63	12.90	-31.4	-34.6	10.4	5.29e-03	0	44	0	1151336448	22	5236
2026-01-20 01:31:53.63	233.56	12.81	-31.3	-34.4	10.5	4.03e-03	0	45	0	1153433600	22	5165
2026-01-20 01:31:54.63	233.49	12.72	-31.3	-34.5	10.5	6.10e-03	0	45	0	1155530752	22	5180
2026-01-20 01:31:55.63	233.42	12.63	-31.3	-34.6	10.4	4.21e-03	0	45	0	1157627904	22	5211
2026-01-20 01:31:56.63	233.35	12.54	-31.5	-35.0	10.1	4.20e-03	0	45	0	1159725056	22	5416
2026-01-20 01:31:57.63	233.28	12.45	-31.5	-34.9	10.1	8.34e-03	0	45	0	1160773632	22	5380
2026-01-20 01:31:58.63	233.21	12.36	-31.5	-34.5	10.0	8.43e-03	0	45	0	1162870784	23	5117
2026-01-20 01:31:59.64	233.14	12.27	-31.5	-34.6	10.0	7.63e-03	0	45	0	1164967936	23	5126
2026-01-20 01:32:00.64	233.08	12.18	-31.5	-34.7	9.9	9.52e-03	0	45	0	1167065088	23	5189
2026-01-20 01:32:01.64	233.01	12.09	-31.5	-34.5	10.0	9.86e-03	0	45	0	1168113664	23	5114
2026-01-20 01:32:02.65	232.94	12.00	-31.5	-34.7	10.0	8.42e-03	0	45	0	1170210816	23	5173
2026-01-20 01:32:03.65	232.87	11.91	-31.6	-35.0	9.7	1.45e-02	0	45	0	1172307968	23	5305
2026-01-20 01:32:04.65	232.81	11.82	-31.6	-34.8	9.8	1.17e-02	0	45	0	1174405120	23	5214
2026-01-20 01:32:05.65	232.74	11.73	-31.4	-34.3	10.2	6.12e-03	0	45	0	1176502272	23	5003
2026-01-20 01:32:06.66	232.68	11.65	-31.5	-34.7	9.9	7.57e-03	0	45	0	1177550848	23	5180
2026-01-20 01:32:07.66	232.61	11.56	-31.5	-34.7	9.9	1.14e-02	0	45	0	1179648000	23	5205
2026-01-20 01:32:08.67	232.55	11.47	-31.5	-34.7	9.9	8.42e-03	0	45	0	1181745152	23	5166
2026-01-20 01:32:09.67	232.48	11.38	-31.6	-34.9	9.7	1.04e-02	0	45	0	1183842304	23	5269
2026-01-20 01:32:10.67	232.42	11.30	-31.5	-34.6	9.9	1.09e-02	0	45	0	1185939456	23	5139
2026-01-20 01:32:11.67	232.36	11.21	-31.4	-34.4	10.1	8.60e-03	0	45	0	1186988032	23	5063
2026-01-20 01:32:12.67	232.29	11.12	-31.4	-34.9	10.1	7.10e-03	0	45	0	1189085184	22	5344
2026-01-20 01:32:13.67	232.23	11.04	-31.5	-34.5	10.0	8.35e-03	0	44	0	1191182336	23	5104
2026-01-20 01:32:14.68	232.17	10.95	-31.4	-34.2	10.2	7.44e-03	0	45	0	1193279488	23	4977
2026-01-20 01:32:15.68	232.11	10.87	-31.5	-34.7	9.8	8.37e-03	0	45	0	1195376640	23	5199
2026-01-20 01:32:16.68	232.05	10.78	-31.5	-34.7	9.8	1.13e-02	0	45	0	1196425216	23	5199
2026-01-20 01:32:17.68	231.99	10.70	-31.4	-34.2	10.1	8.70e-03	0	45	0	1198522368	23	5010
2026-01-20 01:32:18.68	231.93	10.61	-31.3	-34.4	10.4	5.71e-03	0	44	0	1200619520	22	5172
2026-01-20 01:32:19.68	231.87	10.53	-31.3	-34.6	10.2	5.20e-03	0	45	0	1202716672	22	5238
2026-01-20 01:32:20.69	231.81	10.44	-31.3	-34.6	10.2	5.81e-03	0	45	0	1204813824	22	5245
2026-01-20 01:32:21.69	231.75	10.36	-31.3	-34.5	10.3	5.47e-03	0	45	0	1205862400	22	5215
2026-01-20 01:32:22.69	231.69	10.27	-31.4	-34.7	10.1	6.46e-03	0	45	0	1207959552	22	5295
2026-01-20 01:32:23.69	231.63	10.19	-31.3	-34.6	10.2	6.32e-03	0	45	0	1210056704	22	5266
2026-01-20 01:32:24.70	231.57	10.11	-31.3	-34.5	10.2	6.66e-03	0	45	0	1212153856	22	5223
2026-01-20 01:32:25.70	231.51	10.02	-31.3	-34.6	10.2	6.93e-03	0	45	0	1213202432	22	5239
2026-01-20 01:32:26.71	231.45	9.94	-31.3	-34.6	10.2	5.80e-03	0	44	0	1215299584	22	5239
2026-01-20 01:32:27.71	231.40	9.86	-31.4	-34.9	10.0	6.07e-03	0	45	0	1217396736	22	5369
2026-01-20 01:32:28.71	231.34	9.78	-31.3	-34.7	10.1	8.88e-03	0	44	0	1219493888	22	5302
2026-01-20 01:32:29.71	231.28	9.70	-31.4	-34.9	9.9	8.19e-03	0	45	0	1221591040	22	5398
2026-01-20 01:32:30.71	231.23	9.61	-31.4	-34.9	9.9	9.99e-03	0	45	0	1222639616	22	5384
2026-01-20 01:32:31.71	231.17	9.53	-31.2	-34.3	10.4	6.32e-03	0	44	0	1224736768	22	5133
2026-01-20 01:32:32.71	231.12	9.45	-31.2	-34.4	10.3	5.39e-03	0	45	0	1226833920	22	5161
2026-01-20 01:32:33.71	231.06	9.37	-31.3	-34.5	10.2	5.36e-03	0	45	0	1228931072	22	5213
2026-01-20 01:32:34.71	231.01	9.29	-31.2	-34.3	10.3	4.96e-03	0	45	0	1231028224	22	5130
2026-01-20 01:32:35.71	230.95	9.21	-31.2	-34.4	10.2	4.27e-03	0	45	0	1232076800	22	5196
2026-01-20 01:32:36.70	230.90	9.13	-31.3	-34.6	10.1	6.25e-03	0	45	0	1234173952	22	5272
2026-01-20 01:32:37.71	230.84	9.05	-31.2	-34.4	10.2	6.12e-03	0	45	0	1236271104	22	5185
2026-01-20 01:32:38.71	230.79	8.97	-31.3	-34.9	9.8	8.14e-03	0	45	0	1238368256	22	5394
2026-01-20 01:32:39.71	230.74	8.89	-31.3	-34.7	10.0	1.14e-02	0	45	0	1240465408	22	5314
2026-01-20 01:32:40.72	230.68	8.81	-31.3	-34.6	10.0	7.47e-03	0	45	0	1241513984	22	5266
2026-01-20 01:32:41.72	230.63	8.73	-31.3	-34.9	9.8	8.37e-03	0	45	0	1243611136	22	5416
2026-01-20 01:32:42.72	230.58	8.65	-31.3	-34.9	9.8	1.24e-02	0	45	0	1245708288	22	5409
2026-01-20 01:32:43.72	230.52	8.57	-31.4	-35.1	9.6	1.23e-02	0	45	0	1247805440	22	5526
2026-01-20 01:32:44.72	230.47	8.49	-31.3	-34.9	9.8	1.16e-02	0	45	0	1248854016	22	5406
2026-01-20 01:32:45.73	230.42	8.42	-31.4	-35.2	9.5	1.15e-02	0	45	0	1250951168	22	5565
2026-01-20 01:32:46.73	230.37	8.34	-31.4	-35.3	9.4	1.44e-02	0	45	0	1253048320	22	5600
2026-01-20 01:32:47.73	230.32	8.26	-31.4	-34.8	9.3	1.92e-02	0	45	0	1255145472	23	5346
2026-01-20 01:32:48.74	230.27	8.18	-30.6	-34.0	9.5	1.88e-02	0	45	0	1257242624	23	5306
2026-01-20 01:32:49.74	230.22	8.10	-31.4	-35.1	9.6	1.34e-02	0	45	0	1258291200	22	5508
2026-01-20 01:32:50.74	230.17	8.03	-31.4	-35.3	9.1	1.90e-02	0	45	0	1260388352	22	5605
2026-01-20 01:32:51.73	230.12	7.95	-31.5	-35.2	8.7	2.45e-02	0	45	0	1262485504	23	5488
2026-01-20 01:32:52.74	230.07	7.87	-31.6	-35.5	8.8	2.18e-02	0	45	0	1264582656	23	5629
2026-01-20 01:32:53.74	230.02	7.80	-31.6	-35.5	8.7	3.29e-02	0	45	0	1266679808	23	5642
2026-01-20 01:32:54.75	229.97	7.72	-31.6	-35.5	8.8	2.96e-02	0	45	0	1267728384	23	5628
2026-01-20 01:32:55.75	229.92	7.64	-31.7	-35.8	8.5	2.97e-02	0	45	0	1269825536	23	5805
2026-01-20 01:32:56.75	229.87	7.57	-31.6	-35.7	8.6	4.05e-02	0	45	0	1271922688	23	5727
2026-01-20 01:32:57.76	229.82	7.49	-31.7	-35.9	8.5	3.78e-02	0	45	0	1274019840	23	5849
2026-01-20 01:32:58.76	229.77	7.42	-31.7	-35.8	8.5	4.38e-02	0	45	0	1276116992	23	5819
2026-01-20 01:32:59.76	229.73	7.34	-31.7	-35.8	8.5	4.14e-02	0	45	0	1277165568	23	5796
2026-01-20 01:33:00.76	229.68	7.27	-31.6	-35.7	8.5	4.53e-02	0	45	0	1279262720	23	5778
2026-01-20 01:33:01.77	229.63	7.19	-31.7	-36.0	8.4	5.34e-02	0	45	0	1281359872	23	5883
2026-01-20 01:33:02.77	229.58	7.12	-31.6	-35.8	8.5	4.57e-02	0	45	0	1283457024	23	5788
2026-01-20 01:33:03.77	229.54	7.04	-33.2	-45.6	3.8	1.28e+00	0	45	104	1284505600	26	14929
2026-01-20 01:33:04.78	229.49	6.97	-33.5	-45.8	3.8	1.49e+00	0	45	104	1284505600	27	14820

#Closed at: 2026-01-20 01:33:04
