passes_logs/2026/01/20/R2M6_AANII_01/R2M6_AANII_01__20260120_035657_AQUA_rec.log

#Pass ID: 20260120_035657_AQUA
#Satellite: AQUA
#Configuration: AQUA
#almurnet v.1.7.20240730
#Start time: 2026-01-20 03:56:56

#Version: 2.2.20231116
#Station: R2M6_AANII_01
#Location: 30.233357 lon 59.946436 lat
#TLE: 1 27424U 02022A   26019.27629806  .00001032  00000+0  21655-3 0  9990
#TLE: 2 27424  98.4090 345.7756 0001997  73.0764  31.8912 14.61830109261513

#Time	Az	El	Level	Level2	SNR	BER	BlckErr	Temp	State	Recorded	gain1	gain2
2026-01-20 03:56:56.42	4.93	6.95	-33.5	-52.2	3.8	7.43e-01	0	41	0	0	27	30855
2026-01-20 03:56:57.41	4.82	7.01	-32.7	-48.4	3.8	7.45e-01	0	41	104	0	26	21967
2026-01-20 03:56:58.42	4.70	7.07	-32.6	-48.4	3.8	7.47e-01	0	42	104	0	25	22275
2026-01-20 03:56:59.42	4.58	7.14	-32.5	-48.0	3.8	7.44e-01	0	42	104	0	25	21533
2026-01-20 03:57:00.42	4.47	7.20	-32.6	-48.3	3.8	7.45e-01	0	42	104	0	25	22133
2026-01-20 03:57:01.43	4.35	7.26	-32.7	-48.3	3.8	7.43e-01	0	42	104	0	26	21686
2026-01-20 03:57:02.43	4.23	7.33	-32.9	-49.1	3.8	7.45e-01	0	41	104	0	26	23313
2026-01-20 03:57:03.44	4.11	7.39	-33.0	-49.7	3.8	7.45e-01	0	42	104	0	26	24497
2026-01-20 03:57:04.44	3.99	7.46	-33.1	-49.4	3.8	7.46e-01	0	42	104	0	27	23411
2026-01-20 03:57:05.44	3.87	7.52	-33.0	-49.4	3.8	7.44e-01	0	42	104	0	26	23831
2026-01-20 03:57:06.44	3.75	7.58	-32.9	-48.9	3.8	7.45e-01	0	42	104	0	26	22773
2026-01-20 03:57:07.44	3.63	7.65	-32.8	-48.6	3.8	7.42e-01	0	42	104	0	26	22000
2026-01-20 03:57:08.45	3.51	7.71	-32.8	-48.3	3.8	7.44e-01	0	42	104	0	26	21479
2026-01-20 03:57:09.45	3.39	7.78	-32.8	-48.2	3.8	7.43e-01	0	42	104	0	26	21310
2026-01-20 03:57:10.45	3.26	7.84	-32.9	-48.7	3.8	7.46e-01	0	42	104	0	26	22240
2026-01-20 03:57:11.46	3.14	7.90	-33.0	-49.1	3.8	7.44e-01	0	42	104	0	26	22991
2026-01-20 03:57:12.46	3.02	7.97	-32.7	-48.0	3.8	7.45e-01	0	42	104	0	26	20985
2026-01-20 03:57:13.47	2.89	8.03	-32.4	-47.5	3.8	7.46e-01	0	42	104	0	25	20415
2026-01-20 03:57:14.47	2.76	8.10	-32.2	-46.5	3.8	7.45e-01	0	42	104	0	25	18836
2026-01-20 03:57:15.48	2.64	8.16	-31.9	-46.1	3.8	7.45e-01	0	42	104	0	24	18431
2026-01-20 03:57:16.48	2.51	8.23	-31.7	-45.6	3.8	7.44e-01	0	42	104	0	24	17753
2026-01-20 03:57:17.49	2.38	8.29	-31.7	-45.3	3.8	7.44e-01	0	42	104	0	24	17368
2026-01-20 03:57:18.50	2.25	8.36	-31.6	-45.2	3.8	7.47e-01	0	42	104	0	24	17290
2026-01-20 03:57:19.50	2.13	8.42	-31.8	-45.8	3.8	7.46e-01	0	42	104	0	24	17990
2026-01-20 03:57:20.50	2.00	8.49	-31.9	-46.0	3.8	7.44e-01	0	42	104	0	24	18368
2026-01-20 03:57:21.50	1.87	8.55	-32.1	-46.4	3.8	7.45e-01	0	42	104	0	25	18739
2026-01-20 03:57:22.51	1.74	8.62	-32.3	-47.1	3.8	7.46e-01	0	42	104	0	25	19706
2026-01-20 03:57:23.51	1.61	8.68	-32.5	-47.6	3.8	7.44e-01	0	42	104	0	25	20506
2026-01-20 03:57:24.52	1.47	8.75	-32.4	-47.2	3.8	7.46e-01	0	42	104	0	25	19930
2026-01-20 03:57:25.52	1.34	8.81	-32.4	-47.3	3.8	7.43e-01	0	42	104	0	25	20104
2026-01-20 03:57:26.53	1.21	8.88	-32.3	-47.0	3.8	7.48e-01	0	42	104	0	25	19477
2026-01-20 03:57:27.53	1.07	8.94	-32.3	-47.0	3.8	7.46e-01	0	43	104	0	25	19545
2026-01-20 03:57:28.53	0.94	9.01	-32.3	-47.1	3.8	7.44e-01	0	43	104	0	25	19689
2026-01-20 03:57:29.54	0.80	9.07	-32.5	-47.7	3.8	7.46e-01	0	42	104	0	25	20665
2026-01-20 03:57:30.54	0.67	9.14	-32.7	-48.0	3.8	7.48e-01	0	43	104	0	26	20981
2026-01-20 03:57:31.54	0.53	9.20	-32.9	-48.9	3.8	7.46e-01	0	42	104	0	26	22573
2026-01-20 03:57:32.54	0.40	9.27	-33.1	-49.3	3.8	7.44e-01	0	42	104	0	27	23255
2026-01-20 03:57:33.54	0.26	9.33	-33.3	-49.9	3.8	7.43e-01	0	43	104	0	27	24431
2026-01-20 03:57:34.54	0.12	9.40	-33.4	-50.6	3.8	7.44e-01	0	43	104	0	27	26074
2026-01-20 03:57:35.55	359.98	9.47	-33.4	-50.7	3.8	7.46e-01	0	43	104	0	27	26360
2026-01-20 03:57:36.55	359.84	9.53	-33.4	-50.6	3.8	7.45e-01	0	43	104	0	27	26155
2026-01-20 03:57:37.56	359.70	9.60	-33.4	-50.6	3.8	7.44e-01	0	43	104	0	27	26025
2026-01-20 03:57:38.56	359.56	9.66	-33.4	-50.5	3.8	7.40e-01	0	43	104	0	27	25805
2026-01-20 03:57:39.56	359.42	9.73	-33.4	-50.5	3.8	7.44e-01	0	43	104	0	27	25707
2026-01-20 03:57:40.57	359.27	9.79	-33.4	-50.6	3.8	7.46e-01	0	43	104	0	27	25869
2026-01-20 03:57:41.57	359.13	9.86	-33.5	-50.7	3.8	7.46e-01	0	43	104	0	27	26106
2026-01-20 03:57:42.58	358.99	9.93	-33.4	-50.6	3.8	7.44e-01	0	43	104	0	27	25998
2026-01-20 03:57:43.58	358.84	9.99	-33.4	-50.2	3.8	7.41e-01	0	43	104	0	27	25072
2026-01-20 03:57:44.58	358.70	10.06	-33.3	-49.7	3.8	7.47e-01	0	43	104	0	27	23817
2026-01-20 03:57:45.58	358.55	10.12	-33.1	-49.0	3.8	7.46e-01	0	43	104	0	27	22385
2026-01-20 03:57:46.59	358.40	10.19	-33.0	-48.2	3.8	7.43e-01	0	43	104	0	27	20838
2026-01-20 03:57:47.59	358.26	10.26	-32.7	-47.8	3.8	7.44e-01	0	43	104	0	26	20351
2026-01-20 03:57:48.59	358.11	10.32	-32.7	-47.6	3.8	7.44e-01	0	43	104	0	26	20018
2026-01-20 03:57:49.59	357.96	10.39	-32.9	-48.3	3.8	7.45e-01	0	43	104	0	26	21292
2026-01-20 03:57:50.60	357.81	10.45	-33.1	-49.2	3.8	7.49e-01	0	43	104	0	26	22963
2026-01-20 03:57:51.60	357.66	10.52	-33.3	-49.4	3.8	7.47e-01	0	43	104	0	27	23139
2026-01-20 03:57:52.61	357.50	10.59	-33.5	-50.4	3.8	7.43e-01	0	43	104	0	27	25328
2026-01-20 03:57:53.61	357.35	10.65	-33.5	-50.5	3.8	7.43e-01	0	43	104	0	27	25425
2026-01-20 03:57:54.62	357.20	10.72	-33.3	-49.4	3.8	7.47e-01	0	43	104	0	27	23038
2026-01-20 03:57:55.62	357.05	10.78	-33.2	-48.8	3.8	7.43e-01	0	43	104	0	27	21753
2026-01-20 03:57:56.63	356.89	10.85	-33.0	-48.3	3.8	7.43e-01	0	43	104	0	27	20802
2026-01-20 03:57:57.62	356.74	10.92	-32.9	-48.4	3.8	7.46e-01	0	43	104	0	26	21386
2026-01-20 03:57:58.62	356.58	10.98	-32.9	-48.2	3.8	7.43e-01	0	43	104	0	26	21056
2026-01-20 03:57:59.62	356.42	11.05	-32.9	-48.3	3.8	7.44e-01	0	43	104	0	26	21196
2026-01-20 03:58:00.62	356.27	11.11	-32.7	-47.4	3.8	7.46e-01	0	43	104	0	26	19628
2026-01-20 03:58:01.63	356.11	11.18	-32.4	-46.4	3.8	7.46e-01	0	43	104	0	26	18062
2026-01-20 03:58:02.63	355.95	11.25	-32.1	-45.9	3.8	7.43e-01	0	43	104	0	25	17704
2026-01-20 03:58:03.62	355.79	11.31	-31.9	-45.2	3.8	7.45e-01	0	43	104	0	25	16694
2026-01-20 03:58:04.63	355.63	11.38	-30.8	-44.0	3.8	7.42e-01	0	43	104	0	24	16425
2026-01-20 03:58:05.64	355.47	11.44	-31.2	-44.2	3.8	7.44e-01	0	43	104	0	23	16120
2026-01-20 03:58:06.64	355.31	11.51	-31.0	-44.0	3.8	7.44e-01	0	43	104	0	22	16067
2026-01-20 03:58:07.65	355.14	11.58	-31.0	-44.2	3.8	7.44e-01	0	43	104	0	22	16471
2026-01-20 03:58:08.66	354.98	11.64	-31.1	-44.5	3.8	7.47e-01	0	43	104	0	22	16794
2026-01-20 03:58:09.66	354.81	11.71	-31.1	-44.2	3.8	7.46e-01	0	43	104	0	23	16102
2026-01-20 03:58:10.67	354.64	11.77	-31.4	-44.8	3.8	7.44e-01	0	43	104	0	23	16876
2026-01-20 03:58:11.67	354.48	11.84	-31.7	-45.1	3.8	7.46e-01	0	43	104	0	24	16900
2026-01-20 03:58:12.68	354.31	11.91	-31.9	-46.0	3.8	7.46e-01	0	43	104	0	24	18053
2026-01-20 03:58:13.68	354.14	11.97	-32.0	-46.3	3.8	7.42e-01	0	43	104	0	24	18531
2026-01-20 03:58:14.68	353.97	12.04	-32.1	-46.3	3.8	7.43e-01	0	43	104	0	24	18486
2026-01-20 03:58:15.68	353.80	12.10	-32.0	-46.3	3.8	7.43e-01	0	43	104	0	24	18548
2026-01-20 03:58:16.69	353.63	12.17	-32.1	-46.0	3.8	7.47e-01	0	43	104	0	25	17790
2026-01-20 03:58:17.69	353.46	12.24	-32.1	-46.0	3.8	7.48e-01	0	43	104	0	25	17742
2026-01-20 03:58:18.69	353.29	12.30	-32.0	-46.2	3.8	7.47e-01	0	43	104	0	24	18470
2026-01-20 03:58:19.70	353.12	12.37	-32.3	-46.5	3.8	7.45e-01	0	43	104	0	25	18443
2026-01-20 03:58:20.70	352.94	12.43	-32.6	-47.6	3.8	7.44e-01	0	43	104	0	25	20165
2026-01-20 03:58:21.71	352.77	12.50	-32.9	-48.2	3.8	7.44e-01	0	43	104	0	26	20938
2026-01-20 03:58:22.71	352.59	12.56	-33.2	-48.7	3.8	7.43e-01	0	43	104	0	27	21492
2026-01-20 03:58:23.71	352.42	12.63	-33.3	-49.5	3.8	7.43e-01	0	44	104	0	27	23206
2026-01-20 03:58:24.72	352.24	12.69	-33.5	-50.1	3.8	7.45e-01	0	43	104	0	27	24422
2026-01-20 03:58:25.72	352.06	12.76	-33.5	-50.2	3.8	7.43e-01	0	44	104	0	27	24704
2026-01-20 03:58:26.72	351.88	12.82	-33.5	-50.2	3.8	7.47e-01	0	43	104	0	27	24526
2026-01-20 03:58:27.72	351.70	12.89	-33.5	-50.1	3.8	7.46e-01	0	43	104	0	27	24505
2026-01-20 03:58:28.73	351.52	12.96	-33.5	-50.2	3.8	7.45e-01	0	43	104	0	27	24624
2026-01-20 03:58:29.73	351.34	13.02	-33.5	-50.4	3.8	7.41e-01	0	43	104	0	27	25093
2026-01-20 03:58:30.73	351.16	13.08	-33.6	-50.6	3.8	7.46e-01	0	43	104	0	27	25471
2026-01-20 03:58:31.74	350.97	13.15	-33.6	-50.3	3.8	7.44e-01	0	43	104	0	28	24606
2026-01-20 03:58:32.73	350.79	13.21	-33.6	-50.3	3.8	7.44e-01	0	43	104	0	28	24673
2026-01-20 03:58:33.74	350.60	13.28	-33.5	-50.1	3.8	7.46e-01	0	43	104	0	28	24261
2026-01-20 03:58:34.74	350.42	13.34	-33.5	-50.3	3.8	7.48e-01	0	43	104	0	27	24743
2026-01-20 03:58:35.74	350.23	13.41	-33.4	-49.7	3.8	7.45e-01	0	44	104	0	27	23509
2026-01-20 03:58:36.75	350.04	13.47	-33.2	-48.9	3.8	7.44e-01	0	43	104	0	27	21901
2026-01-20 03:58:37.75	349.85	13.54	-33.0	-48.5	3.8	7.46e-01	0	43	104	0	26	21499
2026-01-20 03:58:38.75	349.66	13.60	-33.1	-48.5	3.8	7.45e-01	0	43	104	0	27	21116
2026-01-20 03:58:39.76	349.47	13.66	-33.4	-49.5	3.8	7.45e-01	0	43	104	0	27	23085
2026-01-20 03:58:40.76	349.28	13.73	-33.6	-50.3	3.8	7.40e-01	0	44	104	0	28	24484
2026-01-20 03:58:41.76	349.09	13.79	-33.6	-50.0	3.8	7.43e-01	0	43	104	0	28	23935
2026-01-20 03:58:42.77	348.89	13.86	-33.4	-49.7	3.8	7.43e-01	0	44	104	0	27	23442
2026-01-20 03:58:43.78	348.70	13.92	-33.1	-48.5	3.8	7.45e-01	0	43	104	0	27	21177
2026-01-20 03:58:44.77	348.51	13.98	-32.9	-47.6	3.8	7.44e-01	0	44	104	0	27	19446
2026-01-20 03:58:45.78	348.31	14.05	-32.7	-47.3	3.8	7.44e-01	0	43	104	0	26	19400
2026-01-20 03:58:46.79	348.11	14.11	-32.5	-47.2	3.8	7.43e-01	0	44	104	0	25	19468
2026-01-20 03:58:47.79	347.91	14.17	-32.4	-46.8	3.8	7.47e-01	0	44	104	0	25	18828
2026-01-20 03:58:48.80	347.71	14.24	-32.3	-46.5	3.8	7.45e-01	0	44	104	0	25	18471
2026-01-20 03:58:49.80	347.51	14.30	-32.3	-46.5	3.8	7.47e-01	0	44	104	0	25	18425
2026-01-20 03:58:50.81	347.31	14.36	-32.0	-45.6	3.8	7.47e-01	0	44	104	0	25	17187
2026-01-20 03:58:51.82	347.11	14.42	-31.7	-45.1	3.8	7.41e-01	0	44	104	0	24	16773
2026-01-20 03:58:52.82	346.91	14.49	-31.4	-44.6	3.8	7.46e-01	0	44	104	0	23	16508
2026-01-20 03:58:53.82	346.70	14.55	-31.2	-44.2	3.8	7.45e-01	0	44	104	0	23	16013
2026-01-20 03:58:54.82	346.50	14.61	-31.0	-43.5	3.8	7.45e-01	0	43	104	0	23	15253
2026-01-20 03:58:55.81	346.30	14.67	-30.8	-43.7	3.8	7.45e-01	0	44	104	0	22	15750
2026-01-20 03:58:56.82	346.09	14.73	-30.7	-43.4	3.8	7.44e-01	0	44	104	0	22	15523
2026-01-20 03:58:57.82	345.88	14.79	-30.7	-43.4	3.8	7.43e-01	0	44	104	0	22	15485
2026-01-20 03:58:58.82	345.68	14.86	-30.8	-43.5	3.8	7.44e-01	0	44	104	0	22	15565
2026-01-20 03:58:59.82	345.47	14.92	-30.9	-43.9	3.8	7.45e-01	0	44	104	0	22	16073
2026-01-20 03:59:00.83	345.26	14.98	-31.2	-44.1	3.8	7.44e-01	0	44	104	0	23	15958
2026-01-20 03:59:01.83	345.05	15.04	-31.5	-44.8	3.8	7.43e-01	0	44	104	0	23	16812
2026-01-20 03:59:02.84	344.83	15.10	-31.8	-45.3	3.8	7.46e-01	0	44	104	0	24	16986
2026-01-20 03:59:03.84	344.62	15.16	-31.9	-45.6	3.9	7.45e-01	0	44	104	0	24	17373
2026-01-20 03:59:04.83	344.41	15.22	-31.9	-45.8	3.8	7.41e-01	0	44	104	0	24	17661
2026-01-20 03:59:05.84	344.20	15.28	-31.9	-45.7	3.8	7.43e-01	0	44	104	0	24	17564
2026-01-20 03:59:06.84	343.98	15.34	-31.9	-45.6	3.9	7.46e-01	0	44	104	0	24	17506
2026-01-20 03:59:07.84	343.77	15.40	-31.9	-45.7	3.8	7.45e-01	0	44	104	0	24	17591
2026-01-20 03:59:08.84	343.55	15.46	-32.0	-45.9	3.8	7.44e-01	0	44	104	0	24	17805
2026-01-20 03:59:09.84	343.33	15.51	-32.3	-46.2	3.8	7.43e-01	0	44	104	0	25	17994
2026-01-20 03:59:10.84	343.11	15.57	-32.6	-47.3	3.8	7.44e-01	0	44	104	0	25	19608
2026-01-20 03:59:11.85	342.89	15.63	-32.9	-48.0	3.8	7.46e-01	0	44	104	0	26	20371
2026-01-20 03:59:12.84	342.67	15.69	-33.2	-48.5	3.8	7.42e-01	0	44	104	0	27	21033
2026-01-20 03:59:13.85	342.45	15.75	-33.4	-49.4	3.8	7.44e-01	0	44	104	0	27	22614
2026-01-20 03:59:14.85	342.23	15.80	-33.5	-49.9	3.8	7.43e-01	0	44	104	0	27	23799
2026-01-20 03:59:15.86	342.00	15.86	-33.6	-50.2	3.8	7.42e-01	0	44	104	0	27	24314
2026-01-20 03:59:16.86	341.78	15.92	-33.5	-49.6	3.8	7.45e-01	0	44	104	0	28	23013
2026-01-20 03:59:17.86	341.55	15.98	-33.6	-49.8	3.8	7.46e-01	0	44	104	0	28	23275
2026-01-20 03:59:18.87	341.32	16.03	-33.6	-50.0	3.8	7.44e-01	0	44	104	0	28	23834
2026-01-20 03:59:19.87	341.10	16.09	-33.7	-50.3	3.8	7.44e-01	0	44	104	0	28	24415
2026-01-20 03:59:20.87	340.87	16.14	-33.7	-50.6	3.8	7.43e-01	0	44	104	0	28	25134
2026-01-20 03:59:21.88	340.64	16.20	-33.8	-50.9	3.8	7.43e-01	0	44	104	0	28	25799
2026-01-20 03:59:22.87	340.41	16.25	-33.8	-51.1	3.8	7.45e-01	0	44	104	0	28	26330
2026-01-20 03:59:23.87	340.18	16.31	-33.8	-51.1	3.8	7.45e-01	0	44	104	0	28	26380
2026-01-20 03:59:24.88	339.95	16.36	-33.8	-51.2	3.8	7.45e-01	0	44	104	0	28	26484
2026-01-20 03:59:25.87	339.72	16.42	-33.8	-51.0	3.8	7.46e-01	0	44	104	0	28	26016
2026-01-20 03:59:26.87	339.48	16.47	-33.7	-50.5	3.8	7.44e-01	0	44	104	0	28	24923
2026-01-20 03:59:27.87	339.25	16.53	-33.6	-50.0	3.8	7.45e-01	0	44	104	0	28	23667
2026-01-20 03:59:28.88	339.01	16.58	-33.8	-50.8	3.8	7.45e-01	0	44	104	0	28	25518
2026-01-20 03:59:29.88	338.78	16.63	-33.6	-49.9	3.8	7.46e-01	0	44	104	0	28	23474
2026-01-20 03:59:30.88	338.54	16.68	-33.3	-48.7	3.8	7.42e-01	0	44	104	0	28	21106
2026-01-20 03:59:31.88	338.30	16.74	-33.1	-48.2	3.8	7.45e-01	0	44	104	0	27	20486
2026-01-20 03:59:32.89	338.06	16.79	-32.9	-47.8	3.8	7.44e-01	0	44	104	0	26	20016
2026-01-20 03:59:33.90	337.82	16.84	-32.7	-47.0	3.8	7.43e-01	0	44	104	0	26	18823
2026-01-20 03:59:34.90	337.58	16.89	-32.5	-46.9	3.8	7.46e-01	0	44	104	0	25	18935
2026-01-20 03:59:35.91	337.34	16.94	-32.2	-46.0	3.8	7.46e-01	0	44	104	0	25	17682
2026-01-20 03:59:36.91	337.09	16.99	-32.0	-45.3	3.8	7.45e-01	0	44	104	0	25	16687
2026-01-20 03:59:37.91	336.85	17.04	-31.7	-45.1	3.8	7.45e-01	0	44	104	0	24	16752
2026-01-20 03:59:38.91	336.61	17.09	-31.8	-45.1	3.8	7.45e-01	0	44	104	0	24	16785
2026-01-20 03:59:39.92	336.36	17.14	-31.8	-45.2	3.8	7.42e-01	0	44	104	0	24	16925
2026-01-20 03:59:40.92	336.12	17.19	-31.6	-44.5	3.8	7.47e-01	0	44	104	0	24	16049
2026-01-20 03:59:41.92	335.87	17.24	-31.3	-43.7	3.8	7.42e-01	0	44	104	0	24	15127
2026-01-20 03:59:42.92	335.62	17.29	-31.1	-43.8	3.8	7.44e-01	0	44	104	0	23	15520
2026-01-20 03:59:43.93	335.37	17.33	-30.8	-43.5	3.8	7.48e-01	0	44	104	0	22	15585
2026-01-20 03:59:44.93	335.12	17.38	-30.8	-43.4	3.8	7.44e-01	0	44	104	0	22	15411
2026-01-20 03:59:45.94	334.87	17.43	-30.7	-43.3	3.8	7.44e-01	0	44	104	0	22	15293
2026-01-20 03:59:46.94	334.62	17.47	-30.7	-43.3	3.8	7.42e-01	0	44	104	0	22	15301
2026-01-20 03:59:47.95	334.37	17.52	-30.8	-43.4	3.8	7.45e-01	0	44	104	0	22	15339
2026-01-20 03:59:48.95	334.11	17.57	-30.8	-43.5	3.8	7.43e-01	0	44	104	0	22	15461
2026-01-20 03:59:49.96	333.86	17.61	-30.9	-43.8	3.8	7.46e-01	0	44	104	0	22	15883
2026-01-20 03:59:50.96	333.60	17.66	-31.1	-43.9	3.8	7.47e-01	0	44	104	0	23	15719
2026-01-20 03:59:51.96	333.35	17.70	-31.4	-44.6	3.8	7.46e-01	0	44	104	0	23	16475
2026-01-20 03:59:52.97	333.09	17.74	-31.8	-45.3	3.8	7.46e-01	0	44	104	0	24	16966
2026-01-20 03:59:53.97	332.83	17.79	-31.8	-45.3	3.8	7.44e-01	0	44	104	0	24	17015
2026-01-20 03:59:54.97	332.58	17.83	-31.8	-45.3	3.8	7.46e-01	0	44	104	0	24	16993
2026-01-20 03:59:55.97	332.32	17.87	-31.9	-45.5	3.8	7.46e-01	0	44	104	0	24	17235
2026-01-20 03:59:56.97	332.06	17.91	-32.0	-45.8	3.8	7.46e-01	0	44	104	0	24	17655
2026-01-20 03:59:57.98	331.80	17.95	-32.2	-45.9	3.8	7.46e-01	0	44	104	0	25	17461
2026-01-20 03:59:58.99	331.54	17.99	-32.4	-46.6	3.8	7.45e-01	0	44	104	0	25	18432
2026-01-20 03:59:59.99	331.28	18.03	-32.7	-47.2	3.8	7.48e-01	0	44	104	0	26	18984
2026-01-20 04:00:00.99	331.01	18.07	-32.9	-47.9	3.8	7.42e-01	0	44	104	0	26	20235
2026-01-20 04:00:02.00	330.75	18.11	-33.2	-48.3	3.8	7.44e-01	0	44	104	0	27	20476
2026-01-20 04:00:02.99	330.49	18.15	-33.4	-49.1	3.8	7.43e-01	0	44	104	0	27	21978
2026-01-20 04:00:04.00	330.22	18.19	-33.5	-49.9	3.8	7.45e-01	0	44	104	0	27	23544
2026-01-20 04:00:05.01	329.96	18.23	-33.6	-49.6	3.8	7.45e-01	0	44	104	0	28	22876
2026-01-20 04:00:06.01	329.69	18.26	-33.6	-49.8	3.8	7.47e-01	0	44	104	0	28	23254
2026-01-20 04:00:07.02	329.42	18.30	-33.7	-50.1	3.8	7.44e-01	0	44	104	0	28	23861
2026-01-20 04:00:08.02	329.16	18.33	-33.7	-50.3	3.8	7.44e-01	0	44	104	0	28	24447
2026-01-20 04:00:09.03	328.89	18.37	-33.8	-50.7	3.8	7.44e-01	0	44	104	0	28	25164
2026-01-20 04:00:10.03	328.62	18.40	-33.8	-50.9	3.8	7.46e-01	0	44	104	0	28	25777
2026-01-20 04:00:11.03	328.35	18.44	-33.9	-51.2	3.8	7.47e-01	0	44	104	0	28	26521
2026-01-20 04:00:12.03	328.08	18.47	-33.8	-50.9	3.8	7.46e-01	0	44	104	0	28	25660
2026-01-20 04:00:13.04	327.81	18.50	-33.8	-51.0	3.8	7.47e-01	0	44	104	0	28	26076
2026-01-20 04:00:14.04	327.54	18.54	-33.9	-51.2	3.8	7.45e-01	0	44	104	0	28	26391
2026-01-20 04:00:15.04	327.27	18.57	-33.8	-51.1	3.8	7.48e-01	0	44	104	0	28	26096
2026-01-20 04:00:16.04	327.00	18.60	-33.8	-50.8	3.8	7.46e-01	0	44	104	0	28	25569
2026-01-20 04:00:17.04	326.72	18.63	-33.7	-50.5	3.8	7.45e-01	0	44	104	0	28	24723
2026-01-20 04:00:18.04	326.45	18.66	-33.6	-49.9	3.8	7.46e-01	0	44	104	0	28	23446
2026-01-20 04:00:19.05	326.17	18.69	-33.4	-49.3	3.8	7.46e-01	0	44	104	0	27	22305
2026-01-20 04:00:20.05	325.90	18.72	-33.2	-48.2	3.8	7.42e-01	0	44	104	0	27	20431
2026-01-20 04:00:21.05	325.63	18.75	-32.9	-47.7	3.8	7.45e-01	0	44	104	0	26	19887
2026-01-20 04:00:22.05	325.35	18.77	-32.6	-46.9	3.8	7.45e-01	0	44	104	0	26	18504
2026-01-20 04:00:23.06	325.07	18.80	-32.4	-46.5	3.8	7.45e-01	0	44	104	0	25	18333
2026-01-20 04:00:24.07	324.79	18.83	-32.1	-45.7	3.8	7.44e-01	0	44	104	0	25	17162
2026-01-20 04:00:25.07	324.52	18.85	-31.9	-45.4	3.8	7.44e-01	0	44	104	0	24	17162
2026-01-20 04:00:26.08	324.24	18.88	-31.7	-45.0	3.8	7.44e-01	0	44	104	0	24	16618
2026-01-20 04:00:27.08	323.96	18.90	-31.6	-44.8	3.8	7.42e-01	0	44	104	0	24	16328
2026-01-20 04:00:28.08	323.68	18.92	-31.4	-44.6	3.8	7.43e-01	0	44	104	0	23	16471
2026-01-20 04:00:29.09	323.40	18.95	-31.4	-44.6	3.8	7.45e-01	0	44	104	0	23	16463
2026-01-20 04:00:30.09	323.12	18.97	-31.4	-44.6	3.8	7.47e-01	0	44	104	0	23	16474
2026-01-20 04:00:31.10	322.84	18.99	-31.3	-44.2	3.8	7.44e-01	0	44	104	0	23	15975
2026-01-20 04:00:32.10	322.56	19.01	-31.1	-43.7	3.8	7.42e-01	0	44	104	0	23	15399
2026-01-20 04:00:33.10	322.28	19.03	-31.0	-44.0	3.8	7.46e-01	0	44	104	0	22	16078
2026-01-20 04:00:34.09	322.00	19.05	-30.9	-43.7	3.8	7.46e-01	0	44	104	0	22	15652
2026-01-20 04:00:35.10	321.72	19.07	-31.0	-44.0	3.8	7.43e-01	0	44	104	0	22	16167
2026-01-20 04:00:36.11	321.44	19.09	-30.9	-43.7	3.8	7.46e-01	0	44	104	0	22	15717
2026-01-20 04:00:37.10	321.16	19.11	-31.0	-44.1	3.8	7.45e-01	0	44	104	0	22	16179
2026-01-20 04:00:38.11	320.87	19.12	-30.9	-43.7	3.8	7.42e-01	0	44	104	0	22	15703
2026-01-20 04:00:39.11	320.59	19.14	-30.9	-43.8	3.8	7.44e-01	0	44	104	0	22	15927
2026-01-20 04:00:40.11	320.31	19.16	-30.9	-43.7	3.8	7.43e-01	0	44	104	0	22	15712
2026-01-20 04:00:41.12	320.02	19.17	-31.2	-44.0	3.8	7.42e-01	0	44	104	0	23	15783
2026-01-20 04:00:42.12	319.74	19.19	-31.5	-44.8	3.8	7.44e-01	0	44	104	0	23	16719
2026-01-20 04:00:43.13	319.45	19.20	-31.6	-44.9	3.8	7.42e-01	0	44	104	0	24	16461
2026-01-20 04:00:44.13	319.17	19.21	-31.8	-45.1	3.8	7.44e-01	0	44	104	0	24	16758
2026-01-20 04:00:45.13	318.88	19.22	-31.9	-45.4	3.8	7.43e-01	0	44	104	0	24	17055
2026-01-20 04:00:46.13	318.60	19.24	-32.2	-45.9	3.8	7.45e-01	0	44	104	0	25	17471
2026-01-20 04:00:47.13	318.32	19.25	-32.3	-46.4	3.8	7.42e-01	0	44	104	0	25	18068
2026-01-20 04:00:48.13	318.03	19.26	-32.6	-46.9	3.8	7.47e-01	0	44	104	0	26	18687
2026-01-20 04:00:49.14	317.74	19.27	-32.9	-47.6	3.8	7.43e-01	0	44	104	0	26	19644
2026-01-20 04:00:50.13	317.46	19.27	-33.1	-48.5	3.8	7.44e-01	0	44	104	0	26	21317
2026-01-20 04:00:51.14	317.17	19.28	-33.3	-48.7	3.8	7.46e-01	0	44	104	0	27	21213
2026-01-20 04:00:52.14	316.89	19.29	-33.4	-49.5	3.8	7.44e-01	0	44	104	0	27	22777
2026-01-20 04:00:53.14	316.60	19.30	-33.6	-50.1	3.8	7.47e-01	0	44	104	0	27	24134
2026-01-20 04:00:54.15	316.31	19.30	-33.5	-49.5	3.8	7.43e-01	0	44	104	0	28	22703
2026-01-20 04:00:55.15	316.03	19.31	-33.6	-50.0	3.8	7.44e-01	0	44	104	0	28	23767
2026-01-20 04:00:56.16	315.74	19.31	-33.6	-50.1	3.8	7.44e-01	0	44	104	0	28	23977
2026-01-20 04:00:57.15	315.46	19.31	-33.7	-50.5	3.8	7.43e-01	0	44	104	0	28	24915
2026-01-20 04:00:58.16	315.17	19.32	-33.7	-50.7	3.8	7.43e-01	0	44	104	0	28	25310
2026-01-20 04:00:59.17	314.88	19.32	-33.8	-50.7	3.8	7.45e-01	0	44	104	0	28	25210
2026-01-20 04:01:00.17	314.59	19.32	-33.8	-50.8	3.8	7.43e-01	0	44	104	0	28	25524
2026-01-20 04:01:01.17	314.31	19.32	-33.7	-50.3	3.8	7.45e-01	0	44	104	0	28	24290
2026-01-20 04:01:02.18	314.02	19.32	-33.7	-50.2	3.8	7.45e-01	0	44	104	0	28	24313
2026-01-20 04:01:03.18	313.73	19.32	-33.6	-50.2	3.8	7.44e-01	0	44	104	0	28	24321
2026-01-20 04:01:04.18	313.44	19.32	-33.5	-49.6	3.8	7.48e-01	0	44	104	0	28	22788
2026-01-20 04:01:05.18	313.16	19.32	-33.5	-50.1	3.8	7.47e-01	0	44	104	0	27	24131
2026-01-20 04:01:06.18	312.87	19.31	-33.4	-49.2	3.8	7.42e-01	0	44	104	0	27	22246
2026-01-20 04:01:07.18	312.59	19.31	-33.3	-48.8	3.8	7.47e-01	0	44	104	0	27	21428
2026-01-20 04:01:08.19	312.30	19.31	-33.2	-48.6	3.8	7.46e-01	0	44	104	0	27	21185
2026-01-20 04:01:09.20	312.01	19.30	-32.8	-47.2	3.8	7.42e-01	0	44	104	0	26	19030
2026-01-20 04:01:10.20	311.72	19.30	-32.5	-46.7	3.8	7.48e-01	0	44	104	0	26	18402
2026-01-20 04:01:11.20	311.44	19.29	-32.2	-45.9	3.8	7.47e-01	0	44	104	0	25	17448
2026-01-20 04:01:12.21	311.15	19.28	-31.9	-44.8	3.8	7.44e-01	0	44	104	0	25	15959
2026-01-20 04:01:13.21	310.86	19.27	-31.8	-45.5	3.8	7.46e-01	0	44	104	0	24	17428
2026-01-20 04:01:14.22	310.57	19.27	-31.6	-44.5	3.8	7.44e-01	0	44	104	0	24	15956
2026-01-20 04:01:15.23	310.29	19.26	-31.3	-44.1	3.8	7.45e-01	0	44	104	0	23	15771
2026-01-20 04:01:16.23	310.00	19.25	-31.2	-44.2	3.8	7.45e-01	0	44	104	0	23	16156
2026-01-20 04:01:17.23	309.72	19.24	-30.9	-43.2	3.8	7.44e-01	0	44	104	0	23	14754
2026-01-20 04:01:18.24	309.43	19.22	-31.0	-44.0	3.8	7.42e-01	0	44	104	0	22	16078
2026-01-20 04:01:19.23	309.15	19.21	-31.0	-44.1	3.8	7.45e-01	0	44	104	0	22	16273
2026-01-20 04:01:20.24	308.86	19.20	-31.1	-43.5	3.8	7.45e-01	0	44	104	0	23	15092
2026-01-20 04:01:21.24	308.58	19.19	-31.1	-44.3	3.8	7.44e-01	0	44	104	0	22	16556
2026-01-20 04:01:22.24	308.29	19.17	-31.0	-43.9	3.8	7.46e-01	0	44	104	0	22	15873
2026-01-20 04:01:23.24	308.01	19.16	-31.0	-43.8	3.8	7.48e-01	0	44	104	0	22	15821
2026-01-20 04:01:24.25	307.73	19.14	-31.0	-44.0	3.8	7.43e-01	0	44	104	0	22	16090
2026-01-20 04:01:25.25	307.44	19.13	-31.0	-44.2	3.8	7.45e-01	0	44	104	0	22	16384
2026-01-20 04:01:26.25	307.16	19.11	-31.2	-43.8	3.8	7.44e-01	0	44	104	0	23	15527
2026-01-20 04:01:27.25	306.88	19.09	-31.3	-44.1	3.8	7.43e-01	0	44	104	0	23	15861
2026-01-20 04:01:28.26	306.59	19.07	-31.2	-44.2	3.8	7.42e-01	0	44	104	0	23	16099
2026-01-20 04:01:29.26	306.31	19.05	-31.2	-43.8	3.8	7.41e-01	0	44	104	0	23	15477
2026-01-20 04:01:30.27	306.03	19.03	-31.2	-44.2	3.8	7.44e-01	0	44	104	0	23	16053
2026-01-20 04:01:31.28	305.75	19.01	-31.3	-44.6	3.8	7.48e-01	0	44	104	0	23	16609
2026-01-20 04:01:32.29	305.46	18.99	-31.5	-44.8	3.8	7.43e-01	0	44	104	0	23	16626
2026-01-20 04:01:33.29	305.18	18.97	-31.7	-44.7	3.8	7.48e-01	0	44	104	0	24	16101
2026-01-20 04:01:34.29	304.90	18.95	-32.0	-46.1	3.8	7.46e-01	0	44	104	0	24	18280
2026-01-20 04:01:35.30	304.62	18.93	-32.3	-46.3	3.8	7.45e-01	0	44	104	0	25	18146
2026-01-20 04:01:36.30	304.34	18.90	-32.6	-47.1	3.8	7.46e-01	0	44	104	0	25	19139
2026-01-20 04:01:37.30	304.07	18.88	-32.8	-47.6	3.8	7.44e-01	0	44	104	0	26	19771
2026-01-20 04:01:38.29	303.79	18.85	-33.1	-48.3	3.8	7.43e-01	0	44	104	0	27	20707
2026-01-20 04:01:39.30	303.51	18.83	-32.0	-47.7	3.8	7.44e-01	0	44	104	0	27	22039
2026-01-20 04:01:40.30	303.24	18.80	-33.5	-49.8	3.8	7.48e-01	0	44	104	0	27	23550
2026-01-20 04:01:41.30	302.96	18.78	-33.5	-49.9	3.8	7.49e-01	0	44	104	0	27	23793
2026-01-20 04:01:42.31	302.68	18.75	-33.5	-50.0	3.8	7.43e-01	0	44	104	0	28	24035
2026-01-20 04:01:43.31	302.41	18.72	-33.5	-49.8	3.8	7.46e-01	0	44	104	0	28	23378
2026-01-20 04:01:44.31	302.13	18.69	-33.6	-50.1	3.8	7.43e-01	0	44	104	0	28	24032
2026-01-20 04:01:45.31	301.86	18.66	-33.6	-50.0	3.8	7.50e-01	0	44	104	0	28	23852
2026-01-20 04:01:46.32	301.58	18.63	-33.6	-50.0	3.8	7.44e-01	0	44	104	0	28	23914
2026-01-20 04:01:47.32	301.31	18.60	-33.6	-50.2	3.8	7.44e-01	0	44	104	0	28	24250
2026-01-20 04:01:48.32	301.04	18.57	-33.6	-50.4	3.8	7.48e-01	0	44	104	0	28	24930
2026-01-20 04:01:49.33	300.76	18.54	-33.6	-50.0	3.8	7.47e-01	0	44	104	0	27	23823
2026-01-20 04:01:50.33	300.49	18.51	-33.6	-50.7	3.8	7.46e-01	0	44	104	0	27	25911
2026-01-20 04:01:51.33	300.22	18.47	-33.5	-49.4	3.8	7.45e-01	0	44	104	0	27	22663
2026-01-20 04:01:52.33	299.95	18.44	-33.4	-50.1	3.8	7.48e-01	0	44	104	0	27	24640
2026-01-20 04:01:53.32	299.69	18.41	-33.3	-48.6	3.8	7.47e-01	0	44	104	0	27	21013
2026-01-20 04:01:54.33	299.41	18.37	-33.2	-48.7	3.8	7.43e-01	0	44	104	0	27	21535
2026-01-20 04:01:55.34	299.14	18.34	-32.9	-48.0	3.8	7.45e-01	0	44	104	0	26	20401
2026-01-20 04:01:56.35	298.87	18.30	-32.7	-47.5	3.8	7.44e-01	0	44	104	0	26	19689
2026-01-20 04:01:57.35	298.61	18.27	-32.5	-46.9	3.8	7.42e-01	0	44	104	0	25	18928
2026-01-20 04:01:58.36	298.34	18.23	-32.2	-46.3	3.8	7.43e-01	0	44	104	0	25	18176
2026-01-20 04:01:59.36	298.07	18.19	-31.9	-45.5	3.8	7.43e-01	0	44	104	0	24	17267
2026-01-20 04:02:00.36	297.81	18.15	-31.7	-45.2	3.8	7.47e-01	0	44	104	0	24	16967
2026-01-20 04:02:01.37	297.54	18.11	-31.4	-44.7	3.8	7.46e-01	0	44	104	0	23	16569
2026-01-20 04:02:02.38	297.28	18.07	-31.2	-44.0	3.8	7.45e-01	0	44	104	0	23	15659
2026-01-20 04:02:03.37	297.02	18.04	-31.1	-44.1	3.8	7.47e-01	0	44	104	0	23	16049
2026-01-20 04:02:04.38	296.75	18.00	-30.9	-43.6	3.8	7.47e-01	0	44	104	0	22	15464
2026-01-20 04:02:05.38	296.49	17.96	-30.8	-44.1	3.8	7.42e-01	0	44	104	0	22	16715
2026-01-20 04:02:06.39	296.23	17.91	-30.6	-42.6	3.8	7.44e-01	0	44	104	0	22	14430
2026-01-20 04:02:07.39	295.97	17.87	-30.5	-43.6	3.8	7.43e-01	0	44	104	0	21	16128
2026-01-20 04:02:08.39	295.71	17.83	-30.6	-43.4	3.8	7.45e-01	0	44	104	0	21	15781
2026-01-20 04:02:09.38	295.46	17.79	-30.5	-34.3	5.2	7.06e-01	0	44	104	0	22	5566
2026-01-20 04:02:10.38	295.20	17.75	-30.5	-34.8	5.3	7.03e-01	0	44	0	0	21	5868
2026-01-20 04:02:11.39	294.94	17.70	-30.8	-35.1	5.2	7.08e-01	0	44	0	0	22	5889
2026-01-20 04:02:12.40	294.68	17.66	-30.4	-34.4	5.3	7.06e-01	0	44	0	0	21	5733
2026-01-20 04:02:13.40	294.43	17.61	-30.9	-35.3	5.3	7.11e-01	0	44	0	0	22	6005
2026-01-20 04:02:14.40	294.18	17.57	-30.3	-34.2	5.3	7.10e-01	0	44	0	0	21	5624
2026-01-20 04:02:15.41	293.92	17.52	-30.8	-35.2	5.3	7.09e-01	0	44	0	0	22	5935
2026-01-20 04:02:16.41	293.67	17.48	-30.5	-34.7	5.3	7.07e-01	0	44	0	0	21	5866
2026-01-20 04:02:17.41	293.42	17.43	-30.6	-34.9	5.3	7.08e-01	0	44	0	0	21	5945
2026-01-20 04:02:18.42	293.16	17.38	-30.8	-35.1	5.3	7.08e-01	0	44	0	0	22	5877
2026-01-20 04:02:19.43	292.91	17.34	-30.6	-34.6	5.2	7.08e-01	0	44	0	0	22	5681
2026-01-20 04:02:20.43	292.66	17.29	-30.9	-35.4	5.3	7.07e-01	0	44	0	0	22	6021
2026-01-20 04:02:21.43	292.42	17.24	-30.8	-35.2	5.2	7.09e-01	0	44	0	0	22	5931
2026-01-20 04:02:22.44	292.17	17.19	-30.7	-34.7	5.3	7.08e-01	0	44	0	0	22	5718
2026-01-20 04:02:23.44	291.92	17.14	-30.5	-34.8	5.3	7.06e-01	0	44	0	0	21	5874
2026-01-20 04:02:24.45	291.67	17.09	-30.6	-35.0	5.3	7.07e-01	0	44	0	0	21	5973
2026-01-20 04:02:25.45	291.43	17.04	-30.4	-34.5	5.3	7.06e-01	0	44	0	0	21	5759
2026-01-20 04:02:26.45	291.18	16.99	-30.6	-34.7	5.3	7.06e-01	0	44	0	0	22	5731
2026-01-20 04:02:27.45	290.94	16.94	-30.3	-34.3	5.3	7.06e-01	0	44	0	0	21	5684
2026-01-20 04:02:28.44	290.70	16.89	-30.4	-34.5	5.3	7.06e-01	0	44	0	0	21	5753
2026-01-20 04:02:29.45	290.46	16.84	-30.8	-35.2	5.3	7.08e-01	0	44	0	0	22	5962
2026-01-20 04:02:30.45	290.22	16.79	-30.1	-33.6	5.3	7.09e-01	0	44	0	0	21	5409
2026-01-20 04:02:31.45	289.98	16.74	-30.4	-34.5	5.3	7.08e-01	0	44	0	0	21	5767
2026-01-20 04:02:32.45	289.74	16.69	-30.2	-34.0	5.3	7.06e-01	0	44	0	0	21	5556
2026-01-20 04:02:33.45	289.50	16.63	-30.4	-34.4	5.3	7.06e-01	0	44	0	0	21	5724
2026-01-20 04:02:34.45	289.26	16.58	-30.7	-35.0	5.3	7.07e-01	0	44	0	0	22	5858
2026-01-20 04:02:35.46	289.03	16.53	-30.0	-33.4	5.4	7.01e-01	0	44	0	0	21	5324
2026-01-20 04:02:36.46	288.79	16.47	-30.3	-34.4	5.3	7.08e-01	0	44	0	0	21	5744
2026-01-20 04:02:37.47	288.55	16.42	-30.0	-33.5	5.3	7.09e-01	0	44	0	0	21	5396
2026-01-20 04:02:38.47	288.32	16.36	-30.0	-34.1	5.3	7.08e-01	0	44	0	0	20	5716
2026-01-20 04:02:39.47	288.09	16.31	-30.5	-34.9	5.3	7.05e-01	0	44	0	0	21	5983
2026-01-20 04:02:40.47	287.86	16.25	-29.9	-33.1	5.3	7.06e-01	0	44	0	0	21	5224
2026-01-20 04:02:41.47	287.63	16.20	-30.1	-33.8	5.3	7.07e-01	0	44	0	0	21	5499
2026-01-20 04:02:42.47	287.40	16.14	-30.5	-34.4	5.3	7.05e-01	0	44	0	0	22	5634
2026-01-20 04:02:43.47	287.17	16.09	-29.8	-33.0	5.3	7.09e-01	0	44	0	0	21	5187
2026-01-20 04:02:44.47	286.94	16.03	-30.4	-34.5	5.3	7.08e-01	0	44	0	0	21	5787
2026-01-20 04:02:45.47	286.71	15.98	-30.5	-34.3	5.3	7.05e-01	0	44	0	0	22	5572
2026-01-20 04:02:46.46	286.49	15.92	-29.7	-32.7	5.3	7.09e-01	0	44	0	0	21	5075
2026-01-20 04:02:47.47	286.26	15.86	-30.1	-33.8	5.3	7.06e-01	0	44	0	0	21	5503
2026-01-20 04:02:48.48	286.04	15.80	-30.3	-34.3	5.3	7.04e-01	0	44	0	0	21	5722
2026-01-20 04:02:49.48	285.81	15.75	-29.8	-33.4	5.3	7.08e-01	0	44	0	0	20	5457
2026-01-20 04:02:50.48	285.59	15.69	-30.2	-34.2	5.3	7.08e-01	0	44	0	0	21	5661
2026-01-20 04:02:51.48	285.37	15.63	-30.1	-33.9	5.3	7.05e-01	0	44	0	0	21	5553
2026-01-20 04:02:52.48	285.15	15.57	-29.9	-33.6	5.3	7.08e-01	0	44	0	0	20	5559
2026-01-20 04:02:53.48	284.93	15.51	-30.2	-33.9	5.3	7.09e-01	0	44	0	0	21	5554
2026-01-20 04:02:54.49	284.71	15.45	-30.1	-33.8	5.3	7.04e-01	0	44	0	0	21	5526
2026-01-20 04:02:55.49	284.49	15.40	-29.8	-33.5	5.4	7.10e-01	0	44	0	0	20	5491
2026-01-20 04:02:56.50	284.27	15.34	-30.1	-34.3	5.3	7.05e-01	0	44	0	0	20	5814
2026-01-20 04:02:57.50	284.06	15.28	-30.3	-34.3	5.3	7.07e-01	0	44	0	0	21	5701
2026-01-20 04:02:58.51	283.84	15.22	-30.0	-33.6	5.3	7.10e-01	0	44	0	0	21	5438
2026-01-20 04:02:59.52	283.62	15.16	-30.2	-34.1	5.3	7.05e-01	0	44	0	0	21	5642
2026-01-20 04:03:00.51	283.41	15.10	-30.5	-34.8	5.3	7.06e-01	0	44	0	0	21	5948
2026-01-20 04:03:01.52	283.20	15.03	-30.3	-34.2	5.3	7.08e-01	0	44	0	0	21	5669
2026-01-20 04:03:02.52	282.99	14.97	-30.3	-34.3	5.3	7.10e-01	0	44	0	0	21	5716
2026-01-20 04:03:03.52	282.78	14.91	-30.5	-35.0	5.2	7.05e-01	0	44	0	0	21	6012
2026-01-20 04:03:04.52	282.57	14.85	-30.6	-34.8	5.3	7.10e-01	0	44	0	0	22	5824
2026-01-20 04:03:05.52	282.36	14.79	-30.6	-34.5	5.3	7.08e-01	0	44	0	0	22	5700
2026-01-20 04:03:06.53	282.15	14.73	-30.6	-34.7	5.3	7.10e-01	0	44	0	0	22	5765
2026-01-20 04:03:07.53	281.94	14.67	-30.5	-34.4	5.3	7.06e-01	0	44	0	0	22	5649
2026-01-20 04:03:08.53	281.74	14.61	-30.5	-35.0	5.3	7.04e-01	0	44	0	0	21	6040
2026-01-20 04:03:09.53	281.53	14.54	-30.4	-34.7	5.3	7.05e-01	0	44	0	0	21	5900
2026-01-20 04:03:10.54	281.33	14.48	-30.2	-34.2	5.3	7.08e-01	0	44	0	0	21	5692
2026-01-20 04:03:11.55	281.12	14.42	-30.2	-34.1	5.3	7.07e-01	0	44	0	0	21	5630
2026-01-20 04:03:12.56	280.92	14.35	-30.2	-34.1	5.3	7.07e-01	0	44	0	0	21	5634
2026-01-20 04:03:13.56	280.72	14.29	-30.2	-34.2	5.3	7.03e-01	0	44	0	0	21	5682
2026-01-20 04:03:14.56	280.52	14.23	-30.3	-34.3	5.3	7.07e-01	0	44	0	0	21	5730
2026-01-20 04:03:15.56	280.32	14.17	-30.2	-34.2	5.3	7.09e-01	0	44	0	0	21	5711
2026-01-20 04:03:16.56	280.12	14.10	-30.1	-33.8	5.3	7.08e-01	0	44	0	0	21	5525
2026-01-20 04:03:17.56	279.92	14.04	-30.0	-34.2	5.3	7.07e-01	0	44	0	0	20	5811
2026-01-20 04:03:18.55	279.73	13.98	-30.1	-34.0	5.3	7.06e-01	0	44	0	0	21	5596
2026-01-20 04:03:19.55	279.53	13.91	-30.4	-34.6	5.3	7.06e-01	0	44	0	0	21	5883
2026-01-20 04:03:20.56	279.34	13.85	-30.4	-34.7	5.3	7.10e-01	0	44	0	0	21	5904
2026-01-20 04:03:21.56	279.14	13.79	-30.1	-33.8	5.3	7.09e-01	0	44	0	0	21	5516
2026-01-20 04:03:22.57	278.95	13.72	-29.9	-33.8	5.3	7.05e-01	0	44	0	0	20	5659
2026-01-20 04:03:23.57	278.76	13.66	-30.0	-34.1	5.3	7.08e-01	0	44	0	0	20	5786
2026-01-20 04:03:24.57	278.57	13.59	-30.3	-34.3	5.3	7.09e-01	0	44	0	0	21	5757
2026-01-20 04:03:25.58	278.37	13.53	-30.2	-34.2	5.3	7.06e-01	0	44	0	0	21	5698
2026-01-20 04:03:26.58	278.18	13.46	-30.1	-34.0	5.3	7.09e-01	0	44	0	0	21	5621
2026-01-20 04:03:27.58	278.00	13.40	-30.0	-33.6	5.3	7.08e-01	0	44	0	0	21	5460
2026-01-20 04:03:28.58	277.81	13.34	-30.0	-34.1	5.3	7.03e-01	0	44	0	0	20	5781
2026-01-20 04:03:29.59	277.62	13.27	-30.0	-34.1	5.3	7.06e-01	0	44	0	0	20	5794
2026-01-20 04:03:30.59	277.43	13.21	-30.1	-33.9	5.3	7.09e-01	0	44	0	0	21	5584
2026-01-20 04:03:31.60	277.25	13.14	-30.1	-33.9	5.3	7.07e-01	0	44	0	0	21	5588
2026-01-20 04:03:32.60	277.06	13.08	-30.1	-34.0	5.3	7.07e-01	0	44	0	0	21	5603
2026-01-20 04:03:33.59	276.88	13.01	-30.3	-34.4	5.3	7.09e-01	0	44	0	0	21	5795
2026-01-20 04:03:34.59	276.70	12.95	-30.3	-34.3	5.3	7.10e-01	0	44	0	0	21	5752
2026-01-20 04:03:35.59	276.52	12.88	-30.1	-33.9	5.3	7.07e-01	0	44	0	0	21	5593
2026-01-20 04:03:36.59	276.34	12.82	-30.2	-34.1	5.3	7.10e-01	0	44	0	0	21	5672
2026-01-20 04:03:37.59	276.16	12.75	-29.3	-33.2	5.3	7.07e-01	0	44	0	0	21	5645
2026-01-20 04:03:38.59	275.98	12.69	-28.9	-33.2	5.3	7.07e-01	0	44	0	0	20	5920
2026-01-20 04:03:39.60	275.80	12.62	-30.1	-33.8	5.3	7.08e-01	0	44	0	0	21	5547
2026-01-20 04:03:40.61	275.62	12.55	-30.0	-34.4	5.3	7.07e-01	0	44	0	0	20	5969
2026-01-20 04:03:41.61	275.45	12.49	-30.1	-34.1	5.3	7.07e-01	0	44	0	0	21	5665
2026-01-20 04:03:42.62	275.27	12.42	-30.4	-34.7	5.2	7.08e-01	0	44	0	0	21	5906
2026-01-20 04:03:43.63	275.09	12.36	-30.4	-34.6	5.3	7.08e-01	0	44	0	0	21	5902
2026-01-20 04:03:44.63	274.92	12.29	-30.2	-34.1	5.3	7.08e-01	0	44	0	0	21	5678
2026-01-20 04:03:45.64	274.74	12.22	-30.0	-34.2	5.3	7.07e-01	0	44	0	0	20	5812
2026-01-20 04:03:46.64	274.57	12.16	-30.0	-34.1	5.3	7.08e-01	0	44	0	0	20	5786
2026-01-20 04:03:47.64	274.40	12.09	-30.0	-34.3	5.3	7.06e-01	0	44	0	0	20	5850
2026-01-20 04:03:48.64	274.23	12.03	-30.1	-33.9	5.3	7.09e-01	0	44	0	0	21	5588
2026-01-20 04:03:49.64	274.06	11.96	-30.2	-34.3	5.3	7.05e-01	0	44	0	0	21	5764
2026-01-20 04:03:50.64	273.89	11.89	-30.2	-34.2	5.2	7.04e-01	0	44	0	0	21	5690
2026-01-20 04:03:51.64	273.72	11.83	-30.2	-34.1	5.3	7.09e-01	0	44	0	0	21	5684
2026-01-20 04:03:52.64	273.56	11.76	-30.2	-34.2	5.3	7.08e-01	0	44	0	0	21	5719
2026-01-20 04:03:53.65	273.39	11.70	-30.2	-34.1	5.3	7.12e-01	0	44	0	0	21	5667
2026-01-20 04:03:54.65	273.22	11.63	-30.2	-34.3	5.3	7.07e-01	0	44	0	0	21	5743
2026-01-20 04:03:55.65	273.06	11.56	-30.3	-34.5	5.3	7.10e-01	0	44	0	0	21	5821
2026-01-20 04:03:56.66	272.89	11.50	-30.4	-34.7	5.2	7.07e-01	0	44	0	0	21	5917
2026-01-20 04:03:57.66	272.73	11.43	-30.4	-34.8	5.3	7.08e-01	0	44	0	0	21	5972
2026-01-20 04:03:58.67	272.57	11.36	-30.3	-34.6	5.3	7.08e-01	0	44	0	0	21	5891
2026-01-20 04:03:59.68	272.41	11.30	-30.4	-34.7	5.3	7.04e-01	0	44	0	0	21	5919
2026-01-20 04:04:00.68	272.24	11.23	-30.3	-34.6	5.2	7.09e-01	0	44	0	0	21	5861
2026-01-20 04:04:01.68	272.09	11.17	-30.4	-34.7	5.3	7.07e-01	0	44	0	0	21	5905
2026-01-20 04:04:02.69	271.92	11.10	-30.4	-34.9	5.2	7.06e-01	0	44	0	0	21	6006
2026-01-20 04:04:03.69	271.77	11.03	-30.4	-34.9	5.2	7.06e-01	0	44	0	0	21	5997
2026-01-20 04:04:04.70	271.61	10.97	-30.4	-34.9	5.2	7.08e-01	0	44	0	0	21	6025
2026-01-20 04:04:05.71	271.45	10.90	-30.5	-35.1	5.2	7.08e-01	0	44	0	0	21	6106
2026-01-20 04:04:06.70	271.29	10.83	-30.7	-35.1	5.2	7.12e-01	0	44	0	0	22	6004
2026-01-20 04:04:07.71	271.14	10.77	-30.8	-35.5	5.2	7.07e-01	0	44	0	0	22	6176
2026-01-20 04:04:08.70	270.99	10.70	-30.8	-35.3	5.2	7.11e-01	0	44	0	0	22	6092
2026-01-20 04:04:09.71	270.83	10.64	-30.6	-34.9	5.2	7.09e-01	0	44	0	0	22	5899
2026-01-20 04:04:10.71	270.68	10.57	-30.4	-34.9	5.2	7.07e-01	0	44	0	0	21	6013
2026-01-20 04:04:11.71	270.53	10.50	-30.5	-35.0	5.2	7.10e-01	0	44	0	0	21	6090
2026-01-20 04:04:12.72	270.37	10.44	-30.4	-35.0	5.2	7.06e-01	0	44	0	0	21	6053
2026-01-20 04:04:13.71	270.22	10.37	-30.5	-35.2	5.3	7.06e-01	0	44	0	0	21	6152
2026-01-20 04:04:14.72	270.07	10.30	-30.4	-34.8	5.3	7.09e-01	0	44	0	0	21	6006
2026-01-20 04:04:15.73	269.92	10.24	-30.4	-34.8	5.3	7.08e-01	0	44	0	0	21	6000
2026-01-20 04:04:16.73	269.77	10.17	-30.4	-34.8	5.3	7.06e-01	0	44	0	0	21	5983
2026-01-20 04:04:17.73	269.63	10.11	-30.4	-34.7	5.2	7.10e-01	0	44	0	0	21	5947
2026-01-20 04:04:18.74	269.48	10.04	-30.4	-34.7	5.2	7.08e-01	0	44	0	0	21	5944
2026-01-20 04:04:19.74	269.33	9.97	-30.5	-35.3	5.3	7.09e-01	0	44	0	0	21	6201
2026-01-20 04:04:20.74	269.19	9.91	-30.7	-35.4	5.2	7.11e-01	0	44	0	0	22	6138
2026-01-20 04:04:21.74	269.04	9.84	-30.6	-35.1	5.2	7.09e-01	0	44	0	0	22	6009
2026-01-20 04:04:22.74	268.90	9.78	-30.6	-35.0	5.2	7.10e-01	0	44	0	0	22	5971
2026-01-20 04:04:23.74	268.75	9.71	-30.7	-35.2	5.2	7.08e-01	0	44	0	0	22	6038
2026-01-20 04:04:24.74	268.61	9.64	-30.6	-35.1	5.2	7.10e-01	0	44	0	0	22	6029
2026-01-20 04:04:25.75	268.47	9.58	-30.6	-35.5	5.2	7.04e-01	0	44	0	0	21	6317
2026-01-20 04:04:26.75	268.33	9.51	-30.5	-35.3	5.2	7.09e-01	0	44	0	0	21	6243
2026-01-20 04:04:27.75	268.19	9.45	-30.7	-35.2	5.2	7.03e-01	0	44	0	0	22	6086
2026-01-20 04:04:28.76	268.05	9.38	-30.6	-35.0	5.2	7.09e-01	0	44	0	0	22	5970
2026-01-20 04:04:29.76	267.91	9.31	-30.4	-35.1	5.2	7.09e-01	0	44	0	0	21	6126
2026-01-20 04:04:30.77	267.77	9.25	-30.5	-35.3	5.2	7.07e-01	0	44	0	0	21	6239
2026-01-20 04:04:31.76	267.63	9.18	-30.5	-35.2	5.2	7.08e-01	0	44	104	0	21	6194
2026-01-20 04:04:32.77	267.49	9.12	-30.4	-34.3	17.5	6.04e-01	0	44	104	0	21	5643
2026-01-20 04:04:33.78	267.35	9.05	-30.4	-34.2	17.7	6.01e-01	0	44	0	1048576	21	5602
2026-01-20 04:04:34.78	267.22	8.99	-30.5	-34.4	17.6	6.01e-01	0	44	0	2621440	21	5679
2026-01-20 04:04:35.79	267.08	8.92	-30.5	-34.5	17.6	6.02e-01	0	44	0	4718592	21	5721
2026-01-20 04:04:36.79	266.95	8.85	-30.5	-34.5	17.6	6.01e-01	0	44	0	6291456	21	5697
2026-01-20 04:04:37.78	266.82	8.79	-30.5	-34.6	17.5	6.03e-01	0	44	0	8388608	21	5746
2026-01-20 04:04:38.78	266.68	8.73	-30.5	-34.6	17.5	6.01e-01	0	44	0	10485760	21	5743
2026-01-20 04:04:39.78	266.55	8.66	-30.5	-34.6	17.5	6.04e-01	0	44	0	12058624	21	5759
2026-01-20 04:04:40.78	266.42	8.60	-30.6	-34.5	17.2	6.02e-01	0	44	0	14155776	22	5603
2026-01-20 04:04:41.78	266.29	8.53	-30.8	-34.9	17.0	6.01e-01	0	44	0	15728640	22	5783
2026-01-20 04:04:42.78	266.16	8.47	-30.9	-35.4	16.6	6.03e-01	0	44	0	17825792	22	6007
2026-01-20 04:04:43.78	266.03	8.40	-30.9	-35.4	16.6	6.02e-01	0	44	0	19398656	22	6017
2026-01-20 04:04:44.78	265.90	8.34	-30.9	-35.5	16.5	6.02e-01	0	44	0	21495808	22	6059
2026-01-20 04:04:45.78	265.77	8.27	-31.0	-35.7	16.4	6.01e-01	0	44	0	23592960	22	6172
2026-01-20 04:04:46.78	265.64	8.21	-30.9	-35.5	16.5	5.99e-01	0	44	0	25165824	22	6065
2026-01-20 04:04:47.79	265.51	8.14	-30.9	-35.4	16.5	6.01e-01	0	44	0	27262976	22	6046
2026-01-20 04:04:48.79	265.39	8.08	-31.0	-35.6	16.4	6.01e-01	0	44	0	28835840	22	6119
2026-01-20 04:04:49.80	265.26	8.01	-30.9	-35.3	16.6	6.02e-01	0	44	0	30932992	22	5975
2026-01-20 04:04:50.80	265.13	7.95	-30.8	-34.9	16.8	6.02e-01	0	44	0	32505856	22	5803
2026-01-20 04:04:51.80	265.01	7.88	-30.6	-34.5	17.1	6.01e-01	0	44	0	34603008	22	5605
2026-01-20 04:04:52.81	264.88	7.82	-30.5	-34.6	17.3	5.99e-01	0	44	0	36700160	21	5804
2026-01-20 04:04:53.81	264.76	7.75	-30.6	-34.8	17.3	6.00e-01	0	44	0	38273024	21	5869
2026-01-20 04:04:54.81	264.64	7.69	-30.6	-34.8	17.2	6.00e-01	0	44	0	40370176	21	5878
2026-01-20 04:04:55.81	264.52	7.62	-30.6	-34.8	17.2	6.05e-01	0	44	0	41943040	21	5890
2026-01-20 04:04:56.82	264.39	7.56	-30.5	-34.8	17.2	6.00e-01	0	44	0	44040192	21	5894
2026-01-20 04:04:57.81	264.27	7.50	-30.5	-34.6	17.4	6.03e-01	0	44	0	45613056	21	5770
2026-01-20 04:04:58.82	264.15	7.43	-30.6	-34.9	17.2	6.02e-01	0	44	0	47710208	21	5904
2026-01-20 04:04:59.81	264.03	7.37	-30.6	-34.4	17.2	6.00e-01	0	44	0	49807360	22	5588
2026-01-20 04:05:00.81	263.91	7.30	-30.6	-34.4	17.1	6.01e-01	0	44	0	51380224	22	5614
2026-01-20 04:05:01.81	263.79	7.24	-30.7	-34.8	16.8	6.01e-01	0	44	0	53477376	22	5774
2026-01-20 04:05:02.81	263.68	7.18	-30.8	-35.1	16.6	6.03e-01	0	44	0	55050240	22	5935
2026-01-20 04:05:03.81	263.56	7.11	-30.7	-34.8	16.7	6.02e-01	0	44	0	57147392	22	5806
2026-01-20 04:05:04.82	263.44	7.05	-33.5	-51.2	3.8	7.41e-01	0	44	104	58195968	27	27660
2026-01-20 04:05:05.82	263.32	6.99	-33.9	-53.2	3.8	7.43e-01	0	44	104	58195968	28	33242

#Closed at: 2026-01-20 04:05:06
#Recorded file [58 MB]: D:/data/31010_260120_070433.dat