passes_logs/2026/01/20/R2M6_AANII_01/R2M6_AANII_01__20260120_090500_NOAA_21_JPSS-2_rec.log

#Pass ID: 20260120_090500_NOAA 21 (JPSS-2)
#Satellite: NOAA 21 (JPSS-2)
#Configuration: NOAA 21
#almurnet v.1.7.20240730
#Start time: 2026-01-20 09:05:02

#Version: 2.2.20231116
#Station: R2M6_AANII_01
#Location: 30.233357 lon 59.946436 lat
#TLE: 1 54234U 22150A   26019.59425193  .00000067  00000+0  52811-4 0  9997
#TLE: 2 54234  98.7505 320.4385 0000607 256.3203 103.7906 14.19535690165464

#Time	Az	El	Level	Level2	SNR	BER	BlckErr	Temp	State	Recorded	gain1	gain2
2026-01-20 09:05:02.91	121.93	7.14	-30.8	-34.7	4.7	1.39e+00	0	42	0	0	23	5656
2026-01-20 09:05:03.91	121.87	7.21	-31.0	-35.8	4.6	1.40e+00	0	42	104	0	22	6254
2026-01-20 09:05:04.91	121.80	7.29	-30.7	-34.2	9.3	2.24e-02	0	42	0	0	22	5350
2026-01-20 09:05:05.91	121.74	7.36	-30.7	-34.0	9.4	1.82e-02	0	42	0	3145728	22	5273
2026-01-20 09:05:06.92	121.68	7.43	-30.7	-34.1	9.4	1.65e-02	0	42	0	6291456	22	5304
2026-01-20 09:05:07.93	121.62	7.51	-30.7	-34.1	9.4	1.63e-02	0	42	0	9437184	22	5299
2026-01-20 09:05:08.93	121.56	7.58	-30.5	-33.3	9.9	1.07e-02	0	42	0	12582912	22	5004
2026-01-20 09:05:09.94	121.49	7.65	-30.1	-32.7	10.7	3.62e-03	0	42	0	15728640	21	4862
2026-01-20 09:05:10.94	121.43	7.73	-29.7	-32.1	11.4	1.16e-03	0	42	0	18874368	20	4777
2026-01-20 09:05:11.94	121.37	7.80	-29.5	-31.7	11.7	6.19e-04	0	42	0	22020096	20	4626
2026-01-20 09:05:12.94	121.30	7.87	-29.4	-31.9	12.0	2.69e-04	0	42	0	24117248	19	4797
2026-01-20 09:05:13.95	121.24	7.95	-29.4	-31.8	12.1	2.43e-04	0	42	0	27262976	19	4761
2026-01-20 09:05:14.95	121.17	8.02	-29.4	-31.7	12.1	2.54e-04	0	42	0	30408704	19	4732
2026-01-20 09:05:15.96	121.11	8.10	-29.5	-32.0	11.9	3.75e-04	0	42	0	33554432	19	4831
2026-01-20 09:05:16.96	121.04	8.17	-29.3	-31.6	12.2	2.13e-04	0	42	0	36700160	19	4699
2026-01-20 09:05:17.96	120.98	8.25	-29.3	-31.6	12.2	1.93e-04	0	42	0	40894464	19	4692
2026-01-20 09:05:18.96	120.91	8.32	-29.3	-31.6	12.2	2.11e-04	0	42	0	42991616	19	4692
2026-01-20 09:05:19.97	120.84	8.40	-29.4	-31.7	12.2	2.30e-04	0	42	0	47185920	19	4722
2026-01-20 09:05:20.97	120.78	8.47	-29.3	-31.5	12.3	2.29e-04	0	42	0	49283072	19	4639
2026-01-20 09:05:21.98	120.71	8.55	-29.3	-31.6	12.2	1.65e-04	0	43	0	52428800	19	4697
2026-01-20 09:05:22.98	120.64	8.63	-29.2	-31.3	12.4	1.56e-04	0	42	0	55574528	19	4597
2026-01-20 09:05:23.98	120.57	8.70	-29.0	-30.9	12.7	6.33e-05	0	42	0	58720256	19	4458
2026-01-20 09:05:24.98	120.51	8.78	-29.0	-30.7	12.8	7.62e-05	0	42	0	61865984	19	4404
2026-01-20 09:05:25.98	120.44	8.85	-29.1	-30.9	12.7	6.25e-05	0	42	0	65011712	19	4465
2026-01-20 09:05:26.99	120.37	8.93	-29.1	-31.1	12.6	9.07e-05	0	42	0	68157440	19	4518
2026-01-20 09:05:27.99	120.30	9.01	-29.0	-30.8	12.8	6.94e-05	0	43	0	71303168	19	4423
2026-01-20 09:05:29.00	120.23	9.09	-29.1	-31.0	12.7	7.55e-05	0	42	0	74448896	19	4468
2026-01-20 09:05:30.00	120.16	9.16	-29.0	-30.9	12.8	7.09e-05	0	42	0	77594624	19	4444
2026-01-20 09:05:31.00	120.09	9.24	-29.1	-31.2	12.6	1.01e-04	0	42	0	80740352	19	4534
2026-01-20 09:05:32.00	120.02	9.32	-29.0	-30.7	12.9	9.68e-05	0	43	0	83886080	19	4401
2026-01-20 09:05:33.02	119.95	9.40	-29.1	-31.1	12.7	4.65e-05	0	43	0	87031808	19	4513
2026-01-20 09:05:34.02	119.87	9.48	-29.2	-31.1	12.7	8.01e-05	0	43	0	90177536	19	4525
2026-01-20 09:05:35.02	119.80	9.55	-28.9	-30.6	13.0	4.34e-05	0	42	0	93323264	19	4354
2026-01-20 09:05:36.02	119.73	9.63	-29.0	-30.9	12.8	4.27e-05	0	43	0	96468992	19	4441
2026-01-20 09:05:37.02	119.66	9.71	-29.0	-30.7	12.9	4.34e-05	0	43	0	99614720	19	4398
2026-01-20 09:05:38.02	119.58	9.79	-29.1	-31.0	12.7	5.56e-05	0	43	0	102760448	19	4481
2026-01-20 09:05:39.01	119.51	9.87	-28.9	-30.4	13.2	5.72e-05	0	43	0	105906176	19	4290
2026-01-20 09:05:40.01	119.44	9.95	-29.0	-30.6	13.0	3.05e-05	0	43	0	109051904	19	4366
2026-01-20 09:05:41.02	119.36	10.03	-28.9	-30.4	13.2	2.59e-05	0	43	0	112197632	19	4297
2026-01-20 09:05:42.01	119.29	10.11	-29.0	-30.8	13.0	2.74e-05	0	43	0	115343360	19	4408
2026-01-20 09:05:43.01	119.21	10.19	-28.8	-30.3	13.3	2.13e-05	0	43	0	118489088	19	4254
2026-01-20 09:05:44.02	119.14	10.27	-28.7	-30.4	13.5	1.52e-05	0	43	0	121634816	18	4411
2026-01-20 09:05:45.02	119.06	10.35	-28.7	-30.4	13.5	2.05e-05	0	43	0	124780544	18	4395
2026-01-20 09:05:46.02	118.98	10.43	-28.7	-30.4	13.5	1.67e-05	0	43	0	127926272	18	4401
2026-01-20 09:05:47.02	118.91	10.51	-28.6	-30.4	13.5	1.06e-05	0	43	0	131072000	18	4393
2026-01-20 09:05:48.02	118.83	10.59	-28.7	-30.5	13.5	1.14e-05	0	43	0	134217728	18	4423
2026-01-20 09:05:49.03	118.75	10.67	-28.6	-30.3	13.6	1.29e-05	0	43	0	137363456	18	4378
2026-01-20 09:05:50.03	118.67	10.75	-28.5	-30.0	13.7	4.50e-06	0	43	0	140509184	18	4288
2026-01-20 09:05:51.03	118.59	10.83	-28.4	-29.9	13.8	4.50e-06	0	43	0	143654912	18	4238
2026-01-20 09:05:52.03	118.52	10.91	-28.5	-30.1	13.7	6.10e-06	0	43	0	146800640	18	4293
2026-01-20 09:05:53.04	118.44	11.00	-28.4	-29.7	13.9	4.50e-06	0	43	0	149946368	18	4200
2026-01-20 09:05:54.05	118.35	11.08	-28.5	-30.1	13.7	2.20e-06	0	43	0	153092096	18	4293
2026-01-20 09:05:55.04	118.27	11.16	-28.5	-29.9	13.8	7.60e-06	0	43	0	156237824	18	4250
2026-01-20 09:05:56.04	118.19	11.24	-28.4	-29.8	13.9	3.80e-06	0	43	0	159383552	18	4213
2026-01-20 09:05:57.05	118.11	11.33	-28.5	-30.0	13.8	7.60e-06	0	43	0	162529280	18	4271
2026-01-20 09:05:58.06	118.03	11.41	-28.5	-29.9	13.9	2.20e-06	0	43	0	165675008	18	4240
2026-01-20 09:05:59.05	117.95	11.49	-28.4	-29.6	14.0	3.00e-06	0	43	0	168820736	18	4171
2026-01-20 09:06:00.06	117.86	11.58	-28.6	-30.3	13.6	3.80e-06	0	43	0	171966464	18	4359
2026-01-20 09:06:01.06	117.78	11.66	-28.5	-30.0	13.8	4.50e-06	0	43	0	175112192	18	4265
2026-01-20 09:06:02.07	117.70	11.75	-28.4	-29.7	14.0	0.00e+00	0	43	0	178257920	18	4194
2026-01-20 09:06:03.07	117.61	11.83	-28.5	-29.9	13.8	1.50e-06	0	43	0	181403648	18	4255
2026-01-20 09:06:04.07	117.53	11.92	-28.4	-29.8	13.9	3.00e-06	0	43	0	184549376	18	4223
2026-01-20 09:06:05.07	117.44	12.00	-28.5	-29.9	13.9	4.50e-06	0	43	0	187695104	18	4253
2026-01-20 09:06:06.08	117.35	12.09	-28.3	-29.5	14.1	7.00e-07	0	43	0	190840832	18	4130
2026-01-20 09:06:07.07	117.27	12.17	-28.3	-29.6	14.1	3.00e-06	0	43	0	193986560	18	4159
2026-01-20 09:06:08.07	117.18	12.25	-28.3	-29.6	14.1	7.00e-07	0	43	0	197132288	18	4148
2026-01-20 09:06:09.07	117.09	12.34	-28.4	-29.8	14.0	1.50e-06	0	43	0	200278016	18	4204
2026-01-20 09:06:10.08	117.01	12.43	-28.3	-29.5	14.1	7.00e-07	0	43	0	203423744	18	4134
2026-01-20 09:06:11.07	116.92	12.51	-28.3	-30.1	14.1	3.00e-06	0	43	0	206569472	17	4392
2026-01-20 09:06:12.08	116.83	12.60	-28.3	-30.0	14.1	2.20e-06	0	43	0	209715200	17	4383
2026-01-20 09:06:13.08	116.74	12.69	-28.3	-30.1	14.1	3.00e-06	0	43	0	212860928	17	4396
2026-01-20 09:06:14.09	116.65	12.77	-28.4	-30.3	14.0	1.50e-06	0	43	0	216006656	17	4467
2026-01-20 09:06:15.09	116.56	12.86	-28.3	-30.0	14.2	7.00e-07	0	43	0	219152384	17	4365
2026-01-20 09:06:16.08	116.47	12.95	-28.4	-30.1	14.1	3.00e-06	0	43	0	222298112	17	4412
2026-01-20 09:06:17.08	116.38	13.03	-28.4	-30.2	14.0	3.80e-06	0	43	0	225443840	17	4445
2026-01-20 09:06:18.09	116.28	13.12	-28.3	-30.0	14.2	1.50e-06	0	43	0	228589568	17	4379
2026-01-20 09:06:19.10	116.19	13.21	-28.5	-30.4	13.9	5.30e-06	0	43	0	231735296	17	4496
2026-01-20 09:06:20.10	116.09	13.30	-28.4	-30.2	14.0	1.50e-06	0	43	0	234881024	17	4452
2026-01-20 09:06:21.11	116.00	13.39	-28.4	-30.3	14.0	3.00e-06	0	43	0	238026752	17	4465
2026-01-20 09:06:22.11	115.91	13.48	-28.4	-30.3	14.0	3.00e-06	0	43	0	241172480	17	4464
2026-01-20 09:06:23.12	115.81	13.57	-28.6	-30.7	13.8	4.50e-06	0	43	0	244318208	17	4590
2026-01-20 09:06:24.12	115.71	13.66	-28.5	-30.4	14.0	4.50e-06	0	43	0	247463936	17	4499
2026-01-20 09:06:25.13	115.62	13.75	-28.4	-30.3	14.0	1.50e-06	0	43	0	250609664	17	4466
2026-01-20 09:06:26.13	115.52	13.84	-28.4	-30.2	14.1	1.50e-06	0	43	0	253755392	17	4439
2026-01-20 09:06:27.13	115.42	13.93	-28.5	-30.5	14.0	6.10e-06	0	43	0	256901120	17	4518
2026-01-20 09:06:28.13	115.32	14.02	-28.4	-30.1	14.2	1.50e-06	0	43	0	260046848	17	4400
2026-01-20 09:06:29.14	115.22	14.11	-28.3	-30.0	14.2	1.50e-06	0	43	0	263192576	17	4367
2026-01-20 09:06:30.15	115.12	14.20	-28.3	-30.0	14.2	0.00e+00	0	44	0	266338304	17	4373
2026-01-20 09:06:31.14	115.02	14.29	-28.3	-30.0	14.3	7.00e-07	0	43	0	269484032	17	4358
2026-01-20 09:06:32.14	114.92	14.38	-28.2	-29.8	14.4	7.00e-07	0	43	0	272629760	17	4308
2026-01-20 09:06:33.14	114.82	14.47	-28.3	-29.9	14.3	0.00e+00	0	43	0	275775488	17	4337
2026-01-20 09:06:34.15	114.72	14.56	-28.2	-29.8	14.4	0.00e+00	0	44	0	277872640	17	4318
2026-01-20 09:06:35.16	114.62	14.66	-28.3	-30.0	14.3	0.00e+00	0	43	0	281018368	17	4379
2026-01-20 09:06:36.16	114.51	14.75	-28.3	-30.0	14.3	0.00e+00	0	43	0	284164096	17	4357
2026-01-20 09:06:37.17	114.41	14.84	-28.4	-30.2	14.2	2.20e-06	0	43	0	288358400	17	4420
2026-01-20 09:06:38.17	114.30	14.93	-28.4	-30.2	14.2	2.20e-06	0	43	0	291504128	17	4430
2026-01-20 09:06:39.18	114.20	15.03	-28.3	-30.0	14.3	2.20e-06	0	44	0	294649856	17	4358
2026-01-20 09:06:40.18	114.09	15.12	-28.5	-30.4	14.1	3.80e-06	0	43	0	297795584	17	4495
2026-01-20 09:06:41.17	113.99	15.21	-28.5	-30.4	14.1	8.30e-06	0	44	0	300941312	17	4487
2026-01-20 09:06:42.18	113.88	15.31	-28.4	-30.1	14.3	3.00e-06	0	44	0	303038464	17	4391
2026-01-20 09:06:43.18	113.77	15.40	-28.2	-29.8	14.5	7.00e-07	0	43	0	306184192	17	4300
2026-01-20 09:06:44.18	113.66	15.50	-28.2	-29.7	14.5	0.00e+00	0	44	0	309329920	17	4283
2026-01-20 09:06:45.18	113.55	15.59	-28.2	-29.8	14.5	1.50e-06	0	44	0	312475648	17	4308
2026-01-20 09:06:46.18	113.44	15.69	-28.3	-29.9	14.4	7.00e-07	0	44	0	315621376	17	4350
2026-01-20 09:06:47.19	113.33	15.78	-28.5	-30.5	14.1	2.20e-06	0	43	0	318767104	17	4503
2026-01-20 09:06:48.27	113.21	15.88	-28.3	-29.9	14.4	7.00e-07	0	44	0	321912832	17	4323
2026-01-20 09:06:49.12	113.11	15.97	-28.1	-29.5	14.6	0.00e+00	0	44	0	325058560	17	4232
2026-01-20 09:06:50.28	112.98	16.08	-28.2	-29.7	14.6	0.00e+00	0	44	0	328204288	17	4272
2026-01-20 09:06:51.14	112.88	16.16	-28.1	-29.5	14.7	1.50e-06	0	44	0	331350016	17	4221
2026-01-20 09:06:52.29	112.75	16.27	-28.3	-29.9	14.4	1.50e-06	0	43	0	334495744	17	4348
2026-01-20 09:06:53.15	112.65	16.35	-28.2	-29.6	14.6	0.00e+00	0	44	0	337641472	17	4250
2026-01-20 09:06:54.29	112.52	16.46	-28.2	-29.6	14.6	3.00e-06	0	44	0	340787200	17	4261
2026-01-20 09:06:55.16	112.42	16.55	-28.2	-29.6	14.6	0.00e+00	0	44	0	343932928	17	4248
2026-01-20 09:06:56.30	112.29	16.66	-28.3	-29.9	14.5	7.00e-07	0	44	0	347078656	17	4327
2026-01-20 09:06:57.16	112.18	16.74	-28.3	-29.8	14.5	0.00e+00	0	44	0	350224384	17	4312
2026-01-20 09:06:58.31	112.05	16.85	-28.4	-30.1	14.4	7.00e-07	0	44	0	353370112	17	4386
2026-01-20 09:06:59.17	111.94	16.94	-28.4	-30.1	14.4	7.00e-07	0	44	0	356515840	17	4371
2026-01-20 09:07:00.31	111.81	17.05	-28.3	-29.9	14.5	1.50e-06	0	44	0	359661568	17	4324
2026-01-20 09:07:01.17	111.70	17.14	-28.4	-30.1	14.4	0.00e+00	0	44	0	362807296	17	4388
2026-01-20 09:07:02.31	111.56	17.25	-28.4	-30.1	14.4	7.00e-07	0	44	0	365953024	17	4396
2026-01-20 09:07:03.17	111.46	17.33	-28.4	-30.2	14.3	3.00e-06	0	44	0	369098752	17	4422
2026-01-20 09:07:04.31	111.31	17.45	-28.3	-30.0	14.5	7.00e-07	0	44	0	372244480	17	4360
2026-01-20 09:07:05.17	111.21	17.53	-28.4	-30.1	14.4	7.00e-07	0	44	0	375390208	17	4382
2026-01-20 09:07:06.31	111.06	17.65	-28.6	-30.6	14.1	2.20e-06	0	44	0	378535936	17	4546
2026-01-20 09:07:07.18	110.95	17.73	-28.5	-30.3	14.3	7.00e-07	0	43	0	381681664	17	4447
2026-01-20 09:07:08.32	110.81	17.85	-28.5	-30.4	14.3	2.20e-06	0	44	0	384827392	17	4472
2026-01-20 09:07:09.19	110.70	17.94	-28.5	-30.3	14.3	0.00e+00	0	44	0	387973120	17	4443
2026-01-20 09:07:10.33	110.55	18.05	-28.4	-30.2	14.4	7.00e-07	0	44	0	391118848	17	4405
2026-01-20 09:07:11.19	110.44	18.14	-28.5	-30.5	14.2	7.00e-07	0	44	0	394264576	17	4498
2026-01-20 09:07:12.34	110.29	18.26	-28.7	-30.7	14.0	3.80e-06	0	44	0	397410304	17	4572
2026-01-20 09:07:13.20	110.17	18.34	-28.5	-30.4	14.3	2.20e-06	0	44	0	400556032	17	4473
2026-01-20 09:07:14.34	110.02	18.46	-28.8	-31.1	13.9	4.50e-06	0	44	0	403701760	17	4676
2026-01-20 09:07:15.20	109.91	18.55	-28.6	-30.5	14.2	2.20e-06	0	44	0	406847488	17	4499
2026-01-20 09:07:16.34	109.76	18.66	-28.5	-30.3	14.3	7.00e-07	0	44	0	409993216	17	4449
2026-01-20 09:07:17.20	109.64	18.75	-28.5	-30.3	14.4	1.50e-06	0	44	0	413138944	17	4445
2026-01-20 09:07:18.34	109.48	18.87	-28.6	-30.5	14.2	2.20e-06	0	43	0	416284672	17	4501
2026-01-20 09:07:19.19	109.37	18.96	-28.5	-30.3	14.4	1.50e-06	0	44	0	418381824	17	4439
2026-01-20 09:07:20.34	109.21	19.08	-28.3	-29.9	14.6	0.00e+00	0	44	0	422576128	17	4330
2026-01-20 09:07:21.20	109.09	19.17	-28.3	-29.9	14.6	7.00e-07	0	44	0	425721856	17	4323
2026-01-20 09:07:22.35	108.93	19.29	-28.3	-29.8	14.6	0.00e+00	0	44	0	428867584	17	4298
2026-01-20 09:07:23.21	108.81	19.38	-28.2	-29.6	14.7	0.00e+00	0	44	0	432013312	17	4243
2026-01-20 09:07:24.36	108.64	19.50	-28.2	-29.7	14.7	7.00e-07	0	44	0	435159040	17	4255
2026-01-20 09:07:25.22	108.52	19.59	-28.2	-29.6	14.8	0.00e+00	0	44	0	437256192	17	4233
2026-01-20 09:07:26.36	108.35	19.71	-28.1	-29.5	14.8	2.20e-06	0	44	0	441450496	17	4220
2026-01-20 09:07:27.22	108.23	19.80	-28.2	-29.7	14.7	0.00e+00	0	44	0	443547648	17	4272
2026-01-20 09:07:28.37	108.06	19.92	-28.3	-29.9	14.6	0.00e+00	0	44	0	447741952	17	4323
2026-01-20 09:07:29.23	107.94	20.01	-28.1	-29.4	14.9	0.00e+00	0	44	0	449839104	17	4173
2026-01-20 09:07:30.38	107.76	20.13	-27.9	-28.9	15.2	0.00e+00	0	44	0	454033408	17	4058
2026-01-20 09:07:31.24	107.64	20.22	-27.9	-29.0	15.1	7.00e-07	0	44	0	456130560	17	4076
2026-01-20 09:07:32.38	107.47	20.34	-28.0	-29.2	15.1	0.00e+00	0	44	0	460324864	17	4120
2026-01-20 09:07:33.25	107.33	20.44	-27.8	-28.8	15.3	7.00e-07	0	44	0	462422016	17	4038
2026-01-20 09:07:34.40	107.16	20.56	-27.9	-28.9	15.2	0.00e+00	0	44	0	466616320	17	4040
2026-01-20 09:07:35.26	107.03	20.65	-27.9	-28.8	15.3	0.00e+00	0	44	0	468713472	17	4034
2026-01-20 09:07:36.41	106.85	20.78	-27.7	-29.1	15.4	0.00e+00	0	44	0	472907776	16	4194
2026-01-20 09:07:37.27	106.71	20.87	-27.7	-28.9	15.5	0.00e+00	0	44	0	475004928	16	4137
2026-01-20 09:07:38.41	106.54	20.99	-27.6	-28.8	15.6	0.00e+00	0	44	0	479199232	16	4116
2026-01-20 09:07:39.27	106.40	21.09	-27.7	-28.9	15.5	0.00e+00	0	44	0	481296384	16	4137
2026-01-20 09:07:40.41	106.22	21.21	-27.5	-28.5	15.7	0.00e+00	0	44	0	485490688	16	4055
2026-01-20 09:07:41.27	106.08	21.30	-27.4	-28.4	15.8	0.00e+00	0	44	0	487587840	16	4016
2026-01-20 09:07:42.42	105.89	21.43	-27.5	-28.5	15.7	0.00e+00	0	44	0	491782144	16	4049
2026-01-20 09:07:43.27	105.76	21.52	-27.4	-28.3	15.9	0.00e+00	0	44	0	493879296	16	3993
2026-01-20 09:07:44.42	105.57	21.65	-27.5	-28.5	15.8	0.00e+00	0	44	0	498073600	16	4053
2026-01-20 09:07:45.29	105.42	21.74	-27.6	-28.9	15.6	0.00e+00	0	44	0	500170752	16	4139
2026-01-20 09:07:46.44	105.23	21.87	-27.4	-28.3	15.9	0.00e+00	0	44	0	504365056	16	3996
2026-01-20 09:07:47.30	105.09	21.96	-27.4	-28.3	15.9	0.00e+00	0	44	0	506462208	16	3979
2026-01-20 09:07:48.43	104.90	22.09	-27.4	-28.3	15.9	0.00e+00	0	44	0	510656512	16	3980
2026-01-20 09:07:49.29	104.75	22.18	-27.5	-28.5	15.8	0.00e+00	0	44	0	512753664	16	4043
2026-01-20 09:07:50.43	104.56	22.31	-27.5	-28.6	15.7	0.00e+00	0	44	0	516947968	16	4066
2026-01-20 09:07:51.28	104.41	22.40	-27.4	-28.2	15.9	0.00e+00	0	44	0	519045120	16	3968
2026-01-20 09:07:52.42	104.21	22.53	-27.4	-28.2	15.9	0.00e+00	0	44	0	523239424	16	3980
2026-01-20 09:07:53.28	104.06	22.63	-27.5	-28.5	15.8	0.00e+00	0	44	0	525336576	16	4042
2026-01-20 09:07:54.43	103.86	22.75	-27.5	-28.6	15.8	0.00e+00	0	44	0	529530880	16	4069
2026-01-20 09:07:55.29	103.71	22.85	-27.6	-28.8	15.6	0.00e+00	0	44	0	531628032	16	4119
2026-01-20 09:07:56.43	103.51	22.98	-27.3	-28.1	16.0	0.00e+00	0	44	0	534773760	16	3936
2026-01-20 09:07:57.29	103.35	23.07	-27.1	-28.1	16.1	0.00e+00	0	44	0	537919488	15	4046
2026-01-20 09:07:58.44	103.14	23.20	-27.2	-28.3	16.0	0.00e+00	0	44	0	541065216	15	4098
2026-01-20 09:07:59.29	102.99	23.30	-27.3	-28.6	15.9	2.20e-06	0	44	0	544210944	15	4170
2026-01-20 09:08:00.45	102.78	23.43	-27.4	-28.8	15.8	0.00e+00	0	44	0	548405248	15	4243
2026-01-20 09:08:01.31	102.62	23.53	-27.5	-29.1	15.6	0.00e+00	0	44	0	550502400	15	4323
2026-01-20 09:08:02.46	102.40	23.66	-27.6	-29.2	15.5	1.50e-06	0	44	0	554696704	15	4351
2026-01-20 09:08:03.32	102.24	23.75	-27.6	-29.3	15.5	0.00e+00	0	44	0	556793856	15	4379
2026-01-20 09:08:04.47	102.02	23.88	-27.5	-29.0	15.7	0.00e+00	0	44	0	559939584	15	4278
2026-01-20 09:08:05.33	101.86	23.98	-27.5	-29.2	15.6	3.80e-06	0	44	0	563085312	15	4335
2026-01-20 09:08:06.47	101.64	24.11	-27.6	-29.2	15.6	0.00e+00	0	44	0	566231040	15	4342
2026-01-20 09:08:07.33	101.47	24.21	-27.6	-29.3	15.5	0.00e+00	0	44	0	569376768	15	4374
2026-01-20 09:08:08.48	101.25	24.34	-27.4	-28.8	15.8	0.00e+00	0	44	0	572522496	15	4240
2026-01-20 09:08:09.34	101.08	24.44	-27.3	-28.6	15.9	0.00e+00	0	44	0	575668224	15	4178
2026-01-20 09:08:10.48	100.85	24.57	-27.4	-28.9	15.7	0.00e+00	0	44	0	578813952	15	4253
2026-01-20 09:08:11.34	100.68	24.66	-27.5	-28.9	15.7	0.00e+00	0	44	0	581959680	15	4274
2026-01-20 09:08:12.49	100.45	24.80	-27.6	-29.2	15.6	0.00e+00	0	44	0	585105408	15	4359
2026-01-20 09:08:13.35	100.28	24.89	-27.6	-29.3	15.5	0.00e+00	0	44	0	588251136	15	4373
2026-01-20 09:08:14.50	100.04	25.03	-27.5	-29.2	15.6	0.00e+00	0	44	0	591396864	15	4329
2026-01-20 09:08:15.35	99.87	25.12	-27.5	-29.1	15.6	0.00e+00	0	44	0	594542592	15	4317
2026-01-20 09:08:16.49	99.63	25.25	-27.6	-29.3	15.5	0.00e+00	0	44	0	597688320	15	4367
2026-01-20 09:08:17.36	99.45	25.35	-27.6	-29.3	15.6	0.00e+00	0	44	0	600834048	15	4354
2026-01-20 09:08:18.51	99.21	25.49	-27.5	-29.0	15.7	0.00e+00	0	44	0	603979776	15	4282
2026-01-20 09:08:19.36	99.03	25.58	-27.5	-29.1	15.7	0.00e+00	0	44	0	607125504	15	4306
2026-01-20 09:08:20.50	98.79	25.71	-27.7	-29.4	15.5	0.00e+00	0	44	0	610271232	15	4396
2026-01-20 09:08:21.36	98.61	25.81	-27.8	-29.8	15.3	0.00e+00	0	44	0	613416960	15	4508
2026-01-20 09:08:22.50	98.36	25.94	-28.2	-30.1	15.0	0.00e+00	0	44	0	616562688	16	4472
2026-01-20 09:08:23.36	98.17	26.04	-28.3	-30.3	14.9	0.00e+00	0	44	0	619708416	16	4543
2026-01-20 09:08:24.51	97.92	26.18	-28.1	-30.0	15.1	7.00e-07	0	44	0	622854144	16	4441
2026-01-20 09:08:25.37	97.73	26.27	-27.9	-29.5	15.4	7.00e-07	0	44	0	625999872	16	4310
2026-01-20 09:08:26.52	97.48	26.41	-27.7	-29.0	15.6	0.00e+00	0	44	0	629145600	16	4172
2026-01-20 09:08:27.37	97.29	26.50	-27.7	-29.0	15.7	0.00e+00	0	44	0	632291328	16	4164
2026-01-20 09:08:28.52	97.03	26.64	-27.7	-29.0	15.7	0.00e+00	0	44	0	635437056	16	4157
2026-01-20 09:08:29.37	96.83	26.74	-27.7	-28.8	15.8	0.00e+00	0	44	0	638582784	16	4115
2026-01-20 09:08:30.53	96.57	26.87	-27.8	-29.2	15.6	0.00e+00	0	44	0	641728512	16	4206
2026-01-20 09:08:31.39	96.37	26.97	-28.0	-29.6	15.3	0.00e+00	0	44	0	644874240	16	4329
2026-01-20 09:08:32.54	96.10	27.10	-28.2	-30.1	15.1	0.00e+00	0	44	0	648019968	16	4471
2026-01-20 09:08:33.40	95.90	27.20	-28.2	-30.1	15.1	0.00e+00	0	44	0	651165696	16	4470
2026-01-20 09:08:34.54	95.63	27.33	-28.2	-30.1	15.1	0.00e+00	0	44	0	654311424	16	4476
2026-01-20 09:08:35.40	95.43	27.43	-28.3	-30.2	15.0	0.00e+00	0	44	0	657457152	16	4509
2026-01-20 09:08:36.55	95.15	27.56	-28.1	-29.9	15.2	0.00e+00	0	44	0	660602880	16	4430
2026-01-20 09:08:37.41	94.95	27.66	-28.1	-29.9	15.2	0.00e+00	0	44	0	663748608	16	4422
2026-01-20 09:08:38.54	94.67	27.79	-28.2	-30.2	15.1	0.00e+00	0	44	0	666894336	16	4486
2026-01-20 09:08:39.40	94.46	27.89	-28.2	-30.1	15.1	0.00e+00	0	44	0	670040064	16	4463
2026-01-20 09:08:40.55	94.18	28.02	-28.3	-30.2	15.0	0.00e+00	0	44	0	673185792	16	4502
2026-01-20 09:08:41.41	93.96	28.12	-28.3	-30.3	14.9	0.00e+00	0	44	0	676331520	16	4542
2026-01-20 09:08:42.56	93.68	28.25	-28.3	-30.3	15.0	0.00e+00	0	44	0	679477248	16	4530
2026-01-20 09:08:43.43	93.46	28.35	-28.3	-30.2	15.0	0.00e+00	0	44	0	682622976	16	4499
2026-01-20 09:08:44.58	93.17	28.48	-28.2	-30.0	15.1	0.00e+00	0	44	0	685768704	16	4453
2026-01-20 09:08:45.43	92.95	28.58	-28.1	-29.9	15.2	0.00e+00	0	44	0	688914432	16	4412
2026-01-20 09:08:46.57	92.66	28.71	-28.2	-30.1	15.1	0.00e+00	0	44	0	692060160	16	4475
2026-01-20 09:08:47.44	92.43	28.80	-28.2	-30.0	15.2	0.00e+00	0	44	0	694157312	16	4440
2026-01-20 09:08:48.58	92.14	28.93	-28.0	-29.5	15.4	0.00e+00	0	44	0	698351616	16	4312
2026-01-20 09:08:49.45	91.91	29.03	-28.0	-29.7	15.3	7.00e-07	0	44	0	701497344	16	4354
2026-01-20 09:08:50.60	91.60	29.16	-28.1	-29.8	15.3	0.00e+00	0	44	0	704643072	16	4369
2026-01-20 09:08:51.46	91.37	29.26	-28.0	-29.6	15.4	0.00e+00	0	44	0	707788800	16	4342
2026-01-20 09:08:52.61	91.07	29.39	-28.0	-29.7	15.3	0.00e+00	0	44	0	710934528	16	4362
2026-01-20 09:08:53.47	90.83	29.48	-28.1	-29.8	15.3	0.00e+00	0	44	0	713031680	16	4387
2026-01-20 09:08:54.61	90.52	29.61	-28.3	-30.2	15.0	0.00e+00	0	44	0	717225984	16	4505
2026-01-20 09:08:55.47	90.29	29.71	-28.3	-30.3	15.0	0.00e+00	0	44	0	719323136	16	4536
2026-01-20 09:08:56.62	89.97	29.83	-28.1	-29.8	15.3	0.00e+00	0	44	0	723517440	16	4386
2026-01-20 09:08:57.48	89.73	29.93	-28.0	-29.7	15.4	0.00e+00	0	44	0	725614592	16	4346
2026-01-20 09:08:58.62	89.41	30.06	-28.1	-29.9	15.3	0.00e+00	0	44	0	729808896	16	4404
2026-01-20 09:08:59.49	89.17	30.15	-28.2	-30.0	15.2	0.00e+00	0	44	0	731906048	16	4433
2026-01-20 09:09:00.63	88.84	30.28	-28.0	-29.7	15.4	0.00e+00	0	44	0	736100352	16	4344
2026-01-20 09:09:01.49	88.60	30.37	-28.0	-29.7	15.3	0.00e+00	0	44	0	738197504	16	4350
2026-01-20 09:09:02.64	88.27	30.50	-28.1	-29.8	15.3	0.00e+00	0	44	0	742391808	16	4392
2026-01-20 09:09:03.49	88.02	30.59	-28.2	-30.1	15.2	0.00e+00	0	44	0	744488960	16	4464
2026-01-20 09:09:04.65	87.68	30.71	-28.0	-29.6	15.4	0.00e+00	0	44	0	748683264	16	4336
2026-01-20 09:09:05.51	87.43	30.81	-27.9	-29.3	15.6	0.00e+00	0	44	0	750780416	16	4252
2026-01-20 09:09:06.66	87.09	30.93	-28.0	-29.5	15.5	0.00e+00	0	44	0	754974720	16	4300
2026-01-20 09:09:07.52	86.84	31.02	-27.9	-29.3	15.6	0.00e+00	0	44	0	757071872	16	4253
2026-01-20 09:09:08.66	86.50	31.14	-27.9	-29.4	15.6	0.00e+00	0	44	0	761266176	16	4265
2026-01-20 09:09:09.53	86.23	31.23	-27.9	-29.4	15.5	0.00e+00	0	44	0	763363328	16	4270
2026-01-20 09:09:10.67	85.89	31.35	-28.0	-29.5	15.5	0.00e+00	0	44	0	767557632	16	4310
2026-01-20 09:09:11.54	85.62	31.44	-28.1	-29.8	15.3	0.00e+00	0	44	0	769654784	16	4378
2026-01-20 09:09:12.69	85.27	31.56	-28.2	-30.1	15.1	0.00e+00	0	44	0	773849088	16	4481
2026-01-20 09:09:13.55	85.00	31.65	-28.4	-30.5	14.9	0.00e+00	0	44	0	775946240	16	4599
2026-01-20 09:09:14.69	84.65	31.77	-28.5	-30.2	14.8	0.00e+00	0	44	0	780140544	17	4394
2026-01-20 09:09:15.55	84.38	31.86	-28.6	-30.4	14.7	0.00e+00	0	44	0	782237696	17	4448
2026-01-20 09:09:16.70	84.02	31.98	-28.5	-30.2	14.8	0.00e+00	0	44	0	786432000	17	4390
2026-01-20 09:09:17.56	83.75	32.06	-28.3	-29.8	15.1	0.00e+00	0	44	0	788529152	17	4257
2026-01-20 09:09:18.70	83.38	32.18	-28.2	-29.6	15.2	0.00e+00	0	44	0	792723456	17	4212
2026-01-20 09:09:19.56	83.11	32.26	-28.3	-29.7	15.1	7.00e-07	0	44	0	794820608	17	4254
2026-01-20 09:09:20.71	82.73	32.38	-28.4	-29.9	15.0	0.00e+00	0	44	0	799014912	17	4303
2026-01-20 09:09:21.57	82.45	32.46	-28.4	-30.0	15.0	0.00e+00	0	44	0	801112064	17	4318
2026-01-20 09:09:22.72	82.08	32.57	-28.4	-30.0	15.0	0.00e+00	0	44	0	805306368	17	4321
2026-01-20 09:09:23.58	81.80	32.66	-28.6	-30.3	14.8	0.00e+00	0	44	0	807403520	17	4422
2026-01-20 09:09:24.73	81.41	32.77	-28.6	-30.5	14.7	0.00e+00	0	44	0	811597824	17	4471
2026-01-20 09:09:25.58	81.13	32.85	-28.7	-30.6	14.6	0.00e+00	0	44	0	813694976	17	4508
2026-01-20 09:09:26.73	80.75	32.96	-28.7	-30.8	14.5	7.00e-07	0	44	0	817889280	17	4542
2026-01-20 09:09:27.58	80.46	33.04	-28.8	-30.8	14.5	0.00e+00	0	44	0	819986432	17	4564
2026-01-20 09:09:28.73	80.07	33.14	-28.9	-31.1	14.4	3.00e-06	0	44	0	824180736	17	4638
2026-01-20 09:09:29.58	79.78	33.22	-28.9	-31.1	14.3	0.00e+00	0	44	0	826277888	17	4653
2026-01-20 09:09:30.72	79.39	33.32	-29.0	-30.9	14.2	2.20e-06	0	44	0	830472192	18	4473
2026-01-20 09:09:31.58	79.09	33.40	-29.1	-31.0	14.1	0.00e+00	0	44	0	832569344	18	4513
2026-01-20 09:09:32.72	78.70	33.50	-29.0	-30.9	14.2	2.20e-06	0	44	0	835715072	18	4476
2026-01-20 09:09:33.58	78.40	33.58	-28.8	-30.4	14.5	0.00e+00	0	44	0	838860800	18	4329
2026-01-20 09:09:34.73	78.00	33.68	-28.7	-30.1	14.7	0.00e+00	0	44	0	842006528	18	4232
2026-01-20 09:09:35.59	77.69	33.75	-28.7	-30.1	14.7	1.50e-06	0	44	0	845152256	18	4230
2026-01-20 09:09:36.73	77.29	33.85	-28.6	-29.9	14.8	7.00e-07	0	44	0	848297984	18	4188
2026-01-20 09:09:37.59	76.99	33.92	-28.5	-29.7	14.9	0.00e+00	0	44	0	851443712	18	4143
2026-01-20 09:09:38.74	76.57	34.02	-28.5	-29.7	14.9	7.00e-07	0	44	0	854589440	18	4123
2026-01-20 09:09:39.59	76.27	34.09	-28.5	-29.6	14.9	0.00e+00	0	44	0	857735168	18	4111
2026-01-20 09:09:40.74	75.85	34.18	-28.6	-29.9	14.8	7.00e-07	0	44	0	860880896	18	4186
2026-01-20 09:09:41.60	75.54	34.25	-28.7	-30.2	14.7	7.00e-07	0	44	0	864026624	18	4259
2026-01-20 09:09:42.75	75.12	34.34	-28.8	-30.4	14.5	0.00e+00	0	44	0	867172352	18	4342
2026-01-20 09:09:43.61	74.81	34.41	-29.0	-30.8	14.2	1.50e-06	0	44	0	870318080	18	4455
2026-01-20 09:09:44.75	74.39	34.50	-29.0	-30.8	14.3	0.00e+00	0	44	0	873463808	18	4436
2026-01-20 09:09:45.61	74.07	34.56	-29.0	-30.8	14.3	0.00e+00	0	44	0	876609536	18	4452
2026-01-20 09:09:46.74	73.65	34.64	-29.1	-31.2	14.1	2.20e-06	0	44	0	879755264	18	4572
2026-01-20 09:09:47.61	73.32	34.71	-29.2	-31.4	13.9	5.30e-06	0	44	0	882900992	18	4639
2026-01-20 09:09:48.75	72.90	34.79	-29.3	-31.6	13.8	6.10e-06	0	44	0	886046720	18	4704
2026-01-20 09:09:49.61	72.57	34.85	-29.3	-31.5	13.9	5.30e-06	0	44	0	889192448	18	4663
2026-01-20 09:09:50.76	72.14	34.93	-29.4	-31.7	13.8	5.30e-06	0	44	0	892338176	18	4735
2026-01-20 09:09:51.61	71.81	34.99	-29.4	-31.9	13.7	6.80e-06	0	44	0	895483904	18	4791
2026-01-20 09:09:52.76	71.37	35.06	-29.4	-31.9	13.6	6.80e-06	0	44	0	898629632	18	4795
2026-01-20 09:09:53.62	71.04	35.12	-29.3	-31.6	13.8	9.90e-06	0	44	0	901775360	18	4698
2026-01-20 09:09:54.77	70.60	35.19	-29.2	-31.3	14.0	4.50e-06	0	44	0	904921088	18	4598
2026-01-20 09:09:55.64	70.27	35.25	-29.1	-31.1	14.1	1.50e-06	0	44	0	908066816	18	4542
2026-01-20 09:09:56.78	69.82	35.32	-29.0	-30.7	14.4	1.50e-06	0	44	0	911212544	18	4424
2026-01-20 09:09:57.64	69.49	35.37	-28.9	-30.6	14.4	0.00e+00	0	44	0	914358272	18	4395
2026-01-20 09:09:58.79	69.04	35.44	-28.9	-30.5	14.5	0.00e+00	0	44	0	917504000	18	4351
2026-01-20 09:09:59.65	68.70	35.49	-28.9	-30.6	14.4	0.00e+00	0	44	0	920649728	18	4377
2026-01-20 09:10:00.80	68.25	35.55	-29.2	-31.4	14.0	5.30e-06	0	44	0	923795456	18	4620
2026-01-20 09:10:01.66	67.91	35.60	-29.4	-31.8	13.7	4.50e-06	0	44	0	926941184	18	4736
2026-01-20 09:10:02.80	67.46	35.66	-29.4	-31.9	13.7	8.30e-06	0	44	0	930086912	18	4789
2026-01-20 09:10:03.66	67.12	35.70	-29.5	-31.5	13.6	1.14e-05	0	44	0	933232640	19	4548
2026-01-20 09:10:04.81	66.66	35.76	-29.6	-31.8	13.4	1.14e-05	0	44	0	936378368	19	4635
2026-01-20 09:10:05.67	66.32	35.80	-29.6	-31.7	13.5	1.83e-05	0	44	0	939524096	19	4617
2026-01-20 09:10:06.82	65.86	35.85	-29.5	-31.6	13.5	1.67e-05	0	44	0	942669824	19	4573
2026-01-20 09:10:07.69	65.51	35.89	-29.5	-31.5	13.6	1.06e-05	0	44	0	945815552	19	4545
2026-01-20 09:10:08.83	65.05	35.94	-29.6	-31.8	13.4	6.10e-06	0	44	0	948961280	19	4637
2026-01-20 09:10:09.69	64.70	35.98	-29.4	-31.3	13.7	1.14e-05	0	44	0	952107008	19	4496
2026-01-20 09:10:10.84	64.23	36.02	-29.4	-31.3	13.7	6.10e-06	0	44	0	955252736	19	4498
2026-01-20 09:10:11.71	63.88	36.06	-29.2	-30.9	14.0	7.00e-07	0	44	0	958398464	19	4367
2026-01-20 09:10:12.85	63.42	36.10	-28.9	-30.2	14.4	0.00e+00	0	44	0	961544192	19	4156
2026-01-20 09:10:13.70	63.07	36.13	-28.9	-30.2	14.4	1.50e-06	0	44	0	964689920	19	4161
2026-01-20 09:10:14.85	62.60	36.17	-28.9	-30.1	14.4	0.00e+00	0	44	0	967835648	19	4142
2026-01-20 09:10:15.70	62.25	36.20	-29.0	-30.2	14.4	7.00e-07	0	44	0	970981376	19	4175
2026-01-20 09:10:16.84	61.79	36.23	-29.1	-30.5	14.2	7.00e-07	0	44	0	974127104	19	4250
2026-01-20 09:10:17.70	61.43	36.26	-29.2	-30.9	14.0	7.00e-07	0	44	0	977272832	19	4374
2026-01-20 09:10:18.84	60.96	36.29	-29.1	-30.7	14.1	2.20e-06	0	44	0	980418560	19	4293
2026-01-20 09:10:19.70	60.61	36.31	-29.1	-30.7	14.1	0.00e+00	0	44	0	983564288	19	4291
2026-01-20 09:10:20.85	60.13	36.34	-29.3	-31.1	13.9	3.00e-06	0	44	0	986710016	19	4408
2026-01-20 09:10:21.71	59.78	36.36	-29.3	-31.0	13.9	7.60e-06	0	44	0	989855744	19	4377
2026-01-20 09:10:22.85	59.30	36.38	-29.3	-31.1	13.9	3.00e-06	0	44	0	993001472	19	4417
2026-01-20 09:10:23.72	58.94	36.40	-29.3	-31.1	13.8	5.30e-06	0	44	0	995098624	19	4409
2026-01-20 09:10:24.86	58.47	36.42	-29.4	-31.2	13.8	2.20e-06	0	44	0	999292928	19	4447
2026-01-20 09:10:25.72	58.11	36.43	-29.1	-30.5	14.2	1.50e-06	0	44	0	1001390080	19	4258
2026-01-20 09:10:26.87	57.63	36.45	-28.9	-30.2	14.4	0.00e+00	0	44	0	1005584384	19	4162
2026-01-20 09:10:27.73	57.28	36.46	-29.0	-30.3	14.4	0.00e+00	0	44	0	1007681536	19	4176
2026-01-20 09:10:28.88	56.80	36.47	-29.0	-30.2	14.4	7.00e-07	0	44	0	1011875840	19	4170
2026-01-20 09:10:29.74	56.44	36.48	-29.1	-30.6	14.2	0.00e+00	0	44	0	1013972992	19	4283
2026-01-20 09:10:30.88	55.96	36.48	-29.3	-31.1	13.9	4.50e-06	0	44	0	1018167296	19	4425
2026-01-20 09:10:31.74	55.61	36.49	-29.4	-31.3	13.8	4.50e-06	0	44	0	1020264448	19	4474
2026-01-20 09:10:32.89	55.13	36.49	-29.2	-30.9	14.0	3.00e-06	0	44	0	1024458752	19	4357
2026-01-20 09:10:33.75	54.77	36.49	-29.3	-31.1	13.9	1.50e-06	0	44	0	1026555904	19	4433
2026-01-20 09:10:34.90	54.29	36.49	-29.2	-30.9	14.0	5.30e-06	0	44	0	1030750208	19	4358
2026-01-20 09:10:35.76	53.93	36.49	-29.2	-30.8	14.0	3.00e-06	0	44	0	1032847360	19	4344
2026-01-20 09:10:36.91	53.45	36.49	-29.3	-31.1	13.9	7.00e-07	0	44	0	1037041664	19	4413
2026-01-20 09:10:37.77	53.09	36.48	-29.4	-31.3	13.7	4.50e-06	0	44	0	1039138816	19	4481
2026-01-20 09:10:38.92	52.61	36.48	-29.2	-30.8	14.0	1.50e-06	0	44	0	1043333120	19	4339
2026-01-20 09:10:39.78	52.25	36.47	-29.1	-30.6	14.1	1.50e-06	0	44	0	1045430272	19	4286
2026-01-20 09:10:40.92	51.78	36.46	-29.2	-30.7	14.1	2.20e-06	0	44	0	1049624576	19	4317
2026-01-20 09:10:41.78	51.42	36.45	-29.1	-30.5	14.2	0.00e+00	0	44	0	1051721728	19	4253
2026-01-20 09:10:42.93	50.94	36.43	-29.3	-31.1	13.9	1.50e-06	0	44	0	1055916032	19	4427
2026-01-20 09:10:43.79	50.58	36.42	-29.4	-31.4	13.7	7.60e-06	0	44	0	1058013184	19	4500
2026-01-20 09:10:44.94	50.11	36.40	-29.6	-31.8	13.5	8.30e-06	0	44	0	1062207488	19	4625
2026-01-20 09:10:45.79	49.75	36.38	-29.5	-31.5	13.6	7.60e-06	0	44	0	1064304640	19	4543
2026-01-20 09:10:46.93	49.28	36.36	-29.4	-31.2	13.8	4.50e-06	0	44	0	1068498944	19	4453
2026-01-20 09:10:47.79	48.93	36.34	-29.2	-30.9	14.0	1.50e-06	0	44	0	1070596096	19	4346
2026-01-20 09:10:48.94	48.45	36.31	-29.2	-30.8	14.1	1.50e-06	0	44	0	1074790400	19	4315
2026-01-20 09:10:49.80	48.10	36.29	-29.2	-30.8	14.0	7.00e-07	0	44	0	1076887552	19	4342
2026-01-20 09:10:50.95	47.63	36.26	-29.1	-30.5	14.2	2.20e-06	0	44	0	1081081856	19	4237
2026-01-20 09:10:51.81	47.27	36.23	-28.9	-30.1	14.4	0.00e+00	0	44	0	1083179008	19	4133
2026-01-20 09:10:52.95	46.80	36.20	-29.0	-30.3	14.3	1.50e-06	0	44	0	1087373312	19	4202
2026-01-20 09:10:53.81	46.45	36.17	-29.1	-30.6	14.2	1.50e-06	0	44	0	1089470464	19	4269
2026-01-20 09:10:54.95	45.99	36.13	-29.0	-30.4	14.3	0.00e+00	0	44	0	1093664768	19	4214
2026-01-20 09:10:55.81	45.64	36.10	-29.0	-30.4	14.3	0.00e+00	0	44	0	1095761920	19	4226
2026-01-20 09:10:56.96	45.17	36.06	-28.9	-30.2	14.4	3.00e-06	0	44	0	1099956224	19	4156
2026-01-20 09:10:57.82	44.82	36.02	-28.9	-30.0	14.5	7.00e-07	0	44	0	1102053376	19	4115
2026-01-20 09:10:58.97	44.36	35.98	-29.1	-30.6	14.1	7.00e-07	0	44	0	1106247680	19	4281
2026-01-20 09:10:59.83	44.01	35.94	-29.1	-30.6	14.1	1.50e-06	0	44	0	1108344832	19	4267
2026-01-20 09:11:00.98	43.55	35.89	-29.3	-31.0	13.9	1.50e-06	0	44	0	1111490560	19	4389
2026-01-20 09:11:01.84	43.20	35.85	-29.2	-30.8	14.0	7.00e-07	0	44	0	1114636288	19	4338
2026-01-20 09:11:02.99	42.74	35.80	-29.2	-30.7	14.1	0.00e+00	0	44	0	1117782016	19	4323
2026-01-20 09:11:03.85	42.40	35.76	-29.2	-30.9	13.9	3.00e-06	0	44	0	1120927744	19	4357
2026-01-20 09:11:05.00	41.94	35.70	-29.3	-31.1	13.8	3.80e-06	0	44	0	1125122048	19	4419
2026-01-20 09:11:05.85	41.60	35.65	-29.3	-31.1	13.8	7.00e-07	0	44	0	1127219200	19	4426
2026-01-20 09:11:07.00	41.15	35.59	-29.3	-31.2	13.8	4.50e-06	0	44	0	1131413504	19	4444
2026-01-20 09:11:07.86	40.81	35.55	-29.3	-31.1	13.9	2.20e-06	0	44	0	1133510656	19	4411
2026-01-20 09:11:09.00	40.36	35.48	-29.1	-30.6	14.1	2.20e-06	0	44	0	1136656384	19	4274
2026-01-20 09:11:09.86	40.03	35.43	-29.2	-30.9	14.0	7.00e-07	0	44	0	1139802112	19	4346
2026-01-20 09:11:11.00	39.58	35.37	-29.1	-30.5	14.2	7.00e-07	0	44	0	1142947840	19	4241
2026-01-20 09:11:11.86	39.25	35.32	-29.2	-30.8	14.0	3.80e-06	0	44	0	1146093568	19	4334
2026-01-20 09:11:13.01	38.80	35.25	-28.9	-30.2	14.3	7.00e-07	0	44	0	1149239296	19	4165
2026-01-20 09:11:13.87	38.47	35.19	-28.8	-29.9	14.5	0.00e+00	0	44	0	1152385024	19	4084
2026-01-20 09:11:15.01	38.03	35.12	-28.8	-30.0	14.5	7.00e-07	0	44	0	1155530752	19	4104
2026-01-20 09:11:15.87	37.71	35.06	-28.9	-30.1	14.4	2.20e-06	0	44	0	1158676480	19	4143
2026-01-20 09:11:17.02	37.27	34.99	-29.0	-30.4	14.2	7.00e-07	0	44	0	1161822208	19	4216
2026-01-20 09:11:17.88	36.94	34.93	-29.0	-30.3	14.2	2.20e-06	0	44	0	1164967936	19	4210
2026-01-20 09:11:19.03	36.51	34.85	-28.9	-30.1	14.4	7.00e-07	0	44	0	1168113664	19	4129
2026-01-20 09:11:19.89	36.18	34.79	-28.9	-30.1	14.4	0.00e+00	0	44	0	1171259392	19	4142
2026-01-20 09:11:21.04	35.75	34.71	-29.2	-31.0	13.9	1.50e-06	0	44	0	1174405120	19	4398
2026-01-20 09:11:21.90	35.43	34.64	-29.2	-30.9	13.9	2.20e-06	0	44	0	1177550848	19	4379
2026-01-20 09:11:23.04	35.01	34.56	-29.2	-30.8	14.0	2.20e-06	0	44	0	1180696576	19	4330
2026-01-20 09:11:23.90	34.69	34.49	-29.1	-30.7	14.0	7.00e-07	0	44	0	1183842304	19	4300
2026-01-20 09:11:25.05	34.27	34.41	-29.2	-30.9	13.9	0.00e+00	0	44	0	1186988032	19	4352
2026-01-20 09:11:25.91	33.96	34.34	-29.2	-30.7	14.0	5.30e-06	0	44	0	1190133760	19	4320
2026-01-20 09:11:27.06	33.54	34.25	-29.4	-31.2	13.8	4.50e-06	0	44	0	1193279488	19	4454
2026-01-20 09:11:27.91	33.23	34.18	-29.4	-31.3	13.7	7.60e-06	0	44	0	1196425216	19	4486
2026-01-20 09:11:29.05	32.82	34.09	-29.8	-32.3	13.1	3.28e-05	0	44	0	1199570944	19	4801
2026-01-20 09:11:29.91	32.51	34.02	-29.7	-32.1	13.2	4.50e-05	0	44	0	1202716672	19	4739
2026-01-20 09:11:31.06	32.10	33.92	-29.6	-31.9	13.3	2.05e-05	0	44	0	1205862400	19	4660
2026-01-20 09:11:31.93	31.79	33.85	-29.8	-32.3	13.1	2.36e-05	0	44	0	1209008128	19	4804
2026-01-20 09:11:33.07	31.39	33.75	-29.0	-30.5	14.1	9.10e-06	0	44	0	1212153856	19	4244
2026-01-20 09:11:33.93	31.09	33.68	-28.5	-29.7	14.9	0.00e+00	0	44	0	1215299584	18	4118
2026-01-20 09:11:35.09	30.68	33.58	-28.1	-29.3	15.4	7.00e-07	0	44	0	1218445312	17	4126
2026-01-20 09:11:35.94	30.39	33.50	-28.1	-29.3	15.3	0.00e+00	0	44	0	1221591040	17	4127
2026-01-20 09:11:37.09	29.99	33.40	-28.6	-30.5	14.6	0.00e+00	0	44	0	1224736768	17	4476
2026-01-20 09:11:37.95	29.69	33.32	-29.2	-31.3	13.9	1.50e-06	0	44	0	1227882496	18	4594
2026-01-20 09:11:39.09	29.31	33.22	-29.5	-31.6	13.4	1.22e-05	0	44	0	1231028224	19	4597
2026-01-20 09:11:39.94	29.02	33.14	-29.6	-31.8	13.3	1.60e-05	0	44	0	1234173952	19	4654
2026-01-20 09:11:41.09	28.63	33.04	-28.9	-30.2	14.2	4.50e-06	0	44	0	1237319680	19	4169
2026-01-20 09:11:41.94	28.34	32.96	-28.4	-29.5	15.0	7.00e-07	0	44	0	1240465408	18	4073
2026-01-20 09:11:43.09	27.96	32.85	-28.0	-29.0	15.5	0.00e+00	0	44	0	1243611136	17	4040
2026-01-20 09:11:43.95	27.67	32.77	-27.9	-28.8	15.6	0.00e+00	0	44	0	1246756864	17	3995
2026-01-20 09:11:45.09	27.30	32.66	-28.1	-29.2	15.4	0.00e+00	0	44	0	1249902592	17	4102
2026-01-20 09:11:45.95	27.02	32.57	-28.1	-29.3	15.3	0.00e+00	0	44	0	1253048320	17	4140
2026-01-20 09:11:47.10	26.64	32.46	-28.4	-30.0	14.9	0.00e+00	0	44	0	1256194048	17	4306
2026-01-20 09:11:47.96	26.36	32.38	-28.7	-30.6	14.6	0.00e+00	0	44	0	1259339776	17	4500
2026-01-20 09:11:49.10	26.00	32.27	-28.7	-30.7	14.5	0.00e+00	0	44	0	1262485504	17	4526
2026-01-20 09:11:49.97	25.72	32.18	-28.7	-30.7	14.5	0.00e+00	0	44	0	1265631232	17	4521
2026-01-20 09:11:51.11	25.35	32.06	-28.6	-30.5	14.6	0.00e+00	0	44	0	1268776960	17	4482
2026-01-20 09:11:51.97	25.08	31.98	-28.8	-30.8	14.4	0.00e+00	0	44	0	1270874112	17	4560
2026-01-20 09:11:53.12	24.72	31.86	-29.0	-31.0	14.1	0.00e+00	0	44	0	1275068416	18	4503
2026-01-20 09:11:53.98	24.45	31.77	-29.0	-31.0	14.1	2.20e-06	0	44	0	1277165568	18	4494
2026-01-20 09:11:55.13	24.10	31.66	-29.1	-31.1	14.0	3.80e-06	0	44	0	1281359872	18	4554
2026-01-20 09:11:55.99	23.83	31.57	-29.0	-31.0	14.0	2.20e-06	0	44	0	1283457024	18	4506
2026-01-20 09:11:57.14	23.48	31.45	-28.8	-30.4	14.3	1.50e-06	0	44	0	1287651328	18	4337
2026-01-20 09:11:57.99	23.22	31.36	-28.7	-30.2	14.5	1.50e-06	0	44	0	1289748480	18	4263
2026-01-20 09:11:59.14	22.87	31.24	-28.8	-30.5	14.3	7.00e-07	0	44	0	1293942784	18	4370
2026-01-20 09:12:00.00	22.62	31.15	-28.7	-30.1	14.6	0.00e+00	0	44	0	1296039936	18	4236
2026-01-20 09:12:01.14	22.28	31.03	-29.2	-31.3	13.9	7.00e-07	0	44	0	1300234240	18	4592
2026-01-20 09:12:02.00	22.02	30.94	-29.0	-30.9	14.1	5.30e-06	0	44	0	1302331392	18	4469
2026-01-20 09:12:03.15	21.68	30.81	-29.5	-31.7	13.3	7.60e-06	0	44	0	1306525696	19	4606
2026-01-20 09:12:04.01	21.43	30.72	-29.3	-31.2	13.7	1.14e-05	0	44	0	1308622848	19	4453
2026-01-20 09:12:05.15	21.10	30.60	-29.2	-30.8	13.9	4.50e-06	0	44	0	1312817152	19	4343
2026-01-20 09:12:06.01	20.85	30.51	-29.0	-30.3	14.2	1.50e-06	0	44	0	1314914304	19	4206
2026-01-20 09:12:07.16	20.53	30.38	-28.9	-30.1	14.3	0.00e+00	0	44	0	1319108608	19	4141
2026-01-20 09:12:08.02	20.28	30.29	-28.9	-30.1	14.3	7.00e-07	0	44	0	1321205760	19	4153
2026-01-20 09:12:09.17	19.96	30.16	-28.9	-30.3	14.2	2.20e-06	0	44	0	1325400064	19	4197
2026-01-20 09:12:10.03	19.71	30.07	-28.8	-30.0	14.4	1.50e-06	0	44	0	1327497216	19	4109
2026-01-20 09:12:11.18	19.39	29.94	-28.5	-29.8	14.8	0.00e+00	0	44	0	1331691520	18	4161
2026-01-20 09:12:12.03	19.16	29.85	-28.5	-29.7	14.8	0.00e+00	0	44	0	1333788672	18	4138
2026-01-20 09:12:13.18	18.84	29.72	-28.4	-29.5	14.9	0.00e+00	0	44	0	1337982976	18	4094
2026-01-20 09:12:14.04	18.61	29.62	-28.5	-29.7	14.8	0.00e+00	0	44	0	1340080128	18	4137
2026-01-20 09:12:15.19	18.30	29.50	-28.1	-29.4	15.2	7.00e-07	0	44	0	1344274432	17	4164
2026-01-20 09:12:16.04	18.07	29.40	-27.9	-28.9	15.5	0.00e+00	0	44	0	1346371584	17	4029
2026-01-20 09:12:17.19	17.76	29.27	-27.8	-29.1	15.6	0.00e+00	0	44	0	1350565888	16	4174
2026-01-20 09:12:18.04	17.54	29.18	-27.5	-28.5	15.9	0.00e+00	0	44	0	1352663040	16	4030
2026-01-20 09:12:19.19	17.23	29.05	-27.5	-28.4	16.0	0.00e+00	0	44	0	1356857344	16	4013
2026-01-20 09:12:20.05	17.01	28.95	-27.6	-28.6	15.9	0.00e+00	0	44	0	1358954496	16	4068
2026-01-20 09:12:21.20	16.71	28.82	-27.5	-28.5	15.9	0.00e+00	0	44	0	1363148800	16	4041
2026-01-20 09:12:22.05	16.49	28.73	-27.6	-28.7	15.8	0.00e+00	0	44	0	1365245952	16	4086
2026-01-20 09:12:23.20	16.20	28.60	-27.6	-28.7	15.9	0.00e+00	0	44	0	1369440256	16	4075
2026-01-20 09:12:24.06	15.98	28.50	-27.6	-28.8	15.8	0.00e+00	0	44	0	1371537408	16	4103
2026-01-20 09:12:25.22	15.69	28.37	-27.4	-28.3	16.1	0.00e+00	0	44	0	1375731712	16	3975
2026-01-20 09:12:26.08	15.47	28.27	-27.5	-28.6	15.9	0.00e+00	0	44	0	1377828864	16	4048
2026-01-20 09:12:27.23	15.18	28.14	-27.7	-29.0	15.7	0.00e+00	0	44	0	1382023168	16	4155
2026-01-20 09:12:28.09	14.97	28.04	-27.7	-28.9	15.7	0.00e+00	0	44	0	1384120320	16	4134
2026-01-20 09:12:29.24	14.69	27.91	-28.0	-29.5	15.4	0.00e+00	0	44	0	1387266048	16	4308
2026-01-20 09:12:30.10	14.48	27.81	-27.9	-29.4	15.4	0.00e+00	0	44	0	1390411776	16	4284
2026-01-20 09:12:31.24	14.20	27.68	-28.1	-29.9	15.2	0.00e+00	0	44	0	1394606080	16	4407
2026-01-20 09:12:32.11	14.00	27.58	-28.1	-29.9	15.1	0.00e+00	0	44	0	1396703232	16	4417
2026-01-20 09:12:33.25	13.72	27.45	-27.9	-29.4	15.4	0.00e+00	0	44	0	1400897536	16	4273
2026-01-20 09:12:34.11	13.52	27.35	-27.9	-29.3	15.5	0.00e+00	0	44	0	1402994688	16	4255
2026-01-20 09:12:35.26	13.25	27.22	-28.0	-29.7	15.3	0.00e+00	0	44	0	1407188992	16	4357
2026-01-20 09:12:36.12	13.05	27.12	-27.9	-29.4	15.4	0.00e+00	0	44	0	1409286144	16	4284
2026-01-20 09:12:37.25	12.79	26.99	-27.9	-29.4	15.4	0.00e+00	0	44	0	1412431872	16	4283
2026-01-20 09:12:38.11	12.59	26.89	-28.0	-29.6	15.3	0.00e+00	0	44	0	1415577600	16	4341
2026-01-20 09:12:39.25	12.33	26.76	-28.0	-29.7	15.2	0.00e+00	0	44	0	1418723328	16	4345
2026-01-20 09:12:40.11	12.14	26.66	-28.3	-30.3	14.9	0.00e+00	0	44	0	1421869056	16	4540
2026-01-20 09:12:41.26	11.88	26.53	-28.1	-29.8	15.1	0.00e+00	0	44	0	1425014784	16	4377
2026-01-20 09:12:42.12	11.69	26.43	-27.9	-29.3	15.4	0.00e+00	0	44	0	1428160512	16	4251
2026-01-20 09:12:43.27	11.43	26.30	-27.7	-29.0	15.6	0.00e+00	0	44	0	1431306240	16	4156
2026-01-20 09:12:44.13	11.25	26.20	-27.6	-28.8	15.7	0.00e+00	0	44	0	1434451968	16	4108
2026-01-20 09:12:45.28	10.99	26.07	-27.6	-28.6	15.8	0.00e+00	0	44	0	1437597696	16	4070
2026-01-20 09:12:46.13	10.81	25.97	-27.7	-28.9	15.6	0.00e+00	0	44	0	1440743424	16	4150
2026-01-20 09:12:47.29	10.56	25.84	-27.4	-28.4	15.9	0.00e+00	0	44	0	1443889152	16	3998
2026-01-20 09:12:48.14	10.38	25.74	-27.6	-28.8	15.7	0.00e+00	0	44	0	1447034880	16	4103
2026-01-20 09:12:49.29	10.14	25.61	-27.7	-28.9	15.7	0.00e+00	0	44	0	1450180608	16	4134
2026-01-20 09:12:50.14	9.96	25.52	-27.9	-29.5	15.3	0.00e+00	0	44	0	1453326336	16	4296
2026-01-20 09:12:51.29	9.72	25.38	-28.0	-29.6	15.2	0.00e+00	0	44	0	1456472064	16	4339
2026-01-20 09:12:52.15	9.54	25.29	-28.2	-30.2	14.9	0.00e+00	0	44	0	1459617792	16	4500
2026-01-20 09:12:53.30	9.30	25.15	-28.2	-30.0	15.0	0.00e+00	0	44	0	1462763520	16	4464
2026-01-20 09:12:54.17	9.13	25.06	-28.1	-29.8	15.1	0.00e+00	0	44	0	1465909248	16	4382
2026-01-20 09:12:55.31	8.89	24.93	-27.9	-29.4	15.3	0.00e+00	0	44	0	1469054976	16	4284
2026-01-20 09:12:56.17	8.72	24.83	-27.8	-29.2	15.4	0.00e+00	0	44	0	1472200704	16	4232
2026-01-20 09:12:57.32	8.49	24.70	-27.8	-29.2	15.4	0.00e+00	0	44	0	1475346432	16	4230
2026-01-20 09:12:58.18	8.32	24.60	-28.0	-29.5	15.2	0.00e+00	0	44	0	1478492160	16	4318
2026-01-20 09:12:59.34	8.09	24.47	-27.5	-28.5	15.8	0.00e+00	0	44	0	1481637888	16	4043
2026-01-20 09:13:00.19	7.93	24.37	-27.7	-28.9	15.6	0.00e+00	0	44	0	1484783616	16	4129
2026-01-20 09:13:01.34	7.70	24.24	-27.7	-29.0	15.5	7.00e-07	0	44	0	1487929344	16	4166
2026-01-20 09:13:02.19	7.54	24.14	-27.6	-28.6	15.7	0.00e+00	0	44	0	1491075072	16	4067
2026-01-20 09:13:03.34	7.32	24.01	-27.4	-28.3	15.9	0.00e+00	0	44	0	1494220800	16	3995
2026-01-20 09:13:04.19	7.16	23.92	-27.5	-28.5	15.8	0.00e+00	0	44	0	1497366528	16	4023
2026-01-20 09:13:05.34	6.94	23.79	-27.7	-28.8	15.6	0.00e+00	0	44	0	1500512256	16	4127
2026-01-20 09:13:06.21	6.78	23.69	-27.9	-29.3	15.3	0.00e+00	0	44	0	1503657984	16	4248
2026-01-20 09:13:07.34	6.57	23.56	-27.7	-28.8	15.6	0.00e+00	0	44	0	1506803712	16	4128
2026-01-20 09:13:08.21	6.41	23.47	-27.5	-28.6	15.7	0.00e+00	0	44	0	1509949440	16	4055
2026-01-20 09:13:09.35	6.20	23.34	-27.4	-28.3	15.9	0.00e+00	0	44	0	1513095168	16	3981
2026-01-20 09:13:10.21	6.05	23.24	-27.4	-28.3	15.9	0.00e+00	0	44	0	1516240896	16	3983
2026-01-20 09:13:11.35	5.84	23.12	-27.4	-28.4	15.9	0.00e+00	0	44	0	1519386624	16	4009
2026-01-20 09:13:12.21	5.69	23.02	-27.4	-28.2	15.9	0.00e+00	0	44	0	1522532352	16	3971
2026-01-20 09:13:13.36	5.48	22.89	-27.5	-28.4	15.8	0.00e+00	0	44	0	1525678080	16	4020
2026-01-20 09:13:14.22	5.33	22.80	-27.6	-28.6	15.7	0.00e+00	0	44	0	1528823808	16	4074
2026-01-20 09:13:15.37	5.13	22.67	-27.7	-28.9	15.6	0.00e+00	0	44	0	1531969536	16	4141
2026-01-20 09:13:16.23	4.98	22.57	-27.7	-29.0	15.5	0.00e+00	0	44	0	1535115264	16	4181
2026-01-20 09:13:17.38	4.78	22.45	-27.8	-29.1	15.4	0.00e+00	0	44	0	1538260992	16	4197
2026-01-20 09:13:18.24	4.64	22.35	-27.8	-29.2	15.4	0.00e+00	0	44	0	1541406720	16	4237
2026-01-20 09:13:19.38	4.44	22.22	-27.8	-29.2	15.3	0.00e+00	0	44	0	1544552448	16	4238
2026-01-20 09:13:20.24	4.30	22.13	-27.8	-29.1	15.4	0.00e+00	0	44	0	1546649600	16	4197
2026-01-20 09:13:21.38	4.11	22.01	-27.7	-28.9	15.5	0.00e+00	0	44	0	1550843904	16	4149
2026-01-20 09:13:22.24	3.96	21.91	-27.8	-29.3	15.3	0.00e+00	0	44	0	1552941056	16	4250
2026-01-20 09:13:23.39	3.77	21.79	-27.9	-29.5	15.2	0.00e+00	0	44	0	1557135360	16	4313
2026-01-20 09:13:24.25	3.63	21.69	-27.8	-29.3	15.3	0.00e+00	0	44	0	1560281088	16	4244
2026-01-20 09:13:25.40	3.44	21.57	-27.9	-29.3	15.2	7.00e-07	0	44	0	1563426816	16	4271
2026-01-20 09:13:26.26	3.31	21.47	-27.8	-29.3	15.3	0.00e+00	0	44	0	1566572544	16	4264
2026-01-20 09:13:27.40	3.12	21.35	-28.0	-29.6	15.1	0.00e+00	0	44	0	1569718272	16	4343
2026-01-20 09:13:28.26	2.99	21.26	-27.9	-29.4	15.2	0.00e+00	0	44	0	1571815424	16	4296
2026-01-20 09:13:29.40	2.81	21.13	-28.0	-29.7	15.0	0.00e+00	0	44	0	1576009728	16	4371
2026-01-20 09:13:30.27	2.67	21.04	-28.2	-30.1	14.8	0.00e+00	0	44	0	1578106880	16	4478
2026-01-20 09:13:31.41	2.49	20.92	-28.4	-30.2	14.5	1.50e-06	0	44	0	1582301184	17	4402
2026-01-20 09:13:32.28	2.36	20.82	-28.3	-29.9	14.6	1.50e-06	0	44	0	1584398336	17	4323
2026-01-20 09:13:33.42	2.18	20.70	-28.1	-29.4	14.9	0.00e+00	0	44	0	1588592640	17	4197
2026-01-20 09:13:34.29	2.05	20.61	-28.2	-29.6	14.8	0.00e+00	0	44	0	1590689792	17	4238
2026-01-20 09:13:35.44	1.87	20.49	-28.2	-29.6	14.8	0.00e+00	0	44	0	1594884096	17	4225
2026-01-20 09:13:36.30	1.75	20.39	-28.2	-29.6	14.8	0.00e+00	0	44	0	1596981248	17	4232
2026-01-20 09:13:37.45	1.57	20.27	-28.3	-29.8	14.6	7.00e-07	0	44	0	1601175552	17	4306
2026-01-20 09:13:38.31	1.45	20.18	-28.3	-29.9	14.6	0.00e+00	0	44	0	1603272704	17	4327
2026-01-20 09:13:39.45	1.28	20.06	-28.1	-29.3	15.0	0.00e+00	0	44	0	1607467008	17	4145
2026-01-20 09:13:40.31	1.15	19.97	-28.0	-29.1	15.1	0.00e+00	0	44	0	1609564160	17	4088
2026-01-20 09:13:41.46	0.99	19.85	-28.0	-29.1	15.0	0.00e+00	0	44	0	1613758464	17	4113
2026-01-20 09:13:42.31	0.86	19.76	-28.0	-29.2	15.0	0.00e+00	0	44	0	1615855616	17	4124
2026-01-20 09:13:43.46	0.70	19.64	-28.0	-29.2	15.0	0.00e+00	0	44	0	1620049920	17	4113
2026-01-20 09:13:44.32	0.58	19.55	-28.1	-29.5	14.8	7.00e-07	0	44	0	1622147072	17	4208
2026-01-20 09:13:45.47	0.41	19.43	-28.1	-29.3	14.9	0.00e+00	0	44	0	1626341376	17	4159
2026-01-20 09:13:46.33	0.29	19.34	-28.2	-29.6	14.8	7.00e-07	0	44	0	1628438528	17	4244
2026-01-20 09:13:47.48	0.13	19.22	-28.1	-29.3	15.0	0.00e+00	0	44	0	1632632832	17	4160
2026-01-20 09:13:48.34	0.01	19.13	-28.0	-29.1	15.1	0.00e+00	0	44	0	1634729984	17	4093
2026-01-20 09:13:49.49	359.86	19.01	-27.9	-28.9	15.1	0.00e+00	0	44	0	1638924288	17	4045
2026-01-20 09:13:50.35	359.74	18.92	-27.8	-29.1	15.3	0.00e+00	0	44	0	1641021440	16	4213
2026-01-20 09:13:51.50	359.58	18.81	-27.7	-29.1	15.3	0.00e+00	0	44	0	1645215744	16	4195
2026-01-20 09:13:52.36	359.47	18.72	-27.7	-28.9	15.4	0.00e+00	0	44	0	1647312896	16	4163
2026-01-20 09:13:53.50	359.31	18.60	-27.7	-28.9	15.4	0.00e+00	0	44	0	1651507200	16	4152
2026-01-20 09:13:54.36	359.20	18.51	-27.8	-29.2	15.2	0.00e+00	0	44	0	1653604352	16	4239
2026-01-20 09:13:55.50	359.05	18.40	-27.9	-29.3	15.1	0.00e+00	0	44	0	1657798656	16	4270
2026-01-20 09:13:56.36	358.94	18.31	-27.8	-29.2	15.2	0.00e+00	0	44	0	1659895808	16	4221
2026-01-20 09:13:57.49	358.79	18.20	-27.8	-29.3	15.2	0.00e+00	0	44	0	1664090112	16	4264
2026-01-20 09:13:58.36	358.68	18.11	-27.8	-29.3	15.1	0.00e+00	0	44	0	1666187264	16	4269
2026-01-20 09:13:59.51	358.53	17.99	-27.9	-29.4	15.1	0.00e+00	0	44	0	1670381568	16	4301
2026-01-20 09:14:00.37	358.42	17.91	-28.0	-29.7	14.9	0.00e+00	0	44	0	1672478720	16	4367
2026-01-20 09:14:01.52	358.28	17.79	-28.0	-29.8	14.9	0.00e+00	0	44	0	1676673024	16	4398
2026-01-20 09:14:02.38	358.17	17.71	-28.0	-29.8	14.9	0.00e+00	0	44	0	1678770176	16	4406
2026-01-20 09:14:03.53	358.03	17.59	-28.2	-30.1	14.7	0.00e+00	0	44	0	1682964480	16	4487
2026-01-20 09:14:04.38	357.92	17.51	-28.3	-30.4	14.5	7.00e-07	0	44	0	1685061632	16	4598
2026-01-20 09:14:05.53	357.78	17.39	-28.2	-30.2	14.6	0.00e+00	0	44	0	1688207360	16	4520
2026-01-20 09:14:06.40	357.67	17.31	-28.1	-29.9	14.7	0.00e+00	0	44	0	1691353088	16	4448
2026-01-20 09:14:07.55	357.53	17.20	-28.3	-30.3	14.6	1.50e-06	0	44	0	1695547392	16	4564
2026-01-20 09:14:08.41	357.43	17.11	-28.3	-30.3	14.5	1.50e-06	0	44	0	1697644544	16	4546
2026-01-20 09:14:09.56	357.29	17.00	-28.1	-30.0	14.7	7.00e-07	0	44	0	1701838848	16	4467
2026-01-20 09:14:10.42	357.19	16.91	-28.2	-30.2	14.6	0.00e+00	0	44	0	1703936000	16	4510
2026-01-20 09:14:11.57	357.05	16.80	-28.2	-30.2	14.6	0.00e+00	0	44	0	1708130304	16	4530
2026-01-20 09:14:12.43	356.95	16.72	-28.1	-29.8	14.8	0.00e+00	0	44	0	1710227456	16	4418
2026-01-20 09:14:13.57	356.82	16.61	-28.0	-29.6	14.9	0.00e+00	0	44	0	1713373184	16	4359
2026-01-20 09:14:14.43	356.72	16.53	-28.0	-29.7	14.9	7.00e-07	0	44	0	1716518912	16	4369
2026-01-20 09:14:15.58	356.59	16.41	-28.0	-29.8	14.9	0.00e+00	0	44	0	1719664640	16	4405
2026-01-20 09:14:16.44	356.49	16.33	-28.1	-30.0	14.7	0.00e+00	0	44	0	1722810368	16	4471
2026-01-20 09:14:17.59	356.36	16.22	-28.1	-30.0	14.7	0.00e+00	0	44	0	1725956096	16	4472
2026-01-20 09:14:18.45	356.26	16.14	-28.2	-30.2	14.6	0.00e+00	0	44	0	1729101824	16	4539
2026-01-20 09:14:19.59	356.13	16.03	-28.3	-30.5	14.4	2.20e-06	0	44	0	1732247552	16	4607
2026-01-20 09:14:20.44	356.04	15.95	-28.4	-30.6	14.3	7.00e-07	0	44	0	1735393280	16	4660
2026-01-20 09:14:21.58	355.91	15.84	-28.7	-30.8	13.9	7.00e-07	0	44	0	1738539008	17	4605
2026-01-20 09:14:22.45	355.82	15.76	-28.8	-31.1	13.7	5.30e-06	0	44	0	1741684736	17	4704
2026-01-20 09:14:23.60	355.69	15.65	-28.7	-30.9	13.9	8.30e-06	0	44	0	1744830464	17	4632
2026-01-20 09:14:24.45	355.60	15.57	-28.8	-31.0	13.7	6.80e-06	0	44	0	1747976192	17	4675
2026-01-20 09:14:25.60	355.48	15.46	-28.8	-31.1	13.7	6.10e-06	0	44	0	1751121920	17	4706
2026-01-20 09:14:26.46	355.38	15.38	-28.8	-31.1	13.7	3.00e-06	0	44	0	1754267648	17	4697
2026-01-20 09:14:27.61	355.26	15.28	-28.8	-31.1	13.7	4.50e-06	0	44	0	1757413376	17	4707
2026-01-20 09:14:28.46	355.17	15.20	-28.8	-31.1	13.7	6.10e-06	0	44	0	1760559104	17	4714
2026-01-20 09:14:29.60	355.05	15.09	-28.7	-30.9	13.7	8.30e-06	0	44	0	1763704832	17	4649
2026-01-20 09:14:30.46	354.96	15.01	-28.7	-31.0	13.7	9.90e-06	0	44	0	1766850560	17	4660
2026-01-20 09:14:31.61	354.84	14.91	-28.6	-30.7	13.9	4.50e-06	0	44	0	1769996288	17	4580
2026-01-20 09:14:32.46	354.76	14.83	-28.5	-30.5	14.0	3.80e-06	0	44	0	1773142016	17	4511
2026-01-20 09:14:33.60	354.64	14.72	-28.5	-30.4	14.1	1.50e-06	0	44	0	1776287744	17	4479
2026-01-20 09:14:34.46	354.55	14.64	-28.6	-30.5	13.9	3.80e-06	0	44	0	1779433472	17	4518
2026-01-20 09:14:35.61	354.43	14.54	-28.5	-30.4	14.0	2.20e-06	0	44	0	1782579200	17	4469
2026-01-20 09:14:36.46	354.35	14.46	-28.4	-30.2	14.2	3.00e-06	0	44	0	1785724928	17	4415
2026-01-20 09:14:37.61	354.23	14.36	-28.2	-29.7	14.5	0.00e+00	0	44	0	1788870656	17	4263
2026-01-20 09:14:38.47	354.15	14.28	-28.3	-30.0	14.3	0.00e+00	0	44	0	1792016384	17	4352
2026-01-20 09:14:39.61	354.04	14.18	-28.2	-29.7	14.4	7.00e-07	0	44	0	1795162112	17	4285
2026-01-20 09:14:40.47	353.95	14.10	-28.3	-29.9	14.3	7.00e-07	0	44	0	1798307840	17	4341
2026-01-20 09:14:41.62	353.84	14.00	-28.3	-30.0	14.3	0.00e+00	0	44	0	1801453568	17	4365
2026-01-20 09:14:42.48	353.76	13.92	-28.4	-30.1	14.2	7.00e-07	0	44	0	1804599296	17	4400
2026-01-20 09:14:43.62	353.65	13.82	-28.4	-30.1	14.2	1.50e-06	0	44	0	1807745024	17	4404
2026-01-20 09:14:44.48	353.57	13.74	-28.4	-30.1	14.2	1.50e-06	0	44	0	1810890752	17	4403
2026-01-20 09:14:45.63	353.46	13.64	-28.7	-30.9	13.7	3.00e-06	0	44	0	1814036480	17	4629
2026-01-20 09:14:46.49	353.38	13.56	-28.8	-31.2	13.5	1.22e-05	0	44	0	1817182208	17	4729
2026-01-20 09:14:47.63	353.27	13.46	-28.7	-30.8	13.7	4.50e-06	0	44	0	1820327936	17	4616
2026-01-20 09:14:48.49	353.19	13.39	-28.9	-31.4	13.5	1.29e-05	0	44	0	1822425088	17	4784
2026-01-20 09:14:49.63	353.08	13.29	-28.9	-31.4	13.4	2.13e-05	0	44	0	1826619392	17	4814
2026-01-20 09:14:50.49	353.00	13.21	-28.9	-31.3	13.4	1.14e-05	0	44	0	1828716544	17	4774
2026-01-20 09:14:51.63	352.90	13.11	-28.9	-31.5	13.3	9.90e-06	0	44	0	1832910848	17	4838
2026-01-20 09:14:52.50	352.82	13.03	-28.9	-31.5	13.3	1.98e-05	0	44	0	1836056576	17	4826
2026-01-20 09:14:53.64	352.72	12.94	-28.9	-31.5	13.3	1.14e-05	0	44	0	1839202304	17	4849
2026-01-20 09:14:54.51	352.64	12.86	-28.8	-31.3	13.4	1.22e-05	0	44	0	1842348032	17	4777
2026-01-20 09:14:55.65	352.54	12.76	-28.9	-31.4	13.3	9.10e-06	0	44	0	1845493760	17	4821
2026-01-20 09:14:56.51	352.46	12.69	-28.9	-31.3	13.4	9.10e-06	0	44	0	1847590912	17	4781
2026-01-20 09:14:57.66	352.36	12.59	-28.8	-31.2	13.5	8.30e-06	0	44	0	1851785216	17	4733
2026-01-20 09:14:58.51	352.29	12.52	-28.8	-31.2	13.5	1.14e-05	0	44	0	1853882368	17	4753
2026-01-20 09:14:59.67	352.19	12.42	-28.7	-30.9	13.6	1.06e-05	0	44	0	1858076672	17	4663
2026-01-20 09:15:00.53	352.11	12.34	-28.8	-31.2	13.4	1.37e-05	0	44	0	1860173824	17	4732
2026-01-20 09:15:01.68	352.01	12.25	-28.8	-31.2	13.4	8.30e-06	0	44	0	1864368128	17	4753
2026-01-20 09:15:02.54	351.94	12.17	-28.7	-30.8	13.6	1.14e-05	0	44	0	1866465280	17	4625
2026-01-20 09:15:03.69	351.84	12.08	-28.8	-31.3	13.4	1.44e-05	0	44	0	1870659584	17	4774
2026-01-20 09:15:04.54	351.77	12.00	-28.8	-30.7	13.4	1.83e-05	0	44	0	1872756736	18	4483
2026-01-20 09:15:05.69	351.67	11.91	-28.7	-30.5	13.6	6.10e-06	0	44	0	1876951040	18	4403
2026-01-20 09:15:06.55	351.60	11.84	-28.5	-30.0	13.8	4.50e-06	0	44	0	1879048192	18	4278
2026-01-20 09:15:07.70	351.51	11.74	-28.6	-30.1	13.7	6.10e-06	0	44	0	1883242496	18	4303
2026-01-20 09:15:08.57	351.43	11.67	-28.8	-30.6	13.5	8.30e-06	0	44	0	1885339648	18	4442
2026-01-20 09:15:09.72	351.34	11.57	-28.7	-30.5	13.5	8.30e-06	0	44	0	1889533952	18	4425
2026-01-20 09:15:10.58	351.27	11.50	-28.6	-30.2	13.7	9.90e-06	0	44	0	1891631104	18	4311
2026-01-20 09:15:11.73	351.18	11.40	-28.5	-30.0	13.8	3.80e-06	0	44	0	1895825408	18	4273
2026-01-20 09:15:12.59	351.11	11.33	-28.6	-30.2	13.7	5.30e-06	0	44	0	1897922560	18	4335
2026-01-20 09:15:13.73	351.02	11.24	-28.8	-30.7	13.4	1.29e-05	0	44	0	1902116864	18	4474
2026-01-20 09:15:14.59	350.95	11.17	-28.6	-30.2	13.7	6.80e-06	0	44	0	1904214016	18	4343
2026-01-20 09:15:15.74	350.86	11.08	-28.7	-30.5	13.5	2.13e-05	0	44	0	1908408320	18	4408
2026-01-20 09:15:16.60	350.79	11.01	-28.7	-30.5	13.5	9.90e-06	0	44	0	1910505472	18	4401
2026-01-20 09:15:17.74	350.70	10.91	-28.7	-30.4	13.6	6.80e-06	0	44	0	1914699776	18	4374
2026-01-20 09:15:18.61	350.63	10.84	-28.9	-30.9	13.2	2.13e-05	0	44	0	1916796928	18	4546
2026-01-20 09:15:19.74	350.54	10.75	-28.7	-30.4	13.5	1.29e-05	0	44	0	1920991232	18	4391
2026-01-20 09:15:20.60	350.48	10.68	-28.9	-30.9	13.3	1.52e-05	0	44	0	1923088384	18	4530
2026-01-20 09:15:21.75	350.39	10.59	-28.9	-30.9	13.2	2.21e-05	0	44	0	1927282688	18	4548
2026-01-20 09:15:22.61	350.33	10.52	-28.9	-30.8	13.3	1.83e-05	0	44	0	1929379840	18	4523
2026-01-20 09:15:23.75	350.24	10.43	-29.1	-31.4	13.0	3.89e-05	0	44	0	1933574144	18	4684
2026-01-20 09:15:24.61	350.17	10.36	-29.0	-31.1	13.1	3.66e-05	0	44	0	1935671296	18	4604
2026-01-20 09:15:25.76	350.09	10.27	-29.0	-31.3	13.0	6.63e-05	0	44	0	1939865600	18	4670
2026-01-20 09:15:26.62	350.02	10.20	-29.0	-31.3	13.0	3.96e-05	0	44	0	1941962752	18	4673
2026-01-20 09:15:27.76	349.94	10.11	-29.0	-31.2	13.0	3.89e-05	0	44	0	1946157056	18	4627
2026-01-20 09:15:28.62	349.88	10.04	-29.1	-31.4	12.9	4.27e-05	0	44	0	1948254208	18	4700
2026-01-20 09:15:29.77	349.79	9.95	-29.1	-31.5	12.9	5.26e-05	0	44	0	1952448512	18	4723
2026-01-20 09:15:30.63	349.73	9.88	-29.1	-31.5	12.8	6.17e-05	0	44	0	1954545664	18	4743
2026-01-20 09:15:31.77	349.65	9.79	-29.3	-31.9	12.6	1.20e-04	0	44	0	1958739968	18	4878
2026-01-20 09:15:32.63	349.59	9.73	-29.3	-31.8	12.6	6.40e-05	0	44	0	1960837120	18	4848
2026-01-20 09:15:33.78	349.51	9.64	-29.3	-32.0	12.5	1.24e-04	0	44	0	1963982848	18	4897
2026-01-20 09:15:34.63	349.44	9.57	-29.4	-32.3	12.3	1.96e-04	0	44	0	1967128576	18	5001
2026-01-20 09:15:35.78	349.36	9.48	-29.3	-31.6	12.4	2.40e-04	0	44	0	1970274304	19	4668
2026-01-20 09:15:36.63	349.30	9.41	-29.4	-31.7	12.3	2.13e-04	0	44	0	1973420032	19	4714
2026-01-20 09:15:37.78	349.22	9.33	-29.5	-31.9	12.2	2.08e-04	0	44	0	1976565760	19	4777
2026-01-20 09:15:38.64	349.16	9.26	-29.3	-31.5	12.5	1.91e-04	0	44	0	1979711488	19	4637
2026-01-20 09:15:39.78	349.09	9.17	-29.4	-31.7	12.3	1.79e-04	0	44	0	1982857216	19	4707
2026-01-20 09:15:40.64	349.03	9.11	-29.4	-31.8	12.3	1.50e-04	0	44	0	1986002944	19	4718
2026-01-20 09:15:41.79	348.95	9.02	-29.4	-31.7	12.3	2.18e-04	0	44	0	1989148672	19	4703
2026-01-20 09:15:42.65	348.89	8.95	-29.8	-32.7	11.7	5.29e-04	0	44	0	1992294400	19	5031
2026-01-20 09:15:43.78	348.81	8.87	-29.7	-32.5	11.8	4.99e-04	0	44	0	1995440128	19	4976
2026-01-20 09:15:44.64	348.76	8.80	-29.6	-32.2	12.0	3.09e-04	0	44	0	1998585856	19	4860
2026-01-20 09:15:45.78	348.68	8.71	-29.9	-33.2	11.3	6.93e-04	0	44	0	2001731584	19	5227
2026-01-20 09:15:46.64	348.62	8.65	-29.8	-32.3	11.5	9.44e-04	0	44	0	2004877312	20	4809
2026-01-20 09:15:47.79	348.55	8.56	-29.7	-32.1	11.6	4.62e-04	0	44	0	2008023040	20	4762
2026-01-20 09:15:48.65	348.49	8.50	-29.8	-32.3	11.5	8.02e-04	0	44	0	2011168768	20	4816
2026-01-20 09:15:49.79	348.42	8.41	-29.9	-32.7	11.1	1.24e-03	0	44	0	2014314496	20	4958
2026-01-20 09:15:50.65	348.36	8.35	-29.9	-32.5	11.2	1.65e-03	0	44	0	2017460224	20	4901
2026-01-20 09:15:51.80	348.29	8.26	-29.8	-32.3	11.4	1.01e-03	0	44	0	2020605952	20	4821
2026-01-20 09:15:52.66	348.23	8.20	-29.7	-32.1	11.5	9.15e-04	0	44	0	2023751680	20	4754
2026-01-20 09:15:53.81	348.16	8.11	-29.8	-32.5	11.3	1.17e-03	0	44	0	2026897408	20	4878
2026-01-20 09:15:54.67	348.10	8.05	-29.7	-32.1	11.5	7.11e-04	0	44	0	2030043136	20	4775
2026-01-20 09:15:55.81	348.03	7.97	-29.6	-31.9	11.6	8.90e-04	0	44	0	2033188864	20	4703
2026-01-20 09:15:56.68	347.98	7.90	-29.7	-32.2	11.5	5.65e-04	0	44	0	2036334592	20	4777
2026-01-20 09:15:57.83	347.90	7.82	-29.7	-32.2	11.5	1.13e-03	0	44	0	2039480320	20	4791
2026-01-20 09:15:58.68	347.85	7.75	-29.6	-31.9	11.6	5.94e-04	0	44	0	2042626048	20	4689
2026-01-20 09:15:59.82	347.78	7.67	-29.7	-32.1	11.5	1.39e-03	0	44	0	2045771776	20	4744
2026-01-20 09:16:00.69	347.73	7.61	-29.5	-31.7	11.7	1.01e-03	0	44	0	2048917504	20	4630
2026-01-20 09:16:01.84	347.66	7.52	-29.8	-32.4	11.3	1.69e-03	0	44	0	2052063232	20	4873
2026-01-20 09:16:02.70	347.60	7.46	-29.8	-32.5	11.1	1.21e-03	0	44	0	2055208960	20	4913
2026-01-20 09:16:03.85	347.53	7.38	-30.0	-33.1	10.8	7.91e-04	0	44	0	2058354688	20	5116
2026-01-20 09:16:04.71	347.48	7.32	-29.9	-32.7	11.0	1.76e-03	0	44	0	2061500416	20	4963
2026-01-20 09:16:05.85	347.41	7.23	-29.9	-32.7	11.0	1.54e-03	0	44	0	2064646144	20	4974
2026-01-20 09:16:06.71	347.36	7.17	-29.8	-32.4	11.2	1.87e-03	0	45	0	2067791872	20	4875
2026-01-20 09:16:07.86	347.30	7.09	-29.9	-32.8	11.0	1.84e-03	0	44	0	2070937600	20	5000
2026-01-20 09:16:08.72	347.24	7.03	-33.3	-44.8	3.8	4.17e-01	0	44	104	2073034752	26	13547
2026-01-20 09:16:09.86	347.18	6.95	-33.6	-45.4	3.8	1.49e+00	0	44	104	2073034752	27	14004

#Closed at: 2026-01-20 09:16:10
#Recorded file [2073 MB]: D:/data/31010_260120_120504.dat