passes_logs/2026/01/20/R2M6_AANII_01/R2M6_AANII_01__20260120_000146_NOAA_20_JPSS-1_rec.log

#Pass ID: 20260120_000146_NOAA 20 (JPSS-1)
#Satellite: NOAA 20 (JPSS-1)
#Configuration: NOAA 20
#almurnet v.1.7.20240730
#Start time: 2026-01-20 00:01:46

#Version: 2.2.20231116
#Station: R2M6_AANII_01
#Location: 30.233357 lon 59.946436 lat
#TLE: 1 43013U 17073A   26019.27717929  .00000087  00000+0  62288-4 0  9995
#TLE: 2 43013  98.7641 320.1715 0001339  33.1986 326.9274 14.19537047423343

#Time	Az	El	Level	Level2	SNR	BER	BlckErr	Temp	State	Recorded	gain1	gain2
2026-01-20 00:01:46.32	19.85	6.97	-31.4	-37.5	5.1	1.26e+00	0	42	0	0	22	7254
2026-01-20 00:01:47.31	19.87	7.05	-31.5	-37.6	5.0	1.28e+00	0	42	104	0	23	7239
2026-01-20 00:01:48.32	19.89	7.12	-31.6	-37.6	8.1	7.24e-02	0	42	0	0	23	7224
2026-01-20 00:01:49.32	19.91	7.20	-31.6	-37.6	8.0	6.47e-02	0	42	0	1048576	23	7232
2026-01-20 00:01:50.32	19.94	7.28	-31.6	-37.6	8.1	7.16e-02	0	42	0	3145728	23	7179
2026-01-20 00:01:51.32	19.96	7.35	-31.6	-37.7	8.1	5.75e-02	0	42	0	5242880	23	7263
2026-01-20 00:01:52.33	19.98	7.43	-30.7	-36.7	8.2	6.58e-02	0	42	0	7340032	23	7182
2026-01-20 00:01:53.33	20.00	7.51	-31.0	-37.0	8.3	5.23e-02	0	42	0	9437184	22	7231
2026-01-20 00:01:54.34	20.02	7.59	-31.5	-37.3	8.3	3.93e-02	0	42	0	10485760	23	6992
2026-01-20 00:01:55.34	20.05	7.67	-31.7	-38.1	7.6	5.74e-02	0	42	0	12582912	23	7526
2026-01-20 00:01:56.35	20.07	7.74	-31.7	-38.0	7.6	9.63e-02	0	42	0	14680064	23	7464
2026-01-20 00:01:57.35	20.09	7.82	-31.6	-37.5	8.2	7.41e-02	0	42	0	16777216	23	7097
2026-01-20 00:01:58.35	20.11	7.90	-31.4	-37.0	8.9	4.48e-02	0	42	0	17825792	22	6906
2026-01-20 00:01:59.35	20.13	7.98	-31.1	-36.2	9.6	1.64e-02	0	42	0	19922944	22	6442
2026-01-20 00:02:00.35	20.16	8.06	-31.1	-36.2	9.7	1.20e-02	0	42	0	22020096	22	6412
2026-01-20 00:02:01.35	20.18	8.14	-30.9	-35.8	10.3	7.81e-03	0	42	0	24117248	21	6326
2026-01-20 00:02:02.35	20.20	8.22	-30.8	-35.4	10.7	3.91e-03	0	42	0	26214400	21	6107
2026-01-20 00:02:03.35	20.22	8.30	-30.7	-35.0	10.9	2.61e-03	0	42	0	27262976	21	5948
2026-01-20 00:02:04.35	20.25	8.38	-30.6	-34.7	11.2	1.67e-03	0	42	0	29360128	21	5776
2026-01-20 00:02:05.36	20.27	8.46	-30.7	-35.0	10.9	1.50e-03	0	43	0	31457280	21	5931
2026-01-20 00:02:06.36	20.29	8.54	-30.5	-34.6	11.2	1.80e-03	0	42	0	33554432	21	5758
2026-01-20 00:02:07.36	20.32	8.62	-30.6	-34.9	11.1	1.18e-03	0	43	0	35651584	21	5871
2026-01-20 00:02:08.37	20.34	8.70	-30.7	-35.0	10.9	2.33e-03	0	43	0	36700160	21	5920
2026-01-20 00:02:09.37	20.36	8.78	-30.4	-34.7	11.6	1.32e-03	0	43	0	38797312	20	5884
2026-01-20 00:02:10.37	20.39	8.87	-30.4	-34.6	11.6	2.62e-03	0	43	0	40894464	20	5865
2026-01-20 00:02:11.38	20.41	8.95	-30.5	-34.5	11.3	6.95e-04	0	42	0	42991616	21	5716
2026-01-20 00:02:12.38	20.44	9.03	-30.6	-34.8	11.1	1.38e-03	0	43	0	45088768	21	5827
2026-01-20 00:02:13.39	20.46	9.12	-30.5	-34.8	11.5	2.78e-03	0	43	0	46137344	20	5936
2026-01-20 00:02:14.39	20.48	9.20	-30.5	-34.4	11.5	3.02e-03	0	43	0	48234496	21	5640
2026-01-20 00:02:15.40	20.51	9.28	-30.5	-34.8	11.5	6.40e-04	0	43	0	50331648	20	5944
2026-01-20 00:02:16.39	20.53	9.36	-30.4	-34.5	11.8	2.46e-03	0	43	0	52428800	20	5781
2026-01-20 00:02:17.39	20.56	9.45	-30.4	-34.6	11.8	2.48e-03	0	43	0	54525952	20	5813
2026-01-20 00:02:18.39	20.58	9.53	-30.5	-34.7	11.6	5.35e-04	0	43	0	55574528	20	5903
2026-01-20 00:02:19.39	20.60	9.62	-30.5	-34.5	11.5	6.68e-04	0	43	0	57671680	21	5663
2026-01-20 00:02:20.39	20.63	9.70	-30.7	-35.1	11.1	3.92e-03	0	43	0	59768832	21	5934
2026-01-20 00:02:21.39	20.65	9.79	-30.8	-35.2	10.9	2.23e-03	0	43	0	61865984	21	5999
2026-01-20 00:02:22.38	20.68	9.87	-30.8	-35.4	10.8	2.09e-03	0	43	0	62914560	21	6096
2026-01-20 00:02:23.39	20.70	9.96	-30.8	-35.3	10.9	5.22e-03	0	43	0	65011712	21	6055
2026-01-20 00:02:24.38	20.73	10.04	-30.7	-34.8	11.2	1.50e-03	0	43	0	67108864	21	5823
2026-01-20 00:02:25.38	20.75	10.13	-30.5	-34.7	11.7	7.49e-04	0	43	0	69206016	20	5878
2026-01-20 00:02:26.38	20.78	10.21	-30.2	-34.0	12.2	4.60e-04	0	43	0	71303168	20	5567
2026-01-20 00:02:27.38	20.80	10.30	-30.5	-34.2	11.7	9.27e-04	0	43	0	72351744	21	5549
2026-01-20 00:02:28.39	20.83	10.39	-30.5	-34.4	11.6	2.72e-03	0	43	0	74448896	21	5607
2026-01-20 00:02:29.39	20.86	10.47	-30.6	-34.5	11.5	8.72e-04	0	43	0	76546048	21	5675
2026-01-20 00:02:30.39	20.88	10.56	-30.5	-34.4	11.6	1.12e-03	0	43	0	78643200	21	5607
2026-01-20 00:02:31.39	20.91	10.65	-30.3	-34.2	12.1	2.44e-03	0	43	0	80740352	20	5656
2026-01-20 00:02:32.39	20.93	10.74	-30.4	-34.5	11.9	2.44e-03	0	43	0	81788928	20	5768
2026-01-20 00:02:33.40	20.96	10.83	-30.3	-34.2	12.1	4.27e-04	0	43	0	83886080	20	5638
2026-01-20 00:02:34.40	20.99	10.92	-30.2	-33.8	12.5	2.38e-03	0	43	0	85983232	20	5444
2026-01-20 00:02:35.40	21.01	11.00	-30.1	-33.7	12.6	2.39e-03	0	43	0	88080384	20	5398
2026-01-20 00:02:36.41	21.04	11.09	-30.3	-34.1	12.3	1.36e-04	0	43	0	90177536	20	5583
2026-01-20 00:02:37.41	21.07	11.18	-30.3	-34.2	12.2	2.47e-03	0	43	0	91226112	20	5638
2026-01-20 00:02:38.41	21.09	11.27	-30.1	-33.6	12.6	2.63e-03	0	43	0	93323264	20	5385
2026-01-20 00:02:39.41	21.12	11.36	-30.0	-33.3	12.9	1.55e-04	0	43	0	95420416	20	5235
2026-01-20 00:02:40.42	21.15	11.46	-30.0	-33.4	12.8	2.07e-03	0	43	0	97517568	20	5266
2026-01-20 00:02:41.42	21.18	11.55	-30.0	-33.2	12.9	2.81e-03	0	43	0	99614720	20	5209
2026-01-20 00:02:42.42	21.20	11.64	-29.9	-33.5	13.1	1.46e-04	0	43	0	100663296	19	5435
2026-01-20 00:02:43.43	21.23	11.73	-30.0	-33.1	13.0	2.32e-03	0	43	0	102760448	20	5166
2026-01-20 00:02:44.43	21.26	11.82	-30.0	-33.1	13.0	2.78e-03	0	43	0	104857600	20	5177
2026-01-20 00:02:45.43	21.29	11.92	-30.0	-33.3	12.9	6.96e-04	0	43	0	106954752	20	5228
2026-01-20 00:02:46.43	21.31	12.01	-30.0	-33.3	12.9	2.28e-03	0	43	0	108003328	20	5247
2026-01-20 00:02:47.44	21.34	12.10	-30.1	-33.4	12.9	2.60e-03	0	43	0	110100480	20	5272
2026-01-20 00:02:48.45	21.37	12.20	-30.2	-33.7	12.6	7.26e-04	0	43	0	112197632	20	5417
2026-01-20 00:02:49.45	21.40	12.29	-30.3	-33.9	12.5	2.06e-03	0	43	0	114294784	20	5489
2026-01-20 00:02:50.45	21.43	12.38	-30.3	-34.0	12.4	2.41e-03	0	43	0	116391936	20	5522
2026-01-20 00:02:51.45	21.46	12.48	-30.3	-34.1	12.4	7.74e-04	0	43	0	117440512	20	5551
2026-01-20 00:02:52.46	21.49	12.57	-30.3	-34.1	12.4	2.53e-03	0	44	0	119537664	20	5559
2026-01-20 00:02:53.46	21.52	12.67	-30.4	-34.3	12.3	2.38e-03	0	44	0	121634816	20	5664
2026-01-20 00:02:54.46	21.55	12.77	-30.4	-34.2	12.3	7.42e-04	0	44	0	123731968	20	5623
2026-01-20 00:02:55.46	21.57	12.86	-30.3	-34.0	12.5	2.44e-03	0	44	0	125829120	20	5530
2026-01-20 00:02:56.47	21.60	12.96	-30.2	-33.6	12.7	2.74e-03	0	44	0	126877696	20	5367
2026-01-20 00:02:57.48	21.63	13.06	-30.2	-33.6	12.8	6.17e-04	0	43	0	128974848	20	5355
2026-01-20 00:02:58.48	21.66	13.15	-30.2	-33.7	12.7	2.11e-03	0	43	0	131072000	20	5392
2026-01-20 00:02:59.49	21.70	13.25	-30.2	-33.6	12.7	2.93e-03	0	44	0	133169152	20	5372
2026-01-20 00:03:00.49	21.73	13.35	-30.1	-33.4	12.9	9.30e-05	0	43	0	135266304	20	5283
2026-01-20 00:03:01.49	21.76	13.45	-30.0	-33.3	13.0	3.66e-05	0	44	0	136314880	20	5214
2026-01-20 00:03:02.50	21.79	13.55	-29.9	-33.0	13.2	2.72e-03	0	43	0	138412032	20	5111
2026-01-20 00:03:03.50	21.82	13.65	-30.0	-33.2	13.1	5.51e-04	0	44	0	140509184	20	5205
2026-01-20 00:03:04.50	21.85	13.75	-30.0	-33.3	13.0	3.96e-05	0	44	0	142606336	20	5213
2026-01-20 00:03:05.50	21.88	13.85	-30.0	-33.3	13.0	5.80e-04	0	44	0	144703488	20	5214
2026-01-20 00:03:06.51	21.91	13.95	-30.0	-33.2	13.1	5.42e-04	0	44	0	145752064	20	5172
2026-01-20 00:03:07.51	21.94	14.05	-30.1	-33.4	13.0	2.11e-03	0	43	0	147849216	20	5261
2026-01-20 00:03:08.51	21.98	14.15	-30.2	-33.6	12.9	5.21e-04	0	44	0	149946368	20	5351
2026-01-20 00:03:09.50	22.01	14.25	-30.2	-33.6	12.8	5.71e-04	0	44	0	152043520	20	5345
2026-01-20 00:03:10.50	22.04	14.35	-30.1	-33.4	13.0	2.22e-03	0	44	0	153092096	20	5260
2026-01-20 00:03:11.51	22.07	14.45	-30.1	-33.5	13.0	5.40e-04	0	44	0	155189248	20	5289
2026-01-20 00:03:12.51	22.10	14.56	-30.2	-33.5	12.9	5.77e-04	0	44	0	157286400	20	5311
2026-01-20 00:03:13.52	22.14	14.66	-30.2	-33.7	12.8	1.88e-03	0	44	0	159383552	20	5380
2026-01-20 00:03:14.52	22.17	14.77	-30.3	-33.8	12.7	7.55e-05	0	44	0	161480704	20	5431
2026-01-20 00:03:15.52	22.20	14.87	-30.1	-33.5	13.0	5.45e-04	0	44	0	163577856	20	5286
2026-01-20 00:03:16.52	22.24	14.97	-30.2	-33.7	12.9	5.11e-05	0	44	0	164626432	20	5358
2026-01-20 00:03:17.52	22.27	15.08	-30.3	-33.8	12.7	2.28e-03	0	44	0	166723584	20	5425
2026-01-20 00:03:18.52	22.30	15.18	-30.3	-33.9	12.7	6.05e-04	0	44	0	168820736	20	5439
2026-01-20 00:03:19.53	22.34	15.29	-30.3	-33.9	12.7	6.02e-05	0	44	0	170917888	20	5461
2026-01-20 00:03:20.53	22.37	15.40	-30.3	-34.0	12.7	2.21e-03	0	44	0	171966464	20	5476
2026-01-20 00:03:21.54	22.41	15.51	-30.3	-33.9	12.7	5.64e-05	0	44	0	174063616	20	5438
2026-01-20 00:03:22.54	22.44	15.61	-30.4	-34.1	12.6	9.07e-05	0	44	0	176160768	20	5548
2026-01-20 00:03:23.54	22.48	15.72	-30.5	-33.9	12.4	5.65e-04	0	44	0	178257920	21	5352
2026-01-20 00:03:24.54	22.51	15.83	-30.3	-34.0	12.7	9.07e-05	0	44	0	180355072	20	5489
2026-01-20 00:03:25.55	22.55	15.94	-30.4	-34.1	12.6	6.40e-05	0	44	0	181403648	20	5552
2026-01-20 00:03:26.55	22.58	16.05	-30.5	-34.5	12.4	5.45e-04	0	44	0	183500800	20	5682
2026-01-20 00:03:27.56	22.62	16.16	-30.6	-34.3	12.1	6.16e-04	0	44	0	185597952	21	5500
2026-01-20 00:03:28.56	22.65	16.27	-30.7	-34.4	12.0	3.02e-04	0	44	0	187695104	21	5568
2026-01-20 00:03:29.56	22.69	16.38	-30.5	-34.1	12.3	6.75e-04	0	44	0	189792256	21	5406
2026-01-20 00:03:30.57	22.73	16.49	-30.5	-34.0	12.4	5.91e-04	0	44	0	190840832	21	5365
2026-01-20 00:03:31.57	22.76	16.60	-30.4	-33.7	12.6	1.28e-04	0	44	0	192937984	21	5256
2026-01-20 00:03:32.57	22.80	16.72	-30.5	-34.1	12.3	1.59e-04	0	44	0	195035136	21	5398
2026-01-20 00:03:33.56	22.84	16.83	-30.4	-34.1	12.6	6.29e-04	0	44	0	197132288	20	5547
2026-01-20 00:03:34.56	22.87	16.94	-30.4	-34.2	12.6	7.62e-05	0	44	0	198180864	20	5576
2026-01-20 00:03:35.57	22.91	17.05	-30.4	-34.2	12.6	1.08e-04	0	44	0	200278016	20	5570
2026-01-20 00:03:36.57	22.95	17.17	-30.5	-34.4	12.5	6.23e-04	0	44	0	202375168	20	5654
2026-01-20 00:03:37.57	22.99	17.28	-30.5	-33.9	12.5	1.14e-04	0	44	0	204472320	21	5337
2026-01-20 00:03:38.57	23.03	17.40	-30.5	-34.3	12.5	9.84e-05	0	44	0	206569472	20	5622
2026-01-20 00:03:39.58	23.07	17.52	-30.4	-33.8	12.6	9.99e-05	0	44	0	208666624	21	5278
2026-01-20 00:03:40.58	23.10	17.63	-30.5	-34.3	12.5	8.23e-05	0	44	0	209715200	20	5626
2026-01-20 00:03:41.58	23.14	17.75	-30.6	-34.1	12.3	1.27e-04	0	44	0	211812352	21	5413
2026-01-20 00:03:42.58	23.18	17.87	-30.6	-34.2	12.3	2.13e-04	0	44	0	213909504	21	5430
2026-01-20 00:03:43.59	23.22	17.99	-30.4	-33.7	12.6	1.07e-04	0	44	0	216006656	21	5261
2026-01-20 00:03:44.59	23.26	18.10	-30.5	-33.9	12.5	6.81e-04	0	44	0	217055232	21	5326
2026-01-20 00:03:45.59	23.30	18.22	-30.5	-33.8	12.6	1.01e-04	0	44	0	219152384	21	5285
2026-01-20 00:03:46.59	23.34	18.34	-30.4	-34.0	12.8	7.40e-05	0	44	0	221249536	20	5494
2026-01-20 00:03:47.59	23.38	18.46	-30.5	-34.3	12.7	7.05e-04	0	44	0	223346688	20	5585
2026-01-20 00:03:48.59	23.43	18.58	-29.5	-32.9	12.6	1.09e-04	0	44	0	225443840	21	5306
2026-01-20 00:03:49.59	23.47	18.71	-30.4	-34.1	12.6	1.11e-04	0	44	0	226492416	20	5531
2026-01-20 00:03:50.60	23.51	18.83	-30.5	-33.9	12.5	8.23e-05	0	44	0	228589568	21	5338
2026-01-20 00:03:51.61	23.55	18.95	-30.7	-34.4	11.8	8.90e-04	0	44	0	230686720	21	5521
2026-01-20 00:03:52.60	23.59	19.07	-30.6	-34.3	11.9	2.02e-04	0	44	0	232783872	21	5495
2026-01-20 00:03:53.61	23.64	19.20	-30.6	-34.1	12.4	1.56e-04	0	44	0	234881024	21	5403
2026-01-20 00:03:54.62	23.68	19.33	-30.6	-34.0	12.4	7.53e-04	0	44	0	235929600	21	5371
2026-01-20 00:03:55.62	23.72	19.45	-30.6	-34.1	12.5	1.74e-03	0	44	0	238026752	21	5388
2026-01-20 00:03:56.62	23.77	19.58	-30.5	-34.0	12.5	1.21e-04	0	44	0	240123904	21	5366
2026-01-20 00:03:57.62	23.81	19.70	-30.7	-34.6	12.1	1.28e-04	0	44	0	242221056	21	5597
2026-01-20 00:03:58.62	23.86	19.83	-30.7	-34.5	12.2	1.87e-03	0	44	0	244318208	21	5581
2026-01-20 00:03:59.62	23.90	19.96	-30.6	-34.2	12.4	1.53e-04	0	44	0	245366784	21	5441
2026-01-20 00:04:00.63	23.95	20.09	-30.5	-33.9	12.6	1.31e-04	0	44	0	247463936	21	5325
2026-01-20 00:04:01.63	23.99	20.22	-30.5	-33.9	12.6	9.23e-05	0	44	0	249561088	21	5319
2026-01-20 00:04:02.63	24.04	20.34	-30.5	-33.8	12.7	8.23e-05	0	44	0	251658240	21	5268
2026-01-20 00:04:03.64	24.08	20.48	-30.6	-34.2	12.4	7.40e-05	0	44	0	253755392	21	5446
2026-01-20 00:04:04.64	24.13	20.61	-30.5	-34.0	12.6	1.65e-04	0	44	0	254803968	21	5332
2026-01-20 00:04:05.64	24.18	20.74	-30.4	-33.6	12.8	6.94e-05	0	44	0	256901120	21	5210
2026-01-20 00:04:06.64	24.22	20.87	-30.5	-34.2	12.8	6.25e-05	0	44	0	258998272	20	5541
2026-01-20 00:04:07.65	24.27	21.01	-30.4	-34.2	12.8	4.27e-05	0	44	0	261095424	20	5527
2026-01-20 00:04:08.66	24.32	21.14	-30.5	-34.2	12.8	5.95e-05	0	44	0	262144000	20	5536
2026-01-20 00:04:09.67	24.37	21.28	-30.4	-33.6	12.9	1.58e-03	0	44	0	264241152	21	5190
2026-01-20 00:04:10.67	24.42	21.41	-30.4	-34.1	12.9	5.49e-05	0	44	0	266338304	20	5486
2026-01-20 00:04:11.67	24.47	21.55	-30.4	-34.0	12.9	5.87e-05	0	44	0	268435456	20	5449
2026-01-20 00:04:12.67	24.51	21.68	-30.4	-33.9	13.0	1.51e-03	0	44	0	270532608	20	5434
2026-01-20 00:04:13.67	24.56	21.82	-30.5	-34.2	12.8	1.44e-03	0	44	0	272629760	20	5529
2026-01-20 00:04:14.67	24.61	21.96	-30.5	-33.8	12.7	5.26e-05	0	44	0	273678336	21	5263
2026-01-20 00:04:15.67	24.67	22.10	-30.4	-33.9	13.0	1.29e-03	0	44	0	275775488	20	5418
2026-01-20 00:04:16.67	24.72	22.24	-30.3	-33.9	13.1	1.18e-03	0	44	0	277872640	20	5413
2026-01-20 00:04:17.68	24.77	22.38	-30.4	-34.1	12.9	5.26e-05	0	44	0	279969792	20	5487
2026-01-20 00:04:18.68	24.82	22.52	-30.4	-34.1	12.9	5.34e-05	0	44	0	281018368	20	5490
2026-01-20 00:04:19.68	24.87	22.66	-30.3	-33.8	13.0	7.23e-04	0	44	0	283115520	20	5386
2026-01-20 00:04:20.68	24.93	22.80	-30.0	-33.6	12.9	3.43e-05	0	44	0	285212672	20	5439
2026-01-20 00:04:21.69	24.98	22.95	-30.4	-34.1	12.9	3.96e-05	0	44	0	287309824	20	5486
2026-01-20 00:04:22.70	25.03	23.09	-30.4	-33.9	12.9	5.92e-04	0	44	0	289406976	20	5424
2026-01-20 00:04:23.70	25.09	23.24	-30.4	-34.0	12.8	3.20e-05	0	44	0	290455552	20	5467
2026-01-20 00:04:24.70	25.14	23.38	-30.3	-33.8	13.1	9.39e-04	0	44	0	292552704	20	5383
2026-01-20 00:04:25.70	25.20	23.53	-30.3	-33.6	13.1	1.75e-05	0	44	0	294649856	20	5301
2026-01-20 00:04:26.70	25.25	23.68	-30.2	-33.4	13.1	1.29e-05	0	44	0	296747008	20	5206
2026-01-20 00:04:27.71	25.31	23.83	-30.2	-33.6	13.3	1.16e-03	0	44	0	298844160	20	5276
2026-01-20 00:04:28.72	25.37	23.98	-30.2	-33.4	13.3	9.90e-06	0	44	0	299892736	20	5207
2026-01-20 00:04:29.73	25.42	24.13	-30.1	-33.2	13.5	9.90e-06	0	44	0	301989888	20	5131
2026-01-20 00:04:30.72	25.48	24.28	-30.1	-33.3	13.5	1.41e-03	0	44	0	304087040	20	5171
2026-01-20 00:04:31.72	25.54	24.43	-30.2	-33.4	13.4	1.43e-03	0	44	0	306184192	20	5221
2026-01-20 00:04:32.73	25.60	24.58	-30.2	-33.4	13.4	3.05e-04	0	44	0	308281344	20	5210
2026-01-20 00:04:33.73	25.66	24.73	-30.2	-33.5	13.3	1.42e-03	0	44	0	309329920	20	5256
2026-01-20 00:04:34.73	25.72	24.89	-30.1	-33.3	13.4	1.41e-03	0	44	0	311427072	20	5155
2026-01-20 00:04:35.73	25.78	25.04	-30.2	-33.4	13.4	1.14e-05	0	44	0	313524224	20	5224
2026-01-20 00:04:36.73	25.84	25.20	-30.2	-33.4	13.4	1.40e-03	0	44	0	315621376	20	5217
2026-01-20 00:04:37.73	25.90	25.36	-30.2	-33.3	13.5	1.41e-03	0	44	0	317718528	20	5181
2026-01-20 00:04:38.74	25.96	25.52	-30.3	-33.6	13.3	9.10e-06	0	44	0	318767104	20	5274
2026-01-20 00:04:39.74	26.02	25.67	-30.2	-33.4	13.5	1.30e-03	0	44	0	320864256	20	5208
2026-01-20 00:04:40.75	26.09	25.83	-30.2	-33.5	13.4	1.25e-03	0	44	0	322961408	20	5257
2026-01-20 00:04:41.75	26.15	26.00	-30.3	-33.7	13.3	1.75e-05	0	44	0	325058560	20	5319
2026-01-20 00:04:42.75	26.21	26.16	-30.3	-33.7	13.3	1.20e-03	0	44	0	326107136	20	5302
2026-01-20 00:04:43.76	26.28	26.32	-30.4	-33.9	13.1	1.31e-03	0	44	0	328204288	20	5416
2026-01-20 00:04:44.76	26.35	26.48	-30.3	-33.7	13.3	1.98e-05	0	44	0	330301440	20	5301
2026-01-20 00:04:45.76	26.41	26.65	-30.2	-33.4	13.5	7.90e-04	0	44	0	332398592	20	5218
2026-01-20 00:04:46.77	26.48	26.81	-30.3	-33.7	13.3	7.16e-04	0	44	0	334495744	20	5314
2026-01-20 00:04:47.77	26.55	26.98	-30.2	-33.5	13.5	1.29e-05	0	44	0	335544320	20	5224
2026-01-20 00:04:48.78	26.62	27.15	-30.2	-33.5	13.5	4.37e-04	0	44	0	337641472	20	5218
2026-01-20 00:04:49.78	26.68	27.32	-30.3	-33.6	13.4	8.54e-05	0	44	0	339738624	20	5289
2026-01-20 00:04:50.78	26.75	27.49	-30.5	-34.1	13.1	7.93e-05	0	44	0	341835776	20	5468
2026-01-20 00:04:51.77	26.82	27.65	-30.4	-33.9	13.2	3.40e-04	0	44	0	343932928	20	5396
2026-01-20 00:04:52.77	26.89	27.83	-30.4	-34.0	13.2	3.24e-04	0	44	0	344981504	20	5410
2026-01-20 00:04:53.77	26.97	28.00	-30.5	-33.8	13.0	3.28e-05	0	44	0	347078656	21	5231
2026-01-20 00:04:54.78	27.04	28.17	-30.7	-34.3	12.6	3.55e-04	0	44	0	349175808	21	5438
2026-01-20 00:04:55.77	27.11	28.34	-30.7	-34.3	12.6	2.64e-04	0	44	0	351272960	21	5445
2026-01-20 00:04:56.77	27.18	28.52	-30.7	-34.4	12.6	9.76e-05	0	44	0	353370112	21	5472
2026-01-20 00:04:57.78	27.26	28.70	-30.8	-34.4	12.5	2.19e-04	0	44	0	354418688	21	5493
2026-01-20 00:04:58.78	27.33	28.88	-30.9	-34.7	12.4	2.09e-04	0	44	0	356515840	21	5624
2026-01-20 00:04:59.79	27.41	29.06	-30.9	-34.7	12.3	1.77e-04	0	44	0	358612992	21	5618
2026-01-20 00:05:00.79	27.49	29.24	-31.0	-34.7	12.0	2.27e-04	0	44	0	360710144	22	5503
2026-01-20 00:05:01.78	27.57	29.41	-31.2	-35.2	11.7	4.58e-04	0	44	0	362807296	22	5702
2026-01-20 00:05:02.79	27.64	29.60	-31.2	-35.3	11.7	7.24e-04	0	44	0	363855872	22	5743
2026-01-20 00:05:03.79	27.72	29.78	-31.4	-35.9	11.3	9.08e-04	0	44	0	365953024	22	6011
2026-01-20 00:05:04.79	27.80	29.97	-31.4	-35.8	11.3	1.38e-03	0	44	0	368050176	22	5964
2026-01-20 00:05:05.80	27.89	30.15	-31.3	-35.4	11.5	9.40e-04	0	44	0	370147328	22	5812
2026-01-20 00:05:06.80	27.97	30.34	-31.2	-35.2	11.7	6.90e-04	0	44	0	371195904	22	5706
2026-01-20 00:05:07.80	28.05	30.53	-31.3	-35.5	11.5	7.87e-04	0	44	0	373293056	22	5854
2026-01-20 00:05:08.80	28.14	30.71	-31.3	-35.6	11.5	8.86e-04	0	44	0	375390208	22	5879
2026-01-20 00:05:09.81	28.22	30.91	-31.6	-35.9	10.9	1.40e-03	0	44	0	377487360	23	5910
2026-01-20 00:05:10.81	28.31	31.10	-31.5	-35.8	10.9	2.62e-03	0	44	0	379584512	23	5901
2026-01-20 00:05:11.81	28.39	31.29	-31.7	-36.3	10.6	2.47e-03	0	44	0	380633088	23	6120
2026-01-20 00:05:12.81	28.48	31.48	-31.7	-36.2	10.7	4.02e-03	0	44	0	382730240	23	6055
2026-01-20 00:05:13.82	28.57	31.68	-31.8	-36.6	10.4	3.97e-03	0	44	0	384827392	23	6246
2026-01-20 00:05:14.83	28.66	31.88	-31.7	-36.3	10.6	4.77e-03	0	44	0	386924544	23	6093
2026-01-20 00:05:15.84	28.75	32.08	-31.8	-36.5	10.5	3.86e-03	0	44	0	389021696	23	6202
2026-01-20 00:05:16.83	28.84	32.27	-31.7	-36.2	10.7	3.36e-03	0	44	0	390070272	23	6054
2026-01-20 00:05:17.83	28.94	32.47	-31.5	-35.8	11.0	1.98e-03	0	44	0	392167424	23	5858
2026-01-20 00:05:18.83	29.03	32.67	-31.5	-35.5	11.2	2.11e-03	0	44	0	394264576	23	5721
2026-01-20 00:05:19.83	29.13	32.88	-31.5	-35.5	11.2	1.36e-03	0	44	0	396361728	23	5732
2026-01-20 00:05:20.83	29.22	33.08	-31.3	-35.1	11.5	9.81e-04	0	44	0	398458880	23	5556
2026-01-20 00:05:21.83	29.32	33.28	-31.2	-34.7	11.8	5.81e-04	0	44	0	399507456	23	5383
2026-01-20 00:05:22.83	29.42	33.49	-31.1	-34.3	12.1	3.79e-04	0	44	0	401604608	23	5209
2026-01-20 00:05:23.83	29.52	33.70	-31.1	-34.3	12.1	2.87e-04	0	44	0	403701760	23	5220
2026-01-20 00:05:24.83	29.62	33.91	-31.1	-34.3	12.1	2.77e-04	0	44	0	405798912	23	5194
2026-01-20 00:05:25.84	29.72	34.12	-31.0	-34.1	12.2	2.20e-04	0	44	0	407896064	23	5124
2026-01-20 00:05:26.84	29.83	34.33	-31.2	-34.7	11.8	3.11e-04	0	44	0	408944640	23	5379
2026-01-20 00:05:27.85	29.93	34.55	-31.1	-34.4	12.0	3.67e-04	0	44	0	411041792	23	5262
2026-01-20 00:05:28.85	30.04	34.76	-31.0	-34.1	12.2	2.54e-04	0	44	0	413138944	23	5140
2026-01-20 00:05:29.85	30.15	34.98	-31.1	-34.4	12.0	2.83e-04	0	44	0	415236096	23	5264
2026-01-20 00:05:30.85	30.26	35.19	-31.2	-34.7	11.9	3.96e-04	0	44	0	416284672	23	5356
2026-01-20 00:05:31.85	30.37	35.41	-31.2	-34.6	11.9	4.07e-04	0	44	0	418381824	23	5326
2026-01-20 00:05:32.86	30.48	35.63	-31.3	-35.1	11.6	6.40e-04	0	44	0	420478976	23	5536
2026-01-20 00:05:33.86	30.59	35.85	-31.4	-35.1	11.5	7.29e-04	0	44	0	422576128	23	5555
2026-01-20 00:05:34.86	30.71	36.08	-31.5	-35.7	11.1	1.19e-03	0	44	0	424673280	23	5809
2026-01-20 00:05:35.86	30.83	36.30	-31.5	-35.5	11.3	1.43e-03	0	44	0	425721856	23	5703
2026-01-20 00:05:36.86	30.94	36.53	-31.5	-35.6	11.2	1.19e-03	0	44	0	427819008	23	5756
2026-01-20 00:05:37.87	31.06	36.76	-31.6	-35.9	11.0	1.51e-03	0	44	0	429916160	23	5902
2026-01-20 00:05:38.87	31.19	36.98	-31.6	-36.0	10.9	1.99e-03	0	44	0	432013312	23	5961
2026-01-20 00:05:39.87	31.31	37.21	-31.8	-36.6	10.5	3.01e-03	0	44	0	434110464	23	6243
2026-01-20 00:05:40.87	31.43	37.45	-32.0	-37.1	10.0	6.28e-03	0	44	0	435159040	23	6523
2026-01-20 00:05:41.87	31.56	37.68	-31.9	-36.8	10.4	5.11e-03	0	44	0	437256192	23	6329
2026-01-20 00:05:42.88	31.69	37.91	-32.0	-37.1	10.1	6.51e-03	0	44	0	439353344	23	6503
2026-01-20 00:05:43.88	31.82	38.15	-32.0	-36.7	10.0	7.26e-03	0	44	0	441450496	24	6210
2026-01-20 00:05:44.89	31.95	38.39	-32.0	-36.8	10.0	7.81e-03	0	44	0	443547648	24	6252
2026-01-20 00:05:45.89	32.09	38.63	-32.1	-37.1	9.8	9.80e-03	0	44	0	444596224	24	6408
2026-01-20 00:05:46.89	32.22	38.87	-32.2	-37.4	9.5	1.26e-02	0	44	0	446693376	24	6579
2026-01-20 00:05:47.89	32.36	39.11	-32.3	-37.6	9.4	1.48e-02	0	44	0	448790528	24	6703
2026-01-20 00:05:48.89	32.50	39.36	-32.4	-38.3	8.9	2.63e-02	0	44	0	450887680	24	7109
2026-01-20 00:05:49.89	32.64	39.60	-32.3	-37.8	9.2	2.51e-02	0	44	0	452984832	24	6794
2026-01-20 00:05:50.89	32.78	39.85	-32.3	-37.9	9.2	2.21e-02	0	44	0	454033408	24	6832
2026-01-20 00:05:51.90	32.93	40.10	-32.3	-37.8	9.2	2.02e-02	0	44	0	456130560	24	6778
2026-01-20 00:05:52.90	33.08	40.35	-32.4	-38.4	8.9	2.52e-02	0	44	0	458227712	24	7116
2026-01-20 00:05:53.90	33.23	40.60	-32.3	-37.9	9.2	2.53e-02	0	44	0	460324864	24	6839
2026-01-20 00:05:54.90	33.38	40.85	-32.3	-37.7	9.3	1.80e-02	0	44	0	461373440	24	6722
2026-01-20 00:05:55.89	33.54	41.10	-32.3	-37.7	9.3	2.06e-02	0	44	0	463470592	24	6740
2026-01-20 00:05:56.89	33.69	41.36	-32.3	-37.9	9.2	2.07e-02	0	44	0	465567744	24	6811
2026-01-20 00:05:57.89	33.85	41.62	-32.1	-37.2	9.7	1.02e-02	0	44	0	467664896	24	6454
2026-01-20 00:05:58.90	34.02	41.88	-32.2	-37.4	9.6	1.19e-02	0	45	0	469762048	24	6528
2026-01-20 00:05:59.90	34.18	42.14	-32.3	-37.6	9.5	1.46e-02	0	44	0	470810624	24	6660
2026-01-20 00:06:00.90	34.35	42.40	-32.2	-37.4	9.6	1.40e-02	0	44	0	472907776	24	6556
2026-01-20 00:06:01.90	34.52	42.67	-32.2	-37.3	9.6	1.18e-02	0	44	0	475004928	24	6510
2026-01-20 00:06:02.91	34.69	42.93	-32.3	-37.8	9.3	1.44e-02	0	44	0	477102080	24	6780
2026-01-20 00:06:03.90	34.87	43.20	-32.1	-37.1	9.8	1.42e-02	0	44	0	479199232	24	6371
2026-01-20 00:06:04.91	35.05	43.47	-32.0	-36.7	10.1	7.64e-03	0	44	0	480247808	24	6178
2026-01-20 00:06:05.91	35.23	43.74	-31.9	-36.4	10.4	4.73e-03	0	44	0	482344960	24	5996
2026-01-20 00:06:06.91	35.41	44.01	-31.9	-36.3	10.5	3.99e-03	0	44	0	484442112	24	5986
2026-01-20 00:06:07.92	35.60	44.29	-32.0	-36.5	10.3	4.96e-03	0	44	0	486539264	24	6040
2026-01-20 00:06:08.92	35.80	44.57	-32.0	-36.6	10.3	5.04e-03	0	44	0	488636416	24	6094
2026-01-20 00:06:09.93	35.99	44.84	-31.9	-36.2	10.6	4.17e-03	0	44	0	489684992	24	5895
2026-01-20 00:06:10.93	36.19	45.12	-31.6	-35.4	11.2	2.66e-03	0	44	0	491782144	24	5543
2026-01-20 00:06:11.94	36.39	45.41	-31.4	-34.7	11.6	1.01e-03	0	44	0	493879296	24	5245
2026-01-20 00:06:12.93	36.59	45.69	-31.4	-34.5	11.8	4.57e-04	0	44	0	495976448	24	5167
2026-01-20 00:06:13.93	36.80	45.97	-31.6	-35.2	11.4	5.74e-04	0	44	0	498073600	24	5458
2026-01-20 00:06:14.93	37.02	46.25	-31.6	-35.1	11.4	9.66e-04	0	44	0	499122176	24	5409
2026-01-20 00:06:15.93	37.23	46.54	-31.8	-35.7	11.0	1.70e-03	0	44	0	501219328	24	5669
2026-01-20 00:06:16.93	37.45	46.83	-31.7	-35.6	11.0	2.07e-03	0	44	0	503316480	24	5639
2026-01-20 00:06:17.93	37.67	47.12	-31.8	-36.0	10.7	2.28e-03	0	44	0	505413632	24	5835
2026-01-20 00:06:18.93	37.90	47.41	-31.8	-35.9	10.8	2.64e-03	0	44	0	506462208	24	5786
2026-01-20 00:06:19.93	38.13	47.70	-31.7	-35.6	11.1	2.09e-03	0	44	0	508559360	24	5612
2026-01-20 00:06:20.94	38.37	48.00	-31.6	-35.3	11.3	1.18e-03	0	44	0	510656512	24	5491
2026-01-20 00:06:21.94	38.61	48.29	-31.8	-35.9	10.8	2.09e-03	0	44	0	512753664	24	5756
2026-01-20 00:06:22.95	38.86	48.59	-31.7	-35.4	11.2	1.72e-03	0	44	0	514850816	24	5515
2026-01-20 00:06:23.95	39.11	48.89	-31.6	-35.0	11.5	1.14e-03	0	44	0	515899392	24	5369
2026-01-20 00:06:24.94	39.37	49.19	-31.3	-34.4	11.9	6.28e-04	0	44	0	517996544	24	5112
2026-01-20 00:06:25.95	39.63	49.49	-31.0	-33.9	12.7	1.25e-04	0	45	0	520093696	23	5018
2026-01-20 00:06:26.95	39.89	49.80	-31.0	-33.9	12.7	5.79e-05	0	44	0	522190848	23	5021
2026-01-20 00:06:27.95	40.16	50.10	-31.0	-33.8	12.7	5.49e-05	0	44	0	524288000	23	4970
2026-01-20 00:06:28.95	40.44	50.41	-31.0	-34.0	12.6	1.05e-04	0	44	0	525336576	23	5071
2026-01-20 00:06:29.95	40.72	50.72	-31.3	-34.7	12.1	2.41e-04	0	44	0	527433728	23	5315
2026-01-20 00:06:30.96	41.01	51.03	-30.9	-33.5	12.9	1.23e-04	0	44	0	529530880	23	4873
2026-01-20 00:06:31.95	41.30	51.33	-30.5	-32.9	13.6	3.43e-05	0	44	0	531628032	22	4762
2026-01-20 00:06:32.95	41.60	51.64	-30.3	-32.8	14.1	1.22e-05	0	44	0	533725184	21	4825
2026-01-20 00:06:33.95	41.91	51.96	-29.9	-31.8	14.7	4.88e-05	0	44	0	534773760	21	4493
2026-01-20 00:06:34.95	42.22	52.27	-29.6	-31.7	15.0	0.00e+00	0	44	0	536870912	20	4570
2026-01-20 00:06:35.96	42.54	52.59	-29.7	-32.4	15.0	3.94e-04	0	45	0	538968064	19	4883
2026-01-20 00:06:36.99	42.88	52.91	-29.3	-31.3	15.7	3.58e-04	0	44	0	541065216	19	4526
2026-01-20 00:06:37.93	43.19	53.21	-29.4	-31.7	15.4	0.00e+00	0	44	0	542113792	19	4655
2026-01-20 00:06:38.93	43.53	53.53	-29.0	-31.0	16.1	0.00e+00	0	44	0	544210944	18	4559
2026-01-20 00:06:39.94	43.88	53.85	-28.7	-30.3	16.6	1.73e-04	0	44	0	546308096	18	4327
2026-01-20 00:06:40.94	44.23	54.17	-28.6	-30.1	16.7	0.00e+00	0	44	0	548405248	18	4289
2026-01-20 00:06:41.94	44.60	54.49	-28.8	-30.6	16.4	0.00e+00	0	44	0	550502400	18	4417
2026-01-20 00:06:42.95	44.97	54.82	-29.0	-31.1	16.1	0.00e+00	0	44	0	551550976	18	4588
2026-01-20 00:06:43.96	45.35	55.14	-29.5	-31.8	15.4	0.00e+00	0	44	0	553648128	19	4681
2026-01-20 00:06:44.96	45.74	55.47	-29.5	-31.9	15.4	1.52e-04	0	44	0	555745280	19	4718
2026-01-20 00:06:45.96	46.14	55.79	-29.7	-32.3	15.1	2.81e-04	0	44	0	557842432	19	4853
2026-01-20 00:06:46.97	46.55	56.12	-30.0	-32.5	14.6	0.00e+00	0	44	0	559939584	20	4845
2026-01-20 00:06:47.97	46.96	56.44	-30.0	-32.6	14.6	4.70e-04	0	44	0	560988160	20	4849
2026-01-20 00:06:48.97	47.39	56.77	-29.9	-32.5	14.6	6.57e-04	0	44	0	563085312	20	4814
2026-01-20 00:06:49.97	47.82	57.09	-30.2	-33.1	14.3	7.00e-07	0	44	0	565182464	20	5039
2026-01-20 00:06:50.97	48.27	57.42	-30.2	-33.1	14.2	1.08e-03	0	44	0	567279616	20	5034
2026-01-20 00:06:51.98	48.73	57.75	-30.6	-33.5	13.6	1.45e-03	0	44	0	568328192	21	5080
2026-01-20 00:06:52.98	49.20	58.08	-30.5	-33.3	13.8	5.30e-06	0	44	0	570425344	21	5003
2026-01-20 00:06:53.98	49.68	58.40	-30.4	-33.2	13.9	1.18e-03	0	44	0	572522496	21	4963
2026-01-20 00:06:54.98	50.17	58.73	-30.2	-33.1	14.3	6.20e-04	0	44	0	574619648	20	5046
2026-01-20 00:06:55.99	50.68	59.06	-30.1	-32.8	14.5	7.00e-07	0	44	0	576716800	20	4902
2026-01-20 00:06:56.99	51.19	59.38	-29.9	-32.3	14.7	7.00e-07	0	44	0	577765376	20	4748
2026-01-20 00:06:57.99	51.72	59.71	-30.1	-32.7	14.5	4.76e-04	0	44	0	579862528	20	4889
2026-01-20 00:06:58.99	52.27	60.03	-29.7	-31.9	15.0	7.00e-07	0	44	0	581959680	20	4605
2026-01-20 00:06:59.99	52.82	60.36	-29.4	-31.5	15.6	0.00e+00	0	44	0	584056832	19	4603
2026-01-20 00:07:00.99	53.39	60.68	-29.3	-31.8	15.7	9.44e-04	0	44	0	586153984	18	4806
2026-01-20 00:07:01.99	53.98	61.01	-29.4	-32.0	15.6	0.00e+00	0	44	0	587202560	18	4849
2026-01-20 00:07:03.00	54.58	61.33	-29.4	-31.9	15.7	1.59e-04	0	44	0	589299712	18	4844
2026-01-20 00:07:04.00	55.20	61.65	-29.4	-32.0	15.7	3.28e-05	0	44	0	591396864	18	4851
2026-01-20 00:07:04.99	55.82	61.97	-29.5	-32.1	15.6	0.00e+00	0	44	0	593494016	18	4901
2026-01-20 00:07:05.99	56.47	62.28	-29.6	-32.1	15.3	1.22e-05	0	44	0	595591168	19	4784
2026-01-20 00:07:07.00	57.14	62.60	-30.0	-32.4	14.7	6.10e-06	0	44	0	596639744	20	4796
2026-01-20 00:07:08.01	57.83	62.92	-29.9	-32.4	14.8	0.00e+00	0	44	0	598736896	20	4790
2026-01-20 00:07:09.01	58.54	63.23	-30.4	-33.6	14.0	9.46e-05	0	44	0	600834048	20	5226
2026-01-20 00:07:10.01	59.25	63.54	-30.4	-33.6	14.0	1.67e-05	0	44	0	602931200	20	5212
2026-01-20 00:07:11.02	60.00	63.85	-30.7	-33.8	13.5	6.02e-05	0	44	0	605028352	21	5170
2026-01-20 00:07:12.03	60.77	64.16	-31.1	-34.5	12.8	2.44e-05	0	44	0	606076928	22	5333
2026-01-20 00:07:13.04	61.55	64.47	-31.0	-34.3	12.9	6.10e-05	0	44	0	608174080	22	5269
2026-01-20 00:07:14.04	62.35	64.76	-30.8	-33.6	13.4	1.94e-04	0	44	0	610271232	22	4984
2026-01-20 00:07:15.04	63.17	65.06	-30.4	-32.6	14.0	9.10e-06	0	44	0	612368384	22	4623
2026-01-20 00:07:16.05	64.03	65.36	-30.5	-33.3	13.9	3.80e-06	0	45	0	613416960	21	4987
2026-01-20 00:07:17.05	64.89	65.64	-30.7	-33.8	13.5	2.26e-04	0	44	0	615514112	21	5186
2026-01-20 00:07:18.05	65.78	65.93	-31.1	-34.6	12.7	3.73e-05	0	44	0	617611264	22	5367
2026-01-20 00:07:19.06	66.70	66.21	-30.6	-33.7	13.6	2.21e-05	0	44	0	619708416	21	5147
2026-01-20 00:07:20.06	67.63	66.49	-30.2	-32.5	14.4	1.62e-04	0	44	0	621805568	21	4712
2026-01-20 00:07:21.06	68.59	66.76	-30.0	-32.4	14.8	0.00e+00	0	44	0	623902720	20	4797
2026-01-20 00:07:22.06	69.58	67.02	-29.9	-32.4	14.8	8.62e-05	0	44	0	624951296	20	4766
2026-01-20 00:07:23.06	70.58	67.28	-30.3	-33.4	14.1	7.00e-07	0	44	0	627048448	20	5126
2026-01-20 00:07:24.06	71.62	67.53	-30.5	-33.4	13.8	3.00e-06	0	44	0	629145600	21	5028
2026-01-20 00:07:25.06	72.68	67.78	-30.7	-33.8	13.5	2.36e-05	0	44	0	631242752	21	5182
2026-01-20 00:07:26.07	73.77	68.03	-31.0	-34.6	13.0	1.60e-05	0	44	0	632291328	21	5500
2026-01-20 00:07:27.07	74.88	68.26	-31.0	-34.3	13.0	3.81e-05	0	44	0	634388480	22	5238
2026-01-20 00:07:28.08	76.03	68.49	-31.2	-34.7	12.6	1.73e-04	0	44	0	636485632	22	5425
2026-01-20 00:07:29.08	77.19	68.71	-30.9	-33.9	13.3	1.50e-04	0	44	0	638582784	22	5083
2026-01-20 00:07:30.08	78.38	68.92	-30.8	-34.2	13.4	5.24e-04	0	44	0	640679936	21	5310
2026-01-20 00:07:31.08	79.59	69.13	-30.9	-34.6	13.1	1.65e-04	0	44	0	641728512	21	5474
2026-01-20 00:07:32.08	80.83	69.32	-31.2	-34.7	12.6	2.39e-04	0	44	0	643825664	22	5422
2026-01-20 00:07:33.08	82.09	69.51	-31.3	-35.2	12.3	1.20e-04	0	44	0	645922816	22	5617
2026-01-20 00:07:34.08	83.38	69.69	-31.2	-34.7	12.7	3.13e-04	0	44	0	648019968	22	5392
2026-01-20 00:07:35.08	84.69	69.86	-30.9	-34.0	13.2	2.42e-04	0	44	0	650117120	22	5117
2026-01-20 00:07:36.09	86.04	70.02	-30.6	-33.5	13.8	7.60e-06	0	44	0	651165696	21	5044
2026-01-20 00:07:37.09	87.40	70.17	-30.8	-34.1	13.4	4.50e-06	0	44	0	653262848	21	5271
2026-01-20 00:07:38.09	88.78	70.31	-30.9	-34.5	13.2	5.95e-05	0	44	0	655360000	21	5427
2026-01-20 00:07:39.09	90.17	70.44	-30.8	-34.2	13.4	2.44e-05	0	44	0	657457152	21	5298
2026-01-20 00:07:40.10	91.61	70.55	-30.6	-33.6	13.7	9.90e-06	0	44	0	658505728	21	5102
2026-01-20 00:07:41.10	93.04	70.66	-30.6	-33.6	13.7	1.50e-06	0	44	0	660602880	21	5082
2026-01-20 00:07:42.10	94.49	70.76	-30.4	-33.0	14.1	5.30e-06	0	44	0	662700032	21	4870
2026-01-20 00:07:43.10	95.96	70.84	-30.5	-33.7	14.1	7.00e-07	0	44	0	664797184	20	5226
2026-01-20 00:07:44.11	97.45	70.91	-29.8	-32.0	15.1	0.00e+00	0	44	0	666894336	20	4631
2026-01-20 00:07:45.11	98.94	70.97	-30.0	-32.5	14.8	0.00e+00	0	44	0	668991488	20	4820
2026-01-20 00:07:46.11	100.44	71.02	-30.2	-33.0	14.6	1.36e-04	0	44	0	670040064	20	4961
2026-01-20 00:07:47.12	101.96	71.05	-30.2	-33.0	14.4	1.87e-04	0	44	0	672137216	20	4972
2026-01-20 00:07:48.11	103.45	71.08	-28.5	-30.2	15.7	0.00e+00	0	44	0	674234368	20	4353
2026-01-20 00:07:49.11	104.96	71.09	-29.3	-31.2	16.0	1.98e-04	0	44	0	676331520	19	4470
2026-01-20 00:07:50.11	106.48	71.09	-29.7	-32.3	14.9	1.87e-04	0	44	0	677380096	19	4841
2026-01-20 00:07:51.11	107.99	71.07	-29.8	-32.5	14.0	0.00e+00	0	44	0	679477248	19	4888
2026-01-20 00:07:52.11	109.50	71.05	-30.1	-32.7	14.6	1.96e-04	0	44	0	681574400	20	4872
2026-01-20 00:07:53.11	111.00	71.01	-30.0	-32.8	14.9	1.76e-04	0	44	0	683671552	19	5018
2026-01-20 00:07:54.11	112.50	70.96	-30.0	-32.4	14.7	0.00e+00	0	44	0	685768704	20	4777
2026-01-20 00:07:55.10	113.97	70.90	-30.3	-33.2	14.4	1.87e-04	0	44	0	686817280	20	5029
2026-01-20 00:07:56.10	115.45	70.82	-29.4	-32.4	13.9	1.68e-04	0	44	0	688914432	21	5052
2026-01-20 00:07:57.10	116.91	70.73	-30.3	-32.7	14.4	3.00e-06	0	45	0	691011584	21	4769
2026-01-20 00:07:58.10	118.36	70.64	-30.4	-33.0	14.3	7.00e-07	0	44	0	693108736	21	4853
2026-01-20 00:07:59.10	119.79	70.53	-30.9	-34.4	13.3	4.50e-06	0	44	0	695205888	21	5389
2026-01-20 00:08:00.10	121.20	70.41	-31.1	-34.3	13.1	2.13e-05	0	44	0	696254464	22	5222
2026-01-20 00:08:01.10	122.60	70.28	-31.2	-34.6	13.0	2.82e-05	0	44	0	698351616	22	5355
2026-01-20 00:08:02.11	123.99	70.13	-31.2	-34.7	12.9	1.36e-04	0	44	0	700448768	22	5378
2026-01-20 00:08:03.11	125.34	69.98	-31.3	-35.0	12.6	7.93e-05	0	44	0	702545920	22	5503
2026-01-20 00:08:04.12	126.68	69.82	-31.2	-34.6	12.9	1.93e-04	0	44	0	703594496	22	5322
2026-01-20 00:08:05.13	128.00	69.65	-31.4	-35.1	12.6	1.82e-03	0	44	0	705691648	22	5547
2026-01-20 00:08:06.14	129.30	69.46	-31.2	-34.7	12.9	6.86e-05	0	44	0	707788800	22	5366
2026-01-20 00:08:07.14	130.56	69.27	-31.0	-34.1	13.3	1.10e-04	0	44	0	709885952	22	5144
2026-01-20 00:08:08.14	131.79	69.08	-31.1	-34.4	13.0	5.57e-04	0	44	0	711983104	22	5282
2026-01-20 00:08:09.14	133.00	68.87	-30.9	-33.9	13.4	3.43e-04	0	44	0	713031680	22	5074
2026-01-20 00:08:10.15	134.19	68.65	-31.1	-34.3	13.2	1.14e-05	0	44	0	715128832	22	5238
2026-01-20 00:08:11.15	135.35	68.43	-31.6	-35.5	12.1	6.79e-05	0	44	0	717225984	23	5596
2026-01-20 00:08:12.15	136.48	68.20	-31.5	-35.1	12.2	2.23e-04	0	44	0	719323136	23	5455
2026-01-20 00:08:13.15	137.59	67.96	-31.7	-35.7	11.9	3.01e-04	0	44	0	721420288	23	5699
2026-01-20 00:08:14.15	138.66	67.72	-31.8	-36.2	11.4	5.37e-04	0	44	0	722468864	23	5969
2026-01-20 00:08:15.15	139.72	67.47	-32.2	-36.9	10.5	5.23e-03	0	44	0	724566016	24	6194
2026-01-20 00:08:16.15	140.75	67.21	-31.7	-35.2	11.8	1.05e-03	0	44	0	726663168	24	5411
2026-01-20 00:08:17.15	141.75	66.95	-31.5	-35.2	12.2	3.16e-04	0	44	0	728760320	23	5506
2026-01-20 00:08:18.16	142.74	66.68	-31.6	-35.4	12.1	1.70e-03	0	44	0	730857472	23	5582
2026-01-20 00:08:19.16	143.69	66.41	-31.8	-36.1	11.5	6.95e-04	0	44	0	731906048	23	5921
2026-01-20 00:08:20.17	144.63	66.13	-32.4	-37.6	10.0	3.37e-03	0	44	0	734003200	24	6564
2026-01-20 00:08:21.18	145.54	65.85	-32.4	-37.5	10.2	7.81e-03	0	44	0	736100352	24	6472
2026-01-20 00:08:22.18	146.43	65.56	-32.0	-36.3	10.9	2.96e-03	0	44	0	738197504	24	5890
2026-01-20 00:08:23.19	147.30	65.27	-31.7	-35.8	11.8	1.05e-03	0	44	0	740294656	23	5751
2026-01-20 00:08:24.19	148.13	64.98	-32.0	-36.2	11.1	6.51e-04	0	44	0	741343232	24	5829
2026-01-20 00:08:25.20	148.96	64.68	-31.7	-35.4	11.7	6.45e-04	0	44	0	743440384	24	5478
2026-01-20 00:08:26.20	149.75	64.38	-31.5	-34.6	12.2	6.32e-04	0	44	0	745537536	24	5159
2026-01-20 00:08:27.20	150.53	64.07	-31.4	-34.7	12.5	3.15e-04	0	44	0	747634688	23	5276
2026-01-20 00:08:28.20	151.28	63.77	-31.1	-33.8	13.1	3.35e-05	0	44	0	749731840	23	4945
2026-01-20 00:08:29.21	152.02	63.45	-31.0	-33.5	13.3	2.36e-05	0	44	0	750780416	23	4846
2026-01-20 00:08:30.21	152.74	63.14	-31.3	-34.5	12.6	6.17e-05	0	44	0	752877568	23	5202
2026-01-20 00:08:31.22	153.44	62.83	-31.1	-34.0	13.0	8.39e-05	0	44	0	754974720	23	5010
2026-01-20 00:08:32.22	154.12	62.51	-30.8	-33.5	13.7	1.44e-05	0	44	0	757071872	22	4917
2026-01-20 00:08:33.22	154.79	62.19	-30.3	-32.3	14.4	1.50e-06	0	44	0	759169024	22	4512
2026-01-20 00:08:34.22	155.43	61.87	-30.3	-32.8	14.4	1.50e-06	0	44	0	760217600	21	4795
2026-01-20 00:08:35.22	156.06	61.55	-30.6	-33.6	13.8	7.00e-07	0	44	0	762314752	21	5087
2026-01-20 00:08:36.22	156.67	61.23	-31.2	-34.7	12.8	2.67e-05	0	44	0	764411904	22	5408
2026-01-20 00:08:37.23	157.27	60.91	-31.4	-35.5	12.3	1.12e-04	0	44	0	766509056	22	5724
2026-01-20 00:08:38.23	157.86	60.58	-31.5	-35.1	12.1	2.96e-04	0	44	0	767557632	23	5483
2026-01-20 00:08:39.23	158.42	60.26	-31.8	-36.2	11.4	9.32e-04	0	44	0	769654784	23	5949
2026-01-20 00:08:40.23	158.98	59.93	-31.5	-35.1	12.2	3.82e-04	0	44	0	771751936	23	5454
2026-01-20 00:08:41.24	159.52	59.60	-31.9	-36.4	11.3	4.85e-04	0	44	0	773849088	23	6075
2026-01-20 00:08:42.24	160.05	59.28	-32.6	-38.0	9.2	1.85e-02	0	44	0	775946240	25	6699
2026-01-20 00:08:43.24	160.56	58.95	-32.0	-35.6	11.1	5.28e-03	0	44	0	776994816	25	5458
2026-01-20 00:08:44.24	161.06	58.62	-31.1	-33.8	13.0	6.30e-04	0	44	0	779091968	23	4957
2026-01-20 00:08:45.24	161.55	58.29	-30.9	-33.3	13.5	4.61e-04	0	44	0	781189120	23	4738
2026-01-20 00:08:46.25	162.03	57.96	-31.4	-34.7	12.5	3.20e-05	0	44	0	783286272	23	5281
2026-01-20 00:08:47.25	162.50	57.64	-32.5	-37.6	9.6	4.17e-03	0	44	0	785383424	25	6467
2026-01-20 00:08:48.25	162.95	57.31	-32.5	-37.5	9.6	2.52e-02	0	44	0	786432000	25	6404
2026-01-20 00:08:49.26	163.40	56.98	-31.3	-34.0	12.5	7.09e-04	0	44	0	788529152	24	4939
2026-01-20 00:08:50.26	163.83	56.65	-30.2	-32.5	14.5	1.29e-03	0	45	0	790626304	21	4693
2026-01-20 00:08:51.26	164.25	56.33	-30.3	-33.2	14.4	1.15e-03	0	44	0	792723456	20	5037
2026-01-20 00:08:52.26	164.67	56.00	-31.2	-34.6	12.8	2.89e-05	0	44	0	794820608	22	5349
2026-01-20 00:08:53.26	165.07	55.67	-31.6	-35.4	11.9	1.22e-03	0	44	0	795869184	23	5599
2026-01-20 00:08:54.26	165.47	55.35	-31.0	-34.2	13.0	1.12e-03	0	44	0	797966336	22	5214
2026-01-20 00:08:55.26	165.85	55.03	-29.6	-31.6	15.3	4.50e-06	0	44	0	800063488	20	4518
2026-01-20 00:08:56.26	166.23	54.70	-28.1	-29.3	17.5	0.00e+00	0	44	0	802160640	17	4166
2026-01-20 00:08:57.27	166.60	54.38	-26.9	-27.8	18.7	1.51e-04	0	44	0	804257792	15	3988
2026-01-20 00:08:58.27	166.96	54.05	-26.8	-28.0	18.9	0.00e+00	0	44	0	805306368	14	4147
2026-01-20 00:08:59.27	167.32	53.73	-27.7	-29.5	17.9	0.00e+00	0	44	0	807403520	15	4440
2026-01-20 00:09:00.27	167.66	53.41	-28.7	-30.9	16.6	0.00e+00	0	44	0	809500672	17	4624
2026-01-20 00:09:01.28	168.00	53.09	-29.0	-31.0	16.3	0.00e+00	0	44	0	811597824	18	4540
2026-01-20 00:09:02.28	168.33	52.77	-28.1	-29.5	17.5	0.00e+00	0	44	0	812646400	17	4206
2026-01-20 00:09:03.29	168.66	52.45	-27.6	-28.7	18.1	0.00e+00	0	44	0	814743552	16	4113
2026-01-20 00:09:04.29	168.98	52.14	-27.8	-29.1	17.9	0.00e+00	0	44	0	816840704	16	4211
2026-01-20 00:09:05.29	169.29	51.82	-28.6	-30.7	16.8	0.00e+00	0	44	0	818937856	17	4550
2026-01-20 00:09:06.29	169.59	51.51	-29.4	-32.0	15.8	0.00e+00	0	44	0	821035008	18	4849
2026-01-20 00:09:07.29	169.89	51.20	-30.0	-32.6	14.7	0.00e+00	0	44	0	822083584	20	4844
2026-01-20 00:09:08.30	170.18	50.89	-30.3	-33.2	14.3	0.00e+00	0	44	0	824180736	20	5059
2026-01-20 00:09:09.31	170.47	50.57	-30.7	-33.9	13.5	5.30e-06	0	44	0	826277888	21	5197
2026-01-20 00:09:10.32	170.75	50.26	-30.7	-33.9	13.6	1.14e-05	0	44	0	828375040	21	5208
2026-01-20 00:09:11.32	171.03	49.96	-30.6	-33.7	13.7	8.30e-06	0	44	0	830472192	21	5111
2026-01-20 00:09:12.33	171.30	49.65	-30.9	-34.3	13.3	9.90e-06	0	44	0	831520768	21	5332
2026-01-20 00:09:13.33	171.56	49.34	-31.3	-35.1	12.4	4.04e-05	0	44	0	833617920	22	5587
2026-01-20 00:09:14.33	171.82	49.04	-32.3	-37.4	10.0	1.46e-03	0	44	0	835715072	24	6453
2026-01-20 00:09:15.33	172.08	48.74	-32.8	-38.8	8.5	2.18e-02	0	44	0	837812224	25	7192
2026-01-20 00:09:16.34	172.33	48.44	-32.3	-36.7	10.0	1.60e-02	0	44	0	839909376	25	6009
2026-01-20 00:09:17.34	172.57	48.14	-31.2	-34.3	12.5	6.94e-04	0	44	0	840957952	23	5145
2026-01-20 00:09:18.34	172.81	47.84	-30.7	-33.3	13.6	2.97e-05	0	44	0	843055104	22	4868
2026-01-20 00:09:19.34	173.05	47.55	-30.5	-32.9	13.9	5.30e-06	0	44	0	845152256	22	4733
2026-01-20 00:09:20.34	173.28	47.26	-30.7	-33.2	13.6	6.80e-06	0	44	0	847249408	22	4841
2026-01-20 00:09:21.34	173.50	46.96	-30.7	-33.4	13.5	1.06e-05	0	44	0	849346560	22	4920
2026-01-20 00:09:22.34	173.73	46.67	-31.2	-34.7	12.7	4.27e-05	0	44	0	850395136	22	5421
2026-01-20 00:09:23.35	173.95	46.38	-31.4	-35.4	12.2	1.65e-04	0	44	0	852492288	22	5685
2026-01-20 00:09:24.36	174.16	46.09	-31.8	-36.1	11.3	6.74e-04	0	45	0	854589440	23	5928
2026-01-20 00:09:25.37	174.38	45.81	-31.6	-35.4	11.7	9.54e-04	0	44	0	856686592	23	5628
2026-01-20 00:09:26.36	174.58	45.52	-31.1	-34.2	12.7	1.41e-04	0	44	0	858783744	23	5091
2026-01-20 00:09:27.37	174.79	45.24	-30.8	-33.5	13.4	4.34e-05	0	44	0	859832320	22	4903
2026-01-20 00:09:28.37	174.99	44.96	-30.7	-33.4	13.5	1.22e-05	0	44	0	861929472	22	4905
2026-01-20 00:09:29.37	175.18	44.68	-30.7	-33.4	13.5	1.29e-05	0	44	0	864026624	22	4903
2026-01-20 00:09:30.37	175.38	44.40	-30.5	-32.7	13.9	1.50e-06	0	44	0	866123776	22	4673
2026-01-20 00:09:31.38	175.57	44.12	-30.9	-33.8	13.2	1.14e-05	0	44	0	868220928	22	5052
2026-01-20 00:09:32.38	175.76	43.85	-31.4	-35.3	12.2	8.16e-05	0	44	0	869269504	22	5657
2026-01-20 00:09:33.37	175.94	43.58	-31.6	-35.5	11.7	4.26e-04	0	44	0	871366656	23	5648
2026-01-20 00:09:34.37	176.12	43.31	-31.6	-35.5	11.7	8.15e-04	0	44	0	873463808	23	5655
2026-01-20 00:09:35.38	176.30	43.04	-31.3	-34.8	12.3	3.45e-04	0	44	0	875560960	23	5328
2026-01-20 00:09:36.38	176.47	42.77	-31.0	-33.7	12.9	6.94e-05	0	44	0	876609536	23	4911
2026-01-20 00:09:37.39	176.65	42.50	-30.8	-33.6	13.3	5.41e-05	0	44	0	878706688	22	4988
2026-01-20 00:09:38.39	176.81	42.24	-30.7	-33.3	13.5	1.83e-05	0	44	0	880803840	22	4870
2026-01-20 00:09:39.39	176.98	41.97	-30.3	-32.8	14.1	4.50e-06	0	44	0	882900992	21	4804
2026-01-20 00:09:40.39	177.14	41.71	-30.0	-32.1	14.5	2.36e-05	0	44	0	884998144	21	4579
2026-01-20 00:09:41.39	177.31	41.45	-30.4	-33.7	13.9	1.50e-06	0	44	0	886046720	20	5264
2026-01-20 00:09:42.40	177.47	41.19	-31.4	-35.4	12.0	7.62e-05	0	44	0	888143872	22	5732
2026-01-20 00:09:43.40	177.62	40.93	-31.9	-36.6	10.8	1.11e-03	0	44	0	890241024	23	6173
2026-01-20 00:09:44.40	177.78	40.68	-32.5	-38.1	9.3	1.17e-02	0	44	0	892338176	24	6900
2026-01-20 00:09:45.40	177.93	40.43	-32.2	-37.1	10.1	1.25e-02	0	44	0	894435328	24	6328
2026-01-20 00:09:46.41	178.08	40.17	-31.8	-36.1	11.2	3.91e-03	0	44	0	895483904	23	5927
2026-01-20 00:09:47.41	178.23	39.92	-31.5	-35.4	11.8	7.41e-04	0	44	0	897581056	23	5597
2026-01-20 00:09:48.41	178.37	39.67	-31.4	-34.9	12.0	4.41e-04	0	44	0	899678208	23	5407
2026-01-20 00:09:49.41	178.51	39.43	-31.4	-35.5	12.0	3.75e-04	0	44	0	901775360	22	5753
2026-01-20 00:09:50.41	178.65	39.18	-31.3	-35.3	12.1	1.67e-03	0	45	0	903872512	22	5655
2026-01-20 00:09:51.41	178.79	38.94	-31.4	-35.4	12.0	3.97e-04	0	44	0	904921088	22	5709
2026-01-20 00:09:52.40	178.93	38.70	-31.5	-35.4	11.7	5.42e-04	0	44	0	907018240	23	5614
2026-01-20 00:09:53.41	179.06	38.45	-32.0	-36.8	10.7	4.27e-03	0	44	0	909115392	23	6267
2026-01-20 00:09:54.42	179.20	38.21	-32.1	-36.9	10.2	4.43e-03	0	45	0	911212544	24	6236
2026-01-20 00:09:55.43	179.33	37.97	-32.3	-37.3	9.9	1.06e-02	0	44	0	913309696	24	6467
2026-01-20 00:09:56.43	179.46	37.74	-32.2	-37.3	9.9	8.45e-03	0	44	0	914358272	24	6442
2026-01-20 00:09:57.44	179.59	37.50	-32.0	-36.4	10.6	4.94e-03	0	44	0	916455424	24	5971
2026-01-20 00:09:58.44	179.71	37.27	-31.5	-34.8	11.7	1.13e-03	0	44	0	918552576	24	5270
2026-01-20 00:09:59.44	179.84	37.03	-31.2	-34.3	12.4	3.23e-04	0	44	0	920649728	23	5155
2026-01-20 00:10:00.45	179.96	36.80	-30.9	-33.4	13.0	1.82e-04	0	44	0	921698304	23	4816
2026-01-20 00:10:01.45	180.08	36.57	-30.7	-33.5	13.3	2.05e-04	0	44	0	923795456	22	4942
2026-01-20 00:10:02.46	180.20	36.34	-30.7	-33.4	13.3	1.06e-05	0	44	0	925892608	22	4942
2026-01-20 00:10:03.46	180.32	36.12	-30.9	-33.9	13.0	4.65e-05	0	44	0	927989760	22	5120
2026-01-20 00:10:04.46	180.43	35.89	-30.7	-34.1	13.2	2.17e-04	0	44	0	930086912	21	5285
2026-01-20 00:10:05.46	180.55	35.67	-30.7	-33.9	13.3	1.37e-05	0	44	0	931135488	21	5206
2026-01-20 00:10:06.46	180.66	35.45	-30.8	-34.3	13.1	1.91e-04	0	44	0	933232640	21	5372
2026-01-20 00:10:07.46	180.77	35.23	-30.8	-34.2	13.1	2.24e-04	0	44	0	935329792	21	5349
2026-01-20 00:10:08.46	180.88	35.01	-30.9	-34.5	12.9	4.11e-05	0	44	0	937426944	21	5461
2026-01-20 00:10:09.46	180.99	34.79	-31.0	-34.7	12.8	2.17e-04	0	45	0	939524096	21	5541
2026-01-20 00:10:10.47	181.10	34.57	-31.2	-34.8	12.4	1.39e-04	0	44	0	940572672	22	5462
2026-01-20 00:10:11.47	181.20	34.36	-31.3	-35.3	12.1	1.75e-04	0	44	0	942669824	22	5682
2026-01-20 00:10:12.47	181.31	34.15	-31.5	-35.3	11.6	6.21e-04	0	44	0	944766976	23	5603
2026-01-20 00:10:13.48	181.41	33.93	-31.5	-35.2	11.8	7.22e-04	0	44	0	946864128	23	5543
2026-01-20 00:10:14.49	181.51	33.72	-31.3	-34.8	12.0	3.86e-04	0	44	0	948961280	23	5383
2026-01-20 00:10:15.49	181.61	33.51	-31.4	-35.0	11.9	5.01e-04	0	44	0	950009856	23	5447
2026-01-20 00:10:16.50	181.71	33.30	-31.2	-34.6	12.2	5.14e-04	0	44	0	952107008	23	5274
2026-01-20 00:10:17.50	181.81	33.09	-31.2	-34.5	12.2	2.16e-04	0	44	0	954204160	23	5250
2026-01-20 00:10:18.49	181.91	32.89	-31.2	-34.3	12.3	2.78e-04	0	44	0	956301312	23	5177
2026-01-20 00:10:19.49	182.00	32.69	-31.2	-34.4	12.3	2.43e-04	0	44	0	958398464	23	5222
2026-01-20 00:10:20.50	182.10	32.48	-31.1	-34.1	12.4	1.74e-04	0	44	0	959447040	23	5103
2026-01-20 00:10:21.50	182.19	32.28	-31.1	-34.0	12.6	1.24e-04	0	44	0	961544192	23	5061
2026-01-20 00:10:22.50	182.28	32.08	-31.1	-34.3	12.4	2.15e-04	0	44	0	963641344	23	5158
2026-01-20 00:10:23.50	182.38	31.88	-31.3	-34.6	12.1	2.52e-04	0	44	0	965738496	23	5302
2026-01-20 00:10:24.50	182.47	31.69	-31.5	-35.3	11.6	4.90e-04	0	44	0	966787072	23	5575
2026-01-20 00:10:25.50	182.56	31.49	-31.5	-35.5	11.4	8.61e-04	0	44	0	968884224	23	5693
2026-01-20 00:10:26.51	182.64	31.29	-31.6	-35.8	11.2	1.22e-03	0	44	0	970981376	23	5824
2026-01-20 00:10:27.51	182.73	31.10	-31.7	-36.2	11.0	1.89e-03	0	44	0	973078528	23	5995
2026-01-20 00:10:28.52	182.82	30.90	-31.8	-36.3	10.9	2.32e-03	0	44	0	975175680	23	6053
2026-01-20 00:10:29.52	182.90	30.71	-31.7	-36.2	10.9	2.84e-03	0	44	0	976224256	23	6021
2026-01-20 00:10:30.52	182.99	30.52	-31.8	-36.3	10.8	2.50e-03	0	44	0	978321408	23	6059
2026-01-20 00:10:31.52	183.07	30.33	-31.9	-36.6	10.6	3.20e-03	0	44	0	980418560	23	6242
2026-01-20 00:10:32.52	183.15	30.15	-31.8	-36.5	10.7	4.28e-03	0	44	0	982515712	23	6163
2026-01-20 00:10:33.52	183.23	29.96	-31.5	-35.6	11.4	1.96e-03	0	44	0	984612864	23	5730
2026-01-20 00:10:34.53	183.31	29.77	-31.3	-35.5	11.8	5.67e-04	0	44	0	985661440	22	5788
2026-01-20 00:10:35.53	183.39	29.59	-31.1	-34.8	12.3	7.01e-04	0	44	0	987758592	22	5504
2026-01-20 00:10:36.54	183.47	29.40	-31.0	-34.5	12.5	3.42e-04	0	44	0	989855744	22	5361
2026-01-20 00:10:37.54	183.55	29.22	-30.9	-34.6	12.6	8.56e-04	0	44	0	991952896	21	5531
2026-01-20 00:10:38.53	183.63	29.04	-30.8	-34.2	13.0	6.39e-04	0	44	0	994050048	21	5379
2026-01-20 00:10:39.53	183.70	28.86	-30.6	-33.6	13.3	2.13e-05	0	44	0	995098624	21	5141
2026-01-20 00:10:40.54	183.78	28.68	-30.4	-33.3	13.5	7.05e-04	0	44	0	997195776	21	5027
2026-01-20 00:10:41.54	183.86	28.50	-30.6	-33.6	13.3	1.83e-05	0	44	0	999292928	21	5142
2026-01-20 00:10:42.54	183.93	28.33	-30.5	-33.5	13.4	1.29e-05	0	44	0	1001390080	21	5098
2026-01-20 00:10:43.53	184.00	28.15	-30.2	-33.3	13.8	9.54e-04	0	44	0	1003487232	20	5135
2026-01-20 00:10:44.54	184.07	27.98	-30.1	-32.8	14.1	8.79e-04	0	44	0	1004535808	20	4950
2026-01-20 00:10:45.54	184.15	27.80	-30.0	-32.7	14.2	2.20e-06	0	45	0	1006632960	20	4923
2026-01-20 00:10:46.54	184.22	27.63	-30.0	-32.7	14.2	1.28e-03	0	44	0	1008730112	20	4900
2026-01-20 00:10:47.55	184.29	27.46	-29.9	-32.5	14.3	1.48e-03	0	44	0	1010827264	20	4831
2026-01-20 00:10:48.55	184.36	27.29	-29.8	-32.3	14.5	0.00e+00	0	44	0	1012924416	20	4784
2026-01-20 00:10:49.56	184.43	27.12	-29.9	-33.0	14.4	1.49e-03	0	45	0	1013972992	19	5111
2026-01-20 00:10:50.56	184.49	26.95	-30.0	-33.1	14.3	1.51e-03	0	44	0	1016070144	19	5160
2026-01-20 00:10:51.57	184.56	26.78	-30.0	-32.6	14.2	2.20e-06	0	44	0	1018167296	20	4888
2026-01-20 00:10:52.57	184.63	26.61	-30.1	-33.1	13.9	0.00e+00	0	45	0	1020264448	20	5073
2026-01-20 00:10:53.58	184.70	26.45	-30.2	-33.2	13.8	1.71e-03	0	44	0	1021313024	20	5121
2026-01-20 00:10:54.57	184.76	26.28	-30.1	-33.1	13.9	2.46e-04	0	45	0	1023410176	20	5078
2026-01-20 00:10:55.56	184.82	26.12	-30.3	-33.4	13.7	2.20e-06	0	44	0	1025507328	20	5188
2026-01-20 00:10:56.57	184.89	25.96	-30.3	-33.5	13.7	1.68e-03	0	44	0	1027604480	20	5202
2026-01-20 00:10:57.57	184.95	25.80	-30.2	-33.3	13.8	9.38e-05	0	44	0	1029701632	20	5119
2026-01-20 00:10:58.58	185.02	25.64	-30.4	-33.7	13.5	9.90e-06	0	44	0	1030750208	20	5292
2026-01-20 00:10:59.58	185.08	25.48	-30.3	-33.5	13.6	8.30e-06	0	44	0	1032847360	20	5224
2026-01-20 00:11:00.58	185.14	25.32	-30.1	-33.0	13.9	7.85e-05	0	44	0	1034944512	20	5025
2026-01-20 00:11:01.58	185.20	25.16	-30.0	-32.6	14.2	1.50e-06	0	44	0	1037041664	20	4883
2026-01-20 00:11:02.58	185.26	25.00	-29.9	-32.4	14.3	7.00e-07	0	44	0	1039138816	20	4820
2026-01-20 00:11:03.58	185.32	24.85	-29.9	-32.4	14.3	7.00e-07	0	44	0	1040187392	20	4822
2026-01-20 00:11:04.58	185.38	24.69	-29.8	-32.8	14.4	1.73e-03	0	44	0	1042284544	19	5078
2026-01-20 00:11:05.59	185.44	24.54	-29.8	-32.6	14.6	1.50e-06	0	44	0	1044381696	19	4998
2026-01-20 00:11:06.60	185.50	24.38	-29.8	-32.6	14.5	0.00e+00	0	44	0	1046478848	19	5007
2026-01-20 00:11:07.60	185.56	24.23	-29.8	-32.8	14.4	1.68e-03	0	44	0	1048576000	19	5077
2026-01-20 00:11:08.60	185.62	24.08	-30.0	-33.2	14.2	1.50e-06	0	44	0	1049624576	19	5210
2026-01-20 00:11:09.61	185.67	23.92	-30.1	-33.0	13.9	2.20e-06	0	44	0	1051721728	20	5034
2026-01-20 00:11:10.61	185.73	23.78	-30.1	-33.1	13.8	3.80e-06	0	44	0	1053818880	20	5079
2026-01-20 00:11:11.61	185.78	23.63	-29.9	-32.6	14.1	1.50e-06	0	44	0	1055916032	20	4892
2026-01-20 00:11:12.62	185.84	23.48	-30.0	-32.7	14.1	0.00e+00	0	44	0	1058013184	20	4934
2026-01-20 00:11:13.62	185.90	23.33	-30.1	-33.0	13.8	3.00e-06	0	44	0	1059061760	20	5055
2026-01-20 00:11:14.62	185.95	23.18	-30.1	-33.2	13.7	4.50e-06	0	45	0	1061158912	20	5105
2026-01-20 00:11:15.62	186.00	23.04	-30.1	-33.2	13.8	4.50e-06	0	44	0	1063256064	20	5110
2026-01-20 00:11:16.62	186.06	22.89	-30.3	-33.6	13.5	6.10e-06	0	44	0	1065353216	20	5253
2026-01-20 00:11:17.63	186.11	22.75	-30.3	-33.6	13.5	1.90e-05	0	44	0	1067450368	20	5256
2026-01-20 00:11:18.63	186.16	22.60	-30.1	-33.0	13.9	3.00e-06	0	44	0	1068498944	20	5025
2026-01-20 00:11:19.64	186.21	22.46	-30.0	-32.7	14.0	6.10e-06	0	44	0	1070596096	20	4946
2026-01-20 00:11:20.64	186.27	22.32	-29.8	-32.4	14.2	7.00e-07	0	44	0	1072693248	20	4828
2026-01-20 00:11:21.65	186.32	22.17	-29.9	-33.1	14.2	0.00e+00	0	44	0	1074790400	19	5168
2026-01-20 00:11:22.64	186.37	22.04	-30.0	-32.8	14.0	1.50e-06	0	44	0	1075838976	20	4970
2026-01-20 00:11:23.64	186.42	21.90	-30.3	-33.7	13.4	9.90e-06	0	44	0	1077936128	20	5298
2026-01-20 00:11:24.65	186.47	21.76	-30.3	-33.3	13.3	3.12e-05	0	44	0	1080033280	21	5056
2026-01-20 00:11:25.65	186.52	21.62	-30.2	-33.3	13.6	1.22e-05	0	44	0	1082130432	20	5162
2026-01-20 00:11:26.65	186.57	21.48	-29.8	-32.4	14.0	2.20e-06	0	44	0	1084227584	20	4840
2026-01-20 00:11:27.65	186.62	21.34	-29.7	-32.6	14.5	7.00e-07	0	44	0	1085276160	19	4995
2026-01-20 00:11:28.65	186.66	21.21	-29.6	-32.2	14.7	0.00e+00	0	44	0	1087373312	19	4851
2026-01-20 00:11:29.65	186.71	21.07	-29.5	-32.0	14.6	0.00e+00	0	44	0	1089470464	19	4818
2026-01-20 00:11:30.65	186.76	20.94	-29.5	-31.9	15.0	0.00e+00	0	44	0	1091567616	19	4754
2026-01-20 00:11:31.66	186.81	20.80	-29.6	-32.3	14.7	1.50e-06	0	44	0	1093664768	19	4883
2026-01-20 00:11:32.66	186.85	20.67	-29.5	-32.0	14.8	1.84e-04	0	44	0	1094713344	19	4797
2026-01-20 00:11:33.66	186.90	20.54	-29.1	-31.6	14.8	7.00e-07	0	44	0	1096810496	19	4816
2026-01-20 00:11:34.66	186.95	20.41	-28.9	-31.7	14.7	2.20e-06	0	44	0	1098907648	18	4986
2026-01-20 00:11:35.66	186.99	20.27	-29.7	-32.4	14.4	1.62e-04	0	44	0	1101004800	19	4921
2026-01-20 00:11:36.67	187.04	20.14	-29.7	-32.4	13.6	7.00e-07	0	44	0	1103101952	19	4931
2026-01-20 00:11:37.67	187.08	20.01	-29.5	-32.0	14.0	7.00e-07	0	44	0	1104150528	19	4803
2026-01-20 00:11:38.68	187.13	19.88	-29.5	-32.0	14.8	0.00e+00	0	44	0	1106247680	19	4787
2026-01-20 00:11:39.68	187.17	19.75	-29.7	-32.4	14.5	1.35e-04	0	44	0	1108344832	19	4937
2026-01-20 00:11:40.68	187.22	19.63	-29.6	-32.2	14.6	3.00e-06	0	44	0	1110441984	19	4860
2026-01-20 00:11:41.69	187.26	19.50	-29.6	-32.3	14.6	0.00e+00	0	44	0	1112539136	19	4908
2026-01-20 00:11:42.69	187.30	19.37	-29.6	-32.3	14.6	6.30e-04	0	44	0	1113587712	19	4919
2026-01-20 00:11:43.69	187.35	19.25	-29.7	-32.6	14.4	3.00e-06	0	45	0	1115684864	19	5017
2026-01-20 00:11:44.69	187.39	19.12	-29.8	-32.8	14.3	0.00e+00	0	44	0	1117782016	19	5086
2026-01-20 00:11:45.68	187.43	19.00	-29.8	-32.9	14.2	0.00e+00	0	44	0	1119879168	19	5124
2026-01-20 00:11:46.69	187.47	18.87	-29.9	-33.1	14.1	0.00e+00	0	44	0	1120927744	19	5184
2026-01-20 00:11:47.68	187.51	18.75	-29.9	-32.7	13.9	3.80e-06	0	44	0	1123024896	20	4955
2026-01-20 00:11:48.69	187.55	18.63	-29.9	-32.6	13.9	7.00e-07	0	44	0	1125122048	20	4926
2026-01-20 00:11:49.68	187.60	18.51	-30.0	-33.0	13.7	3.23e-04	0	44	0	1127219200	20	5060
2026-01-20 00:11:50.69	187.64	18.38	-30.0	-33.0	13.7	1.31e-04	0	44	0	1129316352	20	5058
2026-01-20 00:11:51.69	187.68	18.26	-30.1	-33.2	13.6	1.14e-05	0	44	0	1130364928	20	5125
2026-01-20 00:11:52.69	187.72	18.14	-30.1	-33.3	13.5	4.50e-06	0	44	0	1132462080	20	5162
2026-01-20 00:11:53.70	187.76	18.02	-30.1	-33.2	13.6	1.38e-04	0	44	0	1134559232	20	5147
2026-01-20 00:11:54.70	187.80	17.90	-30.0	-33.0	13.7	7.60e-06	0	44	0	1136656384	20	5051
2026-01-20 00:11:55.71	187.84	17.78	-30.1	-33.1	13.6	3.80e-06	0	44	0	1138753536	20	5107
2026-01-20 00:11:56.71	187.88	17.66	-30.1	-33.3	13.5	1.49e-04	0	44	0	1139802112	20	5166
2026-01-20 00:11:57.71	187.91	17.54	-30.1	-33.3	13.5	1.50e-04	0	44	0	1141899264	20	5166
2026-01-20 00:11:58.71	187.95	17.43	-30.1	-33.1	13.5	9.10e-06	0	44	0	1143996416	20	5113
2026-01-20 00:11:59.72	187.99	17.31	-30.1	-33.1	13.6	1.55e-04	0	44	0	1146093568	20	5108
2026-01-20 00:12:00.71	188.03	17.20	-30.3	-33.6	13.3	6.95e-04	0	44	0	1148190720	20	5279
2026-01-20 00:12:01.71	188.07	17.08	-30.1	-33.3	13.5	1.44e-05	0	44	0	1149239296	20	5168
2026-01-20 00:12:02.72	188.10	16.96	-30.1	-33.3	13.5	1.22e-05	0	44	0	1151336448	20	5162
2026-01-20 00:12:03.72	188.14	16.85	-30.2	-33.3	13.4	8.46e-04	0	44	0	1153433600	20	5185
2026-01-20 00:12:04.73	188.18	16.73	-30.2	-33.4	13.4	6.44e-04	0	44	0	1155530752	20	5206
2026-01-20 00:12:05.73	188.21	16.62	-30.3	-33.7	13.2	9.10e-06	0	44	0	1157627904	20	5335
2026-01-20 00:12:06.73	188.25	16.51	-30.2	-33.6	13.3	7.38e-04	0	44	0	1158676480	20	5275
2026-01-20 00:12:07.73	188.29	16.40	-30.2	-33.4	13.4	6.48e-04	0	44	0	1160773632	20	5213
2026-01-20 00:12:08.74	188.32	16.28	-30.2	-33.5	13.3	9.99e-05	0	44	0	1162870784	20	5244
2026-01-20 00:12:09.75	188.36	16.17	-30.1	-33.3	13.4	1.37e-05	0	44	0	1164967936	20	5167
2026-01-20 00:12:10.75	188.39	16.06	-30.3	-33.6	13.3	6.07e-04	0	44	0	1167065088	20	5293
2026-01-20 00:12:11.76	188.43	15.95	-30.1	-33.2	13.4	4.88e-05	0	44	0	1168113664	20	5142
2026-01-20 00:12:12.75	188.46	15.84	-30.2	-33.5	13.2	1.14e-05	0	44	0	1170210816	20	5267
2026-01-20 00:12:13.75	188.50	15.73	-30.2	-33.5	13.2	3.61e-04	0	44	0	1172307968	20	5260
2026-01-20 00:12:14.76	188.53	15.62	-30.2	-33.4	13.4	3.58e-05	0	44	0	1174405120	20	5203
2026-01-20 00:12:15.76	188.57	15.51	-30.3	-33.7	13.2	4.42e-05	0	44	0	1175453696	20	5328
2026-01-20 00:12:16.76	188.60	15.40	-30.2	-33.6	13.2	3.24e-04	0	44	0	1177550848	20	5308
2026-01-20 00:12:17.77	188.64	15.30	-30.3	-33.7	13.1	3.89e-05	0	44	0	1179648000	20	5358
2026-01-20 00:12:18.77	188.67	15.19	-30.3	-33.8	13.1	3.80e-04	0	44	0	1181745152	20	5369
2026-01-20 00:12:19.77	188.70	15.08	-30.4	-34.2	12.8	3.20e-05	0	44	0	1183842304	20	5539
2026-01-20 00:12:20.77	188.74	14.98	-30.4	-34.1	12.8	9.76e-05	0	45	0	1184890880	20	5509
2026-01-20 00:12:21.77	188.77	14.87	-30.3	-33.7	13.1	5.46e-04	0	44	0	1186988032	20	5360
2026-01-20 00:12:22.78	188.80	14.77	-30.3	-33.7	13.1	4.59e-04	0	44	0	1189085184	20	5363
2026-01-20 00:12:23.77	188.83	14.66	-30.3	-33.7	13.1	4.27e-05	0	44	0	1191182336	20	5342
2026-01-20 00:12:24.78	188.87	14.56	-30.4	-34.1	12.8	4.38e-04	0	44	0	1193279488	20	5529
2026-01-20 00:12:25.78	188.90	14.45	-30.4	-34.1	12.8	4.65e-04	0	44	0	1194328064	20	5510
2026-01-20 00:12:26.78	188.93	14.35	-30.3	-33.8	12.9	4.50e-05	0	44	0	1196425216	20	5410
2026-01-20 00:12:27.79	188.96	14.25	-30.2	-33.5	13.2	4.76e-04	0	44	0	1198522368	20	5281
2026-01-20 00:12:28.79	188.99	14.14	-30.3	-33.9	12.9	5.97e-04	0	44	0	1200619520	20	5428
2026-01-20 00:12:29.79	189.03	14.04	-30.2	-33.4	13.2	5.11e-05	0	44	0	1202716672	20	5243
2026-01-20 00:12:30.79	189.06	13.94	-30.2	-33.5	13.2	5.97e-04	0	44	0	1203765248	20	5279
2026-01-20 00:12:31.79	189.09	13.84	-30.3	-33.7	13.0	5.86e-04	0	44	0	1205862400	20	5348
2026-01-20 00:12:32.80	189.12	13.74	-30.3	-33.7	13.0	3.05e-05	0	44	0	1207959552	20	5366
2026-01-20 00:12:33.80	189.15	13.64	-30.2	-33.6	13.1	2.44e-05	0	44	0	1210056704	20	5330
2026-01-20 00:12:34.80	189.18	13.54	-30.3	-33.9	12.9	7.15e-04	0	44	0	1211105280	20	5430
2026-01-20 00:12:35.79	189.21	13.44	-30.2	-33.6	13.0	3.28e-05	0	44	0	1213202432	20	5319
2026-01-20 00:12:36.79	189.24	13.34	-30.3	-33.7	13.0	7.91e-04	0	44	0	1215299584	20	5361
2026-01-20 00:12:37.79	189.27	13.24	-30.3	-33.9	12.8	9.71e-04	0	44	0	1217396736	20	5444
2026-01-20 00:12:38.79	189.30	13.14	-30.3	-33.9	12.9	7.32e-05	0	44	0	1219493888	20	5416
2026-01-20 00:12:39.80	189.33	13.04	-30.4	-34.0	12.8	9.87e-04	0	44	0	1220542464	20	5483
2026-01-20 00:12:40.80	189.36	12.94	-30.4	-34.2	12.7	8.54e-05	0	44	0	1222639616	20	5560
2026-01-20 00:12:41.80	189.39	12.85	-30.5	-33.8	12.5	1.18e-04	0	44	0	1224736768	21	5303
2026-01-20 00:12:42.80	189.42	12.75	-30.4	-34.0	12.7	7.93e-04	0	44	0	1226833920	20	5500
2026-01-20 00:12:43.80	189.44	12.65	-30.3	-33.8	12.9	4.73e-05	0	44	0	1228931072	20	5405
2026-01-20 00:12:44.81	189.47	12.56	-30.4	-34.2	12.6	5.95e-05	0	44	0	1229979648	20	5591
2026-01-20 00:12:45.80	189.50	12.46	-30.4	-33.8	12.5	8.01e-04	0	44	0	1232076800	21	5284
2026-01-20 00:12:46.79	189.53	12.37	-30.3	-33.9	12.8	7.43e-04	0	45	0	1234173952	20	5431
2026-01-20 00:12:47.79	189.56	12.27	-30.4	-34.2	12.6	9.30e-05	0	44	0	1236271104	20	5556
2026-01-20 00:12:48.80	189.59	12.18	-30.3	-34.0	12.7	7.16e-04	0	44	0	1237319680	20	5495
2026-01-20 00:12:49.79	189.61	12.08	-30.4	-34.2	12.6	6.51e-04	0	44	0	1239416832	20	5553
2026-01-20 00:12:50.79	189.64	11.99	-30.4	-34.2	12.6	1.11e-04	0	44	0	1241513984	20	5561
2026-01-20 00:12:51.79	189.67	11.90	-30.3	-34.0	12.6	7.93e-05	0	44	0	1243611136	20	5507
2026-01-20 00:12:52.79	189.70	11.80	-30.5	-34.0	12.3	8.81e-04	0	44	0	1245708288	21	5380
2026-01-20 00:12:53.79	189.72	11.71	-30.6	-34.3	12.1	1.93e-04	0	44	0	1246756864	21	5492
2026-01-20 00:12:54.79	189.75	11.62	-30.6	-34.3	12.1	2.67e-04	0	44	0	1248854016	21	5517
2026-01-20 00:12:55.79	189.78	11.53	-30.5	-34.0	12.3	1.95e-04	0	44	0	1250951168	21	5390
2026-01-20 00:12:56.78	189.80	11.43	-30.5	-34.1	12.3	1.59e-04	0	44	0	1253048320	21	5416
2026-01-20 00:12:57.79	189.83	11.34	-30.4	-34.4	12.4	1.05e-03	0	45	0	1255145472	20	5663
2026-01-20 00:12:58.79	189.86	11.25	-30.4	-33.8	12.4	1.75e-04	0	44	0	1256194048	21	5307
2026-01-20 00:12:59.80	189.88	11.16	-30.3	-33.4	12.7	1.15e-04	0	44	0	1258291200	21	5165
2026-01-20 00:13:00.79	189.91	11.07	-30.4	-34.1	12.5	1.00e-03	0	44	0	1260388352	20	5564
2026-01-20 00:13:01.80	189.93	10.98	-30.3	-34.1	12.5	1.16e-04	0	44	0	1262485504	20	5542
2026-01-20 00:13:02.80	189.96	10.89	-30.4	-34.3	12.4	1.18e-04	0	44	0	1264582656	20	5623
2026-01-20 00:13:03.80	189.99	10.80	-30.4	-34.3	12.4	1.25e-03	0	44	0	1265631232	20	5624
2026-01-20 00:13:04.80	190.01	10.71	-30.5	-34.1	12.2	1.15e-03	0	44	0	1267728384	21	5432
2026-01-20 00:13:05.80	190.04	10.62	-30.7	-34.6	11.8	3.10e-04	0	44	0	1269825536	21	5652
2026-01-20 00:13:06.81	190.06	10.53	-30.7	-34.5	11.9	1.64e-03	0	44	0	1271922688	21	5635
2026-01-20 00:13:07.81	190.09	10.44	-30.5	-34.1	12.1	1.40e-03	0	44	0	1274019840	21	5463
2026-01-20 00:13:08.81	190.11	10.36	-30.5	-34.1	12.1	2.36e-04	0	44	0	1275068416	21	5445
2026-01-20 00:13:09.81	190.14	10.27	-30.5	-34.1	12.1	2.30e-04	0	44	0	1277165568	21	5449
2026-01-20 00:13:10.81	190.16	10.18	-30.5	-34.1	12.1	1.50e-03	0	44	0	1279262720	21	5436
2026-01-20 00:13:11.82	190.19	10.09	-30.7	-34.7	11.7	4.57e-04	0	44	0	1281359872	21	5692
2026-01-20 00:13:12.82	190.21	10.01	-30.6	-34.5	11.9	4.68e-04	0	44	0	1282408448	21	5605
2026-01-20 00:13:13.82	190.24	9.92	-30.5	-34.1	12.1	3.40e-04	0	44	0	1284505600	21	5444
2026-01-20 00:13:14.82	190.26	9.83	-30.5	-34.2	12.0	3.17e-04	0	44	0	1286602752	21	5483
