passes_logs/2026/01/20/R2M6_AANII_01/R2M6_AANII_01__20260120_113546_NOAA_20_JPSS-1_rec.log

#Pass ID: 20260120_113546_NOAA 20 (JPSS-1)
#Satellite: NOAA 20 (JPSS-1)
#Configuration: NOAA 20
#almurnet v.1.7.20240730
#Start time: 2026-01-20 11:35:48

#Version: 2.2.20231116
#Station: R2M6_AANII_01
#Location: 30.233357 lon 59.946436 lat
#TLE: 1 43013U 17073A   26019.55911981  .00000079  00000+0  58510-4 0  9994
#TLE: 2 43013  98.7641 320.4504 0001323  32.6518 327.4739 14.19537050423380

#Time	Az	El	Level	Level2	SNR	BER	BlckErr	Temp	State	Recorded	gain1	gain2
2026-01-20 11:35:48.31	201.31	7.11	-30.7	-36.7	5.0	1.25e+00	0	42	0	0	22	7124
2026-01-20 11:35:49.30	201.38	7.17	-30.7	-37.3	4.8	1.30e+00	0	42	104	0	22	7664
2026-01-20 11:35:50.30	201.46	7.24	-30.8	-37.7	6.6	1.80e-01	0	42	0	0	22	8018
2026-01-20 11:35:51.30	201.54	7.31	-30.8	-38.1	6.3	2.50e-01	0	42	0	1048576	22	8267
2026-01-20 11:35:52.30	201.62	7.38	-30.7	-37.3	6.9	2.01e-01	0	42	0	3145728	22	7704
2026-01-20 11:35:53.31	201.69	7.45	-30.7	-36.6	7.6	1.36e-01	0	42	0	5242880	22	7173
2026-01-20 11:35:54.31	201.77	7.52	-30.8	-36.7	8.1	7.50e-02	0	42	0	7340032	22	7057
2026-01-20 11:35:55.32	201.85	7.59	-30.9	-36.3	8.9	3.26e-02	0	42	0	9437184	22	6698
2026-01-20 11:35:56.32	201.93	7.66	-30.9	-35.8	9.8	1.39e-02	0	42	0	10485760	22	6295
2026-01-20 11:35:57.33	202.01	7.73	-31.0	-35.9	10.0	9.52e-03	0	42	0	12582912	22	6270
2026-01-20 11:35:58.34	202.09	7.80	-31.1	-35.8	10.1	7.74e-03	0	42	0	14680064	22	6226
2026-01-20 11:35:59.34	202.17	7.87	-31.1	-35.7	10.3	5.74e-03	0	42	0	16777216	22	6148
2026-01-20 11:36:00.34	202.26	7.94	-31.1	-35.6	10.4	5.82e-03	0	42	0	17825792	22	6072
2026-01-20 11:36:01.34	202.34	8.02	-31.1	-35.6	10.3	5.10e-03	0	42	0	19922944	22	6101
2026-01-20 11:36:02.34	202.42	8.09	-31.0	-35.6	10.3	8.45e-03	0	42	0	22020096	22	6101
2026-01-20 11:36:03.34	202.50	8.16	-31.0	-35.5	10.3	5.25e-03	0	43	0	24117248	22	6071
2026-01-20 11:36:04.35	202.58	8.23	-30.9	-35.3	10.3	5.31e-03	0	42	0	26214400	22	5979
2026-01-20 11:36:05.35	202.67	8.30	-30.8	-35.0	10.5	5.03e-03	0	42	0	27262976	22	5854
2026-01-20 11:36:06.36	202.75	8.37	-30.9	-35.4	10.2	4.85e-03	0	43	0	29360128	22	6068
2026-01-20 11:36:07.36	202.83	8.44	-30.9	-35.5	10.1	5.78e-03	0	42	0	31457280	22	6109
2026-01-20 11:36:08.36	202.92	8.52	-30.9	-35.3	10.4	4.61e-03	0	42	0	33554432	22	5978
2026-01-20 11:36:09.37	203.00	8.59	-30.8	-35.1	10.6	3.91e-03	0	43	0	35651584	22	5854
2026-01-20 11:36:10.37	203.09	8.66	-30.9	-35.3	10.5	4.07e-03	0	43	0	36700160	22	5938
2026-01-20 11:36:11.38	203.17	8.73	-30.9	-35.3	10.5	4.69e-03	0	43	0	38797312	22	5973
2026-01-20 11:36:12.38	203.26	8.81	-30.8	-34.9	10.8	2.85e-03	0	43	0	40894464	22	5752
2026-01-20 11:36:13.37	203.34	8.88	-31.0	-35.4	10.5	3.78e-03	0	43	0	42991616	22	5989
2026-01-20 11:36:14.38	203.43	8.95	-31.0	-35.6	10.3	3.53e-03	0	43	0	45088768	22	6105
2026-01-20 11:36:15.38	203.52	9.02	-30.8	-34.9	10.9	2.73e-03	0	42	0	46137344	22	5725
2026-01-20 11:36:16.38	203.60	9.10	-30.9	-34.9	10.9	1.95e-03	0	43	0	48234496	22	5741
2026-01-20 11:36:17.38	203.69	9.17	-30.9	-35.1	10.8	2.35e-03	0	43	0	50331648	22	5805
2026-01-20 11:36:18.38	203.78	9.24	-30.8	-34.7	11.0	1.95e-03	0	43	0	52428800	22	5655
2026-01-20 11:36:19.38	203.87	9.32	-30.6	-34.1	11.3	1.46e-03	0	43	0	54525952	22	5392
2026-01-20 11:36:20.38	203.96	9.39	-30.6	-34.2	11.2	1.08e-03	0	43	0	55574528	22	5450
2026-01-20 11:36:21.38	204.05	9.46	-30.5	-34.1	11.2	1.69e-03	0	43	0	57671680	22	5403
2026-01-20 11:36:22.38	204.14	9.54	-30.5	-33.9	11.3	1.56e-03	0	43	0	59768832	22	5327
2026-01-20 11:36:23.38	204.23	9.61	-30.5	-34.1	11.2	1.18e-03	0	43	0	61865984	22	5421
2026-01-20 11:36:24.39	204.32	9.69	-30.6	-34.3	11.1	1.20e-03	0	43	0	62914560	22	5494
2026-01-20 11:36:25.39	204.41	9.76	-30.5	-34.0	11.2	1.52e-03	0	43	0	65011712	22	5391
2026-01-20 11:36:26.39	204.50	9.84	-30.6	-34.3	11.0	1.61e-03	0	43	0	67108864	22	5499
2026-01-20 11:36:27.39	204.59	9.91	-30.5	-34.0	11.2	1.49e-03	0	43	0	69206016	22	5383
2026-01-20 11:36:28.40	204.68	9.99	-30.5	-34.2	11.0	1.42e-03	0	43	0	71303168	22	5467
2026-01-20 11:36:29.40	204.78	10.06	-30.6	-34.3	11.0	1.79e-03	0	43	0	72351744	22	5512
2026-01-20 11:36:30.41	204.87	10.14	-30.5	-34.1	11.1	1.47e-03	0	43	0	74448896	22	5417
2026-01-20 11:36:31.41	204.97	10.21	-30.5	-34.0	11.2	1.57e-03	0	43	0	76546048	22	5391
2026-01-20 11:36:32.42	205.06	10.29	-30.7	-34.5	11.0	2.33e-03	0	43	0	78643200	22	5590
2026-01-20 11:36:33.41	205.15	10.36	-30.7	-34.4	11.1	1.60e-03	0	43	0	80740352	22	5517
2026-01-20 11:36:34.42	205.25	10.44	-30.8	-34.7	10.9	1.45e-03	0	43	0	81788928	22	5682
2026-01-20 11:36:35.42	205.35	10.52	-30.8	-34.8	10.9	2.55e-03	0	43	0	83886080	22	5713
2026-01-20 11:36:36.42	205.44	10.59	-30.7	-34.3	11.4	1.53e-03	0	43	0	85983232	22	5453
2026-01-20 11:36:37.42	205.54	10.67	-30.6	-33.9	11.8	6.07e-04	0	43	0	88080384	22	5276
2026-01-20 11:36:38.42	205.64	10.74	-30.5	-33.7	12.1	3.36e-04	0	43	0	90177536	22	5169
2026-01-20 11:36:39.43	205.73	10.82	-30.6	-33.8	12.0	3.13e-04	0	43	0	91226112	22	5227
2026-01-20 11:36:40.43	205.83	10.90	-30.6	-33.9	12.0	3.07e-04	0	43	0	93323264	22	5248
2026-01-20 11:36:41.44	205.93	10.98	-30.7	-33.9	12.0	5.35e-04	0	43	0	95420416	22	5263
2026-01-20 11:36:42.44	206.03	11.05	-30.5	-33.5	12.4	2.01e-04	0	43	0	97517568	22	5066
2026-01-20 11:36:43.44	206.13	11.13	-30.4	-33.2	12.5	1.24e-04	0	43	0	99614720	22	4982
2026-01-20 11:36:44.44	206.23	11.21	-30.3	-32.9	12.8	7.70e-05	0	43	0	100663296	22	4855
2026-01-20 11:36:45.44	206.33	11.29	-30.3	-33.4	12.8	4.34e-05	0	43	0	102760448	21	5127
2026-01-20 11:36:46.44	206.43	11.36	-30.2	-33.2	12.9	6.02e-05	0	43	0	104857600	21	5083
2026-01-20 11:36:47.45	206.53	11.44	-30.4	-33.8	12.6	6.71e-05	0	44	0	106954752	21	5284
2026-01-20 11:36:48.45	206.64	11.52	-30.2	-33.2	12.9	9.76e-05	0	43	0	108003328	21	5076
2026-01-20 11:36:49.46	206.74	11.60	-30.3	-33.5	12.7	5.18e-05	0	43	0	110100480	21	5174
2026-01-20 11:36:50.46	206.84	11.68	-30.3	-33.5	12.7	6.71e-05	0	43	0	112197632	21	5193
2026-01-20 11:36:51.46	206.95	11.76	-30.3	-33.4	12.8	6.25e-05	0	43	0	114294784	21	5148
2026-01-20 11:36:52.45	207.05	11.84	-30.2	-33.2	12.9	6.25e-05	0	43	0	116391936	21	5067
2026-01-20 11:36:53.44	207.15	11.91	-30.3	-33.5	12.7	5.49e-05	0	43	0	117440512	21	5202
2026-01-20 11:36:54.44	207.26	11.99	-30.2	-33.2	12.9	6.79e-05	0	43	0	119537664	21	5072
2026-01-20 11:36:55.45	207.37	12.07	-30.1	-32.9	13.1	4.42e-05	0	43	0	121634816	21	4951
2026-01-20 11:36:56.45	207.47	12.15	-30.2	-33.0	13.1	3.05e-05	0	43	0	123731968	21	5009
2026-01-20 11:36:57.44	207.58	12.23	-30.2	-33.0	13.1	3.35e-05	0	43	0	125829120	21	4988
2026-01-20 11:36:58.45	207.69	12.31	-30.2	-33.1	13.1	3.43e-05	0	43	0	126877696	21	5009
2026-01-20 11:36:59.45	207.80	12.39	-30.2	-33.0	13.1	2.89e-05	0	44	0	128974848	21	4977
2026-01-20 11:37:00.46	207.91	12.47	-30.2	-33.2	13.0	4.04e-05	0	43	0	131072000	21	5059
2026-01-20 11:37:01.46	208.01	12.56	-30.2	-33.2	13.0	4.80e-05	0	43	0	133169152	21	5059
2026-01-20 11:37:02.46	208.12	12.64	-30.2	-33.1	13.1	3.35e-05	0	43	0	135266304	21	5020
2026-01-20 11:37:03.46	208.23	12.72	-30.1	-32.9	13.2	1.29e-05	0	43	0	136314880	21	4934
2026-01-20 11:37:04.47	208.35	12.80	-30.2	-33.1	13.1	5.49e-05	0	43	0	138412032	21	5013
2026-01-20 11:37:05.47	208.46	12.88	-30.2	-33.1	13.1	4.04e-05	0	43	0	140509184	21	5012
2026-01-20 11:37:06.47	208.57	12.96	-30.1	-32.8	13.3	2.59e-05	0	44	0	142606336	21	4893
2026-01-20 11:37:07.47	208.68	13.04	-30.1	-32.8	13.3	2.28e-05	0	43	0	144703488	21	4909
2026-01-20 11:37:08.47	208.80	13.12	-30.1	-32.7	13.3	2.36e-05	0	44	0	145752064	21	4883
2026-01-20 11:37:09.47	208.91	13.21	-30.1	-32.9	13.2	1.22e-05	0	43	0	147849216	21	4933
2026-01-20 11:37:10.48	209.03	13.29	-30.1	-32.7	13.3	2.05e-05	0	43	0	149946368	21	4882
2026-01-20 11:37:11.48	209.14	13.37	-30.0	-32.6	13.4	1.37e-05	0	44	0	152043520	21	4849
2026-01-20 11:37:12.48	209.26	13.45	-30.2	-32.9	13.2	1.52e-05	0	44	0	153092096	21	4958
2026-01-20 11:37:13.48	209.37	13.54	-30.1	-32.8	13.3	3.12e-05	0	43	0	155189248	21	4916
2026-01-20 11:37:14.49	209.49	13.62	-30.1	-32.7	13.4	1.98e-05	0	43	0	157286400	21	4872
2026-01-20 11:37:15.49	209.61	13.70	-30.1	-32.7	13.3	2.21e-05	0	44	0	159383552	21	4885
2026-01-20 11:37:16.49	209.73	13.79	-30.2	-32.9	13.3	8.30e-06	0	44	0	161480704	21	4944
2026-01-20 11:37:17.50	209.85	13.87	-30.2	-33.0	13.2	2.13e-05	0	43	0	162529280	21	4985
2026-01-20 11:37:18.50	209.97	13.95	-30.2	-33.1	13.1	2.44e-05	0	44	0	164626432	21	5022
2026-01-20 11:37:19.51	210.09	14.04	-30.1	-32.9	13.3	1.60e-05	0	44	0	166723584	21	4947
2026-01-20 11:37:20.51	210.21	14.12	-30.3	-33.2	13.1	2.44e-05	0	44	0	168820736	21	5043
2026-01-20 11:37:21.52	210.33	14.21	-30.2	-33.1	13.2	3.73e-05	0	44	0	170917888	21	5016
2026-01-20 11:37:22.52	210.46	14.29	-30.2	-33.1	13.2	1.14e-05	0	44	0	171966464	21	5011
2026-01-20 11:37:23.52	210.58	14.37	-30.3	-33.3	13.1	1.75e-05	0	44	0	174063616	21	5085
2026-01-20 11:37:24.52	210.70	14.46	-30.3	-33.4	13.0	4.11e-05	0	44	0	176160768	21	5123
2026-01-20 11:37:25.52	210.83	14.54	-30.4	-33.5	13.0	4.04e-05	0	44	0	178257920	21	5146
2026-01-20 11:37:26.52	210.95	14.63	-30.3	-33.4	13.0	6.17e-05	0	44	0	180355072	21	5116
2026-01-20 11:37:27.52	211.08	14.71	-30.5	-33.8	12.8	5.18e-05	0	44	0	181403648	21	5266
2026-01-20 11:37:28.53	211.21	14.80	-30.5	-33.9	12.6	1.12e-04	0	44	0	183500800	21	5332
2026-01-20 11:37:29.53	211.33	14.88	-30.6	-34.2	12.5	8.39e-05	0	44	0	185597952	21	5429
2026-01-20 11:37:30.53	211.46	14.97	-30.6	-34.3	12.5	1.10e-04	0	44	0	187695104	21	5455
2026-01-20 11:37:31.54	211.59	15.06	-30.6	-34.2	12.5	1.47e-04	0	44	0	189792256	21	5420
2026-01-20 11:37:32.54	211.72	15.14	-30.8	-34.7	12.2	1.61e-04	0	44	0	190840832	21	5654
2026-01-20 11:37:33.54	211.85	15.23	-30.9	-35.0	11.9	3.55e-04	0	44	0	192937984	21	5773
2026-01-20 11:37:34.55	211.98	15.32	-30.9	-35.1	11.9	2.82e-04	0	44	0	195035136	21	5824
2026-01-20 11:37:35.55	212.11	15.40	-30.9	-34.9	12.0	4.66e-04	0	44	0	197132288	21	5747
2026-01-20 11:37:36.56	212.25	15.49	-30.8	-34.7	12.2	2.53e-04	0	44	0	199229440	21	5630
2026-01-20 11:37:37.56	212.38	15.58	-30.6	-34.3	12.5	1.32e-04	0	44	0	200278016	21	5456
2026-01-20 11:37:38.57	212.51	15.66	-30.6	-34.1	12.6	7.78e-05	0	44	0	202375168	21	5396
2026-01-20 11:37:39.56	212.65	15.75	-30.6	-34.2	12.6	7.32e-05	0	44	0	204472320	21	5427
2026-01-20 11:37:40.57	212.78	15.84	-30.5	-33.9	12.8	7.55e-05	0	44	0	206569472	21	5298
2026-01-20 11:37:41.56	212.92	15.92	-30.5	-33.8	12.9	5.79e-05	0	44	0	208666624	21	5253
2026-01-20 11:37:42.56	213.06	16.01	-30.5	-33.8	12.8	6.17e-05	0	44	0	209715200	21	5278
2026-01-20 11:37:43.57	213.19	16.10	-30.5	-33.7	12.9	6.33e-05	0	44	0	211812352	21	5240
2026-01-20 11:37:44.58	213.33	16.19	-30.6	-34.0	12.7	7.47e-05	0	44	0	213909504	21	5332
2026-01-20 11:37:45.59	213.47	16.28	-30.7	-34.4	12.5	8.08e-05	0	44	0	216006656	21	5503
2026-01-20 11:37:46.59	213.61	16.37	-30.8	-34.6	12.4	2.01e-04	0	44	0	217055232	21	5570
2026-01-20 11:37:47.59	213.75	16.45	-30.8	-34.6	12.3	1.67e-04	0	44	0	219152384	21	5580
2026-01-20 11:37:48.59	213.90	16.54	-30.9	-34.8	12.2	2.36e-04	0	44	0	221249536	21	5685
2026-01-20 11:37:49.60	214.04	16.63	-30.9	-34.8	12.2	2.28e-04	0	44	0	223346688	21	5685
2026-01-20 11:37:50.60	214.18	16.72	-30.9	-35.0	12.0	2.39e-04	0	44	0	225443840	21	5780
2026-01-20 11:37:51.60	214.33	16.81	-30.9	-34.9	12.1	3.12e-04	0	44	0	226492416	21	5705
2026-01-20 11:37:52.60	214.47	16.90	-30.8	-34.8	12.2	2.08e-04	0	44	0	228589568	21	5663
2026-01-20 11:37:53.60	214.62	16.99	-30.9	-34.9	12.2	2.12e-04	0	44	0	230686720	21	5709
2026-01-20 11:37:54.61	214.77	17.08	-31.0	-35.2	11.9	2.57e-04	0	44	0	232783872	21	5843
2026-01-20 11:37:55.61	214.91	17.17	-31.2	-35.3	11.5	5.37e-04	0	44	0	234881024	22	5791
2026-01-20 11:37:56.61	215.06	17.26	-31.2	-35.4	11.5	1.13e-03	0	44	0	235929600	22	5812
2026-01-20 11:37:57.61	215.21	17.35	-31.0	-34.7	12.0	3.83e-04	0	44	0	238026752	22	5515
2026-01-20 11:37:58.61	215.36	17.44	-30.9	-34.3	12.3	2.25e-04	0	44	0	240123904	22	5325
2026-01-20 11:37:59.61	215.51	17.53	-30.8	-33.9	12.6	1.30e-04	0	44	0	242221056	22	5169
2026-01-20 11:38:00.61	215.66	17.62	-30.7	-33.8	12.6	7.85e-05	0	44	0	244318208	22	5136
2026-01-20 11:38:01.61	215.81	17.71	-30.6	-33.6	12.8	6.56e-05	0	44	0	245366784	22	5051
2026-01-20 11:38:02.61	215.97	17.80	-30.7	-33.8	12.7	7.01e-05	0	44	0	247463936	22	5124
2026-01-20 11:38:03.61	216.12	17.89	-30.8	-34.0	12.5	5.87e-05	0	44	0	249561088	22	5207
2026-01-20 11:38:04.62	216.28	17.98	-30.7	-33.7	12.8	9.53e-05	0	44	0	251658240	22	5079
2026-01-20 11:38:05.62	216.44	18.07	-30.5	-33.2	13.0	3.89e-05	0	44	0	253755392	22	4922
2026-01-20 11:38:06.62	216.59	18.16	-30.5	-33.2	13.1	2.74e-05	0	44	0	254803968	22	4908
2026-01-20 11:38:07.62	216.75	18.25	-30.4	-33.0	13.2	1.98e-05	0	44	0	256901120	22	4827
2026-01-20 11:38:08.63	216.91	18.35	-30.4	-32.9	13.3	2.21e-05	0	44	0	258998272	22	4809
2026-01-20 11:38:09.63	217.07	18.44	-30.5	-33.1	13.2	3.50e-05	0	44	0	261095424	22	4878
2026-01-20 11:38:10.63	217.23	18.53	-30.4	-33.0	13.2	3.20e-05	0	44	0	262144000	22	4843
2026-01-20 11:38:11.63	217.39	18.62	-30.3	-32.7	13.5	1.52e-05	0	44	0	264241152	22	4725
2026-01-20 11:38:12.63	217.56	18.71	-30.4	-32.9	13.3	1.22e-05	0	44	0	266338304	22	4789
2026-01-20 11:38:13.63	217.72	18.81	-30.3	-32.7	13.4	1.52e-05	0	44	0	268435456	22	4731
2026-01-20 11:38:14.64	217.89	18.90	-30.4	-32.9	13.3	4.50e-06	0	44	0	270532608	22	4818
2026-01-20 11:38:15.64	218.05	18.99	-30.5	-33.0	13.2	1.90e-05	0	44	0	271581184	22	4845
2026-01-20 11:38:16.63	218.22	19.08	-30.4	-32.8	13.4	2.59e-05	0	44	0	273678336	22	4773
2026-01-20 11:38:17.63	218.38	19.17	-30.3	-32.6	13.5	1.44e-05	0	44	0	275775488	22	4703
2026-01-20 11:38:18.64	218.55	19.27	-30.4	-32.8	13.4	1.06e-05	0	44	0	277872640	22	4759
2026-01-20 11:38:19.63	218.72	19.36	-30.3	-32.6	13.5	1.37e-05	0	44	0	279969792	22	4702
2026-01-20 11:38:20.62	218.89	19.45	-30.3	-33.0	13.6	9.90e-06	0	44	0	281018368	21	4953
2026-01-20 11:38:21.63	219.06	19.55	-30.4	-33.3	13.4	1.06e-05	0	44	0	283115520	21	5058
2026-01-20 11:38:22.63	219.24	19.64	-30.4	-33.3	13.4	1.14e-05	0	44	0	285212672	21	5045
2026-01-20 11:38:23.63	219.41	19.73	-30.5	-33.5	13.3	1.52e-05	0	44	0	287309824	21	5129
2026-01-20 11:38:24.63	219.58	19.82	-30.4	-33.4	13.3	2.82e-05	0	44	0	289406976	21	5071
2026-01-20 11:38:25.64	219.76	19.92	-30.4	-33.3	13.4	1.29e-05	0	44	0	290455552	21	5060
2026-01-20 11:38:26.64	219.94	20.01	-30.4	-33.2	13.5	1.52e-05	0	44	0	292552704	21	5013
2026-01-20 11:38:27.64	220.11	20.11	-30.3	-33.0	13.6	1.37e-05	0	44	0	294649856	21	4931
2026-01-20 11:38:28.64	220.29	20.20	-30.2	-32.7	13.8	3.00e-06	0	44	0	296747008	21	4827
2026-01-20 11:38:29.65	220.48	20.29	-30.1	-32.6	13.9	1.50e-06	0	44	0	297795584	21	4787
2026-01-20 11:38:30.65	220.66	20.39	-30.1	-32.6	13.9	1.50e-06	0	44	0	299892736	21	4803
2026-01-20 11:38:31.66	220.84	20.48	-30.0	-32.3	14.1	2.20e-06	0	44	0	301989888	21	4700
2026-01-20 11:38:32.66	221.02	20.57	-29.9	-32.0	14.2	2.20e-06	0	44	0	304087040	21	4605
2026-01-20 11:38:33.66	221.21	20.67	-29.9	-31.9	14.4	0.00e+00	0	44	0	306184192	21	4550
2026-01-20 11:38:34.67	221.39	20.76	-29.9	-32.0	14.3	1.50e-06	0	44	0	307232768	21	4595
2026-01-20 11:38:35.67	221.58	20.86	-30.0	-32.3	14.1	3.00e-06	0	44	0	309329920	21	4690
2026-01-20 11:38:36.68	221.77	20.95	-30.0	-32.2	14.1	3.80e-06	0	44	0	311427072	21	4664
2026-01-20 11:38:37.68	221.96	21.05	-30.0	-32.2	14.1	2.20e-06	0	44	0	313524224	21	4657
2026-01-20 11:38:38.69	222.15	21.14	-30.0	-32.4	14.0	2.20e-06	0	44	0	315621376	21	4718
2026-01-20 11:38:39.69	222.34	21.24	-30.0	-32.3	14.1	2.20e-06	0	44	0	316669952	21	4700
2026-01-20 11:38:40.70	222.53	21.33	-29.9	-32.1	14.2	2.20e-06	0	44	0	318767104	21	4609
2026-01-20 11:38:41.70	222.73	21.42	-29.9	-31.9	14.4	0.00e+00	0	44	0	320864256	21	4562
2026-01-20 11:38:42.70	222.92	21.52	-29.8	-31.8	14.4	2.20e-06	0	44	0	322961408	21	4532
2026-01-20 11:38:43.70	223.12	21.61	-29.8	-31.7	14.5	0.00e+00	0	44	0	325058560	21	4490
2026-01-20 11:38:44.71	223.32	21.71	-29.6	-31.7	14.8	0.00e+00	0	44	0	326107136	20	4602
2026-01-20 11:38:45.71	223.51	21.80	-29.5	-31.6	14.9	0.00e+00	0	44	0	328204288	20	4544
2026-01-20 11:38:46.71	223.71	21.90	-29.5	-31.5	14.9	0.00e+00	0	44	0	330301440	20	4526
2026-01-20 11:38:47.71	223.91	21.99	-29.5	-31.4	15.0	0.00e+00	0	44	0	332398592	20	4508
2026-01-20 11:38:48.71	224.11	22.08	-29.4	-31.2	15.1	0.00e+00	0	44	0	334495744	20	4439
2026-01-20 11:38:49.71	224.32	22.18	-29.4	-31.2	15.1	0.00e+00	0	44	0	335544320	20	4437
2026-01-20 11:38:50.71	224.52	22.27	-29.5	-31.4	15.0	0.00e+00	0	44	0	337641472	20	4491
2026-01-20 11:38:51.71	224.72	22.37	-29.5	-31.5	15.0	0.00e+00	0	44	0	339738624	20	4519
2026-01-20 11:38:52.72	224.93	22.46	-29.5	-31.6	14.9	0.00e+00	0	44	0	341835776	20	4550
2026-01-20 11:38:53.72	225.14	22.56	-29.4	-31.2	15.1	0.00e+00	0	44	0	343932928	20	4426
2026-01-20 11:38:54.73	225.35	22.65	-29.5	-31.6	14.9	0.00e+00	0	44	0	344981504	20	4552
2026-01-20 11:38:55.73	225.56	22.75	-29.5	-31.5	14.9	0.00e+00	0	44	0	347078656	20	4537
2026-01-20 11:38:56.74	225.77	22.84	-29.5	-31.5	14.9	0.00e+00	0	44	0	349175808	20	4534
2026-01-20 11:38:57.74	225.99	22.93	-29.6	-31.8	14.8	7.00e-07	0	44	0	351272960	20	4608
2026-01-20 11:38:58.74	226.20	23.03	-29.5	-31.4	15.0	0.00e+00	0	44	0	352321536	20	4502
2026-01-20 11:38:59.75	226.42	23.12	-29.3	-31.5	15.4	0.00e+00	0	44	0	354418688	19	4615
2026-01-20 11:39:00.76	226.63	23.22	-29.4	-31.7	15.2	0.00e+00	0	44	0	356515840	19	4675
2026-01-20 11:39:01.76	226.85	23.31	-29.3	-31.5	15.3	0.00e+00	0	44	0	358612992	19	4623
2026-01-20 11:39:02.77	227.07	23.41	-29.2	-31.1	15.6	0.00e+00	0	44	0	360710144	19	4490
2026-01-20 11:39:03.77	227.29	23.50	-29.3	-31.3	15.5	0.00e+00	0	44	0	362807296	19	4562
2026-01-20 11:39:04.78	227.52	23.59	-29.3	-31.4	15.4	0.00e+00	0	44	0	363855872	19	4599
2026-01-20 11:39:05.78	227.74	23.69	-29.4	-31.7	15.3	0.00e+00	0	44	0	365953024	19	4675
2026-01-20 11:39:06.77	227.96	23.78	-29.5	-31.8	15.2	7.00e-07	0	44	0	368050176	19	4711
2026-01-20 11:39:07.77	228.18	23.87	-29.5	-32.0	15.1	0.00e+00	0	44	0	370147328	19	4770
2026-01-20 11:39:08.78	228.41	23.97	-29.5	-31.9	15.1	0.00e+00	0	44	0	371195904	19	4755
2026-01-20 11:39:09.78	228.64	24.06	-29.5	-31.9	15.1	0.00e+00	0	44	0	373293056	19	4765
2026-01-20 11:39:10.79	228.87	24.15	-29.6	-32.2	15.0	0.00e+00	0	44	0	375390208	19	4836
2026-01-20 11:39:11.79	229.10	24.24	-29.6	-32.2	14.9	0.00e+00	0	44	0	377487360	19	4853
2026-01-20 11:39:12.79	229.33	24.34	-29.7	-32.3	14.9	0.00e+00	0	44	0	379584512	19	4897
2026-01-20 11:39:13.80	229.57	24.43	-29.7	-32.4	14.9	0.00e+00	0	44	0	380633088	19	4922
2026-01-20 11:39:14.80	229.80	24.52	-29.7	-32.5	14.8	1.50e-06	0	44	0	382730240	19	4959
2026-01-20 11:39:15.80	230.04	24.61	-29.8	-32.6	14.7	0.00e+00	0	44	0	384827392	19	4980
2026-01-20 11:39:16.80	230.28	24.71	-29.9	-33.0	14.5	7.00e-07	0	44	0	386924544	19	5131
2026-01-20 11:39:17.81	230.52	24.80	-29.8	-32.2	14.6	0.00e+00	0	44	0	389021696	20	4732
2026-01-20 11:39:18.81	230.76	24.89	-29.9	-32.5	14.5	1.50e-06	0	44	0	390070272	20	4836
2026-01-20 11:39:19.82	231.00	24.98	-29.8	-32.1	14.7	0.00e+00	0	44	0	392167424	20	4695
2026-01-20 11:39:20.82	231.24	25.07	-29.6	-31.8	14.9	0.00e+00	0	44	0	394264576	20	4603
2026-01-20 11:39:21.82	231.49	25.16	-29.6	-31.6	15.0	1.50e-06	0	44	0	396361728	20	4534
2026-01-20 11:39:22.83	231.73	25.25	-29.7	-32.0	14.8	0.00e+00	0	44	0	398458880	20	4684
2026-01-20 11:39:23.83	231.98	25.34	-29.7	-31.9	14.8	0.00e+00	0	44	0	399507456	20	4654
2026-01-20 11:39:24.84	232.23	25.44	-29.8	-32.2	14.6	0.00e+00	0	44	0	401604608	20	4739
2026-01-20 11:39:25.84	232.48	25.52	-29.9	-32.5	14.5	0.00e+00	0	44	0	403701760	20	4847
2026-01-20 11:39:26.84	232.73	25.61	-30.0	-32.7	14.3	3.80e-06	0	44	0	405798912	20	4908
2026-01-20 11:39:27.84	232.98	25.70	-30.1	-33.0	14.1	1.50e-06	0	44	0	407896064	20	5008
2026-01-20 11:39:28.85	233.24	25.79	-30.1	-32.9	14.2	2.20e-06	0	44	0	408944640	20	4987
2026-01-20 11:39:29.86	233.50	25.88	-30.2	-33.1	14.1	5.30e-06	0	44	0	411041792	20	5055
2026-01-20 11:39:30.86	233.75	25.97	-30.3	-33.3	13.9	7.00e-07	0	44	0	413138944	20	5129
2026-01-20 11:39:31.87	234.01	26.06	-30.3	-33.3	14.0	7.00e-07	0	44	0	415236096	20	5105
2026-01-20 11:39:32.88	234.28	26.15	-30.3	-33.4	13.9	2.20e-06	0	44	0	417333248	20	5160
2026-01-20 11:39:33.88	234.54	26.24	-30.3	-33.5	13.8	5.30e-06	0	44	0	418381824	20	5191
2026-01-20 11:39:34.88	234.80	26.32	-30.3	-33.5	13.9	3.00e-06	0	44	0	420478976	20	5174
2026-01-20 11:39:35.89	235.06	26.41	-30.4	-33.6	13.8	4.50e-06	0	44	0	422576128	20	5233
2026-01-20 11:39:36.89	235.33	26.50	-30.5	-33.4	13.6	6.80e-06	0	44	0	424673280	21	5052
2026-01-20 11:39:37.89	235.59	26.58	-30.8	-34.3	13.0	1.44e-05	0	44	0	425721856	21	5382
2026-01-20 11:39:38.89	235.86	26.67	-30.7	-34.0	13.2	3.66e-05	0	44	0	427819008	21	5258
2026-01-20 11:39:39.89	236.13	26.75	-30.6	-33.8	13.3	1.75e-05	0	44	0	429916160	21	5199
2026-01-20 11:39:40.89	236.40	26.84	-30.6	-33.6	13.5	1.52e-05	0	44	0	432013312	21	5126
2026-01-20 11:39:41.89	236.67	26.92	-30.7	-34.1	13.2	1.60e-05	0	44	0	434110464	21	5299
2026-01-20 11:39:42.90	236.95	27.01	-30.7	-33.9	13.3	1.60e-05	0	44	0	435159040	21	5224
2026-01-20 11:39:43.90	237.22	27.09	-30.7	-34.0	13.2	1.90e-05	0	44	0	437256192	21	5276
2026-01-20 11:39:44.90	237.50	27.17	-30.9	-34.6	12.9	2.74e-05	0	44	0	439353344	21	5492
2026-01-20 11:39:45.91	237.78	27.26	-30.9	-34.6	12.8	6.10e-05	0	44	0	441450496	21	5503
2026-01-20 11:39:46.91	238.06	27.34	-31.2	-34.9	12.4	9.84e-05	0	44	0	443547648	22	5495
2026-01-20 11:39:47.92	238.34	27.42	-31.5	-35.5	11.6	3.26e-04	0	44	0	444596224	23	5655
2026-01-20 11:39:48.92	238.62	27.50	-31.5	-35.3	11.7	6.67e-04	0	44	0	446693376	23	5573
2026-01-20 11:39:49.93	238.91	27.58	-31.7	-35.8	11.3	8.81e-04	0	44	0	448790528	23	5798
2026-01-20 11:39:50.93	239.19	27.66	-31.7	-35.9	11.3	1.20e-03	0	44	0	450887680	23	5830
2026-01-20 11:39:51.93	239.48	27.74	-31.7	-36.0	11.2	1.22e-03	0	44	0	452984832	23	5913
2026-01-20 11:39:52.94	239.77	27.82	-31.9	-36.5	10.9	2.02e-03	0	44	0	454033408	23	6118
2026-01-20 11:39:53.94	240.06	27.90	-31.8	-36.2	11.1	2.02e-03	0	44	0	456130560	23	5967
2026-01-20 11:39:54.94	240.35	27.98	-31.7	-35.8	11.4	1.09e-03	0	44	0	458227712	23	5807
2026-01-20 11:39:55.94	240.64	28.06	-31.6	-35.5	11.6	8.45e-04	0	44	0	460324864	23	5674
2026-01-20 11:39:56.94	240.93	28.13	-31.6	-35.6	11.6	7.36e-04	0	44	0	462422016	23	5689
2026-01-20 11:39:57.94	241.23	28.21	-31.5	-35.4	11.7	6.88e-04	0	44	0	463470592	23	5612
2026-01-20 11:39:58.94	241.52	28.28	-31.4	-34.9	12.0	4.37e-04	0	44	0	465567744	23	5424
2026-01-20 11:39:59.94	241.82	28.36	-31.3	-34.6	12.2	2.23e-04	0	44	0	467664896	23	5291
2026-01-20 11:40:00.94	242.12	28.43	-31.3	-34.5	12.3	1.77e-04	0	44	0	469762048	23	5236
2026-01-20 11:40:01.94	242.42	28.51	-31.3	-34.6	12.2	1.81e-04	0	44	0	470810624	23	5287
2026-01-20 11:40:02.94	242.72	28.58	-31.4	-34.9	12.0	2.23e-04	0	44	0	472907776	23	5412
2026-01-20 11:40:03.95	243.02	28.65	-31.4	-35.0	12.0	3.14e-04	0	44	0	475004928	23	5437
2026-01-20 11:40:04.95	243.33	28.73	-31.5	-35.4	11.7	4.18e-04	0	44	0	477102080	23	5594
2026-01-20 11:40:05.96	243.63	28.80	-31.4	-35.0	12.0	5.50e-04	0	44	0	479199232	23	5447
2026-01-20 11:40:06.96	243.94	28.87	-31.4	-34.8	12.1	2.43e-04	0	44	0	481296384	23	5359
2026-01-20 11:40:07.97	244.25	28.94	-31.3	-34.7	12.2	2.21e-04	0	44	0	482344960	23	5309
2026-01-20 11:40:08.97	244.56	29.01	-31.0	-33.8	12.8	1.25e-04	0	44	0	484442112	23	4958
2026-01-20 11:40:09.97	244.87	29.07	-30.9	-33.6	12.9	4.57e-05	0	44	0	486539264	23	4871
2026-01-20 11:40:10.98	245.18	29.14	-31.0	-33.6	13.0	3.50e-05	0	44	0	488636416	23	4888
2026-01-20 11:40:11.98	245.50	29.21	-31.1	-33.9	12.7	5.72e-05	0	44	0	489684992	23	5014
2026-01-20 11:40:12.98	245.81	29.28	-31.2	-34.4	12.4	9.46e-05	0	44	0	491782144	23	5209
2026-01-20 11:40:13.98	246.13	29.34	-31.2	-34.4	12.4	1.56e-04	0	44	0	493879296	23	5204
2026-01-20 11:40:14.99	246.45	29.41	-31.4	-35.0	12.0	1.87e-04	0	44	0	495976448	23	5422
2026-01-20 11:40:15.99	246.76	29.47	-31.5	-35.1	11.9	3.53e-04	0	44	0	498073600	23	5495
2026-01-20 11:40:17.00	247.09	29.53	-31.5	-35.3	11.8	4.58e-04	0	44	0	499122176	23	5550
2026-01-20 11:40:18.00	247.41	29.60	-31.6	-35.6	11.5	6.88e-04	0	44	0	501219328	23	5718
2026-01-20 11:40:19.00	247.73	29.66	-31.5	-35.1	11.9	6.50e-04	0	44	0	503316480	23	5469
2026-01-20 11:40:20.00	248.05	29.72	-31.3	-34.8	12.2	3.20e-04	0	44	0	505413632	23	5330
2026-01-20 11:40:21.00	248.37	29.78	-31.4	-34.9	12.1	2.42e-04	0	44	0	507510784	23	5379
2026-01-20 11:40:22.00	248.70	29.83	-31.5	-35.4	11.8	3.42e-04	0	44	0	508559360	23	5583
2026-01-20 11:40:23.01	249.03	29.89	-31.6	-35.6	11.6	4.93e-04	0	44	0	510656512	23	5699
2026-01-20 11:40:24.02	249.36	29.95	-31.9	-36.6	10.8	1.70e-03	0	44	0	512753664	23	6182
2026-01-20 11:40:25.02	249.69	30.01	-32.1	-36.6	10.5	3.51e-03	0	44	0	514850816	24	6062
2026-01-20 11:40:26.01	250.01	30.06	-32.4	-37.6	9.8	7.13e-03	0	44	0	516947968	24	6590
2026-01-20 11:40:27.02	250.35	30.12	-32.4	-37.7	9.7	1.12e-02	0	44	0	517996544	24	6617
2026-01-20 11:40:28.02	250.68	30.17	-32.5	-37.6	9.4	1.49e-02	0	44	0	520093696	25	6510
2026-01-20 11:40:29.01	251.01	30.22	-32.6	-37.9	9.1	1.84e-02	0	44	0	522190848	25	6660
2026-01-20 11:40:30.01	251.34	30.27	-32.5	-37.7	9.2	2.00e-02	0	44	0	524288000	25	6551
2026-01-20 11:40:31.01	251.68	30.32	-32.6	-37.9	9.1	2.39e-02	0	44	0	526385152	25	6658
2026-01-20 11:40:32.01	252.01	30.37	-32.5	-37.4	9.5	2.02e-02	0	44	0	527433728	25	6389
2026-01-20 11:40:33.01	252.35	30.42	-32.4	-37.1	9.8	1.30e-02	0	44	0	529530880	25	6205
2026-01-20 11:40:34.01	252.69	30.47	-32.4	-37.2	9.7	1.17e-02	0	44	0	531628032	25	6275
2026-01-20 11:40:35.01	253.02	30.51	-32.5	-37.7	9.4	1.35e-02	0	44	0	533725184	25	6500
2026-01-20 11:40:36.01	253.36	30.56	-32.4	-37.4	9.5	1.49e-02	0	44	0	534773760	25	6372
2026-01-20 11:40:37.02	253.71	30.60	-32.5	-37.6	9.4	1.61e-02	0	44	0	536870912	25	6458
2026-01-20 11:40:38.02	254.05	30.65	-32.6	-38.0	9.1	2.15e-02	0	44	0	538968064	25	6708
2026-01-20 11:40:39.03	254.40	30.69	-32.4	-37.3	9.5	1.97e-02	0	44	0	541065216	25	6338
2026-01-20 11:40:40.03	254.74	30.73	-32.2	-36.6	10.1	1.01e-02	0	44	0	543162368	25	5964
2026-01-20 11:40:41.03	255.08	30.77	-32.1	-36.1	10.5	4.48e-03	0	44	0	544210944	25	5706
2026-01-20 11:40:42.03	255.43	30.81	-32.1	-36.0	10.6	3.73e-03	0	44	0	546308096	25	5678
2026-01-20 11:40:43.03	255.77	30.85	-32.1	-36.2	10.5	3.77e-03	0	44	0	548405248	25	5760
2026-01-20 11:40:44.03	256.12	30.89	-32.0	-35.9	10.7	2.95e-03	0	44	0	550502400	25	5605
2026-01-20 11:40:45.03	256.47	30.92	-32.2	-36.3	10.4	4.09e-03	0	44	0	552599552	25	5822
2026-01-20 11:40:46.03	256.81	30.96	-32.1	-36.0	10.6	4.15e-03	0	44	0	553648128	25	5657
2026-01-20 11:40:47.03	257.16	30.99	-32.1	-36.0	10.6	3.74e-03	0	44	0	555745280	25	5657
2026-01-20 11:40:48.03	257.51	31.02	-32.0	-35.9	10.7	2.93e-03	0	44	0	557842432	25	5625
2026-01-20 11:40:49.03	257.86	31.05	-32.1	-36.0	10.6	3.26e-03	0	44	0	559939584	25	5672
2026-01-20 11:40:50.03	258.21	31.08	-32.2	-36.5	10.3	4.80e-03	0	44	0	562036736	25	5883
2026-01-20 11:40:51.03	258.56	31.11	-32.2	-36.4	10.3	4.66e-03	0	44	0	563085312	25	5851
2026-01-20 11:40:52.04	258.92	31.14	-32.2	-36.5	10.3	4.80e-03	0	44	0	565182464	25	5883
2026-01-20 11:40:53.05	259.28	31.17	-32.1	-36.0	10.7	4.12e-03	0	44	0	567279616	25	5642
2026-01-20 11:40:54.05	259.63	31.19	-32.0	-35.9	10.7	2.86e-03	0	44	0	569376768	25	5605
2026-01-20 11:40:55.06	259.99	31.22	-32.1	-36.1	10.5	3.25e-03	0	44	0	571473920	25	5722
2026-01-20 11:40:56.07	260.34	31.24	-32.2	-36.5	10.2	5.14e-03	0	44	0	572522496	25	5916
2026-01-20 11:40:57.08	260.70	31.27	-32.1	-36.1	10.6	5.02e-03	0	44	0	574619648	25	5728
2026-01-20 11:40:58.08	261.06	31.29	-32.0	-35.9	10.7	3.20e-03	0	44	0	576716800	25	5612
2026-01-20 11:40:59.08	261.41	31.31	-31.8	-35.3	11.1	1.98e-03	0	44	0	578813952	25	5344
2026-01-20 11:41:00.08	261.77	31.33	-31.8	-35.5	11.4	1.28e-03	0	44	0	579862528	24	5525
2026-01-20 11:41:01.09	262.13	31.34	-31.6	-35.1	11.6	7.19e-04	0	44	0	581959680	24	5389
2026-01-20 11:41:02.09	262.48	31.36	-31.7	-35.3	11.6	6.66e-04	0	44	0	584056832	24	5444
2026-01-20 11:41:03.10	262.84	31.37	-31.8	-35.7	11.3	8.99e-04	0	44	0	586153984	24	5609
2026-01-20 11:41:04.11	263.20	31.39	-31.8	-35.6	11.3	1.21e-03	0	44	0	588251136	24	5599
2026-01-20 11:41:05.11	263.56	31.40	-31.9	-36.1	11.0	1.49e-03	0	44	0	590348288	24	5798
2026-01-20 11:41:06.11	263.92	31.41	-32.2	-37.0	10.3	3.61e-03	0	44	0	591396864	24	6270
2026-01-20 11:41:07.11	264.28	31.42	-32.3	-37.5	9.9	6.14e-03	0	44	0	593494016	24	6504
2026-01-20 11:41:08.11	264.64	31.43	-32.3	-37.4	10.0	9.11e-03	0	44	0	595591168	24	6475
2026-01-20 11:41:09.12	265.00	31.44	-32.0	-36.4	10.7	4.94e-03	0	44	0	597688320	24	5956
2026-01-20 11:41:10.12	265.36	31.45	-31.9	-35.8	11.2	2.16e-03	0	44	0	598736896	24	5656
2026-01-20 11:41:11.12	265.71	31.45	-31.8	-35.5	11.4	1.04e-03	0	44	0	600834048	24	5512
2026-01-20 11:41:12.12	266.07	31.46	-31.8	-35.6	11.3	1.28e-03	0	44	0	602931200	24	5566
2026-01-20 11:41:13.12	266.43	31.46	-31.7	-35.1	11.6	9.30e-04	0	44	0	605028352	24	5380
2026-01-20 11:41:14.13	266.79	31.46	-31.6	-34.8	11.8	6.16e-04	0	44	0	607125504	24	5248
2026-01-20 11:41:15.13	267.15	31.46	-31.5	-34.6	12.0	2.68e-04	0	44	0	608174080	24	5169
2026-01-20 11:41:16.14	267.52	31.46	-31.4	-34.3	12.2	2.38e-04	0	44	0	610271232	24	5035
2026-01-20 11:41:17.14	267.87	31.46	-31.3	-34.5	12.5	1.65e-04	0	44	0	612368384	23	5220
2026-01-20 11:41:18.15	268.24	31.46	-31.1	-34.1	12.7	9.00e-05	0	44	0	614465536	23	5065
2026-01-20 11:41:19.15	268.60	31.45	-31.0	-33.6	13.1	2.82e-05	0	44	0	616562688	23	4866
2026-01-20 11:41:20.15	268.95	31.45	-30.9	-33.3	13.2	2.59e-05	0	44	0	617611264	23	4778
2026-01-20 11:41:21.15	269.31	31.44	-31.1	-33.9	13.0	4.57e-05	0	44	0	619708416	23	4977
2026-01-20 11:41:22.15	269.67	31.43	-31.2	-34.4	12.6	7.40e-05	0	44	0	621805568	23	5178
2026-01-20 11:41:23.15	270.03	31.42	-31.2	-34.3	12.5	1.14e-04	0	44	0	623902720	23	5146
2026-01-20 11:41:24.16	270.39	31.41	-31.3	-34.5	12.4	1.01e-04	0	44	0	625999872	23	5233
2026-01-20 11:41:25.16	270.75	31.40	-31.4	-34.7	12.3	1.49e-04	0	44	0	627048448	23	5291
2026-01-20 11:41:26.17	271.11	31.39	-31.6	-35.5	11.8	3.48e-04	0	44	0	629145600	23	5624
2026-01-20 11:41:27.17	271.47	31.37	-31.8	-36.1	11.3	6.55e-04	0	44	0	631242752	23	5921
2026-01-20 11:41:28.18	271.83	31.36	-32.0	-36.3	10.8	1.98e-03	0	44	0	633339904	24	5884
2026-01-20 11:41:29.18	272.18	31.34	-32.0	-36.2	10.9	2.23e-03	0	44	0	635437056	24	5853
2026-01-20 11:41:30.18	272.54	31.32	-32.0	-36.1	11.0	1.93e-03	0	44	0	636485632	24	5811
2026-01-20 11:41:31.18	272.89	31.30	-31.9	-35.8	11.2	1.71e-03	0	44	0	638582784	24	5670
2026-01-20 11:41:32.19	273.25	31.28	-31.9	-35.8	11.1	1.66e-03	0	44	0	640679936	24	5673
2026-01-20 11:41:33.19	273.61	31.26	-31.9	-35.8	11.2	1.52e-03	0	44	0	642777088	24	5662
2026-01-20 11:41:34.20	273.96	31.24	-31.8	-35.4	11.5	1.06e-03	0	44	0	643825664	24	5476
2026-01-20 11:41:35.20	274.32	31.22	-31.8	-35.4	11.4	9.36e-04	0	44	0	645922816	24	5477
2026-01-20 11:41:36.20	274.67	31.19	-31.9	-35.8	11.1	1.02e-03	0	44	0	648019968	24	5675
2026-01-20 11:41:37.21	275.03	31.17	-32.1	-36.5	10.6	2.11e-03	0	44	0	650117120	24	5996
2026-01-20 11:41:38.20	275.37	31.14	-32.1	-36.5	10.7	3.28e-03	0	44	0	652214272	24	5979
2026-01-20 11:41:39.21	275.73	31.11	-32.1	-36.6	10.6	3.27e-03	0	44	0	653262848	24	6059
2026-01-20 11:41:40.22	276.08	31.08	-32.2	-36.7	10.5	4.05e-03	0	44	0	655360000	24	6102
2026-01-20 11:41:41.22	276.43	31.05	-32.0	-36.2	10.9	3.34e-03	0	44	0	657457152	24	5830
2026-01-20 11:41:42.23	276.79	31.02	-31.9	-35.8	11.2	1.50e-03	0	44	0	659554304	24	5660
2026-01-20 11:41:43.22	277.13	30.99	-31.9	-35.8	11.3	1.06e-03	0	44	0	661651456	24	5634
2026-01-20 11:41:44.23	277.48	30.95	-31.9	-35.9	11.2	1.41e-03	0	44	0	662700032	24	5702
2026-01-20 11:41:45.24	277.83	30.92	-31.9	-36.0	11.1	1.69e-03	0	44	0	664797184	24	5737
2026-01-20 11:41:46.24	278.18	30.88	-32.0	-36.4	10.8	2.33e-03	0	44	0	666894336	24	5915
2026-01-20 11:41:47.24	278.53	30.85	-32.2	-37.0	10.3	3.40e-03	0	44	0	668991488	24	6234
2026-01-20 11:41:48.24	278.87	30.81	-32.3	-37.2	10.1	5.97e-03	0	44	0	671088640	24	6333
2026-01-20 11:41:49.24	279.22	30.77	-32.4	-37.5	10.0	8.54e-03	0	44	0	672137216	24	6476
2026-01-20 11:41:50.24	279.56	30.73	-32.3	-37.4	10.0	8.11e-03	0	44	0	674234368	24	6438
2026-01-20 11:41:51.24	279.90	30.69	-32.4	-37.6	9.9	7.61e-03	0	44	0	676331520	24	6542
2026-01-20 11:41:52.25	280.25	30.64	-32.3	-37.4	10.0	9.38e-03	0	44	0	678428672	24	6423
2026-01-20 11:41:53.25	280.59	30.60	-32.2	-36.7	10.5	5.32e-03	0	44	0	680525824	24	6088
2026-01-20 11:41:54.25	280.93	30.56	-32.0	-36.4	10.8	3.37e-03	0	44	0	681574400	24	5913
2026-01-20 11:41:55.25	281.26	30.51	-32.1	-36.6	10.7	2.84e-03	0	44	0	683671552	24	6005
2026-01-20 11:41:56.25	281.60	30.46	-32.3	-37.2	10.2	5.09e-03	0	44	0	685768704	24	6349
2026-01-20 11:41:57.25	281.94	30.42	-32.5	-37.8	9.7	7.87e-03	0	44	0	687865856	24	6684
2026-01-20 11:41:58.25	282.27	30.37	-32.7	-38.2	9.0	1.72e-02	0	45	0	689963008	25	6806
2026-01-20 11:41:59.25	282.61	30.32	-32.7	-38.4	8.9	2.86e-02	0	44	0	691011584	25	6914
2026-01-20 11:42:00.25	282.94	30.27	-32.6	-37.9	9.2	2.44e-02	0	44	0	693108736	25	6628
2026-01-20 11:42:01.25	283.28	30.22	-32.5	-37.5	9.5	1.72e-02	0	44	0	695205888	25	6406
2026-01-20 11:42:02.26	283.61	30.17	-32.4	-37.2	9.8	1.13e-02	0	45	0	697303040	25	6238
2026-01-20 11:42:03.26	283.94	30.11	-32.4	-37.1	9.8	1.02e-02	0	44	0	698351616	25	6189
2026-01-20 11:42:04.27	284.27	30.06	-32.2	-36.3	10.4	5.12e-03	0	44	0	700448768	25	5780
2026-01-20 11:42:05.27	284.60	30.00	-32.2	-36.5	10.4	4.25e-03	0	44	0	702545920	25	5862
2026-01-20 11:42:06.27	284.93	29.95	-32.3	-36.7	10.2	6.35e-03	0	44	0	704643072	25	5955
2026-01-20 11:42:07.28	285.26	29.89	-32.0	-35.6	11.0	3.07e-03	0	44	0	706740224	25	5452
2026-01-20 11:42:08.28	285.58	29.83	-31.8	-35.4	11.5	1.34e-03	0	44	0	707788800	24	5494
2026-01-20 11:42:09.29	285.91	29.77	-31.6	-35.1	11.8	5.10e-04	0	44	0	709885952	24	5333
2026-01-20 11:42:10.29	286.23	29.71	-31.8	-35.5	11.4	7.15e-04	0	44	0	711983104	24	5515
2026-01-20 11:42:11.29	286.56	29.65	-31.7	-35.3	11.6	6.45e-04	0	44	0	714080256	24	5413
2026-01-20 11:42:12.29	286.88	29.59	-31.8	-35.6	11.4	8.42e-04	0	44	0	716177408	24	5553
2026-01-20 11:42:13.29	287.20	29.53	-31.9	-35.7	11.3	1.10e-03	0	44	0	717225984	24	5614
2026-01-20 11:42:14.29	287.51	29.47	-31.9	-35.9	11.2	1.35e-03	0	44	0	719323136	24	5693
2026-01-20 11:42:15.29	287.83	29.41	-31.9	-35.9	11.1	1.64e-03	0	45	0	721420288	24	5700
2026-01-20 11:42:16.29	288.15	29.34	-31.8	-35.7	11.2	1.64e-03	0	44	0	723517440	24	5621
2026-01-20 11:42:17.29	288.46	29.28	-31.7	-35.2	11.6	8.68e-04	0	44	0	725614592	24	5396
2026-01-20 11:42:18.29	288.77	29.21	-31.4	-34.4	12.2	4.54e-04	0	44	0	726663168	24	5070
2026-01-20 11:42:19.30	289.09	29.14	-31.3	-34.0	12.5	1.47e-04	0	44	0	728760320	24	4921
2026-01-20 11:42:20.30	289.40	29.08	-31.1	-34.0	12.8	9.46e-05	0	44	0	730857472	23	5031
2026-01-20 11:42:21.31	289.71	29.01	-31.0	-33.8	12.9	5.64e-05	0	44	0	732954624	23	4946
2026-01-20 11:42:22.31	290.02	28.94	-31.0	-33.7	13.0	3.89e-05	0	44	0	735051776	23	4918
2026-01-20 11:42:23.31	290.32	28.87	-31.1	-34.1	12.7	5.79e-05	0	44	0	736100352	23	5074
2026-01-20 11:42:24.32	290.63	28.80	-31.3	-34.5	12.4	1.14e-04	0	44	0	738197504	23	5239
2026-01-20 11:42:25.33	290.94	28.73	-31.3	-34.7	12.3	1.54e-04	0	44	0	740294656	23	5276
2026-01-20 11:42:26.33	291.24	28.66	-31.6	-35.3	11.9	3.40e-04	0	45	0	742391808	23	5548
2026-01-20 11:42:27.33	291.54	28.58	-31.7	-35.7	11.6	5.67e-04	0	44	0	743440384	23	5705
2026-01-20 11:42:28.33	291.84	28.51	-31.9	-36.4	11.2	9.18e-04	0	44	0	745537536	23	6018
2026-01-20 11:42:29.33	292.14	28.44	-32.0	-36.6	11.0	1.82e-03	0	44	0	747634688	23	6121
2026-01-20 11:42:30.34	292.44	28.36	-32.0	-36.7	10.9	1.90e-03	0	44	0	749731840	23	6184
2026-01-20 11:42:31.34	292.74	28.29	-32.0	-36.1	11.0	2.08e-03	0	44	0	751828992	24	5804
2026-01-20 11:42:32.35	293.03	28.21	-31.9	-36.0	11.0	1.78e-03	0	44	0	752877568	24	5772
2026-01-20 11:42:33.35	293.33	28.14	-32.0	-36.2	10.9	2.05e-03	0	44	0	754974720	24	5828
2026-01-20 11:42:34.35	293.62	28.06	-32.0	-36.2	10.9	2.99e-03	0	44	0	757071872	24	5871
2026-01-20 11:42:35.36	293.91	27.98	-31.8	-35.7	11.2	1.62e-03	0	44	0	759169024	24	5635
2026-01-20 11:42:36.36	294.20	27.90	-31.8	-35.6	11.3	1.20e-03	0	44	0	761266176	24	5557
2026-01-20 11:42:37.37	294.49	27.83	-31.8	-35.5	11.5	1.27e-03	0	44	0	762314752	24	5508
2026-01-20 11:42:38.38	294.78	27.75	-31.7	-35.4	11.5	9.35e-04	0	44	0	764411904	24	5466
2026-01-20 11:42:39.38	295.06	27.67	-31.9	-35.8	11.2	1.19e-03	0	44	0	766509056	24	5675
2026-01-20 11:42:40.38	295.35	27.59	-32.1	-36.5	10.7	2.47e-03	0	44	0	768606208	24	5967
2026-01-20 11:42:41.37	295.63	27.51	-32.2	-37.0	10.3	3.67e-03	0	44	0	770703360	24	6262
2026-01-20 11:42:42.37	295.91	27.43	-32.3	-37.4	10.0	7.73e-03	0	44	0	771751936	24	6464
2026-01-20 11:42:43.37	296.19	27.35	-32.1	-36.7	10.4	5.27e-03	0	44	0	773849088	24	6109
2026-01-20 11:42:44.37	296.46	27.27	-32.0	-36.3	10.9	3.13e-03	0	44	0	775946240	24	5891
2026-01-20 11:42:45.37	296.74	27.18	-31.9	-36.0	11.0	2.25e-03	0	44	0	778043392	24	5755
2026-01-20 11:42:46.38	297.02	27.10	-31.9	-36.0	11.0	1.99e-03	0	44	0	780140544	24	5778
2026-01-20 11:42:47.38	297.29	27.02	-31.9	-36.1	10.9	2.09e-03	0	44	0	781189120	24	5814
2026-01-20 11:42:48.39	297.56	26.93	-31.9	-36.1	10.9	2.12e-03	0	44	0	783286272	24	5812
2026-01-20 11:42:49.39	297.84	26.85	-31.8	-35.8	11.1	1.75e-03	0	44	0	785383424	24	5684
2026-01-20 11:42:50.39	298.10	26.76	-31.8	-35.8	11.2	1.45e-03	0	44	0	787480576	24	5692
2026-01-20 11:42:51.39	298.37	26.68	-31.8	-35.7	11.2	1.68e-03	0	44	0	788529152	24	5654
2026-01-20 11:42:52.39	298.64	26.60	-31.7	-35.4	11.5	1.09e-03	0	44	0	790626304	24	5496
2026-01-20 11:42:53.40	298.91	26.51	-31.6	-35.1	11.7	7.19e-04	0	44	0	792723456	24	5371
2026-01-20 11:42:54.40	299.17	26.42	-31.4	-34.6	12.0	4.39e-04	0	44	0	794820608	24	5180
2026-01-20 11:42:55.41	299.44	26.34	-31.4	-34.4	12.2	2.88e-04	0	44	0	796917760	24	5087
2026-01-20 11:42:56.41	299.70	26.25	-31.2	-34.5	12.3	1.54e-04	0	44	0	799014912	23	5234
2026-01-20 11:42:57.41	299.96	26.16	-31.1	-34.1	12.6	1.52e-04	0	44	0	800063488	23	5082
2026-01-20 11:42:58.41	300.21	26.08	-31.0	-33.8	12.8	4.42e-05	0	44	0	802160640	23	4987
2026-01-20 11:42:59.41	300.47	25.99	-31.2	-34.4	12.4	6.33e-05	0	44	0	804257792	23	5226
2026-01-20 11:43:00.40	300.72	25.90	-31.3	-34.8	12.1	3.01e-04	0	44	0	806354944	23	5374
2026-01-20 11:43:01.40	300.98	25.81	-31.3	-34.6	12.4	1.56e-04	0	44	0	807403520	23	5292
2026-01-20 11:43:02.41	301.23	25.73	-31.4	-35.0	12.0	1.56e-04	0	44	0	809500672	23	5449
2026-01-20 11:43:03.40	301.48	25.64	-31.5	-35.2	11.9	4.29e-04	0	45	0	811597824	23	5533
2026-01-20 11:43:04.40	301.73	25.55	-31.3	-34.6	12.3	2.89e-04	0	44	0	813694976	23	5294
2026-01-20 11:43:05.40	301.98	25.46	-31.2	-34.2	12.6	1.46e-04	0	44	0	815792128	23	5100
2026-01-20 11:43:06.41	302.23	25.37	-31.1	-34.1	12.7	7.78e-05	0	44	0	816840704	23	5049
2026-01-20 11:43:07.42	302.48	25.28	-31.2	-34.3	12.5	1.16e-04	0	44	0	818937856	23	5146
2026-01-20 11:43:08.42	302.72	25.19	-31.3	-34.6	12.3	1.05e-04	0	44	0	821035008	23	5277
2026-01-20 11:43:09.43	302.96	25.10	-31.3	-34.7	12.2	2.25e-04	0	44	0	823132160	23	5318
2026-01-20 11:43:10.44	303.21	25.01	-31.3	-34.5	12.4	1.49e-04	0	44	0	825229312	23	5211
2026-01-20 11:43:11.44	303.45	24.92	-31.3	-34.6	12.3	1.59e-04	0	44	0	826277888	23	5252
2026-01-20 11:43:12.45	303.69	24.83	-31.2	-34.2	12.6	2.55e-04	0	44	0	828375040	23	5095
2026-01-20 11:43:13.46	303.93	24.73	-30.8	-33.5	13.4	1.75e-05	0	44	0	830472192	22	4948
2026-01-20 11:43:14.46	304.17	24.64	-30.7	-33.4	13.5	9.10e-06	0	44	0	832569344	22	4907
2026-01-20 11:43:15.46	304.40	24.55	-30.9	-33.9	13.2	2.05e-05	0	44	0	834666496	22	5077
2026-01-20 11:43:16.46	304.63	24.46	-31.1	-34.5	12.7	4.04e-05	0	44	0	835715072	22	5333
2026-01-20 11:43:17.47	304.87	24.37	-31.1	-34.7	12.6	8.77e-05	0	44	0	837812224	22	5391
2026-01-20 11:43:18.47	305.10	24.28	-31.0	-34.4	12.8	8.62e-05	0	44	0	839909376	22	5277
2026-01-20 11:43:19.47	305.33	24.18	-30.8	-33.7	13.2	4.04e-05	0	44	0	842006528	22	5021
2026-01-20 11:43:20.46	305.55	24.09	-30.7	-33.4	13.4	1.29e-05	0	44	0	844103680	22	4927
2026-01-20 11:43:21.47	305.78	24.00	-30.7	-33.3	13.5	1.44e-05	0	44	0	845152256	22	4901
2026-01-20 11:43:22.47	306.01	23.91	-30.8	-33.6	13.3	1.29e-05	0	44	0	847249408	22	5006
2026-01-20 11:43:23.47	306.23	23.82	-31.1	-34.7	12.5	2.74e-05	0	44	0	849346560	22	5425
2026-01-20 11:43:24.48	306.46	23.72	-31.5	-35.7	11.8	3.32e-04	0	44	0	851443712	22	5852
2026-01-20 11:43:25.48	306.68	23.63	-31.6	-35.6	11.5	4.94e-04	0	44	0	852492288	23	5693
2026-01-20 11:43:26.49	306.90	23.54	-31.7	-35.8	11.4	1.15e-03	0	44	0	854589440	23	5808
2026-01-20 11:43:27.49	307.12	23.44	-31.3	-34.7	12.1	3.39e-04	0	44	0	856686592	23	5330
2026-01-20 11:43:28.50	307.34	23.35	-31.1	-34.1	12.7	1.22e-04	0	44	0	858783744	23	5061
2026-01-20 11:43:29.50	307.56	23.26	-30.9	-33.6	12.9	6.40e-05	0	44	0	860880896	23	4909
2026-01-20 11:43:30.51	307.77	23.16	-31.0	-33.8	12.7	5.26e-05	0	44	0	862978048	23	4986
2026-01-20 11:43:31.51	307.99	23.07	-31.2	-34.3	12.5	1.21e-04	0	44	0	864026624	23	5153
2026-01-20 11:43:32.51	308.20	22.98	-31.3	-34.8	12.1	1.59e-04	0	44	0	866123776	23	5371
2026-01-20 11:43:33.51	308.41	22.88	-31.5	-35.4	11.7	5.32e-04	0	44	0	868220928	23	5628
2026-01-20 11:43:34.52	308.62	22.79	-31.4	-35.1	11.9	4.76e-04	0	44	0	870318080	23	5505
2026-01-20 11:43:35.52	308.83	22.70	-31.2	-34.4	12.4	2.15e-04	0	44	0	871366656	23	5202
2026-01-20 11:43:36.52	309.04	22.60	-30.9	-33.5	13.0	1.02e-04	0	44	0	873463808	23	4879
2026-01-20 11:43:37.52	309.25	22.51	-30.9	-33.5	13.0	3.35e-05	0	45	0	875560960	23	4864
2026-01-20 11:43:38.52	309.45	22.42	-30.8	-33.7	13.1	4.19e-05	0	44	0	877658112	22	5074
2026-01-20 11:43:39.52	309.66	22.32	-30.7	-33.4	13.3	1.83e-05	0	44	0	879755264	22	4951
2026-01-20 11:43:40.52	309.86	22.23	-30.9	-34.1	12.9	4.19e-05	0	44	0	880803840	22	5194
2026-01-20 11:43:41.52	310.06	22.14	-31.1	-34.7	12.5	7.70e-05	0	44	0	882900992	22	5467
2026-01-20 11:43:42.52	310.26	22.04	-31.3	-35.1	12.2	1.81e-04	0	44	0	884998144	22	5586
2026-01-20 11:43:43.52	310.46	21.95	-31.4	-35.5	12.0	2.65e-04	0	44	0	887095296	22	5756
2026-01-20 11:43:44.53	310.66	21.85	-31.3	-35.0	12.2	2.66e-04	0	44	0	889192448	22	5559
2026-01-20 11:43:45.53	310.86	21.76	-31.1	-34.7	12.5	1.36e-04	0	44	0	890241024	22	5427
2026-01-20 11:43:46.53	311.05	21.67	-31.2	-34.8	12.4	1.04e-04	0	44	0	892338176	22	5453
2026-01-20 11:43:47.54	311.25	21.57	-31.1	-34.6	12.5	1.33e-04	0	44	0	894435328	22	5401
2026-01-20 11:43:48.53	311.44	21.48	-31.2	-34.8	12.5	1.23e-04	0	44	0	896532480	22	5467
2026-01-20 11:43:49.54	311.64	21.39	-31.4	-35.5	12.0	1.72e-04	0	44	0	897581056	22	5749
2026-01-20 11:43:50.53	311.83	21.29	-31.5	-35.4	11.7	6.10e-04	0	44	0	899678208	23	5604
2026-01-20 11:43:51.54	312.02	21.20	-31.5	-35.4	11.6	6.71e-04	0	44	0	901775360	23	5618
2026-01-20 11:43:52.54	312.21	21.11	-31.5	-35.4	11.7	5.64e-04	0	44	0	903872512	23	5607
2026-01-20 11:43:53.55	312.40	21.01	-31.4	-34.9	12.0	5.07e-04	0	44	0	905969664	23	5401
2026-01-20 11:43:54.56	312.59	20.92	-31.2	-34.5	12.2	2.23e-04	0	44	0	908066816	23	5269
2026-01-20 11:43:55.57	312.77	20.83	-31.2	-34.5	12.3	2.15e-04	0	44	0	909115392	23	5230
2026-01-20 11:43:56.57	312.96	20.73	-31.0	-33.8	12.7	2.33e-04	0	44	0	911212544	23	4981
2026-01-20 11:43:57.57	313.14	20.64	-30.8	-33.3	13.1	4.65e-05	0	44	0	913309696	23	4803
2026-01-20 11:43:58.57	313.32	20.55	-31.0	-33.7	12.7	5.41e-05	0	44	0	915406848	23	4947
2026-01-20 11:43:59.57	313.51	20.45	-31.1	-34.0	12.6	8.08e-05	0	44	0	916455424	23	5050
2026-01-20 11:44:00.58	313.69	20.36	-31.1	-34.2	12.4	7.93e-05	0	44	0	918552576	23	5129
2026-01-20 11:44:01.58	313.87	20.27	-31.2	-34.4	12.3	1.86e-04	0	44	0	920649728	23	5221
2026-01-20 11:44:02.58	314.05	20.17	-31.2	-34.5	12.3	1.76e-04	0	44	0	922746880	23	5239
2026-01-20 11:44:03.58	314.22	20.08	-31.0	-33.9	12.6	1.58e-04	0	44	0	924844032	23	5036
2026-01-20 11:44:04.58	314.40	19.99	-30.8	-33.6	13.2	3.20e-05	0	44	0	925892608	22	5011
2026-01-20 11:44:05.58	314.57	19.90	-30.6	-33.1	13.5	1.14e-05	0	44	0	927989760	22	4821
2026-01-20 11:44:06.59	314.75	19.80	-30.5	-32.8	13.7	4.50e-06	0	44	0	930086912	22	4708
2026-01-20 11:44:07.59	314.92	19.71	-30.5	-33.0	13.6	8.30e-06	0	44	0	932184064	22	4773
2026-01-20 11:44:08.60	315.10	19.62	-30.7	-33.5	13.3	2.28e-05	0	44	0	934281216	22	4952
2026-01-20 11:44:09.60	315.27	19.53	-30.8	-33.7	13.1	2.59e-05	0	44	0	935329792	22	5028
2026-01-20 11:44:10.61	315.44	19.43	-30.8	-33.9	13.0	2.82e-05	0	44	0	937426944	22	5105
2026-01-20 11:44:11.61	315.61	19.34	-30.9	-33.9	12.9	4.65e-05	0	44	0	939524096	22	5119
2026-01-20 11:44:12.61	315.78	19.25	-30.7	-33.6	13.2	3.12e-05	0	44	0	941621248	22	5013
2026-01-20 11:44:13.61	315.94	19.16	-30.7	-33.5	13.2	2.67e-05	0	44	0	943718400	22	4969
2026-01-20 11:44:14.61	316.11	19.07	-30.6	-33.3	13.4	1.52e-05	0	44	0	944766976	22	4886
2026-01-20 11:44:15.61	316.27	18.97	-30.5	-33.0	13.6	1.37e-05	0	44	0	946864128	22	4807
2026-01-20 11:44:16.62	316.44	18.88	-30.5	-32.8	13.5	6.80e-06	0	44	0	948961280	22	4729
2026-01-20 11:44:17.62	316.60	18.79	-30.4	-32.8	13.6	1.06e-05	0	44	0	951058432	22	4708
2026-01-20 11:44:18.62	316.77	18.70	-30.5	-33.1	13.5	9.10e-06	0	44	0	953155584	22	4815
2026-01-20 11:44:19.62	316.93	18.61	-30.4	-32.8	13.5	1.14e-05	0	44	0	954204160	22	4708
2026-01-20 11:44:20.62	317.09	18.52	-30.3	-32.5	13.8	1.22e-05	0	44	0	956301312	22	4607
2026-01-20 11:44:21.63	317.25	18.43	-30.1	-32.5	14.1	2.20e-06	0	44	0	958398464	21	4707
2026-01-20 11:44:22.63	317.41	18.34	-30.0	-32.1	14.4	7.00e-07	0	44	0	960495616	21	4594
2026-01-20 11:44:23.63	317.56	18.25	-30.1	-32.3	14.2	1.50e-06	0	44	0	961544192	21	4672
2026-01-20 11:44:24.64	317.72	18.15	-30.0	-32.2	14.4	1.50e-06	0	44	0	963641344	21	4624
2026-01-20 11:44:25.64	317.88	18.06	-29.9	-31.9	14.6	0.00e+00	0	44	0	965738496	21	4517
2026-01-20 11:44:26.64	318.03	17.97	-29.9	-31.8	14.6	7.00e-07	0	44	0	967835648	21	4491
2026-01-20 11:44:27.65	318.19	17.88	-29.8	-31.7	14.6	7.00e-07	0	44	0	969932800	21	4468
2026-01-20 11:44:28.65	318.34	17.79	-30.0	-32.1	14.4	7.00e-07	0	44	0	970981376	21	4600
2026-01-20 11:44:29.65	318.49	17.70	-30.0	-32.2	14.3	7.00e-07	0	44	0	973078528	21	4638
2026-01-20 11:44:30.65	318.64	17.61	-30.2	-32.6	14.1	1.50e-06	0	44	0	975175680	21	4751
2026-01-20 11:44:31.65	318.80	17.53	-30.3	-33.0	13.8	1.50e-06	0	44	0	977272832	21	4887
2026-01-20 11:44:32.65	318.94	17.44	-30.3	-33.1	13.8	2.20e-06	0	44	0	979369984	21	4923
2026-01-20 11:44:33.66	319.10	17.35	-30.3	-33.0	13.8	6.80e-06	0	44	0	980418560	21	4920
2026-01-20 11:44:34.66	319.24	17.26	-30.4	-33.1	13.8	6.10e-06	0	44	0	982515712	21	4958
2026-01-20 11:44:35.66	319.39	17.17	-30.4	-33.3	13.5	1.06e-05	0	44	0	984612864	21	5001
2026-01-20 11:44:36.67	319.54	17.08	-30.5	-33.5	13.4	1.60e-05	0	44	0	986710016	21	5071
2026-01-20 11:44:37.67	319.68	16.99	-30.4	-33.3	13.5	1.60e-05	0	44	0	988807168	21	5003
2026-01-20 11:44:38.67	319.83	16.90	-30.5	-33.6	13.4	1.37e-05	0	44	0	989855744	21	5126
2026-01-20 11:44:39.67	319.97	16.81	-30.6	-33.7	13.4	1.44e-05	0	44	0	991952896	21	5154
2026-01-20 11:44:40.67	320.11	16.73	-30.5	-33.6	13.4	7.60e-06	0	44	0	994050048	21	5140
2026-01-20 11:44:41.68	320.26	16.64	-30.4	-33.3	13.4	2.13e-05	0	44	0	996147200	21	5027
2026-01-20 11:44:42.68	320.40	16.55	-30.4	-33.3	13.5	9.10e-06	0	44	0	998244352	21	5029
2026-01-20 11:44:43.68	320.54	16.46	-30.5	-33.6	13.3	1.52e-05	0	44	0	999292928	21	5128
2026-01-20 11:44:44.68	320.68	16.37	-30.4	-33.3	13.4	2.05e-05	0	44	0	1001390080	21	5026
2026-01-20 11:44:45.69	320.82	16.29	-30.4	-33.3	13.5	7.60e-06	0	44	0	1003487232	21	5018
2026-01-20 11:44:46.69	320.96	16.20	-30.4	-33.3	13.5	1.83e-05	0	44	0	1005584384	21	5029
2026-01-20 11:44:47.70	321.10	16.11	-30.4	-33.2	13.5	1.29e-05	0	44	0	1006632960	21	4976
2026-01-20 11:44:48.70	321.23	16.02	-30.5	-33.5	13.4	1.29e-05	0	44	0	1008730112	21	5076
2026-01-20 11:44:49.70	321.37	15.94	-30.5	-33.6	13.4	2.59e-05	0	44	0	1010827264	21	5126
2026-01-20 11:44:50.71	321.51	15.85	-30.5	-33.6	13.3	1.83e-05	0	44	0	1012924416	21	5119
2026-01-20 11:44:51.71	321.64	15.76	-30.7	-34.0	13.0	2.44e-05	0	45	0	1015021568	21	5294
2026-01-20 11:44:52.71	321.77	15.68	-30.6	-33.8	13.1	3.50e-05	0	44	0	1016070144	21	5223
2026-01-20 11:44:53.71	321.91	15.59	-30.6	-33.8	13.1	2.82e-05	0	44	0	1018167296	21	5217
2026-01-20 11:44:54.72	322.04	15.51	-30.6	-33.8	13.1	3.05e-05	0	44	0	1020264448	21	5201
2026-01-20 11:44:55.71	322.17	15.42	-30.7	-34.1	12.9	3.35e-05	0	44	0	1022361600	21	5312
2026-01-20 11:44:56.71	322.30	15.34	-30.7	-34.0	13.0	4.80e-05	0	44	0	1024458752	21	5295
2026-01-20 11:44:57.71	322.43	15.25	-30.7	-34.0	12.9	3.89e-05	0	44	0	1025507328	21	5303
2026-01-20 11:44:58.71	322.56	15.17	-30.7	-34.2	12.8	5.87e-05	0	44	0	1027604480	21	5379
2026-01-20 11:44:59.71	322.69	15.08	-30.9	-34.6	12.5	7.55e-05	0	45	0	1029701632	21	5551
2026-01-20 11:45:00.70	322.81	15.00	-30.9	-34.9	12.5	9.46e-05	0	44	0	1031798784	21	5643
2026-01-20 11:45:01.71	322.94	14.91	-31.0	-34.9	12.4	1.21e-04	0	44	0	1033895936	21	5670
2026-01-20 11:45:02.72	323.07	14.83	-31.1	-34.8	12.1	2.55e-04	0	44	0	1034944512	22	5526
2026-01-20 11:45:03.72	323.20	14.74	-31.2	-35.1	11.8	3.78e-04	0	44	0	1037041664	22	5654
2026-01-20 11:45:04.73	323.32	14.66	-31.2	-35.1	11.9	5.35e-04	0	44	0	1039138816	22	5623
2026-01-20 11:45:05.73	323.45	14.57	-31.1	-34.8	12.1	3.04e-04	0	44	0	1041235968	22	5517
2026-01-20 11:45:06.73	323.57	14.49	-31.1	-34.7	12.1	2.56e-04	0	44	0	1043333120	22	5463
2026-01-20 11:45:07.74	323.69	14.40	-31.1	-34.8	12.1	2.88e-04	0	44	0	1044381696	22	5528
2026-01-20 11:45:08.74	323.82	14.32	-31.0	-34.6	12.2	2.84e-04	0	44	0	1046478848	22	5425
2026-01-20 11:45:09.75	323.94	14.24	-31.1	-34.7	12.1	2.22e-04	0	44	0	1048576000	22	5477
2026-01-20 11:45:10.74	324.06	14.15	-31.0	-34.6	12.2	2.84e-04	0	44	0	1050673152	22	5429
2026-01-20 11:45:11.74	324.18	14.07	-31.1	-34.7	12.1	2.27e-04	0	44	0	1051721728	22	5484
2026-01-20 11:45:12.75	324.30	13.99	-31.1	-34.8	12.1	2.71e-04	0	44	0	1053818880	22	5499
2026-01-20 11:45:13.75	324.42	13.91	-31.0	-34.4	12.3	2.40e-04	0	44	0	1055916032	22	5335
2026-01-20 11:45:14.75	324.54	13.82	-31.1	-34.7	12.1	2.17e-04	0	44	0	1058013184	22	5491
2026-01-20 11:45:15.76	324.66	13.74	-31.1	-34.7	12.0	3.14e-04	0	44	0	1060110336	22	5481
2026-01-20 11:45:16.76	324.77	13.66	-31.2	-35.1	11.8	3.84e-04	0	44	0	1061158912	22	5638
2026-01-20 11:45:17.76	324.89	13.58	-31.1	-35.0	11.9	4.13e-04	0	44	0	1063256064	22	5585
2026-01-20 11:45:18.76	325.01	13.49	-31.3	-35.4	11.6	4.90e-04	0	44	0	1065353216	22	5771
2026-01-20 11:45:19.76	325.12	13.41	-31.3	-35.4	11.6	6.03e-04	0	44	0	1067450368	22	5764
2026-01-20 11:45:20.76	325.24	13.33	-31.3	-35.4	11.6	5.80e-04	0	44	0	1069547520	22	5792
2026-01-20 11:45:21.76	325.35	13.25	-31.4	-35.9	11.3	9.54e-04	0	44	0	1070596096	22	6000
2026-01-20 11:45:22.77	325.47	13.17	-31.4	-35.8	11.3	1.19e-03	0	44	0	1072693248	22	5964
2026-01-20 11:45:23.78	325.58	13.09	-31.4	-35.7	11.4	9.16e-04	0	44	0	1074790400	22	5924
2026-01-20 11:45:24.78	325.69	13.01	-31.4	-35.7	11.3	1.30e-03	0	44	0	1076887552	22	5914
2026-01-20 11:45:25.78	325.80	12.93	-31.4	-35.8	11.3	1.14e-03	0	44	0	1078984704	22	5959
2026-01-20 11:45:26.78	325.92	12.84	-31.4	-35.8	11.3	1.35e-03	0	45	0	1080033280	22	5966
2026-01-20 11:45:27.79	326.03	12.76	-31.4	-35.7	11.3	1.32e-03	0	44	0	1082130432	22	5941
2026-01-20 11:45:28.79	326.14	12.68	-31.3	-35.5	11.4	9.90e-04	0	44	0	1084227584	22	5847
2026-01-20 11:45:29.79	326.25	12.60	-31.3	-35.5	11.5	9.25e-04	0	45	0	1086324736	22	5824
2026-01-20 11:45:30.79	326.36	12.52	-31.3	-35.5	11.5	9.58e-04	0	44	0	1088421888	22	5842
2026-01-20 11:45:31.79	326.46	12.44	-31.4	-35.8	11.3	8.57e-04	0	44	0	1089470464	22	5963
2026-01-20 11:45:32.79	326.57	12.37	-31.3	-35.4	11.5	1.12e-03	0	44	0	1091567616	22	5816
2026-01-20 11:45:33.79	326.68	12.29	-31.2	-35.1	11.7	6.03e-04	0	44	0	1093664768	22	5646
2026-01-20 11:45:34.80	326.79	12.21	-31.2	-35.1	11.7	4.98e-04	0	44	0	1095761920	22	5675
2026-01-20 11:45:35.79	326.89	12.13	-31.2	-35.2	11.7	5.39e-04	0	44	0	1096810496	22	5691
2026-01-20 11:45:36.79	327.00	12.05	-31.2	-35.2	11.7	5.82e-04	0	45	0	1098907648	22	5699
2026-01-20 11:45:37.79	327.10	11.97	-31.2	-35.3	11.5	6.17e-04	0	44	0	1101004800	22	5752
2026-01-20 11:45:38.79	327.21	11.89	-31.3	-35.6	11.3	9.57e-04	0	44	0	1103101952	22	5883
2026-01-20 11:45:39.80	327.31	11.81	-31.3	-35.5	11.4	9.37e-04	0	44	0	1105199104	22	5857
2026-01-20 11:45:40.81	327.42	11.74	-31.3	-35.7	11.3	1.16e-03	0	44	0	1106247680	22	5924
2026-01-20 11:45:41.80	327.52	11.66	-31.3	-35.7	11.2	1.36e-03	0	44	0	1108344832	22	5942
2026-01-20 11:45:42.81	327.62	11.58	-31.3	-35.6	11.3	1.28e-03	0	44	0	1110441984	22	5904
2026-01-20 11:45:43.81	327.72	11.50	-31.4	-35.9	11.1	1.55e-03	0	44	0	1112539136	22	6019
2026-01-20 11:45:44.82	327.83	11.42	-31.3	-35.7	11.3	1.48e-03	0	44	0	1114636288	22	5957
2026-01-20 11:45:45.82	327.93	11.35	-31.4	-35.8	11.1	1.26e-03	0	44	0	1115684864	22	6011
2026-01-20 11:45:46.83	328.03	11.27	-31.4	-36.0	11.0	1.70e-03	0	44	0	1117782016	22	6081
2026-01-20 11:45:47.83	328.13	11.19	-31.3	-35.6	11.2	1.27e-03	0	44	0	1119879168	22	5927
2026-01-20 11:45:48.84	328.23	11.12	-31.2	-35.2	11.6	8.15e-04	0	44	0	1121976320	22	5732
2026-01-20 11:45:49.84	328.33	11.04	-31.0	-34.6	11.9	7.02e-04	0	44	0	1124073472	22	5468
2026-01-20 11:45:50.85	328.43	10.96	-31.0	-34.6	11.9	4.39e-04	0	44	0	1125122048	22	5483
2026-01-20 11:45:51.85	328.52	10.89	-30.9	-34.5	12.1	4.46e-04	0	44	0	1127219200	22	5396
2026-01-20 11:45:52.85	328.62	10.81	-30.9	-34.4	12.1	2.41e-04	0	44	0	1129316352	22	5385
2026-01-20 11:45:53.87	328.72	10.73	-30.9	-34.4	12.2	2.46e-04	0	44	0	1131413504	22	5361
2026-01-20 11:45:54.87	328.82	10.66	-31.1	-34.9	11.8	3.01e-04	0	45	0	1133510656	22	5578
2026-01-20 11:45:55.87	328.91	10.58	-30.9	-34.2	12.2	4.07e-04	0	44	0	1134559232	22	5306
2026-01-20 11:45:56.87	329.01	10.51	-30.9	-34.5	12.0	2.57e-04	0	44	0	1136656384	22	5406
2026-01-20 11:45:57.88	329.10	10.43	-30.9	-34.5	12.0	2.89e-04	0	45	0	1138753536	22	5414
2026-01-20 11:45:58.89	329.20	10.36	-30.9	-34.4	12.1	2.84e-04	0	44	0	1140850688	22	5372
2026-01-20 11:45:59.89	329.29	10.28	-31.1	-34.9	11.7	3.30e-04	0	44	0	1142947840	22	5581
2026-01-20 11:46:00.88	329.39	10.21	-31.1	-35.0	11.7	6.17e-04	0	44	0	1143996416	22	5634
2026-01-20 11:46:01.88	329.48	10.13	-31.1	-35.0	11.6	5.20e-04	0	45	0	1146093568	22	5626
2026-01-20 11:46:02.89	329.57	10.06	-31.1	-34.9	11.7	5.34e-04	0	44	0	1148190720	22	5606
2026-01-20 11:46:03.89	329.67	9.98	-31.2	-35.2	11.4	8.19e-04	0	44	0	1150287872	22	5742
2026-01-20 11:46:04.88	329.76	9.91	-31.1	-35.1	11.5	8.77e-04	0	44	0	1152385024	22	5701
2026-01-20 11:46:05.88	329.85	9.84	-31.0	-34.8	11.7	8.28e-04	0	44	0	1153433600	22	5564
2026-01-20 11:46:06.88	329.94	9.76	-31.1	-35.1	11.5	6.29e-04	0	44	0	1155530752	22	5705
2026-01-20 11:46:07.89	330.03	9.69	-31.1	-35.1	11.5	7.41e-04	0	44	0	1157627904	22	5696
2026-01-20 11:46:08.89	330.12	9.62	-31.1	-35.2	11.4	6.15e-04	0	45	0	1159725056	22	5758
2026-01-20 11:46:09.88	330.21	9.54	-31.1	-35.2	11.5	7.80e-04	0	44	0	1160773632	22	5723
2026-01-20 11:46:10.88	330.30	9.47	-31.2	-35.4	11.2	1.23e-03	0	44	0	1162870784	22	5853
2026-01-20 11:46:11.88	330.39	9.40	-31.2	-35.5	11.2	1.32e-03	0	44	0	1164967936	22	5892
2026-01-20 11:46:12.89	330.48	9.32	-31.4	-36.1	10.7	1.94e-03	0	44	0	1167065088	22	6183
2026-01-20 11:46:13.89	330.56	9.25	-31.3	-35.7	11.0	2.11e-03	0	44	0	1169162240	22	5981
2026-01-20 11:46:14.90	330.65	9.18	-31.1	-35.2	11.3	1.72e-03	0	44	0	1170210816	22	5773
2026-01-20 11:46:15.90	330.74	9.11	-31.1	-35.1	11.4	1.07e-03	0	44	0	1172307968	22	5702
2026-01-20 11:46:16.91	330.83	9.03	-31.1	-35.2	11.3	9.56e-04	0	44	0	1174405120	22	5766
2026-01-20 11:46:17.91	330.91	8.96	-31.2	-35.4	11.2	1.09e-03	0	45	0	1176502272	22	5856
2026-01-20 11:46:18.91	331.00	8.89	-31.4	-36.1	10.7	2.33e-03	0	44	0	1178599424	22	6171
2026-01-20 11:46:19.92	331.09	8.82	-31.2	-35.6	11.0	1.93e-03	0	44	0	1179648000	22	5952
2026-01-20 11:46:20.92	331.17	8.75	-31.2	-35.5	11.1	1.95e-03	0	45	0	1181745152	22	5922
2026-01-20 11:46:21.92	331.26	8.67	-31.1	-35.3	11.3	1.50e-03	0	44	0	1183842304	22	5798
2026-01-20 11:46:22.92	331.34	8.60	-31.1	-35.2	11.3	1.25e-03	0	45	0	1185939456	22	5776
2026-01-20 11:46:23.92	331.42	8.53	-31.2	-35.4	11.2	1.25e-03	0	44	0	1188036608	22	5850
2026-01-20 11:46:24.91	331.51	8.46	-31.2	-35.6	11.1	1.30e-03	0	44	0	1189085184	22	5949
2026-01-20 11:46:25.92	331.59	8.39	-31.3	-35.7	10.9	2.21e-03	0	44	0	1191182336	22	6017
2026-01-20 11:46:26.92	331.67	8.32	-31.2	-35.6	11.0	2.16e-03	0	44	0	1193279488	22	5933
2026-01-20 11:46:27.92	331.76	8.25	-31.4	-36.3	10.5	2.89e-03	0	44	0	1195376640	22	6323
2026-01-20 11:46:28.93	331.84	8.18	-31.4	-36.1	10.5	4.04e-03	0	45	0	1197473792	22	6211
2026-01-20 11:46:29.93	331.92	8.11	-31.3	-36.0	10.7	2.13e-03	0	44	0	1198522368	22	6153
2026-01-20 11:46:30.94	332.00	8.04	-31.5	-36.1	10.3	5.29e-03	0	44	0	1200619520	23	6089
2026-01-20 11:46:31.94	332.08	7.97	-31.4	-35.6	10.6	4.31e-03	0	44	0	1202716672	23	5867
2026-01-20 11:46:32.95	332.17	7.90	-31.4	-35.8	10.4	3.05e-03	0	44	0	1204813824	23	5948
2026-01-20 11:46:33.95	332.25	7.83	-31.3	-35.4	10.7	3.48e-03	0	44	0	1205862400	23	5789
2026-01-20 11:46:34.95	332.33	7.76	-31.3	-35.5	10.6	3.24e-03	0	44	0	1207959552	23	5838
2026-01-20 11:46:35.96	332.41	7.69	-31.2	-35.2	10.9	2.40e-03	0	44	0	1210056704	23	5661
2026-01-20 11:46:36.96	332.48	7.62	-31.2	-35.2	10.9	4.00e-03	0	44	0	1212153856	23	5664
2026-01-20 11:46:37.96	332.56	7.55	-31.3	-35.3	10.7	2.55e-03	0	44	0	1214251008	23	5728
2026-01-20 11:46:38.96	332.64	7.48	-31.3	-35.6	10.5	2.92e-03	0	44	0	1215299584	23	5869
2026-01-20 11:46:39.96	332.72	7.41	-31.2	-35.0	10.9	3.12e-03	0	44	0	1217396736	23	5612
2026-01-20 11:46:40.97	332.80	7.34	-31.1	-34.7	11.2	1.41e-03	0	45	0	1219493888	23	5450
2026-01-20 11:46:41.97	332.88	7.28	-31.1	-34.7	11.2	1.25e-03	0	45	0	1221591040	23	5453
2026-01-20 11:46:42.97	332.95	7.21	-30.9	-34.1	11.6	1.03e-03	0	44	0	1223688192	23	5209
2026-01-20 11:46:43.98	333.03	7.14	-31.1	-34.7	11.2	7.72e-04	0	45	0	1224736768	23	5456
2026-01-20 11:46:44.98	333.11	7.07	-31.1	-34.9	11.1	1.39e-03	0	44	0	1226833920	23	5537
2026-01-20 11:46:45.99	333.18	7.00	-33.6	-47.6	3.8	1.47e+00	0	44	104	1227882496	27	18031

#Closed at: 2026-01-20 11:46:46
#Recorded file [1227 MB]: D:/data/31010_260120_143550.dat