passes_logs/2026/01/20/R2M6_AANII_01/R2M6_AANII_01__20260120_021901_AQUA_rec.log

#Pass ID: 20260120_021901_AQUA
#Satellite: AQUA
#Configuration: AQUA
#almurnet v.1.7.20240730
#Start time: 2026-01-20 02:19:02

#Version: 2.2.20231116
#Station: R2M6_AANII_01
#Location: 30.233357 lon 59.946436 lat
#TLE: 1 27424U 02022A   26019.27629806  .00001032  00000+0  21655-3 0  9990
#TLE: 2 27424  98.4090 345.7756 0001997  73.0764  31.8912 14.61830109261513

#Time	Az	El	Level	Level2	SNR	BER	BlckErr	Temp	State	Recorded	gain1	gain2
2026-01-20 02:19:02.00	15.40	7.06	-31.9	-46.4	3.8	7.45e-01	0	42	0	0	24	19053
2026-01-20 02:19:03.00	15.38	7.14	-32.3	-47.5	3.8	7.45e-01	0	42	104	0	25	20516
2026-01-20 02:19:04.01	15.37	7.22	-32.0	-46.3	3.8	7.40e-01	0	42	104	0	25	18660
2026-01-20 02:19:05.01	15.35	7.31	-31.8	-46.1	3.8	7.45e-01	0	42	104	0	24	18605
2026-01-20 02:19:06.02	15.33	7.39	-31.6	-45.4	3.8	7.43e-01	0	42	104	0	24	17646
2026-01-20 02:19:07.02	15.32	7.47	-31.7	-45.7	3.8	7.45e-01	0	42	104	0	24	17914
2026-01-20 02:19:08.03	15.30	7.55	-31.6	-45.3	3.8	7.43e-01	0	42	104	0	24	17464
2026-01-20 02:19:09.03	15.28	7.64	-31.4	-45.3	3.8	7.46e-01	0	42	104	0	23	17724
2026-01-20 02:19:10.03	15.26	7.72	-31.3	-44.7	3.8	7.44e-01	0	42	104	0	23	17025
2026-01-20 02:19:11.04	15.25	7.80	-31.2	-44.5	3.8	7.43e-01	0	42	104	0	23	16639
2026-01-20 02:19:12.04	15.23	7.89	-31.0	-44.4	3.8	7.47e-01	0	42	104	0	22	16938
2026-01-20 02:19:13.04	15.21	7.97	-31.1	-44.2	3.8	7.45e-01	0	42	104	0	23	16275
2026-01-20 02:19:14.04	15.19	8.06	-30.9	-44.2	3.8	7.41e-01	0	42	104	0	22	16649
2026-01-20 02:19:15.05	15.17	8.14	-31.1	-44.7	3.8	7.48e-01	0	42	104	0	22	17279
2026-01-20 02:19:16.05	15.16	8.23	-30.9	-43.6	3.8	7.44e-01	0	42	104	0	23	15612
2026-01-20 02:19:17.06	15.14	8.31	-30.9	-44.1	3.8	7.44e-01	0	42	104	0	22	16508
2026-01-20 02:19:18.06	15.12	8.40	-30.9	-44.2	3.8	7.47e-01	0	42	104	0	22	16700
2026-01-20 02:19:19.05	15.10	8.49	-31.0	-44.4	3.8	7.47e-01	0	42	104	0	22	16923
2026-01-20 02:19:20.06	15.08	8.57	-31.1	-44.7	3.8	7.43e-01	0	42	104	0	22	17244
2026-01-20 02:19:21.06	15.06	8.66	-31.2	-44.5	3.8	7.43e-01	0	42	104	0	23	16627
2026-01-20 02:19:22.05	15.05	8.75	-31.2	-44.6	3.8	7.42e-01	0	42	104	0	23	16735
2026-01-20 02:19:23.06	15.03	8.83	-31.4	-45.1	3.8	7.47e-01	0	42	104	0	23	17403
2026-01-20 02:19:24.06	15.01	8.92	-31.5	-45.3	3.8	7.45e-01	0	42	104	0	23	17698
2026-01-20 02:19:25.07	14.99	9.01	-31.6	-45.3	3.8	7.47e-01	0	42	104	0	24	17424
2026-01-20 02:19:26.07	14.97	9.10	-31.8	-45.9	3.8	7.43e-01	0	42	104	0	24	18251
2026-01-20 02:19:27.07	14.95	9.19	-32.1	-46.7	3.8	7.46e-01	0	42	104	0	24	19330
2026-01-20 02:19:28.07	14.93	9.28	-32.2	-46.7	3.8	7.47e-01	0	42	104	0	25	19016
2026-01-20 02:19:29.08	14.91	9.37	-32.4	-47.5	3.8	7.44e-01	0	42	104	0	25	20477
2026-01-20 02:19:30.08	14.89	9.46	-32.7	-47.8	3.8	7.43e-01	0	42	104	0	26	20604
2026-01-20 02:19:31.08	14.87	9.55	-32.9	-48.6	3.8	7.45e-01	0	42	104	0	26	22115
2026-01-20 02:19:32.08	14.85	9.64	-33.0	-49.4	3.8	7.45e-01	0	42	104	0	26	23665
2026-01-20 02:19:33.08	14.83	9.73	-33.2	-49.5	3.8	7.46e-01	0	42	104	0	27	23509
2026-01-20 02:19:34.08	14.80	9.82	-33.2	-49.8	3.8	7.42e-01	0	42	104	0	27	24283
2026-01-20 02:19:35.09	14.78	9.92	-33.3	-50.1	3.8	7.44e-01	0	43	104	0	27	24842
2026-01-20 02:19:36.09	14.76	10.01	-33.3	-50.1	3.8	7.42e-01	0	43	104	0	27	24822
2026-01-20 02:19:37.09	14.74	10.10	-33.3	-50.2	3.8	7.47e-01	0	43	104	0	27	25004
2026-01-20 02:19:38.09	14.72	10.19	-33.3	-50.3	3.8	7.44e-01	0	43	104	0	27	25317
2026-01-20 02:19:39.10	14.70	10.29	-33.4	-50.3	3.8	7.46e-01	0	43	104	0	27	25339
2026-01-20 02:19:40.10	14.68	10.38	-33.4	-50.5	3.8	7.46e-01	0	43	104	0	27	25656
2026-01-20 02:19:41.10	14.65	10.47	-33.3	-50.1	3.8	7.43e-01	0	43	104	0	27	24830
2026-01-20 02:19:42.11	14.63	10.57	-33.3	-50.0	3.8	7.44e-01	0	43	104	0	27	24594
2026-01-20 02:19:43.12	14.61	10.67	-33.3	-49.7	3.8	7.47e-01	0	43	104	0	27	23919
2026-01-20 02:19:44.12	14.59	10.76	-33.2	-49.4	3.8	7.45e-01	0	43	104	0	27	23265
2026-01-20 02:19:45.13	14.56	10.86	-33.2	-49.2	3.8	7.46e-01	0	43	104	0	27	22860
2026-01-20 02:19:46.13	14.54	10.95	-33.0	-48.5	3.8	7.45e-01	0	43	104	0	27	21471
2026-01-20 02:19:47.13	14.52	11.05	-32.8	-48.3	3.8	7.44e-01	0	43	104	0	26	21423
2026-01-20 02:19:48.14	14.49	11.15	-32.7	-47.8	3.8	7.44e-01	0	43	104	0	26	20380
2026-01-20 02:19:49.14	14.47	11.25	-32.5	-47.1	3.8	7.46e-01	0	43	104	0	26	19225
2026-01-20 02:19:50.14	14.44	11.34	-32.2	-46.6	3.8	7.43e-01	0	43	104	0	25	18860
2026-01-20 02:19:51.14	14.42	11.44	-32.1	-46.0	3.8	7.44e-01	0	43	104	0	25	17943
2026-01-20 02:19:52.15	14.40	11.54	-31.8	-45.6	3.8	7.45e-01	0	43	104	0	24	17720
2026-01-20 02:19:53.15	14.37	11.64	-31.5	-44.6	3.8	7.43e-01	0	43	104	0	24	16325
2026-01-20 02:19:54.15	14.35	11.74	-31.2	-44.2	3.8	7.43e-01	0	43	104	0	23	16247
2026-01-20 02:19:55.16	14.32	11.84	-30.9	-44.2	3.8	7.41e-01	0	43	104	0	22	16485
2026-01-20 02:19:56.17	14.30	11.94	-30.8	-43.6	3.8	7.43e-01	0	43	104	0	22	15847
2026-01-20 02:19:57.17	14.27	12.04	-30.7	-43.5	3.8	7.47e-01	0	43	104	0	22	15693
2026-01-20 02:19:58.17	14.25	12.15	-30.7	-43.6	3.8	7.48e-01	0	43	104	0	22	15746
2026-01-20 02:19:59.16	14.22	12.25	-30.6	-43.2	3.8	7.47e-01	0	43	104	0	22	15372
2026-01-20 02:20:00.16	14.19	12.35	-30.5	-43.0	3.8	7.41e-01	0	43	104	0	22	15115
2026-01-20 02:20:01.16	14.17	12.45	-30.5	-43.3	3.8	7.47e-01	0	43	104	0	21	15823
2026-01-20 02:20:02.17	14.14	12.56	-30.4	-43.3	3.8	7.42e-01	0	43	104	0	21	15785
2026-01-20 02:20:03.17	14.11	12.66	-30.4	-43.2	3.8	7.43e-01	0	43	104	0	21	15710
2026-01-20 02:20:04.17	14.09	12.76	-30.5	-43.3	3.8	7.45e-01	0	43	104	0	21	15812
2026-01-20 02:20:05.17	14.06	12.87	-30.5	-43.5	3.8	7.47e-01	0	43	104	0	21	16041
2026-01-20 02:20:06.18	14.03	12.97	-30.4	-43.3	3.8	7.45e-01	0	43	104	0	21	15803
2026-01-20 02:20:07.18	14.01	13.08	-30.4	-43.1	3.8	7.43e-01	0	43	104	0	21	15613
2026-01-20 02:20:08.18	13.98	13.19	-30.4	-43.1	3.8	7.45e-01	0	43	104	0	21	15580
2026-01-20 02:20:09.19	13.95	13.29	-30.5	-43.4	3.8	7.43e-01	0	43	104	0	21	15953
2026-01-20 02:20:10.19	13.92	13.40	-30.7	-43.3	3.8	7.44e-01	0	43	104	0	22	15465
2026-01-20 02:20:11.20	13.89	13.51	-30.8	-43.8	3.8	7.46e-01	0	43	104	0	22	15955
2026-01-20 02:20:12.21	13.86	13.62	-31.0	-44.2	3.8	7.44e-01	0	43	104	0	22	16432
2026-01-20 02:20:13.21	13.83	13.73	-30.2	-43.2	3.8	7.45e-01	0	43	104	0	23	16113
2026-01-20 02:20:14.22	13.80	13.84	-30.4	-44.0	3.8	7.43e-01	0	43	104	0	22	17252
2026-01-20 02:20:15.22	13.77	13.95	-31.8	-45.6	3.8	7.45e-01	0	43	104	0	23	17727
2026-01-20 02:20:16.22	13.74	14.06	-32.1	-46.3	3.8	7.43e-01	0	43	104	0	25	18384
2026-01-20 02:20:17.23	13.71	14.17	-32.4	-47.1	3.8	7.47e-01	0	43	104	0	25	19376
2026-01-20 02:20:18.23	13.68	14.28	-32.7	-47.4	3.8	7.43e-01	0	43	104	0	26	19588
2026-01-20 02:20:19.23	13.65	14.40	-32.8	-47.7	3.8	7.45e-01	0	43	104	0	26	20137
2026-01-20 02:20:20.23	13.62	14.51	-32.9	-48.4	3.8	7.43e-01	0	43	104	0	26	21270
2026-01-20 02:20:21.24	13.59	14.62	-33.1	-49.0	3.8	7.41e-01	0	43	104	0	26	22366
2026-01-20 02:20:22.24	13.56	14.74	-33.3	-49.1	3.8	7.45e-01	0	43	104	0	27	22402
2026-01-20 02:20:23.24	13.53	14.85	-33.4	-49.7	3.8	7.44e-01	0	43	104	0	27	23446
2026-01-20 02:20:24.24	13.49	14.97	-33.4	-49.8	3.8	7.45e-01	0	43	104	0	27	23822
2026-01-20 02:20:25.25	13.46	15.08	-33.5	-50.0	3.8	7.44e-01	0	43	104	0	27	24246
2026-01-20 02:20:26.24	13.43	15.20	-33.5	-50.1	3.8	7.44e-01	0	43	104	0	27	24307
2026-01-20 02:20:27.25	13.40	15.32	-33.5	-50.0	3.8	7.43e-01	0	43	104	0	27	24059
2026-01-20 02:20:28.25	13.36	15.43	-33.4	-49.7	3.8	7.43e-01	0	43	104	0	27	23591
2026-01-20 02:20:29.25	13.33	15.55	-33.4	-49.6	3.8	7.42e-01	0	43	104	0	27	23376
2026-01-20 02:20:30.25	13.29	15.67	-33.5	-49.9	3.8	7.45e-01	0	43	104	0	27	23986
2026-01-20 02:20:31.25	13.26	15.79	-33.3	-49.4	3.8	7.44e-01	0	43	104	0	27	22828
2026-01-20 02:20:32.24	13.23	15.91	-33.2	-48.7	3.8	7.42e-01	0	43	104	0	27	21522
2026-01-20 02:20:33.24	13.19	16.03	-33.0	-48.5	3.8	7.46e-01	0	43	104	0	26	21520
2026-01-20 02:20:34.25	13.15	16.15	-32.9	-47.9	3.8	7.43e-01	0	43	104	0	26	20435
2026-01-20 02:20:35.25	13.12	16.27	-32.7	-47.3	3.8	7.44e-01	0	43	104	0	26	19278
2026-01-20 02:20:36.26	13.08	16.40	-32.4	-46.9	3.8	7.42e-01	0	43	104	0	25	18985
2026-01-20 02:20:37.26	13.05	16.52	-32.2	-46.1	3.8	7.47e-01	0	43	104	0	25	17860
2026-01-20 02:20:38.27	13.01	16.65	-31.9	-45.8	3.8	7.44e-01	0	43	104	0	24	17794
2026-01-20 02:20:39.27	12.97	16.77	-31.7	-45.0	3.8	7.42e-01	0	43	104	0	24	16659
2026-01-20 02:20:40.28	12.93	16.90	-31.4	-44.8	3.8	7.50e-01	0	43	104	0	23	16825
2026-01-20 02:20:41.28	12.90	17.02	-31.3	-44.4	3.8	7.47e-01	0	43	104	0	23	16340
2026-01-20 02:20:42.29	12.86	17.15	-31.1	-44.0	3.8	7.45e-01	0	44	104	0	23	15770
2026-01-20 02:20:43.29	12.82	17.28	-30.8	-43.6	3.8	7.42e-01	0	43	104	0	22	15663
2026-01-20 02:20:44.30	12.78	17.41	-30.6	-43.0	3.8	7.44e-01	0	43	104	0	22	15053
2026-01-20 02:20:45.30	12.74	17.54	-30.5	-43.3	3.8	7.43e-01	0	44	104	0	21	15685
2026-01-20 02:20:46.31	12.70	17.67	-30.4	-43.1	3.8	7.45e-01	0	43	104	0	21	15534
2026-01-20 02:20:47.32	12.66	17.80	-30.4	-43.1	3.8	7.44e-01	0	43	104	0	21	15523
2026-01-20 02:20:48.32	12.62	17.93	-30.5	-43.3	3.8	7.40e-01	0	43	104	0	21	15675
2026-01-20 02:20:49.32	12.58	18.06	-30.6	-43.4	3.8	7.46e-01	0	43	104	0	21	15858
2026-01-20 02:20:50.32	12.54	18.20	-30.5	-43.3	3.8	7.43e-01	0	43	104	0	21	15702
2026-01-20 02:20:51.32	12.49	18.33	-30.5	-43.3	3.8	7.45e-01	0	44	104	0	21	15658
2026-01-20 02:20:52.33	12.45	18.47	-30.5	-43.2	3.8	7.47e-01	0	44	104	0	21	15577
2026-01-20 02:20:53.33	12.41	18.60	-30.6	-43.4	3.8	7.45e-01	0	44	104	0	21	15837
2026-01-20 02:20:54.34	12.37	18.74	-30.8	-43.4	3.8	7.47e-01	0	44	104	0	22	15432
2026-01-20 02:20:55.34	12.32	18.87	-30.8	-43.4	3.8	7.43e-01	0	43	104	0	22	15477
2026-01-20 02:20:56.35	12.28	19.01	-30.7	-43.2	3.8	7.47e-01	0	44	104	0	22	15207
2026-01-20 02:20:57.35	12.23	19.15	-30.6	-43.0	3.8	7.48e-01	0	44	104	0	22	14975
2026-01-20 02:20:58.35	12.19	19.29	-30.6	-43.5	3.8	7.42e-01	0	43	104	0	21	15893
2026-01-20 02:20:59.36	12.14	19.43	-30.8	-43.4	3.8	7.45e-01	0	44	104	0	22	15479
2026-01-20 02:21:00.37	12.10	19.58	-31.0	-44.0	3.8	7.43e-01	0	44	104	0	22	16160
2026-01-20 02:21:01.37	12.05	19.72	-31.3	-44.2	3.8	7.48e-01	0	44	104	0	23	15980
2026-01-20 02:21:02.38	12.00	19.86	-31.6	-44.7	3.8	7.42e-01	0	44	104	0	24	16314
2026-01-20 02:21:03.38	11.95	20.00	-32.0	-45.7	3.8	7.45e-01	0	44	104	0	24	17550
2026-01-20 02:21:04.38	11.91	20.15	-32.3	-46.3	3.8	7.44e-01	0	44	104	0	25	17960
2026-01-20 02:21:05.38	11.86	20.29	-32.7	-46.9	3.8	7.46e-01	0	44	104	0	26	18571
2026-01-20 02:21:06.38	11.81	20.44	-33.0	-48.2	3.8	7.44e-01	0	44	104	0	26	20595
2026-01-20 02:21:07.39	11.76	20.59	-33.3	-48.7	3.8	7.44e-01	0	44	104	0	27	21136
2026-01-20 02:21:08.40	11.71	20.74	-33.4	-49.0	3.8	7.42e-01	0	44	104	0	27	21758
2026-01-20 02:21:09.40	11.66	20.89	-33.5	-49.4	3.8	7.42e-01	0	44	104	0	27	22453
2026-01-20 02:21:10.40	11.61	21.04	-33.5	-49.7	3.8	7.43e-01	0	44	104	0	27	23020
2026-01-20 02:21:11.40	11.55	21.19	-33.5	-49.3	3.8	7.44e-01	0	44	104	0	28	22071
2026-01-20 02:21:12.41	11.50	21.34	-33.6	-49.6	3.8	7.44e-01	0	44	104	0	28	22676
2026-01-20 02:21:13.41	11.45	21.50	-33.7	-49.9	3.8	7.45e-01	0	44	104	0	28	23242
2026-01-20 02:21:14.42	11.39	21.65	-33.7	-49.8	3.8	7.45e-01	0	44	104	0	28	23206
2026-01-20 02:21:15.43	11.34	21.81	-33.6	-49.7	3.8	7.46e-01	0	44	104	0	28	22860
2026-01-20 02:21:16.43	11.28	21.96	-33.6	-49.3	3.8	7.46e-01	0	44	104	0	28	22186
2026-01-20 02:21:17.44	11.23	22.12	-33.5	-49.0	3.8	7.46e-01	0	44	104	0	28	21571
2026-01-20 02:21:18.45	11.17	22.28	-33.4	-49.1	3.8	7.46e-01	0	44	104	0	27	21829
2026-01-20 02:21:19.46	11.11	22.44	-33.5	-49.3	3.8	7.47e-01	0	44	104	0	27	22174
2026-01-20 02:21:20.46	11.06	22.60	-33.4	-48.7	3.8	7.46e-01	0	44	104	0	28	20962
2026-01-20 02:21:21.46	11.00	22.76	-33.3	-48.6	3.8	7.47e-01	0	44	104	0	27	20987
2026-01-20 02:21:22.46	10.94	22.93	-33.1	-47.7	3.8	7.43e-01	0	44	104	0	27	19440
2026-01-20 02:21:23.47	10.88	23.09	-32.8	-46.7	3.8	7.45e-01	0	44	104	0	27	17978
2026-01-20 02:21:24.47	10.82	23.26	-32.5	-46.3	3.8	7.45e-01	0	44	104	0	26	17609
2026-01-20 02:21:25.47	10.76	23.42	-32.3	-46.0	3.8	7.45e-01	0	44	104	0	25	17604
2026-01-20 02:21:26.47	10.70	23.59	-32.0	-45.2	3.8	7.42e-01	0	44	104	0	25	16451
2026-01-20 02:21:27.48	10.64	23.76	-31.7	-44.9	3.8	7.44e-01	0	44	104	0	24	16404
2026-01-20 02:21:28.49	10.57	23.93	-31.5	-44.3	3.8	7.44e-01	0	44	104	0	24	15676
2026-01-20 02:21:29.49	10.51	24.10	-31.3	-43.8	3.8	7.46e-01	0	44	104	0	24	15198
2026-01-20 02:21:30.49	10.44	24.27	-31.2	-44.1	3.8	7.45e-01	0	44	104	0	23	15865
2026-01-20 02:21:31.49	10.38	24.44	-31.2	-43.9	3.8	7.46e-01	0	44	104	0	23	15536
2026-01-20 02:21:32.50	10.31	24.62	-31.1	-43.8	3.8	7.42e-01	0	43	104	0	23	15440
2026-01-20 02:21:33.50	10.24	24.79	-30.9	-43.6	3.8	7.44e-01	0	44	104	0	22	15547
2026-01-20 02:21:34.51	10.18	24.97	-30.7	-43.2	3.8	7.44e-01	0	44	104	0	22	15096
2026-01-20 02:21:35.51	10.11	25.15	-30.6	-43.0	3.8	7.40e-01	0	44	104	0	22	14937
2026-01-20 02:21:36.52	10.04	25.33	-30.5	-43.5	3.8	7.42e-01	0	44	104	0	21	15998
2026-01-20 02:21:37.51	9.97	25.51	-30.7	-43.3	3.8	7.43e-01	0	44	104	0	22	15336
2026-01-20 02:21:38.51	9.90	25.69	-30.8	-43.5	3.8	7.44e-01	0	44	104	0	22	15511
2026-01-20 02:21:39.52	9.82	25.87	-30.8	-43.4	3.8	7.46e-01	0	44	104	0	22	15395
2026-01-20 02:21:40.52	9.75	26.06	-30.8	-43.4	3.8	7.44e-01	0	44	104	0	22	15428
2026-01-20 02:21:41.52	9.68	26.24	-30.9	-43.6	3.8	7.45e-01	0	44	104	0	22	15646
2026-01-20 02:21:42.53	9.60	26.43	-31.0	-44.0	3.8	7.42e-01	0	44	104	0	22	16086
2026-01-20 02:21:43.54	9.52	26.62	-30.9	-44.2	3.8	7.45e-01	0	44	104	0	22	16741
2026-01-20 02:21:44.54	9.45	26.81	-30.0	-43.6	3.8	7.45e-01	0	44	104	0	22	17206
2026-01-20 02:21:45.55	9.37	27.00	-28.7	-43.8	3.8	7.43e-01	0	44	104	0	19	20395
2026-01-20 02:21:46.55	9.29	27.19	-27.1	-43.2	3.8	7.45e-01	0	44	104	0	16	23109
2026-01-20 02:21:47.55	9.21	27.39	-25.8	-42.8	3.8	7.45e-01	0	44	104	0	13	25516
2026-01-20 02:21:48.56	9.13	27.58	-25.8	-43.6	3.8	7.46e-01	0	44	104	0	12	27824
2026-01-20 02:21:49.56	9.04	27.78	-27.3	-43.8	3.9	7.47e-01	0	44	104	0	15	24121
2026-01-20 02:21:50.56	8.96	27.98	-29.2	-44.3	3.8	7.45e-01	0	44	104	0	19	20638
2026-01-20 02:21:51.57	8.88	28.18	-30.3	-44.9	3.8	7.49e-01	0	44	104	0	21	19274
2026-01-20 02:21:52.57	8.79	28.38	-30.5	-45.9	3.8	7.45e-01	0	44	104	0	21	21153
2026-01-20 02:21:53.58	8.70	28.58	-30.7	-46.4	3.8	7.45e-01	0	44	104	0	22	21963
2026-01-20 02:21:54.59	8.61	28.79	-31.5	-47.7	3.8	7.47e-01	0	44	104	0	23	23084
2026-01-20 02:21:55.59	8.53	29.00	-32.7	-48.4	3.8	7.42e-01	0	44	104	0	26	21958
2026-01-20 02:21:56.59	8.43	29.20	-33.1	-48.3	3.8	7.47e-01	0	44	104	0	27	20535
2026-01-20 02:21:57.59	8.34	29.41	-33.1	-47.7	3.8	7.44e-01	0	44	104	0	27	19390
2026-01-20 02:21:58.60	8.25	29.62	-33.2	-48.0	3.8	7.43e-01	0	44	104	0	27	19885
2026-01-20 02:21:59.60	8.15	29.84	-33.3	-48.4	3.8	7.45e-01	0	44	104	0	27	20446
2026-01-20 02:22:00.60	8.06	30.05	-33.4	-48.9	3.8	7.48e-01	0	44	104	0	27	21272
2026-01-20 02:22:01.61	7.96	30.27	-33.6	-49.3	3.8	7.42e-01	0	44	104	0	27	21996
2026-01-20 02:22:02.61	7.86	30.48	-33.6	-49.1	3.8	7.43e-01	0	44	104	0	28	21457
2026-01-20 02:22:03.62	7.76	30.70	-33.6	-49.1	3.8	7.43e-01	0	44	104	0	28	21413
2026-01-20 02:22:04.62	7.66	30.92	-33.4	-48.6	3.8	7.44e-01	0	44	104	0	28	20611
2026-01-20 02:22:05.62	7.56	31.14	-33.4	-48.7	3.7	7.46e-01	0	44	104	0	27	21180
2026-01-20 02:22:06.62	7.45	31.37	-33.2	-48.3	3.8	7.44e-01	0	44	104	0	27	20337
2026-01-20 02:22:07.62	7.35	31.59	-33.1	-47.8	3.8	7.46e-01	0	44	104	0	27	19464
2026-01-20 02:22:08.63	7.24	31.82	-33.1	-47.9	3.8	7.48e-01	0	44	104	0	26	19844
2026-01-20 02:22:09.64	7.13	32.05	-33.2	-47.9	3.8	7.46e-01	0	44	104	0	27	19525
2026-01-20 02:22:10.64	7.02	32.28	-33.1	-47.5	3.8	7.44e-01	0	44	104	0	27	18935
2026-01-20 02:22:11.64	6.91	32.52	-32.7	-46.6	3.8	7.45e-01	0	44	104	0	26	17950
2026-01-20 02:22:12.64	6.79	32.75	-32.3	-45.9	3.8	7.46e-01	0	44	104	0	25	17258
2026-01-20 02:22:13.65	6.67	32.99	-31.9	-44.8	3.8	7.43e-01	0	44	104	0	25	15868
2026-01-20 02:22:14.65	6.56	33.23	-31.6	-44.4	3.8	7.43e-01	0	44	104	0	24	15812
2026-01-20 02:22:15.65	6.44	33.46	-31.3	-44.2	3.8	7.47e-01	0	44	104	0	23	15801
2026-01-20 02:22:16.65	6.32	33.71	-31.2	-43.7	3.8	7.43e-01	0	44	104	0	23	15268
2026-01-20 02:22:17.66	6.19	33.95	-31.2	-43.8	3.8	7.47e-01	0	44	104	0	23	15379
2026-01-20 02:22:18.66	6.07	34.20	-31.3	-44.0	3.8	7.43e-01	0	44	104	0	23	15514
2026-01-20 02:22:19.67	5.94	34.45	-31.4	-44.3	3.8	7.47e-01	0	44	104	0	23	15952
2026-01-20 02:22:20.67	5.81	34.70	-31.4	-44.4	3.8	7.43e-01	0	44	104	0	23	16099
2026-01-20 02:22:21.67	5.68	34.95	-31.4	-44.4	3.8	7.45e-01	0	44	104	0	23	16097
2026-01-20 02:22:22.67	5.54	35.20	-31.2	-43.9	3.8	7.45e-01	0	44	104	0	23	15448
2026-01-20 02:22:23.67	5.41	35.46	-30.9	-43.6	3.8	7.45e-01	0	44	104	0	22	15479
2026-01-20 02:22:24.67	5.27	35.71	-30.8	-43.3	3.8	7.42e-01	0	44	104	0	22	15183
2026-01-20 02:22:25.68	5.13	35.97	-30.8	-43.3	3.8	7.46e-01	0	44	104	0	22	15192
2026-01-20 02:22:26.68	4.98	36.24	-31.1	-43.8	3.8	7.42e-01	0	44	104	0	23	15444
2026-01-20 02:22:27.69	4.84	36.50	-31.5	-44.5	3.8	7.46e-01	0	44	104	0	23	16179
2026-01-20 02:22:28.69	4.69	36.77	-31.6	-44.8	3.8	7.42e-01	0	44	104	0	23	16593
2026-01-20 02:22:29.69	4.54	37.03	-31.6	-44.7	3.8	7.47e-01	0	44	104	0	23	16415
2026-01-20 02:22:30.69	4.38	37.30	-31.7	-44.5	3.8	7.44e-01	0	44	104	0	24	15756
2026-01-20 02:22:31.69	4.23	37.58	-32.0	-45.3	3.8	7.44e-01	0	44	104	0	24	16761
2026-01-20 02:22:32.70	4.07	37.85	-32.4	-46.1	3.8	7.46e-01	0	44	104	0	25	17464
2026-01-20 02:22:33.70	3.91	38.13	-32.8	-47.0	3.8	7.42e-01	0	44	104	0	26	18379
2026-01-20 02:22:34.70	3.74	38.41	-33.1	-47.8	3.8	7.47e-01	0	44	104	0	26	19569
2026-01-20 02:22:35.70	3.58	38.69	-33.0	-47.2	3.8	7.47e-01	0	44	104	0	27	18302
2026-01-20 02:22:36.71	3.40	38.97	-32.8	-46.9	3.8	7.42e-01	0	44	104	0	26	18283
2026-01-20 02:22:37.72	3.23	39.26	-32.7	-46.3	3.8	7.44e-01	0	44	104	0	26	17359
2026-01-20 02:22:38.72	3.05	39.55	-32.7	-46.5	3.8	7.46e-01	0	44	104	0	26	17665
2026-01-20 02:22:39.73	2.87	39.84	-32.9	-47.3	3.8	7.46e-01	0	44	104	0	26	18738
2026-01-20 02:22:40.73	2.69	40.13	-33.2	-47.9	3.8	7.43e-01	0	44	104	0	27	19491
2026-01-20 02:22:41.73	2.50	40.42	-33.4	-48.5	3.8	7.45e-01	0	44	104	0	27	20348
2026-01-20 02:22:42.74	2.31	40.72	-33.6	-48.8	3.8	7.43e-01	0	44	104	0	27	20916
2026-01-20 02:22:43.74	2.11	41.02	-33.8	-49.5	3.8	7.46e-01	0	44	104	0	28	21886
2026-01-20 02:22:44.75	1.91	41.32	-33.7	-49.3	3.8	7.44e-01	0	44	104	0	28	21718
2026-01-20 02:22:45.76	1.71	41.63	-33.4	-48.1	3.8	7.47e-01	0	44	104	0	28	19518
2026-01-20 02:22:46.76	1.50	41.93	-33.0	-46.5	3.8	7.44e-01	0	44	104	0	28	17119
2026-01-20 02:22:47.76	1.29	42.24	-33.1	-47.1	3.8	7.44e-01	0	44	104	0	27	18232
2026-01-20 02:22:48.77	1.08	42.55	-33.2	-47.6	3.8	7.45e-01	0	44	104	0	27	18931
2026-01-20 02:22:49.77	0.86	42.86	-33.3	-47.8	3.8	7.44e-01	0	44	104	0	27	19287
2026-01-20 02:22:50.76	0.64	43.17	-33.3	-48.1	3.8	7.46e-01	0	44	104	0	27	19613
2026-01-20 02:22:51.77	0.41	43.49	-33.5	-48.8	3.8	7.44e-01	0	44	104	0	28	20930
2026-01-20 02:22:52.78	0.17	43.81	-33.8	-49.5	3.8	7.46e-01	0	44	104	0	28	21989
2026-01-20 02:22:53.78	359.94	44.13	-33.7	-49.2	3.8	7.43e-01	0	44	104	0	28	21408
2026-01-20 02:22:54.79	359.69	44.46	-33.5	-48.4	3.8	7.43e-01	0	44	104	0	28	20040
2026-01-20 02:22:55.80	359.44	44.79	-33.3	-47.6	3.8	7.43e-01	0	44	104	0	28	18600
2026-01-20 02:22:56.80	359.19	45.12	-33.1	-47.4	3.8	7.45e-01	0	44	104	0	27	18590
2026-01-20 02:22:57.80	358.93	45.44	-33.2	-47.7	3.8	7.44e-01	0	44	104	0	27	19024
2026-01-20 02:22:58.80	358.67	45.78	-33.2	-47.7	3.8	7.45e-01	0	44	104	0	27	19099
2026-01-20 02:22:59.81	358.40	46.11	-33.5	-48.4	3.8	7.43e-01	0	44	104	0	27	20050
2026-01-20 02:23:00.81	358.12	46.45	-33.2	-47.8	3.8	7.43e-01	0	44	104	0	27	19156
2026-01-20 02:23:01.81	357.84	46.79	-32.9	-46.6	3.8	7.47e-01	0	44	104	0	27	17463
2026-01-20 02:23:02.82	357.55	47.13	-32.4	-45.5	3.8	7.45e-01	0	44	104	0	26	16300
2026-01-20 02:23:03.82	357.26	47.47	-32.0	-44.9	3.8	7.49e-01	0	44	104	0	25	15943
2026-01-20 02:23:04.81	356.96	47.82	-31.9	-45.1	3.8	7.43e-01	0	44	104	0	24	16531
2026-01-20 02:23:05.81	356.65	48.16	-31.8	-45.0	3.8	7.45e-01	0	44	104	0	24	16362
2026-01-20 02:23:06.81	356.34	48.51	-31.8	-44.7	3.8	7.44e-01	0	44	104	0	24	16007
2026-01-20 02:23:07.81	356.01	48.86	-31.9	-45.1	3.8	7.47e-01	0	44	104	0	24	16546
2026-01-20 02:23:08.81	355.68	49.21	-31.9	-45.1	3.8	7.44e-01	0	44	104	0	24	16496
2026-01-20 02:23:09.82	355.34	49.57	-32.0	-45.5	3.8	7.45e-01	0	44	104	0	24	17035
2026-01-20 02:23:10.83	354.99	49.93	-31.5	-44.0	3.8	7.45e-01	0	44	104	0	24	15175
2026-01-20 02:23:11.83	354.64	50.29	-31.3	-44.1	3.8	7.46e-01	0	44	104	0	23	15634
2026-01-20 02:23:12.84	354.27	50.65	-31.2	-43.9	3.8	7.45e-01	0	44	104	0	23	15371
2026-01-20 02:23:13.85	353.90	51.02	-31.1	-43.6	3.8	7.49e-01	0	44	104	0	23	15143
2026-01-20 02:23:14.85	353.51	51.38	-30.7	-43.0	3.8	7.43e-01	0	44	104	0	22	14812
2026-01-20 02:23:15.85	353.12	51.74	-30.4	-42.5	3.8	7.41e-01	0	44	104	0	21	14631
2026-01-20 02:23:16.86	352.72	52.11	-30.5	-43.0	3.8	7.45e-01	0	44	104	0	21	15186
2026-01-20 02:23:17.86	352.31	52.48	-30.8	-43.2	3.8	7.43e-01	0	44	104	0	22	14999
2026-01-20 02:23:18.86	351.88	52.85	-30.8	-43.3	3.8	7.45e-01	0	44	104	0	22	15171
2026-01-20 02:23:19.86	351.45	53.22	-30.9	-43.4	3.8	7.43e-01	0	44	104	0	22	15242
2026-01-20 02:23:20.86	351.01	53.59	-31.2	-43.8	3.8	7.45e-01	0	44	104	0	23	15331
2026-01-20 02:23:21.86	350.55	53.96	-31.8	-44.9	3.8	7.43e-01	0	44	104	0	24	16237
2026-01-20 02:23:22.86	350.08	54.34	-32.4	-46.1	3.8	7.44e-01	0	44	104	0	25	17378
2026-01-20 02:23:23.86	349.60	54.71	-32.7	-46.4	3.8	7.49e-01	0	44	104	0	26	17377
2026-01-20 02:23:24.86	349.11	55.09	-33.1	-47.5	3.8	7.45e-01	0	44	104	0	26	19073
2026-01-20 02:23:25.86	348.60	55.46	-33.1	-47.1	3.8	7.44e-01	0	44	104	0	27	18120
2026-01-20 02:23:26.86	348.08	55.84	-32.8	-46.4	3.8	7.47e-01	0	44	104	0	27	17188
2026-01-20 02:23:27.86	347.54	56.21	-32.6	-46.0	3.8	7.43e-01	0	44	104	0	26	16918
2026-01-20 02:23:28.86	346.99	56.59	-32.8	-46.7	3.8	7.43e-01	0	44	104	0	26	17931
2026-01-20 02:23:29.86	346.43	56.97	-32.9	-47.2	3.8	7.42e-01	0	44	104	0	26	18545
2026-01-20 02:23:30.87	345.84	57.35	-33.2	-47.6	3.8	7.49e-01	0	44	104	0	27	18777
2026-01-20 02:23:31.87	345.24	57.72	-33.6	-48.4	3.8	7.48e-01	0	44	104	0	28	19792
2026-01-20 02:23:32.87	344.62	58.10	-33.4	-47.7	3.8	7.38e-01	0	44	104	0	28	18678
2026-01-20 02:23:33.88	343.98	58.48	-33.1	-47.3	3.8	7.43e-01	0	44	104	0	27	18335
2026-01-20 02:23:34.88	343.33	58.85	-32.7	-45.8	3.8	7.43e-01	0	44	104	0	27	16282
2026-01-20 02:23:35.88	342.66	59.22	-32.3	-45.2	3.8	7.46e-01	0	44	104	0	26	15842
2026-01-20 02:23:36.88	341.97	59.59	-32.2	-45.4	3.8	7.46e-01	0	44	104	0	25	16435
2026-01-20 02:23:37.88	341.26	59.96	-32.2	-45.6	3.8	7.45e-01	0	44	104	0	25	16739
2026-01-20 02:23:38.88	340.53	60.33	-32.4	-45.8	3.8	7.43e-01	0	44	104	0	25	16930
2026-01-20 02:23:39.89	339.77	60.70	-32.8	-46.7	3.8	7.45e-01	0	44	104	0	26	17725
2026-01-20 02:23:40.90	338.98	61.07	-33.1	-47.2	3.8	7.46e-01	0	44	104	0	27	18226
2026-01-20 02:23:41.90	338.19	61.43	-33.3	-48.0	3.8	7.46e-01	0	44	104	0	27	19420
2026-01-20 02:23:42.90	337.36	61.79	-33.7	-49.0	3.8	7.42e-01	0	44	104	0	28	20972
2026-01-20 02:23:43.91	336.51	62.14	-33.5	-48.3	3.8	7.44e-01	0	44	104	0	28	19689
2026-01-20 02:23:44.91	335.64	62.50	-33.6	-48.6	3.8	7.46e-01	0	44	104	0	28	20360
2026-01-20 02:23:45.92	334.73	62.85	-33.4	-47.6	3.8	7.47e-01	0	44	104	0	28	18428
2026-01-20 02:23:46.92	333.80	63.19	-33.6	-48.5	3.8	7.46e-01	0	44	104	0	28	20165
2026-01-20 02:23:47.93	332.84	63.53	-33.6	-48.6	3.8	7.49e-01	0	44	104	0	28	20264
2026-01-20 02:23:48.94	331.85	63.87	-33.8	-49.1	3.8	7.44e-01	0	44	104	0	28	21015
2026-01-20 02:23:49.95	330.83	64.20	-34.2	-50.4	3.8	7.41e-01	0	44	104	0	29	23275
2026-01-20 02:23:50.95	329.80	64.52	-34.0	-49.9	3.8	7.46e-01	0	44	104	0	28	22478
2026-01-20 02:23:51.96	328.72	64.84	-33.6	-48.7	3.8	7.45e-01	0	44	104	0	28	20292
2026-01-20 02:23:52.97	327.61	65.15	-33.5	-48.1	3.8	7.44e-01	0	44	104	0	28	19499
2026-01-20 02:23:53.97	326.48	65.45	-33.4	-48.1	3.8	7.47e-01	0	44	104	0	27	19585
2026-01-20 02:23:54.97	325.32	65.74	-33.1	-47.0	3.8	7.43e-01	0	44	104	0	27	17894
2026-01-20 02:23:55.97	324.13	66.03	-33.3	-48.0	3.8	7.44e-01	0	44	104	0	27	19432
2026-01-20 02:23:56.97	322.91	66.30	-33.1	-47.1	3.8	7.43e-01	0	44	104	0	27	18004
2026-01-20 02:23:57.98	321.64	66.57	-33.0	-46.8	3.8	7.46e-01	0	44	104	0	27	17696
2026-01-20 02:23:58.99	320.34	66.83	-32.9	-47.0	3.8	7.50e-01	0	44	104	0	26	18141
2026-01-20 02:23:59.99	319.03	67.08	-33.0	-39.0	5.4	7.09e-01	0	44	104	0	26	7205
2026-01-20 02:24:00.99	317.68	67.32	-32.8	-37.7	15.3	6.00e-01	0	44	104	0	26	6321
2026-01-20 02:24:01.99	316.30	67.54	-32.9	-38.2	15.2	6.01e-01	0	44	0	524288	26	6573
2026-01-20 02:24:03.00	314.88	67.76	-33.1	-38.3	14.7	6.00e-01	0	44	0	2621440	27	6553
2026-01-20 02:24:04.01	313.42	67.96	-33.0	-38.1	14.7	6.00e-01	0	44	0	4194304	27	6466
2026-01-20 02:24:05.01	311.96	68.15	-32.7	-37.0	15.6	5.99e-01	0	44	0	6291456	27	5897
2026-01-20 02:24:06.00	310.48	68.33	-33.0	-37.9	15.0	6.01e-01	0	44	0	8388608	27	6331
2026-01-20 02:24:07.00	308.96	68.49	-32.8	-37.3	15.4	6.02e-01	0	44	0	9961472	27	6041
2026-01-20 02:24:08.01	307.40	68.64	-33.2	-38.7	14.3	6.03e-01	0	44	0	12058624	27	6822
2026-01-20 02:24:09.01	305.83	68.78	-33.0	-38.4	15.0	6.02e-01	0	44	0	13631488	26	6716
2026-01-20 02:24:10.01	304.25	68.90	-32.9	-38.1	15.1	6.02e-01	0	44	0	15728640	26	6581
2026-01-20 02:24:11.01	302.64	69.00	-33.3	-39.1	14.1	6.04e-01	0	44	0	17301504	27	7034
2026-01-20 02:24:12.00	301.04	69.09	-32.7	-37.0	15.6	6.01e-01	0	44	0	19398656	27	5873
2026-01-20 02:24:13.00	299.41	69.16	-32.9	-37.6	15.1	6.02e-01	0	44	0	21495808	27	6205
2026-01-20 02:24:14.01	297.74	69.22	-32.7	-37.0	15.6	6.00e-01	0	44	0	23068672	27	5879
2026-01-20 02:24:15.02	296.07	69.26	-32.5	-37.1	16.2	5.99e-01	0	44	0	25165824	25	6164
2026-01-20 02:24:16.02	294.41	69.29	-32.9	-38.1	15.2	6.03e-01	0	44	0	26738688	26	6555
2026-01-20 02:24:17.02	292.75	69.30	-32.8	-37.8	15.4	6.00e-01	0	44	0	28835840	26	6371
2026-01-20 02:24:18.03	291.07	69.29	-32.7	-37.5	15.6	6.02e-01	0	44	0	30932992	26	6255
2026-01-20 02:24:19.03	289.41	69.27	-32.7	-37.5	15.6	6.03e-01	0	44	0	32505856	26	6253
2026-01-20 02:24:20.03	287.75	69.23	-32.8	-37.7	15.3	6.00e-01	0	44	0	34603008	26	6373
2026-01-20 02:24:21.03	286.10	69.17	-32.7	-37.4	15.6	6.02e-01	0	44	0	36175872	26	6224
2026-01-20 02:24:22.02	284.48	69.10	-32.6	-37.3	15.6	6.01e-01	0	44	0	38273024	26	6179
2026-01-20 02:24:23.02	282.86	69.02	-32.7	-37.5	15.5	5.99e-01	0	44	0	39845888	26	6268
2026-01-20 02:24:24.03	281.24	68.91	-32.2	-36.5	16.5	6.05e-01	0	44	0	41943040	25	5897
2026-01-20 02:24:25.03	279.65	68.79	-32.8	-37.9	15.1	5.99e-01	0	44	0	44040192	26	6494
2026-01-20 02:24:26.04	278.06	68.66	-32.2	-36.0	16.5	5.99e-01	0	44	0	45613056	26	5544
2026-01-20 02:24:27.04	276.51	68.51	-32.4	-37.1	16.2	5.99e-01	0	44	0	47710208	25	6172
2026-01-20 02:24:28.04	274.99	68.35	-32.9	-38.4	14.9	6.03e-01	0	44	0	49283072	26	6752
2026-01-20 02:24:29.04	273.49	68.18	-32.5	-37.5	15.8	5.98e-01	0	44	0	51380224	25	6366
2026-01-20 02:24:30.04	272.02	67.99	-32.7	-37.5	15.4	6.02e-01	0	44	0	52953088	26	6285
2026-01-20 02:24:31.04	270.58	67.79	-32.8	-38.0	15.1	6.00e-01	0	44	0	55050240	26	6527
2026-01-20 02:24:32.04	269.16	67.58	-33.0	-38.8	14.4	6.01e-01	0	44	0	57147392	26	7021
2026-01-20 02:24:33.04	267.78	67.35	-32.8	-37.9	15.3	6.00e-01	0	44	0	58720256	26	6446
2026-01-20 02:24:34.04	266.42	67.12	-32.8	-37.8	15.3	6.01e-01	0	44	0	60817408	26	6400
2026-01-20 02:24:35.05	265.09	66.87	-33.0	-38.6	14.6	6.03e-01	0	44	0	62390272	26	6878
2026-01-20 02:24:36.05	263.80	66.61	-32.8	-37.9	15.1	6.01e-01	0	44	0	64487424	26	6476
2026-01-20 02:24:37.05	262.54	66.35	-32.5	-36.7	16.0	6.02e-01	0	44	0	66584576	26	5888
2026-01-20 02:24:38.06	261.30	66.07	-32.8	-37.8	15.2	5.98e-01	0	44	0	68157440	26	6410
2026-01-20 02:24:39.07	260.09	65.78	-32.6	-37.3	15.6	6.02e-01	0	44	0	70254592	26	6188
2026-01-20 02:24:40.07	258.92	65.49	-32.6	-37.0	15.8	6.01e-01	0	44	0	71827456	26	6013
2026-01-20 02:24:41.08	257.78	65.18	-32.5	-36.9	15.9	5.99e-01	0	44	0	73924608	26	5950
2026-01-20 02:24:42.08	256.67	64.88	-32.8	-37.9	15.2	6.01e-01	0	44	0	76021760	26	6470
2026-01-20 02:24:43.08	255.60	64.56	-32.4	-36.4	16.2	6.01e-01	0	44	0	77594624	26	5724
2026-01-20 02:24:44.07	254.57	64.24	-32.7	-37.5	15.5	6.01e-01	0	44	0	79691776	26	6266
2026-01-20 02:24:45.07	253.55	63.92	-32.8	-38.1	15.0	6.02e-01	0	44	0	81264640	26	6571
2026-01-20 02:24:46.07	252.57	63.58	-32.5	-36.8	15.8	6.02e-01	0	44	0	83361792	26	5933
2026-01-20 02:24:47.07	251.61	63.25	-32.3	-36.6	16.5	6.03e-01	0	44	0	84934656	25	5957
2026-01-20 02:24:48.07	250.68	62.90	-32.1	-36.0	16.8	6.04e-01	0	44	0	87031808	25	5686
2026-01-20 02:24:49.08	249.76	62.55	-32.3	-36.7	16.2	6.00e-01	0	44	0	89128960	25	6017
2026-01-20 02:24:50.08	248.88	62.20	-32.0	-35.9	16.9	6.00e-01	0	44	0	90701824	25	5642
2026-01-20 02:24:51.08	248.03	61.85	-31.6	-35.1	17.7	6.00e-01	0	44	0	92798976	24	5396
2026-01-20 02:24:52.09	247.20	61.49	-32.1	-36.1	16.7	6.03e-01	0	44	0	94371840	25	5703
2026-01-20 02:24:53.10	246.38	61.12	-31.9	-36.2	16.9	6.01e-01	0	44	0	96468992	24	5891
2026-01-20 02:24:54.10	245.60	60.76	-31.3	-34.4	18.2	6.00e-01	0	44	0	98566144	24	5118
2026-01-20 02:24:55.10	244.84	60.39	-31.2	-34.0	18.4	6.04e-01	0	44	0	100139008	24	4974
2026-01-20 02:24:56.10	244.11	60.02	-31.1	-34.4	18.5	6.00e-01	0	44	0	102236160	23	5219
2026-01-20 02:24:57.10	243.39	59.65	-31.5	-35.3	17.9	6.00e-01	0	44	0	103809024	23	5624
2026-01-20 02:24:58.11	242.69	59.28	-31.0	-34.0	18.6	6.01e-01	0	44	0	105906176	23	5083
2026-01-20 02:24:59.11	242.01	58.90	-30.7	-33.7	19.2	6.02e-01	0	44	0	107479040	22	5074
2026-01-20 02:25:00.10	241.36	58.53	-30.9	-34.3	18.9	6.03e-01	0	44	0	109576192	22	5308
2026-01-20 02:25:01.11	240.72	58.15	-31.1	-34.3	18.5	5.99e-01	0	44	0	111673344	23	5207
2026-01-20 02:25:02.11	240.10	57.78	-31.3	-34.9	18.1	6.01e-01	0	44	0	113246208	23	5435
2026-01-20 02:25:03.11	239.50	57.40	-30.6	-33.5	19.1	6.00e-01	0	44	0	115343360	22	5027
2026-01-20 02:25:04.10	238.92	57.03	-30.1	-32.1	20.0	6.01e-01	0	44	0	116916224	22	4557
2026-01-20 02:25:05.11	238.34	56.64	-30.1	-32.8	20.0	6.03e-01	0	44	0	119013376	21	4877
2026-01-20 02:25:06.11	237.79	56.27	-30.6	-33.6	19.2	6.01e-01	0	44	0	121110528	22	5063
2026-01-20 02:25:07.11	237.25	55.89	-29.8	-31.8	20.6	6.02e-01	0	44	0	122683392	21	4574
2026-01-20 02:25:08.12	236.72	55.51	-29.7	-32.3	20.5	5.99e-01	0	44	0	124780544	20	4838
2026-01-20 02:25:09.13	236.20	55.13	-29.4	-31.5	21.0	5.98e-01	0	44	0	126353408	20	4562
2026-01-20 02:25:10.13	235.70	54.75	-29.9	-32.7	20.2	6.00e-01	0	44	0	128450560	20	4990
2026-01-20 02:25:11.13	235.22	54.38	-29.5	-31.7	20.9	6.00e-01	0	44	0	130023424	20	4655
2026-01-20 02:25:12.14	234.74	54.00	-29.3	-31.8	21.1	6.00e-01	0	44	0	132120576	19	4798
2026-01-20 02:25:13.14	234.28	53.63	-29.2	-31.4	21.4	6.01e-01	0	44	0	134217728	19	4674
2026-01-20 02:25:14.15	233.83	53.25	-29.5	-32.2	20.9	6.02e-01	0	44	0	135790592	19	4916
2026-01-20 02:25:15.15	233.40	52.88	-29.4	-31.9	21.0	5.99e-01	0	44	0	137887744	19	4830
2026-01-20 02:25:16.15	232.97	52.51	-29.3	-31.9	21.1	6.00e-01	0	44	0	139460608	19	4820
2026-01-20 02:25:17.16	232.55	52.13	-29.1	-31.4	21.4	6.02e-01	0	44	0	141557760	19	4650
2026-01-20 02:25:18.16	232.15	51.77	-29.2	-31.5	21.3	6.00e-01	0	44	0	143654912	19	4703
2026-01-20 02:25:19.16	231.76	51.40	-29.5	-32.3	20.9	5.99e-01	0	44	0	145227776	19	4947
2026-01-20 02:25:20.17	231.37	51.03	-29.6	-32.0	20.6	6.02e-01	0	44	0	147324928	20	4755
2026-01-20 02:25:21.17	231.00	50.67	-29.5	-31.9	20.7	6.02e-01	0	44	0	148897792	20	4711
2026-01-20 02:25:22.17	230.63	50.31	-29.4	-31.5	21.0	6.01e-01	0	44	0	150994944	20	4573
2026-01-20 02:25:23.17	230.27	49.95	-29.5	-31.8	20.8	6.01e-01	0	44	0	152567808	20	4690
2026-01-20 02:25:24.17	229.93	49.59	-29.5	-31.8	20.8	6.00e-01	0	44	0	154664960	20	4686
2026-01-20 02:25:25.17	229.59	49.24	-29.6	-32.1	20.6	6.02e-01	0	44	0	156762112	20	4790
2026-01-20 02:25:26.17	229.25	48.88	-29.7	-32.2	20.5	6.02e-01	0	44	0	158334976	20	4833
2026-01-20 02:25:27.18	228.93	48.53	-29.9	-32.9	20.1	6.01e-01	0	44	0	160432128	20	5068
2026-01-20 02:25:28.18	228.61	48.18	-29.9	-32.7	20.2	6.03e-01	0	44	0	162004992	20	4987
2026-01-20 02:25:29.18	228.30	47.83	-29.8	-32.6	20.2	6.00e-01	0	44	0	164102144	20	4963
2026-01-20 02:25:30.19	227.99	47.48	-29.8	-32.6	20.3	6.04e-01	0	44	0	166199296	20	4961
2026-01-20 02:25:31.18	227.70	47.14	-29.9	-32.7	20.2	6.00e-01	0	44	0	167772160	20	5001
2026-01-20 02:25:32.19	227.41	46.79	-30.1	-33.2	20.0	5.99e-01	0	44	0	169869312	20	5174
2026-01-20 02:25:33.19	227.13	46.45	-30.1	-32.8	19.8	6.03e-01	0	44	0	171442176	21	4922
2026-01-20 02:25:34.18	226.85	46.12	-29.9	-32.4	20.0	6.01e-01	0	44	0	173539328	21	4787
2026-01-20 02:25:35.18	226.58	45.78	-29.7	-31.7	20.5	6.03e-01	0	44	0	175112192	21	4550
2026-01-20 02:25:36.18	226.32	45.45	-29.7	-31.9	20.4	6.04e-01	0	44	0	177209344	21	4606
2026-01-20 02:25:37.18	226.06	45.12	-29.7	-31.8	20.5	5.98e-01	0	44	0	179306496	21	4570
2026-01-20 02:25:38.18	225.80	44.79	-29.6	-31.6	20.6	6.01e-01	0	44	0	180879360	21	4521
2026-01-20 02:25:39.18	225.55	44.46	-29.8	-32.0	20.3	5.99e-01	0	44	0	182976512	21	4643
2026-01-20 02:25:40.18	225.31	44.14	-29.6	-31.5	20.6	6.00e-01	0	44	0	184549376	21	4498
2026-01-20 02:25:41.17	225.07	43.82	-29.8	-32.1	20.2	5.98e-01	0	44	0	186646528	21	4675
2026-01-20 02:25:42.17	224.84	43.50	-30.1	-33.0	19.7	6.01e-01	0	44	0	188219392	21	4974
2026-01-20 02:25:43.18	224.61	43.18	-30.1	-32.8	19.8	6.01e-01	0	44	0	190316544	21	4920
2026-01-20 02:25:44.18	224.39	42.87	-30.1	-32.8	19.9	6.00e-01	0	44	0	192413696	21	4916
2026-01-20 02:25:45.18	224.17	42.55	-30.1	-32.7	19.9	6.01e-01	0	44	0	193986560	21	4885
2026-01-20 02:25:46.18	223.95	42.24	-28.5	-31.3	19.8	6.02e-01	0	44	0	196083712	20	4983
2026-01-20 02:25:47.19	223.74	41.93	-30.2	-33.5	19.7	6.01e-01	0	44	0	197656576	20	5261
2026-01-20 02:25:48.19	223.53	41.62	-30.5	-34.0	19.1	6.03e-01	0	44	0	199753728	21	5362
2026-01-20 02:25:49.20	223.32	41.32	-30.5	-34.0	18.6	6.03e-01	0	44	0	201326592	21	5351
2026-01-20 02:25:50.19	223.13	41.02	-30.6	-33.7	18.5	6.02e-01	0	44	0	203423744	22	5128
2026-01-20 02:25:51.19	222.93	40.72	-30.7	-33.8	18.9	6.01e-01	0	44	0	205520896	22	5172
2026-01-20 02:25:52.19	222.74	40.42	-30.9	-34.4	18.2	6.02e-01	0	44	0	207093760	22	5391
2026-01-20 02:25:53.20	222.55	40.12	-30.8	-34.1	18.7	6.02e-01	0	44	0	209190912	22	5259
2026-01-20 02:25:54.20	222.37	39.83	-30.7	-33.8	18.9	5.99e-01	0	44	0	211288064	22	5152
2026-01-20 02:25:55.21	222.18	39.54	-30.8	-34.2	18.7	6.03e-01	0	44	0	212860928	22	5303
2026-01-20 02:25:56.21	222.00	39.25	-30.9	-34.4	18.5	6.02e-01	0	44	0	214958080	22	5407
2026-01-20 02:25:57.21	221.83	38.96	-31.0	-34.7	18.4	6.00e-01	0	44	0	216530944	22	5506
2026-01-20 02:25:58.21	221.66	38.68	-31.1	-34.4	18.2	6.00e-01	0	44	0	218628096	23	5279
2026-01-20 02:25:59.21	221.49	38.40	-30.9	-33.9	18.5	5.98e-01	0	44	0	220200960	23	5081
2026-01-20 02:26:00.22	221.32	38.12	-30.8	-33.6	18.7	6.01e-01	0	44	0	222298112	23	4978
2026-01-20 02:26:01.22	221.16	37.84	-30.8	-33.8	18.6	6.01e-01	0	44	0	224395264	23	5037
2026-01-20 02:26:02.23	221.00	37.56	-30.9	-34.1	18.4	6.00e-01	0	44	0	225968128	23	5159
2026-01-20 02:26:03.23	220.84	37.29	-31.0	-34.3	18.3	6.02e-01	0	44	0	228065280	23	5252
2026-01-20 02:26:04.24	220.69	37.01	-30.9	-34.0	18.4	6.01e-01	0	44	0	229638144	23	5128
2026-01-20 02:26:05.23	220.54	36.75	-30.7	-33.5	18.7	6.01e-01	0	44	0	231735296	23	4951
2026-01-20 02:26:06.24	220.39	36.48	-30.7	-33.4	18.8	6.00e-01	0	44	0	233308160	23	4915
2026-01-20 02:26:07.24	220.24	36.21	-30.8	-33.7	18.6	5.98e-01	0	44	0	235405312	23	5003
2026-01-20 02:26:08.24	220.10	35.95	-30.6	-33.2	18.9	6.03e-01	0	44	0	237502464	23	4849
2026-01-20 02:26:09.25	219.95	35.69	-30.5	-33.0	19.1	6.00e-01	0	44	0	239075328	23	4763
2026-01-20 02:26:10.25	219.81	35.43	-30.4	-32.6	19.3	6.01e-01	0	44	0	241172480	23	4650
2026-01-20 02:26:11.25	219.68	35.17	-30.3	-32.8	19.4	6.00e-01	0	44	0	243269632	22	4824
2026-01-20 02:26:12.25	219.54	34.92	-30.3	-32.7	19.5	6.03e-01	0	44	0	244842496	22	4786
2026-01-20 02:26:13.26	219.41	34.66	-30.3	-32.9	19.4	6.00e-01	0	44	0	246939648	22	4832
2026-01-20 02:26:14.26	219.28	34.41	-30.2	-32.7	19.5	6.03e-01	0	44	0	248512512	22	4768
2026-01-20 02:26:15.26	219.15	34.16	-30.1	-32.3	19.7	6.02e-01	0	44	0	250609664	22	4656
2026-01-20 02:26:16.26	219.02	33.92	-30.1	-32.2	19.8	6.03e-01	0	44	0	252182528	22	4618
2026-01-20 02:26:17.26	218.90	33.67	-30.1	-32.8	19.7	6.00e-01	0	44	0	254279680	21	4909
2026-01-20 02:26:18.27	218.77	33.43	-29.9	-32.3	20.1	6.01e-01	0	44	0	256376832	21	4733
2026-01-20 02:26:19.28	218.65	33.18	-30.0	-32.5	19.9	6.02e-01	0	44	0	257949696	21	4818
2026-01-20 02:26:20.28	218.53	32.95	-29.9	-32.3	20.0	5.99e-01	0	44	0	260046848	21	4757
2026-01-20 02:26:21.27	218.42	32.71	-29.9	-32.3	20.0	6.04e-01	0	44	0	261619712	21	4750
2026-01-20 02:26:22.28	218.30	32.47	-29.9	-32.3	20.0	5.99e-01	0	44	0	263716864	21	4771
2026-01-20 02:26:23.27	218.19	32.24	-29.7	-31.9	20.3	6.03e-01	0	44	0	265289728	21	4626
2026-01-20 02:26:24.27	218.08	32.01	-29.7	-31.9	20.3	5.98e-01	0	44	0	267386880	21	4614
2026-01-20 02:26:25.28	217.97	31.78	-29.7	-31.9	20.2	6.00e-01	0	44	0	269484032	21	4620
2026-01-20 02:26:26.28	217.86	31.55	-29.6	-31.6	20.4	6.01e-01	0	44	0	271056896	21	4524
2026-01-20 02:26:27.28	217.75	31.32	-29.5	-31.2	20.6	5.99e-01	0	44	0	273154048	21	4418
2026-01-20 02:26:28.28	217.65	31.10	-29.5	-31.8	20.5	6.01e-01	0	44	0	274726912	20	4698
2026-01-20 02:26:29.28	217.54	30.88	-29.5	-31.9	20.5	6.01e-01	0	44	0	276824064	20	4740
2026-01-20 02:26:30.28	217.44	30.66	-29.5	-31.8	20.5	6.05e-01	0	44	0	278396928	20	4718
2026-01-20 02:26:31.28	217.34	30.44	-29.6	-32.0	20.4	6.02e-01	0	44	0	280494080	20	4767
2026-01-20 02:26:32.28	217.24	30.22	-29.7	-32.3	20.3	6.02e-01	0	44	0	282591232	20	4863
2026-01-20 02:26:33.29	217.14	30.00	-29.7	-32.4	20.2	6.02e-01	0	44	0	284164096	20	4904
2026-01-20 02:26:34.29	217.05	29.79	-29.7	-32.3	20.3	6.01e-01	0	44	0	286261248	20	4876
2026-01-20 02:26:35.29	216.95	29.57	-29.7	-32.3	20.2	6.01e-01	0	44	0	287834112	20	4875
2026-01-20 02:26:36.29	216.86	29.36	-29.6	-32.1	20.4	6.00e-01	0	44	0	289931264	20	4804
2026-01-20 02:26:37.29	216.76	29.15	-29.6	-32.1	20.3	6.02e-01	0	44	0	291504128	20	4819
2026-01-20 02:26:38.29	216.67	28.94	-29.6	-32.1	20.4	6.00e-01	0	44	0	293601280	20	4800
2026-01-20 02:26:39.29	216.58	28.74	-29.6	-32.1	20.4	6.01e-01	0	44	0	295698432	20	4792
2026-01-20 02:26:40.29	216.49	28.53	-29.8	-32.6	20.1	5.99e-01	0	44	0	297271296	20	4976
2026-01-20 02:26:41.28	216.41	28.33	-29.6	-32.3	20.3	5.98e-01	0	44	0	299368448	20	4866
2026-01-20 02:26:42.28	216.32	28.13	-29.5	-32.0	20.4	6.01e-01	0	44	0	300941312	20	4781
2026-01-20 02:26:43.29	216.24	27.93	-29.5	-32.0	20.3	6.00e-01	0	44	0	303038464	20	4787
2026-01-20 02:26:44.28	216.15	27.73	-29.6	-32.1	20.3	6.00e-01	0	44	0	305135616	20	4813
2026-01-20 02:26:45.29	216.07	27.53	-29.5	-32.0	20.3	6.00e-01	0	44	0	306708480	20	4777
2026-01-20 02:26:46.29	215.99	27.33	-29.6	-32.0	20.3	6.02e-01	0	44	0	308805632	20	4796
2026-01-20 02:26:47.29	215.91	27.14	-29.6	-32.2	20.2	6.01e-01	0	44	0	310378496	20	4843
2026-01-20 02:26:48.30	215.82	26.95	-29.7	-32.4	20.1	5.99e-01	0	44	0	312475648	20	4915
2026-01-20 02:26:49.30	215.75	26.75	-29.7	-32.5	20.1	6.03e-01	0	44	0	314572800	20	4953
2026-01-20 02:26:50.31	215.67	26.56	-29.8	-32.8	19.9	6.01e-01	0	44	0	316145664	20	5041
2026-01-20 02:26:51.31	215.59	26.37	-29.9	-32.9	19.9	6.00e-01	0	44	0	318242816	20	5083
2026-01-20 02:26:52.32	215.51	26.18	-30.0	-33.2	19.7	6.00e-01	0	44	0	319815680	20	5201
2026-01-20 02:26:53.31	215.44	26.00	-30.0	-33.2	19.6	5.99e-01	0	44	0	321912832	20	5210
2026-01-20 02:26:54.31	215.37	25.81	-30.0	-33.2	19.7	6.02e-01	0	44	0	323485696	20	5194
2026-01-20 02:26:55.32	215.29	25.63	-30.1	-33.5	19.5	6.00e-01	0	44	0	325582848	20	5307
2026-01-20 02:26:56.32	215.22	25.45	-30.3	-33.6	19.1	6.00e-01	0	44	0	327680000	21	5238
2026-01-20 02:26:57.32	215.15	25.27	-30.4	-33.7	18.9	5.99e-01	0	44	0	329252864	21	5289
2026-01-20 02:26:58.33	215.08	25.08	-30.2	-33.3	19.2	6.03e-01	0	44	0	331350016	21	5138
2026-01-20 02:26:59.32	215.01	24.91	-30.3	-33.5	19.1	6.03e-01	0	44	0	332922880	21	5216
2026-01-20 02:27:00.32	214.94	24.73	-30.2	-33.3	19.2	6.01e-01	0	44	0	335020032	21	5150
2026-01-20 02:27:01.32	214.87	24.55	-30.2	-33.3	19.2	6.02e-01	0	44	0	337117184	21	5143
2026-01-20 02:27:02.32	214.81	24.38	-30.2	-33.3	19.2	6.01e-01	0	44	0	338690048	21	5134
2026-01-20 02:27:03.32	214.74	24.21	-30.2	-33.3	19.2	6.01e-01	0	44	0	340787200	21	5126
2026-01-20 02:27:04.33	214.67	24.03	-30.2	-33.3	19.2	6.02e-01	0	44	0	342360064	21	5135
2026-01-20 02:27:05.34	214.61	23.86	-30.1	-32.9	19.4	6.02e-01	0	44	0	344457216	21	5000
2026-01-20 02:27:06.34	214.55	23.69	-30.0	-32.9	19.4	6.01e-01	0	44	0	346030080	21	4988
2026-01-20 02:27:07.34	214.48	23.52	-30.1	-33.4	19.4	6.02e-01	0	44	0	348127232	20	5302
2026-01-20 02:27:08.35	214.42	23.35	-30.0	-33.3	19.5	6.01e-01	0	44	0	350224384	20	5243
2026-01-20 02:27:09.35	214.36	23.18	-30.0	-33.2	19.5	6.00e-01	0	44	0	351797248	20	5217
2026-01-20 02:27:10.36	214.30	23.02	-30.0	-33.3	19.5	5.99e-01	0	44	0	353894400	20	5254
2026-01-20 02:27:11.36	214.24	22.85	-30.1	-33.4	19.4	5.98e-01	0	44	0	355467264	20	5309
2026-01-20 02:27:12.36	214.18	22.69	-30.1	-33.4	19.4	5.99e-01	0	44	0	357564416	20	5290
2026-01-20 02:27:13.36	214.12	22.53	-30.1	-33.5	19.3	6.01e-01	0	44	0	359661568	20	5326
2026-01-20 02:27:14.37	214.06	22.37	-30.2	-33.2	19.2	6.01e-01	0	44	0	361234432	21	5112
2026-01-20 02:27:15.37	214.00	22.21	-30.2	-33.3	19.1	6.03e-01	0	44	0	363331584	21	5152
2026-01-20 02:27:16.38	213.94	22.05	-30.2	-33.2	19.2	6.01e-01	0	44	0	364904448	21	5109
2026-01-20 02:27:17.38	213.89	21.89	-30.1	-33.1	19.3	6.00e-01	0	44	0	367001600	21	5053
2026-01-20 02:27:18.38	213.83	21.73	-30.1	-33.1	19.3	6.00e-01	0	44	0	368574464	21	5056
2026-01-20 02:27:19.38	213.78	21.58	-30.1	-33.4	19.4	6.02e-01	0	44	0	370671616	20	5283
2026-01-20 02:27:20.39	213.72	21.42	-30.1	-33.0	19.3	6.02e-01	0	44	0	372768768	21	5037
2026-01-20 02:27:21.40	213.67	21.26	-30.3	-33.5	19.0	5.99e-01	0	44	0	374341632	21	5206
2026-01-20 02:27:22.40	213.62	21.11	-30.3	-33.6	18.9	6.02e-01	0	44	0	376438784	21	5256
2026-01-20 02:27:23.41	213.56	20.96	-30.2	-33.3	19.1	6.00e-01	0	44	0	378535936	21	5127
2026-01-20 02:27:24.41	213.51	20.81	-30.2	-33.4	19.1	6.00e-01	0	44	0	380108800	21	5166
2026-01-20 02:27:25.42	213.46	20.66	-30.2	-33.4	19.0	6.00e-01	0	44	0	382205952	21	5176
2026-01-20 02:27:26.42	213.41	20.51	-30.3	-33.6	18.9	5.97e-01	0	44	0	383778816	21	5282
2026-01-20 02:27:27.42	213.36	20.36	-30.4	-33.8	18.7	6.02e-01	0	44	0	385875968	21	5359
2026-01-20 02:27:28.42	213.31	20.21	-30.3	-33.7	18.8	6.01e-01	0	44	0	387448832	21	5297
2026-01-20 02:27:29.42	213.26	20.07	-30.2	-33.5	19.0	6.00e-01	0	44	0	389545984	21	5219
2026-01-20 02:27:30.42	213.21	19.92	-30.1	-33.1	19.2	5.98e-01	0	44	0	391643136	21	5069
2026-01-20 02:27:31.42	213.16	19.78	-30.1	-33.1	19.2	6.02e-01	0	44	0	393216000	21	5083
2026-01-20 02:27:32.42	213.11	19.63	-30.2	-33.3	19.1	6.02e-01	0	44	0	395313152	21	5151
2026-01-20 02:27:33.43	213.07	19.49	-30.2	-33.4	18.9	6.00e-01	0	44	0	396886016	21	5212
2026-01-20 02:27:34.43	213.02	19.35	-30.0	-32.9	19.2	6.00e-01	0	44	0	398983168	21	5023
2026-01-20 02:27:35.44	212.97	19.21	-30.0	-33.4	19.3	6.02e-01	0	44	0	400556032	20	5308
2026-01-20 02:27:36.44	212.93	19.07	-30.1	-33.6	19.2	5.99e-01	0	44	0	402653184	20	5369
2026-01-20 02:27:37.44	212.88	18.93	-30.2	-33.3	19.1	6.00e-01	0	44	0	404750336	21	5143
2026-01-20 02:27:38.44	212.84	18.79	-30.2	-33.5	18.9	6.00e-01	0	44	0	406323200	21	5228
2026-01-20 02:27:39.45	212.79	18.65	-30.1	-33.6	18.7	6.02e-01	0	44	0	408420352	20	5350
2026-01-20 02:27:40.46	212.75	18.51	-30.1	-33.4	18.2	6.03e-01	0	44	0	410517504	21	5257
2026-01-20 02:27:41.46	212.70	18.38	-30.2	-33.3	19.0	6.00e-01	0	44	0	412090368	21	5142
2026-01-20 02:27:42.46	212.66	18.24	-30.2	-33.4	17.8	6.04e-01	0	44	0	414187520	21	5182
2026-01-20 02:27:43.47	212.62	18.11	-30.2	-33.3	17.3	6.03e-01	0	44	0	415760384	21	5170
2026-01-20 02:27:44.46	212.58	17.97	-30.2	-33.4	18.9	6.03e-01	0	44	0	417857536	21	5204
2026-01-20 02:27:45.47	212.53	17.84	-30.1	-33.5	17.7	6.01e-01	0	44	0	419430400	20	5365
2026-01-20 02:27:46.47	212.49	17.71	-30.1	-33.6	18.0	6.02e-01	0	44	0	421527552	20	5386
2026-01-20 02:27:47.48	212.45	17.58	-30.2	-33.3	18.9	5.99e-01	0	44	0	423624704	21	5183
2026-01-20 02:27:48.48	212.41	17.44	-30.3	-33.5	18.7	6.00e-01	0	44	0	425197568	21	5260
2026-01-20 02:27:49.47	212.37	17.32	-30.2	-33.4	18.8	6.02e-01	0	44	0	427294720	21	5204
2026-01-20 02:27:50.48	212.33	17.19	-30.1	-33.3	18.9	5.99e-01	0	44	0	428867584	21	5161
2026-01-20 02:27:51.48	212.29	17.06	-30.2	-33.6	18.7	6.04e-01	0	44	0	430964736	21	5279
2026-01-20 02:27:52.49	212.25	16.93	-30.3	-33.8	18.5	5.99e-01	0	44	0	432537600	21	5365
2026-01-20 02:27:53.49	212.21	16.80	-30.2	-33.4	18.8	6.03e-01	0	44	0	434634752	21	5221
2026-01-20 02:27:54.50	212.17	16.68	-30.2	-33.5	18.7	5.99e-01	0	44	0	436731904	21	5252
2026-01-20 02:27:55.50	212.14	16.55	-30.1	-33.3	18.8	6.00e-01	0	44	0	438304768	21	5185
2026-01-20 02:27:56.51	212.10	16.42	-30.0	-33.1	19.0	6.01e-01	0	44	0	440401920	21	5087
2026-01-20 02:27:57.52	212.06	16.30	-30.0	-33.3	19.1	5.99e-01	0	44	0	441974784	20	5302
2026-01-20 02:27:58.52	212.02	16.18	-30.0	-33.5	19.0	6.01e-01	0	44	0	444071936	20	5351
2026-01-20 02:27:59.52	211.99	16.05	-30.0	-33.5	19.0	5.98e-01	0	44	0	446169088	20	5366
2026-01-20 02:28:00.53	211.95	15.93	-30.2	-33.4	18.8	6.00e-01	0	44	0	447741952	21	5200
2026-01-20 02:28:01.53	211.92	15.81	-30.4	-34.0	18.3	6.01e-01	0	44	0	449839104	21	5465
2026-01-20 02:28:02.52	211.88	15.69	-30.6	-34.5	18.0	5.99e-01	0	44	0	451411968	21	5672
2026-01-20 02:28:03.53	211.85	15.57	-30.6	-34.6	18.0	5.99e-01	0	44	0	453509120	21	5728
2026-01-20 02:28:04.53	211.81	15.45	-30.7	-34.3	17.9	5.98e-01	0	44	0	455606272	22	5462
2026-01-20 02:28:05.54	211.78	15.33	-30.6	-34.1	17.9	6.00e-01	0	44	0	457179136	22	5389
2026-01-20 02:28:06.54	211.74	15.21	-30.6	-34.2	17.8	5.98e-01	0	44	0	459276288	22	5450
2026-01-20 02:28:07.53	211.71	15.10	-30.7	-34.4	17.7	6.02e-01	0	44	0	460849152	22	5506
2026-01-20 02:28:08.53	211.67	14.98	-30.7	-34.4	17.7	6.01e-01	0	44	0	462946304	22	5531
2026-01-20 02:28:09.53	211.64	14.86	-30.5	-34.5	18.0	6.02e-01	0	44	0	464519168	21	5662
2026-01-20 02:28:10.53	211.61	14.75	-30.3	-33.7	18.4	6.03e-01	0	44	0	466616320	21	5365
2026-01-20 02:28:11.54	211.57	14.63	-30.1	-33.3	18.7	6.01e-01	0	44	0	468713472	21	5208
2026-01-20 02:28:12.54	211.54	14.52	-30.1	-33.7	18.8	6.00e-01	0	44	0	470286336	20	5453
2026-01-20 02:28:13.55	211.51	14.40	-30.0	-33.5	18.9	6.02e-01	0	44	0	472383488	20	5369
2026-01-20 02:28:14.56	211.48	14.29	-30.1	-33.3	18.7	5.99e-01	0	44	0	473956352	21	5179
2026-01-20 02:28:15.56	211.45	14.18	-30.2	-33.4	18.6	6.02e-01	0	44	0	476053504	21	5242
2026-01-20 02:28:16.56	211.42	14.06	-30.0	-33.6	18.8	6.03e-01	0	44	0	478150656	20	5450
2026-01-20 02:28:17.56	211.38	13.95	-30.0	-33.6	18.8	6.01e-01	0	44	0	479723520	20	5423
2026-01-20 02:28:18.56	211.35	13.84	-30.0	-33.7	18.8	6.01e-01	0	44	0	481820672	20	5455
2026-01-20 02:28:19.57	211.32	13.73	-30.1	-33.2	18.7	6.00e-01	0	44	0	483393536	21	5176
2026-01-20 02:28:20.57	211.29	13.62	-30.0	-33.1	18.8	6.00e-01	0	44	0	485490688	21	5109
2026-01-20 02:28:21.57	211.26	13.51	-30.0	-33.6	18.8	5.97e-01	0	44	0	487063552	20	5413
2026-01-20 02:28:22.57	211.23	13.40	-30.0	-33.5	18.8	6.02e-01	0	44	0	489160704	20	5392
2026-01-20 02:28:23.57	211.20	13.29	-30.1	-33.8	18.7	6.01e-01	0	44	0	491257856	20	5499
2026-01-20 02:28:24.57	211.17	13.19	-30.3	-34.0	18.2	5.99e-01	0	44	0	492830720	21	5482
2026-01-20 02:28:25.58	211.15	13.08	-30.4	-34.1	18.1	6.01e-01	0	44	0	494927872	21	5513
2026-01-20 02:28:26.59	211.12	12.97	-30.1	-33.4	18.5	5.99e-01	0	44	0	496500736	21	5230
2026-01-20 02:28:27.59	211.09	12.86	-29.9	-33.4	18.9	5.97e-01	0	44	0	498597888	20	5367
2026-01-20 02:28:28.59	211.06	12.76	-30.0	-33.6	18.7	6.02e-01	0	44	0	500695040	20	5458
2026-01-20 02:28:29.60	211.03	12.65	-30.1	-33.4	18.5	6.00e-01	0	44	0	502267904	21	5235
2026-01-20 02:28:30.61	211.00	12.55	-30.2	-33.5	18.5	6.00e-01	0	44	0	504365056	21	5295
2026-01-20 02:28:31.61	210.98	12.44	-30.2	-33.6	18.4	5.99e-01	0	44	0	505937920	21	5328
2026-01-20 02:28:32.62	210.95	12.34	-30.1	-33.4	18.4	6.01e-01	0	44	0	508035072	21	5270
2026-01-20 02:28:33.61	210.92	12.23	-30.2	-33.5	18.4	6.00e-01	0	44	0	510132224	21	5318
2026-01-20 02:28:34.62	210.89	12.13	-30.2	-33.6	18.4	6.01e-01	0	44	0	511705088	21	5322
2026-01-20 02:28:35.61	210.87	12.03	-30.3	-33.8	18.2	6.01e-01	0	44	0	513802240	21	5432
2026-01-20 02:28:36.61	210.84	11.93	-30.3	-33.8	18.2	6.01e-01	0	44	0	515375104	21	5434
2026-01-20 02:28:37.61	210.82	11.83	-30.3	-33.8	18.1	6.03e-01	0	44	0	517472256	21	5424
2026-01-20 02:28:38.61	210.79	11.73	-30.2	-33.7	18.2	5.99e-01	0	44	0	519045120	21	5391
2026-01-20 02:28:39.61	210.76	11.63	-30.3	-34.0	18.1	6.01e-01	0	44	0	521142272	21	5488
2026-01-20 02:28:40.61	210.74	11.53	-30.3	-33.9	18.1	5.99e-01	0	44	0	523239424	21	5466
2026-01-20 02:28:41.61	210.71	11.43	-30.3	-33.9	18.2	6.03e-01	0	44	0	524812288	21	5453
2026-01-20 02:28:42.61	210.69	11.33	-30.3	-33.9	18.1	6.01e-01	0	44	0	526909440	21	5465
2026-01-20 02:28:43.62	210.66	11.23	-30.4	-34.2	17.9	6.03e-01	0	44	0	528482304	21	5586
2026-01-20 02:28:44.63	210.64	11.13	-30.4	-34.2	17.9	6.00e-01	0	44	0	530579456	21	5587
2026-01-20 02:28:45.63	210.61	11.03	-30.3	-33.8	18.2	6.01e-01	0	44	0	532676608	21	5429
2026-01-20 02:28:46.63	210.59	10.93	-30.2	-33.7	18.2	5.99e-01	0	44	0	534249472	21	5378
2026-01-20 02:28:47.64	210.57	10.83	-30.2	-33.7	18.3	6.03e-01	0	44	0	536346624	21	5366
2026-01-20 02:28:48.64	210.54	10.74	-30.2	-33.6	18.3	6.01e-01	0	44	0	537919488	21	5328
2026-01-20 02:28:49.64	210.52	10.64	-30.2	-33.6	18.3	6.00e-01	0	44	0	540016640	21	5345
2026-01-20 02:28:50.64	210.49	10.55	-30.2	-33.6	18.2	6.01e-01	0	44	0	541589504	21	5339
2026-01-20 02:28:51.64	210.47	10.45	-30.1	-33.8	18.4	6.01e-01	0	44	0	543686656	20	5528
2026-01-20 02:28:52.65	210.45	10.36	-30.2	-33.7	18.2	6.00e-01	0	44	0	545783808	21	5365
2026-01-20 02:28:53.65	210.42	10.26	-30.2	-33.8	18.1	6.03e-01	0	44	0	547356672	21	5421
2026-01-20 02:28:54.65	210.40	10.17	-30.2	-33.7	18.1	6.02e-01	0	44	0	549453824	21	5395
2026-01-20 02:28:55.65	210.38	10.07	-30.2	-33.8	18.1	6.01e-01	0	44	0	551026688	21	5406
2026-01-20 02:28:56.66	210.36	9.98	-30.2	-33.8	18.1	6.01e-01	0	44	0	553123840	21	5413
2026-01-20 02:28:57.66	210.33	9.89	-30.3	-33.9	18.0	6.02e-01	0	44	0	555220992	21	5458
2026-01-20 02:28:58.66	210.31	9.79	-30.2	-33.8	18.1	6.01e-01	0	44	0	556793856	21	5422
2026-01-20 02:28:59.66	210.29	9.70	-30.3	-34.0	17.9	6.00e-01	0	44	0	558891008	21	5520
2026-01-20 02:29:00.65	210.27	9.61	-30.3	-34.0	17.9	6.02e-01	0	44	0	560463872	21	5500
2026-01-20 02:29:01.66	210.25	9.52	-30.2	-33.8	18.0	6.01e-01	0	44	0	562561024	21	5415
2026-01-20 02:29:02.67	210.23	9.43	-30.2	-33.8	18.0	6.00e-01	0	44	0	564133888	21	5430
2026-01-20 02:29:03.68	210.20	9.34	-30.3	-34.0	17.8	6.01e-01	0	44	0	566231040	21	5534
2026-01-20 02:29:04.68	210.18	9.25	-30.3	-34.0	17.9	6.03e-01	0	44	0	568328192	21	5500
2026-01-20 02:29:05.68	210.16	9.16	-30.3	-34.1	17.8	6.02e-01	0	44	0	569901056	21	5548
2026-01-20 02:29:06.68	210.14	9.07	-30.4	-34.4	17.6	6.02e-01	0	44	0	571998208	21	5680
2026-01-20 02:29:07.69	210.12	8.98	-30.3	-34.2	17.7	5.99e-01	0	44	0	573571072	21	5606
2026-01-20 02:29:08.69	210.10	8.89	-30.4	-34.3	17.6	5.99e-01	0	44	0	575668224	21	5641
2026-01-20 02:29:09.68	210.08	8.80	-30.5	-34.5	17.5	5.99e-01	0	44	0	577765376	21	5743
2026-01-20 02:29:10.68	210.06	8.71	-30.5	-34.7	17.3	6.00e-01	0	44	0	579338240	21	5811
2026-01-20 02:29:11.68	210.04	8.62	-30.4	-34.3	17.5	6.04e-01	0	44	0	581435392	21	5655
2026-01-20 02:29:12.68	210.02	8.54	-30.6	-34.8	17.2	5.98e-01	0	44	0	583008256	21	5885
2026-01-20 02:29:13.68	210.00	8.45	-30.6	-34.4	17.2	6.01e-01	0	44	0	585105408	22	5572
2026-01-20 02:29:14.69	209.98	8.36	-30.5	-34.2	17.3	6.00e-01	0	44	0	586678272	22	5514
2026-01-20 02:29:15.70	209.96	8.27	-30.4	-34.5	17.4	6.03e-01	0	44	0	588775424	21	5746
2026-01-20 02:29:16.70	209.94	8.19	-30.5	-34.7	17.3	6.01e-01	0	44	0	590872576	21	5831
2026-01-20 02:29:17.70	209.92	8.10	-30.5	-34.8	17.3	6.03e-01	0	44	0	592445440	21	5860
2026-01-20 02:29:18.70	209.90	8.02	-30.6	-34.9	17.1	5.99e-01	0	44	0	594542592	21	5915
2026-01-20 02:29:19.71	209.88	7.93	-30.5	-34.7	17.3	6.02e-01	0	44	0	596115456	21	5832
2026-01-20 02:29:20.71	209.87	7.85	-30.6	-34.4	17.1	6.02e-01	0	44	0	598212608	22	5583
2026-01-20 02:29:21.72	209.85	7.76	-30.5	-34.8	17.1	6.01e-01	0	44	0	600309760	21	5897
2026-01-20 02:29:22.72	209.83	7.68	-30.6	-35.0	17.0	6.01e-01	0	44	0	601882624	21	5955
2026-01-20 02:29:23.72	209.81	7.59	-30.6	-34.4	17.1	6.01e-01	0	44	0	603979776	22	5602
2026-01-20 02:29:24.72	209.79	7.51	-30.7	-34.7	16.9	5.99e-01	0	44	0	605552640	22	5744
2026-01-20 02:29:25.72	209.77	7.42	-30.7	-34.8	16.8	6.01e-01	0	44	0	607649792	22	5777
2026-01-20 02:29:26.72	209.76	7.34	-30.6	-34.5	17.0	6.00e-01	0	44	0	609222656	22	5652
2026-01-20 02:29:27.72	209.74	7.26	-30.6	-34.5	16.9	6.02e-01	0	44	0	611319808	22	5668
2026-01-20 02:29:28.72	209.72	7.18	-30.6	-34.5	17.0	6.02e-01	0	44	0	613416960	22	5645
2026-01-20 02:29:29.72	209.70	7.09	-33.5	-52.8	3.7	7.47e-01	0	44	104	614465536	27	33313
2026-01-20 02:29:30.72	209.69	7.01	-33.8	-53.0	3.8	7.46e-01	0	44	104	614465536	28	33157
2026-01-20 02:29:31.73	209.67	6.93	-34.1	-53.3	3.9	7.46e-01	0	44	104	614465536	29	32587
2026-01-20 02:29:32.74	209.65	6.85	-34.3	-53.6	3.8	7.46e-01	0	44	104	614465536	29	33254

#Closed at: 2026-01-20 02:29:33
#Recorded file [614 MB]: D:/data/31010_260120_052401.dat