passes_logs/2026/01/20/R2M6_AANII_01/R2M6_AANII_01__20260120_135401_FENGYUN_3D_rec.log

#Pass ID: 20260120_135401_FENGYUN 3D
#Satellite: FENGYUN 3D
#Configuration: FENGYUN 3D
#almurnet v.1.7.20240730
#Start time: 2026-01-20 13:54:01

#Version: 2.2.20231116
#Station: R2M6_AANII_01
#Location: 30.233357 lon 59.946436 lat
#TLE: 1 43010U 17072A   26019.93695019 -.00000250  00000+0 -96545-4 0  9996
#TLE: 2 43010  98.9942 351.8290 0002452 100.7901 259.3550 14.19695974423957

#Time	Az	El	Level	Level2	SNR	BER	BlckErr	Temp	State	Recorded	gain1	gain2
2026-01-20 13:54:01.59	209.89	7.01	-27.8	-29.6	5.8	7.57e-01	0	42	0	0	16	4409
2026-01-20 13:54:02.59	209.98	7.08	-29.6	-32.6	5.4	7.74e-01	0	42	104	0	19	5096
2026-01-20 13:54:03.59	210.07	7.14	-29.3	-31.7	11.0	2.24e-03	0	42	0	0	19	4753
2026-01-20 13:54:04.60	210.16	7.21	-29.6	-32.4	10.5	2.18e-03	0	41	0	5242880	19	5021
2026-01-20 13:54:05.61	210.25	7.27	-29.5	-32.2	10.6	2.74e-03	0	42	0	11534336	19	4935
2026-01-20 13:54:06.62	210.35	7.34	-29.0	-30.9	11.5	7.51e-04	0	42	0	16777216	19	4489
2026-01-20 13:54:07.62	210.44	7.40	-28.8	-30.5	11.8	3.97e-04	0	42	0	22020096	19	4376
2026-01-20 13:54:08.62	210.53	7.47	-28.7	-30.8	11.9	2.08e-04	0	42	0	28311552	18	4564
2026-01-20 13:54:09.62	210.63	7.54	-29.0	-31.6	11.5	8.86e-04	0	42	0	33554432	18	4811
2026-01-20 13:54:10.62	210.72	7.60	-28.5	-30.2	12.3	1.69e-04	0	42	0	38797312	18	4385
2026-01-20 13:54:11.63	210.82	7.67	-28.5	-30.2	12.3	1.43e-04	0	42	0	45088768	18	4386
2026-01-20 13:54:12.63	210.91	7.73	-28.6	-30.6	12.1	1.18e-04	0	42	0	50331648	18	4483
2026-01-20 13:54:13.63	211.01	7.80	-28.5	-30.3	12.3	2.05e-04	0	42	0	55574528	18	4396
2026-01-20 13:54:14.63	211.10	7.86	-28.7	-30.7	12.0	1.74e-04	0	42	0	61865984	18	4537
2026-01-20 13:54:15.63	211.20	7.93	-28.5	-30.1	12.4	9.49e-05	0	42	0	67108864	18	4358
2026-01-20 13:54:16.63	211.29	8.00	-28.8	-31.1	11.8	2.63e-04	0	42	0	73400320	18	4649
2026-01-20 13:54:17.63	211.39	8.06	-28.7	-30.6	12.1	2.59e-04	0	42	0	78643200	18	4511
2026-01-20 13:54:18.63	211.49	8.13	-28.2	-30.0	12.7	9.72e-05	0	42	0	83886080	17	4433
2026-01-20 13:54:19.63	211.59	8.19	-27.7	-29.3	13.5	5.70e-06	0	42	0	90177536	16	4336
2026-01-20 13:54:20.64	211.69	8.26	-27.7	-29.2	13.6	1.14e-05	0	42	0	95420416	16	4296
2026-01-20 13:54:21.64	211.78	8.33	-27.5	-28.7	13.9	1.10e-06	0	42	0	101711872	16	4164
2026-01-20 13:54:22.64	211.88	8.39	-27.4	-28.5	14.0	3.40e-06	0	42	0	106954752	16	4099
2026-01-20 13:54:23.64	211.98	8.46	-27.3	-28.3	14.1	2.20e-06	0	42	0	112197632	16	4055
2026-01-20 13:54:24.65	212.08	8.53	-27.2	-28.7	14.0	0.00e+00	0	42	0	118489088	15	4272
2026-01-20 13:54:25.65	212.18	8.60	-27.0	-28.3	14.3	1.10e-06	0	42	0	123731968	15	4159
2026-01-20 13:54:26.65	212.29	8.66	-27.2	-28.7	14.0	2.20e-06	0	42	0	128974848	15	4270
2026-01-20 13:54:27.66	212.39	8.73	-27.2	-28.6	14.1	2.20e-06	0	42	0	135266304	15	4231
2026-01-20 13:54:28.67	212.49	8.80	-27.0	-28.3	14.3	1.10e-06	0	42	0	140509184	15	4153
2026-01-20 13:54:29.68	212.59	8.87	-27.0	-28.1	14.4	0.00e+00	0	43	0	146800640	15	4097
2026-01-20 13:54:30.68	212.70	8.93	-27.3	-28.8	14.0	1.10e-06	0	43	0	152043520	15	4285
2026-01-20 13:54:31.69	212.80	9.00	-27.0	-28.2	14.4	1.10e-06	0	42	0	158334976	15	4114
2026-01-20 13:54:32.69	212.90	9.07	-26.9	-27.9	14.5	0.00e+00	0	42	0	163577856	15	4054
2026-01-20 13:54:33.69	213.01	9.14	-27.0	-28.2	14.4	1.10e-06	0	43	0	168820736	15	4123
2026-01-20 13:54:34.70	213.11	9.21	-26.9	-28.0	14.5	0.00e+00	0	43	0	175112192	15	4087
2026-01-20 13:54:35.70	213.22	9.27	-26.9	-27.9	14.5	0.00e+00	0	43	0	180355072	15	4063
2026-01-20 13:54:36.71	213.33	9.34	-26.8	-28.3	14.6	0.00e+00	0	43	0	185597952	14	4259
2026-01-20 13:54:37.71	213.43	9.41	-26.9	-28.4	14.6	0.00e+00	0	43	0	191889408	14	4288
2026-01-20 13:54:38.71	213.54	9.48	-26.6	-27.7	14.9	0.00e+00	0	43	0	197132288	14	4103
2026-01-20 13:54:39.71	213.65	9.55	-26.8	-28.1	14.7	0.00e+00	0	43	0	202375168	14	4209
2026-01-20 13:54:40.72	213.75	9.62	-26.7	-28.0	14.8	0.00e+00	0	42	0	208666624	14	4178
2026-01-20 13:54:41.72	213.86	9.69	-26.5	-27.5	15.1	0.00e+00	0	43	0	213909504	14	4038
2026-01-20 13:54:42.72	213.97	9.75	-26.7	-28.1	14.7	0.00e+00	0	43	0	220200960	14	4204
2026-01-20 13:54:43.72	214.08	9.82	-26.6	-27.9	14.9	0.00e+00	0	43	0	225443840	14	4139
2026-01-20 13:54:44.73	214.19	9.89	-26.7	-27.9	14.9	0.00e+00	0	43	0	230686720	14	4155
2026-01-20 13:54:45.73	214.30	9.96	-26.7	-27.9	14.9	0.00e+00	0	43	0	236978176	14	4150
2026-01-20 13:54:46.73	214.41	10.03	-26.5	-27.6	15.0	0.00e+00	0	43	0	242221056	14	4068
2026-01-20 13:54:47.74	214.52	10.10	-26.7	-27.9	14.9	0.00e+00	0	43	0	248512512	14	4151
2026-01-20 13:54:48.74	214.63	10.17	-26.6	-27.8	14.9	0.00e+00	0	43	0	253755392	14	4112
2026-01-20 13:54:49.74	214.75	10.24	-26.6	-27.6	15.0	0.00e+00	0	43	0	258998272	14	4082
2026-01-20 13:54:50.75	214.86	10.31	-26.6	-27.9	14.9	0.00e+00	0	43	0	265289728	14	4141
2026-01-20 13:54:51.75	214.97	10.38	-26.6	-27.7	15.0	0.00e+00	0	43	0	270532608	14	4100
2026-01-20 13:54:52.76	215.09	10.45	-26.7	-27.9	14.9	0.00e+00	0	43	0	275775488	14	4137
2026-01-20 13:54:53.76	215.20	10.52	-26.7	-28.0	14.9	0.00e+00	0	43	0	282066944	14	4165
2026-01-20 13:54:54.76	215.32	10.59	-26.8	-28.3	14.7	0.00e+00	0	43	0	287309824	14	4264
2026-01-20 13:54:55.75	215.43	10.66	-26.8	-28.3	14.7	1.10e-06	0	43	0	293601280	14	4248
2026-01-20 13:54:56.76	215.55	10.73	-26.7	-28.0	14.9	1.10e-06	0	43	0	298844160	14	4186
2026-01-20 13:54:57.76	215.66	10.80	-26.7	-28.0	14.9	0.00e+00	0	43	0	304087040	14	4167
2026-01-20 13:54:58.77	215.78	10.87	-26.7	-28.0	14.8	0.00e+00	0	43	0	310378496	14	4186
2026-01-20 13:54:59.77	215.90	10.94	-26.8	-28.3	14.7	0.00e+00	0	43	0	315621376	14	4251
2026-01-20 13:55:00.77	216.01	11.01	-26.8	-28.1	14.8	0.00e+00	0	43	0	320864256	14	4213
2026-01-20 13:55:01.78	216.13	11.08	-26.7	-27.9	14.9	0.00e+00	0	43	0	327155712	14	4142
2026-01-20 13:55:02.78	216.25	11.15	-26.7	-27.9	14.9	0.00e+00	0	43	0	332398592	14	4158
2026-01-20 13:55:03.78	216.37	11.22	-26.5	-27.6	15.1	0.00e+00	0	43	0	337641472	14	4075
2026-01-20 13:55:04.78	216.49	11.29	-26.4	-27.4	15.2	0.00e+00	0	43	0	343932928	14	4008
2026-01-20 13:55:05.78	216.61	11.37	-26.7	-28.0	14.9	0.00e+00	0	43	0	349175808	14	4172
2026-01-20 13:55:06.78	216.73	11.44	-26.6	-27.9	15.0	0.00e+00	0	43	0	355467264	14	4137
2026-01-20 13:55:07.79	216.86	11.51	-26.5	-27.4	15.2	0.00e+00	0	43	0	360710144	14	4021
2026-01-20 13:55:08.80	216.98	11.58	-26.6	-27.7	15.0	0.00e+00	0	43	0	367001600	14	4107
2026-01-20 13:55:09.80	217.10	11.65	-26.6	-27.7	15.1	0.00e+00	0	43	0	372244480	14	4104
2026-01-20 13:55:10.80	217.23	11.72	-26.7	-27.9	14.9	0.00e+00	0	43	0	377487360	14	4153
2026-01-20 13:55:11.81	217.35	11.80	-26.6	-27.7	15.1	0.00e+00	0	43	0	383778816	14	4103
2026-01-20 13:55:12.81	217.48	11.87	-26.4	-27.3	15.3	0.00e+00	0	43	0	389021696	14	3987
2026-01-20 13:55:13.82	217.60	11.94	-26.4	-27.2	15.4	0.00e+00	0	43	0	394264576	14	3967
2026-01-20 13:55:14.82	217.73	12.01	-26.3	-27.1	15.4	0.00e+00	0	43	0	400556032	14	3948
2026-01-20 13:55:15.82	217.86	12.08	-26.2	-27.4	15.5	1.10e-06	0	43	0	405798912	13	4125
2026-01-20 13:55:16.82	217.98	12.16	-26.2	-27.2	15.7	0.00e+00	0	43	0	411041792	13	4073
2026-01-20 13:55:17.83	218.11	12.23	-26.1	-27.2	15.7	0.00e+00	0	43	0	417333248	13	4056
2026-01-20 13:55:18.83	218.24	12.30	-26.2	-27.4	15.5	0.00e+00	0	43	0	422576128	13	4132
2026-01-20 13:55:19.84	218.37	12.37	-26.1	-27.1	15.7	0.00e+00	0	43	0	428867584	13	4050
2026-01-20 13:55:20.84	218.50	12.45	-26.0	-26.8	15.9	0.00e+00	0	43	0	434110464	13	3977
2026-01-20 13:55:21.84	218.63	12.52	-26.1	-27.1	15.7	0.00e+00	0	43	0	440401920	13	4045
2026-01-20 13:55:22.85	218.76	12.59	-26.2	-27.3	15.6	0.00e+00	0	43	0	445644800	13	4094
2026-01-20 13:55:23.84	218.89	12.66	-26.2	-27.4	15.6	0.00e+00	0	43	0	450887680	13	4135
2026-01-20 13:55:24.84	219.02	12.74	-26.3	-27.6	15.5	0.00e+00	0	43	0	457179136	13	4163
2026-01-20 13:55:25.85	219.16	12.81	-26.2	-27.4	15.6	0.00e+00	0	43	0	462422016	13	4130
2026-01-20 13:55:26.86	219.29	12.88	-26.3	-27.6	15.5	0.00e+00	0	43	0	467664896	13	4176
2026-01-20 13:55:27.86	219.43	12.96	-26.3	-27.5	15.5	0.00e+00	0	43	0	473956352	13	4141
2026-01-20 13:55:28.87	219.56	13.03	-26.1	-27.2	15.7	0.00e+00	0	43	0	479199232	13	4076
2026-01-20 13:55:29.87	219.70	13.10	-26.1	-27.1	15.8	0.00e+00	0	43	0	484442112	13	4042
2026-01-20 13:55:30.87	219.83	13.18	-26.2	-27.4	15.6	0.00e+00	0	43	0	490733568	13	4125
2026-01-20 13:55:31.88	219.97	13.25	-26.2	-27.4	15.6	0.00e+00	0	44	0	495976448	13	4111
2026-01-20 13:55:32.88	220.11	13.32	-26.2	-27.4	15.6	0.00e+00	0	43	0	502267904	13	4109
2026-01-20 13:55:33.89	220.25	13.40	-26.5	-28.0	15.3	0.00e+00	0	44	0	507510784	13	4273
2026-01-20 13:55:34.90	220.39	13.47	-26.2	-27.4	15.6	0.00e+00	0	43	0	513802240	13	4121
2026-01-20 13:55:35.90	220.52	13.54	-26.2	-27.4	15.6	0.00e+00	0	43	0	519045120	13	4131
2026-01-20 13:55:36.91	220.67	13.62	-26.1	-27.0	15.9	0.00e+00	0	44	0	524288000	13	4016
2026-01-20 13:55:37.92	220.81	13.69	-26.3	-27.6	15.6	0.00e+00	0	43	0	530579456	13	4177
2026-01-20 13:55:38.92	220.95	13.77	-26.2	-27.2	15.8	0.00e+00	0	43	0	535822336	13	4072
2026-01-20 13:55:39.92	221.09	13.84	-26.0	-26.8	16.0	0.00e+00	0	44	0	541065216	13	3963
2026-01-20 13:55:40.92	221.23	13.91	-25.9	-26.7	16.1	0.00e+00	0	44	0	547356672	13	3936
2026-01-20 13:55:41.92	221.38	13.99	-26.0	-26.9	16.0	0.00e+00	0	43	0	552599552	13	3977
2026-01-20 13:55:42.93	221.52	14.06	-25.8	-26.8	16.3	0.00e+00	0	44	0	557842432	12	4079
2026-01-20 13:55:43.93	221.67	14.14	-25.8	-26.8	16.3	0.00e+00	0	44	0	564133888	12	4072
2026-01-20 13:55:44.93	221.81	14.21	-25.7	-26.6	16.4	0.00e+00	0	44	0	569376768	12	4028
2026-01-20 13:55:45.93	221.96	14.29	-25.9	-27.1	16.1	0.00e+00	0	43	0	575668224	12	4153
2026-01-20 13:55:46.93	222.10	14.36	-26.0	-27.4	16.0	0.00e+00	0	43	0	580911104	12	4221
2026-01-20 13:55:47.93	222.25	14.43	-26.0	-27.3	16.0	0.00e+00	0	43	0	586153984	12	4203
2026-01-20 13:55:48.94	222.40	14.51	-25.9	-27.2	16.1	0.00e+00	0	44	0	592445440	12	4177
2026-01-20 13:55:49.94	222.55	14.58	-26.0	-27.4	16.0	0.00e+00	0	43	0	597688320	12	4216
2026-01-20 13:55:50.95	222.70	14.66	-25.8	-27.0	16.2	0.00e+00	0	43	0	603979776	12	4117
2026-01-20 13:55:51.96	222.85	14.73	-25.7	-26.7	16.4	0.00e+00	0	44	0	609222656	12	4048
2026-01-20 13:55:52.96	223.00	14.81	-25.8	-26.8	16.3	0.00e+00	0	44	0	614465536	12	4066
2026-01-20 13:55:53.97	223.16	14.88	-25.7	-26.6	16.4	0.00e+00	0	44	0	620756992	12	4025
2026-01-20 13:55:54.97	223.31	14.96	-25.9	-27.0	16.2	0.00e+00	0	43	0	625999872	12	4126
2026-01-20 13:55:55.98	223.46	15.03	-25.7	-26.8	16.3	0.00e+00	0	44	0	631242752	12	4063
2026-01-20 13:55:56.98	223.62	15.11	-25.6	-26.4	16.5	0.00e+00	0	43	0	637534208	12	3972
2026-01-20 13:55:57.99	223.77	15.18	-25.5	-26.3	16.6	0.00e+00	0	43	0	642777088	12	3931
2026-01-20 13:55:58.99	223.93	15.26	-25.5	-26.3	16.6	0.00e+00	0	44	0	649068544	12	3945
2026-01-20 13:55:59.98	224.08	15.33	-25.4	-26.0	16.8	0.00e+00	0	44	0	654311424	12	3880
2026-01-20 13:56:00.99	224.24	15.41	-25.4	-26.1	16.7	0.00e+00	0	44	0	659554304	12	3900
2026-01-20 13:56:01.98	224.40	15.48	-25.3	-25.9	16.8	0.00e+00	0	44	0	665845760	12	3856
2026-01-20 13:56:02.98	224.56	15.56	-25.4	-26.0	16.8	0.00e+00	0	44	0	671088640	12	3876
2026-01-20 13:56:03.99	224.72	15.63	-25.3	-25.9	16.9	0.00e+00	0	44	0	676331520	12	3835
2026-01-20 13:56:04.99	224.88	15.71	-25.4	-26.5	16.9	0.00e+00	0	44	0	682622976	11	4091
2026-01-20 13:56:06.00	225.04	15.78	-25.4	-26.5	16.9	0.00e+00	0	44	0	687865856	11	4095
2026-01-20 13:56:07.00	225.20	15.86	-25.4	-26.6	16.8	0.00e+00	0	44	0	694157312	11	4135
2026-01-20 13:56:08.01	225.37	15.93	-25.5	-26.7	16.8	0.00e+00	0	44	0	699400192	11	4144
2026-01-20 13:56:09.01	225.53	16.01	-25.5	-26.8	16.7	0.00e+00	0	44	0	704643072	11	4168
2026-01-20 13:56:10.01	225.70	16.08	-25.5	-26.8	16.8	0.00e+00	0	44	0	710934528	11	4168
2026-01-20 13:56:11.01	225.86	16.16	-25.5	-26.8	16.7	0.00e+00	0	44	0	716177408	11	4178
2026-01-20 13:56:12.01	226.03	16.23	-25.7	-27.2	16.5	0.00e+00	0	44	0	722468864	11	4287
2026-01-20 13:56:13.01	226.19	16.31	-25.4	-26.6	16.8	0.00e+00	0	43	0	727711744	11	4113
2026-01-20 13:56:14.02	226.36	16.38	-25.5	-26.8	16.8	0.00e+00	0	44	0	732954624	11	4169
2026-01-20 13:56:15.01	226.53	16.46	-25.5	-26.7	16.8	0.00e+00	0	44	0	739246080	11	4136
2026-01-20 13:56:16.02	226.70	16.53	-25.5	-26.6	16.8	0.00e+00	0	44	0	744488960	11	4126
2026-01-20 13:56:17.02	226.87	16.61	-25.5	-26.8	16.8	0.00e+00	0	44	0	749731840	11	4156
2026-01-20 13:56:18.02	227.04	16.68	-25.4	-26.6	16.9	0.00e+00	0	44	0	756023296	11	4108
2026-01-20 13:56:19.03	227.21	16.76	-25.3	-26.4	17.0	0.00e+00	0	44	0	761266176	11	4061
2026-01-20 13:56:20.04	227.39	16.84	-25.5	-26.7	16.8	0.00e+00	0	44	0	766509056	11	4139
2026-01-20 13:56:21.04	227.56	16.91	-25.4	-26.5	17.0	0.00e+00	0	44	0	772800512	11	4082
2026-01-20 13:56:22.05	227.73	16.99	-25.2	-26.1	17.1	0.00e+00	0	44	0	778043392	11	4002
2026-01-20 13:56:23.06	227.91	17.06	-25.2	-26.1	17.2	0.00e+00	0	44	0	784334848	11	3985
2026-01-20 13:56:24.06	228.09	17.14	-25.1	-25.9	17.3	0.00e+00	0	44	0	789577728	11	3940
2026-01-20 13:56:25.06	228.26	17.21	-25.0	-25.7	17.3	0.00e+00	0	44	0	795869184	11	3895
2026-01-20 13:56:26.06	228.44	17.29	-25.0	-25.7	17.4	0.00e+00	0	43	0	801112064	11	3892
2026-01-20 13:56:27.07	228.62	17.36	-25.2	-26.1	17.2	0.00e+00	0	44	0	806354944	11	3992
2026-01-20 13:56:28.07	228.80	17.44	-25.3	-26.4	17.0	0.00e+00	0	44	0	812646400	11	4052
2026-01-20 13:56:29.08	228.98	17.51	-25.3	-26.4	17.0	0.00e+00	0	44	0	817889280	11	4062
2026-01-20 13:56:30.07	229.16	17.59	-25.4	-26.6	16.9	0.00e+00	0	44	0	823132160	11	4105
2026-01-20 13:56:31.07	229.34	17.66	-25.4	-26.5	17.0	0.00e+00	0	44	0	829423616	11	4099
2026-01-20 13:56:32.08	229.53	17.74	-25.5	-26.7	16.9	0.00e+00	0	44	0	834666496	11	4147
2026-01-20 13:56:33.07	229.71	17.81	-25.4	-26.5	17.0	0.00e+00	0	44	0	839909376	11	4091
2026-01-20 13:56:34.07	229.89	17.88	-25.7	-27.1	16.7	0.00e+00	0	44	0	846200832	11	4245
2026-01-20 13:56:35.08	230.08	17.96	-25.3	-26.4	17.1	0.00e+00	0	44	0	851443712	11	4055
2026-01-20 13:56:36.08	230.26	18.03	-25.1	-25.9	17.3	0.00e+00	0	44	0	857735168	11	3935
2026-01-20 13:56:37.09	230.45	18.11	-24.9	-25.5	17.5	0.00e+00	0	44	0	862978048	11	3841
2026-01-20 13:56:38.10	230.64	18.18	-24.9	-25.5	17.5	0.00e+00	0	44	0	869269504	11	3858
2026-01-20 13:56:39.10	230.83	18.26	-25.1	-25.8	17.4	0.00e+00	0	44	0	874512384	11	3921
2026-01-20 13:56:40.10	231.02	18.33	-25.0	-25.6	17.5	0.00e+00	0	44	0	879755264	11	3866
2026-01-20 13:56:41.10	231.21	18.41	-25.0	-25.7	17.5	0.00e+00	0	44	0	886046720	11	3885
2026-01-20 13:56:42.10	231.40	18.48	-24.9	-25.5	17.6	0.00e+00	0	44	0	891289600	11	3838
2026-01-20 13:56:43.11	231.60	18.55	-25.0	-25.5	17.5	0.00e+00	0	44	0	896532480	11	3852
2026-01-20 13:56:44.11	231.79	18.63	-24.9	-25.5	17.5	0.00e+00	0	44	0	902823936	11	3849
2026-01-20 13:56:45.11	231.99	18.70	-25.0	-25.6	17.5	0.00e+00	0	44	0	908066816	11	3870
2026-01-20 13:56:46.12	232.18	18.78	-24.9	-25.5	17.5	0.00e+00	0	44	0	914358272	11	3851
2026-01-20 13:56:47.12	232.38	18.85	-25.0	-25.6	17.5	0.00e+00	0	44	0	919601152	11	3874
2026-01-20 13:56:48.12	232.58	18.92	-25.0	-25.7	17.4	0.00e+00	0	44	0	924844032	11	3903
2026-01-20 13:56:49.13	232.78	19.00	-24.9	-25.5	17.5	0.00e+00	0	44	0	931135488	11	3852
2026-01-20 13:56:50.12	232.97	19.07	-24.9	-25.4	17.6	0.00e+00	0	44	0	936378368	11	3815
2026-01-20 13:56:51.12	233.17	19.14	-25.0	-25.6	17.5	0.00e+00	0	44	0	941621248	11	3859
2026-01-20 13:56:52.13	233.37	19.21	-24.7	-25.6	17.8	0.00e+00	0	44	0	947912704	10	3970
2026-01-20 13:56:53.13	233.58	19.29	-24.8	-25.8	17.7	0.00e+00	0	44	0	953155584	10	4013
2026-01-20 13:56:54.14	233.78	19.36	-24.7	-25.6	17.8	0.00e+00	0	44	0	958398464	10	3963
2026-01-20 13:56:55.14	233.98	19.43	-24.7	-25.5	17.9	0.00e+00	0	44	0	964689920	10	3940
2026-01-20 13:56:56.14	234.19	19.50	-24.9	-25.9	17.6	0.00e+00	0	44	0	969932800	10	4055
2026-01-20 13:56:57.15	234.40	19.58	-24.7	-25.6	17.8	0.00e+00	0	44	0	976224256	10	3967
2026-01-20 13:56:58.15	234.60	19.65	-24.7	-25.6	17.8	0.00e+00	0	44	0	981467136	10	3970
2026-01-20 13:56:59.16	234.81	19.72	-24.7	-25.5	17.9	0.00e+00	0	44	0	987758592	10	3937
2026-01-20 13:57:00.16	235.02	19.79	-24.8	-25.6	17.8	0.00e+00	0	44	0	993001472	10	3982
2026-01-20 13:57:01.16	235.23	19.87	-24.9	-25.9	17.6	0.00e+00	0	44	0	998244352	10	4055
2026-01-20 13:57:02.16	235.44	19.94	-24.8	-25.7	17.7	0.00e+00	0	44	0	1004535808	10	4005
2026-01-20 13:57:03.17	235.65	20.01	-24.8	-25.7	17.7	0.00e+00	0	44	0	1009778688	10	4007
2026-01-20 13:57:04.17	235.86	20.08	-24.8	-25.6	17.8	0.00e+00	0	44	0	1015021568	10	3974
2026-01-20 13:57:05.17	236.08	20.15	-24.6	-25.3	18.0	0.00e+00	0	44	0	1021313024	10	3887
2026-01-20 13:57:06.18	236.29	20.22	-24.6	-25.2	18.0	0.00e+00	0	44	0	1026555904	10	3886
2026-01-20 13:57:07.18	236.51	20.29	-24.7	-25.5	17.9	0.00e+00	0	44	0	1031798784	10	3933
2026-01-20 13:57:08.19	236.73	20.36	-24.5	-25.1	18.1	0.00e+00	0	44	0	1038090240	10	3855
2026-01-20 13:57:09.19	236.94	20.43	-24.5	-25.1	18.1	0.00e+00	0	44	0	1043333120	10	3850
2026-01-20 13:57:10.19	237.16	20.50	-24.6	-25.3	18.0	0.00e+00	0	44	0	1049624576	10	3910
2026-01-20 13:57:11.19	237.38	20.57	-24.5	-25.2	18.1	0.00e+00	0	44	0	1054867456	10	3871
2026-01-20 13:57:12.19	237.60	20.64	-24.6	-25.2	18.0	0.00e+00	0	44	0	1061158912	10	3879
2026-01-20 13:57:13.20	237.82	20.71	-24.7	-25.5	17.9	0.00e+00	0	44	0	1066401792	10	3945
2026-01-20 13:57:14.21	238.05	20.78	-24.5	-25.1	18.1	1.10e-06	0	44	0	1071644672	10	3840
2026-01-20 13:57:15.21	238.27	20.85	-24.6	-25.2	18.1	0.00e+00	0	44	0	1077936128	10	3863
2026-01-20 13:57:16.22	238.49	20.92	-24.6	-25.3	18.0	0.00e+00	0	44	0	1083179008	10	3897
2026-01-20 13:57:17.23	238.72	20.99	-24.6	-25.3	18.0	0.00e+00	0	44	0	1088421888	10	3900
2026-01-20 13:57:18.23	238.95	21.05	-24.7	-25.5	17.9	0.00e+00	0	44	0	1094713344	10	3949
2026-01-20 13:57:19.23	239.17	21.12	-24.6	-25.4	18.0	0.00e+00	0	44	0	1099956224	10	3910
2026-01-20 13:57:20.24	239.40	21.19	-24.7	-25.5	17.9	0.00e+00	0	44	0	1105199104	10	3956
2026-01-20 13:57:21.23	239.63	21.26	-24.7	-25.5	17.9	0.00e+00	0	44	0	1111490560	10	3955
2026-01-20 13:57:22.23	239.86	21.32	-24.8	-25.6	17.9	0.00e+00	0	44	0	1116733440	10	3978
2026-01-20 13:57:23.24	240.09	21.39	-24.7	-25.4	18.0	0.00e+00	0	44	0	1123024896	10	3926
2026-01-20 13:57:24.23	240.32	21.45	-24.6	-25.3	18.0	0.00e+00	0	44	0	1128267776	10	3889
2026-01-20 13:57:25.23	240.55	21.52	-24.6	-25.3	18.0	0.00e+00	0	44	0	1133510656	10	3891
2026-01-20 13:57:26.23	240.79	21.59	-24.7	-25.5	17.9	0.00e+00	0	44	0	1139802112	10	3936
2026-01-20 13:57:27.23	241.02	21.65	-24.9	-25.8	17.7	0.00e+00	0	44	0	1145044992	10	4027
2026-01-20 13:57:28.23	241.26	21.72	-24.6	-25.2	18.1	0.00e+00	0	44	0	1150287872	10	3867
2026-01-20 13:57:29.23	241.49	21.78	-24.5	-25.0	18.2	0.00e+00	0	44	0	1156579328	10	3828
2026-01-20 13:57:30.23	241.73	21.84	-24.6	-25.2	18.1	0.00e+00	0	44	0	1161822208	10	3885
2026-01-20 13:57:31.24	241.97	21.91	-24.8	-25.7	17.9	0.00e+00	0	44	0	1168113664	10	3991
2026-01-20 13:57:32.24	242.21	21.97	-24.7	-25.6	17.9	0.00e+00	0	44	0	1173356544	10	3964
2026-01-20 13:57:33.24	242.45	22.04	-24.6	-25.3	18.0	0.00e+00	0	44	0	1178599424	10	3906
2026-01-20 13:57:34.24	242.69	22.10	-24.6	-25.2	18.1	0.00e+00	0	44	0	1184890880	10	3874
2026-01-20 13:57:35.25	242.93	22.16	-24.7	-25.4	18.0	0.00e+00	0	44	0	1190133760	10	3927
2026-01-20 13:57:36.25	243.18	22.22	-24.8	-25.7	17.8	0.00e+00	0	44	0	1196425216	10	3995
2026-01-20 13:57:37.25	243.42	22.29	-24.6	-25.2	18.1	0.00e+00	0	44	0	1201668096	10	3879
2026-01-20 13:57:38.24	243.66	22.35	-24.8	-25.7	17.9	0.00e+00	0	44	0	1206910976	10	3987
2026-01-20 13:57:39.25	243.91	22.41	-24.8	-25.6	17.9	0.00e+00	0	44	0	1213202432	10	3982
2026-01-20 13:57:40.25	244.16	22.47	-25.1	-26.3	17.5	0.00e+00	0	44	0	1218445312	10	4143
2026-01-20 13:57:41.26	244.41	22.53	-25.0	-26.2	17.6	0.00e+00	0	44	0	1223688192	10	4112
2026-01-20 13:57:42.25	244.65	22.59	-25.1	-26.4	17.5	0.00e+00	0	44	0	1229979648	10	4163
2026-01-20 13:57:43.25	244.90	22.65	-24.8	-25.6	17.9	0.00e+00	0	44	0	1235222528	10	3975
2026-01-20 13:57:44.25	245.15	22.71	-24.4	-24.8	18.3	0.00e+00	0	44	0	1240465408	10	3788
2026-01-20 13:57:45.25	245.40	22.77	-24.1	-24.8	18.6	0.00e+00	0	44	0	1246756864	9	3884
2026-01-20 13:57:46.26	245.66	22.82	-24.1	-24.7	18.6	0.00e+00	0	44	0	1251999744	9	3864
2026-01-20 13:57:47.26	245.91	22.88	-24.2	-24.9	18.5	0.00e+00	0	44	0	1258291200	9	3916
2026-01-20 13:57:48.26	246.17	22.94	-24.2	-24.8	18.6	0.00e+00	0	44	0	1263534080	9	3897
2026-01-20 13:57:49.26	246.42	23.00	-24.2	-25.0	18.5	0.00e+00	0	44	0	1268776960	9	3939
2026-01-20 13:57:50.26	246.68	23.05	-24.1	-24.8	18.6	0.00e+00	0	44	0	1275068416	9	3883
2026-01-20 13:57:51.27	246.94	23.11	-24.0	-24.5	18.7	0.00e+00	0	44	0	1280311296	9	3818
2026-01-20 13:57:52.27	247.19	23.17	-24.1	-24.7	18.6	0.00e+00	0	44	0	1285554176	9	3871
2026-01-20 13:57:53.28	247.46	23.22	-24.2	-25.0	18.5	0.00e+00	0	44	0	1291845632	9	3933
2026-01-20 13:57:54.27	247.71	23.27	-24.1	-24.7	18.7	0.00e+00	0	44	0	1297088512	9	3861
2026-01-20 13:57:55.28	247.97	23.33	-24.0	-24.6	18.7	0.00e+00	0	44	0	1302331392	9	3828
2026-01-20 13:57:56.27	248.23	23.38	-24.0	-24.5	18.8	0.00e+00	0	44	0	1308622848	9	3816
2026-01-20 13:57:57.28	248.50	23.44	-24.0	-24.5	18.8	0.00e+00	0	44	0	1313865728	9	3809
2026-01-20 13:57:58.28	248.76	23.49	-23.8	-24.1	19.0	0.00e+00	0	44	0	1320157184	9	3723
2026-01-20 13:57:59.28	249.02	23.54	-24.0	-24.4	18.8	0.00e+00	0	44	0	1325400064	9	3790
2026-01-20 13:58:00.29	249.29	23.59	-24.0	-24.5	18.8	0.00e+00	0	44	0	1330642944	9	3811
2026-01-20 13:58:01.29	249.56	23.64	-24.1	-24.7	18.6	0.00e+00	0	44	0	1336934400	9	3860
2026-01-20 13:58:02.29	249.82	23.69	-24.0	-24.5	18.7	0.00e+00	0	44	0	1342177280	9	3823
2026-01-20 13:58:03.30	250.09	23.74	-24.0	-24.5	18.8	0.00e+00	0	44	0	1348468736	9	3812
2026-01-20 13:58:04.31	250.36	23.79	-24.0	-24.6	18.7	0.00e+00	0	44	0	1353711616	9	3838
2026-01-20 13:58:05.32	250.64	23.84	-24.0	-24.4	18.8	0.00e+00	0	44	0	1358954496	9	3804
2026-01-20 13:58:06.33	250.91	23.89	-23.9	-24.4	18.8	0.00e+00	0	44	0	1365245952	9	3791
2026-01-20 13:58:07.33	251.18	23.94	-23.9	-24.3	18.9	0.00e+00	0	44	0	1370488832	9	3756
2026-01-20 13:58:08.34	251.45	23.99	-23.8	-24.2	18.9	0.00e+00	0	44	0	1375731712	9	3737
2026-01-20 13:58:09.34	251.72	24.03	-23.8	-24.6	19.0	0.00e+00	0	44	0	1382023168	8	3948
2026-01-20 13:58:10.34	252.00	24.08	-23.9	-24.8	18.9	0.00e+00	0	44	0	1387266048	8	3989
2026-01-20 13:58:11.34	252.27	24.12	-23.9	-24.8	18.9	0.00e+00	0	44	0	1393557504	8	3985
2026-01-20 13:58:12.35	252.55	24.17	-23.9	-24.7	18.9	0.00e+00	0	44	0	1398800384	8	3974
2026-01-20 13:58:13.35	252.82	24.21	-23.9	-24.8	18.9	0.00e+00	0	44	0	1405091840	8	3989
2026-01-20 13:58:14.35	253.10	24.26	-23.8	-24.6	19.0	0.00e+00	0	44	0	1410334720	8	3953
2026-01-20 13:58:15.35	253.38	24.30	-23.8	-24.6	19.0	0.00e+00	0	44	0	1415577600	8	3938
2026-01-20 13:58:16.36	253.66	24.34	-23.8	-24.6	19.0	0.00e+00	0	44	0	1421869056	8	3938
2026-01-20 13:58:17.37	253.94	24.38	-23.7	-24.3	19.1	0.00e+00	0	44	0	1427111936	8	3862
2026-01-20 13:58:18.37	254.21	24.43	-23.8	-24.5	19.0	0.00e+00	0	44	0	1432354816	8	3917
2026-01-20 13:58:19.38	254.50	24.47	-23.9	-24.7	18.9	0.00e+00	0	44	0	1438646272	8	3974
2026-01-20 13:58:20.38	254.78	24.51	-23.8	-24.6	19.0	0.00e+00	0	44	0	1443889152	8	3957
2026-01-20 13:58:21.39	255.06	24.54	-23.8	-24.7	18.9	0.00e+00	0	44	0	1450180608	8	3969
2026-01-20 13:58:22.39	255.34	24.58	-23.8	-24.5	19.0	0.00e+00	0	44	0	1455423488	8	3921
2026-01-20 13:58:23.40	255.63	24.62	-23.6	-24.2	19.2	0.00e+00	0	44	0	1460666368	8	3852
2026-01-20 13:58:24.41	255.91	24.66	-23.6	-24.3	19.2	0.00e+00	0	44	0	1466957824	8	3862
2026-01-20 13:58:25.41	256.20	24.70	-23.7	-24.3	19.1	0.00e+00	0	44	0	1472200704	8	3872
2026-01-20 13:58:26.42	256.48	24.73	-23.6	-24.1	19.3	0.00e+00	0	44	0	1478492160	8	3821
2026-01-20 13:58:27.42	256.77	24.77	-23.6	-24.2	19.2	0.00e+00	0	44	0	1483735040	8	3848
2026-01-20 13:58:28.42	257.05	24.80	-23.6	-24.2	19.2	0.00e+00	0	44	0	1488977920	8	3854
2026-01-20 13:58:29.42	257.34	24.83	-23.5	-23.9	19.3	0.00e+00	0	44	0	1495269376	8	3786
2026-01-20 13:58:30.43	257.63	24.87	-23.6	-24.1	19.2	0.00e+00	0	44	0	1500512256	8	3823
2026-01-20 13:58:31.43	257.92	24.90	-23.6	-24.2	19.2	0.00e+00	0	44	0	1505755136	8	3847
2026-01-20 13:58:32.44	258.21	24.93	-23.6	-24.2	19.2	0.00e+00	0	44	0	1512046592	8	3856
2026-01-20 13:58:33.44	258.49	24.96	-23.8	-24.5	19.0	0.00e+00	0	44	0	1517289472	8	3933
2026-01-20 13:58:34.44	258.78	24.99	-23.8	-24.7	19.0	0.00e+00	0	44	0	1523580928	8	3962
2026-01-20 13:58:35.45	259.08	25.02	-23.7	-24.4	19.1	0.00e+00	0	44	0	1528823808	8	3896
2026-01-20 13:58:36.46	259.37	25.05	-23.7	-24.3	19.1	0.00e+00	0	44	0	1534066688	8	3884
2026-01-20 13:58:37.46	259.66	25.08	-23.7	-24.5	19.1	0.00e+00	0	44	0	1540358144	8	3910
2026-01-20 13:58:38.46	259.95	25.11	-23.8	-24.7	19.0	0.00e+00	0	44	0	1545601024	8	3954
2026-01-20 13:58:39.47	260.24	25.13	-23.8	-24.5	19.0	0.00e+00	0	44	0	1551892480	8	3922
2026-01-20 13:58:40.48	260.54	25.16	-23.8	-24.5	19.1	0.00e+00	0	44	0	1557135360	8	3919
2026-01-20 13:58:41.48	260.83	25.18	-23.7	-24.4	19.1	0.00e+00	0	44	0	1562378240	8	3895
2026-01-20 13:58:42.48	261.12	25.21	-23.6	-24.1	19.3	0.00e+00	0	44	0	1568669696	8	3819
2026-01-20 13:58:43.48	261.42	25.23	-23.6	-24.1	19.2	0.00e+00	0	44	0	1573912576	8	3828
2026-01-20 13:58:44.48	261.71	25.25	-23.6	-24.2	19.2	0.00e+00	0	44	0	1579155456	8	3853
2026-01-20 13:58:45.48	262.00	25.27	-23.6	-24.1	19.2	0.00e+00	0	44	0	1585446912	8	3824
2026-01-20 13:58:46.48	262.30	25.30	-23.5	-23.9	19.3	0.00e+00	0	44	0	1590689792	8	3794
2026-01-20 13:58:47.48	262.59	25.32	-23.5	-24.0	19.3	0.00e+00	0	44	0	1595932672	8	3808
2026-01-20 13:58:48.48	262.89	25.34	-23.5	-24.0	19.3	0.00e+00	0	44	0	1602224128	8	3811
2026-01-20 13:58:49.49	263.19	25.35	-23.4	-23.8	19.4	0.00e+00	0	44	0	1607467008	8	3754
2026-01-20 13:58:50.49	263.48	25.37	-23.5	-23.9	19.4	0.00e+00	0	44	0	1613758464	8	3788
2026-01-20 13:58:51.49	263.78	25.39	-23.5	-23.9	19.4	0.00e+00	0	44	0	1619001344	8	3785
2026-01-20 13:58:52.50	264.08	25.41	-23.5	-24.0	19.3	0.00e+00	0	44	0	1625292800	8	3800
2026-01-20 13:58:53.50	264.37	25.42	-23.6	-24.2	19.2	0.00e+00	0	44	0	1630535680	8	3862
2026-01-20 13:58:54.50	264.67	25.44	-23.7	-24.4	19.1	0.00e+00	0	44	0	1635778560	8	3901
2026-01-20 13:58:55.51	264.97	25.45	-23.7	-24.3	19.2	0.00e+00	0	44	0	1642070016	8	3874
2026-01-20 13:58:56.51	265.27	25.46	-23.6	-24.1	19.2	0.00e+00	0	44	0	1647312896	8	3827
2026-01-20 13:58:57.51	265.56	25.48	-23.7	-24.3	19.2	0.00e+00	0	44	0	1652555776	8	3867
2026-01-20 13:58:58.51	265.86	25.49	-23.6	-24.2	19.2	0.00e+00	0	44	0	1658847232	8	3845
2026-01-20 13:58:59.52	266.16	25.50	-23.6	-24.1	19.3	0.00e+00	0	44	0	1664090112	8	3828
2026-01-20 13:59:00.52	266.46	25.51	-23.7	-24.4	19.1	0.00e+00	0	44	0	1669332992	8	3904
2026-01-20 13:59:01.52	266.76	25.52	-23.8	-24.6	19.0	0.00e+00	0	44	0	1675624448	8	3935
2026-01-20 13:59:02.53	267.06	25.53	-23.8	-24.5	19.1	0.00e+00	0	44	0	1680867328	8	3931
2026-01-20 13:59:03.54	267.36	25.53	-23.8	-24.5	19.0	0.00e+00	0	44	0	1687158784	8	3930
2026-01-20 13:59:04.54	267.66	25.54	-23.8	-24.5	19.1	0.00e+00	0	44	0	1692401664	8	3923
2026-01-20 13:59:05.54	267.96	25.55	-23.9	-24.7	18.9	0.00e+00	0	44	0	1698693120	8	3981
2026-01-20 13:59:06.54	268.26	25.55	-24.0	-25.0	18.8	0.00e+00	0	44	0	1703936000	8	4048
2026-01-20 13:59:07.55	268.56	25.56	-23.9	-24.9	18.9	0.00e+00	0	44	0	1709178880	8	4006
2026-01-20 13:59:08.56	268.86	25.56	-23.8	-24.5	19.1	0.00e+00	0	44	0	1715470336	8	3914
2026-01-20 13:59:09.56	269.16	25.56	-23.8	-24.6	19.0	0.00e+00	0	44	0	1720713216	8	3946
2026-01-20 13:59:10.56	269.46	25.57	-23.9	-24.8	18.9	0.00e+00	0	44	0	1725956096	8	4004
2026-01-20 13:59:11.57	269.76	25.57	-23.9	-24.8	18.9	0.00e+00	0	44	0	1732247552	8	3984
2026-01-20 13:59:12.57	270.06	25.57	-24.1	-25.2	18.7	0.00e+00	0	44	0	1737490432	8	4093
2026-01-20 13:59:13.58	270.37	25.57	-24.0	-25.0	18.8	0.00e+00	0	44	0	1742733312	8	4038
2026-01-20 13:59:14.57	270.66	25.56	-23.7	-24.4	19.2	0.00e+00	0	44	0	1749024768	8	3881
2026-01-20 13:59:15.57	270.96	25.56	-23.6	-24.1	19.3	0.00e+00	0	44	0	1754267648	8	3834
2026-01-20 13:59:16.57	271.26	25.56	-23.6	-24.2	19.2	0.00e+00	0	44	0	1760559104	8	3858
2026-01-20 13:59:17.57	271.56	25.56	-23.7	-24.4	19.1	0.00e+00	0	44	0	1765801984	8	3893
2026-01-20 13:59:18.57	271.86	25.55	-23.7	-24.3	19.2	0.00e+00	0	44	0	1771044864	8	3864
2026-01-20 13:59:19.58	272.16	25.55	-23.8	-24.5	19.1	0.00e+00	0	44	0	1777336320	8	3923
2026-01-20 13:59:20.58	272.46	25.54	-23.8	-24.5	19.1	0.00e+00	0	44	0	1782579200	8	3929
2026-01-20 13:59:21.59	272.76	25.53	-23.7	-24.3	19.2	0.00e+00	0	44	0	1787822080	8	3866
2026-01-20 13:59:22.59	273.06	25.52	-23.7	-24.3	19.2	0.00e+00	0	44	0	1794113536	8	3879
2026-01-20 13:59:23.59	273.36	25.52	-23.7	-24.3	19.2	0.00e+00	0	44	0	1799356416	8	3871
2026-01-20 13:59:24.59	273.66	25.51	-23.6	-24.2	19.2	0.00e+00	0	44	0	1805647872	8	3851
2026-01-20 13:59:25.59	273.95	25.50	-23.8	-24.5	19.1	0.00e+00	0	44	0	1810890752	8	3921
2026-01-20 13:59:26.59	274.25	25.48	-23.8	-24.5	19.1	0.00e+00	0	44	0	1816133632	8	3915
2026-01-20 13:59:27.60	274.55	25.47	-23.8	-24.6	19.0	0.00e+00	0	44	0	1822425088	8	3944
2026-01-20 13:59:28.61	274.85	25.46	-23.9	-24.7	19.0	0.00e+00	0	44	0	1827667968	8	3964
2026-01-20 13:59:29.61	275.15	25.45	-23.9	-24.7	18.9	0.00e+00	0	44	0	1833959424	8	3981
2026-01-20 13:59:30.61	275.45	25.43	-24.0	-25.0	18.8	0.00e+00	0	44	0	1839202304	8	4028
2026-01-20 13:59:31.62	275.75	25.42	-23.9	-24.8	18.9	0.00e+00	0	44	0	1844445184	8	4000
2026-01-20 13:59:32.62	276.04	25.40	-24.0	-25.1	18.8	0.00e+00	0	44	0	1850736640	8	4065
2026-01-20 13:59:33.63	276.34	25.38	-24.0	-25.1	18.8	0.00e+00	0	44	0	1855979520	8	4059
2026-01-20 13:59:34.63	276.64	25.37	-23.8	-24.6	19.1	0.00e+00	0	44	0	1861222400	8	3929
2026-01-20 13:59:35.63	276.93	25.35	-23.7	-24.4	19.2	0.00e+00	0	44	0	1867513856	8	3896
2026-01-20 13:59:36.63	277.23	25.33	-23.7	-24.3	19.2	0.00e+00	0	44	0	1872756736	8	3879
2026-01-20 13:59:37.64	277.52	25.31	-23.7	-24.5	19.1	0.00e+00	0	44	0	1879048192	8	3910
2026-01-20 13:59:38.64	277.82	25.29	-23.7	-24.4	19.2	0.00e+00	0	44	0	1884291072	8	3886
2026-01-20 13:59:39.64	278.11	25.27	-23.6	-24.1	19.3	0.00e+00	0	44	0	1890582528	8	3833
2026-01-20 13:59:40.64	278.41	25.25	-23.7	-24.3	19.2	0.00e+00	0	44	0	1895825408	8	3866
2026-01-20 13:59:41.65	278.70	25.22	-23.7	-24.4	19.1	0.00e+00	0	44	0	1901068288	8	3893
2026-01-20 13:59:42.65	278.99	25.20	-23.8	-24.5	19.1	0.00e+00	0	44	0	1907359744	8	3921
2026-01-20 13:59:43.66	279.29	25.17	-23.7	-24.4	19.2	0.00e+00	0	44	0	1912602624	8	3886
2026-01-20 13:59:44.65	279.58	25.15	-23.6	-24.2	19.2	0.00e+00	0	44	0	1917845504	8	3857
2026-01-20 13:59:45.65	279.87	25.12	-23.7	-24.4	19.1	0.00e+00	0	44	0	1924136960	8	3887
2026-01-20 13:59:46.66	280.16	25.10	-23.8	-24.6	19.1	0.00e+00	0	44	0	1929379840	8	3940
2026-01-20 13:59:47.66	280.45	25.07	-23.8	-24.5	19.1	0.00e+00	0	44	0	1934622720	8	3917
2026-01-20 13:59:48.67	280.74	25.04	-23.7	-24.4	19.1	0.00e+00	0	44	0	1940914176	8	3900
2026-01-20 13:59:49.67	281.03	25.01	-23.8	-24.6	19.0	0.00e+00	0	44	0	1946157056	8	3933
2026-01-20 13:59:50.67	281.32	24.98	-23.9	-24.7	19.0	0.00e+00	0	44	0	1952448512	8	3968
2026-01-20 13:59:51.67	281.61	24.95	-23.7	-24.4	19.2	0.00e+00	0	44	0	1957691392	8	3889
2026-01-20 13:59:52.68	281.90	24.92	-23.9	-24.7	19.0	0.00e+00	0	44	0	1962934272	8	3971
2026-01-20 13:59:53.68	282.19	24.89	-23.9	-24.7	19.0	0.00e+00	0	44	0	1969225728	8	3964
2026-01-20 13:59:54.68	282.47	24.86	-23.8	-24.7	19.0	0.00e+00	0	44	0	1974468608	8	3954
2026-01-20 13:59:55.69	282.76	24.82	-23.8	-24.6	19.0	0.00e+00	0	44	0	1980760064	8	3953
2026-01-20 13:59:56.69	283.05	24.79	-23.9	-24.7	19.0	0.00e+00	0	44	0	1986002944	8	3970
2026-01-20 13:59:57.69	283.33	24.76	-24.0	-24.9	18.8	0.00e+00	0	44	0	1991245824	8	4027
2026-01-20 13:59:58.70	283.62	24.72	-24.0	-25.0	18.8	0.00e+00	0	44	0	1997537280	8	4035
2026-01-20 13:59:59.71	283.90	24.68	-24.1	-25.2	18.7	0.00e+00	0	44	0	2002780160	8	4097
2026-01-20 14:00:00.71	284.19	24.65	-24.1	-25.3	18.7	0.00e+00	0	44	0	2008023040	8	4105
2026-01-20 14:00:01.71	284.47	24.61	-24.3	-25.7	18.4	0.00e+00	0	44	0	2014314496	8	4221
2026-01-20 14:00:02.71	284.75	24.57	-24.3	-25.6	18.5	0.00e+00	0	44	0	2019557376	8	4200
2026-01-20 14:00:03.72	285.03	24.53	-24.1	-25.3	18.7	0.00e+00	0	44	0	2025848832	8	4108
2026-01-20 14:00:04.73	285.32	24.49	-24.2	-25.4	18.6	0.00e+00	0	44	0	2031091712	8	4131
2026-01-20 14:00:05.73	285.60	24.45	-24.0	-25.1	18.8	0.00e+00	0	44	0	2036334592	8	4063
2026-01-20 14:00:06.74	285.88	24.41	-24.1	-25.2	18.7	0.00e+00	0	44	0	2042626048	8	4080
2026-01-20 14:00:07.74	286.16	24.37	-24.0	-25.0	18.8	0.00e+00	0	44	0	2047868928	8	4030
2026-01-20 14:00:08.74	286.43	24.33	-23.9	-24.7	18.9	0.00e+00	0	44	0	2054160384	8	3968
2026-01-20 14:00:09.74	286.71	24.29	-23.9	-24.7	18.9	0.00e+00	0	44	0	2059403264	8	3974
2026-01-20 14:00:10.74	286.98	24.25	-23.9	-24.8	18.9	0.00e+00	0	44	0	2064646144	8	4001
2026-01-20 14:00:11.74	287.26	24.20	-24.0	-25.0	18.8	0.00e+00	0	44	0	2070937600	8	4032
2026-01-20 14:00:12.75	287.54	24.16	-23.9	-24.8	18.9	0.00e+00	0	44	0	2076180480	8	4000
2026-01-20 14:00:13.75	287.81	24.11	-24.0	-25.0	18.8	0.00e+00	0	44	0	2081423360	8	4030
2026-01-20 14:00:14.76	288.08	24.07	-23.9	-24.8	18.9	0.00e+00	0	44	0	2087714816	8	3999
2026-01-20 14:00:15.76	288.36	24.02	-24.0	-25.0	18.8	0.00e+00	0	44	0	2092957696	8	4033
2026-01-20 14:00:16.76	288.63	23.98	-24.0	-25.0	18.8	0.00e+00	0	44	0	2099249152	8	4051
2026-01-20 14:00:17.77	288.90	23.93	-24.0	-24.9	18.8	0.00e+00	0	44	0	2104492032	8	4026
2026-01-20 14:00:18.77	289.17	23.88	-24.1	-25.2	18.7	0.00e+00	0	44	0	2109734912	8	4094
2026-01-20 14:00:19.77	289.44	23.83	-24.1	-25.3	18.6	0.00e+00	0	44	0	2116026368	8	4114
2026-01-20 14:00:20.78	289.71	23.78	-24.4	-25.8	18.4	0.00e+00	0	44	0	2121269248	8	4233
2026-01-20 14:00:21.78	289.98	23.73	-24.3	-25.6	18.5	0.00e+00	0	44	0	2126512128	8	4189
2026-01-20 14:00:22.78	290.24	23.68	-24.2	-25.5	18.6	0.00e+00	0	44	0	2132803584	8	4157
2026-01-20 14:00:23.78	290.51	23.63	-24.2	-25.4	18.6	0.00e+00	0	44	0	2138046464	8	4145
2026-01-20 14:00:24.78	290.77	23.58	-24.3	-25.5	18.5	0.00e+00	0	44	0	2143289344	8	4169
2026-01-20 14:00:25.79	291.04	23.53	-24.5	-26.0	18.3	0.00e+00	0	44	0	2149580800	8	4301
2026-01-20 14:00:26.79	291.30	23.48	-24.4	-25.4	18.3	0.00e+00	0	44	0	2154823680	9	4032
2026-01-20 14:00:27.78	291.56	23.43	-24.3	-25.1	18.5	0.00e+00	0	44	0	2161115136	9	3953
2026-01-20 14:00:28.78	291.82	23.37	-24.2	-24.9	18.6	0.00e+00	0	44	0	2166358016	9	3908
2026-01-20 14:00:29.78	292.08	23.32	-24.3	-25.1	18.5	0.00e+00	0	44	0	2171600896	9	3944
2026-01-20 14:00:30.78	292.34	23.27	-24.3	-25.1	18.5	0.00e+00	0	44	0	2177892352	9	3945
2026-01-20 14:00:31.78	292.60	23.21	-24.3	-25.1	18.5	0.00e+00	0	44	0	2183135232	9	3945
2026-01-20 14:00:32.78	292.86	23.16	-24.4	-25.3	18.4	0.00e+00	0	44	0	2188378112	9	3996
2026-01-20 14:00:33.78	293.11	23.10	-24.3	-25.1	18.5	0.00e+00	0	44	0	2194669568	9	3942
2026-01-20 14:00:34.79	293.37	23.05	-24.1	-24.7	18.6	0.00e+00	0	44	0	2199912448	9	3869
2026-01-20 14:00:35.79	293.63	22.99	-24.2	-24.9	18.6	0.00e+00	0	44	0	2206203904	9	3907
2026-01-20 14:00:36.80	293.88	22.93	-24.3	-25.1	18.5	0.00e+00	0	44	0	2211446784	9	3962
2026-01-20 14:00:37.80	294.13	22.88	-24.3	-25.1	18.5	0.00e+00	0	44	0	2216689664	9	3952
2026-01-20 14:00:38.80	294.39	22.82	-24.4	-25.3	18.4	0.00e+00	0	44	0	2222981120	9	4005
2026-01-20 14:00:39.79	294.64	22.76	-24.3	-25.1	18.5	0.00e+00	0	44	0	2228224000	9	3966
2026-01-20 14:00:40.79	294.89	22.70	-24.3	-25.1	18.5	0.00e+00	0	44	0	2234515456	9	3944
2026-01-20 14:00:41.79	295.13	22.64	-24.3	-25.1	18.5	0.00e+00	0	44	0	2239758336	9	3949
2026-01-20 14:00:42.80	295.39	22.58	-24.3	-25.2	18.4	0.00e+00	0	44	0	2245001216	9	3982
2026-01-20 14:00:43.81	295.64	22.52	-24.4	-25.2	18.4	0.00e+00	0	44	0	2251292672	9	3990
2026-01-20 14:00:44.81	295.88	22.46	-24.4	-25.3	18.4	0.00e+00	0	44	0	2256535552	9	4011
2026-01-20 14:00:45.81	296.13	22.40	-24.4	-25.3	18.4	0.00e+00	0	44	0	2261778432	9	4009
2026-01-20 14:00:46.82	296.37	22.34	-24.5	-25.5	18.3	0.00e+00	0	44	0	2268069888	9	4062
2026-01-20 14:00:47.82	296.62	22.28	-24.4	-25.4	18.3	0.00e+00	0	44	0	2273312768	9	4023
2026-01-20 14:00:48.82	296.86	22.22	-24.4	-25.3	18.4	0.00e+00	0	44	0	2278555648	9	3992
2026-01-20 14:00:49.83	297.11	22.16	-24.5	-25.5	18.3	0.00e+00	0	44	0	2284847104	9	4054
2026-01-20 14:00:50.83	297.35	22.10	-24.5	-25.5	18.3	0.00e+00	0	44	0	2290089984	9	4065
2026-01-20 14:00:51.83	297.59	22.03	-24.7	-25.9	18.1	0.00e+00	0	44	0	2296381440	9	4158
2026-01-20 14:00:52.84	297.83	21.97	-24.6	-25.9	18.1	0.00e+00	0	44	0	2301624320	9	4146
2026-01-20 14:00:53.85	298.07	21.91	-24.7	-26.1	18.0	0.00e+00	0	44	0	2307915776	9	4207
2026-01-20 14:00:54.85	298.30	21.84	-24.7	-25.9	18.0	0.00e+00	0	44	0	2313158656	9	4160
2026-01-20 14:00:55.85	298.54	21.78	-24.6	-25.8	18.1	0.00e+00	0	44	0	2318401536	9	4142
2026-01-20 14:00:56.86	298.78	21.71	-24.7	-25.9	18.1	0.00e+00	0	44	0	2324692992	9	4149
2026-01-20 14:00:57.86	299.01	21.65	-24.5	-25.5	18.3	0.00e+00	0	44	0	2329935872	9	4043
2026-01-20 14:00:58.86	299.24	21.58	-24.4	-25.3	18.4	0.00e+00	0	44	0	2335178752	9	4000
2026-01-20 14:00:59.86	299.48	21.52	-24.4	-25.4	18.4	0.00e+00	0	44	0	2341470208	9	4012
2026-01-20 14:01:00.87	299.71	21.45	-24.4	-25.3	18.4	0.00e+00	0	44	0	2346713088	9	3990
2026-01-20 14:01:01.87	299.94	21.39	-24.4	-25.4	18.3	0.00e+00	0	44	0	2351955968	9	4014
2026-01-20 14:01:02.87	300.17	21.32	-24.6	-25.8	18.1	0.00e+00	0	44	0	2358247424	9	4133
2026-01-20 14:01:03.87	300.40	21.25	-24.7	-26.0	18.0	0.00e+00	0	44	0	2363490304	9	4183
2026-01-20 14:01:04.88	300.63	21.19	-24.8	-26.2	17.9	0.00e+00	0	44	0	2369781760	9	4236
2026-01-20 14:01:05.89	300.86	21.12	-25.0	-26.6	17.7	0.00e+00	0	44	0	2375024640	9	4323
2026-01-20 14:01:06.90	301.08	21.05	-24.9	-26.3	17.8	0.00e+00	0	44	0	2381316096	9	4269
2026-01-20 14:01:07.91	301.31	20.98	-24.9	-26.4	17.8	0.00e+00	0	44	0	2386558976	9	4285
2026-01-20 14:01:08.91	301.53	20.92	-25.0	-26.6	17.7	0.00e+00	0	44	0	2391801856	9	4330
2026-01-20 14:01:09.92	301.76	20.85	-24.9	-25.9	17.8	0.00e+00	0	44	0	2398093312	10	4035
2026-01-20 14:01:10.92	301.98	20.78	-24.9	-25.9	17.8	0.00e+00	0	44	0	2403336192	10	4029
2026-01-20 14:01:11.93	302.20	20.71	-24.9	-25.9	17.8	0.00e+00	0	44	0	2408579072	10	4045
2026-01-20 14:01:12.93	302.42	20.64	-25.0	-26.2	17.7	0.00e+00	0	44	0	2414870528	10	4115
2026-01-20 14:01:13.93	302.64	20.57	-25.0	-26.1	17.7	0.00e+00	0	44	0	2420113408	10	4086
2026-01-20 14:01:14.93	302.86	20.50	-24.9	-25.9	17.8	0.00e+00	0	44	0	2425356288	10	4034
2026-01-20 14:01:15.94	303.08	20.43	-24.9	-26.0	17.7	0.00e+00	0	44	0	2431647744	10	4065
2026-01-20 14:01:16.95	303.30	20.36	-25.1	-26.4	17.5	0.00e+00	0	44	0	2436890624	10	4159
2026-01-20 14:01:17.95	303.51	20.29	-25.0	-26.0	17.7	0.00e+00	0	44	0	2443182080	10	4071
2026-01-20 14:01:18.96	303.73	20.22	-25.1	-26.4	17.5	0.00e+00	0	44	0	2448424960	10	4165
2026-01-20 14:01:19.97	303.94	20.15	-25.1	-26.2	17.6	0.00e+00	0	44	0	2454716416	10	4126
2026-01-20 14:01:20.97	304.15	20.08	-25.2	-26.6	17.5	0.00e+00	0	44	0	2459959296	10	4207
2026-01-20 14:01:21.97	304.36	20.01	-25.1	-26.3	17.6	0.00e+00	0	44	0	2465202176	10	4148
2026-01-20 14:01:22.98	304.58	19.94	-25.0	-26.2	17.7	0.00e+00	0	44	0	2471493632	10	4107
2026-01-20 14:01:23.99	304.79	19.87	-25.0	-26.1	17.7	0.00e+00	0	44	0	2476736512	10	4101
2026-01-20 14:01:24.99	305.00	19.80	-24.9	-25.9	17.8	0.00e+00	0	44	0	2483027968	10	4030
2026-01-20 14:01:26.00	305.20	19.73	-25.0	-26.2	17.6	0.00e+00	0	44	0	2488270848	10	4107
2026-01-20 14:01:26.99	305.41	19.66	-25.0	-26.2	17.6	0.00e+00	0	44	0	2493513728	10	4120
2026-01-20 14:01:28.00	305.62	19.58	-25.2	-26.7	17.4	0.00e+00	0	44	0	2499805184	10	4238
2026-01-20 14:01:29.01	305.82	19.51	-25.3	-26.8	17.3	0.00e+00	0	44	0	2505048064	10	4287
2026-01-20 14:01:30.02	306.03	19.44	-25.3	-26.8	17.3	0.00e+00	0	44	0	2510290944	10	4273
2026-01-20 14:01:31.02	306.23	19.37	-25.4	-27.0	17.2	0.00e+00	0	44	0	2516582400	10	4317
2026-01-20 14:01:32.02	306.43	19.30	-25.2	-26.5	17.4	0.00e+00	0	44	0	2521825280	10	4201
2026-01-20 14:01:33.03	306.63	19.22	-25.2	-26.6	17.4	0.00e+00	0	44	0	2528116736	10	4210
2026-01-20 14:01:34.03	306.83	19.15	-25.3	-26.7	17.4	0.00e+00	0	44	0	2533359616	10	4228
2026-01-20 14:01:35.03	307.03	19.08	-25.3	-26.8	17.3	0.00e+00	0	44	0	2538602496	10	4278
2026-01-20 14:01:36.04	307.23	19.00	-25.4	-27.0	17.2	0.00e+00	0	44	0	2544893952	10	4326
2026-01-20 14:01:37.04	307.43	18.93	-25.6	-26.8	17.0	0.00e+00	0	44	0	2550136832	11	4172
2026-01-20 14:01:38.04	307.63	18.86	-25.6	-27.0	16.9	0.00e+00	0	44	0	2556428288	11	4215
2026-01-20 14:01:39.05	307.82	18.79	-25.6	-26.9	17.0	0.00e+00	0	44	0	2561671168	11	4189
2026-01-20 14:01:40.05	308.02	18.71	-25.6	-26.8	17.0	0.00e+00	0	44	0	2566914048	11	4172
2026-01-20 14:01:41.05	308.21	18.64	-25.7	-27.2	16.8	0.00e+00	0	44	0	2573205504	11	4270
2026-01-20 14:01:42.06	308.40	18.57	-25.5	-26.7	17.0	0.00e+00	0	44	0	2578448384	11	4141
2026-01-20 14:01:43.06	308.60	18.49	-25.5	-26.6	17.1	0.00e+00	0	44	0	2583691264	11	4115
2026-01-20 14:01:44.06	308.79	18.42	-25.5	-26.8	17.0	0.00e+00	0	44	0	2589982720	11	4148
2026-01-20 14:01:45.07	308.98	18.34	-25.8	-27.3	16.7	0.00e+00	0	44	0	2595225600	11	4292
2026-01-20 14:01:46.07	309.17	18.27	-25.6	-27.0	16.9	0.00e+00	0	44	0	2601517056	11	4202
2026-01-20 14:01:47.07	309.35	18.20	-25.8	-27.5	16.6	0.00e+00	0	44	0	2606759936	11	4338
2026-01-20 14:01:48.07	309.54	18.12	-25.7	-27.1	16.8	0.00e+00	0	44	0	2612002816	11	4245
2026-01-20 14:01:49.07	309.73	18.05	-25.7	-27.1	16.9	0.00e+00	0	44	0	2618294272	11	4234
2026-01-20 14:01:50.07	309.91	17.98	-25.6	-27.0	16.9	0.00e+00	0	44	0	2623537152	11	4213
2026-01-20 14:01:51.07	310.10	17.90	-25.5	-26.6	17.1	0.00e+00	0	44	0	2628780032	11	4114
2026-01-20 14:01:52.07	310.28	17.83	-25.5	-26.7	17.1	0.00e+00	0	44	0	2635071488	11	4128
2026-01-20 14:01:53.08	310.46	17.75	-25.5	-26.7	17.1	0.00e+00	0	44	0	2640314368	11	4134
2026-01-20 14:01:54.08	310.65	17.68	-25.4	-26.5	17.1	0.00e+00	0	44	0	2645557248	11	4078
2026-01-20 14:01:55.08	310.83	17.61	-25.4	-26.4	17.1	0.00e+00	0	44	0	2651848704	11	4065
2026-01-20 14:01:56.09	311.01	17.53	-25.5	-26.7	17.0	0.00e+00	0	44	0	2657091584	11	4144
2026-01-20 14:01:57.10	311.19	17.46	-25.6	-26.9	16.9	0.00e+00	0	44	0	2663383040	11	4183
2026-01-20 14:01:58.10	311.37	17.38	-25.7	-27.2	16.8	0.00e+00	0	44	0	2668625920	11	4278
2026-01-20 14:01:59.10	311.54	17.31	-26.0	-27.7	16.5	0.00e+00	0	44	0	2674917376	11	4409
2026-01-20 14:02:00.10	311.72	17.23	-25.9	-27.2	16.4	0.00e+00	0	44	0	2680160256	12	4155
2026-01-20 14:02:01.10	311.90	17.16	-25.9	-27.2	16.4	0.00e+00	0	44	0	2685403136	12	4153
2026-01-20 14:02:02.09	312.07	17.09	-25.9	-27.1	16.4	0.00e+00	0	44	0	2691694592	12	4146
2026-01-20 14:02:03.09	312.24	17.01	-25.9	-27.1	16.4	0.00e+00	0	44	0	2696937472	12	4138
2026-01-20 14:02:04.09	312.42	16.94	-25.8	-26.9	16.5	0.00e+00	0	44	0	2702180352	12	4090
2026-01-20 14:02:05.10	312.59	16.86	-25.8	-26.8	16.6	0.00e+00	0	44	0	2708471808	12	4054
2026-01-20 14:02:06.10	312.76	16.79	-25.8	-26.8	16.6	0.00e+00	0	44	0	2713714688	12	4049
2026-01-20 14:02:07.10	312.93	16.71	-26.0	-27.2	16.4	0.00e+00	0	44	0	2718957568	12	4156
2026-01-20 14:02:08.10	313.10	16.64	-25.9	-27.2	16.4	0.00e+00	0	44	0	2725249024	12	4152
2026-01-20 14:02:09.11	313.27	16.56	-26.1	-27.6	16.2	0.00e+00	0	44	0	2730491904	12	4262
2026-01-20 14:02:10.12	313.44	16.49	-26.1	-27.5	16.2	0.00e+00	0	44	0	2736783360	12	4241
2026-01-20 14:02:11.12	313.61	16.42	-26.1	-27.6	16.1	0.00e+00	0	44	0	2742026240	12	4260
2026-01-20 14:02:12.13	313.78	16.34	-26.1	-27.5	16.3	0.00e+00	0	44	0	2747269120	12	4226
2026-01-20 14:02:13.14	313.95	16.27	-26.1	-27.5	16.2	0.00e+00	0	44	0	2753560576	12	4241
2026-01-20 14:02:14.14	314.11	16.19	-26.2	-27.7	16.1	0.00e+00	0	44	0	2758803456	12	4294
2026-01-20 14:02:15.15	314.28	16.12	-26.1	-27.5	16.2	0.00e+00	0	44	0	2765094912	12	4225
2026-01-20 14:02:16.16	314.44	16.04	-26.3	-28.1	15.9	0.00e+00	0	44	0	2770337792	12	4392
2026-01-20 14:02:17.16	314.60	15.97	-26.2	-27.6	16.1	0.00e+00	0	44	0	2775580672	12	4267
2026-01-20 14:02:18.16	314.77	15.89	-26.0	-27.3	16.3	0.00e+00	0	44	0	2781872128	12	4192
2026-01-20 14:02:19.17	314.93	15.82	-25.9	-27.1	16.4	0.00e+00	0	44	0	2787115008	12	4130
2026-01-20 14:02:20.18	315.09	15.74	-26.0	-27.2	16.3	0.00e+00	0	44	0	2792357888	12	4169
2026-01-20 14:02:21.18	315.25	15.67	-25.9	-27.2	16.4	0.00e+00	0	44	0	2798649344	12	4144
2026-01-20 14:02:22.18	315.41	15.59	-26.0	-27.2	16.4	0.00e+00	0	44	0	2803892224	12	4160
2026-01-20 14:02:23.19	315.57	15.52	-25.9	-27.1	16.4	0.00e+00	0	44	0	2810183680	12	4126
2026-01-20 14:02:24.19	315.73	15.44	-26.0	-27.3	16.3	0.00e+00	0	44	0	2815426560	12	4185
2026-01-20 14:02:25.19	315.88	15.37	-26.0	-27.3	16.3	0.00e+00	0	44	0	2821718016	12	4176
2026-01-20 14:02:26.19	316.04	15.30	-26.0	-27.3	16.3	0.00e+00	0	44	0	2826960896	12	4190
2026-01-20 14:02:27.20	316.19	15.22	-26.1	-27.6	16.1	0.00e+00	0	44	0	2832203776	12	4263
2026-01-20 14:02:28.20	316.35	15.15	-26.0	-27.4	16.2	0.00e+00	0	44	0	2838495232	12	4227
2026-01-20 14:02:29.20	316.50	15.07	-26.1	-27.6	16.2	0.00e+00	0	44	0	2843738112	12	4258
2026-01-20 14:02:30.21	316.66	15.00	-26.2	-27.7	16.1	0.00e+00	0	44	0	2848980992	12	4287
2026-01-20 14:02:31.22	316.81	14.92	-26.0	-27.3	16.2	0.00e+00	0	44	0	2855272448	12	4195
2026-01-20 14:02:32.22	316.96	14.85	-26.0	-27.4	16.2	0.00e+00	0	44	0	2860515328	12	4209
2026-01-20 14:02:33.22	317.11	14.78	-26.0	-27.3	16.3	0.00e+00	0	44	0	2865758208	12	4177
2026-01-20 14:02:34.22	317.26	14.70	-26.0	-27.3	16.3	0.00e+00	0	44	0	2872049664	12	4188
2026-01-20 14:02:35.22	317.41	14.63	-26.1	-27.5	16.1	0.00e+00	0	44	0	2877292544	12	4250
2026-01-20 14:02:36.23	317.56	14.55	-26.2	-27.7	16.1	0.00e+00	0	44	0	2883584000	12	4277
2026-01-20 14:02:37.23	317.71	14.48	-26.3	-28.0	15.9	0.00e+00	0	44	0	2888826880	12	4374
2026-01-20 14:02:38.23	317.85	14.41	-26.2	-27.8	16.0	0.00e+00	0	44	0	2894069760	12	4307
2026-01-20 14:02:39.23	318.00	14.33	-26.3	-27.9	15.9	0.00e+00	0	44	0	2900361216	12	4347
2026-01-20 14:02:40.23	318.15	14.26	-26.3	-28.0	15.8	0.00e+00	0	44	0	2905604096	12	4385
2026-01-20 14:02:41.24	318.29	14.19	-26.4	-28.3	15.7	0.00e+00	0	44	0	2911895552	12	4455
2026-01-20 14:02:42.25	318.44	14.11	-26.3	-27.9	15.9	0.00e+00	0	44	0	2917138432	12	4357
2026-01-20 14:02:43.25	318.58	14.04	-26.2	-27.8	16.0	0.00e+00	0	44	0	2922381312	12	4324
2026-01-20 14:02:44.25	318.72	13.97	-26.4	-28.1	15.8	0.00e+00	0	44	0	2928672768	12	4410
2026-01-20 14:02:45.26	318.87	13.89	-26.3	-28.0	15.8	0.00e+00	0	44	0	2933915648	12	4379
2026-01-20 14:02:46.27	319.01	13.82	-26.4	-28.2	15.7	0.00e+00	0	44	0	2939158528	12	4427
2026-01-20 14:02:47.27	319.15	13.74	-26.4	-28.2	15.7	0.00e+00	0	44	0	2945449984	12	4431
2026-01-20 14:02:48.27	319.29	13.67	-26.5	-28.4	15.6	0.00e+00	0	44	0	2950692864	12	4480
2026-01-20 14:02:49.28	319.43	13.60	-26.6	-28.1	15.5	0.00e+00	0	44	0	2956984320	13	4277
2026-01-20 14:02:50.28	319.57	13.52	-26.7	-28.5	15.3	0.00e+00	0	44	0	2962227200	13	4392
2026-01-20 14:02:51.28	319.71	13.45	-27.0	-28.5	15.0	0.00e+00	0	44	0	2967470080	14	4301
2026-01-20 14:02:52.28	319.84	13.38	-26.7	-27.9	15.3	0.00e+00	0	44	0	2973761536	14	4121
2026-01-20 14:02:53.29	319.98	13.31	-26.6	-27.6	15.5	0.00e+00	0	44	0	2979004416	14	4042
2026-01-20 14:02:54.29	320.12	13.23	-26.6	-27.5	15.5	0.00e+00	0	44	0	2985295872	14	4032
2026-01-20 14:02:55.30	320.26	13.16	-26.6	-27.6	15.5	0.00e+00	0	44	0	2990538752	14	4061
2026-01-20 14:02:56.30	320.39	13.09	-26.8	-28.1	15.2	0.00e+00	0	44	0	2995781632	14	4171
2026-01-20 14:02:57.31	320.53	13.01	-26.6	-27.6	15.4	0.00e+00	0	44	0	3002073088	14	4067
2026-01-20 14:02:58.31	320.66	12.94	-26.7	-27.9	15.3	0.00e+00	0	44	0	3007315968	14	4133
2026-01-20 14:02:59.31	320.79	12.87	-26.8	-28.1	15.2	0.00e+00	0	44	0	3013607424	14	4190
2026-01-20 14:03:00.31	320.92	12.80	-26.8	-28.2	15.1	0.00e+00	0	44	0	3018850304	14	4198
2026-01-20 14:03:01.31	321.06	12.73	-26.9	-28.4	15.0	0.00e+00	0	44	0	3024093184	14	4274
2026-01-20 14:03:02.31	321.19	12.65	-26.9	-28.4	15.0	0.00e+00	0	44	0	3030384640	14	4257
2026-01-20 14:03:03.31	321.32	12.58	-26.8	-28.2	15.1	0.00e+00	0	44	0	3035627520	14	4223
2026-01-20 14:03:04.32	321.45	12.51	-26.8	-28.2	15.1	0.00e+00	0	44	0	3040870400	14	4203
2026-01-20 14:03:05.32	321.58	12.44	-26.8	-28.1	15.2	0.00e+00	0	44	0	3047161856	14	4176
2026-01-20 14:03:06.33	321.71	12.37	-26.7	-27.9	15.3	0.00e+00	0	44	0	3052404736	14	4121
2026-01-20 14:03:07.34	321.84	12.29	-26.7	-28.0	15.3	0.00e+00	0	44	0	3058696192	14	4145
2026-01-20 14:03:08.34	321.96	12.22	-26.8	-28.0	15.2	0.00e+00	0	44	0	3063939072	14	4152
2026-01-20 14:03:09.35	322.09	12.15	-26.7	-27.9	15.3	0.00e+00	0	44	0	3069181952	14	4112
2026-01-20 14:03:10.35	322.22	12.08	-26.7	-27.8	15.3	0.00e+00	0	44	0	3075473408	14	4109
2026-01-20 14:03:11.35	322.34	12.01	-26.7	-27.9	15.3	0.00e+00	0	44	0	3080716288	14	4121
2026-01-20 14:03:12.36	322.47	11.94	-26.7	-27.9	15.2	0.00e+00	0	44	0	3087007744	14	4130
2026-01-20 14:03:13.36	322.59	11.86	-26.8	-28.0	15.2	0.00e+00	0	44	0	3092250624	14	4153
2026-01-20 14:03:14.36	322.72	11.79	-26.9	-28.3	15.0	2.20e-06	0	44	0	3097493504	14	4223
2026-01-20 14:03:15.37	322.84	11.72	-26.9	-28.2	15.0	2.20e-06	0	44	0	3103784960	14	4216
2026-01-20 14:03:16.37	322.97	11.65	-26.9	-28.4	14.9	0.00e+00	0	44	0	3109027840	14	4277
2026-01-20 14:03:17.37	323.09	11.58	-27.0	-28.6	14.8	0.00e+00	0	44	0	3114270720	14	4337
2026-01-20 14:03:18.38	323.21	11.51	-27.1	-28.8	14.7	0.00e+00	0	44	0	3120562176	14	4380
2026-01-20 14:03:19.38	323.33	11.44	-27.1	-28.7	14.8	0.00e+00	0	44	0	3125805056	14	4341
2026-01-20 14:03:20.39	323.45	11.37	-27.0	-28.6	14.8	0.00e+00	0	44	0	3132096512	14	4311
2026-01-20 14:03:21.40	323.57	11.30	-27.1	-28.8	14.7	0.00e+00	0	44	0	3137339392	14	4363
2026-01-20 14:03:22.40	323.69	11.23	-27.1	-28.7	14.7	0.00e+00	0	45	0	3142582272	14	4351
2026-01-20 14:03:23.41	323.81	11.16	-27.0	-28.7	14.8	0.00e+00	0	44	0	3148873728	14	4339
2026-01-20 14:03:24.41	323.93	11.09	-27.1	-28.7	14.7	0.00e+00	0	44	0	3154116608	14	4345
2026-01-20 14:03:25.41	324.05	11.02	-27.1	-28.7	14.8	1.10e-06	0	44	0	3160408064	14	4350
2026-01-20 14:03:26.41	324.17	10.95	-27.1	-28.7	14.7	0.00e+00	0	44	0	3165650944	14	4351
2026-01-20 14:03:27.41	324.28	10.88	-27.2	-29.1	14.5	0.00e+00	0	44	0	3170893824	14	4448
2026-01-20 14:03:28.41	324.40	10.81	-27.0	-28.7	14.8	1.10e-06	0	44	0	3177185280	14	4337
2026-01-20 14:03:29.41	324.51	10.74	-27.0	-28.5	14.8	1.10e-06	0	44	0	3182428160	14	4297
2026-01-20 14:03:30.41	324.63	10.67	-27.0	-28.6	14.8	0.00e+00	0	44	0	3187671040	14	4326
2026-01-20 14:03:31.42	324.74	10.60	-27.0	-28.5	14.8	0.00e+00	0	44	0	3193962496	14	4280
2026-01-20 14:03:32.42	324.86	10.53	-27.0	-28.5	14.8	0.00e+00	0	44	0	3199205376	14	4300
2026-01-20 14:03:33.43	324.97	10.46	-27.0	-28.6	14.8	0.00e+00	0	44	0	3204448256	14	4333
2026-01-20 14:03:34.43	325.09	10.39	-27.0	-28.5	14.8	1.10e-06	0	44	0	3210739712	14	4307
2026-01-20 14:03:35.43	325.20	10.32	-26.9	-28.4	14.9	0.00e+00	0	44	0	3215982592	14	4275
2026-01-20 14:03:36.44	325.31	10.25	-26.9	-28.4	14.9	0.00e+00	0	44	0	3222274048	14	4269
2026-01-20 14:03:37.45	325.42	10.18	-27.0	-28.5	14.8	0.00e+00	0	44	0	3227516928	14	4308
2026-01-20 14:03:38.45	325.54	10.11	-27.0	-28.6	14.7	0.00e+00	0	44	0	3233808384	14	4322
2026-01-20 14:03:39.45	325.65	10.05	-27.1	-28.9	14.6	0.00e+00	0	44	0	3239051264	14	4413
2026-01-20 14:03:40.46	325.76	9.98	-27.2	-29.0	14.5	0.00e+00	0	44	0	3244294144	14	4428
2026-01-20 14:03:41.46	325.87	9.91	-27.2	-28.9	14.5	0.00e+00	0	44	0	3250585600	14	4423
2026-01-20 14:03:42.46	325.97	9.84	-27.2	-29.0	14.5	0.00e+00	0	44	0	3255828480	14	4440
2026-01-20 14:03:43.46	326.08	9.77	-27.2	-29.1	14.5	1.10e-06	0	44	0	3261071360	14	4460
2026-01-20 14:03:44.46	326.19	9.70	-27.3	-29.2	14.3	0.00e+00	0	44	0	3267362816	14	4506
2026-01-20 14:03:45.46	326.30	9.64	-27.4	-29.6	14.2	0.00e+00	0	44	0	3272605696	14	4604
2026-01-20 14:03:46.46	326.41	9.57	-27.4	-29.1	14.1	2.20e-06	0	44	0	3277848576	15	4353
2026-01-20 14:03:47.46	326.51	9.50	-27.3	-28.8	14.3	0.00e+00	0	44	0	3284140032	15	4274
2026-01-20 14:03:48.46	326.62	9.43	-27.3	-28.8	14.3	0.00e+00	0	44	0	3289382912	15	4272
2026-01-20 14:03:49.46	326.72	9.37	-27.4	-28.9	14.2	0.00e+00	0	44	0	3295674368	15	4307
2026-01-20 14:03:50.47	326.83	9.30	-27.4	-29.0	14.2	2.20e-06	0	44	0	3300917248	15	4327
2026-01-20 14:03:51.47	326.93	9.23	-27.5	-29.3	14.0	2.20e-06	0	44	0	3306160128	15	4429
2026-01-20 14:03:52.48	327.04	9.16	-27.5	-29.3	14.0	0.00e+00	0	44	0	3312451584	15	4409
2026-01-20 14:03:53.48	327.14	9.10	-27.6	-29.4	13.9	2.20e-06	0	44	0	3317694464	15	4444
2026-01-20 14:03:54.49	327.25	9.03	-27.7	-29.6	13.8	2.20e-06	0	44	0	3323985920	15	4520
2026-01-20 14:03:55.49	327.35	8.96	-27.7	-29.6	13.8	4.50e-06	0	44	0	3329228800	15	4515
2026-01-20 14:03:56.50	327.45	8.89	-27.7	-29.7	13.7	6.80e-06	0	44	0	3334471680	15	4541
2026-01-20 14:03:57.50	327.56	8.83	-27.7	-29.7	13.7	6.80e-06	0	44	0	3340763136	15	4538
2026-01-20 14:03:58.51	327.66	8.76	-27.8	-29.9	13.6	2.20e-06	0	44	0	3346006016	15	4597
2026-01-20 14:03:59.52	327.76	8.69	-27.7	-29.8	13.7	3.40e-06	0	44	0	3351248896	15	4573
2026-01-20 14:04:00.52	327.86	8.63	-27.6	-29.5	13.8	2.20e-06	0	44	0	3357540352	15	4477
2026-01-20 14:04:01.52	327.96	8.56	-27.8	-30.0	13.6	2.20e-06	0	44	0	3362783232	15	4611
2026-01-20 14:04:02.53	328.06	8.49	-27.7	-29.7	13.7	3.40e-06	0	44	0	3369074688	15	4532
2026-01-20 14:04:03.53	328.16	8.43	-27.7	-29.7	13.7	1.10e-06	0	44	0	3374317568	15	4550
2026-01-20 14:04:04.53	328.26	8.36	-27.6	-29.6	13.8	1.10e-06	0	44	0	3379560448	15	4507
2026-01-20 14:04:05.53	328.36	8.30	-27.7	-29.7	13.7	5.70e-06	0	44	0	3385851904	15	4530
2026-01-20 14:04:06.54	328.46	8.23	-27.7	-29.6	13.7	4.50e-06	0	44	0	3391094784	15	4499
2026-01-20 14:04:07.54	328.56	8.16	-27.6	-29.6	13.7	1.10e-06	0	44	0	3397386240	15	4508
2026-01-20 14:04:08.54	328.65	8.10	-27.7	-29.8	13.6	1.02e-05	0	44	0	3402629120	15	4560
2026-01-20 14:04:09.55	328.75	8.03	-27.8	-30.0	13.5	3.40e-06	0	44	0	3407872000	15	4632
2026-01-20 14:04:10.55	328.85	7.97	-27.9	-30.3	13.3	9.10e-06	0	44	0	3414163456	15	4722
2026-01-20 14:04:11.56	328.94	7.90	-27.9	-30.2	13.3	2.05e-05	0	44	0	3419406336	15	4708
2026-01-20 14:04:12.57	329.04	7.84	-27.8	-30.0	13.5	3.40e-06	0	44	0	3424649216	15	4626
2026-01-20 14:04:13.58	329.14	7.77	-27.9	-30.2	13.3	9.10e-06	0	44	0	3430940672	15	4690
2026-01-20 14:04:14.58	329.23	7.70	-28.0	-30.3	13.2	1.37e-05	0	44	0	3436183552	15	4736
2026-01-20 14:04:15.58	329.33	7.64	-28.0	-30.4	13.2	1.83e-05	0	44	0	3442475008	15	4761
2026-01-20 14:04:16.58	329.42	7.58	-28.2	-30.5	13.0	2.28e-05	0	44	0	3447717888	16	4651
2026-01-20 14:04:17.59	329.51	7.51	-28.3	-30.7	12.9	2.74e-05	0	44	0	3452960768	16	4734
2026-01-20 14:04:18.59	329.61	7.45	-28.3	-30.7	12.9	3.20e-05	0	44	0	3459252224	16	4740
2026-01-20 14:04:19.59	329.70	7.38	-28.7	-31.1	12.3	5.83e-05	0	44	0	3464495104	17	4744
2026-01-20 14:04:20.59	329.79	7.32	-28.6	-30.9	12.4	1.42e-04	0	45	0	3470786560	17	4682
2026-01-20 14:04:21.59	329.88	7.25	-28.5	-30.7	12.5	5.60e-05	0	44	0	3476029440	17	4615
2026-01-20 14:04:22.59	329.98	7.19	-28.6	-30.9	12.4	1.03e-04	0	44	0	3481272320	17	4692
2026-01-20 14:04:23.60	330.07	7.12	-28.7	-31.2	12.2	1.06e-04	0	44	0	3487563776	17	4786
2026-01-20 14:04:24.60	330.16	7.06	-33.3	-44.2	3.8	5.05e-01	0	44	104	3491758080	26	12591
2026-01-20 14:04:25.61	330.25	7.00	-33.6	-44.8	3.8	8.46e-01	0	44	104	3491758080	27	13032
2026-01-20 14:04:26.61	330.34	6.93	-34.0	-45.5	3.8	8.46e-01	0	44	104	3491758080	27	13568

#Closed at: 2026-01-20 14:04:27
#Recorded file [3491 MB]: D:/data/31010_260120_165403.dat