passes_logs/2026/01/20/R2M6_AANII_01/R2M6_AANII_01__20260120_054404_FENGYUN_3E_rec.log

#Pass ID: 20260120_054404_FENGYUN 3E
#Satellite: FENGYUN 3E
#Configuration: FENGYUN 3E
#almurnet v.1.7.20240730
#Start time: 2026-01-20 05:44:06

#Version: 2.2.20231116
#Station: R2M6_AANII_01
#Location: 30.233357 lon 59.946436 lat
#TLE: 1 49008U 21062A   26019.58611515 -.00000153  00000+0 -51205-4 0  9999
#TLE: 2 49008  98.7481  24.6604 0002215 127.7537 232.3840 14.19884915235499

#Time	Az	El	Level	Level2	SNR	BER	BlckErr	Temp	State	Recorded	gain1	gain2
2026-01-20 05:44:06.19	13.03	7.14	-30.5	-33.2	5.1	7.93e-01	0	42	0	0	21	4919
2026-01-20 05:44:07.19	12.98	7.21	-30.5	-33.1	5.1	7.89e-01	0	41	104	0	21	4880
2026-01-20 05:44:08.20	12.92	7.29	-30.6	-33.5	7.9	6.65e-02	0	41	0	0	21	5004
2026-01-20 05:44:09.20	12.87	7.36	-30.5	-33.2	8.1	5.58e-02	0	42	0	7340032	21	4903
2026-01-20 05:44:10.20	12.81	7.43	-30.7	-33.8	7.7	6.93e-02	0	42	0	14680064	21	5131
2026-01-20 05:44:11.20	12.75	7.51	-30.9	-34.4	7.4	1.04e-01	0	42	0	22020096	21	5370
2026-01-20 05:44:12.21	12.70	7.58	-31.1	-34.3	7.1	1.45e-01	0	42	0	28311552	22	5237
2026-01-20 05:44:13.22	12.64	7.66	-30.7	-33.1	7.9	8.84e-02	0	42	0	35651584	22	4760
2026-01-20 05:44:14.22	12.58	7.73	-30.2	-32.1	8.9	2.70e-02	0	42	0	42991616	21	4522
2026-01-20 05:44:15.23	12.53	7.80	-29.6	-31.0	10.0	1.21e-02	0	42	0	50331648	20	4255
2026-01-20 05:44:16.23	12.47	7.88	-29.2	-30.6	10.7	3.65e-03	0	42	0	57671680	19	4213
2026-01-20 05:44:17.22	12.41	7.95	-28.8	-30.1	11.3	1.10e-03	0	42	0	65011712	18	4165
2026-01-20 05:44:18.23	12.35	8.03	-28.3	-29.2	12.1	3.65e-04	0	42	0	72351744	17	4025
2026-01-20 05:44:19.23	12.30	8.10	-28.1	-28.9	12.4	1.66e-04	0	42	0	79691776	17	3933
2026-01-20 05:44:20.24	12.24	8.18	-27.9	-28.8	12.8	4.34e-05	0	42	0	87031808	16	4000
2026-01-20 05:44:21.23	12.18	8.25	-27.9	-28.9	12.7	4.69e-05	0	42	0	93323264	16	4039
2026-01-20 05:44:22.24	12.12	8.33	-28.0	-29.1	12.6	2.86e-05	0	42	0	100663296	16	4098
2026-01-20 05:44:23.24	12.06	8.41	-28.1	-29.2	12.5	9.04e-05	0	42	0	108003328	16	4126
2026-01-20 05:44:24.25	12.00	8.48	-27.7	-28.5	13.0	6.52e-05	0	42	0	115343360	16	3927
2026-01-20 05:44:25.25	11.94	8.56	-28.0	-29.1	12.6	1.01e-04	0	42	0	122683392	16	4097
2026-01-20 05:44:26.26	11.88	8.64	-27.9	-28.9	12.7	6.29e-05	0	42	0	130023424	16	4043
2026-01-20 05:44:27.26	11.82	8.71	-27.6	-28.2	13.2	2.28e-05	0	42	0	137363456	16	3863
2026-01-20 05:44:28.26	11.75	8.79	-27.8	-28.5	13.1	2.17e-05	0	42	0	144703488	16	3932
2026-01-20 05:44:29.27	11.69	8.87	-27.7	-28.3	13.2	2.63e-05	0	42	0	152043520	16	3867
2026-01-20 05:44:30.27	11.63	8.95	-27.7	-28.3	13.1	2.05e-05	0	42	0	159383552	16	3879
2026-01-20 05:44:31.28	11.57	9.02	-27.8	-28.5	13.0	3.89e-05	0	42	0	166723584	16	3928
2026-01-20 05:44:32.28	11.51	9.10	-27.6	-28.2	13.3	1.48e-05	0	43	0	173015040	16	3844
2026-01-20 05:44:33.27	11.44	9.18	-27.5	-27.8	13.5	1.37e-05	0	42	0	180355072	16	3754
2026-01-20 05:44:34.28	11.38	9.26	-27.5	-28.4	13.2	6.80e-06	0	43	0	187695104	15	4013
2026-01-20 05:44:35.28	11.31	9.34	-27.6	-28.7	13.1	2.40e-05	0	42	0	195035136	15	4074
2026-01-20 05:44:36.28	11.25	9.42	-27.4	-28.2	13.4	1.37e-05	0	43	0	202375168	15	3944
2026-01-20 05:44:37.28	11.19	9.49	-27.2	-27.7	13.7	4.50e-06	0	43	0	209715200	15	3828
2026-01-20 05:44:38.28	11.12	9.57	-27.1	-27.5	13.8	6.80e-06	0	43	0	217055232	15	3779
2026-01-20 05:44:39.28	11.06	9.65	-27.2	-27.8	13.6	1.02e-05	0	43	0	224395264	15	3862
2026-01-20 05:44:40.28	10.99	9.73	-27.2	-27.8	13.6	6.80e-06	0	43	0	230686720	15	3839
2026-01-20 05:44:41.28	10.92	9.81	-27.3	-28.0	13.5	1.14e-05	0	43	0	238026752	15	3897
2026-01-20 05:44:42.29	10.86	9.89	-27.1	-27.5	13.8	5.70e-06	0	43	0	245366784	15	3771
2026-01-20 05:44:43.29	10.79	9.97	-27.4	-28.2	13.4	9.10e-06	0	43	0	252706816	15	3955
2026-01-20 05:44:44.29	10.72	10.05	-27.2	-27.7	13.7	1.10e-06	0	43	0	260046848	15	3826
2026-01-20 05:44:45.30	10.66	10.13	-27.4	-28.2	13.5	6.80e-06	0	43	0	267386880	15	3956
2026-01-20 05:44:46.30	10.59	10.21	-27.4	-28.2	13.4	1.25e-05	0	43	0	274726912	15	3962
2026-01-20 05:44:47.31	10.52	10.30	-27.3	-28.0	13.6	5.70e-06	0	43	0	282066944	15	3904
2026-01-20 05:44:48.31	10.45	10.38	-27.3	-28.0	13.6	9.10e-06	0	43	0	289406976	15	3907
2026-01-20 05:44:49.32	10.38	10.46	-27.3	-28.1	13.6	3.40e-06	0	43	0	296747008	15	3923
2026-01-20 05:44:50.32	10.31	10.54	-27.3	-27.9	13.7	4.50e-06	0	43	0	304087040	15	3876
2026-01-20 05:44:51.32	10.24	10.62	-27.4	-28.3	13.5	1.02e-05	0	43	0	311427072	15	3966
2026-01-20 05:44:52.33	10.17	10.71	-27.2	-27.8	13.7	3.40e-06	0	43	0	317718528	15	3858
2026-01-20 05:44:53.33	10.10	10.79	-27.3	-27.9	13.7	9.10e-06	0	43	0	325058560	15	3878
2026-01-20 05:44:54.34	10.03	10.87	-27.1	-27.5	14.0	6.80e-06	0	43	0	333447168	15	3766
2026-01-20 05:44:55.34	9.96	10.95	-26.8	-27.4	14.3	2.20e-06	0	43	0	339738624	14	3844
2026-01-20 05:44:56.34	9.88	11.04	-26.8	-27.3	14.3	0.00e+00	0	43	0	347078656	14	3813
2026-01-20 05:44:57.34	9.81	11.12	-26.7	-27.1	14.4	0.00e+00	0	43	0	354418688	14	3782
2026-01-20 05:44:58.35	9.74	11.21	-26.7	-27.1	14.4	0.00e+00	0	43	0	361758720	14	3784
2026-01-20 05:44:59.35	9.66	11.29	-26.6	-26.8	14.6	0.00e+00	0	43	0	369098752	14	3702
2026-01-20 05:45:00.36	9.59	11.37	-26.6	-27.0	14.5	0.00e+00	0	43	0	376438784	14	3749
2026-01-20 05:45:01.36	9.52	11.46	-26.6	-27.0	14.6	0.00e+00	0	43	0	383778816	14	3737
2026-01-20 05:45:02.37	9.44	11.54	-26.8	-27.3	14.3	0.00e+00	0	43	0	391118848	14	3827
2026-01-20 05:45:03.38	9.36	11.63	-26.6	-26.8	14.6	0.00e+00	0	43	0	398458880	14	3694
2026-01-20 05:45:04.38	9.29	11.71	-26.4	-26.5	14.8	0.00e+00	0	43	0	404750336	14	3636
2026-01-20 05:45:05.38	9.21	11.80	-26.7	-27.5	14.5	0.00e+00	0	43	0	412090368	13	3983
2026-01-20 05:45:06.38	9.14	11.88	-26.6	-27.3	14.6	0.00e+00	0	43	0	419430400	13	3921
2026-01-20 05:45:07.38	9.06	11.97	-26.5	-27.2	14.7	0.00e+00	0	43	0	426770432	13	3884
2026-01-20 05:45:08.38	8.98	12.06	-26.5	-27.3	14.7	2.20e-06	0	43	0	434110464	13	3917
2026-01-20 05:45:09.39	8.90	12.14	-26.4	-26.9	14.9	0.00e+00	0	43	0	441450496	13	3827
2026-01-20 05:45:10.39	8.82	12.23	-26.6	-27.3	14.7	0.00e+00	0	43	0	448790528	13	3913
2026-01-20 05:45:11.39	8.74	12.32	-26.5	-27.1	14.8	0.00e+00	0	43	0	456130560	13	3867
2026-01-20 05:45:12.40	8.66	12.40	-26.4	-27.0	14.8	1.10e-06	0	43	0	463470592	13	3858
2026-01-20 05:45:13.40	8.58	12.49	-26.5	-27.1	14.8	0.00e+00	0	43	0	470810624	13	3875
2026-01-20 05:45:14.40	8.50	12.58	-26.4	-26.9	14.9	0.00e+00	0	43	0	478150656	13	3829
2026-01-20 05:45:15.40	8.42	12.67	-26.7	-27.6	14.5	0.00e+00	0	43	0	484442112	13	3992
2026-01-20 05:45:16.41	8.34	12.76	-26.4	-26.9	14.9	0.00e+00	0	43	0	491782144	13	3826
2026-01-20 05:45:17.40	8.26	12.84	-26.4	-27.0	14.9	1.10e-06	0	43	0	499122176	13	3840
2026-01-20 05:45:18.41	8.18	12.93	-26.4	-26.9	14.9	0.00e+00	0	43	0	506462208	13	3829
2026-01-20 05:45:19.42	8.09	13.02	-26.4	-27.0	14.9	0.00e+00	0	43	0	513802240	13	3849
2026-01-20 05:45:20.42	8.01	13.11	-26.2	-26.5	15.2	0.00e+00	0	43	0	521142272	13	3733
2026-01-20 05:45:21.43	7.92	13.20	-26.4	-26.9	14.9	0.00e+00	0	43	0	528482304	13	3831
2026-01-20 05:45:22.44	7.84	13.29	-26.4	-26.8	15.0	0.00e+00	0	43	0	535822336	13	3809
2026-01-20 05:45:23.44	7.75	13.38	-26.2	-26.6	15.2	0.00e+00	0	43	0	543162368	13	3740
2026-01-20 05:45:24.44	7.67	13.47	-26.3	-26.6	15.1	0.00e+00	0	43	0	550502400	13	3755
2026-01-20 05:45:25.44	7.58	13.56	-26.4	-26.9	14.9	0.00e+00	0	43	0	557842432	13	3824
2026-01-20 05:45:26.45	7.49	13.65	-26.1	-26.3	15.3	0.00e+00	0	43	0	565182464	13	3669
2026-01-20 05:45:27.45	7.41	13.74	-26.3	-26.6	15.1	0.00e+00	0	43	0	571473920	13	3761
2026-01-20 05:45:28.45	7.32	13.84	-26.3	-26.6	15.1	0.00e+00	0	43	0	578813952	13	3755
2026-01-20 05:45:29.44	7.23	13.93	-26.1	-26.3	15.3	0.00e+00	0	43	0	586153984	13	3691
2026-01-20 05:45:30.45	7.14	14.02	-26.1	-26.2	15.4	0.00e+00	0	43	0	593494016	13	3652
2026-01-20 05:45:31.45	7.05	14.11	-26.2	-26.4	15.3	0.00e+00	0	43	0	600834048	13	3702
2026-01-20 05:45:32.46	6.96	14.20	-26.0	-26.0	15.5	0.00e+00	0	43	0	608174080	13	3602
2026-01-20 05:45:33.45	6.87	14.30	-26.2	-26.5	15.3	0.00e+00	0	43	0	615514112	13	3715
2026-01-20 05:45:34.45	6.78	14.39	-26.2	-26.5	15.2	0.00e+00	0	43	0	622854144	13	3726
2026-01-20 05:45:35.46	6.69	14.48	-26.1	-26.3	15.4	0.00e+00	0	43	0	630194176	13	3676
2026-01-20 05:45:36.47	6.59	14.58	-26.1	-26.8	15.3	0.00e+00	0	43	0	636485632	12	3902
2026-01-20 05:45:37.47	6.50	14.67	-25.9	-26.4	15.5	0.00e+00	0	43	0	643825664	12	3797
2026-01-20 05:45:38.47	6.41	14.77	-26.1	-26.8	15.4	0.00e+00	0	43	0	651165696	12	3886
2026-01-20 05:45:39.47	6.31	14.86	-26.0	-26.6	15.5	0.00e+00	0	43	0	658505728	12	3849
2026-01-20 05:45:40.47	6.22	14.95	-26.1	-26.7	15.4	0.00e+00	0	43	0	665845760	12	3877
2026-01-20 05:45:41.47	6.12	15.05	-26.1	-26.7	15.4	0.00e+00	0	43	0	673185792	12	3880
2026-01-20 05:45:42.47	6.02	15.14	-26.0	-26.5	15.5	0.00e+00	0	43	0	680525824	12	3832
2026-01-20 05:45:43.48	5.93	15.24	-26.2	-26.9	15.3	0.00e+00	0	44	0	687865856	12	3909
2026-01-20 05:45:44.47	5.83	15.34	-26.2	-27.0	15.3	0.00e+00	0	43	0	694157312	12	3951
2026-01-20 05:45:45.47	5.73	15.43	-26.1	-26.9	15.4	0.00e+00	0	44	0	701497344	12	3913
2026-01-20 05:45:46.46	5.63	15.53	-26.1	-26.7	15.4	0.00e+00	0	44	0	708837376	12	3875
2026-01-20 05:45:47.46	5.53	15.62	-26.1	-26.8	15.4	0.00e+00	0	44	0	716177408	12	3900
2026-01-20 05:45:48.46	5.43	15.72	-26.2	-27.1	15.2	0.00e+00	0	43	0	723517440	12	3967
2026-01-20 05:45:49.47	5.33	15.82	-26.3	-27.2	15.2	0.00e+00	0	43	0	730857472	12	3990
2026-01-20 05:45:50.47	5.23	15.92	-26.1	-26.8	15.4	0.00e+00	0	43	0	738197504	12	3900
2026-01-20 05:45:51.47	5.13	16.01	-26.0	-26.6	15.5	0.00e+00	0	44	0	745537536	12	3859
2026-01-20 05:45:52.48	5.02	16.11	-26.1	-26.7	15.5	0.00e+00	0	43	0	752877568	12	3872
2026-01-20 05:45:53.49	4.92	16.21	-26.0	-26.5	15.6	0.00e+00	0	43	0	760217600	12	3811
2026-01-20 05:45:54.50	4.81	16.31	-26.0	-26.4	15.6	0.00e+00	0	44	0	767557632	12	3806
2026-01-20 05:45:55.51	4.71	16.41	-25.9	-26.3	15.7	0.00e+00	0	44	0	774897664	12	3774
2026-01-20 05:45:56.50	4.60	16.51	-25.9	-26.2	15.8	0.00e+00	0	44	0	781189120	12	3749
2026-01-20 05:45:57.50	4.50	16.61	-25.7	-25.8	15.9	0.00e+00	0	44	0	788529152	12	3662
2026-01-20 05:45:58.50	4.39	16.71	-25.8	-26.0	15.9	0.00e+00	0	44	0	795869184	12	3704
2026-01-20 05:45:59.50	4.28	16.81	-25.6	-25.8	16.0	0.00e+00	0	44	0	803209216	12	3650
2026-01-20 05:46:00.50	4.17	16.91	-25.7	-25.8	16.0	0.00e+00	0	44	0	810549248	12	3654
2026-01-20 05:46:01.50	4.06	17.01	-25.6	-25.8	16.0	0.00e+00	0	44	0	817889280	12	3646
2026-01-20 05:46:02.51	3.95	17.11	-25.5	-25.5	16.1	0.00e+00	0	44	0	825229312	12	3600
2026-01-20 05:46:03.51	3.84	17.21	-25.7	-25.8	16.0	0.00e+00	0	44	0	832569344	12	3668
2026-01-20 05:46:04.52	3.73	17.32	-25.7	-25.9	15.9	0.00e+00	0	44	0	839909376	12	3675
2026-01-20 05:46:05.52	3.61	17.42	-25.7	-25.8	16.0	0.00e+00	0	44	0	846200832	12	3666
2026-01-20 05:46:06.52	3.50	17.52	-25.6	-25.8	16.0	0.00e+00	0	44	0	853540864	12	3646
2026-01-20 05:46:07.52	3.39	17.62	-25.7	-25.9	16.0	0.00e+00	0	44	0	860880896	12	3688
2026-01-20 05:46:08.53	3.27	17.73	-25.7	-25.9	16.0	0.00e+00	0	44	0	868220928	12	3674
2026-01-20 05:46:09.53	3.15	17.83	-25.7	-25.9	16.0	0.00e+00	0	44	0	875560960	12	3678
2026-01-20 05:46:10.53	3.04	17.94	-25.6	-25.7	16.1	0.00e+00	0	44	0	882900992	12	3633
2026-01-20 05:46:11.54	2.92	18.04	-25.6	-25.8	16.1	0.00e+00	0	44	0	890241024	12	3649
2026-01-20 05:46:12.55	2.80	18.15	-25.6	-25.6	16.1	0.00e+00	0	44	0	897581056	12	3615
2026-01-20 05:46:13.55	2.68	18.25	-25.5	-25.5	16.2	0.00e+00	0	44	0	904921088	12	3583
2026-01-20 05:46:14.55	2.56	18.35	-25.6	-25.7	16.1	0.00e+00	0	44	0	912261120	12	3627
2026-01-20 05:46:15.55	2.44	18.46	-25.5	-25.5	16.2	0.00e+00	0	44	0	919601152	12	3587
2026-01-20 05:46:16.56	2.31	18.57	-25.4	-25.8	16.4	0.00e+00	0	44	0	925892608	11	3750
2026-01-20 05:46:17.56	2.19	18.67	-25.4	-25.7	16.4	0.00e+00	0	44	0	933232640	11	3734
2026-01-20 05:46:18.56	2.07	18.78	-25.4	-25.6	16.4	0.00e+00	0	44	0	940572672	11	3715
2026-01-20 05:46:19.57	1.94	18.89	-25.2	-25.4	16.6	0.00e+00	0	44	0	947912704	11	3653
2026-01-20 05:46:20.58	1.82	18.99	-25.2	-25.2	16.6	0.00e+00	0	44	0	955252736	11	3627
2026-01-20 05:46:21.58	1.69	19.10	-25.1	-25.1	16.7	0.00e+00	0	44	0	962592768	11	3590
2026-01-20 05:46:22.58	1.56	19.21	-25.0	-24.9	16.9	0.00e+00	0	44	0	969932800	11	3543
2026-01-20 05:46:23.58	1.43	19.32	-25.1	-25.0	16.8	0.00e+00	0	44	0	977272832	11	3577
2026-01-20 05:46:24.59	1.30	19.42	-25.0	-24.9	16.9	0.00e+00	0	44	0	984612864	11	3554
2026-01-20 05:46:25.60	1.17	19.53	-24.8	-25.0	17.1	0.00e+00	0	44	0	991952896	10	3669
2026-01-20 05:46:26.60	1.04	19.64	-24.8	-25.0	17.1	0.00e+00	0	44	0	999292928	10	3665
2026-01-20 05:46:27.60	0.91	19.75	-24.9	-25.2	17.0	0.00e+00	0	44	0	1006632960	10	3727
2026-01-20 05:46:28.61	0.78	19.86	-25.1	-25.6	16.7	0.00e+00	0	44	0	1012924416	10	3815
2026-01-20 05:46:29.61	0.64	19.97	-24.7	-24.7	17.2	0.00e+00	0	44	0	1020264448	10	3611
2026-01-20 05:46:30.61	0.51	20.08	-24.7	-24.8	17.2	0.00e+00	0	44	0	1027604480	10	3619
2026-01-20 05:46:31.61	0.37	20.19	-24.7	-24.7	17.3	0.00e+00	0	44	0	1034944512	10	3603
2026-01-20 05:46:32.61	0.23	20.30	-24.7	-24.8	17.2	0.00e+00	0	44	0	1042284544	10	3620
2026-01-20 05:46:33.61	0.10	20.41	-24.8	-24.9	17.2	0.00e+00	0	44	0	1049624576	10	3653
2026-01-20 05:46:34.62	359.96	20.53	-24.8	-24.9	17.2	0.00e+00	0	44	0	1056964608	10	3649
2026-01-20 05:46:35.63	359.81	20.64	-24.9	-25.0	17.1	0.00e+00	0	44	0	1064304640	10	3683
2026-01-20 05:46:36.63	359.67	20.75	-24.9	-25.2	17.0	0.00e+00	0	44	0	1070596096	10	3711
2026-01-20 05:46:37.63	359.53	20.86	-24.9	-25.2	17.0	0.00e+00	0	44	0	1077936128	10	3705
2026-01-20 05:46:38.63	359.39	20.97	-25.0	-25.3	16.9	0.00e+00	0	44	0	1085276160	10	3746
2026-01-20 05:46:39.63	359.24	21.09	-25.0	-25.4	16.9	0.00e+00	0	44	0	1092616192	10	3757
2026-01-20 05:46:40.63	359.10	21.20	-25.1	-25.4	16.9	0.00e+00	0	44	0	1099956224	10	3766
2026-01-20 05:46:41.63	358.95	21.31	-24.8	-25.0	17.2	0.00e+00	0	44	0	1107296256	10	3662
2026-01-20 05:46:42.64	358.80	21.43	-24.7	-24.7	17.3	0.00e+00	0	44	0	1114636288	10	3598
2026-01-20 05:46:43.65	358.65	21.54	-24.8	-24.8	17.2	0.00e+00	0	44	0	1121976320	10	3635
2026-01-20 05:46:44.66	358.50	21.66	-24.5	-24.3	17.5	0.00e+00	0	44	0	1129316352	10	3522
2026-01-20 05:46:45.66	358.35	21.77	-24.4	-24.1	17.6	0.00e+00	0	44	0	1136656384	10	3484
2026-01-20 05:46:46.66	358.20	21.89	-24.4	-24.2	17.6	0.00e+00	0	44	0	1143996416	10	3487
2026-01-20 05:46:47.66	358.04	22.00	-24.6	-24.5	17.4	0.00e+00	0	44	0	1151336448	10	3551
2026-01-20 05:46:48.66	357.89	22.12	-24.4	-24.1	17.6	0.00e+00	0	44	0	1157627904	10	3476
2026-01-20 05:46:49.67	357.73	22.24	-24.3	-24.5	17.6	0.00e+00	0	44	0	1164967936	9	3653
2026-01-20 05:46:50.68	357.57	22.35	-24.3	-24.4	17.7	0.00e+00	0	44	0	1172307968	9	3632
2026-01-20 05:46:51.68	357.42	22.47	-24.5	-24.8	17.5	0.00e+00	0	44	0	1179648000	9	3716
2026-01-20 05:46:52.67	357.26	22.59	-24.5	-24.7	17.5	0.00e+00	0	44	0	1186988032	9	3714
2026-01-20 05:46:53.68	357.10	22.70	-24.4	-24.7	17.6	0.00e+00	0	44	0	1194328064	9	3697
2026-01-20 05:46:54.69	356.93	22.82	-24.1	-24.0	17.9	0.00e+00	0	44	0	1201668096	9	3549
2026-01-20 05:46:55.69	356.77	22.94	-24.5	-24.9	17.5	0.00e+00	0	44	0	1209008128	9	3743
2026-01-20 05:46:56.69	356.61	23.06	-24.5	-24.8	17.5	0.00e+00	0	44	0	1216348160	9	3734
2026-01-20 05:46:57.69	356.44	23.18	-24.6	-25.0	17.4	0.00e+00	0	44	0	1223688192	9	3776
2026-01-20 05:46:58.70	356.27	23.30	-24.6	-25.0	17.4	0.00e+00	0	44	0	1231028224	9	3761
2026-01-20 05:46:59.70	356.10	23.41	-24.4	-24.7	17.6	0.00e+00	0	44	0	1238368256	9	3695
2026-01-20 05:47:00.70	355.94	23.53	-24.7	-25.2	17.4	0.00e+00	0	44	0	1244659712	9	3807
2026-01-20 05:47:01.71	355.76	23.65	-24.7	-25.2	17.3	0.00e+00	0	44	0	1251999744	9	3827
2026-01-20 05:47:02.71	355.59	23.77	-24.7	-25.1	17.4	0.00e+00	0	44	0	1259339776	9	3805
2026-01-20 05:47:03.71	355.42	23.89	-24.6	-25.0	17.4	0.00e+00	0	44	0	1266679808	9	3777
2026-01-20 05:47:04.72	355.24	24.01	-24.8	-25.4	17.3	0.00e+00	0	44	0	1274019840	9	3854
2026-01-20 05:47:05.72	355.06	24.14	-24.7	-25.1	17.4	0.00e+00	0	44	0	1281359872	9	3806
2026-01-20 05:47:06.71	354.89	24.25	-24.6	-25.1	17.4	0.00e+00	0	44	0	1288699904	9	3783
2026-01-20 05:47:07.72	354.71	24.38	-24.8	-25.4	17.3	0.00e+00	0	44	0	1296039936	9	3861
2026-01-20 05:47:08.71	354.53	24.50	-24.9	-25.7	17.1	0.00e+00	0	44	0	1302331392	9	3930
2026-01-20 05:47:09.72	354.35	24.62	-24.8	-25.4	17.3	0.00e+00	0	44	0	1309671424	9	3863
2026-01-20 05:47:10.72	354.16	24.74	-24.6	-25.1	17.4	0.00e+00	0	44	0	1317011456	9	3799
2026-01-20 05:47:11.73	353.98	24.86	-24.6	-24.9	17.5	0.00e+00	0	44	0	1324351488	9	3749
2026-01-20 05:47:12.73	353.79	24.99	-24.5	-24.9	17.5	0.00e+00	0	44	0	1331691520	9	3748
2026-01-20 05:47:13.73	353.60	25.11	-24.6	-25.0	17.5	0.00e+00	0	44	0	1339031552	9	3776
2026-01-20 05:47:14.73	353.41	25.23	-24.5	-24.8	17.6	0.00e+00	0	44	0	1346371584	9	3722
2026-01-20 05:47:15.73	353.22	25.35	-24.4	-24.5	17.7	0.00e+00	0	44	0	1353711616	9	3663
2026-01-20 05:47:16.72	353.03	25.47	-24.3	-24.5	17.8	0.00e+00	0	44	0	1361051648	9	3649
2026-01-20 05:47:17.72	352.84	25.60	-24.5	-24.8	17.6	0.00e+00	0	44	0	1367343104	9	3720
2026-01-20 05:47:18.73	352.64	25.72	-24.4	-24.7	17.7	0.00e+00	0	44	0	1374683136	9	3702
2026-01-20 05:47:19.73	352.45	25.85	-24.5	-24.7	17.7	0.00e+00	0	44	0	1382023168	9	3702
2026-01-20 05:47:20.73	352.25	25.97	-24.9	-25.5	17.2	0.00e+00	0	44	0	1389363200	9	3899
2026-01-20 05:47:21.74	352.05	26.10	-24.7	-25.1	17.4	0.00e+00	0	44	0	1396703232	9	3796
2026-01-20 05:47:22.74	351.84	26.22	-24.7	-25.3	17.4	0.00e+00	0	44	0	1404043264	9	3841
2026-01-20 05:47:23.74	351.64	26.34	-24.6	-25.1	17.4	0.00e+00	0	44	0	1411383296	9	3794
2026-01-20 05:47:24.74	351.44	26.47	-24.6	-25.0	17.5	0.00e+00	0	44	0	1418723328	9	3778
2026-01-20 05:47:25.75	351.23	26.59	-24.6	-24.9	17.6	0.00e+00	0	44	0	1426063360	9	3750
2026-01-20 05:47:26.75	351.02	26.72	-24.6	-25.0	17.5	0.00e+00	0	44	0	1433403392	9	3775
2026-01-20 05:47:27.75	350.81	26.84	-24.6	-25.0	17.5	0.00e+00	0	44	0	1440743424	9	3762
2026-01-20 05:47:28.75	350.60	26.97	-24.5	-24.8	17.6	0.00e+00	0	44	0	1448083456	9	3716
2026-01-20 05:47:29.76	350.38	27.10	-24.5	-24.8	17.6	0.00e+00	0	44	0	1454374912	9	3732
2026-01-20 05:47:30.76	350.17	27.22	-24.6	-25.1	17.5	0.00e+00	0	44	0	1461714944	9	3785
2026-01-20 05:47:31.77	349.95	27.35	-24.5	-24.9	17.6	0.00e+00	0	44	0	1469054976	9	3748
2026-01-20 05:47:32.77	349.73	27.47	-24.5	-24.7	17.7	0.00e+00	0	44	0	1476395008	9	3703
2026-01-20 05:47:33.78	349.51	27.60	-24.5	-24.7	17.7	0.00e+00	0	44	0	1483735040	9	3707
2026-01-20 05:47:34.78	349.29	27.73	-24.6	-24.9	17.6	0.00e+00	0	44	0	1491075072	9	3762
2026-01-20 05:47:35.78	349.06	27.85	-24.5	-24.8	17.6	0.00e+00	0	44	0	1498415104	9	3721
2026-01-20 05:47:36.78	348.84	27.98	-24.4	-24.7	17.7	0.00e+00	0	44	0	1505755136	9	3695
2026-01-20 05:47:37.78	348.61	28.10	-24.6	-25.0	17.5	0.00e+00	0	44	0	1512046592	9	3771
2026-01-20 05:47:38.78	348.38	28.23	-24.5	-24.8	17.6	0.00e+00	0	44	0	1519386624	9	3715
2026-01-20 05:47:39.77	348.15	28.36	-24.3	-24.5	17.8	0.00e+00	0	44	0	1526726656	9	3650
2026-01-20 05:47:40.78	347.92	28.48	-24.4	-24.5	17.8	0.00e+00	0	44	0	1534066688	9	3655
2026-01-20 05:47:41.78	347.68	28.61	-24.4	-24.6	17.8	0.00e+00	0	44	0	1541406720	9	3672
2026-01-20 05:47:42.78	347.45	28.74	-24.3	-24.3	17.9	0.00e+00	0	44	0	1548746752	9	3601
2026-01-20 05:47:43.78	347.21	28.86	-24.2	-24.1	18.0	0.00e+00	0	44	0	1556086784	9	3577
2026-01-20 05:47:44.78	346.97	28.99	-24.1	-23.9	18.1	0.00e+00	0	44	0	1563426816	9	3517
2026-01-20 05:47:45.78	346.73	29.12	-24.1	-23.9	18.1	0.00e+00	0	44	0	1570766848	9	3533
2026-01-20 05:47:46.78	346.48	29.24	-24.3	-24.4	17.8	0.00e+00	0	44	0	1577058304	9	3642
2026-01-20 05:47:47.79	346.23	29.37	-24.0	-23.8	18.2	0.00e+00	0	44	0	1585446912	9	3514
2026-01-20 05:47:48.80	345.98	29.50	-24.2	-24.1	18.0	0.00e+00	0	44	0	1592786944	9	3575
2026-01-20 05:47:49.79	345.74	29.62	-24.0	-23.8	18.2	0.00e+00	0	44	0	1599078400	9	3499
2026-01-20 05:47:50.80	345.48	29.75	-23.9	-23.6	18.3	0.00e+00	0	44	0	1606418432	9	3463
2026-01-20 05:47:51.80	345.23	29.88	-24.0	-23.8	18.2	0.00e+00	0	44	0	1613758464	9	3500
2026-01-20 05:47:52.80	344.97	30.00	-24.0	-24.2	18.2	0.00e+00	0	44	0	1621098496	8	3695
2026-01-20 05:47:53.80	344.71	30.13	-24.0	-24.2	18.2	0.00e+00	0	44	0	1628438528	8	3681
2026-01-20 05:47:54.81	344.45	30.26	-24.0	-24.2	18.2	0.00e+00	0	44	0	1635778560	8	3697
2026-01-20 05:47:55.81	344.19	30.38	-24.1	-24.5	18.1	0.00e+00	0	44	0	1643118592	8	3759
2026-01-20 05:47:56.82	343.92	30.51	-24.3	-24.9	17.9	0.00e+00	0	44	0	1650458624	8	3842
2026-01-20 05:47:57.82	343.65	30.63	-24.0	-24.3	18.2	0.00e+00	0	44	0	1656750080	8	3718
2026-01-20 05:47:58.82	343.39	30.76	-23.9	-24.1	18.3	0.00e+00	0	44	0	1664090112	8	3665
2026-01-20 05:47:59.83	343.11	30.89	-23.9	-24.0	18.4	0.00e+00	0	44	0	1671430144	8	3643
2026-01-20 05:48:00.83	342.84	31.01	-24.0	-24.3	18.2	0.00e+00	0	44	0	1678770176	8	3703
2026-01-20 05:48:01.84	342.56	31.14	-24.1	-24.4	18.1	0.00e+00	0	44	0	1686110208	8	3736
2026-01-20 05:48:02.84	342.28	31.26	-24.0	-24.3	18.2	0.00e+00	0	44	0	1693450240	8	3712
2026-01-20 05:48:03.84	342.01	31.38	-24.0	-24.3	18.2	0.00e+00	0	44	0	1700790272	8	3709
2026-01-20 05:48:04.84	341.72	31.51	-24.1	-24.4	18.1	0.00e+00	0	44	0	1708130304	8	3741
2026-01-20 05:48:05.84	341.44	31.63	-24.1	-24.3	18.2	0.00e+00	0	44	0	1715470336	8	3724
2026-01-20 05:48:06.85	341.15	31.76	-24.1	-24.4	18.1	0.00e+00	0	44	0	1722810368	8	3742
2026-01-20 05:48:07.85	340.86	31.88	-24.1	-24.5	18.1	0.00e+00	0	44	0	1730150400	8	3752
2026-01-20 05:48:08.85	340.57	32.00	-24.3	-25.0	17.9	0.00e+00	0	44	0	1737490432	8	3861
2026-01-20 05:48:09.86	340.28	32.13	-24.0	-24.3	18.2	0.00e+00	0	44	0	1743781888	8	3717
2026-01-20 05:48:10.86	339.98	32.25	-24.1	-24.4	18.1	0.00e+00	0	44	0	1751121920	8	3726
2026-01-20 05:48:11.86	339.69	32.37	-24.1	-24.4	18.1	0.00e+00	0	44	0	1758461952	8	3740
2026-01-20 05:48:12.87	339.38	32.49	-24.3	-24.8	17.9	0.00e+00	0	44	0	1765801984	8	3835
2026-01-20 05:48:13.86	339.08	32.61	-24.3	-24.9	17.9	0.00e+00	0	44	0	1773142016	8	3839
2026-01-20 05:48:14.86	338.78	32.73	-24.3	-25.0	17.9	0.00e+00	0	44	0	1780482048	8	3865
2026-01-20 05:48:15.86	338.47	32.85	-24.6	-25.0	17.6	0.00e+00	0	44	0	1787822080	9	3771
2026-01-20 05:48:16.86	338.17	32.97	-24.7	-25.3	17.4	0.00e+00	0	44	0	1795162112	9	3835
2026-01-20 05:48:17.86	337.86	33.09	-24.4	-24.6	17.8	0.00e+00	0	44	0	1802502144	9	3675
2026-01-20 05:48:18.86	337.54	33.21	-24.0	-23.7	18.2	0.00e+00	0	44	0	1808793600	9	3486
2026-01-20 05:48:19.87	337.22	33.33	-23.8	-23.8	18.4	0.00e+00	0	44	0	1816133632	8	3606
2026-01-20 05:48:20.87	336.91	33.45	-23.8	-23.8	18.4	0.00e+00	0	44	0	1823473664	8	3608
2026-01-20 05:48:21.87	336.59	33.57	-24.0	-24.2	18.2	0.00e+00	0	44	0	1830813696	8	3698
2026-01-20 05:48:22.88	336.26	33.68	-23.8	-23.7	18.5	0.00e+00	0	44	0	1838153728	8	3582
2026-01-20 05:48:23.88	335.94	33.80	-23.7	-23.6	18.6	0.00e+00	0	44	0	1845493760	8	3549
2026-01-20 05:48:24.88	335.61	33.92	-23.5	-23.2	18.7	0.00e+00	0	44	0	1852833792	8	3477
2026-01-20 05:48:25.89	335.28	34.03	-23.5	-23.2	18.7	0.00e+00	0	44	0	1860173824	8	3478
2026-01-20 05:48:26.89	334.94	34.15	-23.6	-23.3	18.7	0.00e+00	0	44	0	1867513856	8	3497
2026-01-20 05:48:27.90	334.61	34.26	-23.9	-23.9	18.4	0.00e+00	0	44	0	1874853888	8	3626
2026-01-20 05:48:28.90	334.27	34.37	-23.9	-24.0	18.4	0.00e+00	0	44	0	1882193920	8	3644
2026-01-20 05:48:29.91	333.93	34.49	-23.9	-24.0	18.3	0.00e+00	0	44	0	1888485376	8	3637
2026-01-20 05:48:30.91	333.59	34.60	-24.0	-24.2	18.3	0.00e+00	0	44	0	1895825408	8	3690
2026-01-20 05:48:31.90	333.25	34.71	-24.1	-24.6	18.1	0.00e+00	0	44	0	1903165440	8	3772
2026-01-20 05:48:32.90	332.90	34.82	-24.3	-24.8	17.9	0.00e+00	0	44	0	1910505472	8	3826
2026-01-20 05:48:33.90	332.55	34.92	-24.3	-25.0	17.8	0.00e+00	0	44	0	1917845504	8	3865
2026-01-20 05:48:34.90	332.20	35.03	-24.1	-24.4	18.2	0.00e+00	0	44	0	1925185536	8	3728
2026-01-20 05:48:35.90	331.85	35.14	-23.8	-23.9	18.4	0.00e+00	0	44	0	1932525568	8	3619
2026-01-20 05:48:36.90	331.49	35.25	-23.8	-23.7	18.5	0.00e+00	0	44	0	1939865600	8	3583
2026-01-20 05:48:37.91	331.13	35.35	-23.9	-24.1	18.3	0.00e+00	0	44	0	1947205632	8	3659
2026-01-20 05:48:38.91	330.77	35.46	-23.8	-23.8	18.4	0.00e+00	0	44	0	1953497088	8	3594
2026-01-20 05:48:39.91	330.41	35.56	-23.9	-23.9	18.4	0.00e+00	0	44	0	1960837120	8	3637
2026-01-20 05:48:40.92	330.04	35.66	-24.0	-24.3	18.2	0.00e+00	0	44	0	1968177152	8	3719
2026-01-20 05:48:41.92	329.67	35.76	-24.1	-24.4	18.1	0.00e+00	0	44	0	1975517184	8	3746
2026-01-20 05:48:42.93	329.30	35.87	-24.0	-24.2	18.2	0.00e+00	0	44	0	1982857216	8	3701
2026-01-20 05:48:43.93	328.93	35.97	-24.0	-24.3	18.2	0.00e+00	0	44	0	1990197248	8	3708
2026-01-20 05:48:44.94	328.55	36.06	-24.1	-24.4	18.2	0.00e+00	0	44	0	1997537280	8	3739
2026-01-20 05:48:45.94	328.18	36.16	-23.8	-23.8	18.5	0.00e+00	0	44	0	2004877312	8	3596
2026-01-20 05:48:46.95	327.79	36.26	-23.4	-23.0	18.9	0.00e+00	0	44	0	2012217344	8	3430
2026-01-20 05:48:47.95	327.41	36.35	-23.3	-23.2	19.0	0.00e+00	0	44	0	2019557376	7	3572
2026-01-20 05:48:48.95	327.03	36.45	-23.3	-23.2	19.0	0.00e+00	0	44	0	2026897408	7	3576
2026-01-20 05:48:49.95	326.64	36.54	-23.6	-23.8	18.7	0.00e+00	0	44	0	2034237440	7	3707
2026-01-20 05:48:50.96	326.25	36.63	-23.7	-24.1	18.5	0.00e+00	0	44	0	2040528896	7	3769
2026-01-20 05:48:51.96	325.86	36.72	-24.0	-24.8	18.1	0.00e+00	0	44	0	2047868928	7	3927
2026-01-20 05:48:52.96	325.47	36.81	-24.2	-24.6	18.1	0.00e+00	0	44	0	2055208960	8	3777
2026-01-20 05:48:53.97	325.07	36.90	-24.3	-24.8	18.0	0.00e+00	0	44	0	2062548992	8	3816
2026-01-20 05:48:54.97	324.68	36.98	-24.0	-24.3	18.2	0.00e+00	0	44	0	2069889024	8	3703
2026-01-20 05:48:55.98	324.28	37.07	-24.0	-24.3	18.2	0.00e+00	0	44	0	2077229056	8	3700
2026-01-20 05:48:56.99	323.87	37.15	-23.9	-24.0	18.4	0.00e+00	0	44	0	2084569088	8	3637
2026-01-20 05:48:57.99	323.47	37.24	-23.9	-23.9	18.4	0.00e+00	0	44	0	2091909120	8	3626
2026-01-20 05:48:59.00	323.06	37.32	-24.0	-24.1	18.3	0.00e+00	0	44	0	2099249152	8	3670
2026-01-20 05:49:00.00	322.65	37.40	-23.8	-23.9	18.4	0.00e+00	0	44	0	2106589184	8	3620
2026-01-20 05:49:01.01	322.24	37.47	-23.8	-23.7	18.5	0.00e+00	0	44	0	2113929216	8	3589
2026-01-20 05:49:02.01	321.83	37.55	-23.9	-24.0	18.4	0.00e+00	0	44	0	2120220672	8	3642
2026-01-20 05:49:03.01	321.42	37.63	-24.0	-24.2	18.3	0.00e+00	0	44	0	2127560704	8	3687
2026-01-20 05:49:04.01	321.01	37.70	-23.9	-24.1	18.3	0.00e+00	0	44	0	2134900736	8	3666
2026-01-20 05:49:05.01	320.59	37.77	-24.2	-24.6	18.0	0.00e+00	0	44	0	2142240768	8	3787
2026-01-20 05:49:06.01	320.17	37.84	-24.1	-24.5	18.1	0.00e+00	0	44	0	2149580800	8	3753
2026-01-20 05:49:07.01	319.75	37.91	-24.2	-24.6	18.0	0.00e+00	0	44	0	2156920832	8	3791
2026-01-20 05:49:08.01	319.33	37.97	-24.1	-24.4	18.1	0.00e+00	0	44	0	2164260864	8	3740
2026-01-20 05:49:09.01	318.91	38.04	-24.1	-24.4	18.1	0.00e+00	0	44	0	2171600896	8	3738
2026-01-20 05:49:10.02	318.48	38.10	-24.0	-24.1	18.3	0.00e+00	0	44	0	2178940928	8	3669
2026-01-20 05:49:11.02	318.05	38.16	-24.0	-24.2	18.3	0.00e+00	0	44	0	2185232384	8	3681
2026-01-20 05:49:12.02	317.62	38.22	-23.7	-23.7	18.5	0.00e+00	0	44	0	2192572416	8	3576
2026-01-20 05:49:13.03	317.19	38.28	-23.6	-23.5	18.6	0.00e+00	0	44	0	2199912448	8	3536
2026-01-20 05:49:14.03	316.76	38.34	-23.7	-23.7	18.5	0.00e+00	0	44	0	2207252480	8	3580
2026-01-20 05:49:15.04	316.32	38.40	-23.7	-23.6	18.6	0.00e+00	0	44	0	2214592512	8	3555
2026-01-20 05:49:16.04	315.89	38.45	-23.8	-23.8	18.4	0.00e+00	0	44	0	2221932544	8	3602
2026-01-20 05:49:17.04	315.45	38.50	-24.0	-24.2	18.2	0.00e+00	0	44	0	2229272576	8	3683
2026-01-20 05:49:18.04	315.02	38.55	-23.7	-23.7	18.5	0.00e+00	0	44	0	2236612608	8	3570
2026-01-20 05:49:19.05	314.57	38.60	-23.7	-23.7	18.5	0.00e+00	0	44	0	2243952640	8	3575
2026-01-20 05:49:20.05	314.13	38.64	-24.0	-24.2	18.2	0.00e+00	0	44	0	2251292672	8	3693
2026-01-20 05:49:21.06	313.69	38.69	-24.0	-24.1	18.2	0.00e+00	0	44	0	2258632704	8	3672
2026-01-20 05:49:22.05	313.25	38.73	-24.1	-24.4	18.1	0.00e+00	0	44	0	2265972736	8	3735
2026-01-20 05:49:23.06	312.80	38.77	-24.0	-24.3	18.2	0.00e+00	0	44	0	2272264192	8	3703
2026-01-20 05:49:24.05	312.36	38.81	-24.3	-24.8	17.9	0.00e+00	0	44	0	2279604224	8	3825
2026-01-20 05:49:25.06	311.91	38.84	-24.5	-25.3	17.7	0.00e+00	0	44	0	2286944256	8	3938
2026-01-20 05:49:26.06	311.47	38.88	-24.3	-24.9	17.9	0.00e+00	0	44	0	2294284288	8	3861
2026-01-20 05:49:27.06	311.02	38.91	-24.2	-24.5	18.0	0.00e+00	0	44	0	2301624320	8	3766
2026-01-20 05:49:28.06	310.57	38.94	-24.1	-24.5	18.1	0.00e+00	0	44	0	2308964352	8	3755
2026-01-20 05:49:29.07	310.12	38.97	-24.2	-24.6	18.0	0.00e+00	0	44	0	2316304384	8	3774
2026-01-20 05:49:30.08	309.67	38.99	-24.3	-24.8	17.9	0.00e+00	0	44	0	2323644416	8	3826
2026-01-20 05:49:31.08	309.22	39.02	-24.1	-24.5	18.1	0.00e+00	0	44	0	2329935872	8	3765
2026-01-20 05:49:32.09	308.76	39.04	-24.0	-24.2	18.2	0.00e+00	0	44	0	2337275904	8	3689
2026-01-20 05:49:33.09	308.31	39.06	-24.0	-24.3	18.2	0.00e+00	0	44	0	2345664512	8	3704
2026-01-20 05:49:34.09	307.86	39.08	-23.8	-23.8	18.4	0.00e+00	0	44	0	2351955968	8	3608
2026-01-20 05:49:35.10	307.40	39.09	-23.9	-23.9	18.3	0.00e+00	0	44	0	2359296000	8	3634
2026-01-20 05:49:36.10	306.95	39.11	-23.9	-24.0	18.3	0.00e+00	0	44	0	2366636032	8	3646
2026-01-20 05:49:37.10	306.49	39.12	-24.0	-24.3	18.1	0.00e+00	0	44	0	2373976064	8	3722
2026-01-20 05:49:38.10	306.04	39.13	-23.8	-23.9	18.4	0.00e+00	0	44	0	2381316096	8	3618
2026-01-20 05:49:39.11	305.58	39.14	-24.0	-24.2	18.2	0.00e+00	0	44	0	2388656128	8	3693
2026-01-20 05:49:40.11	305.13	39.15	-23.9	-23.9	18.3	0.00e+00	0	44	0	2395996160	8	3632
2026-01-20 05:49:41.11	304.67	39.15	-23.8	-23.8	18.4	0.00e+00	0	44	0	2403336192	8	3605
2026-01-20 05:49:42.12	304.21	39.15	-23.8	-23.9	18.4	0.00e+00	0	44	0	2410676224	8	3620
2026-01-20 05:49:43.12	303.76	39.15	-23.8	-23.9	18.4	0.00e+00	0	44	0	2416967680	8	3620
2026-01-20 05:49:44.12	303.31	39.15	-23.9	-24.0	18.3	0.00e+00	0	44	0	2424307712	8	3647
2026-01-20 05:49:45.13	302.85	39.14	-23.9	-23.9	18.3	0.00e+00	0	44	0	2431647744	8	3627
2026-01-20 05:49:46.13	302.39	39.14	-23.9	-24.1	18.2	0.00e+00	0	44	0	2438987776	8	3659
2026-01-20 05:49:47.13	301.94	39.13	-23.9	-24.1	18.3	0.00e+00	0	44	0	2446327808	8	3666
2026-01-20 05:49:48.13	301.49	39.12	-24.0	-24.2	18.2	0.00e+00	0	44	0	2453667840	8	3698
2026-01-20 05:49:49.13	301.03	39.11	-24.2	-24.7	17.9	0.00e+00	0	44	0	2461007872	8	3810
2026-01-20 05:49:50.13	300.58	39.09	-24.1	-24.5	18.0	0.00e+00	0	44	0	2468347904	8	3764
2026-01-20 05:49:51.13	300.13	39.07	-24.2	-24.7	18.0	0.00e+00	0	44	0	2474639360	8	3797
2026-01-20 05:49:52.13	299.67	39.06	-24.0	-24.2	18.2	0.00e+00	0	44	0	2481979392	8	3690
2026-01-20 05:49:53.13	299.22	39.04	-23.9	-24.0	18.3	0.00e+00	0	44	0	2489319424	8	3642
2026-01-20 05:49:54.13	298.77	39.01	-23.9	-24.1	18.2	0.00e+00	0	44	0	2496659456	8	3655
2026-01-20 05:49:55.13	298.32	38.99	-24.3	-24.8	17.9	0.00e+00	0	44	0	2503999488	8	3832
2026-01-20 05:49:56.13	297.87	38.96	-24.1	-24.5	18.1	0.00e+00	0	44	0	2511339520	8	3758
2026-01-20 05:49:57.13	297.42	38.93	-24.2	-24.7	18.0	0.00e+00	0	44	0	2518679552	8	3802
2026-01-20 05:49:58.14	296.97	38.90	-24.2	-24.6	18.0	0.00e+00	0	44	0	2526019584	8	3771
2026-01-20 05:49:59.14	296.52	38.87	-23.9	-24.0	18.3	0.00e+00	0	44	0	2533359616	8	3655
2026-01-20 05:50:00.14	296.08	38.84	-23.9	-24.0	18.3	0.00e+00	0	44	0	2539651072	8	3636
2026-01-20 05:50:01.14	295.63	38.80	-23.9	-24.0	18.3	0.00e+00	0	44	0	2548039680	8	3654
2026-01-20 05:50:02.15	295.18	38.76	-23.7	-23.5	18.5	0.00e+00	0	44	0	2555379712	8	3547
2026-01-20 05:50:03.15	294.74	38.72	-23.7	-23.6	18.5	0.00e+00	0	44	0	2561671168	8	3562
2026-01-20 05:50:04.15	294.30	38.68	-23.9	-24.1	18.2	0.00e+00	0	44	0	2569011200	8	3662
2026-01-20 05:50:05.16	293.85	38.63	-24.0	-24.2	18.2	0.00e+00	0	44	0	2576351232	8	3686
2026-01-20 05:50:06.16	293.41	38.59	-24.3	-24.8	17.9	0.00e+00	0	44	0	2583691264	8	3820
2026-01-20 05:50:07.16	292.97	38.54	-23.9	-24.0	18.3	0.00e+00	0	44	0	2591031296	8	3644
2026-01-20 05:50:08.16	292.54	38.49	-23.7	-23.7	18.4	0.00e+00	0	44	0	2598371328	8	3578
2026-01-20 05:50:09.16	292.10	38.44	-23.7	-23.5	18.6	0.00e+00	0	44	0	2605711360	8	3535
2026-01-20 05:50:10.17	291.66	38.38	-23.7	-23.6	18.5	0.00e+00	0	44	0	2613051392	8	3569
2026-01-20 05:50:11.17	291.23	38.33	-23.8	-23.8	18.4	0.00e+00	0	44	0	2620391424	8	3601
2026-01-20 05:50:12.17	290.80	38.27	-23.9	-24.0	18.2	0.00e+00	0	44	0	2626682880	8	3655
2026-01-20 05:50:13.17	290.37	38.21	-23.9	-24.0	18.3	0.00e+00	0	44	0	2634022912	8	3641
2026-01-20 05:50:14.18	289.93	38.15	-23.9	-24.0	18.3	0.00e+00	0	44	0	2641362944	8	3639
2026-01-20 05:50:15.18	289.51	38.09	-23.9	-24.0	18.3	0.00e+00	0	44	0	2648702976	8	3642
2026-01-20 05:50:16.18	289.08	38.03	-23.9	-24.0	18.3	0.00e+00	0	44	0	2656043008	8	3638
2026-01-20 05:50:17.18	288.66	37.96	-23.6	-23.4	18.6	0.00e+00	0	44	0	2663383040	8	3509
2026-01-20 05:50:18.18	288.24	37.89	-23.7	-23.6	18.5	0.00e+00	0	44	0	2670723072	8	3547
2026-01-20 05:50:19.19	287.81	37.82	-23.8	-23.9	18.3	0.00e+00	0	44	0	2678063104	8	3628
2026-01-20 05:50:20.20	287.39	37.75	-24.0	-24.2	18.2	0.00e+00	0	44	0	2685403136	8	3695
2026-01-20 05:50:21.20	286.97	37.68	-24.0	-24.2	18.2	0.00e+00	0	44	0	2692743168	8	3696
2026-01-20 05:50:22.21	286.56	37.61	-24.1	-24.4	18.0	0.00e+00	0	44	0	2700083200	8	3742
2026-01-20 05:50:23.21	286.14	37.53	-24.3	-24.9	17.8	0.00e+00	0	44	0	2706374656	8	3841
2026-01-20 05:50:24.21	285.73	37.46	-24.3	-24.9	17.8	0.00e+00	0	44	0	2713714688	8	3847
2026-01-20 05:50:25.20	285.33	37.38	-24.0	-24.1	18.2	0.00e+00	0	44	0	2721054720	8	3674
2026-01-20 05:50:26.21	284.92	37.30	-23.8	-23.7	18.4	0.00e+00	0	44	0	2728394752	8	3591
2026-01-20 05:50:27.20	284.52	37.22	-23.7	-23.7	18.4	0.00e+00	0	44	0	2735734784	8	3582
2026-01-20 05:50:28.21	284.11	37.14	-23.9	-24.0	18.3	0.00e+00	0	44	0	2743074816	8	3649
2026-01-20 05:50:29.21	283.71	37.05	-23.9	-23.9	18.3	0.00e+00	0	44	0	2750414848	8	3636
2026-01-20 05:50:30.22	283.31	36.97	-23.9	-24.1	18.2	0.00e+00	0	44	0	2757754880	8	3659
2026-01-20 05:50:31.22	282.91	36.88	-23.9	-24.0	18.2	0.00e+00	0	44	0	2765094912	8	3655
2026-01-20 05:50:32.22	282.52	36.79	-23.6	-23.4	18.5	0.00e+00	0	44	0	2771386368	8	3520
2026-01-20 05:50:33.22	282.12	36.70	-23.4	-23.0	18.7	0.00e+00	0	44	0	2778726400	8	3442
2026-01-20 05:50:34.23	281.73	36.61	-23.4	-23.5	18.7	0.00e+00	0	44	0	2786066432	7	3649
2026-01-20 05:50:35.23	281.34	36.52	-23.6	-23.8	18.6	0.00e+00	0	44	0	2793406464	7	3710
2026-01-20 05:50:36.23	280.96	36.43	-23.6	-23.9	18.5	0.00e+00	0	44	0	2800746496	7	3733
2026-01-20 05:50:37.23	280.57	36.33	-23.6	-23.8	18.5	0.00e+00	0	44	0	2808086528	7	3712
2026-01-20 05:50:38.24	280.19	36.24	-23.6	-23.8	18.5	0.00e+00	0	44	0	2815426560	7	3711
2026-01-20 05:50:39.24	279.81	36.14	-23.6	-24.0	18.4	0.00e+00	0	44	0	2822766592	7	3753
2026-01-20 05:50:40.24	279.43	36.04	-23.7	-24.1	18.4	0.00e+00	0	44	0	2830106624	7	3774
2026-01-20 05:50:41.23	279.06	35.94	-23.3	-23.3	18.8	0.00e+00	0	44	0	2836398080	7	3601
2026-01-20 05:50:42.24	278.69	35.84	-23.1	-22.8	19.0	0.00e+00	0	44	0	2844786688	7	3500
2026-01-20 05:50:43.24	278.32	35.74	-23.0	-22.7	19.1	0.00e+00	0	44	0	2851078144	7	3469
2026-01-20 05:50:44.23	277.95	35.64	-23.1	-23.0	18.9	0.00e+00	0	44	0	2858418176	7	3522
2026-01-20 05:50:45.23	277.59	35.54	-23.1	-23.0	19.0	0.00e+00	0	44	0	2865758208	7	3524
2026-01-20 05:50:46.24	277.22	35.43	-23.3	-23.3	18.8	0.00e+00	0	44	0	2873098240	7	3599
2026-01-20 05:50:47.25	276.86	35.33	-23.2	-23.1	18.9	0.00e+00	0	44	0	2880438272	7	3563
2026-01-20 05:50:48.25	276.50	35.22	-23.3	-23.2	18.8	0.00e+00	0	44	0	2887778304	7	3568
2026-01-20 05:50:49.25	276.14	35.12	-23.4	-23.6	18.6	0.00e+00	0	44	0	2895118336	7	3665
2026-01-20 05:50:50.25	275.79	35.01	-23.4	-23.5	18.7	0.00e+00	0	44	0	2902458368	7	3642
2026-01-20 05:50:51.25	275.44	34.90	-23.4	-23.5	18.7	0.00e+00	0	44	0	2909798400	7	3648
2026-01-20 05:50:52.26	275.08	34.79	-23.5	-23.7	18.6	0.00e+00	0	44	0	2916089856	7	3673
2026-01-20 05:50:53.26	274.74	34.68	-23.3	-23.3	18.8	0.00e+00	0	44	0	2923429888	7	3590
2026-01-20 05:50:54.25	274.40	34.57	-23.3	-23.2	18.8	0.00e+00	0	44	0	2930769920	7	3579
2026-01-20 05:50:55.26	274.05	34.46	-23.4	-23.5	18.7	0.00e+00	0	44	0	2938109952	7	3640
2026-01-20 05:50:56.27	273.71	34.34	-23.2	-23.1	18.9	0.00e+00	0	44	0	2945449984	7	3552
2026-01-20 05:50:57.28	273.37	34.23	-23.2	-23.1	18.8	0.00e+00	0	44	0	2952790016	7	3559
2026-01-20 05:50:58.27	273.04	34.12	-23.2	-23.0	18.9	0.00e+00	0	44	0	2960130048	7	3529
2026-01-20 05:50:59.27	272.70	34.00	-23.2	-23.2	18.8	0.00e+00	0	44	0	2967470080	7	3569
2026-01-20 05:51:00.28	272.37	33.89	-22.9	-22.5	19.0	0.00e+00	0	44	0	2974810112	7	3424
2026-01-20 05:51:01.28	272.04	33.77	-23.0	-22.6	19.1	0.00e+00	0	44	0	2981101568	7	3457
2026-01-20 05:51:02.29	271.71	33.65	-23.0	-22.8	19.0	0.00e+00	0	44	0	2989490176	7	3480
2026-01-20 05:51:03.29	271.39	33.53	-23.1	-22.9	18.9	0.00e+00	0	44	0	2995781632	7	3520
2026-01-20 05:51:04.29	271.07	33.42	-23.3	-23.3	18.8	0.00e+00	0	44	0	3003121664	7	3596
2026-01-20 05:51:05.29	270.75	33.30	-23.3	-23.4	18.7	0.00e+00	0	44	0	3010461696	7	3613
2026-01-20 05:51:06.28	270.44	33.18	-23.5	-23.7	18.6	0.00e+00	0	44	0	3017801728	7	3677
2026-01-20 05:51:07.28	270.12	33.06	-23.7	-24.1	18.3	0.00e+00	0	44	0	3025141760	7	3766
2026-01-20 05:51:08.28	269.81	32.94	-23.8	-24.3	18.2	0.00e+00	0	44	0	3032481792	7	3821
2026-01-20 05:51:09.28	269.50	32.82	-23.8	-24.4	18.2	0.00e+00	0	44	0	3038773248	7	3836
2026-01-20 05:51:10.28	269.20	32.70	-23.9	-24.6	18.0	0.00e+00	0	44	0	3046113280	7	3896
2026-01-20 05:51:11.28	268.89	32.58	-24.1	-24.6	17.9	0.00e+00	0	44	0	3053453312	8	3778
2026-01-20 05:51:12.28	268.59	32.46	-24.3	-24.9	17.7	1.10e-06	0	44	0	3060793344	8	3848
2026-01-20 05:51:13.28	268.29	32.34	-23.8	-23.9	18.2	0.00e+00	0	44	0	3068133376	8	3622
2026-01-20 05:51:14.28	267.99	32.21	-23.5	-23.2	18.5	0.00e+00	0	44	0	3075473408	8	3478
2026-01-20 05:51:15.27	267.70	32.09	-23.3	-23.3	18.7	1.10e-06	0	44	0	3082813440	7	3604
2026-01-20 05:51:16.28	267.40	31.97	-23.4	-23.4	18.6	0.00e+00	0	44	0	3090153472	7	3625
2026-01-20 05:51:17.28	267.11	31.84	-23.3	-23.2	18.7	0.00e+00	0	44	0	3097493504	7	3586
2026-01-20 05:51:18.28	266.82	31.72	-23.3	-23.2	18.7	0.00e+00	0	44	0	3103784960	7	3585
2026-01-20 05:51:19.29	266.53	31.60	-23.4	-23.5	18.6	0.00e+00	0	44	0	3111124992	7	3631
2026-01-20 05:51:20.28	266.25	31.47	-23.5	-23.8	18.4	0.00e+00	0	44	0	3118465024	7	3705
2026-01-20 05:51:21.29	265.97	31.35	-23.6	-23.9	18.3	0.00e+00	0	45	0	3125805056	7	3733
2026-01-20 05:51:22.29	265.69	31.22	-23.8	-24.4	18.1	0.00e+00	0	44	0	3133145088	7	3843
2026-01-20 05:51:23.29	265.41	31.10	-23.9	-24.5	18.1	0.00e+00	0	44	0	3140485120	7	3878
2026-01-20 05:51:24.29	265.13	30.97	-24.2	-24.7	17.7	0.00e+00	0	44	0	3147825152	8	3817
2026-01-20 05:51:25.30	264.86	30.84	-24.1	-24.6	17.8	0.00e+00	0	44	0	3155165184	8	3776
2026-01-20 05:51:26.31	264.58	30.72	-24.2	-24.8	17.7	0.00e+00	0	44	0	3162505216	8	3827
2026-01-20 05:51:27.31	264.31	30.59	-24.3	-24.9	17.7	0.00e+00	0	44	0	3169845248	8	3849
2026-01-20 05:51:28.31	264.05	30.47	-24.3	-24.9	17.6	0.00e+00	0	44	0	3177185280	8	3862
2026-01-20 05:51:29.32	263.78	30.34	-24.0	-24.3	17.9	0.00e+00	0	44	0	3184525312	8	3721
2026-01-20 05:51:30.32	263.52	30.21	-23.8	-23.9	18.1	0.00e+00	0	44	0	3190816768	8	3625
2026-01-20 05:51:31.32	263.25	30.09	-23.8	-23.7	18.2	0.00e+00	0	44	0	3198156800	8	3594
2026-01-20 05:51:32.32	263.00	29.96	-23.9	-24.0	18.1	0.00e+00	0	44	0	3205496832	8	3652
2026-01-20 05:51:33.33	262.74	29.83	-23.8	-23.9	18.1	0.00e+00	0	44	0	3212836864	8	3636
2026-01-20 05:51:34.33	262.48	29.70	-23.7	-23.7	18.2	0.00e+00	0	44	0	3220176896	8	3585
2026-01-20 05:51:35.34	262.23	29.58	-23.7	-23.7	18.2	0.00e+00	0	44	0	3227516928	8	3585
2026-01-20 05:51:36.34	261.97	29.45	-23.8	-23.8	18.1	0.00e+00	0	44	0	3234856960	8	3611
2026-01-20 05:51:37.34	261.73	29.32	-23.9	-24.0	18.1	0.00e+00	0	44	0	3242196992	8	3643
2026-01-20 05:51:38.34	261.48	29.20	-23.9	-24.1	18.0	0.00e+00	0	44	0	3249537024	8	3677
2026-01-20 05:51:39.34	261.23	29.07	-23.9	-24.1	18.0	0.00e+00	0	44	0	3256877056	8	3672
2026-01-20 05:51:40.34	260.99	28.94	-23.9	-24.1	18.0	0.00e+00	0	44	0	3264217088	8	3680
2026-01-20 05:51:41.35	260.75	28.81	-23.9	-24.0	18.0	0.00e+00	0	44	0	3270508544	8	3659
2026-01-20 05:51:42.35	260.51	28.69	-23.9	-24.1	18.1	0.00e+00	0	44	0	3277848576	8	3667
2026-01-20 05:51:43.35	260.27	28.56	-23.8	-23.9	18.1	0.00e+00	0	44	0	3285188608	8	3636
2026-01-20 05:51:44.36	260.03	28.43	-23.9	-24.1	18.0	0.00e+00	0	44	0	3292528640	8	3663
2026-01-20 05:51:45.36	259.80	28.30	-24.0	-24.2	17.9	0.00e+00	0	44	0	3299868672	8	3693
2026-01-20 05:51:46.36	259.57	28.18	-24.1	-24.5	17.8	0.00e+00	0	44	0	3307208704	8	3754
2026-01-20 05:51:47.37	259.34	28.05	-24.1	-24.5	17.7	0.00e+00	0	44	0	3314548736	8	3762
2026-01-20 05:51:48.37	259.11	27.92	-24.0	-24.3	17.9	0.00e+00	0	44	0	3321888768	8	3710
2026-01-20 05:51:49.38	258.88	27.79	-23.9	-24.0	18.0	0.00e+00	0	44	0	3329228800	8	3663
2026-01-20 05:51:50.38	258.66	27.67	-24.0	-24.2	17.9	0.00e+00	0	44	0	3335520256	8	3692
2026-01-20 05:51:51.38	258.43	27.54	-24.0	-24.2	17.9	0.00e+00	0	44	0	3342860288	8	3694
2026-01-20 05:51:52.39	258.21	27.41	-24.1	-24.6	17.6	0.00e+00	0	44	0	3350200320	8	3780
2026-01-20 05:51:53.40	257.99	27.29	-24.1	-24.4	17.8	0.00e+00	0	44	0	3357540352	8	3733
2026-01-20 05:51:54.40	257.77	27.16	-23.8	-23.9	18.1	0.00e+00	0	44	0	3364880384	8	3623
2026-01-20 05:51:55.40	257.56	27.03	-23.8	-23.7	18.1	0.00e+00	0	44	0	3372220416	8	3592
2026-01-20 05:51:56.40	257.34	26.91	-23.7	-23.7	18.2	0.00e+00	0	44	0	3379560448	8	3593
2026-01-20 05:51:57.41	257.13	26.78	-23.8	-23.8	18.0	0.00e+00	0	44	0	3386900480	8	3615
2026-01-20 05:51:58.41	256.92	26.66	-23.9	-24.0	18.0	0.00e+00	0	44	0	3394240512	8	3662
2026-01-20 05:51:59.42	256.71	26.53	-23.8	-23.9	18.0	0.00e+00	0	44	0	3401580544	8	3642
2026-01-20 05:52:00.41	256.50	26.41	-23.8	-23.8	18.1	0.00e+00	0	44	0	3408920576	8	3600
2026-01-20 05:52:01.42	256.30	26.28	-23.8	-23.8	18.1	0.00e+00	0	44	0	3415212032	8	3623
2026-01-20 05:52:02.42	256.09	26.15	-23.9	-24.0	17.9	0.00e+00	0	44	0	3422552064	8	3660
2026-01-20 05:52:03.43	255.89	26.03	-23.9	-24.0	17.9	0.00e+00	0	44	0	3429892096	8	3658
2026-01-20 05:52:04.43	255.69	25.90	-23.9	-24.2	17.9	0.00e+00	0	44	0	3437232128	8	3690
2026-01-20 05:52:05.43	255.49	25.78	-24.0	-24.3	17.8	0.00e+00	0	44	0	3444572160	8	3726
2026-01-20 05:52:06.43	255.29	25.66	-24.0	-24.3	17.8	0.00e+00	0	44	0	3451912192	8	3722
2026-01-20 05:52:07.43	255.09	25.53	-23.9	-24.2	17.9	0.00e+00	0	44	0	3459252224	8	3693
2026-01-20 05:52:08.43	254.90	25.41	-24.1	-24.5	17.7	0.00e+00	0	44	0	3466592256	8	3757
2026-01-20 05:52:09.43	254.71	25.28	-24.1	-24.4	17.7	0.00e+00	0	44	0	3473932288	8	3743
2026-01-20 05:52:10.43	254.52	25.16	-23.9	-24.0	17.9	0.00e+00	0	44	0	3480223744	8	3656
2026-01-20 05:52:11.44	254.32	25.04	-23.7	-23.6	18.1	0.00e+00	0	44	0	3487563776	8	3564
2026-01-20 05:52:12.45	254.13	24.91	-23.7	-23.6	18.1	0.00e+00	0	44	0	3495952384	8	3561
2026-01-20 05:52:13.45	253.95	24.79	-23.6	-23.5	18.2	0.00e+00	0	44	0	3502243840	8	3547
2026-01-20 05:52:14.45	253.76	24.67	-23.6	-23.5	18.2	0.00e+00	0	44	0	3509583872	8	3537
2026-01-20 05:52:15.46	253.58	24.54	-23.7	-23.6	18.1	0.00e+00	0	44	0	3516923904	8	3562
2026-01-20 05:52:16.46	253.39	24.42	-23.8	-23.8	18.0	0.00e+00	0	44	0	3524263936	8	3605
2026-01-20 05:52:17.46	253.21	24.30	-23.9	-24.1	17.9	0.00e+00	0	44	0	3531603968	8	3667
2026-01-20 05:52:18.47	253.03	24.18	-23.9	-24.1	17.9	0.00e+00	0	44	0	3538944000	8	3679
2026-01-20 05:52:19.47	252.85	24.06	-24.0	-24.3	17.8	0.00e+00	0	44	0	3546284032	8	3732
2026-01-20 05:52:20.48	252.68	23.94	-24.1	-24.6	17.6	0.00e+00	0	44	0	3553624064	8	3791
2026-01-20 05:52:21.47	252.50	23.82	-24.2	-24.7	17.6	0.00e+00	0	44	0	3560964096	8	3805
2026-01-20 05:52:22.47	252.33	23.70	-24.2	-24.8	17.5	0.00e+00	0	44	0	3567255552	8	3836
2026-01-20 05:52:23.48	252.15	23.57	-24.2	-24.6	17.5	0.00e+00	0	44	0	3574595584	8	3800
2026-01-20 05:52:24.48	251.98	23.46	-24.2	-24.8	17.5	0.00e+00	0	44	0	3581935616	8	3832
2026-01-20 05:52:25.47	251.81	23.34	-24.2	-24.7	17.5	0.00e+00	0	44	0	3589275648	8	3811
2026-01-20 05:52:26.48	251.64	23.22	-24.0	-24.4	17.7	0.00e+00	0	44	0	3596615680	8	3742
2026-01-20 05:52:27.48	251.48	23.10	-23.9	-24.0	17.9	0.00e+00	0	44	0	3603955712	8	3662
2026-01-20 05:52:28.48	251.31	22.98	-24.1	-24.5	17.7	0.00e+00	0	44	0	3611295744	8	3761
2026-01-20 05:52:29.48	251.14	22.86	-24.1	-24.5	17.6	0.00e+00	0	44	0	3618635776	8	3768
2026-01-20 05:52:30.48	250.98	22.74	-24.2	-24.7	17.5	0.00e+00	0	44	0	3624927232	8	3812
2026-01-20 05:52:31.48	250.82	22.62	-24.2	-24.8	17.4	0.00e+00	0	44	0	3632267264	8	3835
2026-01-20 05:52:32.49	250.66	22.51	-24.3	-24.8	17.4	0.00e+00	0	44	0	3640655872	8	3852
2026-01-20 05:52:33.49	250.50	22.39	-24.2	-24.8	17.4	0.00e+00	0	44	0	3646947328	8	3837
2026-01-20 05:52:34.49	250.34	22.27	-24.4	-25.1	17.3	0.00e+00	0	44	0	3654287360	8	3918
2026-01-20 05:52:35.50	250.18	22.15	-24.3	-24.9	17.4	0.00e+00	0	44	0	3661627392	8	3855
2026-01-20 05:52:36.50	250.02	22.04	-24.1	-24.5	17.6	0.00e+00	0	44	0	3668967424	8	3765
2026-01-20 05:52:37.50	249.87	21.92	-24.0	-24.3	17.7	0.00e+00	0	44	0	3676307456	8	3713
2026-01-20 05:52:38.51	249.71	21.81	-24.0	-24.2	17.7	0.00e+00	0	44	0	3683647488	8	3703
2026-01-20 05:52:39.51	249.56	21.69	-23.9	-24.1	17.7	0.00e+00	0	44	0	3690987520	8	3674
2026-01-20 05:52:40.51	249.41	21.57	-24.1	-24.4	17.6	0.00e+00	0	44	0	3698327552	8	3750
2026-01-20 05:52:41.52	249.26	21.46	-24.3	-24.9	17.3	0.00e+00	0	44	0	3705667584	8	3872
2026-01-20 05:52:42.52	249.11	21.34	-24.2	-24.8	17.4	0.00e+00	0	44	0	3711959040	8	3841
2026-01-20 05:52:43.51	248.96	21.23	-24.3	-24.9	17.4	0.00e+00	0	44	0	3719299072	8	3858
2026-01-20 05:52:44.52	248.81	21.12	-24.4	-25.1	17.3	0.00e+00	0	44	0	3726639104	8	3905
2026-01-20 05:52:45.52	248.66	21.00	-24.4	-25.2	17.2	0.00e+00	0	44	0	3733979136	8	3923
2026-01-20 05:52:46.53	248.52	20.89	-24.4	-25.2	17.2	0.00e+00	0	44	0	3741319168	8	3929
2026-01-20 05:52:47.54	248.37	20.77	-24.5	-25.3	17.2	0.00e+00	0	44	0	3748659200	8	3953
2026-01-20 05:52:48.55	248.23	20.66	-24.5	-25.4	17.1	0.00e+00	0	44	0	3755999232	8	3969
2026-01-20 05:52:49.55	248.09	20.55	-24.5	-25.3	17.1	0.00e+00	0	44	0	3763339264	8	3952
2026-01-20 05:52:50.55	247.95	20.44	-24.6	-25.4	17.0	0.00e+00	0	44	0	3770679296	8	3992
2026-01-20 05:52:51.55	247.81	20.33	-24.6	-25.0	17.1	0.00e+00	0	44	0	3778019328	9	3769
2026-01-20 05:52:52.56	247.67	20.21	-24.6	-25.1	17.0	0.00e+00	0	44	0	3785359360	9	3810
2026-01-20 05:52:53.56	247.53	20.10	-24.6	-25.2	16.9	0.00e+00	0	44	0	3792699392	9	3820
2026-01-20 05:52:54.56	247.39	19.99	-24.7	-25.2	16.9	0.00e+00	0	44	0	3798990848	9	3838
2026-01-20 05:52:55.56	247.26	19.88	-24.7	-25.2	16.9	0.00e+00	0	44	0	3806330880	9	3835
2026-01-20 05:52:56.56	247.12	19.77	-24.5	-24.9	17.1	0.00e+00	0	44	0	3813670912	9	3758
2026-01-20 05:52:57.56	246.99	19.66	-24.4	-24.7	17.2	0.00e+00	0	44	0	3821010944	9	3720
2026-01-20 05:52:58.56	246.86	19.55	-24.6	-25.0	17.0	0.00e+00	0	44	0	3828350976	9	3777
2026-01-20 05:52:59.56	246.72	19.44	-24.5	-24.8	17.1	0.00e+00	0	44	0	3835691008	9	3726
2026-01-20 05:53:00.55	246.60	19.34	-24.4	-24.7	17.2	0.00e+00	0	44	0	3843031040	9	3702
2026-01-20 05:53:01.55	246.47	19.23	-24.5	-24.8	17.1	0.00e+00	0	44	0	3850371072	9	3738
2026-01-20 05:53:02.55	246.34	19.12	-24.6	-25.0	17.0	0.00e+00	0	44	0	3856662528	9	3772
2026-01-20 05:53:03.55	246.21	19.01	-24.7	-25.2	16.9	0.00e+00	0	44	0	3864002560	9	3819
2026-01-20 05:53:04.56	246.08	18.90	-24.7	-25.3	16.7	0.00e+00	0	44	0	3871342592	9	3853
2026-01-20 05:53:05.57	245.95	18.79	-24.9	-25.7	16.6	0.00e+00	0	44	0	3878682624	9	3944
2026-01-20 05:53:06.57	245.83	18.69	-24.9	-25.8	16.5	0.00e+00	0	44	0	3886022656	9	3979
2026-01-20 05:53:07.58	245.70	18.58	-25.0	-25.5	16.4	0.00e+00	0	44	0	3893362688	10	3791
2026-01-20 05:53:08.58	245.58	18.47	-24.9	-25.3	16.5	0.00e+00	0	44	0	3900702720	10	3745
2026-01-20 05:53:09.58	245.46	18.37	-25.0	-25.3	16.5	0.00e+00	0	44	0	3908042752	10	3757
2026-01-20 05:53:10.58	245.33	18.26	-24.9	-25.3	16.6	0.00e+00	0	44	0	3915382784	10	3743
2026-01-20 05:53:11.58	245.21	18.16	-24.9	-25.3	16.5	0.00e+00	0	44	0	3921674240	10	3746
2026-01-20 05:53:12.58	245.09	18.05	-25.0	-25.4	16.5	0.00e+00	0	44	0	3929014272	10	3773
2026-01-20 05:53:13.58	244.97	17.95	-25.1	-25.5	16.4	0.00e+00	0	44	0	3936354304	10	3800
2026-01-20 05:53:14.58	244.86	17.84	-25.0	-25.5	16.4	0.00e+00	0	44	0	3943694336	10	3799
2026-01-20 05:53:15.58	244.74	17.74	-25.2	-25.8	16.3	0.00e+00	0	44	0	3951034368	10	3868
2026-01-20 05:53:16.58	244.62	17.64	-25.2	-25.9	16.2	0.00e+00	0	44	0	3958374400	10	3888
2026-01-20 05:53:17.59	244.51	17.53	-25.1	-25.6	16.3	0.00e+00	0	44	0	3965714432	10	3821
2026-01-20 05:53:18.59	244.39	17.43	-25.2	-25.8	16.2	0.00e+00	0	44	0	3973054464	10	3869
2026-01-20 05:53:19.59	244.28	17.32	-25.2	-25.9	16.1	0.00e+00	0	44	0	3980394496	10	3902
2026-01-20 05:53:20.60	244.16	17.22	-25.3	-26.2	16.0	0.00e+00	0	44	0	3987734528	10	3958
2026-01-20 05:53:21.60	244.05	17.12	-25.3	-26.1	16.0	0.00e+00	0	44	0	3995074560	10	3944
2026-01-20 05:53:22.61	243.94	17.02	-25.1	-25.7	16.3	0.00e+00	0	44	0	4001366016	10	3852
2026-01-20 05:53:23.61	243.82	16.92	-25.1	-25.7	16.3	0.00e+00	0	44	0	4008706048	10	3837
2026-01-20 05:53:24.61	243.71	16.81	-25.1	-25.7	16.2	0.00e+00	0	44	0	4016046080	10	3850
2026-01-20 05:53:25.61	243.60	16.71	-25.1	-25.7	16.2	0.00e+00	0	44	0	4023386112	10	3848
2026-01-20 05:53:26.61	243.50	16.61	-25.1	-25.6	16.3	0.00e+00	0	44	0	4030726144	10	3824
2026-01-20 05:53:27.61	243.39	16.51	-25.2	-25.9	16.2	0.00e+00	0	44	0	4038066176	10	3887
2026-01-20 05:53:28.62	243.28	16.41	-25.2	-25.9	16.1	0.00e+00	0	44	0	4045406208	10	3889
2026-01-20 05:53:29.62	243.17	16.31	-25.2	-25.8	16.2	0.00e+00	0	44	0	4052746240	10	3866
2026-01-20 05:53:30.62	243.07	16.21	-25.2	-25.9	16.1	0.00e+00	0	44	0	4060086272	10	3903
2026-01-20 05:53:31.63	242.96	16.11	-25.3	-26.0	16.0	0.00e+00	0	44	0	4066377728	10	3914
2026-01-20 05:53:32.62	242.86	16.01	-25.4	-26.3	15.9	0.00e+00	0	44	0	4073717760	10	3981
2026-01-20 05:53:33.61	242.75	15.92	-25.4	-26.2	15.9	0.00e+00	0	44	0	4081057792	10	3966
2026-01-20 05:53:34.62	242.65	15.82	-25.4	-26.2	15.9	0.00e+00	0	44	0	4088397824	10	3981
2026-01-20 05:53:35.61	242.55	15.72	-25.5	-26.5	15.8	0.00e+00	0	44	0	4095737856	10	4036
2026-01-20 05:53:36.62	242.45	15.62	-25.5	-26.6	15.7	0.00e+00	0	44	0	4103077888	10	4059
2026-01-20 05:53:37.62	242.35	15.53	-25.5	-26.6	15.7	0.00e+00	0	44	0	4110417920	10	4065
2026-01-20 05:53:38.62	242.25	15.43	-25.7	-26.4	15.5	0.00e+00	0	44	0	4117757952	11	3901
2026-01-20 05:53:39.62	242.15	15.33	-25.8	-26.7	15.4	0.00e+00	0	44	0	4125097984	11	3975
2026-01-20 05:53:40.63	242.05	15.23	-25.8	-26.6	15.4	0.00e+00	0	44	0	4131389440	11	3956
2026-01-20 05:53:41.63	241.95	15.14	-25.9	-26.8	15.3	0.00e+00	0	44	0	4138729472	11	4016
2026-01-20 05:53:42.64	241.85	15.04	-25.9	-26.9	15.2	0.00e+00	0	44	0	4146069504	11	4033
2026-01-20 05:53:43.63	241.75	14.95	-25.9	-26.8	15.3	0.00e+00	0	44	0	4153409536	11	4012
2026-01-20 05:53:44.63	241.66	14.85	-25.9	-26.9	15.2	0.00e+00	0	44	0	4160749568	11	4030
2026-01-20 05:53:45.63	241.56	14.76	-25.9	-26.8	15.3	0.00e+00	0	44	0	4168089600	11	4023
2026-01-20 05:53:46.63	241.46	14.66	-25.7	-26.4	15.5	0.00e+00	0	44	0	4175429632	11	3916
2026-01-20 05:53:47.63	241.37	14.57	-25.8	-26.6	15.4	0.00e+00	0	44	0	4182769664	11	3948
2026-01-20 05:53:48.64	241.28	14.47	-25.9	-26.8	15.2	0.00e+00	0	44	0	4189061120	11	4019
2026-01-20 05:53:49.64	241.18	14.38	-25.8	-26.8	15.3	0.00e+00	0	44	0	4197449728	11	4002
2026-01-20 05:53:50.64	241.09	14.29	-25.8	-26.8	15.3	0.00e+00	0	44	0	4204789760	11	3999
2026-01-20 05:53:51.64	241.00	14.19	-25.9	-26.9	15.2	0.00e+00	0	44	0	4211081216	11	4026
2026-01-20 05:53:52.64	240.91	14.10	-25.9	-27.0	15.2	0.00e+00	0	44	0	4218421248	11	4050
2026-01-20 05:53:53.65	240.81	14.01	-25.9	-27.0	15.1	0.00e+00	0	44	0	4225761280	11	4058
2026-01-20 05:53:54.65	240.72	13.91	-26.0	-27.0	15.1	0.00e+00	0	44	0	4233101312	11	4067
2026-01-20 05:53:55.65	240.63	13.82	-25.9	-26.9	15.1	0.00e+00	0	44	0	4240441344	11	4039
2026-01-20 05:53:56.65	240.54	13.73	-26.0	-27.0	15.1	0.00e+00	0	44	0	4247781376	11	4068
2026-01-20 05:53:57.65	240.46	13.64	-25.9	-26.9	15.1	0.00e+00	0	44	0	4255121408	11	4049
2026-01-20 05:53:58.66	240.37	13.55	-26.0	-27.2	15.0	0.00e+00	0	44	0	4262461440	11	4119
2026-01-20 05:53:59.66	240.28	13.46	-26.1	-26.8	14.9	0.00e+00	0	44	0	4269801472	12	3923
2026-01-20 05:54:00.67	240.19	13.36	-26.0	-26.7	15.0	0.00e+00	0	44	0	4276092928	12	3880
2026-01-20 05:54:01.66	240.11	13.27	-25.9	-26.3	15.1	0.00e+00	0	44	0	4283432960	12	3799
2026-01-20 05:54:02.67	240.02	13.18	-25.7	-26.0	15.3	1.10e-06	0	44	0	4290772992	12	3727
2026-01-20 05:54:03.67	239.93	13.09	-25.8	-26.1	15.2	0.00e+00	0	44	0	4298113024	12	3741
2026-01-20 05:54:04.66	239.85	13.01	-25.9	-26.4	15.0	0.00e+00	0	44	0	4305453056	12	3827
2026-01-20 05:54:05.67	239.76	12.92	-25.9	-26.4	15.0	0.00e+00	0	44	0	4312793088	12	3822
2026-01-20 05:54:06.67	239.68	12.83	-25.8	-26.3	15.1	0.00e+00	0	44	0	4320133120	12	3783
2026-01-20 05:54:07.67	239.60	12.74	-26.1	-26.8	14.8	0.00e+00	0	44	0	4327473152	12	3915
2026-01-20 05:54:08.67	239.51	12.65	-26.1	-26.8	14.8	0.00e+00	0	44	0	4334813184	12	3906
2026-01-20 05:54:09.68	239.43	12.56	-26.1	-26.9	14.7	0.00e+00	0	44	0	4341104640	12	3936
2026-01-20 05:54:10.68	239.35	12.47	-26.1	-26.9	14.8	0.00e+00	0	44	0	4348444672	12	3928
2026-01-20 05:54:11.69	239.27	12.38	-26.2	-27.2	14.6	1.10e-06	0	44	0	4356833280	12	4011
2026-01-20 05:54:12.70	239.19	12.29	-26.5	-27.8	14.2	0.00e+00	0	44	0	4363124736	12	4166
2026-01-20 05:54:13.70	239.11	12.21	-26.5	-27.7	14.2	1.10e-06	0	44	0	4370464768	12	4154
2026-01-20 05:54:14.71	239.02	12.12	-26.4	-27.6	14.3	0.00e+00	0	44	0	4377804800	12	4123
2026-01-20 05:54:15.71	238.95	12.03	-26.5	-27.8	14.2	1.10e-06	0	44	0	4385144832	12	4176
2026-01-20 05:54:16.71	238.87	11.95	-26.6	-27.5	14.1	0.00e+00	0	44	0	4392484864	13	3998
2026-01-20 05:54:17.71	238.79	11.86	-26.7	-27.8	13.9	0.00e+00	0	44	0	4399824896	13	4067
2026-01-20 05:54:18.72	238.71	11.77	-26.7	-27.6	14.0	2.20e-06	0	44	0	4407164928	13	4032
2026-01-20 05:54:19.71	238.63	11.69	-26.8	-28.0	13.8	1.10e-06	0	44	0	4414504960	13	4114
2026-01-20 05:54:20.72	238.56	11.60	-26.7	-27.7	14.0	0.00e+00	0	44	0	4420796416	13	4051
2026-01-20 05:54:21.72	238.48	11.52	-26.8	-27.9	13.8	3.40e-06	0	44	0	4428136448	13	4101
2026-01-20 05:54:22.73	238.40	11.43	-26.7	-27.7	14.0	4.50e-06	0	44	0	4435476480	13	4035
2026-01-20 05:54:23.73	238.33	11.35	-26.7	-27.8	13.9	2.20e-06	0	44	0	4442816512	13	4070
2026-01-20 05:54:24.74	238.25	11.26	-26.7	-27.6	14.0	0.00e+00	0	44	0	4450156544	13	4024
2026-01-20 05:54:25.74	238.18	11.18	-26.7	-27.7	14.0	1.10e-06	0	44	0	4457496576	13	4037
2026-01-20 05:54:26.74	238.10	11.09	-26.6	-27.5	14.0	3.40e-06	0	44	0	4464836608	13	3997
2026-01-20 05:54:27.74	238.03	11.01	-26.6	-27.5	14.1	1.10e-06	0	44	0	4472176640	13	3979
2026-01-20 05:54:28.75	237.95	10.92	-26.7	-27.7	13.9	1.10e-06	0	44	0	4479516672	13	4042
2026-01-20 05:54:29.75	237.88	10.84	-26.6	-27.5	14.0	1.10e-06	0	44	0	4486856704	13	3987
2026-01-20 05:54:30.76	237.81	10.76	-26.5	-27.3	14.2	0.00e+00	0	44	0	4494196736	13	3927
2026-01-20 05:54:31.76	237.74	10.67	-26.5	-27.1	14.2	0.00e+00	0	44	0	4501536768	13	3900
2026-01-20 05:54:32.77	237.66	10.59	-26.5	-27.3	14.2	1.10e-06	0	44	0	4507828224	13	3943
2026-01-20 05:54:33.78	237.59	10.51	-26.5	-27.2	14.2	3.40e-06	0	44	0	4515168256	13	3928
2026-01-20 05:54:34.78	237.52	10.43	-26.6	-27.5	14.0	2.20e-06	0	44	0	4522508288	13	4004
2026-01-20 05:54:35.78	237.45	10.34	-26.6	-27.6	13.9	4.50e-06	0	44	0	4529848320	13	4019
2026-01-20 05:54:36.78	237.38	10.26	-26.7	-27.8	13.8	1.10e-06	0	44	0	4537188352	13	4073
2026-01-20 05:54:37.78	237.31	10.18	-27.0	-28.3	13.5	6.80e-06	0	44	0	4544528384	13	4213
2026-01-20 05:54:38.78	237.24	10.10	-26.8	-28.0	13.6	4.50e-06	0	44	0	4551868416	13	4135
2026-01-20 05:54:39.79	237.17	10.02	-26.9	-28.2	13.6	4.50e-06	0	44	0	4559208448	13	4168
2026-01-20 05:54:40.79	237.10	9.94	-26.8	-27.9	13.7	3.40e-06	0	44	0	4565499904	13	4102
2026-01-20 05:54:41.79	237.04	9.86	-26.8	-28.0	13.7	4.50e-06	0	44	0	4572839936	13	4128
2026-01-20 05:54:42.79	236.97	9.78	-26.9	-28.1	13.6	1.14e-05	0	44	0	4581228544	13	4154
2026-01-20 05:54:43.80	236.90	9.70	-26.9	-28.1	13.6	4.50e-06	0	44	0	4587520000	13	4147
2026-01-20 05:54:44.80	236.83	9.62	-26.8	-28.0	13.7	1.10e-06	0	44	0	4594860032	13	4117
2026-01-20 05:54:45.80	236.77	9.54	-26.7	-27.8	13.7	5.70e-06	0	44	0	4602200064	13	4075
2026-01-20 05:54:46.80	236.70	9.46	-26.6	-27.5	14.0	0.00e+00	0	44	0	4609540096	13	3984
2026-01-20 05:54:47.81	236.64	9.38	-26.6	-27.5	13.9	2.20e-06	0	44	0	4616880128	13	3993
2026-01-20 05:54:48.81	236.57	9.30	-26.6	-27.5	14.0	0.00e+00	0	44	0	4624220160	13	3984
2026-01-20 05:54:49.82	236.50	9.22	-26.6	-27.6	13.8	4.50e-06	0	44	0	4631560192	13	4024
2026-01-20 05:54:50.82	236.44	9.14	-26.6	-27.6	13.9	4.50e-06	0	44	0	4638900224	13	4015
2026-01-20 05:54:51.82	236.38	9.06	-26.6	-27.6	13.8	3.40e-06	0	45	0	4646240256	13	4032
2026-01-20 05:54:52.82	236.31	8.98	-26.9	-28.2	13.5	3.40e-06	0	44	0	4652531712	13	4171
2026-01-20 05:54:53.82	236.25	8.90	-26.8	-28.0	13.6	1.10e-06	0	44	0	4659871744	13	4124
2026-01-20 05:54:54.83	236.18	8.83	-26.8	-28.0	13.6	1.25e-05	0	44	0	4667211776	13	4140
2026-01-20 05:54:55.82	236.12	8.75	-26.8	-28.0	13.6	9.10e-06	0	44	0	4674551808	13	4126
2026-01-20 05:54:56.83	236.06	8.67	-26.9	-28.2	13.4	1.02e-05	0	44	0	4681891840	13	4184
2026-01-20 05:54:57.82	236.00	8.60	-27.0	-28.4	13.3	1.25e-05	0	44	0	4689231872	13	4231
2026-01-20 05:54:58.83	235.94	8.52	-27.1	-28.6	13.2	1.25e-05	0	44	0	4696571904	13	4300
2026-01-20 05:54:59.83	235.87	8.44	-27.2	-28.3	13.1	2.63e-05	0	44	0	4703911936	14	4108
2026-01-20 05:55:00.82	235.81	8.37	-27.1	-28.2	13.2	2.74e-05	0	44	0	4711251968	14	4081
2026-01-20 05:55:01.83	235.75	8.29	-27.0	-27.9	13.3	1.37e-05	0	44	0	4717543424	14	4004
2026-01-20 05:55:02.84	235.69	8.21	-27.2	-28.4	13.0	2.74e-05	0	45	0	4725932032	14	4140
2026-01-20 05:55:03.85	235.63	8.13	-27.3	-28.6	12.9	2.51e-05	0	44	0	4733272064	14	4180
2026-01-20 05:55:04.85	235.57	8.06	-27.4	-28.9	12.7	4.69e-05	0	44	0	4739563520	14	4267
2026-01-20 05:55:05.86	235.51	7.98	-27.2	-28.4	12.9	4.11e-05	0	44	0	4746903552	14	4143
2026-01-20 05:55:06.86	235.45	7.91	-27.2	-28.5	12.9	3.54e-05	0	44	0	4754243584	14	4169
2026-01-20 05:55:07.86	235.39	7.83	-27.4	-28.9	12.7	7.55e-05	0	44	0	4761583616	14	4270
2026-01-20 05:55:08.86	235.33	7.76	-27.3	-28.7	12.8	6.40e-05	0	44	0	4768923648	14	4223
2026-01-20 05:55:09.87	235.28	7.68	-27.4	-28.9	12.7	5.83e-05	0	44	0	4776263680	14	4268
2026-01-20 05:55:10.87	235.22	7.61	-27.4	-28.8	12.7	5.49e-05	0	44	0	4783603712	14	4261
2026-01-20 05:55:11.87	235.16	7.53	-27.5	-29.1	12.5	9.95e-05	0	44	0	4790943744	14	4344
2026-01-20 05:55:12.87	235.10	7.46	-27.4	-29.0	12.6	6.86e-05	0	44	0	4797235200	14	4296
2026-01-20 05:55:13.86	235.05	7.39	-27.4	-28.9	12.7	8.58e-05	0	44	0	4804575232	14	4268
2026-01-20 05:55:14.87	234.99	7.31	-27.4	-29.0	12.6	6.06e-05	0	44	0	4811915264	14	4291
2026-01-20 05:55:15.87	234.93	7.24	-27.4	-29.0	12.6	7.20e-05	0	44	0	4819255296	14	4299
2026-01-20 05:55:16.88	234.88	7.16	-27.4	-28.8	12.7	6.98e-05	0	44	0	4826595328	14	4250
2026-01-20 05:55:17.88	234.82	7.09	-27.3	-28.8	12.7	7.09e-05	0	44	0	4833935360	14	4248
2026-01-20 05:55:18.89	234.76	7.02	-33.0	-42.2	3.8	7.97e-01	0	44	104	4838129664	25	10406

#Closed at: 2026-01-20 05:55:19
#Recorded file [4838 MB]: D:/data/31010_260120_084408.dat