passes_logs/2026/01/20/R2M6_AANII_01/R2M6_AANII_01__20260120_030217_SUOMI_NPP_rec.log

#Pass ID: 20260120_030217_SUOMI NPP
#Satellite: SUOMI NPP
#Configuration: NPP
#almurnet v.1.7.20240730
#Start time: 2026-01-20 03:02:17

#Version: 2.2.20231116
#Station: R2M6_AANII_01
#Location: 30.233357 lon 59.946436 lat
#TLE: 1 37849U 11061A   26019.26265094  .00000081  00000+0  59609-4 0  9993
#TLE: 2 37849  98.7817 321.2746 0002356  56.2510 303.8890 14.19526363737315

#Time	Az	El	Level	Level2	SNR	BER	BlckErr	Temp	State	Recorded	gain1	gain2
2026-01-20 03:02:17.66	8.37	7.01	-32.8	-39.3	4.3	1.39e+00	0	42	0	0	26	7644
2026-01-20 03:02:18.66	8.25	7.06	-32.3	-37.7	4.8	1.26e+00	0	42	104	0	24	6743
2026-01-20 03:02:19.66	8.14	7.12	-32.3	-37.7	7.1	1.48e-01	0	42	0	0	24	6680
2026-01-20 03:02:20.66	8.02	7.17	-32.3	-37.7	7.0	1.47e-01	0	42	0	1048576	24	6729
2026-01-20 03:02:21.66	7.90	7.22	-32.4	-38.1	6.8	1.82e-01	0	42	0	3145728	24	6937
2026-01-20 03:02:22.66	7.78	7.28	-32.4	-38.1	6.7	1.86e-01	0	42	0	5242880	24	6975
2026-01-20 03:02:23.66	7.66	7.33	-32.5	-38.4	6.6	1.89e-01	0	42	0	7340032	24	7106
2026-01-20 03:02:24.67	7.54	7.38	-32.4	-38.2	6.7	2.07e-01	0	42	0	9437184	24	6990
2026-01-20 03:02:25.67	7.42	7.44	-32.3	-37.6	7.1	1.58e-01	0	42	0	10485760	24	6639
2026-01-20 03:02:26.67	7.30	7.49	-32.2	-36.9	7.7	1.11e-01	0	42	0	12582912	24	6194
2026-01-20 03:02:27.68	7.18	7.54	-31.9	-36.4	8.5	5.28e-02	0	42	0	14680064	23	6005
2026-01-20 03:02:28.68	7.06	7.60	-31.7	-35.5	9.2	2.80e-02	0	42	0	16777216	23	5564
2026-01-20 03:02:29.69	6.94	7.65	-31.7	-35.3	9.4	1.86e-02	0	42	0	17825792	23	5469
2026-01-20 03:02:30.69	6.82	7.70	-31.6	-35.1	9.6	1.46e-02	0	42	0	19922944	23	5375
2026-01-20 03:02:31.68	6.70	7.76	-31.6	-34.9	9.8	7.89e-03	0	42	0	22020096	23	5266
2026-01-20 03:02:32.69	6.57	7.81	-31.7	-35.3	9.5	1.16e-02	0	42	0	24117248	23	5449
2026-01-20 03:02:33.69	6.45	7.86	-31.7	-35.3	9.5	1.72e-02	0	42	0	26214400	23	5429
2026-01-20 03:02:34.69	6.33	7.92	-31.7	-35.3	9.5	1.45e-02	0	42	0	27262976	23	5443
2026-01-20 03:02:35.70	6.20	7.97	-31.7	-35.3	9.5	1.40e-02	0	42	0	29360128	23	5473
2026-01-20 03:02:36.71	6.07	8.02	-31.6	-34.8	9.9	1.05e-02	0	42	0	31457280	23	5210
2026-01-20 03:02:37.71	5.95	8.08	-31.4	-34.4	10.2	7.35e-03	0	43	0	33554432	23	5049
2026-01-20 03:02:38.71	5.82	8.13	-31.4	-34.8	10.2	7.77e-03	0	43	0	35651584	22	5299
2026-01-20 03:02:39.72	5.70	8.18	-31.4	-34.7	10.2	5.22e-03	0	43	0	36700160	22	5269
2026-01-20 03:02:40.72	5.57	8.24	-31.3	-34.4	10.5	5.27e-03	0	43	0	38797312	22	5127
2026-01-20 03:02:41.73	5.44	8.29	-31.5	-34.9	10.2	7.61e-03	0	42	0	40894464	22	5374
2026-01-20 03:02:42.74	5.31	8.35	-31.5	-34.5	10.1	6.87e-03	0	43	0	42991616	23	5091
2026-01-20 03:02:43.74	5.18	8.40	-31.7	-35.1	9.7	8.59e-03	0	43	0	45088768	23	5375
2026-01-20 03:02:44.74	5.06	8.45	-31.7	-35.4	9.5	1.90e-02	0	43	0	46137344	23	5478
2026-01-20 03:02:45.75	4.93	8.50	-31.7	-35.3	9.6	1.60e-02	0	43	0	48234496	23	5422
2026-01-20 03:02:46.75	4.80	8.56	-31.5	-34.6	10.0	8.03e-03	0	43	0	50331648	23	5165
2026-01-20 03:02:47.75	4.67	8.61	-31.5	-34.5	10.1	9.46e-03	0	43	0	52428800	23	5100
2026-01-20 03:02:48.75	4.54	8.66	-31.5	-34.6	10.0	1.08e-02	0	43	0	54525952	23	5127
2026-01-20 03:02:49.75	4.41	8.72	-31.4	-34.4	10.2	7.15e-03	0	43	0	55574528	23	5054
2026-01-20 03:02:50.75	4.27	8.77	-31.6	-34.8	9.9	8.24e-03	0	43	0	57671680	23	5230
2026-01-20 03:02:51.76	4.14	8.82	-31.6	-34.9	9.8	1.17e-02	0	43	0	59768832	23	5284
2026-01-20 03:02:52.76	4.01	8.88	-31.7	-35.1	9.6	9.93e-03	0	43	0	61865984	23	5365
2026-01-20 03:02:53.76	3.88	8.93	-31.7	-35.3	9.6	1.27e-02	0	43	0	62914560	23	5426
2026-01-20 03:02:54.76	3.74	8.98	-31.7	-35.2	9.6	1.46e-02	0	43	0	65011712	23	5378
2026-01-20 03:02:55.76	3.61	9.03	-31.6	-34.9	9.8	1.16e-02	0	43	0	67108864	23	5266
2026-01-20 03:02:56.77	3.47	9.09	-31.6	-35.0	9.8	1.18e-02	0	43	0	69206016	23	5290
2026-01-20 03:02:57.77	3.34	9.14	-31.6	-35.0	9.8	1.22e-02	0	43	0	71303168	23	5316
2026-01-20 03:02:58.78	3.20	9.19	-31.6	-34.9	9.8	1.04e-02	0	43	0	73400320	23	5252
2026-01-20 03:02:59.78	3.07	9.24	-31.7	-35.2	9.6	1.23e-02	0	43	0	74448896	23	5383
2026-01-20 03:03:00.78	2.93	9.30	-31.5	-34.7	10.0	1.23e-02	0	43	0	76546048	23	5155
2026-01-20 03:03:01.78	2.79	9.35	-31.5	-34.5	10.2	6.17e-03	0	43	0	78643200	23	5098
2026-01-20 03:03:02.79	2.65	9.40	-31.5	-34.5	10.2	8.34e-03	0	43	0	80740352	23	5090
2026-01-20 03:03:03.78	2.52	9.45	-31.6	-34.8	9.9	1.25e-02	0	43	0	81788928	23	5205
2026-01-20 03:03:04.79	2.38	9.51	-31.5	-34.6	10.1	7.51e-03	0	43	0	83886080	23	5138
2026-01-20 03:03:05.79	2.24	9.56	-31.7	-35.2	9.7	1.36e-02	0	43	0	85983232	23	5374
2026-01-20 03:03:06.79	2.10	9.61	-31.7	-35.1	9.7	1.53e-02	0	43	0	88080384	23	5330
2026-01-20 03:03:07.79	1.96	9.66	-31.6	-34.9	9.9	9.45e-03	0	43	0	90177536	23	5264
2026-01-20 03:03:08.78	1.82	9.72	-31.5	-34.6	10.1	9.54e-03	0	43	0	91226112	23	5107
2026-01-20 03:03:09.79	1.68	9.77	-31.5	-34.5	10.2	7.45e-03	0	43	0	93323264	23	5099
2026-01-20 03:03:10.79	1.54	9.82	-31.4	-34.1	10.5	4.66e-03	0	43	0	95420416	23	4913
2026-01-20 03:03:11.80	1.40	9.87	-31.5	-34.4	10.3	7.40e-03	0	43	0	97517568	23	5035
2026-01-20 03:03:12.80	1.25	9.92	-31.4	-34.3	10.4	8.31e-03	0	43	0	99614720	23	4980
2026-01-20 03:03:13.81	1.11	9.98	-31.5	-34.5	10.1	4.76e-03	0	43	0	100663296	23	5100
2026-01-20 03:03:14.81	0.96	10.03	-31.6	-34.9	10.0	7.68e-03	0	43	0	102760448	23	5247
2026-01-20 03:03:15.81	0.82	10.08	-31.7	-35.2	9.7	1.15e-02	0	43	0	104857600	23	5387
2026-01-20 03:03:16.82	0.68	10.13	-31.7	-35.3	9.7	1.08e-02	0	43	0	106954752	23	5434
2026-01-20 03:03:17.82	0.53	10.18	-31.7	-35.3	9.7	1.24e-02	0	43	0	109051904	23	5426
2026-01-20 03:03:18.82	0.38	10.23	-31.8	-35.5	9.5	1.58e-02	0	43	0	110100480	23	5502
2026-01-20 03:03:19.82	0.24	10.29	-31.8	-35.5	9.4	1.67e-02	0	43	0	112197632	23	5536
2026-01-20 03:03:20.82	0.09	10.34	-31.9	-35.8	9.3	2.48e-02	0	43	0	114294784	23	5653
2026-01-20 03:03:21.82	359.94	10.39	-31.9	-35.8	9.2	2.11e-02	0	43	0	116391936	23	5678
2026-01-20 03:03:22.83	359.80	10.44	-31.9	-35.5	9.2	2.57e-02	0	43	0	118489088	24	5407
2026-01-20 03:03:23.84	359.65	10.49	-32.0	-36.1	9.1	2.73e-02	0	43	0	119537664	23	5800
2026-01-20 03:03:24.84	359.50	10.54	-32.1	-36.2	8.6	3.49e-02	0	43	0	121634816	24	5762
2026-01-20 03:03:25.84	359.35	10.59	-32.0	-35.9	8.8	3.14e-02	0	43	0	123731968	24	5628
2026-01-20 03:03:26.85	359.20	10.64	-32.0	-35.7	8.9	2.83e-02	0	43	0	125829120	24	5549
2026-01-20 03:03:27.85	359.05	10.69	-31.9	-35.8	9.3	2.30e-02	0	43	0	126877696	23	5642
2026-01-20 03:03:28.85	358.90	10.75	-31.8	-35.3	9.6	1.38e-02	0	44	0	128974848	23	5438
2026-01-20 03:03:29.85	358.74	10.80	-31.7	-34.9	9.9	1.19e-02	0	43	0	131072000	23	5256
2026-01-20 03:03:30.84	358.59	10.85	-31.6	-34.9	10.0	9.43e-03	0	44	0	133169152	23	5233
2026-01-20 03:03:31.85	358.44	10.90	-31.8	-35.5	9.6	9.21e-03	0	43	0	135266304	23	5479
2026-01-20 03:03:32.85	358.29	10.95	-31.8	-35.4	9.6	1.61e-02	0	44	0	136314880	23	5474
2026-01-20 03:03:33.85	358.13	11.00	-31.8	-35.6	9.5	1.34e-02	0	44	0	138412032	23	5559
2026-01-20 03:03:34.85	357.98	11.05	-31.9	-35.7	9.4	1.42e-02	0	43	0	140509184	23	5593
2026-01-20 03:03:35.85	357.83	11.10	-31.8	-35.4	9.7	1.13e-02	0	44	0	142606336	23	5441
2026-01-20 03:03:36.86	357.67	11.15	-31.8	-35.5	9.6	1.54e-02	0	44	0	144703488	23	5483
2026-01-20 03:03:37.85	357.51	11.20	-31.6	-34.8	10.1	9.42e-03	0	44	0	145752064	23	5194
2026-01-20 03:03:38.85	357.36	11.25	-31.5	-34.5	10.3	8.24e-03	0	44	0	147849216	23	5075
2026-01-20 03:03:39.85	357.20	11.30	-31.6	-34.7	10.2	6.09e-03	0	44	0	149946368	23	5132
2026-01-20 03:03:40.85	357.04	11.34	-31.5	-34.3	10.5	5.22e-03	0	44	0	152043520	23	4986
2026-01-20 03:03:41.85	356.89	11.39	-31.6	-34.7	10.2	7.03e-03	0	44	0	153092096	23	5155
2026-01-20 03:03:42.85	356.73	11.44	-31.5	-34.5	10.3	4.65e-03	0	44	0	155189248	23	5077
2026-01-20 03:03:43.86	356.57	11.49	-31.3	-33.9	10.7	3.31e-03	0	44	0	157286400	23	4837
2026-01-20 03:03:44.86	356.41	11.54	-31.2	-33.9	11.2	4.35e-03	0	44	0	159383552	22	4900
2026-01-20 03:03:45.87	356.25	11.59	-31.0	-33.5	11.4	1.11e-03	0	44	0	161480704	22	4754
2026-01-20 03:03:46.88	356.08	11.64	-31.0	-33.4	11.5	8.78e-04	0	44	0	163577856	22	4747
2026-01-20 03:03:47.88	355.92	11.69	-30.8	-33.3	11.9	2.34e-03	0	44	0	164626432	21	4797
2026-01-20 03:03:48.88	355.76	11.74	-30.8	-33.2	11.9	2.07e-03	0	44	0	166723584	21	4731
2026-01-20 03:03:49.88	355.60	11.78	-30.8	-33.1	12.0	2.86e-04	0	44	0	168820736	21	4710
2026-01-20 03:03:50.88	355.44	11.83	-30.8	-33.3	12.0	2.96e-04	0	44	0	170917888	21	4765
2026-01-20 03:03:51.88	355.27	11.88	-30.8	-33.2	12.0	1.15e-03	0	44	0	171966464	21	4725
2026-01-20 03:03:52.89	355.11	11.93	-30.8	-33.1	12.0	2.79e-04	0	44	0	174063616	21	4717
2026-01-20 03:03:53.89	354.94	11.98	-30.8	-33.2	11.9	3.03e-04	0	44	0	176160768	21	4764
2026-01-20 03:03:54.89	354.78	12.02	-31.0	-33.4	11.5	5.33e-04	0	44	0	178257920	22	4743
2026-01-20 03:03:55.90	354.61	12.07	-31.0	-33.3	11.5	9.00e-04	0	44	0	180355072	22	4703
2026-01-20 03:03:56.90	354.45	12.12	-31.1	-33.5	11.5	8.38e-04	0	44	0	181403648	22	4767
2026-01-20 03:03:57.90	354.28	12.17	-31.0	-33.3	11.7	8.42e-04	0	44	0	183500800	22	4678
2026-01-20 03:03:58.91	354.11	12.21	-30.8	-33.3	11.9	6.77e-04	0	44	0	185597952	21	4788
2026-01-20 03:03:59.91	353.94	12.26	-30.8	-33.3	11.9	3.89e-04	0	44	0	187695104	21	4783
2026-01-20 03:04:00.91	353.77	12.31	-31.0	-33.3	11.6	5.82e-04	0	44	0	189792256	22	4695
2026-01-20 03:04:01.91	353.61	12.35	-31.2	-34.0	11.2	8.83e-04	0	44	0	190840832	22	4932
2026-01-20 03:04:02.91	353.44	12.40	-31.3	-34.2	11.1	1.40e-03	0	44	0	192937984	22	5006
2026-01-20 03:04:03.91	353.27	12.45	-31.3	-34.1	11.1	1.75e-03	0	44	0	195035136	22	5000
2026-01-20 03:04:04.91	353.10	12.49	-31.3	-34.1	11.1	1.45e-03	0	44	0	197132288	22	4967
2026-01-20 03:04:05.91	352.93	12.54	-31.3	-34.1	11.1	1.96e-03	0	44	0	199229440	22	4972
2026-01-20 03:04:06.91	352.75	12.59	-31.1	-33.6	11.5	1.14e-03	0	44	0	200278016	22	4788
2026-01-20 03:04:07.91	352.58	12.63	-31.0	-33.3	11.7	8.19e-04	0	44	0	202375168	22	4675
2026-01-20 03:04:08.91	352.41	12.68	-31.0	-33.2	11.7	6.38e-04	0	44	0	204472320	22	4645
2026-01-20 03:04:09.92	352.24	12.72	-31.1	-33.6	11.5	7.74e-04	0	44	0	206569472	22	4782
2026-01-20 03:04:10.92	352.06	12.77	-31.0	-33.2	11.7	7.34e-04	0	44	0	208666624	22	4656
2026-01-20 03:04:11.93	351.89	12.81	-31.0	-33.3	11.6	5.26e-04	0	44	0	209715200	22	4690
2026-01-20 03:04:12.93	351.71	12.86	-31.1	-33.5	11.5	6.98e-04	0	44	0	211812352	22	4752
2026-01-20 03:04:13.94	351.53	12.90	-31.0	-33.5	11.5	7.31e-04	0	44	0	213909504	22	4754
2026-01-20 03:04:14.94	351.36	12.95	-30.9	-33.0	11.8	6.48e-04	0	44	0	216006656	22	4597
2026-01-20 03:04:15.95	351.18	12.99	-31.0	-33.3	11.6	5.84e-04	0	44	0	217055232	22	4676
2026-01-20 03:04:16.95	351.00	13.03	-30.9	-32.9	11.9	3.36e-04	0	44	0	219152384	22	4549
2026-01-20 03:04:17.95	350.83	13.08	-30.9	-33.5	11.9	3.73e-04	0	44	0	221249536	21	4841
2026-01-20 03:04:18.95	350.65	13.12	-30.7	-33.0	12.1	3.32e-04	0	44	0	223346688	21	4666
2026-01-20 03:04:19.95	350.47	13.17	-30.6	-32.5	12.5	1.39e-04	0	44	0	225443840	21	4494
2026-01-20 03:04:20.96	350.29	13.21	-30.5	-32.3	12.7	1.03e-04	0	44	0	226492416	21	4429
2026-01-20 03:04:21.97	350.11	13.25	-30.3	-31.7	13.0	6.33e-05	0	44	0	228589568	21	4242
2026-01-20 03:04:22.97	349.93	13.30	-30.2	-31.9	13.1	1.31e-03	0	44	0	230686720	20	4372
2026-01-20 03:04:23.97	349.75	13.34	-30.1	-31.7	12.5	7.60e-06	0	44	0	232783872	20	4307
2026-01-20 03:04:24.98	349.56	13.38	-29.9	-31.2	13.7	8.30e-06	0	44	0	234881024	20	4151
2026-01-20 03:04:25.98	349.38	13.42	-30.0	-31.8	13.1	4.50e-06	0	44	0	235929600	19	4427
2026-01-20 03:04:26.98	349.20	13.46	-30.2	-32.0	13.1	1.52e-05	0	44	0	238026752	20	4396
2026-01-20 03:04:27.98	349.02	13.51	-30.2	-31.9	13.3	2.13e-05	0	44	0	240123904	20	4383
2026-01-20 03:04:28.99	348.83	13.55	-30.4	-32.4	13.0	2.59e-05	0	44	0	242221056	20	4529
2026-01-20 03:04:29.99	348.65	13.59	-30.7	-32.8	12.4	1.73e-03	0	44	0	244318208	21	4586
2026-01-20 03:04:30.99	348.46	13.63	-30.7	-32.6	12.5	1.25e-04	0	44	0	245366784	21	4522
2026-01-20 03:04:31.99	348.28	13.67	-30.8	-33.0	12.3	1.45e-04	0	44	0	247463936	21	4667
2026-01-20 03:04:32.99	348.09	13.71	-30.8	-33.1	12.2	1.89e-04	0	44	0	249561088	21	4683
2026-01-20 03:04:34.00	347.91	13.75	-30.9	-33.5	12.0	2.67e-04	0	44	0	251658240	21	4825
2026-01-20 03:04:35.01	347.72	13.79	-30.8	-33.2	12.1	2.72e-04	0	44	0	253755392	21	4728
2026-01-20 03:04:36.00	347.53	13.83	-30.8	-33.1	12.1	2.18e-04	0	44	0	254803968	21	4711
2026-01-20 03:04:37.01	347.34	13.87	-30.8	-33.2	12.2	2.09e-04	0	44	0	256901120	21	4704
2026-01-20 03:04:38.01	347.16	13.91	-30.9	-33.5	11.9	2.89e-04	0	44	0	258998272	21	4834
2026-01-20 03:04:39.01	346.97	13.95	-31.1	-33.5	11.6	4.23e-04	0	44	0	261095424	22	4745
2026-01-20 03:04:40.02	346.78	13.99	-31.4	-34.2	11.1	1.37e-03	0	44	0	263192576	22	5020
2026-01-20 03:04:41.02	346.59	14.03	-31.1	-33.5	11.6	2.20e-03	0	44	0	264241152	22	4737
2026-01-20 03:04:42.02	346.40	14.07	-30.9	-33.4	12.0	3.78e-04	0	44	0	266338304	21	4813
2026-01-20 03:04:43.02	346.21	14.11	-30.8	-33.1	12.2	2.84e-04	0	44	0	268435456	21	4692
2026-01-20 03:04:44.02	346.02	14.14	-31.0	-33.2	11.8	2.21e-03	0	44	0	270532608	22	4635
2026-01-20 03:04:45.02	345.82	14.18	-31.0	-33.1	11.9	5.41e-04	0	44	0	271581184	22	4590
2026-01-20 03:04:46.02	345.63	14.22	-31.2	-33.8	11.4	6.64e-04	0	44	0	273678336	22	4865
2026-01-20 03:04:47.03	345.44	14.26	-31.2	-33.8	11.4	3.31e-03	0	44	0	275775488	22	4851
2026-01-20 03:04:48.03	345.25	14.29	-31.0	-33.2	11.8	2.73e-03	0	44	0	277872640	22	4627
2026-01-20 03:04:49.03	345.05	14.33	-30.9	-32.8	12.1	3.68e-04	0	44	0	279969792	22	4493
2026-01-20 03:04:50.04	344.86	14.37	-30.8	-32.9	12.3	2.43e-04	0	44	0	281018368	21	4622
2026-01-20 03:04:51.05	344.66	14.40	-30.5	-32.0	12.9	2.39e-03	0	44	0	283115520	21	4322
2026-01-20 03:04:52.05	344.47	14.44	-30.7	-32.6	12.6	6.02e-05	0	44	0	285212672	21	4519
2026-01-20 03:04:53.05	344.27	14.47	-30.5	-32.2	12.9	6.86e-05	0	44	0	287309824	21	4363
2026-01-20 03:04:54.06	344.07	14.51	-30.7	-32.8	12.4	2.37e-03	0	44	0	289406976	21	4586
2026-01-20 03:04:55.06	343.88	14.54	-31.1	-33.4	11.7	3.31e-04	0	44	0	290455552	22	4686
2026-01-20 03:04:56.06	343.68	14.58	-31.0	-33.0	12.0	4.45e-04	0	44	0	292552704	22	4546
2026-01-20 03:04:57.06	343.48	14.61	-31.1	-33.4	11.7	2.62e-03	0	44	0	294649856	22	4684
2026-01-20 03:04:58.07	343.28	14.65	-31.0	-33.1	11.9	4.37e-04	0	44	0	296747008	22	4565
2026-01-20 03:04:59.07	343.08	14.68	-30.9	-33.3	12.1	2.62e-03	0	44	0	298844160	21	4758
2026-01-20 03:05:00.07	342.89	14.71	-30.8	-33.0	12.4	1.85e-04	0	44	0	299892736	21	4625
2026-01-20 03:05:01.07	342.69	14.75	-30.8	-33.0	12.3	1.56e-04	0	44	0	301989888	21	4648
2026-01-20 03:05:02.07	342.49	14.78	-30.9	-33.3	12.1	2.75e-03	0	44	0	304087040	21	4748
2026-01-20 03:05:03.08	342.29	14.81	-31.0	-33.1	11.9	1.86e-03	0	44	0	306184192	22	4582
2026-01-20 03:05:04.08	342.09	14.85	-31.2	-33.6	11.6	5.55e-04	0	44	0	308281344	22	4760
2026-01-20 03:05:05.08	341.88	14.88	-31.5	-34.1	10.9	3.97e-03	0	44	0	309329920	23	4840
2026-01-20 03:05:06.08	341.68	14.91	-31.2	-33.8	11.5	3.75e-03	0	44	0	311427072	22	4818
2026-01-20 03:05:07.08	341.48	14.94	-30.9	-32.7	12.2	3.89e-04	0	44	0	313524224	22	4452
2026-01-20 03:05:08.08	341.28	14.97	-30.5	-32.3	12.8	2.51e-03	0	44	0	315621376	21	4406
2026-01-20 03:05:09.08	341.08	15.00	-30.3	-32.1	13.3	2.73e-03	0	44	0	317718528	20	4437
2026-01-20 03:05:10.08	340.87	15.03	-30.2	-31.8	13.5	1.84e-04	0	44	0	318767104	20	4336
2026-01-20 03:05:11.08	340.67	15.06	-30.2	-31.9	13.4	2.85e-03	0	44	0	320864256	20	4372
2026-01-20 03:05:12.08	340.47	15.09	-30.2	-31.7	13.6	2.87e-03	0	44	0	322961408	20	4301
2026-01-20 03:05:13.07	340.27	15.12	-29.9	-31.1	13.9	2.72e-04	0	44	0	325058560	20	4132
2026-01-20 03:05:14.08	340.06	15.15	-29.9	-31.1	14.0	2.73e-04	0	44	0	326107136	20	4118
2026-01-20 03:05:15.07	339.86	15.18	-30.0	-31.3	13.8	2.53e-03	0	44	0	328204288	20	4182
2026-01-20 03:05:16.08	339.65	15.21	-29.9	-31.0	14.0	3.24e-04	0	44	0	330301440	20	4094
2026-01-20 03:05:17.08	339.44	15.23	-29.9	-30.9	14.1	2.35e-03	0	44	0	332398592	20	4056
2026-01-20 03:05:18.08	339.24	15.26	-29.9	-31.5	14.1	2.43e-03	0	44	0	334495744	19	4322
2026-01-20 03:05:19.08	339.03	15.29	-30.0	-31.1	14.0	2.76e-04	0	44	0	335544320	20	4117
2026-01-20 03:05:20.08	338.82	15.32	-30.2	-31.8	13.5	2.40e-03	0	44	0	337641472	20	4324
2026-01-20 03:05:21.09	338.61	15.34	-30.3	-32.1	13.3	1.98e-05	0	44	0	339738624	20	4439
2026-01-20 03:05:22.09	338.41	15.37	-30.5	-32.0	13.1	2.82e-04	0	44	0	341835776	21	4303
2026-01-20 03:05:23.10	338.20	15.40	-30.4	-32.4	13.1	2.39e-03	0	44	0	343932928	20	4516
2026-01-20 03:05:24.10	337.99	15.42	-30.4	-32.4	13.1	2.17e-03	0	44	0	344981504	20	4531
2026-01-20 03:05:25.11	337.78	15.45	-30.3	-32.2	13.2	2.14e-04	0	44	0	347078656	20	4460
2026-01-20 03:05:26.10	337.57	15.47	-30.3	-32.0	13.4	2.23e-03	0	44	0	349175808	20	4389
2026-01-20 03:05:27.11	337.36	15.50	-30.2	-31.9	13.4	2.44e-03	0	44	0	351272960	20	4364
2026-01-20 03:05:28.10	337.15	15.52	-30.3	-32.1	13.3	1.75e-05	0	44	0	352321536	20	4424
2026-01-20 03:05:29.10	336.94	15.54	-30.5	-32.5	13.1	2.50e-03	0	44	0	354418688	20	4554
2026-01-20 03:05:30.10	336.73	15.57	-30.6	-32.5	12.7	2.48e-03	0	44	0	356515840	21	4478
2026-01-20 03:05:31.10	336.52	15.59	-30.8	-33.0	12.4	2.33e-04	0	44	0	358612992	21	4629
2026-01-20 03:05:32.10	336.31	15.61	-30.8	-33.0	12.4	1.54e-04	0	44	0	360710144	21	4632
2026-01-20 03:05:33.10	336.10	15.64	-30.8	-33.0	12.4	2.60e-03	0	44	0	361758720	21	4632
2026-01-20 03:05:34.10	335.88	15.66	-30.9	-33.2	12.2	3.60e-04	0	44	0	363855872	21	4710
2026-01-20 03:05:35.09	335.67	15.68	-30.7	-32.6	12.6	1.24e-04	0	44	0	365953024	21	4489
2026-01-20 03:05:36.10	335.46	15.70	-30.5	-32.2	12.9	2.67e-03	0	44	0	368050176	21	4378
2026-01-20 03:05:37.10	335.25	15.72	-30.4	-32.0	13.0	2.13e-04	0	44	0	370147328	21	4301
2026-01-20 03:05:38.11	335.03	15.74	-30.5	-32.1	12.9	2.77e-03	0	44	0	371195904	21	4350
2026-01-20 03:05:39.12	334.82	15.76	-30.7	-32.6	12.7	7.24e-05	0	44	0	373293056	21	4490
2026-01-20 03:05:40.12	334.60	15.78	-30.6	-32.5	12.7	1.69e-04	0	44	0	375390208	21	4465
2026-01-20 03:05:41.12	334.39	15.80	-30.7	-32.6	12.6	2.76e-03	0	44	0	377487360	21	4512
2026-01-20 03:05:42.12	334.17	15.82	-30.6	-32.4	12.8	7.32e-05	0	44	0	379584512	21	4428
2026-01-20 03:05:43.13	333.96	15.84	-30.5	-32.1	13.0	5.03e-05	0	44	0	380633088	21	4339
2026-01-20 03:05:44.13	333.74	15.86	-30.5	-32.1	13.0	2.44e-03	0	44	0	382730240	21	4325
2026-01-20 03:05:45.13	333.53	15.87	-30.4	-32.3	13.1	3.50e-05	0	44	0	384827392	20	4508
2026-01-20 03:05:46.13	333.31	15.89	-30.2	-31.9	13.4	1.90e-05	0	44	0	386924544	20	4365
2026-01-20 03:05:47.13	333.10	15.91	-30.3	-32.1	13.3	2.60e-03	0	44	0	389021696	20	4421
2026-01-20 03:05:48.14	332.88	15.92	-30.2	-31.7	13.6	2.61e-03	0	44	0	390070272	20	4302
2026-01-20 03:05:49.14	332.66	15.94	-30.2	-31.8	13.5	1.29e-05	0	44	0	392167424	20	4337
2026-01-20 03:05:50.14	332.45	15.96	-30.3	-32.0	13.4	9.10e-06	0	44	0	394264576	20	4402
2026-01-20 03:05:51.14	332.23	15.97	-30.1	-31.7	13.6	2.26e-03	0	44	0	396361728	20	4287
2026-01-20 03:05:52.13	332.02	15.98	-30.1	-31.6	13.6	8.30e-06	0	44	0	397410304	20	4273
2026-01-20 03:05:53.14	331.80	16.00	-30.2	-31.9	13.4	9.90e-06	0	44	0	399507456	20	4364
2026-01-20 03:05:54.14	331.58	16.01	-30.2	-31.8	13.5	1.29e-05	0	44	0	401604608	20	4330
2026-01-20 03:05:55.14	331.36	16.03	-30.3	-32.1	13.3	8.30e-06	0	44	0	403701760	20	4433
2026-01-20 03:05:56.14	331.15	16.04	-30.3	-32.0	13.3	1.52e-05	0	44	0	405798912	20	4403
2026-01-20 03:05:57.14	330.93	16.05	-30.3	-32.2	13.1	1.98e-05	0	44	0	406847488	20	4485
2026-01-20 03:05:58.14	330.71	16.07	-30.3	-32.3	13.1	4.95e-05	0	44	0	408944640	20	4495
2026-01-20 03:05:59.14	330.49	16.08	-30.5	-32.6	12.9	4.34e-05	0	44	0	411041792	20	4603
2026-01-20 03:06:00.15	330.27	16.09	-30.6	-32.6	12.5	8.77e-05	0	44	0	413138944	21	4534
2026-01-20 03:06:01.15	330.05	16.10	-30.7	-32.7	12.5	1.13e-04	0	44	0	415236096	21	4573
2026-01-20 03:06:02.15	329.83	16.11	-30.8	-33.2	12.1	2.69e-03	0	44	0	416284672	21	4716
2026-01-20 03:06:03.15	329.62	16.12	-30.8	-33.2	12.1	2.27e-04	0	44	0	418381824	21	4743
2026-01-20 03:06:04.15	329.40	16.13	-30.9	-33.4	12.1	2.87e-04	0	44	0	420478976	21	4787
2026-01-20 03:06:05.15	329.18	16.14	-30.9	-33.4	12.0	2.97e-04	0	44	0	422576128	21	4800
2026-01-20 03:06:06.14	328.96	16.15	-31.0	-33.6	11.8	2.37e-04	0	44	0	424673280	21	4886
2026-01-20 03:06:07.14	328.74	16.16	-30.8	-33.2	12.1	2.66e-04	0	44	0	425721856	21	4740
2026-01-20 03:06:08.15	328.52	16.17	-30.8	-33.2	12.1	2.61e-04	0	44	0	427819008	21	4741
2026-01-20 03:06:09.16	328.30	16.17	-31.0	-33.1	11.9	2.87e-03	0	44	0	429916160	22	4596
2026-01-20 03:06:10.16	328.08	16.18	-30.9	-32.8	12.1	3.15e-04	0	44	0	432013312	22	4479
2026-01-20 03:06:11.16	327.86	16.19	-30.8	-33.0	12.3	2.13e-04	0	44	0	434110464	21	4655
2026-01-20 03:06:12.16	327.64	16.19	-30.9	-33.3	12.1	2.30e-04	0	44	0	435159040	21	4761
2026-01-20 03:06:13.16	327.42	16.20	-30.9	-33.4	12.0	2.78e-04	0	45	0	437256192	21	4795
2026-01-20 03:06:14.16	327.20	16.21	-30.9	-33.3	12.1	2.98e-04	0	44	0	439353344	21	4744
2026-01-20 03:06:15.16	326.98	16.21	-30.9	-33.4	12.0	3.17e-04	0	44	0	441450496	21	4814
2026-01-20 03:06:16.16	326.76	16.22	-30.9	-32.9	12.0	3.64e-04	0	44	0	442499072	22	4535
2026-01-20 03:06:17.17	326.54	16.22	-30.9	-33.3	12.1	2.46e-04	0	44	0	444596224	21	4768
2026-01-20 03:06:18.17	326.32	16.22	-30.8	-33.1	12.2	2.17e-04	0	44	0	446693376	21	4706
2026-01-20 03:06:19.18	326.09	16.23	-30.6	-32.6	12.5	1.50e-04	0	44	0	448790528	21	4518
2026-01-20 03:06:20.18	325.87	16.23	-30.6	-32.5	12.7	1.07e-04	0	44	0	450887680	21	4464
2026-01-20 03:06:21.19	325.65	16.23	-30.6	-32.4	12.7	1.08e-04	0	44	0	451936256	21	4431
2026-01-20 03:06:22.19	325.43	16.24	-30.4	-32.0	13.0	6.56e-05	0	44	0	454033408	21	4315
2026-01-20 03:06:23.19	325.21	16.24	-30.4	-32.5	13.0	3.35e-05	0	44	0	456130560	20	4561
2026-01-20 03:06:24.19	324.99	16.24	-30.5	-32.3	12.8	2.97e-05	0	44	0	458227712	21	4398
2026-01-20 03:06:25.19	324.77	16.24	-29.8	-32.0	12.0	7.62e-05	0	44	0	460324864	21	4641
2026-01-20 03:06:26.19	324.55	16.24	-30.8	-32.9	11.6	2.55e-03	0	44	0	461373440	21	4619
2026-01-20 03:06:27.19	324.33	16.24	-31.0	-33.2	11.8	3.04e-04	0	44	0	463470592	22	4625
2026-01-20 03:06:28.20	324.10	16.24	-31.0	-33.6	11.0	3.59e-04	0	44	0	465567744	21	4882
2026-01-20 03:06:29.21	323.88	16.24	-31.2	-33.7	10.8	5.48e-04	0	44	0	467664896	22	4792
2026-01-20 03:06:30.20	323.66	16.24	-30.9	-32.9	12.0	3.77e-04	0	45	0	469762048	22	4534
2026-01-20 03:06:31.21	323.44	16.24	-30.7	-32.8	12.3	1.78e-04	0	44	0	470810624	21	4577
2026-01-20 03:06:32.21	323.22	16.23	-30.6	-32.5	12.5	9.84e-05	0	44	0	472907776	21	4495
2026-01-20 03:06:33.21	323.00	16.23	-30.7	-32.7	12.5	3.84e-04	0	44	0	475004928	21	4544
2026-01-20 03:06:34.21	322.78	16.23	-30.7	-32.8	12.4	1.18e-04	0	44	0	477102080	21	4570
2026-01-20 03:06:35.21	322.56	16.22	-30.7	-32.6	12.5	9.15e-05	0	44	0	479199232	21	4517
2026-01-20 03:06:36.22	322.34	16.22	-30.7	-32.7	12.5	6.09e-04	0	44	0	480247808	21	4528
2026-01-20 03:06:37.21	322.12	16.22	-30.5	-32.3	12.8	5.72e-05	0	44	0	482344960	21	4406
2026-01-20 03:06:38.21	321.90	16.21	-30.5	-32.2	12.8	6.02e-05	0	44	0	484442112	21	4386
2026-01-20 03:06:39.21	321.68	16.21	-30.7	-32.7	12.5	8.39e-05	0	44	0	486539264	21	4550
2026-01-20 03:06:40.21	321.46	16.20	-30.7	-32.8	12.4	2.52e-03	0	44	0	487587840	21	4587
2026-01-20 03:06:41.21	321.24	16.19	-30.7	-32.7	12.5	1.17e-04	0	44	0	489684992	21	4561
2026-01-20 03:06:42.26	321.01	16.19	-30.7	-32.7	12.5	1.02e-04	0	44	0	491782144	21	4554
2026-01-20 03:06:43.15	320.81	16.18	-30.8	-33.0	12.3	1.80e-04	0	44	0	493879296	21	4655
2026-01-20 03:06:44.22	320.58	16.17	-30.7	-32.9	12.3	2.86e-03	0	44	0	495976448	21	4636
2026-01-20 03:06:45.09	320.38	16.17	-30.9	-33.4	12.0	2.23e-04	0	44	0	497025024	21	4790
2026-01-20 03:06:46.23	320.13	16.16	-30.7	-32.8	12.4	2.08e-04	0	44	0	499122176	21	4601
2026-01-20 03:06:47.09	319.95	16.15	-30.8	-33.1	12.2	1.93e-04	0	44	0	501219328	21	4684
2026-01-20 03:06:48.24	319.69	16.14	-30.9	-33.4	11.9	2.62e-04	0	44	0	503316480	21	4820
2026-01-20 03:06:49.09	319.51	16.13	-30.9	-33.5	11.9	4.22e-04	0	44	0	504365056	21	4858
2026-01-20 03:06:50.24	319.26	16.12	-31.1	-33.4	11.6	4.84e-04	0	44	0	506462208	22	4718
2026-01-20 03:06:51.11	319.06	16.11	-31.2	-33.7	11.4	7.70e-04	0	44	0	508559360	22	4836
2026-01-20 03:06:52.25	318.82	16.10	-31.0	-33.6	11.8	4.97e-04	0	44	0	510656512	21	4901
2026-01-20 03:06:53.10	318.63	16.09	-31.0	-33.7	11.8	3.39e-04	0	44	0	511705088	21	4918
2026-01-20 03:06:54.25	318.38	16.08	-30.8	-33.1	12.1	6.99e-04	0	44	0	514850816	21	4717
2026-01-20 03:06:55.10	318.19	16.07	-30.7	-33.0	12.2	2.29e-03	0	44	0	515899392	21	4660
2026-01-20 03:06:56.24	317.94	16.05	-30.8	-33.2	12.1	2.48e-04	0	44	0	517996544	21	4730
2026-01-20 03:06:57.10	317.76	16.04	-30.8	-33.0	12.2	2.19e-04	0	44	0	520093696	21	4673
2026-01-20 03:06:58.25	317.51	16.03	-30.7	-32.9	12.2	2.15e-03	0	44	0	522190848	21	4633
2026-01-20 03:06:59.11	317.32	16.02	-30.7	-32.9	12.3	1.17e-04	0	44	0	523239424	21	4638
2026-01-20 03:07:00.25	317.07	16.00	-30.8	-33.0	12.2	1.52e-04	0	44	0	525336576	21	4656
2026-01-20 03:07:01.11	316.89	15.99	-30.5	-32.3	12.7	1.33e-04	0	44	0	527433728	21	4427
2026-01-20 03:07:02.26	316.64	15.97	-30.7	-32.7	12.4	2.26e-03	0	44	0	529530880	21	4559
2026-01-20 03:07:03.12	316.45	15.96	-30.6	-32.6	12.5	1.26e-04	0	44	0	530579456	21	4516
2026-01-20 03:07:04.26	316.20	15.94	-30.7	-32.7	12.4	2.49e-03	0	44	0	532676608	21	4562
2026-01-20 03:07:05.12	316.02	15.93	-30.6	-32.5	12.5	2.62e-03	0	44	0	534773760	21	4501
2026-01-20 03:07:06.27	315.77	15.91	-30.5	-32.3	12.7	5.92e-04	0	44	0	536870912	21	4425
2026-01-20 03:07:07.13	315.58	15.89	-30.4	-32.5	12.9	5.03e-05	0	44	0	538968064	20	4587
2026-01-20 03:07:08.27	315.34	15.87	-30.3	-32.1	13.2	2.31e-03	0	44	0	541065216	20	4446
2026-01-20 03:07:09.13	315.15	15.86	-30.3	-32.2	13.1	6.44e-04	0	44	0	542113792	20	4478
2026-01-20 03:07:10.27	314.91	15.84	-30.4	-32.4	13.0	3.35e-05	0	44	0	544210944	20	4536
2026-01-20 03:07:11.13	314.72	15.82	-30.1	-31.7	13.4	2.74e-05	0	44	0	546308096	20	4328
2026-01-20 03:07:12.28	314.48	15.80	-30.1	-31.6	13.6	3.96e-04	0	44	0	548405248	20	4270
2026-01-20 03:07:13.14	314.29	15.78	-30.0	-31.4	13.6	1.88e-03	0	44	0	549453824	20	4222
2026-01-20 03:07:14.28	314.05	15.76	-30.1	-31.5	13.6	1.29e-05	0	44	0	551550976	20	4258
2026-01-20 03:07:15.14	313.86	15.74	-30.1	-31.5	13.5	1.22e-05	0	44	0	553648128	20	4266
2026-01-20 03:07:16.29	313.62	15.72	-30.2	-32.0	13.3	2.52e-03	0	44	0	555745280	20	4403
2026-01-20 03:07:17.15	313.44	15.70	-30.2	-31.8	13.4	2.13e-05	0	44	0	556793856	20	4359
2026-01-20 03:07:18.30	313.19	15.68	-30.3	-32.2	13.1	7.72e-04	0	44	0	559939584	20	4463
2026-01-20 03:07:19.16	313.01	15.66	-30.3	-32.2	13.1	2.42e-03	0	44	0	560988160	20	4491
2026-01-20 03:07:20.31	312.77	15.63	-30.3	-32.2	13.1	2.19e-03	0	44	0	563085312	20	4485
2026-01-20 03:07:21.16	312.59	15.62	-30.4	-32.4	13.0	3.05e-05	0	44	0	565182464	20	4547
2026-01-20 03:07:22.31	312.34	15.59	-30.5	-32.6	12.8	2.08e-03	0	44	0	567279616	20	4609
2026-01-20 03:07:23.17	312.16	15.57	-30.4	-32.0	12.9	2.18e-03	0	44	0	568328192	21	4333
2026-01-20 03:07:24.31	311.92	15.54	-30.4	-32.3	13.0	4.24e-04	0	44	0	570425344	20	4523
2026-01-20 03:07:25.17	311.74	15.52	-30.5	-32.4	12.7	3.05e-05	0	44	0	572522496	21	4435
2026-01-20 03:07:26.32	311.50	15.49	-30.6	-32.4	12.6	2.43e-03	0	44	0	574619648	21	4455
2026-01-20 03:07:27.18	311.32	15.47	-30.6	-32.5	12.5	5.80e-04	0	44	0	575668224	21	4491
2026-01-20 03:07:28.33	311.08	15.44	-30.6	-32.6	12.5	2.50e-03	0	44	0	577765376	21	4521
2026-01-20 03:07:29.19	310.90	15.42	-30.5	-32.4	12.6	2.16e-03	0	44	0	579862528	21	4437
2026-01-20 03:07:30.33	310.66	15.39	-30.3	-32.1	13.2	7.40e-04	0	44	0	581959680	20	4448
2026-01-20 03:07:31.19	310.48	15.37	-30.3	-32.3	13.1	2.04e-03	0	44	0	584056832	20	4495
2026-01-20 03:07:32.34	310.24	15.34	-30.3	-32.1	13.1	1.96e-03	0	44	0	586153984	20	4454
2026-01-20 03:07:33.20	310.06	15.32	-30.1	-31.6	13.4	4.00e-04	0	44	0	587202560	20	4288
2026-01-20 03:07:34.35	309.82	15.29	-30.0	-31.3	13.6	1.94e-03	0	44	0	589299712	20	4197
2026-01-20 03:07:35.21	309.65	15.26	-30.1	-31.5	13.5	1.64e-03	0	44	0	591396864	20	4266
2026-01-20 03:07:36.36	309.41	15.23	-30.2	-31.9	13.2	2.17e-04	0	44	0	593494016	20	4368
2026-01-20 03:07:37.21	309.23	15.21	-30.0	-31.4	13.6	2.37e-03	0	44	0	594542592	20	4219
2026-01-20 03:07:38.36	309.00	15.18	-30.1	-31.7	13.4	1.06e-05	0	44	0	596639744	20	4306
2026-01-20 03:07:39.21	308.82	15.15	-30.1	-31.5	13.6	2.23e-04	0	44	0	598736896	20	4242
2026-01-20 03:07:40.35	308.59	15.12	-29.9	-31.1	13.8	2.22e-03	0	44	0	600834048	20	4131
2026-01-20 03:07:41.21	308.41	15.09	-30.0	-31.3	13.6	2.40e-03	0	44	0	601882624	20	4186
2026-01-20 03:07:42.36	308.18	15.06	-30.1	-31.6	13.4	4.50e-06	0	44	0	605028352	20	4291
2026-01-20 03:07:43.21	308.00	15.03	-30.2	-31.8	13.3	2.46e-03	0	44	0	606076928	20	4344
2026-01-20 03:07:44.36	307.77	15.00	-30.1	-31.7	13.4	2.44e-03	0	44	0	608174080	20	4314
2026-01-20 03:07:45.22	307.60	14.97	-30.3	-32.1	13.0	3.19e-04	0	44	0	610271232	20	4467
2026-01-20 03:07:46.36	307.37	14.94	-30.3	-32.2	13.0	2.57e-03	0	44	0	612368384	20	4475
2026-01-20 03:07:47.22	307.19	14.91	-30.4	-32.5	12.8	2.34e-03	0	44	0	613416960	20	4604
2026-01-20 03:07:48.36	306.96	14.87	-30.4	-32.6	12.7	5.41e-05	0	44	0	615514112	20	4629
2026-01-20 03:07:49.23	306.79	14.85	-30.6	-32.5	12.5	2.29e-03	0	44	0	617611264	21	4495
2026-01-20 03:07:50.37	306.56	14.81	-30.5	-32.4	12.5	2.58e-03	0	44	0	619708416	21	4459
2026-01-20 03:07:51.23	306.39	14.78	-30.5	-32.4	12.5	2.87e-04	0	44	0	620756992	21	4473
2026-01-20 03:07:52.38	306.16	14.74	-30.6	-32.7	12.3	1.58e-04	0	44	0	622854144	21	4560
2026-01-20 03:07:53.24	305.98	14.72	-30.7	-32.9	12.2	2.46e-04	0	44	0	624951296	21	4633
2026-01-20 03:07:54.39	305.76	14.68	-30.6	-32.7	12.3	2.60e-04	0	44	0	627048448	21	4558
2026-01-20 03:07:55.25	305.59	14.65	-30.7	-32.9	12.2	2.75e-03	0	44	0	629145600	21	4649
2026-01-20 03:07:56.40	305.36	14.61	-30.6	-32.6	12.3	2.21e-04	0	44	0	631242752	21	4555
2026-01-20 03:07:57.26	305.19	14.58	-30.6	-32.5	12.4	2.30e-04	0	44	0	632291328	21	4508
2026-01-20 03:07:58.40	304.96	14.54	-30.6	-32.5	12.5	1.49e-04	0	44	0	634388480	21	4491
2026-01-20 03:07:59.26	304.79	14.51	-30.4	-32.1	12.7	3.07e-03	0	44	0	636485632	21	4364
2026-01-20 03:08:00.40	304.57	14.47	-30.4	-32.1	12.8	7.09e-05	0	44	0	638582784	21	4352
2026-01-20 03:08:01.27	304.40	14.44	-30.4	-32.5	12.7	2.77e-03	0	44	0	639631360	20	4605
2026-01-20 03:08:02.41	304.18	14.40	-30.3	-32.2	13.0	6.79e-05	0	44	0	641728512	20	4478
2026-01-20 03:08:03.27	304.01	14.37	-30.2	-32.1	13.0	4.19e-05	0	44	0	643825664	20	4460
2026-01-20 03:08:04.42	303.79	14.33	-30.3	-32.2	12.9	2.58e-04	0	45	0	645922816	20	4504
2026-01-20 03:08:05.27	303.62	14.29	-30.4	-32.5	12.7	2.17e-03	0	45	0	646971392	20	4583
2026-01-20 03:08:06.42	303.40	14.25	-30.3	-32.4	12.8	4.73e-05	0	44	0	650117120	20	4567
2026-01-20 03:08:07.28	303.23	14.22	-30.4	-32.7	12.6	8.08e-05	0	44	0	651165696	20	4668
2026-01-20 03:08:08.43	303.01	14.18	-30.3	-32.3	12.9	1.80e-03	0	44	0	653262848	20	4533
2026-01-20 03:08:09.29	302.85	14.14	-30.2	-31.9	13.1	4.80e-05	0	44	0	655360000	20	4392
2026-01-20 03:08:10.44	302.63	14.10	-30.2	-32.0	13.0	3.89e-05	0	44	0	657457152	20	4436
2026-01-20 03:08:11.30	302.46	14.07	-30.0	-31.5	13.4	1.98e-05	0	44	0	658505728	20	4283
2026-01-20 03:08:12.45	302.24	14.02	-29.9	-31.3	13.5	6.80e-06	0	44	0	660602880	20	4202
2026-01-20 03:08:13.31	302.08	13.99	-29.9	-31.3	13.5	1.06e-05	0	44	0	662700032	20	4200
2026-01-20 03:08:14.46	301.86	13.95	-30.2	-31.9	13.1	1.67e-05	0	45	0	664797184	20	4395
2026-01-20 03:08:15.32	301.70	13.91	-30.2	-32.1	13.0	3.43e-05	0	45	0	665845760	20	4454
2026-01-20 03:08:16.46	301.49	13.87	-30.2	-32.1	13.0	4.11e-05	0	44	0	668991488	20	4465
2026-01-20 03:08:17.32	301.32	13.83	-30.4	-32.6	12.7	6.40e-05	0	44	0	670040064	20	4644
2026-01-20 03:08:18.47	301.11	13.79	-30.4	-32.5	12.8	7.24e-05	0	44	0	672137216	20	4592
2026-01-20 03:08:19.33	300.95	13.75	-30.3	-32.3	12.9	2.24e-03	0	44	0	674234368	20	4540
2026-01-20 03:08:20.48	300.73	13.71	-30.6	-32.6	12.4	9.76e-05	0	44	0	676331520	21	4526
2026-01-20 03:08:21.33	300.58	13.67	-30.9	-33.4	11.7	4.23e-04	0	44	0	677380096	21	4831
2026-01-20 03:08:22.48	300.36	13.62	-30.7	-33.0	12.0	3.32e-04	0	44	0	679477248	21	4695
2026-01-20 03:08:23.34	300.20	13.59	-30.7	-33.1	12.0	3.42e-04	0	44	0	681574400	21	4732
2026-01-20 03:08:24.49	299.99	13.54	-31.1	-33.6	11.3	7.97e-04	0	44	0	683671552	22	4800
2026-01-20 03:08:25.34	299.84	13.51	-31.1	-33.6	11.2	1.03e-03	0	44	0	684720128	22	4837
2026-01-20 03:08:26.49	299.63	13.46	-31.2	-33.9	11.0	1.53e-03	0	44	0	686817280	22	4929
2026-01-20 03:08:27.35	299.47	13.42	-31.2	-33.9	11.0	1.77e-03	0	44	0	688914432	22	4924
2026-01-20 03:08:28.49	299.26	13.37	-31.1	-33.7	11.2	1.37e-03	0	44	0	691011584	22	4866
2026-01-20 03:08:29.35	299.11	13.34	-31.1	-33.8	11.1	1.15e-03	0	44	0	693108736	22	4874
2026-01-20 03:08:30.50	298.90	13.29	-31.1	-33.8	10.9	1.77e-03	0	44	0	695205888	22	4870
2026-01-20 03:08:31.36	298.74	13.25	-31.0	-33.4	11.5	1.12e-03	0	44	0	696254464	22	4738
2026-01-20 03:08:32.50	298.54	13.20	-30.9	-33.5	11.5	9.96e-04	0	44	0	698351616	21	4877
2026-01-20 03:08:33.36	298.38	13.16	-30.8	-33.4	11.7	5.65e-04	0	44	0	700448768	21	4833
2026-01-20 03:08:34.51	298.18	13.11	-30.8	-33.4	11.6	6.90e-04	0	44	0	702545920	21	4858
2026-01-20 03:08:35.37	298.02	13.08	-30.8	-33.3	11.7	7.20e-04	0	44	0	703594496	21	4808
2026-01-20 03:08:36.52	297.82	13.03	-30.8	-33.2	11.8	4.60e-04	0	44	0	705691648	21	4774
2026-01-20 03:08:37.38	297.67	12.99	-30.8	-33.4	11.7	8.01e-04	0	44	0	707788800	21	4830
2026-01-20 03:08:38.52	297.46	12.94	-30.9	-33.5	11.6	7.70e-04	0	44	0	709885952	21	4892
2026-01-20 03:08:39.38	297.31	12.90	-31.0	-33.8	11.4	7.63e-04	0	44	0	710934528	21	4992
2026-01-20 03:08:40.53	297.11	12.85	-31.1	-33.9	11.0	1.38e-03	0	44	0	714080256	22	4923
2026-01-20 03:08:41.38	296.96	12.81	-31.3	-34.2	10.8	2.33e-03	0	44	0	715128832	22	5057
2026-01-20 03:08:42.54	296.76	12.76	-31.2	-34.0	10.9	2.31e-03	0	44	0	717225984	22	4963
2026-01-20 03:08:43.39	296.61	12.72	-31.1	-33.9	11.0	1.86e-03	0	44	0	719323136	22	4924
2026-01-20 03:08:44.54	296.41	12.67	-31.3	-34.3	10.7	2.94e-03	0	44	0	721420288	22	5086
2026-01-20 03:08:45.40	296.26	12.63	-31.2	-34.1	10.8	2.11e-03	0	44	0	722468864	22	5049
2026-01-20 03:08:46.54	296.07	12.58	-31.3	-34.5	10.5	4.25e-03	0	44	0	724566016	22	5196
2026-01-20 03:08:47.40	295.92	12.54	-31.2	-34.0	10.8	3.09e-03	0	44	0	726663168	22	4999
2026-01-20 03:08:48.55	295.72	12.48	-30.9	-33.5	11.5	1.57e-03	0	44	0	728760320	21	4896
2026-01-20 03:08:49.41	295.57	12.45	-30.7	-33.0	11.7	6.40e-04	0	44	0	729808896	21	4689
2026-01-20 03:08:50.55	295.38	12.39	-30.5	-32.6	12.2	4.19e-04	0	44	0	731906048	21	4551
2026-01-20 03:08:51.41	295.23	12.35	-30.3	-32.4	12.5	1.46e-04	0	44	0	734003200	20	4569
2026-01-20 03:08:52.56	295.04	12.30	-30.3	-32.3	12.6	7.78e-05	0	44	0	736100352	20	4563
2026-01-20 03:08:53.41	294.90	12.26	-30.3	-32.5	12.6	1.20e-04	0	44	0	738197504	20	4620
2026-01-20 03:08:54.55	294.70	12.21	-30.2	-32.2	12.8	6.86e-05	0	45	0	740294656	20	4527
2026-01-20 03:08:55.42	294.56	12.16	-30.4	-32.6	12.5	9.38e-05	0	44	0	741343232	20	4656
2026-01-20 03:08:56.56	294.37	12.11	-30.7	-32.9	11.9	5.68e-04	0	44	0	743440384	21	4687
2026-01-20 03:08:57.42	294.22	12.07	-30.7	-33.2	11.7	1.46e-03	0	44	0	745537536	21	4796
2026-01-20 03:08:58.56	294.04	12.02	-30.8	-33.4	11.6	8.71e-04	0	44	0	747634688	21	4850
2026-01-20 03:08:59.42	293.89	11.97	-31.0	-33.6	11.1	1.29e-03	0	44	0	748683264	22	4862
2026-01-20 03:09:00.57	293.70	11.92	-31.1	-33.7	11.0	2.75e-03	0	44	0	750780416	22	4886
2026-01-20 03:09:01.43	293.56	11.88	-31.0	-33.6	11.0	2.46e-03	0	44	0	752877568	22	4857
2026-01-20 03:09:02.58	293.37	11.82	-31.0	-33.4	11.2	1.71e-03	0	45	0	754974720	22	4784
2026-01-20 03:09:03.44	293.23	11.78	-30.8	-33.5	11.5	1.22e-03	0	44	0	756023296	21	4893
2026-01-20 03:09:04.58	293.05	11.73	-30.8	-33.3	11.5	2.85e-03	0	44	0	759169024	21	4835
2026-01-20 03:09:05.44	292.91	11.68	-30.6	-32.9	11.8	5.84e-04	0	44	0	760217600	21	4685
2026-01-20 03:09:06.59	292.72	11.63	-30.8	-33.5	11.4	1.23e-03	0	44	0	762314752	21	4900
2026-01-20 03:09:07.45	292.58	11.59	-30.7	-33.2	11.7	7.77e-04	0	44	0	764411904	21	4787
2026-01-20 03:09:08.60	292.40	11.53	-30.8	-33.4	11.5	6.65e-04	0	44	0	766509056	21	4874
2026-01-20 03:09:09.46	292.26	11.49	-31.0	-34.0	11.1	1.39e-03	0	44	0	767557632	21	5096
2026-01-20 03:09:10.61	292.08	11.43	-31.3	-34.5	10.3	3.90e-03	0	44	0	769654784	22	5228
2026-01-20 03:09:11.47	291.94	11.39	-31.6	-35.0	9.6	8.52e-03	0	44	0	771751936	23	5349
2026-01-20 03:09:12.61	291.76	11.33	-31.8	-36.0	8.8	1.56e-02	0	44	0	773849088	23	5850
2026-01-20 03:09:13.47	291.63	11.29	-32.0	-36.2	8.2	4.42e-02	0	45	0	774897664	24	5870
2026-01-20 03:09:14.62	291.44	11.23	-32.1	-36.6	7.9	6.27e-02	0	45	0	776994816	24	6089
2026-01-20 03:09:15.48	291.31	11.19	-32.1	-37.0	7.6	9.41e-02	0	45	0	779091968	24	6290
2026-01-20 03:09:16.62	291.13	11.13	-32.1	-37.0	7.6	1.02e-01	0	44	0	781189120	24	6328
2026-01-20 03:09:17.48	291.00	11.09	-32.1	-37.0	7.6	9.29e-02	0	45	0	783286272	24	6280
2026-01-20 03:09:18.63	290.82	11.03	-32.1	-36.9	7.8	8.47e-02	0	44	0	785383424	24	6229
2026-01-20 03:09:19.49	290.69	10.99	-32.0	-36.5	8.1	9.20e-02	0	44	0	786432000	24	6031
2026-01-20 03:09:20.63	290.51	10.93	-31.9	-35.8	8.6	4.38e-02	0	44	0	788529152	24	5651
2026-01-20 03:09:21.49	290.38	10.89	-31.9	-36.3	8.6	4.12e-02	0	45	0	790626304	23	5978
2026-01-20 03:09:22.63	290.20	10.83	-31.9	-36.3	8.6	4.16e-02	0	44	0	792723456	23	5975
2026-01-20 03:09:23.48	290.08	10.79	-31.8	-35.9	8.8	3.32e-02	0	45	0	793772032	23	5773
2026-01-20 03:09:24.62	289.90	10.73	-31.8	-35.9	8.8	2.85e-02	0	45	0	795869184	23	5776
2026-01-20 03:09:25.48	289.77	10.69	-31.7	-35.5	9.1	2.68e-02	0	45	0	797966336	23	5580
2026-01-20 03:09:26.62	289.60	10.63	-31.5	-34.7	9.7	1.71e-02	0	45	0	800063488	23	5259
2026-01-20 03:09:27.48	289.47	10.59	-31.3	-34.6	10.0	1.05e-02	0	45	0	801112064	22	5304
2026-01-20 03:09:28.62	289.30	10.53	-31.1	-33.9	10.7	7.34e-03	0	44	0	804257792	22	5001
2026-01-20 03:09:29.49	289.17	10.48	-31.0	-33.7	10.8	2.93e-03	0	44	0	805306368	22	4902
2026-01-20 03:09:30.63	289.00	10.43	-31.0	-33.5	10.9	2.09e-03	0	45	0	807403520	22	4841
2026-01-20 03:09:31.49	288.87	10.38	-31.1	-33.8	10.7	2.38e-03	0	45	0	809500672	22	4955
2026-01-20 03:09:32.64	288.70	10.32	-31.1	-34.0	10.6	2.80e-03	0	44	0	811597824	22	5035
2026-01-20 03:09:33.50	288.58	10.28	-31.2	-34.4	10.3	6.36e-03	0	44	0	812646400	22	5202
2026-01-20 03:09:34.65	288.41	10.22	-31.2	-34.5	10.2	8.15e-03	0	45	0	814743552	22	5237
2026-01-20 03:09:35.50	288.28	10.18	-31.2	-34.4	10.2	4.96e-03	0	44	0	816840704	22	5210
2026-01-20 03:09:36.65	288.12	10.12	-31.2	-34.5	10.2	8.25e-03	0	45	0	818937856	22	5253
2026-01-20 03:09:37.51	287.99	10.07	-31.3	-34.7	10.1	9.09e-03	0	45	0	819986432	22	5316
2026-01-20 03:09:38.66	287.83	10.01	-31.2	-34.5	10.1	8.50e-03	0	45	0	822083584	22	5267
2026-01-20 03:09:39.51	287.70	9.97	-31.1	-34.1	10.5	7.00e-03	0	44	0	824180736	22	5080
2026-01-20 03:09:40.66	287.54	9.91	-31.1	-34.1	10.4	4.20e-03	0	45	0	826277888	22	5078
2026-01-20 03:09:41.51	287.42	9.87	-31.1	-34.0	10.5	4.02e-03	0	44	0	828375040	22	5021
2026-01-20 03:09:42.66	287.25	9.81	-30.9	-34.0	10.9	4.52e-03	0	45	0	830472192	21	5145
2026-01-20 03:09:43.51	287.13	9.76	-30.9	-33.8	11.0	3.62e-03	0	44	0	831520768	21	5057
2026-01-20 03:09:44.66	286.97	9.70	-31.0	-33.8	10.6	2.85e-03	0	44	0	833617920	22	4959
2026-01-20 03:09:45.51	286.85	9.66	-31.1	-34.0	10.5	4.31e-03	0	44	0	835715072	22	5018
2026-01-20 03:09:46.66	286.69	9.60	-30.8	-33.5	11.2	3.17e-03	0	44	0	837812224	21	4925
2026-01-20 03:09:47.52	286.57	9.55	-30.8	-33.7	11.0	1.64e-03	0	44	0	838860800	21	5016
2026-01-20 03:09:48.66	286.41	9.49	-30.8	-33.8	10.9	2.00e-03	0	45	0	840957952	21	5064
2026-01-20 03:09:49.53	286.29	9.45	-30.9	-33.9	10.9	4.33e-03	0	44	0	843055104	21	5095
2026-01-20 03:09:50.68	286.13	9.39	-30.9	-34.0	10.8	2.23e-03	0	45	0	845152256	21	5143
2026-01-20 03:09:51.54	286.01	9.34	-31.0	-34.1	10.6	4.99e-03	0	44	0	846200832	21	5197
2026-01-20 03:09:52.69	285.85	9.28	-31.2	-34.6	10.0	7.27e-03	0	44	0	849346560	22	5279
2026-01-20 03:09:53.55	285.73	9.24	-31.3	-34.9	9.9	8.93e-03	0	44	0	850395136	22	5401
2026-01-20 03:09:54.70	285.58	9.18	-31.2	-34.6	10.0	7.18e-03	0	44	0	852492288	22	5290
2026-01-20 03:09:55.55	285.46	9.13	-31.2	-34.3	10.2	5.92e-03	0	45	0	854589440	22	5175
2026-01-20 03:09:56.70	285.31	9.07	-31.0	-33.9	10.5	4.54e-03	0	44	0	856686592	22	5021
2026-01-20 03:09:57.56	285.19	9.03	-31.1	-34.1	10.3	6.97e-03	0	44	0	857735168	22	5077
2026-01-20 03:09:58.71	285.04	8.97	-31.0	-33.8	10.6	3.88e-03	0	45	0	859832320	22	4959
2026-01-20 03:09:59.57	284.92	8.92	-31.0	-34.0	10.3	4.37e-03	0	44	0	861929472	22	5062
2026-01-20 03:10:00.71	284.77	8.86	-31.1	-34.1	10.3	1.08e-02	0	45	0	864026624	22	5116
2026-01-20 03:10:01.57	284.65	8.81	-30.9	-33.6	10.7	7.65e-03	0	44	0	865075200	22	4883
2026-01-20 03:10:02.71	284.50	8.75	-31.0	-33.8	10.6	3.37e-03	0	45	0	867172352	22	4968
2026-01-20 03:10:03.58	284.39	8.71	-30.9	-33.9	10.8	6.31e-03	0	44	0	869269504	21	5092
2026-01-20 03:10:04.72	284.24	8.65	-30.9	-34.1	10.7	3.26e-03	0	44	0	871366656	21	5166
2026-01-20 03:10:05.58	284.13	8.60	-30.7	-33.5	11.1	2.11e-03	0	44	0	873463808	21	4942
2026-01-20 03:10:06.72	283.98	8.54	-30.8	-33.7	10.9	2.00e-03	0	44	0	875560960	21	5021
2026-01-20 03:10:07.58	283.87	8.50	-30.7	-33.2	11.3	5.49e-03	0	44	0	876609536	21	4840
2026-01-20 03:10:08.72	283.72	8.44	-30.6	-33.1	11.3	9.99e-04	0	44	0	878706688	21	4796
2026-01-20 03:10:09.58	283.61	8.39	-30.5	-32.7	11.6	9.02e-04	0	44	0	880803840	21	4647
2026-01-20 03:10:10.73	283.46	8.33	-30.5	-32.8	11.5	6.93e-04	0	44	0	882900992	21	4676
2026-01-20 03:10:11.59	283.35	8.28	-30.5	-32.7	11.5	2.61e-03	0	44	0	883949568	21	4664
2026-01-20 03:10:12.74	283.20	8.22	-30.4	-32.5	11.7	7.21e-04	0	44	0	886046720	21	4576
2026-01-20 03:10:13.60	283.09	8.18	-30.3	-32.6	12.0	4.21e-04	0	45	0	888143872	20	4709
2026-01-20 03:10:14.74	282.95	8.11	-30.2	-32.5	12.1	1.88e-03	0	45	0	890241024	20	4649
2026-01-20 03:10:15.60	282.84	8.07	-30.3	-32.7	12.0	2.84e-04	0	44	0	892338176	20	4735
2026-01-20 03:10:16.74	282.70	8.01	-30.4	-32.9	11.8	4.01e-04	0	44	0	894435328	20	4823
2026-01-20 03:10:17.60	282.59	7.96	-30.4	-33.1	11.7	4.63e-04	0	45	0	895483904	20	4870
2026-01-20 03:10:18.75	282.45	7.90	-30.6	-33.2	11.3	1.09e-03	0	45	0	897581056	21	4820
2026-01-20 03:10:19.60	282.34	7.86	-30.7	-33.4	11.1	1.49e-03	0	44	0	899678208	21	4927
2026-01-20 03:10:20.75	282.20	7.79	-30.7	-33.3	11.1	2.11e-03	0	44	0	901775360	21	4868
2026-01-20 03:10:21.60	282.09	7.75	-30.6	-33.0	11.3	1.68e-03	0	44	0	902823936	21	4773
2026-01-20 03:10:22.75	281.95	7.69	-30.5	-32.7	11.6	8.93e-04	0	45	0	904921088	21	4644
2026-01-20 03:10:23.61	281.85	7.64	-30.3	-32.3	11.8	4.27e-04	0	44	0	907018240	21	4506
2026-01-20 03:10:24.76	281.71	7.58	-30.4	-32.9	11.7	3.46e-04	0	44	0	909115392	20	4811
2026-01-20 03:10:25.62	281.60	7.53	-30.3	-32.8	11.9	2.20e-03	0	44	0	910163968	20	4772
2026-01-20 03:10:26.76	281.46	7.47	-30.3	-32.7	11.9	4.43e-04	0	45	0	912261120	20	4742
2026-01-20 03:10:27.63	281.36	7.43	-30.4	-33.1	11.6	5.27e-04	0	44	0	914358272	20	4910
2026-01-20 03:10:28.77	281.22	7.37	-30.5	-32.7	11.5	8.36e-04	0	44	0	916455424	21	4648
2026-01-20 03:10:29.63	281.12	7.32	-30.3	-32.2	11.8	4.88e-04	0	44	0	918552576	21	4492
2026-01-20 03:10:30.78	280.98	7.26	-29.3	-32.0	11.6	4.52e-04	0	45	0	920649728	20	4912
2026-01-20 03:10:31.63	280.88	7.21	-30.5	-32.9	11.3	9.26e-04	0	44	0	921698304	21	4746
2026-01-20 03:10:32.78	280.74	7.15	-30.5	-33.4	10.5	1.15e-03	0	45	0	923795456	20	5006
2026-01-20 03:10:33.64	280.64	7.11	-30.5	-32.9	11.3	1.12e-03	0	44	0	925892608	21	4733
2026-01-20 03:10:34.79	280.51	7.04	-33.1	-45.3	3.8	4.02e-02	0	44	104	926941184	26	14640
2026-01-20 03:10:35.65	280.41	7.00	-33.6	-45.9	3.8	1.49e+00	0	45	104	926941184	27	14908

#Closed at: 2026-01-20 03:10:36
#Recorded file [926 MB]: D:/data/31010_260120_060219.dat