passes_logs/2026/01/20/R2M6_AANII_01/R2M6_AANII_01__20260120_115449_AQUA_rec.log

#Pass ID: 20260120_115449_AQUA
#Satellite: AQUA
#Configuration: AQUA
#almurnet v.1.7.20240730
#Start time: 2026-01-20 11:54:49

#Version: 2.2.20231116
#Station: R2M6_AANII_01
#Location: 30.233357 lon 59.946436 lat
#TLE: 1 27424U 02022A   26019.60905539  .00000968  00000+0  20374-3 0  9991
#TLE: 2 27424  98.4090 346.1140 0001992  72.7126 342.3847 14.61830366261565

#Time	Az	El	Level	Level2	SNR	BER	BlckErr	Temp	State	Recorded	gain1	gain2
2026-01-20 11:54:49.28	155.37	6.96	-31.0	-36.6	5.2	7.11e-01	0	41	0	0	23	6877
2026-01-20 11:54:50.28	155.36	7.04	-31.6	-38.5	5.0	7.04e-01	0	42	104	0	24	7940
2026-01-20 11:54:51.29	155.36	7.12	-31.5	-37.3	13.9	6.05e-01	0	42	0	0	24	7010
2026-01-20 11:54:52.29	155.35	7.21	-31.5	-37.1	14.3	6.05e-01	0	42	0	1572864	24	6882
2026-01-20 11:54:53.29	155.34	7.29	-31.5	-37.2	14.2	6.06e-01	0	42	0	3670016	24	6897
2026-01-20 11:54:54.29	155.34	7.37	-31.3	-36.4	14.8	6.07e-01	0	42	0	5242880	24	6473
2026-01-20 11:54:55.29	155.33	7.46	-31.1	-35.8	15.2	6.05e-01	0	42	0	7340032	24	6143
2026-01-20 11:54:56.30	155.32	7.54	-30.8	-35.4	15.8	6.08e-01	0	42	0	9437184	23	6112
2026-01-20 11:54:57.31	155.31	7.63	-30.6	-34.8	16.3	6.07e-01	0	42	0	11010048	23	5803
2026-01-20 11:54:58.31	155.31	7.71	-30.5	-34.5	16.4	6.07e-01	0	42	0	13107200	23	5701
2026-01-20 11:54:59.32	155.30	7.80	-30.6	-34.9	16.1	6.05e-01	0	42	0	14680064	23	5896
2026-01-20 11:55:00.31	155.29	7.88	-30.6	-34.8	16.2	6.05e-01	0	42	0	16777216	23	5844
2026-01-20 11:55:01.30	155.28	7.97	-30.4	-34.3	16.7	6.05e-01	0	42	0	18350080	23	5583
2026-01-20 11:55:02.30	155.28	8.05	-30.2	-34.1	17.2	6.08e-01	0	42	0	20447232	22	5599
2026-01-20 11:55:03.30	155.27	8.14	-30.4	-34.7	16.7	6.07e-01	0	42	0	22544384	22	5888
2026-01-20 11:55:04.30	155.26	8.22	-30.3	-34.3	17.0	6.05e-01	0	42	0	24117248	22	5669
2026-01-20 11:55:05.31	155.25	8.31	-30.3	-34.2	17.1	6.04e-01	0	42	0	26214400	22	5615
2026-01-20 11:55:06.31	155.25	8.40	-30.3	-34.2	17.1	6.07e-01	0	42	0	27787264	22	5636
2026-01-20 11:55:07.32	155.24	8.49	-30.4	-34.3	17.1	6.07e-01	0	42	0	29884416	22	5650
2026-01-20 11:55:08.33	155.23	8.57	-30.6	-35.0	16.6	6.06e-01	0	42	0	31457280	22	5986
2026-01-20 11:55:09.34	155.22	8.66	-30.6	-34.9	16.6	6.06e-01	0	42	0	33554432	22	5950
2026-01-20 11:55:10.33	155.21	8.75	-30.5	-34.4	17.0	6.05e-01	0	42	0	35651584	22	5675
2026-01-20 11:55:11.34	155.21	8.84	-30.5	-34.6	17.0	6.04e-01	0	42	0	37224448	22	5726
2026-01-20 11:55:12.34	155.20	8.93	-30.4	-34.1	17.3	6.06e-01	0	42	0	39321600	22	5534
2026-01-20 11:55:13.33	155.19	9.02	-30.4	-34.2	17.3	6.05e-01	0	42	0	41418752	22	5563
2026-01-20 11:55:14.33	155.18	9.11	-30.4	-34.3	17.3	6.06e-01	0	43	0	42991616	22	5597
2026-01-20 11:55:15.34	155.17	9.20	-30.5	-34.4	17.2	6.07e-01	0	42	0	45088768	22	5683
2026-01-20 11:55:16.34	155.16	9.29	-30.3	-33.9	17.4	6.07e-01	0	42	0	46661632	22	5476
2026-01-20 11:55:17.35	155.15	9.38	-30.2	-33.5	17.7	6.06e-01	0	42	0	48758784	22	5310
2026-01-20 11:55:18.35	155.14	9.47	-30.1	-33.4	17.8	6.06e-01	0	43	0	50331648	22	5266
2026-01-20 11:55:19.35	155.14	9.56	-30.2	-33.6	17.7	6.07e-01	0	42	0	52428800	22	5351
2026-01-20 11:55:20.36	155.13	9.66	-30.2	-33.7	17.7	6.07e-01	0	43	0	54525952	22	5375
2026-01-20 11:55:21.36	155.12	9.75	-30.1	-33.5	17.7	6.07e-01	0	43	0	56098816	22	5323
2026-01-20 11:55:22.36	155.11	9.84	-30.1	-33.6	17.6	6.08e-01	0	43	0	58195968	22	5336
2026-01-20 11:55:23.37	155.10	9.94	-30.2	-33.8	17.5	6.07e-01	0	43	0	59768832	22	5446
2026-01-20 11:55:24.37	155.09	10.03	-30.1	-33.5	17.7	6.05e-01	0	43	0	61865984	22	5302
2026-01-20 11:55:25.38	155.08	10.13	-30.1	-33.4	17.8	6.06e-01	0	43	0	63438848	22	5240
2026-01-20 11:55:26.37	155.07	10.22	-30.1	-33.5	17.8	6.06e-01	0	42	0	65536000	22	5267
2026-01-20 11:55:27.37	155.06	10.31	-30.2	-33.7	17.6	6.05e-01	0	43	0	67633152	22	5377
2026-01-20 11:55:28.37	155.05	10.41	-30.3	-33.8	17.6	6.06e-01	0	43	0	69206016	22	5420
2026-01-20 11:55:29.38	155.04	10.51	-30.3	-33.9	17.6	6.06e-01	0	43	0	71303168	22	5418
2026-01-20 11:55:30.37	155.03	10.60	-30.3	-33.7	17.8	6.05e-01	0	43	0	72876032	22	5309
2026-01-20 11:55:31.38	155.02	10.70	-30.3	-33.8	17.7	6.06e-01	0	43	0	74973184	22	5367
2026-01-20 11:55:32.38	155.01	10.80	-30.4	-33.8	17.8	6.04e-01	0	43	0	77070336	22	5319
2026-01-20 11:55:33.38	155.00	10.89	-30.4	-33.7	17.9	6.07e-01	0	43	0	78643200	22	5285
2026-01-20 11:55:34.39	154.99	10.99	-30.4	-33.6	17.9	6.06e-01	0	43	0	80740352	22	5248
2026-01-20 11:55:35.38	154.98	11.09	-30.3	-33.4	18.0	6.06e-01	0	43	0	82313216	22	5150
2026-01-20 11:55:36.39	154.97	11.19	-30.2	-33.1	18.3	6.04e-01	0	43	0	84410368	22	5047
2026-01-20 11:55:37.40	154.96	11.29	-30.2	-33.2	18.2	6.08e-01	0	43	0	86507520	22	5095
2026-01-20 11:55:38.40	154.95	11.39	-30.1	-32.9	18.4	6.06e-01	0	43	0	88080384	22	4976
2026-01-20 11:55:39.41	154.94	11.49	-30.2	-33.3	18.1	6.05e-01	0	43	0	90177536	22	5141
2026-01-20 11:55:40.41	154.93	11.59	-30.2	-33.4	18.1	6.07e-01	0	43	0	91750400	22	5162
2026-01-20 11:55:41.40	154.92	11.69	-30.1	-33.1	18.3	6.06e-01	0	43	0	93847552	22	5051
2026-01-20 11:55:42.41	154.91	11.79	-30.2	-33.2	18.2	6.07e-01	0	43	0	95420416	22	5112
2026-01-20 11:55:43.41	154.90	11.89	-30.2	-33.1	18.2	6.07e-01	0	43	0	97517568	22	5052
2026-01-20 11:55:44.41	154.88	12.00	-30.2	-33.2	18.3	6.06e-01	0	43	0	99614720	22	5072
2026-01-20 11:55:45.42	154.87	12.10	-30.2	-33.1	18.3	6.06e-01	0	43	0	101187584	22	5040
2026-01-20 11:55:46.42	154.86	12.20	-30.0	-32.7	18.6	6.06e-01	0	43	0	103284736	22	4906
2026-01-20 11:55:47.43	154.85	12.31	-30.0	-32.5	18.7	6.07e-01	0	43	0	104857600	22	4815
2026-01-20 11:55:48.43	154.84	12.41	-30.2	-33.3	18.2	6.07e-01	0	43	0	106954752	22	5115
2026-01-20 11:55:49.43	154.83	12.52	-30.2	-33.2	18.3	6.08e-01	0	43	0	109051904	22	5087
2026-01-20 11:55:50.44	154.82	12.62	-30.0	-32.6	18.6	6.06e-01	0	43	0	110624768	22	4853
2026-01-20 11:55:51.44	154.80	12.73	-30.1	-32.7	18.6	6.07e-01	0	43	0	112721920	22	4884
2026-01-20 11:55:52.44	154.79	12.83	-30.1	-32.9	18.5	6.06e-01	0	43	0	114294784	22	4935
2026-01-20 11:55:53.44	154.78	12.94	-30.1	-32.9	18.5	6.07e-01	0	43	0	116391936	22	4944
2026-01-20 11:55:54.45	154.77	13.05	-30.1	-32.7	18.6	6.07e-01	0	43	0	118489088	22	4891
2026-01-20 11:55:55.45	154.75	13.16	-30.1	-32.9	18.5	6.06e-01	0	43	0	120061952	22	4955
2026-01-20 11:55:56.45	154.74	13.27	-30.1	-32.9	18.6	6.06e-01	0	43	0	122159104	22	4938
2026-01-20 11:55:57.46	154.73	13.38	-30.1	-32.9	18.5	6.05e-01	0	43	0	123731968	22	4934
2026-01-20 11:55:58.46	154.72	13.49	-30.3	-33.3	18.3	6.08e-01	0	43	0	125829120	22	5096
2026-01-20 11:55:59.46	154.70	13.60	-30.4	-33.7	18.0	6.07e-01	0	43	0	127401984	22	5252
2026-01-20 11:56:00.46	154.69	13.71	-30.4	-33.7	18.1	6.08e-01	0	43	0	129499136	22	5231
2026-01-20 11:56:01.46	154.68	13.82	-30.4	-33.6	18.1	6.07e-01	0	43	0	131596288	22	5204
2026-01-20 11:56:02.46	154.66	13.93	-30.5	-33.9	18.0	6.05e-01	0	43	0	133169152	22	5325
2026-01-20 11:56:03.47	154.65	14.04	-30.6	-34.0	17.8	6.07e-01	0	43	0	135266304	22	5375
2026-01-20 11:56:04.47	154.64	14.15	-30.4	-33.6	18.2	6.07e-01	0	43	0	136839168	22	5196
2026-01-20 11:56:05.48	154.62	14.27	-30.4	-33.4	18.3	6.07e-01	0	43	0	138936320	22	5123
2026-01-20 11:56:06.48	154.61	14.38	-30.3	-33.2	18.4	6.07e-01	0	43	0	140509184	22	5057
2026-01-20 11:56:07.48	154.59	14.50	-30.3	-33.4	18.3	6.05e-01	0	44	0	142606336	22	5140
2026-01-20 11:56:08.48	154.58	14.61	-30.5	-33.9	18.0	6.06e-01	0	43	0	144703488	22	5332
2026-01-20 11:56:09.47	154.57	14.73	-30.3	-33.5	18.2	6.05e-01	0	43	0	146276352	22	5167
2026-01-20 11:56:10.48	154.55	14.85	-30.1	-32.9	18.6	6.06e-01	0	43	0	148373504	22	4950
2026-01-20 11:56:11.47	154.54	14.96	-30.0	-32.7	18.8	6.06e-01	0	43	0	149946368	22	4882
2026-01-20 11:56:12.48	154.52	15.08	-30.0	-32.5	18.9	6.06e-01	0	43	0	152043520	22	4796
2026-01-20 11:56:13.47	154.51	15.20	-29.8	-32.6	19.1	6.08e-01	0	43	0	153616384	21	4947
2026-01-20 11:56:14.48	154.49	15.32	-29.9	-32.7	19.1	6.06e-01	0	44	0	155713536	21	4999
2026-01-20 11:56:15.48	154.48	15.44	-29.9	-32.9	19.0	6.06e-01	0	43	0	157810688	21	5059
2026-01-20 11:56:16.48	154.46	15.56	-29.9	-32.9	19.0	6.07e-01	0	43	0	159383552	21	5056
2026-01-20 11:56:17.49	154.45	15.68	-30.0	-33.2	18.8	6.05e-01	0	43	0	161480704	21	5165
2026-01-20 11:56:18.49	154.43	15.80	-30.1	-33.3	18.7	6.06e-01	0	43	0	163577856	21	5197
2026-01-20 11:56:19.49	154.41	15.92	-30.0	-33.1	18.9	6.07e-01	0	44	0	165150720	21	5113
2026-01-20 11:56:20.50	154.40	16.05	-29.9	-32.8	19.0	6.05e-01	0	43	0	167247872	21	5028
2026-01-20 11:56:21.50	154.38	16.17	-30.0	-33.1	18.9	6.06e-01	0	43	0	168820736	21	5140
2026-01-20 11:56:22.50	154.37	16.30	-30.0	-33.0	19.0	6.07e-01	0	43	0	170917888	21	5092
2026-01-20 11:56:23.50	154.35	16.42	-29.9	-32.8	19.1	6.05e-01	0	43	0	172490752	21	5017
2026-01-20 11:56:24.51	154.33	16.55	-30.0	-33.0	19.0	6.06e-01	0	43	0	174587904	21	5080
2026-01-20 11:56:25.50	154.32	16.67	-30.0	-33.1	18.9	6.05e-01	0	44	0	176685056	21	5127
2026-01-20 11:56:26.51	154.30	16.80	-30.0	-33.1	18.9	6.07e-01	0	44	0	178257920	21	5158
2026-01-20 11:56:27.51	154.28	16.93	-30.0	-33.1	18.8	6.06e-01	0	44	0	180355072	21	5150
2026-01-20 11:56:28.52	154.26	17.06	-30.0	-33.1	18.9	6.05e-01	0	43	0	181927936	21	5143
2026-01-20 11:56:29.52	154.25	17.19	-30.1	-33.3	18.8	6.07e-01	0	44	0	184025088	21	5220
2026-01-20 11:56:30.52	154.23	17.32	-30.0	-33.1	18.9	6.07e-01	0	44	0	185597952	21	5148
2026-01-20 11:56:31.53	154.21	17.45	-30.0	-33.0	19.0	6.03e-01	0	44	0	187695104	21	5072
2026-01-20 11:56:32.53	154.19	17.58	-30.0	-32.9	19.1	6.05e-01	0	44	0	189792256	21	5056
2026-01-20 11:56:33.53	154.17	17.71	-30.0	-33.1	19.0	6.07e-01	0	43	0	191365120	21	5111
2026-01-20 11:56:34.53	154.16	17.85	-30.0	-33.0	19.0	6.06e-01	0	44	0	193462272	21	5083
2026-01-20 11:56:35.53	154.14	17.98	-30.0	-33.0	19.1	6.05e-01	0	44	0	195559424	21	5062
2026-01-20 11:56:36.54	154.12	18.12	-29.9	-32.7	19.3	6.05e-01	0	43	0	197132288	21	4944
2026-01-20 11:56:37.53	154.10	18.25	-30.1	-33.1	19.1	6.06e-01	0	44	0	199229440	21	5090
2026-01-20 11:56:38.54	154.08	18.39	-30.1	-33.2	19.0	6.03e-01	0	44	0	200802304	21	5109
2026-01-20 11:56:39.54	154.06	18.53	-30.1	-33.2	19.0	6.05e-01	0	43	0	202899456	21	5128
2026-01-20 11:56:40.55	154.04	18.67	-30.3	-33.5	18.8	6.06e-01	0	44	0	204472320	21	5249
2026-01-20 11:56:41.55	154.02	18.81	-30.3	-33.6	18.8	6.07e-01	0	44	0	206569472	21	5284
2026-01-20 11:56:42.55	154.00	18.95	-30.3	-33.7	18.7	6.07e-01	0	44	0	208666624	21	5312
2026-01-20 11:56:43.56	153.98	19.09	-30.3	-33.7	18.7	6.07e-01	0	44	0	210239488	21	5309
2026-01-20 11:56:44.57	153.96	19.23	-30.3	-33.6	18.8	6.06e-01	0	44	0	212336640	21	5290
2026-01-20 11:56:45.57	153.94	19.37	-30.3	-33.5	18.9	6.06e-01	0	44	0	213909504	21	5227
2026-01-20 11:56:46.58	153.92	19.52	-30.3	-33.6	18.9	6.06e-01	0	44	0	216006656	21	5241
2026-01-20 11:56:47.58	153.89	19.66	-30.3	-33.5	18.9	6.07e-01	0	44	0	218103808	21	5220
2026-01-20 11:56:48.59	153.87	19.81	-30.3	-33.5	18.9	6.05e-01	0	44	0	219676672	21	5206
2026-01-20 11:56:49.59	153.85	19.96	-30.3	-33.5	18.9	6.06e-01	0	44	0	221773824	21	5217
2026-01-20 11:56:50.60	153.83	20.10	-30.3	-33.5	18.9	6.06e-01	0	44	0	223346688	21	5207
2026-01-20 11:56:51.60	153.81	20.25	-30.2	-33.3	19.1	6.06e-01	0	44	0	225443840	21	5131
2026-01-20 11:56:52.59	153.78	20.40	-30.1	-33.0	19.2	6.06e-01	0	43	0	227016704	21	5034
2026-01-20 11:56:53.59	153.76	20.55	-30.1	-33.1	19.2	6.06e-01	0	44	0	229113856	21	5048
2026-01-20 11:56:54.60	153.74	20.70	-30.2	-33.3	19.1	6.04e-01	0	44	0	231211008	21	5124
2026-01-20 11:56:55.60	153.71	20.85	-30.2	-33.3	19.1	6.06e-01	0	43	0	232783872	21	5131
2026-01-20 11:56:56.60	153.69	21.01	-30.2	-33.2	19.1	6.07e-01	0	44	0	234881024	21	5113
2026-01-20 11:56:57.61	153.66	21.16	-30.3	-33.4	19.1	6.05e-01	0	44	0	236453888	21	5168
2026-01-20 11:56:58.61	153.64	21.32	-30.2	-33.4	19.1	6.07e-01	0	44	0	238551040	21	5153
2026-01-20 11:56:59.61	153.62	21.47	-30.2	-33.3	19.1	6.07e-01	0	44	0	240648192	21	5136
2026-01-20 11:57:00.61	153.59	21.63	-30.3	-33.5	19.0	6.08e-01	0	44	0	242221056	21	5202
2026-01-20 11:57:01.61	153.57	21.79	-30.2	-33.3	19.2	6.06e-01	0	44	0	244318208	21	5127
2026-01-20 11:57:02.62	153.54	21.95	-30.3	-33.4	19.1	6.05e-01	0	44	0	245891072	21	5158
2026-01-20 11:57:03.62	153.51	22.11	-30.4	-33.6	19.0	6.05e-01	0	44	0	247988224	21	5226
2026-01-20 11:57:04.62	153.49	22.27	-30.3	-33.5	19.1	6.04e-01	0	44	0	249561088	21	5202
2026-01-20 11:57:05.62	153.46	22.43	-30.3	-33.4	19.2	6.06e-01	0	44	0	251658240	21	5134
2026-01-20 11:57:06.63	153.43	22.60	-30.2	-33.1	19.4	6.05e-01	0	44	0	253755392	21	5039
2026-01-20 11:57:07.63	153.41	22.76	-30.2	-33.1	19.3	6.07e-01	0	44	0	255328256	21	5048
2026-01-20 11:57:08.63	153.38	22.93	-30.2	-33.3	19.3	6.06e-01	0	44	0	257425408	21	5097
2026-01-20 11:57:09.64	153.35	23.10	-30.2	-33.1	19.4	6.07e-01	0	44	0	258998272	21	5049
2026-01-20 11:57:10.64	153.32	23.27	-30.2	-33.1	19.4	6.07e-01	0	44	0	261095424	21	5049
2026-01-20 11:57:11.64	153.29	23.44	-30.4	-33.6	19.1	6.06e-01	0	44	0	263192576	21	5216
2026-01-20 11:57:12.64	153.27	23.61	-30.3	-33.4	19.2	6.06e-01	0	44	0	264765440	21	5148
2026-01-20 11:57:13.65	153.24	23.78	-30.4	-33.6	19.1	6.08e-01	0	44	0	266862592	21	5220
2026-01-20 11:57:14.65	153.21	23.96	-30.4	-33.6	19.1	6.07e-01	0	44	0	268435456	21	5217
2026-01-20 11:57:15.66	153.18	24.13	-30.4	-33.6	19.1	6.07e-01	0	44	0	270532608	21	5223
2026-01-20 11:57:16.65	153.15	24.31	-30.4	-33.7	19.1	6.07e-01	0	44	0	272629760	21	5248
2026-01-20 11:57:17.65	153.12	24.48	-30.3	-33.4	19.2	6.06e-01	0	44	0	274202624	21	5138
2026-01-20 11:57:18.66	153.08	24.66	-30.4	-33.7	19.0	6.07e-01	0	44	0	276299776	21	5254
2026-01-20 11:57:19.66	153.05	24.84	-30.4	-33.6	19.2	6.06e-01	0	44	0	277872640	21	5202
2026-01-20 11:57:20.68	153.02	25.03	-30.5	-33.8	19.1	6.04e-01	0	44	0	279969792	21	5296
2026-01-20 11:57:21.68	152.99	25.21	-30.4	-33.7	19.1	6.05e-01	0	44	0	281542656	21	5258
2026-01-20 11:57:22.68	152.95	25.39	-30.2	-33.2	19.4	6.07e-01	0	44	0	283639808	21	5066
2026-01-20 11:57:23.68	152.92	25.58	-30.1	-33.0	19.5	6.08e-01	0	44	0	285736960	21	4986
2026-01-20 11:57:24.69	152.89	25.77	-30.2	-33.1	19.5	6.05e-01	0	44	0	287309824	21	5015
2026-01-20 11:57:25.69	152.85	25.95	-30.2	-33.2	19.5	6.07e-01	0	44	0	289406976	21	5058
2026-01-20 11:57:26.69	152.82	26.14	-30.3	-33.3	19.4	6.05e-01	0	44	0	290979840	21	5091
2026-01-20 11:57:27.69	152.78	26.33	-30.3	-33.3	19.4	6.08e-01	0	44	0	293076992	21	5105
2026-01-20 11:57:28.69	152.75	26.53	-30.3	-33.4	19.4	6.06e-01	0	44	0	295174144	21	5129
2026-01-20 11:57:29.69	152.71	26.72	-30.3	-33.4	19.3	6.04e-01	0	44	0	296747008	21	5145
2026-01-20 11:57:30.68	152.67	26.91	-30.3	-33.4	19.4	6.07e-01	0	44	0	298844160	21	5127
2026-01-20 11:57:31.69	152.64	27.11	-30.4	-33.7	19.2	6.08e-01	0	44	0	300417024	21	5234
2026-01-20 11:57:32.69	152.60	27.31	-30.3	-33.5	19.3	6.07e-01	0	44	0	302514176	21	5149
2026-01-20 11:57:33.70	152.56	27.51	-30.3	-33.2	19.5	6.06e-01	0	44	0	304087040	21	5058
2026-01-20 11:57:34.70	152.52	27.71	-30.1	-32.8	19.8	6.05e-01	0	44	0	306184192	21	4916
2026-01-20 11:57:35.70	152.48	27.92	-29.9	-32.4	20.0	6.07e-01	0	44	0	308281344	21	4768
2026-01-20 11:57:36.70	152.44	28.12	-30.0	-32.5	20.0	6.05e-01	0	44	0	309854208	21	4819
2026-01-20 11:57:37.71	152.40	28.33	-30.0	-32.7	19.8	6.06e-01	0	44	0	311951360	21	4866
2026-01-20 11:57:38.71	152.36	28.54	-30.1	-32.7	19.8	6.04e-01	0	44	0	313524224	21	4871
2026-01-20 11:57:39.71	152.32	28.75	-30.2	-33.1	19.6	6.06e-01	0	44	0	315621376	21	5000
2026-01-20 11:57:40.71	152.28	28.96	-30.2	-33.0	19.6	6.06e-01	0	44	0	317718528	21	4994
2026-01-20 11:57:41.70	152.23	29.17	-30.2	-33.1	19.6	6.05e-01	0	44	0	319291392	21	5020
2026-01-20 11:57:42.70	152.19	29.38	-30.2	-32.9	19.7	6.06e-01	0	44	0	321388544	21	4948
2026-01-20 11:57:43.70	152.15	29.60	-30.0	-32.5	20.0	6.05e-01	0	44	0	322961408	21	4804
2026-01-20 11:57:44.71	152.10	29.82	-29.8	-32.0	20.3	6.06e-01	0	44	0	325058560	21	4643
2026-01-20 11:57:45.71	152.06	30.04	-29.7	-31.7	20.5	6.07e-01	0	44	0	326631424	21	4547
2026-01-20 11:57:46.71	152.01	30.26	-29.7	-31.8	20.5	6.06e-01	0	44	0	328728576	21	4569
2026-01-20 11:57:47.71	151.96	30.49	-29.8	-32.1	20.3	6.05e-01	0	44	0	330825728	21	4658
2026-01-20 11:57:48.71	151.91	30.71	-30.0	-32.4	20.1	6.05e-01	0	44	0	332398592	21	4778
2026-01-20 11:57:49.71	151.87	30.94	-30.0	-32.5	20.0	6.04e-01	0	44	0	334495744	21	4823
2026-01-20 11:57:50.72	151.82	31.17	-30.0	-32.6	20.0	6.05e-01	0	44	0	336068608	21	4829
2026-01-20 11:57:51.73	151.77	31.40	-30.2	-32.9	19.8	6.07e-01	0	44	0	338165760	21	4941
2026-01-20 11:57:52.72	151.72	31.63	-30.0	-32.6	20.0	6.07e-01	0	44	0	339738624	21	4825
2026-01-20 11:57:53.72	151.66	31.87	-29.8	-32.0	20.4	6.07e-01	0	44	0	341835776	21	4622
2026-01-20 11:57:54.73	151.61	32.11	-29.8	-32.0	20.3	6.05e-01	0	44	0	343932928	21	4648
2026-01-20 11:57:55.73	151.56	32.35	-30.0	-32.4	20.1	6.06e-01	0	44	0	345505792	21	4778
2026-01-20 11:57:56.73	151.50	32.59	-30.2	-32.9	19.8	6.06e-01	0	44	0	347602944	21	4948
2026-01-20 11:57:57.73	151.45	32.83	-30.2	-33.0	19.8	6.08e-01	0	44	0	349175808	21	4966
2026-01-20 11:57:58.74	151.39	33.08	-30.1	-32.6	20.0	6.08e-01	0	44	0	351272960	21	4842
2026-01-20 11:57:59.74	151.34	33.32	-30.1	-32.7	20.0	6.07e-01	0	44	0	353370112	21	4855
2026-01-20 11:58:00.75	151.28	33.58	-30.3	-33.3	19.6	6.07e-01	0	44	0	354942976	21	5074
2026-01-20 11:58:01.75	151.22	33.83	-30.4	-33.5	19.5	6.03e-01	0	44	0	357040128	21	5161
2026-01-20 11:58:02.75	151.16	34.08	-30.4	-33.6	19.4	6.06e-01	0	44	0	358612992	21	5191
2026-01-20 11:58:03.75	151.10	34.34	-30.5	-33.8	19.3	6.05e-01	0	44	0	360710144	21	5250
2026-01-20 11:58:04.76	151.04	34.60	-30.5	-33.8	19.3	6.06e-01	0	44	0	362807296	21	5270
2026-01-20 11:58:05.76	150.97	34.86	-30.4	-33.6	19.4	6.07e-01	0	44	0	364380160	21	5204
2026-01-20 11:58:06.76	150.91	35.12	-30.5	-33.8	19.3	6.06e-01	0	44	0	366477312	21	5264
2026-01-20 11:58:07.75	150.85	35.38	-30.7	-33.8	19.1	6.07e-01	0	44	0	368050176	22	5125
2026-01-20 11:58:08.76	150.78	35.65	-30.7	-33.8	19.0	6.04e-01	0	44	0	370147328	22	5152
2026-01-20 11:58:09.76	150.71	35.92	-30.9	-34.2	18.8	6.06e-01	0	44	0	371720192	22	5267
2026-01-20 11:58:10.76	150.64	36.19	-31.0	-34.5	18.6	6.05e-01	0	44	0	373817344	22	5407
2026-01-20 11:58:11.76	150.57	36.47	-31.1	-34.8	18.5	6.07e-01	0	44	0	375914496	22	5518
2026-01-20 11:58:12.76	150.50	36.74	-31.1	-34.7	18.5	6.06e-01	0	44	0	377487360	22	5494
2026-01-20 11:58:13.76	150.43	37.02	-31.0	-34.5	18.6	6.07e-01	0	44	0	379584512	22	5391
2026-01-20 11:58:14.77	150.35	37.31	-31.1	-34.4	18.4	6.05e-01	0	44	0	381157376	23	5237
2026-01-20 11:58:15.77	150.28	37.59	-31.4	-35.0	18.0	6.08e-01	0	44	0	383254528	23	5504
2026-01-20 11:58:16.77	150.20	37.88	-31.3	-35.0	18.0	6.08e-01	0	44	0	384827392	23	5478
2026-01-20 11:58:17.78	150.12	38.17	-31.4	-35.2	17.9	6.07e-01	0	44	0	386924544	23	5565
2026-01-20 11:58:18.78	150.05	38.46	-31.3	-35.1	18.0	6.05e-01	0	44	0	389021696	23	5523
2026-01-20 11:58:19.79	149.96	38.76	-31.3	-34.9	18.0	6.07e-01	0	44	0	390594560	23	5473
2026-01-20 11:58:20.78	149.88	39.05	-31.3	-34.8	18.1	6.08e-01	0	44	0	392691712	23	5418
2026-01-20 11:58:21.78	149.80	39.35	-31.2	-34.8	18.2	6.07e-01	0	44	0	394788864	23	5393
2026-01-20 11:58:22.78	149.71	39.66	-31.4	-35.1	17.9	6.04e-01	0	44	0	396361728	23	5548
2026-01-20 11:58:23.79	149.62	39.96	-31.4	-35.2	17.9	6.07e-01	0	44	0	398458880	23	5564
2026-01-20 11:58:24.79	149.53	40.27	-31.4	-35.0	18.0	6.07e-01	0	44	0	400031744	23	5495
2026-01-20 11:58:25.80	149.44	40.59	-31.2	-34.5	18.3	6.06e-01	0	44	0	402128896	23	5301
2026-01-20 11:58:26.80	149.35	40.90	-31.4	-35.1	18.0	6.06e-01	0	44	0	403701760	23	5517
2026-01-20 11:58:27.80	149.25	41.22	-31.2	-34.6	18.3	6.05e-01	0	44	0	405798912	23	5325
2026-01-20 11:58:28.80	149.16	41.53	-31.1	-34.2	18.5	6.07e-01	0	44	0	407896064	23	5165
2026-01-20 11:58:29.80	149.06	41.86	-31.0	-34.1	18.6	6.05e-01	0	44	0	409468928	23	5122
2026-01-20 11:58:30.80	148.96	42.18	-31.0	-34.2	18.6	6.08e-01	0	44	0	411566080	23	5160
2026-01-20 11:58:31.80	148.85	42.51	-30.9	-33.8	18.8	6.06e-01	0	44	0	413138944	23	5009
2026-01-20 11:58:32.80	148.75	42.84	-30.9	-33.8	18.8	6.07e-01	0	44	0	415236096	23	5018
2026-01-20 11:58:33.80	148.64	43.17	-30.8	-33.5	19.0	6.07e-01	0	44	0	416808960	23	4922
2026-01-20 11:58:34.80	148.53	43.51	-30.7	-33.3	19.1	6.05e-01	0	44	0	418906112	23	4853
2026-01-20 11:58:35.80	148.42	43.85	-31.1	-34.2	18.6	6.07e-01	0	44	0	421003264	23	5172
2026-01-20 11:58:36.81	148.30	44.20	-31.0	-34.1	18.6	6.07e-01	0	44	0	422576128	23	5128
2026-01-20 11:58:37.81	148.18	44.54	-30.7	-33.1	19.2	6.07e-01	0	44	0	424673280	23	4778
2026-01-20 11:58:38.81	148.06	44.89	-30.5	-32.7	19.5	6.05e-01	0	44	0	426246144	23	4624
2026-01-20 11:58:39.82	147.94	45.25	-30.6	-33.1	19.3	6.06e-01	0	44	0	428343296	23	4753
2026-01-20 11:58:40.82	147.81	45.60	-30.6	-32.9	19.4	6.06e-01	0	44	0	429916160	23	4701
2026-01-20 11:58:41.82	147.68	45.96	-30.3	-32.7	19.8	6.05e-01	0	44	0	432013312	22	4729
2026-01-20 11:58:42.83	147.55	46.32	-30.4	-33.0	19.6	6.07e-01	0	44	0	434110464	22	4861
2026-01-20 11:58:43.83	147.42	46.69	-30.7	-33.8	19.2	6.05e-01	0	44	0	435683328	22	5137
2026-01-20 11:58:44.83	147.28	47.06	-30.6	-33.6	19.2	6.07e-01	0	44	0	437780480	22	5063
2026-01-20 11:58:45.84	147.13	47.43	-30.4	-32.9	19.7	6.06e-01	0	44	0	439877632	22	4816
2026-01-20 11:58:46.84	146.99	47.80	-30.8	-34.0	19.1	6.05e-01	0	44	0	441450496	22	5193
2026-01-20 11:58:47.84	146.84	48.18	-30.8	-34.1	19.0	6.08e-01	0	44	0	443547648	22	5219
2026-01-20 11:58:48.84	146.68	48.56	-30.7	-33.8	19.2	6.04e-01	0	44	0	445120512	22	5125
2026-01-20 11:58:49.85	146.53	48.95	-30.6	-33.6	19.3	6.06e-01	0	44	0	447217664	22	5042
2026-01-20 11:58:50.85	146.36	49.34	-30.8	-34.0	19.1	6.07e-01	0	44	0	448790528	22	5199
2026-01-20 11:58:51.85	146.20	49.73	-30.8	-34.0	19.1	6.10e-01	0	44	0	450887680	22	5214
2026-01-20 11:58:52.86	146.03	50.12	-30.6	-33.5	19.4	6.05e-01	0	44	0	452984832	22	5019
2026-01-20 11:58:53.86	145.85	50.52	-30.3	-32.6	19.9	6.06e-01	0	44	0	454557696	22	4705
2026-01-20 11:58:54.86	145.67	50.92	-30.4	-33.1	19.6	6.04e-01	0	44	0	456654848	22	4868
2026-01-20 11:58:55.86	145.49	51.32	-30.4	-33.0	19.7	6.06e-01	0	44	0	458227712	22	4853
2026-01-20 11:58:56.86	145.30	51.73	-30.3	-32.7	19.9	6.06e-01	0	44	0	460324864	22	4734
2026-01-20 11:58:57.85	145.10	52.14	-30.6	-33.4	19.4	6.05e-01	0	44	0	461897728	22	4998
2026-01-20 11:58:58.86	144.90	52.55	-30.3	-32.8	19.8	6.06e-01	0	44	0	463994880	22	4766
2026-01-20 11:58:59.86	144.69	52.97	-30.1	-32.2	20.2	6.04e-01	0	44	0	466092032	22	4574
2026-01-20 11:59:00.86	144.48	53.39	-29.8	-32.0	20.5	6.08e-01	0	44	0	467664896	21	4622
2026-01-20 11:59:01.87	144.26	53.82	-29.6	-31.5	20.9	6.06e-01	0	44	0	469762048	21	4462
2026-01-20 11:59:02.87	144.03	54.24	-29.8	-31.9	20.6	6.05e-01	0	44	0	471334912	21	4601
2026-01-20 11:59:03.87	143.80	54.67	-29.8	-31.9	20.6	6.06e-01	0	44	0	473432064	21	4582
2026-01-20 11:59:04.87	143.56	55.11	-29.9	-32.3	20.4	6.06e-01	0	44	0	475004928	21	4721
2026-01-20 11:59:05.87	143.31	55.54	-30.0	-32.4	20.3	6.06e-01	0	44	0	477102080	21	4762
2026-01-20 11:59:06.87	143.06	55.98	-30.0	-32.5	20.3	6.07e-01	0	44	0	479199232	21	4782
2026-01-20 11:59:07.87	142.79	56.42	-30.4	-33.3	19.9	6.03e-01	0	44	0	480772096	21	5059
2026-01-20 11:59:08.87	142.52	56.87	-30.8	-33.9	19.2	6.06e-01	0	44	0	482869248	22	5163
2026-01-20 11:59:09.87	142.24	57.32	-30.5	-33.2	19.6	6.07e-01	0	44	0	484442112	22	4914
2026-01-20 11:59:10.87	141.95	57.77	-30.8	-33.9	19.2	6.05e-01	0	44	0	486539264	22	5161
2026-01-20 11:59:11.87	141.64	58.22	-31.0	-34.0	18.8	6.07e-01	0	44	0	488112128	23	5074
2026-01-20 11:59:12.87	141.33	58.68	-31.1	-34.3	18.6	6.05e-01	0	44	0	490209280	23	5216
2026-01-20 11:59:13.88	141.00	59.14	-30.9	-33.8	19.0	6.07e-01	0	44	0	492306432	23	5014
2026-01-20 11:59:14.88	140.67	59.61	-31.3	-34.9	18.3	6.07e-01	0	44	0	493879296	23	5429
2026-01-20 11:59:15.89	140.32	60.07	-31.2	-34.4	18.6	6.04e-01	0	44	0	495976448	23	5240
2026-01-20 11:59:16.89	139.95	60.54	-31.5	-35.3	18.1	6.04e-01	0	44	0	498073600	23	5594
2026-01-20 11:59:17.90	139.58	61.02	-31.1	-34.4	18.6	6.06e-01	0	44	0	499646464	23	5215
2026-01-20 11:59:18.90	139.19	61.49	-31.2	-34.5	18.6	6.04e-01	0	44	0	501743616	23	5265
2026-01-20 11:59:19.90	138.78	61.96	-31.4	-35.1	18.2	6.04e-01	0	44	0	503316480	23	5487
2026-01-20 11:59:20.90	138.36	62.44	-31.1	-34.3	18.7	6.04e-01	0	44	0	505413632	23	5171
2026-01-20 11:59:21.91	137.92	62.93	-31.4	-35.1	18.2	6.04e-01	0	44	0	506986496	23	5487
2026-01-20 11:59:22.91	137.46	63.41	-31.7	-35.5	17.7	6.07e-01	0	44	0	509083648	24	5531
2026-01-20 11:59:23.91	136.98	63.89	-31.8	-35.6	17.6	6.06e-01	0	44	0	511180800	24	5611
2026-01-20 11:59:24.91	136.49	64.37	-31.9	-35.9	17.4	6.06e-01	0	44	0	512753664	24	5700
2026-01-20 11:59:25.92	135.96	64.86	-32.3	-36.8	16.6	6.06e-01	0	44	0	514850816	25	5984
2026-01-20 11:59:26.92	135.42	65.35	-32.3	-36.7	16.5	6.05e-01	0	44	0	516423680	25	5946
2026-01-20 11:59:27.92	134.86	65.84	-32.5	-37.1	16.2	6.05e-01	0	44	0	518520832	25	6153
2026-01-20 11:59:28.92	134.26	66.33	-32.7	-37.4	15.8	6.04e-01	0	44	0	520093696	26	6154
2026-01-20 11:59:29.93	133.64	66.82	-32.8	-37.8	15.4	6.05e-01	0	44	0	522190848	26	6366
2026-01-20 11:59:30.93	132.99	67.31	-32.5	-36.8	16.2	6.06e-01	0	44	0	524288000	26	5890
2026-01-20 11:59:31.93	132.31	67.80	-33.0	-38.5	15.0	6.08e-01	0	44	0	525860864	26	6746
2026-01-20 11:59:32.94	131.59	68.30	-32.9	-37.9	15.4	6.05e-01	0	44	0	527958016	26	6455
2026-01-20 11:59:33.95	130.83	68.79	-32.4	-36.4	16.5	6.07e-01	0	44	0	530055168	26	5699
2026-01-20 11:59:34.95	130.04	69.28	-32.7	-37.6	15.6	6.08e-01	0	44	0	531628032	26	6289
2026-01-20 11:59:35.95	129.20	69.77	-32.6	-36.9	16.0	6.07e-01	0	44	0	533725184	26	5949
2026-01-20 11:59:36.95	128.33	70.25	-32.5	-36.6	16.2	6.08e-01	0	44	0	535298048	26	5814
2026-01-20 11:59:37.95	127.40	70.74	-32.6	-36.9	16.1	6.07e-01	0	44	0	537395200	26	5945
2026-01-20 11:59:38.95	126.43	71.22	-33.1	-38.5	14.5	6.07e-01	0	44	0	538968064	27	6697
2026-01-20 11:59:39.95	125.40	71.70	-32.3	-36.1	16.6	6.06e-01	0	44	0	541065216	26	5562
2026-01-20 11:59:40.95	124.31	72.17	-32.7	-37.4	15.7	6.05e-01	0	44	0	543162368	26	6197
2026-01-20 11:59:41.95	123.16	72.64	-32.9	-38.1	15.1	6.07e-01	0	44	0	544735232	26	6575
2026-01-20 11:59:42.95	121.95	73.10	-32.6	-37.1	16.0	6.06e-01	0	44	0	546832384	26	6036
2026-01-20 11:59:43.95	120.66	73.56	-33.3	-39.0	14.2	6.09e-01	0	44	0	548405248	27	6962
2026-01-20 11:59:44.94	119.31	74.01	-32.8	-37.2	15.5	6.07e-01	0	44	0	550502400	27	5986
2026-01-20 11:59:45.95	117.84	74.46	-32.6	-36.6	15.9	6.05e-01	0	44	0	552075264	27	5673
2026-01-20 11:59:46.95	116.30	74.89	-32.8	-37.0	15.8	6.08e-01	0	44	0	554172416	27	5890
2026-01-20 11:59:47.96	114.66	75.32	-32.6	-36.6	15.9	6.07e-01	0	44	0	556269568	27	5697
2026-01-20 11:59:48.96	112.92	75.74	-32.2	-35.5	17.1	6.06e-01	0	44	0	557842432	26	5315
2026-01-20 11:59:49.97	111.06	76.15	-32.9	-38.1	15.3	6.09e-01	0	44	0	559939584	26	6547
2026-01-20 11:59:50.97	109.11	76.54	-32.2	-35.8	16.8	6.05e-01	0	44	0	561512448	26	5410
2026-01-20 11:59:51.98	107.02	76.91	-32.2	-35.7	17.0	6.03e-01	0	44	0	563609600	26	5377
2026-01-20 11:59:52.98	104.82	77.27	-32.0	-34.9	17.5	6.06e-01	0	44	0	565706752	26	5064
2026-01-20 11:59:53.99	102.48	77.61	-32.1	-35.4	17.2	6.07e-01	0	44	0	567279616	26	5254
2026-01-20 11:59:54.99	100.02	77.93	-31.7	-34.7	17.9	6.06e-01	0	44	0	569376768	25	5082
2026-01-20 11:59:56.00	97.41	78.23	-32.1	-35.9	17.2	6.09e-01	0	44	0	570949632	25	5566
2026-01-20 11:59:57.00	94.69	78.50	-31.9	-35.2	17.6	6.06e-01	0	44	0	573046784	25	5268
2026-01-20 11:59:58.00	91.85	78.75	-31.6	-34.9	18.2	6.07e-01	0	44	0	575143936	24	5256
2026-01-20 11:59:59.00	88.88	78.97	-31.9	-35.8	17.6	6.04e-01	0	44	0	576716800	24	5636
2026-01-20 12:00:00.00	85.80	79.15	-31.5	-34.6	18.3	6.06e-01	0	44	0	578813952	24	5171
2026-01-20 12:00:01.00	82.62	79.31	-31.4	-34.4	18.5	6.07e-01	0	44	0	580386816	24	5093
2026-01-20 12:00:02.00	79.35	79.43	-31.7	-35.2	18.0	6.06e-01	0	44	0	582483968	24	5402
2026-01-20 12:00:03.00	76.01	79.52	-31.3	-34.0	18.7	6.08e-01	0	44	0	584056832	24	4928
2026-01-20 12:00:04.00	72.63	79.57	-31.5	-34.7	18.4	6.05e-01	0	44	0	586153984	24	5177
2026-01-20 12:00:05.00	69.23	79.59	-31.7	-35.3	17.9	6.07e-01	0	44	0	588251136	24	5442
2026-01-20 12:00:06.00	65.83	79.57	-31.6	-35.1	18.1	6.08e-01	0	44	0	589824000	24	5362
2026-01-20 12:00:07.01	62.41	79.51	-32.3	-36.5	16.9	6.07e-01	0	44	0	591921152	25	5820
2026-01-20 12:00:08.02	59.05	79.42	-32.0	-35.6	17.4	6.05e-01	0	44	0	593494016	25	5436
2026-01-20 12:00:09.02	55.79	79.30	-32.0	-35.5	17.4	6.05e-01	0	44	0	595591168	25	5408
2026-01-20 12:00:10.02	52.62	79.14	-31.6	-34.4	18.2	6.06e-01	0	44	0	597164032	25	4967
2026-01-20 12:00:11.03	49.52	78.94	-32.1	-35.7	17.2	6.08e-01	0	44	0	599261184	25	5511
2026-01-20 12:00:12.03	46.57	78.72	-31.7	-34.7	17.9	6.05e-01	0	44	0	601358336	25	5085
2026-01-20 12:00:13.03	43.73	78.48	-31.7	-34.7	18.0	6.07e-01	0	44	0	602931200	25	5086
2026-01-20 12:00:14.03	41.03	78.20	-31.6	-34.4	18.1	6.05e-01	0	44	0	605028352	25	4991
2026-01-20 12:00:15.03	38.46	77.90	-31.2	-33.9	18.8	6.07e-01	0	44	0	607125504	24	4895
2026-01-20 12:00:16.03	36.02	77.58	-31.6	-35.1	18.0	6.07e-01	0	44	0	608698368	24	5343
2026-01-20 12:00:17.04	33.69	77.24	-31.7	-35.1	18.0	6.06e-01	0	44	0	610795520	24	5366
2026-01-20 12:00:18.04	31.51	76.88	-32.3	-36.5	16.8	6.07e-01	0	44	0	612368384	25	5861
2026-01-20 12:00:19.05	29.43	76.50	-31.8	-35.0	17.8	6.08e-01	0	44	0	614465536	25	5196
2026-01-20 12:00:20.05	27.49	76.11	-32.3	-36.6	16.6	6.06e-01	0	44	0	616038400	25	5897
2026-01-20 12:00:21.05	25.66	75.71	-32.5	-36.6	16.2	6.05e-01	0	44	0	618135552	26	5798
2026-01-20 12:00:22.05	23.93	75.29	-32.6	-36.8	16.2	6.04e-01	0	44	0	620232704	26	5867
2026-01-20 12:00:23.06	22.29	74.86	-32.7	-37.4	15.8	6.07e-01	0	44	0	621805568	26	6164
2026-01-20 12:00:24.06	20.76	74.43	-32.5	-36.5	16.4	6.06e-01	0	44	0	623902720	26	5747
2026-01-20 12:00:25.06	19.32	73.98	-32.8	-37.7	15.5	6.05e-01	0	44	0	625475584	26	6308
2026-01-20 12:00:26.05	17.98	73.53	-32.5	-36.8	16.1	6.07e-01	0	44	0	627572736	26	5869
2026-01-20 12:00:27.04	16.71	73.08	-32.4	-36.3	16.7	6.05e-01	0	44	0	629145600	26	5615
2026-01-20 12:00:28.04	15.49	72.62	-32.5	-36.5	16.4	6.06e-01	0	44	0	631242752	26	5753
2026-01-20 12:00:29.04	14.35	72.15	-32.5	-36.8	16.1	6.06e-01	0	44	0	633339904	26	5905
2026-01-20 12:00:30.04	13.27	71.67	-32.5	-36.6	16.4	6.05e-01	0	44	0	634912768	26	5783
2026-01-20 12:00:31.04	12.24	71.20	-32.7	-37.4	15.9	6.08e-01	0	44	0	637009920	26	6153
2026-01-20 12:00:32.05	11.26	70.71	-33.0	-37.7	15.1	6.06e-01	0	44	0	638582784	27	6207
2026-01-20 12:00:33.05	10.34	70.23	-32.9	-37.3	15.5	6.07e-01	0	44	0	640679936	27	6028
2026-01-20 12:00:34.06	9.46	69.74	-33.2	-38.6	14.5	6.05e-01	0	44	0	642252800	27	6686
2026-01-20 12:00:35.06	8.64	69.25	-33.2	-38.7	14.5	6.08e-01	0	44	0	644349952	27	6774
2026-01-20 12:00:36.06	7.85	68.77	-33.4	-39.4	13.8	6.10e-01	0	44	0	646447104	27	7224
2026-01-20 12:00:37.06	7.10	68.28	-33.1	-38.3	14.8	6.08e-01	0	44	0	648019968	27	6541
2026-01-20 12:00:38.06	6.39	67.79	-33.2	-38.7	14.4	6.06e-01	0	44	0	650117120	27	6765
2026-01-20 12:00:39.06	5.71	67.30	-33.2	-38.7	14.5	6.08e-01	0	44	0	651689984	27	6799
2026-01-20 12:00:40.07	5.06	66.81	-33.1	-38.3	14.7	6.06e-01	0	44	0	653787136	27	6562
2026-01-20 12:00:41.07	4.44	66.32	-32.9	-37.6	15.1	6.08e-01	0	44	0	655360000	27	6205
2026-01-20 12:00:42.08	3.84	65.83	-32.6	-36.4	16.2	6.06e-01	0	44	0	657457152	27	5620
2026-01-20 12:00:43.08	3.28	65.34	-32.6	-36.7	15.9	6.06e-01	0	44	0	659554304	27	5742
2026-01-20 12:00:44.08	2.74	64.85	-32.7	-36.8	15.7	6.06e-01	0	44	0	661127168	27	5800
2026-01-20 12:00:45.08	2.22	64.37	-31.7	-34.7	17.9	6.05e-01	0	44	0	663224320	25	5106
2026-01-20 12:00:46.08	1.73	63.89	-31.9	-35.3	17.5	6.05e-01	0	44	0	665321472	25	5334
2026-01-20 12:00:47.09	1.25	63.40	-31.9	-35.3	17.5	6.05e-01	0	44	0	666894336	25	5354
2026-01-20 12:00:48.09	0.79	62.92	-31.8	-35.1	17.6	6.06e-01	0	44	0	668991488	25	5260
2026-01-20 12:00:49.09	0.36	62.44	-31.8	-35.3	17.3	6.07e-01	0	44	0	670564352	25	5337
2026-01-20 12:00:50.08	359.94	61.97	-31.3	-34.2	18.6	6.08e-01	0	44	0	672661504	24	5015
2026-01-20 12:00:51.09	359.53	61.49	-31.5	-34.6	18.3	6.06e-01	0	44	0	674234368	24	5181
2026-01-20 12:00:52.08	359.15	61.03	-31.7	-35.3	17.8	6.06e-01	0	44	0	676331520	24	5468
2026-01-20 12:00:53.08	358.77	60.56	-31.6	-35.0	17.9	6.07e-01	0	44	0	678428672	24	5344
2026-01-20 12:00:54.08	358.41	60.09	-31.4	-34.4	18.4	6.06e-01	0	44	0	680001536	24	5096
2026-01-20 12:00:55.08	358.07	59.63	-31.7	-35.2	17.9	6.08e-01	0	44	0	682098688	24	5405
2026-01-20 12:00:56.09	357.73	59.16	-31.5	-34.9	18.2	6.06e-01	0	44	0	683671552	24	5275
2026-01-20 12:00:57.09	357.40	58.70	-31.9	-35.9	17.4	6.06e-01	0	44	0	685768704	24	5714
2026-01-20 12:00:58.09	357.09	58.25	-31.2	-33.8	18.7	6.07e-01	0	44	0	687341568	24	4859
2026-01-20 12:00:59.09	356.79	57.80	-30.9	-33.5	19.2	6.06e-01	0	44	0	689438720	23	4878
2026-01-20 12:01:00.10	356.50	57.34	-30.6	-32.8	19.7	6.05e-01	0	44	0	691535872	23	4650
2026-01-20 12:01:01.10	356.22	56.90	-30.2	-32.2	20.3	6.06e-01	0	44	0	693108736	22	4555
2026-01-20 12:01:02.10	355.94	56.45	-30.1	-32.0	20.5	6.05e-01	0	44	0	695205888	22	4483
2026-01-20 12:01:03.11	355.68	56.01	-30.3	-32.5	20.1	6.06e-01	0	44	0	696778752	22	4659
2026-01-20 12:01:04.11	355.42	55.57	-30.1	-32.1	20.3	6.06e-01	0	44	0	698875904	22	4541
2026-01-20 12:01:05.11	355.17	55.14	-29.5	-31.0	21.2	6.06e-01	0	44	0	700973056	21	4310
2026-01-20 12:01:06.12	354.93	54.70	-29.4	-31.2	21.4	6.07e-01	0	44	0	702545920	20	4479
2026-01-20 12:01:07.11	354.70	54.28	-29.6	-31.9	21.0	6.07e-01	0	44	0	704643072	20	4696
2026-01-20 12:01:08.12	354.47	53.85	-29.8	-32.3	20.8	6.06e-01	0	44	0	706215936	20	4820
2026-01-20 12:01:09.12	354.26	53.43	-29.9	-32.7	20.6	6.04e-01	0	44	0	708313088	20	4931
2026-01-20 12:01:10.13	354.04	53.00	-29.7	-32.1	20.9	6.06e-01	0	44	0	709885952	20	4750
2026-01-20 12:01:11.13	353.84	52.59	-29.6	-31.9	21.0	6.06e-01	0	44	0	711983104	20	4683
2026-01-20 12:01:12.13	353.64	52.18	-29.7	-32.0	21.0	6.05e-01	0	44	0	714080256	20	4729
2026-01-20 12:01:13.13	353.44	51.77	-30.0	-32.8	20.5	6.04e-01	0	44	0	715653120	20	4964
2026-01-20 12:01:14.13	353.25	51.36	-30.2	-32.8	20.2	6.07e-01	0	44	0	717750272	21	4877
2026-01-20 12:01:15.14	353.07	50.96	-30.7	-33.6	19.5	6.06e-01	0	44	0	719323136	22	5022
2026-01-20 12:01:16.13	352.89	50.56	-30.5	-33.1	19.7	6.06e-01	0	44	0	721420288	22	4871
2026-01-20 12:01:17.13	352.71	50.17	-30.3	-32.5	20.0	6.06e-01	0	44	0	722993152	22	4669
2026-01-20 12:01:18.14	352.54	49.77	-30.1	-32.1	20.3	6.05e-01	0	44	0	725090304	22	4537
2026-01-20 12:01:19.14	352.38	49.38	-30.1	-32.2	20.3	6.05e-01	0	44	0	727187456	22	4551
2026-01-20 12:01:20.14	352.22	49.00	-30.1	-32.2	20.3	6.06e-01	0	44	0	728760320	22	4546
2026-01-20 12:01:21.15	352.06	48.61	-30.5	-33.0	19.8	6.05e-01	0	44	0	730857472	22	4820
2026-01-20 12:01:22.15	351.91	48.23	-30.4	-32.9	19.8	6.06e-01	0	44	0	732430336	22	4795
2026-01-20 12:01:23.15	351.76	47.86	-30.3	-32.7	20.0	6.07e-01	0	44	0	734527488	22	4725
2026-01-20 12:01:24.15	351.61	47.48	-30.4	-32.8	19.9	6.06e-01	0	44	0	736624640	22	4760
2026-01-20 12:01:25.15	351.47	47.11	-30.7	-33.6	19.4	6.08e-01	0	44	0	738197504	22	5020
2026-01-20 12:01:26.16	351.33	46.74	-30.5	-33.0	19.8	6.05e-01	0	44	0	740294656	22	4829
2026-01-20 12:01:27.16	351.19	46.38	-30.4	-32.8	19.9	6.07e-01	0	44	0	741867520	22	4771
2026-01-20 12:01:28.17	351.06	46.02	-30.4	-32.9	19.8	6.04e-01	0	44	0	743964672	22	4776
2026-01-20 12:01:29.17	350.93	45.66	-30.3	-32.6	20.0	6.07e-01	0	44	0	746061824	22	4686
2026-01-20 12:01:30.17	350.81	45.31	-30.3	-32.7	19.9	6.07e-01	0	44	0	747634688	22	4712
2026-01-20 12:01:31.17	350.68	44.96	-30.4	-32.9	19.8	6.06e-01	0	44	0	749731840	22	4799
2026-01-20 12:01:32.18	350.56	44.61	-30.5	-33.2	19.6	6.05e-01	0	44	0	751304704	22	4884
2026-01-20 12:01:33.19	350.44	44.26	-30.5	-33.2	19.6	6.07e-01	0	44	0	753401856	22	4906
2026-01-20 12:01:34.20	350.33	43.91	-30.7	-33.6	19.4	6.05e-01	0	44	0	755499008	22	5039
2026-01-20 12:01:35.20	350.22	43.58	-30.5	-33.1	19.6	6.04e-01	0	44	0	757071872	22	4848
2026-01-20 12:01:36.21	350.11	43.24	-30.3	-32.7	19.9	6.05e-01	0	44	0	759169024	22	4707
2026-01-20 12:01:37.20	350.00	42.91	-30.5	-33.1	19.7	6.07e-01	0	44	0	760741888	22	4865
2026-01-20 12:01:38.20	349.89	42.58	-30.7	-33.7	19.3	6.08e-01	0	44	0	762839040	22	5080
2026-01-20 12:01:39.21	349.79	42.25	-30.8	-34.0	19.1	6.09e-01	0	44	0	764411904	22	5179
2026-01-20 12:01:40.21	349.69	41.93	-30.9	-34.2	19.0	6.08e-01	0	44	0	766509056	22	5270
2026-01-20 12:01:41.21	349.59	41.60	-31.0	-34.5	18.8	6.06e-01	0	44	0	768606208	22	5366
2026-01-20 12:01:42.21	349.50	41.29	-31.1	-34.6	18.8	6.05e-01	0	44	0	770179072	22	5395
2026-01-20 12:01:43.20	349.40	40.98	-31.2	-34.5	18.5	6.06e-01	0	44	0	772276224	23	5263
2026-01-20 12:01:44.21	349.31	40.66	-31.5	-35.3	18.0	6.06e-01	0	44	0	773849088	23	5576
2026-01-20 12:01:45.21	349.22	40.35	-31.4	-35.0	18.1	6.04e-01	0	44	0	775946240	23	5437
2026-01-20 12:01:46.22	349.13	40.04	-31.2	-34.6	18.4	6.05e-01	0	44	0	777519104	23	5290
2026-01-20 12:01:47.22	349.04	39.74	-31.2	-34.5	18.5	6.04e-01	0	44	0	779616256	23	5254
2026-01-20 12:01:48.23	348.96	39.43	-31.3	-34.8	18.3	6.07e-01	0	44	0	781713408	23	5370
2026-01-20 12:01:49.23	348.87	39.13	-31.3	-34.8	18.3	6.07e-01	0	44	0	783286272	23	5360
2026-01-20 12:01:50.23	348.79	38.84	-31.3	-34.8	18.3	6.07e-01	0	44	0	785383424	23	5369
2026-01-20 12:01:51.23	348.71	38.55	-31.3	-34.8	18.2	6.05e-01	0	44	0	787480576	23	5382
2026-01-20 12:01:52.24	348.63	38.25	-31.1	-34.2	18.7	6.04e-01	0	44	0	789053440	23	5125
2026-01-20 12:01:53.24	348.55	37.96	-31.2	-34.6	18.5	6.07e-01	0	44	0	791150592	23	5284
2026-01-20 12:01:54.24	348.48	37.68	-31.4	-35.0	18.1	6.06e-01	0	44	0	792723456	23	5453
2026-01-20 12:01:55.24	348.40	37.40	-31.5	-35.4	17.9	6.07e-01	0	44	0	794820608	23	5629
2026-01-20 12:01:56.24	348.33	37.11	-31.4	-35.2	18.0	6.07e-01	0	44	0	796393472	23	5557
2026-01-20 12:01:57.24	348.26	36.84	-31.2	-34.6	18.3	6.06e-01	0	44	0	798490624	23	5311
2026-01-20 12:01:58.24	348.18	36.56	-31.0	-34.0	18.6	6.06e-01	0	44	0	800587776	23	5093
2026-01-20 12:01:59.24	348.12	36.29	-31.0	-34.0	18.7	6.07e-01	0	44	0	802160640	23	5089
2026-01-20 12:02:00.25	348.05	36.01	-31.1	-34.3	18.5	6.06e-01	0	44	0	804257792	23	5183
2026-01-20 12:02:01.25	347.98	35.75	-30.8	-33.4	19.1	6.06e-01	0	44	0	805830656	23	4862
2026-01-20 12:02:02.25	347.91	35.48	-30.6	-33.0	19.4	6.05e-01	0	44	0	807927808	23	4724
2026-01-20 12:02:03.26	347.85	35.21	-30.5	-32.6	19.6	6.05e-01	0	44	0	809500672	23	4587
2026-01-20 12:02:04.27	347.78	34.95	-30.6	-32.9	19.4	6.05e-01	0	44	0	811597824	23	4698
2026-01-20 12:02:05.27	347.72	34.69	-30.6	-32.8	19.5	6.07e-01	0	44	0	813694976	23	4658
2026-01-20 12:02:06.27	347.66	34.43	-30.6	-32.9	19.5	6.05e-01	0	44	0	815267840	23	4700
2026-01-20 12:02:07.27	347.60	34.18	-30.8	-33.4	19.1	6.08e-01	0	44	0	817364992	23	4879
2026-01-20 12:02:08.27	347.54	33.93	-30.8	-33.4	19.1	6.08e-01	0	44	0	818937856	23	4860
2026-01-20 12:02:09.28	347.48	33.67	-30.4	-32.5	19.7	6.06e-01	0	44	0	821035008	23	4552
2026-01-20 12:02:10.28	347.43	33.42	-30.2	-32.4	20.0	6.05e-01	0	44	0	823132160	22	4637
2026-01-20 12:02:11.28	347.37	33.18	-30.1	-32.0	20.2	6.06e-01	0	44	0	824705024	22	4525
2026-01-20 12:02:12.29	347.31	32.93	-30.0	-31.9	20.3	6.06e-01	0	44	0	826802176	22	4492
2026-01-20 12:02:13.28	347.26	32.69	-30.0	-31.8	20.3	6.07e-01	0	44	0	828375040	22	4466
2026-01-20 12:02:14.28	347.21	32.45	-29.9	-32.2	20.4	6.08e-01	0	44	0	830472192	21	4671
2026-01-20 12:02:15.28	347.15	32.21	-29.9	-32.2	20.4	6.07e-01	0	44	0	832569344	21	4684
2026-01-20 12:02:16.28	347.10	31.98	-29.7	-31.7	20.7	6.07e-01	0	44	0	834142208	21	4518
2026-01-20 12:02:17.29	347.05	31.74	-29.6	-31.4	20.9	6.05e-01	0	44	0	836239360	21	4442
2026-01-20 12:02:18.29	347.00	31.51	-29.5	-31.3	20.9	6.06e-01	0	44	0	837812224	21	4401
2026-01-20 12:02:19.30	346.95	31.28	-29.6	-31.5	20.7	6.06e-01	0	44	0	839909376	21	4480
2026-01-20 12:02:20.31	346.90	31.05	-29.7	-31.7	20.6	6.05e-01	0	44	0	841482240	21	4549
2026-01-20 12:02:21.31	346.85	30.82	-29.7	-31.8	20.6	6.05e-01	0	44	0	843579392	21	4562
2026-01-20 12:02:22.32	346.80	30.59	-29.6	-31.6	20.7	6.06e-01	0	44	0	845676544	21	4493
2026-01-20 12:02:23.32	346.76	30.37	-29.5	-31.3	20.8	6.06e-01	0	44	0	847249408	21	4418
2026-01-20 12:02:24.32	346.71	30.15	-29.6	-31.6	20.7	6.07e-01	0	44	0	849346560	21	4488
2026-01-20 12:02:25.32	346.67	29.93	-29.6	-31.5	20.7	6.06e-01	0	44	0	850919424	21	4456
2026-01-20 12:02:26.32	346.62	29.71	-29.7	-31.7	20.6	6.05e-01	0	44	0	853016576	21	4527
2026-01-20 12:02:27.33	346.58	29.50	-29.8	-31.9	20.5	6.06e-01	0	44	0	854589440	21	4582
2026-01-20 12:02:28.32	346.54	29.29	-29.8	-32.0	20.4	6.06e-01	0	44	0	856686592	21	4629
2026-01-20 12:02:29.33	346.49	29.07	-29.8	-32.0	20.4	6.05e-01	0	44	0	858783744	21	4623
2026-01-20 12:02:30.33	346.45	28.86	-29.9	-32.2	20.3	6.06e-01	0	44	0	860356608	21	4691
2026-01-20 12:02:31.33	346.41	28.65	-29.8	-32.1	20.4	6.07e-01	0	44	0	862453760	21	4649
2026-01-20 12:02:32.33	346.37	28.45	-29.9	-32.2	20.3	6.05e-01	0	44	0	864550912	21	4701
2026-01-20 12:02:33.34	346.33	28.24	-30.0	-32.5	20.2	6.07e-01	0	44	0	866123776	21	4793
2026-01-20 12:02:34.35	346.29	28.03	-30.2	-32.9	20.0	6.07e-01	0	44	0	868220928	21	4925
2026-01-20 12:02:35.34	346.25	27.83	-30.2	-33.0	19.9	6.06e-01	0	44	0	869793792	21	4947
2026-01-20 12:02:36.35	346.21	27.63	-30.3	-33.1	19.7	6.01e-01	0	44	0	871890944	21	5014
2026-01-20 12:02:37.35	346.17	27.43	-30.2	-32.9	19.9	6.02e-01	0	44	0	873463808	21	4936
2026-01-20 12:02:38.35	346.14	27.23	-30.3	-33.3	19.7	6.02e-01	0	44	0	875560960	21	5082
2026-01-20 12:02:39.35	346.10	27.04	-30.4	-33.4	19.5	6.03e-01	0	44	0	877658112	21	5104
2026-01-20 12:02:40.36	346.06	26.84	-30.2	-33.0	19.8	6.03e-01	0	44	0	879230976	21	4951
2026-01-20 12:02:41.36	346.03	26.65	-30.2	-33.0	19.8	6.04e-01	0	44	0	881328128	21	4961
2026-01-20 12:02:42.36	345.99	26.46	-30.2	-32.9	19.8	6.02e-01	0	44	0	882900992	21	4939
2026-01-20 12:02:43.35	345.96	26.27	-30.2	-32.9	19.9	6.04e-01	0	44	0	884998144	21	4920
2026-01-20 12:02:44.35	345.92	26.08	-30.2	-33.0	19.8	6.03e-01	0	44	0	886571008	21	4976
2026-01-20 12:02:45.36	345.89	25.89	-30.3	-33.2	19.7	6.02e-01	0	44	0	888668160	21	5021
2026-01-20 12:02:46.36	345.86	25.70	-30.3	-33.3	19.6	6.02e-01	0	44	0	890765312	21	5060
2026-01-20 12:02:47.37	345.82	25.52	-30.4	-33.4	19.5	6.02e-01	0	44	0	892338176	21	5109
2026-01-20 12:02:48.36	345.79	25.34	-30.2	-33.1	19.7	6.02e-01	0	44	0	894435328	21	4983
2026-01-20 12:02:49.37	345.76	25.15	-30.2	-32.9	19.8	6.05e-01	0	44	0	896008192	21	4922
2026-01-20 12:02:50.37	345.73	24.97	-30.1	-32.8	19.9	5.99e-01	0	44	0	898105344	21	4909
2026-01-20 12:02:51.38	345.70	24.79	-30.3	-33.1	19.6	6.04e-01	0	44	0	899678208	21	5011
2026-01-20 12:02:52.38	345.67	24.61	-30.4	-33.6	19.3	6.01e-01	0	44	0	901775360	21	5193
2026-01-20 12:02:53.39	345.64	24.44	-30.6	-33.9	19.2	6.04e-01	0	44	0	903872512	21	5303
2026-01-20 12:02:54.39	345.61	24.26	-30.5	-33.9	19.2	6.03e-01	0	44	0	905445376	21	5279
2026-01-20 12:02:55.40	345.58	24.09	-30.6	-33.6	19.1	6.03e-01	0	44	0	907542528	22	5084
2026-01-20 12:02:56.40	345.55	23.91	-30.7	-33.8	18.9	6.03e-01	0	44	0	909639680	22	5158
2026-01-20 12:02:57.40	345.52	23.74	-30.7	-33.9	18.9	6.03e-01	0	44	0	911212544	22	5168
2026-01-20 12:02:58.40	345.49	23.57	-30.7	-33.7	19.0	6.02e-01	0	44	0	913309696	22	5128
2026-01-20 12:02:59.40	345.46	23.40	-30.7	-33.8	19.0	6.02e-01	0	44	0	914882560	22	5143
2026-01-20 12:03:00.40	345.43	23.23	-30.6	-33.7	19.0	6.02e-01	0	44	0	916979712	22	5113
2026-01-20 12:03:01.41	345.41	23.07	-30.7	-33.9	18.9	6.06e-01	0	44	0	918552576	22	5202
2026-01-20 12:03:02.41	345.38	22.90	-30.7	-33.9	18.9	6.00e-01	0	44	0	920649728	22	5177
2026-01-20 12:03:03.42	345.35	22.73	-30.6	-33.6	19.1	6.03e-01	0	44	0	922746880	22	5077
2026-01-20 12:03:04.42	345.33	22.57	-30.5	-33.4	19.1	6.03e-01	0	44	0	924319744	22	5004
2026-01-20 12:03:05.43	345.30	22.41	-30.5	-33.4	19.2	6.03e-01	0	44	0	926416896	22	4988
2026-01-20 12:03:06.44	345.27	22.24	-30.5	-33.3	19.2	6.02e-01	0	44	0	927989760	22	4963
2026-01-20 12:03:07.44	345.25	22.09	-30.5	-33.2	19.3	6.02e-01	0	44	0	930086912	22	4942
2026-01-20 12:03:08.44	345.22	21.93	-30.4	-33.1	19.3	6.03e-01	0	44	0	932184064	22	4905
2026-01-20 12:03:09.45	345.20	21.77	-30.4	-33.0	19.4	6.02e-01	0	44	0	933756928	22	4848
2026-01-20 12:03:10.45	345.17	21.61	-30.3	-32.8	19.4	6.02e-01	0	44	0	935854080	22	4813
2026-01-20 12:03:11.46	345.15	21.45	-30.3	-32.8	19.5	6.03e-01	0	44	0	937426944	22	4794
2026-01-20 12:03:12.45	345.13	21.30	-30.3	-32.7	19.5	6.02e-01	0	44	0	939524096	22	4754
2026-01-20 12:03:13.45	345.10	21.15	-30.3	-32.7	19.6	6.02e-01	0	44	0	941621248	22	4758
2026-01-20 12:03:14.45	345.08	20.99	-30.4	-33.0	19.3	6.03e-01	0	44	0	943194112	22	4877
2026-01-20 12:03:15.45	345.06	20.84	-30.4	-33.1	19.3	6.03e-01	0	44	0	945291264	22	4900
2026-01-20 12:03:16.46	345.03	20.69	-30.3	-32.8	19.5	6.03e-01	0	44	0	946864128	22	4794
2026-01-20 12:03:17.45	345.01	20.54	-30.3	-32.7	19.5	6.02e-01	0	44	0	948961280	22	4784
2026-01-20 12:03:18.46	344.99	20.39	-30.4	-32.9	19.4	6.03e-01	0	44	0	950534144	22	4850
2026-01-20 12:03:19.47	344.97	20.24	-30.4	-33.0	19.3	6.00e-01	0	44	0	952631296	22	4883
2026-01-20 12:03:20.47	344.95	20.10	-30.5	-33.2	19.2	6.02e-01	0	44	0	954728448	22	4947
2026-01-20 12:03:21.47	344.92	19.95	-30.5	-33.3	19.1	6.02e-01	0	44	0	956301312	22	4984
2026-01-20 12:03:22.47	344.90	19.81	-30.5	-33.3	19.1	6.04e-01	0	44	0	958398464	22	4968
2026-01-20 12:03:23.47	344.88	19.66	-30.5	-33.3	19.1	6.02e-01	0	44	0	959971328	22	4994
2026-01-20 12:03:24.47	344.86	19.52	-30.5	-33.5	19.0	6.03e-01	0	44	0	962068480	22	5039
2026-01-20 12:03:25.47	344.84	19.38	-30.5	-33.3	19.1	6.04e-01	0	44	0	963641344	22	4978
2026-01-20 12:03:26.48	344.82	19.24	-30.3	-32.9	19.3	6.02e-01	0	44	0	965738496	22	4857
2026-01-20 12:03:27.48	344.80	19.09	-30.4	-33.0	19.2	6.03e-01	0	44	0	967835648	22	4892
2026-01-20 12:03:28.48	344.78	18.96	-30.4	-33.1	19.1	6.03e-01	0	44	0	969408512	22	4929
2026-01-20 12:03:29.48	344.76	18.82	-30.4	-33.1	19.1	6.02e-01	0	44	0	971505664	22	4910
2026-01-20 12:03:30.48	344.74	18.68	-30.4	-33.0	19.1	6.02e-01	0	44	0	973078528	22	4894
2026-01-20 12:03:31.47	344.72	18.54	-30.4	-33.1	19.1	6.03e-01	0	44	0	975175680	22	4934
2026-01-20 12:03:32.47	344.71	18.41	-30.4	-33.2	19.1	6.03e-01	0	44	0	976748544	22	4951
2026-01-20 12:03:33.46	344.69	18.27	-30.5	-33.4	19.0	6.03e-01	0	44	0	978845696	22	5028
2026-01-20 12:03:34.46	344.67	18.14	-30.5	-33.4	18.9	6.04e-01	0	44	0	980942848	22	5037
2026-01-20 12:03:35.46	344.65	18.01	-30.5	-33.3	19.0	6.02e-01	0	44	0	982515712	22	4995
2026-01-20 12:03:36.45	344.63	17.87	-30.4	-33.2	19.0	6.02e-01	0	44	0	984612864	22	4973
2026-01-20 12:03:37.46	344.61	17.74	-30.5	-33.4	18.9	6.02e-01	0	44	0	986185728	22	5017
2026-01-20 12:03:38.46	344.60	17.61	-30.5	-33.4	18.9	6.03e-01	0	44	0	988282880	22	5040
2026-01-20 12:03:39.46	344.58	17.48	-30.6	-33.6	18.8	6.02e-01	0	44	0	989855744	22	5109
2026-01-20 12:03:40.47	344.56	17.35	-30.6	-33.7	18.7	6.02e-01	0	44	0	991952896	22	5139
2026-01-20 12:03:41.47	344.55	17.22	-30.6	-33.8	18.7	6.01e-01	0	44	0	994050048	22	5172
2026-01-20 12:03:42.48	344.53	17.09	-30.5	-33.5	18.8	6.03e-01	0	44	0	995622912	22	5056
2026-01-20 12:03:43.48	344.51	16.96	-30.5	-33.5	18.8	6.02e-01	0	44	0	997720064	22	5070
2026-01-20 12:03:44.48	344.50	16.83	-30.6	-33.8	18.7	6.04e-01	0	44	0	999817216	22	5175
2026-01-20 12:03:45.49	344.48	16.71	-30.6	-33.7	18.6	6.02e-01	0	44	0	1001390080	22	5158
2026-01-20 12:03:46.49	344.46	16.58	-30.5	-33.4	18.9	6.03e-01	0	44	0	1003487232	22	5026
2026-01-20 12:03:47.49	344.45	16.46	-30.4	-33.1	19.1	6.03e-01	0	44	0	1005060096	22	4942
2026-01-20 12:03:48.49	344.43	16.33	-30.4	-33.1	19.0	6.03e-01	0	44	0	1007157248	22	4946
2026-01-20 12:03:49.49	344.42	16.21	-30.4	-33.1	19.0	6.02e-01	0	44	0	1008730112	22	4927
2026-01-20 12:03:50.50	344.40	16.09	-30.4	-33.2	18.9	6.03e-01	0	44	0	1010827264	22	4985
2026-01-20 12:03:51.49	344.39	15.97	-30.4	-33.2	18.9	6.03e-01	0	44	0	1012924416	22	4976
2026-01-20 12:03:52.49	344.37	15.84	-30.2	-32.8	19.2	6.00e-01	0	44	0	1014497280	22	4821
2026-01-20 12:03:53.49	344.36	15.72	-30.2	-32.7	19.3	6.06e-01	0	44	0	1016594432	22	4798
2026-01-20 12:03:54.49	344.34	15.60	-30.2	-32.6	19.3	6.02e-01	0	44	0	1018167296	22	4773
2026-01-20 12:03:55.49	344.33	15.48	-30.2	-32.7	19.2	6.02e-01	0	44	0	1020264448	22	4795
2026-01-20 12:03:56.49	344.31	15.37	-30.2	-32.7	19.2	6.02e-01	0	44	0	1021837312	22	4792
2026-01-20 12:03:57.49	344.30	15.25	-30.2	-32.7	19.2	6.02e-01	0	44	0	1023934464	22	4793
2026-01-20 12:03:58.49	344.28	15.13	-30.2	-32.6	19.3	6.01e-01	0	44	0	1026031616	22	4770
2026-01-20 12:03:59.49	344.27	15.01	-30.2	-32.6	19.3	6.01e-01	0	44	0	1027604480	22	4771
2026-01-20 12:04:00.50	344.26	14.90	-30.2	-32.7	19.2	6.04e-01	0	44	0	1029701632	22	4814
2026-01-20 12:04:01.50	344.24	14.78	-30.1	-32.6	19.3	6.03e-01	0	44	0	1031274496	22	4763
2026-01-20 12:04:02.50	344.23	14.67	-30.3	-32.9	19.1	6.04e-01	0	44	0	1033371648	22	4874
2026-01-20 12:04:03.51	344.22	14.55	-30.3	-33.1	18.9	6.03e-01	0	44	0	1035468800	22	4934
2026-01-20 12:04:04.51	344.20	14.44	-30.4	-33.2	18.8	6.03e-01	0	44	0	1037041664	22	4996
2026-01-20 12:04:05.51	344.19	14.32	-30.4	-33.4	18.8	6.01e-01	0	44	0	1039138816	22	5045
2026-01-20 12:04:06.52	344.18	14.21	-30.5	-33.5	18.7	6.02e-01	0	44	0	1040711680	22	5090
2026-01-20 12:04:07.52	344.16	14.10	-30.4	-33.4	18.7	6.03e-01	0	44	0	1042808832	22	5055
2026-01-20 12:04:08.52	344.15	13.99	-30.3	-33.1	18.8	6.00e-01	0	44	0	1044381696	22	4962
2026-01-20 12:04:09.53	344.14	13.87	-30.4	-33.3	18.8	6.05e-01	0	44	0	1046478848	22	5027
2026-01-20 12:04:10.53	344.13	13.76	-30.3	-33.1	18.9	6.02e-01	0	44	0	1048576000	22	4935
2026-01-20 12:04:11.52	344.11	13.66	-30.4	-33.2	18.8	6.04e-01	0	44	0	1050148864	22	5006
2026-01-20 12:04:12.53	344.10	13.55	-30.4	-33.3	18.8	6.00e-01	0	44	0	1052246016	22	5016
2026-01-20 12:04:13.53	344.09	13.44	-30.3	-33.0	19.0	6.03e-01	0	44	0	1053818880	22	4910
2026-01-20 12:04:14.54	344.08	13.33	-30.2	-32.8	19.0	6.03e-01	0	44	0	1055916032	22	4866
2026-01-20 12:04:15.54	344.07	13.22	-30.2	-32.8	19.0	6.02e-01	0	44	0	1058013184	22	4865
2026-01-20 12:04:16.55	344.05	13.11	-30.1	-32.6	19.1	6.03e-01	0	44	0	1059586048	22	4775
2026-01-20 12:04:17.55	344.04	13.01	-30.3	-33.0	18.8	6.04e-01	0	44	0	1061683200	22	4935
2026-01-20 12:04:18.56	344.03	12.90	-30.3	-33.0	18.9	6.04e-01	0	44	0	1063256064	22	4921
2026-01-20 12:04:19.56	344.02	12.79	-30.3	-33.1	18.8	6.01e-01	0	44	0	1065353216	22	4951
2026-01-20 12:04:20.56	344.01	12.69	-30.3	-33.1	18.9	6.03e-01	0	44	0	1066926080	22	4947
2026-01-20 12:04:21.56	344.00	12.58	-30.3	-33.1	18.7	6.02e-01	0	44	0	1069023232	22	4946
2026-01-20 12:04:22.57	343.99	12.48	-30.4	-33.2	18.7	6.02e-01	0	44	0	1071120384	22	5011
2026-01-20 12:04:23.57	343.98	12.37	-30.4	-33.3	18.6	6.03e-01	0	44	0	1072693248	22	5043
2026-01-20 12:04:24.57	343.97	12.27	-30.2	-32.8	19.0	6.04e-01	0	44	0	1074790400	22	4847
2026-01-20 12:04:25.58	343.96	12.17	-30.1	-32.6	19.0	6.00e-01	0	44	0	1076363264	22	4791
2026-01-20 12:04:26.58	343.94	12.07	-30.3	-33.1	18.7	6.01e-01	0	44	0	1078460416	22	4968
2026-01-20 12:04:27.58	343.93	11.96	-30.3	-32.9	18.9	6.02e-01	0	44	0	1080557568	22	4908
2026-01-20 12:04:28.58	343.92	11.86	-30.2	-32.9	18.8	6.04e-01	0	44	0	1082130432	22	4893
2026-01-20 12:04:29.58	343.91	11.76	-30.3	-33.0	18.8	6.02e-01	0	44	0	1084227584	22	4916
2026-01-20 12:04:30.59	343.90	11.66	-30.3	-33.1	18.7	6.02e-01	0	44	0	1085800448	22	4975
2026-01-20 12:04:31.59	343.89	11.56	-30.2	-32.9	18.8	6.04e-01	0	44	0	1087897600	22	4894
2026-01-20 12:04:32.60	343.88	11.46	-30.4	-33.4	18.6	6.04e-01	0	44	0	1089994752	22	5068
2026-01-20 12:04:33.61	343.87	11.36	-30.4	-33.3	18.6	6.02e-01	0	44	0	1091567616	22	5036
2026-01-20 12:04:34.62	343.86	11.26	-30.2	-32.9	18.8	6.00e-01	0	44	0	1093664768	22	4896
2026-01-20 12:04:35.62	343.85	11.16	-30.2	-32.9	18.8	6.03e-01	0	44	0	1095237632	22	4903
2026-01-20 12:04:36.62	343.85	11.07	-30.3	-33.1	18.7	6.02e-01	0	44	0	1097334784	22	4975
2026-01-20 12:04:37.62	343.84	10.97	-30.4	-33.3	18.6	6.03e-01	0	44	0	1098907648	22	5026
2026-01-20 12:04:38.62	343.83	10.87	-30.3	-33.1	18.7	6.02e-01	0	44	0	1101004800	22	4985
2026-01-20 12:04:39.62	343.82	10.78	-30.2	-33.0	18.7	6.02e-01	0	44	0	1103101952	22	4925
2026-01-20 12:04:40.63	343.81	10.68	-30.2	-33.0	18.7	6.04e-01	0	44	0	1104674816	22	4920
2026-01-20 12:04:41.63	343.80	10.58	-30.5	-33.6	18.3	6.01e-01	0	44	0	1106771968	22	5144
2026-01-20 12:04:42.63	343.79	10.49	-30.4	-33.4	18.4	6.02e-01	0	44	0	1108344832	22	5093
2026-01-20 12:04:43.63	343.78	10.40	-30.4	-33.3	18.5	6.03e-01	0	44	0	1110441984	22	5055
2026-01-20 12:04:44.63	343.77	10.30	-30.3	-33.0	18.6	6.03e-01	0	44	0	1112539136	22	4953
2026-01-20 12:04:45.64	343.76	10.21	-30.4	-33.5	18.3	6.02e-01	0	44	0	1114112000	22	5125
2026-01-20 12:04:46.64	343.76	10.11	-30.4	-33.4	18.3	6.02e-01	0	44	0	1116209152	22	5111
2026-01-20 12:04:47.65	343.75	10.02	-30.4	-33.4	18.3	6.03e-01	0	44	0	1117782016	22	5109
2026-01-20 12:04:48.65	343.74	9.93	-30.5	-33.7	18.1	6.02e-01	0	44	0	1119879168	22	5213
2026-01-20 12:04:49.66	343.73	9.83	-30.6	-33.9	18.0	6.01e-01	0	44	0	1121976320	22	5275
2026-01-20 12:04:50.66	343.72	9.74	-30.5	-33.6	18.2	6.03e-01	0	44	0	1123549184	22	5174
2026-01-20 12:04:51.67	343.71	9.65	-30.6	-33.9	18.0	6.02e-01	0	44	0	1125646336	22	5280
2026-01-20 12:04:52.67	343.71	9.56	-30.6	-33.9	18.1	6.02e-01	0	44	0	1127219200	22	5278
2026-01-20 12:04:53.67	343.70	9.47	-30.7	-34.2	17.9	6.00e-01	0	44	0	1129316352	22	5412
2026-01-20 12:04:54.67	343.69	9.38	-30.6	-34.1	17.9	6.04e-01	0	44	0	1130889216	22	5352
2026-01-20 12:04:55.68	343.68	9.29	-30.6	-33.9	18.0	6.04e-01	0	44	0	1132986368	22	5291
2026-01-20 12:04:56.68	343.68	9.20	-30.6	-34.0	17.9	6.04e-01	0	44	0	1135083520	22	5339
2026-01-20 12:04:57.68	343.67	9.11	-30.6	-34.2	17.8	6.03e-01	0	44	0	1136656384	22	5404
2026-01-20 12:04:58.68	343.66	9.02	-30.7	-34.2	17.7	6.04e-01	0	44	0	1138753536	22	5423
2026-01-20 12:04:59.68	343.65	8.93	-30.7	-34.3	17.7	6.03e-01	0	44	0	1140326400	22	5446
2026-01-20 12:05:00.68	343.65	8.84	-31.0	-35.1	17.2	6.04e-01	0	44	0	1142423552	22	5814
2026-01-20 12:05:01.69	343.64	8.75	-30.9	-34.8	17.4	6.02e-01	0	44	0	1144520704	22	5684
2026-01-20 12:05:02.69	343.63	8.67	-30.7	-34.4	17.6	6.03e-01	0	44	0	1146093568	22	5523
2026-01-20 12:05:03.70	343.62	8.58	-30.7	-34.2	17.8	6.03e-01	0	44	0	1148190720	22	5440
2026-01-20 12:05:04.70	343.62	8.49	-30.7	-34.4	17.6	6.03e-01	0	44	0	1149763584	22	5487
2026-01-20 12:05:05.70	343.61	8.40	-30.8	-34.6	17.5	6.01e-01	0	44	0	1151860736	22	5581
2026-01-20 12:05:06.71	343.60	8.32	-30.8	-34.6	17.4	6.03e-01	0	44	0	1153957888	22	5609
2026-01-20 12:05:07.71	343.60	8.23	-30.8	-34.6	17.6	6.02e-01	0	44	0	1155530752	22	5572
2026-01-20 12:05:08.72	343.59	8.14	-30.7	-34.4	17.5	6.03e-01	0	44	0	1157627904	22	5534
2026-01-20 12:05:09.72	343.58	8.06	-30.8	-34.8	17.3	6.04e-01	0	44	0	1159200768	22	5684
2026-01-20 12:05:10.72	343.58	7.97	-30.8	-34.8	17.3	6.03e-01	0	44	0	1161297920	22	5676
2026-01-20 12:05:11.73	343.57	7.89	-30.9	-35.1	17.1	6.02e-01	0	44	0	1162870784	22	5809
2026-01-20 12:05:12.73	343.56	7.80	-30.9	-34.9	17.1	6.03e-01	0	44	0	1164967936	22	5755
2026-01-20 12:05:13.73	343.56	7.72	-30.8	-34.6	17.4	6.01e-01	0	44	0	1167065088	22	5614
2026-01-20 12:05:14.73	343.55	7.64	-30.9	-35.0	17.1	6.02e-01	0	44	0	1168637952	22	5766
2026-01-20 12:05:15.73	343.54	7.55	-30.9	-35.1	17.0	6.01e-01	0	44	0	1170735104	22	5831
2026-01-20 12:05:16.74	343.54	7.47	-30.7	-34.6	17.4	6.02e-01	0	44	0	1172307968	22	5612
2026-01-20 12:05:17.74	343.53	7.39	-30.9	-35.2	16.9	6.04e-01	0	44	0	1174405120	22	5880
2026-01-20 12:05:18.74	343.53	7.30	-30.9	-35.1	17.1	6.03e-01	0	44	0	1176502272	22	5828
2026-01-20 12:05:19.74	343.52	7.22	-30.8	-34.7	17.2	6.01e-01	0	44	0	1178075136	22	5650
2026-01-20 12:05:20.75	343.51	7.14	-30.8	-34.9	17.1	6.02e-01	0	44	0	1180172288	22	5739
2026-01-20 12:05:21.75	343.51	7.06	-33.6	-48.0	4.1	7.36e-01	0	44	104	1181220864	28	18870
2026-01-20 12:05:22.76	343.50	6.98	-34.0	-51.8	3.9	7.47e-01	0	44	104	1181220864	28	27764
2026-01-20 12:05:23.76	343.50	6.90	-34.3	-53.5	3.8	7.47e-01	0	44	104	1181220864	29	32848

#Closed at: 2026-01-20 12:05:23
#Recorded file [1181 MB]: D:/data/31010_260120_145451.dat