passes_logs/2026/01/20/R2M6_AANII_01/R2M6_AANII_01__20260120_121223_FENGYUN_3D_rec.log

#Pass ID: 20260120_121223_FENGYUN 3D
#Satellite: FENGYUN 3D
#Configuration: FENGYUN 3D
#almurnet v.1.7.20240730
#Start time: 2026-01-20 12:12:23

#Version: 2.2.20231116
#Station: R2M6_AANII_01
#Location: 30.233357 lon 59.946436 lat
#TLE: 1 43010U 17072A   26019.65504262 -.00000232  00000+0 -88147-4 0  9993
#TLE: 2 43010  98.9941 351.5427 0002443 100.5024 259.6427 14.19695886423913

#Time	Az	El	Level	Level2	SNR	BER	BlckErr	Temp	State	Recorded	gain1	gain2
2026-01-20 12:12:23.27	154.85	7.01	-28.7	-31.3	5.6	7.81e-01	0	42	0	0	18	4852
2026-01-20 12:12:24.27	154.85	7.08	-29.5	-32.9	5.4	7.91e-01	0	42	104	0	19	5372
2026-01-20 12:12:25.28	154.85	7.16	-29.5	-32.8	9.8	1.43e-02	0	42	0	0	19	5302
2026-01-20 12:12:26.27	154.84	7.24	-29.1	-31.8	10.6	4.55e-03	0	42	0	5242880	19	4888
2026-01-20 12:12:27.27	154.84	7.32	-29.4	-32.5	10.1	8.72e-03	0	42	0	11534336	19	5171
2026-01-20 12:12:28.27	154.83	7.40	-29.1	-31.7	10.7	5.10e-03	0	42	0	16777216	19	4868
2026-01-20 12:12:29.27	154.83	7.48	-28.8	-30.8	11.4	1.65e-03	0	42	0	22020096	19	4522
2026-01-20 12:12:30.27	154.83	7.55	-28.4	-30.4	12.0	7.05e-04	0	42	0	28311552	18	4500
2026-01-20 12:12:31.28	154.82	7.63	-28.5	-30.4	12.0	6.17e-04	0	42	0	33554432	18	4508
2026-01-20 12:12:32.27	154.82	7.71	-28.4	-30.2	12.2	2.80e-04	0	42	0	38797312	18	4418
2026-01-20 12:12:33.26	154.81	7.79	-28.5	-30.3	12.1	4.54e-04	0	42	0	45088768	18	4472
2026-01-20 12:12:34.27	154.81	7.87	-28.3	-30.4	12.3	2.54e-04	0	42	0	50331648	17	4603
2026-01-20 12:12:35.27	154.80	7.95	-28.4	-30.7	12.2	4.27e-04	0	43	0	55574528	17	4682
2026-01-20 12:12:36.28	154.80	8.04	-28.3	-30.4	12.4	2.14e-04	0	42	0	61865984	17	4579
2026-01-20 12:12:37.28	154.80	8.12	-28.2	-30.0	12.6	1.53e-04	0	43	0	67108864	17	4474
2026-01-20 12:12:38.28	154.79	8.20	-28.3	-30.4	12.4	1.30e-04	0	43	0	73400320	17	4591
2026-01-20 12:12:39.29	154.79	8.28	-28.4	-30.7	12.3	3.05e-04	0	42	0	78643200	17	4665
2026-01-20 12:12:40.29	154.78	8.36	-28.2	-30.1	12.6	1.80e-04	0	42	0	83886080	17	4490
2026-01-20 12:12:41.29	154.78	8.44	-28.3	-30.4	12.4	2.56e-04	0	43	0	90177536	17	4589
2026-01-20 12:12:42.29	154.77	8.53	-28.1	-30.0	12.7	1.44e-04	0	43	0	95420416	17	4443
2026-01-20 12:12:43.29	154.77	8.61	-28.2	-30.2	12.6	1.84e-04	0	43	0	100663296	17	4542
2026-01-20 12:12:44.29	154.76	8.69	-28.1	-30.0	12.7	1.02e-04	0	43	0	106954752	17	4476
2026-01-20 12:12:45.29	154.76	8.77	-28.3	-30.3	12.5	1.22e-04	0	43	0	112197632	17	4556
2026-01-20 12:12:46.29	154.75	8.86	-28.1	-29.8	12.8	1.10e-04	0	43	0	117440512	17	4410
2026-01-20 12:12:47.30	154.75	8.94	-28.1	-30.0	12.7	1.04e-04	0	43	0	123731968	17	4480
2026-01-20 12:12:48.30	154.75	9.02	-27.8	-29.3	13.1	4.92e-05	0	43	0	128974848	17	4259
2026-01-20 12:12:49.30	154.74	9.11	-27.9	-30.0	13.0	9.95e-05	0	43	0	135266304	16	4583
2026-01-20 12:12:50.30	154.74	9.19	-27.7	-29.6	13.2	5.26e-05	0	43	0	140509184	16	4481
2026-01-20 12:12:51.31	154.73	9.28	-27.4	-29.0	13.6	1.60e-05	0	43	0	145752064	16	4289
2026-01-20 12:12:52.31	154.73	9.36	-27.4	-28.8	13.7	1.71e-05	0	43	0	152043520	16	4240
2026-01-20 12:12:53.32	154.72	9.45	-27.3	-28.5	13.9	4.50e-06	0	43	0	157286400	16	4150
2026-01-20 12:12:54.31	154.72	9.53	-27.1	-28.6	14.0	2.20e-06	0	43	0	163577856	15	4303
2026-01-20 12:12:55.31	154.71	9.62	-27.1	-28.6	14.0	3.40e-06	0	43	0	168820736	15	4276
2026-01-20 12:12:56.31	154.70	9.71	-27.0	-28.4	14.1	5.70e-06	0	43	0	174063616	15	4229
2026-01-20 12:12:57.31	154.70	9.79	-26.9	-28.3	14.2	3.40e-06	0	43	0	179306496	15	4196
2026-01-20 12:12:58.31	154.69	9.88	-27.1	-28.6	14.0	4.50e-06	0	43	0	185597952	15	4287
2026-01-20 12:12:59.31	154.69	9.97	-27.2	-28.8	13.9	3.40e-06	0	43	0	190840832	15	4330
2026-01-20 12:13:00.32	154.68	10.06	-27.3	-29.0	13.8	9.10e-06	0	43	0	197132288	15	4388
2026-01-20 12:13:01.31	154.68	10.14	-27.0	-28.3	14.2	3.40e-06	0	43	0	202375168	15	4199
2026-01-20 12:13:02.32	154.67	10.23	-27.0	-28.2	14.3	2.20e-06	0	43	0	208666624	15	4169
2026-01-20 12:13:03.32	154.67	10.32	-27.1	-28.6	14.1	4.50e-06	0	43	0	213909504	15	4252
2026-01-20 12:13:04.33	154.66	10.41	-27.0	-28.3	14.3	1.10e-06	0	43	0	219152384	15	4190
2026-01-20 12:13:05.33	154.66	10.50	-26.9	-28.1	14.4	1.10e-06	0	43	0	225443840	15	4133
2026-01-20 12:13:06.33	154.65	10.59	-27.1	-28.4	14.2	1.10e-06	0	43	0	230686720	15	4204
2026-01-20 12:13:07.34	154.64	10.68	-27.1	-28.4	14.3	1.10e-06	0	43	0	235929600	15	4183
2026-01-20 12:13:08.34	154.64	10.77	-27.1	-28.4	14.3	1.10e-06	0	43	0	242221056	15	4183
2026-01-20 12:13:09.34	154.63	10.86	-27.0	-28.2	14.4	3.40e-06	0	43	0	247463936	15	4140
2026-01-20 12:13:10.35	154.63	10.95	-27.0	-28.3	14.4	0.00e+00	0	43	0	252706816	15	4167
2026-01-20 12:13:11.35	154.62	11.04	-27.2	-28.6	14.2	4.50e-06	0	43	0	258998272	15	4240
2026-01-20 12:13:12.36	154.61	11.13	-27.3	-28.8	14.1	3.40e-06	0	43	0	264241152	15	4315
2026-01-20 12:13:13.36	154.61	11.22	-27.0	-28.2	14.4	0.00e+00	0	43	0	270532608	15	4141
2026-01-20 12:13:14.37	154.60	11.32	-27.1	-28.5	14.2	4.50e-06	0	43	0	275775488	15	4224
2026-01-20 12:13:15.37	154.60	11.41	-27.0	-28.1	14.5	0.00e+00	0	43	0	282066944	15	4127
2026-01-20 12:13:16.37	154.59	11.50	-26.9	-28.0	14.5	2.20e-06	0	43	0	287309824	15	4096
2026-01-20 12:13:17.37	154.58	11.60	-27.2	-28.6	14.2	1.10e-06	0	43	0	292552704	15	4242
2026-01-20 12:13:18.37	154.58	11.69	-27.2	-28.7	14.2	0.00e+00	0	43	0	298844160	15	4273
2026-01-20 12:13:19.38	154.57	11.78	-27.2	-28.7	14.1	4.50e-06	0	43	0	304087040	15	4280
2026-01-20 12:13:20.39	154.56	11.88	-27.2	-28.8	14.1	2.20e-06	0	43	0	309329920	15	4303
2026-01-20 12:13:21.39	154.56	11.97	-27.0	-28.3	14.4	3.40e-06	0	43	0	315621376	15	4165
2026-01-20 12:13:22.39	154.55	12.07	-26.9	-28.0	14.6	1.10e-06	0	44	0	320864256	15	4082
2026-01-20 12:13:23.39	154.54	12.16	-26.8	-27.9	14.6	0.00e+00	0	43	0	326107136	15	4061
2026-01-20 12:13:24.40	154.54	12.26	-27.0	-28.3	14.4	0.00e+00	0	44	0	332398592	15	4155
2026-01-20 12:13:25.41	154.53	12.36	-26.8	-27.9	14.7	0.00e+00	0	43	0	337641472	15	4050
2026-01-20 12:13:26.41	154.52	12.45	-26.7	-28.0	14.9	0.00e+00	0	44	0	343932928	14	4199
2026-01-20 12:13:27.42	154.52	12.55	-26.8	-28.3	14.7	0.00e+00	0	43	0	349175808	14	4282
2026-01-20 12:13:28.42	154.51	12.65	-26.8	-28.3	14.7	1.10e-06	0	43	0	355467264	14	4266
2026-01-20 12:13:29.42	154.50	12.75	-26.8	-28.3	14.8	2.20e-06	0	44	0	360710144	14	4257
2026-01-20 12:13:30.43	154.50	12.84	-26.9	-28.6	14.6	0.00e+00	0	44	0	365953024	14	4339
2026-01-20 12:13:31.44	154.49	12.94	-26.9	-28.4	14.7	1.10e-06	0	44	0	372244480	14	4303
2026-01-20 12:13:32.44	154.48	13.04	-26.9	-28.5	14.6	0.00e+00	0	44	0	377487360	14	4332
2026-01-20 12:13:33.44	154.47	13.14	-26.8	-28.2	14.8	0.00e+00	0	44	0	382730240	14	4237
2026-01-20 12:13:34.44	154.47	13.24	-26.7	-28.1	14.9	2.20e-06	0	44	0	389021696	14	4210
2026-01-20 12:13:35.44	154.46	13.34	-26.8	-28.2	14.8	1.10e-06	0	43	0	394264576	14	4251
2026-01-20 12:13:36.44	154.45	13.44	-26.9	-28.5	14.7	1.10e-06	0	44	0	399507456	14	4304
2026-01-20 12:13:37.45	154.44	13.54	-26.6	-27.8	15.1	0.00e+00	0	44	0	405798912	14	4122
2026-01-20 12:13:38.44	154.44	13.64	-26.6	-27.7	15.1	0.00e+00	0	44	0	411041792	14	4114
2026-01-20 12:13:39.44	154.43	13.74	-26.6	-27.7	15.2	0.00e+00	0	44	0	417333248	14	4098
2026-01-20 12:13:40.45	154.42	13.85	-26.5	-27.6	15.2	0.00e+00	0	44	0	422576128	14	4075
2026-01-20 12:13:41.45	154.41	13.95	-26.5	-27.6	15.2	1.10e-06	0	44	0	427819008	14	4077
2026-01-20 12:13:42.46	154.40	14.05	-26.5	-27.5	15.3	1.10e-06	0	44	0	434110464	14	4037
2026-01-20 12:13:43.46	154.40	14.16	-26.4	-27.4	15.3	0.00e+00	0	44	0	439353344	14	4016
2026-01-20 12:13:44.46	154.39	14.26	-26.4	-27.4	15.4	0.00e+00	0	44	0	445644800	14	4020
2026-01-20 12:13:45.47	154.38	14.37	-26.4	-27.4	15.3	0.00e+00	0	44	0	450887680	14	4021
2026-01-20 12:13:46.47	154.37	14.47	-26.4	-27.4	15.3	0.00e+00	0	44	0	456130560	14	4031
2026-01-20 12:13:47.47	154.36	14.58	-26.5	-27.6	15.2	0.00e+00	0	44	0	462422016	14	4088
2026-01-20 12:13:48.47	154.36	14.68	-26.6	-27.7	15.2	0.00e+00	0	44	0	467664896	14	4096
2026-01-20 12:13:49.47	154.35	14.79	-26.5	-27.6	15.3	0.00e+00	0	44	0	472907776	14	4080
2026-01-20 12:13:50.48	154.34	14.90	-26.4	-27.3	15.4	0.00e+00	0	44	0	479199232	14	3994
2026-01-20 12:13:51.48	154.33	15.00	-26.5	-27.5	15.3	0.00e+00	0	44	0	484442112	14	4062
2026-01-20 12:13:52.49	154.32	15.11	-26.5	-27.6	15.2	1.10e-06	0	44	0	490733568	14	4085
2026-01-20 12:13:53.50	154.31	15.22	-26.2	-27.5	15.6	0.00e+00	0	44	0	495976448	13	4164
2026-01-20 12:13:54.50	154.30	15.33	-26.3	-27.6	15.5	0.00e+00	0	44	0	501219328	13	4202
2026-01-20 12:13:55.50	154.29	15.44	-26.4	-27.8	15.4	0.00e+00	0	44	0	507510784	13	4255
2026-01-20 12:13:56.51	154.28	15.55	-26.4	-27.8	15.4	1.10e-06	0	44	0	512753664	13	4255
2026-01-20 12:13:57.51	154.28	15.66	-26.1	-27.1	15.8	0.00e+00	0	44	0	519045120	13	4056
2026-01-20 12:13:58.51	154.27	15.77	-26.0	-27.0	15.9	0.00e+00	0	44	0	524288000	13	4026
2026-01-20 12:13:59.51	154.26	15.88	-25.8	-26.6	16.1	0.00e+00	0	44	0	529530880	13	3937
2026-01-20 12:14:00.52	154.25	15.99	-26.0	-26.9	16.0	0.00e+00	0	44	0	535822336	13	4009
2026-01-20 12:14:01.52	154.24	16.10	-25.9	-26.7	16.1	0.00e+00	0	44	0	541065216	13	3956
2026-01-20 12:14:02.52	154.23	16.22	-25.9	-26.7	16.1	0.00e+00	0	44	0	546308096	13	3952
2026-01-20 12:14:03.52	154.22	16.33	-25.9	-26.6	16.1	0.00e+00	0	44	0	552599552	13	3940
2026-01-20 12:14:04.52	154.21	16.44	-26.0	-26.9	15.9	0.00e+00	0	44	0	557842432	13	4017
2026-01-20 12:14:05.52	154.20	16.56	-26.1	-27.2	15.8	0.00e+00	0	44	0	564133888	13	4076
2026-01-20 12:14:06.52	154.19	16.67	-26.1	-27.1	15.9	0.00e+00	0	44	0	569376768	13	4054
2026-01-20 12:14:07.52	154.18	16.79	-26.2	-27.4	15.7	0.00e+00	0	44	0	574619648	13	4142
2026-01-20 12:14:08.52	154.17	16.90	-26.2	-27.3	15.8	0.00e+00	0	44	0	580911104	13	4111
2026-01-20 12:14:09.53	154.16	17.02	-26.0	-27.0	16.0	0.00e+00	0	44	0	586153984	13	4026
2026-01-20 12:14:10.53	154.15	17.14	-25.9	-26.8	16.1	0.00e+00	0	44	0	591396864	13	3969
2026-01-20 12:14:11.52	154.14	17.25	-26.0	-27.0	15.9	0.00e+00	0	44	0	597688320	13	4041
2026-01-20 12:14:12.53	154.13	17.37	-26.0	-26.9	16.0	0.00e+00	0	44	0	602931200	13	4000
2026-01-20 12:14:13.53	154.11	17.49	-25.8	-26.5	16.3	0.00e+00	0	44	0	608174080	13	3904
2026-01-20 12:14:14.53	154.10	17.61	-25.7	-26.8	16.4	0.00e+00	0	44	0	614465536	12	4068
2026-01-20 12:14:15.54	154.09	17.73	-25.7	-26.8	16.4	0.00e+00	0	44	0	619708416	12	4065
2026-01-20 12:14:16.54	154.08	17.85	-25.4	-26.1	16.7	0.00e+00	0	44	0	625999872	12	3916
2026-01-20 12:14:17.54	154.07	17.97	-25.4	-26.1	16.8	0.00e+00	0	44	0	631242752	12	3902
2026-01-20 12:14:18.54	154.06	18.09	-25.4	-26.0	16.8	0.00e+00	0	44	0	636485632	12	3877
2026-01-20 12:14:19.54	154.05	18.21	-25.3	-26.3	17.0	0.00e+00	0	44	0	642777088	11	4054
2026-01-20 12:14:20.55	154.04	18.34	-25.4	-26.5	16.9	0.00e+00	0	44	0	648019968	11	4113
2026-01-20 12:14:21.55	154.02	18.46	-25.3	-26.4	17.0	0.00e+00	0	44	0	653262848	11	4091
2026-01-20 12:14:22.56	154.01	18.59	-25.5	-26.7	16.8	0.00e+00	0	44	0	659554304	11	4158
2026-01-20 12:14:23.56	154.00	18.71	-25.4	-26.6	16.9	0.00e+00	0	44	0	664797184	11	4140
2026-01-20 12:14:24.56	153.99	18.83	-25.2	-26.2	17.1	0.00e+00	0	44	0	670040064	11	4026
2026-01-20 12:14:25.56	153.98	18.96	-25.2	-26.2	17.1	0.00e+00	0	44	0	676331520	11	4021
2026-01-20 12:14:26.57	153.96	19.09	-25.2	-26.2	17.1	0.00e+00	0	44	0	681574400	11	4016
2026-01-20 12:14:27.57	153.95	19.22	-25.3	-26.3	17.1	0.00e+00	0	44	0	687865856	11	4049
2026-01-20 12:14:28.57	153.94	19.34	-25.2	-26.2	17.1	0.00e+00	0	44	0	693108736	11	4023
2026-01-20 12:14:29.58	153.93	19.47	-25.3	-26.4	17.0	0.00e+00	0	44	0	699400192	11	4072
2026-01-20 12:14:30.58	153.91	19.60	-25.3	-26.3	17.1	0.00e+00	0	44	0	704643072	11	4055
2026-01-20 12:14:31.59	153.90	19.73	-25.2	-26.2	17.2	0.00e+00	0	44	0	709885952	11	4024
2026-01-20 12:14:32.60	153.89	19.86	-25.2	-26.1	17.2	0.00e+00	0	44	0	716177408	11	3994
2026-01-20 12:14:33.60	153.87	20.00	-25.3	-26.4	17.0	0.00e+00	0	44	0	721420288	11	4070
2026-01-20 12:14:34.59	153.86	20.13	-25.3	-26.4	17.1	1.10e-06	0	44	0	726663168	11	4073
2026-01-20 12:14:35.60	153.85	20.26	-25.2	-26.2	17.1	0.00e+00	0	44	0	732954624	11	4032
2026-01-20 12:14:36.60	153.83	20.39	-25.3	-26.3	17.1	0.00e+00	0	44	0	738197504	11	4054
2026-01-20 12:14:37.60	153.82	20.53	-25.3	-26.3	17.1	2.20e-06	0	44	0	743440384	11	4045
2026-01-20 12:14:38.59	153.81	20.66	-25.4	-26.5	17.0	0.00e+00	0	44	0	749731840	11	4111
2026-01-20 12:14:39.59	153.79	20.79	-25.4	-26.5	17.0	0.00e+00	0	44	0	754974720	11	4096
2026-01-20 12:14:40.59	153.78	20.93	-25.2	-26.2	17.2	1.10e-06	0	44	0	761266176	11	4030
2026-01-20 12:14:41.59	153.76	21.07	-25.2	-26.1	17.2	0.00e+00	0	44	0	766509056	11	4006
2026-01-20 12:14:42.59	153.75	21.20	-25.2	-26.2	17.2	0.00e+00	0	44	0	771751936	11	4033
2026-01-20 12:14:43.59	153.73	21.34	-25.2	-26.1	17.2	0.00e+00	0	44	0	778043392	11	4010
2026-01-20 12:14:44.59	153.72	21.48	-25.2	-26.1	17.3	0.00e+00	0	44	0	783286272	11	4004
2026-01-20 12:14:45.59	153.70	21.62	-25.1	-26.0	17.3	0.00e+00	0	44	0	788529152	11	3976
2026-01-20 12:14:46.59	153.69	21.76	-25.1	-26.0	17.3	0.00e+00	0	44	0	794820608	11	3970
2026-01-20 12:14:47.60	153.67	21.91	-25.1	-25.9	17.4	0.00e+00	0	44	0	800063488	11	3960
2026-01-20 12:14:48.60	153.66	22.05	-25.2	-26.2	17.2	0.00e+00	0	44	0	806354944	11	4014
2026-01-20 12:14:49.60	153.64	22.19	-25.1	-26.0	17.4	0.00e+00	0	44	0	811597824	11	3971
2026-01-20 12:14:50.60	153.63	22.33	-25.2	-26.1	17.3	0.00e+00	0	44	0	816840704	11	4005
2026-01-20 12:14:51.60	153.61	22.48	-25.1	-26.0	17.4	0.00e+00	0	44	0	823132160	11	3963
2026-01-20 12:14:52.61	153.59	22.63	-25.1	-26.0	17.4	1.10e-06	0	44	0	828375040	11	3969
2026-01-20 12:14:53.61	153.58	22.77	-25.2	-26.0	17.4	0.00e+00	0	44	0	834666496	11	3988
2026-01-20 12:14:54.61	153.56	22.92	-25.1	-25.9	17.5	0.00e+00	0	44	0	839909376	11	3943
2026-01-20 12:14:55.62	153.54	23.07	-25.1	-26.0	17.4	0.00e+00	0	44	0	845152256	11	3971
2026-01-20 12:14:56.62	153.53	23.22	-25.1	-26.0	17.4	0.00e+00	0	44	0	851443712	11	3964
2026-01-20 12:14:57.63	153.51	23.37	-25.0	-25.7	17.5	0.00e+00	0	44	0	856686592	11	3897
2026-01-20 12:14:58.63	153.49	23.52	-24.8	-25.2	17.8	0.00e+00	0	44	0	861929472	11	3792
2026-01-20 12:14:59.64	153.47	23.67	-24.7	-25.6	17.8	0.00e+00	0	44	0	868220928	10	3991
2026-01-20 12:15:00.64	153.46	23.82	-24.8	-25.8	17.8	0.00e+00	0	44	0	873463808	10	4036
2026-01-20 12:15:01.64	153.44	23.98	-25.0	-26.3	17.6	0.00e+00	0	44	0	879755264	10	4155
2026-01-20 12:15:02.65	153.42	24.13	-25.0	-26.2	17.6	0.00e+00	0	44	0	884998144	10	4128
2026-01-20 12:15:03.65	153.40	24.29	-24.9	-25.9	17.7	0.00e+00	0	44	0	890241024	10	4058
2026-01-20 12:15:04.66	153.38	24.44	-24.8	-25.8	17.8	0.00e+00	0	44	0	896532480	10	4035
2026-01-20 12:15:05.67	153.36	24.60	-24.9	-26.0	17.8	0.00e+00	0	44	0	901775360	10	4066
2026-01-20 12:15:06.68	153.34	24.76	-24.8	-25.8	17.8	0.00e+00	0	44	0	908066816	10	4039
2026-01-20 12:15:07.68	153.32	24.92	-25.0	-26.1	17.7	0.00e+00	0	44	0	913309696	10	4103
2026-01-20 12:15:08.68	153.30	25.08	-25.0	-26.2	17.6	0.00e+00	0	44	0	918552576	10	4133
2026-01-20 12:15:09.68	153.29	25.24	-24.8	-25.9	17.8	0.00e+00	0	44	0	924844032	10	4045
2026-01-20 12:15:10.69	153.26	25.40	-24.6	-25.3	18.1	0.00e+00	0	44	0	930086912	10	3913
2026-01-20 12:15:11.69	153.24	25.57	-24.5	-25.2	18.2	0.00e+00	0	44	0	935329792	10	3897
2026-01-20 12:15:12.69	153.22	25.73	-24.5	-25.1	18.2	0.00e+00	0	44	0	941621248	10	3865
2026-01-20 12:15:13.68	153.20	25.89	-24.6	-25.3	18.1	0.00e+00	0	44	0	946864128	10	3922
2026-01-20 12:15:14.69	153.18	26.06	-24.5	-25.1	18.2	0.00e+00	0	44	0	953155584	10	3871
2026-01-20 12:15:15.69	153.16	26.23	-24.3	-24.8	18.4	0.00e+00	0	44	0	958398464	10	3792
2026-01-20 12:15:16.69	153.14	26.39	-24.3	-24.7	18.5	0.00e+00	0	44	0	963641344	10	3755
2026-01-20 12:15:17.70	153.12	26.56	-24.3	-24.8	18.4	0.00e+00	0	44	0	969932800	10	3784
2026-01-20 12:15:18.70	153.10	26.73	-24.3	-24.6	18.5	0.00e+00	0	44	0	975175680	10	3752
2026-01-20 12:15:19.70	153.07	26.91	-24.3	-25.1	18.5	0.00e+00	0	44	0	980418560	9	3973
2026-01-20 12:15:20.69	153.05	27.08	-24.2	-24.9	18.6	0.00e+00	0	44	0	986710016	9	3924
2026-01-20 12:15:21.70	153.03	27.25	-24.0	-24.6	18.8	0.00e+00	0	44	0	991952896	9	3845
2026-01-20 12:15:22.70	153.01	27.42	-24.1	-24.7	18.7	0.00e+00	0	44	0	997195776	9	3879
2026-01-20 12:15:23.71	152.98	27.60	-24.1	-24.8	18.6	0.00e+00	0	44	0	1003487232	9	3891
2026-01-20 12:15:24.71	152.96	27.78	-24.1	-24.8	18.7	0.00e+00	0	44	0	1008730112	9	3903
2026-01-20 12:15:25.71	152.93	27.96	-24.1	-24.8	18.7	0.00e+00	0	44	0	1015021568	9	3897
2026-01-20 12:15:26.71	152.91	28.13	-24.1	-24.7	18.7	0.00e+00	0	44	0	1020264448	9	3883
2026-01-20 12:15:27.71	152.88	28.31	-24.1	-24.8	18.7	0.00e+00	0	44	0	1025507328	9	3892
2026-01-20 12:15:28.71	152.86	28.49	-24.1	-24.8	18.7	0.00e+00	0	44	0	1031798784	9	3891
2026-01-20 12:15:29.71	152.83	28.68	-24.1	-24.8	18.7	0.00e+00	0	44	0	1037041664	9	3899
2026-01-20 12:15:30.72	152.81	28.86	-24.2	-25.0	18.6	0.00e+00	0	44	0	1043333120	9	3949
2026-01-20 12:15:31.72	152.78	29.05	-24.1	-24.8	18.7	0.00e+00	0	44	0	1048576000	9	3904
2026-01-20 12:15:32.73	152.76	29.23	-24.1	-24.8	18.7	0.00e+00	0	44	0	1053818880	9	3897
2026-01-20 12:15:33.73	152.73	29.42	-24.2	-24.9	18.7	0.00e+00	0	44	0	1060110336	9	3916
2026-01-20 12:15:34.73	152.70	29.61	-24.2	-25.0	18.6	0.00e+00	0	44	0	1065353216	9	3942
2026-01-20 12:15:35.73	152.68	29.80	-24.3	-25.1	18.5	0.00e+00	0	44	0	1070596096	9	3967
2026-01-20 12:15:36.74	152.65	29.99	-24.3	-25.1	18.5	0.00e+00	0	44	0	1076887552	9	3975
2026-01-20 12:15:37.74	152.62	30.18	-24.1	-24.7	18.7	0.00e+00	0	44	0	1082130432	9	3877
2026-01-20 12:15:38.75	152.59	30.38	-23.9	-24.3	19.0	0.00e+00	0	44	0	1088421888	9	3788
2026-01-20 12:15:39.75	152.56	30.57	-23.9	-24.3	19.0	0.00e+00	0	44	0	1093664768	9	3779
2026-01-20 12:15:40.75	152.53	30.77	-23.9	-24.3	19.0	0.00e+00	0	44	0	1098907648	9	3776
2026-01-20 12:15:41.75	152.50	30.97	-23.9	-24.3	19.0	0.00e+00	0	44	0	1105199104	9	3774
2026-01-20 12:15:42.75	152.47	31.16	-24.0	-24.5	18.9	0.00e+00	0	44	0	1110441984	9	3830
2026-01-20 12:15:43.75	152.44	31.36	-23.9	-24.5	18.9	0.00e+00	0	44	0	1115684864	9	3814
2026-01-20 12:15:44.76	152.41	31.57	-23.9	-24.4	19.0	0.00e+00	0	44	0	1121976320	9	3794
2026-01-20 12:15:45.76	152.38	31.77	-24.1	-24.7	18.8	0.00e+00	0	44	0	1127219200	9	3864
2026-01-20 12:15:46.76	152.35	31.97	-24.0	-24.5	18.9	0.00e+00	0	44	0	1132462080	9	3818
2026-01-20 12:15:47.76	152.32	32.18	-24.0	-24.6	18.8	0.00e+00	0	44	0	1138753536	9	3858
2026-01-20 12:15:48.76	152.29	32.39	-24.0	-24.6	18.9	0.00e+00	0	44	0	1143996416	9	3857
2026-01-20 12:15:49.76	152.25	32.60	-24.1	-24.8	18.8	0.00e+00	0	44	0	1150287872	9	3891
2026-01-20 12:15:50.77	152.22	32.81	-24.5	-25.5	18.4	0.00e+00	0	44	0	1155530752	9	4069
2026-01-20 12:15:51.77	152.18	33.02	-24.4	-25.4	18.5	0.00e+00	0	44	0	1161822208	9	4043
2026-01-20 12:15:52.78	152.15	33.23	-24.1	-24.9	18.8	0.00e+00	0	44	0	1167065088	9	3912
2026-01-20 12:15:53.78	152.11	33.45	-23.9	-24.4	19.0	0.00e+00	0	44	0	1172307968	9	3813
2026-01-20 12:15:54.79	152.08	33.66	-23.8	-24.2	19.1	0.00e+00	0	44	0	1178599424	9	3753
2026-01-20 12:15:55.80	152.04	33.88	-23.7	-24.4	19.2	0.00e+00	0	44	0	1183842304	8	3900
2026-01-20 12:15:56.80	152.01	34.10	-23.6	-24.2	19.3	0.00e+00	0	44	0	1189085184	8	3852
2026-01-20 12:15:57.81	151.97	34.33	-23.4	-23.8	19.5	0.00e+00	0	44	0	1195376640	8	3780
2026-01-20 12:15:58.81	151.93	34.55	-23.4	-23.8	19.5	0.00e+00	0	44	0	1200619520	8	3774
2026-01-20 12:15:59.81	151.89	34.77	-23.2	-24.0	19.7	0.00e+00	0	44	0	1206910976	7	3908
2026-01-20 12:16:00.82	151.85	35.00	-23.3	-24.1	19.6	0.00e+00	0	44	0	1212153856	7	3954
2026-01-20 12:16:01.83	151.81	35.23	-23.3	-24.1	19.6	0.00e+00	0	44	0	1217396736	7	3949
2026-01-20 12:16:02.83	151.77	35.46	-23.4	-24.4	19.5	0.00e+00	0	44	0	1223688192	7	4010
2026-01-20 12:16:03.83	151.73	35.69	-23.6	-24.7	19.3	0.00e+00	0	44	0	1228931072	7	4085
2026-01-20 12:16:04.83	151.69	35.92	-23.7	-24.9	19.3	0.00e+00	0	44	0	1235222528	7	4129
2026-01-20 12:16:05.84	151.65	36.15	-23.8	-25.1	19.2	0.00e+00	0	44	0	1240465408	7	4180
2026-01-20 12:16:06.84	151.61	36.39	-23.8	-25.0	19.2	0.00e+00	0	44	0	1245708288	7	4176
2026-01-20 12:16:07.85	151.57	36.63	-23.8	-25.1	19.2	0.00e+00	0	44	0	1251999744	7	4179
2026-01-20 12:16:08.85	151.52	36.86	-23.7	-24.9	19.2	0.00e+00	0	44	0	1257242624	7	4144
2026-01-20 12:16:09.85	151.48	37.10	-23.7	-24.9	19.2	0.00e+00	0	44	0	1262485504	7	4143
2026-01-20 12:16:10.86	151.43	37.35	-23.7	-24.9	19.2	0.00e+00	0	44	0	1268776960	7	4145
2026-01-20 12:16:11.87	151.38	37.59	-23.8	-25.2	19.1	0.00e+00	0	44	0	1274019840	7	4215
2026-01-20 12:16:12.87	151.34	37.84	-23.8	-25.2	19.1	0.00e+00	0	44	0	1280311296	7	4210
2026-01-20 12:16:13.87	151.29	38.09	-23.8	-25.2	19.1	0.00e+00	0	44	0	1285554176	7	4212
2026-01-20 12:16:14.88	151.24	38.34	-24.0	-25.5	19.0	0.00e+00	0	44	0	1290797056	7	4295
2026-01-20 12:16:15.88	151.19	38.59	-23.7	-24.5	19.3	0.00e+00	0	44	0	1297088512	8	3921
2026-01-20 12:16:16.89	151.14	38.84	-23.5	-24.1	19.5	0.00e+00	0	44	0	1302331392	8	3825
2026-01-20 12:16:17.90	151.09	39.10	-23.6	-24.2	19.4	0.00e+00	0	44	0	1308622848	8	3868
2026-01-20 12:16:18.90	151.04	39.36	-23.7	-24.5	19.3	0.00e+00	0	44	0	1313865728	8	3918
2026-01-20 12:16:19.90	150.99	39.62	-23.8	-24.7	19.2	0.00e+00	0	44	0	1319108608	8	3977
2026-01-20 12:16:20.90	150.93	39.88	-23.9	-24.8	19.1	0.00e+00	0	44	0	1325400064	8	3996
2026-01-20 12:16:21.90	150.88	40.14	-23.9	-24.9	19.1	0.00e+00	0	44	0	1330642944	8	4018
2026-01-20 12:16:22.91	150.83	40.40	-24.1	-25.3	18.9	0.00e+00	0	44	0	1335885824	8	4113
2026-01-20 12:16:23.91	150.77	40.67	-24.2	-25.4	18.8	0.00e+00	0	44	0	1342177280	8	4147
2026-01-20 12:16:24.91	150.71	40.94	-24.2	-25.5	18.8	0.00e+00	0	44	0	1347420160	8	4175
2026-01-20 12:16:25.92	150.65	41.21	-24.2	-25.4	18.8	0.00e+00	0	44	0	1353711616	8	4145
2026-01-20 12:16:26.92	150.59	41.48	-24.3	-25.6	18.7	0.00e+00	0	44	0	1358954496	8	4201
2026-01-20 12:16:27.93	150.53	41.76	-24.2	-25.5	18.8	0.00e+00	0	44	0	1364197376	8	4175
2026-01-20 12:16:28.93	150.47	42.03	-24.1	-25.3	18.9	0.00e+00	0	44	0	1370488832	8	4132
2026-01-20 12:16:29.93	150.41	42.31	-24.2	-25.5	18.8	0.00e+00	0	44	0	1375731712	8	4166
2026-01-20 12:16:30.93	150.35	42.59	-24.1	-25.3	18.9	0.00e+00	0	44	0	1382023168	8	4125
2026-01-20 12:16:31.94	150.28	42.88	-24.4	-25.8	18.7	0.00e+00	0	44	0	1387266048	8	4257
2026-01-20 12:16:32.94	150.22	43.16	-24.2	-25.4	18.9	0.00e+00	0	44	0	1392508928	8	4158
2026-01-20 12:16:33.94	150.15	43.45	-24.0	-25.1	19.1	0.00e+00	0	44	0	1398800384	8	4069
2026-01-20 12:16:34.94	150.08	43.74	-24.0	-25.1	19.1	0.00e+00	0	44	0	1404043264	8	4059
2026-01-20 12:16:35.94	150.01	44.03	-24.2	-25.3	18.9	0.00e+00	0	44	0	1409286144	8	4130
2026-01-20 12:16:36.94	149.94	44.32	-24.1	-25.1	19.0	0.00e+00	0	44	0	1415577600	8	4076
2026-01-20 12:16:37.94	149.87	44.61	-24.0	-25.1	19.1	0.00e+00	0	44	0	1420820480	8	4059
2026-01-20 12:16:38.93	149.79	44.91	-24.2	-25.6	18.8	0.00e+00	0	44	0	1426063360	8	4185
2026-01-20 12:16:39.94	149.72	45.21	-24.3	-25.6	18.8	0.00e+00	0	44	0	1432354816	8	4207
2026-01-20 12:16:40.94	149.64	45.51	-24.5	-25.6	18.5	0.00e+00	0	44	0	1437597696	9	4096
2026-01-20 12:16:41.94	149.56	45.81	-24.7	-25.9	18.4	0.00e+00	0	44	0	1443889152	9	4174
2026-01-20 12:16:42.94	149.48	46.12	-24.5	-25.5	18.6	0.00e+00	0	44	0	1449132032	9	4067
2026-01-20 12:16:43.94	149.40	46.43	-24.1	-24.7	19.0	0.00e+00	0	44	0	1454374912	9	3858
2026-01-20 12:16:44.95	149.32	46.74	-23.8	-24.1	19.3	0.00e+00	0	44	0	1460666368	9	3737
2026-01-20 12:16:45.95	149.23	47.05	-23.9	-24.3	19.3	0.00e+00	0	44	0	1465909248	9	3766
2026-01-20 12:16:46.95	149.15	47.37	-23.7	-24.3	19.5	0.00e+00	0	44	0	1471152128	8	3875
2026-01-20 12:16:47.95	149.06	47.69	-23.6	-24.2	19.5	0.00e+00	0	44	0	1477443584	8	3859
2026-01-20 12:16:48.95	148.97	48.00	-23.9	-24.8	19.3	0.00e+00	0	44	0	1482686464	8	4000
2026-01-20 12:16:49.94	148.87	48.32	-24.0	-25.0	19.2	0.00e+00	0	44	0	1487929344	8	4049
2026-01-20 12:16:50.94	148.78	48.65	-24.2	-25.4	19.0	0.00e+00	0	44	0	1494220800	8	4148
2026-01-20 12:16:51.94	148.68	48.97	-24.0	-25.1	19.1	0.00e+00	0	44	0	1499463680	8	4061
2026-01-20 12:16:52.94	148.58	49.30	-23.8	-24.7	19.3	0.00e+00	0	44	0	1505755136	8	3969
2026-01-20 12:16:53.95	148.48	49.64	-24.0	-24.9	19.3	0.00e+00	0	44	0	1510998016	8	4021
2026-01-20 12:16:54.94	148.38	49.96	-24.3	-25.7	18.8	0.00e+00	0	44	0	1516240896	8	4225
2026-01-20 12:16:55.94	148.28	50.30	-24.8	-26.3	18.3	0.00e+00	0	44	0	1522532352	9	4251
2026-01-20 12:16:56.94	148.17	50.64	-24.9	-26.5	18.2	0.00e+00	0	44	0	1527775232	9	4316
2026-01-20 12:16:57.95	148.06	50.98	-25.3	-26.7	17.8	0.00e+00	0	44	0	1533018112	10	4257
2026-01-20 12:16:58.95	147.94	51.32	-25.3	-26.8	17.8	0.00e+00	0	44	0	1539309568	10	4267
2026-01-20 12:16:59.96	147.83	51.67	-25.3	-26.7	17.9	0.00e+00	0	44	0	1544552448	10	4236
2026-01-20 12:17:00.97	147.71	52.02	-25.1	-26.4	18.0	0.00e+00	0	44	0	1550843904	10	4170
2026-01-20 12:17:01.98	147.58	52.38	-25.3	-26.7	17.9	0.00e+00	0	44	0	1556086784	10	4231
2026-01-20 12:17:02.98	147.46	52.73	-25.3	-26.9	17.8	0.00e+00	0	44	0	1562378240	10	4286
2026-01-20 12:17:03.99	147.33	53.09	-25.6	-26.8	17.6	0.00e+00	0	44	0	1567621120	11	4167
2026-01-20 12:17:04.99	147.20	53.44	-25.4	-26.5	17.7	0.00e+00	0	44	0	1572864000	11	4083
2026-01-20 12:17:05.99	147.06	53.80	-25.5	-26.7	17.7	0.00e+00	0	44	0	1579155456	11	4123
2026-01-20 12:17:07.00	146.92	54.17	-25.4	-26.4	17.7	0.00e+00	0	44	0	1584398336	11	4070
2026-01-20 12:17:08.01	146.78	54.54	-25.4	-26.5	17.7	0.00e+00	0	44	0	1589641216	11	4078
2026-01-20 12:17:09.01	146.64	54.90	-25.2	-26.1	17.9	0.00e+00	0	44	0	1595932672	11	3976
2026-01-20 12:17:10.01	146.49	55.27	-25.0	-25.6	18.2	0.00e+00	0	44	0	1601175552	11	3859
2026-01-20 12:17:11.01	146.33	55.64	-25.0	-25.7	18.2	0.00e+00	0	44	0	1606418432	11	3875
2026-01-20 12:17:12.00	146.18	56.01	-25.3	-26.2	17.9	0.00e+00	0	44	0	1612709888	11	4018
2026-01-20 12:17:13.00	146.02	56.39	-25.2	-26.2	17.9	0.00e+00	0	44	0	1617952768	11	4003
2026-01-20 12:17:14.01	145.85	56.77	-25.6	-26.9	17.5	0.00e+00	0	44	0	1624244224	11	4175
2026-01-20 12:17:15.01	145.68	57.15	-25.1	-25.8	18.1	0.00e+00	0	44	0	1629487104	11	3916
2026-01-20 12:17:16.01	145.50	57.53	-24.6	-25.3	18.6	0.00e+00	0	44	0	1635778560	10	3889
2026-01-20 12:17:17.01	145.32	57.92	-24.3	-24.7	19.0	0.00e+00	0	44	0	1641021440	10	3754
2026-01-20 12:17:18.02	145.13	58.31	-24.6	-25.2	18.7	0.00e+00	0	45	0	1646264320	10	3870
2026-01-20 12:17:19.03	144.94	58.70	-24.3	-24.6	19.0	0.00e+00	0	44	0	1652555776	10	3744
2026-01-20 12:17:20.02	144.74	59.09	-23.9	-24.4	19.4	0.00e+00	0	44	0	1657798656	9	3782
2026-01-20 12:17:21.03	144.54	59.49	-23.6	-24.2	19.7	0.00e+00	0	44	0	1663041536	8	3850
2026-01-20 12:17:22.03	144.32	59.88	-23.7	-24.3	19.7	0.00e+00	0	44	0	1669332992	8	3871
2026-01-20 12:17:23.03	144.11	60.28	-23.8	-24.5	19.6	0.00e+00	0	44	0	1674575872	8	3906
2026-01-20 12:17:24.03	143.88	60.68	-24.1	-25.1	19.3	0.00e+00	0	44	0	1679818752	8	4078
2026-01-20 12:17:25.03	143.65	61.08	-24.1	-25.3	19.2	0.00e+00	0	45	0	1686110208	8	4122
2026-01-20 12:17:26.04	143.41	61.49	-24.4	-25.8	18.9	0.00e+00	0	44	0	1691353088	8	4243
2026-01-20 12:17:27.04	143.16	61.90	-24.2	-25.4	19.1	0.00e+00	0	44	0	1697644544	8	4139
2026-01-20 12:17:28.04	142.91	62.31	-24.2	-25.5	19.1	0.00e+00	0	44	0	1702887424	8	4160
2026-01-20 12:17:29.04	142.64	62.72	-24.3	-25.7	18.9	0.00e+00	0	44	0	1708130304	8	4230
2026-01-20 12:17:30.04	142.37	63.13	-23.9	-24.8	19.4	0.00e+00	0	44	0	1714421760	8	3993
2026-01-20 12:17:31.05	142.08	63.55	-23.7	-24.4	19.6	0.00e+00	0	45	0	1719664640	8	3911
2026-01-20 12:17:32.05	141.79	63.96	-24.2	-25.4	19.1	0.00e+00	0	45	0	1724907520	8	4153
2026-01-20 12:17:33.05	141.48	64.38	-23.8	-24.6	19.5	0.00e+00	0	44	0	1731198976	8	3955
2026-01-20 12:17:34.06	141.16	64.81	-23.4	-23.8	19.9	0.00e+00	0	44	0	1736441856	8	3762
2026-01-20 12:17:35.07	140.83	65.23	-23.5	-23.9	19.9	0.00e+00	0	44	0	1742733312	8	3778
2026-01-20 12:17:36.07	140.49	65.65	-23.9	-24.8	19.4	0.00e+00	0	44	0	1747976192	8	3993
2026-01-20 12:17:37.07	140.13	66.08	-23.6	-24.2	19.7	0.00e+00	0	44	0	1753219072	8	3857
2026-01-20 12:17:38.08	139.76	66.51	-23.2	-23.9	20.1	0.00e+00	0	44	0	1759510528	7	3886
2026-01-20 12:17:39.08	139.37	66.93	-22.9	-23.2	20.4	0.00e+00	0	44	0	1764753408	7	3718
2026-01-20 12:17:40.08	138.97	67.36	-23.1	-23.7	20.2	0.00e+00	0	45	0	1771044864	7	3841
2026-01-20 12:17:41.07	138.56	67.79	-23.2	-23.8	20.1	0.00e+00	0	44	0	1776287744	7	3874
2026-01-20 12:17:42.07	138.12	68.22	-23.3	-23.9	20.0	0.00e+00	0	44	0	1781530624	7	3899
2026-01-20 12:17:43.07	137.67	68.65	-22.8	-23.4	20.5	0.00e+00	0	44	0	1787822080	6	3881
2026-01-20 12:17:44.08	137.19	69.08	-22.8	-23.6	20.4	0.00e+00	0	44	0	1793064960	6	3923
2026-01-20 12:17:45.07	136.70	69.51	-23.2	-24.4	20.0	0.00e+00	0	44	0	1798307840	6	4122
2026-01-20 12:17:46.07	136.18	69.94	-22.9	-23.8	20.3	0.00e+00	0	44	0	1804599296	6	3990
2026-01-20 12:17:47.08	135.63	70.38	-22.6	-23.2	20.7	0.00e+00	0	44	0	1809842176	6	3829
2026-01-20 12:17:48.08	135.05	70.81	-23.0	-23.9	20.3	0.00e+00	0	44	0	1815085056	6	4003
2026-01-20 12:17:49.08	134.45	71.24	-23.1	-24.1	20.2	0.00e+00	0	44	0	1821376512	6	4052
2026-01-20 12:17:50.07	133.83	71.67	-22.8	-23.5	20.5	0.00e+00	0	44	0	1826619392	6	3911
2026-01-20 12:17:51.07	133.17	72.10	-22.9	-23.8	20.4	0.00e+00	0	44	0	1832910848	6	3972
2026-01-20 12:17:52.08	132.46	72.54	-23.6	-24.7	19.6	0.00e+00	0	44	0	1838153728	7	4090
2026-01-20 12:17:53.09	131.72	72.98	-23.1	-23.7	20.1	0.00e+00	0	44	0	1843396608	7	3848
2026-01-20 12:17:54.09	130.94	73.40	-22.7	-23.4	20.5	0.00e+00	0	44	0	1849688064	6	3872
2026-01-20 12:17:55.09	130.13	73.83	-23.0	-23.9	20.2	0.00e+00	0	44	0	1854930944	6	3998
2026-01-20 12:17:56.10	129.25	74.26	-23.0	-23.9	20.3	0.00e+00	0	44	0	1860173824	6	4002
2026-01-20 12:17:57.10	128.33	74.69	-22.7	-23.4	20.5	0.00e+00	0	45	0	1866465280	6	3879
2026-01-20 12:17:58.11	127.35	75.11	-23.0	-24.0	20.3	0.00e+00	0	44	0	1871708160	6	4016
2026-01-20 12:17:59.11	126.32	75.53	-22.6	-23.1	20.7	0.00e+00	0	44	0	1876951040	6	3812
2026-01-20 12:18:00.11	125.23	75.94	-22.2	-22.8	21.0	0.00e+00	0	44	0	1883242496	5	3867
2026-01-20 12:18:01.11	124.07	76.35	-22.2	-22.8	21.0	0.00e+00	0	45	0	1888485376	5	3850
2026-01-20 12:18:02.11	122.83	76.76	-22.1	-22.6	21.1	0.00e+00	0	44	0	1894776832	5	3816
2026-01-20 12:18:03.11	121.52	77.16	-22.0	-22.4	21.2	0.00e+00	0	45	0	1900019712	5	3760
2026-01-20 12:18:04.11	120.11	77.55	-21.6	-22.1	21.6	0.00e+00	0	44	0	1906311168	4	3795
2026-01-20 12:18:05.11	118.62	77.94	-21.4	-21.7	21.8	0.00e+00	0	44	0	1911554048	4	3713
2026-01-20 12:18:06.11	117.02	78.32	-21.4	-21.6	21.8	0.00e+00	0	44	0	1916796928	4	3696
2026-01-20 12:18:07.11	115.31	78.69	-21.4	-21.6	21.8	0.00e+00	0	44	0	1923088384	4	3682
2026-01-20 12:18:08.11	113.49	79.05	-20.9	-21.1	22.4	0.00e+00	0	44	0	1928331264	3	3682
2026-01-20 12:18:09.12	111.52	79.40	-20.9	-21.1	22.4	0.00e+00	0	44	0	1933574144	3	3676
2026-01-20 12:18:10.12	109.44	79.74	-21.0	-21.3	22.5	0.00e+00	0	44	0	1939865600	3	3717
2026-01-20 12:18:11.12	107.22	80.07	-20.9	-21.0	22.7	0.00e+00	0	45	0	1945108480	3	3655
2026-01-20 12:18:12.13	104.82	80.38	-21.0	-21.2	22.6	0.00e+00	0	44	0	1950351360	3	3694
2026-01-20 12:18:13.14	102.26	80.67	-21.3	-21.9	22.2	0.00e+00	0	44	0	1956642816	3	3857
2026-01-20 12:18:14.13	99.60	80.94	-21.0	-21.3	22.5	0.00e+00	0	44	0	1961885696	3	3723
2026-01-20 12:18:15.13	96.74	81.20	-20.8	-20.9	22.7	0.00e+00	0	44	0	1968177152	3	3634
2026-01-20 12:18:16.13	93.72	81.43	-21.2	-21.7	22.4	0.00e+00	0	44	0	1973420032	3	3792
2026-01-20 12:18:17.14	90.52	81.63	-21.3	-21.9	22.3	0.00e+00	0	44	0	1978662912	3	3843
2026-01-20 12:18:18.14	87.19	81.81	-21.2	-21.8	22.3	0.00e+00	0	45	0	1984954368	3	3818
2026-01-20 12:18:19.14	83.72	81.96	-21.4	-22.0	22.2	0.00e+00	0	44	0	1990197248	3	3884
2026-01-20 12:18:20.14	80.13	82.08	-21.5	-22.2	22.1	0.00e+00	0	44	0	1995440128	3	3921
2026-01-20 12:18:21.15	76.42	82.17	-21.8	-22.9	21.8	0.00e+00	0	44	0	2001731584	3	4092
2026-01-20 12:18:22.15	72.66	82.22	-21.7	-22.7	21.9	0.00e+00	0	44	0	2006974464	3	4048
2026-01-20 12:18:23.16	68.84	82.25	-21.6	-22.5	22.0	0.00e+00	0	44	0	2012217344	3	3997
2026-01-20 12:18:24.15	65.08	82.23	-21.6	-22.6	22.0	0.00e+00	0	44	0	2018508800	3	4013
2026-01-20 12:18:25.16	61.28	82.19	-21.7	-22.6	21.9	0.00e+00	0	44	0	2023751680	3	4021
2026-01-20 12:18:26.16	57.58	82.11	-21.8	-22.9	21.8	0.00e+00	0	44	0	2030043136	3	4080
2026-01-20 12:18:27.17	53.93	82.00	-21.7	-22.7	21.9	0.00e+00	0	44	0	2035286016	3	4045
2026-01-20 12:18:28.17	50.43	81.85	-21.5	-22.3	22.0	0.00e+00	0	44	0	2041577472	3	3947
2026-01-20 12:18:29.17	47.06	81.68	-21.7	-22.7	21.9	0.00e+00	0	44	0	2046820352	3	4031
2026-01-20 12:18:30.18	43.81	81.48	-21.6	-22.6	21.9	0.00e+00	0	44	0	2052063232	3	4007
2026-01-20 12:18:31.18	40.75	81.26	-21.4	-22.1	22.1	0.00e+00	0	44	0	2058354688	3	3902
2026-01-20 12:18:32.18	37.85	81.01	-21.2	-21.7	22.3	0.00e+00	0	44	0	2063597568	3	3814
2026-01-20 12:18:33.19	35.09	80.74	-21.2	-21.7	22.3	0.00e+00	0	44	0	2068840448	3	3815
2026-01-20 12:18:34.19	32.52	80.46	-21.5	-22.3	22.0	0.00e+00	0	44	0	2075131904	3	3937
2026-01-20 12:18:35.19	30.11	80.15	-21.5	-22.3	22.0	0.00e+00	0	44	0	2080374784	3	3936
2026-01-20 12:18:36.20	27.82	79.83	-21.3	-21.9	22.2	0.00e+00	0	44	0	2085617664	3	3854
2026-01-20 12:18:37.20	25.70	79.50	-21.4	-22.2	22.1	0.00e+00	0	44	0	2091909120	3	3914
2026-01-20 12:18:38.20	23.72	79.15	-21.6	-22.4	22.0	0.00e+00	0	44	0	2097152000	3	3977
2026-01-20 12:18:39.21	21.85	78.79	-21.4	-22.2	22.1	0.00e+00	0	44	0	2103443456	3	3919
2026-01-20 12:18:40.21	20.11	78.42	-21.5	-22.2	22.1	0.00e+00	0	44	0	2108686336	3	3926
2026-01-20 12:18:41.21	18.49	78.04	-21.4	-22.1	22.2	0.00e+00	0	45	0	2114977792	3	3890
2026-01-20 12:18:42.22	16.95	77.65	-21.7	-22.7	21.9	0.00e+00	0	44	0	2120220672	3	4041
2026-01-20 12:18:43.22	15.53	77.26	-21.9	-23.1	21.6	0.00e+00	0	44	0	2125463552	3	4143
2026-01-20 12:18:44.23	14.18	76.86	-21.9	-23.0	21.7	0.00e+00	0	44	0	2131755008	3	4111
2026-01-20 12:18:45.23	12.92	76.46	-22.1	-23.1	21.4	0.00e+00	0	44	0	2136997888	4	4022
2026-01-20 12:18:46.23	11.74	76.05	-22.4	-23.1	21.1	0.00e+00	0	44	0	2142240768	5	3919
2026-01-20 12:18:47.23	10.63	75.63	-22.1	-22.6	21.4	0.00e+00	0	44	0	2148532224	5	3788
2026-01-20 12:18:48.23	9.59	75.22	-22.1	-22.6	21.4	0.00e+00	0	44	0	2153775104	5	3781
2026-01-20 12:18:49.24	8.60	74.79	-22.5	-23.4	21.0	0.00e+00	0	44	0	2159017984	5	3979
2026-01-20 12:18:50.24	7.67	74.37	-22.6	-23.6	20.9	0.00e+00	0	44	0	2165309440	5	4018
2026-01-20 12:18:51.24	6.79	73.95	-22.5	-23.2	21.1	0.00e+00	0	44	0	2170552320	5	3933
2026-01-20 12:18:52.24	5.96	73.52	-22.7	-23.7	20.8	0.00e+00	0	44	0	2176843776	5	4056
2026-01-20 12:18:53.25	5.17	73.09	-22.7	-23.9	20.8	0.00e+00	0	44	0	2182086656	5	4090
2026-01-20 12:18:54.26	4.41	72.66	-22.6	-23.5	20.9	0.00e+00	0	44	0	2187329536	5	4007
2026-01-20 12:18:55.26	3.71	72.22	-22.7	-23.7	20.8	0.00e+00	0	44	0	2193620992	5	4047
2026-01-20 12:18:56.26	3.04	71.79	-22.9	-24.1	20.6	0.00e+00	0	44	0	2198863872	5	4156
2026-01-20 12:18:57.27	2.39	71.36	-23.1	-24.2	20.4	0.00e+00	0	44	0	2205155328	6	4054
2026-01-20 12:18:58.27	1.79	70.93	-22.9	-23.7	20.6	0.00e+00	0	44	0	2210398208	6	3940
2026-01-20 12:18:59.28	1.20	70.49	-23.1	-24.2	20.3	0.00e+00	0	44	0	2215641088	6	4055
2026-01-20 12:19:00.29	0.65	70.05	-23.4	-24.8	20.0	0.00e+00	0	45	0	2221932544	6	4210
2026-01-20 12:19:01.29	0.12	69.62	-23.3	-24.4	20.2	0.00e+00	0	44	0	2227175424	6	4120
2026-01-20 12:19:02.30	359.61	69.19	-23.1	-24.2	20.4	0.00e+00	0	44	0	2232418304	6	4050
2026-01-20 12:19:03.30	359.13	68.76	-23.3	-24.5	20.2	0.00e+00	0	44	0	2238709760	6	4135
2026-01-20 12:19:04.30	358.68	68.33	-23.5	-24.5	19.9	0.00e+00	0	44	0	2243952640	7	4018
2026-01-20 12:19:05.30	358.24	67.90	-23.5	-24.4	20.0	0.00e+00	0	44	0	2250244096	7	3990
2026-01-20 12:19:06.30	357.81	67.47	-23.3	-23.9	20.2	0.00e+00	0	44	0	2255486976	7	3884
2026-01-20 12:19:07.30	357.41	67.04	-23.4	-24.3	20.1	0.00e+00	0	44	0	2260729856	7	3959
2026-01-20 12:19:08.31	357.02	66.61	-23.4	-24.2	20.1	0.00e+00	0	44	0	2267021312	7	3939
2026-01-20 12:19:09.31	356.65	66.19	-23.3	-23.9	20.2	0.00e+00	0	45	0	2272264192	7	3886
2026-01-20 12:19:10.31	356.29	65.76	-23.2	-23.8	20.3	0.00e+00	0	44	0	2277507072	7	3856
2026-01-20 12:19:11.31	355.94	65.34	-23.2	-23.7	20.3	0.00e+00	0	44	0	2283798528	7	3840
2026-01-20 12:19:12.31	355.61	64.92	-23.2	-23.8	20.3	0.00e+00	0	44	0	2289041408	7	3861
2026-01-20 12:19:13.32	355.29	64.50	-23.3	-23.9	20.2	0.00e+00	0	44	0	2295332864	7	3882
2026-01-20 12:19:14.33	354.98	64.08	-23.4	-24.3	20.1	0.00e+00	0	44	0	2300575744	7	3974
2026-01-20 12:19:15.33	354.68	63.66	-23.6	-24.7	19.8	0.00e+00	0	44	0	2305818624	7	4077
2026-01-20 12:19:16.34	354.40	63.24	-23.6	-24.6	19.9	0.00e+00	0	44	0	2312110080	7	4038
2026-01-20 12:19:17.35	354.12	62.83	-23.6	-24.7	19.8	0.00e+00	0	45	0	2317352960	7	4068
2026-01-20 12:19:18.35	353.85	62.42	-23.8	-25.1	19.6	0.00e+00	0	45	0	2323644416	7	4156
2026-01-20 12:19:19.35	353.59	62.01	-23.8	-25.1	19.6	0.00e+00	0	44	0	2328887296	7	4172
2026-01-20 12:19:20.36	353.34	61.60	-23.6	-24.6	19.9	0.00e+00	0	44	0	2334130176	7	4047
2026-01-20 12:19:21.36	353.10	61.20	-23.4	-24.2	20.1	0.00e+00	0	44	0	2340421632	7	3933
2026-01-20 12:19:22.36	352.87	60.79	-23.5	-24.3	20.0	0.00e+00	0	44	0	2345664512	7	3977
2026-01-20 12:19:23.36	352.64	60.39	-23.6	-24.6	19.9	0.00e+00	0	44	0	2351955968	7	4042
2026-01-20 12:19:24.36	352.43	60.00	-23.7	-24.9	19.7	0.00e+00	0	45	0	2357198848	7	4109
2026-01-20 12:19:25.37	352.21	59.60	-24.0	-25.4	19.5	0.00e+00	0	44	0	2362441728	7	4251
2026-01-20 12:19:26.37	352.01	59.20	-24.3	-25.6	19.2	0.00e+00	0	44	0	2368733184	8	4163
2026-01-20 12:19:27.37	351.81	58.81	-24.4	-25.7	19.1	0.00e+00	0	44	0	2373976064	8	4195
2026-01-20 12:19:28.38	351.61	58.42	-24.7	-25.9	18.7	0.00e+00	0	44	0	2379218944	9	4130
2026-01-20 12:19:29.38	351.43	58.03	-24.8	-26.1	18.6	0.00e+00	0	44	0	2385510400	9	4184
2026-01-20 12:19:30.37	351.25	57.65	-24.8	-26.1	18.6	0.00e+00	0	44	0	2390753280	9	4185
2026-01-20 12:19:31.38	351.07	57.27	-24.9	-26.4	18.5	0.00e+00	0	44	0	2397044736	9	4261
2026-01-20 12:19:32.39	350.89	56.88	-25.1	-26.3	18.3	0.00e+00	0	44	0	2402287616	10	4126
2026-01-20 12:19:33.39	350.73	56.51	-25.2	-26.4	18.2	0.00e+00	0	44	0	2407530496	10	4154
2026-01-20 12:19:34.40	350.56	56.13	-25.2	-26.6	18.1	0.00e+00	0	44	0	2413821952	10	4190
2026-01-20 12:19:35.40	350.40	55.75	-25.2	-26.5	18.2	0.00e+00	0	44	0	2419064832	10	4169
2026-01-20 12:19:36.40	350.25	55.38	-25.1	-26.3	18.3	0.00e+00	0	44	0	2424307712	10	4125
2026-01-20 12:19:37.41	350.10	55.01	-25.0	-26.1	18.4	0.00e+00	0	44	0	2430599168	10	4083
2026-01-20 12:19:38.40	349.96	54.65	-25.0	-26.2	18.3	0.00e+00	0	44	0	2435842048	10	4096
2026-01-20 12:19:39.40	349.81	54.29	-25.0	-26.1	18.4	0.00e+00	0	44	0	2442133504	10	4085
2026-01-20 12:19:40.40	349.67	53.93	-24.9	-25.9	18.5	0.00e+00	0	44	0	2447376384	10	4034
2026-01-20 12:19:41.40	349.54	53.57	-24.5	-24.9	19.0	0.00e+00	0	44	0	2452619264	10	3796
2026-01-20 12:19:42.40	349.41	53.21	-24.2	-24.9	19.2	0.00e+00	0	44	0	2458910720	9	3888
2026-01-20 12:19:43.41	349.28	52.85	-24.2	-24.9	19.2	0.00e+00	0	44	0	2464153600	9	3897
2026-01-20 12:19:44.41	349.15	52.50	-24.3	-25.2	19.1	0.00e+00	0	44	0	2469396480	9	3963
2026-01-20 12:19:45.41	349.03	52.15	-24.6	-25.7	18.8	0.00e+00	0	44	0	2475687936	9	4105
2026-01-20 12:19:46.41	348.91	51.81	-24.6	-25.7	18.8	0.00e+00	0	45	0	2480930816	9	4085
2026-01-20 12:19:47.42	348.80	51.46	-24.3	-25.0	19.1	0.00e+00	0	44	0	2487222272	9	3923
2026-01-20 12:19:48.43	348.68	51.11	-24.1	-24.6	19.3	0.00e+00	0	44	0	2492465152	9	3820
2026-01-20 12:19:49.43	348.57	50.77	-24.3	-25.0	19.2	0.00e+00	0	44	0	2497708032	9	3917
2026-01-20 12:19:50.43	348.46	50.44	-24.4	-25.4	19.0	0.00e+00	0	45	0	2503999488	9	4005
2026-01-20 12:19:51.43	348.36	50.10	-24.4	-25.3	19.0	0.00e+00	0	44	0	2509242368	9	3983
2026-01-20 12:19:52.43	348.25	49.77	-24.4	-25.3	19.0	0.00e+00	0	45	0	2515533824	9	4001
2026-01-20 12:19:53.44	348.15	49.43	-24.2	-24.8	19.2	0.00e+00	0	44	0	2520776704	9	3878
2026-01-20 12:19:54.44	348.05	49.11	-24.1	-24.7	19.3	0.00e+00	0	45	0	2526019584	9	3853
2026-01-20 12:19:55.43	347.96	48.78	-24.1	-24.6	19.3	0.00e+00	0	44	0	2532311040	9	3828
2026-01-20 12:19:56.43	347.86	48.46	-24.0	-24.5	19.4	0.00e+00	0	44	0	2537553920	9	3812
2026-01-20 12:19:57.43	347.77	48.14	-24.0	-24.5	19.4	0.00e+00	0	44	0	2542796800	9	3807
2026-01-20 12:19:58.44	347.68	47.82	-24.1	-24.6	19.3	0.00e+00	0	45	0	2549088256	9	3836
2026-01-20 12:19:59.44	347.59	47.50	-24.0	-24.4	19.5	0.00e+00	0	44	0	2554331136	9	3778
2026-01-20 12:20:00.44	347.50	47.19	-23.9	-24.2	19.5	0.00e+00	0	45	0	2559574016	9	3748
2026-01-20 12:20:01.44	347.42	46.88	-23.8	-24.2	19.5	0.00e+00	0	45	0	2565865472	9	3728
2026-01-20 12:20:02.45	347.33	46.56	-24.0	-24.4	19.4	0.00e+00	0	45	0	2571108352	9	3780
2026-01-20 12:20:03.45	347.25	46.26	-23.9	-24.2	19.5	0.00e+00	0	44	0	2577399808	9	3733
2026-01-20 12:20:04.46	347.17	45.95	-23.7	-24.2	19.8	0.00e+00	0	44	0	2582642688	8	3836
2026-01-20 12:20:05.46	347.09	45.64	-23.6	-24.1	19.8	0.00e+00	0	45	0	2588934144	8	3819
2026-01-20 12:20:06.47	347.01	45.34	-23.7	-24.3	19.7	0.00e+00	0	45	0	2594177024	8	3862
2026-01-20 12:20:07.47	346.94	45.04	-23.9	-24.7	19.5	0.00e+00	0	44	0	2599419904	8	3965
2026-01-20 12:20:08.47	346.87	44.75	-24.0	-25.0	19.4	0.00e+00	0	44	0	2605711360	8	4030
2026-01-20 12:20:09.47	346.79	44.45	-24.0	-24.9	19.4	0.00e+00	0	45	0	2610954240	8	4015
2026-01-20 12:20:10.47	346.72	44.16	-23.9	-24.8	19.4	0.00e+00	0	44	0	2616197120	8	3992
2026-01-20 12:20:11.47	346.65	43.87	-23.8	-24.6	19.6	0.00e+00	0	45	0	2622488576	8	3925
2026-01-20 12:20:12.47	346.58	43.58	-23.8	-24.6	19.6	0.00e+00	0	45	0	2627731456	8	3923
2026-01-20 12:20:13.47	346.52	43.30	-23.8	-24.6	19.6	0.00e+00	0	44	0	2632974336	8	3920
2026-01-20 12:20:14.47	346.45	43.01	-23.8	-24.6	19.6	0.00e+00	0	44	0	2639265792	8	3928
2026-01-20 12:20:15.47	346.39	42.73	-23.9	-24.8	19.4	0.00e+00	0	45	0	2644508672	8	3978
2026-01-20 12:20:16.48	346.32	42.45	-24.0	-24.9	19.3	0.00e+00	0	45	0	2650800128	8	4017
2026-01-20 12:20:17.48	346.26	42.17	-23.8	-24.6	19.5	0.00e+00	0	44	0	2656043008	8	3947
2026-01-20 12:20:18.48	346.20	41.90	-23.8	-24.5	19.6	0.00e+00	0	44	0	2661285888	8	3925
2026-01-20 12:20:19.49	346.14	41.62	-23.8	-24.6	19.5	0.00e+00	0	44	0	2667577344	8	3941
2026-01-20 12:20:20.50	346.08	41.35	-23.8	-24.5	19.6	0.00e+00	0	45	0	2672820224	8	3906
2026-01-20 12:20:21.50	346.02	41.08	-23.6	-24.1	19.8	0.00e+00	0	44	0	2678063104	8	3809
2026-01-20 12:20:22.50	345.96	40.81	-23.5	-23.9	19.9	0.00e+00	0	44	0	2684354560	8	3768
2026-01-20 12:20:23.51	345.91	40.54	-23.5	-23.9	19.9	0.00e+00	0	44	0	2689597440	8	3779
2026-01-20 12:20:24.51	345.85	40.28	-23.5	-23.9	19.9	0.00e+00	0	44	0	2695888896	8	3771
2026-01-20 12:20:25.52	345.80	40.01	-23.3	-23.5	20.0	0.00e+00	0	44	0	2701131776	8	3684
2026-01-20 12:20:26.53	345.75	39.75	-23.3	-23.5	20.0	0.00e+00	0	45	0	2706374656	8	3685
2026-01-20 12:20:27.53	345.69	39.49	-23.3	-23.5	20.0	0.00e+00	0	45	0	2712666112	8	3692
2026-01-20 12:20:28.53	345.64	39.24	-23.3	-23.6	20.0	0.00e+00	0	44	0	2717908992	8	3706
2026-01-20 12:20:29.53	345.59	38.98	-23.4	-23.7	19.9	0.00e+00	0	44	0	2724200448	8	3722
2026-01-20 12:20:30.54	345.54	38.73	-23.3	-23.6	20.0	0.00e+00	0	44	0	2729443328	8	3709
2026-01-20 12:20:31.54	345.49	38.48	-23.2	-23.9	20.1	0.00e+00	0	44	0	2734686208	7	3874
2026-01-20 12:20:32.55	345.44	38.23	-23.3	-24.0	20.0	0.00e+00	0	45	0	2740977664	7	3893
2026-01-20 12:20:33.55	345.40	37.98	-23.2	-23.7	20.1	0.00e+00	0	44	0	2746220544	7	3843
2026-01-20 12:20:34.55	345.35	37.74	-23.1	-23.5	20.2	0.00e+00	0	45	0	2751463424	7	3795
2026-01-20 12:20:35.54	345.31	37.50	-23.1	-23.6	20.2	0.00e+00	0	45	0	2757754880	7	3808
2026-01-20 12:20:36.54	345.26	37.25	-23.2	-23.9	20.1	0.00e+00	0	45	0	2762997760	7	3868
2026-01-20 12:20:37.55	345.22	37.01	-23.3	-24.0	20.0	0.00e+00	0	44	0	2768240640	7	3900
2026-01-20 12:20:38.56	345.17	36.77	-23.4	-24.3	19.8	0.00e+00	0	44	0	2774532096	7	3972
2026-01-20 12:20:39.57	345.13	36.53	-23.6	-24.6	19.7	0.00e+00	0	44	0	2779774976	7	4053
2026-01-20 12:20:40.57	345.09	36.30	-23.8	-25.1	19.4	0.00e+00	0	44	0	2786066432	7	4177
2026-01-20 12:20:41.58	345.04	36.06	-23.8	-25.2	19.4	0.00e+00	0	44	0	2791309312	7	4191
2026-01-20 12:20:42.58	345.00	35.83	-23.6	-24.7	19.6	0.00e+00	0	45	0	2797600768	7	4083
2026-01-20 12:20:43.58	344.96	35.60	-23.5	-24.4	19.8	0.00e+00	0	44	0	2802843648	7	3990
2026-01-20 12:20:44.59	344.92	35.37	-23.5	-24.4	19.8	0.00e+00	0	44	0	2808086528	7	3986
2026-01-20 12:20:45.59	344.88	35.15	-23.4	-24.2	19.9	0.00e+00	0	45	0	2814377984	7	3952
2026-01-20 12:20:46.59	344.85	34.92	-23.4	-24.1	19.9	0.00e+00	0	45	0	2819620864	7	3923
2026-01-20 12:20:47.60	344.81	34.70	-23.4	-24.1	19.9	0.00e+00	0	44	0	2824863744	7	3920
2026-01-20 12:20:48.60	344.77	34.48	-23.3	-24.1	19.9	0.00e+00	0	44	0	2831155200	7	3914
2026-01-20 12:20:49.60	344.73	34.26	-23.4	-24.1	19.9	0.00e+00	0	44	0	2836398080	7	3931
2026-01-20 12:20:50.61	344.70	34.03	-23.4	-24.2	19.9	0.00e+00	0	45	0	2842689536	7	3952
2026-01-20 12:20:51.61	344.66	33.82	-23.6	-24.5	19.7	0.00e+00	0	44	0	2847932416	7	4030
2026-01-20 12:20:52.60	344.63	33.60	-23.7	-24.8	19.5	0.00e+00	0	45	0	2853175296	7	4100
2026-01-20 12:20:53.61	344.59	33.39	-23.8	-25.2	19.4	0.00e+00	0	45	0	2859466752	7	4186
2026-01-20 12:20:54.61	344.56	33.18	-23.9	-25.3	19.3	0.00e+00	0	44	0	2864709632	7	4225
2026-01-20 12:20:55.61	344.52	32.97	-24.0	-25.4	19.3	0.00e+00	0	45	0	2871001088	7	4242
2026-01-20 12:20:56.62	344.49	32.75	-24.2	-25.3	19.1	0.00e+00	0	44	0	2876243968	8	4111
2026-01-20 12:20:57.62	344.46	32.55	-24.2	-25.3	19.1	0.00e+00	0	44	0	2881486848	8	4106
2026-01-20 12:20:58.63	344.43	32.34	-24.1	-25.2	19.1	0.00e+00	0	45	0	2887778304	8	4083
2026-01-20 12:20:59.64	344.39	32.13	-24.2	-25.4	19.0	0.00e+00	0	44	0	2893021184	8	4126
2026-01-20 12:21:00.64	344.36	31.93	-24.3	-25.6	18.9	0.00e+00	0	45	0	2898264064	8	4188
2026-01-20 12:21:01.65	344.33	31.72	-24.3	-25.7	18.9	0.00e+00	0	44	0	2904555520	8	4194
2026-01-20 12:21:02.65	344.30	31.52	-24.4	-25.7	18.8	0.00e+00	0	44	0	2909798400	8	4213
2026-01-20 12:21:03.66	344.27	31.32	-24.4	-25.8	18.8	0.00e+00	0	44	0	2915041280	8	4246
2026-01-20 12:21:04.66	344.24	31.12	-24.4	-25.9	18.7	0.00e+00	0	45	0	2921332736	8	4259
2026-01-20 12:21:05.66	344.21	30.92	-24.4	-25.9	18.7	0.00e+00	0	44	0	2926575616	8	4262
2026-01-20 12:21:06.66	344.18	30.73	-24.6	-25.7	18.6	0.00e+00	0	45	0	2932867072	9	4088
2026-01-20 12:21:07.67	344.15	30.53	-24.7	-26.0	18.4	0.00e+00	0	44	0	2938109952	9	4179
2026-01-20 12:21:08.66	344.13	30.34	-24.5	-25.6	18.6	0.00e+00	0	44	0	2944401408	9	4083
2026-01-20 12:21:09.67	344.10	30.15	-24.5	-25.5	18.7	0.00e+00	0	44	0	2949644288	9	4040
2026-01-20 12:21:10.67	344.07	29.96	-24.4	-25.2	18.8	0.00e+00	0	44	0	2954887168	9	3982
2026-01-20 12:21:11.67	344.04	29.77	-24.4	-25.3	18.8	0.00e+00	0	44	0	2961178624	9	4004
2026-01-20 12:21:12.68	344.02	29.58	-24.3	-25.1	18.9	0.00e+00	0	45	0	2966421504	9	3954
2026-01-20 12:21:13.68	343.99	29.39	-24.2	-24.9	18.9	0.00e+00	0	44	0	2971664384	9	3913
2026-01-20 12:21:14.69	343.97	29.20	-24.2	-24.9	19.0	0.00e+00	0	44	0	2977955840	9	3900
2026-01-20 12:21:15.69	343.94	29.02	-24.2	-24.8	19.0	0.00e+00	0	44	0	2983198720	9	3879
2026-01-20 12:21:16.69	343.92	28.84	-24.0	-24.5	19.2	0.00e+00	0	44	0	2988441600	9	3799
2026-01-20 12:21:17.70	343.89	28.65	-24.0	-24.5	19.2	0.00e+00	0	44	0	2994733056	9	3804
2026-01-20 12:21:18.71	343.87	28.47	-24.0	-24.5	19.2	0.00e+00	0	44	0	2999975936	9	3795
2026-01-20 12:21:19.71	343.84	28.29	-23.9	-24.3	19.2	0.00e+00	0	44	0	3006267392	9	3771
2026-01-20 12:21:20.72	343.82	28.11	-23.8	-24.1	19.4	0.00e+00	0	44	0	3011510272	9	3712
2026-01-20 12:21:21.72	343.79	27.93	-23.9	-24.7	19.3	0.00e+00	0	44	0	3017801728	8	3949
2026-01-20 12:21:22.71	343.77	27.76	-23.7	-24.4	19.4	0.00e+00	0	44	0	3023044608	8	3883
2026-01-20 12:21:23.71	343.75	27.59	-23.7	-24.2	19.5	0.00e+00	0	44	0	3028287488	8	3848
2026-01-20 12:21:24.72	343.72	27.41	-23.7	-24.3	19.5	0.00e+00	0	44	0	3034578944	8	3864
2026-01-20 12:21:25.72	343.70	27.24	-23.7	-24.3	19.5	0.00e+00	0	44	0	3039821824	8	3866
2026-01-20 12:21:26.72	343.68	27.07	-23.6	-24.1	19.6	0.00e+00	0	45	0	3045064704	8	3819
2026-01-20 12:21:27.73	343.66	26.89	-23.6	-24.1	19.6	0.00e+00	0	45	0	3051356160	8	3816
2026-01-20 12:21:28.73	343.64	26.72	-23.6	-24.1	19.6	0.00e+00	0	44	0	3056599040	8	3824
2026-01-20 12:21:29.74	343.62	26.55	-23.7	-24.4	19.4	0.00e+00	0	44	0	3061841920	8	3894
2026-01-20 12:21:30.75	343.59	26.38	-23.8	-24.5	19.4	0.00e+00	0	45	0	3068133376	8	3918
2026-01-20 12:21:31.75	343.57	26.22	-23.9	-24.7	19.2	0.00e+00	0	44	0	3073376256	8	3963
2026-01-20 12:21:32.75	343.55	26.05	-24.0	-25.0	19.1	0.00e+00	0	44	0	3079667712	8	4035
2026-01-20 12:21:33.75	343.53	25.89	-23.9	-24.8	19.2	0.00e+00	0	45	0	3084910592	8	3996
2026-01-20 12:21:34.75	343.51	25.73	-24.0	-25.1	19.1	0.00e+00	0	45	0	3090153472	8	4058
2026-01-20 12:21:35.75	343.49	25.56	-24.1	-25.1	19.0	0.00e+00	0	44	0	3096444928	8	4065
2026-01-20 12:21:36.75	343.47	25.40	-24.0	-25.1	19.0	0.00e+00	0	44	0	3101687808	8	4057
2026-01-20 12:21:37.75	343.45	25.24	-24.3	-25.5	18.8	0.00e+00	0	44	0	3106930688	8	4171
2026-01-20 12:21:38.75	343.44	25.08	-24.3	-25.7	18.7	0.00e+00	0	45	0	3113222144	8	4222
2026-01-20 12:21:39.76	343.42	24.92	-24.3	-25.6	18.8	0.00e+00	0	44	0	3118465024	8	4182
2026-01-20 12:21:40.76	343.40	24.76	-24.3	-25.7	18.7	0.00e+00	0	44	0	3123707904	8	4203
2026-01-20 12:21:41.76	343.38	24.61	-24.4	-25.3	18.6	0.00e+00	0	44	0	3129999360	9	4006
2026-01-20 12:21:42.77	343.36	24.45	-24.4	-25.4	18.6	0.00e+00	0	44	0	3135242240	9	4027
2026-01-20 12:21:43.78	343.34	24.29	-24.4	-25.4	18.6	0.00e+00	0	44	0	3141533696	9	4021
2026-01-20 12:21:44.78	343.33	24.14	-24.5	-25.5	18.5	0.00e+00	0	44	0	3146776576	9	4044
2026-01-20 12:21:45.79	343.31	23.99	-24.4	-25.2	18.7	0.00e+00	0	44	0	3153068032	9	3984
2026-01-20 12:21:46.79	343.29	23.83	-24.4	-25.2	18.7	0.00e+00	0	45	0	3158310912	9	3980
2026-01-20 12:21:47.79	343.27	23.68	-24.4	-25.3	18.6	0.00e+00	0	44	0	3163553792	9	4001
2026-01-20 12:21:48.80	343.26	23.53	-24.6	-25.8	18.4	0.00e+00	0	45	0	3169845248	9	4111
2026-01-20 12:21:49.79	343.24	23.38	-24.5	-25.5	18.5	0.00e+00	0	44	0	3175088128	9	4050
2026-01-20 12:21:50.80	343.22	23.23	-24.4	-25.4	18.6	0.00e+00	0	44	0	3180331008	9	4011
2026-01-20 12:21:51.79	343.21	23.09	-24.6	-25.7	18.4	0.00e+00	0	44	0	3186622464	9	4089
2026-01-20 12:21:52.80	343.19	22.94	-24.6	-25.8	18.4	0.00e+00	0	44	0	3191865344	9	4112
2026-01-20 12:21:53.80	343.17	22.79	-24.7	-25.9	18.3	0.00e+00	0	44	0	3197108224	9	4157
2026-01-20 12:21:54.81	343.16	22.65	-24.8	-26.1	18.2	0.00e+00	0	44	0	3203399680	9	4190
2026-01-20 12:21:55.82	343.14	22.50	-24.8	-26.2	18.2	0.00e+00	0	44	0	3208642560	9	4211
2026-01-20 12:21:56.82	343.13	22.36	-24.7	-26.1	18.2	0.00e+00	0	44	0	3214934016	9	4189
2026-01-20 12:21:57.82	343.11	22.21	-24.8	-26.2	18.2	0.00e+00	0	45	0	3220176896	9	4211
2026-01-20 12:21:58.82	343.10	22.07	-24.8	-26.2	18.1	0.00e+00	0	45	0	3226468352	9	4215
2026-01-20 12:21:59.83	343.08	21.93	-24.9	-26.4	18.0	0.00e+00	0	44	0	3231711232	9	4275
2026-01-20 12:22:00.84	343.07	21.79	-24.8	-26.2	18.1	0.00e+00	0	44	0	3236954112	9	4223
2026-01-20 12:22:01.85	343.05	21.65	-25.0	-26.1	17.9	0.00e+00	0	45	0	3243245568	10	4085
2026-01-20 12:22:02.85	343.04	21.51	-25.2	-26.5	17.7	0.00e+00	0	44	0	3248488448	10	4195
2026-01-20 12:22:03.86	343.02	21.37	-25.1	-26.4	17.8	0.00e+00	0	44	0	3253731328	10	4153
2026-01-20 12:22:04.86	343.01	21.23	-25.0	-26.2	17.8	0.00e+00	0	44	0	3260022784	10	4112
2026-01-20 12:22:05.86	343.00	21.10	-25.0	-26.1	17.9	0.00e+00	0	45	0	3265265664	10	4091
2026-01-20 12:22:06.86	342.98	20.96	-25.3	-26.7	17.6	0.00e+00	0	45	0	3271557120	10	4243
2026-01-20 12:22:07.87	342.97	20.82	-25.2	-26.6	17.6	0.00e+00	0	45	0	3276800000	10	4214
2026-01-20 12:22:08.86	342.96	20.69	-25.1	-26.4	17.7	0.00e+00	0	44	0	3282042880	10	4156
2026-01-20 12:22:09.87	342.94	20.56	-25.3	-26.6	17.6	0.00e+00	0	45	0	3288334336	10	4219
2026-01-20 12:22:10.87	342.93	20.42	-25.3	-26.7	17.5	0.00e+00	0	45	0	3293577216	10	4247
2026-01-20 12:22:11.88	342.92	20.29	-25.2	-26.4	17.7	0.00e+00	0	45	0	3299868672	10	4171
2026-01-20 12:22:12.88	342.90	20.16	-25.3	-26.8	17.5	0.00e+00	0	44	0	3305111552	10	4264
2026-01-20 12:22:13.88	342.89	20.03	-25.3	-26.8	17.5	0.00e+00	0	44	0	3310354432	10	4269
2026-01-20 12:22:14.88	342.88	19.90	-25.3	-26.7	17.6	0.00e+00	0	44	0	3316645888	10	4241
2026-01-20 12:22:15.89	342.87	19.77	-25.3	-26.7	17.5	0.00e+00	0	44	0	3321888768	10	4244
2026-01-20 12:22:16.90	342.85	19.64	-25.3	-26.8	17.5	0.00e+00	0	45	0	3327131648	10	4263
2026-01-20 12:22:17.90	342.84	19.51	-25.3	-26.8	17.5	0.00e+00	0	44	0	3333423104	10	4263
2026-01-20 12:22:18.90	342.83	19.38	-25.4	-27.0	17.4	0.00e+00	0	45	0	3338665984	10	4311
2026-01-20 12:22:19.91	342.82	19.25	-25.4	-26.9	17.4	0.00e+00	0	44	0	3343908864	10	4293
2026-01-20 12:22:20.92	342.81	19.13	-25.5	-27.1	17.3	0.00e+00	0	45	0	3350200320	10	4345
2026-01-20 12:22:21.92	342.79	19.00	-25.3	-26.3	17.4	0.00e+00	0	44	0	3355443200	11	4036
2026-01-20 12:22:22.92	342.78	18.87	-25.5	-26.7	17.2	0.00e+00	0	44	0	3361734656	11	4125
2026-01-20 12:22:23.91	342.77	18.75	-25.5	-26.7	17.2	0.00e+00	0	44	0	3366977536	11	4126
2026-01-20 12:22:24.92	342.76	18.63	-25.5	-26.7	17.2	0.00e+00	0	44	0	3373268992	11	4125
2026-01-20 12:22:25.93	342.75	18.50	-25.7	-27.1	17.1	0.00e+00	0	45	0	3378511872	11	4223
2026-01-20 12:22:26.93	342.74	18.38	-25.8	-27.3	16.9	0.00e+00	0	45	0	3383754752	11	4280
2026-01-20 12:22:27.93	342.73	18.26	-25.8	-27.3	16.9	0.00e+00	0	45	0	3390046208	11	4279
2026-01-20 12:22:28.93	342.72	18.14	-25.8	-27.4	16.8	0.00e+00	0	44	0	3395289088	11	4312
2026-01-20 12:22:29.94	342.71	18.02	-25.9	-27.5	16.8	0.00e+00	0	44	0	3400531968	11	4339
2026-01-20 12:22:30.95	342.70	17.89	-25.8	-27.4	16.8	0.00e+00	0	44	0	3406823424	11	4313
2026-01-20 12:22:31.94	342.69	17.78	-26.0	-27.3	16.5	0.00e+00	0	45	0	3412066304	12	4171
2026-01-20 12:22:32.95	342.68	17.66	-26.4	-28.1	16.1	0.00e+00	0	45	0	3417309184	12	4384
2026-01-20 12:22:33.95	342.67	17.54	-26.0	-27.3	16.5	0.00e+00	0	45	0	3423600640	12	4179
2026-01-20 12:22:34.96	342.66	17.42	-26.2	-27.8	16.3	0.00e+00	0	45	0	3428843520	12	4316
2026-01-20 12:22:35.96	342.65	17.30	-26.1	-27.5	16.4	0.00e+00	0	45	0	3435134976	12	4228
2026-01-20 12:22:36.96	342.64	17.19	-26.1	-27.5	16.4	0.00e+00	0	44	0	3440377856	12	4229
2026-01-20 12:22:37.96	342.63	17.07	-26.1	-27.5	16.4	0.00e+00	0	45	0	3446669312	12	4233
2026-01-20 12:22:38.96	342.62	16.95	-26.0	-27.2	16.5	0.00e+00	0	45	0	3451912192	12	4163
2026-01-20 12:22:39.96	342.61	16.84	-26.2	-27.6	16.3	0.00e+00	0	45	0	3457155072	12	4272
2026-01-20 12:22:40.96	342.60	16.72	-26.2	-27.6	16.3	0.00e+00	0	44	0	3462397952	12	4273
2026-01-20 12:22:41.96	342.59	16.61	-26.4	-28.2	16.0	0.00e+00	0	45	0	3468689408	12	4410
2026-01-20 12:22:42.96	342.58	16.50	-26.1	-27.4	16.4	0.00e+00	0	44	0	3473932288	12	4219
2026-01-20 12:22:43.96	342.57	16.39	-26.0	-27.2	16.5	0.00e+00	0	45	0	3479175168	12	4157
2026-01-20 12:22:44.96	342.56	16.27	-26.0	-27.2	16.5	0.00e+00	0	45	0	3485466624	12	4162
2026-01-20 12:22:45.97	342.55	16.16	-25.9	-27.0	16.7	0.00e+00	0	44	0	3490709504	12	4099
2026-01-20 12:22:46.97	342.54	16.05	-26.1	-27.5	16.3	0.00e+00	0	45	0	3497000960	12	4245
2026-01-20 12:22:47.98	342.53	15.94	-25.9	-27.2	16.5	0.00e+00	0	44	0	3502243840	12	4150
2026-01-20 12:22:48.98	342.53	15.83	-25.9	-27.2	16.5	0.00e+00	0	45	0	3508535296	12	4147
2026-01-20 12:22:49.99	342.52	15.72	-25.9	-27.1	16.6	0.00e+00	0	44	0	3513778176	12	4128
2026-01-20 12:22:50.99	342.51	15.61	-26.1	-27.6	16.3	0.00e+00	0	45	0	3519021056	12	4250
2026-01-20 12:22:51.99	342.50	15.50	-25.9	-27.2	16.5	0.00e+00	0	44	0	3525312512	12	4148
2026-01-20 12:22:53.00	342.49	15.39	-26.0	-27.3	16.4	0.00e+00	0	44	0	3530555392	12	4168
2026-01-20 12:22:54.00	342.48	15.28	-26.1	-27.6	16.3	0.00e+00	0	44	0	3535798272	12	4247
2026-01-20 12:22:55.00	342.48	15.17	-26.2	-27.8	16.1	0.00e+00	0	44	0	3542089728	12	4322
2026-01-20 12:22:56.01	342.47	15.07	-26.1	-27.6	16.2	0.00e+00	0	44	0	3547332608	12	4254
2026-01-20 12:22:57.00	342.46	14.96	-26.3	-27.9	16.1	0.00e+00	0	44	0	3552575488	12	4327
2026-01-20 12:22:58.01	342.45	14.85	-26.5	-28.0	15.7	0.00e+00	0	44	0	3558866944	13	4259
2026-01-20 12:22:59.01	342.44	14.75	-26.3	-27.5	16.0	0.00e+00	0	44	0	3564109824	13	4121
2026-01-20 12:23:00.01	342.44	14.64	-26.2	-27.1	16.2	0.00e+00	0	45	0	3570401280	13	4029
2026-01-20 12:23:01.01	342.43	14.54	-26.1	-27.0	16.3	0.00e+00	0	45	0	3575644160	13	3986
2026-01-20 12:23:02.01	342.42	14.43	-26.2	-27.1	16.2	0.00e+00	0	44	0	3581935616	13	4030
2026-01-20 12:23:03.01	342.41	14.33	-26.1	-27.0	16.3	0.00e+00	0	44	0	3587178496	13	4006
2026-01-20 12:23:04.01	342.41	14.23	-26.3	-27.6	15.9	0.00e+00	0	45	0	3592421376	13	4143
2026-01-20 12:23:05.01	342.40	14.13	-26.3	-27.4	16.0	0.00e+00	0	44	0	3598712832	13	4107
2026-01-20 12:23:06.01	342.39	14.02	-26.3	-27.5	16.0	0.00e+00	0	45	0	3603955712	13	4125
2026-01-20 12:23:07.01	342.39	13.92	-26.4	-27.8	15.8	0.00e+00	0	44	0	3609198592	13	4210
2026-01-20 12:23:08.02	342.38	13.82	-26.6	-28.2	15.6	0.00e+00	0	44	0	3615490048	13	4305
2026-01-20 12:23:09.02	342.37	13.72	-26.3	-27.4	16.0	0.00e+00	0	45	0	3620732928	13	4089
2026-01-20 12:23:10.02	342.37	13.62	-26.2	-27.2	16.1	0.00e+00	0	44	0	3625975808	13	4050
2026-01-20 12:23:11.02	342.36	13.52	-26.2	-27.2	16.1	0.00e+00	0	45	0	3632267264	13	4061
2026-01-20 12:23:12.03	342.35	13.42	-26.2	-27.3	16.1	0.00e+00	0	45	0	3637510144	13	4071
2026-01-20 12:23:13.04	342.35	13.32	-26.3	-27.4	15.9	0.00e+00	0	45	0	3643801600	13	4101
2026-01-20 12:23:14.04	342.34	13.22	-26.3	-27.4	16.0	0.00e+00	0	45	0	3649044480	13	4100
2026-01-20 12:23:15.04	342.33	13.12	-26.4	-27.8	15.7	0.00e+00	0	45	0	3654287360	13	4205
2026-01-20 12:23:16.05	342.33	13.02	-26.3	-27.4	16.0	0.00e+00	0	44	0	3660578816	13	4108
2026-01-20 12:23:17.05	342.32	12.92	-26.4	-27.6	15.9	0.00e+00	0	44	0	3665821696	13	4158
2026-01-20 12:23:18.05	342.31	12.82	-26.3	-27.4	16.0	0.00e+00	0	44	0	3671064576	13	4096
2026-01-20 12:23:19.06	342.31	12.73	-26.4	-27.7	15.8	0.00e+00	0	45	0	3677356032	13	4183
2026-01-20 12:23:20.06	342.30	12.63	-26.2	-27.3	16.0	0.00e+00	0	45	0	3682598912	13	4088
2026-01-20 12:23:21.06	342.29	12.53	-26.4	-27.7	15.8	0.00e+00	0	45	0	3688890368	13	4176
2026-01-20 12:23:22.06	342.29	12.44	-26.5	-28.0	15.6	0.00e+00	0	44	0	3694133248	13	4266
2026-01-20 12:23:23.07	342.28	12.34	-26.5	-27.9	15.6	0.00e+00	0	44	0	3699376128	13	4233
2026-01-20 12:23:24.08	342.28	12.24	-26.4	-27.7	15.7	0.00e+00	0	45	0	3705667584	13	4181
2026-01-20 12:23:25.08	342.27	12.15	-26.5	-27.8	15.7	0.00e+00	0	45	0	3710910464	13	4220
2026-01-20 12:23:26.08	342.27	12.06	-26.5	-27.9	15.6	0.00e+00	0	45	0	3717201920	13	4240
2026-01-20 12:23:27.09	342.26	11.96	-26.5	-28.0	15.5	0.00e+00	0	45	0	3722444800	13	4266
2026-01-20 12:23:28.09	342.25	11.87	-26.6	-28.1	15.5	0.00e+00	0	45	0	3727687680	13	4295
2026-01-20 12:23:29.09	342.25	11.77	-26.7	-28.5	15.3	0.00e+00	0	45	0	3733979136	13	4399
2026-01-20 12:23:30.10	342.24	11.68	-26.6	-28.0	15.5	0.00e+00	0	44	0	3739222016	13	4271
2026-01-20 12:23:31.10	342.24	11.59	-26.7	-28.4	15.3	0.00e+00	0	45	0	3744464896	13	4370
2026-01-20 12:23:32.11	342.23	11.49	-26.7	-28.3	15.3	0.00e+00	0	45	0	3750756352	13	4352
2026-01-20 12:23:33.11	342.23	11.40	-26.8	-28.6	15.2	0.00e+00	0	44	0	3755999232	13	4426
2026-01-20 12:23:34.11	342.22	11.31	-26.8	-28.7	15.1	0.00e+00	0	45	0	3762290688	13	4462
2026-01-20 12:23:35.11	342.22	11.22	-26.7	-28.5	15.3	0.00e+00	0	44	0	3767533568	13	4392
2026-01-20 12:23:36.11	342.21	11.13	-26.8	-28.7	15.1	1.10e-06	0	44	0	3772776448	13	4456
2026-01-20 12:23:37.11	342.21	11.04	-26.9	-28.9	15.0	0.00e+00	0	44	0	3779067904	13	4519
2026-01-20 12:23:38.11	342.20	10.95	-26.8	-28.7	15.1	1.10e-06	0	44	0	3784310784	13	4453
2026-01-20 12:23:39.11	342.20	10.86	-27.0	-28.7	14.8	0.00e+00	0	44	0	3790602240	14	4338
2026-01-20 12:23:40.11	342.19	10.77	-26.9	-28.3	15.0	1.10e-06	0	45	0	3795845120	14	4233
2026-01-20 12:23:41.12	342.19	10.68	-27.1	-28.9	14.7	1.10e-06	0	44	0	3801088000	14	4400
2026-01-20 12:23:42.12	342.18	10.59	-27.0	-28.6	14.9	0.00e+00	0	45	0	3807379456	14	4317
2026-01-20 12:23:43.12	342.18	10.50	-26.7	-27.9	15.2	0.00e+00	0	45	0	3812622336	14	4124
2026-01-20 12:23:44.12	342.17	10.41	-27.0	-28.5	14.9	1.10e-06	0	45	0	3817865216	14	4305
2026-01-20 12:23:45.13	342.17	10.32	-27.0	-28.5	14.9	0.00e+00	0	45	0	3824156672	14	4283
2026-01-20 12:23:46.13	342.16	10.24	-27.1	-28.7	14.8	0.00e+00	0	45	0	3829399552	14	4345
2026-01-20 12:23:47.13	342.16	10.15	-26.9	-28.3	15.0	0.00e+00	0	45	0	3835691008	14	4241
2026-01-20 12:23:48.14	342.15	10.06	-27.1	-28.7	14.8	0.00e+00	0	45	0	3840933888	14	4346
