passes_logs/2026/01/20/R2M6_AANII_01/R2M6_AANII_01__20260120_225254_NOAA_21_JPSS-2_rec.log

#Pass ID: 20260120_225254_NOAA 21 (JPSS-2)
#Satellite: NOAA 21 (JPSS-2)
#Configuration: NOAA 21
#almurnet v.1.7.20240730
#Start time: 2026-01-20 22:52:56

#Version: 2.2.20231116
#Station: R2M6_AANII_01
#Location: 30.233357 lon 59.946436 lat
#TLE: 1 54234U 22150A   26020.29910383  .00000141  00000+0  87571-4 0  9990
#TLE: 2 54234  98.7506 321.1348 0000615 250.8428 109.2682 14.19536295165564

#Time	Az	El	Level	Level2	SNR	BER	BlckErr	Temp	State	Recorded	gain1	gain2
2026-01-20 22:52:56.64	28.51	7.12	-31.3	-36.9	4.5	1.40e+00	0	42	0	0	22	6810
2026-01-20 22:52:57.64	28.59	7.18	-31.8	-38.0	4.4	1.42e+00	0	42	104	0	23	7344
2026-01-20 22:52:58.64	28.68	7.25	-32.0	-37.7	6.3	2.43e-01	0	42	0	0	24	6931
2026-01-20 22:52:59.65	28.77	7.31	-32.0	-37.6	6.3	2.80e-01	0	42	0	3145728	24	6862
2026-01-20 22:53:00.65	28.86	7.38	-31.7	-36.8	7.2	1.56e-01	0	42	0	6291456	23	6482
2026-01-20 22:53:01.66	28.94	7.45	-31.3	-36.0	8.1	6.74e-02	0	42	0	9437184	22	6185
2026-01-20 22:53:02.66	29.03	7.51	-31.0	-35.0	8.9	4.04e-02	0	42	0	12582912	22	5688
2026-01-20 22:53:03.66	29.12	7.58	-30.7	-34.0	9.6	1.51e-02	0	42	0	15728640	22	5247
2026-01-20 22:53:04.66	29.21	7.64	-30.4	-34.0	10.3	7.58e-03	0	42	0	18874368	20	5459
2026-01-20 22:53:05.67	29.30	7.71	-30.4	-34.0	10.3	4.79e-03	0	42	0	22020096	20	5447
2026-01-20 22:53:06.67	29.39	7.78	-30.3	-33.8	10.4	5.79e-03	0	42	0	24117248	20	5369
2026-01-20 22:53:07.67	29.48	7.84	-30.1	-33.3	10.8	3.38e-03	0	42	0	27262976	20	5182
2026-01-20 22:53:08.68	29.57	7.91	-30.0	-32.9	11.1	1.95e-03	0	42	0	30408704	20	5023
2026-01-20 22:53:09.67	29.66	7.98	-29.9	-32.5	11.3	2.07e-03	0	42	0	33554432	20	4903
2026-01-20 22:53:10.68	29.75	8.04	-30.0	-33.4	11.2	1.72e-03	0	43	0	36700160	19	5301
2026-01-20 22:53:11.68	29.84	8.11	-30.1	-33.1	11.0	2.15e-03	0	42	0	39845888	20	5123
2026-01-20 22:53:12.68	29.93	8.18	-30.1	-33.1	11.0	2.93e-03	0	42	0	42991616	20	5105
2026-01-20 22:53:13.69	30.03	8.25	-30.1	-33.2	10.9	2.49e-03	0	42	0	46137344	20	5148
2026-01-20 22:53:14.69	30.12	8.31	-30.2	-33.3	10.8	2.44e-03	0	43	0	49283072	20	5177
2026-01-20 22:53:15.69	30.21	8.38	-29.9	-32.6	11.3	1.95e-03	0	43	0	52428800	20	4915
2026-01-20 22:53:16.69	30.31	8.45	-29.8	-32.7	11.7	1.30e-03	0	42	0	55574528	19	5044
2026-01-20 22:53:17.69	30.40	8.52	-29.7	-32.5	11.9	4.24e-04	0	43	0	58720256	19	4956
2026-01-20 22:53:18.70	30.50	8.59	-29.9	-33.0	11.5	7.39e-04	0	43	0	61865984	19	5176
2026-01-20 22:53:19.71	30.59	8.65	-29.8	-32.4	11.5	1.77e-03	0	43	0	65011712	20	4833
2026-01-20 22:53:20.71	30.69	8.72	-29.7	-32.1	11.6	6.47e-04	0	43	0	68157440	20	4751
2026-01-20 22:53:21.72	30.78	8.79	-29.9	-33.0	11.5	1.21e-03	0	43	0	71303168	19	5148
2026-01-20 22:53:22.71	30.88	8.86	-29.8	-32.9	11.6	7.05e-04	0	43	0	74448896	19	5109
2026-01-20 22:53:23.72	30.98	8.93	-29.8	-32.8	11.7	5.24e-04	0	43	0	77594624	19	5062
2026-01-20 22:53:24.72	31.07	9.00	-29.8	-32.8	11.7	6.79e-04	0	43	0	80740352	19	5083
2026-01-20 22:53:25.72	31.17	9.06	-30.0	-32.8	11.3	1.16e-03	0	43	0	83886080	20	4965
2026-01-20 22:53:26.72	31.27	9.13	-29.8	-32.4	11.5	1.02e-03	0	43	0	87031808	20	4856
2026-01-20 22:53:27.72	31.37	9.20	-29.6	-32.3	12.0	3.64e-04	0	43	0	90177536	19	4885
2026-01-20 22:53:28.73	31.47	9.27	-29.7	-32.6	11.8	3.99e-04	0	43	0	93323264	19	4994
2026-01-20 22:53:29.73	31.56	9.34	-29.7	-32.4	11.9	3.77e-04	0	43	0	96468992	19	4947
2026-01-20 22:53:30.73	31.66	9.41	-29.4	-31.6	12.5	5.97e-04	0	43	0	99614720	19	4667
2026-01-20 22:53:31.74	31.77	9.48	-29.2	-31.7	12.7	4.42e-04	0	43	0	102760448	18	4810
2026-01-20 22:53:32.74	31.87	9.55	-29.2	-31.8	12.7	6.25e-05	0	43	0	105906176	18	4837
2026-01-20 22:53:33.75	31.97	9.62	-29.2	-31.8	12.6	7.78e-05	0	43	0	109051904	18	4840
2026-01-20 22:53:34.76	32.07	9.69	-29.2	-31.8	12.7	8.85e-05	0	43	0	112197632	18	4839
2026-01-20 22:53:35.76	32.17	9.76	-29.1	-31.4	12.9	5.11e-05	0	43	0	115343360	18	4714
2026-01-20 22:53:36.76	32.27	9.83	-29.1	-31.5	12.9	2.37e-04	0	43	0	118489088	18	4751
2026-01-20 22:53:37.76	32.38	9.90	-29.0	-31.1	13.1	4.27e-05	0	43	0	121634816	18	4605
2026-01-20 22:53:38.77	32.48	9.97	-29.0	-31.2	13.1	2.74e-05	0	43	0	124780544	18	4641
2026-01-20 22:53:39.77	32.58	10.04	-29.0	-31.3	13.0	4.80e-05	0	43	0	127926272	18	4668
2026-01-20 22:53:40.77	32.69	10.11	-29.1	-31.5	12.9	4.27e-05	0	43	0	131072000	18	4744
2026-01-20 22:53:41.78	32.79	10.18	-29.0	-31.3	13.1	2.67e-05	0	43	0	134217728	18	4654
2026-01-20 22:53:42.78	32.90	10.25	-28.9	-30.9	13.3	2.74e-05	0	43	0	137363456	18	4527
2026-01-20 22:53:43.79	33.01	10.33	-28.7	-31.0	13.5	1.29e-05	0	43	0	140509184	17	4692
2026-01-20 22:53:44.79	33.11	10.40	-28.7	-31.1	13.5	9.10e-06	0	43	0	143654912	17	4708
2026-01-20 22:53:45.80	33.22	10.47	-28.6	-30.8	13.7	5.30e-06	0	43	0	146800640	17	4606
2026-01-20 22:53:46.80	33.33	10.54	-28.7	-30.9	13.6	7.60e-06	0	43	0	149946368	17	4645
2026-01-20 22:53:47.81	33.44	10.61	-28.6	-30.6	13.8	5.30e-06	0	43	0	153092096	17	4576
2026-01-20 22:53:48.81	33.54	10.68	-28.4	-30.3	14.0	2.20e-06	0	43	0	156237824	17	4467
2026-01-20 22:53:49.82	33.65	10.76	-28.4	-30.4	13.9	5.30e-06	0	43	0	159383552	17	4487
2026-01-20 22:53:50.82	33.76	10.83	-28.4	-30.3	13.9	3.00e-06	0	43	0	162529280	17	4468
2026-01-20 22:53:51.82	33.87	10.90	-28.4	-30.3	14.0	7.00e-07	0	43	0	165675008	17	4461
2026-01-20 22:53:52.83	33.98	10.97	-28.4	-30.2	14.0	7.00e-07	0	44	0	168820736	17	4447
2026-01-20 22:53:53.83	34.09	11.04	-28.5	-30.5	13.9	2.20e-06	0	43	0	171966464	17	4517
2026-01-20 22:53:54.84	34.21	11.12	-28.5	-30.3	14.0	5.30e-06	0	44	0	175112192	17	4478
2026-01-20 22:53:55.84	34.32	11.19	-28.5	-30.5	13.9	1.50e-06	0	43	0	178257920	17	4510
2026-01-20 22:53:56.84	34.43	11.26	-28.5	-30.4	14.0	3.00e-06	0	44	0	181403648	17	4498
2026-01-20 22:53:57.84	34.54	11.33	-28.6	-30.6	13.8	3.80e-06	0	43	0	184549376	17	4565
2026-01-20 22:53:58.84	34.66	11.41	-28.4	-30.4	14.0	3.00e-06	0	44	0	187695104	17	4491
2026-01-20 22:53:59.85	34.77	11.48	-28.4	-30.3	14.0	0.00e+00	0	43	0	190840832	17	4469
2026-01-20 22:54:00.84	34.89	11.55	-28.5	-30.5	13.9	2.20e-06	0	44	0	193986560	17	4516
2026-01-20 22:54:01.84	35.00	11.63	-28.4	-30.2	14.1	5.30e-06	0	44	0	197132288	17	4437
2026-01-20 22:54:02.84	35.12	11.70	-28.2	-29.8	14.3	0.00e+00	0	43	0	200278016	17	4321
2026-01-20 22:54:03.85	35.23	11.77	-28.2	-29.8	14.3	2.20e-06	0	44	0	203423744	17	4326
2026-01-20 22:54:04.85	35.35	11.85	-28.2	-29.8	14.3	1.44e-05	0	44	0	206569472	17	4318
2026-01-20 22:54:05.85	35.47	11.92	-28.3	-30.0	14.2	0.00e+00	0	43	0	209715200	17	4368
2026-01-20 22:54:06.86	35.59	11.99	-28.5	-30.4	14.0	2.20e-06	0	43	0	212860928	17	4497
2026-01-20 22:54:07.86	35.70	12.07	-28.4	-30.1	14.1	4.65e-05	0	44	0	216006656	17	4417
2026-01-20 22:54:08.87	35.82	12.14	-28.5	-30.5	13.9	7.00e-07	0	44	0	219152384	17	4538
2026-01-20 22:54:09.88	35.95	12.22	-28.5	-30.4	14.0	2.05e-05	0	44	0	222298112	17	4498
2026-01-20 22:54:10.88	36.07	12.29	-28.4	-30.3	14.1	4.50e-06	0	44	0	225443840	17	4468
2026-01-20 22:54:11.88	36.19	12.37	-28.3	-30.1	14.2	3.00e-06	0	44	0	228589568	17	4390
2026-01-20 22:54:12.88	36.31	12.44	-28.5	-30.4	14.0	6.80e-06	0	44	0	231735296	17	4502
2026-01-20 22:54:13.89	36.43	12.52	-28.4	-30.2	14.2	2.20e-06	0	44	0	234881024	17	4419
2026-01-20 22:54:14.90	36.55	12.59	-28.3	-30.0	14.3	0.00e+00	0	44	0	238026752	17	4358
2026-01-20 22:54:15.90	36.68	12.67	-28.5	-30.4	14.0	1.60e-05	0	44	0	241172480	17	4499
2026-01-20 22:54:16.90	36.80	12.74	-28.3	-29.9	14.3	2.36e-05	0	44	0	244318208	17	4343
2026-01-20 22:54:17.90	36.93	12.82	-28.2	-29.6	14.5	1.50e-06	0	44	0	247463936	17	4266
2026-01-20 22:54:18.90	37.05	12.89	-28.1	-29.4	14.6	2.44e-05	0	44	0	250609664	17	4208
2026-01-20 22:54:19.90	37.18	12.97	-28.1	-29.5	14.6	5.79e-05	0	44	0	253755392	17	4238
2026-01-20 22:54:20.90	37.30	13.04	-28.2	-29.6	14.5	0.00e+00	0	44	0	256901120	17	4262
2026-01-20 22:54:21.90	37.43	13.12	-28.4	-30.1	14.2	5.95e-05	0	44	0	260046848	17	4402
2026-01-20 22:54:22.90	37.56	13.19	-28.3	-29.9	14.4	7.00e-07	0	44	0	263192576	17	4327
2026-01-20 22:54:23.91	37.69	13.27	-28.3	-29.9	14.4	7.00e-07	0	44	0	266338304	17	4345
2026-01-20 22:54:24.90	37.81	13.34	-28.2	-29.8	14.4	0.00e+00	0	44	0	269484032	17	4319
2026-01-20 22:54:25.91	37.94	13.42	-28.2	-29.8	14.4	1.50e-06	0	44	0	272629760	17	4315
2026-01-20 22:54:26.91	38.07	13.50	-28.2	-29.8	14.5	0.00e+00	0	44	0	275775488	17	4305
2026-01-20 22:54:27.91	38.20	13.57	-28.2	-29.7	14.5	7.00e-07	0	44	0	278921216	17	4298
2026-01-20 22:54:28.91	38.33	13.65	-28.3	-29.9	14.4	3.00e-06	0	44	0	282066944	17	4330
2026-01-20 22:54:29.92	38.47	13.72	-28.1	-29.6	14.6	0.00e+00	0	43	0	285212672	17	4242
2026-01-20 22:54:30.92	38.60	13.80	-28.1	-29.5	14.6	1.39e-04	0	44	0	288358400	17	4209
2026-01-20 22:54:31.92	38.73	13.88	-28.1	-29.5	14.7	7.00e-07	0	44	0	291504128	17	4222
2026-01-20 22:54:32.92	38.87	13.95	-28.2	-29.8	14.5	0.00e+00	0	44	0	294649856	17	4290
2026-01-20 22:54:33.93	39.00	14.03	-28.2	-29.7	14.6	2.46e-04	0	44	0	297795584	17	4275
2026-01-20 22:54:34.93	39.14	14.11	-28.2	-29.8	14.5	3.12e-04	0	44	0	300941312	17	4298
2026-01-20 22:54:35.93	39.27	14.18	-28.4	-30.3	14.2	7.00e-07	0	44	0	303038464	17	4439
2026-01-20 22:54:36.92	39.41	14.26	-28.3	-30.0	14.3	7.00e-07	0	44	0	306184192	17	4372
2026-01-20 22:54:37.93	39.55	14.34	-28.3	-29.9	14.4	1.50e-06	0	44	0	309329920	17	4319
2026-01-20 22:54:38.92	39.68	14.41	-28.3	-29.9	14.5	7.00e-07	0	44	0	312475648	17	4318
2026-01-20 22:54:39.93	39.82	14.49	-28.3	-30.5	14.4	4.59e-04	0	44	0	315621376	16	4628
2026-01-20 22:54:40.94	39.97	14.57	-28.2	-30.2	14.6	4.07e-04	0	44	0	318767104	16	4520
2026-01-20 22:54:41.95	40.11	14.65	-28.2	-30.1	14.6	7.00e-07	0	44	0	322961408	16	4511
2026-01-20 22:54:42.95	40.25	14.73	-28.2	-30.3	14.5	0.00e+00	0	44	0	325058560	16	4553
2026-01-20 22:54:43.96	40.39	14.80	-28.2	-30.3	14.6	7.00e-07	0	44	0	328204288	16	4543
2026-01-20 22:54:44.96	40.53	14.88	-28.4	-30.6	14.3	1.50e-06	0	44	0	331350016	16	4669
2026-01-20 22:54:45.96	40.68	14.96	-28.4	-30.6	14.4	2.49e-04	0	44	0	334495744	16	4659
2026-01-20 22:54:46.97	40.82	15.04	-28.5	-30.8	14.2	1.50e-06	0	44	0	337641472	16	4717
2026-01-20 22:54:47.97	40.96	15.12	-28.6	-30.5	14.1	7.00e-07	0	44	0	340787200	17	4510
2026-01-20 22:54:48.97	41.11	15.19	-28.7	-30.8	14.0	3.80e-06	0	44	0	343932928	17	4605
2026-01-20 22:54:49.98	41.26	15.27	-28.6	-30.6	14.1	1.50e-06	0	44	0	347078656	17	4536
2026-01-20 22:54:50.98	41.40	15.35	-28.4	-30.3	14.3	7.00e-07	0	44	0	350224384	17	4436
2026-01-20 22:54:51.98	41.55	15.43	-28.4	-30.2	14.3	1.50e-06	0	44	0	353370112	17	4426
2026-01-20 22:54:52.97	41.70	15.51	-28.6	-30.5	14.1	7.00e-07	0	44	0	356515840	17	4511
2026-01-20 22:54:53.98	41.85	15.59	-28.5	-30.4	14.2	7.00e-07	0	44	0	359661568	17	4487
2026-01-20 22:54:54.99	42.00	15.67	-28.5	-30.5	14.2	7.00e-07	0	44	0	362807296	17	4500
2026-01-20 22:54:55.99	42.15	15.74	-28.9	-31.2	13.7	6.10e-06	0	44	0	365953024	17	4725
2026-01-20 22:54:57.00	42.30	15.82	-28.7	-31.0	13.9	4.50e-06	0	44	0	369098752	17	4648
2026-01-20 22:54:58.00	42.45	15.90	-28.7	-30.8	14.0	2.20e-06	0	44	0	372244480	17	4596
2026-01-20 22:54:59.01	42.61	15.98	-28.7	-30.8	14.0	1.50e-06	0	44	0	375390208	17	4591
2026-01-20 22:55:00.01	42.76	16.06	-28.6	-30.7	14.1	1.50e-06	0	44	0	378535936	17	4577
2026-01-20 22:55:01.02	42.92	16.14	-28.7	-30.9	13.9	7.00e-07	0	44	0	381681664	17	4632
2026-01-20 22:55:02.02	43.07	16.22	-28.9	-31.3	13.7	2.20e-06	0	44	0	384827392	17	4747
2026-01-20 22:55:03.02	43.23	16.30	-28.6	-30.7	14.1	3.00e-06	0	44	0	387973120	17	4551
2026-01-20 22:55:04.03	43.39	16.38	-28.4	-30.1	14.4	2.20e-06	0	44	0	391118848	17	4391
2026-01-20 22:55:05.02	43.54	16.46	-28.4	-30.0	14.5	7.00e-07	0	44	0	394264576	17	4350
2026-01-20 22:55:06.03	43.70	16.54	-28.4	-30.1	14.4	0.00e+00	0	44	0	397410304	17	4388
2026-01-20 22:55:07.03	43.86	16.62	-28.4	-30.1	14.5	0.00e+00	0	44	0	400556032	17	4380
2026-01-20 22:55:08.03	44.02	16.70	-28.5	-30.5	14.3	0.00e+00	0	44	0	403701760	17	4483
2026-01-20 22:55:09.03	44.18	16.77	-28.6	-30.5	14.2	7.00e-07	0	44	0	406847488	17	4504
2026-01-20 22:55:10.04	44.34	16.86	-28.7	-30.8	14.1	1.50e-06	0	44	0	409993216	17	4580
2026-01-20 22:55:11.04	44.51	16.93	-28.7	-30.7	14.1	7.00e-07	0	44	0	413138944	17	4562
2026-01-20 22:55:12.05	44.67	17.01	-28.8	-31.1	13.9	2.20e-06	0	44	0	416284672	17	4682
2026-01-20 22:55:13.05	44.84	17.09	-28.7	-30.9	14.1	3.00e-06	0	44	0	419430400	17	4605
2026-01-20 22:55:14.05	45.00	17.17	-28.7	-30.9	14.0	1.50e-06	0	44	0	422576128	17	4609
2026-01-20 22:55:15.05	45.17	17.25	-28.9	-31.2	13.8	3.00e-06	0	44	0	425721856	17	4717
2026-01-20 22:55:16.05	45.33	17.33	-28.7	-30.7	14.1	1.50e-06	0	44	0	428867584	17	4548
2026-01-20 22:55:17.06	45.50	17.41	-28.6	-30.6	14.2	7.00e-07	0	44	0	432013312	17	4536
2026-01-20 22:55:18.06	45.67	17.49	-28.6	-30.5	14.3	7.00e-07	0	44	0	435159040	17	4493
2026-01-20 22:55:19.06	45.84	17.57	-28.6	-30.5	14.3	7.00e-07	0	44	0	438304768	17	4487
2026-01-20 22:55:20.07	46.01	17.65	-28.6	-30.5	14.2	0.00e+00	0	44	0	441450496	17	4501
2026-01-20 22:55:21.06	46.18	17.73	-28.6	-30.6	14.2	0.00e+00	0	44	0	444596224	17	4532
2026-01-20 22:55:22.06	46.35	17.81	-28.8	-30.9	14.0	0.00e+00	0	44	0	447741952	17	4623
2026-01-20 22:55:23.06	46.52	17.89	-28.7	-30.9	14.0	3.00e-06	0	44	0	450887680	17	4615
2026-01-20 22:55:24.06	46.70	17.97	-28.8	-31.0	14.0	4.50e-06	0	44	0	454033408	17	4662
2026-01-20 22:55:25.07	46.87	18.05	-28.7	-30.8	14.1	3.00e-06	0	44	0	457179136	17	4585
2026-01-20 22:55:26.07	47.05	18.13	-28.7	-30.7	14.2	1.50e-06	0	44	0	460324864	17	4554
2026-01-20 22:55:27.08	47.23	18.21	-28.6	-30.6	14.2	1.50e-06	0	44	0	463470592	17	4519
2026-01-20 22:55:28.09	47.41	18.29	-28.6	-30.5	14.3	7.00e-07	0	44	0	466616320	17	4481
2026-01-20 22:55:29.09	47.58	18.37	-28.6	-30.6	14.2	2.20e-06	0	44	0	469762048	17	4538
2026-01-20 22:55:30.09	47.76	18.45	-28.5	-30.4	14.4	0.00e+00	0	44	0	472907776	17	4454
2026-01-20 22:55:31.09	47.94	18.53	-28.4	-30.2	14.5	0.00e+00	0	44	0	476053504	17	4395
2026-01-20 22:55:32.09	48.12	18.61	-28.5	-30.4	14.4	7.00e-07	0	44	0	479199232	17	4460
2026-01-20 22:55:33.10	48.31	18.69	-28.5	-30.4	14.4	7.00e-07	0	44	0	482344960	17	4474
2026-01-20 22:55:34.10	48.49	18.77	-28.6	-30.5	14.3	0.00e+00	0	44	0	485490688	17	4507
2026-01-20 22:55:35.10	48.67	18.85	-28.6	-30.6	14.3	1.50e-06	0	44	0	488636416	17	4519
2026-01-20 22:55:36.10	48.86	18.93	-28.6	-30.5	14.3	7.00e-07	0	44	0	491782144	17	4496
2026-01-20 22:55:37.10	49.04	19.01	-28.6	-30.6	14.3	0.00e+00	0	44	0	494927872	17	4509
2026-01-20 22:55:38.10	49.23	19.09	-28.6	-30.6	14.3	1.50e-06	0	44	0	498073600	17	4534
2026-01-20 22:55:39.10	49.42	19.17	-28.4	-30.1	14.6	7.00e-07	0	44	0	501219328	17	4370
2026-01-20 22:55:40.11	49.61	19.25	-28.5	-30.2	14.5	0.00e+00	0	44	0	504365056	17	4409
2026-01-20 22:55:41.11	49.80	19.33	-28.5	-30.3	14.5	7.00e-07	0	44	0	507510784	17	4442
2026-01-20 22:55:42.12	49.99	19.41	-28.3	-29.9	14.6	7.00e-07	0	44	0	510656512	17	4304
2026-01-20 22:55:43.12	50.18	19.49	-28.3	-29.8	14.7	0.00e+00	0	44	0	513802240	17	4301
2026-01-20 22:55:44.12	50.37	19.57	-28.2	-29.7	14.8	0.00e+00	0	44	0	516947968	17	4255
2026-01-20 22:55:45.12	50.57	19.65	-28.3	-29.8	14.7	7.00e-07	0	44	0	520093696	17	4278
2026-01-20 22:55:46.13	50.76	19.73	-28.2	-29.5	15.0	0.00e+00	0	44	0	523239424	17	4202
2026-01-20 22:55:47.13	50.96	19.81	-28.2	-29.6	14.9	7.00e-07	0	44	0	526385152	17	4235
2026-01-20 22:55:48.14	51.16	19.89	-28.1	-29.3	15.0	3.28e-05	0	44	0	529530880	17	4144
2026-01-20 22:55:49.14	51.35	19.97	-28.0	-29.2	15.1	0.00e+00	0	44	0	532676608	17	4114
2026-01-20 22:55:50.13	51.55	20.05	-28.0	-29.2	15.1	0.00e+00	0	44	0	535822336	17	4131
2026-01-20 22:55:51.14	51.75	20.13	-28.2	-29.7	14.9	0.00e+00	0	44	0	538968064	17	4261
2026-01-20 22:55:52.14	51.95	20.20	-27.9	-29.4	15.3	0.00e+00	0	44	0	542113792	16	4273
2026-01-20 22:55:53.14	52.15	20.28	-27.9	-29.4	15.3	0.00e+00	0	44	0	545259520	16	4279
2026-01-20 22:55:54.14	52.35	20.36	-27.8	-29.2	15.4	0.00e+00	0	44	0	548405248	16	4242
2026-01-20 22:55:55.14	52.56	20.44	-27.9	-29.3	15.3	0.00e+00	0	44	0	551550976	16	4257
2026-01-20 22:55:56.14	52.76	20.52	-27.8	-29.2	15.4	0.00e+00	0	44	0	554696704	16	4237
2026-01-20 22:55:57.15	52.97	20.60	-27.7	-29.6	15.3	0.00e+00	0	44	0	557842432	15	4455
2026-01-20 22:55:58.15	53.18	20.68	-27.9	-29.9	15.1	1.64e-03	0	44	0	560988160	15	4535
2026-01-20 22:55:59.16	53.39	20.75	-27.8	-29.7	15.2	0.00e+00	0	44	0	564133888	15	4485
2026-01-20 22:56:00.16	53.59	20.83	-28.2	-30.0	15.0	7.19e-04	0	44	0	567279616	16	4455
2026-01-20 22:56:01.17	53.81	20.91	-27.9	-29.5	15.2	0.00e+00	0	44	0	570425344	16	4319
2026-01-20 22:56:02.17	54.02	20.99	-27.9	-29.3	15.4	0.00e+00	0	45	0	573571072	16	4257
2026-01-20 22:56:03.16	54.23	21.07	-27.9	-29.3	15.4	5.56e-04	0	44	0	576716800	16	4258
2026-01-20 22:56:04.17	54.44	21.14	-27.9	-29.5	15.3	7.28e-04	0	44	0	578813952	16	4292
2026-01-20 22:56:05.17	54.65	21.22	-27.8	-29.3	15.4	0.00e+00	0	44	0	581959680	16	4243
2026-01-20 22:56:06.18	54.87	21.30	-27.8	-29.3	15.4	0.00e+00	0	44	0	585105408	16	4247
2026-01-20 22:56:07.18	55.09	21.38	-27.8	-29.3	15.4	1.85e-04	0	44	0	588251136	16	4239
2026-01-20 22:56:08.18	55.30	21.45	-27.9	-29.4	15.3	0.00e+00	0	44	0	591396864	16	4275
2026-01-20 22:56:09.18	55.52	21.53	-28.0	-29.5	15.2	1.27e-04	0	44	0	594542592	16	4320
2026-01-20 22:56:10.18	55.74	21.60	-27.8	-29.2	15.4	2.01e-04	0	44	0	597688320	16	4229
2026-01-20 22:56:11.18	55.96	21.68	-27.8	-29.1	15.5	0.00e+00	0	44	0	600834048	16	4192
2026-01-20 22:56:12.18	56.18	21.76	-27.7	-29.0	15.6	7.78e-05	0	44	0	603979776	16	4160
2026-01-20 22:56:13.19	56.40	21.83	-27.7	-29.0	15.5	7.62e-05	0	44	0	607125504	16	4179
2026-01-20 22:56:14.19	56.63	21.91	-27.6	-28.8	15.7	0.00e+00	0	44	0	610271232	16	4111
2026-01-20 22:56:15.20	56.85	21.99	-27.6	-28.8	15.6	6.86e-05	0	44	0	613416960	16	4122
2026-01-20 22:56:16.20	57.08	22.06	-27.7	-29.0	15.6	7.40e-05	0	44	0	616562688	16	4157
2026-01-20 22:56:17.21	57.31	22.14	-27.5	-28.5	15.8	0.00e+00	0	44	0	619708416	16	4042
2026-01-20 22:56:18.21	57.54	22.21	-27.5	-28.5	15.8	1.72e-04	0	44	0	622854144	16	4038
2026-01-20 22:56:19.21	57.76	22.28	-27.5	-28.6	15.8	2.83e-04	0	44	0	625999872	16	4061
2026-01-20 22:56:20.22	58.00	22.36	-27.5	-28.5	15.9	0.00e+00	0	44	0	629145600	16	4045
2026-01-20 22:56:21.22	58.23	22.43	-27.6	-28.7	15.8	2.04e-04	0	44	0	632291328	16	4082
2026-01-20 22:56:22.22	58.46	22.51	-27.6	-28.7	15.8	0.00e+00	0	44	0	635437056	16	4082
2026-01-20 22:56:23.23	58.69	22.58	-27.6	-28.7	15.8	0.00e+00	0	44	0	638582784	16	4080
2026-01-20 22:56:24.23	58.93	22.65	-27.7	-28.9	15.6	1.58e-04	0	44	0	641728512	16	4141
2026-01-20 22:56:25.23	59.16	22.73	-27.4	-28.7	15.8	3.12e-04	0	44	0	644874240	15	4219
2026-01-20 22:56:26.23	59.40	22.80	-27.4	-28.7	15.8	0.00e+00	0	44	0	648019968	15	4209
2026-01-20 22:56:27.24	59.64	22.87	-27.4	-28.7	15.9	0.00e+00	0	44	0	651165696	15	4208
2026-01-20 22:56:28.25	59.88	22.95	-27.3	-28.6	15.9	0.00e+00	0	44	0	654311424	15	4185
2026-01-20 22:56:29.25	60.12	23.02	-27.4	-28.8	15.8	0.00e+00	0	45	0	657457152	15	4219
2026-01-20 22:56:30.26	60.36	23.09	-27.5	-29.0	15.7	1.43e-04	0	44	0	660602880	15	4291
2026-01-20 22:56:31.26	60.60	23.16	-27.4	-28.7	15.8	2.69e-04	0	45	0	663748608	15	4201
2026-01-20 22:56:32.26	60.84	23.23	-27.4	-28.8	15.8	0.00e+00	0	44	0	666894336	15	4237
2026-01-20 22:56:33.26	61.09	23.30	-27.4	-28.8	15.8	0.00e+00	0	44	0	670040064	15	4223
2026-01-20 22:56:34.26	61.33	23.37	-27.4	-29.3	15.8	0.00e+00	0	44	0	673185792	14	4480
2026-01-20 22:56:35.26	61.58	23.44	-27.5	-28.9	15.7	0.00e+00	0	44	0	676331520	15	4264
2026-01-20 22:56:36.27	61.83	23.51	-27.4	-28.7	15.9	0.00e+00	0	44	0	679477248	15	4197
2026-01-20 22:56:37.27	62.08	23.58	-27.3	-29.1	15.9	0.00e+00	0	44	0	682622976	14	4422
2026-01-20 22:56:38.28	62.33	23.65	-27.4	-29.2	15.8	0.00e+00	0	44	0	685768704	14	4454
2026-01-20 22:56:39.28	62.58	23.72	-27.3	-29.1	16.0	0.00e+00	0	44	0	688914432	14	4415
2026-01-20 22:56:40.29	62.83	23.79	-27.4	-29.2	15.9	2.00e-03	0	44	0	692060160	14	4449
2026-01-20 22:56:41.29	63.08	23.85	-27.4	-29.3	15.8	0.00e+00	0	44	0	695205888	14	4479
2026-01-20 22:56:42.29	63.34	23.92	-27.5	-29.5	15.7	0.00e+00	0	44	0	698351616	14	4538
2026-01-20 22:56:43.30	63.59	23.99	-27.5	-29.0	15.7	0.00e+00	0	44	0	701497344	15	4297
2026-01-20 22:56:44.29	63.85	24.05	-27.6	-29.3	15.5	0.00e+00	0	44	0	704643072	15	4381
2026-01-20 22:56:45.30	64.11	24.12	-27.8	-29.7	15.3	0.00e+00	0	44	0	707788800	15	4492
2026-01-20 22:56:46.30	64.36	24.19	-27.7	-29.4	15.5	7.00e-07	0	44	0	710934528	15	4398
2026-01-20 22:56:47.30	64.62	24.25	-27.7	-29.4	15.5	0.00e+00	0	44	0	714080256	15	4388
2026-01-20 22:56:48.31	64.88	24.32	-27.7	-29.5	15.5	0.00e+00	0	44	0	717225984	15	4419
2026-01-20 22:56:49.30	65.14	24.38	-27.7	-29.4	15.5	0.00e+00	0	44	0	720371712	15	4401
2026-01-20 22:56:50.30	65.40	24.44	-27.7	-29.5	15.5	0.00e+00	0	44	0	723517440	15	4417
2026-01-20 22:56:51.30	65.67	24.51	-27.8	-29.7	15.3	0.00e+00	0	44	0	726663168	15	4479
2026-01-20 22:56:52.30	65.93	24.57	-27.9	-30.0	15.2	0.00e+00	0	44	0	729808896	15	4570
2026-01-20 22:56:53.31	66.20	24.63	-28.2	-30.0	15.1	7.00e-07	0	44	0	732954624	16	4455
2026-01-20 22:56:54.32	66.47	24.69	-28.2	-30.0	15.0	0.00e+00	0	44	0	736100352	16	4454
2026-01-20 22:56:55.32	66.73	24.76	-28.3	-30.2	14.9	0.00e+00	0	44	0	739246080	16	4517
2026-01-20 22:56:56.33	67.01	24.82	-28.0	-29.7	15.2	0.00e+00	0	44	0	742391808	16	4361
2026-01-20 22:56:57.34	67.28	24.88	-27.9	-29.4	15.4	0.00e+00	0	44	0	745537536	16	4276
2026-01-20 22:56:58.34	67.55	24.94	-27.9	-29.5	15.4	0.00e+00	0	44	0	748683264	16	4300
2026-01-20 22:56:59.34	67.82	25.00	-27.9	-29.5	15.4	7.00e-07	0	44	0	751828992	16	4296
2026-01-20 22:57:00.33	68.09	25.06	-27.9	-29.4	15.5	0.00e+00	0	44	0	754974720	16	4260
2026-01-20 22:57:01.32	68.36	25.11	-28.0	-29.7	15.3	0.00e+00	0	44	0	758120448	16	4360
2026-01-20 22:57:02.32	68.63	25.17	-28.0	-29.7	15.3	0.00e+00	0	44	0	761266176	16	4354
2026-01-20 22:57:03.32	68.91	25.23	-27.9	-29.5	15.4	0.00e+00	0	44	0	764411904	16	4294
2026-01-20 22:57:04.33	69.19	25.28	-27.9	-29.4	15.5	0.00e+00	0	44	0	767557632	16	4275
2026-01-20 22:57:05.33	69.46	25.34	-27.9	-29.4	15.5	0.00e+00	0	44	0	770703360	16	4269
2026-01-20 22:57:06.34	69.74	25.40	-27.8	-29.2	15.6	0.00e+00	0	44	0	773849088	16	4207
2026-01-20 22:57:07.34	70.02	25.45	-27.8	-29.2	15.5	0.00e+00	0	44	0	776994816	16	4234
2026-01-20 22:57:08.35	70.31	25.51	-28.0	-29.6	15.3	0.00e+00	0	44	0	780140544	16	4329
2026-01-20 22:57:09.34	70.58	25.56	-28.1	-29.8	15.2	0.00e+00	0	44	0	783286272	16	4376
2026-01-20 22:57:10.35	70.87	25.61	-27.9	-29.5	15.3	0.00e+00	0	44	0	786432000	16	4285
2026-01-20 22:57:11.36	71.15	25.67	-27.9	-29.5	15.4	0.00e+00	0	44	0	789577728	16	4291
2026-01-20 22:57:12.36	71.44	25.72	-28.0	-29.5	15.3	0.00e+00	0	45	0	792723456	16	4309
2026-01-20 22:57:13.37	71.72	25.77	-27.9	-29.4	15.4	0.00e+00	0	44	0	795869184	16	4279
2026-01-20 22:57:14.37	72.01	25.82	-27.9	-29.3	15.5	2.20e-06	0	45	0	799014912	16	4259
2026-01-20 22:57:15.37	72.30	25.87	-27.8	-29.3	15.6	0.00e+00	0	44	0	802160640	16	4235
2026-01-20 22:57:16.38	72.59	25.92	-27.7	-29.0	15.7	0.00e+00	0	44	0	805306368	16	4158
2026-01-20 22:57:17.37	72.87	25.97	-27.7	-28.9	15.7	0.00e+00	0	44	0	808452096	16	4142
2026-01-20 22:57:18.38	73.16	26.01	-27.7	-29.0	15.7	0.00e+00	0	44	0	811597824	16	4174
2026-01-20 22:57:19.38	73.45	26.06	-27.7	-29.0	15.7	0.00e+00	0	44	0	814743552	16	4166
2026-01-20 22:57:20.38	73.74	26.11	-27.8	-29.1	15.6	0.00e+00	0	44	0	817889280	16	4184
2026-01-20 22:57:21.38	74.04	26.15	-27.8	-29.1	15.6	0.00e+00	0	44	0	821035008	16	4197
2026-01-20 22:57:22.37	74.33	26.20	-27.8	-29.2	15.5	0.00e+00	0	44	0	824180736	16	4231
2026-01-20 22:57:23.38	74.62	26.24	-27.8	-29.1	15.6	7.00e-07	0	44	0	827326464	16	4192
2026-01-20 22:57:24.38	74.92	26.29	-27.8	-29.1	15.6	0.00e+00	0	44	0	830472192	16	4194
2026-01-20 22:57:25.38	75.21	26.33	-27.8	-29.2	15.6	0.00e+00	0	44	0	832569344	16	4219
2026-01-20 22:57:26.39	75.51	26.37	-27.8	-29.1	15.6	7.00e-07	0	44	0	835715072	16	4203
2026-01-20 22:57:27.39	75.81	26.41	-27.8	-29.2	15.6	0.00e+00	0	45	0	839909376	16	4215
2026-01-20 22:57:28.40	76.11	26.45	-27.8	-29.1	15.6	0.00e+00	0	44	0	843055104	16	4192
2026-01-20 22:57:29.40	76.40	26.49	-27.8	-29.1	15.6	0.00e+00	0	44	0	846200832	16	4199
2026-01-20 22:57:30.40	76.70	26.53	-27.7	-29.0	15.7	0.00e+00	0	44	0	849346560	16	4167
2026-01-20 22:57:31.41	77.00	26.57	-27.7	-28.8	15.7	0.00e+00	0	44	0	852492288	16	4115
2026-01-20 22:57:32.42	77.31	26.61	-27.7	-29.0	15.7	0.00e+00	0	44	0	854589440	16	4182
2026-01-20 22:57:33.41	77.60	26.65	-27.7	-29.0	15.7	0.00e+00	0	44	0	857735168	16	4156
2026-01-20 22:57:34.41	77.91	26.68	-27.7	-28.9	15.8	0.00e+00	0	44	0	860880896	16	4126
2026-01-20 22:57:35.40	78.21	26.72	-27.7	-29.0	15.7	0.00e+00	0	44	0	864026624	16	4153
2026-01-20 22:57:36.41	78.51	26.75	-27.8	-29.1	15.6	0.00e+00	0	44	0	867172352	16	4193
2026-01-20 22:57:37.41	78.81	26.79	-27.9	-29.3	15.5	0.00e+00	0	44	0	870318080	16	4234
2026-01-20 22:57:38.41	79.12	26.82	-27.7	-29.0	15.6	0.00e+00	0	44	0	873463808	16	4172
2026-01-20 22:57:39.42	79.43	26.85	-28.1	-29.8	15.2	0.00e+00	0	44	0	876609536	16	4378
2026-01-20 22:57:40.42	79.73	26.88	-28.1	-29.8	15.3	7.00e-07	0	44	0	879755264	16	4375
2026-01-20 22:57:41.42	80.04	26.91	-27.8	-29.2	15.6	0.00e+00	0	44	0	882900992	16	4220
2026-01-20 22:57:42.43	80.35	26.94	-27.7	-28.9	15.8	0.00e+00	0	44	0	886046720	16	4132
2026-01-20 22:57:43.44	80.66	26.97	-27.7	-28.8	15.8	0.00e+00	0	45	0	889192448	16	4120
2026-01-20 22:57:44.44	80.96	27.00	-27.7	-29.0	15.7	0.00e+00	0	44	0	892338176	16	4155
2026-01-20 22:57:45.45	81.28	27.03	-27.7	-28.8	15.8	0.00e+00	0	44	0	895483904	16	4114
2026-01-20 22:57:46.45	81.58	27.05	-27.7	-28.9	15.7	0.00e+00	0	44	0	898629632	16	4141
2026-01-20 22:57:47.45	81.89	27.08	-27.8	-29.1	15.7	0.00e+00	0	44	0	901775360	16	4186
2026-01-20 22:57:48.46	82.21	27.10	-27.6	-28.7	15.8	0.00e+00	0	44	0	904921088	16	4092
2026-01-20 22:57:49.46	82.52	27.13	-27.6	-28.6	15.9	0.00e+00	0	44	0	908066816	16	4055
2026-01-20 22:57:50.47	82.83	27.15	-27.6	-28.6	15.9	0.00e+00	0	44	0	911212544	16	4052
2026-01-20 22:57:51.47	83.14	27.17	-27.5	-28.5	16.0	0.00e+00	0	44	0	914358272	16	4040
2026-01-20 22:57:52.48	83.45	27.19	-27.6	-28.8	15.8	0.00e+00	0	44	0	917504000	16	4102
2026-01-20 22:57:53.48	83.77	27.21	-27.7	-28.9	15.8	4.50e-06	0	44	0	920649728	16	4127
2026-01-20 22:57:54.48	84.08	27.23	-27.8	-29.1	15.7	0.00e+00	0	44	0	923795456	16	4184
2026-01-20 22:57:55.48	84.39	27.25	-27.8	-29.1	15.6	7.00e-07	0	44	0	926941184	16	4188
2026-01-20 22:57:56.49	84.71	27.27	-27.7	-29.0	15.7	0.00e+00	0	44	0	930086912	16	4165
2026-01-20 22:57:57.49	85.02	27.29	-27.7	-28.8	15.8	0.00e+00	0	44	0	933232640	16	4112
2026-01-20 22:57:58.48	85.33	27.30	-27.8	-29.0	15.7	0.00e+00	0	44	0	936378368	16	4172
2026-01-20 22:57:59.50	85.65	27.32	-27.8	-29.2	15.6	0.00e+00	0	45	0	939524096	16	4207
2026-01-20 22:58:00.50	85.97	27.33	-27.7	-29.0	15.7	5.30e-06	0	44	0	942669824	16	4172
2026-01-20 22:58:01.50	86.28	27.34	-27.9	-29.3	15.5	0.00e+00	0	44	0	945815552	16	4260
2026-01-20 22:58:02.51	86.60	27.36	-27.8	-29.2	15.6	4.65e-05	0	44	0	948961280	16	4213
2026-01-20 22:58:03.52	86.92	27.37	-27.7	-28.9	15.8	7.00e-07	0	44	0	952107008	16	4146
2026-01-20 22:58:04.52	87.23	27.38	-27.7	-28.9	15.8	0.00e+00	0	44	0	955252736	16	4121
2026-01-20 22:58:05.52	87.55	27.39	-27.9	-29.3	15.6	0.00e+00	0	44	0	958398464	16	4236
2026-01-20 22:58:06.52	87.86	27.39	-27.9	-29.3	15.5	0.00e+00	0	44	0	961544192	16	4256
2026-01-20 22:58:07.53	88.18	27.40	-27.8	-29.1	15.7	0.00e+00	0	44	0	964689920	16	4189
2026-01-20 22:58:08.53	88.50	27.41	-27.8	-29.1	15.7	0.00e+00	0	44	0	967835648	16	4176
2026-01-20 22:58:09.53	88.81	27.41	-27.8	-29.1	15.6	0.00e+00	0	44	0	970981376	16	4197
2026-01-20 22:58:10.54	89.13	27.42	-27.9	-29.3	15.6	0.00e+00	0	44	0	974127104	16	4241
2026-01-20 22:58:11.54	89.45	27.42	-27.8	-29.2	15.6	0.00e+00	0	44	0	977272832	16	4213
2026-01-20 22:58:12.54	89.76	27.43	-27.9	-29.3	15.5	0.00e+00	0	44	0	980418560	16	4241
2026-01-20 22:58:13.55	90.08	27.43	-27.9	-29.3	15.6	0.00e+00	0	44	0	983564288	16	4238
2026-01-20 22:58:14.55	90.40	27.43	-27.8	-29.2	15.6	9.90e-06	0	44	0	986710016	16	4222
2026-01-20 22:58:15.56	90.72	27.43	-27.9	-29.4	15.5	5.87e-05	0	44	0	989855744	16	4278
2026-01-20 22:58:16.56	91.04	27.43	-27.9	-29.3	15.5	0.00e+00	0	44	0	993001472	16	4251
2026-01-20 22:58:17.56	91.35	27.43	-27.8	-29.1	15.6	0.00e+00	0	44	0	996147200	16	4196
2026-01-20 22:58:18.57	91.67	27.42	-27.9	-29.3	15.5	2.66e-04	0	45	0	999292928	16	4244
2026-01-20 22:58:19.57	91.99	27.42	-27.9	-29.4	15.5	0.00e+00	0	44	0	1002438656	16	4268
2026-01-20 22:58:20.56	92.30	27.42	-28.0	-29.7	15.3	3.08e-04	0	45	0	1005584384	16	4353
2026-01-20 22:58:21.56	92.62	27.41	-28.0	-29.7	15.3	0.00e+00	0	44	0	1008730112	16	4347
2026-01-20 22:58:22.56	92.93	27.40	-27.7	-28.9	15.7	0.00e+00	0	44	0	1011875840	16	4146
2026-01-20 22:58:23.57	93.25	27.40	-27.5	-28.5	16.0	0.00e+00	0	45	0	1015021568	16	4030
2026-01-20 22:58:24.57	93.57	27.39	-27.2	-28.4	16.2	2.71e-04	0	44	0	1018167296	15	4116
2026-01-20 22:58:25.57	93.88	27.38	-27.2	-28.3	16.2	0.00e+00	0	45	0	1021313024	15	4090
2026-01-20 22:58:26.58	94.20	27.37	-27.3	-28.4	16.1	0.00e+00	0	45	0	1024458752	15	4128
2026-01-20 22:58:27.58	94.52	27.36	-27.2	-28.4	16.1	0.00e+00	0	45	0	1027604480	15	4121
2026-01-20 22:58:28.58	94.83	27.35	-27.4	-28.7	16.0	0.00e+00	0	44	0	1030750208	15	4206
2026-01-20 22:58:29.59	95.15	27.33	-27.4	-28.8	15.9	0.00e+00	0	44	0	1033895936	15	4215
2026-01-20 22:58:30.59	95.46	27.32	-27.4	-28.7	16.0	0.00e+00	0	44	0	1037041664	15	4197
2026-01-20 22:58:31.59	95.78	27.31	-27.4	-28.9	15.9	0.00e+00	0	44	0	1040187392	15	4240
2026-01-20 22:58:32.59	96.09	27.29	-27.6	-29.2	15.7	0.00e+00	0	45	0	1043333120	15	4340
2026-01-20 22:58:33.59	96.40	27.27	-27.7	-29.6	15.5	0.00e+00	0	44	0	1046478848	15	4436
2026-01-20 22:58:34.60	96.72	27.26	-27.7	-29.5	15.5	0.00e+00	0	44	0	1049624576	15	4429
2026-01-20 22:58:35.60	97.03	27.24	-27.8	-29.6	15.5	0.00e+00	0	44	0	1052770304	15	4447
2026-01-20 22:58:36.61	97.35	27.22	-27.7	-29.5	15.5	0.00e+00	0	44	0	1055916032	15	4423
2026-01-20 22:58:37.61	97.66	27.20	-27.8	-29.8	15.4	0.00e+00	0	44	0	1059061760	15	4515
2026-01-20 22:58:38.61	97.97	27.18	-27.9	-29.8	15.3	0.00e+00	0	44	0	1062207488	15	4519
2026-01-20 22:58:39.61	98.29	27.16	-28.3	-30.3	15.0	7.00e-07	0	44	0	1065353216	16	4516
2026-01-20 22:58:40.61	98.60	27.13	-28.2	-30.1	15.0	0.00e+00	0	44	0	1068498944	16	4481
2026-01-20 22:58:41.61	98.91	27.11	-27.9	-29.3	15.5	0.00e+00	0	44	0	1071644672	16	4252
2026-01-20 22:58:42.61	99.22	27.09	-27.6	-28.8	15.8	0.00e+00	0	45	0	1074790400	16	4120
2026-01-20 22:58:43.62	99.53	27.06	-27.5	-28.5	16.0	0.00e+00	0	45	0	1077936128	16	4029
2026-01-20 22:58:44.63	99.84	27.03	-27.5	-28.4	16.0	7.00e-07	0	45	0	1081081856	16	4016
2026-01-20 22:58:45.63	100.15	27.01	-27.4	-28.3	16.0	0.00e+00	0	45	0	1084227584	16	3998
2026-01-20 22:58:46.64	100.46	26.98	-27.4	-28.2	16.1	0.00e+00	0	45	0	1087373312	16	3972
2026-01-20 22:58:47.64	100.77	26.95	-27.4	-28.3	16.1	0.00e+00	0	44	0	1090519040	16	3983
2026-01-20 22:58:48.64	101.08	26.92	-27.5	-28.4	15.9	0.00e+00	0	45	0	1093664768	16	4021
2026-01-20 22:58:49.64	101.38	26.89	-27.5	-28.5	15.9	0.00e+00	0	44	0	1096810496	16	4039
2026-01-20 22:58:50.64	101.69	26.86	-27.5	-28.4	16.0	0.00e+00	0	45	0	1099956224	16	4026
2026-01-20 22:58:51.65	102.00	26.83	-27.5	-28.5	15.9	0.00e+00	0	44	0	1103101952	16	4051
2026-01-20 22:58:52.66	102.31	26.79	-27.6	-28.7	15.8	0.00e+00	0	44	0	1106247680	16	4096
2026-01-20 22:58:53.67	102.61	26.76	-27.6	-28.8	15.8	0.00e+00	0	45	0	1109393408	16	4125
2026-01-20 22:58:54.67	102.92	26.73	-27.7	-29.0	15.7	0.00e+00	0	45	0	1112539136	16	4174
2026-01-20 22:58:55.67	103.22	26.69	-27.7	-29.1	15.6	0.00e+00	0	44	0	1115684864	16	4191
2026-01-20 22:58:56.68	103.53	26.65	-27.7	-29.1	15.6	0.00e+00	0	44	0	1118830592	16	4188
2026-01-20 22:58:57.68	103.83	26.62	-27.7	-28.9	15.7	0.00e+00	0	44	0	1121976320	16	4150
2026-01-20 22:58:58.68	104.13	26.58	-27.7	-28.9	15.7	0.00e+00	0	44	0	1125122048	16	4147
2026-01-20 22:58:59.69	104.43	26.54	-27.8	-29.1	15.6	0.00e+00	0	45	0	1128267776	16	4211
2026-01-20 22:59:00.68	104.73	26.50	-27.8	-29.3	15.5	0.00e+00	0	44	0	1131413504	16	4252
2026-01-20 22:59:01.68	105.03	26.46	-27.8	-29.1	15.5	0.00e+00	0	44	0	1133510656	16	4208
2026-01-20 22:59:02.68	105.32	26.42	-27.8	-29.2	15.6	0.00e+00	0	45	0	1136656384	16	4217
2026-01-20 22:59:03.68	105.62	26.38	-27.8	-29.2	15.5	0.00e+00	0	44	0	1139802112	16	4224
2026-01-20 22:59:04.68	105.92	26.34	-27.8	-29.2	15.5	0.00e+00	0	44	0	1142947840	16	4237
2026-01-20 22:59:05.69	106.22	26.30	-27.9	-29.4	15.4	0.00e+00	0	44	0	1146093568	16	4294
2026-01-20 22:59:06.69	106.51	26.25	-28.0	-29.6	15.3	0.00e+00	0	45	0	1149239296	16	4335
2026-01-20 22:59:07.69	106.81	26.21	-28.0	-29.7	15.2	0.00e+00	0	44	0	1153433600	16	4361
2026-01-20 22:59:08.70	107.10	26.16	-28.1	-29.8	15.2	0.00e+00	0	44	0	1155530752	16	4376
2026-01-20 22:59:09.70	107.39	26.12	-28.0	-29.7	15.2	0.00e+00	0	45	0	1158676480	16	4357
2026-01-20 22:59:10.70	107.69	26.07	-28.0	-29.5	15.3	0.00e+00	0	44	0	1161822208	16	4314
2026-01-20 22:59:11.71	107.98	26.02	-28.1	-29.9	15.1	7.00e-07	0	44	0	1164967936	16	4416
2026-01-20 22:59:12.71	108.27	25.97	-27.9	-29.4	15.4	0.00e+00	0	45	0	1168113664	16	4291
2026-01-20 22:59:13.71	108.56	25.93	-27.8	-29.3	15.5	0.00e+00	0	45	0	1171259392	16	4239
2026-01-20 22:59:14.71	108.85	25.88	-28.0	-29.6	15.3	0.00e+00	0	45	0	1174405120	16	4341
2026-01-20 22:59:15.71	109.14	25.83	-27.8	-29.2	15.5	0.00e+00	0	45	0	1177550848	16	4204
2026-01-20 22:59:16.71	109.42	25.78	-27.6	-28.7	15.8	0.00e+00	0	44	0	1180696576	16	4075
2026-01-20 22:59:17.71	109.71	25.73	-27.5	-28.4	15.9	0.00e+00	0	44	0	1183842304	16	4008
2026-01-20 22:59:18.72	109.99	25.67	-27.5	-28.5	15.9	0.00e+00	0	45	0	1186988032	16	4038
2026-01-20 22:59:19.72	110.28	25.62	-27.5	-28.5	15.9	0.00e+00	0	45	0	1190133760	16	4022
2026-01-20 22:59:20.72	110.56	25.57	-27.3	-28.1	16.1	0.00e+00	0	44	0	1193279488	16	3937
2026-01-20 22:59:21.72	110.84	25.51	-27.3	-28.1	16.2	0.00e+00	0	45	0	1196425216	16	3921
2026-01-20 22:59:22.73	111.13	25.46	-27.2	-28.2	16.1	0.00e+00	0	45	0	1199570944	15	4073
2026-01-20 22:59:23.73	111.41	25.40	-27.1	-28.1	16.2	0.00e+00	0	45	0	1202716672	15	4053
2026-01-20 22:59:24.74	111.69	25.35	-27.1	-28.2	16.1	0.00e+00	0	45	0	1205862400	15	4056
2026-01-20 22:59:25.74	111.97	25.29	-27.3	-28.5	16.0	0.00e+00	0	44	0	1209008128	15	4146
2026-01-20 22:59:26.75	112.25	25.24	-27.3	-28.5	15.9	0.00e+00	0	45	0	1212153856	15	4153
2026-01-20 22:59:27.75	112.52	25.18	-27.4	-28.8	15.8	0.00e+00	0	44	0	1215299584	15	4234
2026-01-20 22:59:28.76	112.80	25.12	-27.3	-28.6	15.9	0.00e+00	0	44	0	1218445312	15	4166
2026-01-20 22:59:29.76	113.08	25.06	-27.3	-28.5	16.0	0.00e+00	0	44	0	1221591040	15	4147
2026-01-20 22:59:30.77	113.35	25.00	-27.3	-28.5	15.9	0.00e+00	0	44	0	1224736768	15	4156
2026-01-20 22:59:31.77	113.62	24.94	-27.3	-28.5	15.8	0.00e+00	0	45	0	1227882496	15	4149
2026-01-20 22:59:32.77	113.90	24.88	-27.2	-28.3	15.9	1.01e-04	0	44	0	1231028224	15	4086
2026-01-20 22:59:33.77	114.17	24.82	-27.2	-28.2	16.1	0.00e+00	0	45	0	1234173952	15	4074
2026-01-20 22:59:34.78	114.44	24.76	-27.3	-28.7	15.9	0.00e+00	0	45	0	1237319680	15	4189
2026-01-20 22:59:35.78	114.71	24.70	-27.6	-29.3	15.5	0.00e+00	0	45	0	1240465408	15	4360
2026-01-20 22:59:36.78	114.97	24.64	-27.7	-29.5	15.4	0.00e+00	0	44	0	1243611136	15	4440
2026-01-20 22:59:37.78	115.24	24.57	-28.0	-30.1	15.1	8.16e-05	0	45	0	1246756864	15	4592
2026-01-20 22:59:38.79	115.51	24.51	-28.2	-30.1	14.9	0.00e+00	0	44	0	1249902592	16	4472
2026-01-20 22:59:39.80	115.77	24.45	-28.4	-30.5	14.7	0.00e+00	0	45	0	1253048320	16	4609
2026-01-20 22:59:40.80	116.04	24.38	-28.3	-30.4	14.7	7.00e-07	0	44	0	1256194048	16	4573
2026-01-20 22:59:41.80	116.30	24.32	-28.5	-30.3	14.5	0.00e+00	0	44	0	1259339776	17	4433
2026-01-20 22:59:42.80	116.56	24.25	-28.8	-30.9	14.1	1.50e-06	0	45	0	1262485504	17	4621
2026-01-20 22:59:43.81	116.82	24.19	-28.5	-30.2	14.6	1.36e-04	0	45	0	1265631232	17	4404
2026-01-20 22:59:44.80	117.08	24.12	-28.0	-29.2	15.1	7.00e-07	0	45	0	1268776960	17	4134
2026-01-20 22:59:45.81	117.34	24.06	-27.8	-28.6	15.5	0.00e+00	0	45	0	1271922688	17	3973
2026-01-20 22:59:46.81	117.60	23.99	-27.7	-28.9	15.6	0.00e+00	0	45	0	1275068416	16	4146
2026-01-20 22:59:47.81	117.85	23.92	-27.8	-29.2	15.4	2.12e-04	0	45	0	1278214144	16	4236
2026-01-20 22:59:48.81	118.11	23.85	-28.0	-29.8	15.1	0.00e+00	0	45	0	1281359872	16	4396
2026-01-20 22:59:49.82	118.36	23.79	-28.1	-29.9	15.0	1.85e-04	0	45	0	1284505600	16	4429
2026-01-20 22:59:50.82	118.61	23.72	-28.3	-30.4	14.7	0.00e+00	0	45	0	1287651328	16	4571
2026-01-20 22:59:51.82	118.87	23.65	-28.2	-30.1	14.9	0.00e+00	0	44	0	1290797056	16	4493
2026-01-20 22:59:52.81	119.11	23.58	-28.2	-30.2	14.8	7.62e-05	0	45	0	1293942784	16	4515
2026-01-20 22:59:53.82	119.37	23.51	-28.2	-30.1	14.9	7.32e-05	0	44	0	1297088512	16	4475
2026-01-20 22:59:54.82	119.61	23.44	-28.1	-29.8	15.1	0.00e+00	0	44	0	1300234240	16	4407
2026-01-20 22:59:55.82	119.86	23.37	-28.0	-29.8	15.1	0.00e+00	0	45	0	1303379968	16	4392
2026-01-20 22:59:56.83	120.11	23.30	-28.2	-30.2	14.9	0.00e+00	0	45	0	1306525696	16	4500
2026-01-20 22:59:57.84	120.36	23.23	-28.1	-29.9	15.0	7.00e-07	0	45	0	1309671424	16	4432
2026-01-20 22:59:58.84	120.60	23.16	-28.2	-30.0	14.9	4.95e-05	0	45	0	1312817152	16	4466
2026-01-20 22:59:59.85	120.85	23.08	-28.3	-30.3	14.8	8.92e-05	0	45	0	1315962880	16	4547
2026-01-20 23:00:00.85	121.09	23.01	-28.3	-30.4	14.7	7.00e-07	0	44	0	1319108608	16	4572
2026-01-20 23:00:01.85	121.33	22.94	-28.3	-30.3	14.8	0.00e+00	0	45	0	1322254336	16	4551
2026-01-20 23:00:02.85	121.57	22.87	-28.4	-30.5	14.6	1.65e-04	0	45	0	1325400064	16	4611
2026-01-20 23:00:03.85	121.81	22.79	-28.3	-30.4	14.7	0.00e+00	0	45	0	1328545792	16	4574
2026-01-20 23:00:04.85	122.04	22.72	-28.6	-30.6	14.3	8.77e-05	0	44	0	1331691520	17	4514
2026-01-20 23:00:05.85	122.28	22.65	-28.3	-29.8	14.8	6.48e-05	0	45	0	1334837248	17	4277
2026-01-20 23:00:06.86	122.52	22.57	-27.9	-28.9	15.3	7.00e-07	0	44	0	1337982976	17	4036
2026-01-20 23:00:07.86	122.75	22.50	-27.7	-28.9	15.5	7.00e-07	0	44	0	1341128704	16	4160
2026-01-20 23:00:08.87	122.99	22.43	-27.8	-29.3	15.3	0.00e+00	0	45	0	1344274432	16	4248
2026-01-20 23:00:09.87	123.22	22.35	-27.6	-28.8	15.6	0.00e+00	0	45	0	1347420160	16	4117
2026-01-20 23:00:10.87	123.45	22.28	-27.6	-28.8	15.6	4.95e-05	0	44	0	1350565888	16	4117
2026-01-20 23:00:11.87	123.68	22.20	-27.7	-28.9	15.5	0.00e+00	0	45	0	1353711616	16	4160
2026-01-20 23:00:12.88	123.91	22.13	-27.7	-29.0	15.5	0.00e+00	0	44	0	1356857344	16	4190
2026-01-20 23:00:13.88	124.14	22.05	-27.8	-29.2	15.3	4.65e-05	0	44	0	1360003072	16	4243
2026-01-20 23:00:14.88	124.36	21.97	-27.8	-29.2	15.3	7.78e-05	0	44	0	1363148800	16	4250
2026-01-20 23:00:15.89	124.59	21.90	-27.9	-29.4	15.2	0.00e+00	0	45	0	1366294528	16	4287
2026-01-20 23:00:16.90	124.82	21.82	-28.0	-29.7	15.0	0.00e+00	0	44	0	1369440256	16	4388
2026-01-20 23:00:17.91	125.04	21.74	-27.8	-29.2	15.3	7.00e-07	0	45	0	1372585984	16	4244
2026-01-20 23:00:18.91	125.26	21.67	-27.7	-28.9	15.5	0.00e+00	0	44	0	1375731712	16	4150
2026-01-20 23:00:19.92	125.49	21.59	-27.5	-28.5	15.7	0.00e+00	0	44	0	1378877440	16	4050
2026-01-20 23:00:20.91	125.71	21.51	-27.4	-28.4	15.8	1.50e-06	0	45	0	1382023168	16	4020
2026-01-20 23:00:21.91	125.92	21.44	-27.5	-28.6	15.7	0.00e+00	0	44	0	1385168896	16	4061
2026-01-20 23:00:22.92	126.14	21.36	-27.4	-28.2	15.9	0.00e+00	0	44	0	1388314624	16	3975
2026-01-20 23:00:23.92	126.36	21.28	-27.4	-28.4	15.8	0.00e+00	0	45	0	1391460352	16	4023
2026-01-20 23:00:24.92	126.58	21.20	-27.6	-28.8	15.5	0.00e+00	0	44	0	1394606080	16	4127
2026-01-20 23:00:25.93	126.79	21.13	-27.5	-28.5	15.7	0.00e+00	0	44	0	1397751808	16	4035
2026-01-20 23:00:26.93	127.01	21.05	-27.4	-28.2	15.8	0.00e+00	0	45	0	1400897536	16	3979
2026-01-20 23:00:27.93	127.22	20.97	-27.4	-28.3	15.8	0.00e+00	0	44	0	1404043264	16	4002
2026-01-20 23:00:28.93	127.43	20.89	-27.4	-28.4	15.7	0.00e+00	0	45	0	1407188992	16	4019
2026-01-20 23:00:29.94	127.64	20.81	-27.6	-28.7	15.6	0.00e+00	0	44	0	1409286144	16	4094
2026-01-20 23:00:30.94	127.85	20.73	-27.5	-28.5	15.7	0.00e+00	0	45	0	1413480448	16	4051
2026-01-20 23:00:31.95	128.06	20.65	-27.4	-28.3	15.8	0.00e+00	0	44	0	1416626176	16	3980
2026-01-20 23:00:32.96	128.27	20.57	-27.4	-28.4	15.7	0.00e+00	0	44	0	1419771904	16	4020
2026-01-20 23:00:33.96	128.48	20.50	-27.6	-28.8	15.5	0.00e+00	0	45	0	1422917632	16	4124
2026-01-20 23:00:34.97	128.69	20.42	-27.6	-28.7	15.5	0.00e+00	0	44	0	1426063360	16	4094
2026-01-20 23:00:35.96	128.89	20.34	-27.6	-28.9	15.4	0.00e+00	0	45	0	1429209088	16	4146
2026-01-20 23:00:36.96	129.09	20.26	-27.8	-29.2	15.2	0.00e+00	0	45	0	1431306240	16	4250
2026-01-20 23:00:37.97	129.30	20.18	-27.7	-29.0	15.3	0.00e+00	0	45	0	1434451968	16	4195
2026-01-20 23:00:38.97	129.50	20.10	-27.7	-29.0	15.4	7.00e-07	0	44	0	1437597696	16	4175
2026-01-20 23:00:39.98	129.70	20.02	-27.7	-29.0	15.3	0.00e+00	0	45	0	1440743424	16	4189
2026-01-20 23:00:40.98	129.90	19.94	-27.6	-29.4	15.2	0.00e+00	0	45	0	1443889152	15	4427
2026-01-20 23:00:41.98	130.10	19.86	-27.5	-29.2	15.3	0.00e+00	0	44	0	1447034880	15	4355
2026-01-20 23:00:42.99	130.30	19.78	-27.7	-29.7	15.0	0.00e+00	0	45	0	1450180608	15	4506
2026-01-20 23:00:43.99	130.49	19.70	-27.6	-29.3	15.3	0.00e+00	0	45	0	1453326336	15	4385
2026-01-20 23:00:45.00	130.69	19.62	-27.5	-29.0	15.4	0.00e+00	0	45	0	1456472064	15	4317
2026-01-20 23:00:46.00	130.88	19.54	-27.5	-29.1	15.4	0.00e+00	0	44	0	1459617792	15	4325
2026-01-20 23:00:47.01	131.08	19.46	-27.5	-29.2	15.3	0.00e+00	0	45	0	1462763520	15	4350
2026-01-20 23:00:48.02	131.27	19.38	-27.6	-29.3	15.2	0.00e+00	0	44	0	1465909248	15	4394
2026-01-20 23:00:49.02	131.46	19.30	-27.6	-29.2	15.2	7.00e-07	0	45	0	1469054976	15	4368
2026-01-20 23:00:50.02	131.65	19.22	-27.6	-29.4	15.2	0.00e+00	0	44	0	1472200704	15	4415
2026-01-20 23:00:51.02	131.84	19.14	-27.6	-29.4	15.2	0.00e+00	0	45	0	1475346432	15	4416
2026-01-20 23:00:52.02	132.03	19.06	-27.7	-29.7	14.9	0.00e+00	0	44	0	1478492160	15	4515
2026-01-20 23:00:53.03	132.22	18.97	-27.7	-29.7	15.0	0.00e+00	0	44	0	1481637888	15	4520
2026-01-20 23:00:54.04	132.41	18.89	-27.7	-29.7	14.9	0.00e+00	0	45	0	1484783616	15	4523
2026-01-20 23:00:55.04	132.60	18.81	-27.7	-29.6	15.0	0.00e+00	0	45	0	1487929344	15	4482
2026-01-20 23:00:56.04	132.78	18.73	-27.7	-29.7	14.9	0.00e+00	0	44	0	1491075072	15	4524
2026-01-20 23:00:57.05	132.96	18.65	-27.7	-29.6	15.0	0.00e+00	0	44	0	1494220800	15	4482
2026-01-20 23:00:58.05	133.15	18.57	-27.8	-29.9	14.8	7.00e-07	0	45	0	1497366528	15	4564
2026-01-20 23:00:59.05	133.33	18.49	-27.8	-29.8	14.9	0.00e+00	0	44	0	1500512256	15	4518
2026-01-20 23:01:00.05	133.51	18.41	-27.9	-30.1	14.7	7.00e-07	0	45	0	1503657984	15	4634
2026-01-20 23:01:01.06	133.69	18.33	-27.9	-30.0	14.7	0.00e+00	0	44	0	1506803712	15	4610
2026-01-20 23:01:02.07	133.87	18.25	-27.9	-30.0	14.8	0.00e+00	0	44	0	1509949440	15	4586
2026-01-20 23:01:03.07	134.05	18.17	-27.9	-30.1	14.7	7.00e-07	0	44	0	1513095168	15	4639
2026-01-20 23:01:04.08	134.23	18.08	-27.9	-30.1	14.7	0.00e+00	0	45	0	1516240896	15	4637
2026-01-20 23:01:05.09	134.41	18.00	-28.2	-30.1	14.6	7.00e-07	0	44	0	1519386624	16	4522
2026-01-20 23:01:06.09	134.58	17.92	-28.3	-30.6	14.3	1.50e-06	0	45	0	1522532352	16	4653
2026-01-20 23:01:07.09	134.76	17.84	-28.3	-30.5	14.3	2.20e-06	0	45	0	1525678080	16	4618
2026-01-20 23:01:08.10	134.93	17.76	-28.3	-30.4	14.4	7.00e-07	0	45	0	1528823808	16	4609
2026-01-20 23:01:09.10	135.10	17.68	-28.3	-30.5	14.3	1.50e-06	0	45	0	1531969536	16	4637
2026-01-20 23:01:10.10	135.28	17.60	-28.4	-30.7	14.2	2.20e-06	0	44	0	1535115264	16	4684
2026-01-20 23:01:11.10	135.45	17.52	-28.3	-30.5	14.3	3.00e-06	0	44	0	1538260992	16	4636
2026-01-20 23:01:12.11	135.62	17.44	-28.4	-30.7	14.2	2.20e-06	0	45	0	1541406720	16	4678
2026-01-20 23:01:13.11	135.79	17.36	-28.3	-30.6	14.2	3.80e-06	0	44	0	1544552448	16	4646
2026-01-20 23:01:14.11	135.95	17.28	-28.4	-30.7	14.1	7.00e-07	0	44	0	1547698176	16	4705
2026-01-20 23:01:15.12	136.12	17.20	-28.4	-30.8	14.1	2.20e-06	0	44	0	1550843904	16	4733
2026-01-20 23:01:16.12	136.29	17.12	-28.4	-30.8	14.0	1.50e-06	0	45	0	1553989632	16	4751
2026-01-20 23:01:17.12	136.45	17.04	-28.5	-30.6	13.9	2.20e-06	0	44	0	1557135360	17	4568
2026-01-20 23:01:18.13	136.62	16.95	-28.4	-30.2	14.1	7.00e-07	0	45	0	1560281088	17	4457
2026-01-20 23:01:19.14	136.79	16.87	-28.3	-30.2	14.0	2.20e-06	0	45	0	1563426816	17	4446
2026-01-20 23:01:20.14	136.95	16.79	-28.4	-30.4	14.0	1.50e-06	0	44	0	1566572544	17	4493
2026-01-20 23:01:21.14	137.11	16.71	-28.3	-30.0	14.2	3.00e-06	0	45	0	1569718272	17	4381
2026-01-20 23:01:22.14	137.27	16.63	-28.2	-29.9	14.3	1.50e-06	0	44	0	1572864000	17	4338
2026-01-20 23:01:23.14	137.43	16.55	-28.3	-30.1	14.1	2.47e-04	0	45	0	1576009728	17	4402
2026-01-20 23:01:24.15	137.59	16.47	-28.1	-29.6	14.4	1.50e-06	0	44	0	1579155456	17	4260
2026-01-20 23:01:25.15	137.75	16.39	-28.1	-29.6	14.4	7.00e-07	0	44	0	1582301184	17	4268
2026-01-20 23:01:26.15	137.91	16.31	-28.2	-29.7	14.3	2.20e-06	0	45	0	1585446912	17	4297
2026-01-20 23:01:27.15	138.07	16.23	-28.2	-29.6	14.4	1.50e-06	0	45	0	1588592640	17	4272
2026-01-20 23:01:28.15	138.22	16.15	-28.3	-29.9	14.2	3.23e-04	0	45	0	1591738368	17	4338
2026-01-20 23:01:29.16	138.38	16.07	-28.1	-29.5	14.4	4.69e-04	0	45	0	1594884096	17	4226
2026-01-20 23:01:30.16	138.54	15.99	-28.1	-29.5	14.4	7.00e-07	0	45	0	1598029824	17	4244
2026-01-20 23:01:31.16	138.69	15.91	-28.1	-29.5	14.4	0.00e+00	0	45	0	1601175552	17	4238
2026-01-20 23:01:32.17	138.84	15.83	-28.1	-30.0	14.4	1.50e-06	0	45	0	1604321280	16	4479
2026-01-20 23:01:33.17	139.00	15.75	-28.1	-30.1	14.3	0.00e+00	0	45	0	1607467008	16	4530
2026-01-20 23:01:34.17	139.15	15.67	-28.2	-30.2	14.3	4.60e-04	0	45	0	1610612736	16	4565
2026-01-20 23:01:35.17	139.30	15.60	-28.3	-30.6	14.0	2.20e-06	0	45	0	1613758464	16	4673
2026-01-20 23:01:36.18	139.45	15.52	-28.3	-30.5	14.0	5.30e-06	0	45	0	1616904192	16	4662
2026-01-20 23:01:37.19	139.60	15.44	-28.3	-30.7	14.0	1.50e-06	0	45	0	1620049920	16	4716
2026-01-20 23:01:38.19	139.75	15.36	-28.4	-30.7	13.9	3.71e-04	0	45	0	1623195648	16	4738
2026-01-20 23:01:39.19	139.90	15.28	-28.3	-30.7	13.9	7.00e-07	0	45	0	1626341376	16	4720
2026-01-20 23:01:40.20	140.05	15.20	-28.4	-30.8	13.8	3.07e-04	0	44	0	1629487104	16	4756
2026-01-20 23:01:41.20	140.19	15.12	-28.4	-30.9	13.7	3.07e-04	0	44	0	1632632832	16	4808
2026-01-20 23:01:42.21	140.34	15.04	-28.3	-30.7	13.8	2.20e-06	0	45	0	1635778560	16	4740
2026-01-20 23:01:43.21	140.48	14.96	-28.3	-30.7	13.9	5.34e-04	0	45	0	1638924288	16	4719
2026-01-20 23:01:44.22	140.63	14.88	-28.4	-30.8	13.8	8.96e-04	0	45	0	1642070016	16	4767
2026-01-20 23:01:45.22	140.77	14.80	-28.3	-30.7	13.8	6.80e-06	0	45	0	1645215744	16	4741
2026-01-20 23:01:46.22	140.91	14.72	-28.3	-30.6	13.8	1.04e-03	0	44	0	1648361472	16	4716
2026-01-20 23:01:47.23	141.06	14.65	-28.3	-30.7	13.8	5.18e-04	0	44	0	1651507200	16	4730
2026-01-20 23:01:48.23	141.20	14.57	-28.5	-31.1	13.6	9.10e-06	0	44	0	1654652928	16	4858
2026-01-20 23:01:49.23	141.34	14.49	-28.5	-30.7	13.5	7.95e-04	0	45	0	1657798656	17	4621
2026-01-20 23:01:50.23	141.48	14.41	-28.7	-31.1	13.3	7.00e-04	0	45	0	1660944384	17	4734
2026-01-20 23:01:51.22	141.62	14.33	-28.7	-31.1	13.2	2.44e-05	0	45	0	1664090112	17	4726
2026-01-20 23:01:52.23	141.76	14.26	-28.9	-31.6	12.9	6.06e-04	0	45	0	1667235840	17	4911
2026-01-20 23:01:53.23	141.89	14.18	-28.8	-31.3	13.1	5.46e-04	0	45	0	1670381568	17	4791
2026-01-20 23:01:54.24	142.03	14.10	-28.7	-31.0	13.3	2.13e-05	0	45	0	1673527296	17	4711
2026-01-20 23:01:55.24	142.17	14.02	-28.7	-31.0	13.3	6.47e-04	0	45	0	1676673024	17	4699
2026-01-20 23:01:56.24	142.30	13.94	-28.8	-31.2	13.2	7.18e-04	0	45	0	1679818752	17	4758
2026-01-20 23:01:57.24	142.44	13.87	-28.7	-31.0	13.3	1.75e-05	0	45	0	1682964480	17	4701
2026-01-20 23:01:58.25	142.57	13.79	-28.8	-31.4	13.0	2.97e-05	0	45	0	1686110208	17	4828
2026-01-20 23:01:59.25	142.71	13.71	-28.6	-30.9	13.3	1.14e-03	0	44	0	1689255936	17	4681
2026-01-20 23:02:00.26	142.84	13.63	-28.5	-30.7	13.4	7.60e-06	0	45	0	1692401664	17	4620
2026-01-20 23:02:01.26	142.97	13.56	-28.5	-30.8	13.3	1.30e-03	0	45	0	1695547392	17	4667
2026-01-20 23:02:02.26	143.10	13.48	-28.6	-31.0	13.2	1.98e-05	0	45	0	1698693120	17	4730
2026-01-20 23:02:03.26	143.24	13.40	-28.6	-31.0	13.2	3.05e-05	0	45	0	1701838848	17	4742
2026-01-20 23:02:04.27	143.37	13.33	-28.6	-31.1	13.1	1.14e-03	0	45	0	1704984576	17	4790
2026-01-20 23:02:05.27	143.50	13.25	-28.6	-31.0	13.2	1.04e-03	0	45	0	1708130304	17	4742
2026-01-20 23:02:06.27	143.62	13.17	-28.6	-31.0	13.1	2.89e-05	0	45	0	1711276032	17	4769
2026-01-20 23:02:07.27	143.75	13.10	-28.5	-30.9	13.2	2.89e-05	0	45	0	1714421760	17	4732
2026-01-20 23:02:08.28	143.88	13.02	-28.6	-31.0	13.1	2.97e-05	0	44	0	1717567488	17	4753
2026-01-20 23:02:09.28	144.01	12.94	-28.6	-31.1	13.0	4.27e-05	0	45	0	1720713216	17	4793
2026-01-20 23:02:10.29	144.14	12.87	-28.5	-30.9	13.2	2.27e-03	0	45	0	1723858944	17	4727
2026-01-20 23:02:11.29	144.26	12.79	-28.6	-30.9	13.2	2.23e-03	0	45	0	1727004672	17	4715
2026-01-20 23:02:12.29	144.39	12.72	-28.5	-30.9	13.2	1.90e-05	0	45	0	1730150400	17	4709
2026-01-20 23:02:13.29	144.51	12.64	-28.6	-30.9	13.2	1.60e-05	0	44	0	1732247552	17	4726
2026-01-20 23:02:14.30	144.64	12.56	-28.7	-31.2	13.0	4.50e-05	0	45	0	1736441856	17	4815
2026-01-20 23:02:15.30	144.76	12.49	-28.7	-31.3	13.0	3.35e-05	0	44	0	1739587584	17	4828
2026-01-20 23:02:16.30	144.88	12.41	-28.9	-31.7	12.8	1.69e-03	0	45	0	1742733312	17	4961
2026-01-20 23:02:17.31	145.00	12.34	-28.9	-31.6	12.8	9.23e-05	0	45	0	1745879040	17	4956
2026-01-20 23:02:18.32	145.13	12.26	-28.8	-31.4	12.9	5.64e-05	0	45	0	1749024768	17	4885
2026-01-20 23:02:19.32	145.25	12.19	-28.8	-31.4	12.9	3.43e-05	0	45	0	1752170496	17	4883
2026-01-20 23:02:20.32	145.37	12.11	-28.9	-31.7	12.8	5.18e-05	0	45	0	1755316224	17	4956
2026-01-20 23:02:21.32	145.49	12.04	-28.8	-31.5	12.9	5.79e-05	0	45	0	1757413376	17	4906
2026-01-20 23:02:22.32	145.61	11.96	-28.8	-31.6	12.8	6.48e-05	0	45	0	1760559104	17	4938
2026-01-20 23:02:23.33	145.73	11.89	-28.8	-31.5	12.9	4.11e-05	0	45	0	1763704832	17	4895
2026-01-20 23:02:24.34	145.85	11.81	-28.9	-31.6	12.7	7.85e-05	0	45	0	1766850560	17	4960
2026-01-20 23:02:25.34	145.96	11.74	-28.7	-31.2	13.0	5.72e-05	0	45	0	1769996288	17	4817
2026-01-20 23:02:26.34	146.08	11.66	-28.6	-30.9	13.2	2.44e-05	0	45	0	1774190592	17	4719
2026-01-20 23:02:27.34	146.20	11.59	-28.5	-30.8	13.2	1.60e-05	0	45	0	1777336320	17	4686
2026-01-20 23:02:28.35	146.31	11.52	-28.6	-30.9	13.2	2.67e-05	0	45	0	1779433472	17	4692
2026-01-20 23:02:29.35	146.43	11.44	-28.5	-30.8	13.2	2.36e-05	0	45	0	1782579200	17	4696
2026-01-20 23:02:30.36	146.54	11.37	-28.6	-30.9	13.2	2.28e-05	0	45	0	1785724928	17	4718
2026-01-20 23:02:31.35	146.66	11.30	-28.7	-31.1	13.0	4.11e-05	0	45	0	1788870656	17	4794
2026-01-20 23:02:32.36	146.77	11.22	-28.6	-31.1	13.0	3.89e-05	0	45	0	1792016384	17	4795
2026-01-20 23:02:33.36	146.88	11.15	-28.6	-31.1	13.0	4.27e-05	0	45	0	1795162112	17	4812
2026-01-20 23:02:34.37	147.00	11.07	-28.7	-31.3	12.8	4.57e-05	0	45	0	1798307840	17	4884
2026-01-20 23:02:35.36	147.11	11.00	-28.7	-31.3	12.8	5.72e-05	0	45	0	1801453568	17	4891
2026-01-20 23:02:36.37	147.22	10.93	-28.7	-31.5	12.7	8.77e-05	0	44	0	1804599296	17	4955
2026-01-20 23:02:37.38	147.33	10.86	-28.7	-31.6	12.6	9.23e-05	0	45	0	1807745024	17	4992
2026-01-20 23:02:38.38	147.44	10.78	-28.8	-31.8	12.4	1.41e-04	0	45	0	1810890752	17	5096
2026-01-20 23:02:39.39	147.55	10.71	-28.7	-31.6	12.6	9.99e-05	0	45	0	1814036480	17	4992
2026-01-20 23:02:40.40	147.66	10.64	-28.7	-31.5	12.6	7.85e-05	0	45	0	1817182208	17	4964
2026-01-20 23:02:41.40	147.77	10.56	-28.8	-31.6	12.6	1.12e-04	0	44	0	1820327936	17	4996
2026-01-20 23:02:42.40	147.88	10.49	-28.8	-31.6	12.6	6.86e-05	0	45	0	1823473664	17	4969
2026-01-20 23:02:43.39	147.98	10.42	-28.9	-31.9	12.4	1.55e-04	0	44	0	1826619392	17	5090
2026-01-20 23:02:44.40	148.09	10.35	-28.7	-31.4	12.8	7.32e-05	0	45	0	1829765120	17	4876
2026-01-20 23:02:45.40	148.20	10.28	-28.7	-31.4	12.8	5.64e-05	0	45	0	1832910848	17	4877
2026-01-20 23:02:46.41	148.31	10.20	-28.8	-31.5	12.7	7.17e-05	0	45	0	1836056576	17	4924
2026-01-20 23:02:47.41	148.41	10.13	-28.9	-31.6	12.6	8.16e-05	0	45	0	1839202304	17	4961
2026-01-20 23:02:48.42	148.52	10.06	-28.9	-31.8	12.5	1.01e-04	0	45	0	1842348032	17	5015
2026-01-20 23:02:49.42	148.62	9.99	-28.9	-31.8	12.5	1.36e-04	0	45	0	1845493760	17	5032
2026-01-20 23:02:50.43	148.73	9.92	-28.9	-31.8	12.4	1.22e-04	0	44	0	1848639488	17	5042
2026-01-20 23:02:51.43	148.83	9.85	-28.9	-31.9	12.4	1.53e-04	0	45	0	1851785216	17	5067
2026-01-20 23:02:52.43	148.93	9.78	-28.9	-31.9	12.3	1.53e-04	0	45	0	1854930944	17	5100
2026-01-20 23:02:53.43	149.04	9.70	-28.9	-32.0	12.2	2.03e-04	0	45	0	1858076672	17	5150
2026-01-20 23:02:54.44	149.14	9.63	-29.0	-32.2	12.1	2.47e-04	0	45	0	1861222400	17	5221
2026-01-20 23:02:55.43	149.24	9.56	-29.2	-32.3	11.7	5.24e-04	0	45	0	1864368128	18	5158
2026-01-20 23:02:56.44	149.34	9.49	-29.2	-32.5	11.5	9.46e-04	0	44	0	1867513856	18	5260
2026-01-20 23:02:57.44	149.44	9.42	-29.1	-32.0	11.9	5.26e-04	0	45	0	1870659584	18	5027
2026-01-20 23:02:58.44	149.54	9.35	-29.1	-31.9	12.0	3.46e-04	0	45	0	1873805312	18	4966
2026-01-20 23:02:59.45	149.64	9.28	-29.2	-32.0	12.0	2.96e-04	0	45	0	1876951040	18	4992
2026-01-20 23:03:00.46	149.74	9.21	-29.1	-31.9	12.0	3.69e-04	0	45	0	1880096768	18	4956
2026-01-20 23:03:01.47	149.84	9.14	-29.2	-31.9	12.1	2.84e-04	0	45	0	1883242496	18	4950
2026-01-20 23:03:02.48	149.94	9.07	-29.2	-32.1	11.9	3.87e-04	0	45	0	1886388224	18	5016
2026-01-20 23:03:03.48	150.04	9.00	-29.2	-32.2	11.9	3.75e-04	0	44	0	1889533952	18	5033
2026-01-20 23:03:04.48	150.14	8.93	-29.3	-32.3	11.8	4.74e-04	0	45	0	1892679680	18	5083
2026-01-20 23:03:05.48	150.23	8.86	-29.4	-32.5	11.6	5.61e-04	0	45	0	1895825408	18	5164
2026-01-20 23:03:06.48	150.33	8.79	-29.4	-32.5	11.6	7.61e-04	0	45	0	1898971136	18	5193
2026-01-20 23:03:07.48	150.43	8.72	-29.2	-32.2	11.7	5.07e-04	0	45	0	1902116864	18	5099
2026-01-20 23:03:08.49	150.52	8.65	-29.2	-32.3	11.6	7.00e-04	0	45	0	1905262592	18	5146
2026-01-20 23:03:09.49	150.62	8.59	-29.1	-32.3	11.5	6.29e-04	0	45	0	1908408320	18	5172
2026-01-20 23:03:10.49	150.71	8.52	-29.1	-32.4	11.3	1.01e-03	0	45	0	1911554048	18	5259
2026-01-20 23:03:11.50	150.81	8.45	-29.0	-32.3	11.4	9.05e-04	0	45	0	1914699776	18	5250
2026-01-20 23:03:12.50	150.90	8.38	-28.9	-32.7	11.4	9.73e-04	0	45	0	1917845504	17	5534
2026-01-20 23:03:13.50	151.00	8.31	-28.9	-32.6	11.4	4.47e-03	0	45	0	1920991232	17	5525
2026-01-20 23:03:14.50	151.09	8.24	-28.9	-32.8	11.3	1.28e-03	0	45	0	1924136960	17	5615
2026-01-20 23:03:15.51	151.18	8.17	-28.9	-32.8	11.2	1.19e-03	0	45	0	1927282688	17	5639
2026-01-20 23:03:16.52	151.28	8.11	-28.8	-32.6	11.3	1.30e-03	0	45	0	1930428416	17	5551
2026-01-20 23:03:17.53	151.37	8.04	-28.8	-32.5	11.4	9.38e-04	0	45	0	1933574144	17	5500
2026-01-20 23:03:18.53	151.46	7.97	-28.8	-32.6	11.4	5.10e-03	0	45	0	1936719872	17	5527
2026-01-20 23:03:19.53	151.55	7.90	-28.9	-32.7	11.3	1.09e-03	0	45	0	1939865600	17	5572
2026-01-20 23:03:20.53	151.64	7.83	-29.0	-32.3	11.2	1.49e-03	0	45	0	1943011328	18	5289
2026-01-20 23:03:21.53	151.73	7.77	-28.9	-32.6	11.4	1.02e-03	0	45	0	1946157056	17	5497
2026-01-20 23:03:22.53	151.82	7.70	-28.9	-32.5	11.4	8.75e-04	0	45	0	1949302784	17	5460
2026-01-20 23:03:23.53	151.91	7.63	-29.0	-32.2	11.4	1.70e-03	0	45	0	1952448512	18	5187
2026-01-20 23:03:24.53	152.00	7.57	-29.2	-32.6	11.2	4.86e-03	0	45	0	1955594240	18	5301
2026-01-20 23:03:25.54	152.09	7.50	-29.2	-32.6	11.2	1.73e-03	0	45	0	1958739968	18	5275
2026-01-20 23:03:26.54	152.18	7.43	-29.2	-32.5	11.3	9.83e-04	0	45	0	1961885696	18	5239
2026-01-20 23:03:27.55	152.27	7.36	-29.3	-32.6	11.3	1.40e-03	0	45	0	1965031424	18	5257
2026-01-20 23:03:28.55	152.36	7.30	-29.4	-32.7	11.2	5.38e-03	0	45	0	1968177152	18	5303
2026-01-20 23:03:29.56	152.44	7.23	-29.4	-32.9	11.0	2.21e-03	0	45	0	1971322880	18	5374
2026-01-20 23:03:30.57	152.53	7.16	-29.5	-32.6	11.0	6.11e-03	0	45	0	1974468608	19	5126
2026-01-20 23:03:31.57	152.62	7.10	-29.5	-32.6	10.9	2.07e-03	0	45	0	1977614336	19	5159
2026-01-20 23:03:32.57	152.70	7.03	-32.6	-44.8	3.9	5.33e-01	0	45	104	1979711488	25	14748
2026-01-20 23:03:33.57	152.79	6.97	-33.1	-45.3	3.8	1.49e+00	0	45	104	1979711488	26	14676

#Closed at: 2026-01-20 23:03:34
#Recorded file [1979 MB]: D:/data/31010_260121_015258.dat