passes_logs/2026/01/20/R2M6_AANII_01/R2M6_AANII_01__20260120_081619_NOAA_20_JPSS-1_rec.log

#Pass ID: 20260120_081619_NOAA 20 (JPSS-1)
#Satellite: NOAA 20 (JPSS-1)
#Configuration: NOAA 20
#almurnet v.1.7.20240730
#Start time: 2026-01-20 08:16:21

#Version: 2.2.20231116
#Station: R2M6_AANII_01
#Location: 30.233357 lon 59.946436 lat
#TLE: 1 43013U 17073A   26019.55911981  .00000079  00000+0  58510-4 0  9994
#TLE: 2 43013  98.7641 320.4504 0001323  32.6518 327.4739 14.19537050423380

#Time	Az	El	Level	Level2	SNR	BER	BlckErr	Temp	State	Recorded	gain1	gain2
2026-01-20 08:16:21.46	96.48	7.10	-31.3	-45.2	3.8	1.49e+00	0	42	0	0	23	17864
2026-01-20 08:16:22.46	96.38	7.16	-31.1	-44.8	3.8	1.49e+00	0	42	104	0	23	17456
2026-01-20 08:16:23.47	96.29	7.22	-31.0	-44.7	3.8	1.49e+00	0	42	104	0	23	17340
2026-01-20 08:16:24.47	96.19	7.29	-31.0	-44.6	3.8	1.49e+00	0	42	104	0	23	17227
2026-01-20 08:16:25.47	96.09	7.35	-31.0	-44.6	3.8	1.49e+00	0	42	104	0	23	17209
2026-01-20 08:16:26.48	95.99	7.41	-31.0	-44.6	3.8	1.49e+00	0	42	104	0	23	17287
2026-01-20 08:16:27.49	95.89	7.47	-31.0	-44.6	3.8	1.49e+00	0	42	104	0	23	17286
2026-01-20 08:16:28.49	95.79	7.54	-31.0	-44.7	3.8	1.49e+00	0	42	104	0	23	17387
2026-01-20 08:16:29.50	95.68	7.60	-31.1	-44.8	3.8	1.49e+00	0	42	104	0	23	17432
2026-01-20 08:16:30.49	95.58	7.66	-31.1	-44.8	3.8	1.49e+00	0	42	104	0	23	17471
2026-01-20 08:16:31.50	95.48	7.73	-31.1	-44.9	3.8	1.49e+00	0	42	104	0	23	17558
2026-01-20 08:16:32.51	95.38	7.79	-31.2	-45.0	3.8	1.49e+00	0	42	104	0	23	17709
2026-01-20 08:16:33.51	95.28	7.85	-31.3	-45.1	3.8	1.49e+00	0	42	104	0	23	17782
2026-01-20 08:16:34.52	95.17	7.92	-31.3	-45.2	3.8	1.49e+00	0	42	104	0	23	17836
2026-01-20 08:16:35.52	95.07	7.98	-31.3	-45.2	3.8	1.49e+00	0	42	104	0	23	17894
2026-01-20 08:16:36.53	94.96	8.04	-31.3	-45.2	3.8	1.49e+00	0	42	104	0	23	17875
2026-01-20 08:16:37.53	94.86	8.11	-31.4	-45.3	3.8	1.49e+00	0	42	104	0	23	17939
2026-01-20 08:16:38.53	94.76	8.17	-31.4	-45.4	3.8	1.49e+00	0	42	104	0	23	17996
2026-01-20 08:16:39.54	94.65	8.23	-31.4	-45.4	3.8	1.49e+00	0	42	104	0	23	17970
2026-01-20 08:16:40.54	94.54	8.30	-31.5	-45.5	3.8	1.49e+00	0	42	104	0	23	18069
2026-01-20 08:16:41.54	94.44	8.36	-31.5	-45.6	3.8	1.49e+00	0	42	104	0	23	18111
2026-01-20 08:16:42.55	94.33	8.43	-31.6	-45.6	3.8	1.49e+00	0	42	104	0	23	18169
2026-01-20 08:16:43.55	94.22	8.49	-31.6	-45.6	3.8	1.49e+00	0	42	104	0	23	17947
2026-01-20 08:16:44.55	94.11	8.55	-31.7	-45.4	3.8	1.49e+00	0	42	104	0	23	17531
2026-01-20 08:16:45.56	94.01	8.62	-31.7	-45.4	3.8	1.49e+00	0	42	104	0	23	17432
2026-01-20 08:16:46.56	93.90	8.68	-31.8	-45.5	3.8	1.49e+00	0	42	104	0	23	17583
2026-01-20 08:16:47.56	93.79	8.75	-31.8	-45.4	3.8	1.49e+00	0	42	104	0	23	17213
2026-01-20 08:16:48.56	93.68	8.81	-31.8	-45.2	3.8	1.49e+00	0	42	104	0	23	16797
2026-01-20 08:16:49.55	93.57	8.87	-31.8	-44.7	3.8	1.49e+00	0	42	104	0	23	15774
2026-01-20 08:16:50.56	93.46	8.94	-31.8	-43.5	3.9	1.49e+00	0	42	104	0	23	13833
2026-01-20 08:16:51.57	93.35	9.00	-31.8	-42.5	4.0	1.37e+00	0	43	104	0	23	12424
2026-01-20 08:16:52.56	93.24	9.07	-31.8	-42.1	4.5	1.45e+00	0	43	104	0	23	11763
2026-01-20 08:16:53.56	93.12	9.13	-32.0	-42.9	4.3	1.07e+00	0	43	0	0	23	12647
2026-01-20 08:16:54.57	93.01	9.20	-32.1	-42.5	4.4	1.34e+00	0	42	0	0	24	11921
2026-01-20 08:16:55.57	92.90	9.26	-32.0	-40.5	5.4	7.45e-01	0	43	0	2097152	24	9620
2026-01-20 08:16:56.57	92.78	9.32	-31.9	-39.2	6.4	3.09e-01	0	43	0	4194304	24	8317
2026-01-20 08:16:57.58	92.67	9.39	-32.0	-39.5	6.4	2.37e-01	0	42	0	6291456	24	8478
2026-01-20 08:16:58.59	92.55	9.46	-32.3	-40.6	5.8	3.34e-01	0	43	0	7340032	24	9361
2026-01-20 08:16:59.59	92.44	9.52	-32.2	-40.1	6.1	4.00e-01	0	43	0	9437184	24	8902
2026-01-20 08:17:00.59	92.32	9.58	-32.1	-38.9	7.0	2.05e-01	0	43	0	11534336	24	7937
2026-01-20 08:17:01.59	92.20	9.65	-32.1	-39.2	6.9	1.62e-01	0	43	0	13631488	24	8079
2026-01-20 08:17:02.59	92.09	9.71	-32.1	-39.1	7.0	1.56e-01	0	43	0	15728640	24	8059
2026-01-20 08:17:03.59	91.97	9.78	-32.2	-39.4	6.8	1.74e-01	0	43	0	16777216	24	8243
2026-01-20 08:17:04.59	91.85	9.84	-32.2	-39.2	7.0	1.61e-01	0	43	0	18874368	24	8054
2026-01-20 08:17:05.60	91.73	9.91	-32.1	-38.9	7.3	1.38e-01	0	43	0	20971520	24	7807
2026-01-20 08:17:06.59	91.62	9.97	-32.2	-39.2	7.1	1.18e-01	0	43	0	23068672	24	8008
2026-01-20 08:17:07.60	91.50	10.04	-32.2	-39.0	7.3	1.56e-01	0	43	0	24117248	24	7896
2026-01-20 08:17:08.60	91.38	10.11	-32.0	-38.0	8.1	7.60e-02	0	43	0	26214400	24	7180
2026-01-20 08:17:09.61	91.25	10.17	-31.9	-37.3	8.7	4.14e-02	0	43	0	28311552	24	6734
2026-01-20 08:17:10.61	91.13	10.24	-31.7	-36.5	9.4	2.34e-02	0	43	0	30408704	24	6257
2026-01-20 08:17:11.61	91.01	10.30	-31.5	-35.8	9.9	9.88e-03	0	43	0	32505856	24	5891
2026-01-20 08:17:12.62	90.89	10.37	-31.3	-35.1	10.5	5.25e-03	0	43	0	33554432	24	5557
2026-01-20 08:17:13.62	90.76	10.43	-31.3	-35.7	10.4	3.51e-03	0	43	0	35651584	23	5930
2026-01-20 08:17:14.62	90.64	10.50	-31.3	-35.5	10.5	4.34e-03	0	43	0	37748736	23	5870
2026-01-20 08:17:15.62	90.52	10.56	-31.4	-35.7	10.4	4.52e-03	0	43	0	39845888	23	5951
2026-01-20 08:17:16.62	90.39	10.63	-31.3	-35.5	10.6	3.85e-03	0	43	0	41943040	23	5824
2026-01-20 08:17:17.63	90.27	10.70	-31.3	-35.6	10.5	3.46e-03	0	43	0	42991616	23	5879
2026-01-20 08:17:18.62	90.14	10.76	-31.3	-35.5	10.7	3.51e-03	0	43	0	45088768	23	5827
2026-01-20 08:17:19.62	90.02	10.83	-31.4	-35.8	10.4	4.08e-03	0	43	0	47185920	23	5979
2026-01-20 08:17:20.62	89.89	10.89	-31.3	-35.4	10.8	4.64e-03	0	43	0	49283072	23	5766
2026-01-20 08:17:21.62	89.76	10.96	-31.2	-35.1	10.9	3.15e-03	0	43	0	51380224	23	5653
2026-01-20 08:17:22.62	89.63	11.02	-31.2	-35.0	11.1	1.57e-03	0	43	0	52428800	23	5591
2026-01-20 08:17:23.63	89.51	11.09	-31.3	-35.4	10.8	2.02e-03	0	43	0	54525952	23	5790
2026-01-20 08:17:24.64	89.37	11.16	-31.3	-35.5	10.7	2.36e-03	0	43	0	56623104	23	5819
2026-01-20 08:17:25.64	89.25	11.22	-31.3	-35.3	10.9	2.50e-03	0	43	0	58720256	23	5740
2026-01-20 08:17:26.64	89.12	11.29	-31.3	-35.5	10.8	2.06e-03	0	43	0	60817408	23	5807
2026-01-20 08:17:27.65	88.98	11.36	-31.3	-35.4	10.8	3.65e-03	0	43	0	61865984	23	5746
2026-01-20 08:17:28.65	88.85	11.42	-31.2	-34.9	11.2	2.04e-03	0	43	0	63963136	23	5521
2026-01-20 08:17:29.64	88.72	11.49	-31.2	-34.9	11.2	1.40e-03	0	43	0	66060288	23	5520
2026-01-20 08:17:30.65	88.59	11.55	-31.2	-34.9	11.2	1.30e-03	0	43	0	68157440	23	5526
2026-01-20 08:17:31.65	88.45	11.62	-31.2	-34.9	11.2	1.67e-03	0	43	0	69206016	23	5549
2026-01-20 08:17:32.65	88.32	11.69	-31.2	-34.9	11.2	1.32e-03	0	43	0	71303168	23	5539
2026-01-20 08:17:33.65	88.19	11.75	-31.1	-34.8	11.3	1.14e-03	0	43	0	73400320	23	5461
2026-01-20 08:17:34.66	88.05	11.82	-31.1	-34.7	11.4	1.13e-03	0	43	0	75497472	23	5449
2026-01-20 08:17:35.66	87.91	11.88	-31.1	-34.5	11.6	7.97e-04	0	43	0	77594624	23	5338
2026-01-20 08:17:36.66	87.78	11.95	-31.2	-34.8	11.3	9.64e-04	0	43	0	79691776	23	5468
2026-01-20 08:17:37.67	87.64	12.02	-31.2	-35.0	11.2	1.16e-03	0	43	0	80740352	23	5551
2026-01-20 08:17:38.67	87.50	12.08	-31.2	-35.0	11.2	1.27e-03	0	44	0	82837504	23	5583
2026-01-20 08:17:39.66	87.36	12.15	-31.2	-35.0	11.2	1.20e-03	0	43	0	84934656	23	5547
2026-01-20 08:17:40.66	87.23	12.22	-31.3	-35.3	11.0	1.52e-03	0	43	0	87031808	23	5691
2026-01-20 08:17:41.67	87.08	12.28	-31.4	-35.6	10.8	2.34e-03	0	44	0	88080384	23	5830
2026-01-20 08:17:42.67	86.94	12.35	-31.4	-35.5	10.8	2.70e-03	0	43	0	90177536	23	5792
2026-01-20 08:17:43.67	86.80	12.42	-31.4	-35.4	10.9	2.08e-03	0	43	0	92274688	23	5749
2026-01-20 08:17:44.68	86.66	12.48	-31.4	-35.5	10.9	2.35e-03	0	43	0	94371840	23	5758
2026-01-20 08:17:45.69	86.52	12.55	-31.3	-35.2	11.0	2.05e-03	0	43	0	96468992	23	5670
2026-01-20 08:17:46.70	86.37	12.62	-31.3	-35.3	11.0	1.54e-03	0	44	0	97517568	23	5688
2026-01-20 08:17:47.70	86.23	12.68	-31.3	-35.2	11.1	1.79e-03	0	43	0	99614720	23	5662
2026-01-20 08:17:48.69	86.09	12.75	-31.5	-35.9	10.6	1.79e-03	0	43	0	101711872	23	5960
2026-01-20 08:17:49.69	85.94	12.81	-31.4	-35.7	10.8	2.92e-03	0	44	0	103809024	23	5867
2026-01-20 08:17:50.69	85.80	12.88	-31.3	-35.2	11.1	2.03e-03	0	44	0	105906176	23	5652
2026-01-20 08:17:51.69	85.65	12.95	-31.3	-35.1	11.2	1.29e-03	0	43	0	106954752	23	5587
2026-01-20 08:17:52.70	85.50	13.01	-31.3	-35.2	11.1	1.21e-03	0	44	0	109051904	23	5659
2026-01-20 08:17:53.70	85.36	13.08	-31.3	-35.2	11.1	1.71e-03	0	43	0	111149056	23	5665
2026-01-20 08:17:54.70	85.21	13.15	-31.4	-35.5	10.9	1.75e-03	0	43	0	113246208	23	5786
2026-01-20 08:17:55.69	85.06	13.21	-31.3	-35.3	11.1	2.21e-03	0	44	0	114294784	23	5678
2026-01-20 08:17:56.70	84.91	13.28	-31.3	-35.1	11.3	1.19e-03	0	43	0	116391936	23	5584
2026-01-20 08:17:57.70	84.76	13.35	-31.4	-35.3	11.1	1.54e-03	0	44	0	118489088	23	5696
2026-01-20 08:17:58.70	84.61	13.41	-31.3	-35.3	11.1	1.54e-03	0	43	0	120586240	23	5677
2026-01-20 08:17:59.70	84.46	13.48	-31.4	-35.4	11.1	1.76e-03	0	44	0	122683392	23	5719
2026-01-20 08:18:00.70	84.30	13.54	-31.4	-35.5	11.0	2.19e-03	0	43	0	123731968	23	5749
2026-01-20 08:18:01.70	84.15	13.61	-31.4	-35.4	11.0	1.65e-03	0	44	0	125829120	23	5743
2026-01-20 08:18:02.70	84.00	13.68	-31.4	-35.6	11.0	1.96e-03	0	43	0	127926272	23	5788
2026-01-20 08:18:03.69	83.85	13.74	-31.5	-35.8	10.8	3.29e-03	0	44	0	130023424	23	5923
2026-01-20 08:18:04.69	83.69	13.81	-31.4	-35.5	11.0	2.20e-03	0	43	0	132120576	23	5782
2026-01-20 08:18:05.69	83.54	13.87	-31.5	-35.9	10.8	2.10e-03	0	44	0	133169152	23	5933
2026-01-20 08:18:06.69	83.38	13.94	-31.5	-35.8	10.7	2.36e-03	0	44	0	135266304	23	5926
2026-01-20 08:18:07.69	83.22	14.01	-31.6	-36.1	10.5	3.62e-03	0	44	0	137363456	23	6052
2026-01-20 08:18:08.69	83.06	14.07	-31.5	-35.8	10.8	3.99e-03	0	44	0	139460608	23	5924
2026-01-20 08:18:09.69	82.91	14.14	-31.5	-35.9	10.7	3.11e-03	0	44	0	141557760	23	5980
2026-01-20 08:18:10.69	82.75	14.20	-31.6	-36.0	10.6	3.10e-03	0	44	0	142606336	23	6026
2026-01-20 08:18:11.69	82.59	14.27	-31.7	-36.4	10.4	3.90e-03	0	44	0	144703488	23	6195
2026-01-20 08:18:12.69	82.43	14.34	-31.7	-36.4	10.4	5.19e-03	0	44	0	146800640	23	6201
2026-01-20 08:18:13.70	82.26	14.40	-31.7	-36.3	10.5	3.87e-03	0	43	0	148897792	23	6142
2026-01-20 08:18:14.70	82.10	14.47	-31.7	-36.5	10.3	4.88e-03	0	44	0	149946368	23	6224
2026-01-20 08:18:15.71	81.94	14.53	-31.7	-36.4	10.4	5.38e-03	0	44	0	152043520	23	6165
2026-01-20 08:18:16.72	81.77	14.60	-31.7	-36.6	10.3	5.29e-03	0	43	0	154140672	23	6268
2026-01-20 08:18:17.72	81.61	14.67	-31.7	-36.6	10.3	6.06e-03	0	44	0	156237824	23	6282
2026-01-20 08:18:18.72	81.44	14.73	-31.8	-36.7	10.2	5.22e-03	0	44	0	158334976	23	6331
2026-01-20 08:18:19.73	81.28	14.80	-31.6	-36.2	10.5	5.07e-03	0	44	0	159383552	23	6102
2026-01-20 08:18:20.73	81.11	14.86	-31.6	-36.0	10.7	3.48e-03	0	43	0	161480704	23	6005
2026-01-20 08:18:21.72	80.94	14.93	-31.6	-36.1	10.6	3.01e-03	0	44	0	163577856	23	6052
2026-01-20 08:18:22.73	80.77	14.99	-31.6	-36.2	10.6	3.97e-03	0	44	0	165675008	23	6076
2026-01-20 08:18:23.72	80.61	15.06	-31.6	-36.2	10.5	3.50e-03	0	44	0	167772160	23	6093
2026-01-20 08:18:24.73	80.44	15.12	-31.7	-36.3	10.4	3.86e-03	0	44	0	168820736	23	6162
2026-01-20 08:18:25.73	80.27	15.19	-31.7	-36.5	10.4	4.33e-03	0	44	0	170917888	23	6225
2026-01-20 08:18:26.73	80.09	15.25	-31.8	-36.6	10.3	4.12e-03	0	44	0	173015040	23	6288
2026-01-20 08:18:27.72	79.92	15.32	-31.9	-37.0	10.0	6.96e-03	0	44	0	175112192	23	6482
2026-01-20 08:18:28.73	79.75	15.38	-31.8	-36.9	10.1	8.87e-03	0	44	0	177209344	23	6420
2026-01-20 08:18:29.73	79.58	15.45	-31.6	-35.9	10.8	4.86e-03	0	44	0	178257920	23	5952
2026-01-20 08:18:30.73	79.40	15.51	-31.4	-35.3	11.2	1.67e-03	0	44	0	180355072	23	5668
2026-01-20 08:18:31.74	79.23	15.58	-31.3	-35.0	11.5	9.92e-04	0	44	0	182452224	23	5510
2026-01-20 08:18:32.75	79.05	15.64	-31.3	-34.9	11.6	6.70e-04	0	44	0	184549376	23	5477
2026-01-20 08:18:33.75	78.87	15.71	-31.2	-34.6	11.8	6.49e-04	0	44	0	186646528	23	5327
2026-01-20 08:18:34.76	78.70	15.77	-31.2	-34.6	11.8	4.58e-04	0	44	0	187695104	23	5343
2026-01-20 08:18:35.77	78.52	15.84	-31.1	-34.5	11.9	5.30e-04	0	44	0	189792256	23	5300
2026-01-20 08:18:36.77	78.34	15.90	-31.1	-34.3	12.0	3.71e-04	0	44	0	191889408	23	5212
2026-01-20 08:18:37.78	78.16	15.96	-31.0	-34.2	12.1	2.58e-04	0	44	0	193986560	23	5180
2026-01-20 08:18:38.78	77.98	16.03	-31.0	-34.1	12.2	2.93e-04	0	44	0	196083712	23	5140
2026-01-20 08:18:39.79	77.79	16.09	-31.0	-34.2	12.1	2.25e-04	0	44	0	197132288	23	5202
2026-01-20 08:18:40.78	77.61	16.15	-31.1	-34.4	11.9	3.05e-04	0	44	0	199229440	23	5276
2026-01-20 08:18:41.78	77.43	16.22	-31.1	-34.3	12.0	3.33e-04	0	44	0	201326592	23	5243
2026-01-20 08:18:42.79	77.25	16.28	-31.0	-34.2	12.1	2.76e-04	0	44	0	203423744	23	5186
2026-01-20 08:18:43.79	77.06	16.34	-31.0	-34.0	12.3	2.20e-04	0	44	0	204472320	23	5087
2026-01-20 08:18:44.80	76.88	16.41	-30.9	-33.8	12.4	1.29e-04	0	44	0	206569472	23	5022
2026-01-20 08:18:45.80	76.69	16.47	-30.9	-33.7	12.4	1.49e-04	0	44	0	208666624	23	4992
2026-01-20 08:18:46.80	76.50	16.53	-31.0	-34.0	12.3	1.50e-04	0	44	0	210763776	23	5088
2026-01-20 08:18:47.81	76.31	16.60	-30.8	-33.4	12.6	1.24e-04	0	44	0	212860928	23	4892
2026-01-20 08:18:48.81	76.13	16.66	-30.7	-33.7	12.8	5.56e-05	0	44	0	214958080	22	5093
2026-01-20 08:18:49.82	75.94	16.72	-30.6	-33.5	13.0	5.79e-05	0	44	0	216006656	22	4999
2026-01-20 08:18:50.82	75.75	16.78	-30.6	-33.3	13.0	4.19e-05	0	44	0	218103808	22	4949
2026-01-20 08:18:51.82	75.56	16.85	-30.7	-33.7	12.8	4.57e-05	0	44	0	220200960	22	5084
2026-01-20 08:18:52.82	75.37	16.91	-30.7	-33.5	12.9	6.33e-05	0	44	0	222298112	22	5022
2026-01-20 08:18:53.83	75.17	16.97	-30.5	-33.2	13.2	2.97e-05	0	44	0	223346688	22	4900
2026-01-20 08:18:54.83	74.98	17.03	-30.5	-33.0	13.3	2.21e-05	0	44	0	225443840	22	4827
2026-01-20 08:18:55.84	74.78	17.09	-30.5	-33.1	13.3	1.98e-05	0	44	0	227540992	22	4850
2026-01-20 08:18:56.84	74.59	17.15	-30.5	-33.0	13.4	1.83e-05	0	44	0	229638144	22	4811
2026-01-20 08:18:57.84	74.39	17.21	-30.2	-32.9	13.7	7.60e-06	0	44	0	231735296	21	4892
2026-01-20 08:18:58.85	74.20	17.27	-30.4	-33.2	13.5	7.60e-06	0	44	0	232783872	21	5014
2026-01-20 08:18:59.85	74.00	17.33	-30.2	-32.9	13.7	8.30e-06	0	44	0	234881024	21	4907
2026-01-20 08:19:00.85	73.80	17.39	-30.2	-32.7	13.8	3.00e-06	0	44	0	236978176	21	4837
2026-01-20 08:19:01.85	73.60	17.45	-30.2	-32.8	13.8	2.20e-06	0	44	0	239075328	21	4857
2026-01-20 08:19:02.86	73.40	17.51	-30.2	-32.9	13.7	7.60e-06	0	44	0	241172480	21	4895
2026-01-20 08:19:03.86	73.20	17.57	-30.3	-33.0	13.6	2.20e-06	0	44	0	242221056	21	4937
2026-01-20 08:19:04.86	73.00	17.63	-30.2	-32.8	13.8	3.80e-06	0	44	0	244318208	21	4848
2026-01-20 08:19:05.87	72.80	17.69	-30.2	-32.6	13.9	3.80e-06	0	44	0	246415360	21	4800
2026-01-20 08:19:06.87	72.60	17.75	-30.2	-32.7	13.8	3.00e-06	0	44	0	248512512	21	4828
2026-01-20 08:19:07.88	72.39	17.81	-30.2	-32.7	13.9	1.50e-06	0	44	0	250609664	21	4802
2026-01-20 08:19:08.88	72.19	17.87	-30.1	-32.6	13.9	7.60e-06	0	44	0	251658240	21	4783
2026-01-20 08:19:09.89	71.98	17.93	-30.1	-32.6	13.9	2.20e-06	0	44	0	253755392	21	4770
2026-01-20 08:19:10.89	71.78	17.99	-30.2	-32.8	13.8	7.00e-07	0	44	0	255852544	21	4842
2026-01-20 08:19:11.89	71.57	18.04	-30.2	-32.7	13.9	3.80e-06	0	44	0	257949696	21	4803
2026-01-20 08:19:12.89	71.36	18.10	-30.1	-32.4	14.1	3.00e-06	0	44	0	260046848	21	4706
2026-01-20 08:19:13.89	71.16	18.16	-30.1	-32.5	14.0	3.00e-06	0	44	0	261095424	21	4751
2026-01-20 08:19:14.89	70.95	18.22	-30.1	-32.5	14.0	2.20e-06	0	44	0	263192576	21	4749
2026-01-20 08:19:15.90	70.74	18.27	-30.3	-32.9	13.8	1.50e-06	0	44	0	265289728	21	4893
2026-01-20 08:19:16.90	70.53	18.33	-30.3	-33.2	13.6	8.30e-06	0	44	0	267386880	21	4980
2026-01-20 08:19:17.90	70.32	18.38	-30.3	-33.1	13.7	5.30e-06	0	44	0	268435456	21	4943
2026-01-20 08:19:18.91	70.10	18.44	-30.3	-33.1	13.6	1.22e-05	0	44	0	270532608	21	4945
2026-01-20 08:19:19.91	69.89	18.50	-30.4	-33.3	13.5	9.10e-06	0	44	0	272629760	21	5012
2026-01-20 08:19:20.91	69.68	18.55	-30.3	-33.2	13.6	1.37e-05	0	44	0	274726912	21	4978
2026-01-20 08:19:21.92	69.46	18.61	-30.5	-33.5	13.4	1.06e-05	0	44	0	276824064	21	5111
2026-01-20 08:19:22.92	69.25	18.66	-30.4	-33.4	13.5	1.22e-05	0	44	0	277872640	21	5054
2026-01-20 08:19:23.93	69.03	18.72	-30.5	-33.7	13.2	1.98e-05	0	44	0	279969792	21	5193
2026-01-20 08:19:24.93	68.81	18.77	-30.5	-33.6	13.3	1.60e-05	0	44	0	282066944	21	5134
2026-01-20 08:19:25.94	68.59	18.82	-30.5	-33.5	13.4	1.37e-05	0	44	0	284164096	21	5117
2026-01-20 08:19:26.94	68.37	18.88	-30.5	-33.6	13.3	1.44e-05	0	44	0	286261248	21	5154
2026-01-20 08:19:27.94	68.16	18.93	-30.4	-33.4	13.5	1.14e-05	0	44	0	287309824	21	5047
2026-01-20 08:19:28.94	67.94	18.98	-30.3	-33.1	13.7	8.30e-06	0	44	0	289406976	21	4969
2026-01-20 08:19:29.94	67.72	19.04	-30.3	-33.1	13.7	7.60e-06	0	44	0	291504128	21	4964
2026-01-20 08:19:30.93	67.50	19.09	-30.2	-32.7	14.0	5.30e-06	0	44	0	293601280	21	4798
2026-01-20 08:19:31.94	67.27	19.14	-30.0	-32.3	14.2	7.00e-07	0	44	0	295698432	21	4676
2026-01-20 08:19:32.94	67.05	19.19	-30.0	-32.2	14.2	1.50e-06	0	44	0	296747008	21	4653
2026-01-20 08:19:33.94	66.83	19.24	-30.0	-32.3	14.2	7.00e-07	0	44	0	298844160	21	4666
2026-01-20 08:19:34.94	66.60	19.29	-30.0	-32.1	14.3	0.00e+00	0	44	0	300941312	21	4622
2026-01-20 08:19:35.94	66.38	19.34	-30.0	-32.1	14.3	7.00e-07	0	44	0	303038464	21	4601
2026-01-20 08:19:36.95	66.15	19.39	-29.9	-31.8	14.5	0.00e+00	0	44	0	305135616	21	4504
2026-01-20 08:19:37.95	65.93	19.44	-29.7	-32.0	14.7	7.00e-07	0	44	0	306184192	20	4659
2026-01-20 08:19:38.95	65.70	19.49	-29.7	-31.9	14.8	0.00e+00	0	44	0	308281344	20	4627
2026-01-20 08:19:39.96	65.47	19.54	-29.8	-32.0	14.7	0.00e+00	0	44	0	310378496	20	4676
2026-01-20 08:19:40.96	65.24	19.59	-29.7	-31.8	14.9	0.00e+00	0	44	0	312475648	20	4601
2026-01-20 08:19:41.96	65.01	19.64	-29.6	-31.6	15.0	7.00e-07	0	44	0	314572800	20	4532
2026-01-20 08:19:42.96	64.78	19.69	-29.7	-31.8	14.8	1.50e-06	0	44	0	315621376	20	4613
2026-01-20 08:19:43.97	64.55	19.73	-29.6	-31.7	14.9	0.00e+00	0	44	0	317718528	20	4571
2026-01-20 08:19:44.96	64.32	19.78	-29.6	-31.6	15.0	0.00e+00	0	44	0	319815680	20	4550
2026-01-20 08:19:45.97	64.09	19.83	-29.7	-31.9	14.8	7.00e-07	0	44	0	321912832	20	4636
2026-01-20 08:19:46.98	63.85	19.87	-29.7	-31.8	14.9	0.00e+00	0	44	0	322961408	20	4614
2026-01-20 08:19:47.98	63.62	19.92	-29.6	-31.6	15.0	0.00e+00	0	44	0	325058560	20	4545
2026-01-20 08:19:48.98	63.38	19.97	-29.6	-31.6	15.0	0.00e+00	0	44	0	327155712	20	4543
2026-01-20 08:19:49.98	63.15	20.01	-29.7	-31.8	14.9	0.00e+00	0	44	0	329252864	20	4605
2026-01-20 08:19:50.99	62.91	20.06	-29.5	-31.4	15.1	0.00e+00	0	44	0	331350016	20	4492
2026-01-20 08:19:51.99	62.68	20.10	-29.5	-31.5	15.1	0.00e+00	0	44	0	332398592	20	4506
2026-01-20 08:19:52.99	62.44	20.14	-29.5	-31.4	15.1	0.00e+00	0	44	0	334495744	20	4458
2026-01-20 08:19:54.00	62.20	20.19	-29.6	-31.5	15.1	0.00e+00	0	44	0	336592896	20	4506
2026-01-20 08:19:55.00	61.96	20.23	-29.7	-31.8	15.0	0.00e+00	0	44	0	338690048	20	4591
2026-01-20 08:19:56.01	61.72	20.27	-29.6	-31.6	15.0	0.00e+00	0	44	0	340787200	20	4538
2026-01-20 08:19:57.01	61.48	20.31	-29.6	-31.5	15.1	0.00e+00	0	44	0	341835776	20	4504
2026-01-20 08:19:58.01	61.24	20.35	-29.7	-31.7	14.9	0.00e+00	0	44	0	343932928	20	4581
2026-01-20 08:19:59.01	61.00	20.40	-29.6	-31.6	15.1	0.00e+00	0	44	0	346030080	20	4523
2026-01-20 08:20:00.01	60.76	20.44	-29.7	-31.9	14.9	7.00e-07	0	44	0	348127232	20	4617
2026-01-20 08:20:01.01	60.52	20.48	-30.0	-32.5	14.5	0.00e+00	0	44	0	350224384	20	4829
2026-01-20 08:20:02.01	60.27	20.51	-29.8	-32.1	14.7	0.00e+00	0	44	0	351272960	20	4687
2026-01-20 08:20:03.02	60.03	20.55	-29.8	-32.0	14.8	0.00e+00	0	44	0	353370112	20	4671
2026-01-20 08:20:04.02	59.78	20.59	-29.6	-31.7	15.0	0.00e+00	0	44	0	355467264	20	4559
2026-01-20 08:20:05.02	59.54	20.63	-29.8	-32.0	14.8	0.00e+00	0	44	0	357564416	20	4675
2026-01-20 08:20:06.02	59.29	20.67	-29.8	-32.1	14.7	7.00e-07	0	44	0	359661568	20	4693
2026-01-20 08:20:07.02	59.05	20.70	-29.9	-32.3	14.6	0.00e+00	0	44	0	360710144	20	4769
2026-01-20 08:20:08.01	58.80	20.74	-29.8	-32.1	14.8	7.00e-07	0	44	0	362807296	20	4678
2026-01-20 08:20:09.01	58.56	20.78	-29.9	-32.3	14.6	0.00e+00	0	44	0	364904448	20	4753
2026-01-20 08:20:10.01	58.31	20.81	-29.8	-32.1	14.8	0.00e+00	0	44	0	367001600	20	4678
2026-01-20 08:20:11.02	58.06	20.85	-29.9	-32.4	14.6	0.00e+00	0	44	0	369098752	20	4783
2026-01-20 08:20:12.02	57.81	20.88	-30.0	-32.5	14.5	0.00e+00	0	44	0	370147328	20	4837
2026-01-20 08:20:13.02	57.56	20.92	-30.1	-32.9	14.2	0.00e+00	0	44	0	372244480	20	4969
2026-01-20 08:20:14.02	57.31	20.95	-30.1	-32.8	14.3	2.20e-06	0	44	0	374341632	20	4939
2026-01-20 08:20:15.02	57.06	20.98	-30.2	-33.0	14.2	0.00e+00	0	44	0	376438784	20	5006
2026-01-20 08:20:16.02	56.81	21.01	-30.2	-33.1	14.1	1.50e-06	0	44	0	377487360	20	5044
2026-01-20 08:20:17.03	56.56	21.05	-30.3	-33.4	13.9	3.00e-06	0	44	0	379584512	20	5146
2026-01-20 08:20:18.03	56.31	21.08	-30.4	-33.6	13.8	4.50e-06	0	44	0	381681664	20	5229
2026-01-20 08:20:19.03	56.05	21.11	-30.3	-33.4	14.0	4.50e-06	0	44	0	383778816	20	5145
2026-01-20 08:20:20.04	55.80	21.14	-30.4	-33.6	13.8	2.20e-06	0	44	0	385875968	20	5221
2026-01-20 08:20:21.05	55.54	21.17	-30.4	-33.7	13.7	7.60e-06	0	44	0	386924544	20	5251
2026-01-20 08:20:22.05	55.29	21.20	-30.5	-33.5	13.5	1.06e-05	0	44	0	389021696	21	5090
2026-01-20 08:20:23.06	55.03	21.23	-30.7	-34.0	13.2	2.13e-05	0	44	0	391118848	21	5276
2026-01-20 08:20:24.06	54.78	21.25	-30.5	-33.5	13.5	1.29e-05	0	44	0	393216000	21	5086
2026-01-20 08:20:25.06	54.52	21.28	-30.4	-33.2	13.7	4.50e-06	0	44	0	395313152	21	4961
2026-01-20 08:20:26.07	54.27	21.31	-30.4	-33.3	13.6	9.10e-06	0	44	0	396361728	21	5009
2026-01-20 08:20:27.07	54.01	21.33	-30.6	-33.6	13.5	1.37e-05	0	44	0	398458880	21	5133
2026-01-20 08:20:28.07	53.75	21.36	-30.7	-33.9	13.2	2.44e-05	0	44	0	400556032	21	5235
2026-01-20 08:20:29.07	53.50	21.38	-30.7	-33.9	13.3	1.75e-05	0	44	0	402653184	21	5218
2026-01-20 08:20:30.07	53.24	21.41	-30.7	-33.9	13.2	1.75e-05	0	44	0	404750336	21	5232
2026-01-20 08:20:31.07	52.98	21.43	-30.9	-34.5	12.9	2.97e-05	0	44	0	405798912	21	5449
2026-01-20 08:20:32.07	52.72	21.46	-30.9	-34.5	12.8	4.80e-05	0	44	0	407896064	21	5462
2026-01-20 08:20:33.07	52.46	21.48	-31.1	-34.6	12.5	8.92e-05	0	44	0	409993216	22	5403
2026-01-20 08:20:34.08	52.20	21.50	-31.2	-34.9	12.3	2.13e-04	0	44	0	412090368	22	5520
2026-01-20 08:20:35.09	51.94	21.52	-31.1	-34.6	12.5	1.50e-04	0	44	0	414187520	22	5410
2026-01-20 08:20:36.09	51.68	21.54	-31.0	-34.5	12.6	1.16e-04	0	44	0	415236096	22	5330
2026-01-20 08:20:37.09	51.42	21.56	-31.2	-34.8	12.4	1.50e-04	0	44	0	417333248	22	5480
2026-01-20 08:20:38.09	51.16	21.58	-31.1	-34.6	12.5	1.68e-04	0	44	0	419430400	22	5404
2026-01-20 08:20:39.10	50.90	21.60	-31.2	-34.9	12.3	1.51e-04	0	44	0	421527552	22	5504
2026-01-20 08:20:40.10	50.64	21.62	-31.3	-35.2	12.1	2.43e-04	0	44	0	422576128	22	5634
2026-01-20 08:20:41.10	50.38	21.64	-31.0	-34.4	12.6	1.49e-04	0	44	0	424673280	22	5328
2026-01-20 08:20:42.10	50.12	21.65	-30.9	-33.9	13.0	5.03e-05	0	44	0	426770432	22	5107
2026-01-20 08:20:43.10	49.85	21.67	-30.8	-33.8	13.0	3.58e-05	0	44	0	428867584	22	5088
2026-01-20 08:20:44.11	49.59	21.69	-30.8	-33.7	13.1	2.74e-05	0	44	0	430964736	22	5039
2026-01-20 08:20:45.11	49.33	21.70	-30.8	-33.9	13.0	3.50e-05	0	44	0	432013312	22	5108
2026-01-20 08:20:46.11	49.07	21.72	-30.8	-33.9	12.9	4.34e-05	0	44	0	434110464	22	5139
2026-01-20 08:20:47.12	48.80	21.73	-30.9	-34.0	12.8	5.18e-05	0	44	0	436207616	22	5165
2026-01-20 08:20:48.12	48.54	21.74	-31.0	-34.4	12.6	6.17e-05	0	44	0	438304768	22	5337
2026-01-20 08:20:49.13	48.27	21.76	-31.0	-34.3	12.7	6.79e-05	0	44	0	440401920	22	5265
2026-01-20 08:20:50.13	48.01	21.77	-31.1	-34.6	12.4	1.23e-04	0	44	0	441450496	22	5409
2026-01-20 08:20:51.14	47.74	21.78	-31.0	-34.3	12.7	1.22e-04	0	44	0	443547648	22	5282
2026-01-20 08:20:52.14	47.48	21.79	-31.0	-34.3	12.7	8.62e-05	0	44	0	445644800	22	5264
2026-01-20 08:20:53.14	47.21	21.80	-31.0	-34.5	12.5	9.84e-05	0	44	0	447741952	22	5333
2026-01-20 08:20:54.14	46.95	21.81	-31.1	-34.5	12.6	9.53e-05	0	44	0	449839104	22	5371
2026-01-20 08:20:55.14	46.69	21.82	-31.0	-34.3	12.7	7.55e-05	0	44	0	450887680	22	5281
2026-01-20 08:20:56.14	46.42	21.83	-31.0	-34.4	12.6	7.24e-05	0	44	0	452984832	22	5318
2026-01-20 08:20:57.14	46.16	21.83	-31.0	-34.3	12.7	5.95e-05	0	44	0	455081984	22	5256
2026-01-20 08:20:58.15	45.89	21.84	-31.0	-34.3	12.6	9.53e-05	0	44	0	457179136	22	5275
2026-01-20 08:20:59.15	45.63	21.85	-30.8	-33.8	13.0	6.71e-05	0	44	0	459276288	22	5065
2026-01-20 08:21:00.15	45.36	21.85	-30.7	-33.6	13.1	2.89e-05	0	44	0	460324864	22	5009
2026-01-20 08:21:01.15	45.10	21.86	-30.8	-33.7	13.2	2.13e-05	0	44	0	462422016	22	5026
2026-01-20 08:21:02.15	44.83	21.86	-30.8	-33.9	13.0	2.82e-05	0	44	0	464519168	22	5104
2026-01-20 08:21:03.15	44.57	21.86	-30.9	-34.0	12.9	3.50e-05	0	44	0	466616320	22	5149
2026-01-20 08:21:04.16	44.30	21.87	-30.7	-33.6	13.2	2.82e-05	0	44	0	467664896	22	5003
2026-01-20 08:21:05.16	44.03	21.87	-30.7	-33.4	13.3	2.51e-05	0	44	0	469762048	22	4928
2026-01-20 08:21:06.16	43.77	21.87	-30.8	-33.6	13.1	3.05e-05	0	44	0	471859200	22	5018
2026-01-20 08:21:07.17	43.50	21.87	-30.7	-33.5	13.2	2.74e-05	0	44	0	473956352	22	4979
2026-01-20 08:21:08.17	43.24	21.87	-30.6	-33.3	13.3	2.89e-05	0	44	0	476053504	22	4904
2026-01-20 08:21:09.17	42.97	21.87	-30.6	-33.3	13.3	2.05e-05	0	44	0	477102080	22	4902
2026-01-20 08:21:10.17	42.71	21.87	-30.5	-33.0	13.6	8.30e-06	0	44	0	479199232	22	4784
2026-01-20 08:21:11.18	42.44	21.87	-30.5	-32.8	13.6	9.90e-06	0	44	0	481296384	22	4737
2026-01-20 08:21:12.18	42.17	21.87	-30.2	-32.7	14.0	4.50e-06	0	44	0	483393536	21	4793
2026-01-20 08:21:13.18	41.91	21.86	-30.2	-32.6	14.1	3.80e-06	0	44	0	485490688	21	4750
2026-01-20 08:21:14.18	41.64	21.86	-30.1	-32.4	14.2	3.80e-06	0	44	0	486539264	21	4706
2026-01-20 08:21:15.18	41.38	21.86	-30.2	-32.6	14.0	1.50e-06	0	44	0	488636416	21	4758
2026-01-20 08:21:16.18	41.11	21.85	-30.1	-32.4	14.2	1.50e-06	0	44	0	490733568	21	4696
2026-01-20 08:21:17.18	40.85	21.84	-30.0	-32.3	14.3	3.00e-06	0	44	0	492830720	21	4645
2026-01-20 08:21:18.19	40.58	21.84	-30.0	-32.3	14.3	2.20e-06	0	44	0	494927872	21	4649
2026-01-20 08:21:19.20	40.31	21.83	-30.1	-32.5	14.1	7.00e-07	0	44	0	495976448	21	4741
2026-01-20 08:21:20.20	40.05	21.82	-30.0	-32.1	14.4	0.00e+00	0	44	0	498073600	21	4589
2026-01-20 08:21:21.20	39.79	21.82	-29.9	-31.9	14.4	7.00e-07	0	44	0	500170752	21	4546
2026-01-20 08:21:22.20	39.52	21.81	-29.8	-31.8	14.6	7.00e-07	0	44	0	502267904	21	4502
2026-01-20 08:21:23.20	39.26	21.80	-29.7	-31.9	14.8	2.20e-06	0	44	0	504365056	20	4647
2026-01-20 08:21:24.21	38.99	21.79	-29.8	-32.2	14.6	0.00e+00	0	44	0	505413632	20	4724
2026-01-20 08:21:25.22	38.73	21.78	-29.6	-31.6	15.0	0.00e+00	0	44	0	507510784	20	4541
2026-01-20 08:21:26.22	38.46	21.76	-29.5	-31.4	15.1	0.00e+00	0	44	0	509607936	20	4492
2026-01-20 08:21:27.22	38.20	21.75	-29.5	-31.5	15.0	0.00e+00	0	44	0	511705088	20	4506
2026-01-20 08:21:28.22	37.94	21.74	-29.4	-31.1	15.3	0.00e+00	0	44	0	513802240	20	4399
2026-01-20 08:21:29.22	37.67	21.73	-29.4	-31.1	15.3	0.00e+00	0	44	0	514850816	20	4398
2026-01-20 08:21:30.22	37.41	21.71	-29.4	-31.2	15.2	0.00e+00	0	44	0	516947968	20	4410
2026-01-20 08:21:31.22	37.15	21.70	-29.4	-31.0	15.3	7.00e-07	0	44	0	519045120	20	4368
2026-01-20 08:21:32.23	36.88	21.68	-29.3	-30.9	15.4	0.00e+00	0	44	0	521142272	20	4320
2026-01-20 08:21:33.23	36.62	21.67	-29.4	-31.2	15.2	0.00e+00	0	44	0	522190848	20	4405
2026-01-20 08:21:34.23	36.36	21.65	-29.4	-31.2	15.2	7.00e-07	0	44	0	524288000	20	4427
2026-01-20 08:21:35.24	36.10	21.63	-29.4	-31.1	15.3	0.00e+00	0	44	0	526385152	20	4394
2026-01-20 08:21:36.24	35.84	21.61	-29.6	-31.6	15.0	0.00e+00	0	44	0	528482304	20	4549
2026-01-20 08:21:37.24	35.58	21.60	-29.7	-31.8	14.8	7.00e-07	0	44	0	530579456	20	4611
2026-01-20 08:21:38.25	35.31	21.58	-29.4	-31.1	15.3	0.00e+00	0	44	0	531628032	20	4392
2026-01-20 08:21:39.25	35.05	21.56	-29.2	-31.1	15.6	0.00e+00	0	44	0	533725184	19	4497
2026-01-20 08:21:40.26	34.79	21.54	-29.1	-30.9	15.7	0.00e+00	0	44	0	535822336	19	4412
2026-01-20 08:21:41.27	34.53	21.52	-29.3	-31.3	15.5	0.00e+00	0	44	0	537919488	19	4543
2026-01-20 08:21:42.27	34.27	21.49	-29.4	-31.7	15.2	0.00e+00	0	44	0	540016640	19	4680
2026-01-20 08:21:43.26	34.02	21.47	-29.4	-31.6	15.3	0.00e+00	0	44	0	541065216	19	4636
2026-01-20 08:21:44.26	33.76	21.45	-29.3	-31.4	15.4	0.00e+00	0	44	0	543162368	19	4588
2026-01-20 08:21:45.27	33.50	21.43	-29.4	-31.5	15.4	0.00e+00	0	44	0	545259520	19	4610
2026-01-20 08:21:46.27	33.24	21.40	-29.3	-31.3	15.5	0.00e+00	0	44	0	547356672	19	4556
2026-01-20 08:21:47.27	32.98	21.38	-29.2	-31.0	15.7	0.00e+00	0	44	0	549453824	19	4462
2026-01-20 08:21:48.27	32.73	21.35	-29.1	-31.0	15.7	0.00e+00	0	44	0	550502400	19	4442
2026-01-20 08:21:49.27	32.47	21.33	-29.3	-31.4	15.5	0.00e+00	0	44	0	552599552	19	4570
2026-01-20 08:21:50.27	32.22	21.30	-29.4	-31.7	15.3	0.00e+00	0	44	0	554696704	19	4659
2026-01-20 08:21:51.27	31.96	21.27	-29.5	-31.9	15.1	0.00e+00	0	44	0	556793856	19	4747
2026-01-20 08:21:52.27	31.71	21.25	-29.6	-32.1	15.0	0.00e+00	0	44	0	558891008	19	4811
2026-01-20 08:21:53.28	31.45	21.22	-29.8	-32.5	14.8	7.00e-07	0	44	0	559939584	19	4952
2026-01-20 08:21:54.28	31.20	21.19	-29.8	-32.6	14.7	0.00e+00	0	44	0	562036736	19	4962
2026-01-20 08:21:55.29	30.94	21.16	-29.9	-32.9	14.5	0.00e+00	0	44	0	564133888	19	5086
2026-01-20 08:21:56.29	30.69	21.13	-29.8	-32.7	14.6	0.00e+00	0	44	0	566231040	19	5012
2026-01-20 08:21:57.29	30.44	21.10	-30.0	-33.0	14.4	7.00e-07	0	44	0	567279616	19	5133
2026-01-20 08:21:58.30	30.18	21.07	-29.9	-32.8	14.6	7.00e-07	0	44	0	569376768	19	5050
2026-01-20 08:21:59.30	29.93	21.04	-30.0	-32.8	14.2	7.00e-07	0	44	0	571473920	20	4942
2026-01-20 08:22:00.31	29.68	21.01	-30.2	-33.2	14.0	3.00e-06	0	44	0	573571072	20	5070
2026-01-20 08:22:01.31	29.43	20.97	-30.0	-32.8	14.2	0.00e+00	0	44	0	575668224	20	4928
2026-01-20 08:22:02.31	29.18	20.94	-30.0	-32.7	14.3	1.50e-06	0	44	0	577765376	20	4921
2026-01-20 08:22:03.31	28.93	20.91	-30.1	-32.9	14.1	0.00e+00	0	44	0	578813952	20	4969
2026-01-20 08:22:04.32	28.68	20.87	-30.1	-33.0	14.1	7.00e-07	0	44	0	580911104	20	5013
2026-01-20 08:22:05.33	28.43	20.84	-30.1	-33.0	14.1	2.20e-06	0	44	0	583008256	20	5012
2026-01-20 08:22:06.33	28.18	20.80	-30.2	-33.2	14.0	7.00e-07	0	44	0	585105408	20	5083
2026-01-20 08:22:07.34	27.93	20.77	-30.2	-33.3	13.9	4.50e-06	0	44	0	586153984	20	5119
2026-01-20 08:22:08.33	27.69	20.73	-30.4	-33.7	13.6	9.90e-06	0	44	0	588251136	20	5295
2026-01-20 08:22:09.34	27.44	20.70	-30.3	-33.6	13.7	7.60e-06	0	44	0	590348288	20	5221
2026-01-20 08:22:10.35	27.19	20.66	-30.4	-33.7	13.6	1.29e-05	0	44	0	592445440	20	5292
2026-01-20 08:22:11.35	26.95	20.62	-30.4	-33.8	13.5	1.14e-05	0	44	0	594542592	20	5333
2026-01-20 08:22:12.35	26.71	20.58	-30.5	-33.6	13.4	1.83e-05	0	44	0	595591168	21	5117
2026-01-20 08:22:13.35	26.46	20.54	-30.4	-33.3	13.5	1.14e-05	0	44	0	597688320	21	5017
2026-01-20 08:22:14.35	26.22	20.51	-30.4	-33.4	13.5	6.10e-06	0	44	0	599785472	21	5051
2026-01-20 08:22:15.36	25.98	20.47	-30.4	-33.3	13.5	9.10e-06	0	44	0	601882624	21	5030
2026-01-20 08:22:16.37	25.73	20.43	-30.4	-33.2	13.6	1.37e-05	0	44	0	603979776	21	4988
2026-01-20 08:22:17.37	25.49	20.39	-30.4	-33.2	13.6	9.90e-06	0	44	0	605028352	21	4995
2026-01-20 08:22:18.37	25.25	20.34	-30.4	-33.3	13.5	8.30e-06	0	44	0	607125504	21	5006
2026-01-20 08:22:19.38	25.01	20.30	-30.5	-33.7	13.3	1.52e-05	0	44	0	609222656	21	5154
2026-01-20 08:22:20.38	24.77	20.26	-30.5	-33.6	13.3	1.67e-05	0	44	0	611319808	21	5148
2026-01-20 08:22:21.38	24.53	20.22	-30.6	-33.7	13.2	2.44e-05	0	44	0	613416960	21	5183
2026-01-20 08:22:22.39	24.29	20.18	-30.6	-34.0	13.1	2.13e-05	0	44	0	614465536	21	5272
2026-01-20 08:22:23.39	24.06	20.13	-30.7	-34.1	13.0	2.44e-05	0	44	0	616562688	21	5331
2026-01-20 08:22:24.39	23.82	20.09	-30.7	-34.2	12.9	5.26e-05	0	44	0	618659840	21	5364
2026-01-20 08:22:25.40	23.58	20.04	-30.8	-34.2	12.9	4.50e-05	0	44	0	620756992	21	5379
2026-01-20 08:22:26.40	23.35	20.00	-30.8	-34.2	12.9	6.48e-05	0	44	0	622854144	21	5376
2026-01-20 08:22:27.41	23.11	19.95	-30.6	-33.9	13.2	3.28e-05	0	44	0	623902720	21	5234
2026-01-20 08:22:28.41	22.88	19.91	-30.5	-33.5	13.4	1.22e-05	0	44	0	625999872	21	5099
2026-01-20 08:22:29.42	22.64	19.86	-30.5	-33.4	13.5	1.83e-05	0	44	0	628097024	21	5051
2026-01-20 08:22:30.42	22.41	19.82	-30.5	-33.4	13.4	2.44e-05	0	44	0	630194176	21	5051
2026-01-20 08:22:31.42	22.18	19.77	-30.5	-33.5	13.4	1.14e-05	0	44	0	632291328	21	5088
2026-01-20 08:22:32.42	21.95	19.72	-30.6	-33.9	13.1	2.74e-05	0	44	0	633339904	21	5249
2026-01-20 08:22:33.42	21.72	19.68	-30.7	-34.2	12.9	3.66e-05	0	44	0	635437056	21	5366
2026-01-20 08:22:34.43	21.49	19.63	-30.8	-34.5	12.7	6.56e-05	0	44	0	637534208	21	5490
2026-01-20 08:22:35.43	21.26	19.58	-30.8	-34.4	12.8	4.19e-05	0	44	0	639631360	21	5444
2026-01-20 08:22:36.43	21.04	19.53	-30.9	-34.6	12.6	8.31e-05	0	44	0	641728512	21	5530
2026-01-20 08:22:37.43	20.81	19.48	-30.9	-34.5	12.7	1.27e-04	0	44	0	642777088	21	5487
2026-01-20 08:22:38.42	20.58	19.43	-30.7	-34.0	13.1	3.66e-05	0	44	0	644874240	21	5277
2026-01-20 08:22:39.43	20.36	19.38	-30.6	-33.9	13.1	3.28e-05	0	44	0	646971392	21	5249
2026-01-20 08:22:40.43	20.13	19.33	-30.7	-34.0	13.0	1.98e-05	0	44	0	649068544	21	5302
2026-01-20 08:22:41.44	19.91	19.28	-30.7	-34.0	13.1	3.73e-05	0	44	0	650117120	21	5285
2026-01-20 08:22:42.44	19.68	19.23	-30.6	-33.8	13.2	2.05e-05	0	44	0	652214272	21	5193
2026-01-20 08:22:43.44	19.46	19.18	-30.7	-34.2	12.9	3.58e-05	0	44	0	654311424	21	5341
2026-01-20 08:22:44.45	19.24	19.13	-30.7	-34.1	13.0	4.65e-05	0	44	0	656408576	21	5312
2026-01-20 08:22:45.45	19.02	19.08	-30.8	-34.4	12.7	5.41e-05	0	44	0	658505728	21	5458
2026-01-20 08:22:46.45	18.80	19.03	-30.9	-34.7	12.6	9.53e-05	0	44	0	659554304	21	5558
2026-01-20 08:22:47.45	18.58	18.97	-30.9	-34.6	12.6	8.92e-05	0	44	0	661651456	21	5545
2026-01-20 08:22:48.46	18.36	18.92	-31.0	-34.5	12.4	1.38e-04	0	44	0	663748608	22	5381
2026-01-20 08:22:49.46	18.14	18.87	-31.2	-35.1	11.9	3.23e-04	0	44	0	665845760	22	5647
2026-01-20 08:22:50.47	17.92	18.81	-31.3	-35.3	11.8	5.23e-04	0	44	0	667942912	22	5705
2026-01-20 08:22:51.48	17.70	18.76	-31.1	-34.9	12.1	2.95e-04	0	44	0	668991488	22	5543
2026-01-20 08:22:52.48	17.49	18.71	-31.2	-35.1	12.0	2.58e-04	0	44	0	671088640	22	5643
2026-01-20 08:22:53.47	17.28	18.65	-31.3	-35.3	11.8	4.96e-04	0	44	0	673185792	22	5707
2026-01-20 08:22:54.47	17.06	18.60	-31.3	-35.4	11.7	5.14e-04	0	44	0	675282944	22	5752
2026-01-20 08:22:55.48	16.85	18.54	-31.3	-35.2	11.8	5.20e-04	0	44	0	677380096	22	5697
2026-01-20 08:22:56.48	16.63	18.49	-31.2	-35.0	12.1	3.67e-04	0	44	0	678428672	22	5581
2026-01-20 08:22:57.48	16.42	18.43	-31.2	-35.0	12.0	3.39e-04	0	44	0	680525824	22	5606
2026-01-20 08:22:58.47	16.21	18.38	-31.2	-35.1	11.9	3.68e-04	0	44	0	682622976	22	5624
2026-01-20 08:22:59.48	16.00	18.32	-31.0	-34.5	12.3	1.88e-04	0	44	0	684720128	22	5376
2026-01-20 08:23:00.48	15.79	18.26	-30.8	-33.8	12.8	1.05e-04	0	44	0	686817280	22	5118
2026-01-20 08:23:01.49	15.58	18.21	-30.6	-33.3	13.2	5.87e-05	0	44	0	687865856	22	4911
2026-01-20 08:23:02.50	15.37	18.15	-30.5	-33.1	13.3	1.67e-05	0	44	0	689963008	22	4833
2026-01-20 08:23:03.50	15.17	18.09	-30.5	-32.9	13.4	1.06e-05	0	44	0	692060160	22	4779
2026-01-20 08:23:04.50	14.96	18.04	-30.5	-33.1	13.3	1.44e-05	0	44	0	694157312	22	4836
2026-01-20 08:23:05.50	14.76	17.98	-30.5	-33.0	13.3	2.21e-05	0	44	0	695205888	22	4824
2026-01-20 08:23:06.50	14.55	17.92	-30.4	-32.8	13.5	9.90e-06	0	44	0	697303040	22	4739
2026-01-20 08:23:07.51	14.35	17.86	-30.5	-33.0	13.4	9.90e-06	0	44	0	699400192	22	4803
2026-01-20 08:23:08.51	14.14	17.80	-30.4	-32.8	13.5	1.90e-05	0	44	0	701497344	22	4739
2026-01-20 08:23:09.51	13.94	17.74	-30.4	-32.8	13.5	1.06e-05	0	44	0	703594496	22	4729
2026-01-20 08:23:10.51	13.74	17.69	-30.3	-32.6	13.6	8.30e-06	0	44	0	704643072	22	4684
2026-01-20 08:23:11.52	13.54	17.63	-30.4	-32.8	13.4	1.52e-05	0	44	0	706740224	22	4736
2026-01-20 08:23:12.52	13.34	17.57	-30.4	-32.7	13.5	1.29e-05	0	44	0	708837376	22	4721
2026-01-20 08:23:13.52	13.14	17.51	-30.5	-33.1	13.3	2.59e-05	0	44	0	710934528	22	4837
2026-01-20 08:23:14.52	12.94	17.45	-30.6	-33.2	13.2	1.75e-05	0	44	0	713031680	22	4897
2026-01-20 08:23:15.53	12.74	17.39	-30.7	-33.6	12.9	3.58e-05	0	44	0	714080256	22	5032
2026-01-20 08:23:16.53	12.55	17.33	-30.7	-33.6	12.9	5.49e-05	0	44	0	716177408	22	5042
2026-01-20 08:23:17.53	12.35	17.27	-30.6	-33.4	13.0	4.88e-05	0	44	0	718274560	22	4973
2026-01-20 08:23:18.54	12.16	17.21	-30.7	-33.5	13.0	4.50e-05	0	44	0	720371712	22	5004
2026-01-20 08:23:19.54	11.96	17.15	-30.6	-33.4	13.1	2.82e-05	0	44	0	722468864	22	4956
2026-01-20 08:23:20.55	11.77	17.09	-30.6	-33.4	13.1	4.34e-05	0	44	0	723517440	22	4963
2026-01-20 08:23:21.55	11.57	17.02	-30.8	-33.9	12.7	5.79e-05	0	44	0	725614592	22	5153
2026-01-20 08:23:22.55	11.38	16.96	-30.8	-33.9	12.7	1.02e-04	0	44	0	727711744	22	5144
2026-01-20 08:23:23.55	11.19	16.90	-30.6	-33.5	13.0	4.19e-05	0	44	0	729808896	22	4986
2026-01-20 08:23:24.56	11.00	16.84	-30.6	-33.4	13.0	3.05e-05	0	44	0	731906048	22	4957
2026-01-20 08:23:25.56	10.81	16.78	-30.6	-33.5	13.0	4.11e-05	0	44	0	732954624	22	4981
2026-01-20 08:23:26.56	10.62	16.72	-30.7	-33.7	12.8	4.27e-05	0	44	0	735051776	22	5065
2026-01-20 08:23:27.57	10.43	16.65	-30.7	-33.6	12.9	6.48e-05	0	44	0	737148928	22	5024
2026-01-20 08:23:28.57	10.25	16.59	-30.8	-33.9	12.7	7.09e-05	0	44	0	739246080	22	5133
2026-01-20 08:23:29.57	10.06	16.53	-30.8	-33.9	12.7	7.85e-05	0	44	0	741343232	22	5154
2026-01-20 08:23:30.58	9.87	16.47	-30.7	-33.7	12.8	7.24e-05	0	44	0	742391808	22	5088
2026-01-20 08:23:31.58	9.69	16.40	-30.7	-33.5	12.9	3.81e-05	0	44	0	744488960	22	5008
2026-01-20 08:23:32.58	9.50	16.34	-30.8	-33.8	12.7	7.09e-05	0	44	0	746586112	22	5120
2026-01-20 08:23:33.59	9.32	16.28	-30.7	-33.8	12.8	1.06e-04	0	44	0	748683264	22	5103
2026-01-20 08:23:34.60	9.14	16.21	-30.8	-34.0	12.6	7.17e-05	0	44	0	749731840	22	5194
2026-01-20 08:23:35.60	8.95	16.15	-30.8	-33.9	12.7	8.23e-05	0	44	0	751828992	22	5138
2026-01-20 08:23:36.60	8.77	16.09	-30.7	-33.7	12.8	5.03e-05	0	44	0	753926144	22	5073
2026-01-20 08:23:37.60	8.59	16.02	-30.7	-33.7	12.8	5.87e-05	0	44	0	756023296	22	5093
2026-01-20 08:23:38.59	8.42	15.96	-30.7	-33.6	12.9	5.41e-05	0	44	0	758120448	22	5041
2026-01-20 08:23:39.59	8.24	15.90	-30.6	-33.4	13.0	4.57e-05	0	44	0	759169024	22	4975
2026-01-20 08:23:40.59	8.06	15.83	-30.5	-33.2	13.1	3.50e-05	0	44	0	761266176	22	4901
2026-01-20 08:23:41.59	7.89	15.77	-30.6	-33.4	13.0	4.42e-05	0	44	0	763363328	22	4977
2026-01-20 08:23:42.59	7.71	15.71	-30.7	-33.7	12.7	6.17e-05	0	44	0	765460480	22	5097
2026-01-20 08:23:43.59	7.53	15.64	-30.7	-33.6	12.8	6.56e-05	0	44	0	767557632	22	5043
2026-01-20 08:23:44.59	7.36	15.58	-30.5	-33.2	13.1	3.58e-05	0	44	0	768606208	22	4886
2026-01-20 08:23:45.59	7.19	15.51	-30.5	-33.1	13.2	2.28e-05	0	44	0	770703360	22	4851
2026-01-20 08:23:46.59	7.01	15.45	-30.5	-33.0	13.2	1.44e-05	0	44	0	772800512	22	4830
2026-01-20 08:23:47.60	6.84	15.39	-30.5	-33.2	13.2	2.44e-05	0	44	0	774897664	22	4878
2026-01-20 08:23:48.61	6.67	15.32	-30.4	-32.8	13.4	2.97e-05	0	44	0	776994816	22	4754
2026-01-20 08:23:49.61	6.50	15.26	-30.4	-32.9	13.3	1.60e-05	0	44	0	778043392	22	4794
2026-01-20 08:23:50.61	6.33	15.19	-30.4	-32.9	13.3	1.67e-05	0	44	0	780140544	22	4802
2026-01-20 08:23:51.62	6.16	15.13	-30.4	-32.9	13.3	1.60e-05	0	44	0	782237696	22	4777
2026-01-20 08:23:52.63	5.99	15.06	-30.4	-32.8	13.4	2.21e-05	0	44	0	784334848	22	4740
2026-01-20 08:23:53.63	5.82	15.00	-30.3	-32.7	13.4	1.29e-05	0	44	0	786432000	22	4706
2026-01-20 08:23:54.63	5.65	14.93	-30.2	-32.9	13.5	7.60e-06	0	44	0	787480576	21	4913
2026-01-20 08:23:55.62	5.49	14.87	-30.1	-32.7	13.7	1.06e-05	0	44	0	789577728	21	4820
2026-01-20 08:23:56.63	5.32	14.80	-30.2	-32.8	13.7	8.30e-06	0	44	0	791674880	21	4847
2026-01-20 08:23:57.63	5.15	14.74	-30.1	-32.5	13.8	3.80e-06	0	44	0	793772032	21	4752
2026-01-20 08:23:58.64	4.99	14.67	-29.9	-32.1	14.0	4.50e-06	0	44	0	794820608	21	4636
2026-01-20 08:23:59.64	4.83	14.60	-29.9	-32.2	14.0	4.50e-06	0	44	0	796917760	21	4647
2026-01-20 08:24:00.65	4.66	14.54	-29.9	-32.0	14.2	2.20e-06	0	44	0	799014912	21	4586
2026-01-20 08:24:01.64	4.50	14.47	-29.9	-32.1	14.1	3.80e-06	0	44	0	801112064	21	4606
2026-01-20 08:24:02.64	4.34	14.41	-30.1	-32.6	13.7	3.80e-06	0	44	0	803209216	21	4812
2026-01-20 08:24:03.64	4.18	14.34	-30.2	-32.9	13.5	9.10e-06	0	44	0	804257792	21	4889
2026-01-20 08:24:04.65	4.02	14.28	-30.2	-32.9	13.5	6.80e-06	0	44	0	806354944	21	4905
2026-01-20 08:24:05.65	3.86	14.21	-30.3	-33.3	13.2	1.90e-05	0	44	0	808452096	21	5037
2026-01-20 08:24:06.65	3.70	14.14	-30.3	-33.3	13.2	2.82e-05	0	44	0	810549248	21	5046
2026-01-20 08:24:07.65	3.55	14.08	-30.2	-33.0	13.4	1.37e-05	0	44	0	812646400	21	4944
2026-01-20 08:24:08.65	3.39	14.01	-30.2	-33.0	13.4	1.37e-05	0	44	0	813694976	21	4950
2026-01-20 08:24:09.65	3.23	13.95	-30.2	-32.9	13.5	1.14e-05	0	44	0	815792128	21	4904
2026-01-20 08:24:10.65	3.08	13.88	-30.2	-32.9	13.5	1.44e-05	0	44	0	817889280	21	4928
2026-01-20 08:24:11.65	2.92	13.82	-30.2	-32.8	13.5	1.90e-05	0	44	0	819986432	21	4872
2026-01-20 08:24:12.65	2.77	13.75	-30.1	-32.7	13.6	7.60e-06	0	44	0	822083584	21	4845
2026-01-20 08:24:13.65	2.62	13.68	-30.1	-32.6	13.6	1.37e-05	0	44	0	823132160	21	4808
2026-01-20 08:24:14.65	2.46	13.62	-30.1	-32.5	13.8	6.10e-06	0	44	0	825229312	21	4761
2026-01-20 08:24:15.66	2.31	13.55	-30.0	-32.3	13.9	2.20e-06	0	44	0	827326464	21	4701
2026-01-20 08:24:16.66	2.16	13.49	-30.0	-32.3	13.9	1.50e-06	0	44	0	829423616	21	4707
2026-01-20 08:24:17.66	2.01	13.42	-30.1	-32.5	13.7	7.60e-06	0	44	0	831520768	21	4771
2026-01-20 08:24:18.67	1.86	13.35	-30.0	-32.5	13.7	6.80e-06	0	44	0	832569344	21	4767
2026-01-20 08:24:19.67	1.71	13.29	-30.2	-32.8	13.5	4.50e-06	0	44	0	834666496	21	4892
2026-01-20 08:24:20.67	1.56	13.22	-30.3	-33.1	13.3	1.60e-05	0	44	0	836763648	21	4988
2026-01-20 08:24:21.67	1.41	13.15	-30.2	-32.9	13.4	9.90e-06	0	44	0	838860800	21	4922
2026-01-20 08:24:22.67	1.27	13.09	-30.3	-33.2	13.2	1.44e-05	0	44	0	839909376	21	5047
2026-01-20 08:24:23.68	1.12	13.02	-30.3	-33.1	13.3	2.51e-05	0	44	0	842006528	21	4986
2026-01-20 08:24:24.69	0.97	12.96	-30.3	-33.2	13.2	1.83e-05	0	44	0	844103680	21	5028
2026-01-20 08:24:25.69	0.83	12.89	-30.3	-33.4	13.1	1.60e-05	0	44	0	846200832	21	5088
2026-01-20 08:24:26.70	0.68	12.82	-30.3	-33.3	13.1	2.59e-05	0	44	0	848297984	21	5077
2026-01-20 08:24:27.70	0.54	12.76	-30.5	-33.7	12.8	3.89e-05	0	44	0	849346560	21	5217
2026-01-20 08:24:28.71	0.39	12.69	-30.5	-33.8	12.7	7.24e-05	0	44	0	851443712	21	5267
2026-01-20 08:24:29.71	0.25	12.62	-30.3	-33.3	13.2	3.50e-05	0	44	0	853540864	21	5051
2026-01-20 08:24:30.72	0.11	12.56	-30.3	-33.3	13.1	2.82e-05	0	44	0	855638016	21	5050
2026-01-20 08:24:31.72	359.97	12.49	-30.3	-33.2	13.2	2.13e-05	0	44	0	857735168	21	5040
2026-01-20 08:24:32.71	359.83	12.43	-30.5	-33.9	12.7	5.79e-05	0	44	0	858783744	21	5299
2026-01-20 08:24:33.72	359.69	12.36	-30.6	-34.0	12.7	1.17e-04	0	44	0	860880896	21	5345
2026-01-20 08:24:34.72	359.55	12.29	-30.6	-34.0	12.6	8.23e-05	0	44	0	862978048	21	5324
2026-01-20 08:24:35.72	359.41	12.23	-30.7	-34.3	12.4	1.04e-04	0	44	0	865075200	21	5448
2026-01-20 08:24:36.72	359.27	12.16	-30.5	-33.7	12.8	1.42e-04	0	44	0	867172352	21	5216
2026-01-20 08:24:37.72	359.13	12.09	-30.4	-33.6	12.9	5.72e-05	0	44	0	868220928	21	5182
2026-01-20 08:24:38.72	359.00	12.03	-30.4	-33.5	12.9	4.19e-05	0	44	0	870318080	21	5134
2026-01-20 08:24:39.72	358.86	11.96	-30.3	-33.3	13.0	4.50e-05	0	44	0	872415232	21	5092
2026-01-20 08:24:40.72	358.73	11.90	-30.4	-33.6	12.8	3.81e-05	0	44	0	874512384	21	5210
2026-01-20 08:24:41.72	358.59	11.83	-30.4	-33.4	12.9	5.41e-05	0	44	0	876609536	21	5122
2026-01-20 08:24:42.73	358.46	11.76	-30.2	-33.0	13.2	2.36e-05	0	44	0	877658112	21	4956
2026-01-20 08:24:43.73	358.32	11.70	-30.2	-33.1	13.2	1.44e-05	0	44	0	879755264	21	4998
2026-01-20 08:24:44.72	358.19	11.63	-30.3	-33.1	13.2	2.21e-05	0	44	0	881852416	21	5009
2026-01-20 08:24:45.73	358.06	11.57	-30.4	-33.4	12.9	3.96e-05	0	44	0	883949568	21	5118
2026-01-20 08:24:46.73	357.93	11.50	-30.4	-33.6	12.8	4.57e-05	0	44	0	884998144	21	5194
2026-01-20 08:24:47.73	357.80	11.43	-30.4	-33.6	12.8	6.71e-05	0	44	0	887095296	21	5200
2026-01-20 08:24:48.74	357.66	11.37	-30.5	-33.8	12.7	6.94e-05	0	44	0	889192448	21	5256
2026-01-20 08:24:49.74	357.53	11.30	-30.5	-33.8	12.6	8.46e-05	0	44	0	891289600	21	5284
2026-01-20 08:24:50.74	357.40	11.24	-30.5	-33.8	12.7	6.02e-05	0	44	0	893386752	21	5278
2026-01-20 08:24:51.74	357.28	11.17	-30.6	-34.2	12.4	1.49e-04	0	44	0	894435328	21	5415
2026-01-20 08:24:52.74	357.15	11.11	-30.5	-34.0	12.5	1.27e-04	0	44	0	896532480	21	5336
2026-01-20 08:24:53.74	357.02	11.04	-30.6	-34.2	12.4	1.10e-04	0	44	0	898629632	21	5430
2026-01-20 08:24:54.75	356.89	10.97	-30.6	-34.3	12.3	1.53e-04	0	44	0	900726784	21	5474
2026-01-20 08:24:55.75	356.77	10.91	-30.7	-34.4	12.3	1.75e-04	0	44	0	902823936	21	5508
2026-01-20 08:24:56.76	356.64	10.84	-30.8	-34.7	12.0	2.39e-04	0	44	0	903872512	21	5664
2026-01-20 08:24:57.77	356.51	10.78	-30.7	-34.5	12.1	3.36e-04	0	44	0	905969664	21	5554
2026-01-20 08:24:58.77	356.39	10.71	-30.7	-34.4	12.2	1.88e-04	0	44	0	908066816	21	5532
2026-01-20 08:24:59.77	356.26	10.65	-30.7	-34.3	12.3	1.94e-04	0	44	0	910163968	21	5489
2026-01-20 08:25:00.77	356.14	10.58	-30.7	-34.4	12.2	2.33e-04	0	44	0	912261120	21	5514
2026-01-20 08:25:01.77	356.02	10.52	-30.7	-34.5	12.1	2.50e-04	0	44	0	913309696	21	5564
2026-01-20 08:25:02.77	355.90	10.45	-30.9	-35.0	11.8	3.70e-04	0	44	0	915406848	21	5788
2026-01-20 08:25:03.77	355.77	10.38	-30.7	-34.6	12.0	4.67e-04	0	44	0	917504000	21	5636
2026-01-20 08:25:04.77	355.65	10.32	-30.8	-34.7	12.0	3.13e-04	0	44	0	919601152	21	5648
2026-01-20 08:25:05.78	355.53	10.25	-30.7	-34.5	12.1	3.15e-04	0	44	0	921698304	21	5589
2026-01-20 08:25:06.79	355.41	10.19	-30.8	-34.8	11.9	3.42e-04	0	44	0	922746880	21	5707
2026-01-20 08:25:07.79	355.29	10.12	-30.8	-34.8	11.9	4.52e-04	0	44	0	924844032	21	5729
2026-01-20 08:25:08.79	355.17	10.06	-30.8	-34.8	11.9	4.23e-04	0	44	0	926941184	21	5699
2026-01-20 08:25:09.79	355.05	9.99	-31.0	-35.4	11.4	7.26e-04	0	44	0	929038336	21	5982
2026-01-20 08:25:10.80	354.94	9.93	-30.8	-34.5	11.8	7.80e-04	0	44	0	931135488	22	5451
2026-01-20 08:25:11.80	354.82	9.86	-30.9	-34.6	11.7	5.58e-04	0	44	0	932184064	22	5490
2026-01-20 08:25:12.81	354.70	9.80	-30.9	-34.6	11.6	5.58e-04	0	44	0	934281216	22	5527
2026-01-20 08:25:13.81	354.58	9.73	-31.0	-35.0	11.4	7.48e-04	0	44	0	936378368	22	5687
2026-01-20 08:25:14.82	354.47	9.67	-31.0	-35.0	11.3	9.89e-04	0	44	0	938475520	22	5713
2026-01-20 08:25:15.82	354.35	9.60	-31.1	-35.3	11.1	1.16e-03	0	44	0	940572672	22	5840
2026-01-20 08:25:16.82	354.24	9.54	-31.0	-34.9	11.4	1.41e-03	0	44	0	941621248	22	5629
2026-01-20 08:25:17.83	354.12	9.47	-31.0	-34.8	11.5	8.08e-04	0	44	0	943718400	22	5620
2026-01-20 08:25:18.84	354.01	9.41	-31.0	-34.9	11.5	8.29e-04	0	44	0	945815552	22	5627
2026-01-20 08:25:19.84	353.89	9.34	-30.9	-34.7	11.5	9.37e-04	0	44	0	947912704	22	5579
2026-01-20 08:25:20.84	353.78	9.28	-31.1	-35.3	11.1	9.28e-04	0	44	0	948961280	22	5826
2026-01-20 08:25:21.84	353.67	9.22	-30.9	-34.7	11.5	9.25e-04	0	44	0	951058432	22	5569
2026-01-20 08:25:22.84	353.56	9.15	-30.9	-34.7	11.5	8.16e-04	0	44	0	953155584	22	5557
2026-01-20 08:25:23.85	353.45	9.09	-30.9	-34.7	11.5	6.69e-04	0	44	0	955252736	22	5560
2026-01-20 08:25:24.85	353.34	9.02	-31.0	-34.9	11.4	8.48e-04	0	44	0	957349888	22	5642
2026-01-20 08:25:25.85	353.23	8.96	-30.9	-34.8	11.4	9.10e-04	0	44	0	958398464	22	5625
2026-01-20 08:25:26.85	353.12	8.89	-30.9	-34.8	11.4	1.11e-03	0	44	0	960495616	22	5597
2026-01-20 08:25:27.85	353.01	8.83	-31.0	-35.0	11.2	1.01e-03	0	44	0	962592768	22	5734
2026-01-20 08:25:28.84	352.90	8.77	-31.0	-35.2	11.1	1.75e-03	0	44	0	964689920	22	5777
2026-01-20 08:25:29.85	352.79	8.70	-31.1	-35.4	10.9	1.70e-03	0	44	0	966787072	22	5906
2026-01-20 08:25:30.85	352.68	8.64	-31.2	-35.5	10.9	1.92e-03	0	44	0	967835648	22	5957
2026-01-20 08:25:31.85	352.58	8.58	-31.2	-35.8	10.7	2.52e-03	0	44	0	969932800	22	6097
2026-01-20 08:25:32.86	352.47	8.51	-31.3	-36.2	10.4	3.35e-03	0	44	0	972029952	22	6274
2026-01-20 08:25:33.86	352.36	8.45	-31.3	-36.0	10.5	5.79e-03	0	44	0	974127104	22	6190
2026-01-20 08:25:34.87	352.26	8.38	-31.3	-36.2	10.3	4.96e-03	0	44	0	976224256	22	6312
2026-01-20 08:25:35.87	352.15	8.32	-31.4	-36.3	10.2	5.49e-03	0	44	0	977272832	22	6349
2026-01-20 08:25:36.87	352.05	8.26	-31.3	-36.2	10.3	5.08e-03	0	44	0	979369984	22	6306
2026-01-20 08:25:37.87	351.94	8.19	-31.5	-36.7	9.9	6.06e-03	0	44	0	981467136	22	6546
2026-01-20 08:25:38.87	351.84	8.13	-31.5	-36.7	9.9	8.49e-03	0	44	0	983564288	22	6566
2026-01-20 08:25:39.87	351.73	8.07	-31.5	-36.3	9.8	9.63e-03	0	44	0	985661440	23	6244
2026-01-20 08:25:40.88	351.63	8.00	-31.5	-36.5	9.7	1.03e-02	0	44	0	986710016	23	6352
2026-01-20 08:25:41.88	351.53	7.94	-31.5	-36.5	9.6	1.39e-02	0	44	0	988807168	23	6380
2026-01-20 08:25:42.88	351.43	7.88	-31.5	-36.5	9.6	1.25e-02	0	44	0	990904320	23	6377
2026-01-20 08:25:43.88	351.32	7.82	-31.7	-37.3	9.1	2.12e-02	0	44	0	993001472	23	6803
2026-01-20 08:25:44.88	351.22	7.75	-31.7	-37.1	9.1	2.93e-02	0	44	0	994050048	23	6694
2026-01-20 08:25:45.89	351.12	7.69	-31.8	-37.7	8.7	2.97e-02	0	44	0	996147200	23	7072
2026-01-20 08:25:46.89	351.02	7.63	-31.7	-37.3	9.0	2.94e-02	0	44	0	998244352	23	6857
2026-01-20 08:25:47.89	350.92	7.56	-31.6	-37.0	9.2	3.14e-02	0	44	0	1000341504	23	6642
2026-01-20 08:25:48.90	350.82	7.50	-31.6	-36.7	9.5	1.76e-02	0	44	0	1002438656	23	6492
2026-01-20 08:25:49.90	350.72	7.44	-31.6	-36.7	9.5	1.45e-02	0	44	0	1003487232	23	6482
2026-01-20 08:25:50.91	350.62	7.38	-31.5	-36.6	9.6	1.51e-02	0	44	0	1005584384	23	6410
2026-01-20 08:25:51.91	350.53	7.31	-31.5	-36.5	9.5	1.46e-02	0	44	0	1007681536	23	6401
2026-01-20 08:25:52.92	350.43	7.25	-31.4	-36.1	9.9	1.09e-02	0	44	0	1009778688	23	6191
2026-01-20 08:25:53.91	350.33	7.19	-31.4	-36.0	10.0	9.92e-03	0	44	0	1011875840	23	6112
2026-01-20 08:25:54.91	350.24	7.13	-31.3	-35.8	10.1	7.01e-03	0	44	0	1012924416	23	6016
2026-01-20 08:25:55.91	350.14	7.07	-33.3	-45.6	3.8	1.37e+00	0	44	104	1015021568	26	14976
2026-01-20 08:25:56.91	350.04	7.00	-33.6	-47.6	3.8	1.49e+00	0	44	104	1015021568	27	18004
2026-01-20 08:25:57.91	349.95	6.94	-33.9	-48.3	3.8	1.49e+00	0	44	104	1015021568	27	19035

#Closed at: 2026-01-20 08:25:58
#Recorded file [1015 MB]: D:/data/31010_260120_111653.dat