passes_logs/2026/01/20/R2M6_AANII_01/R2M6_AANII_01__20260120_133338_AQUA_rec.log

#Pass ID: 20260120_133338_AQUA
#Satellite: AQUA
#Configuration: AQUA
#almurnet v.1.7.20240730
#Start time: 2026-01-20 13:33:39

#Version: 2.2.20231116
#Station: R2M6_AANII_01
#Location: 30.233357 lon 59.946436 lat
#TLE: 1 27424U 02022A   26019.95447505  .00001296  00000+0  26931-3 0  9993
#TLE: 2 27424  98.4091 346.4652 0001983  72.1988 359.6274 14.61832814261618

#Time	Az	El	Level	Level2	SNR	BER	BlckErr	Temp	State	Recorded	gain1	gain2
2026-01-20 13:33:39.45	213.15	7.04	-30.7	-35.4	5.2	7.08e-01	0	41	0	0	23	6201
2026-01-20 13:33:40.45	213.26	7.11	-31.6	-38.3	5.0	7.07e-01	0	42	104	0	24	7802
2026-01-20 13:33:41.45	213.37	7.17	-31.6	-37.5	13.9	6.09e-01	0	41	0	0	24	7078
2026-01-20 13:33:42.46	213.48	7.24	-31.5	-37.0	14.2	6.09e-01	0	41	0	1572864	24	6791
2026-01-20 13:33:43.46	213.59	7.31	-31.4	-36.5	14.6	6.06e-01	0	41	0	3670016	24	6496
2026-01-20 13:33:44.46	213.70	7.37	-31.1	-35.6	15.3	6.06e-01	0	41	0	5242880	24	5995
2026-01-20 13:33:45.46	213.81	7.44	-31.1	-35.3	15.6	6.07e-01	0	42	0	7340032	24	5839
2026-01-20 13:33:46.46	213.92	7.51	-30.8	-34.9	16.2	6.06e-01	0	42	0	9437184	23	5772
2026-01-20 13:33:47.46	214.04	7.58	-30.7	-34.4	16.6	6.06e-01	0	42	0	11010048	23	5524
2026-01-20 13:33:48.47	214.15	7.64	-30.8	-34.8	16.4	6.06e-01	0	42	0	13107200	23	5691
2026-01-20 13:33:49.47	214.27	7.71	-30.6	-34.2	16.8	6.06e-01	0	42	0	14680064	23	5454
2026-01-20 13:33:50.46	214.38	7.78	-30.5	-33.9	17.0	6.06e-01	0	42	0	16777216	23	5298
2026-01-20 13:33:51.46	214.50	7.85	-30.3	-33.8	17.4	6.07e-01	0	42	0	18350080	22	5389
2026-01-20 13:33:52.46	214.61	7.91	-30.5	-34.3	17.1	6.05e-01	0	42	0	20447232	22	5564
2026-01-20 13:33:53.46	214.73	7.98	-30.5	-34.2	17.1	6.04e-01	0	42	0	22544384	22	5521
2026-01-20 13:33:54.46	214.85	8.05	-30.4	-34.2	17.2	6.05e-01	0	42	0	24117248	22	5516
2026-01-20 13:33:55.47	214.96	8.12	-30.4	-33.9	17.4	6.06e-01	0	42	0	26214400	22	5411
2026-01-20 13:33:56.47	215.08	8.19	-30.4	-34.0	17.2	6.07e-01	0	42	0	27787264	22	5472
2026-01-20 13:33:57.48	215.20	8.26	-30.3	-33.8	17.5	6.06e-01	0	42	0	29884416	22	5357
2026-01-20 13:33:58.48	215.32	8.33	-30.4	-34.0	17.3	6.05e-01	0	42	0	31457280	22	5454
2026-01-20 13:33:59.48	215.44	8.39	-30.3	-33.7	17.6	6.06e-01	0	42	0	33554432	22	5306
2026-01-20 13:34:00.48	215.56	8.46	-30.3	-33.8	17.5	6.07e-01	0	42	0	35651584	22	5356
2026-01-20 13:34:01.48	215.68	8.53	-30.3	-33.6	17.6	6.08e-01	0	42	0	37224448	22	5292
2026-01-20 13:34:02.48	215.81	8.60	-30.3	-33.8	17.5	6.05e-01	0	42	0	39321600	22	5367
2026-01-20 13:34:03.48	215.93	8.67	-30.5	-34.1	17.3	6.05e-01	0	42	0	40894464	22	5492
2026-01-20 13:34:04.48	216.05	8.74	-30.4	-33.9	17.4	6.05e-01	0	42	0	42991616	22	5400
2026-01-20 13:34:05.48	216.17	8.81	-30.4	-34.0	17.3	6.05e-01	0	42	0	45088768	22	5450
2026-01-20 13:34:06.48	216.30	8.88	-30.4	-33.9	17.4	6.06e-01	0	42	0	46661632	22	5415
2026-01-20 13:34:07.48	216.42	8.95	-30.4	-34.0	17.4	6.08e-01	0	42	0	48758784	22	5429
2026-01-20 13:34:08.48	216.55	9.02	-30.3	-33.8	17.5	6.06e-01	0	42	0	50331648	22	5348
2026-01-20 13:34:09.49	216.68	9.09	-30.4	-33.8	17.5	6.06e-01	0	42	0	52428800	22	5358
2026-01-20 13:34:10.49	216.80	9.16	-30.4	-33.8	17.5	6.07e-01	0	42	0	54001664	22	5366
2026-01-20 13:34:11.49	216.93	9.23	-30.5	-34.1	17.4	6.06e-01	0	42	0	56098816	22	5462
2026-01-20 13:34:12.49	217.06	9.30	-30.4	-33.8	17.5	6.04e-01	0	42	0	58195968	22	5360
2026-01-20 13:34:13.49	217.19	9.37	-30.4	-34.0	17.4	6.06e-01	0	42	0	59768832	22	5447
2026-01-20 13:34:14.50	217.32	9.44	-30.5	-34.2	17.2	6.07e-01	0	42	0	61865984	22	5531
2026-01-20 13:34:15.50	217.45	9.51	-30.5	-34.1	17.4	6.08e-01	0	43	0	63438848	22	5454
2026-01-20 13:34:16.50	217.58	9.58	-30.4	-33.7	17.6	6.08e-01	0	43	0	65536000	22	5306
2026-01-20 13:34:17.50	217.71	9.65	-30.3	-33.5	17.8	6.06e-01	0	42	0	67633152	22	5217
2026-01-20 13:34:18.50	217.84	9.72	-30.3	-33.6	17.7	6.06e-01	0	42	0	69206016	22	5276
2026-01-20 13:34:19.50	217.97	9.79	-30.2	-33.4	17.9	6.05e-01	0	43	0	71303168	22	5168
2026-01-20 13:34:20.51	218.11	9.86	-30.2	-33.3	17.9	6.08e-01	0	43	0	72876032	22	5121
2026-01-20 13:34:21.50	218.24	9.93	-30.2	-33.4	17.8	6.06e-01	0	42	0	74973184	22	5180
2026-01-20 13:34:22.51	218.38	10.00	-30.4	-34.0	17.5	6.04e-01	0	42	0	76546048	22	5411
2026-01-20 13:34:23.51	218.51	10.07	-30.4	-34.0	17.5	6.04e-01	0	42	0	78643200	22	5398
2026-01-20 13:34:24.52	218.65	10.15	-30.2	-33.2	18.0	6.07e-01	0	43	0	80740352	22	5109
2026-01-20 13:34:25.52	218.79	10.22	-30.1	-33.0	18.1	6.08e-01	0	42	0	82313216	22	5032
2026-01-20 13:34:26.53	218.93	10.29	-30.2	-33.1	18.1	6.08e-01	0	43	0	84410368	22	5062
2026-01-20 13:34:27.53	219.06	10.36	-30.2	-33.2	18.0	6.03e-01	0	42	0	85983232	22	5113
2026-01-20 13:34:28.53	219.20	10.43	-30.2	-33.2	18.0	6.07e-01	0	43	0	88080384	22	5092
2026-01-20 13:34:29.53	219.34	10.50	-30.2	-33.2	18.1	6.06e-01	0	43	0	90177536	22	5086
2026-01-20 13:34:30.54	219.48	10.58	-30.2	-33.3	18.0	6.04e-01	0	43	0	91750400	22	5148
2026-01-20 13:34:31.54	219.63	10.65	-30.4	-33.9	17.6	6.07e-01	0	42	0	93847552	22	5369
2026-01-20 13:34:32.54	219.77	10.72	-30.4	-33.9	17.5	6.07e-01	0	42	0	95420416	22	5390
2026-01-20 13:34:33.55	219.91	10.79	-30.6	-34.5	17.3	6.08e-01	0	43	0	97517568	22	5601
2026-01-20 13:34:34.55	220.05	10.87	-30.5	-34.0	17.5	6.06e-01	0	43	0	99614720	22	5395
2026-01-20 13:34:35.55	220.20	10.94	-30.4	-33.7	17.7	6.05e-01	0	43	0	101187584	22	5283
2026-01-20 13:34:36.55	220.34	11.01	-30.5	-34.0	17.6	6.06e-01	0	43	0	103284736	22	5395
2026-01-20 13:34:37.56	220.49	11.08	-30.4	-33.8	17.7	6.05e-01	0	43	0	104857600	22	5326
2026-01-20 13:34:38.56	220.64	11.16	-30.3	-33.3	18.0	6.06e-01	0	43	0	106954752	22	5136
2026-01-20 13:34:39.57	220.78	11.23	-30.2	-33.3	18.0	6.07e-01	0	43	0	108527616	22	5108
2026-01-20 13:34:40.57	220.93	11.30	-30.5	-34.2	17.5	6.08e-01	0	43	0	110624768	22	5460
2026-01-20 13:34:41.57	221.08	11.37	-30.5	-34.1	17.5	6.06e-01	0	43	0	112721920	22	5441
2026-01-20 13:34:42.57	221.23	11.45	-30.2	-33.2	18.1	6.05e-01	0	43	0	114294784	22	5082
2026-01-20 13:34:43.57	221.38	11.52	-30.3	-33.4	18.0	6.06e-01	0	43	0	116391936	22	5178
2026-01-20 13:34:44.57	221.53	11.59	-30.2	-33.2	18.1	6.07e-01	0	43	0	117964800	22	5083
2026-01-20 13:34:45.57	221.68	11.67	-30.3	-33.3	18.0	6.08e-01	0	43	0	120061952	22	5132
2026-01-20 13:34:46.57	221.83	11.74	-30.5	-33.9	17.7	6.04e-01	0	43	0	122159104	22	5351
2026-01-20 13:34:47.58	221.99	11.81	-30.5	-33.9	17.7	6.04e-01	0	43	0	123731968	22	5366
2026-01-20 13:34:48.58	222.14	11.89	-30.3	-33.4	18.0	6.05e-01	0	43	0	125829120	22	5161
2026-01-20 13:34:49.58	222.30	11.96	-30.3	-33.4	18.1	6.06e-01	0	43	0	127401984	22	5141
2026-01-20 13:34:50.59	222.46	12.03	-30.3	-33.4	18.0	6.06e-01	0	43	0	129499136	22	5153
2026-01-20 13:34:51.59	222.61	12.11	-30.3	-33.3	18.1	6.05e-01	0	43	0	131072000	22	5129
2026-01-20 13:34:52.59	222.77	12.18	-30.2	-33.1	18.2	6.07e-01	0	43	0	133169152	22	5049
2026-01-20 13:34:53.59	222.93	12.25	-30.1	-32.9	18.4	6.07e-01	0	43	0	135266304	22	4951
2026-01-20 13:34:54.59	223.09	12.33	-30.1	-33.0	18.3	6.06e-01	0	43	0	136839168	22	4983
2026-01-20 13:34:55.60	223.25	12.40	-30.4	-33.7	17.9	6.06e-01	0	43	0	138936320	22	5267
2026-01-20 13:34:56.60	223.41	12.48	-30.3	-33.4	18.1	6.06e-01	0	43	0	140509184	22	5142
2026-01-20 13:34:57.61	223.57	12.55	-30.2	-33.0	18.3	6.06e-01	0	43	0	142606336	22	5005
2026-01-20 13:34:58.61	223.73	12.62	-29.9	-32.4	18.7	6.07e-01	0	43	0	144703488	22	4793
2026-01-20 13:34:59.62	223.90	12.70	-29.8	-32.7	18.8	6.06e-01	0	43	0	146276352	21	4981
2026-01-20 13:35:00.61	224.06	12.77	-29.9	-32.8	18.8	6.07e-01	0	43	0	148373504	21	5014
2026-01-20 13:35:01.62	224.23	12.85	-29.9	-32.9	18.7	6.06e-01	0	43	0	149946368	21	5081
2026-01-20 13:35:02.62	224.39	12.92	-29.9	-32.8	18.8	6.06e-01	0	43	0	152043520	21	5035
2026-01-20 13:35:03.63	224.56	13.00	-29.9	-32.8	18.7	6.07e-01	0	43	0	153616384	21	5028
2026-01-20 13:35:04.63	224.73	13.07	-30.0	-33.2	18.6	6.09e-01	0	43	0	155713536	21	5176
2026-01-20 13:35:05.63	224.90	13.14	-29.9	-32.8	18.8	6.04e-01	0	43	0	157810688	21	5039
2026-01-20 13:35:06.63	225.07	13.22	-29.8	-32.4	19.0	6.06e-01	0	43	0	159383552	21	4895
2026-01-20 13:35:07.63	225.24	13.29	-29.8	-32.6	19.0	6.07e-01	0	43	0	161480704	21	4957
2026-01-20 13:35:08.63	225.41	13.37	-29.8	-32.5	19.0	6.05e-01	0	43	0	163053568	21	4916
2026-01-20 13:35:09.64	225.58	13.44	-29.8	-32.5	19.0	6.06e-01	0	43	0	165150720	21	4916
2026-01-20 13:35:10.64	225.75	13.52	-29.8	-32.6	18.9	6.05e-01	0	43	0	167247872	21	4968
2026-01-20 13:35:11.65	225.93	13.59	-29.8	-32.5	19.1	6.07e-01	0	43	0	168820736	21	4899
2026-01-20 13:35:12.65	226.10	13.66	-30.0	-33.0	18.8	6.05e-01	0	43	0	170917888	21	5096
2026-01-20 13:35:13.65	226.28	13.74	-29.8	-32.5	19.0	6.05e-01	0	43	0	172490752	21	4930
2026-01-20 13:35:14.65	226.46	13.81	-29.7	-32.3	19.1	6.07e-01	0	43	0	174587904	21	4859
2026-01-20 13:35:15.65	226.63	13.89	-29.8	-32.5	19.1	6.04e-01	0	43	0	176685056	21	4900
2026-01-20 13:35:16.66	226.81	13.96	-29.7	-32.1	19.3	6.06e-01	0	43	0	178257920	21	4774
2026-01-20 13:35:17.65	226.99	14.04	-29.9	-32.9	18.9	6.08e-01	0	43	0	180355072	21	5044
2026-01-20 13:35:18.66	227.17	14.11	-29.8	-32.6	19.0	6.05e-01	0	43	0	181927936	21	4928
2026-01-20 13:35:19.66	227.35	14.19	-29.7	-32.2	19.2	6.06e-01	0	43	0	184025088	21	4810
2026-01-20 13:35:20.66	227.54	14.26	-29.7	-32.3	19.2	6.06e-01	0	43	0	185597952	21	4848
2026-01-20 13:35:21.66	227.72	14.33	-29.7	-32.3	19.2	6.07e-01	0	43	0	187695104	21	4855
2026-01-20 13:35:22.67	227.90	14.41	-29.8	-32.4	19.2	6.04e-01	0	43	0	189792256	21	4864
2026-01-20 13:35:23.67	228.09	14.48	-29.6	-32.0	19.4	6.05e-01	0	43	0	191365120	21	4720
2026-01-20 13:35:24.67	228.28	14.56	-29.9	-32.7	18.9	6.06e-01	0	43	0	193462272	21	4993
2026-01-20 13:35:25.67	228.46	14.63	-29.8	-32.4	19.1	6.07e-01	0	43	0	195035136	21	4885
2026-01-20 13:35:26.68	228.65	14.71	-29.8	-32.5	19.0	6.07e-01	0	43	0	197132288	21	4912
2026-01-20 13:35:27.68	228.84	14.78	-29.7	-32.3	19.3	6.06e-01	0	43	0	198705152	21	4831
2026-01-20 13:35:28.68	229.03	14.86	-29.8	-32.5	19.1	6.07e-01	0	43	0	200802304	21	4902
2026-01-20 13:35:29.69	229.22	14.93	-29.8	-32.5	19.1	6.07e-01	0	43	0	202899456	21	4885
2026-01-20 13:35:30.69	229.42	15.01	-30.0	-32.9	18.9	6.07e-01	0	43	0	204472320	21	5037
2026-01-20 13:35:31.69	229.61	15.08	-29.9	-32.7	19.0	6.07e-01	0	43	0	206569472	21	4960
2026-01-20 13:35:32.69	229.80	15.15	-29.7	-32.3	19.3	6.05e-01	0	43	0	208142336	21	4840
2026-01-20 13:35:33.70	230.00	15.23	-29.7	-32.3	19.3	6.06e-01	0	43	0	210239488	21	4820
2026-01-20 13:35:34.71	230.20	15.30	-29.8	-32.5	19.1	6.05e-01	0	43	0	212336640	21	4902
2026-01-20 13:35:35.71	230.39	15.38	-29.8	-32.5	19.1	6.07e-01	0	43	0	213909504	21	4888
2026-01-20 13:35:36.71	230.59	15.45	-29.9	-32.8	19.0	6.05e-01	0	43	0	216006656	21	5009
2026-01-20 13:35:37.71	230.79	15.53	-30.0	-33.0	18.8	6.06e-01	0	43	0	217579520	21	5081
2026-01-20 13:35:38.71	230.99	15.60	-29.9	-32.7	19.0	6.08e-01	0	43	0	219676672	21	4956
2026-01-20 13:35:39.72	231.19	15.67	-29.8	-32.5	19.1	6.04e-01	0	43	0	221773824	21	4909
2026-01-20 13:35:40.72	231.40	15.75	-29.8	-32.5	19.2	6.08e-01	0	43	0	223346688	21	4896
2026-01-20 13:35:41.71	231.60	15.82	-29.9	-32.7	19.1	6.03e-01	0	43	0	225443840	21	4968
2026-01-20 13:35:42.71	231.80	15.89	-29.8	-32.4	19.3	6.09e-01	0	43	0	227016704	21	4860
2026-01-20 13:35:43.71	232.01	15.97	-29.9	-32.7	19.1	6.05e-01	0	43	0	229113856	21	4950
2026-01-20 13:35:44.72	232.21	16.04	-29.9	-32.7	19.1	6.06e-01	0	43	0	230686720	21	4957
2026-01-20 13:35:45.73	232.42	16.12	-29.7	-32.2	19.4	6.06e-01	0	43	0	232783872	21	4791
2026-01-20 13:35:46.73	232.63	16.19	-29.6	-32.0	19.5	6.06e-01	0	44	0	234881024	21	4708
2026-01-20 13:35:47.73	232.84	16.26	-29.7	-32.1	19.4	6.06e-01	0	43	0	236453888	21	4765
2026-01-20 13:35:48.73	233.05	16.33	-29.7	-32.1	19.5	6.06e-01	0	43	0	238551040	21	4749
2026-01-20 13:35:49.74	233.26	16.41	-29.6	-31.9	19.6	6.08e-01	0	43	0	240123904	21	4672
2026-01-20 13:35:50.74	233.48	16.48	-29.7	-32.2	19.4	6.05e-01	0	43	0	242221056	21	4778
2026-01-20 13:35:51.75	233.69	16.55	-29.7	-32.1	19.5	6.05e-01	0	44	0	244318208	21	4748
2026-01-20 13:35:52.75	233.91	16.63	-29.7	-32.1	19.5	6.03e-01	0	44	0	245891072	21	4735
2026-01-20 13:35:53.76	234.12	16.70	-29.7	-32.0	19.5	6.07e-01	0	44	0	247988224	21	4719
2026-01-20 13:35:54.76	234.34	16.77	-29.8	-32.4	19.4	6.06e-01	0	43	0	249561088	21	4828
2026-01-20 13:35:55.76	234.56	16.84	-29.9	-32.7	19.2	6.07e-01	0	44	0	251658240	21	4936
2026-01-20 13:35:56.76	234.78	16.92	-30.0	-32.8	19.1	6.05e-01	0	44	0	253755392	21	4982
2026-01-20 13:35:57.77	235.00	16.99	-29.9	-32.7	19.2	6.05e-01	0	44	0	255328256	21	4953
2026-01-20 13:35:58.76	235.22	17.06	-29.8	-32.5	19.3	6.05e-01	0	44	0	257425408	21	4866
2026-01-20 13:35:59.76	235.44	17.13	-29.9	-32.5	19.3	6.07e-01	0	44	0	258998272	21	4876
2026-01-20 13:36:00.77	235.67	17.20	-29.9	-32.7	19.2	6.07e-01	0	43	0	261095424	21	4943
2026-01-20 13:36:01.76	235.89	17.27	-30.0	-32.8	19.1	6.05e-01	0	44	0	262668288	21	4990
2026-01-20 13:36:02.77	236.12	17.34	-29.8	-32.4	19.3	6.06e-01	0	44	0	264765440	21	4851
2026-01-20 13:36:03.77	236.34	17.42	-29.6	-31.9	19.6	6.06e-01	0	44	0	266862592	21	4690
2026-01-20 13:36:04.77	236.57	17.49	-29.7	-32.2	19.5	6.06e-01	0	44	0	268435456	21	4763
2026-01-20 13:36:05.78	236.80	17.56	-29.7	-32.1	19.6	6.06e-01	0	44	0	270532608	21	4744
2026-01-20 13:36:06.78	237.03	17.63	-29.8	-32.4	19.4	6.05e-01	0	44	0	272105472	21	4848
2026-01-20 13:36:07.79	237.27	17.70	-29.7	-32.2	19.5	6.06e-01	0	44	0	274202624	21	4764
2026-01-20 13:36:08.79	237.50	17.77	-29.7	-32.1	19.6	6.07e-01	0	43	0	275775488	21	4754
2026-01-20 13:36:09.80	237.73	17.84	-30.0	-33.0	19.1	6.05e-01	0	44	0	277872640	21	5032
2026-01-20 13:36:10.80	237.97	17.91	-29.9	-32.6	19.3	6.08e-01	0	44	0	279969792	21	4910
2026-01-20 13:36:11.80	238.20	17.98	-29.8	-32.3	19.5	6.06e-01	0	44	0	281542656	21	4799
2026-01-20 13:36:12.79	238.44	18.04	-29.7	-32.1	19.5	6.08e-01	0	44	0	283639808	21	4744
2026-01-20 13:36:13.79	238.67	18.11	-29.7	-32.1	19.6	6.08e-01	0	43	0	285212672	21	4728
2026-01-20 13:36:14.80	238.92	18.18	-29.7	-32.1	19.6	6.08e-01	0	44	0	287309824	21	4722
2026-01-20 13:36:15.80	239.16	18.25	-29.7	-32.0	19.6	6.05e-01	0	44	0	289406976	21	4714
2026-01-20 13:36:16.80	239.40	18.32	-29.8	-32.2	19.6	6.04e-01	0	44	0	290979840	21	4770
2026-01-20 13:36:17.80	239.64	18.38	-29.8	-32.2	19.6	6.08e-01	0	44	0	293076992	21	4762
2026-01-20 13:36:18.80	239.88	18.45	-29.7	-32.1	19.6	6.07e-01	0	44	0	294649856	21	4723
2026-01-20 13:36:19.80	240.13	18.52	-29.7	-32.1	19.6	6.06e-01	0	44	0	296747008	21	4739
2026-01-20 13:36:20.81	240.37	18.59	-29.9	-32.5	19.4	6.08e-01	0	44	0	298844160	21	4883
2026-01-20 13:36:21.81	240.62	18.65	-29.9	-32.5	19.3	6.04e-01	0	44	0	300417024	21	4876
2026-01-20 13:36:22.81	240.87	18.72	-29.9	-32.6	19.3	6.06e-01	0	43	0	302514176	21	4895
2026-01-20 13:36:23.82	241.12	18.79	-30.0	-32.7	19.3	6.04e-01	0	44	0	304087040	21	4948
2026-01-20 13:36:24.83	241.37	18.85	-30.0	-32.7	19.3	6.06e-01	0	43	0	306184192	21	4943
2026-01-20 13:36:25.83	241.62	18.92	-30.0	-32.9	19.1	6.06e-01	0	44	0	307757056	21	4990
2026-01-20 13:36:26.83	241.88	18.98	-29.9	-32.4	19.5	6.06e-01	0	44	0	309854208	21	4839
2026-01-20 13:36:27.83	242.13	19.05	-29.9	-32.5	19.4	6.06e-01	0	44	0	311951360	21	4852
2026-01-20 13:36:28.84	242.39	19.11	-29.9	-32.5	19.4	6.05e-01	0	44	0	313524224	21	4872
2026-01-20 13:36:29.84	242.64	19.17	-30.1	-33.1	19.1	6.05e-01	0	44	0	315621376	21	5079
2026-01-20 13:36:30.85	242.90	19.24	-30.0	-32.9	19.2	6.05e-01	0	44	0	317194240	21	5008
2026-01-20 13:36:31.85	243.16	19.30	-29.8	-32.3	19.5	6.05e-01	0	44	0	319291392	21	4780
2026-01-20 13:36:32.85	243.42	19.36	-29.8	-32.2	19.6	6.06e-01	0	44	0	321388544	21	4772
2026-01-20 13:36:33.85	243.68	19.43	-29.9	-32.6	19.4	6.03e-01	0	44	0	322961408	21	4890
2026-01-20 13:36:34.86	243.94	19.49	-29.8	-32.2	19.6	6.06e-01	0	44	0	325058560	21	4764
2026-01-20 13:36:35.87	244.20	19.55	-29.9	-32.5	19.4	6.05e-01	0	44	0	326631424	21	4859
2026-01-20 13:36:36.87	244.47	19.61	-29.9	-32.5	19.4	6.05e-01	0	44	0	328728576	21	4853
2026-01-20 13:36:37.86	244.73	19.67	-29.9	-32.5	19.5	6.06e-01	0	44	0	330825728	21	4853
2026-01-20 13:36:38.86	244.99	19.73	-30.0	-32.7	19.3	6.05e-01	0	44	0	332398592	21	4934
2026-01-20 13:36:39.87	245.26	19.79	-29.8	-32.4	19.5	6.07e-01	0	43	0	334495744	21	4818
2026-01-20 13:36:40.87	245.53	19.85	-29.9	-32.5	19.4	6.06e-01	0	44	0	336068608	21	4872
2026-01-20 13:36:41.88	245.80	19.91	-29.9	-32.5	19.4	6.05e-01	0	44	0	338165760	21	4871
2026-01-20 13:36:42.89	246.07	19.97	-29.8	-32.3	19.6	6.05e-01	0	44	0	339738624	21	4794
2026-01-20 13:36:43.89	246.34	20.03	-30.0	-32.8	19.3	6.05e-01	0	44	0	341835776	21	4967
2026-01-20 13:36:44.90	246.62	20.09	-30.0	-32.7	19.4	6.09e-01	0	44	0	343932928	21	4914
2026-01-20 13:36:45.90	246.89	20.14	-29.9	-32.4	19.5	6.07e-01	0	44	0	345505792	21	4829
2026-01-20 13:36:46.91	247.17	20.20	-30.0	-32.7	19.3	6.06e-01	0	43	0	347602944	21	4941
2026-01-20 13:36:47.91	247.44	20.26	-29.9	-32.6	19.4	6.08e-01	0	44	0	349175808	21	4872
2026-01-20 13:36:48.91	247.72	20.31	-30.0	-32.9	19.3	6.06e-01	0	44	0	351272960	21	4983
2026-01-20 13:36:49.92	248.00	20.37	-29.9	-32.5	19.5	6.06e-01	0	44	0	353370112	21	4849
2026-01-20 13:36:50.92	248.28	20.42	-29.9	-32.5	19.5	6.06e-01	0	44	0	354942976	21	4869
2026-01-20 13:36:51.92	248.55	20.48	-30.0	-32.7	19.4	6.05e-01	0	44	0	357040128	21	4927
2026-01-20 13:36:52.92	248.83	20.53	-29.9	-32.4	19.5	6.07e-01	0	44	0	358612992	21	4827
2026-01-20 13:36:53.93	249.12	20.58	-29.9	-32.4	19.6	6.04e-01	0	44	0	360710144	21	4827
2026-01-20 13:36:54.93	249.40	20.64	-29.9	-32.5	19.5	6.05e-01	0	44	0	362807296	21	4866
2026-01-20 13:36:55.94	249.69	20.69	-30.0	-32.8	19.3	6.07e-01	0	44	0	364380160	21	4953
2026-01-20 13:36:56.94	249.97	20.74	-30.0	-32.8	19.3	6.06e-01	0	44	0	366477312	21	4966
2026-01-20 13:36:57.95	250.26	20.79	-29.9	-32.4	19.6	6.06e-01	0	44	0	368050176	21	4826
2026-01-20 13:36:58.95	250.54	20.84	-30.1	-33.0	19.2	6.08e-01	0	44	0	370147328	21	5019
2026-01-20 13:36:59.95	250.83	20.89	-30.0	-32.7	19.4	6.07e-01	0	44	0	372244480	21	4912
2026-01-20 13:37:00.96	251.12	20.94	-30.0	-32.8	19.3	6.05e-01	0	44	0	373817344	21	4954
2026-01-20 13:37:01.96	251.41	20.99	-30.0	-32.8	19.4	6.06e-01	0	44	0	375914496	21	4938
2026-01-20 13:37:02.96	251.70	21.04	-30.0	-32.9	19.3	6.07e-01	0	44	0	377487360	21	4976
2026-01-20 13:37:03.96	251.99	21.08	-30.1	-33.1	19.1	6.07e-01	0	44	0	379584512	21	5071
2026-01-20 13:37:04.96	252.28	21.13	-30.1	-32.9	19.2	6.06e-01	0	44	0	381157376	21	5006
2026-01-20 13:37:05.97	252.57	21.18	-30.2	-33.3	19.0	6.07e-01	0	44	0	383254528	21	5142
2026-01-20 13:37:06.96	252.87	21.22	-30.0	-32.8	19.3	6.05e-01	0	44	0	385351680	21	4976
2026-01-20 13:37:07.97	253.16	21.27	-30.0	-32.8	19.3	6.06e-01	0	44	0	386924544	21	4946
2026-01-20 13:37:08.97	253.46	21.31	-30.0	-32.8	19.3	6.05e-01	0	44	0	389021696	21	4953
2026-01-20 13:37:09.97	253.75	21.35	-29.9	-32.4	19.5	6.06e-01	0	44	0	390594560	21	4835
2026-01-20 13:37:10.97	254.05	21.40	-30.0	-32.9	19.3	6.07e-01	0	44	0	392691712	21	4993
2026-01-20 13:37:11.97	254.35	21.44	-30.0	-32.9	19.2	6.06e-01	0	44	0	394264576	21	4990
2026-01-20 13:37:12.97	254.64	21.48	-30.0	-32.8	19.3	6.05e-01	0	44	0	396361728	21	4979
2026-01-20 13:37:13.97	254.94	21.52	-30.1	-33.1	19.2	6.08e-01	0	44	0	398458880	21	5067
2026-01-20 13:37:14.98	255.25	21.56	-30.1	-33.1	19.1	6.08e-01	0	44	0	400031744	21	5079
2026-01-20 13:37:15.98	255.55	21.60	-30.2	-33.4	19.0	6.06e-01	0	44	0	402128896	21	5174
2026-01-20 13:37:16.98	255.85	21.64	-30.1	-33.0	19.2	6.04e-01	0	44	0	403701760	21	5023
2026-01-20 13:37:17.98	256.15	21.68	-30.2	-33.3	19.0	6.06e-01	0	44	0	405798912	21	5145
2026-01-20 13:37:18.99	256.46	21.71	-30.2	-33.4	19.0	6.05e-01	0	44	0	407896064	21	5166
2026-01-20 13:37:19.99	256.76	21.75	-30.2	-33.2	19.1	6.05e-01	0	44	0	409468928	21	5114
2026-01-20 13:37:20.99	257.06	21.79	-30.4	-33.9	18.7	6.03e-01	0	44	0	411566080	21	5352
2026-01-20 13:37:22.00	257.37	21.82	-30.3	-33.5	18.9	6.07e-01	0	44	0	413138944	21	5219
2026-01-20 13:37:23.00	257.68	21.86	-30.1	-33.0	19.2	6.06e-01	0	44	0	415236096	21	5027
2026-01-20 13:37:24.00	257.98	21.89	-30.2	-33.1	19.2	6.07e-01	0	44	0	417333248	21	5072
2026-01-20 13:37:25.01	258.29	21.92	-30.4	-33.8	18.8	6.09e-01	0	44	0	418906112	21	5323
2026-01-20 13:37:26.00	258.60	21.95	-30.3	-33.4	19.0	6.07e-01	0	44	0	421003264	21	5168
2026-01-20 13:37:27.01	258.91	21.99	-30.2	-33.3	19.0	6.06e-01	0	44	0	422576128	21	5143
2026-01-20 13:37:28.01	259.22	22.02	-30.3	-33.6	18.9	6.05e-01	0	44	0	424673280	21	5256
2026-01-20 13:37:29.02	259.53	22.05	-30.2	-33.3	19.1	6.04e-01	0	44	0	426246144	21	5125
2026-01-20 13:37:30.02	259.84	22.07	-30.2	-33.3	19.1	6.04e-01	0	44	0	428343296	21	5132
2026-01-20 13:37:31.02	260.15	22.10	-30.4	-33.8	18.8	6.06e-01	0	44	0	430440448	21	5307
2026-01-20 13:37:32.02	260.46	22.13	-30.3	-33.5	18.9	6.05e-01	0	44	0	432013312	21	5204
2026-01-20 13:37:33.03	260.78	22.16	-30.5	-34.1	18.6	6.05e-01	0	44	0	434110464	21	5460
2026-01-20 13:37:34.03	261.09	22.18	-30.3	-33.5	18.9	6.06e-01	0	44	0	435683328	21	5203
2026-01-20 13:37:35.03	261.40	22.21	-30.2	-33.2	19.1	6.05e-01	0	44	0	437780480	21	5099
2026-01-20 13:37:36.04	261.72	22.23	-30.1	-33.0	19.3	6.07e-01	0	44	0	439877632	21	5018
2026-01-20 13:37:37.03	262.03	22.25	-30.1	-33.1	19.2	6.05e-01	0	44	0	441450496	21	5045
2026-01-20 13:37:38.03	262.35	22.28	-30.1	-33.1	19.2	6.07e-01	0	44	0	443547648	21	5045
2026-01-20 13:37:39.04	262.66	22.30	-30.1	-33.0	19.2	6.06e-01	0	44	0	445120512	21	5042
2026-01-20 13:37:40.04	262.98	22.32	-30.1	-33.1	19.2	6.07e-01	0	44	0	447217664	21	5062
2026-01-20 13:37:41.04	263.30	22.34	-30.4	-33.7	18.9	6.06e-01	0	44	0	449314816	21	5281
2026-01-20 13:37:42.04	263.61	22.36	-30.1	-33.1	19.2	6.04e-01	0	44	0	450887680	21	5054
2026-01-20 13:37:43.04	263.93	22.38	-30.0	-32.8	19.4	6.08e-01	0	44	0	452984832	21	4951
2026-01-20 13:37:44.04	264.25	22.39	-30.2	-33.2	19.1	6.07e-01	0	44	0	454557696	21	5102
2026-01-20 13:37:45.04	264.56	22.41	-30.1	-33.0	19.2	6.05e-01	0	44	0	456654848	21	5039
2026-01-20 13:37:46.05	264.88	22.43	-30.2	-33.1	19.2	6.05e-01	0	44	0	458227712	21	5063
2026-01-20 13:37:47.05	265.20	22.44	-30.3	-33.5	18.9	6.07e-01	0	44	0	460324864	21	5216
2026-01-20 13:37:48.06	265.52	22.46	-30.2	-33.3	19.1	6.07e-01	0	44	0	462422016	21	5133
2026-01-20 13:37:49.06	265.84	22.47	-30.1	-33.0	19.3	6.06e-01	0	44	0	463994880	21	5006
2026-01-20 13:37:50.07	266.16	22.48	-30.2	-33.2	19.2	6.07e-01	0	44	0	466092032	21	5091
2026-01-20 13:37:51.07	266.48	22.49	-30.1	-33.0	19.3	6.03e-01	0	44	0	467664896	21	5020
2026-01-20 13:37:52.08	266.80	22.50	-30.2	-33.2	19.1	6.05e-01	0	44	0	469762048	21	5113
2026-01-20 13:37:53.08	267.12	22.51	-30.3	-33.5	19.0	6.04e-01	0	44	0	471334912	21	5203
2026-01-20 13:37:54.08	267.44	22.52	-30.2	-33.4	19.0	6.08e-01	0	44	0	473432064	21	5157
2026-01-20 13:37:55.09	267.77	22.53	-30.1	-33.1	19.3	6.04e-01	0	44	0	475529216	21	5037
2026-01-20 13:37:56.09	268.08	22.54	-30.2	-33.2	19.2	6.05e-01	0	44	0	477102080	21	5105
2026-01-20 13:37:57.09	268.40	22.54	-30.4	-33.9	18.7	6.08e-01	0	44	0	479199232	21	5337
2026-01-20 13:37:58.10	268.73	22.55	-30.3	-33.5	19.0	6.06e-01	0	44	0	481296384	21	5205
2026-01-20 13:37:59.10	269.05	22.55	-30.4	-33.9	18.7	6.06e-01	0	44	0	482869248	21	5340
2026-01-20 13:38:00.11	269.37	22.56	-30.3	-33.5	19.0	6.05e-01	0	44	0	484966400	21	5201
2026-01-20 13:38:01.11	269.69	22.56	-30.2	-33.3	19.1	6.08e-01	0	44	0	486539264	21	5135
2026-01-20 13:38:02.12	270.02	22.56	-30.2	-33.1	19.2	6.06e-01	0	44	0	488636416	21	5070
2026-01-20 13:38:03.13	270.34	22.56	-30.2	-33.3	19.1	6.07e-01	0	44	0	490209280	21	5121
2026-01-20 13:38:04.13	270.66	22.56	-30.4	-33.7	18.9	6.07e-01	0	44	0	492306432	21	5258
2026-01-20 13:38:05.14	270.98	22.56	-30.5	-34.0	18.6	6.06e-01	0	44	0	494403584	21	5399
2026-01-20 13:38:06.14	271.30	22.56	-30.3	-33.4	19.1	6.06e-01	0	44	0	495976448	21	5145
2026-01-20 13:38:07.14	271.62	22.56	-30.1	-32.9	19.3	6.05e-01	0	44	0	498073600	21	4988
2026-01-20 13:38:08.14	271.94	22.55	-30.2	-33.1	19.2	6.06e-01	0	44	0	499646464	21	5064
2026-01-20 13:38:09.14	272.26	22.55	-30.2	-33.3	19.1	6.04e-01	0	44	0	501743616	21	5121
2026-01-20 13:38:10.15	272.59	22.54	-30.3	-33.6	19.0	6.04e-01	0	44	0	503840768	21	5220
2026-01-20 13:38:11.15	272.91	22.54	-30.4	-33.7	18.9	6.08e-01	0	44	0	505413632	21	5262
2026-01-20 13:38:12.15	273.23	22.53	-30.2	-33.3	19.1	6.05e-01	0	44	0	507510784	21	5116
2026-01-20 13:38:13.15	273.55	22.52	-30.2	-33.3	19.1	6.06e-01	0	44	0	509083648	21	5121
2026-01-20 13:38:14.16	273.87	22.51	-30.3	-33.4	19.1	6.07e-01	0	44	0	511180800	21	5151
2026-01-20 13:38:15.16	274.19	22.50	-30.2	-33.1	19.2	6.04e-01	0	44	0	513277952	21	5064
2026-01-20 13:38:16.16	274.51	22.49	-30.2	-33.3	19.1	6.06e-01	0	44	0	514850816	21	5132
2026-01-20 13:38:17.17	274.83	22.48	-30.2	-33.2	19.2	6.05e-01	0	44	0	516947968	21	5100
2026-01-20 13:38:18.17	275.15	22.47	-30.3	-33.5	19.0	6.07e-01	0	44	0	518520832	21	5212
2026-01-20 13:38:19.17	275.46	22.45	-30.3	-33.4	19.0	6.06e-01	0	44	0	520617984	21	5169
2026-01-20 13:38:20.18	275.79	22.44	-30.4	-33.6	18.9	6.06e-01	0	44	0	522190848	21	5250
2026-01-20 13:38:21.19	276.11	22.43	-30.4	-33.8	18.8	6.03e-01	0	44	0	524288000	21	5309
2026-01-20 13:38:22.20	276.43	22.41	-30.3	-33.5	19.0	6.05e-01	0	44	0	526385152	21	5206
2026-01-20 13:38:23.20	276.74	22.39	-30.2	-33.1	19.2	6.06e-01	0	44	0	527958016	21	5048
2026-01-20 13:38:24.20	277.06	22.38	-30.1	-33.0	19.3	6.05e-01	0	44	0	530055168	21	5030
2026-01-20 13:38:25.20	277.38	22.36	-30.2	-33.1	19.2	6.07e-01	0	44	0	531628032	21	5055
2026-01-20 13:38:26.21	277.69	22.34	-30.1	-32.9	19.3	6.05e-01	0	44	0	533725184	21	4993
2026-01-20 13:38:27.21	278.01	22.32	-30.1	-33.1	19.3	6.07e-01	0	44	0	535822336	21	5049
2026-01-20 13:38:28.21	278.32	22.30	-30.2	-33.3	19.1	6.06e-01	0	44	0	537395200	21	5128
2026-01-20 13:38:29.21	278.64	22.28	-30.1	-33.0	19.3	6.06e-01	0	44	0	539492352	21	5021
2026-01-20 13:38:30.21	278.95	22.25	-30.1	-32.9	19.4	6.05e-01	0	44	0	541065216	21	4963
2026-01-20 13:38:31.22	279.27	22.23	-30.2	-33.3	19.1	6.08e-01	0	44	0	543162368	21	5137
2026-01-20 13:38:32.23	279.58	22.21	-30.3	-33.4	19.1	6.05e-01	0	44	0	544735232	21	5148
2026-01-20 13:38:33.23	279.90	22.18	-30.1	-33.1	19.3	6.07e-01	0	44	0	546832384	21	5044
2026-01-20 13:38:34.24	280.21	22.15	-30.2	-33.2	19.2	6.07e-01	0	44	0	548929536	21	5097
2026-01-20 13:38:35.23	280.52	22.13	-30.2	-33.2	19.2	6.04e-01	0	44	0	550502400	21	5077
2026-01-20 13:38:36.24	280.83	22.10	-30.2	-33.2	19.2	6.08e-01	0	44	0	552599552	21	5079
2026-01-20 13:38:37.24	281.14	22.07	-30.2	-33.3	19.1	6.07e-01	0	44	0	554696704	21	5123
2026-01-20 13:38:38.25	281.46	22.04	-30.2	-33.1	19.2	6.06e-01	0	44	0	556269568	21	5057
2026-01-20 13:38:39.26	281.77	22.01	-30.1	-32.9	19.4	6.06e-01	0	44	0	558366720	21	4971
2026-01-20 13:38:40.26	282.08	21.98	-30.2	-33.1	19.2	6.08e-01	0	44	0	559939584	21	5059
2026-01-20 13:38:41.26	282.38	21.95	-30.1	-32.8	19.4	6.04e-01	0	44	0	562036736	21	4962
2026-01-20 13:38:42.27	282.69	21.92	-30.2	-33.2	19.2	6.06e-01	0	44	0	563609600	21	5084
2026-01-20 13:38:43.27	283.00	21.89	-30.3	-33.4	19.1	6.07e-01	0	44	0	565706752	21	5154
2026-01-20 13:38:44.28	283.31	21.85	-30.1	-32.9	19.4	6.03e-01	0	44	0	567803904	21	4967
2026-01-20 13:38:45.28	283.61	21.82	-30.1	-33.0	19.3	6.07e-01	0	44	0	569376768	21	5027
2026-01-20 13:38:46.27	283.92	21.78	-30.3	-33.3	19.1	6.06e-01	0	44	0	571473920	21	5140
2026-01-20 13:38:47.27	284.22	21.75	-30.1	-32.9	19.3	6.05e-01	0	44	0	573046784	21	4987
2026-01-20 13:38:48.28	284.52	21.71	-30.1	-32.8	19.4	6.08e-01	0	44	0	575143936	21	4952
2026-01-20 13:38:49.29	284.83	21.68	-30.3	-33.4	19.1	6.06e-01	0	44	0	577241088	21	5148
2026-01-20 13:38:50.29	285.13	21.64	-30.3	-33.4	19.1	6.05e-01	0	44	0	578813952	21	5147
2026-01-20 13:38:51.29	285.43	21.60	-30.2	-33.3	19.1	6.06e-01	0	44	0	580911104	21	5130
2026-01-20 13:38:52.29	285.73	21.56	-30.1	-32.8	19.4	6.05e-01	0	44	0	582483968	21	4959
2026-01-20 13:38:53.28	286.03	21.52	-30.0	-32.8	19.4	6.06e-01	0	44	0	584581120	21	4931
2026-01-20 13:38:54.29	286.33	21.48	-30.1	-33.0	19.3	6.07e-01	0	44	0	586153984	21	5028
2026-01-20 13:38:55.29	286.63	21.44	-30.2	-33.1	19.3	6.08e-01	0	44	0	588251136	21	5049
2026-01-20 13:38:56.29	286.92	21.40	-30.1	-33.0	19.3	6.06e-01	0	44	0	590348288	21	5013
2026-01-20 13:38:57.29	287.22	21.35	-30.2	-33.2	19.2	6.06e-01	0	44	0	591921152	21	5070
2026-01-20 13:38:58.29	287.51	21.31	-30.1	-33.1	19.3	6.06e-01	0	44	0	594018304	21	5047
2026-01-20 13:38:59.29	287.81	21.27	-30.1	-33.1	19.3	6.06e-01	0	44	0	595591168	21	5033
2026-01-20 13:39:00.30	288.10	21.22	-30.1	-32.9	19.3	6.05e-01	0	44	0	597688320	21	4973
2026-01-20 13:39:01.30	288.39	21.18	-30.1	-33.0	19.2	6.08e-01	0	44	0	599785472	21	5028
2026-01-20 13:39:02.30	288.68	21.13	-30.2	-33.3	19.1	6.07e-01	0	44	0	601358336	21	5137
2026-01-20 13:39:03.31	288.98	21.08	-30.3	-33.4	19.1	6.07e-01	0	44	0	603455488	21	5159
2026-01-20 13:39:04.31	289.27	21.04	-30.3	-33.5	19.0	6.07e-01	0	44	0	605028352	21	5200
2026-01-20 13:39:05.31	289.56	20.99	-30.3	-33.4	19.0	6.05e-01	0	44	0	607125504	21	5153
2026-01-20 13:39:06.31	289.84	20.94	-30.3	-33.5	19.0	6.06e-01	0	44	0	608698368	21	5208
2026-01-20 13:39:07.32	290.13	20.89	-30.3	-33.6	18.9	6.04e-01	0	44	0	610795520	21	5223
2026-01-20 13:39:08.31	290.42	20.84	-30.2	-33.3	19.1	6.06e-01	0	44	0	612892672	21	5109
2026-01-20 13:39:09.32	290.70	20.79	-30.2	-33.2	19.2	6.04e-01	0	44	0	614465536	21	5082
2026-01-20 13:39:10.32	290.99	20.74	-30.2	-33.3	19.1	6.07e-01	0	44	0	616562688	21	5133
2026-01-20 13:39:11.33	291.27	20.69	-30.4	-33.7	18.8	6.05e-01	0	44	0	618135552	21	5271
2026-01-20 13:39:12.33	291.55	20.64	-30.3	-33.4	19.0	6.04e-01	0	44	0	620232704	21	5172
2026-01-20 13:39:13.34	291.84	20.59	-30.4	-33.7	18.8	6.05e-01	0	44	0	621805568	21	5284
2026-01-20 13:39:14.34	292.12	20.53	-30.3	-33.5	19.0	6.06e-01	0	44	0	623902720	21	5189
2026-01-20 13:39:15.35	292.40	20.48	-30.4	-33.6	18.9	6.06e-01	0	44	0	625999872	21	5247
2026-01-20 13:39:16.35	292.68	20.43	-30.1	-32.9	19.3	6.07e-01	0	44	0	627572736	21	4998
2026-01-20 13:39:17.35	292.95	20.37	-30.1	-32.9	19.3	6.06e-01	0	44	0	629669888	21	4990
2026-01-20 13:39:18.34	293.23	20.32	-30.1	-32.9	19.3	6.04e-01	0	44	0	631767040	21	4990
2026-01-20 13:39:19.35	293.50	20.26	-30.1	-32.8	19.4	6.06e-01	0	44	0	633339904	21	4958
2026-01-20 13:39:20.34	293.77	20.21	-30.3	-33.5	19.0	6.06e-01	0	44	0	635437056	21	5184
2026-01-20 13:39:21.34	294.05	20.15	-30.2	-33.3	19.0	6.06e-01	0	44	0	637009920	21	5145
2026-01-20 13:39:22.34	294.32	20.09	-30.3	-33.6	18.9	6.07e-01	0	44	0	639107072	21	5245
2026-01-20 13:39:23.35	294.59	20.04	-30.4	-33.7	18.8	6.04e-01	0	44	0	640679936	21	5270
2026-01-20 13:39:24.35	294.86	19.98	-30.2	-33.1	19.2	6.08e-01	0	44	0	642777088	21	5068
2026-01-20 13:39:25.35	295.13	19.92	-30.1	-32.9	19.3	6.08e-01	0	44	0	644874240	21	4982
2026-01-20 13:39:26.36	295.40	19.86	-30.1	-32.8	19.3	6.07e-01	0	44	0	646447104	21	4966
2026-01-20 13:39:27.36	295.66	19.80	-30.1	-33.0	19.3	6.07e-01	0	44	0	648544256	21	5019
2026-01-20 13:39:28.37	295.93	19.74	-30.1	-32.9	19.3	6.04e-01	0	44	0	650117120	21	4971
2026-01-20 13:39:29.38	296.20	19.68	-30.1	-33.1	19.2	6.07e-01	0	44	0	652214272	21	5040
2026-01-20 13:39:30.38	296.46	19.62	-30.2	-33.2	19.1	6.05e-01	0	44	0	653787136	21	5103
2026-01-20 13:39:31.38	296.72	19.56	-30.1	-33.0	19.3	6.06e-01	0	44	0	655884288	21	5018
2026-01-20 13:39:32.39	296.99	19.50	-30.1	-32.9	19.3	6.05e-01	0	44	0	657981440	21	4979
2026-01-20 13:39:33.39	297.25	19.44	-30.1	-32.9	19.4	6.07e-01	0	44	0	659554304	21	4968
2026-01-20 13:39:34.40	297.51	19.37	-30.1	-32.8	19.4	6.05e-01	0	44	0	661651456	21	4964
2026-01-20 13:39:35.40	297.77	19.31	-30.1	-32.9	19.3	6.07e-01	0	44	0	663748608	21	4986
2026-01-20 13:39:36.40	298.02	19.25	-30.1	-33.0	19.2	6.05e-01	0	44	0	665321472	21	5011
2026-01-20 13:39:37.40	298.28	19.19	-30.1	-33.1	19.2	6.04e-01	0	44	0	667418624	21	5041
2026-01-20 13:39:38.40	298.53	19.12	-29.9	-32.5	19.5	6.06e-01	0	44	0	668991488	21	4859
2026-01-20 13:39:39.41	298.79	19.06	-29.9	-32.5	19.6	6.06e-01	0	44	0	671088640	21	4836
2026-01-20 13:39:40.41	299.04	19.00	-29.9	-32.5	19.6	6.06e-01	0	44	0	672661504	21	4845
2026-01-20 13:39:41.41	299.29	18.93	-30.1	-32.9	19.3	6.07e-01	0	44	0	674758656	21	4984
2026-01-20 13:39:42.42	299.54	18.87	-30.2	-33.2	19.1	6.05e-01	0	44	0	676855808	21	5093
2026-01-20 13:39:43.42	299.79	18.80	-30.2	-33.2	19.1	6.07e-01	0	44	0	678428672	21	5096
2026-01-20 13:39:44.43	300.04	18.73	-30.1	-33.0	19.2	6.06e-01	0	44	0	680525824	21	5008
2026-01-20 13:39:45.43	300.29	18.67	-30.0	-32.7	19.4	6.04e-01	0	44	0	682098688	21	4934
2026-01-20 13:39:46.44	300.54	18.60	-30.0	-32.7	19.4	6.07e-01	0	44	0	684195840	21	4915
2026-01-20 13:39:47.44	300.78	18.54	-30.0	-32.6	19.5	6.05e-01	0	44	0	685768704	21	4885
2026-01-20 13:39:48.43	301.02	18.47	-30.0	-32.7	19.4	6.07e-01	0	44	0	687865856	21	4904
2026-01-20 13:39:49.43	301.26	18.40	-30.1	-33.0	19.2	6.05e-01	0	44	0	689963008	21	5039
2026-01-20 13:39:50.43	301.50	18.34	-30.1	-33.1	19.1	6.07e-01	0	44	0	691535872	21	5053
2026-01-20 13:39:51.43	301.74	18.27	-30.0	-32.9	19.3	6.03e-01	0	44	0	693633024	21	4976
2026-01-20 13:39:52.44	301.99	18.20	-30.0	-32.7	19.4	6.06e-01	0	44	0	695205888	21	4926
2026-01-20 13:39:53.43	302.22	18.13	-30.0	-32.6	19.5	6.06e-01	0	44	0	697303040	21	4885
2026-01-20 13:39:54.44	302.46	18.07	-30.0	-32.7	19.4	6.08e-01	0	44	0	698875904	21	4927
2026-01-20 13:39:55.44	302.69	18.00	-30.0	-32.8	19.3	6.06e-01	0	44	0	700973056	21	4942
2026-01-20 13:39:56.44	302.93	17.93	-30.0	-32.8	19.4	6.08e-01	0	44	0	703070208	21	4939
2026-01-20 13:39:57.45	303.16	17.86	-30.0	-32.8	19.3	6.05e-01	0	44	0	704643072	21	4962
2026-01-20 13:39:58.45	303.40	17.79	-30.0	-32.8	19.3	6.05e-01	0	44	0	706740224	21	4965
2026-01-20 13:39:59.46	303.63	17.72	-29.9	-32.5	19.5	6.07e-01	0	44	0	708837376	21	4851
2026-01-20 13:40:00.46	303.86	17.65	-29.9	-32.5	19.5	6.06e-01	0	44	0	710410240	21	4855
2026-01-20 13:40:01.47	304.09	17.58	-30.0	-32.7	19.4	6.05e-01	0	44	0	712507392	21	4911
2026-01-20 13:40:02.47	304.32	17.51	-30.0	-32.8	19.3	6.05e-01	0	44	0	714080256	21	4945
2026-01-20 13:40:03.47	304.55	17.44	-30.1	-32.9	19.3	6.06e-01	0	44	0	716177408	21	4990
2026-01-20 13:40:04.47	304.77	17.37	-30.0	-32.6	19.4	6.05e-01	0	44	0	717750272	21	4899
2026-01-20 13:40:05.47	305.00	17.30	-30.0	-32.7	19.3	6.03e-01	0	44	0	719847424	21	4934
2026-01-20 13:40:06.48	305.22	17.23	-30.0	-32.7	19.4	6.06e-01	0	44	0	721944576	21	4914
2026-01-20 13:40:07.48	305.44	17.16	-29.9	-32.6	19.4	6.06e-01	0	44	0	723517440	21	4890
2026-01-20 13:40:08.48	305.66	17.09	-30.0	-32.8	19.3	6.05e-01	0	44	0	725614592	21	4957
2026-01-20 13:40:09.48	305.88	17.02	-30.0	-32.8	19.3	6.07e-01	0	44	0	727187456	21	4962
2026-01-20 13:40:10.48	306.10	16.95	-30.0	-32.9	19.3	6.06e-01	0	44	0	729284608	21	4987
2026-01-20 13:40:11.48	306.32	16.87	-30.1	-33.0	19.2	6.04e-01	0	44	0	730857472	21	5019
2026-01-20 13:40:12.48	306.54	16.80	-30.1	-32.9	19.2	6.07e-01	0	44	0	732954624	21	5005
2026-01-20 13:40:13.49	306.76	16.73	-30.1	-33.0	19.2	6.05e-01	0	44	0	735051776	21	5030
2026-01-20 13:40:14.49	306.97	16.66	-30.0	-32.8	19.3	6.04e-01	0	44	0	736624640	21	4951
2026-01-20 13:40:15.50	307.19	16.59	-30.1	-33.1	19.1	6.08e-01	0	44	0	738721792	21	5056
2026-01-20 13:40:16.51	307.40	16.51	-30.2	-33.2	19.0	6.05e-01	0	44	0	740294656	21	5107
2026-01-20 13:40:17.51	307.61	16.44	-30.0	-32.7	19.3	6.05e-01	0	44	0	742391808	21	4930
2026-01-20 13:40:18.51	307.82	16.37	-29.9	-32.5	19.5	6.07e-01	0	44	0	744488960	21	4874
2026-01-20 13:40:19.52	308.03	16.30	-29.9	-32.6	19.4	6.06e-01	0	44	0	746061824	21	4886
2026-01-20 13:40:20.52	308.24	16.22	-30.0	-32.7	19.3	6.08e-01	0	44	0	748158976	21	4942
2026-01-20 13:40:21.53	308.45	16.15	-30.0	-32.9	19.2	6.05e-01	0	44	0	749731840	21	4987
2026-01-20 13:40:22.53	308.66	16.08	-30.1	-32.9	19.2	6.03e-01	0	44	0	751828992	21	5005
2026-01-20 13:40:23.53	308.86	16.01	-30.1	-33.0	19.1	6.07e-01	0	44	0	753926144	21	5047
2026-01-20 13:40:24.53	309.07	15.93	-30.1	-33.0	19.1	6.07e-01	0	44	0	755499008	21	5047
2026-01-20 13:40:25.53	309.27	15.86	-30.1	-32.9	19.2	6.06e-01	0	44	0	757596160	21	5018
2026-01-20 13:40:26.53	309.47	15.79	-30.1	-33.2	19.0	6.05e-01	0	44	0	759169024	21	5098
2026-01-20 13:40:27.53	309.67	15.71	-30.2	-33.2	19.0	6.07e-01	0	44	0	761266176	21	5113
2026-01-20 13:40:28.53	309.87	15.64	-30.1	-33.1	19.1	6.06e-01	0	44	0	762839040	21	5064
2026-01-20 13:40:29.53	310.07	15.57	-30.1	-33.1	19.0	6.05e-01	0	44	0	764936192	21	5081
2026-01-20 13:40:30.54	310.27	15.49	-30.3	-33.5	18.8	6.06e-01	0	44	0	767033344	21	5230
2026-01-20 13:40:31.54	310.47	15.42	-30.2	-33.4	18.9	6.06e-01	0	44	0	768606208	21	5189
2026-01-20 13:40:32.54	310.67	15.35	-30.1	-33.1	19.0	6.09e-01	0	44	0	770703360	21	5068
2026-01-20 13:40:33.55	310.86	15.27	-30.2	-33.2	19.0	6.06e-01	0	44	0	772276224	21	5101
2026-01-20 13:40:34.56	311.06	15.20	-30.2	-33.3	18.9	6.07e-01	0	44	0	774373376	21	5143
2026-01-20 13:40:35.57	311.25	15.12	-30.0	-32.9	19.2	6.03e-01	0	44	0	776470528	21	4999
2026-01-20 13:40:36.57	311.44	15.05	-30.0	-32.7	19.3	6.06e-01	0	44	0	778043392	21	4922
2026-01-20 13:40:37.57	311.64	14.98	-30.0	-32.8	19.2	6.05e-01	0	44	0	780140544	21	4967
2026-01-20 13:40:38.57	311.83	14.90	-30.0	-32.9	19.1	6.03e-01	0	44	0	781713408	21	4990
2026-01-20 13:40:39.57	312.01	14.83	-30.1	-33.1	19.1	6.07e-01	0	44	0	783810560	21	5063
2026-01-20 13:40:40.58	312.20	14.76	-30.0	-32.8	19.1	6.07e-01	0	44	0	785907712	21	4984
2026-01-20 13:40:41.58	312.39	14.68	-30.1	-33.1	19.0	6.04e-01	0	44	0	787480576	21	5078
2026-01-20 13:40:42.58	312.58	14.61	-30.1	-33.1	19.0	6.08e-01	0	44	0	789577728	21	5072
2026-01-20 13:40:43.58	312.76	14.53	-30.2	-33.3	18.9	6.06e-01	0	44	0	791150592	21	5152
2026-01-20 13:40:44.58	312.95	14.46	-30.1	-33.2	19.0	6.08e-01	0	44	0	793247744	21	5100
2026-01-20 13:40:45.58	313.13	14.39	-30.0	-32.9	19.1	6.06e-01	0	44	0	794820608	21	4987
2026-01-20 13:40:46.59	313.31	14.31	-30.0	-32.9	19.1	6.06e-01	0	44	0	796917760	21	5008
2026-01-20 13:40:47.60	313.50	14.24	-30.0	-32.9	19.1	6.08e-01	0	44	0	799014912	21	5009
2026-01-20 13:40:48.60	313.68	14.16	-30.0	-32.9	19.1	6.07e-01	0	44	0	800587776	21	5011
2026-01-20 13:40:49.61	313.86	14.09	-30.0	-32.8	19.2	6.05e-01	0	44	0	802684928	21	4968
2026-01-20 13:40:50.61	314.04	14.02	-30.0	-32.8	19.1	6.07e-01	0	44	0	804257792	21	4989
2026-01-20 13:40:51.61	314.22	13.94	-30.1	-33.0	19.0	6.05e-01	0	44	0	806354944	21	5066
2026-01-20 13:40:52.62	314.39	13.87	-30.1	-33.2	19.0	6.05e-01	0	44	0	808452096	21	5102
2026-01-20 13:40:53.63	314.57	13.79	-30.1	-33.1	19.0	6.05e-01	0	44	0	810024960	21	5068
2026-01-20 13:40:54.63	314.75	13.72	-30.1	-33.1	18.9	6.05e-01	0	44	0	812122112	21	5101
2026-01-20 13:40:55.63	314.92	13.65	-30.1	-33.2	19.0	6.07e-01	0	44	0	813694976	21	5113
2026-01-20 13:40:56.63	315.09	13.57	-30.1	-33.2	18.9	6.05e-01	0	44	0	815792128	21	5112
2026-01-20 13:40:57.63	315.26	13.50	-30.2	-33.3	18.8	6.03e-01	0	44	0	817364992	21	5176
2026-01-20 13:40:58.64	315.44	13.42	-30.2	-33.3	18.8	6.06e-01	0	44	0	819462144	21	5171
2026-01-20 13:40:59.63	315.61	13.35	-30.1	-33.1	19.0	6.06e-01	0	44	0	821559296	21	5076
2026-01-20 13:41:00.64	315.78	13.28	-30.1	-33.1	18.9	6.08e-01	0	44	0	823132160	21	5103
2026-01-20 13:41:01.64	315.95	13.20	-30.3	-33.5	18.7	6.05e-01	0	44	0	825229312	21	5244
2026-01-20 13:41:02.64	316.11	13.13	-30.3	-33.7	18.6	6.06e-01	0	44	0	827326464	21	5292
2026-01-20 13:41:03.64	316.28	13.06	-30.2	-33.3	18.8	6.06e-01	0	44	0	828899328	21	5159
2026-01-20 13:41:04.65	316.45	12.98	-30.1	-33.2	18.8	6.06e-01	0	44	0	830996480	21	5128
2026-01-20 13:41:05.65	316.61	12.91	-30.3	-33.6	18.6	6.07e-01	0	44	0	832569344	21	5286
2026-01-20 13:41:06.66	316.78	12.84	-30.2	-33.4	18.7	6.07e-01	0	44	0	834666496	21	5206
2026-01-20 13:41:07.66	316.94	12.76	-30.3	-33.6	18.6	6.07e-01	0	44	0	836239360	21	5298
2026-01-20 13:41:08.66	317.10	12.69	-30.2	-33.5	18.6	6.06e-01	0	44	0	838336512	21	5231
2026-01-20 13:41:09.66	317.27	12.62	-30.1	-33.1	18.9	6.02e-01	0	44	0	840433664	21	5103
2026-01-20 13:41:10.67	317.43	12.54	-30.1	-33.1	19.0	5.98e-01	0	44	0	842006528	21	5077
2026-01-20 13:41:11.67	317.59	12.47	-30.1	-33.2	18.9	6.01e-01	0	44	0	844103680	21	5114
2026-01-20 13:41:12.67	317.75	12.40	-30.1	-33.2	18.8	6.02e-01	0	44	0	845676544	21	5144
2026-01-20 13:41:13.67	317.91	12.32	-30.3	-33.6	18.6	6.00e-01	0	44	0	847773696	21	5282
2026-01-20 13:41:14.68	318.07	12.25	-30.2	-33.5	18.6	6.01e-01	0	44	0	849346560	21	5236
2026-01-20 13:41:15.67	318.22	12.18	-30.2	-33.5	18.6	6.04e-01	0	44	0	851443712	21	5226
2026-01-20 13:41:16.67	318.38	12.11	-30.2	-33.5	18.6	6.01e-01	0	44	0	853540864	21	5249
2026-01-20 13:41:17.67	318.53	12.03	-30.2	-33.4	18.7	6.00e-01	0	44	0	855113728	21	5196
2026-01-20 13:41:18.67	318.69	11.96	-30.2	-33.4	18.7	6.04e-01	0	44	0	857210880	21	5203
2026-01-20 13:41:19.67	318.84	11.89	-30.3	-33.6	18.5	6.03e-01	0	44	0	858783744	21	5295
2026-01-20 13:41:20.68	318.99	11.81	-30.3	-33.8	18.4	6.00e-01	0	44	0	860880896	21	5368
2026-01-20 13:41:21.68	319.15	11.74	-30.3	-33.8	18.4	6.01e-01	0	44	0	862453760	21	5359
2026-01-20 13:41:22.69	319.30	11.67	-30.3	-33.6	18.5	6.01e-01	0	44	0	864550912	21	5299
2026-01-20 13:41:23.69	319.45	11.60	-30.2	-33.6	18.5	6.02e-01	0	44	0	866648064	21	5275
2026-01-20 13:41:24.69	319.60	11.52	-30.3	-33.6	18.5	6.04e-01	0	44	0	868220928	21	5283
2026-01-20 13:41:25.69	319.75	11.45	-30.3	-33.8	18.5	6.01e-01	0	44	0	870318080	21	5378
2026-01-20 13:41:26.69	319.90	11.38	-30.2	-33.5	18.5	6.00e-01	0	44	0	872415232	21	5270
2026-01-20 13:41:27.69	320.04	11.31	-30.3	-33.8	18.4	6.01e-01	0	44	0	873988096	21	5363
2026-01-20 13:41:28.69	320.19	11.24	-30.4	-34.0	18.3	6.00e-01	0	44	0	876085248	21	5466
2026-01-20 13:41:29.70	320.34	11.16	-30.3	-33.8	18.3	6.02e-01	0	44	0	877658112	21	5379
2026-01-20 13:41:30.70	320.48	11.09	-30.2	-33.5	18.4	5.99e-01	0	44	0	879755264	21	5270
2026-01-20 13:41:31.70	320.63	11.02	-30.3	-33.6	18.5	5.99e-01	0	44	0	881328128	21	5308
2026-01-20 13:41:32.70	320.77	10.95	-30.3	-33.6	18.5	6.03e-01	0	44	0	883425280	21	5299
2026-01-20 13:41:33.71	320.91	10.88	-30.3	-33.8	18.4	6.02e-01	0	44	0	885522432	21	5364
2026-01-20 13:41:34.72	321.06	10.80	-30.4	-34.0	18.2	6.00e-01	0	44	0	887095296	21	5435
2026-01-20 13:41:35.72	321.20	10.73	-30.4	-33.9	18.3	5.99e-01	0	44	0	889192448	21	5400
2026-01-20 13:41:36.72	321.34	10.66	-30.3	-33.8	18.3	6.01e-01	0	44	0	890765312	21	5358
2026-01-20 13:41:37.72	321.48	10.59	-30.4	-33.9	18.2	5.98e-01	0	44	0	892862464	21	5407
2026-01-20 13:41:38.72	321.62	10.52	-30.4	-33.9	18.3	6.00e-01	0	44	0	894435328	21	5425
2026-01-20 13:41:39.73	321.76	10.45	-30.4	-33.9	18.3	6.00e-01	0	44	0	896532480	21	5405
2026-01-20 13:41:40.73	321.90	10.38	-30.5	-34.3	18.0	6.01e-01	0	44	0	898629632	21	5559
2026-01-20 13:41:41.73	322.03	10.31	-30.5	-34.3	18.1	5.97e-01	0	44	0	900202496	21	5570
2026-01-20 13:41:42.73	322.17	10.24	-30.4	-34.1	18.1	6.01e-01	0	44	0	902299648	21	5505
2026-01-20 13:41:43.74	322.31	10.17	-30.4	-34.1	18.1	6.01e-01	0	44	0	904396800	21	5504
2026-01-20 13:41:44.74	322.44	10.09	-30.5	-34.4	17.9	6.02e-01	0	44	0	905969664	21	5630
2026-01-20 13:41:45.75	322.58	10.02	-30.6	-34.1	17.8	6.00e-01	0	44	0	908066816	22	5400
2026-01-20 13:41:46.75	322.71	9.95	-30.8	-34.7	17.4	6.01e-01	0	44	0	909639680	22	5620
2026-01-20 13:41:47.76	322.85	9.88	-30.8	-34.6	17.4	6.01e-01	0	44	0	911736832	22	5586
2026-01-20 13:41:48.76	322.98	9.81	-30.7	-34.4	17.5	6.01e-01	0	44	0	913309696	22	5517
2026-01-20 13:41:49.77	323.11	9.74	-30.7	-34.5	17.6	6.01e-01	0	44	0	915406848	22	5562
2026-01-20 13:41:50.77	323.24	9.67	-30.9	-35.0	17.2	6.00e-01	0	44	0	917504000	22	5778
2026-01-20 13:41:51.77	323.37	9.60	-30.8	-34.6	17.4	6.00e-01	0	44	0	919076864	22	5590
2026-01-20 13:41:52.77	323.50	9.53	-30.8	-34.7	17.4	6.00e-01	0	44	0	921174016	22	5621
2026-01-20 13:41:53.77	323.63	9.46	-30.9	-34.9	17.3	6.01e-01	0	44	0	922746880	22	5708
2026-01-20 13:41:54.77	323.76	9.39	-30.7	-34.5	17.5	6.00e-01	0	44	0	924844032	22	5549
2026-01-20 13:41:55.77	323.89	9.32	-30.6	-34.3	17.7	5.99e-01	0	44	0	926416896	22	5465
2026-01-20 13:41:56.78	324.02	9.25	-30.7	-34.5	17.5	6.00e-01	0	44	0	928514048	22	5544
2026-01-20 13:41:57.78	324.14	9.19	-30.6	-34.3	17.6	6.02e-01	0	44	0	930611200	22	5474
2026-01-20 13:41:58.79	324.27	9.12	-30.6	-34.2	17.6	6.00e-01	0	44	0	932184064	22	5457
2026-01-20 13:41:59.80	324.40	9.05	-30.7	-34.4	17.5	6.00e-01	0	44	0	934281216	22	5509
2026-01-20 13:42:00.80	324.52	8.98	-30.7	-34.3	17.6	6.02e-01	0	44	0	935854080	22	5498
2026-01-20 13:42:01.81	324.65	8.91	-30.6	-34.1	17.7	6.02e-01	0	44	0	937951232	22	5406
2026-01-20 13:42:02.81	324.77	8.84	-30.6	-34.1	17.7	6.02e-01	0	44	0	940048384	22	5382
2026-01-20 13:42:03.82	324.90	8.77	-30.5	-33.9	17.8	5.98e-01	0	44	0	941621248	22	5306
2026-01-20 13:42:04.81	325.02	8.70	-30.6	-34.1	17.6	6.04e-01	0	44	0	943718400	22	5411
2026-01-20 13:42:05.82	325.14	8.63	-30.5	-34.0	17.7	6.03e-01	0	44	0	945291264	22	5371
2026-01-20 13:42:06.81	325.26	8.57	-30.6	-34.1	17.7	5.99e-01	0	44	0	947388416	22	5399
2026-01-20 13:42:07.82	325.38	8.50	-30.6	-34.1	17.6	6.02e-01	0	44	0	949485568	22	5423
2026-01-20 13:42:08.83	325.50	8.43	-30.8	-34.7	17.3	6.02e-01	0	44	0	951058432	22	5674
2026-01-20 13:42:09.82	325.62	8.36	-30.7	-34.6	17.3	6.02e-01	0	44	0	953155584	22	5623
2026-01-20 13:42:10.82	325.74	8.29	-30.8	-34.8	17.1	6.02e-01	0	44	0	954728448	22	5711
2026-01-20 13:42:11.82	325.86	8.22	-30.9	-35.0	17.1	5.99e-01	0	44	0	956825600	22	5788
2026-01-20 13:42:12.83	325.98	8.16	-30.9	-35.0	17.0	5.99e-01	0	44	0	958398464	22	5783
2026-01-20 13:42:13.84	326.09	8.09	-30.9	-35.2	16.8	5.98e-01	0	44	0	960495616	22	5894
2026-01-20 13:42:14.84	326.21	8.02	-30.7	-34.6	17.3	6.00e-01	0	44	0	962592768	22	5607
2026-01-20 13:42:15.85	326.33	7.95	-30.9	-35.0	17.0	6.02e-01	0	44	0	964165632	22	5798
2026-01-20 13:42:16.85	326.44	7.89	-30.9	-35.1	16.9	6.03e-01	0	44	0	966262784	22	5850
2026-01-20 13:42:17.85	326.56	7.82	-30.8	-34.8	17.1	5.99e-01	0	44	0	967835648	22	5716
2026-01-20 13:42:18.86	326.67	7.75	-30.8	-34.9	17.0	6.01e-01	0	44	0	969932800	22	5780
2026-01-20 13:42:19.86	326.79	7.68	-30.8	-34.8	17.1	5.99e-01	0	44	0	972029952	22	5722
2026-01-20 13:42:20.86	326.90	7.62	-30.9	-35.3	16.8	6.02e-01	0	44	0	973602816	22	5941
2026-01-20 13:42:21.86	327.01	7.55	-30.9	-35.1	16.9	6.03e-01	0	44	0	975699968	22	5863
2026-01-20 13:42:22.86	327.12	7.48	-30.9	-35.1	16.9	6.01e-01	0	44	0	977272832	22	5855
2026-01-20 13:42:23.86	327.24	7.42	-30.9	-35.2	16.7	6.00e-01	0	44	0	979369984	22	5924
2026-01-20 13:42:24.87	327.35	7.35	-30.9	-35.1	16.8	6.01e-01	0	44	0	980942848	22	5869
2026-01-20 13:42:25.88	327.46	7.28	-30.9	-35.2	16.8	6.01e-01	0	44	0	983040000	22	5900
2026-01-20 13:42:26.88	327.57	7.22	-31.1	-35.3	16.4	6.00e-01	0	44	0	985137152	23	5851
2026-01-20 13:42:27.89	327.68	7.15	-31.1	-35.4	16.3	6.00e-01	0	44	0	986710016	23	5903
2026-01-20 13:42:28.89	327.79	7.09	-31.0	-34.8	16.7	5.99e-01	0	44	0	988807168	23	5638
2026-01-20 13:42:29.90	327.90	7.02	-33.7	-51.4	3.9	7.47e-01	0	44	104	989855744	28	27566
2026-01-20 13:42:30.90	328.01	6.95	-34.1	-53.3	3.8	7.44e-01	0	44	104	989855744	29	32680

#Closed at: 2026-01-20 13:42:31
#Recorded file [989 MB]: D:/data/31010_260120_163341.dat