passes_logs/2026/01/20/R2M6_AANII_01/R2M6_AANII_01__20260120_101900_AQUA_rec.log

#Pass ID: 20260120_101900_AQUA
#Satellite: AQUA
#Configuration: AQUA
#almurnet v.1.7.20240730
#Start time: 2026-01-20 10:18:59

#Version: 2.2.20231116
#Station: R2M6_AANII_01
#Location: 30.233357 lon 59.946436 lat
#TLE: 1 27424U 02022A   26019.60905539  .00000968  00000+0  20374-3 0  9991
#TLE: 2 27424  98.4090 346.1140 0001992  72.7126 342.3847 14.61830366261565

#Time	Az	El	Level	Level2	SNR	BER	BlckErr	Temp	State	Recorded	gain1	gain2
2026-01-20 10:18:59.36	101.90	6.95	-32.6	-41.9	4.7	7.20e-01	0	42	0	0	27	10533
2026-01-20 10:19:00.35	101.79	7.01	-32.1	-39.1	5.0	7.13e-01	0	42	104	0	26	8110
2026-01-20 10:19:01.36	101.68	7.08	-32.1	-38.4	12.3	6.09e-01	0	42	0	0	26	7465
2026-01-20 10:19:02.36	101.57	7.15	-31.7	-37.5	13.3	6.08e-01	0	42	0	1572864	25	7013
2026-01-20 10:19:03.37	101.46	7.21	-31.4	-36.2	14.3	6.08e-01	0	42	0	3670016	25	6282
2026-01-20 10:19:04.37	101.35	7.28	-31.2	-36.0	14.7	6.09e-01	0	42	0	5242880	24	6283
2026-01-20 10:19:05.38	101.24	7.35	-31.3	-36.6	14.3	6.06e-01	0	42	0	7340032	24	6595
2026-01-20 10:19:06.38	101.12	7.41	-31.4	-37.2	13.7	6.06e-01	0	42	0	9437184	24	7011
2026-01-20 10:19:07.38	101.01	7.48	-31.5	-38.2	12.8	6.10e-01	0	42	0	11010048	24	7701
2026-01-20 10:19:08.39	100.90	7.55	-31.7	-39.5	11.4	6.15e-01	0	42	0	13107200	24	8769
2026-01-20 10:19:09.38	100.79	7.61	-31.7	-39.6	11.2	6.17e-01	0	42	0	14680064	24	8969
2026-01-20 10:19:10.39	100.67	7.68	-31.8	-40.6	10.0	6.25e-01	0	42	0	16777216	24	9963
2026-01-20 10:19:11.39	100.56	7.75	-31.6	-39.4	11.1	6.17e-01	0	42	0	18350080	24	8877
2026-01-20 10:19:12.39	100.44	7.82	-31.3	-37.8	12.5	6.10e-01	0	42	0	20447232	24	7593
2026-01-20 10:19:13.40	100.32	7.89	-31.0	-36.0	14.1	6.05e-01	0	42	0	22544384	24	6420
2026-01-20 10:19:14.39	100.21	7.95	-30.7	-35.1	15.4	6.07e-01	0	42	0	24117248	23	5989
2026-01-20 10:19:15.40	100.09	8.02	-30.4	-34.4	16.4	6.06e-01	0	42	0	26214400	22	5712
2026-01-20 10:19:16.40	99.97	8.09	-30.1	-33.5	17.2	6.05e-01	0	42	0	27787264	22	5318
2026-01-20 10:19:17.40	99.86	8.16	-30.2	-33.6	17.3	6.07e-01	0	42	0	29884416	22	5332
2026-01-20 10:19:18.40	99.74	8.22	-30.2	-33.4	17.5	6.03e-01	0	42	0	31457280	22	5225
2026-01-20 10:19:19.40	99.62	8.29	-30.1	-33.1	17.6	6.06e-01	0	42	0	33554432	22	5121
2026-01-20 10:19:20.41	99.50	8.36	-30.2	-33.4	17.5	6.07e-01	0	42	0	35651584	22	5213
2026-01-20 10:19:21.41	99.38	8.43	-30.4	-34.1	17.1	6.06e-01	0	42	0	37224448	22	5527
2026-01-20 10:19:22.41	99.26	8.50	-30.7	-34.9	16.6	6.05e-01	0	42	0	39321600	22	5883
2026-01-20 10:19:23.42	99.13	8.57	-30.6	-34.7	16.7	6.08e-01	0	42	0	41418752	22	5765
2026-01-20 10:19:24.42	99.01	8.64	-30.3	-33.7	17.3	6.06e-01	0	42	0	42991616	22	5347
2026-01-20 10:19:25.41	98.89	8.70	-30.3	-33.7	17.4	6.06e-01	0	42	0	45088768	22	5328
2026-01-20 10:19:26.41	98.76	8.77	-30.5	-34.4	16.9	6.07e-01	0	42	0	46661632	22	5675
2026-01-20 10:19:27.41	98.64	8.84	-30.8	-35.5	16.1	6.06e-01	0	43	0	48758784	22	6168
2026-01-20 10:19:28.42	98.51	8.91	-31.3	-36.6	14.8	6.07e-01	0	43	0	50331648	23	6692
2026-01-20 10:19:29.42	98.39	8.98	-31.6	-38.0	13.7	6.06e-01	0	43	0	52428800	23	7567
2026-01-20 10:19:30.42	98.26	9.05	-31.7	-38.4	12.9	6.09e-01	0	43	0	54525952	24	7750
2026-01-20 10:19:31.42	98.13	9.12	-31.9	-39.2	12.3	6.10e-01	0	43	0	56098816	24	8338
2026-01-20 10:19:32.42	98.01	9.19	-32.0	-40.1	11.4	6.14e-01	0	43	0	58195968	24	9097
2026-01-20 10:19:33.42	97.88	9.26	-32.1	-40.2	10.8	6.18e-01	0	42	0	59768832	25	9131
2026-01-20 10:19:34.43	97.75	9.33	-32.2	-40.0	11.1	6.18e-01	0	43	0	61865984	25	8858
2026-01-20 10:19:35.43	97.62	9.40	-32.1	-39.3	11.9	6.14e-01	0	43	0	63438848	25	8261
2026-01-20 10:19:36.42	97.49	9.47	-31.9	-38.0	13.1	6.08e-01	0	43	0	65536000	25	7270
2026-01-20 10:19:37.43	97.36	9.54	-31.8	-37.5	13.6	6.09e-01	0	43	0	67633152	25	6930
2026-01-20 10:19:38.43	97.23	9.61	-31.8	-37.2	13.9	6.08e-01	0	43	0	69206016	25	6750
2026-01-20 10:19:39.43	97.09	9.68	-31.7	-37.0	14.1	6.06e-01	0	43	0	71303168	25	6591
2026-01-20 10:19:40.42	96.96	9.75	-31.7	-36.9	14.2	6.08e-01	0	43	0	72876032	25	6514
2026-01-20 10:19:41.43	96.83	9.82	-31.4	-35.7	15.2	6.05e-01	0	43	0	74973184	25	5884
2026-01-20 10:19:42.42	96.69	9.89	-31.3	-35.8	15.6	6.08e-01	0	43	0	76546048	24	6008
2026-01-20 10:19:43.43	96.56	9.96	-31.2	-35.4	15.9	6.07e-01	0	43	0	78643200	24	5806
2026-01-20 10:19:44.43	96.42	10.03	-31.0	-34.7	16.3	6.07e-01	0	43	0	80740352	24	5499
2026-01-20 10:19:45.43	96.28	10.10	-30.7	-34.2	17.0	6.06e-01	0	43	0	82313216	23	5415
2026-01-20 10:19:46.43	96.15	10.17	-30.6	-34.1	17.1	6.08e-01	0	43	0	84410368	23	5350
2026-01-20 10:19:47.43	96.01	10.24	-30.7	-34.3	16.9	6.08e-01	0	43	0	85983232	23	5472
2026-01-20 10:19:48.43	95.87	10.31	-31.0	-35.2	16.3	6.05e-01	0	43	0	88080384	23	5870
2026-01-20 10:19:49.43	95.73	10.38	-31.1	-35.5	16.3	6.07e-01	0	43	0	90177536	23	5971
2026-01-20 10:19:50.43	95.59	10.45	-31.3	-36.0	15.9	6.06e-01	0	43	0	91750400	23	6207
2026-01-20 10:19:51.44	95.45	10.52	-31.0	-35.2	16.4	6.05e-01	0	43	0	93847552	23	5822
2026-01-20 10:19:52.45	95.30	10.59	-30.7	-34.2	17.2	6.09e-01	0	43	0	95420416	23	5373
2026-01-20 10:19:53.45	95.16	10.66	-30.4	-33.3	17.7	6.05e-01	0	43	0	97517568	23	5005
2026-01-20 10:19:54.46	95.02	10.74	-30.3	-33.4	18.1	6.05e-01	0	43	0	99614720	22	5160
2026-01-20 10:19:55.46	94.87	10.81	-30.4	-33.8	17.8	6.04e-01	0	43	0	101187584	22	5309
2026-01-20 10:19:56.47	94.73	10.88	-30.4	-33.7	17.9	6.05e-01	0	43	0	103284736	22	5251
2026-01-20 10:19:57.46	94.58	10.95	-30.5	-33.9	17.8	6.05e-01	0	43	0	104857600	22	5348
2026-01-20 10:19:58.46	94.43	11.02	-30.4	-33.6	17.9	6.05e-01	0	43	0	106954752	22	5218
2026-01-20 10:19:59.47	94.29	11.09	-30.3	-33.3	18.2	6.04e-01	0	43	0	108527616	22	5115
2026-01-20 10:20:00.47	94.14	11.16	-30.4	-33.6	18.1	6.07e-01	0	43	0	110624768	22	5207
2026-01-20 10:20:01.47	93.99	11.24	-30.3	-33.3	18.2	6.04e-01	0	43	0	112721920	22	5102
2026-01-20 10:20:02.47	93.84	11.31	-30.2	-33.1	18.4	6.04e-01	0	43	0	114294784	22	5013
2026-01-20 10:20:03.48	93.69	11.38	-30.3	-33.4	18.2	6.06e-01	0	43	0	116391936	22	5150
2026-01-20 10:20:04.49	93.53	11.45	-30.3	-33.4	18.2	6.07e-01	0	43	0	117964800	22	5123
2026-01-20 10:20:05.49	93.38	11.52	-30.3	-33.4	18.2	6.06e-01	0	43	0	120061952	22	5118
2026-01-20 10:20:06.49	93.23	11.59	-30.4	-33.5	18.2	6.06e-01	0	43	0	121634816	22	5152
2026-01-20 10:20:07.49	93.08	11.67	-30.3	-33.4	18.2	6.08e-01	0	43	0	123731968	22	5144
2026-01-20 10:20:08.50	92.92	11.74	-30.3	-33.2	18.4	6.05e-01	0	43	0	125829120	22	5063
2026-01-20 10:20:09.50	92.76	11.81	-30.4	-33.7	18.1	6.06e-01	0	43	0	127401984	22	5224
2026-01-20 10:20:10.51	92.61	11.88	-30.4	-33.4	18.2	6.06e-01	0	43	0	129499136	22	5137
2026-01-20 10:20:11.51	92.45	11.95	-30.3	-33.4	18.3	6.04e-01	0	43	0	131596288	22	5105
2026-01-20 10:20:12.52	92.29	12.03	-30.3	-33.3	18.4	6.06e-01	0	43	0	133169152	22	5076
2026-01-20 10:20:13.52	92.13	12.10	-30.3	-33.2	18.5	6.05e-01	0	43	0	135266304	22	5025
2026-01-20 10:20:14.53	91.97	12.17	-30.4	-33.4	18.3	6.06e-01	0	43	0	136839168	22	5132
2026-01-20 10:20:15.53	91.81	12.24	-30.4	-33.6	18.3	6.04e-01	0	43	0	138936320	22	5168
2026-01-20 10:20:16.52	91.65	12.31	-30.3	-33.3	18.5	6.07e-01	0	43	0	140509184	22	5056
2026-01-20 10:20:17.53	91.49	12.39	-30.3	-33.2	18.5	6.05e-01	0	43	0	142606336	22	5024
2026-01-20 10:20:18.52	91.32	12.46	-30.3	-33.2	18.5	6.08e-01	0	43	0	144703488	22	5047
2026-01-20 10:20:19.53	91.16	12.53	-30.2	-33.0	18.6	6.04e-01	0	43	0	146276352	22	4954
2026-01-20 10:20:20.53	90.99	12.60	-30.4	-33.5	18.4	6.07e-01	0	43	0	148373504	22	5129
2026-01-20 10:20:21.53	90.83	12.68	-30.4	-33.5	18.3	6.08e-01	0	43	0	149946368	22	5130
2026-01-20 10:20:22.53	90.66	12.75	-30.4	-33.4	18.4	6.04e-01	0	43	0	152043520	22	5106
2026-01-20 10:20:23.54	90.49	12.82	-30.5	-33.7	18.2	6.05e-01	0	43	0	153616384	22	5229
2026-01-20 10:20:24.54	90.33	12.89	-30.5	-33.8	18.2	6.07e-01	0	43	0	155713536	22	5242
2026-01-20 10:20:25.55	90.15	12.97	-30.4	-33.6	18.3	6.06e-01	0	43	0	157810688	22	5157
2026-01-20 10:20:26.56	89.98	13.04	-30.4	-33.4	18.4	6.06e-01	0	43	0	159383552	22	5100
2026-01-20 10:20:27.56	89.81	13.11	-30.4	-33.5	18.4	6.05e-01	0	43	0	161480704	22	5124
2026-01-20 10:20:28.57	89.64	13.18	-30.4	-33.5	18.4	6.05e-01	0	43	0	163577856	22	5133
2026-01-20 10:20:29.57	89.47	13.26	-30.3	-33.2	18.6	6.06e-01	0	44	0	165150720	22	5000
2026-01-20 10:20:30.57	89.29	13.33	-30.3	-33.2	18.6	6.05e-01	0	43	0	167247872	22	5029
2026-01-20 10:20:31.57	89.12	13.40	-30.3	-33.1	18.7	6.05e-01	0	43	0	168820736	22	4980
2026-01-20 10:20:32.58	88.94	13.47	-30.3	-33.0	18.8	6.05e-01	0	43	0	170917888	22	4954
2026-01-20 10:20:33.58	88.76	13.54	-30.3	-33.2	18.7	6.06e-01	0	43	0	172490752	22	5009
2026-01-20 10:20:34.58	88.59	13.62	-30.4	-33.3	18.6	6.04e-01	0	44	0	174587904	22	5050
2026-01-20 10:20:35.58	88.41	13.69	-30.4	-33.5	18.5	6.04e-01	0	44	0	176685056	22	5113
2026-01-20 10:20:36.59	88.23	13.76	-30.4	-33.3	18.6	6.07e-01	0	43	0	178257920	22	5046
2026-01-20 10:20:37.59	88.05	13.83	-30.3	-33.0	18.8	6.06e-01	0	43	0	180355072	22	4942
2026-01-20 10:20:38.60	87.86	13.91	-30.3	-33.1	18.8	6.03e-01	0	43	0	181927936	22	4959
2026-01-20 10:20:39.60	87.68	13.98	-30.4	-33.3	18.6	6.06e-01	0	44	0	184025088	22	5052
2026-01-20 10:20:40.60	87.50	14.05	-30.3	-33.2	18.7	6.05e-01	0	44	0	185597952	22	4990
2026-01-20 10:20:41.60	87.31	14.12	-30.4	-33.3	18.7	6.06e-01	0	43	0	187695104	22	5035
2026-01-20 10:20:42.60	87.13	14.19	-30.4	-33.3	18.6	6.06e-01	0	44	0	189792256	22	5056
2026-01-20 10:20:43.61	86.94	14.27	-30.3	-33.1	18.8	6.07e-01	0	43	0	191365120	22	4982
2026-01-20 10:20:44.61	86.75	14.34	-30.4	-33.2	18.7	6.07e-01	0	44	0	193462272	22	5002
2026-01-20 10:20:45.61	86.56	14.41	-30.5	-33.5	18.5	6.06e-01	0	44	0	195559424	22	5123
2026-01-20 10:20:46.61	86.38	14.48	-30.4	-33.3	18.6	6.05e-01	0	44	0	197132288	22	5053
2026-01-20 10:20:47.61	86.19	14.55	-30.5	-33.5	18.5	6.06e-01	0	43	0	199229440	22	5114
2026-01-20 10:20:48.61	86.00	14.62	-30.5	-33.6	18.5	6.05e-01	0	43	0	200802304	22	5167
2026-01-20 10:20:49.61	85.80	14.69	-30.4	-33.4	18.6	6.08e-01	0	44	0	202899456	22	5081
2026-01-20 10:20:50.61	85.61	14.77	-30.4	-33.4	18.7	6.05e-01	0	44	0	204472320	22	5056
2026-01-20 10:20:51.62	85.41	14.84	-30.5	-33.7	18.4	6.06e-01	0	43	0	206569472	22	5171
2026-01-20 10:20:52.62	85.22	14.91	-30.7	-34.1	18.2	6.07e-01	0	44	0	208666624	22	5358
2026-01-20 10:20:53.63	85.02	14.98	-30.5	-33.6	18.4	6.06e-01	0	43	0	210239488	22	5152
2026-01-20 10:20:54.63	84.82	15.05	-30.4	-33.2	18.7	6.07e-01	0	44	0	212336640	22	5006
2026-01-20 10:20:55.63	84.63	15.12	-30.4	-33.4	18.6	6.05e-01	0	44	0	213909504	22	5074
2026-01-20 10:20:56.63	84.43	15.19	-30.4	-33.4	18.6	6.08e-01	0	44	0	216006656	22	5067
2026-01-20 10:20:57.63	84.23	15.26	-30.5	-33.7	18.5	6.08e-01	0	44	0	217579520	22	5188
2026-01-20 10:20:58.63	84.03	15.33	-30.5	-33.6	18.5	6.05e-01	0	44	0	219676672	22	5155
2026-01-20 10:20:59.64	83.82	15.40	-30.5	-33.7	18.5	6.06e-01	0	44	0	221773824	22	5187
2026-01-20 10:21:00.64	83.62	15.48	-30.5	-33.6	18.5	6.06e-01	0	44	0	223346688	22	5145
2026-01-20 10:21:01.64	83.42	15.55	-30.5	-33.5	18.6	6.07e-01	0	44	0	225443840	22	5110
2026-01-20 10:21:02.63	83.21	15.61	-30.4	-33.3	18.7	6.04e-01	0	44	0	227016704	22	5028
2026-01-20 10:21:03.64	83.00	15.69	-30.6	-33.9	18.4	6.07e-01	0	44	0	229113856	22	5269
2026-01-20 10:21:04.64	82.80	15.75	-30.6	-33.8	18.4	6.06e-01	0	44	0	230686720	22	5221
2026-01-20 10:21:05.65	82.59	15.83	-30.4	-33.3	18.7	6.06e-01	0	44	0	232783872	22	5049
2026-01-20 10:21:06.65	82.38	15.89	-30.3	-33.0	18.9	6.05e-01	0	44	0	234881024	22	4928
2026-01-20 10:21:07.65	82.17	15.96	-30.3	-32.9	19.0	6.05e-01	0	44	0	236453888	22	4902
2026-01-20 10:21:08.65	81.96	16.03	-30.2	-32.8	19.0	6.05e-01	0	44	0	238551040	22	4853
2026-01-20 10:21:09.66	81.74	16.10	-30.3	-32.9	19.0	6.06e-01	0	44	0	240123904	22	4895
2026-01-20 10:21:10.65	81.53	16.17	-30.3	-33.1	18.9	6.06e-01	0	44	0	242221056	22	4961
2026-01-20 10:21:11.66	81.31	16.24	-30.4	-33.3	18.8	6.06e-01	0	44	0	244318208	22	5038
2026-01-20 10:21:12.66	81.10	16.31	-30.4	-33.4	18.7	6.07e-01	0	44	0	245891072	22	5078
2026-01-20 10:21:13.67	80.88	16.38	-30.4	-33.3	18.8	6.05e-01	0	44	0	247988224	22	5019
2026-01-20 10:21:14.68	80.66	16.45	-30.4	-33.4	18.8	6.06e-01	0	44	0	249561088	22	5054
2026-01-20 10:21:15.68	80.44	16.51	-30.4	-33.2	18.9	6.07e-01	0	44	0	251658240	22	4986
2026-01-20 10:21:16.68	80.22	16.58	-30.3	-33.1	18.9	6.05e-01	0	44	0	253755392	22	4959
2026-01-20 10:21:17.69	80.00	16.65	-30.4	-33.4	18.7	6.07e-01	0	44	0	255328256	22	5054
2026-01-20 10:21:18.69	79.78	16.72	-30.5	-33.5	18.7	6.04e-01	0	44	0	257425408	22	5099
2026-01-20 10:21:19.69	79.55	16.78	-30.5	-33.6	18.6	6.06e-01	0	44	0	258998272	22	5151
2026-01-20 10:21:20.69	79.33	16.85	-30.5	-33.7	18.6	6.05e-01	0	44	0	261095424	22	5157
2026-01-20 10:21:21.69	79.10	16.92	-30.4	-33.4	18.8	6.05e-01	0	44	0	262668288	22	5055
2026-01-20 10:21:22.69	78.88	16.98	-30.3	-33.1	18.9	6.05e-01	0	44	0	264765440	22	4970
2026-01-20 10:21:23.70	78.65	17.05	-30.4	-33.4	18.8	6.06e-01	0	44	0	266862592	22	5077
2026-01-20 10:21:24.70	78.42	17.12	-30.4	-33.3	18.8	6.07e-01	0	44	0	268435456	22	5019
2026-01-20 10:21:25.70	78.19	17.18	-30.3	-33.0	19.0	6.07e-01	0	44	0	270532608	22	4933
2026-01-20 10:21:26.70	77.96	17.25	-30.4	-33.2	18.9	6.09e-01	0	44	0	272105472	22	4970
2026-01-20 10:21:27.70	77.73	17.31	-30.5	-33.4	18.7	6.06e-01	0	44	0	274202624	22	5065
2026-01-20 10:21:28.71	77.49	17.38	-30.5	-33.7	18.6	6.07e-01	0	44	0	276299776	22	5159
2026-01-20 10:21:29.71	77.26	17.44	-30.5	-33.6	18.7	6.06e-01	0	44	0	277872640	22	5138
2026-01-20 10:21:30.71	77.02	17.51	-30.5	-33.5	18.8	6.05e-01	0	44	0	279969792	22	5080
2026-01-20 10:21:31.71	76.79	17.57	-30.5	-33.4	18.8	6.06e-01	0	44	0	281542656	22	5066
2026-01-20 10:21:32.72	76.55	17.64	-30.4	-33.3	18.9	6.08e-01	0	44	0	283639808	22	5001
2026-01-20 10:21:33.72	76.31	17.70	-30.6	-33.8	18.5	6.06e-01	0	44	0	285736960	22	5200
2026-01-20 10:21:34.72	76.07	17.76	-30.5	-33.6	18.7	6.06e-01	0	44	0	287309824	22	5147
2026-01-20 10:21:35.73	75.83	17.82	-30.5	-33.6	18.7	6.07e-01	0	44	0	289406976	22	5118
2026-01-20 10:21:36.73	75.59	17.89	-30.6	-33.7	18.7	6.07e-01	0	44	0	290979840	22	5164
2026-01-20 10:21:37.73	75.35	17.95	-30.5	-33.6	18.6	6.08e-01	0	44	0	293076992	22	5138
2026-01-20 10:21:38.74	75.10	18.01	-30.5	-33.5	18.8	6.07e-01	0	44	0	294649856	22	5075
2026-01-20 10:21:39.73	74.86	18.07	-30.4	-33.4	18.8	6.06e-01	0	44	0	296747008	22	5038
2026-01-20 10:21:40.74	74.61	18.13	-30.4	-33.3	18.8	6.04e-01	0	44	0	298844160	22	5026
2026-01-20 10:21:41.73	74.37	18.19	-30.4	-33.3	18.9	6.06e-01	0	44	0	300417024	22	5014
2026-01-20 10:21:42.73	74.12	18.25	-30.6	-33.7	18.7	6.05e-01	0	44	0	302514176	22	5155
2026-01-20 10:21:43.74	73.87	18.32	-30.5	-33.5	18.7	6.06e-01	0	44	0	304087040	22	5108
2026-01-20 10:21:44.74	73.62	18.37	-30.5	-33.7	18.7	6.05e-01	0	44	0	306184192	22	5150
2026-01-20 10:21:45.75	73.37	18.43	-30.6	-33.9	18.5	6.06e-01	0	44	0	307757056	22	5256
2026-01-20 10:21:46.75	73.11	18.49	-30.6	-33.9	18.6	6.06e-01	0	44	0	309854208	22	5232
2026-01-20 10:21:47.76	72.86	18.55	-30.5	-33.5	18.7	6.06e-01	0	44	0	311951360	22	5103
2026-01-20 10:21:48.77	72.60	18.61	-30.5	-33.6	18.7	6.07e-01	0	44	0	313524224	22	5130
2026-01-20 10:21:49.77	72.35	18.67	-30.5	-33.6	18.7	6.09e-01	0	44	0	315621376	22	5111
2026-01-20 10:21:50.78	72.09	18.73	-30.6	-33.8	18.6	6.04e-01	0	44	0	317718528	22	5205
2026-01-20 10:21:51.77	71.84	18.78	-30.5	-33.6	18.7	6.06e-01	0	44	0	319291392	22	5141
2026-01-20 10:21:52.77	71.58	18.84	-30.4	-33.3	19.0	6.07e-01	0	44	0	321388544	22	5011
2026-01-20 10:21:53.78	71.32	18.90	-30.5	-33.4	18.9	6.06e-01	0	44	0	322961408	22	5046
2026-01-20 10:21:54.79	71.05	18.95	-30.5	-33.4	18.9	6.07e-01	0	44	0	325058560	22	5044
2026-01-20 10:21:55.79	70.79	19.01	-30.5	-33.5	18.8	6.07e-01	0	44	0	326631424	22	5103
2026-01-20 10:21:56.79	70.53	19.06	-30.6	-33.7	18.6	6.04e-01	0	44	0	328728576	22	5182
2026-01-20 10:21:57.80	70.27	19.12	-30.5	-33.6	18.7	6.06e-01	0	44	0	330825728	22	5137
2026-01-20 10:21:58.80	70.00	19.17	-30.5	-33.5	18.8	6.05e-01	0	44	0	332398592	22	5099
2026-01-20 10:21:59.79	69.74	19.22	-30.6	-33.7	18.7	6.07e-01	0	44	0	334495744	22	5166
2026-01-20 10:22:00.80	69.47	19.28	-30.6	-33.9	18.5	6.06e-01	0	44	0	336068608	22	5232
2026-01-20 10:22:01.80	69.21	19.33	-30.7	-34.0	18.5	6.08e-01	0	44	0	338165760	22	5291
2026-01-20 10:22:02.81	68.93	19.38	-30.7	-34.1	18.4	6.06e-01	0	44	0	339738624	22	5303
2026-01-20 10:22:03.81	68.67	19.43	-30.7	-34.0	18.4	6.07e-01	0	44	0	341835776	22	5288
2026-01-20 10:22:04.81	68.40	19.48	-30.7	-34.1	18.5	6.05e-01	0	44	0	343932928	22	5318
2026-01-20 10:22:05.81	68.13	19.53	-30.8	-34.5	18.2	6.04e-01	0	44	0	345505792	22	5457
2026-01-20 10:22:06.82	67.85	19.58	-30.8	-34.4	18.2	6.05e-01	0	44	0	347602944	22	5440
2026-01-20 10:22:07.83	67.58	19.63	-30.7	-34.1	18.5	6.05e-01	0	44	0	349175808	22	5329
2026-01-20 10:22:08.83	67.30	19.68	-30.9	-34.5	18.2	6.05e-01	0	44	0	351272960	22	5484
2026-01-20 10:22:09.84	67.03	19.73	-30.7	-34.1	18.4	6.07e-01	0	44	0	353370112	22	5330
2026-01-20 10:22:10.84	66.75	19.77	-30.6	-33.7	18.7	6.06e-01	0	44	0	354942976	22	5154
2026-01-20 10:22:11.84	66.48	19.82	-30.6	-33.6	18.7	6.06e-01	0	44	0	357040128	22	5122
2026-01-20 10:22:12.84	66.20	19.87	-30.6	-33.8	18.7	6.04e-01	0	44	0	358612992	22	5189
2026-01-20 10:22:13.84	65.92	19.91	-30.6	-33.7	18.7	6.07e-01	0	44	0	360710144	22	5146
2026-01-20 10:22:14.84	65.64	19.96	-30.6	-33.8	18.7	6.06e-01	0	44	0	362807296	22	5191
2026-01-20 10:22:15.84	65.36	20.00	-30.5	-33.4	18.9	6.07e-01	0	44	0	364380160	22	5046
2026-01-20 10:22:16.85	65.08	20.05	-30.7	-33.9	18.6	6.06e-01	0	44	0	366477312	22	5219
2026-01-20 10:22:17.84	64.80	20.09	-30.7	-34.0	18.5	6.06e-01	0	44	0	368050176	22	5253
2026-01-20 10:22:18.84	64.52	20.13	-30.7	-34.0	18.5	6.05e-01	0	44	0	370147328	22	5245
2026-01-20 10:22:19.83	64.24	20.17	-30.8	-34.3	18.4	6.05e-01	0	44	0	371720192	22	5376
2026-01-20 10:22:20.84	63.95	20.22	-30.8	-34.2	18.5	6.06e-01	0	44	0	373817344	22	5324
2026-01-20 10:22:21.85	63.67	20.26	-30.9	-34.4	18.3	6.05e-01	0	44	0	375914496	22	5417
2026-01-20 10:22:22.85	63.38	20.30	-30.8	-34.3	18.4	6.07e-01	0	44	0	377487360	22	5374
2026-01-20 10:22:23.86	63.09	20.34	-30.7	-34.0	18.6	6.08e-01	0	44	0	379584512	22	5268
2026-01-20 10:22:24.87	62.80	20.38	-30.7	-33.9	18.5	6.07e-01	0	44	0	381157376	22	5243
2026-01-20 10:22:25.87	62.51	20.41	-30.7	-33.9	18.6	6.06e-01	0	44	0	383254528	22	5221
2026-01-20 10:22:26.87	62.23	20.45	-30.7	-34.0	18.6	6.06e-01	0	44	0	385351680	22	5250
2026-01-20 10:22:27.87	61.94	20.49	-30.7	-34.1	18.5	6.06e-01	0	44	0	386924544	22	5280
2026-01-20 10:22:28.86	61.65	20.52	-30.8	-34.2	18.5	6.07e-01	0	44	0	389021696	22	5342
2026-01-20 10:22:29.86	61.36	20.56	-30.7	-34.0	18.6	6.05e-01	0	44	0	390594560	22	5239
2026-01-20 10:22:30.86	61.07	20.59	-30.7	-34.0	18.6	6.06e-01	0	44	0	392691712	22	5244
2026-01-20 10:22:31.86	60.78	20.63	-30.7	-34.0	18.7	6.06e-01	0	44	0	394264576	22	5251
2026-01-20 10:22:32.87	60.48	20.66	-30.7	-33.9	18.6	6.06e-01	0	44	0	396361728	22	5226
2026-01-20 10:22:33.87	60.19	20.69	-30.8	-34.3	18.4	6.07e-01	0	44	0	398458880	22	5364
2026-01-20 10:22:34.87	59.89	20.73	-30.7	-34.0	18.5	6.04e-01	0	44	0	400031744	22	5256
2026-01-20 10:22:35.88	59.60	20.76	-30.7	-33.9	18.7	6.03e-01	0	44	0	402128896	22	5193
2026-01-20 10:22:36.88	59.30	20.79	-30.7	-33.8	18.7	6.05e-01	0	44	0	403701760	22	5184
2026-01-20 10:22:37.88	59.01	20.82	-30.6	-33.6	18.8	6.06e-01	0	44	0	405798912	22	5115
2026-01-20 10:22:38.88	58.71	20.85	-30.7	-33.9	18.7	6.07e-01	0	44	0	407896064	22	5212
2026-01-20 10:22:39.88	58.41	20.87	-30.7	-34.0	18.6	6.04e-01	0	44	0	409468928	22	5251
2026-01-20 10:22:40.88	58.11	20.90	-30.7	-33.9	18.7	6.07e-01	0	44	0	411566080	22	5225
2026-01-20 10:22:41.89	57.81	20.93	-30.8	-34.1	18.6	6.06e-01	0	44	0	413138944	22	5295
2026-01-20 10:22:42.89	57.52	20.96	-31.0	-34.7	18.2	6.06e-01	0	44	0	415236096	22	5511
2026-01-20 10:22:43.89	57.22	20.98	-30.9	-34.4	18.3	6.06e-01	0	44	0	416808960	22	5405
2026-01-20 10:22:44.89	56.92	21.00	-30.7	-34.0	18.6	6.06e-01	0	44	0	418906112	22	5267
2026-01-20 10:22:45.89	56.62	21.03	-30.6	-33.7	18.8	6.04e-01	0	44	0	421003264	22	5129
2026-01-20 10:22:46.90	56.31	21.05	-30.7	-34.0	18.7	6.06e-01	0	44	0	422576128	22	5230
2026-01-20 10:22:47.90	56.01	21.07	-30.7	-33.9	18.7	6.04e-01	0	44	0	424673280	22	5220
2026-01-20 10:22:48.91	55.71	21.10	-30.5	-33.5	18.9	6.05e-01	0	44	0	426246144	22	5049
2026-01-20 10:22:49.91	55.41	21.12	-30.8	-34.2	18.4	6.06e-01	0	44	0	428343296	22	5348
2026-01-20 10:22:50.92	55.10	21.14	-30.8	-34.1	18.5	6.05e-01	0	44	0	430440448	22	5298
2026-01-20 10:22:51.92	54.80	21.15	-30.8	-34.1	18.6	6.06e-01	0	44	0	432013312	22	5278
2026-01-20 10:22:52.93	54.49	21.17	-31.0	-34.7	18.2	6.07e-01	0	44	0	434110464	22	5539
2026-01-20 10:22:53.93	54.19	21.19	-30.8	-34.2	18.5	6.06e-01	0	44	0	435683328	22	5318
2026-01-20 10:22:54.93	53.89	21.21	-30.8	-34.3	18.4	6.07e-01	0	44	0	437780480	22	5380
2026-01-20 10:22:55.93	53.58	21.22	-31.1	-35.0	18.0	6.04e-01	0	44	0	439877632	22	5659
2026-01-20 10:22:56.94	53.27	21.24	-31.0	-34.2	18.2	6.07e-01	0	44	0	441450496	23	5215
2026-01-20 10:22:57.94	52.97	21.25	-30.9	-33.9	18.3	6.07e-01	0	44	0	443547648	23	5090
2026-01-20 10:22:58.94	52.66	21.26	-30.8	-33.7	18.5	6.06e-01	0	44	0	445120512	23	5009
2026-01-20 10:22:59.94	52.36	21.28	-30.8	-33.8	18.4	6.06e-01	0	44	0	447217664	23	5063
2026-01-20 10:23:00.95	52.05	21.29	-30.9	-33.9	18.4	6.06e-01	0	44	0	448790528	23	5112
2026-01-20 10:23:01.95	51.75	21.30	-31.1	-34.5	18.0	6.07e-01	0	44	0	450887680	23	5323
2026-01-20 10:23:02.95	51.44	21.31	-31.0	-34.3	18.2	6.03e-01	0	44	0	452984832	23	5236
2026-01-20 10:23:03.95	51.13	21.32	-30.7	-33.5	18.6	6.08e-01	0	44	0	454557696	23	4959
2026-01-20 10:23:04.96	50.82	21.33	-30.6	-33.2	18.8	6.06e-01	0	44	0	456654848	23	4845
2026-01-20 10:23:05.96	50.52	21.33	-30.7	-33.3	18.7	6.07e-01	0	44	0	458227712	23	4884
2026-01-20 10:23:06.96	50.21	21.34	-30.8	-33.6	18.6	6.06e-01	0	44	0	460324864	23	4984
2026-01-20 10:23:07.96	49.90	21.35	-30.7	-33.5	18.7	6.05e-01	0	44	0	462422016	23	4949
2026-01-20 10:23:08.96	49.60	21.35	-30.8	-33.6	18.7	6.06e-01	0	44	0	463994880	23	4969
2026-01-20 10:23:09.97	49.29	21.36	-30.8	-33.6	18.6	6.06e-01	0	44	0	466092032	23	4982
2026-01-20 10:23:10.98	48.98	21.36	-31.0	-34.2	18.3	6.06e-01	0	44	0	467664896	23	5204
2026-01-20 10:23:11.98	48.67	21.36	-30.9	-34.0	18.3	6.06e-01	0	44	0	469762048	23	5142
2026-01-20 10:23:12.98	48.36	21.36	-30.8	-33.8	18.4	6.05e-01	0	44	0	471334912	23	5060
2026-01-20 10:23:13.99	48.05	21.36	-31.1	-34.6	18.1	6.09e-01	0	44	0	473432064	23	5343
2026-01-20 10:23:14.99	47.75	21.36	-31.1	-34.4	18.2	6.06e-01	0	44	0	475529216	23	5280
2026-01-20 10:23:16.00	47.44	21.36	-31.2	-34.8	17.9	6.07e-01	0	44	0	477102080	23	5448
2026-01-20 10:23:17.00	47.13	21.36	-31.2	-34.8	17.9	6.06e-01	0	44	0	479199232	23	5423
2026-01-20 10:23:18.00	46.82	21.36	-31.1	-34.5	18.0	6.06e-01	0	44	0	480772096	23	5335
2026-01-20 10:23:19.01	46.51	21.36	-31.2	-34.8	17.8	6.06e-01	0	44	0	482869248	23	5461
2026-01-20 10:23:20.01	46.21	21.35	-31.2	-34.9	17.9	6.06e-01	0	44	0	484966400	23	5464
2026-01-20 10:23:21.01	45.90	21.35	-31.0	-34.1	18.2	6.04e-01	0	44	0	486539264	23	5188
2026-01-20 10:23:22.02	45.59	21.34	-30.9	-33.9	18.4	6.05e-01	0	44	0	488636416	23	5082
2026-01-20 10:23:23.02	45.28	21.33	-30.7	-33.4	18.7	6.04e-01	0	44	0	490209280	23	4916
2026-01-20 10:23:24.02	44.98	21.33	-30.6	-33.2	18.9	6.04e-01	0	44	0	492306432	23	4831
2026-01-20 10:23:25.03	44.67	21.32	-30.8	-33.5	18.7	6.08e-01	0	44	0	494403584	23	4958
2026-01-20 10:23:26.03	44.36	21.31	-30.7	-33.4	18.8	6.06e-01	0	44	0	495976448	23	4910
2026-01-20 10:23:27.03	44.06	21.30	-30.9	-33.9	18.5	6.03e-01	0	44	0	498073600	23	5102
2026-01-20 10:23:28.03	43.75	21.29	-30.8	-33.6	18.6	6.05e-01	0	44	0	499646464	23	5000
2026-01-20 10:23:29.04	43.44	21.28	-30.8	-33.7	18.5	6.05e-01	0	44	0	501743616	23	5029
2026-01-20 10:23:30.04	43.14	21.26	-30.9	-34.0	18.4	6.07e-01	0	44	0	503316480	23	5124
2026-01-20 10:23:31.04	42.83	21.25	-31.3	-35.0	17.7	6.08e-01	0	44	0	505413632	23	5532
2026-01-20 10:23:32.05	42.53	21.24	-31.1	-34.6	18.0	6.04e-01	0	44	0	507510784	23	5361
2026-01-20 10:23:33.05	42.22	21.22	-31.4	-35.4	17.5	6.07e-01	0	44	0	509083648	23	5692
2026-01-20 10:23:34.04	41.92	21.20	-31.2	-34.9	17.7	6.05e-01	0	44	0	511180800	23	5507
2026-01-20 10:23:35.04	41.62	21.19	-31.3	-35.2	17.5	6.08e-01	0	44	0	512753664	23	5632
2026-01-20 10:23:36.04	41.32	21.17	-31.3	-35.1	17.6	6.06e-01	0	44	0	514850816	23	5593
2026-01-20 10:23:37.04	41.01	21.15	-31.3	-35.1	17.6	6.08e-01	0	44	0	516423680	23	5575
2026-01-20 10:23:38.05	40.71	21.13	-31.3	-35.0	17.7	6.07e-01	0	44	0	518520832	23	5529
2026-01-20 10:23:39.05	40.41	21.11	-31.3	-35.2	17.6	6.05e-01	0	44	0	520617984	23	5638
2026-01-20 10:23:40.05	40.10	21.09	-31.7	-35.8	16.9	6.09e-01	0	44	0	522190848	24	5799
2026-01-20 10:23:41.06	39.80	21.07	-31.4	-34.9	17.4	6.05e-01	0	44	0	524288000	24	5384
2026-01-20 10:23:42.06	39.50	21.05	-31.1	-34.1	17.9	6.06e-01	0	44	0	526385152	24	5089
2026-01-20 10:23:43.06	39.20	21.03	-30.9	-33.9	18.4	6.07e-01	0	44	0	527958016	23	5113
2026-01-20 10:23:44.06	38.90	21.00	-30.8	-33.6	18.6	6.06e-01	0	44	0	530055168	23	4993
2026-01-20 10:23:45.07	38.60	20.98	-30.7	-33.5	18.7	6.05e-01	0	44	0	531628032	23	4948
2026-01-20 10:23:46.07	38.30	20.95	-30.8	-33.8	18.5	6.06e-01	0	44	0	533725184	23	5054
2026-01-20 10:23:47.08	38.00	20.93	-30.8	-33.6	18.6	6.07e-01	0	44	0	535298048	23	4996
2026-01-20 10:23:48.08	37.70	20.90	-30.7	-33.5	18.6	6.03e-01	0	44	0	537395200	23	4975
2026-01-20 10:23:49.08	37.40	20.87	-30.8	-33.7	18.5	6.07e-01	0	44	0	539492352	23	5016
2026-01-20 10:23:50.09	37.11	20.84	-31.1	-34.5	18.0	6.06e-01	0	44	0	541065216	23	5351
2026-01-20 10:23:51.08	36.81	20.81	-31.0	-34.3	18.1	6.07e-01	0	44	0	543162368	23	5249
2026-01-20 10:23:52.08	36.52	20.78	-30.8	-33.6	18.6	6.06e-01	0	44	0	544735232	23	5004
2026-01-20 10:23:53.08	36.22	20.75	-30.6	-33.2	18.8	6.04e-01	0	44	0	546832384	23	4842
2026-01-20 10:23:54.08	35.93	20.72	-30.6	-33.1	18.9	6.06e-01	0	44	0	548405248	23	4803
2026-01-20 10:23:55.08	35.64	20.69	-30.6	-33.2	18.8	6.08e-01	0	44	0	550502400	23	4859
2026-01-20 10:23:56.08	35.34	20.66	-30.6	-33.2	18.8	6.06e-01	0	44	0	552599552	23	4843
2026-01-20 10:23:57.09	35.05	20.63	-30.6	-33.1	18.9	6.06e-01	0	44	0	554172416	23	4830
2026-01-20 10:23:58.08	34.76	20.59	-30.6	-33.1	18.9	6.05e-01	0	44	0	556269568	23	4806
2026-01-20 10:23:59.08	34.47	20.56	-30.6	-33.1	18.9	6.05e-01	0	44	0	557842432	23	4833
2026-01-20 10:24:00.08	34.18	20.52	-30.7	-33.4	18.7	6.06e-01	0	44	0	559939584	23	4918
2026-01-20 10:24:01.08	33.89	20.49	-30.5	-32.9	19.0	6.05e-01	0	44	0	561512448	23	4744
2026-01-20 10:24:02.08	33.60	20.45	-30.5	-33.0	18.9	6.01e-01	0	44	0	563609600	23	4763
2026-01-20 10:24:03.08	33.31	20.41	-30.6	-33.2	18.8	6.00e-01	0	44	0	565706752	23	4850
2026-01-20 10:24:04.08	33.03	20.37	-30.8	-33.7	18.5	6.01e-01	0	44	0	567279616	23	5028
2026-01-20 10:24:05.08	32.74	20.33	-30.7	-33.4	18.7	6.00e-01	0	44	0	569376768	23	4908
2026-01-20 10:24:06.08	32.46	20.29	-30.6	-33.1	18.9	6.01e-01	0	44	0	570949632	23	4814
2026-01-20 10:24:07.08	32.17	20.25	-30.8	-33.6	18.6	6.02e-01	0	44	0	573046784	23	4989
2026-01-20 10:24:08.08	31.89	20.21	-30.7	-33.4	18.7	6.02e-01	0	44	0	575143936	23	4935
2026-01-20 10:24:09.07	31.61	20.17	-30.7	-33.5	18.6	6.00e-01	0	44	0	576716800	23	4957
2026-01-20 10:24:10.07	31.33	20.13	-30.9	-33.9	18.3	6.00e-01	0	44	0	578813952	23	5102
2026-01-20 10:24:11.08	31.04	20.09	-30.6	-33.1	18.8	5.99e-01	0	44	0	580386816	23	4828
2026-01-20 10:24:12.08	30.76	20.05	-30.5	-32.9	19.0	6.00e-01	0	44	0	582483968	23	4744
2026-01-20 10:24:13.08	30.48	20.00	-30.6	-33.0	18.9	5.98e-01	0	44	0	584056832	23	4793
2026-01-20 10:24:14.09	30.20	19.96	-30.5	-33.0	19.0	6.01e-01	0	44	0	586153984	23	4766
2026-01-20 10:24:15.09	29.92	19.91	-30.5	-33.0	18.9	5.98e-01	0	44	0	588251136	23	4773
2026-01-20 10:24:16.10	29.64	19.87	-30.6	-33.2	18.8	6.02e-01	0	44	0	589824000	23	4859
2026-01-20 10:24:17.09	29.37	19.82	-30.8	-33.8	18.4	6.00e-01	0	44	0	591921152	23	5071
2026-01-20 10:24:18.10	29.09	19.77	-30.8	-33.6	18.6	6.01e-01	0	44	0	593494016	23	4994
2026-01-20 10:24:19.10	28.82	19.73	-30.7	-33.4	18.7	6.00e-01	0	44	0	595591168	23	4920
2026-01-20 10:24:20.11	28.54	19.68	-30.6	-33.1	18.8	6.01e-01	0	44	0	597688320	23	4806
2026-01-20 10:24:21.11	28.27	19.63	-30.7	-33.3	18.6	6.00e-01	0	44	0	599261184	23	4898
2026-01-20 10:24:22.11	28.00	19.58	-30.6	-33.2	18.8	6.00e-01	0	44	0	601358336	23	4838
2026-01-20 10:24:23.11	27.73	19.53	-30.8	-33.7	18.4	6.00e-01	0	44	0	602931200	23	5024
2026-01-20 10:24:24.12	27.46	19.48	-30.6	-33.1	19.0	6.01e-01	0	44	0	605028352	23	4804
2026-01-20 10:24:25.12	27.19	19.43	-30.4	-32.7	19.1	6.01e-01	0	44	0	607125504	23	4689
2026-01-20 10:24:26.13	26.92	19.38	-30.4	-33.2	19.1	6.01e-01	0	44	0	608698368	22	4940
2026-01-20 10:24:27.13	26.65	19.33	-30.5	-33.4	18.9	6.02e-01	0	44	0	610795520	22	5033
2026-01-20 10:24:28.13	26.38	19.27	-30.5	-33.4	18.9	6.00e-01	0	44	0	612368384	22	5017
2026-01-20 10:24:29.13	26.12	19.22	-30.4	-33.0	19.2	6.01e-01	0	44	0	614465536	22	4893
2026-01-20 10:24:30.14	25.85	19.17	-30.4	-33.2	19.1	6.01e-01	0	44	0	616038400	22	4943
2026-01-20 10:24:31.14	25.59	19.11	-30.5	-33.5	18.9	6.01e-01	0	44	0	618135552	22	5060
2026-01-20 10:24:32.14	25.33	19.06	-30.4	-33.2	19.0	6.01e-01	0	44	0	620232704	22	4973
2026-01-20 10:24:33.14	25.07	19.01	-30.5	-33.5	18.9	6.02e-01	0	44	0	621805568	22	5073
2026-01-20 10:24:34.14	24.81	18.95	-30.5	-33.3	19.0	5.99e-01	0	44	0	623902720	22	5004
2026-01-20 10:24:35.14	24.55	18.90	-30.5	-33.5	18.9	5.99e-01	0	44	0	625475584	22	5070
2026-01-20 10:24:36.15	24.29	18.84	-30.4	-33.1	19.1	6.02e-01	0	44	0	627572736	22	4918
2026-01-20 10:24:37.15	24.03	18.78	-30.3	-33.0	19.2	6.02e-01	0	44	0	629145600	22	4885
2026-01-20 10:24:38.15	23.78	18.73	-30.4	-33.1	19.1	6.02e-01	0	44	0	631242752	22	4912
2026-01-20 10:24:39.16	23.52	18.67	-30.5	-33.3	18.9	6.05e-01	0	44	0	633339904	22	5006
2026-01-20 10:24:40.16	23.26	18.61	-30.6	-33.6	18.8	6.00e-01	0	44	0	634912768	22	5116
2026-01-20 10:24:41.16	23.01	18.55	-30.4	-33.1	19.1	6.01e-01	0	44	0	637009920	22	4934
2026-01-20 10:24:42.17	22.76	18.50	-30.4	-33.1	19.1	6.00e-01	0	44	0	638582784	22	4916
2026-01-20 10:24:43.16	22.51	18.44	-30.4	-33.3	19.0	5.99e-01	0	44	0	640679936	22	4978
2026-01-20 10:24:44.17	22.26	18.38	-30.6	-33.7	18.7	6.02e-01	0	44	0	642777088	22	5134
2026-01-20 10:24:45.17	22.01	18.32	-30.6	-33.7	18.8	5.99e-01	0	44	0	644349952	22	5142
2026-01-20 10:24:46.17	21.76	18.26	-30.7	-34.0	18.6	6.01e-01	0	44	0	646447104	22	5260
2026-01-20 10:24:47.18	21.51	18.20	-30.6	-33.7	18.7	6.01e-01	0	44	0	648019968	22	5138
2026-01-20 10:24:48.18	21.27	18.14	-30.7	-34.0	18.5	6.01e-01	0	44	0	650117120	22	5259
2026-01-20 10:24:49.17	21.03	18.08	-30.6	-33.7	18.7	5.99e-01	0	44	0	652214272	22	5126
2026-01-20 10:24:50.18	20.78	18.02	-30.6	-33.7	18.7	6.01e-01	0	44	0	653787136	22	5131
2026-01-20 10:24:51.19	20.53	17.95	-30.7	-33.9	18.6	6.00e-01	0	44	0	655884288	22	5227
2026-01-20 10:24:52.19	20.29	17.89	-30.6	-33.7	18.8	6.02e-01	0	44	0	657457152	22	5133
2026-01-20 10:24:53.19	20.05	17.83	-30.4	-33.2	19.0	6.02e-01	0	44	0	659554304	22	4970
2026-01-20 10:24:54.20	19.81	17.77	-30.4	-33.2	19.0	6.01e-01	0	44	0	661127168	22	4974
2026-01-20 10:24:55.20	19.57	17.70	-30.4	-33.1	19.1	6.01e-01	0	44	0	663224320	22	4932
2026-01-20 10:24:56.20	19.34	17.64	-30.2	-32.7	19.3	6.03e-01	0	44	0	665321472	22	4794
2026-01-20 10:24:57.21	19.10	17.58	-30.4	-33.1	19.1	6.03e-01	0	44	0	666894336	22	4937
2026-01-20 10:24:58.21	18.86	17.51	-30.5	-33.4	18.8	6.00e-01	0	44	0	668991488	22	5043
2026-01-20 10:24:59.22	18.63	17.45	-30.4	-33.2	19.0	6.01e-01	0	44	0	670564352	22	4960
2026-01-20 10:25:00.22	18.40	17.38	-30.4	-33.3	18.9	6.01e-01	0	44	0	672661504	22	5007
2026-01-20 10:25:01.23	18.16	17.32	-30.6	-33.8	18.7	6.01e-01	0	44	0	674758656	22	5169
2026-01-20 10:25:02.23	17.93	17.25	-30.5	-33.5	18.8	6.02e-01	0	44	0	676331520	22	5063
2026-01-20 10:25:03.22	17.70	17.19	-30.5	-33.4	18.9	6.00e-01	0	44	0	678428672	22	5026
2026-01-20 10:25:04.22	17.48	17.12	-30.4	-33.2	19.0	6.01e-01	0	44	0	680001536	22	4984
2026-01-20 10:25:05.22	17.25	17.06	-30.4	-33.2	19.0	6.00e-01	0	44	0	682098688	22	4958
2026-01-20 10:25:06.22	17.02	16.99	-30.3	-33.0	19.1	6.01e-01	0	44	0	683671552	22	4889
2026-01-20 10:25:07.23	16.80	16.92	-30.3	-32.9	19.2	6.00e-01	0	44	0	685768704	22	4854
2026-01-20 10:25:08.24	16.57	16.86	-30.2	-32.8	19.2	6.03e-01	0	44	0	687865856	22	4827
2026-01-20 10:25:09.25	16.34	16.79	-30.4	-33.1	19.0	6.01e-01	0	44	0	689438720	22	4929
2026-01-20 10:25:10.25	16.12	16.72	-30.4	-33.3	18.9	6.01e-01	0	44	0	691535872	22	5002
2026-01-20 10:25:11.25	15.90	16.66	-30.4	-33.3	18.8	6.00e-01	0	44	0	693108736	22	5003
2026-01-20 10:25:12.25	15.68	16.59	-30.6	-33.6	18.6	6.00e-01	0	44	0	695205888	22	5128
2026-01-20 10:25:13.25	15.46	16.52	-30.4	-33.3	18.9	6.01e-01	0	44	0	697303040	22	4993
2026-01-20 10:25:14.25	15.25	16.45	-30.5	-33.4	18.8	5.99e-01	0	44	0	698875904	22	5058
2026-01-20 10:25:15.26	15.03	16.39	-30.6	-33.9	18.5	6.02e-01	0	44	0	700973056	22	5224
2026-01-20 10:25:16.26	14.81	16.32	-30.5	-33.4	18.8	6.00e-01	0	44	0	702545920	22	5036
2026-01-20 10:25:17.26	14.60	16.25	-30.5	-33.4	18.9	6.00e-01	0	44	0	704643072	22	5028
2026-01-20 10:25:18.26	14.38	16.18	-30.6	-33.9	18.5	6.01e-01	0	44	0	706740224	22	5218
2026-01-20 10:25:19.27	14.17	16.11	-30.4	-33.1	19.0	6.02e-01	0	44	0	708313088	22	4943
2026-01-20 10:25:20.28	13.96	16.04	-30.3	-33.0	19.0	6.00e-01	0	44	0	710410240	22	4888
2026-01-20 10:25:21.28	13.74	15.97	-30.3	-33.1	19.0	6.00e-01	0	44	0	711983104	22	4942
2026-01-20 10:25:22.29	13.53	15.90	-30.5	-33.5	18.7	6.00e-01	0	44	0	714080256	22	5099
2026-01-20 10:25:23.28	13.33	15.84	-30.3	-33.0	19.0	6.00e-01	0	44	0	715653120	22	4913
2026-01-20 10:25:24.29	13.12	15.77	-30.3	-32.9	19.1	6.02e-01	0	44	0	717750272	22	4865
2026-01-20 10:25:25.29	12.91	15.70	-30.4	-33.2	18.9	6.01e-01	0	44	0	719847424	22	4999
2026-01-20 10:25:26.30	12.71	15.63	-30.4	-33.3	18.8	6.00e-01	0	44	0	721420288	22	5010
2026-01-20 10:25:27.31	12.50	15.56	-30.4	-33.2	19.0	6.01e-01	0	44	0	723517440	22	4970
2026-01-20 10:25:28.31	12.30	15.49	-30.3	-33.0	19.0	6.01e-01	0	44	0	725614592	22	4927
2026-01-20 10:25:29.31	12.09	15.42	-30.3	-32.9	19.0	6.00e-01	0	44	0	727187456	22	4885
2026-01-20 10:25:30.32	11.89	15.35	-30.5	-42.7	3.8	7.45e-01	0	44	104	728760320	22	14744
2026-01-20 10:25:31.32	11.69	15.28	-30.5	-42.8	3.8	7.47e-01	0	44	104	728760320	22	14753
2026-01-20 10:25:32.32	11.49	15.20	-30.6	-43.1	3.8	7.46e-01	0	44	104	728760320	22	15118
2026-01-20 10:25:33.32	11.29	15.13	-30.6	-43.2	3.8	7.45e-01	0	44	104	728760320	22	15316
2026-01-20 10:25:34.33	11.10	15.06	-30.7	-43.4	3.8	7.45e-01	0	44	104	728760320	22	15541
2026-01-20 10:25:35.33	10.90	14.99	-30.7	-43.4	3.9	7.43e-01	0	44	104	728760320	22	15415
2026-01-20 10:25:36.33	10.71	14.92	-30.9	-43.9	3.8	7.45e-01	0	44	104	728760320	22	16063
2026-01-20 10:25:37.34	10.51	14.85	-31.1	-44.0	3.8	7.43e-01	0	44	104	728760320	23	15886
2026-01-20 10:25:38.34	10.32	14.78	-31.3	-44.4	3.8	7.45e-01	0	44	104	728760320	23	16297
2026-01-20 10:25:39.34	10.13	14.71	-31.6	-45.0	3.8	7.42e-01	0	44	104	728760320	24	16797
2026-01-20 10:25:40.33	9.94	14.64	-31.8	-45.5	3.9	7.45e-01	0	44	104	728760320	24	17323
2026-01-20 10:25:41.35	9.74	14.57	-32.0	-45.9	3.8	7.44e-01	0	44	104	728760320	24	17889
2026-01-20 10:25:42.36	9.55	14.49	-32.3	-46.3	3.8	7.45e-01	0	44	104	728760320	25	18052
2026-01-20 10:25:43.36	9.36	14.42	-32.5	-47.1	3.8	7.45e-01	0	44	104	728760320	25	19375
2026-01-20 10:25:44.36	9.18	14.35	-32.8	-47.8	3.8	7.45e-01	0	44	104	728760320	26	20211
2026-01-20 10:25:45.37	8.99	14.28	-33.0	-48.6	3.9	7.40e-01	0	44	104	728760320	26	21540
2026-01-20 10:25:46.38	8.80	14.21	-33.1	-48.6	3.8	7.45e-01	0	44	104	728760320	27	21443
2026-01-20 10:25:47.38	8.62	14.14	-33.2	-49.1	3.9	7.42e-01	0	44	104	728760320	27	22371
2026-01-20 10:25:48.39	8.43	14.06	-33.3	-49.5	3.8	7.45e-01	0	44	104	728760320	27	23185
2026-01-20 10:25:49.39	8.25	13.99	-33.4	-49.9	3.8	7.41e-01	0	44	104	728760320	27	23904
2026-01-20 10:25:50.40	8.07	13.92	-33.5	-50.3	3.8	7.46e-01	0	44	104	728760320	27	25015
2026-01-20 10:25:51.40	7.89	13.85	-33.5	-50.6	3.8	7.46e-01	0	44	104	728760320	27	25543
2026-01-20 10:25:52.40	7.71	13.78	-33.5	-50.4	3.8	7.46e-01	0	44	104	728760320	28	24950
2026-01-20 10:25:53.41	7.53	13.70	-33.6	-50.4	3.8	7.46e-01	0	44	104	728760320	28	24973
2026-01-20 10:25:54.41	7.35	13.63	-33.6	-50.4	3.8	7.44e-01	0	44	104	728760320	28	24963
2026-01-20 10:25:55.41	7.18	13.56	-33.6	-50.3	3.8	7.47e-01	0	44	104	728760320	28	24763
2026-01-20 10:25:56.42	7.00	13.49	-33.6	-50.4	3.8	7.44e-01	0	44	104	728760320	28	24937
2026-01-20 10:25:57.42	6.83	13.42	-33.5	-50.2	3.8	7.45e-01	0	44	104	728760320	28	24578
2026-01-20 10:25:58.42	6.65	13.34	-33.5	-50.1	3.8	7.43e-01	0	44	104	728760320	28	24329
2026-01-20 10:25:59.43	6.48	13.27	-33.4	-49.5	3.8	7.45e-01	0	44	104	728760320	28	22959
2026-01-20 10:26:00.43	6.31	13.20	-33.3	-49.2	3.8	7.44e-01	0	44	104	728760320	28	22389
2026-01-20 10:26:01.44	6.13	13.13	-33.2	-48.6	3.8	7.43e-01	0	44	104	728760320	28	21234
2026-01-20 10:26:02.44	5.96	13.06	-33.0	-47.9	3.8	7.43e-01	0	44	104	728760320	28	19993
2026-01-20 10:26:03.45	5.79	12.98	-32.9	-47.7	3.8	7.41e-01	0	44	104	728760320	27	19808
2026-01-20 10:26:04.45	5.62	12.91	-32.7	-47.0	3.8	7.44e-01	0	44	104	728760320	27	18661
2026-01-20 10:26:05.45	5.46	12.84	-32.4	-46.0	3.8	7.44e-01	0	44	104	728760320	27	17137
2026-01-20 10:26:06.45	5.29	12.77	-32.3	-45.9	3.8	7.43e-01	0	44	104	728760320	26	17278
2026-01-20 10:26:07.46	5.12	12.70	-32.1	-45.5	3.8	7.46e-01	0	44	104	728760320	26	16850
2026-01-20 10:26:08.47	4.96	12.62	-31.9	-45.0	3.8	7.45e-01	0	44	104	728760320	26	16198
2026-01-20 10:26:09.47	4.79	12.55	-31.9	-44.9	3.8	7.42e-01	0	44	104	728760320	26	16124
2026-01-20 10:26:10.48	4.63	12.48	-31.7	-44.8	3.8	7.47e-01	0	44	104	728760320	25	16249
2026-01-20 10:26:11.47	4.47	12.41	-31.4	-43.9	3.8	7.44e-01	0	44	104	728760320	25	15146
2026-01-20 10:26:12.48	4.31	12.34	-31.1	-43.3	3.8	7.41e-01	0	44	104	728760320	24	14760
2026-01-20 10:26:13.48	4.15	12.26	-30.9	-42.9	3.8	7.45e-01	0	44	104	728760320	24	14295
2026-01-20 10:26:14.49	3.99	12.19	-30.8	-43.1	3.8	7.43e-01	0	44	104	728760320	23	14845
2026-01-20 10:26:15.49	3.83	12.12	-30.7	-42.9	3.8	7.43e-01	0	44	104	728760320	23	14594
2026-01-20 10:26:16.50	3.67	12.05	-30.7	-43.1	3.8	7.44e-01	0	44	104	728760320	23	14884
2026-01-20 10:26:17.51	3.51	11.98	-30.7	-42.8	3.8	7.45e-01	0	44	104	728760320	23	14487
2026-01-20 10:26:18.50	3.36	11.90	-30.8	-43.1	3.8	7.44e-01	0	44	104	728760320	23	14891
2026-01-20 10:26:19.51	3.20	11.83	-30.7	-42.9	3.8	7.45e-01	0	44	104	728760320	23	14668
2026-01-20 10:26:20.52	3.04	11.76	-30.8	-43.1	3.8	7.43e-01	0	44	104	728760320	23	14806
2026-01-20 10:26:21.51	2.89	11.69	-30.7	-42.9	3.8	7.46e-01	0	44	104	728760320	23	14659
2026-01-20 10:26:22.52	2.74	11.62	-30.9	-43.4	3.8	7.43e-01	0	44	104	728760320	23	15194
2026-01-20 10:26:23.52	2.59	11.55	-31.1	-43.9	3.8	7.45e-01	0	44	104	728760320	23	15805
2026-01-20 10:26:24.52	2.44	11.47	-31.2	-44.4	3.8	7.45e-01	0	44	104	728760320	23	16360
2026-01-20 10:26:25.53	2.28	11.40	-31.4	-45.0	3.8	7.44e-01	0	44	104	728760320	23	17253
2026-01-20 10:26:26.53	2.13	11.33	-31.6	-44.9	3.9	7.43e-01	0	44	104	728760320	24	16664
2026-01-20 10:26:27.54	1.98	11.26	-31.9	-46.0	3.8	7.45e-01	0	44	104	728760320	24	18159
2026-01-20 10:26:28.54	1.84	11.19	-32.2	-46.5	3.8	7.44e-01	0	44	104	728760320	25	18578
2026-01-20 10:26:29.54	1.69	11.12	-32.5	-47.2	3.8	7.43e-01	0	44	104	728760320	25	19764
2026-01-20 10:26:30.54	1.54	11.05	-32.6	-47.4	3.8	7.41e-01	0	44	104	728760320	26	19809
2026-01-20 10:26:31.55	1.40	10.98	-32.7	-47.9	3.8	7.41e-01	0	44	104	728760320	26	20495
2026-01-20 10:26:32.55	1.25	10.90	-32.9	-48.5	3.8	7.47e-01	0	44	104	728760320	26	21755
2026-01-20 10:26:33.56	1.11	10.83	-33.0	-49.1	3.8	7.46e-01	0	44	104	728760320	26	22946
2026-01-20 10:26:34.55	0.97	10.76	-33.2	-49.2	3.8	7.44e-01	0	44	104	728760320	27	22924
2026-01-20 10:26:35.56	0.82	10.69	-33.3	-49.6	3.8	7.43e-01	0	44	104	728760320	27	23738
2026-01-20 10:26:36.57	0.68	10.62	-33.4	-50.1	3.8	7.47e-01	0	44	104	728760320	27	24715
2026-01-20 10:26:37.57	0.54	10.55	-33.4	-50.3	3.8	7.44e-01	0	44	104	728760320	27	25253
2026-01-20 10:26:38.58	0.40	10.48	-33.5	-50.6	3.8	7.46e-01	0	44	104	728760320	27	26017
2026-01-20 10:26:39.58	0.26	10.41	-33.5	-51.0	3.8	7.45e-01	0	44	104	728760320	27	26969
2026-01-20 10:26:40.59	0.12	10.34	-33.5	-51.0	3.8	7.43e-01	0	44	104	728760320	27	26829
2026-01-20 10:26:41.59	359.98	10.27	-33.4	-50.5	3.8	7.44e-01	0	44	104	728760320	27	25864
2026-01-20 10:26:42.59	359.84	10.20	-33.4	-50.6	3.8	7.42e-01	0	44	104	728760320	27	26038
2026-01-20 10:26:43.60	359.70	10.13	-33.4	-50.6	3.8	7.44e-01	0	44	104	728760320	27	26062
2026-01-20 10:26:44.60	359.57	10.06	-33.4	-50.7	3.8	7.48e-01	0	44	104	728760320	27	26391
2026-01-20 10:26:45.60	359.43	9.99	-33.4	-50.6	3.8	7.46e-01	0	44	104	728760320	27	25938
2026-01-20 10:26:46.61	359.30	9.91	-33.4	-50.5	3.8	7.44e-01	0	44	104	728760320	27	25719
2026-01-20 10:26:47.62	359.16	9.84	-33.3	-50.2	3.8	7.43e-01	0	44	104	728760320	27	25114
2026-01-20 10:26:48.62	359.03	9.77	-33.3	-49.9	3.8	7.46e-01	0	44	104	728760320	27	24372
2026-01-20 10:26:49.63	358.90	9.70	-33.2	-49.6	3.8	7.39e-01	0	44	104	728760320	27	23706
2026-01-20 10:26:50.63	358.77	9.63	-33.0	-48.8	3.8	7.45e-01	0	44	104	728760320	27	22009
2026-01-20 10:26:51.64	358.63	9.56	-32.9	-48.3	3.8	7.49e-01	0	44	104	728760320	27	21258
2026-01-20 10:26:52.64	358.50	9.50	-32.7	-47.5	3.8	7.45e-01	0	44	104	728760320	27	19729
2026-01-20 10:26:53.64	358.38	9.43	-32.6	-47.1	3.8	7.46e-01	0	44	104	728760320	27	19074
2026-01-20 10:26:54.65	358.25	9.36	-32.5	-46.5	3.8	7.45e-01	0	44	104	728760320	27	18143
2026-01-20 10:26:55.65	358.12	9.29	-32.2	-46.0	3.8	7.46e-01	0	44	104	728760320	26	17654
2026-01-20 10:26:56.65	357.99	9.22	-32.0	-45.5	3.8	7.43e-01	0	44	104	728760320	26	17019
2026-01-20 10:26:57.66	357.86	9.15	-31.7	-44.9	3.8	7.44e-01	0	44	104	728760320	25	16481
2026-01-20 10:26:58.66	357.74	9.08	-31.5	-44.4	3.8	7.44e-01	0	44	104	728760320	25	15761
2026-01-20 10:26:59.66	357.61	9.01	-31.5	-44.3	3.8	7.42e-01	0	44	104	728760320	25	15675
2026-01-20 10:27:00.66	357.49	8.94	-31.2	-44.0	3.8	7.43e-01	0	44	104	728760320	24	15644
2026-01-20 10:27:01.67	357.36	8.87	-31.1	-43.8	3.8	7.49e-01	0	44	104	728760320	24	15490
2026-01-20 10:27:02.68	357.24	8.80	-31.0	-43.4	3.8	7.45e-01	0	44	104	728760320	24	15016
2026-01-20 10:27:03.68	357.12	8.73	-31.0	-43.5	3.8	7.45e-01	0	44	104	728760320	24	15084
2026-01-20 10:27:04.69	356.99	8.67	-31.0	-43.5	3.8	7.46e-01	0	44	104	728760320	24	15154
2026-01-20 10:27:05.70	356.87	8.60	-31.1	-43.8	3.8	7.45e-01	0	44	104	728760320	24	15392
2026-01-20 10:27:06.70	356.75	8.53	-31.2	-44.0	3.8	7.44e-01	0	44	104	728760320	24	15565
2026-01-20 10:27:07.71	356.63	8.46	-31.2	-44.1	3.8	7.43e-01	0	44	104	728760320	24	15779
2026-01-20 10:27:08.72	356.51	8.39	-31.2	-44.0	3.8	7.42e-01	0	44	104	728760320	24	15576
2026-01-20 10:27:09.72	356.39	8.32	-31.2	-44.0	3.8	7.45e-01	0	44	104	728760320	24	15670
2026-01-20 10:27:10.73	356.27	8.25	-31.2	-44.2	3.8	7.45e-01	0	44	104	728760320	24	15949
2026-01-20 10:27:11.72	356.15	8.19	-31.4	-44.4	3.8	7.42e-01	0	44	104	728760320	24	16125
2026-01-20 10:27:12.73	356.03	8.12	-31.6	-45.1	3.8	7.44e-01	0	44	104	728760320	24	17181
2026-01-20 10:27:13.73	355.92	8.05	-31.7	-45.5	3.8	7.42e-01	0	44	104	728760320	24	17601
2026-01-20 10:27:14.74	355.80	7.98	-31.9	-46.2	3.8	7.43e-01	0	44	104	728760320	24	18540
2026-01-20 10:27:15.74	355.69	7.92	-32.3	-47.0	3.8	7.44e-01	0	44	104	728760320	25	19583
2026-01-20 10:27:16.75	355.57	7.85	-32.4	-47.5	3.8	7.44e-01	0	44	104	728760320	25	20519
2026-01-20 10:27:17.75	355.46	7.78	-32.7	-48.0	3.8	7.46e-01	0	44	104	728760320	26	21064
2026-01-20 10:27:18.76	355.34	7.71	-32.9	-49.2	3.8	7.42e-01	0	44	104	728760320	26	23515
2026-01-20 10:27:19.76	355.23	7.65	-33.0	-49.6	3.8	7.45e-01	0	44	104	728760320	26	24325
2026-01-20 10:27:20.77	355.12	7.58	-33.1	-50.0	3.8	7.43e-01	0	44	104	728760320	26	25339
2026-01-20 10:27:21.77	355.00	7.51	-33.2	-50.0	3.8	7.44e-01	0	44	104	728760320	27	25040
2026-01-20 10:27:22.78	354.89	7.44	-33.2	-50.1	3.8	7.43e-01	0	44	104	728760320	27	25331
2026-01-20 10:27:23.78	354.78	7.38	-33.2	-50.3	3.8	7.42e-01	0	44	104	728760320	27	25726
2026-01-20 10:27:24.79	354.67	7.31	-33.2	-50.5	3.8	7.44e-01	0	44	104	728760320	27	26232
2026-01-20 10:27:25.80	354.56	7.24	-33.2	-50.5	3.8	7.48e-01	0	44	104	728760320	27	26198
2026-01-20 10:27:26.80	354.45	7.18	-33.3	-50.8	3.8	7.45e-01	0	44	104	728760320	27	27044
2026-01-20 10:27:27.80	354.34	7.11	-33.2	-50.8	3.8	7.44e-01	0	44	104	728760320	27	27160
2026-01-20 10:27:28.80	354.24	7.04	-33.7	-52.8	3.8	7.47e-01	0	44	104	728760320	28	32470
2026-01-20 10:27:29.80	354.13	6.98	-34.0	-53.4	3.8	7.46e-01	0	44	104	728760320	28	33609

#Closed at: 2026-01-20 10:27:30
#Recorded file [728 MB]: D:/data/31010_260120_131901.dat