passes_logs/2026/01/20/R2M6_AANII_01/R2M6_AANII_01__20260120_005150_NOAA_21_JPSS-2_rec.log

#Pass ID: 20260120_005150_NOAA 21 (JPSS-2)
#Satellite: NOAA 21 (JPSS-2)
#Configuration: NOAA 21
#almurnet v.1.7.20240730
#Start time: 2026-01-20 00:51:51

#Version: 2.2.20231116
#Station: R2M6_AANII_01
#Location: 30.233357 lon 59.946436 lat
#TLE: 1 54234U 22150A   26019.31231101  .00000073  00000+0  55355-4 0  9994
#TLE: 2 54234  98.7504 320.1599 0000604 258.3686 101.7423 14.19535697165426

#Time	Az	El	Level	Level2	SNR	BER	BlckErr	Temp	State	Recorded	gain1	gain2
2026-01-20 00:51:51.31	15.57	7.10	-32.7	-40.4	4.1	1.47e+00	0	44	0	0	25	8758
2026-01-20 00:51:52.30	15.54	7.17	-31.6	-37.0	4.5	1.42e+00	0	45	104	0	23	6659
2026-01-20 00:51:53.30	15.52	7.25	-31.6	-36.0	8.1	5.18e-02	0	44	0	0	23	5972
2026-01-20 00:51:54.31	15.49	7.33	-31.3	-35.7	8.7	4.52e-02	0	45	0	3145728	22	5927
2026-01-20 00:51:55.31	15.47	7.40	-31.1	-34.9	9.2	2.25e-02	0	44	0	6291456	22	5574
2026-01-20 00:51:56.31	15.44	7.48	-31.0	-34.6	9.4	1.78e-02	0	45	0	9437184	22	5435
2026-01-20 00:51:57.31	15.42	7.56	-30.8	-34.5	9.8	1.27e-02	0	45	0	12582912	21	5519
2026-01-20 00:51:58.31	15.39	7.63	-30.8	-34.7	9.7	1.85e-02	0	44	0	15728640	21	5613
2026-01-20 00:51:59.32	15.37	7.71	-30.6	-33.9	10.2	5.15e-03	0	45	0	18874368	21	5278
2026-01-20 00:52:00.30	15.34	7.79	-31.0	-35.1	9.4	1.62e-02	0	45	0	20971520	21	5776
2026-01-20 00:52:01.30	15.32	7.87	-30.8	-34.7	9.7	1.16e-02	0	45	0	24117248	21	5609
2026-01-20 00:52:02.30	15.29	7.95	-30.9	-35.0	9.5	1.27e-02	0	44	0	27262976	21	5755
2026-01-20 00:52:03.31	15.26	8.03	-31.2	-35.2	9.0	3.03e-02	0	45	0	30408704	22	5711
2026-01-20 00:52:04.31	15.24	8.11	-31.1	-35.0	9.2	3.29e-02	0	44	0	33554432	22	5617
2026-01-20 00:52:05.31	15.21	8.18	-30.8	-34.7	9.7	8.72e-03	0	45	0	36700160	21	5596
2026-01-20 00:52:06.31	15.18	8.26	-30.9	-34.8	9.6	1.33e-02	0	45	0	39845888	21	5660
2026-01-20 00:52:07.32	15.16	8.34	-30.6	-34.0	10.2	6.36e-03	0	45	0	42991616	21	5301
2026-01-20 00:52:08.32	15.13	8.42	-30.5	-34.0	10.6	4.44e-03	0	45	0	46137344	20	5425
2026-01-20 00:52:09.33	15.10	8.51	-30.3	-33.6	10.9	2.54e-03	0	45	0	49283072	20	5270
2026-01-20 00:52:10.33	15.08	8.59	-30.3	-33.1	10.9	3.27e-03	0	45	0	52428800	21	4950
2026-01-20 00:52:11.34	15.05	8.67	-30.2	-33.2	11.2	1.27e-03	0	45	0	55574528	20	5087
2026-01-20 00:52:12.33	15.02	8.75	-29.9	-32.5	11.6	8.22e-04	0	45	0	58720256	20	4861
2026-01-20 00:52:13.34	14.99	8.83	-29.9	-32.9	11.8	3.88e-04	0	45	0	61865984	19	5092
2026-01-20 00:52:14.34	14.97	8.91	-29.8	-32.1	11.9	5.88e-04	0	45	0	65011712	20	4704
2026-01-20 00:52:15.34	14.94	8.99	-29.6	-32.2	12.3	1.93e-04	0	45	0	68157440	19	4828
2026-01-20 00:52:16.33	14.91	9.07	-29.5	-32.3	12.5	8.39e-05	0	45	0	71303168	18	4992
2026-01-20 00:52:17.34	14.88	9.16	-29.4	-32.3	12.6	7.47e-05	0	45	0	74448896	18	4975
2026-01-20 00:52:18.35	14.85	9.24	-29.4	-32.1	12.6	9.84e-05	0	45	0	77594624	18	4935
2026-01-20 00:52:19.34	14.82	9.32	-29.6	-32.2	12.3	1.38e-04	0	44	0	80740352	19	4831
2026-01-20 00:52:20.34	14.79	9.41	-29.3	-31.4	12.8	6.63e-05	0	44	0	83886080	19	4576
2026-01-20 00:52:21.35	14.77	9.49	-29.3	-31.8	12.9	6.17e-05	0	45	0	87031808	18	4815
2026-01-20 00:52:22.35	14.74	9.57	-29.2	-31.7	12.9	4.95e-05	0	44	0	90177536	18	4792
2026-01-20 00:52:23.35	14.71	9.66	-29.4	-32.2	12.6	1.01e-04	0	45	0	93323264	18	4942
2026-01-20 00:52:24.35	14.68	9.74	-29.4	-32.0	12.8	5.56e-05	0	45	0	96468992	18	4886
2026-01-20 00:52:25.35	14.65	9.83	-29.4	-32.0	12.8	7.55e-05	0	45	0	99614720	18	4894
2026-01-20 00:52:26.36	14.62	9.91	-29.2	-31.1	13.0	8.31e-05	0	44	0	102760448	19	4493
2026-01-20 00:52:27.36	14.59	10.00	-29.1	-31.3	13.2	2.89e-05	0	45	0	105906176	18	4659
2026-01-20 00:52:28.36	14.56	10.08	-29.0	-31.1	13.4	9.90e-06	0	45	0	109051904	18	4584
2026-01-20 00:52:29.37	14.52	10.17	-29.1	-31.4	13.2	1.52e-05	0	45	0	112197632	18	4679
2026-01-20 00:52:30.38	14.49	10.26	-29.1	-31.4	13.2	1.67e-05	0	45	0	115343360	18	4671
2026-01-20 00:52:31.38	14.46	10.34	-29.0	-31.1	13.4	1.06e-05	0	45	0	118489088	18	4590
2026-01-20 00:52:32.39	14.43	10.43	-29.0	-31.0	13.4	1.06e-05	0	45	0	121634816	18	4550
2026-01-20 00:52:33.39	14.40	10.52	-28.9	-31.3	13.5	6.80e-06	0	45	0	124780544	17	4771
2026-01-20 00:52:34.39	14.37	10.60	-29.1	-31.4	13.2	2.36e-05	0	44	0	127926272	18	4681
2026-01-20 00:52:35.39	14.33	10.69	-29.1	-31.3	13.3	2.21e-05	0	44	0	131072000	18	4651
2026-01-20 00:52:36.38	14.30	10.78	-28.8	-30.7	13.7	6.10e-06	0	45	0	134217728	18	4451
2026-01-20 00:52:37.39	14.27	10.87	-28.9	-31.5	13.5	9.90e-06	0	45	0	137363456	17	4811
2026-01-20 00:52:38.40	14.24	10.96	-29.0	-31.1	13.4	9.10e-06	0	45	0	140509184	18	4581
2026-01-20 00:52:39.39	14.20	11.04	-29.0	-31.2	13.4	1.37e-05	0	44	0	143654912	18	4603
2026-01-20 00:52:40.40	14.17	11.13	-28.9	-31.4	13.5	9.10e-06	0	44	0	146800640	17	4806
2026-01-20 00:52:41.40	14.14	11.22	-28.9	-31.3	13.6	1.22e-05	0	45	0	149946368	17	4740
2026-01-20 00:52:42.41	14.10	11.31	-28.8	-31.1	13.8	6.10e-06	0	45	0	153092096	17	4677
2026-01-20 00:52:43.41	14.07	11.40	-28.9	-31.4	13.6	6.80e-06	0	45	0	156237824	17	4780
2026-01-20 00:52:44.42	14.04	11.49	-28.8	-31.2	13.7	9.10e-06	0	45	0	159383552	17	4711
2026-01-20 00:52:45.42	14.00	11.58	-28.7	-31.0	13.8	5.30e-06	0	44	0	162529280	17	4646
2026-01-20 00:52:46.43	13.97	11.68	-28.8	-31.2	13.7	6.10e-06	0	44	0	165675008	17	4723
2026-01-20 00:52:47.43	13.93	11.77	-28.8	-31.1	13.8	1.14e-05	0	45	0	168820736	17	4692
2026-01-20 00:52:48.42	13.90	11.86	-28.8	-31.2	13.7	5.30e-06	0	45	0	171966464	17	4725
2026-01-20 00:52:49.43	13.86	11.95	-28.8	-31.1	13.8	5.30e-06	0	44	0	175112192	17	4682
2026-01-20 00:52:50.43	13.83	12.04	-28.9	-31.2	13.7	8.30e-06	0	45	0	178257920	17	4732
2026-01-20 00:52:51.42	13.79	12.13	-29.0	-31.4	13.6	9.10e-06	0	45	0	181403648	17	4799
2026-01-20 00:52:52.42	13.75	12.23	-29.0	-31.1	13.5	1.29e-05	0	45	0	184549376	18	4586
2026-01-20 00:52:53.42	13.72	12.32	-28.9	-30.9	13.6	7.60e-06	0	45	0	187695104	18	4518
2026-01-20 00:52:54.42	13.68	12.41	-28.9	-31.4	13.6	9.10e-06	0	45	0	190840832	17	4766
2026-01-20 00:52:55.42	13.65	12.51	-28.9	-31.2	13.7	3.00e-06	0	45	0	193986560	17	4729
2026-01-20 00:52:56.43	13.61	12.60	-28.8	-31.1	13.8	3.80e-06	0	45	0	197132288	17	4670
2026-01-20 00:52:57.43	13.57	12.70	-28.7	-30.8	14.0	3.00e-06	0	45	0	200278016	17	4580
2026-01-20 00:52:58.44	13.53	12.79	-28.6	-30.6	14.1	1.50e-06	0	45	0	203423744	17	4541
2026-01-20 00:52:59.44	13.49	12.89	-28.5	-30.3	14.3	7.00e-07	0	45	0	206569472	17	4441
2026-01-20 00:53:00.44	13.46	12.98	-28.6	-30.7	14.1	1.50e-06	0	45	0	209715200	17	4559
2026-01-20 00:53:01.46	13.42	13.08	-28.6	-30.5	14.2	3.80e-06	0	45	0	212860928	17	4503
2026-01-20 00:53:02.46	13.38	13.18	-28.5	-30.8	12.5	7.00e-07	0	45	0	216006656	16	4688
2026-01-20 00:53:03.46	13.34	13.28	-28.5	-30.4	13.2	1.50e-06	0	45	0	219152384	17	4466
2026-01-20 00:53:04.47	13.30	13.37	-28.5	-30.8	14.3	0.00e+00	0	44	0	222298112	16	4700
2026-01-20 00:53:05.48	13.26	13.47	-28.5	-30.7	14.4	7.00e-07	0	45	0	225443840	16	4684
2026-01-20 00:53:06.48	13.22	13.57	-28.5	-30.8	14.3	3.00e-06	0	45	0	228589568	16	4713
2026-01-20 00:53:07.48	13.18	13.67	-28.4	-30.6	14.4	0.00e+00	0	45	0	231735296	16	4645
2026-01-20 00:53:08.48	13.14	13.77	-28.4	-30.7	14.4	0.00e+00	0	45	0	234881024	16	4656
2026-01-20 00:53:09.48	13.10	13.87	-28.5	-30.7	14.4	1.62e-03	0	45	0	238026752	16	4682
2026-01-20 00:53:10.48	13.06	13.96	-28.4	-30.5	14.5	6.17e-04	0	45	0	241172480	16	4606
2026-01-20 00:53:11.48	13.02	14.06	-28.4	-30.6	14.5	7.00e-07	0	45	0	244318208	16	4643
2026-01-20 00:53:12.48	12.98	14.16	-28.5	-30.8	14.4	2.20e-06	0	45	0	247463936	16	4696
2026-01-20 00:53:13.48	12.93	14.27	-28.5	-30.7	14.4	0.00e+00	0	45	0	250609664	16	4675
2026-01-20 00:53:14.48	12.89	14.37	-28.5	-30.4	14.4	4.07e-03	0	45	0	253755392	17	4452
2026-01-20 00:53:15.49	12.85	14.47	-28.6	-30.6	14.2	3.96e-03	0	45	0	255852544	17	4508
2026-01-20 00:53:16.50	12.81	14.57	-28.4	-30.2	14.5	0.00e+00	0	45	0	258998272	17	4406
2026-01-20 00:53:17.50	12.76	14.67	-27.9	-29.7	14.3	0.00e+00	0	44	0	262144000	17	4460
2026-01-20 00:53:18.50	12.72	14.78	-28.6	-30.5	14.1	7.00e-07	0	45	0	265289728	17	4504
2026-01-20 00:53:19.50	12.68	14.88	-28.3	-30.4	14.7	4.48e-04	0	45	0	268435456	16	4564
2026-01-20 00:53:20.50	12.63	14.98	-28.4	-30.6	14.2	3.64e-03	0	45	0	271581184	16	4632
2026-01-20 00:53:21.49	12.59	15.09	-28.4	-30.7	14.5	4.81e-03	0	45	0	274726912	16	4651
2026-01-20 00:53:22.50	12.54	15.19	-28.3	-30.2	14.8	0.00e+00	0	45	0	277872640	16	4510
2026-01-20 00:53:23.51	12.50	15.30	-28.2	-30.1	14.9	0.00e+00	0	45	0	281018368	16	4483
2026-01-20 00:53:24.51	12.45	15.40	-28.2	-30.1	14.9	3.89e-03	0	45	0	284164096	16	4488
2026-01-20 00:53:25.51	12.40	15.51	-28.1	-30.0	14.9	4.77e-04	0	45	0	287309824	16	4435
2026-01-20 00:53:26.50	12.36	15.61	-28.3	-30.2	14.8	4.56e-03	0	45	0	290455552	16	4514
2026-01-20 00:53:27.50	12.31	15.72	-28.4	-30.5	14.7	0.00e+00	0	45	0	293601280	16	4587
2026-01-20 00:53:28.51	12.27	15.83	-28.2	-30.0	14.9	4.33e-04	0	45	0	296747008	16	4458
2026-01-20 00:53:29.50	12.22	15.93	-28.3	-30.2	14.8	3.66e-03	0	45	0	299892736	16	4508
2026-01-20 00:53:30.50	12.17	16.04	-28.2	-30.1	14.9	4.07e-03	0	45	0	303038464	16	4489
2026-01-20 00:53:31.50	12.12	16.15	-28.2	-30.0	15.0	4.14e-04	0	45	0	306184192	16	4437
2026-01-20 00:53:32.49	12.07	16.26	-28.3	-30.3	14.8	0.00e+00	0	45	0	309329920	16	4520
2026-01-20 00:53:33.50	12.03	16.37	-28.2	-30.1	14.9	4.02e-03	0	45	0	312475648	16	4464
2026-01-20 00:53:34.50	11.98	16.48	-28.3	-30.2	14.8	3.46e-04	0	45	0	315621376	16	4511
2026-01-20 00:53:35.51	11.93	16.59	-28.2	-30.1	14.9	4.07e-03	0	45	0	318767104	16	4482
2026-01-20 00:53:36.50	11.88	16.70	-28.3	-30.2	14.9	4.07e-03	0	45	0	321912832	16	4506
2026-01-20 00:53:37.51	11.83	16.81	-28.2	-30.1	14.9	3.96e-04	0	45	0	325058560	16	4482
2026-01-20 00:53:38.51	11.78	16.92	-28.3	-30.4	14.8	2.59e-04	0	45	0	328204288	16	4559
2026-01-20 00:53:39.52	11.72	17.04	-28.3	-30.3	14.8	4.18e-03	0	45	0	331350016	16	4541
2026-01-20 00:53:40.51	11.67	17.15	-28.3	-30.3	14.9	3.91e-04	0	44	0	334495744	16	4530
2026-01-20 00:53:41.52	11.62	17.26	-28.3	-30.3	14.8	4.51e-03	0	45	0	337641472	16	4540
2026-01-20 00:53:42.52	11.57	17.37	-28.3	-30.3	14.9	4.28e-03	0	45	0	340787200	16	4521
2026-01-20 00:53:43.52	11.51	17.49	-28.2	-30.2	14.9	0.00e+00	0	44	0	343932928	16	4492
2026-01-20 00:53:44.53	11.46	17.60	-28.3	-30.4	14.8	4.04e-03	0	44	0	347078656	16	4547
2026-01-20 00:53:45.53	11.41	17.72	-28.4	-30.5	14.8	3.53e-03	0	44	0	350224384	16	4582
2026-01-20 00:53:46.54	11.35	17.84	-28.3	-30.4	14.8	4.03e-04	0	45	0	353370112	16	4554
2026-01-20 00:53:47.54	11.30	17.95	-28.4	-30.4	14.8	8.97e-04	0	45	0	356515840	16	4574
2026-01-20 00:53:48.54	11.24	18.07	-28.5	-30.7	14.7	2.26e-04	0	44	0	359661568	16	4643
2026-01-20 00:53:49.54	11.19	18.19	-28.5	-30.7	14.6	7.00e-07	0	45	0	362807296	16	4658
2026-01-20 00:53:50.54	11.13	18.30	-28.5	-30.7	14.7	4.13e-03	0	45	0	365953024	16	4655
2026-01-20 00:53:51.55	11.07	18.42	-28.5	-30.3	14.6	4.14e-03	0	44	0	369098752	17	4433
2026-01-20 00:53:52.56	11.02	18.54	-28.5	-30.3	14.6	7.00e-07	0	45	0	372244480	17	4413
2026-01-20 00:53:53.57	10.96	18.66	-28.5	-30.2	14.7	1.41e-04	0	44	0	375390208	17	4386
2026-01-20 00:53:54.56	10.90	18.78	-28.6	-30.4	14.6	1.56e-04	0	44	0	378535936	17	4446
2026-01-20 00:53:55.56	10.84	18.90	-28.5	-30.3	14.6	0.00e+00	0	44	0	381681664	17	4419
2026-01-20 00:53:56.57	10.78	19.03	-28.5	-30.2	14.7	3.66e-03	0	44	0	384827392	17	4396
2026-01-20 00:53:57.56	10.72	19.15	-28.5	-30.7	14.7	8.46e-05	0	44	0	387973120	16	4641
2026-01-20 00:53:58.56	10.67	19.27	-28.5	-30.6	14.8	7.00e-07	0	45	0	391118848	16	4628
2026-01-20 00:53:59.56	10.60	19.39	-28.4	-30.5	14.8	1.72e-04	0	44	0	394264576	16	4584
2026-01-20 00:54:00.55	10.54	19.51	-28.4	-30.6	14.8	3.87e-03	0	44	0	397410304	16	4612
2026-01-20 00:54:01.55	10.48	19.64	-28.4	-30.5	14.9	2.72e-04	0	45	0	400556032	16	4578
2026-01-20 00:54:02.55	10.42	19.76	-28.4	-30.4	14.9	2.69e-04	0	45	0	403701760	16	4557
2026-01-20 00:54:03.55	10.36	19.89	-28.4	-29.9	14.9	2.92e-04	0	44	0	406847488	17	4311
2026-01-20 00:54:04.56	10.29	20.01	-28.2	-30.1	15.1	0.00e+00	0	45	0	409993216	16	4458
2026-01-20 00:54:05.56	10.23	20.14	-28.2	-30.0	15.1	2.58e-04	0	45	0	413138944	16	4448
2026-01-20 00:54:06.56	10.17	20.27	-28.3	-30.3	15.0	0.00e+00	0	45	0	416284672	16	4523
2026-01-20 00:54:07.56	10.10	20.39	-28.2	-30.0	15.2	7.00e-07	0	44	0	419430400	16	4427
2026-01-20 00:54:08.57	10.04	20.52	-28.0	-29.7	15.4	2.53e-04	0	44	0	422576128	16	4338
2026-01-20 00:54:09.57	9.97	20.65	-27.8	-29.7	15.4	2.43e-04	0	45	0	425721856	15	4473
2026-01-20 00:54:10.58	9.90	20.78	-27.8	-29.6	15.5	0.00e+00	0	45	0	428867584	15	4434
2026-01-20 00:54:11.58	9.84	20.91	-27.9	-29.8	15.4	0.00e+00	0	45	0	432013312	15	4505
2026-01-20 00:54:12.59	9.77	21.04	-28.2	-29.9	15.2	3.01e-04	0	45	0	435159040	16	4414
2026-01-20 00:54:13.59	9.70	21.18	-28.1	-29.8	15.3	0.00e+00	0	45	0	438304768	16	4368
2026-01-20 00:54:14.59	9.63	21.31	-27.7	-29.4	15.6	3.08e-04	0	44	0	441450496	15	4372
2026-01-20 00:54:15.59	9.56	21.44	-27.5	-29.0	15.8	3.27e-04	0	44	0	444596224	15	4280
2026-01-20 00:54:16.59	9.49	21.57	-27.6	-29.2	15.7	0.00e+00	0	45	0	447741952	15	4322
2026-01-20 00:54:17.59	9.42	21.71	-27.5	-29.0	15.8	7.00e-07	0	45	0	450887680	15	4285
2026-01-20 00:54:18.59	9.35	21.84	-27.5	-28.9	15.9	3.19e-04	0	45	0	454033408	15	4241
2026-01-20 00:54:19.60	9.28	21.98	-27.5	-29.1	15.8	0.00e+00	0	45	0	457179136	15	4299
2026-01-20 00:54:20.60	9.20	22.11	-27.5	-29.0	15.8	2.75e-04	0	45	0	460324864	15	4272
2026-01-20 00:54:21.60	9.13	22.25	-27.3	-29.1	16.0	0.00e+00	0	45	0	462422016	14	4415
2026-01-20 00:54:22.60	9.06	22.39	-27.3	-29.0	16.1	0.00e+00	0	44	0	465567744	14	4393
2026-01-20 00:54:23.61	8.98	22.53	-27.4	-29.2	16.0	0.00e+00	0	45	0	469762048	14	4450
2026-01-20 00:54:24.61	8.90	22.67	-27.4	-29.2	16.0	2.36e-05	0	45	0	472907776	14	4442
2026-01-20 00:54:25.61	8.83	22.80	-27.3	-28.9	16.2	0.00e+00	0	44	0	476053504	14	4370
2026-01-20 00:54:26.62	8.75	22.95	-27.3	-29.0	16.1	0.00e+00	0	45	0	479199232	14	4384
2026-01-20 00:54:27.62	8.67	23.09	-27.3	-29.0	16.2	0.00e+00	0	45	0	482344960	14	4377
2026-01-20 00:54:28.62	8.59	23.23	-27.4	-29.2	16.0	0.00e+00	0	45	0	484442112	14	4443
2026-01-20 00:54:29.62	8.52	23.37	-27.3	-29.0	16.1	9.68e-05	0	45	0	487587840	14	4390
2026-01-20 00:54:30.62	8.44	23.51	-27.2	-28.8	16.3	0.00e+00	0	45	0	490733568	14	4322
2026-01-20 00:54:31.62	8.35	23.66	-27.1	-28.6	16.4	0.00e+00	0	45	0	493879296	14	4286
2026-01-20 00:54:32.62	8.27	23.80	-27.2	-28.8	16.3	0.00e+00	0	45	0	497025024	14	4326
2026-01-20 00:54:33.62	8.19	23.95	-27.3	-29.0	16.2	0.00e+00	0	45	0	500170752	14	4373
2026-01-20 00:54:34.62	8.11	24.09	-27.3	-29.1	16.1	0.00e+00	0	45	0	503316480	14	4404
2026-01-20 00:54:35.62	8.02	24.24	-27.4	-29.2	16.1	0.00e+00	0	45	0	506462208	14	4443
2026-01-20 00:54:36.62	7.94	24.39	-27.4	-29.3	16.0	0.00e+00	0	45	0	509607936	14	4468
2026-01-20 00:54:37.62	7.85	24.53	-27.5	-29.4	16.0	0.00e+00	0	45	0	512753664	14	4483
2026-01-20 00:54:38.62	7.77	24.68	-27.4	-29.3	16.0	0.00e+00	0	45	0	515899392	14	4479
2026-01-20 00:54:39.63	7.68	24.83	-27.5	-29.0	16.0	0.00e+00	0	45	0	519045120	15	4273
2026-01-20 00:54:40.62	7.59	24.98	-27.7	-29.3	15.8	0.00e+00	0	44	0	522190848	15	4368
2026-01-20 00:54:41.63	7.50	25.13	-27.7	-29.5	15.7	0.00e+00	0	45	0	525336576	15	4396
2026-01-20 00:54:42.63	7.41	25.29	-27.6	-29.2	15.8	0.00e+00	0	45	0	528482304	15	4335
2026-01-20 00:54:43.64	7.32	25.44	-27.7	-29.4	15.7	0.00e+00	0	45	0	531628032	15	4390
2026-01-20 00:54:44.64	7.23	25.59	-27.8	-29.7	15.6	0.00e+00	0	45	0	534773760	15	4480
2026-01-20 00:54:45.64	7.14	25.75	-27.9	-29.9	15.5	0.00e+00	0	45	0	537919488	15	4521
2026-01-20 00:54:46.64	7.04	25.90	-27.9	-29.7	15.6	0.00e+00	0	45	0	541065216	15	4478
2026-01-20 00:54:47.65	6.95	26.06	-28.0	-30.0	15.4	0.00e+00	0	45	0	544210944	15	4566
2026-01-20 00:54:48.65	6.85	26.22	-28.1	-29.9	15.4	0.00e+00	0	45	0	547356672	16	4389
2026-01-20 00:54:49.65	6.76	26.38	-28.2	-30.0	15.3	0.00e+00	0	45	0	550502400	16	4437
2026-01-20 00:54:50.65	6.66	26.53	-28.2	-30.1	15.3	0.00e+00	0	45	0	553648128	16	4450
2026-01-20 00:54:51.65	6.56	26.69	-28.3	-30.2	15.2	0.00e+00	0	45	0	556793856	16	4494
2026-01-20 00:54:52.66	6.46	26.86	-28.3	-30.3	15.2	0.00e+00	0	45	0	559939584	16	4505
2026-01-20 00:54:53.66	6.36	27.02	-28.3	-30.2	15.3	0.00e+00	0	45	0	563085312	16	4478
2026-01-20 00:54:54.66	6.26	27.18	-28.3	-30.2	15.2	0.00e+00	0	45	0	566231040	16	4497
2026-01-20 00:54:55.66	6.15	27.34	-28.3	-30.2	15.3	0.00e+00	0	45	0	569376768	16	4479
2026-01-20 00:54:56.67	6.05	27.51	-28.4	-30.5	15.1	0.00e+00	0	45	0	572522496	16	4574
2026-01-20 00:54:57.67	5.94	27.67	-28.5	-30.2	15.0	0.00e+00	0	45	0	575668224	17	4384
2026-01-20 00:54:58.67	5.84	27.84	-28.6	-30.4	14.9	0.00e+00	0	45	0	578813952	17	4424
2026-01-20 00:54:59.67	5.73	28.00	-28.7	-30.6	14.8	0.00e+00	0	45	0	581959680	17	4482
2026-01-20 00:55:00.67	5.62	28.17	-28.7	-30.6	14.8	0.00e+00	0	45	0	585105408	17	4496
2026-01-20 00:55:01.68	5.51	28.34	-28.7	-30.7	14.7	0.00e+00	0	45	0	588251136	17	4523
2026-01-20 00:55:02.69	5.40	28.51	-28.7	-30.7	14.7	0.00e+00	0	45	0	591396864	17	4517
2026-01-20 00:55:03.69	5.29	28.68	-28.9	-31.1	14.5	0.00e+00	0	45	0	594542592	17	4632
2026-01-20 00:55:04.69	5.17	28.85	-28.7	-30.7	14.7	0.00e+00	0	45	0	597688320	17	4516
2026-01-20 00:55:05.70	5.06	29.02	-28.6	-30.4	14.9	0.00e+00	0	45	0	600834048	17	4415
2026-01-20 00:55:06.70	4.94	29.20	-28.5	-30.1	15.1	0.00e+00	0	45	0	603979776	17	4351
2026-01-20 00:55:07.70	4.83	29.37	-28.5	-30.1	15.1	0.00e+00	0	45	0	607125504	17	4339
2026-01-20 00:55:08.71	4.71	29.55	-28.3	-30.3	15.3	0.00e+00	0	45	0	610271232	16	4500
2026-01-20 00:55:09.71	4.59	29.72	-28.4	-30.5	15.2	0.00e+00	0	45	0	613416960	16	4560
2026-01-20 00:55:10.71	4.47	29.90	-28.2	-30.0	15.4	0.00e+00	0	45	0	616562688	16	4420
2026-01-20 00:55:11.71	4.34	30.08	-28.1	-29.7	15.6	0.00e+00	0	45	0	619708416	16	4332
2026-01-20 00:55:12.72	4.22	30.26	-28.1	-29.7	15.6	0.00e+00	0	45	0	622854144	16	4334
2026-01-20 00:55:13.72	4.09	30.44	-28.2	-29.9	15.5	3.55e-03	0	45	0	625999872	16	4389
2026-01-20 00:55:14.72	3.97	30.62	-28.2	-29.9	15.5	3.31e-03	0	45	0	629145600	16	4379
2026-01-20 00:55:15.73	3.84	30.80	-28.2	-30.0	15.5	0.00e+00	0	45	0	632291328	16	4406
2026-01-20 00:55:16.73	3.71	30.98	-28.2	-29.9	15.5	0.00e+00	0	45	0	635437056	16	4405
2026-01-20 00:55:17.73	3.58	31.16	-28.2	-29.9	15.5	0.00e+00	0	45	0	638582784	16	4392
2026-01-20 00:55:18.72	3.44	31.35	-28.3	-30.2	15.3	0.00e+00	0	45	0	641728512	16	4482
2026-01-20 00:55:19.73	3.31	31.53	-28.3	-30.2	15.3	3.60e-03	0	45	0	644874240	16	4478
2026-01-20 00:55:20.73	3.17	31.72	-28.4	-30.5	15.2	0.00e+00	0	45	0	648019968	16	4573
2026-01-20 00:55:21.74	3.03	31.91	-28.4	-30.4	15.2	0.00e+00	0	45	0	651165696	16	4532
2026-01-20 00:55:22.75	2.89	32.10	-28.3	-30.3	15.3	0.00e+00	0	45	0	654311424	16	4508
2026-01-20 00:55:23.75	2.75	32.29	-28.4	-30.4	15.2	3.12e-03	0	45	0	657457152	16	4538
2026-01-20 00:55:24.75	2.61	32.48	-28.4	-30.3	15.3	0.00e+00	0	45	0	660602880	16	4513
2026-01-20 00:55:25.75	2.47	32.67	-28.4	-30.3	15.3	0.00e+00	0	45	0	663748608	16	4516
2026-01-20 00:55:26.75	2.32	32.86	-28.3	-30.3	15.3	0.00e+00	0	45	0	666894336	16	4493
2026-01-20 00:55:27.75	2.17	33.05	-28.5	-30.1	15.2	0.00e+00	0	45	0	670040064	17	4331
2026-01-20 00:55:28.76	2.02	33.25	-28.8	-30.9	14.7	3.73e-03	0	45	0	673185792	17	4571
2026-01-20 00:55:29.76	1.87	33.45	-28.7	-30.7	14.8	3.53e-03	0	45	0	676331520	17	4508
2026-01-20 00:55:30.76	1.72	33.64	-28.6	-30.4	15.0	0.00e+00	0	45	0	679477248	17	4411
2026-01-20 00:55:31.77	1.56	33.84	-28.6	-30.3	15.1	3.41e-03	0	45	0	682622976	17	4388
2026-01-20 00:55:32.77	1.40	34.04	-28.7	-30.6	14.9	1.55e-03	0	45	0	685768704	17	4480
2026-01-20 00:55:33.77	1.24	34.24	-28.8	-30.9	14.7	0.00e+00	0	45	0	688914432	17	4575
2026-01-20 00:55:34.78	1.08	34.44	-28.8	-30.9	14.7	3.01e-03	0	45	0	692060160	17	4574
2026-01-20 00:55:35.78	0.92	34.64	-28.9	-31.0	14.7	3.30e-03	0	45	0	695205888	17	4589
2026-01-20 00:55:36.78	0.75	34.84	-29.0	-31.2	14.5	0.00e+00	0	45	0	698351616	17	4665
2026-01-20 00:55:37.78	0.58	35.05	-29.1	-31.1	14.4	3.02e-03	0	45	0	701497344	18	4509
2026-01-20 00:55:38.78	0.41	35.25	-29.3	-31.5	14.1	2.82e-03	0	45	0	704643072	18	4634
2026-01-20 00:55:39.79	0.24	35.46	-29.4	-31.8	14.0	7.00e-07	0	45	0	707788800	18	4720
2026-01-20 00:55:40.79	0.07	35.67	-29.6	-31.8	13.7	2.34e-03	0	45	0	710934528	19	4602
2026-01-20 00:55:41.79	359.89	35.87	-29.8	-32.1	13.5	2.10e-03	0	45	0	713031680	19	4724
2026-01-20 00:55:42.79	359.71	36.08	-29.8	-32.2	13.4	1.06e-05	0	45	0	716177408	19	4764
2026-01-20 00:55:43.79	359.53	36.29	-29.9	-32.4	13.3	2.21e-03	0	45	0	719323136	19	4797
2026-01-20 00:55:44.79	359.35	36.50	-29.9	-32.4	13.3	2.61e-03	0	45	0	722468864	19	4810
2026-01-20 00:55:45.80	359.16	36.72	-29.9	-32.4	13.3	2.44e-05	0	45	0	725614592	19	4804
2026-01-20 00:55:46.81	358.97	36.93	-30.0	-32.3	13.1	2.75e-03	0	45	0	728760320	20	4654
2026-01-20 00:55:47.81	358.78	37.15	-30.0	-32.2	13.1	3.35e-05	0	45	0	732954624	20	4628
2026-01-20 00:55:48.81	358.58	37.36	-30.1	-32.4	13.0	4.42e-05	0	45	0	736100352	20	4688
2026-01-20 00:55:49.81	358.39	37.58	-30.1	-32.5	12.9	3.45e-03	0	45	0	738197504	20	4746
2026-01-20 00:55:50.81	358.19	37.79	-30.1	-32.3	13.1	3.36e-03	0	45	0	741343232	20	4674
2026-01-20 00:55:51.81	357.99	38.01	-30.0	-32.2	13.1	7.93e-05	0	45	0	744488960	20	4637
2026-01-20 00:55:52.81	357.78	38.23	-30.2	-32.7	12.9	3.81e-05	0	45	0	747634688	20	4783
2026-01-20 00:55:53.82	357.58	38.45	-30.2	-32.6	12.9	5.56e-05	0	45	0	750780416	20	4757
2026-01-20 00:55:54.83	357.36	38.68	-30.4	-33.1	12.5	9.76e-05	0	45	0	753926144	20	4944
2026-01-20 00:55:55.82	357.15	38.90	-30.4	-33.2	12.5	3.31e-03	0	45	0	757071872	20	4966
2026-01-20 00:55:56.82	356.94	39.12	-30.5	-33.0	12.2	1.71e-04	0	45	0	760217600	21	4802
2026-01-20 00:55:57.82	356.72	39.34	-30.6	-33.3	12.1	2.42e-04	0	45	0	763363328	21	4915
2026-01-20 00:55:58.81	356.50	39.56	-30.4	-32.8	12.4	1.85e-04	0	45	0	766509056	21	4727
2026-01-20 00:55:59.81	356.27	39.79	-30.4	-33.3	12.4	1.23e-04	0	45	0	769654784	20	4993
2026-01-20 00:56:00.81	356.04	40.02	-30.2	-32.6	12.8	1.61e-04	0	45	0	772800512	20	4777
2026-01-20 00:56:01.81	355.81	40.24	-29.8	-31.8	13.4	3.05e-05	0	45	0	775946240	20	4495
2026-01-20 00:56:02.82	355.58	40.48	-29.8	-32.0	13.6	1.22e-05	0	45	0	779091968	19	4686
2026-01-20 00:56:03.83	355.34	40.71	-29.6	-31.7	13.7	4.50e-06	0	45	0	782237696	19	4591
2026-01-20 00:56:04.83	355.09	40.94	-29.8	-32.2	13.5	9.90e-06	0	45	0	785383424	19	4737
2026-01-20 00:56:05.82	354.85	41.17	-29.8	-32.3	13.4	1.97e-03	0	45	0	788529152	19	4762
2026-01-20 00:56:06.83	354.60	41.40	-29.9	-32.5	13.2	1.98e-05	0	45	0	791674880	19	4857
2026-01-20 00:56:07.83	354.35	41.63	-30.0	-32.2	13.1	1.90e-05	0	45	0	794820608	20	4640
2026-01-20 00:56:08.83	354.09	41.87	-30.1	-32.5	12.9	4.19e-05	0	45	0	797966336	20	4738
2026-01-20 00:56:09.83	353.83	42.10	-29.8	-31.8	13.4	2.44e-05	0	45	0	801112064	20	4501
2026-01-20 00:56:10.83	353.57	42.34	-29.7	-32.0	13.6	4.50e-06	0	45	0	804257792	19	4683
2026-01-20 00:56:11.83	353.30	42.57	-29.8	-32.2	13.5	8.30e-06	0	45	0	807403520	19	4744
2026-01-20 00:56:12.84	353.02	42.81	-30.0	-32.5	13.3	1.14e-05	0	45	0	810549248	19	4832
2026-01-20 00:56:13.84	352.75	43.05	-30.0	-32.2	13.1	2.89e-05	0	45	0	813694976	20	4643
2026-01-20 00:56:14.84	352.47	43.29	-30.4	-33.2	12.5	9.76e-05	0	45	0	816840704	20	4952
2026-01-20 00:56:15.84	352.18	43.53	-30.4	-32.5	12.6	1.19e-04	0	45	0	819986432	21	4625
2026-01-20 00:56:16.84	351.89	43.77	-30.3	-33.0	12.6	8.62e-05	0	45	0	823132160	20	4886
2026-01-20 00:56:17.85	351.60	44.01	-30.5	-33.0	12.3	1.72e-04	0	45	0	826277888	21	4770
2026-01-20 00:56:18.85	351.30	44.25	-30.7	-33.5	12.0	2.78e-04	0	45	0	829423616	21	4944
2026-01-20 00:56:19.86	350.99	44.50	-30.7	-33.6	12.0	3.33e-04	0	45	0	832569344	21	4991
2026-01-20 00:56:20.87	350.68	44.74	-30.6	-33.2	12.2	2.25e-04	0	45	0	835715072	21	4844
2026-01-20 00:56:21.87	350.37	44.99	-30.4	-32.8	12.4	1.41e-04	0	45	0	838860800	21	4709
2026-01-20 00:56:22.88	350.05	45.23	-30.5	-32.9	12.4	1.38e-04	0	45	0	842006528	21	4760
2026-01-20 00:56:23.88	349.73	45.48	-30.6	-33.2	12.2	2.03e-04	0	45	0	845152256	21	4853
2026-01-20 00:56:24.88	349.40	45.72	-30.5	-32.9	12.3	1.93e-04	0	45	0	848297984	21	4738
2026-01-20 00:56:25.87	349.07	45.96	-30.8	-33.8	11.7	4.11e-04	0	45	0	851443712	21	5077
2026-01-20 00:56:26.88	348.73	46.21	-30.6	-33.2	12.1	3.84e-04	0	45	0	854589440	21	4863
2026-01-20 00:56:27.88	348.39	46.46	-30.4	-32.6	12.5	1.35e-04	0	45	0	857735168	21	4655
2026-01-20 00:56:28.88	348.04	46.70	-30.0	-31.8	13.0	5.41e-05	0	45	0	860880896	21	4399
2026-01-20 00:56:29.89	347.69	46.95	-29.9	-32.0	13.2	2.59e-05	0	45	0	864026624	20	4558
2026-01-20 00:56:30.88	347.33	47.20	-29.9	-32.1	13.2	2.89e-05	0	45	0	867172352	20	4590
2026-01-20 00:56:31.89	346.96	47.45	-30.2	-32.6	12.9	3.35e-05	0	45	0	870318080	20	4767
2026-01-20 00:56:32.88	346.59	47.69	-30.1	-32.4	13.0	3.66e-05	0	45	0	873463808	20	4691
2026-01-20 00:56:33.88	346.22	47.94	-29.9	-32.0	13.2	2.51e-05	0	45	0	876609536	20	4573
2026-01-20 00:56:34.89	345.83	48.19	-29.9	-32.3	13.4	1.90e-05	0	45	0	879755264	19	4764
2026-01-20 00:56:35.89	345.44	48.43	-29.9	-32.5	13.3	1.37e-05	0	45	0	882900992	19	4828
2026-01-20 00:56:36.89	345.04	48.68	-29.9	-32.0	13.2	1.60e-05	0	45	0	886046720	20	4571
2026-01-20 00:56:37.89	344.64	48.93	-30.3	-33.0	12.6	7.78e-05	0	45	0	889192448	20	4908
2026-01-20 00:56:38.89	344.23	49.17	-30.5	-33.4	12.4	1.41e-04	0	45	0	892338176	20	5034
2026-01-20 00:56:39.89	343.82	49.42	-30.3	-33.1	12.5	1.14e-04	0	45	0	895483904	20	4933
2026-01-20 00:56:40.90	343.39	49.67	-30.0	-32.1	13.0	5.26e-05	0	45	0	898629632	20	4615
2026-01-20 00:56:41.89	342.96	49.91	-29.9	-32.5	13.3	2.67e-05	0	45	0	901775360	19	4818
2026-01-20 00:56:42.89	342.53	50.16	-29.8	-32.2	13.4	8.30e-06	0	45	0	904921088	19	4747
2026-01-20 00:56:43.89	342.08	50.40	-29.8	-32.0	13.6	9.90e-06	0	45	0	908066816	19	4683
2026-01-20 00:56:44.90	341.63	50.65	-30.0	-32.1	13.1	1.20e-04	0	45	0	911212544	20	4607
2026-01-20 00:56:45.90	341.17	50.89	-30.1	-32.5	12.8	4.73e-05	0	45	0	914358272	20	4731
2026-01-20 00:56:46.90	340.71	51.14	-30.1	-32.4	12.8	1.68e-04	0	45	0	917504000	20	4706
2026-01-20 00:56:47.91	340.23	51.38	-29.9	-31.9	13.2	3.50e-05	0	45	0	920649728	20	4536
2026-01-20 00:56:48.91	339.75	51.62	-29.8	-31.7	13.3	1.75e-05	0	45	0	923795456	20	4492
2026-01-20 00:56:49.91	339.26	51.86	-30.1	-32.3	13.0	3.05e-05	0	45	0	926941184	20	4681
2026-01-20 00:56:50.92	338.75	52.10	-29.9	-32.0	13.2	2.51e-05	0	45	0	930086912	20	4583
2026-01-20 00:56:51.92	338.25	52.34	-29.5	-31.0	13.8	1.06e-05	0	45	0	933232640	20	4283
2026-01-20 00:56:52.93	337.73	52.58	-29.3	-31.0	14.2	2.20e-06	0	45	0	936378368	19	4380
2026-01-20 00:56:53.93	337.21	52.82	-29.4	-31.7	14.2	1.50e-06	0	45	0	939524096	18	4680
2026-01-20 00:56:54.94	336.67	53.05	-29.2	-31.2	14.4	7.00e-07	0	45	0	942669824	18	4532
2026-01-20 00:56:55.94	336.13	53.29	-29.4	-31.8	14.1	3.80e-06	0	45	0	944766976	18	4722
2026-01-20 00:56:56.95	335.58	53.52	-29.4	-31.3	14.0	3.80e-06	0	45	0	947912704	19	4453
2026-01-20 00:56:57.96	335.01	53.75	-29.0	-30.4	14.6	7.00e-07	0	45	0	952107008	19	4200
2026-01-20 00:56:58.96	334.45	53.98	-28.7	-30.1	15.1	0.00e+00	0	45	0	955252736	18	4219
2026-01-20 00:56:59.96	333.87	54.21	-28.7	-30.6	15.1	0.00e+00	0	45	0	958398464	17	4466
2026-01-20 00:57:00.96	333.29	54.43	-28.7	-30.7	15.0	0.00e+00	0	45	0	961544192	17	4497
2026-01-20 00:57:01.97	332.69	54.66	-29.2	-31.2	14.4	0.00e+00	0	45	0	964689920	18	4533
2026-01-20 00:57:02.97	332.09	54.88	-29.0	-30.7	14.7	0.00e+00	0	45	0	966787072	18	4389
2026-01-20 00:57:03.96	331.48	55.09	-28.7	-30.1	15.0	0.00e+00	0	45	0	969932800	18	4230
2026-01-20 00:57:04.96	330.86	55.31	-28.5	-30.1	15.3	0.00e+00	0	45	0	973078528	17	4319
2026-01-20 00:57:05.97	330.22	55.52	-28.6	-30.4	15.0	0.00e+00	0	45	0	976224256	17	4426
2026-01-20 00:57:06.97	329.58	55.73	-28.8	-30.9	14.5	0.00e+00	0	45	0	979369984	17	4563
2026-01-20 00:57:07.97	328.93	55.94	-29.0	-30.9	13.4	1.58e-04	0	45	0	982515712	18	4457
2026-01-20 00:57:08.98	328.26	56.14	-28.7	-30.1	15.0	7.00e-07	0	45	0	985661440	18	4234
2026-01-20 00:57:09.99	327.58	56.35	-28.6	-30.4	15.0	0.00e+00	0	45	0	988807168	17	4407
2026-01-20 00:57:10.99	326.90	56.54	-28.7	-30.6	15.0	0.00e+00	0	45	0	991952896	17	4463
2026-01-20 00:57:11.99	326.21	56.74	-28.3	-29.7	15.4	0.00e+00	0	45	0	995098624	17	4224
2026-01-20 00:57:12.99	325.51	56.93	-28.3	-29.6	15.5	5.75e-04	0	45	0	998244352	17	4192
2026-01-20 00:57:13.99	324.80	57.12	-28.3	-30.2	15.4	0.00e+00	0	45	0	1001390080	16	4482
2026-01-20 00:57:15.00	324.08	57.30	-28.1	-29.7	15.7	0.00e+00	0	45	0	1004535808	16	4339
2026-01-20 00:57:16.00	323.35	57.48	-27.9	-29.2	16.0	0.00e+00	0	45	0	1007681536	16	4191
2026-01-20 00:57:17.01	322.60	57.66	-28.2	-29.9	15.6	0.00e+00	0	45	0	1010827264	16	4383
2026-01-20 00:57:18.02	321.85	57.83	-28.0	-29.6	15.7	4.50e-06	0	45	0	1013972992	16	4317
2026-01-20 00:57:19.01	321.10	58.00	-28.0	-29.4	15.8	3.15e-04	0	45	0	1017118720	16	4262
2026-01-20 00:57:20.02	320.32	58.17	-28.0	-29.6	15.8	3.64e-04	0	45	0	1020264448	16	4307
2026-01-20 00:57:21.02	319.54	58.33	-27.8	-29.1	16.1	3.00e-06	0	45	0	1023410176	16	4152
2026-01-20 00:57:22.02	318.76	58.48	-27.9	-29.8	15.8	0.00e+00	0	45	0	1026555904	15	4497
2026-01-20 00:57:23.03	317.95	58.63	-27.4	-28.7	16.3	5.73e-04	0	45	0	1029701632	15	4168
2026-01-20 00:57:24.03	317.15	58.78	-26.9	-27.7	16.9	2.20e-06	0	45	0	1032847360	15	3919
2026-01-20 00:57:25.03	316.34	58.92	-26.6	-27.5	17.3	2.48e-04	0	45	0	1035993088	14	3974
2026-01-20 00:57:26.04	315.51	59.05	-26.8	-27.9	17.1	0.00e+00	0	45	0	1039138816	14	4083
2026-01-20 00:57:27.04	314.68	59.18	-27.2	-28.7	16.6	2.20e-06	0	45	0	1042284544	14	4275
2026-01-20 00:57:28.05	313.83	59.31	-27.5	-28.9	16.3	5.40e-04	0	45	0	1045430272	15	4236
2026-01-20 00:57:29.05	312.98	59.43	-27.6	-29.0	16.1	4.00e-04	0	45	0	1048576000	15	4274
2026-01-20 00:57:30.05	312.13	59.54	-27.6	-29.1	16.1	0.00e+00	0	45	0	1051721728	15	4295
2026-01-20 00:57:31.05	311.27	59.65	-27.4	-28.6	16.3	0.00e+00	0	45	0	1054867456	15	4151
2026-01-20 00:57:32.06	310.39	59.75	-27.5	-28.9	16.2	0.00e+00	0	45	0	1058013184	15	4225
2026-01-20 00:57:33.06	309.51	59.85	-27.6	-29.2	16.1	7.00e-07	0	45	0	1061158912	15	4311
2026-01-20 00:57:34.06	308.63	59.94	-28.2	-29.9	15.5	1.40e-04	0	45	0	1064304640	16	4394
2026-01-20 00:57:35.05	307.75	60.02	-28.0	-29.6	15.8	1.14e-04	0	45	0	1067450368	16	4296
2026-01-20 00:57:36.06	306.85	60.10	-27.9	-29.3	15.8	0.00e+00	0	45	0	1070596096	16	4231
2026-01-20 00:57:37.06	305.95	60.17	-28.1	-29.8	15.6	0.00e+00	0	45	0	1073741824	16	4364
2026-01-20 00:57:38.06	305.05	60.24	-27.8	-29.1	16.0	1.36e-04	0	45	0	1076887552	16	4166
2026-01-20 00:57:39.06	304.14	60.29	-27.6	-28.5	16.3	0.00e+00	0	45	0	1080033280	16	4020
2026-01-20 00:57:40.07	303.22	60.35	-27.2	-28.2	16.7	8.91e-04	0	45	0	1083179008	15	4032
2026-01-20 00:57:41.07	302.31	60.39	-27.2	-28.1	16.6	1.13e-03	0	45	0	1086324736	15	4034
2026-01-20 00:57:42.07	301.39	60.43	-27.5	-28.8	16.3	0.00e+00	0	45	0	1089470464	15	4221
2026-01-20 00:57:43.07	300.47	60.47	-27.2	-28.9	16.5	8.63e-04	0	45	0	1092616192	14	4331
2026-01-20 00:57:44.07	299.54	60.49	-27.1	-28.5	16.7	6.66e-04	0	45	0	1095761920	14	4228
2026-01-20 00:57:45.08	298.61	60.51	-27.0	-28.2	16.8	0.00e+00	0	45	0	1098907648	14	4152
2026-01-20 00:57:46.08	297.68	60.52	-27.1	-28.5	16.7	1.35e-03	0	45	0	1102053376	14	4237
2026-01-20 00:57:47.08	296.76	60.53	-27.2	-28.8	16.5	0.00e+00	0	45	0	1105199104	14	4331
2026-01-20 00:57:48.08	295.83	60.53	-27.4	-29.1	16.3	0.00e+00	0	45	0	1108344832	14	4415
2026-01-20 00:57:49.08	294.90	60.52	-27.2	-28.8	16.5	2.73e-03	0	45	0	1111490560	14	4321
2026-01-20 00:57:50.08	293.98	60.51	-27.3	-28.9	16.5	1.87e-03	0	45	0	1114636288	14	4341
2026-01-20 00:57:51.08	293.05	60.49	-27.3	-29.0	16.4	0.00e+00	0	45	0	1117782016	14	4383
2026-01-20 00:57:52.08	292.13	60.46	-27.4	-29.1	16.3	0.00e+00	0	45	0	1120927744	14	4403
2026-01-20 00:57:53.08	291.21	60.43	-27.1	-28.7	16.6	0.00e+00	0	45	0	1124073472	14	4281
2026-01-20 00:57:54.08	290.29	60.39	-27.4	-29.2	16.2	0.00e+00	0	45	0	1127219200	14	4427
2026-01-20 00:57:55.08	289.37	60.34	-27.8	-29.5	15.9	3.16e-03	0	45	0	1130364928	15	4405
2026-01-20 00:57:56.09	288.45	60.29	-27.4	-28.6	16.3	0.00e+00	0	45	0	1133510656	15	4163
2026-01-20 00:57:57.09	287.54	60.23	-27.3	-29.1	16.3	0.00e+00	0	45	0	1136656384	14	4393
2026-01-20 00:57:58.10	286.63	60.16	-27.1	-28.5	16.7	0.00e+00	0	45	0	1139802112	14	4233
2026-01-20 00:57:59.11	285.72	60.09	-27.4	-29.2	16.2	0.00e+00	0	45	0	1142947840	14	4436
2026-01-20 00:58:00.10	284.84	60.01	-27.9	-29.8	15.7	0.00e+00	0	45	0	1146093568	15	4507
2026-01-20 00:58:01.10	283.95	59.92	-28.5	-30.6	15.1	0.00e+00	0	45	0	1149239296	16	4607
2026-01-20 00:58:02.11	283.06	59.83	-28.6	-30.5	14.8	0.00e+00	0	45	0	1152385024	17	4479
2026-01-20 00:58:03.11	282.19	59.74	-28.1	-29.3	15.5	0.00e+00	0	45	0	1155530752	17	4132
2026-01-20 00:58:04.11	281.32	59.63	-27.6	-29.1	16.1	0.00e+00	0	45	0	1158676480	15	4287
2026-01-20 00:58:05.11	280.46	59.52	-27.6	-29.2	16.0	0.00e+00	0	45	0	1161822208	15	4331
2026-01-20 00:58:06.11	279.60	59.41	-28.2	-30.1	15.4	0.00e+00	0	45	0	1164967936	16	4459
2026-01-20 00:58:07.11	278.76	59.29	-28.3	-30.2	15.4	0.00e+00	0	45	0	1168113664	16	4473
2026-01-20 00:58:08.12	277.91	59.16	-27.7	-29.3	15.9	0.00e+00	0	45	0	1171259392	15	4346
2026-01-20 00:58:09.12	277.08	59.03	-28.0	-30.0	15.6	0.00e+00	0	45	0	1174405120	15	4539
2026-01-20 00:58:10.12	276.26	58.90	-28.3	-30.2	15.2	0.00e+00	0	45	0	1177550848	16	4474
2026-01-20 00:58:11.12	275.45	58.76	-28.0	-29.6	15.6	0.00e+00	0	45	0	1180696576	16	4306
2026-01-20 00:58:12.13	274.63	58.61	-28.2	-30.0	15.4	0.00e+00	0	45	0	1183842304	16	4436
2026-01-20 00:58:13.13	273.84	58.46	-28.4	-30.5	15.2	0.00e+00	0	45	0	1186988032	16	4576
2026-01-20 00:58:14.14	273.04	58.30	-28.5	-30.2	15.0	0.00e+00	0	45	0	1190133760	17	4387
2026-01-20 00:58:15.14	272.27	58.14	-28.0	-29.1	15.7	0.00e+00	0	45	0	1193279488	17	4074
2026-01-20 00:58:16.14	271.50	57.98	-27.9	-29.3	15.9	2.43e-04	0	45	0	1196425216	16	4226
2026-01-20 00:58:17.15	270.73	57.81	-27.8	-29.5	15.8	0.00e+00	0	45	0	1198522368	15	4407
2026-01-20 00:58:18.16	269.98	57.63	-27.8	-29.6	15.8	0.00e+00	0	45	0	1202716672	15	4433
2026-01-20 00:58:19.16	269.24	57.46	-27.8	-29.7	15.7	0.00e+00	0	45	0	1205862400	15	4458
2026-01-20 00:58:20.17	268.50	57.27	-27.8	-29.6	15.8	7.00e-07	0	45	0	1209008128	15	4435
2026-01-20 00:58:21.17	267.79	57.09	-28.6	-30.3	15.0	0.00e+00	0	45	0	1212153856	17	4415
2026-01-20 00:58:22.18	267.07	56.90	-28.7	-30.6	14.8	0.00e+00	0	45	0	1215299584	17	4479
2026-01-20 00:58:23.18	266.37	56.71	-28.1	-29.3	15.5	7.00e-07	0	45	0	1218445312	17	4118
2026-01-20 00:58:24.19	265.67	56.51	-27.9	-28.8	15.8	0.00e+00	0	45	0	1220542464	17	3985
2026-01-20 00:58:25.19	264.99	56.31	-28.1	-29.8	15.5	0.00e+00	0	45	0	1223688192	16	4347
2026-01-20 00:58:26.19	264.32	56.11	-28.2	-29.9	15.5	1.36e-04	0	45	0	1226833920	16	4383
2026-01-20 00:58:27.19	263.66	55.90	-28.7	-30.6	14.8	0.00e+00	0	45	0	1229979648	17	4496
2026-01-20 00:58:28.20	263.01	55.69	-29.4	-31.8	13.9	2.20e-06	0	45	0	1233125376	18	4737
2026-01-20 00:58:29.20	262.36	55.48	-29.4	-31.3	13.9	8.30e-06	0	45	0	1236271104	19	4482
2026-01-20 00:58:30.21	261.73	55.27	-29.5	-31.4	13.6	4.50e-06	0	45	0	1239416832	19	4524
2026-01-20 00:58:31.21	261.11	55.05	-29.3	-31.5	13.8	1.97e-03	0	45	0	1242562560	18	4656
2026-01-20 00:58:32.21	260.49	54.83	-28.9	-30.7	14.5	7.64e-04	0	45	0	1245708288	18	4397
2026-01-20 00:58:33.21	259.89	54.61	-29.1	-31.0	14.3	0.00e+00	0	45	0	1248854016	18	4491
2026-01-20 00:58:34.22	259.29	54.39	-29.4	-31.8	13.8	2.11e-04	0	45	0	1251999744	18	4736
2026-01-20 00:58:35.22	258.71	54.16	-30.2	-32.7	12.6	2.76e-04	0	45	0	1255145472	20	4825
2026-01-20 00:58:36.22	258.13	53.93	-30.5	-33.5	12.1	1.62e-04	0	45	0	1258291200	20	5101
2026-01-20 00:58:37.22	257.57	53.70	-30.9	-34.2	11.2	9.72e-04	0	45	0	1261436928	21	5252
2026-01-20 00:58:38.23	257.00	53.47	-30.6	-33.4	11.8	6.48e-04	0	45	0	1264582656	21	4955
2026-01-20 00:58:39.23	256.46	53.24	-29.7	-31.5	13.3	3.35e-05	0	45	0	1267728384	20	4424
2026-01-20 00:58:40.24	255.91	53.00	-28.9	-30.0	14.5	1.50e-06	0	45	0	1270874112	19	4109
2026-01-20 00:58:41.24	255.38	52.77	-28.6	-29.7	14.9	0.00e+00	0	45	0	1274019840	18	4129
2026-01-20 00:58:42.24	254.86	52.53	-29.0	-30.7	14.4	0.00e+00	0	45	0	1277165568	18	4410
2026-01-20 00:58:43.24	254.34	52.29	-30.0	-32.4	12.7	2.36e-05	0	45	0	1280311296	20	4705
2026-01-20 00:58:44.24	253.84	52.05	-30.9	-34.1	11.4	1.27e-03	0	45	0	1283457024	21	5218
2026-01-20 00:58:45.25	253.34	51.81	-30.2	-32.3	12.4	2.31e-04	0	45	0	1286602752	21	4581
2026-01-20 00:58:46.25	252.85	51.57	-29.2	-30.8	14.0	1.29e-05	0	45	0	1289748480	19	4318
2026-01-20 00:58:47.25	252.37	51.33	-28.7	-30.2	14.6	6.71e-05	0	45	0	1292894208	18	4256
2026-01-20 00:58:48.26	251.89	51.08	-28.8	-30.4	14.5	7.00e-07	0	45	0	1296039936	18	4328
2026-01-20 00:58:49.26	251.42	50.84	-29.0	-30.9	14.2	1.98e-04	0	45	0	1299185664	18	4470
2026-01-20 00:58:50.26	250.96	50.59	-29.1	-31.2	14.1	3.00e-06	0	45	0	1302331392	18	4544
2026-01-20 00:58:51.27	250.51	50.35	-29.5	-31.9	13.7	8.30e-06	0	45	0	1305477120	18	4790
2026-01-20 00:58:52.27	250.06	50.10	-30.2	-32.7	12.5	1.63e-04	0	45	0	1308622848	20	4832
2026-01-20 00:58:53.27	249.63	49.85	-30.5	-33.1	11.8	3.29e-04	0	45	0	1311768576	21	4876
2026-01-20 00:58:54.28	249.19	49.60	-30.3	-32.6	12.0	5.71e-04	0	45	0	1314914304	21	4697
2026-01-20 00:58:55.28	248.77	49.36	-29.5	-31.2	13.2	4.73e-05	0	45	0	1318060032	20	4354
2026-01-20 00:58:56.28	248.36	49.11	-29.1	-30.7	14.0	2.20e-06	0	45	0	1321205760	19	4296
2026-01-20 00:58:57.28	247.95	48.86	-29.2	-30.9	13.9	2.20e-06	0	45	0	1324351488	19	4352
2026-01-20 00:58:58.28	247.55	48.61	-29.9	-32.5	13.0	1.62e-04	0	45	0	1327497216	19	4868
2026-01-20 00:58:59.28	247.15	48.37	-30.1	-32.6	12.5	1.69e-04	0	45	0	1330642944	20	4811
2026-01-20 00:59:00.28	246.76	48.12	-29.6	-32.4	11.4	4.78e-04	0	45	0	1333788672	21	4919
2026-01-20 00:59:01.28	246.38	47.87	-29.5	-32.3	10.9	2.38e-04	0	45	0	1336934400	20	4945
2026-01-20 00:59:02.28	246.00	47.62	-30.1	-32.7	12.2	1.29e-04	0	45	0	1340080128	20	4832
2026-01-20 00:59:03.29	245.63	47.37	-30.1	-32.6	11.4	1.72e-04	0	45	0	1343225856	20	4781
2026-01-20 00:59:04.29	245.26	47.13	-29.5	-32.0	13.2	2.59e-05	0	45	0	1346371584	18	4818
2026-01-20 00:59:05.29	244.90	46.88	-29.0	-30.7	14.3	3.00e-06	0	45	0	1349517312	18	4410
2026-01-20 00:59:06.28	244.55	46.63	-28.8	-30.9	14.3	2.20e-06	0	45	0	1352663040	17	4579
2026-01-20 00:59:07.29	244.20	46.38	-29.4	-31.7	13.7	1.45e-03	0	45	0	1355808768	18	4721
2026-01-20 00:59:08.29	243.86	46.14	-29.8	-32.4	13.0	1.22e-05	0	45	0	1358954496	19	4819
2026-01-20 00:59:09.30	243.51	45.89	-30.9	-34.1	11.2	6.85e-04	0	45	0	1362100224	21	5230
2026-01-20 00:59:10.30	243.18	45.64	-31.6	-35.2	9.8	5.52e-03	0	45	0	1365245952	23	5445
2026-01-20 00:59:11.30	242.86	45.40	-31.7	-35.7	9.5	1.65e-02	0	45	0	1368391680	23	5649
2026-01-20 00:59:12.30	242.53	45.15	-31.3	-34.9	10.3	8.98e-03	0	45	0	1371537408	22	5451
2026-01-20 00:59:13.31	242.21	44.90	-30.7	-33.8	11.3	2.51e-03	0	45	0	1374683136	21	5128
2026-01-20 00:59:14.31	241.90	44.66	-30.4	-32.8	12.0	3.87e-04	0	45	0	1377828864	21	4761
2026-01-20 00:59:15.32	241.59	44.42	-30.1	-32.0	12.5	1.95e-04	0	45	0	1380974592	21	4498
2026-01-20 00:59:16.32	241.29	44.17	-29.9	-32.2	12.7	7.93e-05	0	45	0	1384120320	20	4664
2026-01-20 00:59:17.32	240.99	43.93	-29.8	-31.8	13.0	2.94e-04	0	45	0	1387266048	20	4542
2026-01-20 00:59:18.33	240.69	43.69	-29.9	-32.5	12.9	3.33e-03	0	45	0	1390411776	19	4880
2026-01-20 00:59:19.34	240.40	43.44	-30.5	-33.2	11.8	3.91e-03	0	45	0	1393557504	21	4889
2026-01-20 00:59:20.34	240.12	43.20	-31.3	-35.0	10.3	1.79e-03	0	45	0	1396703232	22	5481
2026-01-20 00:59:21.35	239.84	42.96	-32.2	-36.6	8.4	3.79e-02	0	45	0	1399848960	24	5970
2026-01-20 00:59:22.36	239.56	42.72	-32.2	-36.7	8.3	4.91e-02	0	45	0	1402994688	24	6056
2026-01-20 00:59:23.36	239.28	42.48	-31.9	-35.7	9.0	4.50e-02	0	45	0	1406140416	24	5567
2026-01-20 00:59:24.37	239.01	42.24	-31.1	-33.7	10.6	8.56e-03	0	45	0	1409286144	23	4885
2026-01-20 00:59:25.37	238.75	42.01	-30.6	-33.3	11.5	4.06e-03	0	45	0	1412431872	21	4937
2026-01-20 00:59:26.38	238.49	41.77	-30.5	-33.2	11.7	5.39e-04	0	45	0	1415577600	21	4914
2026-01-20 00:59:27.37	238.23	41.54	-30.6	-33.3	11.6	4.20e-03	0	45	0	1418723328	21	4956
2026-01-20 00:59:28.38	237.98	41.30	-30.5	-33.2	11.7	4.56e-03	0	45	0	1421869056	21	4908
2026-01-20 00:59:29.38	237.73	41.07	-30.5	-33.2	11.8	4.77e-04	0	45	0	1425014784	21	4890
2026-01-20 00:59:30.39	237.48	40.83	-30.6	-33.4	11.6	4.77e-03	0	45	0	1428160512	21	4993
2026-01-20 00:59:31.39	237.24	40.60	-30.5	-33.2	11.8	1.92e-03	0	45	0	1431306240	21	4917
2026-01-20 00:59:32.40	237.00	40.37	-30.2	-32.4	12.2	2.84e-04	0	45	0	1434451968	21	4638
2026-01-20 00:59:33.40	236.76	40.14	-30.1	-32.6	12.4	3.99e-03	0	45	0	1437597696	20	4815
2026-01-20 00:59:34.41	236.53	39.91	-30.3	-33.1	12.1	3.86e-03	0	45	0	1440743424	20	5001
2026-01-20 00:59:35.41	236.30	39.68	-30.5	-33.2	11.7	9.15e-04	0	45	0	1443889152	21	4931
2026-01-20 00:59:36.42	236.08	39.45	-30.5	-33.3	11.5	6.83e-04	0	45	0	1447034880	21	4971
2026-01-20 00:59:37.42	235.85	39.23	-30.4	-32.9	11.8	6.93e-04	0	45	0	1450180608	21	4824
2026-01-20 00:59:38.43	235.63	39.00	-30.0	-31.9	12.5	3.06e-04	0	45	0	1453326336	21	4461
2026-01-20 00:59:39.43	235.42	38.78	-29.6	-31.8	13.3	3.86e-03	0	45	0	1456472064	19	4636
2026-01-20 00:59:40.44	235.20	38.55	-29.2	-31.4	13.8	3.63e-03	0	45	0	1459617792	18	4614
2026-01-20 00:59:41.44	234.99	38.33	-29.0	-31.0	14.0	7.00e-07	0	45	0	1462763520	18	4498
2026-01-20 00:59:42.44	234.79	38.11	-29.3	-31.7	13.7	5.30e-06	0	45	0	1465909248	18	4720
2026-01-20 00:59:43.44	234.58	37.89	-29.7	-32.0	13.1	2.82e-05	0	45	0	1469054976	19	4724
2026-01-20 00:59:44.44	234.38	37.67	-29.7	-32.2	13.0	5.64e-05	0	45	0	1472200704	19	4787
2026-01-20 00:59:45.44	234.18	37.45	-29.5	-31.6	13.4	2.64e-03	0	45	0	1475346432	19	4594
2026-01-20 00:59:46.45	233.98	37.24	-29.2	-31.4	13.8	6.80e-06	0	45	0	1478492160	18	4640
2026-01-20 00:59:47.45	233.79	37.02	-29.0	-31.0	14.0	2.20e-06	0	45	0	1481637888	18	4521
2026-01-20 00:59:48.45	233.60	36.81	-29.0	-31.0	14.0	2.20e-06	0	45	0	1484783616	18	4503
2026-01-20 00:59:49.45	233.41	36.59	-29.1	-31.2	13.9	3.79e-03	0	45	0	1487929344	18	4586
2026-01-20 00:59:50.45	233.22	36.38	-29.2	-31.5	13.7	4.50e-06	0	45	0	1491075072	18	4661
2026-01-20 00:59:51.46	233.04	36.17	-29.5	-32.1	13.4	9.90e-06	0	45	0	1494220800	18	4875
2026-01-20 00:59:52.46	232.86	35.96	-29.6	-31.9	13.1	2.36e-05	0	45	0	1497366528	19	4697
2026-01-20 00:59:53.46	232.68	35.75	-29.6	-32.0	13.0	4.11e-05	0	45	0	1500512256	19	4750
2026-01-20 00:59:54.46	232.50	35.54	-29.5	-31.6	13.3	1.60e-05	0	45	0	1503657984	19	4613
2026-01-20 00:59:55.47	232.33	35.33	-29.2	-31.5	13.8	7.60e-06	0	45	0	1506803712	18	4670
2026-01-20 00:59:56.48	232.15	35.12	-29.0	-30.9	14.0	3.80e-06	0	45	0	1509949440	18	4498
2026-01-20 00:59:57.48	231.98	34.92	-28.8	-31.0	14.2	1.50e-06	0	45	0	1513095168	17	4647
2026-01-20 00:59:58.49	231.81	34.71	-28.5	-30.4	14.6	0.00e+00	0	45	0	1516240896	17	4444
2026-01-20 00:59:59.49	231.65	34.51	-28.3	-29.8	14.9	0.00e+00	0	45	0	1519386624	17	4282
2026-01-20 01:00:00.49	231.49	34.31	-28.4	-30.5	14.8	7.00e-07	0	45	0	1521483776	16	4595
2026-01-20 01:00:01.49	231.32	34.10	-28.4	-30.5	14.9	0.00e+00	0	45	0	1524629504	16	4603
2026-01-20 01:00:02.49	231.17	33.90	-28.3	-30.4	14.9	0.00e+00	0	45	0	1527775232	16	4569
2026-01-20 01:00:03.49	231.01	33.71	-28.4	-30.5	14.8	0.00e+00	0	45	0	1530920960	16	4594
2026-01-20 01:00:04.49	230.85	33.51	-28.4	-30.1	14.8	0.00e+00	0	45	0	1534066688	17	4357
2026-01-20 01:00:05.49	230.70	33.31	-28.6	-30.4	14.6	0.00e+00	0	45	0	1537212416	17	4458
2026-01-20 01:00:06.49	230.55	33.12	-28.6	-30.4	14.6	1.50e-06	0	45	0	1540358144	17	4457
2026-01-20 01:00:07.49	230.40	32.92	-28.3	-30.3	15.0	0.00e+00	0	45	0	1543503872	16	4533
2026-01-20 01:00:08.50	230.25	32.73	-28.0	-29.6	15.3	0.00e+00	0	45	0	1546649600	16	4343
2026-01-20 01:00:09.50	230.10	32.53	-28.0	-29.6	15.3	0.00e+00	0	45	0	1549795328	16	4343
2026-01-20 01:00:10.50	229.96	32.34	-28.0	-29.7	15.3	0.00e+00	0	45	0	1552941056	16	4359
2026-01-20 01:00:11.51	229.81	32.15	-28.2	-30.0	15.1	0.00e+00	0	45	0	1556086784	16	4447
2026-01-20 01:00:12.50	229.67	31.96	-28.3	-30.2	14.9	0.00e+00	0	45	0	1559232512	16	4521
2026-01-20 01:00:13.52	229.53	31.77	-28.6	-30.5	14.5	7.00e-07	0	45	0	1562378240	17	4494
2026-01-20 01:00:14.52	229.39	31.58	-28.6	-30.6	14.4	7.00e-07	0	45	0	1565523968	17	4529
2026-01-20 01:00:15.53	229.26	31.39	-28.6	-30.6	14.4	1.50e-06	0	45	0	1568669696	17	4538
2026-01-20 01:00:16.53	229.12	31.21	-28.6	-30.5	14.4	7.00e-07	0	45	0	1571815424	17	4477
2026-01-20 01:00:17.53	228.99	31.02	-28.5	-30.2	14.6	0.00e+00	0	45	0	1574961152	17	4411
2026-01-20 01:00:18.54	228.86	30.84	-28.5	-30.7	14.6	7.00e-07	0	45	0	1578106880	16	4668
2026-01-20 01:00:19.54	228.73	30.65	-28.4	-30.0	14.7	7.00e-07	0	45	0	1581252608	17	4341
2026-01-20 01:00:20.54	228.60	30.47	-28.3	-30.3	14.8	0.00e+00	0	45	0	1584398336	16	4558
2026-01-20 01:00:21.55	228.47	30.29	-28.3	-30.4	14.8	0.00e+00	0	45	0	1587544064	16	4564
2026-01-20 01:00:22.56	228.34	30.11	-28.2	-30.2	14.9	0.00e+00	0	45	0	1590689792	16	4509
2026-01-20 01:00:23.56	228.22	29.93	-28.2	-30.2	14.9	7.00e-07	0	45	0	1593835520	16	4520
2026-01-20 01:00:24.56	228.10	29.75	-28.2	-30.0	15.0	1.62e-03	0	45	0	1596981248	16	4453
2026-01-20 01:00:25.57	227.97	29.57	-27.9	-29.9	15.2	0.00e+00	0	45	0	1600126976	15	4532
2026-01-20 01:00:26.57	227.85	29.40	-28.3	-30.3	14.8	0.00e+00	0	45	0	1603272704	16	4544
2026-01-20 01:00:27.57	227.74	29.22	-28.4	-30.6	14.6	0.00e+00	0	45	0	1606418432	16	4630
2026-01-20 01:00:28.58	227.62	29.05	-28.5	-30.4	14.5	2.07e-03	0	45	0	1609564160	17	4463
2026-01-20 01:00:29.59	227.50	28.87	-28.9	-31.3	14.0	2.20e-06	0	45	0	1612709888	17	4731
2026-01-20 01:00:30.59	227.39	28.70	-28.8	-31.1	14.0	4.50e-06	0	45	0	1615855616	17	4689
2026-01-20 01:00:31.60	227.27	28.53	-28.5	-30.4	14.5	7.00e-07	0	45	0	1619001344	17	4466
2026-01-20 01:00:32.60	227.16	28.36	-28.3	-30.3	14.8	0.00e+00	0	45	0	1622147072	16	4545
2026-01-20 01:00:33.61	227.05	28.19	-28.1	-30.0	15.0	1.92e-03	0	45	0	1625292800	16	4450
2026-01-20 01:00:34.61	226.94	28.02	-27.9	-30.0	15.1	1.82e-03	0	45	0	1628438528	15	4596
2026-01-20 01:00:35.61	226.83	27.85	-27.9	-30.1	15.0	0.00e+00	0	45	0	1631584256	15	4622
2026-01-20 01:00:36.61	226.72	27.68	-27.7	-29.6	15.3	0.00e+00	0	45	0	1634729984	15	4466
2026-01-20 01:00:37.61	226.61	27.52	-27.6	-29.3	15.5	1.11e-03	0	45	0	1637875712	15	4391
2026-01-20 01:00:38.62	226.51	27.35	-27.7	-29.4	15.4	0.00e+00	0	45	0	1641021440	15	4414
2026-01-20 01:00:39.62	226.40	27.19	-27.5	-29.1	15.6	5.67e-04	0	45	0	1644167168	15	4320
2026-01-20 01:00:40.63	226.30	27.02	-27.3	-29.1	15.9	4.32e-04	0	45	0	1647312896	14	4441
2026-01-20 01:00:41.63	226.20	26.86	-27.3	-29.1	15.9	0.00e+00	0	45	0	1650458624	14	4422
2026-01-20 01:00:42.63	226.10	26.70	-27.3	-29.2	15.8	1.33e-04	0	45	0	1653604352	14	4458
2026-01-20 01:00:43.63	226.00	26.54	-27.5	-29.5	15.6	2.82e-05	0	45	0	1656750080	14	4547
2026-01-20 01:00:44.63	225.90	26.38	-27.6	-29.3	15.5	0.00e+00	0	45	0	1659895808	15	4369
2026-01-20 01:00:45.63	225.80	26.22	-27.5	-29.2	15.5	0.00e+00	0	45	0	1663041536	15	4359
2026-01-20 01:00:46.64	225.70	26.06	-27.6	-29.3	15.4	0.00e+00	0	45	0	1666187264	15	4380
2026-01-20 01:00:47.64	225.61	25.90	-27.6	-29.2	15.5	0.00e+00	0	45	0	1669332992	15	4368
2026-01-20 01:00:48.65	225.51	25.75	-27.6	-29.4	15.4	0.00e+00	0	45	0	1672478720	15	4415
2026-01-20 01:00:49.65	225.42	25.59	-27.5	-29.2	15.5	0.00e+00	0	45	0	1675624448	15	4358
2026-01-20 01:00:50.65	225.32	25.44	-26.7	-28.5	13.8	0.00e+00	0	45	0	1678770176	15	4410
2026-01-20 01:00:51.65	225.23	25.28	-27.5	-29.5	13.8	1.65e-04	0	45	0	1681915904	14	4569
2026-01-20 01:00:52.65	225.14	25.13	-27.4	-29.4	15.0	8.50e-04	0	45	0	1685061632	14	4535
2026-01-20 01:00:53.65	225.05	24.98	-27.3	-29.1	15.3	0.00e+00	0	45	0	1688207360	14	4449
2026-01-20 01:00:54.65	224.96	24.82	-27.2	-29.0	15.8	4.01e-04	0	45	0	1691353088	14	4397
2026-01-20 01:00:55.66	224.87	24.67	-27.3	-29.1	15.8	4.60e-04	0	45	0	1694498816	14	4445
2026-01-20 01:00:56.66	224.78	24.52	-27.2	-29.0	15.9	0.00e+00	0	45	0	1697644544	14	4398
2026-01-20 01:00:57.66	224.70	24.37	-27.3	-29.0	15.8	1.19e-03	0	45	0	1700790272	14	4424
2026-01-20 01:00:58.66	224.61	24.22	-27.2	-28.9	15.9	2.55e-04	0	45	0	1703936000	14	4387
2026-01-20 01:00:59.66	224.53	24.08	-27.0	-28.5	16.1	0.00e+00	0	45	0	1707081728	14	4265
2026-01-20 01:01:00.66	224.44	23.93	-26.9	-28.8	16.2	5.77e-04	0	45	0	1710227456	13	4454
2026-01-20 01:01:01.66	224.36	23.78	-26.9	-28.8	16.2	5.58e-04	0	45	0	1713373184	13	4470
2026-01-20 01:01:02.66	224.28	23.64	-27.0	-28.9	16.1	3.71e-03	0	45	0	1716518912	13	4487
2026-01-20 01:01:03.67	224.19	23.49	-27.1	-28.7	16.0	3.56e-03	0	45	0	1719664640	14	4312
2026-01-20 01:01:04.68	224.11	23.35	-27.3	-29.2	15.7	5.80e-04	0	45	0	1722810368	14	4468
2026-01-20 01:01:05.68	224.03	23.20	-27.3	-29.2	15.7	0.00e+00	0	45	0	1725956096	14	4472
2026-01-20 01:01:06.68	223.95	23.06	-27.2	-29.0	15.8	5.32e-04	0	45	0	1729101824	14	4396
2026-01-20 01:01:07.68	223.87	22.92	-27.3	-29.1	15.7	0.00e+00	0	45	0	1732247552	14	4441
2026-01-20 01:01:08.69	223.79	22.78	-27.4	-29.3	15.6	4.10e-03	0	45	0	1735393280	14	4491
2026-01-20 01:01:09.69	223.72	22.64	-27.4	-29.3	15.6	4.01e-03	0	45	0	1738539008	14	4496
2026-01-20 01:01:10.69	223.64	22.50	-27.5	-29.5	15.5	5.01e-04	0	45	0	1741684736	14	4561
2026-01-20 01:01:11.70	223.56	22.36	-27.5	-29.1	15.4	1.85e-04	0	45	0	1744830464	15	4343
2026-01-20 01:01:12.70	223.49	22.22	-27.6	-29.3	15.3	4.05e-03	0	45	0	1747976192	15	4394
2026-01-20 01:01:13.71	223.41	22.08	-27.6	-29.3	15.3	2.91e-04	0	45	0	1751121920	15	4400
2026-01-20 01:01:14.72	223.34	21.94	-27.6	-29.4	15.3	4.07e-03	0	45	0	1754267648	15	4406
2026-01-20 01:01:15.72	223.26	21.81	-27.6	-29.4	15.3	4.53e-03	0	45	0	1757413376	15	4421
2026-01-20 01:01:16.73	223.19	21.67	-27.6	-29.4	15.3	1.29e-03	0	45	0	1760559104	15	4411
2026-01-20 01:01:17.73	223.12	21.54	-27.7	-29.6	15.2	4.62e-03	0	45	0	1763704832	15	4470
2026-01-20 01:01:18.73	223.05	21.40	-27.7	-29.5	15.2	4.46e-03	0	45	0	1766850560	15	4435
2026-01-20 01:01:19.74	222.98	21.27	-27.5	-29.1	15.4	6.71e-04	0	45	0	1769996288	15	4343
2026-01-20 01:01:20.75	222.91	21.13	-27.6	-29.3	15.3	4.14e-03	0	45	0	1773142016	15	4374
2026-01-20 01:01:21.76	222.84	21.00	-27.6	-29.3	15.3	0.00e+00	0	45	0	1776287744	15	4379
2026-01-20 01:01:22.75	222.77	20.87	-27.5	-29.1	15.4	7.23e-04	0	45	0	1779433472	15	4336
2026-01-20 01:01:23.75	222.70	20.74	-27.6	-29.4	15.2	3.77e-03	0	45	0	1782579200	15	4412
2026-01-20 01:01:24.75	222.63	20.61	-27.6	-29.3	15.3	4.19e-03	0	45	0	1785724928	15	4401
2026-01-20 01:01:25.76	222.57	20.48	-27.5	-29.2	15.3	7.46e-04	0	45	0	1788870656	15	4366
2026-01-20 01:01:26.76	222.50	20.35	-27.6	-29.3	15.3	5.30e-06	0	45	0	1792016384	15	4382
2026-01-20 01:01:27.76	222.43	20.22	-27.7	-29.5	15.1	0.00e+00	0	45	0	1795162112	15	4457
2026-01-20 01:01:28.77	222.37	20.09	-27.6	-29.3	15.2	8.45e-04	0	45	0	1798307840	15	4401
2026-01-20 01:01:29.77	222.30	19.96	-27.6	-29.4	15.2	3.84e-03	0	45	0	1801453568	15	4409
2026-01-20 01:01:30.77	222.24	19.84	-27.5	-29.1	15.3	3.46e-03	0	45	0	1804599296	15	4335
2026-01-20 01:01:31.77	222.18	19.71	-27.4	-29.4	15.5	0.00e+00	0	45	0	1807745024	14	4543
2026-01-20 01:01:32.77	222.11	19.59	-27.4	-29.4	15.4	0.00e+00	0	45	0	1810890752	14	4539
2026-01-20 01:01:33.78	222.05	19.46	-27.3	-29.3	15.5	3.79e-03	0	45	0	1814036480	14	4489
2026-01-20 01:01:34.78	221.99	19.34	-27.4	-29.4	15.5	6.83e-04	0	45	0	1817182208	14	4520
2026-01-20 01:01:35.78	221.93	19.21	-27.3	-29.3	15.5	2.86e-03	0	45	0	1819279360	14	4491
2026-01-20 01:01:36.79	221.86	19.09	-27.3	-29.3	15.5	0.00e+00	0	45	0	1822425088	14	4493
2026-01-20 01:01:37.79	221.80	18.97	-27.3	-29.2	15.5	0.00e+00	0	45	0	1825570816	14	4487
2026-01-20 01:01:38.79	221.74	18.85	-27.5	-29.2	15.2	0.00e+00	0	45	0	1828716544	15	4359
2026-01-20 01:01:39.79	221.68	18.72	-27.4	-29.0	15.4	2.19e-03	0	45	0	1831862272	15	4300
2026-01-20 01:01:40.79	221.63	18.60	-27.3	-29.3	15.5	0.00e+00	0	45	0	1835008000	14	4494
2026-01-20 01:01:41.80	221.57	18.48	-27.4	-29.4	15.4	0.00e+00	0	45	0	1838153728	14	4526
2026-01-20 01:01:42.80	221.51	18.36	-27.5	-29.6	15.3	0.00e+00	0	45	0	1841299456	14	4584
2026-01-20 01:01:43.80	221.45	18.24	-27.4	-29.0	15.3	0.00e+00	0	45	0	1844445184	15	4311
2026-01-20 01:01:44.80	221.39	18.13	-27.5	-29.2	15.2	8.85e-05	0	45	0	1847590912	15	4359
2026-01-20 01:01:45.80	221.34	18.01	-27.5	-29.1	15.3	0.00e+00	0	45	0	1850736640	15	4326
2026-01-20 01:01:46.80	221.28	17.89	-27.5	-29.1	15.3	0.00e+00	0	45	0	1853882368	15	4324
2026-01-20 01:01:47.80	221.23	17.77	-27.5	-29.2	15.2	0.00e+00	0	45	0	1857028096	15	4347
2026-01-20 01:01:48.81	221.17	17.66	-27.6	-29.3	15.1	0.00e+00	0	45	0	1860173824	15	4398
2026-01-20 01:01:49.81	221.12	17.54	-27.6	-29.3	15.2	0.00e+00	0	45	0	1863319552	15	4382
2026-01-20 01:01:50.80	221.06	17.43	-27.6	-29.4	15.1	0.00e+00	0	45	0	1866465280	15	4415
2026-01-20 01:01:51.80	221.01	17.31	-27.8	-29.7	14.9	1.50e-06	0	45	0	1869611008	15	4516
2026-01-20 01:01:52.80	220.96	17.20	-27.8	-29.7	14.9	0.00e+00	0	45	0	1872756736	15	4520
2026-01-20 01:01:53.81	220.90	17.08	-27.9	-30.0	14.8	0.00e+00	0	45	0	1875902464	15	4598
2026-01-20 01:01:54.81	220.85	16.97	-27.9	-30.0	14.7	7.00e-07	0	45	0	1879048192	15	4586
2026-01-20 01:01:55.82	220.80	16.85	-27.8	-29.9	14.7	0.00e+00	0	45	0	1882193920	15	4583
2026-01-20 01:01:56.82	220.74	16.74	-28.0	-30.3	14.5	0.00e+00	0	45	0	1885339648	15	4688
2026-01-20 01:01:57.81	220.69	16.63	-28.1	-30.0	14.6	7.00e-07	0	45	0	1888485376	16	4483
2026-01-20 01:01:58.82	220.64	16.52	-28.1	-30.0	14.6	0.00e+00	0	45	0	1891631104	16	4473
2026-01-20 01:01:59.82	220.59	16.41	-28.1	-30.1	14.6	0.00e+00	0	45	0	1894776832	16	4498
2026-01-20 01:02:00.83	220.54	16.30	-28.2	-30.1	14.5	0.00e+00	0	45	0	1897922560	16	4525
2026-01-20 01:02:01.84	220.49	16.19	-28.3	-30.4	14.3	7.00e-07	0	45	0	1901068288	16	4609
2026-01-20 01:02:02.84	220.44	16.08	-28.2	-30.3	14.4	1.50e-06	0	45	0	1904214016	16	4566
2026-01-20 01:02:03.84	220.39	15.97	-28.2	-30.2	14.4	1.50e-06	0	45	0	1907359744	16	4547
2026-01-20 01:02:04.85	220.34	15.86	-28.2	-30.3	14.4	7.00e-07	0	45	0	1910505472	16	4555
2026-01-20 01:02:05.85	220.30	15.75	-28.3	-30.5	14.3	2.20e-06	0	45	0	1913651200	16	4646
2026-01-20 01:02:06.86	220.25	15.64	-28.3	-30.4	14.3	2.20e-06	0	45	0	1916796928	16	4611
2026-01-20 01:02:07.86	220.20	15.53	-28.3	-30.6	14.2	2.20e-06	0	45	0	1919942656	16	4654
2026-01-20 01:02:08.86	220.15	15.43	-28.3	-30.5	14.2	1.50e-06	0	45	0	1923088384	16	4637
2026-01-20 01:02:09.86	220.11	15.32	-28.2	-30.3	14.3	0.00e+00	0	45	0	1926234112	16	4578
2026-01-20 01:02:10.86	220.06	15.22	-28.3	-30.5	14.2	7.00e-07	0	45	0	1929379840	16	4621
2026-01-20 01:02:11.86	220.01	15.11	-28.3	-30.5	14.2	7.00e-07	0	45	0	1932525568	16	4620
2026-01-20 01:02:12.86	219.97	15.01	-28.3	-30.4	14.2	0.00e+00	0	45	0	1935671296	16	4618
2026-01-20 01:02:13.86	219.92	14.90	-28.4	-30.6	14.1	0.00e+00	0	45	0	1938817024	16	4670
2026-01-20 01:02:14.87	219.88	14.80	-28.3	-30.5	14.2	2.20e-06	0	45	0	1941962752	16	4634
2026-01-20 01:02:15.87	219.83	14.69	-28.2	-30.3	14.3	1.50e-06	0	45	0	1945108480	16	4579
2026-01-20 01:02:16.87	219.79	14.59	-28.2	-30.3	14.3	2.20e-06	0	45	0	1948254208	16	4568
2026-01-20 01:02:17.87	219.74	14.49	-28.2	-30.3	14.3	1.50e-06	0	45	0	1951399936	16	4574
2026-01-20 01:02:18.87	219.70	14.38	-28.2	-30.4	14.3	1.50e-06	0	45	0	1954545664	16	4595
2026-01-20 01:02:19.87	219.66	14.28	-28.3	-30.6	14.1	0.00e+00	0	45	0	1957691392	16	4677
2026-01-20 01:02:20.88	219.61	14.18	-28.2	-30.3	14.2	7.00e-07	0	45	0	1960837120	16	4589
2026-01-20 01:02:21.88	219.57	14.08	-28.2	-30.2	14.3	1.50e-06	0	45	0	1963982848	16	4533
2026-01-20 01:02:22.88	219.53	13.98	-28.1	-30.1	14.3	7.00e-07	0	45	0	1967128576	16	4527
2026-01-20 01:02:23.89	219.48	13.88	-28.3	-30.5	14.2	1.50e-06	0	45	0	1970274304	16	4629
2026-01-20 01:02:24.89	219.44	13.78	-28.2	-30.2	14.3	7.00e-07	0	45	0	1973420032	16	4549
2026-01-20 01:02:25.89	219.40	13.68	-28.1	-30.1	14.4	0.00e+00	0	45	0	1976565760	16	4510
2026-01-20 01:02:26.89	219.36	13.58	-28.1	-30.1	14.4	1.50e-06	0	45	0	1979711488	16	4506
2026-01-20 01:02:27.90	219.32	13.48	-27.9	-30.1	14.5	0.00e+00	0	45	0	1982857216	15	4628
2026-01-20 01:02:28.90	219.28	13.38	-27.9	-30.1	14.4	0.00e+00	0	45	0	1986002944	15	4649
2026-01-20 01:02:29.90	219.24	13.28	-27.7	-30.0	14.4	7.00e-07	0	45	0	1989148672	15	4642
2026-01-20 01:02:30.89	219.20	13.19	-28.1	-30.1	14.2	0.00e+00	0	45	0	1992294400	16	4535
2026-01-20 01:02:31.89	219.16	13.09	-28.1	-30.0	14.4	7.00e-07	0	45	0	1995440128	16	4484
2026-01-20 01:02:32.90	219.12	12.99	-28.0	-29.9	14.2	1.50e-06	0	45	0	1998585856	16	4447
2026-01-20 01:02:33.91	219.08	12.89	-28.1	-30.0	14.2	0.00e+00	0	45	0	2001731584	16	4486
2026-01-20 01:02:34.90	219.04	12.80	-28.0	-29.9	14.4	7.00e-07	0	45	0	2004877312	16	4457
2026-01-20 01:02:35.90	219.00	12.70	-27.9	-30.1	14.4	0.00e+00	0	45	0	2008023040	15	4644
2026-01-20 01:02:36.90	218.96	12.61	-27.9	-30.1	14.4	7.00e-07	0	45	0	2011168768	15	4636
2026-01-20 01:02:37.90	218.92	12.51	-28.2	-30.2	14.2	1.50e-06	0	45	0	2014314496	16	4547
2026-01-20 01:02:38.90	218.89	12.42	-28.1	-30.1	14.3	7.00e-07	0	45	0	2017460224	16	4511
2026-01-20 01:02:39.91	218.85	12.32	-28.0	-30.3	14.3	3.90e-04	0	45	0	2020605952	15	4719
2026-01-20 01:02:40.91	218.81	12.23	-28.2	-30.2	14.2	3.00e-06	0	45	0	2023751680	16	4548
2026-01-20 01:02:41.92	218.77	12.13	-28.1	-30.1	14.3	0.00e+00	0	45	0	2026897408	16	4517
2026-01-20 01:02:42.91	218.74	12.04	-28.1	-30.1	14.3	7.00e-07	0	45	0	2030043136	16	4517
2026-01-20 01:02:43.91	218.70	11.95	-28.2	-30.4	14.1	0.00e+00	0	45	0	2033188864	16	4616
2026-01-20 01:02:44.92	218.66	11.85	-27.8	-29.8	14.0	3.86e-04	0	45	0	2036334592	16	4534
2026-01-20 01:02:45.93	218.63	11.76	-28.2	-30.2	14.2	4.36e-04	0	45	0	2039480320	16	4550
2026-01-20 01:02:46.93	218.59	11.67	-28.2	-30.3	13.8	4.49e-04	0	45	0	2042626048	16	4594
2026-01-20 01:02:47.93	218.55	11.58	-28.2	-30.3	14.0	1.50e-06	0	45	0	2045771776	16	4595
2026-01-20 01:02:48.93	218.52	11.49	-28.2	-30.3	14.1	3.00e-06	0	45	0	2047868928	16	4590
2026-01-20 01:02:49.93	218.48	11.39	-28.3	-30.6	13.9	0.00e+00	0	45	0	2051014656	16	4670
2026-01-20 01:02:50.93	218.45	11.30	-28.3	-30.5	13.9	4.52e-04	0	45	0	2054160384	16	4664
2026-01-20 01:02:51.94	218.41	11.21	-28.2	-30.4	14.0	4.50e-04	0	45	0	2057306112	16	4605
2026-01-20 01:02:52.94	218.38	11.12	-28.3	-30.6	13.9	3.00e-06	0	45	0	2060451840	16	4695
2026-01-20 01:02:53.94	218.34	11.03	-28.3	-30.5	13.9	5.30e-06	0	45	0	2063597568	16	4660
2026-01-20 01:02:54.94	218.31	10.94	-28.4	-30.8	13.7	4.81e-04	0	45	0	2066743296	16	4738
2026-01-20 01:02:55.94	218.28	10.86	-28.4	-30.7	13.8	3.00e-06	0	45	0	2069889024	16	4714
2026-01-20 01:02:56.95	218.24	10.77	-28.4	-30.8	13.7	5.69e-04	0	45	0	2073034752	16	4739
2026-01-20 01:02:57.95	218.21	10.68	-28.6	-30.7	13.5	6.80e-06	0	45	0	2076180480	17	4606
2026-01-20 01:02:58.95	218.18	10.59	-28.8	-31.4	13.1	2.13e-05	0	45	0	2079326208	17	4818
2026-01-20 01:02:59.95	218.14	10.50	-28.7	-30.9	13.3	5.39e-04	0	45	0	2082471936	17	4684
2026-01-20 01:03:00.95	218.11	10.41	-28.7	-30.9	13.3	4.94e-04	0	45	0	2085617664	17	4684
2026-01-20 01:03:01.96	218.08	10.33	-28.7	-31.0	13.3	2.59e-05	0	45	0	2088763392	17	4715
2026-01-20 01:03:02.96	218.04	10.24	-28.8	-31.2	13.2	4.37e-04	0	45	0	2091909120	17	4772
2026-01-20 01:03:03.96	218.01	10.15	-28.8	-31.3	13.1	4.04e-04	0	45	0	2095054848	17	4800
2026-01-20 01:03:04.97	217.98	10.07	-28.7	-31.2	13.1	2.74e-05	0	45	0	2098200576	17	4766
2026-01-20 01:03:05.97	217.95	9.98	-28.8	-31.4	13.0	4.20e-04	0	45	0	2101346304	17	4825
2026-01-20 01:03:06.97	217.92	9.89	-28.9	-31.5	12.9	3.45e-04	0	45	0	2104492032	17	4878
2026-01-20 01:03:07.97	217.89	9.81	-29.2	-31.8	12.5	1.12e-04	0	45	0	2107637760	18	4859
2026-01-20 01:03:08.97	217.85	9.72	-28.9	-31.1	12.9	4.61e-04	0	45	0	2110783488	18	4629
2026-01-20 01:03:09.97	217.82	9.64	-28.7	-31.1	13.2	4.16e-04	0	45	0	2113929216	17	4727
2026-01-20 01:03:10.97	217.79	9.55	-28.7	-31.0	13.2	3.05e-05	0	45	0	2117074944	17	4694
2026-01-20 01:03:11.98	217.76	9.47	-28.7	-31.0	13.2	4.23e-04	0	45	0	2120220672	17	4703
2026-01-20 01:03:12.99	217.73	9.38	-28.7	-30.9	13.2	4.08e-04	0	45	0	2123366400	17	4688
2026-01-20 01:03:13.99	217.70	9.30	-28.7	-31.0	13.2	2.05e-05	0	45	0	2126512128	17	4724
2026-01-20 01:03:14.99	217.67	9.22	-28.7	-31.2	13.1	2.21e-05	0	45	0	2129657856	17	4758
2026-01-20 01:03:15.99	217.64	9.13	-28.7	-31.1	13.1	3.65e-04	0	45	0	2132803584	17	4734
2026-01-20 01:03:16.99	217.61	9.05	-28.7	-31.2	13.1	3.28e-05	0	45	0	2135949312	17	4758
