passes_logs/2026/01/20/R2M6_AANII_01/R2M6_AANII_01__20260120_232227_SUOMI_NPP_rec.log

#Pass ID: 20260120_232227_SUOMI NPP
#Satellite: SUOMI NPP
#Configuration: NPP
#almurnet v.1.7.20240730
#Start time: 2026-01-20 23:22:29

#Version: 2.2.20231116
#Station: R2M6_AANII_01
#Location: 30.233357 lon 59.946436 lat
#TLE: 1 37849U 11061A   26020.31993517  .00000142  00000+0  88240-4 0  9990
#TLE: 2 37849  98.7818 322.3228 0002330  54.3778 305.7615 14.19527005737466

#Time	Az	El	Level	Level2	SNR	BER	BlckErr	Temp	State	Recorded	gain1	gain2
2026-01-20 23:22:29.19	24.90	7.09	-32.1	-36.9	4.9	1.27e+00	0	42	0	0	24	6234
2026-01-20 23:22:30.19	24.97	7.16	-32.3	-38.0	4.7	1.34e+00	0	42	104	0	24	6900
2026-01-20 23:22:31.19	25.03	7.23	-32.4	-38.3	6.5	2.19e-01	0	42	0	0	24	7093
2026-01-20 23:22:32.20	25.09	7.30	-32.3	-37.8	7.0	1.67e-01	0	42	0	1048576	24	6747
2026-01-20 23:22:33.20	25.16	7.37	-32.1	-36.7	7.8	1.03e-01	0	42	0	3145728	24	6096
2026-01-20 23:22:34.20	25.22	7.44	-32.0	-36.0	8.3	6.53e-02	0	42	0	5242880	24	5708
2026-01-20 23:22:35.21	25.29	7.52	-31.9	-35.5	8.8	4.66e-02	0	42	0	7340032	24	5485
2026-01-20 23:22:36.20	25.35	7.59	-31.8	-35.7	9.1	2.56e-02	0	42	0	9437184	23	5642
2026-01-20 23:22:37.20	25.42	7.66	-31.9	-36.0	8.8	2.92e-02	0	42	0	10485760	23	5815
2026-01-20 23:22:38.21	25.48	7.73	-31.7	-35.5	9.3	2.67e-02	0	42	0	12582912	23	5528
2026-01-20 23:22:39.22	25.55	7.81	-31.7	-35.2	9.5	1.53e-02	0	42	0	14680064	23	5410
2026-01-20 23:22:40.23	25.61	7.88	-31.6	-35.1	9.6	1.22e-02	0	42	0	16777216	23	5361
2026-01-20 23:22:41.23	25.68	7.95	-31.7	-35.1	9.6	1.11e-02	0	42	0	17825792	23	5368
2026-01-20 23:22:42.24	25.75	8.03	-31.7	-35.2	9.5	1.25e-02	0	42	0	19922944	23	5425
2026-01-20 23:22:43.24	25.81	8.10	-31.6	-35.0	9.7	1.38e-02	0	42	0	22020096	23	5302
2026-01-20 23:22:44.25	25.88	8.17	-31.5	-34.6	10.0	8.73e-03	0	43	0	24117248	23	5136
2026-01-20 23:22:45.26	25.95	8.25	-31.5	-34.4	10.1	7.16e-03	0	43	0	26214400	23	5052
2026-01-20 23:22:46.27	26.02	8.32	-31.4	-34.3	10.2	6.22e-03	0	43	0	28311552	23	5016
2026-01-20 23:22:47.27	26.09	8.40	-31.6	-34.9	9.8	8.29e-03	0	43	0	29360128	23	5257
2026-01-20 23:22:48.27	26.15	8.47	-31.4	-34.3	10.3	9.02e-03	0	43	0	31457280	23	5006
2026-01-20 23:22:49.27	26.22	8.55	-31.5	-34.6	10.0	9.64e-03	0	43	0	33554432	23	5153
2026-01-20 23:22:50.27	26.29	8.62	-31.5	-34.6	10.1	6.38e-03	0	43	0	35651584	23	5132
2026-01-20 23:22:51.27	26.36	8.70	-31.5	-34.4	10.3	6.05e-03	0	43	0	36700160	23	5027
2026-01-20 23:22:52.28	26.43	8.77	-31.4	-34.7	10.4	5.45e-03	0	43	0	38797312	22	5254
2026-01-20 23:22:53.29	26.50	8.85	-31.4	-34.2	10.4	4.80e-03	0	43	0	40894464	23	4960
2026-01-20 23:22:54.29	26.57	8.92	-31.5	-34.3	10.4	4.59e-03	0	43	0	42991616	23	4985
2026-01-20 23:22:55.29	26.64	9.00	-31.5	-34.3	10.3	4.96e-03	0	43	0	45088768	23	4987
2026-01-20 23:22:56.30	26.72	9.08	-31.4	-34.0	10.5	4.24e-03	0	43	0	46137344	23	4882
2026-01-20 23:22:57.30	26.79	9.15	-31.5	-34.5	10.2	6.65e-03	0	43	0	48234496	23	5056
2026-01-20 23:22:58.30	26.86	9.23	-31.4	-33.9	10.6	4.37e-03	0	43	0	50331648	23	4842
2026-01-20 23:22:59.31	26.93	9.31	-31.3	-33.7	10.8	2.28e-03	0	43	0	52428800	23	4760
2026-01-20 23:23:00.31	27.00	9.38	-31.2	-34.0	11.1	1.59e-03	0	43	0	54525952	22	4934
2026-01-20 23:23:01.32	27.08	9.46	-31.3	-34.1	10.9	1.93e-03	0	43	0	55574528	22	4974
2026-01-20 23:23:02.32	27.15	9.54	-31.3	-34.2	10.9	2.28e-03	0	43	0	57671680	22	5012
2026-01-20 23:23:03.32	27.22	9.62	-31.2	-33.9	11.1	1.59e-03	0	43	0	59768832	22	4926
2026-01-20 23:23:04.32	27.30	9.69	-31.2	-33.9	11.1	1.64e-03	0	43	0	61865984	22	4921
2026-01-20 23:23:05.33	27.37	9.77	-31.3	-34.1	10.9	2.27e-03	0	43	0	63963136	22	4990
2026-01-20 23:23:06.33	27.45	9.85	-31.2	-33.9	11.1	1.68e-03	0	43	0	65011712	22	4915
2026-01-20 23:23:07.33	27.52	9.93	-31.1	-33.7	11.3	1.33e-03	0	43	0	67108864	22	4812
2026-01-20 23:23:08.33	27.60	10.01	-31.6	-34.3	11.2	9.35e-04	0	43	0	69206016	22	4886
2026-01-20 23:23:09.33	27.67	10.08	-31.1	-33.6	11.2	1.40e-03	0	43	0	71303168	22	4791
2026-01-20 23:23:10.33	27.75	10.16	-31.2	-33.7	11.3	1.60e-03	0	43	0	73400320	22	4815
2026-01-20 23:23:11.33	27.83	10.24	-31.1	-33.4	11.5	9.41e-04	0	43	0	74448896	22	4691
2026-01-20 23:23:12.34	27.90	10.32	-31.1	-33.5	11.4	7.10e-04	0	43	0	76546048	22	4753
2026-01-20 23:23:13.34	27.98	10.40	-31.0	-33.3	11.6	6.32e-04	0	43	0	78643200	22	4687
2026-01-20 23:23:14.35	28.06	10.48	-30.9	-33.3	11.9	6.07e-04	0	43	0	80740352	21	4749
2026-01-20 23:23:15.36	28.14	10.56	-31.0	-33.0	11.8	7.99e-04	0	43	0	82837504	22	4577
2026-01-20 23:23:16.36	28.22	10.64	-31.0	-33.2	11.7	6.17e-04	0	43	0	83886080	22	4615
2026-01-20 23:23:17.36	28.30	10.72	-31.0	-33.2	11.7	4.82e-04	0	43	0	85983232	22	4619
2026-01-20 23:23:18.36	28.38	10.80	-30.9	-33.4	11.9	4.81e-04	0	43	0	88080384	21	4793
2026-01-20 23:23:19.37	28.46	10.88	-30.9	-33.5	11.8	3.84e-04	0	43	0	90177536	21	4823
2026-01-20 23:23:20.38	28.54	10.97	-31.0	-33.0	11.8	8.72e-04	0	43	0	91226112	22	4575
2026-01-20 23:23:21.38	28.62	11.05	-30.9	-33.4	11.9	2.48e-04	0	43	0	93323264	21	4798
2026-01-20 23:23:22.39	28.70	11.13	-30.9	-33.4	11.9	2.75e-04	0	44	0	95420416	21	4811
2026-01-20 23:23:23.39	28.78	11.21	-30.9	-33.5	11.8	6.14e-04	0	43	0	97517568	21	4834
2026-01-20 23:23:24.39	28.86	11.29	-30.9	-33.3	12.0	3.34e-04	0	43	0	99614720	21	4752
2026-01-20 23:23:25.40	28.95	11.38	-30.9	-33.3	11.9	4.08e-04	0	44	0	101711872	21	4750
2026-01-20 23:23:26.40	29.03	11.46	-30.9	-33.4	11.9	7.13e-04	0	44	0	102760448	21	4798
2026-01-20 23:23:27.40	29.11	11.54	-30.8	-33.2	12.0	8.46e-04	0	43	0	104857600	21	4721
2026-01-20 23:23:28.41	29.20	11.62	-30.8	-33.0	12.2	3.31e-04	0	44	0	106954752	21	4643
2026-01-20 23:23:29.41	29.28	11.71	-31.0	-33.2	11.7	8.97e-04	0	44	0	109051904	22	4638
2026-01-20 23:23:30.42	29.37	11.79	-31.1	-33.5	11.5	1.24e-03	0	44	0	110100480	22	4748
2026-01-20 23:23:31.42	29.45	11.87	-31.1	-33.5	11.5	8.44e-04	0	44	0	112197632	22	4740
2026-01-20 23:23:32.43	29.54	11.96	-31.0	-33.3	11.7	5.58e-04	0	44	0	114294784	22	4651
2026-01-20 23:23:33.43	29.62	12.04	-31.0	-33.1	11.9	8.35e-04	0	44	0	116391936	22	4579
2026-01-20 23:23:34.44	29.71	12.13	-31.0	-33.2	11.8	4.11e-04	0	44	0	118489088	22	4612
2026-01-20 23:23:35.44	29.80	12.21	-30.9	-33.3	12.0	3.32e-04	0	44	0	119537664	21	4772
2026-01-20 23:23:36.44	29.88	12.30	-30.8	-33.0	12.3	6.13e-04	0	44	0	121634816	21	4647
2026-01-20 23:23:37.44	29.97	12.38	-30.8	-33.2	12.1	2.25e-04	0	44	0	123731968	21	4707
2026-01-20 23:23:38.44	30.06	12.47	-30.8	-33.0	12.3	6.27e-04	0	44	0	125829120	21	4656
2026-01-20 23:23:39.44	30.15	12.55	-30.8	-32.9	12.3	4.84e-04	0	44	0	127926272	21	4615
2026-01-20 23:23:40.44	30.24	12.64	-30.8	-33.0	12.3	1.13e-04	0	44	0	128974848	21	4653
2026-01-20 23:23:41.45	30.33	12.72	-30.9	-33.2	12.1	4.90e-04	0	44	0	131072000	21	4728
2026-01-20 23:23:42.45	30.42	12.81	-30.8	-33.1	12.2	3.22e-04	0	44	0	133169152	21	4694
2026-01-20 23:23:43.45	30.51	12.90	-30.6	-32.5	12.5	1.38e-04	0	44	0	135266304	21	4487
2026-01-20 23:23:44.46	30.60	12.98	-30.7	-32.7	12.4	4.48e-04	0	44	0	137363456	21	4531
2026-01-20 23:23:45.46	30.69	13.07	-30.6	-32.3	12.8	3.91e-04	0	44	0	138412032	21	4414
2026-01-20 23:23:46.46	30.79	13.16	-30.6	-32.5	12.7	9.00e-05	0	44	0	140509184	21	4462
2026-01-20 23:23:47.46	30.88	13.25	-30.7	-32.6	12.5	4.31e-04	0	44	0	142606336	21	4517
2026-01-20 23:23:48.46	30.97	13.33	-30.6	-32.5	12.7	3.55e-04	0	44	0	144703488	21	4451
2026-01-20 23:23:49.46	31.07	13.42	-30.6	-32.3	12.8	5.03e-05	0	44	0	146800640	21	4402
2026-01-20 23:23:50.47	31.16	13.51	-30.6	-32.3	12.8	4.16e-04	0	44	0	147849216	21	4400
2026-01-20 23:23:51.47	31.26	13.60	-30.6	-32.4	12.7	4.54e-04	0	44	0	149946368	21	4427
2026-01-20 23:23:52.48	31.35	13.69	-30.4	-31.9	13.1	6.25e-05	0	44	0	152043520	21	4273
2026-01-20 23:23:53.48	31.45	13.78	-30.4	-31.8	13.1	2.26e-04	0	44	0	154140672	21	4247
2026-01-20 23:23:54.48	31.54	13.87	-30.4	-31.9	13.1	3.82e-04	0	44	0	155189248	21	4265
2026-01-20 23:23:55.48	31.64	13.95	-30.4	-31.8	13.2	2.97e-05	0	44	0	157286400	21	4227
2026-01-20 23:23:56.48	31.74	14.04	-30.3	-32.1	13.2	3.08e-04	0	44	0	159383552	20	4430
2026-01-20 23:23:57.48	31.84	14.13	-30.4	-31.9	13.1	3.15e-04	0	44	0	161480704	21	4272
2026-01-20 23:23:58.49	31.94	14.23	-30.5	-32.1	12.9	3.05e-05	0	44	0	163577856	21	4337
2026-01-20 23:23:59.49	32.04	14.32	-30.4	-31.9	13.1	2.42e-04	0	44	0	164626432	21	4278
2026-01-20 23:24:00.50	32.14	14.41	-30.6	-32.3	12.9	4.11e-05	0	44	0	166723584	21	4392
2026-01-20 23:24:01.49	32.24	14.50	-30.6	-32.4	12.7	6.56e-05	0	44	0	168820736	21	4435
2026-01-20 23:24:02.50	32.34	14.59	-30.6	-32.2	12.8	2.70e-04	0	44	0	170917888	21	4368
2026-01-20 23:24:03.50	32.44	14.68	-30.8	-32.9	12.4	8.85e-05	0	44	0	173015040	21	4598
2026-01-20 23:24:04.50	32.54	14.77	-30.8	-32.9	12.5	1.16e-04	0	44	0	174063616	21	4575
2026-01-20 23:24:05.50	32.65	14.86	-30.7	-32.8	12.5	3.33e-04	0	44	0	176160768	21	4557
2026-01-20 23:24:06.50	32.75	14.96	-30.9	-33.2	12.2	3.32e-04	0	44	0	178257920	21	4714
2026-01-20 23:24:07.51	32.86	15.05	-30.9	-33.4	12.1	2.43e-04	0	44	0	180355072	21	4768
2026-01-20 23:24:08.52	32.96	15.14	-31.1	-33.2	11.9	4.07e-04	0	44	0	182452224	22	4606
2026-01-20 23:24:09.51	33.07	15.24	-31.1	-33.4	11.8	4.65e-04	0	44	0	183500800	22	4661
2026-01-20 23:24:10.51	33.17	15.33	-31.0	-33.1	12.0	3.76e-04	0	44	0	185597952	22	4558
2026-01-20 23:24:11.52	33.28	15.42	-30.9	-32.6	12.3	3.04e-04	0	44	0	187695104	22	4389
2026-01-20 23:24:12.52	33.39	15.52	-30.7	-32.2	12.6	2.27e-04	0	44	0	189792256	22	4282
2026-01-20 23:24:13.52	33.49	15.61	-30.6	-31.9	12.8	5.87e-05	0	44	0	191889408	22	4189
2026-01-20 23:24:14.53	33.60	15.71	-30.6	-31.9	12.9	8.92e-05	0	44	0	192937984	22	4152
2026-01-20 23:24:15.53	33.71	15.80	-30.7	-32.2	12.7	1.36e-04	0	44	0	195035136	22	4274
2026-01-20 23:24:16.53	33.82	15.90	-30.8	-32.3	12.6	7.47e-05	0	44	0	197132288	22	4287
2026-01-20 23:24:17.53	33.93	15.99	-30.7	-32.2	12.6	1.28e-04	0	44	0	199229440	22	4260
2026-01-20 23:24:18.54	34.05	16.09	-30.7	-32.0	12.8	6.17e-05	0	44	0	201326592	22	4203
2026-01-20 23:24:19.55	34.16	16.19	-30.6	-31.7	13.0	4.19e-05	0	44	0	202375168	22	4101
2026-01-20 23:24:20.56	34.27	16.28	-30.6	-31.9	13.0	3.28e-05	0	44	0	204472320	22	4157
2026-01-20 23:24:21.56	34.39	16.38	-30.6	-31.8	13.0	4.50e-05	0	44	0	206569472	22	4140
2026-01-20 23:24:22.57	34.50	16.48	-30.7	-32.1	12.8	4.34e-05	0	44	0	208666624	22	4210
2026-01-20 23:24:23.57	34.62	16.57	-30.7	-32.2	12.8	1.94e-04	0	44	0	209715200	22	4246
2026-01-20 23:24:24.57	34.73	16.67	-30.6	-31.7	13.0	4.88e-05	0	44	0	211812352	22	4117
2026-01-20 23:24:25.57	34.85	16.77	-30.6	-31.8	13.0	3.96e-05	0	44	0	213909504	22	4130
2026-01-20 23:24:26.58	34.97	16.87	-30.7	-32.5	12.9	2.00e-04	0	44	0	216006656	21	4434
2026-01-20 23:24:27.58	35.09	16.96	-30.7	-32.5	12.9	4.42e-05	0	44	0	218103808	21	4435
2026-01-20 23:24:28.58	35.20	17.06	-30.7	-32.6	12.8	5.56e-05	0	44	0	219152384	21	4482
2026-01-20 23:24:29.59	35.32	17.16	-30.8	-32.8	12.7	6.48e-05	0	44	0	221249536	21	4547
2026-01-20 23:24:30.60	35.45	17.26	-30.8	-32.7	12.7	7.47e-05	0	44	0	223346688	21	4521
2026-01-20 23:24:31.60	35.57	17.36	-30.8	-32.7	12.8	9.46e-05	0	44	0	225443840	21	4509
2026-01-20 23:24:32.60	35.69	17.46	-30.9	-33.2	12.4	1.06e-04	0	44	0	227540992	21	4700
2026-01-20 23:24:33.59	35.81	17.56	-31.1	-33.3	12.0	1.56e-04	0	44	0	228589568	22	4622
2026-01-20 23:24:34.60	35.93	17.66	-31.2	-33.4	11.9	2.72e-04	0	44	0	230686720	22	4675
2026-01-20 23:24:35.61	36.06	17.76	-31.1	-33.3	12.0	3.39e-04	0	44	0	232783872	22	4614
2026-01-20 23:24:36.61	36.18	17.86	-31.2	-33.4	12.0	3.91e-04	0	44	0	234881024	22	4647
2026-01-20 23:24:37.60	36.31	17.96	-31.2	-33.4	11.9	3.97e-04	0	44	0	236978176	22	4655
2026-01-20 23:24:38.60	36.43	18.06	-31.1	-33.3	12.1	3.31e-04	0	44	0	238026752	22	4624
2026-01-20 23:24:39.61	36.56	18.17	-31.2	-33.5	11.9	3.47e-04	0	44	0	240123904	22	4677
2026-01-20 23:24:40.60	36.69	18.27	-31.3	-33.6	11.8	5.48e-04	0	44	0	242221056	22	4740
2026-01-20 23:24:41.61	36.82	18.37	-31.3	-33.8	11.7	7.11e-04	0	44	0	244318208	22	4798
2026-01-20 23:24:42.62	36.95	18.47	-31.2	-33.5	11.9	3.66e-04	0	44	0	246415360	22	4684
2026-01-20 23:24:43.62	37.08	18.58	-31.3	-33.6	11.8	5.58e-04	0	44	0	247463936	22	4731
2026-01-20 23:24:44.63	37.21	18.68	-31.2	-33.4	12.0	2.73e-04	0	44	0	249561088	22	4662
2026-01-20 23:24:45.63	37.34	18.78	-30.9	-32.6	12.5	1.65e-04	0	44	0	251658240	22	4375
2026-01-20 23:24:46.63	37.48	18.89	-31.0	-32.8	12.4	1.50e-04	0	44	0	253755392	22	4441
2026-01-20 23:24:47.63	37.61	18.99	-31.0	-33.0	12.3	1.70e-04	0	44	0	254803968	22	4512
2026-01-20 23:24:48.64	37.75	19.10	-31.0	-33.0	12.3	1.78e-04	0	44	0	256901120	22	4508
2026-01-20 23:24:49.64	37.88	19.20	-31.0	-32.7	12.5	1.26e-04	0	44	0	258998272	22	4411
2026-01-20 23:24:50.64	38.02	19.31	-30.8	-32.3	12.8	8.01e-05	0	44	0	261095424	22	4277
2026-01-20 23:24:51.64	38.16	19.41	-30.8	-32.4	12.8	9.00e-05	0	44	0	263192576	22	4295
2026-01-20 23:24:52.65	38.30	19.52	-30.8	-32.1	12.9	7.78e-05	0	44	0	265289728	22	4219
2026-01-20 23:24:53.65	38.44	19.62	-30.9	-32.6	12.6	5.72e-05	0	44	0	266338304	22	4369
2026-01-20 23:24:54.65	38.58	19.73	-30.9	-32.5	12.7	4.88e-05	0	44	0	268435456	22	4349
2026-01-20 23:24:55.65	38.72	19.83	-30.8	-32.2	12.9	7.09e-05	0	44	0	270532608	22	4245
2026-01-20 23:24:56.66	38.86	19.94	-30.8	-32.4	12.8	7.70e-05	0	44	0	272629760	22	4293
2026-01-20 23:24:57.66	39.00	20.05	-30.8	-32.4	12.8	5.87e-05	0	44	0	273678336	22	4294
2026-01-20 23:24:58.66	39.15	20.16	-30.9	-32.5	12.7	8.46e-05	0	44	0	275775488	22	4336
2026-01-20 23:24:59.66	39.29	20.26	-30.9	-32.6	12.6	6.33e-05	0	44	0	277872640	22	4363
2026-01-20 23:25:00.66	39.44	20.37	-30.9	-32.6	12.6	6.79e-05	0	44	0	279969792	22	4377
2026-01-20 23:25:01.67	39.59	20.48	-30.9	-32.6	12.6	1.12e-04	0	44	0	282066944	22	4350
2026-01-20 23:25:02.68	39.74	20.59	-31.0	-32.8	12.4	1.49e-04	0	44	0	283115520	22	4435
2026-01-20 23:25:03.69	39.89	20.70	-31.1	-33.1	12.3	1.14e-04	0	45	0	285212672	22	4524
2026-01-20 23:25:04.69	40.04	20.81	-30.9	-32.6	12.7	2.30e-04	0	44	0	287309824	22	4358
2026-01-20 23:25:05.68	40.19	20.91	-30.8	-32.3	12.8	5.34e-05	0	44	0	289406976	22	4284
2026-01-20 23:25:06.68	40.34	21.02	-30.8	-32.2	12.9	4.88e-05	0	45	0	291504128	22	4253
2026-01-20 23:25:07.68	40.49	21.13	-30.8	-32.8	12.8	3.58e-05	0	44	0	292552704	21	4528
2026-01-20 23:25:08.69	40.65	21.24	-30.7	-32.6	13.0	1.20e-04	0	44	0	294649856	21	4459
2026-01-20 23:25:09.68	40.80	21.35	-30.8	-32.6	13.0	3.96e-05	0	44	0	296747008	21	4470
2026-01-20 23:25:10.68	40.96	21.46	-30.7	-32.3	13.2	2.28e-05	0	44	0	298844160	21	4369
2026-01-20 23:25:11.69	41.12	21.58	-30.6	-32.2	13.3	2.21e-05	0	44	0	300941312	21	4323
2026-01-20 23:25:12.70	41.28	21.69	-30.6	-32.2	13.3	3.43e-05	0	44	0	301989888	21	4327
2026-01-20 23:25:13.69	41.44	21.80	-30.6	-32.3	13.2	3.05e-05	0	45	0	304087040	21	4359
2026-01-20 23:25:14.70	41.60	21.91	-30.6	-32.3	13.2	7.47e-05	0	45	0	306184192	21	4359
2026-01-20 23:25:15.70	41.76	22.02	-30.6	-32.2	13.2	2.67e-05	0	44	0	308281344	21	4321
2026-01-20 23:25:16.71	41.93	22.14	-30.8	-32.7	12.9	3.20e-05	0	45	0	310378496	21	4490
2026-01-20 23:25:17.71	42.09	22.25	-30.7	-32.6	13.0	4.04e-05	0	45	0	311427072	21	4436
2026-01-20 23:25:18.71	42.26	22.36	-30.6	-32.2	13.2	1.67e-05	0	44	0	313524224	21	4330
2026-01-20 23:25:19.71	42.42	22.47	-30.6	-32.1	13.3	1.08e-04	0	44	0	315621376	21	4290
2026-01-20 23:25:20.72	42.59	22.59	-30.5	-31.9	13.5	1.37e-05	0	44	0	317718528	21	4236
2026-01-20 23:25:21.71	42.76	22.70	-30.7	-32.3	13.1	1.67e-05	0	45	0	318767104	21	4367
2026-01-20 23:25:22.72	42.93	22.81	-30.5	-31.8	13.5	2.05e-05	0	44	0	320864256	21	4198
2026-01-20 23:25:23.72	43.10	22.93	-30.4	-31.5	13.7	3.80e-06	0	44	0	322961408	21	4106
2026-01-20 23:25:24.72	43.28	23.04	-30.5	-32.0	13.5	8.30e-06	0	45	0	325058560	21	4244
2026-01-20 23:25:25.73	43.45	23.16	-30.6	-32.0	13.5	1.52e-05	0	45	0	327155712	21	4255
2026-01-20 23:25:26.73	43.63	23.27	-30.7	-32.3	13.3	1.37e-05	0	44	0	328204288	21	4335
2026-01-20 23:25:27.74	43.80	23.39	-30.8	-32.6	13.0	2.28e-05	0	44	0	330301440	21	4431
2026-01-20 23:25:28.74	43.98	23.50	-31.1	-33.1	12.5	1.07e-04	0	44	0	332398592	22	4500
2026-01-20 23:25:29.75	44.16	23.62	-31.0	-32.8	12.6	9.15e-05	0	44	0	334495744	22	4423
2026-01-20 23:25:30.75	44.34	23.73	-30.9	-32.3	12.9	7.17e-05	0	44	0	336592896	22	4267
2026-01-20 23:25:31.75	44.53	23.85	-30.8	-32.2	13.0	4.19e-05	0	44	0	337641472	22	4224
2026-01-20 23:25:32.76	44.71	23.97	-30.7	-31.8	13.3	6.71e-05	0	45	0	339738624	22	4107
2026-01-20 23:25:33.76	44.89	24.08	-30.5	-31.2	13.7	1.14e-05	0	44	0	341835776	22	3929
2026-01-20 23:25:34.77	45.08	24.20	-30.6	-31.5	13.6	6.80e-06	0	45	0	343932928	22	3996
2026-01-20 23:25:35.77	45.27	24.32	-30.3	-30.8	13.9	2.28e-05	0	44	0	346030080	22	3808
2026-01-20 23:25:36.77	45.46	24.44	-30.2	-30.9	14.2	7.00e-07	0	44	0	347078656	21	3921
2026-01-20 23:25:37.77	45.65	24.55	-30.1	-30.7	14.3	4.42e-05	0	45	0	349175808	21	3860
2026-01-20 23:25:38.78	45.84	24.67	-30.0	-30.6	14.4	9.00e-05	0	45	0	351272960	21	3845
2026-01-20 23:25:39.78	46.03	24.79	-30.0	-30.5	14.5	0.00e+00	0	45	0	353370112	21	3807
2026-01-20 23:25:40.78	46.23	24.91	-29.9	-30.3	14.6	2.59e-05	0	45	0	355467264	21	3761
2026-01-20 23:25:41.78	46.42	25.02	-30.2	-31.1	14.1	2.20e-06	0	45	0	356515840	21	3981
2026-01-20 23:25:42.79	46.62	25.14	-30.1	-30.6	14.4	3.00e-06	0	44	0	358612992	21	3844
2026-01-20 23:25:43.79	46.82	25.26	-30.1	-30.7	14.4	7.00e-07	0	45	0	360710144	21	3860
2026-01-20 23:25:44.79	47.02	25.38	-30.1	-30.7	14.3	1.50e-06	0	45	0	362807296	21	3872
2026-01-20 23:25:45.78	47.22	25.50	-30.1	-30.8	14.3	7.00e-07	0	44	0	363855872	21	3891
2026-01-20 23:25:46.79	47.42	25.62	-30.1	-30.8	14.2	7.00e-07	0	44	0	365953024	21	3886
2026-01-20 23:25:47.79	47.63	25.74	-30.1	-30.7	14.3	7.00e-07	0	45	0	368050176	21	3885
2026-01-20 23:25:48.79	47.83	25.86	-30.2	-31.0	14.1	2.20e-06	0	45	0	370147328	21	3941
2026-01-20 23:25:49.80	48.04	25.98	-29.9	-30.3	14.6	7.00e-07	0	44	0	372244480	21	3768
2026-01-20 23:25:50.80	48.25	26.10	-30.0	-30.6	14.4	7.00e-07	0	45	0	374341632	21	3844
2026-01-20 23:25:51.80	48.46	26.21	-30.0	-30.6	14.4	7.00e-07	0	44	0	375390208	21	3831
2026-01-20 23:25:52.80	48.67	26.33	-29.9	-30.3	14.6	1.50e-06	0	45	0	377487360	21	3773
2026-01-20 23:25:53.79	48.88	26.45	-29.8	-30.1	14.7	1.50e-06	0	44	0	379584512	21	3705
2026-01-20 23:25:54.79	49.10	26.57	-30.1	-30.7	14.4	7.00e-07	0	44	0	381681664	21	3876
2026-01-20 23:25:55.79	49.31	26.69	-30.1	-31.3	14.3	2.87e-04	0	44	0	382730240	20	4130
2026-01-20 23:25:56.79	49.53	26.81	-30.1	-31.3	14.3	2.42e-04	0	45	0	384827392	20	4121
2026-01-20 23:25:57.79	49.75	26.93	-30.0	-31.0	14.5	0.00e+00	0	45	0	386924544	20	4026
2026-01-20 23:25:58.79	49.97	27.05	-30.1	-31.3	14.2	1.14e-05	0	44	0	389021696	20	4124
2026-01-20 23:25:59.80	50.20	27.18	-30.2	-31.5	14.2	2.20e-06	0	45	0	391118848	20	4189
2026-01-20 23:26:00.80	50.42	27.30	-30.4	-32.0	13.9	7.00e-07	0	45	0	392167424	20	4326
2026-01-20 23:26:01.81	50.65	27.42	-30.3	-31.7	14.0	4.97e-04	0	44	0	394264576	20	4245
2026-01-20 23:26:02.81	50.88	27.54	-30.3	-31.8	13.9	6.80e-06	0	44	0	396361728	20	4287
2026-01-20 23:26:03.81	51.11	27.66	-30.6	-32.1	13.6	5.30e-06	0	45	0	398458880	21	4254
2026-01-20 23:26:04.81	51.34	27.78	-30.4	-31.6	13.7	4.42e-04	0	44	0	400556032	21	4125
2026-01-20 23:26:05.81	51.57	27.90	-30.6	-32.0	13.6	5.64e-04	0	45	0	401604608	21	4236
2026-01-20 23:26:06.82	51.81	28.02	-30.5	-31.7	13.7	5.30e-06	0	45	0	403701760	21	4162
2026-01-20 23:26:07.82	52.05	28.14	-30.5	-31.8	13.7	4.83e-04	0	44	0	405798912	21	4193
2026-01-20 23:26:08.83	52.29	28.27	-30.7	-32.2	13.4	3.27e-04	0	45	0	407896064	21	4302
2026-01-20 23:26:09.82	52.53	28.38	-30.6	-32.2	13.4	4.50e-06	0	45	0	408944640	21	4290
2026-01-20 23:26:10.83	52.77	28.51	-30.9	-33.0	12.9	9.10e-06	0	45	0	411041792	21	4557
2026-01-20 23:26:11.83	53.01	28.63	-30.8	-32.7	13.1	3.20e-05	0	44	0	413138944	21	4463
2026-01-20 23:26:12.83	53.26	28.75	-30.7	-32.4	13.3	1.90e-05	0	44	0	415236096	21	4364
2026-01-20 23:26:13.84	53.51	28.87	-30.9	-32.9	13.0	1.52e-05	0	45	0	417333248	21	4511
2026-01-20 23:26:14.84	53.76	28.99	-31.1	-33.0	12.7	5.18e-05	0	45	0	418381824	22	4448
2026-01-20 23:26:15.84	54.01	29.11	-31.4	-33.8	12.1	7.70e-05	0	45	0	420478976	22	4751
2026-01-20 23:26:16.84	54.26	29.23	-31.4	-33.6	12.2	2.27e-04	0	44	0	422576128	22	4682
2026-01-20 23:26:17.85	54.52	29.35	-31.6	-33.8	11.7	2.49e-04	0	45	0	424673280	23	4651
2026-01-20 23:26:18.85	54.78	29.47	-31.9	-34.8	11.1	1.02e-03	0	45	0	426770432	23	5036
2026-01-20 23:26:19.85	55.04	29.59	-31.7	-33.8	11.4	1.65e-03	0	45	0	427819008	24	4556
2026-01-20 23:26:20.86	55.30	29.72	-31.4	-32.8	12.1	5.21e-04	0	44	0	429916160	24	4231
2026-01-20 23:26:21.86	55.56	29.84	-31.2	-32.8	12.5	1.79e-04	0	44	0	432013312	23	4291
2026-01-20 23:26:22.87	55.83	29.96	-31.3	-32.9	12.4	1.41e-04	0	44	0	434110464	23	4349
2026-01-20 23:26:23.87	56.10	30.08	-31.4	-33.4	12.1	1.96e-04	0	45	0	436207616	23	4490
2026-01-20 23:26:24.87	56.36	30.20	-31.7	-34.1	11.6	3.44e-04	0	45	0	437256192	23	4756
2026-01-20 23:26:25.88	56.64	30.32	-32.0	-34.9	11.0	1.29e-03	0	45	0	439353344	23	5078
2026-01-20 23:26:26.87	56.91	30.44	-31.9	-34.3	11.0	2.44e-03	0	45	0	441450496	24	4746
2026-01-20 23:26:27.87	57.18	30.55	-32.2	-35.2	10.4	3.42e-03	0	44	0	443547648	24	5090
2026-01-20 23:26:28.88	57.46	30.67	-32.3	-35.6	10.0	7.48e-03	0	45	0	445644800	24	5271
2026-01-20 23:26:29.88	57.74	30.79	-32.6	-36.2	9.3	1.26e-02	0	45	0	446693376	25	5424
2026-01-20 23:26:30.89	58.02	30.91	-32.6	-36.1	9.4	1.71e-02	0	45	0	448790528	25	5383
2026-01-20 23:26:31.89	58.30	31.03	-32.5	-35.9	9.6	1.64e-02	0	44	0	450887680	25	5317
2026-01-20 23:26:32.90	58.59	31.15	-32.7	-36.6	8.9	2.21e-02	0	45	0	452984832	25	5646
2026-01-20 23:26:33.90	58.88	31.27	-32.5	-36.0	9.4	1.56e-02	0	45	0	455081984	25	5331
2026-01-20 23:26:34.90	59.16	31.38	-32.4	-35.5	9.8	1.43e-02	0	44	0	456130560	25	5130
2026-01-20 23:26:35.90	59.46	31.50	-32.7	-36.6	8.9	1.82e-02	0	44	0	458227712	25	5623
2026-01-20 23:26:36.90	59.75	31.62	-33.0	-37.2	8.1	4.09e-02	0	45	0	460324864	26	5848
2026-01-20 23:26:37.90	60.04	31.73	-32.8	-36.5	8.7	3.73e-02	0	44	0	462422016	26	5472
2026-01-20 23:26:38.91	60.34	31.85	-32.9	-37.2	8.5	3.69e-02	0	45	0	464519168	25	5931
2026-01-20 23:26:39.91	60.64	31.97	-32.8	-36.9	8.8	2.78e-02	0	45	0	465567744	25	5762
2026-01-20 23:26:40.91	60.94	32.08	-32.5	-36.0	9.5	1.87e-02	0	45	0	467664896	25	5335
2026-01-20 23:26:41.92	61.25	32.20	-32.5	-35.6	9.7	1.46e-02	0	45	0	469762048	25	5192
2026-01-20 23:26:42.91	61.55	32.31	-32.7	-36.6	9.0	1.32e-02	0	45	0	471859200	25	5614
2026-01-20 23:26:43.92	61.86	32.43	-32.7	-36.6	8.9	3.24e-02	0	45	0	472907776	25	5655
2026-01-20 23:26:44.92	62.17	32.54	-32.8	-36.8	8.9	2.65e-02	0	45	0	475004928	25	5709
2026-01-20 23:26:45.92	62.48	32.65	-32.7	-36.7	9.0	2.67e-02	0	45	0	477102080	25	5656
2026-01-20 23:26:46.92	62.80	32.76	-32.8	-37.1	8.6	4.23e-02	0	45	0	479199232	25	5864
2026-01-20 23:26:47.92	63.11	32.88	-33.1	-37.5	8.0	7.23e-02	0	44	0	481296384	26	5971
2026-01-20 23:26:48.93	63.43	32.99	-33.0	-37.1	8.2	7.24e-02	0	45	0	482344960	26	5799
2026-01-20 23:26:49.94	63.76	33.10	-33.1	-37.5	8.0	6.16e-02	0	45	0	484442112	26	5975
2026-01-20 23:26:50.94	64.08	33.21	-32.9	-36.9	8.4	4.39e-02	0	45	0	486539264	26	5673
2026-01-20 23:26:51.94	64.40	33.32	-32.7	-35.9	9.2	3.28e-02	0	45	0	488636416	26	5217
2026-01-20 23:26:52.95	64.73	33.43	-32.5	-35.2	9.7	1.40e-02	0	45	0	490733568	26	4930
2026-01-20 23:26:53.96	65.07	33.54	-32.2	-34.9	10.3	6.15e-03	0	45	0	491782144	25	4886
2026-01-20 23:26:54.97	65.40	33.65	-32.3	-35.2	10.0	6.66e-03	0	45	0	493879296	25	5026
2026-01-20 23:26:55.97	65.73	33.76	-32.5	-35.9	9.7	1.01e-02	0	45	0	495976448	25	5290
2026-01-20 23:26:56.98	66.07	33.86	-32.7	-36.4	9.0	1.64e-02	0	45	0	498073600	25	5546
2026-01-20 23:26:57.98	66.41	33.97	-32.8	-37.0	8.7	3.17e-02	0	45	0	500170752	25	5843
2026-01-20 23:26:58.98	66.75	34.07	-32.9	-37.3	8.6	3.80e-02	0	45	0	501219328	25	5977
2026-01-20 23:26:59.98	67.09	34.18	-32.6	-36.2	9.4	3.27e-02	0	44	0	503316480	25	5421
2026-01-20 23:27:00.98	67.44	34.28	-32.4	-35.2	10.2	6.59e-03	0	45	0	505413632	25	4985
2026-01-20 23:27:01.98	67.78	34.38	-31.8	-34.0	11.4	1.89e-03	0	45	0	507510784	24	4599
2026-01-20 23:27:02.98	68.13	34.49	-31.7	-33.6	11.7	6.58e-04	0	45	0	509607936	24	4465
2026-01-20 23:27:03.98	68.48	34.59	-31.3	-33.0	12.4	3.05e-04	0	45	0	510656512	23	4353
2026-01-20 23:27:04.98	68.83	34.69	-31.6	-33.7	12.0	2.86e-04	0	45	0	512753664	23	4593
2026-01-20 23:27:05.99	69.19	34.79	-32.1	-34.9	10.8	1.43e-03	0	45	0	514850816	24	4950
2026-01-20 23:27:06.99	69.55	34.89	-32.5	-36.0	9.9	4.86e-03	0	45	0	516947968	24	5424
2026-01-20 23:27:07.99	69.91	34.98	-32.6	-36.0	9.5	1.22e-02	0	45	0	519045120	25	5349
2026-01-20 23:27:09.00	70.27	35.08	-32.6	-35.9	9.6	1.13e-02	0	45	0	520093696	25	5301
2026-01-20 23:27:10.00	70.64	35.18	-32.3	-35.0	10.3	8.37e-03	0	45	0	522190848	25	4903
2026-01-20 23:27:11.00	71.00	35.27	-32.0	-33.8	11.1	2.42e-03	0	45	0	524288000	25	4472
2026-01-20 23:27:12.00	71.37	35.36	-31.9	-33.6	11.4	1.46e-03	0	45	0	526385152	25	4397
2026-01-20 23:27:13.00	71.74	35.46	-32.1	-34.3	10.9	1.45e-03	0	45	0	527433728	25	4633
2026-01-20 23:27:14.00	72.11	35.55	-31.6	-33.4	11.9	6.42e-04	0	45	0	529530880	24	4399
2026-01-20 23:27:15.00	72.48	35.64	-31.3	-32.4	12.5	1.71e-04	0	45	0	531628032	24	4082
2026-01-20 23:27:16.00	72.86	35.73	-31.3	-32.8	12.6	8.62e-05	0	45	0	533725184	23	4293
2026-01-20 23:27:17.00	73.24	35.82	-31.6	-33.9	11.9	1.63e-04	0	45	0	535822336	23	4658
2026-01-20 23:27:18.01	73.62	35.90	-31.6	-33.8	11.9	5.83e-04	0	45	0	536870912	23	4635
2026-01-20 23:27:19.01	74.00	35.99	-31.5	-33.5	12.1	5.02e-04	0	44	0	538968064	23	4509
2026-01-20 23:27:20.01	74.39	36.07	-31.5	-33.4	12.2	3.00e-04	0	45	0	541065216	23	4488
2026-01-20 23:27:21.02	74.78	36.16	-31.5	-33.3	12.3	2.02e-04	0	45	0	543162368	23	4459
2026-01-20 23:27:22.01	75.16	36.24	-31.6	-33.7	12.0	3.21e-04	0	45	0	545259520	23	4584
2026-01-20 23:27:23.02	75.56	36.32	-31.4	-33.2	12.4	2.14e-04	0	44	0	546308096	23	4408
2026-01-20 23:27:24.02	75.95	36.40	-31.5	-33.6	12.1	1.54e-04	0	45	0	548405248	23	4543
2026-01-20 23:27:25.02	76.34	36.48	-31.9	-34.3	11.1	1.14e-03	0	44	0	550502400	24	4734
2026-01-20 23:27:26.03	76.74	36.56	-31.9	-34.1	11.3	1.40e-03	0	45	0	552599552	24	4650
2026-01-20 23:27:27.03	77.14	36.63	-31.5	-33.0	12.2	6.24e-04	0	44	0	554696704	24	4256
2026-01-20 23:27:28.04	77.54	36.71	-31.3	-32.5	12.4	3.04e-04	0	45	0	555745280	24	4096
2026-01-20 23:27:29.04	77.94	36.78	-31.4	-33.1	12.4	2.35e-04	0	45	0	557842432	23	4377
2026-01-20 23:27:30.04	78.34	36.85	-31.6	-33.9	11.8	1.86e-04	0	44	0	559939584	23	4665
2026-01-20 23:27:31.05	78.75	36.92	-31.9	-34.8	11.3	1.07e-03	0	44	0	562036736	23	4988
2026-01-20 23:27:32.05	79.16	36.99	-31.4	-33.3	12.2	6.00e-04	0	45	0	564133888	23	4443
2026-01-20 23:27:33.05	79.57	37.06	-30.8	-31.5	13.4	7.62e-05	0	45	0	565182464	23	3912
2026-01-20 23:27:34.04	79.97	37.13	-30.5	-31.1	14.0	2.18e-04	0	44	0	567279616	22	3868
2026-01-20 23:27:35.04	80.38	37.19	-30.1	-30.7	14.5	6.40e-05	0	44	0	569376768	21	3862
2026-01-20 23:27:36.04	80.80	37.25	-30.3	-31.3	14.2	0.00e+00	0	44	0	571473920	21	4015
2026-01-20 23:27:37.04	81.21	37.31	-30.8	-32.5	13.4	2.13e-05	0	44	0	572522496	21	4363
2026-01-20 23:27:38.05	81.63	37.38	-31.1	-32.8	12.9	1.04e-04	0	45	0	574619648	22	4369
2026-01-20 23:27:39.05	82.05	37.43	-31.4	-33.7	12.3	1.07e-04	0	44	0	576716800	22	4690
2026-01-20 23:27:40.05	82.47	37.49	-31.6	-33.7	12.0	2.64e-04	0	45	0	578813952	23	4584
2026-01-20 23:27:41.05	82.89	37.55	-31.7	-34.0	11.8	5.00e-04	0	45	0	580911104	23	4700
2026-01-20 23:27:42.06	83.31	37.60	-31.6	-33.7	12.0	3.15e-04	0	44	0	581959680	23	4611
2026-01-20 23:27:43.06	83.74	37.65	-31.5	-33.3	12.2	2.98e-04	0	45	0	584056832	23	4471
2026-01-20 23:27:44.07	84.16	37.70	-31.3	-32.7	12.7	1.65e-04	0	44	0	586153984	23	4272
2026-01-20 23:27:45.07	84.59	37.75	-31.2	-32.5	12.8	7.09e-05	0	45	0	588251136	23	4200
2026-01-20 23:27:46.07	85.02	37.80	-31.4	-33.1	12.4	7.78e-05	0	45	0	590348288	23	4385
2026-01-20 23:27:47.07	85.44	37.84	-31.1	-32.3	12.9	8.31e-05	0	45	0	591396864	23	4141
2026-01-20 23:27:48.07	85.87	37.89	-31.4	-33.0	12.5	9.30e-05	0	45	0	593494016	23	4350
2026-01-20 23:27:49.06	86.30	37.93	-31.5	-33.5	12.3	2.17e-04	0	44	0	595591168	23	4507
2026-01-20 23:27:50.05	86.73	37.97	-31.7	-34.0	11.8	3.46e-04	0	45	0	597688320	23	4681
2026-01-20 23:27:51.06	87.16	38.01	-31.8	-34.4	11.5	5.23e-04	0	44	0	599785472	23	4853
2026-01-20 23:27:52.06	87.60	38.04	-32.3	-35.6	10.4	3.75e-03	0	44	0	600834048	24	5238
2026-01-20 23:27:53.06	88.03	38.08	-32.4	-35.7	10.2	5.95e-03	0	45	0	602931200	24	5273
2026-01-20 23:27:54.07	88.47	38.11	-32.5	-35.6	9.8	7.37e-03	0	44	0	605028352	25	5129
2026-01-20 23:27:55.06	88.90	38.14	-32.5	-35.5	10.0	7.34e-03	0	45	0	607125504	25	5116
2026-01-20 23:27:56.06	89.34	38.17	-31.9	-33.6	11.4	1.80e-03	0	45	0	608174080	25	4385
2026-01-20 23:27:57.06	89.78	38.20	-31.6	-33.3	12.0	3.29e-04	0	45	0	610271232	24	4372
2026-01-20 23:27:58.07	90.22	38.22	-31.5	-32.9	12.3	3.33e-04	0	45	0	612368384	24	4214
2026-01-20 23:27:59.07	90.66	38.25	-31.3	-32.4	12.5	1.59e-04	0	44	0	614465536	24	4082
2026-01-20 23:28:00.08	91.10	38.27	-31.3	-32.3	12.7	1.50e-04	0	45	0	616562688	24	4052
2026-01-20 23:28:01.08	91.54	38.29	-31.5	-33.3	12.3	1.20e-04	0	45	0	617611264	23	4454
2026-01-20 23:28:02.08	91.99	38.31	-32.3	-35.3	10.6	1.79e-03	0	44	0	619708416	24	5102
2026-01-20 23:28:03.08	92.43	38.33	-32.8	-36.9	9.0	1.16e-02	0	44	0	621805568	25	5731
2026-01-20 23:28:04.09	92.87	38.34	-32.8	-36.7	9.1	2.46e-02	0	45	0	623902720	25	5661
2026-01-20 23:28:05.09	93.32	38.35	-32.2	-34.5	10.8	1.30e-02	0	45	0	625999872	25	4701
2026-01-20 23:28:06.09	93.76	38.36	-31.6	-33.1	12.2	5.88e-04	0	45	0	627048448	24	4291
2026-01-20 23:28:07.09	94.20	38.37	-31.0	-32.0	13.2	7.32e-05	0	44	0	629145600	23	4032
2026-01-20 23:28:08.10	94.65	38.38	-30.9	-31.8	13.3	1.14e-05	0	45	0	631242752	23	3964
2026-01-20 23:28:09.10	95.09	38.39	-30.9	-31.6	13.4	2.05e-05	0	45	0	633339904	23	3932
2026-01-20 23:28:10.11	95.54	38.39	-30.8	-31.9	13.5	1.22e-05	0	45	0	635437056	22	4093
2026-01-20 23:28:11.11	95.98	38.39	-30.9	-32.2	13.4	4.50e-06	0	45	0	636485632	22	4203
2026-01-20 23:28:12.11	96.43	38.39	-31.0	-32.4	13.1	2.13e-05	0	45	0	638582784	22	4258
2026-01-20 23:28:13.11	96.87	38.39	-30.9	-32.2	13.3	1.90e-05	0	45	0	640679936	22	4209
2026-01-20 23:28:14.12	97.32	38.38	-30.9	-32.3	13.3	1.14e-05	0	45	0	642777088	22	4235
2026-01-20 23:28:15.13	97.76	38.38	-30.7	-31.8	13.7	1.90e-05	0	44	0	644874240	22	4066
2026-01-20 23:28:16.13	98.21	38.37	-30.5	-31.0	14.1	1.50e-06	0	45	0	645922816	22	3850
2026-01-20 23:28:17.14	98.65	38.36	-30.8	-32.0	13.5	5.30e-06	0	45	0	648019968	22	4133
2026-01-20 23:28:18.14	99.10	38.35	-30.9	-32.2	13.4	1.29e-05	0	45	0	650117120	22	4197
2026-01-20 23:28:19.15	99.54	38.33	-31.2	-33.1	12.8	3.73e-05	0	45	0	652214272	22	4478
2026-01-20 23:28:20.15	99.99	38.32	-30.7	-31.8	13.6	2.13e-05	0	45	0	654311424	22	4053
2026-01-20 23:28:21.16	100.43	38.30	-30.6	-31.4	13.9	7.00e-07	0	45	0	655360000	22	3944
2026-01-20 23:28:22.16	100.87	38.28	-30.6	-31.4	13.9	4.50e-06	0	44	0	657457152	22	3951
2026-01-20 23:28:23.16	101.31	38.26	-30.7	-31.7	13.7	3.00e-06	0	45	0	659554304	22	4037
2026-01-20 23:28:24.17	101.76	38.24	-30.5	-31.2	14.1	3.00e-06	0	45	0	661651456	22	3894
2026-01-20 23:28:25.17	102.20	38.21	-30.2	-30.8	14.6	0.00e+00	0	44	0	663748608	21	3874
2026-01-20 23:28:26.17	102.63	38.18	-30.4	-31.4	14.3	0.00e+00	0	45	0	664797184	21	4042
2026-01-20 23:28:27.17	103.07	38.15	-31.0	-33.0	13.3	4.50e-06	0	45	0	666894336	21	4530
2026-01-20 23:28:28.17	103.51	38.12	-31.5	-33.6	12.1	9.15e-05	0	45	0	668991488	23	4551
2026-01-20 23:28:29.17	103.94	38.09	-31.4	-33.1	12.3	2.20e-04	0	44	0	671088640	23	4387
2026-01-20 23:28:30.18	104.38	38.06	-31.2	-32.5	12.7	9.84e-05	0	45	0	672137216	23	4193
2026-01-20 23:28:31.18	104.82	38.02	-30.9	-31.8	13.2	4.42e-05	0	45	0	674234368	23	4000
2026-01-20 23:28:32.19	105.26	37.98	-31.0	-32.1	13.1	3.73e-05	0	45	0	676331520	23	4070
2026-01-20 23:28:33.20	105.69	37.94	-31.2	-32.7	12.8	5.03e-05	0	45	0	678428672	23	4261
2026-01-20 23:28:34.21	106.13	37.90	-31.3	-32.8	12.6	4.50e-05	0	44	0	680525824	23	4295
2026-01-20 23:28:35.21	106.56	37.86	-30.9	-31.9	13.2	4.34e-05	0	45	0	681574400	23	4001
2026-01-20 23:28:36.21	106.99	37.82	-31.0	-32.2	13.0	2.67e-05	0	44	0	683671552	23	4102
2026-01-20 23:28:37.22	107.42	37.77	-31.4	-33.2	12.4	7.40e-05	0	45	0	685768704	23	4438
2026-01-20 23:28:38.23	107.85	37.72	-32.0	-34.5	11.0	5.21e-04	0	45	0	687865856	24	4812
2026-01-20 23:28:39.23	108.28	37.67	-32.2	-35.1	10.5	4.50e-03	0	45	0	689963008	24	5047
2026-01-20 23:28:40.23	108.70	37.62	-31.6	-33.1	12.0	1.58e-03	0	45	0	691011584	24	4312
2026-01-20 23:28:41.22	109.12	37.57	-30.7	-31.7	13.7	3.35e-05	0	45	0	693108736	22	4051
2026-01-20 23:28:42.22	109.54	37.51	-30.7	-31.7	13.7	4.50e-06	0	45	0	695205888	22	4047
2026-01-20 23:28:43.22	109.96	37.46	-31.2	-33.0	12.7	3.66e-05	0	45	0	697303040	22	4462
2026-01-20 23:28:44.23	110.38	37.40	-31.4	-33.2	12.3	1.64e-04	0	45	0	699400192	23	4420
2026-01-20 23:28:45.23	110.80	37.34	-31.4	-33.1	12.4	2.36e-04	0	44	0	700448768	23	4379
2026-01-20 23:28:46.23	111.22	37.28	-30.9	-31.7	13.3	2.82e-05	0	45	0	702545920	23	3949
2026-01-20 23:28:47.23	111.63	37.21	-30.6	-31.4	13.9	3.00e-06	0	45	0	704643072	22	3952
2026-01-20 23:28:48.23	112.04	37.15	-31.2	-33.1	12.8	1.52e-05	0	44	0	706740224	22	4477
2026-01-20 23:28:49.24	112.46	37.08	-32.0	-34.9	11.2	1.50e-04	0	45	0	708837376	23	5024
2026-01-20 23:28:50.24	112.87	37.02	-32.4	-35.5	10.0	5.57e-03	0	45	0	709885952	25	5109
2026-01-20 23:28:51.24	113.27	36.95	-32.4	-35.2	10.1	8.19e-03	0	45	0	711983104	25	4987
2026-01-20 23:28:52.24	113.68	36.88	-32.1	-34.4	10.7	3.82e-03	0	45	0	714080256	25	4687
2026-01-20 23:28:53.24	114.08	36.81	-31.9	-33.6	11.4	9.52e-04	0	45	0	716177408	25	4387
2026-01-20 23:28:54.24	114.49	36.73	-32.1	-34.2	10.9	2.12e-03	0	45	0	718274560	25	4599
2026-01-20 23:28:55.25	114.89	36.66	-31.9	-33.6	11.4	1.18e-03	0	45	0	719323136	25	4392
2026-01-20 23:28:56.25	115.29	36.58	-31.7	-33.5	11.7	7.03e-04	0	45	0	721420288	24	4431
2026-01-20 23:28:57.26	115.69	36.51	-30.8	-31.6	13.3	1.24e-04	0	45	0	723517440	23	3921
2026-01-20 23:28:58.26	116.09	36.43	-30.2	-30.9	14.4	2.20e-06	0	44	0	725614592	21	3902
2026-01-20 23:28:59.25	116.48	36.35	-30.3	-31.1	14.3	0.00e+00	0	45	0	726663168	21	3971
2026-01-20 23:29:00.25	116.87	36.27	-30.7	-32.3	13.5	8.30e-06	0	45	0	728760320	21	4311
2026-01-20 23:29:01.25	117.26	36.19	-31.4	-33.7	12.4	3.96e-05	0	45	0	730857472	22	4675
2026-01-20 23:29:02.26	117.65	36.10	-32.1	-34.7	11.0	6.77e-04	0	44	0	732954624	24	4858
2026-01-20 23:29:03.27	118.04	36.02	-31.8	-33.9	11.5	1.55e-03	0	45	0	735051776	24	4565
2026-01-20 23:29:04.27	118.42	35.93	-31.4	-32.7	12.3	4.35e-04	0	45	0	736100352	24	4179
2026-01-20 23:29:05.27	118.80	35.84	-31.2	-32.6	12.7	8.16e-05	0	44	0	738197504	23	4217
2026-01-20 23:29:06.27	119.18	35.76	-31.5	-33.3	12.2	8.77e-05	0	45	0	740294656	23	4479
2026-01-20 23:29:07.28	119.56	35.67	-31.7	-34.1	11.7	3.94e-04	0	45	0	742391808	23	4737
2026-01-20 23:29:08.27	119.93	35.58	-31.7	-34.1	11.7	5.87e-04	0	44	0	744488960	23	4729
2026-01-20 23:29:09.28	120.31	35.48	-31.5	-33.5	12.0	6.67e-04	0	44	0	745537536	23	4535
2026-01-20 23:29:10.29	120.69	35.39	-30.9	-31.8	13.2	3.58e-05	0	45	0	747634688	23	4003
2026-01-20 23:29:11.28	121.05	35.30	-30.7	-31.8	13.5	9.90e-06	0	45	0	749731840	22	4089
2026-01-20 23:29:12.28	121.42	35.20	-30.9	-32.2	13.3	1.14e-05	0	45	0	751828992	22	4205
2026-01-20 23:29:13.29	121.79	35.11	-31.5	-34.0	12.1	8.92e-05	0	45	0	753926144	22	4795
2026-01-20 23:29:14.29	122.15	35.01	-32.1	-34.9	10.7	1.58e-03	0	45	0	754974720	24	4954
2026-01-20 23:29:15.29	122.51	34.91	-32.0	-34.5	11.0	3.92e-03	0	45	0	757071872	24	4813
2026-01-20 23:29:16.29	122.87	34.82	-31.7	-33.6	11.6	9.24e-04	0	45	0	759169024	24	4491
2026-01-20 23:29:17.29	123.23	34.72	-31.4	-32.8	12.2	4.52e-04	0	45	0	761266176	24	4206
2026-01-20 23:29:18.29	123.58	34.62	-31.6	-33.3	11.9	2.49e-04	0	45	0	762314752	24	4376
2026-01-20 23:29:19.30	123.94	34.51	-32.3	-35.6	10.3	1.92e-03	0	45	0	764411904	24	5238
2026-01-20 23:29:20.30	124.29	34.41	-32.9	-37.3	8.6	2.58e-02	0	45	0	766509056	25	6004
2026-01-20 23:29:21.30	124.64	34.31	-33.0	-37.3	8.1	5.76e-02	0	45	0	768606208	26	5905
2026-01-20 23:29:22.31	124.99	34.20	-32.8	-36.4	8.8	4.75e-02	0	45	0	770703360	26	5453
2026-01-20 23:29:23.31	125.33	34.10	-32.4	-35.0	9.8	1.40e-02	0	45	0	771751936	26	4840
2026-01-20 23:29:24.31	125.67	34.00	-32.6	-35.6	9.4	1.44e-02	0	45	0	773849088	26	5069
2026-01-20 23:29:25.31	126.01	33.89	-32.6	-35.5	9.5	1.32e-02	0	45	0	775946240	26	5031
2026-01-20 23:29:26.31	126.35	33.78	-32.9	-36.8	8.5	2.09e-02	0	45	0	778043392	26	5655
2026-01-20 23:29:27.31	126.68	33.68	-33.2	-38.2	7.4	1.13e-01	0	45	0	780140544	26	6388
2026-01-20 23:29:28.31	127.01	33.57	-32.8	-36.5	8.7	5.92e-02	0	45	0	781189120	26	5498
2026-01-20 23:29:29.32	127.35	33.46	-32.3	-34.6	10.1	1.49e-02	0	45	0	783286272	26	4696
2026-01-20 23:29:30.32	127.68	33.35	-32.0	-34.2	10.8	2.79e-03	0	44	0	785383424	25	4616
2026-01-20 23:29:31.32	128.00	33.24	-32.3	-35.2	10.1	4.20e-03	0	45	0	787480576	25	5009
2026-01-20 23:29:32.32	128.33	33.13	-32.9	-37.5	8.2	2.11e-02	0	45	0	789577728	25	6091
2026-01-20 23:29:33.32	128.65	33.02	-33.5	-39.3	6.3	1.35e-01	0	45	0	790626304	27	6990
2026-01-20 23:29:34.33	128.97	32.90	-33.4	-38.9	6.5	3.62e-01	0	45	0	792723456	27	6755
2026-01-20 23:29:35.33	129.29	32.79	-32.6	-35.5	9.4	6.09e-02	0	45	0	794820608	26	5076
2026-01-20 23:29:36.33	129.61	32.68	-31.8	-33.6	11.1	6.06e-03	0	45	0	796917760	25	4424
2026-01-20 23:29:37.33	129.92	32.57	-31.5	-33.1	11.9	3.20e-04	0	45	0	799014912	24	4334
2026-01-20 23:29:38.34	130.23	32.45	-31.9	-34.3	11.1	1.13e-03	0	45	0	800063488	24	4737
2026-01-20 23:29:39.34	130.54	32.34	-32.5	-35.8	9.6	6.14e-03	0	45	0	802160640	25	5273
2026-01-20 23:29:40.35	130.85	32.22	-33.2	-38.4	7.2	1.19e-01	0	45	0	804257792	26	6565
2026-01-20 23:29:41.35	131.16	32.11	-33.0	-37.2	8.1	9.65e-02	0	45	0	806354944	26	5879
2026-01-20 23:29:42.35	131.46	31.99	-32.4	-35.1	9.8	2.13e-02	0	45	0	808452096	26	4889
2026-01-20 23:29:43.35	131.76	31.87	-31.9	-33.9	10.9	5.33e-03	0	45	0	809500672	25	4520
2026-01-20 23:29:44.36	132.06	31.76	-31.6	-33.3	11.6	6.93e-04	0	44	0	811597824	24	4417
2026-01-20 23:29:45.36	132.36	31.64	-31.9	-34.5	10.8	1.82e-03	0	45	0	813694976	24	4846
2026-01-20 23:29:46.36	132.65	31.52	-32.0	-34.8	10.6	2.11e-03	0	45	0	815792128	24	4974
2026-01-20 23:29:47.36	132.94	31.41	-31.8	-34.4	10.9	3.10e-03	0	45	0	816840704	24	4822
2026-01-20 23:29:48.37	133.24	31.29	-31.2	-32.8	12.2	4.41e-04	0	45	0	818937856	23	4348
2026-01-20 23:29:49.36	133.52	31.17	-31.0	-32.3	12.7	1.29e-04	0	45	0	821035008	23	4201
2026-01-20 23:29:50.36	133.81	31.05	-31.1	-32.7	12.5	1.24e-04	0	45	0	823132160	23	4321
2026-01-20 23:29:51.36	134.09	30.93	-31.4	-33.5	11.9	4.20e-04	0	45	0	825229312	23	4567
2026-01-20 23:29:52.37	134.38	30.81	-32.0	-34.9	10.5	1.87e-03	0	45	0	826277888	24	5030
2026-01-20 23:29:53.36	134.65	30.69	-32.2	-35.7	9.9	7.98e-03	0	45	0	828375040	24	5352
2026-01-20 23:29:54.37	134.93	30.57	-31.9	-34.6	10.7	4.00e-03	0	45	0	830472192	24	4883
2026-01-20 23:29:55.37	135.21	30.45	-31.5	-33.3	11.5	1.58e-03	0	45	0	832569344	24	4410
2026-01-20 23:29:56.38	135.49	30.33	-31.2	-32.8	12.4	3.48e-04	0	45	0	834666496	23	4340
2026-01-20 23:29:57.38	135.76	30.21	-30.9	-31.9	13.0	4.68e-04	0	45	0	835715072	23	4048
2026-01-20 23:29:58.38	136.03	30.09	-31.3	-33.5	12.2	1.12e-04	0	45	0	837812224	22	4669
2026-01-20 23:29:59.39	136.30	29.97	-31.6	-34.0	11.5	6.16e-04	0	45	0	839909376	23	4755
2026-01-20 23:30:00.39	136.57	29.85	-31.5	-33.6	11.8	1.47e-03	0	45	0	842006528	23	4595
2026-01-20 23:30:01.40	136.83	29.73	-31.2	-33.2	12.4	1.87e-04	0	45	0	844103680	22	4565
2026-01-20 23:30:02.41	137.10	29.61	-30.6	-31.7	13.4	3.28e-05	0	45	0	845152256	22	4062
2026-01-20 23:30:03.41	137.36	29.49	-30.3	-31.2	14.0	7.12e-04	0	45	0	847249408	21	4017
2026-01-20 23:30:04.41	137.61	29.36	-30.3	-31.3	14.0	9.10e-06	0	45	0	849346560	21	4040
2026-01-20 23:30:05.41	137.87	29.24	-30.4	-31.6	13.8	4.50e-06	0	44	0	851443712	21	4118
2026-01-20 23:30:06.42	138.13	29.12	-30.9	-33.0	12.8	5.91e-04	0	45	0	853540864	21	4558
2026-01-20 23:30:07.42	138.38	29.00	-31.2	-33.3	12.3	7.11e-04	0	45	0	854589440	22	4586
2026-01-20 23:30:08.43	138.63	28.88	-31.1	-33.1	12.5	1.45e-04	0	45	0	856686592	22	4498
2026-01-20 23:30:09.43	138.88	28.76	-30.5	-32.0	13.5	3.28e-05	0	45	0	858783744	21	4241
2026-01-20 23:30:10.43	139.13	28.63	-30.3	-31.2	13.9	6.00e-04	0	45	0	860880896	21	4028
2026-01-20 23:30:11.44	139.38	28.51	-30.3	-31.4	13.8	1.50e-06	0	45	0	861929472	21	4070
2026-01-20 23:30:12.44	139.62	28.39	-30.5	-31.9	13.5	1.06e-05	0	45	0	864026624	21	4227
2026-01-20 23:30:13.44	139.86	28.27	-30.8	-32.8	13.0	1.35e-03	0	45	0	866123776	21	4511
2026-01-20 23:30:14.44	140.10	28.15	-31.2	-33.2	12.4	1.04e-04	0	45	0	868220928	22	4559
2026-01-20 23:30:15.44	140.34	28.02	-31.3	-33.5	12.1	2.97e-04	0	45	0	870318080	22	4655
2026-01-20 23:30:16.45	140.58	27.90	-30.7	-32.0	13.2	9.07e-05	0	45	0	872415232	22	4153
2026-01-20 23:30:17.45	140.81	27.78	-30.0	-30.6	14.3	7.60e-06	0	45	0	873463808	21	3860
2026-01-20 23:30:18.44	141.04	27.66	-29.5	-29.8	15.1	0.00e+00	0	45	0	875560960	20	3713
2026-01-20 23:30:19.44	141.27	27.54	-29.3	-29.7	15.5	0.00e+00	0	45	0	877658112	19	3789
2026-01-20 23:30:20.45	141.50	27.42	-29.1	-29.2	15.8	0.00e+00	0	45	0	879755264	19	3650
2026-01-20 23:30:21.45	141.73	27.29	-29.3	-30.4	15.4	0.00e+00	0	45	0	880803840	18	4046
2026-01-20 23:30:22.45	141.96	27.17	-29.4	-30.6	15.3	0.00e+00	0	45	0	882900992	18	4129
2026-01-20 23:30:23.45	142.18	27.05	-29.8	-30.9	14.8	0.00e+00	0	44	0	884998144	19	4123
2026-01-20 23:30:24.46	142.41	26.93	-29.8	-31.1	14.7	1.20e-03	0	45	0	887095296	19	4179
2026-01-20 23:30:25.46	142.63	26.81	-29.6	-30.5	15.1	7.00e-07	0	45	0	889192448	19	3993
2026-01-20 23:30:26.46	142.85	26.69	-29.2	-29.5	15.6	0.00e+00	0	45	0	890241024	19	3730
2026-01-20 23:30:27.46	143.06	26.57	-28.7	-28.9	16.2	0.00e+00	0	45	0	892338176	18	3683
2026-01-20 23:30:28.47	143.28	26.44	-28.7	-29.3	16.3	0.00e+00	0	45	0	894435328	17	3864
2026-01-20 23:30:29.48	143.50	26.32	-28.8	-29.5	16.1	0.00e+00	0	45	0	896532480	17	3923
2026-01-20 23:30:30.48	143.71	26.20	-29.1	-29.9	15.7	0.00e+00	0	45	0	898629632	18	3927
2026-01-20 23:30:31.48	143.92	26.08	-29.6	-30.6	14.9	0.00e+00	0	45	0	899678208	19	4023
2026-01-20 23:30:32.49	144.13	25.96	-29.9	-31.3	14.5	0.00e+00	0	45	0	901775360	19	4239
2026-01-20 23:30:33.49	144.34	25.84	-29.9	-31.3	14.5	7.00e-07	0	45	0	903872512	19	4235
2026-01-20 23:30:34.50	144.55	25.72	-29.7	-30.9	14.7	0.00e+00	0	45	0	905969664	19	4109
2026-01-20 23:30:35.50	144.76	25.60	-29.5	-30.2	15.1	0.00e+00	0	45	0	908066816	19	3922
2026-01-20 23:30:36.51	144.96	25.48	-29.3	-30.4	15.4	0.00e+00	0	45	0	909115392	18	4059
2026-01-20 23:30:37.51	145.16	25.36	-29.4	-30.6	15.2	0.00e+00	0	44	0	911212544	18	4129
2026-01-20 23:30:38.51	145.36	25.24	-29.6	-30.4	15.0	0.00e+00	0	45	0	913309696	19	3972
2026-01-20 23:30:39.51	145.56	25.12	-29.4	-30.1	15.1	0.00e+00	0	45	0	915406848	19	3901
2026-01-20 23:30:40.51	145.76	25.00	-29.6	-30.6	14.9	0.00e+00	0	45	0	917504000	19	4035
2026-01-20 23:30:41.51	145.96	24.88	-29.8	-31.0	14.7	0.00e+00	0	45	0	918552576	19	4134
2026-01-20 23:30:42.51	146.15	24.77	-29.8	-31.1	14.5	7.00e-07	0	45	0	920649728	19	4192
2026-01-20 23:30:43.51	146.35	24.65	-30.0	-31.5	14.2	7.00e-07	0	45	0	922746880	19	4316
2026-01-20 23:30:44.51	146.54	24.53	-29.7	-30.8	14.7	0.00e+00	0	45	0	924844032	19	4101
2026-01-20 23:30:45.52	146.73	24.41	-28.7	-29.8	14.6	7.00e-07	0	45	0	925892608	19	4103
2026-01-20 23:30:46.53	146.92	24.29	-29.6	-30.7	14.7	0.00e+00	0	45	0	927989760	19	4071
2026-01-20 23:30:47.53	147.11	24.17	-29.5	-30.8	13.9	7.00e-07	0	45	0	930086912	18	4186
2026-01-20 23:30:48.53	147.29	24.06	-29.1	-29.9	14.1	1.86e-03	0	45	0	932184064	18	3944
2026-01-20 23:30:49.53	147.48	23.94	-29.1	-30.0	15.5	0.00e+00	0	45	0	934281216	18	3953
2026-01-20 23:30:50.52	147.66	23.82	-29.3	-30.4	15.1	0.00e+00	0	45	0	935329792	18	4085
2026-01-20 23:30:51.53	147.85	23.71	-29.5	-30.8	14.9	0.00e+00	0	44	0	937426944	18	4179
2026-01-20 23:30:52.53	148.03	23.59	-29.6	-30.7	14.7	0.00e+00	0	45	0	939524096	19	4075
2026-01-20 23:30:53.54	148.21	23.47	-29.9	-31.3	14.4	0.00e+00	0	45	0	941621248	19	4242
2026-01-20 23:30:54.54	148.39	23.36	-30.0	-31.2	14.1	0.00e+00	0	45	0	943718400	20	4129
2026-01-20 23:30:55.54	148.56	23.24	-30.1	-31.5	13.9	4.50e-06	0	45	0	944766976	20	4210
2026-01-20 23:30:56.54	148.74	23.13	-29.8	-31.1	14.4	1.50e-06	0	45	0	946864128	19	4194
2026-01-20 23:30:57.55	148.92	23.01	-29.7	-30.8	14.6	0.00e+00	0	45	0	948961280	19	4101
2026-01-20 23:30:58.55	149.09	22.89	-29.7	-30.9	14.6	2.20e-06	0	44	0	951058432	19	4128
2026-01-20 23:30:59.56	149.26	22.78	-29.7	-30.9	14.5	0.00e+00	0	45	0	953155584	19	4140
2026-01-20 23:31:00.56	149.43	22.66	-29.7	-30.9	14.5	7.00e-07	0	45	0	954204160	19	4127
2026-01-20 23:31:01.57	149.60	22.55	-29.5	-30.5	14.9	7.00e-07	0	45	0	956301312	19	4005
2026-01-20 23:31:02.57	149.77	22.43	-29.7	-31.0	14.5	2.36e-03	0	45	0	958398464	19	4148
2026-01-20 23:31:03.57	149.94	22.32	-29.6	-30.6	14.6	0.00e+00	0	45	0	960495616	19	4039
2026-01-20 23:31:04.58	150.11	22.21	-29.4	-30.1	15.1	0.00e+00	0	45	0	962592768	19	3901
2026-01-20 23:31:05.59	150.27	22.09	-29.4	-30.6	15.0	2.15e-03	0	45	0	963641344	18	4145
2026-01-20 23:31:06.59	150.44	21.98	-29.3	-30.5	15.1	1.96e-03	0	45	0	965738496	18	4103
2026-01-20 23:31:07.60	150.60	21.87	-29.5	-30.8	14.9	7.00e-07	0	45	0	967835648	18	4207
2026-01-20 23:31:08.60	150.76	21.75	-29.7	-30.9	14.5	2.00e-03	0	44	0	969932800	19	4131
2026-01-20 23:31:09.60	150.92	21.64	-29.7	-30.9	14.5	2.23e-03	0	45	0	972029952	19	4129
2026-01-20 23:31:10.60	151.08	21.53	-30.0	-31.2	14.0	1.50e-06	0	45	0	973078528	20	4142
2026-01-20 23:31:11.60	151.24	21.42	-30.0	-31.1	14.0	3.00e-06	0	45	0	975175680	20	4109
2026-01-20 23:31:12.60	151.40	21.31	-29.9	-31.4	14.2	2.01e-03	0	45	0	977272832	19	4282
2026-01-20 23:31:13.61	151.56	21.20	-29.9	-31.5	14.1	7.00e-07	0	45	0	979369984	19	4319
2026-01-20 23:31:14.61	151.71	21.08	-29.9	-31.3	14.3	1.50e-06	0	45	0	981467136	19	4245
2026-01-20 23:31:15.61	151.86	20.97	-29.8	-31.0	14.4	1.98e-03	0	45	0	982515712	19	4157
2026-01-20 23:31:16.62	152.02	20.86	-29.8	-31.3	14.3	0.00e+00	0	45	0	984612864	19	4240
2026-01-20 23:31:17.62	152.17	20.75	-29.8	-31.1	14.3	2.01e-03	0	45	0	986710016	19	4202
2026-01-20 23:31:18.62	152.32	20.64	-30.0	-31.6	14.0	7.00e-07	0	45	0	988807168	19	4341
2026-01-20 23:31:19.62	152.47	20.53	-30.1	-31.5	13.7	5.30e-06	0	45	0	989855744	20	4238
2026-01-20 23:31:20.62	152.62	20.43	-30.4	-32.2	13.2	2.32e-03	0	45	0	991952896	20	4455
2026-01-20 23:31:21.63	152.77	20.32	-30.7	-32.6	12.7	7.17e-05	0	45	0	994050048	21	4474
2026-01-20 23:31:22.63	152.91	20.21	-31.0	-33.1	12.0	2.28e-04	0	44	0	996147200	22	4565
2026-01-20 23:31:23.63	153.06	20.10	-31.1	-33.4	11.7	2.87e-03	0	45	0	998244352	22	4683
2026-01-20 23:31:24.64	153.20	19.99	-31.1	-33.4	11.8	2.67e-03	0	45	0	999292928	22	4677
2026-01-20 23:31:25.64	153.35	19.88	-31.0	-33.0	12.0	6.93e-04	0	45	0	1001390080	22	4549
2026-01-20 23:31:26.65	153.49	19.77	-30.9	-32.8	12.1	2.65e-03	0	45	0	1003487232	22	4468
2026-01-20 23:31:27.65	153.63	19.67	-30.7	-32.8	12.5	2.53e-03	0	45	0	1005584384	21	4561
2026-01-20 23:31:28.65	153.77	19.56	-30.6	-32.4	12.8	1.01e-04	0	44	0	1007681536	21	4415
2026-01-20 23:31:29.66	153.92	19.45	-30.3	-31.7	13.2	2.40e-03	0	45	0	1008730112	21	4192
2026-01-20 23:31:30.65	154.05	19.35	-30.4	-32.3	13.1	2.30e-03	0	45	0	1010827264	20	4507
2026-01-20 23:31:31.66	154.19	19.24	-30.3	-32.1	13.2	1.22e-05	0	45	0	1012924416	20	4427
2026-01-20 23:31:32.66	154.33	19.14	-30.3	-32.0	13.2	2.29e-03	0	45	0	1015021568	20	4418
2026-01-20 23:31:33.67	154.47	19.03	-30.4	-32.5	12.9	2.17e-03	0	45	0	1017118720	20	4575
2026-01-20 23:31:34.67	154.60	18.93	-30.5	-32.2	12.8	8.46e-05	0	45	0	1018167296	21	4374
2026-01-20 23:31:35.67	154.73	18.82	-30.5	-32.1	12.8	2.18e-03	0	45	0	1020264448	21	4363
2026-01-20 23:31:36.67	154.87	18.72	-30.7	-32.7	12.5	2.56e-03	0	44	0	1022361600	21	4533
2026-01-20 23:31:37.67	155.00	18.61	-30.7	-32.7	12.5	1.38e-04	0	45	0	1024458752	21	4546
2026-01-20 23:31:38.67	155.13	18.51	-30.8	-32.9	12.3	2.55e-03	0	45	0	1026555904	21	4627
2026-01-20 23:31:39.67	155.26	18.41	-30.8	-32.9	12.3	2.19e-04	0	45	0	1027604480	21	4617
2026-01-20 23:31:40.67	155.39	18.30	-30.7	-32.8	12.4	1.73e-04	0	45	0	1029701632	21	4582
2026-01-20 23:31:41.68	155.52	18.20	-30.8	-32.9	12.3	2.56e-03	0	45	0	1031798784	21	4606
2026-01-20 23:31:42.68	155.65	18.10	-30.4	-32.0	12.9	2.26e-03	0	45	0	1033895936	21	4307
2026-01-20 23:31:43.69	155.78	17.99	-30.5	-32.3	12.7	4.57e-05	0	45	0	1034944512	21	4405
2026-01-20 23:31:44.68	155.90	17.89	-30.5	-32.2	12.7	2.21e-03	0	45	0	1037041664	21	4387
2026-01-20 23:31:45.69	156.03	17.79	-30.2	-32.0	13.2	2.41e-03	0	45	0	1039138816	20	4400
2026-01-20 23:31:46.69	156.16	17.69	-30.3	-32.3	13.0	2.59e-05	0	45	0	1041235968	20	4509
2026-01-20 23:31:47.69	156.28	17.59	-30.3	-32.2	13.1	2.40e-03	0	45	0	1043333120	20	4491
2026-01-20 23:31:48.69	156.40	17.49	-30.3	-32.2	13.0	2.29e-03	0	45	0	1044381696	20	4501
2026-01-20 23:31:49.70	156.53	17.38	-30.4	-32.1	12.8	5.34e-05	0	45	0	1046478848	21	4373
2026-01-20 23:31:50.70	156.65	17.28	-30.3	-32.3	13.0	4.88e-05	0	45	0	1048576000	20	4527
2026-01-20 23:31:51.70	156.77	17.18	-30.4	-32.5	12.8	2.12e-03	0	45	0	1050673152	20	4572
2026-01-20 23:31:52.70	156.89	17.08	-30.6	-32.4	12.6	9.30e-05	0	45	0	1052770304	21	4453
2026-01-20 23:31:53.70	157.01	16.99	-30.6	-32.4	12.6	1.07e-04	0	45	0	1053818880	21	4450
2026-01-20 23:31:54.71	157.13	16.89	-30.7	-32.9	12.3	2.51e-03	0	45	0	1055916032	21	4610
2026-01-20 23:31:55.71	157.24	16.79	-30.6	-32.4	12.6	1.20e-04	0	45	0	1058013184	21	4447
2026-01-20 23:31:56.71	157.36	16.69	-30.5	-32.2	12.7	8.31e-05	0	45	0	1060110336	21	4391
2026-01-20 23:31:57.71	157.48	16.59	-30.5	-32.3	12.7	9.84e-05	0	45	0	1062207488	21	4401
2026-01-20 23:31:58.71	157.59	16.49	-30.3	-31.8	12.9	5.72e-05	0	45	0	1063256064	21	4263
2026-01-20 23:31:59.71	157.71	16.39	-30.5	-32.4	12.6	2.31e-03	0	45	0	1065353216	21	4449
2026-01-20 23:32:00.71	157.82	16.30	-30.5	-32.3	12.6	1.45e-04	0	45	0	1067450368	21	4408
2026-01-20 23:32:01.72	157.94	16.20	-30.4	-31.9	12.9	4.57e-05	0	45	0	1069547520	21	4290
2026-01-20 23:32:02.72	158.05	16.10	-30.5	-32.4	12.6	2.18e-03	0	45	0	1071644672	21	4450
2026-01-20 23:32:03.72	158.16	16.01	-30.4	-32.0	12.8	9.38e-05	0	45	0	1072693248	21	4327
2026-01-20 23:32:04.73	158.27	15.91	-30.6	-32.7	12.3	8.08e-05	0	45	0	1074790400	21	4543
2026-01-20 23:32:05.73	158.38	15.81	-30.7	-33.0	12.1	2.63e-03	0	45	0	1076887552	21	4665
2026-01-20 23:32:06.73	158.49	15.72	-30.8	-33.1	12.0	2.77e-04	0	45	0	1078984704	21	4693
2026-01-20 23:32:07.74	158.60	15.62	-31.0	-33.4	11.5	6.13e-04	0	45	0	1080033280	22	4706
2026-01-20 23:32:08.74	158.71	15.53	-31.2	-34.0	11.1	1.15e-03	0	45	0	1082130432	22	4943
2026-01-20 23:32:09.75	158.82	15.43	-31.2	-33.9	11.1	4.01e-03	0	45	0	1084227584	22	4909
2026-01-20 23:32:10.75	158.93	15.34	-31.3	-34.4	10.8	2.17e-03	0	45	0	1086324736	22	5117
2026-01-20 23:32:11.75	159.04	15.24	-31.2	-33.8	11.1	2.58e-03	0	45	0	1088421888	22	4899
2026-01-20 23:32:12.75	159.14	15.15	-31.2	-33.9	11.1	3.96e-03	0	45	0	1089470464	22	4924
2026-01-20 23:32:13.75	159.25	15.05	-31.3	-34.4	10.8	2.35e-03	0	45	0	1091567616	22	5113
2026-01-20 23:32:14.76	159.35	14.96	-31.1	-33.5	11.3	1.39e-03	0	45	0	1093664768	22	4787
2026-01-20 23:32:15.77	159.46	14.87	-31.1	-33.7	11.2	9.72e-04	0	45	0	1095761920	22	4849
2026-01-20 23:32:16.77	159.56	14.77	-31.0	-33.3	11.5	1.42e-03	0	45	0	1097859072	22	4714
2026-01-20 23:32:17.77	159.66	14.68	-30.8	-33.2	11.9	6.03e-04	0	45	0	1098907648	21	4739
2026-01-20 23:32:18.76	159.77	14.59	-30.9	-33.6	11.6	5.25e-04	0	45	0	1101004800	21	4926
2026-01-20 23:32:19.77	159.87	14.50	-30.7	-33.1	12.0	7.12e-04	0	45	0	1103101952	21	4726
2026-01-20 23:32:20.77	159.97	14.40	-30.6	-32.7	12.2	2.77e-04	0	45	0	1105199104	21	4590
2026-01-20 23:32:21.77	160.07	14.31	-30.7	-33.1	11.9	3.47e-04	0	45	0	1107296256	21	4746
2026-01-20 23:32:22.77	160.17	14.22	-30.6	-32.6	12.1	2.88e-04	0	45	0	1108344832	21	4556
2026-01-20 23:32:23.78	160.27	14.13	-30.7	-33.1	11.9	3.42e-04	0	45	0	1110441984	21	4728
2026-01-20 23:32:24.78	160.37	14.04	-30.7	-33.1	11.7	5.88e-04	0	45	0	1112539136	21	4769
2026-01-20 23:32:25.79	160.47	13.95	-30.6	-32.9	11.9	4.41e-04	0	45	0	1114636288	21	4696
2026-01-20 23:32:26.79	160.56	13.86	-30.8	-33.6	11.4	7.84e-04	0	45	0	1116733440	21	4950
2026-01-20 23:32:27.80	160.66	13.77	-30.7	-33.3	11.7	6.81e-04	0	45	0	1117782016	21	4832
2026-01-20 23:32:28.80	160.76	13.68	-30.7	-33.3	11.6	7.30e-04	0	45	0	1119879168	21	4851
2026-01-20 23:32:29.80	160.85	13.59	-30.9	-33.8	11.3	1.01e-03	0	45	0	1121976320	21	5030
2026-01-20 23:32:30.80	160.95	13.50	-30.8	-33.5	11.5	7.69e-04	0	45	0	1124073472	21	4934
2026-01-20 23:32:31.80	161.04	13.41	-30.9	-33.9	11.2	1.14e-03	0	45	0	1126170624	21	5084
2026-01-20 23:32:32.80	161.14	13.32	-30.9	-33.3	11.3	1.77e-03	0	45	0	1127219200	22	4736
2026-01-20 23:32:33.81	161.23	13.23	-30.8	-33.5	11.6	8.00e-04	0	45	0	1129316352	21	4893
2026-01-20 23:32:34.81	161.33	13.14	-30.8	-33.7	11.4	7.76e-04	0	45	0	1131413504	21	4994
2026-01-20 23:32:35.81	161.42	13.05	-29.8	-32.4	11.5	6.71e-04	0	45	0	1133510656	21	4855
2026-01-20 23:32:36.81	161.51	12.97	-30.7	-33.0	11.8	3.97e-04	0	45	0	1134559232	21	4691
2026-01-20 23:32:37.81	161.60	12.88	-30.7	-33.1	11.3	5.75e-04	0	45	0	1136656384	21	4746
2026-01-20 23:32:38.82	161.69	12.79	-30.6	-32.7	11.4	3.08e-04	0	45	0	1138753536	21	4596
2026-01-20 23:32:39.82	161.78	12.70	-30.6	-32.7	12.0	2.31e-04	0	45	0	1140850688	21	4602
2026-01-20 23:32:40.82	161.87	12.62	-30.4	-32.7	11.9	2.45e-03	0	45	0	1142947840	20	4695
2026-01-20 23:32:41.83	161.96	12.53	-30.4	-32.6	12.4	1.30e-04	0	44	0	1143996416	20	4669
2026-01-20 23:32:42.84	162.05	12.44	-30.5	-32.6	12.1	1.94e-04	0	45	0	1146093568	21	4571
2026-01-20 23:32:43.84	162.14	12.36	-30.3	-32.4	12.5	2.62e-03	0	45	0	1148190720	20	4616
2026-01-20 23:32:44.83	162.23	12.27	-30.2	-32.4	12.6	8.01e-05	0	45	0	1150287872	20	4598
2026-01-20 23:32:45.84	162.32	12.19	-30.3	-32.5	12.5	1.30e-04	0	45	0	1152385024	20	4652
2026-01-20 23:32:46.84	162.40	12.10	-30.2	-32.4	12.5	1.29e-04	0	45	0	1153433600	20	4638
2026-01-20 23:32:47.84	162.49	12.02	-30.4	-33.0	12.1	2.87e-03	0	45	0	1155530752	20	4846
2026-01-20 23:32:48.84	162.58	11.93	-30.3	-32.2	12.3	2.78e-04	0	45	0	1157627904	21	4489
2026-01-20 23:32:49.85	162.66	11.85	-30.3	-32.6	12.3	2.61e-04	0	45	0	1159725056	20	4703
2026-01-20 23:32:50.85	162.75	11.76	-30.4	-33.1	11.9	2.84e-03	0	45	0	1161822208	20	4907
2026-01-20 23:32:51.85	162.83	11.68	-30.4	-33.1	12.0	3.58e-04	0	45	0	1162870784	20	4896
2026-01-20 23:32:52.85	162.92	11.59	-30.5	-33.5	11.8	5.45e-04	0	45	0	1164967936	20	5074
2026-01-20 23:32:53.85	163.00	11.51	-30.6	-33.2	11.5	7.90e-04	0	45	0	1167065088	21	4875
2026-01-20 23:32:54.85	163.08	11.43	-30.6	-33.3	11.4	9.03e-04	0	45	0	1169162240	21	4923
2026-01-20 23:32:55.85	163.17	11.34	-30.7	-33.6	11.2	1.07e-03	0	45	0	1171259392	21	5017
2026-01-20 23:32:56.85	163.25	11.26	-30.6	-33.5	11.2	1.53e-03	0	45	0	1172307968	21	5001
2026-01-20 23:32:57.86	163.33	11.18	-30.9	-34.3	10.6	2.42e-03	0	45	0	1174405120	21	5322
2026-01-20 23:32:58.86	163.41	11.10	-30.9	-34.3	10.6	6.36e-03	0	45	0	1176502272	21	5342
2026-01-20 23:32:59.87	163.49	11.01	-31.0	-34.3	10.3	3.56e-03	0	45	0	1178599424	22	5223
2026-01-20 23:33:00.86	163.57	10.93	-31.0	-34.3	10.4	5.01e-03	0	45	0	1179648000	22	5239
2026-01-20 23:33:01.87	163.66	10.85	-31.0	-34.1	10.4	7.13e-03	0	45	0	1181745152	22	5137
2026-01-20 23:33:02.87	163.74	10.77	-30.9	-34.4	10.6	3.47e-03	0	45	0	1183842304	21	5345
2026-01-20 23:33:03.88	163.82	10.69	-31.1	-34.3	10.3	3.64e-03	0	45	0	1185939456	22	5248
2026-01-20 23:33:04.88	163.89	10.61	-31.1	-34.4	10.2	8.62e-03	0	45	0	1188036608	22	5262
2026-01-20 23:33:05.88	163.97	10.52	-31.1	-34.6	10.1	8.87e-03	0	45	0	1189085184	22	5332
2026-01-20 23:33:06.88	164.05	10.44	-31.2	-34.9	9.8	9.39e-03	0	45	0	1191182336	22	5490
2026-01-20 23:33:07.89	164.13	10.36	-31.2	-34.6	10.1	9.37e-03	0	45	0	1193279488	22	5353
2026-01-20 23:33:08.88	164.21	10.28	-31.3	-34.9	9.9	1.16e-02	0	45	0	1195376640	22	5509
2026-01-20 23:33:09.88	164.28	10.20	-31.3	-35.1	9.7	1.35e-02	0	45	0	1197473792	22	5566
2026-01-20 23:33:10.89	164.36	10.12	-31.3	-34.8	10.0	9.20e-03	0	45	0	1198522368	22	5406
2026-01-20 23:33:11.89	164.44	10.04	-31.4	-35.1	9.7	1.17e-02	0	45	0	1200619520	22	5539
2026-01-20 23:33:12.89	164.51	9.96	-31.3	-34.8	10.0	8.91e-03	0	45	0	1202716672	22	5387
2026-01-20 23:33:13.89	164.59	9.88	-31.4	-35.2	9.7	9.61e-03	0	45	0	1204813824	22	5556
2026-01-20 23:33:14.89	164.66	9.81	-31.5	-35.4	9.6	1.57e-02	0	45	0	1206910976	22	5632
2026-01-20 23:33:15.90	164.74	9.73	-31.4	-35.2	9.7	9.68e-03	0	45	0	1207959552	22	5538
2026-01-20 23:33:16.90	164.81	9.65	-31.4	-35.2	9.6	1.35e-02	0	45	0	1210056704	22	5568
2026-01-20 23:33:17.90	164.88	9.57	-31.5	-34.9	9.5	1.43e-02	0	45	0	1212153856	23	5329
2026-01-20 23:33:18.90	164.96	9.49	-31.5	-35.0	9.4	1.44e-02	0	45	0	1214251008	23	5379
2026-01-20 23:33:19.90	165.03	9.41	-31.5	-35.0	9.4	1.63e-02	0	45	0	1216348160	23	5396
2026-01-20 23:33:20.90	165.10	9.34	-31.5	-34.9	9.5	1.43e-02	0	45	0	1217396736	23	5330
2026-01-20 23:33:21.91	165.18	9.26	-31.5	-34.8	9.6	1.56e-02	0	45	0	1219493888	23	5293
2026-01-20 23:33:22.91	165.25	9.18	-31.6	-35.5	9.1	2.42e-02	0	45	0	1221591040	23	5595
2026-01-20 23:33:23.91	165.32	9.10	-31.6	-35.4	9.1	2.84e-02	0	45	0	1223688192	23	5559
2026-01-20 23:33:24.91	165.39	9.03	-31.7	-35.6	8.9	2.10e-02	0	45	0	1224736768	23	5665
2026-01-20 23:33:25.91	165.46	8.95	-31.5	-35.1	9.3	2.64e-02	0	45	0	1226833920	23	5433
2026-01-20 23:33:26.91	165.53	8.87	-31.3	-34.7	10.0	1.42e-02	0	45	0	1228931072	22	5349
2026-01-20 23:33:27.92	165.60	8.80	-31.2	-34.5	10.1	7.57e-03	0	45	0	1231028224	22	5259
2026-01-20 23:33:28.92	165.67	8.72	-31.1	-34.2	10.4	7.07e-03	0	45	0	1233125376	22	5126
2026-01-20 23:33:29.92	165.74	8.65	-31.2	-34.3	10.2	7.71e-03	0	45	0	1234173952	22	5183
2026-01-20 23:33:30.92	165.81	8.57	-31.1	-34.2	10.3	5.72e-03	0	45	0	1236271104	22	5136
2026-01-20 23:33:31.93	165.88	8.49	-31.1	-34.0	10.5	5.88e-03	0	45	0	1238368256	22	5055
2026-01-20 23:33:32.94	165.95	8.42	-31.1	-34.0	10.4	5.87e-03	0	45	0	1240465408	22	5066
2026-01-20 23:33:33.94	166.02	8.34	-31.2	-34.5	10.1	5.49e-03	0	45	0	1242562560	22	5235
2026-01-20 23:33:34.95	166.09	8.27	-31.2	-34.3	10.2	5.64e-03	0	45	0	1243611136	22	5159
2026-01-20 23:33:35.95	166.15	8.19	-31.3	-34.7	9.9	9.16e-03	0	45	0	1245708288	22	5332
2026-01-20 23:33:36.95	166.22	8.12	-31.3	-34.6	10.0	9.35e-03	0	45	0	1247805440	22	5316
2026-01-20 23:33:37.95	166.29	8.04	-31.2	-34.6	10.0	1.06e-02	0	45	0	1249902592	22	5295
2026-01-20 23:33:38.96	166.35	7.97	-31.3	-34.8	9.9	9.36e-03	0	45	0	1251999744	22	5387
2026-01-20 23:33:39.95	166.42	7.90	-31.3	-34.7	9.9	8.83e-03	0	45	0	1253048320	22	5357
2026-01-20 23:33:40.96	166.49	7.82	-31.0	-34.4	9.9	1.15e-02	0	45	0	1255145472	22	5312
2026-01-20 23:33:41.96	166.55	7.75	-31.4	-35.1	9.6	1.08e-02	0	45	0	1257242624	22	5504
2026-01-20 23:33:42.97	166.62	7.67	-31.3	-34.9	9.6	1.07e-02	0	45	0	1259339776	22	5410
2026-01-20 23:33:43.97	166.68	7.60	-31.4	-35.1	9.5	1.19e-02	0	45	0	1261436928	22	5523
2026-01-20 23:33:44.97	166.75	7.53	-31.3	-34.9	9.7	1.30e-02	0	45	0	1262485504	22	5416
2026-01-20 23:33:45.98	166.81	7.45	-31.4	-35.0	9.7	9.70e-03	0	45	0	1264582656	22	5472
2026-01-20 23:33:46.98	166.87	7.38	-31.4	-35.1	9.6	1.57e-02	0	45	0	1266679808	22	5494
2026-01-20 23:33:47.99	166.94	7.31	-31.3	-34.9	9.7	1.52e-02	0	45	0	1268776960	22	5450
2026-01-20 23:33:48.99	167.00	7.24	-31.3	-34.6	9.9	9.26e-03	0	45	0	1270874112	22	5312
2026-01-20 23:33:50.00	167.07	7.16	-31.3	-35.0	9.6	1.33e-02	0	45	0	1271922688	22	5455
2026-01-20 23:33:51.00	167.13	7.09	-31.2	-34.5	10.0	1.24e-02	0	45	0	1274019840	22	5255
2026-01-20 23:33:52.01	167.19	7.02	-32.9	-45.3	3.8	1.49e+00	0	45	104	1275068416	26	15115
2026-01-20 23:33:53.01	167.25	6.95	-33.2	-45.9	3.8	1.49e+00	0	45	104	1275068416	26	15515
2026-01-20 23:33:54.02	167.32	6.87	-33.9	-46.6	3.8	1.49e+00	0	45	104	1275068416	27	15553

#Closed at: 2026-01-20 23:33:54
#Recorded file [1275 MB]: D:/data/31010_260121_022231.dat