passes_logs/2026/01/20/R2M6_AANII_01/R2M6_AANII_01__20260120_153706_FENGYUN_3E_rec.log

#Pass ID: 20260120_153706_FENGYUN 3E
#Satellite: FENGYUN 3E
#Configuration: FENGYUN 3E
#almurnet v.1.7.20240730
#Start time: 2026-01-20 15:37:06

#Version: 2.2.20231116
#Station: R2M6_AANII_01
#Location: 30.233357 lon 59.946436 lat
#TLE: 1 49008U 21062A   26020.00892250 -.00000287  00000+0 -11478-3 0  9990
#TLE: 2 49008  98.7482  25.0782 0002252 128.5071 231.6308 14.19884466235554

#Time	Az	El	Level	Level2	SNR	BER	BlckErr	Temp	State	Recorded	gain1	gain2
2026-01-20 15:37:06.78	192.55	7.01	-28.3	-29.9	5.6	7.55e-01	0	41	0	0	16	4335
2026-01-20 15:37:07.78	192.61	7.08	-29.2	-31.3	5.4	7.66e-01	0	42	104	0	18	4549
2026-01-20 15:37:08.78	192.67	7.16	-28.8	-30.3	10.9	2.51e-03	0	42	0	0	18	4235
2026-01-20 15:37:09.79	192.74	7.23	-29.1	-30.9	10.5	3.42e-03	0	42	0	7340032	18	4428
2026-01-20 15:37:10.79	192.80	7.30	-28.7	-30.0	11.1	2.55e-03	0	42	0	14680064	18	4158
2026-01-20 15:37:11.80	192.86	7.37	-28.5	-29.4	11.5	8.14e-04	0	42	0	22020096	18	3994
2026-01-20 15:37:12.81	192.93	7.45	-28.1	-29.0	12.0	4.02e-04	0	42	0	28311552	17	3989
2026-01-20 15:37:13.81	192.99	7.52	-27.9	-28.4	12.4	1.28e-04	0	42	0	35651584	17	3832
2026-01-20 15:37:14.80	193.06	7.59	-27.4	-28.3	12.9	5.60e-05	0	42	0	42991616	15	3998
2026-01-20 15:37:15.80	193.12	7.67	-27.2	-27.8	13.2	2.40e-05	0	42	0	50331648	15	3883
2026-01-20 15:37:16.81	193.19	7.74	-27.2	-28.0	13.1	1.94e-05	0	42	0	57671680	15	3922
2026-01-20 15:37:17.81	193.25	7.81	-27.3	-28.2	13.0	2.17e-05	0	42	0	65011712	15	3971
2026-01-20 15:37:18.81	193.32	7.89	-27.1	-27.7	13.3	1.71e-05	0	42	0	72351744	15	3849
2026-01-20 15:37:19.81	193.38	7.96	-27.1	-28.1	13.4	2.05e-05	0	42	0	79691776	14	4038
2026-01-20 15:37:20.82	193.45	8.04	-27.1	-28.1	13.3	1.71e-05	0	42	0	85983232	14	4044
2026-01-20 15:37:21.81	193.51	8.11	-27.1	-28.1	13.3	1.48e-05	0	42	0	93323264	14	4058
2026-01-20 15:37:22.81	193.58	8.18	-27.1	-28.2	13.3	1.83e-05	0	42	0	100663296	14	4079
2026-01-20 15:37:23.81	193.65	8.26	-27.0	-27.9	13.5	6.80e-06	0	42	0	108003328	14	4002
2026-01-20 15:37:24.81	193.71	8.33	-27.0	-27.8	13.5	4.80e-05	0	42	0	115343360	14	3980
2026-01-20 15:37:25.81	193.78	8.41	-27.3	-28.6	13.1	1.94e-05	0	42	0	122683392	14	4189
2026-01-20 15:37:26.82	193.85	8.49	-27.2	-28.4	13.2	2.28e-05	0	42	0	130023424	14	4127
2026-01-20 15:37:27.83	193.92	8.56	-27.0	-27.9	13.6	1.37e-05	0	42	0	137363456	14	3983
2026-01-20 15:37:28.83	193.99	8.64	-27.2	-28.4	13.2	2.05e-05	0	42	0	144703488	14	4117
2026-01-20 15:37:29.83	194.06	8.71	-27.3	-28.6	13.2	3.08e-05	0	42	0	152043520	14	4192
2026-01-20 15:37:30.83	194.12	8.79	-27.3	-28.6	13.1	1.71e-05	0	43	0	159383552	14	4180
2026-01-20 15:37:31.83	194.19	8.87	-27.2	-28.3	13.3	1.71e-05	0	42	0	166723584	14	4089
2026-01-20 15:37:32.83	194.26	8.94	-27.2	-28.3	13.4	1.14e-05	0	43	0	173015040	14	4084
2026-01-20 15:37:33.83	194.33	9.02	-27.0	-27.9	13.5	9.10e-06	0	43	0	180355072	14	3985
2026-01-20 15:37:34.84	194.41	9.10	-27.2	-28.2	13.3	4.50e-06	0	43	0	187695104	14	4079
2026-01-20 15:37:35.83	194.48	9.17	-27.2	-28.3	13.3	6.80e-06	0	43	0	195035136	14	4099
2026-01-20 15:37:36.84	194.55	9.25	-27.0	-27.8	13.6	5.70e-06	0	43	0	202375168	14	3972
2026-01-20 15:37:37.83	194.62	9.33	-27.1	-28.1	13.5	1.02e-05	0	43	0	209715200	14	4033
2026-01-20 15:37:38.83	194.69	9.41	-26.9	-27.8	13.7	1.14e-05	0	43	0	217055232	14	3948
2026-01-20 15:37:39.84	194.76	9.49	-26.9	-27.6	13.8	4.50e-06	0	43	0	224395264	14	3903
2026-01-20 15:37:40.83	194.84	9.56	-26.8	-27.3	13.9	0.00e+00	0	43	0	230686720	14	3841
2026-01-20 15:37:41.84	194.91	9.64	-26.8	-27.4	13.8	1.02e-05	0	43	0	238026752	14	3870
2026-01-20 15:37:42.84	194.98	9.72	-26.6	-27.1	14.1	0.00e+00	0	43	0	245366784	14	3783
2026-01-20 15:37:43.85	195.06	9.80	-26.7	-27.2	14.0	3.40e-06	0	43	0	252706816	14	3807
2026-01-20 15:37:44.85	195.13	9.88	-26.6	-27.0	14.1	2.20e-06	0	43	0	260046848	14	3757
2026-01-20 15:37:45.85	195.21	9.96	-26.6	-26.9	14.2	6.80e-06	0	43	0	267386880	14	3749
2026-01-20 15:37:46.85	195.28	10.04	-26.8	-27.4	13.9	0.00e+00	0	43	0	274726912	14	3857
2026-01-20 15:37:47.85	195.36	10.12	-26.6	-27.1	14.1	2.20e-06	0	43	0	282066944	14	3780
2026-01-20 15:37:48.86	195.43	10.20	-26.6	-27.1	14.1	2.20e-06	0	43	0	289406976	14	3776
2026-01-20 15:37:49.86	195.51	10.28	-26.7	-27.1	14.1	1.10e-06	0	43	0	295698432	14	3786
2026-01-20 15:37:50.86	195.59	10.36	-26.7	-27.3	14.0	2.20e-06	0	43	0	303038464	14	3834
2026-01-20 15:37:51.86	195.66	10.44	-26.6	-27.0	14.1	3.40e-06	0	43	0	310378496	14	3771
2026-01-20 15:37:52.86	195.74	10.52	-26.6	-27.0	14.2	4.50e-06	0	43	0	317718528	14	3770
2026-01-20 15:37:53.86	195.82	10.60	-26.8	-27.3	14.0	3.40e-06	0	43	0	325058560	14	3847
2026-01-20 15:37:54.87	195.90	10.68	-26.6	-27.0	14.1	1.10e-06	0	43	0	332398592	14	3775
2026-01-20 15:37:55.87	195.98	10.76	-26.8	-27.4	13.9	2.20e-06	0	43	0	339738624	14	3870
2026-01-20 15:37:56.87	196.06	10.85	-26.6	-27.4	14.2	1.10e-06	0	43	0	347078656	13	3958
2026-01-20 15:37:57.88	196.14	10.93	-26.7	-27.7	14.1	4.50e-06	0	43	0	354418688	13	4038
2026-01-20 15:37:58.89	196.22	11.01	-26.9	-28.3	13.7	2.20e-06	0	43	0	361758720	13	4184
2026-01-20 15:37:59.89	196.30	11.09	-26.8	-28.0	13.9	4.50e-06	0	43	0	369098752	13	4121
2026-01-20 15:38:00.89	196.38	11.18	-26.7	-27.6	14.1	4.50e-06	0	43	0	376438784	13	4017
2026-01-20 15:38:01.90	196.46	11.26	-26.6	-27.4	14.2	0.00e+00	0	43	0	382730240	13	3970
2026-01-20 15:38:02.91	196.54	11.34	-26.7	-27.7	14.0	2.20e-06	0	43	0	390070272	13	4050
2026-01-20 15:38:03.91	196.62	11.43	-26.6	-27.5	14.2	4.50e-06	0	43	0	397410304	13	3992
2026-01-20 15:38:04.91	196.71	11.51	-26.7	-27.7	14.1	3.40e-06	0	43	0	404750336	13	4031
2026-01-20 15:38:05.91	196.79	11.59	-26.5	-27.3	14.3	1.10e-06	0	43	0	412090368	13	3925
2026-01-20 15:38:06.91	196.87	11.68	-26.4	-27.1	14.5	0.00e+00	0	43	0	419430400	13	3882
2026-01-20 15:38:07.92	196.96	11.76	-26.4	-27.1	14.5	0.00e+00	0	43	0	426770432	13	3883
2026-01-20 15:38:08.92	197.04	11.85	-26.4	-27.0	14.5	0.00e+00	0	43	0	434110464	13	3855
2026-01-20 15:38:09.92	197.13	11.93	-26.5	-27.3	14.4	0.00e+00	0	43	0	440401920	13	3927
2026-01-20 15:38:10.92	197.21	12.02	-26.4	-27.0	14.5	1.10e-06	0	43	0	447741952	13	3866
2026-01-20 15:38:11.91	197.30	12.10	-26.4	-27.0	14.5	1.10e-06	0	43	0	455081984	13	3858
2026-01-20 15:38:12.92	197.39	12.19	-26.3	-26.8	14.6	3.40e-06	0	43	0	462422016	13	3825
2026-01-20 15:38:13.92	197.47	12.27	-26.3	-26.8	14.6	0.00e+00	0	43	0	469762048	13	3820
2026-01-20 15:38:14.92	197.56	12.36	-26.3	-26.8	14.7	0.00e+00	0	43	0	477102080	13	3810
2026-01-20 15:38:15.92	197.65	12.45	-26.4	-27.0	14.6	5.70e-06	0	43	0	484442112	13	3855
2026-01-20 15:38:16.93	197.74	12.53	-26.5	-27.1	14.5	0.00e+00	0	44	0	491782144	13	3895
2026-01-20 15:38:17.94	197.83	12.62	-26.4	-27.1	14.5	0.00e+00	0	43	0	499122176	13	3882
2026-01-20 15:38:18.94	197.92	12.71	-26.3	-26.8	14.7	1.10e-06	0	44	0	506462208	13	3807
2026-01-20 15:38:19.94	198.00	12.80	-26.2	-26.6	14.8	0.00e+00	0	43	0	513802240	13	3767
2026-01-20 15:38:20.94	198.10	12.88	-26.4	-26.9	14.6	1.10e-06	0	44	0	521142272	13	3844
2026-01-20 15:38:21.94	198.19	12.97	-26.4	-27.0	14.6	0.00e+00	0	43	0	527433728	13	3858
2026-01-20 15:38:22.94	198.28	13.06	-26.5	-27.3	14.4	0.00e+00	0	43	0	534773760	13	3924
2026-01-20 15:38:23.94	198.37	13.15	-26.3	-26.8	14.7	0.00e+00	0	43	0	542113792	13	3808
2026-01-20 15:38:24.94	198.46	13.23	-26.1	-26.4	14.9	1.10e-06	0	44	0	549453824	13	3713
2026-01-20 15:38:25.94	198.55	13.32	-26.1	-26.4	14.9	0.00e+00	0	44	0	556793856	13	3713
2026-01-20 15:38:26.94	198.65	13.41	-26.2	-26.6	14.8	0.00e+00	0	43	0	564133888	13	3754
2026-01-20 15:38:27.94	198.74	13.50	-26.0	-26.6	15.1	0.00e+00	0	44	0	571473920	12	3867
2026-01-20 15:38:28.95	198.84	13.59	-26.2	-27.1	14.8	0.00e+00	0	44	0	578813952	12	3992
2026-01-20 15:38:29.95	198.93	13.68	-26.0	-26.6	15.1	0.00e+00	0	44	0	586153984	12	3866
2026-01-20 15:38:30.95	199.03	13.77	-26.1	-26.7	15.0	0.00e+00	0	44	0	592445440	12	3891
2026-01-20 15:38:31.95	199.12	13.86	-26.0	-26.6	15.1	0.00e+00	0	44	0	599785472	12	3849
2026-01-20 15:38:32.96	199.22	13.95	-25.9	-26.4	15.2	1.10e-06	0	43	0	607125504	12	3797
2026-01-20 15:38:33.96	199.32	14.04	-26.1	-26.8	15.0	1.10e-06	0	44	0	614465536	12	3901
2026-01-20 15:38:34.96	199.42	14.13	-26.0	-26.7	15.0	0.00e+00	0	44	0	621805568	12	3887
2026-01-20 15:38:35.96	199.52	14.23	-26.1	-26.9	15.0	0.00e+00	0	44	0	629145600	12	3919
2026-01-20 15:38:36.97	199.62	14.32	-26.0	-26.5	15.2	0.00e+00	0	44	0	636485632	12	3825
2026-01-20 15:38:37.97	199.72	14.41	-25.7	-25.9	15.5	0.00e+00	0	44	0	643825664	12	3683
2026-01-20 15:38:38.97	199.82	14.50	-25.9	-26.3	15.3	0.00e+00	0	44	0	651165696	12	3786
2026-01-20 15:38:39.97	199.92	14.60	-26.1	-26.8	15.1	1.10e-06	0	44	0	658505728	12	3897
2026-01-20 15:38:40.97	200.02	14.69	-25.8	-26.2	15.4	0.00e+00	0	44	0	665845760	12	3767
2026-01-20 15:38:41.97	200.12	14.78	-25.8	-26.2	15.4	0.00e+00	0	44	0	672137216	12	3763
2026-01-20 15:38:42.98	200.22	14.87	-25.9	-26.4	15.3	0.00e+00	0	44	0	679477248	12	3815
2026-01-20 15:38:43.98	200.33	14.97	-26.0	-26.6	15.2	0.00e+00	0	44	0	686817280	12	3855
2026-01-20 15:38:44.97	200.43	15.06	-25.8	-26.2	15.4	0.00e+00	0	44	0	694157312	12	3767
2026-01-20 15:38:45.98	200.54	15.16	-25.8	-26.3	15.4	0.00e+00	0	44	0	701497344	12	3776
2026-01-20 15:38:46.99	200.64	15.25	-25.9	-26.4	15.3	0.00e+00	0	44	0	708837376	12	3820
2026-01-20 15:38:47.99	200.75	15.35	-25.8	-26.2	15.4	0.00e+00	0	44	0	716177408	12	3762
2026-01-20 15:38:48.99	200.85	15.44	-25.8	-26.2	15.4	0.00e+00	0	44	0	723517440	12	3763
2026-01-20 15:38:50.00	200.96	15.54	-25.8	-26.1	15.5	0.00e+00	0	44	0	730857472	12	3730
2026-01-20 15:38:51.00	201.07	15.63	-25.8	-26.2	15.4	0.00e+00	0	44	0	737148928	12	3771
2026-01-20 15:38:52.00	201.18	15.73	-25.6	-25.8	15.7	0.00e+00	0	44	0	744488960	12	3662
2026-01-20 15:38:53.01	201.29	15.83	-25.5	-25.6	15.8	0.00e+00	0	44	0	751828992	12	3629
2026-01-20 15:38:54.01	201.40	15.92	-25.7	-26.4	15.7	0.00e+00	0	44	0	759169024	11	3909
2026-01-20 15:38:55.01	201.51	16.02	-25.6	-26.2	15.8	0.00e+00	0	44	0	766509056	11	3867
2026-01-20 15:38:56.02	201.62	16.12	-25.5	-26.1	15.9	0.00e+00	0	44	0	773849088	11	3825
2026-01-20 15:38:57.02	201.73	16.21	-25.6	-26.1	15.9	0.00e+00	0	44	0	781189120	11	3839
2026-01-20 15:38:58.03	201.85	16.31	-25.3	-25.6	16.1	0.00e+00	0	44	0	788529152	11	3726
2026-01-20 15:38:59.04	201.96	16.41	-25.2	-25.3	16.4	0.00e+00	0	44	0	795869184	11	3640
2026-01-20 15:39:00.04	202.08	16.51	-25.3	-25.6	16.2	3.40e-06	0	44	0	803209216	11	3724
2026-01-20 15:39:01.05	202.19	16.61	-25.3	-25.6	16.1	0.00e+00	0	44	0	810549248	11	3720
2026-01-20 15:39:02.05	202.31	16.71	-25.5	-26.0	16.0	0.00e+00	0	44	0	817889280	11	3810
2026-01-20 15:39:03.06	202.43	16.81	-25.4	-25.8	16.1	4.50e-06	0	44	0	824180736	11	3756
2026-01-20 15:39:04.06	202.54	16.91	-25.3	-25.6	16.1	0.00e+00	0	44	0	831520768	11	3722
2026-01-20 15:39:05.06	202.66	17.00	-25.8	-26.6	15.6	0.00e+00	0	44	0	838860800	11	3964
2026-01-20 15:39:06.06	202.78	17.10	-25.4	-25.8	16.1	2.20e-06	0	44	0	846200832	11	3764
2026-01-20 15:39:07.06	202.90	17.20	-25.4	-25.8	16.1	0.00e+00	0	44	0	853540864	11	3772
2026-01-20 15:39:08.07	203.02	17.31	-25.4	-25.7	16.1	0.00e+00	0	44	0	860880896	11	3744
2026-01-20 15:39:09.07	203.14	17.41	-25.4	-25.8	16.1	0.00e+00	0	44	0	868220928	11	3754
2026-01-20 15:39:10.07	203.26	17.51	-25.5	-25.9	16.0	0.00e+00	0	44	0	875560960	11	3784
2026-01-20 15:39:11.08	203.39	17.61	-25.6	-26.1	15.9	0.00e+00	0	44	0	882900992	11	3839
2026-01-20 15:39:12.07	203.51	17.71	-25.3	-25.6	16.2	0.00e+00	0	44	0	890241024	11	3723
2026-01-20 15:39:13.07	203.63	17.81	-25.4	-25.7	16.2	0.00e+00	0	44	0	896532480	11	3747
2026-01-20 15:39:14.07	203.76	17.91	-25.4	-25.7	16.1	0.00e+00	0	44	0	903872512	11	3739
2026-01-20 15:39:15.07	203.88	18.02	-25.2	-25.4	16.3	0.00e+00	0	44	0	911212544	11	3677
2026-01-20 15:39:16.07	204.01	18.12	-25.0	-24.9	16.6	0.00e+00	0	44	0	918552576	11	3568
2026-01-20 15:39:17.08	204.14	18.22	-24.9	-24.8	16.7	0.00e+00	0	44	0	925892608	11	3539
2026-01-20 15:39:18.08	204.26	18.33	-25.0	-24.9	16.6	0.00e+00	0	44	0	933232640	11	3551
2026-01-20 15:39:19.08	204.39	18.43	-24.9	-24.8	16.7	0.00e+00	0	44	0	940572672	11	3531
2026-01-20 15:39:20.08	204.52	18.53	-24.6	-24.5	17.0	0.00e+00	0	44	0	947912704	10	3576
2026-01-20 15:39:21.08	204.65	18.64	-24.9	-25.1	16.8	0.00e+00	0	44	0	955252736	10	3702
2026-01-20 15:39:22.08	204.79	18.74	-24.9	-25.2	16.7	0.00e+00	0	44	0	962592768	10	3728
2026-01-20 15:39:23.08	204.92	18.85	-24.8	-25.0	16.8	0.00e+00	0	44	0	968884224	10	3692
2026-01-20 15:39:24.08	205.05	18.95	-24.7	-24.8	16.9	0.00e+00	0	44	0	976224256	10	3639
2026-01-20 15:39:25.09	205.19	19.06	-24.9	-25.2	16.7	0.00e+00	0	44	0	983564288	10	3721
2026-01-20 15:39:26.09	205.32	19.17	-24.7	-24.8	17.0	0.00e+00	0	44	0	990904320	10	3624
2026-01-20 15:39:27.09	205.46	19.27	-24.8	-25.1	16.8	0.00e+00	0	44	0	998244352	10	3701
2026-01-20 15:39:28.09	205.60	19.38	-24.9	-25.3	16.7	0.00e+00	0	44	0	1005584384	10	3738
2026-01-20 15:39:29.10	205.73	19.49	-24.8	-25.0	16.9	0.00e+00	0	44	0	1012924416	10	3676
2026-01-20 15:39:30.10	205.87	19.59	-24.7	-24.8	17.0	0.00e+00	0	44	0	1020264448	10	3627
2026-01-20 15:39:31.10	206.01	19.70	-24.7	-24.8	17.0	0.00e+00	0	44	0	1026555904	10	3632
2026-01-20 15:39:32.10	206.15	19.81	-24.7	-24.7	17.0	0.00e+00	0	44	0	1033895936	10	3611
2026-01-20 15:39:33.10	206.30	19.91	-24.7	-24.8	16.9	0.00e+00	0	44	0	1041235968	10	3647
2026-01-20 15:39:34.11	206.44	20.02	-24.8	-25.0	16.9	0.00e+00	0	44	0	1048576000	10	3679
2026-01-20 15:39:35.10	206.58	20.13	-24.6	-24.6	17.1	0.00e+00	0	44	0	1055916032	10	3592
2026-01-20 15:39:36.10	206.73	20.24	-24.7	-24.7	17.1	0.00e+00	0	44	0	1063256064	10	3615
2026-01-20 15:39:37.10	206.87	20.35	-24.7	-24.8	17.0	0.00e+00	0	44	0	1070596096	10	3628
2026-01-20 15:39:38.10	207.02	20.46	-24.6	-24.5	17.2	0.00e+00	0	44	0	1077936128	10	3562
2026-01-20 15:39:39.10	207.17	20.57	-24.5	-24.4	17.2	0.00e+00	0	44	0	1085276160	10	3557
2026-01-20 15:39:40.11	207.32	20.68	-24.5	-24.4	17.2	0.00e+00	0	44	0	1091567616	10	3549
2026-01-20 15:39:41.11	207.47	20.79	-24.6	-24.5	17.1	0.00e+00	0	44	0	1098907648	10	3578
2026-01-20 15:39:42.11	207.62	20.90	-24.7	-24.8	17.0	0.00e+00	0	44	0	1106247680	10	3629
2026-01-20 15:39:43.12	207.77	21.01	-24.5	-24.4	17.2	0.00e+00	0	44	0	1113587712	10	3545
2026-01-20 15:39:44.12	207.92	21.12	-24.5	-24.3	17.3	0.00e+00	0	44	0	1120927744	10	3537
2026-01-20 15:39:45.13	208.08	21.23	-24.5	-24.3	17.3	0.00e+00	0	44	0	1128267776	10	3519
2026-01-20 15:39:46.13	208.23	21.35	-24.5	-24.3	17.3	0.00e+00	0	44	0	1135607808	10	3516
2026-01-20 15:39:47.14	208.39	21.46	-24.6	-24.6	17.2	0.00e+00	0	44	0	1142947840	10	3580
2026-01-20 15:39:48.14	208.55	21.57	-24.6	-24.4	17.2	0.00e+00	0	44	0	1150287872	10	3554
2026-01-20 15:39:49.14	208.71	21.68	-24.5	-24.4	17.2	0.00e+00	0	44	0	1157627904	10	3547
2026-01-20 15:39:50.14	208.87	21.80	-24.6	-24.5	17.2	0.00e+00	0	44	0	1164967936	10	3561
2026-01-20 15:39:51.14	209.03	21.91	-24.7	-24.7	17.1	0.00e+00	0	44	0	1172307968	10	3617
2026-01-20 15:39:52.14	209.19	22.02	-24.6	-24.6	17.2	0.00e+00	0	44	0	1178599424	10	3585
2026-01-20 15:39:53.14	209.35	22.14	-24.6	-24.5	17.2	0.00e+00	0	44	0	1185939456	10	3563
2026-01-20 15:39:54.14	209.52	22.25	-24.6	-24.6	17.2	0.00e+00	0	44	0	1193279488	10	3593
2026-01-20 15:39:55.15	209.68	22.37	-24.5	-24.4	17.3	0.00e+00	0	44	0	1200619520	10	3549
2026-01-20 15:39:56.15	209.85	22.48	-24.4	-24.7	17.4	0.00e+00	0	44	0	1207959552	9	3702
2026-01-20 15:39:57.15	210.02	22.60	-24.4	-24.7	17.4	0.00e+00	0	44	0	1215299584	9	3700
2026-01-20 15:39:58.16	210.19	22.71	-24.6	-24.9	17.2	0.00e+00	0	44	0	1222639616	9	3764
2026-01-20 15:39:59.17	210.36	22.83	-24.5	-24.7	17.3	0.00e+00	0	44	0	1229979648	9	3717
2026-01-20 15:40:00.17	210.53	22.94	-24.4	-24.6	17.4	0.00e+00	0	44	0	1236271104	9	3699
2026-01-20 15:40:01.17	210.70	23.06	-24.6	-25.1	17.1	0.00e+00	0	44	0	1244659712	9	3800
2026-01-20 15:40:02.17	210.88	23.18	-24.6	-25.0	17.2	1.10e-06	0	44	0	1251999744	9	3775
2026-01-20 15:40:03.18	211.06	23.29	-24.5	-24.9	17.3	0.00e+00	0	44	0	1258291200	9	3760
2026-01-20 15:40:04.18	211.23	23.41	-24.4	-24.7	17.4	0.00e+00	0	44	0	1265631232	9	3710
2026-01-20 15:40:05.18	211.41	23.53	-24.5	-24.8	17.3	0.00e+00	0	44	0	1272971264	9	3734
2026-01-20 15:40:06.20	211.59	23.65	-24.6	-25.0	17.2	0.00e+00	0	44	0	1280311296	9	3773
2026-01-20 15:40:07.20	211.77	23.76	-24.3	-24.5	17.5	0.00e+00	0	44	0	1287651328	9	3659
2026-01-20 15:40:08.20	211.95	23.88	-24.5	-24.8	17.3	0.00e+00	0	44	0	1294991360	9	3728
2026-01-20 15:40:09.20	212.14	24.00	-24.6	-25.0	17.2	0.00e+00	0	44	0	1302331392	9	3787
2026-01-20 15:40:10.20	212.32	24.12	-24.5	-24.8	17.3	0.00e+00	0	44	0	1309671424	9	3732
2026-01-20 15:40:11.19	212.51	24.23	-24.5	-24.9	17.2	0.00e+00	0	44	0	1317011456	9	3764
2026-01-20 15:40:12.19	212.69	24.35	-24.6	-25.1	17.2	0.00e+00	0	44	0	1323302912	9	3808
2026-01-20 15:40:13.20	212.88	24.47	-24.9	-25.6	16.9	0.00e+00	0	44	0	1330642944	9	3917
2026-01-20 15:40:14.19	213.07	24.59	-24.6	-25.0	17.3	0.00e+00	0	44	0	1337982976	9	3768
2026-01-20 15:40:15.20	213.26	24.71	-24.4	-24.6	17.4	0.00e+00	0	44	0	1345323008	9	3697
2026-01-20 15:40:16.20	213.46	24.83	-24.2	-24.3	17.6	0.00e+00	0	44	0	1352663040	9	3619
2026-01-20 15:40:17.21	213.65	24.95	-24.3	-24.4	17.6	0.00e+00	0	44	0	1360003072	9	3637
2026-01-20 15:40:18.21	213.85	25.07	-24.2	-24.1	17.7	0.00e+00	0	44	0	1367343104	9	3577
2026-01-20 15:40:19.21	214.04	25.19	-24.1	-24.0	17.8	0.00e+00	0	44	0	1374683136	9	3553
2026-01-20 15:40:20.21	214.24	25.31	-24.2	-24.2	17.7	0.00e+00	0	44	0	1382023168	9	3592
2026-01-20 15:40:21.22	214.45	25.43	-24.0	-23.8	17.9	0.00e+00	0	44	0	1388314624	9	3504
2026-01-20 15:40:22.22	214.65	25.55	-24.0	-23.8	17.9	0.00e+00	0	44	0	1395654656	9	3520
2026-01-20 15:40:23.23	214.85	25.67	-24.1	-24.0	17.8	0.00e+00	0	44	0	1404043264	9	3550
2026-01-20 15:40:24.23	215.06	25.79	-24.0	-23.8	17.9	0.00e+00	0	44	0	1410334720	9	3508
2026-01-20 15:40:25.23	215.26	25.91	-24.0	-23.7	17.9	0.00e+00	0	44	0	1417674752	9	3499
2026-01-20 15:40:26.23	215.47	26.04	-24.0	-23.8	17.9	0.00e+00	0	44	0	1425014784	9	3514
2026-01-20 15:40:27.22	215.68	26.16	-23.9	-24.1	18.0	0.00e+00	0	44	0	1432354816	8	3679
2026-01-20 15:40:28.22	215.89	26.28	-24.0	-24.2	17.9	0.00e+00	0	44	0	1439694848	8	3693
2026-01-20 15:40:29.22	216.10	26.40	-24.1	-24.5	17.8	0.00e+00	0	44	0	1447034880	8	3760
2026-01-20 15:40:30.23	216.32	26.52	-24.2	-24.7	17.7	0.00e+00	0	44	0	1454374912	8	3807
2026-01-20 15:40:31.24	216.53	26.65	-24.0	-24.2	17.9	0.00e+00	0	44	0	1461714944	8	3704
2026-01-20 15:40:32.24	216.75	26.77	-24.0	-24.2	17.9	0.00e+00	0	44	0	1468006400	8	3703
2026-01-20 15:40:33.25	216.97	26.89	-24.1	-24.4	17.8	0.00e+00	0	44	0	1475346432	8	3743
2026-01-20 15:40:34.25	217.19	27.01	-23.8	-23.9	18.1	0.00e+00	0	44	0	1482686464	8	3625
2026-01-20 15:40:35.25	217.41	27.14	-23.8	-23.8	18.1	0.00e+00	0	44	0	1490026496	8	3605
2026-01-20 15:40:36.25	217.64	27.26	-23.9	-24.0	18.1	0.00e+00	0	44	0	1497366528	8	3643
2026-01-20 15:40:37.26	217.87	27.38	-24.1	-24.5	17.8	0.00e+00	0	44	0	1504706560	8	3765
2026-01-20 15:40:38.25	218.09	27.50	-24.3	-24.8	17.6	0.00e+00	0	44	0	1512046592	8	3840
2026-01-20 15:40:39.25	218.32	27.63	-24.1	-24.4	17.8	0.00e+00	0	44	0	1519386624	8	3747
2026-01-20 15:40:40.26	218.55	27.75	-24.0	-24.3	17.9	0.00e+00	0	44	0	1526726656	8	3710
2026-01-20 15:40:41.26	218.78	27.87	-24.0	-24.3	17.9	0.00e+00	0	44	0	1533018112	8	3724
2026-01-20 15:40:42.26	219.02	28.00	-23.9	-24.1	18.0	0.00e+00	0	44	0	1540358144	8	3681
2026-01-20 15:40:43.27	219.26	28.12	-24.0	-24.4	17.9	0.00e+00	0	44	0	1547698176	8	3733
2026-01-20 15:40:44.27	219.49	28.24	-23.9	-24.1	18.0	0.00e+00	0	44	0	1555038208	8	3669
2026-01-20 15:40:45.27	219.73	28.37	-23.8	-23.9	18.2	0.00e+00	0	44	0	1562378240	8	3627
2026-01-20 15:40:46.27	219.97	28.49	-23.8	-23.8	18.1	0.00e+00	0	44	0	1569718272	8	3615
2026-01-20 15:40:47.28	220.22	28.61	-23.8	-23.8	18.2	0.00e+00	0	44	0	1577058304	8	3613
2026-01-20 15:40:48.29	220.47	28.74	-23.9	-24.1	18.0	0.00e+00	0	44	0	1584398336	8	3675
2026-01-20 15:40:49.28	220.71	28.86	-24.0	-24.3	17.9	0.00e+00	0	44	0	1591738368	8	3730
2026-01-20 15:40:50.29	220.96	28.98	-23.8	-23.9	18.2	0.00e+00	0	44	0	1599078400	8	3630
2026-01-20 15:40:51.29	221.21	29.11	-23.8	-23.9	18.2	0.00e+00	0	44	0	1606418432	8	3617
2026-01-20 15:40:52.29	221.47	29.23	-23.9	-24.1	18.1	0.00e+00	0	44	0	1613758464	8	3684
2026-01-20 15:40:53.30	221.72	29.35	-23.9	-23.9	18.2	0.00e+00	0	44	0	1620049920	8	3637
2026-01-20 15:40:54.31	221.98	29.48	-24.0	-24.3	18.0	0.00e+00	0	44	0	1627389952	8	3730
2026-01-20 15:40:55.31	222.24	29.60	-23.8	-23.9	18.1	0.00e+00	0	44	0	1634729984	8	3641
2026-01-20 15:40:56.31	222.50	29.72	-23.9	-24.0	18.1	0.00e+00	0	44	0	1642070016	8	3651
2026-01-20 15:40:57.31	222.76	29.84	-23.9	-24.0	18.1	0.00e+00	0	44	0	1649410048	8	3652
2026-01-20 15:40:58.31	223.02	29.97	-24.0	-24.2	18.0	0.00e+00	0	44	0	1656750080	8	3702
2026-01-20 15:40:59.31	223.29	30.09	-23.7	-23.7	18.3	0.00e+00	0	44	0	1664090112	8	3585
2026-01-20 15:41:00.32	223.56	30.21	-23.7	-23.5	18.4	0.00e+00	0	44	0	1671430144	8	3548
2026-01-20 15:41:01.32	223.83	30.33	-23.7	-23.5	18.3	0.00e+00	0	44	0	1677721600	8	3551
2026-01-20 15:41:02.33	224.11	30.46	-23.8	-23.8	18.2	0.00e+00	0	44	0	1686110208	8	3597
2026-01-20 15:41:03.33	224.38	30.58	-23.8	-23.9	18.2	0.00e+00	0	44	0	1693450240	8	3624
2026-01-20 15:41:04.34	224.66	30.70	-23.9	-24.0	18.1	0.00e+00	0	44	0	1699741696	8	3656
2026-01-20 15:41:05.35	224.94	30.82	-23.8	-23.9	18.2	0.00e+00	0	44	0	1707081728	8	3627
2026-01-20 15:41:06.35	225.22	30.94	-23.7	-23.6	18.4	0.00e+00	0	44	0	1714421760	8	3563
2026-01-20 15:41:07.35	225.50	31.06	-23.6	-23.4	18.5	0.00e+00	0	44	0	1721761792	8	3518
2026-01-20 15:41:08.36	225.79	31.18	-23.5	-23.3	18.5	0.00e+00	0	44	0	1729101824	8	3492
2026-01-20 15:41:09.36	226.07	31.30	-23.6	-23.4	18.5	0.00e+00	0	44	0	1736441856	8	3517
2026-01-20 15:41:10.37	226.37	31.43	-23.8	-23.7	18.3	0.00e+00	0	44	0	1743781888	8	3591
2026-01-20 15:41:11.37	226.66	31.55	-23.8	-23.8	18.3	0.00e+00	0	44	0	1751121920	8	3607
2026-01-20 15:41:12.37	226.95	31.66	-23.8	-23.9	18.2	0.00e+00	0	44	0	1758461952	8	3620
2026-01-20 15:41:13.38	227.25	31.78	-23.8	-23.9	18.2	0.00e+00	0	44	0	1765801984	8	3633
2026-01-20 15:41:14.38	227.54	31.90	-23.9	-24.0	18.2	0.00e+00	0	44	0	1773142016	8	3646
2026-01-20 15:41:15.38	227.84	32.02	-23.8	-23.9	18.3	0.00e+00	0	44	0	1780482048	8	3615
2026-01-20 15:41:16.38	228.14	32.14	-23.9	-24.1	18.1	0.00e+00	0	44	0	1786773504	8	3670
2026-01-20 15:41:17.39	228.45	32.26	-24.0	-24.2	18.1	0.00e+00	0	44	0	1794113536	8	3697
2026-01-20 15:41:18.40	228.76	32.37	-24.0	-24.2	18.1	0.00e+00	0	44	0	1801453568	8	3691
2026-01-20 15:41:19.40	229.07	32.49	-23.9	-24.0	18.1	0.00e+00	0	44	0	1808793600	8	3657
2026-01-20 15:41:20.40	229.38	32.61	-23.9	-24.1	18.1	0.00e+00	0	44	0	1816133632	8	3678
2026-01-20 15:41:21.41	229.69	32.72	-24.0	-24.2	18.0	0.00e+00	0	44	0	1823473664	8	3707
2026-01-20 15:41:22.41	230.00	32.84	-24.1	-24.5	17.9	0.00e+00	0	44	0	1830813696	8	3754
2026-01-20 15:41:23.41	230.32	32.95	-23.9	-24.1	18.1	0.00e+00	0	44	0	1838153728	8	3681
2026-01-20 15:41:24.42	230.64	33.07	-24.0	-24.3	18.0	0.00e+00	0	44	0	1844445184	8	3720
2026-01-20 15:41:25.42	230.96	33.18	-23.9	-24.1	18.1	0.00e+00	0	44	0	1851785216	8	3679
2026-01-20 15:41:26.42	231.29	33.29	-23.8	-23.8	18.3	0.00e+00	0	44	0	1860173824	8	3601
2026-01-20 15:41:27.42	231.61	33.41	-23.7	-23.6	18.4	0.00e+00	0	44	0	1866465280	8	3566
2026-01-20 15:41:28.42	231.94	33.52	-23.7	-23.6	18.4	0.00e+00	0	44	0	1873805312	8	3572
2026-01-20 15:41:29.42	232.27	33.63	-23.7	-23.6	18.4	0.00e+00	0	44	0	1881145344	8	3567
2026-01-20 15:41:30.42	232.60	33.74	-23.7	-23.6	18.4	0.00e+00	0	44	0	1888485376	8	3553
2026-01-20 15:41:31.42	232.93	33.85	-23.8	-23.7	18.3	0.00e+00	0	44	0	1895825408	8	3590
2026-01-20 15:41:32.43	233.27	33.96	-23.8	-23.9	18.2	0.00e+00	0	44	0	1903165440	8	3622
2026-01-20 15:41:33.44	233.62	34.07	-23.8	-23.8	18.3	0.00e+00	0	44	0	1910505472	8	3610
2026-01-20 15:41:34.44	233.96	34.18	-23.8	-23.8	18.3	0.00e+00	0	44	0	1917845504	8	3604
2026-01-20 15:41:35.44	234.30	34.28	-23.7	-23.7	18.4	0.00e+00	0	44	0	1925185536	8	3586
2026-01-20 15:41:36.44	234.64	34.39	-23.8	-23.9	18.2	0.00e+00	0	44	0	1931476992	8	3624
2026-01-20 15:41:37.45	234.99	34.50	-23.9	-24.0	18.2	0.00e+00	0	44	0	1938817024	8	3640
2026-01-20 15:41:38.45	235.34	34.60	-23.8	-23.9	18.2	0.00e+00	0	44	0	1946157056	8	3626
2026-01-20 15:41:39.45	235.70	34.71	-23.8	-23.9	18.3	0.00e+00	0	44	0	1953497088	8	3625
2026-01-20 15:41:40.45	236.05	34.81	-23.7	-23.7	18.3	0.00e+00	0	44	0	1960837120	8	3573
2026-01-20 15:41:41.46	236.41	34.91	-23.7	-23.6	18.4	0.00e+00	0	44	0	1968177152	8	3558
2026-01-20 15:41:42.46	236.77	35.01	-23.7	-23.6	18.4	0.00e+00	0	44	0	1975517184	8	3552
2026-01-20 15:41:43.46	237.13	35.11	-23.8	-23.8	18.3	0.00e+00	0	44	0	1982857216	8	3609
2026-01-20 15:41:44.45	237.49	35.21	-23.7	-23.7	18.4	0.00e+00	0	44	0	1990197248	8	3574
2026-01-20 15:41:45.44	237.85	35.31	-23.8	-23.8	18.3	0.00e+00	0	44	0	1996488704	8	3611
2026-01-20 15:41:46.45	238.22	35.41	-23.9	-24.0	18.2	0.00e+00	0	44	0	2003828736	8	3657
2026-01-20 15:41:47.46	238.59	35.50	-23.9	-24.1	18.2	0.00e+00	0	44	0	2011168768	8	3666
2026-01-20 15:41:48.46	238.96	35.60	-24.0	-24.2	18.1	0.00e+00	0	44	0	2018508800	8	3699
2026-01-20 15:41:49.46	239.34	35.69	-24.0	-24.2	18.1	0.00e+00	0	44	0	2025848832	8	3697
2026-01-20 15:41:50.46	239.71	35.79	-23.9	-24.0	18.2	0.00e+00	0	44	0	2033188864	8	3654
2026-01-20 15:41:51.47	240.09	35.88	-23.8	-23.8	18.3	0.00e+00	0	44	0	2040528896	8	3613
2026-01-20 15:41:52.47	240.47	35.97	-23.8	-23.9	18.3	0.00e+00	0	44	0	2047868928	8	3625
2026-01-20 15:41:53.47	240.85	36.06	-23.7	-23.5	18.4	0.00e+00	0	44	0	2055208960	8	3546
2026-01-20 15:41:54.48	241.24	36.15	-23.6	-23.4	18.5	0.00e+00	0	44	0	2062548992	8	3523
2026-01-20 15:41:55.48	241.63	36.24	-23.8	-23.8	18.3	0.00e+00	0	44	0	2069889024	8	3611
2026-01-20 15:41:56.48	242.02	36.32	-23.9	-24.0	18.2	0.00e+00	0	44	0	2076180480	8	3650
2026-01-20 15:41:57.48	242.41	36.41	-23.9	-24.1	18.1	0.00e+00	0	44	0	2083520512	8	3674
2026-01-20 15:41:58.48	242.80	36.49	-23.7	-23.6	18.4	0.00e+00	0	44	0	2090860544	8	3567
2026-01-20 15:41:59.48	243.19	36.57	-23.8	-23.8	18.3	0.00e+00	0	44	0	2098200576	8	3601
2026-01-20 15:42:00.48	243.59	36.66	-23.6	-23.3	18.5	0.00e+00	0	44	0	2105540608	8	3506
2026-01-20 15:42:01.49	243.99	36.74	-23.4	-23.4	18.8	0.00e+00	0	44	0	2112880640	7	3624
2026-01-20 15:42:02.49	244.39	36.81	-23.2	-23.1	18.9	0.00e+00	0	44	0	2120220672	7	3547
2026-01-20 15:42:03.49	244.79	36.89	-23.4	-23.5	18.7	0.00e+00	0	44	0	2127560704	7	3642
2026-01-20 15:42:04.49	245.19	36.97	-23.5	-23.6	18.7	0.00e+00	0	44	0	2134900736	7	3663
2026-01-20 15:42:05.49	245.60	37.04	-23.8	-24.3	18.3	0.00e+00	0	44	0	2141192192	7	3820
2026-01-20 15:42:06.49	246.01	37.12	-23.8	-24.3	18.3	0.00e+00	0	44	0	2148532224	7	3827
2026-01-20 15:42:07.49	246.42	37.19	-23.8	-24.4	18.3	0.00e+00	0	44	0	2155872256	7	3838
2026-01-20 15:42:08.50	246.83	37.26	-23.6	-24.0	18.5	0.00e+00	0	44	0	2163212288	7	3737
2026-01-20 15:42:09.50	247.24	37.33	-23.5	-23.6	18.7	0.00e+00	0	44	0	2170552320	7	3663
2026-01-20 15:42:10.51	247.66	37.39	-23.3	-23.3	18.9	0.00e+00	0	44	0	2177892352	7	3586
2026-01-20 15:42:11.52	248.08	37.46	-23.5	-23.6	18.7	0.00e+00	0	44	0	2185232384	7	3656
2026-01-20 15:42:12.52	248.50	37.52	-23.5	-23.7	18.6	0.00e+00	0	44	0	2192572416	7	3684
2026-01-20 15:42:13.52	248.92	37.59	-23.6	-23.9	18.5	0.00e+00	0	44	0	2199912448	7	3731
2026-01-20 15:42:14.52	249.34	37.65	-23.9	-24.5	18.2	0.00e+00	0	44	0	2206203904	7	3865
2026-01-20 15:42:15.52	249.76	37.71	-24.0	-24.8	18.1	0.00e+00	0	44	0	2214592512	7	3930
2026-01-20 15:42:16.53	250.19	37.76	-24.1	-24.4	18.0	0.00e+00	0	44	0	2221932544	8	3747
2026-01-20 15:42:17.54	250.62	37.82	-24.1	-24.4	18.1	0.00e+00	0	44	0	2228224000	8	3730
2026-01-20 15:42:18.54	251.04	37.88	-24.2	-24.7	17.8	0.00e+00	0	44	0	2235564032	8	3813
2026-01-20 15:42:19.55	251.47	37.93	-24.4	-25.1	17.7	0.00e+00	0	44	0	2242904064	8	3894
2026-01-20 15:42:20.55	251.90	37.98	-24.6	-25.0	17.5	0.00e+00	0	44	0	2250244096	9	3782
2026-01-20 15:42:21.55	252.33	38.03	-24.6	-25.0	17.5	0.00e+00	0	44	0	2257584128	9	3780
2026-01-20 15:42:22.55	252.77	38.08	-24.4	-24.5	17.8	0.00e+00	0	44	0	2264924160	9	3653
2026-01-20 15:42:23.55	253.20	38.12	-24.3	-24.3	17.9	0.00e+00	0	44	0	2272264192	9	3616
2026-01-20 15:42:24.55	253.63	38.17	-24.1	-24.0	18.0	0.00e+00	0	44	0	2279604224	9	3555
2026-01-20 15:42:25.55	254.07	38.21	-24.0	-23.8	18.1	0.00e+00	0	44	0	2285895680	9	3514
2026-01-20 15:42:26.55	254.50	38.25	-24.2	-24.1	18.0	0.00e+00	0	44	0	2293235712	9	3576
2026-01-20 15:42:27.55	254.94	38.29	-24.3	-24.3	17.9	0.00e+00	0	44	0	2300575744	9	3623
2026-01-20 15:42:28.56	255.38	38.32	-24.3	-24.4	17.8	0.00e+00	0	44	0	2307915776	9	3629
2026-01-20 15:42:29.55	255.82	38.36	-24.5	-24.9	17.6	0.00e+00	0	44	0	2315255808	9	3738
2026-01-20 15:42:30.56	256.26	38.39	-24.5	-24.8	17.6	0.00e+00	0	44	0	2322595840	9	3713
2026-01-20 15:42:31.55	256.70	38.42	-24.2	-24.1	18.0	0.00e+00	0	44	0	2329935872	9	3565
2026-01-20 15:42:32.56	257.15	38.45	-24.0	-23.6	18.2	0.00e+00	0	45	0	2337275904	9	3468
2026-01-20 15:42:33.56	257.59	38.48	-23.9	-24.0	18.3	0.00e+00	0	44	0	2344615936	8	3639
2026-01-20 15:42:34.56	258.03	38.51	-23.9	-24.1	18.2	0.00e+00	0	45	0	2350907392	8	3676
2026-01-20 15:42:35.57	258.48	38.53	-23.8	-23.9	18.3	0.00e+00	0	44	0	2358247424	8	3615
2026-01-20 15:42:36.57	258.93	38.55	-23.7	-23.6	18.5	0.00e+00	0	44	0	2366636032	8	3551
2026-01-20 15:42:37.57	259.37	38.57	-23.7	-23.6	18.5	0.00e+00	0	44	0	2372927488	8	3567
2026-01-20 15:42:38.57	259.82	38.59	-23.8	-23.9	18.4	0.00e+00	0	44	0	2380267520	8	3628
2026-01-20 15:42:39.57	260.26	38.61	-23.8	-23.8	18.4	0.00e+00	0	44	0	2387607552	8	3597
2026-01-20 15:42:40.57	260.71	38.62	-23.5	-23.2	18.7	0.00e+00	0	44	0	2394947584	8	3483
2026-01-20 15:42:41.58	261.16	38.64	-23.6	-23.4	18.6	0.00e+00	0	44	0	2402287616	8	3507
2026-01-20 15:42:42.58	261.61	38.65	-23.7	-23.6	18.5	0.00e+00	0	44	0	2409627648	8	3549
2026-01-20 15:42:43.58	262.05	38.66	-23.7	-23.6	18.5	0.00e+00	0	44	0	2416967680	8	3562
2026-01-20 15:42:44.59	262.51	38.66	-23.8	-23.7	18.5	0.00e+00	0	44	0	2424307712	8	3583
2026-01-20 15:42:45.59	262.95	38.67	-23.9	-23.9	18.3	0.00e+00	0	44	0	2430599168	8	3636
2026-01-20 15:42:46.60	263.41	38.67	-23.8	-23.7	18.4	0.00e+00	0	44	0	2437939200	8	3589
2026-01-20 15:42:47.60	263.85	38.67	-23.8	-23.8	18.4	0.00e+00	0	44	0	2445279232	8	3606
2026-01-20 15:42:48.60	264.30	38.67	-24.0	-24.2	18.2	0.00e+00	0	44	0	2452619264	8	3689
2026-01-20 15:42:49.61	264.75	38.67	-24.0	-24.3	18.2	0.00e+00	0	44	0	2459959296	8	3699
2026-01-20 15:42:50.61	265.20	38.66	-23.9	-24.1	18.3	0.00e+00	0	44	0	2467299328	8	3664
2026-01-20 15:42:51.61	265.65	38.66	-23.9	-24.1	18.3	0.00e+00	0	44	0	2474639360	8	3672
2026-01-20 15:42:52.61	266.10	38.65	-23.9	-24.1	18.3	0.00e+00	0	44	0	2481979392	8	3674
2026-01-20 15:42:53.60	266.54	38.64	-24.0	-24.2	18.2	0.00e+00	0	44	0	2489319424	8	3697
2026-01-20 15:42:54.61	266.99	38.62	-24.0	-24.3	18.2	0.00e+00	0	44	0	2495610880	8	3714
2026-01-20 15:42:55.61	267.44	38.61	-24.0	-24.1	18.2	0.00e+00	0	44	0	2502950912	8	3672
2026-01-20 15:42:56.62	267.89	38.59	-23.8	-23.7	18.5	0.00e+00	0	44	0	2510290944	8	3588
2026-01-20 15:42:57.63	268.34	38.57	-23.6	-23.4	18.6	0.00e+00	0	44	0	2517630976	8	3521
2026-01-20 15:42:58.63	268.78	38.55	-23.6	-23.5	18.6	0.00e+00	0	44	0	2524971008	8	3535
2026-01-20 15:42:59.63	269.23	38.53	-23.6	-23.3	18.7	0.00e+00	0	44	0	2532311040	8	3495
2026-01-20 15:43:00.63	269.67	38.51	-23.4	-23.0	18.8	0.00e+00	0	44	0	2539651072	8	3435
2026-01-20 15:43:01.64	270.12	38.48	-23.7	-23.6	18.5	0.00e+00	0	44	0	2546991104	8	3563
2026-01-20 15:43:02.65	270.56	38.45	-23.9	-24.0	18.3	0.00e+00	0	44	0	2554331136	8	3639
2026-01-20 15:43:03.65	271.01	38.42	-24.0	-24.1	18.3	0.00e+00	0	44	0	2561671168	8	3674
2026-01-20 15:43:04.66	271.45	38.39	-24.0	-24.2	18.2	0.00e+00	0	44	0	2569011200	8	3686
2026-01-20 15:43:05.66	271.89	38.36	-24.0	-24.2	18.2	0.00e+00	0	44	0	2576351232	8	3693
2026-01-20 15:43:06.67	272.33	38.32	-23.9	-24.0	18.4	0.00e+00	0	44	0	2582642688	8	3635
2026-01-20 15:43:07.67	272.77	38.29	-23.8	-23.9	18.4	0.00e+00	0	44	0	2591031296	8	3611
2026-01-20 15:43:08.67	273.21	38.25	-24.0	-24.2	18.2	0.00e+00	0	44	0	2598371328	8	3686
2026-01-20 15:43:09.67	273.64	38.21	-24.1	-24.4	18.2	0.00e+00	0	44	0	2604662784	8	3729
2026-01-20 15:43:10.68	274.08	38.17	-24.3	-24.8	17.9	0.00e+00	0	44	0	2612002816	8	3826
2026-01-20 15:43:11.68	274.52	38.12	-24.2	-24.6	18.0	0.00e+00	0	44	0	2619342848	8	3794
2026-01-20 15:43:12.69	274.95	38.07	-24.0	-24.3	18.2	0.00e+00	0	44	0	2626682880	8	3716
2026-01-20 15:43:13.69	275.38	38.03	-23.9	-24.0	18.4	0.00e+00	0	44	0	2634022912	8	3645
2026-01-20 15:43:14.69	275.81	37.98	-24.0	-24.2	18.3	0.00e+00	0	44	0	2641362944	8	3692
2026-01-20 15:43:15.69	276.24	37.93	-24.0	-24.1	18.3	0.00e+00	0	45	0	2648702976	8	3673
2026-01-20 15:43:16.70	276.67	37.87	-24.0	-24.2	18.2	0.00e+00	0	44	0	2656043008	8	3702
2026-01-20 15:43:17.70	277.10	37.82	-24.0	-24.2	18.2	0.00e+00	0	44	0	2662334464	8	3695
2026-01-20 15:43:18.70	277.52	37.76	-24.1	-24.4	18.1	0.00e+00	0	44	0	2669674496	8	3730
2026-01-20 15:43:19.71	277.95	37.71	-24.2	-24.6	18.0	0.00e+00	0	44	0	2677014528	8	3786
2026-01-20 15:43:20.71	278.37	37.65	-24.2	-24.6	18.1	0.00e+00	0	45	0	2684354560	8	3775
2026-01-20 15:43:21.71	278.79	37.59	-24.1	-24.4	18.1	0.00e+00	0	44	0	2691694592	8	3735
2026-01-20 15:43:22.71	279.21	37.52	-23.9	-24.0	18.4	0.00e+00	0	44	0	2699034624	8	3636
2026-01-20 15:43:23.72	279.63	37.46	-23.9	-23.9	18.4	0.00e+00	0	44	0	2706374656	8	3634
2026-01-20 15:43:24.72	280.05	37.39	-24.0	-24.2	18.2	0.00e+00	0	44	0	2713714688	8	3695
2026-01-20 15:43:25.72	280.46	37.33	-24.0	-24.2	18.2	0.00e+00	0	44	0	2721054720	8	3702
2026-01-20 15:43:26.72	280.87	37.26	-23.9	-24.1	18.3	0.00e+00	0	45	0	2728394752	8	3672
2026-01-20 15:43:27.73	281.28	37.19	-24.0	-24.2	18.2	0.00e+00	0	44	0	2735734784	8	3700
2026-01-20 15:43:28.73	281.69	37.12	-24.0	-24.2	18.2	0.00e+00	0	44	0	2743074816	8	3678
2026-01-20 15:43:29.73	282.10	37.04	-24.0	-24.2	18.2	0.00e+00	0	44	0	2749366272	8	3693
2026-01-20 15:43:30.73	282.50	36.97	-23.9	-23.9	18.4	0.00e+00	0	44	0	2756706304	8	3624
2026-01-20 15:43:31.74	282.91	36.89	-23.7	-23.6	18.5	0.00e+00	0	44	0	2764046336	8	3557
2026-01-20 15:43:32.74	283.31	36.82	-23.7	-23.7	18.5	0.00e+00	0	44	0	2771386368	8	3572
2026-01-20 15:43:33.74	283.71	36.74	-23.7	-23.5	18.6	0.00e+00	0	44	0	2778726400	8	3542
2026-01-20 15:43:34.75	284.11	36.66	-23.6	-23.3	18.7	0.00e+00	0	44	0	2786066432	8	3502
2026-01-20 15:43:35.75	284.50	36.58	-23.6	-23.5	18.6	0.00e+00	0	44	0	2793406464	8	3535
2026-01-20 15:43:36.75	284.90	36.49	-23.7	-23.6	18.6	0.00e+00	0	44	0	2800746496	8	3549
2026-01-20 15:43:37.76	285.29	36.41	-23.9	-24.1	18.3	0.00e+00	0	44	0	2808086528	8	3658
2026-01-20 15:43:38.76	285.68	36.33	-23.9	-24.0	18.4	0.00e+00	0	44	0	2814377984	8	3643
2026-01-20 15:43:39.75	286.07	36.24	-24.0	-24.1	18.3	0.00e+00	0	44	0	2821718016	8	3675
2026-01-20 15:43:40.76	286.45	36.15	-23.9	-24.1	18.3	0.00e+00	0	45	0	2829058048	8	3662
2026-01-20 15:43:41.76	286.84	36.06	-23.9	-24.0	18.3	0.00e+00	0	44	0	2836398080	8	3648
2026-01-20 15:43:42.76	287.22	35.97	-24.0	-24.3	18.2	0.00e+00	0	44	0	2843738112	8	3722
2026-01-20 15:43:43.76	287.60	35.88	-23.9	-24.1	18.3	0.00e+00	0	44	0	2851078144	8	3668
2026-01-20 15:43:44.76	287.97	35.79	-23.9	-23.9	18.4	0.00e+00	0	44	0	2858418176	8	3632
2026-01-20 15:43:45.76	288.35	35.70	-24.0	-24.1	18.3	0.00e+00	0	44	0	2865758208	8	3670
2026-01-20 15:43:46.77	288.72	35.60	-23.9	-24.0	18.4	0.00e+00	0	45	0	2872049664	8	3646
2026-01-20 15:43:47.77	289.09	35.51	-23.8	-23.9	18.4	0.00e+00	0	44	0	2880438272	8	3614
2026-01-20 15:43:48.78	289.47	35.41	-23.9	-23.9	18.4	0.00e+00	0	44	0	2887778304	8	3634
2026-01-20 15:43:49.78	289.83	35.32	-23.8	-23.9	18.4	0.00e+00	0	45	0	2894069760	8	3624
2026-01-20 15:43:50.78	290.20	35.22	-23.8	-23.8	18.4	0.00e+00	0	44	0	2901409792	8	3600
2026-01-20 15:43:51.79	290.56	35.12	-23.8	-23.8	18.4	0.00e+00	0	45	0	2908749824	8	3604
2026-01-20 15:43:52.80	290.92	35.02	-24.0	-24.3	18.2	0.00e+00	0	44	0	2916089856	8	3711
2026-01-20 15:43:53.80	291.28	34.92	-24.0	-24.2	18.2	0.00e+00	0	44	0	2923429888	8	3691
2026-01-20 15:43:54.81	291.64	34.81	-24.0	-24.2	18.2	0.00e+00	0	44	0	2930769920	8	3695
2026-01-20 15:43:55.81	291.99	34.71	-24.1	-24.5	18.1	0.00e+00	0	44	0	2938109952	8	3757
2026-01-20 15:43:56.81	292.34	34.61	-24.2	-24.7	18.0	0.00e+00	0	44	0	2945449984	8	3795
2026-01-20 15:43:57.80	292.69	34.51	-24.2	-24.6	18.0	0.00e+00	0	44	0	2952790016	8	3777
2026-01-20 15:43:58.81	293.04	34.40	-24.2	-24.7	18.0	0.00e+00	0	45	0	2959081472	8	3805
2026-01-20 15:43:59.82	293.39	34.29	-24.2	-24.6	18.0	0.00e+00	0	44	0	2966421504	8	3782
2026-01-20 15:44:00.81	293.72	34.19	-24.2	-24.8	18.0	0.00e+00	0	44	0	2973761536	8	3815
2026-01-20 15:44:01.82	294.07	34.08	-24.2	-24.7	18.0	0.00e+00	0	44	0	2981101568	8	3799
2026-01-20 15:44:02.82	294.40	33.97	-24.4	-25.1	17.8	0.00e+00	0	45	0	2988441600	8	3893
2026-01-20 15:44:03.82	294.74	33.86	-24.3	-24.8	17.9	0.00e+00	0	44	0	2995781632	8	3832
2026-01-20 15:44:04.82	295.07	33.75	-24.0	-24.2	18.2	0.00e+00	0	45	0	3003121664	8	3683
2026-01-20 15:44:05.83	295.41	33.64	-23.9	-23.9	18.4	0.00e+00	0	44	0	3010461696	8	3632
2026-01-20 15:44:06.83	295.74	33.53	-23.9	-24.0	18.3	0.00e+00	0	44	0	3017801728	8	3638
2026-01-20 15:44:07.84	296.07	33.42	-23.8	-23.8	18.4	0.00e+00	0	44	0	3025141760	8	3602
2026-01-20 15:44:08.84	296.39	33.31	-23.8	-23.9	18.4	0.00e+00	0	44	0	3032481792	8	3614
2026-01-20 15:44:09.83	296.71	33.20	-23.8	-23.8	18.4	0.00e+00	0	44	0	3038773248	8	3610
2026-01-20 15:44:10.84	297.03	33.08	-23.9	-24.1	18.2	0.00e+00	0	44	0	3046113280	8	3671
2026-01-20 15:44:11.84	297.35	32.97	-23.8	-23.9	18.4	0.00e+00	0	44	0	3053453312	8	3621
2026-01-20 15:44:12.85	297.67	32.85	-23.9	-24.1	18.3	0.00e+00	0	45	0	3060793344	8	3659
2026-01-20 15:44:13.85	297.98	32.74	-23.9	-23.9	18.4	0.00e+00	0	45	0	3068133376	8	3633
2026-01-20 15:44:14.85	298.29	32.62	-23.9	-24.1	18.3	0.00e+00	0	44	0	3075473408	8	3665
2026-01-20 15:44:15.85	298.60	32.51	-24.0	-24.1	18.3	0.00e+00	0	44	0	3082813440	8	3668
2026-01-20 15:44:16.85	298.91	32.39	-24.0	-24.3	18.2	0.00e+00	0	45	0	3090153472	8	3703
2026-01-20 15:44:17.86	299.21	32.28	-24.2	-24.6	18.0	0.00e+00	0	44	0	3097493504	8	3769
2026-01-20 15:44:18.86	299.52	32.16	-24.3	-24.8	17.9	0.00e+00	0	45	0	3103784960	8	3822
2026-01-20 15:44:19.86	299.82	32.04	-24.4	-25.0	17.8	0.00e+00	0	44	0	3111124992	8	3874
2026-01-20 15:44:20.86	300.12	31.92	-24.4	-25.2	17.7	0.00e+00	0	44	0	3118465024	8	3916
2026-01-20 15:44:21.87	300.41	31.81	-24.4	-25.2	17.7	0.00e+00	0	44	0	3125805056	8	3912
2026-01-20 15:44:22.87	300.71	31.69	-24.4	-25.2	17.7	0.00e+00	0	44	0	3133145088	8	3917
2026-01-20 15:44:23.88	301.00	31.57	-24.4	-25.2	17.7	0.00e+00	0	44	0	3140485120	8	3920
2026-01-20 15:44:24.89	301.30	31.45	-24.6	-24.9	17.6	0.00e+00	0	44	0	3147825152	9	3753
2026-01-20 15:44:25.89	301.58	31.33	-24.8	-25.4	17.3	0.00e+00	0	45	0	3155165184	9	3865
2026-01-20 15:44:26.90	301.87	31.21	-24.4	-24.6	17.7	0.00e+00	0	44	0	3162505216	9	3671
2026-01-20 15:44:27.91	302.16	31.09	-24.0	-23.8	18.2	0.00e+00	0	45	0	3169845248	9	3500
2026-01-20 15:44:28.91	302.44	30.97	-23.8	-23.8	18.4	0.00e+00	0	45	0	3177185280	8	3606
2026-01-20 15:44:29.91	302.72	30.85	-23.9	-24.0	18.3	0.00e+00	0	44	0	3184525312	8	3647
2026-01-20 15:44:30.91	302.99	30.73	-24.0	-24.3	18.2	0.00e+00	0	44	0	3190816768	8	3703
2026-01-20 15:44:31.91	303.27	30.61	-24.3	-24.8	17.9	0.00e+00	0	45	0	3198156800	8	3828
2026-01-20 15:44:32.91	303.54	30.49	-24.3	-24.8	17.9	0.00e+00	0	44	0	3205496832	8	3832
2026-01-20 15:44:33.92	303.82	30.36	-24.6	-25.4	17.6	0.00e+00	0	44	0	3212836864	8	3972
2026-01-20 15:44:34.93	304.09	30.24	-24.6	-24.9	17.6	0.00e+00	0	44	0	3220176896	9	3744
2026-01-20 15:44:35.93	304.36	30.12	-24.6	-25.0	17.5	0.00e+00	0	44	0	3227516928	9	3775
2026-01-20 15:44:36.93	304.62	30.00	-24.7	-25.1	17.5	0.00e+00	0	44	0	3234856960	9	3801
2026-01-20 15:44:37.93	304.88	29.88	-24.5	-24.7	17.7	0.00e+00	0	44	0	3242196992	9	3699
2026-01-20 15:44:38.94	305.15	29.75	-24.3	-24.4	17.8	0.00e+00	0	45	0	3249537024	9	3638
2026-01-20 15:44:39.94	305.41	29.63	-24.3	-24.3	17.9	0.00e+00	0	44	0	3256877056	9	3616
2026-01-20 15:44:40.94	305.66	29.51	-24.4	-24.6	17.5	0.00e+00	0	44	0	3264217088	9	3691
2026-01-20 15:44:41.95	305.92	29.39	-24.1	-24.0	18.0	0.00e+00	0	44	0	3270508544	9	3549
2026-01-20 15:44:42.95	306.18	29.27	-24.0	-23.7	18.1	0.00e+00	0	45	0	3277848576	9	3484
2026-01-20 15:44:43.96	306.43	29.14	-24.1	-23.8	18.1	0.00e+00	0	44	0	3285188608	9	3514
2026-01-20 15:44:44.96	306.68	29.02	-24.3	-24.3	17.9	0.00e+00	0	44	0	3292528640	9	3612
2026-01-20 15:44:45.95	306.93	28.90	-24.2	-24.1	17.9	0.00e+00	0	44	0	3299868672	9	3558
2026-01-20 15:44:46.95	307.17	28.78	-24.5	-24.7	17.6	0.00e+00	0	44	0	3307208704	9	3704
2026-01-20 15:44:47.96	307.42	28.65	-24.4	-24.6	17.7	0.00e+00	0	44	0	3314548736	9	3666
2026-01-20 15:44:48.95	307.66	28.53	-24.4	-24.5	17.8	0.00e+00	0	44	0	3321888768	9	3650
2026-01-20 15:44:49.96	307.90	28.41	-24.4	-24.7	17.7	0.00e+00	0	45	0	3329228800	9	3702
2026-01-20 15:44:50.96	308.14	28.29	-24.4	-24.6	17.7	0.00e+00	0	44	0	3335520256	9	3681
2026-01-20 15:44:51.96	308.38	28.16	-24.5	-24.9	17.6	0.00e+00	0	44	0	3342860288	9	3737
2026-01-20 15:44:52.96	308.61	28.04	-24.4	-24.6	17.7	0.00e+00	0	44	0	3350200320	9	3681
2026-01-20 15:44:53.96	308.85	27.92	-24.3	-24.4	17.8	0.00e+00	0	44	0	3357540352	9	3642
2026-01-20 15:44:54.96	309.08	27.80	-24.4	-24.5	17.8	0.00e+00	0	44	0	3364880384	9	3660
2026-01-20 15:44:55.97	309.31	27.68	-24.2	-24.2	17.9	0.00e+00	0	45	0	3372220416	9	3590
2026-01-20 15:44:56.98	309.54	27.55	-24.2	-24.1	17.9	0.00e+00	0	44	0	3379560448	9	3573
2026-01-20 15:44:57.99	309.77	27.43	-24.2	-24.2	17.9	0.00e+00	0	44	0	3386900480	9	3596
2026-01-20 15:44:58.99	309.99	27.31	-24.1	-23.9	18.1	0.00e+00	0	44	0	3394240512	9	3521
2026-01-20 15:44:59.99	310.22	27.19	-24.1	-24.0	18.0	0.00e+00	0	44	0	3401580544	9	3542
2026-01-20 15:45:00.99	310.44	27.06	-24.2	-24.1	18.0	0.00e+00	0	45	0	3408920576	9	3560
2026-01-20 15:45:01.99	310.66	26.94	-24.3	-24.3	17.9	0.00e+00	0	44	0	3415212032	9	3604
2026-01-20 15:45:03.00	310.88	26.82	-24.3	-24.3	17.8	0.00e+00	0	45	0	3422552064	9	3620
2026-01-20 15:45:04.00	311.10	26.70	-24.4	-24.5	17.7	0.00e+00	0	44	0	3429892096	9	3666
2026-01-20 15:45:05.01	311.31	26.58	-24.4	-24.6	17.7	0.00e+00	0	44	0	3437232128	9	3683
2026-01-20 15:45:06.01	311.53	26.46	-24.6	-25.0	17.5	0.00e+00	0	44	0	3444572160	9	3764
2026-01-20 15:45:07.01	311.74	26.33	-24.6	-25.1	17.4	0.00e+00	0	44	0	3451912192	9	3796
2026-01-20 15:45:08.00	311.95	26.21	-24.5	-24.8	17.6	0.00e+00	0	44	0	3459252224	9	3731
2026-01-20 15:45:09.00	312.15	26.09	-24.5	-24.9	17.5	0.00e+00	0	44	0	3466592256	9	3740
2026-01-20 15:45:10.01	312.36	25.97	-24.5	-24.8	17.6	0.00e+00	0	45	0	3473932288	9	3734
2026-01-20 15:45:11.01	312.57	25.85	-24.6	-24.9	17.5	0.00e+00	0	45	0	3480223744	9	3754
2026-01-20 15:45:12.02	312.78	25.73	-24.4	-24.7	17.6	0.00e+00	0	44	0	3487563776	9	3697
2026-01-20 15:45:13.02	312.98	25.61	-24.7	-25.2	17.4	0.00e+00	0	45	0	3494903808	9	3809
2026-01-20 15:45:14.03	313.18	25.49	-24.4	-24.6	17.6	0.00e+00	0	45	0	3502243840	9	3670
2026-01-20 15:45:15.03	313.38	25.37	-24.3	-24.5	17.7	0.00e+00	0	44	0	3509583872	9	3650
2026-01-20 15:45:16.05	313.58	25.25	-24.4	-24.6	17.6	0.00e+00	0	45	0	3516923904	9	3687
2026-01-20 15:45:17.05	313.78	25.13	-24.5	-24.7	17.6	0.00e+00	0	45	0	3524263936	9	3709
2026-01-20 15:45:18.06	313.98	25.01	-24.5	-24.9	17.5	0.00e+00	0	45	0	3531603968	9	3742
2026-01-20 15:45:19.06	314.17	24.89	-24.7	-25.2	17.3	0.00e+00	0	44	0	3538944000	9	3808
2026-01-20 15:45:20.06	314.36	24.77	-24.7	-25.1	17.4	0.00e+00	0	44	0	3546284032	9	3795
2026-01-20 15:45:21.06	314.55	24.65	-24.7	-25.1	17.4	0.00e+00	0	45	0	3553624064	9	3798
2026-01-20 15:45:22.06	314.74	24.54	-24.7	-25.2	17.3	0.00e+00	0	44	0	3560964096	9	3805
2026-01-20 15:45:23.06	314.93	24.42	-24.6	-24.9	17.4	0.00e+00	0	44	0	3567255552	9	3758
2026-01-20 15:45:24.07	315.12	24.30	-24.4	-24.6	17.6	0.00e+00	0	44	0	3574595584	9	3687
2026-01-20 15:45:25.08	315.31	24.18	-24.5	-24.9	17.4	0.00e+00	0	45	0	3582984192	9	3736
2026-01-20 15:45:26.08	315.49	24.06	-24.4	-24.7	17.6	0.00e+00	0	44	0	3589275648	9	3692
2026-01-20 15:45:27.08	315.67	23.95	-24.7	-25.2	17.3	0.00e+00	0	44	0	3596615680	9	3807
2026-01-20 15:45:28.08	315.86	23.83	-24.4	-24.6	17.6	0.00e+00	0	44	0	3603955712	9	3671
2026-01-20 15:45:29.09	316.04	23.71	-24.2	-24.2	17.8	0.00e+00	0	45	0	3611295744	9	3601
2026-01-20 15:45:30.09	316.22	23.60	-24.3	-24.4	17.7	0.00e+00	0	44	0	3618635776	9	3629
2026-01-20 15:45:31.10	316.40	23.48	-24.3	-24.4	17.7	0.00e+00	0	44	0	3625975808	9	3639
2026-01-20 15:45:32.11	316.57	23.36	-24.5	-24.7	17.5	0.00e+00	0	45	0	3633315840	9	3702
2026-01-20 15:45:33.11	316.75	23.25	-24.4	-24.5	17.6	0.00e+00	0	44	0	3640655872	9	3651
2026-01-20 15:45:34.11	316.92	23.13	-24.7	-25.1	17.4	0.00e+00	0	44	0	3646947328	9	3794
2026-01-20 15:45:35.11	317.09	23.02	-24.6	-24.9	17.4	0.00e+00	0	45	0	3654287360	9	3755
2026-01-20 15:45:36.11	317.27	22.90	-24.6	-25.0	17.4	0.00e+00	0	45	0	3661627392	9	3761
2026-01-20 15:45:37.11	317.44	22.79	-24.7	-25.2	17.3	0.00e+00	0	44	0	3668967424	9	3811
2026-01-20 15:45:38.11	317.60	22.67	-24.7	-25.2	17.3	0.00e+00	0	45	0	3676307456	9	3818
2026-01-20 15:45:39.11	317.77	22.56	-24.7	-25.3	17.2	0.00e+00	0	44	0	3683647488	9	3837
2026-01-20 15:45:40.12	317.94	22.44	-24.9	-25.6	17.1	0.00e+00	0	44	0	3690987520	9	3905
2026-01-20 15:45:41.12	318.10	22.33	-24.8	-25.3	17.2	0.00e+00	0	44	0	3698327552	9	3846
2026-01-20 15:45:42.12	318.27	22.22	-24.6	-25.0	17.3	0.00e+00	0	44	0	3705667584	9	3762
2026-01-20 15:45:43.13	318.43	22.10	-24.6	-25.1	17.3	0.00e+00	0	44	0	3713007616	9	3791
2026-01-20 15:45:44.12	318.59	21.99	-24.5	-24.9	17.3	0.00e+00	0	45	0	3720347648	9	3738
2026-01-20 15:45:45.12	318.75	21.88	-24.5	-24.9	17.4	0.00e+00	0	45	0	3726639104	9	3741
2026-01-20 15:45:46.13	318.91	21.77	-24.5	-24.9	17.4	0.00e+00	0	44	0	3733979136	9	3744
2026-01-20 15:45:47.13	319.07	21.65	-24.6	-24.9	17.4	0.00e+00	0	45	0	3741319168	9	3757
2026-01-20 15:45:48.13	319.23	21.54	-24.6	-25.1	17.3	0.00e+00	0	44	0	3748659200	9	3798
2026-01-20 15:45:49.14	319.39	21.43	-24.7	-25.2	17.3	0.00e+00	0	45	0	3755999232	9	3814
2026-01-20 15:45:50.14	319.54	21.32	-24.7	-25.3	17.2	0.00e+00	0	44	0	3763339264	9	3848
2026-01-20 15:45:51.14	319.70	21.21	-24.8	-25.5	17.1	0.00e+00	0	44	0	3770679296	9	3885
2026-01-20 15:45:52.14	319.85	21.10	-25.0	-25.9	16.9	0.00e+00	0	45	0	3778019328	9	3989
2026-01-20 15:45:53.14	320.00	20.99	-25.0	-25.8	16.9	0.00e+00	0	45	0	3785359360	9	3969
2026-01-20 15:45:54.15	320.15	20.88	-25.1	-25.6	16.8	0.00e+00	0	45	0	3792699392	10	3809
2026-01-20 15:45:55.14	320.30	20.77	-25.3	-26.0	16.6	0.00e+00	0	44	0	3798990848	10	3892
2026-01-20 15:45:56.15	320.45	20.66	-25.6	-26.2	16.1	0.00e+00	0	44	0	3806330880	11	3855
2026-01-20 15:45:57.16	320.60	20.55	-25.3	-25.6	16.5	0.00e+00	0	45	0	3813670912	11	3706
2026-01-20 15:45:58.16	320.75	20.44	-25.3	-25.5	16.6	0.00e+00	0	44	0	3821010944	11	3681
2026-01-20 15:45:59.16	320.89	20.33	-25.2	-25.3	16.6	0.00e+00	0	44	0	3828350976	11	3645
2026-01-20 15:46:00.17	321.04	20.22	-25.3	-25.4	16.6	0.00e+00	0	45	0	3835691008	11	3670
2026-01-20 15:46:01.17	321.18	20.11	-25.4	-25.8	16.4	0.00e+00	0	44	0	3843031040	11	3743
2026-01-20 15:46:02.17	321.33	20.01	-25.3	-25.5	16.6	0.00e+00	0	44	0	3850371072	11	3680
2026-01-20 15:46:03.18	321.47	19.90	-25.3	-25.6	16.4	0.00e+00	0	45	0	3857711104	11	3708
2026-01-20 15:46:04.18	321.61	19.79	-25.3	-25.6	16.5	0.00e+00	0	45	0	3865051136	11	3704
2026-01-20 15:46:05.18	321.75	19.69	-25.3	-25.6	16.5	0.00e+00	0	44	0	3872391168	11	3707
2026-01-20 15:46:06.19	321.89	19.58	-25.4	-25.7	16.4	0.00e+00	0	44	0	3878682624	11	3740
2026-01-20 15:46:07.19	322.03	19.47	-25.6	-26.1	16.2	0.00e+00	0	44	0	3886022656	11	3825
2026-01-20 15:46:08.20	322.17	19.37	-25.5	-25.9	16.3	0.00e+00	0	44	0	3893362688	11	3765
2026-01-20 15:46:09.20	322.30	19.26	-25.5	-26.0	16.2	0.00e+00	0	45	0	3900702720	11	3805
2026-01-20 15:46:10.20	322.44	19.16	-25.5	-26.0	16.3	0.00e+00	0	45	0	3908042752	11	3802
2026-01-20 15:46:11.20	322.57	19.05	-25.5	-26.0	16.3	0.00e+00	0	44	0	3915382784	11	3810
2026-01-20 15:46:12.20	322.71	18.95	-25.5	-26.0	16.2	0.00e+00	0	45	0	3922722816	11	3796
2026-01-20 15:46:13.20	322.84	18.84	-25.5	-25.9	16.3	0.00e+00	0	44	0	3930062848	11	3784
2026-01-20 15:46:14.21	322.97	18.74	-25.5	-25.9	16.3	0.00e+00	0	45	0	3937402880	11	3787
2026-01-20 15:46:15.21	323.10	18.63	-25.6	-26.1	16.1	0.00e+00	0	45	0	3943694336	11	3833
2026-01-20 15:46:16.21	323.23	18.53	-25.6	-26.1	16.2	0.00e+00	0	45	0	3951034368	11	3834
2026-01-20 15:46:17.22	323.36	18.43	-25.5	-26.0	16.2	0.00e+00	0	45	0	3958374400	11	3798
2026-01-20 15:46:18.21	323.49	18.32	-25.6	-26.1	16.2	0.00e+00	0	44	0	3965714432	11	3828
2026-01-20 15:46:19.22	323.62	18.22	-25.6	-26.1	16.2	0.00e+00	0	44	0	3973054464	11	3840
2026-01-20 15:46:20.22	323.74	18.12	-25.6	-26.1	16.2	0.00e+00	0	44	0	3980394496	11	3838
2026-01-20 15:46:21.22	323.87	18.02	-25.7	-26.4	16.0	0.00e+00	0	45	0	3987734528	11	3887
2026-01-20 15:46:22.22	323.99	17.92	-25.6	-26.1	16.2	0.00e+00	0	45	0	3995074560	11	3834
2026-01-20 15:46:23.23	324.12	17.81	-25.7	-26.4	16.0	0.00e+00	0	45	0	4002414592	11	3902
2026-01-20 15:46:24.23	324.24	17.71	-25.5	-26.0	16.2	0.00e+00	0	45	0	4009754624	11	3812
2026-01-20 15:46:25.24	324.37	17.61	-25.5	-25.9	16.2	0.00e+00	0	45	0	4017094656	11	3773
2026-01-20 15:46:26.24	324.49	17.51	-25.5	-26.0	16.2	0.00e+00	0	44	0	4023386112	11	3809
2026-01-20 15:46:27.25	324.61	17.41	-25.5	-26.0	16.2	0.00e+00	0	45	0	4030726144	11	3795
2026-01-20 15:46:28.24	324.73	17.31	-25.5	-26.0	16.2	0.00e+00	0	44	0	4038066176	11	3812
2026-01-20 15:46:29.24	324.85	17.21	-25.6	-26.2	16.1	0.00e+00	0	44	0	4045406208	11	3854
2026-01-20 15:46:30.24	324.97	17.11	-25.5	-26.0	16.2	0.00e+00	0	45	0	4052746240	11	3794
2026-01-20 15:46:31.25	325.09	17.01	-25.5	-26.0	16.2	0.00e+00	0	45	0	4060086272	11	3802
2026-01-20 15:46:32.24	325.20	16.91	-25.6	-26.2	16.1	0.00e+00	0	44	0	4067426304	11	3856
2026-01-20 15:46:33.24	325.32	16.82	-25.8	-26.5	15.9	0.00e+00	0	45	0	4074766336	11	3927
2026-01-20 15:46:34.24	325.44	16.72	-25.8	-26.7	15.8	0.00e+00	0	45	0	4082106368	11	3965
2026-01-20 15:46:35.25	325.55	16.62	-25.9	-26.8	15.7	0.00e+00	0	45	0	4088397824	11	3999
2026-01-20 15:46:36.25	325.67	16.52	-26.0	-26.9	15.7	0.00e+00	0	44	0	4095737856	11	4033
2026-01-20 15:46:37.26	325.78	16.42	-26.1	-27.2	15.5	0.00e+00	0	45	0	4103077888	11	4086
2026-01-20 15:46:38.27	325.90	16.33	-26.0	-26.6	15.5	0.00e+00	0	45	0	4110417920	12	3845
2026-01-20 15:46:39.27	326.01	16.23	-26.0	-26.6	15.5	0.00e+00	0	45	0	4117757952	12	3856
2026-01-20 15:46:40.28	326.12	16.13	-26.3	-27.1	15.2	0.00e+00	0	45	0	4125097984	12	3976
2026-01-20 15:46:41.29	326.23	16.04	-26.1	-26.9	15.3	0.00e+00	0	45	0	4132438016	12	3909
2026-01-20 15:46:42.29	326.34	15.94	-26.1	-26.7	15.4	0.00e+00	0	45	0	4139778048	12	3865
2026-01-20 15:46:43.29	326.45	15.84	-26.1	-26.7	15.4	0.00e+00	0	44	0	4147118080	12	3877
2026-01-20 15:46:44.30	326.56	15.75	-26.1	-26.8	15.4	0.00e+00	0	45	0	4154458112	12	3892
2026-01-20 15:46:45.30	326.67	15.65	-26.1	-26.8	15.3	0.00e+00	0	45	0	4161798144	12	3895
2026-01-20 15:46:46.30	326.78	15.56	-26.1	-26.8	15.3	0.00e+00	0	45	0	4169138176	12	3898
2026-01-20 15:46:47.31	326.89	15.46	-26.1	-26.8	15.3	0.00e+00	0	45	0	4175429632	12	3889
2026-01-20 15:46:48.31	326.99	15.37	-26.2	-27.0	15.2	0.00e+00	0	45	0	4182769664	12	3946
2026-01-20 15:46:49.32	327.10	15.28	-26.3	-27.2	15.1	0.00e+00	0	45	0	4191158272	12	4006
2026-01-20 15:46:50.32	327.20	15.18	-26.1	-26.9	15.3	1.10e-06	0	45	0	4197449728	12	3909
2026-01-20 15:46:51.32	327.31	15.09	-26.2	-26.9	15.2	0.00e+00	0	45	0	4204789760	12	3918
2026-01-20 15:46:52.33	327.41	14.99	-26.1	-26.8	15.3	0.00e+00	0	45	0	4212129792	12	3896
2026-01-20 15:46:53.33	327.51	14.90	-26.1	-26.8	15.3	0.00e+00	0	45	0	4219469824	12	3889
2026-01-20 15:46:54.33	327.62	14.81	-26.1	-26.8	15.3	0.00e+00	0	44	0	4226809856	12	3895
2026-01-20 15:46:55.33	327.72	14.72	-26.2	-26.9	15.2	0.00e+00	0	44	0	4234149888	12	3925
2026-01-20 15:46:56.34	327.82	14.62	-26.2	-27.1	15.1	0.00e+00	0	45	0	4241489920	12	3964
2026-01-20 15:46:57.35	327.92	14.53	-26.3	-27.3	15.1	0.00e+00	0	45	0	4248829952	12	4012
2026-01-20 15:46:58.34	328.02	14.44	-26.1	-26.9	15.3	0.00e+00	0	45	0	4255121408	12	3907
2026-01-20 15:46:59.35	328.12	14.35	-26.1	-26.9	15.2	0.00e+00	0	45	0	4262461440	12	3907
2026-01-20 15:47:00.35	328.22	14.26	-26.2	-27.0	15.2	0.00e+00	0	45	0	4269801472	12	3943
2026-01-20 15:47:01.35	328.32	14.17	-26.3	-27.1	15.1	0.00e+00	0	44	0	4277141504	12	3979
2026-01-20 15:47:02.34	328.42	14.08	-26.2	-27.0	15.2	0.00e+00	0	45	0	4284481536	12	3940
2026-01-20 15:47:03.35	328.51	13.99	-26.2	-27.0	15.2	0.00e+00	0	45	0	4291821568	12	3950
2026-01-20 15:47:04.34	328.61	13.90	-26.2	-27.1	15.1	0.00e+00	0	44	0	4299161600	12	3963
2026-01-20 15:47:05.34	328.71	13.81	-26.3	-27.3	15.0	0.00e+00	0	44	0	4306501632	12	4017
2026-01-20 15:47:06.34	328.80	13.72	-26.3	-27.2	15.0	1.10e-06	0	45	0	4313841664	12	4004
2026-01-20 15:47:07.34	328.90	13.63	-26.3	-27.3	15.0	0.00e+00	0	45	0	4320133120	12	4014
2026-01-20 15:47:08.35	328.99	13.54	-26.4	-27.5	14.9	0.00e+00	0	45	0	4327473152	12	4071
2026-01-20 15:47:09.35	329.09	13.45	-26.5	-27.7	14.8	0.00e+00	0	45	0	4334813184	12	4112
2026-01-20 15:47:10.35	329.18	13.37	-26.5	-27.7	14.8	0.00e+00	0	45	0	4342153216	12	4115
2026-01-20 15:47:11.35	329.27	13.28	-26.5	-27.7	14.8	0.00e+00	0	45	0	4349493248	12	4113
2026-01-20 15:47:12.36	329.37	13.19	-26.6	-27.4	14.6	1.10e-06	0	45	0	4356833280	13	3951
2026-01-20 15:47:13.36	329.46	13.10	-26.7	-27.7	14.5	2.20e-06	0	45	0	4364173312	13	4015
2026-01-20 15:47:14.36	329.55	13.02	-26.7	-27.6	14.5	0.00e+00	0	44	0	4371513344	13	3991
2026-01-20 15:47:15.37	329.64	12.93	-26.8	-27.8	14.4	0.00e+00	0	45	0	4377804800	13	4051
2026-01-20 15:47:16.37	329.73	12.84	-26.8	-27.9	14.3	0.00e+00	0	45	0	4385144832	13	4072
2026-01-20 15:47:17.36	329.82	12.76	-26.8	-27.8	14.4	2.20e-06	0	45	0	4392484864	13	4047
2026-01-20 15:47:18.37	329.91	12.67	-26.8	-27.9	14.3	1.10e-06	0	45	0	4399824896	13	4064
2026-01-20 15:47:19.38	330.00	12.58	-26.9	-28.1	14.2	1.10e-06	0	45	0	4407164928	13	4130
2026-01-20 15:47:20.38	330.09	12.50	-27.0	-28.2	14.1	0.00e+00	0	45	0	4414504960	13	4164
2026-01-20 15:47:21.38	330.18	12.41	-26.9	-28.2	14.2	2.20e-06	0	44	0	4421844992	13	4137
2026-01-20 15:47:22.38	330.26	12.33	-26.9	-28.1	14.2	0.00e+00	0	45	0	4429185024	13	4121
2026-01-20 15:47:23.38	330.35	12.24	-27.0	-28.4	14.0	1.10e-06	0	45	0	4436525056	13	4193
2026-01-20 15:47:24.39	330.44	12.15	-27.2	-28.3	13.8	2.20e-06	0	45	0	4443865088	14	4068
2026-01-20 15:47:25.39	330.52	12.07	-27.3	-28.4	13.7	6.80e-06	0	45	0	4451205120	14	4105
2026-01-20 15:47:26.38	330.61	11.99	-27.1	-28.0	14.0	2.20e-06	0	44	0	4458545152	14	4001
2026-01-20 15:47:27.39	330.69	11.90	-27.0	-27.7	14.1	2.20e-06	0	45	0	4464836608	14	3933
2026-01-20 15:47:28.39	330.78	11.82	-26.9	-27.6	14.2	2.20e-06	0	44	0	4472176640	14	3892
2026-01-20 15:47:29.40	330.86	11.73	-27.0	-27.7	14.1	0.00e+00	0	45	0	4479516672	14	3922
2026-01-20 15:47:30.40	330.95	11.65	-26.9	-27.6	14.2	1.10e-06	0	45	0	4486856704	14	3901
2026-01-20 15:47:31.40	331.03	11.57	-27.0	-27.7	14.1	3.40e-06	0	45	0	4494196736	14	3927
2026-01-20 15:47:32.41	331.11	11.48	-27.0	-27.7	14.1	0.00e+00	0	45	0	4501536768	14	3928
2026-01-20 15:47:33.41	331.19	11.40	-27.0	-27.8	14.1	0.00e+00	0	45	0	4508876800	14	3934
2026-01-20 15:47:34.41	331.28	11.32	-26.9	-27.6	14.2	1.10e-06	0	44	0	4516216832	14	3886
2026-01-20 15:47:35.42	331.36	11.24	-27.0	-27.8	14.0	0.00e+00	0	45	0	4523556864	14	3946
2026-01-20 15:47:36.42	331.44	11.15	-27.1	-28.1	13.9	3.40e-06	0	45	0	4530896896	14	4011
2026-01-20 15:47:37.42	331.52	11.07	-27.1	-28.1	13.8	3.40e-06	0	45	0	4538236928	14	4024
2026-01-20 15:47:38.42	331.60	10.99	-27.1	-28.1	13.9	6.80e-06	0	45	0	4545576960	14	4013
2026-01-20 15:47:39.43	331.68	10.91	-27.2	-28.2	13.8	2.20e-06	0	45	0	4551868416	14	4060
2026-01-20 15:47:40.43	331.76	10.83	-27.2	-28.3	13.7	2.20e-06	0	45	0	4559208448	14	4079
2026-01-20 15:47:41.43	331.84	10.75	-27.3	-28.4	13.7	4.50e-06	0	44	0	4566548480	14	4090
2026-01-20 15:47:42.44	331.92	10.67	-27.4	-28.7	13.5	5.70e-06	0	45	0	4573888512	14	4194
2026-01-20 15:47:43.45	332.00	10.59	-27.5	-28.5	13.3	1.71e-05	0	45	0	4581228544	15	4024
2026-01-20 15:47:44.45	332.07	10.51	-27.4	-28.1	13.5	8.00e-06	0	45	0	4588568576	15	3929
2026-01-20 15:47:45.45	332.15	10.43	-27.2	-27.7	13.8	1.10e-06	0	44	0	4595908608	15	3833
2026-01-20 15:47:46.45	332.23	10.35	-27.2	-27.8	13.7	2.20e-06	0	45	0	4603248640	15	3846
2026-01-20 15:47:47.46	332.31	10.27	-27.3	-28.0	13.6	2.20e-06	0	44	0	4609540096	15	3890
2026-01-20 15:47:48.47	332.38	10.19	-27.3	-27.9	13.7	5.70e-06	0	45	0	4616880128	15	3871
2026-01-20 15:47:49.46	332.46	10.11	-27.3	-28.0	13.6	6.80e-06	0	45	0	4624220160	15	3894
2026-01-20 15:47:50.46	332.53	10.03	-27.4	-28.2	13.5	1.02e-05	0	45	0	4631560192	15	3939
2026-01-20 15:47:51.46	332.61	9.95	-27.3	-27.9	13.6	1.25e-05	0	45	0	4638900224	15	3873
2026-01-20 15:47:52.46	332.68	9.87	-27.2	-27.8	13.7	5.70e-06	0	45	0	4646240256	15	3861
2026-01-20 15:47:53.46	332.76	9.79	-27.4	-28.2	13.5	9.10e-06	0	44	0	4653580288	15	3942
2026-01-20 15:47:54.47	332.83	9.71	-27.4	-28.2	13.4	6.80e-06	0	44	0	4660920320	15	3957
2026-01-20 15:47:55.47	332.90	9.64	-27.3	-28.0	13.6	4.50e-06	0	45	0	4668260352	15	3889
2026-01-20 15:47:56.47	332.98	9.56	-27.4	-28.3	13.4	1.25e-05	0	45	0	4675600384	15	3966
2026-01-20 15:47:57.48	333.05	9.48	-27.3	-28.1	13.5	4.50e-06	0	45	0	4682940416	15	3914
2026-01-20 15:47:58.48	333.12	9.40	-27.3	-27.9	13.6	5.70e-06	0	45	0	4690280448	15	3876
2026-01-20 15:47:59.48	333.20	9.33	-27.4	-28.2	13.4	8.00e-06	0	45	0	4696571904	15	3952
2026-01-20 15:48:00.48	333.27	9.25	-27.4	-28.2	13.3	1.71e-05	0	45	0	4703911936	15	3963
2026-01-20 15:48:01.49	333.34	9.17	-27.3	-27.9	13.6	9.10e-06	0	45	0	4711251968	15	3866
2026-01-20 15:48:02.50	333.41	9.10	-27.3	-28.1	13.4	6.80e-06	0	45	0	4718592000	15	3925
2026-01-20 15:48:03.50	333.48	9.02	-27.4	-28.2	13.4	1.02e-05	0	44	0	4725932032	15	3937
2026-01-20 15:48:04.50	333.55	8.94	-27.3	-28.0	13.5	1.25e-05	0	45	0	4733272064	15	3913
2026-01-20 15:48:05.51	333.62	8.87	-27.4	-28.3	13.3	1.37e-05	0	44	0	4740612096	15	3984
2026-01-20 15:48:06.51	333.69	8.79	-27.4	-28.3	13.3	9.10e-06	0	44	0	4747952128	15	3978
2026-01-20 15:48:07.51	333.76	8.72	-27.4	-28.1	13.4	9.10e-06	0	45	0	4755292160	15	3931
2026-01-20 15:48:08.52	333.83	8.64	-27.3	-28.1	13.4	1.14e-05	0	45	0	4761583616	15	3912
2026-01-20 15:48:09.52	333.90	8.57	-27.3	-28.1	13.4	6.80e-06	0	45	0	4768923648	15	3914
2026-01-20 15:48:10.52	333.97	8.49	-27.3	-27.9	13.5	1.60e-05	0	45	0	4776263680	15	3882
2026-01-20 15:48:11.53	334.04	8.42	-27.5	-28.3	13.3	1.02e-05	0	44	0	4783603712	15	3989
2026-01-20 15:48:12.53	334.10	8.34	-27.4	-28.3	13.3	1.71e-05	0	45	0	4790943744	15	3969
2026-01-20 15:48:13.53	334.17	8.27	-27.4	-28.3	13.3	1.60e-05	0	45	0	4798283776	15	3971
2026-01-20 15:48:14.53	334.24	8.19	-27.4	-28.1	13.4	1.02e-05	0	45	0	4805623808	15	3942
2026-01-20 15:48:15.53	334.30	8.12	-27.4	-28.2	13.3	1.02e-05	0	45	0	4812963840	15	3946
2026-01-20 15:48:16.54	334.37	8.05	-27.5	-28.5	13.2	1.83e-05	0	45	0	4820303872	15	4021
2026-01-20 15:48:17.54	334.44	7.97	-27.5	-28.4	13.2	1.71e-05	0	44	0	4827643904	15	4003
2026-01-20 15:48:18.55	334.50	7.90	-27.5	-28.4	13.2	2.63e-05	0	45	0	4834983936	15	3989
2026-01-20 15:48:19.55	334.57	7.82	-27.5	-28.4	13.2	1.14e-05	0	45	0	4841275392	15	4004
2026-01-20 15:48:20.55	334.63	7.75	-27.6	-28.6	13.0	2.51e-05	0	45	0	4848615424	15	4065
2026-01-20 15:48:21.55	334.70	7.68	-27.5	-28.6	13.1	2.97e-05	0	45	0	4855955456	15	4046
2026-01-20 15:48:22.54	334.76	7.61	-27.6	-28.7	13.0	2.97e-05	0	45	0	4863295488	15	4071
2026-01-20 15:48:23.55	334.83	7.53	-27.6	-28.7	13.0	3.31e-05	0	45	0	4870635520	15	4084
2026-01-20 15:48:24.55	334.89	7.46	-27.6	-28.8	12.9	5.14e-05	0	45	0	4877975552	15	4117
2026-01-20 15:48:25.55	334.95	7.39	-27.7	-28.9	12.8	4.23e-05	0	45	0	4885315584	15	4149
2026-01-20 15:48:26.55	335.02	7.32	-27.7	-29.0	12.8	3.89e-05	0	44	0	4892655616	15	4162
2026-01-20 15:48:27.56	335.08	7.25	-27.7	-29.0	12.8	6.52e-05	0	45	0	4899995648	15	4167
2026-01-20 15:48:28.56	335.14	7.17	-27.9	-29.4	12.5	8.01e-05	0	45	0	4906287104	15	4293
2026-01-20 15:48:29.56	335.21	7.10	-28.0	-29.6	12.4	1.32e-04	0	45	0	4913627136	15	4328
2026-01-20 15:48:30.56	335.27	7.03	-33.4	-42.6	3.8	1.90e-01	0	45	104	4919918592	26	10464
