passes_logs/2026/01/20/R2M6_AANII_01/R2M6_AANII_01__20260120_023229_NOAA_21_JPSS-2_rec.log

#Pass ID: 20260120_023229_NOAA 21 (JPSS-2)
#Satellite: NOAA 21 (JPSS-2)
#Configuration: NOAA 21
#almurnet v.1.7.20240730
#Start time: 2026-01-20 02:32:30

#Version: 2.2.20231116
#Station: R2M6_AANII_01
#Location: 30.233357 lon 59.946436 lat
#TLE: 1 54234U 22150A   26019.31231101  .00000073  00000+0  55355-4 0  9994
#TLE: 2 54234  98.7504 320.1599 0000604 258.3686 101.7423 14.19535697165426

#Time	Az	El	Level	Level2	SNR	BER	BlckErr	Temp	State	Recorded	gain1	gain2
2026-01-20 02:32:30.14	9.47	7.03	-34.4	-46.7	3.8	1.49e+00	0	45	0	0	28	14801
2026-01-20 02:32:31.13	9.37	7.09	-34.0	-45.9	3.8	1.49e+00	0	44	104	0	28	14074
2026-01-20 02:32:32.12	9.27	7.15	-33.8	-45.6	3.8	1.49e+00	0	44	104	0	27	13950
2026-01-20 02:32:33.13	9.17	7.21	-33.5	-43.8	3.9	1.49e+00	0	44	104	0	27	11873
2026-01-20 02:32:34.14	9.06	7.27	-33.5	-44.8	3.8	1.49e+00	0	44	104	0	27	13181
2026-01-20 02:32:35.14	8.96	7.33	-33.5	-44.8	3.8	1.49e+00	0	44	104	0	27	13207
2026-01-20 02:32:36.14	8.86	7.39	-33.5	-45.0	3.8	1.49e+00	0	44	104	0	27	13506
2026-01-20 02:32:37.14	8.75	7.45	-33.5	-45.2	3.8	1.49e+00	0	45	104	0	27	13770
2026-01-20 02:32:38.15	8.65	7.51	-33.6	-45.3	3.8	1.49e+00	0	44	104	0	27	13988
2026-01-20 02:32:39.15	8.54	7.57	-33.5	-45.0	3.8	1.49e+00	0	44	104	0	27	13500
2026-01-20 02:32:40.15	8.44	7.63	-33.4	-44.0	3.8	1.49e+00	0	45	104	0	27	12232
2026-01-20 02:32:41.16	8.33	7.69	-33.2	-42.9	3.9	1.48e+00	0	44	104	0	26	11014
2026-01-20 02:32:42.16	8.22	7.75	-32.9	-40.4	4.7	1.28e+00	0	44	104	0	26	8510
2026-01-20 02:32:43.16	8.12	7.81	-32.6	-38.5	5.6	5.70e-01	0	44	0	1048576	26	7101
2026-01-20 02:32:44.17	8.01	7.87	-32.1	-37.6	6.7	2.28e-01	0	44	0	4194304	24	6721
2026-01-20 02:32:45.17	7.90	7.93	-31.8	-36.6	7.7	9.31e-02	0	44	0	7340032	23	6285
2026-01-20 02:32:46.17	7.79	7.99	-31.4	-35.3	8.6	4.47e-02	0	44	0	10485760	23	5658
2026-01-20 02:32:47.18	7.68	8.05	-31.1	-35.0	9.2	2.31e-02	0	44	0	13631488	22	5647
2026-01-20 02:32:48.17	7.57	8.11	-31.1	-34.9	9.2	2.02e-02	0	45	0	16777216	22	5585
2026-01-20 02:32:49.18	7.46	8.18	-30.9	-34.4	9.6	1.42e-02	0	44	0	19922944	22	5362
2026-01-20 02:32:50.18	7.35	8.24	-30.9	-34.8	9.6	1.28e-02	0	44	0	23068672	21	5655
2026-01-20 02:32:51.19	7.24	8.30	-30.8	-34.4	9.9	9.64e-03	0	44	0	26214400	21	5474
2026-01-20 02:32:52.19	7.13	8.36	-30.9	-34.9	9.6	1.29e-02	0	44	0	29360128	21	5673
2026-01-20 02:32:53.19	7.02	8.42	-30.7	-34.3	10.0	8.48e-03	0	45	0	32505856	21	5449
2026-01-20 02:32:54.20	6.91	8.48	-30.8	-34.6	9.8	9.80e-03	0	44	0	35651584	21	5555
2026-01-20 02:32:55.20	6.79	8.54	-30.7	-34.2	10.1	7.64e-03	0	44	0	38797312	21	5393
2026-01-20 02:32:56.20	6.68	8.60	-30.3	-33.2	10.8	3.48e-03	0	45	0	41943040	21	4984
2026-01-20 02:32:57.20	6.57	8.66	-29.9	-32.5	11.6	9.13e-04	0	44	0	45088768	20	4864
2026-01-20 02:32:58.20	6.45	8.73	-29.6	-31.7	12.1	3.13e-04	0	44	0	48234496	20	4589
2026-01-20 02:32:59.20	6.34	8.79	-29.5	-31.8	12.4	1.51e-04	0	44	0	51380224	19	4717
2026-01-20 02:33:00.20	6.23	8.85	-29.3	-31.4	12.7	9.46e-05	0	45	0	54525952	19	4587
2026-01-20 02:33:01.21	6.11	8.91	-29.4	-31.6	12.6	1.31e-04	0	44	0	57671680	19	4662
2026-01-20 02:33:02.21	5.99	8.97	-29.5	-32.0	12.4	1.20e-04	0	44	0	60817408	19	4780
2026-01-20 02:33:03.21	5.88	9.03	-29.5	-32.0	12.3	1.46e-04	0	44	0	63963136	19	4791
2026-01-20 02:33:04.22	5.76	9.09	-29.8	-32.6	12.0	2.72e-04	0	44	0	67108864	19	4974
2026-01-20 02:33:05.22	5.64	9.16	-29.5	-31.8	12.5	1.89e-04	0	45	0	70254592	19	4717
2026-01-20 02:33:06.22	5.52	9.22	-29.4	-31.7	12.6	1.16e-04	0	45	0	73400320	19	4677
2026-01-20 02:33:07.22	5.40	9.28	-29.2	-31.1	13.0	4.65e-05	0	45	0	76546048	19	4482
2026-01-20 02:33:08.23	5.28	9.34	-29.2	-31.6	12.9	4.73e-05	0	44	0	79691776	18	4763
2026-01-20 02:33:09.23	5.17	9.40	-29.2	-31.6	13.0	3.28e-05	0	45	0	82837504	18	4759
2026-01-20 02:33:10.23	5.05	9.46	-29.3	-31.8	12.8	8.23e-05	0	45	0	85983232	18	4817
2026-01-20 02:33:11.23	4.92	9.53	-29.1	-31.5	13.1	3.58e-05	0	44	0	89128960	18	4716
2026-01-20 02:33:12.23	4.80	9.59	-29.0	-31.2	13.2	2.44e-05	0	44	0	92274688	18	4634
2026-01-20 02:33:13.24	4.68	9.65	-29.0	-31.2	13.3	2.97e-05	0	44	0	95420416	18	4614
2026-01-20 02:33:14.24	4.56	9.71	-28.9	-31.4	13.4	1.37e-05	0	44	0	98566144	17	4810
2026-01-20 02:33:15.24	4.44	9.77	-29.2	-31.6	13.0	3.28e-05	0	45	0	101711872	18	4747
2026-01-20 02:33:16.25	4.31	9.83	-29.1	-31.5	13.1	4.95e-05	0	44	0	104857600	18	4706
2026-01-20 02:33:17.25	4.19	9.90	-29.2	-31.6	13.0	1.98e-05	0	45	0	108003328	18	4731
2026-01-20 02:33:18.25	4.06	9.96	-29.1	-31.5	13.1	3.12e-05	0	45	0	111149056	18	4707
2026-01-20 02:33:19.25	3.94	10.02	-29.1	-31.5	13.1	3.05e-05	0	45	0	114294784	18	4707
2026-01-20 02:33:20.25	3.81	10.08	-29.2	-31.5	13.1	3.43e-05	0	45	0	117440512	18	4719
2026-01-20 02:33:21.25	3.69	10.14	-29.0	-31.2	13.3	2.28e-05	0	44	0	120586240	18	4613
2026-01-20 02:33:22.26	3.56	10.21	-29.1	-31.3	13.2	2.13e-05	0	45	0	123731968	18	4647
2026-01-20 02:33:23.26	3.43	10.27	-28.9	-30.8	13.5	1.67e-05	0	44	0	126877696	18	4499
2026-01-20 02:33:24.27	3.30	10.33	-28.9	-31.3	13.5	1.06e-05	0	44	0	130023424	17	4747
2026-01-20 02:33:25.27	3.18	10.39	-28.8	-31.2	13.6	4.50e-06	0	45	0	133169152	17	4729
2026-01-20 02:33:26.27	3.05	10.45	-28.8	-31.2	13.5	1.14e-05	0	44	0	136314880	17	4741
2026-01-20 02:33:27.27	2.92	10.52	-28.8	-31.0	13.7	6.10e-06	0	45	0	139460608	17	4679
2026-01-20 02:33:28.27	2.79	10.58	-28.8	-31.0	13.7	3.80e-06	0	44	0	142606336	17	4681
2026-01-20 02:33:29.28	2.66	10.64	-28.8	-31.3	13.6	1.29e-05	0	44	0	145752064	17	4754
2026-01-20 02:33:30.28	2.53	10.70	-29.0	-31.5	13.4	8.30e-06	0	45	0	148897792	17	4831
2026-01-20 02:33:31.28	2.40	10.76	-29.0	-31.2	13.3	1.83e-05	0	44	0	150994944	18	4617
2026-01-20 02:33:32.28	2.26	10.83	-28.9	-31.0	13.4	1.44e-05	0	44	0	154140672	18	4547
2026-01-20 02:33:33.29	2.13	10.89	-29.0	-31.1	13.4	1.98e-05	0	45	0	158334976	18	4573
2026-01-20 02:33:34.29	2.00	10.95	-28.9	-31.4	13.5	1.29e-05	0	44	0	161480704	17	4809
2026-01-20 02:33:35.29	1.86	11.01	-28.8	-31.2	13.6	1.06e-05	0	44	0	164626432	17	4728
2026-01-20 02:33:36.30	1.73	11.08	-28.8	-31.1	13.7	1.22e-05	0	45	0	167772160	17	4685
2026-01-20 02:33:37.30	1.59	11.14	-28.7	-30.9	13.8	3.92e-03	0	45	0	170917888	17	4627
2026-01-20 02:33:38.29	1.46	11.20	-28.8	-31.0	13.7	3.58e-03	0	44	0	174063616	17	4667
2026-01-20 02:33:39.29	1.32	11.26	-28.6	-30.6	14.0	2.20e-06	0	44	0	176160768	17	4552
2026-01-20 02:33:40.29	1.19	11.32	-28.6	-30.6	14.0	2.20e-06	0	45	0	179306496	17	4533
2026-01-20 02:33:41.29	1.05	11.38	-28.6	-30.5	14.1	2.20e-06	0	45	0	182452224	17	4525
2026-01-20 02:33:42.29	0.91	11.45	-28.6	-30.6	14.0	2.31e-04	0	45	0	185597952	17	4539
2026-01-20 02:33:43.30	0.77	11.51	-28.6	-30.6	14.0	3.86e-03	0	44	0	188743680	17	4546
2026-01-20 02:33:44.31	0.63	11.57	-28.7	-30.8	13.9	7.60e-06	0	44	0	191889408	17	4597
2026-01-20 02:33:45.31	0.49	11.63	-28.6	-30.7	13.9	5.30e-06	0	45	0	195035136	17	4566
2026-01-20 02:33:46.32	0.35	11.70	-28.6	-30.7	14.0	3.80e-06	0	44	0	198180864	17	4557
2026-01-20 02:33:47.33	0.21	11.76	-28.7	-30.8	13.9	3.43e-03	0	45	0	201326592	17	4605
2026-01-20 02:33:48.33	0.06	11.82	-28.5	-30.3	14.2	1.27e-04	0	45	0	204472320	17	4464
2026-01-20 02:33:49.33	359.92	11.88	-28.5	-30.3	14.2	3.00e-06	0	44	0	207618048	17	4443
2026-01-20 02:33:50.33	359.78	11.94	-28.4	-30.7	14.2	1.50e-06	0	45	0	210763776	16	4698
2026-01-20 02:33:51.33	359.64	12.01	-28.4	-30.6	14.3	1.50e-06	0	44	0	213909504	16	4658
2026-01-20 02:33:52.34	359.49	12.07	-28.4	-30.6	14.3	4.00e-03	0	45	0	217055232	16	4646
2026-01-20 02:33:53.34	359.35	12.13	-28.4	-30.7	14.2	3.79e-03	0	44	0	220200960	16	4665
2026-01-20 02:33:54.34	359.20	12.19	-28.4	-30.6	14.3	2.43e-04	0	45	0	223346688	16	4659
2026-01-20 02:33:55.35	359.05	12.25	-28.4	-30.6	14.3	3.83e-03	0	45	0	226492416	16	4653
2026-01-20 02:33:56.35	358.91	12.32	-28.5	-30.5	14.1	3.43e-03	0	45	0	229638144	17	4502
2026-01-20 02:33:57.35	358.76	12.38	-28.7	-30.8	14.0	2.97e-04	0	45	0	232783872	17	4587
2026-01-20 02:33:58.35	358.61	12.44	-28.8	-31.1	13.8	3.34e-03	0	44	0	235929600	17	4683
2026-01-20 02:33:59.35	358.46	12.50	-28.8	-31.0	13.8	3.81e-03	0	44	0	239075328	17	4657
2026-01-20 02:34:00.35	358.32	12.56	-28.8	-31.1	13.8	3.47e-04	0	45	0	242221056	17	4690
2026-01-20 02:34:01.35	358.17	12.62	-28.7	-30.9	13.9	3.66e-03	0	44	0	245366784	17	4616
2026-01-20 02:34:02.35	358.02	12.69	-28.7	-30.9	13.9	3.45e-03	0	45	0	248512512	17	4624
2026-01-20 02:34:03.36	357.86	12.75	-28.8	-31.0	13.9	2.94e-04	0	45	0	251658240	17	4647
2026-01-20 02:34:04.36	357.71	12.81	-28.9	-31.2	13.8	3.65e-03	0	44	0	254803968	17	4714
2026-01-20 02:34:05.36	357.56	12.87	-28.7	-30.8	14.0	3.35e-03	0	45	0	257949696	17	4599
2026-01-20 02:34:06.37	357.40	12.93	-28.7	-30.8	14.0	3.00e-06	0	45	0	261095424	17	4584
2026-01-20 02:34:07.36	357.25	12.99	-28.7	-30.9	13.9	3.45e-03	0	44	0	264241152	17	4624
2026-01-20 02:34:08.36	357.10	13.05	-28.7	-30.8	13.9	3.91e-03	0	45	0	267386880	17	4607
2026-01-20 02:34:09.37	356.94	13.12	-28.8	-31.0	13.9	3.75e-04	0	45	0	270532608	17	4654
2026-01-20 02:34:10.36	356.79	13.18	-28.7	-30.8	14.0	3.89e-03	0	45	0	273678336	17	4582
2026-01-20 02:34:11.36	356.63	13.24	-28.7	-30.7	14.0	1.50e-06	0	44	0	276824064	17	4571
2026-01-20 02:34:12.36	356.48	13.30	-28.7	-30.8	14.0	3.58e-04	0	45	0	279969792	17	4604
2026-01-20 02:34:13.37	356.32	13.36	-28.7	-30.8	14.0	3.27e-03	0	45	0	283115520	17	4589
2026-01-20 02:34:14.38	356.16	13.42	-28.6	-30.6	14.1	2.96e-03	0	44	0	286261248	17	4513
2026-01-20 02:34:15.38	356.00	13.48	-28.6	-30.5	14.2	2.53e-04	0	45	0	289406976	17	4497
2026-01-20 02:34:16.37	355.84	13.54	-28.6	-30.5	14.2	1.50e-06	0	45	0	292552704	17	4505
2026-01-20 02:34:17.38	355.68	13.60	-28.5	-30.3	14.3	1.84e-03	0	45	0	295698432	17	4441
2026-01-20 02:34:18.38	355.52	13.66	-28.6	-30.6	14.2	1.16e-04	0	45	0	298844160	17	4516
2026-01-20 02:34:19.38	355.36	13.72	-28.7	-30.9	13.9	1.41e-03	0	45	0	301989888	17	4620
2026-01-20 02:34:20.39	355.19	13.79	-28.7	-30.9	13.9	2.20e-06	0	45	0	305135616	17	4637
2026-01-20 02:34:21.39	355.03	13.85	-28.8	-31.1	13.8	4.50e-06	0	45	0	308281344	17	4686
2026-01-20 02:34:22.40	354.86	13.91	-28.7	-30.9	14.0	3.00e-06	0	45	0	311427072	17	4626
2026-01-20 02:34:23.40	354.70	13.97	-28.7	-30.8	14.0	4.50e-06	0	45	0	314572800	17	4579
2026-01-20 02:34:24.41	354.53	14.03	-28.7	-30.8	14.0	2.65e-04	0	45	0	317718528	17	4577
2026-01-20 02:34:25.41	354.37	14.09	-28.7	-30.7	14.1	3.00e-06	0	45	0	320864256	17	4555
2026-01-20 02:34:26.42	354.20	14.15	-28.5	-30.3	14.3	7.00e-07	0	45	0	324009984	17	4437
2026-01-20 02:34:27.42	354.03	14.21	-28.5	-30.3	14.3	1.50e-06	0	45	0	327155712	17	4447
2026-01-20 02:34:28.41	353.87	14.27	-28.6	-30.5	14.2	1.50e-06	0	45	0	330301440	17	4494
2026-01-20 02:34:29.41	353.70	14.33	-28.6	-30.5	14.2	2.36e-03	0	45	0	333447168	17	4501
2026-01-20 02:34:30.42	353.53	14.39	-28.6	-30.6	14.2	2.20e-06	0	44	0	336592896	17	4535
2026-01-20 02:34:31.43	353.36	14.45	-28.6	-30.6	14.2	1.50e-06	0	44	0	339738624	17	4531
2026-01-20 02:34:32.43	353.19	14.51	-28.6	-30.5	14.2	1.50e-06	0	45	0	342884352	17	4506
2026-01-20 02:34:33.43	353.02	14.57	-28.8	-30.9	14.0	2.20e-06	0	45	0	346030080	17	4636
2026-01-20 02:34:34.43	352.84	14.62	-28.7	-30.9	14.0	3.00e-06	0	45	0	349175808	17	4612
2026-01-20 02:34:35.43	352.67	14.68	-28.5	-30.4	14.3	3.00e-06	0	45	0	352321536	17	4466
2026-01-20 02:34:36.43	352.50	14.74	-28.5	-30.4	14.3	0.00e+00	0	45	0	355467264	17	4470
2026-01-20 02:34:37.43	352.32	14.80	-28.6	-30.6	14.2	0.00e+00	0	45	0	358612992	17	4522
2026-01-20 02:34:38.44	352.15	14.86	-28.5	-30.3	14.4	2.20e-06	0	45	0	361758720	17	4431
2026-01-20 02:34:39.44	351.97	14.92	-28.5	-30.3	14.4	7.00e-07	0	45	0	364904448	17	4448
2026-01-20 02:34:40.44	351.80	14.98	-28.6	-30.5	14.3	2.20e-06	0	45	0	368050176	17	4507
2026-01-20 02:34:41.44	351.62	15.03	-28.8	-31.1	13.9	7.00e-07	0	44	0	371195904	17	4671
2026-01-20 02:34:42.44	351.44	15.09	-28.9	-31.2	13.9	1.06e-05	0	45	0	374341632	17	4709
2026-01-20 02:34:43.44	351.26	15.15	-28.7	-30.9	14.1	3.00e-06	0	45	0	377487360	17	4610
2026-01-20 02:34:44.44	351.09	15.21	-28.7	-30.7	14.2	1.50e-06	0	44	0	379584512	17	4558
2026-01-20 02:34:45.44	350.91	15.27	-28.7	-30.7	14.2	1.50e-06	0	45	0	383778816	17	4542
2026-01-20 02:34:46.44	350.73	15.32	-28.7	-30.8	14.1	7.00e-07	0	45	0	386924544	17	4595
2026-01-20 02:34:47.45	350.54	15.38	-28.9	-31.3	13.9	4.50e-06	0	45	0	390070272	17	4729
2026-01-20 02:34:48.45	350.36	15.44	-29.0	-31.0	13.8	6.10e-06	0	44	0	393216000	18	4532
2026-01-20 02:34:49.45	350.18	15.50	-28.8	-31.1	13.9	2.20e-06	0	44	0	396361728	17	4682
2026-01-20 02:34:50.46	349.99	15.55	-28.8	-31.1	14.0	2.20e-06	0	44	0	399507456	17	4663
2026-01-20 02:34:51.47	349.81	15.61	-28.9	-31.3	13.8	3.00e-06	0	45	0	402653184	17	4727
2026-01-20 02:34:52.47	349.62	15.67	-28.9	-31.2	13.9	5.30e-06	0	45	0	404750336	17	4699
2026-01-20 02:34:53.48	349.44	15.72	-28.9	-31.2	13.9	3.80e-06	0	44	0	407896064	17	4702
2026-01-20 02:34:54.49	349.25	15.78	-28.9	-31.3	13.8	2.20e-06	0	45	0	412090368	17	4757
2026-01-20 02:34:55.50	349.06	15.84	-28.9	-30.8	13.8	3.80e-06	0	45	0	415236096	18	4485
2026-01-20 02:34:56.50	348.87	15.89	-28.8	-30.9	14.1	7.00e-07	0	45	0	418381824	17	4619
2026-01-20 02:34:57.50	348.69	15.95	-28.7	-30.7	14.2	7.00e-07	0	45	0	421527552	17	4560
2026-01-20 02:34:58.50	348.50	16.00	-28.7	-30.8	14.1	7.00e-07	0	45	0	424673280	17	4592
2026-01-20 02:34:59.51	348.31	16.06	-28.8	-31.0	14.0	3.80e-06	0	44	0	426770432	17	4646
2026-01-20 02:35:00.51	348.12	16.11	-28.8	-31.1	14.0	1.50e-06	0	45	0	429916160	17	4671
2026-01-20 02:35:01.51	347.92	16.17	-28.9	-31.2	14.0	3.80e-06	0	45	0	433061888	17	4700
2026-01-20 02:35:02.51	347.73	16.22	-28.8	-31.1	14.0	7.00e-07	0	45	0	436207616	17	4662
2026-01-20 02:35:03.51	347.54	16.28	-28.8	-30.9	14.1	4.50e-06	0	45	0	439353344	17	4609
2026-01-20 02:35:04.51	347.35	16.33	-28.7	-30.8	14.2	0.00e+00	0	45	0	442499072	17	4577
2026-01-20 02:35:05.51	347.15	16.39	-28.7	-30.9	14.1	2.20e-06	0	44	0	445644800	17	4607
2026-01-20 02:35:06.51	346.96	16.44	-28.8	-31.1	14.0	2.20e-06	0	44	0	448790528	17	4677
2026-01-20 02:35:07.51	346.76	16.49	-28.9	-31.1	14.0	4.50e-06	0	45	0	451936256	17	4683
2026-01-20 02:35:08.51	346.57	16.55	-29.0	-31.4	13.9	3.80e-06	0	45	0	455081984	17	4759
2026-01-20 02:35:09.52	346.37	16.60	-29.1	-31.2	13.7	6.80e-06	0	45	0	458227712	18	4597
2026-01-20 02:35:10.52	346.17	16.65	-29.0	-31.1	13.7	7.60e-06	0	45	0	461373440	18	4557
2026-01-20 02:35:11.52	345.97	16.71	-28.9	-30.8	13.9	3.00e-06	0	45	0	464519168	18	4466
2026-01-20 02:35:12.52	345.78	16.76	-28.8	-30.6	14.0	1.50e-06	0	45	0	467664896	18	4402
2026-01-20 02:35:13.53	345.57	16.81	-28.9	-31.3	13.9	3.00e-06	0	45	0	470810624	17	4728
2026-01-20 02:35:14.54	345.37	16.86	-28.7	-30.8	14.2	7.00e-07	0	44	0	473956352	17	4587
2026-01-20 02:35:15.53	345.17	16.91	-28.7	-30.7	14.2	1.50e-06	0	45	0	477102080	17	4565
2026-01-20 02:35:16.54	344.97	16.97	-28.7	-30.7	14.3	0.00e+00	0	44	0	480247808	17	4538
2026-01-20 02:35:17.53	344.77	17.02	-28.6	-30.6	14.3	0.00e+00	0	45	0	483393536	17	4531
2026-01-20 02:35:18.53	344.57	17.07	-28.7	-30.7	14.3	1.50e-06	0	44	0	486539264	17	4536
2026-01-20 02:35:19.53	344.36	17.12	-28.6	-30.5	14.3	7.00e-07	0	45	0	489684992	17	4493
2026-01-20 02:35:20.53	344.16	17.17	-28.6	-30.4	14.4	7.00e-07	0	45	0	492830720	17	4470
2026-01-20 02:35:21.53	343.95	17.22	-28.5	-30.4	14.4	7.00e-07	0	44	0	495976448	17	4467
2026-01-20 02:35:22.53	343.75	17.27	-28.5	-30.4	14.4	0.00e+00	0	45	0	499122176	17	4444
2026-01-20 02:35:23.52	343.54	17.32	-28.7	-30.7	14.3	2.20e-06	0	44	0	502267904	17	4544
2026-01-20 02:35:24.53	343.34	17.37	-28.6	-30.4	14.4	0.00e+00	0	45	0	505413632	17	4471
2026-01-20 02:35:25.53	343.13	17.42	-28.3	-29.9	14.7	0.00e+00	0	44	0	508559360	17	4321
2026-01-20 02:35:26.53	342.92	17.46	-28.3	-30.3	14.8	0.00e+00	0	44	0	511705088	16	4534
2026-01-20 02:35:27.54	342.71	17.51	-28.4	-30.5	14.7	0.00e+00	0	44	0	514850816	16	4603
2026-01-20 02:35:28.54	342.50	17.56	-27.7	-29.6	14.5	0.00e+00	0	44	0	517996544	17	4453
2026-01-20 02:35:29.54	342.29	17.61	-28.5	-30.7	14.5	7.00e-07	0	44	0	521142272	16	4662
2026-01-20 02:35:30.54	342.08	17.66	-28.6	-30.6	12.6	1.50e-06	0	44	0	524288000	17	4513
2026-01-20 02:35:31.53	341.87	17.70	-28.6	-30.5	14.4	0.00e+00	0	45	0	527433728	17	4484
2026-01-20 02:35:32.54	341.65	17.75	-28.5	-30.2	14.5	1.50e-06	0	45	0	530579456	17	4411
2026-01-20 02:35:33.53	341.44	17.80	-28.5	-30.2	14.5	0.00e+00	0	44	0	533725184	17	4406
2026-01-20 02:35:34.53	341.23	17.84	-28.5	-30.3	14.5	7.00e-07	0	44	0	536870912	17	4422
2026-01-20 02:35:35.53	341.01	17.89	-28.7	-30.7	14.3	1.50e-06	0	45	0	540016640	17	4550
2026-01-20 02:35:36.53	340.80	17.93	-28.2	-30.2	14.2	2.20e-06	0	44	0	543162368	17	4562
2026-01-20 02:35:37.54	340.58	17.98	-27.4	-29.6	14.3	0.00e+00	0	45	0	546308096	16	4677
2026-01-20 02:35:38.53	340.37	18.02	-28.4	-30.6	14.5	0.00e+00	0	45	0	549453824	16	4627
2026-01-20 02:35:39.53	340.15	18.07	-28.4	-30.7	12.6	0.00e+00	0	44	0	552599552	16	4651
2026-01-20 02:35:40.54	339.93	18.11	-28.3	-30.2	14.8	0.00e+00	0	44	0	555745280	16	4524
2026-01-20 02:35:41.55	339.71	18.16	-28.2	-30.2	14.9	2.64e-04	0	44	0	558891008	16	4510
2026-01-20 02:35:42.56	339.49	18.20	-28.2	-30.1	14.8	4.45e-03	0	45	0	562036736	16	4494
2026-01-20 02:35:43.56	339.27	18.24	-28.3	-30.2	14.8	0.00e+00	0	44	0	565182464	16	4516
2026-01-20 02:35:44.56	339.05	18.29	-28.2	-30.0	14.9	0.00e+00	0	45	0	568328192	16	4465
2026-01-20 02:35:45.57	338.82	18.33	-28.1	-29.9	15.0	0.00e+00	0	44	0	571473920	16	4426
2026-01-20 02:35:46.57	338.60	18.37	-27.9	-30.0	15.1	4.48e-03	0	44	0	574619648	15	4557
2026-01-20 02:35:47.57	338.38	18.41	-27.9	-30.0	15.1	2.00e-04	0	44	0	577765376	15	4577
2026-01-20 02:35:48.58	338.16	18.45	-27.9	-29.8	15.2	0.00e+00	0	45	0	580911104	15	4525
2026-01-20 02:35:49.58	337.93	18.50	-27.8	-29.7	15.2	0.00e+00	0	44	0	584056832	15	4476
2026-01-20 02:35:50.58	337.71	18.54	-27.8	-29.8	15.2	0.00e+00	0	44	0	587202560	15	4517
2026-01-20 02:35:51.59	337.48	18.58	-27.9	-29.9	15.1	4.41e-03	0	44	0	590348288	15	4544
2026-01-20 02:35:52.59	337.26	18.62	-27.8	-29.8	15.2	4.10e-03	0	45	0	593494016	15	4515
2026-01-20 02:35:53.59	337.03	18.66	-27.8	-29.8	15.2	5.64e-05	0	45	0	596639744	15	4509
2026-01-20 02:35:54.60	336.80	18.69	-27.9	-29.9	15.1	0.00e+00	0	44	0	599785472	15	4528
2026-01-20 02:35:55.60	336.58	18.73	-27.8	-29.8	15.2	4.44e-03	0	45	0	602931200	15	4515
2026-01-20 02:35:56.60	336.35	18.77	-27.7	-29.5	15.4	1.06e-05	0	44	0	606076928	15	4430
2026-01-20 02:35:57.60	336.12	18.81	-27.8	-29.6	15.3	4.31e-03	0	44	0	609222656	15	4453
2026-01-20 02:35:58.61	335.89	18.85	-27.8	-29.8	15.2	4.26e-03	0	44	0	612368384	15	4517
2026-01-20 02:35:59.62	335.66	18.88	-27.8	-29.7	15.3	1.44e-05	0	44	0	615514112	15	4469
2026-01-20 02:36:00.63	335.43	18.92	-27.8	-29.8	15.2	4.11e-03	0	44	0	618659840	15	4510
2026-01-20 02:36:01.63	335.19	18.96	-27.9	-29.9	15.2	3.83e-03	0	44	0	621805568	15	4551
2026-01-20 02:36:02.63	334.96	18.99	-27.9	-29.9	15.1	0.00e+00	0	45	0	624951296	15	4539
2026-01-20 02:36:03.63	334.73	19.03	-27.7	-29.6	15.3	3.79e-03	0	45	0	628097024	15	4445
2026-01-20 02:36:04.63	334.50	19.06	-27.7	-29.4	15.4	4.29e-03	0	44	0	631242752	15	4382
2026-01-20 02:36:05.63	334.27	19.10	-27.6	-29.3	15.5	0.00e+00	0	44	0	633339904	15	4358
2026-01-20 02:36:06.63	334.03	19.13	-27.6	-29.3	15.5	4.26e-03	0	45	0	636485632	15	4371
2026-01-20 02:36:07.63	333.80	19.16	-27.6	-29.3	15.5	4.17e-03	0	44	0	639631360	15	4362
2026-01-20 02:36:08.64	333.56	19.20	-27.7	-29.6	15.3	0.00e+00	0	45	0	643825664	15	4448
2026-01-20 02:36:09.64	333.33	19.23	-27.6	-29.3	15.4	4.31e-03	0	45	0	646971392	15	4376
2026-01-20 02:36:10.64	333.10	19.26	-27.5	-29.0	15.6	0.00e+00	0	44	0	650117120	15	4280
2026-01-20 02:36:11.64	332.86	19.29	-27.5	-29.0	15.6	0.00e+00	0	45	0	653262848	15	4288
2026-01-20 02:36:12.65	332.62	19.32	-27.6	-29.2	15.5	3.94e-03	0	44	0	656408576	15	4327
2026-01-20 02:36:13.65	332.38	19.35	-27.7	-29.5	15.4	4.27e-03	0	44	0	658505728	15	4424
2026-01-20 02:36:14.65	332.15	19.38	-27.7	-29.5	15.4	0.00e+00	0	45	0	661651456	15	4423
2026-01-20 02:36:15.65	331.91	19.41	-27.6	-29.3	15.5	0.00e+00	0	45	0	664797184	15	4375
2026-01-20 02:36:16.66	331.67	19.44	-27.7	-29.4	15.4	0.00e+00	0	44	0	667942912	15	4392
2026-01-20 02:36:17.66	331.43	19.47	-27.6	-29.3	15.5	0.00e+00	0	44	0	671088640	15	4374
2026-01-20 02:36:18.67	331.19	19.50	-27.6	-29.2	15.5	4.14e-03	0	45	0	674234368	15	4329
2026-01-20 02:36:19.67	330.95	19.53	-27.7	-29.5	15.3	0.00e+00	0	45	0	677380096	15	4435
2026-01-20 02:36:20.67	330.71	19.55	-27.6	-29.4	15.4	0.00e+00	0	44	0	680525824	15	4387
2026-01-20 02:36:21.67	330.47	19.58	-27.6	-29.3	15.5	0.00e+00	0	44	0	683671552	15	4373
2026-01-20 02:36:22.67	330.23	19.61	-27.8	-29.6	15.3	4.51e-03	0	44	0	686817280	15	4448
2026-01-20 02:36:23.68	329.99	19.63	-27.7	-29.4	15.4	0.00e+00	0	44	0	689963008	15	4399
2026-01-20 02:36:24.68	329.74	19.66	-27.6	-29.2	15.5	0.00e+00	0	45	0	693108736	15	4339
2026-01-20 02:36:25.68	329.50	19.68	-27.6	-29.2	15.5	0.00e+00	0	45	0	696254464	15	4336
2026-01-20 02:36:26.68	329.26	19.70	-27.6	-29.2	15.6	0.00e+00	0	44	0	699400192	15	4332
2026-01-20 02:36:27.68	329.02	19.73	-27.5	-29.1	15.6	0.00e+00	0	45	0	702545920	15	4320
2026-01-20 02:36:28.68	328.77	19.75	-27.6	-29.3	15.5	3.86e-03	0	45	0	705691648	15	4371
2026-01-20 02:36:29.69	328.53	19.77	-27.6	-29.2	15.5	0.00e+00	0	44	0	708837376	15	4338
2026-01-20 02:36:30.69	328.29	19.80	-27.6	-29.3	15.5	0.00e+00	0	45	0	711983104	15	4367
2026-01-20 02:36:31.69	328.04	19.82	-27.9	-29.9	15.2	0.00e+00	0	44	0	715128832	15	4533
2026-01-20 02:36:32.69	327.80	19.84	-27.8	-29.8	15.2	0.00e+00	0	44	0	718274560	15	4499
2026-01-20 02:36:33.70	327.55	19.86	-27.7	-29.6	15.3	0.00e+00	0	44	0	721420288	15	4449
2026-01-20 02:36:34.70	327.30	19.88	-27.9	-29.9	15.2	0.00e+00	0	45	0	724566016	15	4531
2026-01-20 02:36:35.70	327.06	19.90	-27.8	-29.7	15.2	0.00e+00	0	45	0	727711744	15	4478
2026-01-20 02:36:36.70	326.81	19.92	-27.7	-29.6	15.3	0.00e+00	0	45	0	730857472	15	4444
2026-01-20 02:36:37.65	326.58	19.93	-27.8	-29.7	15.3	0.00e+00	0	45	0	734003200	15	4468
2026-01-20 02:36:38.65	326.33	19.95	-27.7	-29.5	15.4	0.00e+00	0	45	0	737148928	15	4422
2026-01-20 02:36:39.65	326.09	19.97	-27.7	-29.4	15.4	0.00e+00	0	45	0	740294656	15	4400
2026-01-20 02:36:40.65	325.84	19.99	-27.7	-29.5	15.4	0.00e+00	0	45	0	743440384	15	4435
2026-01-20 02:36:41.65	325.59	20.00	-27.8	-29.7	15.3	0.00e+00	0	45	0	746586112	15	4472
2026-01-20 02:36:42.65	325.34	20.02	-27.8	-29.8	15.2	0.00e+00	0	45	0	749731840	15	4507
2026-01-20 02:36:43.65	325.10	20.03	-27.9	-29.9	15.2	0.00e+00	0	44	0	752877568	15	4536
2026-01-20 02:36:44.65	324.85	20.05	-27.9	-30.0	15.1	0.00e+00	0	44	0	756023296	15	4571
2026-01-20 02:36:45.65	324.60	20.06	-27.9	-30.0	15.1	0.00e+00	0	44	0	759169024	15	4572
2026-01-20 02:36:46.65	324.35	20.07	-27.9	-29.9	15.1	7.00e-07	0	44	0	762314752	15	4532
2026-01-20 02:36:47.65	324.10	20.09	-27.9	-30.0	15.1	0.00e+00	0	45	0	765460480	15	4563
2026-01-20 02:36:48.66	323.85	20.10	-27.8	-29.8	15.2	0.00e+00	0	45	0	768606208	15	4501
2026-01-20 02:36:49.67	323.60	20.11	-27.8	-29.6	15.2	0.00e+00	0	44	0	771751936	15	4468
2026-01-20 02:36:50.67	323.35	20.12	-27.8	-29.8	15.2	0.00e+00	0	45	0	774897664	15	4499
2026-01-20 02:36:51.68	323.10	20.13	-27.8	-29.7	15.3	0.00e+00	0	45	0	778043392	15	4470
2026-01-20 02:36:52.67	322.85	20.14	-27.8	-29.8	15.2	0.00e+00	0	44	0	781189120	15	4497
2026-01-20 02:36:53.68	322.60	20.15	-28.0	-30.1	15.0	0.00e+00	0	44	0	784334848	15	4612
2026-01-20 02:36:54.68	322.35	20.16	-28.1	-29.9	15.1	0.00e+00	0	45	0	787480576	16	4412
2026-01-20 02:36:55.67	322.10	20.17	-28.1	-29.9	15.0	0.00e+00	0	45	0	790626304	16	4420
2026-01-20 02:36:56.67	321.85	20.18	-28.1	-29.9	15.0	0.00e+00	0	44	0	793772032	16	4425
2026-01-20 02:36:57.67	321.60	20.18	-28.0	-29.7	15.2	0.00e+00	0	45	0	796917760	16	4366
2026-01-20 02:36:58.67	321.35	20.19	-27.8	-29.7	15.3	0.00e+00	0	45	0	800063488	15	4477
2026-01-20 02:36:59.68	321.10	20.20	-27.9	-29.8	15.2	7.00e-07	0	45	0	803209216	15	4521
2026-01-20 02:37:00.68	320.85	20.20	-27.8	-29.7	15.3	0.00e+00	0	45	0	806354944	15	4473
2026-01-20 02:37:01.68	320.60	20.21	-27.7	-29.4	15.4	0.00e+00	0	44	0	809500672	15	4399
2026-01-20 02:37:02.68	320.35	20.21	-27.7	-29.6	15.3	0.00e+00	0	45	0	812646400	15	4445
2026-01-20 02:37:03.67	320.10	20.21	-27.7	-29.5	15.4	0.00e+00	0	45	0	815792128	15	4412
2026-01-20 02:37:04.67	319.85	20.22	-27.8	-29.6	15.3	0.00e+00	0	45	0	818937856	15	4453
2026-01-20 02:37:05.68	319.59	20.22	-27.8	-29.6	15.3	0.00e+00	0	45	0	822083584	15	4464
2026-01-20 02:37:06.69	319.34	20.22	-27.8	-29.8	15.2	0.00e+00	0	45	0	825229312	15	4515
2026-01-20 02:37:07.69	319.09	20.22	-27.9	-29.9	15.2	0.00e+00	0	45	0	828375040	15	4539
2026-01-20 02:37:08.69	318.84	20.22	-27.9	-30.0	15.1	0.00e+00	0	44	0	831520768	15	4564
2026-01-20 02:37:09.69	318.59	20.22	-27.9	-29.9	15.1	0.00e+00	0	45	0	834666496	15	4536
2026-01-20 02:37:10.70	318.33	20.22	-27.8	-29.7	15.2	0.00e+00	0	44	0	837812224	15	4501
2026-01-20 02:37:11.70	318.08	20.22	-27.8	-29.7	15.2	0.00e+00	0	45	0	840957952	15	4484
2026-01-20 02:37:12.70	317.83	20.22	-27.8	-29.8	15.1	7.00e-07	0	45	0	844103680	15	4522
2026-01-20 02:37:13.70	317.58	20.22	-27.9	-29.9	15.2	0.00e+00	0	45	0	847249408	15	4535
2026-01-20 02:37:14.71	317.33	20.21	-27.9	-30.1	15.1	0.00e+00	0	45	0	850395136	15	4592
2026-01-20 02:37:15.71	317.08	20.21	-27.8	-29.8	15.2	7.00e-07	0	44	0	853540864	15	4515
2026-01-20 02:37:16.71	316.83	20.21	-27.8	-29.7	15.2	7.00e-07	0	44	0	856686592	15	4481
2026-01-20 02:37:17.72	316.57	20.20	-27.9	-30.0	15.1	0.00e+00	0	45	0	859832320	15	4559
2026-01-20 02:37:18.72	316.32	20.20	-28.3	-30.3	14.8	0.00e+00	0	44	0	861929472	16	4538
2026-01-20 02:37:19.72	316.07	20.19	-28.2	-30.1	14.9	0.00e+00	0	45	0	865075200	16	4494
2026-01-20 02:37:20.71	315.82	20.19	-28.1	-29.9	15.0	0.00e+00	0	44	0	868220928	16	4428
2026-01-20 02:37:21.72	315.57	20.18	-28.1	-29.8	15.0	0.00e+00	0	45	0	871366656	16	4406
2026-01-20 02:37:22.73	315.32	20.17	-28.1	-29.9	15.0	0.00e+00	0	45	0	874512384	16	4418
2026-01-20 02:37:23.73	315.07	20.16	-28.2	-30.2	14.8	0.00e+00	0	45	0	877658112	16	4515
2026-01-20 02:37:24.74	314.82	20.15	-27.7	-29.7	14.8	0.00e+00	0	44	0	881852416	16	4489
2026-01-20 02:37:25.75	314.56	20.15	-28.2	-30.0	14.2	0.00e+00	0	45	0	884998144	16	4450
2026-01-20 02:37:26.74	314.32	20.14	-27.9	-29.9	12.4	0.00e+00	0	45	0	887095296	15	4526
2026-01-20 02:37:27.74	314.07	20.13	-27.8	-29.7	13.6	0.00e+00	0	45	0	890241024	15	4479
2026-01-20 02:37:28.75	313.81	20.12	-27.8	-29.7	15.2	0.00e+00	0	44	0	893386752	15	4478
2026-01-20 02:37:29.75	313.56	20.10	-27.9	-29.9	15.1	1.53e-04	0	44	0	896532480	15	4540
2026-01-20 02:37:30.76	313.31	20.09	-27.9	-29.8	15.2	0.00e+00	0	44	0	899678208	15	4528
2026-01-20 02:37:31.76	313.06	20.08	-27.8	-29.8	15.2	0.00e+00	0	45	0	902823936	15	4499
2026-01-20 02:37:32.76	312.82	20.07	-27.9	-29.9	15.1	0.00e+00	0	44	0	905969664	15	4555
2026-01-20 02:37:33.76	312.57	20.05	-27.9	-30.0	15.0	7.00e-07	0	45	0	909115392	15	4574
2026-01-20 02:37:34.76	312.32	20.04	-27.9	-29.9	15.1	4.86e-04	0	45	0	912261120	15	4535
2026-01-20 02:37:35.77	312.07	20.02	-28.0	-30.1	15.0	4.18e-03	0	45	0	915406848	15	4588
2026-01-20 02:37:36.78	311.82	20.01	-27.8	-29.8	15.2	0.00e+00	0	45	0	918552576	15	4522
2026-01-20 02:37:37.78	311.57	19.99	-28.2	-30.1	14.9	0.00e+00	0	45	0	921698304	16	4477
2026-01-20 02:37:38.78	311.32	19.98	-28.0	-29.7	15.1	0.00e+00	0	45	0	924844032	16	4364
2026-01-20 02:37:39.79	311.07	19.96	-27.7	-29.4	15.4	3.77e-03	0	45	0	927989760	15	4398
2026-01-20 02:37:40.79	310.83	19.94	-27.7	-29.4	15.4	2.01e-04	0	45	0	931135488	15	4397
2026-01-20 02:37:41.80	310.58	19.92	-27.8	-29.7	15.2	3.85e-03	0	45	0	934281216	15	4499
2026-01-20 02:37:42.80	310.33	19.90	-27.9	-29.8	15.1	0.00e+00	0	45	0	937426944	15	4526
2026-01-20 02:37:43.81	310.08	19.88	-27.9	-29.9	15.1	0.00e+00	0	45	0	940572672	15	4530
2026-01-20 02:37:44.81	309.84	19.86	-28.2	-30.0	14.9	4.30e-03	0	45	0	943718400	16	4447
2026-01-20 02:37:45.81	309.59	19.84	-28.1	-29.8	15.0	3.95e-03	0	44	0	946864128	16	4400
2026-01-20 02:37:46.82	309.35	19.82	-27.9	-29.5	15.2	1.93e-04	0	45	0	950009856	16	4298
2026-01-20 02:37:47.82	309.10	19.80	-27.8	-29.7	15.2	0.00e+00	0	45	0	953155584	15	4484
2026-01-20 02:37:48.82	308.86	19.78	-27.7	-29.5	15.3	4.50e-05	0	45	0	956301312	15	4428
2026-01-20 02:37:49.83	308.61	19.76	-27.7	-29.4	15.4	0.00e+00	0	45	0	959447040	15	4405
2026-01-20 02:37:50.83	308.37	19.74	-27.7	-29.6	15.3	3.48e-03	0	45	0	962592768	15	4457
2026-01-20 02:37:51.83	308.12	19.71	-27.7	-29.4	15.4	4.14e-03	0	45	0	965738496	15	4408
2026-01-20 02:37:52.84	307.88	19.69	-27.6	-29.3	15.4	0.00e+00	0	45	0	968884224	15	4385
2026-01-20 02:37:53.84	307.64	19.66	-27.7	-29.5	15.3	0.00e+00	0	45	0	972029952	15	4433
2026-01-20 02:37:54.85	307.39	19.64	-27.7	-29.5	15.3	4.36e-03	0	44	0	975175680	15	4422
2026-01-20 02:37:55.85	307.15	19.61	-27.8	-29.7	15.2	3.58e-05	0	45	0	978321408	15	4477
2026-01-20 02:37:56.86	306.91	19.59	-27.7	-29.6	15.3	4.00e-03	0	44	0	981467136	15	4456
2026-01-20 02:37:57.86	306.67	19.56	-27.7	-29.6	15.3	3.54e-03	0	45	0	984612864	15	4451
2026-01-20 02:37:58.86	306.43	19.53	-27.8	-29.7	15.2	7.00e-07	0	44	0	987758592	15	4504
2026-01-20 02:37:59.87	306.18	19.51	-27.8	-29.8	15.1	3.32e-03	0	45	0	990904320	15	4518
2026-01-20 02:38:00.87	305.94	19.48	-27.9	-29.9	15.1	3.04e-03	0	45	0	994050048	15	4542
2026-01-20 02:38:01.87	305.71	19.45	-27.9	-30.0	15.0	1.33e-04	0	44	0	997195776	15	4566
2026-01-20 02:38:02.88	305.46	19.42	-27.8	-29.8	15.1	9.31e-04	0	45	0	1000341504	15	4515
2026-01-20 02:38:03.88	305.23	19.39	-27.9	-30.0	15.0	0.00e+00	0	45	0	1003487232	15	4561
2026-01-20 02:38:04.89	304.99	19.36	-28.3	-30.5	14.6	0.00e+00	0	44	0	1006632960	16	4588
2026-01-20 02:38:05.89	304.75	19.33	-28.1	-29.9	14.9	0.00e+00	0	45	0	1009778688	16	4416
2026-01-20 02:38:06.88	304.51	19.30	-27.9	-29.4	15.2	2.39e-03	0	45	0	1012924416	16	4295
2026-01-20 02:38:07.89	304.28	19.27	-27.9	-29.4	15.3	2.20e-06	0	45	0	1016070144	16	4271
2026-01-20 02:38:08.89	304.04	19.24	-27.8	-29.8	15.1	0.00e+00	0	44	0	1019215872	15	4515
2026-01-20 02:38:09.89	303.81	19.20	-27.8	-29.8	15.1	0.00e+00	0	45	0	1022361600	15	4529
2026-01-20 02:38:10.88	303.57	19.17	-28.2	-30.2	14.8	0.00e+00	0	45	0	1025507328	16	4504
2026-01-20 02:38:11.89	303.34	19.14	-28.0	-29.7	15.0	2.22e-03	0	45	0	1028653056	16	4369
2026-01-20 02:38:12.89	303.10	19.10	-27.8	-29.7	15.2	0.00e+00	0	45	0	1031798784	15	4492
2026-01-20 02:38:13.89	302.87	19.07	-27.7	-29.6	15.2	0.00e+00	0	44	0	1034944512	15	4463
2026-01-20 02:38:14.90	302.63	19.03	-27.8	-29.8	15.1	0.00e+00	0	45	0	1038090240	15	4513
2026-01-20 02:38:15.90	302.40	19.00	-27.8	-29.6	15.2	0.00e+00	0	45	0	1041235968	15	4463
2026-01-20 02:38:16.91	302.17	18.96	-27.8	-29.6	15.2	3.46e-04	0	45	0	1044381696	15	4474
2026-01-20 02:38:17.91	301.94	18.93	-27.9	-30.0	15.0	0.00e+00	0	45	0	1047527424	15	4584
2026-01-20 02:38:18.92	301.70	18.89	-27.8	-29.8	15.1	0.00e+00	0	44	0	1050673152	15	4519
2026-01-20 02:38:19.92	301.47	18.85	-27.8	-29.7	15.2	0.00e+00	0	44	0	1053818880	15	4483
2026-01-20 02:38:20.92	301.25	18.82	-27.9	-29.9	15.0	0.00e+00	0	45	0	1056964608	15	4552
2026-01-20 02:38:21.92	301.02	18.78	-27.8	-29.9	15.1	0.00e+00	0	45	0	1060110336	15	4542
2026-01-20 02:38:22.92	300.79	18.74	-27.9	-30.0	15.0	0.00e+00	0	45	0	1063256064	15	4568
2026-01-20 02:38:23.93	300.56	18.70	-27.8	-29.8	15.1	0.00e+00	0	44	0	1066401792	15	4517
2026-01-20 02:38:24.93	300.33	18.66	-27.9	-30.0	15.0	0.00e+00	0	45	0	1069547520	15	4579
2026-01-20 02:38:25.93	300.10	18.63	-27.9	-30.1	14.9	0.00e+00	0	44	0	1072693248	15	4602
2026-01-20 02:38:26.93	299.88	18.59	-28.2	-30.1	14.8	0.00e+00	0	45	0	1075838976	16	4489
2026-01-20 02:38:27.93	299.65	18.55	-28.1	-30.0	14.9	1.50e-06	0	45	0	1078984704	16	4459
2026-01-20 02:38:28.93	299.43	18.51	-28.1	-29.9	14.9	7.00e-07	0	45	0	1082130432	16	4434
2026-01-20 02:38:29.94	299.20	18.46	-28.0	-30.1	14.9	0.00e+00	0	45	0	1085276160	15	4613
2026-01-20 02:38:30.95	298.98	18.42	-27.8	-29.9	15.0	0.00e+00	0	45	0	1088421888	15	4540
2026-01-20 02:38:31.95	298.75	18.38	-27.8	-29.8	15.1	0.00e+00	0	45	0	1091567616	15	4517
2026-01-20 02:38:32.95	298.53	18.34	-27.9	-30.1	14.9	0.00e+00	0	45	0	1094713344	15	4599
2026-01-20 02:38:33.95	298.31	18.30	-27.9	-29.9	15.0	0.00e+00	0	45	0	1097859072	15	4553
2026-01-20 02:38:34.95	298.09	18.25	-27.8	-29.8	15.1	0.00e+00	0	44	0	1101004800	15	4520
2026-01-20 02:38:35.95	297.87	18.21	-28.2	-30.1	14.8	0.00e+00	0	45	0	1104150528	16	4494
2026-01-20 02:38:36.96	297.65	18.17	-28.1	-29.9	14.9	0.00e+00	0	45	0	1107296256	16	4417
2026-01-20 02:38:37.96	297.43	18.12	-28.0	-29.7	15.0	7.00e-07	0	45	0	1110441984	16	4365
2026-01-20 02:38:38.96	297.21	18.08	-27.8	-29.8	15.0	0.00e+00	0	45	0	1113587712	15	4523
2026-01-20 02:38:39.96	296.99	18.03	-27.7	-29.6	15.1	7.00e-07	0	45	0	1116733440	15	4467
2026-01-20 02:38:40.96	296.77	17.99	-27.8	-29.8	15.0	0.00e+00	0	44	0	1119879168	15	4509
2026-01-20 02:38:41.97	296.55	17.94	-27.9	-30.0	14.9	7.00e-07	0	45	0	1123024896	15	4580
2026-01-20 02:38:42.96	296.34	17.90	-27.9	-30.0	14.9	0.00e+00	0	45	0	1126170624	15	4578
2026-01-20 02:38:43.97	296.12	17.85	-27.9	-29.9	15.0	0.00e+00	0	44	0	1129316352	15	4548
2026-01-20 02:38:44.98	295.91	17.81	-28.0	-30.1	14.9	0.00e+00	0	45	0	1132462080	15	4617
2026-01-20 02:38:45.98	295.69	17.76	-27.8	-29.8	15.0	0.00e+00	0	44	0	1135607808	15	4521
2026-01-20 02:38:46.99	295.48	17.71	-27.8	-29.7	15.1	7.00e-07	0	45	0	1138753536	15	4494
2026-01-20 02:38:47.99	295.26	17.67	-27.8	-29.7	15.1	0.00e+00	0	44	0	1141899264	15	4496
2026-01-20 02:38:48.99	295.05	17.62	-27.9	-30.1	14.9	0.00e+00	0	45	0	1145044992	15	4608
2026-01-20 02:38:50.00	294.84	17.57	-27.8	-29.7	15.1	0.00e+00	0	44	0	1148190720	15	4504
2026-01-20 02:38:51.00	294.63	17.52	-27.7	-29.5	15.1	0.00e+00	0	45	0	1151336448	15	4445
2026-01-20 02:38:51.99	294.42	17.47	-27.7	-29.5	15.2	0.00e+00	0	44	0	1154482176	15	4422
2026-01-20 02:38:52.99	294.21	17.42	-27.7	-29.6	15.1	0.00e+00	0	45	0	1157627904	15	4455
2026-01-20 02:38:53.99	294.00	17.38	-27.7	-29.5	15.1	0.00e+00	0	45	0	1160773632	15	4442
2026-01-20 02:38:55.00	293.79	17.33	-27.7	-29.5	15.1	0.00e+00	0	44	0	1162870784	15	4446
2026-01-20 02:38:56.00	293.59	17.28	-27.7	-29.6	15.1	0.00e+00	0	44	0	1166016512	15	4462
2026-01-20 02:38:57.00	293.38	17.23	-27.9	-30.0	14.9	0.00e+00	0	44	0	1169162240	15	4593
2026-01-20 02:38:58.00	293.17	17.18	-27.9	-30.1	14.8	0.00e+00	0	44	0	1172307968	15	4603
2026-01-20 02:38:59.01	292.97	17.13	-28.2	-30.2	14.7	7.00e-07	0	44	0	1175453696	16	4512
2026-01-20 02:39:00.01	292.76	17.08	-28.4	-30.6	14.4	7.00e-07	0	44	0	1178599424	16	4643
2026-01-20 02:39:01.01	292.56	17.02	-28.3	-30.3	14.6	7.00e-07	0	45	0	1181745152	16	4537
2026-01-20 02:39:02.01	292.35	16.97	-28.2	-30.3	14.6	0.00e+00	0	44	0	1184890880	16	4543
2026-01-20 02:39:03.02	292.15	16.92	-28.3	-30.4	14.5	7.00e-07	0	45	0	1188036608	16	4574
2026-01-20 02:39:04.02	291.95	16.87	-28.1	-29.8	14.8	0.00e+00	0	45	0	1191182336	16	4405
2026-01-20 02:39:05.03	291.75	16.82	-27.9	-29.5	15.0	0.00e+00	0	44	0	1194328064	16	4315
2026-01-20 02:39:06.04	291.54	16.76	-27.7	-29.6	15.1	0.00e+00	0	44	0	1197473792	15	4480
2026-01-20 02:39:07.04	291.34	16.71	-27.7	-29.6	15.1	0.00e+00	0	44	0	1200619520	15	4463
2026-01-20 02:39:08.03	291.15	16.66	-27.7	-29.5	15.2	0.00e+00	0	44	0	1203765248	15	4425
2026-01-20 02:39:09.03	290.95	16.61	-27.7	-29.7	15.0	0.00e+00	0	44	0	1206910976	15	4484
2026-01-20 02:39:10.03	290.75	16.55	-27.8	-29.8	15.0	0.00e+00	0	45	0	1210056704	15	4513
2026-01-20 02:39:11.04	290.55	16.50	-27.9	-30.0	14.8	0.00e+00	0	44	0	1213202432	15	4586
2026-01-20 02:39:12.04	290.36	16.45	-28.2	-30.2	14.6	0.00e+00	0	44	0	1216348160	16	4528
2026-01-20 02:39:13.04	290.16	16.39	-28.2	-30.2	14.6	1.50e-06	0	45	0	1219493888	16	4539
2026-01-20 02:39:14.04	289.97	16.34	-28.3	-30.3	14.5	0.00e+00	0	44	0	1222639616	16	4568
2026-01-20 02:39:15.05	289.77	16.28	-28.2	-30.2	14.5	0.00e+00	0	44	0	1225785344	16	4538
2026-01-20 02:39:16.05	289.58	16.23	-28.3	-30.4	14.5	7.00e-07	0	44	0	1228931072	16	4577
2026-01-20 02:39:17.04	289.39	16.17	-27.5	-29.8	13.6	7.00e-07	0	45	0	1232076800	16	4688
2026-01-20 02:39:18.05	289.19	16.12	-28.2	-30.2	12.4	0.00e+00	0	44	0	1235222528	16	4514
2026-01-20 02:39:19.06	289.00	16.06	-28.1	-29.9	14.4	0.00e+00	0	45	0	1238368256	16	4431
2026-01-20 02:39:20.06	288.81	16.01	-27.9	-30.0	13.2	0.00e+00	0	45	0	1241513984	15	4588
2026-01-20 02:39:21.06	288.62	15.95	-27.9	-30.0	14.6	0.00e+00	0	44	0	1244659712	15	4596
2026-01-20 02:39:22.06	288.43	15.90	-27.8	-29.8	14.9	7.00e-07	0	44	0	1247805440	15	4528
2026-01-20 02:39:23.07	288.24	15.84	-27.8	-29.9	14.8	0.00e+00	0	44	0	1250951168	15	4552
2026-01-20 02:39:24.07	288.05	15.78	-27.7	-29.7	14.9	6.61e-04	0	45	0	1254096896	15	4492
2026-01-20 02:39:25.08	287.86	15.73	-27.7	-29.7	14.9	0.00e+00	0	44	0	1257242624	15	4487
2026-01-20 02:39:26.08	287.68	15.67	-27.8	-29.8	14.9	7.00e-07	0	44	0	1260388352	15	4525
2026-01-20 02:39:27.08	287.49	15.61	-27.7	-29.6	15.0	0.00e+00	0	45	0	1263534080	15	4466
2026-01-20 02:39:28.08	287.31	15.56	-27.7	-29.5	15.1	0.00e+00	0	44	0	1266679808	15	4431
2026-01-20 02:39:29.08	287.12	15.50	-27.7	-29.5	15.0	4.13e-03	0	45	0	1269825536	15	4454
2026-01-20 02:39:30.09	286.94	15.44	-27.8	-29.8	14.9	4.83e-03	0	45	0	1272971264	15	4533
2026-01-20 02:39:31.09	286.76	15.39	-27.8	-29.7	14.9	9.91e-04	0	44	0	1276116992	15	4512
2026-01-20 02:39:32.10	286.57	15.33	-27.8	-29.7	14.9	0.00e+00	0	45	0	1279262720	15	4509
2026-01-20 02:39:33.10	286.39	15.27	-27.8	-29.8	14.9	0.00e+00	0	44	0	1282408448	15	4529
2026-01-20 02:39:34.11	286.21	15.21	-27.8	-29.9	14.8	7.21e-04	0	45	0	1285554176	15	4558
2026-01-20 02:39:35.11	286.03	15.15	-28.2	-30.1	14.6	4.86e-03	0	45	0	1288699904	16	4484
2026-01-20 02:39:36.12	285.85	15.10	-28.1	-30.0	14.6	4.73e-03	0	45	0	1291845632	16	4468
2026-01-20 02:39:37.12	285.67	15.04	-28.2	-30.3	14.4	0.00e+00	0	44	0	1294991360	16	4559
2026-01-20 02:39:38.13	285.49	14.98	-28.3	-30.5	14.3	0.00e+00	0	44	0	1298137088	16	4617
2026-01-20 02:39:39.13	285.31	14.92	-28.4	-30.7	14.2	4.89e-03	0	45	0	1301282816	16	4696
2026-01-20 02:39:40.13	285.14	14.86	-28.5	-30.9	14.1	6.64e-04	0	45	0	1304428544	16	4741
2026-01-20 02:39:41.12	284.96	14.80	-28.6	-30.6	14.0	4.83e-03	0	45	0	1307574272	17	4543
2026-01-20 02:39:42.12	284.79	14.74	-28.7	-31.0	13.7	4.79e-03	0	45	0	1310720000	17	4656
2026-01-20 02:39:43.12	284.61	14.69	-28.6	-30.7	13.9	3.00e-06	0	44	0	1313865728	17	4586
2026-01-20 02:39:44.13	284.44	14.63	-28.7	-31.0	13.7	4.62e-03	0	44	0	1317011456	17	4657
2026-01-20 02:39:45.13	284.27	14.57	-28.6	-30.7	13.9	4.32e-03	0	45	0	1320157184	17	4563
2026-01-20 02:39:46.13	284.09	14.51	-28.4	-30.2	14.2	6.96e-04	0	45	0	1323302912	17	4423
2026-01-20 02:39:47.13	283.92	14.45	-28.3	-30.6	14.3	4.38e-03	0	45	0	1326448640	16	4640
2026-01-20 02:39:48.13	283.75	14.39	-28.4	-30.6	14.2	4.83e-03	0	45	0	1329594368	16	4642
2026-01-20 02:39:49.14	283.58	14.33	-28.2	-30.2	14.5	7.38e-04	0	45	0	1332740096	16	4524
2026-01-20 02:39:50.14	283.41	14.27	-28.3	-30.4	14.3	4.94e-03	0	44	0	1335885824	16	4585
2026-01-20 02:39:51.14	283.24	14.21	-28.3	-30.4	14.4	4.50e-03	0	45	0	1339031552	16	4581
2026-01-20 02:39:52.15	283.07	14.15	-28.3	-30.5	14.3	1.11e-03	0	44	0	1342177280	16	4622
2026-01-20 02:39:53.15	282.91	14.09	-28.3	-30.6	14.3	4.08e-03	0	45	0	1345323008	16	4644
2026-01-20 02:39:54.15	282.74	14.03	-28.3	-30.5	14.2	4.29e-03	0	45	0	1348468736	16	4632
2026-01-20 02:39:55.16	282.57	13.97	-28.3	-30.4	14.3	8.15e-04	0	45	0	1351614464	16	4577
2026-01-20 02:39:56.16	282.41	13.91	-28.1	-30.0	14.5	3.87e-03	0	45	0	1354760192	16	4485
2026-01-20 02:39:57.16	282.24	13.85	-27.9	-30.2	14.6	4.16e-03	0	44	0	1357905920	15	4642
2026-01-20 02:39:58.16	282.08	13.79	-28.2	-30.1	14.5	2.20e-06	0	44	0	1361051648	16	4505
2026-01-20 02:39:59.16	281.92	13.72	-28.3	-30.4	14.3	7.00e-07	0	45	0	1364197376	16	4592
2026-01-20 02:40:00.16	281.75	13.66	-28.2	-30.1	14.5	3.76e-03	0	45	0	1367343104	16	4494
2026-01-20 02:40:01.16	281.59	13.60	-28.1	-30.0	14.5	6.63e-05	0	45	0	1370488832	16	4482
2026-01-20 02:40:02.16	281.43	13.54	-28.2	-30.2	14.5	3.82e-03	0	45	0	1373634560	16	4521
2026-01-20 02:40:03.17	281.27	13.48	-28.2	-30.3	14.4	1.50e-06	0	44	0	1376780288	16	4568
2026-01-20 02:40:04.16	281.11	13.42	-28.3	-30.5	14.2	2.20e-06	0	44	0	1379926016	16	4632
2026-01-20 02:40:05.17	280.95	13.36	-28.4	-30.7	14.1	4.24e-03	0	45	0	1383071744	16	4688
2026-01-20 02:40:06.18	280.79	13.30	-28.4	-30.6	14.2	4.91e-03	0	44	0	1386217472	16	4670
2026-01-20 02:40:07.18	280.63	13.24	-28.4	-30.8	14.0	6.13e-04	0	44	0	1389363200	16	4722
2026-01-20 02:40:08.18	280.47	13.17	-28.4	-30.7	14.1	1.50e-06	0	45	0	1391460352	16	4694
2026-01-20 02:40:09.18	280.32	13.11	-28.5	-30.4	14.0	6.10e-06	0	44	0	1394606080	17	4482
2026-01-20 02:40:10.19	280.16	13.05	-28.5	-30.4	14.0	3.00e-06	0	44	0	1398800384	17	4494
2026-01-20 02:40:11.19	280.01	12.99	-28.6	-30.7	13.8	1.50e-06	0	44	0	1401946112	17	4592
2026-01-20 02:40:12.20	279.85	12.93	-28.7	-31.0	13.6	4.79e-03	0	44	0	1405091840	17	4678
2026-01-20 02:40:13.20	279.70	12.87	-28.7	-30.8	13.7	9.10e-06	0	44	0	1408237568	17	4613
2026-01-20 02:40:14.19	279.54	12.81	-28.7	-30.8	13.7	7.60e-06	0	45	0	1411383296	17	4623
2026-01-20 02:40:15.20	279.39	12.74	-28.4	-30.3	14.0	6.10e-06	0	44	0	1414529024	17	4456
2026-01-20 02:40:16.21	279.24	12.68	-28.3	-29.9	14.2	0.00e+00	0	45	0	1416626176	17	4338
2026-01-20 02:40:17.20	279.09	12.62	-28.2	-30.2	14.3	5.05e-03	0	45	0	1419771904	16	4538
2026-01-20 02:40:18.21	278.93	12.56	-27.9	-30.2	14.4	7.00e-07	0	45	0	1422917632	15	4661
2026-01-20 02:40:19.21	278.78	12.50	-28.2	-30.3	14.3	0.00e+00	0	44	0	1426063360	16	4567
2026-01-20 02:40:20.21	278.64	12.43	-28.4	-30.7	14.1	2.20e-06	0	44	0	1429209088	16	4691
2026-01-20 02:40:21.22	278.48	12.37	-28.4	-30.7	14.0	3.00e-06	0	44	0	1432354816	16	4702
2026-01-20 02:40:22.22	278.34	12.31	-28.5	-30.6	13.8	1.30e-03	0	44	0	1435500544	17	4549
2026-01-20 02:40:23.23	278.19	12.25	-28.5	-30.6	13.8	5.30e-06	0	44	0	1438646272	17	4544
2026-01-20 02:40:24.22	278.04	12.19	-28.6	-30.7	13.7	4.50e-06	0	44	0	1441792000	17	4581
2026-01-20 02:40:25.22	277.90	12.12	-28.7	-31.0	13.5	6.80e-06	0	44	0	1444937728	17	4672
2026-01-20 02:40:26.24	277.75	12.06	-28.7	-30.9	13.6	7.60e-06	0	44	0	1448083456	17	4666
2026-01-20 02:40:27.24	277.60	12.00	-28.5	-30.6	13.7	8.30e-06	0	45	0	1451229184	17	4548
2026-01-20 02:40:28.24	277.46	11.94	-28.5	-30.4	13.9	3.80e-06	0	45	0	1454374912	17	4496
2026-01-20 02:40:29.24	277.31	11.87	-28.5	-30.5	13.8	3.00e-06	0	44	0	1457520640	17	4517
2026-01-20 02:40:30.25	277.17	11.81	-28.5	-30.4	13.9	3.80e-06	0	44	0	1460666368	17	4482
2026-01-20 02:40:31.25	277.03	11.75	-28.5	-30.5	13.8	3.80e-06	0	45	0	1463812096	17	4523
2026-01-20 02:40:32.25	276.89	11.69	-28.6	-30.8	13.6	5.30e-06	0	45	0	1466957824	17	4621
2026-01-20 02:40:33.26	276.74	11.62	-28.7	-31.1	13.4	1.98e-05	0	44	0	1470103552	17	4713
2026-01-20 02:40:34.26	276.60	11.56	-28.8	-31.2	13.4	1.06e-05	0	44	0	1473249280	17	4755
2026-01-20 02:40:35.26	276.46	11.50	-29.0	-31.6	13.1	2.21e-05	0	45	0	1476395008	17	4879
2026-01-20 02:40:36.26	276.32	11.44	-29.0	-31.6	13.1	1.90e-05	0	44	0	1479540736	17	4893
2026-01-20 02:40:37.26	276.18	11.38	-29.2	-31.6	12.8	4.57e-05	0	44	0	1482686464	18	4765
2026-01-20 02:40:38.26	276.05	11.31	-29.2	-31.6	12.8	7.78e-05	0	45	0	1485832192	18	4759
2026-01-20 02:40:39.26	275.91	11.25	-29.0	-31.1	13.1	3.50e-05	0	44	0	1488977920	18	4622
2026-01-20 02:40:40.25	275.77	11.19	-28.9	-31.6	13.1	1.98e-05	0	45	0	1492123648	17	4872
2026-01-20 02:40:41.26	275.63	11.13	-28.9	-31.6	13.1	3.20e-05	0	44	0	1495269376	17	4868
2026-01-20 02:40:42.27	275.50	11.06	-28.9	-31.4	13.2	2.21e-05	0	45	0	1498415104	17	4810
2026-01-20 02:40:43.27	275.36	11.00	-28.9	-31.5	13.2	2.89e-05	0	45	0	1501560832	17	4833
2026-01-20 02:40:44.28	275.23	10.94	-28.8	-31.2	13.3	1.06e-05	0	44	0	1504706560	17	4760
2026-01-20 02:40:45.28	275.09	10.88	-28.8	-31.2	13.3	2.28e-05	0	45	0	1507852288	17	4762
2026-01-20 02:40:46.28	274.96	10.82	-28.9	-31.3	13.2	1.75e-05	0	44	0	1510998016	17	4796
2026-01-20 02:40:47.28	274.83	10.75	-28.9	-31.6	13.1	2.67e-05	0	44	0	1514143744	17	4867
2026-01-20 02:40:48.28	274.69	10.69	-28.9	-31.5	13.1	3.35e-05	0	45	0	1517289472	17	4854
2026-01-20 02:40:49.28	274.56	10.63	-29.2	-31.6	12.8	5.34e-05	0	45	0	1520435200	18	4771
2026-01-20 02:40:50.28	274.43	10.57	-29.3	-32.0	12.5	1.04e-04	0	44	0	1523580928	18	4909
2026-01-20 02:40:51.29	274.30	10.50	-29.1	-31.5	12.8	8.01e-05	0	45	0	1526726656	18	4742
2026-01-20 02:40:52.30	274.17	10.44	-29.0	-31.3	13.0	4.34e-05	0	45	0	1529872384	18	4666
2026-01-20 02:40:53.30	274.04	10.38	-29.0	-31.7	13.0	2.89e-05	0	45	0	1533018112	17	4936
2026-01-20 02:40:54.30	273.91	10.32	-29.0	-31.2	13.0	5.11e-05	0	45	0	1536163840	18	4655
2026-01-20 02:40:55.30	273.78	10.26	-29.0	-31.3	12.9	4.50e-05	0	45	0	1539309568	18	4674
2026-01-20 02:40:56.30	273.65	10.19	-29.0	-31.3	12.9	5.03e-05	0	45	0	1542455296	18	4657
2026-01-20 02:40:57.30	273.52	10.13	-29.0	-31.2	13.0	4.27e-05	0	44	0	1545601024	18	4639
2026-01-20 02:40:58.30	273.40	10.07	-29.0	-31.2	13.0	4.11e-05	0	45	0	1548746752	18	4638
2026-01-20 02:40:59.30	273.27	10.01	-28.8	-31.3	13.2	2.97e-05	0	44	0	1551892480	17	4792
2026-01-20 02:41:00.31	273.14	9.94	-28.8	-31.3	13.1	2.51e-05	0	44	0	1555038208	17	4792
2026-01-20 02:41:01.31	273.02	9.88	-29.0	-31.2	13.0	3.96e-05	0	44	0	1558183936	18	4631
2026-01-20 02:41:02.32	272.89	9.82	-28.8	-31.2	13.2	3.28e-05	0	45	0	1561329664	17	4757
2026-01-20 02:41:03.33	272.77	9.76	-28.7	-31.1	13.3	2.51e-05	0	45	0	1564475392	17	4716
2026-01-20 02:41:04.33	272.64	9.70	-28.8	-31.2	13.3	2.28e-05	0	45	0	1567621120	17	4743
2026-01-20 02:41:05.34	272.52	9.63	-28.9	-31.4	13.1	3.50e-05	0	44	0	1570766848	17	4840
2026-01-20 02:41:06.34	272.40	9.57	-29.0	-31.2	12.9	4.95e-05	0	44	0	1573912576	18	4659
2026-01-20 02:41:07.34	272.28	9.51	-29.1	-31.6	12.7	6.40e-05	0	44	0	1577058304	18	4786
2026-01-20 02:41:08.34	272.15	9.45	-29.3	-31.9	12.5	9.38e-05	0	45	0	1580204032	18	4874
2026-01-20 02:41:09.34	272.03	9.39	-29.4	-32.2	12.3	1.46e-04	0	45	0	1583349760	18	4993
2026-01-20 02:41:10.35	271.91	9.32	-29.5	-32.2	12.0	2.94e-04	0	45	0	1586495488	19	4866
2026-01-20 02:41:11.34	271.79	9.26	-29.7	-32.6	11.7	4.85e-04	0	45	0	1589641216	19	5007
2026-01-20 02:41:12.35	271.67	9.20	-29.7	-32.6	11.7	5.48e-04	0	44	0	1592786944	19	5006
2026-01-20 02:41:13.35	271.55	9.14	-29.9	-33.0	11.4	8.51e-04	0	44	0	1595932672	19	5160
2026-01-20 02:41:14.35	271.44	9.08	-29.9	-33.0	11.4	9.06e-04	0	45	0	1599078400	19	5184
2026-01-20 02:41:15.35	271.32	9.02	-29.9	-33.0	11.4	1.23e-03	0	44	0	1602224128	19	5187
2026-01-20 02:41:16.36	271.20	8.95	-29.7	-32.6	11.7	6.92e-04	0	45	0	1605369856	19	5022
2026-01-20 02:41:17.37	271.08	8.89	-29.6	-32.3	11.9	4.26e-04	0	45	0	1608515584	19	4923
2026-01-20 02:41:18.37	270.96	8.83	-29.5	-31.9	12.1	2.97e-04	0	45	0	1611661312	19	4789
2026-01-20 02:41:19.37	270.85	8.77	-29.3	-31.9	12.4	2.13e-04	0	44	0	1614807040	18	4899
2026-01-20 02:41:20.37	270.73	8.71	-29.2	-31.7	12.5	1.06e-04	0	45	0	1617952768	18	4825
2026-01-20 02:41:21.38	270.62	8.65	-28.6	-31.3	12.4	1.13e-04	0	45	0	1621098496	18	4935
2026-01-20 02:41:22.38	270.50	8.58	-28.4	-31.1	11.2	2.14e-04	0	45	0	1624244224	18	4965
2026-01-20 02:41:23.39	270.39	8.52	-29.1	-31.5	12.6	8.39e-05	0	45	0	1627389952	18	4738
2026-01-20 02:41:24.39	270.27	8.46	-29.0	-31.7	12.8	1.17e-03	0	45	0	1630535680	17	4939
2026-01-20 02:41:25.40	270.16	8.40	-28.9	-31.6	12.8	6.56e-03	0	45	0	1633681408	17	4911
2026-01-20 02:41:26.40	270.05	8.34	-29.1	-31.5	12.6	6.56e-05	0	45	0	1636827136	18	4766
2026-01-20 02:41:27.40	269.94	8.28	-29.1	-31.5	12.6	1.05e-04	0	44	0	1639972864	18	4756
2026-01-20 02:41:28.40	269.83	8.22	-29.2	-31.9	12.4	1.38e-04	0	45	0	1643118592	18	4893
2026-01-20 02:41:29.40	269.71	8.15	-29.4	-32.2	12.1	7.12e-03	0	45	0	1646264320	18	5007
2026-01-20 02:41:30.40	269.60	8.09	-29.3	-32.1	12.2	2.19e-03	0	45	0	1649410048	18	4970
2026-01-20 02:41:31.41	269.49	8.03	-29.4	-32.3	12.1	2.77e-04	0	45	0	1652555776	18	5033
2026-01-20 02:41:32.40	269.38	7.97	-29.5	-32.1	11.8	3.26e-04	0	45	0	1655701504	19	4868
2026-01-20 02:41:33.41	269.27	7.91	-29.7	-32.6	11.6	8.55e-04	0	45	0	1658847232	19	5017
2026-01-20 02:41:34.42	269.16	7.85	-29.6	-32.4	11.7	4.68e-03	0	44	0	1661992960	19	4953
2026-01-20 02:41:35.41	269.06	7.79	-29.7	-32.8	11.4	5.55e-03	0	45	0	1665138688	19	5101
2026-01-20 02:41:36.41	268.95	7.73	-29.8	-32.8	11.4	1.10e-03	0	44	0	1667235840	19	5114
2026-01-20 02:41:37.41	268.84	7.67	-29.7	-32.5	11.6	8.31e-04	0	45	0	1670381568	19	5021
2026-01-20 02:41:38.42	268.73	7.61	-29.4	-32.4	11.9	3.89e-04	0	45	0	1673527296	18	5097
2026-01-20 02:41:39.42	268.63	7.55	-29.4	-32.4	12.0	6.38e-04	0	45	0	1676673024	18	5071
2026-01-20 02:41:40.42	268.52	7.49	-29.4	-32.4	12.0	5.92e-03	0	45	0	1679818752	18	5065
2026-01-20 02:41:41.42	268.42	7.43	-29.4	-32.3	11.9	6.18e-03	0	45	0	1682964480	18	5059
2026-01-20 02:41:42.43	268.31	7.36	-29.4	-32.5	11.9	3.20e-04	0	44	0	1686110208	18	5093
2026-01-20 02:41:43.43	268.21	7.30	-29.6	-32.4	11.6	6.30e-04	0	44	0	1689255936	19	4972
2026-01-20 02:41:44.43	268.10	7.24	-29.8	-33.0	11.1	8.76e-03	0	45	0	1692401664	19	5212
2026-01-20 02:41:45.43	268.00	7.18	-29.9	-33.2	11.0	5.91e-03	0	45	0	1695547392	19	5257
2026-01-20 02:41:46.43	267.90	7.12	-29.7	-32.8	11.3	1.02e-02	0	45	0	1698693120	19	5113
2026-01-20 02:41:47.44	267.79	7.06	-33.2	-45.0	3.8	6.50e-01	0	45	104	1701838848	26	14020
2026-01-20 02:41:48.43	267.69	7.00	-33.5	-45.4	3.8	1.49e+00	0	45	104	1701838848	27	14169
2026-01-20 02:41:49.44	267.59	6.94	-33.8	-46.0	3.8	1.49e+00	0	44	104	1701838848	27	14625

#Closed at: 2026-01-20 02:41:49
#Recorded file [1701 MB]: D:/data/31010_260120_053242.dat