passes_logs/2026/01/20/R2M6_AANII_01/R2M6_AANII_01__20260120_104438_NOAA_21_JPSS-2_rec.log

#Pass ID: 20260120_104438_NOAA 21 (JPSS-2)
#Satellite: NOAA 21 (JPSS-2)
#Configuration: NOAA 21
#almurnet v.1.7.20240730
#Start time: 2026-01-20 10:44:38

#Version: 2.2.20231116
#Station: R2M6_AANII_01
#Location: 30.233357 lon 59.946436 lat
#TLE: 1 54234U 22150A   26019.59425193  .00000067  00000+0  52811-4 0  9997
#TLE: 2 54234  98.7505 320.4385 0000607 256.3203 103.7906 14.19535690165464

#Time	Az	El	Level	Level2	SNR	BER	BlckErr	Temp	State	Recorded	gain1	gain2
2026-01-20 10:44:38.18	173.42	7.01	-33.9	-45.1	3.8	1.49e+00	0	44	0	0	29	13144
2026-01-20 10:44:39.17	173.44	7.09	-32.3	-38.8	4.1	1.49e+00	0	44	104	0	26	7597
2026-01-20 10:44:40.17	173.47	7.16	-31.3	-35.1	7.9	1.03e-01	0	44	0	0	24	5545
2026-01-20 10:44:41.17	173.50	7.24	-30.9	-34.4	8.8	4.00e-02	0	44	0	2097152	23	5344
2026-01-20 10:44:42.17	173.53	7.32	-30.7	-34.0	9.4	1.90e-02	0	44	0	5242880	22	5293
2026-01-20 10:44:43.17	173.56	7.40	-30.4	-33.1	10.0	9.08e-03	0	44	0	8388608	22	4939
2026-01-20 10:44:44.16	173.59	7.47	-30.0	-32.7	10.6	3.90e-03	0	44	0	11534336	21	4891
2026-01-20 10:44:45.16	173.62	7.55	-29.8	-32.1	11.0	2.13e-03	0	44	0	14680064	21	4666
2026-01-20 10:44:46.17	173.65	7.63	-29.5	-31.7	11.6	1.30e-03	0	44	0	17825792	20	4643
2026-01-20 10:44:47.17	173.68	7.71	-29.4	-31.5	11.7	4.89e-04	0	44	0	20971520	20	4584
2026-01-20 10:44:48.17	173.71	7.79	-29.3	-31.7	12.0	3.43e-04	0	44	0	24117248	19	4739
2026-01-20 10:44:49.18	173.74	7.87	-29.3	-31.6	12.1	2.62e-04	0	44	0	27262976	19	4699
2026-01-20 10:44:50.18	173.77	7.95	-29.3	-31.6	12.0	2.25e-04	0	44	0	30408704	19	4705
2026-01-20 10:44:51.18	173.80	8.02	-29.4	-31.9	11.9	3.58e-04	0	44	0	33554432	19	4786
2026-01-20 10:44:52.19	173.83	8.10	-29.5	-32.1	11.7	4.52e-04	0	44	0	36700160	19	4869
2026-01-20 10:44:53.19	173.86	8.18	-29.7	-32.7	11.3	9.77e-04	0	44	0	39845888	19	5090
2026-01-20 10:44:54.19	173.89	8.26	-29.9	-33.2	11.0	1.79e-03	0	44	0	42991616	19	5260
2026-01-20 10:44:55.19	173.92	8.34	-30.2	-33.5	10.4	4.12e-03	0	44	0	46137344	20	5297
2026-01-20 10:44:56.18	173.95	8.42	-30.4	-34.3	9.8	8.38e-03	0	44	0	49283072	20	5646
2026-01-20 10:44:57.19	173.98	8.51	-30.4	-33.8	9.8	1.09e-02	0	44	0	52428800	21	5319
2026-01-20 10:44:58.19	174.01	8.59	-30.2	-33.0	10.4	3.99e-03	0	44	0	55574528	21	4981
2026-01-20 10:44:59.19	174.04	8.67	-30.3	-33.5	10.0	8.07e-03	0	44	0	58720256	21	5193
2026-01-20 10:45:00.19	174.07	8.75	-30.1	-32.7	10.7	3.62e-03	0	44	0	61865984	21	4866
2026-01-20 10:45:01.18	174.11	8.83	-29.6	-31.9	11.5	1.01e-03	0	44	0	65011712	20	4706
2026-01-20 10:45:02.19	174.14	8.91	-29.3	-31.1	12.1	5.61e-04	0	44	0	68157440	20	4437
2026-01-20 10:45:03.19	174.17	9.00	-29.1	-31.1	12.5	2.07e-04	0	44	0	71303168	19	4530
2026-01-20 10:45:04.19	174.20	9.08	-29.2	-31.4	12.3	1.20e-04	0	44	0	74448896	19	4606
2026-01-20 10:45:05.19	174.23	9.16	-28.8	-30.4	12.9	4.65e-05	0	44	0	77594624	19	4319
2026-01-20 10:45:06.20	174.27	9.25	-29.0	-30.8	12.7	6.71e-05	0	44	0	80740352	19	4420
2026-01-20 10:45:07.21	174.30	9.33	-28.9	-30.6	12.8	6.86e-05	0	44	0	83886080	19	4376
2026-01-20 10:45:08.21	174.33	9.41	-29.0	-30.9	12.7	7.70e-05	0	44	0	87031808	19	4450
2026-01-20 10:45:09.22	174.37	9.50	-29.3	-31.5	12.3	1.52e-04	0	44	0	90177536	19	4641
2026-01-20 10:45:10.22	174.40	9.58	-29.0	-30.8	12.7	9.91e-05	0	44	0	93323264	19	4437
2026-01-20 10:45:11.22	174.43	9.67	-28.8	-30.8	13.0	3.28e-05	0	44	0	96468992	18	4543
2026-01-20 10:45:12.22	174.47	9.75	-28.9	-31.0	13.0	3.28e-05	0	44	0	99614720	18	4588
2026-01-20 10:45:13.22	174.50	9.84	-28.9	-30.9	13.0	5.41e-05	0	44	0	102760448	18	4578
2026-01-20 10:45:14.23	174.53	9.92	-28.8	-30.7	13.1	2.21e-05	0	44	0	105906176	18	4503
2026-01-20 10:45:15.23	174.57	10.01	-29.0	-31.2	12.8	5.72e-05	0	44	0	109051904	18	4661
2026-01-20 10:45:16.23	174.60	10.09	-28.9	-31.0	12.9	4.50e-05	0	44	0	112197632	18	4610
2026-01-20 10:45:17.24	174.64	10.18	-28.8	-30.9	13.0	4.19e-05	0	44	0	115343360	18	4550
2026-01-20 10:45:18.24	174.67	10.27	-29.2	-31.8	12.4	7.24e-05	0	44	0	118489088	18	4876
2026-01-20 10:45:19.25	174.71	10.36	-29.4	-32.2	12.2	2.95e-04	0	44	0	121634816	18	5004
2026-01-20 10:45:20.25	174.74	10.44	-29.3	-31.9	12.3	1.64e-04	0	44	0	124780544	18	4896
2026-01-20 10:45:21.24	174.78	10.53	-29.2	-31.8	12.5	1.37e-04	0	44	0	127926272	18	4850
2026-01-20 10:45:22.25	174.81	10.62	-29.4	-32.3	12.2	3.02e-04	0	44	0	131072000	18	5028
2026-01-20 10:45:23.25	174.85	10.71	-29.2	-31.8	12.5	1.40e-04	0	44	0	134217728	18	4846
2026-01-20 10:45:24.26	174.88	10.80	-29.1	-31.5	12.7	1.07e-04	0	44	0	137363456	18	4735
2026-01-20 10:45:25.26	174.92	10.88	-29.0	-31.3	12.8	5.11e-05	0	44	0	140509184	18	4695
2026-01-20 10:45:26.27	174.96	10.97	-29.0	-31.3	12.8	6.02e-05	0	44	0	143654912	18	4693
2026-01-20 10:45:27.27	174.99	11.06	-29.1	-31.5	12.7	7.47e-05	0	44	0	146800640	18	4743
2026-01-20 10:45:28.28	175.03	11.15	-29.1	-31.6	12.6	1.32e-04	0	44	0	149946368	18	4794
2026-01-20 10:45:29.28	175.07	11.24	-28.8	-30.9	13.0	4.11e-05	0	44	0	153092096	18	4560
2026-01-20 10:45:30.28	175.10	11.33	-28.6	-30.3	13.4	2.05e-05	0	44	0	156237824	18	4387
2026-01-20 10:45:31.28	175.14	11.42	-28.5	-30.1	13.6	2.36e-05	0	44	0	159383552	18	4315
2026-01-20 10:45:32.29	175.18	11.52	-28.3	-29.7	13.8	3.00e-06	0	44	0	162529280	18	4202
2026-01-20 10:45:33.30	175.22	11.61	-28.5	-30.0	13.6	1.06e-05	0	44	0	165675008	18	4294
2026-01-20 10:45:34.30	175.25	11.70	-28.4	-29.9	13.7	1.83e-05	0	44	0	168820736	18	4266
2026-01-20 10:45:35.30	175.29	11.79	-28.3	-29.7	13.9	6.80e-06	0	44	0	171966464	18	4197
2026-01-20 10:45:36.29	175.33	11.88	-28.5	-30.1	13.6	3.00e-06	0	44	0	175112192	18	4320
2026-01-20 10:45:37.30	175.37	11.98	-28.4	-29.9	13.7	2.21e-05	0	44	0	178257920	18	4272
2026-01-20 10:45:38.29	175.41	12.07	-28.3	-29.6	13.9	3.00e-06	0	44	0	181403648	18	4175
2026-01-20 10:45:39.28	175.45	12.16	-28.1	-29.7	14.1	2.20e-06	0	44	0	184549376	17	4301
2026-01-20 10:45:40.28	175.48	12.25	-28.2	-29.7	14.1	7.00e-07	0	44	0	187695104	17	4310
2026-01-20 10:45:41.28	175.52	12.35	-28.2	-29.7	14.1	0.00e+00	0	44	0	190840832	17	4302
2026-01-20 10:45:42.27	175.56	12.44	-28.1	-29.5	14.2	0.00e+00	0	44	0	193986560	17	4252
2026-01-20 10:45:43.27	175.60	12.54	-28.2	-29.9	14.0	1.50e-06	0	44	0	197132288	17	4355
2026-01-20 10:45:44.27	175.64	12.63	-28.2	-29.9	14.0	1.50e-06	0	44	0	200278016	17	4367
2026-01-20 10:45:45.27	175.68	12.73	-28.2	-29.7	14.1	2.20e-06	0	44	0	203423744	17	4312
2026-01-20 10:45:46.27	175.72	12.82	-28.0	-29.4	14.4	1.60e-05	0	44	0	205520896	17	4208
2026-01-20 10:45:47.27	175.76	12.92	-28.2	-29.7	14.2	0.00e+00	0	44	0	208666624	17	4293
2026-01-20 10:45:48.27	175.81	13.02	-28.2	-29.7	14.2	2.20e-06	0	44	0	211812352	17	4306
2026-01-20 10:45:49.27	175.85	13.11	-28.1	-29.6	14.3	1.50e-06	0	44	0	214958080	17	4280
2026-01-20 10:45:50.27	175.89	13.21	-28.3	-30.0	14.0	7.00e-07	0	44	0	218103808	17	4389
2026-01-20 10:45:51.27	175.93	13.31	-28.4	-30.3	13.9	4.50e-06	0	44	0	221249536	17	4471
2026-01-20 10:45:52.27	175.97	13.41	-28.2	-29.7	14.2	1.50e-06	0	44	0	224395264	17	4297
2026-01-20 10:45:53.27	176.01	13.50	-28.0	-29.4	14.4	1.50e-06	0	44	0	227540992	17	4197
2026-01-20 10:45:54.27	176.06	13.60	-28.0	-29.2	14.5	7.00e-07	0	44	0	230686720	17	4173
2026-01-20 10:45:55.27	176.10	13.70	-28.1	-29.5	14.4	1.50e-06	0	44	0	233832448	17	4237
2026-01-20 10:45:56.26	176.14	13.80	-28.0	-29.3	14.5	7.00e-07	0	44	0	236978176	17	4175
2026-01-20 10:45:57.27	176.19	13.90	-28.1	-29.5	14.4	7.00e-07	0	44	0	240123904	17	4236
2026-01-20 10:45:58.27	176.23	14.00	-28.0	-29.3	14.5	7.00e-07	0	44	0	243269632	17	4185
2026-01-20 10:45:59.28	176.27	14.10	-27.9	-29.2	14.6	1.50e-06	0	44	0	246415360	17	4149
2026-01-20 10:46:00.28	176.32	14.20	-28.1	-29.6	14.3	0.00e+00	0	44	0	249561088	17	4267
2026-01-20 10:46:01.27	176.36	14.31	-28.2	-29.8	14.2	7.00e-07	0	44	0	252706816	17	4315
2026-01-20 10:46:02.28	176.41	14.41	-28.0	-29.4	14.5	7.00e-07	0	44	0	255852544	17	4202
2026-01-20 10:46:03.28	176.45	14.51	-28.0	-29.4	14.5	0.00e+00	0	44	0	258998272	17	4211
2026-01-20 10:46:04.27	176.50	14.61	-28.2	-29.7	14.3	7.00e-07	0	44	0	262144000	17	4279
2026-01-20 10:46:05.27	176.54	14.72	-28.1	-29.5	14.4	7.00e-07	0	44	0	265289728	17	4246
2026-01-20 10:46:06.27	176.59	14.82	-28.1	-29.6	14.4	1.50e-06	0	44	0	268435456	17	4267
2026-01-20 10:46:07.27	176.63	14.92	-28.2	-29.7	14.3	7.00e-07	0	44	0	271581184	17	4302
2026-01-20 10:46:08.27	176.68	15.03	-28.2	-29.8	14.3	1.50e-06	0	45	0	274726912	17	4334
2026-01-20 10:46:09.27	176.73	15.13	-28.2	-29.7	14.3	7.00e-07	0	44	0	277872640	17	4304
2026-01-20 10:46:10.27	176.77	15.24	-28.3	-29.9	14.2	7.00e-07	0	44	0	281018368	17	4345
2026-01-20 10:46:11.27	176.82	15.34	-28.5	-30.5	13.9	3.00e-06	0	44	0	284164096	17	4517
2026-01-20 10:46:12.27	176.87	15.45	-28.3	-29.9	14.2	7.00e-07	0	44	0	287309824	17	4349
2026-01-20 10:46:13.27	176.92	15.56	-28.3	-29.9	14.2	7.00e-07	0	44	0	290455552	17	4359
2026-01-20 10:46:14.27	176.97	15.66	-28.3	-30.0	14.2	3.00e-06	0	44	0	293601280	17	4368
2026-01-20 10:46:15.28	177.02	15.77	-28.2	-29.9	14.3	3.00e-06	0	44	0	296747008	17	4340
2026-01-20 10:46:16.28	177.06	15.88	-28.4	-30.2	14.1	7.00e-07	0	44	0	299892736	17	4447
2026-01-20 10:46:17.29	177.11	15.99	-28.2	-29.8	14.3	7.00e-07	0	44	0	303038464	17	4335
2026-01-20 10:46:18.29	177.16	16.10	-28.1	-29.6	14.4	1.50e-06	0	44	0	306184192	17	4255
2026-01-20 10:46:19.29	177.21	16.21	-28.1	-29.5	14.5	0.00e+00	0	44	0	309329920	17	4246
2026-01-20 10:46:20.29	177.26	16.32	-28.2	-29.7	14.3	2.20e-06	0	44	0	312475648	17	4300
2026-01-20 10:46:21.30	177.32	16.43	-28.1	-29.5	14.5	2.20e-06	0	45	0	315621376	17	4226
2026-01-20 10:46:22.29	177.37	16.54	-28.1	-29.6	14.4	1.50e-06	0	44	0	318767104	17	4277
2026-01-20 10:46:23.30	177.42	16.65	-28.2	-29.8	14.3	0.00e+00	0	44	0	321912832	17	4334
2026-01-20 10:46:24.30	177.47	16.76	-28.1	-29.5	14.5	1.50e-06	0	44	0	325058560	17	4250
2026-01-20 10:46:25.31	177.52	16.88	-28.1	-29.5	14.5	2.20e-06	0	44	0	328204288	17	4236
2026-01-20 10:46:26.31	177.57	16.99	-28.2	-29.8	14.3	0.00e+00	0	44	0	331350016	17	4309
2026-01-20 10:46:27.31	177.63	17.10	-28.2	-29.7	14.4	1.50e-06	0	44	0	334495744	17	4288
2026-01-20 10:46:28.32	177.68	17.22	-28.1	-29.5	14.5	7.00e-07	0	44	0	337641472	17	4245
2026-01-20 10:46:29.32	177.74	17.33	-28.1	-29.5	14.5	0.00e+00	0	44	0	340787200	17	4244
2026-01-20 10:46:30.32	177.79	17.45	-28.1	-29.7	14.4	7.00e-07	0	44	0	343932928	17	4290
2026-01-20 10:46:31.32	177.84	17.56	-28.1	-29.6	14.5	0.00e+00	0	44	0	347078656	17	4267
2026-01-20 10:46:32.33	177.90	17.68	-28.2	-29.7	14.4	0.00e+00	0	44	0	350224384	17	4294
2026-01-20 10:46:33.33	177.95	17.80	-28.2	-29.7	14.4	1.50e-06	0	44	0	353370112	17	4290
2026-01-20 10:46:34.34	178.01	17.92	-28.1	-29.5	14.5	7.00e-07	0	44	0	356515840	17	4233
2026-01-20 10:46:35.33	178.07	18.03	-28.1	-29.5	14.6	0.00e+00	0	44	0	359661568	17	4222
2026-01-20 10:46:36.33	178.12	18.15	-28.2	-29.7	14.4	1.50e-06	0	44	0	362807296	17	4286
2026-01-20 10:46:37.34	178.18	18.27	-28.1	-29.4	14.6	0.00e+00	0	45	0	365953024	17	4222
2026-01-20 10:46:38.34	178.24	18.39	-28.0	-29.3	14.6	1.50e-06	0	44	0	369098752	17	4190
2026-01-20 10:46:39.34	178.29	18.51	-28.0	-29.4	14.6	6.80e-06	0	44	0	372244480	17	4215
2026-01-20 10:46:40.35	178.35	18.63	-28.0	-29.3	14.7	1.50e-06	0	44	0	375390208	17	4176
2026-01-20 10:46:41.35	178.41	18.75	-27.9	-29.1	14.8	0.00e+00	0	44	0	378535936	17	4123
2026-01-20 10:46:42.36	178.47	18.88	-27.9	-29.2	14.7	4.50e-06	0	44	0	381681664	17	4146
2026-01-20 10:46:43.36	178.53	19.00	-27.8	-28.8	14.9	0.00e+00	0	44	0	384827392	17	4063
2026-01-20 10:46:44.37	178.59	19.12	-27.8	-28.9	14.9	0.00e+00	0	44	0	387973120	17	4092
2026-01-20 10:46:45.37	178.65	19.24	-27.8	-29.3	15.0	1.14e-05	0	44	0	391118848	16	4295
2026-01-20 10:46:46.36	178.71	19.37	-27.7	-29.2	15.0	7.00e-07	0	44	0	394264576	16	4260
2026-01-20 10:46:47.37	178.77	19.49	-27.7	-29.1	15.1	0.00e+00	0	44	0	397410304	16	4242
2026-01-20 10:46:48.38	178.84	19.62	-27.7	-29.1	15.1	6.80e-06	0	44	0	400556032	16	4219
2026-01-20 10:46:49.38	178.90	19.74	-27.7	-29.1	15.1	0.00e+00	0	44	0	403701760	16	4224
2026-01-20 10:46:50.39	178.96	19.87	-27.7	-29.2	15.1	0.00e+00	0	44	0	406847488	16	4248
2026-01-20 10:46:51.39	179.02	20.00	-27.6	-28.9	15.3	0.00e+00	0	44	0	409993216	16	4165
2026-01-20 10:46:52.39	179.09	20.13	-27.7	-29.0	15.2	0.00e+00	0	44	0	413138944	16	4204
2026-01-20 10:46:53.39	179.15	20.25	-27.6	-28.8	15.3	0.00e+00	0	44	0	416284672	16	4149
2026-01-20 10:46:54.38	179.22	20.38	-27.6	-28.9	15.3	5.30e-06	0	44	0	419430400	16	4173
2026-01-20 10:46:55.39	179.28	20.51	-27.6	-28.8	15.4	0.00e+00	0	45	0	422576128	16	4129
2026-01-20 10:46:56.39	179.35	20.64	-27.6	-28.9	15.3	0.00e+00	0	45	0	425721856	16	4169
2026-01-20 10:46:57.39	179.41	20.77	-27.7	-29.1	15.2	0.00e+00	0	44	0	428867584	16	4231
2026-01-20 10:46:58.38	179.48	20.90	-27.6	-28.8	15.3	0.00e+00	0	44	0	432013312	16	4135
2026-01-20 10:46:59.39	179.55	21.04	-27.5	-28.7	15.4	0.00e+00	0	44	0	435159040	16	4100
2026-01-20 10:47:00.39	179.62	21.17	-27.5	-28.6	15.5	0.00e+00	0	44	0	437256192	16	4072
2026-01-20 10:47:01.39	179.68	21.30	-27.5	-28.5	15.5	0.00e+00	0	44	0	440401920	16	4047
2026-01-20 10:47:02.39	179.75	21.44	-27.4	-28.4	15.6	0.00e+00	0	44	0	443547648	16	4030
2026-01-20 10:47:03.39	179.82	21.57	-27.4	-28.3	15.6	0.00e+00	0	44	0	446693376	16	4015
2026-01-20 10:47:04.40	179.89	21.71	-27.5	-28.6	15.5	0.00e+00	0	44	0	449839104	16	4079
2026-01-20 10:47:05.41	179.96	21.84	-27.5	-28.5	15.6	0.00e+00	0	44	0	452984832	16	4050
2026-01-20 10:47:06.41	180.04	21.98	-27.6	-28.9	15.3	0.00e+00	0	45	0	456130560	16	4155
2026-01-20 10:47:07.41	180.11	22.12	-27.6	-28.8	15.4	0.00e+00	0	44	0	459276288	16	4133
2026-01-20 10:47:08.41	180.18	22.26	-27.4	-28.4	15.6	0.00e+00	0	45	0	462422016	16	4023
2026-01-20 10:47:09.41	180.25	22.40	-27.4	-28.4	15.6	0.00e+00	0	44	0	465567744	16	4014
2026-01-20 10:47:10.41	180.33	22.54	-27.4	-28.4	15.6	0.00e+00	0	44	0	468713472	16	4026
2026-01-20 10:47:11.41	180.40	22.68	-27.1	-28.2	15.8	0.00e+00	0	44	0	471859200	15	4081
2026-01-20 10:47:12.42	180.48	22.82	-27.1	-28.1	15.9	0.00e+00	0	44	0	475004928	15	4059
2026-01-20 10:47:13.42	180.55	22.96	-27.0	-28.1	15.9	0.00e+00	0	44	0	478150656	15	4051
2026-01-20 10:47:14.42	180.63	23.10	-27.0	-28.0	15.9	0.00e+00	0	45	0	481296384	15	4039
2026-01-20 10:47:15.43	180.71	23.25	-26.9	-27.8	16.1	0.00e+00	0	45	0	484442112	15	3982
2026-01-20 10:47:16.43	180.78	23.39	-26.9	-27.7	16.2	0.00e+00	0	44	0	487587840	15	3945
2026-01-20 10:47:17.44	180.86	23.54	-26.8	-27.6	16.2	0.00e+00	0	44	0	490733568	15	3933
2026-01-20 10:47:18.44	180.94	23.68	-26.9	-27.8	16.1	0.00e+00	0	45	0	493879296	15	3986
2026-01-20 10:47:19.44	181.02	23.83	-26.9	-27.8	16.1	0.00e+00	0	44	0	497025024	15	3986
2026-01-20 10:47:20.45	181.10	23.98	-26.8	-27.6	16.2	0.00e+00	0	44	0	500170752	15	3915
2026-01-20 10:47:21.45	181.19	24.12	-27.0	-27.9	16.1	0.00e+00	0	44	0	503316480	15	3999
2026-01-20 10:47:22.45	181.27	24.27	-27.0	-27.9	16.1	0.00e+00	0	44	0	506462208	15	3991
2026-01-20 10:47:23.45	181.35	24.42	-26.9	-27.7	16.2	0.00e+00	0	44	0	509607936	15	3946
2026-01-20 10:47:24.46	181.43	24.57	-26.9	-27.6	16.2	0.00e+00	0	44	0	512753664	15	3933
2026-01-20 10:47:25.46	181.52	24.72	-26.9	-27.7	16.2	0.00e+00	0	44	0	515899392	15	3952
2026-01-20 10:47:26.47	181.60	24.88	-26.9	-27.7	16.2	0.00e+00	0	44	0	519045120	15	3960
2026-01-20 10:47:27.46	181.69	25.03	-27.0	-27.9	16.1	0.00e+00	0	44	0	522190848	15	4007
2026-01-20 10:47:28.47	181.78	25.18	-26.9	-27.7	16.2	0.00e+00	0	44	0	525336576	15	3955
2026-01-20 10:47:29.47	181.86	25.34	-26.9	-27.7	16.2	0.00e+00	0	44	0	528482304	15	3962
2026-01-20 10:47:30.46	181.95	25.49	-26.9	-27.8	16.2	0.00e+00	0	44	0	531628032	15	3970
2026-01-20 10:47:31.46	182.04	25.65	-27.0	-27.9	16.1	0.00e+00	0	45	0	534773760	15	4009
2026-01-20 10:47:32.45	182.13	25.80	-27.1	-28.2	15.9	0.00e+00	0	44	0	537919488	15	4087
2026-01-20 10:47:33.44	182.22	25.96	-27.2	-28.5	15.8	0.00e+00	0	44	0	541065216	15	4147
2026-01-20 10:47:34.44	182.31	26.12	-27.2	-28.4	15.9	0.00e+00	0	44	0	544210944	15	4142
2026-01-20 10:47:35.45	182.40	26.28	-27.3	-28.7	15.7	0.00e+00	0	44	0	547356672	15	4202
2026-01-20 10:47:36.46	182.50	26.44	-27.6	-29.2	15.4	0.00e+00	0	44	0	550502400	15	4346
2026-01-20 10:47:37.46	182.59	26.60	-27.6	-29.4	15.3	0.00e+00	0	44	0	553648128	15	4394
2026-01-20 10:47:38.46	182.69	26.76	-27.6	-29.4	15.3	0.00e+00	0	45	0	556793856	15	4394
2026-01-20 10:47:39.47	182.79	26.93	-27.6	-29.2	15.4	0.00e+00	0	44	0	559939584	15	4358
2026-01-20 10:47:40.47	182.88	27.09	-27.7	-29.5	15.3	0.00e+00	0	45	0	563085312	15	4418
2026-01-20 10:47:41.47	182.98	27.25	-27.7	-29.4	15.3	0.00e+00	0	44	0	566231040	15	4401
2026-01-20 10:47:42.48	183.08	27.42	-27.7	-29.4	15.3	0.00e+00	0	44	0	569376768	15	4399
2026-01-20 10:47:43.48	183.18	27.59	-27.8	-29.6	15.2	0.00e+00	0	44	0	572522496	15	4463
2026-01-20 10:47:44.48	183.28	27.76	-27.7	-29.6	15.2	7.00e-07	0	44	0	575668224	15	4461
2026-01-20 10:47:45.48	183.38	27.92	-27.8	-29.7	15.2	0.00e+00	0	44	0	578813952	15	4485
2026-01-20 10:47:46.48	183.49	28.09	-27.8	-29.7	15.2	0.00e+00	0	44	0	581959680	15	4482
2026-01-20 10:47:47.48	183.59	28.26	-27.7	-29.6	15.2	0.00e+00	0	44	0	585105408	15	4456
2026-01-20 10:47:48.48	183.70	28.43	-27.8	-29.8	15.2	0.00e+00	0	44	0	588251136	15	4512
2026-01-20 10:47:49.49	183.80	28.61	-27.9	-29.9	15.1	0.00e+00	0	44	0	591396864	15	4559
2026-01-20 10:47:50.49	183.91	28.78	-27.9	-30.1	15.0	0.00e+00	0	44	0	594542592	15	4607
2026-01-20 10:47:51.49	184.02	28.96	-28.2	-30.0	14.9	7.00e-07	0	44	0	597688320	16	4450
2026-01-20 10:47:52.49	184.13	29.13	-28.2	-30.1	14.9	0.00e+00	0	44	0	600834048	16	4478
2026-01-20 10:47:53.49	184.24	29.31	-28.2	-30.0	14.9	7.00e-07	0	44	0	603979776	16	4450
2026-01-20 10:47:54.49	184.35	29.48	-28.1	-29.9	15.0	7.00e-07	0	44	0	607125504	16	4435
2026-01-20 10:47:55.49	184.47	29.66	-28.1	-29.8	15.0	0.00e+00	0	44	0	610271232	16	4400
2026-01-20 10:47:56.48	184.58	29.84	-27.9	-29.4	15.3	7.00e-07	0	44	0	613416960	16	4275
2026-01-20 10:47:57.49	184.70	30.02	-27.9	-29.4	15.3	0.00e+00	0	44	0	616562688	16	4290
2026-01-20 10:47:58.49	184.81	30.20	-27.9	-29.3	15.3	0.00e+00	0	44	0	619708416	16	4256
2026-01-20 10:47:59.49	184.93	30.38	-28.0	-29.5	15.2	0.00e+00	0	44	0	622854144	16	4320
2026-01-20 10:48:00.49	185.05	30.57	-27.9	-29.3	15.3	0.00e+00	0	44	0	625999872	16	4258
2026-01-20 10:48:01.49	185.17	30.75	-27.7	-29.0	15.5	0.00e+00	0	44	0	629145600	16	4174
2026-01-20 10:48:02.50	185.30	30.94	-27.8	-29.1	15.5	0.00e+00	0	44	0	632291328	16	4199
2026-01-20 10:48:03.50	185.42	31.12	-27.7	-29.0	15.6	0.00e+00	0	44	0	635437056	16	4162
2026-01-20 10:48:04.50	185.54	31.31	-27.6	-28.8	15.6	0.00e+00	0	44	0	638582784	16	4120
2026-01-20 10:48:05.50	185.67	31.50	-27.7	-28.9	15.6	0.00e+00	0	44	0	640679936	16	4129
2026-01-20 10:48:06.51	185.80	31.69	-27.8	-29.1	15.5	0.00e+00	0	44	0	643825664	16	4209
2026-01-20 10:48:07.51	185.93	31.88	-27.9	-29.4	15.3	0.00e+00	0	44	0	646971392	16	4265
2026-01-20 10:48:08.52	186.06	32.07	-27.9	-29.5	15.3	0.00e+00	0	44	0	650117120	16	4297
2026-01-20 10:48:09.52	186.19	32.27	-27.9	-29.5	15.3	0.00e+00	0	44	0	653262848	16	4302
2026-01-20 10:48:10.52	186.33	32.46	-28.0	-29.6	15.2	0.00e+00	0	44	0	656408576	16	4346
2026-01-20 10:48:11.52	186.46	32.66	-28.1	-29.8	15.1	0.00e+00	0	44	0	659554304	16	4377
2026-01-20 10:48:12.51	186.60	32.85	-28.2	-30.2	14.9	0.00e+00	0	44	0	662700032	16	4492
2026-01-20 10:48:13.52	186.74	33.05	-28.2	-30.2	14.9	0.00e+00	0	44	0	665845760	16	4512
2026-01-20 10:48:14.52	186.88	33.25	-28.3	-30.4	14.8	0.00e+00	0	44	0	668991488	16	4562
2026-01-20 10:48:15.52	187.02	33.45	-28.4	-30.5	14.8	0.00e+00	0	45	0	672137216	16	4585
2026-01-20 10:48:16.52	187.16	33.65	-28.3	-30.4	14.8	0.00e+00	0	44	0	675282944	16	4566
2026-01-20 10:48:17.52	187.31	33.85	-28.4	-30.5	14.7	0.00e+00	0	44	0	678428672	16	4591
2026-01-20 10:48:18.51	187.45	34.05	-28.4	-30.5	14.7	0.00e+00	0	44	0	681574400	16	4586
2026-01-20 10:48:19.51	187.60	34.25	-28.3	-30.2	14.9	0.00e+00	0	44	0	684720128	16	4514
2026-01-20 10:48:20.51	187.75	34.46	-28.3	-30.3	14.9	0.00e+00	0	44	0	687865856	16	4521
2026-01-20 10:48:21.52	187.91	34.66	-28.3	-30.4	14.8	0.00e+00	0	44	0	691011584	16	4556
2026-01-20 10:48:22.52	188.06	34.87	-28.5	-30.7	14.6	0.00e+00	0	44	0	694157312	16	4640
2026-01-20 10:48:23.52	188.22	35.08	-28.7	-30.8	14.2	7.00e-07	0	44	0	697303040	17	4578
2026-01-20 10:48:24.53	188.38	35.29	-29.0	-31.4	13.9	7.00e-07	0	44	0	700448768	17	4773
2026-01-20 10:48:25.53	188.54	35.50	-29.2	-31.4	13.7	5.30e-06	0	44	0	703594496	18	4641
2026-01-20 10:48:26.54	188.70	35.72	-29.4	-31.9	13.4	6.10e-06	0	45	0	706740224	18	4819
2026-01-20 10:48:27.54	188.87	35.93	-29.5	-32.0	13.3	1.60e-05	0	44	0	709885952	18	4847
2026-01-20 10:48:28.55	189.04	36.14	-29.5	-31.6	13.2	1.75e-05	0	44	0	713031680	19	4603
2026-01-20 10:48:29.55	189.21	36.36	-29.4	-31.4	13.4	1.60e-05	0	44	0	716177408	19	4516
2026-01-20 10:48:30.55	189.38	36.58	-29.3	-31.3	13.4	1.29e-05	0	44	0	719323136	19	4485
2026-01-20 10:48:31.55	189.55	36.79	-29.4	-31.4	13.4	9.10e-06	0	44	0	722468864	19	4520
2026-01-20 10:48:32.56	189.73	37.01	-29.4	-31.5	13.3	1.06e-05	0	44	0	725614592	19	4552
2026-01-20 10:48:33.55	189.90	37.23	-29.7	-32.1	13.0	1.98e-05	0	44	0	728760320	19	4745
2026-01-20 10:48:34.55	190.08	37.45	-29.8	-32.4	12.8	7.09e-05	0	44	0	731906048	19	4841
2026-01-20 10:48:35.55	190.27	37.68	-30.0	-32.8	12.6	4.73e-05	0	44	0	735051776	19	4976
2026-01-20 10:48:36.56	190.45	37.90	-29.9	-32.2	12.5	1.38e-04	0	44	0	738197504	20	4694
2026-01-20 10:48:37.56	190.64	38.13	-29.6	-31.4	13.0	4.19e-05	0	44	0	741343232	20	4433
2026-01-20 10:48:38.56	190.83	38.35	-29.5	-31.1	13.2	2.05e-05	0	44	0	744488960	20	4341
2026-01-20 10:48:39.55	191.02	38.58	-29.4	-30.9	13.3	1.44e-05	0	44	0	747634688	20	4280
2026-01-20 10:48:40.55	191.22	38.80	-29.4	-30.9	13.3	2.59e-05	0	44	0	750780416	20	4285
2026-01-20 10:48:41.56	191.42	39.04	-29.4	-30.8	13.4	1.44e-05	0	44	0	753926144	20	4259
2026-01-20 10:48:42.55	191.62	39.26	-29.4	-30.8	13.4	1.90e-05	0	44	0	757071872	20	4261
2026-01-20 10:48:43.55	191.82	39.49	-29.4	-30.8	13.4	9.90e-06	0	44	0	760217600	20	4257
2026-01-20 10:48:44.56	192.03	39.73	-29.5	-31.1	13.2	1.75e-05	0	44	0	763363328	20	4348
2026-01-20 10:48:45.56	192.24	39.96	-29.5	-31.1	13.3	1.29e-05	0	44	0	766509056	20	4344
2026-01-20 10:48:46.56	192.45	40.20	-29.6	-31.4	13.1	2.82e-05	0	44	0	769654784	20	4427
2026-01-20 10:48:47.56	192.66	40.43	-29.6	-31.3	13.2	2.28e-05	0	44	0	772800512	20	4395
2026-01-20 10:48:48.56	192.88	40.67	-29.6	-31.4	13.1	3.58e-05	0	44	0	775946240	20	4444
2026-01-20 10:48:49.55	193.10	40.91	-29.6	-31.4	13.1	3.73e-05	0	44	0	779091968	20	4423
2026-01-20 10:48:50.55	193.33	41.15	-29.8	-31.8	12.9	6.79e-05	0	44	0	782237696	20	4540
2026-01-20 10:48:51.55	193.56	41.39	-29.8	-31.8	12.9	5.56e-05	0	45	0	785383424	20	4550
2026-01-20 10:48:52.55	193.79	41.63	-29.7	-31.7	12.9	4.65e-05	0	44	0	788529152	20	4510
2026-01-20 10:48:53.55	194.02	41.87	-29.7	-31.7	12.9	4.11e-05	0	44	0	791674880	20	4508
2026-01-20 10:48:54.56	194.26	42.12	-29.7	-31.5	13.0	3.50e-05	0	44	0	794820608	20	4463
2026-01-20 10:48:55.56	194.51	42.36	-29.6	-31.5	13.0	2.74e-05	0	44	0	797966336	20	4450
2026-01-20 10:48:56.56	194.75	42.61	-29.7	-31.6	13.0	3.05e-05	0	44	0	801112064	20	4487
2026-01-20 10:48:57.56	195.00	42.86	-29.8	-31.9	12.8	5.26e-05	0	44	0	804257792	20	4585
2026-01-20 10:48:58.55	195.25	43.10	-29.8	-32.0	12.8	7.47e-05	0	44	0	807403520	20	4608
2026-01-20 10:48:59.56	195.51	43.35	-29.9	-32.1	12.7	7.62e-05	0	45	0	810549248	20	4639
2026-01-20 10:49:00.56	195.77	43.60	-29.8	-31.9	12.8	6.79e-05	0	44	0	813694976	20	4596
2026-01-20 10:49:01.56	196.04	43.85	-29.9	-32.2	12.6	6.86e-05	0	44	0	816840704	20	4696
2026-01-20 10:49:02.56	196.31	44.11	-29.8	-31.9	12.8	7.32e-05	0	44	0	819986432	20	4567
2026-01-20 10:49:03.56	196.58	44.36	-29.6	-31.5	13.1	3.73e-05	0	44	0	823132160	20	4442
2026-01-20 10:49:04.57	196.86	44.61	-29.5	-31.2	13.2	2.44e-05	0	44	0	825229312	20	4368
2026-01-20 10:49:05.57	197.14	44.87	-29.5	-31.2	13.3	2.82e-05	0	44	0	828375040	20	4364
2026-01-20 10:49:06.57	197.43	45.12	-29.3	-31.2	13.6	9.90e-06	0	44	0	831520768	19	4456
2026-01-20 10:49:07.58	197.72	45.38	-29.5	-31.5	13.5	1.22e-05	0	45	0	834666496	19	4564
2026-01-20 10:49:08.58	198.02	45.64	-29.7	-32.0	13.1	2.74e-05	0	44	0	838860800	19	4725
2026-01-20 10:49:09.58	198.32	45.90	-30.0	-32.8	12.6	5.41e-05	0	44	0	842006528	19	4991
2026-01-20 10:49:10.58	198.63	46.16	-30.0	-32.5	12.5	1.35e-04	0	44	0	845152256	20	4769
2026-01-20 10:49:11.57	198.93	46.42	-30.2	-32.8	12.3	1.84e-04	0	44	0	847249408	20	4866
2026-01-20 10:49:12.57	199.25	46.68	-30.0	-32.4	12.5	1.16e-04	0	45	0	850395136	20	4747
2026-01-20 10:49:13.58	199.58	46.94	-30.0	-32.3	12.6	1.06e-04	0	45	0	853540864	20	4700
2026-01-20 10:49:14.58	199.90	47.20	-30.1	-32.6	12.4	8.16e-05	0	45	0	856686592	20	4826
2026-01-20 10:49:15.59	200.24	47.47	-30.2	-32.8	12.3	1.54e-04	0	44	0	859832320	20	4882
2026-01-20 10:49:16.59	200.57	47.73	-30.3	-33.1	12.1	2.55e-04	0	44	0	862978048	20	4981
2026-01-20 10:49:17.60	200.92	47.99	-30.2	-32.9	12.2	2.30e-04	0	44	0	866123776	20	4913
2026-01-20 10:49:18.60	201.27	48.26	-30.0	-32.4	12.6	1.01e-04	0	44	0	869269504	20	4739
2026-01-20 10:49:19.61	201.63	48.53	-29.8	-32.0	12.8	4.42e-05	0	45	0	872415232	20	4612
2026-01-20 10:49:20.61	201.99	48.79	-30.0	-32.4	12.6	7.24e-05	0	44	0	875560960	20	4744
2026-01-20 10:49:21.61	202.36	49.06	-30.1	-32.6	12.4	1.69e-04	0	44	0	878706688	20	4809
2026-01-20 10:49:22.61	202.73	49.32	-30.4	-33.4	12.0	3.01e-04	0	45	0	881852416	20	5084
2026-01-20 10:49:23.61	203.11	49.59	-30.6	-33.4	11.6	5.01e-04	0	45	0	884998144	21	4988
2026-01-20 10:49:24.61	203.50	49.85	-30.4	-32.8	12.0	5.65e-04	0	45	0	888143872	21	4755
2026-01-20 10:49:25.60	203.89	50.12	-30.0	-31.9	12.6	1.19e-04	0	45	0	891289600	21	4453
2026-01-20 10:49:26.60	204.29	50.38	-29.7	-31.5	13.1	2.59e-05	0	45	0	894435328	20	4450
2026-01-20 10:49:27.60	204.69	50.65	-29.4	-30.9	13.5	1.44e-05	0	45	0	897581056	20	4257
2026-01-20 10:49:28.60	205.11	50.92	-29.3	-31.1	13.7	7.60e-06	0	45	0	900726784	19	4443
2026-01-20 10:49:29.60	205.53	51.18	-29.1	-30.7	14.1	1.50e-06	0	45	0	903872512	19	4303
2026-01-20 10:49:30.60	205.96	51.45	-29.1	-30.7	14.1	2.20e-06	0	45	0	907018240	19	4302
2026-01-20 10:49:31.61	206.40	51.72	-29.3	-31.0	13.8	0.00e+00	0	45	0	910163968	19	4400
2026-01-20 10:49:32.61	206.85	51.98	-29.2	-30.9	13.9	3.80e-06	0	44	0	913309696	19	4367
2026-01-20 10:49:33.61	207.30	52.25	-29.0	-30.3	14.3	1.50e-06	0	45	0	916455424	19	4194
2026-01-20 10:49:34.62	207.76	52.52	-28.8	-29.9	14.5	0.00e+00	0	44	0	919601152	19	4100
2026-01-20 10:49:35.61	208.23	52.78	-28.8	-30.4	14.5	2.20e-06	0	45	0	922746880	18	4343
2026-01-20 10:49:36.61	208.71	53.04	-28.8	-30.4	14.6	0.00e+00	0	45	0	925892608	18	4318
2026-01-20 10:49:37.61	209.19	53.31	-28.7	-30.2	14.7	7.00e-07	0	45	0	929038336	18	4271
2026-01-20 10:49:38.61	209.69	53.57	-28.6	-30.0	14.8	0.00e+00	0	44	0	932184064	18	4205
2026-01-20 10:49:39.62	210.20	53.83	-28.5	-29.7	14.9	0.00e+00	0	45	0	935329792	18	4142
2026-01-20 10:49:40.62	210.71	54.09	-28.2	-29.6	15.3	0.00e+00	0	45	0	938475520	17	4200
2026-01-20 10:49:41.62	211.23	54.35	-28.2	-29.4	15.4	0.00e+00	0	45	0	941621248	17	4161
2026-01-20 10:49:42.62	211.76	54.61	-28.2	-29.6	15.3	0.00e+00	0	45	0	944766976	17	4208
2026-01-20 10:49:43.63	212.31	54.87	-28.3	-29.6	15.3	0.00e+00	0	45	0	947912704	17	4225
2026-01-20 10:49:44.63	212.86	55.13	-28.1	-29.3	15.4	0.00e+00	0	45	0	951058432	17	4139
2026-01-20 10:49:45.64	213.43	55.39	-28.1	-29.3	15.4	0.00e+00	0	45	0	954204160	17	4138
2026-01-20 10:49:46.64	214.00	55.64	-27.8	-28.6	15.8	0.00e+00	0	44	0	957349888	17	3952
2026-01-20 10:49:47.64	214.58	55.89	-27.5	-28.4	16.3	0.00e+00	0	44	0	960495616	16	3989
2026-01-20 10:49:48.64	215.17	56.14	-27.4	-28.2	16.3	0.00e+00	0	45	0	963641344	16	3955
2026-01-20 10:49:49.65	215.78	56.39	-27.6	-28.7	16.1	0.00e+00	0	45	0	966787072	16	4060
2026-01-20 10:49:50.65	216.40	56.64	-27.8	-29.1	15.9	0.00e+00	0	45	0	969932800	16	4176
2026-01-20 10:49:51.65	217.02	56.88	-27.9	-29.3	15.7	0.00e+00	0	44	0	973078528	16	4231
2026-01-20 10:49:52.65	217.66	57.13	-28.1	-29.8	15.4	0.00e+00	0	44	0	976224256	16	4365
2026-01-20 10:49:53.65	218.30	57.36	-28.2	-30.0	15.3	0.00e+00	0	45	0	979369984	16	4433
2026-01-20 10:49:54.65	218.96	57.60	-28.0	-29.7	15.5	0.00e+00	0	45	0	982515712	16	4339
2026-01-20 10:49:55.65	219.63	57.84	-27.9	-29.4	15.7	0.00e+00	0	44	0	985661440	16	4268
2026-01-20 10:49:56.65	220.31	58.07	-28.0	-29.5	15.7	0.00e+00	0	45	0	988807168	16	4275
2026-01-20 10:49:57.65	221.01	58.30	-27.9	-29.2	15.8	0.00e+00	0	45	0	991952896	16	4215
2026-01-20 10:49:58.65	221.71	58.52	-27.9	-29.4	15.7	0.00e+00	0	44	0	995098624	16	4266
2026-01-20 10:49:59.65	222.43	58.74	-28.0	-29.5	15.6	0.00e+00	0	45	0	998244352	16	4301
2026-01-20 10:50:00.64	223.15	58.96	-27.8	-29.1	15.9	0.00e+00	0	45	0	1001390080	16	4171
2026-01-20 10:50:01.64	223.89	59.18	-27.6	-28.6	16.1	0.00e+00	0	45	0	1004535808	16	4048
2026-01-20 10:50:02.65	224.65	59.39	-27.6	-28.7	16.1	0.00e+00	0	45	0	1007681536	16	4082
2026-01-20 10:50:03.65	225.41	59.60	-27.6	-28.6	16.2	7.00e-07	0	45	0	1010827264	16	4051
2026-01-20 10:50:04.65	226.19	59.80	-27.5	-28.5	16.2	0.00e+00	0	45	0	1013972992	16	4015
2026-01-20 10:50:05.65	226.98	60.00	-27.6	-28.7	16.1	0.00e+00	0	45	0	1017118720	16	4072
2026-01-20 10:50:06.66	227.79	60.20	-27.5	-28.4	16.3	0.00e+00	0	45	0	1020264448	16	4009
2026-01-20 10:50:07.67	228.61	60.40	-27.0	-27.9	16.6	0.00e+00	0	45	0	1023410176	15	3978
2026-01-20 10:50:08.68	229.45	60.58	-27.1	-28.1	16.6	0.00e+00	0	44	0	1026555904	15	4022
2026-01-20 10:50:09.68	230.28	60.77	-26.9	-27.7	16.8	0.00e+00	0	45	0	1029701632	15	3932
2026-01-20 10:50:10.69	231.14	60.95	-26.8	-27.9	16.9	0.00e+00	0	45	0	1032847360	14	4083
2026-01-20 10:50:11.69	232.00	61.12	-27.0	-28.3	16.7	0.00e+00	0	45	0	1035993088	14	4184
2026-01-20 10:50:12.70	232.89	61.29	-27.1	-28.6	16.6	0.00e+00	0	45	0	1039138816	14	4268
2026-01-20 10:50:13.70	233.77	61.45	-27.1	-28.6	16.5	0.00e+00	0	44	0	1042284544	14	4273
2026-01-20 10:50:14.71	234.68	61.60	-27.1	-28.5	16.5	0.00e+00	0	45	0	1045430272	14	4248
2026-01-20 10:50:15.71	235.58	61.75	-27.2	-28.8	16.4	0.00e+00	0	45	0	1048576000	14	4326
2026-01-20 10:50:16.71	236.50	61.90	-27.2	-28.8	16.4	0.00e+00	0	45	0	1051721728	14	4330
2026-01-20 10:50:17.70	237.42	62.03	-27.1	-28.6	16.6	0.00e+00	0	45	0	1053818880	14	4267
2026-01-20 10:50:18.71	238.37	62.17	-27.2	-28.8	16.5	0.00e+00	0	44	0	1056964608	14	4313
2026-01-20 10:50:19.71	239.32	62.29	-27.5	-29.4	16.2	0.00e+00	0	45	0	1060110336	14	4486
2026-01-20 10:50:20.71	240.28	62.41	-27.4	-28.9	16.1	0.00e+00	0	45	0	1063256064	15	4233
2026-01-20 10:50:21.71	241.24	62.52	-27.0	-27.8	16.6	0.00e+00	0	45	0	1066401792	15	3962
2026-01-20 10:50:22.71	242.22	62.63	-26.9	-27.7	16.8	0.00e+00	0	45	0	1069547520	15	3919
2026-01-20 10:50:23.71	243.20	62.73	-27.2	-28.2	16.5	0.00e+00	0	45	0	1072693248	15	4050
2026-01-20 10:50:24.71	244.20	62.82	-27.3	-28.5	16.4	0.00e+00	0	45	0	1075838976	15	4127
2026-01-20 10:50:25.72	245.21	62.91	-27.2	-28.3	16.4	0.00e+00	0	45	0	1078984704	15	4090
2026-01-20 10:50:26.72	246.21	62.98	-27.2	-28.2	16.5	0.00e+00	0	45	0	1082130432	15	4054
2026-01-20 10:50:27.73	247.23	63.06	-27.1	-28.0	16.6	0.00e+00	0	45	0	1085276160	15	3991
2026-01-20 10:50:28.73	248.25	63.12	-27.1	-28.0	16.5	0.00e+00	0	45	0	1088421888	15	4008
2026-01-20 10:50:29.74	249.29	63.17	-26.8	-27.3	16.9	0.00e+00	0	45	0	1091567616	15	3844
2026-01-20 10:50:30.73	250.30	63.22	-26.8	-27.9	17.0	0.00e+00	0	45	0	1094713344	14	4096
2026-01-20 10:50:31.73	251.33	63.26	-27.1	-28.5	16.7	0.00e+00	0	45	0	1097859072	14	4240
2026-01-20 10:50:32.74	252.38	63.30	-27.5	-29.0	16.1	0.00e+00	0	45	0	1101004800	15	4260
2026-01-20 10:50:33.75	253.43	63.32	-27.6	-29.1	16.0	0.00e+00	0	45	0	1104150528	15	4309
2026-01-20 10:50:34.75	254.47	63.34	-27.2	-28.3	16.5	0.00e+00	0	45	0	1107296256	15	4089
2026-01-20 10:50:35.76	255.52	63.35	-27.2	-28.3	16.5	0.00e+00	0	45	0	1110441984	15	4076
2026-01-20 10:50:36.76	256.56	63.35	-27.2	-28.3	16.5	0.00e+00	0	45	0	1113587712	15	4073
2026-01-20 10:50:37.76	257.60	63.34	-27.2	-28.2	16.5	0.00e+00	0	44	0	1116733440	15	4064
2026-01-20 10:50:38.76	258.64	63.33	-26.9	-27.7	16.8	0.00e+00	0	44	0	1119879168	15	3928
2026-01-20 10:50:39.76	259.68	63.31	-27.1	-28.0	16.6	0.00e+00	0	45	0	1123024896	15	4015
2026-01-20 10:50:40.77	260.72	63.28	-27.3	-28.4	16.4	0.00e+00	0	45	0	1126170624	15	4114
2026-01-20 10:50:41.77	261.75	63.24	-27.2	-28.2	16.5	0.00e+00	0	45	0	1129316352	15	4053
2026-01-20 10:50:42.77	262.78	63.20	-27.1	-28.1	16.6	0.00e+00	0	45	0	1132462080	15	4029
2026-01-20 10:50:43.77	263.81	63.15	-27.3	-28.5	16.3	0.00e+00	0	45	0	1135607808	15	4130
2026-01-20 10:50:44.77	264.83	63.09	-27.4	-28.7	16.2	0.00e+00	0	45	0	1138753536	15	4189
2026-01-20 10:50:45.78	265.85	63.02	-27.6	-29.3	16.0	0.00e+00	0	45	0	1141899264	15	4347
2026-01-20 10:50:46.78	266.86	62.95	-27.4	-28.7	16.3	0.00e+00	0	45	0	1145044992	15	4195
2026-01-20 10:50:47.78	267.87	62.87	-26.9	-27.6	16.8	0.00e+00	0	45	0	1148190720	15	3911
2026-01-20 10:50:48.79	268.87	62.78	-26.6	-27.5	17.2	0.00e+00	0	45	0	1151336448	14	3983
2026-01-20 10:50:49.78	269.85	62.68	-26.5	-27.3	17.3	0.00e+00	0	45	0	1154482176	14	3933
2026-01-20 10:50:50.79	270.84	62.58	-26.8	-27.9	17.0	0.00e+00	0	45	0	1157627904	14	4073
2026-01-20 10:50:51.78	271.80	62.47	-26.9	-28.0	16.9	0.00e+00	0	45	0	1160773632	14	4106
2026-01-20 10:50:52.78	272.76	62.36	-26.9	-28.0	16.9	0.00e+00	0	45	0	1163919360	14	4108
2026-01-20 10:50:53.78	273.72	62.24	-27.1	-28.6	16.6	0.00e+00	0	45	0	1167065088	14	4251
2026-01-20 10:50:54.78	274.66	62.11	-27.2	-28.7	16.5	0.00e+00	0	45	0	1170210816	14	4281
2026-01-20 10:50:55.79	275.60	61.97	-27.3	-29.0	16.4	0.00e+00	0	45	0	1173356544	14	4379
2026-01-20 10:50:56.80	276.53	61.83	-27.1	-28.5	16.7	0.00e+00	0	45	0	1176502272	14	4232
2026-01-20 10:50:57.81	277.45	61.68	-27.2	-28.7	16.6	0.00e+00	0	45	0	1179648000	14	4282
2026-01-20 10:50:58.81	278.35	61.53	-27.5	-29.4	16.2	0.00e+00	0	45	0	1182793728	14	4475
2026-01-20 10:50:59.81	279.24	61.37	-27.9	-29.8	15.7	0.00e+00	0	45	0	1185939456	15	4486
2026-01-20 10:51:00.81	280.12	61.21	-27.6	-28.5	16.3	0.00e+00	0	45	0	1189085184	16	4030
2026-01-20 10:51:01.82	281.00	61.04	-26.6	-27.4	17.1	0.00e+00	0	45	0	1192230912	14	3958
2026-01-20 10:51:02.82	281.85	60.86	-26.5	-27.3	17.2	0.00e+00	0	45	0	1195376640	14	3938
2026-01-20 10:51:03.82	282.70	60.68	-26.7	-27.7	17.1	0.00e+00	0	45	0	1198522368	14	4030
2026-01-20 10:51:04.83	283.54	60.50	-27.0	-28.3	16.8	0.00e+00	0	45	0	1201668096	14	4186
2026-01-20 10:51:05.83	284.35	60.31	-27.1	-28.5	16.6	0.00e+00	0	45	0	1204813824	14	4248
2026-01-20 10:51:06.84	285.17	60.11	-27.4	-29.3	16.2	0.00e+00	0	45	0	1207959552	14	4461
2026-01-20 10:51:07.85	285.97	59.91	-27.4	-28.8	16.3	0.00e+00	0	45	0	1211105280	15	4209
2026-01-20 10:51:08.85	286.75	59.71	-27.1	-28.0	16.6	0.00e+00	0	45	0	1214251008	15	4000
2026-01-20 10:51:09.85	287.52	59.51	-27.2	-28.3	16.5	0.00e+00	0	45	0	1217396736	15	4077
2026-01-20 10:51:10.86	288.29	59.30	-27.6	-29.3	16.0	0.00e+00	0	45	0	1220542464	15	4337
2026-01-20 10:51:11.85	289.03	59.08	-28.8	-30.9	14.7	2.20e-06	0	45	0	1223688192	17	4573
2026-01-20 10:51:12.86	289.77	58.87	-29.1	-31.0	14.3	0.00e+00	0	45	0	1226833920	18	4512
2026-01-20 10:51:13.86	290.49	58.65	-28.6	-30.0	14.9	7.00e-07	0	45	0	1229979648	18	4202
2026-01-20 10:51:14.86	291.20	58.42	-28.2	-29.5	15.4	0.00e+00	0	45	0	1233125376	17	4170
2026-01-20 10:51:15.87	291.90	58.19	-28.3	-29.8	15.3	0.00e+00	0	45	0	1236271104	17	4252
2026-01-20 10:51:16.88	292.60	57.96	-28.1	-29.2	15.7	0.00e+00	0	45	0	1239416832	17	4086
2026-01-20 10:51:17.88	293.27	57.73	-28.0	-29.1	15.7	0.00e+00	0	45	0	1242562560	17	4074
2026-01-20 10:51:18.88	293.93	57.49	-28.4	-29.8	15.3	0.00e+00	0	45	0	1245708288	17	4272
2026-01-20 10:51:19.89	294.59	57.25	-28.6	-30.4	14.9	0.00e+00	0	45	0	1248854016	17	4442
2026-01-20 10:51:20.88	295.23	57.02	-28.7	-30.6	14.9	7.00e-07	0	45	0	1251999744	17	4473
2026-01-20 10:51:21.89	295.86	56.77	-28.3	-29.8	15.3	0.00e+00	0	45	0	1255145472	17	4254
2026-01-20 10:51:22.89	296.48	56.53	-28.0	-29.0	15.7	0.00e+00	0	45	0	1258291200	17	4053
2026-01-20 10:51:23.90	297.09	56.28	-27.9	-28.8	15.9	0.00e+00	0	45	0	1261436928	17	3982
2026-01-20 10:51:24.90	297.69	56.03	-28.2	-29.5	15.4	0.00e+00	0	45	0	1264582656	17	4180
2026-01-20 10:51:25.90	298.27	55.78	-28.5	-30.1	15.0	0.00e+00	0	45	0	1267728384	17	4343
2026-01-20 10:51:26.90	298.85	55.53	-28.9	-31.2	14.5	0.00e+00	0	45	0	1270874112	17	4662
2026-01-20 10:51:27.91	299.42	55.27	-29.1	-31.2	14.3	7.00e-07	0	45	0	1274019840	18	4543
2026-01-20 10:51:28.91	299.98	55.02	-28.9	-30.7	14.5	7.00e-07	0	45	0	1277165568	18	4393
2026-01-20 10:51:29.91	300.52	54.76	-28.7	-30.1	14.8	0.00e+00	0	45	0	1280311296	18	4229
2026-01-20 10:51:30.91	301.06	54.50	-28.8	-30.4	14.7	0.00e+00	0	45	0	1283457024	18	4315
2026-01-20 10:51:31.91	301.58	54.24	-28.6	-29.9	15.0	0.00e+00	0	45	0	1286602752	18	4172
2026-01-20 10:51:32.91	302.10	53.99	-28.3	-29.3	15.3	0.00e+00	0	45	0	1289748480	18	4009
2026-01-20 10:51:33.92	302.61	53.72	-28.7	-30.1	14.8	0.00e+00	0	45	0	1292894208	18	4230
2026-01-20 10:51:34.92	303.11	53.46	-29.2	-31.4	14.2	0.00e+00	0	45	0	1296039936	18	4603
2026-01-20 10:51:35.92	303.60	53.20	-29.3	-31.6	14.0	3.00e-06	0	45	0	1299185664	18	4689
2026-01-20 10:51:36.93	304.09	52.93	-29.0	-30.7	14.5	1.50e-06	0	45	0	1302331392	18	4406
2026-01-20 10:51:37.93	304.56	52.67	-28.8	-30.4	14.6	1.50e-06	0	45	0	1305477120	18	4316
2026-01-20 10:51:38.93	305.02	52.41	-29.0	-30.7	14.5	7.00e-07	0	45	0	1308622848	18	4404
2026-01-20 10:51:39.94	305.48	52.14	-28.8	-30.3	14.8	7.00e-07	0	45	0	1311768576	18	4294
2026-01-20 10:51:40.93	305.93	51.88	-28.8	-30.4	14.7	0.00e+00	0	45	0	1314914304	18	4295
2026-01-20 10:51:41.93	306.37	51.61	-29.3	-31.5	14.1	0.00e+00	0	45	0	1318060032	18	4638
2026-01-20 10:51:42.93	306.80	51.35	-29.8	-32.3	13.3	9.90e-06	0	45	0	1321205760	19	4781
2026-01-20 10:51:43.93	307.22	51.08	-30.3	-33.0	12.5	6.86e-05	0	45	0	1324351488	20	4936
2026-01-20 10:51:44.94	307.65	50.81	-30.3	-33.0	12.5	1.40e-04	0	45	0	1327497216	20	4903
2026-01-20 10:51:45.94	308.06	50.55	-30.0	-32.2	13.0	5.79e-05	0	45	0	1329594368	20	4657
2026-01-20 10:51:46.94	308.46	50.28	-29.3	-30.6	13.9	7.60e-06	0	45	0	1332740096	20	4156
2026-01-20 10:51:47.95	308.86	50.02	-29.3	-31.0	14.0	2.20e-06	0	45	0	1335885824	19	4385
2026-01-20 10:51:48.96	309.25	49.75	-29.2	-30.7	14.2	5.30e-06	0	45	0	1339031552	19	4303
2026-01-20 10:51:49.96	309.64	49.48	-29.4	-31.2	14.0	3.80e-06	0	45	0	1342177280	19	4422
2026-01-20 10:51:50.96	310.01	49.22	-29.7	-32.0	13.5	6.10e-06	0	45	0	1345323008	19	4677
2026-01-20 10:51:51.96	310.38	48.95	-30.3	-33.0	12.5	6.10e-05	0	45	0	1348468736	20	4904
2026-01-20 10:51:52.96	310.74	48.69	-30.4	-33.2	12.3	1.42e-04	0	45	0	1351614464	20	5007
2026-01-20 10:51:53.96	311.10	48.43	-30.1	-32.6	12.7	1.16e-04	0	45	0	1354760192	20	4776
2026-01-20 10:51:54.97	311.46	48.16	-29.9	-32.0	13.1	4.42e-05	0	45	0	1357905920	20	4592
2026-01-20 10:51:55.98	311.81	47.90	-30.1	-32.6	12.7	5.11e-05	0	45	0	1361051648	20	4789
2026-01-20 10:51:56.99	312.15	47.63	-30.1	-32.5	12.8	6.40e-05	0	45	0	1364197376	20	4738
2026-01-20 10:51:57.99	312.48	47.37	-30.4	-33.2	12.3	1.41e-04	0	45	0	1367343104	20	5005
2026-01-20 10:51:58.99	312.81	47.11	-30.2	-32.8	12.5	1.42e-04	0	45	0	1370488832	20	4868
2026-01-20 10:52:00.00	313.14	46.85	-30.2	-32.7	12.6	1.06e-04	0	45	0	1373634560	20	4829
2026-01-20 10:52:01.00	313.46	46.59	-30.5	-33.5	12.2	2.10e-04	0	45	0	1376780288	20	5078
2026-01-20 10:52:02.00	313.77	46.33	-30.9	-34.1	11.4	7.00e-04	0	45	0	1379926016	21	5196
2026-01-20 10:52:03.00	314.08	46.07	-31.5	-34.8	10.3	3.36e-03	0	45	0	1383071744	23	5282
2026-01-20 10:52:04.01	314.38	45.81	-31.4	-34.4	10.5	4.48e-03	0	45	0	1386217472	23	5093
2026-01-20 10:52:05.02	314.68	45.55	-31.1	-33.6	11.2	1.75e-03	0	45	0	1389363200	23	4792
2026-01-20 10:52:06.02	314.98	45.30	-31.0	-33.4	11.2	1.27e-03	0	45	0	1392508928	23	4730
2026-01-20 10:52:07.03	315.27	45.04	-31.2	-33.9	10.8	2.24e-03	0	45	0	1395654656	23	4917
2026-01-20 10:52:08.03	315.55	44.78	-30.9	-32.9	11.4	1.20e-03	0	45	0	1398800384	23	4572
2026-01-20 10:52:09.03	315.83	44.53	-30.5	-32.5	12.0	3.13e-04	0	45	0	1401946112	22	4524
2026-01-20 10:52:10.03	316.11	44.28	-30.1	-32.0	12.6	9.46e-05	0	45	0	1405091840	21	4491
2026-01-20 10:52:11.03	316.38	44.03	-30.1	-31.9	12.7	5.41e-05	0	45	0	1408237568	21	4433
2026-01-20 10:52:12.03	316.64	43.78	-30.2	-32.2	12.6	9.53e-05	0	45	0	1411383296	21	4544
2026-01-20 10:52:13.03	316.91	43.53	-30.3	-32.5	12.3	1.56e-04	0	45	0	1414529024	21	4637
2026-01-20 10:52:14.03	317.17	43.28	-30.1	-32.0	12.6	8.54e-05	0	45	0	1417674752	21	4487
2026-01-20 10:52:15.04	317.42	43.03	-30.0	-31.7	12.8	5.64e-05	0	45	0	1420820480	21	4396
2026-01-20 10:52:16.04	317.67	42.78	-29.9	-31.4	13.0	2.89e-05	0	45	0	1423966208	21	4299
2026-01-20 10:52:17.04	317.92	42.54	-29.9	-31.4	13.1	4.19e-05	0	45	0	1427111936	21	4300
2026-01-20 10:52:18.05	318.17	42.29	-29.5	-31.0	13.6	1.06e-05	0	45	0	1430257664	20	4268
2026-01-20 10:52:19.05	318.41	42.05	-29.3	-30.9	14.0	1.50e-06	0	45	0	1433403392	19	4360
2026-01-20 10:52:20.05	318.64	41.81	-29.1	-30.5	14.3	1.50e-06	0	45	0	1436549120	19	4223
2026-01-20 10:52:21.06	318.88	41.56	-29.3	-31.0	14.0	2.20e-06	0	45	0	1439694848	19	4372
2026-01-20 10:52:22.06	319.11	41.32	-29.4	-31.4	13.8	6.10e-06	0	45	0	1442840576	19	4489
2026-01-20 10:52:23.05	319.33	41.09	-29.9	-32.4	13.2	1.67e-05	0	45	0	1445986304	19	4814
2026-01-20 10:52:24.05	319.56	40.85	-30.1	-32.4	12.7	5.72e-05	0	45	0	1449132032	20	4725
2026-01-20 10:52:25.05	319.78	40.61	-30.2	-32.7	12.5	9.15e-05	0	45	0	1452277760	20	4836
2026-01-20 10:52:26.05	319.99	40.38	-30.0	-32.3	12.8	6.56e-05	0	45	0	1455423488	20	4691
2026-01-20 10:52:27.05	320.21	40.14	-30.0	-32.2	12.9	6.17e-05	0	45	0	1458569216	20	4640
2026-01-20 10:52:28.05	320.42	39.91	-30.0	-32.3	12.8	5.79e-05	0	45	0	1461714944	20	4680
2026-01-20 10:52:29.05	320.62	39.68	-30.4	-33.2	12.2	1.47e-04	0	45	0	1464860672	20	5003
2026-01-20 10:52:30.05	320.83	39.45	-30.6	-33.3	11.8	4.40e-04	0	45	0	1468006400	21	4926
2026-01-20 10:52:31.06	321.03	39.22	-30.4	-32.8	12.2	2.81e-04	0	45	0	1471152128	21	4735
2026-01-20 10:52:32.06	321.23	38.99	-30.1	-32.0	12.7	8.16e-05	0	45	0	1474297856	21	4481
2026-01-20 10:52:33.07	321.43	38.76	-29.9	-31.5	13.0	5.03e-05	0	45	0	1477443584	21	4331
2026-01-20 10:52:34.08	321.63	38.53	-29.9	-31.6	12.9	5.03e-05	0	45	0	1480589312	21	4360
2026-01-20 10:52:35.08	321.82	38.30	-29.7	-31.6	13.2	3.20e-05	0	45	0	1483735040	20	4476
2026-01-20 10:52:36.08	322.01	38.08	-29.7	-31.5	13.3	9.10e-06	0	45	0	1486880768	20	4435
2026-01-20 10:52:37.09	322.19	37.86	-29.7	-31.5	13.3	1.60e-05	0	45	0	1490026496	20	4426
2026-01-20 10:52:38.10	322.38	37.63	-30.0	-32.3	12.8	4.19e-05	0	45	0	1493172224	20	4678
2026-01-20 10:52:39.09	322.56	37.41	-29.8	-31.7	13.1	3.81e-05	0	45	0	1496317952	20	4512
2026-01-20 10:52:40.10	322.74	37.19	-29.7	-31.5	13.3	1.44e-05	0	45	0	1499463680	20	4433
2026-01-20 10:52:41.10	322.92	36.97	-29.7	-31.5	13.2	2.36e-05	0	45	0	1502609408	20	4450
2026-01-20 10:52:42.11	323.09	36.75	-29.8	-31.8	13.0	3.20e-05	0	45	0	1505755136	20	4544
2026-01-20 10:52:43.11	323.26	36.54	-29.6	-31.3	13.3	3.05e-05	0	45	0	1508900864	20	4397
2026-01-20 10:52:44.12	323.44	36.32	-29.4	-30.9	13.6	5.30e-06	0	45	0	1512046592	20	4254
2026-01-20 10:52:45.11	323.60	36.11	-29.3	-31.1	13.8	6.80e-06	0	45	0	1515192320	19	4431
2026-01-20 10:52:46.10	323.77	35.90	-29.4	-31.2	13.8	4.50e-06	0	45	0	1518338048	19	4442
2026-01-20 10:52:47.11	323.93	35.69	-29.0	-30.3	14.3	7.00e-07	0	45	0	1521483776	19	4184
2026-01-20 10:52:48.11	324.09	35.48	-28.7	-30.2	14.6	0.00e+00	0	45	0	1524629504	18	4266
2026-01-20 10:52:49.12	324.25	35.27	-28.7	-30.1	14.7	0.00e+00	0	45	0	1527775232	18	4243
2026-01-20 10:52:50.12	324.41	35.06	-28.9	-30.7	14.3	0.00e+00	0	45	0	1530920960	18	4409
2026-01-20 10:52:51.12	324.57	34.85	-29.2	-31.4	13.9	2.20e-06	0	45	0	1534066688	18	4617
2026-01-20 10:52:52.12	324.72	34.65	-29.2	-31.4	13.9	3.80e-06	0	45	0	1537212416	18	4608
2026-01-20 10:52:53.12	324.87	34.44	-29.5	-31.7	13.5	6.10e-06	0	45	0	1540358144	19	4591
2026-01-20 10:52:54.12	325.02	34.24	-29.4	-31.3	13.7	4.50e-06	0	45	0	1543503872	19	4483
2026-01-20 10:52:55.12	325.17	34.04	-29.3	-31.2	13.7	4.50e-06	0	45	0	1546649600	19	4442
2026-01-20 10:52:56.12	325.31	33.84	-29.3	-31.0	13.8	1.50e-06	0	45	0	1549795328	19	4394
2026-01-20 10:52:57.13	325.46	33.63	-29.2	-30.8	14.0	5.30e-06	0	45	0	1552941056	19	4320
2026-01-20 10:52:58.13	325.60	33.43	-29.0	-30.3	14.2	7.00e-07	0	45	0	1556086784	19	4189
2026-01-20 10:52:59.14	325.75	33.24	-29.0	-30.4	14.2	7.00e-07	0	45	0	1559232512	19	4229
2026-01-20 10:53:00.14	325.89	33.04	-29.1	-30.7	14.0	1.50e-06	0	45	0	1562378240	19	4290
2026-01-20 10:53:01.15	326.02	32.84	-28.7	-30.2	14.6	0.00e+00	0	45	0	1565523968	18	4270
2026-01-20 10:53:02.15	326.16	32.65	-28.5	-29.7	14.9	7.00e-07	0	45	0	1568669696	18	4129
2026-01-20 10:53:03.15	326.30	32.45	-28.4	-29.4	15.1	0.00e+00	0	45	0	1571815424	18	4038
2026-01-20 10:53:04.15	326.43	32.26	-28.2	-29.5	15.3	0.00e+00	0	45	0	1574961152	17	4175
2026-01-20 10:53:05.16	326.56	32.07	-28.1	-29.2	15.4	0.00e+00	0	45	0	1578106880	17	4088
2026-01-20 10:53:06.17	326.69	31.88	-27.8	-28.7	15.7	0.00e+00	0	45	0	1581252608	17	3979
2026-01-20 10:53:07.17	326.82	31.69	-27.9	-28.9	15.6	0.00e+00	0	45	0	1583349760	17	4012
2026-01-20 10:53:08.18	326.95	31.50	-28.1	-29.4	15.3	0.00e+00	0	45	0	1587544064	17	4156
2026-01-20 10:53:09.18	327.08	31.31	-28.0	-29.1	15.5	0.00e+00	0	45	0	1590689792	17	4084
2026-01-20 10:53:10.19	327.20	31.12	-27.9	-28.9	15.5	0.00e+00	0	45	0	1593835520	17	4035
2026-01-20 10:53:11.19	327.32	30.94	-28.0	-29.0	15.5	0.00e+00	0	45	0	1596981248	17	4052
2026-01-20 10:53:12.20	327.45	30.75	-28.0	-29.1	15.5	0.00e+00	0	45	0	1600126976	17	4089
2026-01-20 10:53:13.20	327.57	30.57	-28.0	-29.2	15.4	0.00e+00	0	45	0	1603272704	17	4096
2026-01-20 10:53:14.21	327.69	30.39	-28.1	-29.2	15.4	0.00e+00	0	45	0	1605369856	17	4107
2026-01-20 10:53:15.21	327.80	30.21	-28.1	-29.4	15.3	7.00e-07	0	45	0	1608515584	17	4158
2026-01-20 10:53:16.21	327.92	30.03	-28.2	-29.4	15.2	7.00e-07	0	45	0	1611661312	17	4162
2026-01-20 10:53:17.22	328.04	29.85	-28.2	-29.6	15.1	0.00e+00	0	45	0	1614807040	17	4218
2026-01-20 10:53:18.22	328.15	29.67	-28.3	-29.7	15.1	7.00e-07	0	45	0	1617952768	17	4249
2026-01-20 10:53:19.22	328.26	29.49	-28.4	-29.9	15.0	0.00e+00	0	45	0	1621098496	17	4312
2026-01-20 10:53:20.22	328.38	29.32	-28.3	-29.9	15.0	7.00e-07	0	45	0	1624244224	17	4286
2026-01-20 10:53:21.23	328.49	29.14	-28.4	-30.1	14.9	0.00e+00	0	45	0	1627389952	17	4352
2026-01-20 10:53:22.23	328.60	28.97	-28.4	-30.1	14.8	0.00e+00	0	45	0	1630535680	17	4356
2026-01-20 10:53:23.23	328.71	28.80	-28.4	-30.1	14.9	0.00e+00	0	45	0	1633681408	17	4368
2026-01-20 10:53:24.24	328.81	28.62	-28.5	-30.1	14.8	0.00e+00	0	45	0	1636827136	17	4366
2026-01-20 10:53:25.24	328.92	28.45	-28.4	-29.9	14.9	0.00e+00	0	45	0	1639972864	17	4304
2026-01-20 10:53:26.24	329.02	28.28	-28.4	-30.0	14.9	0.00e+00	0	45	0	1643118592	17	4316
2026-01-20 10:53:27.24	329.13	28.11	-28.4	-30.1	14.9	7.00e-07	0	45	0	1646264320	17	4353
2026-01-20 10:53:28.24	329.23	27.94	-28.0	-29.1	15.4	7.00e-07	0	45	0	1649410048	17	4074
2026-01-20 10:53:29.24	329.33	27.78	-27.8	-29.2	15.6	0.00e+00	0	45	0	1652555776	16	4209
2026-01-20 10:53:30.25	329.43	27.61	-27.7	-28.9	15.8	0.00e+00	0	45	0	1655701504	16	4135
2026-01-20 10:53:31.26	329.54	27.44	-27.7	-28.9	15.7	0.00e+00	0	45	0	1658847232	16	4144
2026-01-20 10:53:32.26	329.63	27.28	-27.8	-29.0	15.7	0.00e+00	0	45	0	1661992960	16	4171
2026-01-20 10:53:33.26	329.73	27.12	-27.6	-28.8	15.9	0.00e+00	0	45	0	1665138688	16	4092
2026-01-20 10:53:34.27	329.83	26.95	-27.7	-28.8	15.9	0.00e+00	0	45	0	1668284416	16	4112
2026-01-20 10:53:35.27	329.93	26.79	-27.6	-28.8	15.8	0.00e+00	0	45	0	1671430144	16	4097
2026-01-20 10:53:36.27	330.02	26.63	-27.6	-28.7	15.9	0.00e+00	0	45	0	1674575872	16	4092
2026-01-20 10:53:37.27	330.11	26.47	-27.6	-28.6	15.9	0.00e+00	0	45	0	1677721600	16	4061
2026-01-20 10:53:38.27	330.21	26.31	-27.6	-28.7	15.9	0.00e+00	0	45	0	1680867328	16	4076
2026-01-20 10:53:39.27	330.30	26.15	-27.5	-28.4	16.0	0.00e+00	0	45	0	1684013056	16	4001
2026-01-20 10:53:40.27	330.39	26.00	-27.5	-28.4	16.0	0.00e+00	0	45	0	1687158784	16	4004
2026-01-20 10:53:41.27	330.48	25.84	-27.4	-28.3	16.0	0.00e+00	0	45	0	1690304512	16	3981
2026-01-20 10:53:42.27	330.57	25.68	-27.4	-28.2	16.1	0.00e+00	0	45	0	1693450240	16	3954
2026-01-20 10:53:43.28	330.66	25.53	-27.5	-28.5	16.0	0.00e+00	0	45	0	1696595968	16	4026
2026-01-20 10:53:44.28	330.75	25.37	-27.7	-28.9	15.7	0.00e+00	0	45	0	1699741696	16	4133
2026-01-20 10:53:45.28	330.84	25.22	-27.7	-28.8	15.8	0.00e+00	0	45	0	1702887424	16	4119
2026-01-20 10:53:46.29	330.92	25.07	-27.8	-29.2	15.6	0.00e+00	0	45	0	1706033152	16	4217
2026-01-20 10:53:47.29	331.01	24.92	-27.8	-29.1	15.6	0.00e+00	0	45	0	1709178880	16	4180
2026-01-20 10:53:48.30	331.10	24.76	-28.0	-29.5	15.4	0.00e+00	0	45	0	1712324608	16	4306
2026-01-20 10:53:49.30	331.18	24.61	-28.0	-29.6	15.4	0.00e+00	0	45	0	1715470336	16	4317
2026-01-20 10:53:50.30	331.26	24.47	-28.0	-29.6	15.3	0.00e+00	0	45	0	1718616064	16	4340
2026-01-20 10:53:51.30	331.35	24.32	-28.0	-29.7	15.3	0.00e+00	0	45	0	1721761792	16	4357
2026-01-20 10:53:52.30	331.43	24.17	-28.2	-30.0	15.1	0.00e+00	0	45	0	1724907520	16	4431
2026-01-20 10:53:53.29	331.51	24.03	-28.0	-29.6	15.2	7.00e-07	0	45	0	1728053248	16	4314
2026-01-20 10:53:54.29	331.59	23.88	-27.9	-29.4	15.4	0.00e+00	0	45	0	1731198976	16	4279
2026-01-20 10:53:55.29	331.67	23.73	-28.1	-29.8	15.2	0.00e+00	0	45	0	1734344704	16	4378
2026-01-20 10:53:56.29	331.75	23.59	-28.2	-30.0	15.1	0.00e+00	0	45	0	1737490432	16	4434
2026-01-20 10:53:57.30	331.83	23.45	-28.2	-30.1	15.0	0.00e+00	0	45	0	1740636160	16	4464
2026-01-20 10:53:58.30	331.90	23.30	-28.3	-30.3	14.9	0.00e+00	0	45	0	1743781888	16	4533
2026-01-20 10:53:59.31	331.98	23.16	-28.4	-30.5	14.8	0.00e+00	0	45	0	1746927616	16	4589
2026-01-20 10:54:00.30	332.06	23.02	-28.4	-30.4	14.7	0.00e+00	0	45	0	1750073344	16	4574
2026-01-20 10:54:01.30	332.13	22.88	-28.3	-30.3	14.9	0.00e+00	0	45	0	1753219072	16	4550
2026-01-20 10:54:02.31	332.21	22.74	-28.2	-30.1	14.9	0.00e+00	0	45	0	1756364800	16	4485
2026-01-20 10:54:03.31	332.28	22.60	-28.3	-30.3	14.9	0.00e+00	0	45	0	1759510528	16	4533
2026-01-20 10:54:04.31	332.36	22.46	-28.2	-30.1	15.1	0.00e+00	0	45	0	1762656256	16	4475
2026-01-20 10:54:05.31	332.43	22.32	-28.3	-30.2	14.9	0.00e+00	0	45	0	1765801984	16	4505
2026-01-20 10:54:06.31	332.50	22.18	-28.2	-30.1	15.0	0.00e+00	0	45	0	1768947712	16	4462
2026-01-20 10:54:07.31	332.57	22.05	-28.2	-30.2	15.0	0.00e+00	0	45	0	1772093440	16	4503
2026-01-20 10:54:08.30	332.65	21.91	-28.2	-30.2	14.9	0.00e+00	0	45	0	1775239168	16	4498
2026-01-20 10:54:09.30	332.72	21.78	-28.3	-30.2	14.9	7.00e-07	0	45	0	1778384896	16	4508
2026-01-20 10:54:10.30	332.79	21.64	-28.1	-29.9	15.1	0.00e+00	0	45	0	1781530624	16	4422
2026-01-20 10:54:11.31	332.86	21.51	-28.3	-30.2	14.9	7.00e-07	0	45	0	1784676352	16	4519
2026-01-20 10:54:12.31	332.93	21.38	-28.3	-30.3	14.7	0.00e+00	0	45	0	1787822080	16	4535
2026-01-20 10:54:13.31	332.99	21.24	-28.2	-30.0	15.0	7.00e-07	0	45	0	1790967808	16	4452
2026-01-20 10:54:14.32	333.06	21.11	-28.0	-29.6	15.2	0.00e+00	0	45	0	1794113536	16	4321
2026-01-20 10:54:15.32	333.13	20.98	-27.9	-29.4	15.3	0.00e+00	0	45	0	1797259264	16	4282
2026-01-20 10:54:16.33	333.20	20.85	-27.9	-29.3	15.4	0.00e+00	0	45	0	1800404992	16	4246
2026-01-20 10:54:17.33	333.27	20.72	-27.7	-28.9	15.6	0.00e+00	0	45	0	1803550720	16	4137
2026-01-20 10:54:18.34	333.33	20.59	-27.7	-28.9	15.6	0.00e+00	0	45	0	1806696448	16	4150
2026-01-20 10:54:19.34	333.40	20.46	-27.8	-29.1	15.5	0.00e+00	0	45	0	1809842176	16	4191
2026-01-20 10:54:20.34	333.46	20.33	-27.6	-28.7	15.7	0.00e+00	0	45	0	1812987904	16	4098
2026-01-20 10:54:21.35	333.53	20.20	-27.6	-28.8	15.6	0.00e+00	0	45	0	1816133632	16	4108
2026-01-20 10:54:22.36	333.59	20.08	-27.7	-29.0	15.6	0.00e+00	0	45	0	1819279360	16	4152
2026-01-20 10:54:23.36	333.66	19.95	-27.6	-28.8	15.7	0.00e+00	0	45	0	1822425088	16	4108
2026-01-20 10:54:24.36	333.72	19.83	-27.7	-29.0	15.5	0.00e+00	0	45	0	1825570816	16	4182
2026-01-20 10:54:25.37	333.78	19.70	-27.8	-29.2	15.4	0.00e+00	0	45	0	1828716544	16	4230
2026-01-20 10:54:26.37	333.84	19.58	-28.0	-29.7	15.1	0.00e+00	0	45	0	1831862272	16	4372
2026-01-20 10:54:27.37	333.90	19.45	-28.0	-29.7	15.2	0.00e+00	0	45	0	1833959424	16	4351
2026-01-20 10:54:28.37	333.97	19.33	-28.1	-29.8	15.1	0.00e+00	0	45	0	1837105152	16	4387
2026-01-20 10:54:29.38	334.03	19.21	-28.1	-29.8	15.1	0.00e+00	0	45	0	1841299456	16	4402
2026-01-20 10:54:30.38	334.09	19.08	-28.1	-29.9	14.9	0.00e+00	0	45	0	1843396608	16	4433
2026-01-20 10:54:31.38	334.15	18.96	-28.2	-30.1	14.9	0.00e+00	0	45	0	1847590912	16	4482
2026-01-20 10:54:32.38	334.21	18.84	-28.2	-30.1	14.8	7.00e-07	0	45	0	1850736640	16	4494
2026-01-20 10:54:33.39	334.27	18.72	-28.3	-30.4	14.7	0.00e+00	0	45	0	1853882368	16	4575
2026-01-20 10:54:34.40	334.32	18.60	-28.2	-30.2	14.8	0.00e+00	0	45	0	1857028096	16	4514
2026-01-20 10:54:35.41	334.38	18.48	-28.3	-30.3	14.8	7.00e-07	0	45	0	1859125248	16	4543
2026-01-20 10:54:36.41	334.44	18.36	-28.4	-30.5	14.6	0.00e+00	0	45	0	1862270976	16	4611
2026-01-20 10:54:37.41	334.50	18.24	-28.4	-30.5	14.6	7.00e-07	0	45	0	1865416704	16	4604
2026-01-20 10:54:38.41	334.55	18.13	-28.4	-30.5	14.6	0.00e+00	0	45	0	1868562432	16	4616
2026-01-20 10:54:39.41	334.61	18.01	-28.3	-30.3	14.7	0.00e+00	0	45	0	1871708160	16	4551
2026-01-20 10:54:40.41	334.67	17.89	-28.3	-30.4	14.6	7.00e-07	0	45	0	1874853888	16	4586
2026-01-20 10:54:41.42	334.72	17.78	-28.4	-30.6	14.6	0.00e+00	0	45	0	1877999616	16	4643
2026-01-20 10:54:42.42	334.78	17.66	-28.3	-30.5	14.6	0.00e+00	0	45	0	1881145344	16	4591
2026-01-20 10:54:43.42	334.83	17.55	-28.4	-30.1	14.5	0.00e+00	0	45	0	1884291072	17	4379
2026-01-20 10:54:44.43	334.89	17.43	-28.4	-30.0	14.6	7.00e-07	0	45	0	1887436800	17	4344
2026-01-20 10:54:45.43	334.94	17.32	-28.3	-30.0	14.6	0.00e+00	0	45	0	1890582528	17	4331
2026-01-20 10:54:46.44	335.00	17.20	-28.6	-30.4	14.3	7.00e-07	0	45	0	1893728256	17	4475
2026-01-20 10:54:47.44	335.05	17.09	-28.6	-30.5	14.2	0.00e+00	0	45	0	1896873984	17	4510
2026-01-20 10:54:48.44	335.10	16.98	-28.4	-30.2	14.5	1.50e-06	0	45	0	1900019712	17	4390
2026-01-20 10:54:49.45	335.15	16.86	-28.4	-30.0	14.6	1.50e-06	0	45	0	1903165440	17	4357
2026-01-20 10:54:50.46	335.21	16.75	-28.5	-30.3	14.4	7.00e-07	0	45	0	1906311168	17	4434
2026-01-20 10:54:51.46	335.26	16.64	-28.5	-30.4	14.3	7.00e-07	0	45	0	1909456896	17	4476
2026-01-20 10:54:52.47	335.31	16.53	-28.4	-30.0	14.5	2.20e-06	0	45	0	1912602624	17	4351
2026-01-20 10:54:53.48	335.36	16.42	-28.6	-30.5	14.2	1.50e-06	0	45	0	1915748352	17	4486
2026-01-20 10:54:54.48	335.41	16.31	-28.6	-30.5	14.3	1.50e-06	0	45	0	1918894080	17	4487
2026-01-20 10:54:55.48	335.46	16.20	-28.6	-30.5	14.3	0.00e+00	0	45	0	1922039808	17	4485
2026-01-20 10:54:56.48	335.51	16.09	-28.5	-30.4	14.3	0.00e+00	0	45	0	1925185536	17	4465
2026-01-20 10:54:57.48	335.56	15.99	-28.5	-30.4	14.3	7.00e-07	0	45	0	1928331264	17	4473
2026-01-20 10:54:58.47	335.61	15.88	-28.8	-30.9	14.0	7.00e-07	0	45	0	1931476992	17	4622
2026-01-20 10:54:59.48	335.66	15.77	-28.8	-31.1	13.9	3.80e-06	0	45	0	1934622720	17	4691
2026-01-20 10:55:00.47	335.71	15.67	-28.7	-30.9	14.0	2.20e-06	0	45	0	1937768448	17	4615
2026-01-20 10:55:01.48	335.76	15.56	-28.8	-31.0	14.0	3.00e-06	0	45	0	1940914176	17	4638
2026-01-20 10:55:02.48	335.81	15.45	-28.9	-31.3	13.8	3.00e-06	0	45	0	1944059904	17	4738
2026-01-20 10:55:03.48	335.86	15.35	-28.8	-31.2	13.8	3.80e-06	0	45	0	1947205632	17	4706
2026-01-20 10:55:04.49	335.90	15.24	-28.9	-31.4	13.7	6.10e-06	0	45	0	1950351360	17	4788
2026-01-20 10:55:05.50	335.95	15.14	-29.0	-31.1	13.5	8.30e-06	0	45	0	1953497088	18	4564
2026-01-20 10:55:06.50	336.00	15.03	-29.0	-30.9	13.6	9.90e-06	0	45	0	1956642816	18	4519
2026-01-20 10:55:07.51	336.05	14.93	-28.9	-30.9	13.7	4.50e-06	0	45	0	1959788544	18	4507
2026-01-20 10:55:08.51	336.09	14.83	-28.9	-30.7	13.8	3.00e-06	0	45	0	1962934272	18	4446
2026-01-20 10:55:09.52	336.14	14.72	-28.9	-30.8	13.7	4.50e-06	0	45	0	1966080000	18	4494
2026-01-20 10:55:10.52	336.18	14.62	-29.0	-31.0	13.6	1.60e-05	0	45	0	1969225728	18	4549
2026-01-20 10:55:11.53	336.23	14.52	-29.1	-31.3	13.4	9.90e-06	0	45	0	1972371456	18	4624
2026-01-20 10:55:12.53	336.28	14.42	-29.1	-31.2	13.5	9.10e-06	0	45	0	1975517184	18	4601
2026-01-20 10:55:13.53	336.32	14.31	-29.1	-31.3	13.3	1.52e-05	0	45	0	1978662912	18	4652
2026-01-20 10:55:14.53	336.37	14.21	-29.3	-31.9	13.0	3.12e-05	0	45	0	1981808640	18	4835
2026-01-20 10:55:15.53	336.41	14.11	-29.3	-31.8	13.0	5.56e-05	0	45	0	1984954368	18	4815
2026-01-20 10:55:16.53	336.45	14.01	-29.3	-31.9	13.0	3.66e-05	0	45	0	1988100096	18	4823
2026-01-20 10:55:17.53	336.50	13.92	-29.5	-31.9	12.6	6.63e-05	0	45	0	1991245824	19	4717
2026-01-20 10:55:18.54	336.54	13.82	-29.8	-32.5	12.3	1.28e-04	0	45	0	1994391552	19	4926
2026-01-20 10:55:19.54	336.59	13.72	-29.8	-32.5	12.2	2.10e-04	0	45	0	1997537280	19	4923
2026-01-20 10:55:20.55	336.63	13.62	-29.5	-31.8	12.7	9.30e-05	0	45	0	2000683008	19	4698
2026-01-20 10:55:21.54	336.67	13.52	-29.4	-31.4	12.9	4.11e-05	0	45	0	2003828736	19	4579
2026-01-20 10:55:22.55	336.71	13.42	-29.2	-31.0	13.2	1.98e-05	0	45	0	2006974464	19	4440
2026-01-20 10:55:23.55	336.76	13.33	-29.2	-31.0	13.2	1.37e-05	0	45	0	2010120192	19	4434
2026-01-20 10:55:24.55	336.80	13.23	-29.1	-30.8	13.3	9.10e-06	0	45	0	2013265920	19	4392
2026-01-20 10:55:25.56	336.84	13.13	-29.1	-30.9	13.3	2.89e-05	0	45	0	2016411648	19	4410
2026-01-20 10:55:26.56	336.88	13.04	-29.3	-31.4	12.9	2.97e-05	0	45	0	2019557376	19	4571
2026-01-20 10:55:27.57	336.92	12.94	-29.3	-31.3	13.0	3.73e-05	0	45	0	2022703104	19	4537
2026-01-20 10:55:28.56	336.97	12.85	-29.1	-30.9	13.2	3.20e-05	0	45	0	2025848832	19	4402
2026-01-20 10:55:29.57	337.01	12.75	-28.9	-30.4	13.5	1.14e-05	0	45	0	2028994560	19	4272
2026-01-20 10:55:30.56	337.05	12.66	-28.8	-30.2	13.6	1.37e-05	0	45	0	2032140288	19	4200
2026-01-20 10:55:31.56	337.09	12.56	-28.8	-30.7	13.7	6.10e-06	0	45	0	2035286016	18	4450
2026-01-20 10:55:32.57	337.13	12.47	-29.0	-31.0	13.4	7.60e-06	0	45	0	2038431744	18	4567
2026-01-20 10:55:33.57	337.17	12.37	-28.9	-30.8	13.6	6.10e-06	0	45	0	2041577472	18	4480
2026-01-20 10:55:34.58	337.21	12.28	-28.8	-30.7	13.6	5.30e-06	0	45	0	2044723200	18	4454
2026-01-20 10:55:35.58	337.25	12.19	-29.0	-31.2	13.3	9.90e-06	0	45	0	2047868928	18	4610
2026-01-20 10:55:36.58	337.29	12.10	-28.9	-31.0	13.4	1.14e-05	0	45	0	2051014656	18	4542
2026-01-20 10:55:37.58	337.33	12.00	-29.0	-31.1	13.4	1.52e-05	0	45	0	2054160384	18	4580
2026-01-20 10:55:38.59	337.37	11.91	-29.1	-31.3	13.3	2.21e-05	0	45	0	2057306112	18	4639
2026-01-20 10:55:39.59	337.40	11.82	-29.1	-31.3	13.3	3.12e-05	0	45	0	2060451840	18	4640
2026-01-20 10:55:40.59	337.44	11.73	-29.1	-31.4	13.1	3.43e-05	0	45	0	2063597568	18	4672
2026-01-20 10:55:41.59	337.48	11.64	-29.1	-31.3	13.2	2.51e-05	0	45	0	2066743296	18	4659
2026-01-20 10:55:42.59	337.52	11.55	-29.1	-31.4	13.1	3.43e-05	0	45	0	2069889024	18	4669
2026-01-20 10:55:43.60	337.56	11.46	-29.1	-31.3	13.2	1.29e-05	0	45	0	2073034752	18	4659
2026-01-20 10:55:44.60	337.59	11.37	-29.0	-31.2	13.2	2.28e-05	0	45	0	2076180480	18	4631
2026-01-20 10:55:45.60	337.63	11.28	-29.1	-31.3	13.2	1.98e-05	0	45	0	2079326208	18	4664
2026-01-20 10:55:46.61	337.67	11.19	-29.1	-31.3	13.2	2.13e-05	0	45	0	2082471936	18	4647
2026-01-20 10:55:47.61	337.71	11.10	-29.0	-31.1	13.3	2.59e-05	0	45	0	2085617664	18	4597
2026-01-20 10:55:48.61	337.74	11.01	-29.0	-31.2	13.2	3.58e-05	0	45	0	2088763392	18	4614
2026-01-20 10:55:49.62	337.78	10.92	-28.9	-30.9	13.4	6.80e-06	0	45	0	2091909120	18	4516
2026-01-20 10:55:50.62	337.82	10.83	-29.0	-31.0	13.3	1.90e-05	0	45	0	2095054848	18	4568
2026-01-20 10:55:51.62	337.85	10.75	-29.0	-31.3	13.2	2.05e-05	0	45	0	2098200576	18	4643
2026-01-20 10:55:52.62	337.89	10.66	-29.0	-31.1	13.2	2.13e-05	0	45	0	2101346304	18	4606
2026-01-20 10:55:53.62	337.92	10.57	-29.2	-31.6	12.9	2.36e-05	0	45	0	2104492032	18	4757
2026-01-20 10:55:54.63	337.96	10.48	-29.0	-31.2	13.2	1.37e-05	0	45	0	2107637760	18	4613
2026-01-20 10:55:55.63	338.00	10.40	-29.1	-31.5	13.0	3.20e-05	0	45	0	2110783488	18	4730
2026-01-20 10:55:56.64	338.03	10.31	-29.1	-31.4	13.0	4.34e-05	0	45	0	2113929216	18	4678
2026-01-20 10:55:57.64	338.07	10.23	-29.0	-31.1	13.2	1.98e-05	0	45	0	2117074944	18	4601
2026-01-20 10:55:58.65	338.10	10.14	-28.9	-31.0	13.3	3.12e-05	0	45	0	2120220672	18	4551
2026-01-20 10:55:59.65	338.14	10.05	-29.2	-31.7	12.9	4.73e-05	0	45	0	2123366400	18	4780
