passes_logs/2026/01/20/R2M6_AANII_01/R2M6_AANII_01__20260120_234259_NOAA_20_JPSS-1_rec.log

#Pass ID: 20260120_234259_NOAA 20 (JPSS-1)
#Satellite: NOAA 20 (JPSS-1)
#Configuration: NOAA 20
#almurnet v.1.7.20240730
#Start time: 2026-01-20 23:43:00

#Version: 2.2.20231116
#Station: R2M6_AANII_01
#Location: 30.233357 lon 59.946436 lat
#TLE: 1 43013U 17073A   26020.26397077  .00000127  00000+0  80954-4 0  9999
#TLE: 2 43013  98.7643 321.1479 0001288  31.3158 328.8095 14.19537595423482

#Time	Az	El	Level	Level2	SNR	BER	BlckErr	Temp	State	Recorded	gain1	gain2
2026-01-20 23:43:00.31	21.80	7.03	-31.4	-37.3	5.2	1.24e+00	0	42	0	0	22	7134
2026-01-20 23:43:01.31	21.83	7.10	-31.8	-38.6	4.9	1.30e+00	0	42	104	0	23	7898
2026-01-20 23:43:02.32	21.87	7.18	-31.8	-38.4	7.6	1.02e-01	0	42	0	0	23	7714
2026-01-20 23:43:03.32	21.91	7.25	-31.8	-38.6	7.4	1.28e-01	0	42	0	1048576	23	7890
2026-01-20 23:43:04.32	21.95	7.33	-31.7	-38.1	7.8	9.25e-02	0	42	0	3145728	23	7477
2026-01-20 23:43:05.32	21.99	7.40	-31.6	-37.7	8.1	7.00e-02	0	42	0	5242880	23	7230
2026-01-20 23:43:06.32	22.03	7.48	-31.6	-37.4	8.4	4.89e-02	0	42	0	7340032	23	7009
2026-01-20 23:43:07.33	22.07	7.56	-31.5	-37.2	8.6	4.01e-02	0	42	0	9437184	23	6889
2026-01-20 23:43:08.32	22.11	7.63	-31.5	-37.0	8.8	3.55e-02	0	42	0	10485760	23	6761
2026-01-20 23:43:09.33	22.15	7.71	-31.5	-37.1	8.7	3.38e-02	0	42	0	12582912	23	6828
2026-01-20 23:43:10.33	22.19	7.78	-31.4	-37.2	9.0	2.87e-02	0	42	0	14680064	22	6973
2026-01-20 23:43:11.33	22.23	7.86	-31.3	-36.8	9.3	2.06e-02	0	42	0	16777216	22	6780
2026-01-20 23:43:12.33	22.27	7.94	-31.4	-37.1	9.1	2.48e-02	0	42	0	17825792	22	6912
2026-01-20 23:43:13.34	22.32	8.02	-31.2	-36.4	9.6	1.66e-02	0	42	0	19922944	22	6523
2026-01-20 23:43:14.35	22.36	8.09	-31.1	-35.9	10.0	1.21e-02	0	42	0	22020096	22	6245
2026-01-20 23:43:15.35	22.40	8.17	-30.9	-35.8	10.4	5.10e-03	0	43	0	24117248	21	6331
2026-01-20 23:43:16.36	22.44	8.25	-30.9	-35.8	10.4	4.29e-03	0	42	0	26214400	21	6336
2026-01-20 23:43:17.36	22.48	8.33	-31.0	-35.6	10.2	7.60e-03	0	43	0	27262976	22	6113
2026-01-20 23:43:18.36	22.53	8.41	-30.9	-35.9	10.5	4.10e-03	0	43	0	29360128	21	6337
2026-01-20 23:43:19.37	22.57	8.49	-30.9	-35.7	10.6	4.32e-03	0	43	0	31457280	21	6251
2026-01-20 23:43:20.37	22.61	8.57	-30.9	-35.6	10.6	5.29e-03	0	43	0	33554432	21	6214
2026-01-20 23:43:21.37	22.65	8.65	-30.9	-35.6	10.6	3.49e-03	0	43	0	35651584	21	6212
2026-01-20 23:43:22.37	22.70	8.72	-30.9	-35.6	10.6	3.47e-03	0	43	0	36700160	21	6218
2026-01-20 23:43:23.37	22.74	8.80	-30.9	-35.6	10.7	5.00e-03	0	43	0	38797312	21	6197
2026-01-20 23:43:24.38	22.78	8.89	-31.0	-35.4	10.4	5.10e-03	0	43	0	40894464	22	6005
2026-01-20 23:43:25.38	22.83	8.97	-30.8	-35.2	10.9	4.95e-03	0	43	0	42991616	21	5996
2026-01-20 23:43:26.39	22.87	9.05	-30.7	-35.0	11.1	1.58e-03	0	43	0	45088768	21	5904
2026-01-20 23:43:27.39	22.92	9.13	-30.7	-35.1	11.0	2.27e-03	0	43	0	46137344	21	5972
2026-01-20 23:43:28.39	22.96	9.21	-30.6	-34.7	11.4	3.11e-03	0	43	0	48234496	21	5746
2026-01-20 23:43:29.39	23.00	9.29	-30.5	-34.5	11.5	2.39e-03	0	43	0	50331648	21	5660
2026-01-20 23:43:30.40	23.05	9.37	-30.5	-34.4	11.6	9.94e-04	0	43	0	52428800	21	5619
2026-01-20 23:43:31.40	23.09	9.45	-30.5	-34.3	11.6	2.45e-03	0	43	0	54525952	21	5577
2026-01-20 23:43:32.41	23.14	9.54	-30.5	-34.3	11.7	2.14e-03	0	43	0	55574528	21	5583
2026-01-20 23:43:33.42	23.18	9.62	-30.5	-34.5	11.5	9.31e-04	0	43	0	57671680	21	5652
2026-01-20 23:43:34.42	23.23	9.70	-30.5	-34.4	11.6	2.67e-03	0	43	0	59768832	21	5633
2026-01-20 23:43:35.42	23.28	9.78	-30.4	-34.6	11.8	1.98e-03	0	43	0	61865984	20	5820
2026-01-20 23:43:36.43	23.32	9.87	-30.5	-34.7	11.8	7.26e-04	0	43	0	63963136	20	5860
2026-01-20 23:43:37.43	23.37	9.95	-30.5	-34.7	11.7	2.07e-03	0	43	0	65011712	20	5865
2026-01-20 23:43:38.44	23.42	10.04	-30.5	-34.7	11.7	1.81e-03	0	43	0	67108864	20	5868
2026-01-20 23:43:39.44	23.46	10.12	-30.5	-34.4	11.7	8.31e-04	0	43	0	69206016	21	5602
2026-01-20 23:43:40.44	23.51	10.20	-30.5	-34.3	11.7	8.28e-04	0	43	0	71303168	21	5577
2026-01-20 23:43:41.44	23.56	10.29	-30.5	-34.7	11.8	1.67e-03	0	43	0	73400320	20	5863
2026-01-20 23:43:42.45	23.61	10.37	-30.5	-34.3	11.8	8.73e-04	0	43	0	74448896	21	5560
2026-01-20 23:43:43.44	23.65	10.46	-30.6	-34.4	11.7	1.86e-03	0	43	0	76546048	21	5629
2026-01-20 23:43:44.44	23.70	10.54	-30.6	-34.6	11.5	2.00e-03	0	43	0	78643200	21	5688
2026-01-20 23:43:45.45	23.75	10.63	-30.6	-34.4	11.6	9.31e-04	0	43	0	80740352	21	5623
2026-01-20 23:43:46.45	23.80	10.71	-30.7	-35.0	11.3	2.18e-03	0	43	0	81788928	21	5859
2026-01-20 23:43:47.45	23.85	10.80	-30.7	-35.0	11.3	1.38e-03	0	44	0	83886080	21	5868
2026-01-20 23:43:48.46	23.90	10.89	-30.5	-34.3	11.8	1.09e-03	0	43	0	85983232	21	5584
2026-01-20 23:43:49.46	23.95	10.97	-30.5	-34.6	11.9	1.74e-03	0	44	0	88080384	20	5813
2026-01-20 23:43:50.46	23.99	11.06	-30.4	-34.5	12.1	1.63e-03	0	43	0	90177536	20	5740
2026-01-20 23:43:51.46	24.04	11.15	-30.4	-34.5	12.0	6.02e-04	0	43	0	91226112	20	5756
2026-01-20 23:43:52.47	24.09	11.24	-30.5	-34.3	11.8	1.94e-03	0	44	0	93323264	21	5552
2026-01-20 23:43:53.47	24.15	11.32	-30.6	-34.6	11.6	1.84e-03	0	43	0	95420416	21	5696
2026-01-20 23:43:54.48	24.20	11.41	-30.6	-34.6	11.6	7.41e-04	0	43	0	97517568	21	5670
2026-01-20 23:43:55.48	24.25	11.50	-30.4	-34.1	12.0	2.20e-03	0	44	0	99614720	21	5452
2026-01-20 23:43:56.48	24.30	11.59	-30.3	-34.1	12.3	1.76e-03	0	44	0	100663296	20	5596
2026-01-20 23:43:57.48	24.35	11.68	-30.3	-34.1	12.3	1.46e-04	0	43	0	102760448	20	5575
2026-01-20 23:43:58.48	24.40	11.77	-30.3	-34.2	12.3	4.97e-04	0	44	0	104857600	20	5622
2026-01-20 23:43:59.49	24.45	11.86	-30.3	-34.2	12.3	2.03e-03	0	43	0	106954752	20	5603
2026-01-20 23:44:00.49	24.51	11.95	-30.3	-34.2	12.3	5.48e-04	0	43	0	109051904	20	5597
2026-01-20 23:44:01.50	24.56	12.04	-30.3	-34.0	12.4	1.61e-04	0	44	0	110100480	20	5546
2026-01-20 23:44:02.49	24.61	12.13	-30.4	-34.3	12.2	9.59e-04	0	44	0	112197632	20	5660
2026-01-20 23:44:03.50	24.67	12.22	-30.3	-34.2	12.3	6.00e-04	0	44	0	114294784	20	5598
2026-01-20 23:44:04.50	24.72	12.31	-30.3	-34.1	12.4	1.47e-04	0	43	0	116391936	20	5556
2026-01-20 23:44:05.51	24.77	12.40	-30.4	-34.4	12.2	1.82e-04	0	44	0	118489088	20	5711
2026-01-20 23:44:06.51	24.83	12.50	-30.4	-34.0	12.1	7.79e-04	0	44	0	119537664	21	5412
2026-01-20 23:44:07.52	24.88	12.59	-30.4	-34.4	12.2	1.92e-04	0	44	0	121634816	20	5676
2026-01-20 23:44:08.51	24.94	12.68	-30.6	-34.4	11.9	3.07e-04	0	44	0	123731968	21	5569
2026-01-20 23:44:09.52	24.99	12.77	-30.8	-35.2	11.3	1.03e-03	0	44	0	125829120	21	5957
2026-01-20 23:44:10.52	25.05	12.87	-31.0	-35.1	11.0	3.91e-03	0	44	0	127926272	22	5803
2026-01-20 23:44:11.53	25.10	12.96	-31.0	-35.2	11.0	2.07e-03	0	44	0	128974848	22	5807
2026-01-20 23:44:12.53	25.16	13.06	-31.0	-35.2	11.0	1.78e-03	0	44	0	131072000	22	5814
2026-01-20 23:44:13.54	25.22	13.15	-31.0	-35.0	11.1	4.10e-03	0	44	0	133169152	22	5736
2026-01-20 23:44:14.54	25.27	13.24	-30.8	-35.1	11.4	1.07e-03	0	44	0	135266304	21	5903
2026-01-20 23:44:15.54	25.33	13.34	-30.9	-35.5	11.1	1.17e-03	0	44	0	136314880	21	6064
2026-01-20 23:44:16.54	25.39	13.43	-30.9	-34.9	11.2	1.86e-03	0	44	0	138412032	22	5681
2026-01-20 23:44:17.55	25.45	13.53	-30.7	-34.6	11.8	2.38e-03	0	44	0	140509184	21	5650
2026-01-20 23:44:18.56	25.51	13.63	-30.5	-34.2	12.1	3.32e-04	0	44	0	142606336	21	5478
2026-01-20 23:44:19.56	25.56	13.72	-30.4	-34.3	12.4	1.79e-04	0	44	0	144703488	20	5636
2026-01-20 23:44:20.56	25.62	13.82	-30.5	-34.0	12.2	2.15e-04	0	44	0	145752064	21	5411
2026-01-20 23:44:21.56	25.68	13.92	-30.7	-34.5	11.9	4.32e-04	0	44	0	147849216	21	5624
2026-01-20 23:44:22.57	25.74	14.02	-30.6	-34.3	12.0	4.20e-04	0	44	0	149946368	21	5527
2026-01-20 23:44:23.57	25.80	14.11	-30.6	-34.5	11.9	3.04e-04	0	44	0	152043520	21	5608
2026-01-20 23:44:24.57	25.86	14.21	-30.7	-34.8	11.7	6.23e-04	0	44	0	154140672	21	5736
2026-01-20 23:44:25.57	25.92	14.31	-30.7	-34.8	11.7	4.97e-04	0	44	0	155189248	21	5760
2026-01-20 23:44:26.57	25.98	14.41	-30.7	-34.7	11.7	6.91e-04	0	44	0	157286400	21	5708
2026-01-20 23:44:27.57	26.05	14.51	-30.6	-34.4	12.0	5.68e-04	0	44	0	159383552	21	5556
2026-01-20 23:44:28.57	26.11	14.61	-30.5	-34.0	12.2	2.43e-04	0	44	0	161480704	21	5408
2026-01-20 23:44:29.57	26.17	14.71	-30.5	-34.0	12.3	1.84e-04	0	44	0	163577856	21	5381
2026-01-20 23:44:30.56	26.23	14.81	-30.4	-34.4	12.3	1.84e-04	0	44	0	164626432	20	5668
2026-01-20 23:44:31.57	26.30	14.91	-30.2	-33.8	12.8	9.53e-05	0	44	0	166723584	20	5409
2026-01-20 23:44:32.57	26.36	15.01	-30.0	-33.1	13.2	4.04e-05	0	44	0	168820736	20	5137
2026-01-20 23:44:33.57	26.42	15.11	-29.8	-32.5	13.6	8.30e-06	0	44	0	170917888	20	4905
2026-01-20 23:44:34.58	26.49	15.21	-29.8	-33.1	13.6	6.80e-06	0	44	0	173015040	19	5233
2026-01-20 23:44:35.58	26.55	15.32	-29.8	-33.1	13.6	9.10e-06	0	44	0	174063616	19	5249
2026-01-20 23:44:36.59	26.62	15.42	-29.8	-32.9	13.8	8.30e-06	0	44	0	176160768	19	5162
2026-01-20 23:44:37.59	26.68	15.52	-29.7	-32.7	13.9	2.20e-06	0	44	0	178257920	19	5095
2026-01-20 23:44:38.59	26.75	15.63	-29.7	-32.6	13.9	2.20e-06	0	44	0	180355072	19	5061
2026-01-20 23:44:39.59	26.81	15.73	-29.6	-32.6	14.0	3.80e-06	0	44	0	181403648	19	5043
2026-01-20 23:44:40.60	26.88	15.84	-29.7	-32.6	14.0	1.50e-06	0	44	0	183500800	19	5057
2026-01-20 23:44:41.60	26.95	15.94	-29.8	-33.0	13.8	7.00e-07	0	44	0	185597952	19	5191
2026-01-20 23:44:42.61	27.02	16.05	-29.7	-32.8	13.6	8.30e-06	0	44	0	187695104	19	5126
2026-01-20 23:44:43.62	27.09	16.15	-29.6	-32.5	14.1	5.30e-06	0	44	0	189792256	19	5001
2026-01-20 23:44:44.62	27.15	16.26	-29.5	-32.2	14.2	3.85e-04	0	44	0	191889408	19	4919
2026-01-20 23:44:45.63	27.22	16.37	-29.5	-32.1	14.3	0.00e+00	0	44	0	192937984	19	4876
2026-01-20 23:44:46.63	27.29	16.48	-29.5	-32.2	14.3	1.50e-06	0	44	0	195035136	19	4915
2026-01-20 23:44:47.63	27.36	16.58	-29.5	-32.2	14.3	1.50e-06	0	44	0	197132288	19	4890
2026-01-20 23:44:48.63	27.43	16.69	-29.4	-32.0	14.4	2.89e-04	0	44	0	199229440	19	4834
2026-01-20 23:44:49.64	27.51	16.80	-29.5	-32.1	14.4	1.50e-06	0	44	0	200278016	19	4877
2026-01-20 23:44:50.63	27.58	16.91	-29.5	-32.5	14.4	7.00e-07	0	44	0	202375168	18	5132
2026-01-20 23:44:51.64	27.65	17.02	-29.5	-32.6	14.4	2.90e-04	0	44	0	204472320	18	5150
2026-01-20 23:44:52.64	27.72	17.13	-29.6	-32.5	14.2	7.00e-07	0	44	0	206569472	19	4997
2026-01-20 23:44:53.65	27.79	17.24	-29.5	-32.3	14.2	3.00e-06	0	44	0	208666624	19	4933
2026-01-20 23:44:54.65	27.87	17.35	-29.4	-31.9	14.5	7.00e-07	0	44	0	209715200	19	4803
2026-01-20 23:44:55.66	27.94	17.46	-29.4	-31.8	14.6	4.50e-06	0	44	0	211812352	19	4764
2026-01-20 23:44:56.66	28.02	17.57	-29.3	-32.3	14.6	0.00e+00	0	44	0	213909504	18	5036
2026-01-20 23:44:57.66	28.09	17.68	-29.4	-32.3	14.6	0.00e+00	0	44	0	216006656	18	5047
2026-01-20 23:44:58.67	28.17	17.80	-29.3	-32.1	14.7	1.85e-04	0	44	0	218103808	18	4979
2026-01-20 23:44:59.67	28.24	17.91	-29.3	-32.1	14.7	3.19e-04	0	44	0	219152384	18	4990
2026-01-20 23:45:00.67	28.32	18.02	-29.3	-32.1	14.7	0.00e+00	0	44	0	221249536	18	4955
2026-01-20 23:45:01.67	28.40	18.14	-29.3	-32.1	14.7	1.78e-04	0	44	0	223346688	18	4969
2026-01-20 23:45:02.67	28.47	18.25	-29.3	-32.1	14.8	4.07e-04	0	44	0	225443840	18	4959
2026-01-20 23:45:03.68	28.55	18.37	-29.3	-32.2	14.7	0.00e+00	0	44	0	227540992	18	5006
2026-01-20 23:45:04.68	28.63	18.48	-29.4	-32.3	14.6	0.00e+00	0	44	0	228589568	18	5039
2026-01-20 23:45:05.68	28.71	18.60	-29.4	-32.3	14.6	4.67e-04	0	44	0	230686720	18	5063
2026-01-20 23:45:06.68	28.79	18.72	-29.4	-32.4	14.6	7.39e-04	0	44	0	232783872	18	5064
2026-01-20 23:45:07.69	28.87	18.83	-29.4	-32.3	14.6	7.00e-07	0	44	0	234881024	18	5059
2026-01-20 23:45:08.69	28.95	18.95	-29.4	-32.3	14.6	3.96e-04	0	44	0	236978176	18	5045
2026-01-20 23:45:09.69	29.03	19.07	-29.4	-32.4	14.5	6.49e-04	0	44	0	238026752	18	5099
2026-01-20 23:45:10.70	29.12	19.19	-29.5	-32.6	14.4	1.23e-04	0	44	0	240123904	18	5156
2026-01-20 23:45:11.70	29.20	19.31	-29.6	-32.5	14.1	1.50e-06	0	44	0	242221056	19	5010
2026-01-20 23:45:12.70	29.28	19.43	-29.6	-32.5	14.1	5.37e-04	0	44	0	244318208	19	5010
2026-01-20 23:45:13.71	29.37	19.55	-29.7	-32.7	14.0	1.14e-04	0	44	0	245366784	19	5088
2026-01-20 23:45:14.71	29.45	19.67	-29.7	-32.5	14.2	2.20e-06	0	44	0	247463936	19	5002
2026-01-20 23:45:15.71	29.54	19.79	-29.5	-32.1	14.4	3.65e-04	0	44	0	249561088	19	4876
2026-01-20 23:45:16.72	29.62	19.91	-29.4	-31.9	14.6	5.26e-05	0	44	0	251658240	19	4791
2026-01-20 23:45:17.72	29.71	20.03	-29.5	-32.1	14.5	2.67e-04	0	44	0	253755392	19	4862
2026-01-20 23:45:18.73	29.80	20.16	-29.5	-32.5	14.5	2.86e-04	0	44	0	254803968	18	5110
2026-01-20 23:45:19.73	29.89	20.28	-29.6	-32.4	14.3	9.10e-06	0	44	0	256901120	19	4954
2026-01-20 23:45:20.73	29.97	20.40	-29.6	-32.4	14.3	2.39e-04	0	44	0	258998272	19	4958
2026-01-20 23:45:21.74	30.06	20.53	-29.7	-32.5	14.2	2.33e-04	0	44	0	261095424	19	5007
2026-01-20 23:45:22.74	30.15	20.65	-29.6	-32.5	14.3	7.00e-07	0	44	0	263192576	19	4990
2026-01-20 23:45:23.74	30.24	20.78	-29.5	-32.1	14.5	2.40e-04	0	44	0	264241152	19	4860
2026-01-20 23:45:24.74	30.34	20.91	-29.4	-32.3	14.7	2.48e-04	0	44	0	266338304	18	5023
2026-01-20 23:45:25.74	30.43	21.03	-29.4	-32.2	14.8	0.00e+00	0	44	0	268435456	18	5000
2026-01-20 23:45:26.75	30.52	21.16	-29.4	-32.3	14.7	2.44e-04	0	44	0	270532608	18	5032
2026-01-20 23:45:27.75	30.61	21.29	-29.4	-32.4	14.7	2.41e-04	0	44	0	272629760	18	5063
2026-01-20 23:45:28.75	30.71	21.42	-29.3	-31.9	15.0	0.00e+00	0	44	0	273678336	18	4906
2026-01-20 23:45:29.76	30.80	21.55	-29.1	-31.6	15.1	2.17e-04	0	44	0	275775488	18	4804
2026-01-20 23:45:30.76	30.90	21.67	-29.1	-31.6	15.2	3.95e-04	0	44	0	277872640	18	4797
2026-01-20 23:45:31.76	31.00	21.80	-29.0	-31.4	15.3	3.09e-04	0	44	0	279969792	18	4727
2026-01-20 23:45:32.77	31.10	21.94	-29.1	-31.7	15.1	1.75e-05	0	44	0	282066944	18	4808
2026-01-20 23:45:33.77	31.19	22.07	-29.1	-31.5	15.3	6.21e-04	0	44	0	283115520	18	4750
2026-01-20 23:45:34.77	31.29	22.20	-29.0	-31.4	15.3	7.88e-04	0	44	0	285212672	18	4715
2026-01-20 23:45:35.78	31.39	22.33	-29.1	-31.5	15.2	0.00e+00	0	44	0	287309824	18	4749
2026-01-20 23:45:36.78	31.49	22.47	-29.1	-31.5	15.3	1.46e-03	0	44	0	289406976	18	4739
2026-01-20 23:45:37.78	31.59	22.60	-29.1	-31.6	15.2	1.13e-03	0	44	0	291504128	18	4781
2026-01-20 23:45:38.78	31.70	22.73	-29.2	-31.8	15.1	2.20e-04	0	44	0	292552704	18	4846
2026-01-20 23:45:39.78	31.80	22.87	-29.2	-31.8	15.1	0.00e+00	0	44	0	294649856	18	4852
2026-01-20 23:45:40.78	31.90	23.00	-29.2	-31.9	15.1	5.83e-04	0	44	0	296747008	18	4883
2026-01-20 23:45:41.79	32.01	23.14	-29.2	-31.8	15.1	1.79e-04	0	44	0	298844160	18	4841
2026-01-20 23:45:42.78	32.11	23.28	-29.2	-31.8	15.1	0.00e+00	0	44	0	300941312	18	4842
2026-01-20 23:45:43.78	32.22	23.41	-29.1	-31.6	15.2	2.64e-04	0	44	0	301989888	18	4771
2026-01-20 23:45:44.78	32.33	23.55	-29.2	-31.8	15.1	1.04e-04	0	44	0	304087040	18	4844
2026-01-20 23:45:45.78	32.44	23.69	-29.1	-31.4	15.3	1.49e-04	0	44	0	306184192	18	4732
2026-01-20 23:45:46.79	32.55	23.83	-29.0	-31.3	15.4	0.00e+00	0	44	0	308281344	18	4672
2026-01-20 23:45:47.79	32.66	23.97	-29.1	-31.5	15.3	9.15e-05	0	44	0	309329920	18	4743
2026-01-20 23:45:48.80	32.77	24.11	-29.1	-31.6	15.2	7.85e-05	0	44	0	311427072	18	4793
2026-01-20 23:45:49.79	32.88	24.25	-29.2	-31.8	15.1	0.00e+00	0	44	0	313524224	18	4843
2026-01-20 23:45:50.80	32.99	24.40	-29.3	-32.0	15.0	0.00e+00	0	44	0	315621376	18	4922
2026-01-20 23:45:51.80	33.11	24.54	-29.5	-32.4	14.7	7.47e-05	0	44	0	317718528	18	5063
2026-01-20 23:45:52.80	33.22	24.68	-29.5	-32.1	14.7	0.00e+00	0	44	0	318767104	19	4824
2026-01-20 23:45:53.81	33.34	24.83	-29.6	-32.4	14.5	7.00e-07	0	44	0	320864256	19	4930
2026-01-20 23:45:54.81	33.46	24.97	-29.7	-32.5	14.4	2.89e-05	0	44	0	322961408	19	4966
2026-01-20 23:45:55.81	33.57	25.12	-29.7	-32.6	14.4	1.90e-05	0	44	0	325058560	19	5001
2026-01-20 23:45:56.81	33.69	25.26	-29.8	-32.8	14.2	0.00e+00	0	44	0	327155712	19	5074
2026-01-20 23:45:57.81	33.81	25.41	-29.8	-32.8	14.2	7.00e-07	0	44	0	328204288	19	5078
2026-01-20 23:45:58.80	33.93	25.56	-29.9	-33.0	14.1	3.95e-04	0	44	0	330301440	19	5144
2026-01-20 23:45:59.80	34.06	25.70	-29.9	-32.9	14.1	3.00e-06	0	44	0	332398592	19	5134
2026-01-20 23:46:00.80	34.18	25.85	-29.9	-33.1	14.0	1.50e-06	0	44	0	334495744	19	5200
2026-01-20 23:46:01.81	34.31	26.00	-29.9	-33.1	14.0	7.00e-07	0	44	0	336592896	19	5192
2026-01-20 23:46:02.82	34.43	26.15	-29.9	-33.0	14.1	1.29e-05	0	44	0	337641472	19	5160
2026-01-20 23:46:03.83	34.56	26.31	-30.0	-33.2	14.0	2.20e-06	0	44	0	339738624	19	5243
2026-01-20 23:46:04.83	34.69	26.46	-30.0	-32.8	13.9	4.50e-06	0	44	0	341835776	20	4964
2026-01-20 23:46:05.84	34.82	26.61	-30.1	-33.2	13.7	9.90e-06	0	44	0	343932928	20	5113
2026-01-20 23:46:06.84	34.95	26.76	-30.1	-33.0	13.7	3.80e-06	0	44	0	346030080	20	5067
2026-01-20 23:46:07.84	35.08	26.92	-30.1	-33.2	13.7	8.30e-06	0	44	0	347078656	20	5120
2026-01-20 23:46:08.84	35.22	27.07	-30.2	-33.3	13.6	5.30e-06	0	44	0	349175808	20	5151
2026-01-20 23:46:09.84	35.35	27.23	-30.3	-33.6	13.4	7.60e-06	0	44	0	351272960	20	5260
2026-01-20 23:46:10.84	35.49	27.38	-30.2	-33.5	13.4	1.14e-05	0	44	0	353370112	20	5223
2026-01-20 23:46:11.84	35.62	27.54	-30.1	-33.2	13.6	9.90e-06	0	44	0	354418688	20	5128
2026-01-20 23:46:12.85	35.76	27.70	-30.3	-33.6	13.3	1.06e-05	0	44	0	356515840	20	5274
2026-01-20 23:46:13.85	35.90	27.86	-30.2	-33.4	13.5	9.10e-06	0	45	0	358612992	20	5201
2026-01-20 23:46:14.85	36.04	28.02	-30.2	-33.4	13.5	1.14e-05	0	44	0	360710144	20	5212
2026-01-20 23:46:15.86	36.19	28.18	-30.2	-33.4	13.5	9.10e-06	0	44	0	362807296	20	5202
2026-01-20 23:46:16.86	36.33	28.34	-30.4	-33.8	13.3	1.44e-05	0	44	0	363855872	20	5345
2026-01-20 23:46:17.87	36.48	28.50	-30.4	-33.8	13.2	2.36e-05	0	45	0	365953024	20	5365
2026-01-20 23:46:18.86	36.62	28.66	-30.6	-33.9	12.9	3.35e-05	0	44	0	368050176	21	5266
2026-01-20 23:46:19.87	36.77	28.82	-30.9	-34.8	12.3	1.17e-04	0	45	0	370147328	21	5648
2026-01-20 23:46:20.87	36.92	28.99	-30.9	-34.8	12.3	1.68e-04	0	44	0	372244480	21	5656
2026-01-20 23:46:21.87	37.07	29.15	-31.1	-34.9	11.9	2.72e-04	0	44	0	373293056	22	5581
2026-01-20 23:46:22.88	37.22	29.32	-31.3	-35.6	11.4	5.67e-04	0	45	0	375390208	22	5879
2026-01-20 23:46:23.88	37.38	29.48	-31.2	-35.3	11.6	8.15e-04	0	44	0	377487360	22	5747
2026-01-20 23:46:24.89	37.53	29.65	-31.3	-35.5	11.4	6.99e-04	0	44	0	379584512	22	5862
2026-01-20 23:46:25.89	37.69	29.82	-31.5	-35.7	11.0	1.59e-03	0	45	0	381681664	23	5827
2026-01-20 23:46:26.89	37.85	29.99	-31.5	-35.5	11.1	1.81e-03	0	44	0	382730240	23	5759
2026-01-20 23:46:27.89	38.01	30.16	-31.4	-35.3	11.3	1.52e-03	0	44	0	384827392	23	5656
2026-01-20 23:46:28.89	38.17	30.32	-31.5	-35.8	11.0	1.52e-03	0	45	0	386924544	23	5863
2026-01-20 23:46:29.89	38.34	30.49	-31.5	-35.8	10.9	2.26e-03	0	44	0	389021696	23	5858
2026-01-20 23:46:30.90	38.50	30.67	-31.7	-36.3	10.5	3.21e-03	0	44	0	391118848	23	6125
2026-01-20 23:46:31.90	38.67	30.84	-31.6	-35.8	10.9	2.99e-03	0	44	0	392167424	23	5869
2026-01-20 23:46:32.90	38.84	31.01	-31.5	-35.6	11.1	1.79e-03	0	44	0	394264576	23	5762
2026-01-20 23:46:33.90	39.01	31.18	-31.5	-35.5	11.2	1.18e-03	0	44	0	396361728	23	5714
2026-01-20 23:46:34.91	39.18	31.36	-31.4	-35.4	11.2	1.29e-03	0	44	0	398458880	23	5699
2026-01-20 23:46:35.92	39.36	31.54	-31.5	-35.5	11.1	1.29e-03	0	45	0	400556032	23	5737
2026-01-20 23:46:36.92	39.53	31.71	-31.5	-35.5	11.2	1.49e-03	0	45	0	401604608	23	5718
2026-01-20 23:46:37.92	39.71	31.89	-31.5	-35.4	11.2	1.42e-03	0	44	0	403701760	23	5693
2026-01-20 23:46:38.92	39.89	32.07	-31.5	-35.6	11.1	1.39e-03	0	45	0	405798912	23	5790
2026-01-20 23:46:39.92	40.07	32.24	-31.5	-35.7	11.1	1.81e-03	0	45	0	407896064	23	5812
2026-01-20 23:46:40.93	40.26	32.42	-31.6	-35.9	11.0	1.83e-03	0	44	0	408944640	23	5887
2026-01-20 23:46:41.93	40.44	32.60	-31.6	-35.8	10.9	1.72e-03	0	44	0	411041792	23	5866
2026-01-20 23:46:42.93	40.63	32.78	-31.4	-35.4	11.2	1.67e-03	0	44	0	413138944	23	5676
2026-01-20 23:46:43.93	40.82	32.96	-31.6	-35.8	11.0	2.12e-03	0	44	0	415236096	23	5861
2026-01-20 23:46:44.93	41.01	33.15	-31.3	-34.9	11.6	9.78e-04	0	45	0	417333248	23	5464
2026-01-20 23:46:45.93	41.21	33.33	-31.1	-34.4	12.0	4.05e-04	0	45	0	418381824	23	5253
2026-01-20 23:46:46.93	41.40	33.51	-31.0	-34.0	12.3	2.75e-04	0	45	0	420478976	23	5095
2026-01-20 23:46:47.94	41.60	33.70	-30.9	-33.7	12.5	1.17e-04	0	44	0	422576128	23	4972
2026-01-20 23:46:48.94	41.80	33.88	-30.8	-33.4	12.7	9.15e-05	0	45	0	424673280	23	4876
2026-01-20 23:46:49.95	42.01	34.07	-30.9	-34.3	12.4	9.23e-05	0	44	0	426770432	22	5325
2026-01-20 23:46:50.95	42.21	34.25	-30.7	-33.7	12.8	7.70e-05	0	44	0	427819008	22	5091
2026-01-20 23:46:51.94	42.42	34.44	-30.7	-33.6	12.9	4.27e-05	0	44	0	429916160	22	5044
2026-01-20 23:46:52.95	42.63	34.63	-30.7	-33.7	12.9	5.11e-05	0	45	0	432013312	22	5058
2026-01-20 23:46:53.95	42.84	34.82	-30.9	-34.1	12.6	5.87e-05	0	45	0	434110464	22	5210
2026-01-20 23:46:54.96	43.06	35.01	-30.7	-33.6	12.9	6.94e-05	0	44	0	436207616	22	5030
2026-01-20 23:46:55.96	43.27	35.20	-30.6	-33.3	13.1	2.21e-05	0	44	0	437256192	22	4927
2026-01-20 23:46:56.96	43.49	35.39	-30.6	-33.2	13.2	1.83e-05	0	45	0	439353344	22	4898
2026-01-20 23:46:57.96	43.72	35.58	-30.5	-33.0	13.3	4.50e-05	0	45	0	441450496	22	4830
2026-01-20 23:46:58.96	43.94	35.77	-30.3	-32.5	13.7	8.30e-06	0	45	0	443547648	22	4643
2026-01-20 23:46:59.96	44.17	35.96	-30.2	-32.6	13.9	1.50e-06	0	45	0	444596224	21	4796
2026-01-20 23:47:00.96	44.40	36.16	-30.1	-32.5	14.0	5.30e-06	0	45	0	446693376	21	4746
2026-01-20 23:47:01.96	44.63	36.35	-30.2	-32.6	13.8	2.20e-06	0	44	0	448790528	21	4794
2026-01-20 23:47:02.97	44.87	36.55	-30.0	-32.9	14.1	8.30e-06	0	44	0	450887680	20	4978
2026-01-20 23:47:03.97	45.10	36.74	-30.3	-33.5	13.7	7.00e-07	0	44	0	452984832	20	5203
2026-01-20 23:47:04.98	45.35	36.94	-30.2	-33.3	13.8	3.00e-06	0	45	0	454033408	20	5125
2026-01-20 23:47:05.98	45.59	37.14	-30.1	-33.1	13.9	2.47e-04	0	45	0	456130560	20	5058
2026-01-20 23:47:06.98	45.84	37.33	-30.2	-33.2	13.9	8.30e-06	0	44	0	458227712	20	5103
2026-01-20 23:47:07.99	46.09	37.53	-30.1	-32.9	14.0	2.20e-06	0	45	0	460324864	20	4991
2026-01-20 23:47:08.99	46.34	37.73	-30.0	-32.8	14.1	3.80e-06	0	45	0	462422016	20	4959
2026-01-20 23:47:09.99	46.60	37.93	-30.1	-33.0	14.0	4.50e-06	0	44	0	463470592	20	5012
2026-01-20 23:47:11.00	46.86	38.13	-30.0	-32.6	14.2	2.20e-06	0	45	0	465567744	20	4890
2026-01-20 23:47:12.00	47.12	38.33	-30.2	-33.2	13.9	1.50e-06	0	45	0	467664896	20	5084
2026-01-20 23:47:13.00	47.38	38.53	-29.7	-32.0	14.6	9.90e-06	0	45	0	469762048	20	4684
2026-01-20 23:47:14.00	47.65	38.73	-29.4	-31.2	15.2	0.00e+00	0	45	0	471859200	20	4410
2026-01-20 23:47:15.01	47.93	38.93	-29.3	-31.9	15.4	3.30e-04	0	45	0	472907776	18	4852
2026-01-20 23:47:16.00	48.20	39.13	-29.4	-32.1	15.3	2.14e-04	0	44	0	475004928	18	4921
2026-01-20 23:47:17.01	48.48	39.34	-29.3	-32.0	15.3	0.00e+00	0	45	0	477102080	18	4895
2026-01-20 23:47:18.01	48.76	39.54	-29.4	-32.1	15.3	2.86e-04	0	45	0	479199232	18	4914
2026-01-20 23:47:19.02	49.05	39.75	-29.5	-32.3	15.1	3.25e-04	0	45	0	481296384	18	5008
2026-01-20 23:47:20.02	49.34	39.95	-29.5	-31.9	15.1	0.00e+00	0	45	0	482344960	19	4741
2026-01-20 23:47:21.03	49.63	40.16	-29.6	-32.1	15.0	1.26e-04	0	45	0	484442112	19	4817
2026-01-20 23:47:22.03	49.93	40.36	-29.4	-31.5	15.3	1.75e-04	0	45	0	486539264	19	4627
2026-01-20 23:47:23.03	50.23	40.56	-29.4	-31.6	15.2	0.00e+00	0	44	0	488636416	19	4658
2026-01-20 23:47:24.04	50.53	40.77	-29.6	-32.2	14.9	3.66e-05	0	45	0	490733568	19	4836
2026-01-20 23:47:25.04	50.84	40.98	-29.6	-32.0	15.0	0.00e+00	0	44	0	491782144	19	4786
2026-01-20 23:47:26.05	51.16	41.18	-29.7	-32.4	14.8	0.00e+00	0	45	0	493879296	19	4907
2026-01-20 23:47:27.05	51.47	41.39	-29.6	-32.1	15.0	1.37e-05	0	45	0	495976448	19	4807
2026-01-20 23:47:28.06	51.79	41.60	-29.6	-32.1	15.0	0.00e+00	0	44	0	498073600	19	4805
2026-01-20 23:47:29.06	52.12	41.80	-29.6	-32.2	14.9	0.00e+00	0	44	0	500170752	19	4835
2026-01-20 23:47:30.07	52.45	42.01	-29.8	-32.5	14.7	0.00e+00	0	44	0	501219328	19	4954
2026-01-20 23:47:31.07	52.78	42.22	-29.7	-32.3	14.8	7.00e-07	0	45	0	503316480	19	4886
2026-01-20 23:47:32.08	53.12	42.43	-29.8	-32.7	14.6	0.00e+00	0	45	0	505413632	19	5013
2026-01-20 23:47:33.08	53.46	42.63	-29.9	-33.0	14.4	0.00e+00	0	45	0	507510784	19	5102
2026-01-20 23:47:34.08	53.80	42.84	-30.0	-32.6	14.3	0.00e+00	0	45	0	509607936	20	4894
2026-01-20 23:47:35.09	54.15	43.05	-30.2	-33.2	14.0	7.00e-07	0	45	0	510656512	20	5099
2026-01-20 23:47:36.09	54.51	43.26	-30.1	-33.0	14.0	1.60e-05	0	45	0	512753664	20	5030
2026-01-20 23:47:37.09	54.87	43.46	-30.2	-33.1	14.0	9.90e-06	0	45	0	514850816	20	5057
2026-01-20 23:47:38.10	55.23	43.67	-30.3	-33.6	13.7	5.30e-06	0	44	0	516947968	20	5243
2026-01-20 23:47:39.10	55.60	43.88	-30.4	-33.7	13.6	1.29e-05	0	45	0	517996544	20	5294
2026-01-20 23:47:40.11	55.97	44.09	-30.3	-33.5	13.7	2.44e-04	0	45	0	520093696	20	5200
2026-01-20 23:47:41.11	56.35	44.29	-30.5	-33.6	13.4	3.00e-06	0	45	0	522190848	21	5132
2026-01-20 23:47:42.11	56.73	44.50	-30.8	-34.5	12.8	3.96e-05	0	44	0	524288000	21	5468
2026-01-20 23:47:43.11	57.12	44.70	-31.0	-34.9	12.5	7.40e-05	0	45	0	526385152	21	5674
2026-01-20 23:47:44.11	57.51	44.91	-31.4	-35.6	11.7	2.54e-04	0	45	0	527433728	22	5837
2026-01-20 23:47:45.12	57.91	45.11	-31.3	-35.4	11.8	6.47e-04	0	45	0	529530880	22	5760
2026-01-20 23:47:46.12	58.31	45.32	-31.5	-35.4	11.5	6.47e-04	0	45	0	531628032	23	5645
2026-01-20 23:47:47.12	58.72	45.52	-31.3	-34.8	11.9	4.87e-04	0	45	0	533725184	23	5386
2026-01-20 23:47:48.13	59.14	45.73	-31.2	-34.6	12.1	2.54e-04	0	45	0	535822336	23	5296
2026-01-20 23:47:49.13	59.55	45.93	-31.3	-34.8	11.9	3.24e-04	0	44	0	536870912	23	5382
2026-01-20 23:47:50.14	59.98	46.13	-31.4	-35.2	11.6	4.58e-04	0	45	0	538968064	23	5557
2026-01-20 23:47:51.14	60.41	46.33	-31.6	-35.8	11.3	1.07e-03	0	44	0	541065216	23	5827
2026-01-20 23:47:52.14	60.84	46.54	-31.9	-36.5	10.7	2.61e-03	0	44	0	543162368	23	6176
2026-01-20 23:47:53.15	61.28	46.74	-31.6	-35.6	11.3	1.71e-03	0	45	0	545259520	23	5742
2026-01-20 23:47:54.15	61.73	46.94	-31.1	-34.2	12.3	4.53e-04	0	45	0	546308096	23	5142
2026-01-20 23:47:55.15	62.18	47.13	-30.8	-33.4	12.9	6.33e-05	0	45	0	548405248	23	4842
2026-01-20 23:47:56.16	62.64	47.33	-30.7	-33.5	13.2	2.36e-05	0	45	0	550502400	22	4973
2026-01-20 23:47:57.16	63.10	47.53	-30.8	-33.7	13.1	3.20e-05	0	44	0	552599552	22	5054
2026-01-20 23:47:58.16	63.57	47.72	-30.8	-33.7	13.0	2.82e-05	0	44	0	554696704	22	5062
2026-01-20 23:47:59.17	64.05	47.92	-31.0	-34.5	12.5	8.46e-05	0	44	0	555745280	22	5383
2026-01-20 23:48:00.17	64.53	48.11	-31.1	-34.8	12.3	1.56e-04	0	45	0	557842432	22	5506
2026-01-20 23:48:01.18	65.02	48.30	-31.1	-34.8	12.3	2.18e-04	0	45	0	559939584	22	5518
2026-01-20 23:48:02.18	65.51	48.49	-31.0	-34.3	12.7	1.11e-04	0	45	0	562036736	22	5296
2026-01-20 23:48:03.19	66.01	48.68	-30.8	-33.9	12.9	6.40e-05	0	45	0	564133888	22	5137
2026-01-20 23:48:04.19	66.51	48.87	-30.9	-34.0	12.8	3.73e-05	0	45	0	565182464	22	5173
2026-01-20 23:48:05.19	67.02	49.06	-31.1	-34.7	12.5	1.36e-04	0	45	0	567279616	22	5423
2026-01-20 23:48:06.19	67.54	49.24	-31.0	-34.4	12.6	8.54e-05	0	44	0	569376768	22	5343
2026-01-20 23:48:07.19	68.06	49.42	-31.1	-34.7	12.4	1.30e-04	0	44	0	571473920	22	5434
2026-01-20 23:48:08.20	68.59	49.60	-31.2	-34.9	12.3	1.62e-04	0	45	0	573571072	22	5526
2026-01-20 23:48:09.20	69.13	49.78	-31.1	-34.6	12.5	9.00e-05	0	45	0	574619648	22	5406
2026-01-20 23:48:10.20	69.67	49.96	-31.0	-34.3	12.7	7.24e-05	0	45	0	576716800	22	5293
2026-01-20 23:48:11.20	70.21	50.13	-30.9	-34.1	12.9	6.94e-05	0	45	0	578813952	22	5190
2026-01-20 23:48:12.20	70.77	50.30	-30.8	-33.9	12.9	4.95e-05	0	45	0	580911104	22	5130
2026-01-20 23:48:13.21	71.33	50.48	-30.7	-33.4	13.4	1.44e-05	0	44	0	581959680	22	4932
2026-01-20 23:48:14.22	71.90	50.64	-30.5	-33.1	13.5	1.37e-05	0	45	0	584056832	22	4809
2026-01-20 23:48:15.22	72.47	50.81	-30.3	-32.5	13.8	6.10e-06	0	44	0	586153984	22	4632
2026-01-20 23:48:16.23	73.06	50.98	-29.9	-31.9	14.6	0.00e+00	0	45	0	588251136	21	4531
2026-01-20 23:48:17.24	73.65	51.14	-29.6	-31.7	15.0	0.00e+00	0	45	0	590348288	20	4555
2026-01-20 23:48:18.25	74.24	51.30	-29.7	-31.9	14.8	0.00e+00	0	45	0	591396864	20	4634
2026-01-20 23:48:19.25	74.84	51.45	-29.8	-32.1	14.8	0.00e+00	0	45	0	593494016	20	4693
2026-01-20 23:48:20.26	75.45	51.61	-29.9	-32.4	14.6	0.00e+00	0	45	0	595591168	20	4800
2026-01-20 23:48:21.26	76.06	51.76	-30.0	-32.7	14.4	7.00e-07	0	45	0	597688320	20	4909
2026-01-20 23:48:22.26	76.67	51.90	-29.8	-32.1	14.8	0.00e+00	0	45	0	599785472	20	4695
2026-01-20 23:48:23.26	77.29	52.05	-29.5	-31.3	15.2	0.00e+00	0	45	0	600834048	20	4453
2026-01-20 23:48:24.26	77.92	52.19	-29.3	-31.4	15.5	0.00e+00	0	45	0	602931200	19	4573
2026-01-20 23:48:25.27	78.56	52.33	-29.3	-31.3	15.6	0.00e+00	0	45	0	605028352	19	4555
2026-01-20 23:48:26.27	79.20	52.46	-29.4	-31.5	15.5	0.00e+00	0	45	0	607125504	19	4610
2026-01-20 23:48:27.27	79.84	52.59	-29.5	-31.8	15.4	0.00e+00	0	45	0	609222656	19	4711
2026-01-20 23:48:28.28	80.50	52.72	-29.5	-31.9	15.2	0.00e+00	0	45	0	610271232	19	4727
2026-01-20 23:48:29.28	81.16	52.85	-29.3	-31.3	15.7	1.44e-05	0	44	0	612368384	19	4519
2026-01-20 23:48:30.28	81.82	52.97	-29.1	-30.7	16.0	0.00e+00	0	45	0	614465536	19	4364
2026-01-20 23:48:31.29	82.49	53.09	-29.0	-30.5	16.0	0.00e+00	0	45	0	616562688	19	4312
2026-01-20 23:48:32.29	83.16	53.20	-29.0	-30.5	16.1	6.10e-06	0	45	0	618659840	19	4292
2026-01-20 23:48:33.30	83.85	53.31	-29.1	-30.8	16.0	0.00e+00	0	45	0	619708416	19	4370
2026-01-20 23:48:34.30	84.53	53.42	-29.3	-31.3	15.7	0.00e+00	0	45	0	621805568	19	4540
2026-01-20 23:48:35.30	85.22	53.52	-29.4	-31.6	15.4	0.00e+00	0	44	0	623902720	19	4636
2026-01-20 23:48:36.30	85.91	53.62	-29.4	-31.7	15.4	2.55e-04	0	45	0	625999872	19	4646
2026-01-20 23:48:37.30	86.61	53.71	-29.5	-31.9	15.3	0.00e+00	0	45	0	628097024	19	4725
2026-01-20 23:48:38.30	87.31	53.80	-29.4	-31.5	15.5	7.00e-07	0	44	0	629145600	19	4595
2026-01-20 23:48:39.30	88.01	53.89	-29.5	-31.7	15.5	2.20e-06	0	45	0	631242752	19	4663
2026-01-20 23:48:40.30	88.72	53.97	-29.7	-32.3	15.1	0.00e+00	0	45	0	633339904	19	4851
2026-01-20 23:48:41.30	89.44	54.05	-29.8	-32.7	14.8	0.00e+00	0	45	0	635437056	19	4995
2026-01-20 23:48:42.30	90.15	54.12	-29.8	-32.7	14.8	0.00e+00	0	45	0	636485632	19	4995
2026-01-20 23:48:43.30	90.87	54.19	-29.5	-31.9	15.3	0.00e+00	0	45	0	638582784	19	4734
2026-01-20 23:48:44.31	91.61	54.26	-29.5	-31.8	15.3	0.00e+00	0	45	0	640679936	19	4688
2026-01-20 23:48:45.31	92.33	54.32	-29.5	-31.7	15.4	0.00e+00	0	44	0	642777088	19	4664
2026-01-20 23:48:46.32	93.07	54.37	-29.7	-32.2	15.1	7.00e-07	0	45	0	644874240	19	4816
2026-01-20 23:48:47.32	93.80	54.43	-29.6	-32.1	15.2	3.12e-05	0	45	0	646971392	19	4789
2026-01-20 23:48:48.32	94.54	54.47	-29.7	-32.3	15.1	0.00e+00	0	45	0	648019968	19	4845
2026-01-20 23:48:49.33	95.28	54.51	-29.5	-31.8	15.4	0.00e+00	0	45	0	650117120	19	4697
2026-01-20 23:48:50.33	96.02	54.55	-29.7	-32.3	15.1	3.05e-05	0	45	0	652214272	19	4860
2026-01-20 23:48:51.33	96.77	54.58	-30.1	-32.9	14.3	0.00e+00	0	44	0	654311424	20	4961
2026-01-20 23:48:52.34	97.52	54.61	-30.1	-32.9	14.3	2.20e-06	0	45	0	655360000	20	4958
2026-01-20 23:48:53.34	98.26	54.64	-29.7	-31.9	14.9	0.00e+00	0	45	0	657457152	20	4623
2026-01-20 23:48:54.34	99.01	54.65	-29.4	-31.1	15.5	0.00e+00	0	45	0	659554304	20	4360
2026-01-20 23:48:55.34	99.75	54.67	-29.5	-31.2	15.4	0.00e+00	0	45	0	661651456	20	4414
2026-01-20 23:48:56.35	100.51	54.68	-29.6	-31.7	15.1	0.00e+00	0	44	0	663748608	20	4561
2026-01-20 23:48:57.35	101.26	54.68	-29.5	-31.4	15.3	7.00e-07	0	44	0	664797184	20	4464
2026-01-20 23:48:58.36	102.01	54.68	-29.7	-31.7	15.1	1.50e-06	0	45	0	666894336	20	4575
2026-01-20 23:48:59.36	102.76	54.67	-30.0	-32.5	14.6	0.00e+00	0	45	0	668991488	20	4815
2026-01-20 23:49:00.36	103.51	54.66	-29.5	-31.3	15.3	7.00e-07	0	45	0	671088640	20	4443
2026-01-20 23:49:01.36	104.25	54.65	-29.2	-31.1	15.8	0.00e+00	0	45	0	673185792	19	4463
2026-01-20 23:49:02.36	105.00	54.63	-29.0	-30.6	16.1	0.00e+00	0	45	0	674234368	19	4317
2026-01-20 23:49:03.36	105.74	54.60	-29.1	-30.9	16.0	7.00e-07	0	45	0	676331520	19	4401
2026-01-20 23:49:04.37	106.49	54.57	-29.2	-31.1	15.8	0.00e+00	0	45	0	678428672	19	4454
2026-01-20 23:49:05.37	107.23	54.54	-29.0	-30.9	16.2	4.66e-04	0	45	0	680525824	18	4523
2026-01-20 23:49:06.38	107.98	54.50	-28.9	-31.4	16.2	4.33e-04	0	45	0	682622976	17	4783
2026-01-20 23:49:07.38	108.72	54.46	-28.9	-30.9	16.2	0.00e+00	0	45	0	683671552	18	4526
2026-01-20 23:49:08.38	109.45	54.41	-29.1	-31.3	16.0	1.27e-04	0	45	0	685768704	18	4628
2026-01-20 23:49:09.38	110.19	54.35	-29.4	-32.0	15.5	8.85e-05	0	44	0	687865856	18	4858
2026-01-20 23:49:10.39	110.92	54.30	-29.7	-32.2	15.2	0.00e+00	0	45	0	689963008	19	4815
2026-01-20 23:49:11.39	111.65	54.23	-29.7	-32.2	15.2	1.34e-04	0	45	0	692060160	19	4823
2026-01-20 23:49:12.39	112.37	54.17	-29.8	-32.4	15.1	9.76e-05	0	44	0	693108736	19	4892
2026-01-20 23:49:13.39	113.09	54.10	-30.1	-32.8	14.5	0.00e+00	0	45	0	695205888	20	4910
2026-01-20 23:49:14.39	113.81	54.02	-29.9	-32.4	14.6	0.00e+00	0	44	0	697303040	20	4781
2026-01-20 23:49:15.39	114.52	53.94	-29.9	-32.2	14.8	7.00e-07	0	45	0	699400192	20	4726
2026-01-20 23:49:16.39	115.23	53.86	-29.7	-31.7	15.1	0.00e+00	0	44	0	700448768	20	4548
2026-01-20 23:49:17.39	115.94	53.77	-29.5	-31.3	15.3	0.00e+00	0	45	0	702545920	20	4432
2026-01-20 23:49:18.40	116.64	53.68	-29.5	-31.3	15.3	0.00e+00	0	45	0	704643072	20	4434
2026-01-20 23:49:19.41	117.35	53.58	-29.6	-31.7	15.1	0.00e+00	0	45	0	706740224	20	4540
2026-01-20 23:49:20.41	118.04	53.48	-29.3	-31.4	15.7	0.00e+00	0	45	0	708837376	19	4543
2026-01-20 23:49:21.41	118.72	53.38	-29.2	-31.1	15.9	0.00e+00	0	45	0	709885952	19	4470
2026-01-20 23:49:22.42	119.41	53.27	-29.2	-30.9	15.9	0.00e+00	0	44	0	711983104	19	4414
2026-01-20 23:49:23.42	120.09	53.16	-29.3	-31.2	15.8	0.00e+00	0	45	0	714080256	19	4503
2026-01-20 23:49:24.42	120.76	53.04	-29.3	-31.2	15.8	0.00e+00	0	45	0	716177408	19	4486
2026-01-20 23:49:25.42	121.42	52.92	-29.0	-30.7	16.1	0.00e+00	0	45	0	718274560	19	4333
2026-01-20 23:49:26.42	122.08	52.80	-29.0	-30.4	16.3	0.00e+00	0	45	0	719323136	19	4273
2026-01-20 23:49:27.43	122.75	52.67	-29.3	-31.2	15.8	0.00e+00	0	44	0	721420288	19	4514
2026-01-20 23:49:28.43	123.40	52.54	-29.4	-31.6	15.6	0.00e+00	0	45	0	723517440	19	4621
2026-01-20 23:49:29.43	124.04	52.41	-29.4	-31.5	15.6	0.00e+00	0	44	0	725614592	19	4606
2026-01-20 23:49:30.42	124.67	52.27	-29.1	-30.8	16.0	0.00e+00	0	45	0	727711744	19	4388
2026-01-20 23:49:31.43	125.31	52.13	-28.9	-30.2	16.4	0.00e+00	0	45	0	728760320	19	4207
2026-01-20 23:49:32.43	125.93	51.99	-28.9	-30.4	16.3	0.00e+00	0	45	0	730857472	19	4256
2026-01-20 23:49:33.43	126.55	51.84	-29.3	-31.2	15.8	0.00e+00	0	45	0	732954624	19	4495
2026-01-20 23:49:34.44	127.17	51.69	-29.5	-31.9	15.4	0.00e+00	0	45	0	735051776	19	4709
2026-01-20 23:49:35.43	127.78	51.54	-29.4	-31.6	15.5	0.00e+00	0	44	0	737148928	19	4629
2026-01-20 23:49:36.43	128.38	51.39	-29.2	-31.1	15.8	0.00e+00	0	45	0	738197504	19	4458
2026-01-20 23:49:37.44	128.98	51.23	-29.8	-32.4	15.1	0.00e+00	0	44	0	740294656	19	4891
2026-01-20 23:49:38.45	129.57	51.07	-30.7	-33.9	13.4	7.00e-07	0	44	0	742391808	21	5209
2026-01-20 23:49:39.45	130.16	50.91	-31.2	-34.9	12.4	6.40e-05	0	45	0	744488960	22	5503
2026-01-20 23:49:40.45	130.73	50.74	-30.9	-34.0	13.0	7.24e-05	0	45	0	745537536	22	5157
2026-01-20 23:49:41.45	131.30	50.58	-30.9	-33.9	13.1	2.13e-05	0	45	0	747634688	22	5112
2026-01-20 23:49:42.46	131.87	50.41	-31.6	-35.7	11.5	1.54e-04	0	44	0	749731840	23	5789
2026-01-20 23:49:43.46	132.43	50.24	-32.8	-39.5	7.8	5.44e-03	0	45	0	751828992	25	7744
2026-01-20 23:49:44.46	132.98	50.06	-33.2	-41.1	6.2	3.18e-01	0	45	0	753926144	26	8931
2026-01-20 23:49:45.46	133.53	49.89	-32.5	-37.5	9.0	1.01e-01	0	44	0	754974720	26	6368
2026-01-20 23:49:46.46	134.07	49.71	-32.1	-36.2	10.4	1.12e-02	0	45	0	757071872	25	5772
2026-01-20 23:49:47.47	134.61	49.53	-32.3	-37.0	9.8	7.28e-03	0	44	0	759169024	25	6197
2026-01-20 23:49:48.47	135.13	49.35	-33.0	-39.7	7.7	3.89e-02	0	45	0	761266176	25	7847
2026-01-20 23:49:49.47	135.65	49.16	-33.3	-40.9	6.5	1.67e-01	0	44	0	763363328	26	8651
2026-01-20 23:49:50.47	136.17	48.98	-33.0	-39.4	7.5	1.40e-01	0	45	0	764411904	26	7512
2026-01-20 23:49:51.48	136.68	48.79	-32.2	-36.6	10.0	1.94e-02	0	45	0	766509056	25	5980
2026-01-20 23:49:52.48	137.18	48.60	-32.1	-36.1	10.5	4.19e-03	0	44	0	768606208	25	5708
2026-01-20 23:49:53.47	137.67	48.41	-32.4	-37.7	9.7	7.55e-03	0	45	0	770703360	24	6633
2026-01-20 23:49:54.48	138.17	48.22	-32.7	-38.7	8.5	2.43e-02	0	45	0	772800512	25	7154
2026-01-20 23:49:55.49	138.66	48.03	-32.9	-39.7	7.6	8.37e-02	0	45	0	773849088	25	7814
2026-01-20 23:49:56.50	139.14	47.83	-32.3	-36.9	9.7	4.58e-02	0	45	0	775946240	25	6149
2026-01-20 23:49:57.50	139.61	47.64	-31.7	-35.4	11.3	1.59e-03	0	45	0	778043392	24	5510
2026-01-20 23:49:58.50	140.08	47.44	-31.7	-35.5	11.2	1.01e-03	0	45	0	780140544	24	5591
2026-01-20 23:49:59.51	140.54	47.24	-32.0	-37.0	10.5	2.64e-03	0	45	0	782237696	23	6369
2026-01-20 23:50:00.52	141.00	47.04	-32.5	-38.0	9.0	1.65e-02	0	45	0	783286272	25	6741
2026-01-20 23:50:01.51	141.45	46.85	-32.8	-39.2	8.1	6.09e-02	0	45	0	785383424	25	7533
2026-01-20 23:50:02.52	141.90	46.64	-32.6	-38.1	8.8	5.48e-02	0	45	0	787480576	25	6840
2026-01-20 23:50:03.52	142.33	46.44	-32.0	-36.1	10.4	1.68e-02	0	45	0	789577728	25	5765
2026-01-20 23:50:04.53	142.77	46.24	-31.9	-35.6	10.8	2.76e-03	0	45	0	791674880	25	5528
2026-01-20 23:50:05.53	143.20	46.04	-31.8	-35.8	11.0	3.01e-03	0	45	0	792723456	24	5715
2026-01-20 23:50:06.53	143.62	45.83	-32.3	-37.4	9.8	2.68e-03	0	45	0	794820608	24	6529
2026-01-20 23:50:07.54	144.04	45.63	-32.7	-38.7	8.5	3.72e-02	0	45	0	796917760	25	7152
2026-01-20 23:50:08.54	144.45	45.42	-32.7	-38.7	8.4	4.73e-02	0	45	0	799014912	25	7199
2026-01-20 23:50:09.54	144.86	45.22	-32.5	-37.6	9.2	4.55e-02	0	45	0	800063488	25	6520
2026-01-20 23:50:10.55	145.26	45.01	-32.0	-36.0	10.5	1.20e-02	0	44	0	802160640	25	5705
2026-01-20 23:50:11.55	145.66	44.81	-31.9	-36.0	10.8	3.14e-03	0	45	0	804257792	24	5786
2026-01-20 23:50:12.55	146.05	44.60	-32.0	-36.6	10.4	2.92e-03	0	45	0	806354944	24	6089
2026-01-20 23:50:13.55	146.43	44.39	-32.4	-37.9	9.3	9.81e-03	0	45	0	808452096	24	6818
2026-01-20 23:50:14.56	146.82	44.19	-32.8	-39.0	8.2	3.83e-02	0	45	0	809500672	25	7380
2026-01-20 23:50:15.56	147.19	43.98	-32.8	-39.0	8.1	9.07e-02	0	45	0	811597824	25	7366
2026-01-20 23:50:16.56	147.56	43.77	-32.2	-37.0	9.8	2.55e-02	0	45	0	813694976	24	6303
2026-01-20 23:50:17.56	147.93	43.56	-31.6	-35.6	11.1	3.26e-03	0	45	0	815792128	23	5700
2026-01-20 23:50:18.55	148.29	43.36	-31.6	-35.5	11.6	6.25e-04	0	45	0	817889280	23	5672
2026-01-20 23:50:19.56	148.65	43.15	-32.1	-36.9	10.0	1.69e-03	0	45	0	818937856	24	6263
2026-01-20 23:50:20.56	149.00	42.94	-32.7	-38.9	8.3	1.79e-02	0	45	0	821035008	25	7298
2026-01-20 23:50:21.56	149.35	42.73	-32.8	-39.3	8.0	6.63e-02	0	45	0	823132160	25	7560
2026-01-20 23:50:22.56	149.69	42.53	-32.6	-38.4	8.6	5.08e-02	0	45	0	825229312	25	7004
2026-01-20 23:50:23.56	150.03	42.32	-32.6	-38.2	8.7	3.33e-02	0	45	0	827326464	25	6870
2026-01-20 23:50:24.56	150.36	42.11	-32.6	-38.5	8.5	4.39e-02	0	45	0	828375040	25	7086
2026-01-20 23:50:25.56	150.70	41.90	-32.7	-38.7	8.4	4.73e-02	0	45	0	830472192	25	7161
2026-01-20 23:50:26.56	151.02	41.70	-32.5	-37.9	8.9	4.24e-02	0	45	0	832569344	25	6702
2026-01-20 23:50:27.56	151.34	41.49	-32.3	-37.0	9.6	1.70e-02	0	45	0	834666496	25	6226
2026-01-20 23:50:28.56	151.66	41.28	-32.3	-37.5	9.7	1.12e-02	0	45	0	836763648	24	6536
2026-01-20 23:50:29.57	151.98	41.07	-32.4	-37.8	9.5	1.37e-02	0	44	0	837812224	24	6732
2026-01-20 23:50:30.58	152.29	40.87	-32.3	-37.5	9.7	1.56e-02	0	45	0	839909376	24	6561
2026-01-20 23:50:31.58	152.60	40.66	-32.1	-36.9	10.2	9.28e-03	0	45	0	842006528	24	6235
2026-01-20 23:50:32.58	152.90	40.45	-32.1	-36.7	10.2	5.80e-03	0	45	0	844103680	24	6165
2026-01-20 23:50:33.58	153.20	40.25	-32.1	-36.8	10.2	6.09e-03	0	45	0	846200832	24	6201
2026-01-20 23:50:34.58	153.50	40.04	-32.1	-36.9	10.1	5.60e-03	0	45	0	847249408	24	6263
2026-01-20 23:50:35.57	153.79	39.84	-31.9	-36.2	10.6	6.92e-03	0	45	0	849346560	24	5922
2026-01-20 23:50:36.58	154.08	39.63	-31.8	-35.9	10.8	2.84e-03	0	45	0	851443712	24	5776
2026-01-20 23:50:37.59	154.36	39.43	-32.1	-36.9	10.0	3.10e-03	0	45	0	853540864	24	6268
2026-01-20 23:50:38.59	154.65	39.22	-32.5	-38.1	8.7	2.45e-02	0	45	0	854589440	25	6842
2026-01-20 23:50:39.59	154.92	39.02	-32.5	-37.8	8.9	3.54e-02	0	45	0	856686592	25	6683
2026-01-20 23:50:40.59	155.20	38.82	-31.8	-36.0	10.7	1.44e-02	0	45	0	858783744	24	5807
2026-01-20 23:50:41.60	155.47	38.61	-31.2	-34.4	12.3	8.38e-04	0	45	0	860880896	23	5203
2026-01-20 23:50:42.60	155.74	38.41	-31.0	-33.8	12.6	9.15e-05	0	45	0	862978048	23	4988
2026-01-20 23:50:43.60	156.00	38.21	-31.3	-35.2	12.0	1.57e-04	0	45	0	864026624	22	5668
2026-01-20 23:50:44.61	156.27	38.01	-31.9	-36.9	10.4	6.59e-04	0	45	0	866123776	23	6386
2026-01-20 23:50:45.62	156.53	37.81	-32.5	-38.1	8.7	2.74e-02	0	45	0	868220928	25	6883
2026-01-20 23:50:46.62	156.78	37.61	-32.2	-37.3	9.7	2.47e-02	0	45	0	870318080	24	6472
2026-01-20 23:50:47.63	157.04	37.41	-31.5	-35.0	11.4	5.60e-03	0	44	0	872415232	24	5378
2026-01-20 23:50:48.63	157.28	37.21	-31.2	-34.3	12.3	2.42e-04	0	45	0	873463808	23	5185
2026-01-20 23:50:49.63	157.53	37.01	-31.2	-35.0	12.2	8.00e-04	0	45	0	875560960	22	5558
2026-01-20 23:50:50.63	157.77	36.81	-31.3	-35.4	11.8	4.00e-04	0	45	0	877658112	22	5771
2026-01-20 23:50:51.64	158.02	36.62	-31.7	-36.1	11.0	1.29e-03	0	45	0	879755264	23	5979
2026-01-20 23:50:52.64	158.25	36.42	-32.2	-37.4	9.6	1.03e-02	0	45	0	881852416	24	6551
2026-01-20 23:50:53.64	158.49	36.22	-32.4	-38.2	8.9	2.51e-02	0	45	0	882900992	24	7036
2026-01-20 23:50:54.63	158.72	36.03	-32.4	-38.1	9.0	2.70e-02	0	45	0	884998144	24	6948
2026-01-20 23:50:55.64	158.95	35.84	-32.1	-37.1	9.8	1.46e-02	0	45	0	887095296	24	6411
2026-01-20 23:50:56.64	159.17	35.64	-31.8	-36.4	10.7	6.06e-03	0	45	0	889192448	23	6125
2026-01-20 23:50:57.64	159.40	35.45	-31.6	-35.7	11.2	2.36e-03	0	45	0	891289600	23	5780
2026-01-20 23:50:58.64	159.62	35.26	-31.8	-36.5	10.7	3.56e-03	0	45	0	892338176	23	6173
2026-01-20 23:50:59.64	159.84	35.07	-31.6	-35.6	11.3	2.97e-03	0	45	0	894435328	23	5753
2026-01-20 23:51:00.65	160.06	34.88	-31.8	-36.2	10.9	9.41e-04	0	45	0	896532480	23	6040
2026-01-20 23:51:01.65	160.27	34.69	-32.1	-37.0	9.9	2.40e-03	0	45	0	898629632	24	6314
2026-01-20 23:51:02.66	160.48	34.49	-32.5	-38.3	8.5	2.56e-02	0	45	0	899678208	25	6956
2026-01-20 23:51:03.66	160.69	34.31	-32.8	-39.6	7.5	7.20e-02	0	45	0	901775360	25	7841
2026-01-20 23:51:04.66	160.90	34.12	-32.7	-38.9	8.0	1.21e-01	0	45	0	903872512	25	7398
2026-01-20 23:51:05.66	161.10	33.93	-32.3	-37.8	9.2	2.92e-02	0	45	0	905969664	24	6776
2026-01-20 23:51:06.66	161.31	33.75	-31.9	-36.4	10.3	7.56e-03	0	45	0	908066816	24	6051
2026-01-20 23:51:07.66	161.50	33.56	-31.7	-36.1	10.9	5.83e-03	0	45	0	909115392	23	5988
2026-01-20 23:51:08.66	161.70	33.38	-31.6	-35.8	11.1	4.06e-03	0	45	0	911212544	23	5851
2026-01-20 23:51:09.66	161.90	33.19	-31.4	-35.3	11.4	1.18e-03	0	45	0	913309696	23	5637
2026-01-20 23:51:10.66	162.09	33.01	-31.4	-35.5	11.6	2.75e-03	0	45	0	915406848	22	5833
2026-01-20 23:51:11.67	162.28	32.83	-31.6	-35.8	11.2	2.37e-03	0	45	0	917504000	23	5829
2026-01-20 23:51:12.68	162.47	32.64	-31.9	-36.8	10.4	4.17e-03	0	45	0	918552576	23	6329
2026-01-20 23:51:13.68	162.66	32.46	-32.0	-36.9	9.9	6.87e-03	0	45	0	920649728	24	6290
2026-01-20 23:51:14.68	162.85	32.28	-32.1	-37.2	9.7	1.49e-02	0	45	0	922746880	24	6445
2026-01-20 23:51:15.69	163.03	32.10	-31.9	-36.5	10.2	7.63e-03	0	45	0	924844032	24	6088
2026-01-20 23:51:16.70	163.21	31.92	-31.9	-36.8	10.4	5.09e-03	0	45	0	926941184	23	6337
2026-01-20 23:51:17.70	163.39	31.74	-31.9	-36.9	10.3	8.29e-03	0	45	0	927989760	23	6407
2026-01-20 23:51:18.70	163.57	31.57	-31.9	-36.8	10.3	6.10e-03	0	45	0	930086912	23	6374
2026-01-20 23:51:19.70	163.75	31.39	-32.0	-36.8	9.9	7.97e-03	0	45	0	932184064	24	6267
2026-01-20 23:51:20.71	163.92	31.21	-32.0	-36.9	9.9	1.01e-02	0	45	0	934281216	24	6283
2026-01-20 23:51:21.71	164.09	31.04	-32.0	-36.8	9.9	1.21e-02	0	45	0	936378368	24	6255
2026-01-20 23:51:22.72	164.26	30.86	-31.7	-36.3	10.7	4.10e-03	0	45	0	937426944	23	6099
2026-01-20 23:51:23.71	164.43	30.69	-31.3	-35.6	11.6	2.16e-03	0	45	0	939524096	22	5872
2026-01-20 23:51:24.71	164.60	30.52	-31.3	-35.4	11.7	6.56e-04	0	45	0	941621248	22	5794
2026-01-20 23:51:25.71	164.76	30.35	-31.3	-35.6	11.5	7.28e-04	0	45	0	943718400	22	5895
2026-01-20 23:51:26.72	164.93	30.17	-31.4	-35.9	11.3	8.95e-04	0	45	0	945815552	22	6050
2026-01-20 23:51:27.72	165.09	30.01	-31.6	-36.0	10.9	1.51e-03	0	45	0	946864128	23	5989
2026-01-20 23:51:28.72	165.25	29.84	-31.9	-37.1	10.0	6.02e-03	0	45	0	948961280	23	6574
2026-01-20 23:51:29.73	165.41	29.67	-31.9	-37.3	9.9	1.09e-02	0	45	0	951058432	23	6653
2026-01-20 23:51:30.73	165.56	29.50	-32.0	-37.0	9.7	8.67e-03	0	45	0	953155584	24	6404
2026-01-20 23:51:31.73	165.72	29.33	-32.1	-37.6	9.3	1.80e-02	0	45	0	954204160	24	6738
2026-01-20 23:51:32.73	165.87	29.17	-31.9	-36.7	9.9	1.31e-02	0	45	0	956301312	24	6224
2026-01-20 23:51:33.74	166.02	29.00	-31.7	-36.2	10.7	4.27e-03	0	45	0	958398464	23	6087
2026-01-20 23:51:34.74	166.17	28.83	-31.3	-35.0	11.5	2.62e-03	0	45	0	960495616	23	5524
2026-01-20 23:51:35.74	166.32	28.67	-31.0	-34.6	12.2	1.52e-03	0	45	0	962592768	22	5430
2026-01-20 23:51:36.75	166.47	28.50	-31.0	-34.6	12.2	1.83e-04	0	45	0	963641344	22	5431
2026-01-20 23:51:37.75	166.62	28.34	-30.9	-34.7	12.4	1.38e-04	0	45	0	965738496	21	5615
2026-01-20 23:51:38.75	166.76	28.18	-31.0	-35.0	12.3	7.63e-04	0	45	0	967835648	21	5722
2026-01-20 23:51:39.75	166.90	28.02	-31.1	-34.8	12.0	3.47e-04	0	45	0	969932800	22	5550
2026-01-20 23:51:40.75	167.05	27.86	-31.2	-35.1	11.8	3.58e-04	0	45	0	972029952	22	5679
2026-01-20 23:51:41.75	167.19	27.70	-31.3	-35.5	11.6	1.73e-03	0	45	0	973078528	22	5838
2026-01-20 23:51:42.76	167.33	27.54	-31.4	-35.9	11.3	9.75e-04	0	45	0	975175680	22	6051
2026-01-20 23:51:43.76	167.46	27.38	-31.3	-35.7	11.4	1.11e-03	0	45	0	977272832	22	5955
2026-01-20 23:51:44.76	167.60	27.23	-31.5	-35.8	10.9	1.24e-03	0	45	0	979369984	23	5906
2026-01-20 23:51:45.76	167.73	27.07	-31.5	-35.8	10.8	2.67e-03	0	45	0	981467136	23	5878
2026-01-20 23:51:46.77	167.87	26.91	-31.6	-35.9	10.9	2.26e-03	0	45	0	982515712	23	5930
2026-01-20 23:51:47.77	168.00	26.76	-31.6	-36.1	10.7	2.24e-03	0	45	0	984612864	23	6019
2026-01-20 23:51:48.77	168.13	26.60	-31.5	-35.7	11.0	2.41e-03	0	45	0	986710016	23	5852
2026-01-20 23:51:49.77	168.26	26.45	-31.4	-35.5	11.1	1.74e-03	0	45	0	988807168	23	5762
2026-01-20 23:51:50.78	168.39	26.30	-31.4	-35.9	11.1	1.84e-03	0	45	0	990904320	22	6065
2026-01-20 23:51:51.78	168.52	26.14	-31.3	-35.6	11.4	1.27e-03	0	45	0	991952896	22	5913
2026-01-20 23:51:52.79	168.65	25.99	-31.4	-36.0	11.2	2.09e-03	0	45	0	994050048	22	6070
2026-01-20 23:51:53.79	168.77	25.84	-31.2	-35.2	11.7	8.42e-04	0	45	0	996147200	22	5720
2026-01-20 23:51:54.79	168.90	25.69	-30.9	-34.9	12.3	3.15e-04	0	45	0	998244352	21	5671
2026-01-20 23:51:55.79	169.02	25.54	-30.6	-33.9	12.9	8.08e-05	0	45	0	999292928	21	5264
2026-01-20 23:51:56.79	169.14	25.39	-30.4	-33.5	13.2	2.39e-04	0	45	0	1001390080	21	5109
2026-01-20 23:51:57.80	169.26	25.24	-30.3	-33.5	13.6	1.67e-05	0	45	0	1003487232	20	5211
2026-01-20 23:51:58.80	169.38	25.10	-30.2	-33.3	13.7	9.10e-06	0	45	0	1005584384	20	5150
2026-01-20 23:51:59.80	169.50	24.95	-30.3	-33.5	13.5	8.42e-04	0	45	0	1007681536	20	5234
2026-01-20 23:52:00.81	169.62	24.80	-30.2	-33.4	13.6	1.35e-04	0	45	0	1008730112	20	5192
2026-01-20 23:52:01.81	169.74	24.66	-30.3	-33.7	13.4	1.06e-05	0	45	0	1010827264	20	5290
2026-01-20 23:52:02.82	169.85	24.51	-30.4	-33.9	13.3	1.44e-05	0	45	0	1012924416	20	5380
2026-01-20 23:52:03.82	169.97	24.37	-30.5	-34.1	13.1	5.56e-05	0	45	0	1015021568	20	5456
2026-01-20 23:52:04.81	170.08	24.23	-30.6	-34.1	12.8	4.95e-05	0	45	0	1017118720	21	5345
2026-01-20 23:52:05.82	170.19	24.08	-30.7	-34.3	12.6	7.62e-05	0	45	0	1018167296	21	5428
2026-01-20 23:52:06.82	170.31	23.94	-30.7	-34.3	12.6	2.00e-04	0	45	0	1020264448	21	5457
2026-01-20 23:52:07.83	170.42	23.80	-30.8	-34.5	12.5	1.17e-04	0	45	0	1022361600	21	5516
2026-01-20 23:52:08.83	170.53	23.66	-30.7	-34.1	12.7	9.07e-05	0	45	0	1024458752	21	5384
2026-01-20 23:52:09.83	170.63	23.52	-30.6	-33.9	12.8	6.86e-05	0	45	0	1026555904	21	5284
2026-01-20 23:52:10.84	170.74	23.38	-30.5	-33.8	13.0	4.27e-05	0	45	0	1027604480	21	5232
2026-01-20 23:52:11.84	170.85	23.24	-30.5	-33.7	13.0	6.02e-05	0	45	0	1029701632	21	5201
2026-01-20 23:52:12.85	170.96	23.10	-30.3	-33.2	13.3	3.28e-05	0	45	0	1031798784	21	5012
2026-01-20 23:52:13.85	171.06	22.96	-30.1	-32.9	13.4	1.44e-05	0	45	0	1033895936	21	4943
2026-01-20 23:52:14.85	171.17	22.83	-30.3	-33.2	13.3	1.38e-04	0	45	0	1035993088	21	5007
2026-01-20 23:52:15.86	171.27	22.69	-30.1	-32.7	13.6	8.30e-06	0	45	0	1037041664	21	4822
2026-01-20 23:52:16.86	171.37	22.56	-30.0	-32.9	13.7	9.23e-05	0	45	0	1039138816	20	4996
2026-01-20 23:52:17.86	171.47	22.42	-30.1	-33.0	13.7	1.24e-04	0	45	0	1041235968	20	5066
2026-01-20 23:52:18.86	171.57	22.29	-30.0	-32.9	13.8	1.27e-04	0	45	0	1043333120	20	5023
2026-01-20 23:52:19.87	171.68	22.15	-29.9	-32.7	13.9	7.60e-06	0	45	0	1045430272	20	4947
2026-01-20 23:52:20.88	171.78	22.02	-29.9	-32.5	14.0	1.36e-04	0	45	0	1046478848	20	4890
2026-01-20 23:52:21.88	171.87	21.89	-30.0	-32.8	13.8	1.52e-04	0	45	0	1048576000	20	4981
2026-01-20 23:52:22.88	171.97	21.75	-30.0	-32.8	13.8	3.80e-06	0	45	0	1050673152	20	4992
2026-01-20 23:52:23.88	172.07	21.62	-30.0	-33.0	13.7	2.30e-04	0	45	0	1052770304	20	5058
2026-01-20 23:52:24.88	172.16	21.49	-30.0	-32.9	13.8	1.82e-04	0	45	0	1054867456	20	5015
2026-01-20 23:52:25.89	172.26	21.36	-30.0	-32.9	13.8	1.50e-06	0	45	0	1055916032	20	5017
2026-01-20 23:52:26.89	172.35	21.23	-30.1	-33.2	13.6	1.88e-04	0	45	0	1058013184	20	5117
2026-01-20 23:52:27.89	172.45	21.10	-30.1	-33.0	13.7	6.19e-04	0	45	0	1060110336	20	5078
2026-01-20 23:52:28.90	172.54	20.98	-30.1	-33.1	13.6	4.50e-06	0	45	0	1062207488	20	5100
2026-01-20 23:52:29.90	172.63	20.85	-30.2	-33.4	13.4	1.75e-04	0	45	0	1063256064	20	5219
2026-01-20 23:52:30.91	172.72	20.72	-30.0	-33.0	13.7	5.32e-04	0	45	0	1065353216	20	5058
2026-01-20 23:52:31.91	172.82	20.59	-30.0	-32.8	13.8	1.50e-06	0	45	0	1067450368	20	4994
2026-01-20 23:52:32.91	172.90	20.47	-29.9	-32.7	13.9	1.65e-04	0	45	0	1069547520	20	4947
2026-01-20 23:52:33.91	172.99	20.34	-29.8	-32.3	14.1	4.58e-04	0	45	0	1071644672	20	4816
2026-01-20 23:52:34.91	173.08	20.22	-29.8	-32.8	14.1	2.75e-04	0	45	0	1072693248	19	5100
2026-01-20 23:52:35.91	173.17	20.09	-29.7	-32.6	14.3	1.76e-04	0	45	0	1074790400	19	5029
2026-01-20 23:52:36.91	173.26	19.97	-29.7	-32.5	14.4	1.64e-04	0	45	0	1076887552	19	4999
2026-01-20 23:52:37.92	173.34	19.85	-29.7	-32.5	14.4	2.77e-04	0	45	0	1078984704	19	4968
2026-01-20 23:52:38.92	173.43	19.72	-29.8	-32.7	14.2	1.69e-04	0	45	0	1081081856	19	5052
2026-01-20 23:52:39.92	173.52	19.60	-29.9	-33.1	14.0	1.71e-04	0	45	0	1082130432	19	5195
2026-01-20 23:52:40.92	173.60	19.48	-29.8	-32.9	14.1	3.06e-04	0	45	0	1084227584	19	5112
2026-01-20 23:52:41.93	173.68	19.36	-29.7	-32.6	14.3	1.52e-04	0	45	0	1086324736	19	5013
2026-01-20 23:52:42.93	173.77	19.24	-29.7	-32.5	14.3	1.32e-04	0	45	0	1088421888	19	4991
2026-01-20 23:52:43.94	173.85	19.12	-29.7	-32.5	14.3	8.16e-05	0	45	0	1090519040	19	4990
2026-01-20 23:52:44.94	173.93	19.00	-29.8	-32.8	14.2	1.26e-04	0	45	0	1091567616	19	5084
2026-01-20 23:52:45.95	174.02	18.88	-29.8	-32.7	14.2	1.85e-04	0	45	0	1093664768	19	5067
2026-01-20 23:52:46.95	174.10	18.76	-29.9	-33.1	13.9	7.00e-07	0	44	0	1095761920	19	5222
2026-01-20 23:52:47.96	174.18	18.64	-29.8	-32.8	14.1	7.00e-07	0	44	0	1097859072	19	5109
2026-01-20 23:52:48.96	174.26	18.53	-29.7	-32.7	14.2	1.20e-04	0	45	0	1099956224	19	5055
2026-01-20 23:52:49.96	174.34	18.41	-29.8	-32.8	14.1	7.00e-07	0	45	0	1101004800	19	5103
2026-01-20 23:52:50.96	174.41	18.29	-29.8	-32.8	14.1	1.50e-06	0	45	0	1103101952	19	5107
2026-01-20 23:52:51.96	174.49	18.18	-30.0	-33.4	13.7	1.02e-04	0	44	0	1105199104	19	5314
2026-01-20 23:52:52.96	174.57	18.06	-29.8	-32.9	13.9	1.17e-04	0	45	0	1107296256	19	5156
2026-01-20 23:52:53.96	174.65	17.95	-29.7	-32.7	14.1	1.24e-04	0	45	0	1108344832	19	5071
2026-01-20 23:52:54.96	174.72	17.83	-29.7	-32.7	14.1	6.63e-05	0	45	0	1110441984	19	5083
2026-01-20 23:52:55.97	174.80	17.72	-29.7	-32.7	14.1	4.95e-05	0	45	0	1112539136	19	5100
2026-01-20 23:52:56.97	174.87	17.61	-29.8	-32.8	14.0	1.30e-04	0	45	0	1114636288	19	5132
2026-01-20 23:52:57.98	174.95	17.49	-29.8	-33.0	13.9	4.65e-05	0	45	0	1116733440	19	5184
2026-01-20 23:52:58.98	175.02	17.38	-29.7	-32.6	14.2	4.11e-05	0	45	0	1117782016	19	5050
2026-01-20 23:52:59.99	175.10	17.27	-29.6	-32.5	14.3	1.43e-04	0	45	0	1119879168	19	5013
2026-01-20 23:53:00.99	175.17	17.16	-29.6	-32.4	14.3	7.00e-07	0	45	0	1121976320	19	4984
2026-01-20 23:53:01.99	175.24	17.04	-29.5	-32.2	14.4	7.00e-07	0	45	0	1124073472	19	4916
2026-01-20 23:53:02.99	175.31	16.93	-29.5	-32.3	14.4	1.50e-06	0	45	0	1126170624	19	4950
2026-01-20 23:53:03.99	175.39	16.82	-29.7	-32.7	14.0	1.17e-04	0	45	0	1127219200	19	5110
2026-01-20 23:53:04.99	175.46	16.71	-29.7	-32.8	14.1	3.80e-06	0	45	0	1129316352	19	5118
2026-01-20 23:53:05.99	175.53	16.61	-29.8	-33.0	13.9	7.00e-07	0	45	0	1131413504	19	5193
2026-01-20 23:53:07.00	175.60	16.50	-29.8	-33.0	13.9	7.85e-05	0	45	0	1133510656	19	5189
2026-01-20 23:53:08.00	175.67	16.39	-29.8	-33.1	13.8	5.30e-06	0	45	0	1135607808	19	5241
2026-01-20 23:53:09.01	175.74	16.28	-30.0	-33.1	13.4	6.10e-06	0	45	0	1136656384	20	5151
2026-01-20 23:53:10.01	175.81	16.17	-30.2	-33.6	13.1	2.51e-05	0	44	0	1138753536	20	5348
2026-01-20 23:53:11.02	175.87	16.06	-30.2	-33.7	13.0	3.05e-05	0	45	0	1140850688	20	5381
2026-01-20 23:53:12.02	175.94	15.96	-30.3	-34.0	12.8	4.57e-05	0	45	0	1142947840	20	5475
2026-01-20 23:53:13.02	176.01	15.85	-30.3	-33.9	12.9	5.34e-05	0	45	0	1145044992	20	5453
2026-01-20 23:53:14.03	176.08	15.75	-30.3	-34.0	12.8	6.25e-05	0	45	0	1146093568	20	5507
2026-01-20 23:53:15.03	176.14	15.64	-30.4	-34.1	12.8	7.01e-05	0	45	0	1148190720	20	5522
2026-01-20 23:53:16.03	176.21	15.54	-30.4	-34.2	12.7	8.31e-05	0	44	0	1150287872	20	5559
2026-01-20 23:53:17.03	176.27	15.43	-30.7	-34.7	12.0	1.50e-04	0	45	0	1152385024	21	5690
2026-01-20 23:53:18.03	176.34	15.33	-30.5	-33.9	12.5	1.22e-04	0	45	0	1154482176	21	5335
2026-01-20 23:53:19.03	176.40	15.22	-30.3	-33.4	12.9	1.18e-04	0	45	0	1155530752	21	5141
2026-01-20 23:53:20.03	176.47	15.12	-30.2	-33.1	13.1	1.27e-04	0	45	0	1157627904	21	5018
2026-01-20 23:53:21.03	176.53	15.02	-30.1	-32.9	13.2	1.60e-05	0	45	0	1159725056	21	4942
2026-01-20 23:53:22.04	176.60	14.92	-30.1	-33.4	13.2	2.13e-05	0	45	0	1161822208	20	5255
2026-01-20 23:53:23.04	176.66	14.81	-30.1	-33.4	13.2	9.46e-05	0	45	0	1163919360	20	5245
2026-01-20 23:53:24.04	176.72	14.71	-30.3	-33.7	13.0	2.44e-05	0	45	0	1164967936	20	5383
2026-01-20 23:53:25.04	176.78	14.61	-30.2	-33.6	13.0	4.19e-05	0	45	0	1167065088	20	5327
2026-01-20 23:53:26.05	176.85	14.51	-30.3	-33.7	13.0	1.24e-04	0	44	0	1169162240	20	5382
2026-01-20 23:53:27.05	176.91	14.41	-30.4	-34.2	12.7	6.56e-05	0	44	0	1171259392	20	5556
2026-01-20 23:53:28.05	176.97	14.31	-30.3	-33.9	12.9	1.60e-04	0	45	0	1172307968	20	5426
2026-01-20 23:53:29.06	177.03	14.21	-30.3	-34.0	12.7	6.10e-05	0	45	0	1174405120	20	5487
2026-01-20 23:53:30.07	177.09	14.11	-30.6	-34.1	12.2	1.11e-04	0	45	0	1176502272	21	5436
2026-01-20 23:53:31.08	177.15	14.01	-30.6	-34.1	12.3	3.25e-04	0	45	0	1178599424	21	5430
2026-01-20 23:53:32.08	177.21	13.91	-30.6	-34.3	12.2	1.85e-04	0	45	0	1180696576	21	5509
2026-01-20 23:53:33.09	177.27	13.81	-30.7	-34.7	11.9	3.31e-04	0	45	0	1181745152	21	5666
2026-01-20 23:53:34.09	177.33	13.71	-30.5	-34.1	12.3	3.92e-04	0	45	0	1183842304	21	5422
2026-01-20 23:53:35.09	177.39	13.62	-30.4	-34.2	12.6	3.13e-04	0	45	0	1185939456	20	5559
2026-01-20 23:53:36.09	177.44	13.52	-30.4	-34.1	12.7	9.07e-05	0	45	0	1188036608	20	5525
2026-01-20 23:53:37.10	177.50	13.42	-30.4	-34.1	12.7	1.94e-04	0	45	0	1190133760	20	5527
2026-01-20 23:53:38.10	177.56	13.33	-30.5	-34.1	12.3	2.73e-04	0	45	0	1191182336	21	5435
2026-01-20 23:53:39.10	177.62	13.23	-30.8	-34.9	11.7	4.26e-04	0	45	0	1193279488	21	5750
2026-01-20 23:53:40.10	177.67	13.14	-30.6	-34.4	12.1	3.97e-04	0	45	0	1195376640	21	5530
2026-01-20 23:53:41.11	177.73	13.04	-30.4	-33.6	12.6	3.17e-04	0	44	0	1197473792	21	5228
2026-01-20 23:53:42.11	177.79	12.94	-30.1	-33.4	13.1	2.39e-04	0	45	0	1199570944	20	5257
2026-01-20 23:53:43.11	177.84	12.85	-30.0	-33.1	13.3	2.05e-05	0	45	0	1200619520	20	5150
2026-01-20 23:53:44.11	177.90	12.76	-30.2	-33.6	13.0	1.27e-04	0	45	0	1202716672	20	5315
2026-01-20 23:53:45.12	177.95	12.66	-30.1	-33.3	13.2	2.04e-04	0	45	0	1204813824	20	5202
2026-01-20 23:53:46.12	178.01	12.57	-30.1	-33.5	13.0	2.13e-05	0	45	0	1206910976	20	5281
2026-01-20 23:53:47.12	178.06	12.48	-30.2	-33.7	12.8	4.95e-05	0	45	0	1209008128	20	5394
2026-01-20 23:53:48.12	178.12	12.38	-30.2	-33.5	13.0	4.19e-05	0	45	0	1210056704	20	5288
2026-01-20 23:53:49.13	178.17	12.29	-30.1	-33.5	13.0	3.58e-05	0	45	0	1212153856	20	5276
2026-01-20 23:53:50.13	178.22	12.20	-30.2	-33.5	13.0	3.73e-05	0	45	0	1214251008	20	5287
2026-01-20 23:53:51.13	178.28	12.11	-30.3	-34.0	12.6	4.73e-05	0	45	0	1216348160	20	5490
2026-01-20 23:53:52.13	178.33	12.01	-30.3	-33.9	12.7	5.18e-05	0	45	0	1218445312	20	5433
2026-01-20 23:53:53.14	178.38	11.92	-30.4	-34.2	12.5	2.08e-04	0	45	0	1219493888	20	5587
2026-01-20 23:53:54.14	178.43	11.83	-30.3	-34.0	12.6	1.13e-04	0	45	0	1221591040	20	5504
2026-01-20 23:53:55.14	178.49	11.74	-30.5	-34.0	12.2	1.79e-04	0	45	0	1223688192	21	5413
2026-01-20 23:53:56.14	178.54	11.65	-30.4	-33.7	12.4	2.99e-04	0	45	0	1225785344	21	5283
2026-01-20 23:53:57.14	178.59	11.56	-30.4	-33.7	12.5	1.30e-04	0	45	0	1226833920	21	5281
2026-01-20 23:53:58.14	178.64	11.47	-30.5	-34.5	12.3	1.45e-04	0	45	0	1228931072	20	5698
2026-01-20 23:53:59.14	178.69	11.38	-30.5	-34.1	12.2	3.68e-04	0	45	0	1231028224	21	5428
2026-01-20 23:54:00.14	178.74	11.29	-30.6	-34.2	12.1	3.87e-04	0	45	0	1233125376	21	5481
2026-01-20 23:54:01.15	178.79	11.20	-30.7	-34.5	11.9	2.94e-04	0	45	0	1235222528	21	5619
2026-01-20 23:54:02.15	178.84	11.12	-30.7	-34.5	11.9	6.07e-04	0	45	0	1236271104	21	5634
2026-01-20 23:54:03.15	178.89	11.03	-30.7	-34.8	11.7	7.07e-04	0	45	0	1238368256	21	5721
2026-01-20 23:54:04.15	178.94	10.94	-30.7	-34.7	11.7	5.35e-04	0	45	0	1240465408	21	5713
2026-01-20 23:54:05.15	178.99	10.85	-30.9	-35.2	11.3	7.50e-04	0	45	0	1242562560	21	5953
2026-01-20 23:54:06.15	179.04	10.77	-30.7	-34.6	11.7	8.86e-04	0	45	0	1244659712	21	5671
2026-01-20 23:54:07.16	179.08	10.68	-30.6	-34.4	11.9	4.03e-04	0	45	0	1245708288	21	5568
2026-01-20 23:54:08.16	179.13	10.59	-30.6	-34.4	11.9	3.67e-04	0	44	0	1247805440	21	5572
2026-01-20 23:54:09.16	179.18	10.51	-30.6	-34.5	11.9	6.14e-04	0	45	0	1249902592	21	5597
2026-01-20 23:54:10.17	179.23	10.42	-30.3	-34.4	11.7	4.74e-04	0	45	0	1251999744	21	5730
2026-01-20 23:54:11.17	179.28	10.33	-30.7	-34.8	11.6	8.38e-04	0	45	0	1254096896	21	5742
2026-01-20 23:54:12.18	179.32	10.25	-30.7	-34.6	11.7	6.85e-04	0	44	0	1255145472	21	5657
2026-01-20 23:54:13.18	179.37	10.16	-30.7	-34.6	11.5	4.59e-04	0	45	0	1257242624	21	5661
2026-01-20 23:54:14.18	179.42	10.08	-30.7	-34.7	11.7	7.54e-04	0	45	0	1259339776	21	5701
2026-01-20 23:54:15.19	179.46	9.99	-30.8	-35.0	11.3	9.61e-04	0	45	0	1261436928	21	5844
2026-01-20 23:54:16.19	179.51	9.91	-30.7	-34.7	11.6	7.26e-04	0	45	0	1263534080	21	5719
2026-01-20 23:54:17.20	179.56	9.82	-30.7	-34.8	11.5	9.44e-04	0	45	0	1264582656	21	5782
2026-01-20 23:54:18.20	179.60	9.74	-30.8	-35.1	11.3	1.22e-03	0	45	0	1266679808	21	5900
2026-01-20 23:54:19.20	179.65	9.66	-30.7	-34.8	11.5	1.39e-03	0	45	0	1268776960	21	5782
2026-01-20 23:54:20.21	179.69	9.57	-30.9	-35.3	11.1	1.34e-03	0	45	0	1270874112	21	6025
2026-01-20 23:54:21.21	179.74	9.49	-31.0	-35.7	10.9	2.29e-03	0	45	0	1271922688	21	6186
2026-01-20 23:54:22.21	179.78	9.41	-30.8	-35.2	11.2	2.22e-03	0	45	0	1274019840	21	5954
2026-01-20 23:54:23.22	179.83	9.32	-30.8	-35.0	11.4	1.19e-03	0	45	0	1276116992	21	5848
2026-01-20 23:54:24.22	179.87	9.24	-30.6	-34.6	11.7	9.94e-04	0	45	0	1278214144	21	5677
2026-01-20 23:54:25.23	179.92	9.16	-30.6	-34.4	11.8	5.61e-04	0	45	0	1280311296	21	5568
2026-01-20 23:54:26.23	179.96	9.08	-30.6	-34.4	11.8	5.54e-04	0	45	0	1282408448	21	5606
2026-01-20 23:54:27.24	180.00	8.99	-30.5	-34.3	11.8	7.28e-04	0	45	0	1283457024	21	5551
2026-01-20 23:54:28.24	180.05	8.91	-30.5	-34.2	11.9	3.61e-04	0	45	0	1285554176	21	5522
2026-01-20 23:54:29.24	180.09	8.83	-30.6	-34.4	11.8	4.60e-04	0	45	0	1287651328	21	5600
