passes_logs/2026/01/20/R2M6_AANII_01/R2M6_AANII_01__20260120_122743_NOAA_21_JPSS-2_rec.log

#Pass ID: 20260120_122743_NOAA 21 (JPSS-2)
#Satellite: NOAA 21 (JPSS-2)
#Configuration: NOAA 21
#almurnet v.1.7.20240730
#Start time: 2026-01-20 12:27:47

#Version: 2.2.20231116
#Station: R2M6_AANII_01
#Location: 30.233357 lon 59.946436 lat
#TLE: 1 54234U 22150A   26019.59425193  .00000067  00000+0  52811-4 0  9997
#TLE: 2 54234  98.7505 320.4385 0000607 256.3203 103.7906 14.19535690165464

#Time	Az	El	Level	Level2	SNR	BER	BlckErr	Temp	State	Recorded	gain1	gain2
2026-01-20 12:27:47.04	233.71	7.17	-34.6	-46.6	3.8	1.49e+00	0	45	0	0	29	14276
2026-01-20 12:27:48.04	233.83	7.23	-34.7	-46.3	3.8	1.49e+00	0	45	104	0	30	13679
2026-01-20 12:27:49.04	233.96	7.28	-34.7	-46.3	3.8	1.49e+00	0	45	104	0	30	13696
2026-01-20 12:27:50.03	234.08	7.33	-34.7	-46.3	3.8	1.49e+00	0	45	104	0	30	13660
2026-01-20 12:27:51.03	234.21	7.38	-34.7	-46.3	3.8	1.49e+00	0	45	104	0	30	13635
2026-01-20 12:27:52.04	234.33	7.43	-34.6	-46.2	3.8	1.49e+00	0	45	104	0	30	13612
2026-01-20 12:27:53.04	234.46	7.48	-34.7	-46.2	3.8	1.49e+00	0	45	104	0	30	13590
2026-01-20 12:27:54.05	234.59	7.53	-34.6	-46.2	3.8	1.49e+00	0	45	104	0	30	13578
2026-01-20 12:27:55.06	234.72	7.58	-34.6	-46.2	3.8	1.49e+00	0	45	104	0	30	13575
2026-01-20 12:27:56.06	234.84	7.63	-34.6	-46.1	3.8	1.49e+00	0	45	104	0	30	13545
2026-01-20 12:27:57.07	234.97	7.69	-34.6	-46.2	3.8	1.49e+00	0	45	104	0	30	13565
2026-01-20 12:27:58.07	235.10	7.74	-34.6	-46.2	3.8	1.49e+00	0	45	104	0	30	13578
2026-01-20 12:27:59.07	235.23	7.79	-34.6	-46.1	3.8	1.49e+00	0	45	104	0	30	13511
2026-01-20 12:28:00.07	235.36	7.84	-34.6	-46.1	3.8	1.49e+00	0	45	104	0	30	13550
2026-01-20 12:28:01.07	235.49	7.89	-34.6	-46.1	3.8	1.49e+00	0	45	104	0	30	13524
2026-01-20 12:28:02.07	235.62	7.94	-34.6	-46.1	3.8	1.49e+00	0	45	104	0	30	13491
2026-01-20 12:28:03.07	235.75	7.99	-34.6	-46.0	3.8	1.49e+00	0	45	104	0	30	13480
2026-01-20 12:28:04.07	235.88	8.04	-34.5	-45.9	3.8	1.49e+00	0	45	104	0	30	13391
2026-01-20 12:28:05.07	236.01	8.09	-34.5	-45.8	3.8	1.49e+00	0	45	104	0	30	13316
2026-01-20 12:28:06.08	236.14	8.14	-34.4	-45.8	3.8	1.49e+00	0	45	104	0	30	13255
2026-01-20 12:28:07.08	236.28	8.19	-34.4	-45.7	3.8	1.49e+00	0	45	104	0	30	13182
2026-01-20 12:28:08.08	236.41	8.24	-34.4	-45.7	3.8	1.49e+00	0	45	104	0	30	13163
2026-01-20 12:28:09.08	236.54	8.29	-34.4	-45.6	3.8	1.49e+00	0	45	104	0	30	13143
2026-01-20 12:28:10.08	236.67	8.34	-34.3	-45.5	3.8	1.49e+00	0	45	104	0	30	13060
2026-01-20 12:28:11.07	236.81	8.39	-34.3	-45.5	3.8	1.49e+00	0	45	104	0	30	13051
2026-01-20 12:28:12.08	236.94	8.44	-34.2	-45.8	3.8	1.49e+00	0	45	104	0	29	13679
2026-01-20 12:28:13.08	237.08	8.50	-34.2	-45.7	3.8	1.49e+00	0	45	104	0	29	13594
2026-01-20 12:28:14.08	237.21	8.55	-34.1	-45.6	3.8	1.49e+00	0	45	104	0	29	13488
2026-01-20 12:28:15.08	237.35	8.60	-34.0	-45.4	3.8	1.49e+00	0	45	104	0	29	13355
2026-01-20 12:28:16.08	237.48	8.65	-33.9	-45.2	3.8	1.49e+00	0	45	104	0	29	13171
2026-01-20 12:28:17.08	237.62	8.70	-33.8	-45.3	3.8	1.49e+00	0	45	104	0	28	13600
2026-01-20 12:28:18.07	237.76	8.75	-33.5	-44.6	3.8	1.49e+00	0	45	104	0	28	12917
2026-01-20 12:28:19.07	237.89	8.80	-33.3	-44.2	3.8	1.49e+00	0	45	104	0	28	12558
2026-01-20 12:28:20.07	238.03	8.85	-33.3	-44.0	3.8	1.49e+00	0	45	104	0	28	12405
2026-01-20 12:28:21.08	238.17	8.90	-33.3	-44.0	3.8	1.49e+00	0	45	104	0	28	12335
2026-01-20 12:28:22.08	238.31	8.95	-33.3	-44.0	3.8	1.49e+00	0	45	104	0	28	12377
2026-01-20 12:28:23.08	238.45	9.00	-33.3	-44.2	3.8	1.49e+00	0	45	104	0	28	12572
2026-01-20 12:28:24.09	238.59	9.05	-33.3	-44.4	3.8	1.49e+00	0	45	104	0	28	12915
2026-01-20 12:28:25.09	238.73	9.10	-33.3	-44.4	3.8	1.49e+00	0	45	104	0	28	12937
2026-01-20 12:28:26.10	238.87	9.15	-33.3	-44.5	3.8	1.49e+00	0	45	104	0	27	12986
2026-01-20 12:28:27.10	239.02	9.20	-33.1	-42.7	3.8	1.49e+00	0	45	104	0	27	10839
2026-01-20 12:28:28.10	239.16	9.25	-32.8	-40.2	4.0	1.48e+00	0	45	104	0	27	8478
2026-01-20 12:28:29.10	239.30	9.30	-32.2	-37.6	6.2	4.07e-01	0	45	104	0	25	6688
2026-01-20 12:28:30.11	239.44	9.35	-31.6	-35.7	7.8	1.14e-01	0	45	0	2097152	24	5803
2026-01-20 12:28:31.12	239.59	9.40	-31.0	-34.4	9.1	2.63e-02	0	45	0	5242880	23	5287
2026-01-20 12:28:32.12	239.73	9.45	-30.4	-33.1	10.3	7.27e-03	0	45	0	8388608	22	4902
2026-01-20 12:28:33.13	239.88	9.50	-30.0	-32.4	11.1	1.98e-03	0	45	0	11534336	21	4764
2026-01-20 12:28:34.13	240.02	9.55	-29.7	-32.1	11.6	7.83e-04	0	45	0	14680064	20	4756
2026-01-20 12:28:35.13	240.17	9.59	-29.7	-32.2	11.6	5.93e-04	0	45	0	17825792	20	4785
2026-01-20 12:28:36.13	240.31	9.64	-29.9	-32.7	11.2	1.18e-03	0	45	0	20971520	20	4951
2026-01-20 12:28:37.14	240.46	9.69	-30.4	-34.1	10.3	3.95e-03	0	45	0	24117248	20	5487
2026-01-20 12:28:38.14	240.60	9.74	-30.4	-34.1	10.3	5.12e-03	0	45	0	27262976	20	5488
2026-01-20 12:28:39.13	240.75	9.79	-30.1	-33.2	10.9	3.07e-03	0	45	0	30408704	20	5145
2026-01-20 12:28:40.13	240.90	9.84	-30.4	-34.1	10.3	4.39e-03	0	45	0	33554432	20	5481
2026-01-20 12:28:41.14	241.05	9.89	-30.1	-33.1	11.0	2.19e-03	0	45	0	36700160	20	5086
2026-01-20 12:28:42.15	241.20	9.94	-29.9	-32.6	11.3	1.17e-03	0	45	0	39845888	20	4921
2026-01-20 12:28:43.15	241.35	9.99	-29.8	-32.3	11.6	7.60e-04	0	45	0	42991616	20	4793
2026-01-20 12:28:44.16	241.50	10.04	-29.6	-31.8	11.8	4.88e-04	0	45	0	46137344	20	4656
2026-01-20 12:28:45.16	241.65	10.09	-29.5	-31.4	12.1	3.64e-04	0	45	0	49283072	20	4523
2026-01-20 12:28:46.16	241.80	10.13	-29.5	-31.5	12.1	2.31e-04	0	45	0	52428800	20	4533
2026-01-20 12:28:47.16	241.95	10.18	-29.6	-31.7	11.9	3.78e-04	0	45	0	55574528	20	4601
2026-01-20 12:28:48.15	242.10	10.23	-29.5	-31.5	12.1	2.51e-04	0	45	0	58720256	20	4542
2026-01-20 12:28:49.15	242.25	10.28	-29.7	-32.1	11.7	4.90e-04	0	45	0	61865984	20	4732
2026-01-20 12:28:50.15	242.40	10.33	-29.5	-31.6	12.0	3.49e-04	0	45	0	65011712	20	4575
2026-01-20 12:28:51.15	242.55	10.38	-29.1	-31.0	12.8	1.02e-04	0	45	0	68157440	19	4487
2026-01-20 12:28:52.16	242.71	10.42	-28.9	-30.5	13.1	4.95e-05	0	45	0	71303168	19	4312
2026-01-20 12:28:53.17	242.86	10.47	-28.8	-30.7	13.4	1.90e-05	0	45	0	74448896	18	4478
2026-01-20 12:28:54.18	243.02	10.52	-28.8	-30.7	13.3	1.22e-05	0	45	0	77594624	18	4497
2026-01-20 12:28:55.18	243.17	10.57	-28.8	-30.7	13.3	1.44e-05	0	45	0	80740352	18	4497
2026-01-20 12:28:56.19	243.33	10.62	-28.9	-31.0	13.2	1.52e-05	0	45	0	83886080	18	4570
2026-01-20 12:28:57.19	243.48	10.66	-28.9	-30.9	13.2	1.52e-05	0	45	0	87031808	18	4548
2026-01-20 12:28:58.20	243.64	10.71	-28.9	-30.9	13.2	1.83e-05	0	45	0	90177536	18	4563
2026-01-20 12:28:59.20	243.80	10.76	-28.8	-30.7	13.3	2.89e-05	0	45	0	93323264	18	4492
2026-01-20 12:29:00.20	243.96	10.81	-28.8	-30.7	13.3	2.05e-05	0	45	0	96468992	18	4481
2026-01-20 12:29:01.20	244.11	10.85	-28.6	-30.2	13.6	6.80e-06	0	45	0	99614720	18	4337
2026-01-20 12:29:02.21	244.27	10.90	-28.7	-30.5	13.5	1.52e-05	0	45	0	102760448	18	4439
2026-01-20 12:29:03.21	244.43	10.95	-28.8	-30.6	13.4	1.52e-05	0	45	0	105906176	18	4455
2026-01-20 12:29:04.21	244.59	11.00	-28.8	-30.6	13.4	2.28e-05	0	45	0	109051904	18	4454
2026-01-20 12:29:05.22	244.75	11.04	-28.7	-30.4	13.5	9.90e-06	0	45	0	112197632	18	4382
2026-01-20 12:29:06.22	244.91	11.09	-28.5	-30.1	13.7	5.30e-06	0	45	0	115343360	18	4303
2026-01-20 12:29:07.22	245.07	11.14	-28.7	-30.6	13.4	6.80e-06	0	45	0	118489088	18	4444
2026-01-20 12:29:08.22	245.23	11.18	-28.7	-30.5	13.5	1.83e-05	0	45	0	121634816	18	4404
2026-01-20 12:29:09.22	245.39	11.23	-28.5	-30.0	13.8	4.50e-06	0	45	0	124780544	18	4264
2026-01-20 12:29:10.22	245.56	11.28	-28.5	-30.1	13.8	4.50e-06	0	45	0	127926272	18	4289
2026-01-20 12:29:11.22	245.72	11.32	-28.5	-29.9	13.9	4.50e-06	0	45	0	131072000	18	4239
2026-01-20 12:29:12.22	245.88	11.37	-28.5	-30.1	13.8	6.10e-06	0	45	0	134217728	18	4287
2026-01-20 12:29:13.22	246.05	11.41	-28.6	-30.2	13.7	2.20e-06	0	45	0	136314880	18	4330
2026-01-20 12:29:14.22	246.21	11.46	-28.7	-30.5	13.5	6.10e-06	0	45	0	139460608	18	4421
2026-01-20 12:29:15.22	246.37	11.50	-28.7	-30.5	13.5	9.90e-06	0	45	0	142606336	18	4419
2026-01-20 12:29:16.22	246.54	11.55	-28.6	-30.1	13.8	4.50e-06	0	45	0	145752064	18	4299
2026-01-20 12:29:17.21	246.70	11.60	-28.6	-30.2	13.7	8.30e-06	0	45	0	148897792	18	4344
2026-01-20 12:29:18.21	246.87	11.64	-28.7	-30.4	13.6	6.10e-06	0	45	0	152043520	18	4384
2026-01-20 12:29:19.20	247.03	11.69	-28.8	-30.7	13.4	1.22e-05	0	45	0	155189248	18	4476
2026-01-20 12:29:20.21	247.20	11.73	-28.7	-30.4	13.6	7.60e-06	0	45	0	158334976	18	4398
2026-01-20 12:29:21.20	247.37	11.78	-28.6	-30.3	13.7	1.29e-05	0	45	0	161480704	18	4357
2026-01-20 12:29:22.20	247.54	11.82	-28.8	-30.8	13.4	1.37e-05	0	45	0	164626432	18	4494
2026-01-20 12:29:23.19	247.70	11.86	-28.6	-30.1	13.8	4.50e-06	0	45	0	167772160	18	4310
2026-01-20 12:29:24.20	247.87	11.91	-28.7	-30.3	13.7	1.50e-06	0	45	0	170917888	18	4362
2026-01-20 12:29:25.19	248.04	11.95	-28.7	-30.4	13.6	9.10e-06	0	45	0	174063616	18	4378
2026-01-20 12:29:26.20	248.21	12.00	-28.5	-30.1	13.8	6.10e-06	0	45	0	177209344	18	4283
2026-01-20 12:29:27.19	248.38	12.04	-28.4	-29.7	14.0	3.00e-06	0	45	0	180355072	18	4181
2026-01-20 12:29:28.20	248.55	12.09	-28.5	-29.9	13.9	4.50e-06	0	44	0	183500800	18	4234
2026-01-20 12:29:29.19	248.72	12.13	-28.6	-30.2	13.8	6.10e-06	0	45	0	186646528	18	4308
2026-01-20 12:29:30.20	248.90	12.17	-28.6	-30.1	13.8	3.80e-06	0	45	0	189792256	18	4292
2026-01-20 12:29:31.20	249.07	12.22	-28.7	-30.5	13.6	6.80e-06	0	45	0	192937984	18	4403
2026-01-20 12:29:32.21	249.24	12.26	-28.8	-30.6	13.5	9.90e-06	0	45	0	196083712	18	4438
2026-01-20 12:29:33.21	249.42	12.30	-28.8	-30.7	13.5	1.29e-05	0	45	0	199229440	18	4466
2026-01-20 12:29:34.21	249.59	12.35	-28.8	-30.7	13.4	1.60e-05	0	44	0	202375168	18	4488
2026-01-20 12:29:35.22	249.77	12.39	-28.8	-30.7	13.5	1.06e-05	0	45	0	205520896	18	4479
2026-01-20 12:29:36.22	249.94	12.43	-28.8	-30.8	13.4	9.10e-06	0	45	0	208666624	18	4494
2026-01-20 12:29:37.22	250.12	12.47	-28.9	-30.9	13.3	1.44e-05	0	45	0	211812352	18	4540
2026-01-20 12:29:38.22	250.29	12.52	-28.9	-30.9	13.4	1.22e-05	0	45	0	214958080	18	4530
2026-01-20 12:29:39.22	250.47	12.56	-28.8	-30.6	13.5	9.10e-06	0	45	0	218103808	18	4458
2026-01-20 12:29:40.23	250.65	12.60	-28.9	-30.9	13.3	1.29e-05	0	45	0	221249536	18	4545
2026-01-20 12:29:41.23	250.82	12.64	-28.9	-31.0	13.3	1.37e-05	0	45	0	224395264	18	4550
2026-01-20 12:29:42.23	251.00	12.68	-28.8	-30.6	13.6	1.29e-05	0	45	0	227540992	18	4428
2026-01-20 12:29:43.23	251.18	12.72	-28.7	-30.4	13.7	9.10e-06	0	45	0	230686720	18	4383
2026-01-20 12:29:44.24	251.36	12.77	-28.6	-30.2	13.8	3.80e-06	0	45	0	233832448	18	4322
2026-01-20 12:29:45.25	251.54	12.81	-28.7	-30.5	13.6	8.30e-06	0	45	0	236978176	18	4407
2026-01-20 12:29:46.25	251.72	12.85	-28.6	-30.2	13.8	3.80e-06	0	45	0	240123904	18	4322
2026-01-20 12:29:47.25	251.90	12.89	-28.8	-30.6	13.5	1.14e-05	0	45	0	243269632	18	4450
2026-01-20 12:29:48.26	252.08	12.93	-28.9	-30.9	13.4	1.52e-05	0	45	0	246415360	18	4525
2026-01-20 12:29:49.26	252.26	12.97	-28.8	-30.7	13.5	7.60e-06	0	45	0	249561088	18	4465
2026-01-20 12:29:50.26	252.45	13.01	-29.0	-31.1	13.2	2.21e-05	0	45	0	252706816	18	4602
2026-01-20 12:29:51.27	252.63	13.05	-28.9	-30.9	13.4	1.90e-05	0	44	0	255852544	18	4533
2026-01-20 12:29:52.28	252.81	13.09	-29.2	-31.5	13.0	2.82e-05	0	45	0	258998272	18	4725
2026-01-20 12:29:53.28	253.00	13.13	-29.1	-31.5	13.0	3.50e-05	0	45	0	262144000	18	4706
2026-01-20 12:29:54.28	253.18	13.17	-29.1	-31.5	13.1	3.12e-05	0	45	0	265289728	18	4711
2026-01-20 12:29:55.28	253.36	13.21	-29.1	-31.3	13.1	2.51e-05	0	45	0	268435456	18	4666
2026-01-20 12:29:56.27	253.55	13.25	-29.1	-31.4	13.1	2.44e-05	0	45	0	271581184	18	4676
2026-01-20 12:29:57.28	253.73	13.29	-29.1	-31.4	13.1	3.12e-05	0	45	0	274726912	18	4689
2026-01-20 12:29:58.28	253.92	13.32	-29.1	-31.3	13.1	1.98e-05	0	45	0	277872640	18	4666
2026-01-20 12:29:59.28	254.10	13.36	-29.3	-31.8	12.8	6.79e-05	0	45	0	281018368	18	4829
2026-01-20 12:30:00.29	254.29	13.40	-29.0	-31.1	13.3	2.05e-05	0	45	0	284164096	18	4587
2026-01-20 12:30:01.29	254.48	13.44	-28.8	-30.7	13.5	1.67e-05	0	45	0	287309824	18	4469
2026-01-20 12:30:02.29	254.67	13.48	-28.7	-30.5	13.7	6.10e-06	0	45	0	290455552	18	4397
2026-01-20 12:30:03.29	254.85	13.51	-28.7	-30.4	13.7	5.30e-06	0	45	0	293601280	18	4385
2026-01-20 12:30:04.29	255.04	13.55	-28.8	-30.6	13.6	1.22e-05	0	45	0	296747008	18	4452
2026-01-20 12:30:05.29	255.23	13.59	-29.0	-31.2	13.2	1.67e-05	0	45	0	299892736	18	4627
2026-01-20 12:30:06.29	255.42	13.62	-29.1	-31.3	13.2	2.97e-05	0	45	0	303038464	18	4639
2026-01-20 12:30:07.29	255.61	13.66	-28.9	-30.9	13.4	1.67e-05	0	45	0	306184192	18	4518
2026-01-20 12:30:08.30	255.80	13.70	-28.9	-30.8	13.5	8.30e-06	0	45	0	309329920	18	4512
2026-01-20 12:30:09.30	255.99	13.73	-28.9	-30.9	13.5	1.44e-05	0	45	0	312475648	18	4529
2026-01-20 12:30:10.30	256.18	13.77	-28.8	-30.6	13.6	9.10e-06	0	45	0	315621376	18	4428
2026-01-20 12:30:11.30	256.37	13.80	-28.7	-30.4	13.7	1.22e-05	0	45	0	318767104	18	4394
2026-01-20 12:30:12.29	256.56	13.84	-28.7	-30.4	13.8	6.80e-06	0	45	0	321912832	18	4364
2026-01-20 12:30:13.30	256.76	13.87	-28.7	-30.4	13.8	5.30e-06	0	45	0	325058560	18	4368
2026-01-20 12:30:14.30	256.95	13.91	-28.9	-30.8	13.5	8.30e-06	0	45	0	328204288	18	4481
2026-01-20 12:30:15.30	257.14	13.94	-28.6	-30.1	13.9	7.00e-07	0	45	0	331350016	18	4287
2026-01-20 12:30:16.30	257.33	13.98	-28.4	-29.8	14.1	7.00e-07	0	45	0	334495744	18	4193
2026-01-20 12:30:17.30	257.53	14.01	-28.6	-30.1	14.0	4.50e-06	0	45	0	337641472	18	4280
2026-01-20 12:30:18.29	257.72	14.04	-28.6	-30.2	13.9	6.10e-06	0	45	0	339738624	18	4308
2026-01-20 12:30:19.29	257.92	14.08	-28.5	-30.0	14.0	4.50e-06	0	45	0	342884352	18	4270
2026-01-20 12:30:20.29	258.11	14.11	-28.6	-30.2	13.9	6.10e-06	0	45	0	346030080	18	4317
2026-01-20 12:30:21.30	258.31	14.14	-28.5	-30.0	14.0	2.20e-06	0	45	0	349175808	18	4271
2026-01-20 12:30:22.30	258.50	14.18	-28.5	-30.0	14.0	2.20e-06	0	45	0	352321536	18	4262
2026-01-20 12:30:23.31	258.70	14.21	-28.5	-30.0	14.1	4.50e-06	0	45	0	355467264	18	4250
2026-01-20 12:30:24.31	258.90	14.24	-28.5	-29.8	14.1	4.50e-06	0	45	0	358612992	18	4219
2026-01-20 12:30:25.31	259.10	14.27	-28.3	-29.4	14.3	3.00e-06	0	45	0	361758720	18	4105
2026-01-20 12:30:26.31	259.29	14.30	-28.3	-29.4	14.3	2.20e-06	0	45	0	364904448	18	4097
2026-01-20 12:30:27.31	259.49	14.34	-28.3	-29.5	14.3	7.00e-07	0	45	0	368050176	18	4128
2026-01-20 12:30:28.31	259.69	14.37	-28.4	-29.6	14.3	1.50e-06	0	44	0	371195904	18	4138
2026-01-20 12:30:29.31	259.89	14.40	-28.2	-29.8	14.4	1.50e-06	0	45	0	374341632	17	4306
2026-01-20 12:30:30.31	260.09	14.43	-28.5	-30.3	14.1	0.00e+00	0	45	0	377487360	17	4463
2026-01-20 12:30:31.31	260.29	14.46	-28.4	-30.1	14.3	7.00e-07	0	44	0	380633088	17	4395
2026-01-20 12:30:32.32	260.49	14.49	-28.5	-30.3	14.2	7.00e-07	0	45	0	383778816	17	4464
2026-01-20 12:30:33.33	260.69	14.52	-28.4	-30.3	14.2	0.00e+00	0	45	0	386924544	17	4446
2026-01-20 12:30:34.33	260.89	14.55	-28.5	-30.3	14.1	1.50e-06	0	45	0	390070272	17	4459
2026-01-20 12:30:35.33	261.09	14.58	-28.4	-30.2	14.2	7.00e-07	0	45	0	393216000	17	4412
2026-01-20 12:30:36.34	261.30	14.61	-28.5	-30.4	14.1	4.50e-06	0	45	0	396361728	17	4485
2026-01-20 12:30:37.34	261.50	14.63	-28.3	-29.9	14.3	1.50e-06	0	45	0	399507456	17	4343
2026-01-20 12:30:38.34	261.70	14.66	-28.3	-29.8	14.4	1.50e-06	0	45	0	402653184	17	4309
2026-01-20 12:30:39.34	261.90	14.69	-28.4	-30.1	14.2	0.00e+00	0	45	0	405798912	17	4399
2026-01-20 12:30:40.35	262.11	14.72	-28.2	-29.8	14.4	1.50e-06	0	45	0	408944640	17	4307
2026-01-20 12:30:41.35	262.31	14.75	-28.4	-30.1	14.3	7.00e-07	0	45	0	412090368	17	4398
2026-01-20 12:30:42.35	262.52	14.77	-28.4	-30.1	14.3	1.50e-06	0	45	0	415236096	17	4387
2026-01-20 12:30:43.36	262.72	14.80	-28.4	-30.1	14.3	2.20e-06	0	45	0	418381824	17	4393
2026-01-20 12:30:44.36	262.93	14.83	-28.4	-30.1	14.3	1.50e-06	0	45	0	421527552	17	4392
2026-01-20 12:30:45.36	263.13	14.85	-28.4	-30.2	14.2	1.50e-06	0	45	0	424673280	17	4427
2026-01-20 12:30:46.37	263.34	14.88	-28.3	-29.8	14.4	7.00e-07	0	45	0	427819008	17	4318
2026-01-20 12:30:47.37	263.54	14.90	-28.3	-29.9	14.4	0.00e+00	0	45	0	430964736	17	4339
2026-01-20 12:30:48.37	263.75	14.93	-28.3	-29.9	14.4	7.00e-07	0	45	0	434110464	17	4331
2026-01-20 12:30:49.37	263.95	14.95	-28.2	-29.8	14.5	0.00e+00	0	45	0	437256192	17	4294
2026-01-20 12:30:50.38	264.16	14.98	-28.2	-29.7	14.5	0.00e+00	0	45	0	440401920	17	4272
2026-01-20 12:30:51.38	264.37	15.00	-28.3	-30.0	14.3	3.80e-06	0	44	0	443547648	17	4367
2026-01-20 12:30:52.39	264.58	15.02	-28.6	-30.6	14.0	3.00e-06	0	45	0	446693376	17	4546
2026-01-20 12:30:53.39	264.79	15.05	-28.7	-30.8	13.9	7.00e-07	0	45	0	449839104	17	4605
2026-01-20 12:30:54.40	265.00	15.07	-28.6	-30.7	13.9	1.50e-06	0	45	0	452984832	17	4579
2026-01-20 12:30:55.39	265.20	15.09	-28.7	-30.8	13.9	5.30e-06	0	45	0	456130560	17	4603
2026-01-20 12:30:56.40	265.41	15.12	-28.5	-30.5	14.0	2.20e-06	0	45	0	459276288	17	4514
2026-01-20 12:30:57.40	265.62	15.14	-28.7	-30.9	13.8	9.10e-06	0	45	0	462422016	17	4637
2026-01-20 12:30:58.41	265.83	15.16	-28.7	-30.8	13.9	5.30e-06	0	45	0	465567744	17	4607
2026-01-20 12:30:59.41	266.04	15.18	-28.7	-30.8	13.9	3.80e-06	0	45	0	468713472	17	4599
2026-01-20 12:31:00.42	266.25	15.20	-28.8	-31.0	13.7	7.60e-06	0	45	0	471859200	17	4670
2026-01-20 12:31:01.42	266.46	15.22	-28.6	-30.6	14.0	7.00e-07	0	45	0	475004928	17	4537
2026-01-20 12:31:02.43	266.67	15.24	-28.5	-30.4	14.1	6.10e-06	0	45	0	478150656	17	4473
2026-01-20 12:31:03.43	266.88	15.26	-28.5	-30.4	14.1	2.20e-06	0	45	0	481296384	17	4466
2026-01-20 12:31:04.43	267.10	15.28	-28.5	-30.4	14.1	1.50e-06	0	45	0	484442112	17	4493
2026-01-20 12:31:05.43	267.31	15.30	-28.4	-30.2	14.3	1.50e-06	0	45	0	487587840	17	4410
2026-01-20 12:31:06.43	267.52	15.32	-28.3	-29.8	14.5	4.50e-06	0	45	0	490733568	17	4304
2026-01-20 12:31:07.43	267.73	15.34	-28.2	-29.6	14.6	7.00e-07	0	45	0	493879296	17	4253
2026-01-20 12:31:08.43	267.94	15.36	-28.2	-29.7	14.5	0.00e+00	0	45	0	497025024	17	4272
2026-01-20 12:31:09.44	268.15	15.38	-28.2	-29.7	14.6	0.00e+00	0	45	0	500170752	17	4268
2026-01-20 12:31:10.43	268.36	15.39	-28.2	-29.6	14.5	1.50e-06	0	45	0	503316480	17	4252
2026-01-20 12:31:11.43	268.58	15.41	-28.2	-29.8	14.5	7.00e-07	0	45	0	506462208	17	4290
2026-01-20 12:31:12.44	268.79	15.43	-28.3	-29.8	14.5	3.00e-06	0	45	0	509607936	17	4304
2026-01-20 12:31:13.44	269.00	15.45	-28.3	-30.0	14.4	0.00e+00	0	45	0	512753664	17	4356
2026-01-20 12:31:14.45	269.22	15.46	-28.3	-30.0	14.4	1.50e-06	0	45	0	515899392	17	4349
2026-01-20 12:31:15.46	269.43	15.48	-28.3	-29.8	14.5	0.00e+00	0	45	0	519045120	17	4309
2026-01-20 12:31:16.45	269.65	15.49	-28.2	-29.8	14.5	0.00e+00	0	45	0	522190848	17	4290
2026-01-20 12:31:17.46	269.86	15.51	-28.2	-29.7	14.5	1.50e-06	0	45	0	525336576	17	4284
2026-01-20 12:31:18.45	270.07	15.52	-28.2	-29.6	14.6	0.00e+00	0	45	0	528482304	17	4239
2026-01-20 12:31:19.45	270.29	15.54	-28.2	-29.7	14.6	0.00e+00	0	45	0	531628032	17	4262
2026-01-20 12:31:20.45	270.50	15.55	-28.3	-30.0	14.4	1.50e-06	0	45	0	534773760	17	4361
2026-01-20 12:31:21.45	270.72	15.56	-28.3	-29.9	14.4	0.00e+00	0	44	0	537919488	17	4346
2026-01-20 12:31:22.45	270.93	15.58	-28.3	-30.0	14.4	7.00e-07	0	45	0	541065216	17	4370
2026-01-20 12:31:23.45	271.14	15.59	-28.3	-30.0	14.4	1.50e-06	0	44	0	544210944	17	4357
2026-01-20 12:31:24.45	271.36	15.60	-28.4	-30.1	14.3	0.00e+00	0	45	0	547356672	17	4401
2026-01-20 12:31:25.44	271.57	15.61	-28.3	-30.0	14.4	7.00e-07	0	45	0	550502400	17	4356
2026-01-20 12:31:26.44	271.79	15.63	-28.3	-29.8	14.5	7.00e-07	0	45	0	553648128	17	4300
2026-01-20 12:31:27.44	272.00	15.64	-28.2	-29.6	14.6	0.00e+00	0	44	0	556793856	17	4240
2026-01-20 12:31:28.44	272.22	15.65	-28.4	-30.0	14.4	0.00e+00	0	45	0	559939584	17	4360
2026-01-20 12:31:29.44	272.43	15.66	-28.4	-30.2	14.3	0.00e+00	0	45	0	563085312	17	4410
2026-01-20 12:31:30.44	272.65	15.67	-28.3	-29.9	14.5	0.00e+00	0	45	0	565182464	17	4326
2026-01-20 12:31:31.44	272.87	15.68	-28.2	-29.7	14.6	0.00e+00	0	45	0	569376768	17	4262
2026-01-20 12:31:32.44	273.08	15.69	-28.2	-29.7	14.6	0.00e+00	0	45	0	571473920	17	4268
2026-01-20 12:31:33.44	273.30	15.70	-28.2	-29.5	14.7	0.00e+00	0	45	0	574619648	17	4228
2026-01-20 12:31:34.45	273.52	15.71	-28.2	-29.8	14.6	0.00e+00	0	45	0	577765376	17	4286
2026-01-20 12:31:35.45	273.73	15.72	-28.2	-29.6	14.6	0.00e+00	0	45	0	580911104	17	4251
2026-01-20 12:31:36.45	273.95	15.72	-28.3	-29.8	14.5	0.00e+00	0	45	0	584056832	17	4305
2026-01-20 12:31:37.45	274.17	15.73	-28.4	-30.2	14.3	7.00e-07	0	45	0	587202560	17	4418
2026-01-20 12:31:38.44	274.38	15.74	-28.3	-29.9	14.4	7.00e-07	0	45	0	590348288	17	4330
2026-01-20 12:31:39.44	274.60	15.74	-28.3	-29.9	14.5	0.00e+00	0	45	0	593494016	17	4333
2026-01-20 12:31:40.44	274.82	15.75	-28.4	-30.2	14.3	0.00e+00	0	45	0	596639744	17	4429
2026-01-20 12:31:41.44	275.03	15.76	-28.5	-30.4	14.2	7.00e-07	0	45	0	599785472	17	4472
2026-01-20 12:31:42.44	275.25	15.76	-28.6	-30.5	14.1	3.80e-06	0	45	0	602931200	17	4517
2026-01-20 12:31:43.45	275.47	15.77	-28.5	-30.4	14.2	7.00e-07	0	45	0	606076928	17	4490
2026-01-20 12:31:44.46	275.69	15.77	-28.5	-30.4	14.1	1.50e-06	0	45	0	609222656	17	4493
2026-01-20 12:31:45.46	275.91	15.78	-28.5	-30.3	14.2	7.00e-07	0	45	0	612368384	17	4440
2026-01-20 12:31:46.46	276.12	15.78	-28.4	-30.0	14.4	1.50e-06	0	45	0	615514112	17	4363
2026-01-20 12:31:47.47	276.34	15.78	-28.3	-30.0	14.4	0.00e+00	0	45	0	618659840	17	4347
2026-01-20 12:31:48.47	276.56	15.79	-28.4	-30.2	14.3	7.00e-07	0	45	0	621805568	17	4400
2026-01-20 12:31:49.47	276.78	15.79	-28.4	-30.2	14.3	7.00e-07	0	45	0	624951296	17	4422
2026-01-20 12:31:50.47	276.99	15.79	-28.4	-30.2	14.3	7.00e-07	0	45	0	628097024	17	4418
2026-01-20 12:31:51.47	277.21	15.80	-28.5	-30.4	14.2	3.00e-06	0	45	0	631242752	17	4477
2026-01-20 12:31:52.48	277.43	15.80	-28.4	-30.2	14.3	7.00e-07	0	45	0	634388480	17	4425
2026-01-20 12:31:53.48	277.65	15.80	-28.5	-30.3	14.2	7.00e-07	0	45	0	637534208	17	4460
2026-01-20 12:31:54.48	277.87	15.80	-28.5	-30.3	14.2	7.00e-07	0	45	0	640679936	17	4446
2026-01-20 12:31:55.49	278.09	15.80	-28.3	-29.9	14.4	7.00e-07	0	45	0	643825664	17	4338
2026-01-20 12:31:56.49	278.30	15.80	-28.4	-30.1	14.4	7.00e-07	0	45	0	646971392	17	4375
2026-01-20 12:31:57.49	278.52	15.80	-28.4	-30.1	14.3	1.50e-06	0	45	0	650117120	17	4385
2026-01-20 12:31:58.49	278.74	15.80	-28.4	-30.1	14.3	1.50e-06	0	45	0	653262848	17	4392
2026-01-20 12:31:59.49	278.96	15.80	-28.3	-29.9	14.5	0.00e+00	0	45	0	656408576	17	4338
2026-01-20 12:32:00.50	279.18	15.80	-28.4	-30.0	14.4	0.00e+00	0	45	0	659554304	17	4369
2026-01-20 12:32:01.51	279.40	15.80	-28.5	-30.4	14.2	0.00e+00	0	45	0	662700032	17	4471
2026-01-20 12:32:02.51	279.61	15.79	-28.3	-29.9	14.5	7.00e-07	0	45	0	665845760	17	4314
2026-01-20 12:32:03.51	279.83	15.79	-28.4	-30.1	14.4	0.00e+00	0	45	0	668991488	17	4380
2026-01-20 12:32:04.51	280.05	15.79	-28.5	-30.5	14.2	2.20e-06	0	45	0	672137216	17	4501
2026-01-20 12:32:05.51	280.27	15.78	-28.5	-30.5	14.1	6.80e-06	0	45	0	675282944	17	4497
2026-01-20 12:32:06.51	280.48	15.78	-28.5	-30.4	14.1	2.20e-06	0	45	0	678428672	17	4488
2026-01-20 12:32:07.51	280.70	15.78	-28.6	-30.7	14.0	3.80e-06	0	45	0	681574400	17	4569
2026-01-20 12:32:08.51	280.92	15.77	-28.7	-30.8	13.9	3.80e-06	0	45	0	684720128	17	4612
2026-01-20 12:32:09.51	281.14	15.77	-28.6	-30.6	14.0	3.00e-06	0	45	0	687865856	17	4545
2026-01-20 12:32:10.51	281.35	15.76	-28.6	-30.5	14.1	1.50e-06	0	45	0	691011584	17	4518
2026-01-20 12:32:11.52	281.57	15.76	-28.5	-30.5	14.1	1.50e-06	0	45	0	694157312	17	4492
2026-01-20 12:32:12.52	281.79	15.75	-28.6	-30.6	14.0	7.00e-07	0	45	0	697303040	17	4545
2026-01-20 12:32:13.52	282.01	15.74	-28.4	-30.2	14.3	7.00e-07	0	45	0	700448768	17	4416
2026-01-20 12:32:14.52	282.22	15.74	-28.3	-30.0	14.4	2.20e-06	0	45	0	703594496	17	4363
2026-01-20 12:32:15.53	282.44	15.73	-28.3	-29.9	14.4	7.00e-07	0	45	0	706740224	17	4342
2026-01-20 12:32:16.53	282.66	15.72	-28.2	-29.7	14.6	0.00e+00	0	45	0	709885952	17	4284
2026-01-20 12:32:17.54	282.88	15.71	-28.4	-30.1	14.3	1.50e-06	0	45	0	713031680	17	4383
2026-01-20 12:32:18.53	283.09	15.71	-28.4	-30.2	14.3	1.50e-06	0	45	0	716177408	17	4402
2026-01-20 12:32:19.54	283.31	15.70	-28.5	-30.3	14.2	0.00e+00	0	45	0	719323136	17	4448
2026-01-20 12:32:20.54	283.52	15.69	-28.4	-30.2	14.3	7.00e-07	0	45	0	722468864	17	4407
2026-01-20 12:32:21.53	283.74	15.68	-28.6	-30.5	14.1	1.50e-06	0	45	0	725614592	17	4507
2026-01-20 12:32:22.53	283.95	15.67	-28.5	-30.4	14.1	7.00e-07	0	45	0	728760320	17	4483
2026-01-20 12:32:23.53	284.17	15.66	-28.5	-30.5	14.2	7.00e-07	0	45	0	731906048	17	4494
2026-01-20 12:32:24.53	284.38	15.65	-28.5	-30.5	14.1	4.50e-06	0	45	0	735051776	17	4507
2026-01-20 12:32:25.53	284.60	15.64	-28.5	-30.3	14.3	7.00e-07	0	45	0	738197504	17	4436
2026-01-20 12:32:26.52	284.81	15.63	-28.4	-30.2	14.3	7.00e-07	0	45	0	741343232	17	4403
2026-01-20 12:32:27.53	285.03	15.61	-28.6	-30.5	14.1	0.00e+00	0	45	0	744488960	17	4512
2026-01-20 12:32:28.53	285.24	15.60	-28.6	-30.6	14.1	3.00e-06	0	45	0	747634688	17	4542
2026-01-20 12:32:29.54	285.46	15.59	-28.4	-30.3	14.3	1.50e-06	0	45	0	750780416	17	4431
2026-01-20 12:32:30.54	285.68	15.58	-28.4	-30.0	14.4	0.00e+00	0	45	0	753926144	17	4370
2026-01-20 12:32:31.55	285.89	15.56	-28.3	-29.9	14.5	7.00e-07	0	45	0	757071872	17	4315
2026-01-20 12:32:32.55	286.11	15.55	-28.3	-30.0	14.4	0.00e+00	0	45	0	760217600	17	4358
2026-01-20 12:32:33.56	286.32	15.54	-28.3	-30.0	14.4	0.00e+00	0	45	0	763363328	17	4363
2026-01-20 12:32:34.57	286.54	15.52	-28.3	-30.0	14.4	0.00e+00	0	45	0	766509056	17	4343
2026-01-20 12:32:35.57	286.75	15.51	-28.3	-29.8	14.5	7.00e-07	0	45	0	769654784	17	4291
2026-01-20 12:32:36.58	286.97	15.49	-28.3	-29.9	14.5	0.00e+00	0	45	0	772800512	17	4312
2026-01-20 12:32:37.58	287.18	15.48	-28.3	-30.0	14.4	0.00e+00	0	45	0	774897664	17	4356
2026-01-20 12:32:38.58	287.39	15.46	-28.4	-30.1	14.3	4.50e-06	0	45	0	778043392	17	4393
2026-01-20 12:32:39.58	287.60	15.44	-28.5	-30.3	14.2	2.20e-06	0	45	0	781189120	17	4447
2026-01-20 12:32:40.57	287.82	15.43	-28.5	-30.3	14.2	7.00e-07	0	45	0	784334848	17	4438
2026-01-20 12:32:41.58	288.03	15.41	-28.5	-30.5	14.1	3.00e-06	0	45	0	787480576	17	4511
2026-01-20 12:32:42.58	288.24	15.39	-28.5	-30.4	14.1	7.00e-07	0	45	0	790626304	17	4483
2026-01-20 12:32:43.58	288.45	15.38	-28.4	-30.1	14.3	4.50e-06	0	45	0	793772032	17	4387
2026-01-20 12:32:44.58	288.66	15.36	-28.4	-30.2	14.3	7.00e-07	0	45	0	796917760	17	4425
2026-01-20 12:32:45.59	288.88	15.34	-28.3	-29.8	14.5	2.20e-06	0	45	0	800063488	17	4310
2026-01-20 12:32:46.59	289.09	15.32	-28.3	-30.0	14.4	1.50e-06	0	45	0	803209216	17	4344
2026-01-20 12:32:47.59	289.30	15.30	-28.4	-30.1	14.3	1.50e-06	0	45	0	806354944	17	4398
2026-01-20 12:32:48.59	289.51	15.28	-28.4	-30.2	14.3	7.00e-07	0	45	0	809500672	17	4410
2026-01-20 12:32:49.60	289.72	15.26	-28.4	-30.1	14.3	1.50e-06	0	45	0	812646400	17	4381
2026-01-20 12:32:50.60	289.93	15.24	-28.5	-30.3	14.2	0.00e+00	0	45	0	815792128	17	4458
2026-01-20 12:32:51.61	290.14	15.22	-28.4	-30.1	14.3	2.20e-06	0	45	0	818937856	17	4382
2026-01-20 12:32:52.61	290.35	15.20	-28.4	-30.2	14.3	1.50e-06	0	45	0	822083584	17	4425
2026-01-20 12:32:53.61	290.56	15.18	-28.4	-30.2	14.3	7.00e-07	0	45	0	825229312	17	4414
2026-01-20 12:32:54.61	290.77	15.16	-28.5	-30.3	14.2	2.20e-06	0	45	0	828375040	17	4448
2026-01-20 12:32:55.61	290.98	15.14	-28.6	-30.6	14.1	7.00e-07	0	45	0	831520768	17	4523
2026-01-20 12:32:56.61	291.18	15.12	-28.6	-30.6	14.1	2.20e-06	0	45	0	834666496	17	4535
2026-01-20 12:32:57.62	291.39	15.09	-28.7	-30.8	13.9	1.50e-06	0	45	0	837812224	17	4607
2026-01-20 12:32:58.62	291.60	15.07	-28.6	-30.6	14.0	2.20e-06	0	45	0	840957952	17	4544
2026-01-20 12:32:59.62	291.81	15.05	-28.6	-30.7	14.0	3.00e-06	0	45	0	844103680	17	4564
2026-01-20 12:33:00.62	292.02	15.02	-28.6	-30.5	14.1	7.00e-07	0	45	0	847249408	17	4517
2026-01-20 12:33:01.63	292.22	15.00	-28.6	-30.5	14.1	0.00e+00	0	45	0	850395136	17	4511
2026-01-20 12:33:02.63	292.43	14.98	-28.4	-30.2	14.3	0.00e+00	0	45	0	853540864	17	4405
2026-01-20 12:33:03.63	292.64	14.95	-28.4	-30.3	14.3	1.50e-06	0	45	0	856686592	17	4438
2026-01-20 12:33:04.64	292.84	14.93	-28.7	-30.8	13.9	1.50e-06	0	45	0	859832320	17	4599
2026-01-20 12:33:05.65	293.05	14.90	-28.6	-30.7	13.9	3.00e-06	0	45	0	862978048	17	4566
2026-01-20 12:33:06.65	293.26	14.88	-28.5	-30.3	14.2	2.20e-06	0	45	0	866123776	17	4461
2026-01-20 12:33:07.66	293.46	14.85	-28.5	-30.5	14.1	3.00e-06	0	45	0	869269504	17	4501
2026-01-20 12:33:08.66	293.67	14.82	-28.4	-30.2	14.3	1.50e-06	0	45	0	872415232	17	4426
2026-01-20 12:33:09.67	293.87	14.80	-28.5	-30.5	14.1	1.50e-06	0	45	0	875560960	17	4499
2026-01-20 12:33:10.68	294.08	14.77	-28.4	-30.2	14.3	1.50e-06	0	45	0	878706688	17	4430
2026-01-20 12:33:11.68	294.28	14.74	-28.7	-30.7	14.0	7.00e-07	0	45	0	881852416	17	4584
2026-01-20 12:33:12.68	294.48	14.72	-28.6	-30.6	14.0	7.00e-07	0	45	0	884998144	17	4552
2026-01-20 12:33:13.68	294.68	14.69	-28.5	-30.5	14.1	7.00e-07	0	45	0	888143872	17	4507
2026-01-20 12:33:14.68	294.89	14.66	-28.5	-30.3	14.2	1.50e-06	0	45	0	891289600	17	4439
2026-01-20 12:33:15.68	295.09	14.63	-28.5	-30.5	14.1	0.00e+00	0	45	0	894435328	17	4493
2026-01-20 12:33:16.69	295.29	14.61	-28.5	-30.4	14.1	3.00e-06	0	45	0	897581056	17	4489
2026-01-20 12:33:17.70	295.49	14.58	-28.4	-30.2	14.3	7.00e-07	0	45	0	900726784	17	4421
2026-01-20 12:33:18.70	295.69	14.55	-28.5	-30.3	14.2	0.00e+00	0	45	0	903872512	17	4459
2026-01-20 12:33:19.70	295.89	14.52	-28.6	-30.7	13.9	3.00e-06	0	45	0	907018240	17	4578
2026-01-20 12:33:20.71	296.10	14.49	-28.6	-30.6	14.1	3.00e-06	0	45	0	910163968	17	4523
2026-01-20 12:33:21.72	296.30	14.46	-28.5	-30.3	14.2	7.00e-07	0	45	0	913309696	17	4446
2026-01-20 12:33:22.72	296.50	14.43	-28.4	-30.1	14.3	7.00e-07	0	45	0	916455424	17	4384
2026-01-20 12:33:23.73	296.70	14.40	-28.4	-30.2	14.2	0.00e+00	0	45	0	919601152	17	4419
2026-01-20 12:33:24.73	296.89	14.37	-28.4	-30.2	14.2	1.50e-06	0	45	0	922746880	17	4422
2026-01-20 12:33:25.73	297.09	14.34	-28.4	-30.3	14.2	7.00e-07	0	45	0	925892608	17	4433
2026-01-20 12:33:26.74	297.29	14.31	-28.4	-30.2	14.2	2.20e-06	0	45	0	929038336	17	4421
2026-01-20 12:33:27.74	297.49	14.27	-28.4	-30.3	14.2	2.20e-06	0	45	0	932184064	17	4438
2026-01-20 12:33:28.74	297.68	14.24	-28.5	-30.3	14.2	2.20e-06	0	45	0	935329792	17	4456
2026-01-20 12:33:29.74	297.88	14.21	-28.5	-30.3	14.2	2.20e-06	0	45	0	938475520	17	4433
2026-01-20 12:33:30.74	298.08	14.18	-28.6	-30.5	14.0	7.00e-07	0	45	0	941621248	17	4523
2026-01-20 12:33:31.74	298.27	14.15	-28.6	-30.6	14.0	6.10e-06	0	45	0	944766976	17	4553
2026-01-20 12:33:32.75	298.47	14.11	-28.6	-30.5	14.0	7.00e-07	0	45	0	947912704	17	4525
2026-01-20 12:33:33.76	298.66	14.08	-28.8	-31.2	13.6	3.00e-06	0	45	0	951058432	17	4733
2026-01-20 12:33:34.76	298.86	14.05	-28.7	-31.0	13.8	9.10e-06	0	45	0	954204160	17	4654
2026-01-20 12:33:35.76	299.05	14.01	-28.7	-30.8	13.9	6.10e-06	0	45	0	957349888	17	4598
2026-01-20 12:33:36.77	299.25	13.98	-28.6	-30.7	14.0	3.00e-06	0	45	0	960495616	17	4566
2026-01-20 12:33:37.77	299.44	13.94	-28.6	-30.7	13.9	3.00e-06	0	45	0	963641344	17	4582
2026-01-20 12:33:38.77	299.63	13.91	-28.5	-30.3	14.2	1.50e-06	0	45	0	966787072	17	4449
2026-01-20 12:33:39.78	299.82	13.88	-28.6	-30.6	14.0	3.00e-06	0	45	0	969932800	17	4524
2026-01-20 12:33:40.79	300.02	13.84	-28.5	-30.5	14.1	7.00e-07	0	45	0	973078528	17	4506
2026-01-20 12:33:41.79	300.21	13.81	-28.4	-30.2	14.2	2.20e-06	0	45	0	976224256	17	4430
2026-01-20 12:33:42.79	300.40	13.77	-28.5	-30.4	14.1	7.00e-07	0	45	0	979369984	17	4464
2026-01-20 12:33:43.79	300.59	13.74	-28.4	-30.3	14.2	1.50e-06	0	45	0	982515712	17	4441
2026-01-20 12:33:44.80	300.78	13.70	-28.4	-30.2	14.2	1.50e-06	0	45	0	985661440	17	4425
2026-01-20 12:33:45.81	300.97	13.66	-28.4	-30.1	14.3	7.00e-07	0	45	0	988807168	17	4383
2026-01-20 12:33:46.81	301.16	13.63	-28.5	-30.3	14.1	3.80e-06	0	45	0	991952896	17	4453
2026-01-20 12:33:47.81	301.35	13.59	-28.4	-30.2	14.2	7.00e-07	0	45	0	995098624	17	4429
2026-01-20 12:33:48.81	301.53	13.55	-28.5	-30.3	14.1	7.00e-07	0	45	0	998244352	17	4463
2026-01-20 12:33:49.81	301.72	13.52	-28.7	-30.8	13.9	1.50e-06	0	45	0	1001390080	17	4594
2026-01-20 12:33:50.81	301.91	13.48	-28.5	-30.5	14.0	3.00e-06	0	45	0	1004535808	17	4514
2026-01-20 12:33:51.81	302.09	13.44	-28.6	-30.6	13.9	3.00e-06	0	45	0	1007681536	17	4554
2026-01-20 12:33:52.82	302.28	13.40	-28.6	-30.7	13.9	5.30e-06	0	45	0	1010827264	17	4578
2026-01-20 12:33:53.83	302.47	13.37	-28.6	-30.5	14.0	4.50e-06	0	45	0	1013972992	17	4510
2026-01-20 12:33:54.82	302.65	13.33	-28.8	-31.0	13.7	6.80e-06	0	45	0	1017118720	17	4668
2026-01-20 12:33:55.83	302.84	13.29	-28.6	-30.7	13.9	4.50e-06	0	45	0	1020264448	17	4560
2026-01-20 12:33:56.83	303.02	13.25	-28.4	-30.1	14.3	1.50e-06	0	45	0	1023410176	17	4378
2026-01-20 12:33:57.84	303.21	13.21	-28.4	-30.1	14.2	0.00e+00	0	45	0	1026555904	17	4381
2026-01-20 12:33:58.84	303.39	13.17	-28.3	-29.9	14.3	3.00e-06	0	45	0	1029701632	17	4325
2026-01-20 12:33:59.85	303.58	13.14	-28.5	-30.3	14.1	7.00e-07	0	45	0	1032847360	17	4465
2026-01-20 12:34:00.85	303.76	13.10	-28.4	-30.1	14.3	2.20e-06	0	45	0	1035993088	17	4382
2026-01-20 12:34:01.85	303.94	13.06	-28.3	-29.8	14.4	1.50e-06	0	45	0	1039138816	17	4315
2026-01-20 12:34:02.86	304.12	13.02	-28.3	-29.9	14.4	1.50e-06	0	45	0	1042284544	17	4321
2026-01-20 12:34:03.87	304.30	12.98	-28.4	-30.2	14.2	1.50e-06	0	45	0	1045430272	17	4428
2026-01-20 12:34:04.87	304.48	12.94	-28.3	-30.0	14.3	0.00e+00	0	45	0	1048576000	17	4360
2026-01-20 12:34:05.87	304.66	12.90	-28.5	-30.4	14.1	0.00e+00	0	45	0	1051721728	17	4476
2026-01-20 12:34:06.87	304.84	12.86	-28.5	-30.4	14.1	2.20e-06	0	45	0	1054867456	17	4468
2026-01-20 12:34:07.88	305.02	12.82	-28.6	-30.5	14.0	2.20e-06	0	45	0	1058013184	17	4525
2026-01-20 12:34:08.87	305.20	12.77	-28.5	-30.4	14.1	1.50e-06	0	45	0	1061158912	17	4469
2026-01-20 12:34:09.87	305.38	12.73	-28.6	-30.7	13.9	1.50e-06	0	45	0	1064304640	17	4567
2026-01-20 12:34:10.88	305.56	12.69	-28.5	-30.3	14.1	1.50e-06	0	45	0	1067450368	17	4448
2026-01-20 12:34:11.87	305.73	12.65	-28.4	-30.3	14.1	1.50e-06	0	45	0	1070596096	17	4452
2026-01-20 12:34:12.88	305.91	12.61	-28.5	-30.3	14.1	2.20e-06	0	45	0	1073741824	17	4459
2026-01-20 12:34:13.88	306.09	12.57	-28.5	-30.5	14.0	3.80e-06	0	45	0	1075838976	17	4517
2026-01-20 12:34:14.89	306.26	12.53	-28.5	-30.3	14.1	7.00e-07	0	45	0	1080033280	17	4445
2026-01-20 12:34:15.89	306.44	12.48	-28.4	-30.3	14.1	1.50e-06	0	45	0	1083179008	17	4438
2026-01-20 12:34:16.89	306.61	12.44	-28.5	-30.4	14.0	2.20e-06	0	45	0	1086324736	17	4475
2026-01-20 12:34:17.90	306.79	12.40	-28.5	-30.4	14.0	1.50e-06	0	45	0	1089470464	17	4464
2026-01-20 12:34:18.90	306.96	12.36	-28.5	-30.5	14.0	2.20e-06	0	45	0	1092616192	17	4516
2026-01-20 12:34:19.90	307.13	12.31	-28.6	-30.6	13.9	3.80e-06	0	45	0	1095761920	17	4554
2026-01-20 12:34:20.91	307.31	12.27	-28.7	-30.9	13.7	4.50e-06	0	45	0	1098907648	17	4630
2026-01-20 12:34:21.92	307.48	12.23	-28.7	-30.8	13.8	4.50e-06	0	45	0	1101004800	17	4608
2026-01-20 12:34:22.91	307.65	12.19	-28.8	-31.0	13.7	7.60e-06	0	45	0	1104150528	17	4671
2026-01-20 12:34:23.91	307.82	12.14	-28.8	-31.2	13.5	4.50e-06	0	45	0	1107296256	17	4737
2026-01-20 12:34:24.92	307.99	12.10	-28.9	-31.4	13.4	9.10e-06	0	45	0	1110441984	17	4790
2026-01-20 12:34:25.92	308.16	12.06	-29.0	-31.2	13.2	1.98e-05	0	45	0	1113587712	18	4617
2026-01-20 12:34:26.92	308.33	12.01	-29.3	-31.9	12.8	3.43e-05	0	45	0	1116733440	18	4830
2026-01-20 12:34:27.91	308.50	11.97	-29.1	-31.3	13.2	3.58e-05	0	45	0	1119879168	18	4647
2026-01-20 12:34:28.93	308.67	11.92	-28.9	-30.8	13.5	9.90e-06	0	45	0	1123024896	18	4495
2026-01-20 12:34:29.93	308.84	11.88	-28.8	-30.6	13.7	3.80e-06	0	45	0	1126170624	18	4433
2026-01-20 12:34:30.94	309.01	11.83	-28.8	-30.7	13.6	7.60e-06	0	45	0	1129316352	18	4452
2026-01-20 12:34:31.94	309.18	11.79	-28.8	-30.5	13.6	6.80e-06	0	45	0	1132462080	18	4419
2026-01-20 12:34:32.94	309.34	11.75	-28.8	-30.6	13.6	7.60e-06	0	45	0	1135607808	18	4443
2026-01-20 12:34:33.94	309.51	11.70	-28.9	-30.9	13.5	4.50e-06	0	45	0	1138753536	18	4542
2026-01-20 12:34:34.95	309.68	11.66	-28.8	-30.5	13.7	9.90e-06	0	45	0	1141899264	18	4420
2026-01-20 12:34:35.95	309.84	11.61	-28.8	-30.6	13.6	9.10e-06	0	45	0	1145044992	18	4449
2026-01-20 12:34:36.95	310.01	11.57	-28.8	-30.7	13.6	8.30e-06	0	45	0	1148190720	18	4468
2026-01-20 12:34:37.95	310.17	11.52	-28.9	-30.9	13.5	1.83e-05	0	45	0	1151336448	18	4517
2026-01-20 12:34:38.95	310.33	11.48	-29.0	-31.0	13.4	1.60e-05	0	45	0	1154482176	18	4553
2026-01-20 12:34:39.96	310.50	11.43	-28.9	-30.9	13.4	2.28e-05	0	45	0	1157627904	18	4522
2026-01-20 12:34:40.96	310.66	11.38	-29.1	-31.2	13.3	1.83e-05	0	46	0	1160773632	18	4634
2026-01-20 12:34:41.96	310.82	11.34	-29.2	-31.5	13.1	2.51e-05	0	45	0	1163919360	18	4722
2026-01-20 12:34:42.96	310.99	11.29	-29.2	-31.6	13.0	2.36e-05	0	45	0	1167065088	18	4743
2026-01-20 12:34:43.96	311.15	11.25	-29.1	-31.3	13.2	2.82e-05	0	45	0	1170210816	18	4662
2026-01-20 12:34:44.96	311.31	11.20	-29.0	-31.2	13.3	1.75e-05	0	45	0	1173356544	18	4607
2026-01-20 12:34:45.97	311.47	11.16	-29.3	-31.8	12.8	4.88e-05	0	45	0	1176502272	18	4818
2026-01-20 12:34:46.98	311.63	11.11	-29.1	-31.5	13.1	3.58e-05	0	46	0	1179648000	18	4709
2026-01-20 12:34:47.98	311.79	11.06	-29.3	-31.8	12.9	4.34e-05	0	45	0	1182793728	18	4799
2026-01-20 12:34:48.98	311.95	11.02	-29.4	-32.1	12.7	4.34e-05	0	45	0	1185939456	18	4900
2026-01-20 12:34:49.99	312.11	10.97	-29.4	-32.2	12.6	6.86e-05	0	45	0	1189085184	18	4950
2026-01-20 12:34:50.99	312.27	10.92	-29.4	-32.1	12.6	9.68e-05	0	45	0	1192230912	18	4913
2026-01-20 12:34:51.99	312.42	10.88	-29.2	-31.5	13.0	4.19e-05	0	45	0	1195376640	18	4729
2026-01-20 12:34:53.00	312.58	10.83	-29.6	-32.1	12.4	8.62e-05	0	45	0	1198522368	19	4820
2026-01-20 12:34:54.00	312.74	10.78	-29.4	-31.7	12.7	1.20e-04	0	45	0	1201668096	19	4665
2026-01-20 12:34:55.00	312.89	10.73	-29.3	-31.2	12.9	7.55e-05	0	45	0	1204813824	19	4527
2026-01-20 12:34:56.00	313.05	10.69	-29.3	-31.4	12.8	5.56e-05	0	45	0	1207959552	19	4569
2026-01-20 12:34:57.01	313.20	10.64	-29.4	-31.7	12.6	9.68e-05	0	45	0	1211105280	19	4668
2026-01-20 12:34:58.01	313.36	10.59	-29.4	-31.6	12.7	7.01e-05	0	45	0	1214251008	19	4627
2026-01-20 12:34:59.01	313.51	10.55	-29.4	-31.6	12.7	6.02e-05	0	45	0	1217396736	19	4640
2026-01-20 12:35:00.02	313.67	10.50	-29.7	-32.3	12.2	1.38e-04	0	46	0	1220542464	19	4876
2026-01-20 12:35:01.02	313.82	10.45	-29.8	-32.6	12.0	2.84e-04	0	45	0	1223688192	19	4993
2026-01-20 12:35:02.03	313.97	10.40	-29.6	-32.2	12.2	2.81e-04	0	45	0	1226833920	19	4857
2026-01-20 12:35:03.03	314.13	10.35	-29.9	-32.8	11.9	3.65e-04	0	45	0	1229979648	19	5068
2026-01-20 12:35:04.04	314.28	10.31	-29.6	-32.1	12.3	2.04e-04	0	45	0	1233125376	19	4817
2026-01-20 12:35:05.04	314.43	10.26	-29.6	-32.0	12.3	1.95e-04	0	46	0	1236271104	19	4793
2026-01-20 12:35:06.05	314.58	10.21	-29.6	-32.2	12.3	2.43e-04	0	45	0	1239416832	19	4837
2026-01-20 12:35:07.04	314.73	10.16	-29.8	-32.6	12.0	2.17e-04	0	45	0	1242562560	19	4991
2026-01-20 12:35:08.04	314.88	10.11	-29.9	-32.5	11.6	7.33e-04	0	45	0	1245708288	20	4866
2026-01-20 12:35:09.05	315.03	10.07	-29.7	-31.9	12.0	3.91e-04	0	45	0	1248854016	20	4650
2026-01-20 12:35:10.05	315.18	10.02	-29.6	-31.6	12.2	1.91e-04	0	45	0	1251999744	20	4556
2026-01-20 12:35:11.05	315.33	9.97	-29.4	-31.2	12.5	1.88e-04	0	45	0	1255145472	20	4419
2026-01-20 12:35:12.06	315.48	9.92	-29.5	-31.5	12.3	1.62e-04	0	45	0	1258291200	20	4516
2026-01-20 12:35:13.05	315.62	9.87	-29.4	-31.2	12.5	9.76e-05	0	45	0	1261436928	20	4435
2026-01-20 12:35:14.05	315.77	9.82	-29.7	-31.8	12.1	1.82e-04	0	45	0	1264582656	20	4629
2026-01-20 12:35:15.04	315.91	9.78	-29.5	-31.3	12.4	1.67e-04	0	45	0	1267728384	20	4465
2026-01-20 12:35:16.05	316.06	9.73	-29.4	-31.2	12.4	1.07e-04	0	45	0	1270874112	20	4426
2026-01-20 12:35:17.05	316.20	9.68	-29.3	-31.5	12.7	9.23e-05	0	45	0	1274019840	19	4610
2026-01-20 12:35:18.06	316.35	9.63	-29.3	-31.5	12.7	7.17e-05	0	45	0	1277165568	19	4603
2026-01-20 12:35:19.06	316.49	9.58	-29.3	-31.4	12.7	6.79e-05	0	45	0	1280311296	19	4580
2026-01-20 12:35:20.06	316.64	9.53	-29.4	-31.7	12.5	1.34e-04	0	45	0	1283457024	19	4696
2026-01-20 12:35:21.07	316.78	9.48	-29.3	-31.5	12.6	7.24e-05	0	45	0	1286602752	19	4602
2026-01-20 12:35:22.07	316.93	9.43	-29.5	-32.0	12.3	1.13e-04	0	45	0	1289748480	19	4789
2026-01-20 12:35:23.07	317.07	9.38	-29.2	-31.3	12.7	9.30e-05	0	45	0	1292894208	19	4554
2026-01-20 12:35:24.07	317.21	9.33	-29.5	-31.8	12.4	1.27e-04	0	45	0	1296039936	19	4719
2026-01-20 12:35:25.07	317.35	9.29	-29.5	-31.9	12.4	1.75e-04	0	45	0	1299185664	19	4754
2026-01-20 12:35:26.07	317.49	9.24	-29.5	-31.8	12.4	1.54e-04	0	45	0	1302331392	19	4725
2026-01-20 12:35:27.07	317.63	9.19	-29.5	-32.0	12.3	1.63e-04	0	45	0	1305477120	19	4798
2026-01-20 12:35:28.07	317.77	9.14	-29.6	-32.1	12.2	2.20e-04	0	45	0	1308622848	19	4838
2026-01-20 12:35:29.07	317.91	9.09	-29.7	-32.5	12.0	2.29e-04	0	45	0	1311768576	19	4941
2026-01-20 12:35:30.08	318.05	9.04	-29.8	-32.9	11.8	6.25e-04	0	45	0	1314914304	19	5088
2026-01-20 12:35:31.08	318.19	8.99	-29.8	-32.7	11.8	5.39e-04	0	45	0	1318060032	19	5025
2026-01-20 12:35:32.08	318.33	8.94	-29.8	-32.8	11.8	4.23e-04	0	45	0	1321205760	19	5052
2026-01-20 12:35:33.09	318.47	8.89	-30.0	-33.2	11.5	6.84e-04	0	45	0	1324351488	19	5208
2026-01-20 12:35:34.09	318.61	8.84	-29.9	-32.9	11.7	7.46e-04	0	45	0	1327497216	19	5092
2026-01-20 12:35:35.09	318.74	8.79	-30.0	-32.8	11.3	7.28e-04	0	45	0	1330642944	20	4985
2026-01-20 12:35:36.10	318.88	8.74	-30.1	-33.1	11.1	1.94e-03	0	45	0	1333788672	20	5089
2026-01-20 12:35:37.10	319.02	8.69	-30.0	-32.9	11.2	1.50e-03	0	45	0	1336934400	20	5023
2026-01-20 12:35:38.10	319.15	8.64	-30.3	-33.6	10.8	1.75e-03	0	45	0	1340080128	20	5278
2026-01-20 12:35:39.11	319.29	8.59	-30.2	-33.3	11.0	2.50e-03	0	45	0	1343225856	20	5135
2026-01-20 12:35:40.11	319.42	8.54	-30.1	-33.1	11.1	2.20e-03	0	45	0	1346371584	20	5077
2026-01-20 12:35:41.12	319.56	8.49	-30.5	-34.0	10.5	2.79e-03	0	45	0	1349517312	20	5445
2026-01-20 12:35:42.11	319.69	8.44	-30.6	-33.9	10.2	5.30e-03	0	45	0	1351614464	21	5300
2026-01-20 12:35:43.12	319.83	8.39	-30.8	-34.4	9.8	1.06e-02	0	45	0	1354760192	21	5493
2026-01-20 12:35:44.12	319.96	8.34	-30.6	-34.0	10.1	6.58e-03	0	45	0	1357905920	21	5333
2026-01-20 12:35:45.12	320.09	8.29	-30.9	-34.9	9.5	1.56e-02	0	45	0	1361051648	21	5719
2026-01-20 12:35:46.13	320.23	8.24	-30.7	-34.3	9.9	8.68e-03	0	45	0	1364197376	21	5460
2026-01-20 12:35:47.13	320.36	8.19	-30.2	-32.8	10.9	2.36e-03	0	45	0	1367343104	21	4884
2026-01-20 12:35:48.14	320.49	8.14	-30.2	-32.9	10.9	2.03e-03	0	45	0	1371537408	21	4898
2026-01-20 12:35:49.14	320.62	8.09	-30.6	-33.9	10.2	5.22e-03	0	45	0	1374683136	21	5283
2026-01-20 12:35:50.15	320.75	8.04	-30.1	-32.6	11.1	2.44e-03	0	45	0	1376780288	21	4782
2026-01-20 12:35:51.15	320.88	7.99	-29.8	-31.9	11.6	8.52e-04	0	45	0	1379926016	21	4568
2026-01-20 12:35:52.15	321.01	7.94	-29.9	-32.0	11.5	1.15e-03	0	45	0	1383071744	21	4594
2026-01-20 12:35:53.15	321.14	7.89	-29.8	-31.8	11.6	7.55e-04	0	45	0	1386217472	21	4540
2026-01-20 12:35:54.16	321.27	7.84	-30.0	-32.3	11.3	1.19e-03	0	45	0	1389363200	21	4679
2026-01-20 12:35:55.17	321.40	7.79	-29.9	-32.1	11.4	1.09e-03	0	45	0	1392508928	21	4634
2026-01-20 12:35:56.18	321.53	7.74	-30.0	-32.5	11.1	1.17e-03	0	45	0	1395654656	21	4760
2026-01-20 12:35:57.17	321.65	7.69	-30.3	-33.2	10.6	2.62e-03	0	45	0	1398800384	21	5010
2026-01-20 12:35:58.17	321.78	7.64	-30.3	-33.3	10.6	2.54e-03	0	45	0	1401946112	21	5050
2026-01-20 12:35:59.17	321.91	7.59	-30.4	-33.4	10.4	5.55e-03	0	45	0	1405091840	21	5098
2026-01-20 12:36:00.18	322.04	7.54	-30.0	-32.3	11.3	1.63e-03	0	45	0	1408237568	21	4693
2026-01-20 12:36:01.17	322.16	7.49	-30.2	-32.9	10.8	2.29e-03	0	45	0	1411383296	21	4913
2026-01-20 12:36:02.17	322.28	7.44	-30.2	-32.9	10.8	2.31e-03	0	45	0	1414529024	21	4909
2026-01-20 12:36:03.18	322.41	7.38	-30.4	-33.4	10.4	2.92e-03	0	45	0	1417674752	21	5105
2026-01-20 12:36:04.18	322.54	7.33	-30.3	-33.1	10.6	3.15e-03	0	45	0	1420820480	21	4995
2026-01-20 12:36:05.19	322.66	7.28	-30.1	-32.5	11.0	2.06e-03	0	45	0	1423966208	21	4772
2026-01-20 12:36:06.19	322.78	7.23	-29.9	-32.1	11.3	1.06e-03	0	45	0	1427111936	21	4648
2026-01-20 12:36:07.20	322.91	7.18	-29.8	-32.4	11.4	8.21e-04	0	45	0	1430257664	20	4853
2026-01-20 12:36:08.20	323.03	7.13	-30.0	-33.0	11.1	8.53e-04	0	45	0	1433403392	20	5043
2026-01-20 12:36:09.20	323.15	7.08	-29.6	-31.8	11.9	2.48e-03	0	45	0	1436549120	20	4625
2026-01-20 12:36:10.20	323.28	7.03	-33.7	-45.6	3.8	1.49e+00	0	45	104	1437597696	27	14286
2026-01-20 12:36:11.21	323.40	6.98	-33.9	-45.7	3.8	1.49e+00	0	45	104	1437597696	28	13982
2026-01-20 12:36:12.21	323.52	6.93	-34.2	-46.2	3.8	1.49e+00	0	45	104	1437597696	28	14340

#Closed at: 2026-01-20 12:36:12
#Recorded file [1437 MB]: D:/data/31010_260120_152829.dat