passes_logs/2026/01/20/R2M6_AANII_01/R2M6_AANII_01__20260120_103343_FENGYUN_3D_rec.log

#Pass ID: 20260120_103343_FENGYUN 3D
#Satellite: FENGYUN 3D
#Configuration: FENGYUN 3D
#almurnet v.1.7.20240730
#Start time: 2026-01-20 10:33:44

#Version: 2.2.20231116
#Station: R2M6_AANII_01
#Location: 30.233357 lon 59.946436 lat
#TLE: 1 43010U 17072A   26019.65504262 -.00000232  00000+0 -88147-4 0  9993
#TLE: 2 43010  98.9941 351.5427 0002443 100.5024 259.6427 14.19695886423913

#Time	Az	El	Level	Level2	SNR	BER	BlckErr	Temp	State	Recorded	gain1	gain2
2026-01-20 10:33:44.42	104.08	7.07	-30.2	-33.4	5.2	7.87e-01	0	42	0	0	21	5198
2026-01-20 10:33:45.42	103.99	7.13	-30.0	-32.6	5.3	7.83e-01	0	42	104	0	21	4900
2026-01-20 10:33:46.41	103.91	7.20	-29.8	-32.3	10.0	5.82e-03	0	42	0	0	21	4748
2026-01-20 10:33:47.42	103.82	7.27	-29.9	-32.4	9.9	7.53e-03	0	42	0	5242880	21	4783
2026-01-20 10:33:48.42	103.73	7.33	-29.8	-32.7	10.0	5.15e-03	0	42	0	11534336	20	5010
2026-01-20 10:33:49.42	103.64	7.40	-29.9	-32.9	9.9	7.08e-03	0	42	0	16777216	20	5096
2026-01-20 10:33:50.43	103.55	7.47	-30.0	-33.3	9.7	8.46e-03	0	42	0	22020096	20	5225
2026-01-20 10:33:51.43	103.47	7.53	-30.0	-33.1	9.8	1.16e-02	0	42	0	28311552	20	5162
2026-01-20 10:33:52.43	103.38	7.60	-29.6	-32.1	10.5	4.38e-03	0	42	0	33554432	20	4785
2026-01-20 10:33:53.43	103.29	7.67	-29.2	-31.5	11.3	1.08e-03	0	42	0	38797312	19	4688
2026-01-20 10:33:54.44	103.20	7.73	-28.8	-30.9	12.0	3.32e-04	0	42	0	45088768	18	4581
2026-01-20 10:33:55.44	103.10	7.80	-28.5	-30.1	12.5	1.40e-04	0	42	0	50331648	18	4363
2026-01-20 10:33:56.45	103.01	7.87	-28.2	-30.0	12.9	2.05e-05	0	43	0	55574528	17	4414
2026-01-20 10:33:57.46	102.92	7.94	-28.0	-29.5	13.2	3.43e-05	0	43	0	61865984	17	4274
2026-01-20 10:33:58.46	102.83	8.00	-27.8	-29.4	13.5	2.20e-06	0	42	0	67108864	16	4371
2026-01-20 10:33:59.46	102.74	8.07	-27.9	-29.7	13.4	1.14e-05	0	42	0	73400320	16	4440
2026-01-20 10:34:00.47	102.64	8.14	-27.8	-29.6	13.4	8.00e-06	0	43	0	78643200	16	4408
2026-01-20 10:34:01.48	102.55	8.21	-27.8	-29.5	13.5	1.25e-05	0	43	0	84934656	16	4373
2026-01-20 10:34:02.48	102.45	8.27	-27.9	-29.7	13.4	1.14e-05	0	43	0	90177536	16	4442
2026-01-20 10:34:03.49	102.36	8.34	-27.9	-29.6	13.4	4.50e-06	0	43	0	95420416	16	4428
2026-01-20 10:34:04.50	102.26	8.41	-27.7	-29.3	13.6	9.10e-06	0	43	0	101711872	16	4334
2026-01-20 10:34:05.50	102.17	8.48	-27.7	-29.3	13.7	0.00e+00	0	43	0	106954752	16	4314
2026-01-20 10:34:06.51	102.07	8.55	-27.6	-29.1	13.7	0.00e+00	0	43	0	112197632	16	4266
2026-01-20 10:34:07.50	101.98	8.62	-27.6	-29.1	13.8	4.50e-06	0	43	0	118489088	16	4255
2026-01-20 10:34:08.51	101.88	8.69	-27.6	-28.9	13.8	4.50e-06	0	43	0	123731968	16	4219
2026-01-20 10:34:09.51	101.78	8.75	-27.6	-29.0	13.8	2.20e-06	0	43	0	128974848	16	4232
2026-01-20 10:34:10.51	101.69	8.82	-27.7	-29.2	13.7	1.10e-06	0	43	0	135266304	16	4297
2026-01-20 10:34:11.51	101.59	8.89	-27.6	-29.2	13.8	1.10e-06	0	43	0	140509184	16	4287
2026-01-20 10:34:12.52	101.49	8.96	-27.7	-29.3	13.7	4.50e-06	0	43	0	146800640	16	4328
2026-01-20 10:34:13.52	101.39	9.03	-27.6	-29.2	13.8	4.50e-06	0	43	0	152043520	16	4284
2026-01-20 10:34:14.52	101.29	9.10	-27.8	-29.5	13.6	2.20e-06	0	43	0	158334976	16	4371
2026-01-20 10:34:15.53	101.19	9.17	-27.8	-29.6	13.5	4.50e-06	0	43	0	163577856	16	4412
2026-01-20 10:34:16.53	101.09	9.24	-27.8	-29.5	13.6	6.80e-06	0	43	0	168820736	16	4393
2026-01-20 10:34:17.54	100.99	9.31	-27.8	-29.4	13.6	2.20e-06	0	43	0	175112192	16	4351
2026-01-20 10:34:18.54	100.89	9.38	-27.7	-29.3	13.7	3.40e-06	0	43	0	180355072	16	4325
2026-01-20 10:34:19.55	100.78	9.45	-27.8	-29.6	13.6	3.40e-06	0	43	0	185597952	16	4412
2026-01-20 10:34:20.55	100.68	9.52	-27.7	-29.3	13.7	1.10e-06	0	43	0	191889408	16	4329
2026-01-20 10:34:21.55	100.58	9.59	-27.6	-29.1	13.8	2.20e-06	0	43	0	197132288	16	4263
2026-01-20 10:34:22.56	100.47	9.66	-27.7	-29.2	13.7	2.20e-06	0	43	0	202375168	16	4299
2026-01-20 10:34:23.56	100.37	9.73	-27.5	-28.8	14.0	2.20e-06	0	43	0	208666624	16	4173
2026-01-20 10:34:24.56	100.27	9.80	-27.6	-28.9	14.0	1.10e-06	0	43	0	213909504	16	4209
2026-01-20 10:34:25.56	100.16	9.87	-27.6	-29.0	13.9	4.50e-06	0	43	0	220200960	16	4220
2026-01-20 10:34:26.57	100.05	9.94	-27.6	-29.0	13.9	1.10e-06	0	43	0	225443840	16	4231
2026-01-20 10:34:27.57	99.95	10.01	-27.5	-28.9	13.9	2.20e-06	0	43	0	231735296	16	4217
2026-01-20 10:34:28.57	99.84	10.08	-27.6	-28.9	13.9	3.40e-06	0	43	0	236978176	16	4214
2026-01-20 10:34:29.57	99.74	10.15	-27.5	-28.9	14.0	2.20e-06	0	43	0	242221056	16	4205
2026-01-20 10:34:30.58	99.63	10.22	-27.6	-29.0	13.9	3.40e-06	0	43	0	248512512	16	4247
2026-01-20 10:34:31.59	99.52	10.29	-27.7	-29.2	13.8	2.20e-06	0	43	0	253755392	16	4277
2026-01-20 10:34:32.58	99.41	10.36	-27.8	-29.4	13.7	2.20e-06	0	43	0	258998272	16	4348
2026-01-20 10:34:33.58	99.30	10.43	-27.7	-29.2	13.8	1.10e-06	0	43	0	265289728	16	4301
2026-01-20 10:34:34.59	99.19	10.51	-27.5	-28.9	14.0	1.10e-06	0	43	0	270532608	16	4200
2026-01-20 10:34:35.59	99.08	10.58	-27.7	-29.3	13.8	1.10e-06	0	43	0	275775488	16	4323
2026-01-20 10:34:36.59	98.97	10.65	-27.6	-29.0	14.0	1.10e-06	0	43	0	282066944	16	4236
2026-01-20 10:34:37.60	98.86	10.72	-27.1	-28.4	14.4	1.10e-06	0	43	0	287309824	15	4194
2026-01-20 10:34:38.60	98.75	10.79	-27.3	-28.9	14.1	1.10e-06	0	43	0	293601280	15	4331
2026-01-20 10:34:39.60	98.63	10.86	-27.2	-28.6	14.3	0.00e+00	0	43	0	298844160	15	4250
2026-01-20 10:34:40.60	98.52	10.94	-27.2	-28.6	14.3	0.00e+00	0	43	0	304087040	15	4247
2026-01-20 10:34:41.61	98.41	11.01	-27.1	-28.4	14.4	0.00e+00	0	43	0	310378496	15	4191
2026-01-20 10:34:42.61	98.29	11.08	-27.2	-28.8	14.3	0.00e+00	0	44	0	315621376	15	4287
2026-01-20 10:34:43.62	98.18	11.15	-27.2	-28.7	14.3	0.00e+00	0	44	0	320864256	15	4255
2026-01-20 10:34:44.62	98.06	11.23	-27.2	-28.5	14.4	0.00e+00	0	43	0	327155712	15	4219
2026-01-20 10:34:45.62	97.94	11.30	-27.0	-28.2	14.6	0.00e+00	0	43	0	332398592	15	4126
2026-01-20 10:34:46.62	97.83	11.37	-27.0	-28.1	14.6	0.00e+00	0	43	0	338690048	15	4101
2026-01-20 10:34:47.63	97.71	11.44	-27.0	-28.1	14.6	0.00e+00	0	43	0	343932928	15	4107
2026-01-20 10:34:48.63	97.59	11.52	-27.0	-28.2	14.6	0.00e+00	0	43	0	349175808	15	4121
2026-01-20 10:34:49.63	97.47	11.59	-27.1	-28.4	14.5	1.10e-06	0	44	0	355467264	15	4191
2026-01-20 10:34:50.64	97.35	11.66	-26.9	-27.9	14.8	1.10e-06	0	44	0	360710144	15	4051
2026-01-20 10:34:51.65	97.23	11.74	-26.9	-28.0	14.7	0.00e+00	0	44	0	367001600	15	4077
2026-01-20 10:34:52.65	97.11	11.81	-27.1	-28.4	14.5	0.00e+00	0	44	0	372244480	15	4181
2026-01-20 10:34:53.65	96.99	11.88	-27.0	-28.2	14.6	0.00e+00	0	44	0	377487360	15	4138
2026-01-20 10:34:54.65	96.87	11.95	-26.8	-27.8	14.9	0.00e+00	0	44	0	383778816	15	4018
2026-01-20 10:34:55.65	96.75	12.03	-27.0	-28.1	14.7	0.00e+00	0	44	0	389021696	15	4104
2026-01-20 10:34:56.66	96.63	12.10	-27.1	-28.4	14.5	0.00e+00	0	44	0	394264576	15	4184
2026-01-20 10:34:57.67	96.50	12.18	-26.9	-27.8	14.9	0.00e+00	0	43	0	400556032	15	4027
2026-01-20 10:34:58.67	96.38	12.25	-26.8	-27.8	14.9	0.00e+00	0	43	0	405798912	15	4018
2026-01-20 10:34:59.67	96.25	12.32	-26.9	-28.5	14.8	0.00e+00	0	44	0	412090368	14	4325
2026-01-20 10:35:00.68	96.13	12.40	-27.0	-28.7	14.7	0.00e+00	0	44	0	417333248	14	4375
2026-01-20 10:35:01.68	96.00	12.47	-27.3	-29.3	14.3	0.00e+00	0	43	0	422576128	14	4544
2026-01-20 10:35:02.68	95.88	12.54	-27.2	-29.1	14.5	0.00e+00	0	44	0	428867584	14	4477
2026-01-20 10:35:03.68	95.75	12.62	-26.8	-28.2	14.9	1.10e-06	0	43	0	434110464	14	4235
2026-01-20 10:35:04.69	95.62	12.69	-26.8	-28.1	15.0	0.00e+00	0	44	0	440401920	14	4200
2026-01-20 10:35:05.69	95.49	12.77	-26.7	-27.9	15.1	0.00e+00	0	44	0	445644800	14	4155
2026-01-20 10:35:06.69	95.36	12.84	-26.8	-28.2	15.0	0.00e+00	0	44	0	450887680	14	4220
2026-01-20 10:35:07.69	95.23	12.92	-26.8	-28.2	15.0	0.00e+00	0	44	0	457179136	14	4240
2026-01-20 10:35:08.70	95.10	12.99	-26.6	-27.8	15.2	0.00e+00	0	44	0	462422016	14	4127
2026-01-20 10:35:09.70	94.97	13.07	-26.7	-28.1	15.1	0.00e+00	0	44	0	467664896	14	4198
2026-01-20 10:35:10.71	94.84	13.14	-26.6	-27.8	15.2	1.10e-06	0	44	0	473956352	14	4129
2026-01-20 10:35:11.71	94.71	13.21	-26.7	-28.0	15.2	0.00e+00	0	44	0	479199232	14	4171
2026-01-20 10:35:12.71	94.57	13.29	-26.6	-27.8	15.3	0.00e+00	0	44	0	484442112	14	4111
2026-01-20 10:35:13.72	94.44	13.37	-26.7	-28.0	15.2	0.00e+00	0	44	0	490733568	14	4176
2026-01-20 10:35:14.72	94.30	13.44	-26.6	-27.7	15.4	0.00e+00	0	44	0	495976448	14	4090
2026-01-20 10:35:15.71	94.17	13.51	-26.6	-27.6	15.4	0.00e+00	0	44	0	502267904	14	4075
2026-01-20 10:35:16.72	94.03	13.59	-26.5	-27.4	15.5	0.00e+00	0	44	0	507510784	14	4020
2026-01-20 10:35:17.71	93.90	13.66	-26.6	-27.7	15.4	0.00e+00	0	44	0	512753664	14	4086
2026-01-20 10:35:18.72	93.76	13.74	-26.5	-27.6	15.5	0.00e+00	0	44	0	519045120	14	4059
2026-01-20 10:35:19.73	93.62	13.82	-26.5	-27.5	15.5	0.00e+00	0	44	0	524288000	14	4029
2026-01-20 10:35:20.73	93.48	13.89	-26.4	-27.3	15.6	0.00e+00	0	44	0	530579456	14	3991
2026-01-20 10:35:21.74	93.34	13.97	-26.4	-27.3	15.7	0.00e+00	0	44	0	535822336	14	3976
2026-01-20 10:35:22.74	93.20	14.04	-26.4	-27.3	15.7	0.00e+00	0	44	0	541065216	14	3982
2026-01-20 10:35:23.74	93.06	14.12	-26.5	-27.6	15.5	0.00e+00	0	44	0	547356672	14	4059
2026-01-20 10:35:24.74	92.92	14.19	-26.6	-27.6	15.5	0.00e+00	0	44	0	552599552	14	4071
2026-01-20 10:35:25.75	92.78	14.27	-26.7	-27.9	15.3	0.00e+00	0	44	0	557842432	14	4146
2026-01-20 10:35:26.75	92.63	14.34	-26.5	-27.5	15.6	0.00e+00	0	44	0	564133888	14	4038
2026-01-20 10:35:27.76	92.49	14.42	-26.3	-27.0	15.8	0.00e+00	0	44	0	569376768	14	3912
2026-01-20 10:35:28.75	92.34	14.50	-26.3	-27.7	15.8	0.00e+00	0	44	0	575668224	13	4183
2026-01-20 10:35:29.75	92.20	14.57	-26.3	-27.5	15.9	0.00e+00	0	44	0	580911104	13	4145
2026-01-20 10:35:30.76	92.05	14.65	-26.4	-27.7	15.8	0.00e+00	0	44	0	586153984	13	4184
2026-01-20 10:35:31.75	91.91	14.72	-26.4	-27.7	15.8	0.00e+00	0	44	0	592445440	13	4194
2026-01-20 10:35:32.75	91.76	14.80	-26.5	-27.9	15.7	0.00e+00	0	44	0	597688320	13	4242
2026-01-20 10:35:33.75	91.61	14.88	-26.4	-27.7	15.8	0.00e+00	0	44	0	602931200	13	4187
2026-01-20 10:35:34.75	91.46	14.95	-26.2	-27.3	16.0	0.00e+00	0	44	0	609222656	13	4085
2026-01-20 10:35:35.76	91.31	15.03	-26.1	-27.0	16.1	0.00e+00	0	44	0	614465536	13	4015
2026-01-20 10:35:36.76	91.16	15.10	-26.1	-27.1	16.1	0.00e+00	0	44	0	619708416	13	4037
2026-01-20 10:35:37.77	91.01	15.18	-26.1	-27.2	16.1	0.00e+00	0	44	0	625999872	13	4054
2026-01-20 10:35:38.77	90.86	15.26	-26.0	-26.9	16.2	0.00e+00	0	44	0	631242752	13	3993
2026-01-20 10:35:39.77	90.70	15.33	-26.1	-27.1	16.1	0.00e+00	0	44	0	637534208	13	4031
2026-01-20 10:35:40.77	90.55	15.41	-26.1	-27.0	16.2	0.00e+00	0	44	0	642777088	13	4016
2026-01-20 10:35:41.77	90.39	15.49	-26.1	-27.0	16.2	0.00e+00	0	44	0	649068544	13	4022
2026-01-20 10:35:42.78	90.24	15.56	-26.2	-27.2	16.1	0.00e+00	0	44	0	654311424	13	4069
2026-01-20 10:35:43.78	90.08	15.64	-26.0	-26.9	16.2	0.00e+00	0	44	0	659554304	13	3997
2026-01-20 10:35:44.79	89.92	15.72	-25.9	-26.7	16.4	0.00e+00	0	44	0	665845760	13	3940
2026-01-20 10:35:45.78	89.77	15.79	-26.0	-26.9	16.2	0.00e+00	0	44	0	671088640	13	3992
2026-01-20 10:35:46.79	89.61	15.87	-26.0	-26.9	16.2	0.00e+00	0	44	0	676331520	13	3983
2026-01-20 10:35:47.79	89.45	15.94	-26.0	-26.8	16.3	0.00e+00	0	44	0	682622976	13	3973
2026-01-20 10:35:48.79	89.29	16.02	-25.9	-26.6	16.4	0.00e+00	0	44	0	687865856	13	3923
2026-01-20 10:35:49.80	89.13	16.10	-25.9	-26.7	16.4	0.00e+00	0	44	0	693108736	13	3940
2026-01-20 10:35:50.80	88.96	16.17	-26.0	-26.9	16.3	0.00e+00	0	44	0	699400192	13	3985
2026-01-20 10:35:51.81	88.80	16.25	-25.9	-26.8	16.3	0.00e+00	0	44	0	704643072	13	3954
2026-01-20 10:35:52.80	88.64	16.33	-26.0	-26.9	16.3	0.00e+00	0	44	0	710934528	13	3986
2026-01-20 10:35:53.80	88.47	16.40	-25.9	-26.8	16.3	0.00e+00	0	44	0	716177408	13	3953
2026-01-20 10:35:54.81	88.31	16.48	-25.9	-26.6	16.4	0.00e+00	0	44	0	721420288	13	3923
2026-01-20 10:35:55.81	88.14	16.56	-26.0	-26.8	16.3	0.00e+00	0	44	0	727711744	13	3967
2026-01-20 10:35:56.81	87.97	16.63	-25.9	-26.8	16.3	0.00e+00	0	44	0	732954624	13	3951
2026-01-20 10:35:57.82	87.80	16.71	-25.9	-26.8	16.4	0.00e+00	0	44	0	739246080	13	3957
2026-01-20 10:35:58.83	87.63	16.79	-26.2	-27.3	16.0	0.00e+00	0	44	0	744488960	13	4099
2026-01-20 10:35:59.83	87.46	16.86	-26.0	-26.8	16.3	0.00e+00	0	44	0	749731840	13	3957
2026-01-20 10:36:00.83	87.29	16.94	-25.9	-26.7	16.4	0.00e+00	0	44	0	756023296	13	3943
2026-01-20 10:36:01.84	87.12	17.02	-26.0	-26.8	16.4	0.00e+00	0	44	0	761266176	13	3961
2026-01-20 10:36:02.84	86.95	17.09	-26.0	-26.9	16.3	0.00e+00	0	44	0	766509056	13	3991
2026-01-20 10:36:03.84	86.78	17.17	-26.0	-26.8	16.3	0.00e+00	0	44	0	772800512	13	3968
2026-01-20 10:36:04.84	86.60	17.25	-25.9	-26.7	16.4	0.00e+00	0	44	0	778043392	13	3946
2026-01-20 10:36:05.84	86.43	17.32	-25.9	-26.6	16.5	0.00e+00	0	44	0	784334848	13	3902
2026-01-20 10:36:06.85	86.25	17.40	-25.9	-26.7	16.4	0.00e+00	0	44	0	789577728	13	3928
2026-01-20 10:36:07.85	86.07	17.47	-25.9	-26.6	16.5	0.00e+00	0	44	0	794820608	13	3913
2026-01-20 10:36:08.85	85.90	17.55	-25.8	-26.4	16.6	0.00e+00	0	44	0	801112064	13	3860
2026-01-20 10:36:09.85	85.72	17.63	-25.7	-26.6	16.7	0.00e+00	0	44	0	806354944	12	4024
2026-01-20 10:36:10.86	85.54	17.70	-25.6	-26.5	16.8	0.00e+00	0	44	0	811597824	12	4001
2026-01-20 10:36:11.86	85.36	17.78	-25.8	-27.0	16.5	0.00e+00	0	44	0	817889280	12	4114
2026-01-20 10:36:12.86	85.17	17.85	-25.6	-26.6	16.7	0.00e+00	0	44	0	823132160	12	4014
2026-01-20 10:36:13.87	84.99	17.93	-25.5	-26.2	17.0	0.00e+00	0	44	0	829423616	12	3923
2026-01-20 10:36:14.87	84.81	18.01	-25.5	-26.3	16.9	0.00e+00	0	44	0	834666496	12	3953
2026-01-20 10:36:15.87	84.62	18.08	-25.5	-26.2	17.0	0.00e+00	0	44	0	839909376	12	3914
2026-01-20 10:36:16.88	84.44	18.16	-25.5	-26.2	16.9	0.00e+00	0	44	0	846200832	12	3929
2026-01-20 10:36:17.88	84.25	18.23	-25.4	-26.2	17.0	0.00e+00	0	44	0	851443712	12	3910
2026-01-20 10:36:18.88	84.06	18.31	-25.4	-26.1	17.1	0.00e+00	0	44	0	857735168	12	3887
2026-01-20 10:36:19.87	83.88	18.38	-25.5	-26.4	16.9	0.00e+00	0	44	0	862978048	12	3964
2026-01-20 10:36:20.87	83.69	18.46	-25.4	-26.1	17.0	0.00e+00	0	44	0	868220928	12	3888
2026-01-20 10:36:21.87	83.50	18.53	-25.3	-25.8	17.2	0.00e+00	0	44	0	874512384	12	3833
2026-01-20 10:36:22.87	83.31	18.61	-25.3	-25.9	17.2	0.00e+00	0	44	0	879755264	12	3845
2026-01-20 10:36:23.88	83.12	18.68	-25.4	-26.5	17.2	0.00e+00	0	44	0	884998144	11	4106
2026-01-20 10:36:24.88	82.92	18.76	-25.4	-26.5	17.2	0.00e+00	0	44	0	891289600	11	4086
2026-01-20 10:36:25.88	82.73	18.83	-25.4	-26.5	17.2	0.00e+00	0	44	0	896532480	11	4085
2026-01-20 10:36:26.89	82.53	18.91	-25.2	-26.2	17.3	0.00e+00	0	44	0	902823936	11	4030
2026-01-20 10:36:27.90	82.34	18.98	-25.3	-26.4	17.2	0.00e+00	0	44	0	908066816	11	4060
2026-01-20 10:36:28.90	82.14	19.06	-25.2	-26.1	17.4	0.00e+00	0	44	0	913309696	11	3998
2026-01-20 10:36:29.91	81.94	19.13	-25.1	-25.9	17.5	0.00e+00	0	44	0	919601152	11	3943
2026-01-20 10:36:30.91	81.74	19.21	-25.1	-25.9	17.5	0.00e+00	0	44	0	924844032	11	3943
2026-01-20 10:36:31.91	81.54	19.28	-24.9	-25.4	17.8	0.00e+00	0	44	0	930086912	11	3830
2026-01-20 10:36:32.91	81.34	19.35	-24.8	-25.4	17.8	0.00e+00	0	44	0	936378368	11	3817
2026-01-20 10:36:33.91	81.14	19.43	-24.8	-25.8	17.8	0.00e+00	0	44	0	941621248	10	4031
2026-01-20 10:36:34.91	80.94	19.50	-24.7	-25.6	18.0	0.00e+00	0	44	0	946864128	10	3978
2026-01-20 10:36:35.92	80.74	19.58	-24.8	-25.7	17.9	0.00e+00	0	44	0	953155584	10	4010
2026-01-20 10:36:36.92	80.53	19.65	-24.8	-25.8	17.8	0.00e+00	0	44	0	958398464	10	4039
2026-01-20 10:36:37.92	80.33	19.72	-24.8	-25.8	17.8	0.00e+00	0	44	0	964689920	10	4028
2026-01-20 10:36:38.92	80.12	19.79	-24.9	-26.0	17.7	0.00e+00	0	44	0	969932800	10	4088
2026-01-20 10:36:39.92	79.91	19.87	-25.1	-26.4	17.6	0.00e+00	0	44	0	976224256	10	4185
2026-01-20 10:36:40.92	79.71	19.94	-25.1	-26.4	17.6	0.00e+00	0	44	0	981467136	10	4172
2026-01-20 10:36:41.92	79.50	20.01	-25.1	-26.3	17.6	0.00e+00	0	44	0	986710016	10	4166
2026-01-20 10:36:42.93	79.29	20.08	-25.2	-26.6	17.5	0.00e+00	0	44	0	993001472	10	4234
2026-01-20 10:36:43.93	79.07	20.16	-25.0	-26.1	17.7	0.00e+00	0	44	0	998244352	10	4109
2026-01-20 10:36:44.94	78.86	20.23	-25.0	-26.1	17.7	0.00e+00	0	44	0	1003487232	10	4116
2026-01-20 10:36:45.94	78.65	20.30	-25.1	-26.4	17.6	0.00e+00	0	44	0	1009778688	10	4193
2026-01-20 10:36:46.95	78.43	20.37	-25.1	-26.5	17.5	0.00e+00	0	44	0	1015021568	10	4202
2026-01-20 10:36:47.95	78.22	20.44	-25.1	-26.5	17.5	0.00e+00	0	44	0	1020264448	10	4196
2026-01-20 10:36:48.95	78.00	20.51	-25.1	-26.4	17.6	0.00e+00	0	44	0	1026555904	10	4180
2026-01-20 10:36:49.96	77.78	20.58	-25.1	-26.4	17.6	0.00e+00	0	44	0	1031798784	10	4182
2026-01-20 10:36:50.96	77.56	20.65	-25.0	-26.1	17.7	0.00e+00	0	44	0	1038090240	10	4118
2026-01-20 10:36:51.97	77.34	20.73	-25.0	-26.2	17.7	0.00e+00	0	44	0	1043333120	10	4139
2026-01-20 10:36:52.97	77.12	20.80	-25.0	-26.1	17.7	0.00e+00	0	44	0	1048576000	10	4108
2026-01-20 10:36:53.96	76.90	20.86	-24.9	-26.1	17.7	0.00e+00	0	44	0	1054867456	10	4093
2026-01-20 10:36:54.96	76.68	20.93	-25.1	-26.4	17.6	0.00e+00	0	44	0	1060110336	10	4171
2026-01-20 10:36:55.96	76.46	21.00	-24.7	-25.6	18.0	0.00e+00	0	44	0	1065353216	10	3992
2026-01-20 10:36:56.96	76.23	21.07	-24.6	-25.3	18.1	0.00e+00	0	44	0	1071644672	10	3920
2026-01-20 10:36:57.96	76.01	21.14	-24.5	-25.2	18.2	0.00e+00	0	44	0	1076887552	10	3878
2026-01-20 10:36:58.96	75.78	21.21	-24.7	-25.5	18.0	0.00e+00	0	44	0	1082130432	10	3962
2026-01-20 10:36:59.96	75.56	21.28	-24.7	-25.6	18.0	0.00e+00	0	44	0	1088421888	10	3984
2026-01-20 10:37:00.97	75.33	21.34	-24.9	-26.0	17.8	0.00e+00	0	44	0	1093664768	10	4070
2026-01-20 10:37:01.97	75.10	21.41	-24.8	-25.8	17.9	0.00e+00	0	44	0	1099956224	10	4024
2026-01-20 10:37:02.98	74.86	21.48	-24.9	-26.1	17.8	0.00e+00	0	44	0	1105199104	10	4093
2026-01-20 10:37:03.98	74.63	21.54	-24.8	-25.7	17.9	0.00e+00	0	44	0	1111490560	10	4009
2026-01-20 10:37:04.98	74.40	21.61	-24.8	-25.7	18.0	0.00e+00	0	44	0	1116733440	10	3993
2026-01-20 10:37:05.99	74.17	21.68	-24.7	-25.5	18.0	0.00e+00	0	44	0	1121976320	10	3966
2026-01-20 10:37:06.99	73.93	21.74	-24.8	-25.8	17.9	0.00e+00	0	44	0	1128267776	10	4036
2026-01-20 10:37:07.99	73.70	21.81	-24.7	-25.5	18.1	0.00e+00	0	44	0	1133510656	10	3956
2026-01-20 10:37:08.99	73.46	21.87	-24.8	-25.6	18.0	0.00e+00	0	44	0	1138753536	10	3992
2026-01-20 10:37:09.98	73.23	21.94	-24.7	-25.6	18.0	0.00e+00	0	44	0	1145044992	10	3976
2026-01-20 10:37:10.98	72.99	22.00	-24.7	-25.6	18.0	0.00e+00	0	44	0	1150287872	10	3978
2026-01-20 10:37:11.99	72.75	22.07	-24.7	-25.5	18.0	0.00e+00	0	44	0	1155530752	10	3965
2026-01-20 10:37:13.00	72.50	22.13	-24.7	-25.6	18.0	0.00e+00	0	44	0	1161822208	10	3993
2026-01-20 10:37:14.00	72.26	22.19	-24.8	-25.7	18.0	0.00e+00	0	44	0	1167065088	10	4017
2026-01-20 10:37:15.00	72.02	22.26	-25.0	-26.2	17.7	0.00e+00	0	44	0	1173356544	10	4122
2026-01-20 10:37:16.01	71.78	22.32	-24.8	-25.7	17.9	0.00e+00	0	44	0	1178599424	10	4015
2026-01-20 10:37:17.01	71.53	22.38	-24.6	-25.4	18.1	0.00e+00	0	44	0	1183842304	10	3929
2026-01-20 10:37:18.00	71.29	22.44	-24.5	-25.2	18.2	0.00e+00	0	44	0	1190133760	10	3883
2026-01-20 10:37:19.00	71.04	22.50	-24.7	-25.5	18.1	0.00e+00	0	44	0	1195376640	10	3962
2026-01-20 10:37:20.00	70.80	22.56	-24.6	-25.4	18.1	0.00e+00	0	44	0	1200619520	10	3935
2026-01-20 10:37:21.01	70.55	22.62	-24.7	-25.6	18.0	0.00e+00	0	44	0	1206910976	10	3988
2026-01-20 10:37:22.02	70.29	22.68	-24.6	-25.4	18.1	0.00e+00	0	44	0	1212153856	10	3934
2026-01-20 10:37:23.03	70.04	22.74	-24.6	-25.4	18.1	0.00e+00	0	44	0	1218445312	10	3929
2026-01-20 10:37:24.03	69.79	22.80	-24.8	-25.7	18.0	0.00e+00	0	44	0	1223688192	10	4008
2026-01-20 10:37:25.02	69.54	22.86	-24.7	-25.4	18.3	0.00e+00	0	44	0	1228931072	10	3917
2026-01-20 10:37:26.02	69.29	22.92	-24.6	-25.3	18.4	0.00e+00	0	44	0	1235222528	10	3880
2026-01-20 10:37:27.02	69.04	22.98	-24.7	-25.5	18.3	0.00e+00	0	44	0	1240465408	10	3930
2026-01-20 10:37:28.02	68.78	23.03	-24.7	-25.4	18.3	0.00e+00	0	44	0	1246756864	10	3916
2026-01-20 10:37:29.02	68.53	23.09	-24.6	-25.2	18.4	0.00e+00	0	44	0	1251999744	10	3877
2026-01-20 10:37:30.02	68.27	23.14	-24.5	-25.0	18.5	0.00e+00	0	44	0	1257242624	10	3833
2026-01-20 10:37:31.02	68.01	23.20	-24.6	-25.3	18.4	0.00e+00	0	44	0	1263534080	10	3885
2026-01-20 10:37:32.02	67.76	23.26	-24.7	-25.4	18.3	0.00e+00	0	44	0	1268776960	10	3923
2026-01-20 10:37:33.03	67.49	23.31	-25.1	-26.2	17.9	0.00e+00	0	44	0	1274019840	10	4111
2026-01-20 10:37:34.03	67.23	23.36	-24.8	-25.6	18.2	0.00e+00	0	44	0	1280311296	10	3964
2026-01-20 10:37:35.04	66.97	23.42	-24.5	-25.1	18.5	0.00e+00	0	44	0	1285554176	10	3843
2026-01-20 10:37:36.04	66.71	23.47	-24.4	-24.8	18.6	0.00e+00	0	44	0	1290797056	10	3776
2026-01-20 10:37:37.05	66.44	23.52	-24.3	-24.7	18.7	0.00e+00	0	45	0	1297088512	10	3746
2026-01-20 10:37:38.05	66.18	23.58	-24.4	-24.9	18.6	0.00e+00	0	44	0	1302331392	10	3796
2026-01-20 10:37:39.06	65.91	23.63	-24.3	-25.1	18.7	0.00e+00	0	44	0	1308622848	9	3953
2026-01-20 10:37:40.06	65.65	23.68	-24.3	-25.1	18.7	0.00e+00	0	44	0	1313865728	9	3960
2026-01-20 10:37:41.06	65.38	23.73	-24.4	-25.2	18.7	0.00e+00	0	44	0	1319108608	9	3982
2026-01-20 10:37:42.06	65.11	23.78	-24.4	-25.3	18.6	0.00e+00	0	44	0	1325400064	9	4006
2026-01-20 10:37:43.07	64.84	23.83	-24.5	-25.6	18.5	0.00e+00	0	44	0	1330642944	9	4063
2026-01-20 10:37:44.07	64.57	23.88	-24.3	-25.1	18.8	0.00e+00	0	44	0	1336934400	9	3942
2026-01-20 10:37:45.07	64.31	23.92	-24.1	-24.7	18.9	0.00e+00	0	44	0	1342177280	9	3855
2026-01-20 10:37:46.07	64.03	23.97	-24.1	-24.7	18.9	0.00e+00	0	44	0	1347420160	9	3854
2026-01-20 10:37:47.07	63.76	24.02	-24.2	-24.9	18.8	0.00e+00	0	44	0	1353711616	9	3903
2026-01-20 10:37:48.07	63.49	24.06	-24.0	-24.5	19.0	0.00e+00	0	44	0	1358954496	9	3812
2026-01-20 10:37:49.08	63.22	24.11	-24.2	-24.8	18.9	0.00e+00	0	44	0	1364197376	9	3888
2026-01-20 10:37:50.08	62.94	24.15	-24.3	-25.1	18.7	0.00e+00	0	44	0	1370488832	9	3954
2026-01-20 10:37:51.08	62.67	24.20	-24.2	-25.0	18.8	0.00e+00	0	44	0	1375731712	9	3916
2026-01-20 10:37:52.09	62.39	24.24	-24.3	-25.1	18.8	0.00e+00	0	44	0	1382023168	9	3946
2026-01-20 10:37:53.09	62.11	24.28	-24.4	-25.4	18.6	0.00e+00	0	44	0	1387266048	9	4020
2026-01-20 10:37:54.10	61.84	24.33	-24.5	-25.6	18.5	0.00e+00	0	44	0	1392508928	9	4065
2026-01-20 10:37:55.11	61.56	24.37	-24.7	-25.9	18.3	0.00e+00	0	44	0	1398800384	9	4151
2026-01-20 10:37:56.11	61.28	24.41	-24.5	-25.5	18.6	0.00e+00	0	44	0	1404043264	9	4047
2026-01-20 10:37:57.12	61.00	24.45	-24.4	-25.3	18.7	0.00e+00	0	44	0	1410334720	9	3990
2026-01-20 10:37:58.13	60.71	24.49	-24.3	-25.2	18.7	0.00e+00	0	44	0	1415577600	9	3976
2026-01-20 10:37:59.13	60.43	24.53	-24.4	-25.4	18.6	0.00e+00	0	44	0	1420820480	9	4022
2026-01-20 10:38:00.13	60.15	24.56	-24.3	-25.1	18.8	0.00e+00	0	44	0	1427111936	9	3950
2026-01-20 10:38:01.13	59.87	24.60	-24.3	-25.2	18.7	0.00e+00	0	44	0	1432354816	9	3967
2026-01-20 10:38:02.13	59.59	24.64	-24.3	-25.2	18.7	0.00e+00	0	44	0	1437597696	9	3967
2026-01-20 10:38:03.14	59.30	24.68	-24.4	-25.3	18.7	0.00e+00	0	44	0	1443889152	9	3986
2026-01-20 10:38:04.14	59.02	24.71	-24.3	-25.2	18.7	0.00e+00	0	44	0	1449132032	9	3975
2026-01-20 10:38:05.15	58.73	24.74	-24.3	-25.1	18.8	0.00e+00	0	44	0	1455423488	9	3957
2026-01-20 10:38:06.15	58.45	24.78	-24.2	-24.9	18.9	0.00e+00	0	44	0	1460666368	9	3894
2026-01-20 10:38:07.14	58.17	24.81	-24.2	-25.0	18.8	0.00e+00	0	44	0	1465909248	9	3921
2026-01-20 10:38:08.14	57.88	24.84	-24.2	-24.9	18.9	0.00e+00	0	44	0	1472200704	9	3901
2026-01-20 10:38:09.15	57.59	24.88	-24.2	-24.9	18.9	0.00e+00	0	44	0	1477443584	9	3896
2026-01-20 10:38:10.15	57.30	24.91	-24.2	-25.0	18.9	0.00e+00	0	44	0	1482686464	9	3921
2026-01-20 10:38:11.16	57.01	24.94	-24.1	-24.7	19.0	0.00e+00	0	44	0	1488977920	9	3851
2026-01-20 10:38:12.16	56.72	24.97	-24.1	-24.8	18.9	0.00e+00	0	44	0	1494220800	9	3873
2026-01-20 10:38:13.16	56.44	24.99	-24.3	-25.1	18.8	0.00e+00	0	44	0	1500512256	9	3936
2026-01-20 10:38:14.17	56.14	25.02	-24.2	-25.0	18.8	0.00e+00	0	44	0	1505755136	9	3928
2026-01-20 10:38:15.17	55.85	25.05	-24.3	-25.0	18.8	0.00e+00	0	44	0	1510998016	9	3928
2026-01-20 10:38:16.18	55.56	25.08	-24.1	-24.7	19.0	0.00e+00	0	44	0	1517289472	9	3864
2026-01-20 10:38:17.18	55.27	25.10	-24.3	-25.0	18.8	0.00e+00	0	44	0	1522532352	9	3924
2026-01-20 10:38:18.19	54.98	25.13	-24.4	-25.3	18.6	0.00e+00	0	44	0	1528823808	9	4003
2026-01-20 10:38:19.18	54.69	25.15	-24.4	-25.4	18.6	0.00e+00	0	44	0	1534066688	9	4013
2026-01-20 10:38:20.19	54.39	25.17	-24.4	-25.4	18.6	0.00e+00	0	44	0	1539309568	9	4022
2026-01-20 10:38:21.19	54.10	25.19	-24.7	-25.9	18.3	0.00e+00	0	44	0	1545601024	9	4134
2026-01-20 10:38:22.20	53.80	25.22	-24.6	-25.8	18.4	0.00e+00	0	44	0	1550843904	9	4112
2026-01-20 10:38:23.20	53.51	25.24	-24.7	-26.0	18.3	0.00e+00	0	44	0	1556086784	9	4163
2026-01-20 10:38:24.20	53.22	25.26	-24.9	-26.4	18.1	0.00e+00	0	44	0	1562378240	9	4273
2026-01-20 10:38:25.20	52.92	25.28	-24.5	-25.5	18.6	0.00e+00	0	44	0	1567621120	9	4043
2026-01-20 10:38:26.21	52.63	25.29	-24.2	-24.9	18.9	0.00e+00	0	44	0	1572864000	9	3903
2026-01-20 10:38:27.21	52.33	25.31	-24.1	-24.6	19.0	0.00e+00	0	44	0	1579155456	9	3836
2026-01-20 10:38:28.21	52.04	25.33	-24.0	-24.5	19.1	0.00e+00	0	44	0	1584398336	9	3810
2026-01-20 10:38:29.22	51.74	25.34	-23.9	-24.2	19.3	0.00e+00	0	44	0	1590689792	9	3737
2026-01-20 10:38:30.22	51.44	25.36	-23.9	-24.3	19.2	0.00e+00	0	44	0	1595932672	9	3753
2026-01-20 10:38:31.22	51.15	25.37	-24.0	-24.5	19.1	0.00e+00	0	44	0	1602224128	9	3806
2026-01-20 10:38:32.23	50.85	25.39	-24.0	-24.4	19.2	0.00e+00	0	44	0	1607467008	9	3794
2026-01-20 10:38:33.23	50.55	25.40	-24.1	-24.7	19.0	0.00e+00	0	44	0	1612709888	9	3858
2026-01-20 10:38:34.23	50.26	25.41	-24.1	-24.8	19.0	0.00e+00	0	44	0	1619001344	9	3873
2026-01-20 10:38:35.23	49.96	25.42	-24.3	-25.2	18.8	0.00e+00	0	44	0	1624244224	9	3968
2026-01-20 10:38:36.24	49.66	25.43	-24.2	-24.8	19.0	0.00e+00	0	44	0	1629487104	9	3884
2026-01-20 10:38:37.24	49.36	25.44	-24.2	-24.8	19.0	0.00e+00	0	44	0	1635778560	9	3868
2026-01-20 10:38:38.24	49.07	25.45	-24.3	-25.1	18.8	0.00e+00	0	44	0	1641021440	9	3954
2026-01-20 10:38:39.24	48.77	25.46	-24.3	-25.1	18.8	0.00e+00	0	44	0	1646264320	9	3952
2026-01-20 10:38:40.24	48.47	25.46	-24.4	-25.2	18.7	0.00e+00	0	44	0	1652555776	9	3985
2026-01-20 10:38:41.25	48.17	25.47	-24.2	-24.8	19.0	0.00e+00	0	44	0	1657798656	9	3882
2026-01-20 10:38:42.25	47.87	25.47	-24.0	-24.6	19.1	0.00e+00	0	45	0	1664090112	9	3824
2026-01-20 10:38:43.25	47.57	25.48	-24.1	-24.6	19.0	0.00e+00	0	44	0	1669332992	9	3840
2026-01-20 10:38:44.26	47.27	25.48	-24.1	-24.6	19.1	0.00e+00	0	44	0	1674575872	9	3826
2026-01-20 10:38:45.26	46.98	25.48	-24.0	-24.4	19.1	0.00e+00	0	44	0	1680867328	9	3785
2026-01-20 10:38:46.27	46.68	25.48	-23.9	-24.3	19.2	0.00e+00	0	44	0	1686110208	9	3759
2026-01-20 10:38:47.28	46.37	25.48	-23.9	-24.2	19.3	0.00e+00	0	44	0	1692401664	9	3734
2026-01-20 10:38:48.28	46.08	25.48	-23.9	-24.2	19.2	0.00e+00	0	44	0	1697644544	9	3750
2026-01-20 10:38:49.28	45.78	25.48	-23.9	-24.2	19.2	0.00e+00	0	44	0	1702887424	9	3748
2026-01-20 10:38:50.29	45.48	25.48	-23.9	-24.4	19.2	0.00e+00	0	45	0	1709178880	9	3770
2026-01-20 10:38:51.29	45.18	25.48	-23.8	-24.0	19.4	0.00e+00	0	44	0	1714421760	9	3690
2026-01-20 10:38:52.28	44.88	25.47	-23.9	-24.7	19.3	0.00e+00	0	44	0	1719664640	8	3955
2026-01-20 10:38:53.29	44.58	25.47	-24.0	-24.9	19.1	0.00e+00	0	44	0	1725956096	8	4018
2026-01-20 10:38:54.29	44.29	25.46	-24.1	-25.3	18.9	0.00e+00	0	44	0	1731198976	8	4100
2026-01-20 10:38:55.29	43.99	25.46	-24.2	-25.4	18.9	0.00e+00	0	45	0	1737490432	8	4135
2026-01-20 10:38:56.29	43.69	25.45	-24.2	-25.4	18.9	0.00e+00	0	44	0	1742733312	8	4122
2026-01-20 10:38:57.30	43.39	25.44	-24.2	-25.4	18.9	0.00e+00	0	45	0	1747976192	8	4118
2026-01-20 10:38:58.30	43.09	25.43	-24.2	-25.5	18.8	0.00e+00	0	44	0	1754267648	8	4153
2026-01-20 10:38:59.30	42.80	25.42	-24.4	-25.8	18.7	0.00e+00	0	44	0	1759510528	8	4230
2026-01-20 10:39:00.31	42.50	25.41	-24.3	-25.7	18.7	0.00e+00	0	44	0	1764753408	8	4209
2026-01-20 10:39:01.31	42.20	25.40	-24.2	-25.3	19.0	0.00e+00	0	45	0	1771044864	8	4119
2026-01-20 10:39:02.31	41.91	25.39	-23.9	-24.9	19.2	0.00e+00	0	44	0	1776287744	8	3997
2026-01-20 10:39:03.32	41.61	25.38	-24.0	-25.0	19.1	0.00e+00	0	44	0	1782579200	8	4030
2026-01-20 10:39:04.32	41.31	25.36	-24.0	-25.0	19.1	0.00e+00	0	44	0	1787822080	8	4038
2026-01-20 10:39:05.33	41.01	25.35	-23.9	-24.7	19.3	0.00e+00	0	44	0	1794113536	8	3960
2026-01-20 10:39:06.33	40.72	25.33	-24.1	-25.1	19.0	0.00e+00	0	44	0	1799356416	8	4067
2026-01-20 10:39:07.33	40.42	25.32	-24.1	-25.1	19.1	0.00e+00	0	44	0	1804599296	8	4051
2026-01-20 10:39:08.33	40.13	25.30	-24.0	-24.9	19.2	0.00e+00	0	44	0	1810890752	8	4011
2026-01-20 10:39:09.33	39.83	25.28	-23.9	-24.8	19.2	0.00e+00	0	44	0	1816133632	8	3995
2026-01-20 10:39:10.33	39.54	25.26	-24.0	-24.9	19.1	0.00e+00	0	44	0	1821376512	8	4019
2026-01-20 10:39:11.33	39.25	25.24	-23.7	-24.4	19.4	0.00e+00	0	44	0	1827667968	8	3895
2026-01-20 10:39:12.33	38.95	25.22	-23.8	-24.6	19.3	0.00e+00	0	44	0	1832910848	8	3940
2026-01-20 10:39:13.34	38.66	25.20	-24.0	-25.0	19.1	0.00e+00	0	44	0	1838153728	8	4040
2026-01-20 10:39:14.34	38.37	25.18	-24.1	-25.2	19.0	0.00e+00	0	44	0	1844445184	8	4077
2026-01-20 10:39:15.35	38.07	25.16	-24.3	-25.5	18.8	0.00e+00	0	44	0	1849688064	8	4165
2026-01-20 10:39:16.36	37.78	25.13	-24.3	-25.7	18.7	0.00e+00	0	44	0	1855979520	8	4203
2026-01-20 10:39:17.36	37.49	25.11	-24.4	-25.9	18.7	0.00e+00	0	44	0	1861222400	8	4248
2026-01-20 10:39:18.36	37.20	25.08	-24.8	-26.1	18.3	0.00e+00	0	44	0	1867513856	9	4188
2026-01-20 10:39:19.37	36.90	25.06	-25.0	-26.0	18.1	0.00e+00	0	44	0	1872756736	10	4053
2026-01-20 10:39:20.37	36.61	25.03	-24.5	-25.0	18.6	0.00e+00	0	44	0	1877999616	10	3814
2026-01-20 10:39:21.37	36.32	25.00	-24.3	-24.6	18.8	0.00e+00	0	44	0	1884291072	10	3723
2026-01-20 10:39:22.38	36.03	24.98	-24.2	-24.9	18.9	0.00e+00	0	44	0	1889533952	9	3904
2026-01-20 10:39:23.39	35.74	24.95	-24.3	-25.1	18.8	0.00e+00	0	44	0	1894776832	9	3944
2026-01-20 10:39:24.39	35.45	24.92	-24.1	-24.7	19.0	0.00e+00	0	44	0	1901068288	9	3854
2026-01-20 10:39:25.40	35.16	24.89	-24.2	-24.8	18.9	0.00e+00	0	45	0	1906311168	9	3886
2026-01-20 10:39:26.41	34.88	24.85	-24.2	-24.8	18.9	0.00e+00	0	44	0	1911554048	9	3874
2026-01-20 10:39:27.41	34.59	24.82	-24.1	-24.7	19.0	0.00e+00	0	44	0	1917845504	9	3859
2026-01-20 10:39:28.40	34.31	24.79	-24.1	-24.7	19.0	0.00e+00	0	44	0	1923088384	9	3865
2026-01-20 10:39:29.41	34.02	24.76	-24.1	-24.7	19.0	0.00e+00	0	44	0	1929379840	9	3860
2026-01-20 10:39:30.40	33.74	24.72	-24.0	-24.5	19.1	0.00e+00	0	44	0	1934622720	9	3813
2026-01-20 10:39:31.40	33.46	24.69	-24.2	-25.0	18.8	0.00e+00	0	44	0	1939865600	9	3916
2026-01-20 10:39:32.40	33.17	24.65	-24.2	-24.8	18.9	0.00e+00	0	44	0	1946157056	9	3879
2026-01-20 10:39:33.41	32.89	24.62	-24.2	-25.0	18.9	0.00e+00	0	44	0	1951399936	9	3914
2026-01-20 10:39:34.41	32.61	24.58	-24.2	-24.9	18.9	0.00e+00	0	44	0	1956642816	9	3910
2026-01-20 10:39:35.42	32.32	24.54	-24.1	-24.7	19.0	0.00e+00	0	44	0	1962934272	9	3857
2026-01-20 10:39:36.42	32.04	24.50	-24.2	-24.8	18.9	0.00e+00	0	44	0	1968177152	9	3884
2026-01-20 10:39:37.43	31.76	24.46	-24.2	-24.9	18.9	0.00e+00	0	44	0	1974468608	9	3909
2026-01-20 10:39:38.43	31.48	24.42	-24.2	-24.8	18.9	0.00e+00	0	44	0	1979711488	9	3882
2026-01-20 10:39:39.42	31.21	24.38	-24.1	-24.7	19.0	0.00e+00	0	44	0	1984954368	9	3849
2026-01-20 10:39:40.43	30.93	24.34	-24.1	-24.7	19.0	0.00e+00	0	44	0	1991245824	9	3858
2026-01-20 10:39:41.43	30.65	24.30	-23.9	-24.2	19.2	0.00e+00	0	44	0	1996488704	9	3743
2026-01-20 10:39:42.44	30.37	24.26	-24.0	-24.5	19.1	0.00e+00	0	44	0	2002780160	9	3803
2026-01-20 10:39:43.44	30.10	24.21	-24.1	-24.7	19.0	0.00e+00	0	44	0	2008023040	9	3855
2026-01-20 10:39:44.44	29.82	24.17	-24.0	-24.4	19.1	0.00e+00	0	44	0	2013265920	9	3786
2026-01-20 10:39:45.45	29.55	24.13	-24.2	-24.9	18.9	0.00e+00	0	44	0	2019557376	9	3902
2026-01-20 10:39:46.45	29.28	24.08	-24.2	-24.9	18.9	0.00e+00	0	44	0	2024800256	9	3902
2026-01-20 10:39:47.45	29.00	24.03	-24.2	-24.9	18.9	0.00e+00	0	44	0	2030043136	9	3892
2026-01-20 10:39:48.46	28.73	23.99	-24.1	-24.8	18.9	0.00e+00	0	44	0	2036334592	9	3876
2026-01-20 10:39:49.46	28.46	23.94	-24.2	-25.0	18.8	0.00e+00	0	44	0	2041577472	9	3920
2026-01-20 10:39:50.46	28.19	23.89	-24.0	-24.5	19.1	0.00e+00	0	44	0	2046820352	9	3817
2026-01-20 10:39:51.46	27.92	23.85	-24.0	-24.4	19.1	0.00e+00	0	44	0	2053111808	9	3790
2026-01-20 10:39:52.46	27.66	23.80	-23.9	-24.3	19.1	0.00e+00	0	44	0	2058354688	9	3765
2026-01-20 10:39:53.47	27.39	23.75	-24.0	-24.4	19.1	0.00e+00	0	44	0	2064646144	9	3782
2026-01-20 10:39:54.47	27.12	23.70	-24.1	-24.7	18.9	0.00e+00	0	44	0	2069889024	9	3861
2026-01-20 10:39:55.47	26.86	23.65	-24.1	-24.8	18.9	0.00e+00	0	44	0	2076180480	9	3871
2026-01-20 10:39:56.47	26.59	23.60	-24.0	-24.6	19.0	0.00e+00	0	44	0	2081423360	9	3820
2026-01-20 10:39:57.47	26.33	23.55	-24.0	-24.5	19.1	0.00e+00	0	44	0	2086666240	9	3803
2026-01-20 10:39:58.48	26.06	23.49	-24.1	-24.7	19.0	0.00e+00	0	44	0	2092957696	9	3846
2026-01-20 10:39:59.48	25.80	23.44	-24.2	-24.8	18.9	0.00e+00	0	44	0	2098200576	9	3884
2026-01-20 10:40:00.48	25.54	23.39	-24.2	-24.9	18.9	0.00e+00	0	44	0	2103443456	9	3893
2026-01-20 10:40:01.49	25.28	23.33	-24.3	-25.0	18.8	0.00e+00	0	44	0	2109734912	9	3930
2026-01-20 10:40:02.49	25.02	23.28	-24.2	-24.8	18.9	0.00e+00	0	44	0	2114977792	9	3885
2026-01-20 10:40:03.49	24.76	23.22	-24.5	-25.5	18.5	0.00e+00	0	44	0	2120220672	9	4052
2026-01-20 10:40:04.49	24.51	23.17	-24.4	-25.4	18.6	0.00e+00	0	44	0	2126512128	9	4028
2026-01-20 10:40:05.48	24.25	23.11	-24.1	-24.6	19.0	0.00e+00	0	44	0	2131755008	9	3837
2026-01-20 10:40:06.49	23.99	23.06	-24.0	-24.5	19.1	0.00e+00	0	45	0	2138046464	9	3804
2026-01-20 10:40:07.49	23.74	23.00	-23.9	-24.3	19.1	0.00e+00	0	44	0	2143289344	9	3763
2026-01-20 10:40:08.50	23.48	22.94	-24.1	-24.7	19.0	0.00e+00	0	44	0	2148532224	9	3856
2026-01-20 10:40:09.50	23.23	22.89	-24.1	-24.6	19.0	0.00e+00	0	44	0	2154823680	9	3834
2026-01-20 10:40:10.50	22.98	22.83	-24.1	-24.8	18.9	0.00e+00	0	44	0	2160066560	9	3868
2026-01-20 10:40:11.51	22.73	22.77	-24.2	-24.9	18.8	0.00e+00	0	44	0	2165309440	9	3903
2026-01-20 10:40:12.51	22.48	22.71	-24.3	-25.2	18.7	0.00e+00	0	44	0	2171600896	9	3966
2026-01-20 10:40:13.51	22.23	22.65	-24.3	-25.1	18.7	0.00e+00	0	44	0	2176843776	9	3945
2026-01-20 10:40:14.51	21.98	22.59	-24.4	-25.2	18.7	0.00e+00	0	45	0	2182086656	9	3975
2026-01-20 10:40:15.51	21.74	22.53	-24.3	-25.2	18.7	0.00e+00	0	45	0	2188378112	9	3965
2026-01-20 10:40:16.52	21.49	22.47	-24.5	-25.5	18.5	0.00e+00	0	44	0	2193620992	9	4046
2026-01-20 10:40:17.53	21.24	22.41	-24.6	-25.7	18.4	0.00e+00	0	44	0	2199912448	9	4106
2026-01-20 10:40:18.53	21.00	22.34	-24.5	-25.5	18.5	0.00e+00	0	44	0	2205155328	9	4049
2026-01-20 10:40:19.53	20.76	22.28	-24.4	-25.3	18.6	0.00e+00	0	45	0	2211446784	9	4010
2026-01-20 10:40:20.54	20.51	22.22	-24.3	-25.0	18.8	0.00e+00	0	45	0	2216689664	9	3926
2026-01-20 10:40:21.54	20.27	22.16	-24.4	-25.4	18.6	0.00e+00	0	44	0	2221932544	9	4012
2026-01-20 10:40:22.55	20.03	22.09	-24.5	-25.6	18.5	0.00e+00	0	44	0	2228224000	9	4068
2026-01-20 10:40:23.56	19.79	22.03	-24.5	-25.5	18.5	0.00e+00	0	44	0	2233466880	9	4042
2026-01-20 10:40:24.56	19.55	21.97	-24.6	-25.7	18.4	0.00e+00	0	44	0	2238709760	9	4089
2026-01-20 10:40:25.57	19.31	21.90	-24.6	-25.6	18.4	0.00e+00	0	44	0	2245001216	9	4080
2026-01-20 10:40:26.57	19.08	21.84	-24.5	-25.6	18.5	0.00e+00	0	45	0	2250244096	9	4061
2026-01-20 10:40:27.58	18.84	21.77	-24.6	-25.7	18.4	0.00e+00	0	44	0	2256535552	9	4107
2026-01-20 10:40:28.58	18.60	21.71	-24.7	-25.9	18.3	0.00e+00	0	44	0	2261778432	9	4136
2026-01-20 10:40:29.58	18.37	21.64	-24.6	-25.8	18.3	0.00e+00	0	44	0	2267021312	9	4129
2026-01-20 10:40:30.58	18.14	21.57	-24.6	-25.7	18.4	0.00e+00	0	44	0	2273312768	9	4095
2026-01-20 10:40:31.58	17.91	21.51	-24.6	-25.8	18.3	0.00e+00	0	44	0	2278555648	9	4132
2026-01-20 10:40:32.57	17.68	21.44	-24.8	-26.2	18.1	0.00e+00	0	44	0	2284847104	9	4220
2026-01-20 10:40:33.58	17.45	21.37	-24.8	-26.1	18.2	0.00e+00	0	44	0	2290089984	9	4194
2026-01-20 10:40:34.57	17.23	21.31	-24.6	-25.8	18.4	0.00e+00	0	44	0	2295332864	9	4111
2026-01-20 10:40:35.57	17.00	21.24	-24.6	-25.7	18.3	0.00e+00	0	44	0	2301624320	9	4101
2026-01-20 10:40:36.58	16.77	21.17	-24.5	-25.5	18.5	0.00e+00	0	44	0	2306867200	9	4034
2026-01-20 10:40:37.57	16.55	21.10	-24.6	-25.7	18.4	0.00e+00	0	44	0	2312110080	9	4094
2026-01-20 10:40:38.58	16.32	21.03	-24.5	-25.5	18.4	0.00e+00	0	44	0	2318401536	9	4053
2026-01-20 10:40:39.59	16.10	20.97	-24.6	-25.7	18.4	0.00e+00	0	44	0	2323644416	9	4083
2026-01-20 10:40:40.59	15.88	20.90	-24.5	-25.6	18.4	0.00e+00	0	44	0	2328887296	9	4078
2026-01-20 10:40:41.60	15.65	20.83	-24.8	-26.1	18.1	0.00e+00	0	45	0	2335178752	9	4199
2026-01-20 10:40:42.60	15.43	20.76	-24.8	-26.3	18.0	0.00e+00	0	45	0	2340421632	9	4251
2026-01-20 10:40:43.61	15.21	20.69	-24.9	-26.4	18.0	0.00e+00	0	45	0	2346713088	9	4268
2026-01-20 10:40:44.61	15.00	20.62	-24.8	-26.2	18.1	0.00e+00	0	45	0	2351955968	9	4212
2026-01-20 10:40:45.61	14.78	20.55	-24.7	-26.0	18.2	0.00e+00	0	44	0	2357198848	9	4167
2026-01-20 10:40:46.61	14.56	20.48	-24.8	-26.1	18.2	0.00e+00	0	44	0	2363490304	9	4191
2026-01-20 10:40:47.62	14.35	20.41	-25.0	-26.5	17.9	0.00e+00	0	44	0	2368733184	9	4298
2026-01-20 10:40:48.62	14.13	20.33	-25.1	-26.4	17.7	0.00e+00	0	45	0	2375024640	10	4160
2026-01-20 10:40:49.62	13.92	20.26	-25.2	-26.4	17.7	0.00e+00	0	44	0	2380267520	10	4173
2026-01-20 10:40:50.63	13.71	20.19	-25.0	-26.1	17.8	0.00e+00	0	44	0	2385510400	10	4091
2026-01-20 10:40:51.64	13.50	20.12	-24.9	-25.8	18.0	0.00e+00	0	44	0	2391801856	10	4008
2026-01-20 10:40:52.64	13.29	20.05	-24.9	-25.9	18.0	0.00e+00	0	44	0	2397044736	10	4025
2026-01-20 10:40:53.64	13.08	19.98	-25.0	-26.1	17.9	0.00e+00	0	44	0	2402287616	10	4093
2026-01-20 10:40:54.65	12.87	19.90	-25.1	-26.4	17.7	0.00e+00	0	44	0	2408579072	10	4160
2026-01-20 10:40:55.65	12.66	19.83	-25.3	-26.7	17.6	0.00e+00	0	45	0	2413821952	10	4238
2026-01-20 10:40:56.65	12.46	19.76	-25.3	-26.8	17.5	0.00e+00	0	44	0	2420113408	10	4279
2026-01-20 10:40:57.65	12.25	19.69	-25.2	-26.5	17.6	0.00e+00	0	44	0	2425356288	10	4180
2026-01-20 10:40:58.66	12.05	19.61	-25.0	-26.0	17.9	0.00e+00	0	44	0	2430599168	10	4060
2026-01-20 10:40:59.65	11.85	19.54	-25.1	-26.2	17.8	0.00e+00	0	44	0	2436890624	10	4114
2026-01-20 10:41:00.66	11.64	19.47	-25.0	-26.2	17.8	0.00e+00	0	44	0	2442133504	10	4096
2026-01-20 10:41:01.65	11.44	19.39	-25.0	-26.2	17.8	0.00e+00	0	45	0	2447376384	10	4105
2026-01-20 10:41:02.66	11.24	19.32	-25.1	-26.3	17.7	0.00e+00	0	44	0	2453667840	10	4144
2026-01-20 10:41:03.66	11.04	19.25	-25.1	-26.2	17.8	0.00e+00	0	44	0	2458910720	10	4119
2026-01-20 10:41:04.67	10.84	19.17	-25.2	-26.5	17.6	0.00e+00	0	44	0	2465202176	10	4193
2026-01-20 10:41:05.68	10.64	19.10	-25.2	-26.6	17.6	0.00e+00	0	44	0	2470445056	10	4201
2026-01-20 10:41:06.68	10.45	19.02	-25.1	-26.3	17.7	0.00e+00	0	45	0	2475687936	10	4137
2026-01-20 10:41:07.69	10.25	18.95	-25.0	-26.2	17.8	0.00e+00	0	45	0	2481979392	10	4114
2026-01-20 10:41:08.69	10.06	18.87	-25.2	-26.4	17.7	0.00e+00	0	44	0	2487222272	10	4174
2026-01-20 10:41:09.69	9.87	18.80	-25.0	-26.2	17.8	0.00e+00	0	44	0	2493513728	10	4106
2026-01-20 10:41:10.69	9.67	18.72	-25.1	-26.3	17.7	0.00e+00	0	44	0	2498756608	10	4129
2026-01-20 10:41:11.69	9.48	18.65	-25.0	-26.2	17.8	0.00e+00	0	45	0	2503999488	10	4102
2026-01-20 10:41:12.70	9.29	18.57	-24.9	-25.8	18.0	0.00e+00	0	44	0	2510290944	10	4008
2026-01-20 10:41:13.70	9.10	18.50	-25.0	-26.1	17.8	0.00e+00	0	44	0	2515533824	10	4094
2026-01-20 10:41:14.71	8.91	18.42	-25.0	-26.2	17.8	0.00e+00	0	45	0	2520776704	10	4097
2026-01-20 10:41:15.71	8.72	18.35	-25.1	-26.3	17.7	0.00e+00	0	45	0	2527068160	10	4146
2026-01-20 10:41:16.72	8.54	18.27	-25.3	-26.6	17.5	0.00e+00	0	44	0	2532311040	10	4217
2026-01-20 10:41:17.73	8.35	18.20	-25.3	-26.8	17.4	0.00e+00	0	44	0	2538602496	10	4273
2026-01-20 10:41:18.73	8.17	18.12	-25.3	-26.7	17.5	0.00e+00	0	44	0	2543845376	10	4239
2026-01-20 10:41:19.73	7.98	18.05	-25.4	-26.9	17.3	0.00e+00	0	44	0	2549088256	10	4297
2026-01-20 10:41:20.74	7.80	17.97	-25.4	-26.9	17.3	0.00e+00	0	45	0	2555379712	10	4304
2026-01-20 10:41:21.74	7.62	17.90	-25.4	-27.0	17.3	0.00e+00	0	44	0	2560622592	10	4326
2026-01-20 10:41:22.74	7.44	17.82	-25.5	-26.7	17.2	0.00e+00	0	44	0	2566914048	11	4140
2026-01-20 10:41:23.75	7.25	17.74	-25.7	-27.1	17.0	0.00e+00	0	44	0	2572156928	11	4242
2026-01-20 10:41:24.75	7.08	17.67	-25.6	-26.9	17.1	0.00e+00	0	44	0	2577399808	11	4184
2026-01-20 10:41:25.75	6.90	17.59	-25.5	-26.6	17.2	0.00e+00	0	44	0	2583691264	11	4116
2026-01-20 10:41:26.76	6.72	17.52	-25.7	-27.1	17.0	0.00e+00	0	44	0	2588934144	11	4218
2026-01-20 10:41:27.76	6.54	17.44	-25.5	-26.8	17.2	0.00e+00	0	44	0	2594177024	11	4148
2026-01-20 10:41:28.77	6.37	17.36	-25.5	-26.7	17.2	0.00e+00	0	44	0	2600468480	11	4129
2026-01-20 10:41:29.78	6.19	17.29	-25.5	-26.8	17.2	0.00e+00	0	44	0	2605711360	11	4141
2026-01-20 10:41:30.78	6.02	17.21	-25.7	-27.2	16.9	0.00e+00	0	44	0	2612002816	11	4247
2026-01-20 10:41:31.78	5.84	17.13	-25.9	-27.6	16.7	0.00e+00	0	44	0	2617245696	11	4373
2026-01-20 10:41:32.79	5.67	17.06	-25.9	-27.1	16.6	0.00e+00	0	44	0	2622488576	12	4130
2026-01-20 10:41:33.78	5.50	16.98	-25.8	-26.8	16.8	0.00e+00	0	44	0	2628780032	12	4059
2026-01-20 10:41:34.79	5.33	16.91	-25.8	-26.8	16.8	0.00e+00	0	44	0	2634022912	12	4057
2026-01-20 10:41:35.80	5.16	16.83	-25.8	-27.0	16.7	0.00e+00	0	44	0	2640314368	12	4087
2026-01-20 10:41:36.80	4.99	16.75	-25.9	-27.0	16.7	0.00e+00	0	44	0	2645557248	12	4099
2026-01-20 10:41:37.80	4.83	16.68	-26.1	-27.6	16.4	0.00e+00	0	44	0	2650800128	12	4249
2026-01-20 10:41:38.80	4.66	16.60	-26.0	-27.3	16.5	0.00e+00	0	44	0	2657091584	12	4175
2026-01-20 10:41:39.80	4.49	16.52	-25.8	-26.8	16.7	0.00e+00	0	44	0	2662334464	12	4055
2026-01-20 10:41:40.81	4.33	16.45	-25.7	-26.6	16.9	0.00e+00	0	44	0	2667577344	12	3994
2026-01-20 10:41:41.81	4.16	16.37	-25.6	-26.4	17.0	0.00e+00	0	45	0	2673868800	12	3935
2026-01-20 10:41:42.82	4.00	16.30	-25.8	-26.8	16.8	0.00e+00	0	44	0	2679111680	12	4042
2026-01-20 10:41:43.82	3.84	16.22	-25.7	-26.6	16.9	0.00e+00	0	44	0	2685403136	12	4008
2026-01-20 10:41:44.82	3.68	16.14	-25.8	-26.9	16.7	0.00e+00	0	44	0	2690646016	12	4069
2026-01-20 10:41:45.82	3.52	16.07	-25.8	-26.9	16.7	0.00e+00	0	44	0	2695888896	12	4081
2026-01-20 10:41:46.83	3.35	15.99	-25.9	-27.1	16.6	0.00e+00	0	44	0	2702180352	12	4127
2026-01-20 10:41:47.83	3.20	15.91	-25.9	-27.0	16.6	0.00e+00	0	44	0	2707423232	12	4099
2026-01-20 10:41:48.84	3.04	15.84	-25.9	-27.1	16.6	0.00e+00	0	44	0	2713714688	12	4116
2026-01-20 10:41:49.84	2.88	15.76	-25.8	-26.9	16.7	0.00e+00	0	44	0	2718957568	12	4078
2026-01-20 10:41:50.85	2.72	15.68	-25.9	-27.0	16.6	0.00e+00	0	44	0	2724200448	12	4109
2026-01-20 10:41:51.85	2.57	15.61	-25.8	-26.9	16.7	0.00e+00	0	44	0	2730491904	12	4085
2026-01-20 10:41:52.85	2.41	15.53	-25.9	-27.1	16.6	0.00e+00	0	44	0	2735734784	12	4115
2026-01-20 10:41:53.85	2.26	15.46	-25.9	-27.2	16.5	0.00e+00	0	44	0	2740977664	12	4144
2026-01-20 10:41:54.85	2.10	15.38	-25.9	-27.2	16.5	0.00e+00	0	44	0	2747269120	12	4142
2026-01-20 10:41:55.85	1.95	15.30	-26.0	-27.3	16.4	0.00e+00	0	44	0	2752512000	12	4175
2026-01-20 10:41:56.86	1.80	15.23	-26.1	-27.6	16.3	0.00e+00	0	44	0	2757754880	12	4255
2026-01-20 10:41:57.86	1.65	15.15	-26.1	-27.5	16.3	0.00e+00	0	44	0	2764046336	12	4238
2026-01-20 10:41:58.86	1.50	15.08	-25.9	-27.2	16.5	0.00e+00	0	44	0	2769289216	12	4143
2026-01-20 10:41:59.86	1.35	15.00	-26.0	-27.2	16.4	0.00e+00	0	44	0	2775580672	12	4167
2026-01-20 10:42:00.87	1.20	14.92	-25.9	-27.2	16.5	0.00e+00	0	44	0	2780823552	12	4149
2026-01-20 10:42:01.88	1.05	14.85	-26.0	-27.2	16.5	0.00e+00	0	44	0	2787115008	12	4148
2026-01-20 10:42:02.88	0.90	14.77	-26.0	-27.4	16.3	0.00e+00	0	44	0	2792357888	12	4194
2026-01-20 10:42:03.89	0.76	14.70	-26.1	-27.4	16.4	0.00e+00	0	44	0	2797600768	12	4203
2026-01-20 10:42:04.89	0.61	14.62	-26.2	-27.8	16.1	0.00e+00	0	44	0	2803892224	12	4318
2026-01-20 10:42:05.89	0.47	14.54	-26.3	-27.9	16.1	0.00e+00	0	44	0	2809135104	12	4337
2026-01-20 10:42:06.89	0.32	14.47	-26.3	-27.9	16.0	0.00e+00	0	44	0	2814377984	12	4340
2026-01-20 10:42:07.88	0.18	14.39	-26.2	-27.6	16.2	0.00e+00	0	44	0	2820669440	12	4263
2026-01-20 10:42:08.89	0.04	14.32	-26.1	-27.4	16.3	0.00e+00	0	44	0	2825912320	12	4207
2026-01-20 10:42:09.89	359.90	14.24	-26.2	-27.7	16.2	0.00e+00	0	44	0	2831155200	12	4297
2026-01-20 10:42:10.89	359.76	14.17	-26.1	-27.5	16.3	0.00e+00	0	44	0	2837446656	12	4243
2026-01-20 10:42:11.89	359.61	14.09	-26.2	-27.8	16.1	0.00e+00	0	45	0	2842689536	12	4302
2026-01-20 10:42:12.89	359.48	14.02	-26.2	-27.8	16.1	0.00e+00	0	44	0	2848980992	12	4309
2026-01-20 10:42:13.90	359.34	13.94	-26.3	-28.0	16.0	0.00e+00	0	44	0	2854223872	12	4358
2026-01-20 10:42:14.90	359.20	13.87	-26.2	-27.7	16.2	0.00e+00	0	44	0	2859466752	12	4279
2026-01-20 10:42:15.90	359.06	13.79	-26.3	-28.0	16.0	0.00e+00	0	44	0	2865758208	12	4373
2026-01-20 10:42:16.90	358.92	13.72	-26.1	-27.6	16.2	0.00e+00	0	44	0	2871001088	12	4256
2026-01-20 10:42:17.90	358.79	13.64	-26.2	-27.7	16.1	0.00e+00	0	44	0	2876243968	12	4284
2026-01-20 10:42:18.91	358.65	13.57	-26.2	-27.7	16.1	0.00e+00	0	44	0	2882535424	12	4299
2026-01-20 10:42:19.91	358.52	13.49	-26.2	-27.8	16.0	0.00e+00	0	44	0	2887778304	12	4315
2026-01-20 10:42:20.92	358.38	13.42	-26.3	-27.9	15.9	0.00e+00	0	44	0	2894069760	12	4355
2026-01-20 10:42:21.92	358.25	13.34	-26.5	-28.0	15.7	0.00e+00	0	44	0	2899312640	13	4259
2026-01-20 10:42:22.93	358.12	13.27	-26.7	-28.4	15.5	0.00e+00	0	44	0	2905604096	13	4363
2026-01-20 10:42:23.93	357.98	13.19	-26.6	-28.2	15.5	0.00e+00	0	44	0	2910846976	13	4318
2026-01-20 10:42:24.93	357.85	13.12	-26.6	-28.1	15.6	0.00e+00	0	44	0	2916089856	13	4284
2026-01-20 10:42:25.93	357.72	13.04	-26.6	-28.1	15.6	0.00e+00	0	44	0	2922381312	13	4271
2026-01-20 10:42:26.94	357.59	12.97	-26.7	-28.4	15.4	0.00e+00	0	44	0	2927624192	13	4359
2026-01-20 10:42:27.93	357.46	12.90	-26.7	-28.4	15.4	0.00e+00	0	44	0	2932867072	13	4366
2026-01-20 10:42:28.93	357.34	12.82	-26.8	-28.5	15.3	0.00e+00	0	44	0	2939158528	13	4397
2026-01-20 10:42:29.93	357.21	12.75	-26.8	-28.7	15.2	0.00e+00	0	44	0	2944401408	13	4442
2026-01-20 10:42:30.94	357.08	12.67	-26.9	-28.7	15.2	0.00e+00	0	44	0	2949644288	13	4458
2026-01-20 10:42:31.94	356.95	12.60	-26.8	-28.6	15.3	0.00e+00	0	44	0	2955935744	13	4427
2026-01-20 10:42:32.94	356.83	12.53	-27.0	-28.6	15.0	0.00e+00	0	45	0	2961178624	14	4303
2026-01-20 10:42:33.94	356.70	12.45	-27.3	-29.2	14.6	0.00e+00	0	44	0	2967470080	14	4496
2026-01-20 10:42:34.94	356.58	12.38	-27.1	-28.8	14.9	0.00e+00	0	44	0	2972712960	14	4383
2026-01-20 10:42:35.95	356.45	12.31	-27.1	-28.8	14.9	0.00e+00	0	44	0	2977955840	14	4362
2026-01-20 10:42:36.95	356.33	12.23	-27.1	-28.8	14.9	0.00e+00	0	44	0	2984247296	14	4364
2026-01-20 10:42:37.96	356.21	12.16	-27.2	-28.9	14.8	0.00e+00	0	44	0	2989490176	14	4407
2026-01-20 10:42:38.96	356.09	12.09	-27.1	-28.7	14.9	0.00e+00	0	44	0	2994733056	14	4343
2026-01-20 10:42:39.96	355.96	12.01	-27.0	-28.5	15.0	0.00e+00	0	44	0	3001024512	14	4297
2026-01-20 10:42:40.96	355.84	11.94	-27.1	-28.7	14.9	0.00e+00	0	45	0	3006267392	14	4340
2026-01-20 10:42:41.95	355.73	11.87	-27.1	-28.7	14.9	0.00e+00	0	44	0	3011510272	14	4346
2026-01-20 10:42:42.96	355.61	11.79	-27.4	-29.4	14.5	0.00e+00	0	44	0	3017801728	14	4529
2026-01-20 10:42:43.95	355.49	11.72	-27.2	-29.0	14.7	0.00e+00	0	45	0	3023044608	14	4433
2026-01-20 10:42:44.95	355.37	11.65	-27.0	-28.6	14.9	0.00e+00	0	44	0	3029336064	14	4318
2026-01-20 10:42:45.95	355.25	11.58	-27.0	-28.6	15.0	0.00e+00	0	44	0	3034578944	14	4306
2026-01-20 10:42:46.96	355.13	11.50	-26.9	-28.2	15.1	0.00e+00	0	44	0	3039821824	14	4212
2026-01-20 10:42:47.96	355.02	11.43	-26.9	-28.4	15.0	0.00e+00	0	44	0	3046113280	14	4267
2026-01-20 10:42:48.97	354.90	11.36	-26.9	-28.4	15.0	0.00e+00	0	44	0	3051356160	14	4265
2026-01-20 10:42:49.97	354.79	11.29	-27.0	-28.5	15.0	1.10e-06	0	45	0	3057647616	14	4286
2026-01-20 10:42:50.97	354.67	11.21	-27.1	-28.8	14.8	0.00e+00	0	45	0	3062890496	14	4372
2026-01-20 10:42:51.98	354.56	11.14	-26.9	-28.3	15.1	0.00e+00	0	44	0	3068133376	14	4233
2026-01-20 10:42:52.98	354.44	11.07	-27.0	-28.5	15.0	0.00e+00	0	44	0	3074424832	14	4272
2026-01-20 10:42:53.98	354.33	11.00	-27.0	-28.6	14.9	0.00e+00	0	45	0	3079667712	14	4306
2026-01-20 10:42:54.99	354.22	10.93	-27.0	-28.6	14.9	0.00e+00	0	44	0	3084910592	14	4319
2026-01-20 10:42:55.99	354.10	10.86	-27.2	-28.9	14.8	0.00e+00	0	45	0	3091202048	14	4398
2026-01-20 10:42:57.00	353.99	10.78	-27.1	-28.9	14.7	0.00e+00	0	45	0	3096444928	14	4391
2026-01-20 10:42:58.01	353.88	10.71	-27.1	-28.7	14.8	1.10e-06	0	45	0	3102736384	14	4347
2026-01-20 10:42:59.01	353.77	10.64	-27.1	-28.8	14.8	0.00e+00	0	45	0	3107979264	14	4377
2026-01-20 10:43:00.02	353.66	10.57	-27.2	-29.0	14.7	0.00e+00	0	44	0	3114270720	14	4424
2026-01-20 10:43:01.02	353.55	10.50	-27.1	-28.7	14.8	0.00e+00	0	45	0	3119513600	14	4345
2026-01-20 10:43:02.02	353.44	10.43	-27.2	-29.0	14.6	0.00e+00	0	45	0	3124756480	14	4440
2026-01-20 10:43:03.02	353.33	10.36	-27.3	-29.3	14.4	1.10e-06	0	44	0	3131047936	14	4527
2026-01-20 10:43:04.03	353.23	10.28	-27.2	-28.9	14.6	0.00e+00	0	45	0	3136290816	14	4411
2026-01-20 10:43:05.03	353.12	10.21	-27.1	-28.8	14.7	0.00e+00	0	44	0	3141533696	14	4377
2026-01-20 10:43:06.02	353.01	10.14	-27.1	-28.7	14.8	0.00e+00	0	44	0	3147825152	14	4346
2026-01-20 10:43:07.02	352.91	10.07	-27.1	-28.7	14.8	0.00e+00	0	45	0	3153068032	14	4349
2026-01-20 10:43:08.02	352.80	10.00	-27.1	-28.8	14.7	0.00e+00	0	44	0	3158310912	14	4380
2026-01-20 10:43:09.03	352.70	9.93	-27.2	-29.0	14.6	0.00e+00	0	44	0	3164602368	14	4430
2026-01-20 10:43:10.03	352.59	9.86	-27.2	-28.9	14.6	0.00e+00	0	45	0	3169845248	14	4411
2026-01-20 10:43:11.03	352.49	9.79	-27.3	-29.2	14.5	0.00e+00	0	45	0	3176136704	14	4487
2026-01-20 10:43:12.04	352.39	9.72	-27.2	-29.0	14.6	1.10e-06	0	44	0	3181379584	14	4434
2026-01-20 10:43:13.04	352.28	9.65	-27.2	-29.1	14.5	0.00e+00	0	44	0	3186622464	14	4472
2026-01-20 10:43:14.05	352.18	9.58	-27.3	-29.4	14.3	0.00e+00	0	44	0	3192913920	14	4538
2026-01-20 10:43:15.05	352.08	9.51	-27.4	-29.4	14.3	1.10e-06	0	45	0	3198156800	14	4557
2026-01-20 10:43:16.05	351.98	9.44	-27.6	-29.5	14.0	1.10e-06	0	44	0	3203399680	15	4474
2026-01-20 10:43:17.06	351.88	9.37	-27.5	-29.2	14.2	0.00e+00	0	45	0	3209691136	15	4374
2026-01-20 10:43:18.05	351.78	9.30	-27.3	-28.8	14.3	0.00e+00	0	44	0	3214934016	15	4267
2026-01-20 10:43:19.05	351.68	9.24	-27.4	-29.1	14.2	0.00e+00	0	44	0	3220176896	15	4349
2026-01-20 10:43:20.06	351.58	9.17	-27.3	-28.7	14.4	0.00e+00	0	44	0	3226468352	15	4248
2026-01-20 10:43:21.06	351.48	9.10	-27.4	-28.9	14.3	1.10e-06	0	45	0	3231711232	15	4314
2026-01-20 10:43:22.07	351.38	9.03	-27.5	-29.2	14.2	2.20e-06	0	45	0	3238002688	15	4378
2026-01-20 10:43:23.07	351.28	8.96	-27.4	-28.9	14.3	1.10e-06	0	44	0	3243245568	15	4315
2026-01-20 10:43:24.08	351.18	8.89	-27.3	-28.8	14.3	1.10e-06	0	44	0	3249537024	15	4273
2026-01-20 10:43:25.08	351.09	8.82	-27.4	-29.0	14.3	0.00e+00	0	44	0	3254779904	15	4338
2026-01-20 10:43:26.08	350.99	8.75	-27.5	-29.2	14.1	1.10e-06	0	44	0	3260022784	15	4379
2026-01-20 10:43:27.09	350.89	8.68	-27.3	-28.8	14.3	0.00e+00	0	45	0	3266314240	15	4270
2026-01-20 10:43:28.10	350.80	8.62	-27.5	-29.2	14.1	1.10e-06	0	45	0	3271557120	15	4373
2026-01-20 10:43:29.11	350.70	8.55	-27.5	-29.3	14.0	1.10e-06	0	44	0	3276800000	15	4413
2026-01-20 10:43:30.10	350.61	8.48	-27.6	-29.5	13.9	2.20e-06	0	44	0	3283091456	15	4460
2026-01-20 10:43:31.11	350.51	8.41	-27.6	-29.5	13.8	2.20e-06	0	44	0	3288334336	15	4473
2026-01-20 10:43:32.11	350.42	8.34	-27.5	-29.2	14.1	1.10e-06	0	45	0	3293577216	15	4391
2026-01-20 10:43:33.12	350.33	8.28	-27.5	-29.3	14.0	0.00e+00	0	45	0	3299868672	15	4413
2026-01-20 10:43:34.11	350.23	8.21	-27.5	-29.2	14.1	0.00e+00	0	44	0	3305111552	15	4374
2026-01-20 10:43:35.11	350.14	8.14	-27.4	-29.0	14.2	0.00e+00	0	44	0	3311403008	15	4327
2026-01-20 10:43:36.11	350.05	8.07	-27.4	-29.1	14.1	2.20e-06	0	44	0	3316645888	15	4363
2026-01-20 10:43:37.11	349.96	8.01	-27.6	-29.4	13.9	4.50e-06	0	44	0	3322937344	15	4456
2026-01-20 10:43:38.11	349.87	7.94	-27.7	-29.7	13.7	2.20e-06	0	44	0	3328180224	15	4539
2026-01-20 10:43:39.11	349.78	7.87	-27.6	-29.4	13.9	1.10e-06	0	44	0	3333423104	15	4441
2026-01-20 10:43:40.11	349.69	7.81	-27.5	-29.2	14.0	3.40e-06	0	44	0	3338665984	15	4383
2026-01-20 10:43:41.11	349.60	7.74	-27.5	-29.2	14.0	3.40e-06	0	44	0	3344957440	15	4377
2026-01-20 10:43:42.11	349.51	7.67	-27.5	-29.3	14.0	0.00e+00	0	45	0	3350200320	15	4435
2026-01-20 10:43:43.11	349.42	7.61	-27.6	-29.5	13.8	0.00e+00	0	44	0	3355443200	15	4485
2026-01-20 10:43:44.12	349.33	7.54	-27.7	-29.7	13.7	2.20e-06	0	44	0	3361734656	15	4533
2026-01-20 10:43:45.13	349.24	7.47	-27.6	-29.6	13.7	4.50e-06	0	45	0	3366977536	15	4502
2026-01-20 10:43:46.13	349.16	7.41	-27.8	-29.9	13.5	2.20e-06	0	44	0	3373268992	15	4599
2026-01-20 10:43:47.13	349.07	7.34	-28.3	-30.7	12.9	2.40e-05	0	45	0	3378511872	16	4715
2026-01-20 10:43:48.13	348.98	7.27	-27.9	-29.8	13.5	1.25e-05	0	44	0	3384803328	16	4439
2026-01-20 10:43:49.14	348.89	7.21	-28.1	-30.0	13.3	5.70e-06	0	44	0	3390046208	16	4522
2026-01-20 10:43:50.14	348.81	7.14	-27.9	-29.7	13.5	8.00e-06	0	44	0	3395289088	16	4422
2026-01-20 10:43:51.14	348.72	7.08	-27.9	-29.6	13.5	5.70e-06	0	45	0	3401580544	16	4385
2026-01-20 10:43:52.14	348.64	7.01	-33.2	-42.1	3.9	8.44e-01	0	45	104	3403677696	26	10080
2026-01-20 10:43:53.14	348.55	6.95	-33.7	-44.6	3.8	8.45e-01	0	44	104	3403677696	27	12659
2026-01-20 10:43:54.15	348.47	6.88	-34.0	-45.6	3.8	8.46e-01	0	44	104	3403677696	27	13635

#Closed at: 2026-01-20 10:43:54
#Recorded file [3403 MB]: D:/data/31010_260120_133346.dat