passes_logs/2025/01/13/PPK-1/PPK-1__20250113_114552_TY-39_rec.log

#Pass ID: 20250113_114552_TY-39
#Satellite: TY-39
#Configuration: TY-39
#almurnet v.1.7.20230919.trace
#Start time: 2025-01-13 11:45:52

#Version: 2.2.20231116
#Station: PPK-1
#Location: 158.6 lon 53.06666 lat
#TLE: 1 51832U 22019J   25012.88933161  .00003179  00000+0  16437-3 0  9995
#TLE: 2 51832  97.4104  83.1414 0007876 241.6089 118.4351 15.16950046158829

#Time	Az	El	Level	Level2	SNR	BER	BlckErr	Temp	State
2025-01-13 11:45:52.22	211.50	7.96	-67.3	-73.0	3.6	0.00e+00	0	45	0
2025-01-13 11:45:53.12	211.63	8.03	-67.3	-72.9	3.7	0.00e+00	0	46	104
2025-01-13 11:45:54.11	211.77	8.11	-67.3	-72.9	3.6	0.00e+00	0	46	104
2025-01-13 11:45:55.02	211.89	8.18	-67.3	-73.1	3.6	0.00e+00	0	46	104
2025-01-13 11:45:56.01	212.03	8.25	-67.4	-73.1	3.6	0.00e+00	0	46	104
2025-01-13 11:45:56.92	212.16	8.32	-67.4	-73.2	3.7	0.00e+00	0	46	104
2025-01-13 11:45:57.91	212.30	8.40	-67.4	-73.2	3.7	0.00e+00	0	46	104
2025-01-13 11:45:58.82	212.43	8.47	-67.5	-73.3	3.6	0.00e+00	0	46	104
2025-01-13 11:45:59.81	212.58	8.54	-67.5	-73.4	3.7	0.00e+00	0	47	104
2025-01-13 11:46:00.72	212.71	8.61	-67.5	-73.5	3.6	0.00e+00	0	47	104
2025-01-13 11:46:01.71	212.85	8.69	-67.5	-73.4	3.6	0.00e+00	0	47	104
2025-01-13 11:46:02.61	212.98	8.76	-67.5	-73.3	3.6	0.00e+00	0	47	104
2025-01-13 11:46:03.60	213.13	8.84	-67.5	-73.2	3.6	0.00e+00	0	47	104
2025-01-13 11:46:04.51	213.27	8.91	-67.4	-73.1	3.7	0.00e+00	0	47	104
2025-01-13 11:46:05.50	213.41	8.99	-67.4	-73.1	3.6	0.00e+00	0	48	104
2025-01-13 11:46:06.41	213.55	9.06	-67.4	-73.1	3.7	0.00e+00	0	48	104
2025-01-13 11:46:07.40	213.70	9.13	-67.4	-73.1	3.6	0.00e+00	0	48	104
2025-01-13 11:46:08.30	213.84	9.20	-67.4	-73.3	3.6	0.00e+00	0	48	104
2025-01-13 11:46:09.30	213.99	9.28	-67.5	-73.3	3.7	0.00e+00	0	48	104
2025-01-13 11:46:10.20	214.13	9.35	-67.5	-73.4	3.6	0.00e+00	0	48	104
2025-01-13 11:46:11.20	214.28	9.43	-67.5	-73.5	3.7	0.00e+00	0	48	104
2025-01-13 11:46:12.10	214.42	9.50	-67.5	-73.5	3.6	0.00e+00	0	49	104
2025-01-13 11:46:13.10	214.58	9.58	-67.5	-73.4	3.6	0.00e+00	0	49	104
2025-01-13 11:46:14.00	214.72	9.65	-67.5	-73.3	3.6	0.00e+00	0	49	104
2025-01-13 11:46:15.00	214.88	9.73	-67.4	-73.3	3.6	0.00e+00	0	49	104
2025-01-13 11:46:15.90	215.03	9.81	-67.4	-73.2	3.7	0.00e+00	0	49	104
2025-01-13 11:46:16.90	215.19	9.89	-67.5	-73.2	3.6	0.00e+00	0	49	104
2025-01-13 11:46:17.80	215.33	9.96	-67.5	-73.3	3.7	0.00e+00	0	49	104
2025-01-13 11:46:18.80	215.50	10.04	-67.5	-73.3	3.7	0.00e+00	0	50	104
2025-01-13 11:46:19.70	215.64	10.11	-67.5	-73.3	3.7	0.00e+00	0	49	104
2025-01-13 11:46:20.70	215.81	10.19	-67.4	-73.2	3.7	0.00e+00	0	50	104
2025-01-13 11:46:21.60	215.96	10.26	-67.4	-73.3	3.6	0.00e+00	0	50	104
2025-01-13 11:46:22.60	216.12	10.34	-67.5	-73.4	3.7	0.00e+00	0	50	104
2025-01-13 11:46:23.50	216.28	10.42	-67.6	-73.5	3.6	0.00e+00	0	51	104
2025-01-13 11:46:24.49	216.44	10.50	-67.6	-73.5	3.6	0.00e+00	0	51	104
2025-01-13 11:46:25.40	216.60	10.57	-67.5	-73.4	3.7	0.00e+00	0	51	104
2025-01-13 11:46:26.39	216.77	10.65	-67.5	-73.3	3.6	0.00e+00	0	51	104
2025-01-13 11:46:27.29	216.92	10.72	-67.5	-73.4	3.7	0.00e+00	0	51	104
2025-01-13 11:46:28.28	217.09	10.81	-67.5	-73.4	3.6	0.00e+00	0	51	104
2025-01-13 11:46:29.19	217.25	10.88	-67.5	-73.5	3.7	0.00e+00	0	51	104
2025-01-13 11:46:30.18	217.43	10.96	-67.6	-73.5	3.7	0.00e+00	0	51	104
2025-01-13 11:46:31.09	217.59	11.04	-67.6	-73.5	3.6	0.00e+00	0	52	104
2025-01-13 11:46:32.08	217.76	11.12	-67.5	-73.4	3.7	0.00e+00	0	52	104
2025-01-13 11:46:32.99	217.92	11.19	-67.4	-73.2	3.6	0.00e+00	0	52	104
2025-01-13 11:46:33.98	218.10	11.27	-67.4	-73.2	3.6	0.00e+00	0	52	104
2025-01-13 11:46:34.89	218.27	11.35	-67.3	-73.1	3.6	0.00e+00	0	52	104
2025-01-13 11:46:35.88	218.45	11.43	-67.4	-73.3	3.6	0.00e+00	0	52	104
2025-01-13 11:46:36.79	218.61	11.51	-67.4	-73.4	3.7	0.00e+00	0	52	104
2025-01-13 11:46:37.78	218.80	11.59	-67.5	-73.5	3.6	0.00e+00	0	52	104
2025-01-13 11:46:38.69	218.97	11.66	-67.5	-73.5	3.7	0.00e+00	0	52	104
2025-01-13 11:46:39.68	219.15	11.75	-67.5	-73.6	3.6	0.00e+00	0	53	104
2025-01-13 11:46:40.59	219.32	11.82	-67.5	-73.6	3.7	0.00e+00	0	53	104
2025-01-13 11:46:41.58	219.51	11.91	-67.6	-73.7	3.7	0.00e+00	0	53	104
2025-01-13 11:46:42.49	219.68	11.98	-67.6	-73.7	3.6	0.00e+00	0	53	104
2025-01-13 11:46:43.47	219.87	12.06	-67.6	-73.7	3.7	0.00e+00	0	53	104
2025-01-13 11:46:44.38	220.04	12.14	-67.6	-73.7	3.6	0.00e+00	0	53	104
2025-01-13 11:46:45.37	220.24	12.22	-67.6	-73.6	3.6	0.00e+00	0	53	104
2025-01-13 11:46:46.28	220.41	12.30	-67.6	-73.5	3.6	0.00e+00	0	53	104
2025-01-13 11:46:47.27	220.61	12.38	-67.5	-73.4	3.6	0.00e+00	0	53	104
2025-01-13 11:46:48.18	220.79	12.46	-67.5	-73.4	3.7	0.00e+00	0	54	104
2025-01-13 11:46:49.17	220.98	12.54	-67.5	-73.3	3.6	0.00e+00	0	54	104
2025-01-13 11:46:50.07	221.16	12.62	-67.4	-73.3	3.7	0.00e+00	0	54	104
2025-01-13 11:46:51.06	221.36	12.70	-67.5	-73.3	3.6	0.00e+00	0	54	104
2025-01-13 11:46:51.97	221.55	12.78	-67.5	-73.5	3.7	0.00e+00	0	54	104
2025-01-13 11:46:52.96	221.75	12.86	-67.5	-73.6	3.7	0.00e+00	0	54	104
2025-01-13 11:46:53.87	221.94	12.94	-67.5	-73.6	3.6	0.00e+00	0	54	104
2025-01-13 11:46:54.86	222.14	13.02	-67.6	-73.6	3.7	0.00e+00	0	55	104
2025-01-13 11:46:55.77	222.33	13.10	-67.6	-73.7	3.6	0.00e+00	0	55	104
2025-01-13 11:46:56.76	222.54	13.19	-67.7	-73.7	3.7	0.00e+00	0	55	104
2025-01-13 11:46:57.67	222.73	13.26	-67.7	-73.8	3.6	0.00e+00	0	55	104
2025-01-13 11:46:58.66	222.94	13.35	-67.7	-73.7	3.6	0.00e+00	0	55	104
2025-01-13 11:46:59.57	223.13	13.42	-67.6	-73.6	3.7	0.00e+00	0	55	104
2025-01-13 11:47:00.55	223.34	13.51	-67.5	-73.5	3.6	0.00e+00	0	55	104
2025-01-13 11:47:01.46	223.54	13.59	-67.5	-73.5	3.7	0.00e+00	0	55	104
2025-01-13 11:47:02.45	223.75	13.67	-67.6	-73.6	3.6	0.00e+00	0	55	104
2025-01-13 11:47:03.36	223.95	13.75	-67.6	-73.6	3.7	0.00e+00	0	55	104
2025-01-13 11:47:04.35	224.17	13.83	-67.7	-73.7	3.7	0.00e+00	0	55	104
2025-01-13 11:47:05.26	224.37	13.91	-67.7	-73.7	3.6	0.00e+00	0	56	104
2025-01-13 11:47:06.25	224.59	14.00	-67.7	-73.7	3.7	0.00e+00	0	56	104
2025-01-13 11:47:07.16	224.80	14.07	-67.7	-73.7	3.6	0.00e+00	0	56	104
2025-01-13 11:47:08.15	225.02	14.16	-67.8	-73.8	3.7	0.00e+00	0	56	104
2025-01-13 11:47:09.06	225.23	14.24	-67.8	-73.8	3.6	0.00e+00	0	56	104
2025-01-13 11:47:10.05	225.45	14.32	-67.6	-73.8	3.6	0.00e+00	0	56	104
2025-01-13 11:47:10.96	225.66	14.40	-67.6	-73.7	3.7	0.00e+00	0	56	104
2025-01-13 11:47:11.95	225.89	14.48	-52.9	-55.6	13.7	0.00e+00	0	57	104
2025-01-13 11:47:12.85	226.10	14.56	-52.3	-54.8	14.1	6.90e-06	0	57	0
2025-01-13 11:47:13.84	226.33	14.64	-52.5	-55.3	13.9	0.00e+00	0	57	0
2025-01-13 11:47:14.75	226.55	14.72	-53.9	-57.0	12.9	2.08e-05	0	57	0
2025-01-13 11:47:15.74	226.78	14.81	-53.9	-57.0	12.9	5.54e-05	0	57	0
2025-01-13 11:47:16.65	227.00	14.88	-52.5	-55.2	13.6	0.00e+00	0	57	0
2025-01-13 11:47:17.64	227.24	14.97	-52.1	-54.9	13.8	6.90e-06	0	57	0
2025-01-13 11:47:18.54	227.45	15.05	-52.7	-55.6	13.5	0.00e+00	0	57	0
2025-01-13 11:47:19.54	227.70	15.13	-51.8	-54.4	13.9	0.00e+00	0	57	0
2025-01-13 11:47:20.44	227.92	15.21	-51.4	-54.1	14.0	6.90e-06	0	58	0
2025-01-13 11:47:21.44	228.16	15.29	-51.4	-54.0	14.0	6.90e-06	0	58	0
2025-01-13 11:47:22.34	228.39	15.37	-51.3	-53.9	14.0	0.00e+00	0	58	0
2025-01-13 11:47:23.33	228.63	15.45	-51.3	-53.8	14.1	0.00e+00	0	58	0
2025-01-13 11:47:24.23	228.86	15.53	-51.3	-53.8	14.1	0.00e+00	0	58	0
2025-01-13 11:47:25.23	229.11	15.62	-51.3	-53.7	14.2	0.00e+00	0	58	0
2025-01-13 11:47:26.13	229.34	15.69	-51.2	-53.7	14.2	0.00e+00	0	58	0
2025-01-13 11:47:27.13	229.59	15.78	-51.2	-53.7	14.2	0.00e+00	0	58	0
2025-01-13 11:47:28.03	229.83	15.85	-51.2	-53.6	14.2	0.00e+00	0	58	0
2025-01-13 11:47:29.03	230.08	15.94	-51.2	-53.6	14.2	0.00e+00	0	59	0
2025-01-13 11:47:29.93	230.32	16.01	-51.1	-53.5	14.2	6.90e-06	0	59	0
2025-01-13 11:47:30.92	230.58	16.10	-51.2	-53.5	14.1	0.00e+00	0	59	0
2025-01-13 11:47:31.82	230.81	16.17	-51.1	-53.5	14.1	0.00e+00	0	59	0
2025-01-13 11:47:32.82	231.08	16.26	-51.1	-53.5	14.1	0.00e+00	0	59	0
2025-01-13 11:47:33.72	231.32	16.33	-51.1	-53.4	14.2	0.00e+00	0	59	0
2025-01-13 11:47:34.72	231.59	16.42	-51.1	-53.5	14.2	6.90e-06	0	59	0
2025-01-13 11:47:35.61	231.83	16.49	-51.1	-53.4	14.2	0.00e+00	0	59	0
2025-01-13 11:47:36.62	232.10	16.58	-51.2	-54.1	14.1	0.00e+00	0	60	0
2025-01-13 11:47:37.51	232.34	16.65	-51.2	-54.1	14.1	0.00e+00	0	59	0
2025-01-13 11:47:38.52	232.62	16.73	-51.1	-54.0	14.1	0.00e+00	0	60	0
2025-01-13 11:47:39.41	232.87	16.81	-51.2	-54.0	14.1	0.00e+00	0	59	0
2025-01-13 11:47:40.42	233.15	16.89	-51.1	-53.9	14.1	0.00e+00	0	60	0
2025-01-13 11:47:41.31	233.40	16.96	-51.1	-53.8	14.1	0.00e+00	0	60	0
2025-01-13 11:47:42.32	233.68	17.05	-51.0	-53.8	14.0	0.00e+00	0	60	0
2025-01-13 11:47:43.21	233.93	17.12	-51.0	-53.7	14.0	1.38e-05	0	60	0
2025-01-13 11:47:44.22	234.22	17.20	-50.9	-53.5	14.0	0.00e+00	0	60	0
2025-01-13 11:47:45.11	234.48	17.28	-50.9	-53.6	14.0	0.00e+00	0	60	0
2025-01-13 11:47:46.12	234.77	17.36	-50.9	-53.5	14.1	0.00e+00	0	60	0
2025-01-13 11:47:47.01	235.02	17.43	-50.9	-53.5	14.1	0.00e+00	0	60	0
2025-01-13 11:47:48.02	235.32	17.51	-50.9	-53.5	14.2	0.00e+00	0	60	0
2025-01-13 11:47:48.91	235.58	17.58	-50.9	-53.5	14.3	0.00e+00	0	60	0
2025-01-13 11:47:49.92	235.88	17.66	-50.8	-53.3	14.3	0.00e+00	0	60	0
2025-01-13 11:47:50.81	236.14	17.73	-50.9	-53.4	14.3	0.00e+00	0	61	0
2025-01-13 11:47:51.82	236.44	17.81	-50.8	-53.3	14.3	0.00e+00	0	61	0
2025-01-13 11:47:52.71	236.71	17.88	-50.8	-53.3	14.3	0.00e+00	0	61	0
2025-01-13 11:47:53.72	237.01	17.96	-50.8	-53.2	14.3	0.00e+00	0	61	0
2025-01-13 11:47:54.61	237.28	18.03	-50.8	-53.3	14.3	0.00e+00	0	61	0
2025-01-13 11:47:55.62	237.59	18.11	-50.7	-53.2	14.3	0.00e+00	0	61	0
2025-01-13 11:47:56.51	237.86	18.18	-50.7	-53.1	14.4	0.00e+00	0	61	0
2025-01-13 11:47:57.52	238.17	18.26	-50.6	-53.0	14.4	0.00e+00	0	61	0
2025-01-13 11:47:58.42	238.45	18.33	-50.6	-53.0	14.4	0.00e+00	0	61	0
2025-01-13 11:47:59.42	238.76	18.40	-50.7	-53.1	14.4	0.00e+00	0	61	0
2025-01-13 11:48:00.32	239.04	18.47	-50.7	-53.0	14.4	0.00e+00	0	61	0
2025-01-13 11:48:01.32	239.36	18.55	-50.7	-53.1	14.4	0.00e+00	0	61	0
2025-01-13 11:48:02.22	239.64	18.61	-50.7	-53.1	14.4	0.00e+00	0	62	0
2025-01-13 11:48:03.22	239.96	18.69	-50.7	-53.1	14.4	0.00e+00	0	62	0
2025-01-13 11:48:04.12	240.25	18.76	-50.7	-53.0	14.3	0.00e+00	0	62	0
2025-01-13 11:48:05.12	240.57	18.83	-50.7	-53.0	14.2	1.38e-05	0	62	0
2025-01-13 11:48:06.02	240.86	18.90	-50.6	-53.3	14.3	0.00e+00	0	62	0
2025-01-13 11:48:07.02	241.18	18.97	-50.7	-53.6	14.3	0.00e+00	0	62	0
2025-01-13 11:48:07.91	241.47	19.03	-50.6	-53.5	14.3	0.00e+00	0	62	0
2025-01-13 11:48:08.92	241.80	19.10	-50.6	-53.4	14.3	0.00e+00	0	62	0
2025-01-13 11:48:09.81	242.09	19.17	-50.7	-53.6	14.3	0.00e+00	0	62	0
2025-01-13 11:48:10.82	242.43	19.24	-50.7	-53.6	14.3	0.00e+00	0	62	0
2025-01-13 11:48:11.71	242.72	19.30	-50.7	-53.5	14.2	0.00e+00	0	62	0
2025-01-13 11:48:12.72	243.06	19.37	-50.6	-53.3	14.1	0.00e+00	0	62	0
2025-01-13 11:48:13.61	243.36	19.43	-50.5	-53.3	14.1	0.00e+00	0	62	0
2025-01-13 11:48:14.62	243.70	19.50	-50.5	-53.3	14.0	0.00e+00	0	62	0
2025-01-13 11:48:15.51	244.00	19.56	-50.5	-53.2	14.0	0.00e+00	0	62	0
2025-01-13 11:48:16.52	244.35	19.63	-50.5	-53.2	14.1	0.00e+00	0	62	0
2025-01-13 11:48:17.41	244.65	19.68	-50.4	-53.1	14.2	6.90e-06	0	62	0
2025-01-13 11:48:18.42	245.00	19.75	-50.4	-53.1	14.3	0.00e+00	0	62	0
2025-01-13 11:48:19.31	245.30	19.81	-50.5	-53.2	14.5	0.00e+00	0	62	0
2025-01-13 11:48:20.32	245.65	19.87	-50.3	-52.9	14.6	0.00e+00	0	63	0
2025-01-13 11:48:21.21	245.96	19.93	-50.4	-53.0	14.6	0.00e+00	0	63	0
2025-01-13 11:48:22.22	246.32	19.99	-50.4	-53.0	14.6	0.00e+00	0	63	0
2025-01-13 11:48:23.11	246.63	20.05	-50.4	-53.0	14.6	0.00e+00	0	63	0
2025-01-13 11:48:24.12	246.99	20.11	-50.3	-52.8	14.6	0.00e+00	0	63	0
2025-01-13 11:48:25.01	247.30	20.16	-50.4	-53.0	14.6	0.00e+00	0	63	0
2025-01-13 11:48:26.01	247.66	20.22	-50.4	-53.0	14.5	1.38e-05	0	63	0
2025-01-13 11:48:26.91	247.98	20.27	-50.4	-52.9	14.4	0.00e+00	0	63	0
2025-01-13 11:48:27.91	248.34	20.33	-50.3	-52.8	14.4	0.00e+00	0	63	0
2025-01-13 11:48:28.81	248.66	20.38	-50.3	-52.8	14.4	6.90e-06	0	63	0
2025-01-13 11:48:29.81	249.02	20.44	-50.3	-52.8	14.4	0.00e+00	0	63	0
2025-01-13 11:48:30.70	249.34	20.49	-50.3	-52.9	14.4	0.00e+00	0	63	0
2025-01-13 11:48:31.71	249.71	20.54	-50.3	-52.7	14.4	0.00e+00	0	63	0
2025-01-13 11:48:32.60	250.03	20.59	-50.3	-52.8	14.4	0.00e+00	0	64	0
2025-01-13 11:48:33.61	250.40	20.64	-50.3	-52.9	14.4	0.00e+00	0	64	0
2025-01-13 11:48:34.50	250.73	20.69	-50.3	-52.7	14.4	0.00e+00	0	64	0
2025-01-13 11:48:35.51	251.10	20.74	-50.3	-52.8	14.4	0.00e+00	0	64	0
2025-01-13 11:48:36.40	251.43	20.79	-50.3	-52.8	14.3	0.00e+00	0	64	0
2025-01-13 11:48:37.41	251.81	20.84	-50.3	-52.8	14.3	0.00e+00	0	64	0
2025-01-13 11:48:38.30	252.14	20.88	-50.2	-52.5	14.3	0.00e+00	0	64	0
2025-01-13 11:48:39.31	252.52	20.93	-50.2	-52.7	14.4	0.00e+00	0	64	0
2025-01-13 11:48:40.20	252.85	20.97	-50.3	-52.7	14.4	0.00e+00	0	64	0
2025-01-13 11:48:41.21	253.23	21.01	-50.2	-52.6	14.4	0.00e+00	0	64	0
2025-01-13 11:48:42.10	253.57	21.05	-50.2	-52.6	14.4	0.00e+00	0	64	0
2025-01-13 11:48:43.11	253.95	21.10	-50.3	-52.8	14.3	0.00e+00	0	64	0
2025-01-13 11:48:44.00	254.29	21.13	-50.3	-52.8	14.3	0.00e+00	0	65	0
2025-01-13 11:48:45.01	254.67	21.17	-50.3	-52.7	14.4	0.00e+00	0	65	0
2025-01-13 11:48:45.90	255.01	21.21	-50.3	-52.9	14.4	0.00e+00	0	64	0
2025-01-13 11:48:46.91	255.40	21.25	-50.4	-52.9	14.3	0.00e+00	0	64	0
2025-01-13 11:48:47.80	255.74	21.28	-50.3	-52.9	14.3	0.00e+00	0	64	0
2025-01-13 11:48:48.81	256.13	21.32	-50.3	-52.7	14.5	0.00e+00	0	65	0
2025-01-13 11:48:49.70	256.47	21.35	-50.3	-52.8	14.6	0.00e+00	0	64	0
2025-01-13 11:48:50.71	256.86	21.39	-50.3	-52.8	14.6	0.00e+00	0	64	0
2025-01-13 11:48:51.60	257.21	21.42	-50.3	-52.7	14.6	0.00e+00	0	65	0
2025-01-13 11:48:52.60	257.60	21.45	-50.3	-52.8	14.6	0.00e+00	0	65	0
2025-01-13 11:48:53.50	257.95	21.48	-50.2	-52.6	14.6	0.00e+00	0	65	0
2025-01-13 11:48:54.50	258.34	21.51	-50.2	-52.6	14.6	0.00e+00	0	65	0
2025-01-13 11:48:55.39	258.68	21.54	-50.2	-52.7	14.6	0.00e+00	0	65	0
2025-01-13 11:48:56.40	259.08	21.56	-50.3	-52.8	14.5	0.00e+00	0	65	0
2025-01-13 11:48:57.29	259.43	21.59	-50.2	-52.7	14.6	0.00e+00	0	65	0
2025-01-13 11:48:58.30	259.82	21.61	-50.2	-52.7	14.6	0.00e+00	0	65	0
2025-01-13 11:48:59.19	260.18	21.64	-50.4	-52.9	14.5	0.00e+00	0	65	0
2025-01-13 11:49:00.20	260.57	21.66	-50.2	-52.6	14.5	0.00e+00	0	65	0
2025-01-13 11:49:01.09	260.92	21.68	-50.2	-52.7	14.5	0.00e+00	0	65	0
2025-01-13 11:49:02.10	261.32	21.70	-50.2	-52.6	14.4	0.00e+00	0	65	0
2025-01-13 11:49:02.99	261.68	21.72	-50.3	-52.8	14.4	0.00e+00	0	65	0
2025-01-13 11:49:04.00	262.08	21.74	-50.2	-52.6	14.4	0.00e+00	0	65	0
2025-01-13 11:49:04.89	262.43	21.75	-50.3	-52.7	14.5	0.00e+00	0	65	0
2025-01-13 11:49:05.90	262.83	21.77	-50.3	-52.8	14.4	0.00e+00	0	65	0
2025-01-13 11:49:06.79	263.18	21.78	-50.2	-52.7	14.4	0.00e+00	0	65	0
2025-01-13 11:49:07.80	263.59	21.80	-50.2	-52.6	14.5	0.00e+00	0	65	0
2025-01-13 11:49:08.69	263.94	21.81	-50.3	-52.8	14.5	0.00e+00	0	66	0
2025-01-13 11:49:09.70	264.34	21.82	-50.2	-52.6	14.5	0.00e+00	0	66	0
2025-01-13 11:49:10.59	264.70	21.83	-50.2	-52.6	14.5	0.00e+00	0	66	0
2025-01-13 11:49:11.60	265.10	21.84	-50.3	-52.8	14.5	0.00e+00	0	66	0
2025-01-13 11:49:12.49	265.46	21.85	-50.2	-52.7	14.5	0.00e+00	0	66	0
2025-01-13 11:49:13.49	265.86	21.85	-50.2	-52.5	14.5	0.00e+00	0	66	0
2025-01-13 11:49:14.39	266.22	21.86	-50.2	-52.5	14.5	0.00e+00	0	66	0
2025-01-13 11:49:15.39	266.62	21.86	-50.2	-52.7	14.5	0.00e+00	0	66	0
2025-01-13 11:49:16.28	266.97	21.86	-50.2	-52.5	14.5	0.00e+00	0	66	0
2025-01-13 11:49:17.29	267.38	21.87	-50.2	-52.7	14.5	0.00e+00	0	66	0
2025-01-13 11:49:18.18	267.73	21.87	-50.3	-52.8	14.4	0.00e+00	0	66	0
2025-01-13 11:49:19.19	268.14	21.87	-50.3	-52.8	14.5	0.00e+00	0	66	0
2025-01-13 11:49:20.08	268.49	21.86	-50.7	-53.6	14.4	0.00e+00	0	66	0
2025-01-13 11:49:21.09	268.90	21.86	-51.7	-55.2	14.0	0.00e+00	0	66	0
2025-01-13 11:49:21.98	269.25	21.86	-51.8	-54.7	14.0	6.90e-06	0	66	0
2025-01-13 11:49:22.99	269.66	21.85	-51.7	-54.7	14.0	0.00e+00	0	66	0
2025-01-13 11:49:23.88	270.01	21.85	-51.7	-54.7	14.0	0.00e+00	0	66	0
2025-01-13 11:49:24.89	270.41	21.84	-51.7	-54.6	14.0	0.00e+00	0	66	0
2025-01-13 11:49:25.78	270.77	21.83	-51.6	-54.5	14.1	6.90e-06	0	66	0
2025-01-13 11:49:26.79	271.17	21.82	-51.5	-54.3	14.2	0.00e+00	0	66	0
2025-01-13 11:49:27.68	271.53	21.81	-51.6	-54.4	14.2	0.00e+00	0	66	0
2025-01-13 11:49:28.69	271.93	21.80	-51.6	-54.4	14.2	0.00e+00	0	67	0
2025-01-13 11:49:29.58	272.28	21.78	-51.7	-54.7	14.1	0.00e+00	0	67	0
2025-01-13 11:49:30.59	272.68	21.77	-51.9	-55.0	14.0	0.00e+00	0	67	0
2025-01-13 11:49:31.48	273.04	21.75	-51.8	-54.8	13.9	0.00e+00	0	67	0
2025-01-13 11:49:32.49	273.44	21.73	-51.7	-54.7	13.9	6.90e-06	0	67	0
2025-01-13 11:49:33.38	273.79	21.72	-51.8	-54.8	13.8	0.00e+00	0	67	0
2025-01-13 11:49:34.39	274.19	21.70	-51.8	-54.8	13.9	6.90e-06	0	67	0
2025-01-13 11:49:35.28	274.54	21.68	-51.7	-54.6	13.9	0.00e+00	0	67	0
2025-01-13 11:49:36.28	274.93	21.66	-51.7	-54.6	14.0	0.00e+00	0	67	0
2025-01-13 11:49:37.18	275.29	21.63	-51.8	-54.8	13.9	6.90e-06	0	67	0
2025-01-13 11:49:38.18	275.68	21.61	-51.6	-54.3	14.0	6.90e-06	0	67	0
2025-01-13 11:49:39.08	276.03	21.59	-51.5	-54.2	14.1	0.00e+00	0	67	0
2025-01-13 11:49:40.08	276.42	21.56	-51.7	-54.6	14.1	0.00e+00	0	67	0
2025-01-13 11:49:40.97	276.77	21.53	-51.7	-54.7	14.0	0.00e+00	0	67	0
2025-01-13 11:49:41.98	277.16	21.50	-51.5	-54.3	14.1	0.00e+00	0	67	0
2025-01-13 11:49:42.87	277.51	21.48	-51.6	-54.5	14.1	1.38e-05	0	67	0
2025-01-13 11:49:43.88	277.90	21.45	-51.8	-54.9	14.0	0.00e+00	0	67	0
2025-01-13 11:49:44.77	278.25	21.42	-51.7	-54.5	14.1	0.00e+00	0	67	0
2025-01-13 11:49:45.78	278.64	21.38	-51.6	-54.4	14.1	0.00e+00	0	67	0
2025-01-13 11:49:46.67	278.98	21.35	-51.7	-54.6	14.0	0.00e+00	0	67	0
2025-01-13 11:49:47.68	279.37	21.32	-51.7	-54.5	13.9	0.00e+00	0	67	0
2025-01-13 11:49:48.57	279.71	21.28	-51.5	-54.3	14.0	6.90e-06	0	67	0
2025-01-13 11:49:49.58	280.10	21.24	-51.7	-54.6	13.9	0.00e+00	0	67	0
2025-01-13 11:49:50.47	280.43	21.21	-51.6	-54.3	14.0	1.38e-05	0	67	0
2025-01-13 11:49:51.48	280.82	21.17	-51.4	-54.0	14.1	1.38e-05	0	68	0
2025-01-13 11:49:52.37	281.16	21.13	-51.3	-53.9	14.2	0.00e+00	0	68	0
2025-01-13 11:49:53.38	281.54	21.09	-51.4	-53.9	14.1	0.00e+00	0	68	0
2025-01-13 11:49:54.27	281.87	21.05	-51.2	-53.7	14.1	0.00e+00	0	68	0
2025-01-13 11:49:55.28	282.25	21.01	-51.2	-53.6	14.1	0.00e+00	0	68	0
2025-01-13 11:49:56.17	282.59	20.97	-51.4	-54.0	14.0	0.00e+00	0	68	0
2025-01-13 11:49:57.18	282.96	20.92	-51.5	-54.1	14.0	6.90e-06	0	68	0
2025-01-13 11:49:58.07	283.30	20.88	-51.2	-53.6	14.1	0.00e+00	0	68	0
2025-01-13 11:49:59.07	283.67	20.83	-51.3	-53.8	14.1	0.00e+00	0	68	0
2025-01-13 11:49:59.97	284.00	20.79	-51.3	-53.9	14.2	6.90e-06	0	68	0
2025-01-13 11:50:00.97	284.37	20.74	-51.4	-54.0	14.1	0.00e+00	0	68	0
2025-01-13 11:50:01.86	284.70	20.69	-51.4	-54.1	14.0	0.00e+00	0	68	0
2025-01-13 11:50:02.87	285.07	20.64	-51.5	-54.3	13.9	0.00e+00	0	68	0
2025-01-13 11:50:03.76	285.39	20.59	-51.5	-54.1	13.9	0.00e+00	0	68	0
2025-01-13 11:50:04.77	285.76	20.54	-51.3	-53.8	13.9	0.00e+00	0	68	0
2025-01-13 11:50:05.66	286.08	20.49	-51.4	-53.9	14.0	0.00e+00	0	68	0
2025-01-13 11:50:06.67	286.44	20.43	-51.4	-54.0	14.0	0.00e+00	0	68	0
2025-01-13 11:50:07.56	286.76	20.39	-51.4	-54.0	14.0	0.00e+00	0	68	0
2025-01-13 11:50:08.57	287.13	20.33	-51.3	-53.9	14.0	0.00e+00	0	68	0
2025-01-13 11:50:09.46	287.44	20.28	-51.4	-54.1	14.0	0.00e+00	0	68	0
2025-01-13 11:50:10.47	287.80	20.22	-51.5	-54.2	14.0	0.00e+00	0	68	0
2025-01-13 11:50:11.36	288.12	20.17	-51.6	-54.4	13.9	0.00e+00	0	68	0
2025-01-13 11:50:12.37	288.47	20.10	-51.7	-54.7	13.7	0.00e+00	0	68	0
2025-01-13 11:50:13.26	288.78	20.05	-51.8	-54.9	13.6	0.00e+00	0	68	0
2025-01-13 11:50:14.27	289.14	19.99	-51.8	-54.8	13.7	0.00e+00	0	68	0
2025-01-13 11:50:15.16	289.45	19.93	-52.0	-55.2	13.6	6.90e-06	0	68	0
2025-01-13 11:50:16.17	289.79	19.87	-52.0	-55.3	13.7	0.00e+00	0	68	0
2025-01-13 11:50:17.06	290.10	19.81	-52.1	-55.5	13.7	0.00e+00	0	68	0
2025-01-13 11:50:18.07	290.45	19.75	-51.9	-55.1	13.7	2.08e-05	0	69	0
2025-01-13 11:50:18.96	290.75	19.69	-52.0	-55.2	13.7	0.00e+00	0	68	0
2025-01-13 11:50:19.96	291.09	19.63	-52.0	-55.3	13.7	0.00e+00	0	69	0
2025-01-13 11:50:20.86	291.40	19.57	-52.1	-55.5	13.7	6.90e-06	0	69	0
2025-01-13 11:50:21.86	291.73	19.50	-52.1	-55.5	13.7	0.00e+00	0	69	0
2025-01-13 11:50:22.75	292.03	19.44	-52.2	-55.6	13.6	1.38e-05	0	69	0
2025-01-13 11:50:23.76	292.37	19.37	-52.3	-55.4	13.6	1.38e-05	0	69	0
2025-01-13 11:50:24.65	292.66	19.31	-52.5	-55.7	13.5	1.38e-05	0	69	0
2025-01-13 11:50:25.66	293.00	19.24	-52.3	-55.4	13.6	0.00e+00	0	69	0
2025-01-13 11:50:26.55	293.29	19.18	-52.2	-55.1	13.6	6.90e-06	0	69	0
2025-01-13 11:50:27.56	293.62	19.11	-52.2	-55.2	13.4	6.90e-06	0	69	0
2025-01-13 11:50:28.45	293.91	19.04	-52.3	-55.2	13.4	1.38e-05	0	69	0
2025-01-13 11:50:29.46	294.24	18.97	-52.3	-55.3	13.4	0.00e+00	0	69	0
2025-01-13 11:50:30.35	294.52	18.91	-52.2	-55.1	13.6	6.90e-06	0	69	0
2025-01-13 11:50:31.36	294.85	18.83	-52.1	-55.0	13.6	0.00e+00	0	69	0
2025-01-13 11:50:32.25	295.13	18.77	-52.2	-55.1	13.7	6.90e-06	0	69	0
2025-01-13 11:50:33.26	295.45	18.70	-51.8	-54.4	13.9	0.00e+00	0	69	0
2025-01-13 11:50:34.15	295.73	18.63	-51.7	-54.2	13.9	2.08e-05	0	69	0
2025-01-13 11:50:35.16	296.05	18.55	-51.7	-54.1	13.9	0.00e+00	0	69	0
2025-01-13 11:50:36.05	296.33	18.49	-51.7	-54.0	13.9	0.00e+00	0	69	0
2025-01-13 11:50:37.06	296.64	18.41	-51.7	-54.1	13.9	0.00e+00	0	69	0
2025-01-13 11:50:37.95	296.92	18.35	-51.7	-54.1	14.0	0.00e+00	0	69	0
2025-01-13 11:50:38.96	297.23	18.27	-51.8	-54.3	14.0	0.00e+00	0	69	0
2025-01-13 11:50:39.85	297.50	18.20	-52.0	-54.7	13.8	0.00e+00	0	69	0
2025-01-13 11:50:40.86	297.81	18.12	-51.9	-54.6	13.8	0.00e+00	0	69	0
2025-01-13 11:50:41.75	298.08	18.05	-52.0	-54.7	13.8	6.90e-06	0	69	0
2025-01-13 11:50:42.75	298.38	17.98	-52.1	-54.9	13.9	0.00e+00	0	69	0
2025-01-13 11:50:43.65	298.65	17.91	-52.1	-54.9	13.8	0.00e+00	0	69	0
2025-01-13 11:50:44.65	298.94	17.83	-52.1	-54.9	13.8	0.00e+00	0	69	0
2025-01-13 11:50:45.54	299.21	17.76	-52.2	-55.1	13.8	0.00e+00	0	69	0
2025-01-13 11:50:46.55	299.51	17.68	-52.2	-55.1	13.7	6.90e-06	0	69	0
2025-01-13 11:50:47.44	299.77	17.61	-52.2	-55.2	13.7	1.38e-05	0	69	0
2025-01-13 11:50:48.45	300.06	17.53	-52.4	-55.6	13.6	2.08e-05	0	69	0
2025-01-13 11:50:49.34	300.32	17.46	-52.5	-55.6	13.6	3.46e-05	0	69	0
2025-01-13 11:50:50.35	300.61	17.38	-52.5	-55.7	13.6	0.00e+00	0	69	0
2025-01-13 11:50:51.24	300.86	17.30	-52.5	-55.8	13.6	6.90e-06	0	70	0
2025-01-13 11:50:52.25	301.15	17.22	-52.6	-56.0	13.5	6.90e-06	0	69	0
2025-01-13 11:50:53.14	301.40	17.15	-52.6	-55.9	13.5	0.00e+00	0	70	0
2025-01-13 11:50:54.15	301.68	17.07	-52.6	-55.9	13.5	0.00e+00	0	70	0
2025-01-13 11:50:55.04	301.93	17.00	-52.7	-56.1	13.5	1.38e-05	0	70	0
2025-01-13 11:50:56.05	302.21	16.91	-52.7	-56.2	13.4	6.90e-06	0	70	0
2025-01-13 11:50:56.94	302.46	16.84	-52.9	-56.0	13.3	6.90e-06	0	70	0
2025-01-13 11:50:57.95	302.74	16.76	-52.9	-56.0	13.3	2.77e-05	0	70	0
2025-01-13 11:50:58.84	302.98	16.68	-52.9	-56.0	13.4	6.90e-06	0	70	0
2025-01-13 11:50:59.85	303.25	16.60	-53.0	-56.2	13.4	3.46e-05	0	70	0
2025-01-13 11:51:00.74	303.49	16.53	-52.9	-56.1	13.4	6.90e-06	0	70	0
2025-01-13 11:51:01.75	303.76	16.44	-53.0	-56.2	13.3	6.90e-06	0	70	0
2025-01-13 11:51:02.64	304.00	16.37	-52.9	-56.1	13.2	2.08e-05	0	70	0
2025-01-13 11:51:03.64	304.26	16.29	-52.8	-55.9	13.2	2.08e-05	0	70	0
2025-01-13 11:51:04.54	304.50	16.21	-52.7	-55.7	13.3	1.38e-05	0	70	0
2025-01-13 11:51:05.54	304.76	16.13	-52.7	-55.5	13.4	3.46e-05	0	70	0
2025-01-13 11:51:06.44	305.00	16.05	-52.6	-55.3	13.5	1.38e-05	0	70	0
2025-01-13 11:51:07.44	305.26	15.97	-52.6	-55.4	13.5	0.00e+00	0	70	0
2025-01-13 11:51:08.33	305.48	15.90	-52.6	-55.3	13.5	0.00e+00	0	70	0
2025-01-13 11:51:09.34	305.74	15.81	-52.5	-55.3	13.5	6.90e-06	0	70	0
2025-01-13 11:51:10.23	305.97	15.74	-52.5	-55.3	13.5	0.00e+00	0	70	0
2025-01-13 11:51:11.24	306.22	15.65	-52.6	-55.5	13.5	0.00e+00	0	70	0
2025-01-13 11:51:12.13	306.45	15.58	-52.5	-55.2	13.6	6.90e-06	0	70	0
2025-01-13 11:51:13.14	306.70	15.49	-52.6	-55.4	13.6	1.38e-05	0	70	0
2025-01-13 11:51:14.03	306.92	15.42	-52.5	-55.3	13.6	0.00e+00	0	70	0
2025-01-13 11:51:15.04	307.17	15.33	-52.6	-55.5	13.5	1.38e-05	0	70	0
2025-01-13 11:51:15.93	307.38	15.26	-52.9	-56.0	13.4	6.90e-06	0	70	0
2025-01-13 11:51:16.94	307.63	15.17	-53.0	-56.2	13.3	1.38e-05	0	70	0
2025-01-13 11:51:17.83	307.84	15.10	-53.0	-56.2	13.3	0.00e+00	0	70	0
2025-01-13 11:51:18.84	308.09	15.01	-53.2	-56.5	13.2	1.38e-05	0	70	0
2025-01-13 11:51:19.73	308.30	14.94	-53.2	-56.6	13.2	0.00e+00	0	70	0
2025-01-13 11:51:20.74	308.54	14.85	-53.3	-56.4	13.2	6.90e-06	0	70	0
2025-01-13 11:51:21.63	308.75	14.77	-53.3	-56.4	13.2	6.90e-06	0	70	0
2025-01-13 11:51:22.64	308.98	14.69	-53.3	-56.4	13.2	2.08e-05	0	70	0
2025-01-13 11:51:23.53	309.19	14.61	-53.3	-56.4	13.1	2.08e-05	0	71	0
2025-01-13 11:51:24.54	309.42	14.53	-53.5	-56.7	13.0	4.85e-05	0	71	0
2025-01-13 11:51:25.43	309.63	14.45	-53.7	-57.1	12.9	2.77e-05	0	70	0
2025-01-13 11:51:26.43	309.86	14.37	-53.9	-57.1	12.8	8.32e-05	0	71	0
2025-01-13 11:51:27.33	310.06	14.29	-54.0	-57.2	12.7	9.71e-05	0	71	0
2025-01-13 11:51:28.33	310.29	14.21	-53.8	-56.9	12.8	4.85e-05	0	70	0
2025-01-13 11:51:29.22	310.49	14.13	-53.8	-56.8	12.8	4.85e-05	0	70	0
2025-01-13 11:51:30.23	310.71	14.05	-53.8	-56.9	12.8	8.32e-05	0	71	0
2025-01-13 11:51:31.12	310.91	13.97	-53.8	-56.9	12.9	6.93e-05	0	70	0
2025-01-13 11:51:32.13	311.13	13.89	-53.9	-57.0	12.8	6.93e-05	0	71	0
2025-01-13 11:51:33.02	311.33	13.81	-67.4	-73.5	3.7	6.93e-05	0	70	104
2025-01-13 11:51:34.03	311.54	13.72	-67.5	-73.5	3.6	6.93e-05	0	70	104
2025-01-13 11:51:34.92	311.74	13.65	-67.6	-73.6	3.6	6.93e-05	0	70	104
2025-01-13 11:51:35.93	311.95	13.56	-67.6	-73.6	3.7	6.93e-05	0	70	104
2025-01-13 11:51:36.82	312.14	13.49	-67.6	-73.5	3.6	6.93e-05	0	70	104
2025-01-13 11:51:37.83	312.36	13.40	-67.6	-73.6	3.7	6.93e-05	0	70	104
2025-01-13 11:51:38.72	312.54	13.33	-67.7	-73.7	3.6	6.93e-05	0	70	104
2025-01-13 11:51:39.73	312.76	13.24	-67.7	-73.8	3.7	6.93e-05	0	70	104
2025-01-13 11:51:40.62	312.94	13.17	-67.7	-73.8	3.6	6.93e-05	0	70	104
2025-01-13 11:51:41.63	313.15	13.08	-67.7	-73.8	3.7	6.93e-05	0	70	104
2025-01-13 11:51:42.52	313.33	13.01	-67.5	-73.5	3.7	6.93e-05	0	70	104
2025-01-13 11:51:43.53	313.54	12.93	-67.4	-73.4	3.6	6.93e-05	0	70	104
2025-01-13 11:51:44.42	313.72	12.85	-67.4	-73.4	3.7	6.93e-05	0	70	104
2025-01-13 11:51:45.43	313.92	12.77	-67.5	-73.5	3.6	6.93e-05	0	70	104
2025-01-13 11:51:46.32	314.10	12.69	-67.6	-73.6	3.7	6.93e-05	0	70	104
2025-01-13 11:51:47.32	314.30	12.61	-67.7	-73.6	3.7	6.93e-05	0	70	104
2025-01-13 11:51:48.22	314.48	12.53	-67.6	-73.4	3.7	6.93e-05	0	70	104
2025-01-13 11:51:49.22	314.67	12.45	-67.5	-73.3	3.7	6.93e-05	0	70	104
2025-01-13 11:51:50.11	314.85	12.38	-67.4	-73.2	3.7	6.93e-05	0	70	104
2025-01-13 11:51:51.12	315.04	12.29	-67.4	-73.3	3.7	0.00e+00	0	70	104
2025-01-13 11:51:52.01	315.21	12.22	-67.5	-73.4	3.6	0.00e+00	0	70	104
2025-01-13 11:51:53.02	315.41	12.13	-67.6	-73.6	3.6	0.00e+00	0	70	104
2025-01-13 11:51:53.91	315.58	12.06	-67.6	-73.7	3.6	0.00e+00	0	70	104
2025-01-13 11:51:54.92	315.77	11.98	-67.7	-73.8	3.6	0.00e+00	0	70	104
2025-01-13 11:51:55.81	315.93	11.90	-67.7	-73.8	3.7	0.00e+00	0	70	104
2025-01-13 11:51:56.82	316.12	11.82	-67.7	-73.9	3.6	0.00e+00	0	70	104
2025-01-13 11:51:57.71	316.29	11.75	-67.7	-73.8	3.7	0.00e+00	0	70	104
2025-01-13 11:51:58.72	316.47	11.66	-67.6	-73.7	3.7	0.00e+00	0	70	104
2025-01-13 11:51:59.61	316.64	11.59	-67.6	-73.7	3.7	0.00e+00	0	70	104
2025-01-13 11:52:00.62	316.82	11.51	-67.6	-73.6	3.7	0.00e+00	0	70	104
2025-01-13 11:52:01.51	316.98	11.44	-67.6	-73.6	3.6	0.00e+00	0	70	104
2025-01-13 11:52:02.52	317.16	11.35	-67.6	-73.6	3.7	0.00e+00	0	70	104
2025-01-13 11:52:03.41	317.32	11.28	-67.6	-73.5	3.6	0.00e+00	0	70	104
2025-01-13 11:52:04.42	317.50	11.20	-67.5	-73.3	3.6	0.00e+00	0	70	104
2025-01-13 11:52:05.31	317.66	11.13	-67.5	-73.2	3.6	0.00e+00	0	70	104
2025-01-13 11:52:06.32	317.84	11.04	-67.5	-73.1	3.6	0.00e+00	0	70	104
2025-01-13 11:52:07.21	317.99	10.97	-67.5	-73.1	3.7	0.00e+00	0	70	104
2025-01-13 11:52:08.21	318.17	10.89	-67.5	-73.2	3.6	0.00e+00	0	70	104
2025-01-13 11:52:09.11	318.32	10.82	-67.5	-73.3	3.7	0.00e+00	0	70	104
2025-01-13 11:52:10.11	318.49	10.74	-67.6	-73.4	3.6	0.00e+00	0	71	104
2025-01-13 11:52:11.00	318.64	10.67	-67.6	-73.5	3.7	0.00e+00	0	70	104
2025-01-13 11:52:12.01	318.82	10.58	-67.6	-73.6	3.7	0.00e+00	0	70	104
2025-01-13 11:52:12.90	318.96	10.51	-67.6	-73.6	3.7	0.00e+00	0	70	104
2025-01-13 11:52:13.91	319.13	10.43	-67.6	-73.6	3.7	0.00e+00	0	70	104
2025-01-13 11:52:14.80	319.28	10.36	-67.6	-73.6	3.6	0.00e+00	0	70	104
2025-01-13 11:52:15.81	319.45	10.28	-67.5	-73.6	3.6	0.00e+00	0	70	104
2025-01-13 11:52:16.70	319.59	10.21	-67.4	-73.5	3.6	0.00e+00	0	70	104
2025-01-13 11:52:17.71	319.76	10.13	-67.3	-73.3	3.6	0.00e+00	0	70	104
2025-01-13 11:52:18.60	319.90	10.06	-67.2	-73.2	3.7	0.00e+00	0	70	104
2025-01-13 11:52:19.61	320.07	9.98	-67.2	-73.2	3.6	0.00e+00	0	70	104
2025-01-13 11:52:20.50	320.21	9.91	-67.2	-73.1	3.7	0.00e+00	0	70	104
2025-01-13 11:52:21.51	320.37	9.83	-67.2	-73.0	3.6	0.00e+00	0	70	104
2025-01-13 11:52:22.40	320.51	9.76	-67.3	-73.0	3.6	0.00e+00	0	70	104
2025-01-13 11:52:23.41	320.67	9.68	-67.4	-73.0	3.7	0.00e+00	0	70	104
2025-01-13 11:52:24.30	320.81	9.61	-67.4	-73.0	3.6	0.00e+00	0	70	104
2025-01-13 11:52:25.31	320.96	9.53	-67.5	-73.1	3.7	0.00e+00	0	70	104
2025-01-13 11:52:26.20	321.10	9.46	-67.5	-73.2	3.6	0.00e+00	0	71	104
2025-01-13 11:52:27.21	321.26	9.38	-67.5	-73.3	3.6	0.00e+00	0	70	104
2025-01-13 11:52:28.10	321.39	9.31	-67.5	-73.3	3.6	0.00e+00	0	70	104
2025-01-13 11:52:29.10	321.54	9.24	-67.5	-73.3	3.6	0.00e+00	0	70	104
2025-01-13 11:52:30.00	321.68	9.17	-67.5	-73.4	3.7	0.00e+00	0	70	104
2025-01-13 11:52:31.00	321.83	9.09	-67.5	-73.4	3.6	0.00e+00	0	71	104
2025-01-13 11:52:31.90	321.96	9.02	-67.6	-73.5	3.7	0.00e+00	0	71	104
2025-01-13 11:52:32.90	322.11	8.94	-67.6	-73.4	3.6	0.00e+00	0	70	104
2025-01-13 11:52:33.79	322.24	8.87	-67.5	-73.3	3.7	0.00e+00	0	70	104
2025-01-13 11:52:34.80	322.39	8.80	-67.5	-73.3	3.7	0.00e+00	0	70	104
2025-01-13 11:52:35.69	322.52	8.73	-67.4	-73.2	3.6	0.00e+00	0	71	104
2025-01-13 11:52:36.70	322.67	8.65	-67.5	-73.3	3.7	0.00e+00	0	70	104
2025-01-13 11:52:37.59	322.79	8.58	-67.5	-73.3	3.6	0.00e+00	0	71	104
2025-01-13 11:52:38.60	322.94	8.51	-67.5	-73.3	3.6	0.00e+00	0	70	104
2025-01-13 11:52:39.49	323.07	8.44	-67.5	-73.3	3.6	0.00e+00	0	71	104
2025-01-13 11:52:40.50	323.21	8.36	-67.5	-73.3	3.6	0.00e+00	0	70	104
2025-01-13 11:52:41.39	323.33	8.30	-67.4	-73.1	3.7	0.00e+00	0	71	104
2025-01-13 11:52:42.40	323.47	8.22	-67.4	-73.0	3.6	0.00e+00	0	71	104
2025-01-13 11:52:43.29	323.60	8.15	-67.3	-72.9	3.7	0.00e+00	0	71	104
2025-01-13 11:52:44.30	323.74	8.08	-67.3	-72.9	3.6	0.00e+00	0	71	104
2025-01-13 11:52:45.19	323.86	8.01	-67.4	-73.2	3.7	0.00e+00	0	71	104
2025-01-13 11:52:46.20	324.00	7.93	-67.1	-72.3	3.7	0.00e+00	0	70	104

#Closed at: 2025-01-13 11:52:46
#Recorded file [19503 MB]: D:/data/31015_250113_235132.dat