passes_logs/2026/01/17/T1/T1__20260117_034105_AQUA_rec.log

#Pass ID: 20260117_034105_AQUA
#Satellite: AQUA
#Configuration: AQUA
#almurnet v.1.7.20251203
#Start time: 2026-01-17 03:41:07

#Version: 2.0.20230620
#Station: T1
#Location: 37.570604 lon 55.790049 lat
#TLE: 1 27424U 02022A   26016.26443506  .00000711  00000+0  15228-3 0  9999
#TLE: 2 27424  98.4083 342.7130 0002022  76.7284  27.4473 14.61823291261073

#Time	Az	El	Level	Level2	SNR	BER	BlckErr	Temp	State	Recorded	gain1	gain2
2026-01-17 03:41:07.93	355.07	5.11	-50.3	-71.6	3.8	7.43e-01	0	41	0	0	72	41170
2026-01-17 03:41:08.92	354.94	5.16	-50.3	-71.6	3.8	7.45e-01	0	41	104	0	71	43716
2026-01-17 03:41:09.91	354.80	5.20	-50.3	-71.6	3.8	7.46e-01	0	41	104	0	71	43761
2026-01-17 03:41:10.91	354.67	5.25	-50.3	-71.6	3.8	7.48e-01	0	41	104	0	71	43729
2026-01-17 03:41:11.90	354.53	5.30	-50.3	-71.6	3.8	7.46e-01	0	41	104	0	71	43782
2026-01-17 03:41:12.89	354.40	5.34	-50.3	-71.6	3.8	7.49e-01	0	41	104	0	71	43773
2026-01-17 03:41:13.89	354.26	5.39	-50.3	-71.6	3.8	7.47e-01	0	41	104	0	71	43679
2026-01-17 03:41:14.88	354.13	5.43	-50.3	-71.6	3.8	7.46e-01	0	41	104	0	71	43735
2026-01-17 03:41:15.88	353.99	5.48	-50.3	-71.6	3.8	7.47e-01	0	41	104	0	71	43752
2026-01-17 03:41:16.87	353.85	5.52	-50.3	-71.6	3.8	7.46e-01	0	41	104	0	71	43762
2026-01-17 03:41:17.86	353.71	5.57	-50.3	-71.6	3.8	7.45e-01	0	41	104	0	71	43775
2026-01-17 03:41:18.86	353.58	5.62	-50.3	-71.6	3.8	7.49e-01	0	41	104	0	71	43756
2026-01-17 03:41:19.85	353.44	5.66	-50.3	-71.6	3.8	7.44e-01	0	41	104	0	71	43738
2026-01-17 03:41:20.84	353.30	5.71	-50.3	-71.6	3.8	7.47e-01	0	41	104	0	71	43700
2026-01-17 03:41:21.84	353.16	5.75	-50.3	-71.6	3.8	7.43e-01	0	41	104	0	71	43724
2026-01-17 03:41:22.83	353.02	5.80	-50.3	-71.6	3.8	7.46e-01	0	41	104	0	71	43688
2026-01-17 03:41:23.82	352.88	5.84	-50.3	-71.6	3.8	7.47e-01	0	41	104	0	71	43734
2026-01-17 03:41:24.82	352.73	5.89	-50.3	-71.6	3.8	7.45e-01	0	41	104	0	71	43750
2026-01-17 03:41:25.81	352.59	5.93	-50.3	-71.6	3.8	7.44e-01	0	42	104	0	71	43825
2026-01-17 03:41:26.80	352.45	5.98	-50.3	-71.6	3.8	7.48e-01	0	41	104	0	71	43783
2026-01-17 03:41:27.80	352.31	6.02	-50.3	-71.6	3.8	7.45e-01	0	42	104	0	71	43696
2026-01-17 03:41:28.79	352.17	6.07	-50.3	-71.6	3.8	7.46e-01	0	42	104	0	71	43768
2026-01-17 03:41:29.78	352.02	6.11	-50.3	-71.6	3.8	7.43e-01	0	42	104	0	71	43681
2026-01-17 03:41:30.78	351.88	6.16	-50.3	-71.6	3.8	7.47e-01	0	41	104	0	71	43682
2026-01-17 03:41:31.77	351.73	6.20	-50.3	-71.6	3.8	7.48e-01	0	42	104	0	71	43682
2026-01-17 03:41:32.76	351.59	6.25	-50.3	-71.6	3.8	7.42e-01	0	42	104	0	71	43651
2026-01-17 03:41:33.76	351.44	6.29	-50.3	-71.6	3.8	7.47e-01	0	42	104	0	71	43636
2026-01-17 03:41:34.75	351.29	6.34	-50.3	-71.6	3.8	7.47e-01	0	42	104	0	71	43742
2026-01-17 03:41:35.75	351.15	6.38	-50.3	-71.6	3.8	7.48e-01	0	42	104	0	71	43627
2026-01-17 03:41:36.74	351.00	6.42	-50.3	-71.6	3.8	7.45e-01	0	42	104	0	71	43624
2026-01-17 03:41:37.73	350.85	6.47	-50.3	-71.6	3.8	7.45e-01	0	42	104	0	71	43671
2026-01-17 03:41:38.72	350.71	6.51	-50.2	-71.6	3.8	7.46e-01	0	42	104	0	71	43654
2026-01-17 03:41:39.72	350.56	6.56	-50.3	-71.6	3.8	7.44e-01	0	42	104	0	71	43590
2026-01-17 03:41:40.71	350.41	6.60	-50.3	-71.6	3.8	7.46e-01	0	42	104	0	71	43632
2026-01-17 03:41:41.70	350.26	6.64	-50.3	-71.6	3.8	7.49e-01	0	42	104	0	71	43586
2026-01-17 03:41:42.70	350.11	6.69	-50.3	-71.6	3.8	7.44e-01	0	42	104	0	71	43677
2026-01-17 03:41:43.69	349.96	6.73	-50.3	-71.6	3.8	7.43e-01	0	42	104	0	71	43591
2026-01-17 03:41:44.68	349.81	6.78	-50.3	-71.6	3.8	7.48e-01	0	42	104	0	71	43669
2026-01-17 03:41:45.68	349.65	6.82	-50.3	-71.6	3.8	7.49e-01	0	42	104	0	71	43626
2026-01-17 03:41:46.67	349.50	6.86	-50.3	-71.6	3.8	7.48e-01	0	42	104	0	71	43635
2026-01-17 03:41:47.67	349.35	6.91	-50.3	-71.6	3.8	7.44e-01	0	42	104	0	71	43675
2026-01-17 03:41:48.66	349.19	6.95	-50.3	-71.6	3.8	7.43e-01	0	42	104	0	71	43640
2026-01-17 03:41:49.65	349.04	6.99	-50.3	-71.6	3.8	7.44e-01	0	42	104	0	71	43608
2026-01-17 03:41:50.64	348.89	7.04	-50.3	-71.6	3.8	7.45e-01	0	42	104	0	71	43630
2026-01-17 03:41:51.64	348.73	7.08	-50.3	-71.6	3.8	7.44e-01	0	42	104	0	71	43601
2026-01-17 03:41:52.63	348.58	7.12	-50.3	-71.6	3.8	7.43e-01	0	42	104	0	71	43614
2026-01-17 03:41:53.62	348.42	7.16	-50.3	-71.6	3.8	7.48e-01	0	42	104	0	71	43634
2026-01-17 03:41:54.62	348.26	7.21	-50.3	-71.6	3.8	7.46e-01	0	42	104	0	71	43636
2026-01-17 03:41:55.61	348.11	7.25	-50.3	-71.6	3.8	7.47e-01	0	42	104	0	71	43613
2026-01-17 03:41:56.60	347.95	7.29	-50.3	-71.6	3.8	7.46e-01	0	42	104	0	71	43656
2026-01-17 03:41:57.60	347.79	7.33	-50.3	-71.6	3.8	7.41e-01	0	42	104	0	71	43527
2026-01-17 03:41:58.59	347.63	7.38	-50.3	-71.6	3.8	7.46e-01	0	42	104	0	71	43632
2026-01-17 03:41:59.58	347.48	7.42	-50.3	-71.6	3.8	7.46e-01	0	42	104	0	71	43578
2026-01-17 03:42:00.58	347.31	7.46	-50.3	-71.6	3.8	7.48e-01	0	43	104	0	71	43672
2026-01-17 03:42:01.57	347.16	7.50	-50.3	-71.6	3.8	7.46e-01	0	42	104	0	71	43528
2026-01-17 03:42:02.56	347.00	7.54	-50.3	-71.6	3.8	7.45e-01	0	42	104	0	71	43507
2026-01-17 03:42:03.56	346.83	7.58	-50.3	-71.6	3.8	7.48e-01	0	43	104	0	71	43541
2026-01-17 03:42:04.55	346.67	7.63	-50.3	-71.6	3.8	7.46e-01	0	42	104	0	71	43653
2026-01-17 03:42:05.54	346.51	7.67	-50.3	-71.6	3.8	7.47e-01	0	43	104	0	71	43582
2026-01-17 03:42:06.53	346.35	7.71	-50.3	-71.6	3.8	7.44e-01	0	43	104	0	71	43542
2026-01-17 03:42:07.53	346.19	7.75	-50.3	-71.5	3.8	7.46e-01	0	42	104	0	71	43385
2026-01-17 03:42:08.52	346.02	7.79	-50.3	-71.6	3.8	7.42e-01	0	42	104	0	71	43476
2026-01-17 03:42:09.52	345.86	7.83	-50.3	-71.6	3.8	7.45e-01	0	43	104	0	71	43456
2026-01-17 03:42:10.51	345.69	7.87	-50.3	-71.5	3.8	7.46e-01	0	42	104	0	71	43245
2026-01-17 03:42:11.50	345.53	7.91	-50.3	-71.5	3.8	7.45e-01	0	43	104	0	71	43255
2026-01-17 03:42:12.50	345.36	7.95	-50.3	-71.5	3.8	7.45e-01	0	43	104	0	71	43199
2026-01-17 03:42:13.49	345.20	7.99	-50.3	-71.5	3.8	7.47e-01	0	43	104	0	71	43207
2026-01-17 03:42:14.48	345.03	8.03	-50.3	-71.5	3.8	7.45e-01	0	43	104	0	71	43294
2026-01-17 03:42:15.48	344.86	8.07	-50.3	-71.5	3.8	7.45e-01	0	43	104	0	71	43372
2026-01-17 03:42:16.47	344.70	8.11	-50.3	-71.6	3.8	7.44e-01	0	42	104	0	71	43448
2026-01-17 03:42:17.46	344.53	8.15	-50.3	-71.6	3.8	7.45e-01	0	43	104	0	71	43562
2026-01-17 03:42:18.46	344.36	8.19	-50.3	-71.5	3.8	7.42e-01	0	43	104	0	71	43334
2026-01-17 03:42:19.45	344.19	8.23	-50.3	-71.5	3.8	7.45e-01	0	43	104	0	71	43266
2026-01-17 03:42:20.44	344.02	8.27	-50.3	-71.5	3.8	7.46e-01	0	42	104	0	71	43290
2026-01-17 03:42:21.44	343.85	8.31	-50.3	-71.5	3.8	7.47e-01	0	43	104	0	71	43378
2026-01-17 03:42:22.43	343.68	8.35	-50.3	-71.6	3.8	7.45e-01	0	43	104	0	71	43517
2026-01-17 03:42:23.42	343.51	8.39	-50.3	-71.6	3.8	7.46e-01	0	43	104	0	71	43493
2026-01-17 03:42:24.42	343.34	8.43	-50.3	-71.5	3.8	7.47e-01	0	43	104	0	71	43167
2026-01-17 03:42:25.41	343.16	8.46	-50.2	-71.4	3.8	7.48e-01	0	43	104	0	71	42887
2026-01-17 03:42:26.40	342.99	8.50	-50.3	-71.5	3.8	7.44e-01	0	43	104	0	71	43079
2026-01-17 03:42:27.40	342.82	8.54	-50.3	-71.6	3.8	7.48e-01	0	43	104	0	71	43558
2026-01-17 03:42:28.39	342.65	8.58	-50.3	-71.6	3.8	7.45e-01	0	43	104	0	71	43598
2026-01-17 03:42:29.38	342.47	8.62	-50.3	-70.6	3.8	7.47e-01	0	43	104	0	71	38817
2026-01-17 03:42:30.38	342.30	8.65	-50.2	-69.3	3.9	7.45e-01	0	43	104	0	71	33466
2026-01-17 03:42:31.37	342.12	8.69	-50.2	-68.1	3.8	7.44e-01	0	43	104	0	71	29183
2026-01-17 03:42:32.36	341.95	8.73	-50.2	-66.3	4.8	7.12e-01	0	43	104	0	71	23798
2026-01-17 03:42:33.36	341.77	8.77	-50.1	-65.3	5.4	6.97e-01	0	43	0	0	71	21151
2026-01-17 03:42:34.35	341.59	8.80	-50.1	-64.5	6.0	6.86e-01	0	43	0	1048576	71	19212
2026-01-17 03:42:35.34	341.42	8.84	-50.0	-63.6	6.7	6.68e-01	0	43	0	3145728	71	17348
2026-01-17 03:42:36.34	341.24	8.88	-49.9	-61.9	8.3	6.40e-01	0	43	0	4718592	71	14212
2026-01-17 03:42:37.33	341.06	8.91	-49.5	-59.0	11.3	6.10e-01	0	43	0	6815744	71	10230
2026-01-17 03:42:38.32	340.88	8.95	-48.8	-55.8	14.6	6.01e-01	0	43	0	8388608	69	7954
2026-01-17 03:42:39.32	340.70	8.98	-47.4	-52.4	17.9	6.03e-01	0	43	0	10485760	66	6396
2026-01-17 03:42:40.31	340.52	9.02	-46.5	-50.6	19.9	6.01e-01	0	43	0	12058624	64	5836
2026-01-17 03:42:41.30	340.34	9.05	-48.4	-54.1	16.4	6.01e-01	0	43	0	14155776	67	7289
2026-01-17 03:42:42.30	340.16	9.09	-48.2	-53.5	16.5	6.04e-01	0	43	0	15728640	68	6450
2026-01-17 03:42:43.29	339.98	9.12	-44.4	-47.4	22.9	6.04e-01	0	43	0	17825792	60	5051
2026-01-17 03:42:44.29	339.80	9.16	-45.7	-49.2	20.8	6.04e-01	0	43	0	19922944	63	5274
2026-01-17 03:42:45.29	339.62	9.19	-46.0	-49.4	20.8	6.00e-01	0	43	0	21495808	63	5397
2026-01-17 03:42:46.28	339.43	9.23	-44.6	-47.5	22.7	6.02e-01	0	43	0	23592960	61	4861
2026-01-17 03:42:47.28	339.25	9.26	-44.7	-47.7	22.6	6.03e-01	0	43	0	25165824	61	4933
2026-01-17 03:42:48.27	339.07	9.30	-44.5	-47.4	22.8	6.00e-01	0	43	0	27262976	60	5071
2026-01-17 03:42:49.33	338.87	9.33	-44.4	-47.3	22.9	6.00e-01	0	43	0	29360128	60	5014
2026-01-17 03:42:50.24	338.70	9.36	-44.2	-47.1	23.1	6.00e-01	0	43	0	30932992	60	4877
2026-01-17 03:42:51.25	338.51	9.40	-44.1	-47.0	23.2	6.02e-01	0	43	0	32505856	60	4853
2026-01-17 03:42:52.25	338.33	9.43	-44.0	-47.1	23.2	6.03e-01	0	43	0	34603008	60	4873
2026-01-17 03:42:53.43	338.11	9.47	-44.0	-47.2	23.1	6.01e-01	0	43	0	36700160	59	5274
2026-01-17 03:42:54.32	337.94	9.50	-43.8	-47.1	23.2	6.00e-01	0	43	0	38273024	59	5181
2026-01-17 03:42:55.46	337.73	9.54	-43.8	-47.0	23.3	6.03e-01	0	43	0	40370176	59	5155
2026-01-17 03:42:56.31	337.57	9.57	-44.0	-47.1	23.2	6.01e-01	0	43	0	42467328	59	5188
2026-01-17 03:42:57.44	337.35	9.60	-44.1	-47.3	23.0	6.00e-01	0	43	0	44564480	59	5289
2026-01-17 03:42:58.30	337.19	9.63	-44.1	-47.1	23.1	6.04e-01	0	43	0	46137344	59	5207
2026-01-17 03:42:59.43	336.97	9.67	-44.0	-47.1	23.1	6.04e-01	0	43	0	48234496	59	5215
2026-01-17 03:43:00.29	336.81	9.69	-43.8	-47.0	23.2	6.02e-01	0	43	0	49807360	59	5159
2026-01-17 03:43:01.42	336.60	9.73	-43.8	-47.2	23.1	6.00e-01	0	43	0	51904512	59	5241
2026-01-17 03:43:02.27	336.43	9.75	-43.8	-47.3	23.0	6.01e-01	0	43	0	53477376	59	5309
2026-01-17 03:43:03.41	336.21	9.79	-43.8	-47.2	23.1	6.01e-01	0	43	0	55574528	59	5255
2026-01-17 03:43:04.26	336.05	9.82	-44.0	-47.3	23.0	6.01e-01	0	43	0	57147392	59	5331
2026-01-17 03:43:05.43	335.83	9.85	-44.3	-47.7	22.7	6.01e-01	0	43	0	59244544	59	5543
2026-01-17 03:43:06.28	335.66	9.88	-44.4	-47.7	22.7	6.02e-01	0	43	0	60817408	59	5534
2026-01-17 03:43:07.48	335.43	9.91	-44.2	-47.3	23.0	6.03e-01	0	43	0	62914560	59	5311
2026-01-17 03:43:08.33	335.27	9.94	-44.2	-47.2	23.1	6.02e-01	0	43	0	65011712	59	5249
2026-01-17 03:43:09.47	335.04	9.97	-44.1	-47.1	23.2	6.04e-01	0	43	0	67108864	59	5189
2026-01-17 03:43:10.32	334.88	10.00	-44.1	-47.1	23.3	6.02e-01	0	43	0	68681728	59	5172
2026-01-17 03:43:11.59	334.63	10.03	-44.2	-47.1	23.2	6.03e-01	0	43	0	70778880	59	5199
2026-01-17 03:43:12.36	334.48	10.05	-44.2	-47.0	23.3	6.02e-01	0	43	0	72351744	59	5132
2026-01-17 03:43:13.78	334.20	10.09	-44.2	-47.0	23.3	6.03e-01	0	43	0	74973184	59	5137
2026-01-17 03:43:14.49	334.06	10.11	-44.1	-46.9	23.4	5.98e-01	0	43	0	76546048	59	5078
2026-01-17 03:43:15.78	333.81	10.15	-44.0	-46.9	23.4	6.01e-01	0	43	0	78643200	59	5074
2026-01-17 03:43:16.50	333.67	10.17	-44.0	-47.0	23.3	6.04e-01	0	43	0	80216064	59	5121
2026-01-17 03:43:17.78	333.41	10.20	-44.2	-47.1	23.2	6.03e-01	0	43	0	82313216	59	5205
2026-01-17 03:43:18.50	333.27	10.22	-44.2	-47.1	23.2	6.02e-01	0	43	0	83886080	59	5201
2026-01-17 03:43:19.78	333.02	10.26	-44.3	-47.2	23.2	6.03e-01	0	43	0	85983232	59	5225
2026-01-17 03:43:20.52	332.87	10.28	-44.4	-47.2	23.1	6.03e-01	0	43	0	87556096	59	5258
2026-01-17 03:43:21.80	332.61	10.31	-44.4	-47.2	23.1	6.02e-01	0	43	0	90177536	59	5260
2026-01-17 03:43:22.51	332.47	10.33	-44.3	-47.1	23.3	6.03e-01	0	43	0	91226112	59	5166
2026-01-17 03:43:23.79	332.22	10.36	-44.3	-47.1	23.3	6.02e-01	0	43	0	93847552	59	5174
2026-01-17 03:43:24.55	332.06	10.38	-44.3	-47.1	23.2	6.02e-01	0	43	0	95420416	59	5192
2026-01-17 03:43:25.83	331.81	10.41	-44.2	-47.0	23.3	6.03e-01	0	43	0	97517568	59	5121
2026-01-17 03:43:26.54	331.66	10.43	-44.1	-46.8	23.5	6.00e-01	0	43	0	99090432	59	5031
2026-01-17 03:43:27.82	331.41	10.46	-44.2	-46.9	23.4	6.02e-01	0	43	0	101187584	59	5088
2026-01-17 03:43:28.69	331.23	10.48	-44.2	-47.0	23.4	6.02e-01	0	43	0	102760448	59	5114
2026-01-17 03:43:29.83	331.00	10.51	-44.2	-47.0	23.4	6.01e-01	0	43	0	104857600	59	5110
2026-01-17 03:43:30.68	330.83	10.53	-44.3	-47.0	23.4	6.01e-01	0	43	0	106430464	59	5129
2026-01-17 03:43:31.82	330.60	10.55	-44.4	-47.1	23.2	6.03e-01	0	43	0	108527616	59	5186
2026-01-17 03:43:32.67	330.42	10.57	-44.4	-47.1	23.3	6.04e-01	0	43	0	110624768	59	5183
2026-01-17 03:43:33.81	330.19	10.60	-44.5	-47.2	23.2	6.03e-01	0	43	0	112721920	59	5253
2026-01-17 03:43:34.66	330.02	10.62	-44.3	-47.0	23.4	6.02e-01	0	43	0	114294784	59	5111
2026-01-17 03:43:35.80	329.78	10.64	-44.3	-47.0	23.4	6.02e-01	0	43	0	116391936	59	5134
2026-01-17 03:43:36.65	329.61	10.66	-44.2	-46.9	23.3	6.01e-01	0	43	0	117964800	59	5090
2026-01-17 03:43:37.79	329.38	10.68	-44.1	-46.8	23.6	6.03e-01	0	43	0	120061952	59	4990
2026-01-17 03:43:38.64	329.20	10.70	-44.2	-46.8	23.5	6.02e-01	0	43	0	121634816	59	5040
2026-01-17 03:43:39.78	328.97	10.73	-44.4	-47.1	23.3	6.01e-01	0	43	0	123731968	59	5209
2026-01-17 03:43:40.63	328.79	10.74	-44.3	-47.0	23.3	6.01e-01	0	43	0	125304832	59	5154
2026-01-17 03:43:41.77	328.56	10.77	-44.3	-47.1	23.3	6.03e-01	0	43	0	127401984	59	5196
2026-01-17 03:43:42.70	328.36	10.78	-44.2	-47.0	23.4	6.01e-01	0	43	0	128974848	59	5133
2026-01-17 03:43:43.87	328.12	10.81	-44.1	-47.0	23.3	6.02e-01	0	43	0	131596288	59	5136
2026-01-17 03:43:44.72	327.95	10.82	-44.0	-46.9	23.4	6.03e-01	0	43	0	133169152	59	5055
2026-01-17 03:43:45.86	327.71	10.84	-43.9	-46.7	23.6	5.98e-01	0	43	0	135266304	59	4966
2026-01-17 03:43:46.81	327.51	10.86	-44.0	-46.8	23.5	6.00e-01	0	43	0	136839168	59	5007
2026-01-17 03:43:47.80	327.31	10.88	-44.0	-46.7	23.5	5.99e-01	0	43	0	138936320	59	4966
2026-01-17 03:43:48.99	327.06	10.90	-44.3	-47.2	23.2	6.04e-01	0	43	0	141033472	59	5220
2026-01-17 03:43:49.86	326.88	10.91	-44.2	-47.1	23.3	6.02e-01	0	43	0	142606336	59	5179
2026-01-17 03:43:50.99	326.64	10.93	-43.9	-47.0	23.4	6.02e-01	0	43	0	144703488	59	5121
2026-01-17 03:43:51.85	326.46	10.95	-43.9	-47.0	23.3	6.01e-01	0	43	0	146276352	59	5156
2026-01-17 03:43:52.98	326.22	10.97	-43.8	-47.0	23.3	6.02e-01	0	43	0	148373504	59	5140
2026-01-17 03:43:53.96	326.02	10.98	-43.6	-46.9	23.5	6.00e-01	0	43	0	150470656	59	5057
2026-01-17 03:43:55.13	325.77	11.00	-43.7	-47.0	23.3	6.02e-01	0	43	0	152567808	59	5154
2026-01-17 03:43:56.01	325.59	11.01	-43.7	-47.1	23.3	6.03e-01	0	43	0	154140672	59	5163
2026-01-17 03:43:57.15	325.35	11.03	-43.8	-47.0	23.3	6.01e-01	0	43	0	156237824	59	5157
2026-01-17 03:43:58.00	325.17	11.04	-44.0	-47.2	23.1	6.02e-01	0	43	0	157810688	59	5231
2026-01-17 03:43:59.14	324.93	11.06	-44.1	-47.2	23.1	6.02e-01	0	43	0	159907840	59	5273
2026-01-17 03:43:59.99	324.75	11.07	-44.2	-47.3	23.1	6.03e-01	0	43	0	161480704	59	5291
2026-01-17 03:44:01.11	324.51	11.09	-44.2	-47.3	23.1	5.99e-01	0	43	0	163577856	59	5294
2026-01-17 03:44:02.20	324.28	11.10	-44.0	-47.1	23.2	6.03e-01	0	43	0	165675008	59	5203
2026-01-17 03:44:03.22	324.06	11.11	-43.8	-47.0	23.4	6.04e-01	0	43	0	167772160	59	5109
2026-01-17 03:44:04.22	323.85	11.12	-43.7	-46.9	23.4	6.04e-01	0	43	0	169345024	59	5061
2026-01-17 03:44:05.43	323.59	11.14	-43.8	-47.1	23.3	6.04e-01	0	43	0	171966464	59	5174
2026-01-17 03:44:06.31	323.41	11.15	-43.8	-47.0	23.3	6.02e-01	0	43	0	173539328	59	5134
2026-01-17 03:44:07.63	323.13	11.16	-44.0	-46.9	23.4	6.00e-01	0	43	0	176160768	59	5085
2026-01-17 03:44:08.34	322.98	11.17	-44.2	-47.0	23.3	6.02e-01	0	43	0	177209344	59	5157
2026-01-17 03:44:09.84	322.66	11.19	-44.3	-46.9	23.4	6.02e-01	0	43	0	180355072	59	5093
2026-01-17 03:44:10.55	322.50	11.20	-44.4	-47.1	23.3	6.03e-01	0	43	0	181403648	59	5162
2026-01-17 03:44:11.83	322.23	11.21	-44.3	-47.0	23.4	6.01e-01	0	43	0	184025088	59	5133
2026-01-17 03:44:12.54	322.08	11.21	-44.2	-47.0	23.3	6.01e-01	0	43	0	185073664	59	5147
2026-01-17 03:44:13.82	321.81	11.23	-44.0	-47.0	23.4	6.03e-01	0	43	0	187695104	59	5145
2026-01-17 03:44:14.53	321.65	11.23	-43.9	-47.0	23.4	6.03e-01	0	43	0	188743680	59	5123
2026-01-17 03:44:15.81	321.38	11.24	-44.0	-47.0	23.4	6.02e-01	0	43	0	191365120	59	5144
2026-01-17 03:44:16.52	321.23	11.25	-44.0	-47.0	23.4	6.03e-01	0	43	0	192413696	59	5138
2026-01-17 03:44:17.80	320.95	11.26	-44.0	-46.9	23.5	6.04e-01	0	43	0	195035136	59	5071
2026-01-17 03:44:18.51	320.80	11.26	-44.0	-46.8	23.5	6.02e-01	0	43	0	196608000	59	5034
2026-01-17 03:44:19.79	320.53	11.27	-44.1	-47.1	23.3	6.00e-01	0	43	0	198705152	59	5166
2026-01-17 03:44:20.50	320.37	11.28	-44.1	-47.1	23.3	6.02e-01	0	43	0	200278016	59	5171
2026-01-17 03:44:21.78	320.10	11.28	-44.1	-47.2	23.2	6.03e-01	0	43	0	202375168	59	5271
2026-01-17 03:44:22.58	319.93	11.29	-44.1	-47.2	23.2	6.01e-01	0	43	0	203948032	59	5236
2026-01-17 03:44:24.00	319.62	11.30	-44.0	-47.0	23.4	6.01e-01	0	43	0	206569472	59	5128
2026-01-17 03:44:24.72	319.47	11.30	-44.1	-47.1	23.3	6.04e-01	0	43	0	208142336	59	5189
2026-01-17 03:44:26.00	319.19	11.31	-44.0	-46.8	23.6	6.02e-01	0	43	0	210239488	59	4986
2026-01-17 03:44:26.71	319.04	11.31	-44.1	-46.9	23.5	6.01e-01	0	43	0	211812352	59	5090
2026-01-17 03:44:28.27	318.70	11.31	-44.4	-47.1	23.2	6.03e-01	0	43	0	214433792	59	5216
2026-01-17 03:44:28.98	318.55	11.32	-44.5	-47.2	23.2	6.03e-01	0	43	0	216006656	59	5243
2026-01-17 03:44:30.27	318.27	11.32	-44.3	-47.0	23.3	6.02e-01	0	43	0	218628096	59	5116
2026-01-17 03:44:30.99	318.12	11.32	-44.3	-46.9	23.4	6.00e-01	0	43	0	219676672	59	5098
2026-01-17 03:44:32.35	317.83	11.33	-44.5	-47.2	23.2	6.03e-01	0	43	0	222298112	59	5223
2026-01-17 03:44:33.06	317.67	11.33	-44.4	-47.1	23.3	6.00e-01	0	43	0	223870976	59	5192
2026-01-17 03:44:34.43	317.38	11.33	-44.5	-47.2	23.1	6.04e-01	0	43	0	225968128	60	4944
2026-01-17 03:44:35.14	317.22	11.33	-44.4	-47.1	23.2	6.02e-01	0	43	0	227540992	60	4890
2026-01-17 03:44:36.42	316.95	11.33	-44.7	-47.5	22.8	6.02e-01	0	43	0	230162432	60	5126
2026-01-17 03:44:37.15	316.79	11.33	-44.6	-47.3	23.0	6.02e-01	0	43	0	231211008	60	5007
2026-01-17 03:44:38.43	316.51	11.33	-45.1	-48.1	22.2	6.01e-01	0	43	0	233832448	60	5499
2026-01-17 03:44:39.14	316.36	11.33	-44.6	-47.4	22.9	6.02e-01	0	43	0	234881024	60	5064
2026-01-17 03:44:40.41	316.09	11.33	-44.4	-47.2	23.1	6.03e-01	0	43	0	237502464	60	4966
2026-01-17 03:44:41.12	315.93	11.33	-44.6	-47.4	22.9	6.03e-01	0	43	0	238551040	60	5065
2026-01-17 03:44:42.40	315.66	11.33	-44.3	-47.0	23.3	6.03e-01	0	43	0	241172480	60	4818
2026-01-17 03:44:43.11	315.51	11.33	-44.8	-47.6	22.7	6.02e-01	0	43	0	242221056	60	5217
2026-01-17 03:44:44.39	315.23	11.32	-44.3	-46.9	23.4	6.03e-01	0	43	0	244842496	60	4793
2026-01-17 03:44:45.10	315.08	11.32	-44.8	-47.5	22.8	6.02e-01	0	43	0	246415360	60	5141
2026-01-17 03:44:46.38	314.80	11.32	-44.3	-47.0	23.2	6.04e-01	0	43	0	248512512	60	4848
2026-01-17 03:44:47.09	314.65	11.31	-44.5	-47.3	23.0	6.01e-01	0	43	0	250085376	60	5027
2026-01-17 03:44:48.37	314.37	11.31	-44.8	-47.6	22.7	6.04e-01	0	43	0	252182528	60	5201
2026-01-17 03:44:49.18	314.20	11.31	-44.7	-47.5	22.8	6.01e-01	0	43	0	253755392	60	5135
2026-01-17 03:44:50.60	313.89	11.30	-44.7	-47.6	22.7	6.04e-01	0	43	0	256376832	60	5201
2026-01-17 03:44:51.31	313.74	11.30	-44.2	-47.0	23.3	5.99e-01	0	43	0	257949696	60	4846
2026-01-17 03:44:52.59	313.46	11.29	-44.7	-47.7	22.6	6.02e-01	0	43	0	260046848	60	5249
2026-01-17 03:44:53.32	313.31	11.29	-44.2	-46.9	23.3	6.03e-01	0	43	0	261619712	60	4784
2026-01-17 03:44:54.60	313.03	11.28	-44.9	-47.8	22.5	6.02e-01	0	43	0	264241152	60	5323
2026-01-17 03:44:55.32	312.88	11.27	-44.8	-47.6	22.7	6.01e-01	0	43	0	265289728	60	5173
2026-01-17 03:44:56.93	312.53	11.26	-45.0	-47.9	22.4	6.01e-01	0	43	0	268435456	60	5395
2026-01-17 03:44:57.50	312.41	11.26	-44.5	-47.3	22.9	6.01e-01	0	43	0	269484032	60	5011
2026-01-17 03:44:59.20	312.04	11.25	-44.4	-47.3	23.0	6.03e-01	0	43	0	272629760	60	4989
2026-01-17 03:44:59.81	311.91	11.24	-44.6	-47.4	22.9	6.01e-01	0	43	0	273678336	60	5097
2026-01-17 03:45:01.37	311.58	11.23	-44.6	-47.4	22.9	6.01e-01	0	43	0	276824064	60	5098
2026-01-17 03:45:02.03	311.44	11.22	-44.9	-47.9	22.4	6.02e-01	0	43	0	277872640	60	5382
2026-01-17 03:45:03.45	311.13	11.21	-44.3	-47.0	23.2	6.00e-01	0	43	0	280494080	60	4856
2026-01-17 03:45:04.16	310.98	11.20	-44.8	-47.8	22.5	6.01e-01	0	43	0	282066944	60	5291
2026-01-17 03:45:05.44	310.71	11.19	-44.6	-47.3	23.0	6.00e-01	0	43	0	284164096	60	5026
2026-01-17 03:45:06.16	310.56	11.18	-44.8	-47.7	22.7	6.00e-01	0	43	0	285736960	60	5240
2026-01-17 03:45:07.73	310.22	11.17	-44.5	-47.3	22.9	6.04e-01	0	43	0	288882688	60	5036
2026-01-17 03:45:08.35	310.09	11.16	-44.5	-47.4	23.0	6.01e-01	0	43	0	289931264	60	5043
2026-01-17 03:45:09.91	309.76	11.14	-44.5	-47.2	23.0	6.01e-01	0	43	0	292552704	60	4979
2026-01-17 03:45:10.53	309.63	11.13	-44.7	-47.5	22.8	6.03e-01	0	43	0	293601280	60	5115
2026-01-17 03:45:12.09	309.29	11.11	-44.9	-47.8	22.6	6.03e-01	0	43	0	296747008	61	5014
2026-01-17 03:45:12.80	309.14	11.11	-45.3	-48.4	22.0	6.04e-01	0	43	0	298319872	61	5384
2026-01-17 03:45:14.08	308.87	11.09	-45.5	-48.6	21.8	6.00e-01	0	43	0	300417024	61	5500
2026-01-17 03:45:14.90	308.70	11.08	-45.4	-48.6	21.7	6.02e-01	0	43	0	301989888	61	5515
2026-01-17 03:45:16.03	308.46	11.06	-44.5	-47.4	22.9	6.00e-01	0	43	0	304087040	61	4778
2026-01-17 03:45:16.89	308.28	11.05	-44.9	-48.1	22.1	6.02e-01	0	43	0	305659904	61	5182
2026-01-17 03:45:18.02	308.04	11.03	-44.2	-47.2	23.1	6.02e-01	0	43	0	307757056	60	4950
2026-01-17 03:45:18.88	307.86	11.02	-44.8	-47.8	22.5	6.02e-01	0	43	0	309329920	60	5303
2026-01-17 03:45:20.01	307.62	11.00	-44.8	-47.6	22.7	6.01e-01	0	43	0	311427072	60	5197
2026-01-17 03:45:20.86	307.44	10.99	-45.0	-47.8	22.5	6.02e-01	0	43	0	312999936	60	5322
2026-01-17 03:45:22.00	307.20	10.97	-44.9	-47.7	22.6	6.03e-01	0	43	0	315621376	60	5256
2026-01-17 03:45:22.85	307.02	10.96	-45.0	-47.8	22.5	6.02e-01	0	43	0	317194240	60	5339
2026-01-17 03:45:24.02	306.78	10.94	-44.6	-47.3	22.9	6.00e-01	0	43	0	319291392	60	5018
2026-01-17 03:45:24.87	306.60	10.93	-44.9	-47.8	22.5	6.02e-01	0	43	0	320864256	60	5299
2026-01-17 03:45:26.08	306.34	10.91	-44.8	-47.6	22.7	6.03e-01	0	43	0	322961408	60	5208
2026-01-17 03:45:26.94	306.17	10.89	-44.9	-47.9	22.5	6.02e-01	0	43	0	324534272	60	5361
2026-01-17 03:45:28.08	305.93	10.87	-44.9	-47.9	22.3	6.03e-01	0	43	0	326631424	61	5089
2026-01-17 03:45:28.93	305.75	10.86	-44.8	-47.7	22.7	6.02e-01	0	43	0	328204288	61	4954
2026-01-17 03:45:30.07	305.51	10.83	-45.0	-47.9	22.4	6.04e-01	0	43	0	330301440	61	5054
2026-01-17 03:45:30.94	305.33	10.82	-44.9	-47.7	22.6	6.03e-01	0	43	0	332398592	61	4974
2026-01-17 03:45:32.07	305.10	10.80	-44.6	-47.4	22.9	6.01e-01	0	43	0	334495744	61	4782
2026-01-17 03:45:32.93	304.92	10.78	-44.9	-47.7	22.6	6.02e-01	0	43	0	336068608	61	4962
2026-01-17 03:45:34.06	304.69	10.76	-45.0	-47.8	22.4	6.03e-01	0	43	0	338165760	61	5025
2026-01-17 03:45:34.92	304.51	10.74	-45.0	-47.8	22.5	6.01e-01	0	43	0	339738624	61	5026
2026-01-17 03:45:36.05	304.27	10.72	-45.1	-48.0	22.3	6.06e-01	0	43	0	341835776	61	5103
2026-01-17 03:45:36.90	304.10	10.70	-45.0	-47.9	22.4	6.01e-01	0	43	0	343408640	61	5072
2026-01-17 03:45:38.04	303.86	10.68	-45.1	-48.0	22.3	6.00e-01	0	43	0	345505792	61	5133
2026-01-17 03:45:38.90	303.69	10.66	-45.1	-48.0	22.3	6.02e-01	0	43	0	347078656	61	5153
2026-01-17 03:45:40.03	303.46	10.63	-45.5	-48.6	21.8	6.02e-01	0	43	0	349175808	61	5479
2026-01-17 03:45:40.89	303.28	10.61	-45.0	-48.0	22.2	6.03e-01	0	43	0	350748672	61	5125
2026-01-17 03:45:42.03	303.05	10.59	-44.7	-47.6	22.7	6.02e-01	0	43	0	352845824	61	4887
2026-01-17 03:45:42.88	302.87	10.57	-45.2	-48.3	22.0	6.04e-01	0	43	0	354418688	61	5326
2026-01-17 03:45:44.08	302.63	10.54	-44.8	-47.7	22.5	6.01e-01	0	43	0	356515840	61	4974
2026-01-17 03:45:44.93	302.46	10.52	-44.7	-47.5	22.8	6.00e-01	0	43	0	358088704	61	4846
2026-01-17 03:45:46.07	302.22	10.50	-45.6	-48.7	21.6	6.03e-01	0	43	0	360710144	61	5585
2026-01-17 03:45:46.93	302.05	10.48	-45.1	-48.0	22.1	6.05e-01	0	43	0	362283008	61	5147
2026-01-17 03:45:48.06	301.82	10.45	-44.7	-47.5	22.8	6.01e-01	0	43	0	364380160	61	4819
2026-01-17 03:45:48.95	301.64	10.43	-45.6	-48.7	21.7	6.04e-01	0	43	0	365953024	61	5538
2026-01-17 03:45:50.08	301.41	10.40	-45.2	-48.1	22.1	6.02e-01	0	43	0	368050176	61	5203
2026-01-17 03:45:51.02	301.22	10.38	-44.9	-47.7	22.5	6.03e-01	0	43	0	369623040	61	4978
2026-01-17 03:45:52.18	300.99	10.35	-44.9	-47.8	22.5	6.01e-01	0	43	0	372244480	61	5014
2026-01-17 03:45:53.04	300.82	10.32	-46.0	-49.3	21.1	6.01e-01	0	43	0	373817344	62	5626
2026-01-17 03:45:54.18	300.59	10.29	-45.5	-48.6	21.6	6.02e-01	0	43	0	375914496	62	5165
2026-01-17 03:45:55.14	300.40	10.27	-45.5	-48.5	21.8	6.02e-01	0	43	0	377487360	62	5139
2026-01-17 03:45:56.13	300.20	10.24	-46.4	-49.8	20.7	6.02e-01	0	43	0	379584512	63	5619
2026-01-17 03:45:57.13	300.00	10.22	-46.1	-49.3	21.0	6.03e-01	0	43	0	381157376	63	5292
2026-01-17 03:45:58.12	299.81	10.19	-45.7	-48.7	21.7	6.03e-01	0	43	0	383254528	63	4942
2026-01-17 03:45:59.12	299.61	10.16	-46.1	-49.4	21.1	6.04e-01	0	43	0	384827392	63	5347
2026-01-17 03:46:00.11	299.41	10.14	-46.0	-49.2	21.1	6.04e-01	0	43	0	386924544	63	5237
2026-01-17 03:46:01.11	299.22	10.11	-45.5	-48.5	21.8	6.04e-01	0	43	0	388497408	63	4821
2026-01-17 03:46:02.10	299.02	10.08	-45.4	-48.4	22.0	6.03e-01	0	43	0	390594560	62	5043
2026-01-17 03:46:03.10	298.82	10.05	-45.5	-48.6	21.7	6.00e-01	0	43	0	392691712	62	5182
2026-01-17 03:46:04.09	298.63	10.02	-46.0	-49.3	21.0	6.01e-01	0	43	0	394264576	62	5606
2026-01-17 03:46:05.55	298.34	9.98	-45.3	-48.2	22.0	6.04e-01	0	43	0	396886016	62	4967
2026-01-17 03:46:06.27	298.20	9.96	-45.4	-48.4	22.0	6.01e-01	0	43	0	398458880	62	5047
2026-01-17 03:46:07.55	297.95	9.92	-46.1	-49.5	20.9	6.02e-01	0	43	0	400556032	62	5729
2026-01-17 03:46:08.27	297.81	9.90	-45.5	-48.5	21.7	6.00e-01	0	43	0	402128896	62	5143
2026-01-17 03:46:09.55	297.57	9.86	-45.1	-48.0	22.3	6.03e-01	0	43	0	404750336	61	5156
2026-01-17 03:46:10.28	297.43	9.84	-45.6	-48.8	21.5	6.03e-01	0	43	0	405798912	61	5617
2026-01-17 03:46:11.56	297.18	9.80	-45.7	-49.1	21.3	5.99e-01	0	43	0	408420352	62	5466
2026-01-17 03:46:12.27	297.04	9.78	-45.5	-48.7	21.6	6.00e-01	0	43	0	409468928	62	5261
2026-01-17 03:46:13.55	296.80	9.74	-45.3	-48.5	21.8	6.03e-01	0	43	0	412090368	62	5117
2026-01-17 03:46:14.26	296.66	9.72	-45.3	-48.5	21.8	5.99e-01	0	43	0	413138944	62	5113
2026-01-17 03:46:15.54	296.41	9.68	-45.8	-49.0	21.3	6.02e-01	0	43	0	415760384	62	5431
2026-01-17 03:46:16.26	296.28	9.65	-45.8	-48.9	21.4	6.00e-01	0	43	0	417333248	62	5395
2026-01-17 03:46:17.54	296.03	9.61	-45.4	-48.5	21.9	6.03e-01	0	43	0	419430400	62	5106
2026-01-17 03:46:18.25	295.90	9.59	-45.6	-48.7	21.6	6.00e-01	0	43	0	421003264	62	5260
2026-01-17 03:46:19.53	295.66	9.55	-45.9	-49.3	21.0	6.02e-01	0	43	0	423100416	62	5644
2026-01-17 03:46:20.25	295.52	9.53	-45.3	-48.5	21.8	6.02e-01	0	43	0	424673280	62	5109
2026-01-17 03:46:21.72	295.24	9.48	-45.4	-48.5	21.8	6.00e-01	0	43	0	427294720	62	5152
2026-01-17 03:46:22.43	295.11	9.45	-45.1	-48.2	22.1	6.02e-01	0	43	0	428867584	62	4956
2026-01-17 03:46:23.77	294.86	9.41	-45.1	-48.0	22.3	6.01e-01	0	43	0	430964736	61	5149
2026-01-17 03:46:24.48	294.73	9.39	-45.3	-48.4	21.9	6.01e-01	0	43	0	432537600	61	5342
2026-01-17 03:46:25.76	294.49	9.34	-45.5	-48.5	21.7	6.02e-01	0	43	0	435159040	61	5454
2026-01-17 03:46:26.47	294.36	9.32	-45.3	-48.2	22.1	6.04e-01	0	43	0	436207616	61	5246
2026-01-17 03:46:27.75	294.12	9.27	-45.4	-48.3	22.0	6.01e-01	0	43	0	438829056	61	5302
2026-01-17 03:46:28.46	293.99	9.25	-45.5	-48.5	21.7	6.00e-01	0	43	0	439877632	61	5456
2026-01-17 03:46:29.74	293.75	9.21	-45.4	-48.4	21.8	5.99e-01	0	43	0	442499072	62	5060
2026-01-17 03:46:30.45	293.62	9.18	-45.2	-48.1	22.2	6.04e-01	0	43	0	443547648	62	4895
2026-01-17 03:46:31.74	293.38	9.14	-45.3	-48.2	22.1	6.01e-01	0	43	0	446169088	62	4967
2026-01-17 03:46:32.45	293.25	9.11	-45.3	-48.3	22.0	6.01e-01	0	43	0	447741952	62	4988
2026-01-17 03:46:33.73	293.02	9.07	-45.5	-48.5	21.8	6.04e-01	0	43	0	449839104	62	5128
2026-01-17 03:46:34.50	292.88	9.04	-45.4	-48.5	21.8	6.02e-01	0	43	0	451411968	62	5105
2026-01-17 03:46:35.78	292.65	8.99	-48.5	-53.3	18.2	6.02e-01	0	43	0	453509120	67	6708
2026-01-17 03:46:36.49	292.52	8.97	-51.0	-71.7	3.8	7.44e-01	0	43	104	454033408	73	39469
2026-01-17 03:46:37.76	292.29	8.92	-51.8	-71.9	3.8	7.50e-01	0	43	104	454033408	74	37973
2026-01-17 03:46:38.47	292.16	8.89	-51.9	-72.0	3.8	7.44e-01	0	43	104	454033408	74	38615
2026-01-17 03:46:39.75	291.93	8.85	-52.0	-72.1	3.8	7.47e-01	0	43	104	454033408	74	39112
2026-01-17 03:46:40.48	291.80	8.82	-52.2	-72.2	3.8	7.45e-01	0	43	104	454033408	74	39273
2026-01-17 03:46:41.75	291.57	8.77	-52.1	-72.2	3.8	7.47e-01	0	43	104	454033408	75	37280
2026-01-17 03:46:42.46	291.44	8.75	-52.2	-72.3	3.8	7.47e-01	0	43	104	454033408	75	37454
2026-01-17 03:46:43.74	291.22	8.70	-52.0	-72.3	3.8	7.45e-01	0	43	104	454033408	75	37612
2026-01-17 03:46:44.45	291.09	8.67	-52.3	-72.3	3.8	7.46e-01	0	43	104	454033408	75	37521
2026-01-17 03:46:45.73	290.86	8.62	-52.3	-72.3	3.8	7.45e-01	0	43	104	454033408	75	37626
2026-01-17 03:46:46.44	290.74	8.60	-52.3	-72.3	3.8	7.47e-01	0	43	104	454033408	75	37698
2026-01-17 03:46:47.72	290.51	8.55	-52.2	-72.3	3.8	7.46e-01	0	43	104	454033408	75	37726
2026-01-17 03:46:48.44	290.39	8.52	-52.3	-72.3	3.8	7.41e-01	0	43	104	454033408	75	37666
2026-01-17 03:46:49.72	290.16	8.47	-52.1	-72.3	3.8	7.44e-01	0	43	104	454033408	75	37778
2026-01-17 03:46:50.43	290.04	8.44	-52.0	-72.3	3.8	7.47e-01	0	43	104	454033408	75	37745
2026-01-17 03:46:51.70	289.82	8.39	-52.0	-72.3	3.8	7.44e-01	0	43	104	454033408	75	37755
2026-01-17 03:46:52.43	289.69	8.37	-52.2	-72.3	3.8	7.45e-01	0	43	104	454033408	75	37758
2026-01-17 03:46:53.70	289.47	8.32	-51.8	-72.3	3.8	7.47e-01	0	43	104	454033408	75	37743
2026-01-17 03:46:54.41	289.35	8.29	-51.9	-72.3	3.8	7.44e-01	0	43	104	454033408	75	37632
2026-01-17 03:46:55.69	289.13	8.24	-51.8	-72.3	3.8	7.43e-01	0	43	104	454033408	75	37644
2026-01-17 03:46:56.40	289.01	8.21	-51.8	-72.3	3.8	7.41e-01	0	43	104	454033408	75	37545
2026-01-17 03:46:57.68	288.79	8.16	-51.3	-72.3	3.8	7.48e-01	0	43	104	454033408	74	39646
2026-01-17 03:46:58.40	288.67	8.13	-51.3	-72.2	3.8	7.46e-01	0	43	104	454033408	74	39581
2026-01-17 03:46:59.68	288.45	8.08	-51.3	-72.2	3.8	7.44e-01	0	43	104	454033408	74	39564
2026-01-17 03:47:00.39	288.33	8.05	-51.3	-72.2	3.8	7.43e-01	0	43	104	454033408	74	39579
2026-01-17 03:47:01.67	288.12	8.00	-51.3	-72.2	3.8	7.41e-01	0	43	104	454033408	74	39558
2026-01-17 03:47:02.38	288.00	7.97	-51.3	-72.2	3.8	7.48e-01	0	43	104	454033408	74	39480
2026-01-17 03:47:03.66	287.78	7.92	-51.3	-72.2	3.8	7.45e-01	0	43	104	454033408	74	39579
2026-01-17 03:47:04.37	287.66	7.89	-51.3	-72.2	3.8	7.45e-01	0	43	104	454033408	74	39398
2026-01-17 03:47:05.64	287.45	7.84	-51.3	-72.2	3.8	7.48e-01	0	44	104	454033408	74	39470
2026-01-17 03:47:06.35	287.33	7.81	-51.3	-72.2	3.8	7.45e-01	0	43	104	454033408	74	39453
2026-01-17 03:47:07.63	287.12	7.75	-51.3	-72.2	3.8	7.46e-01	0	44	104	454033408	74	39564
2026-01-17 03:47:08.34	287.00	7.73	-51.3	-72.2	3.8	7.43e-01	0	43	104	454033408	74	39531
2026-01-17 03:47:09.62	286.79	7.67	-51.3	-72.2	3.8	7.49e-01	0	43	104	454033408	74	39557
2026-01-17 03:47:10.34	286.68	7.64	-51.3	-72.2	3.8	7.42e-01	0	43	104	454033408	74	39463
2026-01-17 03:47:11.62	286.47	7.59	-51.3	-72.2	3.8	7.49e-01	0	43	104	454033408	74	39495
2026-01-17 03:47:12.33	286.35	7.56	-51.3	-72.2	3.8	7.45e-01	0	43	104	454033408	74	39493
2026-01-17 03:47:13.61	286.14	7.51	-51.3	-72.2	3.8	7.44e-01	0	43	104	454033408	74	39481
2026-01-17 03:47:14.32	286.03	7.48	-51.3	-72.2	3.8	7.46e-01	0	43	104	454033408	74	39434
2026-01-17 03:47:15.60	285.82	7.42	-51.3	-72.2	3.8	7.46e-01	0	43	104	454033408	74	39510
2026-01-17 03:47:16.31	285.71	7.39	-51.3	-72.2	3.8	7.49e-01	0	43	104	454033408	74	39368
2026-01-17 03:47:17.59	285.50	7.34	-51.3	-72.2	3.8	7.47e-01	0	43	104	454033408	74	39500
2026-01-17 03:47:18.31	285.39	7.31	-51.3	-72.2	3.8	7.43e-01	0	43	104	454033408	74	39456
2026-01-17 03:47:19.59	285.18	7.25	-51.3	-72.2	3.8	7.46e-01	0	43	104	454033408	74	39330
2026-01-17 03:47:20.30	285.07	7.22	-51.3	-72.2	3.8	7.49e-01	0	43	104	454033408	74	39444
2026-01-17 03:47:21.57	284.87	7.17	-51.3	-72.2	3.8	7.47e-01	0	43	104	454033408	74	39495
2026-01-17 03:47:22.28	284.76	7.14	-51.3	-72.2	3.8	7.46e-01	0	43	104	454033408	74	39362
2026-01-17 03:47:23.56	284.55	7.08	-51.3	-72.2	3.8	7.46e-01	0	43	104	454033408	74	39372
2026-01-17 03:47:24.27	284.44	7.05	-51.3	-72.2	3.8	7.46e-01	0	43	104	454033408	74	39416
2026-01-17 03:47:25.55	284.24	6.99	-51.3	-72.2	3.8	7.44e-01	0	43	104	454033408	74	39364
2026-01-17 03:47:26.26	284.13	6.96	-51.3	-72.2	3.8	7.44e-01	0	44	104	454033408	74	39388
2026-01-17 03:47:27.54	283.93	6.91	-51.3	-72.2	3.8	7.47e-01	0	44	104	454033408	74	39330
2026-01-17 03:47:28.26	283.82	6.88	-51.3	-72.2	3.8	7.46e-01	0	43	104	454033408	74	39401
2026-01-17 03:47:29.54	283.62	6.82	-51.3	-72.2	3.8	7.45e-01	0	43	104	454033408	74	39440
2026-01-17 03:47:30.25	283.51	6.79	-51.3	-72.2	3.8	7.47e-01	0	44	104	454033408	74	39423
2026-01-17 03:47:31.53	283.32	6.73	-51.3	-72.2	3.8	7.45e-01	0	43	104	454033408	74	39381
2026-01-17 03:47:32.24	283.21	6.70	-51.3	-72.2	3.8	7.47e-01	0	43	104	454033408	74	39351
2026-01-17 03:47:33.52	283.01	6.64	-51.3	-72.2	3.8	7.47e-01	0	43	104	454033408	74	39308
2026-01-17 03:47:34.23	282.91	6.61	-51.3	-72.2	3.8	7.45e-01	0	43	104	454033408	74	39345
2026-01-17 03:47:35.50	282.71	6.56	-51.3	-72.2	3.8	7.47e-01	0	43	104	454033408	74	39388
2026-01-17 03:47:36.21	282.61	6.53	-51.3	-72.2	3.8	7.47e-01	0	43	104	454033408	74	39393
2026-01-17 03:47:37.49	282.42	6.47	-51.3	-72.2	3.8	7.47e-01	0	43	104	454033408	74	39381
2026-01-17 03:47:38.20	282.31	6.44	-51.3	-72.2	3.8	7.46e-01	0	43	104	454033408	74	39395
2026-01-17 03:47:39.48	282.12	6.38	-51.3	-72.2	3.8	7.46e-01	0	43	104	454033408	74	39331
2026-01-17 03:47:40.17	282.01	6.35	-51.3	-72.2	3.8	7.45e-01	0	43	104	454033408	74	39302
2026-01-17 03:47:41.59	281.80	6.28	-51.3	-72.2	3.8	7.46e-01	0	43	104	454033408	74	39391
2026-01-17 03:47:42.30	281.70	6.25	-51.3	-72.2	3.8	7.46e-01	0	43	104	454033408	74	39418
2026-01-17 03:47:43.59	281.51	6.19	-51.3	-72.2	3.8	7.46e-01	0	43	104	454033408	74	39366
2026-01-17 03:47:44.30	281.41	6.16	-51.3	-72.2	3.8	7.45e-01	0	44	104	454033408	74	39275
2026-01-17 03:47:45.58	281.22	6.11	-51.3	-72.2	3.8	7.45e-01	0	43	104	454033408	74	39346
2026-01-17 03:47:46.31	281.11	6.07	-51.3	-72.2	3.8	7.44e-01	0	43	104	454033408	74	39300
2026-01-17 03:47:47.58	280.93	6.01	-51.3	-72.2	3.8	7.46e-01	0	43	104	454033408	74	39249
2026-01-17 03:47:48.29	280.82	5.98	-51.3	-72.2	3.8	7.45e-01	0	44	104	454033408	74	39330
2026-01-17 03:47:49.57	280.64	5.92	-51.3	-72.2	3.8	7.44e-01	0	43	104	454033408	74	39306
2026-01-17 03:47:50.28	280.54	5.89	-51.3	-72.2	3.8	7.46e-01	0	44	104	454033408	74	39345
2026-01-17 03:47:51.56	280.35	5.83	-51.3	-72.2	3.8	7.44e-01	0	43	104	454033408	74	39309
2026-01-17 03:47:52.28	280.25	5.80	-51.3	-72.2	3.8	7.47e-01	0	43	104	454033408	74	39347
2026-01-17 03:47:53.56	280.07	5.74	-51.3	-72.2	3.8	7.45e-01	0	43	104	454033408	74	39308
2026-01-17 03:47:54.27	279.97	5.71	-51.3	-72.2	3.8	7.46e-01	0	43	104	454033408	74	39321
2026-01-17 03:47:55.55	279.79	5.65	-51.3	-72.2	3.8	7.46e-01	0	43	104	454033408	74	39357
2026-01-17 03:47:56.26	279.69	5.62	-51.3	-72.2	3.8	7.49e-01	0	43	104	454033408	74	39320
2026-01-17 03:47:57.53	279.51	5.56	-51.3	-72.2	3.8	7.42e-01	0	43	104	454033408	74	39283
2026-01-17 03:47:58.24	279.41	5.53	-51.3	-72.2	3.8	7.45e-01	0	43	104	454033408	74	39255
2026-01-17 03:47:59.52	279.23	5.47	-51.3	-72.2	3.8	7.45e-01	0	44	104	454033408	74	39264
2026-01-17 03:48:00.23	279.13	5.44	-51.3	-72.2	3.8	7.48e-01	0	44	104	454033408	74	39271
2026-01-17 03:48:01.51	278.96	5.38	-51.3	-72.2	3.8	7.48e-01	0	44	104	454033408	74	39319
2026-01-17 03:48:02.22	278.86	5.34	-51.3	-72.2	3.8	7.46e-01	0	43	104	454033408	74	39285
2026-01-17 03:48:03.50	278.68	5.28	-51.3	-72.2	3.8	7.47e-01	0	44	104	454033408	74	39252
2026-01-17 03:48:04.21	278.59	5.25	-51.3	-72.2	3.8	7.49e-01	0	43	104	454033408	74	39213
2026-01-17 03:48:05.48	278.41	5.19	-51.3	-72.2	3.8	7.46e-01	0	43	104	454033408	74	39310
2026-01-17 03:48:06.19	278.32	5.16	-51.3	-72.2	3.8	7.46e-01	0	43	104	454033408	74	39260
2026-01-17 03:48:07.48	278.14	5.10	-51.3	-72.2	3.8	7.46e-01	0	43	104	454033408	74	39264
2026-01-17 03:48:08.21	278.04	5.07	-51.3	-72.2	3.8	7.48e-01	0	43	104	454033408	74	39335
2026-01-17 03:48:09.48	277.87	5.01	-51.3	-72.2	3.8	7.48e-01	0	43	104	454033408	74	39291
2026-01-17 03:48:10.21	277.77	4.97	-51.3	-72.2	3.8	7.47e-01	0	43	104	454033408	74	39225

#Closed at: 2026-01-17 03:48:11
#Recorded file [454 MB]: D:/Data/31040_260117_064107.dat