passes_logs/2026/01/17/T1/T1__20260117_002519_AQUA_rec.log

#Pass ID: 20260117_002519_AQUA
#Satellite: AQUA
#Configuration: AQUA
#almurnet v.1.7.20251203
#Start time: 2026-01-17 00:25:21

#Version: 2.0.20230620
#Station: T1
#Location: 37.570604 lon 55.790049 lat
#TLE: 1 27424U 02022A   26016.26443506  .00000711  00000+0  15228-3 0  9999
#TLE: 2 27424  98.4083 342.7130 0002022  76.7284  27.4473 14.61823291261073

#Time	Az	El	Level	Level2	SNR	BER	BlckErr	Temp	State	Recorded	gain1	gain2
2026-01-17 00:25:21.64	25.60	5.15	-49.8	-71.8	3.8	7.48e-01	0	41	0	0	70	47460
2026-01-17 00:25:22.63	25.67	5.22	-49.8	-71.8	3.8	7.46e-01	0	41	104	0	70	47284
2026-01-17 00:25:23.63	25.74	5.29	-49.8	-71.9	3.8	7.45e-01	0	41	104	0	70	47852
2026-01-17 00:25:24.63	25.81	5.36	-49.8	-71.9	3.8	7.48e-01	0	41	104	0	70	47757
2026-01-17 00:25:25.62	25.88	5.43	-49.8	-71.8	3.8	7.44e-01	0	41	104	0	70	47467
2026-01-17 00:25:26.62	25.95	5.50	-49.8	-71.8	3.8	7.42e-01	0	41	104	0	70	47459
2026-01-17 00:25:27.62	26.02	5.57	-49.8	-71.8	3.8	7.46e-01	0	41	104	0	70	47337
2026-01-17 00:25:28.62	26.09	5.64	-49.8	-71.8	3.8	7.47e-01	0	41	104	0	70	47422
2026-01-17 00:25:29.61	26.17	5.71	-49.8	-71.8	3.8	7.47e-01	0	41	104	0	70	47404
2026-01-17 00:25:30.61	26.24	5.78	-49.8	-71.8	3.8	7.47e-01	0	41	104	0	70	47461
2026-01-17 00:25:31.61	26.31	5.85	-49.8	-71.9	3.8	7.46e-01	0	41	104	0	70	47714
2026-01-17 00:25:32.60	26.38	5.92	-49.8	-71.9	3.8	7.43e-01	0	41	104	0	70	47666
2026-01-17 00:25:33.60	26.46	5.99	-49.8	-71.8	3.8	7.46e-01	0	41	104	0	70	47477
2026-01-17 00:25:34.60	26.53	6.06	-49.8	-71.8	3.8	7.44e-01	0	42	104	0	70	47096
2026-01-17 00:25:35.59	26.60	6.13	-49.8	-71.7	3.8	7.46e-01	0	42	104	0	70	46836
2026-01-17 00:25:36.59	26.68	6.20	-49.8	-71.7	3.8	7.46e-01	0	42	104	0	70	46886
2026-01-17 00:25:37.58	26.75	6.27	-49.8	-71.8	3.8	7.50e-01	0	42	104	0	70	47349
2026-01-17 00:25:38.58	26.83	6.34	-49.8	-71.8	3.8	7.46e-01	0	42	104	0	70	47542
2026-01-17 00:25:39.58	26.90	6.41	-49.8	-71.8	3.8	7.44e-01	0	42	104	0	70	47502
2026-01-17 00:25:40.57	26.98	6.48	-49.8	-71.9	3.8	7.45e-01	0	42	104	0	70	47757
2026-01-17 00:25:41.57	27.05	6.56	-49.9	-71.9	3.8	7.48e-01	0	42	104	0	70	47969
2026-01-17 00:25:42.57	27.13	6.63	-49.8	-71.7	3.8	7.48e-01	0	42	104	0	70	46925
2026-01-17 00:25:43.56	27.21	6.70	-49.6	-71.3	3.8	7.45e-01	0	42	104	0	70	44817
2026-01-17 00:25:44.56	27.29	6.77	-49.5	-71.2	3.8	7.46e-01	0	42	104	0	70	44189
2026-01-17 00:25:45.56	27.36	6.85	-49.6	-71.2	3.8	7.51e-01	0	42	104	0	70	44041
2026-01-17 00:25:46.55	27.44	6.92	-49.7	-70.9	3.8	7.47e-01	0	42	104	0	70	42503
2026-01-17 00:25:47.55	27.52	6.99	-49.6	-70.3	3.8	7.47e-01	0	42	104	0	70	39838
2026-01-17 00:25:48.54	27.60	7.06	-49.5	-70.0	3.8	7.47e-01	0	42	104	0	70	38514
2026-01-17 00:25:49.54	27.68	7.14	-49.5	-70.1	3.8	7.45e-01	0	42	104	0	70	38853
2026-01-17 00:25:50.53	27.76	7.21	-49.7	-70.5	3.8	7.46e-01	0	42	104	0	70	40622
2026-01-17 00:25:51.53	27.84	7.29	-49.7	-70.9	3.8	7.44e-01	0	42	104	0	70	42483
2026-01-17 00:25:52.52	27.92	7.36	-49.8	-71.3	3.8	7.45e-01	0	42	104	0	70	44659
2026-01-17 00:25:53.52	28.00	7.43	-49.8	-71.6	3.8	7.45e-01	0	42	104	0	70	46327
2026-01-17 00:25:54.52	28.08	7.51	-49.6	-71.3	3.8	7.44e-01	0	42	104	0	70	44716
2026-01-17 00:25:55.51	28.16	7.58	-49.2	-70.4	3.8	7.44e-01	0	42	104	0	70	40294
2026-01-17 00:25:56.51	28.24	7.66	-48.9	-69.7	3.8	7.46e-01	0	42	104	0	69	39222
2026-01-17 00:25:57.51	28.33	7.73	-48.9	-69.5	3.8	7.44e-01	0	42	104	0	69	38349
2026-01-17 00:25:58.50	28.41	7.81	-49.0	-69.5	3.8	7.43e-01	0	42	104	0	69	38257
2026-01-17 00:25:59.50	28.49	7.88	-49.2	-69.5	3.8	7.44e-01	0	42	104	0	69	38609
2026-01-17 00:26:00.50	28.58	7.96	-49.3	-69.5	3.8	7.45e-01	0	42	104	0	69	38391
2026-01-17 00:26:01.49	28.66	8.03	-49.2	-69.3	3.8	7.44e-01	0	42	104	0	69	37730
2026-01-17 00:26:02.49	28.75	8.11	-49.3	-69.2	3.9	7.44e-01	0	42	104	0	69	37272
2026-01-17 00:26:03.49	28.83	8.19	-49.4	-69.1	3.8	7.45e-01	0	42	104	0	69	36659
2026-01-17 00:26:04.48	28.92	8.26	-49.6	-68.9	3.8	7.44e-01	0	42	104	0	69	35938
2026-01-17 00:26:05.48	29.00	8.34	-49.6	-68.2	4.2	7.34e-01	0	42	104	0	69	33132
2026-01-17 00:26:06.48	29.09	8.42	-49.7	-68.0	4.3	7.32e-01	0	43	104	0	70	30597
2026-01-17 00:26:07.47	29.18	8.49	-49.7	-67.1	4.6	7.22e-01	0	42	104	0	70	27668
2026-01-17 00:26:08.47	29.26	8.57	-49.7	-65.8	5.3	7.02e-01	0	43	0	0	70	23589
2026-01-17 00:26:09.47	29.35	8.65	-49.6	-63.7	6.9	6.64e-01	0	43	0	1048576	70	18625
2026-01-17 00:26:10.47	29.44	8.73	-49.4	-61.2	9.3	6.27e-01	0	43	0	3145728	70	14011
2026-01-17 00:26:11.47	29.53	8.80	-49.1	-59.0	11.6	6.12e-01	0	42	0	4718592	70	10863
2026-01-17 00:26:12.46	29.62	8.88	-48.7	-56.8	13.9	6.06e-01	0	43	0	6815744	69	8906
2026-01-17 00:26:13.46	29.71	8.96	-48.3	-55.2	15.5	6.03e-01	0	42	0	8912896	68	7873
2026-01-17 00:26:14.46	29.80	9.04	-47.1	-52.3	18.1	6.04e-01	0	42	0	10485760	66	6319
2026-01-17 00:26:15.46	29.89	9.12	-47.7	-55.1	16.0	6.02e-01	0	43	0	12582912	67	8204
2026-01-17 00:26:16.46	29.99	9.20	-48.2	-55.9	14.5	6.03e-01	0	42	0	14155776	68	8503
2026-01-17 00:26:17.46	30.08	9.28	-48.7	-56.9	14.4	6.05e-01	0	43	0	16252928	67	10079
2026-01-17 00:26:18.46	30.17	9.36	-47.8	-54.6	14.9	6.05e-01	0	43	0	17825792	67	7737
2026-01-17 00:26:19.45	30.26	9.43	-44.8	-48.5	22.2	6.04e-01	0	43	0	19922944	61	5420
2026-01-17 00:26:20.46	30.36	9.52	-44.7	-48.4	22.2	6.00e-01	0	43	0	22020096	61	5350
2026-01-17 00:26:21.46	30.45	9.60	-44.7	-48.3	22.3	6.05e-01	0	42	0	23592960	61	5322
2026-01-17 00:26:22.46	30.55	9.68	-44.7	-48.3	22.3	6.02e-01	0	43	0	25690112	61	5291
2026-01-17 00:26:23.46	30.64	9.76	-44.5	-48.0	22.5	6.05e-01	0	43	0	27262976	61	5154
2026-01-17 00:26:24.46	30.74	9.84	-44.6	-48.1	22.4	6.04e-01	0	43	0	29360128	61	5195
2026-01-17 00:26:25.46	30.84	9.92	-44.6	-48.0	22.6	6.04e-01	0	43	0	30932992	61	5103
2026-01-17 00:26:26.47	30.94	10.00	-44.6	-47.9	22.6	6.05e-01	0	43	0	33030144	61	5078
2026-01-17 00:26:27.47	31.03	10.08	-44.7	-47.9	22.6	6.04e-01	0	43	0	35127296	61	5099
2026-01-17 00:26:28.47	31.13	10.17	-44.8	-47.9	22.7	6.06e-01	0	43	0	36700160	61	5082
2026-01-17 00:26:29.47	31.23	10.25	-44.7	-47.8	22.8	6.04e-01	0	43	0	38797312	61	5027
2026-01-17 00:26:30.47	31.33	10.33	-44.8	-47.9	22.8	6.03e-01	0	43	0	40370176	61	5050
2026-01-17 00:26:31.47	31.43	10.41	-44.9	-47.8	22.8	6.02e-01	0	43	0	42467328	61	5019
2026-01-17 00:26:32.47	31.53	10.50	-44.8	-47.7	22.9	6.04e-01	0	43	0	44564480	61	4975
2026-01-17 00:26:33.48	31.63	10.58	-44.9	-47.7	22.9	6.03e-01	0	43	0	46137344	61	4983
2026-01-17 00:26:34.47	31.73	10.66	-44.8	-47.7	22.9	6.04e-01	0	43	0	48234496	61	4952
2026-01-17 00:26:35.47	31.84	10.75	-44.7	-47.6	23.0	6.05e-01	0	43	0	49807360	61	4907
2026-01-17 00:26:36.48	31.94	10.83	-44.6	-47.6	22.9	6.00e-01	0	43	0	51904512	61	4919
2026-01-17 00:26:37.48	32.05	10.92	-44.6	-47.8	22.8	6.05e-01	0	43	0	53477376	61	5015
2026-01-17 00:26:38.48	32.15	11.00	-44.5	-47.8	22.9	6.02e-01	0	43	0	55574528	61	4992
2026-01-17 00:26:39.48	32.25	11.08	-44.4	-47.6	23.0	6.02e-01	0	43	0	57671680	60	5205
2026-01-17 00:26:40.48	32.36	11.17	-44.4	-47.6	23.0	6.02e-01	0	43	0	59244544	60	5189
2026-01-17 00:26:41.48	32.47	11.25	-44.4	-47.5	23.1	6.04e-01	0	43	0	61341696	60	5147
2026-01-17 00:26:42.48	32.57	11.34	-44.5	-47.5	23.2	6.02e-01	0	43	0	62914560	60	5134
2026-01-17 00:26:43.48	32.68	11.43	-44.6	-47.5	23.1	6.02e-01	0	43	0	65011712	60	5149
2026-01-17 00:26:44.48	32.79	11.51	-44.5	-47.5	23.2	6.02e-01	0	43	0	66584576	60	5105
2026-01-17 00:26:45.48	32.90	11.60	-44.5	-47.4	23.3	6.03e-01	0	43	0	68681728	60	5064
2026-01-17 00:26:46.48	33.01	11.68	-44.5	-47.5	23.2	6.04e-01	0	43	0	70778880	60	5111
2026-01-17 00:26:47.48	33.12	11.77	-44.5	-47.5	23.2	6.02e-01	0	43	0	72351744	60	5109
2026-01-17 00:26:48.48	33.23	11.86	-44.5	-47.4	23.2	6.04e-01	0	43	0	74448896	60	5100
2026-01-17 00:26:49.48	33.34	11.95	-44.6	-47.5	23.2	6.06e-01	0	43	0	76021760	60	5111
2026-01-17 00:26:50.48	33.45	12.03	-44.6	-47.4	23.3	6.03e-01	0	43	0	78118912	60	5060
2026-01-17 00:26:51.48	33.57	12.12	-44.6	-47.4	23.3	6.04e-01	0	43	0	79691776	60	5042
2026-01-17 00:26:52.48	33.68	12.21	-44.7	-47.5	23.2	6.03e-01	0	43	0	81788928	60	5141
2026-01-17 00:26:53.48	33.79	12.30	-44.5	-47.3	23.4	6.04e-01	0	43	0	83886080	60	5035
2026-01-17 00:26:54.48	33.91	12.38	-44.4	-47.4	23.4	6.03e-01	0	43	0	85458944	60	5048
2026-01-17 00:26:55.48	34.02	12.47	-44.3	-47.2	23.5	6.04e-01	0	43	0	87556096	60	4980
2026-01-17 00:26:56.48	34.14	12.56	-44.3	-47.2	23.5	6.01e-01	0	43	0	89128960	60	4968
2026-01-17 00:26:57.48	34.26	12.65	-44.3	-47.2	23.5	6.03e-01	0	43	0	91226112	60	4931
2026-01-17 00:26:58.48	34.38	12.74	-44.5	-47.3	23.4	6.05e-01	0	43	0	92798976	60	4985
2026-01-17 00:26:59.49	34.50	12.83	-44.5	-47.1	23.6	6.02e-01	0	43	0	94896128	60	4885
2026-01-17 00:27:00.49	34.62	12.92	-44.3	-46.9	23.8	6.04e-01	0	43	0	96993280	60	4806
2026-01-17 00:27:01.49	34.74	13.01	-44.3	-47.0	23.7	6.01e-01	0	43	0	98566144	60	4828
2026-01-17 00:27:02.49	34.86	13.10	-44.1	-47.0	23.7	6.04e-01	0	43	0	100663296	60	4867
2026-01-17 00:27:03.49	34.98	13.19	-44.0	-47.2	23.6	6.04e-01	0	43	0	102236160	59	5238
2026-01-17 00:27:04.49	35.10	13.29	-43.9	-47.3	23.5	6.02e-01	0	43	0	104333312	59	5315
2026-01-17 00:27:05.49	35.23	13.38	-44.0	-47.4	23.5	6.04e-01	0	43	0	106430464	59	5349
2026-01-17 00:27:06.49	35.35	13.47	-44.3	-47.5	23.3	6.04e-01	0	43	0	108003328	59	5426
2026-01-17 00:27:07.49	35.47	13.56	-44.2	-47.2	23.6	6.05e-01	0	43	0	110100480	59	5274
2026-01-17 00:27:08.49	35.60	13.65	-44.2	-47.2	23.6	6.04e-01	0	43	0	111673344	59	5246
2026-01-17 00:27:09.50	35.73	13.75	-44.1	-47.1	23.7	6.03e-01	0	43	0	113770496	59	5197
2026-01-17 00:27:10.50	35.86	13.84	-44.0	-47.2	23.6	6.03e-01	0	43	0	115867648	59	5235
2026-01-17 00:27:11.50	35.98	13.93	-43.8	-47.1	23.7	6.03e-01	0	43	0	117440512	59	5179
2026-01-17 00:27:12.50	36.11	14.03	-43.7	-47.1	23.7	6.03e-01	0	43	0	119537664	59	5169
2026-01-17 00:27:13.50	36.24	14.12	-43.6	-47.2	23.7	6.04e-01	0	43	0	121110528	59	5222
2026-01-17 00:27:14.50	36.37	14.21	-43.5	-47.1	23.7	6.03e-01	0	43	0	123207680	59	5200
2026-01-17 00:27:15.51	36.51	14.31	-43.6	-47.2	23.7	6.03e-01	0	43	0	124780544	59	5235
2026-01-17 00:27:16.50	36.64	14.40	-43.7	-47.2	23.7	6.05e-01	0	43	0	126877696	59	5241
2026-01-17 00:27:17.51	36.77	14.50	-44.0	-47.1	23.7	6.03e-01	0	43	0	128974848	59	5217
2026-01-17 00:27:18.51	36.91	14.59	-44.2	-47.2	23.7	6.02e-01	0	43	0	130547712	59	5227
2026-01-17 00:27:19.51	37.04	14.69	-44.2	-47.0	23.8	6.02e-01	0	43	0	132644864	59	5154
2026-01-17 00:27:20.51	37.18	14.78	-44.2	-47.1	23.8	6.03e-01	0	43	0	134217728	59	5175
2026-01-17 00:27:21.52	37.32	14.88	-44.1	-47.2	23.7	6.01e-01	0	43	0	136314880	59	5224
2026-01-17 00:27:22.51	37.45	14.98	-43.9	-47.2	23.7	6.03e-01	0	43	0	137887744	59	5219
2026-01-17 00:27:23.51	37.59	15.07	-43.4	-47.0	23.8	6.03e-01	0	43	0	139984896	58	5449
2026-01-17 00:27:24.52	37.73	15.17	-43.2	-47.0	23.8	6.03e-01	0	43	0	142082048	58	5433
2026-01-17 00:27:25.52	37.87	15.27	-43.1	-47.0	23.8	6.05e-01	0	43	0	143654912	58	5442
2026-01-17 00:27:26.52	38.02	15.36	-43.2	-47.0	23.8	6.04e-01	0	43	0	145752064	58	5452
2026-01-17 00:27:27.52	38.16	15.46	-43.2	-47.0	23.8	6.02e-01	0	43	0	147324928	58	5452
2026-01-17 00:27:28.52	38.30	15.56	-43.4	-46.9	23.9	6.03e-01	0	43	0	149422080	58	5402
2026-01-17 00:27:29.52	38.45	15.66	-43.6	-47.0	23.8	6.04e-01	0	43	0	151519232	58	5462
2026-01-17 00:27:30.52	38.59	15.75	-43.8	-47.1	23.7	6.04e-01	0	43	0	153092096	58	5512
2026-01-17 00:27:31.52	38.74	15.85	-43.8	-47.1	23.7	6.04e-01	0	43	0	155189248	58	5480
2026-01-17 00:27:32.53	38.89	15.95	-43.6	-47.0	23.9	6.03e-01	0	43	0	156762112	58	5428
2026-01-17 00:27:33.53	39.04	16.05	-43.6	-46.9	23.8	6.03e-01	0	43	0	158859264	58	5398
2026-01-17 00:27:34.53	39.18	16.15	-43.5	-46.9	23.9	6.03e-01	0	43	0	160432128	58	5381
2026-01-17 00:27:35.52	39.33	16.25	-43.7	-47.0	23.7	6.02e-01	0	43	0	162529280	58	5463
2026-01-17 00:27:36.53	39.49	16.35	-43.6	-46.9	23.9	6.05e-01	0	43	0	164626432	58	5355
2026-01-17 00:27:37.52	39.64	16.45	-43.7	-47.0	23.9	6.02e-01	0	43	0	166199296	58	5425
2026-01-17 00:27:38.52	39.79	16.55	-43.8	-46.9	24.0	6.03e-01	0	43	0	168296448	58	5358
2026-01-17 00:27:39.53	39.95	16.65	-43.9	-46.8	24.0	6.04e-01	0	43	0	169869312	58	5336
2026-01-17 00:27:40.53	40.10	16.75	-44.1	-46.8	24.0	6.01e-01	0	43	0	171966464	58	5323
2026-01-17 00:27:41.53	40.26	16.86	-44.2	-46.8	24.0	6.06e-01	0	43	0	173539328	59	5038
2026-01-17 00:27:42.53	40.42	16.96	-44.3	-46.9	24.0	6.04e-01	0	43	0	175636480	59	5057
2026-01-17 00:27:43.53	40.58	17.06	-44.4	-47.0	23.9	6.02e-01	0	43	0	177733632	59	5134
2026-01-17 00:27:44.52	40.74	17.16	-44.4	-47.0	23.8	6.07e-01	0	43	0	179306496	59	5123
2026-01-17 00:27:45.53	40.90	17.26	-44.4	-46.9	23.9	6.05e-01	0	43	0	181403648	59	5081
2026-01-17 00:27:46.52	41.06	17.37	-44.2	-46.8	24.1	6.05e-01	0	43	0	182976512	59	4985
2026-01-17 00:27:47.53	41.23	17.47	-44.2	-46.7	24.1	6.02e-01	0	43	0	185073664	59	4950
2026-01-17 00:27:48.53	41.39	17.57	-44.2	-46.8	24.1	6.04e-01	0	43	0	186646528	59	4985
2026-01-17 00:27:49.53	41.56	17.68	-44.3	-46.8	24.0	6.03e-01	0	43	0	188743680	59	5035
2026-01-17 00:27:50.53	41.72	17.78	-44.3	-46.7	24.1	6.03e-01	0	43	0	190840832	59	4973
2026-01-17 00:27:51.53	41.89	17.88	-44.3	-46.8	24.1	6.03e-01	0	43	0	192413696	59	5000
2026-01-17 00:27:52.52	42.06	17.99	-44.3	-46.8	24.0	6.03e-01	0	43	0	194510848	59	5026
2026-01-17 00:27:53.52	42.23	18.09	-44.3	-46.8	24.1	6.03e-01	0	43	0	196083712	59	4992
2026-01-17 00:27:54.53	42.41	18.20	-44.3	-46.8	23.9	6.04e-01	0	43	0	198180864	59	4989
2026-01-17 00:27:55.53	42.58	18.30	-44.3	-46.7	24.1	6.03e-01	0	43	0	200278016	59	4980
2026-01-17 00:27:56.53	42.75	18.41	-44.3	-46.8	24.1	6.03e-01	0	43	0	201850880	59	4992
2026-01-17 00:27:57.53	42.93	18.51	-44.2	-46.7	24.1	6.05e-01	0	43	0	203948032	59	4960
2026-01-17 00:27:58.53	43.11	18.62	-44.2	-46.7	24.1	6.03e-01	0	43	0	205520896	59	4954
2026-01-17 00:27:59.53	43.28	18.73	-44.3	-46.7	24.1	6.05e-01	0	43	0	207618048	59	4983
2026-01-17 00:28:00.53	43.46	18.83	-44.2	-46.7	24.1	6.05e-01	0	43	0	209190912	59	4958
2026-01-17 00:28:01.53	43.65	18.94	-44.1	-46.7	24.2	6.03e-01	0	43	0	211288064	59	4957
2026-01-17 00:28:02.53	43.83	19.05	-44.2	-46.8	24.0	6.03e-01	0	43	0	213385216	59	5031
2026-01-17 00:28:03.53	44.01	19.15	-44.2	-46.8	24.0	6.03e-01	0	43	0	214958080	59	5038
2026-01-17 00:28:04.53	44.20	19.26	-44.2	-46.7	24.2	6.03e-01	0	43	0	217055232	59	4960
2026-01-17 00:28:05.53	44.38	19.37	-44.2	-46.7	24.2	6.03e-01	0	43	0	218628096	59	4934
2026-01-17 00:28:06.53	44.57	19.48	-44.3	-46.8	24.1	6.03e-01	0	43	0	220725248	59	5025
2026-01-17 00:28:07.54	44.76	19.59	-44.3	-46.8	24.1	6.06e-01	0	43	0	222298112	59	5022
2026-01-17 00:28:08.53	44.95	19.69	-44.3	-46.8	24.1	6.03e-01	0	43	0	224395264	59	4998
2026-01-17 00:28:09.54	45.14	19.80	-44.3	-46.8	24.1	6.05e-01	0	43	0	226492416	59	5012
2026-01-17 00:28:10.54	45.34	19.91	-44.2	-46.7	24.1	6.01e-01	0	43	0	228065280	59	4982
2026-01-17 00:28:11.54	45.53	20.02	-44.1	-46.7	24.2	6.02e-01	0	43	0	230162432	59	4958
2026-01-17 00:28:12.54	45.73	20.13	-44.1	-46.7	24.1	6.03e-01	0	43	0	231735296	59	4976
2026-01-17 00:28:13.54	45.92	20.24	-44.1	-46.7	24.1	6.02e-01	0	43	0	233832448	59	4966
2026-01-17 00:28:14.54	46.12	20.35	-44.1	-46.8	24.1	6.01e-01	0	43	0	235405312	59	4996
2026-01-17 00:28:15.54	46.32	20.46	-44.3	-46.9	24.0	6.03e-01	0	43	0	237502464	59	5061
2026-01-17 00:28:16.54	46.53	20.57	-44.3	-46.9	24.0	6.05e-01	0	43	0	239599616	59	5084
2026-01-17 00:28:17.54	46.73	20.68	-44.3	-46.9	24.0	6.03e-01	0	43	0	241172480	59	5056
2026-01-17 00:28:18.54	46.93	20.79	-44.2	-46.8	24.1	6.06e-01	0	43	0	243269632	59	4986
2026-01-17 00:28:19.54	47.14	20.90	-44.2	-46.7	24.1	6.03e-01	0	43	0	244842496	59	4977
2026-01-17 00:28:20.53	47.35	21.01	-44.3	-46.8	24.1	6.05e-01	0	43	0	246939648	59	4988
2026-01-17 00:28:21.54	47.56	21.12	-44.4	-46.9	24.0	6.06e-01	0	43	0	249036800	59	5058
2026-01-17 00:28:22.54	47.77	21.23	-44.4	-46.8	24.1	6.03e-01	0	43	0	250609664	59	5041
2026-01-17 00:28:23.53	47.98	21.34	-44.4	-46.9	24.0	6.04e-01	0	43	0	252706816	59	5084
2026-01-17 00:28:24.53	48.19	21.45	-44.5	-47.0	23.9	6.05e-01	0	43	0	254279680	59	5151
2026-01-17 00:28:25.53	48.41	21.56	-44.4	-46.9	24.0	6.04e-01	0	43	0	256376832	59	5090
2026-01-17 00:28:26.53	48.63	21.68	-44.4	-46.9	23.9	6.03e-01	0	43	0	257949696	59	5079
2026-01-17 00:28:27.53	48.85	21.79	-44.5	-47.0	23.8	6.05e-01	0	43	0	260046848	59	5135
2026-01-17 00:28:28.53	49.07	21.90	-44.4	-47.0	23.9	6.04e-01	0	43	0	262144000	59	5108
2026-01-17 00:28:29.53	49.29	22.01	-44.4	-46.9	24.0	6.03e-01	0	43	0	263716864	59	5067
2026-01-17 00:28:30.53	49.51	22.12	-44.3	-46.8	24.1	6.05e-01	0	43	0	265814016	59	5014
2026-01-17 00:28:31.54	49.74	22.24	-44.4	-46.9	24.0	6.03e-01	0	43	0	267386880	59	5067
2026-01-17 00:28:32.54	49.97	22.35	-44.4	-46.9	24.0	6.06e-01	0	43	0	269484032	59	5072
2026-01-17 00:28:33.54	50.20	22.46	-44.6	-47.1	23.8	6.04e-01	0	43	0	271056896	59	5182
2026-01-17 00:28:34.54	50.43	22.57	-44.5	-47.0	24.0	6.04e-01	0	43	0	273154048	59	5105
2026-01-17 00:28:35.54	50.66	22.69	-44.5	-47.0	23.9	6.03e-01	0	43	0	275251200	59	5146
2026-01-17 00:28:36.54	50.89	22.80	-44.5	-47.1	23.9	6.03e-01	0	43	0	276824064	59	5172
2026-01-17 00:28:37.54	51.13	22.91	-44.3	-46.8	24.0	6.03e-01	0	43	0	278921216	59	5039
2026-01-17 00:28:38.54	51.37	23.03	-44.4	-46.9	24.0	6.03e-01	0	43	0	280494080	59	5069
2026-01-17 00:28:39.55	51.61	23.14	-44.5	-47.0	23.9	6.03e-01	0	43	0	282591232	59	5140
2026-01-17 00:28:40.55	51.85	23.25	-44.5	-47.1	23.8	6.05e-01	0	43	0	284688384	59	5176
2026-01-17 00:28:41.55	52.09	23.37	-44.6	-47.1	23.8	6.03e-01	0	43	0	286261248	59	5215
2026-01-17 00:28:42.55	52.34	23.48	-44.5	-47.0	23.9	6.02e-01	0	43	0	288358400	59	5149
2026-01-17 00:28:43.55	52.59	23.59	-44.6	-47.2	23.8	6.05e-01	0	43	0	289931264	59	5224
2026-01-17 00:28:44.55	52.83	23.70	-44.5	-47.1	23.8	6.05e-01	0	43	0	292028416	60	4899
2026-01-17 00:28:45.55	53.08	23.82	-44.5	-47.1	23.8	6.05e-01	0	43	0	294125568	60	4871
2026-01-17 00:28:46.55	53.34	23.93	-44.3	-46.9	23.9	6.03e-01	0	43	0	295698432	60	4788
2026-01-17 00:28:47.55	53.59	24.04	-44.3	-46.8	24.0	6.03e-01	0	43	0	297795584	60	4744
2026-01-17 00:28:48.55	53.85	24.16	-44.4	-47.0	23.9	6.03e-01	0	43	0	299368448	60	4821
2026-01-17 00:28:49.54	54.10	24.27	-44.4	-47.0	23.8	6.03e-01	0	43	0	301465600	60	4829
2026-01-17 00:28:50.54	54.36	24.38	-44.5	-47.1	23.8	6.05e-01	0	43	0	303038464	60	4892
2026-01-17 00:28:51.54	54.62	24.49	-44.4	-47.0	23.9	6.04e-01	0	43	0	305135616	60	4842
2026-01-17 00:28:52.55	54.89	24.61	-44.5	-47.0	23.8	6.05e-01	0	43	0	307232768	60	4864
2026-01-17 00:28:53.54	55.15	24.72	-44.4	-47.0	23.9	6.03e-01	0	43	0	308805632	60	4825
2026-01-17 00:28:54.54	55.42	24.83	-44.6	-47.1	23.8	6.04e-01	0	43	0	310902784	60	4907
2026-01-17 00:28:55.54	55.69	24.95	-44.5	-47.0	23.9	6.02e-01	0	43	0	312475648	60	4852
2026-01-17 00:28:56.54	55.96	25.06	-44.5	-47.0	23.9	6.05e-01	0	43	0	314572800	60	4825
2026-01-17 00:28:57.54	56.24	25.17	-44.5	-46.9	23.9	6.03e-01	0	43	0	316145664	60	4809
2026-01-17 00:28:58.54	56.51	25.28	-44.5	-47.0	23.9	6.04e-01	0	43	0	318242816	60	4819
2026-01-17 00:28:59.55	56.79	25.40	-44.4	-46.9	23.9	6.02e-01	0	43	0	320339968	60	4807
2026-01-17 00:29:00.55	57.07	25.51	-44.4	-46.9	24.0	6.02e-01	0	43	0	321912832	60	4764
2026-01-17 00:29:01.55	57.35	25.62	-44.4	-46.9	24.0	6.07e-01	0	43	0	324009984	60	4761
2026-01-17 00:29:02.55	57.64	25.73	-44.5	-47.0	23.8	6.01e-01	0	43	0	325582848	60	4858
2026-01-17 00:29:03.55	57.92	25.84	-44.4	-46.9	23.9	6.04e-01	0	43	0	327680000	60	4805
2026-01-17 00:29:04.55	58.21	25.95	-44.5	-47.0	23.9	6.06e-01	0	43	0	329252864	60	4846
2026-01-17 00:29:05.55	58.50	26.06	-44.5	-47.0	23.9	6.04e-01	0	43	0	331350016	60	4865
2026-01-17 00:29:06.55	58.79	26.17	-44.5	-47.1	23.8	6.05e-01	0	43	0	333447168	60	4891
2026-01-17 00:29:07.56	59.09	26.29	-44.4	-46.9	23.9	6.05e-01	0	43	0	335020032	60	4805
2026-01-17 00:29:08.56	59.39	26.40	-44.5	-47.1	23.8	6.05e-01	0	43	0	337117184	60	4899
2026-01-17 00:29:09.56	59.68	26.51	-44.6	-47.1	23.8	6.04e-01	0	43	0	338690048	60	4891
2026-01-17 00:29:10.56	59.98	26.61	-44.5	-47.0	23.9	6.04e-01	0	43	0	340787200	60	4824
2026-01-17 00:29:11.56	60.29	26.72	-44.6	-47.1	23.8	6.04e-01	0	43	0	342360064	60	4908
2026-01-17 00:29:12.56	60.59	26.83	-44.5	-47.1	23.7	6.05e-01	0	43	0	344457216	60	4910
2026-01-17 00:29:13.56	60.90	26.94	-44.4	-47.0	23.8	6.01e-01	0	43	0	346554368	60	4848
2026-01-17 00:29:14.56	61.21	27.05	-44.3	-46.9	24.0	6.02e-01	0	43	0	348127232	60	4790
2026-01-17 00:29:15.55	61.52	27.16	-44.4	-47.1	23.9	6.03e-01	0	43	0	350224384	60	4872
2026-01-17 00:29:16.56	61.83	27.26	-44.4	-46.9	23.9	6.04e-01	0	43	0	351797248	60	4810
2026-01-17 00:29:17.56	62.15	27.37	-44.4	-47.0	23.9	6.03e-01	0	43	0	353894400	60	4822
2026-01-17 00:29:18.56	62.47	27.48	-44.4	-46.9	24.0	6.03e-01	0	43	0	355991552	60	4763
2026-01-17 00:29:19.56	62.79	27.58	-44.4	-46.9	24.0	6.04e-01	0	43	0	357564416	60	4787
2026-01-17 00:29:20.56	63.11	27.69	-44.4	-46.9	23.9	6.06e-01	0	43	0	359661568	60	4786
2026-01-17 00:29:21.56	63.43	27.79	-44.4	-46.9	24.0	6.04e-01	0	43	0	361234432	60	4779
2026-01-17 00:29:22.56	63.76	27.90	-44.4	-46.8	24.0	6.04e-01	0	43	0	363331584	60	4757
2026-01-17 00:29:23.56	64.09	28.00	-44.4	-46.8	24.0	6.03e-01	0	43	0	364904448	60	4753
2026-01-17 00:29:24.56	64.42	28.10	-44.3	-46.8	24.1	6.05e-01	0	43	0	367001600	60	4717
2026-01-17 00:29:25.56	64.75	28.21	-44.3	-46.8	24.1	6.02e-01	0	43	0	369098752	60	4717
2026-01-17 00:29:26.56	65.08	28.31	-44.3	-46.7	24.1	6.02e-01	0	43	0	370671616	60	4685
2026-01-17 00:29:27.56	65.42	28.41	-44.3	-46.7	24.1	6.02e-01	0	43	0	372768768	60	4676
2026-01-17 00:29:28.56	65.76	28.51	-44.4	-46.8	24.0	6.06e-01	0	43	0	374341632	60	4744
2026-01-17 00:29:29.56	66.10	28.61	-44.4	-46.8	24.0	6.02e-01	0	43	0	376438784	60	4749
2026-01-17 00:29:30.56	66.45	28.71	-44.4	-46.8	24.0	6.04e-01	0	43	0	378011648	60	4755
2026-01-17 00:29:31.56	66.79	28.81	-44.3	-46.8	24.0	6.03e-01	0	43	0	380108800	60	4738
2026-01-17 00:29:32.57	67.14	28.91	-44.2	-46.6	24.2	6.03e-01	0	43	0	382205952	60	4640
2026-01-17 00:29:33.57	67.50	29.01	-44.3	-46.8	24.1	6.03e-01	0	43	0	383778816	60	4726
2026-01-17 00:29:34.57	67.85	29.10	-44.3	-46.7	24.1	6.04e-01	0	43	0	385875968	60	4703
2026-01-17 00:29:35.57	68.20	29.20	-44.2	-46.7	24.2	6.01e-01	0	43	0	387448832	60	4669
2026-01-17 00:29:36.58	68.56	29.29	-44.4	-46.8	24.0	6.05e-01	0	43	0	389545984	60	4754
2026-01-17 00:29:37.58	68.92	29.39	-44.3	-46.7	24.1	6.03e-01	0	43	0	391118848	60	4700
2026-01-17 00:29:38.58	69.28	29.48	-44.2	-46.7	24.1	6.05e-01	0	43	0	393216000	60	4658
2026-01-17 00:29:39.58	69.65	29.57	-44.2	-46.6	24.2	6.04e-01	0	43	0	395313152	60	4632
2026-01-17 00:29:40.58	70.01	29.67	-44.2	-46.7	24.2	6.06e-01	0	43	0	396886016	60	4677
2026-01-17 00:29:41.58	70.38	29.76	-44.3	-46.7	24.2	6.04e-01	0	43	0	398983168	60	4682
2026-01-17 00:29:42.58	70.75	29.85	-44.3	-46.8	24.1	6.03e-01	0	43	0	400556032	60	4713
2026-01-17 00:29:43.58	71.12	29.93	-44.1	-46.6	24.2	6.03e-01	0	43	0	402653184	60	4605
2026-01-17 00:29:44.58	71.50	30.02	-44.2	-46.6	24.1	6.03e-01	0	43	0	404750336	60	4648
2026-01-17 00:29:45.58	71.87	30.11	-44.2	-46.6	24.2	6.04e-01	0	43	0	406323200	60	4613
2026-01-17 00:29:46.58	72.25	30.20	-44.0	-46.5	24.4	6.05e-01	0	43	0	408420352	60	4546
2026-01-17 00:29:47.58	72.63	30.28	-44.0	-46.5	24.3	6.02e-01	0	43	0	409993216	60	4549
2026-01-17 00:29:48.59	73.02	30.36	-44.1	-46.5	24.3	6.04e-01	0	43	0	412090368	60	4597
2026-01-17 00:29:49.58	73.40	30.45	-44.0	-46.4	24.4	6.04e-01	0	43	0	413663232	60	4532
2026-01-17 00:29:50.58	73.78	30.53	-44.1	-46.6	24.3	6.03e-01	0	43	0	415760384	59	4885
2026-01-17 00:29:51.58	74.17	30.61	-44.2	-46.7	24.2	6.03e-01	0	43	0	417857536	59	4946
2026-01-17 00:29:52.58	74.56	30.69	-44.2	-46.6	24.3	6.01e-01	0	43	0	419430400	59	4889
2026-01-17 00:29:53.58	74.95	30.76	-44.0	-46.4	24.5	6.03e-01	0	43	0	421527552	59	4790
2026-01-17 00:29:54.58	75.35	30.84	-44.1	-46.5	24.4	6.03e-01	0	43	0	423100416	59	4845
2026-01-17 00:29:55.58	75.74	30.92	-44.1	-46.5	24.3	6.03e-01	0	43	0	425197568	59	4867
2026-01-17 00:29:56.59	76.14	30.99	-44.4	-46.9	24.1	6.01e-01	0	43	0	426770432	59	5077
2026-01-17 00:29:57.59	76.54	31.06	-44.1	-46.6	24.2	6.04e-01	0	43	0	428867584	59	4886
2026-01-17 00:29:58.59	76.95	31.14	-43.9	-46.2	24.6	6.04e-01	0	43	0	430964736	59	4683
2026-01-17 00:29:59.59	77.35	31.21	-44.1	-46.5	24.4	6.05e-01	0	43	0	432537600	59	4819
2026-01-17 00:30:00.59	77.75	31.28	-44.2	-46.6	24.3	6.04e-01	0	43	0	434634752	59	4896
2026-01-17 00:30:01.59	78.16	31.34	-44.2	-46.6	24.3	6.02e-01	0	43	0	436207616	59	4889
2026-01-17 00:30:02.59	78.57	31.41	-44.0	-46.5	24.4	6.02e-01	0	43	0	438304768	59	4826
2026-01-17 00:30:03.59	78.98	31.48	-44.0	-46.4	24.5	6.02e-01	0	43	0	439877632	59	4777
2026-01-17 00:30:04.59	79.39	31.54	-44.0	-46.4	24.5	6.04e-01	0	43	0	441974784	59	4788
2026-01-17 00:30:05.59	79.81	31.60	-44.0	-46.4	24.4	6.03e-01	0	43	0	444071936	59	4808
2026-01-17 00:30:06.59	80.22	31.66	-44.1	-46.5	24.4	6.05e-01	0	43	0	445644800	59	4832
2026-01-17 00:30:07.58	80.63	31.72	-43.9	-46.3	24.6	6.04e-01	0	43	0	447741952	59	4753
2026-01-17 00:30:08.59	81.06	31.78	-43.7	-46.1	24.7	6.03e-01	0	43	0	449314816	59	4638
2026-01-17 00:30:09.59	81.48	31.83	-43.8	-46.2	24.7	6.04e-01	0	43	0	451411968	59	4676
2026-01-17 00:30:10.59	81.90	31.89	-43.9	-46.4	24.5	6.06e-01	0	43	0	452984832	59	4780
2026-01-17 00:30:11.59	82.32	31.94	-43.9	-46.4	24.5	6.04e-01	0	43	0	455081984	59	4773
2026-01-17 00:30:12.59	82.74	31.99	-43.8	-46.3	24.5	6.03e-01	0	44	0	457179136	59	4753
2026-01-17 00:30:13.60	83.17	32.04	-43.7	-46.1	24.7	6.03e-01	0	43	0	458752000	59	4629
2026-01-17 00:30:14.60	83.60	32.09	-43.8	-46.2	24.7	6.02e-01	0	43	0	460849152	59	4686
2026-01-17 00:30:15.59	84.03	32.14	-43.8	-46.3	24.6	6.03e-01	0	43	0	462946304	59	4740
2026-01-17 00:30:16.59	84.45	32.18	-43.7	-46.2	24.7	6.04e-01	0	43	0	464519168	59	4660
2026-01-17 00:30:17.59	84.89	32.23	-43.8	-46.3	24.6	6.05e-01	0	43	0	466616320	59	4716
2026-01-17 00:30:18.59	85.32	32.27	-43.7	-46.2	24.7	6.02e-01	0	43	0	468189184	59	4652
2026-01-17 00:30:19.58	85.75	32.31	-43.6	-46.0	24.8	6.01e-01	0	43	0	470286336	59	4580
2026-01-17 00:30:20.58	86.18	32.35	-43.7	-46.2	24.7	6.05e-01	0	43	0	471859200	59	4687
2026-01-17 00:30:21.58	86.61	32.38	-43.6	-46.1	24.7	6.04e-01	0	43	0	473956352	59	4635
2026-01-17 00:30:22.58	87.05	32.42	-43.6	-46.0	24.8	6.03e-01	0	43	0	475529216	59	4586
2026-01-17 00:30:23.59	87.49	32.45	-43.6	-46.0	24.8	6.03e-01	0	44	0	477626368	59	4582
2026-01-17 00:30:24.59	87.93	32.48	-43.7	-46.1	24.7	6.04e-01	0	43	0	479723520	59	4634
2026-01-17 00:30:25.59	88.37	32.51	-43.9	-46.3	24.5	6.02e-01	0	43	0	481296384	59	4752
2026-01-17 00:30:26.59	88.81	32.54	-43.8	-46.2	24.6	6.04e-01	0	43	0	483393536	59	4671
2026-01-17 00:30:27.59	89.25	32.57	-43.6	-46.0	24.8	6.05e-01	0	44	0	484966400	59	4578
2026-01-17 00:30:28.59	89.69	32.59	-43.7	-46.1	24.7	6.03e-01	0	44	0	487063552	59	4645
2026-01-17 00:30:29.58	90.13	32.62	-43.5	-45.9	24.9	6.03e-01	0	43	0	488636416	59	4500
2026-01-17 00:30:30.59	90.57	32.64	-43.7	-46.0	24.8	6.03e-01	0	43	0	490733568	59	4571
2026-01-17 00:30:31.59	91.02	32.66	-43.8	-46.1	24.7	6.04e-01	0	43	0	492830720	59	4640
2026-01-17 00:30:32.59	91.46	32.67	-43.5	-45.8	25.0	6.03e-01	0	43	0	494403584	59	4463
2026-01-17 00:30:33.59	91.90	32.69	-43.5	-45.9	24.9	6.02e-01	0	43	0	496500736	59	4512
2026-01-17 00:30:34.59	92.35	32.70	-43.5	-45.9	24.9	6.04e-01	0	43	0	498073600	59	4508
2026-01-17 00:30:35.59	92.79	32.71	-43.6	-45.9	24.9	6.02e-01	0	43	0	500170752	59	4528
2026-01-17 00:30:36.58	93.23	32.72	-43.7	-46.0	24.8	6.04e-01	0	43	0	501743616	59	4578
2026-01-17 00:30:37.59	93.68	32.73	-43.5	-45.8	24.9	6.06e-01	0	43	0	503840768	59	4463
2026-01-17 00:30:38.59	94.13	32.74	-43.6	-45.9	24.9	6.03e-01	0	43	0	505937920	58	4798
2026-01-17 00:30:39.59	94.57	32.74	-43.5	-45.9	24.9	6.04e-01	0	43	0	507510784	58	4780
2026-01-17 00:30:40.59	95.02	32.74	-43.5	-45.8	25.0	6.01e-01	0	43	0	509607936	58	4732
2026-01-17 00:30:41.59	95.47	32.75	-43.8	-46.1	24.7	6.05e-01	0	43	0	511180800	58	4918
2026-01-17 00:30:42.59	95.91	32.74	-43.6	-45.9	24.9	6.03e-01	0	43	0	513277952	58	4768
2026-01-17 00:30:43.59	96.36	32.74	-43.3	-45.6	25.1	6.03e-01	0	43	0	515375104	58	4624
2026-01-17 00:30:44.59	96.80	32.74	-43.3	-45.7	25.1	6.04e-01	0	43	0	516947968	58	4652
2026-01-17 00:30:45.59	97.25	32.73	-43.5	-45.8	25.0	6.03e-01	0	43	0	519045120	58	4741
2026-01-17 00:30:46.59	97.69	32.72	-43.5	-45.9	25.0	6.01e-01	0	43	0	520617984	58	4761
2026-01-17 00:30:47.59	98.14	32.71	-43.5	-45.9	24.9	6.02e-01	0	44	0	522715136	58	4781
2026-01-17 00:30:48.59	98.58	32.70	-43.6	-46.0	24.9	6.04e-01	0	43	0	524288000	58	4815
2026-01-17 00:30:49.59	99.03	32.68	-43.6	-45.9	24.9	6.01e-01	0	44	0	526385152	58	4765
2026-01-17 00:30:50.59	99.47	32.67	-43.8	-46.2	24.6	6.04e-01	0	43	0	528482304	58	4954
2026-01-17 00:30:51.59	99.92	32.65	-43.4	-45.7	25.1	6.04e-01	0	44	0	530055168	58	4673
2026-01-17 00:30:52.59	100.36	32.63	-43.4	-45.7	25.1	6.04e-01	0	44	0	532152320	58	4676
2026-01-17 00:30:53.59	100.80	32.61	-43.3	-45.7	25.1	6.02e-01	0	43	0	533725184	58	4655
2026-01-17 00:30:54.59	101.24	32.59	-43.2	-45.5	25.2	6.02e-01	0	43	0	535822336	58	4564
2026-01-17 00:30:55.59	101.68	32.56	-43.5	-45.8	25.0	6.04e-01	0	43	0	537395200	58	4736
2026-01-17 00:30:56.59	102.12	32.53	-43.3	-45.6	25.1	6.02e-01	0	43	0	539492352	58	4635
2026-01-17 00:30:57.58	102.56	32.51	-43.3	-45.6	25.2	6.03e-01	0	43	0	541589504	58	4637
2026-01-17 00:30:58.58	103.00	32.47	-43.3	-45.5	25.3	6.03e-01	0	43	0	543162368	58	4588
2026-01-17 00:30:59.59	103.44	32.44	-43.3	-45.5	25.2	6.02e-01	0	43	0	545259520	58	4597
2026-01-17 00:31:00.59	103.88	32.41	-43.4	-45.7	25.1	6.05e-01	0	44	0	546832384	58	4665
2026-01-17 00:31:01.58	104.31	32.37	-43.4	-45.7	25.1	6.03e-01	0	43	0	548929536	58	4667
2026-01-17 00:31:02.58	104.75	32.34	-43.3	-45.6	25.2	6.02e-01	0	44	0	550502400	58	4642
2026-01-17 00:31:03.58	105.18	32.30	-43.3	-45.6	25.2	6.05e-01	0	43	0	552599552	58	4627
2026-01-17 00:31:04.58	105.61	32.26	-43.3	-45.6	25.1	6.02e-01	0	43	0	554696704	58	4646
2026-01-17 00:31:05.59	106.05	32.21	-43.3	-45.5	25.2	6.03e-01	0	44	0	556269568	58	4595
2026-01-17 00:31:06.59	106.48	32.17	-43.3	-45.6	25.2	6.05e-01	0	43	0	558366720	58	4630
2026-01-17 00:31:07.59	106.91	32.12	-43.2	-45.5	25.2	6.01e-01	0	44	0	559939584	58	4551
2026-01-17 00:31:08.59	107.34	32.08	-43.2	-45.4	25.2	6.06e-01	0	44	0	562036736	58	4542
2026-01-17 00:31:09.59	107.77	32.03	-43.3	-45.6	25.2	6.03e-01	0	43	0	563609600	58	4603
2026-01-17 00:31:10.59	108.19	31.98	-43.4	-45.7	25.1	6.02e-01	0	43	0	565706752	58	4659
2026-01-17 00:31:11.59	108.62	31.92	-43.2	-45.5	25.3	6.04e-01	0	43	0	567803904	58	4562
2026-01-17 00:31:12.59	109.04	31.87	-43.2	-45.5	25.2	6.04e-01	0	43	0	569376768	58	4591
2026-01-17 00:31:13.59	109.46	31.81	-43.0	-45.3	25.4	6.03e-01	0	43	0	571473920	58	4455
2026-01-17 00:31:14.59	109.88	31.76	-43.3	-45.6	25.2	6.03e-01	0	43	0	573046784	58	4615
2026-01-17 00:31:15.59	110.30	31.70	-43.5	-45.8	25.0	6.02e-01	0	44	0	575143936	58	4723
2026-01-17 00:31:16.59	110.72	31.64	-43.2	-45.5	25.2	6.03e-01	0	43	0	577241088	58	4574
2026-01-17 00:31:17.59	111.13	31.58	-43.3	-45.6	25.2	6.04e-01	0	43	0	578813952	58	4612
2026-01-17 00:31:18.59	111.55	31.52	-43.1	-45.4	25.4	6.03e-01	0	43	0	580911104	58	4529
2026-01-17 00:31:19.59	111.96	31.45	-43.2	-45.5	25.3	6.03e-01	0	43	0	582483968	58	4546
2026-01-17 00:31:20.60	112.37	31.38	-43.2	-45.6	25.2	6.04e-01	0	43	0	584581120	58	4627
2026-01-17 00:31:21.60	112.78	31.32	-43.2	-45.6	25.2	6.02e-01	0	43	0	586678272	58	4616
2026-01-17 00:31:22.60	113.19	31.25	-43.0	-45.3	25.4	6.05e-01	0	43	0	588251136	58	4483
2026-01-17 00:31:23.60	113.60	31.18	-43.0	-45.3	25.4	6.03e-01	0	43	0	590348288	58	4454
2026-01-17 00:31:24.61	114.00	31.11	-43.1	-45.4	25.3	6.02e-01	0	43	0	591921152	58	4522
2026-01-17 00:31:25.61	114.41	31.04	-43.0	-45.3	25.4	6.03e-01	0	43	0	594018304	58	4493
2026-01-17 00:31:26.61	114.81	30.96	-43.0	-45.4	25.3	6.02e-01	0	43	0	595591168	58	4500
2026-01-17 00:31:27.61	115.20	30.89	-43.1	-45.4	25.3	6.04e-01	0	43	0	597688320	57	4792
2026-01-17 00:31:28.61	115.60	30.81	-43.1	-45.4	25.3	6.02e-01	0	43	0	599785472	57	4811
2026-01-17 00:31:29.61	116.00	30.73	-43.2	-45.5	25.2	6.05e-01	0	43	0	601358336	57	4846
2026-01-17 00:31:30.61	116.39	30.65	-43.3	-45.6	25.2	6.03e-01	0	44	0	603455488	57	4880
2026-01-17 00:31:31.61	116.78	30.57	-43.1	-45.3	25.4	6.04e-01	0	43	0	605028352	57	4744
2026-01-17 00:31:32.61	117.17	30.49	-43.1	-45.4	25.4	6.03e-01	0	43	0	607125504	57	4788
2026-01-17 00:31:33.62	117.56	30.41	-43.3	-45.6	25.2	6.02e-01	0	43	0	609222656	57	4894
2026-01-17 00:31:34.62	117.94	30.33	-43.4	-45.7	25.1	6.05e-01	0	43	0	610795520	57	4942
2026-01-17 00:31:35.62	118.33	30.24	-43.3	-45.6	25.1	6.01e-01	0	43	0	612892672	57	4876
2026-01-17 00:31:36.62	118.71	30.16	-43.2	-45.5	25.2	6.02e-01	0	43	0	614465536	57	4843
2026-01-17 00:31:37.62	119.08	30.07	-43.3	-45.6	25.2	6.06e-01	0	43	0	616562688	57	4889
2026-01-17 00:31:38.62	119.46	29.98	-43.2	-45.5	25.2	6.03e-01	0	43	0	618135552	57	4869
2026-01-17 00:31:39.63	119.84	29.89	-43.1	-45.4	25.3	6.05e-01	0	43	0	620232704	57	4795
2026-01-17 00:31:40.63	120.21	29.80	-43.2	-45.5	25.3	6.02e-01	0	43	0	622329856	57	4832
2026-01-17 00:31:41.63	120.58	29.71	-43.3	-45.6	25.1	6.04e-01	0	43	0	623902720	57	4904
2026-01-17 00:31:42.64	120.95	29.62	-43.3	-45.6	25.2	6.03e-01	0	43	0	625999872	57	4873
2026-01-17 00:31:43.64	121.32	29.53	-43.2	-45.5	25.2	6.03e-01	0	44	0	627572736	57	4854
2026-01-17 00:31:44.63	121.68	29.44	-43.2	-45.5	25.3	6.01e-01	0	43	0	629669888	57	4827
2026-01-17 00:31:45.64	122.04	29.34	-43.2	-45.5	25.2	6.06e-01	0	44	0	631242752	57	4829
2026-01-17 00:31:46.63	122.40	29.25	-43.4	-45.7	25.1	6.04e-01	0	43	0	633339904	57	4934
2026-01-17 00:31:47.64	122.76	29.15	-43.4	-45.6	25.1	6.03e-01	0	43	0	635437056	57	4916
2026-01-17 00:31:48.64	123.12	29.05	-43.4	-45.7	25.1	6.03e-01	0	43	0	637009920	57	4936
2026-01-17 00:31:49.64	123.47	28.96	-43.4	-45.7	25.0	6.04e-01	0	43	0	639107072	57	4967
2026-01-17 00:31:50.65	123.82	28.86	-43.2	-45.5	25.2	6.03e-01	0	43	0	640679936	57	4815
2026-01-17 00:31:51.65	124.17	28.76	-43.2	-45.4	25.3	6.04e-01	0	44	0	642777088	57	4794
2026-01-17 00:31:52.65	124.52	28.66	-43.3	-45.6	25.2	6.03e-01	0	43	0	644874240	57	4881
2026-01-17 00:31:53.65	124.86	28.56	-43.4	-45.8	25.0	6.03e-01	0	43	0	646447104	57	4987
2026-01-17 00:31:54.65	125.20	28.46	-43.6	-45.9	24.9	6.05e-01	0	43	0	648544256	57	5052
2026-01-17 00:31:55.65	125.54	28.36	-43.4	-45.7	25.1	6.01e-01	0	43	0	650117120	57	4950
2026-01-17 00:31:56.65	125.88	28.25	-43.5	-45.8	24.9	6.06e-01	0	43	0	652214272	57	5025
2026-01-17 00:31:57.65	126.22	28.15	-43.4	-45.7	25.0	6.05e-01	0	43	0	654311424	57	4971
2026-01-17 00:31:58.65	126.55	28.05	-43.3	-45.7	25.0	6.02e-01	0	43	0	655884288	57	4929
2026-01-17 00:31:59.65	126.88	27.94	-43.5	-45.9	24.9	6.04e-01	0	43	0	657981440	57	5060
2026-01-17 00:32:00.65	127.21	27.84	-43.6	-45.9	24.9	6.03e-01	0	43	0	659554304	57	5086
2026-01-17 00:32:01.65	127.54	27.73	-43.6	-45.9	24.9	6.03e-01	0	43	0	661651456	57	5085
2026-01-17 00:32:02.65	127.86	27.63	-43.6	-46.0	24.9	6.04e-01	0	43	0	663224320	57	5103
2026-01-17 00:32:03.65	128.18	27.52	-43.5	-45.9	24.9	6.03e-01	0	43	0	665321472	57	5047
2026-01-17 00:32:04.65	128.50	27.41	-43.5	-45.9	24.9	6.03e-01	0	43	0	667418624	57	5049
2026-01-17 00:32:05.65	128.82	27.31	-43.5	-45.8	24.9	6.05e-01	0	43	0	668991488	57	5032
2026-01-17 00:32:06.65	129.14	27.20	-43.5	-45.9	24.9	6.05e-01	0	43	0	671088640	57	5065
2026-01-17 00:32:07.65	129.45	27.09	-43.6	-46.1	24.7	6.05e-01	0	43	0	672661504	57	5178
2026-01-17 00:32:08.65	129.76	26.98	-43.6	-46.0	24.7	6.04e-01	0	43	0	674758656	57	5153
2026-01-17 00:32:09.66	130.08	26.87	-43.6	-46.0	24.8	6.03e-01	0	43	0	676331520	58	4859
2026-01-17 00:32:10.65	130.38	26.76	-43.5	-45.9	24.9	6.06e-01	0	43	0	678428672	58	4767
2026-01-17 00:32:11.65	130.69	26.66	-43.5	-45.9	24.9	6.05e-01	0	43	0	680525824	58	4777
2026-01-17 00:32:12.65	130.99	26.55	-43.6	-46.0	24.8	6.05e-01	0	43	0	682098688	58	4822
2026-01-17 00:32:13.65	131.29	26.44	-43.7	-46.1	24.7	6.04e-01	0	43	0	684195840	58	4883
2026-01-17 00:32:14.64	131.58	26.33	-43.8	-46.2	24.6	6.04e-01	0	43	0	685768704	58	4932
2026-01-17 00:32:15.65	131.88	26.21	-43.6	-46.0	24.8	6.03e-01	0	43	0	687865856	58	4835
2026-01-17 00:32:16.64	132.18	26.10	-43.6	-45.9	24.8	6.02e-01	0	43	0	689438720	58	4797
2026-01-17 00:32:17.65	132.47	25.99	-43.6	-46.0	24.7	6.03e-01	0	43	0	691535872	58	4832
2026-01-17 00:32:18.64	132.76	25.88	-43.7	-46.1	24.7	6.06e-01	0	43	0	693633024	58	4874
2026-01-17 00:32:19.64	133.05	25.77	-43.7	-46.2	24.6	6.03e-01	0	43	0	695205888	58	4949
2026-01-17 00:32:20.64	133.33	25.66	-43.9	-46.4	24.4	6.05e-01	0	43	0	697303040	58	5059
2026-01-17 00:32:21.65	133.62	25.54	-43.9	-46.4	24.4	6.05e-01	0	43	0	698875904	58	5065
2026-01-17 00:32:22.65	133.90	25.43	-43.8	-46.2	24.7	6.05e-01	0	44	0	700973056	58	4938
2026-01-17 00:32:23.65	134.18	25.32	-43.7	-46.0	24.8	6.04e-01	0	43	0	702545920	58	4868
2026-01-17 00:32:24.65	134.46	25.20	-43.7	-46.1	24.7	6.04e-01	0	43	0	704643072	58	4892
2026-01-17 00:32:25.65	134.73	25.09	-43.8	-46.3	24.5	6.05e-01	0	43	0	706740224	58	4993
2026-01-17 00:32:26.65	135.01	24.98	-43.8	-46.2	24.6	6.04e-01	0	43	0	708313088	58	4958
2026-01-17 00:32:27.65	135.28	24.87	-43.8	-46.2	24.5	6.02e-01	0	43	0	710410240	58	4976
2026-01-17 00:32:28.65	135.55	24.75	-43.7	-46.1	24.7	6.02e-01	0	43	0	711983104	58	4905
2026-01-17 00:32:29.66	135.82	24.64	-43.7	-46.1	24.6	6.03e-01	0	43	0	714080256	58	4921
2026-01-17 00:32:30.66	136.09	24.52	-43.7	-46.1	24.7	6.04e-01	0	43	0	716177408	58	4907
2026-01-17 00:32:31.66	136.35	24.41	-43.8	-46.2	24.6	6.08e-01	0	43	0	717750272	58	4964
2026-01-17 00:32:32.66	136.61	24.30	-43.8	-46.2	24.6	6.03e-01	0	43	0	719847424	58	4968
2026-01-17 00:32:33.66	136.87	24.18	-44.0	-46.4	24.4	6.06e-01	0	43	0	721420288	58	5073
2026-01-17 00:32:34.66	137.13	24.07	-44.0	-46.4	24.4	6.04e-01	0	43	0	723517440	58	5062
2026-01-17 00:32:35.66	137.39	23.95	-43.9	-46.3	24.5	6.05e-01	0	43	0	725090304	58	5026
2026-01-17 00:32:36.66	137.64	23.84	-43.9	-46.3	24.5	6.03e-01	0	43	0	727187456	58	5027
2026-01-17 00:32:37.67	137.90	23.73	-43.8	-46.2	24.5	6.02e-01	0	43	0	729284608	58	4965
2026-01-17 00:32:38.67	138.15	23.61	-43.8	-46.2	24.6	6.08e-01	0	43	0	730857472	58	4970
2026-01-17 00:32:39.67	138.40	23.50	-43.8	-46.2	24.5	6.03e-01	0	43	0	732954624	58	4967
2026-01-17 00:32:40.67	138.64	23.38	-43.8	-46.1	24.7	6.05e-01	0	43	0	734527488	58	4923
2026-01-17 00:32:41.67	138.89	23.27	-43.8	-46.2	24.6	6.02e-01	0	43	0	736624640	58	4965
2026-01-17 00:32:42.66	139.13	23.16	-43.9	-46.3	24.5	6.03e-01	0	43	0	738197504	58	4997
2026-01-17 00:32:43.67	139.37	23.04	-43.9	-46.2	24.5	6.01e-01	0	44	0	740294656	58	4982
2026-01-17 00:32:44.67	139.61	22.93	-43.8	-46.2	24.6	6.02e-01	0	43	0	742391808	58	4968
2026-01-17 00:32:45.67	139.85	22.81	-43.8	-46.1	24.6	6.06e-01	0	44	0	743964672	58	4916
2026-01-17 00:32:46.68	140.09	22.70	-43.7	-46.1	24.7	6.02e-01	0	43	0	746061824	58	4901
2026-01-17 00:32:47.68	140.32	22.59	-43.8	-46.2	24.6	6.06e-01	0	43	0	747634688	58	4939
2026-01-17 00:32:48.68	140.56	22.47	-43.7	-46.1	24.7	6.03e-01	0	43	0	749731840	58	4893
2026-01-17 00:32:49.68	140.79	22.36	-43.7	-46.0	24.7	6.04e-01	0	43	0	751304704	58	4863
2026-01-17 00:32:50.68	141.01	22.25	-43.7	-46.1	24.6	6.05e-01	0	43	0	753401856	58	4909
2026-01-17 00:32:51.68	141.24	22.13	-43.8	-46.2	24.6	6.05e-01	0	43	0	755499008	58	4933
2026-01-17 00:32:52.68	141.47	22.02	-43.7	-46.2	24.6	6.05e-01	0	43	0	757071872	58	4934
2026-01-17 00:32:53.67	141.69	21.91	-43.8	-46.2	24.6	6.03e-01	0	43	0	759169024	58	4968
2026-01-17 00:32:54.67	141.91	21.80	-43.8	-46.2	24.5	6.06e-01	0	43	0	760741888	58	4983
2026-01-17 00:32:55.67	142.13	21.68	-43.8	-46.2	24.6	6.03e-01	0	43	0	762839040	58	4959
2026-01-17 00:32:56.67	142.35	21.57	-43.9	-46.3	24.5	6.03e-01	0	43	0	764936192	58	4994
2026-01-17 00:32:57.67	142.57	21.46	-43.9	-46.3	24.5	6.05e-01	0	43	0	766509056	58	5028
2026-01-17 00:32:58.68	142.79	21.34	-44.1	-46.5	24.3	6.05e-01	0	43	0	768606208	58	5120
2026-01-17 00:32:59.68	143.00	21.23	-44.0	-46.4	24.3	6.06e-01	0	43	0	770179072	58	5092
2026-01-17 00:33:00.68	143.21	21.12	-43.8	-46.2	24.5	6.03e-01	0	43	0	772276224	58	4973
2026-01-17 00:33:01.67	143.42	21.01	-43.8	-46.2	24.6	6.01e-01	0	43	0	773849088	58	4940
2026-01-17 00:33:02.68	143.63	20.90	-43.7	-46.1	24.6	6.01e-01	0	43	0	775946240	58	4894
2026-01-17 00:33:03.68	143.84	20.79	-43.7	-46.1	24.7	6.04e-01	0	43	0	778043392	58	4882
2026-01-17 00:33:04.68	144.05	20.67	-43.6	-46.0	24.7	6.03e-01	0	43	0	779616256	58	4852
2026-01-17 00:33:05.68	144.25	20.56	-43.5	-45.9	24.8	6.05e-01	0	43	0	781713408	58	4789
2026-01-17 00:33:06.68	144.46	20.45	-43.5	-45.9	24.8	6.03e-01	0	43	0	783286272	58	4799
2026-01-17 00:33:07.68	144.66	20.34	-43.5	-45.9	24.8	6.04e-01	0	43	0	785383424	58	4798
2026-01-17 00:33:08.69	144.86	20.23	-43.5	-46.0	24.8	6.03e-01	0	44	0	786956288	58	4819
2026-01-17 00:33:09.68	145.06	20.12	-43.6	-46.1	24.6	6.04e-01	0	43	0	789053440	58	4923
2026-01-17 00:33:10.68	145.26	20.01	-43.7	-46.2	24.5	6.01e-01	0	44	0	791150592	58	4982
2026-01-17 00:33:11.68	145.45	19.90	-43.6	-46.2	24.6	6.03e-01	0	43	0	792723456	58	4934
2026-01-17 00:33:12.69	145.65	19.79	-43.7	-46.2	24.6	6.04e-01	0	43	0	794820608	58	4936
2026-01-17 00:33:13.69	145.84	19.68	-43.7	-46.2	24.6	6.04e-01	0	43	0	796393472	58	4931
2026-01-17 00:33:14.69	146.03	19.57	-43.6	-46.1	24.6	6.04e-01	0	43	0	798490624	58	4909
2026-01-17 00:33:15.69	146.22	19.46	-43.6	-46.1	24.6	6.03e-01	0	43	0	800587776	58	4894
2026-01-17 00:33:16.69	146.41	19.35	-43.7	-46.2	24.5	6.03e-01	0	43	0	802160640	58	4934
2026-01-17 00:33:17.69	146.60	19.24	-43.7	-46.1	24.6	6.04e-01	0	43	0	804257792	58	4887
2026-01-17 00:33:18.70	146.79	19.14	-43.6	-46.0	24.7	6.04e-01	0	43	0	805830656	58	4841
2026-01-17 00:33:19.70	146.97	19.03	-43.7	-46.0	24.6	6.01e-01	0	43	0	807927808	58	4862
2026-01-17 00:33:20.70	147.16	18.92	-43.6	-46.0	24.6	6.05e-01	0	43	0	810024960	58	4836
2026-01-17 00:33:21.70	147.34	18.81	-43.6	-45.9	24.7	6.04e-01	0	43	0	811597824	58	4801
2026-01-17 00:33:22.70	147.52	18.70	-43.5	-45.8	24.8	6.03e-01	0	43	0	813694976	58	4743
2026-01-17 00:33:23.70	147.70	18.60	-43.5	-45.9	24.8	6.04e-01	0	44	0	815267840	58	4770
2026-01-17 00:33:24.70	147.88	18.49	-43.5	-45.9	24.8	6.04e-01	0	43	0	817364992	58	4788
2026-01-17 00:33:25.71	148.05	18.38	-43.5	-45.9	24.8	6.05e-01	0	43	0	818937856	58	4791
2026-01-17 00:33:26.70	148.23	18.28	-43.6	-45.9	24.7	6.03e-01	0	43	0	821035008	58	4813
2026-01-17 00:33:27.71	148.40	18.17	-43.6	-45.9	24.7	6.05e-01	0	43	0	823132160	58	4812
2026-01-17 00:33:28.70	148.58	18.07	-43.6	-46.0	24.7	6.04e-01	0	43	0	824705024	58	4825
2026-01-17 00:33:29.71	148.75	17.96	-43.7	-46.1	24.6	6.02e-01	0	44	0	826802176	58	4888
2026-01-17 00:33:30.71	148.92	17.85	-43.7	-46.2	24.5	6.04e-01	0	43	0	828375040	58	4929
2026-01-17 00:33:31.71	149.09	17.75	-43.6	-46.1	24.6	6.02e-01	0	44	0	830472192	58	4884
2026-01-17 00:33:32.71	149.26	17.64	-43.6	-46.0	24.6	6.03e-01	0	43	0	832045056	58	4862
2026-01-17 00:33:33.71	149.42	17.54	-43.6	-45.9	24.7	6.02e-01	0	43	0	834142208	58	4804
2026-01-17 00:33:34.72	149.59	17.43	-43.6	-46.0	24.7	6.02e-01	0	43	0	836239360	58	4844
2026-01-17 00:33:35.72	149.76	17.33	-43.8	-46.1	24.5	6.04e-01	0	43	0	837812224	58	4909
2026-01-17 00:33:36.72	149.92	17.23	-43.7	-46.1	24.6	6.04e-01	0	43	0	839909376	58	4878
2026-01-17 00:33:37.72	150.08	17.12	-43.5	-45.9	24.7	6.03e-01	0	43	0	841482240	58	4785
2026-01-17 00:33:38.72	150.24	17.02	-43.6	-46.0	24.6	6.04e-01	0	43	0	843579392	58	4852
2026-01-17 00:33:39.72	150.40	16.92	-43.6	-46.0	24.7	6.00e-01	0	43	0	845152256	58	4832
2026-01-17 00:33:40.72	150.56	16.81	-43.6	-46.1	24.6	6.04e-01	0	43	0	847249408	58	4882
2026-01-17 00:33:41.72	150.72	16.71	-43.7	-46.1	24.5	6.05e-01	0	44	0	849346560	58	4923
2026-01-17 00:33:42.72	150.88	16.61	-43.6	-46.1	24.6	6.02e-01	0	43	0	850919424	58	4873
2026-01-17 00:33:43.72	151.03	16.51	-43.6	-46.0	24.6	6.04e-01	0	43	0	853016576	58	4865
2026-01-17 00:33:44.71	151.18	16.41	-43.6	-46.0	24.6	6.05e-01	0	43	0	854589440	58	4857
2026-01-17 00:33:45.72	151.34	16.31	-43.6	-46.0	24.6	6.03e-01	0	43	0	856686592	58	4852
2026-01-17 00:33:46.72	151.49	16.21	-43.6	-46.0	24.6	6.06e-01	0	43	0	858259456	58	4859
2026-01-17 00:33:47.72	151.64	16.10	-43.6	-46.0	24.6	6.03e-01	0	43	0	860356608	58	4856
2026-01-17 00:33:48.72	151.79	16.00	-43.6	-46.0	24.6	6.04e-01	0	43	0	862453760	58	4837
2026-01-17 00:33:49.72	151.94	15.90	-43.5	-45.9	24.8	6.03e-01	0	43	0	864026624	58	4778
2026-01-17 00:33:50.72	152.09	15.80	-43.6	-46.0	24.7	6.03e-01	0	43	0	866123776	58	4829
2026-01-17 00:33:51.72	152.24	15.70	-43.5	-45.9	24.7	6.03e-01	0	44	0	867696640	58	4799
2026-01-17 00:33:52.72	152.38	15.61	-43.5	-45.9	24.7	6.03e-01	0	43	0	869793792	58	4814
2026-01-17 00:33:53.72	152.53	15.51	-43.5	-45.9	24.7	6.04e-01	0	43	0	871890944	58	4811
2026-01-17 00:33:54.72	152.67	15.41	-43.6	-46.0	24.6	6.05e-01	0	43	0	873463808	58	4864
2026-01-17 00:33:55.72	152.82	15.31	-43.5	-46.0	24.7	6.03e-01	0	43	0	875560960	58	4816
2026-01-17 00:33:56.72	152.96	15.21	-43.5	-46.0	24.6	6.05e-01	0	43	0	877133824	58	4848
2026-01-17 00:33:57.72	153.10	15.11	-43.6	-46.0	24.6	6.05e-01	0	43	0	879230976	58	4865
2026-01-17 00:33:58.73	153.24	15.01	-43.6	-46.0	24.5	6.03e-01	0	43	0	880803840	58	4860
2026-01-17 00:33:59.73	153.38	14.92	-43.5	-46.0	24.6	6.03e-01	0	43	0	882900992	58	4851
2026-01-17 00:34:00.73	153.52	14.82	-43.5	-46.0	24.5	6.06e-01	0	43	0	884998144	58	4863
2026-01-17 00:34:01.73	153.66	14.72	-43.6	-46.1	24.5	6.02e-01	0	43	0	886571008	58	4897
2026-01-17 00:34:02.73	153.79	14.63	-43.6	-46.2	24.4	6.06e-01	0	43	0	888668160	58	4954
2026-01-17 00:34:03.73	153.93	14.53	-43.6	-46.1	24.5	6.04e-01	0	43	0	890241024	58	4917
2026-01-17 00:34:04.73	154.06	14.44	-43.6	-46.1	24.5	6.03e-01	0	43	0	892338176	58	4893
2026-01-17 00:34:05.73	154.20	14.34	-43.6	-46.2	24.4	6.04e-01	0	43	0	893911040	58	4938
2026-01-17 00:34:06.74	154.33	14.24	-43.5	-46.0	24.5	6.04e-01	0	43	0	896008192	58	4870
2026-01-17 00:34:07.74	154.46	14.15	-43.6	-46.1	24.5	6.02e-01	0	43	0	898105344	58	4878
2026-01-17 00:34:08.74	154.60	14.05	-43.6	-46.1	24.5	6.03e-01	0	44	0	899678208	58	4912
2026-01-17 00:34:09.74	154.73	13.96	-43.6	-46.1	24.5	6.01e-01	0	44	0	901775360	58	4891
2026-01-17 00:34:10.75	154.86	13.86	-43.7	-46.1	24.5	6.03e-01	0	43	0	903872512	58	4917
2026-01-17 00:34:11.75	154.98	13.77	-43.8	-46.3	24.3	6.03e-01	0	43	0	905445376	58	5003
2026-01-17 00:34:12.75	155.11	13.68	-43.7	-46.1	24.5	6.02e-01	0	44	0	907542528	58	4925
2026-01-17 00:34:13.75	155.24	13.58	-43.5	-46.1	24.5	6.04e-01	0	43	0	909115392	58	4875
2026-01-17 00:34:14.75	155.37	13.49	-43.6	-46.1	24.5	6.02e-01	0	43	0	911212544	58	4923
2026-01-17 00:34:15.76	155.49	13.40	-43.6	-46.1	24.5	6.03e-01	0	43	0	912785408	58	4906
2026-01-17 00:34:16.76	155.62	13.30	-43.7	-46.2	24.4	6.01e-01	0	43	0	914882560	58	4964
2026-01-17 00:34:17.76	155.74	13.21	-43.7	-46.2	24.4	6.03e-01	0	44	0	916979712	58	4932
2026-01-17 00:34:18.76	155.86	13.12	-43.8	-46.3	24.3	6.01e-01	0	44	0	918552576	58	4994
2026-01-17 00:34:19.76	155.98	13.03	-43.8	-46.3	24.3	6.02e-01	0	43	0	920649728	58	5021
2026-01-17 00:34:20.76	156.11	12.94	-43.9	-46.4	24.3	6.04e-01	0	44	0	922222592	58	5047
2026-01-17 00:34:21.76	156.23	12.85	-44.0	-46.5	24.1	6.04e-01	0	43	0	924319744	58	5113
2026-01-17 00:34:22.76	156.35	12.75	-44.0	-46.5	24.1	6.04e-01	0	44	0	925892608	58	5104
2026-01-17 00:34:23.76	156.47	12.66	-43.9	-46.4	24.3	6.04e-01	0	43	0	927989760	58	5047
2026-01-17 00:34:24.76	156.58	12.57	-44.0	-46.5	24.1	6.04e-01	0	44	0	930086912	58	5128
2026-01-17 00:34:25.76	156.70	12.48	-44.1	-46.6	24.0	6.03e-01	0	43	0	931659776	58	5162
2026-01-17 00:34:26.76	156.82	12.39	-44.1	-46.6	24.0	6.04e-01	0	43	0	933756928	59	4873
2026-01-17 00:34:27.76	156.93	12.30	-44.1	-46.6	24.1	6.04e-01	0	43	0	935329792	59	4872
2026-01-17 00:34:28.76	157.05	12.22	-44.0	-46.5	24.0	6.02e-01	0	43	0	937426944	59	4841
2026-01-17 00:34:29.76	157.16	12.13	-44.0	-46.5	23.9	6.03e-01	0	44	0	938999808	59	4849
2026-01-17 00:34:30.76	157.28	12.04	-44.1	-46.6	23.9	6.01e-01	0	44	0	941096960	59	4926
2026-01-17 00:34:31.76	157.39	11.95	-44.0	-46.5	23.8	6.05e-01	0	43	0	943194112	59	4865
2026-01-17 00:34:32.76	157.50	11.86	-44.0	-46.5	24.0	6.03e-01	0	43	0	944766976	59	4845
2026-01-17 00:34:33.76	157.61	11.77	-44.2	-46.7	23.9	6.05e-01	0	43	0	946864128	59	4931
2026-01-17 00:34:34.76	157.73	11.69	-44.1	-46.6	24.0	6.04e-01	0	43	0	948436992	59	4880
2026-01-17 00:34:35.76	157.84	11.60	-44.2	-46.7	23.8	6.05e-01	0	44	0	950534144	59	4966
2026-01-17 00:34:36.77	157.95	11.51	-44.2	-46.7	23.8	6.02e-01	0	43	0	952107008	59	4945
2026-01-17 00:34:37.77	158.06	11.42	-44.2	-46.8	23.8	6.04e-01	0	43	0	954204160	59	4999
2026-01-17 00:34:38.77	158.16	11.34	-44.2	-46.7	23.8	6.04e-01	0	43	0	956301312	59	4982
2026-01-17 00:34:39.77	158.27	11.25	-44.2	-46.7	23.9	6.03e-01	0	43	0	957874176	59	4956
2026-01-17 00:34:40.77	158.38	11.16	-44.2	-46.8	23.8	6.06e-01	0	44	0	959971328	59	4986
2026-01-17 00:34:41.77	158.48	11.08	-44.3	-46.9	23.7	6.03e-01	0	43	0	961544192	59	5063
2026-01-17 00:34:42.77	158.59	10.99	-44.2	-46.8	23.8	6.04e-01	0	43	0	963641344	59	4999
2026-01-17 00:34:43.77	158.70	10.91	-44.3	-46.9	23.7	6.04e-01	0	44	0	965738496	59	5067
2026-01-17 00:34:44.77	158.80	10.82	-44.2	-46.8	23.7	6.06e-01	0	44	0	967311360	59	5029
2026-01-17 00:34:45.78	158.90	10.74	-44.2	-46.7	23.7	6.03e-01	0	44	0	969408512	59	4979
2026-01-17 00:34:46.78	159.01	10.65	-44.2	-46.8	23.8	6.05e-01	0	43	0	970981376	59	5006
2026-01-17 00:34:47.78	159.11	10.57	-44.2	-46.8	23.7	6.02e-01	0	43	0	973078528	59	5037
2026-01-17 00:34:48.78	159.21	10.48	-44.3	-46.9	23.6	6.03e-01	0	43	0	974651392	59	5078
2026-01-17 00:34:49.79	159.31	10.40	-44.1	-46.7	23.7	6.04e-01	0	43	0	976748544	60	4701
2026-01-17 00:34:50.78	159.41	10.32	-44.1	-46.7	23.7	6.06e-01	0	43	0	978845696	60	4688
2026-01-17 00:34:51.78	159.51	10.23	-44.2	-46.8	23.6	6.03e-01	0	43	0	980418560	60	4734
2026-01-17 00:34:52.78	159.61	10.15	-44.2	-46.8	23.6	6.03e-01	0	44	0	982515712	60	4719
2026-01-17 00:34:53.78	159.71	10.07	-44.2	-46.8	23.6	6.04e-01	0	43	0	984088576	60	4722
2026-01-17 00:34:54.79	159.81	9.98	-44.2	-46.8	19.7	6.04e-01	0	43	0	986185728	60	4721
2026-01-17 00:34:55.79	159.91	9.90	-44.3	-46.9	23.6	6.04e-01	0	43	0	987758592	60	4769
2026-01-17 00:34:56.79	160.01	9.82	-44.2	-46.8	23.7	6.05e-01	0	43	0	989855744	60	4719
2026-01-17 00:34:57.79	160.10	9.74	-44.2	-46.8	23.6	6.02e-01	0	43	0	991952896	60	4735
2026-01-17 00:34:58.79	160.20	9.65	-44.3	-46.9	23.5	6.02e-01	0	43	0	993525760	60	4794
2026-01-17 00:34:59.79	160.29	9.57	-44.3	-47.0	23.4	6.03e-01	0	43	0	995622912	60	4828
2026-01-17 00:35:00.79	160.39	9.49	-44.3	-46.9	23.5	6.02e-01	0	43	0	997195776	60	4797
2026-01-17 00:35:01.80	160.49	9.41	-44.4	-47.1	22.1	6.04e-01	0	43	0	999292928	60	4877
2026-01-17 00:35:02.79	160.58	9.33	-44.4	-47.1	23.3	6.04e-01	0	43	0	1001390080	60	4907
2026-01-17 00:35:03.79	160.67	9.25	-44.5	-47.2	23.2	6.00e-01	0	43	0	1002962944	60	4934
2026-01-17 00:35:04.79	160.76	9.17	-44.5	-47.2	23.2	6.04e-01	0	43	0	1005060096	60	4966
2026-01-17 00:35:05.79	160.86	9.09	-44.4	-47.1	23.3	6.03e-01	0	43	0	1006632960	60	4898
2026-01-17 00:35:06.79	160.95	9.01	-49.8	-55.2	17.1	6.04e-01	0	44	0	1008730112	69	7434
2026-01-17 00:35:07.79	161.04	8.93	-51.7	-69.8	3.9	7.43e-01	0	43	104	1008730112	73	31736
2026-01-17 00:35:08.78	161.13	8.85	-51.5	-71.8	3.8	7.48e-01	0	43	104	1008730112	74	37638
2026-01-17 00:35:09.78	161.22	8.77	-51.8	-72.2	3.8	7.48e-01	0	43	104	1008730112	74	39147
2026-01-17 00:35:10.78	161.31	8.69	-52.2	-72.3	3.8	7.45e-01	0	43	104	1008730112	75	37548
2026-01-17 00:35:11.77	161.40	8.61	-52.3	-72.4	3.8	7.45e-01	0	44	104	1008730112	75	37927
2026-01-17 00:35:12.77	161.49	8.54	-51.7	-72.4	3.8	7.51e-01	0	43	104	1008730112	75	38237
2026-01-17 00:35:13.76	161.57	8.46	-52.4	-72.5	3.9	7.45e-01	0	43	104	1008730112	75	38613
2026-01-17 00:35:14.76	161.66	8.38	-52.6	-72.5	3.8	7.44e-01	0	43	104	1008730112	75	38573
2026-01-17 00:35:15.75	161.75	8.30	-52.5	-72.6	3.8	7.46e-01	0	43	104	1008730112	75	38697
2026-01-17 00:35:16.75	161.83	8.22	-52.6	-72.6	3.8	7.44e-01	0	43	104	1008730112	76	36746
2026-01-17 00:35:17.75	161.92	8.15	-52.8	-72.7	3.8	7.47e-01	0	43	104	1008730112	76	36953
2026-01-17 00:35:18.74	162.00	8.07	-52.6	-72.7	3.8	7.44e-01	0	44	104	1008730112	76	36991
2026-01-17 00:35:19.74	162.09	7.99	-52.4	-72.7	3.8	7.49e-01	0	43	104	1008730112	76	37001
2026-01-17 00:35:20.74	162.18	7.92	-52.8	-72.7	3.8	7.49e-01	0	44	104	1008730112	76	37071
2026-01-17 00:35:21.74	162.26	7.84	-52.5	-72.7	3.8	7.45e-01	0	43	104	1008730112	76	37112
2026-01-17 00:35:22.73	162.34	7.76	-52.8	-72.7	3.8	7.48e-01	0	44	104	1008730112	76	37032
2026-01-17 00:35:23.73	162.43	7.69	-52.2	-72.6	3.8	7.48e-01	0	44	104	1008730112	75	39135
2026-01-17 00:35:24.73	162.51	7.61	-52.1	-72.6	3.8	7.44e-01	0	43	104	1008730112	75	39112
2026-01-17 00:35:25.73	162.59	7.54	-52.6	-72.7	3.8	7.45e-01	0	44	104	1008730112	76	37045
2026-01-17 00:35:26.72	162.67	7.46	-52.6	-72.7	3.8	7.44e-01	0	44	104	1008730112	76	37136
2026-01-17 00:35:27.72	162.75	7.39	-52.5	-72.7	3.8	7.45e-01	0	43	104	1008730112	76	37029
2026-01-17 00:35:28.71	162.83	7.31	-52.4	-72.7	3.8	7.49e-01	0	43	104	1008730112	76	37050
2026-01-17 00:35:29.71	162.92	7.24	-52.0	-72.7	3.8	7.45e-01	0	44	104	1008730112	76	37084
2026-01-17 00:35:30.70	162.99	7.16	-51.5	-72.6	3.8	7.47e-01	0	43	104	1008730112	7
