passes_logs/2026/01/17/T1/T1__20260117_163609_FENGYUN_3E_rec.log

#Pass ID: 20260117_163609_FENGYUN 3E
#Satellite: FENGYUN 3E
#Configuration: FENGYUN 3E
#almurnet v.1.7.20251203
#Start time: 2026-01-17 16:36:08

#Version: 2.0.20230620
#Station: T1
#Location: 37.570604 lon 55.790049 lat
#TLE: 1 49008U 21062A   26016.55599566  .00000255  00000+0  14071-3 0  9994
#TLE: 2 49008  98.7485  21.6664 0002094 134.5344 225.6004 14.19886148235063

#Time	Az	El	Level	Level2	SNR	BER	BlckErr	Temp	State	Recorded	gain1	gain2
2026-01-17 16:36:08.90	245.62	4.98	-48.4	-59.4	3.8	8.47e-01	0	38	0	0	67	12657
2026-01-17 16:36:09.89	245.75	5.02	-48.4	-59.4	3.8	8.46e-01	0	38	104	0	67	12545
2026-01-17 16:36:10.88	245.88	5.06	-48.4	-59.4	3.8	8.46e-01	0	38	104	0	67	12539
2026-01-17 16:36:11.87	246.01	5.10	-48.4	-59.4	3.8	8.47e-01	0	38	104	0	67	12636
2026-01-17 16:36:12.87	246.14	5.13	-48.3	-59.5	3.8	8.47e-01	0	38	104	0	67	12684
2026-01-17 16:36:13.86	246.26	5.17	-48.4	-59.5	3.8	8.46e-01	0	38	104	0	67	12674
2026-01-17 16:36:14.85	246.39	5.21	-48.3	-59.4	3.8	8.47e-01	0	38	104	0	67	12602
2026-01-17 16:36:15.85	246.52	5.24	-48.4	-59.4	3.8	8.47e-01	0	38	104	0	67	12546
2026-01-17 16:36:16.84	246.65	5.28	-48.4	-59.4	3.8	8.48e-01	0	38	104	0	67	12544
2026-01-17 16:36:17.83	246.79	5.32	-48.3	-59.4	3.8	8.47e-01	0	38	104	0	67	12620
2026-01-17 16:36:18.83	246.92	5.36	-48.3	-59.4	3.8	8.47e-01	0	38	104	0	67	12612
2026-01-17 16:36:19.82	247.05	5.39	-48.3	-59.4	3.8	8.46e-01	0	38	104	0	67	12613
2026-01-17 16:36:20.81	247.18	5.43	-48.3	-59.4	3.8	8.47e-01	0	38	104	0	67	12529
2026-01-17 16:36:21.80	247.31	5.47	-48.3	-59.4	3.8	8.47e-01	0	38	104	0	67	12563
2026-01-17 16:36:22.80	247.44	5.50	-48.3	-59.4	3.8	8.47e-01	0	39	104	0	67	12633
2026-01-17 16:36:23.79	247.58	5.54	-48.3	-59.4	3.8	8.47e-01	0	38	104	0	67	12525
2026-01-17 16:36:24.79	247.71	5.58	-48.3	-59.4	3.8	8.47e-01	0	39	104	0	67	12594
2026-01-17 16:36:25.78	247.84	5.61	-48.3	-59.4	3.8	8.47e-01	0	39	104	0	67	12526
2026-01-17 16:36:26.77	247.98	5.65	-48.3	-59.4	3.8	8.48e-01	0	39	104	0	67	12610
2026-01-17 16:36:27.76	248.11	5.68	-48.3	-59.4	3.8	8.47e-01	0	39	104	0	67	12535
2026-01-17 16:36:28.76	248.25	5.72	-48.3	-59.4	3.8	8.47e-01	0	39	104	0	67	12528
2026-01-17 16:36:29.75	248.38	5.76	-48.3	-59.4	3.8	8.47e-01	0	39	104	0	67	12536
2026-01-17 16:36:30.74	248.51	5.79	-48.3	-59.4	3.8	8.47e-01	0	39	104	0	67	12530
2026-01-17 16:36:31.74	248.65	5.83	-48.3	-59.3	3.8	8.47e-01	0	39	104	0	67	12487
2026-01-17 16:36:32.73	248.79	5.87	-48.3	-59.4	3.8	8.46e-01	0	39	104	0	67	12533
2026-01-17 16:36:33.72	248.92	5.90	-48.3	-59.3	3.8	8.46e-01	0	39	104	0	67	12505
2026-01-17 16:36:34.72	249.06	5.94	-48.3	-59.3	3.8	8.47e-01	0	39	104	0	67	12475
2026-01-17 16:36:35.71	249.20	5.97	-48.3	-59.3	3.8	8.46e-01	0	39	104	0	67	12485
2026-01-17 16:36:36.71	249.33	6.01	-48.3	-59.3	3.8	8.47e-01	0	39	104	0	67	12428
2026-01-17 16:36:37.70	249.47	6.04	-48.3	-59.4	3.8	8.48e-01	0	39	104	0	67	12577
2026-01-17 16:36:38.69	249.61	6.08	-48.3	-59.3	3.8	8.48e-01	0	39	104	0	67	12500
2026-01-17 16:36:39.69	249.75	6.11	-48.3	-59.4	3.8	8.46e-01	0	39	104	0	67	12523
2026-01-17 16:36:40.68	249.88	6.15	-48.3	-59.4	3.8	8.46e-01	0	39	104	0	67	12538
2026-01-17 16:36:41.68	250.02	6.18	-48.3	-59.3	3.8	8.47e-01	0	39	104	0	67	12480
2026-01-17 16:36:42.67	250.16	6.22	-48.3	-59.3	3.8	8.47e-01	0	39	104	0	67	12470
2026-01-17 16:36:43.66	250.30	6.25	-48.3	-59.4	3.8	8.46e-01	0	39	104	0	67	12580
2026-01-17 16:36:44.65	250.44	6.29	-48.3	-59.3	3.8	8.47e-01	0	39	104	0	67	12450
2026-01-17 16:36:45.65	250.58	6.32	-48.3	-59.3	3.8	8.47e-01	0	39	104	0	67	12497
2026-01-17 16:36:46.64	250.72	6.36	-48.3	-59.3	3.8	8.47e-01	0	39	104	0	67	12437
2026-01-17 16:36:47.63	250.86	6.39	-48.3	-59.3	3.8	8.46e-01	0	39	104	0	67	12471
2026-01-17 16:36:48.63	251.00	6.43	-48.3	-59.3	3.8	8.46e-01	0	39	104	0	67	12433
2026-01-17 16:36:49.62	251.14	6.46	-48.3	-59.4	3.8	8.47e-01	0	39	104	0	67	12524
2026-01-17 16:36:50.61	251.28	6.49	-48.3	-59.3	3.8	8.46e-01	0	39	104	0	67	12438
2026-01-17 16:36:51.61	251.43	6.53	-48.3	-59.4	3.8	8.46e-01	0	40	104	0	67	12522
2026-01-17 16:36:52.60	251.57	6.56	-48.3	-59.4	3.8	8.47e-01	0	39	104	0	67	12531
2026-01-17 16:36:53.60	251.71	6.60	-48.3	-59.3	3.8	8.47e-01	0	39	104	0	67	12476
2026-01-17 16:36:54.59	251.85	6.63	-48.3	-59.3	3.8	8.46e-01	0	40	104	0	67	12486
2026-01-17 16:36:55.58	252.00	6.66	-48.3	-59.3	3.8	8.46e-01	0	40	104	0	67	12478
2026-01-17 16:36:56.57	252.14	6.70	-48.3	-59.3	3.8	8.47e-01	0	40	104	0	67	12516
2026-01-17 16:36:57.57	252.28	6.73	-48.3	-59.4	3.8	8.47e-01	0	40	104	0	67	12570
2026-01-17 16:36:58.56	252.43	6.76	-48.3	-59.4	3.8	8.47e-01	0	40	104	0	67	12530
2026-01-17 16:36:59.55	252.57	6.80	-48.3	-59.4	3.8	8.47e-01	0	40	104	0	67	12582
2026-01-17 16:37:00.55	252.72	6.83	-48.3	-59.4	3.8	8.45e-01	0	40	104	0	67	12533
2026-01-17 16:37:01.54	252.86	6.86	-48.3	-59.4	3.8	8.47e-01	0	40	104	0	67	12547
2026-01-17 16:37:02.54	253.01	6.90	-48.3	-59.4	3.8	8.47e-01	0	40	104	0	67	12539
2026-01-17 16:37:03.53	253.15	6.93	-48.3	-59.4	3.8	8.47e-01	0	40	104	0	67	12540
2026-01-17 16:37:04.52	253.30	6.96	-48.3	-59.3	3.8	8.46e-01	0	40	104	0	67	12513
2026-01-17 16:37:05.51	253.44	6.99	-48.3	-59.3	3.8	8.46e-01	0	40	104	0	67	12471
2026-01-17 16:37:06.51	253.59	7.03	-48.3	-59.3	3.8	8.48e-01	0	40	104	0	67	12450
2026-01-17 16:37:07.50	253.74	7.06	-48.3	-59.3	3.8	8.47e-01	0	40	104	0	67	12480
2026-01-17 16:37:08.49	253.88	7.09	-48.3	-59.3	3.8	8.47e-01	0	40	104	0	67	12474
2026-01-17 16:37:09.49	254.03	7.12	-48.3	-59.3	3.8	8.47e-01	0	40	104	0	67	12498
2026-01-17 16:37:10.48	254.18	7.16	-48.3	-59.4	3.8	8.46e-01	0	40	104	0	67	12532
2026-01-17 16:37:11.47	254.33	7.19	-48.3	-59.3	3.8	8.47e-01	0	40	104	0	67	12410
2026-01-17 16:37:12.47	254.48	7.22	-48.3	-59.3	3.8	8.47e-01	0	40	104	0	67	12454
2026-01-17 16:37:13.46	254.62	7.25	-48.3	-59.3	3.8	8.47e-01	0	40	104	0	67	12449
2026-01-17 16:37:14.45	254.77	7.28	-48.3	-59.3	3.8	8.46e-01	0	40	104	0	67	12405
2026-01-17 16:37:15.45	254.92	7.31	-48.3	-59.3	3.8	8.46e-01	0	40	104	0	67	12515
2026-01-17 16:37:16.44	255.07	7.34	-48.3	-59.3	3.8	8.46e-01	0	40	104	0	67	12491
2026-01-17 16:37:17.43	255.22	7.38	-48.3	-59.2	3.8	8.47e-01	0	40	104	0	67	12368
2026-01-17 16:37:18.43	255.37	7.41	-48.3	-59.3	3.8	8.47e-01	0	40	104	0	67	12435
2026-01-17 16:37:19.42	255.52	7.44	-48.3	-59.3	3.8	8.47e-01	0	40	104	0	67	12512
2026-01-17 16:37:20.42	255.67	7.47	-48.3	-59.3	3.8	8.47e-01	0	40	104	0	67	12446
2026-01-17 16:37:21.41	255.83	7.50	-48.3	-59.4	3.8	8.46e-01	0	40	104	0	67	12571
2026-01-17 16:37:22.40	255.98	7.53	-48.3	-59.4	3.8	8.47e-01	0	40	104	0	67	12575
2026-01-17 16:37:23.40	256.13	7.56	-48.3	-59.3	3.8	8.47e-01	0	40	104	0	67	12482
2026-01-17 16:37:24.39	256.28	7.59	-48.3	-59.3	3.8	8.48e-01	0	40	104	0	67	12466
2026-01-17 16:37:25.38	256.43	7.62	-48.3	-59.3	3.8	8.47e-01	0	40	104	0	67	12485
2026-01-17 16:37:26.37	256.58	7.65	-48.3	-59.3	3.8	8.47e-01	0	40	104	0	67	12444
2026-01-17 16:37:27.37	256.74	7.68	-48.3	-59.3	3.8	8.48e-01	0	40	104	0	67	12386
2026-01-17 16:37:28.36	256.89	7.71	-48.3	-59.3	3.8	8.47e-01	0	40	104	0	67	12481
2026-01-17 16:37:29.35	257.04	7.74	-48.3	-59.3	3.8	8.47e-01	0	40	104	0	67	12436
2026-01-17 16:37:30.34	257.20	7.77	-48.3	-59.3	3.8	8.47e-01	0	40	104	0	67	12443
2026-01-17 16:37:31.34	257.35	7.80	-48.3	-59.3	3.8	8.46e-01	0	40	104	0	67	12382
2026-01-17 16:37:32.33	257.51	7.83	-48.3	-59.2	3.8	8.46e-01	0	40	104	0	67	12303
2026-01-17 16:37:33.32	257.66	7.85	-48.3	-59.2	3.8	8.46e-01	0	40	104	0	67	12260
2026-01-17 16:37:34.32	257.82	7.88	-48.3	-59.1	3.8	8.47e-01	0	40	104	0	67	12186
2026-01-17 16:37:35.31	257.97	7.91	-48.3	-59.1	3.8	8.47e-01	0	40	104	0	67	12106
2026-01-17 16:37:36.31	258.13	7.94	-48.3	-59.0	3.8	8.47e-01	0	40	104	0	67	12078
2026-01-17 16:37:37.30	258.28	7.97	-48.3	-59.0	3.8	8.47e-01	0	40	104	0	67	12073
2026-01-17 16:37:38.29	258.44	8.00	-48.3	-59.0	3.8	8.47e-01	0	40	104	0	67	12092
2026-01-17 16:37:39.29	258.60	8.02	-48.3	-59.1	3.8	8.46e-01	0	40	104	0	67	12165
2026-01-17 16:37:40.28	258.75	8.05	-48.3	-59.1	3.8	8.46e-01	0	40	104	0	67	12142
2026-01-17 16:37:41.27	258.91	8.08	-48.3	-59.0	3.8	8.46e-01	0	40	104	0	67	12049
2026-01-17 16:37:42.26	259.07	8.11	-48.3	-58.9	3.8	8.47e-01	0	40	104	0	67	11920
2026-01-17 16:37:43.26	259.23	8.13	-48.3	-58.8	3.8	8.47e-01	0	41	104	0	67	11812
2026-01-17 16:37:44.25	259.38	8.16	-48.3	-58.8	3.8	8.47e-01	0	40	104	0	67	11791
2026-01-17 16:37:45.24	259.54	8.19	-48.3	-58.9	3.8	8.47e-01	0	40	104	0	67	11873
2026-01-17 16:37:46.23	259.70	8.22	-48.3	-59.1	3.8	8.47e-01	0	40	104	0	67	12185
2026-01-17 16:37:47.23	259.86	8.24	-48.3	-59.2	3.8	8.47e-01	0	40	104	0	67	12341
2026-01-17 16:37:48.22	260.02	8.27	-48.3	-59.3	3.8	8.48e-01	0	40	104	0	67	12469
2026-01-17 16:37:49.21	260.18	8.30	-48.3	-59.3	3.8	8.47e-01	0	40	104	0	67	12427
2026-01-17 16:37:50.20	260.34	8.32	-48.3	-59.3	3.8	8.47e-01	0	40	104	0	67	12438
2026-01-17 16:37:51.20	260.50	8.35	-48.3	-59.3	3.8	8.47e-01	0	41	104	0	67	12473
2026-01-17 16:37:52.19	260.66	8.37	-48.3	-59.3	3.8	8.47e-01	0	40	104	0	67	12495
2026-01-17 16:37:53.18	260.82	8.40	-48.3	-59.3	3.8	8.47e-01	0	41	104	0	67	12424
2026-01-17 16:37:54.18	260.98	8.42	-48.3	-59.1	3.8	8.47e-01	0	40	104	0	67	12228
2026-01-17 16:37:55.17	261.14	8.45	-48.3	-59.0	3.8	8.46e-01	0	40	104	0	67	12072
2026-01-17 16:37:56.16	261.30	8.48	-48.3	-58.9	3.8	8.47e-01	0	40	104	0	67	11949
2026-01-17 16:37:57.16	261.46	8.50	-48.3	-59.0	3.8	8.47e-01	0	40	104	0	67	12051
2026-01-17 16:37:58.15	261.62	8.53	-48.3	-59.1	3.8	8.47e-01	0	41	104	0	67	12171
2026-01-17 16:37:59.14	261.78	8.55	-48.3	-59.3	3.8	8.47e-01	0	41	104	0	67	12382
2026-01-17 16:38:00.14	261.95	8.57	-48.3	-59.3	3.8	8.47e-01	0	40	104	0	67	12442
2026-01-17 16:38:01.13	262.11	8.60	-48.3	-59.2	3.8	8.47e-01	0	40	104	0	67	12357
2026-01-17 16:38:02.12	262.27	8.62	-48.3	-59.3	3.8	8.45e-01	0	40	104	0	67	12439
2026-01-17 16:38:03.11	262.43	8.65	-48.3	-59.3	3.8	8.47e-01	0	40	104	0	67	12508
2026-01-17 16:38:04.11	262.60	8.67	-48.3	-59.1	3.8	8.48e-01	0	40	104	0	67	12215
2026-01-17 16:38:05.10	262.76	8.69	-48.2	-58.0	3.8	8.47e-01	0	41	104	0	67	10776
2026-01-17 16:38:06.09	262.93	8.72	-48.0	-56.6	4.0	8.44e-01	0	41	104	0	66	9679
2026-01-17 16:38:07.09	263.09	8.74	-47.8	-55.9	4.2	8.39e-01	0	41	0	0	66	8945
2026-01-17 16:38:08.08	263.25	8.76	-48.1	-57.2	3.8	8.44e-01	0	41	104	0	66	10337
2026-01-17 16:38:09.07	263.42	8.79	-48.3	-58.9	3.8	8.47e-01	0	41	104	0	66	12583
2026-01-17 16:38:10.07	263.58	8.81	-47.4	-54.0	4.9	8.31e-01	0	41	104	0	65	7628
2026-01-17 16:38:11.06	263.75	8.83	-45.2	-48.4	9.8	5.05e-02	0	41	0	5242880	61	5010
2026-01-17 16:38:12.05	263.91	8.85	-42.6	-44.5	13.9	1.37e-05	0	40	0	12582912	56	4250
2026-01-17 16:38:13.05	264.08	8.88	-40.5	-41.8	16.4	0.00e+00	0	40	0	19922944	51	4185
2026-01-17 16:38:14.04	264.25	8.90	-39.3	-40.6	17.7	0.00e+00	0	40	0	26214400	49	4052
2026-01-17 16:38:15.03	264.41	8.92	-38.6	-39.7	18.5	0.00e+00	0	41	0	33554432	48	3900
2026-01-17 16:38:16.03	264.58	8.94	-38.4	-39.6	18.4	0.00e+00	0	41	0	40894464	47	4061
2026-01-17 16:38:17.02	264.75	8.96	-38.9	-40.1	17.9	0.00e+00	0	41	0	48234496	47	4312
2026-01-17 16:38:18.01	264.91	8.99	-40.3	-41.6	16.6	0.00e+00	0	41	0	55574528	49	4587
2026-01-17 16:38:19.00	265.08	9.01	-42.0	-43.6	14.5	0.00e+00	0	41	0	62914560	53	4597
2026-01-17 16:38:20.00	265.25	9.03	-38.2	-39.3	18.7	0.00e+00	0	41	0	70254592	47	3935
2026-01-17 16:38:20.99	265.41	9.05	-39.0	-40.2	17.8	0.00e+00	0	41	0	76546048	47	4373
2026-01-17 16:38:21.99	265.58	9.07	-45.3	-48.5	9.7	4.19e-04	0	41	0	83886080	60	5398
2026-01-17 16:38:22.98	265.75	9.09	-45.8	-49.3	8.8	1.49e-02	0	41	0	91226112	60	5922
2026-01-17 16:38:23.98	265.92	9.11	-40.9	-42.4	16.0	0.00e+00	0	41	0	98566144	51	4450
2026-01-17 16:38:24.97	266.09	9.13	-40.2	-41.5	16.8	0.00e+00	0	41	0	105906176	50	4261
2026-01-17 16:38:25.97	266.26	9.15	-40.3	-41.7	16.6	0.00e+00	0	41	0	113246208	50	4354
2026-01-17 16:38:26.96	266.42	9.17	-39.9	-41.2	17.2	0.00e+00	0	41	0	119537664	50	4101
2026-01-17 16:38:27.95	266.59	9.19	-39.9	-41.2	17.1	0.00e+00	0	41	0	126877696	50	4112
2026-01-17 16:38:28.95	266.76	9.21	-39.8	-41.1	17.2	0.00e+00	0	41	0	134217728	50	4085
2026-01-17 16:38:29.95	266.93	9.22	-39.8	-41.1	17.2	0.00e+00	0	41	0	141557760	50	4067
2026-01-17 16:38:30.94	267.10	9.24	-39.4	-40.6	17.7	0.00e+00	0	41	0	148897792	49	4071
2026-01-17 16:38:31.94	267.27	9.26	-38.8	-39.9	18.3	0.00e+00	0	41	0	155189248	48	3990
2026-01-17 16:38:32.93	267.44	9.28	-38.9	-40.0	18.3	0.00e+00	0	41	0	162529280	48	4029
2026-01-17 16:38:33.92	267.61	9.30	-38.7	-39.8	18.4	0.00e+00	0	41	0	169869312	48	3951
2026-01-17 16:38:34.92	267.79	9.32	-38.1	-39.2	18.8	0.00e+00	0	40	0	177209344	46	4130
2026-01-17 16:38:35.93	267.96	9.33	-37.9	-39.0	19.1	0.00e+00	0	41	0	184549376	46	4013
2026-01-17 16:38:36.95	268.13	9.35	-38.0	-39.1	19.0	0.00e+00	0	41	0	191889408	46	4074
2026-01-17 16:38:37.98	268.31	9.37	-38.0	-39.1	19.0	0.00e+00	0	41	0	199229440	46	4078
2026-01-17 16:38:38.98	268.48	9.39	-38.0	-39.1	19.0	0.00e+00	0	41	0	206569472	46	4077
2026-01-17 16:38:39.97	268.66	9.40	-37.7	-38.7	19.3	0.00e+00	0	41	0	213909504	46	3909
2026-01-17 16:38:40.97	268.83	9.42	-37.4	-38.5	19.6	0.00e+00	0	41	0	221249536	45	4014
2026-01-17 16:38:41.96	269.00	9.44	-37.2	-38.2	19.8	0.00e+00	0	41	0	228589568	45	3881
2026-01-17 16:38:42.96	269.17	9.45	-37.1	-38.2	19.9	0.00e+00	0	41	0	235929600	45	3872
2026-01-17 16:38:43.95	269.34	9.47	-37.2	-38.2	19.9	0.00e+00	0	41	0	242221056	44	4104
2026-01-17 16:38:44.95	269.52	9.48	-37.1	-38.1	19.9	0.00e+00	0	41	0	249561088	44	4085
2026-01-17 16:38:45.94	269.69	9.50	-37.2	-38.2	19.8	0.00e+00	0	41	0	256901120	44	4103
2026-01-17 16:38:46.94	269.86	9.51	-37.1	-38.1	19.9	0.00e+00	0	41	0	264241152	44	4075
2026-01-17 16:38:47.93	270.04	9.53	-37.1	-38.1	19.9	0.00e+00	0	41	0	271581184	44	4082
2026-01-17 16:38:48.92	270.21	9.54	-37.1	-38.1	19.9	0.00e+00	0	41	0	278921216	44	4063
2026-01-17 16:38:49.92	270.38	9.56	-37.1	-38.1	19.9	0.00e+00	0	41	0	285212672	44	4060
2026-01-17 16:38:50.92	270.56	9.57	-37.0	-38.0	20.0	0.00e+00	0	41	0	292552704	44	4039
2026-01-17 16:38:51.93	270.73	9.59	-37.1	-38.1	19.9	0.00e+00	0	41	0	299892736	44	4057
2026-01-17 16:38:52.94	270.91	9.60	-37.1	-38.1	19.9	0.00e+00	0	41	0	307232768	44	4065
2026-01-17 16:38:53.95	271.09	9.62	-37.1	-38.1	19.9	0.00e+00	0	41	0	314572800	44	4066
2026-01-17 16:38:54.95	271.26	9.63	-37.1	-38.2	19.9	0.00e+00	0	41	0	321912832	44	4113
2026-01-17 16:38:55.94	271.44	9.64	-37.0	-38.1	20.0	0.00e+00	0	41	0	329252864	44	4060
2026-01-17 16:38:56.94	271.61	9.66	-37.0	-38.1	19.9	0.00e+00	0	41	0	336592896	44	4075
2026-01-17 16:38:57.93	271.79	9.67	-36.9	-38.0	20.0	0.00e+00	0	41	0	342884352	44	4022
2026-01-17 16:38:58.92	271.96	9.68	-37.0	-38.0	20.0	0.00e+00	0	41	0	350224384	44	4040
2026-01-17 16:38:59.92	272.14	9.69	-36.9	-38.0	20.0	0.00e+00	0	41	0	357564416	44	4019
2026-01-17 16:39:00.91	272.31	9.71	-36.9	-37.9	20.1	0.00e+00	0	41	0	364904448	44	3992
2026-01-17 16:39:01.91	272.49	9.72	-36.9	-37.9	20.1	0.00e+00	0	41	0	372244480	44	4001
2026-01-17 16:39:02.90	272.66	9.73	-37.0	-38.1	20.0	0.00e+00	0	41	0	379584512	44	4054
2026-01-17 16:39:03.90	272.84	9.74	-37.2	-38.2	19.8	0.00e+00	0	41	0	386924544	44	4115
2026-01-17 16:39:04.89	273.01	9.75	-37.1	-38.1	20.0	0.00e+00	0	41	0	393216000	44	4060
2026-01-17 16:39:05.89	273.19	9.76	-37.2	-38.2	19.8	0.00e+00	0	41	0	400556032	44	4143
2026-01-17 16:39:06.88	273.36	9.77	-37.2	-38.2	19.8	0.00e+00	0	41	0	407896064	44	4103
2026-01-17 16:39:07.88	273.54	9.78	-37.2	-38.2	19.8	0.00e+00	0	41	0	415236096	44	4115
2026-01-17 16:39:08.93	273.73	9.79	-37.1	-38.1	19.9	0.00e+00	0	41	0	422576128	44	4060
2026-01-17 16:39:09.82	273.88	9.80	-37.1	-38.1	19.9	0.00e+00	0	41	0	428867584	44	4095
2026-01-17 16:39:10.96	274.09	9.82	-37.0	-38.0	20.0	0.00e+00	0	41	0	437256192	44	4035
2026-01-17 16:39:11.81	274.24	9.82	-37.0	-38.0	20.0	0.00e+00	0	41	0	443547648	44	4037
2026-01-17 16:39:12.94	274.44	9.83	-37.0	-38.0	20.0	0.00e+00	0	41	0	451936256	44	4050
2026-01-17 16:39:13.80	274.59	9.84	-37.0	-38.0	20.0	0.00e+00	0	41	0	458227712	44	4041
2026-01-17 16:39:14.93	274.79	9.85	-37.0	-38.0	20.0	0.00e+00	0	41	0	466616320	44	4034
2026-01-17 16:39:15.79	274.95	9.86	-37.0	-38.0	20.0	0.00e+00	0	41	0	471859200	44	4021
2026-01-17 16:39:16.92	275.15	9.87	-37.0	-38.0	20.0	0.00e+00	0	41	0	480247808	44	4015
2026-01-17 16:39:17.77	275.30	9.88	-37.1	-38.2	19.9	0.00e+00	0	41	0	486539264	44	4102
2026-01-17 16:39:18.91	275.50	9.88	-37.2	-38.2	19.9	0.00e+00	0	41	0	494927872	44	4108
2026-01-17 16:39:19.76	275.65	9.89	-37.2	-38.2	19.8	0.00e+00	0	41	0	501219328	44	4123
2026-01-17 16:39:21.01	275.88	9.90	-37.0	-38.0	20.0	0.00e+00	0	41	0	509607936	44	4046
2026-01-17 16:39:21.86	276.03	9.91	-37.2	-38.2	19.9	0.00e+00	0	41	0	515899392	44	4104
2026-01-17 16:39:23.00	276.23	9.91	-37.1	-38.0	20.0	0.00e+00	0	41	0	524288000	44	4048
2026-01-17 16:39:23.85	276.38	9.92	-37.1	-38.1	20.0	0.00e+00	0	41	0	530579456	44	4052
2026-01-17 16:39:24.99	276.59	9.93	-37.1	-38.1	19.9	0.00e+00	0	41	0	538968064	44	4097
2026-01-17 16:39:25.84	276.74	9.93	-37.0	-38.0	20.0	0.00e+00	0	41	0	545259520	44	4037
2026-01-17 16:39:26.98	276.94	9.94	-37.1	-38.1	19.9	0.00e+00	0	41	0	552599552	44	4084
2026-01-17 16:39:27.83	277.09	9.94	-37.1	-38.1	19.9	0.00e+00	0	41	0	558891008	44	4083
2026-01-17 16:39:28.97	277.30	9.95	-37.1	-38.1	19.9	0.00e+00	0	41	0	567279616	44	4092
2026-01-17 16:39:29.82	277.45	9.96	-37.3	-38.3	19.8	0.00e+00	0	41	0	573571072	44	4163
2026-01-17 16:39:30.96	277.65	9.96	-37.3	-38.3	19.7	0.00e+00	0	41	0	581959680	44	4176
2026-01-17 16:39:31.81	277.81	9.97	-37.3	-38.3	19.7	0.00e+00	0	41	0	588251136	44	4180
2026-01-17 16:39:32.95	278.01	9.97	-37.2	-38.2	19.8	0.00e+00	0	41	0	596639744	44	4126
2026-01-17 16:39:33.80	278.16	9.97	-37.2	-38.2	19.8	0.00e+00	0	41	0	602931200	44	4124
2026-01-17 16:39:34.94	278.37	9.98	-37.3	-38.3	19.8	0.00e+00	0	41	0	610271232	44	4157
2026-01-17 16:39:35.79	278.52	9.98	-37.2	-38.2	19.8	0.00e+00	0	41	0	616562688	44	4141
2026-01-17 16:39:36.97	278.73	9.99	-37.4	-38.4	19.6	0.00e+00	0	41	0	624951296	44	4226
2026-01-17 16:39:37.83	278.89	9.99	-37.4	-38.4	19.6	0.00e+00	0	41	0	631242752	44	4239
2026-01-17 16:39:38.96	279.09	9.99	-37.4	-38.4	19.6	0.00e+00	0	41	0	639631360	44	4225
2026-01-17 16:39:39.82	279.24	9.99	-37.4	-38.5	19.6	0.00e+00	0	41	0	645922816	44	4245
2026-01-17 16:39:41.10	279.47	10.00	-37.4	-38.4	19.6	0.00e+00	0	41	0	655360000	44	4219
2026-01-17 16:39:41.81	279.60	10.00	-37.4	-38.5	19.6	0.00e+00	0	41	0	660602880	44	4262
2026-01-17 16:39:43.09	279.83	10.00	-37.5	-38.5	19.5	0.00e+00	0	41	0	668991488	44	4273
2026-01-17 16:39:43.80	279.96	10.00	-37.3	-38.3	19.8	0.00e+00	0	41	0	674234368	44	4165
2026-01-17 16:39:45.08	280.19	10.01	-37.3	-38.4	19.7	0.00e+00	0	41	0	683671552	44	4200
2026-01-17 16:39:45.88	280.33	10.01	-37.4	-38.4	19.6	0.00e+00	0	41	0	689963008	44	4238
2026-01-17 16:39:47.01	280.53	10.01	-37.2	-38.2	19.8	0.00e+00	0	41	0	697303040	44	4124
2026-01-17 16:39:47.87	280.69	10.01	-37.2	-38.1	19.9	0.00e+00	0	41	0	703594496	44	4097
2026-01-17 16:39:49.01	280.89	10.01	-37.1	-38.1	20.0	0.00e+00	0	41	0	711983104	44	4067
2026-01-17 16:39:49.86	281.05	10.01	-37.2	-38.2	19.9	0.00e+00	0	41	0	718274560	44	4100
2026-01-17 16:39:51.00	281.25	10.01	-37.2	-38.2	19.9	0.00e+00	0	41	0	726663168	44	4107
2026-01-17 16:39:51.85	281.40	10.01	-37.1	-38.1	19.9	0.00e+00	0	41	0	732954624	44	4065
2026-01-17 16:39:52.98	281.61	10.01	-37.1	-38.1	19.9	0.00e+00	0	41	0	740294656	44	4058
2026-01-17 16:39:53.84	281.76	10.01	-37.2	-38.2	19.8	0.00e+00	0	41	0	746586112	44	4113
2026-01-17 16:39:55.02	281.97	10.01	-37.2	-38.2	19.8	0.00e+00	0	41	0	756023296	44	4136
2026-01-17 16:39:55.87	282.12	10.01	-37.3	-38.3	19.7	0.00e+00	0	41	0	761266176	44	4174
2026-01-17 16:39:57.07	282.34	10.00	-37.2	-38.2	19.8	0.00e+00	0	41	0	770703360	44	4133
2026-01-17 16:39:57.93	282.49	10.00	-37.2	-38.1	19.9	0.00e+00	0	41	0	776994816	44	4092
2026-01-17 16:39:59.09	282.70	10.00	-37.3	-38.3	19.7	0.00e+00	0	41	0	784334848	44	4183
2026-01-17 16:39:59.95	282.86	10.00	-37.3	-38.2	19.8	0.00e+00	0	41	0	791674880	44	4145
2026-01-17 16:40:01.08	283.06	10.00	-37.3	-38.3	19.8	0.00e+00	0	41	0	799014912	44	4153
2026-01-17 16:40:01.94	283.21	9.99	-37.3	-38.2	19.8	0.00e+00	0	41	0	805306368	44	4134
2026-01-17 16:40:03.07	283.42	9.99	-37.3	-38.3	19.8	0.00e+00	0	41	0	813694976	44	4166
2026-01-17 16:40:03.93	283.57	9.99	-37.3	-38.3	19.7	0.00e+00	0	41	0	819986432	44	4168
2026-01-17 16:40:05.06	283.77	9.98	-37.3	-38.3	19.8	0.00e+00	0	41	0	828375040	44	4150
2026-01-17 16:40:06.06	283.95	9.98	-37.4	-38.4	19.7	0.00e+00	0	41	0	835715072	44	4197
2026-01-17 16:40:07.05	284.13	9.98	-37.2	-38.2	19.8	0.00e+00	0	41	0	843055104	44	4127
2026-01-17 16:40:08.25	284.34	9.97	-37.3	-38.3	19.7	0.00e+00	0	41	0	851443712	44	4153
2026-01-17 16:40:09.14	284.50	9.97	-37.2	-38.2	19.8	0.00e+00	0	41	0	857735168	44	4127
2026-01-17 16:40:10.27	284.71	9.96	-37.3	-38.4	19.7	0.00e+00	0	41	0	866123776	44	4194
2026-01-17 16:40:11.13	284.86	9.96	-37.4	-38.4	19.6	0.00e+00	0	41	0	871366656	44	4204
2026-01-17 16:40:12.26	285.06	9.95	-37.2	-38.2	19.8	0.00e+00	0	41	0	879755264	44	4113
2026-01-17 16:40:13.12	285.22	9.95	-37.2	-38.2	19.8	0.00e+00	0	41	0	886046720	44	4124
2026-01-17 16:40:14.25	285.42	9.94	-37.3	-38.3	19.7	0.00e+00	0	41	0	894435328	44	4167
2026-01-17 16:40:15.10	285.57	9.94	-37.4	-38.4	19.6	0.00e+00	0	41	0	900726784	44	4226
2026-01-17 16:40:16.24	285.77	9.93	-37.4	-38.5	19.6	0.00e+00	0	41	0	909115392	44	4248
2026-01-17 16:40:17.09	285.93	9.92	-37.4	-38.4	19.6	0.00e+00	0	41	0	914358272	44	4239
2026-01-17 16:40:18.23	286.13	9.92	-37.5	-38.6	19.4	0.00e+00	0	41	0	922746880	44	4306
2026-01-17 16:40:19.09	286.28	9.91	-37.5	-38.6	19.5	0.00e+00	0	41	0	929038336	44	4306
2026-01-17 16:40:20.23	286.49	9.90	-37.7	-38.7	19.3	0.00e+00	0	41	0	937426944	44	4367
2026-01-17 16:40:21.08	286.64	9.90	-37.6	-38.6	19.4	0.00e+00	0	41	0	943718400	44	4329
2026-01-17 16:40:22.28	286.85	9.89	-37.6	-38.7	19.4	0.00e+00	0	41	0	952107008	44	4344
2026-01-17 16:40:23.13	287.00	9.88	-37.5	-38.6	19.5	0.00e+00	0	41	0	958398464	44	4296
2026-01-17 16:40:24.27	287.20	9.87	-37.5	-38.5	19.5	0.00e+00	0	41	0	966787072	44	4290
2026-01-17 16:40:25.12	287.36	9.87	-37.6	-38.6	19.2	0.00e+00	0	41	0	973078528	44	4309
2026-01-17 16:40:26.26	287.56	9.86	-37.6	-38.6	19.4	0.00e+00	0	41	0	981467136	44	4304
2026-01-17 16:40:27.11	287.71	9.85	-37.7	-38.7	19.3	0.00e+00	0	41	0	987758592	44	4355
2026-01-17 16:40:28.25	287.91	9.84	-37.6	-38.6	19.4	0.00e+00	0	41	0	995098624	44	4322
2026-01-17 16:40:29.10	288.06	9.83	-37.5	-38.5	19.5	0.00e+00	0	41	0	1001390080	44	4284
2026-01-17 16:40:30.24	288.26	9.82	-37.8	-38.8	19.2	0.00e+00	0	41	0	1009778688	44	4429
2026-01-17 16:40:31.09	288.42	9.81	-37.7	-38.7	19.3	0.00e+00	0	41	0	1016070144	45	4141
2026-01-17 16:40:32.23	288.62	9.80	-37.7	-38.7	19.3	0.00e+00	0	41	0	1024458752	45	4130
2026-01-17 16:40:33.09	288.77	9.79	-37.8	-38.8	19.2	0.00e+00	0	41	0	1030750208	45	4163
2026-01-17 16:40:34.22	288.97	9.78	-37.9	-38.9	19.1	0.00e+00	0	41	0	1038090240	45	4221
2026-01-17 16:40:35.08	289.12	9.77	-37.6	-38.7	19.3	0.00e+00	0	41	0	1044381696	45	4114
2026-01-17 16:40:36.22	289.32	9.76	-37.6	-38.7	19.3	0.00e+00	0	41	0	1052770304	45	4114
2026-01-17 16:40:37.07	289.47	9.75	-37.6	-38.6	19.4	0.00e+00	0	41	0	1059061760	45	4076
2026-01-17 16:40:38.20	289.67	9.74	-37.5	-38.5	19.4	0.00e+00	0	41	0	1067450368	45	4047
2026-01-17 16:40:39.44	289.89	9.72	-37.6	-38.6	19.4	0.00e+00	0	41	0	1075838976	45	4065
2026-01-17 16:40:40.29	290.04	9.71	-37.5	-38.5	19.4	0.00e+00	0	41	0	1082130432	45	4039
2026-01-17 16:40:41.43	290.24	9.70	-37.6	-38.6	19.3	0.00e+00	0	41	0	1090519040	45	4086
2026-01-17 16:40:42.28	290.39	9.69	-37.7	-38.7	19.3	0.00e+00	0	41	0	1096810496	45	4127
2026-01-17 16:40:43.42	290.59	9.67	-37.8	-38.8	19.2	0.00e+00	0	41	0	1105199104	45	4184
2026-01-17 16:40:44.27	290.74	9.66	-37.7	-38.7	19.3	0.00e+00	0	41	0	1111490560	45	4117
2026-01-17 16:40:45.41	290.94	9.65	-37.7	-38.7	19.3	0.00e+00	0	41	0	1119879168	45	4126
2026-01-17 16:40:46.26	291.09	9.64	-37.7	-38.8	19.2	0.00e+00	0	41	0	1125122048	45	4148
2026-01-17 16:40:47.40	291.29	9.62	-37.9	-38.9	19.1	0.00e+00	0	41	0	1133510656	45	4210
2026-01-17 16:40:48.26	291.44	9.61	-37.7	-38.7	19.3	0.00e+00	0	41	0	1139802112	45	4119
2026-01-17 16:40:49.51	291.65	9.59	-37.7	-38.7	19.2	0.00e+00	0	41	0	1149239296	45	4139
2026-01-17 16:40:50.36	291.80	9.58	-37.8	-38.8	19.2	0.00e+00	0	41	0	1155530752	45	4163
2026-01-17 16:40:51.57	292.01	9.56	-37.9	-39.0	19.0	0.00e+00	0	41	0	1163919360	45	4255
2026-01-17 16:40:52.43	292.16	9.55	-37.9	-39.0	19.0	0.00e+00	0	41	0	1170210816	45	4264
2026-01-17 16:40:53.57	292.36	9.53	-37.9	-39.0	19.0	0.00e+00	0	41	0	1178599424	45	4259
2026-01-17 16:40:54.42	292.51	9.52	-37.9	-39.0	19.0	0.00e+00	0	41	0	1183842304	45	4257
2026-01-17 16:40:55.56	292.71	9.50	-37.9	-39.0	19.0	0.00e+00	0	41	0	1192230912	45	4247
2026-01-17 16:40:56.41	292.85	9.49	-38.1	-39.1	18.9	0.00e+00	0	41	0	1198522368	45	4337
2026-01-17 16:40:57.55	293.05	9.47	-38.1	-39.2	18.8	0.00e+00	0	41	0	1206910976	45	4348
2026-01-17 16:40:58.40	293.20	9.46	-38.1	-39.1	18.9	0.00e+00	0	41	0	1213202432	45	4338
2026-01-17 16:40:59.54	293.40	9.44	-38.0	-39.0	19.0	0.00e+00	0	41	0	1221591040	45	4271
2026-01-17 16:41:00.39	293.54	9.43	-38.1	-39.1	18.9	0.00e+00	0	41	0	1226833920	45	4330
2026-01-17 16:41:01.53	293.74	9.41	-38.1	-39.2	18.8	0.00e+00	0	41	0	1235222528	45	4367
2026-01-17 16:41:02.38	293.89	9.39	-38.2	-39.2	18.8	0.00e+00	0	41	0	1241513984	46	4139
2026-01-17 16:41:03.52	294.08	9.37	-38.2	-39.2	18.8	0.00e+00	0	41	0	1249902592	46	4145
2026-01-17 16:41:04.37	294.23	9.36	-38.2	-39.2	18.8	0.00e+00	0	41	0	1256194048	46	4128
2026-01-17 16:41:05.51	294.42	9.34	-38.3	-39.4	18.7	0.00e+00	0	41	0	1264582656	46	4201
2026-01-17 16:41:06.36	294.57	9.32	-38.3	-39.4	18.6	0.00e+00	0	41	0	1270874112	46	4240
2026-01-17 16:41:07.50	294.76	9.30	-38.3	-39.4	18.7	0.00e+00	0	41	0	1278214144	46	4208
2026-01-17 16:41:08.35	294.91	9.29	-38.2	-39.3	18.7	0.00e+00	0	41	0	1285554176	46	4186
2026-01-17 16:41:09.49	295.10	9.27	-38.3	-39.4	18.6	0.00e+00	0	41	0	1292894208	46	4235
2026-01-17 16:41:10.34	295.25	9.25	-38.4	-39.5	18.5	0.00e+00	0	41	0	1299185664	46	4250
2026-01-17 16:41:11.48	295.44	9.23	-38.3	-39.4	18.6	0.00e+00	0	41	0	1307574272	46	4209
2026-01-17 16:41:12.33	295.59	9.22	-38.3	-39.5	18.6	0.00e+00	0	41	0	1313865728	46	4246
2026-01-17 16:41:13.47	295.78	9.19	-38.3	-39.4	18.6	0.00e+00	0	41	0	1322254336	46	4208
2026-01-17 16:41:14.32	295.93	9.18	-38.3	-39.4	18.6	0.00e+00	0	41	0	1327497216	46	4232
2026-01-17 16:41:15.46	296.12	9.15	-38.1	-39.2	18.9	0.00e+00	0	41	0	1335885824	46	4100
2026-01-17 16:41:16.32	296.26	9.14	-38.2	-39.3	18.7	0.00e+00	0	41	0	1342177280	46	4177
2026-01-17 16:41:17.45	296.46	9.12	-38.1	-39.1	18.8	0.00e+00	0	41	0	1350565888	46	4093
2026-01-17 16:41:18.31	296.60	9.10	-38.4	-39.5	18.5	0.00e+00	0	41	0	1356857344	46	4257
2026-01-17 16:41:19.44	296.79	9.08	-38.2	-39.3	18.7	0.00e+00	0	41	0	1365245952	46	4179
2026-01-17 16:41:20.30	296.94	9.06	-38.3	-39.4	18.6	0.00e+00	0	41	0	1371537408	46	4205
2026-01-17 16:41:21.44	297.13	9.03	-38.4	-39.5	18.5	0.00e+00	0	41	0	1378877440	46	4274
2026-01-17 16:41:22.29	297.27	9.02	-38.5	-39.7	18.3	0.00e+00	0	41	0	1385168896	46	4351
2026-01-17 16:41:23.52	297.48	8.99	-39.7	-40.9	17.4	0.00e+00	0	41	0	1394606080	48	4471
2026-01-17 16:41:24.37	297.62	8.97	-48.8	-59.5	3.8	8.35e-01	0	41	104	1396703232	67	12789
2026-01-17 16:41:25.51	297.81	8.95	-49.0	-59.6	3.8	8.49e-01	0	41	104	1396703232	67	12958
2026-01-17 16:41:26.36	297.95	8.93	-49.1	-59.9	3.8	8.46e-01	0	41	104	1396703232	67	13313
2026-01-17 16:41:27.61	298.16	8.90	-49.2	-60.1	3.8	8.46e-01	0	41	104	1396703232	68	12888
2026-01-17 16:41:28.45	298.30	8.88	-49.6	-60.2	3.8	8.46e-01	0	41	104	1396703232	68	13000
2026-01-17 16:41:29.65	298.50	8.86	-49.5	-60.2	3.8	8.46e-01	0	41	104	1396703232	68	13068
2026-01-17 16:41:30.50	298.64	8.84	-49.5	-60.3	3.8	8.46e-01	0	41	104	1396703232	68	13124
2026-01-17 16:41:31.70	298.84	8.81	-49.6	-60.3	3.8	8.48e-01	0	41	104	1396703232	68	13201
2026-01-17 16:41:32.55	298.98	8.79	-49.5	-60.3	3.8	8.48e-01	0	41	104	1396703232	68	13202
2026-01-17 16:41:33.69	299.17	8.77	-49.4	-60.3	3.8	8.46e-01	0	41	104	1396703232	68	13174
2026-01-17 16:41:34.54	299.31	8.75	-49.5	-60.3	3.8	8.46e-01	0	41	104	1396703232	68	13248
2026-01-17 16:41:35.68	299.50	8.72	-49.6	-60.3	3.8	8.49e-01	0	41	104	1396703232	68	13142
2026-01-17 16:41:36.53	299.64	8.70	-49.6	-60.4	3.8	8.47e-01	0	41	104	1396703232	68	13282
2026-01-17 16:41:37.66	299.82	8.67	-49.6	-60.3	3.8	8.48e-01	0	41	104	1396703232	68	13245
2026-01-17 16:41:38.52	299.96	8.65	-49.6	-60.3	3.8	8.46e-01	0	41	104	1396703232	68	13258
2026-01-17 16:41:39.65	300.15	8.63	-49.6	-60.4	3.8	8.46e-01	0	41	104	1396703232	68	13288
2026-01-17 16:41:40.50	300.29	8.61	-49.6	-60.3	3.8	8.47e-01	0	41	104	1396703232	68	13226
2026-01-17 16:41:41.64	300.47	8.58	-49.5	-60.3	3.8	8.47e-01	0	41	104	1396703232	68	13254
2026-01-17 16:41:42.49	300.61	8.56	-49.4	-60.3	3.8	8.47e-01	0	41	104	1396703232	68	13202
2026-01-17 16:41:43.63	300.80	8.53	-49.4	-60.3	3.8	8.46e-01	0	41	104	1396703232	68	13237
2026-01-17 16:41:44.48	300.93	8.51	-49.3	-60.3	3.8	8.46e-01	0	42	104	1396703232	68	13177
2026-01-17 16:41:45.61	301.12	8.48	-49.1	-60.2	3.8	8.45e-01	0	41	104	1396703232	68	13087
2026-01-17 16:41:46.46	301.25	8.46	-49.1	-60.3	3.8	8.47e-01	0	41	104	1396703232	68	13112
2026-01-17 16:41:47.63	301.44	8.43	-49.1	-60.2	3.8	8.47e-01	0	41	104	1396703232	68	12981
2026-01-17 16:41:48.48	301.58	8.41	-49.1	-60.2	3.8	8.47e-01	0	41	104	1396703232	68	13060
2026-01-17 16:41:49.62	301.76	8.38	-49.1	-60.2	3.8	8.47e-01	0	41	104	1396703232	68	13026
2026-01-17 16:41:50.47	301.90	8.35	-49.1	-60.2	3.8	8.47e-01	0	41	104	1396703232	68	12990
2026-01-17 16:41:51.61	302.08	8.33	-49.1	-60.2	3.8	8.48e-01	0	42	104	1396703232	68	13054
2026-01-17 16:41:52.46	302.22	8.30	-49.1	-60.2	3.8	8.46e-01	0	41	104	1396703232	68	13006
2026-01-17 16:41:53.59	302.40	8.27	-49.1	-60.2	3.8	8.46e-01	0	41	104	1396703232	68	13058
2026-01-17 16:41:54.44	302.53	8.25	-49.1	-60.2	3.8	8.46e-01	0	41	104	1396703232	68	13046
2026-01-17 16:41:55.58	302.72	8.22	-49.1	-60.2	3.8	8.48e-01	0	41	104	1396703232	68	13038
2026-01-17 16:41:56.43	302.85	8.20	-49.1	-60.2	3.8	8.46e-01	0	41	104	1396703232	68	12987
2026-01-17 16:41:57.57	303.03	8.17	-49.1	-60.2	3.8	8.46e-01	0	41	104	1396703232	68	13064
2026-01-17 16:41:58.41	303.17	8.14	-49.1	-60.1	3.8	8.48e-01	0	41	104	1396703232	68	12955
2026-01-17 16:41:59.55	303.35	8.11	-49.1	-60.1	3.8	8.46e-01	0	41	104	1396703232	68	12950
2026-01-17 16:42:00.40	303.48	8.09	-49.1	-60.1	3.8	8.46e-01	0	41	104	1396703232	68	12923
2026-01-17 16:42:01.54	303.66	8.06	-49.1	-60.2	3.8	8.46e-01	0	41	104	1396703232	68	13024
2026-01-17 16:42:02.39	303.79	8.03	-49.1	-60.2	3.8	8.46e-01	0	41	104	1396703232	68	13008
2026-01-17 16:42:03.53	303.97	8.00	-49.1	-60.2	3.8	8.48e-01	0	41	104	1396703232	68	13019
2026-01-17 16:42:04.38	304.11	7.98	-49.1	-60.2	3.8	8.46e-01	0	41	104	1396703232	68	13002
2026-01-17 16:42:05.51	304.28	7.95	-49.1	-60.1	3.8	8.47e-01	0	42	104	1396703232	68	12918
2026-01-17 16:42:06.36	304.41	7.92	-49.1	-60.2	3.8	8.48e-01	0	42	104	1396703232	68	13000
2026-01-17 16:42:07.50	304.59	7.89	-49.1	-60.2	3.8	8.48e-01	0	41	104	1396703232	68	12984
2026-01-17 16:42:08.35	304.72	7.87	-49.1	-60.2	3.8	8.46e-01	0	41	104	1396703232	68	13022
2026-01-17 16:42:09.49	304.90	7.83	-49.1	-60.2	3.8	8.46e-01	0	41	104	1396703232	68	12995
2026-01-17 16:42:10.34	305.03	7.81	-49.1	-60.2	3.8	8.46e-01	0	41	104	1396703232	68	13041
2026-01-17 16:42:11.47	305.21	7.78	-49.1	-60.2	3.8	8.47e-01	0	42	104	1396703232	68	13009
2026-01-17 16:42:12.32	305.34	7.75	-49.1	-60.2	3.8	8.47e-01	0	41	104	1396703232	68	12970
2026-01-17 16:42:13.46	305.51	7.72	-49.1	-60.2	3.8	8.47e-01	0	41	104	1396703232	68	12965
2026-01-17 16:42:14.31	305.64	7.69	-49.1	-60.2	3.8	8.47e-01	0	41	104	1396703232	68	12992
2026-01-17 16:42:15.44	305.82	7.66	-49.1	-60.1	3.8	8.47e-01	0	41	104	1396703232	68	12929
2026-01-17 16:42:16.29	305.95	7.63	-49.1	-60.2	3.8	8.47e-01	0	42	104	1396703232	68	13002
2026-01-17 16:42:17.43	306.12	7.60	-49.1	-60.1	3.8	8.47e-01	0	42	104	1396703232	68	12910
2026-01-17 16:42:18.28	306.25	7.57	-49.1	-60.2	3.8	8.46e-01	0	42	104	1396703232	68	13001
2026-01-17 16:42:19.41	306.42	7.54	-49.1	-60.1	3.8	8.48e-01	0	41	104	1396703232	68	12913
2026-01-17 16:42:20.27	306.55	7.51	-49.1	-60.1	3.8	8.47e-01	0	41	104	1396703232	68	12952
2026-01-17 16:42:21.40	306.73	7.48	-49.1	-60.2	3.8	8.46e-01	0	41	104	1396703232	68	12979
2026-01-17 16:42:22.25	306.85	7.45	-49.1	-60.2	3.8	8.47e-01	0	41	104	1396703232	68	13029
2026-01-17 16:42:23.39	307.03	7.42	-49.1	-60.2	3.8	8.48e-01	0	41	104	1396703232	68	13011
2026-01-17 16:42:24.24	307.15	7.39	-49.1	-60.1	3.8	8.46e-01	0	41	104	1396703232	68	12919
2026-01-17 16:42:25.37	307.32	7.36	-49.1	-60.2	3.8	8.47e-01	0	41	104	1396703232	68	13007
2026-01-17 16:42:26.23	307.45	7.33	-49.1	-60.2	3.8	8.46e-01	0	42	104	1396703232	68	12974
2026-01-17 16:42:27.36	307.62	7.29	-49.0	-60.2	3.8	8.47e-01	0	41	104	1396703232	68	13001
2026-01-17 16:42:28.21	307.75	7.27	-49.1	-60.2	3.8	8.46e-01	0	41	104	1396703232	68	13097
2026-01-17 16:42:29.35	307.92	7.23	-49.1	-60.2	3.8	8.47e-01	0	41	104	1396703232	68	13063
2026-01-17 16:42:30.20	308.05	7.20	-49.1	-60.2	3.8	8.48e-01	0	41	104	1396703232	68	12982
2026-01-17 16:42:31.33	308.21	7.17	-49.1	-60.1	3.8	8.47e-01	0	41	104	1396703232	68	12939
2026-01-17 16:42:32.18	308.34	7.14	-49.1	-60.2	3.8	8.46e-01	0	41	104	1396703232	68	12989
2026-01-17 16:42:33.32	308.51	7.11	-49.1	-60.1	3.8	8.48e-01	0	42	104	1396703232	68	12918
2026-01-17 16:42:34.17	308.63	7.08	-49.1	-60.1	3.8	8.47e-01	0	41	104	1396703232	68	12943
2026-01-17 16:42:35.30	308.80	7.04	-49.1	-60.1	3.8	8.47e-01	0	42	104	1396703232	68	12947
2026-01-17 16:42:36.16	308.93	7.01	-49.0	-60.1	3.8	8.47e-01	0	41	104	1396703232	68	12851
2026-01-17 16:42:37.29	309.09	6.98	-49.1	-60.2	3.8	8.46e-01	0	41	104	1396703232	68	12982
2026-01-17 16:42:38.14	309.22	6.95	-49.1	-60.2	3.8	8.48e-01	0	42	104	1396703232	68	12974
2026-01-17 16:42:39.28	309.38	6.91	-49.1	-60.1	3.8	8.46e-01	0	41	104	1396703232	68	12886
2026-01-17 16:42:40.13	309.51	6.88	-49.1	-60.1	3.8	8.46e-01	0	42	104	1396703232	68	12947
2026-01-17 16:42:41.26	309.67	6.85	-49.1	-60.1	3.8	8.47e-01	0	42	104	1396703232	68	12940
2026-01-17 16:42:42.12	309.79	6.82	-49.1	-60.2	3.8	8.47e-01	0	42	104	1396703232	68	12990
2026-01-17 16:42:43.25	309.96	6.78	-49.1	-60.1	3.8	8.48e-01	0	42	104	1396703232	68	12877
2026-01-17 16:42:44.10	310.08	6.75	-49.1	-60.2	3.8	8.47e-01	0	41	104	1396703232	68	12978
2026-01-17 16:42:45.24	310.24	6.72	-49.1	-60.1	3.8	8.47e-01	0	42	104	1396703232	68	12873
2026-01-17 16:42:46.09	310.37	6.69	-49.1	-60.1	3.8	8.47e-01	0	42	104	1396703232	68	12862
2026-01-17 16:42:47.22	310.53	6.65	-49.1	-60.1	3.8	8.47e-01	0	41	104	1396703232	68	12891
2026-01-17 16:42:48.07	310.65	6.62	-49.1	-60.1	3.8	8.47e-01	0	42	104	1396703232	68	12955
2026-01-17 16:42:49.21	310.81	6.58	-49.0	-60.1	3.8	8.48e-01	0	42	104	1396703232	68	12882
2026-01-17 16:42:50.06	310.93	6.55	-49.1	-60.1	3.8	8.47e-01	0	42	104	1396703232	68	12937
2026-01-17 16:42:51.19	311.09	6.51	-49.0	-60.1	3.8	8.46e-01	0	41	104	1396703232	68	12935
2026-01-17 16:42:52.05	311.22	6.49	-49.1	-60.1	3.8	8.45e-01	0	42	104	1396703232	68	12883
2026-01-17 16:42:53.18	311.38	6.45	-49.0	-60.1	3.8	8.47e-01	0	42	104	1396703232	68	12928
2026-01-17 16:42:54.03	311.50	6.42	-49.0	-60.1	3.8	8.47e-01	0	42	104	1396703232	68	12876
2026-01-17 16:42:55.17	311.66	6.38	-49.1	-60.1	3.8	8.47e-01	0	41	104	1396703232	68	12933
2026-01-17 16:42:56.02	311.78	6.35	-49.0	-60.1	3.8	8.48e-01	0	41	104	1396703232	68	12951
2026-01-17 16:42:57.15	311.93	6.31	-49.0	-60.2	3.8	8.46e-01	0	42	104	1396703232	68	12977
2026-01-17 16:42:58.00	312.05	6.28	-49.1	-60.1	3.8	8.47e-01	0	41	104	1396703232	68	12896
2026-01-17 16:42:59.14	312.21	6.24	-49.0	-60.1	3.8	8.47e-01	0	42	104	1396703232	68	12937
2026-01-17 16:42:59.99	312.33	6.21	-49.1	-60.1	3.8	8.47e-01	0	41	104	1396703232	68	12830
2026-01-17 16:43:01.12	312.49	6.17	-49.0	-60.1	3.8	8.47e-01	0	42	104	1396703232	68	12828
2026-01-17 16:43:01.97	312.61	6.14	-49.0	-60.1	3.8	8.47e-01	0	42	104	1396703232	68	12880
2026-01-17 16:43:03.11	312.76	6.10	-49.0	-60.1	3.8	8.47e-01	0	42	104	1396703232	68	12832
2026-01-17 16:43:03.96	312.88	6.07	-49.0	-60.1	3.8	8.47e-01	0	42	104	1396703232	68	12926
2026-01-17 16:43:05.09	313.04	6.03	-49.0	-60.1	3.8	8.46e-01	0	42	104	1396703232	68	12922
2026-01-17 16:43:05.95	313.15	6.00	-49.0	-60.2	3.8	8.46e-01	0	42	104	1396703232	68	12991
2026-01-17 16:43:07.08	313.31	5.96	-49.0	-60.2	3.8	8.46e-01	0	41	104	1396703232	68	12960
2026-01-17 16:43:07.93	313.43	5.93	-49.1	-60.1	3.8	8.46e-01	0	41	104	1396703232	68	12928
2026-01-17 16:43:09.07	313.58	5.89	-49.0	-60.1	3.8	8.46e-01	0	41	104	1396703232	68	12887
2026-01-17 16:43:09.92	313.70	5.86	-49.0	-60.1	3.8	8.47e-01	0	42	104	1396703232	68	12877
2026-01-17 16:43:11.05	313.85	5.82	-49.0	-60.1	3.8	8.47e-01	0	41	104	1396703232	68	12915
2026-01-17 16:43:11.90	313.96	5.79	-49.0	-60.1	3.8	8.46e-01	0	42	104	1396703232	68	12856
2026-01-17 16:43:13.04	314.12	5.75	-49.0	-60.1	3.8	8.48e-01	0	41	104	1396703232	68	12905
2026-01-17 16:43:13.89	314.23	5.72	-49.0	-60.1	3.8	8.47e-01	0	42	104	1396703232	68	12941
2026-01-17 16:43:15.03	314.39	5.68	-49.0	-60.1	3.8	8.47e-01	0	42	104	1396703232	68	12846
2026-01-17 16:43:15.88	314.50	5.65	-49.0	-60.1	3.8	8.47e-01	0	42	104	1396703232	68	12859
2026-01-17 16:43:17.01	314.65	5.61	-49.0	-60.1	3.8	8.47e-01	0	42	104	1396703232	68	12949
2026-01-17 16:43:17.86	314.77	5.57	-49.0	-60.1	3.8	8.47e-01	0	42	104	1396703232	68	12863
2026-01-17 16:43:19.00	314.92	5.53	-49.0	-60.1	3.8	8.47e-01	0	42	104	1396703232	68	12894
2026-01-17 16:43:19.85	315.03	5.50	-49.0	-60.2	3.8	8.47e-01	0	42	104	1396703232	68	12961
2026-01-17 16:43:20.98	315.18	5.46	-49.0	-60.1	3.8	8.47e-01	0	42	104	1396703232	68	12876
2026-01-17 16:43:21.84	315.29	5.43	-49.0	-60.0	3.8	8.47e-01	0	42	104	1396703232	68	12800
2026-01-17 16:43:22.97	315.44	5.39	-49.0	-60.1	3.8	8.47e-01	0	42	104	1396703232	68	12912
2026-01-17 16:43:23.82	315.55	5.36	-49.0	-60.1	3.8	8.46e-01	0	42	104	1396703232	68	12868
2026-01-17 16:43:24.96	315.70	5.31	-49.0	-60.1	3.8	8.47e-01	0	42	104	1396703232	68	12935
2026-01-17 16:43:25.81	315.81	5.28	-49.0	-60.2	3.8	8.46e-01	0	42	104	1396703232	68	12975
2026-01-17 16:43:26.94	315.96	5.24	-49.0	-60.1	3.8	8.46e-01	0	42	104	1396703232	68	12853
2026-01-17 16:43:27.79	316.07	5.21	-49.0	-60.1	3.8	8.46e-01	0	42	104	1396703232	68	12930
2026-01-17 16:43:28.93	316.22	5.17	-49.0	-60.1	3.8	8.49e-01	0	42	104	1396703232	68	12890
2026-01-17 16:43:29.78	316.33	5.14	-49.0	-60.1	3.8	8.46e-01	0	42	104	1396703232	68	12901
2026-01-17 16:43:30.92	316.48	5.09	-49.0	-60.1	3.8	8.46e-01	0	42	104	1396703232	68	12860
2026-01-17 16:43:31.77	316.59	5.06	
