passes_logs/2026/01/17/T1/T1__20260117_092602_KHAYYAM_rec.log

#Pass ID: 20260117_092602_KHAYYAM
#Satellite: KHAYYAM
#Configuration: KHAYYAM_480M
#almurnet v.1.7.20251203
#Start time: 2026-01-17 09:26:02

#Version: 2.0.20230620
#Station: T1
#Location: 37.570604 lon 55.790049 lat
#TLE: 1 53370U 22096A   26016.26944296  .00002688  00000+0  11195-3 0  9997
#TLE: 2 53370  97.3563 283.2565 0001591 106.1097 254.0316 15.24586395191431

#Time	Az	El	Level	Level2	SNR	BER	BlckErr	Temp	State	Recorded	gain1	gain2
2026-01-17 09:26:02.78	230.50	5.03	-53.1	-57.7	3.6	0.00e+00	0	41	0	0	77	24812
2026-01-17 09:26:03.77	230.66	5.09	-53.1	-57.6	3.7	0.00e+00	0	42	104	0	76	26143
2026-01-17 09:26:04.76	230.82	5.14	-53.0	-57.6	3.7	0.00e+00	0	42	104	0	76	26119
2026-01-17 09:26:05.76	230.99	5.19	-53.0	-57.6	3.7	0.00e+00	0	42	104	0	76	26153
2026-01-17 09:26:06.75	231.15	5.25	-53.0	-57.6	3.7	0.00e+00	0	42	104	0	76	26178
2026-01-17 09:26:07.74	231.31	5.30	-53.0	-57.6	3.7	0.00e+00	0	42	104	0	76	26207
2026-01-17 09:26:08.74	231.48	5.35	-53.0	-57.6	3.7	0.00e+00	0	42	104	0	76	26195
2026-01-17 09:26:09.73	231.64	5.41	-53.0	-57.6	3.7	0.00e+00	0	42	104	0	76	26143
2026-01-17 09:26:10.72	231.81	5.46	-53.0	-57.6	3.7	0.00e+00	0	42	104	0	76	26174
2026-01-17 09:26:11.71	231.98	5.51	-53.0	-57.6	3.7	0.00e+00	0	42	104	0	76	26207
2026-01-17 09:26:12.71	232.14	5.56	-53.0	-57.6	3.7	0.00e+00	0	42	104	0	76	26205
2026-01-17 09:26:13.70	232.31	5.62	-53.0	-57.6	3.7	0.00e+00	0	43	104	0	76	26211
2026-01-17 09:26:14.69	232.48	5.67	-53.0	-57.6	3.7	0.00e+00	0	43	104	0	76	26233
2026-01-17 09:26:15.69	232.65	5.72	-53.0	-57.6	3.7	0.00e+00	0	43	104	0	76	26234
2026-01-17 09:26:16.68	232.82	5.78	-53.0	-57.6	3.7	0.00e+00	0	43	104	0	76	26180
2026-01-17 09:26:17.67	232.99	5.83	-53.0	-57.6	3.7	0.00e+00	0	43	104	0	76	26189
2026-01-17 09:26:18.67	233.17	5.88	-53.0	-57.6	3.7	0.00e+00	0	43	104	0	76	26144
2026-01-17 09:26:19.66	233.34	5.94	-53.0	-57.6	3.7	0.00e+00	0	43	104	0	76	26162
2026-01-17 09:26:20.65	233.51	5.99	-53.0	-57.6	3.7	0.00e+00	0	43	104	0	76	26180
2026-01-17 09:26:21.65	233.69	6.04	-53.0	-57.6	3.7	0.00e+00	0	43	104	0	76	26112
2026-01-17 09:26:22.64	233.86	6.09	-53.0	-57.6	3.7	0.00e+00	0	43	104	0	76	26221
2026-01-17 09:26:23.63	234.04	6.15	-53.0	-57.6	3.7	0.00e+00	0	43	104	0	76	26220
2026-01-17 09:26:24.63	234.22	6.20	-53.0	-57.6	3.7	0.00e+00	0	43	104	0	76	26132
2026-01-17 09:26:25.62	234.39	6.25	-53.0	-57.6	3.7	0.00e+00	0	43	104	0	76	26086
2026-01-17 09:26:26.62	234.57	6.30	-53.0	-57.6	3.7	0.00e+00	0	44	104	0	76	26162
2026-01-17 09:26:27.61	234.75	6.36	-53.0	-57.6	3.7	0.00e+00	0	43	104	0	76	26208
2026-01-17 09:26:28.60	234.93	6.41	-53.0	-57.6	3.7	0.00e+00	0	43	104	0	76	26114
2026-01-17 09:26:29.60	235.11	6.46	-53.0	-57.6	3.7	0.00e+00	0	44	104	0	76	26138
2026-01-17 09:26:30.59	235.29	6.51	-53.0	-57.6	3.7	0.00e+00	0	44	104	0	76	26123
2026-01-17 09:26:31.58	235.48	6.57	-53.0	-57.6	3.7	0.00e+00	0	44	104	0	76	26156
2026-01-17 09:26:32.58	235.66	6.62	-53.0	-57.6	3.7	0.00e+00	0	44	104	0	76	26146
2026-01-17 09:26:33.57	235.84	6.67	-53.0	-57.6	3.7	0.00e+00	0	44	104	0	76	26141
2026-01-17 09:26:34.56	236.03	6.72	-53.0	-57.6	3.7	0.00e+00	0	44	104	0	76	26158
2026-01-17 09:26:35.56	236.21	6.77	-53.0	-57.6	3.7	0.00e+00	0	44	104	0	76	26083
2026-01-17 09:26:36.55	236.40	6.83	-53.0	-57.6	3.7	0.00e+00	0	44	104	0	76	26037
2026-01-17 09:26:37.55	236.59	6.88	-53.0	-57.6	3.7	0.00e+00	0	44	104	0	76	26078
2026-01-17 09:26:38.54	236.78	6.93	-53.0	-57.6	3.7	0.00e+00	0	44	104	0	76	26182
2026-01-17 09:26:39.53	236.97	6.98	-53.0	-57.6	3.7	0.00e+00	0	44	104	0	76	26105
2026-01-17 09:26:40.53	237.16	7.03	-53.0	-57.6	3.7	0.00e+00	0	44	104	0	76	26099
2026-01-17 09:26:41.52	237.35	7.08	-53.0	-57.6	3.7	0.00e+00	0	44	104	0	76	26141
2026-01-17 09:26:42.51	237.54	7.14	-53.0	-57.6	3.7	0.00e+00	0	45	104	0	76	26104
2026-01-17 09:26:43.50	237.73	7.19	-53.0	-57.6	3.7	0.00e+00	0	44	104	0	76	26134
2026-01-17 09:26:44.50	237.92	7.24	-53.0	-57.6	3.7	0.00e+00	0	44	104	0	76	26081
2026-01-17 09:26:45.49	238.12	7.29	-53.0	-57.6	3.7	0.00e+00	0	45	104	0	76	26113
2026-01-17 09:26:46.48	238.31	7.34	-53.0	-57.6	3.7	0.00e+00	0	45	104	0	76	26107
2026-01-17 09:26:47.48	238.51	7.39	-53.0	-57.6	3.7	0.00e+00	0	45	104	0	76	26131
2026-01-17 09:26:48.47	238.70	7.44	-53.0	-57.6	3.7	0.00e+00	0	45	104	0	76	26187
2026-01-17 09:26:49.46	238.90	7.49	-53.0	-57.6	3.7	0.00e+00	0	45	104	0	76	26117
2026-01-17 09:26:50.46	239.10	7.54	-53.0	-57.6	3.7	0.00e+00	0	45	104	0	76	26101
2026-01-17 09:26:51.45	239.30	7.59	-53.0	-57.6	3.7	0.00e+00	0	45	104	0	76	26083
2026-01-17 09:26:52.44	239.50	7.64	-53.0	-57.6	3.7	0.00e+00	0	45	104	0	76	26134
2026-01-17 09:26:53.44	239.70	7.69	-53.0	-57.6	3.7	0.00e+00	0	45	104	0	76	26115
2026-01-17 09:26:54.43	239.90	7.74	-53.0	-57.6	3.7	0.00e+00	0	45	104	0	76	26059
2026-01-17 09:26:55.42	240.10	7.79	-53.0	-57.6	3.7	0.00e+00	0	45	104	0	76	26131
2026-01-17 09:26:56.42	240.31	7.84	-53.0	-57.6	3.7	0.00e+00	0	45	104	0	76	26095
2026-01-17 09:26:57.41	240.51	7.89	-53.0	-57.6	3.7	0.00e+00	0	45	104	0	76	26164
2026-01-17 09:26:58.40	240.71	7.94	-53.0	-57.6	3.7	0.00e+00	0	45	104	0	76	26176
2026-01-17 09:26:59.40	240.92	7.99	-53.0	-57.6	3.7	0.00e+00	0	45	104	0	76	26171
2026-01-17 09:27:00.39	241.13	8.04	-53.0	-57.6	3.7	0.00e+00	0	45	104	0	76	26117
2026-01-17 09:27:01.38	241.33	8.09	-53.0	-57.6	3.7	0.00e+00	0	45	104	0	76	26136
2026-01-17 09:27:02.38	241.54	8.14	-53.0	-57.6	3.7	0.00e+00	0	45	104	0	76	26077
2026-01-17 09:27:03.37	241.75	8.19	-53.0	-57.6	3.7	0.00e+00	0	45	104	0	76	26147
2026-01-17 09:27:04.36	241.96	8.24	-53.0	-57.6	3.7	0.00e+00	0	45	104	0	76	26129
2026-01-17 09:27:05.36	242.17	8.29	-53.0	-57.6	3.7	0.00e+00	0	45	104	0	76	26112
2026-01-17 09:27:06.35	242.39	8.33	-53.0	-57.6	3.7	0.00e+00	0	45	104	0	76	26120
2026-01-17 09:27:07.34	242.60	8.38	-53.0	-57.6	3.7	0.00e+00	0	45	104	0	76	26119
2026-01-17 09:27:08.34	242.81	8.43	-53.0	-57.6	3.7	0.00e+00	0	45	104	0	76	26110
2026-01-17 09:27:09.33	243.03	8.48	-53.0	-57.6	3.7	0.00e+00	0	45	104	0	76	26162
2026-01-17 09:27:10.32	243.24	8.53	-53.0	-57.6	3.7	0.00e+00	0	46	104	0	76	26176
2026-01-17 09:27:11.32	243.46	8.57	-53.0	-57.6	3.7	0.00e+00	0	45	104	0	76	26097
2026-01-17 09:27:12.31	243.67	8.62	-53.0	-57.6	3.7	0.00e+00	0	45	104	0	76	26178
2026-01-17 09:27:13.48	243.93	8.68	-53.0	-57.6	3.7	0.00e+00	0	45	104	0	76	26142
2026-01-17 09:27:14.33	244.12	8.72	-53.0	-57.6	3.7	0.00e+00	0	46	104	0	76	26185
2026-01-17 09:27:15.46	244.37	8.77	-53.0	-57.6	3.7	0.00e+00	0	46	104	0	76	26152
2026-01-17 09:27:16.31	244.56	8.81	-53.0	-57.6	3.7	0.00e+00	0	45	104	0	76	26123
2026-01-17 09:27:17.45	244.81	8.86	-53.0	-57.6	3.7	0.00e+00	0	45	104	0	76	26155
2026-01-17 09:27:18.30	245.00	8.90	-53.0	-57.6	3.7	0.00e+00	0	46	104	0	76	26081
2026-01-17 09:27:19.44	245.26	8.95	-53.0	-57.6	3.6	0.00e+00	0	46	104	0	76	26118
2026-01-17 09:27:20.29	245.45	8.99	-53.0	-57.6	3.7	0.00e+00	0	45	104	0	76	26116
2026-01-17 09:27:21.42	245.70	9.04	-53.0	-57.6	3.7	0.00e+00	0	46	104	0	76	26154
2026-01-17 09:27:22.28	245.90	9.08	-52.8	-57.6	3.7	0.00e+00	0	46	104	0	76	26165
2026-01-17 09:27:23.41	246.16	9.14	-53.0	-57.7	3.7	0.00e+00	0	46	104	0	77	25064
2026-01-17 09:27:24.26	246.35	9.17	-52.5	-57.6	3.7	0.00e+00	0	46	104	0	77	24618
2026-01-17 09:27:25.48	246.63	9.23	-52.4	-57.7	3.7	0.00e+00	0	46	104	0	76	26487
2026-01-17 09:27:26.34	246.83	9.27	-52.6	-57.7	3.7	0.00e+00	0	46	104	0	76	26380
2026-01-17 09:27:27.47	247.09	9.32	-52.6	-57.9	3.7	0.00e+00	0	46	104	0	76	26952
2026-01-17 09:27:28.33	247.29	9.35	-52.6	-57.9	3.7	0.00e+00	0	46	104	0	76	27086
2026-01-17 09:27:29.46	247.55	9.40	-52.6	-57.8	3.7	0.00e+00	0	46	104	0	76	26786
2026-01-17 09:27:30.32	247.76	9.44	-52.6	-57.9	3.7	0.00e+00	0	46	104	0	76	26894
2026-01-17 09:27:31.46	248.02	9.49	-52.7	-57.7	3.7	0.00e+00	0	46	104	0	76	26459
2026-01-17 09:27:32.31	248.22	9.53	-53.0	-57.6	3.7	0.00e+00	0	46	104	0	76	26111
2026-01-17 09:27:33.45	248.49	9.58	-53.0	-57.6	3.7	0.00e+00	0	46	104	0	76	26095
2026-01-17 09:27:34.30	248.69	9.61	-52.9	-57.6	3.7	0.00e+00	0	46	104	0	76	26112
2026-01-17 09:27:35.44	248.97	9.66	-53.1	-57.7	3.7	0.00e+00	0	46	104	0	76	26294
2026-01-17 09:27:36.29	249.17	9.70	-53.0	-57.7	3.7	0.00e+00	0	46	104	0	76	26421
2026-01-17 09:27:37.43	249.44	9.74	-52.9	-57.7	3.7	0.00e+00	0	46	104	0	76	26525
2026-01-17 09:27:38.29	249.65	9.78	-53.0	-57.7	3.7	0.00e+00	0	46	104	0	76	26561
2026-01-17 09:27:39.42	249.92	9.83	-53.1	-57.8	3.7	0.00e+00	0	46	104	0	76	26663
2026-01-17 09:27:40.28	250.13	9.86	-53.2	-57.7	3.7	0.00e+00	0	46	104	0	76	26489
2026-01-17 09:27:41.41	250.40	9.91	-53.2	-57.8	3.7	0.00e+00	0	46	104	0	77	25161
2026-01-17 09:27:42.26	250.61	9.94	-53.2	-57.8	3.7	0.00e+00	0	46	104	0	77	25208
2026-01-17 09:27:43.47	250.91	9.99	-53.2	-57.8	3.7	0.00e+00	0	46	104	0	77	25158
2026-01-17 09:27:44.32	251.12	10.02	-53.1	-57.7	3.7	0.00e+00	0	46	104	0	77	25001
2026-01-17 09:27:45.53	251.41	10.07	-53.1	-57.8	3.7	0.00e+00	0	46	104	0	77	25220
2026-01-17 09:27:46.38	251.62	10.10	-53.1	-57.8	3.7	0.00e+00	0	46	104	0	77	25246
2026-01-17 09:27:47.52	251.91	10.15	-53.2	-57.8	3.7	0.00e+00	0	46	104	0	77	25314
2026-01-17 09:27:48.38	252.12	10.18	-53.3	-57.9	3.7	0.00e+00	0	46	104	0	77	25385
2026-01-17 09:27:49.51	252.40	10.22	-53.0	-57.6	3.7	0.00e+00	0	46	104	0	77	24616
2026-01-17 09:27:50.37	252.62	10.26	-53.1	-57.7	3.7	0.00e+00	0	46	104	0	77	24950
2026-01-17 09:27:51.50	252.90	10.30	-52.7	-57.4	3.7	0.00e+00	0	46	104	0	77	23981
2026-01-17 09:27:52.36	253.12	10.33	-52.8	-57.3	3.7	0.00e+00	0	46	104	0	77	23895
2026-01-17 09:27:53.49	253.40	10.37	-52.7	-57.1	3.7	0.00e+00	0	47	104	0	77	23336
2026-01-17 09:27:54.35	253.62	10.40	-52.7	-57.2	3.7	0.00e+00	0	46	104	0	77	23646
2026-01-17 09:27:55.48	253.91	10.44	-52.6	-56.9	3.7	0.00e+00	0	46	104	0	77	22734
2026-01-17 09:27:56.33	254.13	10.47	-52.7	-56.9	3.7	0.00e+00	0	46	104	0	77	22834
2026-01-17 09:27:57.47	254.42	10.51	-52.8	-57.1	3.7	0.00e+00	0	46	104	0	77	23244
2026-01-17 09:27:58.32	254.63	10.54	-52.6	-56.9	3.7	0.00e+00	0	46	104	0	77	22828
2026-01-17 09:27:59.46	254.93	10.58	-52.7	-57.3	3.7	0.00e+00	0	46	104	0	77	23790
2026-01-17 09:28:00.31	255.15	10.61	-52.5	-57.5	3.7	0.00e+00	0	46	104	0	77	24484
2026-01-17 09:28:01.45	255.44	10.65	-52.5	-57.6	3.7	0.00e+00	0	46	104	0	76	26065
2026-01-17 09:28:02.30	255.66	10.68	-52.5	-57.4	3.7	0.00e+00	0	47	104	0	76	25493
2026-01-17 09:28:03.52	255.98	10.72	-52.9	-57.8	3.7	0.00e+00	0	46	104	0	76	26769
2026-01-17 09:28:04.37	256.20	10.75	-53.1	-57.8	3.7	0.00e+00	0	46	104	0	76	26616
2026-01-17 09:28:05.59	256.52	10.79	-53.1	-57.8	3.7	0.00e+00	0	46	104	0	76	26595
2026-01-17 09:28:06.44	256.74	10.81	-53.1	-57.8	3.7	0.00e+00	0	46	104	0	76	26674
2026-01-17 09:28:07.64	257.06	10.85	-53.0	-57.5	3.7	0.00e+00	0	46	104	0	76	25735
2026-01-17 09:28:08.49	257.28	10.88	-52.9	-57.3	3.7	0.00e+00	0	46	104	0	76	25158
2026-01-17 09:28:09.69	257.60	10.91	-52.9	-57.3	3.7	0.00e+00	0	46	104	0	76	25149
2026-01-17 09:28:10.54	257.82	10.94	-52.8	-57.2	3.7	0.00e+00	0	47	104	0	76	25062
2026-01-17 09:28:11.68	258.12	10.97	-53.0	-57.4	3.7	0.00e+00	0	47	104	0	76	25484
2026-01-17 09:28:12.53	258.35	11.00	-53.1	-57.5	3.7	0.00e+00	0	47	104	0	76	25897
2026-01-17 09:28:13.67	258.65	11.03	-53.0	-57.5	3.7	0.00e+00	0	46	104	0	76	25707
2026-01-17 09:28:14.59	258.90	11.06	-53.0	-57.5	3.7	0.00e+00	0	47	104	0	76	25691
2026-01-17 09:28:15.76	259.21	11.09	-52.9	-57.4	3.7	0.00e+00	0	46	104	0	76	25607
2026-01-17 09:28:16.61	259.44	11.11	-52.5	-57.1	3.7	0.00e+00	0	47	104	0	76	24596
2026-01-17 09:28:17.75	259.75	11.14	-52.6	-57.1	3.7	0.00e+00	0	46	104	0	76	24748
2026-01-17 09:28:18.60	259.98	11.16	-52.5	-57.0	3.7	0.00e+00	0	47	104	0	76	24495
2026-01-17 09:28:20.07	260.37	11.20	-52.5	-57.3	3.7	0.00e+00	0	46	104	0	76	25135
2026-01-17 09:28:20.78	260.57	11.22	-52.7	-57.5	3.7	0.00e+00	0	47	104	0	76	25765
2026-01-17 09:28:22.06	260.91	11.25	-52.4	-57.2	3.7	0.00e+00	0	47	104	0	76	24962
2026-01-17 09:28:22.78	261.11	11.27	-52.8	-57.5	3.7	0.00e+00	0	47	104	0	76	25797
2026-01-17 09:28:24.06	261.46	11.30	-52.6	-57.3	3.7	0.00e+00	0	46	104	0	76	25260
2026-01-17 09:28:24.79	261.66	11.32	-53.0	-57.7	3.7	0.00e+00	0	47	104	0	76	26395
2026-01-17 09:28:26.07	262.01	11.35	-52.9	-57.6	3.7	0.00e+00	0	47	104	0	76	26230
2026-01-17 09:28:26.91	262.24	11.37	-53.1	-57.7	3.7	0.00e+00	0	47	104	0	76	26429
2026-01-17 09:28:28.04	262.55	11.39	-53.3	-57.9	3.7	0.00e+00	0	47	104	0	77	25414
2026-01-17 09:28:28.90	262.78	11.41	-53.1	-57.7	3.7	0.00e+00	0	47	104	0	77	24813
2026-01-17 09:28:30.03	263.10	11.43	-53.3	-57.7	3.7	0.00e+00	0	47	104	0	77	25067
2026-01-17 09:28:30.89	263.33	11.45	-52.7	-57.6	3.7	0.00e+00	0	47	104	0	77	24723
2026-01-17 09:28:32.02	263.65	11.47	-52.6	-57.4	3.7	0.00e+00	0	47	104	0	77	24170
2026-01-17 09:28:32.88	263.88	11.49	-52.6	-57.7	3.7	0.00e+00	0	46	104	0	76	26285
2026-01-17 09:28:34.03	264.20	11.51	-52.2	-57.5	3.7	0.00e+00	0	47	104	0	76	25738
2026-01-17 09:28:34.88	264.44	11.53	-52.8	-57.8	3.6	0.00e+00	0	47	104	0	76	26644
2026-01-17 09:28:36.02	264.76	11.55	-53.2	-57.8	3.7	0.00e+00	0	47	104	0	76	26657
2026-01-17 09:28:36.87	264.99	11.57	-53.4	-57.9	3.7	0.00e+00	0	47	104	0	77	25407
2026-01-17 09:28:38.12	265.34	11.59	-53.3	-57.9	3.7	0.00e+00	0	47	104	0	77	25471
2026-01-17 09:28:38.97	265.58	11.60	-53.2	-57.8	3.7	0.00e+00	0	47	104	0	77	25111
2026-01-17 09:28:40.11	265.90	11.62	-53.3	-57.8	3.7	0.00e+00	0	47	104	0	77	25192
2026-01-17 09:28:40.96	266.13	11.63	-52.9	-57.5	3.7	0.00e+00	0	47	104	0	77	24392
2026-01-17 09:28:42.10	266.45	11.65	-53.1	-57.7	3.7	0.00e+00	0	47	104	0	77	24837
2026-01-17 09:28:42.96	266.70	11.66	-52.8	-57.5	3.7	0.00e+00	0	47	104	0	77	24261
2026-01-17 09:28:44.09	267.01	11.68	-53.1	-57.6	3.7	0.00e+00	0	47	104	0	77	24778
2026-01-17 09:28:44.95	267.26	11.69	-53.1	-57.2	3.7	0.00e+00	0	47	104	0	77	23634
2026-01-17 09:28:46.08	267.57	11.70	-53.0	-57.4	3.7	0.00e+00	0	47	104	0	77	24188
2026-01-17 09:28:46.94	267.82	11.71	-53.0	-57.3	3.7	0.00e+00	0	47	104	0	77	23898
2026-01-17 09:28:48.08	268.14	11.73	-52.9	-57.1	3.7	0.00e+00	0	47	104	0	77	23374
2026-01-17 09:28:48.93	268.38	11.74	-52.4	-56.9	3.7	0.00e+00	0	47	104	0	76	24176
2026-01-17 09:28:50.06	268.70	11.75	-52.6	-57.0	3.7	0.00e+00	0	47	104	0	76	24306
2026-01-17 09:28:50.92	268.94	11.76	-52.6	-57.2	3.7	0.00e+00	0	47	104	0	76	24989
2026-01-17 09:28:52.05	269.26	11.77	-52.4	-57.1	3.7	0.00e+00	0	47	104	0	76	24769
2026-01-17 09:28:52.91	269.50	11.78	-52.6	-57.3	3.7	0.00e+00	0	47	104	0	76	25250
2026-01-17 09:28:54.08	269.83	11.79	-52.6	-57.2	3.7	0.00e+00	0	47	104	0	76	25052
2026-01-17 09:28:54.93	270.08	11.79	-52.7	-57.2	3.7	0.00e+00	0	47	104	0	76	24979
2026-01-17 09:28:56.07	270.40	11.80	-52.9	-57.6	3.7	0.00e+00	0	47	104	0	76	25983
2026-01-17 09:28:56.92	270.64	11.81	-53.0	-57.5	3.7	0.00e+00	0	47	104	0	76	25973
2026-01-17 09:28:58.05	270.96	11.82	-52.9	-57.5	3.7	0.00e+00	0	47	104	0	76	25698
2026-01-17 09:28:58.91	271.21	11.82	-52.9	-57.3	3.7	0.00e+00	0	47	104	0	76	25279
2026-01-17 09:29:00.04	271.53	11.83	-53.0	-57.5	3.7	0.00e+00	0	47	104	0	76	25848
2026-01-17 09:29:00.89	271.77	11.83	-52.8	-57.6	3.7	0.00e+00	0	47	104	0	76	25978
2026-01-17 09:29:02.03	272.09	11.84	-52.8	-57.4	3.7	0.00e+00	0	47	104	0	76	25438
2026-01-17 09:29:02.88	272.34	11.84	-52.6	-57.6	3.7	0.00e+00	0	47	104	0	76	26201
2026-01-17 09:29:04.02	272.66	11.84	-53.0	-57.6	3.7	0.00e+00	0	47	104	0	76	26242
2026-01-17 09:29:04.87	272.90	11.84	-52.8	-57.6	3.7	0.00e+00	0	47	104	0	76	26144
2026-01-17 09:29:06.01	273.23	11.85	-53.1	-57.7	3.7	0.00e+00	0	47	104	0	76	26571
2026-01-17 09:29:06.86	273.47	11.85	-52.7	-57.5	3.7	0.00e+00	0	47	104	0	76	25906
2026-01-17 09:29:08.03	273.80	11.85	-52.8	-57.4	3.7	0.00e+00	0	47	104	0	76	25540
2026-01-17 09:29:08.88	274.04	11.85	-52.8	-57.1	3.7	0.00e+00	0	47	104	0	76	24586
2026-01-17 09:29:10.08	274.39	11.85	-52.9	-57.3	3.7	0.00e+00	0	47	104	0	76	25220
2026-01-17 09:29:10.93	274.63	11.85	-52.8	-57.0	3.7	0.00e+00	0	47	104	0	76	24364
2026-01-17 09:29:12.14	274.97	11.85	-52.9	-57.2	3.7	0.00e+00	0	47	104	0	76	24934
2026-01-17 09:29:12.99	275.21	11.85	-53.0	-57.6	3.7	0.00e+00	0	47	104	0	76	26240
2026-01-17 09:29:14.13	275.54	11.84	-52.9	-57.3	3.7	0.00e+00	0	47	104	0	76	25191
2026-01-17 09:29:14.98	275.78	11.84	-53.0	-57.7	3.7	0.00e+00	0	47	104	0	76	26310
2026-01-17 09:29:16.11	276.10	11.84	-53.0	-57.8	3.7	0.00e+00	0	47	104	0	76	26665
2026-01-17 09:29:17.01	276.36	11.83	-53.0	-57.2	3.7	0.00e+00	0	47	104	0	76	24944
2026-01-17 09:29:18.05	276.65	11.83	-53.0	-57.5	3.7	0.00e+00	0	47	104	0	76	25801
2026-01-17 09:29:19.05	276.94	11.82	-52.9	-57.1	3.7	0.00e+00	0	47	104	0	76	24571
2026-01-17 09:29:20.05	277.22	11.82	-53.1	-57.5	3.7	0.00e+00	0	47	104	0	76	25869
2026-01-17 09:29:21.04	277.50	11.81	-52.8	-57.5	3.7	0.00e+00	0	47	104	0	76	25954
2026-01-17 09:29:22.03	277.78	11.80	-52.9	-57.5	3.7	0.00e+00	0	47	104	0	76	25944
2026-01-17 09:29:23.03	278.07	11.80	-52.8	-57.4	3.7	0.00e+00	0	47	104	0	76	25534
2026-01-17 09:29:24.03	278.35	11.79	-52.7	-57.3	3.7	0.00e+00	0	47	104	0	76	25111
2026-01-17 09:29:25.02	278.63	11.78	-53.1	-57.5	3.7	0.00e+00	0	47	104	0	76	25777
2026-01-17 09:29:26.01	278.91	11.77	-52.7	-57.0	3.7	0.00e+00	0	47	104	0	76	24485
2026-01-17 09:29:27.01	279.19	11.76	-53.4	-57.8	3.7	0.00e+00	0	47	104	0	77	25307
2026-01-17 09:29:28.00	279.47	11.75	-53.2	-57.7	3.7	0.00e+00	0	47	104	0	77	25034
2026-01-17 09:29:29.00	279.76	11.74	-53.0	-57.6	3.7	0.00e+00	0	47	104	0	77	24804
2026-01-17 09:29:29.99	280.04	11.73	-53.3	-57.8	3.7	0.00e+00	0	47	104	0	77	25318
2026-01-17 09:29:30.98	280.31	11.72	-52.9	-57.6	3.7	0.00e+00	0	47	104	0	77	24554
2026-01-17 09:29:31.98	280.60	11.71	-52.6	-57.2	3.7	0.00e+00	0	47	104	0	77	23568
2026-01-17 09:29:32.97	280.87	11.69	-53.2	-57.6	3.7	0.00e+00	0	47	104	0	77	24677
2026-01-17 09:29:33.97	281.15	11.68	-52.7	-57.2	3.7	0.00e+00	0	47	104	0	77	23613
2026-01-17 09:29:34.96	281.43	11.67	-53.2	-57.6	3.7	0.00e+00	0	47	104	0	77	24750
2026-01-17 09:29:35.96	281.71	11.65	-53.1	-57.5	3.7	0.00e+00	0	47	104	0	77	24278
2026-01-17 09:29:36.95	281.99	11.64	-53.1	-57.4	3.7	0.00e+00	0	47	104	0	77	24205
2026-01-17 09:29:37.95	282.27	11.62	-53.2	-57.7	3.7	0.00e+00	0	47	104	0	77	24908
2026-01-17 09:29:38.94	282.55	11.61	-53.3	-57.8	3.7	0.00e+00	0	47	104	0	77	25370
2026-01-17 09:29:39.94	282.82	11.59	-53.3	-57.8	3.7	0.00e+00	0	47	104	0	77	25217
2026-01-17 09:29:40.96	283.11	11.57	-53.1	-57.3	3.7	0.00e+00	0	47	104	0	77	23961
2026-01-17 09:29:41.97	283.39	11.56	-53.2	-57.6	3.7	0.00e+00	0	47	104	0	77	24672
2026-01-17 09:29:42.98	283.67	11.54	-53.3	-57.7	3.7	0.00e+00	0	47	104	0	77	24835
2026-01-17 09:29:43.98	283.95	11.52	-53.1	-57.5	3.7	0.00e+00	0	47	104	0	77	24266
2026-01-17 09:29:44.97	284.22	11.50	-53.0	-57.2	3.7	0.00e+00	0	47	104	0	77	23611
2026-01-17 09:29:45.97	284.50	11.48	-53.0	-57.2	3.7	0.00e+00	0	47	104	0	77	23523
2026-01-17 09:29:46.96	284.77	11.46	-52.8	-57.0	3.7	0.00e+00	0	47	104	0	77	22962
2026-01-17 09:29:47.96	285.04	11.44	-53.2	-57.6	3.7	0.00e+00	0	47	104	0	77	24638
2026-01-17 09:29:48.95	285.32	11.42	-53.1	-57.7	3.7	0.00e+00	0	47	104	0	77	24922
2026-01-17 09:29:49.94	285.59	11.40	-53.3	-57.8	3.7	0.00e+00	0	47	104	0	77	25164
2026-01-17 09:29:50.94	285.86	11.38	-53.4	-58.0	3.7	0.00e+00	0	47	104	0	77	25690
2026-01-17 09:29:51.93	286.13	11.36	-53.2	-57.6	3.7	0.00e+00	0	47	104	0	77	24783
2026-01-17 09:29:52.93	286.41	11.33	-52.9	-57.4	3.7	0.00e+00	0	47	104	0	77	24000
2026-01-17 09:29:53.92	286.67	11.31	-52.6	-57.3	3.7	0.00e+00	0	47	104	0	77	23699
2026-01-17 09:29:54.91	286.94	11.29	-52.6	-57.0	3.7	0.00e+00	0	47	104	0	77	23125
2026-01-17 09:29:55.91	287.22	11.26	-52.6	-56.9	3.7	0.00e+00	0	47	104	0	77	22806
2026-01-17 09:29:56.90	287.48	11.24	-52.7	-56.9	3.7	0.00e+00	0	47	104	0	77	22835
2026-01-17 09:29:57.90	287.75	11.21	-53.1	-57.4	3.7	0.00e+00	0	47	104	0	77	23996
2026-01-17 09:29:58.96	288.04	11.19	-53.2	-57.4	3.7	0.00e+00	0	47	104	0	77	24228
2026-01-17 09:29:59.84	288.28	11.16	-53.1	-57.3	3.7	0.00e+00	0	48	104	0	77	23747
2026-01-17 09:30:00.98	288.58	11.13	-53.1	-57.4	3.7	0.00e+00	0	48	104	0	77	23983
2026-01-17 09:30:01.83	288.81	11.11	-53.3	-57.5	3.7	0.00e+00	0	47	104	0	77	24441
2026-01-17 09:30:02.97	289.11	11.08	-51.7	-55.0	3.7	0.00e+00	0	47	104	0	75	20613
2026-01-17 09:30:03.82	289.34	11.06	-52.7	-56.6	3.7	0.00e+00	0	47	104	0	76	23249
2026-01-17 09:30:04.96	289.64	11.02	-51.2	-54.2	3.7	0.00e+00	0	47	104	0	74	19830
2026-01-17 09:30:05.81	289.87	11.00	-51.5	-54.5	3.7	0.00e+00	0	47	104	0	74	20539
2026-01-17 09:30:06.95	290.17	10.97	-52.0	-55.4	3.7	0.00e+00	0	47	104	0	74	22734
2026-01-17 09:30:07.80	290.40	10.94	-52.4	-56.0	3.7	0.00e+00	0	47	104	0	75	22957
2026-01-17 09:30:08.93	290.69	10.91	-52.8	-56.9	3.7	0.00e+00	0	47	104	0	76	24240
2026-01-17 09:30:09.79	290.92	10.88	-53.0	-57.4	3.7	0.00e+00	0	47	104	0	76	25426
2026-01-17 09:30:10.92	291.21	10.85	-52.7	-56.8	3.7	0.00e+00	0	48	104	0	76	23807
2026-01-17 09:30:11.79	291.44	10.82	-52.6	-56.8	3.7	0.00e+00	0	47	104	0	76	23710
2026-01-17 09:30:13.08	291.78	10.78	-53.0	-57.3	3.7	0.00e+00	0	47	104	0	76	25193
2026-01-17 09:30:13.79	291.96	10.76	-52.7	-56.8	3.7	0.00e+00	0	47	104	0	76	23846
2026-01-17 09:30:15.25	292.34	10.71	-52.6	-56.5	3.7	0.00e+00	0	47	104	0	76	23150
2026-01-17 09:30:15.96	292.52	10.68	-52.7	-56.6	3.7	0.00e+00	0	47	104	0	76	23161
2026-01-17 09:30:17.27	292.86	10.64	-52.7	-56.7	3.7	0.00e+00	0	47	104	0	76	23652
2026-01-17 09:30:17.98	293.04	10.62	-52.8	-56.8	3.7	0.00e+00	0	47	104	0	76	23951
2026-01-17 09:30:19.26	293.37	10.57	-53.0	-57.1	3.7	0.00e+00	0	47	104	0	76	24650
2026-01-17 09:30:19.99	293.56	10.55	-53.0	-56.9	3.7	0.00e+00	0	47	104	0	76	24168
2026-01-17 09:30:21.27	293.89	10.50	-53.3	-57.5	3.7	0.00e+00	0	47	104	0	77	24360
2026-01-17 09:30:22.01	294.07	10.48	-53.2	-57.3	3.7	0.00e+00	0	47	104	0	77	23795
2026-01-17 09:30:23.29	294.40	10.43	-53.3	-57.7	3.7	0.00e+00	0	47	104	0	77	24897
2026-01-17 09:30:24.00	294.58	10.41	-53.2	-57.4	3.7	0.00e+00	0	47	104	0	77	24055
2026-01-17 09:30:25.28	294.90	10.36	-53.0	-57.4	3.7	0.00e+00	0	47	104	0	77	24224
2026-01-17 09:30:25.99	295.08	10.34	-53.1	-57.4	3.7	0.00e+00	0	47	104	0	77	24099
2026-01-17 09:30:27.27	295.40	10.29	-52.9	-57.5	3.7	0.00e+00	0	47	104	0	77	24435
2026-01-17 09:30:28.01	295.58	10.26	-52.9	-57.5	3.7	0.00e+00	0	47	104	0	77	24450
2026-01-17 09:30:29.29	295.90	10.21	-52.8	-57.1	3.7	0.00e+00	0	47	104	0	77	23159
2026-01-17 09:30:30.01	296.08	10.19	-52.7	-57.2	3.7	0.00e+00	0	47	104	0	77	23456
2026-01-17 09:30:31.29	296.40	10.14	-52.9	-57.2	3.7	0.00e+00	0	48	104	0	77	23434
2026-01-17 09:30:32.02	296.58	10.11	-53.0	-57.3	3.7	0.00e+00	0	47	104	0	77	23759
2026-01-17 09:30:33.30	296.89	10.06	-53.1	-57.6	3.7	0.00e+00	0	48	104	0	77	24656
2026-01-17 09:30:34.02	297.07	10.03	-53.1	-57.5	3.7	0.00e+00	0	47	104	0	77	24502
2026-01-17 09:30:35.30	297.38	9.98	-53.0	-57.4	3.7	0.00e+00	0	47	104	0	77	24080
2026-01-17 09:30:36.03	297.56	9.95	-52.8	-57.2	3.7	0.00e+00	0	47	104	0	77	23430
2026-01-17 09:30:37.31	297.87	9.90	-52.5	-56.8	3.7	0.00e+00	0	47	104	0	76	23907
2026-01-17 09:30:38.03	298.04	9.87	-52.6	-57.0	3.6	0.00e+00	0	48	104	0	76	24520
2026-01-17 09:30:39.31	298.35	9.82	-52.8	-57.0	3.7	0.00e+00	0	47	104	0	76	24512
2026-01-17 09:30:40.02	298.52	9.79	-53.1	-57.4	3.7	0.00e+00	0	47	104	0	76	25463
2026-01-17 09:30:41.30	298.82	9.74	-52.8	-57.2	3.7	0.00e+00	0	48	104	0	76	24995
2026-01-17 09:30:42.01	298.99	9.71	-53.0	-57.4	3.7	0.00e+00	0	47	104	0	76	25602
2026-01-17 09:30:43.29	299.30	9.66	-53.0	-57.1	3.7	0.00e+00	0	48	104	0	76	24794
2026-01-17 09:30:44.00	299.46	9.63	-53.0	-57.3	3.7	0.00e+00	0	47	104	0	76	25104
2026-01-17 09:30:45.28	299.77	9.57	-52.9	-57.1	3.7	0.00e+00	0	48	104	0	76	24722
2026-01-17 09:30:46.01	299.94	9.54	-52.9	-57.2	3.7	0.00e+00	0	47	104	0	76	24869
2026-01-17 09:30:47.29	300.24	9.49	-53.1	-57.5	3.7	0.00e+00	0	47	104	0	76	25787
2026-01-17 09:30:48.01	300.41	9.45	-53.0	-57.3	3.7	0.00e+00	0	48	104	0	76	25304
2026-01-17 09:30:49.29	300.70	9.40	-53.1	-57.6	3.7	0.00e+00	0	48	104	0	76	26025
2026-01-17 09:30:50.00	300.87	9.37	-52.8	-57.0	3.7	0.00e+00	0	48	104	0	76	24406
2026-01-17 09:30:51.28	301.16	9.31	-52.9	-57.4	3.7	0.00e+00	0	48	104	0	76	25461
2026-01-17 09:30:52.01	301.33	9.28	-52.9	-56.9	3.7	0.00e+00	0	47	104	0	76	24238
2026-01-17 09:30:53.29	301.62	9.22	-52.9	-57.1	3.7	0.00e+00	0	47	104	0	76	24641
2026-01-17 09:30:54.00	301.78	9.19	-52.7	-57.0	3.7	0.00e+00	0	48	104	0	76	24299
2026-01-17 09:30:55.29	302.08	9.13	-52.8	-57.0	3.7	0.00e+00	0	48	104	0	76	24494
2026-01-17 09:30:56.00	302.24	9.10	-52.5	-57.2	3.7	0.00e+00	0	47	104	0	76	24810
2026-01-17 09:30:57.28	302.53	9.04	-52.8	-57.4	3.7	0.00e+00	0	48	104	0	76	25468
2026-01-17 09:30:58.01	302.69	9.01	-52.4	-56.5	3.7	0.00e+00	0	48	104	0	76	23049
2026-01-17 09:30:59.29	302.98	8.95	-53.1	-57.4	3.7	0.00e+00	0	47	104	0	76	25673
2026-01-17 09:31:00.00	303.14	8.92	-53.3	-57.8	3.7	0.00e+00	0	48	104	0	77	25187
2026-01-17 09:31:01.27	303.42	8.86	-53.0	-57.4	3.7	0.00e+00	0	48	104	0	77	24232
2026-01-17 09:31:01.98	303.57	8.83	-53.5	-57.7	3.7	0.00e+00	0	48	104	0	77	24987
2026-01-17 09:31:03.26	303.86	8.77	-52.8	-57.2	3.7	0.00e+00	0	48	104	0	77	23625
2026-01-17 09:31:03.97	304.01	8.74	-53.7	-58.4	3.7	0.00e+00	0	48	104	0	78	25506
2026-01-17 09:31:05.25	304.29	8.68	-54.0	-58.6	3.7	0.00e+00	0	48	104	0	78	26068
2026-01-17 09:31:06.02	304.46	8.64	-54.1	-58.6	3.7	0.00e+00	0	47	104	0	78	26048
2026-01-17 09:31:07.29	304.74	8.58	-53.9	-58.4	3.7	0.00e+00	0	47	104	0	78	25459
2026-01-17 09:31:08.05	304.90	8.54	-53.7	-58.3	3.7	0.00e+00	0	48	104	0	79	23807
2026-01-17 09:31:09.33	305.18	8.48	-53.9	-58.3	3.7	0.00e+00	0	48	104	0	79	23950
2026-01-17 09:31:10.10	305.34	8.45	-53.5	-58.1	3.7	0.00e+00	0	48	104	0	79	23241
2026-01-17 09:31:11.38	305.61	8.39	-54.2	-58.7	3.7	0.00e+00	0	48	104	0	79	24855
2026-01-17 09:31:12.16	305.78	8.35	-53.8	-58.4	3.7	0.00e+00	0	48	104	0	79	24132
2026-01-17 09:31:13.69	306.10	8.27	-54.0	-58.6	3.7	0.00e+00	0	48	104	0	79	24624
2026-01-17 09:31:14.40	306.25	8.24	-53.9	-58.3	3.7	0.00e+00	0	48	104	0	79	23927
2026-01-17 09:31:15.81	306.55	8.17	-53.3	-57.5	3.7	0.00e+00	0	48	104	0	78	23036
2026-01-17 09:31:16.52	306.70	8.14	-53.5	-57.9	3.7	0.00e+00	0	47	104	0	78	24062
2026-01-17 09:31:17.86	306.97	8.07	-53.0	-57.5	3.7	0.00e+00	0	48	104	0	78	23106
2026-01-17 09:31:18.57	307.12	8.04	-53.4	-58.3	3.7	0.00e+00	0	48	104	0	78	25139
2026-01-17 09:31:19.84	307.38	7.97	-53.2	-57.8	3.7	0.00e+00	0	48	104	0	78	23926
2026-01-17 09:31:20.55	307.53	7.94	-53.1	-57.6	3.7	0.00e+00	0	48	104	0	78	23157
2026-01-17 09:31:21.83	307.79	7.88	-53.1	-57.6	3.7	0.00e+00	0	48	104	0	78	23183
2026-01-17 09:31:22.54	307.93	7.84	-53.1	-57.5	3.7	0.00e+00	0	47	104	0	78	23133
2026-01-17 09:31:23.82	308.19	7.78	-53.1	-57.5	3.7	0.00e+00	0	48	104	0	78	23059
2026-01-17 09:31:24.53	308.34	7.74	-53.1	-57.5	3.7	0.00e+00	0	47	104	0	78	23117
2026-01-17 09:31:25.82	308.60	7.68	-53.1	-57.5	3.7	0.00e+00	0	47	104	0	78	23126
2026-01-17 09:31:26.53	308.74	7.64	-53.1	-57.5	3.7	0.00e+00	0	48	104	0	78	23097
2026-01-17 09:31:27.81	308.99	7.58	-53.1	-57.5	3.7	0.00e+00	0	48	104	0	78	23132
2026-01-17 09:31:28.53	309.14	7.54	-53.1	-57.5	3.7	0.00e+00	0	48	104	0	78	23119
2026-01-17 09:31:29.81	309.39	7.48	-53.1	-57.5	3.7	0.00e+00	0	48	104	0	78	23118
2026-01-17 09:31:30.53	309.53	7.44	-53.1	-57.6	3.7	0.00e+00	0	48	104	0	78	23153
2026-01-17 09:31:31.81	309.78	7.37	-53.1	-57.5	3.7	0.00e+00	0	47	104	0	78	23067
2026-01-17 09:31:32.53	309.92	7.34	-53.1	-57.5	3.7	0.00e+00	0	48	104	0	78	23125
2026-01-17 09:31:33.81	310.17	7.27	-53.1	-57.5	3.7	0.00e+00	0	48	104	0	78	23139
2026-01-17 09:31:34.54	310.31	7.24	-53.1	-57.5	3.7	0.00e+00	0	48	104	0	78	23098
2026-01-17 09:31:35.81	310.56	7.17	-53.1	-57.5	3.7	0.00e+00	0	47	104	0	78	23061
2026-01-17 09:31:36.52	310.69	7.13	-53.1	-57.5	3.7	0.00e+00	0	47	104	0	78	23128
2026-01-17 09:31:37.80	310.94	7.07	-53.1	-57.5	3.7	0.00e+00	0	48	104	0	78	23106
2026-01-17 09:31:38.51	311.07	7.03	-53.1	-57.5	3.7	0.00e+00	0	48	104	0	78	23080
2026-01-17 09:31:39.79	311.31	6.97	-53.1	-57.5	3.7	0.00e+00	0	48	104	0	78	23084
2026-01-17 09:31:40.51	311.45	6.93	-53.1	-57.5	3.7	0.00e+00	0	48	104	0	78	23082
2026-01-17 09:31:41.79	311.69	6.86	-53.1	-57.5	3.7	0.00e+00	0	48	104	0	78	23066
2026-01-17 09:31:42.50	311.82	6.83	-53.1	-57.5	3.7	0.00e+00	0	48	104	0	78	23078
2026-01-17 09:31:43.78	312.06	6.76	-53.0	-57.5	3.7	0.00e+00	0	48	104	0	78	23026
2026-01-17 09:31:44.48	312.19	6.72	-53.0	-57.5	3.7	0.00e+00	0	48	104	0	78	23080
2026-01-17 09:31:45.76	312.42	6.66	-53.0	-57.5	3.7	0.00e+00	0	48	104	0	78	23075
2026-01-17 09:31:46.47	312.55	6.62	-53.1	-57.5	3.7	0.00e+00	0	48	104	0	78	22934
2026-01-17 09:31:47.75	312.79	6.56	-53.1	-57.5	3.7	0.00e+00	0	48	104	0	78	23048
2026-01-17 09:31:48.46	312.92	6.52	-53.0	-57.5	3.7	0.00e+00	0	48	104	0	78	23002
2026-01-17 09:31:49.75	313.15	6.45	-53.0	-57.5	3.7	0.00e+00	0	48	104	0	78	22939
2026-01-17 09:31:50.46	313.28	6.41	-53.0	-57.5	3.7	0.00e+00	0	48	104	0	78	22948
2026-01-17 09:31:51.74	313.51	6.35	-53.0	-57.5	3.7	0.00e+00	0	48	104	0	77	24379
2026-01-17 09:31:52.46	313.64	6.31	-53.0	-57.5	3.7	0.00e+00	0	48	104	0	77	24292
2026-01-17 09:31:53.74	313.86	6.24	-53.0	-57.5	3.7	0.00e+00	0	48	104	0	77	24354
2026-01-17 09:31:54.45	313.99	6.21	-53.0	-57.5	3.7	0.00e+00	0	48	104	0	77	24366
2026-01-17 09:31:55.73	314.22	6.14	-53.0	-57.5	3.7	0.00e+00	0	48	104	0	77	24395
2026-01-17 09:31:56.45	314.34	6.10	-53.0	-57.5	3.7	0.00e+00	0	48	104	0	77	24348
2026-01-17 09:31:57.73	314.57	6.03	-53.0	-57.5	3.7	0.00e+00	0	48	104	0	77	24364
2026-01-17 09:31:58.44	314.69	6.00	-53.0	-57.5	3.7	0.00e+00	0	48	104	0	77	24299
2026-01-17 09:31:59.72	314.91	5.93	-53.0	-57.5	3.7	0.00e+00	0	48	104	0	77	24310
2026-01-17 09:32:00.43	315.03	5.89	-53.0	-57.5	3.7	0.00e+00	0	48	104	0	77	24331
2026-01-17 09:32:01.70	315.25	5.82	-53.0	-57.5	3.7	0.00e+00	0	48	104	0	77	24378
2026-01-17 09:32:02.41	315.37	5.79	-53.0	-57.5	3.7	0.00e+00	0	48	104	0	77	24367
2026-01-17 09:32:03.69	315.59	5.72	-53.0	-57.5	3.7	0.00e+00	0	48	104	0	77	24332
2026-01-17 09:32:04.41	315.71	5.68	-53.0	-57.5	3.7	0.00e+00	0	48	104	0	77	24339
2026-01-17 09:32:05.69	315.93	5.61	-53.0	-57.5	3.7	0.00e+00	0	48	104	0	77	24367
2026-01-17 09:32:06.42	316.05	5.57	-53.0	-57.5	3.7	0.00e+00	0	48	104	0	77	24413
2026-01-17 09:32:07.70	316.26	5.51	-53.0	-57.5	3.7	0.00e+00	0	48	104	0	77	24408
2026-01-17 09:32:08.40	316.38	5.47	-53.0	-57.5	3.7	0.00e+00	0	48	104	0	77	24405
2026-01-17 09:32:09.70	316.60	5.40	-53.0	-57.5	3.7	0.00e+00	0	48	104	0	77	24366
2026-01-17 09:32:10.41	316.71	5.36	-53.0	-57.5	3.7	0.00e+00	0	48	104	0	77	24314
2026-01-17 09:32:11.68	316.92	5.30	-53.0	-57.5	3.7	0.00e+00	0	48	104	0	77	24273
2026-01-17 09:32:12.39	317.04	5.26	-53.0	-57.5	3.7	0.00e+00	0	48	104	0	77	24330
2026-01-17 09:32:13.67	317.25	5.19	-53.0	-57.5	3.7	0.00e+00	0	48	104	0	77	24392
2026-01-17 09:32:14.38	317.36	5.15	-53.0	-57.5	3.7	0.00e+00	0	48	104	0	77	24332
2026-01-17 09:32:15.66	317.57	5.09	-53.0	-57.5	3.7	0.00e+00	0	48	104	0	77	24349
2026-01-17 09:32:16.38	317.68	5.05	-53.0	-57.5	3.7	0.00e+00	0	48	104	0	77	24284
2026-01-17 09:32:17.66	317.89	4.98	-53.0	-57.5	3.7	0.00e+00	0	48	104	0	77	24383

#Closed at: 2026-01-17 09:32:18
#Recorded file [0 MB]: D:/Data/31040_260117_122602.dat