passes_logs/2026/01/17/T1/T1__20260117_084902_SUOMI_NPP_rec.log

#Pass ID: 20260117_084902_SUOMI NPP
#Satellite: SUOMI NPP
#Configuration: NPP
#almurnet v.1.7.20251203
#Start time: 2026-01-17 08:49:03

#Version: 2.0.20230620
#Station: T1
#Location: 37.570604 lon 55.790049 lat
#TLE: 1 37849U 11061A   26016.23176763  .00000061  00000+0  49926-4 0  9990
#TLE: 2 37849  98.7812 318.2698 0002434  61.5135 298.6286 14.19525545736883

#Time	Az	El	Level	Level2	SNR	BER	BlckErr	Temp	State	Recorded	gain1	gain2
2026-01-17 08:49:03.29	122.91	5.05	-49.4	-65.1	3.8	1.49e+00	0	37	0	0	70	21869
2026-01-17 08:49:04.28	122.85	5.12	-49.4	-65.1	3.8	1.49e+00	0	37	104	0	70	21910
2026-01-17 08:49:05.27	122.79	5.18	-49.8	-65.1	3.8	1.49e+00	0	37	104	0	70	21886
2026-01-17 08:49:06.27	122.73	5.25	-49.4	-65.1	3.8	1.49e+00	0	37	104	0	70	21799
2026-01-17 08:49:07.26	122.67	5.32	-49.4	-65.1	3.8	1.49e+00	0	37	104	0	70	21938
2026-01-17 08:49:08.25	122.61	5.38	-49.8	-65.1	3.8	1.49e+00	0	37	104	0	70	21905
2026-01-17 08:49:09.25	122.54	5.45	-49.4	-65.1	3.8	1.49e+00	0	38	104	0	70	21977
2026-01-17 08:49:10.24	122.48	5.52	-49.8	-65.1	3.8	1.49e+00	0	38	104	0	70	21920
2026-01-17 08:49:11.23	122.42	5.58	-49.4	-65.1	3.8	1.49e+00	0	38	104	0	70	21857
2026-01-17 08:49:12.23	122.36	5.65	-49.8	-65.0	3.8	1.49e+00	0	38	104	0	70	21732
2026-01-17 08:49:13.22	122.29	5.72	-49.8	-65.0	3.8	1.49e+00	0	38	104	0	70	21748
2026-01-17 08:49:14.21	122.23	5.78	-49.4	-65.0	3.8	1.49e+00	0	38	104	0	70	21688
2026-01-17 08:49:15.21	122.17	5.85	-49.8	-65.0	3.8	1.49e+00	0	38	104	0	70	21613
2026-01-17 08:49:16.20	122.10	5.92	-49.4	-65.1	3.8	1.49e+00	0	38	104	0	70	21783
2026-01-17 08:49:17.19	122.04	5.98	-49.4	-65.1	3.8	1.49e+00	0	38	104	0	70	21770
2026-01-17 08:49:18.19	121.97	6.05	-49.4	-65.1	3.8	1.49e+00	0	38	104	0	70	21820
2026-01-17 08:49:19.18	121.91	6.12	-49.4	-65.1	3.8	1.49e+00	0	38	104	0	70	21835
2026-01-17 08:49:20.18	121.84	6.19	-49.8	-65.1	3.8	1.49e+00	0	38	104	0	70	21990
2026-01-17 08:49:21.17	121.78	6.25	-49.4	-65.1	3.8	1.49e+00	0	38	104	0	70	21799
2026-01-17 08:49:22.16	121.71	6.32	-49.4	-65.1	3.8	1.49e+00	0	38	104	0	70	21936
2026-01-17 08:49:23.15	121.65	6.39	-49.8	-65.0	3.8	1.49e+00	0	38	104	0	70	21671
2026-01-17 08:49:24.15	121.58	6.46	-49.4	-65.0	3.8	1.49e+00	0	38	104	0	70	21594
2026-01-17 08:49:25.14	121.51	6.53	-49.8	-65.0	3.8	1.49e+00	0	38	104	0	70	21557
2026-01-17 08:49:26.13	121.45	6.60	-49.4	-64.9	3.8	1.49e+00	0	38	104	0	70	21458
2026-01-17 08:49:27.13	121.38	6.67	-49.7	-64.9	3.8	1.49e+00	0	38	104	0	70	21392
2026-01-17 08:49:28.12	121.31	6.73	-49.7	-64.9	3.8	1.49e+00	0	38	104	0	70	21463
2026-01-17 08:49:29.11	121.24	6.80	-49.4	-65.0	3.8	1.49e+00	0	38	104	0	70	21515
2026-01-17 08:49:30.11	121.17	6.87	-49.8	-64.9	3.8	1.49e+00	0	38	104	0	70	21482
2026-01-17 08:49:31.10	121.11	6.94	-49.4	-65.0	3.8	1.49e+00	0	38	104	0	70	21660
2026-01-17 08:49:32.09	121.04	7.01	-49.4	-65.0	3.8	1.49e+00	0	38	104	0	70	21716
2026-01-17 08:49:33.09	120.97	7.08	-49.4	-65.0	3.8	1.49e+00	0	38	104	0	70	21679
2026-01-17 08:49:34.08	120.90	7.15	-49.4	-65.0	3.8	1.49e+00	0	38	104	0	70	21612
2026-01-17 08:49:35.07	120.83	7.22	-49.8	-64.8	3.8	1.49e+00	0	38	104	0	70	21256
2026-01-17 08:49:36.07	120.76	7.29	-49.3	-64.6	3.8	1.49e+00	0	38	104	0	70	20656
2026-01-17 08:49:37.06	120.69	7.36	-49.3	-64.3	3.8	1.49e+00	0	38	104	0	70	19913
2026-01-17 08:49:38.05	120.62	7.43	-49.7	-63.9	3.8	1.49e+00	0	38	104	0	70	19167
2026-01-17 08:49:39.05	120.54	7.50	-49.3	-63.9	3.8	1.49e+00	0	38	104	0	70	19027
2026-01-17 08:49:40.04	120.47	7.57	-49.7	-63.9	3.8	1.49e+00	0	38	104	0	70	19114
2026-01-17 08:49:41.03	120.40	7.64	-49.3	-64.0	3.8	1.49e+00	0	39	104	0	70	19252
2026-01-17 08:49:42.03	120.33	7.72	-49.7	-63.6	3.8	1.49e+00	0	38	104	0	70	18366
2026-01-17 08:49:43.02	120.25	7.79	-49.3	-62.9	3.8	1.49e+00	0	39	104	0	70	16996
2026-01-17 08:49:44.01	120.18	7.86	-49.1	-61.4	4.2	1.45e+00	0	39	0	0	70	14240
2026-01-17 08:49:45.01	120.11	7.93	-48.9	-59.1	5.2	8.46e-01	0	39	0	1048576	69	11676
2026-01-17 08:49:46.00	120.03	8.00	-48.8	-56.7	7.0	3.70e-01	0	39	0	3145728	69	8778
2026-01-17 08:49:46.99	119.96	8.07	-47.8	-53.7	9.8	2.36e-02	0	39	0	5242880	67	7033
2026-01-17 08:49:47.99	119.88	8.14	-46.9	-51.4	12.2	9.18e-04	0	39	0	6291456	65	6034
2026-01-17 08:49:48.98	119.81	8.22	-46.2	-50.1	13.6	1.83e-05	0	39	0	8388608	63	5834
2026-01-17 08:49:49.97	119.73	8.29	-45.2	-48.7	15.0	2.20e-06	0	39	0	10485760	62	5243
2026-01-17 08:49:50.97	119.66	8.36	-45.0	-48.1	15.6	0.00e+00	0	39	0	12582912	61	5201
2026-01-17 08:49:51.96	119.58	8.43	-45.0	-48.4	15.3	0.00e+00	0	39	0	13631488	61	5368
2026-01-17 08:49:52.95	119.50	8.51	-45.3	-48.7	15.0	0.00e+00	0	39	0	15728640	61	5555
2026-01-17 08:49:53.95	119.43	8.58	-45.9	-49.6	14.1	1.50e-06	0	39	0	17825792	62	5848
2026-01-17 08:49:54.94	119.35	8.65	-46.2	-50.6	13.2	1.14e-05	0	39	0	19922944	63	6147
2026-01-17 08:49:55.94	119.27	8.73	-46.6	-51.4	12.2	6.86e-05	0	39	0	22020096	64	6407
2026-01-17 08:49:56.93	119.19	8.80	-47.3	-52.5	11.2	3.58e-04	0	39	0	23068672	65	6827
2026-01-17 08:49:57.92	119.11	8.87	-47.5	-52.8	10.8	1.76e-03	0	39	0	25165824	65	7070
2026-01-17 08:49:58.92	119.03	8.95	-48.0	-54.2	9.4	8.58e-03	0	39	0	27262976	66	7867
2026-01-17 08:49:59.91	118.95	9.02	-48.1	-55.6	7.9	3.82e-02	0	39	0	29360128	67	8711
2026-01-17 08:50:00.90	118.87	9.10	-46.1	-49.9	13.8	4.42e-02	0	39	0	30408704	64	5371
2026-01-17 08:50:01.90	118.79	9.17	-48.1	-54.2	9.5	1.81e-03	0	39	0	32505856	66	7850
2026-01-17 08:50:02.90	118.71	9.24	-49.3	-60.4	4.6	1.11e-01	0	39	0	34603008	69	13499
2026-01-17 08:50:03.89	118.63	9.32	-46.1	-49.8	13.8	2.86e-01	0	39	0	36700160	64	5340
2026-01-17 08:50:04.89	118.55	9.39	-49.5	-61.3	4.3	4.65e-04	0	39	0	37748736	69	15004
2026-01-17 08:50:05.88	118.47	9.47	-47.7	-53.3	10.2	3.74e-01	0	39	0	37748736	67	6678
2026-01-17 08:50:06.88	118.38	9.54	-47.7	-53.3	10.3	4.94e-03	0	39	0	39845888	67	6656
2026-01-17 08:50:07.87	118.30	9.62	-47.5	-52.9	10.7	2.57e-03	0	39	0	41943040	67	6388
2026-01-17 08:50:08.87	118.22	9.70	-47.6	-53.0	10.6	3.02e-03	0	39	0	42991616	67	6478
2026-01-17 08:50:09.86	118.13	9.77	-47.0	-51.6	12.1	6.42e-04	0	39	0	45088768	66	5833
2026-01-17 08:50:10.86	118.05	9.85	-46.3	-50.4	13.4	1.03e-04	0	39	0	47185920	64	5676
2026-01-17 08:50:11.85	117.96	9.92	-45.8	-49.4	14.4	2.20e-06	0	39	0	49283072	63	5373
2026-01-17 08:50:12.84	117.88	10.00	-45.9	-49.5	14.4	7.00e-07	0	39	0	51380224	63	5415
2026-01-17 08:50:13.84	117.79	10.08	-45.7	-49.3	14.5	3.00e-06	0	39	0	52428800	63	5318
2026-01-17 08:50:14.83	117.71	10.15	-45.8	-49.4	14.4	0.00e+00	0	39	0	54525952	63	5383
2026-01-17 08:50:15.83	117.62	10.23	-45.7	-49.4	14.4	0.00e+00	0	39	0	56623104	63	5362
2026-01-17 08:50:17.19	117.50	10.33	-45.1	-48.3	15.6	0.00e+00	0	39	0	58720256	62	5001
2026-01-17 08:50:17.90	117.44	10.39	-44.7	-47.8	16.1	0.00e+00	0	39	0	60817408	61	4987
2026-01-17 08:50:19.18	117.32	10.49	-44.6	-47.6	16.2	0.00e+00	0	39	0	62914560	61	4888
2026-01-17 08:50:19.89	117.26	10.54	-44.4	-47.4	16.5	0.00e+00	0	39	0	63963136	60	5044
2026-01-17 08:50:21.17	117.14	10.64	-44.8	-48.0	15.8	0.00e+00	0	39	0	66060288	60	5433
2026-01-17 08:50:21.91	117.08	10.70	-44.9	-48.0	15.9	0.00e+00	0	39	0	68157440	60	5403
2026-01-17 08:50:23.19	116.96	10.80	-45.2	-48.4	15.5	0.00e+00	0	39	0	70254592	60	5675
2026-01-17 08:50:23.90	116.90	10.86	-45.2	-48.4	15.5	0.00e+00	0	39	0	71303168	61	5352
2026-01-17 08:50:25.18	116.78	10.96	-45.0	-48.1	15.8	0.00e+00	0	39	0	74448896	61	5207
2026-01-17 08:50:25.89	116.71	11.02	-44.9	-48.1	15.9	0.00e+00	0	39	0	75497472	61	5164
2026-01-17 08:50:27.17	116.59	11.12	-44.8	-47.8	16.1	0.00e+00	0	39	0	77594624	61	4997
2026-01-17 08:50:27.88	116.53	11.17	-44.7	-47.7	16.2	0.00e+00	0	39	0	78643200	61	4962
2026-01-17 08:50:29.16	116.41	11.28	-44.5	-47.4	16.5	0.00e+00	0	39	0	81788928	61	4774
2026-01-17 08:50:29.89	116.34	11.33	-44.5	-47.3	16.6	0.00e+00	0	39	0	82837504	60	4994
2026-01-17 08:50:31.17	116.22	11.44	-44.9	-47.9	16.0	0.00e+00	0	39	0	84934656	60	5383
2026-01-17 08:50:31.88	116.15	11.49	-44.9	-48.0	16.0	0.00e+00	0	39	0	87031808	60	5424
2026-01-17 08:50:33.46	116.00	11.62	-45.0	-48.0	15.9	0.00e+00	0	39	0	89128960	61	5149
2026-01-17 08:50:34.10	115.94	11.67	-45.0	-48.2	15.7	0.00e+00	0	39	0	91226112	61	5219
2026-01-17 08:50:35.53	115.80	11.79	-44.7	-47.7	16.3	0.00e+00	0	39	0	93323264	61	4927
2026-01-17 08:50:36.24	115.73	11.84	-44.5	-47.3	16.6	0.00e+00	0	39	0	94371840	60	5037
2026-01-17 08:50:37.52	115.60	11.95	-44.5	-47.3	16.6	0.00e+00	0	39	0	97517568	60	5010
2026-01-17 08:50:38.23	115.53	12.01	-44.5	-47.4	16.5	0.00e+00	0	39	0	98566144	60	5076
2026-01-17 08:50:39.51	115.40	12.11	-44.7	-47.7	16.3	0.00e+00	0	39	0	100663296	60	5240
2026-01-17 08:50:40.24	115.33	12.17	-44.9	-47.9	16.0	0.00e+00	0	39	0	101711872	60	5373
2026-01-17 08:50:41.64	115.19	12.28	-45.0	-48.1	15.8	0.00e+00	0	39	0	104857600	60	5511
2026-01-17 08:50:42.35	115.12	12.34	-44.9	-47.9	16.0	0.00e+00	0	39	0	105906176	60	5385
2026-01-17 08:50:43.63	114.99	12.45	-44.5	-47.4	16.5	0.00e+00	0	39	0	109051904	60	5052
2026-01-17 08:50:44.34	114.92	12.51	-44.4	-47.2	16.7	0.00e+00	0	39	0	110100480	60	4950
2026-01-17 08:50:45.75	114.77	12.62	-44.2	-46.9	17.0	0.00e+00	0	39	0	112197632	60	4801
2026-01-17 08:50:46.46	114.70	12.68	-44.4	-47.2	16.7	0.00e+00	0	39	0	114294784	60	4979
2026-01-17 08:50:47.73	114.56	12.79	-44.4	-47.3	16.7	0.00e+00	0	39	0	116391936	60	4992
2026-01-17 08:50:48.47	114.49	12.85	-44.8	-47.7	16.2	0.00e+00	0	39	0	117440512	60	5271
2026-01-17 08:50:49.75	114.35	12.95	-44.9	-47.9	16.1	0.00e+00	0	39	0	120586240	60	5383
2026-01-17 08:50:50.47	114.28	13.01	-44.8	-47.8	16.2	0.00e+00	0	39	0	121634816	60	5308
2026-01-17 08:50:51.74	114.14	13.12	-44.8	-47.8	16.2	0.00e+00	0	39	0	123731968	60	5282
2026-01-17 08:50:52.45	114.06	13.18	-44.7	-47.6	16.4	0.00e+00	0	40	0	124780544	60	5181
2026-01-17 08:50:53.73	113.93	13.29	-44.5	-47.3	16.7	0.00e+00	0	39	0	127926272	60	5005
2026-01-17 08:50:54.45	113.85	13.35	-44.5	-47.4	16.6	0.00e+00	0	39	0	128974848	60	5067
2026-01-17 08:50:55.72	113.71	13.46	-44.6	-47.5	16.5	0.00e+00	0	39	0	131072000	60	5148
2026-01-17 08:50:56.50	113.62	13.52	-45.0	-48.2	15.9	0.00e+00	0	39	0	133169152	60	5529
2026-01-17 08:50:57.78	113.48	13.63	-45.1	-48.3	15.8	0.00e+00	0	39	0	135266304	61	5308
2026-01-17 08:50:58.50	113.40	13.69	-45.0	-48.1	16.0	0.00e+00	0	39	0	136314880	61	5166
2026-01-17 08:50:59.78	113.26	13.80	-44.7	-47.7	16.3	0.00e+00	0	39	0	138412032	61	4939
2026-01-17 08:51:00.61	113.17	13.87	-44.4	-47.3	16.7	0.00e+00	0	39	0	140509184	60	4985
2026-01-17 08:51:01.74	113.04	13.97	-44.4	-47.1	16.8	0.00e+00	0	39	0	142606336	60	4922
2026-01-17 08:51:02.59	112.94	14.04	-44.3	-47.1	16.8	0.00e+00	0	39	0	143654912	60	4908
2026-01-17 08:51:03.73	112.81	14.14	-44.2	-47.1	16.9	0.00e+00	0	39	0	145752064	60	4872
2026-01-17 08:51:04.58	112.71	14.21	-44.8	-47.8	16.2	0.00e+00	0	39	0	147849216	60	5294
2026-01-17 08:51:05.72	112.58	14.31	-44.9	-48.2	15.9	0.00e+00	0	39	0	149946368	60	5538
2026-01-17 08:51:06.57	112.48	14.39	-44.8	-47.9	16.2	0.00e+00	0	39	0	152043520	60	5378
2026-01-17 08:51:07.71	112.35	14.49	-44.5	-47.5	16.5	0.00e+00	0	39	0	154140672	60	5154
2026-01-17 08:51:08.57	112.25	14.56	-44.3	-47.2	16.8	0.00e+00	0	40	0	155189248	60	4932
2026-01-17 08:51:09.71	112.11	14.66	-43.9	-46.5	17.4	0.00e+00	0	39	0	157286400	59	4849
2026-01-17 08:51:10.56	112.01	14.73	-43.7	-46.3	17.6	0.00e+00	0	39	0	159383552	59	4744
2026-01-17 08:51:11.69	111.87	14.83	-43.5	-46.0	17.9	0.00e+00	0	39	0	161480704	59	4598
2026-01-17 08:51:12.55	111.77	14.91	-43.9	-46.5	17.4	0.00e+00	0	39	0	162529280	59	4840
2026-01-17 08:51:13.68	111.63	15.01	-44.3	-47.1	16.9	0.00e+00	0	39	0	164626432	59	5190
2026-01-17 08:51:14.62	111.52	15.09	-44.4	-47.2	16.8	0.00e+00	0	39	0	166723584	59	5237
2026-01-17 08:51:15.61	111.40	15.18	-44.4	-47.2	16.7	0.00e+00	0	40	0	168820736	59	5248
2026-01-17 08:51:16.83	111.25	15.29	-44.2	-46.9	17.1	0.00e+00	0	39	0	170917888	59	5084
2026-01-17 08:51:17.71	111.14	15.36	-44.0	-46.7	17.3	0.00e+00	0	39	0	171966464	59	4930
2026-01-17 08:51:19.02	110.97	15.48	-44.1	-46.7	17.2	0.00e+00	0	39	0	175112192	59	4981
2026-01-17 08:51:19.73	110.88	15.54	-43.7	-46.2	17.7	0.00e+00	0	39	0	176160768	59	4696
2026-01-17 08:51:21.01	110.72	15.66	-44.4	-47.2	16.8	0.00e+00	0	40	0	178257920	59	5235
2026-01-17 08:51:21.72	110.63	15.72	-44.5	-47.3	16.7	0.00e+00	0	39	0	180355072	59	5323
2026-01-17 08:51:23.00	110.47	15.84	-44.7	-47.7	16.4	0.00e+00	0	39	0	182452224	60	5224
2026-01-17 08:51:23.72	110.37	15.90	-44.9	-48.0	16.1	0.00e+00	0	39	0	183500800	60	5432
2026-01-17 08:51:25.00	110.21	16.02	-44.6	-47.6	16.5	0.00e+00	0	40	0	186646528	60	5176
2026-01-17 08:51:25.74	110.11	16.08	-45.1	-48.2	16.0	0.00e+00	0	39	0	187695104	60	5533
2026-01-17 08:51:27.02	109.94	16.20	-44.9	-48.0	16.1	0.00e+00	0	39	0	189792256	60	5413
2026-01-17 08:51:27.73	109.85	16.26	-44.4	-47.2	16.8	0.00e+00	0	39	0	190840832	60	4971
2026-01-17 08:51:29.01	109.68	16.38	-44.8	-47.7	16.4	0.00e+00	0	40	0	193986560	60	5269
2026-01-17 08:51:29.74	109.58	16.45	-44.8	-47.7	16.4	0.00e+00	0	40	0	195035136	60	5225
2026-01-17 08:51:31.05	109.40	16.56	-44.7	-47.6	16.5	0.00e+00	0	39	0	197132288	60	5198
2026-01-17 08:51:31.76	109.31	16.63	-44.8	-47.8	16.3	0.00e+00	0	39	0	199229440	60	5312
2026-01-17 08:51:33.05	109.13	16.75	-44.5	-47.4	16.7	0.00e+00	0	40	0	201326592	60	5056
2026-01-17 08:51:33.77	109.03	16.81	-44.9	-47.9	16.2	0.00e+00	0	39	0	202375168	60	5392
2026-01-17 08:51:35.05	108.85	16.93	-45.0	-48.1	16.0	0.00e+00	0	39	0	205520896	60	5488
2026-01-17 08:51:35.76	108.75	17.00	-44.5	-47.3	16.8	0.00e+00	0	39	0	206569472	60	5017
2026-01-17 08:51:37.21	108.55	17.13	-44.3	-47.1	16.9	0.00e+00	0	39	0	208666624	60	4915
2026-01-17 08:51:37.92	108.45	17.20	-44.4	-47.1	16.9	0.00e+00	0	40	0	210763776	60	4922
2026-01-17 08:51:39.20	108.27	17.31	-44.3	-47.1	17.0	0.00e+00	0	40	0	212860928	60	4896
2026-01-17 08:51:39.91	108.17	17.38	-44.3	-47.1	17.0	0.00e+00	0	39	0	213909504	60	4907
2026-01-17 08:51:41.19	107.98	17.50	-44.3	-47.1	17.0	0.00e+00	0	39	0	217055232	60	4911
2026-01-17 08:51:41.90	107.88	17.56	-44.4	-47.2	16.9	0.00e+00	0	40	0	218103808	60	4965
2026-01-17 08:51:43.18	107.70	17.68	-44.3	-47.1	17.0	0.00e+00	0	40	0	220200960	60	4881
2026-01-17 08:51:43.91	107.59	17.75	-44.2	-46.9	17.3	0.00e+00	0	39	0	221249536	59	5042
2026-01-17 08:51:45.46	107.36	17.90	-44.0	-46.6	17.4	0.00e+00	0	39	0	224395264	59	4915
2026-01-17 08:51:46.16	107.26	17.96	-44.2	-46.9	17.3	0.00e+00	0	39	0	225443840	59	5056
2026-01-17 08:51:47.52	107.05	18.09	-44.1	-46.8	17.2	0.00e+00	0	40	0	228589568	59	5003
2026-01-17 08:51:48.23	106.95	18.16	-44.0	-46.6	17.4	0.00e+00	0	40	0	229638144	59	4904
2026-01-17 08:51:49.54	106.75	18.28	-44.0	-46.5	17.5	0.00e+00	0	40	0	231735296	59	4868
2026-01-17 08:51:50.25	106.64	18.35	-44.0	-46.6	17.4	0.00e+00	0	40	0	233832448	59	4876
2026-01-17 08:51:51.59	106.43	18.47	-43.6	-46.1	17.8	0.00e+00	0	40	0	235929600	59	4639
2026-01-17 08:51:52.31	106.32	18.54	-43.6	-46.1	17.9	0.00e+00	0	40	0	236978176	59	4606
2026-01-17 08:51:53.67	106.11	18.67	-43.9	-46.4	17.6	0.00e+00	0	39	0	240123904	59	4813
2026-01-17 08:51:54.38	106.00	18.74	-43.7	-46.3	17.7	0.00e+00	0	39	0	241172480	59	4712
2026-01-17 08:51:55.72	105.79	18.87	-43.8	-46.4	17.6	0.00e+00	0	40	0	243269632	59	4766
2026-01-17 08:51:56.43	105.68	18.93	-44.0	-46.6	17.4	0.00e+00	0	40	0	245366784	59	4897
2026-01-17 08:51:57.77	105.46	19.06	-44.3	-47.0	17.1	0.00e+00	0	40	0	247463936	59	5112
2026-01-17 08:51:58.48	105.35	19.13	-44.2	-46.9	17.1	0.00e+00	0	40	0	248512512	59	5062
2026-01-17 08:51:59.76	105.14	19.25	-44.2	-46.8	17.2	0.00e+00	0	40	0	251658240	59	5029
2026-01-17 08:52:00.48	105.03	19.32	-44.3	-47.0	17.0	0.00e+00	0	40	0	252706816	59	5140
2026-01-17 08:52:01.76	104.82	19.44	-44.2	-46.9	17.1	0.00e+00	0	39	0	254803968	59	5061
2026-01-17 08:52:02.47	104.70	19.51	-44.0	-46.6	17.4	0.00e+00	0	40	0	256901120	59	4913
2026-01-17 08:52:03.75	104.49	19.63	-44.1	-46.7	17.3	0.00e+00	0	39	0	258998272	59	4973
2026-01-17 08:52:04.48	104.37	19.70	-44.1	-46.7	17.3	0.00e+00	0	39	0	260046848	59	4976
2026-01-17 08:52:05.76	104.15	19.83	-44.1	-46.7	17.3	0.00e+00	0	39	0	262144000	59	4963
2026-01-17 08:52:06.47	104.03	19.90	-44.0	-46.6	17.4	0.00e+00	0	40	0	264241152	59	4905
2026-01-17 08:52:07.74	103.82	20.02	-44.0	-46.6	17.5	0.00e+00	0	40	0	266338304	59	4877
2026-01-17 08:52:08.45	103.70	20.09	-44.2	-46.9	17.2	0.00e+00	0	39	0	267386880	59	5053
2026-01-17 08:52:09.73	103.48	20.21	-43.7	-46.2	17.8	0.00e+00	0	39	0	269484032	59	4693
2026-01-17 08:52:10.44	103.35	20.28	-43.6	-46.0	18.0	0.00e+00	0	40	0	271581184	59	4561
2026-01-17 08:52:11.72	103.13	20.40	-43.3	-45.7	18.3	0.00e+00	0	40	0	273678336	58	4658
2026-01-17 08:52:12.43	103.01	20.47	-43.1	-45.3	18.6	0.00e+00	0	39	0	274726912	58	4489
2026-01-17 08:52:13.71	102.78	20.60	-43.0	-45.3	18.7	0.00e+00	0	39	0	277872640	57	4706
2026-01-17 08:52:14.55	102.63	20.68	-43.4	-45.8	18.2	0.00e+00	0	40	0	278921216	57	5019
2026-01-17 08:52:15.69	102.43	20.79	-43.7	-46.1	17.9	0.00e+00	0	40	0	281018368	58	4926
2026-01-17 08:52:16.54	102.27	20.87	-43.7	-46.2	17.8	0.00e+00	0	39	0	283115520	58	4976
2026-01-17 08:52:17.68	102.07	20.98	-43.6	-46.0	18.0	0.00e+00	0	40	0	285212672	58	4858
2026-01-17 08:52:18.82	101.86	21.10	-43.4	-45.8	18.2	0.00e+00	0	39	0	287309824	58	4715
2026-01-17 08:52:19.67	101.70	21.18	-43.7	-46.1	17.9	0.00e+00	0	39	0	288358400	58	4910
2026-01-17 08:52:20.81	101.49	21.29	-44.1	-46.8	17.3	0.00e+00	0	40	0	290455552	58	5296
2026-01-17 08:52:21.66	101.34	21.37	-44.3	-47.0	17.0	0.00e+00	0	40	0	292552704	59	5150
2026-01-17 08:52:22.80	101.12	21.48	-44.5	-47.3	16.8	0.00e+00	0	39	0	294649856	59	5291
2026-01-17 08:52:23.65	100.96	21.57	-44.3	-47.0	17.1	0.00e+00	0	40	0	295698432	59	5127
2026-01-17 08:52:24.78	100.75	21.68	-43.8	-46.3	17.7	0.00e+00	0	40	0	297795584	59	4731
2026-01-17 08:52:25.64	100.58	21.76	-43.6	-46.0	18.0	0.00e+00	0	40	0	299892736	59	4578
2026-01-17 08:52:26.92	100.34	21.89	-43.9	-46.4	17.6	0.00e+00	0	40	0	301989888	59	4796
2026-01-17 08:52:27.65	100.20	21.96	-43.9	-46.4	17.6	0.00e+00	0	40	0	304087040	59	4802
2026-01-17 08:52:29.12	99.91	22.10	-44.2	-46.9	17.2	0.00e+00	0	40	0	306184192	59	5066
2026-01-17 08:52:29.83	99.77	22.17	-44.2	-46.9	17.3	0.00e+00	0	40	0	307232768	59	5050
2026-01-17 08:52:31.17	99.51	22.30	-43.7	-46.2	17.9	0.00e+00	0	39	0	310378496	59	4657
2026-01-17 08:52:31.88	99.37	22.37	-43.6	-46.1	17.9	0.00e+00	0	39	0	311427072	59	4623
2026-01-17 08:52:33.16	99.11	22.50	-43.5	-46.0	18.0	0.00e+00	0	40	0	313524224	59	4576
2026-01-17 08:52:33.87	98.97	22.57	-43.7	-46.3	17.7	0.00e+00	0	40	0	315621376	59	4721
2026-01-17 08:52:35.15	98.71	22.70	-44.3	-47.1	17.1	0.00e+00	0	40	0	317718528	59	5162
2026-01-17 08:52:35.89	98.56	22.77	-44.4	-47.2	17.0	0.00e+00	0	40	0	318767104	59	5227
2026-01-17 08:52:37.33	98.27	22.91	-44.2	-46.9	17.2	0.00e+00	0	40	0	321912832	59	5047
2026-01-17 08:52:38.04	98.12	22.98	-44.2	-46.9	17.1	0.00e+00	0	39	0	322961408	59	5077
2026-01-17 08:52:39.44	97.83	23.12	-44.2	-46.9	17.4	0.00e+00	0	40	0	326107136	59	5053
2026-01-17 08:52:40.15	97.68	23.19	-44.3	-46.9	17.2	0.00e+00	0	40	0	327155712	59	5093
2026-01-17 08:52:41.48	97.40	23.32	-44.2	-46.8	17.3	0.00e+00	0	39	0	329252864	59	5028
2026-01-17 08:52:42.19	97.25	23.39	-44.2	-46.9	17.2	0.00e+00	0	40	0	331350016	59	5056
2026-01-17 08:52:43.46	96.98	23.51	-44.1	-46.7	17.4	0.00e+00	0	40	0	333447168	59	4974
2026-01-17 08:52:44.17	96.83	23.58	-44.3	-47.0	17.2	0.00e+00	0	39	0	334495744	59	5143
2026-01-17 08:52:45.46	96.55	23.71	-44.4	-47.2	17.0	0.00e+00	0	40	0	336592896	59	5239
2026-01-17 08:52:46.17	96.39	23.77	-44.7	-47.6	16.6	0.00e+00	0	39	0	338690048	60	5216
2026-01-17 08:52:47.63	96.07	23.92	-44.6	-47.5	16.7	0.00e+00	0	39	0	340787200	60	5108
2026-01-17 08:52:48.35	95.92	23.99	-44.4	-47.2	17.1	0.00e+00	0	40	0	342884352	60	4927
2026-01-17 08:52:49.62	95.63	24.11	-44.3	-47.0	17.2	0.00e+00	0	40	0	344981504	60	4859
2026-01-17 08:52:50.33	95.48	24.18	-44.0	-46.7	17.5	0.00e+00	0	40	0	346030080	60	4662
2026-01-17 08:52:51.61	95.19	24.30	-43.8	-46.4	17.7	0.00e+00	0	40	0	348127232	59	4766
2026-01-17 08:52:52.33	95.03	24.37	-43.7	-46.2	17.8	0.00e+00	0	40	0	350224384	59	4700
2026-01-17 08:52:53.62	94.73	24.50	-43.7	-46.2	17.9	0.00e+00	0	40	0	352321536	59	4683
2026-01-17 08:52:54.33	94.57	24.57	-43.6	-46.1	18.0	0.00e+00	0	40	0	353370112	59	4617
2026-01-17 08:52:55.61	94.28	24.69	-43.4	-45.8	18.2	0.00e+00	0	40	0	356515840	58	4759
2026-01-17 08:52:56.32	94.11	24.76	-43.5	-45.9	18.1	0.00e+00	0	40	0	357564416	58	4795
2026-01-17 08:52:57.60	93.81	24.88	-43.1	-45.5	18.5	0.00e+00	0	40	0	359661568	58	4566
2026-01-17 08:52:58.31	93.65	24.95	-42.9	-45.1	18.8	0.00e+00	0	40	0	360710144	57	4638
2026-01-17 08:52:59.59	93.35	25.07	-42.5	-44.7	19.2	0.00e+00	0	40	0	363855872	57	4423
2026-01-17 08:53:00.49	93.13	25.16	-42.5	-44.8	19.1	0.00e+00	0	40	0	364904448	56	4710
2026-01-17 08:53:01.58	92.87	25.26	-42.6	-44.9	19.1	0.00e+00	0	40	0	367001600	56	4784
2026-01-17 08:53:02.43	92.67	25.35	-42.6	-44.8	19.1	0.00e+00	0	40	0	369098752	56	4747
2026-01-17 08:53:03.57	92.39	25.45	-42.7	-45.0	18.9	0.00e+00	0	40	0	371195904	56	4816
2026-01-17 08:53:04.42	92.19	25.53	-42.7	-45.0	19.0	0.00e+00	0	39	0	372244480	56	4823
2026-01-17 08:53:05.56	91.91	25.64	-43.0	-45.4	18.6	0.00e+00	0	39	0	374341632	56	5052
2026-01-17 08:53:06.41	91.70	25.72	-43.2	-45.6	18.5	0.00e+00	0	40	0	376438784	57	4872
2026-01-17 08:53:07.58	91.41	25.83	-43.3	-45.7	18.3	0.00e+00	0	40	0	378535936	57	4950
2026-01-17 08:53:08.43	91.20	25.91	-43.2	-45.6	18.4	0.00e+00	0	40	0	379584512	57	4900
2026-01-17 08:53:09.57	90.91	26.02	-43.4	-45.9	18.2	0.00e+00	0	40	0	381681664	57	5060
2026-01-17 08:53:10.43	90.70	26.10	-44.0	-46.6	17.5	0.00e+00	0	39	0	383778816	58	5189
2026-01-17 08:53:11.56	90.41	26.21	-44.2	-46.9	17.2	0.00e+00	0	40	0	385875968	59	5100
2026-01-17 08:53:12.41	90.19	26.28	-44.2	-47.0	17.2	0.00e+00	0	40	0	387973120	59	5106
2026-01-17 08:53:13.55	89.90	26.39	-43.9	-46.5	17.6	0.00e+00	0	40	0	390070272	59	4845
2026-01-17 08:53:14.41	89.68	26.47	-43.7	-46.3	17.8	0.00e+00	0	39	0	391118848	59	4739
2026-01-17 08:53:15.54	89.39	26.57	-43.7	-46.3	17.8	0.00e+00	0	39	0	393216000	59	4726
2026-01-17 08:53:16.40	89.16	26.65	-43.7	-46.3	17.8	0.00e+00	0	40	0	395313152	59	4738
2026-01-17 08:53:17.53	88.87	26.75	-44.0	-46.6	17.5	0.00e+00	0	39	0	397410304	59	4887
2026-01-17 08:53:18.39	88.64	26.83	-43.7	-46.3	17.8	0.00e+00	0	39	0	398458880	59	4734
2026-01-17 08:53:19.52	88.34	26.94	-43.9	-46.4	17.8	0.00e+00	0	40	0	400556032	59	4812
2026-01-17 08:53:20.38	88.11	27.01	-44.0	-46.6	17.5	0.00e+00	0	40	0	402653184	59	4881
2026-01-17 08:53:21.51	87.81	27.11	-44.0	-46.7	17.5	0.00e+00	0	40	0	404750336	59	4937
2026-01-17 08:53:22.37	87.58	27.19	-44.1	-46.8	17.3	0.00e+00	0	39	0	405798912	59	5005
2026-01-17 08:53:23.60	87.24	27.30	-43.5	-46.1	17.9	0.00e+00	0	40	0	408944640	59	4644
2026-01-17 08:53:24.45	87.01	27.38	-43.6	-46.4	17.6	0.00e+00	0	40	0	409993216	58	5060
2026-01-17 08:53:25.59	86.70	27.48	-44.7	-47.8	15.9	0.00e+00	0	40	0	412090368	60	5300
2026-01-17 08:53:26.44	86.46	27.55	-43.5	-46.2	17.7	0.00e+00	0	40	0	414187520	58	4928
2026-01-17 08:53:27.58	86.15	27.65	-43.1	-45.7	18.3	0.00e+00	0	39	0	416284672	58	4692
2026-01-17 08:53:28.44	85.91	27.72	-43.6	-46.4	17.6	0.00e+00	0	39	0	417333248	58	5052
2026-01-17 08:53:29.57	85.59	27.82	-43.8	-46.7	17.2	0.00e+00	0	40	0	419430400	58	5230
2026-01-17 08:53:30.57	85.31	27.91	-44.2	-47.3	16.8	0.00e+00	0	39	0	421527552	59	5288
2026-01-17 08:53:31.56	85.03	27.99	-44.6	-47.8	16.3	0.00e+00	0	39	0	423624704	59	5593
2026-01-17 08:53:32.56	84.74	28.07	-44.7	-47.9	16.1	0.00e+00	0	39	0	425721856	60	5401
2026-01-17 08:53:33.56	84.45	28.16	-45.1	-48.6	15.5	0.00e+00	0	39	0	426770432	60	5854
2026-01-17 08:53:34.55	84.17	28.24	-45.2	-48.8	15.3	0.00e+00	0	40	0	428867584	61	5632
2026-01-17 08:53:35.54	83.88	28.32	-45.1	-48.6	15.4	0.00e+00	0	40	0	430964736	61	5480
2026-01-17 08:53:36.54	83.59	28.41	-44.8	-48.0	16.1	0.00e+00	0	39	0	433061888	61	5153
2026-01-17 08:53:37.53	83.30	28.49	-45.1	-48.6	15.7	0.00e+00	0	39	0	434110464	61	5483
2026-01-17 08:53:38.52	83.01	28.57	-44.9	-48.2	15.9	0.00e+00	0	40	0	436207616	61	5263
2026-01-17 08:53:39.51	82.72	28.65	-44.7	-47.9	16.3	0.00e+00	0	39	0	438304768	61	5055
2026-01-17 08:53:40.51	82.42	28.73	-44.6	-47.7	16.4	0.00e+00	0	39	0	440401920	61	4966
2026-01-17 08:53:41.51	82.12	28.81	-44.3	-47.3	16.8	0.00e+00	0	40	0	442499072	60	5011
2026-01-17 08:53:42.50	81.83	28.88	-44.1	-47.0	17.1	0.00e+00	0	39	0	443547648	60	4854
2026-01-17 08:53:43.50	81.52	28.96	-44.0	-46.9	17.1	0.00e+00	0	40	0	445644800	60	4762
2026-01-17 08:53:44.49	81.22	29.04	-44.2	-47.1	16.9	0.00e+00	0	40	0	447741952	59	5204
2026-01-17 08:53:45.49	80.92	29.11	-43.9	-46.7	17.2	0.00e+00	0	40	0	449839104	59	4963
2026-01-17 08:53:46.49	80.61	29.19	-44.1	-46.9	17.1	0.00e+00	0	39	0	450887680	59	5069
2026-01-17 08:53:47.48	80.31	29.27	-44.2	-47.2	16.8	0.00e+00	0	39	0	452984832	59	5227
2026-01-17 08:53:48.48	80.00	29.34	-44.3	-47.3	16.7	0.00e+00	0	40	0	455081984	59	5280
2026-01-17 08:53:49.47	79.69	29.41	-44.4	-47.5	16.6	0.00e+00	0	39	0	457179136	60	5117
2026-01-17 08:53:50.47	79.38	29.49	-44.5	-47.7	16.4	0.00e+00	0	40	0	459276288	60	5260
2026-01-17 08:53:51.46	79.07	29.56	-44.5	-47.6	16.3	0.00e+00	0	40	0	460324864	60	5198
2026-01-17 08:53:52.46	78.76	29.63	-44.3	-47.4	16.7	0.00e+00	0	39	0	462422016	60	5064
2026-01-17 08:53:53.45	78.45	29.70	-44.5	-47.6	16.4	0.00e+00	0	39	0	464519168	60	5194
2026-01-17 08:53:54.45	78.13	29.77	-44.5	-47.6	16.4	0.00e+00	0	40	0	466616320	60	5192
2026-01-17 08:53:55.44	77.81	29.84	-44.6	-47.7	16.4	0.00e+00	0	39	0	468713472	60	5233
2026-01-17 08:53:56.44	77.50	29.90	-44.6	-47.6	16.5	0.00e+00	0	39	0	469762048	60	5202
2026-01-17 08:53:57.43	77.18	29.97	-44.4	-47.5	16.6	0.00e+00	0	40	0	471859200	60	5138
2026-01-17 08:53:58.43	76.85	30.04	-44.4	-47.4	16.7	0.00e+00	0	39	0	473956352	60	5066
2026-01-17 08:53:59.42	76.53	30.10	-44.1	-47.0	17.1	0.00e+00	0	40	0	476053504	60	4826
2026-01-17 08:54:00.45	76.20	30.17	-43.9	-46.7	17.3	0.00e+00	0	40	0	478150656	59	4964
2026-01-17 08:54:01.48	75.86	30.24	-43.8	-46.5	17.4	0.00e+00	0	40	0	479199232	59	4851
2026-01-17 08:54:02.47	75.54	30.30	-43.9	-46.6	17.5	0.00e+00	0	39	0	481296384	59	4902
2026-01-17 08:54:03.46	75.21	30.36	-44.2	-47.1	16.9	0.00e+00	0	40	0	483393536	59	5199
2026-01-17 08:54:04.46	74.88	30.42	-44.4	-47.4	16.6	0.00e+00	0	39	0	485490688	59	5373
2026-01-17 08:54:05.45	74.56	30.48	-44.4	-47.4	16.6	0.00e+00	0	40	0	486539264	59	5371
2026-01-17 08:54:06.45	74.22	30.54	-44.3	-47.2	16.8	0.00e+00	0	39	0	488636416	59	5272
2026-01-17 08:54:07.44	73.89	30.60	-44.0	-46.8	17.1	0.00e+00	0	39	0	490733568	59	5018
2026-01-17 08:54:08.44	73.56	30.65	-43.5	-46.2	17.7	0.00e+00	0	40	0	492830720	59	4668
2026-01-17 08:54:09.44	73.22	30.71	-43.5	-46.0	17.9	0.00e+00	0	39	0	494927872	58	4870
2026-01-17 08:54:10.43	72.89	30.76	-43.6	-46.2	17.8	0.00e+00	0	39	0	495976448	58	4941
2026-01-17 08:54:11.42	72.55	30.82	-43.8	-46.6	17.4	0.00e+00	0	39	0	498073600	58	5162
2026-01-17 08:54:12.42	72.21	30.87	-43.9	-46.7	17.4	0.00e+00	0	39	0	500170752	58	5229
2026-01-17 08:54:13.42	71.87	30.92	-43.6	-46.3	17.7	0.00e+00	0	39	0	502267904	58	4991
2026-01-17 08:54:14.41	71.53	30.97	-43.6	-46.2	17.8	0.00e+00	0	39	0	503316480	58	4955
2026-01-17 08:54:15.41	71.19	31.02	-44.0	-46.7	17.3	0.00e+00	0	40	0	505413632	58	5269
2026-01-17 08:54:16.40	70.85	31.07	-44.3	-47.2	16.9	0.00e+00	0	39	0	507510784	59	5270
2026-01-17 08:54:17.40	70.50	31.12	-44.5	-47.6	16.5	0.00e+00	0	39	0	509607936	59	5471
2026-01-17 08:54:18.44	70.14	31.17	-44.5	-47.6	16.5	0.00e+00	0	39	0	511705088	59	5473
2026-01-17 08:54:19.40	69.81	31.21	-44.9	-48.2	16.0	0.00e+00	0	39	0	512753664	60	5533
2026-01-17 08:54:20.48	69.44	31.26	-45.3	-48.9	15.2	7.00e-07	0	39	0	514850816	61	5710
2026-01-17 08:54:21.33	69.14	31.30	-45.4	-49.0	15.1	0.00e+00	0	39	0	516947968	61	5780
2026-01-17 08:54:22.70	68.66	31.36	-44.9	-48.2	15.9	0.00e+00	0	40	0	519045120	61	5271
2026-01-17 08:54:23.41	68.41	31.39	-44.5	-47.5	16.6	0.00e+00	0	39	0	521142272	60	5138
2026-01-17 08:54:24.69	67.96	31.44	-44.0	-46.8	17.2	0.00e+00	0	39	0	523239424	59	4999
2026-01-17 08:54:25.40	67.71	31.46	-44.2	-47.1	17.0	0.00e+00	0	39	0	524288000	59	5180
2026-01-17 08:54:26.70	67.25	31.51	-45.1	-48.4	15.8	0.00e+00	0	40	0	526385152	60	5696
2026-01-17 08:54:27.41	67.00	31.54	-45.0	-48.3	15.8	0.00e+00	0	39	0	528482304	60	5626
2026-01-17 08:54:28.69	66.55	31.58	-44.9	-48.1	16.0	0.00e+00	0	40	0	530579456	60	5472
2026-01-17 08:54:29.68	66.19	31.62	-44.3	-47.3	16.8	0.00e+00	0	39	0	532676608	60	5002
2026-01-17 08:54:30.98	65.73	31.66	-43.9	-46.6	17.4	0.00e+00	0	40	0	534773760	59	4914
2026-01-17 08:54:31.72	65.47	31.68	-44.0	-46.7	17.4	0.00e+00	0	39	0	535822336	59	4941
2026-01-17 08:54:33.00	65.01	31.72	-44.1	-46.8	17.3	0.00e+00	0	40	0	538968064	59	5011
2026-01-17 08:54:33.73	64.75	31.74	-44.2	-47.1	17.0	0.00e+00	0	39	0	540016640	59	5167
2026-01-17 08:54:35.01	64.29	31.78	-44.8	-47.9	16.2	0.00e+00	0	39	0	542113792	60	5391
2026-01-17 08:54:35.73	64.03	31.80	-45.2	-48.5	15.8	0.00e+00	0	40	0	544210944	60	5738
2026-01-17 08:54:37.01	63.57	31.83	-45.1	-48.3	15.9	0.00e+00	0	39	0	546308096	61	5312
2026-01-17 08:54:37.75	63.30	31.84	-44.7	-47.8	16.4	0.00e+00	0	40	0	547356672	61	4990
2026-01-17 08:54:39.03	62.84	31.87	-44.2	-47.0	17.1	0.00e+00	0	40	0	549453824	60	4838
2026-01-17 08:54:39.75	62.58	31.89	-44.1	-46.8	17.2	0.00e+00	0	40	0	551550976	59	5037
2026-01-17 08:54:41.03	62.11	31.91	-44.3	-47.2	16.8	0.00e+00	0	39	0	553648128	59	5263
2026-01-17 08:54:41.75	61.85	31.93	-44.6	-47.6	16.4	0.00e+00	0	40	0	554696704	59	5527
2026-01-17 08:54:43.04	61.38	31.95	-44.8	-48.0	16.1	0.00e+00	0	40	0	557842432	60	5420
2026-01-17 08:54:43.75	61.12	31.96	-44.9	-48.2	16.0	0.00e+00	0	39	0	558891008	60	5536
2026-01-17 08:54:45.02	60.66	31.98	-44.8	-48.0	16.1	0.00e+00	0	39	0	560988160	60	5451
2026-01-17 08:54:45.74	60.40	31.99	-44.7	-47.9	16.2	0.00e+00	0	40	0	562036736	60	5384
2026-01-17 08:54:47.22	59.86	32.01	-45.1	-48.4	15.7	0.00e+00	0	39	0	565182464	60	5699
2026-01-17 08:54:47.93	59.60	32.01	-45.3	-48.8	15.3	0.00e+00	0	39	0	566231040	61	5641
2026-01-17 08:54:49.21	59.13	32.03	-45.2	-48.6	15.6	0.00e+00	0	40	0	569376768	61	5501
2026-01-17 08:54:49.92	58.87	32.03	-45.2	-48.6	15.6	0.00e+00	0	40	0	570425344	61	5468
2026-01-17 08:54:51.21	58.40	32.04	-45.2	-48.5	15.6	0.00e+00	0	40	0	572522496	61	5446
2026-01-17 08:54:51.92	58.14	32.04	-45.1	-48.4	15.8	0.00e+00	0	40	0	574619648	61	5382
2026-01-17 08:54:53.20	57.68	32.05	-44.7	-47.9	16.2	0.00e+00	0	39	0	576716800	61	5044
2026-01-17 08:54:53.91	57.42	32.05	-44.6	-47.7	16.4	0.00e+00	0	40	0	577765376	61	4950
2026-01-17 08:54:55.19	56.95	32.05	-44.1	-47.0	17.1	0.00e+00	0	40	0	579862528	60	4834
2026-01-17 08:54:55.92	56.68	32.05	-44.0	-46.8	17.3	0.00e+00	0	39	0	581959680	59	5022
2026-01-17 08:54:57.20	56.21	32.05	-43.5	-46.1	17.9	0.00e+00	0	40	0	584056832	59	4612
2026-01-17 08:54:57.91	55.95	32.05	-43.5	-46.0	18.0	0.00e+00	0	40	0	585105408	58	4855
2026-01-17 08:54:59.19	55.49	32.04	-43.7	-46.4	17.7	0.00e+00	0	39	0	587202560	58	5066
2026-01-17 08:54:59.90	55.23	32.04	-44.1	-46.8	17.2	0.00e+00	0	39	0	589299712	58	5330
2026-01-17 08:55:01.18	54.76	32.03	-44.5	-47.4	16.7	0.00e+00	0	39	0	591396864	59	5353
2026-01-17 08:55:02.13	54.41	32.02	-45.0	-48.2	16.0	0.00e+00	0	40	0	593494016	60	5576
2026-01-17 08:55:03.12	54.05	32.01	-45.0	-48.2	15.9	0.00e+00	0	40	0	595591168	60	5552
2026-01-17 08:55:04.11	53.69	32.00	-44.9	-48.1	16.1	0.00e+00	0	40	0	596639744	61	5201
2026-01-17 08:55:05.11	53.33	31.99	-44.9	-48.1	16.1	0.00e+00	0	39	0	598736896	61	5189
2026-01-17 08:55:06.10	52.97	31.98	-44.8	-47.9	16.3	0.00e+00	0	39	0	600834048	61	5089
2026-01-17 08:55:07.10	52.60	31.96	-44.9	-48.1	16.1	0.00e+00	0	39	0	602931200	61	5173
2026-01-17 08:55:08.09	52.24	31.95	-45.0	-48.3	15.9	0.00e+00	0	39	0	603979776	61	5284
2026-01-17 08:55:09.09	51.88	31.93	-44.6	-47.7	16.4	0.00e+00	0	39	0	606076928	61	4970
2026-01-17 08:55:10.09	51.52	31.91	-45.1	-48.4	15.8	0.00e+00	0	40	0	608174080	61	5369
2026-01-17 08:55:11.16	51.13	31.89	-44.8	-48.0	16.1	0.00e+00	0	39	0	610271232	61	5143
2026-01-17 08:55:12.01	50.82	31.87	-44.7	-47.8	16.4	0.00e+00	0	39	0	611319808	61	5000
2026-01-17 08:55:13.15	50.41	31.85	-44.4	-47.4	16.7	0.00e+00	0	40	0	614465536	60	5086
2026-01-17 08:55:14.01	50.10	31.83	-44.4	-47.4	16.8	0.00e+00	0	40	0	615514112	60	5042
2026-01-17 08:55:15.15	49.69	31.80	-44.4	-47.4	16.6	0.00e+00	0	40	0	617611264	60	5083
2026-01-17 08:55:16.00	49.38	31.78	-44.7	-47.8	16.3	0.00e+00	0	39	0	619708416	60	5316
2026-01-17 08:55:17.13	48.98	31.75	-44.6	-47.8	16.3	0.00e+00	0	39	0	621805568	60	5281
2026-01-17 08:55:17.99	48.67	31.72	-45.0	-48.4	15.8	0.00e+00	0	40	0	622854144	60	5684
2026-01-17 08:55:19.12	48.27	31.69	-44.9	-48.1	16.0	0.00e+00	0	39	0	624951296	60	5528
2026-01-17 08:55:19.98	47.96	31.66	-44.6	-47.8	16.3	0.00e+00	0	40	0	627048448	60	5282
2026-01-17 08:55:21.11	47.56	31.63	-44.5	-47.6	16.5	0.00e+00	0	39	0	629145600	60	5182
2026-01-17 08:55:21.97	47.25	31.60	-44.2	-47.1	16.9	0.00e+00	0	40	0	630194176	60	4912
2026-01-17 08:55:23.10	46.85	31.56	-44.0	-46.9	17.1	0.00e+00	0	40	0	632291328	59	5049
2026-01-17 08:55:24.39	46.39	31.51	-44.0	-46.9	17.1	0.00e+00	0	40	0	635437056	59	5074
2026-01-17 08:55:25.10	46.14	31.49	-44.3	-47.2	16.8	0.00e+00	0	39	0	636485632	59	5263
2026-01-17 08:55:26.39	45.69	31.44	-44.4	-47.5	16.6	0.00e+00	0	40	0	638582784	59	5409
2026-01-17 08:55:27.11	45.44	31.41	-44.6	-47.7	16.3	0.00e+00	0	39	0	639631360	59	5577
2026-01-17 08:55:28.44	44.97	31.36	-44.0	-46.9	17.2	0.00e+00	0	39	0	642777088	59	5079
2026-01-17 08:55:29.15	44.72	31.33	-44.4	-47.5	16.6	0.00e+00	0	39	0	643825664	59	5422
2026-01-17 08:55:30.42	44.28	31.27	-44.7	-47.9	16.3	0.00e+00	0	39	0	645922816	59	5667
2026-01-17 08:55:31.15	44.02	31.24	-44.5	-47.7	16.4	0.00e+00	0	39	0	648019968	59	5536
2026-01-17 08:55:32.43	43.58	31.18	-44.5	-47.6	16.5	0.00e+00	0	39	0	650117120	59	5466
2026-01-17 08:55:33.16	43.33	31.15	-44.6	-47.7	16.3	0.00e+00	0	40	0	651165696	60	5266
2026-01-17 08:55:34.44	42.89	31.09	-44.3	-47.3	16.7	0.00e+00	0	39	0	654311424	60	5035
2026-01-17 08:55:35.15	42.64	31.05	-44.2	-47.1	16.9	0.00e+00	0	39	0	655360000	59	5170
2026-01-17 08:55:36.42	42.21	30.99	-43.8	-46.6	17.4	0.00e+00	0	39	0	657457152	59	4873
2026-01-17 08:55:37.14	41.96	30.95	-43.9	-46.6	17.4	0.00e+00	0	39	0	658505728	59	4905
2026-01-17 08:55:38.42	41.53	30.89	-44.0	-46.8	17.3	0.00e+00	0	39	0	661651456	59	5021
2026-01-17 08:55:39.14	41.28	30.85	-44.0	-46.9	17.2	0.00e+00	0	40	0	662700032	59	5046
2026-01-17 08:55:40.74	40.74	30.76	-44.2	-47.1	17.0	0.00e+00	0	39	0	665845760	59	5182
2026-01-17 08:55:41.31	40.55	30.73	-44.5	-47.6	16.5	0.00e+00	0	39	0	666894336	59	5469
2026-01-17 08:55:43.00	39.98	30.64	-44.2	-47.1	17.0	0.00e+00	0	39	0	670040064	59	5172
2026-01-17 08:55:43.61	39.78	30.60	-44.4	-47.4	16.7	0.00e+00	0	39	0	671088640	59	5353
2026-01-17 08:55:45.18	39.26	30.51	-45.1	-48.4	15.8	0.00e+00	0	39	0	674234368	60	5694
2026-01-17 08:55:45.84	39.04	30.47	-45.4	-48.9	15.2	0.00e+00	0	39	0	675282944	61	5703
2026-01-17 08:55:47.26	38.57	30.39	-45.4	-48.9	15.3	0.00e+00	0	40	0	677380096	61	5667
2026-01-17 08:55:47.97	38.34	30.34	-45.1	-48.3	15.8	0.00e+00	0	39	0	679477248	61	5340
2026-01-17 08:55:49.25	37.92	30.26	-45.2	-48.6	15.6	0.00e+00	0	40	0	681574400	61	5474
2026-01-17 08:55:49.96	37.68	30.22	-45.2	-48.5	15.6	0.00e+00	0	39	0	682622976	61	5463
2026-01-17 08:55:51.57	37.16	30.11	-45.6	-49.2	14.8	7.00e-07	0	40	0	685768704	61	5894
2026-01-17 08:55:52.15	36.97	30.08	-45.8	-49.6	14.6	7.00e-07	0	39	0	686817280	62	5840
2026-01-17 08:55:53.90	36.41	29.96	-45.6	-49.2	15.0	0.00e+00	0	40	0	689963008	62	5551
2026-01-17 08:55:54.47	36.23	29.92	-45.5	-49.1	15.0	7.00e-07	0	39	0	691011584	62	5508
2026-01-17 08:55:56.18	35.68	29.81	-45.1	-48.3	15.8	0.00e+00	0	39	0	694157312	61	5326
2026-01-17 08:55:57.01	35.42	29.75	-44.8	-47.9	16.1	0.00e+00	0	39	0	696254464	61	5088
2026-01-17 08:55:58.15	35.06	29.67	-44.9	-48.1	16.1	0.00e+00	0	40	0	698351616	61	5171
2026-01-17 08:55:59.36	34.68	29.58	-45.1	-48.5	15.8	0.00e+00	0	39	0	700448768	61	5404
2026-01-17 08:56:00.22	34.41	29.52	-45.3	-48.7	15.5	0.00e+00	0	39	0	702545920	61	5552
2026-01-17 08:56:01.35	34.06	29.44	-44.9	-48.2	15.9	0.00e+00	0	39	0	704643072	61	5222
2026-01-17 08:56:02.21	33.79	29.38	-45.0	-48.3	15.8	0.00e+00	0	39	0	705691648	61	5331
2026-01-17 08:56:03.34	33.45	29.29	-44.6	-47.7	16.4	0.00e+00	0	39	0	707788800	61	4963
2026-01-17 08:56:04.19	33.19	29.23	-44.3	-47.3	16.9	0.00e+00	0	39	0	709885952	60	5003
2026-01-17 08:56:05.33	32.84	29.14	-43.7	-46.4	17.5	0.00e+00	0	39	0	711983104	59	4779
2026-01-17 08:56:06.18	32.58	29.08	-43.4	-46.0	18.0	0.00e+00	0	39	0	713031680	58	4824
2026-01-17 08:56:07.32	32.23	28.99	-42.8	-45.3	18.6	0.00e+00	0	39	0	715128832	57	4745
2026-01-17 08:56:08.18	31.98	28.92	-42.9	-45.4	18.5	0.00e+00	0	39	0	717225984	57	4762
2026-01-17 08:56:09.39	31.61	28.83	-43.3	-45.9	18.1	0.00e+00	0	39	0	719323136	57	5063
2026-01-17 08:56:10.24	31.36	28.76	-43.6	-46.3	17.8	0.00e+00	0	39	0	721420288	58	5024
2026-01-17 08:56:11.45	31.00	28.67	-43.7	-46.4	17.5	0.00e+00	0	39	0	723517440	58	5088
2026-01-17 08:56:12.30	30.75	28.60	-43.9	-46.7	17.3	0.00e+00	0	39	0	724566016	58	5235
2026-01-17 08:56:13.50	30.40	28.50	-44.5	-47.6	16.5	0.00e+00	0	39	0	726663168	59	5469
2026-01-17 08:56:14.35	30.15	28.43	-45.1	-48.5	15.7	0.00e+00	0	39	0	728760320	60	5740
2026-01-17 08:56:15.49	29.82	28.34	-45.2	-48.7	15.6	0.00e+00	0	40	0	730857472	61	5530
2026-01-17 08:56:16.34	29.57	28.27	-44.4	-47.4	16.6	0.00e+00	0	39	0	732954624	60	5084
2026-01-17 08:56:17.61	29.21	28.16	-43.5	-46.2	17.8	0.00e+00	0	40	0	735051776	59	4675
2026-01-17 08:56:18.39	28.99	28.10	-43.6	-46.4	17.6	0.00e+00	0	39	0	736100352	58	5051
2026-01-17 08:56:19.56	28.65	28.00	-44.0	-46.9	17.2	0.00e+00	0	39	0	738197504	58	5349
2026-01-17 08:56:20.42	28.41	27.93	-44.8	-48.1	16.2	0.00e+00	0	39	0	740294656	60	5476
2026-01-17 08:56:21.56	28.09	27.83	-45.7	-49.5	14.7	7.00e-07	0	39	0	742391808	61	6079
2026-01-17 08:56:22.41	27.85	27.76	-45.9	-49.8	14.5	0.00e+00	0	40	0	743440384	62	5936
2026-01-17 08:56:23.55	27.54	27.66	-46.2	-50.2	14.4	0.00e+00	0	39	0	745537536	63	5880
2026-01-17 08:56:24.40	27.30	27.59	-45.9	-49.7	14.6	0.00e+00	0	39	0	747634688	63	5538
2026-01-17 08:56:25.54	26.99	27.49	-45.7	-49.3	14.9	0.00e+00	0	39	0	749731840	63	5316
2026-01-17 08:56:26.39	26.75	27.41	-45.4	-48.9	15.4	0.00e+00	0	39	0	750780416	62	5364
2026-01-17 08:56:27.53	26.44	27.31	-44.8	-47.9	16.2	0.00e+00	0	39	0	752877568	61	5085
2026-01-17 08:56:28.38	26.21	27.24	-44.5	-47.5	16.7	0.00e+00	0	39	0	754974720	61	4830
2026-01-17 08:56:29.52	25.91	27.14	-44.6	-47.6	16.6	0.00e+00	0	40	0	757071872	60	5165
2026-01-17 08:56:30.37	25.68	27.06	-44.5	-47.5	16.7	0.00e+00	0	39	0	759169024	60	5157
2026-01-17 08:56:31.50	25.38	26.96	-44.6	-47.6	16.6	0.00e+00	0	39	0	761266176	60	5181
2026-01-17 08:56:32.36	25.15	26.88	-44.4	-47.4	16.8	0.00e+00	0	39	0	762314752	60	5070
2026-01-17 08:56:33.49	24.86	26.78	-44.0	-46.7	17.4	0.00e+00	0	39	0	764411904	60	4695
2026-01-17 08:56:34.35	24.63	26.70	-43.6	-46.2	17.8	0.00e+00	0	39	0	766509056	59	4695
2026-01-17 08:56:35.48	24.34	26.60	-43.2	-45.7	18.3	0.00e+00	0	39	0	768606208	58	4659
2026-01-17 08:56:36.33	24.12	26.52	-43.1	-45.6	18.3	0.00e+00	0	39	0	769654784	58	4637
2026-01-17 08:56:37.47	23.82	26.42	-43.4	-46.0	18.1	0.00e+00	0	39	0	771751936	58	4822
2026-01-17 08:56:38.32	23.61	26.34	-43.4	-45.9	18.1	0.00e+00	0	39	0	773849088	58	4793
2026-01-17 08:56:39.46	23.32	26.23	-43.1	-45.6	18.3	0.00e+00	0	39	0	775946240	58	4631
2026-01-17 08:56:40.31	23.10	26.15	-43.3	-45.8	18.1	0.00e+00	0	39	0	776994816	58	4752
2026-01-17 08:56:41.45	22.82	26.05	-43.4	-46.1	17.9	0.00e+00	0	39	0	779091968	58	4872
2026-01-17 08:56:42.30	22.60	25.97	-43.4	-46.0	18.0	0.00e+00	0	39	0	781189120	58	4860
2026-01-17 08:56:43.44	22.32	25.86	-43.5	-46.2	17.8	0.00e+00	0	39	0	783286272	58	4962
2026-01-17 08:56:44.29	22.11	25.78	-43.6	-46.4	17.6	0.00e+00	0	40	0	784334848	58	5067
2026-01-17 08:56:45.43	21.83	25.67	-43.6	-46.4	17.7	0.00e+00	0	39	0	786432000	58	5057
2026-01-17 08:56:46.28	21.62	25.59	-43.8	-46.6	17.5	0.00e+00	0	39	0	788529152	58	5191
2026-01-17 08:56:47.42	21.35	25.49	-43.5	-46.2	17.8	0.00e+00	0	39	0	790626304	58	4959
2026-01-17 08:56:48.27	21.14	25.41	-43.5	-46.3	17.7	0.00e+00	0	39	0	792723456	58	4999
2026-01-17 08:56:49.41	20.87	25.30	-43.6	-46.4	17.6	0.00e+00	0	39	0	794820608	58	5072
2026-01-17 08:56:50.26	20.67	25.22	-43.7	-46.6	17.4	0.00e+00	0	39	0	795869184	58	5172
2026-01-17 08:56:51.51	20.37	25.10	-43.7	-46.5	17.5	0.00e+00	0	39	0	797966336	58	5159
2026-01-17 08:56:52.36	20.17	25.02	-43.7	-46.6	17.6	0.00e+00	0	39	0	800063488	58	5165
2026-01-17 08:56:53.50	19.91	24.91	-43.5	-46.2	17.8	0.00e+00	0	39	0	802160640	58	4972
2026-01-17 08:56:54.35	19.71	24.83	-43.3	-45.9	18.1	0.00e+00	0	39	0	803209216	58	4812
2026-01-17 08:56:55.49	19.45	24.72	-42.9	-45.4	18.5	0.00e+00	0	39	0	805306368	57	4763
2026-01-17 08:56:56.37	19.25	24.63	-42.6	-45.0	18.9	0.00e+00	0	39	0	807403520	57	4589
2026-01-17 08:56:57.68	18.95	24.51	-42.1	-44.4	19.4	0.00e+00	0	39	0	809500672	56	4540
2026-01-17 08:56:58.39	18.79	24.44	-42.1	-44.4	19.5	0.00e+00	0	39	0	811597824	56	4515
2026-01-17 08:56:59.67	18.50	24.31	-42.0	-44.3	19.6	0.00e+00	0	39	0	813694976	56	4446
2026-01-17 08:57:00.39	18.34	24.24	-41.8	-44.1	19.6	0.00e+00	0	39	0	814743552	55	4614
2026-01-17 08:57:01.67	18.06	24.12	-42.2	-44.6	19.1	0.00e+00	0	39	0	817889280	55	4910
2026-01-17 08:57:02.43	17.89	24.05	-42.5	-44.9	18.9	0.00e+00	0	39	0	818937856	55	5081
2026-01-17 08:57:03.71	17.61	23.92	-43.0	-45.6	18.4	0.00e+00	0	39	0	821035008	56	5178
2026-01-17 08:57:04.50	17.43	23.85	-43.2	-45.8	18.2	0.00e+00	0	39	0	823132160	57	5002
2026-01-17 08:57:05.71	17.17	23.73	-42.8	-45.4	18.6	0.00e+00	0	39	0	825229312	57	4761
2026-01-17 08:57:06.57	16.99	23.64	-42.5	-45.0	19.0	0.00e+00	0	39	0	826277888	56	4827
2026-01-17 08:57:07.70	16.75	23.54	-42.4	-44.8	19.1	0.00e+00	0	39	0	828375040	56	4746
2026-01-17 08:57:08.73	16.53	23.43	-42.4	-44.7	19.2	0.00e+00	0	39	0	830472192	56	4694
2026-01-17 08:57:09.90	16.28	23.32	-42.5	-44.9	19.1	0.00e+00	0	39	0	832569344	56	4768
2026-01-17 08:57:10.80	16.09	23.23	-42.6	-45.0	19.0	0.00e+00	0	39	0	834666496	56	4816
2026-01-17 08:57:11.98	15.85	23.12	-42.7	-45.1	18.9	0.00e+00	0	39	0	836763648	56	4906
2026-01-17 08:57:12.83	15.67	23.03	-42.7	-45.1	18.9	0.00e+00	0	39	0	837812224	56	4885
2026-01-17 08:57:14.11	15.41	22.91	-42.6	-45.0	18.9	0.00e+00	0	39	0	840957952	56	4854
2026-01-17 08:57:14.83	15.26	22.84	-42.6	-45.0	19.0	0.00e+00	0	39	0	842006528	56	4837
2026-01-17 08:57:16.11	15.00	22.71	-42.8	-45.2	18.7	0.00e+00	0	39	0	844103680	56	4977
2026-01-17 08:57:17.23	14.78	22.61	-42.8	-45.3	18.7	0.00e+00	0	39	0	846200832	56	4984
2026-01-17 08:57:18.08	14.61	22.52	-43.0	-45.5	18.5	0.00e+00	0	39	0	848297984	56	5135
2026-01-17 08:57:19.22	14.38	22.41	-43.0	-45.5	18.6	0.00e+00	0	39	0	850395136	56	5106
2026-01-17 08:57:20.40	14.15	22.30	-42.6	-45.0	18.9	0.00e+00	0	39	0	852492288	56	4848
2026-01-17 08:57:21.25	13.98	22.21	-42.5	-44.8	19.1	0.00e+00	0	39	0	854589440	56	4754
2026-01-17 08:57:22.39	13.76	22.10	-42.3	-44.7	19.2	0.00e+00	0	39	0	856686592	56	4664
2026-01-17 08:57:23.24	13.60	22.02	-42.3	-44.6	19.3	0.00e+00	0	39	0	857735168	56	4645
2026-01-17 08:57:24.38	13.38	21.91	-42.5	-44.8	19.1	0.00e+00	0	39	0	859832320	56	4727
2026-01-17 08:57:25.23	13.22	21.82	-42.8	-45.2	18.8	0.00e+00	0	39	0	861929472	56	4928
2026-01-17 08:57:26.37	13.00	21.71	-42.8	-45.2	18.7	0.00e+00	0	39	0	864026624	56	4979
2026-01-17 08:57:27.22	12.84	21.63	-42.9	-45.3	18.6	0.00e+00	0	39	0	865075200	56	5026
2026-01-17 08:57:28.41	12.62	21.51	-42.9	-45.4	18.6	0.00e+00	0	39	0	867172352	57	4778
2026-01-17 08:57:29.26	12.46	21.43	-42.9	-45.4	18.5	0.00e+00	0	39	0	869269504	57	4796
2026-01-17 08:57:30.40	12.25	21.32	-43.0	-45.5	18.5	0.00e+00	0	39	0	871366656	57	4832
2026-01-17 08:57:31.25	12.09	21.24	-42.9	-45.4	18.6	0.00e+00	0	39	0	872415232	57	4761
2026-01-17 08:57:32.39	11.88	21.13	-42.8	-45.3	18.6	0.00e+00	0	39	0	875560960	57	4741
2026-01-17 08:57:33.24	11.73	21.04	-42.9	-45.4	18.6	0.00e+00	0	39	0	876609536	57	4767
2026-01-17 08:57:34.38	11.52	20.93	-42.9	-45.5	18.5	0.00e+00	0	39	0	878706688	57	4828
2026-01-17 08:57:35.23	11.37	20.85	-42.9	-45.4	18.5	0.00e+00	0	39	0	880803840	57	4813
2026-01-17 08:57:36.37	11.17	20.74	-42.9	-45.5	18.5	0.00e+00	0	39	0	882900992	57	4841
2026-01-17 08:57:37.22	11.02	20.66	-42.9	-45.5	18.5	0.00e+00	0	39	0	883949568	57	4845
2026-01-17 08:57:38.36	10.82	20.55	-43.1	-45.8	18.2	0.00e+00	0	39	0	886046720	57	4997
2026-01-17 08:57:39.21	10.67	20.47	-43.1	-45.7	18.3	0.00e+00	0	39	0	888143872	57	4966
2026-01-17 08:57:40.34	10.47	20.36	-43.3	-45.9	18.2	0.00e+00	0	39	0	890241024	57	5080
2026-01-17 08:57:41.20	10.33	20.27	-43.6	-46.3	17.7	0.00e+00	0	39	0	891289600	57	5335
2026-01-17 08:57:42.33	10.13	20.17	-43.8	-46.6	17.4	0.00e+00	0	39	0	893386752	58	5216
2026-01-17 08:57:43.19	9.99	20.08	-43.9	-46.9	17.2	0.00e+00	0	39	0	895483904	58	5367
2026-01-17 08:57:44.32	9.80	19.97	-44.0	-47.1	17.1	0.00e+00	0	39	0	897581056	58	5477
2026-01-17 08:57:45.17	9.65	19.89	-44.1	-47.2	16.8	0.00e+00	0	39	0	898629632	59	5271
2026-01-17 08:57:46.31	9.46	19.78	-43.7	-46.6	17.4	0.00e+00	0	39	0	900726784	59	4924
2026-01-17 08:57:47.16	9.32	19.70	-43.5	-46.4	17.6	0.00e+00	0	39	0	902823936	59	4812
2026-01-17 08:57:48.30	9.13	19.59	-43.2	-46.0	18.0	0.00e+00	0	39	0	904921088	58	4832
2026-01-17 08:57:49.15	8.99	19.51	-43.2	-45.8	18.2	0.00e+00	0	39	0	905969664	58	4758
2026-01-17 08:57:50.43	8.79	19.39	-43.2	-45.9	18.1	0.00e+00	0	39	0	909115392	58	4771
2026-01-17 08:57:51.14	8.67	19.32	-43.2	-45.8	18.2	0.00e+00	0	39	0	910163968	58	4749
2026-01-17 08:57:52.42	8.47	19.20	-43.4	-46.0	18.0	0.00e+00	0	39	0	912261120	58	4866
2026-01-17 08:57:53.14	8.35	19.13	-43.6	-46.4	17.6	0.00e+00	0	40	0	914358272	58	5052
2026-01-17 08:57:54.42	8.15	19.01	-43.5	-46.3	17.7	0.00e+00	0	39	0	916455424	58	5017
2026-01-17 08:57:55.18	8.03	18.94	-43.5	-46.4	17.7	0.00e+00	0	39	0	917504000	58	5046
2026-01-17 08:57:56.76	7.78	18.79	-43.7	-46.7	17.3	0.00e+00	0	39	0	920649728	58	5236
2026-01-17 08:57:57.40	7.68	18.73	-43.2	-46.1	17.9	0.00e+00	0	39	0	921698304	58	4888
2026-01-17 08:57:58.82	7.46	18.59	-43.2	-46.0	18.0	0.00e+00	0	39	0	924844032	58	4819
2026-01-17 08:57:59.54	7.35	18.53	-43.3	-46.0	18.0	0.00e+00	0	39	0	925892608	58	4859
2026-01-17 08:58:00.82	7.16	18.41	-43.1	-45.7	18.3	0.00e+00	0	39	0	927989760	58	4667
2026-01-17 08:58:01.53	7.05	18.34	-43.0	-45.6	18.4	0.00e+00	0	39	0	930086912	57	4873
2026-01-17 08:58:02.81	6.86	18.22	-43.1	-45.7	18.2	0.00e+00	0	39	0	932184064	57	4965
2026-01-17 08:58:03.53	6.75	18.15	-43.0	-45.6	18.4	0.00e+00	0	39	0	933232640	57	4900
2026-01-17 08:58:04.81	6.56	18.03	-43.1	-45.7	18.3	0.00e+00	0	39	0	935329792	57	4929
2026-01-17 08:58:05.52	6.46	17.97	-43.2	-45.8	18.1	0.00e+00	0	39	0	937426944	57	5029
2026-01-17 08:58:06.80	6.27	17.85	-43.1	-45.8	18.2	0.00e+00	0	39	0	939524096	57	5000
2026-01-17 08:58:07.54	6.16	17.78	-43.2	-45.9	18.1	0.00e+00	0	39	0	940572672	57	5094
2026-01-17 08:58:08.82	5.97	17.66	-43.3	-45.9	18.0	0.00e+00	0	39	0	943718400	57	5096
2026-01-17 08:58:09.55	5.87	17.59	-43.2	-45.9	18.1	0.00e+00	0	39	0	944766976	57	5081
2026-01-17 08:58:10.83	5.69	17.47	-43.0	-45.6	18.3	0.00e+00	0	39	0	946864128	57	4924
2026-01-17 08:58:11.55	5.58	17.41	-43.2	-45.9	18.0	0.00e+00	0	39	0	948961280	57	5075
2026-01-17 08:58:12.83	5.40	17.29	-43.1	-45.7	18.2	0.00e+00	0	39	0	951058432	57	4980
2026-01-17 08:58:13.67	5.29	17.21	-43.0	-45.6	18.3	0.00e+00	0	39	0	952107008	57	4894
2026-01-17 08:58:15.14	5.08	17.08	-42.9	-45.5	18.4	0.00e+00	0	39	0	955252736	57	4863
2026-01-17 08:58:15.85	4.98	17.01	-42.9	-45.5	18.4	0.00e+00	0	39	0	956301312	57	4838
2026-01-17 08:58:17.12	4.81	16.89	-42.7	-45.3	18.6	0.00e+00	0	39	0	958398464	57	4741
2026-01-17 08:58:17.84	4.71	16.83	-42.8	-45.5	18.4	0.00e+00	0	39	0	960495616	57	4822
2026-01-17 08:58:19.12	4.54	16.71	-43.0	-45.7	18.3	0.00e+00	0	39	0	962592768	57	4927
2026-01-17 08:58:19.83	4.44	16.65	-43.2	-45.9	18.1	0.00e+00	0	39	0	963641344	57	5074
2026-01-17 08:58:21.11	4.27	16.53	-43.8	-46.6	17.4	0.00e+00	0	39	0	966787072	58	5189
2026-01-17 08:58:21.89	4.16	16.46	-44.2	-47.1	16.9	0.00e+00	0	39	0	967835648	59	5210
2026-01-17 08:58:23.08	4.01	16.35	-44.8	-48.1	16.1	0.00e+00	0	39	0	969932800	60	5475
2026-01-17 08:58:23.93	3.90	16.28	-45.0	-48.4	15.8	0.00e+00	0	39	0	972029952	60	5662
2026-01-17 08:58:25.07	3.75	16.17	-45.3	-48.9	15.3	0.00e+00	0	39	0	974127104	61	5692
2026-01-17 08:58:25.92	3.64	16.10	-45.2	-48.8	15.4	0.00e+00	0	39	0	975175680	61	5611
2026-01-17 08:58:27.06	3.49	16.00	-44.7	-48.1	16.0	0.00e+00	0	39	0	977272832	61	5177
2026-01-17 08:58:27.91	3.38	15.92	-44.4	-47.7	16.5	0.00e+00	0	39	0	979369984	60	5219
2026-01-17 08:58:29.05	3.23	15.82	-44.0	-47.0	17.1	0.00e+00	0	39	0	981467136	60	4834
2026-01-17 08:58:29.90	3.13	15.74	-43.8	-46.5	17.4	0.00e+00	0	39	0	982515712	59	4867
2026-01-17 08:58:31.04	2.98	15.64	-43.3	-45.9	18.0	0.00e+00	0	39	0	984612864	58	4809
2026-01-17 08:58:31.89	2.88	15.57	-43.3	-45.9	18.1	0.00e+00	0	39	0	986710016	58	4797
2026-01-17 08:58:33.11	2.72	15.46	-43.2	-45.7	18.2	0.00e+00	0	39	0	988807168	58	4680
2026-01-17 08:58:33.96	2.62	15.38	-43.3	-45.9	18.1	0.00e+00	0	39	0	990904320	58	4792
2026-01-17 08:58:35.10	2.48	15.28	-43.4	-46.2	17.8	0.00e+00	0	39	0	993001472	58	4936
2026-01-17 08:58:36.43	2.32	15.16	-43.5	-46.4	17.6	0.00e+00	0	40	0	995098624	58	5065
2026-01-17 08:58:37.14	2.23	15.10	-43.8	-46.9	17.2	0.00e+00	0	39	0	996147200	58	5344
2026-01-17 08:58:38.41	2.08	14.99	-44.1	-47.3	16.7	0.00e+00	0	39	0	999292928	58	5654
2026-01-17 08:58:39.13	1.99	14.93	-44.3	-47.7	16.4	0.00e+00	0	39	0	1000341504	59	5571
2026-01-17 08:58:40.44	1.83	14.81	-44.5	-47.9	16.2	0.00e+00	0	39	0	1002438656	59	5663
2026-01-17 08:58:41.15	1.75	14.75	-44.7	-48.3	15.9	0.00e+00	0	39	0	1003487232	60	5606
2026-01-17 08:58:42.52	1.59	14.63	-44.8	-48.1	16.0	0.00e+00	0	39	0	1006632960	60	5497
2026-01-17 08:58:43.23	1.51	14.57	-44.8	-48.1	16.1	0.00e+00	0	39	0	1007681536	60	5476
2026-01-17 08:58:44.57	1.35	14.46	-44.7	-48.0	16.1	0.00e+00	0	39	0	1010827264	60	5419
2026-01-17 08:58:45.28	1.27	14.39	-44.6	-47.8	16.4	0.00e+00	0	39	0	1011875840	60	5283
2026-01-17 08:58:46.62	1.11	14.28	-44.6	-47.8	16.3	0.00e+00	0	39	0	1013972992	60	5304
2026-01-17 08:58:47.33	1.03	14.22	-44.6	-47.8	16.3	0.00e+00	0	39	0	1015021568	60	5314
2026-01-17 08:58:48.61	0.89	14.11	-44.5	-47.7	16.4	0.00e+00	0	39	0	1018167296	60	5258
2026-01-17 08:58:49.70	0.77	14.02	-44.5	-47.7	16.4	0.00e+00	0	39	0	1020264448	60	5225
2026-01-17 08:58:50.85	0.64	13.92	-44.6	-48.0	16.1	0.00e+00	0	39	0	1022361600	60	5437
2026-01-17 08:58:51.70	0.54	13.84	-44.5	-47.8	16.3	0.00e+00	0	39	0	1023410176	60	5313
2026-01-17 08:58:52.84	0.42	13.75	-44.4	-47.7	16.4	0.00e+00	0	39	0	1025507328	60	5236
2026-01-17 08:58:53.70	0.32	13.68	-44.6	-47.8	16.2	0.00e+00	0	39	0	1027604480	60	5332
2026-01-17 08:58:54.83	0.20	13.58	-44.6	-47.8	16.2	0.00e+00	0	39	0	1029701632	60	5317
2026-01-17 08:58:55.68	0.11	13.51	-44.7	-47.9	16.2	0.00e+00	0	39	0	1030750208	60	5355
2026-01-17 08:58:56.82	359.98	13.41	-44.7	-48.0	16.1	0.00e+00	0	39	0	1032847360	60	5406
2026-01-17 08:58:57.67	359.89	13.34	-44.8	-48.0	16.1	0.00e+00	0	40	0	1034944512	60	5445
2026-01-17 08:58:58.81	359.77	13.25	-44.8	-48.0	16.1	0.00e+00	0	39	0	1037041664	60	5456
2026-01-17 08:58:59.66	359.68	13.17	-44.8	-48.1	16.0	0.00e+00	0	39	0	1039138816	60	5486
2026-01-17 08:59:00.93	359.55	13.07	-44.9	-48.4	15.6	0.00e+00	0	39	0	1041235968	60	5660
2026-01-17 08:59:01.73	359.46	13.00	-44.7	-48.2	15.9	0.00e+00	0	39	0	1042284544	60	5542
2026-01-17 08:59:02.98	359.33	12.90	-44.7	-48.3	15.8	0.00e+00	0	39	0	1044381696	60	5628
2026-01-17 08:59:03.83	359.24	12.83	-44.7	-48.2	15.9	0.00e+00	0	39	0	1046478848	60	5579
2026-01-17 08:59:05.01	359.12	12.73	-44.5	-48.0	16.1	0.00e+00	0	39	0	1048576000	60	5414
2026-01-17 08:59:05.87	359.03	12.66	-44.4	-47.9	16.2	0.00e+00	0	39	0	1050673152	60	5345
2026-01-17 08:59:07.00	358.92	12.57	-44.3	-47.6	16.5	0.00e+00	0	39	0	1052770304	60	5172
2026-01-17 08:59:07.86	358.83	12.50	-44.1	-47.2	16.8	0.00e+00	0	40	0	1053818880	60	4975
2026-01-17 08:59:09.00	358.72	12.40	-44.1	-47.2	16.9	0.00e+00	0	39	0	1055916032	60	4938
2026-01-17 08:59:09.85	358.63	12.33	-44.0	-46.9	17.1	0.00e+00	0	39	0	1058013184	60	4799
2026-01-17 08:59:11.16	358.50	12.23	-44.1	-47.0	17.0	0.00e+00	0	39	0	1060110336	59	5103
2026-01-17 08:59:11.87	358.43	12.17	-44.0	-46.8	17.1	0.00e+00	0	39	0	1061158912	59	5021
2026-01-17 08:59:13.15	358.31	12.06	-44.0	-46.9	17.0	0.00e+00	0	39	0	1064304640	59	5079
2026-01-17 08:59:13.87	358.24	12.01	-44.2	-47.2	16.7	0.00e+00	0	40	0	1065353216	59	5267
2026-01-17 08:59:15.15	358.11	11.90	-44.3	-47.6	16.4	0.00e+00	0	39	0	1067450368	59	5465
2026-01-17 08:59:15.86	358.04	11.85	-44.3	-47.7	16.3	0.00e+00	0	39	0	1068498944	59	5558
2026-01-17 08:59:17.14	357.92	11.74	-44.5	-48.1	16.0	0.00e+00	0	39	0	1071644672	59	5791
2026-01-17 08:59:17.87	357.85	11.68	-44.7	-48.5	15.5	0.00e+00	0	39	0	1072693248	60	5781
2026-01-17 08:59:19.14	357.73	11.58	-45.0	-49.2	14.9	0.00e+00	0	39	0	1074790400	60	6250
2026-01-17 08:59:20.06	357.64	11.51	-45.0	-49.4	14.7	0.00e+00	0	39	0	1076887552	60	6351
2026-01-17 08:59:21.06	357.55	11.43	-45.4	-50.0	14.1	7.00e-07	0	39	0	1078984704	61	6476
2026-01-17 08:59:22.05	357.46	11.35	-45.5	-50.2	13.9	3.00e-06	0	39	0	1081081856	61	6584
2026-01-17 08:59:23.04	357.36	11.27	-45.7	-50.5	13.6	5.30e-06	0	39	0	1082130432	61	6848
2026-01-17 08:59:24.04	357.27	11.19	-45.9	-50.8	13.3	1.29e-05	0	39	0	1084227584	62	6678
2026-01-17 08:59:25.03	357.18	11.12	-45.8	-50.5	13.6	8.30e-06	0	39	0	1086324736	62	6486
2026-01-17 08:59:26.03	357.09	11.04	-45.9	-50.6	13.5	1.44e-05	0	39	0	1088421888	62	6541
2026-01-17 08:59:27.02	357.00	10.96	-45.7	-50.3	13.8	1.44e-05	0	39	0	1089470464	62	6311
2026-01-17 08:59:28.01	356.91	10.88	-45.7	-50.3	13.8	1.50e-06	0	40	0	1091567616	62	6295
2026-01-17 08:59:29.01	356.82	10.80	-45.5	-49.9	14.2	7.00e-07	0	39	0	1093664768	62	6034
2026-01-17 08:59:30.01	356.73	10.73	-45.3	-49.9	14.2	1.50e-06	0	40	0	1095761920	62	6027
2026-01-17 08:59:31.00	356.64	10.65	-45.1	-49.6	14.4	7.00e-07	0	40	0	1097859072	62	5848
2026-01-17 08:59:31.99	356.56	10.57	-45.0	-49.5	14.5	0.00e+00	0	40	0	1098907648	61	6120
2026-01-17 08:59:32.98	356.47	10.49	-44.7	-49.1	14.9	7.00e-07	0	39	0	1101004800	61	5851
2026-01-17 08:59:33.98	356.38	10.42	-44.5	-49.0	15.0	0.00e+00	0	40	0	1103101952	61	5775
2026-01-17 08:59:34.97	356.30	10.34	-44.5	-49.0	15.1	0.00e+00	0	40	0	1105199104	60	6091
2026-01-17 08:59:35.97	356.21	10.26	-44.2	-48.8	15.2	0.00e+00	0	40	0	1106247680	60	5991
2026-01-17 08:59:36.96	356.12	10.19	-44.1	-48.8	15.2	0.00e+00	0	40	0	1108344832	60	5945
2026-01-17 08:59:37.95	356.04	10.11	-44.0	-48.4	15.5	0.00e+00	0	39	0	1110441984	59	6044
2026-01-17 08:59:38.98	355.95	10.03	-43.8	-48.2	15.7	0.00e+00	0	40	0	1112539136	59	5883
2026-01-17 08:59:39.98	355.87	9.96	-43.7	-48.2	15.6	0.00e+00	0	40	0	1114636288	59	5921
2026-01-17 08:59:40.97	355.78	9.88	-43.6	-48.1	15.8	0.00e+00	0	39	0	1115684864	59	5796
2026-01-17 08:59:41.97	355.70	9.81	-43.2	-48.0	15.9	0.00e+00	0	39	0	1117782016	58	6081
2026-01-17 08:59:42.96	355.62	9.73	-42.9	-47.9	16.0	0.00e+00	0	39	0	1119879168	57	6392
2026-01-17 08:59:43.96	355.54	9.66	-42.7	-47.8	16.1	0.00e+00	0	39	0	1121976320	57	6287
2026-01-17 08:59:44.95	355.45	9.58	-42.5	-47.7	16.2	0.00e+00	0	39	0	1124073472	57	6205
2026-01-17 08:59:45.95	355.37	9.51	-42.4	-47.6	16.2	0.00e+00	0	39	0	1125122048	56	6537
2026-01-17 08:59:46.94	355.29	9.43	-42.3	-47.5	16.3	0.00e+00	0	40	0	1127219200	56	6456
2026-01-17 08:59:47.94	355.21	9.36	-42.3	-47.6	16.2	0.00e+00	0	40	0	1129316352	56	6567
2026-01-17 08:59:48.93	355.13	9.28	-42.5	-47.9	16.0	0.00e+00	0	40	0	1131413504	56	6756
2026-01-17 08:59:49.93	355.05	9.21	-42.6	-47.8	16.1	0.00e+00	0	40	0	1132462080	56	6683
2026-01-17 08:59:50.92	354.97	9.13	-42.9	-48.0	15.9	0.00e+00	0	40	0	1134559232	56	6840
2026-01-17 08:59:51.92	354.89	9.06	-43.2	-48.1	15.7	0.00e+00	0	40	0	1136656384	57	6545
2026-01-17 08:59:52.96	354.81	8.98	-45.9	-59.1	5.9	4.23e-04	0	39	0	1138753536	62	17443
2026-01-17 08:59:53.95	354.73	8.91	-48.1	-65.4	3.8	1.49e+00	0	39	104	1138753536	67	26862
2026-01-17 08:59:54.95	354.66	8.84	-49.7	-65.6	3.8	1.49e+00	0	39	104	1138753536	70	23087
2026-01-17 08:59:55.94	354.58	8.76	-49.8	-65.7	3.8	1.49e+00	0	39	104	1138753536	70	23391
2026-01-17 08:59:56.94	354.50	8.69	-50.3	-65.7	3.8	1.49e+00	0	40	104	1138753536	71	22198
2026-01-17 08:59:57.93	354.43	8.62	-49.9	-65.8	3.8	1.49e+00	0	39	104	1138753536	71	22467
2026-01-17 08:59:58.92	354.35	8.55	-50.4	-65.8	3.8	1.49e+00	0	39	104	1138753536	71	22484
2026-01-17 08:59:59.92	354.27	8.47	-50.3	-65.9	3.8	1.49e+00	0	40	104	1138753536	71	22556
2026-01-17 09:00:00.91	354.20	8.40	-50.5	-65.9	3.8	1.49e+00	0	39	104	1138753536	71	22662
2026-01-17 09:00:01.90	354.12	8.33	-50.4	-65.9	3.8	1.49e+00	0	40	104	1138753536	71	22693
2026-01-17 09:00:02.89	354.05	8.26	-50.1	-65.9	3.8	1.49e+00	0	39	104	1138753536	71	22708
2026-01-17 09:00:03.89	353.98	8.18	-50.6	-65.9	3.8	1.49e+00	0	39	104	1138753536	72	21419
2026-01-17 09:00:04.88	353.90	8.11	-50.5	-65.9	3.8	1.49e+00	0	40	104	1138753536	72	21455
2026-01-17 09:00:05.88	353.83	8.04	-50.5	-65.9	3.8	1.49e+00	0	40	104	1138753536	72	21423
2026-01-17 09:00:06.87	353.76	7.97	-50.6	-65.9	3.8	1.49e+00	0	40	104	1138753536	72	21493
2026-01-17 09:00:07.86	353.68	7.90	-50.7	-66.0	3.8	1.49e+00	0	39	104	1138753536	72	21561
2026-01-17 09:00:08.86	353.61	7.83	-50.6	-66.0	3.8	1.49e+00	0	40	104	1138753536	72	21516
2026-01-17 09:00:09.85	353.54	7.76	-50.7	-65.9	3.8	1.49e+00	0	40	104	1138753536	72	21431
2026-01-17 09:00:10.84	353.47	7.69	-50.4	-66.0	3.8	1.49e+00	0	39	104	1138753536	72	21511
2026-01-17 09:00:11.84	353.40	7.62	-50.4	-65.9	3.8	1.49e+00	0	39	104	1138753536	72	21491
2026-01-17 09:00:12.83	353.33	7.55	-50.4	-66.0	3.8	1.49e+00	0	39	104	1138753536	72	21540
2026-01-17 09:00:13.82	353.26	7.48	-50.7	-66.0	3.8	1.49e+00	0	39	104	1138753536	72	21578
2026-01-17 09:00:14.82	353.19	7.40	-50.7	-66.0	3.8	1.49e+00	0	39	104	1138753536	72	21626
2026-01-17 09:00:15.81	353.12	7.33	-50.7	-66.0	3.8	1.49e+00	0	40	104	1138753536	72	21591
2026-01-17 09:00:16.80	353.05	7.27	-50.7	-66.0	3.8	1.49e+00	0	40	104	1138753536	72	21580
2026-01-17 09:00:17.80	352.98	7.20	-50.7	-66.0	3.8	1.49e+00	0	40	104	1138753536	72	21626
2026-01-17 09:00:18.79	352.91	7.13	-50.7	-66.0	3.8	1.49e+00	0	39	104	1138753536	72	21661
2026-01-17 09:00:19.78	352.84	7.06	-50.6	-66.0	3.8	1.49e+00	0	40	104	1138753536	72	21580
2026-01-17 09:00:20.78	352.78	6.99	-50.6	-66.0	3.8	1.49e+00	0	40	104	1138753536	72	21589
2026-01-17 09:00:21.77	352.71	6.92	-50.5	-65.9	3.8	1.49e+00	0	40	104	1138753536	72	21444
2026-01-17 09:00:22.76	352.64	6.85	-50.4	-65.9	3.8	1.49e+00	0	39	104	1138753536	72	21506
2026-01-17 09:00:23.76	352.57	6.78	-50.4	-66.0	3.8	1.49e+00	0	40	104	1138753536	72	21558
2026-01-17 09:00:24.75	352.51	6.71	-50.4	-65.9	3.8	1.49e+00	0	40	104	1138753536	72	21457
2026-01-17 09:00:25.74	352.44	6.64	-50.4	-66.0	3.8	1.49e+00	0	40	104	1138753536	72	21513
2026-01-17 09:00:26.74	352.38	6.58	-50.4	-65.9	3.8	1.49e+00	0	40	104	1138753536	72	21483
2026-01-17 09:00:27.73	352.31	6.51	-50.4	-65.9	3.8	1.49e+00	0	40	104	1138753536	72	21399
2026-01-17 09:00:28.72	352.25	6.44	-50.4	-65.9	3.8	1.49e+00	0	40	104	1138753536	72	21506
2026-01-17 09:00:29.72	352.18	6.37	-50.4	-66.0	3.8	1.49e+00	0	40	104	1138753536	72	21525
2026-01-17 09:00:30.71	352.12	6.30	-50.4	-65.9	3.8	1.49e+00	0	40	104	1138753536	72	21423
2026-01-17 09:00:31.70	352.05	6.24	-50.4	-65.9	3.8	1.49e+00	0	39	104	1138753536	72	21451
2026-01-17 09:00:32.70	351.99	6.17	-50.4	-66.0	3.8	1.49e+00	0	40	104	1138753536	72	21523
2026-01-17 09:00:33.69	351.92	6.10	-50.3	-65.9	3.8	1.49e+00	0	40	104	1138753536	72	21430
2026-01-17 09:00:34.68	351.86	6.03	-50.4	-65.9	3.8	1.49e+00	0	40	104	1138753536	72	21456
2026-01-17 09:00:35.68	351.80	5.97	-50.4	-65.9	3.8	1.49e+00	0	40	104	1138753536	72	21463
2026-01-17 09:00:36.67	351.74	5.90	-50.4	-65.9	3.8	1.49e+00	0	40	104	1138753536	72	21389
2026-01-17 09:00:37.66	351.67	5.83	-50.4	-65.9	3.8	1.49e+00	0	39	104	1138753536	72	21416
2026-01-17 09:00:38.66	351.61	5.77	-50.4	-65.9	3.8	1.49e+00	0	40	104	1138753536	72	21420
2026-01-17 09:00:39.65	351.55	5.70	-50.4	-65.9	3.8	1.49e+00	0	39	104	1138753536	72	21443
2026-01-17 09:00:40.64	351.49	5.63	-50.4	-65.9	3.8	1.49e+00	0	40	104	1138753536	72	21423
2026-01-17 09:00:41.64	351.43	5.57	-50.4	-65.9	3.8	1.49e+00	0	39	104	1138753536	72	21401
