passes_logs/2026/01/17/T1/T1__20260117_003757_SUOMI_NPP_rec.log

#Pass ID: 20260117_003757_SUOMI NPP
#Satellite: SUOMI NPP
#Configuration: NPP
#almurnet v.1.7.20251203
#Start time: 2026-01-17 00:37:57

#Version: 2.0.20230620
#Station: T1
#Location: 37.570604 lon 55.790049 lat
#TLE: 1 37849U 11061A   26016.23176763  .00000061  00000+0  49926-4 0  9990
#TLE: 2 37849  98.7812 318.2698 0002434  61.5135 298.6286 14.19525545736883

#Time	Az	El	Level	Level2	SNR	BER	BlckErr	Temp	State	Recorded	gain1	gain2
2026-01-17 00:37:57.55	11.09	5.02	-49.9	-65.8	3.8	1.49e+00	0	41	0	0	70	23762
2026-01-17 00:37:58.54	11.05	5.08	-47.4	-65.5	3.8	1.49e+00	0	41	104	0	65	30490
2026-01-17 00:37:59.54	11.01	5.15	-47.4	-65.5	3.8	1.49e+00	0	42	104	0	65	30383
2026-01-17 00:38:00.53	10.97	5.22	-47.4	-65.5	3.8	1.49e+00	0	41	104	0	65	30409
2026-01-17 00:38:01.53	10.93	5.29	-47.4	-65.5	3.8	1.49e+00	0	42	104	0	65	30512
2026-01-17 00:38:02.53	10.89	5.36	-47.4	-65.5	3.8	1.49e+00	0	41	104	0	65	30477
2026-01-17 00:38:03.52	10.84	5.43	-47.4	-65.4	3.8	1.49e+00	0	42	104	0	65	30323
2026-01-17 00:38:04.52	10.80	5.50	-47.4	-65.4	3.8	1.49e+00	0	42	104	0	65	30347
2026-01-17 00:38:05.52	10.76	5.57	-47.4	-65.4	3.8	1.49e+00	0	41	104	0	65	30352
2026-01-17 00:38:06.51	10.72	5.64	-47.4	-65.5	3.8	1.49e+00	0	42	104	0	65	30466
2026-01-17 00:38:07.51	10.67	5.71	-47.4	-65.4	3.8	1.49e+00	0	42	104	0	65	30251
2026-01-17 00:38:08.51	10.63	5.78	-47.5	-65.5	3.8	1.49e+00	0	42	104	0	65	30442
2026-01-17 00:38:09.50	10.58	5.85	-47.5	-65.5	3.8	1.49e+00	0	42	104	0	65	30411
2026-01-17 00:38:10.50	10.54	5.92	-47.5	-65.4	3.8	1.49e+00	0	42	104	0	65	30294
2026-01-17 00:38:11.49	10.50	5.99	-47.4	-65.4	3.8	1.49e+00	0	42	104	0	65	30297
2026-01-17 00:38:12.49	10.45	6.06	-47.4	-65.4	3.8	1.49e+00	0	42	104	0	65	30248
2026-01-17 00:38:13.48	10.41	6.13	-47.4	-65.4	3.8	1.49e+00	0	42	104	0	65	30370
2026-01-17 00:38:14.48	10.36	6.20	-47.4	-65.4	3.8	1.49e+00	0	42	104	0	65	30275
2026-01-17 00:38:15.48	10.32	6.27	-47.4	-65.4	3.8	1.49e+00	0	42	104	0	65	30191
2026-01-17 00:38:16.47	10.27	6.34	-47.4	-65.4	3.8	1.49e+00	0	42	104	0	65	30035
2026-01-17 00:38:17.47	10.23	6.41	-47.4	-65.3	3.8	1.49e+00	0	42	104	0	65	29808
2026-01-17 00:38:18.46	10.18	6.48	-47.4	-65.1	3.8	1.49e+00	0	42	104	0	65	29223
2026-01-17 00:38:19.46	10.13	6.56	-47.4	-64.9	3.8	1.49e+00	0	42	104	0	65	28442
2026-01-17 00:38:20.46	10.09	6.63	-47.4	-64.6	3.8	1.49e+00	0	42	104	0	65	27531
2026-01-17 00:38:21.46	10.04	6.70	-47.4	-64.2	3.8	1.49e+00	0	42	104	0	65	26415
2026-01-17 00:38:22.45	9.99	6.77	-47.4	-63.9	3.8	1.49e+00	0	42	104	0	65	25404
2026-01-17 00:38:23.45	9.95	6.84	-47.4	-63.7	3.8	1.49e+00	0	42	104	0	65	24717
2026-01-17 00:38:24.45	9.90	6.92	-47.4	-63.3	3.8	1.49e+00	0	42	104	0	65	23715
2026-01-17 00:38:25.44	9.85	6.99	-47.4	-63.2	3.8	1.49e+00	0	42	104	0	65	23401
2026-01-17 00:38:26.44	9.80	7.06	-47.4	-63.2	3.8	1.49e+00	0	42	104	0	65	23373
2026-01-17 00:38:27.44	9.76	7.14	-47.4	-63.1	3.8	1.48e+00	0	42	104	0	65	23102
2026-01-17 00:38:28.43	9.71	7.21	-47.4	-63.2	3.8	1.48e+00	0	42	104	0	65	23486
2026-01-17 00:38:29.43	9.66	7.28	-47.4	-63.6	3.8	1.49e+00	0	42	104	0	65	24444
2026-01-17 00:38:30.43	9.61	7.36	-47.4	-63.8	3.8	1.49e+00	0	42	104	0	65	25025
2026-01-17 00:38:31.42	9.56	7.43	-47.4	-64.2	3.8	1.49e+00	0	42	104	0	65	26364
2026-01-17 00:38:32.42	9.51	7.51	-47.4	-64.6	3.8	1.49e+00	0	42	104	0	65	27690
2026-01-17 00:38:33.42	9.46	7.58	-47.4	-65.0	3.8	1.49e+00	0	42	104	0	65	28744
2026-01-17 00:38:34.42	9.41	7.66	-47.4	-65.3	3.8	1.49e+00	0	42	104	0	65	29765
2026-01-17 00:38:35.41	9.36	7.73	-47.4	-65.4	3.8	1.49e+00	0	42	104	0	65	30179
2026-01-17 00:38:36.41	9.31	7.81	-47.4	-65.2	3.8	1.49e+00	0	42	104	0	65	29605
2026-01-17 00:38:37.41	9.26	7.88	-47.4	-64.4	3.8	1.49e+00	0	42	104	0	65	27060
2026-01-17 00:38:38.41	9.21	7.96	-47.4	-63.0	3.8	1.49e+00	0	42	104	0	65	22810
2026-01-17 00:38:39.40	9.16	8.03	-47.3	-60.7	4.6	1.40e+00	0	42	0	0	65	17655
2026-01-17 00:38:40.40	9.10	8.11	-47.1	-58.5	5.9	4.95e-01	0	42	0	2097152	65	13644
2026-01-17 00:38:41.40	9.05	8.19	-46.8	-56.7	7.4	1.91e-01	0	42	0	4194304	65	11096
2026-01-17 00:38:42.39	9.00	8.26	-46.6	-55.1	9.0	4.91e-02	0	42	0	5242880	65	9198
2026-01-17 00:38:43.39	8.95	8.34	-46.2	-53.7	10.4	1.07e-02	0	42	0	7340032	64	8302
2026-01-17 00:38:44.39	8.89	8.41	-45.9	-52.3	11.9	6.05e-04	0	42	0	9437184	63	7496
2026-01-17 00:38:45.38	8.84	8.49	-45.6	-51.4	12.8	1.53e-04	0	42	0	11534336	63	6777
2026-01-17 00:38:46.38	8.79	8.57	-45.4	-50.9	13.3	2.05e-05	0	42	0	12582912	62	6775
2026-01-17 00:38:47.38	8.73	8.65	-45.2	-50.3	14.0	3.00e-06	0	43	0	14680064	62	6344
2026-01-17 00:38:48.38	8.68	8.72	-45.0	-50.0	14.3	0.00e+00	0	42	0	16777216	62	6092
2026-01-17 00:38:49.37	8.62	8.80	-45.0	-50.0	14.3	3.00e-06	0	43	0	18874368	61	6456
2026-01-17 00:38:50.37	8.57	8.88	-45.1	-50.2	14.0	1.50e-06	0	42	0	20971520	61	6644
2026-01-17 00:38:51.37	8.51	8.96	-45.4	-50.8	13.5	6.80e-06	0	42	0	22020096	61	7086
2026-01-17 00:38:52.37	8.46	9.04	-45.7	-51.7	12.5	1.44e-05	0	43	0	24117248	62	7453
2026-01-17 00:38:53.37	8.40	9.12	-46.5	-54.3	10.0	1.40e-03	0	43	0	26214400	63	9437
2026-01-17 00:38:54.37	8.35	9.20	-46.4	-53.9	10.0	8.71e-02	0	42	0	28311552	64	8504
2026-01-17 00:38:55.37	8.29	9.27	-44.6	-48.5	15.6	0.00e+00	0	43	0	30408704	61	5430
2026-01-17 00:38:56.37	8.23	9.35	-44.2	-47.6	16.6	0.00e+00	0	42	0	31457280	59	5511
2026-01-17 00:38:57.37	8.17	9.43	-46.4	-52.7	11.1	1.65e-02	0	42	0	33554432	64	7382
2026-01-17 00:38:58.37	8.12	9.51	-44.0	-47.4	16.8	0.00e+00	0	43	0	35651584	60	5061
2026-01-17 00:38:59.37	8.06	9.59	-44.1	-47.4	16.8	0.00e+00	0	42	0	37748736	60	5089
2026-01-17 00:39:00.37	8.00	9.67	-44.0	-47.3	16.9	0.00e+00	0	42	0	39845888	60	5022
2026-01-17 00:39:01.37	7.94	9.76	-44.0	-47.1	17.0	0.00e+00	0	42	0	40894464	59	5202
2026-01-17 00:39:02.38	7.88	9.84	-43.8	-46.9	17.2	0.00e+00	0	43	0	42991616	59	5047
2026-01-17 00:39:03.38	7.82	9.92	-44.0	-47.2	16.9	0.00e+00	0	43	0	45088768	59	5277
2026-01-17 00:39:04.38	7.76	10.00	-44.0	-47.2	17.0	0.00e+00	0	43	0	47185920	59	5219
2026-01-17 00:39:05.38	7.70	10.08	-43.9	-47.0	17.1	0.00e+00	0	42	0	48234496	59	5132
2026-01-17 00:39:06.38	7.64	10.16	-44.0	-47.2	17.0	0.00e+00	0	42	0	50331648	59	5219
2026-01-17 00:39:07.38	7.58	10.25	-44.0	-47.1	17.0	0.00e+00	0	43	0	52428800	59	5195
2026-01-17 00:39:08.38	7.52	10.33	-44.1	-47.2	17.0	0.00e+00	0	42	0	54525952	59	5225
2026-01-17 00:39:09.38	7.46	10.41	-43.9	-47.0	17.2	0.00e+00	0	43	0	56623104	59	5125
2026-01-17 00:39:10.38	7.40	10.49	-44.0	-47.0	17.2	0.00e+00	0	43	0	57671680	59	5130
2026-01-17 00:39:11.38	7.34	10.58	-44.1	-47.1	17.0	0.00e+00	0	42	0	59768832	59	5203
2026-01-17 00:39:12.38	7.27	10.66	-44.0	-47.0	17.2	0.00e+00	0	43	0	61865984	59	5109
2026-01-17 00:39:13.38	7.21	10.74	-43.9	-46.9	17.3	0.00e+00	0	43	0	63963136	59	5069
2026-01-17 00:39:14.38	7.15	10.83	-44.0	-46.9	17.2	0.00e+00	0	42	0	66060288	59	5099
2026-01-17 00:39:15.38	7.08	10.91	-44.0	-46.9	17.3	0.00e+00	0	43	0	67108864	59	5087
2026-01-17 00:39:16.38	7.02	11.00	-44.0	-46.9	17.3	0.00e+00	0	42	0	69206016	59	5076
2026-01-17 00:39:17.38	6.95	11.08	-43.8	-46.7	17.5	0.00e+00	0	43	0	71303168	59	4935
2026-01-17 00:39:18.38	6.89	11.17	-43.9	-46.7	17.4	0.00e+00	0	43	0	73400320	59	4974
2026-01-17 00:39:19.38	6.82	11.25	-43.9	-46.8	17.4	0.00e+00	0	43	0	74448896	59	5023
2026-01-17 00:39:20.38	6.76	11.34	-43.8	-46.7	17.5	0.00e+00	0	42	0	76546048	59	4975
2026-01-17 00:39:21.38	6.69	11.42	-43.9	-46.9	17.4	0.00e+00	0	42	0	78643200	59	5045
2026-01-17 00:39:22.38	6.62	11.51	-43.7	-46.5	17.7	0.00e+00	0	43	0	80740352	59	4845
2026-01-17 00:39:23.38	6.56	11.59	-43.9	-46.8	17.4	0.00e+00	0	43	0	82837504	59	5016
2026-01-17 00:39:24.38	6.49	11.68	-44.0	-46.8	17.3	0.00e+00	0	43	0	83886080	59	5024
2026-01-17 00:39:25.38	6.42	11.77	-43.7	-46.4	17.8	0.00e+00	0	43	0	85983232	59	4786
2026-01-17 00:39:26.38	6.35	11.85	-43.8	-46.6	17.6	0.00e+00	0	43	0	88080384	59	4914
2026-01-17 00:39:27.39	6.28	11.94	-43.9	-46.7	17.5	0.00e+00	0	42	0	90177536	59	4959
2026-01-17 00:39:28.38	6.22	12.03	-43.8	-46.7	17.5	0.00e+00	0	43	0	92274688	59	4933
2026-01-17 00:39:29.38	6.15	12.12	-43.8	-46.6	17.6	0.00e+00	0	43	0	93323264	59	4913
2026-01-17 00:39:30.39	6.08	12.21	-43.8	-46.6	17.6	0.00e+00	0	43	0	95420416	59	4919
2026-01-17 00:39:31.38	6.01	12.29	-44.1	-47.0	17.3	0.00e+00	0	43	0	97517568	59	5103
2026-01-17 00:39:32.39	5.93	12.38	-43.9	-46.6	17.6	0.00e+00	0	43	0	99614720	59	4906
2026-01-17 00:39:33.39	5.86	12.47	-44.1	-46.9	17.3	0.00e+00	0	43	0	101711872	59	5077
2026-01-17 00:39:34.39	5.79	12.56	-43.9	-46.7	17.5	0.00e+00	0	43	0	102760448	59	4952
2026-01-17 00:39:35.39	5.72	12.65	-43.9	-46.7	17.5	0.00e+00	0	43	0	104857600	59	4961
2026-01-17 00:39:36.39	5.65	12.74	-44.0	-46.7	17.5	0.00e+00	0	43	0	106954752	59	4980
2026-01-17 00:39:37.39	5.57	12.83	-44.0	-46.8	17.4	0.00e+00	0	43	0	109051904	59	5003
2026-01-17 00:39:38.39	5.50	12.92	-43.9	-46.6	17.6	0.00e+00	0	43	0	110100480	59	4881
2026-01-17 00:39:39.39	5.43	13.01	-43.9	-46.7	17.5	0.00e+00	0	43	0	112197632	59	4952
2026-01-17 00:39:40.39	5.35	13.10	-44.1	-46.8	17.4	0.00e+00	0	43	0	114294784	59	5023
2026-01-17 00:39:41.40	5.27	13.19	-44.1	-46.9	17.3	0.00e+00	0	43	0	116391936	59	5071
2026-01-17 00:39:42.40	5.20	13.29	-44.1	-46.9	17.4	0.00e+00	0	43	0	118489088	59	5052
2026-01-17 00:39:43.40	5.12	13.38	-44.1	-46.9	17.4	0.00e+00	0	43	0	119537664	59	5079
2026-01-17 00:39:44.40	5.05	13.47	-44.2	-47.0	17.3	0.00e+00	0	43	0	121634816	59	5142
2026-01-17 00:39:45.40	4.97	13.56	-44.1	-46.9	17.4	0.00e+00	0	43	0	123731968	59	5064
2026-01-17 00:39:46.39	4.89	13.65	-44.2	-47.0	17.3	0.00e+00	0	43	0	125829120	59	5134
2026-01-17 00:39:47.39	4.81	13.75	-44.2	-47.1	17.2	0.00e+00	0	43	0	127926272	59	5164
2026-01-17 00:39:48.39	4.74	13.84	-44.1	-46.9	17.4	0.00e+00	0	42	0	128974848	59	5055
2026-01-17 00:39:49.39	4.66	13.93	-44.1	-46.8	17.5	0.00e+00	0	43	0	131072000	59	5027
2026-01-17 00:39:50.39	4.58	14.03	-44.0	-46.8	17.5	0.00e+00	0	43	0	133169152	59	5000
2026-01-17 00:39:51.39	4.50	14.12	-44.0	-46.7	17.6	0.00e+00	0	43	0	135266304	59	4953
2026-01-17 00:39:52.39	4.42	14.22	-43.8	-46.5	17.7	0.00e+00	0	43	0	136314880	59	4855
2026-01-17 00:39:53.40	4.33	14.31	-43.8	-46.5	17.8	0.00e+00	0	43	0	138412032	59	4836
2026-01-17 00:39:54.40	4.25	14.41	-43.9	-46.6	17.7	0.00e+00	0	43	0	140509184	59	4899
2026-01-17 00:39:55.40	4.17	14.50	-43.8	-46.4	17.8	0.00e+00	0	43	0	142606336	59	4802
2026-01-17 00:39:56.40	4.09	14.60	-43.8	-46.4	17.8	0.00e+00	0	43	0	144703488	59	4810
2026-01-17 00:39:57.40	4.00	14.69	-43.7	-46.3	17.9	0.00e+00	0	43	0	145752064	59	4747
2026-01-17 00:39:58.39	3.92	14.79	-43.7	-46.3	17.9	0.00e+00	0	43	0	147849216	59	4757
2026-01-17 00:39:59.40	3.83	14.89	-43.7	-46.4	17.9	0.00e+00	0	43	0	149946368	59	4766
2026-01-17 00:40:00.40	3.75	14.98	-43.7	-46.4	17.9	0.00e+00	0	43	0	152043520	59	4764
2026-01-17 00:40:01.40	3.66	15.08	-43.7	-46.3	17.9	0.00e+00	0	43	0	154140672	59	4741
2026-01-17 00:40:02.40	3.58	15.18	-43.9	-46.5	17.7	0.00e+00	0	43	0	155189248	59	4864
2026-01-17 00:40:03.40	3.49	15.28	-43.7	-46.3	18.0	0.00e+00	0	43	0	157286400	59	4719
2026-01-17 00:40:04.40	3.40	15.38	-43.8	-46.4	17.8	0.00e+00	0	43	0	159383552	59	4800
2026-01-17 00:40:05.40	3.31	15.47	-43.9	-46.5	17.7	0.00e+00	0	42	0	161480704	59	4864
2026-01-17 00:40:06.41	3.22	15.57	-43.9	-46.5	17.8	0.00e+00	0	43	0	163577856	59	4841
2026-01-17 00:40:07.41	3.14	15.67	-43.9	-46.6	17.7	0.00e+00	0	43	0	164626432	59	4886
2026-01-17 00:40:08.41	3.05	15.77	-44.0	-46.7	17.6	0.00e+00	0	43	0	166723584	59	4941
2026-01-17 00:40:09.41	2.95	15.87	-43.9	-46.5	17.7	0.00e+00	0	43	0	168820736	59	4869
2026-01-17 00:40:10.41	2.86	15.97	-44.2	-46.9	17.4	0.00e+00	0	43	0	170917888	59	5097
2026-01-17 00:40:11.42	2.77	16.07	-44.0	-46.7	17.6	0.00e+00	0	43	0	173015040	59	4967
2026-01-17 00:40:12.42	2.68	16.18	-44.1	-46.8	17.6	0.00e+00	0	43	0	174063616	59	5023
2026-01-17 00:40:13.42	2.58	16.28	-43.9	-46.6	17.7	0.00e+00	0	43	0	176160768	59	4874
2026-01-17 00:40:14.42	2.49	16.38	-43.9	-46.6	17.7	0.00e+00	0	43	0	178257920	59	4914
2026-01-17 00:40:15.42	2.40	16.48	-43.9	-46.6	17.7	0.00e+00	0	43	0	180355072	59	4906
2026-01-17 00:40:16.42	2.30	16.58	-43.8	-46.4	17.9	0.00e+00	0	43	0	182452224	59	4795
2026-01-17 00:40:17.42	2.20	16.69	-43.6	-46.3	18.0	0.00e+00	0	43	0	183500800	59	4719
2026-01-17 00:40:18.43	2.11	16.79	-44.0	-46.7	17.6	0.00e+00	0	43	0	185597952	59	4973
2026-01-17 00:40:19.42	2.01	16.89	-43.6	-46.2	18.1	0.00e+00	0	43	0	187695104	59	4678
2026-01-17 00:40:20.42	1.91	17.00	-43.5	-46.1	18.2	0.00e+00	0	43	0	189792256	59	4615
2026-01-17 00:40:21.43	1.81	17.10	-43.6	-46.2	18.1	0.00e+00	0	43	0	190840832	59	4678
2026-01-17 00:40:22.43	1.71	17.21	-43.6	-46.2	18.0	0.00e+00	0	43	0	192937984	58	4983
2026-01-17 00:40:23.42	1.61	17.31	-43.7	-46.3	18.0	0.00e+00	0	43	0	195035136	58	5025
2026-01-17 00:40:24.43	1.51	17.42	-43.9	-46.6	17.8	0.00e+00	0	43	0	197132288	58	5162
2026-01-17 00:40:25.43	1.41	17.52	-43.9	-46.6	17.8	0.00e+00	0	43	0	199229440	58	5176
2026-01-17 00:40:26.42	1.31	17.63	-44.3	-47.0	17.3	0.00e+00	0	43	0	200278016	59	5158
2026-01-17 00:40:27.43	1.21	17.73	-43.9	-46.6	17.7	0.00e+00	0	43	0	202375168	59	4905
2026-01-17 00:40:28.43	1.10	17.84	-44.2	-46.9	17.4	0.00e+00	0	43	0	204472320	59	5081
2026-01-17 00:40:29.43	1.00	17.95	-44.1	-46.8	17.5	0.00e+00	0	43	0	206569472	59	5010
2026-01-17 00:40:30.43	0.89	18.05	-44.4	-47.1	17.3	0.00e+00	0	43	0	208666624	59	5202
2026-01-17 00:40:31.43	0.79	18.16	-44.4	-47.1	17.3	0.00e+00	0	43	0	209715200	59	5197
2026-01-17 00:40:32.43	0.68	18.27	-44.5	-47.3	17.1	0.00e+00	0	43	0	211812352	60	5032
2026-01-17 00:40:33.43	0.57	18.38	-44.6	-47.5	16.9	0.00e+00	0	43	0	213909504	60	5108
2026-01-17 00:40:34.44	0.46	18.49	-44.9	-47.9	16.6	0.00e+00	0	43	0	216006656	60	5374
2026-01-17 00:40:35.44	0.35	18.60	-44.5	-47.3	17.2	0.00e+00	0	43	0	217055232	60	5036
2026-01-17 00:40:36.44	0.24	18.71	-44.5	-47.3	17.1	0.00e+00	0	43	0	219152384	60	5030
2026-01-17 00:40:37.43	0.13	18.82	-44.5	-47.3	17.1	0.00e+00	0	43	0	221249536	60	5025
2026-01-17 00:40:38.43	0.02	18.93	-44.4	-47.2	17.2	0.00e+00	0	43	0	223346688	60	4951
2026-01-17 00:40:39.44	359.91	19.04	-44.5	-47.2	17.2	0.00e+00	0	43	0	225443840	60	4983
2026-01-17 00:40:40.44	359.79	19.15	-44.3	-47.0	17.4	0.00e+00	0	43	0	226492416	60	4856
2026-01-17 00:40:41.43	359.68	19.26	-44.2	-47.0	17.5	0.00e+00	0	43	0	228589568	60	4828
2026-01-17 00:40:42.43	359.57	19.37	-44.7	-47.6	16.8	0.00e+00	0	43	0	230686720	60	5211
2026-01-17 00:40:43.44	359.45	19.48	-44.4	-47.2	17.2	0.00e+00	0	43	0	232783872	60	4979
2026-01-17 00:40:44.44	359.33	19.60	-44.3	-47.2	17.3	0.00e+00	0	43	0	234881024	60	4937
2026-01-17 00:40:45.44	359.21	19.71	-44.2	-47.0	17.4	0.00e+00	0	43	0	235929600	60	4859
2026-01-17 00:40:46.44	359.10	19.82	-44.5	-47.4	17.1	0.00e+00	0	43	0	238026752	60	5088
2026-01-17 00:40:47.44	358.98	19.94	-44.4	-47.3	17.2	0.00e+00	0	43	0	240123904	60	5008
2026-01-17 00:40:48.45	358.85	20.05	-44.4	-47.2	17.2	0.00e+00	0	43	0	242221056	60	4976
2026-01-17 00:40:49.44	358.73	20.17	-44.3	-47.1	17.4	0.00e+00	0	43	0	244318208	60	4901
2026-01-17 00:40:50.44	358.61	20.28	-44.6	-47.5	17.0	0.00e+00	0	43	0	245366784	60	5114
2026-01-17 00:40:51.45	358.49	20.40	-44.2	-47.0	17.5	0.00e+00	0	43	0	247463936	60	4825
2026-01-17 00:40:52.45	358.36	20.51	-44.4	-47.1	17.3	0.00e+00	0	43	0	249561088	60	4912
2026-01-17 00:40:53.45	358.24	20.63	-44.3	-47.0	17.5	0.00e+00	0	43	0	251658240	60	4859
2026-01-17 00:40:54.45	358.11	20.75	-44.4	-47.1	17.4	0.00e+00	0	43	0	253755392	60	4903
2026-01-17 00:40:55.45	357.98	20.86	-44.4	-47.2	17.4	0.00e+00	0	42	0	254803968	60	4938
2026-01-17 00:40:56.45	357.86	20.98	-44.3	-47.0	17.5	0.00e+00	0	43	0	256901120	60	4852
2026-01-17 00:40:57.45	357.73	21.10	-44.4	-47.1	17.4	0.00e+00	0	43	0	258998272	60	4915
2026-01-17 00:40:58.45	357.60	21.22	-44.5	-47.3	17.2	0.00e+00	0	43	0	261095424	60	4990
2026-01-17 00:40:59.45	357.46	21.33	-44.4	-47.1	17.4	0.00e+00	0	43	0	262144000	60	4912
2026-01-17 00:41:00.45	357.33	21.45	-44.3	-47.0	17.5	0.00e+00	0	43	0	264241152	60	4861
2026-01-17 00:41:01.45	357.20	21.57	-44.4	-47.1	17.4	0.00e+00	0	43	0	266338304	60	4910
2026-01-17 00:41:02.45	357.06	21.69	-44.4	-47.1	17.4	0.00e+00	0	43	0	268435456	60	4922
2026-01-17 00:41:03.45	356.93	21.81	-44.5	-47.3	17.3	0.00e+00	0	43	0	270532608	60	5025
2026-01-17 00:41:04.45	356.79	21.93	-44.6	-47.4	17.1	0.00e+00	0	43	0	271581184	60	5080
2026-01-17 00:41:05.45	356.65	22.05	-44.5	-47.4	17.2	0.00e+00	0	43	0	273678336	60	5044
2026-01-17 00:41:06.45	356.52	22.17	-44.5	-47.3	17.2	0.00e+00	0	43	0	275775488	60	5031
2026-01-17 00:41:07.44	356.38	22.30	-44.4	-47.2	17.3	0.00e+00	0	43	0	277872640	60	4948
2026-01-17 00:41:08.44	356.24	22.42	-44.5	-47.2	17.3	0.00e+00	0	43	0	278921216	60	4953
2026-01-17 00:41:09.45	356.09	22.54	-44.2	-46.9	17.6	0.00e+00	0	43	0	281018368	60	4796
2026-01-17 00:41:10.45	355.95	22.66	-44.4	-47.1	17.4	0.00e+00	0	43	0	283115520	60	4885
2026-01-17 00:41:11.45	355.81	22.79	-44.5	-47.2	17.3	0.00e+00	0	43	0	285212672	60	4974
2026-01-17 00:41:12.45	355.66	22.91	-44.6	-47.4	17.2	0.00e+00	0	43	0	287309824	60	5051
2026-01-17 00:41:13.45	355.51	23.03	-44.5	-47.3	17.3	0.00e+00	0	43	0	289406976	60	4991
2026-01-17 00:41:14.45	355.36	23.16	-44.6	-47.5	17.1	0.00e+00	0	43	0	290455552	60	5108
2026-01-17 00:41:15.45	355.22	23.28	-44.7	-47.6	17.0	0.00e+00	0	43	0	292552704	60	5169
2026-01-17 00:41:16.45	355.06	23.41	-44.5	-47.4	17.2	0.00e+00	0	43	0	294649856	60	5092
2026-01-17 00:41:17.45	354.91	23.53	-44.5	-47.5	17.1	0.00e+00	0	43	0	296747008	60	5121
2026-01-17 00:41:18.46	354.76	23.66	-44.6	-47.6	16.9	0.00e+00	0	42	0	297795584	60	5196
2026-01-17 00:41:19.46	354.60	23.79	-44.7	-47.8	16.9	0.00e+00	0	43	0	299892736	60	5313
2026-01-17 00:41:20.46	354.45	23.91	-45.0	-48.2	16.4	0.00e+00	0	43	0	301989888	60	5529
2026-01-17 00:41:21.46	354.29	24.04	-45.0	-48.1	16.6	0.00e+00	0	43	0	304087040	60	5482
2026-01-17 00:41:22.46	354.13	24.17	-45.2	-48.5	16.2	0.00e+00	0	43	0	306184192	61	5406
2026-01-17 00:41:23.46	353.97	24.30	-45.1	-48.1	16.4	0.00e+00	0	43	0	307232768	61	5206
2026-01-17 00:41:24.46	353.81	24.43	-44.8	-47.7	16.8	0.00e+00	0	43	0	309329920	61	4983
2026-01-17 00:41:25.46	353.65	24.55	-44.7	-47.6	17.0	0.00e+00	0	42	0	311427072	61	4879
2026-01-17 00:41:26.47	353.49	24.68	-44.6	-47.4	17.2	0.00e+00	0	43	0	313524224	61	4770
2026-01-17 00:41:27.47	353.32	24.81	-44.5	-47.2	17.4	0.00e+00	0	43	0	315621376	60	4952
2026-01-17 00:41:28.46	353.16	24.94	-44.6	-47.3	17.3	0.00e+00	0	43	0	316669952	60	5024
2026-01-17 00:41:29.46	352.99	25.07	-44.4	-47.0	17.5	0.00e+00	0	43	0	318767104	60	4847
2026-01-17 00:41:30.47	352.82	25.20	-44.5	-47.2	17.4	0.00e+00	0	43	0	320864256	60	4937
2026-01-17 00:41:31.47	352.65	25.33	-44.4	-47.1	17.5	0.00e+00	0	43	0	322961408	60	4893
2026-01-17 00:41:32.47	352.48	25.47	-44.5	-47.2	17.4	0.00e+00	0	42	0	324009984	60	4967
2026-01-17 00:41:33.47	352.30	25.60	-44.5	-47.3	17.3	0.00e+00	0	42	0	326107136	60	4997
2026-01-17 00:41:34.47	352.13	25.73	-44.8	-47.7	16.9	0.00e+00	0	43	0	328204288	60	5223
2026-01-17 00:41:35.47	351.95	25.86	-44.7	-47.5	17.1	0.00e+00	0	43	0	330301440	60	5155
2026-01-17 00:41:36.47	351.77	25.99	-44.9	-47.8	16.8	0.00e+00	0	42	0	332398592	60	5313
2026-01-17 00:41:37.48	351.59	26.13	-44.9	-47.9	16.8	0.00e+00	0	43	0	333447168	60	5345
2026-01-17 00:41:38.48	351.41	26.26	-45.2	-48.2	16.4	0.00e+00	0	42	0	335544320	61	5255
2026-01-17 00:41:39.48	351.23	26.40	-44.7	-47.6	17.0	0.00e+00	0	43	0	337641472	61	4875
2026-01-17 00:41:40.48	351.04	26.53	-44.7	-47.5	17.1	0.00e+00	0	43	0	339738624	61	4858
2026-01-17 00:41:41.49	350.86	26.67	-44.6	-47.4	17.2	0.00e+00	0	43	0	341835776	61	4769
2026-01-17 00:41:42.49	350.67	26.80	-44.5	-47.2	17.3	0.00e+00	0	43	0	342884352	60	4976
2026-01-17 00:41:43.49	350.48	26.94	-44.3	-46.9	17.6	0.00e+00	0	42	0	344981504	60	4776
2026-01-17 00:41:44.49	350.29	27.07	-44.3	-47.0	17.6	0.00e+00	0	43	0	347078656	60	4849
2026-01-17 00:41:45.49	350.10	27.21	-44.4	-47.2	17.4	0.00e+00	0	43	0	349175808	60	4936
2026-01-17 00:41:46.49	349.90	27.34	-44.9	-47.8	16.8	0.00e+00	0	43	0	351272960	60	5317
2026-01-17 00:41:47.50	349.71	27.48	-44.8	-47.6	17.0	0.00e+00	0	43	0	352321536	60	5217
2026-01-17 00:41:48.50	349.51	27.62	-45.2	-48.3	16.3	0.00e+00	0	43	0	354418688	61	5302
2026-01-17 00:41:49.50	349.31	27.75	-45.2	-48.2	16.5	0.00e+00	0	43	0	356515840	61	5255
2026-01-17 00:41:50.50	349.11	27.89	-45.4	-48.6	16.1	0.00e+00	0	43	0	358612992	61	5497
2026-01-17 00:41:51.51	348.91	28.03	-45.6	-48.8	15.8	0.00e+00	0	43	0	360710144	61	5648
2026-01-17 00:41:52.51	348.70	28.17	-45.5	-48.7	15.9	0.00e+00	0	43	0	361758720	62	5275
2026-01-17 00:41:53.51	348.49	28.31	-45.7	-49.0	15.7	0.00e+00	0	43	0	363855872	62	5438
2026-01-17 00:41:54.51	348.29	28.44	-45.8	-49.0	15.6	0.00e+00	0	43	0	365953024	62	5441
2026-01-17 00:41:55.51	348.08	28.58	-45.6	-48.6	16.0	0.00e+00	0	43	0	368050176	62	5206
2026-01-17 00:41:56.51	347.87	28.72	-45.3	-48.2	16.4	0.00e+00	0	43	0	369098752	62	4950
2026-01-17 00:41:57.51	347.65	28.86	-44.9	-47.8	16.9	0.00e+00	0	43	0	371195904	61	5008
2026-01-17 00:41:58.51	347.44	29.00	-45.1	-48.1	16.6	0.00e+00	0	43	0	373293056	61	5165
2026-01-17 00:41:59.51	347.22	29.14	-45.2	-48.4	16.3	0.00e+00	0	43	0	375390208	61	5360
2026-01-17 00:42:00.51	347.00	29.28	-45.3	-48.5	16.2	0.00e+00	0	43	0	377487360	61	5434
2026-01-17 00:42:01.51	346.78	29.42	-45.4	-48.6	16.1	0.00e+00	0	43	0	378535936	61	5500
2026-01-17 00:42:02.51	346.56	29.56	-45.9	-49.3	15.4	0.00e+00	0	43	0	380633088	62	5633
2026-01-17 00:42:03.51	346.33	29.70	-45.8	-49.2	15.5	0.00e+00	0	42	0	382730240	62	5572
2026-01-17 00:42:04.51	346.10	29.84	-45.9	-49.3	15.4	0.00e+00	0	43	0	384827392	62	5640
2026-01-17 00:42:05.52	345.87	29.98	-46.1	-49.6	15.2	7.00e-07	0	42	0	386924544	63	5484
2026-01-17 00:42:06.52	345.64	30.12	-46.2	-49.6	15.1	0.00e+00	0	43	0	387973120	63	5499
2026-01-17 00:42:07.51	345.41	30.26	-46.5	-50.1	14.7	0.00e+00	0	42	0	390070272	63	5842
2026-01-17 00:42:08.51	345.18	30.41	-46.6	-50.3	14.3	7.00e-07	0	42	0	392167424	64	5635
2026-01-17 00:42:09.51	344.94	30.55	-46.6	-50.5	14.2	1.50e-06	0	43	0	394264576	64	5767
2026-01-17 00:42:10.51	344.70	30.69	-46.9	-51.1	13.5	0.00e+00	0	43	0	396361728	64	6194
2026-01-17 00:42:11.51	344.46	30.83	-46.2	-50.0	14.7	0.00e+00	0	42	0	397410304	64	5449
2026-01-17 00:42:12.51	344.21	30.97	-46.2	-49.9	14.7	0.00e+00	0	42	0	399507456	64	5368
2026-01-17 00:42:13.51	343.97	31.11	-46.2	-49.8	15.0	0.00e+00	0	43	0	401604608	63	5598
2026-01-17 00:42:14.51	343.72	31.26	-46.3	-49.8	14.9	0.00e+00	0	42	0	403701760	63	5635
2026-01-17 00:42:15.52	343.47	31.40	-46.4	-50.1	14.8	0.00e+00	0	43	0	404750336	63	5819
2026-01-17 00:42:16.51	343.22	31.54	-46.3	-49.9	14.6	0.00e+00	0	42	0	406847488	64	5385
2026-01-17 00:42:17.52	342.96	31.68	-46.6	-50.4	14.4	2.20e-06	0	42	0	408944640	64	5691
2026-01-17 00:42:18.52	342.70	31.83	-46.7	-50.8	13.8	4.50e-06	0	42	0	411041792	64	5960
2026-01-17 00:42:19.52	342.44	31.97	-46.7	-51.0	13.6	1.14e-05	0	43	0	413138944	64	6072
2026-01-17 00:42:20.52	342.18	32.11	-46.4	-50.6	14.0	6.80e-06	0	43	0	414187520	64	5852
2026-01-17 00:42:21.52	341.92	32.25	-46.0	-49.8	14.9	4.50e-06	0	42	0	416284672	63	5656
2026-01-17 00:42:22.53	341.65	32.40	-46.0	-50.0	14.7	0.00e+00	0	42	0	418381824	63	5737
2026-01-17 00:42:23.53	341.38	32.54	-46.1	-49.9	14.9	0.00e+00	0	42	0	420478976	63	5685
2026-01-17 00:42:24.53	341.11	32.68	-46.3	-50.0	14.8	0.00e+00	0	43	0	422576128	63	5776
2026-01-17 00:42:25.53	340.83	32.82	-46.7	-50.7	14.0	3.00e-06	0	43	0	423624704	64	5869
2026-01-17 00:42:26.52	340.56	32.96	-46.9	-51.0	13.7	8.30e-06	0	42	0	425721856	64	6073
2026-01-17 00:42:27.53	340.28	33.11	-47.2	-51.4	13.3	2.36e-05	0	42	0	427819008	65	6035
2026-01-17 00:42:28.53	340.00	33.25	-46.9	-50.8	13.8	1.98e-05	0	43	0	429916160	65	5655
2026-01-17 00:42:29.52	339.72	33.39	-46.5	-50.2	14.5	1.50e-06	0	42	0	432013312	64	5529
2026-01-17 00:42:30.53	339.43	33.53	-46.2	-49.6	15.0	7.00e-07	0	43	0	433061888	64	5172
2026-01-17 00:42:31.52	339.14	33.67	-45.6	-48.7	15.9	0.00e+00	0	42	0	435159040	63	4950
2026-01-17 00:42:32.52	338.85	33.81	-45.4	-48.4	16.3	0.00e+00	0	43	0	437256192	62	5048
2026-01-17 00:42:33.52	338.56	33.95	-44.8	-47.5	17.0	0.00e+00	0	42	0	439353344	61	4864
2026-01-17 00:42:34.52	338.26	34.10	-44.6	-47.4	17.2	0.00e+00	0	42	0	440401920	61	4779
2026-01-17 00:42:35.52	337.96	34.24	-44.6	-47.5	17.2	0.00e+00	0	43	0	442499072	61	4846
2026-01-17 00:42:36.52	337.66	34.38	-44.6	-47.5	17.1	0.00e+00	0	43	0	444596224	61	4825
2026-01-17 00:42:37.52	337.36	34.52	-44.8	-47.8	16.9	0.00e+00	0	43	0	446693376	61	4998
2026-01-17 00:42:38.52	337.05	34.66	-44.9	-48.0	16.7	0.00e+00	0	43	0	448790528	61	5118
2026-01-17 00:42:39.52	336.74	34.80	-45.2	-48.4	16.5	0.00e+00	0	42	0	449839104	61	5342
2026-01-17 00:42:40.52	336.43	34.93	-45.3	-48.5	16.2	0.00e+00	0	43	0	451936256	61	5434
2026-01-17 00:42:41.52	336.11	35.07	-45.4	-48.5	16.1	0.00e+00	0	43	0	454033408	61	5452
2026-01-17 00:42:42.52	335.80	35.21	-45.5	-48.7	16.0	0.00e+00	0	42	0	456130560	61	5538
2026-01-17 00:42:43.52	335.48	35.35	-45.6	-48.8	15.9	0.00e+00	0	43	0	458227712	61	5603
2026-01-17 00:42:44.52	335.15	35.49	-45.7	-48.9	15.7	0.00e+00	0	42	0	459276288	62	5368
2026-01-17 00:42:45.52	334.83	35.62	-45.9	-49.1	15.6	0.00e+00	0	43	0	461373440	62	5516
2026-01-17 00:42:46.52	334.50	35.76	-46.0	-49.3	15.4	0.00e+00	0	42	0	463470592	63	5326
2026-01-17 00:42:47.52	334.17	35.90	-45.8	-49.0	15.5	0.00e+00	0	42	0	465567744	63	5133
2026-01-17 00:42:48.52	333.83	36.03	-45.7	-48.7	16.0	0.00e+00	0	42	0	466616320	63	4964
2026-01-17 00:42:49.52	333.50	36.17	-45.4	-48.4	16.4	0.00e+00	0	42	0	468713472	62	5079
2026-01-17 00:42:50.52	333.16	36.30	-45.4	-48.4	16.3	0.00e+00	0	42	0	470810624	62	5042
2026-01-17 00:42:51.52	332.82	36.44	-45.8	-49.0	15.8	0.00e+00	0	42	0	472907776	62	5417
2026-01-17 00:42:52.51	332.47	36.57	-46.3	-49.8	14.9	0.00e+00	0	42	0	475004928	63	5607
2026-01-17 00:42:53.52	332.12	36.70	-46.7	-50.6	14.1	2.20e-06	0	43	0	476053504	64	5814
2026-01-17 00:42:54.52	331.77	36.83	-46.7	-50.8	13.8	2.20e-06	0	42	0	478150656	64	5968
2026-01-17 00:42:55.52	331.42	36.96	-46.8	-51.2	13.5	7.60e-06	0	43	0	480247808	64	6242
2026-01-17 00:42:56.52	331.06	37.09	-47.0	-51.5	13.2	4.57e-05	0	42	0	482344960	65	6063
2026-01-17 00:42:57.52	330.70	37.22	-46.9	-51.2	13.5	2.82e-05	0	42	0	484442112	65	5922
2026-01-17 00:42:58.52	330.34	37.35	-47.1	-51.4	13.2	1.98e-05	0	42	0	485490688	65	6025
2026-01-17 00:42:59.52	329.97	37.48	-46.8	-50.6	14.0	1.50e-06	0	43	0	487587840	65	5499
2026-01-17 00:43:00.52	329.60	37.61	-46.4	-49.9	14.9	0.00e+00	0	42	0	489684992	64	5346
2026-01-17 00:43:01.52	329.23	37.73	-46.2	-49.6	15.1	0.00e+00	0	43	0	491782144	64	5169
2026-01-17 00:43:02.52	328.86	37.86	-46.4	-49.8	14.9	0.00e+00	0	43	0	493879296	64	5340
2026-01-17 00:43:03.52	328.48	37.98	-46.1	-49.5	15.0	0.00e+00	0	43	0	494927872	64	5143
2026-01-17 00:43:04.53	328.10	38.11	-46.1	-49.4	15.3	0.00e+00	0	42	0	497025024	63	5386
2026-01-17 00:43:05.53	327.71	38.23	-45.7	-49.0	15.7	0.00e+00	0	43	0	499122176	63	5101
2026-01-17 00:43:06.53	327.33	38.35	-45.4	-48.5	16.2	0.00e+00	0	42	0	501219328	62	5136
2026-01-17 00:43:07.52	326.94	38.47	-44.7	-47.7	16.9	0.00e+00	0	43	0	502267904	61	4962
2026-01-17 00:43:08.53	326.55	38.59	-44.7	-47.8	16.8	0.00e+00	0	43	0	504365056	61	4990
2026-01-17 00:43:09.53	326.15	38.71	-44.8	-47.9	16.8	0.00e+00	0	43	0	506462208	61	5072
2026-01-17 00:43:10.53	325.76	38.83	-44.8	-47.9	16.7	0.00e+00	0	43	0	508559360	61	5096
2026-01-17 00:43:11.54	325.35	38.94	-44.9	-47.9	16.7	0.00e+00	0	43	0	510656512	61	5084
2026-01-17 00:43:12.53	324.95	39.06	-44.9	-47.9	16.7	0.00e+00	0	43	0	511705088	61	5099
2026-01-17 00:43:13.54	324.54	39.17	-44.8	-47.7	17.0	0.00e+00	0	42	0	513802240	61	4959
2026-01-17 00:43:14.54	324.13	39.28	-45.2	-48.2	16.6	0.00e+00	0	43	0	515899392	61	5222
2026-01-17 00:43:15.54	323.72	39.39	-45.4	-48.4	16.2	0.00e+00	0	42	0	517996544	61	5342
2026-01-17 00:43:16.54	323.31	39.50	-45.3	-48.3	16.4	0.00e+00	0	42	0	520093696	61	5286
2026-01-17 00:43:17.54	322.89	39.61	-45.2	-48.2	16.6	0.00e+00	0	43	0	521142272	61	5241
2026-01-17 00:43:18.55	322.47	39.72	-44.7	-47.4	17.2	0.00e+00	0	42	0	523239424	61	4795
2026-01-17 00:43:19.55	322.04	39.82	-44.5	-47.3	17.3	0.00e+00	0	42	0	525336576	60	4990
2026-01-17 00:43:20.55	321.62	39.93	-44.4	-47.0	17.6	0.00e+00	0	42	0	527433728	60	4857
2026-01-17 00:43:21.55	321.19	40.03	-44.4	-47.1	17.5	0.00e+00	0	42	0	528482304	60	4917
2026-01-17 00:43:22.54	320.76	40.13	-44.5	-47.2	17.4	0.00e+00	0	42	0	530579456	60	4982
2026-01-17 00:43:23.54	320.33	40.23	-44.1	-46.7	17.9	0.00e+00	0	43	0	532676608	60	4684
2026-01-17 00:43:24.55	319.89	40.33	-44.1	-46.6	18.0	0.00e+00	0	42	0	534773760	59	4905
2026-01-17 00:43:25.54	319.45	40.42	-44.5	-47.1	17.4	0.00e+00	0	42	0	536870912	59	5204
2026-01-17 00:43:26.55	319.01	40.52	-44.9	-47.8	16.9	0.00e+00	0	42	0	537919488	60	5310
2026-01-17 00:43:27.55	318.56	40.61	-44.9	-47.7	16.8	0.00e+00	0	42	0	540016640	60	5237
2026-01-17 00:43:28.55	318.12	40.70	-44.6	-47.4	17.2	0.00e+00	0	42	0	542113792	60	5084
2026-01-17 00:43:29.55	317.67	40.79	-43.9	-46.4	18.1	0.00e+00	0	42	0	544210944	59	4783
2026-01-17 00:43:30.55	317.22	40.88	-43.4	-45.8	18.6	0.00e+00	0	42	0	546308096	58	4741
2026-01-17 00:43:31.55	316.76	40.96	-43.7	-46.2	18.2	0.00e+00	0	42	0	547356672	58	4927
2026-01-17 00:43:32.55	316.30	41.05	-43.7	-46.2	18.3	0.00e+00	0	42	0	549453824	58	4946
2026-01-17 00:43:33.55	315.85	41.13	-43.3	-45.7	18.8	0.00e+00	0	42	0	551550976	58	4668
2026-01-17 00:43:34.55	315.38	41.21	-42.9	-45.2	19.2	0.00e+00	0	42	0	553648128	57	4665
2026-01-17 00:43:35.55	314.92	41.28	-42.6	-44.9	19.4	0.00e+00	0	42	0	555745280	57	4497
2026-01-17 00:43:36.56	314.45	41.36	-42.5	-44.7	19.6	0.00e+00	0	42	0	556793856	56	4656
2026-01-17 00:43:37.56	313.98	41.43	-42.6	-44.9	19.4	0.00e+00	0	42	0	558891008	56	4782
2026-01-17 00:43:38.56	313.51	41.51	-43.1	-45.4	19.0	0.00e+00	0	42	0	560988160	56	5095
2026-01-17 00:43:39.56	313.04	41.58	-43.4	-45.7	18.6	0.00e+00	0	42	0	563085312	57	4979
2026-01-17 00:43:40.56	312.57	41.64	-44.0	-46.5	18.1	0.00e+00	0	42	0	565182464	58	5103
2026-01-17 00:43:41.56	312.09	41.71	-44.7	-47.5	17.1	0.00e+00	0	43	0	566231040	60	5117
2026-01-17 00:43:42.56	311.61	41.77	-45.3	-48.3	16.4	0.00e+00	0	42	0	568328192	61	5309
2026-01-17 00:43:43.57	311.13	41.83	-45.2	-48.1	16.6	0.00e+00	0	42	0	570425344	61	5190
2026-01-17 00:43:44.57	310.64	41.89	-44.8	-47.6	17.1	0.00e+00	0	42	0	572522496	61	4872
2026-01-17 00:43:45.57	310.16	41.95	-45.0	-47.9	16.8	0.00e+00	0	42	0	573571072	61	5048
2026-01-17 00:43:46.57	309.68	42.00	-44.8	-47.7	16.8	0.00e+00	0	42	0	575668224	61	4943
2026-01-17 00:43:47.57	309.19	42.06	-45.0	-48.0	16.6	0.00e+00	0	42	0	577765376	61	5136
2026-01-17 00:43:48.57	308.70	42.11	-44.2	-46.9	17.7	0.00e+00	0	42	0	579862528	60	4773
2026-01-17 00:43:49.57	308.21	42.16	-44.2	-46.8	17.8	0.00e+00	0	42	0	581959680	60	4742
2026-01-17 00:43:50.58	307.71	42.20	-44.3	-47.0	17.5	0.00e+00	0	42	0	583008256	60	4864
2026-01-17 00:43:51.58	307.22	42.24	-44.6	-47.4	17.1	0.00e+00	0	42	0	585105408	60	5061
2026-01-17 00:43:52.58	306.73	42.28	-44.0	-46.5	17.9	0.00e+00	0	42	0	587202560	59	4848
2026-01-17 00:43:53.58	306.23	42.32	-44.0	-46.5	18.1	0.00e+00	0	42	0	589299712	59	4848
2026-01-17 00:43:54.58	305.74	42.36	-44.2	-46.8	17.7	0.00e+00	0	42	0	591396864	59	5008
2026-01-17 00:43:55.58	305.24	42.39	-44.9	-47.7	16.9	0.00e+00	0	42	0	592445440	60	5269
2026-01-17 00:43:56.58	304.74	42.42	-44.7	-47.4	17.2	0.00e+00	0	42	0	594542592	60	5092
2026-01-17 00:43:57.58	304.24	42.45	-44.3	-46.9	17.7	0.00e+00	0	43	0	596639744	60	4760
2026-01-17 00:43:58.58	303.74	42.48	-43.8	-46.2	18.3	0.00e+00	0	42	0	598736896	59	4687
2026-01-17 00:43:59.58	303.24	42.50	-44.0	-46.5	18.1	0.00e+00	0	42	0	600834048	59	4817
2026-01-17 00:44:00.56	302.75	42.52	-44.0	-46.5	18.0	0.00e+00	0	42	0	601882624	59	4832
2026-01-17 00:44:01.55	302.25	42.54	-44.2	-46.8	17.8	0.00e+00	0	42	0	603979776	59	4996
2026-01-17 00:44:02.56	301.74	42.56	-44.6	-47.3	17.2	0.00e+00	0	42	0	606076928	59	5328
2026-01-17 00:44:03.56	301.24	42.57	-44.4	-47.0	17.6	0.00e+00	0	42	0	608174080	60	4852
2026-01-17 00:44:04.56	300.73	42.59	-44.4	-47.0	17.6	0.00e+00	0	42	0	609222656	60	4847
2026-01-17 00:44:05.56	300.23	42.59	-44.5	-47.2	17.4	0.00e+00	0	42	0	611319808	60	4970
2026-01-17 00:44:06.56	299.72	42.60	-45.0	-47.8	16.8	0.00e+00	0	42	0	613416960	60	5340
2026-01-17 00:44:07.56	299.22	42.60	-44.6	-47.4	17.5	0.00e+00	0	42	0	615514112	60	5058
2026-01-17 00:44:08.56	298.71	42.61	-44.6	-47.3	17.4	0.00e+00	0	42	0	617611264	60	5005
2026-01-17 00:44:09.57	298.20	42.61	-44.7	-47.5	17.2	0.00e+00	0	42	0	618659840	60	5113
2026-01-17 00:44:10.56	297.70	42.60	-45.5	-48.6	16.2	0.00e+00	0	42	0	620756992	61	5511
2026-01-17 00:44:11.57	297.19	42.60	-45.9	-49.1	15.7	0.00e+00	0	42	0	622854144	62	5506
2026-01-17 00:44:12.57	296.69	42.59	-45.8	-49.0	15.8	0.00e+00	0	42	0	624951296	62	5437
2026-01-17 00:44:13.56	296.19	42.58	-45.4	-48.5	16.2	0.00e+00	0	42	0	627048448	62	5110
2026-01-17 00:44:14.57	295.68	42.56	-45.1	-48.0	16.7	0.00e+00	0	42	0	628097024	62	4854
2026-01-17 00:44:15.57	295.18	42.55	-44.8	-47.5	17.2	0.00e+00	0	42	0	630194176	61	4868
2026-01-17 00:44:16.57	294.67	42.53	-44.6	-47.3	17.3	0.00e+00	0	42	0	632291328	61	4709
2026-01-17 00:44:17.57	294.17	42.51	-45.0	-47.8	16.8	0.00e+00	0	42	0	634388480	61	5024
2026-01-17 00:44:18.57	293.67	42.48	-45.9	-49.0	15.7	0.00e+00	0	42	0	635437056	62	5442
2026-01-17 00:44:19.57	293.17	42.46	-46.6	-50.1	14.6	0.00e+00	0	42	0	637534208	64	5482
2026-01-17 00:44:20.57	292.67	42.43	-46.7	-50.3	14.4	3.80e-06	0	42	0	639631360	64	5620
2026-01-17 00:44:21.57	292.17	42.40	-47.0	-50.9	13.9	5.30e-06	0	42	0	641728512	64	6001
2026-01-17 00:44:22.57	291.67	42.37	-46.9	-50.7	14.0	2.20e-06	0	42	0	643825664	64	5877
2026-01-17 00:44:23.58	291.17	42.33	-46.2	-49.6	15.0	7.00e-07	0	42	0	644874240	64	5180
2026-01-17 00:44:24.58	290.67	42.29	-46.0	-49.1	15.6	0.00e+00	0	42	0	646971392	63	5183
2026-01-17 00:44:25.57	290.18	42.25	-46.5	-50.0	14.8	0.00e+00	0	42	0	649068544	63	5729
2026-01-17 00:44:26.58	289.69	42.21	-46.7	-50.3	14.4	7.00e-07	0	42	0	651165696	64	5624
2026-01-17 00:44:27.58	289.19	42.16	-47.0	-50.8	13.8	5.30e-06	0	42	0	653262848	65	5611
2026-01-17 00:44:28.58	288.70	42.12	-46.9	-50.6	14.0	7.00e-07	0	42	0	654311424	65	5474
2026-01-17 00:44:29.58	288.21	42.07	-46.8	-50.5	14.2	3.80e-06	0	42	0	656408576	65	5422
2026-01-17 00:44:30.58	287.73	42.02	-46.9	-50.7	14.0	3.80e-06	0	42	0	658505728	65	5533
2026-01-17 00:44:31.58	287.24	41.96	-47.4	-51.4	13.1	9.90e-06	0	42	0	660602880	65	6017
2026-01-17 00:44:32.58	286.76	41.91	-47.7	-52.2	12.6	1.25e-04	0	42	0	662700032	66	6222
2026-01-17 00:44:33.58	286.27	41.85	-47.8	-52.3	12.2	4.30e-04	0	42	0	663748608	67	5990
2026-01-17 00:44:34.59	285.79	41.79	-47.7	-52.0	12.6	1.85e-04	0	42	0	665845760	66	6121
2026-01-17 00:44:35.59	285.31	41.72	-47.8	-52.3	12.4	9.07e-05	0	42	0	667942912	66	6333
2026-01-17 00:44:36.59	284.83	41.66	-47.6	-51.9	12.7	1.23e-04	0	42	0	670040064	66	6044
2026-01-17 00:44:37.59	284.35	41.59	-47.4	-51.5	13.1	2.04e-04	0	42	0	671088640	66	5751
2026-01-17 00:44:38.59	283.88	41.52	-46.9	-50.6	14.0	3.05e-05	0	42	0	673185792	65	5516
2026-01-17 00:44:39.59	283.41	41.45	-47.1	-51.0	13.5	5.30e-06	0	42	0	675282944	65	5750
2026-01-17 00:44:40.59	282.94	41.38	-47.1	-51.0	13.6	1.37e-05	0	42	0	677380096	65	5782
2026-01-17 00:44:41.59	282.47	41.30	-47.3	-51.4	13.3	2.28e-05	0	42	0	679477248	65	6050
2026-01-17 00:44:42.60	282.00	41.22	-46.7	-50.4	14.3	1.52e-05	0	42	0	680525824	65	5395
2026-01-17 00:44:43.60	281.54	41.14	-47.1	-51.2	13.5	7.60e-06	0	42	0	682622976	65	5905
2026-01-17 00:44:44.60	281.08	41.06	-46.3	-49.9	14.8	7.00e-07	0	42	0	684720128	64	5346
2026-01-17 00:44:45.60	280.62	40.98	-45.3	-48.3	16.3	0.00e+00	0	42	0	686817280	62	5011
2026-01-17 00:44:46.60	280.17	40.89	-44.7	-47.4	17.2	0.00e+00	0	42	0	688914432	61	4813
2026-01-17 00:44:47.61	279.71	40.80	-44.7	-47.4	17.3	0.00e+00	0	42	0	689963008	60	5044
2026-01-17 00:44:48.60	279.26	40.72	-44.3	-46.9	17.7	0.00e+00	0	42	0	692060160	60	4789
2026-01-17 00:44:49.60	278.82	40.63	-43.9	-46.4	18.1	0.00e+00	0	42	0	694157312	59	4797
2026-01-17 00:44:50.60	278.37	40.53	-43.5	-45.9	18.5	0.00e+00	0	42	0	696254464	59	4527
2026-01-17 00:44:51.60	277.93	40.44	-43.7	-46.1	18.4	0.00e+00	0	42	0	698351616	58	4906
2026-01-17 00:44:52.60	277.49	40.34	-44.0	-46.5	18.1	0.00e+00	0	42	0	699400192	58	5131
2026-01-17 00:44:53.60	277.05	40.25	-43.9	-46.4	18.1	0.00e+00	0	42	0	701497344	59	4786
2026-01-17 00:44:54.60	276.61	40.15	-43.4	-45.8	18.7	0.00e+00	0	42	0	703594496	58	4726
2026-01-17 00:44:55.60	276.18	40.05	-42.9	-45.2	19.0	0.00e+00	0	42	0	705691648	57	4686
2026-01-17 00:44:56.60	275.75	39.95	-42.9	-45.1	19.3	0.00e+00	0	42	0	707788800	57	4628
2026-01-17 00:44:57.61	275.32	39.84	-43.1	-45.5	18.9	0.00e+00	0	42	0	708837376	57	4822
2026-01-17 00:44:58.61	274.90	39.74	-42.6	-44.8	19.5	0.00e+00	0	42	0	710934528	57	4471
2026-01-17 00:44:59.61	274.47	39.63	-42.8	-45.0	19.3	0.00e+00	0	42	0	713031680	57	4591
2026-01-17 00:45:00.61	274.06	39.52	-43.0	-45.3	19.1	0.00e+00	0	42	0	715128832	57	4743
2026-01-17 00:45:01.61	273.64	39.41	-42.9	-45.2	19.2	0.00e+00	0	42	0	716177408	57	4660
2026-01-17 00:45:02.61	273.23	39.30	-42.6	-44.8	19.6	0.00e+00	0	42	0	718274560	57	4451
2026-01-17 00:45:03.62	272.81	39.19	-42.4	-44.6	19.8	0.00e+00	0	42	0	720371712	56	4607
2026-01-17 00:45:04.62	272.40	39.07	-42.2	-44.3	20.0	0.00e+00	0	42	0	722468864	56	4458
2026-01-17 00:45:05.62	272.00	38.96	-41.8	-43.9	20.2	0.00e+00	0	42	0	724566016	55	4509
2026-01-17 00:45:06.62	271.60	38.84	-41.9	-44.0	20.0	0.00e+00	0	42	0	725614592	55	4591
2026-01-17 00:45:07.62	271.20	38.73	-42.6	-44.8	19.4	0.00e+00	0	42	0	727711744	55	5005
2026-01-17 00:45:08.62	270.80	38.61	-43.2	-45.6	18.8	0.00e+00	0	42	0	729808896	57	4914
2026-01-17 00:45:09.63	270.41	38.49	-43.7	-46.2	18.3	0.00e+00	0	42	0	731906048	57	5219
2026-01-17 00:45:10.63	270.02	38.37	-43.9	-46.4	18.1	0.00e+00	0	42	0	734003200	58	5093
2026-01-17 00:45:11.63	269.63	38.25	-43.9	-46.5	18.0	0.00e+00	0	42	0	735051776	58	5137
2026-01-17 00:45:12.63	269.24	38.12	-43.8	-46.2	18.3	0.00e+00	0	42	0	737148928	58	4979
2026-01-17 00:45:13.63	268.86	38.00	-43.1	-45.4	19.0	0.00e+00	0	42	0	739246080	58	4511
2026-01-17 00:45:14.64	268.48	37.87	-42.8	-45.0	19.4	0.00e+00	0	42	0	741343232	57	4570
2026-01-17 00:45:15.64	268.10	37.75	-42.6	-44.8	19.6	0.00e+00	0	42	0	743440384	56	4714
2026-01-17 00:45:16.64	267.73	37.62	-43.1	-45.4	19.0	0.00e+00	0	42	0	744488960	56	5077
2026-01-17 00:45:17.65	267.36	37.49	-43.7	-46.2	18.3	0.00e+00	0	42	0	746586112	58	4950
2026-01-17 00:45:18.65	266.99	37.37	-43.9	-46.4	18.1	0.00e+00	0	42	0	748683264	58	5062
2026-01-17 00:45:19.65	266.63	37.24	-43.2	-45.6	18.9	0.00e+00	0	42	0	750780416	58	4602
2026-01-17 00:45:20.66	266.26	37.11	-42.5	-44.7	19.6	0.00e+00	0	42	0	752877568	57	4420
2026-01-17 00:45:21.66	265.90	36.97	-42.3	-44.4	19.8	0.00e+00	0	42	0	753926144	56	4537
2026-01-17 00:45:22.66	265.55	36.84	-42.4	-44.5	19.8	0.00e+00	0	42	0	756023296	56	4595
2026-01-17 00:45:23.66	265.20	36.71	-42.1	-44.1	20.1	0.00e+00	0	42	0	758120448	56	4381
2026-01-17 00:45:24.66	264.85	36.58	-42.2	-44.3	19.8	0.00e+00	0	42	0	760217600	55	4736
2026-01-17 00:45:25.66	264.50	36.44	-43.0	-45.4	19.1	0.00e+00	0	42	0	761266176	56	5044
2026-01-17 00:45:26.66	264.16	36.31	-44.2	-46.8	17.8	0.00e+00	0	42	0	763363328	58	5325
2026-01-17 00:45:27.66	263.81	36.18	-44.5	-47.3	17.2	0.00e+00	0	42	0	765460480	59	5308
2026-01-17 00:45:28.66	263.48	36.04	-43.7	-46.2	18.2	0.00e+00	0	42	0	767557632	59	4687
2026-01-17 00:45:29.66	263.14	35.90	-43.1	-45.5	18.9	0.00e+00	0	42	0	769654784	58	4568
2026-01-17 00:45:30.66	262.81	35.77	-43.4	-45.8	18.6	0.00e+00	0	42	0	770703360	58	4742
2026-01-17 00:45:31.67	262.47	35.63	-43.4	-45.8	18.6	0.00e+00	0	42	0	772800512	58	4743
2026-01-17 00:45:32.67	262.15	35.49	-43.8	-46.3	18.3	0.00e+00	0	42	0	774897664	58	4984
2026-01-17 00:45:33.66	261.83	35.36	-43.7	-46.2	18.3	0.00e+00	0	42	0	776994816	58	4938
2026-01-17 00:45:34.67	261.50	35.22	-43.9	-46.4	18.1	0.00e+00	0	42	0	779091968	58	5068
2026-01-17 00:45:35.67	261.18	35.08	-44.0	-46.5	18.0	0.00e+00	0	42	0	780140544	58	5120
2026-01-17 00:45:36.67	260.87	34.94	-44.3	-46.9	17.6	0.00e+00	0	42	0	782237696	59	5096
2026-01-17 00:45:37.67	260.55	34.80	-44.3	-47.0	17.5	0.00e+00	0	42	0	784334848	59	5131
2026-01-17 00:45:38.67	260.24	34.66	-44.9	-47.7	17.0	0.00e+00	0	42	0	786432000	60	5245
2026-01-17 00:45:39.67	259.93	34.52	-44.9	-47.7	16.9	0.00e+00	0	42	0	788529152	60	5253
2026-01-17 00:45:40.67	259.63	34.38	-45.6	-48.7	16.0	0.00e+00	0	42	0	789577728	61	5576
2026-01-17 00:45:41.68	259.32	34.24	-45.5	-48.6	16.1	0.00e+00	0	42	0	791674880	62	5206
2026-01-17 00:45:42.68	259.02	34.10	-45.3	-48.4	16.3	0.00e+00	0	42	0	793772032	62	5057
2026-01-17 00:45:43.68	258.72	33.95	-45.3	-48.3	16.4	0.00e+00	0	42	0	795869184	62	5027
2026-01-17 00:45:44.68	258.43	33.81	-44.9	-47.9	16.8	0.00e+00	0	42	0	796917760	61	5059
2026-01-17 00:45:45.68	258.14	33.67	-45.0	-47.9	16.7	0.00e+00	0	42	0	799014912	61	5075
2026-01-17 00:45:46.68	257.85	33.53	-45.2	-48.2	16.6	0.00e+00	0	42	0	801112064	61	5235
2026-01-17 00:45:47.68	257.56	33.39	-44.8	-47.5	17.1	0.00e+00	0	42	0	803209216	61	4861
2026-01-17 00:45:48.68	257.27	33.24	-44.6	-47.3	17.3	0.00e+00	0	42	0	805306368	61	4729
2026-01-17 00:45:49.68	256.99	33.10	-44.6	-47.3	17.3	0.00e+00	0	42	0	806354944	60	5039
2026-01-17 00:45:50.68	256.71	32.96	-45.2	-48.2	16.5	0.00e+00	0	42	0	808452096	61	5234
2026-01-17 00:45:51.68	256.44	32.82	-46.0	-49.3	15.4	0.00e+00	0	42	0	810549248	62	5642
2026-01-17 00:45:52.68	256.16	32.67	-46.1	-49.5	15.3	0.00e+00	0	42	0	812646400	62	5730
2026-01-17 00:45:53.68	255.89	32.53	-45.7	-48.8	15.8	0.00e+00	0	42	0	814743552	62	5337
2026-01-17 00:45:54.68	255.62	32.39	-45.3	-48.2	16.5	0.00e+00	0	42	0	815792128	62	4957
2026-01-17 00:45:55.68	255.35	32.25	-45.1	-47.9	16.7	0.00e+00	0	42	0	817889280	62	4805
2026-01-17 00:45:56.68	255.08	32.10	-45.5	-48.5	16.2	0.00e+00	0	42	0	819986432	62	5139
2026-01-17 00:45:57.68	254.82	31.96	-45.8	-49.0	15.7	0.00e+00	0	42	0	822083584	62	5412
2026-01-17 00:45:58.68	254.56	31.82	-46.1	-49.5	15.2	0.00e+00	0	42	0	823132160	63	5422
2026-01-17 00:45:59.68	254.30	31.67	-46.7	-50.5	14.2	0.00e+00	0	42	0	825229312	63	6069
2026-01-17 00:46:00.68	254.05	31.53	-47.1	-51.3	13.4	4.50e-06	0	42	0	827326464	64	6329
2026-01-17 00:46:01.68	253.79	31.39	-47.8	-52.8	11.9	1.63e-04	0	42	0	829423616	66	6660
2026-01-17 00:46:02.68	253.54	31.25	-47.8	-52.7	12.0	5.74e-04	0	42	0	831520768	66	6638
2026-01-17 00:46:03.67	253.29	31.11	-47.6	-52.1	12.4	1.27e-04	0	42	0	832569344	66	6176
2026-01-17 00:46:04.67	253.05	30.96	-46.8	-50.6	14.0	1.22e-05	0	42	0	834666496	65	5482
2026-01-17 00:46:05.67	252.80	30.82	-46.6	-50.2	14.4	1.50e-06	0	42	0	836763648	65	5220
2026-01-17 00:46:06.67	252.56	30.68	-46.1	-49.4	15.1	7.00e-07	0	42	0	838860800	64	5098
2026-01-17 00:46:07.67	252.32	30.54	-46.2	-49.6	14.9	0.00e+00	0	42	0	840957952	64	5214
2026-01-17 00:46:08.67	252.08	30.39	-46.3	-49.8	14.8	0.00e+00	0	42	0	842006528	64	5320
2026-01-17 00:46:09.67	251.84	30.25	-46.3	-49.9	14.7	0.00e+00	0	42	0	844103680	64	5402
2026-01-17 00:46:10.67	251.61	30.11	-45.7	-48.9	15.7	0.00e+00	0	42	0	846200832	63	5094
2026-01-17 00:46:11.67	251.37	29.97	-45.7	-48.9	15.7	0.00e+00	0	42	0	848297984	63	5099
2026-01-17 00:46:12.67	251.14	29.83	-45.6	-48.8	16.0	0.00e+00	0	42	0	850395136	62	5284
2026-01-17 00:46:13.68	250.91	29.68	-45.7	-49.0	15.7	0.00e+00	0	42	0	851443712	62	5432
2026-01-17 00:46:14.68	250.69	29.54	-46.2	-49.6	15.1	0.00e+00	0	42	0	853540864	62	5833
2026-01-17 00:46:15.68	250.46	29.40	-46.1	-49.5	15.2	0.00e+00	0	42	0	855638016	63	5426
2026-01-17 00:46:16.68	250.24	29.26	-45.8	-49.0	15.7	0.00e+00	0	42	0	857735168	63	5127
2026-01-17 00:46:17.68	250.02	29.12	-45.5	-48.6	16.1	0.00e+00	0	42	0	858783744	63	4898
2026-01-17 00:46:18.68	249.80	28.98	-45.6	-48.7	15.9	0.00e+00	0	42	0	860880896	62	5278
2026-01-17 00:46:19.68	249.59	28.84	-45.4	-48.4	16.3	0.00e+00	0	42	0	862978048	62	5054
2026-01-17 00:46:20.68	249.37	28.70	-45.7	-48.8	15.8	0.00e+00	0	42	0	865075200	62	5327
2026-01-17 00:46:21.69	249.16	28.56	-45.6	-48.6	16.0	0.00e+00	0	42	0	867172352	62	5216
2026-01-17 00:46:22.69	248.94	28.42	-45.7	-48.8	15.8	0.00e+00	0	42	0	868220928	62	5323
2026-01-17 00:46:23.69	248.74	28.28	-45.2	-48.1	16.5	0.00e+00	0	42	0	870318080	62	4909
2026-01-17 00:46:24.69	248.53	28.14	-45.1	-48.0	16.6	0.00e+00	0	42	0	872415232	62	4843
2026-01-17 00:46:25.69	248.32	28.01	-45.0	-47.9	16.7	0.00e+00	0	42	0	874512384	62	4768
2026-01-17 00:46:26.69	248.12	27.87	-45.1	-48.1	16.6	0.00e+00	0	42	0	876609536	61	5166
2026-01-17 00:46:27.69	247.92	27.73	-44.6	-47.4	17.2	0.00e+00	0	42	0	877658112	61	4785
2026-01-17 00:46:28.69	247.72	27.59	-44.4	-47.1	17.4	0.00e+00	0	42	0	879755264	60	4896
2026-01-17 00:46:29.69	247.52	27.45	-44.3	-46.8	17.7	0.00e+00	0	42	0	881852416	60	4753
2026-01-17 00:46:30.70	247.32	27.32	-43.9	-46.4	18.0	0.00e+00	0	42	0	883949568	59	4778
2026-01-17 00:46:31.70	247.12	27.18	-44.0	-46.5	18.0	0.00e+00	0	42	0	884998144	59	4834
2026-01-17 00:46:32.70	246.93	27.04	-43.9	-46.4	18.1	0.00e+00	0	42	0	887095296	59	4780
2026-01-17 00:46:33.69	246.74	26.91	-44.0	-46.4	18.0	0.00e+00	0	42	0	889192448	59	4804
2026-01-17 00:46:34.69	246.55	26.77	-44.0	-46.5	17.9	0.00e+00	0	42	0	891289600	59	4844
2026-01-17 00:46:35.69	246.36	26.64	-44.2	-46.8	17.7	0.00e+00	0	42	0	893386752	59	4996
2026-01-17 00:46:36.70	246.17	26.50	-44.5	-47.1	17.3	0.00e+00	0	42	0	894435328	59	5211
2026-01-17 00:46:37.70	245.99	26.37	-44.4	-47.0	17.5	0.00e+00	0	42	0	896532480	59	5156
2026-01-17 00:46:38.70	245.81	26.23	-44.6	-47.3	17.2	0.00e+00	0	42	0	898629632	59	5338
2026-01-17 00:46:39.70	245.62	26.10	-45.1	-48.0	16.6	0.00e+00	0	42	0	900726784	60	5437
2026-01-17 00:46:40.69	245.44	25.97	-45.1	-48.0	16.6	0.00e+00	0	42	0	902823936	61	5135
2026-01-17 00:46:41.70	245.26	25.83	-45.3	-48.3	16.3	0.00e+00	0	42	0	903872512	61	5303
2026-01-17 00:46:42.70	245.09	25.70	-45.8	-49.0	15.7	0.00e+00	0	42	0	905969664	62	5421
2026-01-17 00:46:43.70	244.91	25.57	-45.9	-49.2	15.4	0.00e+00	0	42	0	908066816	62	5551
2026-01-17 00:46:44.70	244.74	25.43	-46.0	-49.3	15.4	0.00e+00	0	42	0	910163968	63	5318
2026-01-17 00:46:45.70	244.56	25.30	-46.0	-49.3	15.4	0.00e+00	0	42	0	912261120	63	5326
2026-01-17 00:46:46.70	244.39	25.17	-46.0	-49.2	15.4	0.00e+00	0	42	0	913309696	63	5257
2026-01-17 00:46:47.70	244.22	25.04	-45.6	-48.7	16.0	0.00e+00	0	42	0	915406848	63	4943
2026-01-17 00:46:48.70	244.05	24.91	-45.6	-48.8	15.9	0.00e+00	0	42	0	917504000	63	4987
2026-01-17 00:46:49.70	243.88	24.78	-45.6	-48.7	15.9	0.00e+00	0	42	0	919601152	63	4953
2026-01-17 00:46:50.70	243.72	24.65	-45.5	-48.6	16.0	0.00e+00	0	42	0	921698304	62	5204
2026-01-17 00:46:51.70	243.55	24.52	-45.2	-48.2	16.5	0.00e+00	0	42	0	922746880	62	4930
2026-01-17 00:46:52.70	243.39	24.39	-45.1	-48.1	16.6	0.00e+00	0	42	0	924844032	62	4878
2026-01-17 00:46:53.70	243.23	24.26	-45.1	-48.0	16.6	0.00e+00	0	42	0	926941184	62	4857
2026-01-17 00:46:54.70	243.07	24.13	-45.1	-47.9	16.7	0.00e+00	0	42	0	929038336	62	4811
2026-01-17 00:46:55.70	242.91	24.00	-44.7	-47.5	17.1	0.00e+00	0	42	0	930086912	61	4824
2026-01-17 00:46:56.70	242.75	23.88	-44.6	-47.3	17.3	0.00e+00	0	42	0	932184064	61	4720
2026-01-17 00:46:57.71	242.59	23.75	-44.7	-47.4	17.1	0.00e+00	0	42	0	934281216	61	4807
2026-01-17 00:46:58.71	242.44	23.62	-44.6	-47.2	17.3	0.00e+00	0	42	0	936378368	60	4978
2026-01-17 00:46:59.71	242.28	23.49	-44.7	-47.4	17.2	0.00e+00	0	42	0	938475520	60	5051
2026-01-17 00:47:00.71	242.13	23.37	-44.8	-47.5	17.0	0.00e+00	0	42	0	939524096	60	5155
2026-01-17 00:47:01.71	241.98	23.24	-44.9	-47.7	16.9	0.00e+00	0	42	0	941621248	60	5219
2026-01-17 00:47:02.71	241.83	23.12	-44.6	-47.3	17.3	0.00e+00	0	42	0	943718400	60	4985
2026-01-17 00:47:03.71	241.68	22.99	-44.4	-47.1	17.4	0.00e+00	0	42	0	945815552	60	4902
2026-01-17 00:47:04.72	241.53	22.87	-44.0	-46.6	17.8	0.00e+00	0	42	0	947912704	60	4625
2026-01-17 00:47:05.72	241.38	22.74	-43.8	-46.3	18.1	0.00e+00	0	42	0	948961280	59	4737
2026-01-17 00:47:06.72	241.24	22.62	-44.0	-46.6	17.8	0.00e+00	0	42	0	951058432	59	4915
2026-01-17 00:47:07.72	241.09	22.50	-43.7	-46.2	18.1	0.00e+00	0	42	0	953155584	59	4701
2026-01-17 00:47:08.72	240.95	22.37	-44.1	-46.7	17.7	0.00e+00	0	42	0	955252736	59	4968
2026-01-17 00:47:09.72	240.81	22.25	-44.3	-47.0	17.4	0.00e+00	0	42	0	957349888	59	5146
2026-01-17 00:47:10.72	240.67	22.13	-45.1	-48.0	16.5	0.00e+00	0	42	0	958398464	60	5455
2026-01-17 00:47:11.73	240.53	22.00	-45.6	-48.8	15.8	0.00e+00	0	42	0	960495616	61	5593
2026-01-17 00:47:12.73	240.39	21.88	-46.2	-49.6	15.0	0.00e+00	0	42	0	962592768	62	5827
2026-01-17 00:47:13.72	240.25	21.76	-46.4	-50.0	14.6	0.00e+00	0	42	0	964689920	63	5763
2026-01-17 00:47:14.72	240.12	21.64	-46.3	-49.8	14.7	7.00e-07	0	42	0	965738496	64	5322
2026-01-17 00:47:15.72	239.98	21.52	-46.3	-49.9	14.6	7.00e-07	0	42	0	967835648	64	5378
2026-01-17 00:47:16.72	239.85	21.40	-46.1	-49.6	14.9	0.00e+00	0	42	0	969932800	64	5172
2026-01-17 00:47:17.73	239.71	21.28	-46.1	-49.4	15.1	0.00e+00	0	42	0	972029952	63	5401
2026-01-17 00:47:18.73	239.58	21.16	-45.6	-48.8	15.7	0.00e+00	0	42	0	974127104	63	5022
2026-01-17 00:47:19.73	239.45	21.05	-45.6	-48.8	15.8	0.00e+00	0	42	0	975175680	62	5297
2026-01-17 00:47:20.73	239.32	20.93	-45.5	-48.6	15.9	0.00e+00	0	42	0	977272832	62	5193
2026-01-17 00:47:21.73	239.19	20.81	-45.2	-48.2	16.3	0.00e+00	0	42	0	979369984	62	4975
2026-01-17 00:47:22.73	239.06	20.69	-45.2	-48.2	16.3	0.00e+00	0	42	0	981467136	62	4958
2026-01-17 00:47:23.73	238.93	20.57	-45.1	-48.0	16.5	0.00e+00	0	42	0	983564288	62	4841
2026-01-17 00:47:24.73	238.81	20.46	-45.0	-48.0	16.6	0.00e+00	0	42	0	984612864	61	5102
2026-01-17 00:47:25.73	238.68	20.34	-44.9	-47.7	16.8	0.00e+00	0	42	0	986710016	61	4948
2026-01-17 00:47:26.73	238.56	20.23	-45.1	-48.1	16.4	0.00e+00	0	42	0	988807168	61	5175
2026-01-17 00:47:27.73	238.43	20.11	-45.2	-48.2	16.2	0.00e+00	0	42	0	990904320	61	5274
2026-01-17 00:47:28.74	238.31	19.99	-45.3	-48.4	16.1	0.00e+00	0	42	0	993001472	61	5376
2026-01-17 00:47:29.74	238.19	19.88	-45.4	-48.5	16.0	0.00e+00	0	42	0	994050048	61	5433
2026-01-17 00:47:30.73	238.07	19.77	-45.3	-48.4	16.1	0.00e+00	0	42	0	996147200	61	5357
2026-01-17 00:47:31.74	237.95	19.65	-45.2	-48.2	16.3	0.00e+00	0	42	0	998244352	61	5263
2026-01-17 00:47:32.74	237.83	19.54	-45.1	-48.0	16.5	0.00e+00	0	42	0	1000341504	61	5135
2026-01-17 00:47:33.74	237.71	19.43	-44.7	-47.5	17.0	0.00e+00	0	42	0	1001390080	61	4857
2026-01-17 00:47:34.75	237.59	19.31	-44.4	-47.1	17.4	0.00e+00	0	42	0	1003487232	60	4891
2026-01-17 00:47:35.74	237.48	19.20	-44.1	-46.7	17.8	0.00e+00	0	42	0	1005584384	60	4661
2026-01-17 00:47:36.74	237.36	19.09	-43.9	-46.4	17.9	0.00e+00	0	42	0	1007681536	59	4781
2026-01-17 00:47:37.75	237.25	18.98	-44.1	-46.6	17.8	0.00e+00	0	42	0	1009778688	59	4904
2026-01-17 00:47:38.74	237.13	18.87	-44.1	-46.7	17.7	0.00e+00	0	42	0	1010827264	59	4949
2026-01-17 00:47:39.74	237.02	18.75	-44.1	-46.7	17.7	0.00e+00	0	42	0	1012924416	59	4938
2026-01-17 00:47:40.72	236.91	18.65	-44.2	-46.7	17.6	0.00e+00	0	42	0	1015021568	59	4977
2026-01-17 00:47:41.72	236.80	18.54	-44.4	-47.1	17.3	0.00e+00	0	42	0	1017118720	59	5200
2026-01-17 00:47:42.72	236.69	18.43	-44.8	-47.6	16.9	0.00e+00	0	42	0	1019215872	60	5169
2026-01-17 00:47:43.72	236.58	18.32	-45.0	-47.9	16.6	0.00e+00	0	42	0	1020264448	60	5374
2026-01-17 00:47:44.73	236.47	18.21	-45.3	-48.4	16.1	0.00e+00	0	42	0	1022361600	61	5352
2026-01-17 00:47:45.73	236.36	18.10	-45.3	-48.3	16.2	0.00e+00	0	42	0	1024458752	61	5324
2026-01-17 00:47:46.73	236.26	17.99	-45.2	-48.2	16.2	0.00e+00	0	42	0	1026555904	61	5267
2026-01-17 00:47:47.73	236.15	17.88	-45.2	-48.2	16.2	0.00e+00	0	42	0	1027604480	61	5264
2026-01-17 00:47:48.73	236.04	17.78	-45.1	-48.1	16.3	0.00e+00	0	42	0	1029701632	61	5211
2026-01-17 00:47:49.73	235.94	17.67	-45.0	-48.0	16.4	0.00e+00	0	42	0	1031798784	61	5118
2026-01-17 00:47:50.73	235.84	17.56	-44.8	-47.7	16.8	0.00e+00	0	42	0	1033895936	61	4944
2026-01-17 00:47:51.73	235.73	17.46	-44.8	-47.7	16.7	0.00e+00	0	42	0	1035993088	61	4959
2026-01-17 00:47:52.74	235.63	17.35	-44.8	-47.6	16.8	0.00e+00	0	42	0	1038090240	61	4920
2026-01-17 00:47:53.73	235.53	17.24	-45.0	-47.9	16.6	0.00e+00	0	42	0	1039138816	61	5057
2026-01-17 00:47:54.73	235.43	17.14	-44.9	-47.8	16.6	0.00e+00	0	42	0	1041235968	61	5017
2026-01-17 00:47:55.73	235.33	17.03	-45.0	-47.9	16.5	0.00e+00	0	42	0	1043333120	61	5056
2026-01-17 00:47:56.73	235.23	16.93	-44.9	-47.8	16.5	0.00e+00	0	42	0	1045430272	61	5040
2026-01-17 00:47:57.73	235.13	16.83	-44.9	-47.8	16.6	0.00e+00	0	42	0	1046478848	61	5014
2026-01-17 00:47:58.74	235.03	16.72	-45.0	-48.0	16.5	0.00e+00	0	42	0	1048576000	61	5110
2026-01-17 00:47:59.74	234.93	16.62	-44.9	-47.8	16.6	0.00e+00	0	42	0	1050673152	61	5033
2026-01-17 00:48:00.74	234.83	16.51	-45.1	-48.0	16.4	0.00e+00	0	42	0	1052770304	61	5149
2026-01-17 00:48:01.75	234.74	16.41	-45.0	-47.9	16.5	0.00e+00	0	42	0	1054867456	61	5080
2026-01-17 00:48:02.75	234.64	16.31	-44.8	-47.7	16.7	0.00e+00	0	42	0	1055916032	61	4947
2026-01-17 00:48:03.75	234.55	16.21	-45.0	-48.0	16.4	0.00e+00	0	42	0	1058013184	61	5122
2026-01-17 00:48:04.75	234.45	16.10	-45.0	-47.9	16.5	0.00e+00	0	42	0	1060110336	61	5081
2026-01-17 00:48:05.75	234.36	16.00	-45.0	-48.0	16.4	0.00e+00	0	42	0	1062207488	61	5120
2026-01-17 00:48:06.75	234.27	15.90	-45.3	-48.3	16.1	0.00e+00	0	42	0	1064304640	61	5303
2026-01-17 00:48:07.75	234.17	15.80	-45.3	-48.4	16.0	0.00e+00	0	42	0	1065353216	61	5376
2026-01-17 00:48:08.75	234.08	15.70	-45.3	-48.4	16.0	0.00e+00	0	42	0	1067450368	61	5386
2026-01-17 00:48:09.76	233.99	15.60	-45.5	-48.7	15.7	0.00e+00	0	42	0	1069547520	61	5556
2026-01-17 00:48:10.76	233.90	15.50	-45.6	-48.8	15.7	0.00e+00	0	42	0	1071644672	62	5281
2026-01-17 00:48:11.76	233.81	15.40	-45.5	-48.7	15.8	0.00e+00	0	42	0	1072693248	62	5231
2026-01-17 00:48:12.76	233.72	15.30	-45.4	-48.5	15.9	0.00e+00	0	42	0	1074790400	62	5123
2026-01-17 00:48:13.76	233.63	15.20	-45.2	-48.1	16.3	0.00e+00	0	42	0	1076887552	62	4914
2026-01-17 00:48:14.76	233.54	15.10	-45.1	-48.1	16.4	0.00e+00	0	42	0	1078984704	62	4880
2026-01-17 00:48:15.76	233.46	15.01	-44.8	-47.7	16.7	0.00e+00	0	42	0	1081081856	61	4936
2026-01-17 00:48:16.76	233.37	14.91	-44.7	-47.4	16.9	0.00e+00	0	42	0	1082130432	61	4814
2026-01-17 00:48:17.75	233.28	14.81	-44.6	-47.4	17.0	0.00e+00	0	42	0	1084227584	61	4789
2026-01-17 00:48:18.75	233.20	14.72	-44.5	-47.2	17.1	0.00e+00	0	42	0	1086324736	60	4963
2026-01-17 00:48:19.75	233.11	14.62	-44.3	-47.0	17.4	0.00e+00	0	42	0	1088421888	60	4825
2026-01-17 00:48:20.75	233.03	14.52	-44.2	-46.9	17.5	0.00e+00	0	42	0	1090519040	60	4784
2026-01-17 00:48:21.75	232.95	14.43	-44.4	-47.0	17.3	0.00e+00	0	42	0	1091567616	60	4869
2026-01-17 00:48:22.75	232.86	14.33	-44.4	-47.0	17.3	0.00e+00	0	42	0	1093664768	60	4868
2026-01-17 00:48:23.75	232.78	14.24	-44.2	-46.8	17.5	0.00e+00	0	42	0	1095761920	60	4734
2026-01-17 00:48:24.75	232.70	14.14	-44.3	-47.0	17.4	0.00e+00	0	42	0	1097859072	60	4824
2026-01-17 00:48:25.76	232.61	14.04	-44.2	-46.9	17.4	0.00e+00	0	42	0	1099956224	60	4790
2026-01-17 00:48:26.76	232.53	13.95	-44.3	-47.0	17.3	0.00e+00	0	42	0	1101004800	60	4822
2026-01-17 00:48:27.76	232.45	13.86	-44.3	-47.1	17.3	0.00e+00	0	42	0	1103101952	60	4876
2026-01-17 00:48:28.76	232.37	13.76	-44.4	-47.1	17.2	0.00e+00	0	41	0	1105199104	60	4892
2026-01-17 00:48:29.76	232.29	13.67	-44.5	-47.2	17.1	0.00e+00	0	41	0	1107296256	60	4960
2026-01-17 00:48:30.77	232.21	13.57	-44.5	-47.2	17.1	0.00e+00	0	42	0	1108344832	60	4980
2026-01-17 00:48:31.77	232.13	13.48	-44.7	-47.5	16.9	0.00e+00	0	42	0	1110441984	60	5107
2026-01-17 00:48:32.77	232.06	13.39	-44.6	-47.4	16.9	0.00e+00	0	42	0	1112539136	60	5045
2026-01-17 00:48:33.77	231.98	13.30	-44.6	-47.4	16.9	0.00e+00	0	41	0	1114636288	60	5066
2026-01-17 00:48:34.78	231.90	13.20	-44.6	-47.4	16.9	0.00e+00	0	42	0	1116733440	60	5068
2026-01-17 00:48:35.78	231.82	13.11	-44.6	-47.4	16.9	0.00e+00	0	42	0	1117782016	60	5093
2026-01-17 00:48:36.77	231.75	13.02	-44.5	-47.2	17.0	0.00e+00	0	42	0	1119879168	60	4978
2026-01-17 00:48:37.78	231.67	12.93	-44.6	-47.4	16.9	0.00e+00	0	42	0	1121976320	60	5053
2026-01-17 00:48:38.78	231.60	12.84	-44.7	-47.5	16.8	0.00e+00	0	42	0	1124073472	60	5118
2026-01-17 00:48:39.78	231.52	12.75	-44.7	-47.5	16.8	0.00e+00	0	41	0	1126170624	60	5129
2026-01-17 00:48:40.78	231.45	12.66	-44.8	-47.6	16.7	0.00e+00	0	42	0	1127219200	60	5208
2026-01-17 00:48:41.78	231.37	12.57	-44.9	-47.8	16.4	0.00e+00	0	42	0	1129316352	60	5332
2026-01-17 00:48:42.79	231.30	12.48	-44.8	-47.7	16.6	0.00e+00	0	42	0	1131413504	60	5230
2026-01-17 00:48:43.79	231.23	12.39	-45.0	-47.9	16.4	0.00e+00	0	42	0	1133510656	60	5370
2026-01-17 00:48:44.78	231.16	12.30	-45.1	-48.0	16.2	0.00e+00	0	42	0	1135607808	60	5460
2026-01-17 00:48:45.79	231.08	12.21	-45.1	-48.0	16.2	0.00e+00	0	41	0	1136656384	60	5464
2026-01-17 00:48:46.79	231.01	12.12	-45.2	-48.2	16.1	0.00e+00	0	42	0	1138753536	61	5242
2026-01-17 00:48:47.79	230.94	12.03	-45.2	-48.3	16.0	0.00e+00	0	41	0	1140850688	61	5306
2026-01-17 00:48:48.79	230.87	11.94	-45.2	-48.2	16.1	0.00e+00	0	42	0	1142947840	61	5235
2026-01-17 00:48:49.79	230.80	11.85	-45.3	-48.4	15.8	0.00e+00	0	42	0	1145044992	61	5353
2026-01-17 00:48:50.79	230.73	11.77	-45.2	-48.2	16.1	0.00e+00	0	42	0	1146093568	61	5248
2026-01-17 00:48:51.79	230.66	11.68	-45.2	-48.3	15.9	0.00e+00	0	42	0	1148190720	61	5326
2026-01-17 00:48:52.79	230.59	11.59	-45.3	-48.4	15.9	0.00e+00	0	42	0	1150287872	61	5354
2026-01-17 00:48:53.79	230.52	11.51	-45.3	-48.5	15.8	0.00e+00	0	42	0	1152385024	61	5422
2026-01-17 00:48:54.79	230.46	11.42	-45.3	-48.5	15.8	0.00e+00	0	42	0	1153433600	61	5421
2026-01-17 00:48:55.79	230.39	11.33	-45.4	-48.5	15.7	0.00e+00	0	42	0	1155530752	61	5461
2026-01-17 00:48:56.80	230.32	11.25	-45.4	-48.6	15.6	0.00e+00	0	42	0	1157627904	61	5518
2026-01-17 00:48:57.80	230.25	11.16	-45.4	-48.6	15.7	0.00e+00	0	42	0	1159725056	61	5483
2026-01-17 00:48:58.80	230.19	11.08	-45.6	-48.9	15.4	0.00e+00	0	42	0	1161822208	61	5684
2026-01-17 00:48:59.80	230.12	10.99	-45.6	-48.9	15.3	0.00e+00	0	42	0	1162870784	61	5718
2026-01-17 00:49:00.80	230.06	10.91	-45.7	-49.1	15.2	0.00e+00	0	42	0	1164967936	62	5478
2026-01-17 00:49:01.80	229.99	10.82	-45.8	-49.1	15.1	0.00e+00	0	42	0	1167065088	62	5501
2026-01-17 00:49:02.80	229.93	10.74	-45.9	-49.3	15.0	0.00e+00	0	42	0	1169162240	62	5630
2026-01-17 00:49:03.80	229.86	10.65	-46.0	-49.5	14.8	0.00e+00	0	42	0	1171259392	62	5763
2026-01-17 00:49:04.80	229.80	10.57	-46.1	-49.6	14.6	0.00e+00	0	42	0	1172307968	62	5851
2026-01-17 00:49:05.80	229.73	10.48	-46.3	-50.0	14.2	0.00e+00	0	41	0	1174405120	63	5761
2026-01-17 00:49:06.80	229.67	10.40	-46.3	-50.1	14.1	1.50e-06	0	41	0	1176502272	63	5838
2026-01-17 00:49:07.80	229.61	10.32	-46.4	-50.3	14.0	0.00e+00	0	42	0	1178599424	63	5924
2026-01-17 00:49:08.80	229.54	10.24	-46.4	-50.3	13.9	1.50e-06	0	42	0	1179648000	63	5932
2026-01-17 00:49:09.80	229.48	10.15	-46.5	-50.5	13.8	1.50e-06	0	42	0	1181745152	63	6073
2026-01-17 00:49:10.81	229.42	10.07	-46.4	-50.3	13.9	2.20e-06	0	41	0	1183842304	63	5957
2026-01-17 00:49:11.81	229.36	9.99	-46.3	-50.0	14.2	1.50e-06	0	42	0	1185939456	63	5786
2026-01-17 00:49:12.81	229.30	9.91	-46.2	-50.0	14.2	7.00e-07	0	42	0	1188036608	63	5762
2026-01-17 00:49:13.82	229.24	9.82	-46.2	-49.9	14.3	7.00e-07	0	41	0	1189085184	63	5661
2026-01-17 00:49:14.81	229.18	9.74	-46.0	-49.6	14.6	0.00e+00	0	41	0	1191182336	63	5496
2026-01-17 00:49:15.82	229.12	9.66	-46.0	-49.6	14.6	7.00e-07	0	42	0	1193279488	63	5494
2026-01-17 00:49:16.82	229.06	9.58	-45.9	-49.5	14.6	0.00e+00	0	41	0	1195376640	63	5422
2026-01-17 00:49:17.82	229.00	9.50	-45.7	-49.2	15.0	0.00e+00	0	42	0	1197473792	63	5224
2026-01-17 00:49:18.82	228.94	9.42	-45.7	-49.0	15.1	0.00e+00	0	42	0	1198522368	63	5149
2026-01-17 00:49:19.82	228.88	9.34	-45.6	-48.9	15.3	0.00e+00	0	41	0	1200619520	63	5066
2026-01-17 00:49:20.82	228.82	9.26	-45.5	-48.7	15.5	0.00e+00	0	41	0	1202716672	62	5253
2026-01-17 00:49:21.82	228.76	9.18	-45.4	-48.6	15.5	0.00e+00	0	42	0	1204813824	62	5204
2026-01-17 00:49:22.82	228.70	9.10	-45.4	-48.6	15.6	0.00e+00	0	41	0	1206910976	62	5216
2026-01-17 00:49:23.82	228.65	9.02	-45.2	-48.3	15.8	0.00e+00	0	42	0	1207959552	62	5040
2026-01-17 00:49:24.82	228.59	8.94	-49.9	-62.1	4.6	2.28e-04	0	42	0	1210056704	70	15506
2026-01-17 00:49:25.81	228.53	8.86	-50.5	-65.8	3.8	1.49e+00	0	42	104	1210056704	71	22315
2026-01-17 00:49:26.81	228.48	8.78	-50.6	-65.9	3.8	1.49e+00	0	41	104	1210056704	71	22730
2026-01-17 00:49:27.81	228.42	8.70	-50.6	-66.0	3.8	1.49e+00	0	42	104	1210056704	71	22838
