passes_logs/2026/01/17/T1/T1__20260117_234922_NOAA_21_JPSS-2_rec.log

#Pass ID: 20260117_234922_NOAA 21 (JPSS-2)
#Satellite: NOAA 21 (JPSS-2)
#Configuration: NOAA 21
#almurnet v.1.7.20251203
#Start time: 2026-01-17 23:49:22

#Version: 2.0.20230620
#Station: T1
#Location: 37.570604 lon 55.790049 lat
#TLE: 1 54234U 22150A   26017.26823908  .00000042  00000+0  40962-4 0  9992
#TLE: 2 54234  98.7501 318.1405 0000613 274.2947  85.8159 14.19535194165131

#Time	Az	El	Level	Level2	SNR	BER	BlckErr	Temp	State	Recorded	gain1	gain2
2026-01-17 23:49:22.80	15.44	5.00	-49.1	-62.9	3.8	1.49e+00	0	40	0	0	69	17960
2026-01-17 23:49:23.79	15.44	5.07	-48.2	-62.5	3.8	1.49e+00	0	40	104	0	67	19316
2026-01-17 23:49:24.78	15.43	5.14	-48.2	-62.5	3.8	1.49e+00	0	40	104	0	67	19341
2026-01-17 23:49:25.77	15.43	5.21	-48.3	-62.6	3.8	1.49e+00	0	40	104	0	67	19512
2026-01-17 23:49:26.77	15.43	5.28	-48.2	-62.6	3.8	1.49e+00	0	40	104	0	67	19440
2026-01-17 23:49:27.76	15.42	5.35	-48.2	-62.6	3.8	1.49e+00	0	40	104	0	67	19448
2026-01-17 23:49:28.75	15.42	5.42	-48.2	-62.6	3.8	1.49e+00	0	40	104	0	67	19573
2026-01-17 23:49:29.74	15.42	5.49	-48.2	-62.6	3.8	1.49e+00	0	40	104	0	67	19556
2026-01-17 23:49:30.74	15.41	5.57	-48.3	-62.7	3.8	1.49e+00	0	40	104	0	67	19627
2026-01-17 23:49:31.73	15.41	5.64	-48.3	-62.6	3.8	1.49e+00	0	40	104	0	67	19590
2026-01-17 23:49:32.72	15.40	5.71	-48.3	-62.6	3.8	1.49e+00	0	40	104	0	67	19591
2026-01-17 23:49:33.72	15.40	5.78	-48.2	-62.6	3.8	1.49e+00	0	40	104	0	67	19548
2026-01-17 23:49:34.71	15.40	5.85	-48.2	-62.6	3.8	1.49e+00	0	40	104	0	67	19431
2026-01-17 23:49:35.71	15.39	5.93	-48.2	-62.6	3.8	1.49e+00	0	40	104	0	67	19414
2026-01-17 23:49:36.70	15.39	6.00	-48.2	-62.6	3.8	1.49e+00	0	40	104	0	67	19453
2026-01-17 23:49:37.69	15.38	6.07	-48.2	-62.5	3.8	1.49e+00	0	40	104	0	67	19292
2026-01-17 23:49:38.69	15.38	6.15	-48.2	-62.5	3.8	1.49e+00	0	40	104	0	67	19270
2026-01-17 23:49:39.68	15.38	6.22	-48.2	-62.5	3.8	1.49e+00	0	40	104	0	67	19192
2026-01-17 23:49:40.67	15.37	6.30	-48.2	-62.5	3.8	1.49e+00	0	40	104	0	67	19233
2026-01-17 23:49:41.67	15.37	6.37	-48.2	-62.5	3.8	1.49e+00	0	40	104	0	67	19189
2026-01-17 23:49:42.66	15.36	6.44	-48.2	-62.4	3.8	1.49e+00	0	40	104	0	67	19129
2026-01-17 23:49:43.65	15.36	6.52	-48.2	-62.3	3.8	1.49e+00	0	41	104	0	67	18900
2026-01-17 23:49:44.65	15.36	6.59	-48.2	-62.3	3.8	1.49e+00	0	40	104	0	67	18766
2026-01-17 23:49:45.64	15.35	6.67	-48.2	-62.2	3.8	1.49e+00	0	41	104	0	67	18637
2026-01-17 23:49:46.63	15.35	6.74	-48.2	-62.2	3.8	1.49e+00	0	41	104	0	67	18544
2026-01-17 23:49:47.63	15.34	6.82	-48.2	-62.1	3.8	1.49e+00	0	41	104	0	67	18383
2026-01-17 23:49:48.62	15.34	6.90	-48.2	-62.0	3.8	1.49e+00	0	41	104	0	67	18233
2026-01-17 23:49:49.61	15.33	6.97	-48.2	-62.0	3.8	1.49e+00	0	41	104	0	67	18142
2026-01-17 23:49:50.61	15.33	7.05	-48.2	-61.9	3.8	1.49e+00	0	40	104	0	67	17980
2026-01-17 23:49:51.60	15.33	7.12	-48.2	-61.9	3.8	1.49e+00	0	41	104	0	67	18010
2026-01-17 23:49:52.60	15.32	7.20	-48.2	-61.8	3.8	1.49e+00	0	41	104	0	67	17823
2026-01-17 23:49:53.59	15.32	7.28	-48.1	-61.6	3.8	1.49e+00	0	41	104	0	67	17426
2026-01-17 23:49:54.58	15.31	7.36	-48.1	-61.5	3.8	1.49e+00	0	41	104	0	67	17088
2026-01-17 23:49:55.58	15.31	7.43	-48.1	-61.2	3.8	1.49e+00	0	40	104	0	67	16602
2026-01-17 23:49:56.57	15.30	7.51	-48.1	-60.6	3.9	1.49e+00	0	41	104	0	67	15555
2026-01-17 23:49:57.56	15.30	7.59	-48.0	-60.2	3.9	1.49e+00	0	41	104	0	67	14737
2026-01-17 23:49:58.55	15.29	7.67	-48.0	-59.6	4.0	1.48e+00	0	41	104	0	67	13731
2026-01-17 23:49:59.55	15.29	7.75	-47.9	-59.2	3.9	1.46e+00	0	41	104	0	67	13170
2026-01-17 23:50:00.54	15.28	7.82	-47.8	-57.6	4.7	1.12e+00	0	41	104	0	67	10991
2026-01-17 23:50:01.54	15.28	7.90	-47.6	-56.7	5.2	6.88e-01	0	41	0	0	67	9885
2026-01-17 23:50:02.53	15.27	7.98	-46.9	-55.4	5.8	4.62e-01	0	41	0	0	66	8987
2026-01-17 23:50:03.52	15.27	8.06	-47.3	-54.9	6.4	2.66e-01	0	41	0	0	66	8504
2026-01-17 23:50:04.52	15.26	8.14	-47.0	-53.7	7.5	1.12e-01	0	41	0	0	66	7453
2026-01-17 23:50:05.51	15.26	8.22	-46.7	-52.9	8.4	4.99e-02	0	41	0	0	65	7141
2026-01-17 23:50:06.50	15.25	8.30	-46.3	-51.8	9.4	1.77e-02	0	41	0	0	64	6702
2026-01-17 23:50:07.50	15.25	8.38	-46.1	-51.1	10.2	6.79e-03	0	41	0	0	64	6201
2026-01-17 23:50:08.49	15.24	8.46	-45.8	-50.5	10.9	2.53e-03	0	41	0	0	63	6107
2026-01-17 23:50:09.48	15.24	8.54	-45.4	-49.7	11.8	5.40e-04	0	41	0	0	62	5875
2026-01-17 23:50:10.48	15.23	8.62	-45.2	-49.2	12.3	1.81e-04	0	41	0	0	62	5535
2026-01-17 23:50:11.47	15.22	8.70	-44.9	-48.8	12.7	1.13e-04	0	41	0	0	61	5606
2026-01-17 23:50:12.47	15.22	8.79	-44.7	-48.4	13.1	5.49e-05	0	41	0	0	61	5370
2026-01-17 23:50:13.46	15.21	8.87	-44.7	-48.3	13.2	3.66e-05	0	41	0	0	61	5282
2026-01-17 23:50:14.45	15.21	8.95	-44.5	-48.1	13.4	1.29e-05	0	41	0	0	61	5161
2026-01-17 23:50:15.45	15.20	9.03	-44.8	-48.4	13.0	3.05e-05	0	41	0	0	61	5402
2026-01-17 23:50:16.44	15.20	9.12	-45.0	-48.9	12.6	2.74e-05	0	41	0	0	61	5692
2026-01-17 23:50:17.43	15.19	9.20	-45.3	-49.3	12.1	1.29e-03	0	41	0	0	62	5640
2026-01-17 23:50:18.43	15.18	9.28	-44.7	-48.2	13.3	1.11e-04	0	41	0	0	61	5258
2026-01-17 23:50:19.42	15.18	9.37	-46.5	-52.2	9.0	4.61e-02	0	41	0	0	64	7027
2026-01-17 23:50:20.42	15.17	9.45	-45.8	-50.4	10.8	6.42e-02	0	41	0	0	63	6028
2026-01-17 23:50:21.41	15.17	9.53	-42.2	-44.6	16.8	0.00e+00	0	41	0	0	56	4622
2026-01-17 23:50:22.41	15.16	9.62	-41.8	-44.1	17.1	0.00e+00	0	41	0	0	55	4636
2026-01-17 23:50:23.40	15.15	9.70	-41.4	-43.6	17.6	0.00e+00	0	41	0	0	54	4609
2026-01-17 23:50:24.40	15.15	9.79	-41.2	-43.4	17.8	0.00e+00	0	41	0	0	54	4500
2026-01-17 23:50:25.39	15.14	9.87	-41.1	-43.3	17.9	0.00e+00	0	41	0	0	54	4451
2026-01-17 23:50:26.45	15.13	9.96	-41.2	-43.3	17.8	0.00e+00	0	41	0	0	54	4493
2026-01-17 23:50:27.37	15.13	10.04	-41.1	-43.3	17.8	0.00e+00	0	41	0	0	54	4472
2026-01-17 23:50:28.36	15.12	10.13	-41.0	-43.2	18.0	0.00e+00	0	41	0	0	53	4686
2026-01-17 23:50:29.36	15.11	10.22	-41.2	-43.5	17.7	0.00e+00	0	41	0	0	53	4819
2026-01-17 23:50:30.36	15.11	10.30	-40.8	-43.0	18.1	0.00e+00	0	41	0	0	53	4574
2026-01-17 23:50:31.35	15.10	10.39	-41.0	-43.2	18.0	0.00e+00	0	41	0	0	53	4674
2026-01-17 23:50:32.35	15.09	10.48	-40.8	-43.0	18.2	0.00e+00	0	41	0	0	53	4564
2026-01-17 23:50:33.34	15.09	10.57	-40.9	-43.2	18.0	0.00e+00	0	41	0	0	53	4657
2026-01-17 23:50:34.34	15.08	10.65	-40.8	-43.0	18.1	0.00e+00	0	41	0	0	53	4561
2026-01-17 23:50:35.33	15.07	10.74	-40.8	-42.9	18.2	0.00e+00	0	41	0	0	53	4538
2026-01-17 23:50:36.33	15.07	10.83	-40.8	-42.9	18.2	0.00e+00	0	41	0	0	53	4521
2026-01-17 23:50:37.32	15.06	10.92	-40.7	-42.9	18.3	0.00e+00	0	41	0	0	53	4496
2026-01-17 23:50:38.32	15.05	11.01	-40.8	-42.9	18.2	0.00e+00	0	41	0	0	53	4533
2026-01-17 23:50:39.31	15.04	11.10	-40.8	-42.9	18.2	0.00e+00	0	41	0	0	53	4533
2026-01-17 23:50:40.31	15.04	11.19	-40.8	-42.9	18.3	0.00e+00	0	41	0	0	53	4517
2026-01-17 23:50:41.37	15.03	11.29	-40.8	-42.9	18.3	0.00e+00	0	42	0	0	53	4511
2026-01-17 23:50:42.24	15.02	11.37	-40.9	-43.0	18.2	0.00e+00	0	41	0	0	53	4577
2026-01-17 23:50:43.38	15.01	11.47	-40.6	-42.7	18.5	0.00e+00	0	41	0	0	53	4417
2026-01-17 23:50:44.23	15.01	11.55	-40.7	-42.8	18.4	0.00e+00	0	42	0	0	53	4458
2026-01-17 23:50:45.36	15.00	11.65	-40.7	-42.8	18.4	0.00e+00	0	42	0	0	53	4476
2026-01-17 23:50:46.22	14.99	11.73	-40.5	-42.6	18.5	0.00e+00	0	41	0	0	53	4387
2026-01-17 23:50:47.35	14.98	11.84	-40.5	-42.6	18.5	0.00e+00	0	42	0	0	53	4382
2026-01-17 23:50:48.21	14.98	11.92	-40.5	-42.6	18.6	0.00e+00	0	42	0	0	52	4600
2026-01-17 23:50:49.34	14.97	12.02	-40.6	-42.7	18.5	0.00e+00	0	42	0	0	52	4669
2026-01-17 23:50:50.19	14.96	12.10	-40.7	-42.8	18.4	0.00e+00	0	41	0	0	52	4759
2026-01-17 23:50:51.38	14.95	12.22	-40.5	-42.6	18.5	0.00e+00	0	42	0	0	52	4645
2026-01-17 23:50:52.23	14.94	12.30	-40.4	-42.5	18.7	0.00e+00	0	42	0	0	52	4574
2026-01-17 23:50:53.43	14.93	12.41	-40.3	-42.4	18.8	0.00e+00	0	42	0	0	52	4494
2026-01-17 23:50:54.28	14.93	12.49	-40.4	-42.5	18.7	0.00e+00	0	42	0	0	52	4568
2026-01-17 23:50:55.42	14.92	12.60	-40.3	-42.4	18.6	0.00e+00	0	42	0	0	52	4537
2026-01-17 23:50:56.27	14.91	12.68	-40.3	-42.3	18.9	0.00e+00	0	42	0	0	52	4476
2026-01-17 23:50:57.41	14.90	12.79	-40.3	-42.3	18.8	0.00e+00	0	42	0	0	52	4486
2026-01-17 23:50:58.26	14.89	12.87	-40.1	-42.2	19.0	0.00e+00	0	42	0	0	52	4394
2026-01-17 23:50:59.40	14.88	12.99	-40.2	-42.2	19.0	0.00e+00	0	42	0	0	52	4421
2026-01-17 23:51:00.25	14.87	13.07	-40.3	-42.3	18.8	0.00e+00	0	42	0	0	52	4478
2026-01-17 23:51:01.39	14.86	13.18	-40.1	-42.1	19.0	0.00e+00	0	42	0	0	52	4379
2026-01-17 23:51:02.24	14.86	13.26	-40.1	-42.0	19.1	0.00e+00	0	42	0	0	52	4336
2026-01-17 23:51:03.38	14.84	13.38	-40.0	-42.0	19.1	0.00e+00	0	42	0	0	52	4323
2026-01-17 23:51:04.23	14.84	13.46	-40.2	-42.2	19.0	0.00e+00	0	42	0	0	52	4411
2026-01-17 23:51:05.37	14.83	13.58	-40.0	-42.0	19.2	0.00e+00	0	42	0	0	51	4584
2026-01-17 23:51:06.22	14.82	13.66	-40.2	-42.2	19.1	0.00e+00	0	42	0	0	51	4656
2026-01-17 23:51:07.36	14.81	13.77	-40.1	-42.0	19.2	0.00e+00	0	42	0	0	51	4593
2026-01-17 23:51:08.21	14.80	13.86	-40.1	-42.1	19.2	0.00e+00	0	42	0	0	51	4611
2026-01-17 23:51:09.35	14.79	13.98	-40.1	-42.1	19.1	0.00e+00	0	42	0	0	51	4640
2026-01-17 23:51:10.21	14.78	14.06	-40.2	-42.2	19.0	0.00e+00	0	42	0	0	51	4700
2026-01-17 23:51:11.34	14.77	14.18	-40.0	-42.0	19.3	0.00e+00	0	42	0	0	51	4569
2026-01-17 23:51:12.19	14.76	14.27	-40.1	-42.1	19.2	0.00e+00	0	42	0	0	51	4609
2026-01-17 23:51:13.33	14.75	14.38	-40.1	-42.1	19.2	0.00e+00	0	42	0	0	51	4627
2026-01-17 23:51:14.18	14.74	14.47	-40.1	-42.1	19.1	0.00e+00	0	42	0	0	51	4638
2026-01-17 23:51:15.53	14.73	14.61	-40.1	-42.0	19.2	0.00e+00	0	42	0	0	51	4592
2026-01-17 23:51:16.24	14.72	14.69	-40.2	-42.2	19.1	0.00e+00	0	42	0	0	51	4675
2026-01-17 23:51:17.52	14.70	14.82	-40.2	-42.1	19.2	0.00e+00	0	41	0	0	51	4638
2026-01-17 23:51:18.24	14.70	14.90	-40.1	-42.0	19.2	0.00e+00	0	42	0	0	51	4589
2026-01-17 23:51:19.52	14.68	15.03	-40.1	-42.0	19.3	0.00e+00	0	42	0	0	51	4580
2026-01-17 23:51:20.24	14.67	15.11	-40.1	-42.0	19.2	0.00e+00	0	42	0	0	51	4586
2026-01-17 23:51:21.52	14.66	15.25	-40.1	-42.1	19.2	0.00e+00	0	42	0	0	51	4616
2026-01-17 23:51:22.26	14.65	15.33	-40.1	-42.0	19.3	0.00e+00	0	42	0	0	51	4555
2026-01-17 23:51:23.54	14.64	15.46	-40.2	-42.1	19.2	0.00e+00	0	42	0	0	51	4620
2026-01-17 23:51:24.25	14.63	15.54	-40.1	-42.0	19.3	0.00e+00	0	42	0	0	51	4559
2026-01-17 23:51:25.53	14.62	15.68	-40.1	-42.0	19.3	0.00e+00	0	42	0	0	51	4567
2026-01-17 23:51:26.27	14.61	15.76	-40.0	-41.9	19.3	0.00e+00	0	42	0	0	51	4532
2026-01-17 23:51:27.55	14.59	15.90	-40.1	-42.0	19.3	0.00e+00	0	42	0	0	51	4550
2026-01-17 23:51:28.27	14.58	15.98	-40.1	-42.0	19.3	0.00e+00	0	42	0	0	51	4568
2026-01-17 23:51:29.57	14.57	16.12	-40.1	-42.0	19.3	0.00e+00	0	42	0	0	51	4550
2026-01-17 23:51:30.28	14.56	16.20	-40.0	-41.9	19.3	0.00e+00	0	42	0	0	51	4519
2026-01-17 23:51:31.56	14.54	16.35	-40.1	-41.9	19.3	0.00e+00	0	42	0	0	51	4540
2026-01-17 23:51:32.27	14.54	16.43	-40.1	-42.0	19.3	0.00e+00	0	42	0	0	51	4563
2026-01-17 23:51:33.66	14.52	16.58	-40.1	-41.9	19.3	0.00e+00	0	42	0	0	51	4524
2026-01-17 23:51:34.37	14.51	16.66	-40.0	-41.9	19.3	0.00e+00	0	42	0	0	51	4532
2026-01-17 23:51:35.64	14.49	16.81	-40.1	-41.9	19.3	0.00e+00	0	42	0	0	51	4542
2026-01-17 23:51:36.69	14.48	16.93	-40.2	-42.0	19.2	0.00e+00	0	42	0	0	51	4578
2026-01-17 23:51:37.93	14.46	17.07	-40.1	-41.9	19.3	0.00e+00	0	42	0	0	51	4537
2026-01-17 23:51:38.78	14.45	17.17	-40.1	-41.9	19.3	0.00e+00	0	42	0	0	51	4525
2026-01-17 23:51:39.92	14.44	17.30	-40.2	-42.0	19.2	0.00e+00	0	42	0	0	51	4578
2026-01-17 23:51:40.78	14.43	17.40	-40.2	-42.0	19.2	0.00e+00	0	42	0	0	51	4597
2026-01-17 23:51:41.91	14.41	17.53	-40.2	-42.1	19.2	0.00e+00	0	42	0	0	51	4607
2026-01-17 23:51:42.76	14.40	17.63	-40.1	-42.0	19.3	0.00e+00	0	42	0	0	51	4550
2026-01-17 23:51:43.90	14.38	17.77	-40.2	-42.1	19.2	0.00e+00	0	42	0	0	51	4608
2026-01-17 23:51:44.75	14.37	17.87	-40.3	-42.1	19.2	0.00e+00	0	42	0	0	51	4633
2026-01-17 23:51:45.93	14.36	18.01	-40.3	-42.2	19.1	0.00e+00	0	42	0	0	51	4656
2026-01-17 23:51:46.78	14.34	18.11	-40.3	-42.1	19.1	0.00e+00	0	42	0	0	51	4651
2026-01-17 23:51:47.91	14.33	18.25	-40.4	-42.2	19.1	0.00e+00	0	42	0	0	51	4664
2026-01-17 23:51:48.77	14.31	18.35	-40.4	-42.2	19.1	0.00e+00	0	42	0	0	51	4674
2026-01-17 23:51:49.91	14.30	18.49	-40.4	-42.2	19.1	0.00e+00	0	42	0	0	51	4687
2026-01-17 23:51:50.76	14.29	18.60	-40.2	-42.0	19.3	0.00e+00	0	42	0	0	51	4577
2026-01-17 23:51:52.12	14.27	18.76	-40.2	-42.0	19.3	0.00e+00	0	42	0	0	51	4562
2026-01-17 23:51:52.83	14.25	18.85	-40.3	-42.1	19.2	0.00e+00	0	42	0	0	51	4599
2026-01-17 23:51:54.11	14.23	19.01	-40.4	-42.1	19.2	0.00e+00	0	42	0	0	51	4646
2026-01-17 23:51:54.82	14.22	19.10	-40.4	-42.2	19.1	0.00e+00	0	42	0	0	51	4658
2026-01-17 23:51:56.10	14.20	19.26	-40.2	-42.0	19.2	0.00e+00	0	42	0	0	51	4573
2026-01-17 23:51:56.89	14.19	19.36	-40.2	-41.9	19.4	0.00e+00	0	42	0	0	51	4526
2026-01-17 23:51:58.12	14.17	19.52	-40.2	-42.0	19.3	0.00e+00	0	42	0	0	51	4563
2026-01-17 23:51:59.10	14.16	19.64	-40.3	-42.1	19.2	0.00e+00	0	42	0	0	51	4610
2026-01-17 23:52:00.27	14.14	19.79	-40.0	-41.8	19.5	0.00e+00	0	42	0	0	51	4443
2026-01-17 23:52:01.12	14.12	19.90	-40.1	-41.8	19.4	0.00e+00	0	42	0	0	51	4460
2026-01-17 23:52:02.26	14.10	20.05	-39.9	-41.6	19.6	0.00e+00	0	42	0	0	51	4356
2026-01-17 23:52:03.11	14.09	20.16	-39.9	-41.6	19.6	0.00e+00	0	42	0	0	51	4348
2026-01-17 23:52:04.25	14.07	20.31	-39.9	-41.7	19.5	0.00e+00	0	42	0	0	51	4398
2026-01-17 23:52:05.10	14.06	20.42	-40.0	-41.7	19.5	0.00e+00	0	42	0	0	51	4428
2026-01-17 23:52:06.58	14.03	20.62	-40.1	-41.8	19.4	0.00e+00	0	42	0	0	51	4485
2026-01-17 23:52:07.29	14.02	20.71	-40.0	-41.7	19.5	0.00e+00	0	42	0	0	51	4424
2026-01-17 23:52:08.78	13.99	20.91	-39.8	-41.5	19.7	0.00e+00	0	42	0	0	51	4326
2026-01-17 23:52:09.49	13.98	21.01	-39.7	-41.4	19.8	0.00e+00	0	42	0	0	51	4254
2026-01-17 23:52:10.85	13.95	21.19	-39.5	-41.2	19.9	0.00e+00	0	42	0	0	51	4184
2026-01-17 23:52:11.56	13.94	21.29	-39.7	-41.3	19.8	0.00e+00	0	42	0	0	51	4241
2026-01-17 23:52:12.84	13.92	21.47	-39.5	-41.1	20.0	0.00e+00	0	42	0	0	50	4390
2026-01-17 23:52:13.55	13.90	21.56	-39.3	-41.0	20.2	0.00e+00	0	42	0	0	50	4320
2026-01-17 23:52:14.83	13.88	21.74	-39.2	-40.9	20.3	0.00e+00	0	42	0	0	50	4268
2026-01-17 23:52:15.54	13.87	21.84	-39.3	-40.9	20.2	0.00e+00	0	42	0	0	50	4283
2026-01-17 23:52:16.82	13.84	22.02	-39.2	-40.9	20.3	0.00e+00	0	42	0	0	50	4258
2026-01-17 23:52:17.55	13.83	22.12	-39.1	-40.8	20.4	0.00e+00	0	42	0	0	50	4205
2026-01-17 23:52:18.82	13.80	22.30	-39.1	-40.7	20.4	0.00e+00	0	42	0	0	49	4431
2026-01-17 23:52:19.55	13.79	22.41	-39.0	-40.6	20.5	0.00e+00	0	42	0	0	49	4382
2026-01-17 23:52:20.83	13.76	22.59	-39.0	-40.6	20.5	0.00e+00	0	42	0	0	49	4384
2026-01-17 23:52:21.54	13.75	22.69	-38.8	-40.4	20.6	0.00e+00	0	42	0	0	49	4290
2026-01-17 23:52:22.82	13.72	22.88	-38.8	-40.4	20.7	0.00e+00	0	42	0	0	49	4263
2026-01-17 23:52:23.71	13.70	23.01	-38.8	-40.4	20.6	0.00e+00	0	42	0	0	49	4287
2026-01-17 23:52:24.83	13.68	23.17	-38.8	-40.4	20.6	0.00e+00	0	42	0	0	49	4276
2026-01-17 23:52:25.69	13.66	23.30	-38.7	-40.3	20.7	0.00e+00	0	42	0	0	49	4227
2026-01-17 23:52:26.83	13.64	23.47	-38.7	-40.3	20.7	0.00e+00	0	42	0	0	49	4210
2026-01-17 23:52:27.68	13.62	23.60	-38.6	-40.2	20.7	0.00e+00	0	42	0	0	49	4191
2026-01-17 23:52:28.82	13.59	23.77	-38.5	-40.1	20.8	0.00e+00	0	42	0	0	49	4140
2026-01-17 23:52:29.67	13.57	23.90	-38.6	-40.2	20.8	0.00e+00	0	42	0	0	49	4173
2026-01-17 23:52:30.80	13.55	24.07	-38.6	-40.3	20.7	0.00e+00	0	42	0	0	49	4196
2026-01-17 23:52:31.65	13.53	24.20	-38.6	-40.2	20.8	0.00e+00	0	42	0	0	49	4162
2026-01-17 23:52:32.79	13.50	24.37	-38.6	-40.2	20.8	0.00e+00	0	42	0	0	49	4174
2026-01-17 23:52:33.64	13.48	24.50	-38.7	-40.3	20.7	0.00e+00	0	42	0	0	49	4229
2026-01-17 23:52:34.78	13.45	24.68	-38.8	-40.5	20.6	0.00e+00	0	42	0	0	49	4310
2026-01-17 23:52:35.64	13.43	24.82	-38.8	-40.5	20.5	0.00e+00	0	42	0	0	49	4304
2026-01-17 23:52:36.98	13.40	25.03	-38.9	-40.6	20.5	0.00e+00	0	42	0	0	49	4357
2026-01-17 23:52:37.69	13.38	25.14	-39.0	-40.7	20.4	0.00e+00	0	42	0	0	49	4410
2026-01-17 23:52:39.14	13.35	25.37	-39.2	-40.8	20.3	0.00e+00	0	42	0	0	49	4490
2026-01-17 23:52:39.86	13.33	25.49	-39.3	-41.0	20.2	0.00e+00	0	42	0	0	49	4554
2026-01-17 23:52:41.14	13.30	25.69	-39.4	-41.1	20.1	0.00e+00	0	42	0	0	49	4610
2026-01-17 23:52:42.18	13.27	25.86	-39.4	-41.1	20.1	0.00e+00	0	42	0	0	49	4647
2026-01-17 23:52:43.47	13.24	26.07	-39.7	-41.4	19.9	0.00e+00	0	42	0	0	49	4798
2026-01-17 23:52:44.18	13.22	26.19	-39.7	-41.5	19.8	0.00e+00	0	42	0	0	50	4564
2026-01-17 23:52:45.83	13.17	26.46	-39.8	-41.5	19.8	0.00e+00	0	42	0	0	50	4594
2026-01-17 23:52:46.39	13.16	26.56	-39.8	-41.6	19.8	0.00e+00	0	42	0	0	50	4618
2026-01-17 23:52:48.10	13.11	26.84	-40.0	-41.7	19.6	0.00e+00	0	42	0	0	50	4705
2026-01-17 23:52:48.67	13.10	26.94	-40.0	-41.7	19.7	0.00e+00	0	42	0	0	50	4693
2026-01-17 23:52:50.38	13.05	27.23	-40.1	-41.8	19.6	0.00e+00	0	42	0	0	50	4755
2026-01-17 23:52:50.95	13.03	27.33	-40.1	-41.9	19.5	0.00e+00	0	42	0	0	50	4779
2026-01-17 23:52:52.65	12.98	27.62	-40.2	-41.9	19.5	0.00e+00	0	42	0	0	50	4805
2026-01-17 23:52:53.33	12.96	27.74	-40.2	-42.0	19.5	0.00e+00	0	42	0	0	51	4563
2026-01-17 23:52:54.75	12.92	27.99	-40.2	-41.9	19.5	0.00e+00	0	42	0	0	51	4527
2026-01-17 23:52:55.46	12.90	28.12	-40.2	-42.0	19.5	0.00e+00	0	42	0	0	51	4554
2026-01-17 23:52:56.74	12.86	28.34	-40.3	-42.1	19.4	0.00e+00	0	42	0	0	51	4630
2026-01-17 23:52:57.45	12.84	28.47	-40.3	-42.0	19.4	0.00e+00	0	42	0	0	51	4591
2026-01-17 23:52:58.73	12.80	28.70	-40.3	-42.1	19.4	0.00e+00	0	42	0	0	51	4613
2026-01-17 23:52:59.66	12.77	28.87	-40.3	-42.0	19.4	0.00e+00	0	42	0	0	51	4589
2026-01-17 23:53:00.96	12.72	29.11	-40.3	-42.0	19.4	0.00e+00	0	42	0	0	51	4598
2026-01-17 23:53:01.67	12.70	29.24	-40.1	-41.9	19.6	0.00e+00	0	42	0	0	51	4510
2026-01-17 23:53:02.96	12.66	29.48	-40.0	-41.8	19.7	0.00e+00	0	42	0	0	51	4455
2026-01-17 23:53:03.67	12.63	29.61	-40.1	-41.9	19.6	0.00e+00	0	42	0	0	51	4507
2026-01-17 23:53:04.95	12.59	29.85	-40.0	-41.7	19.7	0.00e+00	0	42	0	0	51	4409
2026-01-17 23:53:05.66	12.56	29.98	-40.0	-41.7	19.6	0.00e+00	0	42	0	0	51	4424
2026-01-17 23:53:06.94	12.52	30.23	-40.0	-41.8	19.6	0.00e+00	0	42	0	0	51	4455
2026-01-17 23:53:07.66	12.49	30.36	-39.9	-41.7	19.6	0.00e+00	0	42	0	0	51	4409
2026-01-17 23:53:09.02	12.45	30.63	-40.1	-41.9	19.5	0.00e+00	0	42	0	0	51	4506
2026-01-17 23:53:09.74	12.42	30.77	-40.0	-41.7	19.6	0.00e+00	0	42	0	0	51	4436
2026-01-17 23:53:11.01	12.37	31.01	-39.9	-41.6	19.7	0.00e+00	0	42	0	0	51	4387
2026-01-17 23:53:11.73	12.35	31.16	-39.9	-41.7	19.6	0.00e+00	0	42	0	0	51	4406
2026-01-17 23:53:13.13	12.29	31.43	-39.8	-41.6	19.7	0.00e+00	0	42	0	0	51	4367
2026-01-17 23:53:13.84	12.27	31.57	-40.0	-41.7	19.6	0.00e+00	0	42	0	0	51	4440
2026-01-17 23:53:15.12	12.22	31.83	-40.0	-41.8	19.5	0.00e+00	0	42	0	0	51	4483
2026-01-17 23:53:15.85	12.19	31.98	-40.0	-41.8	19.5	0.00e+00	0	42	0	0	51	4481
2026-01-17 23:53:17.24	12.13	32.26	-40.1	-41.9	19.4	0.00e+00	0	42	0	0	51	4533
2026-01-17 23:53:17.95	12.10	32.41	-40.1	-41.8	19.5	0.00e+00	0	42	0	0	51	4489
2026-01-17 23:53:19.23	12.05	32.67	-40.1	-41.9	19.5	0.00e+00	0	42	0	0	51	4532
2026-01-17 23:53:20.29	12.00	32.89	-40.3	-42.1	19.4	0.00e+00	0	42	0	0	51	4607
2026-01-17 23:53:21.17	11.97	33.07	-40.4	-42.2	19.2	0.00e+00	0	42	0	0	51	4680
2026-01-17 23:53:22.31	11.92	33.31	-40.6	-42.5	19.1	0.00e+00	0	42	0	0	51	4822
2026-01-17 23:53:23.16	11.88	33.49	-40.8	-42.7	18.8	0.00e+00	0	42	0	0	52	4691
2026-01-17 23:53:24.32	11.83	33.74	-40.8	-42.7	18.8	0.00e+00	0	42	0	0	52	4688
2026-01-17 23:53:25.17	11.79	33.93	-41.0	-42.9	18.7	0.00e+00	0	42	0	0	52	4762
2026-01-17 23:53:26.37	11.74	34.19	-41.1	-43.0	18.5	0.00e+00	0	42	0	0	52	4824
2026-01-17 23:53:27.23	11.70	34.37	-40.9	-42.8	18.7	0.00e+00	0	42	0	0	52	4709
2026-01-17 23:53:28.36	11.64	34.62	-41.0	-42.9	18.6	0.00e+00	0	42	0	0	52	4775
2026-01-17 23:53:29.22	11.60	34.81	-41.0	-42.9	18.6	0.00e+00	0	42	0	0	52	4783
2026-01-17 23:53:30.52	11.54	35.10	-41.2	-43.1	18.4	0.00e+00	0	42	0	0	53	4606
2026-01-17 23:53:31.23	11.50	35.26	-41.4	-43.3	18.1	0.00e+00	0	42	0	0	53	4735
2026-01-17 23:53:32.70	11.43	35.59	-41.4	-43.3	18.1	0.00e+00	0	42	0	0	53	4734
2026-01-17 23:53:33.66	11.38	35.81	-41.6	-43.6	17.8	0.00e+00	0	42	0	0	53	4889
2026-01-17 23:53:34.97	11.31	36.11	-41.7	-43.7	17.7	0.00e+00	0	42	0	0	54	4695
2026-01-17 23:53:35.68	11.28	36.28	-41.7	-43.7	17.7	0.00e+00	0	42	0	0	54	4689
2026-01-17 23:53:36.96	11.21	36.58	-41.9	-43.9	17.6	0.00e+00	0	42	0	0	54	4771
2026-01-17 23:53:37.69	11.17	36.75	-42.0	-44.0	17.5	0.00e+00	0	42	0	0	54	4855
2026-01-17 23:53:38.96	11.10	37.05	-42.0	-44.0	17.6	0.00e+00	0	42	0	0	54	4864
2026-01-17 23:53:39.69	11.06	37.22	-42.0	-44.1	17.5	0.00e+00	0	42	0	0	54	4882
2026-01-17 23:53:40.97	10.99	37.53	-42.0	-44.0	17.7	0.00e+00	0	42	0	0	54	4849
2026-01-17 23:53:41.68	10.94	37.70	-41.9	-44.0	17.7	0.00e+00	0	42	0	0	54	4836
2026-01-17 23:53:43.06	10.86	38.04	-42.0	-44.0	17.7	0.00e+00	0	42	0	0	54	4846
2026-01-17 23:53:43.77	10.82	38.21	-41.9	-43.9	17.7	0.00e+00	0	42	0	0	54	4812
2026-01-17 23:53:45.05	10.74	38.53	-41.8	-43.8	17.8	0.00e+00	0	42	0	0	54	4748
2026-01-17 23:53:45.78	10.70	38.71	-42.0	-44.0	17.7	0.00e+00	0	42	0	0	54	4822
2026-01-17 23:53:47.06	10.62	39.03	-41.8	-43.8	17.8	0.00e+00	0	42	0	0	54	4728
2026-01-17 23:53:48.17	10.55	39.31	-41.7	-43.6	17.9	0.00e+00	0	42	0	0	54	4629
2026-01-17 23:53:49.33	10.47	39.61	-41.7	-43.7	17.9	0.00e+00	0	42	0	0	54	4653
2026-01-17 23:53:50.35	10.40	39.87	-41.7	-43.7	17.8	0.00e+00	0	42	0	0	54	4665
2026-01-17 23:53:51.35	10.34	40.13	-41.7	-43.7	17.7	0.00e+00	0	42	0	0	54	4657
2026-01-17 23:53:52.55	10.26	40.44	-41.8	-43.8	17.6	0.00e+00	0	42	0	0	54	4730
2026-01-17 23:53:53.40	10.20	40.66	-41.9	-43.9	17.6	0.00e+00	0	42	0	0	54	4763
2026-01-17 23:53:54.54	10.11	40.97	-41.8	-43.8	17.6	0.00e+00	0	42	0	0	54	4745
2026-01-17 23:53:55.39	10.05	41.19	-42.1	-44.1	17.4	0.00e+00	0	42	0	0	54	4918
2026-01-17 23:53:56.53	9.97	41.50	-41.9	-43.9	17.6	0.00e+00	0	42	0	0	54	4783
2026-01-17 23:53:57.38	9.91	41.73	-42.1	-44.2	17.4	0.00e+00	0	42	0	0	54	4941
2026-01-17 23:53:58.52	9.82	42.04	-42.0	-44.0	17.5	0.00e+00	0	42	0	0	54	4854
2026-01-17 23:53:59.37	9.75	42.27	-42.0	-44.0	17.5	0.00e+00	0	42	0	0	54	4854
2026-01-17 23:54:00.51	9.66	42.59	-42.0	-44.1	17.5	0.00e+00	0	42	0	0	54	4882
2026-01-17 23:54:01.36	9.60	42.82	-41.9	-43.9	17.6	0.00e+00	0	42	0	0	54	4780
2026-01-17 23:54:02.50	9.50	43.14	-41.7	-43.7	17.8	0.00e+00	0	42	0	0	54	4674
2026-01-17 23:54:03.35	9.43	43.38	-41.7	-43.7	17.7	0.00e+00	0	42	0	0	54	4681
2026-01-17 23:54:04.55	9.33	43.72	-41.7	-43.6	17.7	0.00e+00	0	42	0	0	54	4639
2026-01-17 23:54:05.41	9.25	43.97	-41.9	-43.9	17.4	0.00e+00	0	42	0	0	54	4769
2026-01-17 23:54:06.59	9.15	44.31	-42.1	-44.1	17.2	0.00e+00	0	42	0	0	54	4910
2026-01-17 23:54:07.44	9.07	44.56	-42.4	-44.4	16.9	0.00e+00	0	42	0	0	55	4813
2026-01-17 23:54:08.58	8.97	44.89	-42.6	-44.8	16.7	0.00e+00	0	42	0	0	55	4991
2026-01-17 23:54:09.43	8.89	45.14	-43.0	-45.2	16.6	0.00e+00	0	42	0	0	56	4958
2026-01-17 23:54:10.57	8.78	45.48	-43.2	-45.4	16.5	0.00e+00	0	42	0	0	57	4761
2026-01-17 23:54:11.43	8.70	45.74	-43.4	-45.6	16.3	0.00e+00	0	42	0	0	57	4913
2026-01-17 23:54:12.56	8.59	46.08	-43.0	-45.2	16.7	0.00e+00	0	42	0	0	57	4660
2026-01-17 23:54:13.42	8.50	46.34	-43.0	-45.1	16.7	0.00e+00	0	42	0	0	57	4645
2026-01-17 23:54:14.55	8.38	46.69	-42.9	-45.1	16.8	0.00e+00	0	42	0	0	57	4616
2026-01-17 23:54:15.41	8.29	46.95	-42.6	-44.6	17.2	0.00e+00	0	42	0	0	57	4375
2026-01-17 23:54:16.54	8.17	47.30	-42.5	-44.5	17.3	0.00e+00	0	42	0	0	56	4591
2026-01-17 23:54:17.40	8.08	47.57	-42.4	-44.5	17.3	0.00e+00	0	42	0	0	56	4571
2026-01-17 23:54:18.53	7.95	47.92	-41.8	-43.8	17.8	0.00e+00	0	42	0	0	55	4475
2026-01-17 23:54:19.39	7.85	48.20	-41.9	-43.9	17.7	0.00e+00	0	42	0	0	55	4541
2026-01-17 23:54:20.52	7.72	48.56	-41.8	-43.7	17.9	0.00e+00	0	42	0	0	55	4428
2026-01-17 23:54:21.38	7.62	48.83	-41.7	-43.6	18.0	0.00e+00	0	42	0	0	55	4363
2026-01-17 23:54:22.51	7.48	49.20	-41.7	-43.6	18.0	0.00e+00	0	42	0	0	55	4362
2026-01-17 23:54:23.37	7.37	49.48	-41.7	-43.6	18.1	0.00e+00	0	42	0	0	55	4370
2026-01-17 23:54:24.51	7.23	49.85	-41.9	-43.9	17.8	0.00e+00	0	42	0	0	55	4515
2026-01-17 23:54:25.36	7.12	50.13	-42.1	-44.1	17.6	0.00e+00	0	42	0	0	55	4633
2026-01-17 23:54:26.50	6.97	50.51	-42.1	-44.1	17.5	0.00e+00	0	42	0	0	55	4632
2026-01-17 23:54:27.35	6.85	50.79	-42.1	-44.2	17.4	0.00e+00	0	42	0	0	55	4674
2026-01-17 23:54:28.49	6.69	51.18	-41.8	-43.8	17.7	0.00e+00	0	42	0	0	55	4490
2026-01-17 23:54:29.34	6.57	51.46	-41.7	-43.7	17.9	0.00e+00	0	42	0	0	55	4396
2026-01-17 23:54:30.48	6.41	51.85	-41.5	-43.4	18.1	0.00e+00	0	42	0	0	54	4531
2026-01-17 23:54:31.33	6.28	52.14	-41.5	-43.5	18.0	0.00e+00	0	42	0	0	54	4549
2026-01-17 23:54:32.47	6.11	52.54	-41.6	-43.6	17.9	0.00e+00	0	42	0	0	54	4605
2026-01-17 23:54:33.32	5.97	52.83	-41.3	-43.2	18.3	0.00e+00	0	42	0	0	54	4412
2026-01-17 23:54:34.46	5.79	53.23	-41.1	-42.9	18.5	0.00e+00	0	42	0	0	54	4269
2026-01-17 23:54:35.31	5.65	53.53	-41.0	-42.9	18.5	0.00e+00	0	42	0	0	54	4259
2026-01-17 23:54:36.45	5.46	53.93	-41.1	-43.0	18.3	0.00e+00	0	42	0	0	54	4318
2026-01-17 23:54:37.30	5.31	54.24	-40.9	-42.7	18.6	0.00e+00	0	42	0	0	53	4435
2026-01-17 23:54:38.45	5.11	54.65	-40.9	-42.8	18.6	0.00e+00	0	42	0	0	53	4442
2026-01-17 23:54:39.30	4.96	54.95	-40.7	-42.5	18.8	0.00e+00	0	42	0	0	53	4339
2026-01-17 23:54:40.44	4.74	55.37	-40.5	-42.3	19.0	0.00e+00	0	42	0	0	53	4232
2026-01-17 23:54:41.29	4.58	55.68	-40.5	-42.2	19.1	0.00e+00	0	42	0	0	52	4433
2026-01-17 23:54:42.43	4.36	56.10	-40.3	-42.1	19.1	0.00e+00	0	42	0	0	52	4341
2026-01-17 23:54:43.28	4.19	56.41	-40.3	-42.1	19.2	0.00e+00	0	42	0	0	52	4345
2026-01-17 23:54:44.58	3.92	56.89	-40.2	-42.0	19.4	0.00e+00	0	42	0	0	52	4292
2026-01-17 23:54:45.29	3.77	57.16	-40.0	-41.8	19.7	0.00e+00	0	42	0	0	52	4204
2026-01-17 23:54:46.57	3.48	57.64	-39.7	-41.3	20.1	0.00e+00	0	42	0	0	51	4242
2026-01-17 23:54:47.28	3.32	57.91	-39.6	-41.3	20.2	0.00e+00	0	42	0	0	51	4218
2026-01-17 23:54:48.56	3.03	58.39	-39.4	-41.1	20.4	0.00e+00	0	42	0	0	50	4349
2026-01-17 23:54:49.27	2.86	58.67	-39.4	-41.1	20.4	0.00e+00	0	42	0	0	50	4375
2026-01-17 23:54:50.55	2.54	59.16	-39.5	-41.2	20.2	0.00e+00	0	42	0	0	50	4414
2026-01-17 23:54:51.27	2.36	59.43	-39.6	-41.2	20.2	0.00e+00	0	42	0	0	50	4441
2026-01-17 23:54:52.55	2.03	59.93	-39.6	-41.3	20.1	0.00e+00	0	42	0	0	50	4460
2026-01-17 23:54:53.26	1.83	60.21	-39.8	-41.5	19.9	0.00e+00	0	42	0	0	50	4591
2026-01-17 23:54:54.54	1.48	60.71	-39.6	-41.3	20.1	0.00e+00	0	42	0	0	50	4467
2026-01-17 23:54:55.25	1.27	60.99	-39.5	-41.1	20.3	0.00e+00	0	42	0	0	50	4386
2026-01-17 23:54:56.53	0.90	61.49	-39.2	-40.8	20.4	0.00e+00	0	42	0	0	50	4222
2026-01-17 23:54:57.24	0.68	61.77	-39.1	-40.7	20.5	0.00e+00	0	42	0	0	50	4153
2026-01-17 23:54:58.52	0.28	62.28	-38.6	-40.2	20.9	0.00e+00	0	42	0	0	49	4176
2026-01-17 23:54:59.23	0.04	62.57	-38.6	-40.2	20.9	0.00e+00	0	42	0	0	49	4188
2026-01-17 23:55:00.63	359.57	63.13	-38.7	-40.3	20.9	0.00e+00	0	42	0	0	49	4225
2026-01-17 23:55:01.35	359.32	63.42	-38.8	-40.4	20.9	0.00e+00	0	42	0	0	49	4257
2026-01-17 23:55:02.63	358.85	63.93	-38.9	-40.5	20.8	0.00e+00	0	42	0	0	49	4335
2026-01-17 23:55:03.34	358.59	64.22	-38.8	-40.4	20.9	0.00e+00	0	42	0	0	49	4271
2026-01-17 23:55:04.74	358.04	64.79	-38.8	-40.4	20.9	0.00e+00	0	42	0	0	49	4272
2026-01-17 23:55:05.45	357.75	65.08	-38.8	-40.5	20.8	0.00e+00	0	42	0	0	49	4293
2026-01-17 23:55:06.73	357.22	65.60	-38.7	-40.3	21.0	0.00e+00	0	42	0	0	49	4235
2026-01-17 23:55:07.46	356.90	65.90	-38.5	-40.0	21.2	0.00e+00	0	42	0	0	48	4340
2026-01-17 23:55:08.73	356.32	66.42	-38.5	-40.1	21.1	0.00e+00	0	42	0	0	48	4348
2026-01-17 23:55:09.46	355.98	66.72	-38.2	-39.8	21.3	0.00e+00	0	42	0	0	48	4217
2026-01-17 23:55:10.74	355.35	67.25	-38.1	-39.7	21.4	0.00e+00	0	42	0	0	48	4154
2026-01-17 23:55:11.45	354.99	67.54	-38.1	-39.7	21.2	0.00e+00	0	42	0	0	48	4167
2026-01-17 23:55:12.73	354.31	68.07	-38.2	-39.8	21.3	0.00e+00	0	42	0	0	48	4220
2026-01-17 23:55:13.50	353.89	68.39	-38.4	-40.0	21.2	0.00e+00	0	42	0	0	48	4313
2026-01-17 23:55:14.78	353.15	68.92	-38.6	-40.2	21.1	0.00e+00	0	42	0	0	48	4400
2026-01-17 23:55:15.49	352.72	69.21	-38.7	-40.3	21.0	0.00e+00	0	42	0	0	48	4457
2026-01-17 23:55:16.77	351.91	69.74	-38.8	-40.4	20.7	0.00e+00	0	42	0	0	48	4544
2026-01-17 23:55:17.59	351.37	70.07	-38.7	-40.3	20.8	0.00e+00	0	42	0	0	48	4473
2026-01-17 23:55:19.08	350.34	70.68	-38.7	-40.3	20.7	0.00e+00	0	43	0	0	48	4452
2026-01-17 23:55:19.79	349.83	70.97	-38.3	-39.9	21.0	0.00e+00	0	42	0	0	48	4276
2026-01-17 23:55:21.07	348.85	71.50	-37.9	-39.5	21.2	0.00e+00	0	42	0	0	47	4307
2026-01-17 23:55:21.80	348.27	71.79	-37.8	-39.4	21.3	0.00e+00	0	42	0	0	47	4244
2026-01-17 23:55:23.08	347.19	72.31	-37.9	-39.5	21.2	0.00e+00	0	42	0	0	47	4297
2026-01-17 23:55:23.80	346.56	72.60	-38.0	-39.5	21.0	0.00e+00	0	42	0	0	47	4335
2026-01-17 23:55:25.09	345.37	73.11	-38.2	-39.8	20.9	0.00e+00	0	42	0	0	47	4442
2026-01-17 23:55:25.80	344.68	73.39	-38.1	-39.7	21.1	0.00e+00	0	42	0	0	47	4400
2026-01-17 23:55:27.08	343.38	73.90	-38.2	-39.8	21.0	0.00e+00	0	42	0	0	47	4471
2026-01-17 23:55:27.90	342.49	74.21	-38.4	-40.0	20.8	0.00e+00	0	42	0	0	47	4577
2026-01-17 23:55:29.03	341.22	74.65	-38.6	-40.3	20.6	0.00e+00	0	42	0	0	47	4706
2026-01-17 23:55:29.88	340.20	74.97	-38.4	-40.0	20.9	0.00e+00	0	42	0	0	47	4582
2026-01-17 23:55:31.02	338.78	75.40	-38.2	-39.8	21.2	0.00e+00	0	42	0	0	47	4450
2026-01-17 23:55:31.88	337.64	75.71	-38.1	-39.7	21.4	0.00e+00	0	42	0	0	47	4409
2026-01-17 23:55:33.01	336.06	76.12	-38.1	-39.6	21.4	0.00e+00	0	42	0	0	47	4383
2026-01-17 23:55:33.86	334.82	76.42	-38.4	-40.0	21.1	0.00e+00	0	42	0	0	47	4586
2026-01-17 23:55:35.00	333.05	76.81	-39.0	-40.6	20.9	0.00e+00	0	42	0	0	48	4620
2026-01-17 23:55:35.85	331.66	77.10	-39.2	-40.8	20.6	0.00e+00	0	42	0	0	49	4489
2026-01-17 23:55:37.02	329.65	77.48	-38.9	-40.5	20.9	0.00e+00	0	42	0	0	49	4303
2026-01-17 23:55:37.88	328.09	77.75	-38.8	-40.4	20.9	0.00e+00	0	42	0	0	49	4263
2026-01-17 23:55:39.12	325.71	78.13	-38.9	-40.5	20.7	0.00e+00	0	42	0	0	49	4305
2026-01-17 23:55:39.98	323.97	78.37	-39.0	-40.6	20.5	0.00e+00	0	42	0	0	49	4389
2026-01-17 23:55:41.11	321.56	78.68	-38.9	-40.5	20.7	0.00e+00	0	42	0	0	49	4335
2026-01-17 23:55:41.97	319.64	78.91	-38.9	-40.5	20.9	0.00e+00	0	42	0	0	49	4303
2026-01-17 23:55:43.11	316.98	79.18	-38.5	-40.1	21.0	0.00e+00	0	42	0	0	49	4115
2026-01-17 23:55:43.96	314.91	79.37	-38.4	-39.9	20.9	0.00e+00	0	42	0	0	48	4279
2026-01-17 23:55:45.10	312.01	79.60	-38.7	-40.3	20.8	0.00e+00	0	42	0	0	48	4446
2026-01-17 23:55:45.95	309.77	79.76	-38.7	-40.3	21.0	0.00e+00	0	42	0	0	48	4461
2026-01-17 23:55:47.08	306.68	79.94	-38.9	-40.5	20.7	0.00e+00	0	42	0	0	48	4593
2026-01-17 23:55:48.13	303.72	80.08	-38.9	-40.5	20.7	0.00e+00	0	42	0	0	48	4578
2026-01-17 23:55:49.12	300.85	80.19	-38.9	-40.6	20.4	0.00e+00	0	42	0	0	48	4602
2026-01-17 23:55:50.34	297.24	80.29	-38.8	-40.4	20.6	0.00e+00	0	42	0	0	48	4511
2026-01-17 23:55:51.22	294.59	80.34	-38.8	-40.4	20.8	0.00e+00	0	42	0	0	48	4506
2026-01-17 23:55:52.36	291.13	80.38	-39.1	-40.7	20.4	0.00e+00	0	42	0	0	48	4688
2026-01-17 23:55:53.21	288.55	80.38	-39.4	-41.2	20.0	0.00e+00	0	42	0	0	49	4653
2026-01-17 23:55:54.35	285.08	80.35	-39.6	-41.3	20.1	0.00e+00	0	42	0	0	50	4491
2026-01-17 23:55:55.20	282.52	80.31	-39.3	-40.9	20.5	0.00e+00	0	42	0	0	50	4279
2026-01-17 23:55:56.34	279.13	80.22	-39.1	-40.7	20.8	0.00e+00	0	42	0	0	50	4162
2026-01-17 23:55:57.19	276.64	80.14	-39.4	-41.1	20.4	0.00e+00	0	42	0	0	49	4605
2026-01-17 23:55:58.32	273.42	79.99	-39.5	-41.2	20.3	0.00e+00	0	42	0	0	49	4700
2026-01-17 23:55:59.18	271.03	79.87	-39.3	-40.9	20.5	0.00e+00	0	42	0	0	49	4533
2026-01-17 23:56:00.32	267.97	79.67	-38.8	-40.4	21.0	0.00e+00	0	42	0	0	49	4250
2026-01-17 23:56:01.17	265.77	79.50	-38.3	-39.8	21.4	0.00e+00	0	42	0	0	48	4242
2026-01-17 23:56:02.30	262.95	79.26	-38.3	-39.8	21.5	0.00e+00	0	42	0	0	48	4234
2026-01-17 23:56:03.16	260.89	79.06	-38.7	-40.4	21.0	0.00e+00	0	42	0	0	48	4498
2026-01-17 23:56:04.30	258.29	78.78	-38.6	-40.2	21.2	0.00e+00	0	42	0	0	48	4400
2026-01-17 23:56:05.15	256.43	78.55	-38.6	-40.2	21.1	0.00e+00	0	42	0	0	48	4440
2026-01-17 23:56:06.29	254.07	78.23	-39.3	-41.0	20.5	0.00e+00	0	42	0	0	49	4556
2026-01-17 23:56:07.14	252.39	77.98	-39.3	-41.0	20.5	0.00e+00	0	42	0	0	49	4565
2026-01-17 23:56:08.28	250.25	77.63	-38.8	-40.4	20.9	0.00e+00	0	42	0	0	49	4244
2026-01-17 23:56:09.21	248.59	77.33	-38.7	-40.3	21.0	0.00e+00	0	42	0	0	49	4236
2026-01-17 23:56:10.38	246.63	76.94	-38.8	-40.4	20.9	0.00e+00	0	42	0	0	49	4279
2026-01-17 23:56:11.23	245.27	76.66	-38.3	-39.9	21.3	0.00e+00	0	42	0	0	48	4247
2026-01-17 23:56:12.57	243.25	76.19	-37.8	-39.4	21.1	0.00e+00	0	42	0	0	47	4258
2026-01-17 23:56:13.29	242.23	75.93	-38.0	-39.6	20.9	0.00e+00	0	42	0	0	47	4383
2026-01-17 23:56:14.57	240.50	75.46	-38.5	-40.1	20.7	0.00e+00	0	42	0	0	47	4639
2026-01-17 23:56:15.28	239.59	75.20	-38.3	-39.9	21.1	0.00e+00	0	42	0	0	47	4539
2026-01-17 23:56:16.56	238.03	74.71	-38.6	-40.3	20.9	0.00e+00	0	42	0	0	47	4724
2026-01-17 23:56:17.27	237.21	74.44	-39.0	-40.7	20.8	0.00e+00	0	42	0	0	48	4679
2026-01-17 23:56:18.55	235.81	73.95	-39.2	-40.9	20.4	0.00e+00	0	42	0	0	49	4513
2026-01-17 23:56:19.26	235.07	73.67	-38.9	-40.5	20.6	0.00e+00	0	42	0	0	49	4323
2026-01-17 23:56:20.54	233.80	73.16	-38.7	-40.2	20.9	0.00e+00	0	42	0	0	49	4176
2026-01-17 23:56:21.25	233.13	72.88	-38.2	-39.8	21.4	0.00e+00	0	42	0	0	48	4195
2026-01-17 23:56:22.53	231.98	72.37	-38.6	-40.1	21.2	0.00e+00	0	42	0	0	48	4378
2026-01-17 23:56:23.25	231.36	72.07	-38.9	-40.5	20.8	0.00e+00	0	42	0	0	48	4547
2026-01-17 23:56:24.53	230.32	71.56	-38.7	-40.3	21.0	0.00e+00	0	42	0	0	48	4466
2026-01-17 23:56:25.26	229.75	71.26	-38.4	-39.9	21.2	0.00e+00	0	42	0	0	48	4287
2026-01-17 23:56:26.65	228.72	70.69	-37.6	-39.2	21.5	0.00e+00	0	42	0	0	47	4149
2026-01-17 23:56:27.36	228.22	70.40	-37.2	-38.7	21.9	0.00e+00	0	42	0	0	46	4155
2026-01-17 23:56:28.64	227.35	69.87	-37.6	-39.1	21.5	0.00e+00	0	42	0	0	46	4386
2026-01-17 23:56:29.71	226.66	69.43	-38.8	-40.4	20.8	0.00e+00	0	42	0	0	48	4518
2026-01-17 23:56:30.85	225.97	68.96	-39.6	-41.3	19.9	0.00e+00	0	42	0	0	49	4709
2026-01-17 23:56:31.70	225.47	68.61	-39.3	-41.0	20.0	0.00e+00	0	42	0	0	49	4552
2026-01-17 23:56:32.84	224.83	68.14	-38.8	-40.4	20.6	0.00e+00	0	42	0	0	49	4271
2026-01-17 23:56:33.69	224.37	67.78	-38.8	-40.4	20.8	0.00e+00	0	42	0	0	49	4273
2026-01-17 23:56:34.83	223.78	67.31	-39.0	-40.6	20.8	0.00e+00	0	42	0	0	49	4344
2026-01-17 23:56:35.68	223.35	66.96	-39.3	-41.0	20.5	0.00e+00	0	42	0	0	49	4548
2026-01-17 23:56:36.81	222.81	66.50	-39.8	-41.6	20.1	0.00e+00	0	42	0	0	50	4599
2026-01-17 23:56:37.67	222.41	66.14	-40.1	-41.8	19.8	0.00e+00	0	42	0	0	50	4736
2026-01-17 23:56:38.80	221.91	65.68	-39.7	-41.5	19.7	0.00e+00	0	42	0	0	50	4546
2026-01-17 23:56:39.65	221.55	65.33	-39.4	-41.1	20.0	0.00e+00	0	42	0	0	50	4366
2026-01-17 23:56:40.92	221.03	64.81	-39.0	-40.6	20.7	0.00e+00	0	42	0	0	50	4139
2026-01-17 23:56:41.72	220.71	64.48	-38.7	-40.3	21.0	0.00e+00	0	42	0	0	49	4210
2026-01-17 23:56:42.86	220.27	64.02	-38.3	-39.9	21.5	0.00e+00	0	42	0	0	48	4248
2026-01-17 23:56:43.71	219.96	63.67	-38.6	-40.2	21.2	0.00e+00	0	42	0	0	48	4400
2026-01-17 23:56:45.02	219.49	63.14	-39.6	-41.3	20.3	0.00e+00	0	42	0	0	49	4723
2026-01-17 23:56:45.73	219.25	62.86	-40.2	-41.9	19.6	0.00e+00	0	42	0	0	51	4544
2026-01-17 23:56:47.01	218.82	62.34	-40.2	-42.0	19.4	0.00e+00	0	42	0	0	51	4597
2026-01-17 23:56:47.72	218.60	62.06	-39.7	-41.4	19.9	0.00e+00	0	42	0	0	51	4253
2026-01-17 23:56:49.27	218.12	61.44	-38.6	-40.2	21.1	0.00e+00	0	42	0	0	49	4165
2026-01-17 23:56:49.98	217.90	61.16	-38.7	-40.2	21.1	0.00e+00	0	42	0	0	49	4193
2026-01-17 23:56:51.27	217.53	60.65	-39.7	-41.3	20.2	0.00e+00	0	42	0	0	49	4739
2026-01-17 23:56:51.98	217.33	60.37	-40.0	-41.7	19.9	0.00e+00	0	42	0	0	50	4670
2026-01-17 23:56:53.28	216.98	59.87	-40.3	-42.1	19.4	0.00e+00	0	42	0	0	51	4603
2026-01-17 23:56:53.99	216.79	59.59	-40.6	-42.4	18.9	0.00e+00	0	42	0	0	51	4792
2026-01-17 23:56:55.27	216.47	59.09	-40.8	-42.8	18.0	0.00e+00	0	43	0	0	52	4715
2026-01-17 23:56:55.98	216.29	58.82	-40.9	-42.8	17.6	0.00e+00	0	42	0	0	52	4741
2026-01-17 23:56:57.26	215.98	58.33	-40.4	-42.3	18.5	0.00e+00	0	42	0	0	52	4476
2026-01-17 23:56:58.00	215.81	58.05	-39.9	-41.6	19.4	0.00e+00	0	42	0	0	51	4390
2026-01-17 23:56:59.28	215.52	57.56	-39.2	-40.8	20.5	0.00e+00	0	42	0	0	50	4221
2026-01-17 23:56:59.99	215.36	57.29	-39.2	-40.8	20.5	0.00e+00	0	42	0	0	50	4225
2026-01-17 23:57:01.27	215.08	56.81	-40.7	-42.5	19.2	0.00e+00	0	42	0	0	51	4825
2026-01-17 23:57:01.99	214.93	56.54	-41.6	-43.6	18.1	0.00e+00	0	42	0	0	53	4891
2026-01-17 23:57:03.27	214.67	56.07	-41.8	-43.8	17.9	0.00e+00	0	43	0	0	54	4724
2026-01-17 23:57:04.00	214.53	55.80	-41.3	-43.2	18.3	0.00e+00	0	42	0	0	54	4401
2026-01-17 23:57:05.28	214.28	55.33	-40.9	-42.8	18.6	0.00e+00	0	42	0	0	53	4449
2026-01-17 23:57:06.00	214.15	55.07	-40.7	-42.5	18.9	0.00e+00	0	42	0	0	53	4313
2026-01-17 23:57:07.29	213.91	54.60	-40.0	-41.7	19.8	0.00e+00	0	42	0	0	52	4175
2026-01-17 23:57:08.00	213.78	54.34	-40.0	-41.7	19.8	0.00e+00	0	42	0	0	51	4396
2026-01-17 23:57:09.28	213.56	53.89	-40.0	-41.7	19.9	0.00e+00	0	42	0	0	51	4395
2026-01-17 23:57:09.99	213.44	53.63	-40.3	-42.0	19.7	0.00e+00	0	42	0	0	51	4551
2026-01-17 23:57:11.27	213.23	53.18	-41.5	-43.3	18.3	0.00e+00	0	42	0	0	53	4751
2026-01-17 23:57:11.98	213.12	52.93	-42.2	-44.3	17.5	0.00e+00	0	42	0	0	55	4719
2026-01-17 23:57:13.26	212.91	52.48	-43.1	-45.2	16.8	0.00e+00	0	42	0	0	56	4967
2026-01-17 23:57:13.97	212.80	52.24	-43.0	-45.2	16.6	0.00e+00	0	42	0	0	56	4958
2026-01-17 23:57:15.25	212.61	51.80	-42.1	-44.1	17.3	0.00e+00	0	42	0	0	56	4374
2026-01-17 23:57:15.99	212.50	51.54	-41.3	-43.2	17.9	0.00e+00	0	42	0	0	54	4412
2026-01-17 23:57:17.27	212.32	51.11	-40.8	-42.6	18.4	0.00e+00	0	43	0	0	53	4384
2026-01-17 23:57:17.98	212.22	50.87	-40.9	-42.7	18.5	0.00e+00	0	42	0	0	53	4436
2026-01-17 23:57:19.26	212.05	50.44	-41.3	-43.2	18.3	0.00e+00	0	42	0	0	53	4674
2026-01-17 23:57:20.02	211.94	50.18	-41.8	-43.8	17.8	0.00e+00	0	43	0	0	54	4715
2026-01-17 23:57:21.30	211.78	49.76	-42.0	-44.1	17.5	0.00e+00	0	43	0	0	54	4872
2026-01-17 23:57:22.04	211.68	49.52	-41.9	-43.8	17.8	0.00e+00	0	42	0	0	54	4755
2026-01-17 23:57:23.32	211.52	49.10	-41.9	-43.8	17.9	0.00e+00	0	42	0	0	54	4752
2026-01-17 23:57:24.03	211.44	48.87	-41.9	-43.8	17.9	0.00e+00	0	42	0	0	54	4753
2026-01-17 23:57:25.31	211.28	48.46	-42.1	-44.0	17.8	0.00e+00	0	42	0	0	54	4850
2026-01-17 23:57:26.19	211.18	48.18	-42.2	-44.2	17.5	0.00e+00	0	42	0	0	55	4695
2026-01-17 23:57:27.64	211.01	47.71	-42.4	-44.5	17.2	0.00e+00	0	42	0	0	55	4833
2026-01-17 23:57:28.35	210.93	47.49	-42.4	-44.4	17.0	0.00e+00	0	42	0	0	55	4806
2026-01-17 23:57:29.63	210.79	47.09	-42.2	-44.2	17.2	0.00e+00	0	42	0	0	55	4674
2026-01-17 23:57:30.36	210.72	46.86	-42.0	-44.0	17.5	0.00e+00	0	42	0	0	55	4555
2026-01-17 23:57:31.64	210.58	46.47	-41.8	-43.7	17.8	0.00e+00	0	42	0	0	55	4428
2026-01-17 23:57:32.35	210.51	46.25	-41.7	-43.6	18.0	0.00e+00	0	43	0	0	55	4349
2026-01-17 23:57:33.63	210.38	45.86	-41.4	-43.2	18.4	0.00e+00	0	42	0	0	54	4431
2026-01-17 23:57:34.49	210.29	45.60	-41.4	-43.2	18.4	0.00e+00	0	42	0	0	54	4422
2026-01-17 23:57:35.63	210.18	45.26	-41.8	-43.7	17.7	0.00e+00	0	42	0	0	54	4703
2026-01-17 23:57:36.48	210.10	45.01	-42.1	-44.1	17.2	0.00e+00	0	42	0	0	54	4926
2026-01-17 23:57:37.62	210.00	44.67	-42.9	-45.1	16.4	0.00e+00	0	43	0	0	56	4878
2026-01-17 23:57:38.72	209.90	44.35	-43.6	-45.9	15.8	0.00e+00	0	42	0	0	57	5095
2026-01-17 23:57:39.58	209.82	44.10	-44.0	-46.4	15.4	0.00e+00	0	42	0	0	58	5093
2026-01-17 23:57:40.71	209.72	43.77	-44.0	-46.5	15.5	0.00e+00	0	42	0	0	58	5116
2026-01-17 23:57:41.81	209.63	43.46	-44.0	-46.5	15.5	0.00e+00	0	42	0	0	58	5111
2026-01-17 23:57:42.83	209.54	43.17	-43.9	-46.4	15.6	0.00e+00	0	42	0	0	58	5091
2026-01-17 23:57:43.83	209.46	42.89	-43.7	-46.1	15.9	0.00e+00	0	42	0	0	58	4921
2026-01-17 23:57:44.82	209.38	42.61	-43.3	-45.6	16.2	0.00e+00	0	42	0	0	58	4651
2026-01-17 23:57:45.82	209.30	42.33	-42.8	-45.0	16.7	0.00e+00	0	42	0	0	57	4593
2026-01-17 23:57:46.81	209.22	42.06	-42.3	-44.3	17.3	0.00e+00	0	42	0	0	56	4493
2026-01-17 23:57:47.81	209.14	41.78	-41.7	-43.6	17.8	0.00e+00	0	42	0	0	55	4360
2026-01-17 23:57:48.80	209.07	41.51	-41.4	-43.2	18.2	0.00e+00	0	42	0	0	54	4420
2026-01-17 23:57:49.80	208.99	41.24	-41.4	-43.3	18.2	0.00e+00	0	42	0	0	54	4460
2026-01-17 23:57:50.79	208.92	40.98	-41.7	-43.6	18.0	0.00e+00	0	42	0	0	54	4607
2026-01-17 23:57:51.79	208.85	40.71	-42.0	-44.0	17.6	0.00e+00	0	42	0	0	54	4829
2026-01-17 23:57:52.78	208.78	40.45	-42.6	-44.7	17.0	0.00e+00	0	42	0	0	55	4962
2026-01-17 23:57:53.85	208.70	40.17	-43.3	-45.5	16.4	0.00e+00	0	42	0	0	57	4840
2026-01-17 23:57:54.74	208.64	39.93	-43.5	-45.8	16.1	0.00e+00	0	42	0	0	57	5029
2026-01-17 23:57:55.88	208.56	39.64	-42.9	-45.1	16.9	0.00e+00	0	42	0	0	57	4600
2026-01-17 23:57:56.73	208.51	39.42	-42.5	-44.6	17.2	0.00e+00	0	42	0	0	57	4387
2026-01-17 23:57:58.10	208.42	39.07	-42.5	-44.6	17.3	0.00e+00	0	42	0	0	57	4368
2026-01-17 23:57:58.81	208.37	38.89	-42.6	-44.6	17.2	0.00e+00	0	42	0	0	57	4391
2026-01-17 23:58:00.09	208.29	38.57	-42.4	-44.4	17.4	0.00e+00	0	43	0	0	56	4535
2026-01-17 23:58:00.82	208.25	38.39	-42.4	-44.4	17.3	0.00e+00	0	43	0	0	56	4543
2026-01-17 23:58:02.10	208.17	38.07	-42.5	-44.5	17.3	0.00e+00	0	42	0	0	56	4591
2026-01-17 23:58:02.81	208.13	37.89	-42.5	-44.6	17.2	0.00e+00	0	42	0	0	56	4635
2026-01-17 23:58:04.09	208.05	37.58	-42.5	-44.5	17.3	0.00e+00	0	43	0	0	56	4598
2026-01-17 23:58:04.80	208.01	37.41	-42.4	-44.5	17.4	0.00e+00	0	43	0	0	56	4559
2026-01-17 23:58:06.08	207.94	37.10	-42.4	-44.4	17.4	0.00e+00	0	42	0	0	56	4528
2026-01-17 23:58:07.01	207.88	36.88	-42.2	-44.2	17.7	0.00e+00	0	42	0	0	56	4420
2026-01-17 23:58:08.00	207.83	36.64	-42.1	-44.1	17.7	0.00e+00	0	42	0	0	56	4385
2026-01-17 23:58:09.00	207.78	36.41	-42.0	-44.0	17.8	0.00e+00	0	42	0	0	56	4324
2026-01-17 23:58:09.99	207.72	36.18	-42.1	-44.0	17.8	0.00e+00	0	43	0	0	56	4340
2026-01-17 23:58:10.99	207.67	35.94	-42.0	-44.0	17.8	0.00e+00	0	42	0	0	56	4326
2026-01-17 23:58:11.98	207.62	35.72	-41.7	-43.6	18.1	0.00e+00	0	42	0	0	55	4359
2026-01-17 23:58:12.98	207.57	35.49	-41.5	-43.5	18.2	0.00e+00	0	42	0	0	55	4293
2026-01-17 23:58:13.97	207.52	35.26	-41.2	-43.0	18.6	0.00e+00	0	42	0	0	54	4340
2026-01-17 23:58:14.96	207.47	35.04	-41.4	-43.3	18.3	0.00e+00	0	42	0	0	54	4482
2026-01-17 23:58:15.96	207.42	34.81	-41.8	-43.8	17.9	0.00e+00	0	42	0	0	54	4732
2026-01-17 23:58:16.95	207.37	34.59	-41.9	-43.9	17.8	0.00e+00	0	42	0	0	54	4800
2026-01-17 23:58:17.95	207.32	34.37	-41.9	-43.9	17.8	0.00e+00	0	42	0	0	54	4781
2026-01-17 23:58:18.94	207.27	34.15	-41.9	-43.9	17.8	0.00e+00	0	42	0	0	54	4801
2026-01-17 23:58:19.94	207.23	33.94	-41.8	-43.8	17.9	0.00e+00	0	42	0	0	54	4740
2026-01-17 23:58:20.93	207.18	33.72	-41.8	-43.7	17.9	0.00e+00	0	42	0	0	54	4701
2026-01-17 23:58:21.92	207.14	33.51	-41.7	-43.6	18.0	0.00e+00	0	42	0	0	54	4629
2026-01-17 23:58:22.92	207.09	33.29	-41.5	-43.4	18.1	0.00e+00	0	43	0	0	54	4525
2026-01-17 23:58:23.91	207.05	33.08	-41.2	-43.0	18.5	0.00e+00	0	43	0	0	54	4324
2026-01-17 23:58:24.90	207.01	32.87	-41.1	-42.9	18.5	0.00e+00	0	43	0	0	54	4266
2026-01-17 23:58:25.90	206.96	32.67	-40.9	-42.7	18.7	0.00e+00	0	43	0	0	53	4407
2026-01-17 23:58:26.89	206.92	32.46	-40.6	-42.4	18.9	0.00e+00	0	43	0	0	53	4273
2026-01-17 23:58:27.89	206.88	32.25	-40.6	-42.4	18.9	0.00e+00	0	42	0	0	53	4244
2026-01-17 23:58:28.98	206.84	32.03	-40.4	-42.1	19.0	0.00e+00	0	42	0	0	52	4388
2026-01-17 23:58:29.83	206.80	31.86	-40.2	-42.0	19.1	0.00e+00	0	42	0	0	52	4326
2026-01-17 23:58:30.97	206.76	31.63	-40.2	-41.9	19.2	0.00e+00	0	43	0	0	52	4284
2026-01-17 23:58:31.82	206.72	31.45	-40.0	-41.7	19.5	0.00e+00	0	43	0	0	51	4434
2026-01-17 23:58:32.96	206.68	31.23	-39.9	-41.6	19.7	0.00e+00	0	42	0	0	51	4366
2026-01-17 23:58:33.81	206.65	31.06	-39.9	-41.6	19.7	0.00e+00	0	42	0	0	51	4370
2026-01-17 23:58:34.95	206.60	30.83	-39.8	-41.5	19.9	0.00e+00	0	42	0	0	51	4293
2026-01-17 23:58:35.80	206.57	30.67	-39.8	-41.5	19.9	0.00e+00	0	42	0	0	51	4301
2026-01-17 23:58:36.94	206.53	30.45	-39.7	-41.4	19.9	0.00e+00	0	42	0	0	51	4266
2026-01-17 23:58:37.79	206.50	30.28	-39.8	-41.4	19.9	0.00e+00	0	42	0	0	51	4276
2026-01-17 23:58:38.93	206.46	30.06	-39.7	-41.4	20.0	0.00e+00	0	43	0	0	51	4254
2026-01-17 23:58:39.78	206.43	29.90	-39.7	-41.4	20.0	0.00e+00	0	42	0	0	51	4260
2026-01-17 23:58:40.92	206.39	29.68	-39.8	-41.4	19.9	0.00e+00	0	43	0	0	51	4291
2026-01-17 23:58:41.77	206.36	29.52	-39.7	-41.4	20.0	0.00e+00	0	42	0	0	51	4264
2026-01-17 23:58:43.01	206.31	29.29	-39.8	-41.5	19.9	0.00e+00	0	42	0	0	51	4331
2026-01-17 23:58:43.86	206.29	29.13	-39.8	-41.5	19.9	0.00e+00	0	42	0	0	51	4319
2026-01-17 23:58:45.00	206.25	28.92	-39.9	-41.6	19.8	0.00e+00	0	43	0	0	51	4349
2026-01-17 23:58:45.85	206.22	28.77	-39.8	-41.5	20.0	0.00e+00	0	43	0	0	51	4293
2026-01-17 23:58:46.99	206.18	28.56	-39.7	-41.4	20.0	0.00e+00	0	43	0	0	51	4254
2026-01-17 23:58:47.85	206.15	28.40	-39.7	-41.4	20.0	0.00e+00	0	42	0	0	51	4274
2026-01-17 23:58:48.98	206.12	28.20	-39.7	-41.3	20.0	0.00e+00	0	42	0	0	51	4237
2026-01-17 23:58:49.83	206.09	28.05	-39.7	-41.4	19.9	0.00e+00	0	42	0	0	51	4254
2026-01-17 23:58:50.97	206.06	27.85	-39.8	-41.5	19.8	0.00e+00	0	42	0	0	51	4311
2026-01-17 23:58:51.83	206.03	27.70	-39.9	-41.6	19.7	0.00e+00	0	42	0	0	51	4353
2026-01-17 23:58:52.96	206.00	27.50	-39.8	-41.5	19.8	0.00e+00	0	43	0	0	51	4312
2026-01-17 23:58:53.82	205.97	27.35	-39.8	-41.5	19.7	0.00e+00	0	42	0	0	51	4335
2026-01-17 23:58:54.96	205.94	27.15	-39.8	-41.5	19.7	0.00e+00	0	42	0	0	51	4335
2026-01-17 23:58:55.81	205.91	27.00	-39.8	-41.5	19.7	0.00e+00	0	42	0	0	51	4340
2026-01-17 23:58:57.02	205.88	26.80	-40.0	-41.7	19.5	0.00e+00	0	42	0	0	51	4440
2026-01-17 23:58:57.88	205.85	26.65	-40.0	-41.7	19.5	0.00e+00	0	42	0	0	51	4429
2026-01-17 23:58:59.01	205.82	26.46	-40.0	-41.8	19.5	0.00e+00	0	43	0	0	51	4449
2026-01-17 23:58:59.86	205.80	26.32	-40.0	-41.8	19.5	0.00e+00	0	42	0	0	51	4450
2026-01-17 23:59:01.00	205.77	26.13	-40.1	-41.8	19.5	0.00e+00	0	43	0	0	51	4465
2026-01-17 23:59:01.85	205.74	25.99	-40.0	-41.7	19.5	0.00e+00	0	43	0	0	51	4436
2026-01-17 23:59:02.99	205.71	25.80	-40.0	-41.7	19.6	0.00e+00	0	42	0	0	51	4423
2026-01-17 23:59:03.84	205.69	25.66	-40.0	-41.8	19.5	0.00e+00	0	43	0	0	51	4442
2026-01-17 23:59:04.98	205.66	25.47	-39.8	-41.6	19.7	0.00e+00	0	42	0	0	51	4352
2026-01-17 23:59:05.83	205.64	25.34	-39.8	-41.5	19.7	0.00e+00	0	42	0	0	51	4337
2026-01-17 23:59:06.97	205.61	25.15	-39.8	-41.6	19.7	0.00e+00	0	42	0	0	51	4354
2026-01-17 23:59:07.82	205.59	25.02	-39.9	-41.7	19.6	0.00e+00	0	43	0	0	51	4396
2026-01-17 23:59:08.96	205.56	24.84	-39.8	-41.5	19.7	0.00e+00	0	43	0	0	51	4330
2026-01-17 23:59:09.81	205.54	24.70	-39.9	-41.6	19.5	0.00e+00	0	42	0	0	51	4374
2026-01-17 23:59:10.98	205.51	24.52	-39.9	-41.6	19.5	0.00e+00	0	43	0	0	51	4361
2026-01-17 23:59:11.84	205.49	24.38	-39.8	-41.6	19.5	0.00e+00	0	42	0	0	51	4348
2026-01-17 23:59:12.98	205.46	24.21	-39.9	-41.6	19.4	0.00e+00	0	42	0	0	51	4375
2026-01-17 23:59:13.83	205.44	24.08	-40.0	-41.8	19.2	0.00e+00	0	42	0	0	51	4445
2026-01-17 23:59:14.96	205.41	23.90	-40.1	-41.9	19.2	0.00e+00	0	42	0	0	51	4506
2026-01-17 23:59:15.82	205.39	23.77	-40.0	-41.8	19.2	0.00e+00	0	42	0	0	51	4481
2026-01-17 23:59:16.96	205.37	23.60	-40.0	-41.8	19.3	0.00e+00	0	42	0	0	51	4444
2026-01-17 23:59:17.81	205.35	23.47	-39.8	-41.6	19.5	0.00e+00	0	42	0	0	51	4356
2026-01-17 23:59:18.94	205.32	23.30	-39.9	-41.7	19.5	0.00e+00	0	42	0	0	51	4394
2026-01-17 23:59:19.80	205.30	23.17	-39.9	-41.7	19.5	0.00e+00	0	42	0	0	51	4410
2026-01-17 23:59:20.93	205.28	23.01	-39.8	-41.6	19.6	0.00e+00	0	42	0	0	51	4356
2026-01-17 23:59:21.79	205.26	22.88	-40.0	-41.7	19.5	0.00e+00	0	42	0	0	51	4408
2026-01-17 23:59:22.92	205.23	22.71	-39.8	-41.5	19.6	0.00e+00	0	42	0	0	51	4314
2026-01-17 23:59:23.78	205.22	22.59	-39.7	-41.5	19.7	0.00e+00	0	42	0	0	51	4301
2026-01-17 23:59:24.91	205.19	22.43	-39.7	-41.4	19.7	0.00e+00	0	42	0	0	51	4288
2026-01-17 23:59:25.76	205.17	22.30	-39.7	-41.5	19.7	0.00e+00	0	42	0	0	51	4304
2026-01-17 23:59:26.90	205.15	22.14	-39.7	-41.5	19.8	0.00e+00	0	43	0	0	51	4293
2026-01-17 23:59:27.75	205.13	22.02	-39.5	-41.2	20.0	0.00e+00	0	42	0	0	51	4175
2026-01-17 23:59:28.89	205.11	21.86	-39.7	-41.4	19.8	0.00e+00	0	42	0	0	51	4254
2026-01-17 23:59:29.74	205.09	21.74	-39.6	-41.2	20.0	0.00e+00	0	43	0	0	51	4192
2026-01-17 23:59:31.10	205.07	21.55	-39.6	-41.3	20.0	0.00e+00	0	42	0	0	51	4203
2026-01-17 23:59:31.81	205.05	21.45	-39.4	-41.1	20.1	0.00e+00	0	43	0	0	50	4359
2026-01-17 23:59:33.28	205.02	21.25	-39.3	-41.0	20.2	0.00e+00	0	43	0	0	50	4307
2026-01-17 23:59:33.99	205.01	21.15	-39.3	-41.0	20.2	0.00e+00	0	42	0	0	50	4312
2026-01-17 23:59:35.27	204.99	20.97	-39.3	-41.0	20.2	0.00e+00	0	42	0	0	50	4307
2026-01-17 23:59:35.98	204.97	20.88	-39.3	-41.0	20.2	0.00e+00	0	43	0	0	50	4294
2026-01-17 23:59:37.26	204.95	20.70	-39.4	-41.0	20.1	0.00e+00	0	42	0	0	50	4332
2026-01-17 23:59:37.97	204.94	20.61	-39.3	-41.0	20.2	0.00e+00	0	43	0	0	50	4315
2026-01-17 23:59:39.25	204.91	20.44	-39.4	-41.0	20.1	0.00e+00	0	42	0	0	50	4331
2026-01-17 23:59:39.96	204.90	20.34	-39.4	-41.1	20.1	0.00e+00	0	43	0	0	50	4359
2026-01-17 23:59:41.24	204.88	20.17	-39.4	-41.1	20.1	0.00e+00	0	43	0	0	50	4354
2026-01-17 23:59:41.95	204.86	20.08	-39.5	-41.2	20.0	0.00e+00	0	43	0	0	50	4409
2026-01-17 23:59:43.23	204.84	19.91	-39.4	-41.1	20.1	0.00e+00	0	43	0	0	50	4365
2026-01-17 23:59:43.95	204.83	19.82	-39.5	-41.2	20.1	0.00e+00	0	42	0	0	50	4392
2026-01-17 23:59:45.23	204.81	19.65	-39.4	-41.1	20.1	0.00e+00	0	42	0	0	50	4367
2026-01-17 23:59:45.94	204.79	19.56	-39.4	-41.1	20.1	0.00e+00	0	43	0	0	50	4353
2026-01-17 23:59:47.22	204.77	19.39	-39.5	-41.2	20.0	0.00e+00	0	43	0	0	50	4422
2026-01-17 23:59:47.94	204.76	19.30	-39.5	-41.2	20.0	0.00e+00	0	42	0	0	50	4418
2026-01-17 23:59:49.22	204.74	19.14	-39.7	-41.4	19.8	0.00e+00	0	42	0	0	50	4527
2026-01-17 23:59:49.94	204.73	19.05	-39.7	-41.4	19.8	0.00e+00	0	43	0	0	50	4523
2026-01-17 23:59:51.27	204.71	18.88	-39.6	-41.4	19.8	0.00e+00	0	43	0	0	50	4505
2026-01-17 23:59:51.98	204.69	18.79	-39.6	-41.4	19.8	0.00e+00	0	42	0	0	50	4500
2026-01-17 23:59:53.26	204.67	18.63	-39.7	-41.5	19.8	0.00e+00	0	42	0	0	50	4550
2026-01-17 23:59:54.00	204.66	18.54	-39.8	-41.5	19.7	0.00e+00	0	42	0	0	50	4563
2026-01-17 23:59:55.28	204.64	18.38	-39.7	-41.5	19.8	0.00e+00	0	42	0	0	50	4552
2026-01-17 23:59:56.01	204.63	18.29	-39.9	-41.6	19.7	0.00e+00	0	42	0	0	50	4613
2026-01-17 23:59:57.29	204.61	18.14	-39.9	-41.6	19.6	0.00e+00	0	42	0	0	50	4649
2026-01-17 23:59:58.01	204.60	18.05	-39.9	-41.6	19.7	0.00e+00	0	42	0	0	50	4611
2026-01-17 23:59:59.29	204.58	17.89	-39.8	-41.5	19.7	0.00e+00	0	43	0	0	50	4594
2026-01-18 00:00:00.00	204.57	17.81	-39.9	-41.6	19.7	0.00e+00	0	42	0	0	50	4618
2026-01-18 00:00:01.28	204.55	17.66	-40.0	-41.8	19.5	0.00e+00	0	42	0	0	50	4718
2026-01-18 00:00:02.06	204.54	17.56	-40.0	-41.7	19.5	0.00e+00	0	42	0	0	50	4703
2026-01-18 00:00:03.31	204.52	17.41	-40.1	-41.9	19.3	0.00e+00	0	42	0	0	50	4784
2026-01-18 00:00:04.16	204.51	17.31	-40.2	-41.9	19.3	0.00e+00	0	42	0	0	51	4532
2026-01-18 00:00:05.30	204.49	17.18	-40.2	-41.9	19.3	0.00e+00	0	42	0	0	51	4535
2026-01-18 00:00:06.15	204.48	17.08	-40.3	-42.0	19.3	0.00e+00	0	42	0	0	51	4573
2026-01-18 00:00:07.29	204.47	16.95	-40.3	-42.1	19.2	0.00e+00	0	42	0	0	51	4610
2026-01-18 00:00:08.29	204.45	16.83	-40.3	-42.1	19.1	0.00e+00	0	42	0	0	51	4617
2026-01-18 00:00:09.47	204.44	16.70	-40.5	-42.2	19.0	0.00e+00	0	42	0	0	51	4704
2026-01-18 00:00:10.35	204.42	16.60	-40.5	-42.3	19.0	0.00e+00	0	42	0	0	51	4735
2026-01-18 00:00:11.70	204.41	16.44	-40.5	-42.4	18.9	0.00e+00	0	42	0	0	51	4762
2026-01-18 00:00:12.41	204.40	16.36	-40.5	-42.3	18.9	0.00e+00	0	43	0	0	51	4757
2026-01-18 00:00:13.70	204.38	16.22	-40.5	-42.3	18.9	0.00e+00	0	42	0	0	51	4740
2026-01-18 00:00:14.41	204.37	16.14	-40.6	-42.4	18.8	0.00e+00	0	42	0	0	51	4790
2026-01-18 00:00:15.69	204.35	15.99	-40.6	-42.5	18.7	0.00e+00	0	43	0	0	52	4562
2026-01-18 00:00:16.42	204.34	15.91	-40.7	-42.6	18.6	0.00e+00	0	42	0	0	52	4613
2026-01-18 00:00:17.70	204.33	15.77	-40.6	-42.5	18.7	0.00e+00	0	42	0	0	52	4576
2026-01-18 00:00:18.42	204.32	15.69	-40.7	-42.5	18.7	0.00e+00	0	42	0	0	52	4586
2026-01-18 00:00:19.70	204.30	15.55	-40.7	-42.5	18.6	0.00e+00	0	42	0	0	52	4587
2026-01-18 00:00:20.59	204.29	15.45	-40.8	-42.7	18.5	0.00e+00	0	42	0	0	52	4659
2026-01-18 00:00:21.73	204.28	15.33	-40.7	-42.6	18.6	0.00e+00	0	43	0	0	52	4623
2026-01-18 00:00:22.58	204.27	15.24	-40.7	-42.5	18.6	0.00e+00	0	42	0	0	52	4594
2026-01-18 00:00:23.71	204.25	15.11	-40.8	-42.7	18.5	0.00e+00	0	43	0	0	52	4698
2026-01-18 00:00:24.57	204.24	15.02	-40.7	-42.6	18.6	0.00e+00	0	42	0	0	52	4640
2026-01-18 00:00:25.70	204.23	14.90	-40.8	-42.6	18.5	0.00e+00	0	42	0	0	52	4649
2026-01-18 00:00:26.56	204.22	14.81	-40.8	-42.7	18.5	0.00e+00	0	42	0	0	52	4676
2026-01-18 00:00:27.70	204.21	14.69	-40.8	-42.7	18.5	0.00e+00	0	43	0	0	52	4678
2026-01-18 00:00:28.55	204.20	14.60	-40.8	-42.7	18.5	0.00e+00	0	42	0	0	52	4682
2026-01-18 00:00:29.69	204.18	14.48	-40.8	-42.7	18.5	0.00e+00	0	42	0	0	52	4653
2026-01-18 00:00:30.54	204.18	14.39	-40.8	-42.7	18.5	0.00e+00	0	42	0	0	52	4693
2026-01-18 00:00:31.68	204.16	14.27	-40.9	-42.8	18.4	0.00e+00	0	42	0	0	52	4729
2026-01-18 00:00:32.53	204.15	14.18	-41.0	-42.9	18.3	0.00e+00	0	43	0	0	52	4789
2026-01-18 00:00:33.67	204.14	14.06	-41.0	-42.9	18.3	0.00e+00	0	42	0	0	52	4785
2026-01-18 00:00:34.52	204.13	13.98	-40.9	-42.7	18.4	0.00e+00	0	42	0	0	52	4705
2026-01-18 00:00:35.66	204.12	13.86	-40.9	-42.8	18.3	0.00e+00	0	43	0	0	52	4743
2026-01-18 00:00:36.51	204.11	13.77	-40.9	-42.8	18.3	0.00e+00	0	42	0	0	52	4750
2026-01-18 00:00:37.64	204.10	13.66	-40.8	-42.7	18.4	0.00e+00	0	42	0	0	52	4683
2026-01-18 00:00:38.50	204.09	13.57	-40.9	-42.8	18.4	0.00e+00	0	43	0	0	52	4713
2026-01-18 00:00:39.63	204.08	13.46	-40.9	-42.8	18.4	0.00e+00	0	42	0	0	52	4720
2026-01-18 00:00:40.49	204.07	13.37	-41.0	-42.9	18.3	0.00e+00	0	42	0	0	52	4780
2026-01-18 00:00:41.63	204.06	13.26	-40.8	-42.7	18.4	0.00e+00	0	42	0	0	52	4702
2026-01-18 00:00:42.83	204.04	13.14	-40.8	-42.8	18.4	0.00e+00	0	43	0	0	52	4711
2026-01-18 00:00:43.85	204.03	13.04	-40.9	-42.9	18.3	0.00e+00	0	43	0	0	52	4763
2026-01-18 00:00:44.85	204.02	12.94	-40.9	-42.8	18.3	0.00e+00	0	43	0	0	52	4724
2026-01-18 00:00:45.84	204.01	12.84	-40.9	-42.8	18.3	0.00e+00	0	42	0	0	52	4736
2026-01-18 00:00:46.84	204.00	12.74	-40.8	-42.7	18.4	0.00e+00	0	43	0	0	52	4665
2026-01-18 00:00:47.83	203.99	12.65	-40.9	-42.8	18.3	0.00e+00	0	43	0	0	52	4729
2026-01-18 00:00:48.83	203.98	12.55	-40.8	-42.7	18.3	0.00e+00	0	42	0	0	52	4705
2026-01-18 00:00:49.82	203.98	12.45	-40.9	-42.8	18.3	0.00e+00	0	42	0	0	52	4759
2026-01-18 00:00:50.82	203.97	12.36	-40.9	-42.9	18.2	0.00e+00	0	43	0	0	52	4772
2026-01-18 00:00:51.81	203.96	12.26	-40.7	-42.6	18.5	0.00e+00	0	42	0	0	52	4633
2026-01-18 00:00:52.81	203.95	12.17	-40.9	-42.8	18.3	0.00e+00	0	42	0	0	52	4740
2026-01-18 00:00:53.80	203.94	12.07	-40.8	-42.8	18.3	0.00e+00	0	42	0	0	52	4725
2026-01-18 00:00:54.80	203.93	11.98	-40.9	-42.9	18.2	0.00e+00	0	43	0	0	52	4763
2026-01-18 00:00:55.79	203.92	11.89	-40.8	-42.8	18.3	0.00e+00	0	42	0	0	52	4728
2026-01-18 00:00:56.79	203.91	11.79	-40.8	-42.7	18.4	0.00e+00	0	42	0	0	52	4681
2026-01-18 00:00:57.78	203.90	11.70	-41.0	-42.9	18.2	0.00e+00	0	42	0	0	52	4812
2026-01-18 00:00:58.95	203.89	11.59	-41.1	-43.0	18.1	0.00e+00	0	43	0	0	52	4864
2026-01-18 00:00:59.84	203.88	11.51	-41.1	-43.0	18.1	0.00e+00	0	42	0	0	52	4857
2026-01-18 00:01:01.15	203.87	11.39	-41.0	-43.0	18.1	0.00e+00	0	43	0	0	52	4855
2026-01-18 00:01:01.86	203.87	11.32	-41.0	-42.9	18.2	0.00e+00	0	43	0	0	52	4799
2026-01-18 00:01:03.13	203.85	11.20	-41.0	-42.9	18.2	0.00e+00	0	42	0	0	52	4807
2026-01-18 00:01:03.88	203.85	11.13	-41.1	-43.0	18.0	0.00e+00	0	42	0	0	52	4866
2026-01-18 00:01:05.16	203.84	11.02	-41.1	-43.0	18.1	0.00e+00	0	43	0	0	52	4860
2026-01-18 00:01:05.87	203.83	10.95	-41.1	-43.1	18.0	0.00e+00	0	43	0	0	52	4880
2026-01-18 00:01:07.15	203.82	10.84	-41.0	-43.0	18.1	0.00e+00	0	42	0	0	52	4856
2026-01-18 00:01:07.86	203.81	10.77	-41.1	-43.1	18.0	0.00e+00	0	43	0	0	52	4920
2026-01-18 00:01:09.14	203.80	10.66	-41.0	-43.0	18.0	0.00e+00	0	43	0	0	52	4867
2026-01-18 00:01:09.86	203.80	10.59	-41.0	-43.0	18.1	0.00e+00	0	43	0	0	52	4845
2026-01-18 00:01:11.14	203.79	10.48	-41.0	-43.0	18.0	0.00e+00	0	43	0	0	52	4856
2026-01-18 00:01:11.86	203.78	10.42	-41.1	-43.1	17.9	0.00e+00	0	43	0	0	52	4899
2026-01-18 00:01:13.17	203.77	10.30	-41.2	-43.3	17.8	0.00e+00	0	42	0	0	53	4715
2026-01-18 00:01:14.17	203.76	10.21	-41.2	-43.3	17.8	0.00e+00	0	43	0	0	53	4729
2026-01-18 00:01:15.48	203.75	10.10	-41.4	-43.4	17.7	0.00e+00	0	43	0	0	53	4804
2026-01-18 00:01:16.22	203.75	10.03	-41.2	-43.3	17.8	0.00e+00	0	43	0	0	53	4708
2026-01-18 00:01:17.50	203.74	9.92	-41.3	-43.4	17.7	0.00e+00	0	43	0	0	53	4791
2026-01-18 00:01:18.22	203.73	9.86	-41.1	-43.1	18.0	0.00e+00	0	42	0	0	53	4623
2026-01-18 00:01:19.85	203.72	9.72	-41.3	-43.4	17.7	0.00e+00	0	42	0	0	53	4790
2026-01-18 00:01:20.42	203.72	9.67	-41.2	-43.2	17.8	0.00e+00	0	42	0	0	53	4700
2026-01-18 00:01:22.13	203.70	9.52	-41.5	-43.6	17.5	0.00e+00	0	42	0	0	53	4893
2026-01-18 00:01:22.70	203.70	9.47	-41.4	-43.5	17.6	0.00e+00	0	42	0	0	53	4843
2026-01-18 00:01:24.41	203.69	9.33	-41.3	-43.4	17.7	0.00e+00	0	43	0	0	53	4780
2026-01-18 00:01:24.97	203.68	9.28	-41.3	-43.4	17.7	0.00e+00	0	42	0	0	53	4775
2026-01-18 00:01:26.68	203.67	9.13	-41.4	-43.4	17.6	0.00e+00	0	43	0	0	53	4810
2026-01-18 00:01:27.25	203.67	9.09	-41.4	-43.4	17.6	0.00e+00	0	43	0	0	53	4808
2026-01-18 00:01:29.01	203.65	8.94	-48.9	-60.7	3.9	5.82e-01	0	42	104	0	68	14775
2026-01-18 00:01:29.58	203.65	8.89	-49.3	-62.4	3.8	1.49e+00	0	43	104	0	69	16936
2026-01-18 00:01:31.29	203.64	8.75	-50.1	-63.2	3.8	1.49e+00	0	42	104	0	70	17507
2026-01-18 00:01:31.85	203.63	8.70	-50.1	-63.2	3.8	1.49e+00	0	43	104	0	70	17538
2026-01-18 00:01:33.56	203.62	8.56	-50.2	-63.3	3.8	1.49e+00	0	42	104	0	71	16799
2026-01-18 00:01:34.12	203.62	8.51	-50.2	-63.3	3.8	1.49e+00	0	43	104	0	71	16864
2026-01-18 00:01:35.89	203.61	8.37	-50.3	-63.4	3.8	1.49e+00	0	42	104	0	71	17045
2026-01-18 00:01:36.46	203.60	8.32	-50.3	-63.4	3.8	1.49e+00	0	43	104	0	71	17075
2026-01-18 00:01:38.16	203.59	8.18	-50.4	-63.5	3.8	1.49e+00	0	43	104	0	71	17096
2026-01-18 00:01:38.86	203.59	8.13	-50.5	-63.5	3.8	1.49e+00	0	43	104	0	71	17127
2026-01-18 00:01:40.28	203.58	8.01	-50.5	-63.5	3.8	1.49e+00	0	43	104	0	71	17114
2026-01-18 00:01:41.03	203.57	7.95	-50.3	-63.5	3.8	1.49e+00	0	42	104	0	71	17193
2026-01-18 00:01:42.31	203.57	7.85	-50.2	-63.5	3.8	1.49e+00	0	43	104	0	71	17191
2026-01-18 00:01:43.11	203.56	7.78	-50.5	-63.5	3.8	1.49e+00	0	43	104	0	71	17199
2026-01-18 00:01:44.25	203.55	7.69	-50.5	-63.5	3.8	1.49e+00	0	43	104	0	71	17186
2026-01-18 00:01:45.29	203.55	7.61	-50.3	-63.5	3.8	1.49e+00	0	43	104	0	71	17148
2026-01-18 00:01:46.42	203.54	7.52	-50.4	-63.5	3.8	1.49e+00	0	43	104	0	71	17166
2026-01-18 00:01:47.34	203.54	7.45	-50.5	-63.5	3.8	1.49e+00	0	43	104	0	71	17161
2026-01-18 00:01:48.51	203.53	7.36	-50.3	-63.5	3.8	1.49e+00	0	43	104	0	71	17115
2026-01-18 00:01:49.39	203.52	7.29	-50.3	-63.5	3.8	1.49e+00	0	43	104	0	71	17142
2026-01-18 00:01:50.70	203.52	7.19	-50.1	-63.4	3.8	1.49e+00	0	43	104	0	71	16961
2026-01-18 00:01:51.41	203.51	7.13	-50.1	-63.4	3.8	1.49e+00	0	43	104	0	71	16931
2026-01-18 00:01:52.70	203.50	7.03	-50.1	-63.4	3.8	1.49e+00	0	43	104	0	71	16944
2026-01-18 00:01:53.41	203.50	6.97	-50.1	-63.4	3.8	1.49e+00	0	43	104	0	71	16992
2026-01-18 00:01:54.69	203.49	6.88	-50.1	-63.4	3.8	1.49e+00	0	43	104	0	71	16929
2026-01-18 00:01:55.40	203.49	6.82	-50.1	-63.4	3.8	1.49e+00	0	43	104	0	71	16951
2026-01-18 00:01:56.67	203.48	6.72	-50.1	-63.4	3.8	1.49e+00	0	43	104	0	71	16916
2026-01-18 00:01:57.38	203.48	6.67	-50.1	-63.4	3.8	1.49e+00	0	43	104	0	71	16959
2026-01-18 00:01:58.66	203.47	6.57	-50.1	-63.4	3.8	1.49e+00	0	43	104	0	71	16928
2026-01-18 00:01:59.37	203.47	6.52	-50.1	-63.4	3.8	1.49e+00	0	43	104	0	71	16908
2026-01-18 00:02:00.65	203.46	6.42	-50.1	-63.4	3.8	1.49e+00	0	43	104	0	71	16945
2026-01-18 00:02:01.36	203.46	6.37	-50.1	-63.4	3.8	1.49e+00	0	43	104	0	71	16896
2026-01-18 00:02:02.63	203.45	6.27	-50.1	-63.4	3.8	1.49e+00	0	43	104	0	71	16946
2026-01-18 00:02:03.34	203.44	6.22	-50.1	-63.3	3.8	1.49e+00	0	43	104	0	71	16885
2026-01-18 00:02:04.62	203.44	6.12	-50.1	-63.4	3.8	1.49e+00	0	43	104	0	71	16911
2026-01-18 00:02:05.34	203.43	6.07	-50.1	-63.4	3.8	1.49e+00	0	43	104	0	71	16916
2026-01-18 00:02:06.62	203.43	5.97	-50.0	-63.3	3.8	1.49e+00	0	43	104	0	71	16873
2026-01-18 00:02:07.33	203.42	5.92	-50.1	-63.4	3.8	1.49e+00	0	43	104	0	71	16944
2026-01-18 00:02:08.61	203.42	5.82	-50.0	-63.4	3.8	1.49e+00	0	43	104	0	71	16910
2026-01-18 00:02:09.32	203.41	5.77	-50.1	-63.4	3.8	1.49e+00	0	43	104	0	71	16915
2026-01-18 00:02:10.60	203.41	5.68	-50.0	-63.3	3.8	1.49e+00	0	43	104	0	71	16881
2026-01-18 00:02:11.31	203.40	5.62	-50.0	-63.4	3.8	1.49e+00	0	43	104	0	71	16908
