passes_logs/2026/01/17/T1/T1__20260117_090910_NOAA_20_JPSS-1_rec.log

#Pass ID: 20260117_090910_NOAA 20 (JPSS-1)
#Satellite: NOAA 20 (JPSS-1)
#Configuration: NOAA 20
#almurnet v.1.7.20251203
#Start time: 2026-01-17 09:09:09

#Version: 2.0.20230620
#Station: T1
#Location: 37.570604 lon 55.790049 lat
#TLE: 1 43013U 17073A   26016.24631778  .00000038  00000+0  39093-4 0  9990
#TLE: 2 43013  98.7637 317.1726 0001455  37.6755 322.4523 14.19536243422915

#Time	Az	El	Level	Level2	SNR	BER	BlckErr	Temp	State	Recorded	gain1	gain2
2026-01-17 09:09:09.85	135.96	4.97	-49.9	-65.1	3.8	1.49e+00	0	36	0	0	71	20547
2026-01-17 09:09:10.84	135.92	5.04	-49.7	-65.1	3.8	1.49e+00	0	36	104	0	71	20632
2026-01-17 09:09:11.83	135.88	5.11	-49.9	-65.0	3.8	1.49e+00	0	36	104	0	71	20537
2026-01-17 09:09:12.83	135.84	5.18	-49.9	-65.1	3.8	1.49e+00	0	36	104	0	71	20734
2026-01-17 09:09:13.82	135.80	5.25	-49.7	-65.1	3.8	1.49e+00	0	37	104	0	71	20683
2026-01-17 09:09:14.82	135.76	5.32	-49.9	-65.1	3.8	1.49e+00	0	36	104	0	71	20726
2026-01-17 09:09:15.81	135.72	5.39	-49.7	-65.1	3.8	1.49e+00	0	37	104	0	71	20734
2026-01-17 09:09:16.80	135.68	5.46	-49.7	-65.1	3.8	1.49e+00	0	37	104	0	71	20597
2026-01-17 09:09:17.80	135.64	5.53	-49.7	-65.1	3.8	1.49e+00	0	37	104	0	71	20773
2026-01-17 09:09:18.79	135.60	5.60	-49.7	-65.1	3.8	1.49e+00	0	37	104	0	71	20752
2026-01-17 09:09:19.78	135.56	5.67	-49.9	-65.1	3.8	1.49e+00	0	37	104	0	71	20630
2026-01-17 09:09:20.77	135.52	5.74	-49.7	-65.1	3.8	1.49e+00	0	37	104	0	71	20706
2026-01-17 09:09:21.77	135.48	5.81	-49.9	-65.1	3.8	1.49e+00	0	37	104	0	71	20711
2026-01-17 09:09:22.76	135.43	5.88	-49.7	-65.0	3.8	1.49e+00	0	37	104	0	71	20510
2026-01-17 09:09:23.76	135.39	5.95	-49.9	-65.0	3.8	1.49e+00	0	37	104	0	71	20381
2026-01-17 09:09:24.75	135.35	6.02	-49.6	-64.9	3.8	1.49e+00	0	37	104	0	71	20242
2026-01-17 09:09:25.74	135.31	6.09	-49.9	-64.8	3.8	1.49e+00	0	37	104	0	71	20035
2026-01-17 09:09:26.73	135.26	6.16	-49.6	-64.8	3.8	1.49e+00	0	37	104	0	71	19896
2026-01-17 09:09:27.73	135.22	6.24	-49.8	-64.7	3.8	1.49e+00	0	37	104	0	71	19708
2026-01-17 09:09:28.72	135.18	6.31	-49.8	-64.7	3.8	1.49e+00	0	37	104	0	71	19617
2026-01-17 09:09:29.71	135.13	6.38	-49.6	-64.5	3.8	1.49e+00	0	37	104	0	71	19337
2026-01-17 09:09:30.71	135.09	6.45	-49.6	-64.6	3.8	1.49e+00	0	37	104	0	71	19424
2026-01-17 09:09:31.70	135.04	6.52	-49.6	-64.6	3.8	1.49e+00	0	37	104	0	71	19488
2026-01-17 09:09:32.69	135.00	6.60	-49.8	-64.7	3.8	1.49e+00	0	37	104	0	71	19825
2026-01-17 09:09:33.69	134.96	6.67	-49.6	-64.9	3.8	1.49e+00	0	37	104	0	71	20181
2026-01-17 09:09:34.68	134.91	6.74	-49.7	-65.0	3.8	1.49e+00	0	37	104	0	71	20310
2026-01-17 09:09:35.67	134.87	6.82	-49.7	-65.1	3.8	1.49e+00	0	37	104	0	71	20695
2026-01-17 09:09:36.67	134.82	6.89	-49.7	-65.1	3.8	1.49e+00	0	37	104	0	71	20569
2026-01-17 09:09:37.66	134.78	6.96	-49.9	-65.0	3.8	1.49e+00	0	37	104	0	71	20337
2026-01-17 09:09:38.65	134.73	7.04	-49.8	-64.7	3.8	1.49e+00	0	37	104	0	71	19787
2026-01-17 09:09:39.65	134.68	7.11	-49.8	-64.4	3.8	1.49e+00	0	37	104	0	71	19152
2026-01-17 09:09:40.64	134.64	7.19	-49.7	-63.9	3.8	1.49e+00	0	37	104	0	71	18087
2026-01-17 09:09:41.63	134.59	7.26	-49.6	-63.6	3.8	1.49e+00	0	38	104	0	71	17307
2026-01-17 09:09:42.63	134.54	7.34	-49.7	-63.2	3.8	1.49e+00	0	37	104	0	71	16555
2026-01-17 09:09:43.62	134.50	7.41	-49.7	-62.5	4.0	1.49e+00	0	38	104	0	71	15318
2026-01-17 09:09:44.61	134.45	7.49	-49.6	-61.7	4.2	1.45e+00	0	38	0	0	70	14752
2026-01-17 09:09:45.61	134.40	7.56	-49.5	-60.5	4.5	1.30e+00	0	37	0	0	70	12835
2026-01-17 09:09:46.60	134.35	7.64	-49.3	-58.8	5.4	6.21e-01	0	38	0	2097152	70	10577
2026-01-17 09:09:47.59	134.31	7.71	-48.9	-57.4	6.5	3.02e-01	0	38	0	4194304	69	9525
2026-01-17 09:09:48.59	134.26	7.79	-48.6	-55.6	8.2	1.19e-01	0	38	0	6291456	68	8216
2026-01-17 09:09:49.58	134.21	7.86	-48.0	-54.2	9.5	3.44e-02	0	38	0	8388608	68	7034
2026-01-17 09:09:50.57	134.16	7.94	-47.3	-52.5	11.2	2.73e-03	0	38	0	9437184	66	6472
2026-01-17 09:09:51.57	134.11	8.02	-46.8	-51.3	12.4	4.07e-04	0	38	0	11534336	65	5962
2026-01-17 09:09:52.56	134.06	8.09	-46.2	-50.3	13.5	6.25e-05	0	38	0	13631488	64	5620
2026-01-17 09:09:53.55	134.01	8.17	-45.9	-49.5	14.4	0.00e+00	0	38	0	15728640	63	5415
2026-01-17 09:09:54.55	133.96	8.25	-45.4	-48.9	15.0	7.00e-07	0	38	0	16777216	62	5369
2026-01-17 09:09:55.54	133.91	8.32	-45.3	-48.6	15.3	0.00e+00	0	38	0	18874368	62	5170
2026-01-17 09:09:56.54	133.86	8.40	-45.1	-48.3	15.6	0.00e+00	0	38	0	20971520	62	4995
2026-01-17 09:09:57.53	133.81	8.48	-45.0	-48.3	15.5	0.00e+00	0	38	0	23068672	62	5024
2026-01-17 09:09:58.52	133.76	8.56	-45.3	-48.6	15.2	0.00e+00	0	38	0	25165824	62	5209
2026-01-17 09:09:59.51	133.71	8.64	-45.6	-49.2	14.7	0.00e+00	0	38	0	26214400	62	5543
2026-01-17 09:10:00.51	133.66	8.72	-46.0	-49.8	14.1	7.00e-07	0	38	0	28311552	62	5970
2026-01-17 09:10:01.50	133.61	8.79	-46.5	-50.7	13.2	9.90e-06	0	38	0	30408704	63	6210
2026-01-17 09:10:02.49	133.55	8.87	-46.9	-51.6	12.1	1.22e-04	0	38	0	32505856	64	6567
2026-01-17 09:10:03.49	133.50	8.95	-47.6	-52.9	10.8	8.20e-04	0	38	0	33554432	65	7167
2026-01-17 09:10:04.48	133.45	9.03	-48.0	-54.5	9.2	5.78e-03	0	38	0	35651584	66	8089
2026-01-17 09:10:05.47	133.40	9.11	-47.4	-52.8	10.6	4.80e-02	0	38	0	37748736	67	6322
2026-01-17 09:10:06.47	133.34	9.19	-46.0	-49.6	14.2	4.50e-06	0	38	0	39845888	63	5521
2026-01-17 09:10:07.46	133.29	9.27	-47.5	-52.9	11.1	0.00e+00	0	38	0	41943040	65	7172
2026-01-17 09:10:08.47	133.23	9.35	-49.4	-59.0	5.2	1.39e+00	0	38	104	41943040	70	10792
2026-01-17 09:10:09.50	133.18	9.44	-47.2	-52.0	11.8	3.68e-03	0	38	0	42991616	66	6072
2026-01-17 09:10:10.49	133.12	9.52	-47.6	-53.0	10.5	1.99e-02	0	38	0	45088768	67	6462
2026-01-17 09:10:11.49	133.07	9.60	-47.3	-52.2	11.6	5.56e-04	0	38	0	47185920	66	6261
2026-01-17 09:10:12.49	133.01	9.68	-47.0	-51.7	12.0	6.32e-04	0	38	0	49283072	66	5888
2026-01-17 09:10:13.48	132.96	9.76	-46.4	-50.5	13.2	5.95e-05	0	38	0	50331648	64	5780
2026-01-17 09:10:14.48	132.90	9.84	-46.0	-49.7	14.2	4.50e-06	0	38	0	52428800	63	5576
2026-01-17 09:10:15.47	132.84	9.92	-46.1	-49.9	14.0	1.50e-06	0	38	0	54525952	63	5706
2026-01-17 09:10:16.47	132.79	10.01	-46.1	-49.8	14.2	0.00e+00	0	38	0	56623104	63	5637
2026-01-17 09:10:17.46	132.73	10.09	-45.9	-49.5	14.5	0.00e+00	0	38	0	57671680	63	5435
2026-01-17 09:10:18.46	132.67	10.17	-46.0	-49.7	14.3	7.00e-07	0	38	0	59768832	63	5547
2026-01-17 09:10:19.45	132.61	10.26	-45.8	-49.3	14.7	7.00e-07	0	38	0	61865984	63	5292
2026-01-17 09:10:20.45	132.56	10.34	-45.5	-48.8	15.2	0.00e+00	0	38	0	63963136	62	5296
2026-01-17 09:10:21.44	132.50	10.42	-45.0	-48.1	15.9	0.00e+00	0	38	0	66060288	62	4890
2026-01-17 09:10:22.44	132.44	10.51	-44.7	-47.6	16.3	0.00e+00	0	38	0	67108864	61	4924
2026-01-17 09:10:23.44	132.38	10.59	-44.4	-47.3	16.7	0.00e+00	0	38	0	69206016	60	5004
2026-01-17 09:10:24.43	132.32	10.68	-44.3	-47.1	16.8	0.00e+00	0	38	0	71303168	60	4924
2026-01-17 09:10:25.44	132.26	10.76	-44.2	-47.0	17.0	0.00e+00	0	38	0	73400320	60	4821
2026-01-17 09:10:26.47	132.20	10.85	-44.3	-47.1	16.8	0.00e+00	0	38	0	75497472	60	4921
2026-01-17 09:10:27.47	132.14	10.94	-44.2	-47.0	16.9	0.00e+00	0	38	0	76546048	60	4862
2026-01-17 09:10:28.54	132.07	11.03	-44.2	-47.0	17.0	0.00e+00	0	38	0	78643200	60	4868
2026-01-17 09:10:29.39	132.02	11.10	-44.3	-47.2	16.9	0.00e+00	0	38	0	80740352	60	4929
2026-01-17 09:10:30.53	131.95	11.20	-44.4	-47.3	16.8	0.00e+00	0	38	0	82837504	60	4995
2026-01-17 09:10:31.38	131.90	11.27	-44.4	-47.3	16.7	0.00e+00	0	38	0	83886080	60	5026
2026-01-17 09:10:32.52	131.82	11.37	-44.5	-47.4	16.6	0.00e+00	0	38	0	85983232	60	5082
2026-01-17 09:10:33.38	131.77	11.45	-44.5	-47.4	16.6	0.00e+00	0	38	0	88080384	60	5086
2026-01-17 09:10:34.51	131.70	11.55	-44.5	-47.4	16.6	0.00e+00	0	38	0	90177536	60	5085
2026-01-17 09:10:35.37	131.64	11.62	-44.4	-47.3	16.8	0.00e+00	0	38	0	91226112	60	5026
2026-01-17 09:10:36.50	131.57	11.72	-44.2	-47.1	17.0	0.00e+00	0	38	0	94371840	60	4883
2026-01-17 09:10:37.36	131.51	11.80	-44.2	-47.1	17.0	0.00e+00	0	38	0	95420416	60	4881
2026-01-17 09:10:38.49	131.44	11.90	-44.2	-47.0	17.0	0.00e+00	0	38	0	97517568	60	4850
2026-01-17 09:10:39.35	131.38	11.97	-44.1	-46.9	17.2	0.00e+00	0	38	0	99614720	60	4769
2026-01-17 09:10:40.61	131.30	12.09	-44.1	-46.8	17.2	0.00e+00	0	39	0	101711872	60	4746
2026-01-17 09:10:41.34	131.25	12.15	-44.1	-46.9	17.2	0.00e+00	0	39	0	102760448	60	4766
2026-01-17 09:10:42.79	131.16	12.28	-44.0	-46.8	17.3	0.00e+00	0	39	0	105906176	60	4727
2026-01-17 09:10:43.50	131.11	12.35	-44.1	-46.9	17.2	0.00e+00	0	39	0	106954752	60	4769
2026-01-17 09:10:44.78	131.02	12.46	-44.1	-46.9	17.2	0.00e+00	0	39	0	109051904	60	4796
2026-01-17 09:10:45.49	130.97	12.53	-44.0	-46.8	17.3	0.00e+00	0	38	0	111149056	60	4720
2026-01-17 09:10:46.77	130.89	12.64	-43.9	-46.6	17.4	0.00e+00	0	38	0	113246208	59	4896
2026-01-17 09:10:47.48	130.84	12.71	-43.9	-46.6	17.5	0.00e+00	0	38	0	114294784	59	4873
2026-01-17 09:10:48.75	130.75	12.82	-43.7	-46.4	17.6	0.00e+00	0	39	0	116391936	59	4762
2026-01-17 09:10:49.48	130.70	12.89	-43.6	-46.4	17.6	0.00e+00	0	39	0	118489088	59	4761
2026-01-17 09:10:50.76	130.61	13.01	-43.3	-46.3	17.7	0.00e+00	0	38	0	120586240	58	5015
2026-01-17 09:10:51.50	130.55	13.08	-43.3	-46.4	17.6	0.00e+00	0	39	0	121634816	58	5093
2026-01-17 09:10:52.78	130.46	13.20	-42.7	-46.5	17.5	0.00e+00	0	39	0	124780544	57	5441
2026-01-17 09:10:53.49	130.41	13.26	-42.5	-46.5	17.5	0.00e+00	0	39	0	125829120	57	5449
2026-01-17 09:10:54.77	130.32	13.38	-42.6	-46.6	17.4	0.00e+00	0	38	0	127926272	57	5495
2026-01-17 09:10:55.60	130.26	13.46	-42.7	-46.6	17.4	0.00e+00	0	39	0	130023424	57	5510
2026-01-17 09:10:57.02	130.16	13.59	-43.3	-46.5	17.5	0.00e+00	0	39	0	132120576	57	5455
2026-01-17 09:10:57.73	130.10	13.66	-43.6	-46.5	17.5	0.00e+00	0	38	0	133169152	57	5432
2026-01-17 09:10:59.01	130.01	13.78	-43.7	-46.4	17.7	0.00e+00	0	38	0	136314880	58	5071
2026-01-17 09:10:59.72	129.96	13.85	-43.7	-46.4	17.7	0.00e+00	0	38	0	137363456	58	5056
2026-01-17 09:11:01.25	129.84	14.00	-43.8	-46.4	17.7	0.00e+00	0	38	0	140509184	58	5063
2026-01-17 09:11:01.96	129.79	14.06	-43.8	-46.4	17.6	0.00e+00	0	39	0	141557760	58	5097
2026-01-17 09:11:03.24	129.69	14.19	-43.7	-46.3	17.8	0.00e+00	0	39	0	143654912	58	5020
2026-01-17 09:11:03.95	129.63	14.26	-43.8	-46.4	17.7	0.00e+00	0	38	0	145752064	58	5071
2026-01-17 09:11:05.22	129.54	14.38	-43.8	-46.5	17.6	0.00e+00	0	39	0	147849216	58	5104
2026-01-17 09:11:05.94	129.48	14.45	-43.9	-46.6	17.5	0.00e+00	0	39	0	148897792	58	5174
2026-01-17 09:11:07.21	129.38	14.57	-43.8	-46.4	17.7	0.00e+00	0	39	0	150994944	58	5067
2026-01-17 09:11:07.92	129.32	14.64	-43.7	-46.3	17.8	0.00e+00	0	38	0	153092096	58	4992
2026-01-17 09:11:09.20	129.22	14.77	-43.6	-46.3	17.8	0.00e+00	0	38	0	155189248	58	4989
2026-01-17 09:11:09.92	129.16	14.84	-43.7	-46.4	17.7	0.00e+00	0	39	0	156237824	58	5064
2026-01-17 09:11:11.19	129.06	14.96	-43.6	-46.2	17.8	0.00e+00	0	38	0	159383552	58	4978
2026-01-17 09:11:12.00	129.00	15.04	-43.6	-46.2	17.9	0.00e+00	0	38	0	160432128	58	4928
2026-01-17 09:11:13.14	128.90	15.16	-43.7	-46.3	17.8	0.00e+00	0	39	0	162529280	58	5017
2026-01-17 09:11:13.99	128.83	15.24	-43.8	-46.4	17.7	0.00e+00	0	39	0	164626432	58	5087
2026-01-17 09:11:15.13	128.74	15.36	-43.7	-46.3	17.8	0.00e+00	0	39	0	166723584	58	5020
2026-01-17 09:11:15.98	128.67	15.44	-43.7	-46.3	17.8	0.00e+00	0	38	0	167772160	58	5006
2026-01-17 09:11:17.12	128.57	15.56	-43.7	-46.2	17.9	0.00e+00	0	39	0	169869312	58	4972
2026-01-17 09:11:17.97	128.50	15.64	-43.7	-46.3	17.8	0.00e+00	0	39	0	171966464	58	5019
2026-01-17 09:11:19.12	128.40	15.76	-43.8	-46.4	17.7	0.00e+00	0	39	0	174063616	58	5065
2026-01-17 09:11:19.97	128.33	15.85	-43.7	-46.2	17.9	0.00e+00	0	39	0	175112192	58	4972
2026-01-17 09:11:21.11	128.23	15.96	-43.6	-46.2	17.9	0.00e+00	0	39	0	177209344	58	4955
2026-01-17 09:11:21.96	128.16	16.05	-43.6	-46.2	17.9	0.00e+00	0	38	0	179306496	58	4948
2026-01-17 09:11:23.09	128.06	16.17	-43.7	-46.3	17.8	0.00e+00	0	39	0	181403648	58	4989
2026-01-17 09:11:24.03	127.98	16.27	-43.8	-46.4	17.7	0.00e+00	0	39	0	182452224	58	5062
2026-01-17 09:11:25.02	127.89	16.37	-43.9	-46.5	17.6	0.00e+00	0	39	0	184549376	58	5146
2026-01-17 09:11:26.02	127.80	16.47	-43.8	-46.4	17.8	0.00e+00	0	39	0	186646528	58	5063
2026-01-17 09:11:27.01	127.71	16.58	-43.9	-46.5	17.6	0.00e+00	0	38	0	188743680	58	5143
2026-01-17 09:11:28.01	127.62	16.68	-44.0	-46.6	17.6	0.00e+00	0	38	0	190840832	58	5179
2026-01-17 09:11:29.00	127.53	16.78	-44.0	-46.6	17.5	0.00e+00	0	38	0	191889408	58	5178
2026-01-17 09:11:29.99	127.44	16.89	-44.0	-46.7	17.5	0.00e+00	0	39	0	193986560	58	5228
2026-01-17 09:11:30.99	127.34	17.00	-44.0	-46.6	17.6	0.00e+00	0	39	0	196083712	58	5171
2026-01-17 09:11:31.99	127.25	17.10	-43.9	-46.4	17.7	0.00e+00	0	39	0	198180864	58	5087
2026-01-17 09:11:32.98	127.16	17.21	-44.0	-46.6	17.6	0.00e+00	0	39	0	199229440	58	5161
2026-01-17 09:11:33.98	127.06	17.32	-43.8	-46.3	17.9	0.00e+00	0	39	0	201326592	58	4988
2026-01-17 09:11:34.98	126.97	17.42	-43.8	-46.3	17.8	0.00e+00	0	39	0	203423744	58	5041
2026-01-17 09:11:35.97	126.87	17.53	-43.9	-46.4	17.7	0.00e+00	0	38	0	205520896	58	5096
2026-01-17 09:11:36.97	126.78	17.64	-44.0	-46.5	17.6	0.00e+00	0	39	0	207618048	58	5157
2026-01-17 09:11:37.96	126.68	17.75	-44.1	-46.7	17.4	0.00e+00	0	39	0	208666624	58	5267
2026-01-17 09:11:38.96	126.58	17.86	-44.1	-46.8	17.3	0.00e+00	0	39	0	210763776	58	5315
2026-01-17 09:11:39.95	126.48	17.96	-44.1	-46.7	17.4	0.00e+00	0	39	0	212860928	58	5259
2026-01-17 09:11:40.94	126.38	18.07	-44.1	-46.7	17.5	0.00e+00	0	39	0	214958080	58	5258
2026-01-17 09:11:41.94	126.28	18.18	-43.9	-46.5	17.6	0.00e+00	0	39	0	216006656	58	5134
2026-01-17 09:11:42.94	126.18	18.29	-43.7	-46.1	18.0	0.00e+00	0	39	0	218103808	58	4924
2026-01-17 09:11:43.93	126.08	18.40	-43.7	-46.2	18.0	0.00e+00	0	39	0	220200960	58	4927
2026-01-17 09:11:44.93	125.98	18.52	-43.8	-46.3	17.8	0.00e+00	0	39	0	222298112	58	5024
2026-01-17 09:11:45.92	125.88	18.63	-44.0	-46.6	17.6	0.00e+00	0	39	0	224395264	58	5166
2026-01-17 09:11:46.92	125.77	18.74	-44.1	-46.7	17.4	0.00e+00	0	39	0	225443840	58	5257
2026-01-17 09:11:47.93	125.67	18.85	-44.1	-46.8	17.4	0.00e+00	0	39	0	227540992	58	5301
2026-01-17 09:11:48.97	125.56	18.97	-44.1	-46.7	17.5	0.00e+00	0	39	0	229638144	58	5255
2026-01-17 09:11:49.92	125.46	19.08	-43.9	-46.5	17.6	0.00e+00	0	39	0	231735296	58	5123
2026-01-17 09:11:51.01	125.34	19.20	-43.9	-46.6	17.5	0.00e+00	0	38	0	233832448	58	5188
2026-01-17 09:11:51.86	125.25	19.30	-43.9	-46.4	17.7	0.00e+00	0	39	0	234881024	58	5098
2026-01-17 09:11:53.00	125.12	19.43	-43.8	-46.4	17.8	0.00e+00	0	39	0	236978176	58	5056
2026-01-17 09:11:53.85	125.03	19.53	-44.1	-46.7	17.5	0.00e+00	0	39	0	239075328	58	5223
2026-01-17 09:11:54.99	124.90	19.66	-44.1	-46.9	17.3	0.00e+00	0	39	0	241172480	59	5075
2026-01-17 09:11:55.84	124.81	19.76	-44.2	-46.9	17.3	0.00e+00	0	39	0	242221056	59	5076
2026-01-17 09:11:56.98	124.68	19.89	-44.0	-46.7	17.5	0.00e+00	0	39	0	244318208	59	4931
2026-01-17 09:11:57.83	124.58	19.99	-44.0	-46.7	17.5	0.00e+00	0	39	0	246415360	59	4950
2026-01-17 09:11:58.96	124.45	20.13	-44.0	-46.7	17.5	0.00e+00	0	39	0	248512512	59	4948
2026-01-17 09:11:59.82	124.35	20.23	-43.9	-46.5	17.7	0.00e+00	0	39	0	250609664	59	4845
2026-01-17 09:12:00.95	124.22	20.36	-43.9	-46.6	17.6	0.00e+00	0	39	0	252706816	59	4874
2026-01-17 09:12:01.81	124.12	20.46	-44.0	-46.6	17.6	0.00e+00	0	39	0	253755392	59	4919
2026-01-17 09:12:03.03	123.98	20.61	-44.0	-46.7	17.5	0.00e+00	0	39	0	255852544	59	4954
2026-01-17 09:12:03.88	123.88	20.71	-44.1	-46.7	17.5	0.00e+00	0	39	0	257949696	59	4962
2026-01-17 09:12:05.02	123.74	20.85	-43.9	-46.5	17.7	0.00e+00	0	39	0	260046848	59	4858
2026-01-17 09:12:05.87	123.64	20.95	-43.8	-46.4	17.8	0.00e+00	0	39	0	261095424	59	4793
2026-01-17 09:12:07.01	123.50	21.09	-43.9	-46.5	17.7	0.00e+00	0	39	0	263192576	59	4823
2026-01-17 09:12:07.86	123.40	21.19	-43.9	-46.5	17.7	0.00e+00	0	39	0	265289728	59	4828
2026-01-17 09:12:09.00	123.26	21.33	-43.9	-46.5	17.7	0.00e+00	0	39	0	267386880	59	4835
2026-01-17 09:12:09.85	123.15	21.43	-44.0	-46.6	17.6	0.00e+00	0	39	0	268435456	59	4914
2026-01-17 09:12:10.99	123.01	21.57	-44.1	-46.7	17.5	0.00e+00	0	39	0	270532608	59	4957
2026-01-17 09:12:11.84	122.90	21.68	-44.1	-46.7	17.5	0.00e+00	0	39	0	272629760	59	4978
2026-01-17 09:12:12.98	122.75	21.82	-44.1	-46.8	17.4	0.00e+00	0	39	0	274726912	59	4996
2026-01-17 09:12:13.83	122.64	21.93	-44.0	-46.6	17.6	0.00e+00	0	39	0	276824064	59	4913
2026-01-17 09:12:14.97	122.50	22.07	-44.1	-46.7	17.5	0.00e+00	0	39	0	278921216	59	4954
2026-01-17 09:12:15.82	122.38	22.17	-44.1	-46.7	17.5	0.00e+00	0	39	0	279969792	59	4963
2026-01-17 09:12:16.96	122.23	22.32	-44.2	-46.9	17.4	0.00e+00	0	39	0	282066944	59	5043
2026-01-17 09:12:17.81	122.12	22.42	-44.1	-46.7	17.5	0.00e+00	0	39	0	284164096	59	4945
2026-01-17 09:12:18.95	121.97	22.57	-44.1	-46.7	17.5	0.00e+00	0	39	0	286261248	59	4938
2026-01-17 09:12:19.80	121.85	22.68	-44.1	-46.7	17.6	0.00e+00	0	39	0	287309824	59	4930
2026-01-17 09:12:20.94	121.70	22.82	-43.9	-46.4	17.8	0.00e+00	0	39	0	289406976	59	4799
2026-01-17 09:12:21.79	121.58	22.93	-43.9	-46.5	17.7	0.00e+00	0	39	0	291504128	59	4838
2026-01-17 09:12:22.93	121.42	23.08	-44.0	-46.6	17.6	0.00e+00	0	39	0	293601280	59	4914
2026-01-17 09:12:23.78	121.30	23.18	-44.1	-46.7	17.5	0.00e+00	0	39	0	294649856	59	4966
2026-01-17 09:12:24.92	121.14	23.33	-44.2	-46.8	17.4	0.00e+00	0	39	0	296747008	59	5022
2026-01-17 09:12:25.77	121.02	23.44	-44.1	-46.7	17.5	0.00e+00	0	39	0	298844160	59	4961
2026-01-17 09:12:26.91	120.86	23.59	-43.9	-46.5	17.7	0.00e+00	0	39	0	300941312	59	4834
2026-01-17 09:12:27.76	120.74	23.70	-44.0	-46.6	17.6	0.00e+00	0	39	0	301989888	59	4910
2026-01-17 09:12:28.90	120.57	23.85	-44.2	-46.8	17.4	0.00e+00	0	39	0	304087040	59	4994
2026-01-17 09:12:29.75	120.44	23.96	-44.1	-46.7	17.6	0.00e+00	0	39	0	306184192	59	4931
2026-01-17 09:12:30.92	120.27	24.12	-44.2	-46.9	17.4	0.00e+00	0	39	0	308281344	59	5054
2026-01-17 09:12:31.77	120.14	24.23	-44.2	-46.9	17.4	0.00e+00	0	39	0	310378496	59	5062
2026-01-17 09:12:32.98	119.96	24.39	-44.1	-46.7	17.6	0.00e+00	0	39	0	312475648	59	4928
2026-01-17 09:12:33.83	119.83	24.50	-44.0	-46.6	17.7	0.00e+00	0	39	0	313524224	59	4886
2026-01-17 09:12:34.97	119.66	24.65	-44.0	-46.5	17.7	0.00e+00	0	39	0	315621376	59	4849
2026-01-17 09:12:35.82	119.53	24.77	-44.0	-46.5	17.7	0.00e+00	0	39	0	317718528	59	4856
2026-01-17 09:12:37.08	119.33	24.94	-44.0	-46.6	17.6	0.00e+00	0	39	0	319815680	59	4894
2026-01-17 09:12:37.88	119.20	25.05	-44.1	-46.6	17.6	0.00e+00	0	39	0	321912832	59	4923
2026-01-17 09:12:39.10	119.01	25.21	-44.1	-46.7	17.5	0.00e+00	0	39	0	324009984	59	4978
2026-01-17 09:12:39.95	118.87	25.33	-44.2	-46.9	17.4	0.00e+00	0	39	0	325058560	59	5072
2026-01-17 09:12:41.12	118.68	25.49	-44.2	-46.9	17.3	0.00e+00	0	39	0	327155712	59	5074
2026-01-17 09:12:41.98	118.54	25.60	-44.3	-47.0	17.3	0.00e+00	0	39	0	329252864	59	5109
2026-01-17 09:12:43.11	118.36	25.76	-44.3	-47.0	17.3	0.00e+00	0	39	0	331350016	59	5105
2026-01-17 09:12:43.96	118.22	25.88	-44.3	-47.0	17.3	0.00e+00	0	39	0	332398592	59	5137
2026-01-17 09:12:45.10	118.02	26.03	-44.4	-47.0	17.2	0.00e+00	0	39	0	334495744	59	5156
2026-01-17 09:12:46.00	117.87	26.16	-44.3	-47.0	17.3	0.00e+00	0	39	0	336592896	59	5112
2026-01-17 09:12:47.10	117.68	26.31	-44.3	-47.0	17.3	0.00e+00	0	39	0	338690048	59	5135
2026-01-17 09:12:47.96	117.54	26.43	-44.4	-47.1	17.2	0.00e+00	0	39	0	340787200	59	5164
2026-01-17 09:12:49.09	117.34	26.59	-44.3	-46.9	17.4	0.00e+00	0	39	0	342884352	59	5059
2026-01-17 09:12:49.95	117.19	26.71	-44.3	-46.9	17.4	0.00e+00	0	39	0	343932928	59	5070
2026-01-17 09:12:51.08	116.99	26.87	-44.3	-46.9	17.4	0.00e+00	0	39	0	346030080	59	5087
2026-01-17 09:12:52.25	116.78	27.04	-44.4	-47.0	17.3	0.00e+00	0	39	0	348127232	59	5138
2026-01-17 09:12:53.10	116.63	27.16	-44.3	-47.0	17.3	0.00e+00	0	39	0	350224384	59	5117
2026-01-17 09:12:54.24	116.42	27.32	-44.3	-47.0	17.2	0.00e+00	0	39	0	352321536	59	5121
2026-01-17 09:12:55.10	116.26	27.44	-44.6	-47.3	17.0	0.00e+00	0	39	0	353370112	59	5319
2026-01-17 09:12:56.24	116.05	27.60	-44.7	-47.5	16.9	0.00e+00	0	39	0	355467264	60	5144
2026-01-17 09:12:57.40	115.83	27.77	-44.7	-47.5	16.9	0.00e+00	0	39	0	358612992	60	5121
2026-01-17 09:12:58.26	115.67	27.89	-44.8	-47.6	16.7	0.00e+00	0	39	0	359661568	60	5199
2026-01-17 09:12:59.40	115.46	28.06	-44.7	-47.6	16.7	0.00e+00	0	39	0	361758720	60	5193
2026-01-17 09:13:00.25	115.29	28.18	-44.9	-47.8	16.5	0.00e+00	0	39	0	363855872	60	5322
2026-01-17 09:13:01.39	115.07	28.35	-45.0	-48.0	16.4	0.00e+00	0	39	0	365953024	60	5440
2026-01-17 09:13:02.24	114.90	28.47	-45.1	-48.1	16.3	0.00e+00	0	39	0	367001600	60	5468
2026-01-17 09:13:03.38	114.68	28.64	-45.0	-48.0	16.3	0.00e+00	0	39	0	369098752	60	5447
2026-01-17 09:13:04.23	114.51	28.76	-45.2	-48.2	16.2	0.00e+00	0	39	0	371195904	60	5573
2026-01-17 09:13:05.37	114.28	28.93	-45.2	-48.3	16.1	0.00e+00	0	39	0	373293056	61	5297
2026-01-17 09:13:06.22	114.11	29.05	-45.4	-48.6	15.8	0.00e+00	0	39	0	374341632	61	5499
2026-01-17 09:13:07.35	113.88	29.22	-45.8	-49.2	15.2	0.00e+00	0	39	0	376438784	62	5571
2026-01-17 09:13:08.21	113.70	29.35	-45.8	-49.2	15.2	7.00e-07	0	39	0	378535936	62	5556
2026-01-17 09:13:09.50	113.43	29.54	-46.0	-49.4	15.0	0.00e+00	0	39	0	380633088	62	5712
2026-01-17 09:13:10.21	113.28	29.64	-46.2	-49.8	14.6	0.00e+00	0	39	0	381681664	63	5627
2026-01-17 09:13:11.49	113.01	29.83	-46.4	-50.1	14.4	0.00e+00	0	39	0	384827392	63	5794
2026-01-17 09:13:12.20	112.85	29.94	-46.6	-50.4	13.9	3.00e-06	0	39	0	385875968	63	6061
2026-01-17 09:13:13.75	112.52	30.17	-46.7	-50.8	13.5	4.50e-06	0	39	0	389021696	64	5962
2026-01-17 09:13:14.46	112.36	30.28	-46.6	-50.6	13.8	7.60e-06	0	39	0	390070272	64	5789
2026-01-17 09:13:15.74	112.08	30.47	-46.5	-50.4	13.9	7.60e-06	0	39	0	392167424	64	5689
2026-01-17 09:13:16.45	111.92	30.57	-46.5	-50.5	13.9	3.00e-06	0	39	0	393216000	64	5753
2026-01-17 09:13:17.72	111.63	30.76	-46.8	-50.9	13.4	6.10e-06	0	39	0	396361728	64	6030
2026-01-17 09:13:18.44	111.47	30.87	-46.7	-50.7	13.6	1.22e-05	0	39	0	397410304	64	5895
2026-01-17 09:13:19.72	111.18	31.07	-46.6	-50.5	13.9	5.30e-06	0	39	0	399507456	64	5728
2026-01-17 09:13:20.44	111.01	31.18	-46.5	-50.1	14.2	7.00e-07	0	39	0	401604608	64	5509
2026-01-17 09:13:21.72	110.71	31.37	-46.4	-50.1	14.3	7.00e-07	0	39	0	403701760	64	5467
2026-01-17 09:13:22.43	110.54	31.48	-46.5	-50.3	14.1	1.50e-06	0	39	0	404750336	64	5606
2026-01-17 09:13:23.71	110.24	31.67	-46.5	-50.2	14.2	3.80e-06	0	39	0	407896064	64	5529
2026-01-17 09:13:24.42	110.06	31.78	-46.5	-50.2	14.1	7.00e-07	0	39	0	408944640	64	5583
2026-01-17 09:13:25.71	109.75	31.98	-46.4	-50.1	14.2	7.00e-07	0	39	0	411041792	64	5527
2026-01-17 09:13:26.42	109.58	32.09	-46.4	-50.0	14.3	7.00e-07	0	39	0	412090368	64	5429
2026-01-17 09:13:27.69	109.26	32.28	-46.4	-50.2	14.2	1.50e-06	0	39	0	415236096	64	5566
2026-01-17 09:13:28.42	109.08	32.39	-46.4	-50.2	14.1	1.50e-06	0	39	0	416284672	64	5563
2026-01-17 09:13:29.70	108.76	32.59	-46.3	-49.9	14.4	7.00e-07	0	39	0	418381824	64	5387
2026-01-17 09:13:30.65	108.51	32.73	-46.4	-50.0	14.3	2.20e-06	0	39	0	420478976	64	5455
2026-01-17 09:13:31.96	108.17	32.93	-46.6	-50.4	13.9	4.50e-06	0	39	0	422576128	64	5712
2026-01-17 09:13:32.67	107.99	33.04	-46.6	-50.4	13.9	6.10e-06	0	39	0	424673280	64	5676
2026-01-17 09:13:33.95	107.65	33.24	-46.4	-50.2	14.1	0.00e+00	0	39	0	426770432	64	5567
2026-01-17 09:13:34.66	107.46	33.35	-46.2	-49.8	14.5	3.00e-06	0	39	0	427819008	64	5302
2026-01-17 09:13:35.94	107.12	33.55	-46.2	-49.7	14.6	0.00e+00	0	39	0	429916160	64	5249
2026-01-17 09:13:36.65	106.93	33.65	-46.2	-49.8	14.5	7.00e-07	0	39	0	432013312	64	5303
2026-01-17 09:13:37.93	106.58	33.85	-46.0	-49.4	15.0	0.00e+00	0	39	0	434110464	63	5370
2026-01-17 09:13:38.64	106.38	33.96	-46.0	-49.4	15.1	0.00e+00	0	39	0	435159040	63	5355
2026-01-17 09:13:39.92	106.03	34.16	-45.7	-48.8	15.6	0.00e+00	0	39	0	437256192	63	5028
2026-01-17 09:13:40.63	105.83	34.27	-45.5	-48.6	15.9	0.00e+00	0	39	0	439353344	62	5179
2026-01-17 09:13:41.91	105.47	34.46	-45.3	-48.3	16.1	0.00e+00	0	39	0	441450496	62	5028
2026-01-17 09:13:42.62	105.26	34.57	-45.3	-48.3	16.1	0.00e+00	0	39	0	442499072	62	5003
2026-01-17 09:13:44.12	104.83	34.80	-45.2	-48.2	16.2	0.00e+00	0	39	0	445644800	62	4966
2026-01-17 09:13:44.83	104.62	34.91	-45.2	-48.1	16.3	0.00e+00	0	39	0	446693376	62	4881
2026-01-17 09:13:46.11	104.24	35.11	-45.1	-48.0	16.5	0.00e+00	0	39	0	449839104	62	4834
2026-01-17 09:13:47.18	103.92	35.27	-44.9	-47.7	16.7	0.00e+00	0	39	0	450887680	61	4982
2026-01-17 09:13:48.32	103.58	35.45	-44.8	-47.6	16.7	0.00e+00	0	39	0	454033408	61	4922
2026-01-17 09:13:49.35	103.27	35.61	-44.6	-47.3	17.0	0.00e+00	0	39	0	455081984	61	4756
2026-01-17 09:13:50.34	102.96	35.76	-44.6	-47.3	17.0	0.00e+00	0	39	0	457179136	61	4755
2026-01-17 09:13:51.34	102.65	35.91	-44.7	-47.5	17.0	0.00e+00	0	39	0	459276288	61	4822
2026-01-17 09:13:52.33	102.34	36.06	-44.7	-47.5	16.9	0.00e+00	0	39	0	461373440	61	4842
2026-01-17 09:13:53.33	102.02	36.21	-44.8	-47.7	16.7	0.00e+00	0	39	0	462422016	61	4960
2026-01-17 09:13:54.32	101.71	36.36	-44.9	-47.9	16.5	0.00e+00	0	39	0	464519168	61	5054
2026-01-17 09:13:55.32	101.39	36.51	-45.0	-47.9	16.5	0.00e+00	0	39	0	466616320	61	5083
2026-01-17 09:13:56.32	101.06	36.66	-44.9	-47.8	16.6	0.00e+00	0	39	0	468713472	61	5004
2026-01-17 09:13:57.31	100.74	36.81	-44.9	-47.8	16.6	0.00e+00	0	39	0	470810624	61	4990
2026-01-17 09:13:58.31	100.41	36.96	-45.0	-47.9	16.5	0.00e+00	0	39	0	471859200	61	5054
2026-01-17 09:13:59.30	100.07	37.11	-45.1	-48.1	16.4	0.00e+00	0	39	0	473956352	61	5169
2026-01-17 09:14:00.30	99.74	37.26	-45.2	-48.3	16.1	0.00e+00	0	39	0	476053504	61	5307
2026-01-17 09:14:01.29	99.40	37.41	-45.3	-48.3	16.1	0.00e+00	0	39	0	478150656	61	5325
2026-01-17 09:14:02.29	99.06	37.56	-45.3	-48.4	16.0	0.00e+00	0	39	0	479199232	61	5355
2026-01-17 09:14:03.36	98.68	37.72	-45.3	-48.3	16.1	0.00e+00	0	39	0	481296384	61	5300
2026-01-17 09:14:04.22	98.38	37.84	-45.2	-48.1	16.3	0.00e+00	0	39	0	483393536	61	5205
2026-01-17 09:14:05.57	97.91	38.04	-45.0	-47.9	16.5	0.00e+00	0	39	0	485490688	61	5071
2026-01-17 09:14:06.28	97.65	38.15	-45.1	-48.0	16.4	0.00e+00	0	39	0	487587840	61	5137
2026-01-17 09:14:07.57	97.19	38.33	-45.1	-48.1	16.3	0.00e+00	0	39	0	489684992	61	5187
2026-01-17 09:14:08.28	96.93	38.44	-45.2	-48.3	16.2	0.00e+00	0	39	0	490733568	61	5296
2026-01-17 09:14:09.56	96.46	38.62	-45.5	-48.7	15.8	0.00e+00	0	39	0	493879296	61	5539
2026-01-17 09:14:10.27	96.20	38.72	-45.6	-48.7	15.7	0.00e+00	0	39	0	494927872	61	5562
2026-01-17 09:14:11.54	95.73	38.90	-45.5	-48.6	15.8	0.00e+00	0	39	0	497025024	62	5212
2026-01-17 09:14:12.25	95.46	39.00	-45.3	-48.3	16.0	0.00e+00	0	39	0	498073600	62	5033
2026-01-17 09:14:13.53	94.97	39.18	-45.4	-48.5	16.0	0.00e+00	0	39	0	501219328	62	5134
2026-01-17 09:14:14.26	94.69	39.29	-45.2	-48.3	16.2	0.00e+00	0	39	0	502267904	62	4989
2026-01-17 09:14:15.53	94.20	39.46	-45.2	-48.1	16.4	0.00e+00	0	39	0	504365056	62	4920
2026-01-17 09:14:16.24	93.93	39.56	-45.1	-48.1	16.4	0.00e+00	0	39	0	505413632	62	4876
2026-01-17 09:14:17.52	93.42	39.74	-44.8	-47.7	16.8	0.00e+00	0	39	0	508559360	61	4929
2026-01-17 09:14:18.25	93.13	39.84	-44.7	-47.5	16.9	0.00e+00	0	39	0	509607936	61	4842
2026-01-17 09:14:19.61	92.59	40.02	-44.6	-47.4	17.0	0.00e+00	0	39	0	511705088	60	5073
2026-01-17 09:14:20.32	92.31	40.11	-44.4	-47.1	17.3	0.00e+00	0	39	0	513802240	60	4903
2026-01-17 09:14:21.66	91.76	40.29	-44.2	-46.9	17.6	0.00e+00	0	39	0	515899392	60	4768
2026-01-17 09:14:22.37	91.47	40.39	-44.2	-46.9	17.6	0.00e+00	0	39	0	516947968	60	4760
2026-01-17 09:14:23.72	90.91	40.56	-44.0	-46.5	17.8	0.00e+00	0	39	0	520093696	59	4870
2026-01-17 09:14:24.43	90.62	40.65	-43.9	-46.4	17.9	0.00e+00	0	39	0	521142272	59	4803
2026-01-17 09:14:25.78	90.05	40.83	-43.7	-46.2	18.1	0.00e+00	0	39	0	523239424	59	4682
2026-01-17 09:14:26.49	89.75	40.92	-43.6	-46.1	18.2	0.00e+00	0	39	0	525336576	59	4630
2026-01-17 09:14:27.86	89.16	41.09	-43.6	-46.1	18.2	0.00e+00	0	39	0	527433728	59	4626
2026-01-17 09:14:28.57	88.86	41.18	-43.7	-46.2	18.2	0.00e+00	0	39	0	528482304	59	4687
2026-01-17 09:14:29.85	88.30	41.33	-43.7	-46.2	18.1	0.00e+00	0	39	0	531628032	59	4705
2026-01-17 09:14:30.56	87.99	41.42	-43.5	-46.0	18.3	0.00e+00	0	39	0	532676608	59	4562
2026-01-17 09:14:31.84	87.43	41.57	-43.4	-45.9	18.4	0.00e+00	0	39	0	534773760	58	4790
2026-01-17 09:14:32.60	87.09	41.66	-43.6	-46.1	18.2	0.00e+00	0	39	0	536870912	58	4917
2026-01-17 09:14:33.88	86.52	41.81	-44.0	-46.6	17.8	0.00e+00	0	39	0	538968064	58	5205
2026-01-17 09:14:34.59	86.20	41.89	-44.1	-46.8	17.6	0.00e+00	0	39	0	540016640	58	5285
2026-01-17 09:14:35.87	85.62	42.03	-44.4	-47.1	17.2	0.00e+00	0	39	0	543162368	59	5197
2026-01-17 09:14:36.60	85.29	42.11	-44.5	-47.3	17.1	0.00e+00	0	39	0	544210944	59	5296
2026-01-17 09:14:38.22	84.54	42.29	-44.4	-47.2	17.2	0.00e+00	0	39	0	547356672	59	5254
2026-01-17 09:14:38.79	84.28	42.35	-44.5	-47.3	17.1	0.00e+00	0	39	0	548405248	59	5312
2026-01-17 09:14:40.50	83.48	42.53	-44.2	-46.9	17.5	0.00e+00	0	39	0	551550976	59	5090
2026-01-17 09:14:41.07	83.21	42.59	-44.2	-46.9	17.5	0.00e+00	0	39	0	552599552	59	5063
2026-01-17 09:14:42.77	82.41	42.76	-44.1	-46.7	17.7	0.00e+00	0	39	0	555745280	59	4955
2026-01-17 09:14:43.34	82.14	42.82	-43.9	-46.5	17.8	0.00e+00	0	39	0	556793856	59	4835
2026-01-17 09:14:45.05	81.31	42.98	-44.1	-46.8	17.6	0.00e+00	0	39	0	559939584	59	4999
2026-01-17 09:14:45.61	81.04	43.03	-44.3	-47.0	17.4	0.00e+00	0	39	0	560988160	59	5146
2026-01-17 09:14:47.31	80.22	43.19	-44.2	-46.8	17.5	0.00e+00	0	39	0	564133888	59	5036
2026-01-17 09:14:47.87	79.94	43.24	-44.2	-46.8	17.6	0.00e+00	0	39	0	565182464	59	5020
2026-01-17 09:14:49.58	79.10	43.39	-44.2	-46.7	17.6	0.00e+00	0	39	0	568328192	59	4982
2026-01-17 09:14:50.15	78.82	43.44	-44.0	-46.6	17.8	0.00e+00	0	39	0	569376768	59	4883
2026-01-17 09:14:52.08	77.85	43.59	-43.6	-46.0	18.3	0.00e+00	0	39	0	573571072	59	4556
2026-01-17 09:14:52.64	77.57	43.64	-43.5	-45.9	18.4	0.00e+00	0	39	0	573571072	59	4531
2026-01-17 09:14:54.65	76.56	43.79	-43.6	-46.0	18.4	0.00e+00	0	39	0	577765376	59	4559
2026-01-17 09:14:55.55	76.10	43.85	-43.7	-46.2	18.2	0.00e+00	0	39	0	579862528	59	4665
2026-01-17 09:14:56.60	75.56	43.93	-43.9	-46.4	18.0	0.00e+00	0	39	0	581959680	59	4770
2026-01-17 09:14:57.87	74.91	44.01	-44.2	-46.8	17.6	0.00e+00	0	39	0	584056832	59	5026
2026-01-17 09:14:58.69	74.49	44.06	-44.3	-46.9	17.5	0.00e+00	0	39	0	585105408	59	5083
2026-01-17 09:14:59.82	73.90	44.13	-44.2	-46.9	17.6	0.00e+00	0	39	0	587202560	59	5046
2026-01-17 09:15:00.68	73.45	44.19	-44.2	-46.8	17.6	0.00e+00	0	39	0	589299712	59	5022
2026-01-17 09:15:01.81	72.87	44.25	-44.3	-47.0	17.4	0.00e+00	0	39	0	591396864	59	5106
2026-01-17 09:15:02.67	72.42	44.30	-44.4	-47.0	17.4	0.00e+00	0	39	0	592445440	59	5128
2026-01-17 09:15:03.80	71.82	44.35	-44.5	-47.2	17.3	0.00e+00	0	39	0	595591168	59	5227
2026-01-17 09:15:04.65	71.37	44.40	-44.5	-47.2	17.2	0.00e+00	0	39	0	596639744	59	5234
2026-01-17 09:15:05.79	70.77	44.45	-44.5	-47.1	17.2	0.00e+00	0	39	0	598736896	59	5209
2026-01-17 09:15:06.64	70.32	44.49	-44.7	-47.5	17.0	0.00e+00	0	39	0	600834048	60	5122
2026-01-17 09:15:07.92	69.64	44.54	-44.9	-47.8	16.7	0.00e+00	0	39	0	602931200	60	5284
2026-01-17 09:15:08.65	69.25	44.57	-44.8	-47.6	16.8	0.00e+00	0	39	0	603979776	60	5210
2026-01-17 09:15:09.92	68.58	44.61	-44.7	-47.5	17.0	0.00e+00	0	39	0	606076928	60	5123
2026-01-17 09:15:10.63	68.20	44.63	-44.9	-47.7	16.8	0.00e+00	0	39	0	608174080	60	5229
2026-01-17 09:15:11.91	67.51	44.67	-44.8	-47.6	16.9	0.00e+00	0	39	0	610271232	60	5191
2026-01-17 09:15:12.64	67.12	44.69	-44.8	-47.5	16.9	0.00e+00	0	39	0	611319808	60	5144
2026-01-17 09:15:14.22	66.27	44.73	-44.7	-47.4	17.1	0.00e+00	0	39	0	614465536	60	5077
2026-01-17 09:15:14.85	65.93	44.74	-44.9	-47.7	16.8	0.00e+00	0	39	0	615514112	60	5231
2026-01-17 09:15:16.33	65.13	44.77	-45.0	-47.9	16.5	0.00e+00	0	39	0	618659840	60	5391
2026-01-17 09:15:17.04	64.75	44.78	-45.0	-47.9	16.6	0.00e+00	0	39	0	619708416	60	5388
2026-01-17 09:15:18.32	64.06	44.80	-45.2	-48.1	16.4	0.00e+00	0	39	0	621805568	60	5486
2026-01-17 09:15:19.04	63.67	44.80	-45.1	-48.0	16.5	0.00e+00	0	39	0	623902720	60	5454
2026-01-17 09:15:20.31	62.98	44.81	-45.2	-48.1	16.4	0.00e+00	0	39	0	625999872	61	5213
2026-01-17 09:15:21.02	62.60	44.81	-45.4	-48.4	16.1	0.00e+00	0	39	0	627048448	61	5396
2026-01-17 09:15:22.30	61.90	44.81	-45.5	-48.5	16.0	0.00e+00	0	39	0	630194176	61	5460
2026-01-17 09:15:23.01	61.52	44.81	-45.6	-48.7	15.8	0.00e+00	0	39	0	631242752	61	5574
2026-01-17 09:15:24.29	60.83	44.80	-45.6	-48.7	15.8	0.00e+00	0	39	0	633339904	62	5252
2026-01-17 09:15:25.00	60.44	44.80	-45.7	-48.8	15.7	0.00e+00	0	39	0	634388480	62	5317
2026-01-17 09:15:26.28	59.75	44.79	-45.9	-49.2	15.4	7.00e-07	0	39	0	637534208	62	5556
2026-01-17 09:15:27.07	59.33	44.77	-45.9	-49.1	15.4	0.00e+00	0	39	0	638582784	62	5490
2026-01-17 09:15:28.55	58.53	44.75	-45.9	-49.2	15.3	0.00e+00	0	39	0	641728512	62	5534
2026-01-17 09:15:29.26	58.14	44.74	-46.1	-49.4	15.2	0.00e+00	0	39	0	642777088	62	5683
2026-01-17 09:15:30.54	57.46	44.71	-46.0	-49.3	15.2	0.00e+00	0	39	0	644874240	63	5326
2026-01-17 09:15:31.25	57.08	44.69	-45.9	-49.1	15.4	0.00e+00	0	39	0	646971392	63	5210
2026-01-17 09:15:32.53	56.39	44.65	-45.9	-49.2	15.4	0.00e+00	0	39	0	649068544	63	5222
2026-01-17 09:15:33.26	56.00	44.63	-46.1	-49.5	15.0	0.00e+00	0	39	0	650117120	63	5451
2026-01-17 09:15:34.54	55.31	44.59	-46.4	-50.0	14.5	1.50e-06	0	39	0	652214272	63	5784
2026-01-17 09:15:35.31	54.90	44.56	-46.3	-49.9	14.6	2.20e-06	0	39	0	654311424	63	5673
2026-01-17 09:15:36.59	54.22	44.51	-46.1	-49.5	15.1	7.00e-07	0	39	0	656408576	63	5422
2026-01-17 09:15:37.30	53.85	44.48	-46.2	-49.5	15.0	0.00e+00	0	39	0	657457152	63	5439
2026-01-17 09:15:38.58	53.17	44.42	-46.3	-49.7	14.8	0.00e+00	0	39	0	660602880	63	5585
2026-01-17 09:15:39.31	52.79	44.39	-46.5	-50.0	14.5	7.00e-07	0	39	0	661651456	63	5779
2026-01-17 09:15:40.59	52.11	44.32	-46.7	-50.5	13.9	0.00e+00	0	39	0	663748608	64	5764
2026-01-17 09:15:41.31	51.74	44.28	-46.7	-50.5	14.0	3.80e-06	0	39	0	665845760	64	5747
2026-01-17 09:15:42.59	51.07	44.21	-46.1	-49.5	14.9	0.00e+00	0	39	0	667942912	64	5149
2026-01-17 09:15:43.30	50.70	44.17	-46.0	-49.3	15.2	0.00e+00	0	39	0	668991488	63	5331
2026-01-17 09:15:44.64	50.01	44.09	-45.9	-49.2	15.4	0.00e+00	0	39	0	671088640	63	5252
2026-01-17 09:15:45.62	49.50	44.03	-45.9	-49.1	15.5	0.00e+00	0	39	0	673185792	63	5179
2026-01-17 09:15:46.92	48.83	43.94	-45.8	-49.0	15.5	0.00e+00	0	39	0	676331520	63	5148
2026-01-17 09:15:47.71	48.43	43.89	-45.5	-48.5	16.0	0.00e+00	0	39	0	677380096	63	4848
2026-01-17 09:15:48.89	47.83	43.81	-45.3	-48.3	16.2	0.00e+00	0	39	0	679477248	62	4986
2026-01-17 09:15:49.75	47.39	43.74	-44.9	-47.8	16.7	0.00e+00	0	39	0	681574400	61	4993
2026-01-17 09:15:50.88	46.82	43.66	-44.9	-47.8	16.8	0.00e+00	0	39	0	683671552	61	5003
2026-01-17 09:15:51.73	46.40	43.59	-44.6	-47.4	17.1	0.00e+00	0	39	0	684720128	61	4791
2026-01-17 09:15:52.87	45.83	43.50	-44.3	-47.0	17.5	0.00e+00	0	39	0	686817280	60	4842
2026-01-17 09:15:53.72	45.41	43.43	-44.2	-46.8	17.6	0.00e+00	0	39	0	688914432	60	4737
2026-01-17 09:15:54.86	44.84	43.33	-44.1	-46.7	17.7	0.00e+00	0	39	0	691011584	60	4659
2026-01-17 09:15:55.71	44.43	43.26	-44.0	-46.6	17.9	0.00e+00	0	39	0	692060160	59	4872
2026-01-17 09:15:56.88	43.85	43.15	-44.1	-46.7	17.7	0.00e+00	0	39	0	694157312	59	4948
2026-01-17 09:15:57.73	43.44	43.08	-44.1	-46.7	17.7	0.00e+00	0	39	0	696254464	59	4949
2026-01-17 09:15:58.87	42.89	42.97	-43.8	-46.3	18.1	0.00e+00	0	39	0	698351616	59	4735
2026-01-17 09:15:59.72	42.48	42.89	-43.7	-46.2	18.2	0.00e+00	0	39	0	699400192	59	4652
2026-01-17 09:16:00.86	41.94	42.78	-43.5	-45.9	18.4	0.00e+00	0	39	0	702545920	59	4532
2026-01-17 09:16:01.71	41.54	42.69	-43.3	-45.7	18.7	0.00e+00	0	39	0	703594496	58	4665
2026-01-17 09:16:02.85	41.00	42.58	-43.3	-45.7	18.6	0.00e+00	0	39	0	705691648	58	4690
2026-01-17 09:16:03.70	40.60	42.49	-42.9	-45.1	19.2	0.00e+00	0	39	0	707788800	57	4646
2026-01-17 09:16:04.84	40.07	42.37	-42.7	-44.9	19.4	0.00e+00	0	39	0	709885952	57	4506
2026-01-17 09:16:05.70	39.67	42.28	-42.6	-44.8	19.5	0.00e+00	0	39	0	710934528	57	4459
2026-01-17 09:16:06.83	39.15	42.16	-42.6	-44.8	19.5	0.00e+00	0	39	0	713031680	57	4477
2026-01-17 09:16:07.69	38.76	42.06	-42.5	-44.7	19.6	0.00e+00	0	39	0	715128832	56	4673
2026-01-17 09:16:08.82	38.25	41.94	-42.1	-44.3	20.0	0.00e+00	0	39	0	717225984	56	4455
2026-01-17 09:16:09.67	37.87	41.84	-41.6	-43.7	20.3	0.00e+00	0	39	0	718274560	55	4433
2026-01-17 09:16:10.81	37.36	41.71	-41.7	-43.8	20.3	0.00e+00	0	39	0	720371712	55	4445
2026-01-17 09:16:11.66	36.98	41.61	-41.7	-43.8	20.2	0.00e+00	0	39	0	722468864	55	4464
2026-01-17 09:16:12.90	36.43	41.46	-41.9	-44.0	20.1	0.00e+00	0	39	0	724566016	55	4583
2026-01-17 09:16:13.75	36.06	41.36	-41.9	-44.0	20.1	0.00e+00	0	39	0	726663168	55	4576
2026-01-17 09:16:14.93	35.55	41.22	-41.9	-44.0	20.1	0.00e+00	0	39	0	728760320	55	4573
2026-01-17 09:16:15.78	35.19	41.11	-41.9	-44.1	20.0	0.00e+00	0	39	0	729808896	55	4611
2026-01-17 09:16:17.00	34.67	40.96	-41.9	-44.1	20.0	0.00e+00	0	39	0	731906048	55	4606
2026-01-17 09:16:17.85	34.31	40.85	-41.7	-43.9	20.2	0.00e+00	0	39	0	734003200	55	4496
2026-01-17 09:16:19.03	33.81	40.70	-41.8	-43.9	20.2	0.00e+00	0	39	0	736100352	55	4542
2026-01-17 09:16:19.89	33.45	40.59	-41.8	-44.0	20.1	0.00e+00	0	39	0	738197504	55	4552
2026-01-17 09:16:21.12	32.95	40.43	-41.9	-44.1	20.0	0.00e+00	0	39	0	740294656	55	4613
2026-01-17 09:16:21.97	32.60	40.32	-41.8	-44.0	20.1	0.00e+00	0	39	0	741343232	55	4568
2026-01-17 09:16:23.11	32.14	40.17	-41.9	-44.1	20.0	0.00e+00	0	39	0	743440384	55	4621
2026-01-17 09:16:23.96	31.79	40.06	-41.9	-44.1	20.0	0.00e+00	0	39	0	745537536	55	4615
2026-01-17 09:16:25.10	31.34	39.90	-41.8	-43.9	20.1	0.00e+00	0	39	0	747634688	55	4514
2026-01-17 09:16:25.95	31.00	39.79	-41.6	-43.8	20.3	0.00e+00	0	39	0	748683264	55	4442
2026-01-17 09:16:27.09	30.55	39.63	-41.9	-44.0	20.0	0.00e+00	0	39	0	750780416	55	4585
2026-01-17 09:16:27.94	30.22	39.52	-42.0	-44.2	19.9	0.00e+00	0	39	0	752877568	55	4694
2026-01-17 09:16:29.07	29.79	39.36	-42.4	-44.6	19.5	0.00e+00	0	39	0	754974720	55	4903
2026-01-17 09:16:30.13	29.38	39.21	-42.4	-44.5	19.6	0.00e+00	0	39	0	757071872	55	4868
2026-01-17 09:16:31.00	29.05	39.09	-42.4	-44.6	19.6	0.00e+00	0	39	0	758120448	55	4877
2026-01-17 09:16:32.14	28.62	38.93	-42.2	-44.4	19.7	0.00e+00	0	39	0	760217600	55	4787
2026-01-17 09:16:32.99	28.31	38.81	-42.3	-44.5	19.7	0.00e+00	0	39	0	762314752	55	4818
2026-01-17 09:16:34.13	27.88	38.65	-42.2	-44.3	19.7	0.00e+00	0	39	0	764411904	55	4752
2026-01-17 09:16:34.98	27.57	38.53	-42.4	-44.6	19.6	0.00e+00	0	39	0	766509056	55	4876
2026-01-17 09:16:36.11	27.16	38.36	-42.5	-44.7	19.4	0.00e+00	0	39	0	768606208	55	4957
2026-01-17 09:16:36.97	26.85	38.24	-42.8	-45.1	19.2	0.00e+00	0	39	0	769654784	56	4894
2026-01-17 09:16:38.14	26.44	38.07	-43.0	-45.4	19.0	0.00e+00	0	39	0	771751936	56	5065
2026-01-17 09:16:38.99	26.14	37.95	-43.2	-45.6	18.8	0.00e+00	0	39	0	773849088	57	4896
2026-01-17 09:16:40.12	25.74	37.78	-43.3	-45.7	18.7	0.00e+00	0	39	0	775946240	57	4969
2026-01-17 09:16:40.98	25.44	37.65	-43.4	-45.8	18.5	0.00e+00	0	39	0	776994816	57	5017
2026-01-17 09:16:42.11	25.05	37.49	-43.3	-45.7	18.6	0.00e+00	0	39	0	779091968	57	4967
2026-01-17 09:16:42.98	24.76	37.36	-43.3	-45.8	18.6	0.00e+00	0	39	0	781189120	57	5005
2026-01-17 09:16:44.12	24.37	37.19	-43.1	-45.5	18.9	0.00e+00	0	39	0	783286272	57	4837
2026-01-17 09:16:44.97	24.09	37.06	-43.1	-45.5	18.8	0.00e+00	0	39	0	784334848	57	4844
2026-01-17 09:16:46.11	23.71	36.89	-43.1	-45.5	18.8	0.00e+00	0	39	0	786432000	57	4861
2026-01-17 09:16:46.96	23.43	36.76	-43.4	-45.8	18.5	0.00e+00	0	39	0	788529152	57	5015
2026-01-17 09:16:48.10	23.06	36.59	-43.6	-46.1	18.2	0.00e+00	0	39	0	790626304	57	5210
2026-01-17 09:16:48.95	22.79	36.46	-43.8	-46.3	18.1	0.00e+00	0	39	0	791674880	58	5023
2026-01-17 09:16:50.09	22.42	36.29	-44.0	-46.6	17.8	0.00e+00	0	39	0	794820608	58	5162
2026-01-17 09:16:50.94	22.15	36.16	-44.1	-46.7	17.7	0.00e+00	0	39	0	795869184	58	5232
2026-01-17 09:16:52.07	21.80	35.99	-44.2	-46.9	17.5	0.00e+00	0	39	0	797966336	59	5075
2026-01-17 09:16:53.32	21.41	35.80	-44.3	-47.0	17.4	0.00e+00	0	39	0	800063488	59	5112
2026-01-17 09:16:54.17	21.15	35.67	-44.3	-47.0	17.4	0.00e+00	0	39	0	802160640	59	5146
2026-01-17 09:16:55.31	20.80	35.50	-44.5	-47.3	17.1	0.00e+00	0	39	0	804257792	59	5321
2026-01-17 09:16:56.16	20.55	35.37	-44.8	-47.7	16.8	0.00e+00	0	39	0	805306368	60	5264
2026-01-17 09:16:57.30	20.21	35.20	-44.9	-48.0	16.5	0.00e+00	0	39	0	807403520	60	5407
2026-01-17 09:16:58.15	19.96	35.07	-45.2	-48.2	16.2	0.00e+00	0	39	0	809500672	60	5584
2026-01-17 09:16:59.29	19.62	34.89	-45.1	-48.2	16.3	0.00e+00	0	39	0	811597824	61	5221
2026-01-17 09:17:00.15	19.37	34.76	-45.4	-48.5	15.9	0.00e+00	0	39	0	812646400	61	5457
2026-01-17 09:17:01.29	19.05	34.59	-45.6	-48.8	15.7	0.00e+00	0	39	0	815792128	61	5646
2026-01-17 09:17:02.14	18.80	34.46	-45.6	-48.9	15.6	0.00e+00	0	39	0	816840704	62	5347
2026-01-17 09:17:03.27	18.48	34.28	-45.7	-49.0	15.4	0.00e+00	0	39	0	818937856	62	5433
2026-01-17 09:17:04.13	18.24	34.15	-45.9	-49.3	15.3	0.00e+00	0	39	0	821035008	62	5596
2026-01-17 09:17:05.27	17.93	33.98	-46.1	-49.5	15.0	0.00e+00	0	39	0	823132160	62	5786
2026-01-17 09:17:06.18	17.68	33.84	-46.1	-49.7	14.9	0.00e+00	0	39	0	824180736	63	5545
2026-01-17 09:17:07.38	17.35	33.65	-46.2	-49.7	14.8	0.00e+00	0	39	0	826277888	63	5582
2026-01-17 09:17:08.24	17.12	33.52	-46.3	-49.9	14.7	0.00e+00	0	39	0	828375040	63	5658
2026-01-17 09:17:09.37	16.82	33.35	-46.5	-50.2	14.3	1.50e-06	0	39	0	830472192	63	5911
2026-01-17 09:17:10.22	16.60	33.22	-46.7	-50.5	14.0	2.20e-06	0	39	0	832569344	63	6079
2026-01-17 09:17:11.36	16.30	33.05	-46.7	-50.6	13.8	3.00e-06	0	39	0	834666496	64	5855
2026-01-17 09:17:12.22	16.08	32.91	-46.7	-50.6	13.8	7.60e-06	0	39	0	835715072	64	5820
2026-01-17 09:17:13.35	15.79	32.74	-46.6	-50.3	14.1	1.50e-06	0	39	0	837812224	64	5643
2026-01-17 09:17:14.21	15.57	32.61	-46.5	-50.3	14.1	7.00e-07	0	39	0	839909376	64	5611
2026-01-17 09:17:15.34	15.29	32.44	-46.2	-49.8	14.6	0.00e+00	0	39	0	842006528	64	5304
2026-01-17 09:17:16.20	15.07	32.31	-46.0	-49.5	14.9	7.00e-07	0	39	0	843055104	64	5157
2026-01-17 09:17:17.33	14.79	32.14	-46.1	-49.7	14.7	7.00e-07	0	39	0	845152256	64	5262
2026-01-17 09:17:18.18	14.59	32.01	-46.3	-49.9	14.4	0.00e+00	0	39	0	847249408	64	5383
2026-01-17 09:17:19.32	14.31	31.83	-46.1	-49.7	14.7	0.00e+00	0	39	0	849346560	64	5241
2026-01-17 09:17:20.17	14.11	31.70	-46.2	-49.9	14.5	7.00e-07	0	39	0	850395136	64	5351
2026-01-17 09:17:21.31	13.84	31.53	-46.1	-49.7	14.8	0.00e+00	0	39	0	852492288	63	5534
2026-01-17 09:17:22.16	13.64	31.40	-46.1	-49.7	14.8	0.00e+00	0	39	0	854589440	63	5529
2026-01-17 09:17:23.43	13.34	31.21	-45.8	-49.3	15.2	0.00e+00	0	39	0	856686592	63	5304
2026-01-17 09:17:24.21	13.16	31.09	-45.8	-49.2	15.2	0.00e+00	0	39	0	858783744	63	5275
2026-01-17 09:17:25.56	12.85	30.89	-45.7	-49.2	15.3	0.00e+00	0	39	0	860880896	63	5234
2026-01-17 09:17:26.27	12.69	30.78	-45.8	-49.1	15.3	0.00e+00	0	39	0	861929472	63	5213
2026-01-17 09:17:27.55	12.40	30.59	-45.6	-48.8	15.7	0.00e+00	0	39	0	864026624	63	5006
2026-01-17 09:17:28.26	12.25	30.49	-45.6	-48.8	15.7	0.00e+00	0	39	0	866123776	62	5300
2026-01-17 09:17:29.72	11.93	30.27	-45.3	-48.3	16.2	0.00e+00	0	39	0	868220928	62	5011
2026-01-17 09:17:30.43	11.77	30.16	-45.1	-48.1	16.3	0.00e+00	0	39	0	870318080	62	4904
2026-01-17 09:17:31.71	11.50	29.97	-45.3	-48.3	16.2	0.00e+00	0	39	0	872415232	62	5026
2026-01-17 09:17:32.43	11.34	29.87	-45.4	-48.4	16.0	0.00e+00	0	39	0	873463808	62	5083
2026-01-17 09:17:33.71	11.07	29.68	-45.5	-48.7	15.8	0.00e+00	0	39	0	876609536	62	5225
2026-01-17 09:17:34.42	10.92	29.57	-45.6	-48.8	15.7	0.00e+00	0	39	0	877658112	62	5294
2026-01-17 09:17:35.69	10.66	29.39	-45.6	-48.8	15.6	0.00e+00	0	39	0	879755264	62	5340
2026-01-17 09:17:36.41	10.51	29.28	-45.5	-48.9	15.6	0.00e+00	0	39	0	880803840	62	5341
2026-01-17 09:17:37.69	10.25	29.09	-45.4	-48.7	15.7	0.00e+00	0	39	0	883949568	62	5277
2026-01-17 09:17:38.41	10.10	28.99	-45.4	-48.8	15.7	0.00e+00	0	39	0	884998144	62	5296
2026-01-17 09:17:39.69	9.85	28.80	-45.4	-48.7	15.8	0.00e+00	0	39	0	887095296	62	5254
2026-01-17 09:17:40.39	9.71	28.70	-45.4	-48.7	15.8	0.00e+00	0	39	0	889192448	62	5243
2026-01-17 09:17:41.80	9.43	28.49	-45.5	-48.7	15.8	0.00e+00	0	39	0	891289600	62	5258
2026-01-17 09:17:42.56	9.28	28.38	-45.4	-48.5	15.9	0.00e+00	0	39	0	892338176	62	5151
2026-01-17 09:17:43.84	9.04	28.20	-45.5	-48.7	15.8	0.00e+00	0	39	0	895483904	62	5250
2026-01-17 09:17:44.57	8.90	28.10	-45.3	-48.4	16.0	0.00e+00	0	39	0	896532480	62	5094
2026-01-17 09:17:45.85	8.66	27.91	-45.4	-48.6	15.9	0.00e+00	0	39	0	898629632	62	5192
2026-01-17 09:17:46.70	8.50	27.79	-45.4	-48.6	15.8	0.00e+00	0	39	0	900726784	62	5212
2026-01-17 09:17:48.10	8.24	27.59	-45.3	-48.4	16.1	0.00e+00	0	39	0	902823936	62	5069
2026-01-17 09:17:48.82	8.11	27.49	-45.3	-48.4	16.1	0.00e+00	0	39	0	904921088	62	5047
2026-01-17 09:17:50.09	7.87	27.31	-45.2	-48.3	16.2	0.00e+00	0	39	0	907018240	62	5014
2026-01-17 09:17:50.80	7.75	27.21	-45.3	-48.4	16.1	0.00e+00	0	39	0	908066816	62	5064
2026-01-17 09:17:52.08	7.52	27.03	-45.5	-48.6	15.8	0.00e+00	0	39	0	910163968	62	5215
2026-01-17 09:17:52.79	7.39	26.93	-45.5	-48.7	15.8	0.00e+00	0	39	0	912261120	62	5223
2026-01-17 09:17:54.07	7.17	26.75	-45.4	-48.6	15.9	0.00e+00	0	39	0	914358272	62	5179
2026-01-17 09:17:54.91	7.02	26.63	-45.2	-48.3	16.1	0.00e+00	0	39	0	915406848	62	5008
2026-01-17 09:17:56.04	6.83	26.47	-45.1	-48.1	16.3	0.00e+00	0	39	0	918552576	62	4918
2026-01-17 09:17:56.90	6.68	26.35	-45.0	-47.9	16.5	0.00e+00	0	39	0	919601152	62	4787
2026-01-17 09:17:58.03	6.49	26.20	-44.9	-47.8	16.6	0.00e+00	0	39	0	921698304	61	5022
2026-01-17 09:17:58.89	6.34	26.08	-44.9	-47.8	16.6	0.00e+00	0	39	0	923795456	61	5026
2026-01-17 09:18:00.02	6.16	25.92	-44.7	-47.5	16.9	0.00e+00	0	39	0	925892608	61	4846
2026-01-17 09:18:00.88	6.01	25.81	-44.8	-47.6	16.8	0.00e+00	0	39	0	926941184	61	4909
2026-01-17 09:18:02.02	5.83	25.65	-44.7	-47.6	16.8	0.00e+00	0	39	0	929038336	61	4917
2026-01-17 09:18:02.87	5.69	25.54	-44.6	-47.4	16.9	0.00e+00	0	39	0	931135488	61	4808
2026-01-17 09:18:04.00	5.51	25.38	-44.7	-47.6	16.8	0.00e+00	0	39	0	933232640	61	4904
2026-01-17 09:18:04.86	5.37	25.27	-44.7	-47.6	16.8	0.00e+00	0	39	0	934281216	61	4890
2026-01-17 09:18:06.00	5.19	25.11	-44.7	-47.6	16.8	0.00e+00	0	39	0	936378368	61	4914
2026-01-17 09:18:06.85	5.06	25.00	-44.7	-47.6	16.8	0.00e+00	0	39	0	938475520	61	4924
2026-01-17 09:18:07.99	4.88	24.84	-44.8	-47.8	16.6	0.00e+00	0	39	0	940572672	61	5021
2026-01-17 09:18:08.84	4.75	24.73	-44.9	-47.9	16.5	0.00e+00	0	39	0	941621248	61	5043
2026-01-17 09:18:09.98	4.58	24.58	-44.8	-47.8	16.7	0.00e+00	0	39	0	943718400	61	4986
2026-01-17 09:18:10.83	4.45	24.47	-44.8	-47.7	16.7	0.00e+00	0	39	0	945815552	61	4965
2026-01-17 09:18:11.97	4.28	24.32	-44.6	-47.5	16.9	0.00e+00	0	39	0	947912704	61	4850
2026-01-17 09:18:12.82	4.15	24.20	-44.6	-47.5	16.9	0.00e+00	0	39	0	948961280	61	4850
2026-01-17 09:18:13.95	3.98	24.06	-44.6	-47.5	16.9	0.00e+00	0	39	0	952107008	61	4868
2026-01-17 09:18:14.81	3.86	23.94	-44.6	-47.5	16.9	0.00e+00	0	39	0	953155584	61	4836
2026-01-17 09:18:15.99	3.69	23.79	-44.6	-47.5	17.0	0.00e+00	0	39	0	955252736	61	4820
2026-01-17 09:18:16.84	3.57	23.68	-44.5	-47.3	17.1	0.00e+00	0	39	0	957349888	60	5038
2026-01-17 09:18:17.98	3.40	23.53	-44.5	-47.3	17.1	0.00e+00	0	39	0	959447040	60	5020
2026-01-17 09:18:18.83	3.28	23.42	-44.5	-47.3	17.1	0.00e+00	0	39	0	960495616	60	5035
2026-01-17 09:18:20.09	3.11	23.26	-44.4	-47.2	17.2	0.00e+00	0	39	0	963641344	60	4937
2026-01-17 09:18:20.90	2.99	23.16	-44.3	-47.0	17.4	0.00e+00	0	39	0	964689920	60	4833
2026-01-17 09:18:22.03	2.84	23.01	-44.2	-46.9	17.5	0.00e+00	0	39	0	966787072	60	4778
2026-01-17 09:18:22.89	2.72	22.90	-44.3	-47.1	17.3	0.00e+00	0	39	0	968884224	60	4871
2026-01-17 09:18:24.02	2.57	22.76	-44.3	-47.1	17.3	0.00e+00	0	39	0	970981376	60	4913
2026-01-17 09:18:24.88	2.45	22.65	-44.3	-47.1	17.2	0.00e+00	0	39	0	972029952	60	4920
2026-01-17 09:18:26.01	2.30	22.51	-44.3	-47.2	17.2	0.00e+00	0	39	0	974127104	60	4947
2026-01-17 09:18:26.86	2.19	22.40	-44.3	-47.2	17.1	0.00e+00	0	39	0	976224256	60	4973
2026-01-17 09:18:28.00	2.04	22.26	-44.3	-47.3	17.1	0.00e+00	0	39	0	978321408	60	4990
2026-01-17 09:18:28.85	1.93	22.16	-44.3	-47.2	17.1	0.00e+00	0	39	0	979369984	60	4982
2026-01-17 09:18:29.99	1.78	22.01	-44.3	-47.2	17.2	0.00e+00	0	39	0	981467136	60	4946
2026-01-17 09:18:30.84	1.67	21.91	-44.4	-47.2	17.2	0.00e+00	0	39	0	983564288	60	4960
2026-01-17 09:18:31.98	1.53	21.77	-44.3	-47.0	17.3	0.00e+00	0	39	0	985661440	60	4868
2026-01-17 09:18:32.84	1.42	21.66	-44.2	-47.0	17.4	0.00e+00	0	39	0	986710016	60	4841
2026-01-17 09:18:33.99	1.28	21.52	-44.2	-47.0	17.4	0.00e+00	0	39	0	988807168	60	4841
2026-01-17 09:18:34.84	1.17	21.42	-44.3	-47.1	17.3	0.00e+00	0	39	0	990904320	60	4880
2026-01-17 09:18:36.06	1.02	21.27	-44.3	-47.1	17.3	0.00e+00	0	39	0	993001472	60	4920
2026-01-17 09:18:36.91	0.92	21.17	-44.3	-47.2	17.2	0.00e+00	0	39	0	995098624	60	4942
2026-01-17 09:18:38.05	0.78	21.03	-44.3	-47.2	17.1	0.00e+00	0	39	0	997195776	60	4961
2026-01-17 09:18:38.90	0.68	20.93	-44.4	-47.3	17.1	0.00e+00	0	39	0	998244352	60	5013
2026-01-17 09:18:40.04	0.54	20.79	-44.4	-47.3	17.0	0.00e+00	0	39	0	1000341504	60	5036
2026-01-17 09:18:40.90	0.44	20.69	-44.4	-47.4	17.0	0.00e+00	0	39	0	1002438656	60	5043
2026-01-17 09:18:42.03	0.31	20.56	-44.5	-47.4	17.0	0.00e+00	0	39	0	1004535808	60	5080
2026-01-17 09:18:42.88	0.21	20.46	-44.5	-47.4	17.0	0.00e+00	0	39	0	1005584384	60	5049
2026-01-17 09:18:44.02	0.08	20.32	-44.6	-47.5	16.8	0.00e+00	0	39	0	1007681536	60	5154
2026-01-17 09:18:44.88	359.98	20.22	-44.5	-47.5	16.9	0.00e+00	0	39	0	1009778688	60	5109
2026-01-17 09:18:46.01	359.86	20.09	-44.5	-47.4	16.9	0.00e+00	0	39	0	1011875840	60	5095
2026-01-17 09:18:46.87	359.76	19.99	-44.4	-47.4	16.9	0.00e+00	0	39	0	1012924416	60	5076
2026-01-17 09:18:48.00	359.63	19.86	-44.4	-47.4	16.9	0.00e+00	0	39	0	1015021568	60	5093
2026-01-17 09:18:48.86	359.54	19.76	-44.5	-47.5	16.9	0.00e+00	0	39	0	1017118720	60	5130
2026-01-17 09:18:50.00	359.41	19.63	-44.5	-47.6	16.8	0.00e+00	0	39	0	1019215872	60	5166
2026-01-17 09:18:50.85	359.32	19.53	-44.5	-47.5	16.9	0.00e+00	0	39	0	1021313024	60	5110
2026-01-17 09:18:51.99	359.20	19.40	-44.6	-47.5	16.8	0.00e+00	0	39	0	1023410176	60	5138
2026-01-17 09:18:52.84	359.10	19.30	-44.5	-47.4	16.9	0.00e+00	0	39	0	1024458752	60	5060
2026-01-17 09:18:54.07	358.97	19.16	-44.6	-47.5	16.8	0.00e+00	0	39	0	1026555904	60	5112
2026-01-17 09:18:54.92	358.88	19.06	-44.6	-47.5	16.7	0.00e+00	0	39	0	1028653056	60	5126
2026-01-17 09:18:56.06	358.76	18.94	-44.6	-47.5	16.7	0.00e+00	0	39	0	1030750208	60	5118
2026-01-17 09:18:56.91	358.68	18.84	-44.5	-47.5	16.8	0.00e+00	0	39	0	1031798784	60	5119
2026-01-17 09:18:58.05	358.56	18.71	-44.5	-47.5	16.7	0.00e+00	0	39	0	1033895936	60	5138
2026-01-17 09:18:58.91	358.47	18.62	-44.4	-47.4	16.8	0.00e+00	0	39	0	1035993088	60	5100
2026-01-17 09:19:00.04	358.36	18.49	-44.4	-47.5	16.8	0.00e+00	0	39	0	1038090240	60	5147
2026-01-17 09:19:00.89	358.27	18.40	-44.3	-47.5	16.9	0.00e+00	0	39	0	1039138816	60	5115
2026-01-17 09:19:02.03	358.16	18.27	-44.3	-47.4	16.9	0.00e+00	0	39	0	1041235968	60	5082
2026-01-17 09:19:02.88	358.07	18.18	-44.5	-47.5	16.8	0.00e+00	0	39	0	1043333120	60	5137
2026-01-17 09:19:04.02	357.96	18.05	-44.6	-47.6	16.7	0.00e+00	0	39	0	1045430272	60	5187
2026-01-17 09:19:04.87	357.87	17.96	-44.6	-47.5	16.8	0.00e+00	0	39	0	1047527424	60	5148
2026-01-17 09:19:06.01	357.76	17.84	-44.6	-47.6	16.7	0.00e+00	0	39	0	1049624576	60	5172
2026-01-17 09:19:06.86	357.68	17.74	-44.7	-47.7	16.6	0.00e+00	0	39	0	1050673152	60	5270
2026-01-17 09:19:08.00	357.57	17.62	-44.7	-47.8	16.4	0.00e+00	0	39	0	1052770304	60	5294
2026-01-17 09:19:08.85	357.49	17.53	-44.8	-47.9	16.2	0.00e+00	0	39	0	1054867456	60	5372
2026-01-17 09:19:09.99	357.38	17.41	-44.8	-48.1	16.0	0.00e+00	0	39	0	1056964608	60	5497
2026-01-17 09:19:10.84	357.30	17.32	-44.8	-48.1	16.0	0.00e+00	0	39	0	1058013184	60	5519
2026-01-17 09:19:11.98	357.20	17.20	-44.7	-48.1	15.9	0.00e+00	0	39	0	1060110336	60	5526
2026-01-17 09:19:12.83	357.12	17.11	-44.7	-48.2	15.9	0.00e+00	0	39	0	1062207488	60	5571
2026-01-17 09:19:13.97	357.02	16.99	-44.8	-48.3	15.9	0.00e+00	0	39	0	1064304640	60	5622
2026-01-17 09:19:14.86	356.93	16.89	-44.9	-48.3	15.9	0.00e+00	0	39	0	1065353216	60	5614
2026-01-17 09:19:15.99	356.83	16.77	-45.0	-48.2	16.1	0.00e+00	0	39	0	1067450368	60	5590
2026-01-17 09:19:16.85	356.76	16.68	-45.0	-48.3	16.0	0.00e+00	0	39	0	1069547520	60	5622
2026-01-17 09:19:17.99	356.65	16.56	-45.0	-48.3	16.0	0.00e+00	0	39	0	1071644672	60	5597
2026-01-17 09:19:18.84	356.58	16.48	-44.9	-48.2	16.0	0.00e+00	0	39	0	1073741824	60	5562
2026-01-17 09:19:19.97	356.48	16.36	-45.0	-48.2	16.1	0.00e+00	0	39	0	1075838976	60	5546
2026-01-17 09:19:20.83	356.40	16.27	-45.0	-48.1	16.2	0.00e+00	0	39	0	1076887552	60	5514
2026-01-17 09:19:21.96	356.31	16.15	-44.9	-48.1	16.1	0.00e+00	0	39	0	1078984704	60	5509
2026-01-17 09:19:22.81	356.23	16.07	-45.0	-48.2	15.9	0.00e+00	0	39	0	1081081856	60	5568
2026-01-17 09:19:23.97	356.13	15.95	-44.7	-47.9	16.2	0.00e+00	0	39	0	1083179008	60	5361
2026-01-17 09:19:24.82	356.06	15.86	-44.6	-47.7	16.5	0.00e+00	0	39	0	1084227584	60	5260
2026-01-17 09:19:25.96	355.97	15.75	-44.6	-47.7	16.6	0.00e+00	0	39	0	1086324736	60	5260
2026-01-17 09:19:26.81	355.90	15.66	-44.5	-47.7	16.7	0.00e+00	0	39	0	1088421888	60	5221
2026-01-17 09:19:27.95	355.80	15.55	-44.7	-47.8	16.5	0.00e+00	0	39	0	1090519040	60	5306
2026-01-17 09:19:28.80	355.73	15.46	-44.6	-47.7	16.4	0.00e+00	0	39	0	1091567616	60	5232
2026-01-17 09:19:29.94	355.64	15.35	-44.6	-47.5	16.5	0.00e+00	0	39	0	1093664768	60	5153
2026-01-17 09:19:30.79	355.57	15.26	-44.6	-47.5	16.6	0.00e+00	0	39	0	1095761920	60	5144
2026-01-17 09:19:31.93	355.48	15.15	-44.6	-47.6	16.5	0.00e+00	0	39	0	1097859072	60	5175
2026-01-17 09:19:32.78	355.41	15.07	-44.6	-47.6	16.5	0.00e+00	0	39	0	1098907648	60	5172
2026-01-17 09:19:33.92	355.32	14.95	-44.6	-47.6	16.5	0.00e+00	0	39	0	1101004800	60	5193
2026-01-17 09:19:34.77	355.25	14.87	-44.5	-47.5	16.5	0.00e+00	0	39	0	1103101952	60	5128
2026-01-17 09:19:35.90	355.16	14.76	-44.6	-47.7	16.3	0.00e+00	0	39	0	1105199104	60	5232
2026-01-17 09:19:36.76	355.09	14.68	-44.7	-47.9	16.2	0.00e+00	0	39	0	1107296256	60	5380
2026-01-17 09:19:37.90	355.01	14.57	-44.7	-48.0	16.1	0.00e+00	0	39	0	1109393408	60	5421
2026-01-17 09:19:38.75	354.94	14.48	-44.8	-48.0	16.0	0.00e+00	0	39	0	1110441984	60	5455
2026-01-17 09:19:39.89	354.85	14.37	-44.9	-48.1	15.9	0.00e+00	0	39	0	1112539136	60	5486
2026-01-17 09:19:40.74	354.79	14.29	-45.0	-48.2	15.7	0.00e+00	0	39	0	1114636288	60	5558
2026-01-17 09:19:41.88	354.70	14.18	-45.1	-48.3	15.7	0.00e+00	0	39	0	1116733440	60	5615
2026-01-17 09:19:42.73	354.64	14.10	-45.2	-48.3	15.7	0.00e+00	0	39	0	1117782016	60	5656
2026-01-17 09:19:43.91	354.55	13.99	-45.2	-48.5	15.7	0.00e+00	0	39	0	1119879168	61	5404
2026-01-17 09:19:44.77	354.49	13.91	-45.1	-48.3	15.9	0.00e+00	0	39	0	1121976320	61	5337
2026-01-17 09:19:45.97	354.40	13.79	-45.1	-48.5	15.8	0.00e+00	0	39	0	1124073472	61	5407
2026-01-17 09:19:46.82	354.34	13.71	-45.0	-48.4	15.8	0.00e+00	0	39	0	1126170624	61	5388
2026-01-17 09:19:47.96	354.26	13.61	-45.1	-48.5	15.8	0.00e+00	0	39	0	1128267776	61	5427
2026-01-17 09:19:48.81	354.19	13.53	-45.1	-48.4	15.9	0.00e+00	0	39	0	1129316352	61	5363
2026-01-17 09:19:50.11	354.10	13.41	-45.0	-48.4	15.9	0.00e+00	0	39	0	1131413504	61	5346
2026-01-17 09:19:50.82	354.05	13.34	-45.1	-48.4	15.9	0.00e+00	0	39	0	1133510656	61	5353
2026-01-17 09:19:52.29	353.95	13.20	-44.8	-48.4	15.8	0.00e+00	0	39	0	1135607808	61	5393
2026-01-17 09:19:53.00	353.90	13.14	-44.7	-48.5	15.8	0.00e+00	0	39	0	1137704960	61	5441
2026-01-17 09:19:54.28	353.81	13.02	-44.6	-48.6	15.7	0.00e+00	0	39	0	1139802112	61	5467
2026-01-17 09:19:54.99	353.76	12.96	-44.5	-48.6	15.7	0.00e+00	0	39	0	1140850688	61	5507
2026-01-17 09:19:56.27	353.67	12.84	-44.4	-48.6	15.6	0.00e+00	0	39	0	1142947840	60	5793
2026-01-17 09:19:56.99	353.62	12.77	-44.5	-48.6	15.6	0.00e+00	0	39	0	1145044992	60	5852
2026-01-17 09:19:58.27	353.54	12.66	-44.6	-48.8	15.5	0.00e+00	0	39	0	1147142144	60	5975
2026-01-17 09:19:58.98	353.49	12.59	-44.7	-48.8	15.4	0.00e+00	0	39	0	1148190720	60	5982
2026-01-17 09:20:00.26	353.40	12.48	-44.8	-48.9	15.4	0.00e+00	0	39	0	1151336448	60	6052
2026-01-17 09:20:00.99	353.36	12.41	-44.8	-49.0	15.3	0.00e+00	0	39	0	1152385024	60	6066
2026-01-17 09:20:02.27	353.27	12.30	-44.8	-48.9	15.3	0.00e+00	0	39	0	1154482176	60	6014
2026-01-17 09:20:02.99	353.22	12.23	-44.9	-49.0	15.2	0.00e+00	0	39	0	1156579328	60	6102
2026-01-17 09:20:04.27	353.14	12.12	-44.9	-48.9	15.3	0.00e+00	0	39	0	1158676480	60	6033
2026-01-17 09:20:05.09	353.09	12.05	-44.9	-48.9	15.4	0.00e+00	0	39	0	1159725056	60	6008
2026-01-17 09:20:06.23	353.01	11.95	-44.9	-48.8	15.4	0.00e+00	0	39	0	1161822208	60	5984
2026-01-17 09:20:07.29	352.95	11.85	-44.9	-48.8	15.5	0.00e+00	0	39	0	1163919360	60	5943
2026-01-17 09:20:08.35	352.88	11.76	-44.8	-48.7	15.5	0.00e+00	0	39	0	1166016512	60	5897
2026-01-17 09:20:09.37	352.82	11.67	-44.8	-48.8	15.4	0.00e+00	0	39	0	1168113664	60	5960
2026-01-17 09:20:10.37	352.75	11.58	-44.7	-48.8	15.4	0.00e+00	0	39	0	1170210816	60	5973
2026-01-17 09:20:11.36	352.69	11.50	-44.6	-48.7	15.5	0.00e+00	0	39	0	1171259392	60	5885
2026-01-17 09:20:12.36	352.63	11.41	-44.5	-48.7	15.6	0.00e+00	0	39	0	1173356544	60	5880
2026-01-17 09:20:13.35	352.57	11.33	-44.2	-48.6	15.6	0.00e+00	0	39	0	1175453696	60	5845
2026-01-17 09:20:14.35	352.51	11.24	-43.9	-48.6	15.6	0.00e+00	0	39	0	1177550848	59	6158
2026-01-17 09:20:15.34	352.45	11.15	-43.8	-48.6	15.6	0.00e+00	0	39	0	1179648000	59	6181
2026-01-17 09:20:16.34	352.39	11.07	-43.7	-48.5	15.7	0.00e+00	0	39	0	1180696576	59	6084
2026-01-17 09:20:17.33	352.33	10.98	-43.7	-48.5	15.6	0.00e+00	0	39	0	1182793728	59	6123
2026-01-17 09:20:18.33	352.27	10.90	-43.6	-48.6	15.6	0.00e+00	0	39	0	1184890880	59	6156
2026-01-17 09:20:19.32	352.21	10.82	-43.5	-48.7	15.5	0.00e+00	0	39	0	1186988032	58	6579
2026-01-17 09:20:20.32	352.15	10.73	-43.5	-48.6	15.5	0.00e+00	0	39	0	1188036608	58	6564
2026-01-17 09:20:21.36	352.09	10.64	-43.5	-48.8	15.4	0.00e+00	0	39	0	1190133760	58	6657
2026-01-17 09:20:22.35	352.03	10.56	-43.6	-48.9	15.2	0.00e+00	0	39	0	1192230912	58	6787
2026-01-17 09:20:23.35	351.98	10.48	-43.7	-48.8	15.3	0.00e+00	0	39	0	1194328064	58	6691
2026-01-17 09:20:24.46	351.91	10.38	-43.9	-49.0	15.1	0.00e+00	0	39	0	1196425216	58	6845
2026-01-17 09:20:25.31	351.86	10.31	-44.2	-49.0	15.2	0.00e+00	0	39	0	1197473792	59	6449
2026-01-17 09:20:26.68	351.79	10.20	-44.5	-49.0	15.2	0.00e+00	0	39	0	1200619520	59	6439
2026-01-17 09:20:27.39	351.75	10.14	-44.6	-49.1	15.2	0.00e+00	0	39	0	1201668096	60	6146
2026-01-17 09:20:28.69	351.67	10.03	-44.7	-49.2	15.0	0.00e+00	0	39	0	1203765248	60	6268
2026-01-17 09:20:29.40	351.63	9.97	-44.8	-49.2	15.0	0.00e+00	0	39	0	1205862400	60	6238
2026-01-17 09:20:30.68	351.56	9.87	-44.9	-49.3	14.9	0.00e+00	0	39	0	1207959552	60	6330
2026-01-17 09:20:31.40	351.52	9.81	-44.9	-49.3	14.9	0.00e+00	0	39	0	1209008128	60	6339
2026-01-17 09:20:32.68	351.45	9.71	-44.7	-49.4	14.9	0.00e+00	0	39	0	1212153856	60	6350
2026-01-17 09:20:33.41	351.41	9.65	-44.6	-49.4	14.8	0.00e+00	0	39	0	1213202432	60	6370
2026-01-17 09:20:34.69	351.35	9.54	-44.6	-49.3	14.8	7.00e-07	0	39	0	1215299584	60	6340
2026-01-17 09:20:35.49	351.30	9.48	-44.5	-49.3	14.9	0.00e+00	0	39	0	1217396736	60	6342
2026-01-17 09:20:36.63	351.24	9.39	-44.6	-49.4	14.7	0.00e+00	0	39	0	1219493888	60	6413
2026-01-17 09:20:37.69	351.19	9.30	-44.4	-49.3	14.8	0.00e+00	0	39	0	1221591040	60	6343
2026-01-17 09:20:38.75	351.13	9.22	-44.5	-49.4	14.8	0.00e+00	0	39	0	1222639616	60	6388
2026-01-17 09:20:39.76	351.08	9.14	-44.4	-49.4	14.8	0.00e+00	0	39	0	1224736768	60	6397
2026-01-17 09:20:40.75	351.03	9.06	-44.3	-49.5	14.7	0.00e+00	0	39	0	1226833920	60	6431
2026-01-17 09:20:41.74	350.97	8.98	-46.2	-52.9	11.6	0.00e+00	0	39	0	1228931072	62	8466
2026-01-17 09:20:42.74	350.92	8.90	-48.1	-65.4	3.8	1.49e+00	0	39	104	1228931072	67	27029
2026-01-17 09:20:43.73	350.87	8.82	-49.6	-65.7	3.8	1.49e+00	0	39	104	1228931072	70	23333
2026-01-17 09:20:44.73	350.82	8.74	-49.2	-65.7	3.8	1.49e+00	0	39	104	1228931072	70	23522
2026-01-17 09:20:45.72	350.77	8.67	-50.3	-65.8	3.8	1.49e+00	0	39	104	1228931072	71	22414
2026-01-17 09:20:46.71	350.72	8.59	-49.7	-65.9	3.8	1.49e+00	0	39	104	1228931072	71	22570
2026-01-17 09:20:47.71	350.67	8.51	-50.5	-65.9	3.8	1.49e+00	0	39	104	1228931072	71	22723
