passes_logs/2026/01/17/T1/T1__20260117_121201_SUOMI_NPP_rec.log

#Pass ID: 20260117_121201_SUOMI NPP
#Satellite: SUOMI NPP
#Configuration: NPP
#almurnet v.1.7.20251203
#Start time: 2026-01-17 12:12:01

#Version: 2.0.20230620
#Station: T1
#Location: 37.570604 lon 55.790049 lat
#TLE: 1 37849U 11061A   26016.23176763  .00000061  00000+0  49926-4 0  9990
#TLE: 2 37849  98.7812 318.2698 0002434  61.5135 298.6286 14.19525545736883

#Time	Az	El	Level	Level2	SNR	BER	BlckErr	Temp	State	Recorded	gain1	gain2
2026-01-17 12:12:01.81	236.80	5.04	-50.7	-66.1	3.8	1.49e+00	0	36	0	0	73	20546
2026-01-17 12:12:02.80	236.92	5.08	-50.7	-66.1	3.8	1.49e+00	0	37	104	0	73	20544
2026-01-17 12:12:03.80	237.04	5.12	-50.6	-66.0	3.8	1.49e+00	0	37	104	0	73	20497
2026-01-17 12:12:04.79	237.16	5.17	-50.7	-66.0	3.8	1.49e+00	0	37	104	0	73	20446
2026-01-17 12:12:05.78	237.28	5.21	-50.7	-66.0	3.8	1.49e+00	0	37	104	0	73	20534
2026-01-17 12:12:06.78	237.40	5.25	-50.7	-66.0	3.8	1.49e+00	0	37	104	0	73	20521
2026-01-17 12:12:07.77	237.52	5.30	-50.7	-66.0	3.8	1.49e+00	0	37	104	0	73	20515
2026-01-17 12:12:08.76	237.64	5.34	-50.7	-66.0	3.8	1.49e+00	0	37	104	0	73	20495
2026-01-17 12:12:09.76	237.77	5.39	-50.6	-66.0	3.8	1.49e+00	0	37	104	0	73	20538
2026-01-17 12:12:10.75	237.89	5.43	-50.7	-66.0	3.8	1.49e+00	0	37	104	0	73	20531
2026-01-17 12:12:11.74	238.01	5.47	-50.6	-66.1	3.8	1.49e+00	0	37	104	0	73	20623
2026-01-17 12:12:12.74	238.14	5.52	-50.7	-66.1	3.8	1.49e+00	0	37	104	0	73	20592
2026-01-17 12:12:13.73	238.26	5.56	-50.6	-66.1	3.8	1.49e+00	0	37	104	0	73	20545
2026-01-17 12:12:14.73	238.38	5.60	-50.6	-66.0	3.8	1.49e+00	0	37	104	0	73	20478
2026-01-17 12:12:15.72	238.51	5.65	-50.6	-66.0	3.8	1.49e+00	0	37	104	0	73	20531
2026-01-17 12:12:16.71	238.63	5.69	-50.7	-66.1	3.8	1.49e+00	0	37	104	0	73	20570
2026-01-17 12:12:17.71	238.76	5.73	-50.6	-66.0	3.8	1.49e+00	0	37	104	0	73	20492
2026-01-17 12:12:18.70	238.88	5.78	-50.6	-66.0	3.8	1.49e+00	0	37	104	0	73	20517
2026-01-17 12:12:19.69	239.01	5.82	-50.6	-66.1	3.8	1.49e+00	0	37	104	0	73	20558
2026-01-17 12:12:20.68	239.13	5.86	-50.6	-66.0	3.8	1.49e+00	0	37	104	0	73	20451
2026-01-17 12:12:21.68	239.26	5.91	-50.6	-66.0	3.8	1.49e+00	0	37	104	0	73	20457
2026-01-17 12:12:22.67	239.39	5.95	-50.6	-66.0	3.8	1.49e+00	0	37	104	0	73	20487
2026-01-17 12:12:23.67	239.51	5.99	-50.6	-66.0	3.8	1.49e+00	0	37	104	0	73	20436
2026-01-17 12:12:24.66	239.64	6.04	-50.6	-66.0	3.8	1.49e+00	0	38	104	0	73	20405
2026-01-17 12:12:25.65	239.77	6.08	-50.6	-66.0	3.8	1.49e+00	0	37	104	0	73	20456
2026-01-17 12:12:26.64	239.90	6.12	-50.6	-66.0	3.8	1.49e+00	0	37	104	0	73	20422
2026-01-17 12:12:27.64	240.02	6.16	-50.6	-66.0	3.8	1.49e+00	0	37	104	0	73	20375
2026-01-17 12:12:28.63	240.15	6.21	-50.6	-66.0	3.8	1.49e+00	0	37	104	0	73	20322
2026-01-17 12:12:29.63	240.28	6.25	-50.6	-66.0	3.8	1.49e+00	0	37	104	0	73	20392
2026-01-17 12:12:30.62	240.41	6.29	-50.6	-65.9	3.8	1.49e+00	0	37	104	0	73	20296
2026-01-17 12:12:31.61	240.54	6.34	-50.6	-66.0	3.8	1.49e+00	0	37	104	0	73	20338
2026-01-17 12:12:32.61	240.67	6.38	-50.6	-65.9	3.8	1.49e+00	0	38	104	0	73	20302
2026-01-17 12:12:33.60	240.80	6.42	-50.6	-66.0	3.8	1.49e+00	0	38	104	0	73	20307
2026-01-17 12:12:34.59	240.93	6.46	-50.6	-66.0	3.8	1.49e+00	0	38	104	0	73	20406
2026-01-17 12:12:35.59	241.07	6.51	-50.6	-66.0	3.8	1.49e+00	0	38	104	0	73	20325
2026-01-17 12:12:36.58	241.20	6.55	-50.6	-66.0	3.8	1.49e+00	0	38	104	0	73	20353
2026-01-17 12:12:37.58	241.33	6.59	-50.6	-66.0	3.8	1.49e+00	0	38	104	0	73	20323
2026-01-17 12:12:38.57	241.46	6.63	-50.6	-66.0	3.8	1.49e+00	0	38	104	0	73	20336
2026-01-17 12:12:39.56	241.60	6.67	-50.5	-66.0	3.8	1.49e+00	0	38	104	0	73	20382
2026-01-17 12:12:40.56	241.73	6.72	-50.6	-66.0	3.8	1.49e+00	0	38	104	0	73	20363
2026-01-17 12:12:41.55	241.86	6.76	-50.5	-66.0	3.8	1.49e+00	0	38	104	0	73	20323
2026-01-17 12:12:42.54	242.00	6.80	-50.5	-65.9	3.8	1.49e+00	0	38	104	0	73	20273
2026-01-17 12:12:43.54	242.13	6.84	-50.6	-65.9	3.8	1.49e+00	0	38	104	0	73	20247
2026-01-17 12:12:44.53	242.27	6.88	-50.5	-65.9	3.8	1.49e+00	0	38	104	0	73	20209
2026-01-17 12:12:45.52	242.40	6.93	-50.5	-65.9	3.8	1.49e+00	0	38	104	0	73	20139
2026-01-17 12:12:46.51	242.54	6.97	-50.5	-65.9	3.8	1.49e+00	0	38	104	0	73	20144
2026-01-17 12:12:47.51	242.67	7.01	-50.5	-65.8	3.8	1.49e+00	0	38	104	0	73	20066
2026-01-17 12:12:48.50	242.81	7.05	-50.5	-65.8	3.8	1.49e+00	0	38	104	0	73	20013
2026-01-17 12:12:49.49	242.94	7.09	-50.5	-65.8	3.8	1.49e+00	0	38	104	0	73	20069
2026-01-17 12:12:50.49	243.08	7.13	-50.5	-65.8	3.8	1.49e+00	0	38	104	0	73	19988
2026-01-17 12:12:51.48	243.22	7.18	-50.5	-65.9	3.8	1.49e+00	0	38	104	0	73	20085
2026-01-17 12:12:52.47	243.36	7.22	-50.5	-65.8	3.8	1.49e+00	0	38	104	0	73	20063
2026-01-17 12:12:53.47	243.50	7.26	-50.5	-65.9	3.8	1.49e+00	0	38	104	0	73	20091
2026-01-17 12:12:54.46	243.63	7.30	-50.5	-65.9	3.8	1.49e+00	0	38	104	0	73	20099
2026-01-17 12:12:55.45	243.77	7.34	-50.5	-65.9	3.8	1.49e+00	0	38	104	0	73	20119
2026-01-17 12:12:56.45	243.91	7.38	-50.5	-65.9	3.8	1.49e+00	0	38	104	0	73	20171
2026-01-17 12:12:57.44	244.05	7.42	-50.5	-65.9	3.8	1.49e+00	0	38	104	0	73	20119
2026-01-17 12:12:58.44	244.19	7.46	-50.5	-65.9	3.8	1.49e+00	0	38	104	0	73	20119
2026-01-17 12:12:59.43	244.33	7.51	-50.5	-65.8	3.8	1.49e+00	0	38	104	0	73	19980
2026-01-17 12:13:00.42	244.47	7.55	-50.5	-65.8	3.8	1.49e+00	0	38	104	0	73	19940
2026-01-17 12:13:01.42	244.61	7.59	-50.5	-65.8	3.8	1.49e+00	0	38	104	0	73	20002
2026-01-17 12:13:02.41	244.76	7.63	-50.5	-65.9	3.8	1.49e+00	0	38	104	0	73	20150
2026-01-17 12:13:03.40	244.90	7.67	-50.5	-65.9	3.8	1.49e+00	0	38	104	0	73	20135
2026-01-17 12:13:04.40	245.04	7.71	-50.5	-65.9	3.8	1.49e+00	0	38	104	0	73	20211
2026-01-17 12:13:05.39	245.18	7.75	-50.5	-65.9	3.8	1.49e+00	0	38	104	0	73	20197
2026-01-17 12:13:06.38	245.33	7.79	-50.5	-65.8	3.8	1.49e+00	0	38	104	0	73	20068
2026-01-17 12:13:07.38	245.47	7.83	-50.5	-65.9	3.8	1.49e+00	0	38	104	0	73	20154
2026-01-17 12:13:08.37	245.61	7.87	-50.5	-65.9	3.8	1.49e+00	0	38	104	0	73	20081
2026-01-17 12:13:09.36	245.76	7.91	-50.5	-65.9	3.8	1.49e+00	0	38	104	0	73	20158
2026-01-17 12:13:10.36	245.90	7.95	-50.5	-65.9	3.8	1.49e+00	0	38	104	0	73	20224
2026-01-17 12:13:11.35	246.05	7.99	-50.5	-65.9	3.8	1.49e+00	0	38	104	0	73	20196
2026-01-17 12:13:12.34	246.19	8.03	-50.5	-65.8	3.8	1.49e+00	0	38	104	0	73	20055
2026-01-17 12:13:13.34	246.34	8.07	-50.5	-65.9	3.8	1.49e+00	0	38	104	0	73	20078
2026-01-17 12:13:14.33	246.48	8.11	-50.5	-65.8	3.8	1.49e+00	0	38	104	0	73	19964
2026-01-17 12:13:15.32	246.63	8.15	-50.5	-65.8	3.8	1.49e+00	0	38	104	0	73	19973
2026-01-17 12:13:16.32	246.78	8.19	-50.5	-65.8	3.8	1.49e+00	0	38	104	0	72	21221
2026-01-17 12:13:17.31	246.92	8.22	-50.5	-65.9	3.8	1.49e+00	0	39	104	0	72	21335
2026-01-17 12:13:18.30	247.07	8.26	-50.5	-65.9	3.8	1.49e+00	0	39	104	0	72	21349
2026-01-17 12:13:19.30	247.22	8.30	-50.5	-65.9	3.8	1.49e+00	0	39	104	0	72	21336
2026-01-17 12:13:20.29	247.37	8.34	-50.5	-65.9	3.8	1.49e+00	0	39	104	0	72	21439
2026-01-17 12:13:21.28	247.52	8.38	-50.5	-65.8	3.8	1.49e+00	0	39	104	0	72	21245
2026-01-17 12:13:22.28	247.67	8.42	-50.4	-65.5	3.8	1.49e+00	0	39	104	0	72	20353
2026-01-17 12:13:23.27	247.82	8.46	-50.4	-64.7	3.8	1.49e+00	0	38	104	0	72	18604
2026-01-17 12:13:24.26	247.97	8.50	-50.3	-64.0	3.8	1.49e+00	0	38	104	0	72	17116
2026-01-17 12:13:25.26	248.12	8.53	-50.3	-63.9	3.8	1.49e+00	0	39	104	0	72	17017
2026-01-17 12:13:26.25	248.27	8.57	-50.4	-64.9	3.8	1.49e+00	0	39	104	0	72	19144
2026-01-17 12:13:27.24	248.42	8.61	-50.4	-65.4	3.8	1.49e+00	0	39	104	0	72	20265
2026-01-17 12:13:28.23	248.57	8.65	-50.2	-62.6	3.9	1.49e+00	0	39	104	0	72	14563
2026-01-17 12:13:29.23	248.72	8.69	-49.7	-58.3	6.3	4.40e-01	0	39	0	1048576	71	9430
2026-01-17 12:13:30.22	248.87	8.72	-48.7	-54.7	9.7	3.51e-02	0	39	0	3145728	69	6989
2026-01-17 12:13:31.21	249.03	8.76	-47.6	-52.3	12.2	1.64e-03	0	39	0	4194304	67	5948
2026-01-17 12:13:32.21	249.18	8.80	-46.8	-50.8	13.7	5.49e-05	0	38	0	6291456	65	5606
2026-01-17 12:13:33.20	249.33	8.84	-46.5	-50.1	14.3	1.50e-06	0	39	0	8388608	64	5517
2026-01-17 12:13:34.19	249.49	8.87	-46.4	-50.1	14.3	0.00e+00	0	39	0	10485760	64	5490
2026-01-17 12:13:35.18	249.64	8.91	-46.8	-50.8	13.7	3.80e-06	0	39	0	12582912	64	5937
2026-01-17 12:13:36.18	249.80	8.95	-47.4	-51.9	12.6	1.60e-05	0	38	0	13631488	65	6384
2026-01-17 12:13:37.17	249.95	8.98	-48.3	-53.7	10.7	1.10e-03	0	39	0	15728640	67	6980
2026-01-17 12:13:38.16	250.10	9.02	-49.2	-56.0	8.5	1.95e-02	0	39	0	17825792	68	8603
2026-01-17 12:13:39.16	250.26	9.06	-50.5	-62.9	3.9	3.86e-01	0	39	104	18874368	71	16002
2026-01-17 12:13:40.15	250.42	9.09	-50.3	-63.3	3.8	4.57e-02	0	39	104	18874368	71	16860
2026-01-17 12:13:41.15	250.57	9.13	-49.0	-55.2	9.3	1.29e-02	0	39	0	18874368	69	7407
2026-01-17 12:13:42.16	250.73	9.17	-46.7	-50.5	14.0	4.95e-05	0	39	0	20971520	65	5413
2026-01-17 12:13:43.18	250.89	9.21	-50.1	-60.5	4.9	5.03e-02	0	39	0	23068672	70	12890
2026-01-17 12:13:44.18	251.05	9.24	-47.2	-51.3	13.1	1.40e-04	0	39	0	25165824	66	5654
2026-01-17 12:13:45.23	251.22	9.28	-47.0	-51.1	13.4	3.20e-05	0	39	0	27262976	66	5467
2026-01-17 12:13:46.15	251.37	9.31	-46.6	-50.4	14.1	9.90e-06	0	39	0	28311552	65	5352
2026-01-17 12:13:47.29	251.55	9.35	-46.0	-49.5	14.9	0.00e+00	0	39	0	30408704	64	5101
2026-01-17 12:13:48.14	251.69	9.38	-46.0	-49.3	15.2	0.00e+00	0	39	0	32505856	63	5291
2026-01-17 12:13:49.28	251.87	9.42	-46.2	-49.6	14.9	0.00e+00	0	39	0	34603008	63	5478
2026-01-17 12:13:50.13	252.01	9.45	-46.1	-49.5	15.0	0.00e+00	0	39	0	36700160	63	5461
2026-01-17 12:13:51.26	252.19	9.49	-46.0	-49.4	15.1	0.00e+00	0	39	0	38797312	63	5348
2026-01-17 12:13:52.12	252.33	9.52	-45.9	-49.3	15.2	0.00e+00	0	39	0	39845888	63	5302
2026-01-17 12:13:53.25	252.51	9.56	-45.9	-49.3	15.3	0.00e+00	0	39	0	41943040	63	5283
2026-01-17 12:13:54.10	252.65	9.59	-46.0	-49.4	15.1	0.00e+00	0	39	0	44040192	63	5359
2026-01-17 12:13:55.24	252.83	9.63	-46.1	-49.6	15.0	0.00e+00	0	39	0	46137344	63	5468
2026-01-17 12:13:56.09	252.97	9.66	-46.0	-49.3	15.2	0.00e+00	0	39	0	47185920	63	5329
2026-01-17 12:13:57.23	253.16	9.70	-46.1	-49.5	15.0	0.00e+00	0	39	0	49283072	63	5412
2026-01-17 12:13:58.08	253.30	9.73	-46.1	-49.6	14.9	0.00e+00	0	39	0	51380224	63	5498
2026-01-17 12:13:59.22	253.48	9.77	-46.2	-49.7	14.8	0.00e+00	0	39	0	53477376	63	5567
2026-01-17 12:14:00.07	253.62	9.80	-46.2	-49.6	14.9	0.00e+00	0	39	0	54525952	63	5525
2026-01-17 12:14:01.33	253.83	9.84	-46.1	-49.6	14.9	0.00e+00	0	39	0	57671680	63	5483
2026-01-17 12:14:02.14	253.97	9.87	-46.0	-49.4	15.1	0.00e+00	0	39	0	58720256	63	5390
2026-01-17 12:14:03.27	254.15	9.90	-46.1	-49.5	15.0	7.00e-07	0	39	0	60817408	63	5457
2026-01-17 12:14:04.12	254.29	9.93	-46.1	-49.7	14.9	0.00e+00	0	39	0	62914560	63	5537
2026-01-17 12:14:05.46	254.52	9.98	-46.2	-49.8	14.7	7.00e-07	0	39	0	65011712	63	5620
2026-01-17 12:14:06.18	254.64	10.00	-46.0	-49.6	14.9	0.00e+00	0	39	0	66060288	63	5489
2026-01-17 12:14:07.68	254.89	10.05	-45.8	-49.3	15.1	0.00e+00	0	39	0	69206016	63	5328
2026-01-17 12:14:08.39	255.01	10.07	-45.8	-49.3	15.2	0.00e+00	0	39	0	70254592	63	5298
2026-01-17 12:14:09.74	255.23	10.12	-45.8	-49.3	15.2	0.00e+00	0	39	0	73400320	63	5282
2026-01-17 12:14:10.45	255.35	10.14	-45.8	-49.1	15.4	0.00e+00	0	39	0	74448896	63	5201
2026-01-17 12:14:11.73	255.57	10.18	-45.7	-49.0	15.5	0.00e+00	0	39	0	76546048	63	5133
2026-01-17 12:14:12.46	255.69	10.20	-45.7	-49.0	15.5	0.00e+00	0	39	0	77594624	63	5112
2026-01-17 12:14:13.73	255.91	10.24	-45.7	-49.0	15.6	0.00e+00	0	39	0	80740352	63	5105
2026-01-17 12:14:14.46	256.03	10.27	-45.7	-48.9	15.6	0.00e+00	0	39	0	81788928	63	5074
2026-01-17 12:14:15.74	256.25	10.31	-45.6	-48.8	15.7	0.00e+00	0	39	0	83886080	63	5012
2026-01-17 12:14:16.46	256.37	10.33	-45.7	-48.9	15.6	0.00e+00	0	39	0	85983232	63	5070
2026-01-17 12:14:17.74	256.59	10.37	-45.8	-49.0	15.5	0.00e+00	0	39	0	88080384	63	5136
2026-01-17 12:14:18.47	256.72	10.39	-45.6	-48.8	15.7	0.00e+00	0	39	0	89128960	63	5002
2026-01-17 12:14:19.75	256.94	10.43	-45.7	-48.9	15.6	0.00e+00	0	39	0	91226112	63	5072
2026-01-17 12:14:20.49	257.06	10.45	-45.8	-49.1	15.4	0.00e+00	0	39	0	93323264	63	5160
2026-01-17 12:14:21.77	257.28	10.49	-45.7	-48.9	15.5	0.00e+00	0	39	0	95420416	63	5073
2026-01-17 12:14:22.50	257.41	10.51	-45.7	-49.0	15.5	0.00e+00	0	39	0	96468992	63	5133
2026-01-17 12:14:23.77	257.63	10.55	-45.7	-49.0	15.5	0.00e+00	0	39	0	99614720	63	5132
2026-01-17 12:14:24.48	257.75	10.57	-45.6	-48.8	15.6	0.00e+00	0	39	0	100663296	63	5037
2026-01-17 12:14:25.76	257.97	10.61	-45.5	-48.6	15.8	0.00e+00	0	39	0	102760448	63	4906
2026-01-17 12:14:26.48	258.10	10.63	-45.5	-48.5	15.9	0.00e+00	0	39	0	104857600	62	5158
2026-01-17 12:14:27.76	258.32	10.66	-45.5	-48.5	16.0	0.00e+00	0	39	0	106954752	62	5146
2026-01-17 12:14:28.70	258.49	10.69	-45.3	-48.3	16.2	0.00e+00	0	39	0	108003328	62	5021
2026-01-17 12:14:30.00	258.71	10.73	-45.2	-48.2	16.3	0.00e+00	0	39	0	111149056	62	4949
2026-01-17 12:14:30.71	258.84	10.75	-45.1	-48.1	16.4	0.00e+00	0	39	0	112197632	62	4883
2026-01-17 12:14:31.99	259.06	10.78	-45.4	-48.6	15.9	0.00e+00	0	39	0	114294784	62	5168
2026-01-17 12:14:32.70	259.19	10.80	-45.3	-48.4	16.1	0.00e+00	0	39	0	116391936	62	5050
2026-01-17 12:14:33.98	259.41	10.84	-45.4	-48.6	15.9	0.00e+00	0	39	0	118489088	62	5199
2026-01-17 12:14:34.71	259.54	10.86	-45.4	-48.6	15.9	0.00e+00	0	39	0	119537664	62	5201
2026-01-17 12:14:35.98	259.77	10.89	-45.5	-48.8	15.7	0.00e+00	0	39	0	122683392	62	5282
2026-01-17 12:14:36.70	259.90	10.91	-45.7	-49.0	15.5	0.00e+00	0	39	0	123731968	62	5451
2026-01-17 12:14:38.02	260.13	10.95	-45.8	-49.1	15.4	0.00e+00	0	39	0	125829120	62	5491
2026-01-17 12:14:38.73	260.26	10.97	-45.6	-48.8	15.7	0.00e+00	0	39	0	126877696	62	5306
2026-01-17 12:14:40.01	260.48	11.00	-45.6	-48.8	15.7	0.00e+00	0	39	0	130023424	62	5319
2026-01-17 12:14:40.72	260.61	11.02	-45.6	-48.8	15.7	0.00e+00	0	39	0	131072000	62	5309
2026-01-17 12:14:42.00	260.84	11.05	-45.5	-48.7	15.8	0.00e+00	0	39	0	133169152	62	5224
2026-01-17 12:14:42.73	260.97	11.07	-45.5	-48.6	15.9	0.00e+00	0	39	0	135266304	62	5186
2026-01-17 12:14:44.01	261.20	11.10	-45.5	-48.6	15.8	0.00e+00	0	39	0	137363456	62	5218
2026-01-17 12:14:44.73	261.33	11.12	-45.4	-48.4	16.0	0.00e+00	0	39	0	138412032	62	5087
2026-01-17 12:14:46.01	261.56	11.15	-45.4	-48.4	16.0	0.00e+00	0	39	0	140509184	62	5090
2026-01-17 12:14:46.74	261.69	11.17	-45.4	-48.4	16.0	0.00e+00	0	39	0	142606336	62	5096
2026-01-17 12:14:48.02	261.92	11.20	-45.3	-48.3	16.2	0.00e+00	0	39	0	144703488	62	4985
2026-01-17 12:14:48.74	262.05	11.22	-45.2	-48.1	16.3	0.00e+00	0	39	0	145752064	62	4918
2026-01-17 12:14:50.02	262.28	11.25	-45.2	-48.1	16.3	0.00e+00	0	39	0	148897792	62	4896
2026-01-17 12:14:50.74	262.42	11.27	-45.1	-47.9	16.5	0.00e+00	0	39	0	149946368	62	4798
2026-01-17 12:14:52.02	262.65	11.30	-45.0	-48.0	16.5	0.00e+00	0	39	0	152043520	62	4824
2026-01-17 12:14:52.73	262.78	11.32	-45.1	-48.2	16.3	0.00e+00	0	39	0	153092096	62	4928
2026-01-17 12:14:54.01	263.01	11.34	-45.3	-48.5	16.0	0.00e+00	0	39	0	156237824	62	5109
2026-01-17 12:14:54.74	263.14	11.36	-45.3	-48.5	15.9	0.00e+00	0	39	0	157286400	62	5146
2026-01-17 12:14:56.02	263.38	11.39	-45.5	-48.8	15.6	0.00e+00	0	39	0	159383552	62	5333
2026-01-17 12:14:56.74	263.51	11.41	-45.7	-49.0	15.5	0.00e+00	0	39	0	161480704	62	5429
2026-01-17 12:14:58.15	263.77	11.44	-45.8	-49.0	15.5	0.00e+00	0	39	0	163577856	62	5463
2026-01-17 12:14:58.86	263.90	11.45	-45.9	-49.3	15.3	0.00e+00	0	39	0	164626432	62	5598
2026-01-17 12:15:00.14	264.13	11.48	-45.8	-49.1	15.4	0.00e+00	0	39	0	167772160	62	5477
2026-01-17 12:15:00.85	264.26	11.50	-45.6	-48.7	15.7	0.00e+00	0	39	0	168820736	62	5255
2026-01-17 12:15:02.26	264.52	11.53	-45.4	-48.4	16.0	0.00e+00	0	39	0	170917888	62	5084
2026-01-17 12:15:02.97	264.66	11.54	-45.1	-48.0	16.4	0.00e+00	0	39	0	173015040	62	4817
2026-01-17 12:15:04.27	264.90	11.57	-45.2	-48.1	16.3	0.00e+00	0	39	0	175112192	62	4900
2026-01-17 12:15:04.99	265.03	11.58	-45.1	-48.0	16.5	0.00e+00	0	39	0	176160768	62	4817
2026-01-17 12:15:06.27	265.27	11.61	-45.4	-48.5	16.0	0.00e+00	0	39	0	179306496	62	5110
2026-01-17 12:15:06.98	265.40	11.62	-45.5	-48.6	16.0	0.00e+00	0	39	0	180355072	62	5172
2026-01-17 12:15:08.26	265.64	11.65	-48.3	-53.8	10.8	4.83e-04	0	39	0	182452224	67	7115
2026-01-17 12:15:08.97	265.77	11.66	-48.0	-53.1	11.3	7.56e-04	0	39	0	184549376	66	6907
2026-01-17 12:15:10.25	266.01	11.69	-47.5	-52.1	12.2	4.70e-04	0	39	0	186646528	66	6189
2026-01-17 12:15:10.98	266.14	11.70	-46.8	-50.7	13.6	1.23e-04	0	39	0	187695104	65	5575
2026-01-17 12:15:12.26	266.38	11.72	-46.1	-49.5	14.8	7.00e-07	0	39	0	189792256	64	5156
2026-01-17 12:15:12.97	266.52	11.74	-46.0	-49.5	14.9	0.00e+00	0	39	0	191889408	64	5104
2026-01-17 12:15:14.24	266.75	11.76	-46.0	-49.3	15.1	0.00e+00	0	39	0	193986560	63	5291
2026-01-17 12:15:14.95	266.89	11.77	-46.2	-49.7	14.8	0.00e+00	0	39	0	195035136	63	5540
2026-01-17 12:15:16.23	267.13	11.79	-46.1	-49.5	15.0	7.00e-07	0	39	0	198180864	63	5431
2026-01-17 12:15:16.96	267.26	11.81	-46.1	-49.5	15.0	0.00e+00	0	39	0	199229440	63	5405
2026-01-17 12:15:18.24	267.50	11.83	-46.5	-50.2	14.3	0.00e+00	0	39	0	201326592	63	5873
2026-01-17 12:15:18.98	267.64	11.84	-46.3	-49.8	14.6	0.00e+00	0	39	0	202375168	63	5653
2026-01-17 12:15:20.25	267.88	11.86	-45.7	-49.1	15.3	1.50e-06	0	39	0	205520896	63	5177
2026-01-17 12:15:20.98	268.02	11.87	-45.3	-48.4	16.0	0.00e+00	0	39	0	206569472	62	5075
2026-01-17 12:15:22.26	268.26	11.89	-45.0	-48.0	16.4	0.00e+00	0	39	0	208666624	62	4852
2026-01-17 12:15:22.99	268.40	11.90	-45.1	-48.1	16.3	0.00e+00	0	39	0	210763776	61	5184
2026-01-17 12:15:24.27	268.64	11.92	-45.3	-48.4	15.9	0.00e+00	0	39	0	212860928	61	5395
2026-01-17 12:15:24.98	268.78	11.93	-45.7	-49.1	15.4	0.00e+00	0	39	0	213909504	62	5468
2026-01-17 12:15:26.25	269.02	11.95	-46.3	-49.9	14.6	0.00e+00	0	39	0	216006656	63	5708
2026-01-17 12:15:26.98	269.16	11.96	-46.5	-50.2	14.3	0.00e+00	0	39	0	218103808	63	5920
2026-01-17 12:15:28.26	269.40	11.98	-46.5	-50.1	14.4	1.50e-06	0	39	0	220200960	63	5854
2026-01-17 12:15:28.97	269.54	11.99	-46.3	-49.9	14.6	2.20e-06	0	39	0	221249536	63	5679
2026-01-17 12:15:30.25	269.78	12.01	-45.8	-49.0	15.4	0.00e+00	0	39	0	224395264	63	5139
2026-01-17 12:15:31.10	269.94	12.02	-45.6	-48.7	15.7	0.00e+00	0	39	0	225443840	63	4959
2026-01-17 12:15:32.24	270.16	12.04	-45.4	-48.4	16.1	0.00e+00	0	39	0	227540992	62	5045
2026-01-17 12:15:33.09	270.32	12.05	-45.4	-48.4	16.1	0.00e+00	0	39	0	229638144	62	5066
2026-01-17 12:15:34.23	270.54	12.06	-45.5	-48.6	15.9	0.00e+00	0	39	0	231735296	62	5173
2026-01-17 12:15:35.08	270.70	12.07	-45.7	-48.9	15.5	0.00e+00	0	39	0	232783872	62	5342
2026-01-17 12:15:36.22	270.92	12.09	-45.9	-49.3	15.2	0.00e+00	0	39	0	234881024	62	5604
2026-01-17 12:15:37.07	271.08	12.10	-46.0	-49.4	15.1	0.00e+00	0	39	0	236978176	62	5697
2026-01-17 12:15:38.21	271.30	12.11	-46.2	-49.6	14.8	0.00e+00	0	39	0	239075328	63	5497
2026-01-17 12:15:39.06	271.46	12.12	-46.1	-49.5	15.0	7.00e-07	0	39	0	240123904	63	5434
2026-01-17 12:15:40.20	271.68	12.13	-45.9	-49.2	15.3	0.00e+00	0	39	0	242221056	63	5230
2026-01-17 12:15:41.05	271.85	12.14	-45.9	-49.1	15.3	0.00e+00	0	39	0	244318208	63	5209
2026-01-17 12:15:42.19	272.07	12.15	-46.0	-49.3	15.2	0.00e+00	0	39	0	246415360	63	5307
2026-01-17 12:15:43.05	272.23	12.16	-46.1	-49.6	14.9	0.00e+00	0	39	0	247463936	63	5473
2026-01-17 12:15:44.18	272.45	12.17	-46.4	-50.0	14.5	0.00e+00	0	39	0	249561088	63	5729
2026-01-17 12:15:45.13	272.63	12.18	-46.6	-50.4	14.0	0.00e+00	0	39	0	251658240	63	6039
2026-01-17 12:15:46.13	272.82	12.19	-46.7	-50.5	13.9	3.00e-06	0	39	0	253755392	64	5777
2026-01-17 12:15:47.12	273.01	12.20	-46.7	-50.6	13.8	5.30e-06	0	39	0	255852544	64	5803
2026-01-17 12:15:48.12	273.21	12.21	-46.5	-50.5	13.7	4.42e-03	0	39	0	257949696	64	5731
2026-01-17 12:15:49.11	273.40	12.22	-46.3	-50.0	14.4	1.02e-03	0	39	0	258998272	64	5419
2026-01-17 12:15:50.11	273.59	12.22	-46.0	-49.4	14.8	8.16e-05	0	39	0	261095424	63	5400
2026-01-17 12:15:51.10	273.78	12.23	-45.6	-49.1	14.9	2.53e-03	0	39	0	263192576	63	5163
2026-01-17 12:15:52.10	273.98	12.24	-45.5	-48.8	15.3	2.99e-03	0	39	0	265289728	62	5291
2026-01-17 12:15:53.09	274.17	12.25	-45.5	-48.6	15.8	1.50e-06	0	39	0	266338304	62	5184
2026-01-17 12:15:54.08	274.36	12.25	-45.6	-48.8	15.6	0.00e+00	0	39	0	268435456	62	5299
2026-01-17 12:15:55.08	274.55	12.26	-45.7	-49.0	15.3	3.80e-06	0	39	0	270532608	62	5420
2026-01-17 12:15:56.08	274.75	12.27	-45.7	-49.0	15.3	8.08e-05	0	39	0	272629760	62	5450
2026-01-17 12:15:57.07	274.94	12.27	-45.7	-49.0	15.5	0.00e+00	0	39	0	274726912	62	5414
2026-01-17 12:15:58.07	275.13	12.28	-45.6	-48.9	15.5	0.00e+00	0	39	0	275775488	62	5392
2026-01-17 12:15:59.12	275.34	12.28	-45.4	-48.6	15.7	0.00e+00	0	39	0	277872640	62	5212
2026-01-17 12:16:00.05	275.52	12.29	-45.2	-48.4	16.0	0.00e+00	0	39	0	279969792	62	5052
2026-01-17 12:16:01.05	275.71	12.29	-45.1	-48.1	16.3	0.00e+00	0	39	0	282066944	62	4885
2026-01-17 12:16:02.04	275.90	12.30	-44.8	-47.7	16.6	0.00e+00	0	39	0	283115520	61	4951
2026-01-17 12:16:03.03	276.09	12.30	-44.8	-47.7	16.6	0.00e+00	0	39	0	285212672	61	4962
2026-01-17 12:16:04.03	276.29	12.30	-44.7	-47.5	16.8	0.00e+00	0	39	0	287309824	61	4838
2026-01-17 12:16:05.02	276.48	12.31	-44.8	-47.7	16.6	0.00e+00	0	39	0	289406976	61	4941
2026-01-17 12:16:06.02	276.67	12.31	-44.7	-47.5	16.7	0.00e+00	0	39	0	291504128	61	4840
2026-01-17 12:16:07.01	276.87	12.31	-44.7	-47.6	16.6	0.00e+00	0	39	0	292552704	61	4881
2026-01-17 12:16:08.01	277.06	12.32	-44.6	-47.5	16.7	7.00e-07	0	39	0	294649856	61	4836
2026-01-17 12:16:09.00	277.25	12.32	-44.6	-47.4	16.9	0.00e+00	0	39	0	296747008	61	4783
2026-01-17 12:16:10.00	277.45	12.32	-44.5	-47.3	17.0	0.00e+00	0	39	0	298844160	60	5011
2026-01-17 12:16:10.99	277.64	12.32	-44.5	-47.3	17.0	0.00e+00	0	39	0	299892736	60	5038
2026-01-17 12:16:11.99	277.83	12.33	-44.6	-47.4	17.0	0.00e+00	0	39	0	301989888	60	5054
2026-01-17 12:16:12.98	278.03	12.33	-44.7	-47.6	16.8	0.00e+00	0	39	0	304087040	60	5177
2026-01-17 12:16:13.98	278.22	12.33	-44.9	-47.7	16.6	0.00e+00	0	39	0	306184192	60	5279
2026-01-17 12:16:14.98	278.42	12.33	-44.9	-47.8	16.5	0.00e+00	0	39	0	308281344	60	5316
2026-01-17 12:16:15.97	278.61	12.33	-44.9	-47.8	16.6	0.00e+00	0	39	0	309329920	60	5282
2026-01-17 12:16:16.96	278.80	12.33	-44.7	-47.5	16.9	0.00e+00	0	39	0	311427072	60	5144
2026-01-17 12:16:17.96	278.99	12.33	-44.7	-47.5	16.9	0.00e+00	0	39	0	313524224	60	5133
2026-01-17 12:16:18.95	279.19	12.33	-44.8	-47.6	16.8	0.00e+00	0	39	0	315621376	60	5179
2026-01-17 12:16:19.95	279.38	12.33	-44.4	-47.2	17.1	0.00e+00	0	39	0	316669952	60	4950
2026-01-17 12:16:20.94	279.57	12.33	-44.5	-47.3	17.0	0.00e+00	0	39	0	318767104	60	5021
2026-01-17 12:16:21.94	279.77	12.33	-44.5	-47.3	17.0	0.00e+00	0	39	0	320864256	60	5011
2026-01-17 12:16:22.93	279.96	12.32	-44.6	-47.5	16.8	0.00e+00	0	39	0	322961408	60	5125
2026-01-17 12:16:23.92	280.15	12.32	-44.6	-47.4	16.9	0.00e+00	0	39	0	325058560	60	5099
2026-01-17 12:16:24.92	280.35	12.32	-44.6	-47.4	16.9	0.00e+00	0	39	0	326107136	60	5093
2026-01-17 12:16:25.91	280.54	12.32	-44.6	-47.4	16.9	0.00e+00	0	39	0	328204288	60	5076
2026-01-17 12:16:26.91	280.73	12.31	-44.6	-47.4	16.9	0.00e+00	0	39	0	330301440	60	5050
2026-01-17 12:16:27.90	280.93	12.31	-44.5	-47.2	17.1	0.00e+00	0	39	0	332398592	60	4972
2026-01-17 12:16:28.90	281.12	12.31	-44.4	-47.1	17.2	0.00e+00	0	39	0	333447168	60	4909
2026-01-17 12:16:29.89	281.31	12.30	-44.5	-47.3	17.0	0.00e+00	0	39	0	335544320	60	5018
2026-01-17 12:16:30.89	281.51	12.30	-44.6	-47.4	16.9	0.00e+00	0	39	0	337641472	60	5060
2026-01-17 12:16:31.88	281.70	12.30	-44.7	-47.5	16.9	0.00e+00	0	39	0	339738624	60	5114
2026-01-17 12:16:32.88	281.89	12.29	-44.7	-47.5	16.8	0.00e+00	0	39	0	341835776	60	5149
2026-01-17 12:16:33.87	282.08	12.29	-44.6	-47.4	16.9	0.00e+00	0	39	0	342884352	60	5042
2026-01-17 12:16:34.87	282.28	12.28	-44.6	-47.3	17.0	0.00e+00	0	39	0	344981504	60	5021
2026-01-17 12:16:35.86	282.47	12.28	-44.4	-47.1	17.2	0.00e+00	0	39	0	347078656	60	4886
2026-01-17 12:16:36.85	282.66	12.27	-44.6	-47.3	17.1	0.00e+00	0	39	0	349175808	60	5002
2026-01-17 12:16:37.86	282.86	12.26	-44.5	-47.2	17.1	0.00e+00	0	39	0	350224384	60	4973
2026-01-17 12:16:38.86	283.05	12.26	-44.7	-47.5	16.8	0.00e+00	0	39	0	352321536	60	5142
2026-01-17 12:16:39.93	283.26	12.25	-44.7	-47.5	16.9	0.00e+00	0	39	0	354418688	60	5108
2026-01-17 12:16:40.83	283.43	12.24	-44.9	-47.7	16.6	0.00e+00	0	39	0	356515840	60	5274
2026-01-17 12:16:42.11	283.68	12.23	-45.0	-47.9	16.5	0.00e+00	0	39	0	358612992	60	5371
2026-01-17 12:16:42.83	283.82	12.23	-44.8	-47.7	16.6	0.00e+00	0	39	0	359661568	60	5258
2026-01-17 12:16:44.11	284.06	12.22	-44.7	-47.6	16.7	0.00e+00	0	39	0	362807296	60	5171
2026-01-17 12:16:45.29	284.29	12.21	-44.5	-47.3	17.0	0.00e+00	0	39	0	364904448	60	5026
2026-01-17 12:16:46.15	284.46	12.20	-44.3	-47.1	17.2	0.00e+00	0	39	0	365953024	60	4889
2026-01-17 12:16:47.29	284.67	12.19	-44.0	-46.7	17.6	0.00e+00	0	39	0	368050176	60	4654
2026-01-17 12:16:48.14	284.84	12.18	-44.0	-46.7	17.5	0.00e+00	0	39	0	370147328	59	4947
2026-01-17 12:16:49.31	285.06	12.17	-44.0	-46.6	17.6	0.00e+00	0	39	0	372244480	59	4884
2026-01-17 12:16:50.16	285.23	12.16	-44.1	-46.7	17.5	0.00e+00	0	39	0	373293056	59	4954
2026-01-17 12:16:51.30	285.45	12.15	-44.1	-46.7	17.5	0.00e+00	0	39	0	375390208	59	4954
2026-01-17 12:16:52.15	285.61	12.14	-44.3	-47.0	17.2	0.00e+00	0	39	0	377487360	59	5124
2026-01-17 12:16:53.29	285.83	12.13	-44.3	-47.0	17.2	0.00e+00	0	39	0	379584512	59	5124
2026-01-17 12:16:54.17	286.00	12.12	-44.2	-46.9	17.3	0.00e+00	0	39	0	381681664	59	5100
2026-01-17 12:16:55.52	286.25	12.11	-44.1	-46.7	17.5	0.00e+00	0	39	0	383778816	59	4950
2026-01-17 12:16:56.23	286.39	12.10	-43.9	-46.5	17.7	0.00e+00	0	39	0	384827392	59	4832
2026-01-17 12:16:57.71	286.67	12.08	-44.0	-46.6	17.6	0.00e+00	0	39	0	387973120	59	4887
2026-01-17 12:16:58.42	286.81	12.07	-43.9	-46.4	17.7	0.00e+00	0	39	0	389021696	59	4810
2026-01-17 12:16:59.70	287.05	12.06	-44.0	-46.6	17.6	0.00e+00	0	39	0	391118848	59	4911
2026-01-17 12:17:00.43	287.19	12.05	-44.2	-46.8	17.3	0.00e+00	0	39	0	393216000	59	5040
2026-01-17 12:17:01.71	287.44	12.03	-44.3	-47.0	17.2	0.00e+00	0	39	0	395313152	59	5136
2026-01-17 12:17:02.42	287.57	12.02	-44.4	-47.1	17.1	0.00e+00	0	39	0	396361728	59	5209
2026-01-17 12:17:03.70	287.81	12.01	-44.6	-47.3	16.9	0.00e+00	0	39	0	399507456	59	5310
2026-01-17 12:17:04.42	287.95	12.00	-44.4	-47.1	17.1	0.00e+00	0	39	0	400556032	59	5207
2026-01-17 12:17:05.70	288.19	11.98	-44.3	-47.0	17.1	0.00e+00	0	39	0	402653184	59	5148
2026-01-17 12:17:06.55	288.36	11.97	-44.2	-46.8	17.4	0.00e+00	0	39	0	404750336	59	5013
2026-01-17 12:17:07.69	288.57	11.95	-43.9	-46.4	17.7	0.00e+00	0	39	0	406847488	59	4804
2026-01-17 12:17:08.70	288.76	11.93	-43.9	-46.5	17.7	0.00e+00	0	39	0	408944640	59	4840
2026-01-17 12:17:09.85	288.98	11.92	-43.9	-46.4	17.7	0.00e+00	0	39	0	411041792	59	4813
2026-01-17 12:17:10.72	289.14	11.90	-44.0	-46.6	17.5	0.00e+00	0	39	0	412090368	59	4913
2026-01-17 12:17:12.01	289.39	11.88	-44.1	-46.7	17.4	0.00e+00	0	39	0	414187520	59	4962
2026-01-17 12:17:12.72	289.52	11.87	-44.2	-46.9	17.3	0.00e+00	0	39	0	416284672	59	5070
2026-01-17 12:17:14.00	289.76	11.85	-44.3	-47.0	17.2	0.00e+00	0	39	0	418381824	59	5122
2026-01-17 12:17:14.71	289.90	11.84	-44.3	-46.9	17.3	0.00e+00	0	39	0	419430400	59	5077
2026-01-17 12:17:15.99	290.14	11.82	-44.1	-46.7	17.5	0.00e+00	0	39	0	422576128	59	4942
2026-01-17 12:17:16.72	290.27	11.81	-44.2	-46.8	17.3	0.00e+00	0	39	0	423624704	59	4992
2026-01-17 12:17:17.99	290.51	11.78	-44.1	-46.7	17.5	0.00e+00	0	39	0	425721856	59	4947
2026-01-17 12:17:18.72	290.65	11.77	-44.1	-46.6	17.5	0.00e+00	0	39	0	427819008	59	4924
2026-01-17 12:17:20.00	290.89	11.75	-44.1	-46.6	17.5	0.00e+00	0	39	0	429916160	59	4918
2026-01-17 12:17:20.74	291.03	11.74	-44.0	-46.6	17.6	0.00e+00	0	39	0	430964736	59	4880
2026-01-17 12:17:22.02	291.26	11.71	-44.2	-46.8	17.3	0.00e+00	0	39	0	433061888	59	5005
2026-01-17 12:17:22.75	291.40	11.70	-44.2	-46.8	17.3	0.00e+00	0	39	0	435159040	59	5003
2026-01-17 12:17:24.04	291.64	11.67	-44.2	-46.9	17.3	0.00e+00	0	39	0	437256192	59	5051
2026-01-17 12:17:24.75	291.77	11.66	-44.4	-47.1	17.1	0.00e+00	0	39	0	438304768	59	5191
2026-01-17 12:17:26.03	292.01	11.64	-44.4	-47.1	17.1	0.00e+00	0	39	0	441450496	59	5179
2026-01-17 12:17:26.74	292.14	11.62	-44.4	-47.1	17.1	0.00e+00	0	39	0	442499072	59	5186
2026-01-17 12:17:28.02	292.38	11.60	-44.4	-47.0	17.2	0.00e+00	0	39	0	444596224	59	5136
2026-01-17 12:17:28.74	292.51	11.58	-44.4	-47.1	17.1	0.00e+00	0	39	0	445644800	59	5169
2026-01-17 12:17:30.02	292.75	11.56	-44.4	-47.0	17.1	0.00e+00	0	39	0	448790528	59	5149
2026-01-17 12:17:30.75	292.88	11.54	-44.4	-47.1	17.0	0.00e+00	0	39	0	449839104	59	5210
2026-01-17 12:17:32.03	293.12	11.51	-44.5	-47.3	16.8	0.00e+00	0	39	0	451936256	59	5323
2026-01-17 12:17:32.74	293.25	11.50	-44.6	-47.3	16.8	0.00e+00	0	39	0	454033408	59	5335
2026-01-17 12:17:34.01	293.48	11.47	-44.7	-47.6	16.7	0.00e+00	0	39	0	456130560	60	5170
2026-01-17 12:17:34.73	293.61	11.46	-44.8	-47.6	16.6	0.00e+00	0	39	0	457179136	60	5203
2026-01-17 12:17:36.01	293.85	11.43	-44.8	-47.6	16.6	0.00e+00	0	39	0	459276288	60	5201
2026-01-17 12:17:36.75	293.98	11.41	-44.7	-47.6	16.7	0.00e+00	0	39	0	461373440	60	5160
2026-01-17 12:17:38.02	294.21	11.38	-44.6	-47.4	16.9	0.00e+00	0	39	0	463470592	60	5049
2026-01-17 12:17:38.74	294.34	11.37	-44.5	-47.2	17.0	0.00e+00	0	39	0	464519168	60	4980
2026-01-17 12:17:40.01	294.57	11.34	-44.4	-47.1	17.1	0.00e+00	0	39	0	467664896	60	4913
2026-01-17 12:17:40.74	294.71	11.32	-44.4	-47.1	17.1	0.00e+00	0	39	0	468713472	60	4893
2026-01-17 12:17:42.02	294.94	11.29	-44.1	-46.8	17.4	0.00e+00	0	39	0	470810624	60	4726
2026-01-17 12:17:42.73	295.07	11.28	-44.1	-46.7	17.5	0.00e+00	0	39	0	471859200	60	4664
2026-01-17 12:17:44.15	295.32	11.24	-44.0	-46.6	17.5	0.00e+00	0	39	0	475004928	59	4887
2026-01-17 12:17:44.86	295.45	11.23	-43.9	-46.5	17.6	0.00e+00	0	39	0	476053504	59	4851
2026-01-17 12:17:46.16	295.69	11.19	-44.1	-46.7	17.4	0.00e+00	0	39	0	479199232	59	4970
2026-01-17 12:17:46.87	295.81	11.18	-43.9	-46.5	17.6	0.00e+00	0	39	0	480247808	59	4834
2026-01-17 12:17:48.21	296.06	11.14	-44.1	-46.7	17.4	0.00e+00	0	39	0	482344960	59	4939
2026-01-17 12:17:48.92	296.18	11.13	-44.0	-46.5	17.5	0.00e+00	0	39	0	484442112	59	4859
2026-01-17 12:17:50.26	296.42	11.09	-43.7	-46.2	17.8	0.00e+00	0	39	0	486539264	59	4699
2026-01-17 12:17:50.97	296.55	11.07	-43.7	-46.3	17.8	0.00e+00	0	39	0	487587840	59	4709
2026-01-17 12:17:52.25	296.78	11.04	-43.7	-46.1	17.9	0.00e+00	0	39	0	490733568	59	4650
2026-01-17 12:17:52.97	296.91	11.02	-43.8	-46.3	17.8	0.00e+00	0	39	0	491782144	59	4709
2026-01-17 12:17:54.25	297.13	10.99	-43.9	-46.5	17.6	0.00e+00	0	39	0	493879296	59	4821
2026-01-17 12:17:54.97	297.26	10.97	-44.0	-46.5	17.5	0.00e+00	0	39	0	494927872	59	4856
2026-01-17 12:17:56.24	297.49	10.94	-44.3	-46.9	17.2	0.00e+00	0	39	0	498073600	59	5093
2026-01-17 12:17:56.97	297.61	10.92	-44.3	-47.0	17.1	0.00e+00	0	39	0	499122176	59	5143
2026-01-17 12:17:58.25	297.84	10.88	-44.6	-47.3	16.8	0.00e+00	0	39	0	501219328	59	5338
2026-01-17 12:17:58.97	297.97	10.86	-44.5	-47.3	16.8	0.00e+00	0	39	0	503316480	59	5293
2026-01-17 12:18:00.25	298.19	10.83	-44.5	-47.2	16.9	0.00e+00	0	39	0	505413632	59	5234
2026-01-17 12:18:00.98	298.32	10.81	-44.2	-46.9	17.2	0.00e+00	0	39	0	506462208	59	5058
2026-01-17 12:18:02.25	298.54	10.77	-44.1	-46.7	17.3	0.00e+00	0	39	0	508559360	59	4980
2026-01-17 12:18:02.96	298.67	10.75	-44.2	-46.9	17.2	0.00e+00	0	39	0	510656512	59	5053
2026-01-17 12:18:04.24	298.89	10.72	-44.2	-46.8	17.3	0.00e+00	0	39	0	512753664	59	5028
2026-01-17 12:18:05.08	299.04	10.70	-44.1	-46.7	17.4	0.00e+00	0	39	0	513802240	59	4953
2026-01-17 12:18:06.22	299.23	10.66	-44.3	-47.0	17.2	0.00e+00	0	39	0	515899392	59	5104
2026-01-17 12:18:07.07	299.38	10.64	-44.3	-47.0	17.1	0.00e+00	0	39	0	517996544	59	5116
2026-01-17 12:18:08.20	299.58	10.61	-44.4	-47.1	17.0	0.00e+00	0	39	0	520093696	59	5180
2026-01-17 12:18:09.06	299.73	10.58	-44.4	-47.1	17.0	0.00e+00	0	39	0	522190848	59	5186
2026-01-17 12:18:10.19	299.92	10.55	-44.3	-47.0	17.1	0.00e+00	0	39	0	524288000	59	5134
2026-01-17 12:18:11.05	300.07	10.52	-44.3	-46.9	17.1	0.00e+00	0	39	0	525336576	59	5089
2026-01-17 12:18:12.21	300.27	10.49	-44.2	-46.9	17.2	0.00e+00	0	39	0	527433728	59	5062
2026-01-17 12:18:13.07	300.42	10.46	-44.2	-46.8	17.2	0.00e+00	0	39	0	529530880	59	5030
2026-01-17 12:18:14.20	300.61	10.43	-44.2	-46.8	17.2	0.00e+00	0	39	0	531628032	59	5040
2026-01-17 12:18:15.06	300.76	10.40	-44.2	-46.8	17.2	0.00e+00	0	39	0	532676608	59	5021
2026-01-17 12:18:16.20	300.95	10.37	-44.1	-46.8	17.3	0.00e+00	0	39	0	534773760	59	4992
2026-01-17 12:18:17.05	301.09	10.34	-44.0	-46.6	17.5	0.00e+00	0	39	0	536870912	59	4887
2026-01-17 12:18:18.37	301.32	10.30	-44.2	-46.8	17.2	0.00e+00	0	39	0	538968064	59	5008
2026-01-17 12:18:19.08	301.44	10.28	-44.2	-46.8	17.2	0.00e+00	0	39	0	540016640	59	5039
2026-01-17 12:18:20.36	301.66	10.24	-44.3	-47.0	17.1	0.00e+00	0	39	0	543162368	59	5106
2026-01-17 12:18:21.08	301.78	10.22	-44.4	-47.1	17.0	0.00e+00	0	39	0	544210944	59	5186
2026-01-17 12:18:22.64	302.04	10.17	-44.4	-47.1	17.0	0.00e+00	0	39	0	547356672	59	5181
2026-01-17 12:18:23.28	302.15	10.15	-44.3	-47.0	17.1	0.00e+00	0	39	0	548405248	59	5103
2026-01-17 12:18:24.70	302.38	10.10	-44.5	-47.3	16.8	0.00e+00	0	39	0	551550976	59	5286
2026-01-17 12:18:25.42	302.50	10.08	-44.4	-47.2	16.9	0.00e+00	0	39	0	552599552	59	5263
2026-01-17 12:18:26.74	302.72	10.04	-44.5	-47.3	16.8	0.00e+00	0	39	0	554696704	59	5328
2026-01-17 12:18:27.45	302.84	10.01	-44.5	-47.4	16.7	0.00e+00	0	39	0	555745280	59	5353
2026-01-17 12:18:28.81	303.07	9.97	-44.8	-47.7	16.5	0.00e+00	0	39	0	558891008	60	5262
2026-01-17 12:18:29.52	303.19	9.95	-44.8	-47.7	16.5	0.00e+00	0	39	0	559939584	60	5238
2026-01-17 12:18:30.80	303.40	9.90	-45.0	-48.0	16.2	0.00e+00	0	39	0	562036736	60	5456
2026-01-17 12:18:31.53	303.52	9.88	-45.1	-48.2	16.1	0.00e+00	0	39	0	564133888	60	5557
2026-01-17 12:18:32.81	303.73	9.84	-45.4	-48.5	15.7	0.00e+00	0	39	0	566231040	61	5446
2026-01-17 12:18:33.53	303.85	9.81	-45.6	-48.8	15.4	0.00e+00	0	39	0	567279616	62	5294
2026-01-17 12:18:34.81	304.06	9.77	-45.9	-49.2	15.0	0.00e+00	0	39	0	570425344	62	5590
2026-01-17 12:18:35.52	304.17	9.75	-45.9	-49.2	15.1	0.00e+00	0	39	0	571473920	62	5574
2026-01-17 12:18:36.80	304.38	9.70	-45.7	-49.0	15.2	0.00e+00	0	39	0	573571072	62	5460
2026-01-17 12:18:37.51	304.50	9.68	-45.7	-48.9	15.3	0.00e+00	0	39	0	574619648	62	5400
2026-01-17 12:18:38.79	304.70	9.64	-45.6	-48.9	15.3	0.00e+00	0	39	0	577765376	62	5369
2026-01-17 12:18:39.58	304.83	9.61	-45.7	-49.0	15.3	0.00e+00	0	39	0	578813952	62	5428
2026-01-17 12:18:41.13	305.08	9.56	-45.8	-49.1	15.2	0.00e+00	0	39	0	581959680	62	5483
2026-01-17 12:18:41.83	305.20	9.53	-45.8	-49.1	15.1	0.00e+00	0	39	0	583008256	62	5518
2026-01-17 12:18:43.11	305.40	9.49	-45.7	-48.9	15.3	0.00e+00	0	39	0	585105408	62	5400
2026-01-17 12:18:43.82	305.51	9.46	-45.6	-48.9	15.3	0.00e+00	0	39	0	587202560	62	5375
2026-01-17 12:18:45.23	305.74	9.41	-45.7	-49.1	15.1	0.00e+00	0	39	0	589299712	62	5514
2026-01-17 12:18:45.94	305.85	9.39	-45.6	-49.1	15.2	0.00e+00	0	39	0	590348288	62	5465
2026-01-17 12:18:47.21	306.06	9.34	-45.7	-49.1	15.2	0.00e+00	0	39	0	593494016	62	5493
2026-01-17 12:18:47.93	306.17	9.32	-45.6	-49.0	15.3	0.00e+00	0	39	0	594542592	62	5421
2026-01-17 12:18:49.20	306.37	9.27	-45.6	-49.1	15.2	0.00e+00	0	39	0	596639744	62	5470
2026-01-17 12:18:49.95	306.49	9.24	-45.7	-49.2	15.1	0.00e+00	0	39	0	598736896	62	5570
2026-01-17 12:18:51.22	306.69	9.20	-45.9	-49.4	14.8	0.00e+00	0	39	0	600834048	62	5721
2026-01-17 12:18:51.95	306.80	9.17	-46.1	-49.6	14.7	0.00e+00	0	39	0	601882624	62	5821
2026-01-17 12:18:53.23	307.01	9.13	-46.3	-50.0	14.3	0.00e+00	0	39	0	605028352	63	5734
2026-01-17 12:18:53.95	307.12	9.10	-46.3	-50.0	14.3	3.00e-06	0	39	0	606076928	63	5739
2026-01-17 12:18:55.23	307.32	9.05	-46.3	-49.9	14.3	7.00e-07	0	39	0	608174080	63	5714
2026-01-17 12:18:55.94	307.43	9.03	-46.3	-50.0	14.2	7.00e-07	0	39	0	609222656	63	5781
2026-01-17 12:18:57.22	307.63	8.98	-50.3	-65.6	3.8	9.59e-01	0	39	104	611319808	71	21936
2026-01-17 12:18:58.10	307.76	8.95	-50.4	-65.9	3.8	1.49e+00	0	39	104	611319808	71	22676
2026-01-17 12:18:59.24	307.94	8.91	-50.6	-66.0	3.8	1.49e+00	0	39	104	611319808	72	21607
2026-01-17 12:19:00.26	308.10	8.87	-50.6	-66.1	3.8	1.49e+00	0	39	104	611319808	72	21776
2026-01-17 12:19:01.43	308.28	8.82	-50.8	-66.2	3.8	1.49e+00	0	39	104	611319808	72	22053
2026-01-17 12:19:02.31	308.41	8.79	-50.7	-66.2	3.8	1.49e+00	0	39	104	611319808	72	22217
2026-01-17 12:19:03.62	308.61	8.74	-50.8	-66.2	3.8	1.49e+00	0	39	104	611319808	72	22244
2026-01-17 12:19:04.33	308.72	8.72	-50.9	-66.3	3.8	1.49e+00	0	39	104	611319808	72	22272
2026-01-17 12:19:05.83	308.95	8.66	-51.0	-66.3	3.8	1.49e+00	0	39	104	611319808	72	22407
2026-01-17 12:19:06.54	309.06	8.63	-51.0	-66.3	3.8	1.49e+00	0	39	104	611319808	72	22423
2026-01-17 12:19:07.83	309.25	8.58	-50.9	-66.3	3.8	1.49e+00	0	39	104	611319808	72	22428
2026-01-17 12:19:08.54	309.36	8.56	-51.0	-66.3	3.8	1.49e+00	0	39	104	611319808	72	22401
2026-01-17 12:19:09.81	309.55	8.51	-50.9	-66.4	3.8	1.49e+00	0	39	104	611319808	72	22555
2026-01-17 12:19:10.52	309.66	8.48	-51.1	-66.3	3.8	1.49e+00	0	39	104	611319808	72	22463
2026-01-17 12:19:11.80	309.85	8.43	-51.0	-66.3	3.8	1.49e+00	0	39	104	611319808	72	22422
2026-01-17 12:19:12.51	309.95	8.40	-51.0	-66.3	3.8	1.49e+00	0	39	104	611319808	72	22476
2026-01-17 12:19:13.79	310.14	8.35	-51.0	-66.3	3.8	1.49e+00	0	39	104	611319808	72	22393
2026-01-17 12:19:14.51	310.25	8.33	-51.0	-66.3	3.8	1.49e+00	0	39	104	611319808	72	22399
2026-01-17 12:19:15.79	310.44	8.28	-50.9	-66.3	3.8	1.49e+00	0	39	104	611319808	72	22342
2026-01-17 12:19:16.50	310.55	8.25	-50.8	-66.3	3.8	1.49e+00	0	39	104	611319808	72	22315
2026-01-17 12:19:17.78	310.74	8.20	-50.7	-66.2	3.8	1.49e+00	0	39	104	611319808	72	22204
2026-01-17 12:19:18.49	310.84	8.17	-50.7	-66.3	3.8	1.49e+00	0	39	104	611319808	72	22279
2026-01-17 12:19:19.76	311.03	8.12	-50.7	-66.3	3.8	1.49e+00	0	39	104	611319808	72	22316
2026-01-17 12:19:20.47	311.13	8.09	-50.7	-66.3	3.8	1.49e+00	0	39	104	611319808	72	22263
2026-01-17 12:19:21.75	311.32	8.04	-50.7	-66.3	3.8	1.49e+00	0	39	104	611319808	72	22263
2026-01-17 12:19:22.46	311.42	8.02	-50.6	-66.3	3.8	1.49e+00	0	39	104	611319808	72	22281
2026-01-17 12:19:23.74	311.61	7.96	-50.6	-66.2	3.8	1.49e+00	0	39	104	611319808	72	22180
2026-01-17 12:19:24.45	311.71	7.94	-50.6	-66.2	3.8	1.49e+00	0	39	104	611319808	72	22262
2026-01-17 12:19:25.72	311.89	7.89	-50.6	-66.2	3.8	1.49e+00	0	39	104	611319808	72	22214
2026-01-17 12:19:26.46	312.00	7.86	-50.7	-66.2	3.8	1.49e+00	0	39	104	611319808	72	22180
2026-01-17 12:19:27.74	312.18	7.81	-50.7	-66.2	3.8	1.49e+00	0	39	104	611319808	72	22246
2026-01-17 12:19:28.45	312.28	7.78	-50.7	-66.2	3.8	1.49e+00	0	39	104	611319808	72	22081
2026-01-17 12:19:29.73	312.47	7.73	-50.6	-66.2	3.8	1.49e+00	0	39	104	611319808	72	22120
2026-01-17 12:19:30.44	312.57	7.70	-50.6	-66.2	3.8	1.49e+00	0	39	104	611319808	72	22157
2026-01-17 12:19:31.71	312.75	7.65	-50.6	-66.2	3.8	1.49e+00	0	39	104	611319808	72	22171
2026-01-17 12:19:32.42	312.85	7.62	-50.6	-66.2	3.8	1.49e+00	0	39	104	611319808	72	22169
2026-01-17 12:19:33.70	313.03	7.57	-50.6	-66.2	3.8	1.49e+00	0	39	104	611319808	72	22180
2026-01-17 12:19:34.43	313.13	7.54	-50.6	-66.2	3.8	1.49e+00	0	39	104	611319808	72	22158
2026-01-17 12:19:35.70	313.31	7.48	-50.6	-66.2	3.8	1.49e+00	0	39	104	611319808	72	22200
2026-01-17 12:19:36.43	313.41	7.45	-50.6	-66.2	3.8	1.49e+00	0	39	104	611319808	72	22172
2026-01-17 12:19:37.70	313.59	7.40	-50.6	-66.2	3.8	1.49e+00	0	39	104	611319808	72	22129
2026-01-17 12:19:38.41	313.69	7.37	-50.6	-66.2	3.8	1.49e+00	0	39	104	611319808	72	22175
2026-01-17 12:19:39.69	313.87	7.32	-50.6	-66.2	3.8	1.49e+00	0	39	104	611319808	72	22125
2026-01-17 12:19:40.40	313.97	7.29	-50.6	-66.2	3.8	1.49e+00	0	39	104	611319808	72	22123
2026-01-17 12:19:41.68	314.14	7.24	-50.6	-66.2	3.8	1.49e+00	0	39	104	611319808	72	22184
2026-01-17 12:19:42.39	314.24	7.21	-50.6	-66.2	3.8	1.49e+00	0	39	104	611319808	72	22197
2026-01-17 12:19:43.68	314.42	7.16	-50.6	-66.2	3.8	1.49e+00	0	39	104	611319808	72	22118
2026-01-17 12:19:44.39	314.52	7.13	-50.6	-66.2	3.8	1.49e+00	0	39	104	611319808	72	22082
2026-01-17 12:19:45.66	314.69	7.08	-50.6	-66.2	3.8	1.49e+00	0	39	104	611319808	72	22070
2026-01-17 12:19:46.39	314.79	7.04	-50.6	-66.2	3.8	1.49e+00	0	39	104	611319808	72	22105
2026-01-17 12:19:47.67	314.97	6.99	-50.6	-66.2	3.8	1.49e+00	0	39	104	611319808	72	22108
2026-01-17 12:19:48.39	315.06	6.96	-50.6	-66.2	3.8	1.49e+00	0	39	104	611319808	72	22150
2026-01-17 12:19:49.67	315.24	6.91	-50.6	-66.2	3.8	1.49e+00	0	39	104	611319808	72	22170
2026-01-17 12:19:50.39	315.33	6.88	-50.6	-66.2	3.8	1.49e+00	0	39	104	611319808	72	22091
2026-01-17 12:19:51.67	315.51	6.82	-50.6	-66.2	3.8	1.49e+00	0	39	104	611319808	72	22133
2026-01-17 12:19:52.38	315.60	6.80	-50.6	-66.2	3.8	1.49e+00	0	39	104	611319808	72	22072
2026-01-17 12:19:53.66	315.77	6.74	-50.6	-66.2	3.8	1.49e+00	0	39	104	611319808	72	22108
2026-01-17 12:19:54.37	315.87	6.71	-50.6	-66.2	3.8	1.49e+00	0	39	104	611319808	72	22198
2026-01-17 12:19:55.65	316.04	6.66	-50.6	-66.2	3.8	1.49e+00	0	39	104	611319808	72	22069
2026-01-17 12:19:56.37	316.13	6.63	-50.6	-66.2	3.8	1.49e+00	0	39	104	611319808	72	22159
2026-01-17 12:19:57.65	316.30	6.57	-50.6	-66.2	3.8	1.49e+00	0	39	104	611319808	72	22107
2026-01-17 12:19:58.37	316.40	6.54	-50.6	-66.2	3.8	1.49e+00	0	39	104	611319808	72	22133
2026-01-17 12:19:59.65	316.57	6.49	-50.6	-66.2	3.8	1.49e+00	0	39	104	611319808	72	22057
2026-01-17 12:20:00.36	316.66	6.46	-50.6	-66.2	3.8	1.49e+00	0	39	104	611319808	72	22097
2026-01-17 12:20:01.64	316.83	6.41	-50.6	-66.2	3.8	1.49e+00	0	39	104	611319808	72	22074
2026-01-17 12:20:02.35	316.92	6.37	-50.6	-66.2	3.8	1.49e+00	0	39	104	611319808	72	22101
2026-01-17 12:20:03.62	317.08	6.32	-50.6	-66.1	3.8	1.49e+00	0	39	104	611319808	72	22000
2026-01-17 12:20:04.36	317.18	6.29	-50.6	-66.2	3.8	1.49e+00	0	39	104	611319808	72	22056
2026-01-17 12:20:05.64	317.35	6.24	-50.6	-66.2	3.8	1.49e+00	0	39	104	611319808	72	22094
2026-01-17 12:20:06.35	317.44	6.20	-50.6	-66.2	3.8	1.49e+00	0	39	104	611319808	72	22101
2026-01-17 12:20:07.63	317.60	6.15	-50.6	-66.1	3.8	1.49e+00	0	39	104	611319808	72	21992
2026-01-17 12:20:08.34	317.69	6.12	-50.6	-66.2	3.8	1.49e+00	0	39	104	611319808	72	22051
2026-01-17 12:20:09.62	317.86	6.07	-50.6	-66.2	3.8	1.49e+00	0	39	104	611319808	72	22117
2026-01-17 12:20:10.34	317.95	6.03	-50.6	-66.2	3.8	1.49e+00	0	39	104	611319808	72	22106
2026-01-17 12:20:11.62	318.11	5.98	-50.6	-66.2	3.8	1.49e+00	0	39	104	611319808	72	22108
2026-01-17 12:20:12.33	318.20	5.95	-50.6	-66.2	3.8	1.49e+00	0	39	104	611319808	72	22112
2026-01-17 12:20:13.61	318.36	5.89	-50.6	-66.2	3.8	1.49e+00	0	39	104	611319808	72	22073
2026-01-17 12:20:14.32	318.45	5.86	-50.6	-66.2	3.8	1.49e+00	0	40	104	611319808	72	22019
2026-01-17 12:20:15.59	318.61	5.81	-50.6	-66.2	3.8	1.49e+00	0	39	104	611319808	72	22167
2026-01-17 12:20:16.30	318.70	5.78	-50.6	-66.2	3.8	1.49e+00	0	39	104	611319808	72	22055
2026-01-17 12:20:17.58	318.86	5.72	-50.6	-66.2	3.8	1.49e+00	0	39	104	611319808	72	22052
2026-01-17 12:20:18.29	318.95	5.69	-50.6	-66.2	3.8	1.49e+00	0	39	104	611319808	72	22078
2026-01-17 12:20:19.57	319.11	5.64	-50.6	-66.2	3.8	1.49e+00	0	39	104	611319808	72	22147
2026-01-17 12:20:20.28	319.20	5.61	-50.6	-66.2	3.8	1.49e+00	0	39	104	611319808	72	22103
2026-01-17 12:20:21.55	319.36	5.55	-50.6	-66.2	3.8	1.49e+00	0	39	104	611319808	72	22134
2026-01-17 12:20:22.26	319.44	5.52	-50.6	-66.2	3.8	1.49e+00	0	39	104	611319808	72	22158
2026-01-17 12:20:23.54	319.60	5.47	-50.6	-66.2	3.8	1.49e+00	0	39	104	611319808	72	22040
2026-01-17 12:20:24.25	319.69	5.43	-50.6	-66.1	3.8	1.49e+00	0	39	104	611319808	72	21974
2026-01-17 12:20:25.53	319.84	5.38	-50.6	-66.2	3.8	1.49e+00	0	39	104	611319808	72	22138
2026-01-17 12:20:26.24	319.93	5.35	-50.6	-66.2	3.8	1.49e+00	0	39	104	611319808	72	22081
2026-01-17 12:20:27.52	320.09	5.29	-50.6	-66.2	3.8	1.49e+00	0	39	104	611319808	72	22054
2026-01-17 12:20:28.24	320.17	5.26	-50.6	-66.2	3.8	1.49e+00	0	39	104	611319808	72	22019
2026-01-17 12:20:29.52	320.33	5.21	-50.6	-66.2	3.8	1.49e+00	0	39	104	611319808	72	22075
2026-01-17 12:20:30.23	320.41	5.17	-50.6	-66.2	3.8	1.49e+00	0	39	104	611319808	72	22066
2026-01-17 12:20:31.50	320.57	5.12	-50.6	-66.1	3.8	1.49e+00	0	39	104	611319808	72	21994
2026-01-17 12:20:32.21	320.65	5.09	-50.6	-66.2	3.8	1.49e+00	0	39	104	611319808	72	22123
2026-01-17 12:20:33.49	320.81	5.03	-50.6	-66.2	3.8	1.49e+00	0	39	104	611319808	72	22033
2026-01-17 12:20:34.21	320.89	5.00	-50.6	-66.2	3.8	1.49e+00	0	39	104	611319808	72	22039

#Closed at: 2026-01-17 12:20:35
#Recorded file [611 MB]: D:/Data/31040_260117_151201.dat