passes_logs/2026/01/17/T1/T1__20260117_005843_NOAA_20_JPSS-1_rec.log

#Pass ID: 20260117_005843_NOAA 20 (JPSS-1)
#Satellite: NOAA 20 (JPSS-1)
#Configuration: NOAA 20
#almurnet v.1.7.20251203
#Start time: 2026-01-17 00:58:43

#Version: 2.0.20230620
#Station: T1
#Location: 37.570604 lon 55.790049 lat
#TLE: 1 43013U 17073A   26016.24631778  .00000038  00000+0  39093-4 0  9990
#TLE: 2 43013  98.7637 317.1726 0001455  37.6755 322.4523 14.19536243422915

#Time	Az	El	Level	Level2	SNR	BER	BlckErr	Temp	State	Recorded	gain1	gain2
2026-01-17 00:58:43.35	8.70	5.01	-49.6	-65.9	3.8	1.49e+00	0	38	0	0	70	24022
2026-01-17 00:58:44.34	8.64	5.08	-48.6	-65.4	3.8	1.49e+00	0	38	104	0	67	26963
2026-01-17 00:58:45.34	8.57	5.14	-48.6	-65.4	3.8	1.49e+00	0	38	104	0	67	27053
2026-01-17 00:58:46.33	8.51	5.21	-48.6	-65.5	3.8	1.49e+00	0	38	104	0	67	27112
2026-01-17 00:58:47.33	8.45	5.27	-48.6	-65.4	3.8	1.49e+00	0	38	104	0	67	27061
2026-01-17 00:58:48.32	8.39	5.34	-48.6	-65.4	3.8	1.49e+00	0	38	104	0	67	26953
2026-01-17 00:58:49.32	8.32	5.40	-48.6	-65.4	3.8	1.49e+00	0	38	104	0	67	27000
2026-01-17 00:58:50.32	8.26	5.47	-48.6	-65.5	3.8	1.49e+00	0	38	104	0	67	27116
2026-01-17 00:58:51.31	8.20	5.53	-48.6	-65.5	3.8	1.49e+00	0	38	104	0	67	27138
2026-01-17 00:58:52.31	8.13	5.60	-48.6	-65.4	3.8	1.49e+00	0	38	104	0	67	27001
2026-01-17 00:58:53.31	8.07	5.67	-48.6	-65.4	3.8	1.49e+00	0	38	104	0	67	27071
2026-01-17 00:58:54.31	8.00	5.73	-48.6	-65.4	3.8	1.49e+00	0	38	104	0	67	26870
2026-01-17 00:58:55.31	7.94	5.80	-48.6	-65.4	3.8	1.49e+00	0	38	104	0	67	26994
2026-01-17 00:58:56.30	7.87	5.86	-48.6	-65.4	3.8	1.49e+00	0	38	104	0	67	26914
2026-01-17 00:58:57.30	7.80	5.93	-48.6	-65.4	3.8	1.49e+00	0	38	104	0	67	26913
2026-01-17 00:58:58.30	7.74	6.00	-48.6	-65.4	3.8	1.49e+00	0	38	104	0	67	26833
2026-01-17 00:58:59.29	7.67	6.06	-48.6	-65.4	3.8	1.49e+00	0	38	104	0	67	26862
2026-01-17 00:59:00.29	7.61	6.13	-48.6	-65.4	3.8	1.49e+00	0	38	104	0	67	27073
2026-01-17 00:59:01.29	7.54	6.20	-48.6	-65.4	3.8	1.49e+00	0	38	104	0	67	26950
2026-01-17 00:59:02.29	7.47	6.26	-48.6	-65.4	3.8	1.49e+00	0	38	104	0	67	27056
2026-01-17 00:59:03.28	7.40	6.33	-48.6	-65.4	3.8	1.49e+00	0	38	104	0	67	27057
2026-01-17 00:59:04.28	7.33	6.40	-48.6	-65.5	3.8	1.49e+00	0	38	104	0	67	27087
2026-01-17 00:59:05.28	7.27	6.47	-48.6	-65.4	3.8	1.49e+00	0	39	104	0	67	27043
2026-01-17 00:59:06.27	7.20	6.53	-48.6	-65.5	3.8	1.49e+00	0	39	104	0	67	27091
2026-01-17 00:59:07.27	7.13	6.60	-48.6	-65.4	3.8	1.49e+00	0	39	104	0	67	26963
2026-01-17 00:59:08.27	7.06	6.67	-48.6	-65.4	3.8	1.49e+00	0	39	104	0	67	26955
2026-01-17 00:59:09.27	6.99	6.74	-48.6	-65.4	3.8	1.49e+00	0	39	104	0	67	26788
2026-01-17 00:59:10.26	6.92	6.81	-48.6	-65.3	3.8	1.49e+00	0	39	104	0	67	26746
2026-01-17 00:59:11.26	6.85	6.87	-48.6	-65.3	3.8	1.49e+00	0	39	104	0	67	26701
2026-01-17 00:59:12.26	6.78	6.94	-48.6	-65.2	3.8	1.49e+00	0	39	104	0	67	26458
2026-01-17 00:59:13.26	6.71	7.01	-48.6	-65.2	3.8	1.49e+00	0	39	104	0	67	26207
2026-01-17 00:59:14.25	6.64	7.08	-48.6	-65.0	3.8	1.49e+00	0	39	104	0	67	25740
2026-01-17 00:59:15.25	6.56	7.15	-48.6	-64.9	3.8	1.49e+00	0	39	104	0	67	25301
2026-01-17 00:59:16.25	6.49	7.22	-48.6	-64.5	3.8	1.49e+00	0	39	104	0	67	24272
2026-01-17 00:59:17.25	6.42	7.29	-48.5	-64.3	3.8	1.49e+00	0	39	104	0	67	23670
2026-01-17 00:59:18.25	6.34	7.36	-48.5	-64.0	3.8	1.49e+00	0	39	104	0	67	22970
2026-01-17 00:59:19.24	6.27	7.43	-48.5	-63.8	3.8	1.49e+00	0	39	104	0	67	22285
2026-01-17 00:59:20.24	6.20	7.50	-48.5	-63.7	3.8	1.49e+00	0	39	104	0	67	22144
2026-01-17 00:59:21.24	6.12	7.57	-48.5	-63.7	3.8	1.49e+00	0	39	104	0	67	22053
2026-01-17 00:59:22.24	6.05	7.64	-48.5	-63.8	3.8	1.49e+00	0	39	104	0	67	22508
2026-01-17 00:59:23.23	5.97	7.70	-48.5	-64.0	3.8	1.49e+00	0	39	104	0	67	23003
2026-01-17 00:59:24.23	5.90	7.78	-48.5	-64.4	3.8	1.49e+00	0	39	104	0	67	24102
2026-01-17 00:59:25.23	5.82	7.85	-48.6	-64.7	3.8	1.49e+00	0	39	104	0	67	24712
2026-01-17 00:59:26.22	5.75	7.92	-48.6	-65.0	3.8	1.49e+00	0	39	104	0	67	25706
2026-01-17 00:59:27.22	5.67	7.99	-48.6	-65.3	3.8	1.49e+00	0	39	104	0	67	26565
2026-01-17 00:59:28.22	5.59	8.06	-48.6	-65.4	3.8	1.49e+00	0	39	104	0	67	26999
2026-01-17 00:59:29.21	5.52	8.13	-48.6	-65.2	3.8	1.49e+00	0	39	104	0	67	26345
2026-01-17 00:59:30.21	5.44	8.20	-48.5	-64.2	3.8	1.49e+00	0	39	104	0	67	23443
2026-01-17 00:59:31.21	5.36	8.27	-48.4	-62.3	4.1	1.49e+00	0	39	104	0	67	18767
2026-01-17 00:59:32.20	5.28	8.34	-48.3	-59.9	4.9	1.26e+00	0	39	0	1048576	67	14359
2026-01-17 00:59:33.20	5.20	8.41	-48.0	-57.7	6.4	3.31e-01	0	39	0	2097152	67	11152
2026-01-17 00:59:34.20	5.13	8.48	-47.6	-55.7	8.3	9.12e-02	0	39	0	4194304	67	8801
2026-01-17 00:59:35.19	5.05	8.56	-47.2	-54.1	10.1	1.64e-02	0	39	0	6291456	66	7733
2026-01-17 00:59:36.19	4.97	8.63	-46.8	-52.9	11.2	3.73e-03	0	39	0	8388608	65	7173
2026-01-17 00:59:37.19	4.89	8.70	-46.5	-51.9	12.2	3.62e-04	0	39	0	9437184	65	6417
2026-01-17 00:59:38.18	4.81	8.77	-46.1	-51.1	13.1	6.79e-05	0	39	0	11534336	64	6181
2026-01-17 00:59:39.18	4.72	8.84	-46.1	-51.0	13.3	2.36e-05	0	39	0	13631488	64	6070
2026-01-17 00:59:40.18	4.64	8.92	-46.0	-50.8	13.5	1.06e-05	0	39	0	15728640	63	6318
2026-01-17 00:59:41.17	4.56	8.99	-46.2	-51.2	13.1	2.67e-05	0	39	0	17825792	63	6638
2026-01-17 00:59:42.17	4.48	9.06	-46.4	-51.7	12.6	6.10e-05	0	39	0	18874368	63	7037
2026-01-17 00:59:43.17	4.39	9.14	-46.1	-50.9	13.5	9.90e-06	0	39	0	20971520	63	6384
2026-01-17 00:59:44.17	4.31	9.21	-47.6	-57.5	6.6	2.11e-01	0	40	0	23068672	66	11450
2026-01-17 00:59:45.17	4.23	9.28	-46.0	-50.2	14.0	7.60e-06	0	39	0	25165824	63	5919
2026-01-17 00:59:46.17	4.14	9.36	-45.3	-48.7	15.6	0.00e+00	0	39	0	27262976	62	5269
2026-01-17 00:59:47.17	4.06	9.43	-48.1	-55.8	8.0	4.92e-02	0	39	0	28311552	67	8933
2026-01-17 00:59:48.18	3.97	9.50	-45.3	-48.5	15.8	0.00e+00	0	39	0	30408704	62	5157
2026-01-17 00:59:49.18	3.89	9.58	-45.3	-48.6	15.7	0.00e+00	0	39	0	32505856	62	5183
2026-01-17 00:59:50.18	3.80	9.65	-45.3	-48.5	15.9	0.00e+00	0	39	0	34603008	62	5110
2026-01-17 00:59:51.18	3.71	9.73	-45.3	-48.5	15.8	0.00e+00	0	40	0	35651584	62	5132
2026-01-17 00:59:52.19	3.62	9.80	-45.4	-48.6	15.7	0.00e+00	0	39	0	37748736	62	5198
2026-01-17 00:59:53.18	3.54	9.88	-45.4	-48.5	15.9	0.00e+00	0	39	0	39845888	62	5146
2026-01-17 00:59:54.18	3.45	9.95	-45.4	-48.6	15.8	0.00e+00	0	40	0	41943040	62	5206
2026-01-17 00:59:55.19	3.36	10.03	-45.4	-48.5	15.8	0.00e+00	0	40	0	44040192	62	5149
2026-01-17 00:59:56.19	3.27	10.10	-45.3	-48.4	15.9	0.00e+00	0	39	0	45088768	62	5096
2026-01-17 00:59:57.18	3.18	10.18	-45.3	-48.5	15.9	0.00e+00	0	40	0	47185920	62	5111
2026-01-17 00:59:58.18	3.09	10.25	-45.3	-48.4	16.0	0.00e+00	0	40	0	49283072	62	5077
2026-01-17 00:59:59.18	3.00	10.33	-45.3	-48.5	15.8	0.00e+00	0	40	0	51380224	62	5150
2026-01-17 01:00:00.18	2.91	10.40	-45.3	-48.5	15.8	0.00e+00	0	40	0	53477376	62	5145
2026-01-17 01:00:01.18	2.82	10.48	-45.2	-48.5	15.9	0.00e+00	0	39	0	54525952	62	5129
2026-01-17 01:00:02.18	2.73	10.56	-45.0	-48.3	16.1	0.00e+00	0	40	0	56623104	62	4996
2026-01-17 01:00:03.18	2.63	10.63	-44.7	-48.0	16.3	0.00e+00	0	40	0	58720256	61	5119
2026-01-17 01:00:04.18	2.54	10.71	-44.8	-48.2	16.2	0.00e+00	0	40	0	60817408	61	5236
2026-01-17 01:00:05.18	2.45	10.79	-44.7	-48.0	16.3	0.00e+00	0	40	0	62914560	61	5151
2026-01-17 01:00:06.18	2.35	10.86	-44.6	-48.0	16.4	0.00e+00	0	40	0	63963136	61	5108
2026-01-17 01:00:07.19	2.26	10.94	-44.7	-48.1	16.2	0.00e+00	0	40	0	66060288	61	5213
2026-01-17 01:00:08.19	2.16	11.02	-44.6	-48.0	16.4	0.00e+00	0	39	0	68157440	61	5142
2026-01-17 01:00:09.18	2.07	11.10	-44.7	-48.2	16.2	0.00e+00	0	40	0	70254592	61	5224
2026-01-17 01:00:10.18	1.97	11.17	-44.6	-48.1	16.2	0.00e+00	0	40	0	71303168	61	5213
2026-01-17 01:00:11.18	1.87	11.25	-44.5	-48.1	16.2	0.00e+00	0	40	0	73400320	61	5194
2026-01-17 01:00:12.18	1.78	11.33	-44.6	-48.2	16.2	0.00e+00	0	40	0	75497472	61	5264
2026-01-17 01:00:13.19	1.68	11.41	-44.5	-48.1	16.3	0.00e+00	0	40	0	77594624	60	5498
2026-01-17 01:00:14.19	1.58	11.49	-44.5	-48.0	16.4	0.00e+00	0	40	0	79691776	60	5449
2026-01-17 01:00:15.19	1.48	11.56	-44.6	-48.1	16.3	0.00e+00	0	40	0	80740352	60	5496
2026-01-17 01:00:16.19	1.38	11.64	-44.5	-48.1	16.3	0.00e+00	0	40	0	82837504	60	5467
2026-01-17 01:00:17.19	1.28	11.72	-44.6	-48.0	16.4	0.00e+00	0	40	0	84934656	60	5459
2026-01-17 01:00:18.19	1.18	11.80	-44.6	-48.0	16.4	0.00e+00	0	40	0	87031808	60	5463
2026-01-17 01:00:19.20	1.08	11.88	-44.6	-48.1	16.3	0.00e+00	0	40	0	89128960	60	5470
2026-01-17 01:00:20.20	0.98	11.96	-44.6	-48.1	16.4	0.00e+00	0	40	0	90177536	60	5469
2026-01-17 01:00:21.20	0.88	12.04	-44.7	-48.1	16.3	0.00e+00	0	40	0	92274688	60	5509
2026-01-17 01:00:22.20	0.77	12.12	-44.6	-48.0	16.4	0.00e+00	0	40	0	94371840	60	5451
2026-01-17 01:00:23.20	0.67	12.20	-44.8	-48.2	16.3	0.00e+00	0	40	0	96468992	60	5546
2026-01-17 01:00:24.20	0.57	12.28	-44.6	-48.1	16.3	0.00e+00	0	40	0	98566144	60	5477
2026-01-17 01:00:25.20	0.46	12.36	-44.6	-48.1	16.4	0.00e+00	0	40	0	99614720	60	5466
2026-01-17 01:00:26.20	0.36	12.44	-44.6	-48.0	16.4	0.00e+00	0	40	0	101711872	60	5422
2026-01-17 01:00:27.20	0.25	12.52	-44.7	-48.0	16.5	0.00e+00	0	40	0	103809024	60	5405
2026-01-17 01:00:28.20	0.14	12.60	-44.6	-47.9	16.6	0.00e+00	0	40	0	105906176	60	5365
2026-01-17 01:00:29.20	0.04	12.68	-44.6	-47.9	16.6	0.00e+00	0	40	0	108003328	60	5351
2026-01-17 01:00:30.20	359.93	12.76	-44.6	-47.9	16.5	0.00e+00	0	40	0	109051904	60	5373
2026-01-17 01:00:31.21	359.82	12.84	-44.7	-47.9	16.6	0.00e+00	0	40	0	111149056	60	5375
2026-01-17 01:00:32.20	359.71	12.92	-44.7	-47.8	16.7	0.00e+00	0	40	0	113246208	60	5281
2026-01-17 01:00:33.20	359.60	13.00	-44.6	-47.7	16.7	0.00e+00	0	40	0	115343360	60	5248
2026-01-17 01:00:34.21	359.49	13.08	-44.6	-47.6	16.8	0.00e+00	0	40	0	116391936	60	5213
2026-01-17 01:00:35.21	359.38	13.17	-44.7	-47.7	16.8	0.00e+00	0	40	0	118489088	60	5238
2026-01-17 01:00:36.21	359.27	13.25	-44.8	-47.8	16.7	0.00e+00	0	40	0	120586240	60	5292
2026-01-17 01:00:37.21	359.16	13.33	-44.6	-47.7	16.8	0.00e+00	0	40	0	122683392	60	5225
2026-01-17 01:00:38.21	359.05	13.41	-44.7	-47.7	16.7	0.00e+00	0	40	0	124780544	60	5247
2026-01-17 01:00:39.22	358.93	13.50	-44.8	-47.7	16.7	0.00e+00	0	40	0	125829120	60	5278
2026-01-17 01:00:40.21	358.82	13.58	-44.7	-47.7	16.8	0.00e+00	0	40	0	127926272	60	5250
2026-01-17 01:00:41.21	358.70	13.66	-44.7	-47.7	16.8	0.00e+00	0	40	0	130023424	60	5250
2026-01-17 01:00:42.21	358.59	13.74	-44.8	-47.8	16.7	0.00e+00	0	40	0	132120576	60	5308
2026-01-17 01:00:43.21	358.47	13.83	-44.8	-47.8	16.7	0.00e+00	0	40	0	134217728	60	5299
2026-01-17 01:00:44.21	358.36	13.91	-44.7	-47.7	16.8	0.00e+00	0	40	0	135266304	60	5243
2026-01-17 01:00:45.21	358.24	13.99	-44.7	-47.6	16.8	0.00e+00	0	40	0	137363456	60	5212
2026-01-17 01:00:46.21	358.12	14.08	-44.7	-47.7	16.8	0.00e+00	0	40	0	139460608	60	5226
2026-01-17 01:00:47.21	358.00	14.16	-44.7	-47.7	16.8	0.00e+00	0	40	0	141557760	60	5248
2026-01-17 01:00:48.21	357.88	14.24	-44.8	-47.7	16.7	0.00e+00	0	40	0	142606336	60	5277
2026-01-17 01:00:49.21	357.76	14.33	-44.8	-47.7	16.8	0.00e+00	0	40	0	144703488	60	5276
2026-01-17 01:00:50.20	357.65	14.41	-44.9	-47.9	16.7	0.00e+00	0	40	0	146800640	60	5351
2026-01-17 01:00:51.21	357.52	14.50	-44.8	-47.8	16.7	0.00e+00	0	40	0	148897792	60	5322
2026-01-17 01:00:52.21	357.40	14.58	-44.8	-47.8	16.7	0.00e+00	0	40	0	150994944	60	5333
2026-01-17 01:00:53.21	357.28	14.66	-44.9	-47.8	16.7	0.00e+00	0	40	0	152043520	60	5338
2026-01-17 01:00:54.21	357.15	14.75	-44.8	-47.7	16.8	0.00e+00	0	40	0	154140672	60	5272
2026-01-17 01:00:55.21	357.03	14.83	-44.8	-47.8	16.7	0.00e+00	0	40	0	156237824	60	5317
2026-01-17 01:00:56.21	356.91	14.92	-44.8	-47.8	16.8	0.00e+00	0	40	0	158334976	60	5297
2026-01-17 01:00:57.21	356.78	15.00	-44.8	-47.7	16.8	0.00e+00	0	40	0	160432128	60	5266
2026-01-17 01:00:58.21	356.65	15.09	-44.8	-47.7	16.8	0.00e+00	0	40	0	161480704	60	5257
2026-01-17 01:00:59.21	356.53	15.18	-44.8	-47.8	16.8	0.00e+00	0	40	0	163577856	60	5290
2026-01-17 01:01:00.21	356.40	15.26	-44.8	-47.8	16.8	0.00e+00	0	40	0	165675008	60	5280
2026-01-17 01:01:01.21	356.27	15.35	-44.8	-47.9	16.6	0.00e+00	0	40	0	167772160	60	5345
2026-01-17 01:01:02.21	356.14	15.43	-44.7	-47.7	16.8	0.00e+00	0	40	0	169869312	60	5227
2026-01-17 01:01:03.22	356.01	15.52	-44.7	-47.7	16.8	0.00e+00	0	40	0	170917888	60	5274
2026-01-17 01:01:04.22	355.88	15.61	-44.6	-47.6	16.9	0.00e+00	0	40	0	173015040	60	5204
2026-01-17 01:01:05.22	355.75	15.69	-44.5	-47.5	17.0	0.00e+00	0	40	0	175112192	60	5159
2026-01-17 01:01:06.22	355.61	15.78	-44.7	-47.7	16.8	0.00e+00	0	40	0	177209344	60	5267
2026-01-17 01:01:07.22	355.48	15.87	-44.6	-47.7	16.9	0.00e+00	0	40	0	178257920	60	5236
2026-01-17 01:01:08.22	355.35	15.95	-44.7	-47.8	16.8	0.00e+00	0	40	0	180355072	60	5290
2026-01-17 01:01:09.22	355.21	16.04	-44.8	-47.9	16.7	0.00e+00	0	40	0	182452224	60	5348
2026-01-17 01:01:10.22	355.08	16.13	-44.8	-47.8	16.7	0.00e+00	0	40	0	184549376	60	5322
2026-01-17 01:01:11.22	354.94	16.22	-44.8	-47.8	16.7	0.00e+00	0	40	0	186646528	60	5320
2026-01-17 01:01:12.23	354.80	16.30	-44.9	-47.9	16.6	0.00e+00	0	40	0	187695104	60	5394
2026-01-17 01:01:13.23	354.66	16.39	-44.9	-47.9	16.6	0.00e+00	0	40	0	189792256	60	5399
2026-01-17 01:01:14.23	354.52	16.48	-44.9	-47.9	16.7	0.00e+00	0	40	0	191889408	60	5357
2026-01-17 01:01:15.23	354.38	16.57	-45.0	-48.0	16.6	0.00e+00	0	40	0	193986560	60	5408
2026-01-17 01:01:16.23	354.24	16.66	-45.0	-48.0	16.6	0.00e+00	0	40	0	196083712	60	5414
2026-01-17 01:01:17.23	354.10	16.74	-44.9	-47.9	16.7	0.00e+00	0	40	0	197132288	60	5350
2026-01-17 01:01:18.23	353.96	16.83	-44.9	-47.9	16.7	0.00e+00	0	40	0	199229440	60	5351
2026-01-17 01:01:19.23	353.81	16.92	-45.0	-48.0	16.6	0.00e+00	0	40	0	201326592	60	5421
2026-01-17 01:01:20.23	353.67	17.01	-44.9	-47.8	16.7	0.00e+00	0	40	0	203423744	60	5333
2026-01-17 01:01:21.23	353.53	17.10	-45.0	-47.9	16.6	0.00e+00	0	40	0	205520896	60	5388
2026-01-17 01:01:22.23	353.38	17.19	-44.9	-48.0	16.5	0.00e+00	0	40	0	206569472	60	5443
2026-01-17 01:01:23.23	353.23	17.28	-44.8	-47.9	16.7	0.00e+00	0	40	0	208666624	60	5381
2026-01-17 01:01:24.23	353.09	17.36	-44.8	-47.8	16.8	0.00e+00	0	40	0	210763776	60	5326
2026-01-17 01:01:25.23	352.94	17.45	-44.7	-47.8	16.8	0.00e+00	0	40	0	212860928	60	5298
2026-01-17 01:01:26.23	352.79	17.54	-44.6	-47.7	16.8	0.00e+00	0	40	0	213909504	60	5274
2026-01-17 01:01:27.23	352.64	17.63	-44.6	-47.7	17.0	0.00e+00	0	40	0	216006656	60	5222
2026-01-17 01:01:28.24	352.48	17.72	-44.5	-47.6	16.9	0.00e+00	0	40	0	218103808	60	5211
2026-01-17 01:01:29.24	352.33	17.81	-44.5	-47.6	17.0	0.00e+00	0	40	0	220200960	60	5180
2026-01-17 01:01:30.24	352.18	17.90	-44.5	-47.6	17.0	0.00e+00	0	40	0	222298112	60	5172
2026-01-17 01:01:31.24	352.03	17.99	-44.6	-47.7	16.9	0.00e+00	0	40	0	223346688	60	5264
2026-01-17 01:01:32.24	351.87	18.08	-44.4	-47.5	17.1	0.00e+00	0	40	0	225443840	60	5112
2026-01-17 01:01:33.24	351.71	18.17	-44.3	-47.4	17.2	0.00e+00	0	40	0	227540992	60	5064
2026-01-17 01:01:34.25	351.56	18.26	-44.4	-47.4	17.1	0.00e+00	0	40	0	229638144	60	5078
2026-01-17 01:01:35.25	351.40	18.36	-44.3	-47.3	17.3	0.00e+00	0	40	0	231735296	60	5020
2026-01-17 01:01:36.25	351.24	18.45	-44.3	-47.4	17.2	0.00e+00	0	40	0	232783872	60	5049
2026-01-17 01:01:37.25	351.08	18.54	-44.3	-47.4	17.2	0.00e+00	0	40	0	234881024	60	5049
2026-01-17 01:01:38.24	350.92	18.63	-44.3	-47.3	17.3	0.00e+00	0	40	0	236978176	60	5007
2026-01-17 01:01:39.24	350.76	18.72	-44.4	-47.4	17.2	0.00e+00	0	40	0	239075328	60	5062
2026-01-17 01:01:40.24	350.60	18.81	-44.4	-47.3	17.3	0.00e+00	0	40	0	240123904	60	5036
2026-01-17 01:01:41.24	350.43	18.90	-44.3	-47.2	17.3	0.00e+00	0	40	0	242221056	60	4978
2026-01-17 01:01:42.24	350.27	18.99	-44.3	-47.2	17.4	0.00e+00	0	40	0	244318208	60	4961
2026-01-17 01:01:43.25	350.10	19.08	-44.3	-47.2	17.4	0.00e+00	0	40	0	246415360	60	4933
2026-01-17 01:01:44.24	349.93	19.17	-44.4	-47.2	17.4	0.00e+00	0	40	0	248512512	60	4964
2026-01-17 01:01:45.25	349.77	19.27	-44.2	-47.0	17.6	0.00e+00	0	40	0	249561088	60	4833
2026-01-17 01:01:46.25	349.60	19.36	-44.2	-46.9	17.7	0.00e+00	0	40	0	251658240	60	4795
2026-01-17 01:01:47.25	349.43	19.45	-44.2	-47.0	17.6	0.00e+00	0	40	0	253755392	60	4847
2026-01-17 01:01:48.25	349.26	19.54	-44.3	-47.1	17.5	0.00e+00	0	40	0	255852544	60	4871
2026-01-17 01:01:49.25	349.08	19.63	-44.3	-47.0	17.6	0.00e+00	0	40	0	257949696	60	4859
2026-01-17 01:01:50.25	348.91	19.72	-44.3	-47.0	17.6	0.00e+00	0	40	0	258998272	60	4849
2026-01-17 01:01:51.25	348.74	19.81	-44.3	-47.0	17.6	0.00e+00	0	40	0	261095424	60	4857
2026-01-17 01:01:52.25	348.56	19.91	-44.3	-47.1	17.5	0.00e+00	0	40	0	263192576	60	4881
2026-01-17 01:01:53.26	348.38	20.00	-44.1	-46.8	17.8	0.00e+00	0	40	0	265289728	60	4712
2026-01-17 01:01:54.26	348.21	20.09	-44.2	-46.8	17.8	0.00e+00	0	40	0	267386880	60	4745
2026-01-17 01:01:55.26	348.03	20.18	-44.1	-46.8	17.8	0.00e+00	0	40	0	268435456	60	4725
2026-01-17 01:01:56.26	347.85	20.28	-44.2	-46.9	17.7	0.00e+00	0	40	0	270532608	60	4777
2026-01-17 01:01:57.26	347.67	20.37	-44.3	-46.9	17.7	0.00e+00	0	40	0	272629760	60	4812
2026-01-17 01:01:58.25	347.49	20.46	-44.4	-47.0	17.6	0.00e+00	0	40	0	274726912	60	4856
2026-01-17 01:01:59.25	347.31	20.55	-44.5	-47.2	17.3	0.00e+00	0	40	0	276824064	60	4969
2026-01-17 01:02:00.26	347.12	20.64	-44.5	-47.3	17.3	0.00e+00	0	40	0	277872640	60	5038
2026-01-17 01:02:01.26	346.94	20.74	-44.5	-47.3	17.3	0.00e+00	0	40	0	279969792	60	5021
2026-01-17 01:02:02.26	346.75	20.83	-44.5	-47.3	17.3	0.00e+00	0	40	0	282066944	60	5035
2026-01-17 01:02:03.26	346.56	20.92	-44.5	-47.4	17.2	0.00e+00	0	40	0	284164096	60	5067
2026-01-17 01:02:04.26	346.37	21.01	-44.6	-47.5	17.2	0.00e+00	0	40	0	285212672	60	5103
2026-01-17 01:02:05.26	346.18	21.11	-44.6	-47.5	17.2	0.00e+00	0	40	0	287309824	60	5117
2026-01-17 01:02:06.26	345.99	21.20	-44.7	-47.6	17.1	0.00e+00	0	40	0	289406976	60	5169
2026-01-17 01:02:07.27	345.80	21.29	-44.7	-47.5	17.1	0.00e+00	0	40	0	291504128	60	5120
2026-01-17 01:02:08.27	345.61	21.38	-44.7	-47.5	17.2	0.00e+00	0	40	0	293601280	60	5102
2026-01-17 01:02:09.27	345.41	21.48	-44.7	-47.5	17.2	0.00e+00	0	40	0	294649856	60	5108
2026-01-17 01:02:10.27	345.22	21.57	-44.7	-47.5	17.1	0.00e+00	0	40	0	296747008	60	5135
2026-01-17 01:02:11.27	345.02	21.66	-44.8	-47.6	17.0	0.00e+00	0	40	0	298844160	60	5194
2026-01-17 01:02:12.27	344.82	21.75	-44.6	-47.6	17.0	0.00e+00	0	40	0	300941312	60	5169
2026-01-17 01:02:13.27	344.62	21.84	-44.5	-47.6	17.0	0.00e+00	0	40	0	303038464	60	5192
2026-01-17 01:02:14.27	344.42	21.94	-44.4	-47.6	17.1	0.00e+00	0	40	0	304087040	60	5195
2026-01-17 01:02:15.27	344.22	22.03	-44.4	-47.6	17.1	0.00e+00	0	40	0	306184192	60	5170
2026-01-17 01:02:16.27	344.02	22.12	-44.4	-47.5	17.1	0.00e+00	0	40	0	308281344	60	5137
2026-01-17 01:02:17.27	343.82	22.21	-44.4	-47.5	17.2	0.00e+00	0	40	0	310378496	60	5101
2026-01-17 01:02:18.27	343.61	22.30	-44.2	-47.1	17.5	0.00e+00	0	40	0	312475648	60	4910
2026-01-17 01:02:19.27	343.40	22.40	-44.2	-47.0	17.5	0.00e+00	0	40	0	313524224	60	4867
2026-01-17 01:02:20.26	343.20	22.49	-44.2	-47.0	17.7	0.00e+00	0	40	0	315621376	60	4824
2026-01-17 01:02:21.27	342.99	22.58	-44.2	-46.9	17.7	0.00e+00	0	40	0	317718528	60	4772
2026-01-17 01:02:22.27	342.78	22.67	-44.3	-47.0	17.6	0.00e+00	0	40	0	319815680	60	4868
2026-01-17 01:02:23.27	342.57	22.76	-44.3	-47.0	17.6	0.00e+00	0	40	0	320864256	60	4843
2026-01-17 01:02:24.27	342.35	22.85	-44.1	-46.9	17.7	0.00e+00	0	40	0	322961408	60	4775
2026-01-17 01:02:25.27	342.14	22.94	-44.0	-46.8	17.8	0.00e+00	0	40	0	325058560	59	5004
2026-01-17 01:02:26.27	341.93	23.04	-43.9	-46.7	17.8	0.00e+00	0	40	0	327155712	59	4963
2026-01-17 01:02:27.28	341.71	23.13	-43.8	-46.6	17.9	0.00e+00	0	40	0	329252864	59	4912
2026-01-17 01:02:28.28	341.49	23.22	-43.9	-46.6	18.0	0.00e+00	0	40	0	330301440	59	4893
2026-01-17 01:02:29.28	341.27	23.31	-44.0	-46.7	17.8	0.00e+00	0	40	0	332398592	59	4964
2026-01-17 01:02:30.28	341.05	23.40	-43.9	-46.6	18.0	0.00e+00	0	40	0	334495744	59	4882
2026-01-17 01:02:31.28	340.83	23.49	-44.0	-46.7	17.9	0.00e+00	0	40	0	336592896	59	4935
2026-01-17 01:02:32.28	340.61	23.58	-44.0	-46.6	18.0	0.00e+00	0	40	0	338690048	59	4887
2026-01-17 01:02:33.28	340.38	23.67	-43.6	-46.1	18.4	0.00e+00	0	40	0	339738624	59	4615
2026-01-17 01:02:34.28	340.16	23.76	-43.5	-45.9	18.6	0.00e+00	0	40	0	341835776	58	4812
2026-01-17 01:02:35.28	339.93	23.85	-43.4	-45.9	18.6	0.00e+00	0	40	0	343932928	58	4789
2026-01-17 01:02:36.29	339.70	23.94	-43.4	-46.0	18.6	0.00e+00	0	40	0	346030080	58	4821
2026-01-17 01:02:37.29	339.47	24.03	-43.5	-46.1	18.5	0.00e+00	0	40	0	347078656	58	4886
2026-01-17 01:02:38.29	339.24	24.12	-43.6	-46.2	18.2	0.00e+00	0	40	0	349175808	58	4953
2026-01-17 01:02:39.29	339.01	24.21	-43.6	-46.2	18.3	0.00e+00	0	40	0	351272960	58	4958
2026-01-17 01:02:40.29	338.77	24.30	-43.7	-46.3	18.2	0.00e+00	0	40	0	353370112	58	5019
2026-01-17 01:02:41.29	338.54	24.39	-43.7	-46.3	18.2	0.00e+00	0	40	0	355467264	58	5026
2026-01-17 01:02:42.29	338.30	24.48	-43.6	-46.2	18.3	0.00e+00	0	40	0	356515840	58	4960
2026-01-17 01:02:43.30	338.06	24.56	-43.6	-46.2	18.4	0.00e+00	0	40	0	358612992	58	4934
2026-01-17 01:02:44.30	337.82	24.65	-43.5	-46.0	18.5	0.00e+00	0	40	0	360710144	58	4846
2026-01-17 01:02:45.30	337.58	24.74	-43.5	-46.0	18.5	0.00e+00	0	40	0	362807296	58	4849
2026-01-17 01:02:46.30	337.34	24.83	-43.5	-46.0	18.5	0.00e+00	0	40	0	364904448	58	4837
2026-01-17 01:02:47.30	337.10	24.92	-43.3	-45.8	18.8	0.00e+00	0	40	0	365953024	58	4712
2026-01-17 01:02:48.30	336.85	25.00	-43.2	-45.7	18.8	0.00e+00	0	40	0	368050176	58	4673
2026-01-17 01:02:49.31	336.61	25.09	-43.2	-45.7	18.8	0.00e+00	0	40	0	370147328	58	4672
2026-01-17 01:02:50.31	336.36	25.18	-43.2	-45.7	18.8	0.00e+00	0	40	0	372244480	58	4697
2026-01-17 01:02:51.31	336.11	25.26	-43.3	-45.8	18.7	0.00e+00	0	40	0	374341632	58	4749
2026-01-17 01:02:52.31	335.86	25.35	-43.3	-45.9	18.6	0.00e+00	0	40	0	375390208	58	4776
2026-01-17 01:02:53.31	335.61	25.43	-43.3	-45.8	18.7	0.00e+00	0	40	0	377487360	58	4758
2026-01-17 01:02:54.31	335.36	25.52	-43.2	-45.6	18.9	0.00e+00	0	40	0	379584512	58	4621
2026-01-17 01:02:55.31	335.10	25.60	-43.2	-45.6	18.9	0.00e+00	0	40	0	381681664	58	4632
2026-01-17 01:02:56.31	334.85	25.69	-43.2	-45.6	18.9	0.00e+00	0	40	0	383778816	58	4615
2026-01-17 01:02:57.31	334.59	25.77	-43.4	-45.8	18.7	0.00e+00	0	40	0	384827392	58	4720
2026-01-17 01:02:58.31	334.33	25.85	-43.6	-46.0	18.4	0.00e+00	0	40	0	386924544	58	4849
2026-01-17 01:02:59.31	334.07	25.94	-43.7	-46.2	18.3	0.00e+00	0	40	0	389021696	58	4976
2026-01-17 01:03:00.31	333.81	26.02	-43.9	-46.4	18.2	0.00e+00	0	40	0	391118848	58	5046
2026-01-17 01:03:01.31	333.55	26.10	-43.9	-46.5	18.1	0.00e+00	0	40	0	393216000	58	5112
2026-01-17 01:03:02.31	333.29	26.19	-44.0	-46.6	17.9	0.00e+00	0	40	0	394264576	58	5186
2026-01-17 01:03:03.31	333.02	26.27	-44.0	-46.5	18.0	0.00e+00	0	40	0	396361728	58	5132
2026-01-17 01:03:04.31	332.76	26.35	-44.0	-46.6	18.0	0.00e+00	0	40	0	398458880	58	5201
2026-01-17 01:03:05.32	332.49	26.43	-43.9	-46.4	18.1	0.00e+00	0	40	0	400556032	58	5091
2026-01-17 01:03:06.32	332.22	26.51	-43.9	-46.5	18.0	0.00e+00	0	40	0	401604608	58	5138
2026-01-17 01:03:07.32	331.95	26.59	-43.9	-46.7	17.9	0.00e+00	0	40	0	403701760	58	5238
2026-01-17 01:03:08.32	331.68	26.67	-44.0	-46.9	17.7	0.00e+00	0	40	0	405798912	58	5363
2026-01-17 01:03:09.32	331.40	26.75	-44.0	-46.9	17.6	0.00e+00	0	40	0	407896064	58	5398
2026-01-17 01:03:10.32	331.13	26.83	-43.9	-46.9	17.7	0.00e+00	0	40	0	409993216	58	5366
2026-01-17 01:03:11.32	330.85	26.90	-44.0	-46.9	17.6	0.00e+00	0	40	0	411041792	58	5390
2026-01-17 01:03:12.32	330.57	26.98	-44.0	-46.9	17.7	0.00e+00	0	40	0	413138944	58	5349
2026-01-17 01:03:13.32	330.30	27.06	-44.1	-47.0	17.6	0.00e+00	0	40	0	415236096	59	5106
2026-01-17 01:03:14.33	330.01	27.14	-44.2	-47.0	17.5	0.00e+00	0	40	0	417333248	59	5124
2026-01-17 01:03:15.33	329.73	27.21	-44.3	-47.0	17.5	0.00e+00	0	40	0	419430400	59	5150
2026-01-17 01:03:16.33	329.45	27.29	-44.5	-47.3	17.3	0.00e+00	0	40	0	420478976	59	5291
2026-01-17 01:03:17.33	329.17	27.36	-44.5	-47.2	17.4	0.00e+00	0	40	0	422576128	59	5259
2026-01-17 01:03:18.33	328.88	27.44	-44.5	-47.2	17.3	0.00e+00	0	40	0	424673280	59	5273
2026-01-17 01:03:19.33	328.59	27.51	-44.5	-47.2	17.3	0.00e+00	0	40	0	426770432	59	5271
2026-01-17 01:03:20.33	328.30	27.58	-44.4	-47.1	17.4	0.00e+00	0	40	0	427819008	59	5213
2026-01-17 01:03:21.33	328.02	27.65	-44.5	-47.2	17.4	0.00e+00	0	40	0	429916160	59	5273
2026-01-17 01:03:22.33	327.72	27.73	-44.5	-47.4	17.2	0.00e+00	0	40	0	432013312	59	5367
2026-01-17 01:03:23.33	327.43	27.80	-44.5	-47.4	17.2	0.00e+00	0	40	0	434110464	59	5364
2026-01-17 01:03:24.34	327.14	27.87	-44.3	-47.3	17.3	0.00e+00	0	40	0	436207616	59	5309
2026-01-17 01:03:25.34	326.84	27.94	-44.4	-47.4	17.2	0.00e+00	0	40	0	437256192	59	5379
2026-01-17 01:03:26.34	326.55	28.01	-44.5	-47.4	17.2	0.00e+00	0	40	0	439353344	59	5395
2026-01-17 01:03:27.34	326.25	28.07	-44.5	-47.4	17.2	0.00e+00	0	40	0	441450496	59	5384
2026-01-17 01:03:28.34	325.95	28.14	-44.4	-47.2	17.3	0.00e+00	0	40	0	443547648	59	5277
2026-01-17 01:03:29.34	325.65	28.21	-44.4	-47.3	17.3	0.00e+00	0	40	0	445644800	59	5280
2026-01-17 01:03:30.35	325.35	28.28	-44.3	-47.0	17.6	0.00e+00	0	40	0	446693376	59	5135
2026-01-17 01:03:31.35	325.04	28.34	-44.2	-47.0	17.6	0.00e+00	0	40	0	448790528	59	5118
2026-01-17 01:03:32.35	324.74	28.41	-44.3	-47.1	17.5	0.00e+00	0	40	0	450887680	59	5208
2026-01-17 01:03:33.35	324.44	28.47	-44.3	-47.2	17.4	0.00e+00	0	40	0	452984832	59	5240
2026-01-17 01:03:34.35	324.13	28.53	-44.2	-47.0	17.5	0.00e+00	0	40	0	455081984	59	5152
2026-01-17 01:03:35.35	323.82	28.60	-44.3	-47.1	17.6	0.00e+00	0	40	0	456130560	59	5164
2026-01-17 01:03:36.35	323.51	28.66	-44.4	-47.2	17.4	0.00e+00	0	40	0	458227712	59	5252
2026-01-17 01:03:37.35	323.20	28.72	-44.5	-47.2	17.3	0.00e+00	0	40	0	460324864	59	5262
2026-01-17 01:03:38.35	322.89	28.78	-44.5	-47.2	17.3	0.00e+00	0	40	0	462422016	59	5276
2026-01-17 01:03:39.35	322.58	28.84	-44.5	-47.3	17.3	0.00e+00	0	40	0	463470592	59	5317
2026-01-17 01:03:40.35	322.27	28.90	-44.6	-47.5	17.1	0.00e+00	0	40	0	465567744	60	5135
2026-01-17 01:03:41.35	321.95	28.95	-44.6	-47.5	17.1	0.00e+00	0	40	0	467664896	60	5141
2026-01-17 01:03:42.35	321.64	29.01	-44.6	-47.6	17.1	0.00e+00	0	40	0	469762048	60	5176
2026-01-17 01:03:43.35	321.32	29.07	-44.6	-47.7	17.0	0.00e+00	0	40	0	471859200	60	5224
2026-01-17 01:03:44.35	321.00	29.12	-44.7	-47.8	16.9	0.00e+00	0	40	0	472907776	60	5282
2026-01-17 01:03:45.36	320.68	29.17	-44.8	-47.8	16.8	0.00e+00	0	40	0	475004928	60	5306
2026-01-17 01:03:46.36	320.36	29.23	-44.9	-47.9	16.8	0.00e+00	0	40	0	477102080	60	5346
2026-01-17 01:03:47.36	320.04	29.28	-45.0	-47.9	16.8	0.00e+00	0	40	0	479199232	60	5382
2026-01-17 01:03:48.36	319.72	29.33	-44.8	-47.6	17.0	0.00e+00	0	40	0	481296384	60	5214
2026-01-17 01:03:49.37	319.39	29.38	-44.8	-47.6	17.1	0.00e+00	0	40	0	482344960	60	5180
2026-01-17 01:03:50.37	319.07	29.43	-44.8	-47.6	17.1	0.00e+00	0	40	0	484442112	60	5185
2026-01-17 01:03:51.37	318.74	29.48	-44.8	-47.6	17.1	0.00e+00	0	40	0	486539264	60	5180
2026-01-17 01:03:52.37	318.42	29.53	-44.9	-47.7	17.0	0.00e+00	0	40	0	488636416	60	5250
2026-01-17 01:03:53.37	318.09	29.57	-45.0	-47.9	16.7	0.00e+00	0	40	0	490733568	60	5398
2026-01-17 01:03:54.37	317.76	29.62	-45.1	-48.1	16.5	0.00e+00	0	40	0	491782144	60	5526
2026-01-17 01:03:55.37	317.44	29.66	-45.0	-48.1	16.7	0.00e+00	0	40	0	493879296	60	5465
2026-01-17 01:03:56.37	317.11	29.71	-45.1	-48.2	16.6	0.00e+00	0	40	0	495976448	60	5536
2026-01-17 01:03:57.37	316.77	29.75	-44.9	-48.0	16.7	0.00e+00	0	40	0	498073600	60	5430
2026-01-17 01:03:58.37	316.44	29.79	-44.9	-48.1	16.6	0.00e+00	0	40	0	500170752	60	5465
2026-01-17 01:03:59.37	316.11	29.83	-44.8	-47.9	16.8	0.00e+00	0	40	0	501219328	60	5370
2026-01-17 01:04:00.37	315.78	29.87	-44.9	-48.0	16.7	0.00e+00	0	40	0	503316480	60	5436
2026-01-17 01:04:01.38	315.44	29.91	-44.9	-48.0	16.7	0.00e+00	0	40	0	505413632	60	5421
2026-01-17 01:04:02.38	315.11	29.95	-44.9	-47.9	16.8	0.00e+00	0	40	0	507510784	60	5366
2026-01-17 01:04:03.38	314.77	29.99	-44.9	-47.9	16.8	0.00e+00	0	40	0	508559360	60	5352
2026-01-17 01:04:04.38	314.43	30.02	-44.9	-47.8	16.9	0.00e+00	0	40	0	510656512	60	5331
2026-01-17 01:04:05.38	314.10	30.06	-44.9	-47.7	16.9	0.00e+00	0	40	0	512753664	60	5278
2026-01-17 01:04:06.38	313.76	30.09	-44.9	-47.8	16.9	0.00e+00	0	40	0	514850816	60	5308
2026-01-17 01:04:07.38	313.42	30.12	-44.9	-47.6	17.0	0.00e+00	0	40	0	516947968	60	5207
2026-01-17 01:04:08.38	313.08	30.15	-44.9	-47.7	17.0	0.00e+00	0	40	0	517996544	60	5234
2026-01-17 01:04:09.38	312.74	30.18	-45.0	-47.8	16.9	0.00e+00	0	40	0	520093696	60	5328
2026-01-17 01:04:10.38	312.40	30.21	-45.0	-47.8	16.9	0.00e+00	0	40	0	522190848	60	5334
2026-01-17 01:04:11.38	312.06	30.24	-45.1	-48.1	16.6	0.00e+00	0	40	0	524288000	60	5466
2026-01-17 01:04:12.38	311.72	30.27	-45.0	-47.9	16.8	0.00e+00	0	40	0	526385152	60	5341
2026-01-17 01:04:13.38	311.37	30.29	-44.9	-47.7	17.0	0.00e+00	0	40	0	527433728	60	5252
2026-01-17 01:04:14.38	311.03	30.32	-44.9	-47.6	17.0	0.00e+00	0	40	0	529530880	60	5214
2026-01-17 01:04:15.38	310.69	30.34	-44.9	-47.7	17.0	0.00e+00	0	40	0	531628032	60	5254
2026-01-17 01:04:16.38	310.34	30.36	-45.0	-47.8	16.9	0.00e+00	0	40	0	533725184	60	5327
2026-01-17 01:04:17.39	310.00	30.38	-45.0	-47.8	16.9	0.00e+00	0	40	0	534773760	60	5339
2026-01-17 01:04:18.39	309.65	30.40	-45.0	-47.9	16.8	0.00e+00	0	40	0	536870912	60	5356
2026-01-17 01:04:19.39	309.31	30.42	-45.1	-47.9	16.8	0.00e+00	0	40	0	538968064	60	5397
2026-01-17 01:04:20.39	308.96	30.44	-45.2	-48.2	16.5	0.00e+00	0	40	0	541065216	61	5242
2026-01-17 01:04:21.39	308.62	30.46	-45.3	-48.3	16.4	0.00e+00	0	40	0	543162368	61	5323
2026-01-17 01:04:22.39	308.27	30.47	-45.4	-48.4	16.3	0.00e+00	0	40	0	544210944	61	5364
2026-01-17 01:04:23.39	307.92	30.48	-45.3	-48.3	16.4	0.00e+00	0	40	0	546308096	61	5311
2026-01-17 01:04:24.39	307.58	30.50	-45.4	-48.4	16.3	0.00e+00	0	40	0	548405248	61	5374
2026-01-17 01:04:25.39	307.23	30.51	-45.4	-48.5	16.2	0.00e+00	0	40	0	550502400	61	5410
2026-01-17 01:04:26.39	306.88	30.52	-45.6	-48.7	16.0	0.00e+00	0	40	0	552599552	61	5579
2026-01-17 01:04:27.39	306.53	30.53	-45.8	-49.0	15.7	7.00e-07	0	40	0	553648128	62	5463
2026-01-17 01:04:28.39	306.19	30.54	-45.9	-49.3	15.5	0.00e+00	0	40	0	555745280	62	5600
2026-01-17 01:04:29.39	305.84	30.54	-45.8	-49.1	15.6	0.00e+00	0	40	0	557842432	62	5518
2026-01-17 01:04:30.40	305.49	30.55	-45.9	-49.3	15.4	0.00e+00	0	40	0	559939584	62	5609
2026-01-17 01:04:31.40	305.14	30.55	-46.0	-49.4	15.4	0.00e+00	0	40	0	562036736	62	5676
2026-01-17 01:04:32.40	304.79	30.56	-46.1	-49.5	15.3	0.00e+00	0	40	0	563085312	62	5723
2026-01-17 01:04:33.40	304.44	30.56	-45.9	-49.2	15.5	0.00e+00	0	40	0	565182464	62	5552
2026-01-17 01:04:34.40	304.09	30.56	-45.9	-49.1	15.6	0.00e+00	0	40	0	567279616	62	5490
2026-01-17 01:04:35.40	303.74	30.56	-45.9	-49.1	15.6	0.00e+00	0	40	0	569376768	62	5506
2026-01-17 01:04:36.40	303.40	30.56	-45.6	-48.7	16.0	0.00e+00	0	40	0	571473920	62	5262
2026-01-17 01:04:37.40	303.05	30.56	-45.7	-48.9	15.8	0.00e+00	0	40	0	572522496	62	5379
2026-01-17 01:04:38.40	302.70	30.55	-45.7	-49.0	15.8	0.00e+00	0	40	0	574619648	62	5410
2026-01-17 01:04:39.41	302.35	30.55	-45.7	-48.9	15.7	0.00e+00	0	40	0	576716800	62	5396
2026-01-17 01:04:40.41	302.00	30.54	-45.9	-49.2	15.6	0.00e+00	0	40	0	578813952	62	5541
2026-01-17 01:04:41.41	301.65	30.54	-45.7	-48.9	15.9	0.00e+00	0	40	0	579862528	62	5355
2026-01-17 01:04:42.41	301.30	30.53	-45.7	-48.9	15.8	0.00e+00	0	40	0	581959680	62	5392
2026-01-17 01:04:43.41	300.95	30.52	-45.7	-49.0	15.7	0.00e+00	0	40	0	584056832	62	5431
2026-01-17 01:04:44.41	300.61	30.51	-45.6	-48.8	15.9	0.00e+00	0	40	0	586153984	62	5322
2026-01-17 01:04:45.41	300.26	30.49	-45.4	-48.6	16.1	0.00e+00	0	40	0	588251136	62	5163
2026-01-17 01:04:46.41	299.91	30.48	-45.4	-48.5	16.2	0.00e+00	0	40	0	589299712	62	5150
2026-01-17 01:04:47.41	299.57	30.47	-45.2	-48.2	16.5	0.00e+00	0	40	0	591396864	62	4969
2026-01-17 01:04:48.42	299.22	30.45	-45.2	-48.1	16.6	0.00e+00	0	40	0	593494016	62	4911
2026-01-17 01:04:49.42	298.87	30.43	-44.9	-47.7	16.9	0.00e+00	0	40	0	595591168	61	4970
2026-01-17 01:04:50.42	298.52	30.42	-44.8	-47.6	17.1	0.00e+00	0	40	0	597688320	61	4890
2026-01-17 01:04:51.42	298.18	30.40	-44.7	-47.5	17.1	0.00e+00	0	40	0	598736896	61	4857
2026-01-17 01:04:52.42	297.83	30.38	-44.8	-47.7	17.0	0.00e+00	0	40	0	600834048	61	4928
2026-01-17 01:04:53.42	297.49	30.36	-44.9	-47.7	16.9	0.00e+00	0	40	0	602931200	61	4946
2026-01-17 01:04:54.42	297.15	30.33	-44.9	-47.7	17.0	0.00e+00	0	40	0	605028352	61	4942
2026-01-17 01:04:55.42	296.80	30.31	-44.7	-47.4	17.3	0.00e+00	0	40	0	607125504	61	4786
2026-01-17 01:04:56.42	296.46	30.28	-44.8	-47.5	17.1	0.00e+00	0	40	0	608174080	61	4867
2026-01-17 01:04:57.43	296.11	30.26	-44.8	-47.6	17.1	0.00e+00	0	40	0	610271232	61	4891
2026-01-17 01:04:58.43	295.77	30.23	-45.0	-48.0	16.7	0.00e+00	0	40	0	612368384	61	5110
2026-01-17 01:04:59.43	295.43	30.20	-45.2	-48.2	16.5	0.00e+00	0	40	0	614465536	61	5258
2026-01-17 01:05:00.43	295.09	30.17	-45.3	-48.3	16.4	0.00e+00	0	40	0	615514112	61	5309
2026-01-17 01:05:01.44	294.75	30.14	-45.2	-48.2	16.5	0.00e+00	0	40	0	617611264	61	5221
2026-01-17 01:05:02.44	294.41	30.11	-45.2	-48.1	16.5	0.00e+00	0	40	0	619708416	61	5218
2026-01-17 01:05:03.44	294.07	30.08	-45.2	-48.2	16.5	0.00e+00	0	40	0	621805568	61	5236
2026-01-17 01:05:04.44	293.73	30.05	-45.0	-47.9	16.8	0.00e+00	0	40	0	623902720	61	5067
2026-01-17 01:05:05.44	293.39	30.01	-44.7	-47.5	17.2	0.00e+00	0	40	0	624951296	61	4818
2026-01-17 01:05:06.45	293.05	29.97	-44.6	-47.4	17.2	0.00e+00	0	40	0	627048448	61	4790
2026-01-17 01:05:07.45	292.72	29.94	-44.8	-47.6	17.0	0.00e+00	0	40	0	629145600	61	4925
2026-01-17 01:05:08.45	292.38	29.90	-44.8	-47.7	17.0	0.00e+00	0	40	0	631242752	61	4938
2026-01-17 01:05:09.45	292.05	29.86	-44.8	-47.6	17.0	0.00e+00	0	40	0	633339904	61	4920
2026-01-17 01:05:10.45	291.71	29.82	-44.9	-47.7	16.9	0.00e+00	0	40	0	634388480	61	4941
2026-01-17 01:05:11.45	291.38	29.78	-45.0	-47.8	16.9	0.00e+00	0	40	0	636485632	61	5012
2026-01-17 01:05:12.45	291.05	29.74	-45.0	-47.8	16.8	0.00e+00	0	40	0	638582784	61	5022
2026-01-17 01:05:13.45	290.72	29.69	-45.0	-47.9	16.8	0.00e+00	0	40	0	640679936	61	5049
2026-01-17 01:05:14.45	290.39	29.65	-45.0	-47.8	16.9	0.00e+00	0	40	0	642777088	61	5039
2026-01-17 01:05:15.45	290.06	29.61	-44.9	-47.7	17.0	0.00e+00	0	40	0	643825664	61	4938
2026-01-17 01:05:16.45	289.73	29.56	-44.6	-47.4	17.3	0.00e+00	0	40	0	645922816	61	4770
2026-01-17 01:05:17.45	289.40	29.51	-44.5	-47.1	17.5	0.00e+00	0	40	0	648019968	60	4926
2026-01-17 01:05:18.45	289.08	29.46	-44.3	-46.9	17.7	0.00e+00	0	40	0	650117120	60	4807
2026-01-17 01:05:19.45	288.75	29.42	-44.5	-47.2	17.5	0.00e+00	0	40	0	652214272	60	4938
2026-01-17 01:05:20.45	288.43	29.37	-44.7	-47.4	17.3	0.00e+00	0	40	0	653262848	60	5081
2026-01-17 01:05:21.45	288.10	29.31	-44.8	-47.5	17.1	0.00e+00	0	40	0	655360000	60	5135
2026-01-17 01:05:22.45	287.78	29.26	-44.8	-47.5	17.1	0.00e+00	0	40	0	657457152	60	5134
2026-01-17 01:05:23.45	287.46	29.21	-44.9	-47.7	17.0	0.00e+00	0	40	0	659554304	60	5223
2026-01-17 01:05:24.45	287.14	29.16	-44.9	-47.7	16.9	0.00e+00	0	40	0	660602880	60	5243
2026-01-17 01:05:25.45	286.82	29.10	-45.0	-47.8	16.8	0.00e+00	0	40	0	662700032	60	5304
2026-01-17 01:05:26.45	286.50	29.05	-45.0	-47.8	16.8	0.00e+00	0	40	0	664797184	60	5328
2026-01-17 01:05:27.45	286.19	28.99	-45.2	-48.1	16.7	0.00e+00	0	40	0	666894336	60	5470
2026-01-17 01:05:28.46	285.87	28.93	-45.2	-48.2	16.5	0.00e+00	0	40	0	668991488	61	5219
2026-01-17 01:05:29.45	285.56	28.88	-45.4	-48.5	16.2	0.00e+00	0	40	0	670040064	61	5409
2026-01-17 01:05:30.46	285.24	28.82	-45.5	-48.5	16.2	0.00e+00	0	40	0	672137216	61	5418
2026-01-17 01:05:31.46	284.93	28.76	-45.4	-48.4	16.2	0.00e+00	0	40	0	674234368	61	5384
2026-01-17 01:05:32.46	284.62	28.70	-45.2	-48.2	16.5	0.00e+00	0	40	0	676331520	61	5239
2026-01-17 01:05:33.46	284.31	28.64	-45.2	-48.1	16.5	0.00e+00	0	40	0	678428672	61	5211
2026-01-17 01:05:34.47	283.99	28.57	-45.1	-47.9	16.7	0.00e+00	0	40	0	679477248	61	5084
2026-01-17 01:05:35.47	283.69	28.51	-45.1	-48.0	16.7	0.00e+00	0	40	0	681574400	61	5113
2026-01-17 01:05:36.47	283.38	28.45	-45.2	-48.1	16.5	0.00e+00	0	40	0	683671552	61	5206
2026-01-17 01:05:37.47	283.07	28.38	-45.4	-48.3	16.3	0.00e+00	0	40	0	685768704	61	5334
2026-01-17 01:05:38.47	282.77	28.32	-45.5	-48.5	16.2	0.00e+00	0	40	0	687865856	61	5405
2026-01-17 01:05:39.48	282.46	28.25	-45.6	-48.6	16.0	0.00e+00	0	40	0	688914432	61	5498
2026-01-17 01:05:40.48	282.16	28.18	-45.6	-48.7	16.0	0.00e+00	0	40	0	691011584	61	5568
2026-01-17 01:05:41.48	281.86	28.12	-45.7	-48.8	15.8	0.00e+00	0	40	0	693108736	62	5324
2026-01-17 01:05:42.49	281.56	28.05	-45.8	-49.0	15.7	0.00e+00	0	40	0	695205888	62	5411
2026-01-17 01:05:43.49	281.26	27.98	-45.8	-48.9	15.8	0.00e+00	0	40	0	696254464	62	5378
2026-01-17 01:05:44.49	280.97	27.91	-45.7	-48.8	15.9	0.00e+00	0	40	0	698351616	62	5312
2026-01-17 01:05:45.49	280.67	27.84	-45.5	-48.5	16.2	0.00e+00	0	40	0	700448768	62	5148
2026-01-17 01:05:46.50	280.37	27.77	-45.4	-48.3	16.4	0.00e+00	0	40	0	702545920	62	5014
2026-01-17 01:05:47.49	280.09	27.70	-45.3	-48.2	16.4	0.00e+00	0	40	0	704643072	62	4980
2026-01-17 01:05:48.50	279.79	27.63	-45.3	-48.3	16.4	0.00e+00	0	40	0	705691648	62	4997
2026-01-17 01:05:49.50	279.50	27.55	-45.3	-48.3	16.4	0.00e+00	0	40	0	707788800	62	4985
2026-01-17 01:05:50.50	279.21	27.48	-45.2	-48.2	16.5	0.00e+00	0	40	0	709885952	62	4954
2026-01-17 01:05:51.50	278.93	27.41	-45.3	-48.3	16.3	0.00e+00	0	40	0	711983104	62	5041
2026-01-17 01:05:52.50	278.64	27.33	-45.3	-48.3	16.3	0.00e+00	0	40	0	714080256	62	5036
2026-01-17 01:05:53.50	278.36	27.26	-45.4	-48.5	16.2	0.00e+00	0	40	0	715128832	62	5116
2026-01-17 01:05:54.50	278.07	27.18	-45.4	-48.4	16.3	0.00e+00	0	40	0	717225984	62	5081
2026-01-17 01:05:55.50	277.79	27.10	-45.4	-48.4	16.3	0.00e+00	0	40	0	719323136	62	5050
2026-01-17 01:05:56.50	277.51	27.03	-45.3	-48.2	16.5	0.00e+00	0	40	0	721420288	62	4968
2026-01-17 01:05:57.50	277.23	26.95	-45.1	-48.0	16.6	0.00e+00	0	40	0	722468864	62	4839
2026-01-17 01:05:58.50	276.95	26.87	-44.9	-47.7	16.9	0.00e+00	0	40	0	724566016	61	4949
2026-01-17 01:05:59.50	276.68	26.79	-45.0	-47.8	16.8	0.00e+00	0	40	0	726663168	61	5005
2026-01-17 01:06:00.50	276.40	26.72	-45.0	-47.8	16.8	0.00e+00	0	40	0	728760320	61	5029
2026-01-17 01:06:01.50	276.13	26.64	-45.1	-48.0	16.7	0.00e+00	0	40	0	730857472	61	5125
2026-01-17 01:06:02.50	275.86	26.56	-44.9	-47.6	17.0	0.00e+00	0	40	0	732954624	61	4919
2026-01-17 01:06:03.50	275.58	26.48	-44.7	-47.4	17.2	0.00e+00	0	40	0	734003200	61	4804
2026-01-17 01:06:04.51	275.31	26.39	-44.7	-47.4	17.2	0.00e+00	0	40	0	736100352	61	4790
2026-01-17 01:06:05.51	275.04	26.31	-44.7	-47.4	17.2	0.00e+00	0	40	0	738197504	61	4791
2026-01-17 01:06:06.51	274.78	26.23	-44.7	-47.5	17.1	0.00e+00	0	40	0	740294656	61	4835
2026-01-17 01:06:07.51	274.51	26.15	-44.7	-47.4	17.2	0.00e+00	0	40	0	741343232	61	4790
2026-01-17 01:06:08.51	274.25	26.07	-44.7	-47.4	17.2	0.00e+00	0	40	0	743440384	61	4814
2026-01-17 01:06:09.51	273.99	25.98	-44.5	-47.3	17.4	0.00e+00	0	40	0	745537536	61	4708
2026-01-17 01:06:10.51	273.72	25.90	-44.5	-47.2	17.4	0.00e+00	0	40	0	747634688	61	4693
2026-01-17 01:06:11.51	273.46	25.82	-44.5	-47.3	17.4	0.00e+00	0	40	0	749731840	60	4993
2026-01-17 01:06:12.51	273.21	25.73	-44.5	-47.2	17.4	0.00e+00	0	40	0	750780416	60	4979
2026-01-17 01:06:13.51	272.95	25.65	-44.6	-47.3	17.3	0.00e+00	0	40	0	752877568	60	5016
2026-01-17 01:06:14.51	272.69	25.56	-44.5	-47.2	17.4	0.00e+00	0	40	0	754974720	60	4979
2026-01-17 01:06:15.51	272.44	25.48	-44.4	-47.1	17.5	0.00e+00	0	40	0	757071872	60	4885
2026-01-17 01:06:16.52	272.18	25.39	-44.3	-47.0	17.6	0.00e+00	0	40	0	759169024	60	4819
2026-01-17 01:06:17.52	271.93	25.31	-44.0	-46.5	18.0	0.00e+00	0	39	0	760217600	60	4594
2026-01-17 01:06:18.52	271.68	25.22	-44.0	-46.5	18.0	0.00e+00	0	40	0	762314752	59	4831
2026-01-17 01:06:19.52	271.43	25.13	-44.0	-46.6	17.9	0.00e+00	0	40	0	764411904	59	4890
2026-01-17 01:06:20.52	271.18	25.05	-44.1	-46.7	17.8	0.00e+00	0	40	0	766509056	59	4935
2026-01-17 01:06:21.52	270.94	24.96	-44.1	-46.7	17.8	0.00e+00	0	40	0	767557632	59	4935
2026-01-17 01:06:22.52	270.69	24.87	-44.1	-46.7	17.9	0.00e+00	0	40	0	769654784	59	4930
2026-01-17 01:06:23.52	270.45	24.79	-44.0	-46.5	18.0	0.00e+00	0	40	0	771751936	59	4828
2026-01-17 01:06:24.52	270.21	24.70	-43.8	-46.3	18.2	0.00e+00	0	40	0	773849088	59	4756
2026-01-17 01:06:25.52	269.97	24.61	-43.7	-46.2	18.3	0.00e+00	0	40	0	775946240	59	4681
2026-01-17 01:06:26.52	269.73	24.52	-43.7	-46.1	18.3	0.00e+00	0	40	0	776994816	59	4649
2026-01-17 01:06:27.52	269.49	24.43	-43.5	-45.9	18.6	0.00e+00	0	40	0	779091968	59	4522
2026-01-17 01:06:28.52	269.25	24.34	-43.5	-45.9	18.5	0.00e+00	0	40	0	781189120	59	4527
2026-01-17 01:06:29.52	269.02	24.25	-43.4	-45.8	18.7	0.00e+00	0	40	0	783286272	58	4714
2026-01-17 01:06:30.52	268.78	24.17	-43.4	-45.7	18.7	0.00e+00	0	40	0	785383424	58	4697
2026-01-17 01:06:31.52	268.55	24.08	-43.4	-45.8	18.7	0.00e+00	0	40	0	786432000	58	4752
2026-01-17 01:06:32.52	268.32	23.99	-43.5	-45.9	18.6	0.00e+00	0	40	0	788529152	58	4779
2026-01-17 01:06:33.52	268.09	23.90	-43.3	-45.7	18.8	0.00e+00	0	40	0	790626304	58	4675
2026-01-17 01:06:34.52	267.86	23.81	-43.3	-45.6	18.8	0.00e+00	0	40	0	792723456	58	4631
2026-01-17 01:06:35.52	267.63	23.72	-43.1	-45.4	19.0	0.00e+00	0	40	0	794820608	58	4522
2026-01-17 01:06:36.52	267.41	23.63	-43.0	-45.3	19.1	0.00e+00	0	40	0	795869184	58	4465
2026-01-17 01:06:37.52	267.18	23.53	-43.0	-45.3	19.1	0.00e+00	0	40	0	797966336	58	4487
2026-01-17 01:06:38.52	266.96	23.44	-43.1	-45.4	19.0	0.00e+00	0	40	0	800063488	58	4538
2026-01-17 01:06:39.52	266.74	23.35	-42.9	-45.2	19.2	0.00e+00	0	40	0	802160640	57	4692
2026-01-17 01:06:40.52	266.52	23.26	-42.8	-45.1	19.3	0.00e+00	0	39	0	803209216	57	4604
2026-01-17 01:06:41.52	266.30	23.17	-42.7	-45.0	19.4	0.00e+00	0	40	0	805306368	57	4553
2026-01-17 01:06:42.52	266.08	23.08	-42.6	-44.9	19.4	0.00e+00	0	40	0	807403520	57	4524
2026-01-17 01:06:43.52	265.86	22.99	-42.7	-45.0	19.4	0.00e+00	0	40	0	809500672	57	4561
2026-01-17 01:06:44.53	265.64	22.90	-42.7	-44.9	19.4	0.00e+00	0	40	0	811597824	57	4536
2026-01-17 01:06:45.53	265.43	22.80	-43.7	-46.1	17.5	0.00e+00	0	40	0	812646400	59	4631
2026-01-17 01:06:46.53	265.22	22.71	-42.8	-45.0	19.5	0.00e+00	0	40	0	814743552	57	4579
2026-01-17 01:06:47.52	265.01	22.62	-42.6	-44.8	19.5	0.00e+00	0	40	0	816840704	57	4454
2026-01-17 01:06:48.52	264.80	22.53	-42.4	-44.6	19.7	0.00e+00	0	40	0	818937856	56	4621
2026-01-17 01:06:49.53	264.58	22.44	-42.4	-44.5	19.8	0.00e+00	0	39	0	821035008	56	4584
2026-01-17 01:06:50.52	264.38	22.35	-42.2	-44.3	20.0	0.00e+00	0	40	0	822083584	56	4471
2026-01-17 01:06:51.53	264.17	22.25	-42.0	-44.2	20.1	0.00e+00	0	40	0	824180736	56	4407
2026-01-17 01:06:52.53	263.96	22.16	-42.0	-44.1	20.2	0.00e+00	0	40	0	826277888	56	4380
2026-01-17 01:06:53.52	263.76	22.07	-42.0	-44.2	20.1	0.00e+00	0	40	0	828375040	56	4395
2026-01-17 01:06:54.52	263.56	21.98	-41.7	-43.8	20.3	0.00e+00	0	40	0	829423616	55	4462
2026-01-17 01:06:55.52	263.36	21.88	-41.7	-43.9	20.2	0.00e+00	0	40	0	831520768	55	4500
2026-01-17 01:06:56.52	263.15	21.79	-41.8	-43.9	20.2	0.00e+00	0	40	0	833617920	55	4522
2026-01-17 01:06:57.52	262.95	21.70	-41.8	-44.0	20.2	0.00e+00	0	40	0	835715072	55	4547
2026-01-17 01:06:58.52	262.76	21.61	-41.8	-43.9	20.2	0.00e+00	0	40	0	837812224	55	4536
2026-01-17 01:06:59.52	262.56	21.51	-41.9	-44.0	20.1	0.00e+00	0	40	0	838860800	55	4569
2026-01-17 01:07:00.52	262.36	21.42	-41.9	-44.0	20.1	0.00e+00	0	40	0	840957952	55	4582
2026-01-17 01:07:01.53	262.17	21.33	-41.9	-44.0	20.1	0.00e+00	0	40	0	843055104	55	4567
2026-01-17 01:07:02.53	261.97	21.23	-41.8	-43.9	20.2	0.00e+00	0	40	0	845152256	55	4534
2026-01-17 01:07:03.53	261.78	21.14	-41.8	-43.9	20.2	0.00e+00	0	40	0	847249408	55	4520
2026-01-17 01:07:04.53	261.59	21.05	-41.7	-43.8	20.3	0.00e+00	0	40	0	848297984	55	4489
2026-01-17 01:07:05.53	261.40	20.96	-41.7	-43.8	20.4	0.00e+00	0	40	0	850395136	55	4444
2026-01-17 01:07:06.53	261.21	20.86	-41.6	-43.7	20.4	0.00e+00	0	40	0	852492288	55	4429
2026-01-17 01:07:07.53	261.02	20.77	-41.7	-43.9	20.3	0.00e+00	0	40	0	854589440	55	4504
2026-01-17 01:07:08.53	260.83	20.68	-41.8	-43.9	20.2	0.00e+00	0	40	0	856686592	55	4533
2026-01-17 01:07:09.53	260.65	20.59	-41.9	-44.0	20.1	0.00e+00	0	40	0	857735168	55	4588
2026-01-17 01:07:10.54	260.46	20.49	-41.9	-44.1	20.1	0.00e+00	0	40	0	859832320	55	4603
2026-01-17 01:07:11.54	260.28	20.40	-42.0	-44.2	20.0	0.00e+00	0	40	0	861929472	55	4658
2026-01-17 01:07:12.54	260.10	20.31	-42.1	-44.3	19.8	0.00e+00	0	40	0	864026624	55	4726
2026-01-17 01:07:13.54	259.92	20.22	-42.0	-44.2	20.0	0.00e+00	0	40	0	865075200	55	4657
2026-01-17 01:07:14.54	259.74	20.12	-41.9	-44.1	20.0	0.00e+00	0	40	0	867172352	55	4607
2026-01-17 01:07:15.54	259.56	20.03	-41.9	-44.1	20.0	0.00e+00	0	40	0	869269504	55	4632
2026-01-17 01:07:16.54	259.38	19.94	-41.9	-44.1	20.0	0.00e+00	0	40	0	871366656	55	4631
2026-01-17 01:07:17.54	259.20	19.85	-42.0	-44.1	20.0	0.00e+00	0	40	0	873463808	55	4644
2026-01-17 01:07:18.54	259.03	19.75	-42.0	-44.2	20.0	0.00e+00	0	40	0	874512384	55	4660
2026-01-17 01:07:19.55	258.85	19.66	-42.1	-44.3	19.8	0.00e+00	0	40	0	876609536	55	4745
2026-01-17 01:07:20.55	258.68	19.57	-42.3	-44.5	19.7	0.00e+00	0	40	0	878706688	55	4822
2026-01-17 01:07:21.55	258.50	19.48	-42.4	-44.6	19.5	0.00e+00	0	40	0	880803840	55	4904
2026-01-17 01:07:22.55	258.33	19.38	-42.4	-44.6	19.5	0.00e+00	0	40	0	882900992	55	4914
2026-01-17 01:07:23.55	258.16	19.29	-42.3	-44.6	19.6	0.00e+00	0	40	0	883949568	55	4873
2026-01-17 01:07:24.55	257.99	19.20	-42.4	-44.6	19.5	0.00e+00	0	40	0	886046720	55	4906
2026-01-17 01:07:25.55	257.82	19.11	-42.3	-44.6	19.6	0.00e+00	0	39	0	888143872	55	4877
2026-01-17 01:07:26.55	257.66	19.02	-42.3	-44.5	19.6	0.00e+00	0	39	0	890241024	55	4870
2026-01-17 01:07:27.55	257.49	18.93	-42.3	-44.5	19.6	0.00e+00	0	40	0	892338176	55	4868
2026-01-17 01:07:28.56	257.32	18.83	-42.5	-44.7	19.4	0.00e+00	0	40	0	893386752	55	4969
2026-01-17 01:07:29.56	257.16	18.74	-42.6	-44.9	19.2	0.00e+00	0	40	0	895483904	55	5068
2026-01-17 01:07:30.56	256.99	18.65	-42.9	-45.2	19.1	0.00e+00	0	40	0	897581056	56	4944
2026-01-17 01:07:31.56	256.83	18.56	-43.1	-45.5	18.8	0.00e+00	0	40	0	899678208	56	5125
2026-01-17 01:07:32.56	256.67	18.47	-43.2	-45.6	18.8	0.00e+00	0	40	0	901775360	57	4884
2026-01-17 01:07:33.56	256.51	18.38	-43.3	-45.7	18.6	0.00e+00	0	40	0	902823936	57	4939
2026-01-17 01:07:34.56	256.35	18.29	-43.3	-45.7	18.6	0.00e+00	0	39	0	904921088	57	4940
2026-01-17 01:07:35.56	256.19	18.20	-43.3	-45.7	18.6	0.00e+00	0	39	0	907018240	57	4956
2026-01-17 01:07:36.56	256.03	18.11	-43.4	-45.8	18.5	0.00e+00	0	40	0	909115392	57	5020
2026-01-17 01:07:37.56	255.88	18.01	-43.2	-45.6	18.7	0.00e+00	0	40	0	910163968	57	4923
2026-01-17 01:07:38.57	255.72	17.92	-43.2	-45.6	18.7	0.00e+00	0	40	0	912261120	57	4893
2026-01-17 01:07:39.56	255.57	17.83	-43.3	-45.6	18.7	0.00e+00	0	40	0	914358272	57	4924
2026-01-17 01:07:40.56	255.41	17.74	-43.2	-45.6	18.7	0.00e+00	0	40	0	916455424	57	4901
2026-01-17 01:07:41.56	255.26	17.65	-43.3	-45.7	18.6	0.00e+00	0	40	0	918552576	57	4964
2026-01-17 01:07:42.56	255.11	17.56	-43.3	-45.7	18.6	0.00e+00	0	40	0	919601152	57	4961
2026-01-17 01:07:43.57	254.96	17.47	-43.3	-45.7	18.6	0.00e+00	0	40	0	921698304	57	4947
2026-01-17 01:07:44.57	254.81	17.38	-43.3	-45.7	18.6	0.00e+00	0	40	0	923795456	57	4949
2026-01-17 01:07:45.57	254.66	17.29	-43.2	-45.7	18.7	0.00e+00	0	40	0	925892608	57	4934
2026-01-17 01:07:46.57	254.51	17.20	-43.3	-45.8	18.5	0.00e+00	0	40	0	927989760	57	4991
2026-01-17 01:07:47.57	254.36	17.11	-43.4	-45.8	18.5	0.00e+00	0	40	0	929038336	57	5015
2026-01-17 01:07:48.57	254.21	17.03	-43.3	-45.8	18.5	0.00e+00	0	40	0	931135488	57	4996
2026-01-17 01:07:49.57	254.07	16.94	-43.4	-45.8	18.5	0.00e+00	0	40	0	933232640	57	5013
2026-01-17 01:07:50.58	253.92	16.85	-43.3	-45.7	18.6	0.00e+00	0	40	0	935329792	57	4972
2026-01-17 01:07:51.58	253.78	16.76	-43.4	-45.8	18.5	0.00e+00	0	40	0	937426944	57	5017
2026-01-17 01:07:52.58	253.64	16.67	-43.4	-45.9	18.4	0.00e+00	0	40	0	938475520	57	5071
2026-01-17 01:07:53.58	253.49	16.58	-43.4	-45.9	18.4	0.00e+00	0	40	0	940572672	57	5054
2026-01-17 01:07:54.58	253.35	16.49	-43.5	-46.0	18.3	0.00e+00	0	40	0	942669824	57	5110
2026-01-17 01:07:55.58	253.21	16.40	-43.6	-46.1	18.2	0.00e+00	0	40	0	944766976	57	5183
2026-01-17 01:07:56.58	253.07	16.32	-43.7	-46.2	18.1	0.00e+00	0	40	0	945815552	58	4927
2026-01-17 01:07:57.57	252.93	16.23	-43.8	-46.3	18.0	0.00e+00	0	40	0	947912704	58	5004
2026-01-17 01:07:58.57	252.80	16.14	-43.8	-46.3	18.0	0.00e+00	0	40	0	950009856	58	5004
2026-01-17 01:07:59.58	252.66	16.05	-43.8	-46.3	18.0	0.00e+00	0	40	0	952107008	58	5026
2026-01-17 01:08:00.57	252.52	15.97	-43.8	-46.3	18.0	0.00e+00	0	40	0	954204160	58	5020
2026-01-17 01:08:01.58	252.39	15.88	-43.6	-46.1	18.2	0.00e+00	0	40	0	955252736	58	4893
2026-01-17 01:08:02.58	252.25	15.79	-43.7	-46.1	18.1	0.00e+00	0	39	0	957349888	58	4925
2026-01-17 01:08:03.57	252.12	15.70	-43.6	-46.1	18.2	0.00e+00	0	40	0	959447040	58	4878
2026-01-17 01:08:04.58	251.98	15.62	-43.7	-46.2	18.1	0.00e+00	0	40	0	961544192	58	4952
2026-01-17 01:08:05.58	251.85	15.53	-43.7	-46.3	18.0	0.00e+00	0	40	0	963641344	58	4995
2026-01-17 01:08:06.58	251.72	15.44	-43.6	-46.1	18.2	0.00e+00	0	40	0	964689920	58	4908
2026-01-17 01:08:07.58	251.59	15.36	-43.7	-46.3	18.0	0.00e+00	0	40	0	966787072	58	4994
2026-01-17 01:08:08.58	251.46	15.27	-43.8	-46.3	18.0	0.00e+00	0	40	0	968884224	58	5009
2026-01-17 01:08:09.58	251.33	15.18	-43.8	-46.4	17.9	0.00e+00	0	40	0	970981376	58	5066
2026-01-17 01:08:10.58	251.20	15.10	-44.0	-46.6	17.7	0.00e+00	0	40	0	972029952	58	5174
2026-01-17 01:08:11.59	251.07	15.01	-44.0	-46.6	17.7	0.00e+00	0	40	0	974127104	58	5204
2026-01-17 01:08:12.59	250.94	14.93	-44.1	-46.7	17.6	0.00e+00	0	40	0	976224256	58	5231
2026-01-17 01:08:13.59	250.82	14.84	-44.1	-46.7	17.5	0.00e+00	0	39	0	978321408	58	5267
2026-01-17 01:08:14.59	250.69	14.75	-44.0	-46.6	17.7	0.00e+00	0	40	0	980418560	58	5162
2026-01-17 01:08:15.59	250.57	14.67	-44.0	-46.6	17.7	0.00e+00	0	40	0	981467136	58	5187
2026-01-17 01:08:16.59	250.44	14.58	-44.0	-46.6	17.7	0.00e+00	0	40	0	983564288	58	5189
2026-01-17 01:08:17.59	250.32	14.50	-43.9	-46.5	17.8	0.00e+00	0	40	0	985661440	58	5136
2026-01-17 01:08:18.59	250.20	14.41	-44.0	-46.5	17.7	0.00e+00	0	40	0	987758592	58	5156
2026-01-17 01:08:19.60	250.07	14.33	-44.0	-46.7	17.6	0.00e+00	0	40	0	989855744	58	5222
2026-01-17 01:08:20.60	249.95	14.24	-44.1	-46.8	17.5	0.00e+00	0	40	0	990904320	58	5291
2026-01-17 01:08:21.60	249.83	14.16	-44.2	-46.9	17.4	0.00e+00	0	39	0	993001472	59	5050
2026-01-17 01:08:22.60	249.71	14.08	-44.2	-46.9	17.4	0.00e+00	0	40	0	995098624	59	5051
2026-01-17 01:08:23.60	249.59	13.99	-44.3	-47.0	17.2	0.00e+00	0	40	0	997195776	59	5143
2026-01-17 01:08:24.60	249.47	13.91	-44.5	-47.2	17.0	0.00e+00	0	39	0	999292928	59	5278
2026-01-17 01:08:25.60	249.35	13.83	-44.6	-47.4	16.9	0.00e+00	0	40	0	1000341504	59	5392
2026-01-17 01:08:26.61	249.24	13.74	-44.8	-47.7	16.6	0.00e+00	0	40	0	1002438656	60	5234
2026-01-17 01:08:27.60	249.12	13.66	-44.8	-47.7	16.6	0.00e+00	0	40	0	1004535808	60	5235
2026-01-17 01:08:28.61	249.00	13.57	-44.7	-47.7	16.6	0.00e+00	0	40	0	1006632960	60	5248
2026-01-17 01:08:29.61	248.89	13.49	-44.9	-47.9	16.4	0.00e+00	0	40	0	1008730112	60	5374
2026-01-17 01:08:30.61	248.77	13.41	-44.7	-47.6	16.7	0.00e+00	0	40	0	1009778688	60	5205
2026-01-17 01:08:31.61	248.66	13.33	-44.6	-47.6	16.8	0.00e+00	0	40	0	1011875840	60	5160
2026-01-17 01:08:32.61	248.55	13.24	-44.6	-47.5	16.8	0.00e+00	0	40	0	1013972992	60	5120
2026-01-17 01:08:33.61	248.43	13.16	-44.4	-47.3	17.0	0.00e+00	0	40	0	1016070144	60	5022
2026-01-17 01:08:34.61	248.32	13.08	-44.4	-47.3	17.0	0.00e+00	0	40	0	1017118720	60	5017
2026-01-17 01:08:35.61	248.21	13.00	-44.5	-47.4	16.9	0.00e+00	0	40	0	1019215872	60	5058
2026-01-17 01:08:36.61	248.10	12.92	-44.4	-47.3	16.9	0.00e+00	0	40	0	1021313024	60	5026
2026-01-17 01:08:37.61	247.99	12.83	-44.5	-47.4	16.9	0.00e+00	0	40	0	1023410176	60	5073
2026-01-17 01:08:38.61	247.88	12.75	-44.5	-47.4	16.9	0.00e+00	0	40	0	1025507328	60	5053
2026-01-17 01:08:39.61	247.77	12.67	-44.6	-47.5	16.8	0.00e+00	0	40	0	1026555904	60	5143
2026-01-17 01:08:40.61	247.66	12.59	-44.7	-47.6	16.7	0.00e+00	0	40	0	1028653056	60	5189
2026-01-17 01:08:41.61	247.56	12.51	-44.9	-47.8	16.5	0.00e+00	0	40	0	1030750208	60	5329
2026-01-17 01:08:42.61	247.45	12.43	-44.9	-47.9	16.4	0.00e+00	0	40	0	1032847360	60	5349
2026-01-17 01:08:43.61	247.34	12.35	-45.0	-47.9	16.3	0.00e+00	0	40	0	1034944512	60	5380
2026-01-17 01:08:44.62	247.23	12.27	-44.9	-47.9	16.4	0.00e+00	0	40	0	1035993088	60	5371
2026-01-17 01:08:45.61	247.13	12.19	-45.0	-48.0	16.3	0.00e+00	0	40	0	1038090240	60	5413
2026-01-17 01:08:46.62	247.02	12.11	-44.9	-47.9	16.4	0.00e+00	0	40	0	1040187392	60	5355
2026-01-17 01:08:47.62	246.92	12.03	-44.8	-47.7	16.6	0.00e+00	0	40	0	1042284544	60	5237
2026-01-17 01:08:48.62	246.82	11.95	-44.8	-47.6	16.6	0.00e+00	0	39	0	1044381696	60	5212
2026-01-17 01:08:49.62	246.71	11.87	-44.8	-47.7	16.6	0.00e+00	0	40	0	1045430272	60	5247
2026-01-17 01:08:50.62	246.61	11.79	-44.8	-47.7	16.6	0.00e+00	0	40	0	1047527424	60	5249
2026-01-17 01:08:51.62	246.51	11.71	-44.7	-47.6	16.6	0.00e+00	0	40	0	1049624576	60	5199
2026-01-17 01:08:52.62	246.41	11.63	-44.7	-47.7	16.6	0.00e+00	0	39	0	1051721728	60	5232
2026-01-17 01:08:53.62	246.31	11.55	-44.8	-47.7	16.3	0.00e+00	0	40	0	1052770304	60	5278
2026-01-17 01:08:54.62	246.21	11.47	-44.8	-47.8	16.4	0.00e+00	0	40	0	1054867456	60	5303
2026-01-17 01:08:55.62	246.11	11.39	-44.8	-47.9	16.4	0.00e+00	0	40	0	1056964608	60	5362
2026-01-17 01:08:56.62	246.01	11.32	-44.9	-48.0	16.3	0.00e+00	0	40	0	1059061760	60	5405
2026-01-17 01:08:57.62	245.91	11.24	-44.9	-48.0	16.2	0.00e+00	0	40	0	1061158912	60	5428
2026-01-17 01:08:58.62	245.81	11.16	-44.9	-48.1	16.2	0.00e+00	0	40	0	1062207488	60	5481
2026-01-17 01:08:59.62	245.71	11.08	-44.9	-48.0	16.2	0.00e+00	0	40	0	1064304640	60	5416
2026-01-17 01:09:00.62	245.62	11.00	-45.0	-48.2	16.0	0.00e+00	0	40	0	1066401792	60	5561
2026-01-17 01:09:01.62	245.52	10.93	-45.1	-48.3	16.0	0.00e+00	0	40	0	1068498944	60	5600
2026-01-17 01:09:02.62	245.42	10.85	-45.1	-48.3	15.9	0.00e+00	0	40	0	1070596096	60	5624
2026-01-17 01:09:03.62	245.33	10.77	-45.0	-48.1	16.1	0.00e+00	0	40	0	1071644672	60	5499
2026-01-17 01:09:04.63	245.23	10.69	-45.1	-48.3	16.0	0.00e+00	0	40	0	1073741824	60	5598
2026-01-17 01:09:05.62	245.14	10.62	-45.0	-48.1	16.1	0.00e+00	0	40	0	1075838976	60	5491
2026-01-17 01:09:06.63	245.05	10.54	-45.1	-48.1	16.1	0.00e+00	0	40	0	1077936128	60	5527
2026-01-17 01:09:07.63	244.95	10.46	-45.0	-48.1	16.1	0.00e+00	0	40	0	1078984704	60	5513
2026-01-17 01:09:08.63	244.86	10.39	-45.1	-48.2	16.0	0.00e+00	0	40	0	1081081856	60	5545
2026-01-17 01:09:09.63	244.77	10.31	-45.0	-48.1	16.1	0.00e+00	0	40	0	1083179008	60	5481
2026-01-17 01:09:10.63	244.67	10.24	-45.2	-48.3	15.9	0.00e+00	0	40	0	1085276160	60	5605
2026-01-17 01:09:11.63	244.58	10.16	-45.1	-48.1	16.0	0.00e+00	0	40	0	1087373312	61	5213
2026-01-17 01:09:12.63	244.49	10.08	-45.2	-48.3	15.9	0.00e+00	0	40	0	1088421888	61	5293
2026-01-17 01:09:13.64	244.40	10.01	-45.2	-48.3	15.8	0.00e+00	0	40	0	1090519040	61	5329
2026-01-17 01:09:14.64	244.31	9.93	-45.4	-48.5	15.6	0.00e+00	0	40	0	1092616192	61	5456
2026-01-17 01:09:15.64	244.22	9.86	-45.4	-48.5	15.7	0.00e+00	0	40	0	1094713344	61	5446
2026-01-17 01:09:16.64	244.13	9.78	-45.5	-48.7	15.5	0.00e+00	0	40	0	1096810496	61	5562
2026-01-17 01:09:17.65	244.04	9.71	-45.6	-48.9	15.3	0.00e+00	0	40	0	1097859072	61	5677
2026-01-17 01:09:18.64	243.96	9.63	-45.7	-49.0	15.2	0.00e+00	0	40	0	1099956224	61	5736
2026-01-17 01:09:19.65	243.87	9.56	-45.7	-49.0	15.2	0.00e+00	0	40	0	1102053376	61	5742
2026-01-17 01:09:20.65	243.78	9.48	-45.7	-49.1	15.1	0.00e+00	0	40	0	1104150528	62	5498
2026-01-17 01:09:21.65	243.69	9.41	-45.8	-49.2	15.0	7.00e-07	0	40	0	1106247680	62	5562
2026-01-17 01:09:22.65	243.61	9.33	-45.8	-49.1	15.0	0.00e+00	0	40	0	1107296256	62	5510
2026-01-17 01:09:23.65	243.52	9.26	-45.8	-49.2	15.0	0.00e+00	0	40	0	1109393408	62	5537
2026-01-17 01:09:24.65	243.44	9.19	-45.8	-49.1	15.0	7.00e-07	0	39	0	1111490560	62	5525
2026-01-17 01:09:25.66	243.35	9.11	-45.6	-49.0	15.1	0.00e+00	0	40	0	1113587712	62	5437
2026-01-17 01:09:26.66	243.27	9.04	-45.5	-48.8	15.3	0.00e+00	0	40	0	1115684864	62	5326
2026-01-17 01:09:27.66	243.18	8.96	-48.0	-53.4	11.4	2.89e-05	0	40	0	1116733440	66	7122
2026-01-17 01:09:28.66	243.10	8.89	-49.9	-65.6	3.8	1.49e+00	0	40	104	1117782016	71	21883
2026-01-17 01:09:29.65	243.02	8.82	-50.4	-65.8	3.8	1.49e+00	0	40	104	1117782016	71	22271
2026-01-17 01:09:30.65	242.93	8.75	-50.5	-65.8	3.8	1.49e+00	0	40	104	1117782016	71	22509
2026-01-17 01:09:31.65	242.85	8.67	-50.5	-65.9	3.8	1.49e+00	0	40	104	1117782016	71	22727
2026-01-17 01:09:32.65	242.77	8.60	-50.4	-65.9	3.8	1.49e+00	0	40	104	1117782016	72	21416
2026-01-17 01:09:33.64	242.69	8.53	-50.6	-66.0	3.8	1.49e+00	0	40	104	1117782016	72	21617
2026-01-17 01:09:34.64	242.61	8.46	-50.6	-66.0	3.8	1.49e+00	0	40	104	1117782016	72	21688
2026-01-17 01:09:35.64	242.53	8.38	-50.7	-66.0	3.8	1.49e+00	0	40	104	1117782016	72	21632
2026-01-17 01:09:36.63	242.45	8.31	-50.8	-66.1	3.8	1.49e+00	0	40	104	1117782016	72	21763
2026-01-17 01:09:37.63	242.37	8.24	-50.9	-66.1	3.8	1.49e+00	0	40	104	1117782016	72	21803
2026-01-17 01:09:38.63	242.29	8.17	-50.8	-66.1	3.8	1.49e+00	0	40	104	1117782016	72	21857
2026-01-17 01:09:39.62	242.21	8.10	-50.8	-66.1	3.8	1.49e+00	0	40	104	1117782016	72	21904
2026-01-17 01:09:40.62	242.13	8.03	-50.8	-66.1	3.8	1.49e+00	0	40	104	1117782016	72	21854
2026-01-17 01:09:41.61	242.05	7.96	-50.7	-66.1	3.8	1.49e+00	0	40	104	1117782016	72	21894
2026-01-17 01:09:42.61	241.97	7.89	-50.8	-66.1	3.8	1.49e+00	0	40	104	1117782016	72	21869
2026-01-17 01:09:43.60	241.90	7.82	-50.8	-66.1	3.8	1.49e+00	0	40	104	1117782016	72	21876
2026-01-17 01:09:44.60	241.82	7.74	-50.8	-66.1	3.8	1.49e+00	0	40	104	1117782016	72	21866
2026-01-17 01:09:45.60	241.74	7.67	-50.8	-66.1	3.8	1.49e+00	0	40	104	1117782016	72	21950
2026-01-17 01:09:46.59	241.67	7.60	-50.7	-66.1	3.8	1.49e+00	0	40	104	1117782016	72	21835
2026-01-17 01:09:47.59	241.59	7.53	-50.6	-66.0	3.8	1.49e+00	0	40	104	1117782016	72	21749
2026-01-17 01:09:48.58	241.52	7.46	-50.6	-66.0	3.8	1.49e+00	0	40	104	1117782016	72	21687
2026-01-17 01:09:49.58	241.44	7.39	-50.4	-66.0	3.8	1.49e+00	0	40	104	1117782016	72	21705
2026-01-17 01:09:50.58	241.37	7.32	-50.4	-66.0	3.8	1.49e+00	0	40	104	1117782016	72	21740
2026-01-17 01:09:51.57	241.29	7.26	-50.4	-66.0	3.8	1.49e+00	0	40	104	1117782016	72	21670
2026-01-17 01:09:52.57	241.22	7.19	-50.4	-66.0	3.8	1.49e+00	0	40	104	1117782016	72	21656
2026-01-17 01:09:53.56	241.15	7.12	-50.4	-66.1	3.8	1.49e+00	0	40	104	1117782016	72	21759
2026-01-17 01:09:54.56	241.07	7.05	-50.4	-66.0	3.8	1.49e+00	0	40	104	1117782016	72	21634
2026-01-17 01:09:55.56	241.00	6.98	-50.4	-66.0	3.8	1.49e+00	0	40	104	1117782016	72	21672
2026-01-17 01:09:56.56	240.93	6.91	-50.4	-66.0	3.8	1.49e+00	0	40	104	1117782016	72	21568
2026-01-17 01:09:57.55	240.86	6.84	-50.4	-66.0	3.8	1.49e+00	0	40	104	1117782016	72	21612
2026-01-17 01:09:58.55	240.78	6.77	-50.4	-66.0	3.8	1.49e+00	0	40	104	1117782016	72	21695
2026-01-17 01:09:59.55	240.71	6.70	-50.4	-66.0	3.8	1.49e+00	0	40	104	1117782016	72	21673
2026-01-17 01:10:00.55	240.64	6.64	-50.4	-66.0	3.8	1.49e+00	0	40	104	1117782016	72	21587
2026-01-17 01:10:01.55	240.57	6.57	-50.4	-66.0	3.8	1.49e+00	0	40	104	1117782016	72	21642
2026-01-17 01:10:02.54	240.50	6.50	-50.4	-66.0	3.8	1.49e+00	0	40	104	1117782016	72	21587
2026-01-17 01:10:03.54	240.43	6.43	-50.4	-66.0	3.8	1.49e+00	0	40	104	1117782016	72	21573
2026-01-17 01:10:04.53	240.36	6.36	-50.4	-66.0	3.8	1.49e+00	0	40	104	1117782016	72	21684
2026-01-17 01:10:05.53	240.29	6.30	-50.4	-66.0	3.8	1.49e+00	0	40	104	1117782016	72	21575
2026-01-17 01:10:06.53	240.22	6.23	-50.4	-66.0	3.8	1.49e+00	0	40	104	1117782016	72	21608
2026-01-17 01:10:07.53	240.15	6.16	-50.4	-66.0	3.8	1.49e+00	0	40	104	1117782016	72	21649
2026-01-17 01:10:08.53	240.08	6.09	-50.4	-66.0	3.8	1.49e+00	0	40	104	1117782016	72	21512
2026-01-17 01:10:09.52	240.02	6.03	-50.4	-66.0	3.8	1.49e+00	0	40	104	1117782016	72	21578
2026-01-17 01:10:10.52	239.95	5.96	-50.4	-66.0	3.8	1.49e+00	0	40	104	1117782016	72	21594
2026-01-17 01:10:11.51	239.88	5.89	-50.4	-66.0	3.8	1.49e+00	0	40	104	1117782016	72	21622
2026-01-17 01:10:12.51	239.81	5.83	-50.4	-66.0	3.8	1.49e+00	0	40	104	1117782016	72	21542
