passes_logs/2026/01/17/T1/T1__20260117_220928_NOAA_21_JPSS-2_rec.log

#Pass ID: 20260117_220928_NOAA 21 (JPSS-2)
#Satellite: NOAA 21 (JPSS-2)
#Configuration: NOAA 21
#almurnet v.1.7.20251203
#Start time: 2026-01-17 22:09:30

#Version: 2.0.20230620
#Station: T1
#Location: 37.570604 lon 55.790049 lat
#TLE: 1 54234U 22150A   26017.26823908  .00000042  00000+0  40962-4 0  9992
#TLE: 2 54234  98.7501 318.1405 0000613 274.2947  85.8159 14.19535194165131

#Time	Az	El	Level	Level2	SNR	BER	BlckErr	Temp	State	Recorded	gain1	gain2
2026-01-17 22:09:30.73	29.95	5.12	-47.6	-61.1	3.8	1.49e+00	0	39	0	0	66	17473
2026-01-17 22:09:31.72	30.04	5.18	-47.6	-61.1	3.8	1.49e+00	0	39	104	0	65	18383
2026-01-17 22:09:32.72	30.13	5.24	-47.6	-61.1	3.8	1.49e+00	0	39	104	0	65	18361
2026-01-17 22:09:33.71	30.22	5.29	-47.6	-61.1	3.8	1.49e+00	0	39	104	0	65	18417
2026-01-17 22:09:34.70	30.31	5.35	-47.6	-61.1	3.8	1.49e+00	0	39	104	0	65	18434
2026-01-17 22:09:35.69	30.39	5.41	-47.6	-61.1	3.8	1.49e+00	0	39	104	0	65	18359
2026-01-17 22:09:36.69	30.48	5.47	-47.6	-61.1	3.8	1.49e+00	0	39	104	0	65	18367
2026-01-17 22:09:37.68	30.57	5.52	-47.6	-61.1	3.8	1.49e+00	0	39	104	0	65	18414
2026-01-17 22:09:38.67	30.66	5.58	-47.6	-61.1	3.8	1.49e+00	0	39	104	0	65	18328
2026-01-17 22:09:39.67	30.76	5.64	-47.6	-61.0	3.8	1.49e+00	0	39	104	0	65	18277
2026-01-17 22:09:40.66	30.85	5.70	-47.6	-61.0	3.8	1.49e+00	0	40	104	0	65	18294
2026-01-17 22:09:41.65	30.94	5.76	-47.6	-61.1	3.8	1.49e+00	0	39	104	0	65	18405
2026-01-17 22:09:42.65	31.03	5.82	-47.6	-61.1	3.8	1.49e+00	0	39	104	0	65	18338
2026-01-17 22:09:43.64	31.12	5.87	-47.6	-61.1	3.8	1.49e+00	0	40	104	0	65	18339
2026-01-17 22:09:44.63	31.21	5.93	-47.6	-61.0	3.8	1.49e+00	0	40	104	0	65	18259
2026-01-17 22:09:45.63	31.31	5.99	-47.6	-61.0	3.8	1.49e+00	0	40	104	0	65	18276
2026-01-17 22:09:46.62	31.40	6.05	-47.6	-61.0	3.8	1.49e+00	0	40	104	0	65	18218
2026-01-17 22:09:47.62	31.49	6.11	-47.6	-61.0	3.8	1.49e+00	0	40	104	0	65	18242
2026-01-17 22:09:48.61	31.59	6.17	-47.6	-61.0	3.8	1.49e+00	0	40	104	0	65	18198
2026-01-17 22:09:49.60	31.68	6.23	-47.6	-61.0	3.8	1.49e+00	0	40	104	0	65	18282
2026-01-17 22:09:50.60	31.78	6.29	-47.6	-60.9	3.8	1.49e+00	0	40	104	0	65	18029
2026-01-17 22:09:51.59	31.87	6.34	-47.6	-61.0	3.8	1.49e+00	0	40	104	0	65	18155
2026-01-17 22:09:52.58	31.97	6.40	-47.6	-61.0	3.8	1.49e+00	0	40	104	0	65	18137
2026-01-17 22:09:53.58	32.06	6.46	-47.6	-61.0	3.8	1.49e+00	0	40	104	0	65	18109
2026-01-17 22:09:54.57	32.16	6.52	-47.6	-61.0	3.8	1.49e+00	0	40	104	0	65	18177
2026-01-17 22:09:55.56	32.25	6.58	-47.6	-61.0	3.8	1.49e+00	0	40	104	0	65	18158
2026-01-17 22:09:56.56	32.35	6.64	-47.6	-60.9	3.8	1.49e+00	0	40	104	0	65	18059
2026-01-17 22:09:57.55	32.45	6.70	-47.6	-61.0	3.8	1.49e+00	0	40	104	0	65	18195
2026-01-17 22:09:58.54	32.55	6.76	-47.6	-61.0	3.8	1.49e+00	0	40	104	0	65	18279
2026-01-17 22:09:59.54	32.64	6.82	-47.6	-61.0	3.8	1.49e+00	0	40	104	0	65	18275
2026-01-17 22:10:00.53	32.74	6.88	-47.6	-61.0	3.8	1.49e+00	0	40	104	0	65	18282
2026-01-17 22:10:01.53	32.84	6.94	-47.6	-61.0	3.8	1.49e+00	0	40	104	0	65	18135
2026-01-17 22:10:02.52	32.94	7.00	-47.6	-61.0	3.8	1.49e+00	0	40	104	0	65	18202
2026-01-17 22:10:03.51	33.04	7.06	-47.6	-60.9	3.8	1.49e+00	0	40	104	0	65	18090
2026-01-17 22:10:04.51	33.14	7.12	-47.6	-61.0	3.8	1.49e+00	0	40	104	0	65	18102
2026-01-17 22:10:05.50	33.24	7.18	-47.6	-60.9	3.8	1.49e+00	0	40	104	0	65	18020
2026-01-17 22:10:06.49	33.34	7.24	-47.6	-60.9	3.8	1.49e+00	0	40	104	0	65	18029
2026-01-17 22:10:07.49	33.44	7.30	-47.6	-60.9	3.8	1.49e+00	0	40	104	0	65	18027
2026-01-17 22:10:08.48	33.54	7.36	-47.6	-60.9	3.8	1.49e+00	0	40	104	0	65	17997
2026-01-17 22:10:09.48	33.64	7.42	-47.6	-61.0	3.8	1.49e+00	0	40	104	0	65	18100
2026-01-17 22:10:10.47	33.75	7.48	-47.6	-61.0	3.8	1.49e+00	0	40	104	0	65	18097
2026-01-17 22:10:11.46	33.85	7.54	-47.6	-60.9	3.8	1.49e+00	0	40	104	0	65	17930
2026-01-17 22:10:12.46	33.95	7.60	-47.5	-60.7	3.8	1.49e+00	0	41	104	0	65	17550
2026-01-17 22:10:13.45	34.06	7.66	-47.5	-60.6	3.8	1.49e+00	0	40	104	0	65	17446
2026-01-17 22:10:14.44	34.16	7.72	-47.5	-60.6	3.8	1.49e+00	0	40	104	0	65	17423
2026-01-17 22:10:15.44	34.26	7.78	-47.5	-60.7	3.8	1.49e+00	0	40	104	0	65	17610
2026-01-17 22:10:16.43	34.37	7.84	-47.5	-60.7	3.8	1.49e+00	0	40	104	0	65	17615
2026-01-17 22:10:17.42	34.47	7.90	-47.6	-60.9	3.8	1.49e+00	0	40	104	0	65	17908
2026-01-17 22:10:18.41	34.58	7.96	-47.6	-61.0	3.8	1.49e+00	0	40	104	0	65	18118
2026-01-17 22:10:19.41	34.69	8.02	-47.6	-61.0	3.8	1.49e+00	0	40	104	0	65	18215
2026-01-17 22:10:20.40	34.79	8.09	-47.6	-61.0	3.8	1.49e+00	0	40	104	0	65	18186
2026-01-17 22:10:21.39	34.90	8.15	-47.6	-61.1	3.8	1.49e+00	0	41	104	0	65	18318
2026-01-17 22:10:22.39	35.01	8.21	-47.6	-61.0	3.8	1.49e+00	0	41	104	0	65	18236
2026-01-17 22:10:23.38	35.11	8.27	-47.6	-61.0	3.8	1.49e+00	0	40	104	0	65	18208
2026-01-17 22:10:24.37	35.22	8.33	-47.6	-60.9	3.8	1.49e+00	0	40	104	0	65	17982
2026-01-17 22:10:25.37	35.33	8.39	-47.6	-60.7	3.8	1.49e+00	0	41	104	0	65	17525
2026-01-17 22:10:26.36	35.44	8.45	-47.5	-60.6	3.8	1.49e+00	0	40	104	0	65	17354
2026-01-17 22:10:27.35	35.55	8.51	-47.5	-60.3	3.8	1.49e+00	0	41	104	0	65	16846
2026-01-17 22:10:28.35	35.66	8.58	-47.5	-60.1	3.8	1.49e+00	0	41	104	0	65	16402
2026-01-17 22:10:29.34	35.77	8.64	-47.5	-60.0	3.8	1.49e+00	0	40	104	0	65	16170
2026-01-17 22:10:30.34	35.88	8.70	-47.4	-59.6	3.8	1.49e+00	0	41	104	0	65	15413
2026-01-17 22:10:31.33	35.99	8.76	-47.4	-58.4	4.0	1.49e+00	0	41	104	0	65	13512
2026-01-17 22:10:32.32	36.10	8.82	-47.1	-56.7	4.1	1.45e+00	0	41	104	0	65	11034
2026-01-17 22:10:33.32	36.21	8.88	-46.7	-54.3	5.7	1.03e+00	0	41	0	0	65	8435
2026-01-17 22:10:34.31	36.33	8.95	-46.1	-52.2	7.6	1.60e-01	0	41	0	0	64	6984
2026-01-17 22:10:35.30	36.44	9.01	-45.5	-50.4	9.4	2.79e-02	0	41	0	0	63	6029
2026-01-17 22:10:36.29	36.55	9.07	-44.6	-48.5	11.5	2.55e-03	0	41	0	0	61	5404
2026-01-17 22:10:37.45	36.69	9.14	-45.0	-49.0	11.2	6.56e-05	0	41	0	0	60	6103
2026-01-17 22:10:38.33	36.79	9.20	-46.6	-53.3	6.4	1.06e+00	0	41	104	0	64	7971
2026-01-17 22:10:39.47	36.92	9.27	-44.1	-47.6	12.5	6.10e-06	0	41	0	0	58	5819
2026-01-17 22:10:40.32	37.02	9.32	-44.8	-49.1	10.8	4.35e-02	0	41	0	0	61	5796
2026-01-17 22:10:41.46	37.15	9.39	-40.6	-42.8	17.0	0.00e+00	0	41	0	0	53	4468
2026-01-17 22:10:42.31	37.25	9.45	-40.5	-42.7	17.1	0.00e+00	0	41	0	0	53	4396
2026-01-17 22:10:43.45	37.38	9.52	-40.3	-42.4	17.4	0.00e+00	0	41	0	0	52	4542
2026-01-17 22:10:44.30	37.48	9.57	-40.2	-42.3	17.5	0.00e+00	0	41	0	0	52	4456
2026-01-17 22:10:45.44	37.62	9.64	-40.1	-42.2	17.6	0.00e+00	0	41	0	0	52	4394
2026-01-17 22:10:46.29	37.72	9.70	-40.2	-42.3	17.6	0.00e+00	0	41	0	0	51	4706
2026-01-17 22:10:47.43	37.86	9.77	-40.0	-42.1	17.8	0.00e+00	0	41	0	0	51	4605
2026-01-17 22:10:48.28	37.96	9.82	-40.0	-42.1	17.7	0.00e+00	0	41	0	0	51	4618
2026-01-17 22:10:49.46	38.10	9.90	-39.9	-41.9	17.9	0.00e+00	0	41	0	0	51	4535
2026-01-17 22:10:50.31	38.20	9.95	-39.8	-41.8	18.0	0.00e+00	0	41	0	0	51	4489
2026-01-17 22:10:51.45	38.34	10.02	-39.8	-41.8	18.0	0.00e+00	0	41	0	0	51	4493
2026-01-17 22:10:52.30	38.45	10.08	-39.8	-41.8	18.0	0.00e+00	0	41	0	0	51	4493
2026-01-17 22:10:53.44	38.59	10.15	-39.7	-41.7	18.1	0.00e+00	0	41	0	0	51	4402
2026-01-17 22:10:54.29	38.69	10.20	-39.7	-41.8	18.1	0.00e+00	0	41	0	0	51	4457
2026-01-17 22:10:55.43	38.83	10.28	-39.4	-41.5	18.3	0.00e+00	0	41	0	0	50	4547
2026-01-17 22:10:56.28	38.94	10.33	-39.6	-41.6	18.2	0.00e+00	0	41	0	0	50	4622
2026-01-17 22:10:57.42	39.08	10.40	-39.4	-41.4	18.4	0.00e+00	0	41	0	0	50	4497
2026-01-17 22:10:58.27	39.19	10.46	-39.5	-41.5	18.4	0.00e+00	0	41	0	0	50	4546
2026-01-17 22:10:59.41	39.33	10.53	-39.7	-41.6	18.2	0.00e+00	0	41	0	0	50	4643
2026-01-17 22:11:00.26	39.44	10.58	-39.5	-41.4	18.4	0.00e+00	0	41	0	0	50	4526
2026-01-17 22:11:01.40	39.58	10.66	-39.5	-41.4	18.5	0.00e+00	0	41	0	0	50	4517
2026-01-17 22:11:02.25	39.69	10.71	-39.5	-41.4	18.5	0.00e+00	0	41	0	0	50	4534
2026-01-17 22:11:03.38	39.83	10.78	-39.6	-41.5	18.4	0.00e+00	0	41	0	0	50	4553
2026-01-17 22:11:04.24	39.94	10.84	-39.6	-41.5	18.4	0.00e+00	0	41	0	0	50	4568
2026-01-17 22:11:05.37	40.09	10.91	-39.7	-41.6	18.3	0.00e+00	0	41	0	0	50	4610
2026-01-17 22:11:06.23	40.20	10.96	-39.6	-41.5	18.3	0.00e+00	0	41	0	0	50	4586
2026-01-17 22:11:07.36	40.35	11.04	-39.5	-41.4	18.4	0.00e+00	0	41	0	0	50	4537
2026-01-17 22:11:08.22	40.46	11.09	-39.5	-41.4	18.4	0.00e+00	0	41	0	0	50	4507
2026-01-17 22:11:09.35	40.61	11.16	-39.5	-41.4	18.4	0.00e+00	0	41	0	0	50	4521
2026-01-17 22:11:10.21	40.72	11.22	-39.4	-41.3	18.5	0.00e+00	0	41	0	0	50	4472
2026-01-17 22:11:11.54	40.90	11.30	-39.4	-41.3	18.6	0.00e+00	0	41	0	0	50	4452
2026-01-17 22:11:12.25	40.99	11.35	-39.4	-41.3	18.6	0.00e+00	0	41	0	0	50	4457
2026-01-17 22:11:13.73	41.19	11.44	-39.4	-41.3	18.6	0.00e+00	0	41	0	0	50	4457
2026-01-17 22:11:14.44	41.28	11.49	-39.4	-41.3	18.6	0.00e+00	0	41	0	0	50	4453
2026-01-17 22:11:15.72	41.46	11.57	-39.5	-41.4	18.5	0.00e+00	0	41	0	0	50	4499
2026-01-17 22:11:16.46	41.56	11.62	-39.4	-41.3	18.7	0.00e+00	0	41	0	0	50	4451
2026-01-17 22:11:17.74	41.73	11.70	-39.7	-41.6	18.4	0.00e+00	0	41	0	0	50	4623
2026-01-17 22:11:18.45	41.83	11.75	-39.7	-41.6	18.4	0.00e+00	0	41	0	0	50	4612
2026-01-17 22:11:19.73	42.00	11.83	-39.8	-41.7	18.3	0.00e+00	0	41	0	0	50	4695
2026-01-17 22:11:20.44	42.10	11.88	-39.7	-41.6	18.3	0.00e+00	0	41	0	0	50	4651
2026-01-17 22:11:21.73	42.28	11.96	-39.6	-41.5	18.5	0.00e+00	0	41	0	0	50	4586
2026-01-17 22:11:22.45	42.38	12.01	-39.7	-41.6	18.4	0.00e+00	0	41	0	0	50	4614
2026-01-17 22:11:23.73	42.56	12.09	-39.7	-41.5	18.4	0.00e+00	0	41	0	0	50	4592
2026-01-17 22:11:24.46	42.66	12.14	-39.6	-41.5	18.5	0.00e+00	0	41	0	0	50	4585
2026-01-17 22:11:25.74	42.84	12.22	-39.5	-41.4	18.6	0.00e+00	0	41	0	0	50	4498
2026-01-17 22:11:26.57	42.95	12.27	-39.5	-41.3	18.6	0.00e+00	0	41	0	0	50	4479
2026-01-17 22:11:27.71	43.12	12.35	-39.4	-41.3	18.7	0.00e+00	0	41	0	0	50	4457
2026-01-17 22:11:28.73	43.26	12.41	-39.3	-41.2	18.8	0.00e+00	0	41	0	0	50	4392
2026-01-17 22:11:29.73	43.40	12.48	-39.3	-41.2	18.8	0.00e+00	0	41	0	0	50	4395
2026-01-17 22:11:30.93	43.58	12.55	-39.3	-41.2	18.8	0.00e+00	0	41	0	0	50	4392
2026-01-17 22:11:31.81	43.70	12.61	-39.3	-41.1	18.8	0.00e+00	0	41	0	0	50	4386
2026-01-17 22:11:33.12	43.89	12.70	-39.3	-41.1	18.8	0.00e+00	0	41	0	0	50	4391
2026-01-17 22:11:33.83	44.00	12.74	-39.3	-41.2	18.8	0.00e+00	0	41	0	0	50	4406
2026-01-17 22:11:35.13	44.19	12.83	-39.4	-41.2	18.7	0.00e+00	0	41	0	0	50	4422
2026-01-17 22:11:35.84	44.29	12.87	-39.4	-41.2	18.7	0.00e+00	0	41	0	0	50	4416
2026-01-17 22:11:37.12	44.48	12.95	-39.4	-41.2	18.7	0.00e+00	0	41	0	0	50	4429
2026-01-17 22:11:37.84	44.59	13.00	-39.3	-41.1	18.7	0.00e+00	0	41	0	0	50	4383
2026-01-17 22:11:39.12	44.78	13.08	-39.1	-41.0	18.9	0.00e+00	0	41	0	0	50	4300
2026-01-17 22:11:39.91	44.89	13.13	-39.2	-41.0	18.9	0.00e+00	0	41	0	0	50	4328
2026-01-17 22:11:41.09	45.07	13.21	-39.2	-41.0	18.8	0.00e+00	0	41	0	0	50	4336
2026-01-17 22:11:41.95	45.20	13.27	-39.3	-41.1	18.8	0.00e+00	0	41	0	0	50	4382
2026-01-17 22:11:43.08	45.37	13.34	-39.2	-41.1	18.8	0.00e+00	0	41	0	0	50	4354
2026-01-17 22:11:43.93	45.50	13.39	-39.1	-40.9	19.0	0.00e+00	0	41	0	0	50	4262
2026-01-17 22:11:45.07	45.67	13.47	-39.1	-40.8	19.1	0.00e+00	0	41	0	0	50	4240
2026-01-17 22:11:45.92	45.80	13.52	-39.0	-40.8	19.1	0.00e+00	0	41	0	0	50	4242
2026-01-17 22:11:47.06	45.98	13.60	-39.1	-40.9	19.1	0.00e+00	0	41	0	0	50	4249
2026-01-17 22:11:47.91	46.11	13.65	-39.0	-40.8	19.1	0.00e+00	0	41	0	0	50	4239
2026-01-17 22:11:49.05	46.29	13.73	-39.1	-40.9	19.0	0.00e+00	0	41	0	0	50	4291
2026-01-17 22:11:50.31	46.48	13.81	-39.1	-40.9	19.1	0.00e+00	0	41	0	0	50	4243
2026-01-17 22:11:51.10	46.61	13.86	-39.1	-40.9	19.0	0.00e+00	0	41	0	0	50	4286
2026-01-17 22:11:52.30	46.80	13.94	-39.1	-40.9	19.0	0.00e+00	0	41	0	0	50	4273
2026-01-17 22:11:53.15	46.93	13.99	-39.0	-40.8	19.1	0.00e+00	0	41	0	0	50	4207
2026-01-17 22:11:54.29	47.11	14.06	-39.0	-40.8	19.1	0.00e+00	0	41	0	0	50	4228
2026-01-17 22:11:55.14	47.25	14.12	-39.0	-40.8	19.1	0.00e+00	0	41	0	0	50	4235
2026-01-17 22:11:56.28	47.43	14.19	-38.9	-40.7	19.2	0.00e+00	0	41	0	0	49	4408
2026-01-17 22:11:57.13	47.57	14.25	-38.9	-40.7	19.2	0.00e+00	0	41	0	0	49	4399
2026-01-17 22:11:58.30	47.75	14.32	-39.0	-40.8	19.1	0.00e+00	0	41	0	0	49	4466
2026-01-17 22:11:59.15	47.89	14.38	-39.0	-40.8	19.1	0.00e+00	0	41	0	0	49	4476
2026-01-17 22:12:00.37	48.09	14.46	-39.1	-40.9	19.0	0.00e+00	0	41	0	0	49	4522
2026-01-17 22:12:01.22	48.23	14.51	-39.1	-40.9	19.0	0.00e+00	0	41	0	0	49	4512
2026-01-17 22:12:02.42	48.43	14.59	-39.1	-40.9	19.0	0.00e+00	0	41	0	0	49	4543
2026-01-17 22:12:03.27	48.57	14.64	-39.1	-40.9	19.0	0.00e+00	0	41	0	0	49	4506
2026-01-17 22:12:04.47	48.77	14.72	-39.1	-40.9	19.0	0.00e+00	0	41	0	0	49	4502
2026-01-17 22:12:05.32	48.91	14.77	-39.0	-40.8	19.1	0.00e+00	0	41	0	0	49	4480
2026-01-17 22:12:06.52	49.11	14.85	-39.0	-40.8	19.1	0.00e+00	0	41	0	0	49	4454
2026-01-17 22:12:07.38	49.25	14.90	-39.0	-40.8	19.1	0.00e+00	0	41	0	0	49	4484
2026-01-17 22:12:08.57	49.45	14.98	-39.1	-40.9	19.1	0.00e+00	0	41	0	0	49	4509
2026-01-17 22:12:09.42	49.60	15.04	-39.0	-40.8	19.2	0.00e+00	0	41	0	0	49	4458
2026-01-17 22:12:10.62	49.80	15.11	-38.9	-40.7	19.3	0.00e+00	0	41	0	0	49	4420
2026-01-17 22:12:11.48	49.95	15.17	-39.0	-40.8	19.2	0.00e+00	0	41	0	0	49	4478
2026-01-17 22:12:12.68	50.15	15.24	-39.0	-40.8	19.2	0.00e+00	0	41	0	0	49	4480
2026-01-17 22:12:13.53	50.30	15.30	-39.2	-41.0	19.0	0.00e+00	0	41	0	0	49	4549
2026-01-17 22:12:14.67	50.49	15.37	-39.1	-40.9	19.1	0.00e+00	0	41	0	0	49	4540
2026-01-17 22:12:15.52	50.64	15.42	-39.1	-40.9	19.1	0.00e+00	0	41	0	0	49	4532
2026-01-17 22:12:16.66	50.84	15.50	-39.0	-40.8	19.2	0.00e+00	0	41	0	0	49	4462
2026-01-17 22:12:17.51	50.99	15.55	-38.9	-40.7	19.3	0.00e+00	0	41	0	0	49	4411
2026-01-17 22:12:18.65	51.19	15.62	-38.9	-40.7	19.3	0.00e+00	0	41	0	0	49	4412
2026-01-17 22:12:19.50	51.34	15.67	-39.0	-40.8	19.2	0.00e+00	0	41	0	0	49	4442
2026-01-17 22:12:20.64	51.54	15.75	-38.9	-40.7	19.3	0.00e+00	0	41	0	0	49	4418
2026-01-17 22:12:21.49	51.69	15.80	-39.0	-40.7	19.3	0.00e+00	0	41	0	0	49	4437
2026-01-17 22:12:22.63	51.90	15.87	-39.1	-40.9	19.0	0.00e+00	0	41	0	0	49	4537
2026-01-17 22:12:23.67	52.08	15.94	-39.1	-41.0	19.0	0.00e+00	0	41	0	0	49	4547
2026-01-17 22:12:24.82	52.29	16.01	-39.3	-41.1	18.9	0.00e+00	0	41	0	0	49	4623
2026-01-17 22:12:25.67	52.44	16.06	-39.3	-41.2	18.9	0.00e+00	0	41	0	0	49	4659
2026-01-17 22:12:26.81	52.65	16.13	-39.3	-41.1	18.9	0.00e+00	0	41	0	0	49	4648
2026-01-17 22:12:27.66	52.80	16.19	-39.3	-41.2	18.9	0.00e+00	0	41	0	0	49	4668
2026-01-17 22:12:28.80	53.01	16.26	-39.1	-40.9	19.2	0.00e+00	0	41	0	0	49	4496
2026-01-17 22:12:29.66	53.17	16.31	-38.9	-40.7	19.3	0.00e+00	0	41	0	0	49	4432
2026-01-17 22:12:30.79	53.38	16.38	-39.0	-40.8	19.3	0.00e+00	0	41	0	0	49	4464
2026-01-17 22:12:31.64	53.54	16.43	-38.9	-40.7	19.4	0.00e+00	0	41	0	0	49	4398
2026-01-17 22:12:32.78	53.75	16.50	-38.9	-40.7	19.3	0.00e+00	0	41	0	0	49	4423
2026-01-17 22:12:33.63	53.91	16.56	-38.9	-40.6	19.4	0.00e+00	0	41	0	0	49	4373
2026-01-17 22:12:34.77	54.12	16.63	-38.8	-40.5	19.5	0.00e+00	0	41	0	0	49	4324
2026-01-17 22:12:35.62	54.28	16.68	-38.9	-40.6	19.4	0.00e+00	0	41	0	0	49	4369
2026-01-17 22:12:36.76	54.50	16.75	-38.8	-40.6	19.5	0.00e+00	0	41	0	0	49	4347
2026-01-17 22:12:37.61	54.66	16.80	-38.9	-40.6	19.4	0.00e+00	0	41	0	0	49	4380
2026-01-17 22:12:38.75	54.88	16.87	-38.9	-40.6	19.3	0.00e+00	0	41	0	0	49	4389
2026-01-17 22:12:39.60	55.04	16.92	-38.8	-40.6	19.4	0.00e+00	0	41	0	0	49	4349
2026-01-17 22:12:40.98	55.30	17.00	-39.0	-40.8	19.2	0.00e+00	0	41	0	0	49	4443
2026-01-17 22:12:41.69	55.44	17.05	-38.9	-40.7	19.2	0.00e+00	0	41	0	0	49	4421
2026-01-17 22:12:43.17	55.73	17.14	-39.1	-40.9	19.1	0.00e+00	0	41	0	0	49	4514
2026-01-17 22:12:44.15	55.92	17.19	-39.1	-40.9	19.1	0.00e+00	0	41	0	0	49	4536
2026-01-17 22:12:45.46	56.17	17.27	-39.1	-40.9	19.2	0.00e+00	0	41	0	0	49	4524
2026-01-17 22:12:46.20	56.32	17.32	-39.0	-40.8	19.3	0.00e+00	0	41	0	0	49	4464
2026-01-17 22:12:47.48	56.57	17.39	-38.9	-40.6	19.4	0.00e+00	0	41	0	0	49	4378
2026-01-17 22:12:48.22	56.72	17.44	-38.9	-40.6	19.4	0.00e+00	0	41	0	0	49	4384
2026-01-17 22:12:49.83	57.04	17.53	-38.8	-40.5	19.5	0.00e+00	0	41	0	0	49	4324
2026-01-17 22:12:50.40	57.15	17.57	-38.8	-40.5	19.5	0.00e+00	0	41	0	0	49	4322
2026-01-17 22:12:52.10	57.49	17.66	-38.7	-40.5	19.5	0.00e+00	0	41	0	0	49	4298
2026-01-17 22:12:52.67	57.61	17.70	-38.7	-40.4	19.5	0.00e+00	0	41	0	0	49	4285
2026-01-17 22:12:54.36	57.95	17.80	-38.7	-40.4	19.5	0.00e+00	0	41	0	0	49	4290
2026-01-17 22:12:54.93	58.06	17.83	-38.7	-40.5	19.4	0.00e+00	0	41	0	0	49	4315
2026-01-17 22:12:56.62	58.41	17.93	-38.7	-40.5	19.5	0.00e+00	0	41	0	0	49	4293
2026-01-17 22:12:57.35	58.56	17.97	-38.8	-40.5	19.4	0.00e+00	0	41	0	0	49	4320
2026-01-17 22:12:58.63	58.82	18.04	-38.9	-40.6	19.4	0.00e+00	0	41	0	0	49	4390
2026-01-17 22:12:59.56	59.01	18.10	-38.8	-40.6	19.4	0.00e+00	0	41	0	0	49	4366
2026-01-17 22:13:00.55	59.22	18.15	-38.8	-40.6	19.4	0.00e+00	0	41	0	0	49	4359
2026-01-17 22:13:01.55	59.43	18.21	-38.8	-40.6	19.5	0.00e+00	0	41	0	0	49	4362
2026-01-17 22:13:02.54	59.63	18.26	-38.8	-40.5	19.5	0.00e+00	0	41	0	0	49	4330
2026-01-17 22:13:03.54	59.84	18.32	-38.7	-40.4	19.6	0.00e+00	0	41	0	0	49	4279
2026-01-17 22:13:04.53	60.05	18.38	-38.6	-40.4	19.7	0.00e+00	0	41	0	0	49	4244
2026-01-17 22:13:05.53	60.26	18.43	-38.6	-40.3	19.7	0.00e+00	0	41	0	0	49	4229
2026-01-17 22:13:06.52	60.47	18.49	-38.6	-40.3	19.6	0.00e+00	0	41	0	0	49	4224
2026-01-17 22:13:07.52	60.68	18.54	-38.6	-40.4	19.6	0.00e+00	0	41	0	0	49	4259
2026-01-17 22:13:08.51	60.89	18.59	-38.7	-40.4	19.5	0.00e+00	0	41	0	0	49	4280
2026-01-17 22:13:09.51	61.11	18.65	-38.7	-40.4	19.5	0.00e+00	0	41	0	0	49	4278
2026-01-17 22:13:10.50	61.32	18.70	-38.6	-40.3	19.6	0.00e+00	0	41	0	0	49	4242
2026-01-17 22:13:11.49	61.53	18.76	-38.6	-40.3	19.8	0.00e+00	0	41	0	0	49	4217
2026-01-17 22:13:12.49	61.75	18.81	-38.6	-40.3	19.7	0.00e+00	0	41	0	0	49	4240
2026-01-17 22:13:13.48	61.96	18.86	-38.5	-40.2	19.8	0.00e+00	0	41	0	0	48	4408
2026-01-17 22:13:14.48	62.18	18.92	-38.4	-40.1	19.9	0.00e+00	0	41	0	0	48	4377
2026-01-17 22:13:15.47	62.40	18.97	-38.4	-40.2	19.9	0.00e+00	0	41	0	0	48	4392
2026-01-17 22:13:16.46	62.61	19.02	-38.3	-40.0	19.9	0.00e+00	0	41	0	0	48	4338
2026-01-17 22:13:17.46	62.83	19.07	-38.3	-40.0	19.9	0.00e+00	0	41	0	0	48	4335
2026-01-17 22:13:18.46	63.05	19.13	-38.4	-40.2	19.8	0.00e+00	0	41	0	0	48	4400
2026-01-17 22:13:19.45	63.27	19.18	-38.5	-40.2	19.8	0.00e+00	0	41	0	0	48	4410
2026-01-17 22:13:20.44	63.49	19.23	-38.6	-40.3	19.7	0.00e+00	0	41	0	0	48	4478
2026-01-17 22:13:21.44	63.72	19.28	-38.6	-40.3	19.7	0.00e+00	0	41	0	0	48	4467
2026-01-17 22:13:22.43	63.94	19.33	-38.5	-40.2	19.8	0.00e+00	0	41	0	0	48	4425
2026-01-17 22:13:23.44	64.16	19.38	-38.5	-40.2	19.8	0.00e+00	0	41	0	0	48	4430
2026-01-17 22:13:24.46	64.39	19.43	-38.5	-40.2	19.8	0.00e+00	0	41	0	0	48	4440
2026-01-17 22:13:25.49	64.63	19.48	-38.4	-40.1	19.9	0.00e+00	0	41	0	0	48	4357
2026-01-17 22:13:26.49	64.85	19.53	-38.3	-40.0	20.0	0.00e+00	0	41	0	0	48	4311
2026-01-17 22:13:27.54	65.09	19.58	-38.3	-40.0	20.0	0.00e+00	0	41	0	0	48	4309
2026-01-17 22:13:28.43	65.29	19.63	-38.4	-40.2	19.9	0.00e+00	0	41	0	0	48	4397
2026-01-17 22:13:29.57	65.55	19.68	-38.4	-40.1	19.9	0.00e+00	0	41	0	0	48	4357
2026-01-17 22:13:30.42	65.75	19.72	-38.4	-40.1	19.9	0.00e+00	0	41	0	0	48	4367
2026-01-17 22:13:31.56	66.01	19.78	-38.2	-39.9	20.1	0.00e+00	0	41	0	0	48	4265
2026-01-17 22:13:32.41	66.21	19.82	-38.3	-40.0	20.0	0.00e+00	0	41	0	0	48	4303
2026-01-17 22:13:33.55	66.47	19.87	-38.1	-39.8	20.2	0.00e+00	0	41	0	0	48	4215
2026-01-17 22:13:34.40	66.67	19.91	-38.1	-39.8	20.2	0.00e+00	0	41	0	0	48	4231
2026-01-17 22:13:35.54	66.93	19.96	-38.0	-39.7	20.3	0.00e+00	0	41	0	0	48	4177
2026-01-17 22:13:36.39	67.13	20.00	-37.9	-39.6	20.2	0.00e+00	0	41	0	0	47	4374
2026-01-17 22:13:37.53	67.40	20.05	-38.0	-39.7	20.1	0.00e+00	0	41	0	0	47	4428
2026-01-17 22:13:38.38	67.60	20.09	-38.1	-39.8	20.0	0.00e+00	0	41	0	0	47	4491
2026-01-17 22:13:39.52	67.87	20.14	-38.2	-39.9	19.9	0.00e+00	0	41	0	0	47	4504
2026-01-17 22:13:40.37	68.07	20.18	-38.1	-39.8	20.0	0.00e+00	0	41	0	0	47	4483
2026-01-17 22:13:41.51	68.34	20.23	-38.1	-39.8	20.0	0.00e+00	0	41	0	0	47	4482
2026-01-17 22:13:42.36	68.54	20.27	-38.1	-39.8	20.1	0.00e+00	0	41	0	0	47	4444
2026-01-17 22:13:43.61	68.84	20.32	-37.9	-39.6	20.2	0.00e+00	0	41	0	0	47	4372
2026-01-17 22:13:44.46	69.04	20.36	-37.8	-39.5	20.3	0.00e+00	0	41	0	0	47	4309
2026-01-17 22:13:45.60	69.31	20.41	-37.7	-39.4	20.4	0.00e+00	0	41	0	0	47	4262
2026-01-17 22:13:46.45	69.52	20.44	-37.8	-39.4	20.4	0.00e+00	0	41	0	0	47	4290
2026-01-17 22:13:47.59	69.79	20.49	-37.8	-39.5	20.3	0.00e+00	0	41	0	0	47	4308
2026-01-17 22:13:48.44	70.00	20.52	-38.0	-39.7	20.1	0.00e+00	0	41	0	0	47	4396
2026-01-17 22:13:49.58	70.27	20.57	-38.0	-39.7	20.0	0.00e+00	0	41	0	0	47	4437
2026-01-17 22:13:50.43	70.48	20.60	-38.1	-39.8	20.1	0.00e+00	0	41	0	0	47	4456
2026-01-17 22:13:51.57	70.76	20.65	-38.2	-39.9	20.0	0.00e+00	0	41	0	0	47	4510
2026-01-17 22:13:52.42	70.97	20.68	-38.1	-39.8	20.1	0.00e+00	0	41	0	0	47	4465
2026-01-17 22:13:53.56	71.24	20.73	-37.9	-39.6	20.2	0.00e+00	0	41	0	0	47	4370
2026-01-17 22:13:54.41	71.45	20.76	-37.9	-39.5	20.3	0.00e+00	0	41	0	0	47	4326
2026-01-17 22:13:55.54	71.73	20.80	-37.9	-39.6	20.2	0.00e+00	0	41	0	0	47	4344
2026-01-17 22:13:56.39	71.94	20.83	-37.8	-39.5	20.2	0.00e+00	0	41	0	0	47	4317
2026-01-17 22:13:57.53	72.22	20.88	-38.0	-39.6	20.1	0.00e+00	0	41	0	0	47	4383
2026-01-17 22:13:58.38	72.43	20.91	-38.0	-39.6	20.1	0.00e+00	0	41	0	0	47	4386
2026-01-17 22:13:59.52	72.71	20.95	-38.2	-39.9	19.9	0.00e+00	0	41	0	0	47	4502
2026-01-17 22:14:00.37	72.93	20.98	-38.1	-39.8	20.0	0.00e+00	0	41	0	0	47	4460
2026-01-17 22:14:01.59	73.23	21.02	-37.9	-39.6	20.2	0.00e+00	0	41	0	0	47	4385
2026-01-17 22:14:02.44	73.44	21.05	-38.0	-39.7	20.2	0.00e+00	0	41	0	0	47	4409
2026-01-17 22:14:03.58	73.73	21.09	-38.1	-39.8	20.1	0.00e+00	0	41	0	0	47	4460
2026-01-17 22:14:04.43	73.94	21.12	-38.0	-39.7	20.1	0.00e+00	0	41	0	0	47	4437
2026-01-17 22:14:05.57	74.23	21.15	-38.1	-39.8	20.0	0.00e+00	0	41	0	0	47	4475
2026-01-17 22:14:06.42	74.44	21.18	-38.2	-39.9	19.9	0.00e+00	0	41	0	0	47	4509
2026-01-17 22:14:07.56	74.73	21.22	-38.2	-39.9	19.9	0.00e+00	0	41	0	0	47	4524
2026-01-17 22:14:08.41	74.95	21.24	-38.2	-39.9	19.9	0.00e+00	0	41	0	0	47	4531
2026-01-17 22:14:09.55	75.23	21.28	-38.2	-39.9	20.0	0.00e+00	0	41	0	0	47	4506
2026-01-17 22:14:10.40	75.45	21.31	-38.1	-39.8	20.1	0.00e+00	0	41	0	0	47	4448
2026-01-17 22:14:11.54	75.74	21.34	-38.2	-39.9	20.0	0.00e+00	0	41	0	0	47	4508
2026-01-17 22:14:12.39	75.96	21.36	-38.2	-40.0	20.0	0.00e+00	0	41	0	0	47	4546
2026-01-17 22:14:13.53	76.25	21.40	-38.1	-39.8	20.1	0.00e+00	0	41	0	0	47	4481
2026-01-17 22:14:14.38	76.47	21.42	-38.1	-39.8	20.1	0.00e+00	0	41	0	0	47	4486
2026-01-17 22:14:15.52	76.76	21.45	-38.3	-40.0	19.9	0.00e+00	0	41	0	0	47	4570
2026-01-17 22:14:16.38	76.98	21.48	-38.3	-40.0	19.9	0.00e+00	0	41	0	0	47	4571
2026-01-17 22:14:17.51	77.27	21.51	-38.2	-40.0	19.9	0.00e+00	0	41	0	0	47	4561
2026-01-17 22:14:18.37	77.49	21.53	-38.2	-39.9	19.7	0.00e+00	0	41	0	0	47	4540
2026-01-17 22:14:19.57	77.80	21.56	-37.9	-39.6	20.3	0.00e+00	0	41	0	0	47	4366
2026-01-17 22:14:20.42	78.02	21.58	-37.9	-39.6	20.3	0.00e+00	0	41	0	0	47	4356
2026-01-17 22:14:21.60	78.33	21.61	-38.0	-39.7	20.2	0.00e+00	0	41	0	0	47	4407
2026-01-17 22:14:22.46	78.55	21.63	-37.9	-39.6	20.3	0.00e+00	0	41	0	0	47	4351
2026-01-17 22:14:23.59	78.84	21.66	-37.8	-39.5	20.3	0.00e+00	0	41	0	0	47	4321
2026-01-17 22:14:24.44	79.06	21.67	-37.8	-39.4	20.4	0.00e+00	0	41	0	0	47	4290
2026-01-17 22:14:25.58	79.36	21.70	-37.8	-39.5	20.3	0.00e+00	0	41	0	0	47	4307
2026-01-17 22:14:26.49	79.60	21.72	-37.9	-39.5	20.3	0.00e+00	0	41	0	0	47	4337
2026-01-17 22:14:27.49	79.86	21.74	-37.9	-39.5	20.3	0.00e+00	0	41	0	0	47	4335
2026-01-17 22:14:28.49	80.12	21.76	-37.9	-39.5	20.3	0.00e+00	0	41	0	0	47	4339
2026-01-17 22:14:29.48	80.38	21.78	-38.0	-39.7	20.1	0.00e+00	0	41	0	0	47	4421
2026-01-17 22:14:30.48	80.64	21.80	-38.0	-39.7	20.2	0.00e+00	0	41	0	0	47	4411
2026-01-17 22:14:31.47	80.90	21.82	-38.0	-39.7	20.1	0.00e+00	0	41	0	0	47	4441
2026-01-17 22:14:32.47	81.17	21.84	-37.9	-39.6	20.2	0.00e+00	0	41	0	0	47	4387
2026-01-17 22:14:33.46	81.43	21.85	-37.9	-39.7	20.2	0.00e+00	0	41	0	0	47	4392
2026-01-17 22:14:34.46	81.69	21.87	-38.0	-39.7	20.1	0.00e+00	0	41	0	0	47	4402
2026-01-17 22:14:35.45	81.95	21.89	-37.7	-39.4	20.3	0.00e+00	0	41	0	0	47	4287
2026-01-17 22:14:36.45	82.21	21.90	-37.7	-39.4	20.4	0.00e+00	0	41	0	0	47	4260
2026-01-17 22:14:37.46	82.48	21.92	-37.8	-39.5	20.4	0.00e+00	0	41	0	0	47	4311
2026-01-17 22:14:38.49	82.75	21.93	-37.8	-39.5	20.4	0.00e+00	0	41	0	0	47	4306
2026-01-17 22:14:39.48	83.02	21.94	-37.8	-39.5	20.3	0.00e+00	0	41	0	0	47	4328
2026-01-17 22:14:40.48	83.28	21.96	-37.9	-39.6	20.3	0.00e+00	0	41	0	0	47	4341
2026-01-17 22:14:41.47	83.54	21.97	-37.8	-39.5	20.4	0.00e+00	0	41	0	0	47	4324
2026-01-17 22:14:42.47	83.81	21.98	-37.9	-39.6	20.3	0.00e+00	0	41	0	0	47	4378
2026-01-17 22:14:43.46	84.07	21.99	-38.0	-39.7	20.2	0.00e+00	0	41	0	0	47	4420
2026-01-17 22:14:44.45	84.34	22.00	-38.0	-39.8	20.1	0.00e+00	0	41	0	0	47	4447
2026-01-17 22:14:45.45	84.60	22.01	-37.9	-39.6	20.2	0.00e+00	0	41	0	0	47	4382
2026-01-17 22:14:46.45	84.87	22.02	-37.8	-39.5	20.4	0.00e+00	0	41	0	0	47	4307
2026-01-17 22:14:47.44	85.13	22.03	-37.8	-39.4	20.4	0.00e+00	0	41	0	0	47	4284
2026-01-17 22:14:48.44	85.40	22.04	-37.7	-39.4	20.4	0.00e+00	0	41	0	0	47	4280
2026-01-17 22:14:49.43	85.66	22.05	-37.8	-39.5	20.4	0.00e+00	0	41	0	0	47	4293
2026-01-17 22:14:50.42	85.93	22.05	-37.7	-39.3	20.5	0.00e+00	0	41	0	0	47	4229
2026-01-17 22:14:51.42	86.19	22.06	-37.8	-39.5	20.3	0.00e+00	0	41	0	0	47	4317
2026-01-17 22:14:52.48	86.48	22.07	-37.9	-39.6	20.2	0.00e+00	0	41	0	0	47	4352
2026-01-17 22:14:53.37	86.71	22.07	-37.9	-39.6	20.3	0.00e+00	0	41	0	0	47	4355
2026-01-17 22:14:54.46	87.01	22.08	-37.8	-39.5	20.4	0.00e+00	0	41	0	0	47	4316
2026-01-17 22:14:55.31	87.23	22.08	-37.9	-39.6	20.2	0.00e+00	0	41	0	0	47	4361
2026-01-17 22:14:56.45	87.54	22.08	-37.9	-39.6	20.2	0.00e+00	0	41	0	0	47	4384
2026-01-17 22:14:57.30	87.76	22.09	-37.9	-39.6	20.2	0.00e+00	0	41	0	0	47	4369
2026-01-17 22:14:58.44	88.07	22.09	-38.0	-39.7	20.1	0.00e+00	0	41	0	0	47	4432
2026-01-17 22:14:59.29	88.30	22.09	-38.1	-39.8	20.1	0.00e+00	0	41	0	0	47	4449
2026-01-17 22:15:00.43	88.60	22.09	-37.9	-39.6	20.2	0.00e+00	0	41	0	0	47	4383
2026-01-17 22:15:01.28	88.83	22.09	-37.9	-39.6	20.3	0.00e+00	0	41	0	0	47	4360
2026-01-17 22:15:02.42	89.13	22.09	-37.9	-39.6	20.3	0.00e+00	0	41	0	0	47	4373
2026-01-17 22:15:03.27	89.36	22.09	-37.8	-39.5	20.4	0.00e+00	0	41	0	0	47	4296
2026-01-17 22:15:04.44	89.67	22.09	-37.7	-39.4	20.4	0.00e+00	0	41	0	0	47	4260
2026-01-17 22:15:05.29	89.90	22.08	-37.8	-39.5	20.3	0.00e+00	0	41	0	0	47	4297
2026-01-17 22:15:06.43	90.21	22.08	-37.9	-39.6	20.2	0.00e+00	0	41	0	0	47	4375
2026-01-17 22:15:07.28	90.43	22.08	-38.0	-39.7	20.1	0.00e+00	0	41	0	0	47	4418
2026-01-17 22:15:08.42	90.74	22.07	-38.0	-39.7	20.1	0.00e+00	0	41	0	0	47	4429
2026-01-17 22:15:09.27	90.97	22.07	-37.9	-39.6	20.2	0.00e+00	0	41	0	0	47	4357
2026-01-17 22:15:10.63	91.33	22.06	-37.7	-39.4	20.3	0.00e+00	0	41	0	0	47	4266
2026-01-17 22:15:11.34	91.52	22.06	-37.6	-39.2	20.4	0.00e+00	0	41	0	0	47	4193
2026-01-17 22:15:12.62	91.86	22.05	-37.8	-39.4	20.3	0.00e+00	0	41	0	0	47	4285
2026-01-17 22:15:13.33	92.05	22.04	-37.8	-39.4	20.3	0.00e+00	0	41	0	0	47	4287
2026-01-17 22:15:14.61	92.39	22.03	-37.9	-39.6	20.3	0.00e+00	0	41	0	0	47	4346
2026-01-17 22:15:15.38	92.60	22.03	-37.8	-39.5	20.4	0.00e+00	0	41	0	0	47	4294
2026-01-17 22:15:16.66	92.94	22.01	-37.9	-39.5	20.3	0.00e+00	0	41	0	0	47	4336
2026-01-17 22:15:17.37	93.13	22.01	-37.9	-39.6	20.2	0.00e+00	0	41	0	0	47	4374
2026-01-17 22:15:18.65	93.47	21.99	-37.8	-39.5	20.3	0.00e+00	0	41	0	0	47	4298
2026-01-17 22:15:19.54	93.70	21.98	-37.8	-39.4	20.3	0.00e+00	0	41	0	0	47	4279
2026-01-17 22:15:20.67	94.00	21.97	-37.7	-39.4	20.3	0.00e+00	0	41	0	0	47	4266
2026-01-17 22:15:21.72	94.28	21.96	-37.7	-39.4	20.4	0.00e+00	0	41	0	0	47	4275
2026-01-17 22:15:22.66	94.53	21.94	-37.8	-39.5	20.4	0.00e+00	0	41	0	0	47	4292
2026-01-17 22:15:23.91	94.86	21.93	-37.7	-39.3	20.5	0.00e+00	0	41	0	0	47	4236
2026-01-17 22:15:24.79	95.10	21.91	-37.7	-39.4	20.4	0.00e+00	0	41	0	0	47	4268
2026-01-17 22:15:26.12	95.45	21.89	-37.8	-39.4	20.3	0.00e+00	0	41	0	0	47	4283
2026-01-17 22:15:26.83	95.64	21.88	-37.8	-39.5	20.2	0.00e+00	0	41	0	0	47	4323
2026-01-17 22:15:28.12	95.98	21.86	-37.8	-39.5	20.2	0.00e+00	0	41	0	0	47	4312
2026-01-17 22:15:28.83	96.16	21.85	-37.8	-39.5	20.3	0.00e+00	0	41	0	0	47	4301
2026-01-17 22:15:30.11	96.50	21.83	-37.9	-39.6	20.2	0.00e+00	0	41	0	0	47	4359
2026-01-17 22:15:30.87	96.70	21.81	-37.8	-39.5	20.3	0.00e+00	0	41	0	0	47	4302
2026-01-17 22:15:32.15	97.04	21.79	-37.9	-39.5	20.2	0.00e+00	0	41	0	0	47	4336
2026-01-17 22:15:32.86	97.22	21.77	-37.8	-39.5	20.2	0.00e+00	0	41	0	0	47	4329
2026-01-17 22:15:34.14	97.56	21.75	-38.0	-39.7	20.0	0.00e+00	0	41	0	0	47	4427
2026-01-17 22:15:34.85	97.75	21.73	-37.8	-39.5	20.2	0.00e+00	0	41	0	0	47	4326
2026-01-17 22:15:36.13	98.08	21.71	-37.7	-39.4	20.4	0.00e+00	0	41	0	0	47	4268
2026-01-17 22:15:36.84	98.27	21.69	-37.8	-39.4	20.4	0.00e+00	0	41	0	0	47	4282
2026-01-17 22:15:38.12	98.60	21.66	-37.8	-39.5	20.4	0.00e+00	0	41	0	0	47	4302
2026-01-17 22:15:39.08	98.85	21.64	-37.8	-39.5	20.3	0.00e+00	0	41	0	0	47	4313
2026-01-17 22:15:40.37	99.19	21.61	-37.9	-39.6	20.2	0.00e+00	0	41	0	0	47	4348
2026-01-17 22:15:41.08	99.37	21.59	-37.9	-39.6	20.2	0.00e+00	0	41	0	0	47	4341
2026-01-17 22:15:42.36	99.70	21.56	-37.9	-39.5	20.2	0.00e+00	0	41	0	0	47	4327
2026-01-17 22:15:43.07	99.89	21.54	-37.9	-39.6	20.2	0.00e+00	0	41	0	0	47	4365
2026-01-17 22:15:44.35	100.22	21.51	-38.0	-39.7	20.2	0.00e+00	0	41	0	0	47	4392
2026-01-17 22:15:45.08	100.41	21.49	-37.9	-39.6	20.2	0.00e+00	0	41	0	0	47	4367
2026-01-17 22:15:46.36	100.73	21.46	-37.8	-39.5	20.3	0.00e+00	0	41	0	0	47	4305
2026-01-17 22:15:47.26	100.97	21.43	-37.8	-39.5	20.3	0.00e+00	0	41	0	0	47	4309
2026-01-17 22:15:48.66	101.33	21.39	-37.9	-39.6	20.2	0.00e+00	0	41	0	0	47	4367
2026-01-17 22:15:49.37	101.51	21.37	-37.9	-39.6	20.1	0.00e+00	0	41	0	0	47	4370
2026-01-17 22:15:50.66	101.84	21.33	-38.0	-39.7	20.1	0.00e+00	0	41	0	0	47	4400
2026-01-17 22:15:51.37	102.02	21.31	-37.8	-39.5	20.3	0.00e+00	0	41	0	0	47	4295
2026-01-17 22:15:52.65	102.34	21.27	-37.6	-39.3	20.4	0.00e+00	0	41	0	0	47	4202
2026-01-17 22:15:53.36	102.53	21.25	-37.6	-39.2	20.4	0.00e+00	0	41	0	0	47	4193
2026-01-17 22:15:54.64	102.85	21.21	-37.6	-39.2	20.5	0.00e+00	0	41	0	0	47	4177
2026-01-17 22:15:55.49	103.07	21.18	-37.7	-39.3	20.4	0.00e+00	0	41	0	0	47	4221
2026-01-17 22:15:56.63	103.35	21.15	-37.7	-39.4	20.3	0.00e+00	0	41	0	0	47	4271
2026-01-17 22:15:57.68	103.62	21.11	-37.8	-39.4	20.3	0.00e+00	0	41	0	0	47	4275
2026-01-17 22:15:58.76	103.89	21.08	-37.9	-39.6	20.2	0.00e+00	0	41	0	0	47	4341
2026-01-17 22:15:59.73	104.13	21.04	-37.8	-39.5	20.3	0.00e+00	0	41	0	0	47	4311
2026-01-17 22:16:00.73	104.38	21.01	-37.9	-39.5	20.2	0.00e+00	0	41	0	0	47	4337
2026-01-17 22:16:01.93	104.68	20.97	-38.0	-39.7	20.1	0.00e+00	0	41	0	0	47	4399
2026-01-17 22:16:02.81	104.90	20.93	-37.9	-39.6	20.2	0.00e+00	0	41	0	0	47	4354
2026-01-17 22:16:04.12	105.23	20.89	-37.8	-39.5	20.3	0.00e+00	0	41	0	0	47	4306
2026-01-17 22:16:04.83	105.40	20.86	-37.9	-39.5	20.3	0.00e+00	0	41	0	0	47	4330
2026-01-17 22:16:06.11	105.72	20.81	-37.8	-39.4	20.3	0.00e+00	0	41	0	0	47	4275
2026-01-17 22:16:06.84	105.90	20.79	-37.7	-39.4	20.3	0.00e+00	0	41	0	0	47	4246
2026-01-17 22:16:08.12	106.22	20.74	-37.7	-39.4	20.3	0.00e+00	0	41	0	0	47	4267
2026-01-17 22:16:08.87	106.40	20.71	-37.8	-39.5	20.3	0.00e+00	0	41	0	0	47	4304
2026-01-17 22:16:10.15	106.72	20.66	-37.8	-39.5	20.2	0.00e+00	0	41	0	0	47	4330
2026-01-17 22:16:10.86	106.89	20.63	-38.0	-39.7	20.1	0.00e+00	0	41	0	0	47	4434
2026-01-17 22:16:12.14	107.20	20.58	-38.1	-39.8	20.1	0.00e+00	0	41	0	0	47	4456
2026-01-17 22:16:12.87	107.38	20.55	-38.0	-39.7	20.1	0.00e+00	0	41	0	0	47	4408
2026-01-17 22:16:14.15	107.69	20.50	-37.9	-39.6	20.1	0.00e+00	0	41	0	0	47	4389
2026-01-17 22:16:14.86	107.86	20.47	-37.9	-39.6	20.1	0.00e+00	0	41	0	0	47	4359
2026-01-17 22:16:16.14	108.17	20.41	-37.9	-39.6	20.0	0.00e+00	0	41	0	0	47	4385
2026-01-17 22:16:16.86	108.34	20.38	-37.9	-39.6	20.0	0.00e+00	0	41	0	0	47	4385
2026-01-17 22:16:18.14	108.65	20.33	-38.0	-39.7	20.0	0.00e+00	0	41	0	0	47	4413
2026-01-17 22:16:18.87	108.83	20.30	-37.9	-39.6	20.2	0.00e+00	0	41	0	0	47	4352
2026-01-17 22:16:20.15	109.13	20.24	-37.8	-39.5	20.3	0.00e+00	0	41	0	0	47	4300
2026-01-17 22:16:20.87	109.30	20.21	-37.9	-39.5	20.2	0.00e+00	0	41	0	0	47	4335
2026-01-17 22:16:22.18	109.61	20.15	-37.9	-39.6	20.1	0.00e+00	0	41	0	0	47	4349
2026-01-17 22:16:23.15	109.84	20.11	-37.9	-39.6	20.1	0.00e+00	0	41	0	0	47	4373
2026-01-17 22:16:24.46	110.15	20.05	-38.0	-39.7	20.1	0.00e+00	0	41	0	0	47	4394
2026-01-17 22:16:25.17	110.32	20.02	-37.9	-39.6	20.1	0.00e+00	0	41	0	0	47	4356
2026-01-17 22:16:26.83	110.71	19.94	-38.0	-39.7	20.0	0.00e+00	0	41	0	0	47	4430
2026-01-17 22:16:27.40	110.84	19.91	-37.9	-39.6	20.1	0.00e+00	0	41	0	0	47	4391
2026-01-17 22:16:29.10	111.24	19.83	-38.0	-39.7	20.1	0.00e+00	0	41	0	0	47	4426
2026-01-17 22:16:29.74	111.39	19.80	-38.1	-39.7	20.0	0.00e+00	0	41	0	0	47	4440
2026-01-17 22:16:31.22	111.73	19.73	-38.0	-39.7	20.0	0.00e+00	0	41	0	0	47	4412
2026-01-17 22:16:31.93	111.89	19.70	-38.2	-39.9	19.9	0.00e+00	0	41	0	0	47	4515
2026-01-17 22:16:33.21	112.19	19.64	-38.3	-40.0	19.8	0.00e+00	0	41	0	0	47	4564
2026-01-17 22:16:33.92	112.35	19.60	-38.2	-39.9	19.9	0.00e+00	0	41	0	0	47	4517
2026-01-17 22:16:35.20	112.64	19.54	-38.2	-39.9	19.9	0.00e+00	0	41	0	0	47	4545
2026-01-17 22:16:35.94	112.81	19.50	-38.2	-39.9	19.9	0.00e+00	0	41	0	0	47	4520
2026-01-17 22:16:37.22	113.10	19.44	-38.1	-39.9	20.0	0.00e+00	0	41	0	0	47	4500
2026-01-17 22:16:37.93	113.26	19.40	-38.2	-39.9	19.9	0.00e+00	0	41	0	0	47	4503
2026-01-17 22:16:39.21	113.55	19.34	-38.0	-39.7	20.0	0.00e+00	0	41	0	0	47	4408
2026-01-17 22:16:39.94	113.72	19.30	-37.9	-39.6	20.1	0.00e+00	0	41	0	0	47	4365
2026-01-17 22:16:41.25	114.01	19.23	-38.0	-39.7	20.1	0.00e+00	0	41	0	0	47	4412
2026-01-17 22:16:41.96	114.17	19.20	-38.0	-39.7	20.1	0.00e+00	0	41	0	0	47	4399
2026-01-17 22:16:43.24	114.45	19.13	-37.9	-39.6	20.3	0.00e+00	0	41	0	0	47	4358
2026-01-17 22:16:43.98	114.62	19.09	-37.9	-39.5	20.3	0.00e+00	0	41	0	0	47	4335
2026-01-17 22:16:45.26	114.90	19.02	-37.9	-39.5	20.3	0.00e+00	0	41	0	0	47	4328
2026-01-17 22:16:45.98	115.06	18.99	-38.0	-39.7	20.2	0.00e+00	0	41	0	0	47	4411
2026-01-17 22:16:47.26	115.34	18.92	-38.2	-39.9	20.0	0.00e+00	0	41	0	0	47	4496
2026-01-17 22:16:47.97	115.49	18.88	-38.3	-40.0	19.9	0.00e+00	0	41	0	0	47	4557
2026-01-17 22:16:49.25	115.77	18.81	-38.3	-40.0	19.9	0.00e+00	0	41	0	0	47	4557
2026-01-17 22:16:49.96	115.93	18.77	-38.3	-40.0	19.9	0.00e+00	0	41	0	0	47	4568
2026-01-17 22:16:51.24	116.21	18.70	-38.3	-40.1	19.8	0.00e+00	0	41	0	0	47	4608
2026-01-17 22:16:51.95	116.36	18.66	-38.3	-40.0	19.8	0.00e+00	0	41	0	0	47	4594
2026-01-17 22:16:53.23	116.63	18.59	-38.3	-40.0	19.8	0.00e+00	0	41	0	0	47	4592
2026-01-17 22:16:53.96	116.79	18.55	-38.3	-40.0	19.9	0.00e+00	0	41	0	0	47	4565
2026-01-17 22:16:55.24	117.06	18.48	-38.3	-40.0	19.9	0.00e+00	0	41	0	0	47	4556
2026-01-17 22:16:56.09	117.25	18.43	-38.2	-39.9	20.0	0.00e+00	0	41	0	0	47	4507
2026-01-17 22:16:57.23	117.49	18.37	-38.3	-40.0	19.8	0.00e+00	0	41	0	0	47	4560
2026-01-17 22:16:58.08	117.67	18.32	-38.3	-40.0	19.8	0.00e+00	0	41	0	0	47	4583
2026-01-17 22:16:59.22	117.91	18.26	-38.4	-40.1	19.7	0.00e+00	0	41	0	0	47	4645
2026-01-17 22:17:00.07	118.09	18.21	-38.3	-40.1	19.8	0.00e+00	0	41	0	0	47	4600
2026-01-17 22:17:01.21	118.32	18.15	-38.5	-40.2	19.6	0.00e+00	0	41	0	0	47	4680
2026-01-17 22:17:02.41	118.57	18.08	-38.6	-40.3	19.5	0.00e+00	0	41	0	0	47	4758
2026-01-17 22:17:03.26	118.75	18.03	-38.6	-40.3	19.5	0.00e+00	0	41	0	0	47	4757
2026-01-17 22:17:04.39	118.98	17.96	-38.8	-40.5	19.5	0.00e+00	0	41	0	0	48	4589
2026-01-17 22:17:05.25	119.16	17.91	-38.8	-40.6	19.5	0.00e+00	0	41	0	0	48	4599
2026-01-17 22:17:06.38	119.39	17.85	-38.6	-40.3	19.7	0.00e+00	0	41	0	0	48	4470
2026-01-17 22:17:07.24	119.57	17.80	-38.4	-40.2	19.9	0.00e+00	0	41	0	0	48	4392
2026-01-17 22:17:08.37	119.80	17.73	-38.4	-40.1	19.9	0.00e+00	0	41	0	0	48	4346
2026-01-17 22:17:09.22	119.97	17.68	-38.4	-40.1	19.8	0.00e+00	0	41	0	0	48	4383
2026-01-17 22:17:10.43	120.21	17.61	-38.2	-39.9	20.0	0.00e+00	0	41	0	0	48	4274
2026-01-17 22:17:11.28	120.39	17.56	-38.3	-40.0	19.9	0.00e+00	0	41	0	0	48	4314
2026-01-17 22:17:12.48	120.63	17.49	-38.4	-40.1	19.8	0.00e+00	0	41	0	0	48	4350
2026-01-17 22:17:13.33	120.80	17.44	-38.4	-40.1	19.8	0.00e+00	0	41	0	0	48	4341
2026-01-17 22:17:14.47	121.02	17.37	-38.4	-40.1	19.8	0.00e+00	0	41	0	0	48	4348
2026-01-17 22:17:15.32	121.19	17.32	-38.4	-40.1	19.8	0.00e+00	0	41	0	0	48	4375
2026-01-17 22:17:16.46	121.42	17.25	-38.6	-40.4	19.5	0.00e+00	0	41	0	0	48	4502
2026-01-17 22:17:17.31	121.58	17.20	-38.7	-40.5	19.5	0.00e+00	0	41	0	0	48	4555
2026-01-17 22:17:18.45	121.81	17.13	-38.6	-40.4	19.6	0.00e+00	0	41	0	0	48	4508
2026-01-17 22:17:19.30	121.97	17.08	-38.6	-40.3	19.6	0.00e+00	0	41	0	0	48	4476
2026-01-17 22:17:20.44	122.19	17.01	-38.5	-40.2	19.7	0.00e+00	0	41	0	0	48	4427
2026-01-17 22:17:21.30	122.36	16.96	-38.5	-40.3	19.7	0.00e+00	0	41	0	0	48	4448
2026-01-17 22:17:22.43	122.58	16.89	-38.5	-40.2	19.8	0.00e+00	0	41	0	0	48	4415
2026-01-17 22:17:23.29	122.74	16.83	-38.6	-40.3	19.6	0.00e+00	0	41	0	0	48	4480
2026-01-17 22:17:24.42	122.96	16.77	-38.6	-40.3	19.6	0.00e+00	0	41	0	0	48	4473
2026-01-17 22:17:25.28	123.12	16.71	-38.5	-40.3	19.7	0.00e+00	0	41	0	0	48	4448
2026-01-17 22:17:26.41	123.34	16.64	-38.7	-40.5	19.5	0.00e+00	0	41	0	0	48	4547
2026-01-17 22:17:27.26	123.50	16.59	-38.6	-40.4	19.5	0.00e+00	0	41	0	0	48	4494
2026-01-17 22:17:28.40	123.71	16.52	-38.7	-40.5	19.4	0.00e+00	0	41	0	0	48	4556
2026-01-17 22:17:29.25	123.87	16.47	-38.7	-40.4	19.5	0.00e+00	0	41	0	0	48	4526
2026-01-17 22:17:30.39	124.09	16.40	-38.8	-40.5	19.4	0.00e+00	0	41	0	0	48	4576
2026-01-17 22:17:31.25	124.25	16.34	-38.7	-40.4	19.5	0.00e+00	0	41	0	0	48	4537
2026-01-17 22:17:32.48	124.47	16.26	-38.6	-40.3	19.6	0.00e+00	0	41	0	0	48	4465
2026-01-17 22:17:33.33	124.63	16.21	-38.5	-40.3	19.7	0.00e+00	0	41	0	0	48	4445
2026-01-17 22:17:34.47	124.84	16.14	-38.5	-40.2	19.7	0.00e+00	0	41	0	0	48	4422
2026-01-17 22:17:35.32	125.00	16.09	-38.5	-40.2	19.7	0.00e+00	0	41	0	0	48	4417
2026-01-17 22:17:36.46	125.20	16.01	-38.6	-40.4	19.6	0.00e+00	0	41	0	0	48	4509
2026-01-17 22:17:37.31	125.36	15.96	-38.8	-40.5	19.5	0.00e+00	0	41	0	0	48	4581
2026-01-17 22:17:38.65	125.60	15.88	-38.7	-40.4	19.5	0.00e+00	0	41	0	0	48	4534
2026-01-17 22:17:39.36	125.73	15.83	-38.6	-40.4	19.6	0.00e+00	0	41	0	0	48	4506
2026-01-17 22:17:40.64	125.96	15.75	-38.6	-40.3	19.6	0.00e+00	0	41	0	0	48	4480
2026-01-17 22:17:41.37	126.09	15.70	-38.5	-40.2	19.7	0.00e+00	0	41	0	0	48	4424
2026-01-17 22:17:42.65	126.32	15.62	-38.6	-40.3	19.7	0.00e+00	0	41	0	0	48	4484
2026-01-17 22:17:43.36	126.44	15.58	-38.5	-40.3	19.7	0.00e+00	0	41	0	0	48	4445
2026-01-17 22:17:44.64	126.67	15.50	-38.7	-40.4	19.6	0.00e+00	0	41	0	0	48	4539
2026-01-17 22:17:45.37	126.79	15.45	-38.7	-40.5	19.6	0.00e+00	0	41	0	0	48	4550
2026-01-17 22:17:46.63	127.02	15.37	-38.6	-40.4	19.7	0.00e+00	0	41	0	0	48	4494
2026-01-17 22:17:47.42	127.15	15.32	-38.7	-40.4	19.6	0.00e+00	0	41	0	0	48	4527
2026-01-17 22:17:48.62	127.36	15.24	-38.6	-40.3	19.6	0.00e+00	0	41	0	0	48	4478
2026-01-17 22:17:49.47	127.51	15.19	-38.4	-40.1	19.8	0.00e+00	0	41	0	0	48	4391
2026-01-17 22:17:50.60	127.70	15.11	-38.4	-40.1	19.8	0.00e+00	0	41	0	0	48	4376
2026-01-17 22:17:51.73	127.90	15.04	-38.5	-40.2	19.8	0.00e+00	0	41	0	0	48	4406
2026-01-17 22:17:52.58	128.04	14.99	-38.5	-40.2	19.7	0.00e+00	0	41	0	0	48	4428
2026-01-17 22:17:53.72	128.23	14.91	-38.6	-40.3	19.7	0.00e+00	0	41	0	0	48	4458
2026-01-17 22:17:54.57	128.38	14.86	-38.6	-40.3	19.7	0.00e+00	0	41	0	0	48	4468
2026-01-17 22:17:55.70	128.57	14.78	-38.7	-40.4	19.5	0.00e+00	0	41	0	0	48	4530
2026-01-17 22:17:56.56	128.71	14.73	-38.8	-40.6	19.3	0.00e+00	0	41	0	0	48	4625
2026-01-17 22:17:57.69	128.90	14.66	-39.0	-40.7	19.2	0.00e+00	0	41	0	0	48	4702
2026-01-17 22:17:58.55	129.04	14.60	-38.9	-40.7	19.3	0.00e+00	0	41	0	0	48	4660
2026-01-17 22:17:59.68	129.23	14.53	-38.9	-40.7	19.2	0.00e+00	0	41	0	0	48	4692
2026-01-17 22:18:00.54	129.37	14.47	-38.9	-40.6	19.3	0.00e+00	0	41	0	0	48	4642
2026-01-17 22:18:01.68	129.56	14.40	-39.0	-40.8	19.1	0.00e+00	0	41	0	0	48	4736
2026-01-17 22:18:02.53	129.70	14.34	-39.0	-40.8	19.1	0.00e+00	0	41	0	0	48	4741
2026-01-17 22:18:03.66	129.88	14.27	-39.1	-40.9	19.1	0.00e+00	0	41	0	0	48	4776
2026-01-17 22:18:04.60	130.03	14.21	-39.1	-40.9	19.1	0.00e+00	0	41	0	0	48	4787
2026-01-17 22:18:05.76	130.22	14.13	-39.1	-40.9	19.1	0.00e+00	0	41	0	0	48	4790
2026-01-17 22:18:06.65	130.36	14.07	-39.1	-40.9	19.0	0.00e+00	0	41	0	0	48	4812
2026-01-17 22:18:07.96	130.57	13.99	-39.1	-41.0	19.0	0.00e+00	0	40	0	0	49	4551
2026-01-17 22:18:08.68	130.69	13.94	-39.0	-40.8	19.1	0.00e+00	0	41	0	0	49	4481
2026-01-17 22:18:09.96	130.89	13.86	-39.1	-40.9	19.0	0.00e+00	0	41	0	0	49	4535
2026-01-17 22:18:10.68	131.00	13.81	-39.2	-41.1	18.8	0.00e+00	0	41	0	0	49	4614
2026-01-17 22:18:12.25	131.25	13.71	-39.5	-41.4	18.5	0.00e+00	0	41	0	0	49	4770
2026-01-17 22:18:12.91	131.35	13.67	-39.5	-41.4	18.5	0.00e+00	0	41	0	0	49	4786
2026-01-17 22:18:14.33	131.57	13.57	-39.5	-41.4	18.5	0.00e+00	0	41	0	0	49	4789
2026-01-17 22:18:15.04	131.68	13.53	-39.5	-41.4	18.5	0.00e+00	0	41	0	0	49	4771
2026-01-17 22:18:16.32	131.88	13.44	-39.4	-41.3	18.7	0.00e+00	0	41	0	0	49	4723
2026-01-17 22:18:17.04	131.99	13.40	-39.4	-41.3	18.7	0.00e+00	0	41	0	0	49	4719
2026-01-17 22:18:18.43	132.21	13.31	-39.3	-41.1	18.9	0.00e+00	0	41	0	0	49	4625
2026-01-17 22:18:19.14	132.31	13.26	-39.2	-41.0	18.9	0.00e+00	0	41	0	0	49	4589
2026-01-17 22:18:20.42	132.51	13.18	-39.2	-41.0	18.9	0.00e+00	0	41	0	0	49	4589
2026-01-17 22:18:21.13	132.61	13.13	-39.2	-41.0	19.0	0.00e+00	0	41	0	0	49	4589
2026-01-17 22:18:22.44	132.81	13.04	-39.1	-40.8	19.1	0.00e+00	0	41	0	0	49	4491
2026-01-17 22:18:23.15	132.92	13.00	-39.1	-41.0	19.0	0.00e+00	0	41	0	0	49	4552
2026-01-17 22:18:24.43	133.11	12.91	-39.2	-41.0	18.9	0.00e+00	0	41	0	0	49	4594
2026-01-17 22:18:25.14	133.21	12.87	-39.2	-41.0	18.9	0.00e+00	0	41	0	0	49	4596
2026-01-17 22:18:26.42	133.40	12.78	-39.3	-41.2	18.8	0.00e+00	0	41	0	0	49	4652
2026-01-17 22:18:27.16	133.51	12.73	-39.4	-41.2	18.7	0.00e+00	0	41	0	0	49	4684
2026-01-17 22:18:28.44	133.70	12.65	-39.4	-41.3	18.7	0.00e+00	0	41	0	0	49	4717
2026-01-17 22:18:29.15	133.80	12.60	-39.5	-41.3	18.6	0.00e+00	0	41	0	0	49	4752
2026-01-17 22:18:30.42	133.99	12.52	-39.7	-41.6	18.4	0.00e+00	0	41	0	0	49	4871
2026-01-17 22:18:31.15	134.09	12.47	-39.6	-41.5	18.5	0.00e+00	0	41	0	0	49	4830
2026-01-17 22:18:32.76	134.32	12.37	-39.7	-41.6	18.4	0.00e+00	0	41	0	0	50	4625
2026-01-17 22:18:33.34	134.41	12.33	-39.7	-41.6	18.4	0.00e+00	0	41	0	0	50	4628
2026-01-17 22:18:34.91	134.63	12.23	-39.7	-41.6	18.4	0.00e+00	0	41	0	0	50	4622
2026-01-17 22:18:35.62	134.73	12.18	-39.7	-41.5	18.4	0.00e+00	0	41	0	0	50	4588
2026-01-17 22:18:36.90	134.91	12.10	-39.8	-41.7	18.3	0.00e+00	0	40	0	0	50	4671
2026-01-17 22:18:37.61	135.01	12.05	-39.8	-41.7	18.3	0.00e+00	0	41	0	0	50	4653
2026-01-17 22:18:38.97	135.20	11.96	-39.7	-41.5	18.4	0.00e+00	0	41	0	0	50	4596
2026-01-17 22:18:39.68	135.30	11.92	-39.6	-41.5	18.4	0.00e+00	0	41	0	0	50	4584
2026-01-17 22:18:41.00	135.48	11.83	-39.5	-41.4	18.5	0.00e+00	0	41	0	0	50	4523
2026-01-17 22:18:41.71	135.58	11.78	-39.5	-41.4	18.5	0.00e+00	0	41	0	0	50	4519
2026-01-17 22:18:43.06	135.77	11.70	-39.5	-41.4	18.5	0.00e+00	0	41	0	0	50	4509
2026-01-17 22:18:44.03	135.90	11.63	-39.7	-41.6	18.3	0.00e+00	0	41	0	0	50	4604
2026-01-17 22:18:45.03	136.04	11.57	-39.8	-41.7	18.2	0.00e+00	0	41	0	0	50	4675
2026-01-17 22:18:46.02	136.17	11.50	-39.9	-41.8	18.1	0.00e+00	0	41	0	0	50	4728
2026-01-17 22:18:47.02	136.31	11.44	-40.0	-41.9	18.0	0.00e+00	0	41	0	0	50	4804
2026-01-17 22:18:48.01	136.44	11.37	-39.9	-41.9	18.1	0.00e+00	0	41	0	0	50	4776
2026-01-17 22:18:49.00	136.57	11.31	-40.0	-41.9	18.1	0.00e+00	0	41	0	0	50	4784
2026-01-17 22:18:50.00	136.71	11.25	-40.1	-42.0	18.0	0.00e+00	0	41	0	0	50	4848
2026-01-17 22:18:50.99	136.84	11.18	-40.0	-42.0	18.0	0.00e+00	0	41	0	0	50	4835
2026-01-17 22:18:51.99	136.97	11.12	-39.9	-41.8	18.2	0.00e+00	0	41	0	0	50	4727
2026-01-17 22:18:52.98	137.10	11.05	-39.8	-41.7	18.2	0.00e+00	0	41	0	0	50	4689
2026-01-17 22:18:53.98	137.23	10.99	-39.9	-41.8	18.1	0.00e+00	0	41	0	0	50	4744
2026-01-17 22:18:54.97	137.36	10.92	-39.9	-41.9	18.0	0.00e+00	0	41	0	0	50	4763
2026-01-17 22:18:55.97	137.49	10.86	-39.9	-41.9	18.0	0.00e+00	0	41	0	0	50	4779
2026-01-17 22:18:56.96	137.62	10.80	-39.9	-41.8	18.0	0.00e+00	0	41	0	0	50	4759
2026-01-17 22:18:57.95	137.75	10.73	-40.0	-41.9	17.9	0.00e+00	0	41	0	0	50	4812
2026-01-17 22:18:58.95	137.87	10.67	-40.1	-42.0	17.9	0.00e+00	0	41	0	0	50	4853
2026-01-17 22:18:59.94	138.00	10.60	-40.0	-42.0	17.9	0.00e+00	0	41	0	0	50	4831
2026-01-17 22:19:00.94	138.13	10.54	-39.9	-41.9	18.0	0.00e+00	0	41	0	0	50	4784
2026-01-17 22:19:01.93	138.25	10.47	-39.9	-41.9	18.0	0.00e+00	0	41	0	0	50	4763
2026-01-17 22:19:02.93	138.38	10.41	-40.0	-42.0	17.9	0.00e+00	0	40	0	0	50	4823
2026-01-17 22:19:03.92	138.50	10.35	-39.9	-41.8	18.0	0.00e+00	0	41	0	0	50	4754
2026-01-17 22:19:04.91	138.63	10.28	-39.8	-41.7	18.0	0.00e+00	0	41	0	0	50	4704
2026-01-17 22:19:05.94	138.76	10.22	-39.9	-41.9	17.9	0.00e+00	0	41	0	0	50	4775
2026-01-17 22:19:06.97	138.88	10.15	-39.9	-41.8	18.0	0.00e+00	0	41	0	0	50	4757
2026-01-17 22:19:07.98	139.01	10.09	-39.9	-41.8	18.0	0.00e+00	0	41	0	0	50	4727
2026-01-17 22:19:08.97	139.13	10.02	-39.9	-41.9	17.9	0.00e+00	0	40	0	0	50	4768
2026-01-17 22:19:09.97	139.25	9.96	-39.9	-41.9	18.0	0.00e+00	0	41	0	0	50	4760
2026-01-17 22:19:10.96	139.37	9.89	-39.9	-41.9	17.9	0.00e+00	0	41	0	0	50	4783
2026-01-17 22:19:12.05	139.51	9.83	-39.8	-41.8	18.0	0.00e+00	0	41	0	0	50	4713
2026-01-17 22:19:12.91	139.61	9.77	-39.9	-41.9	17.9	0.00e+00	0	41	0	0	50	4781
2026-01-17 22:19:14.05	139.75	9.70	-40.0	-42.0	17.8	0.00e+00	0	41	0	0	50	4829
2026-01-17 22:19:15.04	139.87	9.63	-40.0	-42.0	17.8	0.00e+00	0	41	0	0	50	4825
2026-01-17 22:19:16.04	139.99	9.57	-40.1	-42.1	17.7	0.00e+00	0	41	0	0	50	4885
2026-01-17 22:19:17.03	140.10	9.51	-40.2	-42.2	17.6	0.00e+00	0	41	0	0	51	4672
2026-01-17 22:19:18.03	140.22	9.44	-40.1	-42.0	17.7	0.00e+00	0	41	0	0	51	4590
2026-01-17 22:19:19.02	140.34	9.38	-40.3	-42.3	17.5	0.00e+00	0	41	0	0	51	4729
2026-01-17 22:19:20.02	140.46	9.32	-40.3	-42.4	17.4	0.00e+00	0	41	0	0	51	4763
2026-01-17 22:19:21.01	140.57	9.25	-40.2	-42.3	17.5	0.00e+00	0	41	0	0	51	4721
2026-01-17 22:19:22.01	140.69	9.19	-40.2	-42.2	17.6	0.00e+00	0	41	0	0	51	4694
2026-01-17 22:19:23.00	140.80	9.13	-40.1	-42.1	17.7	0.00e+00	0	41	0	0	51	4623
2026-01-17 22:19:24.00	140.92	9.07	-40.1	-42.1	17.7	0.00e+00	0	41	0	0	51	4626
2026-01-17 22:19:24.99	141.03	9.00	-40.2	-42.2	17.6	0.00e+00	0	41	0	0	51	4671
2026-01-17 22:19:25.99	141.15	8.94	-48.1	-59.4	3.8	2.11e-03	0	41	104	0	66	14320
2026-01-17 22:19:26.98	141.26	8.88	-48.5	-61.4	3.8	1.49e+00	0	41	104	0	67	17047
2026-01-17 22:19:27.97	141.37	8.81	-48.6	-61.5	3.8	1.49e+00	0	41	104	0	67	17235
2026-01-17 22:19:28.97	141.49	8.75	-48.6	-61.7	3.8	1.49e+00	0	41	104	0	67	17539
2026-01-17 22:19:29.96	141.60	8.69	-48.6	-61.7	3.8	1.49e+00	0	41	104	0	67	17525
2026-01-17 22:19:30.95	141.71	8.63	-48.9	-61.9	3.8	1.49e+00	0	41	104	0	68	16982
2026-01-17 22:19:31.95	141.82	8.56	-48.8	-61.9	3.8	1.49e+00	0	41	104	0	68	17083
2026-01-17 22:19:32.94	141.93	8.50	-49.0	-61.9	3.8	1.49e+00	0	41	104	0	68	17082
2026-01-17 22:19:33.93	142.04	8.44	-49.0	-62.0	3.8	1.49e+00	0	41	104	0	68	17185
2026-01-17 22:19:34.92	142.15	8.38	-49.0	-62.0	3.8	1.49e+00	0	41	104	0	68	17212
2026-01-17 22:19:35.92	142.26	8.32	-49.1	-62.0	3.8	1.49e+00	0	41	104	0	68	17256
2026-01-17 22:19:36.91	142.37	8.25	-49.0	-62.1	3.8	1.49e+00	0	41	104	0	68	17310
2026-01-17 22:19:37.90	142.48	8.19	-49.1	-62.1	3.8	1.49e+00	0	41	104	0	68	17413
2026-01-17 22:19:38.90	142.58	8.13	-49.1	-62.1	3.8	1.49e+00	0	41	104	0	68	17434
2026-01-17 22:19:39.89	142.69	8.07	-49.1	-62.1	3.8	1.49e+00	0	41	104	0	68	17433
2026-01-17 22:19:40.89	142.80	8.01	-49.2	-62.2	3.8	1.49e+00	0	41	104	0	69	16537
2026-01-17 22:19:41.88	142.91	7.95	-49.0	-62.2	3.8	1.49e+00	0	41	104	0	69	16541
2026-01-17 22:19:42.87	143.01	7.88	-49.0	-62.2	3.8	1.49e+00	0	41	104	0	69	16526
2026-01-17 22:19:43.87	143.12	7.82	-49.1	-62.2	3.8	1.49e+00	0	41	104	0	69	16513
2026-01-17 22:19:44.86	143.22	7.76	-48.8	-62.1	3.8	1.49e+00	0	41	104	0	69	16449
2026-01-17 22:19:45.85	143.33	7.70	-48.8	-62.1	3.8	1.49e+00	0	41	104	0	69	16404
2026-01-17 22:19:46.85	143.43	7.64	-48.8	-62.1	3.8	1.49e+00	0	41	104	0	69	16382
2026-01-17 22:19:47.84	143.54	7.58	-48.8	-62.1	3.8	1.49e+00	0	41	104	0	69	16356
2026-01-17 22:19:48.83	143.64	7.52	-48.8	-62.1	3.8	1.49e+00	0	41	104	0	69	16437
2026-01-17 22:19:49.82	143.74	7.45	-48.8	-62.1	3.8	1.49e+00	0	41	104	0	69	16343
2026-01-17 22:19:50.82	143.84	7.39	-48.7	-62.0	3.8	1.49e+00	0	41	104	0	69	16297
2026-01-17 22:19:51.81	143.95	7.33	-48.8	-62.1	3.8	1.49e+00	0	41	104	0	69	16323
2026-01-17 22:19:52.80	144.05	7.27	-48.7	-62.1	3.8	1.49e+00	0	41	104	0	69	16384
2026-01-17 22:19:53.80	144.15	7.21	-48.7	-62.0	3.8	1.49e+00	0	41	104	0	69	16290
2026-01-17 22:19:54.79	144.25	7.15	-48.7	-62.1	3.8	1.49e+00	0	41	104	0	69	16355
2026-01-17 22:19:55.78	144.35	7.09	-48.7	-62.1	3.8	1.49e+00	0	41	104	0	69	16315
2026-01-17 22:19:56.78	144.45	7.03	-48.7	-62.1	3.8	1.49e+00	0	41	104	0	69	16322
2026-01-17 22:19:57.77	144.55	6.97	-48.7	-62.1	3.8	1.49e+00	0	41	104	0	69	16325
2026-01-17 22:19:58.77	144.65	6.91	-48.7	-62.1	3.8	1.49e+00	0	41	104	0	69	16342
2026-01-17 22:19:59.76	144.75	6.85	-48.7	-62.1	3.8	1.49e+00	0	41	104	0	69	16371
2026-01-17 22:20:00.75	144.85	6.79	-48.7	-62.0	3.8	1.49e+00	0	41	104	0	69	16270
2026-01-17 22:20:01.75	144.95	6.73	-48.7	-62.1	3.8	1.49e+00	0	41	104	0	69	16354
2026-01-17 22:20:02.74	145.05	6.67	-48.7	-62.1	3.8	1.49e+00	0	41	104	0	69	16336
2026-01-17 22:20:03.73	145.14	6.61	-48.7	-62.1	3.8	1.49e+00	0	41	104	0	69	16332
2026-01-17 22:20:04.73	145.24	6.54	-48.7	-62.0	3.8	1.49e+00	0	41	104	0	69	16293
2026-01-17 22:20:05.72	145.34	6.49	-48.7	-62.0	3.8	1.49e+00	0	41	104	0	69	16296
2026-01-17 22:20:06.71	145.43	6.43	-48.7	-62.0	3.8	1.49e+00	0	41	104	0	69	16238
2026-01-17 22:20:07.71	145.53	6.37	-48.7	-62.0	3.8	1.49e+00	0	41	104	0	69	16290
2026-01-17 22:20:08.70	145.62	6.31	-48.7	-62.1	3.8	1.49e+00	0	41	104	0	69	16329
2026-01-17 22:20:09.70	145.72	6.25	-48.7	-62.0	3.8	1.49e+00	0	41	104	0	69	16299
2026-01-17 22:20:10.69	145.81	6.19	-48.7	-62.0	3.8	1.49e+00	0	41	104	0	69	16295
2026-01-17 22:20:11.68	145.91	6.13	-48.7	-62.0	3.8	1.49e+00	0	41	104	0	69	16303
2026-01-17 22:20:12.67	146.00	6.07	-48.7	-62.0	3.8	1.49e+00	0	41	104	0	69	16304
2026-01-17 22:20:13.67	146.10	6.01	-48.7	-62.0	3.8	1.49e+00	0	41	104	0	69	16276
2026-01-17 22:20:14.66	146.19	5.95	-48.7	-62.0	3.8	1.49e+00	0	41	104	0	69	16256
2026-01-17 22:20:15.66	146.28	5.89	-48.7	-62.0	3.8	1.49e+00	0	41	104	0	69	16282
2026-01-17 22:20:16.65	146.38	5.83	-48.7	-62.0	3.8	1.49e+00	0	41	104	0	69	16252
2026-01-17 22:20:17.64	146.47	5.77	-48.7	-62.0	3.8	1.49e+00	0	41	104	0	69	16276
2026-01-17 22:20:18.64	146.56	5.71	-48.7	-62.0	3.8	1.49e+00	0	41	104	0	69	16255
2026-01-17 22:20:19.63	146.65	5.65	-48.7	-62.0	3.8	1.49e+00	0	41	104	0	69	16208
2026-01-17 22:20:20.62	146.74	5.59	-48.7	-62.0	3.8	1.49e+00	0	41	104	0	69	16201
2026-01-17 22:20:21.62	146.83	5.53	-48.7	-62.0	3.8	1.49e+00	0	40	104	0	69	16239
2026-01-17 22:20:22.61	146.92	5.48	-48.7	-62.0	3.8	1.49e+00	0	41	104	0	69	16206
2026-01-17 22:20:23.60	147.01	5.42	-48.7	-62.0	3.8	1.49e+00	0	41	104	0	69	16207
2026-01-17 22:20:24.60	147.10	5.36	-48.7	-62.0	3.8	1.49e+00	0	41	104	0	69	16236
2026-01-17 22:20:25.59	147.19	5.30	-48.7	-62.0	3.8	1.49e+00	0	41	104	0	69	16284
2026-01-17 22:20:26.59	147.28	5.24	-48.7	-62.0	3.8	1.49e+00	0	41	104	0	69	16189
2026-01-17 22:20:27.58	147.37	5.18	-48.7	-62.0	3.8	1.49e+00	0	41	104	0	69	16176
2026-01-17 22:20:28.57	147.46	5.12	-48.7	-62.0	3.8	1.49e+00	0	41	104	0	69	16227
2026-01-17 22:20:29.57	147.55	5.07	-48.7	-62.0	3.8	1.49e+00	0	41	104	0	69	16166
2026-01-17 22:20:30.56	147.64	5.01	-48.7	-62.0	3.8	1.49e+00	0	41	104	0	69	16187
2026-01-17 22:20:31.56	147.72	4.95	-48.6	-62.0	3.8	1.49e+00	0	41	104	0	69	16139

#Closed at: 2026-01-17 22:20:32
#Recorded file [0 MB]: D:/Data/31040_260118_010930.dat