passes_logs/2026/01/17/T1/T1__20260117_020244_AQUA_rec.log

#Pass ID: 20260117_020244_AQUA
#Satellite: AQUA
#Configuration: AQUA
#almurnet v.1.7.20251203
#Start time: 2026-01-17 02:02:44

#Version: 2.0.20230620
#Station: T1
#Location: 37.570604 lon 55.790049 lat
#TLE: 1 27424U 02022A   26016.26443506  .00000711  00000+0  15228-3 0  9999
#TLE: 2 27424  98.4083 342.7130 0002022  76.7284  27.4473 14.61823291261073

#Time	Az	El	Level	Level2	SNR	BER	BlckErr	Temp	State	Recorded	gain1	gain2
2026-01-17 02:02:44.01	10.15	4.97	-48.3	-71.9	3.7	7.46e-01	0	36	0	0	68	53627
2026-01-17 02:02:45.00	10.11	5.04	-48.0	-71.3	3.8	7.50e-01	0	37	104	0	66	56486
2026-01-17 02:02:46.00	10.07	5.11	-48.0	-71.4	3.8	7.46e-01	0	37	104	0	66	56816
2026-01-17 02:02:46.99	10.03	5.18	-48.0	-71.4	3.8	7.48e-01	0	37	104	0	66	56865
2026-01-17 02:02:47.98	9.99	5.26	-48.0	-71.4	3.8	7.44e-01	0	37	104	0	66	56879
2026-01-17 02:02:48.98	9.95	5.33	-48.0	-71.4	3.8	7.47e-01	0	37	104	0	66	56840
2026-01-17 02:02:49.97	9.91	5.40	-48.0	-71.4	3.8	7.43e-01	0	37	104	0	66	56820
2026-01-17 02:02:50.96	9.86	5.48	-47.9	-71.3	3.8	7.47e-01	0	37	104	0	66	56463
2026-01-17 02:02:51.96	9.82	5.55	-48.0	-71.3	3.8	7.44e-01	0	37	104	0	66	56172
2026-01-17 02:02:52.95	9.78	5.62	-47.9	-71.2	3.8	7.45e-01	0	37	104	0	66	55514
2026-01-17 02:02:53.94	9.74	5.70	-47.9	-71.1	3.8	7.45e-01	0	37	104	0	66	54909
2026-01-17 02:02:54.94	9.69	5.77	-48.0	-71.0	3.8	7.47e-01	0	37	104	0	66	54468
2026-01-17 02:02:55.93	9.65	5.85	-48.0	-71.0	3.8	7.43e-01	0	37	104	0	66	54468
2026-01-17 02:02:56.92	9.61	5.92	-47.9	-70.9	3.8	7.45e-01	0	37	104	0	66	53985
2026-01-17 02:02:57.92	9.56	5.99	-47.9	-71.0	3.8	7.47e-01	0	37	104	0	66	54071
2026-01-17 02:02:58.91	9.52	6.07	-47.9	-70.9	3.8	7.48e-01	0	37	104	0	66	53717
2026-01-17 02:02:59.90	9.48	6.14	-47.9	-70.9	3.8	7.46e-01	0	37	104	0	66	53914
2026-01-17 02:03:00.90	9.43	6.22	-47.9	-70.9	3.8	7.46e-01	0	37	104	0	66	53489
2026-01-17 02:03:01.89	9.39	6.30	-48.0	-70.9	3.8	7.49e-01	0	37	104	0	66	53572
2026-01-17 02:03:02.88	9.34	6.37	-48.0	-70.9	3.8	7.46e-01	0	37	104	0	66	53784
2026-01-17 02:03:03.88	9.30	6.45	-48.0	-70.8	3.8	7.48e-01	0	37	104	0	66	53317
2026-01-17 02:03:04.87	9.25	6.52	-47.9	-70.8	3.8	7.45e-01	0	38	104	0	66	53069
2026-01-17 02:03:05.86	9.21	6.60	-48.0	-70.5	3.8	7.49e-01	0	38	104	0	66	51472
2026-01-17 02:03:06.86	9.16	6.68	-48.0	-70.1	3.8	7.47e-01	0	38	104	0	66	48734
2026-01-17 02:03:07.85	9.11	6.75	-47.9	-69.4	3.9	7.43e-01	0	38	104	0	66	45275
2026-01-17 02:03:08.84	9.07	6.83	-47.9	-68.2	4.1	7.39e-01	0	37	104	0	66	39390
2026-01-17 02:03:09.83	9.02	6.91	-47.9	-67.2	4.1	7.26e-01	0	38	104	0	66	35181
2026-01-17 02:03:10.83	8.97	6.99	-47.9	-66.3	4.8	7.15e-01	0	38	104	0	66	31564
2026-01-17 02:03:11.82	8.93	7.06	-47.9	-65.8	5.1	7.08e-01	0	38	0	0	66	29815
2026-01-17 02:03:12.81	8.88	7.14	-47.9	-65.6	5.2	7.04e-01	0	38	0	0	66	29183
2026-01-17 02:03:13.81	8.83	7.22	-47.9	-65.6	5.2	7.09e-01	0	38	0	0	66	29185
2026-01-17 02:03:14.80	8.78	7.30	-47.9	-65.7	5.1	7.07e-01	0	38	0	0	66	29618
2026-01-17 02:03:15.79	8.73	7.38	-47.9	-66.9	3.9	7.39e-01	0	38	104	0	66	34069
2026-01-17 02:03:16.79	8.68	7.46	-47.9	-67.6	3.9	7.37e-01	0	38	104	0	66	36713
2026-01-17 02:03:17.78	8.64	7.54	-47.9	-68.7	3.9	7.45e-01	0	38	104	0	66	41882
2026-01-17 02:03:18.77	8.59	7.62	-47.9	-69.8	3.9	7.45e-01	0	38	104	0	66	47245
2026-01-17 02:03:19.77	8.54	7.70	-47.9	-70.8	3.8	7.46e-01	0	38	104	0	66	53128
2026-01-17 02:03:20.76	8.49	7.78	-48.0	-71.0	3.8	7.45e-01	0	38	104	0	66	54181
2026-01-17 02:03:21.75	8.44	7.86	-48.0	-70.3	3.8	7.47e-01	0	38	104	0	66	50128
2026-01-17 02:03:22.75	8.38	7.94	-47.9	-67.9	4.0	7.39e-01	0	38	104	0	66	37847
2026-01-17 02:03:23.74	8.33	8.02	-47.9	-64.6	5.8	6.88e-01	0	38	0	0	66	25999
2026-01-17 02:03:24.73	8.28	8.10	-47.8	-61.9	8.2	6.41e-01	0	38	0	1572864	66	19038
2026-01-17 02:03:25.73	8.23	8.18	-47.5	-59.1	11.1	6.14e-01	0	38	0	3670016	66	13823
2026-01-17 02:03:26.72	8.18	8.27	-47.3	-57.1	13.2	6.05e-01	0	38	0	5242880	66	10944
2026-01-17 02:03:27.71	8.12	8.35	-46.9	-55.0	15.3	6.04e-01	0	38	0	7340032	65	9161
2026-01-17 02:03:28.71	8.07	8.43	-46.5	-53.3	16.9	6.04e-01	0	38	0	8912896	64	7972
2026-01-17 02:03:29.70	8.02	8.51	-46.0	-52.1	18.2	6.03e-01	0	38	0	11010048	64	6907
2026-01-17 02:03:30.69	7.96	8.60	-45.8	-51.3	19.1	6.04e-01	0	39	0	13107200	63	6692
2026-01-17 02:03:31.69	7.91	8.68	-45.5	-50.7	19.7	6.05e-01	0	38	0	14680064	62	6613
2026-01-17 02:03:32.68	7.86	8.76	-45.3	-50.4	20.1	6.04e-01	0	39	0	16777216	62	6348
2026-01-17 02:03:33.68	7.80	8.85	-45.3	-50.3	20.1	6.06e-01	0	38	0	18350080	62	6288
2026-01-17 02:03:34.67	7.75	8.93	-45.3	-50.4	20.1	6.04e-01	0	39	0	20447232	62	6365
2026-01-17 02:03:35.66	7.69	9.02	-45.6	-50.9	19.6	6.04e-01	0	39	0	22020096	62	6748
2026-01-17 02:03:36.65	7.63	9.10	-45.8	-51.2	19.3	6.04e-01	0	39	0	24117248	62	7008
2026-01-17 02:03:37.65	7.58	9.19	-47.1	-55.8	15.0	6.02e-01	0	39	0	25690112	64	10612
2026-01-17 02:03:38.77	7.51	9.28	-44.7	-48.6	21.5	6.04e-01	0	38	0	28311552	61	5517
2026-01-17 02:03:39.63	7.46	9.36	-44.1	-47.3	23.0	6.04e-01	0	39	0	29884416	59	5324
2026-01-17 02:03:41.00	7.39	9.47	-47.4	-55.9	14.8	6.06e-01	0	39	0	31981568	65	10151
2026-01-17 02:03:41.71	7.34	9.54	-44.1	-47.5	22.4	6.03e-01	0	39	0	33554432	60	5106
2026-01-17 02:03:43.20	7.26	9.67	-44.2	-47.3	23.0	6.04e-01	0	39	0	36175872	59	5334
2026-01-17 02:03:43.91	7.21	9.73	-44.1	-47.2	23.1	6.01e-01	0	39	0	37748736	59	5253
2026-01-17 02:03:45.18	7.14	9.84	-44.2	-47.3	23.1	6.03e-01	0	39	0	39845888	59	5317
2026-01-17 02:03:45.91	7.10	9.90	-44.1	-47.2	23.1	6.05e-01	0	39	0	41418752	59	5279
2026-01-17 02:03:47.19	7.02	10.02	-44.1	-47.2	23.2	6.03e-01	0	39	0	44040192	59	5222
2026-01-17 02:03:47.90	6.97	10.08	-44.0	-47.0	23.3	6.00e-01	0	39	0	45088768	59	5156
2026-01-17 02:03:49.18	6.90	10.19	-44.0	-47.1	23.3	6.04e-01	0	38	0	47710208	59	5179
2026-01-17 02:03:49.89	6.85	10.26	-43.9	-47.0	23.4	6.04e-01	0	39	0	48758784	59	5129
2026-01-17 02:03:51.17	6.77	10.37	-44.0	-47.0	23.4	6.03e-01	0	39	0	51380224	59	5135
2026-01-17 02:03:51.88	6.73	10.44	-43.9	-46.9	23.4	6.05e-01	0	39	0	52428800	59	5092
2026-01-17 02:03:53.16	6.65	10.55	-43.9	-47.0	23.4	6.02e-01	0	39	0	55050240	59	5103
2026-01-17 02:03:53.91	6.60	10.62	-43.8	-46.9	23.4	6.03e-01	0	39	0	56623104	59	5086
2026-01-17 02:03:55.19	6.52	10.74	-43.9	-47.0	23.4	6.05e-01	0	39	0	58720256	59	5138
2026-01-17 02:03:55.92	6.47	10.81	-44.0	-47.0	23.4	6.05e-01	0	39	0	60293120	59	5157
2026-01-17 02:03:57.20	6.39	10.92	-43.7	-46.8	23.6	6.03e-01	0	39	0	62390272	59	4997
2026-01-17 02:03:58.01	6.34	11.00	-43.7	-46.8	23.6	6.06e-01	0	39	0	63963136	59	4995
2026-01-17 02:03:59.14	6.26	11.10	-43.7	-46.8	23.6	6.05e-01	0	39	0	66060288	59	4985
2026-01-17 02:04:00.22	6.19	11.20	-43.6	-46.6	23.7	6.02e-01	0	39	0	68157440	59	4908
2026-01-17 02:04:01.07	6.13	11.28	-43.7	-46.6	23.7	6.04e-01	0	39	0	69730304	59	4912
2026-01-17 02:04:02.21	6.06	11.39	-43.7	-46.7	23.6	6.05e-01	0	39	0	71827456	59	4953
2026-01-17 02:04:03.06	6.00	11.47	-43.6	-46.5	23.8	6.02e-01	0	39	0	73400320	59	4848
2026-01-17 02:04:04.20	5.92	11.58	-43.6	-46.6	23.8	6.01e-01	0	39	0	75497472	59	4877
2026-01-17 02:04:05.05	5.86	11.66	-43.5	-46.5	23.9	6.05e-01	0	39	0	77070336	59	4839
2026-01-17 02:04:06.19	5.78	11.77	-43.4	-46.3	24.0	6.03e-01	0	39	0	79691776	58	5041
2026-01-17 02:04:07.04	5.72	11.85	-43.3	-46.3	24.1	6.05e-01	0	39	0	81264640	58	5003
2026-01-17 02:04:08.18	5.64	11.96	-43.3	-46.3	24.1	6.06e-01	0	39	0	83361792	58	5006
2026-01-17 02:04:09.03	5.58	12.04	-43.3	-46.3	24.1	6.02e-01	0	39	0	84934656	58	5007
2026-01-17 02:04:10.29	5.49	12.16	-43.3	-46.3	24.0	6.02e-01	0	39	0	87031808	58	5016
2026-01-17 02:04:11.08	5.44	12.24	-43.2	-46.2	24.2	6.04e-01	0	39	0	88604672	58	4966
2026-01-17 02:04:12.29	5.35	12.35	-43.3	-46.2	24.2	6.05e-01	0	39	0	90701824	58	4947
2026-01-17 02:04:13.15	5.29	12.44	-43.2	-46.1	24.2	6.01e-01	0	39	0	92274688	58	4915
2026-01-17 02:04:14.38	5.20	12.56	-43.2	-46.1	24.3	6.04e-01	0	39	0	94896128	58	4920
2026-01-17 02:04:15.23	5.13	12.64	-43.2	-46.1	24.3	6.04e-01	0	39	0	96468992	58	4907
2026-01-17 02:04:16.37	5.05	12.76	-43.3	-46.2	24.2	6.02e-01	0	39	0	98566144	58	4937
2026-01-17 02:04:17.22	4.98	12.84	-43.2	-46.1	24.2	6.05e-01	0	39	0	100139008	58	4892
2026-01-17 02:04:18.48	4.89	12.97	-43.1	-46.0	24.4	6.02e-01	0	39	0	102760448	58	4845
2026-01-17 02:04:19.27	4.83	13.05	-43.2	-46.1	24.3	6.06e-01	0	39	0	103809024	58	4905
2026-01-17 02:04:20.47	4.74	13.17	-43.3	-46.2	24.2	6.04e-01	0	39	0	106430464	58	4982
2026-01-17 02:04:21.32	4.67	13.25	-43.3	-46.2	24.1	6.03e-01	0	39	0	108003328	58	4961
2026-01-17 02:04:22.46	4.58	13.37	-43.2	-46.0	24.4	6.03e-01	0	39	0	110100480	58	4850
2026-01-17 02:04:23.31	4.51	13.45	-43.3	-46.1	24.3	6.04e-01	0	39	0	111673344	58	4886
2026-01-17 02:04:24.45	4.42	13.57	-43.3	-46.1	24.2	6.03e-01	0	39	0	113770496	58	4911
2026-01-17 02:04:25.30	4.35	13.66	-43.3	-46.1	24.3	6.02e-01	0	39	0	115343360	58	4884
2026-01-17 02:04:26.44	4.26	13.78	-43.3	-46.1	24.3	6.03e-01	0	39	0	117440512	58	4895
2026-01-17 02:04:27.30	4.19	13.87	-43.3	-46.1	24.3	6.04e-01	0	39	0	119013376	58	4903
2026-01-17 02:04:28.43	4.10	13.98	-43.4	-46.2	24.2	6.04e-01	0	39	0	121110528	58	4955
2026-01-17 02:04:29.29	4.03	14.07	-43.4	-46.1	24.3	6.05e-01	0	39	0	122683392	58	4896
2026-01-17 02:04:30.43	3.93	14.19	-43.4	-46.1	24.3	6.04e-01	0	39	0	124780544	58	4893
2026-01-17 02:04:31.28	3.86	14.28	-43.4	-46.2	24.3	6.01e-01	0	39	0	126353408	58	4933
2026-01-17 02:04:32.42	3.77	14.40	-43.3	-46.0	24.4	6.04e-01	0	39	0	128450560	58	4858
2026-01-17 02:04:33.27	3.69	14.49	-43.3	-46.0	24.4	6.04e-01	0	39	0	130023424	58	4832
2026-01-17 02:04:34.41	3.59	14.62	-43.3	-46.0	24.4	6.02e-01	0	39	0	132120576	58	4834
2026-01-17 02:04:35.26	3.52	14.71	-43.5	-46.1	24.4	6.05e-01	0	39	0	133693440	58	4873
2026-01-17 02:04:36.40	3.42	14.83	-43.3	-45.8	24.6	6.05e-01	0	39	0	136314880	58	4755
2026-01-17 02:04:37.25	3.35	14.92	-43.2	-45.8	24.6	6.04e-01	0	39	0	137887744	58	4729
2026-01-17 02:04:38.52	3.23	15.06	-43.3	-45.9	24.4	6.04e-01	0	39	0	139984896	58	4783
2026-01-17 02:04:39.30	3.16	15.14	-43.3	-45.8	24.5	6.05e-01	0	39	0	141557760	58	4758
2026-01-17 02:04:40.50	3.06	15.28	-43.3	-45.8	24.6	6.03e-01	0	39	0	143654912	58	4715
2026-01-17 02:04:41.36	2.98	15.37	-43.3	-45.7	24.6	6.03e-01	0	39	0	145227776	58	4704
2026-01-17 02:04:42.49	2.87	15.50	-43.2	-45.7	24.6	6.06e-01	0	39	0	147324928	58	4687
2026-01-17 02:04:43.35	2.79	15.59	-43.2	-45.7	24.7	6.06e-01	0	39	0	148897792	58	4698
2026-01-17 02:04:44.48	2.69	15.72	-43.2	-45.7	24.6	6.04e-01	0	39	0	151519232	58	4697
2026-01-17 02:04:45.34	2.61	15.81	-43.4	-45.9	24.5	6.02e-01	0	39	0	153092096	58	4773
2026-01-17 02:04:46.48	2.50	15.94	-43.3	-45.8	24.7	6.04e-01	0	39	0	155189248	58	4721
2026-01-17 02:04:47.33	2.42	16.04	-43.3	-45.9	24.6	6.04e-01	0	39	0	156762112	58	4761
2026-01-17 02:04:48.47	2.31	16.17	-43.2	-45.9	24.6	6.03e-01	0	39	0	158859264	58	4784
2026-01-17 02:04:49.32	2.23	16.26	-43.2	-45.9	24.6	6.05e-01	0	39	0	160432128	58	4763
2026-01-17 02:04:50.46	2.11	16.39	-43.2	-46.0	24.5	6.02e-01	0	39	0	162529280	58	4822
2026-01-17 02:04:51.31	2.03	16.49	-43.2	-46.0	24.5	6.08e-01	0	39	0	164102144	58	4832
2026-01-17 02:04:52.44	1.92	16.62	-43.2	-46.0	24.5	6.05e-01	0	39	0	166199296	58	4834
2026-01-17 02:04:53.30	1.83	16.72	-43.0	-45.8	24.5	6.02e-01	0	39	0	167772160	58	4746
2026-01-17 02:04:54.43	1.72	16.85	-43.1	-45.9	24.6	6.06e-01	0	39	0	169869312	58	4760
2026-01-17 02:04:55.29	1.63	16.96	-43.0	-45.8	24.7	6.04e-01	0	39	0	171442176	58	4735
2026-01-17 02:04:56.53	1.50	17.10	-43.1	-45.8	24.7	6.03e-01	0	39	0	174063616	58	4743
2026-01-17 02:04:57.39	1.41	17.20	-43.1	-45.8	24.6	6.02e-01	0	39	0	175636480	58	4753
2026-01-17 02:04:58.52	1.29	17.34	-43.1	-45.7	24.7	6.00e-01	0	39	0	177733632	58	4690
2026-01-17 02:04:59.38	1.20	17.44	-43.0	-45.7	24.8	6.05e-01	0	39	0	179306496	58	4687
2026-01-17 02:05:00.63	1.07	17.59	-43.0	-45.7	24.8	6.04e-01	0	39	0	181403648	58	4656
2026-01-17 02:05:01.48	0.97	17.69	-43.1	-45.8	24.7	6.04e-01	0	39	0	182976512	58	4722
2026-01-17 02:05:02.62	0.85	17.83	-43.0	-45.6	24.9	6.03e-01	0	39	0	185073664	58	4612
2026-01-17 02:05:03.47	0.76	17.93	-43.2	-45.6	24.8	6.04e-01	0	39	0	186646528	58	4649
2026-01-17 02:05:04.61	0.63	18.07	-43.2	-45.6	24.8	6.04e-01	0	39	0	188743680	58	4639
2026-01-17 02:05:05.46	0.54	18.18	-43.1	-45.6	24.9	6.03e-01	0	39	0	190316544	58	4600
2026-01-17 02:05:06.83	0.38	18.35	-43.1	-45.6	24.9	6.04e-01	0	39	0	192937984	58	4603
2026-01-17 02:05:07.54	0.30	18.43	-43.1	-45.5	24.9	6.05e-01	0	40	0	194510848	58	4563
2026-01-17 02:05:08.82	0.15	18.59	-43.2	-45.6	24.8	6.05e-01	0	39	0	197132288	58	4620
2026-01-17 02:05:09.55	0.07	18.68	-43.2	-45.6	24.8	6.03e-01	0	39	0	198180864	58	4640
2026-01-17 02:05:10.83	359.92	18.85	-43.3	-45.7	24.7	6.02e-01	0	40	0	200802304	58	4683
2026-01-17 02:05:11.59	359.83	18.94	-43.3	-45.8	24.7	6.05e-01	0	39	0	201850880	58	4725
2026-01-17 02:05:12.87	359.68	19.10	-43.3	-45.8	24.7	6.05e-01	0	39	0	204472320	58	4713
2026-01-17 02:05:13.58	359.59	19.19	-43.3	-45.8	24.5	6.06e-01	0	39	0	206045184	58	4749
2026-01-17 02:05:15.22	359.39	19.40	-43.3	-45.8	24.6	6.05e-01	0	39	0	208666624	58	4753
2026-01-17 02:05:15.79	359.32	19.48	-43.3	-45.8	24.6	6.08e-01	0	40	0	209715200	58	4750
2026-01-17 02:05:17.50	359.11	19.70	-43.4	-46.0	24.5	6.04e-01	0	40	0	213385216	58	4834
2026-01-17 02:05:18.07	359.04	19.77	-43.5	-46.0	24.5	6.04e-01	0	39	0	214433792	58	4862
2026-01-17 02:05:19.79	358.82	20.00	-43.4	-46.0	24.5	6.05e-01	0	39	0	217579520	58	4837
2026-01-17 02:05:20.36	358.75	20.07	-43.4	-45.9	24.6	6.03e-01	0	40	0	218628096	58	4813
2026-01-17 02:05:22.07	358.52	20.30	-43.4	-45.9	24.6	6.02e-01	0	39	0	221773824	58	4801
2026-01-17 02:05:22.76	358.43	20.39	-43.3	-45.9	24.6	6.02e-01	0	39	0	222822400	58	4776
2026-01-17 02:05:24.18	358.25	20.58	-43.3	-45.8	24.7	6.02e-01	0	39	0	225443840	58	4751
2026-01-17 02:05:24.96	358.14	20.69	-43.3	-45.8	24.7	6.04e-01	0	40	0	227016704	58	4738
2026-01-17 02:05:26.23	357.97	20.86	-43.4	-45.8	24.7	6.03e-01	0	39	0	229638144	58	4748
2026-01-17 02:05:27.02	357.86	20.96	-43.4	-45.8	24.7	6.03e-01	0	40	0	231211008	58	4757
2026-01-17 02:05:28.21	357.70	21.13	-43.4	-45.9	24.7	6.04e-01	0	40	0	233308160	58	4764
2026-01-17 02:05:29.20	357.56	21.26	-43.5	-45.9	24.7	6.02e-01	0	40	0	234881024	58	4796
2026-01-17 02:05:30.37	357.40	21.42	-43.5	-45.9	24.6	6.04e-01	0	39	0	237502464	58	4804
2026-01-17 02:05:31.25	357.27	21.54	-43.6	-46.1	24.5	6.04e-01	0	40	0	239075328	58	4881
2026-01-17 02:05:32.39	357.11	21.70	-43.6	-46.1	24.5	6.04e-01	0	40	0	241172480	58	4893
2026-01-17 02:05:33.31	356.98	21.83	-43.5	-46.0	24.5	6.03e-01	0	39	0	242745344	58	4864
2026-01-17 02:05:34.48	356.81	21.99	-43.5	-46.1	24.4	6.03e-01	0	40	0	244842496	58	4896
2026-01-17 02:05:35.33	356.68	22.11	-43.6	-46.2	24.4	6.07e-01	0	40	0	246415360	58	4945
2026-01-17 02:05:36.47	356.51	22.28	-43.5	-46.0	24.5	6.03e-01	0	40	0	248512512	58	4858
2026-01-17 02:05:37.32	356.38	22.40	-43.6	-46.1	24.5	6.02e-01	0	40	0	250609664	58	4871
2026-01-17 02:05:38.46	356.21	22.56	-43.5	-46.0	24.5	6.04e-01	0	39	0	252182528	58	4837
2026-01-17 02:05:39.32	356.08	22.68	-43.6	-46.1	24.5	6.04e-01	0	40	0	254279680	58	4892
2026-01-17 02:05:40.46	355.90	22.85	-43.6	-46.1	24.5	6.05e-01	0	39	0	256376832	58	4901
2026-01-17 02:05:41.31	355.77	22.97	-43.6	-46.1	24.5	6.02e-01	0	40	0	257949696	58	4903
2026-01-17 02:05:42.44	355.59	23.14	-43.5	-46.0	24.5	6.03e-01	0	40	0	260046848	58	4866
2026-01-17 02:05:43.29	355.45	23.26	-43.4	-45.9	24.6	6.04e-01	0	39	0	261619712	58	4813
2026-01-17 02:05:44.43	355.27	23.43	-43.4	-45.9	24.7	6.04e-01	0	40	0	263716864	58	4808
2026-01-17 02:05:45.29	355.13	23.55	-43.3	-45.9	24.7	6.04e-01	0	40	0	265289728	58	4779
2026-01-17 02:05:46.42	354.94	23.72	-43.2	-45.9	24.7	6.07e-01	0	40	0	267386880	58	4789
2026-01-17 02:05:47.28	354.80	23.85	-43.3	-46.0	24.6	6.05e-01	0	40	0	268959744	58	4856
2026-01-17 02:05:48.57	354.58	24.04	-43.4	-46.0	24.6	6.01e-01	0	40	0	271581184	58	4852
2026-01-17 02:05:49.28	354.46	24.15	-43.4	-46.0	24.6	6.04e-01	0	40	0	272629760	58	4853
2026-01-17 02:05:50.76	354.21	24.37	-43.5	-46.0	24.6	6.03e-01	0	40	0	275251200	58	4865
2026-01-17 02:05:51.47	354.09	24.48	-43.6	-46.1	24.5	6.05e-01	0	40	0	276824064	58	4876
2026-01-17 02:05:52.75	353.86	24.68	-43.6	-46.1	24.5	6.04e-01	0	40	0	279445504	58	4887
2026-01-17 02:05:53.46	353.74	24.78	-43.5	-45.9	24.7	6.04e-01	0	40	0	280494080	58	4803
2026-01-17 02:05:54.74	353.51	24.98	-43.5	-45.9	24.7	6.02e-01	0	40	0	283115520	58	4776
2026-01-17 02:05:55.47	353.38	25.09	-43.4	-45.8	24.8	6.05e-01	0	39	0	284164096	58	4749
2026-01-17 02:05:56.75	353.14	25.29	-43.5	-46.0	24.7	6.06e-01	0	40	0	286785536	58	4817
2026-01-17 02:05:57.47	353.01	25.40	-43.5	-46.0	24.7	6.04e-01	0	40	0	288358400	58	4823
2026-01-17 02:05:58.75	352.77	25.60	-43.6	-46.0	24.6	6.02e-01	0	40	0	290455552	58	4854
2026-01-17 02:05:59.49	352.63	25.72	-43.6	-46.0	24.6	6.03e-01	0	40	0	292028416	58	4865
2026-01-17 02:06:00.77	352.39	25.92	-43.5	-46.0	24.7	6.04e-01	0	40	0	294125568	58	4825
2026-01-17 02:06:01.48	352.25	26.04	-43.4	-45.9	24.7	6.02e-01	0	40	0	295698432	58	4793
2026-01-17 02:06:02.76	352.00	26.24	-43.3	-45.8	24.8	6.04e-01	0	40	0	297795584	58	4712
2026-01-17 02:06:03.48	351.86	26.35	-43.3	-45.7	24.9	6.04e-01	0	40	0	299368448	58	4662
2026-01-17 02:06:04.76	351.60	26.56	-43.3	-45.7	24.9	6.03e-01	0	40	0	301989888	58	4688
2026-01-17 02:06:05.47	351.46	26.67	-43.3	-45.7	24.9	6.05e-01	0	40	0	303038464	58	4693
2026-01-17 02:06:06.75	351.20	26.88	-43.3	-45.7	24.8	6.05e-01	0	40	0	305659904	58	4690
2026-01-17 02:06:07.46	351.06	27.00	-43.3	-45.7	24.9	6.04e-01	0	39	0	306708480	58	4692
2026-01-17 02:06:08.74	350.79	27.21	-43.3	-45.7	24.8	6.02e-01	0	40	0	309329920	58	4697
2026-01-17 02:06:09.47	350.64	27.33	-43.3	-45.8	24.8	6.05e-01	0	40	0	310378496	58	4721
2026-01-17 02:06:10.75	350.37	27.54	-43.2	-45.6	24.9	6.05e-01	0	40	0	312999936	58	4633
2026-01-17 02:06:11.46	350.21	27.65	-43.0	-45.4	25.1	6.04e-01	0	40	0	314048512	58	4540
2026-01-17 02:06:12.74	349.94	27.86	-43.1	-45.5	25.1	6.04e-01	0	40	0	316669952	58	4585
2026-01-17 02:06:13.45	349.78	27.98	-43.1	-45.6	25.1	6.02e-01	0	40	0	318242816	58	4604
2026-01-17 02:06:14.73	349.50	28.20	-43.0	-45.4	25.1	6.02e-01	0	40	0	320339968	58	4545
2026-01-17 02:06:15.44	349.34	28.32	-43.1	-45.5	25.1	6.05e-01	0	40	0	321912832	58	4591
2026-01-17 02:06:16.72	349.05	28.53	-43.2	-45.6	25.0	6.04e-01	0	40	0	324009984	58	4605
2026-01-17 02:06:17.43	348.89	28.65	-43.1	-45.4	25.2	6.05e-01	0	40	0	325582848	58	4525
2026-01-17 02:06:18.71	348.59	28.87	-43.1	-45.4	25.2	6.02e-01	0	40	0	327680000	58	4539
2026-01-17 02:06:19.42	348.42	28.99	-43.1	-45.5	25.1	6.06e-01	0	40	0	329252864	58	4566
2026-01-17 02:06:20.70	348.12	29.21	-43.0	-45.4	25.1	6.01e-01	0	40	0	331874304	58	4545
2026-01-17 02:06:21.43	347.95	29.33	-42.9	-45.3	25.2	6.04e-01	0	40	0	332922880	57	4742
2026-01-17 02:06:22.70	347.64	29.55	-42.8	-45.3	25.3	6.05e-01	0	40	0	335544320	57	4712
2026-01-17 02:06:23.41	347.47	29.67	-42.9	-45.4	25.2	6.03e-01	0	40	0	336592896	57	4793
2026-01-17 02:06:24.69	347.15	29.89	-43.0	-45.4	25.1	6.05e-01	0	40	0	339214336	57	4809
2026-01-17 02:06:25.40	346.97	30.02	-43.0	-45.4	25.2	6.02e-01	0	40	0	340262912	57	4784
2026-01-17 02:06:26.75	346.63	30.25	-43.0	-45.3	25.2	6.03e-01	0	40	0	342884352	57	4758
2026-01-17 02:06:27.46	346.45	30.37	-42.9	-45.2	25.4	6.05e-01	0	40	0	344457216	57	4684
2026-01-17 02:06:28.74	346.12	30.60	-42.7	-45.0	25.5	6.03e-01	0	40	0	346554368	57	4565
2026-01-17 02:06:29.45	345.93	30.72	-42.7	-45.0	25.5	6.04e-01	0	40	0	348127232	57	4594
2026-01-17 02:06:30.73	345.59	30.95	-42.7	-45.1	25.5	6.03e-01	0	40	0	350224384	57	4605
2026-01-17 02:06:31.44	345.40	31.07	-42.6	-45.0	25.5	6.04e-01	0	40	0	351797248	57	4579
2026-01-17 02:06:32.72	345.05	31.30	-42.8	-45.2	25.4	6.06e-01	0	40	0	354418688	57	4669
2026-01-17 02:06:33.46	344.85	31.43	-42.9	-45.3	25.3	6.05e-01	0	40	0	355467264	57	4733
2026-01-17 02:06:34.74	344.50	31.66	-43.0	-45.4	25.1	6.02e-01	0	40	0	358088704	57	4799
2026-01-17 02:06:35.46	344.29	31.78	-43.1	-45.5	25.1	6.04e-01	0	40	0	359137280	57	4827
2026-01-17 02:06:36.73	343.93	32.01	-42.9	-45.3	25.3	6.04e-01	0	40	0	361758720	57	4722
2026-01-17 02:06:37.51	343.71	32.15	-42.8	-45.2	25.3	6.03e-01	0	40	0	363331584	57	4687
2026-01-17 02:06:38.79	343.34	32.38	-42.7	-45.3	25.3	6.02e-01	0	40	0	365428736	57	4706
2026-01-17 02:06:39.50	343.13	32.51	-42.7	-45.3	25.3	6.07e-01	0	40	0	367001600	57	4754
2026-01-17 02:06:40.78	342.75	32.74	-42.7	-45.3	25.2	6.03e-01	0	40	0	369098752	57	4758
2026-01-17 02:06:41.49	342.54	32.86	-42.9	-45.5	25.1	6.03e-01	0	40	0	370671616	57	4835
2026-01-17 02:06:42.77	342.15	33.10	-43.1	-45.6	25.0	6.07e-01	0	40	0	373293056	57	4909
2026-01-17 02:06:43.49	341.93	33.23	-43.3	-45.7	24.9	6.04e-01	0	40	0	374341632	57	4976
2026-01-17 02:06:44.78	341.52	33.46	-43.4	-45.8	24.9	6.02e-01	0	40	0	376963072	57	4991
2026-01-17 02:06:45.50	341.30	33.59	-43.3	-45.7	25.0	6.05e-01	0	40	0	378011648	57	4972
2026-01-17 02:06:46.78	340.89	33.82	-43.3	-45.6	25.0	6.04e-01	0	40	0	380633088	57	4924
2026-01-17 02:06:47.49	340.66	33.95	-43.3	-45.7	24.9	6.03e-01	0	40	0	381681664	57	4960
2026-01-17 02:06:48.78	340.24	34.18	-43.6	-46.0	24.7	6.03e-01	0	40	0	384303104	57	5117
2026-01-17 02:06:49.50	340.00	34.31	-43.6	-46.0	24.6	6.03e-01	0	40	0	385875968	57	5134
2026-01-17 02:06:50.78	339.58	34.55	-43.4	-45.9	24.8	6.05e-01	0	40	0	387973120	57	5078
2026-01-17 02:06:51.50	339.33	34.68	-43.5	-46.0	24.6	6.07e-01	0	40	0	389545984	57	5145
2026-01-17 02:06:52.78	338.90	34.91	-43.6	-46.2	24.5	6.03e-01	0	40	0	391643136	57	5277
2026-01-17 02:06:53.52	338.64	35.04	-43.5	-46.2	24.5	6.03e-01	0	40	0	393216000	57	5252
2026-01-17 02:06:54.80	338.20	35.28	-43.6	-46.3	24.4	6.03e-01	0	40	0	395313152	57	5316
2026-01-17 02:06:55.57	337.92	35.41	-43.7	-46.3	24.4	6.04e-01	0	40	0	396886016	57	5320
2026-01-17 02:06:56.85	337.47	35.65	-43.8	-46.5	24.3	6.03e-01	0	40	0	399507456	58	5104
2026-01-17 02:06:57.59	337.20	35.78	-43.9	-46.5	24.2	6.04e-01	0	40	0	401080320	58	5153
2026-01-17 02:06:59.22	336.60	36.08	-44.4	-47.1	23.7	6.04e-01	0	40	0	403701760	59	5181
2026-01-17 02:06:59.79	336.39	36.18	-44.5	-47.2	23.6	6.05e-01	0	40	0	404750336	59	5239
2026-01-17 02:07:01.49	335.75	36.48	-44.5	-47.0	23.8	6.02e-01	0	40	0	407896064	59	5136
2026-01-17 02:07:02.06	335.53	36.59	-44.4	-47.0	23.8	6.05e-01	0	40	0	408944640	59	5111
2026-01-17 02:07:03.75	334.88	36.89	-44.6	-47.1	23.7	6.04e-01	0	40	0	412614656	59	5189
2026-01-17 02:07:04.32	334.66	36.99	-44.6	-47.1	23.6	6.02e-01	0	40	0	413663232	60	4922
2026-01-17 02:07:06.02	333.98	37.29	-44.8	-47.5	23.2	6.05e-01	0	40	0	416808960	60	5151
2026-01-17 02:07:06.59	333.76	37.40	-44.7	-47.5	23.2	6.06e-01	0	40	0	417857536	60	5146
2026-01-17 02:07:08.30	333.06	37.70	-44.0	-46.8	23.8	6.03e-01	0	40	0	421003264	60	4759
2026-01-17 02:07:08.87	332.83	37.80	-44.1	-46.9	23.8	6.03e-01	0	40	0	422051840	60	4798
2026-01-17 02:07:10.57	332.12	38.10	-44.5	-47.3	23.5	6.01e-01	0	40	0	425197568	60	5011
2026-01-17 02:07:11.14	331.88	38.20	-44.7	-47.5	23.2	6.03e-01	0	40	0	426246144	60	5130
2026-01-17 02:07:12.84	331.15	38.49	-44.8	-47.5	23.2	6.03e-01	0	40	0	429391872	60	5112
2026-01-17 02:07:13.41	330.90	38.59	-44.7	-47.3	23.5	6.05e-01	0	40	0	430440448	60	5003
2026-01-17 02:07:15.12	330.16	38.88	-44.6	-47.3	23.5	6.04e-01	0	40	0	433586176	60	5001
2026-01-17 02:07:15.68	329.91	38.98	-44.7	-47.4	23.3	6.04e-01	0	40	0	434634752	60	5051
2026-01-17 02:07:17.61	329.04	39.31	-44.6	-47.6	23.3	6.04e-01	0	40	0	438304768	60	5171
2026-01-17 02:07:18.18	328.78	39.40	-44.4	-47.5	23.3	6.00e-01	0	40	0	439353344	60	5101
2026-01-17 02:07:20.16	327.87	39.73	-44.3	-47.5	23.3	6.02e-01	0	40	0	443023360	60	5113
2026-01-17 02:07:21.10	327.43	39.89	-44.1	-47.1	23.5	6.05e-01	0	40	0	445120512	60	4923
2026-01-17 02:07:22.10	326.95	40.05	-44.4	-47.2	23.5	6.04e-01	0	40	0	446693376	60	4976
2026-01-17 02:07:23.09	326.48	40.21	-44.6	-47.4	23.3	6.03e-01	0	40	0	448790528	60	5083
2026-01-17 02:07:24.09	326.00	40.37	-44.9	-47.6	23.1	6.03e-01	0	40	0	450363392	60	5199
2026-01-17 02:07:25.13	325.49	40.53	-44.8	-47.5	23.3	6.02e-01	0	40	0	452460544	60	5104
2026-01-17 02:07:26.08	325.02	40.68	-44.5	-47.1	23.5	6.04e-01	0	40	0	454033408	60	4915
2026-01-17 02:07:27.08	324.52	40.84	-44.3	-46.9	23.8	6.03e-01	0	40	0	456130560	60	4796
2026-01-17 02:07:28.07	324.02	40.99	-44.5	-47.1	23.6	6.07e-01	0	40	0	458227712	60	4901
2026-01-17 02:07:29.07	323.52	41.14	-44.7	-47.4	23.3	6.03e-01	0	40	0	459800576	60	5061
2026-01-17 02:07:30.07	323.00	41.29	-44.8	-47.5	23.3	6.04e-01	0	40	0	461897728	60	5138
2026-01-17 02:07:31.06	322.49	41.44	-44.8	-47.5	23.2	6.05e-01	0	40	0	463470592	60	5124
2026-01-17 02:07:32.05	321.97	41.58	-44.5	-47.1	23.6	6.02e-01	0	40	0	465567744	60	4915
2026-01-17 02:07:33.05	321.45	41.73	-44.3	-46.9	23.9	6.05e-01	0	40	0	467140608	60	4778
2026-01-17 02:07:34.04	320.92	41.87	-44.4	-46.9	23.8	6.05e-01	0	40	0	469237760	60	4801
2026-01-17 02:07:35.04	320.38	42.01	-44.4	-47.0	23.8	6.03e-01	0	40	0	470810624	60	4850
2026-01-17 02:07:36.03	319.85	42.14	-44.3	-46.9	23.9	6.03e-01	0	40	0	472907776	60	4773
2026-01-17 02:07:37.03	319.30	42.28	-44.2	-46.8	23.8	6.04e-01	0	40	0	475004928	60	4729
2026-01-17 02:07:38.02	318.76	42.41	-44.0	-46.6	24.1	6.03e-01	0	40	0	476577792	60	4630
2026-01-17 02:07:39.02	318.20	42.54	-44.1	-46.8	24.0	6.04e-01	0	40	0	478674944	60	4712
2026-01-17 02:07:40.01	317.65	42.67	-44.1	-46.8	23.8	6.02e-01	0	40	0	480247808	60	4747
2026-01-17 02:07:41.01	317.08	42.79	-44.1	-46.9	23.8	6.03e-01	0	40	0	482344960	60	4779
2026-01-17 02:07:42.01	316.52	42.92	-44.1	-46.8	23.9	6.04e-01	0	40	0	483917824	59	5026
2026-01-17 02:07:43.00	315.95	43.03	-44.3	-47.0	23.8	6.04e-01	0	40	0	486014976	59	5132
2026-01-17 02:07:44.00	315.37	43.15	-44.5	-47.2	23.6	6.04e-01	0	40	0	487587840	59	5257
2026-01-17 02:07:44.99	314.79	43.26	-44.2	-46.7	24.1	6.03e-01	0	40	0	489684992	59	4948
2026-01-17 02:07:45.99	314.21	43.38	-44.4	-47.0	23.8	6.04e-01	0	40	0	491782144	59	5134
2026-01-17 02:07:46.98	313.62	43.48	-44.3	-46.9	23.8	6.02e-01	0	40	0	493355008	59	5067
2026-01-17 02:07:47.98	313.03	43.59	-44.3	-46.9	23.8	6.04e-01	0	40	0	495452160	59	5075
2026-01-17 02:07:48.98	312.43	43.69	-44.0	-46.5	24.3	6.03e-01	0	40	0	497025024	59	4828
2026-01-17 02:07:49.97	311.84	43.79	-44.1	-46.6	23.7	6.04e-01	0	40	0	499122176	59	4919
2026-01-17 02:07:50.96	311.24	43.88	-44.4	-47.0	23.9	6.02e-01	0	40	0	500695040	59	5115
2026-01-17 02:07:51.96	310.63	43.98	-44.3	-47.0	23.9	6.05e-01	0	40	0	502792192	59	5109
2026-01-17 02:07:52.95	310.02	44.06	-43.9	-46.4	24.3	6.03e-01	0	40	0	504365056	59	4802
2026-01-17 02:07:53.95	309.41	44.15	-43.7	-46.1	24.6	6.05e-01	0	40	0	506462208	59	4651
2026-01-17 02:07:54.94	308.79	44.23	-44.0	-46.5	24.2	6.01e-01	0	40	0	508559360	59	4846
2026-01-17 02:07:55.94	308.17	44.31	-44.0	-46.6	24.2	6.02e-01	0	40	0	510132224	59	4878
2026-01-17 02:07:56.98	307.52	44.39	-44.0	-46.6	24.1	6.04e-01	0	40	0	512229376	59	4894
2026-01-17 02:07:57.95	306.91	44.46	-43.8	-46.3	24.4	6.03e-01	0	40	0	513802240	59	4739
2026-01-17 02:07:58.95	306.28	44.52	-43.9	-46.4	24.4	6.03e-01	0	40	0	515899392	59	4772
2026-01-17 02:07:59.94	305.65	44.59	-43.9	-46.3	24.4	6.03e-01	0	40	0	517472256	59	4752
2026-01-17 02:08:00.94	305.01	44.65	-43.8	-46.3	24.4	6.04e-01	0	40	0	519569408	59	4711
2026-01-17 02:08:01.93	304.38	44.70	-43.6	-46.0	24.6	6.05e-01	0	40	0	521666560	59	4546
2026-01-17 02:08:02.93	303.74	44.76	-44.0	-46.4	24.1	6.04e-01	0	40	0	523239424	59	4811
2026-01-17 02:08:03.93	303.09	44.81	-43.9	-46.4	24.2	6.03e-01	0	40	0	525336576	59	4798
2026-01-17 02:08:04.92	302.46	44.85	-44.1	-46.6	24.2	6.04e-01	0	40	0	526909440	59	4881
2026-01-17 02:08:05.92	301.81	44.89	-44.1	-46.6	23.2	6.04e-01	0	40	0	529006592	59	4909
2026-01-17 02:08:06.92	301.16	44.93	-43.8	-46.3	24.4	6.04e-01	0	40	0	531103744	59	4741
2026-01-17 02:08:07.91	300.52	44.96	-43.3	-45.7	24.8	6.03e-01	0	40	0	532676608	58	4704
2026-01-17 02:08:08.91	299.86	44.99	-43.4	-45.7	24.8	6.00e-01	0	40	0	534249472	58	4700
2026-01-17 02:08:09.90	299.22	45.01	-43.5	-45.9	24.6	6.04e-01	0	40	0	536346624	59	4504
2026-01-17 02:08:10.95	298.53	45.04	-43.8	-46.2	24.3	6.02e-01	0	40	0	538443776	59	4676
2026-01-17 02:08:11.92	297.90	45.05	-44.1	-46.7	23.5	6.03e-01	0	40	0	540016640	60	4676
2026-01-17 02:08:12.92	297.24	45.07	-44.6	-47.5	23.1	6.04e-01	0	40	0	542113792	60	5115
2026-01-17 02:08:13.91	296.59	45.07	-45.0	-48.0	22.9	6.06e-01	0	40	0	543686656	60	5415
2026-01-17 02:08:14.91	295.94	45.08	-44.5	-47.1	23.4	6.04e-01	0	40	0	545783808	59	5187
2026-01-17 02:08:15.91	295.28	45.08	-43.3	-45.6	24.9	6.02e-01	0	40	0	547880960	57	4908
2026-01-17 02:08:16.90	294.63	45.07	-43.5	-45.8	24.8	6.03e-01	0	40	0	549453824	58	4734
2026-01-17 02:08:17.90	293.97	45.07	-42.9	-45.5	24.6	6.04e-01	0	40	0	551550976	58	4561
2026-01-17 02:08:19.19	293.13	45.05	-43.1	-45.4	25.1	6.06e-01	0	40	0	553648128	58	4537
2026-01-17 02:08:19.91	292.66	45.04	-44.2	-46.7	24.0	6.03e-01	0	40	0	555220992	59	4958
2026-01-17 02:08:21.19	291.82	45.01	-44.0	-46.4	24.2	6.03e-01	0	40	0	557318144	59	4776
2026-01-17 02:08:21.91	291.35	44.99	-44.6	-47.2	23.5	6.02e-01	0	40	0	558891008	60	4935
2026-01-17 02:08:23.19	290.51	44.96	-44.4	-47.0	23.8	6.05e-01	0	40	0	561512448	59	5159
2026-01-17 02:08:23.90	290.05	44.93	-43.1	-45.3	25.2	6.04e-01	0	40	0	562561024	58	4489
2026-01-17 02:08:25.20	289.21	44.89	-43.5	-45.8	24.8	6.02e-01	0	40	0	565182464	59	4465
2026-01-17 02:08:25.91	288.75	44.86	-44.3	-46.8	23.8	6.02e-01	0	40	0	566231040	59	5037
2026-01-17 02:08:27.18	287.93	44.80	-44.1	-46.5	24.0	6.04e-01	0	40	0	568852480	59	4850
2026-01-17 02:08:27.91	287.46	44.76	-44.5	-47.1	23.7	6.03e-01	0	40	0	569901056	59	5213
2026-01-17 02:08:29.19	286.64	44.70	-43.9	-46.3	24.4	6.06e-01	0	40	0	572522496	58	4992
2026-01-17 02:08:29.90	286.18	44.66	-43.9	-46.3	24.3	6.05e-01	0	40	0	574095360	59	4731
2026-01-17 02:08:31.18	285.37	44.58	-44.0	-46.4	23.7	6.07e-01	0	40	0	576192512	60	4540
2026-01-17 02:08:31.89	284.92	44.53	-44.1	-46.5	24.1	6.04e-01	0	40	0	577765376	58	5125
2026-01-17 02:08:33.18	284.10	44.45	-43.9	-46.3	24.3	6.03e-01	0	40	0	579862528	58	4999
2026-01-17 02:08:33.89	283.65	44.40	-44.0	-46.5	23.8	6.02e-01	0	40	0	581435392	60	4573
2026-01-17 02:08:35.17	282.85	44.30	-44.1	-46.6	23.7	6.03e-01	0	40	0	584056832	60	4625
2026-01-17 02:08:35.91	282.39	44.24	-43.3	-45.6	24.9	6.02e-01	0	40	0	585105408	58	4631
2026-01-17 02:08:37.19	281.60	44.14	-43.4	-45.7	24.8	6.04e-01	0	40	0	587726848	58	4701
2026-01-17 02:08:37.90	281.16	44.07	-44.8	-47.5	23.3	6.05e-01	0	40	0	588775424	60	5128
2026-01-17 02:08:39.18	280.37	43.96	-44.3	-46.8	23.7	6.04e-01	0	40	0	591396864	59	5018
2026-01-17 02:08:39.89	279.94	43.89	-43.7	-46.0	24.0	6.04e-01	0	40	0	592445440	59	4598
2026-01-17 02:08:41.17	279.16	43.77	-44.3	-47.0	23.5	6.03e-01	0	40	0	595066880	60	4817
2026-01-17 02:08:41.88	278.74	43.70	-42.9	-45.2	25.1	6.06e-01	0	40	0	596639744	57	4652
2026-01-17 02:08:43.16	277.97	43.57	-43.6	-45.9	24.1	6.04e-01	0	40	0	598736896	59	4531
2026-01-17 02:08:44.17	277.37	43.46	-44.5	-47.2	23.6	6.04e-01	0	40	0	600834048	60	4934
2026-01-17 02:08:45.46	276.61	43.32	-43.7	-46.0	24.5	6.05e-01	0	40	0	602931200	58	4850
2026-01-17 02:08:46.21	276.17	43.24	-44.4	-46.9	23.3	6.05e-01	0	40	0	604504064	60	4814
2026-01-17 02:08:47.49	275.42	43.09	-44.3	-46.9	23.8	6.03e-01	0	40	0	607125504	59	5063
2026-01-17 02:08:48.29	274.96	43.00	-44.1	-46.7	23.7	6.04e-01	0	40	0	608174080	60	4659
2026-01-17 02:08:49.43	274.31	42.86	-44.5	-47.1	23.6	6.05e-01	0	40	0	610795520	59	5173
2026-01-17 02:08:50.28	273.83	42.75	-44.0	-46.4	23.9	6.04e-01	0	40	0	612368384	59	4814
2026-01-17 02:08:51.42	273.18	42.61	-44.3	-46.9	23.9	6.04e-01	0	40	0	614465536	59	5058
2026-01-17 02:08:52.27	272.71	42.50	-43.4	-45.7	24.8	6.02e-01	0	40	0	616038400	58	4666
2026-01-17 02:08:53.41	272.08	42.35	-44.6	-47.2	23.7	6.03e-01	0	40	0	618135552	59	5243
2026-01-17 02:08:54.26	271.61	42.23	-44.2	-46.7	23.9	6.06e-01	0	40	0	619708416	60	4672
2026-01-17 02:08:55.40	270.99	42.08	-44.7	-47.3	23.5	6.04e-01	0	40	0	621805568	60	5028
2026-01-17 02:08:56.26	270.52	41.96	-44.0	-46.5	24.0	6.03e-01	0	40	0	623378432	60	4546
2026-01-17 02:08:57.39	269.92	41.80	-43.7	-46.1	24.5	6.03e-01	0	40	0	625475584	58	4898
2026-01-17 02:08:58.24	269.47	41.68	-44.7	-47.3	23.4	6.06e-01	0	40	0	627048448	59	5316
2026-01-17 02:08:59.52	268.79	41.49	-43.9	-46.3	24.4	6.03e-01	0	40	0	629669888	59	4711
2026-01-17 02:09:00.25	268.41	41.38	-44.2	-46.7	24.1	6.05e-01	0	40	0	630718464	59	4964
2026-01-17 02:09:01.53	267.75	41.19	-44.0	-46.4	24.3	6.04e-01	0	40	0	633339904	59	4771
2026-01-17 02:09:02.24	267.39	41.08	-44.2	-46.7	24.1	6.04e-01	0	40	0	634388480	59	4956
2026-01-17 02:09:03.52	266.74	40.89	-44.3	-46.8	23.8	6.02e-01	0	40	0	637009920	59	4998
2026-01-17 02:09:04.23	266.38	40.78	-44.1	-46.6	24.1	6.05e-01	0	40	0	638058496	59	4886
2026-01-17 02:09:05.51	265.75	40.58	-44.2	-46.7	24.1	6.04e-01	0	40	0	640679936	59	4951
2026-01-17 02:09:06.22	265.40	40.47	-44.2	-46.7	24.0	6.00e-01	0	41	0	642252800	59	4954
2026-01-17 02:09:07.50	264.78	40.26	-44.3	-46.8	23.9	6.01e-01	0	40	0	644349952	59	4995
2026-01-17 02:09:08.21	264.43	40.15	-44.6	-47.2	23.5	6.05e-01	0	40	0	645922816	60	4952
2026-01-17 02:09:09.49	263.82	39.94	-44.1	-46.6	23.9	6.06e-01	0	40	0	648019968	60	4643
2026-01-17 02:09:10.20	263.49	39.82	-44.3	-46.9	23.7	6.04e-01	0	40	0	649592832	60	4810
2026-01-17 02:09:11.50	262.88	39.61	-44.4	-47.0	23.6	6.03e-01	0	40	0	651689984	60	4868
2026-01-17 02:09:12.21	262.55	39.49	-44.5	-47.2	23.6	6.04e-01	0	40	0	653262848	60	4949
2026-01-17 02:09:13.55	261.94	39.26	-44.4	-47.0	23.6	6.04e-01	0	40	0	655884288	60	4855
2026-01-17 02:09:14.26	261.62	39.14	-44.5	-47.1	23.6	6.06e-01	0	40	0	656932864	60	4899
2026-01-17 02:09:15.62	261.01	38.91	-44.6	-47.4	23.3	6.03e-01	0	40	0	659554304	60	5069
2026-01-17 02:09:16.33	260.69	38.79	-44.6	-47.3	23.3	6.04e-01	0	40	0	661127168	60	5010
2026-01-17 02:09:17.67	260.11	38.56	-44.5	-47.1	23.6	6.04e-01	0	40	0	663748608	60	4908
2026-01-17 02:09:18.38	259.80	38.43	-44.6	-47.3	23.5	6.04e-01	0	41	0	664797184	60	4997
2026-01-17 02:09:19.72	259.22	38.20	-45.1	-47.9	22.8	6.05e-01	0	40	0	667418624	61	5053
2026-01-17 02:09:20.44	258.92	38.07	-44.8	-47.4	23.2	6.05e-01	0	40	0	668467200	61	4807
2026-01-17 02:09:21.72	258.38	37.85	-44.6	-47.2	23.4	6.02e-01	0	41	0	671088640	61	4688
2026-01-17 02:09:22.46	258.08	37.72	-44.7	-47.4	23.3	6.05e-01	0	40	0	672661504	61	4787
2026-01-17 02:09:23.74	257.55	37.49	-44.4	-47.0	23.6	6.04e-01	0	41	0	674758656	60	4833
2026-01-17 02:09:24.48	257.25	37.36	-44.8	-47.4	23.4	6.03e-01	0	41	0	676331520	60	5054
2026-01-17 02:09:25.76	256.74	37.13	-45.0	-47.7	23.0	6.02e-01	0	40	0	678428672	60	5259
2026-01-17 02:09:26.47	256.46	37.00	-44.7	-47.4	23.2	6.04e-01	0	40	0	680001536	60	5070
2026-01-17 02:09:27.75	255.96	36.77	-44.4	-47.0	23.7	6.03e-01	0	40	0	682098688	60	4834
2026-01-17 02:09:28.47	255.68	36.64	-44.5	-47.1	23.6	6.04e-01	0	40	0	683671552	60	4882
2026-01-17 02:09:29.75	255.19	36.41	-44.6	-47.2	23.5	6.02e-01	0	40	0	686292992	60	4954
2026-01-17 02:09:30.51	254.90	36.27	-44.6	-47.2	23.5	6.02e-01	0	40	0	687341568	60	4939
2026-01-17 02:09:31.79	254.42	36.04	-45.1	-47.9	22.9	6.02e-01	0	41	0	689963008	60	5353
2026-01-17 02:09:32.53	254.15	35.91	-45.1	-47.8	23.0	6.03e-01	0	40	0	691535872	60	5291
2026-01-17 02:09:33.81	253.68	35.68	-44.7	-47.2	23.4	6.04e-01	0	40	0	693633024	60	4982
2026-01-17 02:09:34.58	253.40	35.54	-44.8	-47.5	23.3	6.05e-01	0	40	0	695205888	60	5102
2026-01-17 02:09:35.86	252.95	35.30	-44.8	-47.5	23.2	6.02e-01	0	40	0	697303040	60	5119
2026-01-17 02:09:36.57	252.70	35.17	-44.9	-47.6	23.2	6.04e-01	0	41	0	698875904	60	5176
2026-01-17 02:09:37.86	252.25	34.94	-44.8	-47.5	23.2	6.04e-01	0	40	0	701497344	60	5127
2026-01-17 02:09:38.69	251.96	34.79	-44.4	-46.9	23.7	6.04e-01	0	40	0	703070208	60	4810
2026-01-17 02:09:40.13	251.47	34.52	-44.3	-46.8	23.8	6.05e-01	0	41	0	705691648	60	4750
2026-01-17 02:09:41.25	251.10	34.32	-44.4	-47.0	23.7	6.06e-01	0	40	0	707788800	60	4834
2026-01-17 02:09:42.10	250.81	34.17	-44.5	-47.1	23.6	6.04e-01	0	41	0	709361664	60	4908
2026-01-17 02:09:43.24	250.44	33.96	-44.4	-47.0	23.6	6.06e-01	0	40	0	711458816	60	4835
2026-01-17 02:09:44.09	250.16	33.80	-44.2	-46.7	23.9	6.03e-01	0	41	0	713031680	60	4687
2026-01-17 02:09:45.31	249.77	33.58	-44.0	-46.4	24.2	6.02e-01	0	40	0	715128832	59	4814
2026-01-17 02:09:46.16	249.51	33.43	-44.3	-46.8	23.9	6.05e-01	0	41	0	716701696	59	5030
2026-01-17 02:09:47.38	249.12	33.21	-44.6	-47.1	23.6	6.04e-01	0	40	0	719323136	59	5202
2026-01-17 02:09:48.23	248.86	33.05	-44.2	-46.7	24.0	6.04e-01	0	40	0	720896000	59	4956
2026-01-17 02:09:49.37	248.51	32.84	-44.3	-46.7	24.0	6.04e-01	0	41	0	722993152	59	4966
2026-01-17 02:09:50.22	248.26	32.69	-44.2	-46.7	24.0	6.01e-01	0	41	0	724566016	59	4958
2026-01-17 02:09:51.48	247.88	32.46	-44.3	-46.8	24.0	6.04e-01	0	41	0	726663168	59	4998
2026-01-17 02:09:52.28	247.65	32.32	-44.0	-46.5	24.2	6.03e-01	0	41	0	728236032	59	4817
2026-01-17 02:09:53.42	247.31	32.11	-43.9	-46.3	24.4	6.03e-01	0	41	0	730333184	59	4739
2026-01-17 02:09:54.27	247.07	31.96	-44.0	-46.4	24.3	6.02e-01	0	41	0	731906048	59	4790
2026-01-17 02:09:55.58	246.70	31.73	-44.2	-46.7	24.0	6.02e-01	0	40	0	734527488	59	4973
2026-01-17 02:09:56.29	246.50	31.60	-44.2	-46.7	24.0	6.04e-01	0	41	0	736100352	59	4947
2026-01-17 02:09:57.78	246.08	31.33	-44.0	-46.4	23.6	6.04e-01	0	41	0	738721792	59	4794
2026-01-17 02:09:58.49	245.89	31.21	-44.1	-46.6	24.1	6.03e-01	0	41	0	739770368	59	4898
2026-01-17 02:09:59.83	245.52	30.97	-44.4	-47.0	23.8	6.04e-01	0	41	0	742391808	59	5122
2026-01-17 02:10:00.54	245.33	30.85	-44.1	-46.5	24.1	6.04e-01	0	41	0	743964672	59	4849
2026-01-17 02:10:01.82	245.00	30.62	-43.6	-46.0	24.6	6.07e-01	0	40	0	746061824	59	4572
2026-01-17 02:10:02.56	244.80	30.49	-43.9	-46.3	24.4	6.04e-01	0	41	0	747634688	59	4714
2026-01-17 02:10:03.84	244.47	30.26	-44.4	-47.0	23.8	6.02e-01	0	41	0	750256128	59	5111
2026-01-17 02:10:04.55	244.29	30.14	-44.3	-46.8	24.0	6.07e-01	0	41	0	751304704	59	5009
2026-01-17 02:10:05.83	243.96	29.92	-43.8	-46.2	24.4	6.01e-01	0	40	0	753926144	59	4698
2026-01-17 02:10:06.54	243.79	29.79	-43.7	-46.1	24.5	6.03e-01	0	40	0	754974720	59	4605
2026-01-17 02:10:07.82	243.47	29.57	-43.9	-46.3	24.4	6.06e-01	0	40	0	757596160	59	4728
2026-01-17 02:10:08.53	243.30	29.45	-44.1	-46.5	24.2	6.05e-01	0	40	0	758644736	59	4865
2026-01-17 02:10:09.82	242.98	29.23	-44.2	-46.7	24.0	6.03e-01	0	40	0	761266176	59	4975
2026-01-17 02:10:10.53	242.81	29.10	-44.0	-46.4	24.2	6.03e-01	0	40	0	762839040	59	4809
2026-01-17 02:10:11.81	242.51	28.89	-43.9	-46.3	24.4	6.03e-01	0	41	0	764936192	59	4729
2026-01-17 02:10:12.52	242.34	28.76	-44.0	-46.4	24.3	6.06e-01	0	41	0	766509056	59	4802
2026-01-17 02:10:13.80	242.05	28.55	-44.0	-46.5	24.0	6.03e-01	0	41	0	768606208	59	4822
2026-01-17 02:10:14.65	241.85	28.40	-43.8	-46.2	24.4	6.04e-01	0	40	0	770179072	59	4688
2026-01-17 02:10:16.08	241.53	28.16	-43.8	-46.2	24.4	6.04e-01	0	41	0	772800512	59	4698
2026-01-17 02:10:16.80	241.37	28.04	-43.8	-46.3	24.4	6.05e-01	0	40	0	774373376	59	4709
2026-01-17 02:10:18.07	241.09	27.83	-44.2	-46.8	24.0	6.04e-01	0	41	0	776994816	59	4984
2026-01-17 02:10:18.79	240.93	27.71	-44.4	-47.0	23.7	6.04e-01	0	41	0	778043392	59	5126
2026-01-17 02:10:20.07	240.65	27.50	-44.2	-46.7	24.0	6.03e-01	0	41	0	780664832	59	4945
2026-01-17 02:10:20.79	240.50	27.38	-44.0	-46.5	24.2	6.03e-01	0	41	0	781713408	59	4824
2026-01-17 02:10:22.07	240.23	27.17	-43.9	-46.5	24.2	6.03e-01	0	41	0	784334848	59	4818
2026-01-17 02:10:22.79	240.08	27.05	-44.1	-46.6	24.1	6.03e-01	0	41	0	785383424	59	4913
2026-01-17 02:10:24.07	239.81	26.84	-44.2	-46.8	23.9	6.06e-01	0	41	0	788004864	59	5015
2026-01-17 02:10:24.78	239.67	26.72	-44.2	-46.7	24.0	6.06e-01	0	41	0	789577728	59	4978
2026-01-17 02:10:26.06	239.41	26.52	-44.2	-46.7	24.0	6.04e-01	0	41	0	791674880	59	4960
2026-01-17 02:10:26.79	239.26	26.40	-44.2	-46.6	24.1	6.04e-01	0	41	0	793247744	59	4920
2026-01-17 02:10:28.07	239.01	26.19	-44.2	-46.7	24.0	6.06e-01	0	41	0	795344896	59	4947
2026-01-17 02:10:29.09	238.81	26.03	-44.3	-46.8	23.9	6.03e-01	0	41	0	797442048	59	5009
2026-01-17 02:10:30.37	238.56	25.82	-44.5	-47.0	23.7	6.05e-01	0	41	0	800063488	59	5139
2026-01-17 02:10:31.11	238.42	25.71	-44.4	-47.0	23.7	6.04e-01	0	41	0	801112064	59	5115
2026-01-17 02:10:32.39	238.17	25.50	-44.5	-47.1	23.6	6.04e-01	0	41	0	803733504	59	5185
2026-01-17 02:10:33.19	238.02	25.38	-44.3	-46.9	23.8	6.04e-01	0	41	0	805306368	59	5074
2026-01-17 02:10:34.63	237.76	25.15	-44.3	-46.9	23.8	6.03e-01	0	41	0	807927808	59	5068
2026-01-17 02:10:35.34	237.63	25.04	-44.2	-46.8	23.9	6.02e-01	0	41	0	808976384	59	5002
2026-01-17 02:10:36.62	237.39	24.84	-44.2	-46.8	23.9	6.04e-01	0	40	0	811597824	59	5011
2026-01-17 02:10:37.33	237.27	24.74	-44.2	-46.8	23.9	6.05e-01	0	41	0	812646400	59	5010
2026-01-17 02:10:38.61	237.04	24.54	-44.1	-46.7	24.0	6.05e-01	0	41	0	815267840	59	4942
2026-01-17 02:10:39.33	236.91	24.43	-44.3	-46.8	23.9	6.05e-01	0	41	0	816840704	59	5026
2026-01-17 02:10:40.60	236.69	24.23	-44.3	-46.9	23.9	6.05e-01	0	40	0	818937856	59	5058
2026-01-17 02:10:41.41	236.55	24.11	-44.4	-47.0	23.8	6.03e-01	0	41	0	820510720	59	5115
2026-01-17 02:10:42.55	236.36	23.94	-44.4	-47.0	23.8	6.02e-01	0	41	0	822607872	59	5102
2026-01-17 02:10:43.40	236.21	23.81	-44.4	-47.0	23.8	6.04e-01	0	41	0	824180736	59	5112
2026-01-17 02:10:44.54	236.02	23.64	-44.3	-46.8	23.9	6.04e-01	0	41	0	826277888	59	5037
2026-01-17 02:10:45.40	235.88	23.51	-44.2	-46.7	23.9	6.04e-01	0	41	0	827850752	59	4966
2026-01-17 02:10:46.53	235.69	23.35	-44.1	-46.6	24.0	6.02e-01	0	41	0	829947904	59	4914
2026-01-17 02:10:47.38	235.56	23.22	-44.1	-46.6	24.0	6.04e-01	0	41	0	831520768	59	4920
2026-01-17 02:10:48.52	235.37	23.05	-44.3	-46.8	23.8	6.04e-01	0	41	0	833617920	59	5041
2026-01-17 02:10:49.37	235.24	22.93	-44.3	-46.9	23.8	6.05e-01	0	41	0	835190784	59	5095
2026-01-17 02:10:50.51	235.06	22.76	-44.4	-47.1	23.6	6.04e-01	0	41	0	837287936	59	5175
2026-01-17 02:10:51.36	234.93	22.64	-44.4	-47.0	23.7	6.04e-01	0	41	0	838860800	59	5154
2026-01-17 02:10:52.61	234.73	22.46	-44.5	-47.1	23.6	6.05e-01	0	41	0	841482240	59	5180
2026-01-17 02:10:53.46	234.60	22.34	-44.3	-46.9	23.8	6.04e-01	0	40	0	843055104	59	5053
2026-01-17 02:10:54.60	234.43	22.17	-44.2	-46.7	23.9	6.02e-01	0	41	0	845152256	59	4982
2026-01-17 02:10:55.45	234.30	22.05	-44.2	-46.7	24.0	6.04e-01	0	41	0	846725120	59	4965
2026-01-17 02:10:56.59	234.13	21.89	-44.2	-46.8	23.9	6.04e-01	0	41	0	848822272	59	4999
2026-01-17 02:10:57.44	234.01	21.77	-44.3	-46.9	23.8	6.04e-01	0	41	0	850395136	59	5064
2026-01-17 02:10:58.58	233.84	21.61	-44.3	-46.9	23.8	6.04e-01	0	41	0	852492288	59	5065
2026-01-17 02:10:59.43	233.72	21.49	-44.3	-46.9	23.8	6.02e-01	0	41	0	854065152	59	5064
2026-01-17 02:11:00.57	233.56	21.34	-44.4	-47.0	23.7	6.05e-01	0	41	0	856686592	59	5106
2026-01-17 02:11:01.42	233.44	21.22	-44.2	-46.8	23.9	6.07e-01	0	41	0	858259456	59	4998
2026-01-17 02:11:02.56	233.28	21.06	-44.2	-46.8	23.9	6.02e-01	0	41	0	860356608	59	4996
2026-01-17 02:11:03.41	233.16	20.94	-44.3	-46.8	23.8	6.05e-01	0	41	0	861929472	59	5028
2026-01-17 02:11:04.55	233.00	20.79	-44.4	-46.9	23.7	6.04e-01	0	41	0	864026624	59	5080
2026-01-17 02:11:05.40	232.89	20.67	-44.4	-47.0	23.7	6.03e-01	0	41	0	865599488	59	5101
2026-01-17 02:11:06.54	232.73	20.52	-44.4	-47.0	23.7	6.02e-01	0	41	0	867696640	59	5140
2026-01-17 02:11:07.39	232.62	20.40	-44.3	-46.8	23.9	6.05e-01	0	41	0	869269504	59	4987
2026-01-17 02:11:08.64	232.45	20.24	-44.3	-46.8	23.7	6.03e-01	0	41	0	871366656	59	5033
2026-01-17 02:11:09.42	232.35	20.13	-44.4	-46.9	23.7	6.05e-01	0	41	0	872939520	59	5073
2026-01-17 02:11:10.85	232.17	19.94	-44.3	-46.8	23.8	6.04e-01	0	41	0	875560960	59	5028
2026-01-17 02:11:11.56	232.07	19.85	-44.3	-46.9	23.8	6.04e-01	0	41	0	877133824	59	5044
2026-01-17 02:11:12.84	231.91	19.68	-44.2	-46.7	23.9	6.03e-01	0	41	0	879230976	59	4947
2026-01-17 02:11:13.57	231.82	19.59	-44.1	-46.5	24.1	6.04e-01	0	41	0	880803840	59	4869
2026-01-17 02:11:14.84	231.66	19.42	-44.1	-46.6	24.0	6.03e-01	0	41	0	882900992	59	4907
2026-01-17 02:11:15.56	231.57	19.33	-44.1	-46.6	24.0	6.03e-01	0	41	0	884473856	59	4905
2026-01-17 02:11:16.84	231.41	19.16	-44.1	-46.5	24.1	6.04e-01	0	40	0	887095296	59	4859
2026-01-17 02:11:17.56	231.33	19.07	-44.1	-46.6	24.0	6.05e-01	0	41	0	888143872	59	4893
2026-01-17 02:11:18.84	231.17	18.91	-44.2	-46.7	23.9	6.05e-01	0	41	0	890765312	59	4953
2026-01-17 02:11:19.57	231.08	18.82	-44.2	-46.7	23.9	6.04e-01	0	41	0	891813888	59	4968
2026-01-17 02:11:20.85	230.93	18.65	-44.1	-46.6	24.0	6.04e-01	0	41	0	894435328	59	4889
2026-01-17 02:11:21.59	230.85	18.56	-44.1	-46.7	23.9	6.04e-01	0	41	0	896008192	59	4929
2026-01-17 02:11:22.87	230.70	18.40	-44.1	-46.7	23.9	6.05e-01	0	41	0	898105344	59	4929
2026-01-17 02:11:23.58	230.62	18.31	-44.0	-46.5	24.1	6.05e-01	0	41	0	899678208	59	4831
2026-01-17 02:11:24.86	230.47	18.15	-44.0	-46.5	24.1	6.01e-01	0	41	0	901775360	59	4828
2026-01-17 02:11:25.73	230.37	18.05	-44.1	-46.6	24.0	6.04e-01	0	41	0	903348224	59	4917
2026-01-17 02:11:26.86	230.24	17.91	-44.2	-46.8	23.8	6.03e-01	0	40	0	905445376	59	5013
2026-01-17 02:11:27.72	230.15	17.80	-44.3	-46.9	23.7	6.04e-01	0	41	0	907542528	59	5086
2026-01-17 02:11:28.85	230.02	17.66	-44.4	-47.0	23.6	6.05e-01	0	41	0	909639680	59	5152
2026-01-17 02:11:29.71	229.93	17.56	-44.4	-47.1	23.6	6.03e-01	0	41	0	911212544	59	5178
2026-01-17 02:11:30.84	229.81	17.42	-44.5	-47.2	23.5	6.03e-01	0	41	0	913309696	59	5230
2026-01-17 02:11:31.70	229.71	17.32	-44.5	-47.1	23.5	6.04e-01	0	41	0	914882560	59	5180
2026-01-17 02:11:32.83	229.59	17.18	-44.5	-47.1	23.5	6.03e-01	0	41	0	916979712	59	5184
2026-01-17 02:11:34.04	229.47	17.04	-44.3	-46.9	23.6	6.04e-01	0	41	0	919076864	59	5055
2026-01-17 02:11:34.90	229.38	16.94	-44.2	-46.7	23.7	6.04e-01	0	41	0	920649728	59	4938
2026-01-17 02:11:36.04	229.26	16.80	-44.1	-46.6	23.9	6.02e-01	0	41	0	922746880	59	4919
2026-01-17 02:11:36.89	229.17	16.70	-44.1	-46.6	24.0	6.04e-01	0	41	0	924319744	59	4905
2026-01-17 02:11:38.03	229.05	16.57	-44.1	-46.6	23.9	6.02e-01	0	41	0	926416896	59	4911
2026-01-17 02:11:38.88	228.97	16.47	-44.1	-46.6	23.9	6.03e-01	0	41	0	928514048	59	4911
2026-01-17 02:11:40.01	228.85	16.34	-44.1	-46.6	23.9	6.03e-01	0	41	0	930611200	59	4903
2026-01-17 02:11:40.87	228.77	16.24	-44.2	-46.7	23.9	6.04e-01	0	41	0	932184064	59	4972
2026-01-17 02:11:42.00	228.66	16.11	-44.3	-46.9	23.7	6.03e-01	0	41	0	934281216	59	5047
2026-01-17 02:11:42.86	228.57	16.01	-44.4	-47.0	23.6	6.05e-01	0	41	0	935854080	59	5110
2026-01-17 02:11:43.99	228.46	15.89	-44.3	-46.9	23.6	6.04e-01	0	41	0	937951232	59	5097
2026-01-17 02:11:44.84	228.38	15.79	-44.3	-46.9	23.7	6.04e-01	0	41	0	939524096	59	5067
2026-01-17 02:11:45.98	228.27	15.66	-44.3	-46.9	23.7	6.02e-01	0	41	0	941621248	59	5053
2026-01-17 02:11:46.83	228.19	15.57	-44.3	-46.9	23.7	6.05e-01	0	41	0	943194112	59	5051
2026-01-17 02:11:47.97	228.09	15.44	-44.2	-46.8	23.7	6.04e-01	0	41	0	945291264	59	5025
2026-01-17 02:11:48.82	228.01	15.34	-44.2	-46.8	23.7	6.06e-01	0	41	0	946864128	59	5007
2026-01-17 02:11:49.96	227.90	15.22	-44.2	-46.7	23.8	6.04e-01	0	41	0	948961280	59	4962
2026-01-17 02:11:50.81	227.82	15.12	-44.2	-46.8	23.8	6.04e-01	0	41	0	950534144	59	4985
2026-01-17 02:11:51.95	227.72	15.00	-44.2	-46.8	23.7	6.07e-01	0	41	0	952631296	59	5012
2026-01-17 02:11:52.81	227.64	14.90	-44.2	-46.8	23.8	6.04e-01	0	41	0	954204160	59	4999
2026-01-17 02:11:53.94	227.54	14.78	-44.3	-46.9	23.6	6.03e-01	0	41	0	956301312	59	5074
2026-01-17 02:11:54.79	227.47	14.69	-44.4	-47.0	23.5	6.02e-01	0	41	0	957874176	59	5155
2026-01-17 02:11:55.95	227.36	14.56	-44.4	-47.0	23.5	6.04e-01	0	41	0	959971328	59	5148
2026-01-17 02:11:56.80	227.29	14.47	-44.5	-47.2	23.4	6.03e-01	0	41	0	962068480	59	5227
2026-01-17 02:11:57.94	227.19	14.35	-44.6	-47.3	23.3	6.03e-01	0	41	0	964165632	59	5287
2026-01-17 02:11:58.79	227.12	14.26	-44.5	-47.1	23.3	6.03e-01	0	41	0	965738496	60	4924
2026-01-17 02:11:59.93	227.02	14.14	-44.4	-47.1	23.3	6.02e-01	0	41	0	967835648	60	4907
2026-01-17 02:12:00.78	226.95	14.05	-44.3	-47.0	23.4	6.02e-01	0	41	0	969408512	60	4839
2026-01-17 02:12:02.09	226.84	13.91	-44.4	-47.0	23.4	6.05e-01	0	41	0	971505664	60	4846
2026-01-17 02:12:02.80	226.78	13.84	-44.3	-47.0	23.4	6.02e-01	0	41	0	973078528	60	4819
2026-01-17 02:12:04.08	226.67	13.70	-44.2	-46.8	23.5	6.01e-01	0	41	0	975699968	60	4749
2026-01-17 02:12:04.79	226.61	13.63	-44.2	-46.7	23.6	6.03e-01	0	41	0	976748544	60	4697
2026-01-17 02:12:06.07	226.51	13.50	-44.1	-46.7	23.6	6.03e-01	0	41	0	979369984	60	4684
2026-01-17 02:12:06.87	226.45	13.42	-44.2	-46.7	23.6	6.04e-01	0	41	0	980942848	60	4699
2026-01-17 02:12:08.01	226.35	13.30	-44.2	-46.7	23.7	6.05e-01	0	41	0	983040000	59	4978
2026-01-17 02:12:09.05	226.27	13.19	-44.3	-46.9	23.6	6.04e-01	0	41	0	984612864	59	5057
2026-01-17 02:12:10.01	226.20	13.09	-44.3	-46.9	23.5	6.06e-01	0	41	0	986710016	59	5056
2026-01-17 02:12:11.01	226.12	12.99	-44.3	-46.9	23.6	6.05e-01	0	41	0	988282880	59	5065
2026-01-17 02:12:12.00	226.04	12.89	-44.3	-46.9	23.5	6.04e-01	0	41	0	990380032	59	5064
2026-01-17 02:12:13.00	225.96	12.79	-44.4	-47.1	23.3	6.02e-01	0	41	0	991952896	59	5167
2026-01-17 02:12:13.99	225.89	12.69	-44.4	-47.1	23.4	6.04e-01	0	41	0	994050048	59	5166
2026-01-17 02:12:14.99	225.81	12.59	-44.5	-47.2	23.3	6.03e-01	0	41	0	996147200	59	5224
2026-01-17 02:12:15.98	225.74	12.50	-44.5	-47.2	23.3	6.02e-01	0	41	0	997720064	59	5248
2026-01-17 02:12:16.98	225.66	12.40	-44.5	-47.2	23.3	6.04e-01	0	41	0	999817216	59	5232
2026-01-17 02:12:17.97	225.59	12.30	-44.5	-47.1	23.3	6.03e-01	0	41	0	1001390080	59	5215
2026-01-17 02:12:18.97	225.52	12.20	-44.5	-47.2	23.2	6.03e-01	0	41	0	1003487232	59	5273
2026-01-17 02:12:19.96	225.44	12.10	-44.6	-47.3	23.1	6.03e-01	0	41	0	1005060096	59	5306
2026-01-17 02:12:20.96	225.37	12.01	-44.6	-47.3	23.1	6.02e-01	0	41	0	1007157248	59	5306
2026-01-17 02:12:21.95	225.30	11.91	-44.6	-47.3	23.1	6.03e-01	0	41	0	1008730112	60	5003
2026-01-17 02:12:23.15	225.21	11.80	-44.3	-46.9	23.3	6.01e-01	0	41	0	1011351552	60	4807
2026-01-17 02:12:24.02	225.15	11.71	-44.4	-47.1	23.3	6.03e-01	0	41	0	1012924416	60	4892
2026-01-17 02:12:25.31	225.06	11.59	-44.3	-47.0	23.4	6.04e-01	0	41	0	1015545856	60	4822
2026-01-17 02:12:26.03	225.01	11.52	-44.2	-46.8	23.5	6.01e-01	0	41	0	1016594432	60	4754
2026-01-17 02:12:27.31	224.92	11.40	-44.2	-46.8	23.4	6.02e-01	0	41	0	1019215872	60	4746
2026-01-17 02:12:28.02	224.87	11.33	-44.4	-47.0	23.3	6.03e-01	0	41	0	1020264448	60	4840
2026-01-17 02:12:29.30	224.78	11.21	-44.4	-47.0	23.2	6.04e-01	0	41	0	1022885888	60	4869
2026-01-17 02:12:30.02	224.74	11.14	-44.4	-47.0	23.3	6.02e-01	0	41	0	1023934464	60	4866
2026-01-17 02:12:31.30	224.65	11.02	-44.4	-47.1	23.2	6.04e-01	0	41	0	1026555904	60	4915
2026-01-17 02:12:32.05	224.60	10.95	-44.5	-47.2	23.1	6.05e-01	0	41	0	1028128768	60	4943
2026-01-17 02:12:33.32	224.51	10.84	-44.4	-47.1	23.2	6.03e-01	0	41	0	1030225920	60	4899
2026-01-17 02:12:34.10	224.46	10.76	-44.6	-47.3	23.0	6.04e-01	0	41	0	1031798784	60	5009
2026-01-17 02:12:35.38	224.38	10.65	-44.6	-47.4	22.9	6.03e-01	0	41	0	1034420224	60	5065
2026-01-17 02:12:36.17	224.33	10.57	-44.5	-47.2	23.0	6.06e-01	0	41	0	1035468800	60	4976
2026-01-17 02:12:37.64	224.23	10.44	-44.4	-47.2	23.1	6.02e-01	0	41	0	1038614528	60	4939
2026-01-17 02:12:38.35	224.19	10.37	-44.5	-47.3	23.0	6.04e-01	0	41	0	1039663104	60	5028
2026-01-17 02:12:39.63	224.11	10.26	-44.5	-47.3	23.0	6.05e-01	0	41	0	1042284544	60	4994
2026-01-17 02:12:40.34	224.06	10.19	-44.5	-47.3	23.0	6.04e-01	0	41	0	1043333120	60	5028
2026-01-17 02:12:41.64	223.98	10.08	-44.5	-47.4	22.9	6.03e-01	0	41	0	1045954560	60	5055
2026-01-17 02:12:42.35	223.93	10.01	-44.6	-47.5	22.8	6.02e-01	0	41	0	1047003136	60	5111
2026-01-17 02:12:43.62	223.86	9.90	-44.6	-47.6	22.7	6.02e-01	0	41	0	1049624576	60	5163
2026-01-17 02:12:44.34	223.81	9.84	-44.6	-47.5	22.7	6.05e-01	0	41	0	1051197440	60	5154
2026-01-17 02:12:45.63	223.73	9.72	-44.7	-47.7	22.6	6.03e-01	0	41	0	1053294592	60	5224
2026-01-17 02:12:46.34	223.69	9.66	-44.9	-47.9	22.3	6.03e-01	0	41	0	1054867456	60	5383
2026-01-17 02:12:47.62	223.61	9.55	-44.7	-47.6	22.6	6.02e-01	0	41	0	1056964608	60	5215
2026-01-17 02:12:48.33	223.57	9.49	-44.7	-47.7	22.5	6.04e-01	0	41	0	1058537472	60	5257
2026-01-17 02:12:49.61	223.49	9.37	-44.8	-47.8	22.4	6.04e-01	0	41	0	1060634624	60	5291
2026-01-17 02:12:50.32	223.45	9.31	-44.9	-47.9	22.3	6.07e-01	0	41	0	1062207488	60	5368
2026-01-17 02:12:51.68	223.37	9.19	-44.9	-47.9	22.2	6.02e-01	0	41	0	1064828928	60	5398
2026-01-17 02:12:52.39	223.33	9.13	-44.8	-47.8	22.3	6.04e-01	0	41	0	1065877504	60	5335
2026-01-17 02:12:53.66	223.26	9.02	-47.5	-52.0	19.3	6.05e-01	0	41	0	1068498944	65	6451
2026-01-17 02:12:54.39	223.22	8.96	-51.5	-71.0	3.8	7.46e-01	0	41	104	1068498944	73	36258
2026-01-17 02:12:55.76	223.14	8.84	-51.7	-71.9	3.8	7.45e-01	0	41	104	1068498944	74	37812
2026-01-17 02:12:56.47	223.10	8.78	-51.9	-72.1	3.8	7.46e-01	0	41	104	1068498944	74	38727
2026-01-17 02:12:57.76	223.02	8.67	-51.9	-72.1	3.8	7.50e-01	0	41	104	1068498944	74	39078
2026-01-17 02:12:58.48	222.98	8.61	-51.9	-72.2	3.8	7.43e-01	0	41	104	1068498944	74	39314
2026-01-17 02:12:59.75	222.91	8.51	-51.7	-72.3	3.8	7.44e-01	0	41	104	1068498944	74	39682
2026-01-17 02:13:00.48	222.87	8.44	-52.0	-72.3	3.8	7.46e-01	0	41	104	1068498944	74	39767
2026-01-17 02:13:01.75	222.80	8.34	-52.1	-72.3	3.8	7.47e-01	0	41	104	1068498944	75	37589
2026-01-17 02:13:02.46	222.76	8.28	-52.1	-72.3	3.8	7.47e-01	0	41	104	1068498944	75	37711
2026-01-17 02:13:03.76	222.69	8.17	-52.3	-72.3	3.8	7.44e-01	0	41	104	1068498944	75	37795
2026-01-17 02:13:04.47	222.66	8.11	-52.2	-72.4	3.8	7.45e-01	0	41	104	1068498944	75	37919
2026-01-17 02:13:05.74	222.59	8.01	-52.4	-72.4	3.8	7.45e-01	0	41	104	1068498944	75	37898
2026-01-17 02:13:06.45	222.55	7.95	-52.0	-72.4	3.8	7.44e-01	0	41	104	1068498944	75	37901
2026-01-17 02:13:07.73	222.48	7.84	-51.6	-72.4	3.8	7.49e-01	0	41	104	1068498944	74	40183
2026-01-17 02:13:08.44	222.45	7.79	-52.1	-72.3	3.8	7.44e-01	0	41	104	1068498944	75	37804
2026-01-17 02:13:09.72	222.38	7.68	-52.2	-72.4	3.8	7.48e-01	0	41	104	1068498944	75	37903
2026-01-17 02:13:10.43	222.34	7.62	-51.9	-72.4	3.8	7.47e-01	0	41	104	1068498944	75	37870
2026-01-17 02:13:11.71	222.28	7.52	-51.9	-72.3	3.8	7.44e-01	0	41	104	1068498944	75	37800
2026-01-17 02:13:12.42	222.24	7.46	-51.8	-72.3	3.8	7.47e-01	0	41	104	1068498944	75	37788
2026-01-17 02:13:13.69	222.17	7.36	-51.8	-72.3	3.8	7.45e-01	0	41	104	1068498944	75	37807
2026-01-17 02:13:14.40	222.14	7.30	-51.4	-72.3	3.7	7.42e-01	0	41	104	1068498944	74	39877
2026-01-17 02:13:15.68	222.07	7.20	-51.4	-72.3	3.8	7.45e-01	0	41	104	1068498944	74	39864
2026-01-17 02:13:16.39	222.04	7.14	-51.4	-72.3	3.8	7.45e-01	0	41	104	1068498944	74	39708
2026-01-17 02:13:17.67	221.98	7.04	-51.4	-72.3	3.8	7.50e-01	0	41	104	1068498944	74	39768
2026-01-17 02:13:18.39	221.94	6.99	-51.4	-72.3	3.8	7.47e-01	0	41	104	1068498944	74	39755
2026-01-17 02:13:19.67	221.88	6.88	-51.4	-72.3	3.8	7.48e-01	0	41	104	1068498944	74	39738
2026-01-17 02:13:20.38	221.84	6.83	-51.4	-72.3	3.8	7.45e-01	0	41	104	1068498944	74	39742
2026-01-17 02:13:21.66	221.78	6.73	-51.4	-72.3	3.8	7.44e-01	0	41	104	1068498944	74	39694
2026-01-17 02:13:22.37	221.75	6.67	-51.4	-72.3	3.8	7.47e-01	0	41	104	1068498944	74	39741
2026-01-17 02:13:23.64	221.69	6.57	-51.4	-72.3	3.8	7.42e-01	0	41	104	1068498944	74	39726
2026-01-17 02:13:24.37	221.65	6.52	-51.4	-72.3	3.8	7.46e-01	0	41	104	1068498944	74	39711
2026-01-17 02:13:25.65	221.59	6.42	-51.4	-72.3	3.8	7.49e-01	0	41	104	1068498944	74	39649
2026-01-17 02:13:26.36	221.56	6.36	-51.4	-72.3	3.8	7.45e-01	0	41	104	1068498944	74	39679
2026-01-17 02:13:27.63	221.50	6.27	-51.3	-72.3	3.8	7.49e-01	0	41	104	1068498944	74	39736
2026-01-17 02:13:28.34	221.47	6.21	-51.4	-72.3	3.8	7.46e-01	0	41	104	1068498944	74	39623
2026-01-17 02:13:29.62	221.41	6.11	-51.4	-72.3	3.8	7.47e-01	0	41	104	1068498944	74	39605
2026-01-17 02:13:30.34	221.37	6.06	-51.3	-72.3	3.8	7.47e-01	0	41	104	1068498944	74	39691
2026-01-17 02:13:31.62	221.32	5.96	-51.3	-72.3	3.8	7.42e-01	0	41	104	1068498944	74	39621
2026-01-17 02:13:32.33	221.28	5.91	-51.3	-72.3	3.8	7.44e-01	0	41	104	1068498944	74	39632
2026-01-17 02:13:33.61	221.23	5.81	-51.4	-72.3	3.8	7.47e-01	0	41	104	1068498944	74	39620
2026-01-17 02:13:34.32	221.19	5.76	-51.3	-72.3	3.8	7.45e-01	0	41	104	1068498944	74	39612
2026-01-17 02:13:35.59	221.14	5.66	-51.3	-72.3	3.8	7.45e-01	0	41	104	1068498944	74	39667
2026-01-17 02:13:36.30	221.11	5.61	-51.3	-72.3	3.8	7.46e-01	0	41	104	1068498944	74	39669
2026-01-17 02:13:37.58	221.05	5.51	-51.3	-72.3	3.8	7.47e-01	0	41	104	1068498944	74	39654
2026-01-17 02:13:38.29	221.02	5.46	-51.3	-72.3	3.8	7.44e-01	0	41	104	1068498944	74	39612
2026-01-17 02:13:39.58	220.96	5.36	-51.3	-72.2	3.8	7.48e-01	0	41	104	1068498944	74	39545
2026-01-17 02:13:40.29	220.93	5.31	-51.3	-72.2	3.8	7.52e-01	0	41	104	1068498944	74	39551
2026-01-17 02:13:41.57	220.88	5.22	-51.4	-72.3	3.8	7.45e-01	0	41	104	1068498944	74	39597
2026-01-17 02:13:42.31	220.85	5.16	-51.3	-72.3	3.8	7.48e-01	0	41	104	1068498944	74	39640
2026-01-17 02:13:43.59	220.79	5.07	-51.3	-72.3	3.8	7.50e-01	0	41	104	1068498944	74	39625
2026-01-17 02:13:44.30	220.76	5.02	-51.3	-72.3	3.8	7.43e-01	0	41	104	1068498944	74	39631
2026-01-17 02:13:45.57	220.71	4.93	-51.3	-72.3	3.8	7.47e-01	0	41	104	1068498944	74	39596

#Closed at: 2026-01-17 02:13:46
#Recorded file [1068 MB]: D:/Data/31040_260117_050244.dat