passes_logs/2026/01/17/T1/T1__20260117_131211_FENGYUN_3E_rec.log

#Pass ID: 20260117_131211_FENGYUN 3E
#Satellite: FENGYUN 3E
#Configuration: FENGYUN 3E
#almurnet v.1.7.20251203
#Start time: 2026-01-17 13:12:12

#Version: 2.0.20230620
#Station: T1
#Location: 37.570604 lon 55.790049 lat
#TLE: 1 49008U 21062A   26016.55599566  .00000255  00000+0  14071-3 0  9994
#TLE: 2 49008  98.7485  21.6664 0002094 134.5344 225.6004 14.19886148235063

#Time	Az	El	Level	Level2	SNR	BER	BlckErr	Temp	State	Recorded	gain1	gain2
2026-01-17 13:12:12.02	128.66	5.03	-50.3	-60.9	3.8	8.47e-01	0	39	0	0	71	11924
2026-01-17 13:12:13.01	128.61	5.10	-50.2	-61.0	3.8	8.48e-01	0	39	104	0	71	11974
2026-01-17 13:12:14.00	128.56	5.17	-50.1	-61.0	3.8	8.46e-01	0	39	104	0	71	11976
2026-01-17 13:12:15.00	128.50	5.24	-50.2	-60.9	3.8	8.48e-01	0	39	104	0	71	11898
2026-01-17 13:12:15.99	128.45	5.30	-50.1	-60.9	3.8	8.48e-01	0	39	104	0	71	11872
2026-01-17 13:12:16.98	128.40	5.37	-50.2	-60.9	3.8	8.47e-01	0	39	104	0	71	11908
2026-01-17 13:12:17.98	128.35	5.44	-50.2	-60.9	3.8	8.48e-01	0	40	104	0	71	11859
2026-01-17 13:12:18.97	128.29	5.51	-50.1	-60.8	3.8	8.47e-01	0	40	104	0	71	11791
2026-01-17 13:12:19.96	128.24	5.57	-50.1	-60.9	3.8	8.46e-01	0	40	104	0	71	11831
2026-01-17 13:12:20.95	128.19	5.64	-50.1	-60.8	3.8	8.48e-01	0	40	104	0	71	11804
2026-01-17 13:12:21.95	128.13	5.71	-50.2	-60.9	3.8	8.47e-01	0	40	104	0	71	11856
2026-01-17 13:12:22.94	128.08	5.78	-50.1	-60.9	3.8	8.47e-01	0	40	104	0	71	11915
2026-01-17 13:12:23.93	128.03	5.85	-50.2	-61.0	3.8	8.47e-01	0	40	104	0	71	11965
2026-01-17 13:12:24.93	127.97	5.92	-50.1	-61.0	3.8	8.46e-01	0	40	104	0	71	12027
2026-01-17 13:12:25.92	127.92	5.99	-50.2	-61.0	3.8	8.47e-01	0	40	104	0	71	12000
2026-01-17 13:12:26.92	127.86	6.06	-50.2	-61.0	3.8	8.47e-01	0	40	104	0	71	12072
2026-01-17 13:12:27.91	127.80	6.13	-50.2	-61.0	3.8	8.46e-01	0	40	104	0	71	12018
2026-01-17 13:12:28.90	127.75	6.20	-50.2	-61.0	3.8	8.48e-01	0	40	104	0	71	12050
2026-01-17 13:12:29.89	127.69	6.27	-50.1	-61.0	3.8	8.46e-01	0	40	104	0	71	11997
2026-01-17 13:12:30.89	127.64	6.34	-50.2	-60.9	3.8	8.47e-01	0	40	104	0	71	11950
2026-01-17 13:12:31.88	127.58	6.41	-50.2	-60.8	3.8	8.47e-01	0	40	104	0	71	11791
2026-01-17 13:12:32.87	127.52	6.48	-50.2	-60.8	3.8	8.47e-01	0	40	104	0	71	11767
2026-01-17 13:12:33.87	127.47	6.55	-50.2	-60.7	3.8	8.46e-01	0	40	104	0	71	11594
2026-01-17 13:12:34.86	127.41	6.62	-50.1	-60.7	3.8	8.47e-01	0	40	104	0	70	12331
2026-01-17 13:12:35.85	127.35	6.69	-50.2	-60.7	3.8	8.47e-01	0	40	104	0	70	12249
2026-01-17 13:12:36.84	127.29	6.76	-50.2	-60.7	3.8	8.48e-01	0	40	104	0	70	12349
2026-01-17 13:12:37.84	127.24	6.83	-50.1	-60.8	3.8	8.45e-01	0	41	104	0	70	12399
2026-01-17 13:12:38.83	127.18	6.90	-50.1	-60.9	3.8	8.46e-01	0	40	104	0	70	12580
2026-01-17 13:12:39.82	127.12	6.97	-50.2	-61.0	3.8	8.46e-01	0	40	104	0	70	12709
2026-01-17 13:12:40.82	127.06	7.04	-50.1	-61.0	3.8	8.47e-01	0	40	104	0	70	12685
2026-01-17 13:12:41.81	127.00	7.12	-50.2	-60.8	3.8	8.47e-01	0	41	104	0	70	12435
2026-01-17 13:12:42.80	126.94	7.19	-50.0	-60.4	3.8	8.47e-01	0	40	104	0	70	11851
2026-01-17 13:12:43.80	126.88	7.26	-50.1	-59.8	3.8	8.47e-01	0	41	104	0	70	11039
2026-01-17 13:12:44.79	126.82	7.33	-50.0	-59.2	3.8	8.47e-01	0	41	104	0	70	10406
2026-01-17 13:12:45.78	126.76	7.40	-49.8	-58.8	3.8	8.46e-01	0	41	104	0	70	9927
2026-01-17 13:12:46.78	126.70	7.48	-49.8	-58.2	4.0	8.45e-01	0	41	104	0	70	9278
2026-01-17 13:12:47.77	126.64	7.55	-49.6	-57.6	4.2	8.40e-01	0	41	0	0	70	8656
2026-01-17 13:12:48.76	126.57	7.62	-49.4	-56.3	4.6	8.24e-01	0	41	0	0	69	7851
2026-01-17 13:12:49.76	126.51	7.70	-48.8	-54.5	5.7	7.48e-01	0	41	0	0	68	6762
2026-01-17 13:12:50.75	126.45	7.77	-47.9	-52.2	7.4	1.57e-01	0	41	0	6291456	66	5833
2026-01-17 13:12:51.74	126.39	7.84	-46.7	-50.1	9.6	2.68e-02	0	41	0	13631488	64	5132
2026-01-17 13:12:52.74	126.32	7.92	-45.5	-48.3	11.5	1.36e-03	0	41	0	20971520	61	4945
2026-01-17 13:12:53.73	126.26	7.99	-44.2	-46.4	13.3	9.61e-05	0	41	0	28311552	59	4462
2026-01-17 13:12:54.72	126.20	8.07	-43.0	-44.9	14.8	3.40e-06	0	41	0	35651584	56	4485
2026-01-17 13:12:55.72	126.13	8.14	-41.9	-43.7	15.9	0.00e+00	0	41	0	41943040	54	4362
2026-01-17 13:12:56.71	126.07	8.21	-41.1	-42.7	16.7	0.00e+00	0	41	0	49283072	52	4380
2026-01-17 13:12:57.70	126.00	8.29	-40.4	-42.0	17.3	0.00e+00	0	41	0	56623104	51	4286
2026-01-17 13:12:58.70	125.94	8.36	-40.2	-41.8	17.6	0.00e+00	0	41	0	63963136	51	4169
2026-01-17 13:12:59.69	125.87	8.44	-39.8	-41.4	17.8	0.00e+00	0	41	0	71303168	50	4208
2026-01-17 13:13:00.68	125.81	8.51	-40.0	-41.6	17.8	0.00e+00	0	41	0	78643200	50	4308
2026-01-17 13:13:01.68	125.74	8.59	-40.1	-41.7	17.7	0.00e+00	0	41	0	85983232	50	4380
2026-01-17 13:13:02.67	125.68	8.67	-40.7	-42.4	17.0	0.00e+00	0	41	0	92274688	50	4711
2026-01-17 13:13:03.67	125.61	8.74	-41.3	-43.0	16.5	0.00e+00	0	41	0	99614720	52	4514
2026-01-17 13:13:04.66	125.54	8.82	-42.1	-43.9	15.6	0.00e+00	0	41	0	106954752	53	4732
2026-01-17 13:13:05.65	125.47	8.89	-43.2	-45.1	14.4	0.00e+00	0	41	0	114294784	55	4870
2026-01-17 13:13:06.65	125.41	8.97	-44.7	-47.1	12.7	5.72e-05	0	41	0	121634816	58	5112
2026-01-17 13:13:07.64	125.34	9.05	-46.2	-49.2	10.6	1.45e-03	0	41	0	128974848	61	5507
2026-01-17 13:13:08.63	125.27	9.12	-43.2	-45.2	14.5	1.45e-04	0	41	0	135266304	57	4345
2026-01-17 13:13:09.63	125.20	9.20	-43.9	-46.1	13.7	0.00e+00	0	41	0	142606336	57	4839
2026-01-17 13:13:10.62	125.13	9.28	-46.5	-49.6	10.2	4.38e-03	0	41	0	149946368	62	5452
2026-01-17 13:13:11.62	125.06	9.36	-42.7	-44.6	15.1	9.61e-04	0	41	0	156237824	56	4309
2026-01-17 13:13:12.61	124.99	9.43	-47.0	-50.5	9.4	2.40e-05	0	41	0	163577856	63	5701
2026-01-17 13:13:13.61	124.92	9.51	-45.0	-47.6	12.2	7.03e-01	0	41	0	166723584	61	4553
2026-01-17 13:13:14.60	124.85	9.59	-41.8	-43.6	16.0	1.25e-05	0	41	0	174063616	54	4321
2026-01-17 13:13:15.59	124.78	9.67	-41.7	-43.4	16.1	0.00e+00	0	41	0	181403648	53	4484
2026-01-17 13:13:16.59	124.71	9.75	-40.9	-42.6	17.0	0.00e+00	0	41	0	188743680	52	4303
2026-01-17 13:13:17.58	124.63	9.82	-40.6	-42.2	17.4	0.00e+00	0	41	0	196083712	51	4369
2026-01-17 13:13:18.58	124.56	9.90	-40.1	-41.7	17.8	0.00e+00	0	41	0	202375168	51	4121
2026-01-17 13:13:19.57	124.49	9.98	-40.3	-41.9	17.6	0.00e+00	0	41	0	209715200	51	4227
2026-01-17 13:13:20.57	124.42	10.06	-40.5	-42.1	17.5	1.10e-06	0	41	0	217055232	51	4319
2026-01-17 13:13:21.56	124.34	10.14	-40.4	-42.0	17.6	0.00e+00	0	41	0	224395264	51	4261
2026-01-17 13:13:22.56	124.27	10.22	-40.2	-41.7	17.9	0.00e+00	0	41	0	231735296	51	4125
2026-01-17 13:13:23.55	124.19	10.30	-40.0	-41.5	18.1	4.50e-06	0	41	0	239075328	50	4258
2026-01-17 13:13:24.54	124.12	10.38	-39.9	-41.4	18.2	0.00e+00	0	41	0	245366784	50	4211
2026-01-17 13:13:25.54	124.04	10.46	-39.6	-41.1	18.4	0.00e+00	0	41	0	252706816	50	4076
2026-01-17 13:13:26.53	123.97	10.54	-39.5	-41.0	18.5	0.00e+00	0	41	0	260046848	49	4278
2026-01-17 13:13:27.53	123.89	10.62	-39.3	-40.8	18.6	0.00e+00	0	41	0	267386880	49	4193
2026-01-17 13:13:28.54	123.81	10.71	-39.2	-40.7	18.7	0.00e+00	0	41	0	274726912	49	4141
2026-01-17 13:13:29.55	123.73	10.79	-39.0	-40.5	19.0	0.00e+00	0	41	0	282066944	48	4264
2026-01-17 13:13:30.54	123.66	10.87	-39.1	-40.6	18.8	0.00e+00	0	42	0	289406976	48	4334
2026-01-17 13:13:31.54	123.58	10.95	-39.0	-40.4	19.1	0.00e+00	0	41	0	296747008	48	4240
2026-01-17 13:13:32.53	123.50	11.03	-39.0	-40.5	19.0	0.00e+00	0	41	0	303038464	48	4249
2026-01-17 13:13:33.53	123.42	11.11	-39.0	-40.5	19.0	0.00e+00	0	41	0	310378496	48	4243
2026-01-17 13:13:34.52	123.34	11.20	-38.8	-40.3	19.1	0.00e+00	0	41	0	317718528	48	4166
2026-01-17 13:13:35.52	123.26	11.28	-38.7	-40.1	19.3	0.00e+00	0	41	0	325058560	48	4078
2026-01-17 13:13:36.51	123.18	11.36	-38.6	-40.1	19.0	0.00e+00	0	42	0	332398592	47	4305
2026-01-17 13:13:37.51	123.10	11.45	-38.6	-40.0	19.1	0.00e+00	0	42	0	339738624	47	4287
2026-01-17 13:13:38.50	123.02	11.53	-38.5	-39.9	19.1	0.00e+00	0	42	0	346030080	47	4242
2026-01-17 13:13:39.50	122.94	11.61	-38.4	-39.9	19.2	0.00e+00	0	42	0	353370112	47	4234
2026-01-17 13:13:40.49	122.85	11.70	-38.5	-39.9	19.2	0.00e+00	0	42	0	360710144	47	4235
2026-01-17 13:13:41.49	122.77	11.78	-38.5	-40.0	19.1	0.00e+00	0	42	0	368050176	47	4281
2026-01-17 13:13:42.48	122.69	11.86	-38.4	-39.9	19.2	0.00e+00	0	42	0	375390208	47	4227
2026-01-17 13:13:43.48	122.60	11.95	-38.4	-39.9	19.2	0.00e+00	0	41	0	382730240	47	4216
2026-01-17 13:13:44.47	122.52	12.03	-38.5	-40.0	19.1	0.00e+00	0	42	0	390070272	47	4280
2026-01-17 13:13:45.47	122.43	12.12	-38.4	-39.9	19.2	0.00e+00	0	42	0	396361728	47	4237
2026-01-17 13:13:46.46	122.35	12.20	-38.3	-39.7	19.4	0.00e+00	0	42	0	403701760	47	4137
2026-01-17 13:13:47.52	122.26	12.29	-38.5	-40.0	19.2	0.00e+00	0	42	0	411041792	46	4502
2026-01-17 13:13:48.39	122.18	12.37	-38.4	-39.9	19.2	0.00e+00	0	42	0	418381824	46	4486
2026-01-17 13:13:49.53	122.08	12.47	-38.4	-39.9	19.3	0.00e+00	0	42	0	426770432	46	4476
2026-01-17 13:13:50.38	122.01	12.54	-38.4	-39.9	19.2	0.00e+00	0	42	0	432013312	46	4465
2026-01-17 13:13:51.51	121.91	12.64	-38.4	-39.9	19.3	0.00e+00	0	42	0	440401920	46	4460
2026-01-17 13:13:52.37	121.83	12.71	-38.4	-39.9	19.3	0.00e+00	0	42	0	446693376	46	4455
2026-01-17 13:13:53.50	121.73	12.81	-38.4	-39.9	19.3	0.00e+00	0	42	0	455081984	46	4483
2026-01-17 13:13:54.36	121.65	12.89	-38.3	-39.8	19.4	0.00e+00	0	42	0	461373440	46	4429
2026-01-17 13:13:55.49	121.55	12.99	-38.3	-39.7	19.4	0.00e+00	0	42	0	468713472	46	4376
2026-01-17 13:13:56.35	121.47	13.06	-38.2	-39.7	19.4	0.00e+00	0	42	0	475004928	46	4373
2026-01-17 13:13:57.48	121.37	13.16	-38.0	-39.5	19.6	0.00e+00	0	42	0	483393536	46	4258
2026-01-17 13:13:58.33	121.29	13.24	-38.1	-39.5	19.6	0.00e+00	0	42	0	489684992	46	4276
2026-01-17 13:13:59.50	121.18	13.34	-37.9	-39.4	19.7	0.00e+00	0	42	0	498073600	46	4215
2026-01-17 13:14:00.36	121.10	13.42	-38.0	-39.4	19.7	0.00e+00	0	42	0	504365056	46	4232
2026-01-17 13:14:01.49	121.00	13.52	-37.9	-39.4	19.7	0.00e+00	0	42	0	512753664	46	4214
2026-01-17 13:14:02.35	120.92	13.59	-37.8	-39.3	19.8	0.00e+00	0	42	0	519045120	46	4147
2026-01-17 13:14:03.48	120.81	13.70	-38.0	-39.4	19.7	0.00e+00	0	42	0	527433728	46	4199
2026-01-17 13:14:04.34	120.73	13.77	-38.0	-39.4	19.5	0.00e+00	0	42	0	532676608	46	4229
2026-01-17 13:14:05.47	120.62	13.88	-38.0	-39.4	19.7	0.00e+00	0	42	0	541065216	46	4238
2026-01-17 13:14:06.33	120.53	13.95	-37.9	-39.3	19.8	0.00e+00	0	42	0	547356672	46	4178
2026-01-17 13:14:07.46	120.42	14.06	-38.2	-39.7	19.5	0.00e+00	0	42	0	555745280	46	4361
2026-01-17 13:14:08.31	120.34	14.13	-38.0	-39.4	19.8	0.00e+00	0	42	0	562036736	46	4202
2026-01-17 13:14:09.45	120.23	14.24	-37.9	-39.3	19.8	0.00e+00	0	41	0	570425344	46	4168
2026-01-17 13:14:10.31	120.14	14.32	-37.9	-39.3	19.8	0.00e+00	0	42	0	575668224	46	4188
2026-01-17 13:14:11.44	120.03	14.42	-37.9	-39.4	19.7	0.00e+00	0	42	0	584056832	46	4204
2026-01-17 13:14:12.30	119.94	14.50	-37.9	-39.3	19.8	0.00e+00	0	42	0	590348288	46	4174
2026-01-17 13:14:13.43	119.83	14.60	-37.9	-39.3	19.8	0.00e+00	0	42	0	598736896	46	4188
2026-01-17 13:14:14.29	119.74	14.68	-37.9	-39.3	19.8	0.00e+00	0	42	0	605028352	46	4177
2026-01-17 13:14:15.42	119.63	14.79	-37.9	-39.4	19.7	0.00e+00	0	42	0	612368384	46	4207
2026-01-17 13:14:16.27	119.54	14.87	-38.0	-39.5	19.7	0.00e+00	0	42	0	619708416	46	4244
2026-01-17 13:14:17.41	119.42	14.97	-37.8	-39.3	19.9	0.00e+00	0	42	0	627048448	46	4160
2026-01-17 13:14:18.26	119.33	15.05	-38.0	-39.4	19.7	0.00e+00	0	42	0	633339904	46	4240
2026-01-17 13:14:19.50	119.20	15.17	-37.8	-39.3	19.8	0.00e+00	0	42	0	642777088	46	4147
2026-01-17 13:14:20.35	119.11	15.25	-37.8	-39.2	19.9	0.00e+00	0	42	0	649068544	46	4123
2026-01-17 13:14:21.57	118.98	15.36	-37.7	-39.1	20.0	0.00e+00	0	42	0	657457152	46	4091
2026-01-17 13:14:22.42	118.89	15.44	-37.7	-39.1	20.0	0.00e+00	0	42	0	663748608	46	4069
2026-01-17 13:14:23.56	118.77	15.55	-37.5	-38.9	20.1	0.00e+00	0	42	0	672137216	45	4212
2026-01-17 13:14:24.41	118.67	15.63	-37.5	-39.0	20.1	0.00e+00	0	42	0	677380096	45	4258
2026-01-17 13:14:25.55	118.55	15.74	-37.5	-38.9	20.1	0.00e+00	0	42	0	685768704	45	4224
2026-01-17 13:14:26.40	118.46	15.82	-37.5	-38.9	20.1	0.00e+00	0	42	0	692060160	45	4237
2026-01-17 13:14:27.54	118.33	15.93	-37.5	-39.0	20.1	0.00e+00	0	42	0	700448768	45	4246
2026-01-17 13:14:28.39	118.23	16.01	-37.5	-39.0	20.1	0.00e+00	0	42	0	706740224	45	4254
2026-01-17 13:14:29.53	118.11	16.12	-37.4	-38.8	20.2	0.00e+00	0	42	0	715128832	45	4182
2026-01-17 13:14:30.38	118.01	16.21	-37.5	-38.9	20.1	0.00e+00	0	42	0	721420288	45	4236
2026-01-17 13:14:31.51	117.88	16.32	-37.5	-38.9	20.1	0.00e+00	0	42	0	728760320	45	4217
2026-01-17 13:14:32.37	117.78	16.40	-37.3	-38.8	20.2	0.00e+00	0	42	0	735051776	45	4152
2026-01-17 13:14:33.51	117.65	16.51	-37.2	-38.6	20.3	0.00e+00	0	42	0	743440384	45	4088
2026-01-17 13:14:34.36	117.55	16.59	-37.3	-38.7	20.3	0.00e+00	0	42	0	749731840	45	4112
2026-01-17 13:14:35.50	117.42	16.71	-37.2	-38.6	20.4	0.00e+00	0	42	0	758120448	45	4079
2026-01-17 13:14:36.35	117.32	16.79	-37.1	-38.5	20.4	0.00e+00	0	42	0	764411904	45	4048
2026-01-17 13:14:37.49	117.19	16.90	-37.2	-38.6	20.4	0.00e+00	0	42	0	772800512	44	4303
2026-01-17 13:14:38.34	117.09	16.99	-37.1	-38.5	20.5	0.00e+00	0	42	0	778043392	44	4279
2026-01-17 13:14:39.59	116.94	17.11	-37.1	-38.5	20.4	0.00e+00	0	42	0	787480576	44	4251
2026-01-17 13:14:40.44	116.83	17.19	-37.1	-38.5	20.5	0.00e+00	0	42	0	793772032	44	4257
2026-01-17 13:14:41.57	116.70	17.31	-37.0	-38.5	20.5	0.00e+00	0	42	0	802160640	44	4251
2026-01-17 13:14:42.43	116.59	17.39	-37.1	-38.5	20.5	0.00e+00	0	42	0	808452096	44	4275
2026-01-17 13:14:43.69	116.43	17.52	-37.2	-38.6	20.4	0.00e+00	0	42	0	816840704	44	4325
2026-01-17 13:14:44.47	116.34	17.60	-37.0	-38.4	20.6	0.00e+00	0	42	0	822083584	44	4213
2026-01-17 13:14:45.75	116.18	17.73	-37.1	-38.5	20.5	0.00e+00	0	42	0	831520768	44	4255
2026-01-17 13:14:46.46	116.09	17.80	-37.0	-38.4	20.6	0.00e+00	0	42	0	836763648	44	4220
2026-01-17 13:14:47.74	115.93	17.93	-37.1	-38.5	20.5	0.00e+00	0	42	0	846200832	44	4251
2026-01-17 13:14:48.45	115.84	18.00	-37.1	-38.5	20.6	0.00e+00	0	42	0	851443712	44	4252
2026-01-17 13:14:49.73	115.67	18.13	-37.1	-38.6	20.5	0.00e+00	0	42	0	860880896	44	4295
2026-01-17 13:14:50.53	115.57	18.21	-37.0	-38.4	20.6	0.00e+00	0	42	0	866123776	44	4221
2026-01-17 13:14:51.67	115.42	18.33	-37.1	-38.5	20.6	0.00e+00	0	42	0	874512384	44	4247
2026-01-17 13:14:52.73	115.28	18.44	-36.9	-38.2	20.7	0.00e+00	0	42	0	882900992	44	4134
2026-01-17 13:14:53.60	115.17	18.53	-36.8	-38.2	20.8	0.00e+00	0	42	0	888143872	44	4117
2026-01-17 13:14:55.07	114.97	18.68	-36.7	-38.1	20.8	0.00e+00	0	42	0	898629632	44	4058
2026-01-17 13:14:55.78	114.87	18.75	-36.7	-38.0	20.9	0.00e+00	0	42	0	904921088	44	4043
2026-01-17 13:14:57.06	114.70	18.89	-36.4	-37.7	21.0	0.00e+00	0	42	0	913309696	43	4138
2026-01-17 13:14:57.78	114.60	18.96	-36.4	-37.7	21.1	0.00e+00	0	42	0	918552576	43	4135
2026-01-17 13:14:59.06	114.43	19.10	-36.3	-37.6	21.2	0.00e+00	0	42	0	927989760	43	4069
2026-01-17 13:14:59.79	114.33	19.17	-36.5	-37.8	21.0	0.00e+00	0	42	0	933232640	43	4168
2026-01-17 13:15:01.07	114.15	19.31	-36.2	-37.5	21.2	0.00e+00	0	42	0	942669824	43	4033
2026-01-17 13:15:01.89	114.04	19.39	-36.2	-37.4	21.3	0.00e+00	0	42	0	948961280	43	3995
2026-01-17 13:15:03.03	113.87	19.51	-36.1	-37.4	21.4	0.00e+00	0	42	0	957349888	43	3969
2026-01-17 13:15:03.88	113.75	19.60	-36.1	-37.4	21.3	0.00e+00	0	42	0	962592768	42	4204
2026-01-17 13:15:05.02	113.59	19.72	-36.1	-37.4	21.4	0.00e+00	0	42	0	970981376	42	4199
2026-01-17 13:15:05.87	113.47	19.81	-36.1	-37.4	21.3	0.00e+00	0	42	0	977272832	42	4232
2026-01-17 13:15:07.01	113.30	19.94	-36.1	-37.4	21.3	0.00e+00	0	42	0	985661440	42	4229
2026-01-17 13:15:07.86	113.18	20.03	-36.1	-37.4	21.3	0.00e+00	0	42	0	991952896	42	4220
2026-01-17 13:15:09.00	113.01	20.15	-36.2	-37.5	21.2	0.00e+00	0	42	0	999292928	42	4265
2026-01-17 13:15:09.85	112.89	20.24	-36.3	-37.7	21.1	0.00e+00	0	42	0	1005584384	42	4362
2026-01-17 13:15:11.01	112.71	20.37	-36.5	-37.9	20.9	0.00e+00	0	42	0	1013972992	42	4445
2026-01-17 13:15:11.86	112.59	20.46	-36.9	-37.8	21.6	0.00e+00	0	42	0	1020264448	43	4176
2026-01-17 13:15:13.00	112.41	20.58	-37.1	-38.0	21.5	0.00e+00	0	42	0	1028653056	43	4251
2026-01-17 13:15:13.85	112.28	20.67	-37.0	-37.9	21.6	0.00e+00	0	42	0	1034944512	43	4199
2026-01-17 13:15:14.99	112.11	20.80	-36.9	-37.8	21.6	0.00e+00	0	42	0	1043333120	43	4186
2026-01-17 13:15:15.84	111.98	20.89	-36.9	-37.8	21.6	0.00e+00	0	42	0	1049624576	43	4187
2026-01-17 13:15:16.98	111.80	21.01	-36.9	-37.8	21.6	0.00e+00	0	42	0	1058013184	43	4160
2026-01-17 13:15:17.83	111.67	21.11	-36.9	-37.8	21.7	0.00e+00	0	42	0	1063256064	43	4162
2026-01-17 13:15:18.97	111.49	21.23	-36.8	-37.7	21.7	0.00e+00	0	42	0	1071644672	43	4123
2026-01-17 13:15:19.82	111.35	21.33	-36.8	-37.7	21.7	0.00e+00	0	42	0	1077936128	43	4138
2026-01-17 13:15:20.96	111.17	21.45	-36.9	-37.8	21.7	0.00e+00	0	42	0	1086324736	43	4152
2026-01-17 13:15:21.82	111.03	21.55	-36.8	-37.7	21.7	0.00e+00	0	42	0	1092616192	43	4117
2026-01-17 13:15:22.95	110.85	21.67	-36.7	-37.5	21.9	0.00e+00	0	42	0	1101004800	43	4045
2026-01-17 13:15:23.81	110.71	21.77	-36.6	-37.5	21.9	0.00e+00	0	42	0	1106247680	43	4014
2026-01-17 13:15:24.94	110.52	21.89	-36.7	-37.5	21.9	0.00e+00	0	42	0	1114636288	43	4039
2026-01-17 13:15:25.79	110.38	21.99	-36.4	-37.3	22.1	0.00e+00	0	42	0	1120927744	43	3932
2026-01-17 13:15:27.00	110.18	22.12	-36.6	-37.5	21.9	0.00e+00	0	42	0	1129316352	43	4037
2026-01-17 13:15:27.85	110.04	22.22	-36.6	-37.5	21.9	0.00e+00	0	42	0	1135607808	43	4025
2026-01-17 13:15:29.05	109.83	22.35	-36.7	-37.6	21.8	0.00e+00	0	42	0	1145044992	43	4067
2026-01-17 13:15:29.90	109.69	22.45	-36.7	-37.6	21.9	0.00e+00	0	42	0	1150287872	43	4053
2026-01-17 13:15:31.10	109.48	22.58	-36.5	-37.4	22.0	0.00e+00	0	42	0	1159725056	43	3968
2026-01-17 13:15:31.95	109.33	22.68	-36.6	-37.4	22.0	0.00e+00	0	42	0	1164967936	43	3999
2026-01-17 13:15:33.09	109.13	22.81	-36.5	-37.3	22.1	0.00e+00	0	42	0	1173356544	43	3940
2026-01-17 13:15:33.94	108.98	22.90	-36.4	-37.3	22.1	0.00e+00	0	42	0	1179648000	43	3919
2026-01-17 13:15:35.07	108.78	23.03	-36.4	-37.3	22.1	0.00e+00	0	42	0	1188036608	43	3918
2026-01-17 13:15:35.99	108.62	23.13	-36.5	-37.4	22.0	0.00e+00	0	42	0	1194328064	43	3962
2026-01-17 13:15:36.98	108.44	23.25	-36.5	-37.4	22.0	0.00e+00	0	42	0	1201668096	43	3985
2026-01-17 13:15:37.98	108.26	23.36	-36.5	-37.3	22.1	0.00e+00	0	42	0	1209008128	43	3957
2026-01-17 13:15:38.97	108.08	23.47	-36.5	-37.3	22.1	0.00e+00	0	42	0	1216348160	43	3950
2026-01-17 13:15:39.97	107.89	23.59	-36.5	-37.3	22.1	0.00e+00	0	42	0	1223688192	43	3953
2026-01-17 13:15:40.97	107.71	23.70	-36.4	-37.3	22.1	0.00e+00	0	42	0	1229979648	43	3945
2026-01-17 13:15:41.96	107.52	23.82	-36.4	-37.3	22.1	0.00e+00	0	42	0	1237319680	43	3936
2026-01-17 13:15:42.95	107.34	23.93	-36.4	-37.3	22.1	0.00e+00	0	42	0	1244659712	43	3925
2026-01-17 13:15:43.95	107.15	24.04	-36.3	-37.2	22.2	0.00e+00	0	42	0	1251999744	43	3881
2026-01-17 13:15:44.95	106.96	24.16	-36.2	-37.1	22.3	0.00e+00	0	42	0	1259339776	43	3851
2026-01-17 13:15:45.94	106.77	24.27	-36.2	-37.1	22.3	0.00e+00	0	42	0	1266679808	43	3844
2026-01-17 13:15:46.94	106.57	24.39	-35.9	-36.8	22.6	0.00e+00	0	42	0	1274019840	42	3933
2026-01-17 13:15:47.93	106.38	24.50	-36.0	-36.9	22.5	0.00e+00	0	42	0	1281359872	42	3959
2026-01-17 13:15:48.99	106.17	24.63	-36.0	-36.8	22.5	0.00e+00	0	42	0	1288699904	42	3943
2026-01-17 13:15:49.86	106.00	24.73	-36.0	-36.8	22.5	0.00e+00	0	42	0	1294991360	42	3949
2026-01-17 13:15:51.00	105.77	24.86	-35.8	-36.7	22.7	0.00e+00	0	42	0	1303379968	42	3881
2026-01-17 13:15:51.85	105.60	24.96	-35.8	-36.7	22.6	0.00e+00	0	42	0	1308622848	42	3880
2026-01-17 13:15:52.99	105.37	25.09	-35.8	-36.6	22.7	0.00e+00	0	42	0	1317011456	42	3864
2026-01-17 13:15:53.84	105.20	25.19	-35.8	-36.6	22.7	0.00e+00	0	42	0	1323302912	42	3849
2026-01-17 13:15:54.98	104.96	25.32	-35.8	-36.6	22.7	0.00e+00	0	42	0	1331691520	42	3841
2026-01-17 13:15:55.83	104.79	25.42	-35.7	-36.6	22.8	0.00e+00	0	42	0	1337982976	42	3828
2026-01-17 13:15:56.97	104.55	25.55	-35.7	-36.6	22.8	0.00e+00	0	42	0	1346371584	42	3827
2026-01-17 13:15:57.82	104.37	25.65	-35.7	-36.5	22.8	0.00e+00	0	42	0	1351614464	42	3809
2026-01-17 13:15:58.95	104.13	25.79	-35.8	-36.6	22.7	0.00e+00	0	42	0	1360003072	42	3868
2026-01-17 13:15:59.81	103.95	25.89	-35.7	-36.5	22.8	0.00e+00	0	42	0	1366294528	42	3805
2026-01-17 13:16:00.94	103.71	26.02	-35.8	-36.6	22.7	0.00e+00	0	42	0	1374683136	42	3850
2026-01-17 13:16:01.79	103.52	26.12	-35.7	-36.5	22.7	0.00e+00	0	42	0	1380974592	42	3820
2026-01-17 13:16:02.93	103.27	26.25	-35.8	-36.6	22.7	0.00e+00	0	42	0	1389363200	42	3840
2026-01-17 13:16:03.78	103.09	26.35	-35.9	-36.7	22.6	0.00e+00	0	42	0	1395654656	42	3887
2026-01-17 13:16:05.07	102.80	26.50	-35.8	-36.7	22.7	0.00e+00	0	42	0	1405091840	42	3876
2026-01-17 13:16:05.78	102.64	26.59	-36.0	-36.8	22.6	0.00e+00	0	42	0	1410334720	42	3930
2026-01-17 13:16:07.06	102.36	26.74	-36.0	-36.8	22.5	0.00e+00	0	42	0	1418723328	42	3945
2026-01-17 13:16:07.77	102.20	26.82	-36.1	-37.0	22.4	0.00e+00	0	42	0	1423966208	42	4007
2026-01-17 13:16:09.05	101.90	26.97	-36.1	-37.0	22.4	0.00e+00	0	42	0	1433403392	42	4009
2026-01-17 13:16:09.78	101.74	27.05	-36.2	-37.0	22.3	0.00e+00	0	42	0	1438646272	42	4048
2026-01-17 13:16:11.06	101.44	27.20	-36.2	-37.1	22.3	0.00e+00	0	42	0	1448083456	42	4059
2026-01-17 13:16:11.78	101.27	27.29	-36.3	-37.2	22.3	0.00e+00	0	42	0	1453326336	42	4101
2026-01-17 13:16:13.06	100.97	27.44	-36.3	-37.2	22.2	0.00e+00	0	42	0	1461714944	42	4106
2026-01-17 13:16:13.79	100.80	27.52	-36.3	-37.1	22.3	0.00e+00	0	42	0	1468006400	42	4077
2026-01-17 13:16:15.06	100.50	27.67	-36.4	-37.2	22.2	0.00e+00	0	42	0	1476395008	42	4134
2026-01-17 13:16:16.04	100.26	27.79	-36.3	-37.1	22.3	0.00e+00	0	42	0	1483735040	42	4077
2026-01-17 13:16:17.04	100.02	27.91	-36.2	-37.0	22.3	0.00e+00	0	42	0	1491075072	42	4045
2026-01-17 13:16:18.03	99.78	28.02	-36.2	-37.1	22.3	0.00e+00	0	42	0	1498415104	42	4060
2026-01-17 13:16:19.02	99.53	28.14	-36.2	-37.0	22.4	0.00e+00	0	42	0	1505755136	42	4030
2026-01-17 13:16:20.02	99.29	28.25	-36.2	-37.0	22.4	0.00e+00	0	42	0	1512046592	42	4032
2026-01-17 13:16:21.01	99.04	28.37	-36.2	-37.0	22.4	0.00e+00	0	42	0	1519386624	42	4036
2026-01-17 13:16:22.01	98.79	28.49	-36.1	-37.0	22.4	0.00e+00	0	42	0	1526726656	42	4010
2026-01-17 13:16:23.01	98.54	28.60	-36.0	-36.9	22.5	0.00e+00	0	42	0	1534066688	42	3974
2026-01-17 13:16:24.00	98.28	28.72	-36.2	-37.0	22.4	0.00e+00	0	42	0	1541406720	42	4037
2026-01-17 13:16:25.00	98.03	28.83	-36.1	-37.0	22.4	0.00e+00	0	42	0	1548746752	42	4016
2026-01-17 13:16:25.99	97.77	28.95	-36.2	-37.0	22.4	0.00e+00	0	42	0	1556086784	42	4025
2026-01-17 13:16:26.99	97.51	29.06	-36.1	-37.0	22.5	0.00e+00	0	42	0	1562378240	42	4017
2026-01-17 13:16:27.98	97.25	29.18	-36.2	-37.1	22.4	0.00e+00	0	42	0	1569718272	42	4057
2026-01-17 13:16:28.98	96.99	29.29	-36.1	-37.0	22.4	0.00e+00	0	42	0	1577058304	42	4013
2026-01-17 13:16:29.97	96.72	29.41	-36.1	-36.9	22.5	0.00e+00	0	42	0	1584398336	42	3999
2026-01-17 13:16:30.96	96.46	29.52	-35.9	-36.8	22.6	0.00e+00	0	42	0	1591738368	42	3914
2026-01-17 13:16:31.96	96.19	29.64	-35.8	-36.6	22.7	0.00e+00	0	42	0	1599078400	42	3863
2026-01-17 13:16:32.95	95.92	29.75	-35.6	-36.4	22.9	0.00e+00	0	42	0	1605369856	42	3780
2026-01-17 13:16:33.95	95.65	29.86	-35.7	-36.5	22.8	0.00e+00	0	42	0	1612709888	42	3797
2026-01-17 13:16:34.94	95.37	29.98	-35.7	-36.5	22.8	0.00e+00	0	42	0	1620049920	42	3818
2026-01-17 13:16:35.94	95.09	30.09	-35.7	-36.5	22.8	0.00e+00	0	42	0	1627389952	42	3813
2026-01-17 13:16:36.93	94.82	30.20	-35.6	-36.5	22.9	0.00e+00	0	42	0	1634729984	42	3781
2026-01-17 13:16:37.93	94.54	30.31	-35.5	-36.4	22.9	0.00e+00	0	42	0	1642070016	41	3966
2026-01-17 13:16:38.92	94.26	30.43	-35.4	-36.3	23.0	0.00e+00	0	42	0	1648361472	41	3924
2026-01-17 13:16:39.91	93.97	30.54	-35.4	-36.2	23.1	0.00e+00	0	42	0	1655701504	41	3894
2026-01-17 13:16:40.91	93.69	30.65	-35.3	-36.2	23.1	0.00e+00	0	42	0	1663041536	41	3880
2026-01-17 13:16:41.90	93.40	30.76	-35.2	-36.0	23.3	0.00e+00	0	42	0	1670381568	41	3798
2026-01-17 13:16:42.97	93.09	30.88	-35.2	-36.0	23.2	0.00e+00	0	42	0	1678770176	41	3804
2026-01-17 13:16:43.83	92.84	30.97	-35.3	-36.1	23.1	0.00e+00	0	42	0	1684013056	41	3861
2026-01-17 13:16:44.96	92.50	31.10	-35.3	-36.2	23.1	0.00e+00	0	42	0	1692401664	41	3872
2026-01-17 13:16:45.82	92.25	31.19	-35.5	-36.3	23.0	0.00e+00	0	42	0	1698693120	41	3942
2026-01-17 13:16:46.96	91.90	31.32	-35.6	-36.4	22.9	0.00e+00	0	42	0	1707081728	41	3995
2026-01-17 13:16:47.81	91.65	31.41	-35.7	-36.6	22.8	0.00e+00	0	42	0	1713373184	41	4053
2026-01-17 13:16:48.94	91.31	31.53	-35.8	-36.7	22.7	0.00e+00	0	42	0	1721761792	41	4106
2026-01-17 13:16:49.80	91.04	31.62	-35.9	-36.8	22.6	0.00e+00	0	42	0	1727004672	41	4150
2026-01-17 13:16:50.94	90.69	31.75	-35.8	-36.6	22.7	0.00e+00	0	42	0	1735393280	41	4095
2026-01-17 13:16:51.79	90.43	31.84	-35.8	-36.6	22.7	0.00e+00	0	42	0	1741684736	41	4073
2026-01-17 13:16:52.93	90.07	31.96	-35.8	-36.6	22.7	0.00e+00	0	42	0	1750073344	41	4092
2026-01-17 13:16:53.78	89.81	32.05	-35.7	-36.6	22.8	0.00e+00	0	42	0	1756364800	41	4060
2026-01-17 13:16:54.92	89.45	32.17	-35.6	-36.5	22.9	0.00e+00	0	42	0	1764753408	41	4019
2026-01-17 13:16:55.77	89.18	32.26	-35.5	-36.4	22.9	0.00e+00	0	42	0	1771044864	41	3972
2026-01-17 13:16:56.91	88.81	32.37	-35.4	-36.2	23.1	0.00e+00	0	42	0	1778384896	41	3913
2026-01-17 13:16:57.76	88.54	32.46	-35.5	-36.3	23.0	0.00e+00	0	42	0	1784676352	41	3935
2026-01-17 13:16:58.90	88.17	32.58	-35.4	-36.2	23.1	0.00e+00	0	42	0	1793064960	41	3884
2026-01-17 13:16:59.75	87.89	32.67	-35.4	-36.3	23.0	0.00e+00	0	42	0	1799356416	41	3917
2026-01-17 13:17:00.89	87.52	32.78	-35.2	-36.1	23.2	0.00e+00	0	42	0	1807745024	41	3828
2026-01-17 13:17:01.74	87.24	32.87	-35.1	-35.9	23.3	0.00e+00	0	42	0	1814036480	41	3751
2026-01-17 13:17:02.89	86.86	32.98	-35.1	-35.9	23.3	0.00e+00	0	42	0	1822425088	40	3989
2026-01-17 13:17:03.74	86.57	33.06	-35.1	-36.0	23.3	0.00e+00	0	42	0	1827667968	40	4011
2026-01-17 13:17:04.94	86.17	33.18	-35.2	-36.0	23.2	0.00e+00	0	42	0	1837105152	40	4045
2026-01-17 13:17:05.80	85.88	33.26	-35.4	-36.2	23.0	0.00e+00	0	42	0	1843396608	40	4139
2026-01-17 13:17:07.01	85.47	33.38	-35.5	-36.3	23.0	0.00e+00	0	42	0	1851785216	40	4186
2026-01-17 13:17:07.86	85.18	33.46	-35.6	-36.4	22.9	0.00e+00	0	42	0	1858076672	40	4211
2026-01-17 13:17:09.05	84.77	33.57	-35.6	-36.4	22.9	0.00e+00	0	42	0	1866465280	40	4216
2026-01-17 13:17:09.90	84.47	33.65	-35.6	-36.4	22.9	0.00e+00	0	42	0	1872756736	40	4217
2026-01-17 13:17:11.11	84.05	33.77	-35.6	-36.4	22.9	0.00e+00	0	42	0	1881145344	40	4234
2026-01-17 13:17:11.97	83.75	33.84	-35.6	-36.4	22.9	0.00e+00	0	42	0	1887436800	40	4236
2026-01-17 13:17:13.10	83.35	33.95	-35.6	-36.4	22.9	0.00e+00	0	42	0	1895825408	40	4237
2026-01-17 13:17:13.95	83.05	34.02	-35.6	-36.5	22.9	0.00e+00	0	42	0	1902116864	40	4250
2026-01-17 13:17:15.09	82.64	34.12	-35.5	-36.4	22.9	0.00e+00	0	42	0	1910505472	40	4205
2026-01-17 13:17:15.95	82.33	34.20	-35.4	-36.3	23.0	0.00e+00	0	42	0	1915748352	40	4160
2026-01-17 13:17:17.08	81.93	34.30	-35.3	-36.1	23.1	0.00e+00	0	42	0	1924136960	40	4098
2026-01-17 13:17:18.03	81.58	34.38	-35.3	-36.1	23.2	0.00e+00	0	42	0	1931476992	40	4068
2026-01-17 13:17:19.03	81.22	34.46	-35.3	-36.1	23.2	0.00e+00	0	42	0	1938817024	40	4066
2026-01-17 13:17:20.02	80.86	34.55	-35.3	-36.1	23.1	0.00e+00	0	42	0	1945108480	40	4097
2026-01-17 13:17:21.02	80.49	34.63	-35.3	-36.1	23.2	0.00e+00	0	42	0	1952448512	40	4084
2026-01-17 13:17:22.01	80.12	34.71	-35.5	-36.4	23.0	0.00e+00	0	42	0	1959788544	40	4201
2026-01-17 13:17:23.00	79.75	34.79	-35.7	-36.6	22.8	0.00e+00	0	42	0	1967128576	40	4292
2026-01-17 13:17:24.00	79.38	34.87	-35.7	-36.5	22.8	0.00e+00	0	42	0	1974468608	40	4276
2026-01-17 13:17:24.99	79.01	34.94	-35.7	-36.5	22.8	0.00e+00	0	42	0	1981808640	40	4281
2026-01-17 13:17:25.99	78.63	35.02	-35.7	-36.5	22.9	0.00e+00	0	42	0	1989148672	40	4262
2026-01-17 13:17:26.98	78.26	35.09	-35.5	-36.3	23.0	0.00e+00	0	42	0	1996488704	40	4180
2026-01-17 13:17:27.98	77.88	35.17	-35.4	-36.3	23.0	0.00e+00	0	42	0	2002780160	40	4150
2026-01-17 13:17:28.97	77.50	35.24	-35.5	-36.3	23.0	0.00e+00	0	42	0	2010120192	40	4179
2026-01-17 13:17:29.97	77.12	35.31	-35.6	-36.4	22.9	0.00e+00	0	42	0	2017460224	40	4215
2026-01-17 13:17:30.96	76.73	35.38	-35.5	-36.4	23.0	0.00e+00	0	42	0	2024800256	40	4199
2026-01-17 13:17:31.99	76.34	35.45	-35.5	-36.3	23.0	0.00e+00	0	42	0	2032140288	40	4190
2026-01-17 13:17:32.98	75.95	35.52	-35.6	-36.5	22.9	0.00e+00	0	42	0	2039480320	40	4252
2026-01-17 13:17:33.98	75.56	35.58	-35.7	-36.5	22.9	0.00e+00	0	42	0	2046820352	40	4269
2026-01-17 13:17:34.97	75.17	35.65	-35.6	-36.4	22.9	0.00e+00	0	42	0	2053111808	41	3992
2026-01-17 13:17:35.97	74.78	35.71	-35.5	-36.4	23.0	0.00e+00	0	42	0	2060451840	41	3960
2026-01-17 13:17:36.96	74.39	35.77	-35.3	-36.1	23.2	0.00e+00	0	42	0	2067791872	41	3843
2026-01-17 13:17:37.96	73.99	35.83	-35.3	-36.1	23.2	0.00e+00	0	42	0	2075131904	41	3853
2026-01-17 13:17:38.95	73.60	35.89	-35.2	-36.0	23.3	0.00e+00	0	42	0	2082471936	41	3810
2026-01-17 13:17:39.95	73.20	35.95	-35.3	-36.1	23.2	0.00e+00	0	42	0	2089811968	41	3838
2026-01-17 13:17:40.94	72.80	36.00	-35.4	-36.2	23.1	0.00e+00	0	42	0	2097152000	41	3878
2026-01-17 13:17:41.94	72.40	36.06	-35.4	-36.2	23.1	0.00e+00	0	42	0	2103443456	41	3886
2026-01-17 13:17:42.93	72.00	36.11	-35.5	-36.3	23.0	0.00e+00	0	42	0	2110783488	41	3942
2026-01-17 13:17:43.93	71.60	36.16	-35.4	-36.2	23.1	0.00e+00	0	43	0	2118123520	41	3875
2026-01-17 13:17:44.94	71.19	36.21	-35.4	-36.2	23.1	0.00e+00	0	42	0	2125463552	41	3908
2026-01-17 13:17:45.95	70.78	36.26	-35.5	-36.3	23.0	0.00e+00	0	42	0	2132803584	41	3935
2026-01-17 13:17:46.94	70.37	36.31	-35.5	-36.3	23.0	0.00e+00	0	43	0	2140143616	41	3954
2026-01-17 13:17:47.94	69.96	36.35	-35.4	-36.3	23.1	0.00e+00	0	43	0	2147483648	41	3916
2026-01-17 13:17:48.93	69.56	36.40	-35.3	-36.1	23.2	0.00e+00	0	43	0	2154823680	41	3845
2026-01-17 13:17:49.92	69.15	36.44	-35.3	-36.1	23.2	0.00e+00	0	42	0	2162163712	41	3857
2026-01-17 13:17:50.92	68.74	36.48	-35.3	-36.1	23.2	0.00e+00	0	43	0	2168455168	41	3828
2026-01-17 13:17:51.91	68.33	36.52	-35.2	-36.0	23.3	0.00e+00	0	42	0	2175795200	41	3786
2026-01-17 13:17:52.91	67.91	36.55	-35.2	-36.0	23.3	0.00e+00	0	43	0	2183135232	41	3789
2026-01-17 13:17:53.90	67.50	36.59	-35.4	-36.2	23.1	0.00e+00	0	42	0	2190475264	41	3886
2026-01-17 13:17:54.90	67.09	36.62	-35.4	-36.2	23.1	0.00e+00	0	43	0	2197815296	41	3898
2026-01-17 13:17:55.89	66.67	36.65	-35.4	-36.2	23.1	0.00e+00	0	42	0	2204106752	41	3872
2026-01-17 13:17:56.88	66.26	36.68	-35.4	-36.2	23.1	0.00e+00	0	42	0	2211446784	41	3878
2026-01-17 13:17:57.88	65.84	36.71	-35.4	-36.2	23.1	0.00e+00	0	42	0	2218786816	41	3894
2026-01-17 13:17:58.87	65.43	36.74	-35.3	-36.1	23.2	0.00e+00	0	43	0	2226126848	41	3861
2026-01-17 13:17:59.87	65.01	36.77	-35.3	-36.1	23.2	0.00e+00	0	42	0	2233466880	41	3825
2026-01-17 13:18:00.86	64.59	36.79	-35.4	-36.2	23.1	0.00e+00	0	43	0	2240806912	41	3897
2026-01-17 13:18:01.86	64.17	36.81	-35.3	-36.1	23.1	0.00e+00	0	42	0	2248146944	41	3865
2026-01-17 13:18:02.87	63.74	36.83	-35.5	-36.3	23.0	0.00e+00	0	42	0	2255486976	41	3925
2026-01-17 13:18:03.91	63.30	36.85	-35.5	-36.3	22.9	0.00e+00	0	42	0	2262827008	41	3952
2026-01-17 13:18:04.91	62.88	36.87	-35.5	-36.4	23.0	0.00e+00	0	42	0	2269118464	41	3968
2026-01-17 13:18:05.97	62.43	36.88	-35.7	-36.5	22.9	0.00e+00	0	42	0	2277507072	41	4019
2026-01-17 13:18:06.85	62.06	36.89	-35.5	-36.3	23.0	0.00e+00	0	42	0	2283798528	41	3951
2026-01-17 13:18:07.99	61.58	36.90	-35.4	-36.2	23.1	0.00e+00	0	42	0	2292187136	41	3911
2026-01-17 13:18:08.84	61.22	36.91	-35.2	-36.0	23.3	0.00e+00	0	42	0	2298478592	41	3796
2026-01-17 13:18:09.98	60.73	36.92	-35.1	-35.9	23.4	0.00e+00	0	42	0	2306867200	41	3771
2026-01-17 13:18:10.83	60.37	36.93	-35.1	-35.9	23.4	0.00e+00	0	42	0	2312110080	41	3750
2026-01-17 13:18:11.97	59.89	36.93	-35.2	-36.0	23.2	0.00e+00	0	42	0	2320498688	40	4035
2026-01-17 13:18:12.82	59.53	36.93	-35.2	-36.0	23.2	0.00e+00	0	42	0	2326790144	40	4036
2026-01-17 13:18:13.95	59.05	36.93	-35.4	-36.3	23.1	0.00e+00	0	42	0	2335178752	40	4150
2026-01-17 13:18:14.81	58.68	36.93	-35.4	-36.2	23.1	0.00e+00	0	42	0	2341470208	40	4133
2026-01-17 13:18:15.94	58.20	36.93	-35.4	-36.3	23.1	0.00e+00	0	42	0	2349858816	40	4149
2026-01-17 13:18:16.79	57.84	36.92	-35.5	-36.3	23.0	0.00e+00	0	42	0	2355101696	40	4189
2026-01-17 13:18:17.93	57.36	36.92	-35.5	-36.3	23.0	0.00e+00	0	42	0	2363490304	40	4164
2026-01-17 13:18:18.78	57.00	36.91	-35.5	-36.3	23.0	0.00e+00	0	42	0	2369781760	40	4187
2026-01-17 13:18:20.06	56.46	36.90	-35.6	-36.4	22.9	0.00e+00	0	42	0	2379218944	40	4217
2026-01-17 13:18:20.80	56.14	36.89	-35.5	-36.3	23.0	0.00e+00	0	42	0	2384461824	40	4172
2026-01-17 13:18:22.08	55.60	36.87	-35.4	-36.2	23.1	0.00e+00	0	42	0	2393899008	40	4137
2026-01-17 13:18:22.81	55.29	36.86	-35.5	-36.3	23.0	0.00e+00	0	42	0	2399141888	40	4173
2026-01-17 13:18:24.09	54.75	36.83	-35.5	-36.3	23.0	0.00e+00	0	42	0	2408579072	40	4154
2026-01-17 13:18:24.83	54.44	36.82	-35.4	-36.2	23.1	0.00e+00	0	42	0	2413821952	40	4113
2026-01-17 13:18:26.11	53.90	36.79	-35.1	-35.9	23.3	0.00e+00	0	43	0	2422210560	40	4003
2026-01-17 13:18:26.82	53.60	36.78	-35.3	-36.1	23.2	0.00e+00	0	42	0	2428502016	40	4071
2026-01-17 13:18:28.10	53.07	36.75	-35.4	-36.2	23.1	0.00e+00	0	42	0	2436890624	40	4133
2026-01-17 13:18:28.82	52.76	36.73	-35.5	-36.3	23.0	0.00e+00	0	42	0	2442133504	40	4176
2026-01-17 13:18:30.10	52.23	36.69	-35.6	-36.4	22.9	0.00e+00	0	42	0	2451570688	40	4239
2026-01-17 13:18:30.99	51.86	36.66	-35.6	-36.5	22.9	0.00e+00	0	42	0	2457862144	40	4251
2026-01-17 13:18:32.12	51.39	36.63	-35.6	-36.4	22.9	0.00e+00	0	42	0	2466250752	40	4233
2026-01-17 13:18:32.97	51.03	36.60	-35.6	-36.4	23.0	0.00e+00	0	42	0	2472542208	40	4210
2026-01-17 13:18:34.11	50.56	36.56	-35.3	-36.2	23.2	0.00e+00	0	42	0	2480930816	40	4102
2026-01-17 13:18:34.96	50.21	36.53	-35.4	-36.2	23.1	0.00e+00	0	42	0	2487222272	40	4127
2026-01-17 13:18:36.10	49.74	36.48	-35.5	-36.3	23.0	0.00e+00	0	42	0	2494562304	40	4189
2026-01-17 13:18:36.95	49.38	36.45	-35.5	-36.3	23.0	0.00e+00	0	42	0	2500853760	40	4184
2026-01-17 13:18:38.09	48.92	36.40	-35.7	-36.5	22.9	0.00e+00	0	42	0	2509242368	40	4260
2026-01-17 13:18:38.94	48.57	36.37	-35.7	-36.5	22.8	0.00e+00	0	42	0	2515533824	41	4050
2026-01-17 13:18:40.08	48.10	36.32	-35.6	-36.5	22.9	0.00e+00	0	42	0	2523922432	41	4006
2026-01-17 13:18:40.93	47.75	36.28	-35.6	-36.4	22.9	0.00e+00	0	42	0	2530213888	41	4001
2026-01-17 13:18:42.07	47.29	36.22	-35.5	-36.3	23.0	0.00e+00	0	42	0	2538602496	41	3939
2026-01-17 13:18:42.92	46.95	36.18	-35.1	-35.9	23.3	0.00e+00	0	42	0	2543845376	41	3765
2026-01-17 13:18:44.05	46.49	36.12	-35.0	-35.7	23.5	0.00e+00	0	42	0	2552233984	40	3911
2026-01-17 13:18:44.91	46.14	36.08	-35.1	-35.9	23.4	0.00e+00	0	42	0	2558525440	40	3961
2026-01-17 13:18:46.04	45.69	36.02	-35.2	-36.0	23.3	0.00e+00	0	42	0	2566914048	40	4016
2026-01-17 13:18:47.02	45.30	35.96	-35.2	-36.0	23.2	0.00e+00	0	42	0	2574254080	40	4038
2026-01-17 13:18:48.02	44.90	35.90	-35.3	-36.1	23.2	0.00e+00	0	43	0	2580545536	40	4057
2026-01-17 13:18:49.01	44.50	35.85	-35.3	-36.1	23.2	0.00e+00	0	42	0	2587885568	40	4077
2026-01-17 13:18:50.01	44.11	35.79	-35.3	-36.1	23.2	0.00e+00	0	42	0	2595225600	40	4065
2026-01-17 13:18:51.01	43.71	35.72	-35.2	-36.0	23.3	0.00e+00	0	42	0	2602565632	40	4020
2026-01-17 13:18:52.00	43.32	35.66	-35.2	-36.0	23.3	0.00e+00	0	43	0	2609905664	40	4032
2026-01-17 13:18:53.00	42.93	35.60	-35.3	-36.1	23.2	0.00e+00	0	42	0	2617245696	40	4073
2026-01-17 13:18:53.99	42.55	35.53	-35.2	-36.0	23.3	0.00e+00	0	42	0	2623537152	40	4041
2026-01-17 13:18:54.98	42.16	35.47	-35.3	-36.2	23.1	0.00e+00	0	43	0	2630877184	40	4108
2026-01-17 13:18:55.98	41.78	35.40	-35.3	-36.1	23.2	0.00e+00	0	42	0	2638217216	40	4071
2026-01-17 13:18:56.97	41.40	35.33	-35.2	-36.0	23.2	0.00e+00	0	42	0	2645557248	40	4043
2026-01-17 13:18:57.97	41.01	35.26	-35.3	-36.1	23.2	0.00e+00	0	42	0	2652897280	40	4059
2026-01-17 13:18:58.96	40.63	35.19	-35.4	-36.2	23.1	0.00e+00	0	42	0	2660237312	40	4120
2026-01-17 13:18:59.96	40.25	35.11	-35.4	-36.2	23.1	0.00e+00	0	42	0	2667577344	40	4127
2026-01-17 13:19:00.95	39.88	35.04	-35.5	-36.4	23.0	0.00e+00	0	42	0	2673868800	40	4197
2026-01-17 13:19:01.95	39.50	34.96	-35.6	-36.4	22.9	0.00e+00	0	42	0	2681208832	40	4209
2026-01-17 13:19:02.94	39.13	34.89	-35.4	-36.2	23.1	0.00e+00	0	42	0	2688548864	40	4113
2026-01-17 13:19:03.93	38.76	34.81	-35.3	-36.1	23.2	0.00e+00	0	43	0	2695888896	40	4071
2026-01-17 13:19:04.93	38.39	34.73	-35.3	-36.1	23.1	0.00e+00	0	42	0	2703228928	40	4063
2026-01-17 13:19:05.92	38.03	34.65	-35.2	-36.0	23.2	0.00e+00	0	43	0	2710568960	40	4029
2026-01-17 13:19:06.92	37.66	34.57	-35.3	-36.1	23.1	0.00e+00	0	42	0	2717908992	40	4074
2026-01-17 13:19:07.91	37.30	34.49	-35.4	-36.2	23.1	0.00e+00	0	42	0	2724200448	40	4110
2026-01-17 13:19:08.91	36.93	34.40	-35.5	-36.4	22.9	0.00e+00	0	43	0	2731540480	40	4196
2026-01-17 13:19:09.90	36.58	34.32	-35.5	-36.3	22.9	0.00e+00	0	42	0	2738880512	40	4187
2026-01-17 13:19:10.90	36.22	34.23	-35.6	-36.4	22.9	0.00e+00	0	43	0	2746220544	40	4219
2026-01-17 13:19:11.89	35.86	34.15	-35.5	-36.3	23.0	0.00e+00	0	43	0	2753560576	40	4174
2026-01-17 13:19:12.92	35.49	34.06	-35.4	-36.2	23.0	0.00e+00	0	43	0	2760900608	40	4132
2026-01-17 13:19:13.93	35.14	33.96	-35.2	-36.0	23.2	0.00e+00	0	42	0	2768240640	40	4020
2026-01-17 13:19:14.94	34.78	33.87	-35.0	-35.8	23.4	0.00e+00	0	43	0	2775580672	40	3939
2026-01-17 13:19:15.94	34.43	33.78	-35.1	-35.9	23.4	0.00e+00	0	42	0	2782920704	40	3967
2026-01-17 13:19:16.93	34.09	33.69	-35.1	-35.9	23.3	0.00e+00	0	42	0	2789212160	40	4002
2026-01-17 13:19:17.92	33.74	33.60	-35.2	-36.0	23.2	0.00e+00	0	42	0	2796552192	40	4027
2026-01-17 13:19:18.92	33.40	33.51	-35.3	-36.1	23.1	0.00e+00	0	42	0	2803892224	40	4078
2026-01-17 13:19:19.92	33.06	33.41	-35.3	-36.1	23.1	0.00e+00	0	43	0	2811232256	40	4078
2026-01-17 13:19:20.91	32.72	33.32	-35.4	-36.2	22.9	0.00e+00	0	43	0	2818572288	40	4118
2026-01-17 13:19:21.91	32.38	33.22	-35.2	-36.0	23.2	0.00e+00	0	42	0	2825912320	40	4038
2026-01-17 13:19:22.90	32.05	33.12	-35.1	-35.9	23.4	0.00e+00	0	43	0	2832203776	40	3963
2026-01-17 13:19:23.90	31.72	33.03	-34.9	-35.7	23.5	0.00e+00	0	42	0	2839543808	40	3879
2026-01-17 13:19:24.89	31.39	32.93	-34.8	-35.6	23.6	0.00e+00	0	42	0	2846883840	40	3852
2026-01-17 13:19:25.88	31.06	32.83	-34.8	-35.6	23.6	0.00e+00	0	42	0	2854223872	40	3851
2026-01-17 13:19:26.88	30.73	32.73	-35.0	-35.8	23.5	0.00e+00	0	42	0	2861563904	40	3925
2026-01-17 13:19:27.87	30.41	32.63	-35.0	-35.8	23.4	0.00e+00	0	42	0	2868903936	40	3947
2026-01-17 13:19:28.90	30.08	32.52	-35.2	-36.0	23.2	0.00e+00	0	42	0	2876243968	40	4023
2026-01-17 13:19:29.92	29.75	32.42	-35.3	-36.1	23.2	0.00e+00	0	43	0	2883584000	40	4065
2026-01-17 13:19:30.95	29.42	32.31	-35.4	-36.2	23.1	0.00e+00	0	42	0	2890924032	40	4111
2026-01-17 13:19:31.94	29.11	32.21	-35.4	-36.2	23.1	0.00e+00	0	42	0	2898264064	40	4115
2026-01-17 13:19:32.94	28.79	32.11	-35.7	-36.5	22.9	0.00e+00	0	42	0	2905604096	40	4263
2026-01-17 13:19:33.93	28.48	32.00	-35.7	-36.5	22.8	0.00e+00	0	42	0	2911895552	40	4286
2026-01-17 13:19:34.92	28.17	31.90	-35.6	-36.4	22.9	0.00e+00	0	42	0	2919235584	40	4211
2026-01-17 13:19:35.92	27.86	31.79	-35.4	-36.3	23.0	0.00e+00	0	42	0	2926575616	40	4156
2026-01-17 13:19:36.91	27.56	31.69	-35.3	-36.2	23.1	0.00e+00	0	42	0	2933915648	40	4104
2026-01-17 13:19:37.90	27.25	31.58	-35.3	-36.1	23.2	0.00e+00	0	42	0	2941255680	40	4073
2026-01-17 13:19:38.90	26.95	31.47	-35.4	-36.3	23.0	0.00e+00	0	42	0	2948595712	40	4152
2026-01-17 13:19:39.89	26.65	31.37	-35.4	-36.2	23.1	0.00e+00	0	43	0	2954887168	40	4120
2026-01-17 13:19:40.89	26.35	31.26	-35.5	-36.3	23.0	0.00e+00	0	43	0	2962227200	40	4191
2026-01-17 13:19:41.88	26.06	31.15	-35.4	-36.2	23.0	0.00e+00	0	42	0	2969567232	40	4130
2026-01-17 13:19:42.88	25.76	31.04	-35.5	-36.3	23.0	0.00e+00	0	42	0	2976907264	40	4192
2026-01-17 13:19:43.87	25.47	30.93	-35.4	-36.3	23.0	0.00e+00	0	43	0	2984247296	40	4154
2026-01-17 13:19:44.92	25.17	30.81	-35.4	-36.2	23.1	0.00e+00	0	43	0	2991587328	40	4137
2026-01-17 13:19:45.88	24.89	30.71	-35.6	-36.4	22.9	0.00e+00	0	42	0	2998927360	40	4207
2026-01-17 13:19:46.97	24.58	30.59	-35.8	-36.6	22.7	0.00e+00	0	42	0	3006267392	40	4320
2026-01-17 13:19:47.82	24.34	30.49	-35.8	-36.7	22.7	0.00e+00	0	42	0	3012558848	41	4108
2026-01-17 13:19:48.96	24.01	30.36	-35.9	-36.8	22.6	0.00e+00	0	43	0	3020947456	41	4148
2026-01-17 13:19:49.81	23.77	30.27	-35.8	-36.7	22.7	0.00e+00	0	42	0	3027238912	41	4104
2026-01-17 13:19:50.95	23.46	30.14	-35.6	-36.5	22.9	0.00e+00	0	42	0	3035627520	41	4013
2026-01-17 13:19:51.80	23.22	30.04	-35.6	-36.4	22.9	0.00e+00	0	43	0	3040870400	41	3989
2026-01-17 13:19:52.94	22.91	29.91	-35.4	-36.2	23.1	0.00e+00	0	42	0	3049259008	41	3882
2026-01-17 13:19:53.79	22.67	29.82	-35.5	-36.3	22.9	0.00e+00	0	42	0	3055550464	41	3955
2026-01-17 13:19:54.93	22.36	29.69	-35.5	-36.4	22.9	0.00e+00	0	43	0	3063939072	41	3969
2026-01-17 13:19:55.78	22.14	29.59	-35.5	-36.3	23.0	0.00e+00	0	42	0	3070230528	41	3938
2026-01-17 13:19:56.98	21.81	29.45	-35.7	-36.5	22.8	0.00e+00	0	42	0	3078619136	41	4038
2026-01-17 13:19:57.84	21.59	29.35	-35.7	-36.5	22.6	0.00e+00	0	43	0	3084910592	41	4041
2026-01-17 13:19:58.97	21.29	29.22	-35.8	-36.6	22.8	0.00e+00	0	42	0	3093299200	41	4063
2026-01-17 13:19:59.83	21.06	29.13	-35.8	-36.7	22.7	0.00e+00	0	42	0	3099590656	41	4099
2026-01-17 13:20:01.09	20.74	28.98	-35.8	-36.7	22.7	0.00e+00	0	42	0	3107979264	41	4115
2026-01-17 13:20:01.90	20.53	28.89	-35.8	-36.6	22.7	0.00e+00	0	42	0	3114270720	41	4085
2026-01-17 13:20:03.03	20.24	28.76	-36.0	-36.8	22.5	0.00e+00	0	43	0	3122659328	41	4173
2026-01-17 13:20:03.88	20.02	28.66	-35.8	-36.7	22.7	0.00e+00	0	43	0	3128950784	41	4108
2026-01-17 13:20:05.02	19.73	28.53	-35.9	-36.8	22.6	0.00e+00	0	43	0	3137339392	41	4148
2026-01-17 13:20:05.87	19.52	28.43	-36.0	-36.8	22.5	0.00e+00	0	43	0	3142582272	41	4184
2026-01-17 13:20:07.01	19.24	28.29	-35.9	-36.7	22.6	0.00e+00	0	43	0	3150970880	41	4143
2026-01-17 13:20:07.86	19.03	28.20	-35.8	-36.7	22.7	0.00e+00	0	43	0	3157262336	41	4118
2026-01-17 13:20:09.00	18.75	28.06	-35.9	-36.7	22.6	0.00e+00	0	43	0	3165650944	41	4139
2026-01-17 13:20:09.85	18.54	27.96	-35.8	-36.6	22.7	0.00e+00	0	43	0	3171942400	41	4095
2026-01-17 13:20:10.99	18.27	27.83	-35.7	-36.5	22.8	0.00e+00	0	42	0	3180331008	41	4043
2026-01-17 13:20:11.84	18.06	27.73	-35.7	-36.5	22.8	0.00e+00	0	42	0	3185573888	41	4031
2026-01-17 13:20:12.98	17.79	27.60	-35.7	-36.5	22.8	0.00e+00	0	42	0	3193962496	41	4031
2026-01-17 13:20:13.83	17.59	27.50	-35.7	-36.6	22.7	0.00e+00	0	43	0	3200253952	41	4056
2026-01-17 13:20:15.10	17.29	27.35	-35.7	-36.5	22.9	0.00e+00	0	43	0	3209691136	41	4019
2026-01-17 13:20:15.87	17.11	27.26	-35.7	-36.6	22.8	0.00e+00	0	43	0	3214934016	41	4054
2026-01-17 13:20:17.15	16.82	27.11	-35.7	-36.5	22.8	0.00e+00	0	42	0	3224371200	41	4035
2026-01-17 13:20:18.27	16.56	26.98	-35.6	-36.4	22.9	0.00e+00	0	43	0	3232759808	41	3984
2026-01-17 13:20:19.41	16.30	26.85	-35.6	-36.5	22.9	0.00e+00	0	42	0	3240099840	41	4008
2026-01-17 13:20:20.26	16.11	26.75	-35.7	-36.5	22.9	0.00e+00	0	42	0	3247439872	41	4017
2026-01-17 13:20:21.39	15.86	26.62	-35.8	-36.6	22.7	0.00e+00	0	42	0	3254779904	41	4091
2026-01-17 13:20:22.25	15.67	26.52	-35.8	-36.6	22.7	0.00e+00	0	42	0	3261071360	41	4096
2026-01-17 13:20:23.38	15.42	26.38	-35.9	-36.7	22.6	0.00e+00	0	42	0	3269459968	41	4140
2026-01-17 13:20:24.24	15.23	26.28	-35.9	-36.7	22.6	0.00e+00	0	43	0	3275751424	41	4139
2026-01-17 13:20:25.37	14.99	26.15	-36.0	-36.9	22.5	0.00e+00	0	43	0	3284140032	41	4208
2026-01-17 13:20:26.23	14.80	26.05	-36.1	-36.9	22.5	0.00e+00	0	42	0	3290431488	41	4226
2026-01-17 13:20:27.36	14.56	25.92	-36.1	-36.9	22.4	0.00e+00	0	42	0	3297771520	41	4227
2026-01-17 13:20:28.22	14.38	25.82	-36.0	-36.9	22.5	0.00e+00	0	43	0	3304062976	41	4223
2026-01-17 13:20:29.35	14.14	25.69	-36.2	-37.0	22.4	0.00e+00	0	43	0	3312451584	41	4277
2026-01-17 13:20:30.21	13.96	25.59	-36.0	-36.9	22.5	0.00e+00	0	43	0	3318743040	41	4199
2026-01-17 13:20:31.49	13.69	25.44	-35.9	-36.8	22.6	0.00e+00	0	42	0	3328180224	41	4147
2026-01-17 13:20:32.22	13.54	25.36	-35.8	-36.6	22.7	0.00e+00	0	43	0	3333423104	41	4096
2026-01-17 13:20:33.50	13.28	25.21	-35.9	-36.7	22.7	0.00e+00	0	43	0	3341811712	41	4117
2026-01-17 13:20:34.21	13.14	25.12	-35.9	-36.7	22.6	0.00e+00	0	43	0	3347054592	41	4141
2026-01-17 13:20:35.48	12.88	24.98	-35.8	-36.6	22.7	0.00e+00	0	42	0	3356491776	41	4093
2026-01-17 13:20:36.20	12.74	24.89	-35.8	-36.6	22.7	0.00e+00	0	43	0	3361734656	41	4094
2026-01-17 13:20:37.47	12.49	24.75	-35.9	-36.7	22.6	0.00e+00	0	43	0	3371171840	41	4131
2026-01-17 13:20:38.20	12.34	24.66	-35.9	-36.7	22.6	0.00e+00	0	42	0	3376414720	41	4121
2026-01-17 13:20:39.48	12.09	24.52	-36.0	-36.9	22.5	0.00e+00	0	43	0	3385851904	41	4200
2026-01-17 13:20:40.19	11.95	24.43	-36.1	-37.0	22.4	0.00e+00	0	43	0	3391094784	41	4256
2026-01-17 13:20:41.47	11.71	24.29	-36.2	-37.0	22.3	0.00e+00	0	43	0	3399483392	41	4274
2026-01-17 13:20:42.18	11.57	24.21	-36.2	-37.0	22.3	0.00e+00	0	43	0	3404726272	41	4290
2026-01-17 13:20:43.46	11.33	24.06	-36.3	-37.1	22.2	0.00e+00	0	42	0	3414163456	41	4327
2026-01-17 13:20:44.17	11.20	23.98	-36.3	-37.1	22.2	0.00e+00	0	42	0	3419406336	42	4096
2026-01-17 13:20:45.45	10.96	23.83	-36.2	-37.0	22.3	0.00e+00	0	43	0	3428843520	42	4037
2026-01-17 13:20:46.16	10.82	23.75	-36.2	-37.0	22.3	0.00e+00	0	43	0	3434086400	42	4033
2026-01-17 13:20:47.44	10.59	23.60	-36.3	-37.1	22.3	0.00e+00	0	43	0	3442475008	42	4072
2026-01-17 13:20:48.17	10.45	23.52	-36.2	-37.0	22.3	0.00e+00	0	43	0	3448766464	42	4041
2026-01-17 13:20:49.64	10.19	23.35	-36.2	-37.1	21.3	0.00e+00	0	42	0	3459252224	42	4066
2026-01-17 13:20:50.35	10.06	23.27	-36.2	-37.1	22.3	0.00e+00	0	42	0	3463446528	42	4070
2026-01-17 13:20:51.62	9.83	23.13	-36.3	-37.1	22.3	0.00e+00	0	42	0	3472883712	42	4085
2026-01-17 13:20:52.35	9.70	23.05	-36.4	-37.2	22.2	0.00e+00	0	43	0	3478126592	42	4125
2026-01-17 13:20:53.74	9.46	22.89	-36.4	-37.3	22.2	0.00e+00	0	43	0	3488612352	42	4166
2026-01-17 13:20:54.45	9.34	22.81	-36.5	-37.3	22.1	0.00e+00	0	42	0	3493855232	42	4183
2026-01-17 13:20:55.73	9.11	22.67	-36.5	-37.4	22.0	0.00e+00	0	42	0	3503292416	42	4227
2026-01-17 13:20:56.44	8.99	22.59	-36.4	-37.2	22.2	0.00e+00	0	42	0	3507486720	42	4144
2026-01-17 13:20:57.72	8.77	22.44	-36.3	-37.1	22.3	0.00e+00	0	42	0	3516923904	42	4092
2026-01-17 13:20:58.45	8.65	22.36	-36.2	-37.0	22.4	0.00e+00	0	43	0	3522166784	42	4036
2026-01-17 13:20:59.72	8.44	22.22	-36.1	-37.0	22.4	0.00e+00	0	43	0	3531603968	42	4020
2026-01-17 13:21:00.47	8.31	22.14	-36.2	-37.0	22.3	0.00e+00	0	43	0	3536846848	42	4049
2026-01-17 13:21:01.75	8.10	22.00	-36.1	-37.0	22.4	0.00e+00	0	43	0	3546284032	42	4029
2026-01-17 13:21:02.47	7.98	21.92	-36.1	-37.0	22.3	0.00e+00	0	42	0	3551526912	42	4030
2026-01-17 13:21:03.75	7.77	21.77	-36.1	-37.0	22.4	0.00e+00	0	43	0	3560964096	42	4023
2026-01-17 13:21:04.48	7.65	21.69	-36.2	-37.1	22.3	0.00e+00	0	43	0	3566206976	42	4055
2026-01-17 13:21:05.76	7.45	21.55	-36.3	-37.2	22.2	0.00e+00	0	43	0	3574595584	42	4107
2026-01-17 13:21:06.64	7.31	21.46	-36.2	-37.1	22.3	0.00e+00	0	43	0	3581935616	42	4076
2026-01-17 13:21:08.09	7.08	21.30	-36.4	-37.3	22.1	0.00e+00	0	43	0	3592421376	42	4175
2026-01-17 13:21:09.20	6.90	21.18	-36.5	-37.4	22.0	0.00e+00	0	42	0	3599761408	42	4231
2026-01-17 13:21:10.05	6.77	21.08	-36.6	-37.5	22.0	0.00e+00	0	42	0	3606052864	42	4263
2026-01-17 13:21:11.19	6.59	20.96	-36.6	-37.5	21.9	0.00e+00	0	43	0	3614441472	42	4279
2026-01-17 13:21:12.04	6.46	20.87	-36.6	-37.5	21.9	0.00e+00	0	43	0	3620732928	42	4281
2026-01-17 13:21:13.18	6.29	20.74	-36.6	-37.5	21.9	0.00e+00	0	42	0	3629121536	42	4273
2026-01-17 13:21:14.03	6.16	20.65	-36.5	-37.5	22.0	0.00e+00	0	42	0	3635412992	42	4244
2026-01-17 13:21:15.16	5.99	20.53	-36.4	-37.3	22.0	0.00e+00	0	42	0	3642753024	42	4186
2026-01-17 13:21:16.08	5.85	20.43	-36.3	-37.2	22.2	0.00e+00	0	42	0	3650093056	42	4119
2026-01-17 13:21:17.24	5.68	20.31	-36.3	-37.2	22.2	0.00e+00	0	43	0	3658481664	42	4118
2026-01-17 13:21:18.13	5.55	20.21	-36.3	-37.2	22.2	0.00e+00	0	43	0	3664773120	42	4137
2026-01-17 13:21:19.26	5.38	20.09	-36.4	-37.3	22.1	0.00e+00	0	43	0	3673161728	42	4161
2026-01-17 13:21:20.12	5.26	20.00	-36.6	-37.5	21.9	0.00e+00	0	43	0	3679453184	42	4272
2026-01-17 13:21:21.47	5.06	19.86	-36.7	-37.5	21.9	0.00e+00	0	43	0	3688890368	42	4286
2026-01-17 13:21:22.18	4.96	19.78	-36.7	-37.6	21.8	0.00e+00	0	43	0	3694133248	42	4314
2026-01-17 13:21:23.47	4.78	19.64	-37.0	-37.9	21.6	0.00e+00	0	43	0	3703570432	43	4205
2026-01-17 13:21:24.19	4.68	19.57	-37.0	-37.9	21.6	0.00e+00	0	43	0	3707764736	43	4198
2026-01-17 13:21:25.47	4.50	19.43	-37.1	-38.0	21.4	0.00e+00	0	43	0	3717201920	43	4254
2026-01-17 13:21:26.20	4.40	19.36	-37.2	-38.1	21.4	0.00e+00	0	43	0	3722444800	43	4313
2026-01-17 13:21:27.48	4.22	19.22	-37.1	-38.0	21.5	0.00e+00	0	42	0	3731881984	43	4274
2026-01-17 13:21:28.19	4.12	19.15	-37.1	-38.0	21.5	0.00e+00	0	43	0	3737124864	43	4262
2026-01-17 13:21:29.47	3.95	19.02	-37.0	-37.9	21.5	0.00e+00	0	43	0	3746562048	43	4241
2026-01-17 13:21:30.18	3.85	18.94	-37.1	-38.0	21.5	0.00e+00	0	43	0	3751804928	43	4251
2026-01-17 13:21:31.46	3.68	18.81	-37.2	-38.1	21.4	0.00e+00	0	42	0	3761242112	43	4310
2026-01-17 13:21:32.17	3.59	18.74	-37.1	-38.0	21.5	0.00e+00	0	43	0	3766484992	43	4266
2026-01-17 13:21:33.45	3.42	18.60	-37.2	-38.1	21.4	0.00e+00	0	43	0	3774873600	43	4313
2026-01-17 13:21:34.18	3.32	18.53	-37.2	-38.1	21.4	0.00e+00	0	43	0	3780116480	43	4314
2026-01-17 13:21:35.46	3.16	18.40	-37.5	-38.4	21.2	0.00e+00	0	43	0	3789553664	44	4226
2026-01-17 13:21:36.18	3.06	18.32	-37.5	-38.4	21.2	0.00e+00	0	43	0	3794796544	44	4237
2026-01-17 13:21:37.46	2.90	18.19	-37.5	-38.5	21.2	0.00e+00	0	43	0	3804233728	44	4246
2026-01-17 13:21:38.17	2.81	18.12	-37.4	-38.4	21.2	0.00e+00	0	43	0	3809476608	44	4218
2026-01-17 13:21:39.70	2.61	17.97	-37.6	-38.5	21.1	0.00e+00	0	43	0	3819962368	44	4273
2026-01-17 13:21:40.42	2.52	17.89	-37.5	-38.4	21.2	0.00e+00	0	43	0	3825205248	44	4226
2026-01-17 13:21:41.70	2.36	17.77	-37.4	-38.3	21.3	0.00e+00	0	43	0	3834642432	44	4155
2026-01-17 13:21:42.41	2.28	17.69	-37.5	-38.4	21.2	0.00e+00	0	43	0	3839885312	44	4204
2026-01-17 13:21:43.68	2.12	17.57	-37.5	-38.4	21.3	0.00e+00	0	43	0	3849322496	44	4212
2026-01-17 13:21:44.41	2.03	17.49	-37.5	-38.4	21.2	0.00e+00	0	42	0	3854565376	44	4241
2026-01-17 13:21:45.69	1.87	17.37	-37.5	-38.4	21.3	0.00e+00	0	43	0	3862953984	44	4207
2026-01-17 13:21:46.41	1.79	17.29	-37.5	-38.4	21.1	0.00e+00	0	42	0	3869245440	44	4242
2026-01-17 13:21:47.69	1.63	17.17	-37.4	-38.3	21.3	0.00e+00	0	43	0	3877634048	44	4193
2026-01-17 13:21:48.42	1.55	17.10	-37.5	-38.4	21.2	0.00e+00	0	43	0	3882876928	44	4239
2026-01-17 13:21:49.70	1.39	16.97	-37.6	-38.5	21.1	0.00e+00	0	42	0	3892314112	44	4281
2026-01-17 13:21:50.42	1.31	16.90	-37.7	-38.6	21.1	0.00e+00	0	43	0	3897556992	44	4321
2026-01-17 13:21:51.70	1.16	16.77	-37.7	-38.6	21.0	0.00e+00	0	42	0	3906994176	44	4327
2026-01-17 13:21:52.42	1.08	16.70	-37.8	-38.7	21.0	0.00e+00	0	43	0	3912237056	44	4366
2026-01-17 13:21:53.69	0.93	16.58	-37.7	-38.7	21.0	0.00e+00	0	43	0	3921674240	45	4111
2026-01-17 13:21:54.64	0.82	16.49	-37.9	-38.8	20.9	0.00e+00	0	43	0	3927965696	45	4175
2026-01-17 13:21:55.95	0.67	16.36	-37.9	-38.9	20.8	0.00e+00	0	43	0	3937402880	45	4214
2026-01-17 13:21:56.68	0.59	16.29	-37.9	-38.9	20.7	0.00e+00	0	43	0	3942645760	45	4225
2026-01-17 13:21:57.96	0.45	16.17	-38.0	-39.0	20.7	0.00e+00	0	43	0	3952082944	45	4261
2026-01-17 13:21:58.68	0.37	16.10	-38.0	-39.0	20.7	0.00e+00	0	43	0	3957325824	45	4243
2026-01-17 13:21:59.96	0.23	15.97	-38.0	-39.0	20.6	0.00e+00	0	43	0	3966763008	45	4291
2026-01-17 13:22:00.67	0.15	15.91	-38.0	-39.0	20.7	0.00e+00	0	43	0	3972005888	45	4280
2026-01-17 13:22:01.95	0.01	15.78	-38.2	-39.2	20.5	0.00e+00	0	43	0	3980394496	45	4351
2026-01-17 13:22:02.68	359.93	15.71	-38.2	-39.1	20.5	0.00e+00	0	43	0	3985637376	45	4339
2026-01-17 13:22:03.96	359.79	15.59	-38.3	-39.3	20.4	0.00e+00	0	43	0	3995074560	45	4392
2026-01-17 13:22:04.68	359.71	15.52	-38.2	-39.2	20.5	0.00e+00	0	43	0	4000317440	46	4113
2026-01-17 13:22:05.96	359.58	15.40	-38.3	-39.2	20.4	0.00e+00	0	43	0	4009754624	46	4142
2026-01-17 13:22:06.67	359.50	15.34	-38.2	-39.2	20.5	0.00e+00	0	42	0	4014997504	46	4116
2026-01-17 13:22:08.05	359.36	15.21	-38.4	-39.3	20.3	0.00e+00	0	43	0	4024434688	46	4192
2026-01-17 13:22:08.76	359.29	15.14	-38.2	-39.2	20.5	0.00e+00	0	43	0	4029677568	46	4117
2026-01-17 13:22:10.04	359.15	15.02	-38.3	-39.2	20.5	0.00e+00	0	43	0	4039114752	46	4138
2026-01-17 13:22:10.76	359.08	14.96	-38.2	-39.2	20.4	0.00e+00	0	43	0	4044357632	46	4138
2026-01-17 13:22:12.15	358.94	14.83	-38.3	-39.3	20.4	0.00e+00	0	42	0	4054843392	46	4162
2026-01-17 13:22:12.86	358.86	14.76	-38.3	-39.2	20.5	0.00e+00	0	42	0	4060086272	46	4142
2026-01-17 13:22:14.21	358.73	14.64	-38.3	-39.3	20.4	0.00e+00	0	43	0	4069523456	46	4156
2026-01-17 13:22:14.92	358.66	14.57	-38.4	-39.4	20.3	0.00e+00	0	43	0	4074766336	46	4232
2026-01-17 13:22:16.20	358.53	14.45	-38.5	-39.5	20.2	0.00e+00	0	43	0	4083154944	46	4257
2026-01-17 13:22:16.92	358.46	14.39	-38.5	-39.5	20.2	0.00e+00	0	43	0	4089446400	46	4249
2026-01-17 13:22:18.20	358.33	14.27	-38.6	-39.6	20.1	0.00e+00	0	43	0	4097835008	46	4308
2026-01-17 13:22:18.93	358.26	14.21	-38.7	-39.7	20.0	0.00e+00	0	42	0	4103077888	46	4363
2026-01-17 13:22:20.21	358.14	14.09	-38.7	-39.7	20.0	0.00e+00	0	43	0	4112515072	47	4140
2026-01-17 13:22:20.93	358.07	14.02	-38.8	-39.8	19.9	0.00e+00	0	43	0	4117757952	47	4176
2026-01-17 13:22:22.21	357.95	13.91	-38.9	-40.0	19.7	0.00e+00	0	43	0	4127195136	47	4254
2026-01-17 13:22:22.98	357.87	13.84	-39.1	-40.2	19.6	0.00e+00	0	43	0	4132438016	47	4348
2026-01-17 13:22:24.26	357.75	13.73	-39.0	-40.0	19.7	0.00e+00	0	43	0	4141875200	47	4285
2026-01-17 13:22:24.97	357.69	13.66	-39.2	-40.3	19.4	0.00e+00	0	43	0	4147118080	47	4401
2026-01-17 13:22:26.25	357.57	13.55	-39.1	-40.2	19.5	0.00e+00	0	43	0	4156555264	47	4369
2026-01-17 13:22:27.07	357.49	13.48	-39.1	-40.1	19.5	0.00e+00	0	43	0	4161798144	47	4338
2026-01-17 13:22:28.21	357.38	13.37	-39.1	-40.1	19.6	0.00e+00	0	43	0	4170186752	47	4324
2026-01-17 13:22:29.06	357.31	13.30	-39.1	-40.2	19.6	0.00e+00	0	43	0	4176478208	47	4342
2026-01-17 13:22:30.20	357.20	13.20	-39.2	-40.3	19.5	0.00e+00	0	43	0	4184866816	47	4408
2026-01-17 13:22:31.05	357.13	13.12	-39.0	-40.1	19.7	0.00e+00	0	43	0	4191158272	47	4293
2026-01-17 13:22:32.18	357.02	13.03	-38.8	-39.8	19.8	0.00e+00	0	43	0	4199546880	47	4191
2026-01-17 13:22:33.04	356.95	12.95	-38.9	-39.9	19.8	0.00e+00	0	43	0	4204789760	47	4209
2026-01-17 13:22:34.17	356.85	12.85	-38.8	-39.9	19.8	0.00e+00	0	43	0	4213178368	47	4207
2026-01-17 13:22:35.03	356.77	12.78	-38.7	-39.7	19.9	0.00e+00	0	43	0	4219469824	47	4130
2026-01-17 13:22:36.16	356.67	12.68	-38.7	-39.7	19.9	0.00e+00	0	43	0	4227858432	47	4142
2026-01-17 13:22:37.02	356.60	12.61	-38.6	-39.6	20.0	0.00e+00	0	43	0	4234149888	47	4085
2026-01-17 13:22:38.15	356.50	12.51	-38.5	-39.6	20.1	0.00e+00	0	43	0	4242538496	47	4061
2026-01-17 13:22:39.02	356.42	12.43	-38.5	-39.6	20.0	0.00e+00	0	43	0	4248829952	47	4088
2026-01-17 13:22:40.16	356.33	12.34	-38.6	-39.7	19.9	0.00e+00	0	43	0	4257218560	47	4133
2026-01-17 13:22:41.01	356.25	12.26	-38.4	-39.5	20.1	0.00e+00	0	43	0	4262461440	47	4040
2026-01-17 13:22:42.15	356.16	12.17	-38.4	-39.6	20.1	0.00e+00	0	43	0	4270850048	47	4061
2026-01-17 13:22:43.00	356.09	12.09	-38.6	-39.8	19.9	0.00e+00	0	43	0	4277141504	47	4152
2026-01-17 13:22:44.14	355.99	12.00	-38.7	-39.8	19.8	0.00e+00	0	43	0	4285530112	47	4182
2026-01-17 13:22:44.99	355.92	11.93	-38.6	-39.7	19.8	0.00e+00	0	43	0	4291821568	47	4143
2026-01-17 13:22:46.13	355.83	11.83	-38.7	-39.9	19.8	0.00e+00	0	43	0	4300210176	47	4198
2026-01-17 13:22:46.99	355.76	11.76	-38.7	-39.9	19.8	0.00e+00	0	43	0	4305453056	47	4199
2026-01-17 13:22:48.12	355.66	11.66	-38.8	-40.0	19.7	0.00e+00	0	43	0	4313841664	47	4255
2026-01-17 13:22:48.97	355.59	11.59	-39.0	-40.2	19.5	0.00e+00	0	43	0	4320133120	47	4344
2026-01-17 13:22:50.11	355.50	11.50	-39.1	-40.2	19.4	0.00e+00	0	43	0	4328521728	47	4387
2026-01-17 13:22:50.96	355.43	11.43	-39.0	-40.2	19.5	0.00e+00	0	43	0	4334813184	47	4352
2026-01-17 13:22:52.10	355.34	11.33	-39.1	-40.3	19.4	0.00e+00	0	43	0	4343201792	47	4416
2026-01-17 13:22:52.96	355.28	11.26	-39.3	-40.5	19.2	0.00e+00	0	43	0	4348444672	47	4501
2026-01-17 13:22:54.09	355.19	11.17	-39.6	-40.8	19.2	0.00e+00	0	43	0	4356833280	48	4405
2026-01-17 13:22:54.94	355.12	11.10	-39.2	-40.4	19.5	0.00e+00	0	43	0	4363124736	48	4209
2026-01-17 13:22:56.08	355.03	11.00	-39.3	-40.5	19.4	0.00e+00	0	43	0	4371513344	48	4272
2026-01-17 13:22:56.93	354.97	10.93	-39.2	-40.5	19.4	0.00e+00	0	43	0	4377804800	48	4262
2026-01-17 13:22:58.07	354.88	10.84	-39.1	-40.5	19.4	0.00e+00	0	43	0	4386193408	48	4263
2026-01-17 13:22:58.92	354.81	10.77	-39.2	-40.6	19.3	0.00e+00	0	43	0	4392484864	48	4327
2026-01-17 13:23:00.05	354.73	10.68	-39.1	-40.6	19.4	0.00e+00	0	43	0	4399824896	48	4299
2026-01-17 13:23:00.91	354.66	10.61	-39.1	-40.6	19.3	0.00e+00	0	43	0	4406116352	48	4319
2026-01-17 13:23:02.04	354.58	10.52	-39.1	-40.7	19.3	0.00e+00	0	43	0	4414504960	48	4351
2026-01-17 13:23:02.90	354.51	10.45	-39.1	-40.7	19.3	0.00e+00	0	43	0	4420796416	48	4347
2026-01-17 13:23:04.03	354.43	10.36	-39.1	-40.6	19.3	0.00e+00	0	43	0	4429185024	48	4330
2026-01-17 13:23:04.89	354.36	10.29	-39.4	-40.9	19.0	0.00e+00	0	43	0	4435476480	48	4458
2026-01-17 13:23:06.12	354.27	10.19	-39.3	-40.8	19.1	0.00e+00	0	43	0	4443865088	48	4413
2026-01-17 13:23:06.97	354.21	10.12	-39.4	-40.9	19.0	0.00e+00	0	43	0	4450156544	48	4477
2026-01-17 13:23:08.11	354.13	10.03	-39.4	-40.9	19.0	0.00e+00	0	43	0	4458545152	48	4481
2026-01-17 13:23:08.96	354.07	9.97	-39.3	-40.9	19.0	0.00e+00	0	43	0	4464836608	48	4469
2026-01-17 13:23:10.09	353.99	9.88	-39.4	-41.0	18.9	0.00e+00	0	43	0	4472176640	48	4523
2026-01-17 13:23:10.98	353.92	9.81	-39.4	-41.0	18.8	0.00e+00	0	43	0	4479516672	48	4543
2026-01-17 13:23:12.11	353.84	9.72	-39.2	-40.9	19.0	0.00e+00	0	43	0	4487905280	48	4471
2026-01-17 13:23:12.96	353.78	9.65	-39.3	-41.1	18.8	0.00e+00	0	43	0	4493148160	48	4576
2026-01-17 13:23:14.10	353.70	9.56	-39.2	-41.0	18.9	0.00e+00	0	43	0	4501536768	48	4495
2026-01-17 13:23:14.95	353.64	9.50	-39.3	-41.1	18.8	0.00e+00	0	43	0	4507828224	48	4564
2026-01-17 13:23:16.09	353.56	9.41	-39.4	-41.2	18.7	0.00e+00	0	43	0	4516216832	48	4602
2026-01-17 13:23:16.95	353.51	9.34	-39.4	-41.0	18.8	0.00e+00	0	43	0	4522508288	48	4536
2026-01-17 13:23:18.08	353.43	9.25	-39.4	-41.0	18.9	0.00e+00	0	43	0	4530896896	48	4500
2026-01-17 13:23:18.94	353.37	9.19	-39.4	-41.0	18.9	0.00e+00	0	43	0	4536139776	48	4523
2026-01-17 13:23:20.08	353.29	9.10	-39.5	-41.0	18.9	0.00e+00	0	43	0	4544528384	48	4524
2026-01-17 13:23:20.93	353.23	9.03	-39.7	-41.1	18.7	0.00e+00	0	43	0	4550819840	48	4592
2026-01-17 13:23:22.06	353.16	8.95	-47.2	-59.7	3.8	6.28e-02	0	43	104	4558159872	63	16348
2026-01-17 13:23:22.92	353.10	8.88	-48.2	-61.2	3.8	8.47e-01	0	43	104	4558159872	67	15412
2026-01-17 13:23:24.05	353.03	8.79	-49.7	-61.3	3.8	8.47e-01	0	43	104	4558159872	70	13230
2026-01-17 13:23:24.90	352.97	8.73	-50.2	-61.6	3.8	8.46e-01	0	43	104	4558159872	70	13597
2026-01-17 13:23:26.04	352.90	8.64	-50.6	-61.8	3.8	8.47e-01	0	43	104	4558159872	71	13128
2026-01-17 13:23:26.89	352.84	8.58	-50.5	-61.8	3.8	8.47e-01	0	43	104	4558159872	71	13153
2026-01-17 13:23:28.02	352.77	8.49	-50.9	-61.7	3.8	8.48e-01	0	43	104	4558159872	71	13086
2026-01-17 13:23:28.87	352.71	8.43	-50.9	-61.8	3.8	8.46e-01	0	43	104	4558159872	71	13230
2026-01-17 13:23:30.01	352.64	8.34	-50.6	-61.9	3.8	8.47e-01	0	43	104	4558159872	71	13269
2026-01-17 13:23:30.86	352.58	8.28	-51.0	-61.9	3.8	8.46e-01	0	43	104	4558159872	71	13286
2026-01-17 13:23:32.00	352.51	8.20	-51.0	-61.9	3.8	8.46e-01	0	43	104	4558159872	71	13266
2026-01-17 13:23:32.85	352.46	8.13	-51.0	-61.9	3.8	8.46e-01	0	43	104	4558159872	71	13380
2026-01-17 13:23:33.98	352.39	8.05	-50.9	-61.9	3.8	8.46e-01	0	43	104	4558159872	71	13310
2026-01-17 13:23:34.83	352.33	7.99	-51.1	-61.9	3.8	8.47e-01	0	43	104	4558159872	71	13285
2026-01-17 13:23:35.97	352.26	7.90	-51.1	-61.9	3.8	8.47e-01	0	43	104	4558159872	71	13345
2026-01-17 13:23:36.82	352.21	7.84	-51.2	-61.9	3.8	8.47e-01	0	43	104	4558159872	71	13414
2026-01-17 13:23:37.96	352.14	7.75	-51.2	-62.0	3.8	8.46e-01	0	43	104	4558159872	71	13515
2026-01-17 13:23:38.81	352.09	7.69	-51.1	-61.9	3.8	8.46e-01	0	43	104	4558159872	71	13394
2026-01-17 13:23:39.94	352.02	7.61	-51.0	-62.0	3.8	8.46e-01	0	43	104	4558159872	71	13446
