passes_logs/2026/01/17/T1/T1__20260117_095843_NOAA_21_JPSS-2_rec.log

#Pass ID: 20260117_095843_NOAA 21 (JPSS-2)
#Satellite: NOAA 21 (JPSS-2)
#Configuration: NOAA 21
#almurnet v.1.7.20251203
#Start time: 2026-01-17 09:58:44

#Version: 2.0.20230620
#Station: T1
#Location: 37.570604 lon 55.790049 lat
#TLE: 1 54234U 22150A   26016.21096038  .00000027  00000+0  33607-4 0  9993
#TLE: 2 54234  98.7500 317.0960 0000625 282.3388  77.7718 14.19534911164985

#Time	Az	El	Level	Level2	SNR	BER	BlckErr	Temp	State	Recorded	gain1	gain2
2026-01-17 09:58:44.97	161.89	5.09	-49.8	-63.0	3.8	1.49e+00	0	39	0	0	71	16186
2026-01-17 09:58:45.96	161.89	5.16	-49.8	-62.7	3.8	1.49e+00	0	39	104	0	71	15758
2026-01-17 09:58:46.95	161.90	5.24	-49.8	-62.7	3.8	1.49e+00	0	40	104	0	71	15730
2026-01-17 09:58:47.94	161.90	5.31	-49.8	-62.8	3.8	1.49e+00	0	40	104	0	71	15882
2026-01-17 09:58:48.94	161.91	5.38	-49.8	-62.8	3.8	1.49e+00	0	39	104	0	71	15813
2026-01-17 09:58:49.93	161.91	5.45	-49.8	-62.9	3.8	1.49e+00	0	40	104	0	71	15976
2026-01-17 09:58:50.92	161.92	5.52	-49.8	-63.0	3.8	1.49e+00	0	40	104	0	71	16173
2026-01-17 09:58:51.92	161.92	5.60	-49.8	-63.0	3.8	1.49e+00	0	40	104	0	71	16301
2026-01-17 09:58:52.91	161.93	5.67	-49.8	-63.1	3.8	1.49e+00	0	40	104	0	71	16357
2026-01-17 09:58:53.90	161.93	5.74	-49.8	-63.1	3.8	1.49e+00	0	40	104	0	71	16418
2026-01-17 09:58:54.89	161.93	5.82	-49.8	-63.0	3.8	1.49e+00	0	40	104	0	71	16283
2026-01-17 09:58:55.89	161.94	5.89	-49.8	-62.8	3.8	1.49e+00	0	40	104	0	71	15936
2026-01-17 09:58:56.88	161.94	5.96	-49.8	-62.7	3.8	1.49e+00	0	40	104	0	71	15587
2026-01-17 09:58:57.87	161.95	6.04	-49.8	-62.4	3.8	1.49e+00	0	40	104	0	71	15117
2026-01-17 09:58:58.87	161.95	6.11	-49.7	-62.0	3.8	1.49e+00	0	40	104	0	71	14532
2026-01-17 09:58:59.86	161.96	6.19	-49.7	-61.9	3.8	1.49e+00	0	40	104	0	71	14310
2026-01-17 09:59:00.85	161.96	6.26	-49.7	-61.6	3.8	1.49e+00	0	40	104	0	71	13882
2026-01-17 09:59:01.85	161.97	6.34	-49.7	-61.6	3.8	1.49e+00	0	40	104	0	71	13811
2026-01-17 09:59:02.84	161.97	6.41	-49.7	-61.6	3.8	1.49e+00	0	40	104	0	71	13851
2026-01-17 09:59:03.83	161.98	6.49	-49.7	-61.7	3.8	1.49e+00	0	40	104	0	71	13985
2026-01-17 09:59:04.83	161.98	6.56	-49.7	-62.0	3.8	1.49e+00	0	40	104	0	71	14496
2026-01-17 09:59:05.82	161.99	6.64	-49.7	-62.2	3.8	1.49e+00	0	40	104	0	71	14820
2026-01-17 09:59:06.81	161.99	6.71	-49.8	-62.5	3.8	1.49e+00	0	40	104	0	71	15252
2026-01-17 09:59:07.81	161.99	6.79	-49.8	-62.7	3.8	1.49e+00	0	40	104	0	71	15703
2026-01-17 09:59:08.80	162.00	6.87	-49.8	-63.0	3.8	1.49e+00	0	40	104	0	71	16142
2026-01-17 09:59:09.79	162.00	6.94	-49.8	-63.1	3.8	1.49e+00	0	41	104	0	71	16332
2026-01-17 09:59:10.79	162.01	7.02	-49.8	-63.1	3.8	1.49e+00	0	40	104	0	71	16386
2026-01-17 09:59:11.78	162.01	7.10	-49.8	-63.1	3.8	1.49e+00	0	41	104	0	71	16317
2026-01-17 09:59:12.77	162.02	7.18	-49.8	-63.0	3.8	1.49e+00	0	40	104	0	71	16196
2026-01-17 09:59:13.77	162.02	7.25	-49.8	-62.8	3.8	1.49e+00	0	41	104	0	71	15770
2026-01-17 09:59:14.76	162.03	7.33	-49.7	-62.3	3.8	1.49e+00	0	41	104	0	71	14970
2026-01-17 09:59:15.75	162.03	7.41	-49.7	-61.5	3.8	1.49e+00	0	41	104	0	71	13708
2026-01-17 09:59:16.75	162.04	7.49	-49.5	-59.8	4.1	1.49e+00	0	41	104	0	71	11277
2026-01-17 09:59:17.74	162.04	7.57	-49.3	-58.1	4.7	1.30e+00	0	41	104	0	70	9787
2026-01-17 09:59:18.73	162.05	7.65	-48.9	-56.5	5.6	4.96e-01	0	41	0	0	69	8649
2026-01-17 09:59:19.73	162.05	7.72	-48.6	-55.0	6.8	2.91e-01	0	40	0	0	69	7278
2026-01-17 09:59:20.72	162.06	7.80	-48.0	-53.5	8.3	8.37e-02	0	41	0	0	68	6436
2026-01-17 09:59:21.71	162.06	7.88	-47.3	-52.0	9.6	1.72e-02	0	41	0	0	66	6115
2026-01-17 09:59:22.70	162.07	7.96	-46.8	-51.0	10.7	4.11e-03	0	41	0	0	65	5729
2026-01-17 09:59:23.70	162.07	8.04	-46.3	-50.0	11.7	9.16e-04	0	41	0	0	64	5414
2026-01-17 09:59:24.69	162.08	8.12	-45.9	-49.4	12.5	2.31e-04	0	41	0	0	63	5342
2026-01-17 09:59:25.68	162.08	8.20	-45.5	-48.7	13.1	5.56e-05	0	41	0	0	63	4959
2026-01-17 09:59:26.68	162.08	8.29	-45.3	-48.4	13.4	1.29e-05	0	41	0	0	62	5052
2026-01-17 09:59:27.67	162.09	8.37	-45.1	-48.1	13.7	3.80e-06	0	41	0	0	62	4881
2026-01-17 09:59:28.66	162.09	8.45	-45.0	-48.0	13.9	5.30e-06	0	41	0	0	62	4815
2026-01-17 09:59:29.66	162.10	8.53	-45.1	-48.1	13.7	9.90e-06	0	41	0	0	62	4910
2026-01-17 09:59:30.65	162.10	8.61	-45.4	-48.5	13.3	1.22e-05	0	41	0	0	62	5144
2026-01-17 09:59:31.65	162.11	8.69	-45.6	-48.9	12.9	3.66e-05	0	41	0	0	62	5358
2026-01-17 09:59:32.64	162.11	8.78	-46.2	-49.7	12.1	2.17e-04	0	41	0	0	62	5905
2026-01-17 09:59:33.63	162.12	8.86	-47.0	-51.2	8.0	7.91e-04	0	41	0	0	64	6213
2026-01-17 09:59:34.63	162.12	8.94	-47.1	-51.6	10.0	4.23e-03	0	41	0	0	64	6513
2026-01-17 09:59:35.62	162.13	9.03	-47.7	-52.9	8.6	2.58e-02	0	41	0	0	66	6791
2026-01-17 09:59:36.61	162.13	9.11	-45.8	-49.2	12.5	4.39e-02	0	41	0	0	63	5220
2026-01-17 09:59:37.61	162.14	9.19	-47.8	-53.3	8.6	1.52e-05	0	41	0	0	66	7066
2026-01-17 09:59:38.68	162.14	9.28	-47.0	-51.2	10.3	1.09e-01	0	41	0	0	66	5579
2026-01-17 09:59:39.58	162.15	9.36	-44.2	-46.8	15.0	2.65e-02	0	41	0	0	60	4717
2026-01-17 09:59:40.78	162.16	9.46	-49.3	-58.3	4.7	2.14e-01	0	41	0	0	69	10620
2026-01-17 09:59:41.64	162.16	9.54	-45.6	-48.8	12.9	3.16e-01	0	41	0	0	63	5006
2026-01-17 09:59:42.77	162.17	9.63	-43.2	-45.4	16.4	0.00e+00	0	41	0	0	58	4544
2026-01-17 09:59:43.62	162.17	9.71	-43.2	-45.4	16.3	0.00e+00	0	41	0	0	57	4810
2026-01-17 09:59:45.04	162.18	9.83	-43.1	-45.4	16.4	0.00e+00	0	41	0	0	57	4761
2026-01-17 09:59:45.75	162.18	9.89	-42.9	-45.1	16.7	0.00e+00	0	41	0	0	57	4617
2026-01-17 09:59:47.27	162.19	10.02	-42.7	-44.9	16.8	0.00e+00	0	41	0	0	57	4527
2026-01-17 09:59:47.98	162.19	10.09	-42.5	-44.6	17.1	0.00e+00	0	41	0	0	57	4346
2026-01-17 09:59:49.26	162.20	10.20	-42.1	-44.2	17.5	0.00e+00	0	41	0	0	56	4398
2026-01-17 09:59:49.97	162.20	10.26	-41.8	-43.8	17.7	0.00e+00	0	41	0	0	55	4472
2026-01-17 09:59:51.25	162.21	10.37	-41.6	-43.6	18.0	0.00e+00	0	41	0	0	55	4343
2026-01-17 09:59:52.00	162.21	10.44	-41.5	-43.5	18.0	0.00e+00	0	41	0	0	55	4311
2026-01-17 09:59:53.28	162.22	10.56	-41.5	-43.5	18.0	0.00e+00	0	41	0	0	54	4573
2026-01-17 09:59:53.99	162.22	10.62	-41.4	-43.4	18.1	0.00e+00	0	41	0	0	54	4514
2026-01-17 09:59:55.27	162.23	10.73	-41.4	-43.3	18.2	0.00e+00	0	41	0	0	54	4484
2026-01-17 09:59:55.98	162.23	10.80	-41.3	-43.3	18.2	0.00e+00	0	41	0	0	54	4447
2026-01-17 09:59:57.26	162.24	10.91	-41.5	-43.4	18.1	0.00e+00	0	41	0	0	54	4523
2026-01-17 09:59:57.97	162.25	10.98	-41.5	-43.4	18.1	0.00e+00	0	41	0	0	54	4521
2026-01-17 09:59:59.25	162.25	11.09	-41.3	-43.2	18.3	0.00e+00	0	41	0	0	54	4406
2026-01-17 09:59:59.96	162.26	11.16	-41.3	-43.2	18.3	0.00e+00	0	41	0	0	54	4435
2026-01-17 10:00:01.24	162.26	11.28	-41.3	-43.3	18.3	0.00e+00	0	41	0	0	54	4448
2026-01-17 10:00:01.97	162.27	11.34	-41.4	-43.3	18.2	0.00e+00	0	41	0	0	54	4471
2026-01-17 10:00:03.24	162.27	11.46	-41.2	-43.1	18.4	0.00e+00	0	41	0	0	54	4367
2026-01-17 10:00:03.95	162.28	11.53	-41.3	-43.1	18.4	0.00e+00	0	41	0	0	54	4391
2026-01-17 10:00:05.25	162.28	11.65	-41.1	-43.0	18.5	0.00e+00	0	41	0	0	54	4295
2026-01-17 10:00:05.96	162.29	11.72	-41.1	-42.9	18.6	0.00e+00	0	41	0	0	54	4289
2026-01-17 10:00:07.24	162.30	11.84	-41.1	-42.9	18.6	0.00e+00	0	41	0	0	54	4278
2026-01-17 10:00:07.95	162.30	11.90	-41.1	-42.9	18.6	0.00e+00	0	41	0	0	54	4283
2026-01-17 10:00:09.23	162.31	12.02	-40.9	-42.8	18.7	0.00e+00	0	41	0	0	53	4464
2026-01-17 10:00:09.95	162.31	12.09	-40.9	-42.7	18.7	0.00e+00	0	41	0	0	53	4438
2026-01-17 10:00:11.23	162.32	12.21	-40.9	-42.7	18.7	0.00e+00	0	41	0	0	53	4436
2026-01-17 10:00:11.94	162.32	12.28	-40.9	-42.8	18.7	0.00e+00	0	41	0	0	53	4458
2026-01-17 10:00:13.22	162.33	12.41	-40.9	-42.7	18.7	0.00e+00	0	41	0	0	53	4432
2026-01-17 10:00:13.93	162.33	12.47	-40.9	-42.7	18.7	0.00e+00	0	41	0	0	53	4422
2026-01-17 10:00:15.21	162.34	12.60	-40.9	-42.7	18.8	0.00e+00	0	41	0	0	53	4422
2026-01-17 10:00:16.10	162.35	12.68	-40.9	-42.7	18.8	0.00e+00	0	41	0	0	53	4434
2026-01-17 10:00:17.23	162.35	12.79	-40.8	-42.7	18.8	0.00e+00	0	41	0	0	53	4408
2026-01-17 10:00:18.26	162.36	12.90	-40.8	-42.6	18.9	0.00e+00	0	41	0	0	53	4358
2026-01-17 10:00:19.25	162.36	12.99	-40.7	-42.5	19.0	0.00e+00	0	41	0	0	53	4321
2026-01-17 10:00:20.25	162.37	13.09	-40.8	-42.6	18.9	0.00e+00	0	42	0	0	53	4360
2026-01-17 10:00:21.24	162.37	13.19	-40.7	-42.5	19.0	0.00e+00	0	41	0	0	53	4329
2026-01-17 10:00:22.24	162.38	13.29	-40.7	-42.5	19.0	0.00e+00	0	41	0	0	53	4330
2026-01-17 10:00:23.23	162.39	13.39	-40.8	-42.6	18.9	0.00e+00	0	42	0	0	53	4366
2026-01-17 10:00:24.23	162.39	13.49	-40.6	-42.4	19.1	0.00e+00	0	42	0	0	53	4280
2026-01-17 10:00:25.22	162.40	13.59	-40.7	-42.5	19.0	0.00e+00	0	41	0	0	53	4307
2026-01-17 10:00:26.22	162.40	13.69	-40.6	-42.4	19.0	0.00e+00	0	41	0	0	53	4284
2026-01-17 10:00:27.21	162.41	13.79	-40.6	-42.4	19.1	0.00e+00	0	41	0	0	53	4272
2026-01-17 10:00:28.21	162.42	13.89	-40.6	-42.4	19.1	0.00e+00	0	42	0	0	53	4252
2026-01-17 10:00:29.20	162.42	14.00	-40.7	-42.5	19.0	0.00e+00	0	41	0	0	53	4297
2026-01-17 10:00:30.20	162.43	14.10	-40.6	-42.4	19.1	0.00e+00	0	41	0	0	53	4274
2026-01-17 10:00:31.23	162.43	14.21	-40.6	-42.4	19.1	0.00e+00	0	42	0	0	53	4273
2026-01-17 10:00:32.24	162.44	14.31	-40.6	-42.4	19.0	0.00e+00	0	41	0	0	53	4285
2026-01-17 10:00:33.26	162.45	14.42	-40.5	-42.3	19.1	0.00e+00	0	42	0	0	53	4236
2026-01-17 10:00:34.26	162.45	14.52	-40.6	-42.4	19.1	0.00e+00	0	41	0	0	53	4257
2026-01-17 10:00:35.25	162.46	14.63	-40.7	-42.5	19.0	0.00e+00	0	42	0	0	53	4316
2026-01-17 10:00:36.25	162.46	14.73	-40.6	-42.4	19.0	0.00e+00	0	41	0	0	53	4285
2026-01-17 10:00:37.24	162.47	14.84	-40.5	-42.3	19.2	0.00e+00	0	42	0	0	53	4219
2026-01-17 10:00:38.24	162.48	14.95	-40.5	-42.3	19.2	0.00e+00	0	42	0	0	52	4464
2026-01-17 10:00:39.44	162.48	15.07	-40.5	-42.3	19.2	0.00e+00	0	42	0	0	52	4489
2026-01-17 10:00:40.32	162.49	15.17	-40.5	-42.3	19.2	0.00e+00	0	41	0	0	52	4487
2026-01-17 10:00:41.46	162.50	15.29	-40.6	-42.4	19.1	0.00e+00	0	41	0	0	52	4514
2026-01-17 10:00:42.32	162.50	15.39	-40.5	-42.3	19.2	0.00e+00	0	42	0	0	52	4491
2026-01-17 10:00:43.69	162.51	15.54	-40.6	-42.4	19.1	0.00e+00	0	42	0	0	52	4507
2026-01-17 10:00:44.40	162.51	15.61	-40.6	-42.4	19.2	0.00e+00	0	42	0	0	52	4501
2026-01-17 10:00:45.68	162.52	15.75	-40.6	-42.4	19.2	0.00e+00	0	42	0	0	52	4499
2026-01-17 10:00:46.39	162.53	15.83	-40.5	-42.3	19.2	0.00e+00	0	42	0	0	52	4488
2026-01-17 10:00:47.67	162.54	15.98	-40.6	-42.4	19.1	0.00e+00	0	42	0	0	52	4534
2026-01-17 10:00:48.43	162.54	16.06	-40.5	-42.3	19.2	0.00e+00	0	42	0	0	52	4493
2026-01-17 10:00:49.70	162.55	16.20	-40.6	-42.4	19.2	0.00e+00	0	42	0	0	52	4507
2026-01-17 10:00:50.42	162.55	16.28	-40.6	-42.4	19.2	0.00e+00	0	42	0	0	52	4519
2026-01-17 10:00:51.69	162.56	16.43	-40.6	-42.4	19.2	0.00e+00	0	42	0	0	52	4510
2026-01-17 10:00:52.40	162.57	16.51	-40.6	-42.5	19.1	0.00e+00	0	42	0	0	52	4547
2026-01-17 10:00:53.69	162.57	16.66	-40.6	-42.4	19.2	0.00e+00	0	42	0	0	52	4520
2026-01-17 10:00:54.40	162.58	16.74	-40.6	-42.4	19.1	0.00e+00	0	41	0	0	52	4533
2026-01-17 10:00:55.68	162.59	16.89	-40.6	-42.4	19.2	0.00e+00	0	42	0	0	52	4524
2026-01-17 10:00:56.40	162.59	16.97	-40.6	-42.4	19.1	0.00e+00	0	42	0	0	52	4532
2026-01-17 10:00:57.68	162.60	17.12	-40.7	-42.6	19.0	0.00e+00	0	42	0	0	52	4599
2026-01-17 10:00:58.66	162.61	17.23	-40.7	-42.5	19.0	0.00e+00	0	42	0	0	52	4583
2026-01-17 10:00:59.95	162.62	17.39	-40.8	-42.6	19.0	0.00e+00	0	42	0	0	52	4627
2026-01-17 10:01:00.69	162.62	17.47	-40.9	-42.8	18.8	0.00e+00	0	42	0	0	52	4713
2026-01-17 10:01:01.97	162.63	17.63	-40.7	-42.5	19.1	0.00e+00	0	42	0	0	52	4577
2026-01-17 10:01:02.68	162.63	17.71	-40.7	-42.5	19.0	0.00e+00	0	42	0	0	52	4597
2026-01-17 10:01:03.96	162.64	17.87	-40.8	-42.6	19.0	0.00e+00	0	42	0	0	52	4617
2026-01-17 10:01:04.70	162.65	17.96	-40.8	-42.6	19.0	0.00e+00	0	42	0	0	52	4611
2026-01-17 10:01:05.98	162.66	18.11	-40.7	-42.5	19.0	0.00e+00	0	42	0	0	52	4598
2026-01-17 10:01:06.69	162.66	18.20	-40.7	-42.5	19.1	0.00e+00	0	42	0	0	52	4556
2026-01-17 10:01:08.03	162.67	18.36	-40.7	-42.5	19.1	0.00e+00	0	42	0	0	52	4592
2026-01-17 10:01:08.74	162.68	18.45	-40.7	-42.5	19.1	0.00e+00	0	42	0	0	52	4573
2026-01-17 10:01:10.05	162.69	18.61	-40.7	-42.5	19.2	0.00e+00	0	42	0	0	52	4561
2026-01-17 10:01:10.76	162.69	18.70	-40.8	-42.6	19.1	0.00e+00	0	42	0	0	52	4604
2026-01-17 10:01:12.07	162.70	18.86	-40.7	-42.5	19.1	0.00e+00	0	42	0	0	52	4573
2026-01-17 10:01:12.78	162.70	18.95	-40.8	-42.6	19.0	0.00e+00	0	42	0	0	52	4614
2026-01-17 10:01:14.14	162.71	19.13	-40.7	-42.5	19.2	0.00e+00	0	42	0	0	52	4552
2026-01-17 10:01:14.85	162.72	19.22	-40.6	-42.4	19.2	0.00e+00	0	41	0	0	52	4524
2026-01-17 10:01:16.19	162.73	19.39	-40.6	-42.4	19.2	0.00e+00	0	42	0	0	52	4534
2026-01-17 10:01:16.90	162.73	19.48	-40.6	-42.4	19.3	0.00e+00	0	42	0	0	52	4510
2026-01-17 10:01:18.23	162.74	19.65	-40.6	-42.4	19.2	0.00e+00	0	42	0	0	52	4534
2026-01-17 10:01:18.94	162.75	19.74	-40.5	-42.3	19.4	0.00e+00	0	42	0	0	52	4459
2026-01-17 10:01:20.25	162.76	19.91	-40.6	-42.3	19.3	0.00e+00	0	42	0	0	52	4486
2026-01-17 10:01:20.96	162.76	20.01	-40.6	-42.3	19.3	0.00e+00	0	42	0	0	52	4480
2026-01-17 10:01:22.24	162.77	20.18	-40.5	-42.2	19.4	0.00e+00	0	42	0	0	52	4433
2026-01-17 10:01:22.95	162.78	20.27	-40.5	-42.2	19.4	0.00e+00	0	42	0	0	52	4432
2026-01-17 10:01:24.23	162.79	20.44	-40.5	-42.2	19.4	0.00e+00	0	42	0	0	52	4438
2026-01-17 10:01:24.96	162.79	20.54	-40.4	-42.2	19.4	0.00e+00	0	42	0	0	52	4417
2026-01-17 10:01:26.24	162.80	20.71	-40.4	-42.1	19.5	0.00e+00	0	42	0	0	52	4389
2026-01-17 10:01:26.95	162.81	20.81	-40.4	-42.1	19.5	0.00e+00	0	42	0	0	52	4381
2026-01-17 10:01:28.23	162.82	20.98	-40.3	-42.1	19.5	0.00e+00	0	42	0	0	52	4358
2026-01-17 10:01:28.97	162.83	21.08	-40.3	-42.1	19.6	0.00e+00	0	42	0	0	52	4361
2026-01-17 10:01:30.25	162.84	21.26	-40.3	-42.0	19.6	0.00e+00	0	42	0	0	52	4325
2026-01-17 10:01:30.99	162.84	21.36	-40.2	-41.9	19.6	0.00e+00	0	42	0	0	52	4278
2026-01-17 10:01:32.27	162.85	21.54	-40.1	-41.8	19.8	0.00e+00	0	42	0	0	52	4198
2026-01-17 10:01:32.98	162.86	21.64	-40.0	-41.7	19.9	0.00e+00	0	42	0	0	51	4420
2026-01-17 10:01:34.26	162.87	21.82	-40.0	-41.7	19.9	0.00e+00	0	42	0	0	51	4403
2026-01-17 10:01:35.17	162.87	21.95	-39.9	-41.6	19.9	0.00e+00	0	42	0	0	51	4387
2026-01-17 10:01:36.17	162.88	22.09	-39.9	-41.6	20.0	0.00e+00	0	42	0	0	51	4375
2026-01-17 10:01:37.16	162.89	22.23	-39.9	-41.6	20.0	0.00e+00	0	42	0	0	51	4363
2026-01-17 10:01:38.16	162.90	22.38	-39.9	-41.6	20.0	0.00e+00	0	42	0	0	51	4385
2026-01-17 10:01:39.15	162.91	22.52	-39.8	-41.5	20.1	0.00e+00	0	42	0	0	51	4302
2026-01-17 10:01:40.15	162.92	22.67	-39.9	-41.6	20.1	0.00e+00	0	42	0	0	51	4346
2026-01-17 10:01:41.14	162.92	22.81	-39.7	-41.4	20.2	0.00e+00	0	42	0	0	51	4267
2026-01-17 10:01:42.14	162.93	22.96	-39.6	-41.3	20.3	0.00e+00	0	42	0	0	51	4230
2026-01-17 10:01:43.16	162.94	23.11	-39.6	-41.3	20.2	0.00e+00	0	42	0	0	51	4215
2026-01-17 10:01:44.19	162.95	23.26	-39.7	-41.3	20.2	0.00e+00	0	42	0	0	51	4241
2026-01-17 10:01:45.19	162.96	23.41	-39.6	-41.3	20.3	0.00e+00	0	42	0	0	51	4222
2026-01-17 10:01:46.24	162.97	23.57	-39.7	-41.3	20.3	0.00e+00	0	42	0	0	51	4237
2026-01-17 10:01:47.14	162.97	23.71	-39.6	-41.3	20.3	0.00e+00	0	42	0	0	51	4212
2026-01-17 10:01:48.39	162.99	23.90	-39.6	-41.2	20.4	0.00e+00	0	42	0	0	51	4189
2026-01-17 10:01:49.24	162.99	24.03	-39.5	-41.2	20.4	0.00e+00	0	42	0	0	50	4398
2026-01-17 10:01:50.38	163.00	24.21	-39.4	-41.1	20.5	0.00e+00	0	42	0	0	50	4362
2026-01-17 10:01:51.23	163.01	24.34	-39.5	-41.2	20.4	0.00e+00	0	42	0	0	50	4421
2026-01-17 10:01:52.37	163.02	24.52	-39.6	-41.2	20.4	0.00e+00	0	42	0	0	50	4440
2026-01-17 10:01:53.29	163.03	24.66	-39.6	-41.3	20.4	0.00e+00	0	42	0	0	50	4444
2026-01-17 10:01:54.46	163.04	24.85	-39.6	-41.3	20.4	0.00e+00	0	42	0	0	50	4458
2026-01-17 10:01:55.31	163.05	24.98	-39.8	-41.5	20.2	0.00e+00	0	42	0	0	50	4589
2026-01-17 10:01:56.44	163.06	25.16	-39.8	-41.5	20.2	0.00e+00	0	42	0	0	50	4558
2026-01-17 10:01:57.30	163.07	25.30	-39.9	-41.6	20.1	0.00e+00	0	42	0	0	50	4649
2026-01-17 10:01:58.43	163.08	25.49	-39.9	-41.6	20.2	0.00e+00	0	42	0	0	50	4599
2026-01-17 10:01:59.29	163.08	25.63	-39.8	-41.5	20.2	0.00e+00	0	42	0	0	50	4564
2026-01-17 10:02:00.43	163.10	25.81	-39.9	-41.6	20.1	0.00e+00	0	42	0	0	50	4613
2026-01-17 10:02:01.28	163.10	25.95	-40.0	-41.7	20.1	0.00e+00	0	42	0	0	50	4659
2026-01-17 10:02:02.42	163.11	26.14	-40.0	-41.7	20.1	0.00e+00	0	42	0	0	50	4662
2026-01-17 10:02:03.27	163.12	26.29	-40.1	-41.8	19.8	0.00e+00	0	42	0	0	50	4738
2026-01-17 10:02:04.41	163.13	26.48	-40.3	-42.0	19.7	0.00e+00	0	42	0	0	51	4582
2026-01-17 10:02:05.26	163.14	26.62	-40.3	-42.0	19.7	0.00e+00	0	42	0	0	51	4598
2026-01-17 10:02:06.39	163.15	26.81	-40.3	-42.0	19.8	0.00e+00	0	42	0	0	51	4572
2026-01-17 10:02:07.25	163.16	26.96	-40.4	-42.1	19.7	0.00e+00	0	42	0	0	51	4635
2026-01-17 10:02:08.49	163.17	27.18	-40.5	-42.2	19.6	0.00e+00	0	42	0	0	51	4692
2026-01-17 10:02:09.35	163.18	27.33	-40.6	-42.3	19.5	0.00e+00	0	42	0	0	51	4745
2026-01-17 10:02:10.48	163.19	27.52	-40.7	-42.5	19.3	0.00e+00	0	42	0	0	52	4546
2026-01-17 10:02:11.34	163.20	27.67	-40.8	-42.6	19.2	0.00e+00	0	42	0	0	52	4609
2026-01-17 10:02:12.60	163.22	27.90	-40.9	-42.6	19.2	0.00e+00	0	42	0	0	52	4644
2026-01-17 10:02:13.38	163.22	28.04	-40.9	-42.7	19.1	0.00e+00	0	42	0	0	52	4678
2026-01-17 10:02:14.66	163.24	28.27	-40.9	-42.7	19.1	0.00e+00	0	42	0	0	52	4675
2026-01-17 10:02:15.37	163.24	28.40	-40.9	-42.7	19.1	0.00e+00	0	42	0	0	52	4668
2026-01-17 10:02:16.65	163.26	28.63	-40.9	-42.6	19.2	0.00e+00	0	42	0	0	52	4643
2026-01-17 10:02:17.37	163.27	28.76	-40.9	-42.7	19.1	0.00e+00	0	42	0	0	52	4655
2026-01-17 10:02:18.65	163.28	29.00	-41.0	-42.8	19.0	0.00e+00	0	42	0	0	52	4716
2026-01-17 10:02:19.37	163.29	29.13	-41.0	-42.8	19.0	0.00e+00	0	42	0	0	52	4711
2026-01-17 10:02:20.65	163.30	29.37	-40.6	-42.3	19.4	0.00e+00	0	42	0	0	52	4484
2026-01-17 10:02:21.36	163.31	29.50	-40.6	-42.3	19.4	0.00e+00	0	42	0	0	52	4489
2026-01-17 10:02:22.65	163.32	29.75	-40.5	-42.2	19.4	0.00e+00	0	42	0	0	52	4428
2026-01-17 10:02:23.36	163.33	29.88	-40.4	-42.1	19.5	0.00e+00	0	42	0	0	52	4364
2026-01-17 10:02:24.64	163.35	30.13	-40.4	-42.1	19.5	0.00e+00	0	42	0	0	52	4369
2026-01-17 10:02:25.38	163.36	30.27	-40.3	-42.1	19.6	0.00e+00	0	42	0	0	52	4341
2026-01-17 10:02:26.66	163.37	30.52	-40.2	-41.9	19.7	0.00e+00	0	42	0	0	52	4262
2026-01-17 10:02:27.37	163.38	30.66	-40.2	-41.9	19.7	0.00e+00	0	42	0	0	52	4265
2026-01-17 10:02:28.65	163.39	30.91	-39.8	-41.5	20.1	0.00e+00	0	42	0	0	51	4301
2026-01-17 10:02:29.37	163.40	31.05	-39.8	-41.5	20.1	0.00e+00	0	42	0	0	51	4304
2026-01-17 10:02:30.75	163.42	31.33	-39.8	-41.4	20.1	0.00e+00	0	42	0	0	51	4291
2026-01-17 10:02:31.72	163.43	31.52	-39.8	-41.4	20.1	0.00e+00	0	42	0	0	51	4282
2026-01-17 10:02:32.71	163.44	31.73	-39.9	-41.6	20.0	0.00e+00	0	42	0	0	51	4355
2026-01-17 10:02:33.71	163.46	31.93	-40.1	-41.8	19.8	0.00e+00	0	42	0	0	51	4491
2026-01-17 10:02:34.70	163.47	32.13	-40.1	-41.8	19.9	0.00e+00	0	42	0	0	51	4463
2026-01-17 10:02:35.70	163.48	32.34	-40.3	-42.1	19.7	0.00e+00	0	42	0	0	51	4611
2026-01-17 10:02:36.70	163.49	32.55	-40.3	-42.1	19.7	0.00e+00	0	42	0	0	51	4617
2026-01-17 10:02:37.69	163.51	32.76	-40.5	-42.2	19.5	0.00e+00	0	42	0	0	51	4685
2026-01-17 10:02:38.69	163.52	32.97	-40.6	-42.4	19.4	0.00e+00	0	42	0	0	51	4801
2026-01-17 10:02:39.73	163.53	33.19	-40.6	-42.4	19.3	0.00e+00	0	42	0	0	52	4525
2026-01-17 10:02:40.72	163.55	33.40	-40.8	-42.6	19.1	0.00e+00	0	42	0	0	52	4606
2026-01-17 10:02:41.78	163.56	33.63	-41.0	-42.9	18.9	0.00e+00	0	42	0	0	52	4765
2026-01-17 10:02:42.65	163.57	33.82	-41.1	-42.9	18.9	0.00e+00	0	42	0	0	52	4801
2026-01-17 10:02:43.98	163.59	34.11	-41.3	-43.2	18.6	0.00e+00	0	42	0	0	53	4687
2026-01-17 10:02:44.69	163.60	34.27	-41.3	-43.1	18.7	0.00e+00	0	42	0	0	53	4647
2026-01-17 10:02:45.97	163.62	34.55	-41.6	-43.5	18.4	0.00e+00	0	42	0	0	53	4831
2026-01-17 10:02:46.69	163.63	34.71	-41.8	-43.7	18.2	0.00e+00	0	42	0	0	54	4676
2026-01-17 10:02:47.97	163.65	35.00	-42.0	-44.0	18.0	0.00e+00	0	42	0	0	54	4846
2026-01-17 10:02:48.68	163.66	35.16	-42.1	-44.1	17.8	0.00e+00	0	42	0	0	54	4907
2026-01-17 10:02:49.96	163.67	35.46	-42.4	-44.5	17.5	0.00e+00	0	42	0	0	55	4844
2026-01-17 10:02:50.67	163.69	35.62	-42.6	-44.6	17.4	0.00e+00	0	42	0	0	55	4919
2026-01-17 10:02:51.95	163.70	35.92	-42.8	-44.9	17.2	0.00e+00	0	42	0	0	56	4806
2026-01-17 10:02:52.66	163.71	36.08	-42.6	-44.7	17.5	0.00e+00	0	42	0	0	56	4661
2026-01-17 10:02:53.94	163.73	36.38	-42.7	-44.7	17.4	0.00e+00	0	42	0	0	56	4689
2026-01-17 10:02:54.65	163.75	36.55	-42.7	-44.8	17.4	0.00e+00	0	42	0	0	56	4708
2026-01-17 10:02:56.02	163.77	36.88	-42.5	-44.5	17.6	0.00e+00	0	42	0	0	56	4560
2026-01-17 10:02:56.73	163.78	37.05	-42.4	-44.4	17.7	0.00e+00	0	42	0	0	56	4516
2026-01-17 10:02:58.06	163.80	37.37	-42.4	-44.3	17.8	0.00e+00	0	42	0	0	56	4462
2026-01-17 10:02:59.02	163.81	37.61	-42.3	-44.2	17.8	0.00e+00	0	42	0	0	56	4440
2026-01-17 10:03:00.02	163.83	37.86	-42.1	-44.0	18.1	0.00e+00	0	42	0	0	56	4320
2026-01-17 10:03:01.02	163.85	38.10	-42.1	-43.9	18.1	0.00e+00	0	42	0	0	56	4290
2026-01-17 10:03:02.01	163.86	38.35	-42.1	-44.0	18.0	0.00e+00	0	42	0	0	56	4315
2026-01-17 10:03:03.00	163.88	38.60	-42.0	-43.9	18.0	0.00e+00	0	42	0	0	56	4280
2026-01-17 10:03:04.00	163.90	38.85	-41.7	-43.6	18.1	0.00e+00	0	42	0	0	55	4371
2026-01-17 10:03:05.00	163.92	39.11	-41.8	-43.6	18.1	0.00e+00	0	42	0	0	55	4381
2026-01-17 10:03:05.99	163.93	39.37	-41.9	-43.9	17.9	0.00e+00	0	42	0	0	55	4496
2026-01-17 10:03:06.99	163.95	39.62	-41.8	-43.7	18.1	0.00e+00	0	42	0	0	55	4411
2026-01-17 10:03:08.06	163.97	39.90	-41.8	-43.7	18.0	0.00e+00	0	42	0	0	55	4424
2026-01-17 10:03:08.93	163.99	40.13	-41.8	-43.6	18.1	0.00e+00	0	42	0	0	55	4383
2026-01-17 10:03:10.06	164.01	40.43	-41.9	-43.8	18.0	0.00e+00	0	42	0	0	55	4470
2026-01-17 10:03:10.92	164.02	40.66	-41.9	-43.9	18.0	0.00e+00	0	42	0	0	55	4512
2026-01-17 10:03:12.06	164.05	40.97	-41.9	-43.8	18.1	0.00e+00	0	42	0	0	55	4464
2026-01-17 10:03:12.91	164.06	41.20	-42.0	-43.9	18.0	0.00e+00	0	42	0	0	55	4516
2026-01-17 10:03:14.05	164.08	41.51	-42.1	-44.0	18.0	0.00e+00	0	42	0	0	55	4593
2026-01-17 10:03:14.90	164.10	41.75	-42.2	-44.2	17.8	0.00e+00	0	42	0	0	55	4662
2026-01-17 10:03:16.04	164.13	42.06	-42.6	-44.6	17.4	0.00e+00	0	42	0	0	55	4891
2026-01-17 10:03:16.89	164.14	42.30	-42.6	-44.6	17.5	0.00e+00	0	42	0	0	55	4891
2026-01-17 10:03:18.02	164.17	42.62	-42.8	-44.9	17.3	0.00e+00	0	42	0	0	56	4760
2026-01-17 10:03:18.88	164.18	42.86	-42.9	-45.0	17.2	0.00e+00	0	42	0	0	56	4821
2026-01-17 10:03:20.08	164.21	43.21	-43.0	-45.1	17.1	0.00e+00	0	42	0	0	56	4885
2026-01-17 10:03:20.93	164.23	43.45	-42.9	-44.9	17.3	0.00e+00	0	42	0	0	56	4787
2026-01-17 10:03:22.07	164.25	43.78	-43.1	-45.2	17.1	0.00e+00	0	42	0	0	56	4932
2026-01-17 10:03:22.92	164.27	44.03	-43.2	-45.3	16.9	0.00e+00	0	42	0	0	56	5003
2026-01-17 10:03:24.06	164.30	44.37	-43.3	-45.4	16.8	0.00e+00	0	42	0	0	57	4799
2026-01-17 10:03:24.99	164.32	44.64	-43.3	-45.4	16.8	0.00e+00	0	42	0	0	57	4791
2026-01-17 10:03:25.98	164.34	44.94	-43.4	-45.6	16.5	0.00e+00	0	42	0	0	57	4889
2026-01-17 10:03:26.98	164.37	45.24	-43.5	-45.8	16.3	0.00e+00	0	42	0	0	57	4993
2026-01-17 10:03:27.97	164.39	45.54	-43.5	-45.8	16.2	0.00e+00	0	42	0	0	57	5004
2026-01-17 10:03:28.96	164.42	45.85	-43.5	-45.7	16.2	0.00e+00	0	43	0	0	57	4958
2026-01-17 10:03:29.96	164.44	46.15	-43.6	-45.9	16.1	0.00e+00	0	42	0	0	57	5049
2026-01-17 10:03:30.95	164.47	46.46	-43.7	-46.0	16.1	0.00e+00	0	42	0	0	58	4827
2026-01-17 10:03:31.95	164.49	46.77	-43.6	-45.8	16.3	0.00e+00	0	42	0	0	58	4754
2026-01-17 10:03:32.94	164.52	47.09	-43.2	-45.4	16.6	0.00e+00	0	42	0	0	58	4525
2026-01-17 10:03:33.93	164.55	47.40	-43.0	-45.0	17.0	0.00e+00	0	42	0	0	58	4339
2026-01-17 10:03:34.93	164.57	47.72	-42.6	-44.6	17.5	0.00e+00	0	42	0	0	57	4350
2026-01-17 10:03:35.92	164.60	48.04	-42.4	-44.4	17.7	0.00e+00	0	42	0	0	56	4495
2026-01-17 10:03:36.92	164.63	48.37	-42.2	-44.1	18.0	0.00e+00	0	42	0	0	56	4377
2026-01-17 10:03:37.92	164.66	48.69	-42.2	-44.1	18.0	0.00e+00	0	42	0	0	56	4365
2026-01-17 10:03:38.91	164.69	49.02	-42.2	-44.1	17.9	0.00e+00	0	42	0	0	56	4384
2026-01-17 10:03:39.91	164.72	49.35	-42.2	-44.2	17.9	0.00e+00	0	42	0	0	56	4406
2026-01-17 10:03:40.90	164.75	49.68	-42.1	-44.1	18.0	0.00e+00	0	42	0	0	56	4349
2026-01-17 10:03:41.90	164.78	50.02	-42.2	-44.1	18.0	0.00e+00	0	42	0	0	56	4380
2026-01-17 10:03:42.90	164.81	50.36	-42.0	-43.9	18.2	0.00e+00	0	42	0	0	56	4271
2026-01-17 10:03:43.89	164.85	50.70	-41.8	-43.7	18.4	0.00e+00	0	42	0	0	55	4392
2026-01-17 10:03:44.88	164.88	51.04	-41.6	-43.5	18.5	0.00e+00	0	42	0	0	55	4311
2026-01-17 10:03:45.88	164.91	51.39	-41.7	-43.5	18.5	0.00e+00	0	42	0	0	55	4319
2026-01-17 10:03:46.87	164.95	51.73	-41.7	-43.6	18.3	0.00e+00	0	42	0	0	55	4351
2026-01-17 10:03:47.87	164.98	52.08	-41.7	-43.5	18.4	0.00e+00	0	42	0	0	55	4332
2026-01-17 10:03:48.86	165.02	52.44	-41.7	-43.6	18.3	0.00e+00	0	42	0	0	55	4344
2026-01-17 10:03:49.86	165.06	52.79	-41.7	-43.5	18.4	0.00e+00	0	42	0	0	55	4327
2026-01-17 10:03:50.94	165.10	53.18	-41.5	-43.4	18.5	0.00e+00	0	42	0	0	55	4274
2026-01-17 10:03:51.83	165.13	53.50	-41.6	-43.5	18.5	0.00e+00	0	42	0	0	55	4304
2026-01-17 10:03:52.97	165.18	53.92	-41.6	-43.5	18.5	0.00e+00	0	42	0	0	55	4308
2026-01-17 10:03:53.82	165.21	54.23	-41.7	-43.6	18.4	0.00e+00	0	42	0	0	55	4355
2026-01-17 10:03:54.96	165.26	54.66	-41.6	-43.5	18.4	0.00e+00	0	42	0	0	55	4296
2026-01-17 10:03:55.81	165.30	54.97	-41.4	-43.3	18.6	0.00e+00	0	42	0	0	54	4464
2026-01-17 10:03:56.94	165.34	55.40	-41.1	-42.9	19.0	0.00e+00	0	42	0	0	54	4249
2026-01-17 10:03:57.80	165.38	55.72	-40.5	-42.2	19.6	0.00e+00	0	42	0	0	53	4181
2026-01-17 10:03:58.93	165.44	56.15	-40.4	-42.1	19.7	0.00e+00	0	42	0	0	52	4344
2026-01-17 10:03:59.79	165.48	56.48	-40.5	-42.2	19.6	0.00e+00	0	42	0	0	52	4414
2026-01-17 10:04:00.92	165.53	56.92	-40.6	-42.3	19.4	0.00e+00	0	42	0	0	52	4486
2026-01-17 10:04:01.77	165.57	57.25	-40.6	-42.3	19.5	0.00e+00	0	42	0	0	52	4468
2026-01-17 10:04:02.97	165.63	57.72	-40.6	-42.4	19.4	0.00e+00	0	42	0	0	52	4516
2026-01-17 10:04:03.83	165.68	58.06	-40.7	-42.4	19.4	0.00e+00	0	42	0	0	52	4517
2026-01-17 10:04:05.03	165.74	58.53	-40.7	-42.5	19.3	0.00e+00	0	42	0	0	52	4571
2026-01-17 10:04:05.88	165.79	58.87	-40.6	-42.4	19.5	0.00e+00	0	42	0	0	52	4522
2026-01-17 10:04:07.02	165.86	59.33	-40.2	-41.9	19.8	0.00e+00	0	42	0	0	52	4290
2026-01-17 10:04:07.87	165.91	59.68	-40.0	-41.7	20.1	0.00e+00	0	42	0	0	51	4406
2026-01-17 10:04:09.01	165.97	60.14	-39.8	-41.5	20.2	0.00e+00	0	42	0	0	51	4314
2026-01-17 10:04:09.86	166.03	60.49	-39.7	-41.4	20.4	0.00e+00	0	42	0	0	51	4269
2026-01-17 10:04:11.00	166.10	60.96	-39.6	-41.2	20.5	0.00e+00	0	42	0	0	51	4183
2026-01-17 10:04:11.86	166.16	61.32	-39.6	-41.3	20.5	0.00e+00	0	42	0	0	51	4206
2026-01-17 10:04:13.00	166.24	61.79	-39.5	-41.2	20.5	0.00e+00	0	42	0	0	51	4157
2026-01-17 10:04:13.85	166.30	62.15	-39.5	-41.1	20.6	0.00e+00	0	42	0	0	50	4374
2026-01-17 10:04:14.99	166.38	62.63	-39.4	-41.0	20.7	0.00e+00	0	42	0	0	50	4337
2026-01-17 10:04:15.84	166.44	62.99	-39.3	-40.9	20.7	0.00e+00	0	42	0	0	50	4270
2026-01-17 10:04:16.97	166.53	63.48	-39.5	-41.1	20.6	0.00e+00	0	42	0	0	50	4369
2026-01-17 10:04:17.83	166.60	63.85	-39.6	-41.3	20.4	0.00e+00	0	42	0	0	50	4457
2026-01-17 10:04:18.97	166.70	64.34	-39.7	-41.4	20.4	0.00e+00	0	42	0	0	50	4522
2026-01-17 10:04:19.82	166.77	64.71	-39.7	-41.4	20.3	0.00e+00	0	42	0	0	50	4520
2026-01-17 10:04:20.95	166.87	65.20	-39.5	-41.2	20.4	0.00e+00	0	42	0	0	50	4405
2026-01-17 10:04:21.81	166.95	65.58	-39.3	-40.9	20.7	0.00e+00	0	42	0	0	50	4279
2026-01-17 10:04:22.95	167.07	66.09	-39.0	-40.6	21.1	0.00e+00	0	42	0	0	49	4350
2026-01-17 10:04:23.80	167.15	66.47	-38.9	-40.5	21.1	0.00e+00	0	42	0	0	49	4304
2026-01-17 10:04:24.94	167.27	66.98	-39.1	-40.7	20.8	0.00e+00	0	42	0	0	49	4437
2026-01-17 10:04:25.79	167.36	67.36	-39.3	-41.0	20.6	0.00e+00	0	42	0	0	49	4552
2026-01-17 10:04:26.92	167.49	67.87	-39.2	-40.8	20.7	0.00e+00	0	42	0	0	49	4490
2026-01-17 10:04:27.77	167.60	68.25	-39.1	-40.7	20.8	0.00e+00	0	42	0	0	49	4431
2026-01-17 10:04:28.91	167.74	68.77	-39.3	-40.9	20.7	0.00e+00	0	42	0	0	49	4537
2026-01-17 10:04:29.76	167.85	69.16	-39.3	-40.9	20.7	0.00e+00	0	42	0	0	49	4542
2026-01-17 10:04:30.90	168.00	69.69	-39.2	-40.8	20.7	0.00e+00	0	42	0	0	49	4489
2026-01-17 10:04:31.75	168.13	70.08	-39.2	-40.8	20.9	0.00e+00	0	42	0	0	49	4451
2026-01-17 10:04:32.89	168.30	70.61	-38.8	-40.4	21.2	0.00e+00	0	42	0	0	49	4259
2026-01-17 10:04:33.74	168.43	71.01	-38.6	-40.2	21.3	0.00e+00	0	42	0	0	49	4160
2026-01-17 10:04:34.94	168.63	71.57	-38.8	-40.4	21.1	0.00e+00	0	42	0	0	49	4247
2026-01-17 10:04:35.79	168.78	71.97	-38.6	-40.1	21.4	0.00e+00	0	42	0	0	49	4142
2026-01-17 10:04:36.93	168.99	72.51	-38.4	-40.0	21.5	0.00e+00	0	42	0	0	48	4299
2026-01-17 10:04:37.78	169.16	72.92	-38.5	-40.0	21.4	0.00e+00	0	42	0	0	48	4339
2026-01-17 10:04:39.09	169.43	73.54	-38.4	-39.9	21.4	0.00e+00	0	42	0	0	48	4286
2026-01-17 10:04:40.21	169.69	74.08	-38.8	-40.4	20.9	0.00e+00	0	42	0	0	48	4525
2026-01-17 10:04:41.07	169.89	74.49	-39.0	-40.6	20.6	0.00e+00	0	42	0	0	48	4643
2026-01-17 10:04:42.21	170.18	75.04	-38.9	-40.5	20.7	0.00e+00	0	42	0	0	48	4563
2026-01-17 10:04:43.06	170.41	75.45	-38.6	-40.2	21.1	0.00e+00	0	42	0	0	48	4433
2026-01-17 10:04:44.20	170.75	76.00	-38.4	-40.0	21.4	0.00e+00	0	42	0	0	48	4325
2026-01-17 10:04:45.05	171.01	76.42	-38.6	-40.2	21.2	0.00e+00	0	42	0	0	48	4418
2026-01-17 10:04:46.19	171.39	76.97	-38.8	-40.4	21.1	0.00e+00	0	42	0	0	48	4518
2026-01-17 10:04:47.04	171.70	77.39	-38.8	-40.3	21.1	0.00e+00	0	42	0	0	48	4486
2026-01-17 10:04:48.18	172.15	77.94	-38.7	-40.3	21.2	0.00e+00	0	42	0	0	48	4471
2026-01-17 10:04:49.03	172.51	78.36	-38.8	-40.4	21.1	0.00e+00	0	42	0	0	48	4534
2026-01-17 10:04:50.17	173.04	78.92	-39.0	-40.7	20.9	0.00e+00	0	42	0	0	48	4656
2026-01-17 10:04:51.02	173.47	79.34	-39.2	-40.8	20.8	0.00e+00	0	42	0	0	49	4471
2026-01-17 10:04:52.16	174.10	79.90	-39.0	-40.6	20.8	0.00e+00	0	42	0	0	49	4360
2026-01-17 10:04:53.23	174.77	80.43	-38.7	-40.2	21.2	0.00e+00	0	42	0	0	49	4189
2026-01-17 10:04:54.09	175.36	80.85	-38.7	-40.3	21.1	0.00e+00	0	42	0	0	49	4228
2026-01-17 10:04:55.22	176.22	81.40	-39.2	-40.8	20.8	0.00e+00	0	42	0	0	49	4465
2026-01-17 10:04:56.07	176.95	81.82	-39.4	-41.1	20.5	0.00e+00	0	42	0	0	49	4613
2026-01-17 10:04:57.21	178.05	82.38	-39.4	-41.0	20.5	0.00e+00	0	42	0	0	49	4586
2026-01-17 10:04:58.07	178.99	82.80	-39.5	-41.2	20.3	0.00e+00	0	42	0	0	49	4680
2026-01-17 10:04:59.20	180.42	83.35	-39.5	-41.3	20.3	0.00e+00	0	42	0	0	49	4707
2026-01-17 10:05:00.06	181.67	83.77	-39.5	-41.2	20.4	0.00e+00	0	42	0	0	49	4668
2026-01-17 10:05:01.19	183.59	84.31	-39.5	-41.2	20.4	0.00e+00	0	42	0	0	49	4660
2026-01-17 10:05:02.05	185.32	84.72	-39.1	-40.7	20.8	0.00e+00	0	42	0	0	49	4413
2026-01-17 10:05:03.18	188.04	85.25	-39.0	-40.6	20.8	0.00e+00	0	42	0	0	49	4380
2026-01-17 10:05:04.04	190.55	85.64	-39.0	-40.6	20.6	0.00e+00	0	42	0	0	49	4389
2026-01-17 10:05:05.17	194.62	86.14	-38.9	-40.6	20.7	0.00e+00	0	42	0	0	49	4346
2026-01-17 10:05:06.04	198.53	86.51	-39.0	-40.6	20.7	0.00e+00	0	42	0	0	49	4361
2026-01-17 10:05:07.18	205.07	86.97	-39.1	-40.8	20.3	0.00e+00	0	42	0	0	49	4456
2026-01-17 10:05:08.03	211.30	87.27	-39.6	-41.3	19.9	0.00e+00	0	42	0	0	49	4717
2026-01-17 10:05:09.17	221.98	87.62	-39.6	-41.3	19.9	0.00e+00	0	42	0	0	50	4473
2026-01-17 10:05:10.02	231.89	87.81	-39.4	-41.1	20.3	0.00e+00	0	42	0	0	50	4342
2026-01-17 10:05:11.16	247.36	87.94	-39.0	-40.7	20.7	0.00e+00	0	42	0	0	50	4146
2026-01-17 10:05:12.01	259.54	87.93	-38.9	-40.6	20.8	0.00e+00	0	42	0	0	49	4356
2026-01-17 10:05:13.15	274.79	87.78	-39.0	-40.6	20.9	0.00e+00	0	42	0	0	49	4375
2026-01-17 10:05:14.21	286.58	87.52	-38.9	-40.5	21.0	0.00e+00	0	42	0	0	49	4326
2026-01-17 10:05:15.25	295.67	87.19	-38.9	-40.5	20.9	0.00e+00	0	42	0	0	48	4555
2026-01-17 10:05:16.18	302.03	86.84	-38.6	-40.2	21.1	0.00e+00	0	42	0	0	48	4410
2026-01-17 10:05:17.18	307.42	86.44	-38.4	-40.0	21.4	0.00e+00	0	42	0	0	48	4312
2026-01-17 10:05:18.17	311.64	86.01	-38.5	-40.1	21.2	0.00e+00	0	42	0	0	48	4371
2026-01-17 10:05:19.17	315.06	85.56	-38.8	-40.4	21.0	0.00e+00	0	42	0	0	48	4501
2026-01-17 10:05:20.16	317.82	85.11	-39.1	-40.7	20.3	0.00e+00	0	42	0	0	48	4698
2026-01-17 10:05:21.16	320.13	84.64	-38.9	-40.5	20.1	0.00e+00	0	42	0	0	49	4311
2026-01-17 10:05:22.55	322.73	83.98	-38.9	-40.5	20.5	0.00e+00	0	42	0	0	49	4306
2026-01-17 10:05:23.26	323.84	83.64	-38.9	-40.5	20.7	0.00e+00	0	42	0	0	49	4310
2026-01-17 10:05:24.54	325.58	83.01	-39.3	-41.0	20.5	0.00e+00	0	42	0	0	49	4559
2026-01-17 10:05:25.25	326.42	82.67	-39.3	-41.0	20.5	0.00e+00	0	42	0	0	49	4569
2026-01-17 10:05:26.53	327.74	82.04	-38.7	-40.3	21.1	0.00e+00	0	42	0	0	49	4211
2026-01-17 10:05:27.25	328.39	81.69	-38.7	-40.3	20.9	0.00e+00	0	42	0	0	49	4228
2026-01-17 10:05:28.53	329.43	81.06	-38.7	-40.4	20.9	0.00e+00	0	43	0	0	49	4243
2026-01-17 10:05:29.26	329.95	80.70	-38.6	-40.1	21.1	0.00e+00	0	42	0	0	49	4142
2026-01-17 10:05:30.54	330.78	80.07	-38.7	-40.3	21.1	0.00e+00	0	43	0	0	48	4443
2026-01-17 10:05:31.25	331.20	79.72	-38.9	-40.5	20.8	0.00e+00	0	42	0	0	48	4571
2026-01-17 10:05:32.52	331.88	79.10	-38.8	-40.4	20.7	0.00e+00	0	42	0	0	48	4534
2026-01-17 10:05:33.23	332.23	78.75	-38.5	-40.1	21.1	0.00e+00	0	42	0	0	48	4370
2026-01-17 10:05:34.52	332.80	78.12	-38.3	-39.9	21.3	0.00e+00	0	42	0	0	48	4274
2026-01-17 10:05:35.23	333.09	77.77	-38.8	-40.4	20.9	0.00e+00	0	43	0	0	48	4520
2026-01-17 10:05:36.50	333.57	77.15	-38.3	-39.9	21.4	0.00e+00	0	43	0	0	48	4266
2026-01-17 10:05:37.22	333.83	76.80	-38.3	-39.9	21.4	0.00e+00	0	42	0	0	48	4262
2026-01-17 10:05:38.49	334.24	76.18	-38.3	-39.8	21.4	0.00e+00	0	43	0	0	48	4224
2026-01-17 10:05:39.21	334.46	75.84	-38.5	-40.1	21.2	0.00e+00	0	42	0	0	48	4344
2026-01-17 10:05:40.82	334.91	75.06	-38.3	-39.9	21.2	0.00e+00	0	42	0	0	48	4270
2026-01-17 10:05:41.39	335.06	74.78	-38.5	-40.1	21.1	0.00e+00	0	42	0	0	48	4365
2026-01-17 10:05:43.27	335.51	73.88	-39.4	-41.0	20.2	0.00e+00	0	42	0	0	49	4596
2026-01-17 10:05:43.83	335.63	73.61	-39.2	-40.9	20.4	0.00e+00	0	42	0	0	49	4507
2026-01-17 10:05:45.54	335.99	72.80	-38.8	-40.4	20.6	0.00e+00	0	42	0	0	49	4259
2026-01-17 10:05:46.11	336.10	72.53	-38.8	-40.4	20.6	0.00e+00	0	43	0	0	49	4273
2026-01-17 10:05:47.82	336.41	71.73	-37.6	-39.2	21.6	0.00e+00	0	42	0	0	47	4155
2026-01-17 10:05:48.39	336.51	71.46	-37.5	-39.1	21.8	0.00e+00	0	42	0	0	46	4344
2026-01-17 10:05:50.09	336.79	70.66	-38.0	-39.6	21.4	0.00e+00	0	42	0	0	46	4633
2026-01-17 10:05:50.66	336.87	70.40	-38.3	-39.9	21.2	0.00e+00	0	42	0	0	47	4520
2026-01-17 10:05:52.45	337.13	69.57	-39.1	-40.8	20.5	0.00e+00	0	42	0	0	48	4709
2026-01-17 10:05:53.01	337.21	69.32	-39.0	-40.6	20.6	0.00e+00	0	42	0	0	48	4638
2026-01-17 10:05:54.72	337.43	68.53	-38.6	-40.2	20.8	0.00e+00	0	42	0	0	48	4421
2026-01-17 10:05:55.29	337.50	68.27	-38.6	-40.2	20.8	0.00e+00	0	42	0	0	48	4400
2026-01-17 10:05:57.07	337.71	67.47	-38.4	-40.0	21.1	0.00e+00	0	42	0	0	48	4321
2026-01-17 10:05:58.00	337.81	67.05	-39.0	-40.7	20.6	0.00e+00	0	42	0	0	48	4665
2026-01-17 10:05:59.00	337.92	66.61	-39.4	-41.1	20.3	0.00e+00	0	43	0	0	49	4599
2026-01-17 10:05:59.99	338.02	66.17	-38.8	-40.4	20.9	0.00e+00	0	42	0	0	49	4280
2026-01-17 10:06:00.98	338.12	65.73	-38.6	-40.2	20.8	0.00e+00	0	42	0	0	49	4187
2026-01-17 10:06:01.98	338.21	65.29	-38.4	-40.0	21.1	0.00e+00	0	42	0	0	48	4303
2026-01-17 10:06:02.97	338.30	64.86	-37.6	-39.2	21.7	0.00e+00	0	42	0	0	47	4154
2026-01-17 10:06:03.97	338.39	64.42	-37.6	-39.2	21.7	0.00e+00	0	42	0	0	47	4153
2026-01-17 10:06:04.96	338.47	63.99	-38.2	-39.8	21.2	0.00e+00	0	42	0	0	47	4447
2026-01-17 10:06:05.95	338.55	63.57	-38.8	-40.4	20.9	0.00e+00	0	43	0	0	48	4522
2026-01-17 10:06:06.95	338.63	63.14	-39.6	-41.4	20.1	0.00e+00	0	42	0	0	49	4763
2026-01-17 10:06:07.94	338.71	62.72	-39.8	-41.6	19.9	0.00e+00	0	42	0	0	50	4604
2026-01-17 10:06:08.93	338.78	62.30	-39.8	-41.5	19.6	0.00e+00	0	43	0	0	50	4595
2026-01-17 10:06:09.92	338.85	61.89	-39.1	-40.8	20.2	0.00e+00	0	42	0	0	50	4200
2026-01-17 10:06:10.92	338.92	61.47	-38.6	-40.2	20.8	0.00e+00	0	42	0	0	49	4156
2026-01-17 10:06:11.91	338.99	61.06	-38.7	-40.3	20.7	0.00e+00	0	42	0	0	49	4231
2026-01-17 10:06:12.99	339.06	60.62	-39.3	-41.0	20.3	0.00e+00	0	42	0	0	49	4546
2026-01-17 10:06:13.84	339.11	60.27	-39.8	-41.6	19.9	0.00e+00	0	42	0	0	50	4599
2026-01-17 10:06:14.98	339.18	59.81	-39.6	-41.4	20.1	0.00e+00	0	42	0	0	50	4507
2026-01-17 10:06:15.83	339.23	59.46	-39.1	-40.8	20.6	0.00e+00	0	42	0	0	50	4215
2026-01-17 10:06:16.97	339.30	59.00	-39.2	-40.8	20.4	0.00e+00	0	42	0	0	50	4231
2026-01-17 10:06:17.82	339.35	58.67	-39.5	-41.2	19.9	0.00e+00	0	42	0	0	50	4405
2026-01-17 10:06:18.95	339.41	58.22	-39.4	-41.2	20.1	0.00e+00	0	42	0	0	50	4399
2026-01-17 10:06:19.81	339.45	57.88	-39.1	-40.8	20.4	0.00e+00	0	42	0	0	50	4198
2026-01-17 10:06:20.94	339.51	57.44	-38.8	-40.4	20.8	0.00e+00	0	43	0	0	49	4270
2026-01-17 10:06:21.79	339.55	57.11	-39.0	-40.6	20.6	0.00e+00	0	42	0	0	49	4384
2026-01-17 10:06:22.98	339.61	56.65	-39.7	-41.4	20.0	0.00e+00	0	42	0	0	50	4525
2026-01-17 10:06:23.83	339.65	56.32	-40.2	-41.9	19.5	0.00e+00	0	42	0	0	51	4536
2026-01-17 10:06:25.03	339.71	55.87	-40.7	-42.5	18.9	0.00e+00	0	43	0	0	52	4597
2026-01-17 10:06:25.89	339.75	55.54	-40.9	-42.8	18.6	0.00e+00	0	42	0	0	52	4715
2026-01-17 10:06:27.02	339.80	55.12	-40.8	-42.7	18.8	0.00e+00	0	42	0	0	52	4652
2026-01-17 10:06:27.88	339.83	54.80	-40.8	-42.6	18.7	0.00e+00	0	42	0	0	52	4612
2026-01-17 10:06:29.02	339.88	54.38	-40.6	-42.4	18.7	0.00e+00	0	42	0	0	52	4543
2026-01-17 10:06:29.87	339.92	54.07	-40.3	-42.1	19.0	0.00e+00	0	42	0	0	52	4370
2026-01-17 10:06:31.01	339.96	53.65	-40.0	-41.7	19.4	0.00e+00	0	43	0	0	52	4187
2026-01-17 10:06:31.86	340.00	53.34	-39.8	-41.5	19.6	0.00e+00	0	42	0	0	51	4323
2026-01-17 10:06:33.00	340.04	52.93	-39.9	-41.6	19.6	0.00e+00	0	42	0	0	51	4366
2026-01-17 10:06:33.85	340.07	52.63	-40.0	-41.8	19.6	0.00e+00	0	42	0	0	51	4453
2026-01-17 10:06:34.99	340.11	52.23	-40.5	-42.3	19.2	0.00e+00	0	42	0	0	51	4719
2026-01-17 10:06:35.84	340.14	51.93	-41.0	-42.9	18.5	0.00e+00	0	42	0	0	52	4774
2026-01-17 10:06:36.98	340.18	51.53	-41.6	-43.6	17.8	0.00e+00	0	43	0	0	53	4886
2026-01-17 10:06:37.83	340.21	51.23	-41.7	-43.7	17.7	0.00e+00	0	42	0	0	54	4686
2026-01-17 10:06:38.97	340.25	50.84	-41.6	-43.5	17.8	0.00e+00	0	43	0	0	54	4570
2026-01-17 10:06:39.82	340.28	50.55	-41.6	-43.5	17.8	0.00e+00	0	42	0	0	54	4590
2026-01-17 10:06:40.95	340.32	50.17	-41.4	-43.3	18.1	0.00e+00	0	42	0	0	54	4486
2026-01-17 10:06:41.81	340.34	49.88	-41.2	-43.1	18.4	0.00e+00	0	43	0	0	54	4352
2026-01-17 10:06:42.94	340.38	49.50	-41.3	-43.2	18.3	0.00e+00	0	42	0	0	54	4400
2026-01-17 10:06:43.79	340.41	49.22	-41.5	-43.4	18.1	0.00e+00	0	42	0	0	54	4517
2026-01-17 10:06:44.93	340.44	48.85	-41.5	-43.4	18.0	0.00e+00	0	42	0	0	54	4543
2026-01-17 10:06:45.78	340.47	48.57	-41.5	-43.4	18.0	0.00e+00	0	43	0	0	54	4503
2026-01-17 10:06:46.92	340.50	48.20	-41.7	-43.7	17.8	0.00e+00	0	43	0	0	54	4690
2026-01-17 10:06:47.77	340.52	47.92	-42.0	-44.1	17.5	0.00e+00	0	42	0	0	54	4880
2026-01-17 10:06:48.91	340.55	47.56	-42.3	-44.4	17.2	0.00e+00	0	42	0	0	55	4769
2026-01-17 10:06:49.77	340.58	47.29	-42.4	-44.5	17.1	0.00e+00	0	42	0	0	55	4851
2026-01-17 10:06:50.90	340.61	46.93	-42.6	-44.8	16.9	0.00e+00	0	42	0	0	55	5002
2026-01-17 10:06:51.75	340.63	46.67	-42.4	-44.5	17.1	0.00e+00	0	43	0	0	55	4858
2026-01-17 10:06:52.89	340.66	46.31	-42.3	-44.4	17.1	0.00e+00	0	42	0	0	55	4784
2026-01-17 10:06:53.79	340.68	46.03	-42.2	-44.2	17.1	0.00e+00	0	42	0	0	55	4690
2026-01-17 10:06:55.07	340.72	45.64	-42.1	-44.1	17.1	0.00e+00	0	42	0	0	55	4642
2026-01-17 10:06:55.78	340.73	45.43	-42.2	-44.3	17.0	0.00e+00	0	42	0	0	55	4725
2026-01-17 10:06:57.06	340.77	45.04	-42.9	-45.1	16.5	0.00e+00	0	42	0	0	56	4925
2026-01-17 10:06:57.77	340.78	44.83	-43.1	-45.4	16.3	0.00e+00	0	42	0	0	56	5058
2026-01-17 10:06:59.05	340.81	44.45	-43.1	-45.5	16.3	0.00e+00	0	42	0	0	57	4853
2026-01-17 10:06:59.76	340.83	44.24	-43.2	-45.6	16.2	0.00e+00	0	42	0	0	57	4917
2026-01-17 10:07:01.03	340.86	43.87	-42.8	-45.2	16.6	0.00e+00	0	42	0	0	57	4666
2026-01-17 10:07:01.76	340.87	43.66	-42.8	-45.1	16.7	0.00e+00	0	42	0	0	57	4614
2026-01-17 10:07:03.04	340.90	43.29	-42.5	-44.7	17.0	0.00e+00	0	42	0	0	57	4404
2026-01-17 10:07:03.76	340.92	43.09	-42.5	-44.6	17.1	0.00e+00	0	42	0	0	56	4631
2026-01-17 10:07:05.05	340.95	42.72	-41.7	-43.6	17.8	0.00e+00	0	42	0	0	55	4388
2026-01-17 10:07:05.76	340.96	42.52	-41.8	-43.8	17.7	0.00e+00	0	42	0	0	55	4475
2026-01-17 10:07:07.03	340.99	42.17	-42.2	-44.2	17.4	0.00e+00	0	42	0	0	55	4684
2026-01-17 10:07:07.74	341.00	41.97	-42.2	-44.2	17.3	0.00e+00	0	42	0	0	55	4691
2026-01-17 10:07:09.21	341.03	41.57	-42.2	-44.3	17.3	0.00e+00	0	42	0	0	55	4712
2026-01-17 10:07:09.92	341.05	41.38	-42.2	-44.3	17.3	0.00e+00	0	42	0	0	55	4742
2026-01-17 10:07:11.25	341.07	41.02	-42.3	-44.5	17.2	0.00e+00	0	42	0	0	55	4822
2026-01-17 10:07:11.96	341.09	40.83	-42.4	-44.6	17.0	0.00e+00	0	42	0	0	55	4907
2026-01-17 10:07:13.24	341.11	40.48	-42.5	-44.7	16.9	0.00e+00	0	43	0	0	55	4978
2026-01-17 10:07:13.97	341.13	40.29	-42.4	-44.6	17.0	0.00e+00	0	42	0	0	55	4912
2026-01-17 10:07:15.25	341.15	39.96	-42.3	-44.5	17.1	0.00e+00	0	42	0	0	55	4836
2026-01-17 10:07:15.96	341.16	39.77	-42.2	-44.3	17.3	0.00e+00	0	42	0	0	55	4751
2026-01-17 10:07:17.23	341.19	39.44	-42.3	-44.4	17.3	0.00e+00	0	43	0	0	55	4766
2026-01-17 10:07:17.94	341.20	39.26	-42.3	-44.4	17.3	0.00e+00	0	42	0	0	55	4763
2026-01-17 10:07:19.23	341.22	38.93	-42.0	-43.9	17.7	0.00e+00	0	43	0	0	55	4534
2026-01-17 10:07:19.94	341.24	38.75	-41.7	-43.7	18.0	0.00e+00	0	42	0	0	55	4394
2026-01-17 10:07:21.21	341.26	38.43	-41.4	-43.3	18.3	0.00e+00	0	42	0	0	54	4447
2026-01-17 10:07:21.92	341.27	38.26	-41.3	-43.2	18.3	0.00e+00	0	42	0	0	54	4421
2026-01-17 10:07:23.20	341.29	37.94	-41.1	-43.0	18.4	0.00e+00	0	42	0	0	54	4292
2026-01-17 10:07:24.08	341.31	37.72	-40.8	-42.7	18.7	0.00e+00	0	42	0	0	53	4393
2026-01-17 10:07:25.52	341.33	37.37	-40.7	-42.5	18.7	0.00e+00	0	42	0	0	53	4316
2026-01-17 10:07:26.23	341.34	37.20	-40.6	-42.4	18.8	0.00e+00	0	43	0	0	53	4278
2026-01-17 10:07:27.71	341.37	36.85	-40.5	-42.4	18.9	0.00e+00	0	42	0	0	52	4510
2026-01-17 10:07:28.43	341.38	36.68	-40.7	-42.6	18.7	0.00e+00	0	42	0	0	52	4601
2026-01-17 10:07:29.77	341.40	36.36	-40.9	-42.8	18.6	0.00e+00	0	42	0	0	52	4743
2026-01-17 10:07:30.48	341.41	36.20	-41.0	-42.9	18.5	0.00e+00	0	43	0	0	52	4805
2026-01-17 10:07:31.76	341.43	35.90	-41.0	-42.9	18.6	0.00e+00	0	43	0	0	52	4783
2026-01-17 10:07:32.47	341.44	35.73	-41.1	-43.0	18.5	0.00e+00	0	42	0	0	52	4845
2026-01-17 10:07:33.75	341.46	35.44	-41.0	-42.9	18.6	0.00e+00	0	42	0	0	52	4807
2026-01-17 10:07:34.46	341.47	35.28	-41.1	-43.0	18.5	0.00e+00	0	43	0	0	52	4851
2026-01-17 10:07:35.74	341.49	34.99	-41.2	-43.1	18.4	0.00e+00	0	42	0	0	53	4630
2026-01-17 10:07:36.48	341.50	34.83	-41.3	-43.2	18.3	0.00e+00	0	42	0	0	53	4671
2026-01-17 10:07:37.76	341.52	34.54	-41.4	-43.3	18.2	0.00e+00	0	42	0	0	53	4750
2026-01-17 10:07:38.47	341.53	34.38	-41.4	-43.4	18.2	0.00e+00	0	43	0	0	53	4767
2026-01-17 10:07:39.75	341.55	34.10	-41.4	-43.4	18.2	0.00e+00	0	43	0	0	53	4766
2026-01-17 10:07:40.47	341.56	33.95	-41.3	-43.2	18.3	0.00e+00	0	42	0	0	53	4700
2026-01-17 10:07:41.74	341.57	33.67	-41.2	-43.1	18.5	0.00e+00	0	43	0	0	53	4608
2026-01-17 10:07:42.60	341.59	33.49	-41.0	-42.9	18.7	0.00e+00	0	42	0	0	53	4508
2026-01-17 10:07:43.74	341.60	33.24	-40.9	-42.8	18.8	0.00e+00	0	43	0	0	53	4475
2026-01-17 10:07:44.59	341.61	33.06	-40.9	-42.8	18.7	0.00e+00	0	42	0	0	53	4476
2026-01-17 10:07:46.09	341.63	32.75	-40.5	-42.3	19.2	0.00e+00	0	42	0	0	52	4489
2026-01-17 10:07:46.80	341.64	32.60	-40.2	-42.0	19.5	0.00e+00	0	43	0	0	52	4331
2026-01-17 10:07:48.08	341.66	32.34	-40.3	-42.2	19.4	0.00e+00	0	42	0	0	52	4392
2026-01-17 10:07:48.80	341.67	32.19	-40.1	-42.0	19.5	0.00e+00	0	42	0	0	52	4329
2026-01-17 10:07:50.08	341.69	31.93	-40.1	-42.0	19.5	0.00e+00	0	43	0	0	52	4308
2026-01-17 10:07:50.87	341.70	31.77	-40.2	-42.0	19.5	0.00e+00	0	43	0	0	52	4312
2026-01-17 10:07:52.09	341.71	31.52	-40.2	-42.0	19.5	0.00e+00	0	42	0	0	52	4311
2026-01-17 10:07:52.94	341.72	31.35	-40.2	-42.0	19.6	0.00e+00	0	43	0	0	52	4294
2026-01-17 10:07:54.07	341.74	31.13	-40.2	-41.9	19.6	0.00e+00	0	43	0	0	52	4282
2026-01-17 10:07:54.93	341.75	30.96	-40.3	-42.1	19.5	0.00e+00	0	43	0	0	52	4342
2026-01-17 10:07:56.07	341.76	30.73	-40.3	-42.1	19.4	0.00e+00	0	42	0	0	52	4371
2026-01-17 10:07:57.20	341.77	30.51	-40.4	-42.3	19.3	0.00e+00	0	43	0	0	52	4452
2026-01-17 10:07:58.23	341.79	30.32	-40.5	-42.3	19.2	0.00e+00	0	42	0	0	52	4481
2026-01-17 10:07:59.23	341.80	30.12	-40.5	-42.3	19.2	0.00e+00	0	42	0	0	52	4483
2026-01-17 10:08:00.22	341.81	29.94	-40.5	-42.3	19.2	0.00e+00	0	42	0	0	52	4478
2026-01-17 10:08:01.22	341.82	29.75	-40.6	-42.5	19.1	0.00e+00	0	43	0	0	52	4546
2026-01-17 10:08:02.21	341.83	29.56	-40.6	-42.4	19.1	0.00e+00	0	43	0	0	52	4539
2026-01-17 10:08:03.21	341.85	29.37	-40.5	-42.4	19.1	0.00e+00	0	43	0	0	52	4510
2026-01-17 10:08:04.20	341.86	29.19	-40.5	-42.3	19.2	0.00e+00	0	42	0	0	52	4473
2026-01-17 10:08:05.20	341.87	29.01	-40.6	-42.4	19.0	0.00e+00	0	43	0	0	52	4531
2026-01-17 10:08:06.19	341.88	28.83	-40.5	-42.4	19.0	0.00e+00	0	42	0	0	52	4494
2026-01-17 10:08:07.19	341.89	28.64	-40.6	-42.5	18.9	0.00e+00	0	43	0	0	52	4572
2026-01-17 10:08:08.18	341.90	28.47	-40.5	-42.4	18.9	0.00e+00	0	43	0	0	52	4521
2026-01-17 10:08:09.19	341.91	28.28	-40.5	-42.4	18.9	0.00e+00	0	42	0	0	52	4532
2026-01-17 10:08:10.19	341.92	28.11	-40.6	-42.5	18.7	0.00e+00	0	42	0	0	52	4589
2026-01-17 10:08:11.26	341.94	27.92	-40.5	-42.4	18.8	0.00e+00	0	43	0	0	52	4535
2026-01-17 10:08:12.15	341.95	27.76	-40.4	-42.4	18.9	0.00e+00	0	42	0	0	52	4497
2026-01-17 10:08:13.28	341.96	27.56	-40.3	-42.2	19.1	0.00e+00	0	43	0	0	52	4416
2026-01-17 10:08:14.14	341.97	27.41	-40.3	-42.1	19.2	0.00e+00	0	42	0	0	52	4353
2026-01-17 10:08:15.27	341.98	27.22	-40.0	-41.8	19.5	0.00e+00	0	43	0	0	52	4211
2026-01-17 10:08:16.13	341.99	27.07	-39.9	-41.6	19.7	0.00e+00	0	42	0	0	51	4369
2026-01-17 10:08:17.58	342.00	26.82	-39.7	-41.4	19.9	0.00e+00	0	42	0	0	51	4256
2026-01-17 10:08:18.29	342.01	26.70	-39.7	-41.4	19.8	0.00e+00	0	43	0	0	51	4287
2026-01-17 10:08:19.57	342.02	26.49	-39.6	-41.4	19.9	0.00e+00	0	43	0	0	51	4258
2026-01-17 10:08:20.29	342.03	26.37	-39.5	-41.2	20.0	0.00e+00	0	43	0	0	51	4192
2026-01-17 10:08:21.57	342.04	26.16	-39.5	-41.2	20.0	0.00e+00	0	43	0	0	50	4441
2026-01-17 10:08:22.28	342.05	26.04	-39.4	-41.2	20.1	0.00e+00	0	43	0	0	50	4402
2026-01-17 10:08:23.57	342.06	25.83	-39.4	-41.2	20.1	0.00e+00	0	43	0	0	50	4426
2026-01-17 10:08:24.28	342.07	25.71	-39.5	-41.3	20.1	0.00e+00	0	42	0	0	50	4448
2026-01-17 10:08:25.56	342.08	25.50	-39.3	-41.0	20.3	0.00e+00	0	42	0	0	50	4336
2026-01-17 10:08:26.27	342.09	25.39	-39.3	-41.0	20.3	0.00e+00	0	43	0	0	50	4327
2026-01-17 10:08:27.55	342.10	25.18	-39.4	-41.1	20.3	0.00e+00	0	42	0	0	50	4360
2026-01-17 10:08:28.26	342.11	25.07	-39.3	-41.1	20.3	0.00e+00	0	43	0	0	50	4342
2026-01-17 10:08:29.57	342.12	24.86	-39.4	-41.2	20.2	0.00e+00	0	43	0	0	50	4400
2026-01-17 10:08:30.28	342.13	24.75	-39.4	-41.2	20.2	0.00e+00	0	43	0	0	50	4393
2026-01-17 10:08:31.56	342.14	24.55	-39.5	-41.3	20.2	0.00e+00	0	43	0	0	50	4447
2026-01-17 10:08:32.27	342.15	24.44	-39.6	-41.3	20.2	0.00e+00	0	43	0	0	50	4449
2026-01-17 10:08:33.68	342.16	24.22	-39.7	-41.4	20.0	0.00e+00	0	43	0	0	50	4542
2026-01-17 10:08:34.39	342.17	24.12	-39.7	-41.4	20.1	0.00e+00	0	42	0	0	50	4532
2026-01-17 10:08:35.67	342.18	23.92	-39.5	-41.2	20.2	0.00e+00	0	43	0	0	50	4441
2026-01-17 10:08:36.39	342.19	23.81	-39.5	-41.2	20.3	0.00e+00	0	43	0	0	50	4408
2026-01-17 10:08:37.73	342.20	23.61	-39.4	-41.2	20.3	0.00e+00	0	43	0	0	50	4407
2026-01-17 10:08:38.44	342.21	23.50	-39.4	-41.2	20.3	0.00e+00	0	42	0	0	50	4412
2026-01-17 10:08:39.79	342.22	23.30	-39.4	-41.2	20.3	0.00e+00	0	43	0	0	50	4415
2026-01-17 10:08:40.50	342.22	23.20	-39.5	-41.2	20.3	0.00e+00	0	42	0	0	50	4440
2026-01-17 10:08:41.78	342.24	23.01	-39.4	-41.1	20.4	0.00e+00	0	43	0	0	50	4360
2026-01-17 10:08:42.49	342.24	22.90	-39.4	-41.1	20.3	0.00e+00	0	42	0	0	50	4386
2026-01-17 10:08:43.77	342.25	22.72	-39.2	-40.9	20.5	0.00e+00	0	43	0	0	50	4248
2026-01-17 10:08:44.48	342.26	22.62	-39.3	-40.9	20.5	0.00e+00	0	42	0	0	50	4288
2026-01-17 10:08:45.76	342.27	22.43	-39.3	-41.0	20.5	0.00e+00	0	43	0	0	50	4294
2026-01-17 10:08:46.47	342.28	22.33	-39.3	-41.0	20.5	0.00e+00	0	43	0	0	50	4297
2026-01-17 10:08:47.75	342.29	22.15	-39.4	-41.1	20.3	0.00e+00	0	43	0	0	50	4373
2026-01-17 10:08:48.46	342.30	22.05	-39.5	-41.2	20.3	0.00e+00	0	43	0	0	50	4393
2026-01-17 10:08:49.74	342.31	21.87	-39.5	-41.2	20.2	0.00e+00	0	43	0	0	50	4435
2026-01-17 10:08:50.46	342.31	21.77	-39.6	-41.3	20.1	0.00e+00	0	43	0	0	50	4489
2026-01-17 10:08:51.74	342.32	21.59	-39.6	-41.4	20.1	0.00e+00	0	43	0	0	50	4508
2026-01-17 10:08:52.45	342.33	21.49	-39.5	-41.3	20.2	0.00e+00	0	43	0	0	50	4467
2026-01-17 10:08:53.73	342.34	21.31	-39.6	-41.4	20.1	0.00e+00	0	43	0	0	50	4518
2026-01-17 10:08:54.68	342.35	21.18	-39.6	-41.4	20.1	0.00e+00	0	42	0	0	50	4543
2026-01-17 10:08:55.68	342.36	21.05	-39.7	-41.5	20.0	0.00e+00	0	43	0	0	50	4591
2026-01-17 10:08:56.67	342.37	20.91	-39.8	-41.6	20.0	0.00e+00	0	43	0	0	50	4602
2026-01-17 10:08:57.66	342.37	20.78	-39.8	-41.6	19.9	0.00e+00	0	43	0	0	50	4622
2026-01-17 10:08:58.66	342.38	20.65	-39.9	-41.6	19.9	0.00e+00	0	43	0	0	50	4637
2026-01-17 10:08:59.65	342.39	20.52	-39.9	-41.7	19.8	0.00e+00	0	43	0	0	50	4684
2026-01-17 10:09:00.65	342.40	20.38	-40.0	-41.7	19.8	0.00e+00	0	43	0	0	50	4689
2026-01-17 10:09:01.64	342.41	20.25	-40.1	-41.9	19.7	0.00e+00	0	43	0	0	50	4763
2026-01-17 10:09:02.63	342.42	20.12	-40.1	-41.9	19.7	0.00e+00	0	42	0	0	50	4763
2026-01-17 10:09:03.69	342.42	19.98	-40.1	-41.9	19.7	0.00e+00	0	43	0	0	50	4766
2026-01-17 10:09:04.56	342.43	19.87	-40.2	-41.9	19.6	0.00e+00	0	43	0	0	50	4807
2026-01-17 10:09:05.70	342.44	19.72	-40.1	-41.9	19.7	0.00e+00	0	43	0	0	51	4499
2026-01-17 10:09:06.60	342.45	19.61	-40.1	-41.8	19.7	0.00e+00	0	43	0	0	51	4488
2026-01-17 10:09:07.81	342.46	19.45	-40.0	-41.8	19.7	0.00e+00	0	42	0	0	51	4466
2026-01-17 10:09:08.67	342.46	19.34	-40.0	-41.8	19.7	0.00e+00	0	43	0	0	51	4470
2026-01-17 10:09:09.93	342.47	19.19	-40.1	-41.9	19.6	0.00e+00	0	43	0	0	51	4541
2026-01-17 10:09:10.71	342.48	19.09	-40.0	-41.8	19.7	0.00e+00	0	43	0	0	51	4484
2026-01-17 10:09:12.13	342.49	18.91	-40.1	-41.9	19.6	0.00e+00	0	42	0	0	51	4508
2026-01-17 10:09:12.84	342.50	18.82	-40.0	-41.8	19.7	0.00e+00	0	43	0	0	51	4468
2026-01-17 10:09:14.15	342.51	18.66	-40.0	-41.8	19.7	0.00e+00	0	43	0	0	51	4460
2026-01-17 10:09:14.86	342.51	18.57	-40.0	-41.8	19.7	0.00e+00	0	43	0	0	51	4454
2026-01-17 10:09:16.14	342.52	18.42	-40.0	-41.8	19.7	0.00e+00	0	42	0	0	51	4468
2026-01-17 10:09:17.22	342.53	18.28	-40.1	-41.9	19.6	0.00e+00	0	43	0	0	51	4514
2026-01-17 10:09:18.07	342.54	18.18	-40.0	-41.7	19.7	0.00e+00	0	42	0	0	51	4432
2026-01-17 10:09:19.21	342.55	18.04	-39.9	-41.7	19.8	0.00e+00	0	43	0	0	51	4394
2026-01-17 10:09:20.42	342.56	17.90	-40.0	-41.8	19.7	0.00e+00	0	43	0	0	51	4458
2026-01-17 10:09:21.28	342.56	17.80	-40.0	-41.8	19.6	0.00e+00	0	42	0	0	51	4480
2026-01-17 10:09:22.41	342.57	17.66	-40.0	-41.8	19.6	0.00e+00	0	43	0	0	51	4493
2026-01-17 10:09:23.27	342.58	17.56	-40.1	-41.9	19.5	0.00e+00	0	43	0	0	51	4526
2026-01-17 10:09:24.40	342.59	17.43	-40.0	-41.8	19.6	0.00e+00	0	42	0	0	51	4477
2026-01-17 10:09:25.26	342.59	17.33	-40.0	-41.8	19.6	0.00e+00	0	43	0	0	51	4488
2026-01-17 10:09:26.39	342.60	17.20	-40.0	-41.9	19.5	0.00e+00	0	42	0	0	51	4535
2026-01-17 10:09:27.25	342.61	17.10	-40.0	-41.9	19.5	0.00e+00	0	43	0	0	51	4532
2026-01-17 10:09:28.39	342.61	16.96	-40.1	-42.0	19.5	0.00e+00	0	43	0	0	51	4551
2026-01-17 10:09:29.24	342.62	16.87	-40.2	-42.0	19.4	0.00e+00	0	43	0	0	51	4594
2026-01-17 10:09:30.38	342.63	16.74	-40.2	-42.1	19.3	0.00e+00	0	42	0	0	51	4607
2026-01-17 10:09:31.23	342.64	16.64	-40.2	-42.1	19.4	0.00e+00	0	43	0	0	51	4599
2026-01-17 10:09:32.37	342.64	16.51	-40.3	-42.1	19.3	0.00e+00	0	43	0	0	51	4636
2026-01-17 10:09:33.30	342.65	16.41	-40.3	-42.2	19.3	0.00e+00	0	43	0	0	51	4653
2026-01-17 10:09:34.46	342.66	16.28	-40.4	-42.2	19.2	0.00e+00	0	43	0	0	51	4683
2026-01-17 10:09:35.35	342.67	16.18	-40.5	-42.3	19.1	0.00e+00	0	43	0	0	51	4733
2026-01-17 10:09:36.48	342.67	16.05	-40.4	-42.2	19.2	0.00e+00	0	43	0	0	51	4678
2026-01-17 10:09:37.34	342.68	15.96	-40.6	-42.4	19.0	0.00e+00	0	43	0	0	51	4800
2026-01-17 10:09:38.48	342.69	15.83	-40.4	-42.3	19.1	0.00e+00	0	43	0	0	51	4721
2026-01-17 10:09:39.33	342.69	15.74	-40.5	-42.3	19.1	0.00e+00	0	43	0	0	51	4748
2026-01-17 10:09:40.47	342.70	15.61	-40.5	-42.4	19.0	0.00e+00	0	43	0	0	51	4788
2026-01-17 10:09:41.32	342.71	15.52	-40.5	-42.4	19.0	0.00e+00	0	43	0	0	51	4787
2026-01-17 10:09:42.45	342.72	15.40	-40.5	-42.4	19.0	0.00e+00	0	43	0	0	51	4804
2026-01-17 10:09:43.31	342.72	15.31	-40.4	-42.4	19.0	0.00e+00	0	43	0	0	51	4765
2026-01-17 10:09:44.44	342.73	15.18	-40.4	-42.4	19.0	0.00e+00	0	43	0	0	51	4799
2026-01-17 10:09:45.30	342.74	15.09	-40.5	-42.5	18.9	0.00e+00	0	42	0	0	51	4869
2026-01-17 10:09:46.43	342.74	14.97	-40.5	-42.5	18.9	0.00e+00	0	42	0	0	51	4838
2026-01-17 10:09:47.29	342.75	14.88	-40.5	-42.5	18.9	0.00e+00	0	42	0	0	51	4850
2026-01-17 10:09:48.42	342.76	14.76	-40.5	-42.5	18.9	0.00e+00	0	42	0	0	51	4858
2026-01-17 10:09:49.28	342.76	14.67	-40.6	-42.6	18.9	0.00e+00	0	43	0	0	51	4871
2026-01-17 10:09:50.53	342.77	14.54	-40.6	-42.6	18.8	0.00e+00	0	43	0	0	51	4901
2026-01-17 10:09:51.38	342.78	14.45	-40.6	-42.6	18.8	0.00e+00	0	43	0	0	51	4916
2026-01-17 10:09:52.58	342.79	14.33	-40.7	-42.7	18.8	0.00e+00	0	43	0	0	51	4935
2026-01-17 10:09:53.43	342.79	14.24	-40.7	-42.7	18.6	0.00e+00	0	43	0	0	52	4685
2026-01-17 10:09:54.63	342.80	14.12	-40.6	-42.6	18.7	0.00e+00	0	43	0	0	52	4631
2026-01-17 10:09:55.48	342.81	14.03	-40.6	-42.6	18.8	0.00e+00	0	43	0	0	52	4611
2026-01-17 10:09:56.68	342.81	13.91	-40.7	-42.7	18.7	0.00e+00	0	42	0	0	52	4657
2026-01-17 10:09:57.53	342.82	13.82	-40.5	-42.6	18.8	0.00e+00	0	43	0	0	52	4602
2026-01-17 10:09:58.67	342.83	13.71	-40.5	-42.5	18.8	0.00e+00	0	42	0	0	52	4568
2026-01-17 10:09:59.53	342.83	13.62	-40.5	-42.5	18.8	0.00e+00	0	43	0	0	52	4595
2026-01-17 10:10:00.67	342.84	13.51	-40.5	-42.6	18.7	0.00e+00	0	42	0	0	52	4609
2026-01-17 10:10:01.52	342.85	13.42	-40.6	-42.7	18.6	0.00e+00	0	43	0	0	52	4667
2026-01-17 10:10:02.66	342.85	13.31	-40.5	-42.6	18.8	0.00e+00	0	43	0	0	52	4606
2026-01-17 10:10:03.62	342.86	13.22	-40.6	-42.7	18.6	0.00e+00	0	43	0	0	52	4704
2026-01-17 10:10:04.62	342.87	13.12	-40.6	-42.7	18.6	0.00e+00	0	42	0	0	52	4654
2026-01-17 10:10:05.61	342.87	13.02	-40.5	-42.6	18.7	0.00e+00	0	43	0	0	52	4638
2026-01-17 10:10:06.61	342.88	12.92	-40.6	-42.7	18.6	0.00e+00	0	43	0	0	52	4675
2026-01-17 10:10:07.60	342.89	12.83	-40.6	-42.7	18.6	0.00e+00	0	43	0	0	52	4682
2026-01-17 10:10:08.60	342.89	12.73	-40.7	-42.7	18.5	0.00e+00	0	43	0	0	52	4696
2026-01-17 10:10:09.59	342.90	12.64	-40.6	-42.7	18.6	0.00e+00	0	43	0	0	52	4684
2026-01-17 10:10:10.58	342.91	12.54	-40.6	-42.6	18.7	0.00e+00	0	43	0	0	52	4630
2026-01-17 10:10:11.58	342.91	12.44	-40.6	-42.6	18.6	0.00e+00	0	43	0	0	52	4640
2026-01-17 10:10:12.57	342.92	12.35	-40.6	-42.7	18.6	0.00e+00	0	42	0	0	52	4667
2026-01-17 10:10:13.57	342.93	12.26	-40.6	-42.6	18.6	0.00e+00	0	43	0	0	52	4643
2026-01-17 10:10:14.56	342.93	12.16	-40.7	-42.8	18.5	0.00e+00	0	42	0	0	52	4717
2026-01-17 10:10:15.56	342.94	12.07	-40.7	-42.8	18.5	0.00e+00	0	43	0	0	52	4715
2026-01-17 10:10:16.55	342.95	11.97	-40.7	-42.8	18.5	0.00e+00	0	43	0	0	52	4718
2026-01-17 10:10:17.55	342.95	11.88	-40.8	-43.0	18.3	0.00e+00	0	43	0	0	52	4816
2026-01-17 10:10:18.57	342.96	11.79	-40.6	-42.8	18.5	0.00e+00	0	43	0	0	52	4710
2026-01-17 10:10:19.57	342.97	11.69	-40.6	-42.8	18.5	0.00e+00	0	43	0	0	52	4711
2026-01-17 10:10:20.56	342.97	11.60	-40.7	-42.8	18.4	0.00e+00	0	42	0	0	52	4748
2026-01-17 10:10:21.55	342.98	11.51	-40.7	-42.9	18.4	0.00e+00	0	42	0	0	52	4778
2026-01-17 10:10:22.55	342.98	11.42	-40.6	-42.8	18.5	0.00e+00	0	43	0	0	52	4712
2026-01-17 10:10:23.54	342.99	11.33	-40.8	-43.0	18.3	0.00e+00	0	43	0	0	52	4837
2026-01-17 10:10:24.54	343.00	11.24	-40.7	-42.9	18.3	0.00e+00	0	43	0	0	52	4779
2026-01-17 10:10:25.53	343.00	11.15	-40.7	-43.0	18.3	0.00e+00	0	43	0	0	52	4816
2026-01-17 10:10:26.53	343.01	11.06	-40.8	-43.0	18.2	0.00e+00	0	43	0	0	52	4847
2026-01-17 10:10:27.52	343.02	10.97	-40.8	-43.1	18.2	0.00e+00	0	42	0	0	52	4876
2026-01-17 10:10:28.52	343.02	10.88	-40.8	-43.0	18.3	0.00e+00	0	43	0	0	52	4829
2026-01-17 10:10:29.52	343.03	10.79	-40.8	-43.0	18.2	0.00e+00	0	42	0	0	52	4867
2026-01-17 10:10:30.51	343.03	10.70	-40.7	-42.9	18.3	0.00e+00	0	43	0	0	52	4801
2026-01-17 10:10:31.51	343.04	10.61	-40.8	-43.1	18.2	0.00e+00	0	43	0	0	52	4877
2026-01-17 10:10:32.50	343.05	10.52	-40.7	-43.0	18.2	0.00e+00	0	43	0	0	52	4869
2026-01-17 10:10:33.50	343.05	10.44	-40.6	-42.9	18.3	0.00e+00	0	42	0	0	52	4794
2026-01-17 10:10:34.56	343.06	10.34	-40.6	-42.9	18.3	0.00e+00	0	43	0	0	52	4805
2026-01-17 10:10:35.43	343.07	10.27	-40.7	-43.1	18.2	0.00e+00	0	43	0	0	52	4893
2026-01-17 10:10:36.56	343.07	10.17	-40.7	-43.1	18.2	0.00e+00	0	43	0	0	52	4893
2026-01-17 10:10:37.42	343.08	10.09	-40.7	-43.2	18.0	0.00e+00	0	43	0	0	52	4953
2026-01-17 10:10:38.56	343.08	10.00	-40.7	-43.2	18.0	0.00e+00	0	43	0	0	52	4949
2026-01-17 10:10:39.41	343.09	9.92	-40.6	-43.1	18.1	0.00e+00	0	43	0	0	52	4908
2026-01-17 10:10:40.55	343.10	9.82	-40.8	-43.3	17.9	0.00e+00	0	43	0	0	52	5039
2026-01-17 10:10:41.40	343.10	9.75	-40.7	-43.2	18.0	0.00e+00	0	43	0	0	52	4975
2026-01-17 10:10:42.53	343.11	9.65	-40.6	-43.2	18.0	0.00e+00	0	43	0	0	52	4976
2026-01-17 10:10:43.39	343.11	9.58	-40.5	-43.2	18.1	0.00e+00	0	43	0	0	52	4939
2026-01-17 10:10:44.52	343.12	9.49	-40.5	-43.3	18.0	0.00e+00	0	42	0	0	52	4994
2026-01-17 10:10:45.38	343.13	9.41	-40.5	-43.2	18.0	0.00e+00	0	43	0	0	52	4957
2026-01-17 10:10:46.51	343.13	9.32	-40.5	-43.3	17.9	0.00e+00	0	43	0	0	52	5024
2026-01-17 10:10:47.37	343.14	9.25	-40.5	-43.3	17.9	0.00e+00	0	43	0	0	52	5022
2026-01-17 10:10:48.50	343.15	9.15	-40.6	-43.4	17.8	0.00e+00	0	43	0	0	52	5077
2026-01-17 10:10:49.35	343.15	9.08	-40.5	-43.4	17.9	0.00e+00	0	43	0	0	52	5067
2026-01-17 10:10:50.61	343.16	8.98	-41.3	-44.4	16.9	0.00e+00	0	43	0	0	53	5392
2026-01-17 10:10:51.42	343.16	8.91	-48.1	-62.5	3.8	1.49e+00	0	43	104	0	66	20422
2026-01-17 10:10:52.68	343.17	8.80	-48.6	-63.2	3.8	1.49e+00	0	43	104	0	69	18557
2026-01-17 10:10:53.45	343.18	8.74	-48.9	-63.2	3.8	1.49e+00	0	43	104	0	69	18663
2026-01-17 10:10:54.73	343.18	8.64	-48.5	-63.3	3.8	1.49e+00	0	43	104	0	69	18850
2026-01-17 10:10:55.44	343.19	8.58	-49.1	-63.4	3.8	1.49e+00	0	43	104	0	69	19040
2026-01-17 10:10:56.72	343.20	8.47	-50.2	-63.5	3.8	1.49e+00	0	43	104	0	70	18124
2026-01-17 10:10:57.44	343.20	8.42	-49.7	-63.5	3.8	1.49e+00	0	42	104	0	71	17132
2026-01-17 10:10:58.72	343.21	8.31	-49.8	-63.5	3.8	1.49e+00	0	43	104	0	71	17176
2026-01-17 10:10:59.43	343.21	8.25	-50.4	-63.5	3.8	1.49e+00	0	43	104	0	71	17204
2026-01-17 10:11:00.70	343.22	8.15	-50.3	-63.5	3.8	1.49e+00	0	43	104	0	71	17233
2026-01-17 10:11:01.41	343.22	8.10	-49.7	-63.5	3.8	1.49e+00	0	43	104	0	71	17265
2026-01-17 10:11:02.69	343.23	7.99	-50.4	-63.5	3.8	1.49e+00	0	43	104	0	71	17233
2026-01-17 10:11:03.42	343.24	7.94	-50.5	-63.5	3.8	1.49e+00	0	43	104	0	71	17264
2026-01-17 10:11:04.69	343.24	7.83	-50.4	-63.6	3.8	1.49e+00	0	42	104	0	71	17382
2026-01-17 10:11:05.40	343.25	7.78	-50.5	-63.6	3.8	1.49e+00	0	43	104	0	71	17291
2026-01-17 10:11:06.73	343.25	7.67	-50.3	-63.6	3.8	1.49e+00	0	43	104	0	71	17356
2026-01-17 10:11:07.44	343.26	7.62	-50.3	-63.6	3.8	1.49e+00	0	43	104	0	71	17308
2026-01-17 10:11:08.76	343.27	7.51	-50.4	-63.6	3.8	1.49e+00	0	43	104	0	71	17285
2026-01-17 10:11:09.47	343.27	7.46	-50.5	-63.5	3.8	1.49e+00	0	43	104	0	71	17264
2026-01-17 10:11:10.83	343.28	7.35	-50.5	-63.6	3.8	1.49e+00	0	43	104	0	71	17293
2026-01-17 10:11:11.54	343.28	7.30	-50.5	-63.6	3.8	1.49e+00	0	43	104	0	71	17358
2026-01-17 10:11:12.88	343.29	7.19	-50.5	-63.6	3.8	1.49e+00	0	43	104	0	71	17350
2026-01-17 10:11:13.59	343.30	7.14	-50.5	-63.6	3.8	1.49e+00	0	43	104	0	71	17334
2026-01-17 10:11:14.87	343.30	7.04	-50.4	-63.5	3.8	1.49e+00	0	43	104	0	71	17238
2026-01-17 10:11:15.58	343.31	6.99	-50.5	-63.6	3.8	1.49e+00	0	43	104	0	71	17301
2026-01-17 10:11:16.85	343.31	6.89	-50.4	-63.6	3.8	1.49e+00	0	43	104	0	71	17296
2026-01-17 10:11:17.56	343.32	6.83	-50.2	-63.6	3.8	1.49e+00	0	43	104	0	71	17286
2026-01-17 10:11:18.84	343.33	6.74	-50.2	-63.5	3.8	1.49e+00	0	43	104	0	71	17178
2026-01-17 10:11:19.55	343.33	6.68	-50.2	-63.5	3.8	1.49e+00	0	43	104	0	71	17248
2026-01-17 10:11:20.83	343.34	6.59	-50.2	-63.5	3.8	1.49e+00	0	43	104	0	71	17186
2026-01-17 10:11:21.54	343.34	6.53	-50.2	-63.5	3.8	1.49e+00	0	43	104	0	71	17147
2026-01-17 10:11:22.81	343.35	6.44	-50.2	-63.5	3.8	1.49e+00	0	43	104	0	71	17254
2026-01-17 10:11:23.52	343.35	6.38	-50.2	-63.5	3.8	1.49e+00	0	43	104	0	71	17242
2026-01-17 10:11:24.80	343.36	6.29	-50.2	-63.5	3.8	1.49e+00	0	43	104	0	71	17248
