passes_logs/2026/01/17/T1/T1__20260117_073203_NOAA_20_JPSS-1_rec.log

#Pass ID: 20260117_073203_NOAA 20 (JPSS-1)
#Satellite: NOAA 20 (JPSS-1)
#Configuration: NOAA 20
#almurnet v.1.7.20251203
#Start time: 2026-01-17 07:32:03

#Version: 2.0.20230620
#Station: T1
#Location: 37.570604 lon 55.790049 lat
#TLE: 1 43013U 17073A   26016.24631778  .00000038  00000+0  39093-4 0  9990
#TLE: 2 43013  98.7637 317.1726 0001455  37.6755 322.4523 14.19536243422915

#Time	Az	El	Level	Level2	SNR	BER	BlckErr	Temp	State	Recorded	gain1	gain2
2026-01-17 07:32:03.34	82.36	5.00	-49.9	-65.2	3.8	1.49e+00	0	41	0	0	71	20931
2026-01-17 07:32:04.33	82.25	5.05	-49.9	-65.2	3.8	1.49e+00	0	41	104	0	71	20847
2026-01-17 07:32:05.32	82.14	5.09	-49.9	-65.2	3.8	1.49e+00	0	41	104	0	71	20811
2026-01-17 07:32:06.32	82.02	5.14	-49.9	-65.2	3.8	1.49e+00	0	41	104	0	71	20882
2026-01-17 07:32:07.31	81.91	5.19	-49.9	-65.2	3.8	1.49e+00	0	41	104	0	71	20807
2026-01-17 07:32:08.30	81.80	5.23	-49.9	-65.2	3.8	1.49e+00	0	41	104	0	71	20933
2026-01-17 07:32:09.30	81.68	5.28	-49.9	-65.2	3.8	1.49e+00	0	41	104	0	71	20800
2026-01-17 07:32:10.29	81.57	5.33	-49.9	-65.1	3.8	1.49e+00	0	41	104	0	71	20744
2026-01-17 07:32:11.29	81.45	5.38	-49.9	-65.2	3.8	1.49e+00	0	41	104	0	71	20834
2026-01-17 07:32:12.28	81.33	5.42	-49.9	-65.2	3.8	1.49e+00	0	41	104	0	71	20794
2026-01-17 07:32:13.27	81.22	5.47	-49.9	-65.2	3.8	1.49e+00	0	41	104	0	71	20801
2026-01-17 07:32:14.26	81.10	5.52	-49.9	-65.2	3.8	1.49e+00	0	41	104	0	71	20799
2026-01-17 07:32:15.26	80.98	5.56	-49.9	-65.1	3.8	1.49e+00	0	41	104	0	71	20750
2026-01-17 07:32:16.25	80.87	5.61	-49.9	-65.2	3.8	1.49e+00	0	41	104	0	71	20795
2026-01-17 07:32:17.24	80.75	5.66	-49.9	-65.2	3.8	1.49e+00	0	41	104	0	71	20778
2026-01-17 07:32:18.24	80.63	5.70	-49.9	-65.1	3.8	1.49e+00	0	41	104	0	71	20718
2026-01-17 07:32:19.23	80.51	5.75	-49.9	-65.1	3.8	1.49e+00	0	41	104	0	71	20767
2026-01-17 07:32:20.22	80.39	5.80	-49.9	-65.1	3.8	1.49e+00	0	41	104	0	71	20691
2026-01-17 07:32:21.22	80.27	5.85	-49.9	-65.1	3.8	1.49e+00	0	41	104	0	71	20745
2026-01-17 07:32:22.21	80.16	5.89	-49.9	-65.2	3.8	1.49e+00	0	41	104	0	71	20814
2026-01-17 07:32:23.20	80.04	5.94	-49.8	-65.1	3.8	1.49e+00	0	41	104	0	71	20723
2026-01-17 07:32:24.20	79.91	5.99	-49.9	-65.1	3.8	1.49e+00	0	41	104	0	71	20735
2026-01-17 07:32:25.19	79.79	6.03	-49.9	-65.1	3.8	1.49e+00	0	42	104	0	71	20725
2026-01-17 07:32:26.18	79.67	6.08	-49.8	-65.1	3.8	1.49e+00	0	42	104	0	71	20738
2026-01-17 07:32:27.18	79.55	6.12	-49.9	-65.1	3.8	1.49e+00	0	41	104	0	71	20772
2026-01-17 07:32:28.17	79.43	6.17	-49.8	-65.1	3.8	1.49e+00	0	42	104	0	71	20754
2026-01-17 07:32:29.16	79.31	6.22	-49.8	-65.2	3.8	1.49e+00	0	42	104	0	71	20785
2026-01-17 07:32:30.16	79.18	6.26	-49.8	-65.1	3.8	1.49e+00	0	42	104	0	71	20721
2026-01-17 07:32:31.15	79.06	6.31	-49.9	-65.1	3.8	1.49e+00	0	42	104	0	71	20760
2026-01-17 07:32:32.14	78.94	6.36	-49.8	-65.1	3.8	1.49e+00	0	42	104	0	71	20634
2026-01-17 07:32:33.14	78.81	6.40	-49.9	-65.1	3.8	1.49e+00	0	42	104	0	71	20684
2026-01-17 07:32:34.13	78.69	6.45	-49.8	-65.1	3.8	1.49e+00	0	42	104	0	71	20740
2026-01-17 07:32:35.12	78.56	6.50	-49.8	-65.1	3.8	1.49e+00	0	42	104	0	71	20686
2026-01-17 07:32:36.11	78.44	6.54	-49.9	-65.1	3.8	1.49e+00	0	42	104	0	71	20766
2026-01-17 07:32:37.11	78.31	6.59	-49.8	-65.1	3.8	1.49e+00	0	42	104	0	71	20707
2026-01-17 07:32:38.10	78.19	6.63	-49.8	-65.1	3.8	1.49e+00	0	42	104	0	71	20680
2026-01-17 07:32:39.09	78.06	6.68	-49.8	-65.1	3.8	1.49e+00	0	42	104	0	71	20669
2026-01-17 07:32:40.09	77.93	6.73	-49.8	-65.1	3.8	1.49e+00	0	42	104	0	71	20594
2026-01-17 07:32:41.08	77.81	6.77	-49.8	-65.1	3.8	1.49e+00	0	42	104	0	71	20558
2026-01-17 07:32:42.07	77.68	6.82	-49.8	-65.1	3.8	1.49e+00	0	42	104	0	71	20656
2026-01-17 07:32:43.07	77.55	6.86	-49.8	-65.1	3.8	1.49e+00	0	42	104	0	71	20587
2026-01-17 07:32:44.06	77.42	6.91	-49.8	-65.0	3.8	1.49e+00	0	42	104	0	71	20521
2026-01-17 07:32:45.05	77.29	6.95	-49.8	-65.0	3.8	1.49e+00	0	42	104	0	71	20415
2026-01-17 07:32:46.05	77.16	7.00	-49.8	-65.0	3.8	1.49e+00	0	42	104	0	71	20414
2026-01-17 07:32:47.04	77.03	7.05	-49.8	-65.0	3.8	1.49e+00	0	42	104	0	71	20403
2026-01-17 07:32:48.03	76.90	7.09	-49.8	-65.0	3.8	1.49e+00	0	42	104	0	71	20377
2026-01-17 07:32:49.03	76.77	7.14	-49.8	-65.0	3.8	1.49e+00	0	42	104	0	71	20524
2026-01-17 07:32:50.02	76.64	7.18	-49.8	-65.1	3.8	1.49e+00	0	42	104	0	71	20570
2026-01-17 07:32:51.01	76.51	7.23	-49.8	-65.0	3.8	1.49e+00	0	42	104	0	71	20510
2026-01-17 07:32:52.01	76.38	7.27	-49.8	-65.0	3.8	1.49e+00	0	42	104	0	71	20445
2026-01-17 07:32:53.00	76.25	7.32	-49.8	-65.1	3.8	1.49e+00	0	42	104	0	71	20603
2026-01-17 07:32:53.99	76.11	7.36	-49.8	-65.0	3.8	1.49e+00	0	42	104	0	71	20459
2026-01-17 07:32:54.99	75.98	7.41	-49.8	-65.0	3.8	1.49e+00	0	42	104	0	71	20352
2026-01-17 07:32:55.98	75.85	7.45	-49.8	-64.9	3.8	1.49e+00	0	42	104	0	71	20159
2026-01-17 07:32:56.97	75.71	7.50	-49.8	-64.9	3.8	1.49e+00	0	42	104	0	71	20175
2026-01-17 07:32:57.97	75.58	7.54	-49.8	-64.9	3.8	1.49e+00	0	42	104	0	71	20142
2026-01-17 07:32:58.96	75.44	7.59	-49.8	-64.9	3.8	1.49e+00	0	42	104	0	71	20146
2026-01-17 07:32:59.95	75.31	7.63	-49.8	-64.9	3.8	1.49e+00	0	42	104	0	71	20271
2026-01-17 07:33:00.95	75.17	7.68	-49.8	-65.0	3.8	1.49e+00	0	42	104	0	71	20432
2026-01-17 07:33:01.94	75.04	7.72	-49.8	-65.1	3.8	1.49e+00	0	42	104	0	71	20587
2026-01-17 07:33:02.94	74.90	7.77	-49.8	-65.1	3.8	1.49e+00	0	43	104	0	71	20592
2026-01-17 07:33:03.93	74.76	7.81	-49.8	-65.1	3.8	1.49e+00	0	43	104	0	71	20650
2026-01-17 07:33:04.92	74.63	7.86	-49.8	-65.0	3.8	1.49e+00	0	43	104	0	71	20471
2026-01-17 07:33:05.92	74.49	7.90	-49.8	-64.8	3.8	1.49e+00	0	43	104	0	71	20013
2026-01-17 07:33:06.91	74.35	7.95	-49.8	-64.6	3.8	1.49e+00	0	43	104	0	71	19604
2026-01-17 07:33:07.90	74.21	7.99	-49.8	-64.5	3.8	1.49e+00	0	43	104	0	71	19275
2026-01-17 07:33:08.90	74.07	8.03	-49.8	-64.4	3.8	1.49e+00	0	43	104	0	71	19004
2026-01-17 07:33:09.89	73.93	8.08	-49.8	-64.5	3.8	1.49e+00	0	43	104	0	71	19328
2026-01-17 07:33:10.88	73.79	8.12	-49.8	-64.7	3.8	1.49e+00	0	43	104	0	71	19704
2026-01-17 07:33:11.87	73.65	8.16	-49.8	-64.9	3.8	1.49e+00	0	43	104	0	71	20202
2026-01-17 07:33:12.87	73.51	8.21	-49.8	-65.0	3.8	1.49e+00	0	43	104	0	71	20497
2026-01-17 07:33:13.86	73.37	8.25	-49.8	-65.1	3.8	1.49e+00	0	43	104	0	71	20565
2026-01-17 07:33:14.86	73.23	8.30	-49.8	-65.0	3.8	1.49e+00	0	43	104	0	71	20394
2026-01-17 07:33:15.85	73.09	8.34	-49.8	-64.6	3.8	1.49e+00	0	43	104	0	71	19408
2026-01-17 07:33:16.84	72.95	8.38	-49.8	-63.8	3.8	1.49e+00	0	42	104	0	71	17867
2026-01-17 07:33:17.84	72.80	8.43	-49.7	-63.2	3.8	1.49e+00	0	43	104	0	71	16532
2026-01-17 07:33:18.83	72.66	8.47	-49.7	-63.0	3.8	1.48e+00	0	43	104	0	71	16261
2026-01-17 07:33:19.82	72.52	8.51	-49.8	-63.9	3.8	1.49e+00	0	43	104	0	71	17907
2026-01-17 07:33:20.82	72.37	8.56	-49.8	-64.8	3.8	1.49e+00	0	43	104	0	71	20046
2026-01-17 07:33:21.81	72.23	8.60	-49.7	-62.6	3.8	1.49e+00	0	43	104	0	71	15430
2026-01-17 07:33:22.81	72.08	8.64	-49.1	-57.8	6.1	1.02e+00	0	43	0	1048576	70	9418
2026-01-17 07:33:23.80	71.94	8.68	-48.1	-54.1	9.6	3.03e-02	0	43	0	3145728	68	6947
2026-01-17 07:33:24.79	71.79	8.73	-46.9	-51.4	12.3	1.14e-03	0	43	0	4194304	65	6056
2026-01-17 07:33:25.79	71.64	8.77	-46.0	-49.8	13.9	3.12e-05	0	43	0	6291456	64	5323
2026-01-17 07:33:26.78	71.50	8.81	-45.5	-49.0	14.9	0.00e+00	0	43	0	8388608	63	5108
2026-01-17 07:33:27.77	71.35	8.85	-45.4	-48.7	15.2	0.00e+00	0	43	0	10485760	62	5270
2026-01-17 07:33:28.77	71.20	8.90	-45.6	-49.1	14.8	0.00e+00	0	43	0	11534336	62	5507
2026-01-17 07:33:29.76	71.05	8.94	-46.4	-50.4	13.6	1.50e-06	0	43	0	13631488	63	6023
2026-01-17 07:33:30.75	70.91	8.98	-47.1	-51.8	12.0	1.93e-04	0	43	0	15728640	64	6715
2026-01-17 07:33:31.75	70.76	9.02	-48.1	-54.3	9.5	5.20e-03	0	43	0	17825792	66	7926
2026-01-17 07:33:32.74	70.61	9.06	-47.1	-51.8	12.0	3.83e-02	0	43	0	19922944	66	5926
2026-01-17 07:33:33.74	70.46	9.11	-47.5	-52.7	11.1	4.47e-04	0	43	0	20971520	65	7002
2026-01-17 07:33:34.73	70.31	9.15	-49.3	-58.8	5.7	7.06e-02	0	43	0	23068672	69	11177
2026-01-17 07:33:35.73	70.16	9.19	-45.7	-49.3	14.5	6.64e-01	0	43	0	23068672	63	5332
2026-01-17 07:33:36.73	70.00	9.23	-48.6	-56.1	7.9	3.80e-06	0	43	0	25165824	67	9219
2026-01-17 07:33:37.72	69.85	9.27	-46.2	-50.2	13.5	7.16e-01	0	43	0	26214400	64	5553
2026-01-17 07:33:38.72	69.70	9.31	-44.8	-47.9	16.1	0.00e+00	0	43	0	28311552	61	5061
2026-01-17 07:33:39.71	69.55	9.35	-44.3	-47.3	16.7	0.00e+00	0	43	0	30408704	60	4991
2026-01-17 07:33:40.71	69.39	9.39	-44.4	-47.3	16.6	0.00e+00	0	43	0	32505856	60	5029
2026-01-17 07:33:41.71	69.24	9.44	-44.4	-47.3	16.6	0.00e+00	0	43	0	33554432	60	5039
2026-01-17 07:33:42.70	69.09	9.48	-44.2	-47.1	16.9	0.00e+00	0	43	0	35651584	60	4891
2026-01-17 07:33:43.70	68.93	9.52	-44.1	-46.9	17.0	0.00e+00	0	43	0	37748736	60	4807
2026-01-17 07:33:44.69	68.78	9.56	-44.1	-46.9	17.1	0.00e+00	0	43	0	39845888	60	4765
2026-01-17 07:33:45.69	68.62	9.60	-44.0	-46.7	17.2	0.00e+00	0	43	0	41943040	60	4688
2026-01-17 07:33:46.75	68.46	9.64	-44.0	-46.6	17.3	0.00e+00	0	43	0	44040192	59	4920
2026-01-17 07:33:47.64	68.32	9.68	-44.1	-46.8	17.1	0.00e+00	0	43	0	45088768	59	5000
2026-01-17 07:33:48.75	68.14	9.72	-44.2	-47.0	17.0	0.00e+00	0	43	0	47185920	59	5111
2026-01-17 07:33:49.60	68.01	9.75	-44.1	-46.8	17.1	0.00e+00	0	43	0	49283072	59	5012
2026-01-17 07:33:50.74	67.83	9.80	-44.0	-46.8	17.1	0.00e+00	0	43	0	51380224	59	5002
2026-01-17 07:33:51.59	67.69	9.83	-44.0	-46.8	17.2	0.00e+00	0	43	0	52428800	59	4984
2026-01-17 07:33:52.73	67.51	9.88	-44.0	-46.8	17.2	0.00e+00	0	43	0	54525952	59	4996
2026-01-17 07:33:53.78	67.34	9.92	-44.2	-47.0	17.0	0.00e+00	0	43	0	56623104	59	5133
2026-01-17 07:33:54.83	67.18	9.96	-44.3	-47.1	16.9	0.00e+00	0	43	0	58720256	59	5168
2026-01-17 07:33:55.82	67.02	10.00	-44.1	-46.9	17.0	0.00e+00	0	43	0	60817408	59	5080
2026-01-17 07:33:56.82	66.86	10.04	-44.1	-46.9	17.1	0.00e+00	0	43	0	61865984	59	5049
2026-01-17 07:33:57.81	66.70	10.08	-44.3	-47.1	16.9	0.00e+00	0	43	0	63963136	59	5168
2026-01-17 07:33:58.81	66.54	10.11	-44.3	-47.1	16.8	0.00e+00	0	43	0	66060288	59	5194
2026-01-17 07:33:59.81	66.37	10.15	-44.4	-47.2	16.8	0.00e+00	0	43	0	68157440	59	5238
2026-01-17 07:34:00.80	66.21	10.19	-44.3	-47.1	16.9	0.00e+00	0	43	0	70254592	59	5171
2026-01-17 07:34:01.79	66.05	10.23	-44.2	-46.9	17.0	0.00e+00	0	43	0	71303168	59	5097
2026-01-17 07:34:02.79	65.89	10.26	-44.2	-46.9	17.0	0.00e+00	0	43	0	73400320	59	5084
2026-01-17 07:34:03.78	65.73	10.30	-44.1	-46.8	17.1	0.00e+00	0	43	0	75497472	59	5034
2026-01-17 07:34:04.78	65.56	10.34	-44.3	-47.1	16.9	0.00e+00	0	43	0	77594624	59	5211
2026-01-17 07:34:05.77	65.40	10.38	-44.4	-47.3	16.7	0.00e+00	0	43	0	78643200	59	5310
2026-01-17 07:34:06.77	65.23	10.41	-44.4	-47.3	16.7	0.00e+00	0	43	0	80740352	59	5295
2026-01-17 07:34:07.84	65.06	10.45	-44.4	-47.2	16.8	0.00e+00	0	43	0	82837504	59	5267
2026-01-17 07:34:08.73	64.91	10.49	-44.4	-47.2	16.7	0.00e+00	0	43	0	84934656	59	5278
2026-01-17 07:34:09.86	64.72	10.53	-44.6	-47.5	16.5	0.00e+00	0	43	0	87031808	59	5408
2026-01-17 07:34:10.71	64.58	10.56	-44.6	-47.5	16.5	0.00e+00	0	43	0	88080384	59	5440
2026-01-17 07:34:11.85	64.39	10.60	-44.4	-47.3	16.7	0.00e+00	0	43	0	90177536	59	5294
2026-01-17 07:34:12.71	64.24	10.63	-44.4	-47.2	16.8	0.00e+00	0	43	0	92274688	59	5276
2026-01-17 07:34:13.84	64.05	10.67	-44.3	-47.1	16.9	0.00e+00	0	43	0	94371840	59	5183
2026-01-17 07:34:14.70	63.91	10.70	-44.3	-47.1	16.9	0.00e+00	0	43	0	95420416	59	5172
2026-01-17 07:34:15.83	63.72	10.74	-44.3	-47.1	16.9	0.00e+00	0	43	0	97517568	59	5202
2026-01-17 07:34:16.69	63.57	10.77	-44.4	-47.2	16.8	0.00e+00	0	43	0	99614720	59	5223
2026-01-17 07:34:17.82	63.38	10.81	-44.3	-47.1	16.9	0.00e+00	0	43	0	101711872	59	5212
2026-01-17 07:34:18.68	63.24	10.84	-44.3	-47.1	16.9	0.00e+00	0	43	0	103809024	59	5215
2026-01-17 07:34:19.81	63.04	10.88	-44.3	-47.1	16.9	0.00e+00	0	43	0	105906176	59	5200
2026-01-17 07:34:20.66	62.90	10.91	-44.3	-47.1	16.9	0.00e+00	0	43	0	106954752	59	5207
2026-01-17 07:34:21.83	62.70	10.95	-44.3	-47.2	16.9	0.00e+00	0	43	0	109051904	59	5220
2026-01-17 07:34:22.68	62.55	10.98	-44.4	-47.2	16.8	0.00e+00	0	43	0	111149056	59	5270
2026-01-17 07:34:23.88	62.35	11.02	-44.4	-47.2	16.8	0.00e+00	0	43	0	113246208	59	5270
2026-01-17 07:34:24.74	62.20	11.05	-44.4	-47.2	16.8	0.00e+00	0	43	0	114294784	59	5258
2026-01-17 07:34:25.92	61.99	11.09	-44.4	-47.2	16.8	0.00e+00	0	43	0	117440512	59	5254
2026-01-17 07:34:26.77	61.85	11.12	-44.3	-47.2	16.9	0.00e+00	0	43	0	118489088	59	5225
2026-01-17 07:34:27.99	61.63	11.16	-44.2	-47.0	17.0	0.00e+00	0	43	0	120586240	59	5112
2026-01-17 07:34:28.84	61.49	11.19	-44.2	-47.0	16.9	0.00e+00	0	43	0	122683392	59	5150
2026-01-17 07:34:30.04	61.28	11.22	-44.3	-47.2	16.9	0.00e+00	0	43	0	124780544	59	5231
2026-01-17 07:34:30.89	61.13	11.25	-44.3	-47.1	16.9	0.00e+00	0	43	0	125829120	59	5184
2026-01-17 07:34:32.03	60.93	11.29	-44.4	-47.2	16.8	0.00e+00	0	43	0	127926272	59	5246
2026-01-17 07:34:32.88	60.78	11.32	-44.3	-47.1	16.9	0.00e+00	0	43	0	130023424	59	5210
2026-01-17 07:34:34.10	60.56	11.36	-44.3	-47.1	16.9	0.00e+00	0	43	0	132120576	59	5215
2026-01-17 07:34:34.96	60.41	11.38	-44.2	-47.0	17.0	0.00e+00	0	43	0	134217728	59	5133
2026-01-17 07:34:36.09	60.21	11.42	-44.2	-47.0	17.1	0.00e+00	0	43	0	136314880	59	5119
2026-01-17 07:34:37.43	59.97	11.46	-44.3	-47.0	17.0	0.00e+00	0	43	0	138412032	59	5150
2026-01-17 07:34:38.14	59.85	11.48	-44.4	-47.2	16.9	0.00e+00	0	43	0	139460608	59	5219
2026-01-17 07:34:39.42	59.62	11.52	-44.3	-47.1	16.9	0.00e+00	0	43	0	142606336	59	5183
2026-01-17 07:34:40.13	59.49	11.54	-44.4	-47.1	16.9	0.00e+00	0	43	0	143654912	59	5206
2026-01-17 07:34:41.46	59.26	11.58	-44.2	-47.0	17.1	0.00e+00	0	43	0	145752064	59	5104
2026-01-17 07:34:42.17	59.13	11.60	-44.1	-46.8	17.2	0.00e+00	0	43	0	147849216	59	5020
2026-01-17 07:34:43.51	58.89	11.64	-44.2	-47.0	17.0	0.00e+00	0	43	0	149946368	59	5127
2026-01-17 07:34:44.22	58.76	11.66	-44.2	-46.9	17.1	0.00e+00	0	43	0	150994944	59	5081
2026-01-17 07:34:45.56	58.52	11.70	-44.3	-47.0	17.0	0.00e+00	0	43	0	154140672	59	5151
2026-01-17 07:34:46.28	58.39	11.72	-44.2	-47.0	17.1	0.00e+00	0	43	0	155189248	59	5109
2026-01-17 07:34:47.63	58.14	11.76	-44.2	-47.0	17.0	0.00e+00	0	43	0	157286400	59	5119
2026-01-17 07:34:48.34	58.02	11.78	-44.2	-46.9	17.1	0.00e+00	0	43	0	159383552	59	5089
2026-01-17 07:34:49.66	57.78	11.82	-44.2	-46.9	17.2	0.00e+00	0	43	0	161480704	59	5066
2026-01-17 07:34:50.37	57.65	11.84	-44.1	-46.9	17.2	0.00e+00	0	43	0	162529280	59	5043
2026-01-17 07:34:51.65	57.41	11.87	-44.3	-47.0	17.0	0.00e+00	0	43	0	165675008	59	5119
2026-01-17 07:34:52.36	57.28	11.89	-44.2	-46.9	17.1	0.00e+00	0	43	0	166723584	59	5077
2026-01-17 07:34:53.64	57.05	11.93	-44.1	-46.8	17.2	0.00e+00	0	43	0	168820736	59	5006
2026-01-17 07:34:54.35	56.92	11.95	-44.1	-46.8	17.2	0.00e+00	0	43	0	169869312	59	5038
2026-01-17 07:34:55.63	56.68	11.98	-43.9	-46.6	17.4	0.00e+00	0	43	0	173015040	59	4892
2026-01-17 07:34:56.36	56.55	12.00	-43.9	-46.6	17.4	0.00e+00	0	43	0	174063616	59	4906
2026-01-17 07:34:57.63	56.31	12.03	-44.1	-46.9	17.2	0.00e+00	0	43	0	176160768	59	5060
2026-01-17 07:34:58.35	56.18	12.05	-44.2	-47.0	17.1	0.00e+00	0	43	0	178257920	59	5107
2026-01-17 07:34:59.63	55.94	12.09	-44.1	-46.9	17.2	0.00e+00	0	43	0	180355072	59	5060
2026-01-17 07:35:00.48	55.79	12.11	-44.2	-47.0	17.1	0.00e+00	0	43	0	181403648	59	5131
2026-01-17 07:35:01.62	55.57	12.14	-44.2	-47.0	17.1	0.00e+00	0	43	0	183500800	59	5107
2026-01-17 07:35:02.64	55.38	12.16	-44.4	-47.1	16.9	0.00e+00	0	43	0	185597952	59	5207
2026-01-17 07:35:03.83	55.16	12.19	-44.5	-47.4	16.7	0.00e+00	0	43	0	187695104	59	5346
2026-01-17 07:35:04.71	55.00	12.21	-44.5	-47.3	16.8	0.00e+00	0	43	0	189792256	59	5315
2026-01-17 07:35:05.85	54.79	12.24	-44.4	-47.2	16.9	0.00e+00	0	43	0	191889408	59	5250
2026-01-17 07:35:06.70	54.63	12.26	-44.4	-47.2	16.8	0.00e+00	0	43	0	192937984	59	5271
2026-01-17 07:35:08.07	54.37	12.29	-44.5	-47.3	16.8	0.00e+00	0	43	0	196083712	59	5325
2026-01-17 07:35:08.79	54.23	12.31	-44.5	-47.4	16.7	0.00e+00	0	43	0	197132288	59	5346
2026-01-17 07:35:10.07	53.99	12.34	-44.6	-47.5	16.6	0.00e+00	0	43	0	199229440	59	5434
2026-01-17 07:35:10.79	53.86	12.35	-44.6	-47.5	16.6	0.00e+00	0	43	0	201326592	59	5412
2026-01-17 07:35:12.07	53.61	12.38	-44.6	-47.4	16.7	0.00e+00	0	43	0	203423744	59	5365
2026-01-17 07:35:12.78	53.48	12.40	-44.5	-47.3	16.8	0.00e+00	0	43	0	204472320	59	5337
2026-01-17 07:35:14.06	53.24	12.42	-44.4	-47.2	16.9	0.00e+00	0	43	0	207618048	59	5271
2026-01-17 07:35:14.87	53.08	12.44	-44.5	-47.3	16.8	0.00e+00	0	43	0	208666624	59	5327
2026-01-17 07:35:16.00	52.87	12.46	-44.5	-47.3	16.8	0.00e+00	0	43	0	210763776	59	5333
2026-01-17 07:35:16.86	52.71	12.48	-44.5	-47.3	16.8	0.00e+00	0	43	0	212860928	59	5326
2026-01-17 07:35:17.99	52.49	12.51	-44.5	-47.3	16.7	0.00e+00	0	43	0	214958080	59	5339
2026-01-17 07:35:18.85	52.33	12.52	-44.4	-47.2	16.9	0.00e+00	0	43	0	216006656	59	5250
2026-01-17 07:35:19.98	52.11	12.54	-44.5	-47.3	16.8	0.00e+00	0	43	0	218103808	59	5323
2026-01-17 07:35:20.84	51.95	12.56	-44.5	-47.3	16.8	0.00e+00	0	43	0	220200960	59	5326
2026-01-17 07:35:21.97	51.73	12.58	-44.5	-47.3	16.8	0.00e+00	0	43	0	222298112	59	5318
2026-01-17 07:35:22.83	51.56	12.60	-44.6	-47.4	16.6	0.00e+00	0	43	0	223346688	59	5400
2026-01-17 07:35:24.03	51.33	12.62	-44.4	-47.2	16.9	0.00e+00	0	43	0	225443840	59	5235
2026-01-17 07:35:24.88	51.17	12.64	-44.5	-47.2	16.8	0.00e+00	0	43	0	227540992	59	5279
2026-01-17 07:35:26.08	50.94	12.66	-44.3	-47.0	17.0	0.00e+00	0	43	0	229638144	59	5146
2026-01-17 07:35:26.94	50.77	12.67	-44.2	-46.9	17.2	0.00e+00	0	43	0	231735296	59	5084
2026-01-17 07:35:28.07	50.56	12.69	-44.3	-47.0	17.1	0.00e+00	0	43	0	233832448	59	5143
2026-01-17 07:35:28.93	50.39	12.71	-44.3	-47.0	17.1	0.00e+00	0	43	0	234881024	59	5153
2026-01-17 07:35:30.07	50.17	12.73	-44.3	-47.0	17.1	0.00e+00	0	43	0	236978176	59	5118
2026-01-17 07:35:30.92	50.00	12.74	-44.2	-46.9	17.2	0.00e+00	0	43	0	239075328	59	5060
2026-01-17 07:35:32.05	49.78	12.76	-44.1	-46.7	17.4	0.00e+00	0	43	0	241172480	59	4966
2026-01-17 07:35:32.91	49.62	12.77	-44.1	-46.8	17.3	0.00e+00	0	43	0	242221056	59	5011
2026-01-17 07:35:34.04	49.40	12.79	-44.2	-46.9	17.2	0.00e+00	0	43	0	244318208	59	5057
2026-01-17 07:35:34.90	49.23	12.80	-44.1	-46.7	17.3	0.00e+00	0	43	0	246415360	59	4971
2026-01-17 07:35:36.04	49.01	12.82	-44.0	-46.7	17.4	0.00e+00	0	43	0	248512512	59	4962
2026-01-17 07:35:36.89	48.84	12.83	-44.0	-46.7	17.4	0.00e+00	0	43	0	249561088	59	4945
2026-01-17 07:35:38.03	48.62	12.85	-43.9	-46.5	17.5	0.00e+00	0	43	0	251658240	59	4869
2026-01-17 07:35:38.88	48.46	12.86	-43.8	-46.4	17.7	0.00e+00	0	43	0	253755392	59	4775
2026-01-17 07:35:40.02	48.23	12.88	-43.9	-46.5	17.6	0.00e+00	0	43	0	255852544	59	4825
2026-01-17 07:35:40.87	48.07	12.89	-43.9	-46.5	17.5	0.00e+00	0	43	0	257949696	59	4857
2026-01-17 07:35:42.01	47.84	12.90	-44.0	-46.7	17.4	0.00e+00	0	43	0	260046848	59	4953
2026-01-17 07:35:42.87	47.67	12.91	-44.0	-46.6	17.5	0.00e+00	0	43	0	261095424	59	4897
2026-01-17 07:35:44.00	47.45	12.93	-44.0	-46.6	17.4	0.00e+00	0	43	0	263192576	59	4911
2026-01-17 07:35:44.86	47.28	12.94	-43.9	-46.6	17.5	0.00e+00	0	43	0	265289728	59	4877
2026-01-17 07:35:45.99	47.06	12.95	-44.0	-46.6	17.5	0.00e+00	0	43	0	267386880	59	4925
2026-01-17 07:35:46.85	46.89	12.96	-44.1	-46.7	17.3	0.00e+00	0	43	0	268435456	59	4971
2026-01-17 07:35:48.25	46.62	12.98	-44.1	-46.8	17.3	0.00e+00	0	43	0	271581184	59	4992
2026-01-17 07:35:48.97	46.48	12.99	-44.1	-46.8	17.3	0.00e+00	0	43	0	272629760	59	5018
2026-01-17 07:35:50.42	46.19	13.00	-44.1	-46.8	17.3	0.00e+00	0	43	0	275775488	59	4988
2026-01-17 07:35:51.13	46.05	13.01	-44.0	-46.7	17.4	0.00e+00	0	43	0	276824064	59	4954
2026-01-17 07:35:52.42	45.79	13.02	-43.9	-46.6	17.5	0.00e+00	0	43	0	278921216	59	4900
2026-01-17 07:35:53.13	45.65	13.03	-44.0	-46.6	17.5	0.00e+00	0	43	0	279969792	59	4916
2026-01-17 07:35:54.47	45.39	13.04	-44.1	-46.7	17.3	0.00e+00	0	43	0	283115520	59	4982
2026-01-17 07:35:55.18	45.25	13.04	-43.9	-46.6	17.5	0.00e+00	0	43	0	284164096	59	4897
2026-01-17 07:35:56.46	45.00	13.06	-43.9	-46.6	17.5	0.00e+00	0	43	0	286261248	59	4892
2026-01-17 07:35:57.19	44.85	13.06	-44.0	-46.6	17.5	0.00e+00	0	43	0	288358400	59	4905
2026-01-17 07:35:58.52	44.59	13.07	-43.8	-46.4	17.6	0.00e+00	0	43	0	290455552	59	4802
2026-01-17 07:35:59.23	44.45	13.08	-43.7	-46.3	17.8	0.00e+00	0	43	0	291504128	59	4731
2026-01-17 07:36:00.51	44.19	13.09	-43.7	-46.3	17.8	0.00e+00	0	43	0	294649856	59	4733
2026-01-17 07:36:01.22	44.05	13.09	-43.8	-46.4	17.7	0.00e+00	0	43	0	295698432	59	4793
2026-01-17 07:36:02.50	43.80	13.10	-43.9	-46.5	17.5	0.00e+00	0	43	0	297795584	59	4838
2026-01-17 07:36:03.21	43.66	13.10	-43.9	-46.5	17.6	0.00e+00	0	43	0	298844160	59	4853
2026-01-17 07:36:04.49	43.40	13.11	-43.9	-46.5	17.6	0.00e+00	0	43	0	301989888	59	4853
2026-01-17 07:36:05.21	43.26	13.11	-43.8	-46.4	17.7	0.00e+00	0	43	0	303038464	59	4786
2026-01-17 07:36:06.50	43.00	13.12	-43.6	-46.2	17.9	0.00e+00	0	43	0	305135616	59	4655
2026-01-17 07:36:07.21	42.86	13.12	-43.7	-46.2	17.9	0.00e+00	0	43	0	307232768	59	4677
2026-01-17 07:36:08.83	42.54	13.13	-43.7	-46.3	17.8	0.00e+00	0	43	0	310378496	59	4737
2026-01-17 07:36:09.40	42.43	13.13	-43.8	-46.3	17.7	0.00e+00	0	44	0	311427072	59	4756
2026-01-17 07:36:11.09	42.09	13.14	-43.8	-46.4	17.7	0.00e+00	0	43	0	314572800	59	4780
2026-01-17 07:36:11.66	41.98	13.14	-43.8	-46.3	17.7	0.00e+00	0	43	0	315621376	59	4750
2026-01-17 07:36:13.35	41.64	13.14	-43.8	-46.4	17.7	0.00e+00	0	43	0	318767104	59	4774
2026-01-17 07:36:13.92	41.53	13.15	-43.8	-46.4	17.7	0.00e+00	0	43	0	319815680	59	4782
2026-01-17 07:36:15.63	41.19	13.15	-43.7	-46.3	17.7	0.00e+00	0	43	0	322961408	59	4753
2026-01-17 07:36:16.31	41.05	13.15	-43.8	-46.4	17.7	0.00e+00	0	43	0	324009984	59	4806
2026-01-17 07:36:17.73	40.77	13.15	-43.8	-46.5	17.6	0.00e+00	0	43	0	326107136	59	4825
2026-01-17 07:36:18.44	40.63	13.15	-43.9	-46.5	17.5	0.00e+00	0	43	0	328204288	59	4869
2026-01-17 07:36:19.72	40.37	13.15	-43.9	-46.5	17.6	0.00e+00	0	43	0	330301440	59	4830
2026-01-17 07:36:20.62	40.19	13.15	-43.9	-46.6	17.5	0.00e+00	0	43	0	332398592	59	4880
2026-01-17 07:36:21.65	39.99	13.15	-43.7	-46.3	17.7	0.00e+00	0	43	0	333447168	59	4745
2026-01-17 07:36:22.64	39.79	13.15	-43.8	-46.4	17.6	0.00e+00	0	44	0	335544320	59	4800
2026-01-17 07:36:23.63	39.59	13.15	-43.8	-46.5	17.6	0.00e+00	0	43	0	337641472	59	4850
2026-01-17 07:36:24.63	39.40	13.15	-43.9	-46.6	17.5	0.00e+00	0	43	0	339738624	59	4900
2026-01-17 07:36:25.63	39.20	13.15	-43.9	-46.7	17.4	0.00e+00	0	43	0	341835776	59	4944
2026-01-17 07:36:26.62	39.00	13.15	-44.0	-46.8	17.3	0.00e+00	0	43	0	342884352	59	4990
2026-01-17 07:36:27.61	38.80	13.14	-44.1	-46.9	17.2	0.00e+00	0	43	0	344981504	59	5061
2026-01-17 07:36:28.61	38.60	13.14	-44.1	-46.9	17.2	0.00e+00	0	43	0	347078656	59	5067
2026-01-17 07:36:29.61	38.40	13.14	-44.1	-47.0	17.1	0.00e+00	0	43	0	349175808	59	5105
2026-01-17 07:36:30.60	38.21	13.13	-44.1	-47.0	17.1	0.00e+00	0	43	0	350224384	59	5113
2026-01-17 07:36:31.67	37.99	13.13	-44.3	-47.2	16.9	0.00e+00	0	44	0	352321536	59	5232
2026-01-17 07:36:32.53	37.82	13.13	-44.2	-47.0	17.0	0.00e+00	0	43	0	354418688	59	5154
2026-01-17 07:36:33.66	37.60	13.12	-44.3	-47.2	16.9	0.00e+00	0	43	0	356515840	59	5256
2026-01-17 07:36:34.63	37.41	13.12	-44.3	-47.3	16.8	0.00e+00	0	43	0	358612992	59	5321
2026-01-17 07:36:35.80	37.17	13.11	-44.2	-47.2	16.9	0.00e+00	0	43	0	360710144	59	5237
2026-01-17 07:36:36.70	37.00	13.11	-44.3	-47.2	16.8	0.00e+00	0	43	0	361758720	59	5275
2026-01-17 07:36:37.96	36.75	13.10	-44.2	-47.1	17.0	0.00e+00	0	43	0	364904448	59	5202
2026-01-17 07:36:38.74	36.59	13.10	-44.1	-47.0	17.1	0.00e+00	0	43	0	365953024	59	5112
2026-01-17 07:36:40.06	36.33	13.09	-44.1	-47.0	17.1	0.00e+00	0	43	0	368050176	59	5118
2026-01-17 07:36:40.77	36.19	13.08	-44.2	-47.1	17.0	0.00e+00	0	43	0	370147328	59	5207
2026-01-17 07:36:42.05	35.94	13.07	-44.3	-47.3	16.8	0.00e+00	0	43	0	372244480	59	5296
2026-01-17 07:36:42.76	35.79	13.07	-44.3	-47.3	16.8	0.00e+00	0	43	0	373293056	59	5322
2026-01-17 07:36:44.24	35.50	13.06	-44.4	-47.5	16.6	0.00e+00	0	43	0	376438784	59	5416
2026-01-17 07:36:44.95	35.36	13.05	-44.4	-47.4	16.7	0.00e+00	0	43	0	377487360	59	5384
2026-01-17 07:36:46.23	35.11	13.04	-44.4	-47.3	16.8	0.00e+00	0	43	0	379584512	59	5283
2026-01-17 07:36:46.96	34.96	13.03	-44.4	-47.2	16.9	0.00e+00	0	43	0	381681664	59	5263
2026-01-17 07:36:48.24	34.71	13.02	-44.2	-47.0	17.1	0.00e+00	0	43	0	383778816	59	5103
2026-01-17 07:36:48.96	34.57	13.01	-44.2	-47.0	17.1	0.00e+00	0	43	0	384827392	59	5122
2026-01-17 07:36:50.24	34.32	13.00	-44.2	-46.9	17.2	0.00e+00	0	43	0	387973120	59	5083
2026-01-17 07:36:50.95	34.18	12.99	-44.2	-47.0	17.2	0.00e+00	0	43	0	389021696	59	5101
2026-01-17 07:36:52.23	33.93	12.98	-44.3	-47.1	17.0	0.00e+00	0	43	0	391118848	59	5176
2026-01-17 07:36:53.00	33.77	12.97	-44.3	-47.0	17.0	0.00e+00	0	43	0	393216000	59	5145
2026-01-17 07:36:54.28	33.52	12.96	-44.4	-47.2	16.9	0.00e+00	0	43	0	395313152	59	5257
2026-01-17 07:36:55.06	33.37	12.95	-44.4	-47.3	16.8	0.00e+00	0	43	0	396361728	59	5280
2026-01-17 07:36:56.34	33.12	12.93	-44.4	-47.2	16.9	0.00e+00	0	43	0	398458880	59	5277
2026-01-17 07:36:57.05	32.98	12.93	-44.4	-47.2	16.9	0.00e+00	0	43	0	400556032	59	5237
2026-01-17 07:36:58.32	32.73	12.91	-44.3	-47.2	17.0	0.00e+00	0	43	0	402653184	59	5223
2026-01-17 07:36:59.05	32.59	12.90	-44.2	-47.1	17.0	0.00e+00	0	43	0	403701760	59	5175
2026-01-17 07:37:00.33	32.34	12.88	-44.1	-46.9	17.2	0.00e+00	0	43	0	406847488	59	5078
2026-01-17 07:37:01.06	32.19	12.87	-44.0	-46.8	17.3	0.00e+00	0	43	0	407896064	59	5006
2026-01-17 07:37:02.34	31.95	12.86	-43.9	-46.7	17.4	0.00e+00	0	43	0	409993216	59	4943
2026-01-17 07:37:03.05	31.81	12.85	-44.0	-46.8	17.3	0.00e+00	0	43	0	412090368	59	5012
2026-01-17 07:37:04.33	31.56	12.83	-44.1	-46.8	17.3	0.00e+00	0	43	0	414187520	59	5019
2026-01-17 07:37:05.07	31.41	12.82	-44.1	-46.8	17.3	0.00e+00	0	43	0	415236096	59	5028
2026-01-17 07:37:06.35	31.16	12.80	-44.1	-46.8	17.2	0.00e+00	0	43	0	417333248	59	5039
2026-01-17 07:37:07.08	31.02	12.79	-44.2	-47.0	17.1	0.00e+00	0	43	0	419430400	59	5114
2026-01-17 07:37:08.36	30.77	12.77	-44.2	-46.9	17.2	0.00e+00	0	43	0	421527552	59	5068
2026-01-17 07:37:09.08	30.64	12.75	-44.2	-47.0	17.1	0.00e+00	0	43	0	422576128	59	5111
2026-01-17 07:37:10.36	30.39	12.73	-44.3	-47.0	17.1	0.00e+00	0	43	0	425721856	59	5140
2026-01-17 07:37:11.09	30.25	12.72	-44.4	-47.1	17.0	0.00e+00	0	43	0	426770432	59	5216
2026-01-17 07:37:12.36	30.00	12.70	-44.2	-46.9	17.2	0.00e+00	0	43	0	428867584	59	5078
2026-01-17 07:37:13.08	29.86	12.69	-44.2	-47.0	17.1	0.00e+00	0	43	0	429916160	59	5101
2026-01-17 07:37:14.65	29.56	12.66	-44.3	-47.1	17.0	0.00e+00	0	44	0	433061888	59	5193
2026-01-17 07:37:15.29	29.44	12.65	-44.3	-47.1	17.0	0.00e+00	0	43	0	434110464	59	5207
2026-01-17 07:37:16.79	29.15	12.62	-44.2	-47.1	17.0	0.00e+00	0	43	0	437256192	59	5173
2026-01-17 07:37:17.50	29.01	12.61	-44.2	-47.1	17.0	0.00e+00	0	43	0	438304768	59	5169
2026-01-17 07:37:18.78	28.77	12.58	-44.3	-47.2	16.9	0.00e+00	0	43	0	441450496	59	5236
2026-01-17 07:37:19.49	28.63	12.57	-44.3	-47.2	17.0	0.00e+00	0	43	0	442499072	59	5226
2026-01-17 07:37:20.77	28.39	12.55	-44.2	-47.1	17.0	0.00e+00	0	43	0	444596224	59	5199
2026-01-17 07:37:21.50	28.25	12.53	-44.2	-47.1	17.0	0.00e+00	0	43	0	446693376	59	5164
2026-01-17 07:37:22.78	28.00	12.51	-44.2	-47.0	17.1	0.00e+00	0	43	0	448790528	59	5145
2026-01-17 07:37:23.50	27.87	12.49	-44.1	-46.9	17.2	0.00e+00	0	43	0	449839104	59	5074
2026-01-17 07:37:24.78	27.62	12.46	-44.1	-46.9	17.2	0.00e+00	0	43	0	451936256	59	5091
2026-01-17 07:37:25.49	27.49	12.45	-44.2	-47.0	17.1	0.00e+00	0	43	0	454033408	59	5157
2026-01-17 07:37:26.77	27.25	12.42	-44.2	-47.1	17.0	0.00e+00	0	43	0	456130560	59	5178
2026-01-17 07:37:27.50	27.11	12.41	-44.2	-47.1	17.0	0.00e+00	0	44	0	457179136	59	5185
2026-01-17 07:37:28.78	26.87	12.38	-44.3	-47.1	17.0	0.00e+00	0	43	0	459276288	59	5193
2026-01-17 07:37:29.49	26.73	12.36	-44.3	-47.1	17.0	0.00e+00	0	43	0	461373440	59	5203
2026-01-17 07:37:30.76	26.49	12.33	-44.3	-47.2	16.9	0.00e+00	0	43	0	463470592	59	5250
2026-01-17 07:37:31.49	26.36	12.32	-44.3	-47.2	16.8	0.00e+00	0	44	0	464519168	59	5273
2026-01-17 07:37:32.77	26.12	12.29	-44.2	-47.1	17.0	0.00e+00	0	44	0	467664896	59	5175
2026-01-17 07:37:33.49	25.98	12.27	-44.1	-47.0	17.0	0.00e+00	0	43	0	468713472	59	5140
2026-01-17 07:37:34.77	25.74	12.24	-44.0	-46.9	17.1	0.00e+00	0	43	0	470810624	59	5085
2026-01-17 07:37:35.48	25.61	12.23	-43.9	-46.8	17.2	0.00e+00	0	43	0	471859200	59	5037
2026-01-17 07:37:36.76	25.37	12.19	-44.0	-47.0	17.1	0.00e+00	0	43	0	475004928	59	5102
2026-01-17 07:37:37.47	25.24	12.18	-43.9	-46.8	17.2	0.00e+00	0	43	0	476053504	59	5013
2026-01-17 07:37:38.75	25.00	12.15	-43.9	-46.9	17.1	0.00e+00	0	43	0	478150656	59	5057
2026-01-17 07:37:39.48	24.87	12.13	-44.0	-46.9	17.1	0.00e+00	0	43	0	480247808	59	5095
2026-01-17 07:37:40.76	24.63	12.10	-44.1	-47.0	17.0	0.00e+00	0	43	0	482344960	59	5146
2026-01-17 07:37:41.48	24.50	12.08	-44.2	-47.1	17.1	0.00e+00	0	43	0	483393536	59	5163
2026-01-17 07:37:42.76	24.26	12.04	-44.1	-46.9	17.1	0.00e+00	0	43	0	486539264	59	5083
2026-01-17 07:37:43.47	24.13	12.03	-44.1	-46.9	17.1	0.00e+00	0	43	0	487587840	59	5100
2026-01-17 07:37:44.75	23.89	11.99	-44.2	-47.0	17.1	0.00e+00	0	44	0	489684992	59	5130
2026-01-17 07:37:45.46	23.76	11.97	-44.1	-47.0	17.1	0.00e+00	0	43	0	490733568	59	5105
2026-01-17 07:37:46.74	23.53	11.94	-44.1	-46.9	17.1	0.00e+00	0	43	0	493879296	59	5073
2026-01-17 07:37:47.46	23.40	11.92	-44.1	-46.9	17.2	0.00e+00	0	43	0	494927872	59	5064
2026-01-17 07:37:48.74	23.16	11.89	-44.0	-46.8	17.3	0.00e+00	0	43	0	497025024	59	4986
2026-01-17 07:37:49.46	23.03	11.87	-44.0	-46.7	17.4	0.00e+00	0	43	0	498073600	59	4932
2026-01-17 07:37:50.73	22.80	11.83	-44.0	-46.7	17.3	0.00e+00	0	43	0	501219328	59	4951
2026-01-17 07:37:51.45	22.67	11.81	-44.0	-46.7	17.3	0.00e+00	0	43	0	502267904	59	4962
2026-01-17 07:37:52.72	22.44	11.78	-43.9	-46.6	17.4	0.00e+00	0	43	0	504365056	59	4895
2026-01-17 07:37:53.45	22.31	11.75	-43.9	-46.6	17.4	0.00e+00	0	43	0	506462208	59	4895
2026-01-17 07:37:54.73	22.08	11.72	-43.9	-46.7	17.4	0.00e+00	0	44	0	508559360	59	4947
2026-01-17 07:37:55.45	21.95	11.70	-43.7	-46.5	17.5	0.00e+00	0	43	0	509607936	59	4863
2026-01-17 07:37:56.78	21.71	11.66	-43.5	-46.4	17.6	0.00e+00	0	44	0	512753664	59	4778
2026-01-17 07:37:57.49	21.58	11.64	-43.5	-46.4	17.5	0.00e+00	0	43	0	513802240	59	4802
2026-01-17 07:37:58.77	21.35	11.60	-43.4	-46.3	17.6	0.00e+00	0	43	0	515899392	58	4989
2026-01-17 07:37:59.50	21.22	11.58	-43.4	-46.3	17.5	0.00e+00	0	43	0	516947968	58	5037
2026-01-17 07:38:00.78	21.00	11.54	-43.5	-46.4	17.5	0.00e+00	0	43	0	520093696	58	5048
2026-01-17 07:38:01.49	20.87	11.52	-43.5	-46.5	17.5	0.00e+00	0	43	0	521142272	58	5113
2026-01-17 07:38:02.77	20.64	11.48	-43.6	-46.5	17.5	0.00e+00	0	43	0	523239424	58	5131
2026-01-17 07:38:03.49	20.51	11.46	-43.6	-46.6	17.5	0.00e+00	0	44	0	525336576	58	5169
2026-01-17 07:38:04.77	20.29	11.42	-43.7	-46.7	17.3	0.00e+00	0	43	0	527433728	58	5264
2026-01-17 07:38:05.50	20.16	11.39	-43.6	-46.6	17.3	0.00e+00	0	43	0	528482304	58	5213
2026-01-17 07:38:06.78	19.93	11.35	-43.7	-46.7	17.3	0.00e+00	0	43	0	530579456	58	5225
2026-01-17 07:38:07.49	19.81	11.33	-43.7	-46.7	17.2	0.00e+00	0	43	0	532676608	58	5252
2026-01-17 07:38:08.77	19.59	11.29	-43.7	-46.6	17.1	0.00e+00	0	43	0	534773760	58	5195
2026-01-17 07:38:09.67	19.43	11.26	-43.6	-46.5	16.9	0.00e+00	0	43	0	536870912	58	5121
2026-01-17 07:38:11.01	19.20	11.22	-43.6	-46.4	15.7	0.00e+00	0	43	0	538968064	58	5097
2026-01-17 07:38:11.72	19.07	11.19	-43.5	-46.4	15.3	0.00e+00	0	43	0	540016640	58	5051
2026-01-17 07:38:13.00	18.85	11.15	-43.6	-46.4	15.3	0.00e+00	0	43	0	543162368	58	5065
2026-01-17 07:38:13.71	18.73	11.13	-43.7	-46.5	15.9	0.00e+00	0	44	0	544210944	58	5145
2026-01-17 07:38:14.98	18.51	11.09	-43.7	-46.5	16.8	0.00e+00	0	44	0	546308096	58	5107
2026-01-17 07:38:15.69	18.39	11.06	-43.7	-46.3	17.4	0.00e+00	0	43	0	547356672	58	5033
2026-01-17 07:38:16.97	18.17	11.02	-43.7	-46.3	17.5	0.00e+00	0	44	0	550502400	58	5018
2026-01-17 07:38:17.71	18.04	11.00	-43.8	-46.4	17.3	0.00e+00	0	43	0	551550976	58	5079
2026-01-17 07:38:18.99	17.82	10.95	-43.7	-46.3	17.0	0.00e+00	0	43	0	553648128	58	5027
2026-01-17 07:38:19.90	17.66	10.92	-43.9	-46.6	16.5	0.00e+00	0	44	0	555745280	58	5161
2026-01-17 07:38:20.90	17.49	10.89	-43.8	-46.5	17.0	0.00e+00	0	43	0	557842432	58	5105
2026-01-17 07:38:21.90	17.32	10.85	-43.9	-46.6	17.2	0.00e+00	0	43	0	559939584	58	5211
2026-01-17 07:38:22.89	17.16	10.82	-43.9	-46.7	16.9	0.00e+00	0	43	0	560988160	58	5224
2026-01-17 07:38:23.89	16.99	10.78	-43.9	-46.8	16.8	0.00e+00	0	43	0	563085312	58	5312
2026-01-17 07:38:24.88	16.82	10.75	-44.0	-46.9	16.7	0.00e+00	0	43	0	565182464	58	5381
2026-01-17 07:38:25.88	16.65	10.71	-44.0	-47.0	16.8	0.00e+00	0	43	0	567279616	58	5410
2026-01-17 07:38:26.87	16.49	10.68	-44.0	-47.1	16.9	0.00e+00	0	44	0	568328192	58	5474
2026-01-17 07:38:27.87	16.32	10.64	-44.1	-47.2	16.8	0.00e+00	0	43	0	570425344	58	5558
2026-01-17 07:38:28.86	16.15	10.61	-44.1	-47.2	16.8	0.00e+00	0	44	0	572522496	58	5583
2026-01-17 07:38:29.93	15.98	10.57	-44.1	-47.3	16.6	0.00e+00	0	43	0	574619648	58	5629
2026-01-17 07:38:30.82	15.83	10.53	-44.0	-47.3	16.6	0.00e+00	0	43	0	575668224	58	5600
2026-01-17 07:38:31.96	15.64	10.49	-44.1	-47.3	16.7	0.00e+00	0	44	0	577765376	58	5643
2026-01-17 07:38:32.81	15.50	10.46	-44.0	-47.3	16.7	0.00e+00	0	43	0	579862528	58	5627
2026-01-17 07:38:33.95	15.31	10.42	-44.1	-47.4	16.6	0.00e+00	0	43	0	581959680	58	5716
2026-01-17 07:38:34.80	15.17	10.39	-44.2	-47.6	16.4	0.00e+00	0	43	0	584056832	59	5509
2026-01-17 07:38:35.94	14.98	10.35	-44.2	-47.6	16.4	0.00e+00	0	43	0	586153984	59	5475
2026-01-17 07:38:36.79	14.85	10.31	-44.3	-47.7	16.3	0.00e+00	0	43	0	587202560	59	5565
2026-01-17 07:38:37.93	14.66	10.27	-44.4	-47.7	16.3	0.00e+00	0	43	0	589299712	59	5580
2026-01-17 07:38:38.78	14.52	10.24	-44.4	-47.7	16.2	0.00e+00	0	43	0	591396864	59	5579
2026-01-17 07:38:39.92	14.34	10.20	-44.5	-47.8	16.2	0.00e+00	0	43	0	593494016	59	5630
2026-01-17 07:38:40.77	14.20	10.16	-44.7	-48.0	16.0	0.00e+00	0	43	0	594542592	59	5738
2026-01-17 07:38:41.91	14.01	10.12	-44.7	-48.1	15.9	0.00e+00	0	43	0	596639744	60	5509
2026-01-17 07:38:42.76	13.88	10.09	-44.8	-48.2	15.8	0.00e+00	0	43	0	598736896	60	5559
2026-01-17 07:38:44.01	13.68	10.04	-45.0	-48.3	15.7	0.00e+00	0	43	0	600834048	60	5649
2026-01-17 07:38:44.86	13.54	10.01	-45.0	-48.4	15.7	0.00e+00	0	43	0	602931200	60	5670
2026-01-17 07:38:46.00	13.36	9.96	-45.0	-48.5	15.6	0.00e+00	0	43	0	605028352	60	5727
2026-01-17 07:38:46.85	13.22	9.93	-45.1	-48.6	15.5	0.00e+00	0	44	0	606076928	60	5819
2026-01-17 07:38:47.99	13.04	9.88	-45.1	-48.7	15.4	7.00e-07	0	43	0	608174080	60	5858
2026-01-17 07:38:48.84	12.91	9.85	-45.1	-48.7	15.4	0.00e+00	0	43	0	610271232	60	5860
2026-01-17 07:38:49.98	12.73	9.81	-45.1	-48.6	15.5	7.00e-07	0	43	0	612368384	60	5833
2026-01-17 07:38:50.83	12.59	9.77	-45.1	-48.8	15.3	0.00e+00	0	44	0	613416960	60	5938
2026-01-17 07:38:51.97	12.42	9.73	-45.1	-48.8	15.3	0.00e+00	0	43	0	615514112	60	5941
2026-01-17 07:38:52.82	12.28	9.69	-45.3	-49.0	15.1	0.00e+00	0	43	0	617611264	61	5726
2026-01-17 07:38:54.34	12.04	9.63	-45.2	-49.0	15.1	0.00e+00	0	43	0	619708416	61	5723
2026-01-17 07:38:55.05	11.93	9.60	-45.2	-49.1	15.0	0.00e+00	0	43	0	621805568	61	5805
2026-01-17 07:38:56.32	11.74	9.55	-45.2	-49.1	15.0	0.00e+00	0	44	0	623902720	61	5799
2026-01-17 07:38:57.03	11.63	9.52	-45.0	-49.0	15.1	0.00e+00	0	43	0	624951296	61	5736
2026-01-17 07:38:58.31	11.43	9.47	-45.1	-49.3	14.8	7.00e-07	0	44	0	628097024	61	5932
2026-01-17 07:38:59.02	11.32	9.44	-45.0	-49.2	14.8	0.00e+00	0	44	0	629145600	61	5908
2026-01-17 07:39:00.30	11.12	9.39	-45.0	-49.5	14.6	7.00e-07	0	43	0	631242752	61	6070
2026-01-17 07:39:01.02	11.01	9.36	-45.0	-49.7	14.4	0.00e+00	0	44	0	632291328	61	6208
2026-01-17 07:39:02.29	10.82	9.31	-45.0	-49.9	14.1	0.00e+00	0	43	0	635437056	61	6393
2026-01-17 07:39:03.02	10.71	9.28	-44.9	-50.0	14.1	3.00e-06	0	43	0	636485632	61	6423
2026-01-17 07:39:04.30	10.52	9.23	-44.8	-50.0	14.1	3.00e-06	0	43	0	638582784	61	6443
2026-01-17 07:39:05.04	10.40	9.20	-44.7	-49.9	14.1	1.50e-06	0	43	0	640679936	61	6381
2026-01-17 07:39:06.32	10.21	9.14	-44.6	-49.8	14.2	2.20e-06	0	44	0	642777088	61	6321
2026-01-17 07:39:07.03	10.10	9.11	-44.6	-49.8	14.2	1.50e-06	0	44	0	643825664	61	6312
2026-01-17 07:39:08.31	9.91	9.06	-44.5	-49.9	14.2	2.20e-06	0	43	0	645922816	61	6357
2026-01-17 07:39:09.04	9.80	9.03	-44.4	-49.8	14.3	7.00e-07	0	44	0	648019968	60	6659
2026-01-17 07:39:10.32	9.61	8.98	-48.1	-64.6	3.8	9.41e-02	0	43	104	650117120	66	26074
2026-01-17 07:39:11.04	9.51	8.94	-49.4	-65.5	3.8	1.49e+00	0	44	104	650117120	69	24283
2026-01-17 07:39:12.32	9.32	8.89	-49.2	-65.4	3.8	1.49e+00	0	43	104	650117120	69	24048
2026-01-17 07:39:13.03	9.21	8.86	-50.3	-65.7	3.8	1.49e+00	0	43	104	650117120	71	22078
2026-01-17 07:39:14.30	9.02	8.81	-50.2	-65.7	3.8	1.49e+00	0	44	104	650117120	71	22122
2026-01-17 07:39:15.01	8.92	8.78	-50.1	-65.6	3.8	1.49e+00	0	44	104	650117120	71	21918
2026-01-17 07:39:16.29	8.73	8.72	-50.2	-65.9	3.8	1.49e+00	0	43	104	650117120	71	22561
2026-01-17 07:39:17.00	8.63	8.69	-50.4	-65.9	3.8	1.49e+00	0	43	104	650117120	71	22585
2026-01-17 07:39:18.28	8.44	8.64	-50.5	-66.0	3.8	1.49e+00	0	43	104	650117120	71	22812
2026-01-17 07:39:18.99	8.34	8.61	-50.4	-66.0	3.8	1.49e+00	0	43	104	650117120	71	22831
2026-01-17 07:39:20.26	8.16	8.55	-50.7	-66.0	3.8	1.49e+00	0	43	104	650117120	71	22916
2026-01-17 07:39:20.97	8.05	8.52	-50.7	-66.0	3.8	1.49e+00	0	44	104	650117120	71	22938
2026-01-17 07:39:22.25	7.87	8.47	-50.6	-66.0	3.8	1.49e+00	0	43	104	650117120	72	21508
2026-01-17 07:39:22.96	7.77	8.43	-50.7	-66.0	3.8	1.49e+00	0	43	104	650117120	72	21618
2026-01-17 07:39:24.25	7.58	8.38	-50.7	-66.0	3.8	1.49e+00	0	44	104	650117120	72	21657
2026-01-17 07:39:24.96	7.48	8.35	-50.5	-66.0	3.8	1.49e+00	0	44	104	650117120	72	21699
2026-01-17 07:39:26.24	7.30	8.29	-50.5	-66.0	3.8	1.49e+00	0	43	104	650117120	72	21651
2026-01-17 07:39:26.96	7.20	8.26	-50.6	-66.0	3.8	1.49e+00	0	43	104	650117120	72	21605
2026-01-17 07:39:28.24	7.02	8.20	-50.8	-66.0	3.8	1.49e+00	0	43	104	650117120	72	21593
2026-01-17 07:39:28.95	6.92	8.17	-50.8	-66.0	3.8	1.49e+00	0	43	104	650117120	72	21605
2026-01-17 07:39:30.23	6.74	8.12	-50.7	-66.0	3.8	1.49e+00	0	43	104	650117120	72	21747
2026-01-17 07:39:30.94	6.64	8.08	-50.8	-66.0	3.8	1.49e+00	0	43	104	650117120	72	21666
2026-01-17 07:39:32.21	6.46	8.03	-50.7	-66.0	3.8	1.49e+00	0	43	104	650117120	72	21635
2026-01-17 07:39:32.94	6.36	8.00	-50.7	-66.0	3.8	1.49e+00	0	44	104	650117120	72	21682
2026-01-17 07:39:34.21	6.18	7.94	-50.7	-66.0	3.8	1.49e+00	0	44	104	650117120	72	21666
2026-01-17 07:39:34.92	6.09	7.91	-50.6	-66.0	3.8	1.49e+00	0	44	104	650117120	72	21714
2026-01-17 07:39:36.20	5.91	7.85	-50.5	-66.0	3.8	1.49e+00	0	43	104	650117120	72	21545
2026-01-17 07:39:36.91	5.81	7.82	-50.4	-66.0	3.8	1.49e+00	0	44	104	650117120	72	21532
2026-01-17 07:39:38.19	5.64	7.76	-50.4	-65.9	3.8	1.49e+00	0	44	104	650117120	72	21466
2026-01-17 07:39:38.90	5.54	7.73	-50.4	-66.0	3.8	1.49e+00	0	44	104	650117120	72	21513
2026-01-17 07:39:40.17	5.37	7.67	-50.4	-66.0	3.8	1.49e+00	0	43	104	650117120	72	21575
2026-01-17 07:39:40.88	5.27	7.64	-50.4	-65.9	3.8	1.49e+00	0	43	104	650117120	72	21465
2026-01-17 07:39:42.16	5.10	7.58	-50.4	-66.0	3.8	1.49e+00	0	43	104	650117120	72	21523
2026-01-17 07:39:42.87	5.00	7.55	-50.4	-66.0	3.8	1.49e+00	0	44	104	650117120	72	21531
2026-01-17 07:39:44.15	4.83	7.49	-50.4	-66.0	3.8	1.49e+00	0	44	104	650117120	72	21522
2026-01-17 07:39:44.87	4.74	7.46	-50.4	-66.0	3.8	1.49e+00	0	44	104	650117120	72	21554
2026-01-17 07:39:46.15	4.56	7.40	-50.4	-66.0	3.8	1.49e+00	0	43	104	650117120	72	21536
2026-01-17 07:39:46.87	4.47	7.37	-50.4	-65.9	3.8	1.49e+00	0	44	104	650117120	72	21486
2026-01-17 07:39:48.15	4.30	7.31	-50.4	-65.9	3.8	1.49e+00	0	43	104	650117120	72	21494
2026-01-17 07:39:48.86	4.21	7.28	-50.4	-65.9	3.8	1.49e+00	0	44	104	650117120	72	21479
2026-01-17 07:39:50.14	4.04	7.22	-50.4	-65.9	3.8	1.49e+00	0	44	104	650117120	72	21481
2026-01-17 07:39:50.85	3.94	7.19	-50.4	-65.9	3.8	1.49e+00	0	43	104	650117120	72	21392
2026-01-17 07:39:52.12	3.78	7.13	-50.4	-65.9	3.8	1.49e+00	0	43	104	650117120	72	21459
2026-01-17 07:39:52.84	3.68	7.10	-50.4	-66.0	3.8	1.49e+00	0	44	104	650117120	72	21534
2026-01-17 07:39:54.11	3.52	7.04	-50.4	-65.9	3.8	1.49e+00	0	44	104	650117120	72	21467
2026-01-17 07:39:54.82	3.43	7.01	-50.4	-66.0	3.8	1.49e+00	0	44	104	650117120	72	21520
2026-01-17 07:39:56.10	3.26	6.95	-50.4	-66.0	3.8	1.49e+00	0	44	104	650117120	72	21526
2026-01-17 07:39:56.81	3.17	6.92	-50.4	-65.9	3.8	1.49e+00	0	44	104	650117120	72	21466
2026-01-17 07:39:58.08	3.01	6.86	-50.4	-65.9	3.8	1.49e+00	0	43	104	650117120	72	21415
2026-01-17 07:39:58.81	2.91	6.83	-50.4	-65.9	3.8	1.49e+00	0	44	104	650117120	72	21415
2026-01-17 07:40:00.08	2.75	6.77	-50.4	-65.9	3.8	1.49e+00	0	44	104	650117120	72	21457
2026-01-17 07:40:00.79	2.66	6.73	-50.4	-65.9	3.8	1.49e+00	0	44	104	650117120	72	21375
2026-01-17 07:40:02.07	2.50	6.68	-50.4	-65.9	3.8	1.49e+00	0	44	104	650117120	72	21440
2026-01-17 07:40:02.78	2.41	6.64	-50.4	-65.9	3.8	1.49e+00	0	44	104	650117120	72	21368
2026-01-17 07:40:04.06	2.25	6.58	-50.3	-66.0	3.8	1.49e+00	0	44	104	650117120	72	21525
2026-01-17 07:40:04.77	2.16	6.55	-50.4	-65.9	3.8	1.49e+00	0	44	104	650117120	72	21456
2026-01-17 07:40:06.04	2.00	6.49	-50.4	-65.9	3.8	1.49e+00	0	44	104	650117120	72	21434
2026-01-17 07:40:06.75	1.91	6.46	-50.3	-65.9	3.8	1.49e+00	0	44	104	650117120	72	21394
2026-01-17 07:40:08.03	1.75	6.40	-50.4	-65.9	3.8	1.49e+00	0	44	104	650117120	72	21406
2026-01-17 07:40:08.75	1.66	6.37	-50.4	-65.9	3.8	1.49e+00	0	43	104	650117120	72	21440
2026-01-17 07:40:10.03	1.50	6.31	-50.3	-65.9	3.8	1.49e+00	0	44	104	650117120	72	21400
2026-01-17 07:40:10.74	1.42	6.27	-50.3	-65.9	3.8	1.49e+00	0	44	104	650117120	72	21504
2026-01-17 07:40:12.02	1.26	6.21	-50.3	-65.9	3.8	1.49e+00	0	44	104	650117120	72	21428
2026-01-17 07:40:12.73	1.17	6.18	-50.3	-65.9	3.8	1.49e+00	0	43	104	650117120	72	21469
2026-01-17 07:40:14.01	1.02	6.12	-50.3	-65.9	3.8	1.49e+00	0	44	104	650117120	72	21368
2026-01-17 07:40:14.71	0.93	6.09	-50.3	-65.9	3.8	1.49e+00	0	44	104	650117120	72	21394
2026-01-17 07:40:15.99	0.78	6.03	-50.3	-65.9	3.8	1.49e+00	0	44	104	650117120	72	21433
2026-01-17 07:40:16.70	0.69	5.99	-50.3	-65.9	3.8	1.49e+00	0	44	104	650117120	72	21342
2026-01-17 07:40:17.98	0.54	5.93	-50.3	-65.9	3.8	1.49e+00	0	44	104	650117120	72	21375
2026-01-17 07:40:18.69	0.45	5.90	-50.4	-65.9	3.8	1.49e+00	0	44	104	650117120	72	21426
2026-01-17 07:40:19.97	0.30	5.84	-50.3	-65.9	3.8	1.49e+00	0	44	104	650117120	72	21435
2026-01-17 07:40:20.68	0.22	5.81	-50.4	-65.9	3.8	1.49e+00	0	44	104	650117120	72	21464
2026-01-17 07:40:21.95	0.06	5.75	-50.3	-65.9	3.8	1.49e+00	0	44	104	650117120	72	21378
2026-01-17 07:40:22.66	359.98	5.71	-50.3	-65.9	3.8	1.49e+00	0	44	104	650117120	72	21382
2026-01-17 07:40:23.94	359.83	5.65	-50.3	-65.9	3.8	1.49e+00	0	44	104	650117120	72	21415
2026-01-17 07:40:24.67	359.74	5.62	-50.4	-65.9	3.8	1.49e+00	0	44	104	650117120	72	21435
2026-01-17 07:40:25.95	359.59	5.56	-50.3	-65.9	3.8	1.49e+00	0	44	104	650117120	72	21431
2026-01-17 07:40:26.65	359.51	5.53	-50.3	-65.9	3.8	1.49e+00	0	44	104	650117120	72	21328
2026-01-17 07:40:27.93	359.36	5.47	-50.3	-65.9	3.8	1.49e+00	0	44	104	650117120	72	21407
2026-01-17 07:40:28.64	359.28	5.43	-50.3	-65.9	3.8	1.49e+00	0	43	104	650117120	72	21405
2026-01-17 07:40:29.92	359.13	5.37	-50.3	-65.9	3.8	1.49e+00	0	44	104	650117120	72	21429
2026-01-17 07:40:30.64	359.05	5.34	-50.3	-65.9	3.8	1.49e+00	0	44	104	650117120	72	21410
2026-01-17 07:40:31.92	358.90	5.28	-50.3	-65.9	3.8	1.49e+00	0	44	104	650117120	72	21375
2026-01-17 07:40:32.63	358.82	5.24	-50.3	-65.9	3.8	1.49e+00	0	44	104	650117120	72	21400
2026-01-17 07:40:33.92	358.67	5.18	-50.3	-65.9	3.8	1.49e+00	0	44	104	650117120	72	21356
2026-01-17 07:40:34.63	358.59	5.15	-50.3	-65.9	3.8	1.49e+00	0	44	104	650117120	72	21482
2026-01-17 07:40:35.92	358.45	5.09	-50.3	-65.9	3.8	1.49e+00	0	43	104	650117120	72	21354
2026-01-17 07:40:36.63	358.37	5.06	-50.3	-65.9	3.8	1.49e+00	0	43	104	650117120	72	21394
2026-01-17 07:40:37.91	358.22	4.99	-50.3	-65.9	3.8	1.49e+00	0	43	104	650117120	72	21397

#Closed at: 2026-01-17 07:40:38
#Recorded file [650 MB]: D:/Data/31040_260117_103203.dat